X,Y,Z,Reflectivity
88.458,-5.159,7.233,26.0
90.382,-5.245,6.874,9.0
89.706,-5.179,6.302,22.0
92.274,-5.3,5.956,9.0
111.885,-6.395,6.585,7.0
92.882,-5.299,8.065,13.0
88.866,-5.044,7.208,18.0
94.677,-5.347,7.138,13.0
87.796,-4.932,6.108,9.0
92.61,-5.177,5.916,18.0
112.512,-6.257,6.546,11.0
89.095,-4.944,7.675,23.0
88.559,-4.888,7.122,24.0
98.183,-5.391,7.333,10.0
87.791,-4.795,6.046,24.0
111.576,-6.063,7.048,11.0
119.287,-6.448,6.854,7.0
88.806,-4.789,7.585,27.0
89.086,-4.779,7.097,21.0
88.678,-4.731,6.557,17.0
92.539,-4.91,6.303,10.0
108.635,-5.735,6.779,9.0
112.142,-5.888,6.357,12.0
88.655,-4.643,7.503,13.0
89.072,-4.64,7.027,17.0
88.821,-4.601,6.497,12.0
88.094,-4.538,5.931,9.0
92.02,-4.715,5.669,16.0
97.934,-4.992,5.474,13.0
90.027,-4.576,7.546,25.0
88.942,-4.495,6.943,14.0
89.027,-4.474,6.439,25.0
91.481,-4.572,6.083,12.0
111.683,-5.552,6.787,13.0
112.432,-5.558,6.19,12.0
89.377,-4.405,7.415,28.0
88.293,-4.327,6.816,17.0
89.043,-4.338,6.363,22.0
91.606,-4.437,6.011,5.0
108.707,-5.235,6.51,10.0
112.103,-5.368,6.071,14.0
89.305,-4.263,7.328,12.0
88.146,-4.182,6.725,16.0
89.0,-4.197,6.278,11.0
90.895,-4.262,5.88,22.0
97.983,-4.569,5.778,16.0
112.08,-5.196,5.966,16.0
88.744,-4.1,7.197,7.0
88.725,-4.074,6.685,12.0
91.101,-4.158,6.34,16.0
91.155,-4.135,5.81,20.0
89.869,-4.053,5.211,15.0
97.76,-4.383,5.11,5.0
88.13,-3.936,7.061,16.0
89.033,-3.953,6.62,18.0
91.264,-4.027,6.26,10.0
90.936,-3.988,5.705,14.0
89.86,-3.917,5.122,19.0
120.215,-5.208,6.162,11.0
88.241,-3.806,6.979,22.0
88.578,-3.797,6.494,14.0
89.456,-3.811,6.043,13.0
89.734,-3.799,5.537,14.0
98.332,-4.137,5.501,16.0
113.473,-4.745,5.697,8.0
88.258,-3.675,6.887,21.0
88.004,-3.641,6.358,18.0
88.219,-3.627,5.866,22.0
89.961,-3.675,5.454,7.0
113.683,-4.615,6.238,9.0
113.599,-4.582,5.581,6.0
88.006,-3.533,6.77,18.0
88.243,-3.52,6.278,17.0
88.057,-3.489,5.757,15.0
98.595,-3.882,5.868,27.0
113.44,-4.437,6.098,10.0
113.485,-4.409,5.448,14.0
87.741,-3.392,6.649,23.0
88.107,-3.384,6.168,19.0
98.915,-3.773,6.353,20.0
98.92,-3.747,5.773,19.0
113.319,-4.264,5.959,18.0
113.422,-4.24,5.312,29.0
88.023,-3.272,6.566,10.0
87.78,-3.24,6.04,9.0
93.967,-3.445,5.922,10.0
98.896,-3.601,5.652,24.0
113.468,-4.103,5.83,4.0
190.168,-6.829,8.676,18.0
87.994,-3.142,6.455,19.0
94.049,-3.335,6.356,9.0
97.618,-3.436,6.032,20.0
123.326,-4.31,6.895,6.0
190.333,-6.605,9.543,18.0
190.253,-6.556,8.441,4.0
87.913,-3.011,6.338,11.0
97.879,-3.328,6.49,9.0
98.721,-3.332,5.974,20.0
190.19,-6.373,10.39,12.0
190.03,-6.323,9.286,11.0
93.261,-3.081,4.019,1.0
96.009,-3.151,6.797,12.0
94.92,-3.091,6.17,13.0
99.023,-3.201,5.863,18.0
97.093,-3.115,5.176,13.0
190.125,-6.055,9.038,22.0
0.0,0.0,0.0,0.0
87.62,-2.75,6.085,9.0
97.071,-3.024,6.178,9.0
99.05,-3.062,5.732,4.0
97.049,-2.977,5.044,8.0
190.128,-5.788,8.781,6.0
92.339,-2.789,3.731,14.0
88.433,-2.652,6.02,23.0
97.082,-2.888,6.045,15.0
97.018,-2.864,5.479,19.0
189.645,-5.554,9.594,21.0
121.379,-3.527,5.438,23.0
92.363,-2.664,3.604,12.0
88.136,-2.522,5.877,9.0
88.353,-2.508,5.378,25.0
99.038,-2.788,5.453,12.0
189.538,-5.292,9.318,23.0
121.486,-3.364,5.27,15.0
92.421,-2.539,3.475,15.0
96.634,-2.633,6.303,18.0
96.641,-2.611,5.741,22.0
88.25,-2.364,4.731,15.0
189.51,-5.036,9.043,19.0
123.997,-3.267,5.198,54.0
92.458,-2.416,3.342,150.0
98.756,-2.559,6.296,8.0
96.733,-2.485,5.604,15.0
96.908,-2.467,5.052,13.0
171.534,-4.331,7.931,14.0
124.006,-3.105,5.015,35.0
128.175,-3.181,4.442,6.0
97.014,-2.386,6.039,14.0
96.711,-2.357,5.457,29.0
96.793,-2.339,4.9,38.0
123.952,-2.968,5.543,8.0
128.426,-3.049,4.999,16.0
97.061,-2.283,3.216,2.0
96.679,-2.252,5.868,38.0
96.797,-2.234,5.312,22.0
96.808,-2.214,4.75,47.0
96.911,-2.196,4.184,36.0
128.415,-2.884,4.799,23.0
96.762,-2.153,3.055,5.0
99.124,-2.183,5.861,10.0
128.375,-2.801,6.844,15.0
96.867,-2.093,4.6,16.0
96.901,-2.073,4.028,49.0
96.978,-2.056,3.47,18.0
90.825,-1.907,2.723,1.0
99.064,-2.057,5.697,24.0
190.269,-3.913,9.835,21.0
189.862,-3.867,8.712,22.0
96.926,-1.954,3.873,38.0
96.96,-1.936,3.312,34.0
89.812,-1.776,2.548,0.0
99.056,-1.936,5.535,18.0
190.31,-3.681,9.525,20.0
190.302,-3.644,8.42,6.0
97.015,-1.839,3.719,16.0
96.872,-1.817,3.15,18.0
0.0,0.0,0.0,0.0
99.243,-1.82,5.381,1.0
191.147,-3.469,9.249,9.0
193.805,-3.481,8.252,9.0
168.908,-3.001,6.191,4.0
89.698,-1.576,2.766,4.0
0.0,0.0,0.0,0.0
191.473,-3.286,10.054,11.0
0.0,0.0,0.0,0.0
168.402,-2.827,6.882,7.0
0.0,0.0,0.0,0.0
87.509,-1.436,2.549,1.0
0.0,0.0,0.0,0.0
193.344,-3.095,9.818,8.0
192.889,-3.051,8.669,16.0
171.674,-2.685,6.718,18.0
96.77,-1.495,3.213,1.0
0.0,0.0,0.0,0.0
0.0,0.0,0.0,0.0
193.618,-2.882,9.493,22.0
193.451,-2.845,8.356,13.0
171.524,-2.492,6.412,18.0
89.875,-1.29,2.826,5.0
64.015,-0.907,1.64,0.0
0.0,0.0,0.0,0.0
193.014,-2.661,9.12,20.0
193.762,-2.638,8.025,11.0
0.0,0.0,0.0,0.0
85.651,-1.136,2.539,2.0
0.0,0.0,0.0,0.0
0.0,0.0,0.0,0.0
90.705,-1.154,4.121,23.0
90.688,-1.139,3.593,27.0
90.69,-1.123,3.063,22.0
0.0,0.0,0.0,0.0
0.0,0.0,0.0,0.0
0.0,0.0,0.0,0.0
90.625,-1.058,3.952,48.0
90.627,-1.043,3.422,57.0
90.526,-1.027,2.89,17.0
0.0,0.0,0.0,0.0
0.0,0.0,0.0,0.0
0.0,0.0,0.0,0.0
90.616,-0.967,3.782,46.0
90.609,-0.952,3.254,50.0
83.103,-0.861,2.5,1.0
0.0,0.0,0.0,0.0
0.0,0.0,0.0,0.0
36.199,-0.358,0.452,0.0
90.632,-0.878,3.613,36.0
90.612,-0.865,3.084,35.0
82.845,-0.778,2.337,3.0
0.0,0.0,0.0,0.0
0.0,0.0,0.0,0.0
34.287,-0.306,0.364,0.0
90.731,-0.794,3.445,15.0
90.498,-0.778,2.907,13.0
0.0,0.0,0.0,0.0
0.0,0.0,0.0,0.0
38.355,-0.313,0.557,0.0
32.618,-0.261,0.284,1.0
0.0,0.0,0.0,0.0
82.894,-0.638,2.504,5.0
0.0,0.0,0.0,0.0
0.0,0.0,0.0,0.0
36.454,-0.265,0.459,0.0
31.412,-0.224,0.213,1.0
104.633,-0.728,3.57,7.0
81.432,-0.555,2.302,2.0
0.0,0.0,0.0,0.0
41.861,-0.274,0.691,0.0
34.996,-0.224,0.373,0.0
28.837,-0.181,0.139,5.0
90.348,-0.552,2.905,5.0
0.0,0.0,0.0,0.0
0.0,0.0,0.0,0.0
0.0,0.0,0.0,0.0
32.749,-0.182,0.285,1.0
28.722,-0.156,0.082,5.0
82.37,-0.436,2.486,7.0
63.938,-0.33,1.556,0.0
0.0,0.0,0.0,0.0
36.407,-0.179,0.457,0.0
31.276,-0.149,0.21,1.0
27.484,-0.128,0.024,0.0
80.183,-0.361,2.259,3.0
0.0,0.0,0.0,0.0
0.0,0.0,0.0,0.0
33.491,-0.138,0.353,0.0
28.861,-0.116,0.136,5.0
26.17,-0.102,-0.029,0.0
0.0,0.0,0.0,0.0
0.0,0.0,0.0,0.0
0.0,0.0,0.0,0.0
32.889,-0.112,0.28,1.0
28.7,-0.094,0.077,5.0
25.151,-0.08,-0.078,0.0
0.0,0.0,0.0,0.0
0.0,0.0,0.0,0.0
36.34,-0.102,0.453,0.0
30.819,-0.083,0.2,0.0
27.235,-0.071,0.018,0.0
23.913,-0.059,-0.123,0.0
0.0,0.0,0.0,0.0
0.0,0.0,0.0,0.0
33.394,-0.072,0.348,0.0
28.815,-0.059,0.129,5.0
25.998,-0.05,-0.035,0.0
23.152,-0.042,-0.166,0.0
0.0,0.0,0.0,0.0
39.131,-0.063,0.556,0.0
33.094,-0.05,0.277,0.0
28.538,-0.04,0.069,1.0
25.035,-0.033,-0.085,0.0
21.474,-0.026,-0.199,2.0
0.0,0.0,0.0,0.0
35.761,-0.036,0.434,0.0
30.388,-0.028,0.191,0.0
26.84,-0.022,0.009,0.0
23.727,-0.017,-0.13,1.0
20.783,-0.013,-0.235,1.0
0.0,0.0,0.0,0.0
33.173,-0.015,0.333,0.0
28.77,-0.01,0.121,0.0
25.848,-0.007,-0.044,0.0
22.277,-0.004,-0.169,0.0
19.431,-0.001,-0.26,0.0
37.428,0.0,0.517,0.0
31.82,0.002,0.253,0.0
28.123,0.004,0.059,1.0
24.682,0.005,-0.094,0.0
21.303,0.006,-0.206,4.0
18.46,0.007,-0.286,0.0
0.0,0.0,0.0,0.0
30.29,0.017,0.178,0.0
26.563,0.017,0.0,0.0
23.58,0.016,-0.139,1.0
20.607,0.016,-0.242,0.0
17.646,0.015,-0.31,0.0
33.122,0.031,0.319,0.0
28.67,0.029,0.108,1.0
25.596,0.027,-0.052,0.0
22.078,0.025,-0.176,0.0
19.137,0.023,-0.265,0.0
17.005,0.022,-0.335,0.0
0.0,0.0,0.0,0.0
27.653,0.039,0.046,0.0
24.247,0.036,-0.101,0.0
21.125,0.033,-0.214,3.0
18.334,0.03,-0.293,0.0
16.523,0.028,-0.36,0.0
28.923,0.05,0.156,0.0
26.403,0.048,-0.011,0.0
23.318,0.044,-0.147,1.0
19.96,0.038,-0.244,0.0
17.521,0.035,-0.317,0.0
16.033,0.033,-0.384,0.0
28.67,0.06,0.093,3.0
25.282,0.054,-0.064,0.0
21.864,0.048,-0.183,1.0
18.879,0.043,-0.271,0.0
16.86,0.039,-0.34,0.0
15.543,0.037,-0.405,0.0
27.139,0.065,0.032,0.0
24.048,0.059,-0.112,0.0
20.993,0.052,-0.22,3.0
18.131,0.046,-0.298,0.0
16.432,0.043,-0.366,0.0
14.942,0.04,-0.421,0.0
26.081,0.07,-0.024,0.0
23.038,0.063,-0.156,1.0
19.751,0.055,-0.249,0.0
17.282,0.049,-0.321,0.0
15.863,0.045,-0.387,0.0
14.489,0.042,-0.439,0.0
25.013,0.073,-0.076,0.0
21.62,0.064,-0.192,3.0
18.744,0.056,-0.276,0.0
16.727,0.051,-0.346,0.0
15.33,0.047,-0.407,0.0
14.076,0.044,-0.456,0.0
23.491,0.073,-0.121,0.0
20.683,0.065,-0.228,0.0
17.881,0.057,-0.301,0.0
16.25,0.052,-0.37,0.0
14.887,0.048,-0.426,0.0
13.713,0.045,-0.473,0.0
22.607,0.074,-0.164,1.0
19.437,0.064,-0.255,0.0
17.149,0.057,-0.325,0.0
15.712,0.053,-0.391,0.0
14.306,0.048,-0.44,0.0
13.324,0.045,-0.488,0.0
21.332,0.072,-0.2,4.0
18.459,0.063,-0.281,0.0
16.637,0.057,-0.351,0.0
15.169,0.052,-0.41,0.0
13.932,0.049,-0.458,0.0
12.969,0.045,-0.503,0.0
20.263,0.07,-0.233,0.0
17.677,0.062,-0.307,0.0
16.137,0.057,-0.374,0.0
14.736,0.052,-0.43,0.0
13.61,0.048,-0.476,0.0
12.683,0.045,-0.518,0.0
19.13,0.067,-0.26,0.0
17.019,0.06,-0.331,0.0
15.648,0.056,-0.396,0.0
14.292,0.051,-0.447,0.0
13.246,0.047,-0.492,0.0
12.415,0.045,-0.534,0.0
18.252,0.064,-0.287,0.0
16.545,0.059,-0.357,0.0
15.006,0.053,-0.411,0.0
13.828,0.049,-0.462,0.0
12.892,0.046,-0.506,0.0
12.075,0.043,-0.545,0.0
17.499,0.061,-0.312,0.0
16.001,0.056,-0.379,0.0
14.622,0.051,-0.432,0.0
13.454,0.047,-0.477,0.0
12.604,0.044,-0.521,0.0
11.796,0.041,-0.557,0.0
16.838,0.058,-0.336,0.0
15.528,0.053,-0.4,0.0
14.134,0.048,-0.447,0.0
13.165,0.045,-0.495,0.0
12.356,0.042,-0.537,0.0
11.54,0.04,-0.569,0.0
16.39,0.055,-0.361,0.0
14.949,0.05,-0.417,0.0
13.799,0.046,-0.465,0.0
12.802,0.042,-0.508,0.0
11.992,0.04,-0.546,0.0
11.235,0.037,-0.578,0.0
15.871,0.051,-0.382,0.0
14.521,0.046,-0.435,0.0
13.432,0.043,-0.481,0.0
12.546,0.04,-0.524,0.0
11.75,0.037,-0.559,0.0
11.009,0.034,-0.589,0.0
15.357,0.046,-0.402,0.0
14.068,0.042,-0.45,0.0
13.005,0.039,-0.492,0.0
12.269,0.036,-0.537,0.0
11.455,0.034,-0.569,0.0
10.784,0.032,-0.599,0.0
14.833,0.042,-0.418,0.0
13.703,0.038,-0.467,0.0
12.745,0.035,-0.509,0.0
11.896,0.033,-0.545,0.0
11.228,0.03,-0.58,0.0
10.509,0.028,-0.605,0.0
14.393,0.037,-0.435,0.0
13.385,0.034,-0.483,0.0
12.545,0.031,-0.526,0.0
11.661,0.029,-0.558,0.0
10.927,0.027,-0.587,0.0
10.286,0.025,-0.613,0.0
14.03,0.032,-0.453,0.0
13.073,0.029,-0.498,0.0
12.281,0.027,-0.54,0.0
11.415,0.025,-0.57,0.0
10.774,0.023,-0.601,0.0
10.135,0.021,-0.625,0.0
13.658,0.027,-0.468,0.0
12.675,0.024,-0.509,0.0
11.939,0.022,-0.549,0.0
11.11,0.02,-0.577,0.0
10.412,0.019,-0.602,0.0
9.921,0.017,-0.632,0.0
13.261,0.021,-0.481,0.0
12.462,0.019,-0.525,0.0
11.656,0.017,-0.559,0.0
11.003,0.016,-0.593,0.0
10.315,0.015,-0.617,0.0
9.738,0.013,-0.639,0.0
12.961,0.016,-0.496,0.0
12.271,0.014,-0.541,0.0
11.403,0.013,-0.569,0.0
10.728,0.011,-0.599,0.0
10.089,0.01,-0.623,0.0
0.0,0.0,0.0,0.0
12.696,0.01,-0.51,0.0
11.917,0.009,-0.548,0.0
11.133,0.007,-0.578,0.0
10.451,0.006,-0.604,0.0
9.96,0.005,-0.634,0.0
9.415,0.005,-0.655,0.0
12.38,0.004,-0.522,0.0
11.634,0.003,-0.558,0.0
11.004,0.002,-0.592,0.0
10.213,0.001,-0.611,0.0
9.737,0.001,-0.639,0.0
9.206,0.0,-0.658,0.0
12.173,-0.001,-0.536,0.0
11.434,-0.002,-0.571,0.0
10.705,-0.002,-0.597,0.0
10.151,-0.003,-0.626,0.0
9.545,-0.003,-0.645,0.0
9.048,-0.004,-0.664,0.0
11.91,-0.008,-0.547,0.0
11.196,-0.008,-0.58,0.0
10.428,-0.008,-0.601,0.0
0.0,0.0,0.0,0.0
9.361,-0.008,-0.65,0.0
8.905,-0.009,-0.671,0.0
11.665,-0.014,-0.558,0.0
10.946,-0.014,-0.587,0.0
10.32,-0.014,-0.614,0.0
0.0,0.0,0.0,0.0
9.131,-0.014,-0.651,0.0
8.758,-0.014,-0.676,0.0
11.4,-0.02,-0.566,0.0
10.713,-0.02,-0.595,0.0
10.133,-0.02,-0.622,0.0
0.0,0.0,0.0,0.0
9.056,-0.019,-0.663,0.0
8.65,-0.019,-0.684,0.0
11.169,-0.027,-0.576,0.0
10.452,-0.026,-0.6,0.0
9.962,-0.026,-0.63,0.0
9.406,-0.025,-0.65,0.0
8.949,-0.025,-0.671,0.0
8.51,-0.024,-0.688,0.0
11.0,-0.034,-0.587,0.0
10.295,-0.033,-0.609,0.0
9.818,-0.032,-0.638,0.0
9.259,-0.031,-0.657,0.0
8.811,-0.03,-0.677,0.0
8.358,-0.029,-0.691,0.0
10.755,-0.04,-0.592,0.0
10.191,-0.039,-0.621,0.0
9.616,-0.038,-0.642,0.0
0.0,0.0,0.0,0.0
0.0,0.0,0.0,0.0
8.297,-0.035,-0.7,0.0
10.545,-0.047,-0.6,0.0
9.952,-0.046,-0.624,0.0
9.45,-0.044,-0.647,0.0
0.0,0.0,0.0,0.0
8.569,-0.042,-0.688,0.0
8.121,-0.04,-0.7,0.0
10.365,-0.054,-0.607,0.0
9.76,-0.052,-0.629,0.0
9.32,-0.051,-0.655,0.0
0.0,0.0,0.0,0.0
0.0,0.0,0.0,0.0
8.085,-0.046,-0.711,0.0
10.199,-0.061,-0.615,0.0
9.647,-0.059,-0.638,0.0
0.0,0.0,0.0,0.0
0.0,0.0,0.0,0.0
8.318,-0.053,-0.696,0.0
7.979,-0.052,-0.715,0.0
10.046,-0.068,-0.622,0.0
9.501,-0.066,-0.644,0.0
0.0,0.0,0.0,0.0
0.0,0.0,0.0,0.0
8.233,-0.06,-0.703,0.0
7.89,-0.058,-0.72,0.0
9.89,-0.076,-0.629,0.0
0.0,0.0,0.0,0.0
0.0,0.0,0.0,0.0
0.0,0.0,0.0,0.0
8.12,-0.066,-0.707,0.0
7.798,-0.064,-0.724,0.0
9.674,-0.082,-0.631,0.0
0.0,0.0,0.0,0.0
0.0,0.0,0.0,0.0
0.0,0.0,0.0,0.0
8.002,-0.072,-0.709,0.0
7.708,-0.07,-0.728,0.0
9.588,-0.09,-0.64,0.0
0.0,0.0,0.0,0.0
0.0,0.0,0.0,0.0
8.269,-0.081,-0.698,0.0
7.914,-0.078,-0.714,0.0
0.0,0.0,0.0,0.0
9.48,-0.098,-0.648,0.0
0.0,0.0,0.0,0.0
0.0,0.0,0.0,0.0
8.18,-0.088,-0.703,0.0
0.0,0.0,0.0,0.0
7.549,-0.083,-0.737,0.0
9.342,-0.105,-0.652,0.0
0.0,0.0,0.0,0.0
0.0,0.0,0.0,0.0
0.0,0.0,0.0,0.0
0.0,0.0,0.0,0.0
7.453,-0.089,-0.738,0.0
9.174,-0.112,-0.654,0.0
8.724,-0.108,-0.673,0.0
8.407,-0.105,-0.697,0.0
0.0,0.0,0.0,0.0
0.0,0.0,0.0,0.0
7.352,-0.095,-0.739,0.0
9.127,-0.121,-0.664,0.0
8.665,-0.116,-0.681,0.0
0.0,0.0,0.0,0.0
0.0,0.0,0.0,0.0
0.0,0.0,0.0,0.0
7.283,-0.101,-0.743,0.0
8.977,-0.128,-0.666,0.0
8.563,-0.123,-0.685,0.0
8.173,-0.119,-0.701,0.0
0.0,0.0,0.0,0.0
0.0,0.0,0.0,0.0
7.238,-0.108,-0.748,0.0
8.81,-0.134,-0.665,0.0
8.469,-0.13,-0.689,0.0
8.079,-0.125,-0.704,0.0
0.0,0.0,0.0,0.0
0.0,0.0,0.0,0.0
7.12,-0.114,-0.745,0.0
8.813,-0.143,-0.677,0.0
8.405,-0.138,-0.694,0.0
8.023,-0.133,-0.71,0.0
0.0,0.0,0.0,0.0
7.353,-0.124,-0.737,0.0
7.092,-0.121,-0.752,0.0
8.663,-0.15,-0.677,0.0
8.341,-0.146,-0.7,0.0
7.948,-0.14,-0.713,0.0
0.0,0.0,0.0,0.0
7.319,-0.132,-0.743,0.0
7.025,-0.128,-0.754,0.0
8.577,-0.158,-0.681,0.0
8.251,-0.153,-0.703,0.0
0.0,0.0,0.0,0.0
0.0,0.0,0.0,0.0
7.289,-0.139,-0.749,0.0
0.0,0.0,0.0,0.0
8.465,-0.165,-0.682,0.0
8.127,-0.16,-0.702,0.0
7.802,-0.155,-0.719,0.0
0.0,0.0,0.0,0.0
7.178,-0.145,-0.746,0.0
0.0,0.0,0.0,0.0
8.397,-0.173,-0.687,0.0
8.096,-0.169,-0.709,0.0
0.0,0.0,0.0,0.0
0.0,0.0,0.0,0.0
7.13,-0.152,-0.749,0.0
0.0,0.0,0.0,0.0
8.316,-0.181,-0.689,0.0
8.02,-0.176,-0.711,0.0
0.0,0.0,0.0,0.0
7.302,-0.163,-0.733,0.0
7.047,-0.159,-0.748,0.0
0.0,0.0,0.0,0.0
8.21,-0.189,-0.69,0.0
0.0,0.0,0.0,0.0
0.0,0.0,0.0,0.0
7.27,-0.171,-0.738,0.0
0.0,0.0,0.0,0.0
0.0,0.0,0.0,0.0
8.231,-0.199,-0.7,0.0
0.0,0.0,0.0,0.0
0.0,0.0,0.0,0.0
7.224,-0.179,-0.741,0.0
0.0,0.0,0.0,0.0
6.692,-0.168,-0.764,0.0
8.157,-0.207,-0.702,0.0
0.0,0.0,0.0,0.0
0.0,0.0,0.0,0.0
7.153,-0.185,-0.74,0.0
6.697,-0.175,-0.732,0.0
6.631,-0.174,-0.763,0.0
8.041,-0.213,-0.7,0.0
0.0,0.0,0.0,0.0
0.0,0.0,0.0,0.0
7.154,-0.194,-0.747,0.0
0.0,0.0,0.0,0.0
0.0,0.0,0.0,0.0
8.042,-0.223,-0.708,0.0
0.0,0.0,0.0,0.0
7.386,-0.208,-0.735,0.0
7.063,-0.2,-0.744,0.0
6.813,-0.194,-0.757,0.0
0.0,0.0,0.0,0.0
0.0,0.0,0.0,0.0
0.0,0.0,0.0,0.0
7.289,-0.214,-0.732,0.0
0.0,0.0,0.0,0.0
6.819,-0.203,-0.764,0.0
0.0,0.0,0.0,0.0
0.0,0.0,0.0,0.0
0.0,0.0,0.0,0.0
7.256,-0.222,-0.734,0.0
0.0,0.0,0.0,0.0
6.747,-0.209,-0.762,0.0
0.0,0.0,0.0,0.0
7.87,-0.247,-0.713,0.0
0.0,0.0,0.0,0.0
7.259,-0.231,-0.741,0.0
0.0,0.0,0.0,0.0
0.0,0.0,0.0,0.0
0.0,0.0,0.0,0.0
0.0,0.0,0.0,0.0
0.0,0.0,0.0,0.0
7.234,-0.239,-0.744,0.0
0.0,0.0,0.0,0.0
0.0,0.0,0.0,0.0
0.0,0.0,0.0,0.0
0.0,0.0,0.0,0.0
0.0,0.0,0.0,0.0
7.192,-0.247,-0.744,0.0
0.0,0.0,0.0,0.0
0.0,0.0,0.0,0.0
0.0,0.0,0.0,0.0
0.0,0.0,0.0,0.0
0.0,0.0,0.0,0.0
7.132,-0.254,-0.743,0.0
0.0,0.0,0.0,0.0
0.0,0.0,0.0,0.0
0.0,0.0,0.0,0.0
7.702,-0.281,-0.719,0.0
0.0,0.0,0.0,0.0
7.088,-0.261,-0.742,0.0
6.842,-0.254,-0.757,0.0
0.0,0.0,0.0,0.0
0.0,0.0,0.0,0.0
0.0,0.0,0.0,0.0
0.0,0.0,0.0,0.0
7.105,-0.271,-0.748,0.0
6.804,-0.261,-0.756,0.0
0.0,0.0,0.0,0.0
0.0,0.0,0.0,0.0
0.0,0.0,0.0,0.0
0.0,0.0,0.0,0.0
0.0,0.0,0.0,0.0
6.802,-0.27,-0.76,0.0
0.0,0.0,0.0,0.0
0.0,0.0,0.0,0.0
0.0,0.0,0.0,0.0
7.313,-0.296,-0.736,0.0
7.034,-0.286,-0.748,0.0
6.776,-0.277,-0.76,0.0
0.0,0.0,0.0,0.0
0.0,0.0,0.0,0.0
0.0,0.0,0.0,0.0
7.316,-0.305,-0.739,0.0
0.0,0.0,0.0,0.0
6.773,-0.286,-0.762,0.0
6.504,-0.276,-0.77,0.0
0.0,0.0,0.0,0.0
7.574,-0.324,-0.725,0.0
7.266,-0.312,-0.737,0.0
6.993,-0.302,-0.749,0.0
6.744,-0.293,-0.762,0.0
0.0,0.0,0.0,0.0
0.0,0.0,0.0,0.0
7.582,-0.334,-0.729,0.0
7.269,-0.322,-0.74,0.0
6.995,-0.311,-0.752,0.0
6.712,-0.3,-0.76,0.0
0.0,0.0,0.0,0.0
0.0,0.0,0.0,0.0
7.554,-0.342,-0.729,0.0
7.248,-0.33,-0.74,0.0
6.995,-0.32,-0.754,0.0
0.0,0.0,0.0,0.0
0.0,0.0,0.0,0.0
0.0,0.0,0.0,0.0
7.538,-0.351,-0.729,0.0
7.241,-0.339,-0.741,0.0
6.922,-0.326,-0.748,0.0
6.708,-0.317,-0.764,0.0
0.0,0.0,0.0,0.0
0.0,0.0,0.0,0.0
7.48,-0.358,-0.725,0.0
7.193,-0.346,-0.738,0.0
6.925,-0.334,-0.75,0.0
0.0,0.0,0.0,0.0
0.0,0.0,0.0,0.0
0.0,0.0,0.0,0.0
7.466,-0.366,-0.725,0.0
7.233,-0.357,-0.743,0.0
6.934,-0.344,-0.752,0.0
0.0,0.0,0.0,0.0
0.0,0.0,0.0,0.0
0.0,0.0,0.0,0.0
7.499,-0.377,-0.729,0.0
7.192,-0.364,-0.74,0.0
6.936,-0.352,-0.753,0.0
0.0,0.0,0.0,0.0
0.0,0.0,0.0,0.0
0.0,0.0,0.0,0.0
7.485,-0.386,-0.729,0.0
7.199,-0.373,-0.741,0.0
6.949,-0.361,-0.755,0.0
0.0,0.0,0.0,0.0
0.0,0.0,0.0,0.0
0.0,0.0,0.0,0.0
0.0,0.0,0.0,0.0
7.2,-0.382,-0.742,0.0
6.917,-0.368,-0.752,0.0
6.622,-0.354,-0.758,0.0
0.0,0.0,0.0,0.0
0.0,0.0,0.0,0.0
0.0,0.0,0.0,0.0
7.186,-0.39,-0.74,0.0
6.898,-0.376,-0.749,0.0
6.656,-0.364,-0.761,0.0
0.0,0.0,0.0,0.0
0.0,0.0,0.0,0.0
0.0,0.0,0.0,0.0
7.221,-0.4,-0.744,0.0
6.934,-0.386,-0.753,0.0
6.644,-0.371,-0.76,0.0
0.0,0.0,0.0,0.0
6.201,-0.35,-0.779,0.0
0.0,0.0,0.0,0.0
7.222,-0.409,-0.743,0.0
6.943,-0.395,-0.753,0.0
6.651,-0.38,-0.76,0.0
0.0,0.0,0.0,0.0
0.0,0.0,0.0,0.0
0.0,0.0,0.0,0.0
7.188,-0.415,-0.738,0.0
6.91,-0.401,-0.749,0.0
0.0,0.0,0.0,0.0
0.0,0.0,0.0,0.0
0.0,0.0,0.0,0.0
0.0,0.0,0.0,0.0
7.223,-0.426,-0.741,0.0
6.918,-0.41,-0.748,0.0
0.0,0.0,0.0,0.0
0.0,0.0,0.0,0.0
0.0,0.0,0.0,0.0
0.0,0.0,0.0,0.0
7.216,-0.434,-0.738,0.0
6.959,-0.42,-0.751,0.0
6.66,-0.404,-0.757,0.0
0.0,0.0,0.0,0.0
0.0,0.0,0.0,0.0
0.0,0.0,0.0,0.0
7.237,-0.443,-0.739,0.0
7.002,-0.43,-0.754,0.0
6.719,-0.415,-0.761,0.0
0.0,0.0,0.0,0.0
0.0,0.0,0.0,0.0
0.0,0.0,0.0,0.0
7.255,-0.452,-0.738,0.0
6.986,-0.437,-0.75,0.0
6.743,-0.424,-0.762,0.0
0.0,0.0,0.0,0.0
6.281,-0.397,-0.78,0.0
0.0,0.0,0.0,0.0
7.287,-0.463,-0.739,0.0
7.009,-0.446,-0.75,0.0
6.794,-0.434,-0.765,0.0
0.0,0.0,0.0,0.0
6.302,-0.406,-0.78,0.0
0.0,0.0,0.0,0.0
7.27,-0.469,-0.734,0.0
6.943,-0.45,-0.74,0.0
6.753,-0.439,-0.758,0.0
0.0,0.0,0.0,0.0
6.339,-0.415,-0.782,0.0
0.0,0.0,0.0,0.0
7.322,-0.48,-0.736,0.0
7.015,-0.462,-0.744,0.0
6.761,-0.446,-0.755,0.0
0.0,0.0,0.0,0.0
0.0,0.0,0.0,0.0
0.0,0.0,0.0,0.0
7.31,-0.487,-0.731,0.0
7.021,-0.469,-0.741,0.0
6.808,-0.457,-0.757,0.0
6.605,-0.444,-0.772,0.0
0.0,0.0,0.0,0.0
0.0,0.0,0.0,0.0
0.0,0.0,0.0,0.0
7.051,-0.478,-0.741,0.0
6.811,-0.464,-0.754,0.0
6.627,-0.453,-0.771,0.0
0.0,0.0,0.0,0.0
0.0,0.0,0.0,0.0
0.0,0.0,0.0,0.0
7.118,-0.49,-0.744,0.0
0.0,0.0,0.0,0.0
6.619,-0.458,-0.766,0.0
6.362,-0.442,-0.771,0.0
0.0,0.0,0.0,0.0
0.0,0.0,0.0,0.0
7.09,-0.495,-0.737,0.0
0.0,0.0,0.0,0.0
6.625,-0.465,-0.762,0.0
6.421,-0.452,-0.774,0.0
0.0,0.0,0.0,0.0
0.0,0.0,0.0,0.0
7.159,-0.506,-0.739,0.0
0.0,0.0,0.0,0.0
6.698,-0.476,-0.766,0.0
6.445,-0.46,-0.773,0.0
0.0,0.0,0.0,0.0
0.0,0.0,0.0,0.0
7.205,-0.516,-0.739,0.0
0.0,0.0,0.0,0.0
6.745,-0.486,-0.767,0.0
6.476,-0.468,-0.772,0.0
0.0,0.0,0.0,0.0
0.0,0.0,0.0,0.0
7.241,-0.525,-0.737,0.0
0.0,0.0,0.0,0.0
6.739,-0.491,-0.761,0.0
6.536,-0.478,-0.774,0.0
7.85,-0.573,-0.707,0.0
0.0,0.0,0.0,0.0
7.255,-0.532,-0.733,0.0
0.0,0.0,0.0,0.0
6.782,-0.5,-0.761,0.0
6.567,-0.486,-0.773,0.0
7.917,-0.584,-0.707,0.0
0.0,0.0,0.0,0.0
0.0,0.0,0.0,0.0
0.0,0.0,0.0,0.0
6.774,-0.505,-0.754,0.0
6.558,-0.49,-0.766,0.0
7.966,-0.594,-0.705,0.0
0.0,0.0,0.0,0.0
0.0,0.0,0.0,0.0
0.0,0.0,0.0,0.0
6.837,-0.515,-0.755,0.0
6.595,-0.498,-0.765,0.0
7.981,-0.602,-0.7,0.0
0.0,0.0,0.0,0.0
0.0,0.0,0.0,0.0
0.0,0.0,0.0,0.0
6.832,-0.52,-0.749,0.0
6.634,-0.506,-0.763,0.0
8.048,-0.613,-0.698,0.0
0.0,0.0,0.0,0.0
0.0,0.0,0.0,0.0
7.164,-0.549,-0.739,0.0
0.0,0.0,0.0,0.0
6.688,-0.515,-0.764,0.0
8.094,-0.622,-0.695,0.0
0.0,0.0,0.0,0.0
0.0,0.0,0.0,0.0
7.232,-0.559,-0.74,0.0
0.0,0.0,0.0,0.0
6.739,-0.524,-0.763,0.0
8.155,-0.632,-0.692,0.0
7.835,-0.609,-0.708,0.0
0.0,0.0,0.0,0.0
7.266,-0.567,-0.736,0.0
0.0,0.0,0.0,0.0
6.796,-0.532,-0.762,0.0
8.185,-0.64,-0.687,0.0
7.904,-0.619,-0.706,0.0
0.0,0.0,0.0,0.0
0.0,0.0,0.0,0.0
7.061,-0.556,-0.746,0.0
6.816,-0.538,-0.758,0.0
8.281,-0.652,-0.687,0.0
7.928,-0.626,-0.7,0.0
0.0,0.0,0.0,0.0
0.0,0.0,0.0,0.0
7.142,-0.567,-0.747,0.0
6.847,-0.545,-0.754,0.0
8.36,-0.663,-0.684,0.0
8.046,-0.64,-0.702,0.0
0.0,0.0,0.0,0.0
0.0,0.0,0.0,0.0
7.182,-0.574,-0.744,0.0
6.902,-0.553,-0.753,0.0
8.422,-0.673,-0.68,0.0
8.116,-0.65,-0.699,0.0
7.79,-0.624,-0.713,0.0
0.0,0.0,0.0,0.0
7.227,-0.581,-0.741,0.0
0.0,0.0,0.0,0.0
8.547,-0.687,-0.681,0.0
8.199,-0.66,-0.697,0.0
7.828,-0.631,-0.708,0.0
0.0,0.0,0.0,0.0
7.289,-0.59,-0.739,0.0
7.038,-0.57,-0.751,0.0
8.57,-0.693,-0.673,0.0
8.265,-0.669,-0.694,0.0
7.941,-0.644,-0.709,0.0
0.0,0.0,0.0,0.0
0.0,0.0,0.0,0.0
7.033,-0.573,-0.743,0.0
8.621,-0.701,-0.667,0.0
8.319,-0.677,-0.688,0.0
8.035,-0.655,-0.708,0.0
0.0,0.0,0.0,0.0
0.0,0.0,0.0,0.0
7.146,-0.585,-0.746,0.0
8.784,-0.717,-0.669,0.0
8.386,-0.686,-0.684,0.0
8.077,-0.661,-0.702,0.0
0.0,0.0,0.0,0.0
0.0,0.0,0.0,0.0
7.217,-0.593,-0.745,0.0
8.849,-0.726,-0.664,0.0
8.518,-0.7,-0.684,0.0
8.167,-0.672,-0.7,0.0
0.0,0.0,0.0,0.0
7.535,-0.621,-0.727,0.0
7.247,-0.598,-0.739,0.0
8.924,-0.735,-0.658,0.0
8.56,-0.706,-0.677,0.0
8.276,-0.683,-0.699,0.0
0.0,0.0,0.0,0.0
7.603,-0.629,-0.724,0.0
7.31,-0.605,-0.736,0.0
0.0,0.0,0.0,0.0
8.625,-0.713,-0.671,0.0
8.293,-0.687,-0.69,0.0
7.958,-0.659,-0.705,0.0
0.0,0.0,0.0,0.0
0.0,0.0,0.0,0.0
9.104,-0.754,-0.648,0.0
8.744,-0.725,-0.669,0.0
8.35,-0.693,-0.684,0.0
8.04,-0.668,-0.702,0.0
0.0,0.0,0.0,0.0
0.0,0.0,0.0,0.0
9.299,-0.772,-0.65,0.0
8.904,-0.74,-0.67,0.0
8.504,-0.707,-0.685,0.0
0.0,0.0,0.0,0.0
7.8,-0.65,-0.713,0.0
7.597,-0.634,-0.735,0.0
9.389,-0.781,-0.644,0.0
0.0,0.0,0.0,0.0
8.562,-0.713,-0.678,0.0
0.0,0.0,0.0,0.0
7.934,-0.662,-0.714,0.0
7.604,-0.635,-0.725,0.0
9.528,-0.794,-0.641,0.0
0.0,0.0,0.0,0.0
8.633,-0.72,-0.672,0.0
8.346,-0.697,-0.695,0.0
7.97,-0.666,-0.706,0.0
0.0,0.0,0.0,0.0
9.613,-0.802,-0.633,0.0
0.0,0.0,0.0,0.0
8.757,-0.731,-0.67,0.0
8.37,-0.699,-0.686,0.0
8.05,-0.673,-0.702,0.0
0.0,0.0,0.0,0.0
9.707,-0.81,-0.626,0.0
0.0,0.0,0.0,0.0
0.0,0.0,0.0,0.0
8.519,-0.711,-0.686,0.0
8.144,-0.68,-0.699,0.0
7.898,-0.66,-0.72,0.0
9.889,-0.825,-0.624,0.0
9.444,-0.788,-0.646,0.0
0.0,0.0,0.0,0.0
8.516,-0.711,-0.674,0.0
8.254,-0.689,-0.697,0.0
7.912,-0.661,-0.71,0.0
10.028,-0.836,-0.619,0.0
9.569,-0.798,-0.641,0.0
0.0,0.0,0.0,0.0
8.68,-0.724,-0.674,0.0
8.303,-0.693,-0.689,0.0
8.019,-0.669,-0.708,0.0
0.0,0.0,0.0,0.0
9.675,-0.805,-0.634,0.0
0.0,0.0,0.0,0.0
0.0,0.0,0.0,0.0
8.472,-0.706,-0.691,0.0
8.088,-0.674,-0.703,0.0
10.37,-0.862,-0.61,0.0
9.778,-0.812,-0.627,0.0
0.0,0.0,0.0,0.0
8.904,-0.74,-0.666,0.0
8.519,-0.708,-0.682,0.0
8.203,-0.682,-0.701,0.0
10.487,-0.87,-0.602,0.0
9.99,-0.828,-0.626,0.0
9.405,-0.78,-0.639,0.0
0.0,0.0,0.0,0.0
8.63,-0.715,-0.679,0.0
8.261,-0.685,-0.693,0.0
10.657,-0.881,-0.596,0.0
10.115,-0.836,-0.619,0.0
9.638,-0.797,-0.641,0.0
0.0,0.0,0.0,0.0
8.742,-0.722,-0.675,0.0
8.389,-0.693,-0.692,0.0
10.777,-0.888,-0.587,0.0
10.24,-0.844,-0.612,0.0
9.709,-0.8,-0.631,0.0
0.0,0.0,0.0,0.0
8.822,-0.726,-0.668,0.0
8.478,-0.698,-0.686,0.0
10.98,-0.901,-0.582,0.0
10.337,-0.848,-0.602,0.0
9.903,-0.812,-0.629,0.0
9.402,-0.771,-0.648,0.0
8.958,-0.734,-0.664,0.0
8.569,-0.702,-0.681,0.0
11.095,-0.907,-0.571,0.0
10.574,-0.864,-0.6,0.0
10.089,-0.824,-0.626,0.0
0.0,0.0,0.0,0.0
0.0,0.0,0.0,0.0
8.651,-0.705,-0.675,0.0
11.285,-0.918,-0.564,0.0
10.692,-0.869,-0.591,0.0
10.175,-0.826,-0.616,0.0
9.615,-0.78,-0.634,0.0
0.0,0.0,0.0,0.0
8.798,-0.713,-0.673,0.0
11.515,-0.932,-0.558,0.0
10.891,-0.88,-0.585,0.0
10.318,-0.833,-0.609,0.0
9.719,-0.784,-0.626,0.0
9.351,-0.754,-0.652,0.0
8.92,-0.719,-0.669,0.0
11.739,-0.944,-0.552,0.0
11.065,-0.889,-0.578,0.0
10.495,-0.842,-0.604,0.0
0.0,0.0,0.0,0.0
9.544,-0.765,-0.651,0.0
0.0,0.0,0.0,0.0
11.912,-0.952,-0.542,0.0
11.234,-0.896,-0.57,0.0
10.753,-0.857,-0.602,0.0
9.984,-0.795,-0.613,0.0
9.589,-0.763,-0.639,0.0
9.168,-0.729,-0.659,0.0
12.113,-0.96,-0.533,0.0
11.453,-0.907,-0.564,0.0
10.714,-0.848,-0.584,0.0
10.198,-0.806,-0.611,0.0
9.769,-0.771,-0.636,0.0
9.27,-0.731,-0.653,0.0
12.336,-0.971,-0.524,0.0
11.641,-0.915,-0.556,0.0
10.952,-0.86,-0.58,0.0
10.502,-0.823,-0.613,0.0
0.0,0.0,0.0,0.0
9.456,-0.739,-0.652,0.0
12.518,-0.977,-0.513,0.0
11.819,-0.921,-0.547,0.0
11.151,-0.868,-0.574,0.0
0.0,0.0,0.0,0.0
0.0,0.0,0.0,0.0
9.506,-0.737,-0.641,0.0
12.799,-0.99,-0.505,0.0
12.036,-0.929,-0.539,0.0
11.31,-0.872,-0.566,0.0
10.736,-0.826,-0.594,0.0
0.0,0.0,0.0,0.0
9.664,-0.742,-0.637,0.0
13.069,-1.001,-0.497,0.0
12.296,-0.94,-0.532,0.0
11.536,-0.88,-0.559,0.0
10.913,-0.831,-0.588,0.0
10.4,-0.791,-0.615,0.0
9.865,-0.749,-0.635,0.0
13.331,-1.01,-0.486,0.0
12.418,-0.939,-0.518,0.0
11.735,-0.886,-0.551,0.0
11.087,-0.836,-0.58,0.0
10.545,-0.793,-0.607,0.0
9.926,-0.745,-0.624,0.0
13.526,-1.014,-0.473,0.0
12.696,-0.95,-0.511,0.0
11.913,-0.889,-0.542,0.0
11.305,-0.842,-0.575,0.0
10.687,-0.795,-0.599,0.0
10.134,-0.752,-0.622,0.0
13.723,-1.017,-0.46,0.0
12.884,-0.953,-0.499,0.0
12.184,-0.899,-0.536,0.0
11.467,-0.844,-0.566,0.0
10.877,-0.799,-0.594,0.0
10.289,-0.754,-0.616,0.0
14.127,-1.034,-0.452,0.0
13.228,-0.966,-0.493,0.0
12.405,-0.904,-0.527,0.0
11.644,-0.846,-0.557,0.0
11.06,-0.802,-0.587,0.0
10.461,-0.757,-0.611,0.0
14.393,-1.039,-0.44,0.0
13.435,-0.968,-0.481,0.0
12.623,-0.907,-0.518,0.0
11.852,-0.85,-0.55,0.0
11.149,-0.798,-0.576,0.0
10.602,-0.757,-0.603,0.0
14.693,-1.046,-0.427,0.0
13.674,-0.971,-0.469,0.0
12.814,-0.908,-0.507,0.0
12.006,-0.849,-0.539,0.0
11.391,-0.803,-0.572,0.0
10.751,-0.756,-0.596,0.0
14.84,-1.042,-0.41,0.0
13.953,-0.977,-0.458,0.0
13.064,-0.912,-0.498,0.0
12.301,-0.856,-0.535,0.0
11.587,-0.805,-0.565,0.0
10.952,-0.759,-0.591,0.0
15.324,-1.059,-0.401,0.0
14.263,-0.983,-0.448,0.0
13.328,-0.916,-0.489,0.0
12.366,-0.847,-0.52,0.0
11.785,-0.805,-0.557,0.0
11.093,-0.756,-0.583,0.0
15.683,-1.066,-0.388,0.0
14.561,-0.987,-0.437,0.0
13.588,-0.918,-0.479,0.0
12.725,-0.857,-0.517,0.0
11.941,-0.802,-0.548,0.0
11.257,-0.754,-0.575,0.0
16.099,-1.076,-0.375,0.0
14.816,-0.987,-0.423,0.0
13.732,-0.912,-0.464,0.0
12.832,-0.85,-0.502,0.0
12.207,-0.806,-0.542,0.0
11.455,-0.754,-0.569,0.0
16.589,-1.089,-0.363,0.0
15.053,-0.985,-0.408,0.0
14.005,-0.913,-0.454,0.0
13.074,-0.849,-0.493,0.0
12.353,-0.8,-0.531,0.0
11.634,-0.751,-0.562,0.0
16.999,-1.095,-0.348,0.0
15.493,-0.994,-0.399,0.0
14.273,-0.913,-0.442,0.0
13.342,-0.85,-0.485,0.0
12.56,-0.797,-0.523,0.0
11.865,-0.751,-0.556,0.0
17.35,-1.095,-0.331,0.0
15.853,-0.997,-0.386,0.0
14.623,-0.916,-0.433,0.0
13.607,-0.849,-0.476,0.0
12.834,-0.798,-0.516,0.0
12.01,-0.744,-0.547,0.0
17.792,-1.1,-0.315,0.0
16.231,-0.999,-0.373,0.0
14.774,-0.906,-0.417,0.0
13.855,-0.846,-0.466,0.0
12.956,-0.788,-0.504,0.0
12.293,-0.745,-0.543,0.0
18.197,-1.101,-0.298,0.0
16.668,-1.004,-0.361,0.0
15.163,-0.909,-0.408,0.0
14.084,-0.841,-0.454,0.0
13.16,-0.783,-0.494,0.0
12.395,-0.734,-0.531,0.0
18.855,-1.114,-0.284,0.0
17.036,-1.002,-0.346,0.0
15.571,-0.912,-0.398,0.0
14.385,-0.839,-0.445,0.0
13.428,-0.78,-0.486,0.0
12.562,-0.726,-0.521,0.0
19.435,-1.121,-0.267,0.0
17.405,-0.999,-0.331,0.0
15.889,-0.908,-0.386,0.0
14.641,-0.833,-0.434,0.0
13.613,-0.771,-0.475,0.0
12.877,-0.726,-0.518,0.0
34.203,-1.923,-0.426,1.0
17.838,-0.998,-0.316,0.0
16.228,-0.904,-0.373,0.0
14.819,-0.821,-0.42,0.0
13.874,-0.765,-0.467,0.0
13.02,-0.715,-0.507,0.0
34.281,-1.877,-0.383,2.0
18.218,-0.992,-0.299,0.0
16.69,-0.904,-0.362,0.0
15.173,-0.818,-0.411,0.0
14.108,-0.757,-0.457,0.0
13.215,-0.705,-0.498,0.0
21.99,-1.17,-0.218,0.0
18.896,-1.0,-0.287,0.0
17.05,-0.898,-0.349,0.0
15.552,-0.815,-0.402,0.0
14.358,-0.748,-0.447,0.0
13.406,-0.695,-0.488,0.0
22.32,-1.153,-0.194,1.0
19.286,-0.991,-0.269,0.0
17.352,-0.887,-0.334,0.0
15.83,-0.804,-0.39,0.0
14.638,-0.739,-0.438,0.0
13.625,-0.685,-0.48,0.0
22.955,-1.15,-0.171,1.0
19.93,-0.992,-0.254,0.0
17.727,-0.878,-0.32,0.0
16.178,-0.796,-0.379,0.0
14.794,-0.724,-0.425,0.0
13.832,-0.672,-0.471,0.0
23.527,-1.14,-0.148,1.0
20.369,-0.981,-0.235,0.0
18.043,-0.863,-0.304,0.0
16.484,-0.784,-0.367,0.0
15.192,-0.718,-0.419,0.0
14.02,-0.659,-0.461,0.0
23.786,-1.113,-0.122,0.0
21.319,-0.991,-0.222,2.0
18.758,-0.866,-0.294,0.0
16.822,-0.772,-0.355,0.0
15.414,-0.702,-0.407,0.0
14.28,-0.646,-0.453,0.0
25.102,-1.132,-0.099,0.0
22.141,-0.992,-0.205,0.0
19.11,-0.85,-0.278,0.0
17.127,-0.757,-0.342,0.0
15.759,-0.691,-0.398,0.0
14.508,-0.632,-0.444,0.0
25.823,-1.12,-0.074,1.0
22.505,-0.969,-0.183,1.0
19.481,-0.833,-0.262,0.0
17.452,-0.741,-0.329,0.0
16.015,-0.675,-0.387,0.0
14.776,-0.618,-0.436,0.0
25.88,-1.078,-0.046,2.0
23.154,-0.957,-0.164,1.0
20.347,-0.834,-0.252,0.0
17.839,-0.726,-0.317,0.0
16.338,-0.66,-0.377,0.0
14.925,-0.598,-0.424,0.0
26.456,-1.055,-0.019,0.0
23.396,-0.925,-0.141,0.0
20.923,-0.821,-0.237,2.0
18.205,-0.708,-0.305,0.0
16.531,-0.638,-0.365,0.0
15.209,-0.582,-0.417,0.0
27.3,-1.039,0.008,0.0
0.0,0.0,0.0,0.0
21.044,-0.788,-0.217,1.0
18.601,-0.69,-0.293,0.0
16.845,-0.619,-0.355,0.0
15.532,-0.566,-0.41,0.0
28.356,-1.028,0.037,1.0
24.364,-0.875,-0.097,0.0
22.045,-0.785,-0.206,1.0
19.159,-0.676,-0.283,0.0
17.142,-0.599,-0.344,0.0
15.778,-0.546,-0.401,0.0
28.531,-0.982,0.064,2.0
25.624,-0.873,-0.078,0.0
22.306,-0.752,-0.186,0.0
19.456,-0.65,-0.268,0.0
17.37,-0.575,-0.332,0.0
15.958,-0.523,-0.39,0.0
28.607,-0.93,0.092,1.0
25.951,-0.836,-0.054,0.0
23.153,-0.738,-0.172,0.0
19.814,-0.625,-0.255,0.0
17.697,-0.552,-0.322,0.0
16.207,-0.5,-0.382,0.0
28.645,-0.878,0.118,0.0
26.327,-0.797,-0.031,0.0
23.423,-0.702,-0.153,0.0
20.575,-0.61,-0.246,0.0
18.092,-0.53,-0.313,0.0
16.495,-0.477,-0.374,0.0
28.778,-0.826,0.144,0.0
26.95,-0.765,-0.008,0.0
23.686,-0.664,-0.134,0.0
20.99,-0.581,-0.233,2.0
18.343,-0.502,-0.302,0.0
16.713,-0.452,-0.365,0.0
30.733,-0.823,0.18,0.0
27.507,-0.728,0.013,0.0
24.573,-0.642,-0.119,0.0
21.721,-0.56,-0.224,0.0
18.721,-0.476,-0.293,0.0
16.869,-0.423,-0.354,0.0
31.117,-0.773,0.207,0.0
28.344,-0.694,0.037,1.0
25.092,-0.606,-0.101,0.0
22.036,-0.525,-0.209,0.0
19.118,-0.449,-0.284,0.0
17.046,-0.394,-0.345,0.0
31.693,-0.726,0.235,0.0
28.611,-0.645,0.059,4.0
25.336,-0.562,-0.083,0.0
22.375,-0.489,-0.196,0.0
19.483,-0.419,-0.275,0.0
17.3,-0.366,-0.337,0.0
32.967,-0.689,0.269,1.0
28.681,-0.589,0.08,6.0
25.903,-0.523,-0.066,0.0
22.699,-0.451,-0.182,0.0
19.723,-0.385,-0.264,0.0
17.506,-0.335,-0.329,0.0
33.294,-0.629,0.296,2.0
28.691,-0.533,0.1,1.0
26.147,-0.476,-0.048,0.0
23.171,-0.414,-0.17,0.0
19.929,-0.349,-0.253,0.0
17.853,-0.306,-0.323,0.0
33.761,-0.57,0.323,2.0
28.807,-0.476,0.12,0.0
26.278,-0.425,-0.031,0.0
23.616,-0.374,-0.157,1.0
20.391,-0.316,-0.246,0.0
17.974,-0.272,-0.313,0.0
34.005,-0.505,0.347,1.0
28.833,-0.418,0.139,0.0
26.733,-0.378,-0.014,0.0
23.446,-0.323,-0.141,0.0
20.884,-0.28,-0.239,0.0
18.182,-0.238,-0.306,0.0
34.223,-0.438,0.37,0.0
30.178,-0.375,0.164,0.0
27.059,-0.327,0.001,0.0
24.065,-0.282,-0.131,0.0
21.227,-0.241,-0.23,0.0
18.533,-0.204,-0.301,0.0
0.0,0.0,0.0,0.0
30.891,-0.32,0.185,1.0
27.509,-0.275,0.016,0.0
24.297,-0.234,-0.119,0.0
21.509,-0.2,-0.221,0.0
18.701,-0.167,-0.293,0.0
0.0,0.0,0.0,0.0
31.494,-0.261,0.206,1.0
28.261,-0.224,0.031,1.0
24.711,-0.187,-0.108,0.0
21.935,-0.158,-0.214,1.0
19.033,-0.13,-0.289,0.0
0.0,0.0,0.0,0.0
31.579,-0.195,0.222,1.0
28.612,-0.166,0.046,1.0
25.028,-0.137,-0.097,0.0
21.917,-0.112,-0.204,1.0
19.182,-0.091,-0.282,0.0
37.096,-0.164,0.479,0.0
31.795,-0.13,0.238,0.0
28.662,-0.106,0.059,4.0
25.307,-0.085,-0.087,0.0
22.183,-0.067,-0.196,0.0
19.164,-0.051,-0.274,0.0
37.68,-0.087,0.503,0.0
32.442,-0.064,0.257,1.0
28.715,-0.046,0.071,4.0
25.577,-0.032,-0.077,0.0
22.33,-0.02,-0.189,0.0
19.584,-0.01,-0.272,0.0
38.381,-0.007,0.528,0.0
33.016,0.005,0.274,0.0
28.708,0.014,0.082,1.0
25.756,0.022,-0.068,0.0
22.936,0.027,-0.185,0.0
19.639,0.03,-0.266,0.0
39.357,0.076,0.555,0.0
0.0,0.0,0.0,0.0
28.758,0.075,0.092,2.0
25.848,0.077,-0.06,0.0
23.045,0.077,-0.179,1.0
19.892,0.073,-0.262,0.0
0.0,0.0,0.0,0.0
32.769,0.145,0.294,0.0
28.741,0.137,0.101,0.0
25.978,0.133,-0.052,0.0
22.886,0.125,-0.171,0.0
20.066,0.117,-0.259,0.0
0.0,0.0,0.0,0.0
33.524,0.22,0.31,0.0
28.855,0.199,0.109,3.0
26.101,0.19,-0.045,0.0
23.173,0.177,-0.167,0.0
20.209,0.161,-0.256,0.0
40.042,0.335,0.599,0.0
0.0,0.0,0.0,0.0
28.843,0.261,0.116,5.0
26.25,0.247,-0.04,0.0
23.415,0.228,-0.163,0.0
20.385,0.206,-0.254,0.0
40.684,0.427,0.617,0.0
34.155,0.37,0.331,0.0
28.899,0.323,0.122,6.0
26.319,0.304,-0.035,0.0
23.437,0.278,-0.159,0.0
20.348,0.249,-0.25,0.0
0.0,0.0,0.0,0.0
33.794,0.438,0.333,0.0
28.893,0.385,0.126,4.0
26.412,0.361,-0.031,0.0
23.578,0.33,-0.157,0.0
20.431,0.293,-0.248,0.0
40.524,0.598,0.626,0.0
34.038,0.514,0.339,0.0
28.849,0.445,0.129,1.0
26.419,0.417,-0.028,0.0
23.618,0.381,-0.155,0.0
20.456,0.337,-0.246,0.0
40.697,0.687,0.633,0.0
33.994,0.586,0.342,0.0
28.948,0.509,0.132,0.0
26.375,0.473,-0.026,0.0
23.599,0.431,-0.153,0.0
20.342,0.378,-0.244,0.0
0.0,0.0,0.0,0.0
34.145,0.661,0.345,0.0
28.849,0.569,0.133,0.0
26.445,0.53,-0.025,0.0
23.502,0.479,-0.152,0.0
20.525,0.425,-0.245,0.0
0.0,0.0,0.0,0.0
34.05,0.732,0.345,0.0
28.882,0.631,0.133,0.0
26.388,0.585,-0.025,0.0
23.555,0.53,-0.152,0.0
20.385,0.466,-0.244,0.0
0.0,0.0,0.0,0.0
34.468,0.814,0.348,0.0
28.958,0.694,0.133,2.0
26.455,0.642,-0.026,0.0
23.648,0.582,-0.154,1.0
20.459,0.51,-0.246,0.0
0.0,0.0,0.0,0.0
34.503,0.888,0.346,1.0
28.943,0.755,0.13,4.0
26.421,0.698,-0.028,0.0
23.608,0.631,-0.156,1.0
20.446,0.554,-0.248,0.0
46.133,1.271,0.713,0.0
34.697,0.967,0.345,0.0
28.967,0.817,0.127,6.0
26.395,0.753,-0.031,0.0
23.371,0.675,-0.157,1.0
20.306,0.593,-0.249,0.0
0.0,0.0,0.0,0.0
34.421,1.033,0.337,1.0
28.969,0.879,0.123,6.0
26.273,0.806,-0.035,0.0
23.148,0.718,-0.159,0.0
20.291,0.636,-0.252,0.0
0.0,0.0,0.0,0.0
34.332,1.103,0.33,1.0
28.932,0.939,0.118,3.0
26.25,0.86,-0.04,0.0
23.104,0.765,-0.163,0.0
20.151,0.674,-0.254,0.0
0.0,0.0,0.0,0.0
34.012,1.164,0.32,1.0
28.871,0.997,0.111,1.0
25.952,0.905,-0.046,0.0
22.985,0.809,-0.168,0.0
19.971,0.709,-0.257,0.0
40.494,1.458,0.595,0.0
33.732,1.225,0.308,1.0
28.901,1.059,0.104,1.0
25.812,0.954,-0.052,9.0
22.772,0.848,-0.172,0.0
19.912,0.748,-0.261,0.0
0.0,0.0,0.0,0.0
33.48,1.284,0.297,1.0
28.858,1.116,0.095,1.0
25.73,1.003,-0.06,0.0
22.649,0.89,-0.178,0.0
19.765,0.783,-0.265,0.0
0.0,0.0,0.0,0.0
33.227,1.343,0.283,1.0
28.788,1.173,0.085,1.0
25.505,1.047,-0.068,0.0
22.331,0.924,-0.184,0.0
19.632,0.819,-0.271,0.0
0.0,0.0,0.0,0.0
32.712,1.389,0.267,1.0
28.573,1.222,0.074,0.0
25.178,1.085,-0.076,0.0
22.176,0.963,-0.191,0.0
19.603,0.857,-0.278,0.0
0.0,0.0,0.0,0.0
32.423,1.443,0.252,1.0
28.213,1.264,0.062,0.0
25.051,1.13,-0.086,0.0
22.014,1.0,-0.198,1.0
19.262,0.88,-0.281,0.0
38.315,1.771,0.495,0.0
32.109,1.493,0.236,1.0
27.86,1.304,0.049,0.0
24.772,1.167,-0.096,0.0
21.833,1.035,-0.206,1.0
18.937,0.903,-0.285,0.0
37.895,1.826,0.473,0.0
31.808,1.543,0.219,1.0
27.429,1.338,0.036,0.0
24.479,1.201,-0.107,1.0
21.676,1.07,-0.215,2.0
18.783,0.933,-0.292,0.0
0.0,0.0,0.0,0.0
31.182,1.574,0.199,1.0
27.277,1.385,0.022,0.0
24.317,1.242,-0.118,0.0
21.52,1.105,-0.225,1.0
18.533,0.957,-0.298,0.0
35.99,1.877,0.412,0.0
30.675,1.608,0.179,0.0
26.965,1.421,0.007,0.0
23.836,1.263,-0.129,0.0
21.358,1.138,-0.235,3.0
18.281,0.98,-0.304,0.0
35.563,1.924,0.387,0.0
30.314,1.648,0.16,1.0
26.688,1.459,-0.008,0.0
23.555,1.294,-0.141,0.0
20.955,1.157,-0.243,1.0
18.231,1.012,-0.314,1.0
35.24,1.973,0.362,0.0
29.785,1.676,0.139,0.0
26.206,1.482,-0.023,0.0
23.12,1.314,-0.153,0.0
20.402,1.165,-0.249,0.0
18.04,1.035,-0.321,0.0
34.713,2.009,0.335,0.0
29.397,1.709,0.119,0.0
25.9,1.513,-0.04,0.0
22.936,1.346,-0.166,0.0
20.082,1.184,-0.258,0.0
17.738,1.051,-0.328,0.0
34.011,2.032,0.306,0.0
28.883,1.733,0.098,0.0
25.469,1.535,-0.056,0.0
22.607,1.369,-0.179,0.0
19.654,1.196,-0.266,0.0
17.494,1.069,-0.335,0.0
32.829,2.022,0.273,0.0
28.437,1.759,0.076,0.0
25.164,1.563,-0.073,0.0
22.22,1.386,-0.192,0.0
19.34,1.212,-0.276,0.0
17.242,1.085,-0.343,0.0
32.748,2.077,0.248,1.0
27.898,1.776,0.055,0.0
24.776,1.584,-0.09,0.0
21.877,1.404,-0.205,0.0
19.114,1.232,-0.287,0.0
17.042,1.103,-0.351,0.0
31.687,2.066,0.217,0.0
27.452,1.797,0.033,0.0
24.331,1.599,-0.107,1.0
21.501,1.418,-0.218,0.0
18.755,1.242,-0.296,0.0
16.909,1.124,-0.362,0.0
30.887,2.069,0.187,0.0
26.889,1.807,0.011,0.0
24.06,1.623,-0.125,2.0
21.066,1.426,-0.23,0.0
18.488,1.257,-0.306,0.0
16.695,1.139,-0.371,0.0
30.157,2.072,0.158,0.0
26.45,1.824,-0.01,0.0
23.803,1.647,-0.143,1.0
20.517,1.424,-0.241,0.0
18.245,1.271,-0.317,0.0
16.505,1.154,-0.38,0.0
29.426,2.072,0.129,0.0
25.946,1.833,-0.031,0.0
23.258,1.649,-0.16,0.0
20.215,1.438,-0.255,0.0
17.827,1.272,-0.326,0.0
16.292,1.167,-0.39,0.0
28.816,2.077,0.102,1.0
25.477,1.842,-0.053,0.0
22.608,1.64,-0.175,0.0
19.589,1.426,-0.264,0.0
17.488,1.277,-0.335,0.0
16.029,1.174,-0.397,0.0
28.318,2.088,0.075,1.0
24.941,1.845,-0.074,0.0
22.022,1.634,-0.19,0.0
19.298,1.436,-0.278,0.0
17.222,1.285,-0.345,0.0
15.877,1.189,-0.408,0.0
27.742,2.09,0.048,1.0
24.248,1.832,-0.095,1.0
21.584,1.635,-0.206,0.0
18.945,1.44,-0.29,0.0
17.004,1.296,-0.357,0.0
15.669,1.198,-0.418,0.0
27.106,2.085,0.021,0.0
24.052,1.855,-0.117,2.0
21.234,1.642,-0.224,0.0
18.557,1.44,-0.302,0.0
16.802,1.307,-0.369,0.0
15.37,1.199,-0.425,0.0
26.446,2.075,-0.005,0.0
23.756,1.869,-0.139,1.0
20.773,1.639,-0.239,0.0
18.147,1.435,-0.314,0.0
16.527,1.311,-0.379,0.0
15.103,1.202,-0.432,0.0
25.886,2.07,-0.03,0.0
22.845,1.832,-0.156,1.0
20.287,1.631,-0.254,0.0
17.874,1.441,-0.327,0.0
16.243,1.313,-0.389,0.0
14.968,1.213,-0.443,0.0
25.337,2.064,-0.055,0.0
22.501,1.837,-0.177,1.0
19.579,1.603,-0.265,0.0
17.515,1.437,-0.338,0.0
15.973,1.314,-0.399,0.0
14.667,1.21,-0.45,0.0
24.677,2.045,-0.079,0.0
22.027,1.83,-0.196,1.0
19.271,1.605,-0.281,0.0
17.175,1.434,-0.35,0.0
15.734,1.317,-0.41,0.0
14.463,1.214,-0.459,0.0
24.091,2.031,-0.103,0.0
21.491,1.816,-0.214,0.0
18.781,1.59,-0.294,0.0
16.888,1.433,-0.362,0.0
15.546,1.323,-0.422,0.0
14.27,1.217,-0.468,0.0
23.52,2.015,-0.126,0.0
21.063,1.808,-0.233,0.0
18.356,1.579,-0.307,0.0
16.615,1.433,-0.374,0.0
15.261,1.319,-0.431,0.0
14.104,1.222,-0.478,0.0
22.86,1.989,-0.148,1.0
20.117,1.754,-0.245,0.0
17.967,1.57,-0.321,0.0
16.298,1.427,-0.385,0.0
15.096,1.325,-0.443,0.0
13.882,1.221,-0.486,0.0
22.437,1.981,-0.17,1.0
19.817,1.753,-0.263,0.0
17.591,1.559,-0.334,0.0
15.998,1.421,-0.396,0.0
14.686,1.307,-0.448,0.0
13.676,1.22,-0.495,0.0
21.917,1.963,-0.192,3.0
19.33,1.735,-0.279,0.0
17.267,1.553,-0.348,0.0
15.841,1.427,-0.411,0.0
14.499,1.309,-0.459,0.0
13.447,1.216,-0.502,0.0
21.533,1.955,-0.213,2.0
18.472,1.68,-0.288,0.0
16.962,1.546,-0.361,0.0
15.562,1.421,-0.422,0.0
14.257,1.304,-0.468,0.0
13.272,1.216,-0.511,0.0
20.977,1.929,-0.232,0.0
18.345,1.69,-0.308,0.0
16.63,1.535,-0.374,0.0
15.23,1.408,-0.431,0.0
14.019,1.299,-0.477,0.0
13.061,1.212,-0.519,0.0
20.42,1.901,-0.251,0.0
17.502,1.632,-0.315,1.0
16.217,1.515,-0.384,0.0
14.921,1.396,-0.44,0.0
13.84,1.298,-0.487,0.0
12.893,1.211,-0.528,0.0
19.664,1.853,-0.265,0.0
17.49,1.65,-0.336,0.0
16.018,1.514,-0.399,0.0
14.698,1.391,-0.451,0.0
13.582,1.288,-0.495,0.0
12.676,1.204,-0.534,0.0
19.142,1.824,-0.281,0.0
17.206,1.642,-0.351,0.0
15.769,1.507,-0.412,0.0
14.444,1.382,-0.461,0.0
13.398,1.284,-0.505,0.0
12.557,1.206,-0.545,0.0
18.653,1.796,-0.297,0.0
16.861,1.626,-0.365,0.0
15.496,1.496,-0.424,0.0
14.148,1.368,-0.47,0.0
13.224,1.281,-0.515,0.0
12.404,1.203,-0.554,0.0
18.19,1.769,-0.313,0.0
16.506,1.608,-0.378,0.0
15.134,1.476,-0.433,0.0
13.922,1.36,-0.48,0.0
12.997,1.272,-0.522,0.0
12.222,1.198,-0.561,0.0
17.777,1.746,-0.328,0.0
16.175,1.591,-0.391,0.0
14.936,1.471,-0.447,0.0
13.717,1.353,-0.49,0.0
12.786,1.262,-0.53,0.0
12.08,1.195,-0.57,0.0
17.388,1.723,-0.343,0.0
15.872,1.575,-0.404,0.0
14.561,1.447,-0.454,0.0
13.479,1.341,-0.499,0.0
12.639,1.259,-0.54,0.0
11.865,1.184,-0.575,0.0
17.044,1.703,-0.358,0.0
15.616,1.563,-0.417,0.0
14.301,1.433,-0.464,0.0
13.317,1.336,-0.51,0.0
12.509,1.256,-0.55,0.0
11.63,1.17,-0.579,0.0
16.668,1.679,-0.371,0.0
15.303,1.543,-0.428,0.0
14.019,1.416,-0.473,0.0
13.142,1.329,-0.52,0.0
12.314,1.246,-0.558,0.0
11.534,1.169,-0.589,0.0
16.312,1.656,-0.384,0.0
15.023,1.527,-0.44,0.0
13.833,1.407,-0.485,0.0
12.939,1.318,-0.529,0.0
12.112,1.235,-0.564,0.0
11.357,1.159,-0.595,0.0
16.042,1.64,-0.399,0.0
14.687,1.503,-0.449,0.0
13.617,1.395,-0.495,0.0
12.667,1.299,-0.534,0.0
11.954,1.227,-0.573,0.0
11.18,1.149,-0.6,0.0
15.753,1.621,-0.412,0.0
14.361,1.479,-0.458,0.0
13.363,1.378,-0.503,0.0
12.528,1.293,-0.545,0.0
11.74,1.213,-0.578,0.0
11.022,1.14,-0.606,0.0
15.445,1.599,-0.424,0.0
14.151,1.466,-0.47,0.0
13.204,1.369,-0.514,0.0
12.417,1.289,-0.556,0.0
11.537,1.199,-0.583,0.0
10.891,1.133,-0.613,0.0
15.091,1.571,-0.434,0.0
13.895,1.448,-0.479,0.0
13.064,1.362,-0.526,0.0
12.155,1.269,-0.56,0.0
11.414,1.193,-0.592,0.0
10.774,1.127,-0.62,0.0
14.854,1.554,-0.447,0.0
13.673,1.432,-0.49,0.0
12.744,1.336,-0.53,0.0
12.011,1.26,-0.569,0.0
11.227,1.179,-0.597,0.0
10.637,1.118,-0.627,0.0
14.53,1.528,-0.456,0.0
13.478,1.418,-0.5,0.0
12.603,1.327,-0.54,0.0
11.818,1.245,-0.576,0.0
11.101,1.171,-0.605,0.0
10.468,1.105,-0.631,0.0
14.206,1.5,-0.465,0.0
13.318,1.407,-0.512,0.0
12.441,1.315,-0.55,0.0
11.512,1.218,-0.576,0.0
10.963,1.161,-0.611,0.0
10.357,1.098,-0.637,0.0
13.982,1.482,-0.476,0.0
12.928,1.371,-0.514,0.0
12.221,1.297,-0.556,0.0
11.429,1.214,-0.587,0.0
10.811,1.149,-0.617,0.0
10.174,1.082,-0.639,0.0
13.714,1.458,-0.484,0.0
12.851,1.367,-0.527,0.0
12.083,1.286,-0.565,0.0
11.29,1.203,-0.594,0.0
10.673,1.138,-0.623,0.0
10.055,1.073,-0.645,0.0
13.52,1.442,-0.495,0.0
12.624,1.347,-0.535,0.0
11.932,1.274,-0.574,0.0
11.115,1.187,-0.6,0.0
10.521,1.125,-0.628,0.0
9.948,1.064,-0.651,0.0
13.34,1.426,-0.506,0.0
12.503,1.337,-0.546,0.0
11.642,1.246,-0.575,0.0
10.962,1.174,-0.606,0.0
10.354,1.109,-0.632,0.0
9.813,1.052,-0.655,0.0
13.115,1.405,-0.514,0.0
12.306,1.319,-0.553,0.0
11.518,1.235,-0.584,0.0
10.873,1.166,-0.615,0.0
10.231,1.098,-0.637,0.0
9.726,1.045,-0.662,0.0
12.944,1.389,-0.524,0.0
12.134,1.303,-0.561,0.0
11.381,1.222,-0.591,0.0
10.743,1.154,-0.621,0.0
10.173,1.093,-0.647,0.0
9.584,1.031,-0.665,0.0
12.727,1.367,-0.531,0.0
11.978,1.287,-0.569,0.0
11.196,1.204,-0.596,0.0
10.577,1.138,-0.625,0.0
9.99,1.075,-0.648,0.0
9.485,1.021,-0.67,0.0
12.544,1.349,-0.539,0.0
11.762,1.265,-0.573,0.0
11.027,1.186,-0.601,0.0
10.402,1.12,-0.628,0.0
9.857,1.061,-0.652,0.0
9.376,1.01,-0.674,0.0
12.42,1.336,-0.549,0.0
11.632,1.251,-0.581,0.0
10.941,1.177,-0.61,0.0
10.276,1.106,-0.633,0.0
9.721,1.047,-0.655,0.0
9.294,1.001,-0.68,0.0
12.232,1.316,-0.556,0.0
11.46,1.233,-0.587,0.0
10.82,1.164,-0.616,0.0
10.168,1.094,-0.639,0.0
9.657,1.04,-0.662,0.0
9.164,0.987,-0.681,0.0
12.073,1.298,-0.564,0.0
11.304,1.215,-0.593,0.0
10.677,1.148,-0.621,0.0
10.096,1.086,-0.647,0.0
9.55,1.027,-0.667,0.0
9.081,0.977,-0.686,0.0
11.997,1.289,-0.575,0.0
11.097,1.192,-0.595,0.0
10.578,1.136,-0.628,0.0
9.96,1.07,-0.65,0.0
9.428,1.013,-0.669,0.0
8.862,0.953,-0.68,0.0
11.734,1.259,-0.576,0.0
10.999,1.18,-0.603,0.0
10.431,1.119,-0.632,0.0
9.803,1.052,-0.651,0.0
9.336,1.002,-0.674,0.0
8.864,0.951,-0.691,0.0
11.546,1.237,-0.581,0.0
10.889,1.166,-0.61,0.0
10.273,1.1,-0.635,0.0
9.727,1.042,-0.658,0.0
9.252,0.991,-0.679,0.0
8.859,0.949,-0.701,0.0
11.363,1.214,-0.585,0.0
10.769,1.151,-0.616,0.0
10.186,1.089,-0.641,0.0
9.626,1.029,-0.662,0.0
9.127,0.975,-0.68,0.0
8.7,0.93,-0.699,0.0
11.255,1.2,-0.592,0.0
10.65,1.135,-0.621,0.0
10.06,1.072,-0.645,0.0
9.528,1.016,-0.666,0.0
9.054,0.965,-0.685,0.0
8.603,0.917,-0.701,0.0
11.103,1.18,-0.596,0.0
10.491,1.115,-0.624,0.0
9.926,1.055,-0.647,0.0
9.426,1.002,-0.67,0.0
8.906,0.946,-0.684,0.0
8.495,0.903,-0.702,0.0
11.016,1.167,-0.604,0.0
10.407,1.102,-0.63,0.0
9.786,1.036,-0.649,0.0
9.306,0.985,-0.672,0.0
8.833,0.935,-0.688,0.0
8.489,0.899,-0.711,0.0
10.904,1.151,-0.61,0.0
10.331,1.09,-0.637,0.0
9.665,1.02,-0.651,0.0
9.224,0.973,-0.676,0.0
8.86,0.934,-0.7,0.0
8.418,0.888,-0.714,0.0
10.763,1.132,-0.613,0.0
10.15,1.067,-0.636,0.0
9.608,1.009,-0.658,0.0
0.0,0.0,0.0,0.0
8.713,0.915,-0.698,0.0
8.365,0.878,-0.718,0.0
10.677,1.118,-0.619,0.0
10.053,1.052,-0.641,0.0
9.515,0.995,-0.661,0.0
0.0,0.0,0.0,0.0
8.673,0.906,-0.703,0.0
8.248,0.862,-0.716,0.0
10.548,1.099,-0.623,0.0
9.919,1.033,-0.642,0.0
9.441,0.982,-0.666,0.0
0.0,0.0,0.0,0.0
8.539,0.888,-0.701,0.0
8.181,0.85,-0.719,0.0
10.451,1.083,-0.627,0.0
9.878,1.023,-0.649,0.0
9.349,0.968,-0.668,0.0
8.854,0.916,-0.685,0.0
8.535,0.883,-0.709,0.0
8.147,0.842,-0.724,0.0
10.343,1.065,-0.631,0.0
9.753,1.004,-0.651,0.0
9.278,0.955,-0.672,0.0
8.796,0.905,-0.689,0.0
8.45,0.869,-0.71,0.0
8.113,0.834,-0.729,0.0
10.228,1.047,-0.633,0.0
9.671,0.99,-0.654,0.0
9.127,0.933,-0.67,0.0
0.0,0.0,0.0,0.0
8.388,0.857,-0.713,0.0
0.0,0.0,0.0,0.0
10.139,1.031,-0.637,0.0
9.562,0.972,-0.656,0.0
0.0,0.0,0.0,0.0
8.628,0.876,-0.691,0.0
8.331,0.845,-0.716,0.0
0.0,0.0,0.0,0.0
10.054,1.016,-0.641,0.0
9.526,0.962,-0.662,0.0
9.061,0.914,-0.681,0.0
8.637,0.871,-0.7,0.0
8.292,0.835,-0.719,0.0
0.0,0.0,0.0,0.0
9.989,1.002,-0.645,0.0
9.458,0.948,-0.665,0.0
8.906,0.892,-0.677,0.0
8.551,0.856,-0.7,0.0
8.277,0.828,-0.725,0.0
0.0,0.0,0.0,0.0
9.876,0.983,-0.646,0.0
9.385,0.933,-0.668,0.0
8.889,0.883,-0.683,0.0
8.502,0.844,-0.703,0.0
8.17,0.81,-0.722,0.0
0.0,0.0,0.0,0.0
9.814,0.969,-0.65,0.0
9.345,0.921,-0.672,0.0
8.806,0.868,-0.684,0.0
8.475,0.834,-0.707,0.0
8.147,0.801,-0.727,0.0
0.0,0.0,0.0,0.0
9.735,0.953,-0.652,0.0
9.276,0.907,-0.674,0.0
8.744,0.854,-0.686,0.0
8.452,0.825,-0.712,0.0
8.09,0.789,-0.728,0.0
7.72,0.752,-0.739,0.0
9.631,0.934,-0.652,0.0
9.173,0.889,-0.674,0.0
8.763,0.848,-0.694,0.0
8.327,0.805,-0.707,0.0
8.082,0.781,-0.733,0.0
7.691,0.742,-0.742,0.0
9.591,0.921,-0.656,0.0
9.103,0.873,-0.675,0.0
8.719,0.836,-0.696,0.0
8.313,0.796,-0.712,0.0
0.0,0.0,0.0,0.0
7.591,0.726,-0.737,0.0
9.544,0.908,-0.659,0.0
9.12,0.866,-0.682,0.0
8.655,0.821,-0.697,0.0
8.278,0.785,-0.715,0.0
0.0,0.0,0.0,0.0
7.644,0.723,-0.747,0.0
9.45,0.89,-0.659,0.0
8.993,0.846,-0.678,0.0
8.554,0.803,-0.694,0.0
8.264,0.775,-0.719,0.0
0.0,0.0,0.0,0.0
7.586,0.71,-0.746,0.0
9.474,0.882,-0.666,0.0
8.931,0.831,-0.679,0.0
8.569,0.796,-0.7,0.0
8.197,0.761,-0.717,0.0
0.0,0.0,0.0,0.0
7.565,0.7,-0.749,0.0
9.399,0.866,-0.667,0.0
8.894,0.818,-0.681,0.0
8.513,0.782,-0.701,0.0
8.161,0.749,-0.719,0.0
0.0,0.0,0.0,0.0
7.507,0.687,-0.747,0.0
9.364,0.852,-0.669,0.0
8.929,0.812,-0.689,0.0
8.533,0.774,-0.707,0.0
8.167,0.74,-0.724,0.0
0.0,0.0,0.0,0.0
7.506,0.679,-0.751,0.0
9.315,0.838,-0.67,0.0
8.862,0.796,-0.688,0.0
8.414,0.754,-0.701,0.0
8.096,0.725,-0.721,0.0
0.0,0.0,0.0,0.0
7.457,0.666,-0.749,0.0
9.195,0.817,-0.666,0.0
8.814,0.781,-0.688,0.0
8.401,0.744,-0.704,0.0
8.149,0.72,-0.73,0.0
0.0,0.0,0.0,0.0
7.405,0.653,-0.747,0.0
9.219,0.808,-0.671,0.0
8.755,0.766,-0.687,0.0
8.423,0.736,-0.709,0.0
0.0,0.0,0.0,0.0
0.0,0.0,0.0,0.0
7.399,0.643,-0.75,0.0
9.189,0.795,-0.673,0.0
8.754,0.756,-0.69,0.0
8.368,0.721,-0.707,0.0
0.0,0.0,0.0,0.0
0.0,0.0,0.0,0.0
7.369,0.632,-0.749,0.0
9.141,0.78,-0.672,0.0
8.702,0.741,-0.689,0.0
8.333,0.708,-0.707,0.0
0.0,0.0,0.0,0.0
0.0,0.0,0.0,0.0
7.386,0.625,-0.753,0.0
9.151,0.769,-0.676,0.0
8.672,0.728,-0.689,0.0
8.338,0.699,-0.71,0.0
0.0,0.0,0.0,0.0
0.0,0.0,0.0,0.0
7.365,0.614,-0.753,0.0
9.126,0.756,-0.676,0.0
8.709,0.72,-0.694,0.0
8.328,0.687,-0.711,0.0
0.0,0.0,0.0,0.0
0.0,0.0,0.0,0.0
7.338,0.602,-0.752,0.0
9.087,0.741,-0.675,0.0
8.693,0.708,-0.695,0.0
8.293,0.674,-0.71,0.0
0.0,0.0,0.0,0.0
0.0,0.0,0.0,0.0
7.37,0.595,-0.757,0.0
9.101,0.731,-0.678,0.0
8.63,0.691,-0.691,0.0
8.325,0.665,-0.714,0.0
0.0,0.0,0.0,0.0
0.0,0.0,0.0,0.0
7.371,0.586,-0.758,0.0
9.092,0.718,-0.679,0.0
8.689,0.685,-0.697,0.0
8.248,0.649,-0.708,0.0
0.0,0.0,0.0,0.0
0.0,0.0,0.0,0.0
7.345,0.574,-0.756,0.0
9.04,0.702,-0.676,0.0
8.662,0.671,-0.696,0.0
8.302,0.642,-0.714,0.0
0.0,0.0,0.0,0.0
0.0,0.0,0.0,0.0
7.334,0.563,-0.755,0.0
9.111,0.696,-0.681,0.0
8.599,0.655,-0.691,0.0
0.0,0.0,0.0,0.0
0.0,0.0,0.0,0.0
0.0,0.0,0.0,0.0
7.306,0.551,-0.753,0.0
9.028,0.677,-0.675,0.0
8.619,0.645,-0.693,0.0
8.343,0.623,-0.718,0.0
0.0,0.0,0.0,0.0
0.0,0.0,0.0,0.0
7.304,0.541,-0.752,0.0
9.03,0.665,-0.675,0.0
8.663,0.636,-0.696,0.0
8.259,0.605,-0.71,0.0
0.0,0.0,0.0,0.0
0.0,0.0,0.0,0.0
7.333,0.533,-0.755,0.0
9.09,0.657,-0.679,0.0
8.614,0.621,-0.691,0.0
8.276,0.595,-0.711,0.0
0.0,0.0,0.0,0.0
0.0,0.0,0.0,0.0
7.327,0.523,-0.753,0.0
