X,Y,Z,Reflectivity
146.15,-11.905,12.279,10.0
148.64,-12.131,16.695,15.0
146.898,-11.958,15.691,14.0
146.986,-11.935,14.892,5.0
144.589,-11.711,13.841,11.0
145.214,-11.735,13.105,16.0
146.023,-11.77,12.38,10.0
148.604,-12.002,16.805,13.0
146.589,-11.808,15.769,13.0
0.0,0.0,0.0,0.0
144.598,-11.589,13.948,8.0
145.111,-11.601,13.202,15.0
146.083,-11.648,12.492,3.0
151.105,-12.072,17.198,12.0
146.538,-11.674,15.87,6.0
146.62,-11.65,15.07,7.0
145.824,-11.556,14.171,13.0
145.087,-11.468,13.302,11.0
145.863,-11.499,12.573,17.0
151.197,-11.943,17.314,15.0
148.516,-11.698,16.185,10.0
147.941,-11.619,15.307,7.0
145.694,-11.412,14.255,12.0
145.908,-11.398,13.473,13.0
146.183,-11.389,12.696,7.0
151.217,-11.802,17.416,4.0
151.009,-11.751,16.556,5.0
148.135,-11.495,15.422,13.0
145.77,-11.28,14.355,19.0
146.377,-11.296,13.608,6.0
146.004,-11.236,12.77,11.0
0.0,0.0,0.0,0.0
148.598,-11.422,16.381,5.0
148.008,-11.343,15.496,12.0
145.577,-11.124,14.422,23.0
146.55,-11.166,13.71,4.0
119.324,-9.067,10.505,10.0
0.0,0.0,0.0,0.0
148.528,-11.268,16.459,13.0
148.067,-11.2,15.586,14.0
145.545,-10.975,14.501,14.0
147.337,-11.078,13.864,9.0
119.223,-8.939,10.56,12.0
148.264,-11.095,16.51,19.0
150.835,-11.252,15.958,5.0
90.811,-6.754,9.094,15.0
146.64,-10.874,13.874,9.0
119.136,-8.807,10.613,11.0
90.66,-6.712,10.645,12.0
148.655,-10.971,16.626,14.0
148.649,-10.935,15.798,15.0
147.145,-10.789,14.806,7.0
146.86,-10.735,13.963,15.0
119.208,-8.687,10.674,13.0
90.507,-6.604,10.669,11.0
148.444,-10.794,16.671,13.0
148.474,-10.762,15.846,14.0
91.593,-6.616,9.256,6.0
146.861,-10.576,14.026,12.0
119.397,-8.571,10.742,12.0
90.389,-6.496,10.693,14.0
148.22,-10.615,16.707,12.0
148.462,-10.598,15.904,16.0
91.54,-6.512,9.287,14.0
146.752,-10.407,14.072,14.0
117.073,-8.275,10.576,8.0
90.064,-6.373,10.689,29.0
90.882,-6.408,10.277,16.0
148.79,-10.455,15.993,9.0
91.205,-6.387,9.285,18.0
146.611,-10.232,14.11,7.0
117.165,-8.149,10.625,8.0
90.041,-6.27,10.716,29.0
90.291,-6.264,10.24,20.0
91.005,-6.291,9.811,4.0
91.265,-6.286,9.32,22.0
91.399,-6.273,8.824,11.0
88.248,-6.037,8.028,10.0
90.124,-6.17,10.753,22.0
90.053,-6.143,10.238,30.0
91.089,-6.191,9.845,14.0
91.343,-6.185,9.353,16.0
91.436,-6.169,8.852,18.0
88.32,-5.938,8.057,5.0
90.214,-6.071,10.786,30.0
90.08,-6.039,10.264,19.0
91.136,-6.087,9.872,24.0
91.521,-6.091,9.391,12.0
91.223,-6.048,8.851,22.0
94.81,-6.264,8.669,11.0
90.149,-5.959,10.797,24.0
90.241,-5.943,10.3,20.0
91.112,-5.978,9.887,37.0
87.06,-5.691,8.949,14.0
91.041,-5.928,8.849,15.0
94.762,-6.148,8.68,10.0
90.15,-5.852,10.812,21.0
90.571,-5.856,10.351,28.0
90.938,-5.857,9.881,7.0
87.124,-5.589,8.968,20.0
91.055,-5.819,8.862,13.0
88.921,-5.662,8.156,20.0
89.678,-5.711,10.766,15.0
90.754,-5.757,10.382,23.0
86.888,-5.49,9.45,17.0
87.469,-5.504,9.012,19.0
87.336,-5.474,8.508,9.0
88.747,-5.541,8.147,21.0
89.687,-5.601,10.773,27.0
91.219,-5.673,10.441,17.0
87.014,-5.389,9.469,18.0
87.502,-5.397,9.02,25.0
87.971,-5.404,8.574,18.0
88.966,-5.445,8.171,20.0
89.795,-5.497,10.789,28.0
90.778,-5.532,10.393,20.0
91.594,-5.56,9.969,9.0
87.566,-5.293,9.027,19.0
87.977,-5.296,8.574,29.0
88.945,-5.332,8.168,24.0
88.024,-5.277,10.575,21.0
91.034,-5.433,10.421,18.0
91.552,-5.442,9.961,16.0
87.341,-5.17,9.0,24.0
87.967,-5.184,8.569,23.0
88.553,-5.198,8.128,27.0
87.958,-5.162,10.562,28.0
82.388,-4.813,9.426,15.0
91.643,-5.33,9.965,24.0
87.205,-5.05,8.979,27.0
87.605,-5.051,8.526,28.0
88.664,-5.091,8.129,25.0
90.26,-5.18,10.83,11.0
82.464,-4.711,9.425,22.0
91.643,-5.213,9.953,16.0
87.355,-4.947,8.984,25.0
87.408,-4.928,8.495,28.0
87.871,-4.933,8.044,10.0
86.571,-4.856,10.374,23.0
82.513,-4.607,9.418,21.0
82.199,-4.568,8.914,9.0
91.759,-5.077,9.421,15.0
87.22,-4.804,8.462,11.0
89.385,-4.902,8.166,5.0
86.654,-4.749,10.367,31.0
82.58,-4.504,9.409,24.0
82.552,-4.482,8.935,10.0
88.614,-4.788,9.079,10.0
84.892,-4.566,8.216,13.0
88.252,-4.725,8.042,13.0
86.934,-4.65,10.38,27.0
82.707,-4.402,9.402,25.0
82.497,-4.37,8.908,22.0
88.207,-4.65,9.014,11.0
84.959,-4.459,8.2,14.0
89.337,-4.667,8.116,11.0
87.271,-4.553,10.395,26.0
81.799,-4.246,9.275,12.0
82.412,-4.257,8.874,25.0
89.034,-4.577,9.071,8.0
85.069,-4.352,8.184,18.0
87.167,-4.439,7.891,10.0
87.431,-4.445,10.385,13.0
81.415,-4.118,9.205,20.0
82.487,-4.152,8.854,10.0
83.402,-4.178,8.468,18.0
85.476,-4.26,8.193,16.0
87.182,-4.325,7.861,17.0
86.036,-4.261,10.187,18.0
81.527,-4.017,9.185,17.0
83.601,-4.097,8.942,16.0
79.472,-3.876,8.038,12.0
85.514,-4.151,8.162,16.0
87.25,-4.213,7.832,16.0
82.215,-3.962,9.7,14.0
82.636,-3.961,9.275,21.0
82.176,-3.918,8.753,23.0
79.335,-3.764,7.989,16.0
85.505,-4.035,8.123,11.0
87.226,-4.097,7.789,24.0
82.228,-3.853,9.662,27.0
82.754,-3.856,9.249,25.0
82.205,-3.81,8.717,22.0
79.16,-3.65,7.932,34.0
85.454,-3.92,8.075,14.0
87.353,-3.986,7.757,23.0
81.909,-3.728,9.583,34.0
82.605,-3.739,9.189,27.0
83.261,-3.749,8.784,7.0
78.914,-3.535,7.866,26.0
85.194,-3.795,8.005,9.0
87.234,-3.865,7.698,12.0
81.057,-3.581,9.438,27.0
80.282,-3.527,8.886,11.0
79.733,-3.484,8.366,19.0
79.016,-3.434,7.831,33.0
82.395,-3.561,7.694,11.0
93.881,-4.036,8.23,7.0
80.839,-3.464,9.363,28.0
80.29,-3.421,8.838,17.0
79.619,-3.374,8.306,16.0
79.429,-3.347,7.822,26.0
82.882,-3.475,7.688,10.0
79.515,-3.314,6.921,8.0
81.608,-3.39,9.401,11.0
80.224,-3.313,8.778,21.0
79.576,-3.269,8.249,25.0
78.908,-3.222,7.719,30.0
79.827,-3.241,7.351,10.0
87.413,-3.529,7.549,19.0
64.485,-2.594,7.384,11.0
79.456,-3.177,8.639,28.0
79.453,-3.159,8.181,22.0
78.849,-3.116,7.658,16.0
79.9,-3.14,7.301,12.0
87.327,-3.412,7.479,6.0
64.567,-2.512,7.345,17.0
79.392,-3.07,8.573,31.0
64.062,-2.462,6.548,7.0
65.863,-2.516,6.346,23.0
79.824,-3.032,7.233,28.0
79.518,-3.002,6.75,15.0
64.673,-2.43,7.306,23.0
79.472,-2.968,8.519,14.0
64.055,-2.378,6.497,21.0
65.907,-2.431,6.298,18.0
79.526,-2.916,7.142,19.0
79.605,-2.902,6.692,15.0
64.462,-2.338,7.229,36.0
64.061,-2.309,6.814,34.0
0.0,0.0,0.0,0.0
65.909,-2.346,6.243,8.0
66.859,-2.366,5.948,18.0
80.346,-2.826,6.686,13.0
63.825,-2.232,7.102,28.0
63.626,-2.211,6.711,28.0
65.317,-2.255,6.512,40.0
65.898,-2.261,6.183,12.0
66.919,-2.281,5.893,29.0
80.54,-2.728,6.629,16.0
63.885,-2.152,7.051,29.0
63.758,-2.134,6.667,33.0
64.82,-2.155,6.403,40.0
80.054,-2.643,7.437,24.0
66.866,-2.194,5.826,16.0
81.01,-2.641,6.592,23.0
64.091,-2.077,7.012,27.0
63.943,-2.058,6.625,36.0
64.278,-2.055,6.287,24.0
80.328,-2.551,7.384,23.0
76.643,-2.417,6.604,18.0
81.044,-2.54,6.516,29.0
64.235,-2.0,6.964,28.0
64.443,-1.993,6.613,35.0
64.271,-1.974,6.222,24.0
66.902,-2.041,6.084,19.0
76.628,-2.322,6.525,17.0
85.987,-2.588,6.826,10.0
64.518,-1.928,6.927,40.0
64.462,-1.912,6.547,28.0
64.326,-1.895,6.16,18.0
66.836,-1.955,6.006,34.0
76.702,-2.229,6.45,13.0
86.073,-2.484,6.742,19.0
64.45,-1.845,6.85,26.0
64.293,-1.828,6.46,28.0
66.155,-1.867,6.263,30.0
65.753,-1.842,5.837,38.0
81.132,-2.258,6.733,12.0
86.234,-2.383,6.659,27.0
64.474,-1.766,6.78,26.0
64.159,-1.745,6.374,33.0
65.88,-1.779,6.162,36.0
66.154,-1.773,5.797,42.0
80.655,-2.146,6.602,13.0
76.581,-2.023,5.826,9.0
64.312,-1.684,6.688,26.0
64.4,-1.674,6.323,35.0
65.618,-1.693,6.061,36.0
66.593,-1.705,5.758,32.0
80.677,-2.051,6.509,10.0
76.643,-1.933,5.74,24.0
64.216,-1.605,6.602,33.0
65.512,-1.625,6.354,41.0
65.671,-1.616,5.987,33.0
66.843,-1.632,5.699,16.0
76.481,-1.854,6.078,19.0
76.626,-1.844,5.646,19.0
64.012,-1.525,6.501,38.0
65.907,-1.557,6.31,33.0
66.578,-1.56,5.986,42.0
66.891,-1.555,5.619,22.0
76.602,-1.766,5.99,25.0
76.145,-1.742,5.513,28.0
63.805,-1.445,6.398,36.0
65.695,-1.474,6.204,32.0
66.947,-1.491,5.933,29.0
76.462,-1.689,6.323,14.0
76.704,-1.68,5.899,22.0
76.224,-1.656,5.42,31.0
63.626,-1.367,6.295,25.0
65.7,-1.4,6.117,27.0
67.002,-1.416,5.849,8.0
76.611,-1.605,6.234,22.0
76.453,-1.589,5.777,22.0
75.591,-1.557,5.274,13.0
66.242,-1.348,6.464,21.0
66.921,-1.351,6.14,30.0
76.392,-1.529,6.564,24.0
76.465,-1.516,6.117,25.0
76.859,-1.512,5.702,30.0
75.898,-1.48,5.19,26.0
63.236,-1.217,6.083,7.0
65.3,-1.246,5.9,22.0
76.383,-1.444,6.455,34.0
76.598,-1.436,6.02,30.0
76.377,-1.419,5.56,32.0
75.61,-1.392,5.065,17.0
63.822,-1.16,6.048,40.0
65.213,-1.174,5.798,31.0
76.333,-1.362,6.342,18.0
75.768,-1.339,5.846,14.0
75.818,-1.328,5.41,41.0
75.537,-1.311,4.951,27.0
65.017,-1.113,6.066,14.0
67.473,-1.143,5.901,15.0
65.891,-1.106,5.378,24.0
75.994,-1.264,5.752,42.0
75.582,-1.245,5.281,39.0
75.505,-1.233,4.838,26.0
65.247,-1.049,5.99,25.0
67.504,-1.074,5.803,8.0
65.925,-1.039,5.282,21.0
76.215,-1.19,5.655,35.0
75.744,-1.171,5.18,32.0
90.79,-1.39,5.68,22.0
64.95,-0.978,5.864,21.0
65.985,-0.984,5.571,25.0
75.228,-1.11,5.912,29.0
76.039,-1.111,5.525,32.0
76.025,-1.099,5.08,7.0
90.629,-1.297,5.529,16.0
65.902,-0.926,5.845,24.0
65.967,-0.918,5.465,25.0
75.321,-1.038,5.8,30.0
75.977,-1.035,5.4,28.0
98.145,-1.323,6.404,12.0
90.484,-1.208,5.378,18.0
66.066,-0.865,5.754,29.0
73.841,-0.956,6.0,9.0
76.329,-0.978,5.755,27.0
87.756,-1.112,6.095,15.0
90.571,-1.135,5.764,12.0
90.51,-1.122,5.233,23.0
66.168,-0.804,5.655,24.0
76.483,-0.919,6.088,17.0
76.267,-0.906,5.626,13.0
76.1,-0.894,5.162,10.0
90.47,-1.051,5.609,27.0
90.533,-1.04,5.086,32.0
73.713,-0.828,6.177,27.0
76.415,-0.848,5.955,23.0
76.145,-0.835,5.489,13.0
91.271,-0.989,6.036,16.0
90.476,-0.969,5.456,19.0
90.554,-0.958,4.933,30.0
73.718,-0.762,6.051,3.0
76.375,-0.78,5.821,25.0
76.081,-0.767,5.355,33.0
90.498,-0.901,5.831,17.0
90.597,-0.892,5.309,16.0
90.602,-0.88,4.782,15.0
76.796,-0.728,6.172,15.0
76.334,-0.714,5.687,29.0
75.923,-0.702,5.213,26.0
90.543,-0.826,5.679,14.0
179.416,-1.618,10.206,13.0
193.074,-1.717,9.858,22.0
62.632,-0.542,4.924,19.0
76.208,-0.651,5.545,25.0
75.949,-0.64,5.082,7.0
105.734,-0.879,6.446,17.0
193.837,-1.591,10.687,8.0
193.494,-1.567,9.538,21.0
76.531,-0.601,5.881,11.0
76.127,-0.59,5.404,13.0
96.489,-0.738,6.284,15.0
171.333,-1.292,10.143,5.0
193.771,-1.44,10.338,21.0
193.74,-1.42,9.207,20.0
76.373,-0.542,5.732,24.0
96.403,-0.674,6.67,13.0
96.204,-0.663,6.094,8.0
179.095,-1.215,10.279,18.0
194.007,-1.296,10.001,18.0
193.887,-1.277,8.864,21.0
82.589,-0.525,6.048,11.0
98.649,-0.617,6.645,13.0
106.097,-0.653,6.525,3.0
179.107,-1.086,9.952,28.0
179.171,-1.068,8.908,14.0
179.033,-1.051,7.857,17.0
63.312,-0.358,4.519,7.0
96.218,-0.534,6.304,16.0
0.0,0.0,0.0,0.0
193.964,-1.043,10.42,11.0
179.083,-0.946,8.573,30.0
179.003,-0.93,7.525,26.0
87.388,-0.435,6.074,14.0
96.288,-0.47,6.128,25.0
180.104,-0.864,10.406,14.0
194.155,-0.914,10.06,13.0
179.015,-0.827,8.232,24.0
178.975,-0.811,7.184,17.0
96.292,-0.417,6.509,16.0
96.307,-0.409,5.944,14.0
194.67,-0.809,10.872,7.0
179.196,-0.73,8.943,19.0
195.028,-0.779,8.594,5.0
0.0,0.0,0.0,0.0
96.116,-0.356,6.31,19.0
106.129,-0.386,6.346,7.0
194.769,-0.692,10.503,9.0
194.12,-0.675,9.311,19.0
204.246,-0.695,8.605,5.0
108.908,-0.362,3.951,6.0
96.457,-0.302,6.145,14.0
179.362,-0.549,10.377,6.0
179.166,-0.536,9.316,14.0
195.048,-0.57,8.983,5.0
179.094,-0.51,7.199,142.0
108.466,-0.302,3.727,4.0
96.201,-0.25,5.941,20.0
179.019,-0.452,10.006,23.0
194.32,-0.477,9.721,18.0
204.427,-0.489,9.01,6.0
0.0,0.0,0.0,0.0
83.269,-0.188,2.696,2.0
96.106,-0.2,5.744,7.0
195.006,-0.394,10.512,9.0
201.623,-0.395,9.689,16.0
204.198,-0.387,8.595,9.0
108.794,-0.199,3.942,11.0
82.923,-0.147,2.521,7.0
91.843,-0.148,5.307,5.0
201.907,-0.313,10.485,16.0
202.043,-0.302,9.306,10.0
0.0,0.0,0.0,0.0
107.934,-0.149,3.696,4.0
78.166,-0.103,2.22,1.0
151.088,-0.177,8.426,27.0
201.401,-0.225,10.049,22.0
203.032,-0.216,8.939,8.0
109.435,-0.11,4.166,1.0
83.31,-0.079,2.683,9.0
78.025,-0.071,2.056,3.0
151.071,-0.114,8.112,34.0
201.701,-0.143,9.646,21.0
0.0,0.0,0.0,0.0
83.323,-0.051,3.001,8.0
82.861,-0.047,2.499,6.0
0.0,0.0,0.0,0.0
201.389,-0.078,10.403,9.0
201.883,-0.07,9.242,19.0
0.0,0.0,0.0,0.0
83.297,-0.022,2.828,25.0
77.739,-0.017,2.185,2.0
0.0,0.0,0.0,0.0
201.412,-0.011,9.985,21.0
202.538,-0.003,8.856,8.0
83.314,0.001,3.154,10.0
83.184,0.004,2.653,13.0
77.564,0.006,2.02,1.0
0.0,0.0,0.0,0.0
201.74,0.048,9.584,21.0
83.279,0.022,3.467,1.0
83.286,0.025,2.979,27.0
82.771,0.027,2.468,4.0
0.0,0.0,0.0,0.0
0.0,0.0,0.0,0.0
201.866,0.101,9.168,11.0
83.322,0.044,3.295,24.0
83.272,0.046,2.805,12.0
77.337,0.044,2.145,3.0
0.0,0.0,0.0,0.0
41.955,0.026,0.672,0.0
83.33,0.06,3.608,11.0
83.274,0.062,3.118,30.0
78.098,0.059,2.467,4.0
76.87,0.06,1.97,2.0
0.0,0.0,0.0,0.0
37.943,0.031,0.528,0.0
83.303,0.076,3.432,26.0
83.252,0.077,2.943,19.0
82.854,0.078,2.442,2.0
0.0,0.0,0.0,0.0
0.0,0.0,0.0,0.0
0.0,0.0,0.0,0.0
83.292,0.088,3.253,31.0
78.113,0.084,2.594,23.0
76.939,0.083,2.103,3.0
0.0,0.0,0.0,0.0
0.0,0.0,0.0,0.0
33.61,0.037,0.325,0.0
83.25,0.098,3.075,33.0
78.131,0.092,2.427,10.0
76.292,0.09,1.923,0.0
0.0,0.0,0.0,0.0
0.0,0.0,0.0,0.0
31.544,0.037,0.237,0.0
78.076,0.098,2.717,18.0
77.68,0.097,2.248,2.0
0.0,0.0,0.0,0.0
42.316,0.052,0.723,0.0
0.0,0.0,0.0,0.0
30.045,0.037,0.162,0.0
78.095,0.1,2.55,11.0
76.804,0.098,2.058,3.0
0.0,0.0,0.0,0.0
39.597,0.05,0.593,0.0
0.0,0.0,0.0,0.0
28.649,0.035,0.094,2.0
78.161,0.1,2.387,6.0
0.0,0.0,0.0,0.0
0.0,0.0,0.0,0.0
0.0,0.0,0.0,0.0
30.904,0.038,0.216,0.0
27.301,0.033,0.031,0.0
77.186,0.096,2.191,4.0
0.0,0.0,0.0,0.0
42.004,0.051,0.699,0.0
0.0,0.0,0.0,0.0
28.907,0.034,0.14,0.0
26.274,0.03,-0.026,0.0
76.862,0.09,2.018,2.0
0.0,0.0,0.0,0.0
0.0,0.0,0.0,0.0
32.154,0.035,0.275,0.0
28.574,0.031,0.078,1.0
25.138,0.026,-0.078,0.0
0.0,0.0,0.0,0.0
0.0,0.0,0.0,0.0
0.0,0.0,0.0,0.0
30.385,0.029,0.195,0.0
27.028,0.025,0.015,0.0
23.765,0.021,-0.125,1.0
0.0,0.0,0.0,0.0
41.366,0.036,0.665,0.0
33.519,0.028,0.342,0.0
28.759,0.023,0.123,1.0
25.918,0.02,-0.04,0.0
22.736,0.016,-0.168,0.0
0.0,0.0,0.0,0.0
37.49,0.025,0.523,0.0
31.86,0.02,0.258,0.0
28.086,0.017,0.06,1.0
24.597,0.014,-0.091,0.0
21.334,0.011,-0.204,4.0
0.0,0.0,0.0,0.0
35.526,0.016,0.42,0.0
30.225,0.012,0.18,0.0
26.622,0.009,0.0,0.0
23.586,0.007,-0.137,1.0
20.668,0.005,-0.241,0.0
40.226,0.009,0.625,0.0
33.243,0.006,0.322,0.0
28.675,0.003,0.109,1.0
25.599,0.002,-0.054,0.0
22.226,0.0,-0.176,0.0
19.035,0.0,-0.263,0.0
36.69,-0.002,0.492,0.0
31.243,-0.003,0.236,0.0
27.637,-0.004,0.047,0.0
24.077,-0.005,-0.102,0.0
21.145,-0.005,-0.213,3.0
18.294,-0.006,-0.292,0.0
0.0,0.0,0.0,0.0
30.098,-0.013,0.163,0.0
26.324,-0.013,-0.011,0.0
23.427,-0.013,-0.149,0.0
20.073,-0.012,-0.245,0.0
17.513,-0.012,-0.316,0.0
33.124,-0.025,0.304,0.0
28.625,-0.024,0.095,1.0
25.306,-0.022,-0.063,0.0
21.92,-0.021,-0.185,0.0
18.663,-0.019,-0.267,0.0
16.917,-0.018,-0.341,0.0
30.699,-0.036,0.217,1.0
27.146,-0.034,0.033,0.0
23.935,-0.031,-0.11,0.0
21.017,-0.029,-0.221,1.0
18.178,-0.026,-0.298,0.0
16.402,-0.025,-0.365,0.0
28.822,-0.046,0.144,3.0
26.142,-0.044,-0.022,0.0
22.942,-0.04,-0.153,1.0
19.736,-0.036,-0.249,0.0
17.351,-0.033,-0.32,0.0
15.884,-0.031,-0.386,0.0
28.612,-0.06,0.083,3.0
25.093,-0.054,-0.073,0.0
21.851,-0.049,-0.191,0.0
18.469,-0.043,-0.271,0.0
16.731,-0.04,-0.344,0.0
15.438,-0.038,-0.408,0.0
26.863,-0.07,0.022,0.0
23.838,-0.064,-0.119,1.0
20.723,-0.058,-0.224,0.0
17.987,-0.051,-0.301,0.0
16.292,-0.048,-0.368,0.0
14.848,-0.045,-0.423,0.0
25.85,-0.082,-0.031,0.0
22.827,-0.074,-0.161,0.0
19.551,-0.065,-0.252,0.0
17.189,-0.059,-0.324,0.0
15.784,-0.055,-0.389,0.0
14.427,-0.052,-0.44,0.0
24.782,-0.093,-0.08,0.0
21.737,-0.083,-0.197,0.0
18.498,-0.073,-0.276,0.0
16.68,-0.067,-0.348,0.0
15.282,-0.063,-0.408,0.0
13.995,-0.059,-0.456,0.0
23.723,-0.104,-0.125,0.0
20.56,-0.092,-0.228,0.0
17.838,-0.081,-0.302,0.0
16.195,-0.076,-0.371,0.0
14.696,-0.07,-0.422,0.0
13.656,-0.066,-0.472,0.0
22.541,-0.113,-0.164,0.0
19.382,-0.1,-0.255,0.0
17.127,-0.09,-0.325,0.0
15.732,-0.084,-0.392,0.0
14.334,-0.078,-0.441,0.0
13.277,-0.074,-0.486,0.0
21.803,-0.125,-0.203,1.0
18.448,-0.108,-0.279,0.0
16.597,-0.099,-0.348,0.0
15.27,-0.092,-0.411,0.0
13.869,-0.085,-0.455,0.0
12.955,-0.081,-0.5,0.0
20.223,-0.131,-0.229,0.0
17.726,-0.116,-0.304,0.0
16.162,-0.108,-0.371,0.0
14.743,-0.1,-0.426,0.0
13.641,-0.094,-0.474,0.0
12.636,-0.089,-0.513,0.0
19.216,-0.138,-0.255,0.0
17.11,-0.125,-0.327,0.0
15.744,-0.117,-0.392,0.0
14.305,-0.108,-0.442,0.0
13.233,-0.102,-0.486,0.0
12.345,-0.096,-0.526,0.0
18.383,-0.147,-0.28,0.0
16.606,-0.135,-0.35,0.0
15.204,-0.125,-0.409,0.0
13.907,-0.117,-0.457,0.0
12.895,-0.11,-0.499,0.0
12.057,-0.104,-0.537,0.0
17.692,-0.156,-0.303,0.0
16.131,-0.145,-0.371,0.0
14.704,-0.134,-0.424,0.0
13.544,-0.125,-0.471,0.0
12.614,-0.118,-0.512,0.0
11.871,-0.113,-0.551,0.0
17.051,-0.165,-0.325,0.0
15.727,-0.155,-0.392,0.0
14.393,-0.143,-0.442,0.0
13.245,-0.134,-0.486,0.0
12.375,-0.127,-0.526,0.0
11.55,-0.12,-0.559,0.0
16.641,-0.176,-0.349,0.0
15.126,-0.162,-0.405,0.0
13.928,-0.151,-0.454,0.0
12.802,-0.141,-0.494,0.0
12.121,-0.135,-0.538,0.0
11.328,-0.128,-0.569,0.0
19.421,-1.929,-0.274,0.0
17.297,-1.714,-0.336,0.0
15.733,-1.557,-0.389,0.0
14.457,-1.428,-0.436,0.0
13.482,-1.329,-0.478,0.0
12.567,-1.236,-0.512,0.0
19.758,-1.942,-0.255,0.0
17.626,-1.729,-0.321,0.0
16.175,-1.584,-0.38,0.0
14.68,-1.434,-0.425,0.0
13.719,-1.338,-0.47,0.0
12.788,-1.245,-0.506,0.0
20.552,-1.999,-0.241,0.0
17.977,-1.745,-0.306,0.0
16.499,-1.598,-0.368,0.0
15.0,-1.45,-0.416,0.0
13.961,-1.347,-0.461,0.0
13.085,-1.259,-0.502,0.0
21.435,-2.062,-0.225,0.0
18.706,-1.795,-0.296,0.0
16.795,-1.608,-0.355,0.0
15.31,-1.463,-0.406,0.0
14.152,-1.349,-0.451,0.0
13.175,-1.253,-0.49,0.0
21.875,-2.08,-0.204,0.0
19.25,-1.826,-0.282,0.0
17.138,-1.621,-0.342,0.0
15.618,-1.474,-0.396,0.0
14.445,-1.36,-0.443,0.0
13.457,-1.265,-0.485,0.0
22.561,-2.119,-0.184,1.0
19.599,-1.836,-0.264,0.0
17.449,-1.631,-0.328,0.0
15.831,-1.476,-0.383,0.0
14.593,-1.357,-0.431,0.0
13.666,-1.268,-0.476,0.0
23.065,-2.138,-0.162,1.0
20.62,-1.907,-0.254,0.0
17.804,-1.642,-0.314,0.0
16.243,-1.494,-0.375,0.0
14.875,-1.365,-0.422,0.0
13.811,-1.264,-0.466,0.0
23.491,-2.149,-0.138,0.0
20.903,-1.907,-0.234,0.0
18.195,-1.655,-0.301,0.0
16.643,-1.51,-0.365,0.0
15.098,-1.366,-0.412,0.0
14.08,-1.271,-0.459,0.0
23.862,-2.152,-0.114,0.0
21.452,-1.929,-0.217,1.0
18.856,-1.691,-0.291,0.0
16.926,-1.514,-0.353,0.0
15.413,-1.374,-0.404,0.0
14.238,-1.266,-0.449,0.0
25.16,-2.236,-0.093,0.0
22.099,-1.958,-0.199,0.0
19.29,-1.704,-0.277,0.0
17.161,-1.511,-0.339,0.0
15.678,-1.377,-0.394,0.0
14.43,-1.264,-0.439,0.0
25.611,-2.241,-0.067,0.0
22.853,-1.994,-0.182,0.0
19.7,-1.713,-0.262,0.0
17.522,-1.519,-0.328,0.0
15.962,-1.38,-0.384,0.0
14.738,-1.27,-0.433,0.0
26.082,-2.246,-0.041,0.0
23.216,-1.993,-0.16,1.0
20.729,-1.773,-0.254,0.0
17.881,-1.525,-0.316,0.0
16.301,-1.386,-0.375,0.0
14.894,-1.262,-0.422,0.0
26.737,-2.264,-0.015,0.0
33.83,-2.855,-0.199,2.0
33.847,-2.848,-0.38,2.0
18.173,-1.524,-0.303,0.0
16.627,-1.389,-0.366,0.0
15.251,-1.27,-0.417,0.0
33.861,-2.818,0.014,1.0
33.845,-2.807,-0.166,5.0
33.859,-2.798,-0.347,8.0
18.704,-1.54,-0.293,0.0
16.886,-1.386,-0.355,0.0
15.429,-1.262,-0.407,0.0
33.854,-2.767,0.047,1.0
33.883,-2.759,-0.133,4.0
33.871,-2.748,-0.314,5.0
19.123,-1.546,-0.281,0.0
17.187,-1.384,-0.345,0.0
15.708,-1.261,-0.399,0.0
33.901,-2.718,0.08,1.0
33.862,-2.705,-0.101,1.0
33.856,-2.695,-0.282,9.0
19.751,-1.566,-0.272,0.0
17.424,-1.376,-0.333,0.0
15.947,-1.255,-0.39,0.0
38.549,-1.917,0.546,0.0
32.668,-1.613,0.285,0.0
28.539,-1.398,0.094,1.0
25.914,-1.26,-0.057,0.0
22.942,-1.107,-0.176,1.0
19.646,-0.941,-0.257,0.0
0.0,0.0,0.0,0.0
33.722,-1.597,0.308,0.0
28.564,-1.342,0.105,0.0
26.199,-1.221,-0.048,1.0
23.124,-1.07,-0.168,2.0
20.233,-0.929,-0.257,0.0
0.0,0.0,0.0,0.0
34.068,-1.545,0.323,0.0
28.627,-1.287,0.115,1.0
26.053,-1.162,-0.038,2.0
23.423,-1.036,-0.162,1.0
20.733,-0.909,-0.257,0.0
0.0,0.0,0.0,0.0
0.0,0.0,0.0,0.0
28.666,-1.231,0.125,3.0
26.084,-1.111,-0.03,1.0
23.439,-0.989,-0.155,1.0
20.912,-0.875,-0.253,0.0
0.0,0.0,0.0,0.0
34.07,-1.406,0.344,0.0
28.69,-1.173,0.133,3.0
25.958,-1.052,-0.023,0.0
23.381,-0.939,-0.148,0.0
20.926,-0.833,-0.247,1.0
0.0,0.0,0.0,0.0
34.393,-1.349,0.356,0.0
28.682,-1.114,0.14,2.0
26.71,-1.028,-0.017,0.0
23.16,-0.883,-0.142,0.0
20.949,-0.791,-0.243,2.0
0.0,0.0,0.0,0.0
0.0,0.0,0.0,0.0
28.708,-1.056,0.146,1.0
26.901,-0.979,-0.012,0.0
24.062,-0.867,-0.142,1.0
20.978,-0.748,-0.239,1.0
0.0,0.0,0.0,0.0
34.765,-1.219,0.374,0.0
0.0,0.0,0.0,0.0
26.87,-0.922,-0.007,0.0
23.552,-0.799,-0.136,0.0
20.991,-0.704,-0.236,2.0
0.0,0.0,0.0,0.0
0.0,0.0,0.0,0.0
28.834,-0.939,0.156,0.0
27.14,-0.874,-0.004,0.0
23.663,-0.754,-0.133,0.0
21.04,-0.662,-0.234,1.0
0.0,0.0,0.0,0.0
35.731,-1.103,0.393,0.0
30.397,-0.927,0.167,0.0
26.986,-0.813,-0.001,0.0
23.644,-0.703,-0.131,0.0
21.061,-0.619,-0.232,1.0
0.0,0.0,0.0,0.0
0.0,0.0,0.0,0.0
28.196,-0.8,0.157,0.0
27.044,-0.757,0.0,0.0
23.654,-0.654,-0.13,0.0
20.968,-0.572,-0.23,1.0
0.0,0.0,0.0,0.0
35.457,-0.945,0.394,0.0
28.647,-0.752,0.16,0.0
27.124,-0.702,0.0,0.0
23.76,-0.606,-0.13,0.0
21.167,-0.532,-0.233,0.0
0.0,0.0,0.0,0.0
35.334,-0.866,0.392,0.0
28.749,-0.694,0.16,0.0
27.232,-0.647,0.0,0.0
23.925,-0.56,-0.132,0.0
21.195,-0.488,-0.233,0.0
42.825,-0.975,0.709,0.0
34.708,-0.777,0.383,0.0
30.681,-0.676,0.17,0.0
27.005,-0.585,-0.001,0.0
24.389,-0.52,-0.136,1.0
21.056,-0.441,-0.233,0.0
41.79,-0.863,0.689,0.0
34.449,-0.699,0.378,0.0
28.781,-0.573,0.157,0.0
26.835,-0.525,-0.004,0.0
23.795,-0.456,-0.135,0.0
21.027,-0.395,-0.235,0.0
41.623,-0.771,0.681,0.0
34.206,-0.621,0.371,0.0
0.0,0.0,0.0,0.0
26.825,-0.467,-0.008,0.0
23.748,-0.405,-0.138,0.0
21.02,-0.351,-0.238,0.0
7.465,0.394,-0.742,0.0
7.157,0.376,-0.752,0.0
0.0,0.0,0.0,0.0
0.0,0.0,0.0,0.0
0.0,0.0,0.0,0.0
0.0,0.0,0.0,0.0
7.427,0.383,-0.739,0.0
7.134,0.366,-0.75,0.0
0.0,0.0,0.0,0.0
0.0,0.0,0.0,0.0
0.0,0.0,0.0,0.0
0.0,0.0,0.0,0.0
7.44,0.375,-0.741,0.0
7.17,0.36,-0.754,0.0
0.0,0.0,0.0,0.0
0.0,0.0,0.0,0.0
0.0,0.0,0.0,0.0
0.0,0.0,0.0,0.0
7.432,0.365,-0.74,0.0
7.16,0.351,-0.753,0.0
0.0,0.0,0.0,0.0
0.0,0.0,0.0,0.0
0.0,0.0,0.0,0.0
0.0,0.0,0.0,0.0
7.447,0.357,-0.741,0.0
7.166,0.342,-0.753,0.0
0.0,0.0,0.0,0.0
0.0,0.0,0.0,0.0
0.0,0.0,0.0,0.0
0.0,0.0,0.0,0.0
7.453,0.348,-0.741,0.0
7.173,0.334,-0.753,0.0
0.0,0.0,0.0,0.0
0.0,0.0,0.0,0.0
0.0,0.0,0.0,0.0
0.0,0.0,0.0,0.0
7.436,0.338,-0.738,0.0
7.199,0.326,-0.755,0.0
0.0,0.0,0.0,0.0
0.0,0.0,0.0,0.0
0.0,0.0,0.0,0.0
0.0,0.0,0.0,0.0
7.464,0.33,-0.739,0.0
7.175,0.316,-0.751,0.0
0.0,0.0,0.0,0.0
0.0,0.0,0.0,0.0
0.0,0.0,0.0,0.0
0.0,0.0,0.0,0.0
7.453,0.32,-0.736,0.0
7.214,0.309,-0.753,0.0
0.0,0.0,0.0,0.0
0.0,0.0,0.0,0.0
0.0,0.0,0.0,0.0
0.0,0.0,0.0,0.0
7.473,0.312,-0.736,0.0
7.2,0.299,-0.749,0.0
0.0,0.0,0.0,0.0
0.0,0.0,0.0,0.0
0.0,0.0,0.0,0.0
0.0,0.0,0.0,0.0
7.508,0.304,-0.737,0.0
7.245,0.292,-0.752,0.0
0.0,0.0,0.0,0.0
0.0,0.0,0.0,0.0
0.0,0.0,0.0,0.0
0.0,0.0,0.0,0.0
0.0,0.0,0.0,0.0
7.229,0.282,-0.747,0.0
0.0,0.0,0.0,0.0
0.0,0.0,0.0,0.0
0.0,0.0,0.0,0.0
0.0,0.0,0.0,0.0
0.0,0.0,0.0,0.0
7.249,0.274,-0.746,0.0
0.0,0.0,0.0,0.0
0.0,0.0,0.0,0.0
0.0,0.0,0.0,0.0
0.0,0.0,0.0,0.0
0.0,0.0,0.0,0.0
7.285,0.266,-0.746,0.0
0.0,0.0,0.0,0.0
0.0,0.0,0.0,0.0
0.0,0.0,0.0,0.0
0.0,0.0,0.0,0.0
0.0,0.0,0.0,0.0
7.336,0.259,-0.748,0.0
0.0,0.0,0.0,0.0
0.0,0.0,0.0,0.0
0.0,0.0,0.0,0.0
0.0,0.0,0.0,0.0
0.0,0.0,0.0,0.0
7.342,0.25,-0.744,0.0
7.066,0.239,-0.755,0.0
0.0,0.0,0.0,0.0
0.0,0.0,0.0,0.0
0.0,0.0,0.0,0.0
66.542,3.81,5.541,17.0
58.444,3.359,4.545,25.0
58.288,3.364,4.213,27.0
58.449,3.387,3.898,36.0
58.569,3.408,3.586,25.0
58.612,3.424,3.267,38.0
80.831,4.756,6.784,19.0
80.499,4.756,6.313,23.0
58.258,3.455,4.249,28.0
58.39,3.477,3.931,34.0
58.507,3.498,3.618,49.0
58.569,3.515,3.301,54.0
58.002,3.506,4.904,27.0
58.188,3.531,4.599,19.0
58.253,3.548,4.283,29.0
58.389,3.57,3.966,35.0
58.518,3.592,3.654,47.0
58.583,3.609,3.336,59.0
58.058,3.602,4.942,18.0
58.107,3.618,4.626,29.0
58.221,3.638,4.314,48.0
58.416,3.664,4.0,29.0
58.622,3.69,3.692,17.0
80.788,5.104,4.644,12.0
58.11,3.697,4.977,25.0
67.14,4.287,5.38,11.0
58.273,3.734,4.347,28.0
68.135,4.382,4.7,28.0
80.698,5.208,5.122,34.0
80.735,5.228,4.68,29.0
59.402,3.874,5.118,6.0
57.995,3.795,4.675,18.0
58.347,3.831,4.38,17.0
80.842,5.326,5.614,12.0
80.522,5.323,5.147,36.0
80.338,5.329,4.693,3.0
59.313,3.962,5.136,9.0
58.311,3.907,4.725,32.0
64.85,4.359,4.896,6.0
60.593,4.086,4.233,10.0
80.508,5.447,5.179,28.0
0.0,0.0,0.0,0.0
59.233,4.049,5.153,10.0
58.588,4.017,4.771,29.0
61.739,4.247,4.685,6.0
60.684,4.187,4.262,26.0
60.888,4.215,3.94,7.0
77.667,5.393,4.596,20.0
59.039,4.128,5.157,5.0
58.661,4.113,4.798,25.0
61.509,4.326,4.688,11.0
60.663,4.279,4.281,22.0
60.762,4.299,3.951,19.0
77.635,5.509,4.619,29.0
58.794,4.201,5.154,22.0
58.699,4.206,4.818,8.0
61.399,4.412,4.698,21.0
60.624,4.368,4.296,25.0
60.711,4.387,3.965,8.0
77.478,5.616,4.631,23.0
58.828,4.293,5.173,9.0
58.034,4.247,4.779,39.0
61.062,4.481,4.688,26.0
60.485,4.452,4.301,35.0
60.838,4.49,3.988,24.0
60.773,4.499,3.646,20.0
51.885,3.866,4.574,18.0
61.376,4.586,5.068,21.0
60.688,4.546,4.673,35.0
60.142,4.518,4.289,34.0
60.679,4.571,3.989,23.0
60.642,4.58,3.65,29.0
51.898,3.946,4.585,12.0
61.325,4.674,5.075,23.0
60.522,4.625,4.67,35.0
60.233,4.615,4.305,35.0
60.851,4.675,4.01,34.0
60.631,4.67,3.658,24.0
43.163,3.347,3.82,34.0
61.07,4.747,5.062,14.0
60.234,4.694,4.655,34.0
59.788,4.672,4.281,34.0
60.732,4.757,4.01,29.0
60.658,4.763,3.667,17.0
43.174,3.413,3.825,15.0
51.921,4.114,4.309,39.0
60.22,4.783,4.66,33.0
59.237,4.716,4.246,26.0
60.21,4.805,3.98,33.0
60.122,4.811,3.638,9.0
60.635,4.883,5.376,17.0
51.929,4.191,4.312,34.0
60.115,4.864,4.655,31.0
59.22,4.803,4.248,28.0
59.555,4.842,3.939,33.0
60.202,4.906,3.645,22.0
60.371,4.951,5.353,16.0
59.852,4.919,4.971,12.0
51.92,4.276,4.021,21.0
51.982,4.291,3.728,11.0
51.947,4.299,3.435,19.0
52.015,4.314,3.148,35.0
43.35,3.618,3.843,8.0
59.716,4.995,4.957,24.0
51.857,4.346,4.014,41.0
51.875,4.358,3.718,25.0
51.901,4.369,3.429,55.0
51.957,4.383,3.142,49.0
59.169,5.022,5.242,20.0
51.716,4.399,4.29,31.0
51.819,4.416,4.007,37.0
51.863,4.429,3.713,26.0
51.878,4.44,3.423,49.0
51.953,4.456,3.136,58.0
59.316,5.119,5.249,10.0
51.7,4.471,4.283,25.0
51.809,4.489,3.999,26.0
51.862,4.502,3.707,41.0
51.896,4.514,3.417,27.0
52.003,4.533,3.132,43.0
51.641,4.528,4.562,54.0
59.182,5.2,4.894,25.0
43.187,3.801,3.327,13.0
51.862,4.574,3.698,32.0
51.956,4.591,3.412,23.0
59.946,5.307,3.6,34.0
59.442,5.294,5.239,14.0
59.164,5.279,4.881,10.0
43.109,3.853,3.313,17.0
51.915,4.649,3.691,22.0
59.956,5.379,3.925,33.0
59.191,5.321,3.542,33.0
43.689,3.95,3.841,14.0
43.317,3.923,3.563,11.0
43.158,3.916,3.306,22.0
59.214,5.382,4.195,33.0
59.147,5.386,3.857,33.0
58.873,5.371,3.508,31.0
43.672,4.007,3.828,27.0
43.371,3.986,3.556,27.0
43.078,3.965,3.288,20.0
58.662,5.409,4.14,33.0
58.904,5.441,3.824,32.0
58.774,5.438,3.485,33.0
43.527,4.05,3.802,15.0
51.864,4.834,4.236,25.0
43.086,4.022,3.275,15.0
58.566,5.476,4.114,33.0
59.042,5.53,3.814,28.0
58.426,5.482,3.444,32.0
51.861,4.893,4.512,11.0
51.823,4.896,4.214,42.0
59.398,5.62,4.494,33.0
58.567,5.55,4.093,33.0
58.844,5.585,3.78,27.0
58.089,5.522,3.403,26.0
52.369,5.006,4.536,27.0
51.834,4.962,4.195,38.0
59.003,5.656,4.441,32.0
58.596,5.625,4.071,33.0
58.794,5.652,3.753,32.0
58.038,5.589,3.376,31.0
43.661,4.227,3.764,15.0
51.842,5.025,4.174,21.0
58.817,5.709,4.402,33.0
58.512,5.688,4.041,33.0
58.53,5.698,3.71,32.0
58.183,5.673,3.358,28.0
43.624,4.276,3.74,38.0
59.331,5.822,4.75,9.0
59.002,5.797,4.387,33.0
58.338,5.739,4.001,27.0
58.304,5.745,3.668,30.0
58.234,5.746,3.333,24.0
43.667,4.33,3.723,17.0
59.305,5.889,4.718,23.0
58.996,5.865,4.357,25.0
58.293,5.803,3.968,30.0
58.288,5.81,3.637,30.0
58.076,5.797,3.294,27.0
51.791,5.196,4.387,12.0
59.183,5.944,4.676,29.0
59.121,5.945,4.335,24.0
58.241,5.863,3.933,29.0
58.094,5.855,3.593,31.0
57.953,5.849,3.255,27.0
51.642,5.238,4.346,15.0
58.452,5.935,4.585,32.0
59.084,6.006,4.298,28.0
58.059,5.908,3.887,32.0
57.955,5.905,3.55,31.0
57.943,5.911,3.221,29.0
43.119,4.42,3.603,28.0
58.238,5.975,4.534,29.0
58.866,6.046,4.246,20.0
57.963,5.959,3.846,32.0
57.741,5.943,3.502,31.0
58.054,5.983,3.191,27.0
42.992,4.451,3.566,15.0
58.568,6.07,4.523,33.0
58.829,6.103,4.206,27.0
57.794,6.001,3.797,32.0
57.731,6.001,3.464,28.0
58.074,6.044,3.154,28.0
42.943,4.489,3.533,16.0
58.62,6.134,4.487,33.0
58.927,6.172,4.174,21.0
57.656,6.045,3.749,26.0
57.867,6.073,3.433,27.0
58.041,6.098,3.113,26.0
42.957,4.533,3.504,20.0
58.711,6.201,4.452,24.0
58.62,6.196,4.111,33.0
57.698,6.104,3.711,29.0
58.086,6.151,3.405,31.0
58.104,6.159,3.075,30.0
42.916,4.569,3.469,14.0
54.306,5.786,4.079,10.0
58.213,6.208,4.04,32.0
57.669,6.155,3.666,29.0
58.118,6.208,3.363,26.0
58.648,6.271,3.06,28.0
53.417,5.735,4.278,16.0
58.957,6.334,4.384,15.0
58.08,6.245,3.986,26.0
57.707,6.21,3.625,19.0
58.114,6.259,3.318,29.0
58.561,6.313,3.01,32.0
53.48,5.789,4.24,26.0
58.959,6.386,4.337,24.0
57.881,6.274,3.926,16.0
57.593,6.247,3.571,26.0
57.875,6.283,3.258,31.0
58.545,6.361,2.962,27.0
53.486,5.834,4.197,28.0
58.839,6.422,4.28,13.0
54.221,5.922,3.634,23.0
57.624,6.298,3.526,26.0
57.593,6.299,3.195,30.0
58.522,6.405,2.913,30.0
53.146,5.839,4.126,27.0
58.88,6.473,4.233,9.0
54.118,5.953,3.581,25.0
57.61,6.341,3.476,29.0
57.853,6.372,3.16,31.0
58.341,6.43,2.853,27.0
52.986,5.862,4.067,22.0
58.2,6.442,4.134,32.0
54.091,5.99,3.531,27.0
57.503,6.372,3.419,28.0
57.977,6.428,3.115,31.0
58.226,6.46,2.796,32.0
53.062,5.909,4.025,23.0
57.992,6.461,4.066,10.0
54.368,6.06,3.5,28.0
57.63,6.427,3.374,29.0
57.936,6.464,3.06,26.0
58.163,6.494,2.74,32.0
53.085,5.947,3.978,26.0
53.992,6.051,3.736,22.0
54.983,6.165,3.489,29.0
57.711,6.473,3.326,32.0
57.997,6.509,3.01,30.0
58.06,6.52,2.682,32.0
53.211,5.995,3.937,28.0
53.969,6.082,3.683,23.0
55.232,6.227,3.452,18.0
57.824,6.522,3.277,32.0
58.03,6.548,2.957,27.0
58.235,6.575,2.634,32.0
53.314,6.038,3.893,12.0
53.963,6.113,3.631,25.0
55.17,6.252,3.395,18.0
57.844,6.558,3.222,32.0
58.072,6.587,2.902,16.0
58.773,6.669,2.601,33.0
0.0,0.0,0.0,0.0
54.123,6.162,3.587,25.0
46.452,5.29,2.812,15.0
57.941,6.6,3.169,25.0
58.022,6.612,2.841,7.0
58.711,6.694,2.538,33.0
54.6,6.243,3.878,11.0
46.493,5.317,3.034,6.0
46.447,5.313,2.764,35.0
57.851,6.619,3.105,23.0
55.607,6.365,2.665,11.0
58.766,6.729,2.48,32.0
46.522,5.341,3.255,13.0
46.474,5.336,2.984,16.0
46.427,5.332,2.714,23.0
46.484,5.34,2.447,14.0
58.537,6.726,2.745,11.0
58.935,6.774,2.427,20.0
46.489,5.357,3.204,17.0
46.433,5.351,2.933,31.0
46.412,5.35,2.665,25.0
46.46,5.356,2.397,18.0
46.497,5.362,2.131,15.0
59.058,6.812,2.369,11.0
46.453,5.371,3.152,15.0
46.406,5.366,2.881,35.0
46.414,5.367,2.616,24.0
46.449,5.372,2.346,32.0
46.47,5.376,2.08,28.0
46.443,5.374,1.813,31.0
46.43,5.384,3.1,38.0
46.403,5.381,2.831,42.0
46.398,5.381,2.564,33.0
46.445,5.387,2.295,39.0
46.435,5.387,2.027,41.0
46.414,5.385,1.761,28.0
46.432,5.398,3.049,49.0
46.393,5.394,2.778,50.0
46.396,5.394,2.512,35.0
46.427,5.398,2.242,39.0
46.424,5.398,1.976,46.0
46.403,5.397,1.709,30.0
46.404,5.407,2.995,47.0
46.389,5.405,2.726,53.0
46.39,5.405,2.459,41.0
46.408,5.407,2.189,48.0
46.417,5.408,1.924,42.0
46.385,5.405,1.656,32.0
46.393,5.416,2.941,48.0
46.381,5.414,2.673,55.0
46.415,5.417,2.408,50.0
46.402,5.416,2.136,47.0
46.406,5.416,1.869,38.0
46.369,5.412,1.602,35.0
46.386,5.423,2.887,53.0
46.377,5.421,2.619,49.0
46.413,5.424,2.354,55.0
46.404,5.423,2.082,46.0
46.387,5.421,1.815,33.0
46.364,5.418,1.549,37.0
46.379,5.428,2.833,52.0
46.374,5.426,2.565,42.0
46.413,5.43,2.3,52.0
46.389,5.426,2.028,46.0
46.368,5.423,1.761,32.0
46.375,5.424,1.495,38.0
46.373,5.431,2.778,51.0
46.373,5.429,2.51,40.0
46.414,5.433,2.245,50.0
46.392,5.429,1.973,44.0
46.361,5.425,1.706,35.0
46.369,5.425,1.44,39.0
46.368,5.432,2.721,56.0
46.382,5.432,2.456,49.0
46.401,5.432,2.19,49.0
46.392,5.43,1.918,43.0
46.356,5.425,1.65,39.0
46.356,5.424,1.385,34.0
46.383,5.433,2.667,59.0
46.409,5.434,2.402,54.0
46.394,5.43,2.134,47.0
46.384,5.428,1.862,36.0
46.357,5.424,1.595,40.0
46.357,5.423,1.329,32.0
46.382,5.43,2.611,51.0
46.414,5.432,2.346,54.0
46.401,5.428,2.079,46.0
46.374,5.423,1.806,31.0
46.365,5.421,1.54,38.0
46.36,5.419,1.274,30.0
46.375,5.424,2.555,41.0
46.418,5.427,2.29,52.0
46.404,5.423,2.022,47.0
46.378,5.418,1.75,36.0
46.367,5.415,1.484,38.0
46.36,5.413,1.217,28.0
46.387,5.419,2.499,42.0
46.419,5.42,2.234,47.0
46.412,5.417,1.967,44.0
46.379,5.411,1.695,34.0
46.383,5.409,1.428,35.0
46.347,5.403,1.161,25.0
46.416,5.413,2.444,48.0
46.422,5.411,2.177,48.0
46.419,5.408,1.91,42.0
46.382,5.401,1.638,31.0
46.384,5.399,1.371,30.0
46.332,5.391,1.104,22.0
46.437,5.404,2.388,49.0
46.432,5.4,2.121,44.0
46.425,5.397,1.854,36.0
46.392,5.39,1.582,33.0
46.382,5.387,1.315,30.0
46.282,5.373,1.047,12.0
46.451,5.393,2.332,43.0
46.449,5.389,2.065,39.0
46.431,5.384,1.797,28.0
46.411,5.379,1.525,26.0
46.385,5.373,1.258,27.0
46.022,5.329,0.984,9.0
46.478,5.38,2.276,31.0
46.463,5.375,2.009,32.0
46.451,5.37,1.741,23.0
46.423,5.364,1.469,31.0
46.391,5.357,1.202,29.0
45.738,5.279,0.922,9.0
46.515,5.367,2.221,15.0
59.025,6.806,2.479,12.0
46.466,5.354,1.685,16.0
46.433,5.347,1.413,21.0
46.414,5.342,1.146,20.0
45.54,5.238,0.863,9.0
58.53,6.729,2.723,19.0
59.04,6.782,2.408,26.0
46.485,5.336,1.629,6.0
46.437,5.327,1.356,17.0
46.394,5.319,1.088,15.0
44.895,5.144,0.796,4.0
58.645,6.715,2.656,24.0
59.471,6.804,2.352,10.0
59.412,6.791,2.009,22.0
46.494,5.311,1.3,12.0
46.203,5.274,1.027,9.0
44.467,5.073,0.734,3.0
58.74,6.695,2.588,34.0
59.69,6.798,2.287,24.0
59.455,6.765,1.937,28.0
59.874,6.807,1.602,17.0
45.919,5.217,0.965,9.0
44.457,5.047,0.679,5.0
58.467,6.631,2.505,27.0
59.404,6.731,2.204,33.0
59.351,6.72,1.862,21.0
58.388,6.605,1.491,5.0
45.682,5.163,0.904,12.0
44.282,5.002,0.623,3.0
58.448,6.594,2.433,26.0
59.243,6.677,2.126,21.0
59.288,6.676,1.788,18.0
46.462,5.227,1.13,1.0
45.433,5.107,0.844,9.0
43.555,4.892,0.56,1.0
58.567,6.569,2.366,21.0
59.245,6.638,2.054,9.0
60.825,6.808,1.76,24.0
46.452,5.194,1.073,11.0
44.839,5.01,0.779,4.0
41.812,4.668,0.487,0.0
59.504,6.632,2.332,18.0
59.194,6.591,1.981,20.0
59.96,6.669,1.662,25.0
46.207,5.134,1.012,11.0
44.691,4.961,0.723,4.0
37.837,4.197,0.396,0.0
59.162,6.551,2.248,27.0
59.213,6.549,1.91,26.0
46.485,5.136,1.233,6.0
45.944,5.07,0.951,11.0
44.637,4.921,0.669,4.0
0.0,0.0,0.0,0.0
59.091,6.496,2.174,25.0
59.122,6.492,1.837,25.0
58.641,6.432,1.486,3.0
45.663,5.003,0.891,14.0
44.454,4.865,0.613,2.0
34.487,3.771,0.279,0.0
59.15,6.454,2.107,24.0
59.707,6.507,1.785,34.0
56.424,6.141,1.364,1.0
45.32,4.927,0.831,10.0
42.227,4.586,0.533,0.0
32.785,3.556,0.226,0.0
59.216,6.41,2.04,22.0
59.828,6.468,1.718,34.0
51.497,5.56,1.185,4.0
44.953,4.848,0.772,4.0
42.261,4.552,0.485,0.0
31.943,3.437,0.184,1.0
59.139,6.347,1.968,27.0
60.469,6.481,1.667,34.0
46.451,4.972,1.015,4.0
44.9,4.8,0.72,4.0
38.457,4.106,0.397,0.0
29.453,3.141,0.136,0.0
59.342,6.312,1.908,21.0
59.588,6.329,1.575,18.0
46.193,4.9,0.957,10.0
44.939,4.761,0.669,5.0
35.405,3.746,0.325,0.0
29.278,3.093,0.102,1.0
59.403,6.26,1.842,21.0
59.182,6.227,1.497,2.0
45.773,4.809,0.896,14.0
45.043,4.726,0.62,3.0
34.389,3.603,0.277,0.0
29.09,3.044,0.068,1.0
59.703,6.229,1.784,35.0
51.672,5.382,1.249,2.0
45.503,4.732,0.84,8.0
45.199,4.694,0.572,0.0
32.563,3.377,0.226,0.0
27.88,2.887,0.035,0.0
59.679,6.161,1.717,30.0
51.515,5.31,1.189,5.0
45.445,4.677,0.789,4.0
0.0,0.0,0.0,0.0
31.956,3.279,0.187,1.0
26.812,2.747,0.004,0.0
59.751,6.101,1.654,31.0
51.389,5.239,1.129,3.0
45.551,4.636,0.742,4.0
0.0,0.0,0.0,0.0
31.253,3.171,0.149,0.0
26.14,2.648,-0.023,1.0
59.87,6.044,1.594,7.0
46.72,4.709,0.978,2.0
45.806,4.608,0.697,4.0
35.482,3.564,0.335,0.0
29.22,2.93,0.109,1.0
25.775,2.581,-0.05,1.0
57.714,5.757,1.476,2.0
46.595,4.64,0.927,2.0
46.038,4.576,0.653,4.0
33.63,3.337,0.282,0.0
29.184,2.891,0.079,3.0
24.97,2.469,-0.074,0.0
52.934,5.215,1.3,2.0
46.566,4.579,0.878,10.0
46.389,4.553,0.611,0.0
32.455,3.179,0.239,0.0
28.299,2.767,0.047,0.0
24.45,2.387,-0.097,0.0
51.699,5.027,1.217,5.0
46.565,4.519,0.831,5.0
40.405,3.913,0.491,0.0
31.926,3.086,0.203,1.0
27.263,2.63,0.019,0.0
23.964,2.308,-0.119,0.0
51.626,4.951,1.164,7.0
46.743,4.474,0.788,6.0
40.382,3.857,0.451,0.0
29.33,2.796,0.158,2.0
26.239,2.496,-0.007,0.0
23.189,2.202,-0.137,0.0
51.223,4.843,1.105,3.0
47.011,4.436,0.747,4.0
36.506,3.437,0.373,0.0
29.263,2.749,0.13,4.0
25.871,2.426,-0.031,1.0
22.753,2.129,-0.157,1.0
48.531,4.521,1.002,2.0
47.311,4.398,0.707,2.0
35.162,3.261,0.326,0.0
29.216,2.704,0.102,5.0
25.574,2.362,-0.054,1.0
22.3,2.055,-0.174,2.0
47.88,4.393,0.944,3.0
47.647,4.362,0.669,0.0
34.23,3.126,0.287,0.0
28.985,2.641,0.076,1.0
24.966,2.27,-0.075,0.0
21.965,1.993,-0.191,3.0
47.886,4.324,0.902,5.0
41.309,3.721,0.544,0.0
32.509,2.921,0.244,0.0
27.709,2.484,0.048,1.0
24.479,2.19,-0.095,0.0
21.737,1.94,-0.208,2.0
48.269,4.287,0.867,7.0
0.0,0.0,0.0,0.0
31.808,2.811,0.211,1.0
26.922,2.373,0.023,1.0
23.976,2.108,-0.114,0.0
21.35,1.873,-0.222,0.0
48.504,4.233,0.83,16.0
0.0,0.0,0.0,0.0
31.234,2.712,0.181,0.0
26.599,2.304,0.001,1.0
23.429,2.024,-0.131,0.0
21.039,1.813,-0.236,0.0
48.857,4.187,0.796,4.0
36.631,3.131,0.39,0.0
30.547,2.604,0.152,0.0
26.058,2.215,-0.019,0.0
22.98,1.948,-0.147,1.0
20.258,1.713,-0.244,0.0
49.188,4.137,0.762,2.0
35.853,3.007,0.353,0.0
29.646,2.479,0.125,1.0
25.633,2.138,-0.039,0.0
22.687,1.887,-0.162,1.0
19.885,1.65,-0.254,0.0
49.159,4.054,0.725,4.0
34.475,2.835,0.313,0.0
29.508,2.419,0.102,1.0
25.312,2.069,-0.057,0.0
22.517,1.836,-0.178,1.0
19.558,1.59,-0.265,0.0
45.527,3.679,0.637,0.0
32.94,2.654,0.275,0.0
28.341,2.276,0.077,1.0
24.806,1.986,-0.074,0.0
22.105,1.765,-0.19,0.0
19.251,1.533,-0.274,0.0
0.0,0.0,0.0,0.0
0.0,0.0,0.0,0.0
27.698,2.178,0.056,1.0
24.266,1.902,-0.089,1.0
21.725,1.698,-0.202,0.0
19.029,1.483,-0.284,0.0
0.0,0.0,0.0,0.0
31.797,2.454,0.222,0.0
27.402,2.108,0.038,1.0
24.126,1.85,-0.104,2.0
21.453,1.64,-0.213,0.0
18.832,1.435,-0.293,0.0
37.206,2.816,0.446,0.0
31.105,2.346,0.198,0.0
27.004,2.03,0.02,1.0
24.003,1.798,-0.119,3.0
21.225,1.585,-0.224,0.0
18.499,1.377,-0.299,0.0
37.134,2.745,0.422,0.0
30.455,2.243,0.175,0.0
26.466,1.942,0.004,0.0
23.822,1.742,-0.132,2.0
20.872,1.521,-0.233,0.0
18.326,1.331,-0.307,0.0
35.793,2.581,0.386,0.0
29.626,2.128,0.154,1.0
26.334,1.885,-0.01,0.0
23.58,1.682,-0.144,1.0
20.492,1.456,-0.24,0.0
17.988,1.274,-0.311,0.0
35.76,2.514,0.366,0.0
29.348,2.055,0.136,1.0
25.929,1.809,-0.024,0.0
23.079,1.604,-0.153,0.0
20.212,1.399,-0.247,0.0
17.841,1.23,-0.318,0.0
34.491,2.361,0.336,0.0
29.059,1.981,0.12,1.0
25.704,1.746,-0.037,0.0
22.695,1.535,-0.162,0.0
20.059,1.352,-0.255,0.0
17.618,1.182,-0.323,0.0
34.552,2.301,0.32,0.0
28.908,1.917,0.106,1.0
25.487,1.684,-0.048,0.0
22.421,1.475,-0.17,0.0
19.632,1.286,-0.258,0.0
17.496,1.142,-0.328,0.0
33.436,2.165,0.295,1.0
28.496,1.837,0.092,0.0
25.238,1.62,-0.058,0.0
22.369,1.429,-0.179,0.0
19.506,1.241,-0.265,0.0
17.392,1.102,-0.333,0.0
32.868,2.066,0.277,0.0
28.138,1.76,0.08,0.0
25.108,1.564,-0.068,0.0
22.034,1.366,-0.185,0.0
19.278,1.19,-0.269,0.0
17.205,1.057,-0.336,0.0
32.129,1.958,0.258,0.0
27.903,1.692,0.069,0.0
24.961,1.507,-0.077,0.0
21.743,1.306,-0.19,1.0
19.231,1.15,-0.275,0.0
17.154,1.021,-0.341,0.0
31.95,1.885,0.246,0.0
27.587,1.62,0.059,0.0
24.715,1.444,-0.084,0.0
21.743,1.264,-0.197,2.0
19.03,1.101,-0.278,0.0
17.062,0.982,-0.345,0.0
31.365,1.789,0.232,0.0
27.551,1.563,0.05,0.0
24.578,1.387,-0.091,0.0
21.677,1.217,-0.203,4.0
18.836,1.052,-0.281,0.0
16.971,0.943,-0.347,0.0
31.142,1.715,0.222,1.0
27.336,1.497,0.043,0.0
24.642,1.343,-0.097,0.0
21.566,1.169,-0.207,4.0
18.745,1.01,-0.284,0.0
16.939,0.908,-0.351,0.0
31.088,1.65,0.214,1.0
27.252,1.439,0.036,0.0
24.423,1.282,-0.102,0.0
21.561,1.125,-0.212,2.0
18.56,0.963,-0.285,0.0
16.885,0.871,-0.353,0.0
30.942,1.582,0.207,1.0
27.151,1.38,0.031,0.0
24.384,1.231,-0.106,0.0
21.513,1.08,-0.215,1.0
18.503,0.923,-0.287,0.0
16.869,0.836,-0.355,0.0
30.99,1.521,0.203,1.0
26.989,1.317,0.027,0.0
24.263,1.176,-0.109,0.0
21.456,1.034,-0.217,1.0
18.511,0.886,-0.29,0.0
16.791,0.799,-0.356,0.0
30.662,1.443,0.197,0.0
27.098,1.267,0.024,0.0
24.043,1.117,-0.111,0.0
21.429,0.988,-0.219,1.0
18.485,0.847,-0.291,0.0
16.797,0.764,-0.358,0.0
30.51,1.374,0.193,0.0
26.947,1.205,0.022,0.0
23.975,1.064,-0.112,0.0
21.399,0.943,-0.22,2.0
18.374,0.804,-0.291,0.0
16.77,0.729,-0.358,0.0
30.635,1.316,0.192,0.0
26.956,1.15,0.021,0.0
24.148,1.022,-0.114,1.0
21.466,0.902,-0.222,1.0
18.485,0.771,-0.293,0.0
16.742,0.693,-0.357,0.0
30.783,1.259,0.193,0.0
26.987,1.095,0.021,0.0
24.248,0.976,-0.114,1.0
21.461,0.857,-0.221,0.0
18.318,0.725,-0.29,0.0
16.722,0.657,-0.357,0.0
30.794,1.195,0.194,0.0
26.997,1.039,0.021,1.0
24.158,0.922,-0.113,1.0
21.26,0.804,-0.218,1.0
18.503,0.694,-0.292,0.0
16.775,0.624,-0.357,0.0
30.688,1.128,0.195,0.0
27.025,0.984,0.023,0.0
24.347,0.879,-0.112,1.0
21.459,0.768,-0.219,0.0
18.476,0.655,-0.29,0.0
16.744,0.588,-0.354,0.0
30.825,1.068,0.199,0.0
26.942,0.925,0.026,0.0
24.358,0.828,-0.109,1.0
21.514,0.724,-0.216,1.0
18.574,0.619,-0.289,0.0
16.782,0.554,-0.353,0.0
29.073,0.947,0.192,0.0
27.104,0.874,0.031,0.0
24.383,0.778,-0.105,0.0
21.581,0.681,-0.214,0.0
18.476,0.577,-0.284,0.0
16.831,0.52,-0.351,0.0
31.097,0.948,0.211,0.0
27.215,0.82,0.036,0.0
24.434,0.728,-0.101,0.0
21.59,0.636,-0.209,0.0
18.692,0.545,-0.283,0.0
16.861,0.486,-0.348,0.0
31.288,0.888,0.219,0.0
27.34,0.767,0.042,0.0
24.454,0.677,-0.095,0.0
21.798,0.597,-0.206,0.0
18.886,0.511,-0.282,0.0
16.95,0.453,-0.345,0.0
31.346,0.824,0.228,0.0
27.424,0.712,0.049,0.0
24.669,0.632,-0.089,0.0
21.876,0.553,-0.201,0.0
18.831,0.47,-0.276,0.0
17.008,0.419,-0.342,0.0
31.776,0.769,0.24,0.0
27.997,0.668,0.059,0.0
24.892,0.585,-0.082,0.0
21.969,0.509,-0.195,1.0
19.116,0.437,-0.274,0.0
17.093,0.385,-0.338,0.0
32.042,0.708,0.253,0.0
28.692,0.625,0.07,1.0
25.051,0.537,-0.074,0.0
22.126,0.467,-0.188,1.0
19.459,0.404,-0.272,0.0
17.202,0.351,-0.334,0.0
32.172,0.644,0.266,0.0
28.511,0.561,0.08,1.0
25.359,0.491,-0.066,0.0
22.348,0.425,-0.182,0.0
19.64,0.367,-0.266,0.0
17.288,0.317,-0.328,0.0
32.689,0.586,0.283,0.0
28.572,0.502,0.092,1.0
25.591,0.441,-0.055,0.0
22.516,0.381,-0.173,0.0
19.835,0.329,-0.26,0.0
17.467,0.283,-0.324,0.0
32.825,0.52,0.299,0.0
28.826,0.447,0.106,5.0
25.842,0.392,-0.044,0.0
22.817,0.338,-0.165,0.0
20.004,0.29,-0.253,0.0
17.656,0.25,-0.319,0.0
33.507,0.461,0.322,0.0
28.858,0.387,0.12,6.0
26.126,0.342,-0.032,0.0
23.132,0.295,-0.156,0.0
20.26,0.251,-0.246,0.0
17.783,0.214,-0.312,0.0
33.918,0.396,0.343,0.0
28.899,0.328,0.136,6.0
26.486,0.291,-0.018,0.0
23.335,0.249,-0.144,0.0
20.739,0.214,-0.24,0.0
17.985,0.18,-0.306,0.0
0.0,0.0,0.0,0.0
28.879,0.268,0.152,2.0
26.688,0.239,-0.003,0.0
23.704,0.204,-0.133,0.0
21.04,0.174,-0.232,0.0
18.157,0.144,-0.298,0.0
0.0,0.0,0.0,0.0
29.039,0.21,0.17,0.0
27.109,0.187,0.012,0.0
24.055,0.158,-0.12,0.0
21.195,0.132,-0.22,2.0
18.375,0.108,-0.29,0.0
36.015,0.199,0.428,0.0
31.143,0.162,0.202,0.0
27.272,0.132,0.03,0.0
24.318,0.11,-0.106,0.0
21.476,0.09,-0.209,4.0
18.649,0.071,-0.282,0.0
0.0,0.0,0.0,0.0
31.458,0.099,0.226,0.0
28.288,0.079,0.05,1.0
24.786,0.061,-0.091,0.0
21.778,0.046,-0.197,1.0
18.874,0.034,-0.272,0.0
37.413,0.054,0.496,0.0
31.773,0.036,0.25,0.0
28.195,0.022,0.07,1.0
25.315,0.011,-0.074,0.0
22.176,0.002,-0.184,0.0
19.466,-0.004,-0.266,0.0
37.795,-0.02,0.529,0.0
33.071,-0.029,0.285,0.0
28.745,-0.035,0.093,6.0
25.747,-0.04,-0.056,0.0
22.893,-0.043,-0.173,0.0
19.911,-0.044,-0.257,0.0
39.84,-0.101,0.588,0.0
33.263,-0.095,0.313,1.0
28.792,-0.092,0.116,7.0
26.095,-0.092,-0.036,0.0
23.206,-0.09,-0.157,1.0
20.192,-0.085,-0.245,0.0
40.956,-0.185,0.638,0.0
33.456,-0.162,0.342,0.0
28.847,-0.15,0.14,5.0
26.571,-0.147,-0.015,0.0
23.653,-0.138,-0.14,0.0
20.777,-0.128,-0.234,0.0
0.0,0.0,0.0,0.0
34.784,-0.238,0.385,0.0
28.86,-0.207,0.165,0.0
27.037,-0.203,0.007,0.0
24.122,-0.189,-0.122,0.0
21.296,-0.173,-0.221,0.0
42.97,-0.363,0.743,0.0
36.302,-0.319,0.434,0.0
31.282,-0.285,0.206,0.0
27.473,-0.259,0.031,0.0
24.526,-0.239,-0.102,0.0
21.885,-0.221,-0.208,0.0
0.0,0.0,0.0,0.0
0.0,0.0,0.0,0.0
32.045,-0.354,0.241,1.0
28.323,-0.322,0.059,1.0
25.116,-0.294,-0.081,0.0
22.405,-0.269,-0.192,0.0
0.0,0.0,0.0,0.0
0.0,0.0,0.0,0.0
32.459,-0.421,0.275,1.0
28.593,-0.38,0.087,1.0
25.575,-0.348,-0.058,0.0
23.023,-0.321,-0.175,1.0
47.785,-0.68,0.962,0.0
0.0,0.0,0.0,0.0
33.4,-0.497,0.316,1.0
28.606,-0.434,0.115,0.0
26.341,-0.409,-0.033,0.0
23.491,-0.372,-0.154,0.0
0.0,0.0,0.0,0.0
0.0,0.0,0.0,0.0
34.013,-0.569,0.356,1.0
28.795,-0.491,0.145,0.0
26.743,-0.465,-0.006,0.0
24.079,-0.426,-0.133,0.0
0.0,0.0,0.0,0.0
0.0,0.0,0.0,0.0
34.847,-0.648,0.402,0.0
0.0,0.0,0.0,0.0
27.272,-0.524,0.022,0.0
24.58,-0.48,-0.11,1.0
0.0,0.0,0.0,0.0
43.127,-0.868,0.773,0.0
0.0,0.0,0.0,0.0
31.502,-0.653,0.227,0.0
28.458,-0.599,0.054,2.0
24.861,-0.531,-0.084,0.0
0.0,0.0,0.0,0.0
0.0,0.0,0.0,0.0
38.1,-0.848,0.523,0.0
32.446,-0.732,0.27,0.0
28.669,-0.656,0.086,7.0
25.72,-0.596,-0.058,0.0
0.0,0.0,0.0,0.0
0.0,0.0,0.0,0.0
40.042,-0.963,0.595,0.0
33.113,-0.807,0.314,1.0
28.704,-0.708,0.12,5.0
26.275,-0.656,-0.028,0.0
0.0,0.0,0.0,0.0
0.0,0.0,0.0,0.0
0.0,0.0,0.0,0.0
0.0,0.0,0.0,0.0
28.704,-0.758,0.154,0.0
27.048,-0.722,0.002,0.0
0.0,0.0,0.0,0.0
0.0,0.0,0.0,0.0
0.0,0.0,0.0,0.0
0.0,0.0,0.0,0.0
31.124,-0.876,0.204,0.0
27.748,-0.789,0.035,0.0
0.0,0.0,0.0,0.0
0.0,0.0,0.0,0.0
0.0,0.0,0.0,0.0
37.571,-1.11,0.491,0.0
31.694,-0.946,0.247,0.0
28.515,-0.859,0.072,1.0
95.998,-2.915,2.906,1.0
0.0,0.0,0.0,0.0
0.0,0.0,0.0,0.0
0.0,0.0,0.0,0.0
0.0,0.0,0.0,0.0
28.604,-0.909,0.108,1.0
92.897,-2.975,2.929,5.0
0.0,0.0,0.0,0.0
0.0,0.0,0.0,0.0
0.0,0.0,0.0,0.0
34.372,-1.139,0.355,0.0
28.873,-0.965,0.146,0.0
92.295,-3.107,3.03,10.0
0.0,0.0,0.0,0.0
0.0,0.0,0.0,0.0
0.0,0.0,0.0,0.0
36.266,-1.261,0.422,0.0
31.119,-1.09,0.198,0.0
92.135,-3.249,3.146,32.0
0.0,0.0,0.0,0.0
0.0,0.0,0.0,0.0
0.0,0.0,0.0,0.0
37.917,-1.378,0.492,0.0
32.481,-1.189,0.25,1.0
92.128,-3.393,3.269,59.0
0.0,0.0,0.0,0.0
0.0,0.0,0.0,0.0
0.0,0.0,0.0,0.0
38.942,-1.476,0.558,0.0
33.214,-1.268,0.301,0.0
92.16,-3.539,3.397,54.0
92.958,-3.594,2.937,2.0
0.0,0.0,0.0,0.0
0.0,0.0,0.0,0.0
0.0,0.0,0.0,0.0
34.399,-1.365,0.36,0.0
92.181,-3.679,3.526,34.0
92.363,-3.709,3.047,9.0
0.0,0.0,0.0,0.0
0.0,0.0,0.0,0.0
0.0,0.0,0.0,0.0
0.0,0.0,0.0,0.0
92.265,-3.818,3.659,11.0
92.212,-3.839,3.171,151.0
0.0,0.0,0.0,0.0
0.0,0.0,0.0,0.0
0.0,0.0,0.0,0.0
0.0,0.0,0.0,0.0
92.722,-3.969,3.807,2.0
92.251,-3.97,3.302,150.0
0.0,0.0,0.0,0.0
0.0,0.0,0.0,0.0
0.0,0.0,0.0,0.0
0.0,0.0,0.0,0.0
0.0,0.0,0.0,0.0
92.656,-4.119,3.451,5.0
0.0,0.0,0.0,0.0
0.0,0.0,0.0,0.0
0.0,0.0,0.0,0.0
0.0,0.0,0.0,0.0
0.0,0.0,0.0,0.0
94.201,-4.316,3.646,5.0
94.446,-4.348,3.16,3.0
0.0,0.0,0.0,0.0
0.0,0.0,0.0,0.0
0.0,0.0,0.0,0.0
0.0,0.0,0.0,0.0
0.0,0.0,0.0,0.0
95.327,-4.514,3.33,2.0
0.0,0.0,0.0,0.0
0.0,0.0,0.0,0.0
0.0,0.0,0.0,0.0
194.43,-9.375,9.123,8.0
0.0,0.0,0.0,0.0
109.438,-5.323,3.987,2.0
0.0,0.0,0.0,0.0
0.0,0.0,0.0,0.0
0.0,0.0,0.0,0.0
194.434,-9.623,9.419,5.0
0.0,0.0,0.0,0.0
109.424,-5.461,4.153,2.0
0.0,0.0,0.0,0.0
0.0,0.0,0.0,0.0
0.0,0.0,0.0,0.0
189.337,-9.606,9.464,16.0
0.0,0.0,0.0,0.0
0.0,0.0,0.0,0.0
109.393,-5.615,3.737,152.0
34.571,-1.781,1.0,0.0
34.428,-1.781,0.816,0.0
189.091,-9.819,9.743,19.0
188.95,-9.849,8.746,13.0
0.0,0.0,0.0,0.0
109.366,-5.742,3.906,152.0
34.201,-1.802,1.042,4.0
34.218,-1.81,0.864,1.0
119.067,-6.32,6.32,18.0
189.271,-10.083,9.056,6.0
0.0,0.0,0.0,0.0
109.277,-5.861,4.073,2.0
34.204,-1.841,1.096,150.0
34.178,-1.846,0.916,2.0
119.333,-6.468,6.521,14.0
189.069,-10.282,9.342,17.0
0.0,0.0,0.0,0.0
34.466,-1.886,1.338,0.0
34.139,-1.874,1.147,3.0
34.162,-1.882,0.97,38.0
119.412,-6.602,6.715,17.0
189.081,-10.485,9.642,18.0
0.0,0.0,0.0,0.0
0.0,0.0,0.0,0.0
34.136,-1.91,1.201,1.0
34.147,-1.917,1.023,155.0
122.681,-6.911,7.094,9.0
119.599,-6.755,6.29,3.0
188.604,-10.685,8.932,18.0
0.0,0.0,0.0,0.0
34.092,-1.942,1.254,1.0
34.13,-1.95,1.078,155.0
92.313,-5.292,5.486,4.0
122.73,-7.056,6.652,13.0
188.624,-10.873,9.235,18.0
0.0,0.0,0.0,0.0
34.075,-1.974,1.308,2.0
34.056,-1.978,1.13,11.0
92.307,-5.38,5.634,16.0
120.815,-7.06,6.742,13.0
188.468,-11.042,9.53,20.0
0.0,0.0,0.0,0.0
34.22,-2.015,1.369,0.0
34.024,-2.008,1.183,3.0
92.401,-5.471,5.789,19.0
120.742,-7.166,6.933,9.0
122.818,-7.306,6.408,10.0
188.257,-11.224,8.82,4.0
34.392,-2.055,1.431,0.0
34.051,-2.04,1.239,3.0
89.631,-5.386,5.761,15.0
121.01,-7.287,7.143,8.0
122.744,-7.406,6.602,6.0
188.666,-11.409,9.142,8.0
34.491,-2.09,1.491,0.0
34.002,-2.065,1.292,5.0
89.605,-5.459,5.905,11.0
120.781,-7.373,7.325,4.0
188.217,-11.514,10.431,15.0
189.196,-11.598,9.477,12.0
34.662,-2.129,1.555,0.0
34.003,-2.092,1.348,2.0
91.121,-5.625,6.155,4.0
122.157,-7.555,7.61,10.0
92.37,-5.723,5.27,7.0
122.661,-7.614,6.345,10.0
34.784,-2.163,1.617,0.0
34.248,-2.133,1.413,0.0
118.079,-7.379,8.168,5.0
89.644,-5.611,5.731,11.0
92.52,-5.8,5.429,14.0
188.643,-11.847,10.065,10.0
34.981,-2.2,1.683,0.0
34.366,-2.165,1.474,0.0
119.771,-7.57,8.48,13.0
89.397,-5.659,5.86,10.0
92.295,-5.851,5.567,15.0
189.061,-12.003,10.393,15.0
35.38,-2.249,1.759,0.0
34.604,-2.204,1.54,0.0
