X,Y,Z,Reflectivity
0.0,0.0,0.0,0.0
0.0,0.0,0.0,0.0
0.0,0.0,0.0,0.0
7.452,0.423,-0.747,0.0
7.164,0.406,-0.758,0.0
0.0,0.0,0.0,0.0
0.0,0.0,0.0,0.0
0.0,0.0,0.0,0.0
0.0,0.0,0.0,0.0
7.465,0.413,-0.745,0.0
7.15,0.395,-0.753,0.0
0.0,0.0,0.0,0.0
0.0,0.0,0.0,0.0
0.0,0.0,0.0,0.0
7.502,0.405,-0.744,0.0
7.186,0.386,-0.753,0.0
0.0,0.0,0.0,0.0
0.0,0.0,0.0,0.0
0.0,0.0,0.0,0.0
0.0,0.0,0.0,0.0
0.0,0.0,0.0,0.0
7.235,0.378,-0.754,0.0
0.0,0.0,0.0,0.0
0.0,0.0,0.0,0.0
0.0,0.0,0.0,0.0
0.0,0.0,0.0,0.0
0.0,0.0,0.0,0.0
7.262,0.37,-0.752,0.0
0.0,0.0,0.0,0.0
0.0,0.0,0.0,0.0
0.0,0.0,0.0,0.0
0.0,0.0,0.0,0.0
0.0,0.0,0.0,0.0
7.299,0.361,-0.751,0.0
0.0,0.0,0.0,0.0
0.0,0.0,0.0,0.0
0.0,0.0,0.0,0.0
0.0,0.0,0.0,0.0
0.0,0.0,0.0,0.0
7.356,0.353,-0.751,0.0
0.0,0.0,0.0,0.0
0.0,0.0,0.0,0.0
0.0,0.0,0.0,0.0
0.0,0.0,0.0,0.0
7.445,0.347,-0.755,0.0
0.0,0.0,0.0,0.0
0.0,0.0,0.0,0.0
0.0,0.0,0.0,0.0
0.0,0.0,0.0,0.0
7.434,0.336,-0.747,0.0
0.0,0.0,0.0,0.0
0.0,0.0,0.0,0.0
0.0,0.0,0.0,0.0
0.0,0.0,0.0,0.0
7.455,0.326,-0.743,0.0
9.256,0.402,-0.661,0.0
8.891,0.385,-0.683,0.0
0.0,0.0,0.0,0.0
0.0,0.0,0.0,0.0
7.519,0.319,-0.743,0.0
0.0,0.0,0.0,0.0
0.0,0.0,0.0,0.0
8.567,0.357,-0.697,0.0
0.0,0.0,0.0,0.0
0.0,0.0,0.0,0.0
9.423,0.384,-0.655,0.0
0.0,0.0,0.0,0.0
0.0,0.0,0.0,0.0
0.0,0.0,0.0,0.0
0.0,0.0,0.0,0.0
0.0,0.0,0.0,0.0
9.558,0.376,-0.656,0.0
0.0,0.0,0.0,0.0
0.0,0.0,0.0,0.0
0.0,0.0,0.0,0.0
0.0,0.0,0.0,0.0
0.0,0.0,0.0,0.0
9.699,0.368,-0.655,0.0
0.0,0.0,0.0,0.0
0.0,0.0,0.0,0.0
0.0,0.0,0.0,0.0
0.0,0.0,0.0,0.0
0.0,0.0,0.0,0.0
9.758,0.357,-0.649,0.0
0.0,0.0,0.0,0.0
0.0,0.0,0.0,0.0
0.0,0.0,0.0,0.0
8.125,0.29,-0.717,0.0
0.0,0.0,0.0,0.0
9.862,0.348,-0.645,0.0
0.0,0.0,0.0,0.0
0.0,0.0,0.0,0.0
0.0,0.0,0.0,0.0
0.0,0.0,0.0,0.0
0.0,0.0,0.0,0.0
9.957,0.338,-0.64,0.0
0.0,0.0,0.0,0.0
0.0,0.0,0.0,0.0
0.0,0.0,0.0,0.0
8.3,0.275,-0.713,0.0
0.0,0.0,0.0,0.0
10.108,0.33,-0.638,0.0
9.539,0.309,-0.653,0.0
0.0,0.0,0.0,0.0
0.0,0.0,0.0,0.0
0.0,0.0,0.0,0.0
8.034,0.253,-0.724,0.0
10.173,0.319,-0.629,0.0
0.0,0.0,0.0,0.0
0.0,0.0,0.0,0.0
0.0,0.0,0.0,0.0
0.0,0.0,0.0,0.0
8.083,0.244,-0.718,0.0
10.33,0.31,-0.626,0.0
0.0,0.0,0.0,0.0
0.0,0.0,0.0,0.0
0.0,0.0,0.0,0.0
0.0,0.0,0.0,0.0
8.227,0.238,-0.72,0.0
10.44,0.3,-0.619,0.0
9.919,0.283,-0.641,0.0
0.0,0.0,0.0,0.0
0.0,0.0,0.0,0.0
8.628,0.241,-0.697,0.0
8.266,0.229,-0.712,0.0
10.594,0.292,-0.614,0.0
10.011,0.273,-0.634,0.0
0.0,0.0,0.0,0.0
0.0,0.0,0.0,0.0
0.0,0.0,0.0,0.0
8.336,0.221,-0.707,0.0
10.72,0.282,-0.607,0.0
10.134,0.264,-0.627,0.0
9.713,0.251,-0.653,0.0
0.0,0.0,0.0,0.0
8.793,0.224,-0.686,0.0
8.469,0.214,-0.706,0.0
10.854,0.272,-0.599,0.0
10.302,0.256,-0.623,0.0
9.812,0.242,-0.646,0.0
0.0,0.0,0.0,0.0
0.0,0.0,0.0,0.0
8.557,0.206,-0.701,0.0
11.075,0.265,-0.595,0.0
10.456,0.247,-0.617,0.0
9.901,0.232,-0.637,0.0
0.0,0.0,0.0,0.0
9.041,0.208,-0.679,0.0
0.0,0.0,0.0,0.0
11.189,0.254,-0.585,0.0
10.618,0.239,-0.611,0.0
10.015,0.223,-0.629,0.0
0.0,0.0,0.0,0.0
0.0,0.0,0.0,0.0
8.707,0.189,-0.687,0.0
11.345,0.244,-0.575,0.0
10.794,0.23,-0.605,0.0
10.202,0.216,-0.625,0.0
0.0,0.0,0.0,0.0
0.0,0.0,0.0,0.0
8.897,0.183,-0.688,0.0
11.58,0.236,-0.569,0.0
10.965,0.222,-0.597,0.0
10.38,0.208,-0.62,0.0
0.0,0.0,0.0,0.0
0.0,0.0,0.0,0.0
9.01,0.175,-0.682,0.0
11.802,0.228,-0.562,0.0
11.201,0.214,-0.592,0.0
10.595,0.2,-0.616,0.0
0.0,0.0,0.0,0.0
0.0,0.0,0.0,0.0
9.071,0.166,-0.672,0.0
11.991,0.218,-0.551,0.0
11.363,0.205,-0.582,0.0
10.674,0.19,-0.603,0.0
10.217,0.18,-0.632,0.0
9.75,0.17,-0.655,0.0
9.307,0.161,-0.674,0.0
12.284,0.211,-0.545,0.0
11.554,0.196,-0.573,0.0
10.955,0.184,-0.601,0.0
10.342,0.172,-0.623,0.0
9.874,0.162,-0.647,0.0
9.341,0.152,-0.661,0.0
12.483,0.201,-0.533,0.0
11.784,0.188,-0.565,0.0
11.098,0.175,-0.59,0.0
10.488,0.163,-0.614,0.0
0.0,0.0,0.0,0.0
0.0,0.0,0.0,0.0
12.692,0.192,-0.52,0.0
11.95,0.179,-0.552,0.0
11.31,0.167,-0.582,0.0
10.668,0.156,-0.606,0.0
10.166,0.147,-0.631,0.0
9.678,0.138,-0.652,0.0
12.973,0.184,-0.509,0.0
12.265,0.172,-0.546,0.0
11.539,0.159,-0.574,0.0
10.906,0.149,-0.601,0.0
10.337,0.139,-0.624,0.0
9.856,0.131,-0.646,0.0
13.29,0.176,-0.498,0.0
12.464,0.162,-0.532,0.0
11.764,0.151,-0.564,0.0
11.101,0.141,-0.592,0.0
10.492,0.131,-0.614,0.0
10.06,0.124,-0.642,0.0
13.563,0.167,-0.484,0.0
12.723,0.154,-0.52,0.0
11.966,0.143,-0.552,0.0
11.263,0.133,-0.58,0.0
10.705,0.124,-0.607,0.0
10.211,0.117,-0.633,0.0
13.85,0.158,-0.469,0.0
13.126,0.147,-0.513,0.0
12.301,0.136,-0.545,0.0
11.56,0.126,-0.574,0.0
10.943,0.118,-0.601,0.0
10.375,0.11,-0.624,0.0
14.203,0.15,-0.455,0.0
13.252,0.137,-0.494,0.0
12.519,0.128,-0.532,0.0
11.823,0.119,-0.565,0.0
11.191,0.111,-0.593,0.0
10.527,0.103,-0.613,0.0
14.478,0.14,-0.437,0.0
13.612,0.13,-0.481,0.0
12.757,0.12,-0.518,0.0
11.987,0.111,-0.55,0.0
11.386,0.103,-0.582,0.0
10.76,0.096,-0.606,0.0
15.03,0.134,-0.425,0.0
13.935,0.122,-0.467,0.0
13.032,0.112,-0.504,0.0
12.362,0.104,-0.544,0.0
11.64,0.097,-0.573,0.0
10.987,0.09,-0.598,0.0
15.582,0.126,-0.411,0.0
14.327,0.114,-0.452,0.0
13.423,0.105,-0.494,0.0
12.558,0.097,-0.528,0.0
11.883,0.09,-0.562,0.0
11.231,0.083,-0.59,0.0
15.95,0.118,-0.39,0.0
14.662,0.106,-0.435,0.0
13.786,0.098,-0.48,0.0
12.833,0.09,-0.515,0.0
12.158,0.083,-0.551,0.0
11.391,0.076,-0.576,0.0
16.423,0.11,-0.369,0.0
15.218,0.1,-0.421,0.0
14.036,0.09,-0.461,0.0
13.133,0.083,-0.501,0.0
12.411,0.077,-0.538,0.0
11.723,0.071,-0.569,0.0
16.895,0.102,-0.347,0.0
15.715,0.092,-0.404,0.0
14.479,0.083,-0.447,0.0
13.469,0.076,-0.487,0.0
12.716,0.07,-0.526,0.0
11.965,0.065,-0.557,0.0
17.464,0.094,-0.324,0.0
16.159,0.085,-0.383,0.0
14.905,0.076,-0.431,0.0
13.844,0.069,-0.473,0.0
12.987,0.064,-0.511,0.0
12.286,0.059,-0.547,0.0
18.212,0.087,-0.301,0.0
16.67,0.077,-0.362,0.0
15.504,0.07,-0.417,0.0
14.081,0.062,-0.453,0.0
13.38,0.058,-0.499,0.0
12.5,0.053,-0.531,0.0
19.049,0.08,-0.276,0.0
17.153,0.07,-0.337,0.0
15.901,0.063,-0.395,0.0
14.599,0.057,-0.44,0.0
13.651,0.052,-0.482,0.0
12.87,0.047,-0.521,0.0
20.125,0.074,-0.251,0.0
17.849,0.063,-0.315,0.0
16.451,0.057,-0.375,0.0
15.052,0.051,-0.422,0.0
14.042,0.046,-0.466,0.0
13.164,0.042,-0.506,0.0
21.281,0.067,-0.222,4.0
18.586,0.057,-0.289,0.0
16.873,0.05,-0.35,0.0
15.652,0.045,-0.407,0.0
14.443,0.04,-0.45,0.0
13.48,0.036,-0.49,0.0
22.189,0.06,-0.185,0.0
19.647,0.051,-0.265,0.0
17.488,0.044,-0.326,0.0
16.178,0.039,-0.387,0.0
14.851,0.035,-0.432,0.0
13.846,0.031,-0.474,0.0
23.521,0.053,-0.147,1.0
20.942,0.045,-0.239,1.0
18.263,0.038,-0.302,0.0
16.704,0.034,-0.364,0.0
15.443,0.03,-0.416,0.0
14.271,0.027,-0.458,0.0
24.719,0.046,-0.103,0.0
21.703,0.039,-0.202,1.0
19.099,0.033,-0.276,0.0
17.193,0.028,-0.339,0.0
15.929,0.025,-0.396,0.0
14.729,0.022,-0.442,0.0
25.873,0.039,-0.053,0.0
23.364,0.034,-0.168,0.0
20.58,0.028,-0.254,0.0
17.917,0.023,-0.315,0.0
16.495,0.021,-0.375,0.0
15.157,0.018,-0.423,0.0
27.05,0.032,0.0,0.0
24.124,0.027,-0.123,0.0
21.283,0.023,-0.218,3.0
18.666,0.019,-0.289,0.0
16.993,0.016,-0.351,0.0
15.694,0.014,-0.405,0.0
28.552,0.026,0.061,1.0
25.61,0.022,-0.076,0.0
22.606,0.018,-0.183,0.0
19.736,0.015,-0.263,0.0
17.589,0.012,-0.325,0.0
16.294,0.011,-0.385,0.0
28.85,0.019,0.124,0.0
26.572,0.016,-0.022,0.0
23.714,0.013,-0.141,1.0
21.035,0.011,-0.236,3.0
18.456,0.009,-0.302,0.0
16.78,0.007,-0.361,0.0
30.721,0.013,0.197,0.0
27.934,0.011,0.036,0.0
25.084,0.009,-0.096,0.0
22.008,0.007,-0.199,0.0
19.411,0.006,-0.276,0.0
17.308,0.004,-0.335,0.0
33.217,0.009,0.285,0.0
28.748,0.007,0.099,1.0
26.173,0.005,-0.044,0.0
23.561,0.004,-0.163,0.0
20.813,0.003,-0.251,0.0
18.162,0.002,-0.312,0.0
35.439,0.004,0.38,0.0
30.521,0.003,0.171,0.0
27.422,0.002,0.012,0.0
24.569,0.001,-0.117,0.0
21.519,0.001,-0.213,1.0
18.996,0.0,-0.285,0.0
0.0,0.0,0.0,0.0
33.04,0.0,0.256,0.0
28.639,0.0,0.075,1.0
25.842,0.0,-0.067,0.0
23.279,0.0,-0.18,0.0
20.206,0.0,-0.26,0.0
0.0,0.0,0.0,0.0
33.496,0.0,0.331,0.0
30.077,0.0,0.143,0.0
26.854,0.0,-0.012,0.0
23.923,0.0,-0.134,0.0
21.22,0.0,-0.228,3.0
43.141,-0.002,0.742,0.0
0.0,0.0,0.0,0.0
31.331,-0.001,0.216,0.0
28.417,-0.001,0.047,1.0
25.4,0.0,-0.088,0.0
22.414,0.0,-0.192,0.0
0.0,0.0,0.0,0.0
0.0,0.0,0.0,0.0
33.249,0.0,0.301,0.0
28.736,0.0,0.11,0.0
26.439,0.0,-0.034,0.0
23.717,0.0,-0.153,1.0
0.0,0.0,0.0,0.0
0.0,0.0,0.0,0.0
36.162,0.001,0.404,0.0
30.727,0.002,0.182,0.0
27.717,0.002,0.022,0.0
24.996,0.002,-0.108,0.0
0.0,0.0,0.0,0.0
0.0,0.0,0.0,0.0
0.0,0.0,0.0,0.0
33.075,0.005,0.266,0.0
28.748,0.005,0.084,1.0
26.077,0.006,-0.057,0.0
77.731,0.017,2.002,2.0
0.0,0.0,0.0,0.0
0.0,0.0,0.0,0.0
33.787,0.011,0.345,0.0
30.344,0.01,0.154,0.0
27.226,0.01,-0.001,0.0
77.676,0.03,2.167,2.0
0.0,0.0,0.0,0.0
0.0,0.0,0.0,0.0
0.0,0.0,0.0,0.0
33.08,0.018,0.238,0.0
28.538,0.016,0.059,1.0
82.96,0.049,2.491,8.0
0.0,0.0,0.0,0.0
0.0,0.0,0.0,0.0
40.497,0.029,0.587,0.0
33.339,0.026,0.311,0.0
30.082,0.025,0.126,0.0
83.263,0.069,2.68,15.0
77.362,0.068,2.091,3.0
0.0,0.0,0.0,0.0
0.0,0.0,0.0,0.0
0.0,0.0,0.0,0.0
0.0,0.0,0.0,0.0
83.248,0.092,2.857,23.0
82.801,0.096,2.414,4.0
0.0,0.0,0.0,0.0
0.0,0.0,0.0,0.0
38.989,0.052,0.529,0.0
33.245,0.047,0.28,0.0
83.265,0.118,3.033,32.0
78.093,0.116,2.44,16.0
76.922,0.119,2.007,4.0
0.0,0.0,0.0,0.0
41.896,0.07,0.656,0.0
35.696,0.062,0.375,0.0
83.282,0.147,3.206,32.0
78.079,0.143,2.602,20.0
77.598,0.148,2.186,2.0
0.0,0.0,0.0,0.0
0.0,0.0,0.0,0.0
37.245,0.079,0.469,0.0
83.287,0.179,3.38,35.0
83.236,0.185,2.947,28.0
83.078,0.192,2.514,9.0
76.2,0.182,1.904,3.0
0.0,0.0,0.0,0.0
41.748,0.106,0.612,0.0
83.266,0.214,3.552,44.0
83.251,0.221,3.12,49.0
83.187,0.228,2.687,17.0
76.442,0.216,2.066,3.0
0.0,0.0,0.0,0.0
0.0,0.0,0.0,0.0
83.244,0.252,3.722,42.0
83.25,0.259,3.292,45.0
83.232,0.267,2.861,13.0
78.131,0.258,2.273,5.0
0.0,0.0,0.0,0.0
0.0,0.0,0.0,0.0
83.25,0.293,3.895,43.0
83.262,0.301,3.463,50.0
83.28,0.309,3.032,37.0
83.157,0.317,2.589,10.0
75.536,0.296,1.961,3.0
0.0,0.0,0.0,0.0
83.247,0.337,4.063,41.0
83.259,0.346,3.633,41.0
83.299,0.355,3.202,44.0
83.275,0.363,2.761,11.0
76.094,0.34,2.129,4.0
0.0,0.0,0.0,0.0
83.232,0.384,4.231,31.0
83.299,0.393,3.801,17.0
83.321,0.402,3.369,6.0
78.084,0.386,2.745,11.0
78.002,0.394,2.337,9.0
74.205,0.384,1.839,0.0
79.329,0.413,4.19,7.0
79.335,0.422,3.778,7.0
79.347,0.431,3.367,12.0
79.367,0.441,2.947,12.0
78.106,0.443,2.495,30.0
75.437,0.437,2.018,5.0
79.316,0.463,4.346,11.0
79.341,0.473,3.935,10.0
79.364,0.483,3.524,11.0
79.334,0.492,3.102,2.0
78.082,0.495,2.647,21.0
78.113,0.505,2.243,3.0
79.33,0.516,4.504,8.0
79.344,0.526,4.092,9.0
79.378,0.536,3.68,9.0
79.349,0.547,3.258,10.0
79.358,0.557,2.845,3.0
78.177,0.56,2.397,18.0
79.31,0.571,4.657,3.0
79.328,0.582,4.244,7.0
79.365,0.593,3.833,9.0
79.36,0.603,3.411,8.0
78.179,0.606,2.953,9.0
78.114,0.616,2.544,16.0
76.75,0.608,4.653,2.0
79.341,0.64,4.396,7.0
79.326,0.651,3.982,9.0
79.32,0.662,3.56,8.0
79.31,0.674,3.145,7.0
78.098,0.674,2.69,29.0
76.746,0.667,4.799,3.0
79.323,0.7,4.545,4.0
79.37,0.713,4.134,7.0
79.396,0.725,3.712,6.0
79.424,0.736,3.299,11.0
79.395,0.748,2.883,5.0
76.616,0.726,4.934,11.0
79.357,0.764,4.695,2.0
79.308,0.776,4.277,9.0
92.081,0.914,4.474,7.0
109.227,1.101,4.736,4.0
108.057,1.106,4.12,19.0
76.555,0.787,5.07,16.0
90.244,0.943,5.503,10.0
90.388,0.958,5.038,14.0
0.0,0.0,0.0,0.0
109.071,1.19,4.925,11.0
108.257,1.198,4.323,13.0
76.2,0.849,5.184,30.0
76.582,0.865,4.808,20.0
76.599,0.878,4.407,11.0
92.038,1.069,4.804,18.0
92.132,1.086,4.325,12.0
108.969,1.302,4.546,13.0
76.056,0.914,5.311,9.0
76.398,0.931,4.933,36.0
76.48,0.944,4.536,48.0
76.679,0.96,4.139,15.0
91.819,1.165,4.474,16.0
109.072,1.403,4.744,16.0
63.137,0.817,4.522,27.0
76.237,0.999,5.059,32.0
76.476,1.015,4.672,26.0
76.583,1.03,4.268,34.0
76.609,1.043,3.866,19.0
76.631,1.057,3.466,15.0
63.223,0.877,4.638,20.0
76.278,1.072,5.194,26.0
76.57,1.089,4.809,18.0
76.5,1.102,4.395,29.0
76.545,1.116,3.995,22.0
76.579,1.13,3.594,30.0
76.254,1.133,5.726,39.0
76.942,1.156,5.371,16.0
76.665,1.166,4.947,17.0
76.548,1.178,4.528,24.0
76.579,1.192,4.126,33.0
76.539,1.206,3.721,34.0
76.37,1.211,5.864,9.0
77.282,1.239,5.524,11.0
88.882,1.441,5.884,15.0
76.653,1.257,4.662,6.0
76.605,1.27,4.255,17.0
76.573,1.284,3.849,20.0
63.21,1.066,4.957,17.0
83.394,1.423,6.099,23.0
76.729,1.323,5.206,9.0
83.858,1.462,5.237,13.0
84.886,1.496,4.852,14.0
89.042,1.586,4.62,12.0
63.176,1.132,5.057,7.0
83.56,1.512,6.245,11.0
76.711,1.403,5.326,27.0
83.69,1.548,5.36,16.0
84.088,1.572,4.94,22.0
85.451,1.613,4.568,14.0
73.229,1.391,5.979,19.0
76.873,1.475,5.869,17.0
76.75,1.488,5.451,23.0
84.731,1.659,5.559,17.0
83.848,1.657,5.057,24.0
84.278,1.683,4.637,17.0
63.607,1.278,5.292,22.0
62.878,1.276,4.897,26.0
83.45,1.71,6.056,30.0
82.523,1.707,5.54,33.0
83.25,1.738,5.147,19.0
84.402,1.779,4.771,16.0
63.903,1.355,5.414,15.0
62.999,1.348,5.001,23.0
83.414,1.802,6.177,30.0
82.446,1.797,5.657,19.0
83.172,1.829,5.265,22.0
84.031,1.865,4.872,20.0
68.839,1.538,5.934,15.0
63.054,1.421,5.098,19.0
83.42,1.897,6.299,17.0
82.405,1.89,5.774,29.0
82.103,1.9,5.316,35.0
82.243,1.92,4.888,31.0
55.942,1.314,4.903,14.0
63.033,1.494,5.187,13.0
77.015,1.841,5.926,10.0
82.462,1.988,5.897,27.0
82.038,1.996,5.429,30.0
82.312,2.019,5.008,27.0
55.849,1.379,4.975,22.0
63.08,1.57,5.28,12.0
64.752,1.625,5.073,16.0
82.41,2.086,6.008,28.0
82.202,2.098,5.554,34.0
81.799,2.104,5.09,33.0
56.349,2.652,6.036,16.0
50.452,2.385,5.125,24.0
49.884,2.368,4.792,23.0
49.834,2.376,4.507,25.0
49.565,2.374,4.211,39.0
58.057,2.794,4.614,45.0
50.651,2.454,5.46,15.0
50.528,2.459,5.167,24.0
49.88,2.437,4.825,26.0
49.819,2.445,4.539,23.0
49.636,2.447,4.249,30.0
65.834,3.26,5.273,8.0
48.416,2.414,5.25,14.0
50.423,2.524,5.188,25.0
49.882,2.507,4.856,23.0
49.845,2.516,4.572,20.0
63.253,3.206,5.452,12.0
66.063,3.362,5.331,14.0
48.431,2.482,5.28,34.0
50.194,2.582,5.193,31.0
49.894,2.577,4.885,23.0
49.895,2.588,4.604,17.0
58.55,3.048,5.079,6.0
49.366,2.58,4.01,14.0
48.391,2.547,5.302,12.0
48.836,2.58,5.079,22.0
49.985,2.651,4.921,25.0
49.914,2.658,4.632,15.0
49.734,2.659,4.34,19.0
49.441,2.653,4.041,24.0
48.243,2.607,5.31,29.0
48.931,2.653,5.113,19.0
50.067,2.725,4.953,23.0
49.99,2.731,4.663,24.0
49.874,2.735,4.375,7.0
49.577,2.729,4.075,34.0
47.975,2.659,5.302,23.0
53.345,2.967,5.598,27.0
49.937,2.787,4.962,24.0
57.12,3.199,5.352,7.0
65.421,3.677,5.767,14.0
49.636,2.801,4.1,16.0
47.462,2.697,5.265,19.0
48.558,2.768,5.115,4.0
49.11,2.809,4.899,23.0
57.277,3.287,5.389,21.0
80.969,4.664,7.168,27.0
66.629,3.851,5.529,11.0
45.211,2.631,5.032,20.0
44.545,2.601,4.708,12.0
48.864,2.862,4.892,22.0
57.602,3.385,5.44,39.0
57.814,3.409,5.138,11.0
80.587,4.768,6.713,23.0
45.029,2.682,5.026,20.0
44.529,2.661,4.721,19.0
48.76,2.923,4.896,22.0
57.747,3.473,5.47,18.0
57.747,3.484,5.148,16.0
58.043,3.514,4.851,34.0
34.574,2.107,3.869,22.0
44.553,2.723,4.735,24.0
49.34,3.025,4.967,20.0
52.304,3.217,4.968,13.0
57.685,3.558,5.157,7.0
58.061,3.593,4.867,25.0
34.541,2.152,3.873,23.0
49.352,3.083,5.256,6.0
51.842,3.249,5.23,4.0
52.058,3.271,4.955,21.0
59.531,3.752,5.334,5.0
58.088,3.672,4.88,23.0
34.542,2.198,3.879,33.0
34.113,2.177,3.639,30.0
49.268,3.153,4.979,12.0
54.943,3.527,5.239,20.0
58.046,3.737,5.21,9.0
57.901,3.738,4.873,14.0
34.331,2.231,3.861,28.0
34.143,2.225,3.647,26.0
59.969,3.919,6.068,6.0
54.972,3.602,5.248,24.0
80.603,5.296,7.244,11.0
57.993,3.821,4.887,14.0
34.375,2.28,3.869,32.0
34.147,2.271,3.65,20.0
64.739,4.317,6.556,7.0
51.922,3.471,4.961,7.0
59.315,3.975,5.334,6.0
58.153,3.908,4.904,22.0
34.438,2.33,3.878,31.0
34.155,2.316,3.653,35.0
54.736,3.721,5.545,19.0
48.277,3.289,4.614,3.0
59.234,4.046,5.328,6.0
58.425,4.002,4.928,7.0
34.35,2.368,3.868,27.0
34.198,2.363,3.657,33.0
54.566,3.78,5.528,21.0
48.223,3.349,4.608,22.0
59.11,4.115,5.316,8.0
58.693,4.096,4.949,21.0
34.3,2.409,3.861,31.0
34.214,2.409,3.658,30.0
63.093,4.452,6.388,8.0
48.193,3.409,4.603,22.0
51.855,3.676,4.66,25.0
58.715,4.173,4.946,28.0
34.351,2.457,3.864,34.0
34.314,2.459,3.665,25.0
48.323,3.471,4.888,22.0
59.451,4.28,5.672,16.0
51.845,3.741,4.654,9.0
58.634,4.241,4.933,32.0
34.349,2.5,3.86,41.0
34.28,2.5,3.657,31.0
48.306,3.531,4.88,22.0
59.514,4.359,5.67,20.0
49.695,3.648,4.454,20.0
57.994,4.267,4.87,38.0
34.404,2.547,3.86,31.0
34.425,2.553,3.667,26.0
48.368,3.595,4.878,14.0
49.745,3.705,4.73,12.0
49.561,3.698,4.432,17.0
61.1,4.569,5.119,31.0
34.487,2.595,3.862,29.0
34.322,2.587,3.649,20.0
43.062,3.253,4.333,11.0
49.492,3.746,4.694,23.0
49.18,3.729,4.386,40.0
61.32,4.659,5.123,21.0
34.289,2.621,3.832,38.0
34.31,2.628,3.638,19.0
42.985,3.299,4.314,17.0
49.349,3.794,4.668,22.0
49.141,3.785,4.369,28.0
61.205,4.723,5.096,10.0
34.191,2.654,3.811,33.0
48.46,3.769,5.125,19.0
42.775,3.332,4.28,25.0
49.344,3.85,4.652,18.0
51.884,4.056,4.597,13.0
51.929,4.067,4.307,22.0
34.137,2.689,3.793,27.0
48.724,3.845,5.136,8.0
42.763,3.38,4.264,15.0
49.21,3.896,4.622,10.0
60.572,4.804,5.345,14.0
51.932,4.126,4.289,38.0
34.077,2.723,3.774,32.0
43.238,3.461,4.542,4.0
42.774,3.428,4.249,17.0
48.916,3.928,4.575,23.0
60.151,4.837,5.285,26.0
51.952,4.185,4.27,41.0
34.175,2.769,3.771,19.0
34.023,2.761,3.559,24.0
42.777,3.476,4.231,16.0
48.978,3.986,4.56,22.0
60.169,4.904,5.26,33.0
51.934,4.24,4.245,44.0
34.032,2.794,3.74,31.0
34.001,2.795,3.542,30.0
42.837,3.527,4.217,22.0
49.051,4.044,4.544,8.0
59.643,4.925,5.186,28.0
51.903,4.293,4.218,23.0
34.052,2.832,3.725,34.0
33.974,2.829,3.522,30.0
42.853,3.573,4.197,20.0
0.0,0.0,0.0,0.0
59.678,4.991,5.159,33.0
51.816,4.339,4.184,12.0
34.083,2.87,3.71,32.0
34.031,2.869,3.51,32.0
42.841,3.616,4.173,28.0
51.572,4.36,4.723,25.0
59.526,5.039,5.112,27.0
43.112,3.654,3.457,27.0
34.14,2.91,3.697,34.0
42.833,3.655,4.392,4.0
42.911,3.666,4.155,28.0
51.455,4.401,4.682,25.0
59.571,5.102,5.081,23.0
42.959,3.684,3.419,18.0
42.048,3.626,4.527,9.0
42.784,3.693,4.361,28.0
51.364,4.438,4.941,8.0
51.425,4.449,4.648,24.0
51.654,4.474,4.373,40.0
42.936,3.723,3.39,25.0
34.129,2.975,3.653,28.0
42.842,3.739,4.339,19.0
51.305,4.482,4.902,24.0
51.581,4.51,4.628,45.0
51.655,4.522,4.339,4.0
42.947,3.764,3.363,30.0
34.181,3.011,3.635,27.0
42.74,3.768,4.3,33.0
51.353,4.533,4.871,25.0
51.528,4.552,4.587,10.0
43.144,3.816,3.594,17.0
42.974,3.805,3.335,30.0
34.116,3.036,3.603,20.0
42.734,3.806,4.268,37.0
51.519,4.592,4.85,22.0
43.52,3.883,3.843,17.0
43.239,3.862,3.571,18.0
42.947,3.839,3.301,15.0
34.047,3.059,3.571,33.0
42.721,3.841,4.234,34.0
43.582,3.922,4.069,16.0
43.486,3.917,3.806,13.0
59.084,5.327,4.833,8.0
51.895,4.683,3.949,22.0
34.067,3.089,3.546,38.0
42.761,3.88,4.204,19.0
43.483,3.949,4.025,34.0
52.933,4.811,4.591,11.0
51.818,4.713,4.198,22.0
59.635,5.429,4.49,14.0
34.01,3.111,3.512,29.0
43.471,3.979,4.238,24.0
43.478,3.982,3.989,16.0
52.885,4.848,4.543,23.0
51.818,4.754,4.155,43.0
59.387,5.452,4.422,30.0
33.979,3.134,3.48,32.0
43.551,4.019,4.209,19.0
43.43,4.011,3.947,14.0
52.825,4.881,4.493,26.0
51.88,4.798,4.114,39.0
59.42,5.499,4.372,27.0
43.718,4.064,4.438,6.0
43.533,4.049,4.169,25.0
59.623,5.549,5.366,12.0
52.734,4.911,4.438,19.0
52.051,4.85,4.081,25.0
59.063,5.508,4.293,33.0
42.214,3.954,4.247,5.0
43.496,4.076,4.125,27.0
43.482,4.076,3.873,15.0
59.335,5.566,4.938,19.0
59.213,5.557,4.588,9.0
58.814,5.523,4.22,28.0
50.996,4.809,5.082,18.0
43.521,4.106,4.086,18.0
59.294,5.597,5.225,12.0
51.821,4.893,4.264,26.0
59.208,5.595,4.531,24.0
58.763,5.556,4.16,21.0
43.661,4.145,4.309,18.0
43.571,4.137,4.048,18.0
59.169,5.621,5.156,10.0
51.809,4.924,4.211,46.0
58.93,5.603,4.452,30.0
58.76,5.59,4.102,30.0
43.671,4.171,4.266,16.0
52.55,5.02,4.83,7.0
43.49,4.156,3.746,19.0
51.888,4.96,4.166,26.0
58.764,5.62,4.381,29.0
58.616,5.608,4.033,29.0
43.614,4.189,4.216,28.0
52.321,5.026,4.755,26.0
43.439,4.174,3.697,28.0
59.272,5.697,4.698,17.0
58.826,5.656,4.324,32.0
58.654,5.642,3.975,28.0
43.506,4.201,4.159,27.0
51.957,5.017,4.667,16.0
51.755,4.999,4.35,5.0
59.257,5.725,4.633,29.0
58.581,5.661,4.243,25.0
58.61,5.666,3.909,28.0
43.473,4.217,4.109,31.0
51.942,5.04,4.609,5.0
51.809,5.028,4.298,21.0
59.042,5.731,4.551,33.0
58.495,5.679,4.172,30.0
58.405,5.672,3.831,27.0
43.415,4.23,4.055,32.0
43.487,4.238,3.81,28.0
51.805,5.048,4.24,35.0
58.971,5.748,4.481,33.0
58.333,5.687,4.097,29.0
58.364,5.691,3.764,26.0
43.422,4.247,4.007,31.0
43.498,4.255,3.762,21.0
51.836,5.071,4.184,19.0
58.972,5.77,4.413,33.0
58.467,5.721,4.04,32.0
58.42,5.717,3.701,24.0
43.351,4.255,3.95,25.0
51.911,5.096,4.429,5.0
59.306,5.821,4.718,22.0
58.816,5.774,4.334,30.0
58.627,5.755,3.983,32.0
58.361,5.73,3.629,25.0
43.3,4.264,3.894,21.0
51.834,5.103,4.363,13.0
59.266,5.835,4.645,29.0
58.482,5.757,4.241,25.0
58.53,5.762,3.908,32.0
58.447,5.754,3.566,32.0
43.301,4.275,3.843,12.0
51.782,5.111,4.296,23.0
59.093,5.832,4.561,32.0
58.4,5.763,4.165,28.0
58.381,5.761,3.827,27.0
58.545,5.777,3.502,32.0
43.223,4.276,3.783,21.0
51.79,5.123,4.234,19.0
59.003,5.836,4.482,27.0
58.408,5.776,4.094,32.0
58.34,5.768,3.754,29.0
58.265,5.761,3.414,27.0
43.219,4.283,3.73,16.0
59.34,5.88,4.778,17.0
58.955,5.841,4.406,25.0
58.504,5.794,4.03,33.0
58.302,5.773,3.68,30.0
58.154,5.758,3.336,26.0
51.879,5.149,4.412,8.0
59.401,5.893,4.708,20.0
58.641,5.816,4.309,32.0
58.44,5.795,3.951,33.0
58.289,5.779,3.605,31.0
58.147,5.764,3.263,27.0
51.771,5.143,4.337,19.0
59.256,5.884,4.621,25.0
58.581,5.815,4.231,32.0
58.265,5.782,3.866,29.0
58.473,5.801,3.542,30.0
58.278,5.781,3.195,32.0
51.761,5.144,4.27,19.0
59.026,5.864,4.527,27.0
58.624,5.821,4.158,32.0
58.294,5.787,3.792,32.0
58.326,5.788,3.458,31.0
58.562,5.81,3.135,32.0
59.36,5.899,4.819,14.0
58.999,5.861,4.449,26.0
58.487,5.807,4.073,32.0
58.275,5.784,3.716,32.0
58.153,5.769,3.373,26.0
58.821,5.834,3.074,32.0
59.383,5.899,4.744,19.0
58.781,5.836,4.356,32.0
58.407,5.796,3.991,32.0
58.266,5.779,3.639,29.0
58.168,5.767,3.298,28.0
58.957,5.843,3.004,22.0
59.319,5.888,4.661,23.0
58.539,5.807,4.261,30.0
58.384,5.788,3.913,31.0
58.427,5.789,3.572,33.0
58.189,5.763,3.222,30.0
59.082,5.849,2.932,24.0
59.022,5.851,4.558,25.0
58.639,5.809,4.19,33.0
58.336,5.775,3.831,32.0
58.459,5.784,3.496,33.0
58.469,5.782,3.16,32.0
59.116,5.843,2.855,23.0
59.016,5.84,4.478,24.0
58.409,5.775,4.095,32.0
58.356,5.766,3.754,29.0
58.203,5.748,3.402,29.0
58.901,5.813,3.104,32.0
59.248,5.844,2.782,17.0
58.921,5.817,4.391,28.0
58.452,5.766,4.018,32.0
58.323,5.749,3.673,25.0
58.061,5.72,3.316,21.0
59.03,5.811,3.032,29.0
60.634,5.966,2.766,26.0
58.569,5.767,4.286,25.0
58.584,5.764,3.949,32.0
58.392,5.74,3.598,32.0
58.093,5.707,3.24,29.0
59.138,5.805,2.958,26.0
59.856,5.872,2.65,34.0
58.344,5.727,4.191,25.0
58.374,5.725,3.855,32.0
58.392,5.722,3.52,32.0
58.591,5.737,3.189,33.0
59.231,5.795,2.883,21.0
59.585,5.825,2.557,27.0
58.345,5.707,4.11,28.0
58.381,5.705,3.776,32.0
58.304,5.692,3.434,31.0
58.917,5.747,3.125,33.0
59.196,5.769,2.799,12.0
59.583,5.803,2.474,24.0
58.484,5.697,4.038,25.0
58.415,5.684,3.697,23.0
58.172,5.655,3.346,26.0
59.022,5.733,3.049,30.0
0.0,0.0,0.0,0.0
59.455,5.765,2.388,29.0
58.62,5.684,3.967,28.0
58.251,5.642,3.606,31.0
58.012,5.613,3.257,25.0
59.147,5.718,2.974,25.0
60.592,5.852,2.699,20.0
59.405,5.733,2.305,26.0
58.647,5.658,3.888,28.0
58.337,5.622,3.531,32.0
58.828,5.663,3.222,33.0
0.0,0.0,0.0,0.0
60.008,5.765,2.589,33.0
59.717,5.732,2.234,19.0
58.861,5.648,3.821,32.0
58.305,5.588,3.448,32.0
59.184,5.665,3.16,33.0
60.706,5.805,2.885,24.0
60.087,5.74,2.511,34.0
60.348,5.759,2.175,14.0
58.795,5.607,3.735,34.0
58.309,5.554,3.367,27.0
59.249,5.637,3.081,27.0
60.483,5.747,2.791,27.0
59.975,5.693,2.423,33.0
60.393,5.727,2.093,20.0
58.666,5.559,3.645,34.0
58.604,5.545,3.303,33.0
59.505,5.624,3.011,32.0
60.334,5.695,2.701,31.0
60.154,5.671,2.347,33.0
60.531,5.701,2.014,23.0
58.417,5.496,3.548,30.0
59.3,5.572,3.261,32.0
60.272,5.655,2.967,34.0
60.242,5.646,2.614,35.0
61.024,5.712,2.297,19.0
60.373,5.644,1.926,6.0
58.27,5.441,3.459,31.0
59.439,5.542,3.186,33.0
60.347,5.619,2.887,34.0
60.259,5.603,2.531,35.0
60.953,5.66,2.21,32.0
62.019,5.752,1.894,12.0
58.339,5.403,3.383,29.0
59.973,5.547,3.132,28.0
60.772,5.613,2.825,23.0
60.54,5.583,2.46,29.0
60.718,5.591,2.119,34.0
62.246,5.725,1.816,5.0
58.515,5.373,3.313,33.0
60.673,5.563,3.085,32.0
60.715,5.558,2.739,33.0
60.887,5.566,2.391,28.0
0.0,0.0,0.0,0.0
52.214,4.759,1.452,10.0
58.515,5.324,3.232,33.0
60.607,5.505,2.999,35.0
60.881,5.521,2.663,23.0
60.949,5.519,2.31,13.0
62.021,5.608,1.995,15.0
52.092,4.703,1.378,21.0
58.817,5.3,3.169,34.0
60.946,5.482,2.934,25.0
61.261,5.501,2.598,18.0
52.135,4.674,1.906,24.0
52.152,4.669,1.608,26.0
52.042,4.651,1.306,15.0
59.481,5.305,3.125,34.0
61.103,5.44,2.859,29.0
52.135,4.633,2.141,25.0
52.117,4.624,1.836,41.0
52.122,4.616,1.537,34.0
51.935,4.592,1.234,10.0
52.128,4.599,2.669,16.0
52.105,4.589,2.369,39.0
52.108,4.58,2.07,50.0
52.115,4.573,1.767,57.0
52.094,4.562,1.467,22.0
51.551,4.508,1.157,7.0
52.073,4.542,2.596,45.0
52.078,4.533,2.298,60.0
52.08,4.524,1.999,67.0
52.117,4.52,1.697,59.0
52.103,4.51,1.398,23.0
51.341,4.436,1.084,4.0
52.057,4.486,2.527,54.0
52.082,4.478,2.229,65.0
52.111,4.472,1.932,49.0
52.14,4.465,1.629,21.0
52.138,4.457,1.331,12.0
49.215,4.199,0.975,4.0
52.074,4.43,2.459,48.0
52.126,4.425,2.163,40.0
52.166,4.419,1.865,29.0
52.235,4.416,1.564,18.0
52.12,4.397,1.263,9.0
49.133,4.137,0.909,5.0
52.139,4.376,2.394,22.0
52.18,4.37,2.097,20.0
52.252,4.366,1.801,8.0
47.708,3.978,1.366,3.0
47.684,3.967,1.093,5.0
49.289,4.093,0.849,12.0
62.397,5.163,2.785,11.0
81.178,6.702,3.158,19.0
47.857,3.942,1.588,2.0
47.661,3.917,1.304,0.0
47.606,3.904,1.03,8.0
48.941,4.005,0.78,7.0
62.867,5.127,2.726,6.0
81.226,6.607,3.057,21.0
47.629,3.865,1.52,5.0
47.585,3.852,1.242,5.0
47.568,3.842,0.97,1.0
47.907,3.861,0.704,1.0
81.838,6.571,3.446,23.0
47.896,3.836,1.742,1.0
47.532,3.797,1.458,7.0
47.502,3.785,1.181,14.0
47.709,3.793,0.914,0.0
0.0,0.0,0.0,0.0
81.56,6.442,3.333,22.0
47.705,3.758,1.677,4.0
47.469,3.73,1.397,9.0
47.447,3.719,1.121,15.0
47.804,3.738,0.857,2.0
0.0,0.0,0.0,0.0
48.972,3.804,1.942,13.0
47.65,3.691,1.617,7.0
47.41,3.662,1.339,14.0
47.478,3.658,1.065,0.0
47.88,3.68,0.801,0.0
37.125,2.846,0.41,0.0
48.599,3.709,1.869,1.0
47.616,3.623,1.559,11.0
47.363,3.594,1.281,19.0
47.353,3.584,1.006,1.0
46.176,3.485,0.718,0.0
35.212,2.65,0.347,1.0
48.203,3.611,1.797,1.0
47.323,3.535,1.494,11.0
47.35,3.526,1.225,16.0
47.336,3.515,0.951,2.0
0.0,0.0,0.0,0.0
33.73,2.491,0.294,0.0
47.742,3.508,1.724,3.0
47.28,3.464,1.439,21.0
47.352,3.458,1.171,4.0
51.757,3.769,0.981,0.0
0.0,0.0,0.0,0.0
32.477,2.351,0.246,1.0
47.559,3.425,1.664,6.0
47.26,3.393,1.385,24.0
47.252,3.381,1.115,4.0
52.03,3.711,0.927,2.0
37.4,2.659,0.454,0.0
31.403,2.226,0.202,1.0
47.411,3.343,1.606,10.0
47.265,3.322,1.332,159.0
47.299,3.313,1.064,1.0
50.385,3.518,0.842,0.0
47.319,3.293,0.522,1.0
30.308,2.103,0.163,0.0
47.312,3.264,1.551,13.0
47.244,3.248,1.281,168.0
47.3,3.24,1.013,3.0
47.14,3.218,0.737,1.0
47.343,3.221,0.472,1.0
29.25,1.983,0.126,0.0
47.242,3.185,1.498,18.0
47.245,3.173,1.23,171.0
47.276,3.164,0.963,3.0
43.969,2.933,0.642,0.0
33.84,2.249,0.302,0.0
28.749,1.904,0.093,0.0
47.199,3.107,1.448,32.0
47.23,3.097,1.181,164.0
47.281,3.09,0.915,0.0
0.0,0.0,0.0,0.0
33.02,2.141,0.261,1.0
27.979,1.807,0.062,0.0
47.203,3.03,1.4,43.0
47.237,3.021,1.134,150.0
52.242,3.327,0.958,3.0
37.124,2.355,0.466,0.0
31.806,2.01,0.219,0.0
27.348,1.721,0.034,0.0
47.223,2.953,1.354,156.0
47.283,2.945,1.088,2.0
53.753,3.334,0.933,0.0
47.235,2.918,0.548,3.0
30.361,1.868,0.18,0.0
26.76,1.639,0.007,0.0
47.209,2.873,1.308,93.0
47.246,2.863,1.042,5.0
47.646,2.874,0.781,4.0
36.27,2.179,0.386,0.0
29.842,1.785,0.149,1.0
26.245,1.563,-0.017,0.0
47.228,2.792,1.264,19.0
47.274,2.783,0.998,5.0
47.804,2.801,0.739,4.0
34.497,2.012,0.335,0.0
29.166,1.694,0.119,0.0
25.788,1.491,-0.04,0.0
47.239,2.711,1.222,11.0
47.277,2.7,0.956,2.0
42.086,2.392,0.613,1.0
32.998,1.866,0.291,1.0
28.584,1.609,0.091,0.0
25.283,1.417,-0.062,0.0
47.284,2.629,1.181,6.0
47.51,2.628,0.919,0.0
0.0,0.0,0.0,0.0
32.474,1.779,0.258,0.0
27.958,1.524,0.064,0.0
24.991,1.355,-0.082,0.0
47.264,2.542,1.14,4.0
48.991,2.621,0.905,2.0
37.702,2.006,0.484,0.0
31.454,1.665,0.223,1.0
27.514,1.449,0.04,1.0
24.655,1.292,-0.102,0.0
47.286,2.457,1.102,4.0
49.528,2.559,0.875,4.0
0.0,0.0,0.0,0.0
30.805,1.574,0.194,1.0
27.073,1.376,0.018,0.0
24.184,1.222,-0.119,0.0
47.361,2.373,1.066,3.0
50.137,2.497,0.846,1.0
0.0,0.0,0.0,0.0
30.091,1.482,0.166,0.0
26.591,1.302,-0.002,0.0
23.215,1.13,-0.132,0.0
47.422,2.287,1.032,0.0
0.0,0.0,0.0,0.0
34.089,1.624,0.358,0.0
29.418,1.393,0.141,0.0
26.213,1.233,-0.021,0.0
23.205,1.085,-0.149,2.0
47.722,2.211,1.003,0.0
0.0,0.0,0.0,0.0
34.26,1.567,0.335,0.0
28.866,1.311,0.117,0.0
25.859,1.167,-0.039,0.0
22.989,1.031,-0.164,1.0
47.667,2.116,0.969,0.0
0.0,0.0,0.0,0.0
32.861,1.438,0.299,1.0
28.644,1.246,0.097,1.0
25.488,1.101,-0.056,0.0
22.206,0.952,-0.173,0.0
0.0,0.0,0.0,0.0
38.919,1.64,0.546,0.0
32.88,1.375,0.277,1.0
28.249,1.173,0.077,0.0
25.024,1.032,-0.071,0.0
22.012,0.901,-0.186,1.0
0.0,0.0,0.0,0.0
0.0,0.0,0.0,0.0
32.253,1.285,0.252,0.0
27.878,1.103,0.059,0.0
24.669,0.968,-0.085,1.0
21.909,0.853,-0.198,1.0
0.0,0.0,0.0,0.0
37.85,1.446,0.485,0.0
31.543,1.195,0.228,0.0
27.507,1.034,0.042,0.0
24.486,0.912,-0.099,1.0
21.641,0.8,-0.208,1.0
47.312,1.727,0.845,2.0
36.901,1.335,0.453,0.0
30.937,1.11,0.207,0.0
27.178,0.966,0.027,0.0
24.336,0.857,-0.111,1.0
21.463,0.75,-0.218,1.0
48.367,1.668,0.838,0.0
35.544,1.215,0.417,0.0
30.847,1.044,0.19,0.0
26.815,0.899,0.013,1.0
24.215,0.805,-0.123,0.0
21.086,0.694,-0.224,0.0
0.0,0.0,0.0,0.0
34.818,1.119,0.392,0.0
28.962,0.922,0.164,3.0
26.609,0.838,0.0,0.0
23.424,0.731,-0.13,0.0
20.804,0.642,-0.231,0.0
45.911,1.397,0.752,0.0
34.803,1.048,0.376,1.0
28.972,0.863,0.151,4.0
26.506,0.781,-0.011,0.0
23.455,0.683,-0.14,1.0
20.342,0.586,-0.235,0.0
46.19,1.311,0.737,0.0
34.995,0.981,0.363,0.0
28.934,0.802,0.139,5.0
26.248,0.719,-0.021,0.0
23.452,0.634,-0.149,1.0
20.154,0.538,-0.241,0.0
0.0,0.0,0.0,0.0
34.146,0.886,0.341,0.0
28.919,0.741,0.128,5.0
26.011,0.658,-0.031,0.0
23.246,0.58,-0.157,0.0
20.021,0.493,-0.246,0.0
0.0,0.0,0.0,0.0
33.676,0.803,0.325,0.0
28.846,0.678,0.118,4.0
25.888,0.6,-0.039,0.0
22.984,0.525,-0.163,0.0
19.933,0.449,-0.252,0.0
0.0,0.0,0.0,0.0
33.43,0.727,0.312,0.0
28.847,0.617,0.109,5.0
25.757,0.543,-0.047,0.0
22.779,0.472,-0.168,0.0
19.763,0.403,-0.255,0.0
0.0,0.0,0.0,0.0
32.986,0.648,0.299,0.0
28.752,0.555,0.101,1.0
25.598,0.485,-0.053,0.0
22.656,0.421,-0.173,0.0
19.856,0.363,-0.261,0.0
0.0,0.0,0.0,0.0
32.789,0.575,0.29,0.0
28.739,0.494,0.095,1.0
25.504,0.429,-0.059,0.0
22.422,0.369,-0.176,0.0
19.629,0.317,-0.262,0.0
38.427,0.605,0.544,0.0
32.316,0.497,0.279,0.0
28.791,0.433,0.089,3.0
25.464,0.374,-0.064,0.0
22.428,0.322,-0.18,0.0
19.381,0.271,-0.262,0.0
0.0,0.0,0.0,0.0
32.534,0.431,0.275,0.0
28.776,0.371,0.085,3.0
25.403,0.319,-0.067,0.0
22.091,0.27,-0.18,0.0
19.039,0.225,-0.26,0.0
37.978,0.435,0.526,0.0
32.429,0.36,0.27,0.0
28.716,0.309,0.081,3.0
25.254,0.262,-0.07,0.0
22.161,0.223,-0.183,2.0
19.163,0.186,-0.264,0.0
0.0,0.0,0.0,0.0
32.556,0.292,0.269,0.0
28.713,0.247,0.079,3.0
25.241,0.208,-0.072,0.0
22.268,0.176,-0.186,3.0
19.184,0.144,-0.266,0.0
37.279,0.266,0.511,0.0
32.168,0.219,0.264,0.0
28.542,0.184,0.077,1.0
25.271,0.154,-0.073,0.0
22.24,0.128,-0.186,2.0
19.409,0.104,-0.269,0.0
37.516,0.189,0.514,0.0
32.105,0.15,0.263,0.0
28.611,0.123,0.077,1.0
25.3,0.1,-0.073,0.0
22.112,0.08,-0.185,1.0
19.164,0.062,-0.266,0.0
37.192,0.108,0.51,0.0
32.283,0.082,0.265,0.0
28.627,0.062,0.078,2.0
25.28,0.046,-0.072,0.0
22.042,0.032,-0.183,0.0
19.242,0.021,-0.266,0.0
38.027,0.029,0.523,0.0
33.169,0.013,0.275,0.0
28.607,0.001,0.08,1.0
25.401,-0.007,-0.07,0.0
22.131,-0.014,-0.182,0.0
19.307,-0.019,-0.265,0.0
0.0,0.0,0.0,0.0
33.074,-0.056,0.277,0.0
28.711,-0.059,0.083,6.0
25.358,-0.061,-0.067,0.0
22.224,-0.062,-0.181,0.0
19.314,-0.061,-0.263,0.0
0.0,0.0,0.0,0.0
32.758,-0.126,0.279,1.0
28.705,-0.121,0.087,5.0
25.355,-0.116,-0.063,0.0
22.237,-0.11,-0.177,0.0
19.42,-0.103,-0.261,0.0
38.181,-0.215,0.541,0.0
32.455,-0.195,0.282,1.0
28.721,-0.183,0.092,6.0
25.498,-0.171,-0.059,0.0
22.431,-0.158,-0.174,0.0
19.495,-0.145,-0.258,0.0
38.245,-0.297,0.549,0.0
32.582,-0.264,0.29,1.0
28.736,-0.243,0.099,6.0
25.594,-0.226,-0.053,0.0
22.667,-0.209,-0.171,0.0
19.661,-0.188,-0.256,0.0
38.614,-0.382,0.564,0.0
32.679,-0.335,0.299,1.0
28.676,-0.304,0.106,1.0
25.826,-0.283,-0.047,0.0
22.984,-0.26,-0.167,1.0
19.876,-0.232,-0.253,0.0
0.0,0.0,0.0,0.0
33.326,-0.412,0.314,1.0
28.689,-0.366,0.114,0.0
25.908,-0.34,-0.04,0.0
23.22,-0.313,-0.162,1.0
19.918,-0.275,-0.247,0.0
0.0,0.0,0.0,0.0
33.828,-0.491,0.33,1.0
28.753,-0.428,0.124,0.0
26.091,-0.398,-0.031,0.0
23.527,-0.367,-0.156,0.0
20.057,-0.32,-0.242,0.0
0.0,0.0,0.0,0.0
33.749,-0.562,0.342,2.0
28.781,-0.489,0.135,0.0
26.292,-0.456,-0.021,0.0
23.479,-0.416,-0.147,0.0
20.345,-0.368,-0.237,0.0
0.0,0.0,0.0,0.0
33.997,-0.637,0.358,2.0
28.786,-0.55,0.146,3.0
26.54,-0.516,-0.011,0.0
23.818,-0.472,-0.139,0.0
20.611,-0.416,-0.232,0.0
0.0,0.0,0.0,0.0
34.441,-0.717,0.377,1.0
28.778,-0.609,0.159,1.0
26.746,-0.576,0.0,0.0
23.762,-0.52,-0.128,0.0
21.064,-0.468,-0.227,0.0
0.0,0.0,0.0,0.0
34.758,-0.795,0.397,0.0
28.847,-0.671,0.173,0.0
27.246,-0.643,0.013,0.0
23.906,-0.573,-0.117,0.0
21.854,-0.532,-0.225,0.0
0.0,0.0,0.0,0.0
36.187,-0.903,0.431,0.0
31.093,-0.787,0.202,0.0
27.595,-0.708,0.028,0.0
24.344,-0.634,-0.106,0.0
21.219,-0.56,-0.207,0.0
0.0,0.0,0.0,0.0
0.0,0.0,0.0,0.0
31.443,-0.86,0.222,0.0
27.93,-0.774,0.043,0.0
0.0,0.0,0.0,0.0
21.481,-0.61,-0.198,0.0
0.0,0.0,0.0,0.0
0.0,0.0,0.0,0.0
31.534,-0.927,0.241,0.0
28.299,-0.842,0.06,1.0
25.427,-0.765,-0.082,0.0
22.263,-0.678,-0.192,0.0
0.0,0.0,0.0,0.0
37.644,-1.169,0.514,0.0
32.032,-1.006,0.264,0.0
28.538,-0.906,0.079,1.0
25.622,-0.823,-0.067,0.0
22.406,-0.727,-0.179,0.0
0.0,0.0,0.0,0.0
0.0,0.0,0.0,0.0
32.232,-1.076,0.287,0.0
28.581,-0.964,0.097,2.0
25.931,-0.884,-0.05,0.0
22.617,-0.779,-0.166,0.0
0.0,0.0,0.0,0.0
39.279,-1.376,0.588,0.0
33.821,-1.196,0.324,0.0
28.631,-1.023,0.117,6.0
26.29,-0.948,-0.033,0.0
22.984,-0.837,-0.152,0.0
0.0,0.0,0.0,0.0
40.642,-1.503,0.637,0.0
33.912,-1.265,0.349,0.0
28.669,-1.079,0.138,4.0
26.68,-1.014,-0.014,0.0
23.33,-0.894,-0.137,0.0
0.0,0.0,0.0,0.0
0.0,0.0,0.0,0.0
35.251,-1.384,0.389,0.0
28.714,-1.137,0.16,0.0
27.047,-1.08,0.006,0.0
23.758,-0.957,-0.122,0.0
0.0,0.0,0.0,0.0
0.0,0.0,0.0,0.0
36.21,-1.491,0.428,0.0
30.852,-1.28,0.196,0.0
28.097,-1.176,0.028,0.0
23.984,-1.012,-0.104,0.0
0.0,0.0,0.0,0.0
0.0,0.0,0.0,0.0
36.951,-1.591,0.466,0.0
31.451,-1.365,0.225,0.0
28.481,-1.245,0.052,2.0
25.633,-1.129,-0.09,0.0
0.0,0.0,0.0,0.0
0.0,0.0,0.0,0.0
38.153,-1.714,0.514,0.0
31.928,-1.445,0.256,0.0
28.496,-1.299,0.076,2.0
25.898,-1.19,-0.068,0.0
0.0,0.0,0.0,0.0
0.0,0.0,0.0,0.0
0.0,0.0,0.0,0.0
32.837,-1.547,0.292,0.0
28.535,-1.354,0.101,5.0
26.072,-1.246,-0.046,0.0
0.0,0.0,0.0,0.0
0.0,0.0,0.0,0.0
0.0,0.0,0.0,0.0
34.387,-1.683,0.337,0.0
28.549,-1.406,0.128,0.0
27.171,-1.347,-0.023,0.0
0.0,0.0,0.0,0.0
0.0,0.0,0.0,0.0
0.0,0.0,0.0,0.0
35.598,-1.805,0.382,0.0
0.0,0.0,0.0,0.0
27.621,-1.418,0.002,1.0
34.473,-1.776,0.959,0.0
34.482,-1.787,0.775,0.0
34.682,-1.809,0.594,1.0
34.847,-1.829,0.408,0.0
31.14,-1.644,0.198,0.0
28.178,-1.496,0.029,2.0
34.18,-1.821,0.984,3.0
34.226,-1.834,0.803,1.0
34.318,-1.85,0.622,1.0
34.649,-1.878,0.44,0.0
0.0,0.0,0.0,0.0
28.475,-1.562,0.058,7.0
34.191,-1.881,1.019,162.0
34.11,-1.886,0.835,2.0
34.203,-1.902,0.655,0.0
34.659,-1.938,0.475,0.0
0.0,0.0,0.0,0.0
28.531,-1.613,0.088,9.0
34.133,-1.935,1.052,154.0
34.063,-1.941,0.868,3.0
34.049,-1.951,0.687,0.0
34.628,-1.994,0.511,1.0
34.47,-1.995,0.325,0.0
28.609,-1.665,0.118,4.0
34.069,-1.988,1.086,21.0
34.002,-1.994,0.903,5.0
0.0,0.0,0.0,0.0
34.539,-2.045,0.547,7.0
35.092,-2.089,0.369,0.0
30.571,-1.829,0.159,2.0
33.981,-2.038,1.12,3.0
33.985,-2.048,0.94,8.0
33.93,-2.054,0.758,0.0
34.145,-2.078,0.578,2.0
35.789,-2.188,0.416,0.0
31.591,-1.941,0.199,2.0
33.947,-2.091,1.157,7.0
33.956,-2.101,0.977,53.0
33.928,-2.108,0.796,0.0
33.971,-2.121,0.613,1.0
37.26,-2.337,0.475,0.0
31.952,-2.013,0.238,3.0
33.949,-2.144,1.196,5.0
33.952,-2.154,1.016,151.0
33.919,-2.161,0.834,5.0
33.919,-2.171,0.651,0.0
34.573,-2.222,0.48,2.0
32.957,-2.127,0.283,2.0
33.955,-2.197,1.235,4.0
33.927,-2.204,1.054,150.0
33.907,-2.212,0.874,15.0
33.907,-2.221,0.69,0.0
34.499,-2.269,0.52,3.0
33.929,-2.241,0.332,1.0
33.919,-2.245,1.274,9.0
33.886,-2.252,1.093,39.0
33.902,-2.262,0.913,28.0
33.827,-2.266,0.729,0.0
34.126,-2.295,0.555,1.0
34.599,-2.336,0.379,0.0
33.897,-2.293,1.313,29.0
33.869,-2.3,1.133,34.0
33.887,-2.31,0.954,49.0
33.844,-2.316,0.77,0.0
33.946,-2.331,0.593,1.0
35.534,-2.45,0.433,0.0
33.895,-2.342,1.355,20.0
33.859,-2.348,1.174,10.0
33.893,-2.359,0.996,66.0
33.892,-2.367,0.813,150.0
33.867,-2.374,0.633,62.0
34.456,-2.424,0.462,1.0
33.943,-2.392,1.399,1.0
33.893,-2.397,1.217,5.0
33.869,-2.404,1.037,68.0
33.857,-2.411,0.855,54.0
33.87,-2.42,0.676,155.0
34.392,-2.466,0.504,4.0
34.189,-2.456,1.452,0.0
33.88,-2.442,1.259,24.0
33.847,-2.448,1.079,81.0
33.827,-2.454,0.896,45.0
33.867,-2.465,0.718,154.0
34.127,-2.492,0.544,4.0
34.289,-2.509,1.5,0.0
33.856,-2.485,1.302,55.0
33.851,-2.493,1.123,63.0
33.841,-2.499,0.941,85.0
33.854,-2.508,0.762,167.0
33.949,-2.524,0.585,3.0
0.0,0.0,0.0,0.0
33.832,-2.526,1.345,31.0
33.827,-2.534,1.166,15.0
33.836,-2.542,0.985,123.0
33.877,-2.553,0.807,153.0
33.843,-2.558,0.628,87.0
0.0,0.0,0.0,0.0
33.9,-2.574,1.393,1.0
33.854,-2.578,1.212,6.0
33.822,-2.582,1.029,107.0
33.815,-2.589,0.85,48.0
33.84,-2.598,0.672,153.0
34.928,-2.687,1.666,0.0
34.144,-2.634,1.448,0.0
33.826,-2.616,1.256,32.0
33.816,-2.622,1.073,117.0
33.83,-2.63,0.895,61.0
33.842,-2.638,0.717,152.0
34.922,-2.727,1.712,0.0
0.0,0.0,0.0,0.0
33.828,-2.654,1.301,79.0
33.813,-2.66,1.119,76.0
33.815,-2.667,0.94,132.0
33.845,-2.677,0.763,154.0
0.0,0.0,0.0,0.0
0.0,0.0,0.0,0.0
33.811,-2.691,1.347,27.0
33.798,-2.696,1.164,12.0
33.821,-2.705,0.987,150.0
33.837,-2.713,0.809,150.0
200.296,-16.087,10.37,57.0
0.0,0.0,0.0,0.0
33.929,-2.737,1.397,0.0
33.812,-2.733,1.211,9.0
33.806,-2.739,1.032,137.0
33.794,-2.745,0.854,36.0
200.175,-16.288,10.636,22.0
34.824,-2.839,1.667,0.0
0.0,0.0,0.0,0.0
33.796,-2.767,1.257,58.0
33.799,-2.773,1.079,150.0
33.811,-2.781,0.902,150.0
200.224,-16.495,10.923,34.0
0.0,0.0,0.0,0.0
0.0,0.0,0.0,0.0
33.808,-2.802,1.305,83.0
33.804,-2.807,1.127,63.0
33.814,-2.813,0.949,150.0
209.322,-17.448,11.71,10.0
152.022,-12.694,7.702,14.0
0.0,0.0,0.0,0.0
33.798,-2.833,1.352,13.0
33.809,-2.838,1.174,9.0
33.798,-2.843,0.996,133.0
151.934,-12.804,8.713,9.0
151.989,-12.83,7.914,150.0
0.0,0.0,0.0,0.0
33.98,-2.878,1.406,0.0
33.794,-2.867,1.221,19.0
33.784,-2.871,1.042,122.0
209.251,-17.819,12.295,5.0
151.975,-12.96,8.126,150.0
34.745,-2.968,1.674,0.0
0.0,0.0,0.0,0.0
33.805,-2.897,1.269,72.0
33.793,-2.9,1.09,92.0
209.088,-17.979,12.58,14.0
151.969,-13.087,8.34,115.0
35.043,-3.022,1.738,0.0
0.0,0.0,0.0,0.0
33.79,-2.923,1.316,51.0
33.777,-2.926,1.138,25.0
185.379,-16.088,11.419,20.0
185.425,-16.114,10.442,60.0
185.456,-16.137,9.464,32.0
34.394,-2.997,1.57,0.0
33.884,-2.956,1.368,2.0
33.811,-2.954,1.187,7.0
148.678,-13.015,9.371,9.0
199.175,-17.457,11.503,29.0
199.212,-17.483,10.451,37.0
34.567,-3.037,1.627,0.0
34.104,-3.0,1.425,0.0
33.802,-2.977,1.235,25.0
150.313,-13.264,9.688,13.0
209.457,-18.504,12.391,7.0
209.219,-18.504,11.27,73.0
34.698,-3.072,1.682,0.0
34.115,-3.024,1.474,0.0
33.8,-2.999,1.282,52.0
147.31,-13.097,9.704,10.0
209.082,-18.608,12.666,7.0
209.177,-18.634,11.568,150.0
0.0,0.0,0.0,0.0
0.0,0.0,0.0,0.0
33.822,-3.023,1.331,17.0
146.872,-13.149,9.886,10.0
149.134,-13.364,9.249,7.0
209.137,-18.758,11.866,139.0
169.927,-15.254,8.726,9.0
0.0,0.0,0.0,0.0
34.044,-3.062,1.388,0.0
62.766,-5.655,4.314,7.0
149.197,-13.454,9.467,9.0
186.46,-16.828,10.843,73.0
186.653,-16.86,9.85,16.0
34.641,-3.131,1.645,0.0
34.225,-3.096,1.445,0.0
145.706,-13.208,10.224,6.0
148.732,-13.49,9.65,15.0
150.445,-13.655,8.965,20.0
162.227,-14.736,8.794,10.0
35.021,-3.183,1.713,0.0
0.0,0.0,0.0,0.0
147.118,-13.408,10.535,5.0
0.0,0.0,0.0,0.0
149.507,-13.642,9.122,16.0
186.28,-17.006,10.363,45.0
0.0,0.0,0.0,0.0
0.0,0.0,0.0,0.0
146.341,-13.404,10.69,4.0
209.427,-19.189,14.189,9.0
149.511,-13.706,9.337,12.0
150.421,-13.797,8.582,22.0
169.467,-15.551,8.772,15.0
34.692,-3.185,1.612,0.0
146.152,-13.445,10.884,10.0
145.808,-13.417,10.085,10.0
151.378,-13.935,9.667,8.0
150.261,-13.838,8.785,21.0
169.284,-15.596,9.001,6.0
34.801,-3.207,1.666,0.0
145.87,-13.471,11.071,11.0
147.168,-13.594,10.388,5.0
151.497,-13.997,9.89,9.0
149.578,-13.824,8.957,29.0
150.288,-13.895,8.203,19.0
0.0,0.0,0.0,0.0
145.482,-13.481,11.248,14.0
146.277,-13.557,10.531,11.0
0.0,0.0,0.0,0.0
149.593,-13.869,9.168,13.0
150.311,-13.938,8.416,24.0
0.0,0.0,0.0,0.0
145.624,-13.534,11.463,15.0
143.676,-13.353,10.545,10.0
209.32,-19.455,14.249,7.0
189.817,-17.645,11.895,5.0
149.835,-13.928,8.597,21.0
150.291,-13.974,7.826,11.0
145.827,-13.586,11.682,12.0
143.737,-13.39,10.75,13.0
147.15,-13.707,10.224,6.0
189.846,-17.684,12.162,12.0
149.558,-13.932,8.788,26.0
150.221,-13.994,8.03,17.0
146.162,-13.643,11.911,8.0
145.512,-13.579,11.083,6.0
153.416,-14.315,10.869,12.0
151.459,-14.131,9.91,17.0
149.462,-13.945,8.985,12.0
150.052,-13.998,8.226,17.0
0.0,0.0,0.0,0.0
145.455,-13.594,11.278,19.0
146.182,-13.658,10.556,4.0
151.468,-14.149,10.117,12.0
170.329,-15.909,10.47,6.0
149.764,-13.985,8.412,20.0
145.096,-13.577,12.223,5.0
145.546,-13.614,11.484,13.0
143.733,-13.44,10.575,9.0
147.154,-13.756,10.027,5.0
194.691,-18.195,12.231,7.0
149.581,-13.976,8.601,28.0
0.0,0.0,0.0,0.0
145.865,-13.65,11.702,12.0
143.699,-13.442,10.762,11.0
147.225,-13.765,10.228,6.0
185.237,-17.314,11.881,12.0
149.558,-13.975,8.798,27.0
146.683,-13.734,12.749,3.0
146.281,-13.689,11.93,3.0
145.507,-13.61,11.09,5.0
153.419,-14.342,10.859,11.0
151.578,-14.163,9.921,17.0
149.553,-13.968,8.993,11.0
146.685,-13.729,12.942,9.0
147.481,-13.795,12.222,3.0
145.459,-13.596,11.276,17.0
146.051,-13.644,10.526,8.0
151.508,-14.147,10.11,9.0
170.384,-15.901,10.462,6.0
0.0,0.0,0.0,0.0
145.044,-13.555,12.205,8.0
145.528,-13.589,11.468,16.0
143.736,-13.413,10.544,9.0
147.118,-13.72,10.005,2.0
194.459,-18.125,12.189,6.0
147.832,-13.807,13.425,4.0
144.963,-13.528,12.387,4.0
145.808,-13.596,11.676,13.0
143.696,-13.389,10.724,10.0
153.51,-14.292,10.636,5.0
151.502,-14.095,9.688,9.0
146.926,-13.699,13.528,9.0
0.0,0.0,0.0,0.0
145.997,-13.587,11.875,8.0
145.549,-13.534,11.044,5.0
153.553,-14.266,10.83,5.0
151.551,-14.069,9.879,11.0
148.212,-13.788,13.833,5.0
146.746,-13.639,12.906,13.0
147.306,-13.676,12.165,5.0
145.498,-13.496,11.219,13.0
146.264,-13.554,10.495,9.0
0.0,0.0,0.0,0.0
146.958,-13.62,13.103,9.0
145.042,-13.428,12.153,11.0
145.117,-13.421,11.365,13.0
146.302,-13.518,10.672,4.0
145.883,-13.465,9.86,3.0
145.624,-13.47,13.945,12.0
145.506,-13.443,13.149,3.0
145.012,-13.381,12.323,9.0
144.627,-13.331,11.499,13.0
146.15,-13.457,10.834,10.0
145.691,-13.4,10.019,5.0
145.456,-13.408,14.1,16.0
147.332,-13.563,13.486,13.0
145.292,-13.358,12.516,3.0
144.713,-13.289,11.671,11.0
146.014,-13.392,10.991,14.0
145.851,-13.362,10.196,8.0
145.476,-13.357,14.269,11.0
146.59,-13.439,13.587,4.0
152.828,-13.993,13.339,3.0
144.835,-13.244,11.846,9.0
145.774,-13.313,11.139,9.0
145.781,-13.296,10.356,2.0
146.219,-13.366,14.509,13.0
146.392,-13.362,13.734,11.0
145.62,-13.272,12.874,6.0
146.645,-13.346,12.158,15.0
144.741,-13.155,11.221,13.0
146.128,-13.263,10.542,13.0
146.242,-13.301,14.676,16.0
146.509,-13.305,13.908,5.0
145.315,-13.177,13.007,18.0
146.585,-13.271,12.315,11.0
144.714,-13.084,11.375,19.0
145.242,-13.113,10.633,11.0
145.812,-13.191,14.792,15.0
146.662,-13.247,14.081,13.0
145.173,-13.092,13.15,13.0
147.245,-13.258,12.526,11.0
144.506,-12.991,11.512,18.0
144.912,-13.007,10.763,13.0
145.842,-13.119,14.948,15.0
146.6,-13.164,14.229,16.0
146.82,-13.161,13.454,3.0
147.209,-13.174,12.675,5.0
144.521,-12.911,11.663,21.0
145.049,-12.938,10.922,12.0
145.701,-13.025,15.084,23.0
146.348,-13.058,14.355,14.0
146.717,-13.066,13.595,9.0
151.76,-13.493,13.222,3.0
144.315,-12.808,11.791,24.0
145.126,-12.858,11.072,14.0
145.45,-12.914,15.206,22.0
146.163,-12.953,14.483,16.0
146.805,-12.985,13.748,5.0
145.718,-12.866,12.838,12.0
144.332,-12.72,11.933,13.0
144.945,-12.751,11.199,14.0
145.315,-12.811,15.333,16.0
146.076,-12.852,14.616,16.0
145.878,-12.81,13.8,12.0
145.716,-12.769,12.978,19.0
144.667,-12.653,12.098,19.0
145.002,-12.66,11.339,13.0
145.413,-12.722,15.48,13.0
145.733,-12.723,14.718,15.0
145.783,-12.702,13.926,13.0
145.729,-12.672,13.112,10.0
145.268,-12.606,12.28,6.0
145.094,-12.567,11.476,17.0
146.041,-12.675,15.679,12.0
145.721,-12.62,14.847,11.0
145.436,-12.568,14.023,19.0
146.783,-12.657,13.337,4.0
146.279,-12.589,12.493,4.0
145.008,-12.455,11.594,12.0
146.325,-12.593,15.837,8.0
145.824,-12.522,14.983,12.0
145.459,-12.462,14.149,18.0
146.923,-12.56,13.474,5.0
146.187,-12.47,12.609,9.0
145.227,-12.361,11.735,4.0
148.568,-12.672,16.206,10.0
145.722,-12.399,15.096,19.0
145.543,-12.356,14.278,16.0
144.913,-12.274,13.409,18.0
145.278,-12.276,12.65,9.0
154.152,-12.997,12.581,5.0
148.403,-12.538,16.309,14.0
0.0,0.0,0.0,0.0
145.375,-12.222,14.379,20.0
145.001,-12.163,13.531,12.0
145.339,-12.164,12.766,16.0
146.198,-12.206,12.044,12.0
148.264,-12.403,16.408,10.0
147.679,-12.323,15.53,11.0
145.561,-12.116,14.507,12.0
144.961,-12.036,13.637,13.0
145.609,-12.062,12.898,12.0
146.367,-12.094,12.166,9.0
148.252,-12.274,16.517,21.0
147.408,-12.173,15.609,15.0
146.495,-12.066,14.706,14.0
144.776,-11.895,13.722,16.0
145.278,-11.906,12.972,16.0
146.216,-11.953,12.255,10.0
148.4,-12.155,16.638,17.0
147.245,-12.026,15.696,10.0
146.53,-11.937,14.81,15.0
144.662,-11.754,13.81,12.0
145.266,-11.772,13.069,18.0
146.086,-11.808,12.341,9.0
151.615,-12.277,17.101,5.0
146.645,-11.842,15.728,11.0
0.0,0.0,0.0,0.0
144.586,-11.612,13.896,5.0
145.093,-11.623,13.145,11.0
146.016,-11.666,12.426,10.0
148.675,-11.898,16.862,18.0
146.564,-11.697,15.81,10.0
148.063,-11.782,15.153,4.0
145.873,-11.575,14.108,12.0
145.276,-11.495,13.25,4.0
145.876,-11.511,12.502,12.0
148.644,-11.749,16.948,10.0
148.805,-11.726,16.14,13.0
146.791,-11.533,15.11,5.0
145.767,-11.42,14.182,20.0
146.416,-11.438,13.437,6.0
145.847,-11.362,12.581,13.0
151.349,-11.81,17.341,9.0
148.667,-11.567,16.206,16.0
147.891,-11.47,15.302,9.0
145.725,-11.268,14.255,19.0
118.775,-9.158,10.961,2.0
119.019,-9.151,10.327,11.0
151.288,-11.647,17.413,12.0
151.292,-11.613,16.57,5.0
148.439,-11.358,15.432,14.0
145.731,-11.117,14.327,20.0
147.562,-11.221,13.691,8.0
119.083,-9.029,10.39,12.0
0.0,0.0,0.0,0.0
148.586,-11.247,16.343,5.0
148.052,-11.171,15.46,14.0
145.862,-10.972,14.405,12.0
147.429,-11.055,13.743,4.0
119.053,-8.899,10.439,19.0
148.737,-11.096,16.424,10.0
148.248,-11.025,15.543,13.0
146.148,-10.833,14.495,12.0
146.219,-10.804,13.689,14.0
119.007,-8.765,10.482,11.0
148.322,-10.9,16.436,17.0
148.749,-10.895,15.652,3.0
146.147,-10.669,14.549,14.0
146.783,-10.682,13.795,17.0
119.232,-8.65,10.543,15.0
0.0,0.0,0.0,0.0
148.698,-10.76,16.529,15.0
148.762,-10.728,15.704,11.0
146.172,-10.505,14.6,14.0
118.343,-8.476,11.161,7.0
119.188,-8.509,10.577,11.0
90.083,-6.438,10.546,1.0
89.85,-6.398,10.014,5.0
148.464,-10.534,15.717,14.0
89.968,-6.362,9.012,17.0
146.577,-10.329,13.864,13.0
116.836,-8.205,10.401,8.0
89.636,-6.301,10.518,6.0
89.761,-6.286,10.029,9.0
148.343,-10.353,15.742,14.0
90.258,-6.277,9.063,12.0
114.302,-7.92,10.839,6.0
117.105,-8.086,10.452,10.0
89.737,-6.202,10.55,22.0
89.871,-6.188,10.06,15.0
147.696,-10.13,15.705,6.0
90.464,-6.183,9.102,10.0
90.529,-6.165,8.602,6.0
117.13,-7.947,10.476,20.0
89.441,-6.073,10.532,18.0
90.013,-6.088,10.092,31.0
151.019,-10.176,16.083,5.0
90.54,-6.077,9.124,14.0
114.36,-7.648,10.885,5.0
93.007,-6.198,8.331,3.0
89.658,-5.979,10.57,29.0
90.106,-5.983,10.115,6.0
113.422,-7.503,12.093,10.0
90.615,-5.971,9.143,22.0
113.261,-7.435,10.792,15.0
92.943,-6.079,8.336,9.0
89.311,-5.844,10.538,23.0
90.306,-5.885,10.145,23.0
97.014,-6.297,10.352,8.0
90.828,-5.873,9.171,20.0
91.1,-5.867,8.686,5.0
88.005,-5.646,7.897,8.0
89.556,-5.747,10.572,22.0
89.924,-5.747,10.106,19.0
90.728,-5.774,9.684,7.0
90.91,-5.764,9.181,26.0
91.003,-5.747,8.679,27.0
87.839,-5.526,7.884,16.0
89.735,-5.645,10.594,26.0
89.865,-5.63,10.1,31.0
90.658,-5.656,9.676,24.0
90.907,-5.648,9.18,15.0
91.02,-5.632,8.679,15.0
87.795,-5.412,7.877,19.0
89.714,-5.53,10.588,25.0
90.152,-5.533,10.128,17.0
90.726,-5.545,9.678,24.0
90.877,-5.531,9.171,5.0
93.367,-5.659,8.896,12.0
88.318,-5.331,7.918,26.0
89.144,-5.38,10.514,23.0
91.054,-5.472,10.221,9.0
90.801,-5.433,9.678,15.0
87.211,-5.196,8.793,18.0
93.933,-5.572,8.94,17.0
88.563,-5.233,7.929,27.0
88.983,-5.255,10.483,28.0
90.855,-5.341,10.187,11.0
90.866,-5.319,9.672,8.0
86.928,-5.066,8.751,29.0
87.274,-5.064,8.293,12.0
