X,Y,Z,Reflectivity
58.185,3.641,4.573,30.0
58.247,3.658,4.257,42.0
58.522,3.689,3.949,24.0
58.661,3.712,3.636,6.0
80.874,5.136,4.567,28.0
57.947,3.705,4.905,13.0
58.175,3.733,4.603,9.0
58.352,3.757,4.294,26.0
80.815,5.222,5.494,33.0
80.744,5.236,5.044,40.0
80.822,5.26,4.604,10.0
66.896,4.385,5.695,8.0
58.06,3.818,4.622,23.0
58.545,3.863,4.336,11.0
60.654,4.016,4.151,15.0
80.573,5.353,5.07,11.0
78.085,5.205,4.483,26.0
58.169,3.905,4.978,10.0
58.341,3.929,4.67,32.0
64.844,4.382,4.83,10.0
60.579,4.107,4.171,18.0
78.273,5.323,4.957,35.0
77.896,5.316,4.503,31.0
60.732,4.173,5.222,2.0
58.524,4.034,4.707,32.0
61.608,4.259,4.613,14.0
61.04,4.234,4.226,29.0
60.877,4.236,3.878,15.0
61.65,4.303,3.586,17.0
58.798,4.133,5.076,16.0
58.563,4.128,4.73,14.0
61.467,4.346,4.623,17.0
60.827,4.314,4.231,27.0
60.906,4.333,3.899,22.0
61.557,4.393,3.6,21.0
58.766,4.223,5.092,26.0
58.119,4.188,4.712,16.0
61.353,4.433,4.633,27.0
60.689,4.398,4.239,25.0
60.233,4.378,3.873,21.0
61.565,4.489,3.617,17.0
51.881,3.808,4.509,17.0
58.061,4.273,4.722,26.0
61.073,4.508,4.627,33.0
60.66,4.49,4.252,27.0
60.525,4.493,3.906,35.0
60.684,4.518,3.579,20.0
51.915,3.891,4.524,10.0
61.507,4.622,5.016,22.0
60.681,4.572,4.61,35.0
60.665,4.583,4.264,27.0
60.197,4.56,3.897,33.0
60.878,4.625,3.602,35.0
51.912,3.97,4.533,6.0
61.243,4.695,5.005,25.0
60.519,4.651,4.608,35.0
59.931,4.618,4.222,34.0
59.815,4.622,3.881,33.0
60.746,4.706,3.603,22.0
51.865,4.045,4.536,20.0
60.967,4.766,4.991,26.0
59.952,4.698,4.572,28.0
59.437,4.669,4.194,28.0
59.672,4.7,3.878,33.0
60.494,4.777,3.594,10.0
61.474,4.886,5.382,15.0
51.949,4.139,4.257,23.0
60.126,4.801,4.591,33.0
59.247,4.743,4.185,31.0
59.774,4.797,3.889,33.0
59.994,4.826,3.569,31.0
59.843,4.845,5.243,35.0
51.944,4.215,4.259,46.0
60.002,4.88,4.584,17.0
59.498,4.85,4.205,34.0
59.804,4.886,3.893,33.0
59.443,4.868,3.537,10.0
59.77,4.925,5.238,28.0
51.932,4.289,4.258,20.0
51.899,4.296,3.964,23.0
51.919,4.307,3.67,20.0
51.939,4.318,3.38,26.0
51.995,4.333,3.093,38.0
59.915,5.025,5.249,35.0
51.758,4.349,4.243,14.0
51.851,4.367,3.958,27.0
51.878,4.378,3.664,32.0
51.912,4.39,3.375,41.0
51.958,4.404,3.087,56.0
59.37,5.063,5.197,21.0
51.729,4.421,4.236,38.0
51.803,4.436,3.951,20.0
51.857,4.45,3.658,43.0
51.903,4.463,3.37,53.0
51.982,4.48,3.083,48.0
51.653,4.479,4.516,14.0
43.222,3.755,3.535,11.0
43.057,3.748,3.278,25.0
51.867,4.524,3.652,45.0
51.93,4.538,3.365,43.0
52.04,4.558,3.08,35.0
43.617,3.843,3.806,15.0
43.199,3.813,3.526,19.0
43.041,3.806,3.27,31.0
51.891,4.598,3.645,23.0
52.015,4.618,3.361,15.0
59.004,5.249,3.481,33.0
43.636,3.905,3.8,15.0
51.815,4.645,4.219,11.0
43.092,3.87,3.265,22.0
51.984,4.677,3.641,15.0
59.257,5.342,3.816,29.0
58.665,5.298,3.448,28.0
52.927,4.808,4.597,11.0
51.822,4.716,4.208,23.0
59.496,5.424,4.494,17.0
59.022,5.39,4.119,34.0
59.147,5.411,3.794,31.0
58.21,5.335,3.406,30.0
43.463,4.006,3.763,33.0
51.847,4.787,4.196,43.0
59.374,5.49,4.468,31.0
58.818,5.448,4.088,31.0
59.274,5.499,3.785,28.0
58.158,5.405,3.386,25.0
59.225,5.536,5.11,12.0
51.831,4.852,4.178,42.0
58.954,5.527,4.418,33.0
58.809,5.523,4.069,31.0
58.921,5.543,3.744,29.0
58.184,5.482,3.368,28.0
43.638,4.135,3.75,37.0
51.901,4.925,4.166,29.0
58.826,5.59,4.388,33.0
58.754,5.592,4.044,33.0
58.789,5.604,3.714,32.0
58.204,5.558,3.348,25.0
43.609,4.187,3.73,33.0
59.304,5.702,4.736,8.0
58.83,5.665,4.365,31.0
58.552,5.646,4.007,28.0
58.519,5.651,3.673,32.0
58.163,5.626,3.321,24.0
51.945,5.052,4.422,12.0
59.329,5.777,4.714,20.0
58.618,5.716,4.324,27.0
58.546,5.717,3.98,33.0
58.347,5.705,3.637,26.0
58.017,5.681,3.287,25.0
43.397,4.272,3.674,10.0
59.297,5.845,4.684,21.0
58.761,5.799,4.307,33.0
58.548,5.786,3.953,33.0
58.265,5.766,3.604,29.0
57.917,5.74,3.254,29.0
43.308,4.314,3.645,27.0
59.345,5.919,4.657,20.0
58.753,5.868,4.277,33.0
58.328,5.832,3.909,32.0
58.252,5.832,3.573,30.0
58.057,5.821,3.232,31.0
43.124,4.346,3.607,22.0
58.49,5.901,4.559,32.0
58.923,5.951,4.257,24.0
58.009,5.866,3.855,32.0
58.12,5.884,3.533,31.0
58.053,5.886,3.199,28.0
43.063,4.387,3.578,28.0
58.682,5.985,4.541,33.0
58.891,6.013,4.221,25.0
57.887,5.917,3.814,32.0
57.746,5.91,3.476,28.0
58.03,5.946,3.164,30.0
43.021,4.429,3.548,27.0
58.734,6.053,4.51,33.0
58.631,6.049,4.167,32.0
57.777,5.967,3.771,29.0
57.802,5.977,3.444,31.0
58.042,6.009,3.128,25.0
43.053,4.478,3.524,28.0
58.765,6.118,4.474,33.0
58.657,6.113,4.131,33.0
57.766,6.026,3.734,26.0
58.091,6.066,3.424,30.0
58.076,6.071,3.092,27.0
43.033,4.519,3.494,36.0
58.841,6.185,4.441,13.0
58.477,6.152,4.08,32.0
57.728,6.079,3.692,32.0
58.182,6.133,3.39,26.0
58.595,6.183,3.081,27.0
54.163,5.741,4.361,12.0
59.095,6.268,4.419,11.0
58.077,6.166,4.011,32.0
57.704,6.132,3.65,31.0
58.101,6.18,3.344,28.0
58.663,6.246,3.042,24.0
53.4,5.711,4.26,27.0
58.975,6.312,4.367,15.0
57.981,6.211,3.961,32.0
57.75,6.191,3.611,30.0
58.1,6.234,3.301,31.0
58.64,6.298,2.997,30.0
53.166,5.734,4.201,24.0
58.911,6.358,4.318,26.0
57.991,6.264,3.918,28.0
57.868,6.255,3.573,26.0
58.034,6.278,3.253,31.0
58.308,6.314,2.935,33.0
53.243,5.789,4.165,27.0
54.258,5.903,3.934,13.0
57.634,6.275,3.848,27.0
57.824,6.3,3.525,12.0
57.96,6.32,3.202,31.0
58.238,6.355,2.885,32.0
53.232,5.832,4.121,26.0
54.232,5.945,3.887,5.0
57.56,6.314,3.797,8.0
57.827,6.348,3.477,8.0
58.042,6.376,3.159,31.0
58.396,6.42,2.844,33.0
53.125,5.863,4.068,26.0
58.245,6.432,4.126,9.0
54.197,5.988,3.529,26.0
55.474,6.132,3.289,13.0
57.918,6.407,3.102,31.0
58.574,6.485,2.803,33.0
53.092,5.9,4.019,26.0
57.899,6.437,4.051,19.0
54.025,6.01,3.469,27.0
57.464,6.396,3.356,8.0
57.952,6.454,3.053,28.0
58.096,6.475,2.729,32.0
53.03,5.931,3.967,25.0
57.667,6.452,3.983,20.0
54.022,6.048,3.421,27.0
57.422,6.432,3.301,30.0
57.947,6.494,3.0,29.0
58.12,6.518,2.677,32.0
53.083,5.973,3.922,25.0
57.44,6.466,3.914,5.0
54.339,6.12,3.391,28.0
57.457,6.474,3.251,32.0
57.921,6.53,2.945,20.0
58.81,6.634,2.654,33.0
52.949,5.992,3.862,22.0
54.003,6.114,3.628,28.0
0.0,0.0,0.0,0.0
57.767,6.545,3.213,32.0
57.948,6.569,2.891,9.0
59.073,6.7,2.609,22.0
53.117,6.044,3.822,28.0
53.97,6.142,3.574,28.0
46.458,5.289,2.809,15.0
57.863,6.59,3.161,32.0
55.591,6.334,2.719,10.0
59.14,6.742,2.554,19.0
46.532,5.321,3.302,6.0
53.975,6.173,3.519,5.0
46.437,5.312,2.762,36.0
57.82,6.617,3.101,16.0
55.602,6.366,2.663,10.0
59.153,6.775,2.495,14.0
46.515,5.343,3.254,14.0
46.473,5.339,2.983,18.0
46.425,5.335,2.714,22.0
46.471,5.341,2.445,15.0
46.511,5.348,2.181,4.0
59.13,6.801,2.434,18.0
46.482,5.361,3.204,17.0
46.42,5.355,2.932,36.0
46.408,5.354,2.664,26.0
46.464,5.362,2.396,20.0
46.494,5.367,2.132,18.0
46.446,5.363,1.863,17.0
46.448,5.377,3.152,25.0
46.396,5.372,2.882,34.0
46.409,5.374,2.616,34.0
46.454,5.381,2.346,36.0
46.45,5.381,2.08,35.0
46.442,5.382,1.813,35.0
46.426,5.393,3.101,42.0
46.397,5.39,2.831,45.0
46.393,5.39,2.564,34.0
46.424,5.394,2.295,43.0
46.424,5.395,2.029,48.0
46.406,5.395,1.761,31.0
46.412,5.408,3.048,52.0
46.375,5.403,2.779,52.0
46.389,5.405,2.513,37.0
46.416,5.409,2.243,45.0
46.404,5.409,1.976,47.0
46.385,5.407,1.71,37.0
46.398,5.42,2.995,52.0
46.376,5.417,2.727,56.0
46.394,5.42,2.462,46.0
46.398,5.42,2.191,50.0
46.395,5.421,1.924,41.0
46.372,5.419,1.657,39.0
46.397,5.432,2.943,54.0
46.372,5.429,2.675,57.0
46.406,5.432,2.41,53.0
46.39,5.431,2.138,46.0
46.388,5.431,1.871,38.0
46.356,5.428,1.604,42.0
46.377,5.44,2.889,53.0
46.38,5.44,2.622,54.0
46.408,5.442,2.357,53.0
46.383,5.439,2.084,44.0
46.365,5.437,1.817,31.0
46.355,5.436,1.551,40.0
46.376,5.447,2.836,48.0
46.37,5.446,2.568,45.0
46.397,5.448,2.303,51.0
46.383,5.446,2.032,48.0
46.351,5.442,1.764,32.0
46.363,5.444,1.499,41.0
46.372,5.453,2.782,40.0
46.368,5.451,2.515,44.0
46.399,5.454,2.25,49.0
46.375,5.45,1.977,48.0
46.345,5.446,1.71,41.0
46.355,5.447,1.445,40.0
46.375,5.457,2.728,49.0
46.381,5.456,2.461,49.0
46.393,5.456,2.195,48.0
46.377,5.454,1.923,44.0
46.353,5.45,1.656,45.0
46.356,5.45,1.39,38.0
46.374,5.458,2.673,53.0
46.39,5.458,2.407,51.0
46.382,5.456,2.141,46.0
46.369,5.453,1.868,35.0
46.35,5.45,1.601,46.0
46.335,5.448,1.336,35.0
46.38,5.458,2.619,50.0
46.398,5.459,2.352,52.0
46.395,5.457,2.085,46.0
46.345,5.449,1.812,33.0
46.355,5.449,1.546,44.0
46.339,5.447,1.28,33.0
46.378,5.456,2.562,41.0
46.408,5.457,2.297,52.0
46.39,5.453,2.029,49.0
46.342,5.446,1.756,35.0
46.354,5.446,1.491,42.0
46.34,5.443,1.224,31.0
46.384,5.452,2.507,48.0
46.399,5.451,2.24,49.0
46.392,5.448,1.973,46.0
46.355,5.442,1.7,38.0
46.352,5.44,1.434,39.0
46.351,5.438,1.169,26.0
46.401,5.447,2.451,52.0
46.397,5.444,2.183,47.0
46.395,5.441,1.917,41.0
46.354,5.434,1.645,42.0
46.35,5.432,1.378,37.0
46.324,5.427,1.112,24.0
46.411,5.439,2.395,55.0
46.404,5.435,2.127,46.0
46.386,5.43,1.86,35.0
46.357,5.425,1.588,40.0
46.357,5.423,1.322,32.0
46.277,5.411,1.055,14.0
46.419,5.428,2.339,56.0
46.403,5.424,2.071,48.0
46.375,5.418,1.803,34.0
46.372,5.414,1.532,38.0
46.36,5.411,1.266,30.0
46.074,5.375,0.994,9.0
46.423,5.416,2.282,49.0
46.413,5.411,2.015,49.0
46.392,5.406,1.747,33.0
46.373,5.401,1.475,36.0
46.375,5.398,1.21,24.0
45.77,5.326,0.931,9.0
46.441,5.402,2.226,41.0
46.429,5.397,1.958,45.0
46.403,5.391,1.691,24.0
46.395,5.387,1.419,31.0
46.366,5.381,1.152,18.0
45.572,5.286,0.872,8.0
46.454,5.387,2.17,26.0
46.441,5.381,1.902,39.0
46.421,5.375,1.634,25.0
46.384,5.367,1.362,29.0
46.345,5.36,1.095,14.0
45.122,5.216,0.807,3.0
46.501,5.372,2.114,15.0
59.1,6.822,2.348,11.0
46.443,5.357,1.578,36.0
46.405,5.349,1.306,30.0
46.201,5.322,1.035,10.0
44.394,5.111,0.74,4.0
59.523,6.848,2.633,22.0
59.19,6.805,2.279,13.0
46.481,5.339,1.523,18.0
46.419,5.328,1.249,25.0
45.934,5.269,0.973,9.0
44.408,5.091,0.686,5.0
59.143,6.774,2.544,11.0
59.621,6.823,2.222,8.0
59.426,6.795,1.874,13.0
46.444,5.306,1.193,16.0
45.686,5.216,0.912,11.0
44.301,5.055,0.63,3.0
59.089,6.735,2.47,9.0
63.812,7.267,2.301,9.0
59.534,6.774,1.805,15.0
46.444,5.28,1.137,12.0
45.511,5.17,0.853,9.0
43.547,4.943,0.567,3.0
59.297,6.723,2.407,19.0
59.825,6.776,2.085,19.0
60.727,6.872,1.768,25.0
46.398,5.246,1.08,8.0
44.84,5.065,0.787,4.0
41.52,4.687,0.491,0.0
59.629,6.722,2.348,35.0
59.438,6.693,2.0,23.0
60.462,6.802,1.688,35.0
46.189,5.191,1.019,9.0
44.555,5.003,0.729,4.0
37.751,4.236,0.401,0.0
59.584,6.675,2.275,32.0
59.403,6.648,1.928,17.0
59.824,6.688,1.598,20.0
45.917,5.128,0.959,10.0
44.578,4.974,0.676,4.0
37.827,4.217,0.357,0.0
59.109,6.578,2.186,23.0
59.388,6.602,1.857,20.0
46.523,5.166,1.188,4.0
45.67,5.067,0.9,12.0
44.529,4.935,0.623,3.0
0.0,0.0,0.0,0.0
63.609,7.03,2.278,7.0
59.401,6.557,1.787,18.0
46.482,5.125,1.132,4.0
45.337,4.993,0.84,11.0
42.005,4.622,0.538,0.0
32.872,3.613,0.233,0.0
59.195,6.493,2.05,19.0
59.871,6.559,1.73,19.0
46.374,5.074,1.075,3.0
44.947,4.912,0.78,6.0
41.978,4.583,0.489,0.0
31.867,3.475,0.189,0.0
59.214,6.443,1.981,18.0
60.015,6.521,1.665,31.0
46.301,5.025,1.019,7.0
44.789,4.855,0.725,4.0
38.493,4.168,0.404,0.0
29.435,3.184,0.14,1.0
59.12,6.379,1.91,25.0
59.791,6.442,1.59,15.0
46.132,4.964,0.963,9.0
44.829,4.818,0.675,4.0
35.569,3.818,0.332,0.0
29.296,3.141,0.106,1.0
59.352,6.347,1.85,30.0
59.199,6.322,1.506,1.0
45.754,4.879,0.903,14.0
44.904,4.782,0.625,3.0
35.358,3.76,0.29,0.0
29.115,3.093,0.073,1.0
59.639,6.318,1.791,30.0
51.629,5.461,1.256,2.0
45.462,4.802,0.846,11.0
45.028,4.75,0.576,0.0
32.388,3.411,0.23,0.0
28.038,2.949,0.039,0.0
59.838,6.276,1.731,16.0
51.528,5.396,1.196,10.0
45.255,4.732,0.792,14.0
39.1,4.082,0.457,0.0
31.916,3.328,0.191,0.0
27.127,2.824,0.008,0.0
59.77,6.204,1.663,25.0
0.0,0.0,0.0,0.0
45.247,4.681,0.742,6.0
39.273,4.057,0.416,0.0
31.28,3.227,0.153,0.0
26.155,2.694,-0.02,1.0
59.664,6.126,1.595,32.0
46.532,4.769,0.979,3.0
45.443,4.65,0.697,4.0
35.45,3.622,0.338,0.0
29.246,2.984,0.112,0.0
25.878,2.636,-0.047,1.0
59.926,6.083,1.54,2.0
46.394,4.702,0.927,4.0
45.673,4.621,0.653,3.0
34.565,3.491,0.293,0.0
29.126,2.937,0.081,1.0
25.143,2.531,-0.072,0.0
52.808,5.297,1.302,1.0
46.239,4.63,0.876,5.0
45.968,4.595,0.61,2.0
32.784,3.271,0.245,0.0
28.577,2.847,0.051,0.0
24.572,2.444,-0.095,0.0
51.648,5.117,1.221,6.0
46.283,4.577,0.83,8.0
41.313,4.077,0.506,0.0
31.988,3.152,0.206,0.0
27.298,2.685,0.021,0.0
23.995,2.356,-0.117,0.0
51.482,5.034,1.164,6.0
46.412,4.53,0.786,4.0
0.0,0.0,0.0,0.0
29.309,2.849,0.16,1.0
26.381,2.56,-0.005,1.0
23.52,2.278,-0.138,0.0
51.307,4.949,1.11,3.0
46.646,4.49,0.744,5.0
36.269,3.484,0.372,1.0
29.301,2.809,0.131,4.0
25.959,2.484,-0.03,1.0
22.604,2.159,-0.155,0.0
48.627,4.624,1.006,2.0
46.934,4.454,0.704,3.0
35.012,3.315,0.326,0.0
29.227,2.762,0.103,6.0
25.636,2.418,-0.054,1.0
22.274,2.097,-0.173,3.0
47.67,4.467,0.941,3.0
47.153,4.409,0.663,1.0
34.514,3.22,0.289,0.0
29.095,2.709,0.076,3.0
24.943,2.318,-0.075,0.0
21.913,2.032,-0.19,4.0
47.529,4.387,0.896,3.0
40.942,3.77,0.539,0.0
34.023,3.126,0.255,0.0
27.885,2.556,0.048,0.0
24.563,2.247,-0.096,0.0
21.705,1.981,-0.208,3.0
47.749,4.337,0.857,4.0
40.819,3.699,0.502,1.0
32.306,2.921,0.214,0.0
26.992,2.435,0.023,0.0
23.866,2.148,-0.114,0.0
21.428,1.924,-0.223,1.0
48.224,4.309,0.825,8.0
0.0,0.0,0.0,0.0
31.368,2.789,0.181,0.0
26.348,2.337,0.0,1.0
23.361,2.067,-0.131,0.0
21.013,1.855,-0.237,0.0
48.456,4.256,0.788,23.0
37.29,3.266,0.396,0.0
30.75,2.687,0.152,0.0
26.162,2.28,-0.02,1.0
22.949,1.995,-0.147,1.0
20.36,1.766,-0.246,0.0
48.654,4.196,0.752,2.0
35.89,3.088,0.352,0.0
29.747,2.552,0.124,1.0
25.663,2.196,-0.04,0.0
22.681,1.936,-0.163,2.0
19.984,1.702,-0.257,0.0
0.0,0.0,0.0,0.0
34.765,2.936,0.314,0.0
29.261,2.464,0.099,1.0
25.27,2.123,-0.058,0.0
22.42,1.878,-0.178,2.0
19.549,1.633,-0.266,0.0
47.273,3.927,0.659,1.0
33.829,2.802,0.281,0.0
28.541,2.357,0.076,0.0
24.627,2.028,-0.075,0.0
22.122,1.817,-0.192,1.0
19.302,1.581,-0.277,0.0
0.0,0.0,0.0,0.0
32.743,2.658,0.248,0.0
27.621,2.235,0.054,1.0
24.223,1.954,-0.091,1.0
21.66,1.743,-0.203,0.0
19.151,1.537,-0.288,0.0
0.0,0.0,0.0,0.0
31.495,2.504,0.217,0.0
27.238,2.159,0.034,1.0
24.138,1.907,-0.107,3.0
21.456,1.69,-0.216,0.0
18.795,1.476,-0.295,0.0
36.896,2.879,0.438,0.0
30.948,2.407,0.193,0.0
26.901,2.086,0.017,0.0
23.948,1.851,-0.122,2.0
21.165,1.631,-0.226,0.0
18.435,1.416,-0.301,0.0
36.973,2.821,0.416,0.0
30.277,2.303,0.17,1.0
26.476,2.007,0.0,0.0
23.76,1.795,-0.135,1.0
20.806,1.567,-0.235,0.0
18.265,1.371,-0.309,0.0
35.771,2.666,0.381,0.0
30.031,2.231,0.151,0.0
26.183,1.938,-0.015,0.0
23.458,1.73,-0.147,0.0
20.432,1.502,-0.243,0.0
18.056,1.323,-0.316,0.0
35.723,2.599,0.36,0.0
29.328,2.126,0.131,1.0
25.917,1.872,-0.029,0.0
23.048,1.659,-0.157,0.0
20.209,1.449,-0.251,0.0
17.803,1.272,-0.321,0.0
0.0,0.0,0.0,0.0
28.86,2.04,0.114,1.0
25.614,1.804,-0.042,0.0
22.683,1.591,-0.166,0.0
19.871,1.389,-0.257,0.0
17.679,1.231,-0.328,0.0
33.8,2.336,0.306,0.0
28.765,1.98,0.099,1.0
25.377,1.741,-0.054,0.0
22.384,1.529,-0.175,0.0
19.452,1.323,-0.261,0.0
17.386,1.178,-0.33,0.0
33.48,2.252,0.287,0.0
28.48,1.908,0.085,1.0
25.152,1.678,-0.065,0.0
22.177,1.473,-0.183,0.0
19.42,1.285,-0.269,0.0
17.307,1.14,-0.336,0.0
32.707,2.139,0.266,0.0
28.128,1.832,0.072,0.0
24.901,1.614,-0.074,0.0
22.006,1.421,-0.191,0.0
19.218,1.236,-0.274,0.0
17.165,1.099,-0.34,0.0
32.417,2.059,0.251,0.0
28.023,1.772,0.061,0.0
24.772,1.559,-0.084,0.0
21.771,1.364,-0.197,0.0
18.946,1.182,-0.277,0.0
17.04,1.058,-0.344,0.0
31.825,1.96,0.235,0.0
27.599,1.692,0.05,0.0
24.628,1.503,-0.092,0.0
21.562,1.309,-0.203,2.0
18.869,1.14,-0.282,0.0
16.934,1.019,-0.348,0.0
31.263,1.865,0.221,0.0
27.508,1.633,0.041,0.0
24.463,1.445,-0.099,0.0
21.556,1.267,-0.209,3.0
18.733,1.096,-0.286,0.0
16.866,0.982,-0.351,0.0
30.91,1.784,0.209,0.0
27.151,1.559,0.033,0.0
24.341,1.39,-0.105,0.0
21.507,1.222,-0.215,3.0
18.53,1.048,-0.288,0.0
16.864,0.949,-0.356,0.0
30.844,1.72,0.201,1.0
27.149,1.505,0.026,0.0
24.269,1.338,-0.111,0.0
21.424,1.175,-0.219,4.0
18.37,1.002,-0.29,0.0
16.776,0.91,-0.358,0.0
30.641,1.648,0.193,1.0
26.95,1.441,0.02,0.0
24.041,1.278,-0.115,0.0
21.361,1.129,-0.223,1.0
18.369,0.965,-0.293,0.0
16.712,0.874,-0.359,0.0
30.585,1.584,0.187,1.0
26.933,1.386,0.015,0.0
24.172,1.236,-0.119,0.0
21.275,1.082,-0.225,2.0
18.317,0.926,-0.295,0.0
16.686,0.838,-0.361,0.0
30.383,1.511,0.181,0.0
26.767,1.323,0.011,0.0
23.815,1.17,-0.121,0.0
21.213,1.035,-0.227,0.0
18.244,0.885,-0.296,0.0
16.661,0.803,-0.363,0.0
30.123,1.437,0.176,0.0
26.738,1.267,0.008,0.0
23.369,1.1,-0.121,0.0
21.014,0.983,-0.227,0.0
18.239,0.847,-0.298,0.0
16.646,0.768,-0.364,0.0
30.127,1.376,0.174,0.0
26.774,1.214,0.006,0.0
23.494,1.058,-0.123,1.0
21.182,0.947,-0.23,1.0
18.246,0.81,-0.299,0.0
16.609,0.732,-0.364,0.0
30.548,1.333,0.175,0.0
26.794,1.16,0.006,0.0
23.548,1.012,-0.124,1.0
21.066,0.899,-0.229,0.0
18.158,0.769,-0.297,0.0
16.645,0.7,-0.364,0.0
28.866,1.2,0.165,0.0
26.756,1.104,0.006,0.0
23.756,0.972,-0.125,1.0
20.99,0.852,-0.228,0.0
18.147,0.731,-0.297,0.0
16.641,0.665,-0.364,0.0
29.114,1.15,0.168,0.0
26.696,1.046,0.007,1.0
23.885,0.928,-0.124,1.0
21.069,0.811,-0.227,1.0
18.199,0.695,-0.296,0.0
16.58,0.628,-0.361,0.0
29.039,1.087,0.17,0.0
26.452,0.981,0.009,1.0
24.078,0.886,-0.123,0.0
21.112,0.77,-0.226,0.0
18.273,0.66,-0.296,0.0
16.684,0.598,-0.362,0.0
30.824,1.09,0.184,0.0
26.882,0.942,0.013,0.0
24.232,0.841,-0.12,1.0
21.305,0.733,-0.225,1.0
18.395,0.627,-0.295,0.0
16.683,0.563,-0.359,0.0
29.048,0.967,0.178,0.0
26.926,0.888,0.017,0.0
24.198,0.79,-0.116,0.0
21.263,0.687,-0.221,0.0
18.421,0.589,-0.292,0.0
16.73,0.53,-0.357,0.0
29.007,0.905,0.183,1.0
27.049,0.835,0.023,0.0
24.09,0.736,-0.111,0.0
21.496,0.65,-0.219,0.0
18.503,0.553,-0.289,0.0
16.732,0.495,-0.353,0.0
29.067,0.847,0.19,0.0
27.224,0.784,0.029,0.0
24.26,0.691,-0.106,0.0
21.528,0.606,-0.214,0.0
18.561,0.516,-0.285,0.0
16.779,0.461,-0.35,0.0
31.338,0.847,0.213,0.0
27.335,0.73,0.037,0.0
24.152,0.637,-0.098,0.0
21.655,0.564,-0.208,0.0
18.89,0.485,-0.285,0.0
16.897,0.428,-0.347,0.0
31.445,0.784,0.224,0.0
27.523,0.677,0.046,0.0
24.746,0.6,-0.093,0.0
21.778,0.521,-0.203,0.0
18.846,0.444,-0.278,0.0
16.954,0.394,-0.342,0.0
31.609,0.722,0.236,0.0
28.162,0.634,0.057,0.0
24.967,0.553,-0.085,0.0
22.007,0.48,-0.197,0.0
19.066,0.41,-0.274,0.0
17.07,0.361,-0.338,0.0
31.986,0.663,0.251,0.0
28.342,0.578,0.068,0.0
25.145,0.505,-0.075,0.0
22.198,0.438,-0.189,0.0
19.456,0.377,-0.272,0.0
17.166,0.327,-0.333,0.0
32.274,0.602,0.267,0.0
28.621,0.524,0.081,0.0
25.477,0.458,-0.065,0.0
22.346,0.394,-0.181,0.0
19.697,0.341,-0.266,0.0
17.343,0.294,-0.328,0.0
32.574,0.54,0.284,0.0
28.829,0.468,0.095,3.0
25.634,0.407,-0.053,0.0
22.877,0.356,-0.174,0.0
19.806,0.301,-0.258,0.0
17.362,0.258,-0.32,0.0
33.887,0.491,0.313,0.0
28.838,0.408,0.11,5.0
25.928,0.358,-0.041,0.0
23.091,0.311,-0.164,0.0
20.149,0.264,-0.252,0.0
17.694,0.226,-0.317,0.0
33.801,0.419,0.33,0.0
28.88,0.348,0.126,6.0
26.187,0.307,-0.027,0.0
23.419,0.267,-0.153,0.0
20.458,0.226,-0.244,0.0
17.893,0.192,-0.31,0.0
34.074,0.353,0.352,0.0
28.873,0.289,0.142,4.0
26.591,0.257,-0.012,0.0
23.592,0.22,-0.14,0.0
20.796,0.187,-0.236,0.0
18.089,0.156,-0.303,0.0
34.507,0.286,0.378,0.0
28.937,0.23,0.16,1.0
26.973,0.205,0.004,0.0
23.898,0.174,-0.127,0.0
21.064,0.146,-0.226,1.0
18.425,0.122,-0.297,0.0
35.755,0.223,0.414,0.0
30.923,0.183,0.191,0.0
27.395,0.153,0.022,0.0
24.328,0.127,-0.113,0.0
21.294,0.104,-0.214,4.0
18.585,0.085,-0.287,0.0
0.0,0.0,0.0,0.0
0.0,0.0,0.0,0.0
27.862,0.099,0.041,0.0
24.67,0.079,-0.098,0.0
21.619,0.062,-0.202,3.0
18.889,0.047,-0.278,0.0
0.0,0.0,0.0,0.0
31.609,0.058,0.24,0.0
28.486,0.043,0.063,1.0
25.279,0.029,-0.081,0.0
21.959,0.018,-0.189,0.0
19.272,0.009,-0.269,0.0
37.511,0.006,0.515,0.0
33.014,-0.005,0.276,0.0
28.653,-0.014,0.085,2.0
25.607,-0.021,-0.063,0.0
22.568,-0.026,-0.176,0.0
19.688,-0.029,-0.259,0.0
0.0,0.0,0.0,0.0
33.16,-0.071,0.303,1.0
28.8,-0.071,0.109,7.0
25.993,-0.073,-0.043,0.0
23.151,-0.073,-0.162,0.0
20.188,-0.07,-0.249,0.0
92.591,-3.035,3.031,10.0
0.0,0.0,0.0,0.0
0.0,0.0,0.0,0.0
0.0,0.0,0.0,0.0
35.981,-1.219,0.416,0.0
31.151,-1.064,0.196,0.0
92.123,-3.167,3.139,28.0
0.0,0.0,0.0,0.0
0.0,0.0,0.0,0.0
0.0,0.0,0.0,0.0
0.0,0.0,0.0,0.0
31.975,-1.142,0.244,0.0
92.14,-3.311,3.263,86.0
0.0,0.0,0.0,0.0
0.0,0.0,0.0,0.0
0.0,0.0,0.0,0.0
39.133,-1.448,0.558,0.0
32.713,-1.219,0.295,0.0
92.148,-3.453,3.389,47.0
93.072,-3.512,2.934,1.0
0.0,0.0,0.0,0.0
0.0,0.0,0.0,0.0
0.0,0.0,0.0,0.0
34.535,-1.339,0.359,0.0
92.175,-3.593,3.519,41.0
92.306,-3.622,3.039,6.0
0.0,0.0,0.0,0.0
0.0,0.0,0.0,0.0
0.0,0.0,0.0,0.0
36.175,-1.456,0.427,0.0
92.231,-3.732,3.653,12.0
92.157,-3.751,3.165,150.0
0.0,0.0,0.0,0.0
0.0,0.0,0.0,0.0
0.0,0.0,0.0,0.0
38.634,-1.611,0.512,0.0
92.493,-3.876,3.797,8.0
92.225,-3.887,3.302,186.0
0.0,0.0,0.0,0.0
0.0,0.0,0.0,0.0
0.0,0.0,0.0,0.0
0.0,0.0,0.0,0.0
0.0,0.0,0.0,0.0
92.385,-4.023,3.442,8.0
92.506,-4.05,2.961,2.0
0.0,0.0,0.0,0.0
0.0,0.0,0.0,0.0
0.0,0.0,0.0,0.0
0.0,0.0,0.0,0.0
93.25,-4.187,3.612,5.0
0.0,0.0,0.0,0.0
0.0,0.0,0.0,0.0
0.0,0.0,0.0,0.0
0.0,0.0,0.0,0.0
164.379,-7.564,7.474,7.0
94.483,-4.368,3.8,1.0
94.581,-4.393,3.308,1.0
0.0,0.0,0.0,0.0
0.0,0.0,0.0,0.0
0.0,0.0,0.0,0.0
194.556,-9.205,9.139,8.0
0.0,0.0,0.0,0.0
96.11,-4.588,3.507,1.0
0.0,0.0,0.0,0.0
0.0,0.0,0.0,0.0
0.0,0.0,0.0,0.0
194.537,-9.451,9.437,6.0
0.0,0.0,0.0,0.0
0.0,0.0,0.0,0.0
0.0,0.0,0.0,0.0
0.0,0.0,0.0,0.0
0.0,0.0,0.0,0.0
189.323,-9.428,9.473,12.0
0.0,0.0,0.0,0.0
0.0,0.0,0.0,0.0
109.409,-5.514,3.745,152.0
0.0,0.0,0.0,0.0
0.0,0.0,0.0,0.0
122.814,-6.264,6.338,4.0
189.001,-9.677,8.765,11.0
0.0,0.0,0.0,0.0
109.37,-5.641,3.916,159.0
34.471,-1.785,1.054,1.0
34.382,-1.787,0.871,0.0
119.532,-6.234,6.356,12.0
0.0,0.0,0.0,0.0
0.0,0.0,0.0,0.0
109.317,-5.762,4.085,17.0
34.211,-1.809,1.1,1.0
34.194,-1.815,0.92,1.0
122.775,-6.54,6.723,11.0
189.168,-10.11,9.367,21.0
0.0,0.0,0.0,0.0
0.0,0.0,0.0,0.0
34.167,-1.844,1.152,1.0
34.205,-1.852,0.975,150.0
119.556,-6.498,6.737,9.0
122.56,-6.681,6.265,9.0
0.0,0.0,0.0,0.0
0.0,0.0,0.0,0.0
34.181,-1.88,1.207,1.0
34.148,-1.884,1.028,180.0
92.634,-5.13,5.368,8.0
122.902,-6.826,6.479,19.0
188.86,-10.52,8.967,17.0
0.0,0.0,0.0,0.0
34.174,-1.914,1.261,1.0
34.15,-1.918,1.082,156.0
92.748,-5.228,5.523,8.0
122.577,-6.928,6.657,8.0
188.729,-10.696,9.262,21.0
0.0,0.0,0.0,0.0
34.11,-1.943,1.314,1.0
34.087,-1.947,1.135,6.0
92.685,-5.314,5.67,7.0
92.51,-5.317,5.175,12.0
122.952,-7.085,6.235,14.0
0.0,0.0,0.0,0.0
34.431,-1.994,1.382,0.0
34.03,-1.976,1.188,3.0
89.651,-5.222,5.63,9.0
120.61,-7.042,6.942,11.0
122.966,-7.197,6.435,3.0
188.348,-11.047,8.852,4.0
34.646,-2.037,1.447,0.0
34.074,-2.007,1.245,2.0
89.703,-5.303,5.779,6.0
111.961,-6.633,6.626,10.0
92.554,-5.496,4.993,5.0
188.697,-11.228,9.176,6.0
34.725,-2.07,1.507,0.0
34.023,-2.033,1.298,4.0
88.051,-5.279,5.816,5.0
91.907,-5.521,5.59,10.0
92.857,-5.589,5.161,4.0
122.914,-7.413,6.177,3.0
34.792,-2.102,1.566,0.0
34.086,-2.064,1.357,1.0
122.236,-7.426,8.276,6.0
89.674,-5.457,5.601,8.0
120.907,-7.371,6.918,4.0
187.626,-11.461,9.736,20.0
35.072,-2.146,1.636,0.0
34.347,-2.105,1.423,0.0
118.151,-7.267,8.195,10.0
89.548,-5.517,5.741,7.0
89.709,-5.535,5.281,9.0
121.058,-7.483,6.481,7.0
0.0,0.0,0.0,0.0
34.456,-2.137,1.485,0.0
88.275,-5.492,6.268,4.0
121.503,-7.571,7.99,7.0
122.11,-7.62,7.389,14.0
188.736,-11.795,10.413,8.0
189.453,-11.858,9.461,4.0
34.599,-2.169,1.547,0.0
88.554,-5.569,6.433,4.0
121.122,-7.627,8.163,9.0
121.941,-7.689,7.579,15.0
120.579,-7.614,6.851,11.0
190.528,-12.046,9.828,5.0
34.83,-2.205,1.614,0.0
88.323,-5.61,6.561,17.0
119.866,-7.621,8.276,16.0
121.803,-7.754,7.771,17.0
89.694,-5.717,5.243,5.0
188.7,-12.044,10.045,15.0
0.0,0.0,0.0,0.0
88.482,-5.672,6.719,31.0
88.357,-5.67,6.245,12.0
121.558,-7.807,7.955,13.0
121.566,-7.817,7.305,13.0
91.771,-5.908,5.034,4.0
0.0,0.0,0.0,0.0
88.818,-5.742,6.892,16.0
88.267,-5.711,6.385,15.0
120.141,-7.781,8.059,18.0
122.061,-7.911,7.535,22.0
92.08,-5.974,5.202,4.0
0.0,0.0,0.0,0.0
117.721,-7.668,9.327,11.0
88.326,-5.758,6.534,16.0
121.119,-7.902,8.322,12.0
121.724,-7.948,7.714,21.0
91.966,-6.009,5.345,14.0
157.078,-10.273,8.308,17.0
117.774,-7.727,9.523,3.0
88.62,-5.817,6.699,19.0
121.952,-8.01,8.578,6.0
121.803,-8.006,7.917,17.0
92.014,-6.052,5.498,3.0
91.9,-6.049,5.01,9.0
119.132,-7.865,9.828,15.0
88.588,-5.851,6.842,12.0
88.405,-5.842,6.362,7.0
121.611,-8.04,8.101,14.0
121.52,-8.039,7.456,11.0
121.208,-8.023,6.801,7.0
119.097,-7.907,10.018,17.0
117.936,-7.833,9.298,13.0
88.344,-5.87,6.5,23.0
121.615,-8.082,8.295,11.0
121.72,-8.093,7.664,18.0
188.885,-12.565,10.903,15.0
0.0,0.0,0.0,0.0
118.884,-7.933,9.565,11.0
88.606,-5.915,6.661,18.0
147.121,-9.823,10.272,7.0
121.915,-8.143,7.872,16.0
121.064,-8.087,7.182,5.0
117.239,-7.857,10.24,19.0
119.093,-7.982,9.772,10.0
88.65,-5.941,6.805,14.0
119.287,-7.996,8.518,9.0
121.75,-8.163,8.054,15.0
121.332,-8.136,7.389,14.0
117.165,-7.88,10.421,23.0
119.142,-8.013,9.966,19.0
88.551,-5.955,6.94,5.0
88.533,-5.953,6.463,7.0
121.615,-8.179,8.237,12.0
121.78,-8.191,7.607,18.0
117.173,-7.906,10.607,17.0
117.078,-7.897,9.979,8.0
118.724,-8.007,9.491,8.0
88.692,-5.981,6.614,18.0
147.263,-9.928,10.204,6.0
121.995,-8.225,7.811,15.0
118.174,-7.992,10.883,16.0
117.209,-7.923,10.173,18.0
118.986,-8.041,9.699,9.0
88.719,-5.994,6.753,12.0
119.403,-8.066,8.46,5.0
121.923,-8.234,7.997,16.0
118.35,-8.018,11.084,7.0
117.151,-7.933,10.35,20.0
119.27,-8.073,9.907,12.0
118.259,-8.001,9.185,10.0
119.531,-8.085,8.652,8.0
121.632,-8.225,8.163,17.0
90.892,-6.164,8.652,14.0
117.099,-7.938,10.525,17.0
119.314,-8.084,10.092,12.0
117.853,-7.98,9.333,14.0
88.749,-6.007,6.558,11.0
121.856,-8.244,8.363,12.0
90.938,-6.171,8.796,28.0
117.199,-7.948,10.713,9.0
117.205,-7.943,10.093,15.0
118.785,-8.045,9.587,4.0
88.772,-6.008,6.694,16.0
122.01,-8.253,8.557,6.0
90.909,-6.169,8.932,21.0
118.468,-8.032,11.009,9.0
117.262,-7.944,10.274,18.0
119.174,-8.068,9.796,7.0
88.651,-5.997,6.818,4.0
119.505,-8.078,8.558,7.0
90.893,-6.163,9.066,17.0
90.876,-6.157,8.579,5.0
117.118,-7.927,10.434,22.0
119.153,-8.058,9.97,14.0
118.188,-7.986,9.264,9.0
88.614,-5.983,6.476,7.0
90.716,-6.144,9.182,12.0
90.968,-6.154,8.722,17.0
117.144,-7.918,10.607,15.0
119.172,-8.047,10.145,3.0
118.952,-8.023,9.495,7.0
88.674,-5.976,6.608,20.0
90.585,-6.124,9.301,25.0
90.903,-6.138,8.847,23.0
118.429,-7.987,10.895,9.0
117.086,-7.887,10.138,18.0
119.068,-8.013,9.675,13.0
88.659,-5.96,6.733,16.0
90.572,-6.107,9.43,14.0
90.929,-6.124,8.981,16.0
118.244,-7.954,11.047,11.0
117.208,-7.873,10.314,21.0
119.16,-7.996,9.85,10.0
88.583,-5.937,6.852,10.0
90.695,-6.097,9.571,2.0
90.918,-6.103,9.107,10.0
118.067,-7.916,11.195,8.0
117.153,-7.844,10.471,19.0
118.954,-7.954,9.997,15.0
118.6,-7.92,9.337,8.0
113.311,-7.59,12.115,3.0
90.686,-6.065,9.209,16.0
90.946,-6.073,8.749,5.0
118.489,-7.901,10.754,6.0
117.169,-7.802,10.009,17.0
118.888,-7.905,9.521,5.0
113.488,-7.569,12.29,10.0
90.677,-6.038,9.333,21.0
91.045,-6.053,8.882,16.0
118.531,-7.867,10.917,14.0
117.163,-7.765,10.164,9.0
119.168,-7.886,9.703,8.0
90.465,-6.004,9.918,6.0
90.746,-6.013,9.46,11.0
91.093,-6.026,9.007,21.0
118.062,-7.796,11.029,19.0
87.995,-5.801,7.75,7.0
119.051,-7.835,9.849,16.0
90.452,-5.971,10.036,7.0
113.359,-7.47,11.966,11.0
90.992,-5.985,9.116,16.0
117.97,-7.745,11.174,11.0
117.787,-7.719,10.525,5.0
89.852,-5.879,7.547,16.0
113.059,-7.419,12.69,7.0
113.546,-7.436,12.131,12.0
90.787,-5.935,9.21,23.0
113.199,-7.386,10.864,13.0
117.009,-7.62,10.602,9.0
89.873,-5.842,7.661,12.0
90.364,-5.891,10.255,14.0
113.533,-7.385,12.272,14.0
90.941,-5.904,9.339,29.0
113.052,-7.326,10.988,12.0
118.961,-7.692,10.924,4.0
88.071,-5.683,7.615,22.0
89.873,-5.817,10.31,17.0
90.554,-5.848,9.898,18.0
91.072,-5.869,9.463,18.0
90.799,-5.839,8.935,17.0
117.916,-7.567,10.97,9.0
88.192,-5.647,7.73,24.0
89.564,-5.752,10.382,30.0
90.414,-5.793,9.991,24.0
91.066,-5.821,9.571,8.0
90.943,-5.801,9.057,24.0
113.592,-7.23,10.699,14.0
88.262,-5.606,7.838,15.0
89.723,-5.714,10.506,29.0
90.428,-5.746,10.097,24.0
97.245,-6.164,10.331,13.0
91.033,-5.756,9.169,13.0
91.1,-5.747,8.684,9.0
94.266,-5.933,8.477,11.0
89.988,-5.679,10.64,24.0
90.302,-5.685,10.186,23.0
97.29,-6.11,10.445,16.0
87.237,-5.464,8.885,12.0
91.02,-5.688,8.777,19.0
94.358,-5.883,8.59,6.0
90.18,-5.637,10.763,24.0
90.096,-5.616,10.262,23.0
97.379,-6.055,10.562,10.0
86.867,-5.388,8.941,12.0
90.846,-5.62,8.859,14.0
91.761,-5.663,8.451,9.0
90.219,-5.582,10.864,19.0
90.144,-5.562,10.363,28.0
90.316,-5.558,9.891,6.0
86.93,-5.335,9.038,16.0
0.0,0.0,0.0,0.0
94.56,-5.773,8.806,7.0
90.394,-5.532,10.98,19.0
90.426,-5.519,10.489,18.0
93.39,-5.683,10.324,6.0
86.878,-5.272,9.122,15.0
87.13,-5.272,8.675,16.0
94.555,-5.707,8.901,5.0
90.362,-5.466,11.067,14.0
90.407,-5.453,10.578,12.0
90.493,-5.442,10.094,6.0
87.13,-5.224,9.235,22.0
87.059,-5.205,8.753,30.0
87.415,-5.211,8.314,15.0
89.708,-5.362,11.075,8.0
90.204,-5.374,10.642,10.0
92.83,-5.514,10.443,8.0
87.032,-5.154,9.307,26.0
87.378,-5.158,8.867,24.0
87.494,-5.15,8.403,23.0
89.332,-5.271,11.112,17.0
90.14,-5.302,10.718,18.0
90.85,-5.326,10.304,15.0
87.012,-5.084,9.384,15.0
87.571,-5.102,8.966,14.0
87.662,-5.091,8.497,25.0
87.851,-5.114,11.008,15.0
90.115,-5.228,10.796,19.0
90.757,-5.248,10.374,20.0
91.289,-5.262,9.925,15.0
87.547,-5.03,9.039,18.0
87.833,-5.03,8.589,25.0
87.879,-5.043,11.087,25.0
89.283,-5.106,10.772,16.0
90.602,-5.165,10.432,17.0
91.296,-5.187,10.001,15.0
87.408,-4.949,9.097,18.0
87.962,-4.964,8.673,20.0
87.924,-4.973,11.165,25.0
89.18,-5.026,10.832,27.0
91.034,-5.112,10.555,8.0
93.208,-5.216,10.285,13.0
87.411,-4.874,9.166,26.0
87.644,-4.87,8.71,16.0
87.949,-4.897,11.237,19.0
89.56,-4.969,10.947,24.0
87.064,-4.812,10.162,16.0
81.683,-4.499,9.075,7.0
87.476,-4.801,9.238,11.0
87.563,-4.788,8.767,17.0
87.841,-4.814,11.288,21.0
86.652,-4.729,10.656,19.0
86.837,-4.722,10.198,28.0
91.414,-4.953,10.222,13.0
91.309,-4.928,9.707,9.0
87.566,-4.709,8.828,17.0
87.468,-4.712,11.302,21.0
86.644,-4.65,10.715,31.0
86.461,-4.621,10.214,16.0
0.0,0.0,0.0,0.0
82.259,-4.363,8.8,10.0
83.986,-4.438,8.523,8.0
87.364,-4.624,11.347,25.0
86.734,-4.572,10.783,27.0
86.428,-4.538,10.265,29.0
89.73,-4.692,10.152,15.0
82.407,-4.292,8.868,13.0
84.068,-4.362,8.583,22.0
87.492,-4.546,11.418,22.0
86.99,-4.502,10.868,20.0
86.719,-4.469,10.352,33.0
89.837,-4.61,10.218,22.0
82.445,-4.214,8.92,19.0
81.882,-4.168,8.407,7.0
87.64,-4.467,11.489,5.0
86.845,-4.408,10.9,29.0
86.905,-4.393,10.424,17.0
85.776,-4.317,9.803,12.0
82.385,-4.128,8.959,26.0
81.925,-4.089,8.456,14.0
89.692,-4.481,11.806,3.0
86.718,-4.313,10.93,32.0
86.0,-4.259,10.36,26.0
85.752,-4.228,9.845,19.0
82.364,-4.043,8.999,24.0
82.043,-4.01,8.509,28.0
87.053,-4.26,11.502,14.0
86.723,-4.224,10.973,26.0
85.994,-4.17,10.401,30.0
85.814,-4.141,9.893,12.0
81.163,-3.9,8.905,20.0
82.117,-3.929,8.554,24.0
86.775,-4.154,11.505,21.0
86.738,-4.133,11.014,21.0
85.824,-4.071,10.418,24.0
89.836,-4.242,10.394,7.0
81.221,-3.817,8.945,31.0
82.378,-3.855,8.615,18.0
86.469,-4.049,11.5,27.0
86.92,-4.049,11.072,23.0
85.631,-3.971,10.428,13.0
81.787,-3.774,9.495,11.0
81.227,-3.731,8.977,32.0
82.58,-3.775,8.666,30.0
86.406,-3.952,11.523,27.0
85.641,-3.897,10.94,11.0
80.39,-3.64,9.818,8.0
81.442,-3.67,9.482,24.0
81.485,-3.654,9.032,34.0
82.4,-3.677,8.675,17.0
86.212,-3.848,11.526,33.0
85.405,-3.792,10.937,20.0
80.449,-3.555,9.85,11.0
81.158,-3.567,9.473,18.0
65.083,-2.847,7.233,7.0
79.721,-3.47,8.414,11.0
86.601,-3.769,11.602,25.0
85.64,-3.708,10.99,13.0
85.846,-3.697,10.533,13.0
81.226,-3.48,9.502,19.0
65.187,-2.778,7.26,20.0
79.921,-3.389,8.454,10.0
86.377,-3.662,11.592,26.0
85.644,-3.611,11.009,14.0
85.516,-3.586,10.511,18.0
77.783,-3.244,9.115,12.0
65.197,-2.704,7.274,23.0
80.236,-3.312,8.503,16.0
86.658,-3.574,11.646,15.0
85.964,-3.526,11.066,10.0
81.524,-3.326,10.034,14.0
77.763,-3.154,9.126,26.0
65.228,-2.631,7.288,26.0
64.284,-2.579,6.822,20.0
87.004,-3.489,11.704,11.0
86.169,-3.435,11.104,15.0
81.304,-3.223,10.017,22.0
77.74,-3.064,9.132,36.0
64.802,-2.54,7.247,39.0
64.601,-2.518,6.862,30.0
86.961,-3.386,11.707,13.0
76.972,-2.979,9.926,16.0
81.237,-3.127,10.015,25.0
77.781,-2.977,9.142,30.0
65.049,-2.475,7.279,17.0
64.517,-2.44,6.857,24.0
87.249,-3.295,11.75,24.0
80.728,-3.03,10.413,14.0
77.308,-2.885,9.534,14.0
77.852,-2.888,9.152,19.0
65.21,-2.405,7.298,20.0
64.698,-2.371,6.876,37.0
81.859,-2.995,11.024,9.0
80.73,-2.936,10.413,15.0
77.434,-2.798,9.548,16.0
77.821,-2.796,9.147,18.0
65.144,-2.327,7.289,21.0
64.615,-2.293,6.865,28.0
79.794,-2.826,10.743,14.0
81.841,-2.88,10.552,9.0
77.566,-2.711,9.56,29.0
81.592,-2.834,9.585,13.0
65.26,-2.253,7.297,18.0
64.886,-2.226,6.889,29.0
79.981,-2.737,10.761,27.0
77.879,-2.647,10.034,13.0
77.41,-2.614,9.533,16.0
65.136,-2.186,7.644,22.0
77.575,-2.585,8.665,11.0
64.717,-2.143,6.862,27.0
80.272,-2.65,10.789,20.0
77.584,-2.544,9.985,25.0
77.119,-2.511,9.485,32.0
65.129,-2.107,7.633,24.0
64.947,-2.087,7.243,9.0
64.939,-2.073,6.874,27.0
80.522,-2.561,10.808,34.0
77.368,-2.444,9.942,23.0
77.101,-2.418,9.467,33.0
65.143,-2.029,7.622,19.0
65.26,-2.019,7.264,19.0
64.999,-1.997,6.867,27.0
80.829,-2.473,10.831,20.0
77.217,-2.346,9.904,20.0
77.135,-2.327,9.453,23.0
65.217,-1.953,7.614,14.0
65.42,-1.945,7.265,36.0
64.962,-1.917,6.846,40.0
80.969,-2.38,10.827,17.0
77.151,-2.251,9.874,14.0
77.482,-2.243,9.473,18.0
77.763,-2.236,9.055,21.0
64.957,-1.854,7.194,22.0
65.005,-1.841,6.83,28.0
80.757,-2.277,10.772,11.0
74.199,-2.076,9.472,10.0
76.285,-2.118,9.301,8.0
75.388,-2.077,8.753,15.0
64.994,-1.778,7.175,35.0
64.733,-1.756,6.778,31.0
76.206,-2.057,10.137,11.0
74.369,-1.991,9.465,18.0
76.397,-2.03,9.286,7.0
75.489,-1.99,8.735,27.0
64.952,-1.699,7.145,32.0
64.579,-1.675,6.736,30.0
64.302,-1.658,8.527,12.0
64.239,-1.643,8.149,13.0
74.105,-1.88,8.975,21.0
75.108,-1.891,8.659,30.0
65.343,-1.631,7.159,33.0
64.506,-1.597,6.7,35.0
64.36,-1.583,8.505,28.0
74.285,-1.812,9.389,24.0
74.246,-1.796,8.957,24.0
65.32,-1.566,7.499,8.0
65.379,-1.554,7.132,27.0
64.448,-1.52,6.662,29.0
64.598,-1.511,8.504,40.0
74.601,-1.73,9.39,25.0
74.362,-1.71,8.932,33.0
65.286,-1.488,7.461,13.0
65.243,-1.474,7.082,20.0
64.658,-1.448,6.649,32.0
64.771,-1.438,8.491,41.0
74.291,-1.634,9.31,28.0
74.833,-1.632,8.947,23.0
65.376,-1.413,7.434,27.0
65.07,-1.393,7.026,30.0
64.565,-1.37,6.602,26.0
64.249,-1.35,8.384,29.0
74.12,-1.543,9.243,29.0
74.829,-1.543,8.9,13.0
65.712,-1.342,7.431,23.0
65.043,-1.316,6.982,38.0
64.769,-1.298,6.582,33.0
64.329,-1.276,8.353,27.0
63.885,-1.255,7.925,12.0
74.405,-1.447,8.801,14.0
65.314,-1.257,7.343,41.0
65.423,-1.247,6.979,34.0
64.623,-1.219,6.523,23.0
64.318,-1.2,8.306,20.0
58.724,-1.085,7.244,33.0
63.302,-1.156,7.443,10.0
65.296,-1.181,7.294,15.0
58.895,-1.054,6.241,13.0
64.512,-1.143,6.466,26.0
64.505,-1.128,8.283,28.0
58.895,-1.019,7.221,20.0
63.271,-1.083,7.392,15.0
65.155,-1.103,7.23,16.0
58.846,-0.985,6.191,26.0
64.448,-1.068,6.41,28.0
64.245,-1.049,8.2,14.0
58.619,-0.947,7.142,17.0
63.331,-1.011,7.349,27.0
65.218,-1.03,7.184,32.0
58.897,-0.919,6.149,26.0
64.346,-0.993,6.348,9.0
58.459,-0.888,7.413,23.0
59.693,-0.896,7.223,34.0
63.525,-0.942,7.319,28.0
58.898,-0.863,6.439,16.0
59.169,-0.856,6.127,32.0
64.126,-0.917,6.271,11.0
58.411,-0.821,7.356,29.0
0.0,0.0,0.0,0.0
57.072,-0.782,6.525,13.0
58.875,-0.797,6.385,18.0
58.944,-0.788,6.052,31.0
58.507,-0.772,5.67,23.0
58.545,-0.758,7.32,27.0
59.994,-0.766,7.152,28.0
57.175,-0.72,6.484,18.0
64.983,-0.808,6.986,16.0
59.165,-0.725,6.019,32.0
58.578,-0.709,5.622,25.0
58.619,-0.694,7.273,33.0
60.038,-0.701,7.1,34.0
57.216,-0.658,6.434,21.0
64.743,-0.734,6.898,9.0
59.024,-0.66,5.948,20.0
58.593,-0.645,5.566,25.0
58.692,-0.631,7.223,33.0
60.001,-0.635,7.035,16.0
57.186,-0.596,6.373,27.0
64.759,-0.665,6.835,17.0
58.966,-0.596,5.882,14.0
58.58,-0.583,5.506,22.0
59.659,-0.578,7.281,35.0
63.836,-0.608,7.419,20.0
57.231,-0.536,6.318,31.0
59.058,-0.544,6.172,16.0
58.929,-0.534,5.817,7.0
58.696,-0.523,5.455,21.0
59.188,-0.511,7.16,35.0
63.746,-0.54,7.339,36.0
57.299,-0.477,6.263,30.0
59.252,-0.483,6.127,17.0
67.278,-0.539,6.567,6.0
64.83,-0.509,5.953,17.0
0.0,0.0,0.0,0.0
59.986,-0.446,6.839,10.0
57.285,-0.417,6.197,31.0
58.736,-0.419,6.006,33.0
58.835,-0.412,5.676,13.0
64.825,-0.444,5.879,24.0
59.967,-0.394,7.116,25.0
59.956,-0.386,6.765,6.0
57.288,-0.36,6.131,31.0
58.718,-0.361,5.936,33.0
56.859,-0.341,5.418,16.0
64.862,-0.379,5.806,21.0
57.247,0.4,5.35,33.0
0.0,0.0,0.0,0.0
63.249,0.45,5.169,32.0
63.289,0.453,4.796,27.0
76.853,0.555,5.376,13.0
76.598,0.558,4.911,8.0
58.276,0.438,5.344,34.0
56.867,0.431,4.882,20.0
62.925,0.48,5.033,37.0
63.177,0.485,4.677,26.0
76.748,0.594,5.234,28.0
76.772,0.598,4.788,6.0
58.519,0.469,5.262,25.0
57.034,0.46,4.795,17.0
63.651,0.517,4.978,24.0
63.018,0.515,4.553,28.0
76.683,0.63,5.093,22.0
76.77,0.635,4.65,8.0
57.977,0.492,5.109,33.0
62.976,0.537,5.18,20.0
63.544,0.545,4.855,12.0
62.924,0.543,4.432,7.0
76.616,0.664,4.95,8.0
79.393,0.692,4.666,2.0
57.141,0.51,4.931,22.0
62.99,0.565,5.066,38.0
75.908,0.684,5.661,9.0
76.671,0.693,5.262,18.0
79.403,0.721,4.985,3.0
79.366,0.724,4.52,8.0
57.106,0.533,4.822,23.0
63.532,0.595,4.993,32.0
76.012,0.714,5.527,27.0
76.687,0.723,5.121,24.0
90.063,0.852,5.487,7.0
79.364,0.753,4.372,8.0
62.533,0.607,5.163,22.0
63.43,0.617,4.865,18.0
76.066,0.742,5.388,38.0
76.637,0.75,4.972,21.0
0.0,0.0,0.0,0.0
90.898,0.895,4.835,11.0
62.653,0.629,5.054,36.0
90.366,0.91,6.758,13.0
76.164,0.768,5.249,29.0
76.646,0.774,4.827,10.0
90.015,0.911,5.144,13.0
92.383,0.937,4.741,12.0
63.367,0.655,4.99,37.0
63.251,0.654,4.61,5.0
76.347,0.791,5.117,25.0
76.684,0.796,4.683,13.0
90.944,0.946,5.022,17.0
92.063,0.959,4.546,18.0
63.435,0.672,4.872,25.0
76.109,0.807,5.399,16.0
76.481,0.812,4.977,19.0
88.385,0.939,5.226,10.0
91.874,0.977,4.895,14.0
92.538,0.986,4.391,19.0
63.303,0.685,4.739,23.0
76.176,0.825,5.256,31.0
76.589,0.83,4.836,21.0
90.587,0.982,5.181,16.0
92.401,1.002,4.744,16.0
92.827,1.007,4.225,9.0
63.186,0.696,4.606,11.0
76.231,0.839,5.11,23.0
76.559,0.843,4.683,24.0
90.864,1.001,5.018,20.0
92.035,1.013,4.545,15.0
109.007,1.199,4.747,13.0
83.134,0.928,5.898,18.0
76.45,0.853,4.974,20.0
76.577,0.854,4.533,21.0
91.843,1.024,4.892,16.0
92.236,1.027,4.373,15.0
108.57,1.209,4.512,8.0
76.178,0.859,5.252,24.0
76.556,0.862,4.829,22.0
90.688,1.02,5.189,10.0
92.407,1.038,4.737,17.0
109.075,1.225,4.955,10.0
108.077,1.212,4.279,10.0
76.155,0.864,5.099,24.0
76.516,0.867,4.675,31.0
90.812,1.027,5.015,16.0
91.948,1.039,4.532,17.0
109.038,1.23,4.737,16.0
0.0,0.0,0.0,0.0
76.449,0.871,4.966,22.0
76.551,0.87,4.523,25.0
91.532,1.038,4.872,15.0
92.184,1.043,4.358,15.0
108.416,1.225,4.491,10.0
57.061,0.643,2.031,0.0
76.529,0.872,4.816,24.0
90.863,1.033,5.184,10.0
92.37,1.047,4.729,18.0
109.049,1.233,4.934,11.0
108.086,1.219,4.257,10.0
56.88,0.64,1.909,0.0
76.508,0.868,4.657,33.0
90.823,1.028,4.997,18.0
91.958,1.038,4.521,16.0
108.99,1.227,4.71,14.0
0.0,0.0,0.0,0.0
56.937,0.637,1.796,0.0
76.598,0.864,4.507,19.0
92.241,1.037,4.887,16.0
92.249,1.033,4.348,14.0
108.252,1.208,4.459,11.0
57.215,0.637,2.023,0.0
56.981,0.632,1.682,0.0
90.842,1.014,5.161,15.0
92.414,1.028,4.709,15.0
109.01,1.208,4.916,11.0
108.045,1.192,4.231,8.0
57.03,0.627,1.9,0.0
57.101,0.625,1.569,0.0
91.014,1.002,4.984,16.0
92.122,1.01,4.504,18.0
108.971,1.19,4.691,11.0
0.0,0.0,0.0,0.0
57.031,0.617,1.782,1.0
57.493,0.619,1.461,0.0
92.404,1.0,4.869,16.0
92.86,1.0,4.349,17.0
108.251,1.161,4.438,12.0
57.061,0.608,1.999,0.0
57.174,0.606,1.669,1.0
57.468,0.606,1.342,0.0
92.125,0.976,4.664,15.0
109.097,1.15,4.885,13.0
108.019,1.132,4.204,12.0
57.312,0.597,1.889,0.0
57.451,0.595,1.558,1.0
0.0,0.0,0.0,0.0
92.393,0.954,4.484,15.0
109.017,1.119,4.653,10.0
57.545,0.587,2.12,0.0
57.558,0.583,1.778,0.0
57.566,0.579,1.442,0.0
0.0,0.0,0.0,0.0
92.918,0.931,4.317,5.0
108.246,1.077,4.395,16.0
0.0,0.0,0.0,0.0
57.674,0.566,1.661,1.0
0.0,0.0,0.0,0.0
43.02,0.416,0.737,0.0
79.335,0.768,3.521,2.0
107.953,1.037,4.16,7.0
57.836,0.551,1.891,1.0
57.799,0.546,1.545,2.0
0.0,0.0,0.0,0.0
0.0,0.0,0.0,0.0
79.384,0.738,3.36,10.0
79.469,0.733,2.898,2.0
57.826,0.528,1.77,1.0
57.801,0.523,1.426,1.0
0.0,0.0,0.0,0.0
36.382,0.323,0.473,0.0
79.356,0.705,3.194,12.0
78.11,0.687,2.687,7.0
57.924,0.504,1.654,1.0
0.0,0.0,0.0,0.0
0.0,0.0,0.0,0.0
35.232,0.297,0.385,0.0
79.358,0.668,3.028,5.0
78.141,0.651,2.525,12.0
74.724,0.615,1.978,1.0
0.0,0.0,0.0,0.0
0.0,0.0,0.0,0.0
32.845,0.261,0.291,0.0
78.07,0.618,2.818,24.0
79.365,0.621,2.4,2.0
0.0,0.0,0.0,0.0
0.0,0.0,0.0,0.0
36.485,0.275,0.46,0.0
0.0,0.0,0.0,0.0
78.142,0.577,2.657,22.0
75.26,0.548,2.12,6.0
0.0,0.0,0.0,0.0
42.922,0.304,0.704,0.0
34.698,0.242,0.366,0.0
28.887,0.198,0.137,1.0
78.155,0.533,2.499,15.0
74.983,0.503,1.96,1.0
0.0,0.0,0.0,0.0
37.676,0.244,0.54,0.0
32.351,0.206,0.276,0.0
28.595,0.179,0.077,1.0
78.115,0.485,2.338,4.0
0.0,0.0,0.0,0.0
0.0,0.0,0.0,0.0
0.0,0.0,0.0,0.0
0.0,0.0,0.0,0.0
27.206,0.153,0.017,0.0
75.372,0.419,2.102,4.0
0.0,0.0,0.0,0.0
0.0,0.0,0.0,0.0
0.0,0.0,0.0,0.0
28.796,0.146,0.128,0.0
26.0,0.129,-0.036,0.0
74.03,0.361,1.913,1.0
0.0,0.0,0.0,0.0
37.817,0.175,0.536,0.0
31.712,0.143,0.261,0.0
28.35,0.124,0.067,1.0
24.996,0.106,-0.085,0.0
0.0,0.0,0.0,0.0
0.0,0.0,0.0,0.0
35.762,0.139,0.434,0.0
30.221,0.114,0.188,0.0
27.04,0.098,0.01,0.0
23.585,0.083,-0.127,0.0
0.0,0.0,0.0,0.0
41.658,0.136,0.665,0.0
33.963,0.107,0.345,0.0
28.768,0.086,0.121,1.0
25.882,0.074,-0.041,0.0
22.843,0.062,-0.169,0.0
0.0,0.0,0.0,0.0
36.992,0.092,0.518,0.0
31.708,0.074,0.259,0.0
28.498,0.063,0.063,1.0
24.789,0.051,-0.088,0.0
21.441,0.041,-0.201,4.0
0.0,0.0,0.0,0.0
35.725,0.059,0.429,0.0
30.288,0.045,0.187,0.0
26.81,0.036,0.006,0.0
23.669,0.028,-0.131,1.0
20.818,0.022,-0.237,0.0
0.0,0.0,0.0,0.0
33.333,0.026,0.334,0.0
28.755,0.018,0.121,1.0
25.807,0.012,-0.044,0.0
22.613,0.007,-0.17,0.0
19.355,0.003,-0.258,0.0
37.388,0.001,0.52,0.0
31.639,-0.003,0.256,0.0
28.076,-0.007,0.063,0.0
24.752,-0.01,-0.09,0.0
21.316,-0.012,-0.202,3.0
18.507,-0.013,-0.283,0.0
35.9,-0.031,0.429,0.0
30.332,-0.031,0.186,0.0
26.745,-0.032,0.008,0.0
23.675,-0.032,-0.132,0.0
20.501,-0.031,-0.234,0.0
17.799,-0.029,-0.306,0.0
33.241,-0.061,0.333,0.0
28.794,-0.057,0.121,7.0
25.686,-0.055,-0.04,0.0
22.656,-0.052,-0.17,0.0
19.342,-0.048,-0.258,0.0
17.194,-0.045,-0.329,0.0
31.644,-0.09,0.257,0.0
28.317,-0.085,0.065,1.0
24.863,-0.079,-0.086,0.0
21.578,-0.072,-0.203,0.0
18.478,-0.064,-0.281,0.0
16.641,-0.061,-0.35,0.0
28.924,-0.111,0.181,1.0
27.122,-0.109,0.012,0.0
23.723,-0.099,-0.127,0.0
20.369,-0.089,-0.229,0.0
17.855,-0.081,-0.305,0.0
16.183,-0.076,-0.37,0.0
28.8,-0.141,0.126,7.0
25.87,-0.132,-0.036,0.0
22.771,-0.12,-0.164,0.0
19.363,-0.105,-0.254,0.0
17.201,-0.096,-0.326,0.0
15.784,-0.091,-0.391,0.0
28.507,-0.171,0.072,2.0
24.775,-0.153,-0.081,0.0
21.936,-0.14,-0.199,1.0
18.511,-0.121,-0.277,0.0
16.723,-0.112,-0.347,0.0
15.424,-0.106,-0.41,0.0
27.036,-0.192,0.019,0.0
23.934,-0.175,-0.121,0.0
20.662,-0.155,-0.224,0.0
17.962,-0.138,-0.301,0.0
16.229,-0.128,-0.366,0.0
14.861,-0.12,-0.422,0.0
26.094,-0.216,-0.027,0.0
22.757,-0.192,-0.156,0.0
19.637,-0.17,-0.248,0.0
17.317,-0.153,-0.321,0.0
15.918,-0.144,-0.388,0.0
14.504,-0.134,-0.437,0.0
25.151,-0.237,-0.071,0.0
22.101,-0.213,-0.19,0.0
18.712,-0.184,-0.27,0.0
16.779,-0.168,-0.341,0.0
15.501,-0.158,-0.405,0.0
14.105,-0.147,-0.45,0.0
24.072,-0.256,-0.11,0.0
20.92,-0.227,-0.217,0.0
18.11,-0.2,-0.293,0.0
16.407,-0.185,-0.362,0.0
14.996,-0.172,-0.418,0.0
13.842,-0.161,-0.466,0.0
23.093,-0.275,-0.145,1.0
19.91,-0.241,-0.241,0.0
17.51,-0.215,-0.313,0.0
16.035,-0.201,-0.381,0.0
14.577,-0.185,-0.431,0.0
13.529,-0.175,-0.479,0.0
22.224,-0.292,-0.178,1.0
19.137,-0.256,-0.264,0.0
16.927,-0.23,-0.332,0.0
15.549,-0.214,-0.396,0.0
14.278,-0.2,-0.447,0.0
13.165,-0.187,-0.488,0.0
21.504,-0.311,-0.208,0.0
18.267,-0.268,-0.283,0.0
16.562,-0.246,-0.352,0.0
15.049,-0.227,-0.409,0.0
13.913,-0.213,-0.459,0.0
12.995,-0.202,-0.504,0.0
20.174,-0.318,-0.229,0.0
17.791,-0.284,-0.304,0.0
16.17,-0.262,-0.37,0.0
14.735,-0.242,-0.424,0.0
13.659,-0.227,-0.472,0.0
12.741,-0.215,-0.515,0.0
17.174,-0.298,-0.322,0.0
15.797,-0.277,-0.387,0.0
14.419,-0.257,-0.439,0.0
13.337,-0.24,-0.483,0.0
12.427,-0.227,-0.522,0.0
18.595,-0.344,-0.27,0.0
16.758,-0.314,-0.34,0.0
15.453,-0.293,-0.403,0.0
14.138,-0.271,-0.452,0.0
13.077,-0.254,-0.494,0.0
12.293,-0.241,-0.536,0.0
18.137,-0.361,-0.292,0.0
16.429,-0.331,-0.36,0.0
14.906,-0.303,-0.412,0.0
13.792,-0.284,-0.463,0.0
12.921,-0.269,-0.508,0.0
12.057,-0.254,-0.544,0.0
17.507,-0.373,-0.309,0.0
16.053,-0.346,-0.376,0.0
14.634,-0.319,-0.427,0.0
13.546,-0.298,-0.475,0.0
12.609,-0.281,-0.515,0.0
11.833,-0.266,-0.552,0.0
17.051,-0.388,-0.326,0.0
15.716,-0.361,-0.391,0.0
14.354,-0.334,-0.44,0.0
13.222,-0.31,-0.483,0.0
12.421,-0.295,-0.526,0.0
11.596,-0.278,-0.558,0.0
16.665,-0.404,-0.343,0.0
15.357,-0.376,-0.405,0.0
14.065,-0.347,-0.452,0.0
12.987,-0.324,-0.494,0.0
12.266,-0.309,-0.537,0.0
11.465,-0.292,-0.568,0.0
16.331,-0.419,-0.36,0.0
14.897,-0.386,-0.414,0.0
13.729,-0.359,-0.461,0.0
12.783,-0.338,-0.504,0.0
12.006,-0.32,-0.543,0.0
11.312,-0.305,-0.577,0.0
15.986,-0.434,-0.374,0.0
14.599,-0.401,-0.426,0.0
13.547,-0.375,-0.473,0.0
12.56,-0.351,-0.513,0.0
11.819,-0.333,-0.55,0.0
11.133,-0.317,-0.583,0.0
15.681,-0.45,-0.388,0.0
14.329,-0.415,-0.437,0.0
13.268,-0.388,-0.482,0.0
12.42,-0.366,-0.524,0.0
11.648,-0.346,-0.558,0.0
10.946,-0.328,-0.588,0.0
15.376,-0.465,-0.401,0.0
14.061,-0.429,-0.448,0.0
13.094,-0.402,-0.492,0.0
12.234,-0.379,-0.532,0.0
11.481,-0.359,-0.565,0.0
10.726,-0.338,-0.59,0.0
14.966,-0.475,-0.41,0.0
13.855,-0.444,-0.459,0.0
12.793,-0.413,-0.497,0.0
12.049,-0.392,-0.539,0.0
11.36,-0.373,-0.574,0.0
10.636,-0.352,-0.598,0.0
14.736,-0.491,-0.422,0.0
13.611,-0.457,-0.468,0.0
12.69,-0.43,-0.509,0.0
11.896,-0.406,-0.547,0.0
11.216,-0.386,-0.58,0.0
10.46,-0.363,-0.601,0.0
14.472,-0.505,-0.432,0.0
13.427,-0.472,-0.478,0.0
12.493,-0.443,-0.516,0.0
11.734,-0.419,-0.554,0.0
11.02,-0.397,-0.583,0.0
10.386,-0.377,-0.61,0.0
14.185,-0.518,-0.44,0.0
13.2,-0.485,-0.485,0.0
12.333,-0.457,-0.524,0.0
11.583,-0.432,-0.56,0.0
10.915,-0.41,-0.59,0.0
10.294,-0.39,-0.616,0.0
13.991,-0.533,-0.45,0.0
13.004,-0.499,-0.493,0.0
12.195,-0.471,-0.532,0.0
11.376,-0.443,-0.563,0.0
10.767,-0.422,-0.595,0.0
10.141,-0.401,-0.618,0.0
13.779,-0.547,-0.459,0.0
12.833,-0.513,-0.501,0.0
11.957,-0.482,-0.535,0.0
11.235,-0.456,-0.568,0.0
10.583,-0.432,-0.596,0.0
10.035,-0.413,-0.623,0.0
13.591,-0.562,-0.467,0.0
12.67,-0.527,-0.508,0.0
11.867,-0.497,-0.543,0.0
11.172,-0.472,-0.577,0.0
10.502,-0.446,-0.602,0.0
9.913,-0.424,-0.626,0.0
13.401,-0.576,-0.474,0.0
12.541,-0.543,-0.515,0.0
11.762,-0.512,-0.551,0.0
11.048,-0.484,-0.582,0.0
10.41,-0.46,-0.608,0.0
9.827,-0.437,-0.63,0.0
13.218,-0.59,-0.481,0.0
12.355,-0.555,-0.52,0.0
11.628,-0.526,-0.556,0.0
10.865,-0.495,-0.583,0.0
10.334,-0.473,-0.613,0.0
9.696,-0.447,-0.631,0.0
12.252,-0.571,-0.527,0.0
11.5,-0.539,-0.561,0.0
10.77,-0.508,-0.588,0.0
10.221,-0.485,-0.616,0.0
9.7,-0.463,-0.64,0.0
12.924,-0.62,-0.494,0.0
12.142,-0.586,-0.533,0.0
11.345,-0.551,-0.563,0.0
10.702,-0.523,-0.594,0.0
10.076,-0.495,-0.616,0.0
9.632,-0.476,-0.644,0.0
12.826,-0.637,-0.502,0.0
11.991,-0.599,-0.537,0.0
11.304,-0.568,-0.571,0.0
10.612,-0.536,-0.598,0.0
10.025,-0.51,-0.622,0.0
9.53,-0.487,-0.646,0.0
12.707,-0.652,-0.507,0.0
11.93,-0.616,-0.544,0.0
11.188,-0.581,-0.574,0.0
10.528,-0.55,-0.601,0.0
9.979,-0.524,-0.627,0.0
9.416,-0.497,-0.645,0.0
12.468,-0.66,-0.508,0.0
11.816,-0.629,-0.548,0.0
11.087,-0.594,-0.578,0.0
10.418,-0.561,-0.603,0.0
9.862,-0.534,-0.627,0.0
9.383,-0.511,-0.65,0.0
12.427,-0.679,-0.515,0.0
11.706,-0.643,-0.552,0.0
10.991,-0.607,-0.581,0.0
10.315,-0.573,-0.605,0.0
9.811,-0.548,-0.631,0.0
9.306,-0.523,-0.652,0.0
12.313,-0.694,-0.519,0.0
11.55,-0.654,-0.553,0.0
10.97,-0.625,-0.587,0.0
10.237,-0.586,-0.607,0.0
9.708,-0.559,-0.631,0.0
9.246,-0.535,-0.654,0.0
12.276,-0.712,-0.526,0.0
11.501,-0.671,-0.558,0.0
10.838,-0.636,-0.587,0.0
10.167,-0.599,-0.61,0.0
9.66,-0.573,-0.634,0.0
9.219,-0.549,-0.658,0.0
12.26,-0.732,-0.533,0.0
11.423,-0.686,-0.561,0.0
10.751,-0.649,-0.589,0.0
10.145,-0.615,-0.615,0.0
9.594,-0.585,-0.636,0.0
9.15,-0.561,-0.658,0.0
12.127,-0.745,-0.534,0.0
11.345,-0.7,-0.564,0.0
10.829,-0.672,-0.6,0.0
10.047,-0.626,-0.614,0.0
9.559,-0.599,-0.639,0.0
9.127,-0.575,-0.662,0.0
11.968,-0.755,-0.534,0.0
11.274,-0.715,-0.567,0.0
10.62,-0.677,-0.594,0.0
0.0,0.0,0.0,0.0
9.526,-0.613,-0.642,0.0
9.057,-0.586,-0.661,0.0
11.903,-0.771,-0.537,0.0
11.205,-0.729,-0.569,0.0
10.613,-0.694,-0.599,0.0
0.0,0.0,0.0,0.0
0.0,0.0,0.0,0.0
0.0,0.0,0.0,0.0
11.895,-0.79,-0.542,0.0
11.17,-0.746,-0.572,0.0
10.479,-0.703,-0.596,0.0
0.0,0.0,0.0,0.0
9.462,-0.641,-0.646,0.0
0.0,0.0,0.0,0.0
11.811,-0.804,-0.543,0.0
11.119,-0.761,-0.574,0.0
10.481,-0.72,-0.6,0.0
0.0,0.0,0.0,0.0
0.0,0.0,0.0,0.0
8.998,-0.627,-0.669,0.0
11.775,-0.822,-0.546,0.0
11.079,-0.777,-0.576,0.0
10.411,-0.733,-0.6,0.0
0.0,0.0,0.0,0.0
0.0,0.0,0.0,0.0
