X,Y,Z,Reflectivity
29.231,2.894,0.111,2.0
25.771,2.555,-0.047,1.0
22.206,2.205,-0.167,1.0
19.886,1.978,-0.265,0.0
17.67,1.761,-0.336,0.0
16.109,1.608,-0.398,0.0
29.083,2.915,0.081,1.0
25.078,2.517,-0.071,0.0
21.973,2.209,-0.188,4.0
19.45,1.959,-0.279,0.0
17.369,1.752,-0.348,0.0
15.881,1.605,-0.409,0.0
28.448,2.885,0.05,0.0
24.529,2.491,-0.095,0.0
21.592,2.196,-0.207,4.0
18.973,1.933,-0.292,0.0
17.118,1.746,-0.361,0.0
15.672,1.602,-0.419,0.0
27.292,2.799,0.02,0.0
23.91,2.456,-0.118,0.0
21.269,2.188,-0.226,2.0
18.53,1.909,-0.305,0.0
16.86,1.739,-0.373,0.0
15.421,1.594,-0.429,0.0
26.305,2.728,-0.009,1.0
23.365,2.426,-0.141,0.0
20.794,2.162,-0.244,0.0
18.135,1.888,-0.318,0.0
16.569,1.728,-0.385,0.0
15.22,1.59,-0.441,0.0
26.028,2.727,-0.037,1.0
22.384,2.348,-0.16,0.0
20.117,2.113,-0.258,0.0
17.731,1.865,-0.331,0.0
16.205,1.707,-0.395,0.0
14.981,1.581,-0.451,0.0
25.265,2.673,-0.064,0.0
21.817,2.311,-0.18,1.0
19.579,2.077,-0.273,0.0
17.468,1.855,-0.345,0.0
15.976,1.699,-0.407,0.0
14.802,1.577,-0.462,0.0
24.367,2.602,-0.089,1.0
21.52,2.301,-0.202,3.0
19.167,2.052,-0.289,0.0
17.111,1.834,-0.358,0.0
15.784,1.694,-0.42,0.0
14.491,1.557,-0.468,0.0
24.096,2.596,-0.116,1.0
21.273,2.295,-0.224,1.0
18.55,2.003,-0.301,0.0
16.85,1.822,-0.371,0.0
15.519,1.68,-0.431,0.0
14.231,1.543,-0.476,0.0
23.605,2.565,-0.14,0.0
20.701,2.252,-0.241,0.0
18.122,1.973,-0.315,0.0
16.483,1.797,-0.382,0.0
15.195,1.658,-0.439,0.0
14.023,1.532,-0.486,0.0
22.426,2.456,-0.16,0.0
20.174,2.212,-0.259,0.0
17.753,1.948,-0.329,0.0
16.138,1.773,-0.393,0.0
14.973,1.647,-0.451,0.0
13.772,1.516,-0.493,0.0
21.716,2.396,-0.18,0.0
19.638,2.169,-0.275,0.0
17.43,1.927,-0.344,0.0
15.899,1.759,-0.406,0.0
14.645,1.623,-0.458,0.0
13.596,1.508,-0.503,0.0
21.375,2.375,-0.203,2.0
18.996,2.113,-0.288,0.0
17.101,1.904,-0.357,0.0
15.659,1.745,-0.418,0.0
14.405,1.607,-0.467,0.0
13.381,1.494,-0.511,0.0
21.206,2.372,-0.226,1.0
18.561,2.078,-0.304,0.0
16.815,1.884,-0.372,0.0
15.395,1.726,-0.43,0.0
14.142,1.587,-0.476,0.0
13.176,1.48,-0.519,0.0
20.468,2.303,-0.243,0.0
18.214,2.051,-0.32,0.0
16.544,1.865,-0.385,0.0
15.176,1.712,-0.442,0.0
13.928,1.573,-0.485,0.0
12.955,1.464,-0.526,0.0
19.904,2.253,-0.26,0.0
17.708,2.005,-0.332,0.0
16.145,1.83,-0.395,0.0
14.9,1.69,-0.452,0.0
13.729,1.559,-0.495,0.0
12.797,1.454,-0.535,0.0
19.39,2.206,-0.276,0.0
17.378,1.978,-0.347,0.0
15.879,1.809,-0.408,0.0
14.649,1.67,-0.462,0.0
13.519,1.543,-0.504,0.0
12.606,1.44,-0.542,0.0
18.845,2.154,-0.292,0.0
17.07,1.953,-0.362,0.0
15.593,1.785,-0.42,0.0
14.37,1.646,-0.471,0.0
13.348,1.53,-0.514,0.0
12.505,1.435,-0.553,0.0
18.421,2.115,-0.307,0.0
16.733,1.922,-0.375,0.0
15.367,1.767,-0.432,0.0
14.086,1.62,-0.479,0.0
13.129,1.511,-0.521,0.0
12.378,1.426,-0.563,0.0
17.986,2.074,-0.322,0.0
16.314,1.882,-0.385,0.0
15.1,1.743,-0.444,0.0
13.867,1.601,-0.488,0.0
12.901,1.491,-0.528,0.0
12.158,1.406,-0.568,0.0
17.619,2.039,-0.337,0.0
16.027,1.855,-0.399,0.0
14.796,1.714,-0.453,0.0
13.617,1.578,-0.496,0.0
12.705,1.473,-0.536,0.0
11.984,1.391,-0.575,0.0
17.236,2.001,-0.351,0.0
15.809,1.836,-0.413,0.0
14.521,1.687,-0.462,0.0
13.399,1.557,-0.505,0.0
12.597,1.465,-0.547,0.0
11.748,1.367,-0.578,0.0
16.914,1.969,-0.365,0.0
15.523,1.808,-0.424,0.0
14.255,1.661,-0.471,0.0
13.252,1.544,-0.515,0.0
12.457,1.453,-0.556,0.0
11.622,1.356,-0.586,0.0
16.663,1.944,-0.38,0.0
15.286,1.784,-0.436,0.0
14.02,1.637,-0.481,0.0
13.015,1.52,-0.522,0.0
12.271,1.434,-0.563,0.0
11.47,1.341,-0.592,0.0
16.225,1.897,-0.39,0.0
15.06,1.761,-0.448,0.0
13.763,1.61,-0.488,0.0
12.838,1.502,-0.53,0.0
12.079,1.414,-0.569,0.0
11.336,1.328,-0.599,0.0
15.957,1.868,-0.402,0.0
14.792,1.732,-0.458,0.0
13.602,1.594,-0.499,0.0
12.626,1.48,-0.537,0.0
11.89,1.394,-0.574,0.0
11.173,1.311,-0.604,0.0
15.722,1.843,-0.416,0.0
14.483,1.698,-0.466,0.0
13.39,1.57,-0.508,0.0
12.521,1.469,-0.548,0.0
11.715,1.375,-0.58,0.0
11.059,1.298,-0.611,0.0
15.453,1.813,-0.427,0.0
14.229,1.67,-0.475,0.0
13.23,1.553,-0.517,0.0
12.433,1.46,-0.559,0.0
11.567,1.358,-0.586,0.0
10.973,1.289,-0.62,0.0
15.188,1.783,-0.438,0.0
13.921,1.634,-0.481,0.0
12.973,1.523,-0.523,0.0
12.19,1.431,-0.563,0.0
11.389,1.338,-0.591,0.0
10.823,1.272,-0.624,0.0
14.94,1.754,-0.448,0.0
13.74,1.613,-0.491,0.0
12.807,1.504,-0.531,0.0
12.061,1.416,-0.571,0.0
11.293,1.326,-0.599,0.0
10.689,1.256,-0.629,0.0
14.686,1.723,-0.458,0.0
13.509,1.585,-0.499,0.0
12.623,1.481,-0.539,0.0
11.827,1.388,-0.574,0.0
11.166,1.311,-0.606,0.0
10.557,1.239,-0.634,0.0
14.441,1.693,-0.467,0.0
13.375,1.568,-0.509,0.0
12.533,1.47,-0.549,0.0
11.712,1.373,-0.582,0.0
11.019,1.292,-0.611,0.0
10.439,1.224,-0.639,0.0
14.13,1.655,-0.474,0.0
13.203,1.546,-0.518,0.0
12.386,1.45,-0.557,0.0
11.506,1.347,-0.585,0.0
10.945,1.282,-0.619,0.0
10.321,1.209,-0.643,0.0
13.937,1.63,-0.483,0.0
12.915,1.51,-0.522,0.0
12.208,1.427,-0.563,0.0
11.403,1.333,-0.593,0.0
10.817,1.265,-0.624,0.0
10.218,1.195,-0.649,0.0
13.717,1.601,-0.491,0.0
12.754,1.488,-0.529,0.0
12.039,1.405,-0.569,0.0
11.267,1.315,-0.598,0.0
10.707,1.249,-0.63,0.0
10.085,1.177,-0.652,0.0
13.515,1.574,-0.499,0.0
12.629,1.47,-0.538,0.0
11.848,1.379,-0.573,0.0
11.142,1.297,-0.604,0.0
10.493,1.221,-0.629,0.0
9.957,1.159,-0.654,0.0
13.324,1.547,-0.506,0.0
12.496,1.451,-0.547,0.0
11.687,1.357,-0.578,0.0
11.027,1.28,-0.61,0.0
10.425,1.21,-0.637,0.0
9.868,1.145,-0.659,0.0
13.196,1.528,-0.516,0.0
12.419,1.438,-0.557,0.0
11.573,1.339,-0.585,0.0
10.912,1.263,-0.615,0.0
10.359,1.198,-0.644,0.0
9.721,1.124,-0.66,0.0
12.99,1.499,-0.521,0.0
12.232,1.411,-0.561,0.0
11.434,1.319,-0.59,0.0
10.782,1.243,-0.619,0.0
10.274,1.184,-0.649,0.0
9.668,1.114,-0.667,0.0
12.804,1.472,-0.528,0.0
12.083,1.388,-0.567,0.0
11.294,1.297,-0.595,0.0
10.676,1.226,-0.625,0.0
10.075,1.157,-0.647,0.0
9.534,1.094,-0.667,0.0
12.65,1.448,-0.534,0.0
11.92,1.364,-0.572,0.0
11.169,1.277,-0.6,0.0
10.578,1.209,-0.63,0.0
10.036,1.147,-0.655,0.0
9.475,1.083,-0.673,0.0
12.538,1.429,-0.542,0.0
11.766,1.34,-0.576,0.0
11.063,1.259,-0.605,0.0
10.426,1.186,-0.631,0.0
9.924,1.129,-0.657,0.0
9.379,1.067,-0.675,0.0
12.481,1.415,-0.552,0.0
11.622,1.317,-0.58,0.0
10.975,1.243,-0.611,0.0
10.367,1.174,-0.637,0.0
9.793,1.108,-0.658,0.0
9.352,1.058,-0.683,0.0
12.303,1.388,-0.556,0.0
11.517,1.298,-0.586,0.0
10.879,1.226,-0.616,0.0
10.283,1.158,-0.642,0.0
9.707,1.092,-0.662,0.0
9.225,1.038,-0.682,0.0
12.163,1.364,-0.561,0.0
11.403,1.278,-0.591,0.0
10.786,1.208,-0.621,0.0
10.123,1.133,-0.642,0.0
9.662,1.081,-0.668,0.0
9.115,1.019,-0.682,0.0
12.053,1.343,-0.567,0.0
11.24,1.252,-0.593,0.0
10.681,1.189,-0.625,0.0
10.017,1.114,-0.644,0.0
9.517,1.058,-0.667,0.0
9.047,1.005,-0.685,0.0
11.933,1.321,-0.572,0.0
11.161,1.235,-0.599,0.0
10.593,1.171,-0.629,0.0
10.005,1.105,-0.652,0.0
9.449,1.043,-0.67,0.0
0.0,0.0,0.0,0.0
11.772,1.294,-0.574,0.0
11.082,1.218,-0.604,0.0
10.474,1.15,-0.631,0.0
9.836,1.079,-0.65,0.0
9.442,1.035,-0.678,0.0
8.895,0.975,-0.689,0.0
11.602,1.266,-0.576,0.0
10.952,1.194,-0.606,0.0
10.402,1.134,-0.635,0.0
9.754,1.062,-0.652,0.0
9.339,1.016,-0.678,0.0
8.852,0.963,-0.693,0.0
11.538,1.25,-0.582,0.0
10.898,1.179,-0.612,0.0
10.282,1.112,-0.636,0.0
9.747,1.053,-0.66,0.0
9.278,1.002,-0.681,0.0
8.811,0.95,-0.697,0.0
11.462,1.231,-0.587,0.0
10.805,1.16,-0.615,0.0
10.212,1.095,-0.639,0.0
9.649,1.034,-0.66,0.0
9.223,0.987,-0.684,0.0
8.821,0.944,-0.705,0.0
11.363,1.211,-0.591,0.0
10.75,1.144,-0.62,0.0
10.166,1.081,-0.644,0.0
9.627,1.023,-0.666,0.0
9.079,0.964,-0.68,0.0
8.709,0.924,-0.702,0.0
11.254,1.188,-0.593,0.0
10.656,1.124,-0.622,0.0
10.092,1.063,-0.647,0.0
9.531,1.003,-0.666,0.0
0.0,0.0,0.0,0.0
8.679,0.912,-0.706,0.0
11.178,1.169,-0.597,0.0
10.564,1.104,-0.624,0.0
10.023,1.046,-0.649,0.0
9.479,0.988,-0.669,0.0
0.0,0.0,0.0,0.0
8.617,0.897,-0.707,0.0
11.084,1.148,-0.599,0.0
10.481,1.084,-0.626,0.0
9.905,1.024,-0.648,0.0
9.377,0.968,-0.668,0.0
0.0,0.0,0.0,0.0
8.527,0.878,-0.705,0.0
11.007,1.129,-0.602,0.0
10.449,1.07,-0.631,0.0
9.824,1.005,-0.649,0.0
9.36,0.956,-0.672,0.0
0.0,0.0,0.0,0.0
8.518,0.868,-0.709,0.0
10.955,1.111,-0.606,0.0
10.336,1.047,-0.63,0.0
9.821,0.994,-0.654,0.0
9.363,0.946,-0.678,0.0
0.0,0.0,0.0,0.0
8.475,0.855,-0.71,0.0
10.893,1.093,-0.608,0.0
10.352,1.037,-0.637,0.0
9.779,0.979,-0.657,0.0
9.274,0.927,-0.677,0.0
8.884,0.887,-0.699,0.0
8.456,0.843,-0.713,0.0
50.225,0.847,5.628,18.0
50.211,0.857,5.353,23.0
55.043,0.95,5.57,6.0
57.23,0.998,5.475,14.0
57.351,1.011,5.176,30.0
62.544,1.116,5.307,20.0
50.24,0.903,5.688,22.0
50.064,0.91,5.396,23.0
54.993,1.01,5.628,11.0
49.586,0.921,4.8,16.0
57.432,1.078,5.249,24.0
61.998,1.176,5.331,12.0
50.21,0.959,5.741,19.0
50.1,0.967,5.456,24.0
57.661,1.123,5.965,11.0
55.049,1.084,5.39,15.0
57.232,1.138,5.293,30.0
55.787,1.121,4.857,12.0
50.204,1.015,5.796,24.0
50.127,1.024,5.513,23.0
50.028,1.032,5.229,20.0
55.405,1.154,5.484,27.0
57.594,1.212,5.387,22.0
55.854,1.186,4.921,27.0
49.924,1.068,5.816,24.0
50.077,1.081,5.559,37.0
50.033,1.09,5.281,23.0
55.273,1.215,5.527,29.0
57.77,1.282,5.462,13.0
56.052,1.255,4.995,29.0
0.0,0.0,0.0,0.0
50.096,1.139,5.611,24.0
49.886,1.144,5.314,23.0
55.048,1.274,5.558,25.0
62.28,1.455,5.948,21.0
56.148,1.323,5.057,26.0
48.714,1.156,5.771,4.0
56.692,1.357,6.404,7.0
49.733,1.2,5.345,22.0
54.978,1.338,5.602,21.0
61.571,1.511,5.937,8.0
56.271,1.392,5.119,30.0
50.323,1.254,6.007,17.0
45.496,1.143,5.181,19.0
49.683,1.258,5.384,19.0
49.611,1.266,5.099,17.0
49.297,1.269,4.798,15.0
56.361,1.462,5.177,22.0
45.091,1.179,5.423,21.0
45.469,1.198,5.217,19.0
49.702,1.319,5.43,29.0
49.521,1.324,5.133,23.0
49.364,1.331,4.846,35.0
49.831,1.353,4.619,23.0
45.145,1.235,5.467,29.0
45.517,1.254,5.261,20.0
45.771,1.271,5.038,9.0
49.446,1.382,5.165,23.0
0.0,0.0,0.0,0.0
49.752,1.411,4.651,31.0
45.198,1.291,5.509,17.0
45.267,1.303,5.267,18.0
49.075,1.422,5.439,13.0
49.43,1.443,5.201,29.0
50.66,1.488,5.052,24.0
49.925,1.477,4.704,33.0
45.283,1.35,5.553,21.0
45.225,1.357,5.296,40.0
45.707,1.381,5.099,14.0
49.045,1.492,5.196,23.0
50.893,1.558,5.111,18.0
49.988,1.541,4.745,23.0
45.346,1.408,5.593,20.0
45.286,1.415,5.334,39.0
45.614,1.434,5.12,19.0
48.896,1.548,5.213,24.0
50.723,1.615,5.128,20.0
56.325,1.805,5.384,14.0
45.246,1.461,5.61,20.0
45.291,1.472,5.364,20.0
45.605,1.491,5.148,29.0
48.409,1.592,5.192,23.0
51.037,1.689,5.191,10.0
50.251,1.673,4.834,24.0
0.0,0.0,0.0,0.0
45.348,1.53,5.398,19.0
45.659,1.549,5.181,21.0
48.493,1.655,5.229,31.0
51.028,1.752,5.219,18.0
50.334,1.738,4.87,24.0
0.0,0.0,0.0,0.0
45.368,1.588,5.426,34.0
45.738,1.61,5.215,28.0
48.455,1.714,5.251,33.0
51.052,1.816,5.249,16.0
50.488,1.806,4.911,24.0
0.0,0.0,0.0,0.0
45.373,1.644,5.45,36.0
45.851,1.671,5.251,32.0
51.191,1.875,5.573,14.0
56.358,2.076,5.822,7.0
50.105,1.855,4.898,19.0
43.76,1.633,5.521,15.0
45.404,1.703,5.475,33.0
45.809,1.727,5.267,20.0
45.225,1.713,4.943,17.0
57.808,2.201,5.997,9.0
50.128,1.919,4.922,33.0
0.0,0.0,0.0,0.0
45.442,1.761,5.498,27.0
45.874,1.786,5.293,20.0
45.283,1.772,4.968,19.0
50.491,1.985,5.258,7.0
56.354,2.227,5.555,8.0
0.0,0.0,0.0,0.0
45.542,1.822,5.527,26.0
45.649,1.835,5.285,30.0
45.343,1.831,4.991,19.0
0.0,0.0,0.0,0.0
50.237,2.048,4.969,32.0
43.989,1.807,5.601,22.0
45.81,1.89,5.575,29.0
45.678,1.893,5.303,20.0
45.431,1.891,5.014,39.0
48.554,2.03,5.088,22.0
50.23,2.109,4.984,28.0
44.077,1.866,5.625,29.0
45.645,1.941,5.568,20.0
45.708,1.951,5.319,26.0
45.465,1.949,5.03,38.0
48.874,2.104,5.134,24.0
50.32,2.176,5.005,23.0
44.115,1.923,5.64,29.0
45.824,2.005,5.6,20.0
45.604,2.003,5.317,29.0
48.263,2.129,5.351,8.0
49.505,2.194,5.211,20.0
50.309,2.238,5.014,33.0
44.277,1.984,5.67,19.0
45.538,2.049,5.574,29.0
45.647,2.062,5.33,29.0
48.299,2.19,5.363,31.0
56.365,2.566,5.943,13.0
50.601,2.313,5.052,24.0
44.076,2.03,5.651,30.0
45.535,2.105,5.58,27.0
45.627,2.117,5.334,33.0
48.24,2.247,5.363,16.0
50.972,2.383,5.38,24.0
50.805,2.384,5.078,24.0
44.368,2.098,5.693,34.0
0.0,0.0,0.0,0.0
45.681,2.175,5.345,42.0
48.227,2.304,5.366,28.0
50.926,2.443,5.379,24.0
50.6,2.436,5.061,18.0
44.393,2.153,5.699,32.0
45.602,2.219,5.596,27.0
45.775,2.235,5.358,16.0
48.017,2.353,5.344,15.0
50.535,2.485,5.34,30.0
49.738,2.455,4.976,16.0
44.348,2.205,5.694,14.0
45.832,2.286,5.625,19.0
45.932,2.299,5.376,28.0
47.891,2.405,5.33,23.0
49.612,2.499,5.242,24.0
49.769,2.516,4.978,20.0
44.396,2.261,5.699,24.0
45.879,2.344,5.629,14.0
0.0,0.0,0.0,0.0
47.92,2.464,5.331,23.0
48.981,2.526,5.172,19.0
49.797,2.576,4.978,23.0
44.465,2.318,5.705,32.0
0.0,0.0,0.0,0.0
47.446,2.488,5.547,5.0
47.937,2.521,5.328,23.0
48.935,2.581,5.162,21.0
49.81,2.636,4.973,24.0
44.448,2.369,5.697,38.0
45.949,2.456,5.628,18.0
47.493,2.546,5.547,5.0
48.223,2.592,5.353,25.0
49.269,2.656,5.19,22.0
51.726,2.796,5.157,4.0
44.513,2.425,5.698,37.0
45.845,2.504,5.607,5.0
43.567,2.386,5.081,9.0
48.383,2.657,5.362,26.0
53.521,2.947,5.628,16.0
49.369,2.726,4.912,23.0
44.518,2.476,5.69,38.0
43.621,2.433,5.326,22.0
47.161,2.636,5.489,17.0
48.031,2.693,5.312,23.0
44.515,2.502,4.671,3.0
49.215,2.773,4.885,20.0
45.81,2.601,5.843,10.0
43.686,2.486,5.322,26.0
47.122,2.688,5.472,21.0
0.0,0.0,0.0,0.0
44.53,2.553,4.66,18.0
48.852,2.808,4.835,18.0
43.251,2.503,5.504,18.0
43.598,2.53,5.298,34.0
46.55,2.707,5.391,21.0
45.676,2.662,5.025,28.0
44.549,2.603,4.648,15.0
57.142,3.347,5.637,30.0
43.326,2.556,5.499,19.0
43.699,2.584,5.296,33.0
45.409,2.69,5.243,20.0
45.356,2.693,4.974,24.0
44.562,2.652,4.633,17.0
56.767,3.386,5.579,7.0
42.982,2.582,5.439,35.0
43.639,2.627,5.271,35.0
44.057,2.657,5.07,17.0
44.695,2.701,4.883,18.0
48.535,2.94,5.026,21.0
52.015,3.158,5.091,5.0
43.245,2.644,5.454,19.0
43.625,2.672,5.251,31.0
45.31,2.781,5.194,20.0
44.733,2.75,4.868,30.0
49.277,3.036,5.081,25.0
52.118,3.218,5.078,7.0
42.523,2.644,5.343,34.0
0.0,0.0,0.0,0.0
45.238,2.823,5.164,19.0
44.716,2.796,4.844,14.0
49.274,3.087,5.057,25.0
51.944,3.261,5.035,17.0
43.123,2.725,5.396,19.0
42.294,2.678,5.049,4.0
44.988,2.853,5.113,21.0
47.081,2.991,5.076,7.0
51.729,3.292,5.281,9.0
52.035,3.318,5.016,24.0
42.92,2.755,5.347,18.0
33.951,2.183,4.034,18.0
44.96,2.896,5.084,19.0
47.116,3.04,5.053,14.0
51.811,3.348,5.26,3.0
54.984,3.56,5.268,8.0
42.369,2.762,5.253,29.0
33.945,2.216,4.013,28.0
45.114,2.95,5.074,19.0
0.0,0.0,0.0,0.0
51.577,3.384,5.205,13.0
54.909,3.608,5.227,7.0
42.386,2.803,5.228,22.0
33.882,2.244,3.984,24.0
49.163,3.26,5.498,5.0
48.699,3.235,5.162,21.0
51.528,3.428,5.166,19.0
63.068,4.203,5.963,10.0
42.491,2.849,5.213,25.0
33.746,2.266,3.945,19.0
47.077,3.166,5.233,10.0
48.667,3.277,5.125,11.0
54.803,3.696,5.457,14.0
63.023,4.256,5.915,12.0
42.321,2.876,5.162,11.0
33.582,2.285,3.902,20.0
49.25,3.356,5.439,8.0
54.459,3.715,5.695,17.0
48.415,3.307,4.786,8.0
63.024,4.312,5.869,9.0
33.908,2.334,4.11,20.0
33.478,2.307,3.865,25.0
47.148,3.253,5.171,8.0
54.631,3.774,5.672,6.0
48.37,3.346,4.744,27.0
51.974,3.599,4.8,2.0
34.053,2.373,4.101,36.0
33.563,2.341,3.848,28.0
33.94,2.37,3.695,11.0
54.595,3.817,5.625,13.0
48.451,3.391,4.713,28.0
51.942,3.64,4.755,4.0
34.022,2.398,4.069,25.0
33.568,2.368,3.821,20.0
51.902,3.666,5.608,22.0
48.39,3.422,4.945,22.0
64.852,4.59,6.255,12.0
51.892,3.678,4.707,18.0
33.844,2.412,4.019,34.0
33.585,2.396,3.793,25.0
51.887,3.706,5.561,8.0
48.361,3.457,4.9,31.0
59.356,4.247,5.673,9.0
51.836,3.713,4.656,17.0
33.744,2.43,3.977,30.0
33.717,2.43,3.778,30.0
0.0,0.0,0.0,0.0
48.335,3.49,4.854,32.0
59.439,4.296,5.627,26.0
51.813,3.749,4.607,13.0
33.704,2.452,3.941,29.0
33.779,2.459,3.754,26.0
48.412,3.528,5.1,22.0
48.375,3.528,4.812,19.0
59.054,4.31,5.535,33.0
58.81,4.296,5.174,9.0
33.673,2.473,3.904,35.0
33.795,2.484,3.723,25.0
48.434,3.562,5.056,22.0
59.59,4.386,5.87,20.0
58.807,4.332,5.454,19.0
51.884,3.825,4.514,18.0
33.645,2.493,3.867,38.0
33.849,2.51,3.695,12.0
48.459,3.596,5.009,22.0
59.601,4.425,5.811,25.0
58.804,4.369,5.395,46.0
57.994,4.312,4.987,14.0
33.697,2.518,3.839,35.0
49.338,3.689,5.335,17.0
48.471,3.626,4.96,16.0
59.6,4.461,5.749,4.0
58.822,4.406,5.335,13.0
61.127,4.581,5.193,13.0
33.837,2.549,3.819,34.0
48.515,3.656,5.194,22.0
51.753,3.901,5.241,10.0
49.661,3.746,4.737,6.0
60.307,4.552,5.405,8.0
61.512,4.645,5.159,23.0
33.927,2.574,3.792,30.0
48.456,3.678,5.135,21.0
51.764,3.931,5.185,14.0
51.876,3.941,4.891,10.0
51.901,3.945,4.594,22.0
61.405,4.67,5.082,22.0
33.919,2.591,3.753,24.0
48.571,3.712,5.092,22.0
51.799,3.96,5.13,10.0
49.624,3.795,4.623,23.0
51.878,3.969,4.533,21.0
61.343,4.695,5.007,21.0
48.57,3.735,5.317,8.0
49.154,3.78,5.097,24.0
51.805,3.985,5.071,11.0
49.609,3.817,4.564,18.0
51.88,3.993,4.473,39.0
60.884,4.688,4.899,23.0
48.569,3.756,5.26,23.0
49.733,3.846,5.098,23.0
49.706,3.845,4.806,8.0
51.865,4.013,4.71,6.0
51.896,4.016,4.413,41.0
60.769,4.704,4.817,23.0
48.516,3.772,5.196,31.0
49.817,3.873,5.046,13.0
49.656,3.861,4.742,16.0
51.858,4.033,4.646,33.0
51.899,4.037,4.351,22.0
60.421,4.7,4.717,34.0
48.69,3.803,5.154,22.0
42.926,3.353,4.295,15.0
49.616,3.876,4.677,21.0
51.857,4.051,4.582,33.0
61.102,4.774,5.046,22.0
60.236,4.707,4.628,34.0
49.539,3.886,5.182,18.0
42.857,3.362,4.233,27.0
49.611,3.891,4.613,21.0
51.865,4.068,4.517,18.0
60.854,4.773,4.949,28.0
60.466,4.743,4.568,34.0
49.582,3.904,5.122,19.0
42.942,3.381,4.187,30.0
51.891,4.085,4.758,5.0
51.885,4.084,4.452,31.0
60.625,4.772,4.852,30.0
60.476,4.76,4.492,34.0
43.054,3.401,4.392,13.0
42.995,3.396,4.136,14.0
51.859,4.095,4.688,5.0
51.899,4.097,4.386,49.0
60.252,4.757,4.743,34.0
60.096,4.744,4.384,34.0
43.018,3.408,4.33,11.0
49.489,3.919,4.694,10.0
60.372,4.78,5.376,12.0
51.939,4.111,4.32,29.0
59.958,4.745,4.64,28.0
59.727,4.726,4.277,33.0
43.041,3.417,4.274,22.0
53.635,4.256,5.015,16.0
51.898,4.117,4.551,9.0
60.664,4.811,4.963,20.0
59.897,4.749,4.554,30.0
59.743,4.736,4.197,28.0
43.029,3.422,4.214,23.0
53.57,4.258,4.935,14.0
51.889,4.123,4.479,18.0
60.39,4.797,4.857,35.0
59.987,4.763,4.478,33.0
59.475,4.721,4.097,25.0
49.353,3.929,4.765,12.0
60.618,4.823,5.5,12.0
51.903,4.128,4.408,37.0
60.155,4.782,4.755,33.0
59.731,4.747,4.376,33.0
59.479,4.725,4.014,25.0
53.647,4.273,5.104,4.0
60.842,4.844,5.434,25.0
51.93,4.132,4.337,40.0
60.062,4.777,4.663,34.0
59.493,4.729,4.274,33.0
59.621,4.737,3.939,31.0
53.613,4.271,5.023,17.0
61.464,4.893,5.402,10.0
51.966,4.135,4.266,15.0
59.983,4.77,4.571,33.0
59.66,4.742,4.202,32.0
59.758,4.747,3.863,28.0
53.591,4.268,4.944,12.0
51.898,4.13,4.487,16.0
60.307,4.795,4.864,34.0
59.958,4.765,4.483,34.0
59.538,4.729,4.107,33.0
60.876,4.832,3.848,34.0
60.585,4.82,5.502,11.0
51.907,4.126,4.412,41.0
60.179,4.78,4.767,30.0
59.839,4.75,4.387,34.0
59.454,4.716,4.015,30.0
60.886,4.827,3.761,35.0
60.639,4.817,5.418,23.0
51.932,4.122,4.338,38.0
59.965,4.755,4.662,28.0
59.684,4.73,4.289,34.0
59.627,4.722,3.94,33.0
60.767,4.808,3.665,15.0
51.917,4.116,4.562,10.0
60.815,4.817,4.991,17.0
59.949,4.744,4.573,33.0
59.683,4.719,4.201,28.0
59.83,4.727,3.866,33.0
62.084,4.901,3.654,24.0
51.894,4.103,4.483,21.0
60.674,4.793,4.889,25.0
60.407,4.767,4.518,35.0
59.45,4.687,4.096,27.0
60.965,4.803,3.848,34.0
77.208,6.077,4.427,12.0
51.907,4.091,4.405,52.0
60.252,4.744,4.764,34.0
60.36,4.748,4.423,34.0
59.77,4.697,4.028,34.0
60.912,4.782,3.753,34.0
77.299,6.063,4.317,30.0
61.067,4.796,5.09,11.0
60.099,4.714,4.661,31.0
60.038,4.704,4.308,34.0
59.593,4.665,3.926,34.0
60.64,4.742,3.645,17.0
77.304,6.039,4.2,29.0
60.922,4.764,4.985,28.0
60.517,4.726,4.601,35.0
59.822,4.667,4.202,34.0
59.731,4.654,3.845,33.0
61.406,4.78,3.598,16.0
77.249,6.007,4.081,28.0
60.761,4.728,4.879,27.0
60.738,4.721,4.526,28.0
59.868,4.647,4.114,34.0
60.634,4.701,3.809,35.0
61.408,4.755,3.504,7.0
77.201,5.971,3.96,16.0
60.636,4.693,4.775,36.0
60.686,4.69,4.428,28.0
59.542,4.596,3.999,30.0
60.631,4.673,3.716,30.0
77.416,5.961,4.298,27.0
81.492,6.267,4.055,18.0
60.428,4.648,4.666,36.0
60.439,4.643,4.317,26.0
59.946,4.598,3.935,23.0
60.995,4.672,3.645,36.0
77.29,5.913,4.173,28.0
81.511,6.228,3.931,26.0
60.58,4.63,4.584,36.0
60.37,4.607,4.219,26.0
60.257,4.591,3.862,34.0
61.337,4.667,3.571,30.0
77.251,5.869,4.051,25.0
81.463,6.181,3.803,29.0
60.929,4.623,4.516,29.0
60.616,4.591,4.143,31.0
60.577,4.581,3.789,31.0
61.447,4.64,3.483,14.0
81.247,6.126,4.137,17.0
81.503,6.138,3.68,25.0
60.81,4.578,4.413,26.0
60.617,4.555,4.049,32.0
60.589,4.546,3.697,30.0
77.227,5.785,4.259,32.0
81.322,6.082,4.016,34.0
81.804,6.109,3.568,11.0
60.651,4.527,4.307,24.0
60.526,4.51,3.949,35.0
60.775,4.52,3.614,11.0
79.972,5.939,4.286,10.0
81.076,6.011,3.878,32.0
49.038,3.629,2.063,1.0
60.635,4.484,4.212,23.0
60.303,4.451,3.84,34.0
61.73,4.549,3.574,15.0
80.452,5.918,4.187,22.0
81.299,5.97,3.763,24.0
0.0,0.0,0.0,0.0
60.757,4.45,4.127,27.0
61.031,4.462,3.793,34.0
77.604,5.662,4.375,21.0
80.886,5.89,4.086,34.0
49.218,3.577,2.202,1.0
0.0,0.0,0.0,0.0
61.334,4.445,4.071,21.0
61.211,4.427,3.709,12.0
77.679,5.607,4.259,28.0
80.771,5.818,3.954,36.0
0.0,0.0,0.0,0.0
48.126,3.454,1.802,1.0
60.799,4.357,3.942,22.0
77.753,5.561,4.591,33.0
77.687,5.544,4.14,18.0
80.805,5.755,3.833,27.0
0.0,0.0,0.0,0.0
47.729,3.385,1.714,3.0
60.739,4.301,3.844,16.0
78.354,5.537,4.507,22.0
77.895,5.492,4.031,14.0
0.0,0.0,0.0,0.0
0.0,0.0,0.0,0.0
47.485,3.327,1.633,7.0
77.82,5.442,4.806,23.0
77.833,5.43,4.358,33.0
80.85,5.628,4.061,18.0
0.0,0.0,0.0,0.0
48.204,3.341,1.862,0.0
47.356,3.275,1.557,11.0
77.905,5.376,4.694,26.0
78.411,5.398,4.272,50.0
80.837,5.552,3.939,26.0
0.0,0.0,0.0,0.0
47.858,3.271,1.776,1.0
47.244,3.222,1.482,17.0
77.819,5.294,4.57,31.0
78.616,5.335,4.163,10.0
80.825,5.471,3.815,5.0
0.0,0.0,0.0,0.0
47.602,3.206,1.695,4.0
47.208,3.172,1.41,32.0
77.702,5.208,4.445,16.0
81.072,5.419,4.172,27.0
0.0,0.0,0.0,0.0
0.0,0.0,0.0,0.0
47.416,3.145,1.617,8.0
47.241,3.125,1.34,152.0
81.202,5.356,4.523,29.0
80.969,5.327,4.045,33.0
0.0,0.0,0.0,0.0
48.099,3.147,1.845,1.0
47.281,3.085,1.542,13.0
47.221,3.073,1.269,160.0
80.879,5.248,4.386,20.0
80.907,5.234,3.921,13.0
0.0,0.0,0.0,0.0
47.702,3.068,1.758,3.0
47.209,3.027,1.47,27.0
47.224,3.02,1.199,157.0
80.897,5.156,4.265,29.0
0.0,0.0,0.0,0.0
0.0,0.0,0.0,0.0
47.498,3.0,1.681,6.0
47.194,2.972,1.4,43.0
47.216,2.965,1.13,150.0
58.689,3.672,3.009,24.0
0.0,0.0,0.0,0.0
0.0,0.0,0.0,0.0
47.331,2.933,1.606,13.0
47.215,2.917,1.332,157.0
47.271,2.911,1.062,4.0
58.658,3.599,2.922,53.0
0.0,0.0,0.0,0.0
48.058,2.929,1.842,1.0
47.242,2.87,1.535,15.0
47.198,2.858,1.263,67.0
47.251,2.852,0.994,5.0
58.666,3.526,2.837,11.0
0.0,0.0,0.0,0.0
47.686,2.846,1.759,3.0
47.192,2.807,1.466,49.0
47.234,2.8,1.196,8.0
47.264,2.792,0.927,1.0
0.0,0.0,0.0,0.0
0.0,0.0,0.0,0.0
47.465,2.771,1.684,7.0
47.201,2.746,1.399,39.0
47.187,2.736,1.129,1.0
53.178,3.072,0.968,1.0
0.0,0.0,0.0,0.0
0.0,0.0,0.0,0.0
47.338,2.7,1.612,7.0
47.239,2.685,1.334,31.0
47.26,2.675,1.064,6.0
48.358,2.727,0.812,4.0
0.0,0.0,0.0,0.0
47.967,2.681,1.842,1.0
47.272,2.632,1.544,9.0
47.26,2.621,1.269,39.0
47.227,2.609,0.998,4.0
44.449,2.445,0.685,0.0
0.0,0.0,0.0,0.0
47.647,2.597,1.764,3.0
47.285,2.566,1.48,12.0
47.264,2.554,1.205,21.0
47.396,2.551,0.937,1.0
40.132,2.151,0.565,0.0
0.0,0.0,0.0,0.0
47.487,2.52,1.694,8.0
47.311,2.5,1.418,16.0
47.293,2.488,1.143,11.0
49.34,2.585,0.91,2.0
38.776,2.022,0.494,0.0
48.323,2.505,1.937,0.0
47.573,2.455,1.634,150.0
47.359,2.433,1.357,18.0
47.29,2.418,1.08,3.0
49.689,2.53,0.852,3.0
36.152,1.832,0.413,0.0
48.138,2.424,1.867,2.0
47.491,2.38,1.57,18.0
47.393,2.364,1.296,18.0
47.307,2.348,1.019,0.0
44.971,2.221,0.712,0.0
35.306,1.735,0.358,0.0
47.713,2.329,1.788,6.0
47.385,2.302,1.506,4.0
47.404,2.291,1.236,16.0
47.586,2.288,0.964,0.0
0.0,0.0,0.0,0.0
32.718,1.557,0.29,1.0
47.666,2.253,1.726,54.0
47.442,2.23,1.448,16.0
47.429,2.218,1.177,17.0
47.724,2.22,0.908,0.0
38.558,1.784,0.514,0.0
32.217,1.483,0.246,0.0
47.66,2.177,1.667,7.0
47.526,2.158,1.391,10.0
47.601,2.151,1.123,2.0
47.842,2.149,0.851,0.0
36.391,1.625,0.441,0.0
30.838,1.37,0.198,0.0
47.837,2.108,1.615,3.0
47.957,2.1,1.346,2.0
0.0,0.0,0.0,0.0
0.0,0.0,0.0,0.0
33.993,1.462,0.37,0.0
29.008,1.24,0.151,0.0
48.229,2.046,1.571,5.0
48.411,2.04,1.301,18.0
0.0,0.0,0.0,0.0
43.02,1.791,0.663,0.0
33.507,1.385,0.326,1.0
28.919,1.188,0.117,0.0
48.68,1.983,1.529,2.0
48.854,1.976,1.256,2.0
0.0,0.0,0.0,0.0
0.0,0.0,0.0,0.0
33.181,1.315,0.284,1.0
28.642,1.128,0.083,1.0
49.217,1.92,1.489,2.0
49.334,1.911,1.212,1.0
0.0,0.0,0.0,0.0
37.972,1.45,0.498,0.0
31.807,1.206,0.237,0.0
27.635,1.04,0.049,0.0
49.842,1.858,1.453,2.0
0.0,0.0,0.0,0.0
47.267,1.736,0.841,2.0
35.981,1.311,0.432,0.0
30.876,1.116,0.196,0.0
27.021,0.97,0.018,0.0
50.317,1.787,1.412,2.0
50.495,1.779,1.13,0.0
48.433,1.692,0.809,0.0
34.559,1.197,0.378,0.0
29.017,0.997,0.153,0.0
26.498,0.903,-0.01,0.0
50.915,1.716,1.374,0.0
50.64,1.692,1.079,0.0
0.0,0.0,0.0,0.0
34.133,1.121,0.337,1.0
28.932,0.941,0.122,6.0
25.988,0.838,-0.037,0.0
54.265,1.73,1.408,10.0
55.101,1.741,1.118,5.0
40.223,1.259,0.588,0.0
32.916,1.021,0.292,0.0
28.812,0.885,0.092,3.0
25.394,0.773,-0.061,0.0
54.18,1.628,1.352,6.0
55.593,1.654,1.073,1.0
0.0,0.0,0.0,0.0
0.0,0.0,0.0,0.0
28.082,0.81,0.062,0.0
24.951,0.712,-0.085,0.0
54.333,1.531,1.303,1.0
46.047,1.284,0.844,0.0
0.0,0.0,0.0,0.0
31.275,0.853,0.216,0.0
27.233,0.735,0.035,0.0
24.028,0.641,-0.104,0.0
54.438,1.432,1.255,0.0
0.0,0.0,0.0,0.0
35.759,0.919,0.42,1.0
28.989,0.737,0.174,1.0
26.785,0.672,0.01,0.0
23.904,0.592,-0.125,1.0
57.666,1.408,1.277,7.0
0.0,0.0,0.0,0.0
34.245,0.814,0.371,0.0
28.867,0.677,0.147,1.0
26.387,0.611,-0.013,0.0
23.412,0.535,-0.144,0.0
58.013,1.303,1.233,3.0
0.0,0.0,0.0,0.0
33.464,0.73,0.334,0.0
28.838,0.621,0.122,4.0
26.007,0.551,-0.036,0.0
23.02,0.481,-0.161,0.0
0.0,0.0,0.0,0.0
39.995,0.807,0.591,0.0
33.151,0.658,0.303,0.0
28.694,0.561,0.098,1.0
25.505,0.491,-0.056,0.0
22.347,0.423,-0.175,0.0
0.0,0.0,0.0,0.0
0.0,0.0,0.0,0.0
32.297,0.578,0.269,0.0
28.197,0.495,0.073,0.0
25.099,0.433,-0.075,0.0
22.055,0.374,-0.19,0.0
0.0,0.0,0.0,0.0
37.97,0.616,0.501,0.0
31.69,0.504,0.24,0.0
27.564,0.429,0.051,0.0
24.842,0.379,-0.093,0.0
21.751,0.325,-0.203,0.0
0.0,0.0,0.0,0.0
35.964,0.512,0.448,0.0
28.979,0.402,0.198,0.0
27.276,0.37,0.03,0.0
24.36,0.323,-0.109,0.0
21.581,0.278,-0.217,1.0
0.0,0.0,0.0,0.0
35.4,0.432,0.416,0.0
28.944,0.343,0.177,1.0
26.887,0.31,0.011,0.0
23.913,0.268,-0.123,0.0
20.962,0.228,-0.225,0.0
33.866,-0.779,0.367,1.0
28.772,-0.672,0.153,4.0
26.596,-0.631,-0.005,0.0
23.735,-0.572,-0.137,1.0
20.539,-0.503,-0.232,0.0
18.051,-0.449,-0.303,0.0
33.533,-0.843,0.361,0.0
28.747,-0.734,0.151,3.0
26.55,-0.687,-0.006,0.0
23.389,-0.614,-0.136,0.0
20.898,-0.556,-0.237,0.0
18.022,-0.487,-0.303,0.0
34.128,-0.93,0.367,0.0
28.729,-0.794,0.151,0.0
26.596,-0.744,-0.006,0.0
23.458,-0.665,-0.136,0.0
20.918,-0.601,-0.237,0.0
17.953,-0.522,-0.302,0.0
34.241,-1.005,0.369,0.0
28.718,-0.853,0.152,0.0
26.7,-0.803,-0.005,0.0
23.479,-0.715,-0.135,0.0
20.938,-0.645,-0.236,0.0
18.04,-0.563,-0.302,0.0
0.0,0.0,0.0,0.0
28.707,-0.913,0.154,0.0
26.639,-0.857,-0.003,0.0
23.702,-0.771,-0.135,0.0
20.91,-0.688,-0.234,1.0
18.039,-0.6,-0.301,0.0
0.0,0.0,0.0,0.0
28.78,-0.975,0.157,0.0
26.936,-0.923,0.0,0.0
23.696,-0.82,-0.132,0.0
20.933,-0.732,-0.231,1.0
18.103,-0.64,-0.299,0.0
34.131,-1.215,0.378,0.0
28.695,-1.032,0.161,1.0
0.0,0.0,0.0,0.0
0.0,0.0,0.0,0.0
20.958,-0.777,-0.228,2.0
18.128,-0.679,-0.297,0.0
0.0,0.0,0.0,0.0
28.767,-1.094,0.166,1.0
27.287,-1.048,0.008,0.0
23.497,-0.911,-0.123,0.0
20.983,-0.822,-0.224,2.0
18.239,-0.721,-0.295,0.0
0.0,0.0,0.0,0.0
28.724,-1.152,0.172,0.0
27.077,-1.096,0.014,0.0
23.703,-0.968,-0.118,0.0
21.078,-0.869,-0.221,2.0
18.303,-0.761,-0.291,0.0
34.9,-1.458,0.409,0.0
30.559,-1.288,0.191,0.0
0.0,0.0,0.0,0.0
23.783,-1.02,-0.112,0.0
21.096,-0.913,-0.215,2.0
18.47,-0.806,-0.289,0.0
36.09,-1.582,0.433,0.0
30.836,-1.363,0.202,0.0
27.54,-1.227,0.03,0.0
24.009,-1.078,-0.106,0.0
21.339,-0.966,-0.211,2.0
18.661,-0.852,-0.286,0.0
35.752,-1.64,0.44,0.0
30.943,-1.43,0.213,0.0
27.599,-1.285,0.039,3.0
24.186,-1.135,-0.099,0.0
21.798,-1.031,-0.208,1.0
18.904,-0.901,-0.283,0.0
0.0,0.0,0.0,0.0
31.303,-1.509,0.226,0.0
27.872,-1.354,0.05,7.0
24.722,-1.21,-0.092,0.0
22.033,-1.086,-0.202,1.0
18.946,-0.941,-0.277,0.0
36.746,-1.831,0.48,0.0
31.264,-1.569,0.238,0.0
28.042,-1.417,0.061,7.0
24.928,-1.269,-0.083,0.0
22.283,-1.142,-0.195,1.0
19.081,-0.985,-0.271,0.0
0.0,0.0,0.0,0.0
31.915,-1.664,0.257,0.0
28.387,-1.491,0.074,4.0
34.27,-1.812,-0.099,0.0
22.535,-1.2,-0.187,0.0
19.14,-1.026,-0.263,0.0
34.711,-1.866,0.484,0.0
32.12,-1.738,0.274,0.0
28.531,-1.554,0.088,8.0
34.235,-1.877,-0.082,8.0
34.276,-1.892,-0.268,1.0
34.208,-1.901,-0.453,2.0
34.68,-1.933,0.501,0.0
32.466,-1.82,0.293,0.0
28.541,-1.61,0.103,7.0
34.222,-1.943,-0.065,1.0
22.985,-1.313,-0.168,0.0
19.874,-1.142,-0.253,0.0
34.637,-1.996,0.519,1.0
33.295,-1.931,0.318,0.0
28.562,-1.666,0.118,5.0
25.91,-1.521,-0.035,0.0
23.225,-1.371,-0.157,0.0
20.086,-1.193,-0.244,0.0
34.767,-2.07,0.54,8.0
33.653,-2.015,0.341,0.0
28.559,-1.72,0.135,3.0
26.238,-1.589,-0.02,0.0
23.523,-1.433,-0.145,0.0
20.421,-1.251,-0.236,0.0
34.483,-2.118,0.556,5.0
0.0,0.0,0.0,0.0
30.163,-1.873,0.16,1.0
27.016,-1.687,-0.004,0.0
23.686,-1.487,-0.132,0.0
20.989,-1.325,-0.23,0.0
34.202,-2.164,0.573,2.0
35.867,-2.281,0.408,0.0
30.285,-1.936,0.18,0.0
27.624,-1.775,0.013,0.0
23.941,-1.547,-0.117,0.0
21.177,-1.376,-0.218,0.0
34.008,-2.214,0.592,0.0
0.0,0.0,0.0,0.0
31.211,-2.053,0.207,0.0
27.617,-1.826,0.031,0.0
24.368,-1.619,-0.103,0.0
21.836,-1.458,-0.21,0.0
33.948,-2.271,0.615,1.0
37.357,-2.512,0.475,0.0
31.49,-2.128,0.231,0.0
28.029,-1.903,0.052,0.0
25.683,-1.753,-0.09,0.0
22.239,-1.525,-0.198,0.0
33.915,-2.329,0.639,0.0
34.521,-2.382,0.464,0.0
31.917,-2.213,0.257,0.0
33.915,-2.363,0.088,1.0
33.921,-2.375,-0.094,2.0
33.901,-2.385,-0.276,0.0
33.875,-2.386,0.664,151.0
34.466,-2.439,0.49,2.0
33.925,-2.412,0.3,0.0
33.926,-2.423,0.114,1.0
33.93,-2.434,-0.068,3.0
33.885,-2.442,-0.25,0.0
33.863,-2.444,0.69,154.0
34.415,-2.495,0.516,4.0
34.152,-2.487,0.329,0.0
29.712,-2.172,0.123,1.0
33.911,-2.49,-0.041,4.0
33.917,-2.502,-0.223,4.0
33.856,-2.5,0.717,159.0
34.209,-2.537,0.541,5.0
35.485,-2.643,0.371,1.0
30.022,-2.246,0.149,0.0
33.91,-2.547,-0.012,2.0
33.898,-2.557,-0.194,6.0
33.867,-2.558,0.746,154.0
34.034,-2.581,0.567,4.0
35.657,-2.716,0.403,0.0
30.666,-2.345,0.179,0.0
33.928,-2.605,0.016,1.0
33.886,-2.613,-0.165,6.0
33.858,-2.614,0.775,154.0
33.922,-2.628,0.595,4.0
36.89,-2.869,0.449,0.0
31.292,-2.444,0.21,0.0
33.873,-2.655,0.046,1.0
33.889,-2.667,-0.134,4.0
33.856,-2.667,0.806,154.0
33.815,-2.674,0.623,9.0
34.441,-2.734,0.45,0.0
31.949,-2.545,0.244,0.0
33.921,-2.713,0.077,1.0
33.832,-2.716,-0.103,1.0
33.841,-2.72,0.837,78.0
33.827,-2.728,0.655,150.0
34.37,-2.782,0.481,1.0
32.871,-2.67,0.281,0.0
33.892,-2.763,0.109,1.0
25.741,-2.106,-0.054,0.0
33.797,-2.768,0.868,42.0
33.81,-2.778,0.687,156.0
34.305,-2.829,0.513,5.0
33.552,-2.776,0.319,0.0
29.686,-2.465,0.124,0.0
33.861,-2.822,-0.039,0.0
33.804,-2.819,0.9,68.0
33.812,-2.829,0.719,157.0
34.091,-2.862,0.543,4.0
35.059,-2.953,0.368,0.0
30.415,-2.57,0.156,0.0
26.705,-2.264,-0.004,0.0
33.811,-2.869,0.934,109.0
33.801,-2.877,0.753,2.0
33.938,-2.898,0.575,2.0
0.0,0.0,0.0,0.0
30.973,-2.662,0.191,0.0
27.459,-2.367,0.022,0.0
33.808,-2.918,0.968,134.0
33.758,-2.922,0.787,1.0
33.786,-2.933,0.607,1.0
0.0,0.0,0.0,0.0
31.788,-2.776,0.228,0.0
28.217,-2.472,0.052,0.0
33.8,-2.964,1.003,98.0
33.786,-2.972,0.822,9.0
33.724,-2.975,0.641,0.0
34.394,-3.043,0.467,1.0
32.556,-2.888,0.268,0.0
28.964,-2.577,0.084,0.0
33.803,-3.01,1.039,80.0
33.778,-3.016,0.858,30.0
33.713,-3.019,0.676,0.0
34.293,-3.079,0.501,6.0
0.0,0.0,0.0,0.0
29.514,-2.665,0.117,0.0
33.789,-3.054,1.075,68.0
33.787,-3.062,0.895,39.0
33.806,-3.071,0.715,3.0
34.126,-3.109,0.536,2.0
0.0,0.0,0.0,0.0
30.333,-2.778,0.154,0.0
33.794,-3.097,1.112,40.0
33.795,-3.105,0.932,35.0
33.807,-3.114,0.752,165.0
34.02,-3.142,0.572,1.0
36.827,-3.41,0.424,0.0
31.405,-2.916,0.194,0.0
33.806,-3.141,1.15,9.0
33.809,-3.149,0.97,26.0
33.81,-3.157,0.791,4.0
33.832,-3.166,0.607,0.0
34.57,-3.244,0.437,0.0
31.99,-3.009,0.234,0.0
33.827,-3.184,1.19,4.0
33.808,-3.189,1.009,18.0
33.804,-3.197,0.829,9.0
33.776,-3.201,0.645,0.0
34.593,-3.286,0.477,3.0
33.449,-3.185,0.283,0.0
33.832,-3.224,1.229,3.0
33.851,-3.233,1.049,8.0
33.837,-3.239,0.869,8.0
33.746,-3.237,0.684,0.0
34.545,-3.322,0.516,2.0
34.366,-3.312,0.331,0.0
33.865,-3.266,1.27,5.0
33.901,-3.276,1.091,10.0
33.84,-3.277,0.909,9.0
33.794,-3.279,0.725,0.0
33.991,-3.305,0.548,1.0
36.875,-3.594,0.399,0.0
33.898,-3.306,1.311,2.0
33.868,-3.309,1.13,6.0
33.852,-3.314,0.949,8.0
33.86,-3.321,0.766,1.0
33.867,-3.329,0.586,0.0
34.523,-3.4,0.414,2.0
34.148,-3.366,1.362,0.0
33.872,-3.345,1.171,2.0
33.942,-3.358,0.992,153.0
33.844,-3.355,0.807,3.0
33.865,-3.363,0.627,0.0
34.424,-3.425,0.455,0.0
34.433,-3.429,1.415,0.0
33.95,-3.387,1.215,2.0
33.9,-3.388,1.033,185.0
33.898,-3.393,0.849,3.0
0.0,0.0,0.0,0.0
34.302,-3.446,0.495,0.0
34.844,-3.504,1.475,0.0
33.962,-3.421,1.257,0.0
33.964,-3.426,1.077,161.0
33.917,-3.427,0.892,3.0
33.96,-3.438,0.713,1.0
34.182,-3.466,0.536,1.0
35.319,-3.585,1.539,0.0
34.107,-3.466,1.305,0.0
33.932,-3.454,1.118,2.0
33.926,-3.459,0.934,3.0
33.991,-3.471,0.755,2.0
34.125,-3.49,0.577,1.0
16.388,0.002,-0.361,0.0
14.965,0.001,-0.417,0.0
13.736,0.001,-0.463,0.0
12.727,0.0,-0.505,0.0
11.934,0.0,-0.543,0.0
11.204,0.0,-0.576,0.0
15.894,-0.002,-0.382,0.0
14.441,-0.002,-0.432,0.0
13.428,-0.003,-0.48,0.0
12.525,-0.003,-0.523,0.0
11.753,-0.003,-0.559,0.0
11.029,-0.004,-0.589,0.0
15.362,-0.007,-0.401,0.0
14.1,-0.007,-0.45,0.0
13.069,-0.007,-0.494,0.0
12.231,-0.008,-0.535,0.0
11.431,-0.008,-0.567,0.0
10.796,-0.008,-0.599,0.0
14.905,-0.013,-0.419,0.0
13.767,-0.013,-0.467,0.0
12.782,-0.012,-0.509,0.0
11.928,-0.012,-0.546,0.0
11.228,-0.012,-0.58,0.0
10.553,-0.012,-0.607,0.0
14.372,-0.019,-0.433,0.0
13.347,-0.018,-0.48,0.0
12.494,-0.018,-0.523,0.0
11.695,-0.017,-0.559,0.0
11.006,-0.017,-0.591,0.0
10.333,-0.016,-0.615,0.0
13.992,-0.025,-0.45,0.0
13.024,-0.024,-0.495,0.0
12.234,-0.023,-0.536,0.0
11.376,-0.022,-0.567,0.0
10.78,-0.022,-0.6,0.0
10.169,-0.021,-0.626,0.0
13.692,-0.031,-0.467,0.0
12.772,-0.03,-0.511,0.0
11.897,-0.029,-0.545,0.0
11.163,-0.028,-0.578,0.0
10.477,-0.027,-0.604,0.0
9.966,-0.026,-0.633,0.0
13.357,-0.037,-0.482,0.0
12.487,-0.036,-0.524,0.0
11.63,-0.034,-0.556,0.0
10.924,-0.033,-0.587,0.0
10.35,-0.032,-0.617,0.0
9.758,-0.031,-0.639,0.0
13.011,-0.044,-0.495,0.0
12.194,-0.042,-0.535,0.0
11.352,-0.04,-0.564,0.0
10.701,-0.038,-0.596,0.0
10.134,-0.037,-0.623,0.0
9.653,-0.036,-0.65,0.0
12.7,-0.05,-0.507,0.0
11.893,-0.048,-0.544,0.0
11.149,-0.046,-0.576,0.0
10.468,-0.044,-0.603,0.0
0.0,0.0,0.0,0.0
9.355,-0.041,-0.648,0.0
12.483,-0.057,-0.522,0.0
11.623,-0.054,-0.554,0.0
10.914,-0.052,-0.584,0.0
10.253,-0.05,-0.61,0.0
9.78,-0.048,-0.639,0.0
9.288,-0.047,-0.661,0.0
12.19,-0.064,-0.533,0.0
11.395,-0.061,-0.565,0.0
10.794,-0.059,-0.598,0.0
10.134,-0.056,-0.622,0.0
9.611,-0.054,-0.646,0.0
9.088,-0.052,-0.664,0.0
11.891,-0.071,-0.542,0.0
11.182,-0.068,-0.575,0.0
10.51,-0.065,-0.601,0.0
0.0,0.0,0.0,0.0
0.0,0.0,0.0,0.0
8.926,-0.057,-0.669,0.0
11.635,-0.078,-0.551,0.0
11.032,-0.075,-0.587,0.0
10.342,-0.071,-0.611,0.0
9.731,-0.068,-0.632,0.0
9.248,-0.066,-0.655,0.0
0.0,0.0,0.0,0.0
11.49,-0.085,-0.565,0.0
10.816,-0.082,-0.595,0.0
10.192,-0.078,-0.62,0.0
9.606,-0.075,-0.642,0.0
0.0,0.0,0.0,0.0
0.0,0.0,0.0,0.0
11.178,-0.092,-0.57,0.0
10.498,-0.088,-0.596,0.0
0.0,0.0,0.0,0.0
0.0,0.0,0.0,0.0
0.0,0.0,0.0,0.0
8.58,-0.075,-0.689,0.0
25.942,-1.296,-0.046,0.0
23.088,-1.146,-0.164,1.0
20.153,-0.994,-0.25,0.0
17.857,-0.875,-0.319,0.0
16.278,-0.793,-0.377,0.0
14.939,-0.723,-0.426,0.0
27.011,-1.302,-0.021,1.0
23.574,-1.129,-0.144,1.0
21.005,-0.999,-0.24,0.0
18.103,-0.855,-0.305,0.0
16.575,-0.778,-0.368,0.0
15.092,-0.703,-0.415,0.0
27.203,-1.263,0.004,1.0
23.827,-1.099,-0.122,0.0
21.28,-0.974,-0.223,2.0
18.612,-0.846,-0.296,0.0
16.855,-0.761,-0.358,0.0
15.374,-0.689,-0.409,0.0
28.342,-1.266,0.031,0.0
24.283,-1.076,-0.102,0.0
21.87,-0.962,-0.208,1.0
18.929,-0.826,-0.283,0.0
17.021,-0.737,-0.345,0.0
15.681,-0.674,-0.402,0.0
28.532,-1.221,0.058,5.0
25.78,-1.095,-0.084,1.0
22.403,-0.944,-0.193,2.0
19.32,-0.808,-0.272,0.0
17.276,-0.716,-0.335,0.0
15.948,-0.656,-0.395,0.0
28.609,-1.171,0.084,7.0
25.809,-1.048,-0.061,1.0
22.841,-0.92,-0.176,1.0
19.691,-0.786,-0.259,0.0
17.593,-0.697,-0.326,0.0
16.109,-0.633,-0.385,0.0
28.644,-1.119,0.108,6.0
26.232,-1.016,-0.04,0.0
23.172,-0.89,-0.159,0.0
20.639,-0.785,-0.255,0.0
17.944,-0.677,-0.317,0.0
16.366,-0.612,-0.377,0.0
28.695,-1.067,0.133,3.0
26.551,-0.978,-0.019,0.0
24.048,-0.878,-0.146,1.0
20.927,-0.756,-0.241,1.0
18.121,-0.649,-0.306,0.0
16.561,-0.587,-0.368,0.0
30.403,-1.072,0.165,0.0
27.203,-0.95,0.001,0.0
24.239,-0.838,-0.128,0.0
21.04,-0.72,-0.226,3.0
18.429,-0.624,-0.297,0.0
16.776,-0.563,-0.36,0.0
30.825,-1.027,0.191,0.0
27.674,-0.912,0.023,0.0
0.0,0.0,0.0,0.0
21.16,-0.682,-0.211,1.0
18.961,-0.605,-0.291,0.0
16.95,-0.535,-0.351,0.0
31.316,-0.982,0.217,0.0
28.137,-0.872,0.043,1.0
25.011,-0.766,-0.095,0.0
22.058,-0.668,-0.204,0.0
19.24,-0.576,-0.282,0.0
17.132,-0.507,-0.343,0.0
31.567,-0.927,0.241,0.0
28.485,-0.826,0.064,1.0
25.684,-0.735,-0.08,0.0
22.437,-0.635,-0.193,0.0
19.389,-0.542,-0.271,0.0
17.306,-0.477,-0.335,0.0
32.379,-0.885,0.269,0.0
28.647,-0.773,0.083,6.0
25.807,-0.687,-0.063,0.0
22.835,-0.6,-0.181,0.0
19.719,-0.511,-0.263,0.0
17.512,-0.448,-0.328,0.0
33.124,-0.838,0.296,1.0
28.689,-0.716,0.102,7.0
25.912,-0.637,-0.047,0.0
23.225,-0.563,-0.17,0.0
19.834,-0.473,-0.252,0.0
17.786,-0.418,-0.322,0.0
33.54,-0.78,0.32,1.0
28.743,-0.658,0.119,7.0
26.434,-0.596,-0.032,0.0
23.491,-0.521,-0.158,0.0
0.0,0.0,0.0,0.0
18.071,-0.388,-0.317,0.0
34.148,-0.724,0.345,1.0
28.785,-0.6,0.135,3.0
26.684,-0.547,-0.018,0.0
23.748,-0.479,-0.147,0.0
20.664,-0.409,-0.24,0.0
18.185,-0.353,-0.309,0.0
15.803,1.486,-0.407,0.0
14.473,1.363,-0.455,0.0
13.437,1.267,-0.5,0.0
12.575,1.187,-0.541,0.0
11.797,1.115,-0.575,0.0
11.078,1.049,-0.604,0.0
15.49,1.469,-0.419,0.0
14.23,1.351,-0.467,0.0
13.241,1.259,-0.51,0.0
12.417,1.182,-0.551,0.0
11.613,1.107,-0.582,0.0
10.933,1.044,-0.611,0.0
15.153,1.449,-0.43,0.0
13.99,1.339,-0.478,0.0
13.058,1.252,-0.521,0.0
12.166,1.168,-0.556,0.0
11.417,1.097,-0.587,0.0
10.791,1.038,-0.617,0.0
14.845,1.43,-0.442,0.0
13.727,1.324,-0.487,0.0
12.773,1.234,-0.526,0.0
12.065,1.167,-0.568,0.0
11.284,1.092,-0.596,0.0
10.672,1.035,-0.625,0.0
14.615,1.418,-0.454,0.0
13.492,1.311,-0.497,0.0
12.567,1.222,-0.535,0.0
11.856,1.154,-0.574,0.0
11.121,1.084,-0.602,0.0
10.528,1.028,-0.631,0.0
14.299,1.397,-0.464,0.0
13.28,1.299,-0.507,0.0
12.504,1.224,-0.549,0.0
11.617,1.138,-0.578,0.0
10.951,1.074,-0.608,0.0
10.358,1.017,-0.635,0.0
13.995,1.375,-0.473,0.0
13.075,1.286,-0.517,0.0
12.261,1.207,-0.555,0.0
11.448,1.128,-0.585,0.0
10.874,1.073,-0.619,0.0
10.244,1.012,-0.642,0.0
13.779,1.362,-0.484,0.0
12.912,1.277,-0.528,0.0
12.077,1.196,-0.563,0.0
11.264,1.116,-0.591,0.0
10.717,1.063,-0.624,0.0
10.096,1.003,-0.646,0.0
13.479,1.339,-0.492,0.0
12.691,1.262,-0.536,0.0
11.88,1.182,-0.57,0.0
11.164,1.112,-0.601,0.0
10.56,1.053,-0.63,0.0
9.983,0.996,-0.653,0.0
13.349,1.332,-0.505,0.0
12.469,1.246,-0.544,0.0
11.68,1.168,-0.576,0.0
10.99,1.1,-0.607,0.0
10.425,1.044,-0.636,0.0
9.797,0.982,-0.654,0.0
13.185,1.322,-0.517,0.0
12.32,1.236,-0.554,0.0
11.489,1.153,-0.583,0.0
10.873,1.092,-0.615,0.0
10.253,1.031,-0.639,0.0
9.715,0.977,-0.661,0.0
12.89,1.297,-0.523,0.0
12.098,1.218,-0.56,0.0
11.347,1.143,-0.59,0.0
10.715,1.08,-0.62,0.0
10.122,1.021,-0.644,0.0
9.588,0.968,-0.666,0.0
12.658,1.278,-0.53,0.0
12.01,1.213,-0.572,0.0
11.19,1.131,-0.597,0.0
10.565,1.068,-0.626,0.0
9.976,1.01,-0.648,0.0
9.501,0.962,-0.672,0.0
12.563,1.272,-0.543,0.0
11.708,1.186,-0.573,0.0
11.004,1.115,-0.602,0.0
10.398,1.054,-0.63,0.0
9.901,1.005,-0.657,0.0
9.322,0.947,-0.672,0.0
12.328,1.251,-0.549,0.0
11.514,1.169,-0.579,0.0
10.897,1.107,-0.611,0.0
10.354,1.052,-0.641,0.0
9.741,0.99,-0.659,0.0
9.229,0.939,-0.678,0.0
12.188,1.239,-0.559,0.0
11.406,1.16,-0.589,0.0
10.764,1.095,-0.617,0.0
10.147,1.033,-0.641,0.0
9.606,0.978,-0.663,0.0
0.0,0.0,0.0,0.0
11.988,1.22,-0.565,0.0
11.259,1.147,-0.596,0.0
10.641,1.084,-0.624,0.0
10.036,1.023,-0.648,0.0
9.493,0.968,-0.667,0.0
0.0,0.0,0.0,0.0
11.752,1.198,-0.57,0.0
11.059,1.127,-0.6,0.0
10.514,1.072,-0.631,0.0
9.819,1.002,-0.646,0.0
9.44,0.964,-0.676,0.0
0.0,0.0,0.0,0.0
11.571,1.18,-0.576,0.0
10.927,1.115,-0.606,0.0
10.356,1.057,-0.634,0.0
9.793,1.0,-0.657,0.0
9.302,0.95,-0.678,0.0
8.837,0.903,-0.695,0.0
11.438,1.167,-0.584,0.0
10.815,1.103,-0.614,0.0
10.197,1.041,-0.638,0.0
9.631,0.983,-0.659,0.0
0.0,0.0,0.0,0.0
8.68,0.887,-0.694,0.0
11.314,1.154,-0.592,0.0
10.685,1.09,-0.62,0.0
10.047,1.025,-0.641,0.0
9.526,0.972,-0.664,0.0
0.0,0.0,0.0,0.0
8.648,0.883,-0.702,0.0
11.164,1.138,-0.598,0.0
10.568,1.077,-0.627,0.0
9.965,1.016,-0.648,0.0
9.453,0.964,-0.67,0.0
0.0,0.0,0.0,0.0
8.57,0.874,-0.707,0.0
10.983,1.118,-0.602,0.0
10.476,1.066,-0.634,0.0
9.802,0.998,-0.65,0.0
9.31,0.948,-0.672,0.0
0.0,0.0,0.0,0.0
8.473,0.863,-0.709,0.0
10.881,1.106,-0.609,0.0
10.331,1.05,-0.638,0.0
9.739,0.99,-0.657,0.0
0.0,0.0,0.0,0.0
8.839,0.899,-0.699,0.0
8.411,0.855,-0.714,0.0
10.778,1.093,-0.616,0.0
10.149,1.029,-0.639,0.0
9.626,0.976,-0.661,0.0
0.0,0.0,0.0,0.0
8.728,0.885,-0.701,0.0
8.354,0.848,-0.719,0.0
10.661,1.079,-0.622,0.0
10.033,1.015,-0.643,0.0
9.522,0.963,-0.665,0.0
0.0,0.0,0.0,0.0
8.607,0.871,-0.701,0.0
8.237,0.833,-0.719,0.0
10.485,1.058,-0.624,0.0
9.942,1.003,-0.649,0.0
9.401,0.948,-0.668,0.0
0.0,0.0,0.0,0.0
8.556,0.863,-0.707,0.0
8.172,0.824,-0.723,0.0
10.39,1.045,-0.63,0.0
9.836,0.989,-0.653,0.0
9.322,0.937,-0.673,0.0
0.0,0.0,0.0,0.0
8.446,0.849,-0.708,0.0
8.136,0.818,-0.729,0.0
10.282,1.031,-0.635,0.0
9.729,0.975,-0.657,0.0
0.0,0.0,0.0,0.0
0.0,0.0,0.0,0.0
8.401,0.841,-0.713,0.0
0.0,0.0,0.0,0.0
10.159,1.014,-0.639,0.0
9.585,0.956,-0.658,0.0
0.0,0.0,0.0,0.0
0.0,0.0,0.0,0.0
8.363,0.834,-0.719,0.0
0.0,0.0,0.0,0.0
10.04,0.998,-0.642,0.0
9.534,0.947,-0.665,0.0
0.0,0.0,0.0,0.0
0.0,0.0,0.0,0.0
8.262,0.82,-0.719,0.0
0.0,0.0,0.0,0.0
9.941,0.983,-0.646,0.0
9.447,0.934,-0.668,0.0
0.0,0.0,0.0,0.0
8.504,0.84,-0.7,0.0
8.234,0.813,-0.726,0.0
7.854,0.775,-0.737,0.0
76.29,1.068,5.471,24.0
76.427,1.083,5.079,21.0
76.553,1.098,4.684,18.0
76.542,1.111,4.272,31.0
76.564,1.126,3.871,23.0
76.584,1.14,3.47,36.0
76.696,1.149,5.634,33.0
76.677,1.162,5.227,24.0
76.65,1.175,4.821,23.0
76.539,1.187,4.403,23.0
76.551,1.201,4.001,26.0
76.536,1.215,3.597,30.0
77.372,1.236,5.814,6.0
76.936,1.243,5.375,19.0
88.998,1.454,5.748,10.0
76.615,1.266,4.536,9.0
76.621,1.281,4.132,19.0
76.58,1.294,3.727,19.0
83.432,1.419,6.41,12.0
88.515,1.522,6.331,15.0
89.37,1.553,5.919,12.0
84.309,1.481,5.13,17.0
88.282,1.567,4.904,8.0
91.276,1.638,4.589,11.0
63.157,1.14,4.955,25.0
88.598,1.617,6.481,11.0
82.729,1.525,5.612,10.0
83.841,1.561,5.235,23.0
84.062,1.581,4.804,16.0
85.342,1.622,4.426,18.0
63.148,1.208,5.055,23.0
76.844,1.484,5.743,34.0
82.747,1.614,5.744,13.0
83.806,1.651,5.365,28.0
84.042,1.672,4.934,17.0
85.11,1.71,4.547,11.0
63.046,1.275,5.145,10.0
83.598,1.708,6.378,13.0
82.923,1.71,5.886,14.0
82.971,1.728,5.44,22.0
83.891,1.763,5.055,26.0
83.479,1.771,4.587,23.0
63.138,1.348,5.25,20.0
62.849,1.354,4.89,19.0
83.759,1.821,6.071,18.0
82.586,1.812,5.539,18.0
83.875,1.858,5.179,26.0
83.917,1.876,4.736,18.0
63.335,1.425,5.361,13.0
76.855,1.744,6.094,15.0
83.47,1.911,6.173,31.0
82.462,1.905,5.651,24.0
82.835,1.93,5.235,23.0
82.355,1.936,4.767,24.0
63.598,1.504,5.476,9.0
63.022,1.504,5.089,21.0
83.22,2.002,6.275,27.0
82.457,2.001,5.769,36.0
82.189,2.012,5.312,22.0
82.345,2.032,4.883,26.0
55.905,1.389,4.893,26.0
64.936,1.627,5.336,20.0
74.753,1.888,5.742,11.0
82.327,2.096,5.875,32.0
82.052,2.106,5.417,25.0
82.295,2.129,4.994,23.0
56.032,1.46,4.982,26.0
0.0,0.0,0.0,0.0
64.224,1.699,5.02,11.0
82.374,2.197,5.99,30.0
82.018,2.205,5.526,29.0
81.695,2.214,5.068,28.0
56.091,1.53,5.064,26.0
75.296,2.07,6.392,14.0
63.652,1.763,5.062,39.0
82.406,2.3,6.102,12.0
82.19,2.311,5.645,34.0
81.628,2.313,5.17,32.0
56.188,1.603,5.146,6.0
50.919,1.463,4.389,7.0
0.0,0.0,0.0,0.0
62.41,1.819,4.702,28.0
82.181,2.414,5.751,27.0
81.924,2.424,5.293,23.0
49.918,1.487,4.636,21.0
50.892,1.527,4.452,20.0
62.409,1.886,5.123,27.0
62.344,1.897,4.775,33.0
82.164,2.518,5.852,14.0
82.089,2.533,5.405,30.0
50.019,1.554,4.707,24.0
58.003,1.814,5.145,12.0
69.204,2.179,5.765,8.0
62.466,1.98,4.86,18.0
66.105,2.11,4.787,46.0
66.129,2.126,4.434,16.0
47.246,2.79,1.215,10.0
47.263,2.779,0.949,1.0
0.0,0.0,0.0,0.0
33.131,1.93,0.287,0.0
28.49,1.652,0.086,0.0
25.17,1.453,-0.065,0.0
47.277,2.708,1.174,3.0
54.3,3.096,1.043,1.0
42.137,2.391,0.571,0.0
32.642,1.843,0.255,1.0
27.939,1.57,0.061,0.0
24.786,1.386,-0.085,0.0
47.343,2.627,1.136,0.0
48.709,2.69,0.894,2.0
37.388,2.054,0.475,0.0
31.013,1.695,0.216,0.0
27.308,1.485,0.037,0.0
24.504,1.326,-0.104,0.0
47.266,2.538,1.096,1.0
48.999,2.617,0.86,3.0
37.643,2.0,0.448,0.0
30.846,1.63,0.191,0.0
26.862,1.412,0.015,0.0
23.986,1.254,-0.121,0.0
47.273,2.451,1.059,1.0
49.576,2.556,0.831,2.0
35.679,1.829,0.397,0.0
30.219,1.541,0.163,0.0
26.376,1.337,-0.005,0.0
23.399,1.18,-0.136,0.0
0.0,0.0,0.0,0.0
0.0,0.0,0.0,0.0
34.762,1.717,0.361,0.0
29.551,1.451,0.138,0.0
26.016,1.27,-0.024,0.0
23.035,1.118,-0.151,1.0
47.496,2.284,0.993,0.0
43.615,2.085,0.667,0.0
33.688,1.6,0.326,0.0
28.96,1.367,0.114,0.0
25.785,1.21,-0.042,0.0
22.98,1.071,-0.166,1.0
47.773,2.206,0.966,0.0
0.0,0.0,0.0,0.0
32.834,1.497,0.295,1.0
28.647,1.297,0.094,0.0
25.355,1.141,-0.058,0.0
22.363,0.999,-0.177,0.0
47.689,2.11,0.932,0.0
0.0,0.0,0.0,0.0
32.61,1.423,0.272,1.0
28.172,1.221,0.074,0.0
25.02,1.076,-0.074,0.0
21.893,0.935,-0.187,1.0
0.0,0.0,0.0,0.0
37.869,1.589,0.504,0.0
32.328,1.347,0.249,1.0
27.647,1.144,0.056,0.0
24.55,1.008,-0.087,1.0
21.77,0.887,-0.199,1.0
0.0,0.0,0.0,0.0
0.0,0.0,0.0,0.0
31.559,1.252,0.225,0.0
27.42,1.08,0.039,1.0
24.445,0.955,-0.101,1.0
21.644,0.839,-0.21,1.0
46.874,1.796,0.832,0.0
36.764,1.397,0.447,0.0
30.979,1.168,0.204,0.0
27.128,1.014,0.024,0.0
24.325,0.902,-0.114,1.0
21.363,0.785,-0.219,1.0
47.279,1.717,0.815,0.0
35.814,1.289,0.417,0.0
30.618,1.092,0.185,0.0
26.789,0.948,0.01,0.0
24.138,0.846,-0.125,0.0
21.113,0.733,-0.227,1.0
0.0,0.0,0.0,0.0
34.602,1.175,0.386,0.0
28.928,0.973,0.161,0.0
26.636,0.887,-0.002,1.0
23.612,0.779,-0.133,0.0
20.633,0.674,-0.231,0.0
0.0,0.0,0.0,0.0
34.878,1.113,0.373,0.0
28.976,0.915,0.148,5.0
26.419,0.826,-0.014,0.0
23.259,0.719,-0.141,0.0
20.379,0.623,-0.237,0.0
0.0,0.0,0.0,0.0
33.769,1.008,0.347,1.0
28.962,0.854,0.136,6.0
26.231,0.765,-0.024,0.0
23.311,0.673,-0.151,1.0
20.041,0.572,-0.241,0.0
144.81,-13.365,12.024,4.0
145.66,-13.44,11.318,6.0
146.505,-13.515,10.604,5.0
0.0,0.0,0.0,0.0
149.552,-13.793,9.219,16.0
150.383,-13.867,8.473,25.0
146.801,-13.566,12.389,5.0
144.893,-13.384,11.455,8.0
146.168,-13.498,10.777,8.0
209.422,-19.335,14.304,8.0
149.669,-13.815,9.428,5.0
150.372,-13.877,8.674,25.0
145.045,-13.413,12.439,6.0
144.731,-13.378,11.639,13.0
145.956,-13.486,10.959,8.0
145.727,-13.461,10.15,4.0
151.487,-13.987,9.745,13.0
149.716,-13.82,8.836,20.0
144.857,-13.4,12.618,13.0
144.473,-13.358,11.811,3.0
145.971,-13.489,11.156,8.0
147.227,-13.599,10.451,8.0
151.462,-13.984,9.945,3.0
149.534,-13.8,9.023,27.0
147.317,-13.625,13.027,6.0
147.15,-13.602,12.225,3.0
0.0,0.0,0.0,0.0
146.274,-13.504,10.577,5.0
0.0,0.0,0.0,0.0
149.518,-13.79,9.218,15.0
145.439,-13.442,13.054,9.0
146.617,-13.542,12.375,4.0
144.695,-13.356,11.438,12.0
146.269,-13.492,10.766,5.0
145.667,-13.427,9.946,3.0
149.539,-13.777,9.412,8.0
145.086,-13.396,13.212,12.0
144.86,-13.363,12.414,9.0
144.618,-13.331,11.618,14.0
146.143,-13.462,10.944,9.0
145.738,-13.414,10.137,5.0
185.297,-17.045,11.899,8.0
144.951,-13.362,13.386,11.0
144.917,-13.346,12.604,12.0
144.774,-13.322,11.815,9.0
146.034,-13.427,11.121,11.0
147.253,-13.528,10.426,10.0
185.332,-17.013,12.133,4.0
146.491,-13.478,13.712,9.0
147.179,-13.527,12.985,4.0
146.832,-13.483,12.165,7.0
145.683,-13.363,11.275,8.0
147.134,-13.485,10.599,5.0
0.0,0.0,0.0,0.0
146.243,-13.421,13.87,12.0
145.424,-13.331,13.01,12.0
146.525,-13.419,12.32,15.0
144.686,-13.236,11.374,11.0
146.44,-13.384,10.726,4.0
209.521,-19.132,14.225,5.0
145.93,-13.353,14.019,11.0
145.139,-13.266,13.16,19.0
146.762,-13.399,12.517,12.0
144.71,-13.196,11.55,20.0
146.135,-13.312,10.88,11.0
145.802,-13.268,10.073,10.0
145.814,-13.299,14.182,10.0
145.047,-13.211,13.326,11.0
146.905,-13.364,12.704,4.0
144.71,-13.149,11.721,12.0
145.674,-13.221,11.015,13.0
145.785,-13.216,10.242,10.0
146.031,-13.268,14.375,14.0
146.903,-13.329,13.668,13.0
153.807,-13.936,13.48,4.0
144.596,-13.084,11.879,5.0
145.158,-13.118,11.145,13.0
145.859,-13.166,10.414,13.0
146.001,-13.208,14.541,16.0
146.841,-13.264,13.83,13.0
