X,Y,Z,Reflectivity
0.0,0.0,0.0,0.0
0.0,0.0,0.0,0.0
54.887,0.963,1.674,1.0
54.869,0.957,1.355,5.0
0.0,0.0,0.0,0.0
76.585,1.321,3.532,6.0
0.0,0.0,0.0,0.0
54.899,0.933,1.892,4.0
55.081,0.929,1.572,1.0
54.863,0.918,1.246,0.0
43.511,0.723,0.735,0.0
0.0,0.0,0.0,0.0
55.714,0.914,2.134,0.0
55.183,0.898,1.793,0.0
55.279,0.892,1.469,0.0
0.0,0.0,0.0,0.0
0.0,0.0,0.0,0.0
0.0,0.0,0.0,0.0
55.512,0.868,2.017,0.0
0.0,0.0,0.0,0.0
0.0,0.0,0.0,0.0
48.049,0.732,0.903,0.0
37.045,0.559,0.48,0.0
0.0,0.0,0.0,0.0
0.0,0.0,0.0,0.0
55.704,0.82,1.592,0.0
0.0,0.0,0.0,0.0
0.0,0.0,0.0,0.0
34.419,0.491,0.379,0.0
0.0,0.0,0.0,0.0
56.004,0.786,1.817,0.0
56.09,0.779,1.493,2.0
0.0,0.0,0.0,0.0
40.586,0.551,0.605,0.0
33.544,0.451,0.305,0.0
56.346,0.751,2.048,0.0
56.26,0.741,1.717,0.0
57.51,0.749,1.42,2.0
46.736,0.601,0.878,1.0
0.0,0.0,0.0,0.0
0.0,0.0,0.0,0.0
56.567,0.703,1.947,0.0
56.696,0.696,1.621,0.0
57.609,0.698,1.313,1.0
0.0,0.0,0.0,0.0
34.168,0.403,0.378,0.0
28.917,0.336,0.152,4.0
56.882,0.654,1.849,0.0
57.289,0.65,1.529,0.0
0.0,0.0,0.0,0.0
0.0,0.0,0.0,0.0
33.437,0.362,0.306,0.0
28.805,0.307,0.097,5.0
16.458,-1.859,-0.362,0.0
14.916,-1.688,-0.409,0.0
13.922,-1.579,-0.457,0.0
12.822,-1.457,-0.492,0.0
12.111,-1.379,-0.531,0.0
11.472,-1.309,-0.565,0.0
16.669,-1.901,-0.354,0.0
15.292,-1.747,-0.407,0.0
14.074,-1.611,-0.451,0.0
12.931,-1.483,-0.486,0.0
12.251,-1.408,-0.527,0.0
11.576,-1.333,-0.561,0.0
16.938,-1.948,-0.346,0.0
15.291,-1.762,-0.395,0.0
14.162,-1.635,-0.443,0.0
13.122,-1.518,-0.482,0.0
12.317,-1.427,-0.52,0.0
11.598,-1.347,-0.552,0.0
17.131,-1.988,-0.335,0.0
15.56,-1.808,-0.389,0.0
14.298,-1.665,-0.435,0.0
13.233,-1.543,-0.475,0.0
12.395,-1.448,-0.512,0.0
11.717,-1.372,-0.548,0.0
17.496,-2.047,-0.328,0.0
15.901,-1.863,-0.384,0.0
14.57,-1.71,-0.43,0.0
13.5,-1.587,-0.473,0.0
12.604,-1.484,-0.51,0.0
11.847,-1.398,-0.544,0.0
17.677,-2.084,-0.316,0.0
16.13,-1.904,-0.375,0.0
14.682,-1.736,-0.421,0.0
13.703,-1.623,-0.468,0.0
12.651,-1.501,-0.501,0.0
12.009,-1.427,-0.54,0.0
17.938,-2.13,-0.304,0.0
16.434,-1.954,-0.368,0.0
14.874,-1.772,-0.413,0.0
13.852,-1.652,-0.461,0.0
12.88,-1.539,-0.498,0.0
12.141,-1.453,-0.535,0.0
18.492,-2.211,-0.297,0.0
16.671,-1.996,-0.357,0.0
15.238,-1.827,-0.409,0.0
13.903,-1.67,-0.449,0.0
12.977,-1.561,-0.49,0.0
12.204,-1.47,-0.526,0.0
18.923,-2.278,-0.286,0.0
16.95,-2.043,-0.348,0.0
15.316,-1.848,-0.397,0.0
14.14,-1.709,-0.444,0.0
13.203,-1.598,-0.486,0.0
12.335,-1.495,-0.52,0.0
19.349,-2.343,-0.274,0.0
17.166,-2.081,-0.336,0.0
15.734,-1.91,-0.392,0.0
14.39,-1.749,-0.438,0.0
13.328,-1.622,-0.477,0.0
12.476,-1.521,-0.514,0.0
19.662,-2.395,-0.259,0.0
17.543,-2.139,-0.326,0.0
15.981,-1.951,-0.383,0.0
14.617,-1.787,-0.43,0.0
13.529,-1.656,-0.471,0.0
12.627,-1.547,-0.508,0.0
20.053,-2.456,-0.244,0.0
17.807,-2.183,-0.313,0.0
16.196,-1.988,-0.371,0.0
14.8,-1.819,-0.421,0.0
13.728,-1.689,-0.464,0.0
12.785,-1.575,-0.501,0.0
22.166,-2.729,-0.248,0.0
18.246,-2.248,-0.302,0.0
16.588,-2.046,-0.364,0.0
15.016,-1.854,-0.411,0.0
13.945,-1.724,-0.457,0.0
12.982,-1.606,-0.495,0.0
21.979,-2.718,-0.223,3.0
18.717,-2.317,-0.29,0.0
16.873,-2.09,-0.353,0.0
15.405,-1.91,-0.406,0.0
14.105,-1.751,-0.448,0.0
13.062,-1.623,-0.485,0.0
22.141,-2.75,-0.202,8.0
19.3,-2.399,-0.279,0.0
17.219,-2.142,-0.342,0.0
15.606,-1.943,-0.395,0.0
14.339,-1.787,-0.44,0.0
13.349,-1.665,-0.481,0.0
22.278,-2.778,-0.179,6.0
19.626,-2.449,-0.263,0.0
17.501,-2.185,-0.329,0.0
15.883,-1.985,-0.385,0.0
14.637,-1.831,-0.433,0.0
13.557,-1.697,-0.474,0.0
13.612,0.463,-0.479,0.0
12.687,0.433,-0.52,0.0
11.932,0.408,-0.558,0.0
11.136,0.383,-0.587,0.0
10.556,0.364,-0.617,0.0
9.967,0.345,-0.641,0.0
13.314,0.461,-0.493,0.0
12.431,0.432,-0.532,0.0
11.688,0.407,-0.568,0.0
11.016,0.385,-0.601,0.0
10.319,0.362,-0.623,0.0
9.794,0.345,-0.648,0.0
13.006,0.458,-0.506,0.0
12.175,0.43,-0.544,0.0
11.493,0.407,-0.58,0.0
10.659,0.379,-0.601,0.0
10.138,0.361,-0.631,0.0
9.576,0.343,-0.652,0.0
12.734,0.456,-0.519,0.0
11.942,0.428,-0.556,0.0
11.132,0.4,-0.583,0.0
10.515,0.379,-0.613,0.0
0.0,0.0,0.0,0.0
9.448,0.343,-0.661,0.0
12.477,0.453,-0.532,0.0
11.71,0.426,-0.567,0.0
10.929,0.399,-0.593,0.0
10.358,0.379,-0.623,0.0
0.0,0.0,0.0,0.0
0.0,0.0,0.0,0.0
12.207,0.449,-0.543,0.0
11.429,0.421,-0.575,0.0
10.821,0.4,-0.607,0.0
10.143,0.376,-0.629,0.0
9.632,0.358,-0.653,0.0
0.0,0.0,0.0,0.0
11.939,0.444,-0.553,0.0
11.181,0.417,-0.583,0.0
10.568,0.395,-0.612,0.0
9.951,0.373,-0.635,0.0
0.0,0.0,0.0,0.0
8.92,0.336,-0.673,0.0
11.753,0.442,-0.566,0.0
10.997,0.414,-0.593,0.0
10.331,0.39,-0.617,0.0
0.0,0.0,0.0,0.0
0.0,0.0,0.0,0.0
8.872,0.337,-0.686,0.0
11.423,0.433,-0.571,0.0
0.0,0.0,0.0,0.0
10.183,0.388,-0.627,0.0
0.0,0.0,0.0,0.0
0.0,0.0,0.0,0.0
8.726,0.334,-0.691,0.0
11.235,0.43,-0.582,0.0
10.591,0.406,-0.61,0.0
10.023,0.385,-0.636,0.0
0.0,0.0,0.0,0.0
0.0,0.0,0.0,0.0
8.63,0.333,-0.699,0.0
11.017,0.424,-0.591,0.0
10.398,0.401,-0.618,0.0
0.0,0.0,0.0,0.0
0.0,0.0,0.0,0.0
0.0,0.0,0.0,0.0
0.0,0.0,0.0,0.0
10.819,0.419,-0.6,0.0
10.268,0.398,-0.629,0.0
0.0,0.0,0.0,0.0
0.0,0.0,0.0,0.0
0.0,0.0,0.0,0.0
0.0,0.0,0.0,0.0
10.586,0.412,-0.606,0.0
10.068,0.393,-0.635,0.0
9.573,0.374,-0.659,0.0
0.0,0.0,0.0,0.0
8.697,0.341,-0.701,0.0
8.27,0.324,-0.715,0.0
10.44,0.408,-0.616,0.0
0.0,0.0,0.0,0.0
0.0,0.0,0.0,0.0
0.0,0.0,0.0,0.0
0.0,0.0,0.0,0.0
0.0,0.0,0.0,0.0
10.271,0.403,-0.625,0.0
9.659,0.379,-0.644,0.0
0.0,0.0,0.0,0.0
0.0,0.0,0.0,0.0
0.0,0.0,0.0,0.0
0.0,0.0,0.0,0.0
10.128,0.398,-0.634,0.0
9.541,0.375,-0.653,0.0
0.0,0.0,0.0,0.0
0.0,0.0,0.0,0.0
8.314,0.328,-0.715,0.0
0.0,0.0,0.0,0.0
0.0,0.0,0.0,0.0
0.0,0.0,0.0,0.0
0.0,0.0,0.0,0.0
0.0,0.0,0.0,0.0
0.0,0.0,0.0,0.0
0.0,0.0,0.0,0.0
9.787,0.385,-0.646,0.0
0.0,0.0,0.0,0.0
0.0,0.0,0.0,0.0
0.0,0.0,0.0,0.0
0.0,0.0,0.0,0.0
0.0,0.0,0.0,0.0
9.56,0.375,-0.648,0.0
0.0,0.0,0.0,0.0
0.0,0.0,0.0,0.0
0.0,0.0,0.0,0.0
0.0,0.0,0.0,0.0
0.0,0.0,0.0,0.0
9.374,0.367,-0.651,0.0
0.0,0.0,0.0,0.0
0.0,0.0,0.0,0.0
0.0,0.0,0.0,0.0
0.0,0.0,0.0,0.0
7.509,0.295,-0.741,0.0
0.0,0.0,0.0,0.0
0.0,0.0,0.0,0.0
0.0,0.0,0.0,0.0
0.0,0.0,0.0,0.0
0.0,0.0,0.0,0.0
7.427,0.29,-0.746,0.0
0.0,0.0,0.0,0.0
0.0,0.0,0.0,0.0
8.352,0.325,-0.705,0.0
0.0,0.0,0.0,0.0
0.0,0.0,0.0,0.0
7.336,0.286,-0.749,0.0
9.053,0.35,-0.674,0.0
0.0,0.0,0.0,0.0
0.0,0.0,0.0,0.0
0.0,0.0,0.0,0.0
0.0,0.0,0.0,0.0
7.212,0.279,-0.748,0.0
0.0,0.0,0.0,0.0
0.0,0.0,0.0,0.0
0.0,0.0,0.0,0.0
0.0,0.0,0.0,0.0
7.438,0.286,-0.74,0.0
7.151,0.275,-0.753,0.0
0.0,0.0,0.0,0.0
0.0,0.0,0.0,0.0
0.0,0.0,0.0,0.0
0.0,0.0,0.0,0.0
7.376,0.281,-0.745,0.0
7.077,0.27,-0.756,0.0
8.718,0.33,-0.691,0.0
8.346,0.316,-0.71,0.0
0.0,0.0,0.0,0.0
0.0,0.0,0.0,0.0
7.28,0.275,-0.747,0.0
0.0,0.0,0.0,0.0
8.592,0.322,-0.694,0.0
0.0,0.0,0.0,0.0
0.0,0.0,0.0,0.0
0.0,0.0,0.0,0.0
7.208,0.27,-0.751,0.0
0.0,0.0,0.0,0.0
0.0,0.0,0.0,0.0
0.0,0.0,0.0,0.0
0.0,0.0,0.0,0.0
7.395,0.274,-0.738,0.0
7.117,0.264,-0.752,0.0
0.0,0.0,0.0,0.0
8.392,0.308,-0.703,0.0
0.0,0.0,0.0,0.0
0.0,0.0,0.0,0.0
7.365,0.27,-0.746,0.0
0.0,0.0,0.0,0.0
6.791,0.248,-0.767,0.0
8.274,0.3,-0.705,0.0
0.0,0.0,0.0,0.0
0.0,0.0,0.0,0.0
7.239,0.262,-0.744,0.0
0.0,0.0,0.0,0.0
6.749,0.244,-0.773,0.0
0.0,0.0,0.0,0.0
0.0,0.0,0.0,0.0
0.0,0.0,0.0,0.0
7.193,0.257,-0.75,0.0
0.0,0.0,0.0,0.0
0.0,0.0,0.0,0.0
7.978,0.282,-0.703,0.0
0.0,0.0,0.0,0.0
7.388,0.26,-0.737,0.0
0.0,0.0,0.0,0.0
0.0,0.0,0.0,0.0
0.0,0.0,0.0,0.0
22.685,-0.389,-0.182,0.0
19.746,-0.335,-0.261,0.0
17.592,-0.295,-0.324,0.0
16.196,-0.269,-0.384,0.0
14.966,-0.245,-0.432,0.0
13.891,-0.225,-0.473,0.0
23.707,-0.38,-0.148,1.0
20.836,-0.33,-0.238,0.0
18.219,-0.285,-0.302,0.0
16.671,-0.257,-0.365,0.0
15.507,-0.236,-0.42,0.0
14.229,-0.214,-0.459,0.0
24.517,-0.364,-0.109,0.0
21.992,-0.322,-0.212,1.0
19.042,-0.275,-0.283,0.0
17.06,-0.243,-0.343,0.0
15.882,-0.223,-0.402,0.0
14.569,-0.202,-0.445,0.0
25.56,-0.349,-0.069,0.0
23.081,-0.311,-0.182,1.0
19.914,-0.264,-0.261,0.0
17.682,-0.231,-0.325,0.0
16.26,-0.209,-0.384,0.0
14.901,-0.188,-0.429,0.0
26.404,-0.329,-0.026,0.0
23.326,-0.286,-0.144,0.0
20.884,-0.251,-0.237,0.0
18.21,-0.215,-0.304,0.0
16.7,-0.194,-0.365,0.0
15.455,-0.176,-0.419,0.0
27.555,-0.308,0.02,0.0
24.519,-0.269,-0.109,0.0
21.982,-0.237,-0.212,0.0
19.066,-0.201,-0.285,0.0
17.098,-0.177,-0.345,0.0
15.917,-0.161,-0.404,0.0
28.618,-0.284,0.069,2.0
25.556,-0.248,-0.071,0.0
22.673,-0.215,-0.181,0.0
19.878,-0.184,-0.264,0.0
17.647,-0.159,-0.327,0.0
16.267,-0.143,-0.386,0.0
28.796,-0.248,0.117,4.0
26.521,-0.222,-0.029,0.0
23.929,-0.195,-0.151,0.0
20.76,-0.165,-0.242,0.0
18.249,-0.141,-0.308,0.0
16.633,-0.124,-0.367,0.0
31.069,-0.226,0.178,0.0
27.598,-0.194,0.014,0.0
24.655,-0.168,-0.115,0.0
21.865,-0.144,-0.219,1.0
18.972,-0.12,-0.289,0.0
17.05,-0.104,-0.349,0.0
31.769,-0.187,0.234,1.0
28.689,-0.162,0.061,5.0
25.462,-0.138,-0.078,0.0
22.555,-0.117,-0.189,0.0
19.653,-0.097,-0.268,0.0
17.521,-0.082,-0.33,0.0
33.122,-0.148,0.297,1.0
28.817,-0.122,0.108,6.0
26.326,-0.105,-0.038,0.0
23.616,-0.089,-0.16,0.0
20.687,-0.073,-0.248,0.0
18.141,-0.059,-0.313,0.0
34.984,-0.106,0.37,0.0
29.066,-0.081,0.155,0.0
27.146,-0.069,0.003,0.0
24.291,-0.056,-0.126,0.0
21.419,-0.044,-0.223,0.0
18.552,-0.033,-0.29,0.0
36.132,-0.056,0.439,0.0
31.411,-0.041,0.218,0.0
28.555,-0.03,0.048,1.0
25.298,-0.02,-0.092,0.0
22.11,-0.012,-0.196,0.0
19.513,-0.006,-0.276,0.0
0.0,0.0,0.0,0.0
33.172,0.005,0.28,0.0
28.723,0.012,0.092,1.0
26.076,0.017,-0.055,0.0
23.419,0.021,-0.172,1.0
20.605,0.024,-0.26,0.0
0.0,0.0,0.0,0.0
0.0,0.0,0.0,0.0
30.17,0.058,0.142,0.0
26.817,0.059,-0.016,0.0
24.01,0.059,-0.141,0.0
21.207,0.058,-0.236,4.0
0.0,0.0,0.0,0.0
0.0,0.0,0.0,0.0
31.126,0.109,0.193,0.0
27.661,0.104,0.023,0.0
24.77,0.1,-0.109,0.0
21.884,0.094,-0.211,3.0
29.424,3.723,0.099,5.0
25.936,3.28,-0.06,1.0
22.445,2.838,-0.181,0.0
19.607,2.478,-0.272,0.0
17.663,2.232,-0.346,0.0
16.183,2.045,-0.41,0.0
29.183,3.683,0.066,8.0
24.824,3.131,-0.085,0.0
21.659,2.731,-0.198,0.0
19.151,2.414,-0.287,0.0
17.316,2.182,-0.359,0.0
15.897,2.003,-0.42,0.0
28.492,3.585,0.033,2.0
23.918,3.008,-0.108,1.0
21.2,2.665,-0.217,0.0
18.761,2.357,-0.301,0.0
16.992,2.134,-0.37,0.0
15.621,1.961,-0.43,0.0
27.822,3.488,0.003,0.0
23.701,2.97,-0.132,2.0
20.635,2.585,-0.233,0.0
18.354,2.298,-0.314,0.0
16.798,2.102,-0.384,0.0
15.365,1.922,-0.439,0.0
26.335,3.29,-0.025,1.0
23.089,2.883,-0.153,1.0
20.373,2.542,-0.252,0.0
18.06,2.252,-0.329,0.0
16.462,2.052,-0.394,0.0
15.151,1.888,-0.449,0.0
26.051,3.241,-0.052,1.0
22.577,2.807,-0.174,0.0
19.813,2.462,-0.266,0.0
17.665,2.194,-0.34,0.0
16.12,2.001,-0.403,0.0
14.875,1.846,-0.457,0.0
24.856,3.078,-0.076,0.0
22.017,2.725,-0.193,0.0
19.407,2.4,-0.281,0.0
17.378,2.148,-0.353,0.0
15.927,1.968,-0.414,0.0
14.7,1.815,-0.467,0.0
24.091,2.968,-0.098,2.0
21.325,2.626,-0.209,0.0
19.026,2.341,-0.295,0.0
17.103,2.103,-0.365,0.0
15.718,1.932,-0.425,0.0
14.437,1.774,-0.473,0.0
23.87,2.926,-0.122,4.0
20.821,2.55,-0.225,0.0
18.524,2.267,-0.306,0.0
16.849,2.061,-0.377,0.0
15.504,1.895,-0.435,0.0
14.206,1.735,-0.48,0.0
23.454,2.858,-0.143,1.0
20.593,2.508,-0.243,0.0
18.271,2.223,-0.32,0.0
16.596,2.018,-0.387,0.0
15.223,1.85,-0.442,0.0
13.963,1.696,-0.486,0.0
22.763,2.757,-0.162,0.0
20.076,2.43,-0.257,0.0
17.868,2.161,-0.331,0.0
16.243,1.963,-0.395,0.0
15.032,1.815,-0.451,0.0
13.774,1.662,-0.492,0.0
22.021,2.65,-0.178,0.0
19.543,2.35,-0.269,0.0
17.562,2.11,-0.342,0.0
15.97,1.917,-0.404,0.0
14.762,1.771,-0.458,0.0
13.636,1.635,-0.5,0.0
21.615,2.584,-0.195,0.0
19.245,2.298,-0.283,0.0
17.254,2.059,-0.352,0.0
15.838,1.888,-0.415,0.0
14.584,1.737,-0.466,0.0
13.475,1.604,-0.507,0.0
21.144,2.509,-0.21,0.0
18.856,2.235,-0.295,0.0
17.052,2.02,-0.364,0.0
15.582,1.844,-0.423,0.0
14.398,1.702,-0.473,0.0
13.313,1.573,-0.513,0.0
20.787,2.448,-0.226,0.0
18.493,2.175,-0.306,0.0
16.808,1.975,-0.374,0.0
15.353,1.803,-0.431,0.0
14.149,1.66,-0.477,0.0
13.212,1.548,-0.521,0.0
20.419,2.385,-0.24,0.0
18.237,2.128,-0.318,0.0
16.61,1.936,-0.384,0.0
15.255,1.777,-0.441,0.0
13.999,1.629,-0.485,0.0
13.015,1.513,-0.525,0.0
20.228,2.343,-0.255,0.0
17.88,2.069,-0.327,0.0
16.354,1.89,-0.392,0.0
15.016,1.734,-0.447,0.0
13.801,1.592,-0.489,0.0
12.907,1.487,-0.531,0.0
19.858,2.28,-0.267,0.0
17.595,2.018,-0.337,0.0
16.106,1.845,-0.4,0.0
14.84,1.698,-0.454,0.0
13.686,1.564,-0.497,0.0
12.724,1.453,-0.534,0.0
19.334,2.199,-0.276,0.0
17.373,1.974,-0.346,0.0
15.96,1.811,-0.409,0.0
14.604,1.655,-0.459,0.0
13.529,1.532,-0.502,0.0
12.622,1.428,-0.54,0.0
19.008,2.141,-0.286,0.0
17.161,1.931,-0.356,0.0
15.783,1.774,-0.417,0.0
14.351,1.611,-0.462,0.0
13.465,1.51,-0.51,0.0
12.541,1.404,-0.546,0.0
18.694,2.085,-0.296,0.0
16.941,1.887,-0.364,0.0
15.545,1.729,-0.422,0.0
14.334,1.592,-0.472,0.0
13.295,1.475,-0.513,0.0
12.499,1.385,-0.554,0.0
18.473,2.039,-0.306,0.0
16.787,1.85,-0.373,0.0
15.359,1.69,-0.429,0.0
14.113,1.551,-0.475,0.0
13.155,1.444,-0.518,0.0
12.424,1.362,-0.56,0.0
18.226,1.989,-0.315,0.0
16.578,1.807,-0.38,0.0
15.227,1.657,-0.435,0.0
14.074,1.53,-0.484,0.0
13.063,1.418,-0.523,0.0
12.221,1.325,-0.559,0.0
17.848,1.926,-0.32,0.0
16.279,1.754,-0.384,0.0
15.073,1.622,-0.441,0.0
13.801,1.483,-0.484,0.0
12.892,1.383,-0.525,0.0
12.159,1.302,-0.564,0.0
17.651,1.882,-0.328,0.0
16.118,1.716,-0.391,0.0
14.919,1.586,-0.447,0.0
13.713,1.455,-0.489,0.0
12.862,1.363,-0.532,0.0
12.084,1.279,-0.568,0.0
17.515,1.845,-0.337,0.0
16.022,1.685,-0.399,0.0
14.782,1.552,-0.451,0.0
13.658,1.432,-0.496,0.0
12.711,1.33,-0.533,0.0
12.015,1.256,-0.572,0.0
17.332,1.802,-0.344,0.0
15.944,1.655,-0.406,0.0
14.661,1.519,-0.456,0.0
13.51,1.398,-0.498,0.0
12.611,1.303,-0.536,0.0
11.877,1.225,-0.572,0.0
17.177,1.763,-0.35,0.0
15.776,1.616,-0.411,0.0
14.456,1.478,-0.458,0.0
13.425,1.37,-0.502,0.0
12.591,1.283,-0.542,0.0
11.879,1.208,-0.579,0.0
17.019,1.722,-0.356,0.0
15.683,1.584,-0.417,0.0
14.327,1.445,-0.461,0.0
13.327,1.341,-0.506,0.0
12.527,1.259,-0.546,0.0
11.738,1.177,-0.578,0.0
16.852,1.681,-0.361,0.0
15.574,1.551,-0.421,0.0
14.248,1.416,-0.466,0.0
13.354,1.325,-0.513,0.0
12.464,1.234,-0.549,0.0
11.68,1.155,-0.581,0.0
16.718,1.644,-0.366,0.0
15.46,1.517,-0.425,0.0
14.204,1.391,-0.471,0.0
13.175,1.288,-0.512,0.0
12.375,1.207,-0.551,0.0
11.594,1.129,-0.581,0.0
16.613,1.608,-0.371,0.0
15.291,1.477,-0.427,0.0
14.092,1.359,-0.473,0.0
13.083,1.259,-0.514,0.0
12.284,1.18,-0.552,0.0
11.549,1.107,-0.584,0.0
16.503,1.573,-0.375,0.0
15.177,1.443,-0.43,0.0
13.995,1.328,-0.475,0.0
13.042,1.235,-0.517,0.0
12.229,1.156,-0.554,0.0
11.54,1.088,-0.588,0.0
16.423,1.54,-0.379,0.0
15.097,1.412,-0.433,0.0
13.952,1.302,-0.479,0.0
13.018,1.212,-0.521,0.0
12.237,1.137,-0.558,0.0
11.473,1.064,-0.588,0.0
16.269,1.499,-0.381,0.0
15.083,1.387,-0.438,0.0
13.915,1.276,-0.482,0.0
12.975,1.188,-0.523,0.0
12.158,1.11,-0.559,0.0
11.405,1.039,-0.588,0.0
16.197,1.467,-0.384,0.0
14.95,1.351,-0.438,0.0
13.822,1.246,-0.482,0.0
12.907,1.16,-0.524,0.0
12.154,1.09,-0.562,0.0
11.391,1.02,-0.59,0.0
16.123,1.434,-0.386,0.0
14.887,1.321,-0.44,0.0
13.788,1.22,-0.485,0.0
12.832,1.133,-0.524,0.0
12.108,1.066,-0.562,0.0
11.374,0.999,-0.592,0.0
16.078,1.404,-0.389,0.0
14.924,1.3,-0.444,0.0
13.717,1.191,-0.485,0.0
12.771,1.106,-0.524,0.0
12.089,1.045,-0.564,0.0
11.37,0.98,-0.594,0.0
16.046,1.374,-0.391,0.0
14.821,1.266,-0.444,0.0
13.668,1.164,-0.486,0.0
12.754,1.084,-0.526,0.0
12.086,1.024,-0.565,0.0
11.328,0.958,-0.593,0.0
16.037,1.347,-0.393,0.0
14.804,1.24,-0.445,0.0
13.629,1.138,-0.486,0.0
12.786,1.065,-0.528,0.0
12.039,1.0,-0.565,0.0
11.332,0.939,-0.595,0.0
16.029,1.319,-0.394,0.0
14.752,1.211,-0.445,0.0
13.6,1.113,-0.486,0.0
12.73,1.039,-0.527,0.0
12.046,0.98,-0.566,0.0
11.305,0.917,-0.594,0.0
15.984,1.288,-0.394,0.0
14.798,1.189,-0.447,0.0
13.594,1.089,-0.487,0.0
12.731,1.017,-0.528,0.0
12.052,0.96,-0.567,0.0
11.283,0.896,-0.593,0.0
15.931,1.256,-0.394,0.0
14.734,1.158,-0.446,0.0
13.617,1.067,-0.488,0.0
12.703,0.992,-0.527,0.0
12.029,0.937,-0.566,0.0
11.278,0.876,-0.593,0.0
15.959,1.231,-0.394,0.0
14.665,1.127,-0.444,0.0
13.637,1.045,-0.488,0.0
12.665,0.967,-0.525,0.0
12.045,0.917,-0.566,0.0
11.299,0.857,-0.594,0.0
15.933,1.2,-0.393,0.0
14.7,1.104,-0.444,0.0
13.607,1.019,-0.486,0.0
12.704,0.948,-0.526,0.0
12.01,0.893,-0.564,0.0
11.307,0.838,-0.593,0.0
15.958,1.174,-0.392,0.0
14.792,1.085,-0.445,0.0
13.672,0.999,-0.487,0.0
12.724,0.926,-0.525,0.0
12.061,0.875,-0.564,0.0
11.319,0.818,-0.593,0.0
16.031,1.151,-0.392,0.0
14.775,1.056,-0.443,0.0
13.739,0.979,-0.487,0.0
12.773,0.907,-0.525,0.0
12.082,0.854,-0.564,0.0
11.302,0.796,-0.59,0.0
16.011,1.12,-0.389,0.0
14.79,1.03,-0.44,0.0
13.752,0.954,-0.485,0.0
12.763,0.883,-0.522,0.0
12.123,0.835,-0.563,0.0
11.363,0.78,-0.591,0.0
16.051,1.093,-0.386,0.0
14.772,1.002,-0.437,0.0
13.818,0.934,-0.485,0.0
12.836,0.864,-0.522,0.0
12.095,0.811,-0.559,0.0
11.326,0.757,-0.586,0.0
16.171,1.072,-0.385,0.0
14.925,0.986,-0.438,0.0
13.798,0.908,-0.48,0.0
12.875,0.843,-0.521,0.0
12.127,0.791,-0.557,0.0
11.399,0.741,-0.586,0.0
16.105,1.038,-0.379,0.0
14.968,0.961,-0.434,0.0
13.897,0.888,-0.48,0.0
12.889,0.82,-0.517,0.0
12.178,0.772,-0.556,0.0
11.409,0.72,-0.583,0.0
16.248,1.018,-0.377,0.0
15.0,0.935,-0.43,0.0
13.977,0.868,-0.478,0.0
13.007,0.804,-0.517,0.0
12.214,0.752,-0.553,0.0
11.511,0.705,-0.584,0.0
16.386,0.996,-0.374,0.0
15.089,0.913,-0.427,0.0
13.928,0.839,-0.471,0.0
12.971,0.778,-0.511,0.0
12.342,0.737,-0.554,0.0
11.552,0.686,-0.582,0.0
16.522,0.974,-0.371,0.0
15.241,0.894,-0.425,0.0
13.985,0.816,-0.467,0.0
13.105,0.761,-0.51,0.0
12.351,0.714,-0.549,0.0
11.596,0.667,-0.579,0.0
16.569,0.945,-0.364,0.0
15.354,0.872,-0.421,0.0
14.086,0.796,-0.463,0.0
13.103,0.737,-0.504,0.0
12.397,0.693,-0.545,0.0
11.649,0.648,-0.576,0.0
16.67,0.92,-0.358,0.0
15.434,0.848,-0.416,0.0
14.196,0.776,-0.46,0.0
13.248,0.72,-0.503,0.0
12.467,0.674,-0.541,0.0
11.691,0.629,-0.572,0.0
16.813,0.897,-0.352,0.0
15.63,0.829,-0.413,0.0
14.293,0.754,-0.455,0.0
13.294,0.698,-0.497,0.0
12.476,0.651,-0.535,0.0
11.813,0.613,-0.571,0.0
16.935,0.872,-0.345,0.0
15.708,0.804,-0.406,0.0
14.48,0.737,-0.453,0.0
13.41,0.679,-0.494,0.0
12.603,0.635,-0.533,0.0
11.882,0.595,-0.567,0.0
17.047,0.846,-0.337,0.0
15.833,0.781,-0.399,0.0
14.692,0.721,-0.45,0.0
13.503,0.658,-0.489,0.0
12.719,0.617,-0.53,0.0
11.929,0.575,-0.562,0.0
17.179,0.82,-0.329,0.0
15.932,0.756,-0.391,0.0
14.737,0.695,-0.442,0.0
13.619,0.639,-0.484,0.0
12.778,0.596,-0.523,0.0
12.038,0.558,-0.558,0.0
17.441,0.8,-0.322,0.0
16.033,0.731,-0.383,0.0
14.791,0.67,-0.433,0.0
13.76,0.62,-0.479,0.0
12.87,0.576,-0.518,0.0
12.146,0.54,-0.554,0.0
17.789,0.783,-0.315,0.0
16.283,0.712,-0.377,0.0
15.038,0.654,-0.429,0.0
13.892,0.6,-0.473,0.0
12.953,0.555,-0.511,0.0
12.271,0.523,-0.551,0.0
17.954,0.757,-0.305,0.0
16.516,0.692,-0.369,0.0
15.165,0.631,-0.421,0.0
14.021,0.579,-0.467,0.0
13.103,0.538,-0.507,0.0
12.386,0.505,-0.546,0.0
18.176,0.733,-0.294,0.0
16.702,0.669,-0.36,0.0
15.404,0.613,-0.415,0.0
14.164,0.559,-0.46,0.0
13.297,0.521,-0.503,0.0
12.415,0.483,-0.537,0.0
18.487,0.712,-0.283,0.0
16.853,0.644,-0.349,0.0
15.609,0.592,-0.407,0.0
14.294,0.538,-0.451,0.0
13.337,0.498,-0.493,0.0
12.56,0.465,-0.532,0.0
19.297,0.708,-0.279,0.0
17.085,0.621,-0.339,0.0
15.753,0.569,-0.397,0.0
14.543,0.521,-0.446,0.0
13.576,0.482,-0.49,0.0
12.738,0.449,-0.528,0.0
19.46,0.678,-0.263,0.0
17.282,0.597,-0.327,0.0
16.001,0.548,-0.388,0.0
14.732,0.501,-0.438,0.0
13.815,0.465,-0.485,0.0
12.838,0.429,-0.52,0.0
19.932,0.658,-0.251,0.0
17.641,0.578,-0.316,0.0
16.23,0.527,-0.378,0.0
14.898,0.479,-0.429,0.0
13.874,0.442,-0.474,0.0
13.003,0.411,-0.514,0.0
20.369,0.636,-0.236,0.0
17.976,0.556,-0.305,0.0
16.475,0.505,-0.367,0.0
15.042,0.457,-0.418,0.0
14.039,0.422,-0.465,0.0
13.152,0.392,-0.506,0.0
20.945,0.617,-0.221,1.0
18.338,0.535,-0.292,0.0
16.725,0.483,-0.355,0.0
15.468,0.442,-0.413,0.0
14.232,0.403,-0.456,0.0
13.323,0.373,-0.498,0.0
21.713,0.601,-0.206,0.0
18.776,0.514,-0.279,0.0
16.952,0.459,-0.342,0.0
15.673,0.42,-0.402,0.0
14.457,0.384,-0.448,0.0
13.516,0.355,-0.491,0.0
22.199,0.575,-0.187,0.0
19.398,0.497,-0.266,0.0
17.235,0.437,-0.329,0.0
15.9,0.398,-0.39,0.0
14.692,0.364,-0.438,0.0
13.705,0.335,-0.482,0.0
22.91,0.553,-0.166,0.0
19.936,0.476,-0.251,0.0
17.698,0.417,-0.317,0.0
16.256,0.379,-0.379,0.0
14.983,0.345,-0.429,0.0
13.847,0.315,-0.471,0.0
23.535,0.527,-0.143,0.0
20.463,0.453,-0.233,0.0
18.071,0.395,-0.302,0.0
16.54,0.357,-0.366,0.0
15.28,0.325,-0.42,0.0
14.109,0.296,-0.462,0.0
24.147,0.499,-0.118,0.0
21.525,0.439,-0.219,0.0
18.503,0.372,-0.287,0.0
16.796,0.333,-0.351,0.0
15.649,0.306,-0.41,0.0
14.368,0.277,-0.453,0.0
24.827,0.471,-0.09,0.0
22.047,0.412,-0.197,0.0
19.085,0.351,-0.272,0.0
17.119,0.31,-0.336,0.0
15.866,0.283,-0.396,0.0
14.625,0.257,-0.443,0.0
25.543,0.441,-0.061,0.0
22.743,0.387,-0.175,0.0
19.786,0.331,-0.256,0.0
17.525,0.288,-0.322,0.0
16.153,0.261,-0.382,0.0
14.95,0.238,-0.433,0.0
26.265,0.41,-0.028,0.0
23.5,0.361,-0.15,0.0
20.459,0.308,-0.238,0.0
18.009,0.267,-0.307,0.0
16.525,0.24,-0.369,0.0
15.252,0.217,-0.421,0.0
26.942,0.376,0.006,0.0
24.256,0.333,-0.122,1.0
21.627,0.29,-0.223,1.0
18.579,0.245,-0.291,0.0
16.813,0.217,-0.353,0.0
15.594,0.197,-0.409,0.0
27.973,0.345,0.044,0.0
24.914,0.301,-0.091,0.0
21.96,0.259,-0.196,2.0
19.012,0.219,-0.272,0.0
17.126,0.193,-0.335,0.0
15.872,0.174,-0.394,0.0
28.788,0.309,0.086,5.0
25.661,0.268,-0.057,0.0
22.601,0.23,-0.17,0.0
19.879,0.198,-0.256,0.0
17.598,0.17,-0.319,0.0
16.241,0.153,-0.381,0.0
28.875,0.264,0.127,5.0
26.465,0.235,-0.021,0.0
23.689,0.204,-0.144,0.0
20.886,0.175,-0.239,0.0
18.227,0.148,-0.304,0.0
16.567,0.13,-0.364,0.0
28.9,0.22,0.17,0.0
27.249,0.2,0.017,0.0
24.561,0.174,-0.113,0.0
21.578,0.147,-0.215,2.0
18.778,0.123,-0.286,0.0
16.938,0.107,-0.347,0.0
31.753,0.193,0.234,0.0
28.421,0.165,0.06,1.0
25.285,0.14,-0.079,0.0
22.286,0.118,-0.188,1.0
19.556,0.098,-0.268,0.0
17.378,0.083,-0.329,0.0
33.469,0.152,0.297,0.0
28.724,0.123,0.104,1.0
26.075,0.106,-0.041,0.0
23.182,0.088,-0.16,1.0
20.619,0.073,-0.251,0.0
17.946,0.059,-0.312,0.0
34.774,0.106,0.363,0.0
30.353,0.085,0.157,0.0
26.917,0.069,-0.001,0.0
24.04,0.056,-0.129,1.0
21.172,0.044,-0.224,4.0
18.464,0.034,-0.292,0.0
36.35,0.058,0.436,0.0
30.497,0.041,0.206,0.0
27.996,0.031,0.043,1.0
25.065,0.022,-0.095,0.0
21.902,0.014,-0.197,0.0
19.247,0.007,-0.274,0.0
0.0,0.0,0.0,0.0
0.0,0.0,0.0,0.0
28.74,-0.008,0.09,1.0
25.824,-0.013,-0.056,0.0
23.247,-0.017,-0.172,0.0
20.136,-0.02,-0.254,0.0
39.756,-0.049,0.605,0.0
33.267,-0.048,0.333,0.0
28.862,-0.048,0.138,3.0
26.67,-0.051,-0.014,0.0
23.848,-0.051,-0.137,0.0
20.94,-0.049,-0.23,0.0
0.0,0.0,0.0,0.0
35.873,-0.101,0.417,0.0
31.335,-0.095,0.201,1.0
27.682,-0.091,0.031,1.0
24.93,-0.087,-0.101,0.0
21.922,-0.081,-0.204,0.0
0.0,0.0,0.0,0.0
0.0,0.0,0.0,0.0
32.126,-0.141,0.26,1.0
28.739,-0.132,0.08,6.0
25.797,-0.124,-0.062,0.0
22.963,-0.116,-0.175,0.0
0.0,0.0,0.0,0.0
0.0,0.0,0.0,0.0
33.291,-0.19,0.327,0.0
28.834,-0.171,0.13,5.0
26.611,-0.163,-0.018,0.0
24.007,-0.152,-0.141,0.0
0.0,0.0,0.0,0.0
0.0,0.0,0.0,0.0
0.0,0.0,0.0,0.0
31.383,-0.225,0.195,1.0
27.897,-0.206,0.028,0.0
24.705,-0.187,-0.103,0.0
0.0,0.0,0.0,0.0
0.0,0.0,0.0,0.0
37.874,-0.311,0.503,0.0
32.4,-0.273,0.258,1.0
28.705,-0.247,0.079,6.0
25.664,-0.226,-0.061,0.0
0.0,0.0,0.0,0.0
0.0,0.0,0.0,0.0
0.0,0.0,0.0,0.0
33.295,-0.321,0.324,0.0
28.863,-0.284,0.131,1.0
26.762,-0.268,-0.017,0.0
83.592,-0.855,2.275,1.0
0.0,0.0,0.0,0.0
43.261,-0.459,0.727,0.0
35.854,-0.387,0.413,0.0
31.322,-0.344,0.198,0.0
27.904,-0.312,0.032,0.0
84.71,-0.964,2.456,2.0
0.0,0.0,0.0,0.0
0.0,0.0,0.0,0.0
0.0,0.0,0.0,0.0
32.554,-0.395,0.264,1.0
28.652,-0.353,0.084,1.0
89.867,-1.124,2.768,4.0
0.0,0.0,0.0,0.0
0.0,0.0,0.0,0.0
0.0,0.0,0.0,0.0
33.962,-0.449,0.337,0.0
28.816,-0.386,0.137,0.0
96.654,-1.315,3.155,2.0
0.0,0.0,0.0,0.0
0.0,0.0,0.0,0.0
43.623,-0.616,0.741,0.0
0.0,0.0,0.0,0.0
31.575,-0.457,0.209,0.0
0.0,0.0,0.0,0.0
86.873,-1.289,2.545,1.0
64.18,-0.963,1.547,0.0
47.77,-0.724,0.899,0.0
0.0,0.0,0.0,0.0
0.0,0.0,0.0,0.0
0.0,0.0,0.0,0.0
96.749,-1.534,3.014,5.0
0.0,0.0,0.0,0.0
0.0,0.0,0.0,0.0
0.0,0.0,0.0,0.0
34.122,-0.562,0.352,1.0
0.0,0.0,0.0,0.0
96.987,-1.632,3.201,18.0
0.0,0.0,0.0,0.0
0.0,0.0,0.0,0.0
0.0,0.0,0.0,0.0
0.0,0.0,0.0,0.0
0.0,0.0,0.0,0.0
96.986,-1.723,3.383,27.0
89.338,-1.6,2.654,2.0
0.0,0.0,0.0,0.0
48.541,-0.883,0.935,0.0
0.0,0.0,0.0,0.0
194.283,-3.603,8.156,6.0
96.958,-1.812,3.568,43.0
96.849,-1.823,3.063,11.0
0.0,0.0,0.0,0.0
0.0,0.0,0.0,0.0
41.872,-0.805,0.67,0.0
96.915,-1.883,4.254,2.0
96.931,-1.895,3.752,47.0
96.936,-1.909,3.252,20.0
80.337,-1.593,2.271,1.0
0.0,0.0,0.0,0.0
45.962,-0.923,0.823,0.0
96.921,-1.964,4.439,10.0
96.917,-1.976,3.937,48.0
97.004,-1.989,3.437,14.0
91.062,-1.879,2.747,1.0
0.0,0.0,0.0,0.0
0.0,0.0,0.0,0.0
96.844,-2.04,4.622,21.0
96.88,-2.052,4.121,45.0
128.504,-2.736,4.8,9.0
96.772,-2.072,3.105,6.0
0.0,0.0,0.0,0.0
0.0,0.0,0.0,0.0
96.822,-2.113,4.807,33.0
96.873,-2.125,4.308,43.0
128.408,-2.832,5.045,34.0
128.177,-2.84,4.36,7.0
92.22,-2.053,2.66,1.0
0.0,0.0,0.0,0.0
96.787,-2.182,4.99,31.0
96.85,-2.194,4.492,35.0
128.402,-2.922,5.292,29.0
128.352,-2.934,4.613,27.0
96.784,-2.222,2.978,3.0
0.0,0.0,0.0,0.0
96.775,-2.249,5.178,16.0
96.822,-2.259,4.679,22.0
171.649,-4.022,7.406,7.0
128.441,-3.022,4.865,11.0
96.96,-2.289,3.17,2.0
0.0,0.0,0.0,0.0
88.413,-2.112,4.902,15.0
96.845,-2.322,4.868,19.0
171.68,-4.131,7.739,33.0
171.616,-4.145,6.833,31.0
128.312,-3.11,4.446,7.0
93.808,-2.281,2.765,1.0
88.476,-2.168,5.078,24.0
96.874,-2.381,5.057,16.0
171.688,-4.233,8.074,34.0
171.617,-4.245,7.165,31.0
166.066,-4.121,6.075,150.0
96.803,-2.409,3.041,5.0
88.452,-2.217,5.248,26.0
96.828,-2.434,5.244,16.0
171.7,-4.33,8.41,27.0
171.729,-4.343,7.507,16.0
0.0,0.0,0.0,0.0
92.462,-2.351,3.085,150.0
88.351,-2.262,5.415,29.0
96.753,-2.483,5.427,22.0
171.539,-4.414,8.735,18.0
189.692,-4.894,8.659,15.0
170.436,-4.408,6.9,5.0
92.441,-2.396,3.263,161.0
88.195,-2.302,5.578,25.0
96.739,-2.53,5.617,13.0
171.38,-4.493,9.064,24.0
189.587,-4.979,9.023,21.0
190.084,-5.003,8.062,17.0
92.486,-2.44,3.445,10.0
88.073,-2.338,5.741,18.0
88.324,-2.349,5.299,11.0
99.181,-2.642,5.434,11.0
189.369,-5.055,9.377,19.0
190.024,-5.082,8.424,12.0
92.504,-2.477,3.621,4.0
76.579,-2.064,5.139,10.0
96.596,-2.608,5.981,13.0
96.973,-2.622,5.5,16.0
189.724,-5.138,9.758,6.0
189.773,-5.147,8.779,21.0
92.694,-2.518,3.809,1.0
88.432,-2.417,6.106,17.0
88.126,-2.412,5.626,16.0
97.054,-2.659,5.692,16.0
99.128,-2.719,5.29,18.0
189.48,-5.204,9.131,20.0
190.116,-5.227,8.179,13.0
88.484,-2.449,6.281,10.0
76.573,-2.12,5.037,8.0
96.767,-2.682,5.862,7.0
96.941,-2.69,5.36,18.0
189.65,-5.265,9.503,16.0
189.955,-5.279,8.535,18.0
76.896,-2.15,5.607,25.0
88.375,-2.473,5.984,13.0
96.837,-2.711,6.052,10.0
97.059,-2.719,5.552,14.0
99.251,-2.782,5.163,10.0
189.644,-5.318,8.881,20.0
76.879,-2.169,5.752,7.0
88.516,-2.499,6.163,12.0
96.974,-2.738,6.247,10.0
97.222,-2.746,5.747,7.0
96.952,-2.739,5.228,17.0
189.643,-5.361,9.243,21.0
86.416,-2.457,6.632,8.0
76.999,-2.189,5.508,19.0
76.586,-2.178,5.079,9.0
99.457,-2.828,6.069,5.0
96.952,-2.757,5.412,20.0
189.494,-5.389,9.596,18.0
80.711,-2.309,6.347,26.0
76.906,-2.2,5.646,13.0
88.342,-2.526,6.026,18.0
96.966,-2.772,6.099,12.0
97.217,-2.779,5.608,9.0
96.929,-2.77,5.089,6.0
80.734,-2.321,6.502,10.0
87.582,-2.516,6.595,6.0
88.365,-2.538,6.194,13.0
88.348,-2.536,5.724,10.0
99.487,-2.854,5.926,7.0
96.944,-2.78,5.271,25.0
85.787,-2.475,7.069,11.0
80.697,-2.326,6.228,11.0
76.987,-2.217,5.54,19.0
88.028,-2.533,5.866,13.0
99.169,-2.852,6.092,5.0
97.006,-2.787,5.455,17.0
66.504,-1.922,5.605,12.0
80.706,-2.331,6.379,18.0
76.871,-2.217,5.674,8.0
88.355,-2.546,6.052,21.0
96.978,-2.792,6.136,11.0
97.318,-2.798,5.651,8.0
66.371,-1.92,5.716,43.0
86.016,-2.485,6.958,6.0
96.763,-2.792,7.322,11.0
88.081,-2.537,6.196,12.0
88.407,-2.543,5.758,11.0
99.517,-2.86,5.962,9.0
65.798,-1.902,5.789,16.0
85.832,-2.477,7.1,7.0
80.686,-2.325,6.252,14.0
76.977,-2.215,5.555,24.0
88.18,-2.533,5.902,13.0
99.12,-2.843,6.116,4.0
0.0,0.0,0.0,0.0
66.494,-1.915,5.622,16.0
80.704,-2.319,6.401,19.0
87.687,-2.516,6.487,8.0
88.477,-2.534,6.082,17.0
96.924,-2.77,6.157,15.0
67.479,-1.94,6.182,24.0
66.253,-1.901,5.722,41.0
80.709,-2.311,6.547,5.0
86.42,-2.469,6.548,6.0
77.085,-2.198,5.437,10.0
88.393,-2.516,5.772,10.0
66.566,-1.905,6.219,8.0
65.777,-1.878,5.798,25.0
77.057,-2.195,6.388,20.0
80.724,-2.294,6.26,22.0
76.915,-2.18,5.561,27.0
88.367,-2.499,5.927,11.0
66.368,-1.888,6.318,19.0
65.772,-1.866,5.915,17.0
66.465,-1.88,5.627,13.0
80.715,-2.278,6.402,27.0
76.845,-2.163,5.691,13.0
88.46,-2.484,6.088,16.0
66.132,-1.867,6.412,14.0
66.728,-1.879,6.117,15.0
66.087,-1.856,5.71,41.0
80.596,-2.256,6.531,11.0
91.409,-2.552,6.927,5.0
88.504,-2.464,6.242,10.0
64.092,-1.794,6.324,40.0
66.522,-1.857,6.211,30.0
65.783,-1.83,5.796,33.0
80.57,-2.234,6.665,14.0
80.729,-2.232,6.254,11.0
76.894,-2.119,5.553,18.0
64.41,-1.785,6.465,31.0
66.326,-1.832,6.306,41.0
65.927,-1.815,5.92,35.0
67.02,-1.838,5.657,19.0
76.595,-2.094,6.062,7.0
76.91,-2.096,5.682,20.0
64.454,-1.765,6.578,26.0
63.823,-1.742,6.175,8.0
66.324,-1.804,6.066,36.0
66.567,-1.804,5.729,42.0
76.639,-2.069,6.192,19.0
87.802,-2.362,6.631,11.0
64.577,-1.747,6.698,29.0
63.976,-1.723,6.296,39.0
66.313,-1.779,6.174,27.0
65.998,-1.764,5.788,34.0
80.577,-2.145,6.641,14.0
81.64,-2.165,6.298,7.0
64.719,-1.725,6.818,26.0
64.15,-1.703,6.416,33.0
66.394,-1.755,6.289,34.0
65.903,-1.735,5.886,35.0
76.996,-2.018,6.469,11.0
76.605,-1.999,6.032,10.0
64.711,-1.698,6.921,32.0
64.348,-1.681,6.539,37.0
66.223,-1.722,6.378,7.0
66.017,-1.709,6.001,35.0
66.779,-1.721,5.716,40.0
76.62,-1.966,6.153,21.0
64.746,-1.669,7.027,31.0
64.567,-1.657,6.664,36.0
64.13,-1.638,6.277,34.0
66.164,-1.681,6.118,33.0
66.449,-1.681,5.791,42.0
76.622,-1.929,6.272,14.0
64.848,-1.64,7.14,34.0
64.537,-1.624,6.76,31.0
64.052,-1.604,6.368,28.0
66.278,-1.65,6.23,29.0
66.048,-1.636,5.857,34.0
77.041,-1.899,6.423,19.0
64.898,-1.608,7.245,34.0
64.525,-1.589,6.858,30.0
64.4,-1.578,6.5,32.0
63.894,-1.557,6.102,16.0
65.904,-1.597,5.942,28.0
76.448,-1.842,6.487,15.0
75.522,-1.829,8.544,11.0
64.471,-1.552,6.948,29.0
64.707,-1.549,6.627,29.0
63.922,-1.521,6.198,33.0
65.94,-1.56,6.042,26.0
67.197,-1.58,5.8,6.0
75.399,-1.782,8.64,31.0
65.167,-1.531,7.117,33.0
64.584,-1.508,6.707,37.0
63.93,-1.483,6.291,32.0
63.439,-1.463,5.904,14.0
67.166,-1.539,5.893,5.0
74.851,-1.723,8.685,13.0
65.293,-1.493,7.225,27.0
64.257,-1.46,6.765,32.0
64.372,-1.453,6.425,40.0
63.477,-1.423,5.996,24.0
67.088,-1.494,5.98,11.0
74.596,-1.668,8.76,19.0
65.376,-1.453,7.325,24.0
64.322,-1.419,6.861,28.0
64.746,-1.418,6.551,40.0
63.657,-1.385,6.1,20.0
66.944,-1.447,6.057,34.0
74.487,-1.616,8.849,16.0
65.379,-1.408,7.415,32.0
64.526,-1.38,6.97,29.0
64.682,-1.373,6.632,34.0
63.997,-1.348,6.219,25.0
63.448,-1.326,5.826,9.0
74.43,-1.562,8.943,16.0
65.172,-1.357,7.478,19.0
65.048,-1.344,7.112,25.0
64.494,-1.322,6.698,34.0
64.033,-1.302,6.306,33.0
63.572,-1.282,5.92,22.0
74.329,-1.505,9.029,32.0
65.096,-1.307,7.554,16.0
65.064,-1.296,7.199,29.0
64.396,-1.272,6.77,30.0
64.218,-1.257,6.406,31.0
63.593,-1.235,6.001,30.0
73.979,-1.442,9.08,28.0
74.319,-1.436,8.718,20.0
65.09,-1.247,7.282,34.0
64.581,-1.226,6.87,19.0
64.562,-1.214,6.519,38.0
63.608,-1.186,6.08,31.0
74.05,-1.385,9.179,12.0
74.428,-1.379,8.821,32.0
65.329,-1.199,7.388,40.0
58.869,-1.07,6.333,17.0
64.605,-1.164,6.6,20.0
64.002,-1.142,6.193,25.0
58.714,-1.05,7.348,22.0
74.492,-1.32,8.917,8.0
68.204,-1.196,7.793,13.0
58.853,-1.022,6.399,23.0
58.926,-1.013,6.088,14.0
64.299,-1.094,6.296,29.0
58.474,-0.997,7.386,34.0
60.077,-1.014,7.26,10.0
68.32,-1.14,7.884,18.0
57.328,-0.947,6.298,17.0
58.924,-0.963,6.154,24.0
64.32,-1.039,6.369,30.0
64.242,-1.04,8.186,13.0
74.489,-1.193,9.084,10.0
0.0,0.0,0.0,0.0
65.106,-1.018,7.224,31.0
58.909,-0.91,6.216,32.0
64.297,-0.983,6.436,17.0
64.252,-0.984,8.257,14.0
58.423,-0.883,7.188,30.0
60.034,-0.897,7.057,5.0
65.267,-0.963,7.31,28.0
57.576,-0.839,6.135,24.0
64.289,-0.926,6.501,7.0
64.233,-0.925,8.321,14.0
58.145,-0.826,7.213,29.0
60.024,-0.842,7.117,20.0
64.132,-0.888,7.247,11.0
57.442,-0.785,6.178,15.0
59.054,-0.796,6.03,25.0
62.449,-0.842,8.152,12.0
58.062,-0.772,7.26,32.0
60.034,-0.787,7.177,24.0
63.789,-0.824,7.27,39.0
57.461,-0.732,6.234,26.0
0.0,0.0,0.0,0.0
58.155,-0.729,7.646,26.0
57.228,-0.707,7.209,30.0
58.335,-0.71,7.028,18.0
63.22,-0.758,7.263,38.0
63.964,-0.754,6.998,8.0
57.485,-0.667,5.975,20.0
58.242,-0.675,7.71,30.0
57.54,-0.656,7.3,30.0
57.537,-0.645,6.982,25.0
63.192,-0.697,7.315,19.0
63.961,-0.692,7.054,9.0
57.495,-0.612,6.026,23.0
58.277,-0.618,7.766,26.0
57.698,-0.601,7.37,26.0
57.386,-0.586,7.014,23.0
63.131,-0.632,7.362,16.0
59.949,-0.589,6.662,24.0
57.512,-0.554,6.076,27.0
58.397,-0.561,7.831,30.0
57.88,-0.543,7.441,32.0
57.397,-0.528,7.062,26.0
60.035,-0.541,7.05,25.0
59.952,-0.528,6.71,30.0
57.442,-0.495,6.114,34.0
58.158,-0.499,7.845,23.0
57.945,-0.486,7.495,32.0
57.186,-0.468,7.08,24.0
0.0,0.0,0.0,0.0
59.963,-0.467,6.756,24.0
57.472,-0.437,6.159,25.0
51.807,-0.391,7.027,23.0
58.434,-0.43,7.601,32.0
57.295,-0.409,7.135,28.0
60.01,-0.417,7.136,6.0
59.939,-0.405,6.796,31.0
57.478,-0.377,6.2,22.0
58.304,-0.379,7.949,8.0
58.599,-0.369,7.663,30.0
57.815,-0.352,7.24,32.0
57.321,-0.338,6.854,24.0
59.812,-0.341,6.821,26.0
57.522,-0.317,6.243,22.0
58.465,-0.317,8.009,6.0
58.767,-0.307,7.723,33.0
58.156,-0.292,7.32,32.0
57.43,-0.277,6.904,31.0
59.814,-0.276,6.859,33.0
57.553,-0.254,6.282,23.0
51.283,-0.223,7.057,23.0
58.61,-0.243,7.738,33.0
58.272,-0.23,7.369,31.0
57.294,-0.214,6.921,31.0
59.675,-0.211,6.878,26.0
65.256,-0.218,7.16,7.0
51.518,-0.167,7.119,26.0
58.739,-0.179,7.789,31.0
58.287,-0.166,7.403,28.0
57.371,-0.152,6.962,26.0
59.881,-0.147,6.933,27.0
56.76,-0.128,6.257,9.0
51.711,-0.111,7.173,26.0
58.653,-0.114,7.808,21.0
58.349,-0.102,7.441,25.0
57.682,-0.09,7.028,32.0
59.96,-0.081,6.972,8.0
56.639,-0.065,6.271,20.0
51.487,-0.053,7.167,28.0
58.601,-0.049,7.828,21.0
58.341,-0.037,7.467,7.0
58.314,-0.025,7.131,33.0
57.444,-0.014,6.704,19.0
56.613,-0.003,6.293,25.0
51.71,0.004,7.22,27.0
58.377,0.016,7.823,16.0
48.876,0.023,6.275,20.0
58.182,0.038,7.139,33.0
57.447,0.05,6.728,28.0
56.614,0.06,6.315,20.0
51.784,0.063,7.25,26.0
51.339,0.072,6.899,15.0
48.881,0.078,6.294,20.0
58.318,0.105,7.176,31.0
57.559,0.115,6.761,31.0
56.686,0.124,6.342,17.0
52.091,0.122,7.311,27.0
58.316,0.147,7.856,7.0
48.976,0.134,6.322,12.0
58.28,0.171,7.19,31.0
57.625,0.18,6.786,24.0
56.73,0.188,6.364,12.0
52.045,0.181,7.32,27.0
51.416,0.188,6.941,5.0
51.559,0.199,6.669,15.0
58.29,0.236,7.206,32.0
57.649,0.245,6.804,19.0
52.581,0.233,5.911,15.0
51.931,0.239,7.316,26.0
56.044,0.27,7.579,6.0
51.616,0.258,6.689,12.0
58.438,0.303,7.237,23.0
60.343,0.324,7.134,18.0
52.631,0.293,5.928,20.0
51.802,0.298,7.308,16.0
48.355,0.287,6.548,22.0
51.595,0.316,6.695,23.0
58.456,0.369,7.25,23.0
60.438,0.393,7.156,19.0
52.663,0.353,5.939,21.0
51.968,0.358,7.34,26.0
48.303,0.343,6.548,23.0
51.712,0.376,6.717,12.0
58.378,0.436,7.248,26.0
60.398,0.462,7.158,25.0
57.235,0.448,6.461,7.0
51.948,0.418,7.342,22.0
48.364,0.398,6.561,22.0
48.917,0.412,6.358,15.0
58.339,0.502,7.247,23.0
53.12,0.466,6.299,17.0
57.109,0.513,6.451,11.0
51.922,0.477,7.341,21.0
0.0,0.0,0.0,0.0
48.645,0.465,6.325,22.0
58.181,0.566,7.23,17.0
52.795,0.523,6.262,16.0
56.793,0.574,6.416,30.0
49.26,0.509,6.965,15.0
49.177,0.517,6.674,24.0
48.265,0.516,6.275,22.0
48.825,0.531,6.066,23.0
52.745,0.583,6.255,26.0
56.379,0.633,6.368,15.0
49.281,0.565,6.967,23.0
0.0,0.0,0.0,0.0
48.946,0.579,6.361,23.0
48.957,0.588,6.08,23.0
0.0,0.0,0.0,0.0
53.032,0.655,5.986,10.0
49.311,0.622,6.967,17.0
47.823,0.612,6.483,19.0
48.811,0.632,6.339,22.0
48.889,0.642,6.066,23.0
48.78,0.65,5.776,22.0
52.998,0.715,5.975,15.0
51.497,0.708,7.269,4.0
47.956,0.667,6.495,22.0
47.184,0.665,6.121,24.0
48.9,0.698,6.06,23.0
48.859,0.706,5.777,26.0
50.224,0.734,5.654,28.0
51.758,0.771,7.296,26.0
47.792,0.719,6.463,23.0
47.204,0.718,6.114,19.0
49.052,0.755,6.069,27.0
48.826,0.76,5.763,28.0
50.2,0.79,5.641,24.0
49.103,0.786,6.911,13.0
47.936,0.775,6.472,22.0
47.181,0.771,6.1,16.0
48.895,0.807,6.038,30.0
48.833,0.814,5.752,37.0
50.213,0.845,5.629,25.0
51.542,0.882,7.24,5.0
47.829,0.827,6.444,23.0
47.272,0.825,6.098,18.0
48.9,0.861,6.024,34.0
49.64,0.882,5.832,25.0
50.208,0.901,5.613,30.0
52.186,0.952,7.314,12.0
47.795,0.879,6.424,31.0
0.0,0.0,0.0,0.0
48.992,0.916,6.019,32.0
0.0,0.0,0.0,0.0
50.129,0.953,5.587,20.0
52.202,1.009,7.297,11.0
47.867,0.933,6.416,22.0
45.753,0.898,5.87,22.0
48.885,0.967,5.987,26.0
0.0,0.0,0.0,0.0
50.1,1.007,5.564,24.0
56.381,1.151,7.858,8.0
47.813,0.983,6.389,35.0
45.766,0.948,5.852,18.0
48.884,1.02,5.966,20.0
50.269,1.057,5.847,30.0
49.764,1.054,5.505,35.0
52.094,1.119,7.237,17.0
47.977,1.037,6.389,22.0
45.736,0.996,5.827,18.0
48.945,1.073,5.95,23.0
50.157,1.107,5.81,23.0
49.713,1.105,5.475,29.0
52.121,1.175,7.215,9.0
47.948,1.088,6.36,19.0
45.756,1.044,5.806,20.0
48.788,1.121,5.906,5.0
45.597,1.054,5.258,18.0
49.717,1.157,5.449,19.0
50.432,1.19,6.953,4.0
51.362,1.219,6.785,13.0
45.738,1.092,5.778,23.0
45.236,1.086,5.45,25.0
50.092,1.21,5.748,6.0
49.721,1.208,5.421,19.0
50.499,1.244,6.933,5.0
47.465,1.175,6.242,7.0
45.381,1.13,5.706,19.0
45.203,1.132,5.419,20.0
49.735,1.252,5.677,6.0
49.643,1.256,5.382,18.0
47.8,1.226,6.532,8.0
47.476,1.224,6.213,23.0
45.302,1.173,5.667,19.0
45.273,1.178,5.398,29.0
45.622,1.194,5.177,17.0
49.316,1.297,5.314,21.0
47.726,1.271,6.489,7.0
47.501,1.271,6.184,21.0
45.205,1.216,5.624,26.0
45.302,1.224,5.37,38.0
45.618,1.239,5.145,31.0
49.442,1.349,5.293,14.0
47.729,1.318,6.455,5.0
47.523,1.318,6.152,8.0
45.377,1.264,5.612,24.0
45.305,1.268,5.337,35.0
45.59,1.281,5.108,28.0
49.416,1.395,5.253,16.0
43.906,1.255,5.905,31.0
45.469,1.305,5.851,35.0
45.437,1.309,5.584,25.0
45.419,1.314,5.315,30.0
45.687,1.327,5.083,20.0
48.383,1.411,5.105,5.0
47.713,1.409,6.378,4.0
45.12,1.338,5.769,20.0
45.399,1.351,5.542,19.0
45.481,1.358,5.285,32.0
48.865,1.464,5.396,5.0
48.515,1.46,5.079,16.0
44.047,1.34,5.851,22.0
44.019,1.345,5.591,18.0
45.503,1.395,5.516,26.0
45.458,1.399,5.243,19.0
45.743,1.412,5.012,18.0
48.802,1.512,5.067,14.0
44.088,1.381,5.817,30.0
43.765,1.375,5.52,29.0
45.52,1.435,5.478,19.0
45.546,1.441,5.213,15.0
48.526,1.54,5.274,26.0
55.69,1.773,5.732,19.0
43.89,1.413,5.751,32.0
43.858,1.416,5.492,18.0
45.451,1.472,5.427,24.0
45.669,1.484,5.184,21.0
46.067,1.501,4.963,16.0
57.653,1.885,5.88,7.0
43.787,1.447,5.695,37.0
44.029,1.459,5.47,18.0
45.44,1.51,5.382,20.0
45.677,1.522,5.141,21.0
46.101,1.541,4.922,23.0
50.346,1.687,5.085,16.0
43.755,1.482,5.647,35.0
0.0,0.0,0.0,0.0
45.6,1.553,5.354,18.0
45.874,1.566,5.116,20.0
55.252,1.891,5.842,17.0
50.306,1.726,5.029,25.0
43.731,1.516,5.598,38.0
45.284,1.574,5.533,30.0
0.0,0.0,0.0,0.0
45.973,1.605,5.078,20.0
55.255,1.935,5.784,11.0
50.147,1.76,4.96,29.0
43.723,1.55,5.549,33.0
45.363,1.611,5.493,31.0
45.725,1.628,5.271,29.0
46.012,1.641,5.033,28.0
61.497,2.199,6.371,12.0
49.999,1.792,4.891,31.0
44.646,1.616,5.617,22.0
45.576,1.653,5.468,36.0
45.711,1.661,5.218,20.0
46.131,1.68,4.994,30.0
50.415,1.839,5.166,23.0
49.977,1.827,4.832,31.0
45.219,1.669,5.637,26.0
45.717,1.69,5.432,19.0
45.839,1.698,5.18,20.0
48.839,1.813,5.23,23.0
50.275,1.869,5.093,24.0
49.909,1.859,4.767,22.0
45.328,1.705,5.596,20.0
0.0,0.0,0.0,0.0
45.493,1.716,5.087,20.0
48.618,1.837,5.148,27.0
50.212,1.9,5.026,25.0
49.796,1.888,4.697,21.0
45.499,1.74,5.562,39.0
45.794,1.754,5.331,20.0
45.424,1.743,5.022,19.0
48.629,1.869,5.089,22.0
50.409,1.94,4.984,23.0
49.849,1.922,4.64,16.0
45.53,1.77,5.508,33.0
45.819,1.784,5.275,26.0
45.313,1.767,4.953,15.0
50.324,1.965,5.203,9.0
50.181,1.961,4.898,37.0
51.595,2.02,4.737,11.0
45.974,1.815,5.502,22.0
45.741,1.808,5.207,20.0
48.55,1.921,5.244,13.0
0.0,0.0,0.0,0.0
50.032,1.985,4.818,19.0
0.0,0.0,0.0,0.0
45.772,1.833,5.417,33.0
45.492,1.824,5.118,19.0
48.48,1.945,5.172,39.0
50.23,2.018,5.061,22.0
51.52,2.072,4.893,18.0
56.234,2.264,5.015,30.0
45.779,1.858,5.357,16.0
45.395,1.844,5.046,29.0
48.413,1.968,5.099,22.0
50.31,2.047,5.001,24.0
51.465,2.096,4.817,17.0
55.959,2.282,4.914,22.0
45.627,1.875,5.275,32.0
45.419,1.867,4.986,19.0
48.321,1.988,5.022,20.0
50.341,2.073,4.934,24.0
54.026,2.227,4.981,11.0
55.917,2.306,4.832,28.0
45.543,1.893,5.201,36.0
48.519,2.018,5.257,3.0
50.21,2.089,5.147,5.0
51.194,2.131,4.945,25.0
56.658,2.36,5.144,10.0
56.163,2.341,4.773,17.0
45.495,1.91,5.129,33.0
48.388,2.033,5.173,17.0
50.271,2.113,5.08,20.0
49.653,2.088,4.724,18.0
56.235,2.366,5.023,29.0
49.305,2.076,4.118,10.0
45.431,1.926,5.055,32.0
48.348,2.05,5.097,20.0
50.387,2.137,5.018,16.0
53.979,2.291,5.056,9.0
56.059,2.38,4.925,18.0
49.361,2.096,4.05,8.0
45.901,1.963,5.038,20.0
48.263,2.064,5.016,20.0
50.27,2.15,4.931,24.0
53.942,2.308,4.972,18.0
49.396,2.114,4.266,22.0
58.368,2.498,4.702,11.0
51.587,2.223,5.584,10.0
50.371,2.17,5.159,19.0
49.728,2.142,4.802,23.0
56.739,2.445,5.144,13.0
49.324,2.126,4.184,22.0
66.521,2.867,5.258,8.0
51.554,2.236,5.501,13.0
50.335,2.183,5.077,28.0
49.614,2.151,4.715,18.0
54.076,2.345,4.818,10.0
49.346,2.14,4.109,18.0
66.424,2.881,5.147,13.0
56.291,2.456,5.917,7.0
50.569,2.206,5.02,24.0
49.533,2.16,4.628,17.0
49.368,2.153,4.32,21.0
58.16,2.535,4.752,21.0
66.233,2.887,5.027,20.0
50.459,2.212,5.224,18.0
50.066,2.194,4.891,24.0
54.148,2.372,4.973,15.0
49.292,2.159,4.235,19.0
58.158,2.547,4.659,23.0
66.126,2.895,4.914,26.0
50.342,2.216,5.131,30.0
49.656,2.185,4.771,14.0
54.112,2.38,4.884,25.0
49.315,2.168,4.158,16.0
76.225,3.35,5.984,7.0
66.088,2.903,4.805,28.0
50.55,2.233,5.069,29.0
49.55,2.187,4.679,17.0
54.087,2.386,4.792,14.0
58.144,2.563,4.807,26.0
66.298,2.922,5.096,18.0
66.093,2.911,4.697,25.0
50.577,2.239,4.989,25.0
54.02,2.39,5.013,16.0
49.338,2.181,4.29,20.0
58.192,2.571,4.716,32.0
66.165,2.921,4.977,23.0
66.046,2.914,4.584,25.0
81.828,3.265,5.598,22.0
65.418,2.601,4.094,27.0
65.547,2.599,3.721,38.0
65.574,2.592,3.335,28.0
65.594,2.585,2.956,17.0
49.637,1.95,1.949,1.0
65.365,2.566,4.351,32.0
65.476,2.563,3.977,28.0
65.645,2.561,3.606,14.0
65.646,2.553,3.219,14.0
50.935,1.974,2.202,0.0
49.536,1.914,1.854,2.0
65.395,2.524,4.233,36.0
65.554,2.522,3.862,22.0
81.174,3.112,4.31,37.0
81.094,3.098,3.827,34.0
50.611,1.927,2.095,2.0
49.59,1.881,1.766,3.0
65.482,2.482,4.119,25.0
81.36,3.072,4.645,35.0
81.241,3.056,4.166,31.0
81.374,3.051,3.693,10.0
50.362,1.881,1.993,1.0
49.722,1.85,1.68,2.0
81.532,3.03,4.98,12.0
81.222,3.006,4.488,28.0
81.255,2.996,4.019,33.0
56.061,2.059,2.441,1.0
50.259,1.839,1.898,2.0
49.939,1.82,1.597,2.0
81.567,2.967,4.833,24.0
81.604,2.957,4.362,33.0
81.279,2.933,3.873,32.0
0.0,0.0,0.0,0.0
50.312,1.801,1.81,2.0
50.228,1.79,1.516,2.0
81.822,2.909,4.7,16.0
81.468,2.885,4.207,33.0
81.24,2.864,3.723,11.0
50.755,1.781,2.026,1.0
50.448,1.762,1.722,3.0
50.481,1.756,1.432,2.0
81.968,2.844,4.56,27.0
81.286,2.807,4.05,31.0
56.043,1.926,2.467,0.0
50.85,1.74,1.939,2.0
50.807,1.73,1.643,2.0
50.689,1.718,1.346,0.0
81.867,2.767,4.407,23.0
81.244,2.732,3.901,28.0
0.0,0.0,0.0,0.0
51.057,1.7,1.854,2.0
51.22,1.697,1.564,3.0
0.0,0.0,0.0,0.0
81.696,2.684,4.25,30.0
81.094,2.65,3.748,9.0
0.0,0.0,0.0,0.0
0.0,0.0,0.0,0.0
54.1,1.74,1.555,156.0
0.0,0.0,0.0,0.0
81.471,2.597,4.092,33.0
0.0,0.0,0.0,0.0
0.0,0.0,0.0,0.0
54.155,1.698,1.774,1.0
54.229,1.691,1.463,9.0
55.367,1.717,1.174,4.0
82.293,2.54,3.988,9.0
0.0,0.0,0.0,0.0
0.0,0.0,0.0,0.0
54.09,1.64,1.676,5.0
54.219,1.634,1.367,11.0
55.544,1.664,1.079,2.0
83.773,2.498,3.912,6.0
0.0,0.0,0.0,0.0
0.0,0.0,0.0,0.0
54.102,1.583,1.582,4.0
54.278,1.578,1.273,1.0
0.0,0.0,0.0,0.0
0.0,0.0,0.0,0.0
0.0,0.0,0.0,0.0
54.019,1.531,1.803,0.0
54.059,1.522,1.486,7.0
56.363,1.576,1.223,4.0
46.096,1.28,0.735,0.0
0.0,0.0,0.0,0.0
0.0,0.0,0.0,0.0
54.174,1.474,1.713,10.0
54.021,1.459,1.391,1.0
56.614,1.517,1.13,3.0
0.0,0.0,0.0,0.0
0.0,0.0,0.0,0.0
0.0,0.0,0.0,0.0
54.103,1.408,1.617,2.0
54.369,1.404,1.306,1.0
47.073,1.206,0.859,0.0
36.402,0.925,0.454,0.0
0.0,0.0,0.0,0.0
54.342,1.36,1.846,2.0
54.098,1.342,1.525,1.0
57.499,1.415,1.282,4.0
0.0,0.0,0.0,0.0
35.224,0.852,0.379,0.0
0.0,0.0,0.0,0.0
54.412,1.294,1.755,7.0
54.269,1.279,1.438,0.0
57.819,1.351,1.193,3.0
39.624,0.917,0.588,0.0
32.986,0.757,0.3,0.0
0.0,0.0,0.0,0.0
54.204,1.22,1.659,0.0
54.482,1.215,1.353,0.0
47.778,1.055,0.906,0.0
37.131,0.812,0.49,0.0
31.73,0.687,0.236,0.0
54.488,1.168,1.892,7.0
0.0,0.0,0.0,0.0
54.652,1.147,1.267,1.0
0.0,0.0,0.0,0.0
35.618,0.732,0.411,0.0
28.941,0.588,0.167,0.0
0.0,0.0,0.0,0.0
54.399,1.08,1.485,3.0
0.0,0.0,0.0,0.0
41.207,0.8,0.646,0.0
34.016,0.653,0.337,1.0
28.855,0.547,0.12,1.0
0.0,0.0,0.0,0.0
54.49,1.008,1.399,1.0
0.0,0.0,0.0,0.0
0.0,0.0,0.0,0.0
32.553,0.58,0.271,0.0
28.381,0.499,0.073,0.0
54.897,0.952,1.639,1.0
54.908,0.939,1.323,4.0
0.0,0.0,0.0,0.0
0.0,0.0,0.0,0.0
31.369,0.514,0.211,0.0
27.236,0.44,0.026,0.0
55.281,0.879,1.563,0.0
0.0,0.0,0.0,0.0
0.0,0.0,0.0,0.0
34.621,0.526,0.378,0.0
28.899,0.432,0.149,4.0
26.377,0.388,-0.014,0.0
55.95,0.808,1.495,0.0
0.0,0.0,0.0,0.0
40.554,0.566,0.617,0.0
33.648,0.461,0.315,0.0
28.829,0.388,0.104,5.0
25.664,0.339,-0.054,0.0
57.481,0.745,1.447,1.0
0.0,0.0,0.0,0.0
38.295,0.477,0.524,0.0
31.806,0.388,0.249,0.0
28.466,0.34,0.059,1.0
24.8,0.29,-0.09,0.0
57.593,0.658,1.363,0.0
0.0,0.0,0.0,0.0
35.989,0.393,0.438,0.0
28.93,0.308,0.183,0.0
26.998,0.281,0.016,0.0
23.971,0.243,-0.123,0.0
0.0,0.0,0.0,0.0
41.724,0.401,0.686,0.0
34.653,0.325,0.371,0.0
28.877,0.263,0.14,4.0
26.266,0.232,-0.022,0.0
23.098,0.198,-0.152,0.0
0.0,0.0,0.0,0.0
0.0,0.0,0.0,0.0
0.0,0.0,0.0,0.0
28.761,0.216,0.098,3.0
25.513,0.185,-0.058,0.0
22.295,0.156,-0.179,2.0
0.0,0.0,0.0,0.0
37.414,0.241,0.507,0.0
31.706,0.196,0.248,0.0
27.803,0.165,0.056,0.0
24.934,0.141,-0.092,0.0
21.569,0.116,-0.203,4.0
0.0,0.0,0.0,0.0
36.255,0.175,0.441,0.0
30.434,0.138,0.196,0.0
27.054,0.116,0.017,0.0
23.85,0.095,-0.121,0.0
20.965,0.078,-0.226,2.0
41.726,0.145,0.69,0.0
0.0,0.0,0.0,0.0
28.805,0.083,0.146,0.0
26.301,0.069,-0.019,0.0
23.336,0.054,-0.15,1.0
20.115,0.041,-0.244,0.0
39.501,0.07,0.6,0.0
33.243,0.05,0.315,0.0
28.712,0.035,0.108,1.0
25.649,0.024,-0.052,0.0
22.282,0.014,-0.173,0.0
19.407,0.007,-0.261,0.0
0.0,0.0,0.0,0.0
31.61,-0.006,0.258,0.0
28.379,-0.013,0.069,1.0
24.959,-0.019,-0.084,0.0
21.502,-0.022,-0.195,1.0
18.551,-0.024,-0.274,0.0
36.218,-0.058,0.456,0.0
30.879,-0.058,0.212,0.0
27.419,-0.06,0.032,0.0
23.956,-0.059,-0.111,0.0
21.065,-0.058,-0.218,0.0
18.259,-0.056,-0.293,0.0
0.0,0.0,0.0,0.0
28.903,-0.105,0.163,3.0
26.681,-0.105,-0.001,0.0
23.532,-0.1,-0.138,0.0
20.355,-0.092,-0.235,0.0
17.783,-0.086,-0.307,0.0
33.174,-0.17,0.335,0.0
28.789,-0.155,0.127,7.0
25.934,-0.148,-0.033,0.0
22.964,-0.138,-0.162,0.0
19.659,-0.124,-0.251,0.0
17.342,-0.114,-0.32,0.0
32.298,-0.222,0.288,2.0
28.713,-0.207,0.092,6.0
25.334,-0.19,-0.062,0.0
22.254,-0.173,-0.184,1.0
19.273,-0.156,-0.269,0.0
17.018,-0.143,-0.334,0.0
31.761,-0.276,0.246,1.0
27.839,-0.25,0.057,1.0
24.606,-0.229,-0.089,0.0
21.685,-0.208,-0.204,0.0
18.577,-0.184,-0.28,0.0
16.685,-0.17,-0.347,0.0
30.972,-0.325,0.205,0.0
27.256,-0.295,0.026,0.0
24.109,-0.268,-0.114,0.0
20.899,-0.239,-0.219,0.0
18.168,-0.213,-0.294,0.0
16.5,-0.199,-0.361,0.0
28.846,-0.356,0.159,0.0
26.534,-0.335,-0.003,0.0
23.296,-0.302,-0.135,1.0
20.193,-0.268,-0.234,0.0
17.738,-0.241,-0.306,0.0
16.237,-0.226,-0.373,0.0
28.739,-0.408,0.129,1.0
26.034,-0.378,-0.031,0.0
23.208,-0.344,-0.159,1.0
19.608,-0.297,-0.248,6.0
17.446,-0.269,-0.319,0.0
16.037,-0.253,-0.385,0.0
28.553,-0.459,0.098,1.0
25.262,-0.414,-0.056,0.0
22.355,-0.374,-0.176,0.0
19.201,-0.327,-0.262,0.0
17.104,-0.297,-0.331,0.0
15.776,-0.279,-0.394,0.0
28.223,-0.507,0.069,1.0
25.025,-0.457,-0.08,0.0
22.012,-0.409,-0.195,0.0
18.718,-0.354,-0.274,0.0
16.815,-0.323,-0.341,0.0
15.487,-0.303,-0.402,0.0
27.545,-0.547,0.041,0.0
24.588,-0.496,-0.101,3.0
21.38,-0.438,-0.209,0.0
18.348,-0.382,-0.286,0.0
16.609,-0.351,-0.353,0.0
15.128,-0.325,-0.407,0.0
26.92,-0.586,0.016,0.0
23.754,-0.525,-0.12,0.0
20.836,-0.467,-0.223,0.0
18.042,-0.41,-0.297,0.0
16.418,-0.379,-0.363,0.0
14.995,-0.351,-0.417,0.0
26.488,-0.627,-0.007,0.0
23.592,-0.566,-0.14,0.0
19.93,-0.485,-0.231,0.0
17.65,-0.435,-0.306,0.0
16.197,-0.405,-0.372,0.0
14.735,-0.373,-0.422,0.0
25.919,-0.664,-0.029,0.0
23.096,-0.599,-0.156,0.0
19.687,-0.518,-0.245,0.0
17.383,-0.463,-0.316,0.0
15.979,-0.431,-0.381,0.0
14.597,-0.398,-0.43,0.0
25.636,-0.706,-0.049,0.0
22.438,-0.626,-0.17,0.0
19.305,-0.545,-0.255,0.0
17.161,-0.49,-0.325,0.0
15.792,-0.457,-0.389,0.0
14.464,-0.423,-0.438,0.0
25.321,-0.747,-0.068,0.0
21.986,-0.656,-0.183,0.0
19.088,-0.576,-0.267,0.0
16.951,-0.517,-0.334,0.0
15.62,-0.482,-0.396,0.0
14.287,-0.446,-0.443,0.0
24.786,-0.78,-0.085,0.0
21.163,-0.673,-0.192,1.0
18.657,-0.6,-0.274,0.0
16.705,-0.543,-0.342,0.0
15.379,-0.505,-0.401,0.0
14.13,-0.469,-0.448,0.0
