X,Y,Z,Reflectivity
20.206,-0.427,-0.237,0.0
17.856,-0.384,-0.308,0.0
33.646,-0.733,0.347,1.0
28.755,-0.637,0.137,7.0
26.313,-0.593,-0.019,0.0
23.436,-0.536,-0.148,0.0
20.037,-0.466,-0.238,0.0
17.824,-0.421,-0.31,0.0
33.347,-0.798,0.34,1.0
28.71,-0.698,0.134,5.0
26.202,-0.646,-0.022,0.0
23.255,-0.582,-0.15,0.0
20.006,-0.508,-0.239,0.0
17.788,-0.458,-0.311,0.0
33.174,-0.864,0.335,0.0
28.703,-0.759,0.132,4.0
26.322,-0.705,-0.024,0.0
23.173,-0.629,-0.151,0.0
20.238,-0.557,-0.243,0.0
17.81,-0.497,-0.312,0.0
33.385,-0.94,0.336,0.0
28.685,-0.819,0.13,0.0
26.175,-0.757,-0.024,0.0
23.193,-0.679,-0.152,0.0
20.079,-0.595,-0.242,0.0
17.768,-0.533,-0.312,0.0
33.701,-1.02,0.339,0.0
28.623,-0.877,0.13,0.0
26.399,-0.819,-0.025,0.0
23.258,-0.729,-0.152,0.0
20.206,-0.641,-0.243,0.0
17.824,-0.572,-0.312,0.0
33.431,-1.083,0.337,0.0
28.639,-0.937,0.131,0.0
26.007,-0.861,-0.023,0.0
23.146,-0.775,-0.15,0.0
20.226,-0.685,-0.242,0.0
17.813,-0.61,-0.311,0.0
33.17,-1.144,0.336,0.0
28.636,-0.998,0.133,0.0
26.454,-0.932,-0.021,0.0
23.332,-0.831,-0.149,0.0
20.545,-0.739,-0.244,0.0
17.859,-0.649,-0.31,0.0
32.713,-1.197,0.335,1.0
28.659,-1.058,0.136,5.0
26.325,-0.982,-0.018,0.0
23.153,-0.872,-0.145,0.0
20.731,-0.788,-0.244,0.0
17.928,-0.688,-0.309,0.0
33.478,-1.293,0.347,0.0
28.669,-1.118,0.14,4.0
26.011,-1.023,-0.014,0.0
23.323,-0.926,-0.143,1.0
20.825,-0.835,-0.242,0.0
17.996,-0.728,-0.307,0.0
34.001,-1.383,0.359,0.0
28.654,-1.176,0.146,3.0
26.058,-1.079,-0.009,0.0
23.53,-0.983,-0.14,1.0
20.875,-0.879,-0.238,0.0
18.03,-0.766,-0.304,0.0
34.301,-1.465,0.369,0.0
28.649,-1.234,0.152,1.0
26.263,-1.141,-0.004,0.0
23.625,-1.035,-0.135,2.0
20.934,-0.925,-0.234,1.0
18.122,-0.807,-0.301,0.0
34.472,-1.543,0.38,0.0
30.489,-1.376,0.169,0.0
26.749,-1.217,0.002,1.0
23.649,-1.084,-0.129,1.0
21.145,-0.977,-0.23,0.0
18.137,-0.845,-0.296,0.0
35.328,-1.653,0.399,0.0
30.306,-1.428,0.177,0.0
27.415,-1.302,0.011,4.0
23.73,-1.136,-0.122,1.0
21.341,-1.029,-0.226,0.0
18.228,-0.886,-0.292,0.0
35.298,-1.722,0.41,0.0
30.507,-1.499,0.188,0.0
27.593,-1.366,0.02,5.0
23.813,-1.187,-0.114,0.0
21.408,-1.076,-0.219,0.0
18.573,-0.94,-0.291,0.0
35.783,-1.817,0.429,0.0
30.669,-1.569,0.201,0.0
27.76,-1.43,0.03,2.0
23.893,-1.239,-0.106,0.0
21.753,-1.136,-0.214,0.0
18.79,-0.988,-0.287,0.0
34.729,-1.832,0.43,0.0
31.411,-1.668,0.218,0.0
28.258,-1.511,0.042,3.0
34.244,-1.844,-0.137,2.0
22.084,-1.197,-0.208,0.0
18.817,-1.027,-0.28,0.0
34.727,-1.901,0.445,0.0
31.01,-1.709,0.229,0.0
28.457,-1.578,0.055,4.0
34.229,-1.91,-0.122,3.0
22.216,-1.248,-0.2,0.0
19.02,-1.075,-0.274,0.0
34.709,-1.968,0.461,0.0
31.112,-1.775,0.244,0.0
28.49,-1.635,0.069,6.0
25.363,-1.465,-0.078,0.0
22.317,-1.296,-0.19,0.0
19.165,-1.12,-0.267,0.0
34.834,-2.041,0.479,5.0
31.737,-1.871,0.265,0.0
28.489,-1.689,0.083,7.0
25.501,-1.521,-0.066,0.0
22.578,-1.355,-0.18,0.0
19.443,-1.173,-0.261,0.0
34.818,-2.107,0.498,2.0
32.04,-1.949,0.284,1.0
28.498,-1.744,0.099,7.0
25.696,-1.581,-0.052,0.0
22.928,-1.419,-0.17,0.0
19.657,-1.224,-0.252,0.0
34.717,-2.165,0.516,4.0
32.579,-2.043,0.308,0.0
28.526,-1.799,0.115,0.0
25.909,-1.643,-0.037,0.0
23.167,-1.477,-0.159,0.0
19.96,-1.279,-0.245,0.0
34.526,-2.217,0.534,3.0
33.294,-2.15,0.335,1.0
28.796,-1.869,0.133,0.0
26.226,-1.711,-0.022,0.0
23.434,-1.537,-0.146,0.0
20.405,-1.346,-0.237,0.0
34.418,-2.273,0.554,2.0
34.204,-2.271,0.365,1.0
30.094,-2.008,0.159,0.0
26.943,-1.807,-0.005,0.0
23.668,-1.595,-0.132,0.0
20.452,-1.386,-0.225,0.0
34.138,-2.317,0.572,2.0
34.938,-2.382,0.396,1.0
30.412,-2.084,0.181,0.0
27.424,-1.889,0.012,0.0
23.922,-1.656,-0.117,0.0
21.248,-1.478,-0.219,0.0
33.998,-2.369,0.593,2.0
35.65,-2.495,0.43,1.0
31.087,-2.186,0.207,0.0
33.905,-2.395,0.04,2.0
33.903,-2.407,-0.142,8.0
33.914,-2.419,-0.325,3.0
33.916,-2.423,0.616,1.0
36.696,-2.633,0.469,0.0
31.42,-2.264,0.232,0.0
33.893,-2.454,0.065,3.0
33.902,-2.465,-0.117,8.0
33.877,-2.475,-0.299,2.0
33.834,-2.475,0.64,27.0
34.46,-2.531,0.467,0.0
32.448,-2.394,0.264,0.0
33.894,-2.512,0.09,5.0
33.905,-2.523,-0.091,7.0
33.892,-2.534,-0.273,15.0
33.854,-2.534,0.667,151.0
34.427,-2.588,0.493,2.0
32.24,-2.434,0.288,0.0
33.88,-2.569,0.118,0.0
33.914,-2.582,-0.063,2.0
33.903,-2.592,-0.246,5.0
33.844,-2.59,0.694,154.0
34.308,-2.636,0.519,5.0
0.0,0.0,0.0,0.0
29.524,-2.286,0.127,0.0
33.903,-2.636,-0.035,1.0
33.893,-2.646,-0.218,5.0
33.839,-2.645,0.722,155.0
34.14,-2.679,0.546,5.0
0.0,0.0,0.0,0.0
30.192,-2.387,0.155,0.0
33.896,-2.691,-0.006,1.0
33.885,-2.701,-0.188,6.0
33.842,-2.7,0.752,155.0
33.987,-2.721,0.573,3.0
0.0,0.0,0.0,0.0
30.758,-2.481,0.185,0.0
33.882,-2.744,0.022,1.0
33.885,-2.754,-0.158,4.0
33.829,-2.752,0.782,154.0
33.869,-2.765,0.601,2.0
0.0,0.0,0.0,0.0
31.684,-2.605,0.22,0.0
33.856,-2.794,0.053,2.0
33.858,-2.805,-0.127,3.0
33.834,-2.805,0.813,153.0
33.765,-2.809,0.631,49.0
34.44,-2.875,0.459,1.0
32.501,-2.723,0.256,1.0
33.857,-2.846,0.085,0.0
25.445,-2.146,-0.071,0.0
33.785,-2.852,0.844,24.0
33.8,-2.863,0.663,3.0
34.313,-2.916,0.49,3.0
0.0,0.0,0.0,0.0
28.981,-2.479,0.101,0.0
25.865,-2.22,-0.048,0.0
33.785,-2.902,0.877,45.0
33.785,-2.911,0.696,6.0
34.216,-2.958,0.522,4.0
33.513,-2.906,0.329,0.0
29.845,-2.596,0.133,0.0
26.611,-2.322,-0.023,0.0
33.803,-2.953,0.911,71.0
33.862,-2.966,0.731,0.0
33.992,-2.987,0.552,1.0
35.635,-3.141,0.385,0.0
0.0,0.0,0.0,0.0
27.4,-2.43,0.003,0.0
33.799,-3.0,0.945,81.0
33.851,-3.013,0.766,0.0
33.953,-3.031,0.587,0.0
0.0,0.0,0.0,0.0
31.29,-2.81,0.203,0.0
27.678,-2.493,0.032,0.0
33.806,-3.047,0.981,68.0
33.806,-3.055,0.8,6.0
33.86,-3.069,0.62,0.0
34.423,-3.128,0.443,0.0
31.935,-2.911,0.241,0.0
28.626,-2.617,0.063,0.0
33.801,-3.092,1.016,45.0
33.787,-3.098,0.835,18.0
33.731,-3.102,0.654,0.0
34.37,-3.169,0.479,3.0
32.875,-3.04,0.283,0.0
29.174,-2.704,0.096,0.0
33.798,-3.135,1.053,34.0
33.803,-3.144,0.872,22.0
33.788,-3.15,0.691,4.0
34.387,-3.214,0.517,2.0
33.805,-3.168,0.328,0.0
29.906,-2.81,0.131,0.0
33.808,-3.179,1.09,17.0
33.81,-3.186,0.909,20.0
33.763,-3.19,0.728,0.0
34.002,-3.22,0.549,0.0
0.0,0.0,0.0,0.0
30.549,-2.907,0.168,0.0
33.838,-3.223,1.128,6.0
33.833,-3.23,0.948,18.0
33.81,-3.234,0.767,1.0
33.857,-3.246,0.584,0.0
37.806,-3.634,0.451,0.0
31.053,-2.992,0.205,0.0
33.831,-3.262,1.167,4.0
33.826,-3.268,0.986,10.0
33.827,-3.276,0.806,4.0
33.878,-3.288,0.623,0.0
34.624,-3.368,0.453,2.0
32.609,-3.179,0.253,0.0
33.86,-3.303,1.206,2.0
33.91,-3.315,1.027,153.0
33.841,-3.315,0.845,5.0
0.0,0.0,0.0,0.0
34.548,-3.398,0.491,5.0
32.662,-3.22,0.29,0.0
33.907,-3.345,1.247,2.0
33.928,-3.353,1.067,156.0
33.878,-3.355,0.885,5.0
0.0,0.0,0.0,0.0
34.116,-3.393,0.525,1.0
34.325,-3.42,0.346,0.0
33.95,-3.385,1.289,1.0
33.916,-3.388,1.107,49.0
33.898,-3.392,0.926,4.0
33.896,-3.399,0.742,1.0
34.04,-3.419,0.564,1.0
34.432,-3.466,0.388,0.0
34.232,-3.448,1.34,0.0
33.889,-3.419,1.146,2.0
33.986,-3.435,0.969,157.0
33.915,-3.434,0.783,2.0
33.949,-3.443,0.603,0.0
34.331,-3.489,0.428,0.0
34.83,-3.542,1.406,0.0
34.014,-3.465,1.192,0.0
33.953,-3.464,1.009,150.0
33.961,-3.471,0.825,2.0
34.095,-3.491,0.647,0.0
34.412,-3.529,0.471,0.0
35.534,-3.647,1.478,0.0
34.152,-3.511,1.238,0.0
33.951,-3.495,1.05,2.0
33.999,-3.506,0.868,0.0
34.071,-3.519,0.689,0.0
34.355,-3.554,0.512,0.0
36.554,-3.785,1.565,0.0
34.653,-3.592,1.299,0.0
34.103,-3.541,1.097,0.0
34.033,-3.539,0.91,0.0
34.207,-3.562,0.733,0.0
34.331,-3.58,0.554,0.0
155.364,-16.217,6.844,3.0
35.676,-3.728,1.381,2.0
34.229,-3.582,1.143,0.0
34.153,-3.579,0.956,0.0
34.242,-3.593,0.776,0.0
34.35,-3.61,0.596,2.0
159.953,-16.825,7.245,12.0
155.061,-16.33,6.199,7.0
34.546,-3.642,1.197,0.0
34.201,-3.611,1.0,0.0
34.867,-3.686,0.834,0.0
34.985,-3.703,0.651,1.0
159.854,-16.935,7.441,17.0
36.722,-3.895,1.514,1.0
35.373,-3.756,1.27,0.0
34.771,-3.696,1.06,0.0
35.019,-3.727,0.882,1.0
0.0,0.0,0.0,0.0
159.992,-17.066,7.65,14.0
154.538,-16.5,6.569,11.0
36.682,-3.92,1.364,0.0
35.539,-3.802,1.128,0.0
35.879,-3.843,0.949,1.0
36.403,-3.904,0.769,0.0
159.781,-17.15,7.843,22.0
154.422,-16.591,6.759,5.0
36.475,-3.922,1.402,0.0
35.939,-3.868,1.187,2.0
36.059,-3.885,0.999,1.0
36.602,-3.948,0.82,0.0
159.482,-17.218,8.033,17.0
155.656,-16.819,7.012,12.0
36.485,-3.945,1.449,1.0
36.909,-3.995,1.266,0.0
36.467,-3.951,1.057,0.0
36.755,-3.986,0.871,1.0
159.521,-17.316,8.24,18.0
160.187,-17.402,7.42,9.0
154.046,-16.747,6.318,9.0
145.687,-15.85,5.184,3.0
37.003,-4.029,1.12,1.0
37.081,-4.041,0.926,0.0
159.237,-17.371,8.429,15.0
160.076,-17.474,7.621,14.0
153.918,-16.813,6.507,5.0
145.723,-15.928,5.372,4.0
37.296,-4.079,1.177,0.0
37.251,-4.078,0.977,0.0
159.073,-17.432,8.624,21.0
159.514,-17.49,7.798,19.0
0.0,0.0,0.0,0.0
153.801,-16.883,5.868,4.0
37.494,-4.118,1.231,0.0
37.943,-4.17,1.044,3.0
159.283,-17.526,8.84,17.0
159.444,-17.552,8.0,19.0
155.396,-17.115,6.969,9.0
153.707,-16.937,6.061,8.0
0.0,0.0,0.0,0.0
37.911,-4.182,1.091,1.0
159.211,-17.581,9.041,16.0
158.88,-17.551,8.174,19.0
160.514,-17.738,7.403,4.0
153.662,-16.988,6.254,13.0
145.524,-16.096,5.149,3.0
0.0,0.0,0.0,0.0
159.291,-17.647,9.249,17.0
158.903,-17.609,8.379,17.0
164.238,-18.205,7.785,4.0
153.673,-17.04,6.449,11.0
145.261,-16.112,5.323,3.0
0.0,0.0,0.0,0.0
159.639,-17.735,9.472,15.0
159.295,-17.7,8.602,18.0
159.288,-17.702,7.752,11.0
153.798,-17.096,6.651,3.0
153.668,-17.087,5.827,9.0
0.0,0.0,0.0,0.0
159.687,-17.782,9.679,15.0
159.275,-17.738,8.804,18.0
159.096,-17.72,7.944,6.0
154.826,-17.246,6.89,3.0
153.693,-17.123,6.021,12.0
118.802,-13.239,4.022,1.0
159.617,-17.809,9.877,14.0
159.135,-17.755,8.997,19.0
158.583,-17.694,8.12,17.0
164.269,-18.33,7.517,5.0
153.672,-17.149,6.213,9.0
0.0,0.0,0.0,0.0
174.584,-19.509,11.023,7.0
159.233,-17.791,9.202,16.0
158.579,-17.717,8.316,20.0
164.225,-18.348,7.719,6.0
153.659,-17.168,6.404,5.0
0.0,0.0,0.0,0.0
22.254,-2.489,1.432,3.0
159.691,-17.862,9.426,16.0
159.036,-17.786,8.538,17.0
0.0,0.0,0.0,0.0
153.804,-17.197,6.601,3.0
153.785,-17.194,5.779,7.0
22.257,-2.491,1.46,11.0
159.684,-17.872,9.625,19.0
159.241,-17.818,8.747,18.0
0.0,0.0,0.0,0.0
154.818,-17.316,6.833,3.0
153.698,-17.189,5.964,10.0
22.247,-2.491,1.487,15.0
159.718,-17.879,9.823,10.0
159.136,-17.809,8.934,15.0
158.5,-17.733,8.035,7.0
154.775,-17.312,7.019,3.0
153.752,-17.193,6.154,6.0
22.244,-2.49,1.514,14.0
174.594,-19.542,10.95,13.0
159.121,-17.803,9.128,16.0
158.538,-17.73,8.23,19.0
164.077,-18.344,7.641,5.0
153.691,-17.177,6.338,4.0
22.236,-2.488,1.541,13.0
22.259,-2.489,1.423,1.0
159.461,-17.828,9.34,18.0
158.732,-17.739,8.43,18.0
164.787,-18.407,7.872,3.0
153.704,-17.163,6.52,8.0
22.25,-2.488,1.568,11.0
22.256,-2.487,1.449,6.0
159.634,-17.829,9.538,18.0
159.138,-17.763,8.64,19.0
159.389,-17.782,7.8,4.0
153.661,-17.136,6.697,3.0
22.242,-2.484,1.594,2.0
22.253,-2.483,1.475,11.0
159.569,-17.796,9.721,16.0
159.188,-17.742,8.828,19.0
159.039,-17.714,7.968,8.0
155.009,-17.256,6.935,5.0
144.076,-16.063,10.493,4.0
22.262,-2.48,1.501,8.0
159.645,-17.772,9.909,9.0
159.104,-17.699,9.006,18.0
158.676,-17.639,8.13,18.0
0.0,0.0,0.0,0.0
0.0,0.0,0.0,0.0
22.266,-2.475,1.527,3.0
160.027,-17.773,10.117,14.0
159.262,-17.675,9.195,18.0
158.89,-17.62,8.321,17.0
164.112,-18.186,7.715,3.0
142.971,-15.867,10.74,13.0
22.228,-2.464,1.55,0.0
160.218,-17.747,10.311,6.0
159.71,-17.676,9.402,17.0
159.144,-17.599,8.512,19.0
159.457,-17.619,7.673,11.0
143.071,-15.832,10.907,13.0
143.141,-15.824,10.14,17.0
174.501,-19.271,11.422,20.0
159.902,-17.642,9.589,15.0
159.177,-17.545,8.69,18.0
159.465,-17.562,7.847,21.0
143.312,-15.807,11.084,6.0
143.357,-15.794,10.313,16.0
174.394,-19.193,11.604,19.0
159.926,-17.583,9.763,15.0
159.296,-17.495,8.868,17.0
159.367,-17.485,8.016,18.0
144.227,-15.85,11.31,13.0
143.117,-15.709,10.45,15.0
142.542,-15.627,9.638,16.0
159.956,-17.517,9.935,14.0
159.317,-17.428,9.037,17.0
159.484,-17.427,8.188,17.0
144.022,-15.763,11.447,6.0
142.837,-15.613,10.579,20.0
142.775,-15.587,9.801,15.0
159.939,-17.44,10.1,11.0
159.852,-17.41,9.232,15.0
159.199,-17.318,8.338,17.0
141.573,-15.425,11.4,3.0
142.976,-15.556,10.738,23.0
142.982,-15.537,9.963,13.0
174.514,-18.939,11.2,17.0
159.93,-17.334,9.4,11.0
159.086,-17.222,8.491,18.0
143.221,-15.529,11.677,2.0
143.18,-15.503,10.896,19.0
143.009,-15.463,10.107,19.0
174.49,-18.84,11.371,34.0
160.121,-17.266,9.568,12.0
159.368,-17.162,8.662,17.0
143.139,-15.44,11.81,11.0
143.546,-15.46,11.065,17.0
143.094,-15.388,10.254,20.0
174.455,-18.733,11.538,30.0
159.88,-17.144,9.707,16.0
159.515,-17.08,8.825,17.0
143.126,-15.35,11.949,11.0
143.96,-15.415,11.234,17.0
143.045,-15.292,10.388,20.0
174.557,-18.633,11.71,20.0
159.808,-17.033,9.854,14.0
159.278,-16.952,8.96,17.0
143.163,-15.261,12.086,7.0
143.767,-15.3,11.355,9.0
143.176,-15.212,10.528,18.0
174.692,-18.531,11.879,14.0
159.783,-16.921,10.0,9.0
158.342,-16.743,9.052,8.0
143.544,-15.202,12.251,4.0
142.576,-15.074,11.389,16.0
143.137,-15.106,10.656,15.0
142.493,-15.014,9.816,10.0
175.192,-18.429,11.118,7.0
158.503,-16.646,9.199,5.0
142.962,-15.037,12.327,10.0
142.423,-14.953,11.503,17.0
142.977,-14.984,10.769,12.0
142.422,-14.9,9.936,21.0
175.297,-18.308,11.274,18.0
159.858,-16.667,9.413,13.0
142.978,-14.93,12.451,17.0
142.304,-14.832,11.613,19.0
142.928,-14.867,10.885,16.0
142.608,-14.807,10.067,16.0
175.604,-18.2,11.441,23.0
160.211,-16.575,9.567,15.0
144.378,-14.96,12.693,8.0
142.596,-14.746,11.755,20.0
175.559,-18.119,13.513,7.0
142.334,-14.662,10.163,10.0
175.837,-18.079,11.596,24.0
160.547,-16.475,9.715,14.0
144.296,-14.831,12.801,10.0
142.737,-14.639,11.88,14.0
148.236,-15.173,11.525,14.0
143.834,-14.692,10.384,11.0
176.031,-17.945,11.747,18.0
160.429,-16.323,9.83,9.0
144.335,-14.709,12.914,11.0
142.429,-14.483,11.962,14.0
143.085,-14.52,11.232,8.0
143.674,-14.548,10.477,13.0
149.734,-15.13,10.102,11.0
160.118,-16.147,9.928,3.0
144.257,-14.571,13.012,12.0
144.417,-14.554,12.234,13.0
143.239,-14.404,11.347,14.0
143.142,-14.362,10.54,21.0
143.752,-14.392,9.8,15.0
176.76,-17.661,11.083,6.0
144.296,-14.439,13.118,15.0
144.355,-14.411,12.329,13.0
142.694,-14.214,11.402,5.0
0.0,0.0,0.0,0.0
143.91,-14.27,9.906,13.0
150.113,-14.853,9.512,16.0
144.568,-14.326,13.239,18.0
144.596,-14.295,12.444,11.0
142.474,-14.051,11.477,13.0
142.467,-14.017,10.68,9.0
177.251,-17.4,12.314,13.0
149.515,-14.644,9.568,19.0
144.652,-14.19,13.337,10.0
144.821,-14.17,12.555,6.0
145.249,-14.177,11.792,10.0
143.378,-13.961,10.835,13.0
177.565,-17.249,12.443,9.0
149.354,-14.474,9.647,12.0
144.456,-14.02,13.406,8.0
153.299,-14.84,13.38,4.0
145.15,-14.015,11.868,14.0
143.434,-13.816,10.922,11.0
151.407,-14.547,10.697,8.0
189.826,-18.196,12.367,6.0
146.55,-14.068,13.682,5.0
146.309,-14.007,12.852,4.0
145.232,-13.868,11.954,5.0
143.362,-13.654,10.994,4.0
153.863,-14.617,10.951,5.0
185.175,-17.548,12.162,7.0
148.384,-14.08,13.933,3.0
146.582,-13.872,12.952,7.0
145.618,-13.743,12.061,3.0
147.988,-13.931,11.424,7.0
145.86,-13.695,10.455,4.0
151.589,-14.196,10.03,17.0
148.184,-13.895,13.987,4.0
146.846,-13.732,13.045,11.0
147.185,-13.726,12.26,5.0
145.474,-13.529,11.298,13.0
146.129,-13.554,10.542,9.0
0.0,0.0,0.0,0.0
146.253,-13.546,13.871,9.0
145.494,-13.436,12.991,4.0
146.598,-13.501,12.275,13.0
145.114,-13.326,11.332,11.0
146.371,-13.403,10.622,6.0
146.897,-13.416,9.847,4.0
146.475,-13.394,13.953,3.0
145.415,-13.257,13.043,16.0
0.0,0.0,0.0,0.0
144.767,-13.122,11.362,16.0
145.648,-13.163,10.625,4.0
146.903,-13.24,9.904,11.0
146.655,-13.234,14.024,17.0
145.647,-13.101,13.119,17.0
147.493,-13.228,12.463,3.0
144.73,-12.943,11.41,18.0
144.859,-12.915,10.618,13.0
147.408,-13.106,9.988,2.0
145.839,-12.98,13.996,13.0
145.668,-12.924,13.167,12.0
144.29,-12.761,12.24,7.0
144.788,-12.767,11.462,18.0
144.822,-12.731,10.66,11.0
145.953,-12.792,9.933,18.0
145.692,-12.783,14.027,15.0
146.099,-12.777,13.25,4.0
145.574,-12.692,12.389,4.0
145.139,-12.613,11.53,16.0
145.456,-12.603,10.746,3.0
152.023,-13.133,10.386,6.0
145.571,-12.587,14.053,19.0
144.983,-12.496,13.184,11.0
0.0,0.0,0.0,0.0
145.297,-12.441,11.577,12.0
145.39,-12.41,10.774,12.0
146.007,-12.425,10.007,6.0
145.779,-12.416,14.104,12.0
145.09,-12.315,13.226,17.0
146.098,-12.359,12.5,13.0
145.323,-12.254,11.607,15.0
145.339,-12.215,10.797,14.0
154.49,-12.942,10.617,7.0
145.503,-12.197,14.104,6.0
145.134,-12.126,13.254,18.0
146.072,-12.163,12.522,14.0
146.661,-12.172,11.737,15.0
145.291,-12.019,10.815,10.0
144.591,-11.93,14.035,8.0
145.065,-11.927,13.266,19.0
145.939,-11.957,12.527,12.0
146.515,-11.963,11.742,6.0
147.902,-12.033,11.026,11.0
148.485,-12.041,10.24,4.0
145.796,-11.83,14.166,11.0
144.929,-11.717,13.267,7.0
146.007,-11.762,12.545,4.0
145.561,-11.684,11.676,13.0
153.042,-12.242,11.42,3.0
148.675,-11.853,10.262,14.0
145.703,-11.621,14.164,19.0
146.494,-11.64,13.418,8.0
145.72,-11.538,12.527,11.0
147.338,-11.623,11.823,11.0
146.652,-11.529,10.945,8.0
155.255,-12.161,10.72,13.0
145.777,-11.424,14.173,15.0
148.037,-11.558,13.559,12.0
145.607,-11.325,12.517,24.0
0.0,0.0,0.0,0.0
148.694,-11.482,11.097,5.0
155.079,-11.932,10.704,4.0
148.549,-11.432,14.438,7.0
119.132,-9.132,10.906,3.0
145.724,-11.128,12.519,12.0
153.401,-11.669,12.301,3.0
147.205,-11.155,10.977,5.0
155.617,-11.748,10.73,5.0
147.361,-11.126,14.312,12.0
119.191,-8.965,10.901,9.0
119.23,-8.932,10.233,13.0
149.976,-11.193,12.011,4.0
122.224,-9.086,9.1,9.0
122.632,-9.082,8.442,5.0
146.971,-10.884,14.257,16.0
119.332,-8.802,10.9,6.0
119.31,-8.765,10.224,5.0
87.799,-6.424,7.019,13.0
119.499,-8.709,8.881,7.0
122.495,-8.893,8.414,13.0
90.482,-6.568,8.762,10.0
119.474,-8.637,10.892,13.0
120.647,-8.687,10.317,7.0
87.969,-6.308,7.017,17.0
119.582,-8.541,8.864,5.0
122.475,-8.714,8.388,18.0
90.834,-6.461,8.778,14.0
116.927,-8.282,10.636,9.0
119.115,-8.403,10.159,14.0
88.038,-6.184,7.002,16.0
119.872,-8.386,8.858,8.0
122.357,-8.525,8.351,18.0
90.934,-6.333,8.764,15.0
117.161,-8.124,10.626,15.0
88.144,-6.085,7.495,11.0
88.108,-6.058,6.984,24.0
119.462,-8.179,8.794,8.0
121.748,-8.301,8.274,17.0
91.127,-6.21,8.756,19.0
117.116,-7.946,10.588,12.0
87.999,-5.945,7.455,11.0
88.233,-5.935,6.966,9.0
122.192,-8.185,8.956,6.0
121.991,-8.137,8.251,6.0
91.295,-6.085,8.741,32.0
89.686,-5.95,8.077,4.0
88.625,-5.854,7.478,19.0
88.294,-5.808,6.939,16.0
119.519,-7.827,8.717,8.0
121.371,-7.913,8.165,11.0
90.918,-5.922,8.671,23.0
0.0,0.0,0.0,0.0
88.648,-5.722,7.444,14.0
88.215,-5.668,6.898,21.0
91.61,-5.861,6.644,13.0
121.441,-7.735,8.119,16.0
90.887,-5.784,8.629,20.0
88.506,-5.605,7.898,22.0
117.379,-7.401,9.806,10.0
88.243,-5.539,6.861,10.0
87.699,-5.479,6.321,5.0
89.169,-5.546,5.922,4.0
91.544,-5.688,8.649,20.0
88.841,-5.495,7.886,20.0
113.282,-6.973,9.411,7.0
88.054,-5.394,6.804,29.0
91.696,-5.591,6.564,9.0
89.392,-5.426,5.891,7.0
87.512,-5.304,8.223,17.0
88.732,-5.353,7.831,18.0
88.398,-5.308,7.296,20.0
88.478,-5.287,6.789,28.0
91.681,-5.452,6.514,5.0
89.242,-5.282,5.833,19.0
87.643,-5.179,8.187,28.0
93.404,-5.491,8.19,12.0
88.698,-5.19,7.27,26.0
88.652,-5.161,6.752,20.0
87.983,-5.097,6.199,12.0
89.328,-5.151,5.786,26.0
88.142,-5.073,8.181,21.0
89.064,-5.1,7.756,11.0
88.582,-5.048,7.207,18.0
90.188,-5.114,6.813,14.0
90.022,-5.078,6.287,11.0
92.142,-5.173,5.91,11.0
88.581,-4.964,8.164,17.0
89.016,-4.963,7.693,22.0
88.477,-4.907,7.14,19.0
94.18,-5.197,7.052,4.0
87.909,-4.826,6.08,14.0
92.191,-5.037,5.852,29.0
86.852,-4.734,7.945,16.0
87.215,-4.729,7.477,13.0
89.101,-4.806,7.128,18.0
94.309,-5.06,6.995,4.0
87.923,-4.694,6.019,29.0
108.533,-5.765,6.811,6.0
86.875,-4.603,7.883,20.0
88.372,-4.657,7.511,15.0
89.12,-4.671,7.063,14.0
88.181,-4.597,6.475,17.0
88.044,-4.566,5.961,11.0
111.785,-5.767,6.93,8.0
85.31,-4.39,7.675,14.0
87.367,-4.472,7.357,11.0
89.01,-4.531,6.985,18.0
88.358,-4.473,6.418,16.0
88.093,-4.435,5.894,16.0
91.522,-4.584,5.6,5.0
87.274,-4.359,7.781,16.0
89.448,-4.443,7.459,6.0
88.216,-4.358,6.85,15.0
89.016,-4.373,6.393,21.0
91.197,-4.456,6.026,16.0
90.902,-4.416,5.486,20.0
87.514,-4.239,7.726,16.0
89.136,-4.293,7.357,13.0
88.355,-4.231,6.784,13.0
89.007,-4.239,6.313,24.0
90.486,-4.285,5.9,23.0
90.855,-4.279,5.403,4.0
87.214,-4.093,7.621,23.0
89.21,-4.163,7.283,10.0
88.039,-4.084,6.68,26.0
89.078,-4.109,6.237,17.0
90.869,-4.168,5.841,11.0
98.598,-4.496,5.773,17.0
87.505,-3.975,7.565,25.0
89.076,-4.023,7.186,16.0
88.174,-3.959,6.606,15.0
90.785,-4.051,6.27,10.0
98.041,-4.349,6.207,17.0
98.711,-4.353,5.683,16.0
92.983,-4.084,7.945,7.0
88.463,-3.863,7.049,14.0
88.962,-3.861,6.576,23.0
88.451,-3.815,6.019,7.0
88.244,-3.784,5.498,11.0
98.819,-4.212,5.59,10.0
93.914,-3.985,7.929,14.0
88.125,-3.716,6.93,25.0
88.577,-3.713,6.455,17.0
88.41,-3.683,5.924,16.0
94.697,-3.92,5.801,17.0
90.162,-3.709,5.004,15.0
88.425,-3.622,7.37,8.0
87.938,-3.58,6.822,27.0
87.768,-3.55,6.301,16.0
89.385,-3.592,5.893,15.0
89.844,-3.589,5.405,20.0
90.183,-3.579,4.907,18.0
88.194,-3.483,7.253,13.0
87.681,-3.441,6.704,28.0
87.998,-3.432,6.22,15.0
89.615,-3.473,5.808,21.0
90.021,-3.467,5.316,14.0
113.3,-4.335,6.039,32.0
87.561,-3.334,7.102,30.0
88.149,-3.334,6.64,22.0
87.796,-3.299,6.105,23.0
90.142,-3.364,5.738,15.0
113.218,-4.196,6.553,7.0
113.391,-4.176,5.91,24.0
85.242,-3.122,6.813,11.0
87.986,-3.201,6.522,15.0
87.734,-3.17,5.995,13.0
97.949,-3.516,6.117,16.0
131.519,-4.688,7.455,15.0
190.266,-6.737,9.688,17.0
85.304,-3.002,6.712,22.0
87.979,-3.075,6.412,32.0
95.774,-3.325,6.427,18.0
96.02,-3.31,5.878,13.0
130.995,-4.486,7.264,23.0
190.586,-6.484,9.469,16.0
85.32,-2.885,6.607,6.0
87.889,-2.951,6.297,20.0
94.14,-3.138,6.199,16.0
99.207,-3.284,5.948,15.0
189.941,-6.243,10.292,16.0
190.167,-6.208,9.207,18.0
87.825,-2.848,6.687,4.0
87.687,-2.823,6.168,11.0
94.022,-3.005,6.069,23.0
111.228,-3.529,6.525,13.0
99.129,-3.122,5.241,13.0
190.031,-5.944,8.951,21.0
96.307,-2.992,7.205,12.0
95.889,-2.957,6.618,9.0
96.893,-2.965,6.125,18.0
97.53,-2.962,5.589,11.0
189.386,-5.709,9.759,17.0
189.842,-5.68,8.684,12.0
87.907,-2.611,6.456,13.0
88.347,-2.603,5.974,25.0
88.253,-2.581,5.457,10.0
96.962,-2.815,5.423,30.0
189.697,-5.465,9.511,14.0
190.241,-5.44,8.44,12.0
87.148,-2.472,6.278,17.0
95.776,-2.695,6.342,10.0
88.259,-2.464,5.332,19.0
131.683,-3.649,7.179,14.0
189.555,-5.213,9.237,21.0
190.077,-5.186,8.163,15.0
97.549,-2.639,6.886,15.0
96.64,-2.594,6.26,15.0
96.66,-2.574,5.7,18.0
99.109,-2.617,5.26,14.0
171.727,-4.499,8.118,16.0
171.572,-4.458,7.116,16.0
86.979,-2.24,6.012,9.0
98.866,-2.525,6.258,17.0
96.741,-2.45,5.56,13.0
96.794,-2.431,4.992,17.0
171.686,-4.278,7.861,35.0
171.64,-4.241,6.863,28.0
86.459,-2.117,5.845,17.0
96.894,-2.352,5.985,22.0
96.731,-2.327,5.413,33.0
96.789,-2.309,4.844,44.0
128.421,-3.038,5.682,11.0
128.407,-3.011,4.938,26.0
96.796,-2.247,6.393,7.0
96.676,-2.225,5.822,43.0
96.841,-2.21,5.269,19.0
96.817,-2.189,4.696,46.0
96.901,-2.172,4.136,36.0
125.488,-2.788,4.629,36.0
96.737,-2.127,6.237,33.0
107.029,-2.331,6.276,17.0
128.412,-2.773,6.783,15.0
96.911,-2.073,4.545,14.0
96.915,-2.055,3.984,45.0
96.98,-2.037,3.423,21.0
0.0,0.0,0.0,0.0
128.499,-2.645,7.329,13.0
190.396,-3.883,9.751,20.0
189.955,-3.839,8.604,17.0
96.936,-1.94,3.828,37.0
96.932,-1.922,3.264,32.0
98.669,-1.934,6.04,16.0
99.011,-1.922,5.484,16.0
190.434,-3.661,9.44,22.0
193.763,-3.69,8.459,5.0
97.016,-1.829,3.671,15.0
96.779,-1.807,3.1,11.0
98.637,-1.82,5.875,18.0
99.079,-1.81,5.324,26.0
190.817,-3.45,9.141,15.0
193.87,-3.471,8.139,7.0
97.071,-1.72,3.51,2.0
89.731,-1.574,2.724,3.0
98.651,-1.708,5.708,16.0
99.176,-1.7,5.161,6.0
0.0,0.0,0.0,0.0
0.0,0.0,0.0,0.0
0.0,0.0,0.0,0.0
87.518,-1.438,2.508,1.0
98.612,-1.599,5.535,16.0
191.316,-3.068,9.622,10.0
193.038,-3.063,8.584,21.0
171.666,-2.695,6.618,18.0
96.756,-1.502,3.166,2.0
0.0,0.0,0.0,0.0
98.683,-1.494,5.367,18.0
193.545,-2.896,9.395,22.0
193.434,-2.861,8.26,10.0
171.433,-2.508,6.305,15.0
89.892,-1.3,2.783,4.0
64.029,-0.915,1.609,0.0
90.724,-1.277,4.771,5.0
192.975,-2.686,9.024,18.0
193.658,-2.664,7.925,5.0
0.0,0.0,0.0,0.0
85.472,-1.148,2.492,2.0
0.0,0.0,0.0,0.0
90.642,-1.184,4.603,29.0
90.746,-1.17,4.078,12.0
90.73,-1.155,3.547,13.0
90.733,-1.142,3.01,14.0
0.0,0.0,0.0,0.0
0.0,0.0,0.0,0.0
90.615,-1.093,4.434,40.0
90.64,-1.079,3.906,51.0
90.633,-1.065,3.377,54.0
90.4,-1.048,2.83,11.0
0.0,0.0,0.0,0.0
0.0,0.0,0.0,0.0
90.605,-1.005,4.265,45.0
90.616,-0.992,3.736,58.0
90.605,-0.978,3.207,49.0
83.985,-0.894,2.473,1.0
0.0,0.0,0.0,0.0
0.0,0.0,0.0,0.0
90.64,-0.922,4.096,37.0
90.634,-0.909,3.567,49.0
90.581,-0.895,3.036,32.0
83.023,-0.809,2.29,1.0
0.0,0.0,0.0,0.0
0.0,0.0,0.0,0.0
90.679,-0.84,3.926,11.0
90.66,-0.827,3.395,30.0
90.455,-0.813,2.858,10.0
0.0,0.0,0.0,0.0
0.0,0.0,0.0,0.0
0.0,0.0,0.0,0.0
127.817,-1.074,5.289,46.0
90.735,-0.75,3.223,6.0
82.959,-0.675,2.462,4.0
0.0,0.0,0.0,0.0
44.082,-0.347,0.789,0.0
36.147,-0.28,0.436,0.0
127.764,-0.968,5.04,9.0
90.703,-0.675,3.047,4.0
81.705,-0.598,2.268,2.0
0.0,0.0,0.0,0.0
41.472,-0.293,0.662,0.0
33.4,-0.231,0.338,0.0
0.0,0.0,0.0,0.0
90.424,-0.601,2.861,5.0
0.0,0.0,0.0,0.0
0.0,0.0,0.0,0.0
38.551,-0.242,0.54,0.0
31.946,-0.196,0.26,1.0
108.658,-0.651,3.856,4.0
82.637,-0.485,2.45,3.0
0.0,0.0,0.0,0.0
43.519,-0.245,0.776,0.0
36.228,-0.2,0.434,0.0
30.743,-0.166,0.189,1.0
104.59,-0.549,3.501,7.0
80.273,-0.412,2.217,1.0
0.0,0.0,0.0,0.0
41.287,-0.202,0.653,0.0
33.155,-0.159,0.331,0.0
28.802,-0.135,0.119,6.0
83.201,-0.379,2.618,3.0
0.0,0.0,0.0,0.0
0.0,0.0,0.0,0.0
37.721,-0.159,0.521,0.0
31.645,-0.13,0.252,0.0
28.513,-0.114,0.061,2.0
82.734,-0.322,2.437,2.0
57.733,-0.219,1.363,0.0
0.0,0.0,0.0,0.0
35.603,-0.127,0.42,0.0
28.945,-0.101,0.172,0.0
26.911,-0.091,0.003,0.0
79.407,-0.259,2.177,2.0
0.0,0.0,0.0,0.0
0.0,0.0,0.0,0.0
33.18,-0.098,0.324,1.0
28.801,-0.082,0.113,6.0
25.787,-0.071,-0.049,0.0
0.0,0.0,0.0,0.0
0.0,0.0,0.0,0.0
36.83,-0.091,0.502,0.0
31.481,-0.075,0.242,0.0
28.107,-0.064,0.052,1.0
24.798,-0.054,-0.099,0.0
0.0,0.0,0.0,0.0
0.0,0.0,0.0,0.0
35.347,-0.068,0.409,0.0
0.0,0.0,0.0,0.0
26.575,-0.046,-0.005,0.0
23.611,-0.039,-0.143,0.0
0.0,0.0,0.0,0.0
0.0,0.0,0.0,0.0
33.264,-0.046,0.315,0.0
28.678,-0.038,0.101,2.0
25.61,-0.031,-0.059,0.0
22.073,-0.025,-0.18,0.0
0.0,0.0,0.0,0.0
36.705,-0.036,0.486,0.0
30.94,-0.028,0.228,0.0
27.585,-0.023,0.039,0.0
24.175,-0.018,-0.106,0.0
21.149,-0.014,-0.216,2.0
42.65,-0.026,0.724,0.0
34.382,-0.019,0.383,0.0
30.072,-0.014,0.159,0.0
26.241,-0.01,-0.017,0.0
23.486,-0.008,-0.152,0.0
19.946,-0.005,-0.246,0.0
0.0,0.0,0.0,0.0
33.114,-0.004,0.299,0.0
28.61,-0.002,0.091,1.0
25.332,0.0,-0.07,0.0
21.703,0.001,-0.187,0.0
18.966,0.002,-0.274,0.0
36.779,0.006,0.47,0.0
30.852,0.007,0.213,0.0
27.365,0.007,0.029,0.0
23.851,0.008,-0.116,0.0
21.003,0.008,-0.225,2.0
18.143,0.008,-0.3,0.0
33.844,0.017,0.361,0.0
28.786,0.016,0.138,0.0
26.03,0.016,-0.026,0.0
23.111,0.015,-0.161,0.0
19.587,0.014,-0.251,0.0
17.319,0.013,-0.323,0.0
31.964,0.026,0.273,0.0
28.527,0.024,0.077,1.0
25.102,0.022,-0.079,0.0
21.486,0.02,-0.195,2.0
18.712,0.018,-0.28,0.0
16.757,0.017,-0.349,0.0
30.477,0.033,0.195,0.0
26.949,0.03,0.015,0.0
23.751,0.027,-0.125,1.0
20.793,0.025,-0.233,0.0
17.946,0.022,-0.306,0.0
16.278,0.021,-0.373,0.0
28.753,0.037,0.123,1.0
25.871,0.035,-0.04,0.0
22.677,0.031,-0.167,0.0
19.277,0.027,-0.257,0.0
17.137,0.025,-0.329,0.0
15.756,0.023,-0.395,0.0
28.04,0.042,0.06,1.0
24.566,0.037,-0.09,0.0
21.317,0.033,-0.203,4.0
18.494,0.029,-0.286,0.0
16.641,0.027,-0.355,0.0
15.275,0.025,-0.415,0.0
26.569,0.044,0.0,0.0
23.502,0.039,-0.136,1.0
20.435,0.035,-0.238,0.0
17.644,0.03,-0.311,0.0
16.147,0.028,-0.379,0.0
14.628,0.026,-0.429,0.0
25.446,0.045,-0.053,0.0
22.038,0.039,-0.175,0.0
19.036,0.034,-0.262,0.0
16.973,0.031,-0.335,0.0
15.598,0.029,-0.399,0.0
14.23,0.027,-0.447,0.0
24.182,0.045,-0.102,0.0
21.125,0.039,-0.213,4.0
18.242,0.034,-0.29,0.0
16.454,0.031,-0.36,0.0
14.951,0.029,-0.415,0.0
13.817,0.027,-0.464,0.0
23.246,0.044,-0.148,1.0
20.059,0.038,-0.245,0.0
17.464,0.033,-0.315,0.0
16.028,0.031,-0.385,0.0
14.526,0.028,-0.434,0.0
13.487,0.026,-0.482,0.0
21.731,0.041,-0.185,3.0
18.813,0.036,-0.27,0.0
16.855,0.032,-0.34,0.0
15.447,0.03,-0.404,0.0
14.046,0.027,-0.449,0.0
13.098,0.025,-0.496,0.0
20.954,0.039,-0.222,2.0
17.968,0.034,-0.296,0.0
16.372,0.031,-0.365,0.0
14.785,0.028,-0.418,0.0
13.753,0.026,-0.469,0.0
12.736,0.024,-0.509,0.0
19.617,0.035,-0.249,0.0
17.245,0.031,-0.32,0.0
15.79,0.028,-0.385,0.0
14.363,0.026,-0.436,0.0
13.432,0.024,-0.487,0.0
12.459,0.022,-0.525,0.0
18.621,0.031,-0.276,0.0
16.713,0.028,-0.345,0.0
15.372,0.026,-0.408,0.0
13.928,0.023,-0.452,0.0
13.032,0.021,-0.5,0.0
12.188,0.02,-0.539,0.0
17.803,0.028,-0.301,0.0
16.238,0.025,-0.369,0.0
14.772,0.022,-0.423,0.0
13.583,0.02,-0.47,0.0
12.749,0.019,-0.515,0.0
11.886,0.017,-0.55,0.0
17.107,0.023,-0.325,0.0
15.712,0.021,-0.391,0.0
14.276,0.019,-0.438,0.0
13.316,0.017,-0.488,0.0
12.427,0.016,-0.528,0.0
11.634,0.015,-0.563,0.0
16.621,0.019,-0.35,0.0
15.142,0.017,-0.408,0.0
13.884,0.015,-0.455,0.0
12.962,0.014,-0.502,0.0
12.09,0.012,-0.539,0.0
11.372,0.011,-0.574,0.0
16.084,0.014,-0.373,0.0
14.693,0.013,-0.426,0.0
13.56,0.011,-0.473,0.0
12.571,0.01,-0.513,0.0
11.871,0.009,-0.554,0.0
11.106,0.008,-0.584,0.0
15.577,0.009,-0.393,0.0
14.22,0.008,-0.442,0.0
13.183,0.007,-0.487,0.0
12.368,0.006,-0.531,0.0
11.561,0.005,-0.564,0.0
10.901,0.004,-0.595,0.0
15.068,0.004,-0.411,0.0
13.819,0.003,-0.458,0.0
12.912,0.002,-0.503,0.0
12.06,0.002,-0.542,0.0
11.297,0.001,-0.574,0.0
10.645,0.001,-0.603,0.0
14.509,0.0,-0.425,0.0
13.559,-0.001,-0.476,0.0
12.526,-0.001,-0.513,0.0
11.791,-0.002,-0.554,0.0
11.055,-0.002,-0.584,0.0
10.398,-0.003,-0.61,0.0
14.141,-0.006,-0.443,0.0
13.196,-0.006,-0.49,0.0
12.353,-0.006,-0.531,0.0
11.531,-0.006,-0.564,0.0
10.83,-0.007,-0.594,0.0
10.212,-0.007,-0.62,0.0
13.819,-0.012,-0.46,0.0
12.866,-0.012,-0.503,0.0
11.993,-0.011,-0.539,0.0
11.266,-0.011,-0.574,0.0
10.651,-0.011,-0.605,0.0
10.01,-0.011,-0.627,0.0
13.471,-0.018,-0.475,0.0
12.509,-0.017,-0.514,0.0
11.787,-0.017,-0.554,0.0
11.033,-0.016,-0.584,0.0
10.38,-0.016,-0.61,0.0
9.83,-0.016,-0.635,0.0
13.231,-0.024,-0.493,0.0
12.268,-0.023,-0.528,0.0
11.532,-0.022,-0.564,0.0
10.811,-0.022,-0.593,0.0
10.226,-0.021,-0.621,0.0
9.695,-0.021,-0.646,0.0
12.857,-0.03,-0.504,0.0
11.948,-0.029,-0.538,0.0
11.302,-0.028,-0.575,0.0
10.552,-0.027,-0.6,0.0
10.076,-0.027,-0.632,0.0
9.5,-0.026,-0.651,0.0
12.564,-0.037,-0.516,0.0
11.767,-0.035,-0.552,0.0
11.073,-0.034,-0.584,0.0
10.375,-0.033,-0.609,0.0
9.774,-0.031,-0.631,0.0
9.326,-0.031,-0.657,0.0
12.354,-0.043,-0.531,0.0
11.478,-0.041,-0.56,0.0
10.772,-0.04,-0.589,0.0
10.204,-0.038,-0.618,0.0
9.659,-0.037,-0.642,0.0
9.146,-0.036,-0.662,0.0
11.976,-0.05,-0.537,0.0
11.289,-0.048,-0.572,0.0
10.622,-0.046,-0.601,0.0
9.981,-0.044,-0.624,0.0
9.448,-0.042,-0.646,0.0
8.953,-0.041,-0.664,0.0
11.777,-0.057,-0.55,0.0
11.038,-0.054,-0.58,0.0
10.368,-0.052,-0.605,0.0
0.0,0.0,0.0,0.0
9.399,-0.049,-0.66,0.0
8.895,-0.047,-0.676,0.0
11.536,-0.064,-0.56,0.0
10.794,-0.06,-0.587,0.0
10.233,-0.058,-0.616,0.0
9.619,-0.056,-0.636,0.0
0.0,0.0,0.0,0.0
8.696,-0.052,-0.677,0.0
11.364,-0.071,-0.572,0.0
10.653,-0.067,-0.598,0.0
0.0,0.0,0.0,0.0
9.604,-0.063,-0.652,0.0
0.0,0.0,0.0,0.0
8.634,-0.058,-0.688,0.0
11.098,-0.078,-0.578,0.0
10.474,-0.074,-0.607,0.0
0.0,0.0,0.0,0.0
0.0,0.0,0.0,0.0
0.0,0.0,0.0,0.0
8.495,-0.064,-0.692,0.0
10.89,-0.085,-0.586,0.0
10.28,-0.081,-0.613,0.0
9.721,-0.078,-0.637,0.0
0.0,0.0,0.0,0.0
0.0,0.0,0.0,0.0
0.0,0.0,0.0,0.0
10.726,-0.092,-0.596,0.0
10.112,-0.088,-0.621,0.0
0.0,0.0,0.0,0.0
0.0,0.0,0.0,0.0
0.0,0.0,0.0,0.0
8.306,-0.076,-0.705,0.0
10.501,-0.099,-0.601,0.0
10.001,-0.096,-0.631,0.0
0.0,0.0,0.0,0.0
0.0,0.0,0.0,0.0
8.544,-0.085,-0.689,0.0
8.181,-0.082,-0.708,0.0
10.366,-0.107,-0.61,0.0
0.0,0.0,0.0,0.0
0.0,0.0,0.0,0.0
0.0,0.0,0.0,0.0
0.0,0.0,0.0,0.0
8.084,-0.088,-0.713,0.0
10.192,-0.114,-0.617,0.0
0.0,0.0,0.0,0.0
0.0,0.0,0.0,0.0
0.0,0.0,0.0,0.0
8.307,-0.097,-0.697,0.0
7.926,-0.094,-0.712,0.0
10.01,-0.121,-0.622,0.0
0.0,0.0,0.0,0.0
0.0,0.0,0.0,0.0
8.63,-0.108,-0.688,0.0
8.251,-0.105,-0.706,0.0
7.858,-0.101,-0.718,0.0
9.924,-0.13,-0.632,0.0
0.0,0.0,0.0,0.0
0.0,0.0,0.0,0.0
0.0,0.0,0.0,0.0
8.071,-0.11,-0.703,0.0
0.0,0.0,0.0,0.0
9.73,-0.137,-0.635,0.0
0.0,0.0,0.0,0.0
8.772,-0.126,-0.674,0.0
0.0,0.0,0.0,0.0
8.026,-0.117,-0.711,0.0
0.0,0.0,0.0,0.0
0.0,0.0,0.0,0.0
0.0,0.0,0.0,0.0
8.657,-0.133,-0.678,0.0
0.0,0.0,0.0,0.0
7.928,-0.124,-0.714,0.0
0.0,0.0,0.0,0.0
0.0,0.0,0.0,0.0
0.0,0.0,0.0,0.0
8.611,-0.141,-0.687,0.0
0.0,0.0,0.0,0.0
7.9,-0.132,-0.723,0.0
0.0,0.0,0.0,0.0
0.0,0.0,0.0,0.0
0.0,0.0,0.0,0.0
0.0,0.0,0.0,0.0
0.0,0.0,0.0,0.0
0.0,0.0,0.0,0.0
0.0,0.0,0.0,0.0
0.0,0.0,0.0,0.0
0.0,0.0,0.0,0.0
8.411,-0.156,-0.695,0.0
0.0,0.0,0.0,0.0
0.0,0.0,0.0,0.0
7.361,-0.14,-0.737,0.0
9.159,-0.176,-0.663,0.0
0.0,0.0,0.0,0.0
8.279,-0.162,-0.695,0.0
0.0,0.0,0.0,0.0
0.0,0.0,0.0,0.0
7.332,-0.148,-0.745,0.0
8.973,-0.183,-0.661,0.0
8.551,-0.176,-0.679,0.0
0.0,0.0,0.0,0.0
0.0,0.0,0.0,0.0
0.0,0.0,0.0,0.0
7.244,-0.154,-0.745,0.0
8.889,-0.191,-0.666,0.0
8.506,-0.184,-0.687,0.0
8.205,-0.179,-0.71,0.0
0.0,0.0,0.0,0.0
0.0,0.0,0.0,0.0
7.187,-0.161,-0.748,0.0
8.772,-0.199,-0.668,0.0
0.0,0.0,0.0,0.0
8.035,-0.185,-0.705,0.0
0.0,0.0,0.0,0.0
0.0,0.0,0.0,0.0
7.111,-0.168,-0.749,0.0
8.751,-0.208,-0.677,0.0
0.0,0.0,0.0,0.0
0.0,0.0,0.0,0.0
0.0,0.0,0.0,0.0
7.312,-0.179,-0.736,0.0
7.02,-0.174,-0.748,0.0
8.646,-0.216,-0.679,0.0
8.262,-0.208,-0.697,0.0
0.0,0.0,0.0,0.0
0.0,0.0,0.0,0.0
7.3,-0.188,-0.743,0.0
7.046,-0.183,-0.758,0.0
8.571,-0.224,-0.683,0.0
8.22,-0.217,-0.703,0.0
7.882,-0.209,-0.719,0.0
0.0,0.0,0.0,0.0
7.217,-0.194,-0.743,0.0
0.0,0.0,0.0,0.0
8.468,-0.232,-0.684,0.0
8.122,-0.224,-0.703,0.0
0.0,0.0,0.0,0.0
0.0,0.0,0.0,0.0
7.15,-0.201,-0.744,0.0
0.0,0.0,0.0,0.0
8.413,-0.241,-0.688,0.0
8.124,-0.234,-0.711,0.0
0.0,0.0,0.0,0.0
0.0,0.0,0.0,0.0
7.112,-0.209,-0.747,0.0
6.859,-0.203,-0.76,0.0
8.341,-0.249,-0.691,0.0
0.0,0.0,0.0,0.0
0.0,0.0,0.0,0.0
0.0,0.0,0.0,0.0
7.077,-0.217,-0.75,0.0
6.826,-0.211,-0.763,0.0
8.242,-0.256,-0.691,0.0
0.0,0.0,0.0,0.0
0.0,0.0,0.0,0.0
7.236,-0.229,-0.732,0.0
0.0,0.0,0.0,0.0
6.779,-0.218,-0.764,0.0
8.252,-0.267,-0.699,0.0
0.0,0.0,0.0,0.0
0.0,0.0,0.0,0.0
7.249,-0.239,-0.74,0.0
0.0,0.0,0.0,0.0
6.725,-0.225,-0.764,0.0
8.155,-0.274,-0.698,0.0
0.0,0.0,0.0,0.0
0.0,0.0,0.0,0.0
7.227,-0.247,-0.744,0.0
0.0,0.0,0.0,0.0
6.676,-0.232,-0.764,0.0
8.112,-0.283,-0.701,0.0
7.802,-0.274,-0.719,0.0
0.0,0.0,0.0,0.0
7.152,-0.254,-0.742,0.0
0.0,0.0,0.0,0.0
6.692,-0.241,-0.772,0.0
8.046,-0.291,-0.702,0.0
0.0,0.0,0.0,0.0
0.0,0.0,0.0,0.0
7.148,-0.263,-0.747,0.0
6.893,-0.255,-0.76,0.0
0.0,0.0,0.0,0.0
0.0,0.0,0.0,0.0
0.0,0.0,0.0,0.0
0.0,0.0,0.0,0.0
0.0,0.0,0.0,0.0
6.873,-0.263,-0.763,0.0
6.574,-0.254,-0.768,0.0
0.0,0.0,0.0,0.0
0.0,0.0,0.0,0.0
0.0,0.0,0.0,0.0
7.034,-0.277,-0.745,0.0
6.838,-0.271,-0.764,0.0
6.533,-0.261,-0.767,0.0
7.959,-0.319,-0.711,0.0
0.0,0.0,0.0,0.0
7.277,-0.295,-0.733,0.0
0.0,0.0,0.0,0.0
6.818,-0.279,-0.766,0.0
6.511,-0.268,-0.769,0.0
7.904,-0.327,-0.711,0.0
0.0,0.0,0.0,0.0
7.282,-0.304,-0.738,0.0
0.0,0.0,0.0,0.0
6.789,-0.287,-0.767,0.0
6.52,-0.277,-0.774,0.0
0.0,0.0,0.0,0.0
7.502,-0.322,-0.722,0.0
7.252,-0.313,-0.739,0.0
0.0,0.0,0.0,0.0
6.718,-0.293,-0.762,0.0
6.47,-0.284,-0.771,0.0
0.0,0.0,0.0,0.0
0.0,0.0,0.0,0.0
7.247,-0.322,-0.742,0.0
0.0,0.0,0.0,0.0
6.673,-0.3,-0.761,0.0
6.444,-0.291,-0.771,0.0
0.0,0.0,0.0,0.0
0.0,0.0,0.0,0.0
7.21,-0.33,-0.742,0.0
0.0,0.0,0.0,0.0
6.695,-0.309,-0.766,0.0
0.0,0.0,0.0,0.0
0.0,0.0,0.0,0.0
0.0,0.0,0.0,0.0
7.196,-0.338,-0.743,0.0
0.0,0.0,0.0,0.0
0.0,0.0,0.0,0.0
0.0,0.0,0.0,0.0
0.0,0.0,0.0,0.0
0.0,0.0,0.0,0.0
7.135,-0.345,-0.74,0.0
6.848,-0.333,-0.75,0.0
0.0,0.0,0.0,0.0
0.0,0.0,0.0,0.0
0.0,0.0,0.0,0.0
0.0,0.0,0.0,0.0
7.143,-0.355,-0.743,0.0
6.852,-0.342,-0.752,0.0
6.587,-0.33,-0.761,0.0
0.0,0.0,0.0,0.0
0.0,0.0,0.0,0.0
0.0,0.0,0.0,0.0
7.15,-0.364,-0.746,0.0
6.858,-0.351,-0.755,0.0
6.633,-0.341,-0.768,0.0
0.0,0.0,0.0,0.0
0.0,0.0,0.0,0.0
0.0,0.0,0.0,0.0
7.091,-0.37,-0.741,0.0
6.862,-0.36,-0.757,0.0
6.595,-0.348,-0.765,0.0
6.405,-0.339,-0.78,0.0
0.0,0.0,0.0,0.0
0.0,0.0,0.0,0.0
7.066,-0.378,-0.74,0.0
6.836,-0.367,-0.755,0.0
6.63,-0.358,-0.77,0.0
6.403,-0.347,-0.78,0.0
0.0,0.0,0.0,0.0
0.0,0.0,0.0,0.0
7.122,-0.39,-0.747,0.0
6.79,-0.374,-0.751,0.0
6.569,-0.363,-0.764,0.0
6.347,-0.352,-0.774,0.0
0.0,0.0,0.0,0.0
0.0,0.0,0.0,0.0
7.089,-0.397,-0.744,0.0
6.842,-0.385,-0.758,0.0
6.586,-0.373,-0.767,0.0
6.369,-0.362,-0.778,0.0
0.0,0.0,0.0,0.0
0.0,0.0,0.0,0.0
7.072,-0.405,-0.743,0.0
6.83,-0.393,-0.757,0.0
6.58,-0.38,-0.766,0.0
6.365,-0.37,-0.777,0.0
0.0,0.0,0.0,0.0
0.0,0.0,0.0,0.0
7.084,-0.415,-0.744,0.0
6.783,-0.399,-0.752,0.0
6.55,-0.387,-0.763,0.0
0.0,0.0,0.0,0.0
0.0,0.0,0.0,0.0
0.0,0.0,0.0,0.0
7.075,-0.423,-0.743,0.0
6.815,-0.409,-0.755,0.0
6.614,-0.399,-0.77,0.0
6.391,-0.387,-0.78,0.0
0.0,0.0,0.0,0.0
0.0,0.0,0.0,0.0
7.112,-0.434,-0.746,0.0
6.784,-0.416,-0.751,0.0
6.595,-0.406,-0.767,0.0
6.403,-0.395,-0.781,0.0
0.0,0.0,0.0,0.0
0.0,0.0,0.0,0.0
7.123,-0.443,-0.747,0.0
6.811,-0.425,-0.753,0.0
6.614,-0.415,-0.768,0.0
6.361,-0.4,-0.775,0.0
0.0,0.0,0.0,0.0
0.0,0.0,0.0,0.0
7.104,-0.45,-0.744,0.0
6.821,-0.434,-0.753,0.0
6.604,-0.422,-0.766,0.0
0.0,0.0,0.0,0.0
0.0,0.0,0.0,0.0
0.0,0.0,0.0,0.0
7.162,-0.463,-0.748,0.0
0.0,0.0,0.0,0.0
6.634,-0.432,-0.768,0.0
0.0,0.0,0.0,0.0
0.0,0.0,0.0,0.0
0.0,0.0,0.0,0.0
7.122,-0.468,-0.742,0.0
0.0,0.0,0.0,0.0
6.583,-0.436,-0.761,0.0
0.0,0.0,0.0,0.0
0.0,0.0,0.0,0.0
0.0,0.0,0.0,0.0
7.124,-0.476,-0.74,0.0
0.0,0.0,0.0,0.0
6.647,-0.448,-0.766,0.0
6.42,-0.434,-0.776,0.0
0.0,0.0,0.0,0.0
0.0,0.0,0.0,0.0
7.16,-0.487,-0.742,0.0
0.0,0.0,0.0,0.0
6.71,-0.459,-0.771,0.0
6.438,-0.442,-0.776,0.0
7.7,-0.528,-0.709,0.0
0.0,0.0,0.0,0.0
7.17,-0.495,-0.74,0.0
0.0,0.0,0.0,0.0
6.687,-0.465,-0.765,0.0
6.437,-0.449,-0.773,0.0
0.0,0.0,0.0,0.0
0.0,0.0,0.0,0.0
7.208,-0.506,-0.741,0.0
0.0,0.0,0.0,0.0
6.709,-0.474,-0.765,0.0
6.483,-0.459,-0.775,0.0
0.0,0.0,0.0,0.0
0.0,0.0,0.0,0.0
7.252,-0.516,-0.742,0.0
0.0,0.0,0.0,0.0
6.71,-0.481,-0.762,0.0
6.488,-0.466,-0.773,0.0
0.0,0.0,0.0,0.0
0.0,0.0,0.0,0.0
7.245,-0.523,-0.738,0.0
0.0,0.0,0.0,0.0
6.746,-0.49,-0.763,0.0
6.507,-0.474,-0.772,0.0
0.0,0.0,0.0,0.0
0.0,0.0,0.0,0.0
7.242,-0.531,-0.734,0.0
0.0,0.0,0.0,0.0
6.792,-0.501,-0.764,0.0
6.553,-0.485,-0.774,0.0
7.896,-0.583,-0.708,0.0
0.0,0.0,0.0,0.0
7.278,-0.54,-0.733,0.0
6.996,-0.521,-0.744,0.0
6.781,-0.506,-0.759,0.0
6.559,-0.491,-0.77,0.0
7.953,-0.595,-0.709,0.0
0.0,0.0,0.0,0.0
7.259,-0.546,-0.727,0.0
0.0,0.0,0.0,0.0
6.828,-0.516,-0.76,0.0
6.56,-0.498,-0.766,0.0
7.995,-0.605,-0.707,0.0
0.0,0.0,0.0,0.0
0.0,0.0,0.0,0.0
0.0,0.0,0.0,0.0
6.859,-0.525,-0.759,0.0
6.602,-0.507,-0.767,0.0
7.983,-0.612,-0.701,0.0
0.0,0.0,0.0,0.0
0.0,0.0,0.0,0.0
0.0,0.0,0.0,0.0
6.851,-0.531,-0.753,0.0
6.673,-0.518,-0.77,0.0
8.051,-0.624,-0.701,0.0
0.0,0.0,0.0,0.0
0.0,0.0,0.0,0.0
7.131,-0.557,-0.739,0.0
6.904,-0.541,-0.754,0.0
6.696,-0.526,-0.768,0.0
8.113,-0.636,-0.701,0.0
0.0,0.0,0.0,0.0
0.0,0.0,0.0,0.0
7.201,-0.569,-0.741,0.0
0.0,0.0,0.0,0.0
6.705,-0.532,-0.763,0.0
8.145,-0.645,-0.697,0.0
0.0,0.0,0.0,0.0
0.0,0.0,0.0,0.0
7.222,-0.576,-0.737,0.0
0.0,0.0,0.0,0.0
6.729,-0.539,-0.761,0.0
8.209,-0.657,-0.696,0.0
7.919,-0.635,-0.714,0.0
0.0,0.0,0.0,0.0
7.274,-0.586,-0.736,0.0
7.027,-0.567,-0.75,0.0
6.787,-0.549,-0.761,0.0
8.237,-0.665,-0.691,0.0
7.931,-0.642,-0.708,0.0
0.0,0.0,0.0,0.0
0.0,0.0,0.0,0.0
7.06,-0.575,-0.747,0.0
6.822,-0.557,-0.759,0.0
8.286,-0.675,-0.688,0.0
8.069,-0.659,-0.714,0.0
0.0,0.0,0.0,0.0
0.0,0.0,0.0,0.0
0.0,0.0,0.0,0.0
6.863,-0.565,-0.757,0.0
8.352,-0.687,-0.685,0.0
8.035,-0.662,-0.703,0.0
0.0,0.0,0.0,0.0
0.0,0.0,0.0,0.0
7.155,-0.593,-0.744,0.0
6.904,-0.573,-0.755,0.0
8.38,-0.694,-0.68,0.0
8.119,-0.674,-0.703,0.0
0.0,0.0,0.0,0.0
0.0,0.0,0.0,0.0
7.204,-0.602,-0.742,0.0
6.953,-0.582,-0.754,0.0
8.501,-0.71,-0.681,0.0
8.184,-0.684,-0.7,0.0
0.0,0.0,0.0,0.0
0.0,0.0,0.0,0.0
7.239,-0.609,-0.738,0.0
7.033,-0.593,-0.755,0.0
8.559,-0.72,-0.677,0.0
8.228,-0.693,-0.695,0.0
7.94,-0.67,-0.714,0.0
0.0,0.0,0.0,0.0
7.24,-0.613,-0.73,0.0
7.038,-0.597,-0.748,0.0
8.592,-0.727,-0.671,0.0
8.331,-0.706,-0.695,0.0
7.928,-0.673,-0.704,0.0
0.0,0.0,0.0,0.0
0.0,0.0,0.0,0.0
7.082,-0.604,-0.745,0.0
8.668,-0.738,-0.667,0.0
8.335,-0.711,-0.687,0.0
8.002,-0.684,-0.702,0.0
0.0,0.0,0.0,0.0
0.0,0.0,0.0,0.0
7.155,-0.614,-0.745,0.0
8.78,-0.752,-0.666,0.0
8.396,-0.72,-0.682,0.0
8.115,-0.697,-0.703,0.0
0.0,0.0,0.0,0.0
0.0,0.0,0.0,0.0
7.247,-0.625,-0.746,0.0
8.86,-0.763,-0.663,0.0
8.496,-0.732,-0.681,0.0
8.173,-0.705,-0.699,0.0
0.0,0.0,0.0,0.0
0.0,0.0,0.0,0.0
7.287,-0.632,-0.742,0.0
0.0,0.0,0.0,0.0
8.53,-0.739,-0.674,0.0
8.232,-0.714,-0.695,0.0
0.0,0.0,0.0,0.0
0.0,0.0,0.0,0.0
0.0,0.0,0.0,0.0
0.0,0.0,0.0,0.0
8.665,-0.754,-0.674,0.0
8.327,-0.725,-0.693,0.0
7.985,-0.696,-0.708,0.0
0.0,0.0,0.0,0.0
0.0,0.0,0.0,0.0
9.111,-0.794,-0.649,0.0
8.711,-0.76,-0.667,0.0
8.357,-0.73,-0.685,0.0
8.059,-0.705,-0.705,0.0
0.0,0.0,0.0,0.0
0.0,0.0,0.0,0.0
0.0,0.0,0.0,0.0
8.84,-0.774,-0.666,0.0
8.419,-0.738,-0.68,0.0
8.113,-0.712,-0.699,0.0
0.0,0.0,0.0,0.0
0.0,0.0,0.0,0.0
0.0,0.0,0.0,0.0
8.927,-0.784,-0.662,0.0
8.491,-0.746,-0.675,0.0
8.14,-0.716,-0.691,0.0
7.909,-0.696,-0.714,0.0
0.0,0.0,0.0,0.0
9.402,-0.827,-0.635,0.0
9.029,-0.795,-0.658,0.0
8.616,-0.759,-0.674,0.0
8.287,-0.731,-0.693,0.0
7.952,-0.702,-0.708,0.0
0.0,0.0,0.0,0.0
0.0,0.0,0.0,0.0
0.0,0.0,0.0,0.0
8.719,-0.769,-0.671,0.0
8.31,-0.734,-0.684,0.0
8.025,-0.709,-0.704,0.0
0.0,0.0,0.0,0.0
0.0,0.0,0.0,0.0
0.0,0.0,0.0,0.0
8.813,-0.778,-0.666,0.0
8.449,-0.747,-0.685,0.0
8.128,-0.719,-0.702,0.0
7.771,-0.688,-0.713,0.0
9.754,-0.862,-0.621,0.0
0.0,0.0,0.0,0.0
8.967,-0.793,-0.666,0.0
8.532,-0.755,-0.68,0.0
8.163,-0.722,-0.694,0.0
7.915,-0.701,-0.715,0.0
10.033,-0.887,-0.625,0.0
9.484,-0.838,-0.641,0.0
9.043,-0.8,-0.659,0.0
8.607,-0.761,-0.674,0.0
8.313,-0.736,-0.696,0.0
7.928,-0.702,-0.706,0.0
10.049,-0.888,-0.612,0.0
0.0,0.0,0.0,0.0
0.0,0.0,0.0,0.0
8.646,-0.765,-0.666,0.0
8.391,-0.742,-0.691,0.0
8.067,-0.714,-0.707,0.0
10.235,-0.904,-0.61,0.0
0.0,0.0,0.0,0.0
0.0,0.0,0.0,0.0
0.0,0.0,0.0,0.0
8.477,-0.749,-0.686,0.0
8.129,-0.719,-0.701,0.0
10.375,-0.916,-0.604,0.0
0.0,0.0,0.0,0.0
0.0,0.0,0.0,0.0
8.963,-0.791,-0.665,0.0
8.548,-0.755,-0.68,0.0
8.235,-0.727,-0.699,0.0
10.539,-0.929,-0.598,0.0
0.0,0.0,0.0,0.0
9.537,-0.84,-0.643,0.0
0.0,0.0,0.0,0.0
8.647,-0.762,-0.675,0.0
8.311,-0.732,-0.693,0.0
10.691,-0.94,-0.592,0.0
0.0,0.0,0.0,0.0
0.0,0.0,0.0,0.0
0.0,0.0,0.0,0.0
8.763,-0.77,-0.672,0.0
8.417,-0.74,-0.69,0.0
10.814,-0.949,-0.583,0.0
0.0,0.0,0.0,0.0
0.0,0.0,0.0,0.0
0.0,0.0,0.0,0.0
8.853,-0.776,-0.666,0.0
8.505,-0.745,-0.685,0.0
10.995,-0.962,-0.578,0.0
10.478,-0.916,-0.606,0.0
0.0,0.0,0.0,0.0
0.0,0.0,0.0,0.0
8.945,-0.781,-0.66,0.0
8.608,-0.752,-0.681,0.0
11.2,-0.976,-0.572,0.0
10.685,-0.931,-0.602,0.0
10.043,-0.875,-0.619,0.0
0.0,0.0,0.0,0.0
0.0,0.0,0.0,0.0
8.655,-0.753,-0.672,0.0
11.344,-0.985,-0.563,0.0
10.725,-0.931,-0.589,0.0
0.0,0.0,0.0,0.0
0.0,0.0,0.0,0.0
0.0,0.0,0.0,0.0
8.779,-0.76,-0.669,0.0
11.539,-0.997,-0.556,0.0
10.949,-0.946,-0.585,0.0
0.0,0.0,0.0,0.0
0.0,0.0,0.0,0.0
0.0,0.0,0.0,0.0
8.955,-0.772,-0.669,0.0
11.76,-1.011,-0.549,0.0
11.028,-0.948,-0.573,0.0
0.0,0.0,0.0,0.0
9.937,-0.853,-0.623,0.0
9.414,-0.807,-0.64,0.0
0.0,0.0,0.0,0.0
11.949,-1.022,-0.541,0.0
11.249,-0.961,-0.569,0.0
10.63,-0.908,-0.593,0.0
0.0,0.0,0.0,0.0
0.0,0.0,0.0,0.0
9.182,-0.782,-0.659,0.0
12.12,-1.03,-0.531,0.0
11.465,-0.974,-0.563,0.0
10.785,-0.915,-0.586,0.0
10.154,-0.861,-0.606,0.0
0.0,0.0,0.0,0.0
0.0,0.0,0.0,0.0
12.37,-1.045,-0.524,0.0
11.663,-0.984,-0.556,0.0
10.944,-0.922,-0.579,0.0
10.391,-0.875,-0.606,0.0
9.974,-0.839,-0.634,0.0
9.408,-0.79,-0.648,0.0
12.601,-1.056,-0.515,0.0
11.829,-0.991,-0.546,0.0
11.168,-0.934,-0.574,0.0
10.544,-0.881,-0.599,0.0
10.051,-0.839,-0.624,0.0
9.625,-0.802,-0.648,0.0
12.789,-1.064,-0.504,0.0
12.034,-1.0,-0.538,0.0
11.37,-0.943,-0.568,0.0
10.656,-0.883,-0.589,0.0
10.173,-0.842,-0.616,0.0
9.644,-0.797,-0.635,0.0
12.996,-1.072,-0.494,0.0
12.269,-1.011,-0.53,0.0
11.498,-0.946,-0.557,0.0
10.811,-0.888,-0.582,0.0
10.289,-0.844,-0.608,0.0
9.835,-0.805,-0.633,0.0
13.283,-1.086,-0.485,0.0
12.443,-1.016,-0.52,0.0
11.765,-0.959,-0.553,0.0
11.005,-0.895,-0.577,0.0
10.555,-0.858,-0.609,0.0
9.957,-0.808,-0.627,0.0
13.516,-1.094,-0.474,0.0
12.697,-1.026,-0.512,0.0
11.905,-0.961,-0.543,0.0
11.216,-0.904,-0.571,0.0
10.638,-0.856,-0.598,0.0
10.086,-0.81,-0.62,0.0
13.783,-1.105,-0.463,0.0
12.88,-1.031,-0.501,0.0
12.117,-0.968,-0.535,0.0
11.409,-0.91,-0.565,0.0
10.746,-0.855,-0.589,0.0
10.213,-0.811,-0.613,0.0
14.051,-1.114,-0.452,0.0
13.19,-1.044,-0.494,0.0
12.369,-0.977,-0.528,0.0
11.605,-0.915,-0.557,0.0
11.026,-0.867,-0.588,0.0
10.36,-0.813,-0.607,0.0
14.357,-1.125,-0.441,0.0
13.387,-1.047,-0.481,0.0
12.53,-0.978,-0.517,0.0
11.844,-0.922,-0.552,0.0
11.19,-0.87,-0.58,0.0
10.509,-0.815,-0.6,0.0
14.662,-1.135,-0.429,0.0
13.598,-1.05,-0.47,0.0
12.762,-0.984,-0.508,0.0
11.979,-0.921,-0.541,0.0
11.342,-0.87,-0.572,0.0
10.692,-0.819,-0.596,0.0
14.905,-1.139,-0.415,0.0
13.909,-1.061,-0.46,0.0
12.99,-0.988,-0.498,0.0
12.124,-0.92,-0.53,0.0
11.536,-0.874,-0.565,0.0
10.898,-0.823,-0.591,0.0
15.351,-1.158,-0.406,0.0
14.125,-1.063,-0.448,0.0
13.188,-0.989,-0.487,0.0
12.47,-0.933,-0.528,0.0
11.711,-0.874,-0.557,0.0
11.031,-0.822,-0.583,0.0
15.621,-1.161,-0.391,0.0
14.426,-1.07,-0.437,0.0
13.428,-0.993,-0.477,0.0
12.663,-0.934,-0.518,0.0
11.872,-0.873,-0.548,0.0
11.187,-0.821,-0.575,0.0
15.992,-1.171,-0.378,0.0
14.748,-1.077,-0.426,0.0
13.727,-0.999,-0.468,0.0
12.92,-0.938,-0.51,0.0
12.06,-0.873,-0.54,0.0
11.413,-0.824,-0.571,0.0
16.374,-1.18,-0.364,0.0
15.062,-1.082,-0.414,0.0
13.933,-0.998,-0.456,0.0
13.056,-0.932,-0.497,0.0
12.348,-0.879,-0.536,0.0
11.599,-0.823,-0.564,0.0
16.888,-1.197,-0.352,0.0
15.377,-1.086,-0.401,0.0
14.263,-1.004,-0.447,0.0
13.268,-0.931,-0.487,0.0
12.529,-0.877,-0.526,0.0
11.789,-0.823,-0.557,0.0
17.236,-1.2,-0.336,0.0
15.691,-1.089,-0.388,0.0
14.516,-1.004,-0.436,0.0
13.516,-0.932,-0.478,0.0
12.735,-0.875,-0.518,0.0
11.922,-0.817,-0.548,0.0
17.645,-1.206,-0.32,0.0
16.089,-1.096,-0.377,0.0
14.772,-1.003,-0.424,0.0
13.728,-0.929,-0.467,0.0
12.885,-0.869,-0.507,0.0
12.183,-0.818,-0.543,0.0
18.013,-1.208,-0.303,0.0
16.484,-1.101,-0.364,0.0
15.033,-1.001,-0.411,0.0
13.965,-0.926,-0.457,0.0
13.072,-0.864,-0.497,0.0
12.322,-0.811,-0.534,0.0
18.602,-1.222,-0.289,0.0
16.86,-1.104,-0.35,0.0
15.439,-1.007,-0.402,0.0
14.263,-0.926,-0.448,0.0
13.294,-0.86,-0.488,0.0
12.488,-0.805,-0.524,0.0
19.255,-1.238,-0.274,0.0
17.24,-1.104,-0.336,0.0
15.835,-1.01,-0.392,0.0
14.61,-0.928,-0.44,0.0
13.6,-0.861,-0.482,0.0
12.71,-0.801,-0.517,0.0
19.747,-1.242,-0.256,0.0
17.668,-1.107,-0.322,0.0
16.049,-1.001,-0.377,0.0
14.784,-0.918,-0.427,0.0
13.699,-0.847,-0.468,0.0
12.894,-0.794,-0.509,0.0
20.48,-1.258,-0.239,0.0
18.05,-1.104,-0.306,0.0
16.519,-1.006,-0.368,0.0
14.946,-0.906,-0.413,0.0
13.95,-0.842,-0.459,0.0
13.067,-0.785,-0.499,0.0
21.485,-1.288,-0.225,0.0
18.692,-1.115,-0.294,0.0
16.854,-1.001,-0.354,0.0
15.282,-0.903,-0.403,0.0
14.227,-0.837,-0.451,0.0
13.287,-0.778,-0.491,0.0
22.215,-1.298,-0.205,0.0
19.044,-1.107,-0.276,0.0
17.199,-0.995,-0.341,0.0
15.725,-0.905,-0.396,0.0
14.544,-0.833,-0.443,0.0
13.536,-0.772,-0.484,0.0
22.64,-1.287,-0.182,0.0
34.2,-1.934,-0.456,0.0
17.603,-0.99,-0.328,0.0
15.931,-0.892,-0.382,0.0
14.695,-0.818,-0.431,0.0
13.654,-0.757,-0.473,0.0
34.237,-1.892,-0.235,3.0
34.248,-1.883,-0.417,3.0
17.959,-0.982,-0.314,0.0
16.347,-0.889,-0.374,0.0
15.009,-0.812,-0.423,0.0
13.861,-0.746,-0.464,0.0
23.622,-1.267,-0.135,1.0
21.121,-1.126,-0.233,0.0
18.353,-0.973,-0.3,0.0
16.705,-0.881,-0.363,0.0
15.327,-0.803,-0.414,0.0
14.114,-0.736,-0.456,0.0
23.896,-1.242,-0.11,0.0
22.016,-1.138,-0.218,0.0
18.892,-0.97,-0.287,0.0
16.99,-0.867,-0.35,0.0
15.565,-0.79,-0.404,0.0
14.303,-0.722,-0.447,0.0
25.126,-1.264,-0.089,0.0
22.29,-1.114,-0.197,1.0
19.182,-0.953,-0.271,0.0
17.319,-0.855,-0.339,0.0
15.945,-0.782,-0.397,0.0
14.582,-0.711,-0.44,0.0
25.735,-1.25,-0.063,0.0
22.853,-1.103,-0.178,1.0
19.659,-0.943,-0.257,0.0
17.568,-0.837,-0.325,0.0
16.173,-0.765,-0.385,0.0
14.744,-0.693,-0.43,0.0
26.302,-1.232,-0.037,1.0
23.267,-1.083,-0.157,1.0
20.58,-0.951,-0.248,0.0
17.954,-0.824,-0.314,0.0
16.412,-0.748,-0.374,0.0
15.009,-0.68,-0.422,0.0
26.356,-1.188,-0.011,0.0
23.674,-1.06,-0.136,1.0
21.058,-0.936,-0.233,1.0
18.273,-0.806,-0.301,0.0
16.642,-0.729,-0.363,0.0
15.297,-0.665,-0.415,0.0
27.525,-1.191,0.015,0.0
23.908,-1.027,-0.114,0.0
21.29,-0.908,-0.215,1.0
18.77,-0.794,-0.291,0.0
16.951,-0.711,-0.353,0.0
15.603,-0.65,-0.409,0.0
28.457,-1.18,0.042,2.0
25.559,-1.052,-0.098,0.0
22.246,-0.908,-0.204,1.0
19.135,-0.775,-0.279,0.0
17.169,-0.69,-0.342,0.0
15.829,-0.631,-0.4,0.0
28.568,-1.133,0.068,5.0
25.486,-1.002,-0.074,0.0
22.659,-0.883,-0.187,0.0
19.474,-0.753,-0.267,0.0
17.425,-0.668,-0.332,0.0
16.022,-0.609,-0.391,0.0
28.624,-1.082,0.094,8.0
