X,Y,Z,Reflectivity
0.0,0.0,0.0,0.0
0.0,0.0,0.0,0.0
0.0,0.0,0.0,0.0
0.0,0.0,0.0,0.0
7.015,0.089,-0.75,0.0
0.0,0.0,0.0,0.0
0.0,0.0,0.0,0.0
0.0,0.0,0.0,0.0
0.0,0.0,0.0,0.0
0.0,0.0,0.0,0.0
7.043,0.082,-0.758,0.0
0.0,0.0,0.0,0.0
0.0,0.0,0.0,0.0
0.0,0.0,0.0,0.0
0.0,0.0,0.0,0.0
0.0,0.0,0.0,0.0
6.942,0.074,-0.752,0.0
0.0,0.0,0.0,0.0
0.0,0.0,0.0,0.0
0.0,0.0,0.0,0.0
0.0,0.0,0.0,0.0
0.0,0.0,0.0,0.0
6.958,0.067,-0.758,0.0
0.0,0.0,0.0,0.0
0.0,0.0,0.0,0.0
0.0,0.0,0.0,0.0
0.0,0.0,0.0,0.0
0.0,0.0,0.0,0.0
6.911,0.059,-0.757,0.0
0.0,0.0,0.0,0.0
0.0,0.0,0.0,0.0
0.0,0.0,0.0,0.0
0.0,0.0,0.0,0.0
0.0,0.0,0.0,0.0
6.855,0.051,-0.755,0.0
0.0,0.0,0.0,0.0
0.0,0.0,0.0,0.0
0.0,0.0,0.0,0.0
0.0,0.0,0.0,0.0
0.0,0.0,0.0,0.0
6.819,0.044,-0.754,0.0
0.0,0.0,0.0,0.0
0.0,0.0,0.0,0.0
0.0,0.0,0.0,0.0
0.0,0.0,0.0,0.0
0.0,0.0,0.0,0.0
0.0,0.0,0.0,0.0
0.0,0.0,0.0,0.0
0.0,0.0,0.0,0.0
0.0,0.0,0.0,0.0
0.0,0.0,0.0,0.0
0.0,0.0,0.0,0.0
6.783,0.028,-0.757,0.0
0.0,0.0,0.0,0.0
0.0,0.0,0.0,0.0
0.0,0.0,0.0,0.0
0.0,0.0,0.0,0.0
0.0,0.0,0.0,0.0
15.541,0.799,-0.411,0.0
14.219,0.727,-0.453,0.0
13.287,0.675,-0.496,0.0
12.52,0.633,-0.536,0.0
11.76,0.591,-0.568,0.0
11.09,0.555,-0.596,0.0
15.667,0.777,-0.403,0.0
14.397,0.71,-0.449,0.0
13.401,0.657,-0.49,0.0
12.604,0.615,-0.531,0.0
11.873,0.576,-0.564,0.0
11.145,0.537,-0.59,0.0
15.81,0.756,-0.395,0.0
14.59,0.693,-0.444,0.0
13.558,0.641,-0.486,0.0
12.762,0.599,-0.528,0.0
11.985,0.56,-0.561,0.0
11.301,0.525,-0.59,0.0
15.974,0.735,-0.387,0.0
14.735,0.674,-0.436,0.0
13.68,0.622,-0.479,0.0
12.843,0.58,-0.521,0.0
12.118,0.544,-0.557,0.0
11.348,0.506,-0.583,0.0
16.239,0.718,-0.38,0.0
14.974,0.658,-0.431,0.0
13.852,0.605,-0.474,0.0
12.898,0.56,-0.512,0.0
12.237,0.527,-0.552,0.0
11.441,0.49,-0.578,0.0
16.453,0.698,-0.371,0.0
15.085,0.636,-0.421,0.0
13.955,0.584,-0.465,0.0
13.034,0.542,-0.506,0.0
12.397,0.512,-0.548,0.0
11.532,0.473,-0.572,0.0
16.649,0.677,-0.36,0.0
15.374,0.621,-0.415,0.0
14.148,0.567,-0.458,0.0
13.194,0.525,-0.5,0.0
12.463,0.493,-0.539,0.0
11.735,0.461,-0.571,0.0
16.838,0.655,-0.348,0.0
15.599,0.602,-0.407,0.0
14.345,0.55,-0.451,0.0
13.312,0.506,-0.491,0.0
12.62,0.477,-0.534,0.0
11.848,0.444,-0.565,0.0
17.084,0.634,-0.337,0.0
15.739,0.58,-0.395,0.0
14.577,0.533,-0.444,0.0
13.45,0.488,-0.483,0.0
12.723,0.458,-0.525,0.0
11.978,0.428,-0.559,0.0
17.379,0.615,-0.325,0.0
16.074,0.564,-0.387,0.0
14.744,0.513,-0.434,0.0
13.642,0.471,-0.476,0.0
12.842,0.44,-0.517,0.0
12.115,0.412,-0.553,0.0
17.825,0.6,-0.315,0.0
16.323,0.545,-0.375,0.0
14.912,0.493,-0.423,0.0
13.918,0.456,-0.47,0.0
13.037,0.424,-0.511,0.0
12.305,0.397,-0.548,0.0
18.116,0.578,-0.3,0.0
16.568,0.524,-0.363,0.0
15.282,0.479,-0.416,0.0
13.999,0.435,-0.458,0.0
13.186,0.406,-0.501,0.0
12.419,0.379,-0.539,0.0
18.556,0.56,-0.286,0.0
16.83,0.503,-0.349,0.0
15.567,0.461,-0.406,0.0
14.381,0.422,-0.454,0.0
13.346,0.388,-0.492,0.0
12.56,0.362,-0.53,0.0
19.344,0.551,-0.276,0.0
17.152,0.484,-0.336,0.0
15.83,0.442,-0.394,0.0
14.508,0.401,-0.44,0.0
13.539,0.371,-0.483,0.0
12.763,0.346,-0.523,0.0
19.795,0.53,-0.259,0.0
17.603,0.467,-0.324,0.0
16.124,0.423,-0.382,0.0
14.948,0.388,-0.435,0.0
13.79,0.354,-0.475,0.0
12.934,0.329,-0.514,0.0
20.334,0.511,-0.241,0.0
18.053,0.448,-0.309,0.0
16.438,0.404,-0.369,0.0
15.157,0.368,-0.422,0.0
14.03,0.337,-0.465,0.0
13.093,0.311,-0.504,0.0
51.77,0.517,7.169,4.0
49.141,0.5,6.529,24.0
48.684,0.504,6.195,23.0
58.609,0.618,7.123,20.0
52.719,0.566,6.113,18.0
56.7,0.62,6.258,23.0
49.294,0.548,6.844,31.0
48.703,0.551,6.487,23.0
48.826,0.562,6.229,23.0
58.761,0.688,7.161,23.0
52.741,0.628,6.132,26.0
56.802,0.686,6.287,27.0
49.324,0.605,6.863,19.0
47.311,0.59,6.316,21.0
48.616,0.616,6.217,37.0
49.232,0.633,6.014,23.0
52.533,0.685,6.123,7.0
56.676,0.75,6.289,30.0
51.759,0.696,7.216,10.0
47.375,0.646,6.337,16.0
48.729,0.673,6.243,22.0
49.182,0.689,6.019,17.0
48.597,0.69,5.675,14.0
49.821,0.717,5.539,11.0
51.784,0.756,7.231,21.0
48.414,0.716,6.486,25.0
48.714,0.73,6.251,22.0
48.95,0.742,6.0,23.0
48.784,0.749,5.706,22.0
50.199,0.781,5.59,24.0
49.178,0.776,6.875,12.0
47.656,0.761,6.392,31.0
0.0,0.0,0.0,0.0
48.968,0.8,6.009,30.0
48.736,0.805,5.707,33.0
50.066,0.836,5.581,30.0
51.702,0.875,7.234,12.0
47.828,0.819,6.42,22.0
48.552,0.84,6.243,23.0
48.85,0.854,6.0,29.0
48.774,0.862,5.716,28.0
50.097,0.894,5.589,21.0
51.569,0.933,7.219,26.0
47.838,0.874,6.425,30.0
48.353,0.893,6.22,24.0
48.845,0.91,6.002,34.0
0.0,0.0,0.0,0.0
50.203,0.953,5.602,24.0
51.758,0.996,7.247,26.0
47.815,0.929,6.423,22.0
47.36,0.928,6.093,16.0
48.904,0.967,6.009,27.0
0.0,0.0,0.0,0.0
50.158,1.01,5.597,17.0
55.968,1.142,7.835,11.0
47.812,0.984,6.421,30.0
49.457,1.027,6.36,5.0
48.794,1.021,5.993,31.0
0.0,0.0,0.0,0.0
50.07,1.065,5.584,35.0
56.202,1.211,7.864,8.0
47.876,1.04,6.426,9.0
45.543,0.997,5.853,12.0
48.941,1.08,6.007,23.0
50.221,1.117,5.879,31.0
49.957,1.119,5.566,26.0
51.973,1.179,7.266,12.0
47.912,1.095,6.425,8.0
45.562,1.049,5.85,18.0
48.883,1.134,5.993,23.0
50.268,1.174,5.878,11.0
49.812,1.172,5.542,29.0
0.0,0.0,0.0,0.0
47.572,1.141,6.371,15.0
45.598,1.101,5.847,19.0
45.2,1.099,5.533,19.0
50.327,1.231,5.875,4.0
49.643,1.223,5.514,24.0
0.0,0.0,0.0,0.0
50.234,1.261,6.717,8.0
45.535,1.15,5.828,20.0
45.214,1.149,5.525,19.0
45.39,1.161,5.288,13.0
49.639,1.278,5.502,17.0
50.354,1.312,7.009,7.0
47.751,1.251,6.373,19.0
45.266,1.193,5.782,19.0
45.172,1.198,5.507,19.0
50.073,1.336,5.82,8.0
49.718,1.334,5.496,10.0
47.845,1.299,6.645,9.0
47.514,1.297,6.326,20.0
45.103,1.238,5.747,28.0
45.212,1.248,5.498,19.0
45.522,1.264,5.276,12.0
49.592,1.385,5.466,7.0
47.759,1.349,6.617,16.0
47.553,1.35,6.315,20.0
45.106,1.288,5.731,19.0
45.205,1.297,5.48,28.0
45.349,1.308,5.239,36.0
45.992,1.334,5.051,15.0
43.789,1.284,6.049,14.0
47.579,1.403,6.299,22.0
0.0,0.0,0.0,0.0
45.248,1.347,5.467,28.0
45.35,1.356,5.22,38.0
49.077,1.475,5.37,12.0
44.165,1.342,6.082,19.0
47.573,1.453,6.277,26.0
43.86,1.346,5.535,22.0
45.27,1.395,5.449,31.0
45.529,1.41,5.22,13.0
45.982,1.431,5.009,12.0
43.869,1.381,6.02,32.0
44.012,1.391,5.786,12.0
43.829,1.391,5.51,18.0
45.33,1.445,5.434,23.0
45.593,1.46,5.204,30.0
46.032,1.48,4.991,16.0
43.706,1.421,5.975,37.0
43.795,1.429,5.734,22.0
43.925,1.439,5.498,17.0
45.397,1.494,5.417,15.0
45.617,1.507,5.181,29.0
46.056,1.528,4.968,17.0
43.803,1.469,5.962,19.0
43.748,1.473,5.702,34.0
45.442,1.535,5.661,20.0
45.372,1.539,5.387,19.0
45.681,1.555,5.161,19.0
48.429,1.655,5.195,12.0
43.906,1.517,5.949,19.0
43.754,1.517,5.676,38.0
44.929,1.563,5.569,19.0
45.5,1.588,5.373,14.0
46.063,1.614,5.175,19.0
48.419,1.703,5.163,27.0
43.883,1.559,5.917,28.0
43.718,1.558,5.642,32.0
45.248,1.618,5.579,33.0
45.711,1.64,5.368,23.0
46.04,1.658,5.142,35.0
51.04,1.844,5.408,6.0
43.978,1.604,5.9,24.0
43.539,1.594,5.588,32.0
45.348,1.665,5.559,34.0
45.696,1.683,5.333,36.0
46.011,1.7,5.106,31.0
55.325,2.05,5.822,1.0
43.817,1.64,5.845,31.0
43.588,1.636,5.562,30.0
45.411,1.71,5.532,35.0
45.775,1.729,5.307,31.0
45.778,1.734,5.044,19.0
0.0,0.0,0.0,0.0
43.761,1.679,5.803,33.0
43.664,1.68,5.537,18.0
45.534,1.756,5.511,32.0
45.941,1.777,5.29,31.0
45.355,1.759,4.961,13.0
50.615,1.968,5.246,10.0
43.627,1.712,5.75,27.0
44.066,1.734,5.552,18.0
45.671,1.801,5.49,20.0
45.702,1.807,5.225,20.0
45.372,1.799,4.925,12.0
50.486,2.008,5.19,19.0
43.487,1.745,5.693,33.0
44.156,1.776,5.524,22.0
45.76,1.845,5.46,26.0
45.492,1.839,5.16,23.0
48.546,1.966,5.227,5.0
50.377,2.045,5.134,21.0
43.416,1.779,5.645,35.0
0.0,0.0,0.0,0.0
45.793,1.884,5.423,20.0
45.378,1.872,5.106,31.0
48.478,2.004,5.175,24.0
50.29,2.083,5.079,25.0
43.502,1.818,5.615,33.0
45.031,1.886,5.551,21.0
45.687,1.917,5.366,30.0
45.407,1.91,5.066,35.0
48.444,2.042,5.125,18.0
50.217,2.121,5.023,33.0
43.701,1.862,5.597,26.0
45.765,1.953,5.596,20.0
45.609,1.951,5.312,32.0
45.382,1.944,5.018,26.0
48.367,2.076,5.069,27.0
50.217,2.16,4.973,30.0
44.013,1.909,5.593,19.0
45.814,1.99,5.555,20.0
45.612,1.985,5.266,30.0
48.466,2.112,5.31,17.0
56.449,2.465,5.858,10.0
50.383,2.204,4.938,20.0
44.751,1.974,5.64,21.0
45.686,2.018,5.491,36.0
45.525,2.014,5.208,34.0
48.915,2.168,5.307,24.0
48.264,2.142,4.957,14.0
0.0,0.0,0.0,0.0
44.497,1.994,5.559,22.0
45.739,2.053,5.448,20.0
45.515,2.046,5.156,14.0
49.278,2.218,5.292,23.0
50.382,2.271,5.12,18.0
49.729,2.245,4.766,15.0
44.507,2.025,5.51,34.0
45.646,2.08,5.385,29.0
48.309,2.204,5.418,14.0
48.323,2.208,5.135,20.0
50.315,2.302,5.055,30.0
0.0,0.0,0.0,0.0
47.55,2.195,5.831,4.0
45.625,2.109,5.329,35.0
48.394,2.24,5.371,22.0
51.088,2.367,5.368,12.0
50.722,2.353,5.036,25.0
49.677,2.307,4.645,18.0
45.898,2.148,5.574,13.0
45.591,2.136,5.271,35.0
48.865,2.291,5.364,24.0
50.627,2.377,5.259,24.0
51.298,2.411,5.031,24.0
49.687,2.338,4.586,14.0
45.756,2.169,5.5,32.0
45.507,2.159,5.204,19.0
49.327,2.342,5.354,22.0
50.519,2.401,5.185,24.0
49.727,2.366,4.816,12.0
0.0,0.0,0.0,0.0
45.733,2.193,5.439,30.0
48.277,2.317,5.46,22.0
0.0,0.0,0.0,0.0
50.437,2.425,5.112,30.0
49.669,2.39,4.747,21.0
51.829,2.495,4.653,8.0
45.745,2.218,5.381,19.0
48.331,2.345,5.403,20.0
50.801,2.467,5.383,24.0
50.69,2.463,5.072,18.0
49.638,2.414,4.679,33.0
49.259,2.397,4.358,15.0
48.179,2.36,5.603,15.0
48.402,2.372,5.347,17.0
50.479,2.475,5.282,28.0
49.73,2.44,4.909,9.0
49.809,2.446,4.628,23.0
49.351,2.425,4.3,21.0
48.494,2.398,5.574,23.0
50.661,2.506,5.527,10.0
50.506,2.499,5.216,30.0
49.75,2.463,4.844,23.0
49.69,2.462,4.549,23.0
49.293,2.443,4.228,14.0
48.594,2.424,5.518,23.0
0.0,0.0,0.0,0.0
50.656,2.528,5.161,24.0
49.741,2.483,4.774,30.0
49.514,2.473,4.465,23.0
58.549,2.925,4.941,18.0
48.418,2.433,5.43,30.0
49.323,2.48,5.244,23.0
49.882,2.508,5.012,22.0
49.851,2.507,4.714,24.0
49.41,2.485,4.386,32.0
58.548,2.947,4.858,15.0
48.379,2.449,5.356,19.0
49.835,2.523,5.226,25.0
49.771,2.52,4.93,23.0
49.655,2.514,4.625,23.0
49.34,2.498,4.309,32.0
65.929,3.339,5.375,18.0
50.543,2.575,5.521,14.0
50.442,2.569,5.216,24.0
49.741,2.533,4.853,22.0
49.579,2.525,4.544,25.0
49.305,2.511,4.232,20.0
58.299,2.97,4.667,13.0
49.63,2.542,5.347,25.0
50.283,2.575,5.124,24.0
49.803,2.55,4.785,19.0
49.518,2.535,4.465,25.0
65.705,3.364,5.543,8.0
58.204,2.98,4.573,27.0
48.933,2.518,5.199,15.0
49.943,2.569,5.014,23.0
49.771,2.56,4.707,15.0
49.404,2.54,4.38,35.0
65.702,3.378,5.444,25.0
58.215,2.993,4.485,23.0
49.704,2.568,5.204,26.0
49.693,2.566,4.913,23.0
49.648,2.563,4.619,26.0
49.364,2.548,4.301,36.0
58.459,3.016,4.753,10.0
64.414,3.323,4.864,10.0
50.126,2.598,5.17,25.0
51.643,2.676,5.025,4.0
49.652,2.571,4.542,25.0
49.312,2.552,4.219,18.0
58.31,3.018,4.65,19.0
64.419,3.332,4.764,21.0
50.099,2.603,5.089,21.0
49.757,2.584,4.763,15.0
49.501,2.569,4.45,29.0
65.688,3.408,5.517,17.0
58.218,3.018,4.551,31.0
64.59,3.348,4.675,14.0
49.805,2.592,4.979,24.0
49.692,2.585,4.678,23.0
49.424,2.569,4.364,29.0
65.538,3.405,5.399,13.0
58.238,3.024,4.46,19.0
80.258,4.165,5.682,30.0
49.726,2.591,4.891,15.0
49.677,2.586,4.596,23.0
49.387,2.569,4.282,23.0
58.395,3.036,4.717,7.0
64.429,3.347,4.83,10.0
80.585,4.184,5.575,35.0
51.678,2.693,4.999,5.0
49.614,2.583,4.51,26.0
58.542,3.045,4.981,12.0
58.238,3.027,4.61,27.0
64.507,3.35,4.732,22.0
80.821,4.195,5.46,29.0
49.705,2.589,4.727,19.0
49.439,2.572,4.412,35.0
65.617,3.411,5.475,19.0
58.218,3.023,4.513,32.0
80.19,4.161,5.751,22.0
81.163,4.208,5.35,22.0
49.663,2.583,4.641,27.0
49.414,2.567,4.329,29.0
58.441,3.033,4.78,7.0
58.246,3.02,4.42,5.0
80.366,4.163,5.632,34.0
81.393,4.212,5.232,25.0
49.668,2.578,4.558,28.0
49.34,2.558,4.241,22.0
58.337,3.021,4.674,19.0
64.432,3.333,4.781,26.0
80.745,4.172,5.523,35.0
81.663,4.215,5.112,22.0
49.494,2.562,4.458,34.0
65.698,3.396,5.535,17.0
58.213,3.006,4.565,32.0
64.673,3.335,4.689,18.0
81.112,4.177,5.41,21.0
81.681,4.201,4.975,16.0
49.402,2.548,4.366,38.0
65.711,3.384,5.424,17.0
58.233,2.995,4.468,14.0
80.214,4.12,5.68,30.0
81.403,4.175,5.292,22.0
81.129,4.155,4.804,28.0
49.321,2.532,4.274,32.0
58.366,2.992,4.717,10.0
64.26,3.289,4.82,22.0
80.42,4.11,5.556,29.0
81.556,4.162,5.161,22.0
81.053,4.131,4.66,33.0
58.554,2.99,4.973,10.0
58.213,2.967,4.605,29.0
64.664,3.291,4.738,12.0
81.163,4.124,5.467,25.0
81.582,4.139,5.022,24.0
81.027,4.105,4.519,36.0
65.717,3.335,5.468,15.0
58.207,2.949,4.503,12.0
64.951,3.284,4.647,12.0
81.401,4.11,5.343,18.0
81.527,4.109,4.878,28.0
81.126,4.082,4.384,34.0
66.143,3.334,5.387,12.0
64.278,3.233,4.86,18.0
65.007,3.264,4.537,12.0
81.436,4.081,5.203,20.0
81.4,4.072,4.728,33.0
81.38,4.064,4.255,29.0
58.155,2.907,4.634,18.0
64.65,3.226,4.776,14.0
81.005,4.034,5.512,12.0
81.504,4.051,5.065,30.0
81.527,4.044,4.594,34.0
81.111,4.016,4.1,35.0
58.15,2.882,4.532,15.0
64.988,3.214,4.687,12.0
81.739,4.034,5.419,10.0
81.48,4.013,4.921,40.0
81.508,4.006,4.449,22.0
80.843,3.966,3.945,9.0
58.389,2.866,4.448,4.0
65.007,3.183,4.573,16.0
81.43,3.979,5.257,34.0
81.414,3.969,4.775,36.0
81.104,3.945,4.286,44.0
0.0,0.0,0.0,0.0
78.557,3.815,5.846,19.0
65.054,3.152,4.462,24.0
81.385,3.933,5.109,36.0
81.357,3.923,4.628,34.0
80.993,3.896,4.138,36.0
0.0,0.0,0.0,0.0
78.36,3.761,5.692,21.0
65.085,3.116,4.349,33.0
81.445,3.89,4.969,35.0
81.357,3.876,4.483,27.0
80.913,3.846,3.991,17.0
0.0,0.0,0.0,0.0
80.816,3.831,5.727,22.0
65.133,3.079,4.237,20.0
81.435,3.84,4.825,38.0
81.139,3.815,4.329,36.0
0.0,0.0,0.0,0.0
0.0,0.0,0.0,0.0
65.933,3.083,4.556,18.0
81.427,3.796,5.153,33.0
81.286,3.78,4.673,36.0
81.102,3.76,4.184,38.0
49.052,2.268,2.246,1.0
48.221,2.223,1.929,0.0
65.803,3.032,4.43,42.0
81.627,3.75,5.021,12.0
81.309,3.724,4.529,32.0
81.023,3.699,4.036,28.0
48.819,2.223,2.149,8.0
48.152,2.186,1.841,2.0
65.361,2.964,4.285,29.0
65.586,2.965,3.919,11.0
81.283,3.663,4.386,34.0
80.993,3.638,3.892,3.0
48.691,2.181,2.058,6.0
47.908,2.139,1.748,3.0
65.38,2.915,4.171,29.0
65.527,2.912,3.8,20.0
81.229,3.598,4.24,34.0
0.0,0.0,0.0,0.0
48.603,2.138,1.969,1.0
47.879,2.1,1.663,3.0
65.456,2.866,4.06,30.0
65.533,2.859,3.685,32.0
65.615,2.852,3.308,24.0
0.0,0.0,0.0,0.0
48.513,2.094,1.88,1.0
48.102,2.069,1.586,3.0
65.445,2.809,3.943,22.0
65.541,2.803,3.569,40.0
65.567,2.794,3.191,33.0
48.701,2.067,2.083,3.0
48.555,2.053,1.796,3.0
48.286,2.035,1.508,9.0
65.466,2.752,3.83,26.0
65.546,2.745,3.455,61.0
65.568,2.735,3.076,14.0
48.658,2.022,1.997,16.0
48.617,2.012,1.714,2.0
48.472,1.999,1.429,3.0
65.504,2.694,3.719,35.0
65.555,2.684,3.342,57.0
0.0,0.0,0.0,0.0
48.727,1.979,1.915,3.0
48.759,1.972,1.634,3.0
48.825,1.967,1.355,2.0
65.552,2.632,3.606,42.0
65.583,2.622,3.229,39.0
0.0,0.0,0.0,0.0
49.215,1.95,1.848,1.0
48.991,1.933,1.557,2.0
49.123,1.93,1.278,2.0
81.106,3.175,4.322,14.0
65.661,2.558,3.118,17.0
50.32,1.951,2.099,1.0
49.396,1.907,1.77,3.0
49.306,1.895,1.482,2.0
49.362,1.889,1.2,1.0
81.205,3.095,4.188,31.0
81.276,3.082,3.721,13.0
50.304,1.898,2.012,1.0
49.68,1.866,1.695,3.0
49.755,1.86,1.411,2.0
50.201,1.867,1.134,0.0
81.293,3.011,4.054,26.0
56.13,2.068,2.474,0.0
50.32,1.844,1.927,2.0
49.964,1.822,1.62,2.0
50.075,1.816,1.335,2.0
50.613,1.827,1.058,0.0
81.107,2.913,3.907,28.0
56.112,2.005,2.379,0.0
50.414,1.791,1.846,3.0
50.334,1.778,1.548,2.0
50.529,1.776,1.263,2.0
48.497,1.695,0.932,1.0
80.976,2.815,3.765,13.0
0.0,0.0,0.0,0.0
50.651,1.741,1.77,3.0
50.626,1.73,1.473,0.0
0.0,0.0,0.0,0.0
0.0,0.0,0.0,0.0
0.0,0.0,0.0,0.0
0.0,0.0,0.0,0.0
51.053,1.694,1.7,4.0
54.072,1.783,1.483,14.0
0.0,0.0,0.0,0.0
0.0,0.0,0.0,0.0
0.0,0.0,0.0,0.0
0.0,0.0,0.0,0.0
54.169,1.731,1.715,1.0
54.238,1.721,1.399,9.0
55.082,1.736,1.103,4.0
40.261,1.261,0.575,0.0
0.0,0.0,0.0,0.0
0.0,0.0,0.0,0.0
54.077,1.659,1.624,5.0
54.223,1.652,1.31,4.0
0.0,0.0,0.0,0.0
0.0,0.0,0.0,0.0
0.0,0.0,0.0,0.0
0.0,0.0,0.0,0.0
54.1,1.589,1.538,3.0
54.363,1.586,1.227,0.0
45.947,1.33,0.773,0.0
35.4,1.017,0.392,1.0
0.0,0.0,0.0,0.0
54.188,1.532,1.766,1.0
54.081,1.517,1.451,4.0
56.387,1.569,1.183,9.0
40.675,1.123,0.619,0.0
33.664,0.922,0.319,0.0
0.0,0.0,0.0,0.0
54.17,1.458,1.68,8.0
54.105,1.443,1.367,1.0
0.0,0.0,0.0,0.0
38.686,1.014,0.529,0.0
32.052,0.833,0.254,0.0
0.0,0.0,0.0,0.0
54.079,1.379,1.592,1.0
54.494,1.377,1.291,1.0
47.554,1.19,0.849,0.0
36.166,0.897,0.437,0.0
28.987,0.712,0.184,0.0
54.422,1.323,1.832,18.0
54.222,1.305,1.513,0.0
57.793,1.377,1.28,6.0
0.0,0.0,0.0,0.0
34.212,0.799,0.362,0.0
28.876,0.667,0.14,2.0
54.438,1.244,1.749,4.0
54.168,1.225,1.429,1.0
57.991,1.297,1.197,1.0
0.0,0.0,0.0,0.0
33.054,0.723,0.3,0.0
28.791,0.623,0.096,3.0
54.366,1.161,1.665,0.0
54.343,1.148,1.353,0.0
0.0,0.0,0.0,0.0
0.0,0.0,0.0,0.0
31.748,0.647,0.241,0.0
27.686,0.557,0.052,0.0
54.327,1.08,1.585,1.0
54.628,1.071,1.281,0.0
0.0,0.0,0.0,0.0
36.129,0.69,0.429,0.0
28.861,0.544,0.177,0.0
26.979,0.502,0.011,0.0
54.609,1.001,1.514,0.0
54.785,0.989,1.205,0.0
0.0,0.0,0.0,0.0
34.063,0.597,0.355,0.0
28.843,0.499,0.136,0.0
26.232,0.447,-0.026,0.0
55.058,0.922,1.448,0.0
0.0,0.0,0.0,0.0
38.074,0.618,0.565,0.0
32.672,0.521,0.295,0.0
28.787,0.452,0.095,3.0
25.42,0.392,-0.061,0.0
55.992,0.848,1.394,0.0
48.387,0.719,0.928,0.0
37.584,0.549,0.506,0.0
31.875,0.457,0.243,0.0
27.904,0.392,0.053,0.0
24.414,0.337,-0.092,1.0
57.567,0.778,1.354,1.0
46.661,0.618,0.831,0.0
35.426,0.46,0.428,0.0
29.036,0.369,0.182,0.0
27.002,0.336,0.015,0.0
23.85,0.29,-0.122,0.0
57.639,0.684,1.279,0.0
0.0,0.0,0.0,0.0
34.058,0.385,0.366,0.0
28.897,0.319,0.143,6.0
26.403,0.284,-0.02,0.0
23.33,0.244,-0.15,0.0
0.0,0.0,0.0,0.0
39.253,0.389,0.595,0.0
0.0,0.0,0.0,0.0
28.789,0.269,0.105,6.0
25.667,0.233,-0.052,0.0
22.354,0.196,-0.173,2.0
0.0,0.0,0.0,0.0
0.0,0.0,0.0,0.0
0.0,0.0,0.0,0.0
28.322,0.216,0.067,1.0
25.007,0.184,-0.083,0.0
21.953,0.155,-0.198,2.0
43.592,0.295,0.799,0.0
0.0,0.0,0.0,0.0
0.0,0.0,0.0,0.0
27.34,0.161,0.03,0.0
24.424,0.137,-0.111,0.0
21.148,0.112,-0.217,2.0
0.0,0.0,0.0,0.0
0.0,0.0,0.0,0.0
0.0,0.0,0.0,0.0
26.692,0.11,-0.002,0.0
23.374,0.089,-0.135,0.0
20.709,0.073,-0.237,0.0
41.6,0.135,0.661,0.0
33.402,0.098,0.34,0.0
28.759,0.076,0.129,1.0
26.047,0.061,-0.033,0.0
23.24,0.047,-0.162,0.0
19.778,0.034,-0.25,0.0
38.653,0.055,0.568,0.0
32.9,0.037,0.297,0.0
28.653,0.024,0.095,1.0
25.445,0.013,-0.062,0.0
22.053,0.005,-0.179,0.0
19.279,-0.001,-0.266,0.0
36.657,-0.013,0.498,0.0
31.323,-0.021,0.247,0.0
28.22,-0.027,0.062,1.0
24.682,-0.031,-0.088,0.0
21.513,-0.034,-0.199,0.0
18.615,-0.035,-0.278,0.0
36.132,-0.078,0.451,0.0
30.889,-0.076,0.21,1.0
27.394,-0.076,0.03,0.0
24.078,-0.075,-0.112,0.0
21.057,-0.072,-0.217,0.0
18.255,-0.068,-0.292,0.0
0.0,0.0,0.0,0.0
28.887,-0.125,0.165,1.0
26.667,-0.123,0.001,0.0
23.394,-0.116,-0.133,0.0
20.266,-0.107,-0.231,0.0
17.872,-0.1,-0.305,0.0
33.134,-0.195,0.343,0.0
28.801,-0.179,0.135,6.0
26.235,-0.171,-0.025,0.0
23.015,-0.157,-0.155,0.0
19.808,-0.142,-0.246,0.0
17.548,-0.131,-0.317,0.0
32.635,-0.254,0.305,1.0
28.736,-0.233,0.105,6.0
25.476,-0.215,-0.05,0.0
22.473,-0.197,-0.174,0.0
19.313,-0.175,-0.259,0.0
17.224,-0.162,-0.328,0.0
32.078,-0.311,0.268,1.0
28.331,-0.283,0.077,1.0
24.907,-0.257,-0.073,0.0
22.013,-0.234,-0.191,0.0
19.002,-0.209,-0.273,0.0
16.914,-0.191,-0.339,0.0
31.546,-0.367,0.234,0.0
27.718,-0.331,0.049,0.0
24.454,-0.3,-0.094,0.0
21.491,-0.271,-0.207,0.0
18.478,-0.238,-0.282,0.0
16.698,-0.221,-0.349,0.0
30.87,-0.418,0.201,0.0
27.126,-0.376,0.023,0.0
23.817,-0.338,-0.113,0.0
20.927,-0.304,-0.22,0.0
18.164,-0.27,-0.294,0.0
16.522,-0.251,-0.361,0.0
28.753,-0.445,0.162,0.0
26.573,-0.42,0.0,0.0
23.646,-0.382,-0.133,0.0
19.916,-0.328,-0.226,0.0
17.943,-0.302,-0.305,0.0
16.314,-0.28,-0.37,0.0
28.672,-0.501,0.137,0.0
26.224,-0.467,-0.021,0.0
23.191,-0.42,-0.15,0.0
19.785,-0.365,-0.241,0.0
17.641,-0.332,-0.315,0.0
16.074,-0.308,-0.377,0.0
28.701,-0.558,0.115,6.0
25.92,-0.512,-0.042,0.0
22.79,-0.458,-0.165,0.0
19.314,-0.395,-0.251,0.0
17.287,-0.359,-0.322,0.0
15.926,-0.336,-0.386,0.0
28.611,-0.613,0.093,5.0
25.152,-0.547,-0.059,0.0
22.24,-0.492,-0.178,0.0
19.241,-0.432,-0.264,0.0
17.066,-0.389,-0.33,0.0
15.778,-0.365,-0.394,0.0
28.484,-0.667,0.072,3.0
25.007,-0.594,-0.077,0.0
22.036,-0.531,-0.192,0.0
18.859,-0.461,-0.272,0.0
16.965,-0.42,-0.34,0.0
15.578,-0.392,-0.4,0.0
27.845,-0.707,0.051,0.0
24.642,-0.634,-0.093,0.0
21.421,-0.559,-0.201,0.0
18.54,-0.49,-0.28,0.0
16.76,-0.449,-0.347,0.0
15.42,-0.418,-0.406,0.0
27.322,-0.749,0.032,0.0
24.113,-0.669,-0.106,0.0
21.031,-0.591,-0.211,2.0
18.268,-0.52,-0.288,0.0
16.591,-0.478,-0.354,0.0
15.133,-0.441,-0.408,0.0
26.941,-0.792,0.015,0.0
23.65,-0.704,-0.119,0.0
20.948,-0.631,-0.223,1.0
18.097,-0.551,-0.296,0.0
16.469,-0.507,-0.362,0.0
14.975,-0.467,-0.413,0.0
26.698,-0.839,0.0,0.0
23.511,-0.747,-0.131,0.0
20.961,-0.673,-0.235,0.0
17.948,-0.583,-0.303,0.0
16.335,-0.536,-0.368,0.0
14.896,-0.494,-0.419,0.0
26.318,-0.88,-0.014,0.0
23.346,-0.789,-0.143,0.0
20.147,-0.688,-0.236,0.0
17.708,-0.611,-0.309,0.0
16.074,-0.56,-0.37,0.0
14.764,-0.52,-0.423,0.0
26.285,-0.932,-0.027,0.0
22.788,-0.816,-0.151,0.0
19.563,-0.708,-0.239,0.0
17.583,-0.642,-0.315,0.0
16.042,-0.592,-0.377,0.0
14.705,-0.548,-0.428,0.0
25.677,-0.962,-0.038,0.0
22.949,-0.868,-0.162,1.0
19.478,-0.744,-0.247,0.0
17.381,-0.67,-0.319,0.0
15.955,-0.621,-0.382,0.0
14.622,-0.575,-0.432,0.0
25.727,-1.017,-0.049,0.0
22.526,-0.898,-0.169,2.0
19.3,-0.776,-0.252,0.0
17.301,-0.702,-0.325,0.0
15.816,-0.648,-0.385,0.0
14.547,-0.601,-0.435,0.0
25.761,-1.07,-0.059,1.0
22.395,-0.938,-0.176,2.0
19.273,-0.814,-0.259,0.0
17.19,-0.733,-0.329,0.0
15.832,-0.68,-0.391,0.0
14.402,-0.624,-0.436,0.0
25.734,-1.121,-0.068,0.0
22.31,-0.98,-0.183,1.0
19.164,-0.849,-0.264,0.0
17.145,-0.765,-0.334,0.0
15.655,-0.705,-0.392,0.0
14.318,-0.65,-0.438,0.0
25.031,-1.141,-0.074,0.0
21.996,-1.01,-0.187,1.0
19.06,-0.882,-0.268,0.0
17.0,-0.793,-0.336,0.0
15.632,-0.735,-0.396,0.0
14.272,-0.676,-0.441,0.0
0.0,0.0,0.0,0.0
22.087,-1.058,-0.194,1.0
18.969,-0.916,-0.272,0.0
16.995,-0.827,-0.34,0.0
15.498,-0.76,-0.396,0.0
14.247,-0.704,-0.443,0.0
24.722,-1.225,-0.085,0.0
22.043,-1.101,-0.198,1.0
18.901,-0.951,-0.275,0.0
16.913,-0.857,-0.342,0.0
15.544,-0.793,-0.4,0.0
14.216,-0.731,-0.445,0.0
24.438,-1.26,-0.088,0.0
22.142,-1.15,-0.203,0.0
18.867,-0.986,-0.278,0.0
16.901,-0.89,-0.344,0.0
15.525,-0.823,-0.403,0.0
14.18,-0.757,-0.446,0.0
34.242,-1.834,-0.129,1.0
21.953,-1.183,-0.205,0.0
18.791,-1.02,-0.279,0.0
16.833,-0.92,-0.345,0.0
34.133,-1.878,-0.89,0.0
14.111,-0.782,-0.446,0.0
34.239,-1.901,-0.133,3.0
21.752,-1.216,-0.205,0.0
18.706,-1.052,-0.28,0.0
16.82,-0.952,-0.347,0.0
15.312,-0.873,-0.4,0.0
14.137,-0.811,-0.448,0.0
24.116,-1.387,-0.096,0.0
21.683,-1.255,-0.206,0.0
18.743,-1.092,-0.282,0.0
16.818,-0.986,-0.347,0.0
15.253,-0.9,-0.4,0.0
14.091,-0.836,-0.447,0.0
24.176,-1.439,-0.097,0.0
21.566,-1.291,-0.205,0.0
18.649,-1.123,-0.281,0.0
16.792,-1.017,-0.347,0.0
15.185,-0.925,-0.398,0.0
14.059,-0.862,-0.446,0.0
24.347,-1.496,-0.097,0.0
21.59,-1.334,-0.205,0.0
18.585,-1.155,-0.279,0.0
16.786,-1.049,-0.347,0.0
15.212,-0.957,-0.398,0.0
14.112,-0.893,-0.447,0.0
24.186,-1.533,-0.096,0.0
21.793,-1.389,-0.206,0.0
18.589,-1.191,-0.278,0.0
16.852,-1.086,-0.347,0.0
15.241,-0.988,-0.398,0.0
14.097,-0.919,-0.446,0.0
24.134,-1.575,-0.093,0.0
21.664,-1.422,-0.203,0.0
18.667,-1.232,-0.278,0.0
16.857,-1.118,-0.346,0.0
15.299,-1.02,-0.398,0.0
14.11,-0.946,-0.445,0.0
24.37,-1.637,-0.092,0.0
21.879,-1.478,-0.203,0.0
18.781,-1.275,-0.277,0.0
16.931,-1.156,-0.345,0.0
15.374,-1.055,-0.398,0.0
14.183,-0.978,-0.445,0.0
0.0,0.0,0.0,0.0
21.912,-1.522,-0.199,0.0
18.833,-1.314,-0.275,0.0
16.956,-1.19,-0.342,0.0
15.475,-1.091,-0.398,0.0
14.22,-1.008,-0.444,0.0
33.909,-2.407,-0.116,7.0
33.873,-2.416,-0.302,2.0
18.919,-1.356,-0.272,0.0
17.033,-1.227,-0.341,0.0
15.462,-1.119,-0.394,0.0
14.215,-1.034,-0.44,0.0
33.904,-2.469,-0.108,6.0
33.894,-2.48,-0.294,2.0
18.946,-1.393,-0.268,0.0
17.061,-1.26,-0.337,0.0
15.543,-1.154,-0.392,0.0
14.258,-1.063,-0.438,0.0
33.901,-2.531,-0.099,11.0
33.899,-2.542,-0.285,9.0
19.114,-1.44,-0.266,0.0
17.162,-1.299,-0.334,0.0
15.578,-1.184,-0.389,0.0
14.321,-1.094,-0.436,0.0
33.879,-2.591,-0.089,5.0
33.867,-2.601,-0.275,4.0
19.256,-1.486,-0.262,0.0
17.236,-1.336,-0.33,0.0
15.698,-1.222,-0.387,0.0
14.415,-1.127,-0.434,0.0
33.867,-2.651,-0.078,2.0
33.852,-2.662,-0.263,2.0
19.628,-1.55,-0.26,0.0
17.398,-1.38,-0.327,0.0
15.774,-1.256,-0.383,0.0
14.481,-1.159,-0.431,0.0
33.887,-2.713,-0.065,0.0
33.883,-2.724,-0.25,6.0
19.652,-1.587,-0.253,0.0
17.542,-1.422,-0.323,0.0
15.94,-1.298,-0.381,0.0
14.575,-1.192,-0.428,0.0
33.907,-2.774,-0.052,0.0
33.861,-2.781,-0.237,6.0
19.89,-1.64,-0.247,0.0
17.654,-1.462,-0.318,0.0
15.969,-1.328,-0.375,0.0
14.64,-1.222,-0.423,0.0
33.866,-2.829,-0.037,0.0
33.831,-2.837,-0.221,2.0
20.44,-1.721,-0.245,0.0
17.776,-1.502,-0.312,0.0
16.098,-1.366,-0.37,0.0
14.794,-1.26,-0.421,0.0
26.484,-2.257,-0.016,0.0
23.3,-1.994,-0.141,1.0
20.758,-1.783,-0.239,0.0
17.888,-1.542,-0.305,0.0
16.348,-1.415,-0.368,0.0
14.839,-1.289,-0.415,0.0
27.193,-2.363,-0.003,0.0
23.422,-2.043,-0.13,1.0
20.836,-1.824,-0.229,1.0
18.184,-1.598,-0.301,0.0
16.564,-1.461,-0.364,0.0
14.993,-1.327,-0.411,0.0
27.375,-2.424,0.011,0.0
23.563,-2.094,-0.118,0.0
20.991,-1.872,-0.219,1.0
18.33,-1.64,-0.293,0.0
16.686,-1.499,-0.358,0.0
15.202,-1.37,-0.408,0.0
27.382,-2.469,0.026,0.0
23.871,-2.16,-0.106,0.0
21.345,-1.938,-0.211,1.0
18.681,-1.702,-0.288,0.0
16.843,-1.54,-0.351,0.0
15.358,-1.409,-0.403,0.0
27.945,-2.565,0.044,0.0
24.709,-2.275,-0.095,0.0
21.846,-2.018,-0.202,1.0
18.911,-1.753,-0.28,0.0
17.026,-1.584,-0.344,0.0
15.524,-1.449,-0.398,0.0
28.236,-2.636,0.062,0.0
25.181,-2.358,-0.081,0.0
22.307,-2.096,-0.192,1.0
19.342,-1.823,-0.273,0.0
17.226,-1.629,-0.337,0.0
15.59,-1.479,-0.39,0.0
28.752,-2.728,0.082,0.0
25.46,-2.423,-0.064,0.0
22.518,-2.15,-0.179,1.0
19.516,-1.869,-0.263,0.0
17.451,-1.677,-0.329,0.0
15.753,-1.519,-0.383,0.0
29.198,-2.815,0.104,0.0
25.699,-2.485,-0.047,0.0
22.796,-2.211,-0.165,1.0
19.828,-1.929,-0.253,0.0
17.66,-1.723,-0.321,0.0
16.102,-1.576,-0.38,0.0
29.78,-2.915,0.127,0.0
26.19,-2.571,-0.029,0.0
23.219,-2.285,-0.151,1.0
20.258,-2.0,-0.244,0.0
17.892,-1.771,-0.312,0.0
16.363,-1.625,-0.374,0.0
30.621,-3.041,0.154,0.0
34.02,-3.387,-0.012,0.0
34.011,-3.396,-0.196,1.0
33.96,-3.4,-0.383,3.0
33.959,-3.41,-0.567,1.0
16.586,-1.67,-0.366,0.0
30.694,-3.091,0.177,0.0
34.006,-3.433,0.013,2.0
34.011,-3.443,-0.17,4.0
33.971,-3.448,-0.357,1.0
34.032,-3.464,-0.541,0.0
16.754,-1.71,-0.357,0.0
31.206,-3.185,0.205,0.0
34.069,-3.486,0.04,1.0
24.868,-2.551,-0.104,0.0
21.631,-2.225,-0.209,0.0
18.939,-1.953,-0.285,0.0
16.955,-1.753,-0.347,0.0
31.352,-3.242,0.232,1.0
28.787,-2.983,0.058,1.0
25.125,-2.611,-0.084,0.0
22.303,-2.323,-0.197,0.0
19.263,-2.011,-0.274,0.0
17.178,-1.798,-0.337,0.0
32.076,-3.358,0.264,0.0
28.989,-3.042,0.083,8.0
25.618,-2.694,-0.064,0.0
22.313,-2.353,-0.178,4.0
19.628,-2.074,-0.262,0.0
17.512,-1.855,-0.329,0.0
33.345,-3.533,0.304,0.0
27.83,-2.955,0.104,3.0
26.506,-2.821,-0.043,2.0
22.514,-2.402,-0.16,1.0
19.888,-2.126,-0.248,0.0
17.786,-1.906,-0.318,0.0
29.461,-3.157,0.295,1.0
27.494,-2.953,0.127,4.0
26.8,-2.885,-0.019,5.0
23.541,-2.54,-0.146,3.0
20.608,-2.228,-0.238,0.0
18.063,-1.957,-0.306,0.0
29.994,-3.25,0.328,2.0
27.364,-2.971,0.152,4.0
23.632,-2.571,0.004,150.0
23.548,-2.568,-0.124,28.0
23.636,-2.583,-0.251,0.0
23.672,-2.592,-0.379,0.0
29.688,-3.251,0.353,1.0
27.567,-3.024,0.179,7.0
23.579,-2.592,0.027,164.0
23.6,-2.6,-0.102,75.0
22.544,-2.489,-0.218,4.0
23.644,-2.616,-0.356,1.0
30.709,-3.397,0.395,1.0
27.744,-3.075,0.207,7.0
23.587,-2.619,0.049,169.0
23.605,-2.626,-0.078,96.0
22.348,-2.491,-0.194,4.0
23.625,-2.639,-0.332,0.0
31.793,-3.551,0.44,1.0
28.374,-3.175,0.24,1.0
23.631,-2.649,0.073,152.0
23.602,-2.65,-0.055,66.0
22.407,-2.521,-0.172,3.0
19.89,-2.242,-0.26,0.0
34.665,-3.907,0.515,0.0
29.089,-3.284,0.276,0.0
26.551,-3.003,0.109,3.0
23.591,-2.673,-0.031,15.0
22.592,-2.564,-0.151,3.0
20.326,-2.311,-0.245,0.0
35.98,-4.091,0.571,0.0
22.174,-2.525,0.233,0.0
26.687,-3.044,0.137,6.0
26.411,-3.018,-0.008,1.0
22.579,-2.584,-0.128,7.0
21.202,-2.431,-0.233,0.0
22.375,-2.565,0.378,3.0
22.151,-2.543,0.256,14.0
26.888,-3.092,0.166,5.0
26.313,-3.031,0.019,3.0
22.582,-2.605,-0.104,7.0
22.254,-2.572,-0.222,2.0
22.21,-2.566,0.399,12.0
22.128,-2.561,0.278,16.0
22.159,-2.568,0.16,14.0
26.253,-3.047,0.046,7.0
22.571,-2.624,-0.08,3.0
22.377,-2.605,-0.199,3.0
22.161,-2.58,0.421,14.0
22.118,-2.578,0.302,17.0
22.126,-2.583,0.184,17.0
22.196,-2.594,0.063,11.0
22.434,-2.626,-0.056,4.0
22.398,-2.625,-0.175,4.0
22.155,-2.597,0.445,16.0
22.113,-2.595,0.326,19.0
22.127,-2.6,0.207,18.0
22.154,-2.607,0.087,17.0
22.388,-2.638,-0.031,28.0
22.427,-2.646,-0.151,8.0
22.14,-2.612,0.469,17.0
22.109,-2.612,0.35,19.0
22.118,-2.616,0.231,17.0
22.145,-2.622,0.111,18.0
22.206,-2.633,-0.006,14.0
22.407,-2.66,-0.126,19.0
22.144,-2.629,0.493,14.0
22.11,-2.628,0.375,20.0
22.11,-2.631,0.256,18.0
22.122,-2.635,0.136,18.0
22.174,-2.644,0.017,18.0
22.391,-2.673,-0.101,24.0
22.154,-2.645,0.518,12.0
22.119,-2.644,0.399,20.0
22.111,-2.645,0.281,17.0
22.139,-2.652,0.16,14.0
22.166,-2.658,0.042,21.0
22.216,-2.667,-0.076,13.0
22.136,-2.657,0.543,17.0
22.124,-2.658,0.424,19.0
22.111,-2.659,0.305,16.0
22.187,-2.671,0.185,13.0
22.154,-2.669,0.067,18.0
22.204,-2.678,-0.051,19.0
22.134,-2.67,0.568,18.0
22.122,-2.671,0.449,16.0
22.127,-2.674,0.331,13.0
22.456,-2.716,0.213,11.0
22.161,-2.683,0.092,12.0
22.182,-2.688,-0.026,20.0
22.141,-2.683,0.593,19.0
22.134,-2.684,0.474,13.0
22.143,-2.687,0.356,14.0
22.514,-2.735,0.24,3.0
22.208,-2.7,0.118,4.0
22.183,-2.699,0.0,18.0
22.115,-2.691,0.618,16.0
22.163,-2.699,0.501,13.0
22.148,-2.699,0.382,13.0
31.628,-3.857,0.373,0.0
26.39,-3.22,0.17,4.0
22.184,-2.709,0.025,11.0
22.074,-2.696,0.642,11.0
22.142,-2.706,0.526,15.0
22.146,-2.708,0.408,12.0
32.705,-4.002,0.424,1.0
26.107,-3.197,0.199,1.0
25.741,-3.154,0.058,10.0
22.118,-2.711,0.669,11.0
22.151,-2.716,0.552,16.0
22.158,-2.718,0.433,12.0
34.067,-4.182,0.481,0.0
28.408,-3.489,0.249,1.0
25.861,-3.178,0.089,6.0
22.19,-2.728,0.697,14.0
22.171,-2.727,0.578,13.0
22.141,-2.724,0.459,9.0
35.95,-4.425,0.549,0.0
29.277,-3.606,0.291,0.0
26.194,-3.227,0.12,6.0
22.237,-2.741,0.725,22.0
22.173,-2.734,0.604,11.0
22.18,-2.736,0.486,1.0
22.048,-2.72,0.363,0.0
30.882,-3.812,0.343,0.0
26.286,-3.246,0.151,6.0
22.282,-2.753,0.752,25.0
22.181,-2.741,0.63,4.0
22.169,-2.74,0.511,0.0
39.234,-4.851,0.691,1.0
32.15,-3.976,0.395,0.0
26.189,-3.24,0.182,4.0
22.269,-2.756,0.778,23.0
22.217,-2.75,0.657,5.0
22.164,-2.744,0.538,0.0
22.192,-2.748,0.417,0.0
33.504,-4.15,0.45,1.0
26.012,-3.223,0.211,1.0
22.225,-2.755,0.802,19.0
22.254,-2.758,0.684,12.0
22.183,-2.75,0.563,0.0
22.185,-2.75,0.443,0.0
0.0,0.0,0.0,0.0
28.803,-3.572,0.267,0.0
22.182,-2.752,0.827,17.0
22.286,-2.765,0.711,18.0
22.161,-2.75,0.589,0.0
22.182,-2.752,0.468,0.0
0.0,0.0,0.0,0.0
30.052,-3.73,0.314,1.0
22.178,-2.754,0.853,15.0
22.295,-2.768,0.738,23.0
22.129,-2.747,0.614,0.0
0.0,0.0,0.0,0.0
38.963,-4.837,0.66,0.0
31.052,-3.855,0.36,0.0
22.178,-2.755,0.878,16.0
22.287,-2.768,0.763,23.0
22.252,-2.763,0.643,1.0
0.0,0.0,0.0,0.0
39.441,-4.897,0.713,0.0
32.586,-4.045,0.415,1.0
22.175,-2.754,0.903,18.0
22.257,-2.764,0.788,18.0
22.259,-2.763,0.668,6.0
22.138,-2.748,0.544,0.0
22.091,-2.741,0.425,0.0
33.741,-4.187,0.468,0.0
22.169,-2.753,0.929,18.0
22.187,-2.754,0.811,16.0
22.261,-2.762,0.694,14.0
22.189,-2.752,0.571,0.0
22.192,-2.752,0.452,0.0
35.609,-4.415,0.535,0.0
22.168,-2.75,0.954,16.0
22.172,-2.75,0.835,15.0
22.269,-2.76,0.72,21.0
22.178,-2.748,0.596,2.0
22.177,-2.747,0.477,0.0
0.0,0.0,0.0,0.0
22.119,-2.741,0.977,11.0
22.164,-2.745,0.861,15.0
22.285,-2.759,0.745,23.0
22.194,-2.746,0.621,3.0
22.149,-2.74,0.501,0.0
39.312,-4.861,0.679,1.0
22.054,-2.729,0.999,9.0
22.138,-2.738,0.884,13.0
22.265,-2.752,0.769,23.0
22.18,-2.74,0.646,8.0
22.166,-2.737,0.526,2.0
22.182,-2.737,0.408,3.0
22.025,-2.72,1.023,8.0
22.084,-2.726,0.907,10.0
22.192,-2.737,0.792,15.0
22.186,-2.735,0.67,12.0
22.17,-2.731,0.551,10.0
22.164,-2.729,0.432,11.0
22.022,-2.714,1.047,9.0
22.021,-2.711,0.928,8.0
22.067,-2.715,0.812,9.0
22.166,-2.725,0.694,12.0
22.15,-2.722,0.574,15.0
22.157,-2.721,0.456,11.0
22.014,-2.705,1.071,9.0
22.005,-2.702,0.952,8.0
21.996,-2.699,0.833,7.0
22.061,-2.705,0.714,12.0
22.152,-2.714,0.598,17.0
22.179,-2.715,0.48,11.0
22.016,-2.698,1.094,9.0
21.994,-2.692,0.975,9.0
21.997,-2.69,0.856,8.0
21.97,-2.685,0.735,22.0
22.083,-2.696,0.62,12.0
22.158,-2.703,0.503,16.0
22.005,-2.687,1.117,9.0
22.003,-2.684,0.999,10.0
21.994,-2.68,0.88,9.0
21.97,-2.675,0.758,24.0
21.982,-2.674,0.64,17.0
22.141,-2.691,0.526,18.0
22.024,-2.679,1.141,10.0
22.008,-2.675,1.022,10.0
21.992,-2.67,0.902,9.0
21.98,-2.666,0.781,16.0
21.966,-2.661,0.663,23.0
22.135,-2.679,0.548,17.0
22.028,-2.669,1.164,9.0
22.0,-2.662,1.044,9.0
21.99,-2.658,0.925,9.0
21.992,-2.655,0.804,9.0
22.003,-2.654,0.686,26.0
22.132,-2.667,0.571,17.0
22.03,-2.657,1.187,8.0
22.017,-2.652,1.067,7.0
22.01,-2.648,0.948,7.0
21.997,-2.643,0.826,7.0
21.988,-2.639,0.707,19.0
22.127,-2.653,0.593,18.0
22.038,-2.645,1.209,5.0
22.049,-2.643,1.091,5.0
22.023,-2.636,0.97,6.0
22.037,-2.635,0.849,8.0
22.103,-2.639,0.733,13.0
22.137,-2.64,0.615,16.0
22.067,-2.635,1.232,3.0
22.062,-2.63,1.113,11.0
22.097,-2.631,0.995,13.0
22.124,-2.63,0.874,14.0
22.177,-2.633,0.757,13.0
22.16,-2.628,0.636,16.0
22.134,-2.628,1.257,10.0
22.091,-2.619,1.135,16.0
22.142,-2.621,1.018,16.0
22.148,-2.618,0.896,15.0
22.177,-2.617,0.778,12.0
22.189,-2.615,0.658,14.0
22.131,-2.611,1.278,19.0
22.134,-2.608,1.158,20.0
22.134,-2.604,1.038,16.0
22.15,-2.601,0.917,15.0
22.179,-2.601,0.798,12.0
22.219,-2.602,0.679,16.0
22.151,-2.597,1.299,12.0
22.139,-2.591,1.178,21.0
22.144,-2.588,1.058,18.0
22.159,-2.585,0.937,13.0
22.193,-2.585,0.818,12.0
22.262,-2.589,0.7,17.0
22.241,-2.59,1.324,10.0
22.139,-2.573,1.198,19.0
22.147,-2.57,1.078,16.0
22.171,-2.568,0.957,11.0
22.196,-2.567,0.837,11.0
22.315,-2.577,0.721,10.0
22.274,-2.575,1.346,3.0
22.157,-2.557,1.218,9.0
22.153,-2.552,1.097,12.0
22.182,-2.55,0.976,10.0
22.234,-2.552,0.858,10.0
22.315,-2.557,0.74,1.0
22.249,-2.553,1.363,0.0
22.298,-2.553,1.244,4.0
22.214,-2.539,1.119,7.0
22.239,-2.537,0.997,7.0
22.279,-2.537,0.878,4.0
98.958,-11.251,3.363,1.0
22.236,-2.531,1.38,2.0
151.445,-17.205,8.576,5.0
22.344,-2.533,1.143,2.0
22.3,-2.523,1.017,0.0
153.862,-17.38,6.185,3.0
145.305,-16.384,5.05,2.0
22.26,-2.512,1.399,3.0
159.462,-17.964,9.153,8.0
158.474,-17.816,8.232,17.0
164.109,-18.412,7.617,9.0
153.708,-17.211,6.297,4.0
145.411,-16.251,5.167,4.0
22.229,-2.487,1.414,0.0
159.261,-17.781,9.264,18.0
158.795,-17.692,8.369,19.0
164.314,-18.269,7.747,5.0
153.552,-17.038,6.402,8.0
145.535,-16.116,5.277,2.0
160.112,-17.751,10.303,8.0
159.638,-17.66,9.4,17.0
159.028,-17.553,8.495,20.0
159.493,-17.566,7.633,12.0
153.891,-16.913,6.526,3.0
0.0,0.0,0.0,0.0
174.517,-19.162,11.354,19.0
160.024,-17.529,9.535,14.0
159.208,-17.4,8.615,16.0
159.735,-17.419,7.755,17.0
153.987,-16.756,6.634,8.0
36.58,-3.972,1.376,0.0
174.532,-18.972,11.472,27.0
160.091,-17.362,9.644,11.0
159.316,-17.237,8.725,19.0
159.604,-17.227,7.851,23.0
154.44,-16.633,6.753,3.0
36.501,-3.922,1.396,1.0
174.538,-18.776,11.582,36.0
159.953,-17.163,9.738,17.0
159.378,-17.06,8.829,20.0
159.738,-17.057,7.958,17.0
159.788,-17.022,7.086,4.0
36.661,-3.896,1.425,2.0
174.748,-18.594,11.704,23.0
159.783,-16.958,9.823,12.0
158.628,-16.793,8.882,16.0
159.229,-16.815,8.027,18.0
159.845,-16.839,7.182,15.0
36.325,-3.817,1.433,0.0
175.074,-18.42,11.826,24.0
161.756,-16.973,10.037,5.0
158.373,-16.576,8.955,16.0
159.173,-16.616,8.112,19.0
159.971,-16.657,7.276,15.0
35.49,-3.686,1.419,0.0
175.446,-18.242,11.948,18.0
160.187,-16.61,10.027,15.0
158.461,-16.388,9.046,7.0
159.185,-16.42,8.195,17.0
159.837,-16.444,7.352,5.0
35.147,-3.606,1.423,0.0
143.338,-14.722,9.834,11.0
160.071,-16.395,10.099,12.0
159.968,-16.34,9.212,18.0
158.845,-16.182,8.256,17.0
35.962,-3.653,1.671,0.0
34.784,-3.524,1.425,1.0
143.526,-14.557,9.915,17.0
176.499,-17.851,11.217,14.0
159.989,-16.136,9.286,17.0
158.77,-15.967,8.324,18.0
35.417,-3.552,1.662,1.0
34.563,-3.457,1.431,0.0
143.782,-14.395,9.995,17.0
150.126,-14.986,9.605,5.0
160.051,-15.93,9.358,16.0
158.95,-15.774,8.401,16.0
34.984,-3.462,1.656,0.0
34.414,-3.396,1.439,0.0
143.593,-14.182,10.041,14.0
149.906,-14.759,9.652,19.0
160.101,-15.717,9.423,14.0
158.76,-15.538,8.451,17.0
34.802,-3.396,1.66,0.0
34.316,-3.339,1.448,1.0
177.542,-17.291,12.478,11.0
149.346,-14.5,9.67,16.0
162.349,-15.713,9.613,7.0
159.255,-15.366,8.533,17.0
0.0,0.0,0.0,0.0
34.329,-3.292,1.46,3.0
151.491,-14.541,10.698,15.0
189.714,-18.15,12.345,6.0
149.558,-14.262,8.903,24.0
149.995,-14.26,8.084,28.0
0.0,0.0,0.0,0.0
34.194,-3.231,1.464,0.0
153.413,-14.507,10.879,9.0
151.502,-14.278,9.902,10.0
149.523,-14.045,8.943,14.0
150.162,-14.059,8.134,20.0
34.798,-3.247,1.692,0.0
34.169,-3.179,1.472,0.0
153.356,-14.275,10.915,4.0
151.464,-14.052,9.937,8.0
149.684,-13.841,8.99,25.0
162.183,-14.946,8.824,9.0
34.862,-3.202,1.703,0.0
0.0,0.0,0.0,0.0
145.698,-13.35,10.401,8.0
148.613,-13.571,9.782,11.0
150.35,-13.682,9.06,21.0
162.321,-14.72,8.863,7.0
0.0,0.0,0.0,0.0
34.262,-3.086,1.49,0.0
146.021,-13.16,10.451,13.0
147.376,-13.236,9.725,8.0
148.969,-13.333,9.002,4.0
209.169,-18.655,11.455,150.0
0.0,0.0,0.0,0.0
34.357,-3.043,1.499,0.0
146.159,-12.953,10.481,13.0
208.46,-18.408,13.784,11.0
194.686,-17.129,11.79,22.0
185.404,-16.255,10.175,54.0
35.05,-3.062,1.728,0.0
0.0,0.0,0.0,0.0
146.504,-12.758,10.52,15.0
147.044,-12.757,9.737,10.0
209.038,-18.07,12.677,9.0
151.954,-13.088,8.352,143.0
35.186,-3.019,1.737,0.0
0.0,0.0,0.0,0.0
152.191,-13.017,10.938,12.0
148.219,-12.63,9.823,4.0
151.918,-12.895,9.219,16.0
151.948,-12.848,8.357,129.0
34.913,-2.941,1.725,0.0
0.0,0.0,0.0,0.0
146.591,-12.308,10.538,11.0
149.987,-12.543,9.943,10.0
208.985,-17.408,12.685,10.0
200.13,-16.603,11.009,35.0
35.046,-2.896,1.732,0.0
36.186,-2.979,1.586,0.0
147.49,-12.145,10.601,11.0
149.202,-12.236,9.887,13.0
208.792,-17.057,12.665,17.0
200.183,-16.288,11.002,22.0
0.0,0.0,0.0,0.0
34.259,-2.766,1.5,0.0
146.404,-11.821,10.514,3.0
149.359,-12.009,9.888,6.0
209.078,-16.741,12.669,14.0
195.092,-15.559,10.708,5.0
34.954,-2.776,1.723,0.0
0.0,0.0,0.0,0.0
149.228,-11.807,10.702,11.0
151.174,-11.909,9.992,15.0
209.184,-16.41,12.652,12.0
193.475,-15.116,10.596,17.0
0.0,0.0,0.0,0.0
34.168,-2.647,1.488,0.0
149.442,-11.577,10.695,3.0
195.204,-15.059,12.874,8.0
193.705,-14.878,11.686,6.0
193.359,-14.79,10.559,7.0
35.02,-2.667,1.715,0.0
0.0,0.0,0.0,0.0
155.233,-11.77,11.082,8.0
154.226,-11.641,10.141,11.0
190.707,-14.333,11.468,5.0
190.006,-14.22,10.338,11.0
34.956,-2.605,1.705,0.0
34.304,-2.545,1.481,0.0
147.506,-10.941,10.497,12.0
121.998,-9.009,7.993,8.0
189.431,-13.925,11.346,12.0
190.516,-13.941,10.32,6.0
35.004,-2.55,1.699,0.0
34.329,-2.49,1.473,0.0
122.183,-8.857,8.663,12.0
122.049,-8.807,7.964,11.0
188.938,-13.571,11.263,10.0
189.618,-13.557,10.218,8.0
34.881,-2.482,1.683,0.0
0.0,0.0,0.0,0.0
122.414,-8.668,8.64,8.0
122.214,-8.612,7.937,15.0
188.996,-13.255,11.207,18.0
189.436,-13.223,10.145,8.0
34.933,-2.427,1.673,0.0
34.167,-2.363,1.445,0.0
122.158,-8.442,8.58,13.0
121.946,-8.387,7.876,17.0
90.976,-6.226,5.361,9.0
156.853,-10.685,8.342,26.0
0.0,0.0,0.0,0.0
34.219,-2.309,1.434,0.0
147.269,-9.929,10.286,6.0
121.787,-8.171,7.818,16.0
188.975,-12.618,11.061,11.0
157.091,-10.439,8.293,28.0
34.65,-2.291,1.633,0.0
34.17,-2.248,1.418,0.0
121.043,-7.957,8.404,12.0
121.884,-7.971,7.771,13.0
120.861,-7.865,7.021,11.0
0.0,0.0,0.0,0.0
34.794,-2.241,1.624,0.0
34.242,-2.195,1.405,0.0
121.281,-7.765,8.363,9.0
121.833,-7.761,7.709,9.0
92.148,-5.839,5.308,10.0
122.738,-7.737,6.363,6.0
34.684,-2.175,1.602,0.0
34.169,-2.132,1.385,0.0
89.025,-5.547,6.092,9.0
121.961,-7.56,7.654,15.0
91.985,-5.671,5.251,5.0
122.622,-7.522,6.293,6.0
34.809,-2.124,1.589,0.0
34.135,-2.072,1.365,0.0
89.252,-5.408,6.058,13.0
92.255,-5.56,5.738,19.0
120.717,-7.237,6.822,12.0
188.356,-11.231,9.557,16.0
0.0,0.0,0.0,0.0
34.123,-2.013,1.345,1.0
89.057,-5.243,5.991,22.0
92.037,-5.389,5.669,13.0
122.376,-7.126,6.842,9.0
188.494,-10.914,9.448,22.0
0.0,0.0,0.0,0.0
34.179,-1.957,1.325,0.0
0.0,0.0,0.0,0.0
92.334,-5.246,5.627,14.0
119.464,-6.749,6.6,8.0
188.926,-10.613,9.346,21.0
0.0,0.0,0.0,0.0
34.264,-1.903,1.305,0.0
89.54,-4.961,5.905,25.0
92.182,-5.079,5.554,16.0
119.013,-6.518,6.493,14.0
119.302,-6.497,5.817,7.0
0.0,0.0,0.0,0.0
109.31,-5.885,4.089,16.0
92.349,-4.958,6.023,21.0
112.101,-5.982,6.672,16.0
119.346,-6.33,6.424,12.0
0.0,0.0,0.0,0.0
0.0,0.0,0.0,0.0
109.379,-5.702,4.01,151.0
108.559,-5.642,6.998,19.0
112.288,-5.801,6.597,11.0
112.682,-5.785,5.978,8.0
0.0,0.0,0.0,0.0
0.0,0.0,0.0,0.0
109.381,-5.514,3.922,49.0
91.66,-4.606,5.835,11.0
112.262,-5.606,6.505,16.0
164.415,-8.158,8.587,4.0
0.0,0.0,0.0,0.0
0.0,0.0,0.0,0.0
95.957,-4.674,3.361,1.0
91.631,-4.447,5.755,17.0
98.458,-4.747,5.62,13.0
111.438,-5.339,5.725,5.0
0.0,0.0,0.0,0.0
94.93,-4.488,3.783,1.0
94.439,-4.437,3.225,3.0
90.642,-4.244,5.612,14.0
98.439,-4.578,5.531,8.0
111.59,-5.155,5.631,11.0
0.0,0.0,0.0,0.0
93.257,-4.252,3.632,4.0
92.715,-4.199,3.082,3.0
98.063,-4.425,5.981,16.0
111.761,-5.008,6.176,13.0
122.791,-5.464,6.082,8.0
0.0,0.0,0.0,0.0
92.323,-4.052,3.508,10.0
92.483,-4.032,2.986,2.0
94.499,-4.103,5.672,13.0
90.301,-3.893,4.902,15.0
120.193,-5.146,5.837,32.0
92.882,-3.948,3.969,8.0
92.186,-3.892,3.413,152.0
0.0,0.0,0.0,0.0
89.918,-3.752,5.306,22.0
122.671,-5.081,6.535,6.0
194.744,-8.008,9.257,13.0
92.24,-3.765,3.847,4.0
92.156,-3.735,3.316,151.0
0.0,0.0,0.0,0.0
98.374,-3.94,5.703,20.0
113.612,-4.516,5.933,8.0
194.964,-7.692,9.063,5.0
92.186,-3.61,3.748,16.0
92.107,-3.58,3.217,100.0
0.0,0.0,0.0,0.0
99.475,-3.819,5.659,17.0
113.336,-4.316,5.796,27.0
113.415,-4.287,5.148,19.0
92.171,-3.457,3.646,51.0
92.132,-3.429,3.117,31.0
0.0,0.0,0.0,0.0
113.285,-4.162,6.317,22.0
113.473,-4.136,5.676,12.0
93.335,-3.374,4.132,5.0
92.223,-3.308,3.544,155.0
92.252,-3.283,3.015,8.0
0.0,0.0,0.0,0.0
131.141,-4.601,7.16,6.0
190.616,-6.632,9.31,20.0
0.0,0.0,0.0,0.0
92.241,-3.157,3.435,166.0
92.913,-3.154,2.928,5.0
0.0,0.0,0.0,0.0
190.093,-6.361,10.153,20.0
190.312,-6.315,9.069,20.0
92.335,-3.038,3.868,2.0
92.258,-3.01,3.326,150.0
93.061,-3.011,2.82,1.0
0.0,0.0,0.0,0.0
189.804,-6.045,9.902,18.0
190.216,-6.005,8.829,16.0
92.276,-2.888,3.751,16.0
92.202,-2.86,3.209,40.0
0.0,0.0,0.0,0.0
0.0,0.0,0.0,0.0
189.593,-5.735,9.65,21.0
190.082,-5.698,8.579,7.0
92.299,-2.742,3.635,14.0
92.275,-2.716,3.093,36.0
0.0,0.0,0.0,0.0
0.0,0.0,0.0,0.0
189.545,-5.436,9.403,23.0
190.178,-5.403,8.337,18.0
92.438,-2.601,3.52,11.0
92.673,-2.582,2.985,2.0
0.0,0.0,0.0,0.0
0.0,0.0,0.0,0.0
189.59,-5.139,9.149,20.0
190.144,-5.103,8.079,15.0
92.425,-2.456,3.394,150.0
0.0,0.0,0.0,0.0
0.0,0.0,0.0,0.0
0.0,0.0,0.0,0.0
171.719,-4.387,8.049,31.0
125.324,-3.169,5.151,24.0
128.304,-3.21,4.532,9.0
93.462,-2.314,2.753,1.0
0.0,0.0,0.0,0.0
0.0,0.0,0.0,0.0
96.89,-2.326,4.404,8.0
125.31,-2.977,4.973,25.0
128.186,-3.012,4.346,2.0
0.0,0.0,0.0,0.0
0.0,0.0,0.0,0.0
42.964,-0.976,0.709,0.0
96.879,-2.18,4.264,38.0
125.047,-2.783,4.782,26.0
96.762,-2.129,3.141,6.0
0.0,0.0,0.0,0.0
0.0,0.0,0.0,0.0
0.0,0.0,0.0,0.0
96.89,-2.036,4.122,43.0
96.941,-2.013,3.563,45.0
96.512,-1.981,2.99,1.0
0.0,0.0,0.0,0.0
0.0,0.0,0.0,0.0
37.761,-0.747,0.512,0.0
96.938,-1.897,3.979,6.0
96.946,-1.873,3.418,38.0
89.461,-1.706,2.636,1.0
0.0,0.0,0.0,0.0
0.0,0.0,0.0,0.0
35.61,-0.653,0.428,0.0
0.0,0.0,0.0,0.0
96.959,-1.732,3.267,21.0
87.783,-1.548,2.451,1.0
0.0,0.0,0.0,0.0
0.0,0.0,0.0,0.0
34.044,-0.576,0.357,1.0
171.679,-2.865,6.511,3.0
96.752,-1.592,3.109,5.0
0.0,0.0,0.0,0.0
0.0,0.0,0.0,0.0
0.0,0.0,0.0,0.0
33.179,-0.515,0.295,1.0
171.438,-2.623,6.228,8.0
89.816,-1.354,2.743,1.0
64.018,-0.95,1.585,1.0
47.643,-0.697,0.899,0.0
0.0,0.0,0.0,0.0
31.66,-0.448,0.231,0.0
0.0,0.0,0.0,0.0
85.651,-1.175,2.478,2.0
0.0,0.0,0.0,0.0
0.0,0.0,0.0,0.0
34.318,-0.448,0.393,0.0
30.649,-0.393,0.174,0.0
90.772,-1.145,3.003,13.0
0.0,0.0,0.0,0.0
0.0,0.0,0.0,0.0
0.0,0.0,0.0,0.0
33.349,-0.391,0.327,1.0
28.744,-0.331,0.115,1.0
90.433,-1.022,2.841,11.0
65.857,-0.73,1.686,0.0
0.0,0.0,0.0,0.0
0.0,0.0,0.0,0.0
32.315,-0.337,0.262,1.0
28.509,-0.291,0.066,1.0
83.192,-0.833,2.471,1.0
0.0,0.0,0.0,0.0
0.0,0.0,0.0,0.0
36.691,-0.344,0.447,0.0
31.233,-0.286,0.2,1.0
27.377,-0.245,0.016,0.0
82.483,-0.722,2.307,2.0
55.804,-0.476,1.237,0.0
42.183,-0.352,0.69,0.0
0.0,0.0,0.0,0.0
28.815,-0.229,0.135,4.0
26.325,-0.203,-0.029,0.0
0.0,0.0,0.0,0.0
0.0,0.0,0.0,0.0
0.0,0.0,0.0,0.0
32.517,-0.225,0.283,1.0
28.731,-0.193,0.083,5.0
25.097,-0.164,-0.072,0.0
0.0,0.0,0.0,0.0
0.0,0.0,0.0,0.0
0.0,0.0,0.0,0.0
31.143,-0.178,0.215,1.0
27.505,-0.152,0.03,0.0
24.287,-0.13,-0.113,0.0
57.522,-0.296,1.302,0.0
0.0,0.0,0.0,0.0
0.0,0.0,0.0,0.0
28.873,-0.132,0.147,3.0
26.47,-0.116,-0.018,0.0
23.386,-0.098,-0.151,0.0
0.0,0.0,0.0,0.0
0.0,0.0,0.0,0.0
33.16,-0.12,0.304,1.0
28.746,-0.099,0.094,6.0
25.423,-0.083,-0.063,0.0
22.331,-0.069,-0.185,0.0
47.808,-0.138,0.907,0.0
36.776,-0.1,0.484,0.0
31.301,-0.079,0.23,1.0
27.758,-0.065,0.04,0.0
24.428,-0.053,-0.106,0.0
21.202,-0.042,-0.216,2.0
0.0,0.0,0.0,0.0
35.089,-0.057,0.396,0.0
30.086,-0.044,0.165,0.0
26.573,-0.034,-0.011,0.0
23.564,-0.026,-0.147,1.0
20.272,-0.019,-0.244,0.0
0.0,0.0,0.0,0.0
33.276,-0.019,0.312,0.0
28.677,-0.012,0.103,1.0
25.593,-0.006,-0.059,0.0
22.335,-0.002,-0.181,0.0
19.261,0.001,-0.268,0.0
0.0,0.0,0.0,0.0
31.343,0.012,0.236,0.0
27.723,0.015,0.047,0.0
24.278,0.017,-0.102,0.0
21.234,0.018,-0.212,4.0
18.424,0.019,-0.291,0.0
0.0,0.0,0.0,0.0
30.272,0.041,0.169,0.0
26.648,0.04,-0.005,0.0
23.464,0.039,-0.143,1.0
20.458,0.037,-0.244,0.0
17.731,0.035,-0.315,0.0
0.0,0.0,0.0,0.0
28.718,0.066,0.105,2.0
25.485,0.062,-0.054,0.0
22.167,0.057,-0.178,0.0
19.162,0.052,-0.265,0.0
17.091,0.049,-0.336,0.0
31.054,0.094,0.234,0.0
27.796,0.089,0.048,0.0
24.514,0.082,-0.1,0.0
21.215,0.074,-0.212,4.0
18.394,0.067,-0.291,0.0
16.559,0.062,-0.358,0.0
28.979,0.114,0.161,0.0
26.644,0.108,-0.005,0.0
23.253,0.098,-0.14,0.0
20.201,0.088,-0.241,0.0
17.669,0.079,-0.314,0.0
16.133,0.075,-0.381,0.0
28.738,0.137,0.103,1.0
25.49,0.125,-0.055,0.0
22.306,0.112,-0.178,2.0
19.202,0.099,-0.267,0.0
17.02,0.09,-0.336,0.0
15.671,0.085,-0.401,0.0
27.47,0.153,0.044,0.0
24.687,0.141,-0.103,0.0
21.168,0.123,-0.211,1.0
18.388,0.109,-0.293,0.0
16.496,0.1,-0.359,0.0
15.123,0.094,-0.417,0.0
26.435,0.168,-0.01,0.0
23.242,0.15,-0.144,0.0
19.987,0.132,-0.24,0.0
17.543,0.118,-0.315,0.0
16.017,0.11,-0.381,0.0
14.671,0.102,-0.434,0.0
25.29,0.179,-0.06,0.0
22.222,0.16,-0.182,3.0
19.086,0.14,-0.268,0.0
16.955,0.126,-0.338,0.0
15.562,0.117,-0.401,0.0
14.259,0.109,-0.451,0.0
24.229,0.188,-0.106,0.0
21.089,0.166,-0.215,0.0
18.266,0.146,-0.293,0.0
16.478,0.134,-0.362,0.0
15.118,0.124,-0.42,0.0
13.877,0.116,-0.467,0.0
23.067,0.194,-0.148,0.0
19.931,0.17,-0.244,0.0
17.514,0.151,-0.317,0.0
15.966,0.14,-0.383,0.0
14.509,0.129,-0.433,0.0
13.469,0.121,-0.48,0.0
22.08,0.2,-0.187,3.0
18.983,0.174,-0.271,0.0
16.874,0.156,-0.339,0.0
15.521,0.145,-0.404,0.0
14.166,0.134,-0.451,0.0
13.08,0.125,-0.493,0.0
20.962,0.202,-0.22,0.0
18.103,0.176,-0.295,0.0
16.481,0.162,-0.365,0.0
14.952,0.148,-0.42,0.0
13.825,0.138,-0.469,0.0
12.821,0.13,-0.51,0.0
19.736,0.201,-0.247,0.0
17.33,0.178,-0.318,0.0
15.894,0.165,-0.384,0.0
14.415,0.151,-0.434,0.0
13.375,0.141,-0.481,0.0
12.566,0.134,-0.525,0.0
18.815,0.201,-0.274,0.0
16.819,0.181,-0.343,0.0
15.443,0.168,-0.405,0.0
14.027,0.153,-0.451,0.0
13.063,0.144,-0.496,0.0
12.324,0.137,-0.54,0.0
18.042,0.201,-0.299,0.0
16.323,0.183,-0.366,0.0
14.812,0.167,-0.419,0.0
13.686,0.156,-0.468,0.0
12.782,0.147,-0.512,0.0
11.929,0.138,-0.547,0.0
17.238,0.199,-0.321,0.0
15.824,0.184,-0.387,0.0
14.486,0.17,-0.439,0.0
13.321,0.157,-0.483,0.0
12.436,0.148,-0.524,0.0
11.722,0.14,-0.562,0.0
16.715,0.2,-0.346,0.0
15.274,0.184,-0.405,0.0
13.998,0.169,-0.453,0.0
12.987,0.158,-0.498,0.0
12.276,0.15,-0.542,0.0
11.421,0.141,-0.571,0.0
16.244,0.2,-0.37,0.0
14.806,0.183,-0.423,0.0
13.676,0.17,-0.471,0.0
12.751,0.16,-0.515,0.0
11.929,0.15,-0.551,0.0
11.21,0.142,-0.584,0.0
15.762,0.199,-0.391,0.0
14.367,0.182,-0.44,0.0
13.301,0.17,-0.485,0.0
12.439,0.159,-0.528,0.0
11.627,0.15,-0.561,0.0
10.938,0.142,-0.592,0.0
15.221,0.196,-0.409,0.0
13.91,0.18,-0.455,0.0
12.947,0.169,-0.499,0.0
12.203,0.16,-0.543,0.0
11.386,0.15,-0.573,0.0
10.728,0.142,-0.603,0.0
14.749,0.194,-0.426,0.0
13.602,0.179,-0.472,0.0
12.652,0.168,-0.513,0.0
11.862,0.158,-0.552,0.0
11.165,0.149,-0.585,0.0
10.545,0.141,-0.614,0.0
14.317,0.191,-0.443,0.0
13.246,0.177,-0.487,0.0
12.363,0.166,-0.527,0.0
11.598,0.156,-0.563,0.0
10.927,0.148,-0.594,0.0
10.328,0.14,-0.622,0.0
13.918,0.188,-0.459,0.0
12.931,0.175,-0.502,0.0
12.061,0.164,-0.538,0.0
11.323,0.154,-0.573,0.0
10.678,0.146,-0.603,0.0
10.054,0.138,-0.626,0.0
13.535,0.184,-0.473,0.0
12.682,0.173,-0.518,0.0
11.838,0.162,-0.552,0.0
11.081,0.152,-0.583,0.0
10.486,0.144,-0.613,0.0
