X,Y,Z,Reflectivity
80.824,5.13,4.581,18.0
80.829,5.152,4.137,33.0
0.0,0.0,0.0,0.0
0.0,0.0,0.0,0.0
47.54,3.065,1.645,5.0
80.839,5.254,5.063,32.0
79.972,5.217,4.568,23.0
80.975,5.302,4.179,14.0
0.0,0.0,0.0,0.0
0.0,0.0,0.0,0.0
47.609,3.154,1.667,4.0
80.523,5.374,5.076,31.0
79.091,5.298,4.549,15.0
78.773,5.296,4.097,17.0
80.67,5.444,3.743,4.0
0.0,0.0,0.0,0.0
47.709,3.243,1.688,3.0
78.166,5.355,4.956,14.0
77.71,5.343,4.498,30.0
80.001,5.519,4.188,19.0
80.958,5.605,3.784,8.0
0.0,0.0,0.0,0.0
47.778,3.332,1.706,3.0
78.171,5.491,4.982,17.0
77.697,5.477,4.522,34.0
77.739,5.499,4.095,12.0
80.865,5.74,3.805,22.0
0.0,0.0,0.0,0.0
47.896,3.423,1.724,1.0
60.546,4.359,3.876,14.0
61.656,4.453,3.605,15.0
77.798,5.638,4.119,25.0
81.214,5.906,3.842,14.0
0.0,0.0,0.0,0.0
48.165,3.526,1.746,1.0
60.633,4.47,3.897,32.0
61.516,4.549,3.612,22.0
77.254,5.731,4.107,13.0
81.272,6.049,3.863,31.0
81.682,6.099,3.43,8.0
48.296,3.617,1.76,1.0
60.967,4.599,3.93,36.0
60.97,4.612,3.591,35.0
77.261,5.863,4.122,26.0
81.5,6.204,3.888,28.0
81.706,6.239,3.445,28.0
48.659,3.727,1.782,3.0
60.157,4.64,3.888,23.0
60.653,4.692,3.582,14.0
62.444,4.845,3.34,14.0
81.679,6.355,3.908,29.0
81.802,6.385,3.46,27.0
48.911,3.829,1.797,9.0
60.474,4.766,3.916,36.0
0.0,0.0,0.0,0.0
62.497,4.952,3.35,23.0
81.568,6.483,3.911,17.0
82.014,6.536,3.476,19.0
81.169,6.488,2.989,11.0
59.733,4.808,3.872,31.0
61.846,4.99,3.665,15.0
62.171,5.03,3.337,24.0
62.456,5.067,2.998,7.0
62.847,5.114,2.667,17.0
81.13,6.62,2.992,22.0
59.426,4.881,3.855,14.0
52.067,4.288,3.087,14.0
52.081,4.3,2.797,16.0
52.137,4.316,2.503,16.0
52.203,4.334,2.216,7.0
52.217,4.347,1.926,15.0
51.94,4.352,3.369,42.0
51.975,4.366,3.081,40.0
52.026,4.382,2.793,49.0
52.048,4.395,2.498,48.0
52.109,4.411,2.211,43.0
52.13,4.425,1.921,46.0
51.914,4.435,3.365,55.0
51.966,4.451,3.078,50.0
52.023,4.465,2.79,50.0
52.046,4.478,2.495,55.0
52.071,4.492,2.205,63.0
52.088,4.505,1.915,61.0
51.936,4.521,3.363,40.0
52.02,4.539,3.077,35.0
52.074,4.554,2.788,23.0
52.096,4.566,2.493,25.0
52.104,4.578,2.202,43.0
52.091,4.589,1.91,43.0
52.019,4.611,3.362,15.0
60.125,5.341,3.549,33.0
61.065,5.437,3.261,21.0
61.613,5.498,2.939,24.0
61.725,5.521,2.599,29.0
52.168,4.677,1.905,8.0
59.157,5.337,3.814,34.0
60.038,5.427,3.534,26.0
60.057,5.441,3.198,22.0
61.098,5.547,2.904,23.0
60.638,5.518,2.542,34.0
61.528,5.611,2.235,23.0
59.118,5.424,3.8,34.0
58.522,5.381,3.432,23.0
59.956,5.524,3.179,32.0
60.634,5.598,2.869,28.0
60.532,5.6,2.524,27.0
61.024,5.658,2.203,23.0
59.396,5.54,3.804,32.0
58.313,5.45,3.407,32.0
59.667,5.587,3.15,26.0
60.668,5.692,2.855,28.0
60.784,5.715,2.519,34.0
61.461,5.791,2.202,17.0
59.266,5.617,3.78,33.0
58.048,5.511,3.375,25.0
59.702,5.679,3.135,34.0
60.493,5.765,2.83,33.0
60.434,5.771,2.487,21.0
61.203,5.856,2.175,23.0
58.691,5.648,3.725,28.0
58.367,5.627,3.376,32.0
59.04,5.702,3.081,28.0
61.001,5.902,2.834,17.0
59.652,5.783,2.435,33.0
60.831,5.909,2.141,31.0
58.36,5.701,3.684,33.0
58.247,5.7,3.348,31.0
58.939,5.777,3.055,33.0
61.015,5.992,2.812,20.0
59.412,5.845,2.403,27.0
60.33,5.946,2.101,6.0
58.148,5.762,3.648,27.0
58.47,5.804,3.338,33.0
58.883,5.855,3.029,33.0
61.414,6.117,2.807,31.0
58.964,5.883,2.362,27.0
60.368,6.035,2.078,19.0
58.243,5.853,3.63,31.0
58.056,5.843,3.29,23.0
58.835,5.931,3.002,33.0
59.602,6.018,2.698,16.0
59.024,5.97,2.339,29.0
59.625,6.041,2.026,23.0
58.229,5.931,3.603,25.0
58.142,5.932,3.269,32.0
58.735,6.002,2.97,32.0
59.528,6.092,2.667,20.0
59.066,6.054,2.312,28.0
59.798,6.139,2.004,34.0
57.8,5.965,3.548,30.0
58.265,6.022,3.247,31.0
58.706,6.076,2.939,31.0
59.201,6.137,2.622,26.0
58.98,6.123,2.279,26.0
59.191,6.155,1.953,28.0
57.814,6.042,3.52,32.0
58.297,6.101,3.218,32.0
58.671,6.149,2.906,29.0
59.519,6.246,2.605,34.0
59.145,6.217,2.254,25.0
59.377,6.251,1.926,24.0
57.78,6.113,3.485,32.0
58.114,6.156,3.176,32.0
58.781,6.235,2.878,28.0
59.905,6.363,2.588,29.0
59.299,6.308,2.226,32.0
59.301,6.317,1.89,26.0
57.856,6.193,3.456,26.0
58.325,6.25,3.153,32.0
58.434,6.27,2.827,27.0
58.575,6.293,2.495,32.0
59.224,6.372,2.187,31.0
59.095,6.367,1.848,23.0
57.917,6.269,3.424,24.0
58.446,6.333,3.124,33.0
58.389,6.335,2.788,28.0
58.611,6.366,2.46,33.0
59.123,6.431,2.146,26.0
59.186,6.446,1.813,24.0
57.871,6.331,3.384,30.0
58.363,6.393,3.081,32.0
58.424,6.406,2.752,28.0
59.016,6.479,2.438,31.0
59.086,6.495,2.106,27.0
59.043,6.498,1.77,9.0
57.721,6.381,3.336,28.0
58.258,6.447,3.036,32.0
58.341,6.463,2.708,29.0
59.202,6.566,2.406,31.0
59.136,6.567,2.066,16.0
59.285,6.591,1.735,17.0
57.559,6.426,3.287,32.0
58.082,6.491,2.985,32.0
58.467,6.541,2.672,30.0
59.341,6.646,2.369,26.0
59.44,6.665,2.034,26.0
0.0,0.0,0.0,0.0
57.772,6.512,3.256,33.0
58.385,6.587,2.958,33.0
58.495,6.606,2.63,32.0
59.446,6.72,2.329,34.0
59.467,6.73,1.991,28.0
60.538,6.859,1.683,35.0
57.728,6.567,3.21,27.0
58.144,6.62,2.901,30.0
58.478,6.664,2.585,32.0
59.629,6.802,2.289,21.0
59.355,6.777,1.941,17.0
46.446,5.309,1.255,24.0
46.504,5.336,2.549,14.0
46.536,5.344,2.285,8.0
58.764,6.755,2.55,20.0
59.188,6.81,2.225,8.0
46.447,5.349,1.481,38.0
46.396,5.348,1.216,32.0
46.436,5.373,2.507,40.0
46.461,5.38,2.243,35.0
46.438,5.382,1.977,42.0
46.413,5.384,1.707,29.0
46.388,5.385,1.442,34.0
46.365,5.388,1.176,23.0
46.398,5.411,2.466,45.0
46.424,5.418,2.202,49.0
46.405,5.42,1.936,43.0
46.368,5.42,1.665,39.0
46.364,5.425,1.401,36.0
46.338,5.426,1.136,24.0
46.402,5.453,2.426,52.0
46.399,5.456,2.161,48.0
46.377,5.457,1.895,41.0
46.352,5.459,1.625,44.0
46.336,5.461,1.359,36.0
46.316,5.464,1.094,25.0
46.391,5.491,2.384,59.0
46.391,5.494,2.119,49.0
46.352,5.493,1.852,33.0
46.353,5.497,1.582,43.0
46.337,5.499,1.317,32.0
46.282,5.497,1.052,13.0
46.41,5.53,2.343,54.0
46.381,5.53,2.075,47.0
46.365,5.531,1.81,31.0
46.358,5.534,1.54,48.0
46.363,5.539,1.275,31.0
46.158,5.518,1.006,9.0
46.411,5.565,2.3,37.0
46.396,5.567,2.033,33.0
46.377,5.567,1.767,36.0
46.357,5.568,1.497,27.0
46.372,5.574,1.232,20.0
45.911,5.522,0.957,11.0
46.431,5.601,2.256,13.0
46.43,5.604,1.99,23.0
46.392,5.602,1.723,21.0
46.395,5.605,1.453,13.0
46.408,5.61,1.188,13.0
45.724,5.532,0.909,12.0
54.226,6.578,2.582,10.0
46.464,5.639,1.946,11.0
54.532,6.621,1.972,11.0
58.816,7.145,1.784,17.0
46.442,5.645,1.143,13.0
45.582,5.544,0.862,13.0
58.957,7.189,2.749,9.0
58.589,7.147,2.395,9.0
54.674,6.672,1.922,24.0
58.805,7.18,1.725,21.0
46.469,5.677,1.097,9.0
45.082,5.51,0.806,4.0
55.524,6.803,2.532,16.0
58.587,7.181,2.336,19.0
54.661,6.702,1.867,19.0
58.847,7.219,1.666,19.0
46.349,5.688,1.047,5.0
44.078,5.413,0.743,3.0
53.608,6.598,2.389,7.0
53.895,6.635,2.093,17.0
54.583,6.722,1.807,15.0
58.59,7.218,1.598,33.0
46.095,5.681,0.993,7.0
43.961,5.421,0.695,5.0
53.6,6.623,2.333,21.0
54.036,6.679,2.042,28.0
54.605,6.751,1.751,15.0
0.0,0.0,0.0,0.0
45.828,5.67,0.94,11.0
43.942,5.439,0.649,5.0
53.629,6.651,2.277,26.0
54.262,6.731,1.994,28.0
54.387,6.748,1.686,9.0
55.871,6.935,1.406,4.0
45.548,5.655,0.885,10.0
43.844,5.446,0.602,3.0
53.71,6.683,2.224,23.0
54.292,6.757,1.937,28.0
54.608,6.797,1.634,9.0
52.826,6.577,1.273,3.0
45.35,5.648,0.833,4.0
42.169,5.254,0.533,2.0
53.606,6.69,2.161,26.0
54.196,6.764,1.874,28.0
54.748,6.834,1.579,17.0
46.54,5.811,1.071,2.0
44.013,5.497,0.76,3.0
42.0,5.247,0.485,0.0
53.595,6.706,2.102,25.0
54.248,6.788,1.816,27.0
58.45,7.315,1.621,10.0
46.281,5.792,1.014,5.0
43.898,5.496,0.71,7.0
39.567,4.955,0.413,0.0
53.65,6.727,2.044,28.0
54.3,6.809,1.757,28.0
0.0,0.0,0.0,0.0
45.876,5.754,0.954,8.0
43.866,5.503,0.66,6.0
39.321,4.933,0.367,0.0
53.862,6.766,1.993,28.0
54.386,6.832,1.7,20.0
55.658,6.992,1.42,4.0
45.639,5.734,0.898,9.0
43.816,5.505,0.61,3.0
35.825,4.502,0.294,0.0
54.079,6.803,1.94,28.0
54.497,6.855,1.642,26.0
52.975,6.664,1.292,2.0
45.358,5.706,0.842,3.0
42.058,5.291,0.539,1.0
0.0,0.0,0.0,0.0
54.085,6.811,1.879,29.0
54.551,6.869,1.582,22.0
51.576,6.494,1.199,0.0
43.838,5.52,0.764,4.0
41.773,5.26,0.489,0.0
32.729,4.121,0.195,1.0
54.199,6.83,1.821,29.0
54.602,6.88,1.522,7.0
46.348,5.839,1.025,3.0
43.846,5.524,0.714,7.0
39.336,4.956,0.415,0.0
29.519,3.719,0.142,0.0
54.27,6.841,1.761,27.0
57.962,7.306,1.549,6.0
45.964,5.792,0.964,7.0
43.844,5.525,0.664,7.0
36.484,4.597,0.343,0.0
29.468,3.713,0.108,3.0
54.357,6.852,1.702,22.0
55.651,7.014,1.423,4.0
45.666,5.754,0.906,8.0
43.739,5.511,0.612,3.0
35.904,4.523,0.297,0.0
29.376,3.701,0.074,6.0
54.513,6.869,1.645,23.0
52.744,6.644,1.288,2.0
45.384,5.716,0.848,3.0
42.022,5.292,0.539,1.0
33.617,4.233,0.239,0.0
28.99,3.65,0.04,5.0
54.584,6.872,1.583,21.0
46.55,5.859,1.082,1.0
43.71,5.5,0.766,4.0
41.74,5.251,0.488,0.0
32.476,4.085,0.193,0.0
28.2,3.547,0.006,1.0
58.346,7.338,1.624,11.0
46.327,5.824,1.024,4.0
43.884,5.515,0.718,6.0
39.161,4.92,0.412,0.0
29.522,3.708,0.141,0.0
26.749,3.36,-0.024,0.0
0.0,0.0,0.0,0.0
45.889,5.76,0.961,7.0
43.877,5.505,0.668,6.0
0.0,0.0,0.0,0.0
29.429,3.691,0.107,4.0
26.048,3.266,-0.054,1.0
55.56,6.963,1.418,4.0
45.636,5.717,0.904,9.0
43.813,5.487,0.616,3.0
35.774,4.478,0.294,0.0
29.348,3.673,0.073,6.0
25.567,3.199,-0.082,0.0
52.886,6.613,1.29,2.0
45.303,5.662,0.845,3.0
42.07,5.256,0.543,1.0
33.516,4.185,0.237,0.0
28.817,3.598,0.039,2.0
24.026,2.999,-0.104,1.0
46.396,5.786,1.079,2.0
44.039,5.49,0.771,3.0
41.976,5.23,0.495,1.0
32.592,4.059,0.194,0.0
28.089,3.497,0.006,1.0
23.773,2.959,-0.13,3.0
46.175,5.741,1.021,6.0
43.921,5.458,0.72,5.0
39.629,4.922,0.422,0.0
29.408,3.651,0.141,0.0
26.392,3.275,-0.023,0.0
23.298,2.89,-0.154,1.0
45.858,5.682,0.962,10.0
43.934,5.441,0.67,5.0
36.346,4.499,0.345,0.0
29.436,3.641,0.108,1.0
26.022,3.218,-0.052,1.0
22.618,2.796,-0.175,0.0
45.593,5.628,0.905,13.0
43.869,5.412,0.619,2.0
34.758,4.285,0.291,0.0
29.269,3.606,0.075,1.0
25.438,3.133,-0.08,1.0
21.871,2.692,-0.194,0.0
45.396,5.58,0.85,7.0
42.156,5.179,0.548,0.0
33.206,4.076,0.241,0.0
28.692,3.52,0.041,1.0
24.151,2.961,-0.103,2.0
21.316,2.612,-0.213,0.0
44.076,5.394,0.776,3.0
0.0,0.0,0.0,0.0
32.437,3.964,0.2,1.0
27.49,3.357,0.009,0.0
23.918,2.919,-0.128,4.0
20.836,2.542,-0.231,0.0
44.058,5.365,0.727,5.0
0.0,0.0,0.0,0.0
31.944,3.884,0.161,0.0
26.411,3.209,-0.019,1.0
23.4,2.841,-0.151,1.0
20.586,2.498,-0.25,0.0
44.042,5.334,0.679,5.0
36.411,4.407,0.353,0.0
29.305,3.544,0.117,0.0
25.997,3.141,-0.047,1.0
22.734,2.745,-0.171,0.0
19.993,2.413,-0.265,0.0
44.03,5.303,0.632,2.0
36.308,4.369,0.314,0.0
29.33,3.526,0.085,1.0
25.482,3.061,-0.073,1.0
21.995,2.64,-0.189,0.0
19.504,2.34,-0.279,0.0
42.582,5.097,0.566,0.0
0.0,0.0,0.0,0.0
29.088,3.476,0.054,1.0
24.253,2.895,-0.095,1.0
21.408,2.554,-0.206,0.0
19.07,2.273,-0.293,0.0
40.863,4.859,0.5,0.0
32.751,3.891,0.213,1.0
27.718,3.29,0.022,0.0
23.89,2.833,-0.119,1.0
20.912,2.478,-0.224,0.0
18.707,2.215,-0.307,0.0
40.667,4.803,0.455,0.0
32.079,3.785,0.176,1.0
26.808,3.16,-0.005,0.0
23.5,2.767,-0.141,1.0
20.538,2.416,-0.241,0.0
18.334,2.155,-0.319,0.0
36.887,4.324,0.375,0.0
31.636,3.705,0.141,0.0
26.219,3.067,-0.032,1.0
23.011,2.689,-0.162,0.0
20.043,2.34,-0.255,0.0
17.952,2.094,-0.331,0.0
0.0,0.0,0.0,0.0
29.326,3.407,0.101,2.0
25.87,3.002,-0.057,1.0
22.154,2.568,-0.178,0.0
19.627,2.273,-0.269,0.0
17.587,2.035,-0.342,0.0
33.822,3.902,0.276,0.0
29.275,3.373,0.072,3.0
24.538,2.824,-0.079,0.0
21.67,2.491,-0.195,0.0
19.208,2.206,-0.283,0.0
17.315,1.987,-0.353,0.0
33.139,3.79,0.239,1.0
27.981,3.196,0.042,1.0
24.15,2.755,-0.101,1.0
21.288,2.426,-0.212,0.0
18.849,2.146,-0.295,0.0
17.113,1.946,-0.365,0.0
32.19,3.648,0.201,1.0
27.532,3.117,0.015,1.0
23.838,2.695,-0.122,1.0
21.099,2.383,-0.23,0.0
18.5,2.087,-0.307,0.0
16.842,1.897,-0.375,0.0
29.438,3.305,0.156,1.0
26.403,2.96,-0.009,1.0
23.561,2.638,-0.142,0.0
20.574,2.301,-0.243,0.0
18.216,2.035,-0.319,0.0
16.573,1.849,-0.385,0.0
29.4,3.268,0.129,5.0
26.12,2.899,-0.033,1.0
22.591,2.504,-0.157,0.0
20.107,2.226,-0.256,0.0
17.807,1.969,-0.328,0.0
16.3,1.8,-0.393,0.0
29.286,3.222,0.103,5.0
25.835,2.838,-0.055,1.0
21.933,2.406,-0.171,0.0
19.671,2.155,-0.267,0.0
17.593,1.925,-0.339,0.0
16.07,1.756,-0.401,0.0
29.202,3.178,0.078,3.0
24.515,2.664,-0.073,0.0
21.598,2.343,-0.187,1.0
19.305,2.092,-0.279,0.0
17.318,1.874,-0.348,0.0
15.894,1.717,-0.41,0.0
28.875,3.107,0.053,1.0
24.325,2.613,-0.093,1.0
21.479,2.304,-0.204,3.0
19.009,2.036,-0.29,0.0
17.136,1.833,-0.359,0.0
15.704,1.677,-0.418,0.0
27.318,2.905,0.027,0.0
24.122,2.561,-0.112,0.0
21.322,2.26,-0.22,2.0
18.576,1.966,-0.298,0.0
16.908,1.787,-0.368,0.0
15.522,1.638,-0.425,0.0
26.528,2.787,0.006,0.0
23.648,2.48,-0.128,0.0
21.05,2.204,-0.233,0.0
18.286,1.911,-0.308,0.0
16.767,1.75,-0.377,0.0
15.358,1.6,-0.433,0.0
26.139,2.711,-0.013,1.0
23.157,2.398,-0.142,0.0
20.666,2.136,-0.245,0.0
18.037,1.861,-0.317,0.0
16.566,1.707,-0.385,0.0
15.149,1.558,-0.438,0.0
25.921,2.653,-0.032,1.0
22.332,2.282,-0.154,0.0
20.239,2.064,-0.254,0.0
17.793,1.811,-0.326,0.0
16.277,1.654,-0.39,0.0
14.973,1.519,-0.444,0.0
25.569,2.582,-0.05,1.0
22.135,2.231,-0.168,2.0
19.753,1.987,-0.262,0.0
17.561,1.763,-0.334,0.0
16.087,1.612,-0.397,0.0
14.821,1.482,-0.449,0.0
25.071,2.495,-0.066,0.0
21.919,2.177,-0.181,4.0
19.437,1.927,-0.271,0.0
17.405,1.722,-0.342,0.0
15.953,1.575,-0.404,0.0
14.686,1.447,-0.455,0.0
24.595,2.412,-0.081,0.0
21.658,2.119,-0.193,5.0
19.212,1.876,-0.28,0.0
17.191,1.676,-0.349,0.0
15.815,1.538,-0.41,0.0
14.578,1.415,-0.461,0.0
24.323,2.349,-0.095,0.0
21.492,2.071,-0.205,4.0
18.928,1.82,-0.287,0.0
17.04,1.635,-0.356,0.0
15.667,1.5,-0.416,0.0
14.346,1.371,-0.462,0.0
24.093,2.29,-0.108,0.0
21.396,2.029,-0.216,4.0
18.691,1.769,-0.294,0.0
16.863,1.592,-0.362,0.0
15.574,1.467,-0.422,0.0
14.239,1.339,-0.466,0.0
23.704,2.217,-0.119,0.0
21.207,1.979,-0.226,1.0
18.451,1.717,-0.301,0.0
16.782,1.559,-0.369,0.0
15.375,1.425,-0.425,0.0
14.159,1.309,-0.471,0.0
23.077,2.122,-0.128,0.0
20.919,1.918,-0.234,0.0
18.313,1.675,-0.308,0.0
16.547,1.51,-0.373,0.0
15.257,1.389,-0.429,0.0
14.08,1.279,-0.476,0.0
22.903,2.069,-0.139,0.0
20.628,1.859,-0.241,0.0
18.183,1.634,-0.314,0.0
16.408,1.471,-0.377,0.0
15.106,1.351,-0.432,0.0
14.004,1.25,-0.48,0.0
22.78,2.02,-0.148,1.0
20.077,1.776,-0.243,0.0
17.972,1.586,-0.319,0.0
16.282,1.433,-0.382,0.0
14.988,1.316,-0.436,0.0
13.867,1.214,-0.481,0.0
22.656,1.972,-0.157,2.0
20.037,1.739,-0.251,0.0
17.765,1.538,-0.322,0.0
16.21,1.4,-0.387,0.0
14.841,1.278,-0.437,0.0
13.851,1.19,-0.486,0.0
22.577,1.927,-0.166,2.0
19.827,1.687,-0.257,0.0
17.696,1.502,-0.328,0.0
16.061,1.359,-0.389,0.0
14.815,1.25,-0.442,0.0
13.665,1.15,-0.484,0.0
22.442,1.877,-0.173,1.0
19.53,1.629,-0.259,0.0
17.57,1.461,-0.332,0.0
16.012,1.328,-0.393,0.0
14.742,1.219,-0.445,0.0
13.618,1.123,-0.487,0.0
22.296,1.826,-0.179,1.0
19.479,1.591,-0.265,0.0
17.497,1.424,-0.336,0.0
15.924,1.293,-0.396,0.0
14.669,1.187,-0.447,0.0
13.644,1.101,-0.492,0.0
22.052,1.767,-0.183,0.0
19.407,1.551,-0.27,0.0
17.379,1.384,-0.338,0.0
15.872,1.26,-0.399,0.0
14.689,1.163,-0.452,0.0
13.586,1.072,-0.493,0.0
21.945,1.72,-0.188,0.0
19.188,1.499,-0.271,0.0
17.306,1.348,-0.341,0.0
15.801,1.226,-0.401,0.0
14.574,1.127,-0.451,0.0
13.499,1.041,-0.493,0.0
21.713,1.663,-0.191,0.0
19.155,1.462,-0.275,0.0
17.164,1.306,-0.342,0.0
15.767,1.195,-0.403,0.0
14.557,1.1,-0.454,0.0
13.534,1.019,-0.497,0.0
21.674,1.621,-0.194,0.0
19.157,1.427,-0.278,0.0
17.128,1.271,-0.344,0.0
15.784,1.168,-0.406,0.0
14.484,1.068,-0.454,0.0
13.495,0.991,-0.498,0.0
21.621,1.576,-0.197,0.0
19.047,1.384,-0.279,0.0
17.12,1.239,-0.346,0.0
15.721,1.134,-0.407,0.0
14.508,1.043,-0.456,0.0
13.453,0.963,-0.498,0.0
21.649,1.539,-0.199,0.0
18.945,1.341,-0.28,0.0
17.054,1.203,-0.346,0.0
15.699,1.103,-0.407,0.0
14.454,1.012,-0.455,0.0
13.445,0.938,-0.498,0.0
21.62,1.496,-0.201,0.0
18.933,1.305,-0.281,0.0
17.076,1.172,-0.348,0.0
15.722,1.075,-0.409,0.0
14.446,0.984,-0.456,0.0
13.46,0.913,-0.499,0.0
21.594,1.454,-0.201,0.0
18.962,1.271,-0.281,0.0
17.015,1.136,-0.347,0.0
15.666,1.042,-0.408,0.0
14.434,0.956,-0.455,0.0
13.389,0.883,-0.497,0.0
21.504,1.407,-0.2,1.0
18.92,1.232,-0.281,0.0
16.989,1.102,-0.346,0.0
15.675,1.012,-0.407,0.0
14.42,0.927,-0.455,0.0
13.465,0.862,-0.499,0.0
21.602,1.372,-0.2,0.0
18.946,1.198,-0.28,0.0
17.01,1.071,-0.345,0.0
15.67,0.982,-0.406,0.0
14.394,0.898,-0.453,0.0
13.427,0.834,-0.496,0.0
21.534,1.326,-0.198,2.0
18.946,1.161,-0.278,0.0
16.999,1.037,-0.343,0.0
15.726,0.955,-0.406,0.0
14.462,0.874,-0.453,0.0
13.467,0.81,-0.496,0.0
21.613,1.289,-0.196,2.0
19.112,1.134,-0.278,0.0
17.032,1.006,-0.342,0.0
15.774,0.927,-0.405,0.0
14.539,0.851,-0.453,0.0
13.472,0.784,-0.494,0.0
21.751,1.255,-0.193,3.0
19.191,1.102,-0.276,0.0
17.087,0.976,-0.34,0.0
15.8,0.898,-0.403,0.0
14.528,0.821,-0.45,0.0
13.494,0.759,-0.492,0.0
21.867,1.219,-0.19,3.0
19.056,1.057,-0.27,0.0
17.117,0.944,-0.337,0.0
15.817,0.868,-0.4,0.0
14.56,0.795,-0.448,0.0
13.557,0.736,-0.491,0.0
21.906,1.178,-0.185,2.0
19.213,1.028,-0.268,0.0
17.219,0.916,-0.334,0.0
15.897,0.841,-0.397,0.0
14.622,0.769,-0.446,0.0
13.598,0.711,-0.489,0.0
22.077,1.144,-0.18,1.0
19.431,1.001,-0.265,0.0
17.26,0.884,-0.33,0.0
15.919,0.81,-0.393,0.0
14.66,0.742,-0.442,0.0
13.695,0.689,-0.488,0.0
22.196,1.106,-0.174,1.0
19.651,0.973,-0.262,0.0
17.405,0.857,-0.327,0.0
15.986,0.782,-0.389,0.0
14.654,0.713,-0.437,0.0
13.672,0.661,-0.483,0.0
22.599,1.081,-0.169,1.0
19.772,0.94,-0.256,0.0
17.627,0.833,-0.325,0.0
16.021,0.752,-0.384,0.0
14.787,0.69,-0.435,0.0
13.785,0.639,-0.481,0.0
22.863,1.049,-0.162,1.0
19.889,0.906,-0.25,0.0
17.758,0.804,-0.32,0.0
16.137,0.726,-0.38,0.0
14.763,0.659,-0.428,0.0
13.87,0.615,-0.478,0.0
23.086,1.013,-0.154,1.0
20.008,0.872,-0.242,0.0
17.831,0.772,-0.313,0.0
16.302,0.701,-0.377,0.0
14.84,0.633,-0.424,0.0
13.899,0.589,-0.473,0.0
23.268,0.975,-0.144,1.0
20.364,0.847,-0.237,0.0
17.972,0.742,-0.307,0.0
16.482,0.676,-0.373,0.0
15.169,0.617,-0.425,0.0
13.988,0.565,-0.468,0.0
23.464,0.937,-0.133,0.0
20.832,0.825,-0.231,0.0
18.145,0.713,-0.3,0.0
16.591,0.647,-0.366,0.0
15.29,0.591,-0.42,0.0
14.183,0.544,-0.467,0.0
23.863,0.905,-0.122,1.0
21.027,0.791,-0.222,1.0
18.29,0.683,-0.292,0.0
16.717,0.619,-0.359,0.0
15.455,0.567,-0.416,0.0
14.171,0.516,-0.458,0.0
24.324,0.875,-0.11,1.0
21.524,0.767,-0.214,1.0
18.555,0.656,-0.285,0.0
16.853,0.59,-0.352,0.0
15.601,0.541,-0.41,0.0
14.299,0.492,-0.453,0.0
24.47,0.831,-0.095,1.0
21.7,0.731,-0.202,1.0
18.864,0.629,-0.277,0.0
16.985,0.561,-0.343,0.0
15.74,0.515,-0.403,0.0
14.477,0.469,-0.449,0.0
24.93,0.798,-0.08,0.0
22.029,0.698,-0.19,0.0
19.338,0.607,-0.271,0.0
17.143,0.533,-0.335,0.0
15.898,0.489,-0.396,0.0
14.573,0.444,-0.442,0.0
25.236,0.759,-0.064,0.0
22.364,0.666,-0.177,0.0
19.67,0.579,-0.262,0.0
17.317,0.504,-0.326,0.0
16.024,0.462,-0.388,0.0
14.731,0.42,-0.436,0.0
25.601,0.719,-0.046,0.0
22.905,0.637,-0.164,0.0
19.962,0.548,-0.251,0.0
17.686,0.48,-0.319,0.0
16.254,0.437,-0.381,0.0
14.9,0.396,-0.429,0.0
26.228,0.686,-0.026,0.0
23.4,0.605,-0.15,0.0
20.339,0.52,-0.239,0.0
17.956,0.453,-0.31,0.0
16.434,0.409,-0.372,0.0
15.051,0.37,-0.421,0.0
26.562,0.643,-0.005,0.0
23.735,0.568,-0.132,0.0
20.812,0.491,-0.228,0.0
18.275,0.425,-0.3,0.0
16.623,0.382,-0.362,0.0
15.403,0.349,-0.418,0.0
27.056,0.603,0.017,0.0
24.118,0.53,-0.113,0.0
21.567,0.467,-0.217,0.0
18.573,0.397,-0.288,0.0
16.807,0.354,-0.351,0.0
15.607,0.324,-0.41,0.0
27.487,0.56,0.042,0.0
24.788,0.497,-0.094,0.0
21.922,0.433,-0.201,0.0
18.857,0.367,-0.276,0.0
17.074,0.327,-0.341,0.0
15.777,0.297,-0.4,0.0
28.287,0.522,0.069,0.0
25.209,0.458,-0.072,0.0
22.196,0.396,-0.182,0.0
19.501,0.342,-0.267,0.0
17.304,0.298,-0.329,0.0
15.996,0.271,-0.39,0.0
28.786,0.478,0.098,1.0
25.708,0.418,-0.049,0.0
22.985,0.367,-0.167,0.0
19.889,0.311,-0.252,0.0
17.632,0.27,-0.318,0.0
16.281,0.245,-0.381,0.0
28.891,0.425,0.127,5.0
26.336,0.379,-0.023,0.0
23.479,0.33,-0.146,0.0
20.447,0.282,-0.239,0.0
18.072,0.243,-0.307,0.0
16.504,0.217,-0.369,0.0
28.919,0.371,0.157,2.0
26.884,0.336,0.003,0.0
24.007,0.293,-0.124,0.0
21.326,0.254,-0.226,0.0
18.482,0.214,-0.295,0.0
16.774,0.189,-0.357,0.0
29.079,0.319,0.189,0.0
27.406,0.292,0.032,0.0
24.663,0.255,-0.101,0.0
21.859,0.22,-0.208,3.0
18.831,0.184,-0.28,0.0
16.963,0.16,-0.342,0.0
32.54,0.297,0.248,0.0
28.705,0.253,0.066,2.0
25.254,0.215,-0.075,0.0
22.307,0.183,-0.187,3.0
19.202,0.152,-0.263,0.0
17.356,0.132,-0.33,0.0
32.776,0.24,0.287,0.0
28.753,0.201,0.099,1.0
25.839,0.173,-0.047,0.0
22.653,0.145,-0.164,0.0
20.006,0.122,-0.251,0.0
17.764,0.103,-0.317,0.0
33.971,0.187,0.337,0.0
28.77,0.15,0.133,0.0
26.601,0.131,-0.017,0.0
23.368,0.107,-0.141,0.0
20.903,0.09,-0.237,1.0
18.253,0.073,-0.304,0.0
35.442,0.132,0.394,0.0
30.223,0.103,0.176,0.0
27.144,0.085,0.015,0.0
24.145,0.068,-0.116,0.0
21.328,0.054,-0.216,4.0
18.628,0.041,-0.287,0.0
36.56,0.071,0.452,0.0
30.819,0.051,0.218,0.0
28.29,0.039,0.05,1.0
24.961,0.027,-0.089,0.0
21.925,0.017,-0.194,0.0
19.292,0.01,-0.273,0.0
37.483,0.008,0.511,0.0
32.972,-0.001,0.275,0.0
28.721,-0.01,0.088,1.0
25.638,-0.016,-0.059,0.0
22.901,-0.021,-0.173,0.0
19.912,-0.023,-0.256,0.0
40.563,-0.06,0.605,0.0
33.342,-0.059,0.321,0.0
28.826,-0.059,0.126,6.0
26.261,-0.061,-0.026,0.0
23.707,-0.062,-0.148,1.0
20.587,-0.059,-0.238,0.0
40.843,-0.129,0.663,0.0
34.053,-0.118,0.374,0.0
29.08,-0.108,0.166,1.0
27.26,-0.109,0.009,0.0
24.175,-0.104,-0.119,0.0
21.669,-0.099,-0.221,2.0
43.964,-0.212,0.773,0.0
36.517,-0.187,0.45,0.0
31.472,-0.17,0.222,1.0
28.437,-0.161,0.048,1.0
24.878,-0.148,-0.088,0.0
22.144,-0.138,-0.195,1.0
0.0,0.0,0.0,0.0
0.0,0.0,0.0,0.0
32.486,-0.228,0.274,1.0
28.73,-0.21,0.089,6.0
25.757,-0.195,-0.055,0.0
22.815,-0.179,-0.168,0.0
0.0,0.0,0.0,0.0
0.0,0.0,0.0,0.0
33.444,-0.289,0.33,0.0
28.802,-0.257,0.13,3.0
26.671,-0.245,-0.019,0.0
23.914,-0.226,-0.142,0.0
0.0,0.0,0.0,0.0
0.0,0.0,0.0,0.0
0.0,0.0,0.0,0.0
31.029,-0.326,0.185,0.0
27.31,-0.294,0.02,1.0
24.415,-0.269,-0.11,0.0
0.0,0.0,0.0,0.0
45.494,-0.524,0.82,0.0
36.899,-0.435,0.472,0.0
32.099,-0.386,0.239,1.0
28.414,-0.349,0.062,1.0
25.305,-0.318,-0.076,0.0
64.011,-0.82,1.586,0.0
0.0,0.0,0.0,0.0
0.0,0.0,0.0,0.0
33.503,-0.454,0.299,1.0
28.706,-0.397,0.106,1.0
26.043,-0.367,-0.039,0.0
0.0,0.0,0.0,0.0
0.0,0.0,0.0,0.0
0.0,0.0,0.0,0.0
34.226,-0.515,0.358,1.0
0.0,0.0,0.0,0.0
26.925,-0.418,0.0,0.0
0.0,0.0,0.0,0.0
0.0,0.0,0.0,0.0
0.0,0.0,0.0,0.0
36.402,-0.601,0.437,0.0
31.505,-0.528,0.213,0.0
28.0,-0.476,0.043,0.0
88.643,-1.527,2.602,1.0
0.0,0.0,0.0,0.0
0.0,0.0,0.0,0.0
37.808,-0.678,0.512,0.0
33.216,-0.603,0.276,2.0
28.679,-0.528,0.089,6.0
96.669,-1.801,2.989,2.0
0.0,0.0,0.0,0.0
0.0,0.0,0.0,0.0
41.623,-0.804,0.63,0.0
34.025,-0.666,0.338,1.0
28.775,-0.57,0.135,2.0
96.957,-1.941,3.153,11.0
0.0,0.0,0.0,0.0
0.0,0.0,0.0,0.0
0.0,0.0,0.0,0.0
35.194,-0.736,0.406,0.0
30.987,-0.655,0.196,0.0
128.578,-2.75,4.39,2.0
0.0,0.0,0.0,0.0
0.0,0.0,0.0,0.0
0.0,0.0,0.0,0.0
0.0,0.0,0.0,0.0
32.695,-0.735,0.26,0.0
128.327,-2.914,4.593,23.0
96.851,-2.221,2.961,1.0
0.0,0.0,0.0,0.0
0.0,0.0,0.0,0.0
0.0,0.0,0.0,0.0
33.424,-0.795,0.322,1.0
166.071,-3.986,6.22,15.0
96.731,-2.342,3.118,7.0
0.0,0.0,0.0,0.0
0.0,0.0,0.0,0.0
0.0,0.0,0.0,0.0
0.0,0.0,0.0,0.0
123.365,-3.116,4.827,32.0
92.466,-2.354,3.136,150.0
0.0,0.0,0.0,0.0
0.0,0.0,0.0,0.0
0.0,0.0,0.0,0.0
0.0,0.0,0.0,0.0
123.37,-3.265,5.034,32.0
92.387,-2.463,3.288,204.0
92.99,-2.498,2.826,1.0
0.0,0.0,0.0,0.0
0.0,0.0,0.0,0.0
0.0,0.0,0.0,0.0
123.524,-3.416,5.251,13.0
92.327,-2.57,3.444,35.0
92.457,-2.592,2.968,2.0
0.0,0.0,0.0,0.0
0.0,0.0,0.0,0.0
0.0,0.0,0.0,0.0
190.28,-5.481,8.418,8.0
92.335,-2.677,3.604,14.0
92.259,-2.692,3.122,55.0
0.0,0.0,0.0,0.0
0.0,0.0,0.0,0.0
0.0,0.0,0.0,0.0
190.095,-5.69,8.744,8.0
92.324,-2.779,3.766,10.0
92.232,-2.793,3.282,43.0
95.812,-2.918,2.901,1.0
0.0,0.0,0.0,0.0
0.0,0.0,0.0,0.0
190.055,-5.893,9.074,21.0
0.0,0.0,0.0,0.0
92.253,-2.891,3.444,150.0
92.647,-2.919,2.967,5.0
0.0,0.0,0.0,0.0
0.0,0.0,0.0,0.0
190.205,-6.096,9.417,15.0
0.0,0.0,0.0,0.0
92.236,-2.986,3.608,150.0
92.172,-2.998,3.116,33.0
0.0,0.0,0.0,0.0
0.0,0.0,0.0,0.0
190.396,-6.292,9.763,16.0
190.305,-6.318,8.767,18.0
92.232,-3.076,3.77,11.0
92.225,-3.09,3.28,150.0
93.018,-3.131,2.826,1.0
0.0,0.0,0.0,0.0
190.213,-6.471,10.093,21.0
190.556,-6.511,9.12,19.0
0.0,0.0,0.0,0.0
92.226,-3.177,3.446,167.0
92.352,-3.195,2.971,5.0
0.0,0.0,0.0,0.0
123.483,-4.315,6.772,7.0
190.677,-6.69,9.467,9.0
93.278,-3.284,4.145,6.0
92.192,-3.259,3.609,150.0
92.138,-3.27,3.13,39.0
0.0,0.0,0.0,0.0
99.256,-3.556,5.623,26.0
113.376,-4.077,5.832,19.0
113.491,-4.096,5.249,19.0
92.199,-3.339,3.776,15.0
92.181,-3.351,3.297,150.0
92.866,-3.388,2.84,1.0
99.016,-3.633,5.789,19.0
113.311,-4.172,6.037,29.0
113.413,-4.188,5.452,41.0
0.0,0.0,0.0,0.0
92.183,-3.427,3.465,60.0
92.153,-3.438,2.987,17.0
89.724,-3.364,5.41,17.0
99.35,-3.737,5.473,20.0
113.356,-4.277,5.655,24.0
113.463,-4.293,5.06,8.0
92.172,-3.498,3.632,32.0
92.116,-3.507,3.152,68.0
89.626,-3.429,5.566,22.0
98.585,-3.783,5.609,20.0
113.616,-4.372,5.873,8.0
0.0,0.0,0.0,0.0
92.241,-3.569,3.799,7.0
92.144,-3.574,3.318,49.0
89.236,-3.479,5.702,19.0
98.6,-3.854,5.786,12.0
89.804,-3.518,4.803,19.0
194.881,-7.656,9.391,7.0
0.0,0.0,0.0,0.0
92.189,-3.64,3.486,36.0
88.12,-3.496,5.792,21.0
89.539,-3.561,5.418,17.0
89.696,-3.576,4.962,29.0
113.433,-4.531,5.673,8.0
93.514,-3.744,4.19,1.0
92.215,-3.701,3.654,13.0
88.203,-3.557,5.957,24.0
97.505,-3.94,6.077,9.0
89.601,-3.628,5.118,15.0
89.833,-3.644,4.655,5.0
194.798,-7.92,9.084,13.0
92.443,-3.766,3.831,2.0
88.417,-3.619,6.132,16.0
97.374,-3.993,6.245,12.0
112.971,-4.642,6.658,8.0
113.607,-4.675,6.092,11.0
113.578,-4.683,5.501,10.0
93.169,-3.849,4.028,3.0
88.469,-3.671,6.296,26.0
96.992,-4.032,6.396,7.0
98.906,-4.117,6.007,15.0
89.641,-3.738,4.968,13.0
120.236,-5.022,6.04,15.0
120.257,-5.031,5.417,24.0
87.706,-3.687,6.402,18.0
95.11,-4.003,6.445,15.0
97.138,-4.094,6.076,15.0
97.866,-4.131,5.603,17.0
120.253,-5.082,6.259,19.0
120.232,-5.089,5.634,38.0
89.049,-3.787,6.662,18.0
95.182,-4.052,6.624,13.0
95.126,-4.054,6.123,25.0
97.634,-4.166,5.768,6.0
97.726,-4.175,5.264,11.0
120.231,-5.143,5.852,25.0
89.216,-3.834,6.838,14.0
87.676,-3.771,6.261,16.0
95.084,-4.094,6.293,15.0
97.559,-4.205,5.94,19.0
97.679,-4.214,5.438,17.0
120.254,-5.193,6.071,17.0
88.096,-3.821,6.911,20.0
0.0,0.0,0.0,0.0
91.152,-3.96,6.198,12.0
94.948,-4.129,5.952,5.0
97.679,-4.251,5.615,11.0
120.244,-5.236,6.285,11.0
88.527,-3.873,7.105,11.0
89.309,-3.909,6.701,14.0
91.128,-3.992,6.362,10.0
90.835,-3.981,5.859,17.0
97.671,-4.283,5.789,16.0
97.734,-4.288,5.285,11.0
91.009,-4.011,7.468,17.0
88.098,-3.884,6.769,17.0
90.975,-4.013,6.513,4.0
90.81,-4.007,6.017,17.0
97.8,-4.317,5.972,12.0
111.674,-4.932,6.237,10.0
90.556,-4.017,7.594,18.0
88.176,-3.913,6.932,23.0
89.356,-3.965,6.557,11.0
90.442,-4.014,6.155,18.0
90.594,-4.022,5.692,16.0
111.625,-4.957,6.431,6.0
87.44,-3.9,7.488,11.0
89.224,-3.98,7.172,9.0
88.265,-3.937,6.633,12.0
89.358,-3.986,6.238,15.0
90.722,-4.047,5.859,19.0
91.27,-4.072,5.419,7.0
87.283,-3.911,7.629,25.0
90.731,-4.065,7.454,15.0
88.142,-3.948,6.778,24.0
89.231,-3.996,6.385,21.0
90.587,-4.057,6.008,19.0
91.122,-4.079,5.566,14.0
87.297,-3.926,7.781,25.0
90.263,-4.057,7.57,11.0
88.276,-3.967,6.939,21.0
89.396,-4.016,6.55,13.0
89.697,-4.028,6.102,20.0
90.675,-4.071,5.695,22.0
87.503,-3.946,7.95,11.0
87.405,-3.939,7.482,15.0
89.141,-4.015,7.162,14.0
88.403,-3.98,6.631,15.0
89.212,-4.015,6.223,27.0
90.827,-4.085,5.861,22.0
85.019,-3.84,7.873,15.0
87.248,-3.939,7.619,27.0
0.0,0.0,0.0,0.0
88.152,-3.974,6.762,25.0
89.196,-4.018,6.375,23.0
90.614,-4.08,6.002,20.0
85.182,-3.851,8.034,8.0
87.302,-3.944,7.773,25.0
90.446,-4.083,7.576,6.0
88.22,-3.978,6.917,22.0
89.411,-4.029,6.541,13.0
89.625,-4.036,6.087,20.0
78.98,-3.572,7.583,15.0
87.506,-3.953,7.94,10.0
87.42,-3.945,7.471,15.0
89.133,-4.019,7.139,15.0
88.412,-3.981,6.617,14.0
89.246,-4.015,6.21,26.0
79.315,-3.584,7.748,26.0
84.99,-3.835,7.854,15.0
87.279,-3.934,7.605,29.0
0.0,0.0,0.0,0.0
88.159,-3.964,6.743,25.0
89.181,-4.006,6.353,24.0
79.306,-3.578,7.88,19.0
85.078,-3.833,8.003,8.0
87.263,-3.925,7.747,24.0
90.553,-4.068,7.553,14.0
88.242,-3.959,6.894,23.0
89.402,-4.006,6.515,12.0
83.49,-3.757,8.434,19.0
78.907,-3.545,7.553,25.0
87.414,-3.921,7.904,16.0
90.022,-4.032,7.655,10.0
88.588,-3.962,7.065,12.0
88.49,-3.952,6.592,10.0
83.021,-3.722,8.521,18.0
79.168,-3.544,7.705,32.0
84.26,-3.766,7.754,10.0
87.4,-3.9,7.571,22.0
90.985,-4.053,7.401,15.0
88.11,-3.918,6.702,17.0
82.503,-3.684,8.599,20.0
79.277,-3.533,7.842,25.0
78.957,-3.512,7.391,8.0
87.235,-3.874,7.696,19.0
90.75,-4.022,7.525,18.0
88.114,-3.898,6.841,27.0
82.213,-3.652,8.7,34.0
79.676,-3.533,8.007,8.0
78.862,-3.489,7.506,28.0
87.307,-3.855,7.838,27.0
90.549,-3.99,7.65,10.0
88.343,-3.886,6.996,14.0
82.267,-3.633,8.834,30.0
84.309,-3.715,8.603,19.0
78.95,-3.471,7.636,25.0
87.426,-3.835,7.982,10.0
87.445,-3.828,7.52,9.0
91.489,-3.997,7.383,10.0
81.978,-3.596,8.928,24.0
81.752,-3.577,8.467,10.0
79.319,-3.463,7.792,17.0
84.277,-3.67,7.822,6.0
87.262,-3.792,7.635,18.0
91.291,-3.958,7.504,10.0
81.358,-3.541,8.984,23.0
81.952,-3.558,8.61,29.0
79.646,-3.449,7.943,14.0
78.838,-3.406,7.434,15.0
87.239,-3.759,7.762,20.0
93.963,-4.039,7.861,5.0
81.366,-3.511,9.105,22.0
82.187,-3.536,8.757,31.0
84.262,-3.616,8.527,13.0
78.939,-3.379,7.558,35.0
84.288,-3.599,7.622,12.0
94.053,-4.004,8.005,4.0
81.434,-3.481,9.231,18.0
82.363,-3.51,8.895,31.0
79.629,-3.384,8.173,12.0
79.203,-3.356,7.698,28.0
84.898,-3.587,7.799,11.0
88.115,-3.712,7.626,13.0
81.445,-3.444,9.35,14.0
82.457,-3.476,9.023,27.0
79.631,-3.347,8.287,14.0
79.361,-3.325,7.826,29.0
78.932,-3.298,7.362,8.0
88.165,-3.673,7.752,5.0
80.927,-3.384,9.403,28.0
82.093,-3.422,9.096,15.0
79.96,-3.322,8.431,11.0
79.367,-3.287,7.935,31.0
79.252,-3.271,7.499,14.0
82.729,-3.405,7.385,10.0
80.749,-3.336,9.493,12.0
77.385,-3.186,8.681,18.0
80.13,-3.287,8.558,27.0
79.406,-3.246,8.046,22.0
79.385,-3.235,7.618,28.0
82.496,-3.351,7.475,19.0
81.236,-3.311,9.659,12.0
77.474,-3.147,8.793,26.0
80.074,-3.241,8.657,17.0
79.761,-3.216,8.186,18.0
79.046,-3.176,7.688,27.0
79.085,-3.167,7.268,11.0
81.307,-3.267,9.774,17.0
77.584,-3.106,8.906,22.0
81.544,-3.253,8.921,30.0
79.945,-3.177,8.307,17.0
79.088,-3.131,7.792,28.0
78.938,-3.113,7.354,11.0
81.225,-3.214,9.867,29.0
77.704,-3.063,9.018,27.0
80.81,-3.173,8.942,15.0
79.79,-3.121,8.391,23.0
79.262,-3.088,7.907,22.0
79.047,-3.068,7.461,21.0
81.335,-3.168,9.982,18.0
64.441,-2.499,7.558,14.0
80.522,-3.11,9.008,11.0
79.605,-3.062,8.468,26.0
79.613,-3.05,8.038,25.0
65.984,-2.517,6.307,10.0
81.763,-3.13,10.133,10.0
64.417,-2.454,7.633,19.0
80.831,-3.067,9.139,9.0
79.313,-2.996,8.53,13.0
79.588,-2.994,8.129,27.0
66.019,-2.473,6.387,21.0
80.986,-3.043,10.132,11.0
64.43,-2.41,7.71,15.0
77.739,-2.894,8.88,10.0
64.863,-2.404,7.051,17.0
79.431,-2.931,8.204,17.0
66.075,-2.427,6.467,15.0
80.172,-2.954,10.121,22.0
76.865,-2.819,9.284,9.0
64.535,-2.356,7.443,9.0
64.875,-2.356,7.123,21.0
65.892,-2.383,6.877,14.0
79.183,-2.85,7.836,18.0
80.023,-2.889,10.19,20.0
77.809,-2.794,9.483,16.0
64.547,-2.307,7.515,25.0
64.915,-2.309,7.197,14.0
63.906,-2.261,6.738,18.0
79.312,-2.793,7.932,12.0
79.837,-2.819,10.252,28.0
78.203,-2.747,9.614,28.0
64.646,-2.259,7.593,21.0
64.907,-2.257,7.264,16.0
63.928,-2.211,6.806,25.0
65.691,-2.261,6.637,22.0
79.879,-2.757,10.338,22.0
0.0,0.0,0.0,0.0
77.523,-2.647,9.183,15.0
64.73,-2.198,7.308,7.0
64.152,-2.167,6.893,29.0
65.588,-2.204,6.69,26.0
79.909,-2.691,10.421,11.0
76.552,-2.564,9.562,25.0
77.167,-2.57,9.216,25.0
64.792,-2.146,7.377,10.0
64.215,-2.115,6.96,30.0
0.0,0.0,0.0,0.0
75.589,-2.481,9.929,33.0
76.445,-2.495,9.62,29.0
77.163,-2.504,9.286,27.0
64.096,-2.067,7.356,22.0
63.855,-2.048,6.979,33.0
64.21,-2.047,6.667,22.0
75.668,-2.417,10.008,28.0
76.783,-2.438,9.732,48.0
77.196,-2.436,9.359,26.0
64.247,-2.016,7.43,23.0
63.837,-1.991,7.032,38.0
64.232,-1.991,6.725,31.0
75.833,-2.354,10.095,27.0
76.907,-2.372,9.814,34.0
77.449,-2.374,9.456,9.0
77.392,-2.358,9.015,35.0
63.919,-1.935,7.095,38.0
63.924,-1.923,6.745,39.0
75.93,-2.287,10.171,16.0
76.55,-2.29,9.83,32.0
74.03,-2.2,9.098,23.0
0.0,0.0,0.0,0.0
63.841,-1.872,7.137,28.0
63.944,-1.862,6.798,39.0
75.522,-2.202,10.176,10.0
76.28,-2.21,9.855,23.0
74.058,-2.131,9.159,20.0
64.765,-1.85,7.645,10.0
63.889,-1.812,7.19,26.0
64.081,-1.805,6.86,33.0
75.652,-2.133,10.25,22.0
76.104,-2.13,9.889,30.0
74.19,-2.061,9.229,18.0
64.803,-1.787,7.697,24.0
63.914,-1.751,7.238,33.0
64.346,-1.749,6.933,23.0
75.807,-2.062,10.324,32.0
76.148,-2.056,9.947,30.0
74.152,-1.987,9.275,24.0
64.801,-1.723,7.74,33.0
64.052,-1.69,7.296,38.0
64.46,-1.689,6.987,26.0
75.924,-1.989,10.39,21.0
76.85,-1.997,10.089,26.0
74.128,-1.911,9.32,28.0
64.751,-1.657,7.775,29.0
64.478,-1.637,7.385,37.0
64.487,-1.624,7.03,31.0
75.912,-1.912,10.435,21.0
74.011,-1.848,9.761,9.0
74.179,-1.837,9.37,28.0
73.94,-1.816,8.921,14.0
64.412,-1.569,7.414,16.0
64.547,-1.559,7.073,30.0
75.884,-1.831,10.475,17.0
0.0,0.0,0.0,0.0
74.192,-1.76,9.412,35.0
73.962,-1.74,8.964,32.0
64.397,-1.502,7.447,12.0
64.457,-1.49,7.096,31.0
76.103,-1.757,10.545,18.0
64.115,-1.468,8.524,29.0
74.153,-1.682,9.444,12.0
73.984,-1.663,9.003,26.0
74.627,-1.662,8.666,23.0
64.298,-1.419,7.109,24.0
76.586,-1.687,10.648,22.0
63.949,-1.395,8.532,27.0
74.626,-1.613,9.539,18.0
74.042,-1.585,9.043,29.0
74.525,-1.581,8.687,15.0
64.739,-1.36,7.186,40.0
65.445,-1.371,9.128,14.0
63.908,-1.325,8.554,31.0
63.968,-1.313,8.203,17.0
74.325,-1.511,9.108,33.0
64.909,-1.307,7.592,16.0
64.993,-1.295,7.24,16.0
65.363,-1.297,9.142,10.0
64.006,-1.258,8.592,32.0
64.187,-1.248,8.255,18.0
74.42,-1.432,9.147,30.0
64.882,-1.235,7.612,21.0
64.844,-1.221,7.246,24.0
65.386,-1.226,9.167,15.0
64.402,-1.194,8.666,27.0
74.477,-1.366,9.603,14.0
74.587,-1.353,9.191,31.0
64.875,-1.164,7.631,19.0
64.792,-1.149,7.259,27.0
65.445,-1.155,9.195,14.0
64.259,-1.12,8.666,30.0
63.986,-1.102,8.268,13.0
77.498,-1.319,9.571,7.0
74.059,-1.246,8.731,26.0
64.768,-1.076,7.273,27.0
64.501,-1.065,9.078,30.0
64.211,-1.048,8.674,29.0
64.099,-1.032,8.298,25.0
59.091,-0.939,7.311,14.0
74.044,-1.163,8.745,22.0
64.829,-1.005,7.293,26.0
64.183,-0.988,9.047,29.0
64.234,-0.975,8.69,31.0
58.295,-0.874,7.557,20.0
59.128,-0.873,7.326,24.0
73.703,-1.074,8.717,31.0
64.842,-0.932,7.305,14.0
64.184,-0.915,9.057,25.0
64.124,-0.901,8.685,29.0
58.343,-0.808,7.571,22.0
59.153,-0.807,7.337,29.0
73.428,-0.987,8.694,23.0
65.51,-0.868,7.388,16.0
64.164,-0.841,9.061,27.0
64.133,-0.828,8.692,28.0
58.383,-0.742,7.582,27.0
57.691,-0.722,7.16,19.0
73.436,-0.905,8.7,19.0
65.455,-0.794,7.386,20.0
64.124,-0.768,9.059,29.0
64.226,-0.757,8.708,26.0
58.475,-0.677,7.597,20.0
57.702,-0.656,7.164,28.0
59.312,-0.662,7.028,11.0
65.497,-0.718,7.392,5.0
63.72,-0.69,9.003,36.0
57.496,-0.611,7.796,8.0
58.452,-0.609,7.594,26.0
57.764,-0.591,7.171,27.0
59.359,-0.595,7.033,19.0
63.67,-0.626,7.185,9.0
62.987,-0.61,8.898,25.0
57.386,-0.544,7.779,17.0
58.526,-0.544,7.601,29.0
57.846,-0.527,7.178,32.0
59.427,-0.529,7.037,24.0
63.68,-0.555,7.181,20.0
63.018,-0.538,8.897,21.0
57.32,-0.478,7.765,25.0
58.328,-0.475,7.569,32.0
57.95,-0.462,7.185,31.0
59.454,-0.462,7.034,31.0
63.722,-0.483,7.179,23.0
63.15,-0.467,8.908,14.0
57.29,-0.412,7.753,31.0
57.066,-0.4,7.397,31.0
57.783,-0.393,7.155,32.0
59.427,-0.394,7.022,25.0
63.776,-0.411,7.174,28.0
63.196,-0.394,8.903,15.0
57.366,-0.347,7.753,31.0
56.702,-0.332,7.34,28.0
56.983,-0.322,7.045,29.0
59.191,-0.324,6.982,28.0
63.813,-0.338,7.165,8.0
63.499,-0.324,8.932,10.0
57.532,-0.282,7.762,31.0
57.725,-0.272,7.458,32.0
57.204,-0.259,7.059,31.0
59.206,-0.257,6.969,27.0
57.239,-0.238,6.412,13.0
50.827,-0.2,7.136,11.0
51.364,-0.193,6.916,23.0
57.173,-0.204,7.371,31.0
57.296,-0.194,7.053,32.0
59.222,-0.19,6.953,23.0
57.245,-0.174,6.395,21.0
51.07,-0.144,7.153,19.0
51.406,-0.135,6.905,27.0
56.819,-0.139,7.307,23.0
57.75,-0.131,7.09,32.0
63.343,-0.132,7.415,35.0
63.23,-0.121,7.042,8.0
51.297,-0.087,7.167,26.0
51.455,-0.077,6.893,22.0
57.829,-0.076,7.415,32.0
48.992,-0.056,5.996,12.0
63.387,-0.062,7.396,26.0
57.371,-0.046,6.367,26.0
50.931,-0.028,7.095,21.0
48.332,-0.019,6.454,13.0
58.187,-0.013,7.436,32.0
57.108,-0.002,6.965,15.0
59.586,0.006,6.927,28.0
57.325,0.017,6.337,22.0
51.273,0.028,7.119,26.0
48.403,0.034,6.442,17.0
57.813,0.051,7.361,32.0
57.136,0.061,6.941,22.0
59.494,0.073,6.887,20.0
56.963,0.08,6.269,32.0
51.149,0.084,7.077,26.0
48.388,0.088,6.415,22.0
57.947,0.116,7.349,20.0
57.176,0.124,6.916,21.0
59.549,0.138,6.862,11.0
56.611,0.141,6.2,30.0
51.137,0.141,7.047,25.0
48.473,0.142,6.4,23.0
58.087,0.179,7.334,26.0
57.168,0.185,6.884,31.0
56.999,0.194,6.536,8.0
56.738,0.202,6.182,31.0
51.395,0.197,7.052,27.0
48.571,0.194,6.384,22.0
48.965,0.203,6.153,22.0
57.32,0.247,6.867,31.0
52.155,0.233,5.949,18.0
56.549,0.262,6.126,29.0
51.342,0.252,7.012,21.0
48.61,0.246,6.358,19.0
48.171,0.251,6.022,21.0
57.32,0.308,6.83,29.0
56.49,0.313,6.406,8.0
56.602,0.321,6.094,30.0
51.204,0.306,6.959,30.0
48.613,0.297,6.325,19.0
48.701,0.305,6.055,23.0
57.431,0.369,6.803,25.0
52.275,0.343,5.892,19.0
57.17,0.384,6.116,31.0
51.016,0.357,6.897,25.0
48.637,0.348,6.293,18.0
48.367,0.353,5.979,20.0
57.46,0.428,6.765,11.0
52.296,0.397,5.856,13.0
57.272,0.444,6.084,28.0
50.215,0.403,6.75,25.0
48.683,0.398,6.261,22.0
48.439,0.403,5.949,22.0
52.604,0.446,6.152,25.0
56.524,0.486,6.285,25.0
57.255,0.501,6.037,17.0
49.741,0.451,6.646,24.0
49.226,0.452,6.291,23.0
48.432,0.452,5.909,18.0
52.368,0.496,6.081,23.0
56.758,0.546,6.263,30.0
57.315,0.558,5.995,17.0
49.168,0.494,6.528,24.0
48.842,0.498,6.2,23.0
49.147,0.507,5.954,8.0
52.358,0.548,6.034,15.0
56.989,0.604,6.239,30.0
50.295,0.539,5.217,18.0
49.245,0.543,6.493,25.0
48.637,0.543,6.13,31.0
49.311,0.557,5.929,19.0
48.6,0.555,5.557,19.0
57.465,0.664,6.239,31.0
50.186,0.586,5.16,19.0
47.451,0.569,6.212,16.0
48.529,0.588,6.071,22.0
52.369,0.641,6.248,8.0
49.013,0.606,5.558,23.0
57.454,0.718,6.184,26.0
50.141,0.633,5.107,18.0
47.447,0.614,6.165,14.0
48.765,0.636,6.053,22.0
52.319,0.689,6.19,11.0
49.165,0.654,5.527,23.0
57.284,0.769,6.108,24.0
50.176,0.679,5.061,13.0
47.462,0.658,6.119,32.0
49.029,0.685,6.036,23.0
48.979,0.69,5.745,22.0
52.698,0.749,5.87,5.0
50.352,0.721,5.317,17.0
66.771,0.964,6.665,4.0
47.462,0.701,6.069,13.0
49.061,0.73,5.987,31.0
48.847,0.732,5.677,22.0
50.123,0.756,5.529,24.0
50.307,0.765,5.258,19.0
57.059,0.874,5.634,9.0
0.0,0.0,0.0,0.0
48.938,0.771,5.918,41.0
48.848,0.775,5.623,22.0
50.104,0.8,5.471,24.0
54.986,0.883,5.686,8.0
49.786,0.806,4.86,13.0
49.142,0.811,6.173,24.0
48.877,0.812,5.855,32.0
0.0,0.0,0.0,0.0
50.35,0.847,5.44,24.0
55.034,0.93,5.627,18.0
49.636,0.845,4.788,22.0
49.013,0.85,6.099,32.0
48.673,0.848,5.773,27.0
50.238,0.88,5.666,23.0
50.181,0.885,5.363,24.0
55.191,0.978,5.578,26.0
49.305,0.878,4.697,17.0
49.032,0.889,6.042,34.0
48.817,0.89,5.731,20.0
50.263,0.921,5.607,26.0
54.964,1.012,5.806,7.0
56.971,1.055,5.688,6.0
57.567,1.071,5.414,21.0
48.952,0.926,5.971,26.0
49.606,0.943,5.761,25.0
50.161,0.958,5.533,20.0
50.134,0.961,5.233,17.0
56.975,1.097,5.616,18.0
57.422,1.111,5.327,25.0
48.865,0.961,5.898,31.0
50.316,0.994,5.779,24.0
50.214,0.996,5.475,24.0
54.967,1.094,5.667,17.0
60.886,1.218,5.924,7.0
57.291,1.15,5.242,18.0
48.765,0.994,5.822,35.0
50.222,1.028,5.702,24.0
49.982,1.027,5.383,23.0
55.215,1.139,5.619,29.0
57.691,1.194,5.536,8.0
61.761,1.283,5.568,9.0
48.787,1.029,5.758,32.0
50.195,1.062,5.631,24.0
50.098,1.064,5.328,5.0
55.391,1.18,5.562,6.0
56.244,1.202,5.32,10.0
62.66,1.344,5.564,34.0
50.262,1.093,5.862,15.0
49.991,1.091,5.538,24.0
49.786,1.09,5.225,15.0
49.717,1.091,4.923,23.0
56.064,1.235,5.225,29.0
62.64,1.383,5.475,19.0
45.847,1.027,5.282,31.0
49.781,1.118,5.444,29.0
54.976,1.238,5.691,13.0
49.413,1.116,4.822,18.0
50.37,1.14,4.623,10.0
67.911,1.541,5.839,8.0
45.804,1.054,5.211,14.0
49.784,1.148,5.373,22.0
54.966,1.271,5.611,6.0
49.722,1.152,4.78,24.0
50.497,1.173,4.561,24.0
63.514,1.479,5.367,28.0
49.784,1.174,5.59,10.0
49.794,1.177,5.299,16.0
49.686,1.177,4.997,23.0
50.011,1.187,4.733,24.0
51.014,1.214,4.531,19.0
63.169,1.506,5.243,21.0
49.734,1.2,5.508,11.0
49.684,1.201,5.212,23.0
49.439,1.197,4.897,23.0
49.97,1.212,4.653,25.0
63.908,1.554,5.58,12.0
63.076,1.536,5.14,17.0
49.765,1.226,5.435,11.0
49.626,1.225,5.129,26.0
49.437,1.222,4.821,23.0
50.022,1.238,4.581,24.0
63.504,1.575,5.446,37.0
63.087,1.567,5.043,16.0
48.444,1.217,5.215,19.0
49.624,1.248,5.051,23.0
50.103,1.262,4.807,24.0
65.89,1.662,5.93,19.0
63.009,1.592,5.303,17.0
64.742,1.638,5.073,9.0
49.062,1.255,5.203,25.0
49.527,1.268,4.962,30.0
50.152,1.286,4.731,23.0
63.635,1.633,5.626,11.0
0.0,0.0,0.0,0.0
82.885,2.132,6.362,16.0
49.596,1.289,5.178,22.0
49.618,1.291,4.89,23.0
50.135,1.305,4.648,23.0
63.069,1.643,5.472,18.0
64.642,1.686,5.232,31.0
82.572,2.155,6.204,32.0
49.551,1.307,5.093,36.0
50.433,1.331,4.887,24.0
55.764,1.472,5.078,7.0
63.047,1.665,5.367,24.0
64.176,1.697,5.089,27.0
82.26,2.176,6.044,21.0
49.55,1.323,5.009,27.0
50.242,1.342,4.784,24.0
55.725,1.49,4.981,8.0
0.0,0.0,0.0,0.0
64.098,1.715,4.974,5.0
82.196,2.2,5.901,25.0
50.459,1.363,5.015,25.0
50.126,1.354,4.688,24.0
63.111,1.706,5.533,19.0
64.56,1.746,5.277,38.0
62.488,1.69,4.744,11.0
82.172,2.224,5.76,30.0
50.879,1.388,4.969,19.0
50.114,1.367,4.601,17.0
63.005,1.72,5.416,18.0
64.125,1.75,5.131,34.0
62.493,1.706,4.637,7.0
81.893,2.235,5.599,28.0
56.144,1.545,5.386,6.0
63.084,1.736,5.682,10.0
76.389,2.102,6.434,13.0
0.0,0.0,0.0,0.0
82.473,2.269,5.975,30.0
81.839,2.251,5.452,24.0
50.102,1.389,4.717,22.0
63.06,1.748,5.568,22.0
0.0,0.0,0.0,0.0
62.512,1.731,4.783,22.0
82.282,2.279,5.816,31.0
81.77,2.263,5.305,15.0
55.92,1.559,5.166,17.0
63.493,1.769,5.493,23.0
63.45,1.768,5.119,35.0
62.551,1.741,4.674,14.0
81.944,2.28,5.646,31.0
81.67,2.272,5.153,30.0
55.864,1.565,5.06,6.0
76.347,2.137,6.469,12.0
0.0,0.0,0.0,0.0
82.454,2.304,6.015,27.0
81.848,2.286,5.494,25.0
81.596,2.278,5.001,35.0
63.138,1.774,5.604,25.0
63.097,1.771,5.232,9.0
62.468,1.752,4.815,20.0
82.292,2.306,5.853,29.0
81.837,2.291,5.343,12.0
81.654,2.284,4.857,31.0
63.678,1.792,5.536,21.0
63.261,1.779,5.129,29.0
62.563,1.757,4.706,15.0
81.983,2.3,5.679,29.0
81.648,2.288,5.181,33.0
81.737,2.288,4.711,25.0
65.185,1.835,5.545,11.0
63.639,1.79,5.042,15.0
82.405,2.314,6.046,28.0
81.824,2.295,5.517,27.0
81.583,2.285,5.026,39.0
81.95,2.293,4.571,25.0
63.101,1.775,5.25,11.0
62.454,1.754,4.831,19.0
82.35,2.309,5.889,29.0
81.804,2.291,5.364,11.0
81.634,2.282,4.877,37.0
82.358,2.3,4.441,22.0
63.259,1.775,5.145,26.0
62.563,1.752,4.723,16.0
82.027,2.293,5.712,34.0
81.696,2.281,5.205,31.0
81.73,2.278,4.73,28.0
82.827,2.305,4.312,26.0
63.843,1.785,5.072,29.0
82.495,2.302,6.071,18.0
81.868,2.279,5.547,32.0
81.574,2.267,5.042,41.0
82.018,2.275,4.592,24.0
82.786,2.292,4.153,21.0
62.503,1.738,4.846,17.0
82.411,2.287,5.908,26.0
81.822,2.266,5.388,14.0
81.721,2.258,4.895,35.0
82.42,2.273,4.458,23.0
85.042,2.34,4.104,10.0
62.552,1.728,4.73,19.0
82.016,2.26,5.722,30.0
81.719,2.247,5.225,25.0
81.759,2.243,4.742,30.0
82.819,2.266,4.32,20.0
85.161,2.326,3.948,9.0
82.384,2.257,6.072,19.0
81.851,2.237,5.553,30.0
81.611,2.224,5.061,34.0
82.237,2.235,4.611,33.0
83.114,2.254,4.176,14.0
56.116,1.518,2.492,0.0
82.215,2.23,5.9,25.0
81.952,2.218,5.402,18.0
81.792,2.207,4.914,31.0
82.51,2.22,4.468,28.0
84.626,2.271,4.09,16.0
0.0,0.0,0.0,0.0
82.039,2.201,5.728,28.0
81.694,2.185,5.227,27.0
81.847,2.182,4.757,29.0
83.624,2.223,4.365,17.0
85.245,2.259,3.954,6.0
57.806,1.527,2.344,0.0
81.869,2.168,5.558,28.0
82.059,2.166,5.09,29.0
82.253,2.164,4.622,24.0
84.378,2.213,4.242,23.0
56.006,1.464,2.489,0.0
0.0,0.0,0.0,0.0
82.02,2.14,5.408,23.0
82.153,2.137,4.937,32.0
83.156,2.155,4.512,20.0
88.897,2.296,4.295,6.0
0.0,0.0,0.0,0.0
0.0,0.0,0.0,0.0
82.315,2.114,5.268,22.0
82.218,2.104,4.781,30.0
83.926,2.139,4.391,23.0
88.765,2.254,4.118,4.0
0.0,0.0,0.0,0.0
0.0,0.0,0.0,0.0
82.2,2.073,5.101,27.0
82.426,2.071,4.634,21.0
84.347,2.11,4.251,11.0
56.212,1.401,2.5,0.0
0.0,0.0,0.0,0.0
54.423,1.345,1.787,4.0
82.177,2.031,4.939,34.0
83.43,2.054,4.528,32.0
88.843,2.177,4.304,17.0
0.0,0.0,0.0,0.0
0.0,0.0,0.0,0.0
54.252,1.312,1.676,1.0
82.454,1.994,4.796,27.0
83.982,2.022,4.396,15.0
88.735,2.126,4.127,10.0
0.0,0.0,0.0,0.0
54.408,1.292,1.892,1.0
54.195,1.28,1.569,0.0
83.218,1.964,4.679,28.0
85.25,2.002,4.295,10.0
56.021,1.309,2.496,0.0
0.0,0.0,0.0,0.0
54.373,1.258,1.785,1.0
54.191,1.248,1.464,1.0
84.54,1.944,4.589,15.0
88.522,2.024,4.288,19.0
0.0,0.0,0.0,0.0
0.0,0.0,0.0,0.0
54.243,1.22,1.675,1.0
54.18,1.212,1.358,0.0
85.449,1.909,4.472,14.0
88.812,1.972,4.131,4.0
0.0,0.0,0.0,0.0
54.494,1.196,1.895,13.0
54.238,1.184,1.571,0.0
54.64,1.186,1.266,0.0
88.695,1.92,4.471,19.0
56.23,1.209,2.507,0.0
55.32,1.183,2.145,0.0
54.484,1.157,1.789,13.0
0.0,0.0,0.0,0.0
54.742,1.149,1.162,1.0
88.925,1.86,4.311,17.0
0.0,0.0,0.0,0.0
0.0,0.0,0.0,0.0
0.0,0.0,0.0,0.0
54.282,1.106,1.364,0.0
0.0,0.0,0.0,0.0
89.644,1.806,4.175,6.0
0.0,0.0,0.0,0.0
0.0,0.0,0.0,0.0
54.372,1.072,1.578,1.0
0.0,0.0,0.0,0.0
0.0,0.0,0.0,0.0
0.0,0.0,0.0,0.0
0.0,0.0,0.0,0.0
0.0,0.0,0.0,0.0
54.549,1.031,1.479,0.0
0.0,0.0,0.0,0.0
0.0,0.0,0.0,0.0
0.0,0.0,0.0,0.0
0.0,0.0,0.0,0.0
0.0,0.0,0.0,0.0
54.544,0.985,1.377,0.0
0.0,0.0,0.0,0.0
37.555,0.666,0.512,0.0
0.0,0.0,0.0,0.0
0.0,0.0,0.0,0.0
54.903,0.95,1.605,1.0
54.819,0.94,1.279,6.0
43.654,0.742,0.766,0.0
34.572,0.582,0.406,0.0
55.753,0.932,2.173,0.0
55.188,0.914,1.831,0.0
55.154,0.904,1.509,0.0
0.0,0.0,0.0,0.0
0.0,0.0,0.0,0.0
34.147,0.543,0.336,0.0
55.578,0.876,2.062,0.0
55.437,0.864,1.734,0.0
55.672,0.859,1.419,0.0
0.0,0.0,0.0,0.0
0.0,0.0,0.0,0.0
0.0,0.0,0.0,0.0
55.691,0.823,1.962,0.0
0.0,0.0,0.0,0.0
0.0,0.0,0.0,0.0
0.0,0.0,0.0,0.0
35.742,0.503,0.426,0.0
28.949,0.402,0.177,1.0
0.0,0.0,0.0,0.0
56.101,0.761,1.546,0.0
0.0,0.0,0.0,0.0
0.0,0.0,0.0,0.0
33.98,0.442,0.342,0.0
28.862,0.37,0.123,5.0
56.342,0.714,1.776,1.0
57.199,0.714,1.471,1.0
0.0,0.0,0.0,0.0
37.833,0.458,0.53,0.0
31.961,0.381,0.263,0.0
28.666,0.337,0.07,2.0
56.753,0.657,1.685,0.0
57.573,0.656,1.376,0.0
0.0,0.0,0.0,0.0
0.0,0.0,0.0,0.0
28.907,0.313,0.185,0.0
27.0,0.287,0.016,0.0
57.457,0.6,1.602,1.0
0.0,0.0,0.0,0.0
41.303,0.415,0.673,0.0
34.213,0.337,0.355,0.0
28.867,0.279,0.133,5.0
26.091,0.247,-0.03,0.0
57.81,0.536,1.507,2.0
0.0,0.0,0.0,0.0
38.268,0.34,0.555,0.0
32.757,0.284,0.282,0.0
28.708,0.243,0.081,3.0
25.126,0.208,-0.074,0.0
0.0,0.0,0.0,0.0
0.0,0.0,0.0,0.0
36.61,0.281,0.466,0.0
30.682,0.229,0.21,0.0
27.176,0.197,0.029,0.0
24.07,0.17,-0.113,0.0
0.0,0.0,0.0,0.0
43.43,0.289,0.728,1.0
34.83,0.224,0.382,0.0
28.866,0.18,0.147,0.0
26.275,0.158,-0.018,0.0
23.081,0.134,-0.149,0.0
0.0,0.0,0.0,0.0
39.173,0.21,0.588,0.0
33.189,0.171,0.307,0.0
28.704,0.142,0.096,1.0
25.321,0.119,-0.061,0.0
22.169,0.1,-0.181,2.0
0.0,0.0,0.0,0.0
0.0,0.0,0.0,0.0
31.603,0.122,0.238,0.0
27.461,0.1,0.045,0.0
24.455,0.083,-0.1,0.0
21.25,0.067,-0.21,4.0
41.752,0.124,0.727,0.0
0.0,0.0,0.0,0.0
30.088,0.076,0.176,0.0
26.623,0.061,0.0,0.0
23.578,0.049,-0.136,1.0
20.544,0.038,-0.237,0.0
0.0,0.0,0.0,0.0
33.548,0.047,0.334,0.0
28.768,0.033,0.12,1.0
25.653,0.024,-0.042,0.0
22.579,0.016,-0.168,0.0
19.543,0.009,-0.258,0.0
37.837,0.009,0.533,0.0
32.773,0.0,0.273,0.0
28.326,-0.006,0.072,1.0
24.896,-0.011,-0.082,0.0
21.45,-0.014,-0.194,2.0
18.585,-0.017,-0.276,0.0
35.936,-0.041,0.448,0.0
30.511,-0.042,0.204,0.0
27.164,-0.044,0.025,0.0
23.962,-0.045,-0.118,0.0
20.73,-0.043,-0.221,0.0
18.159,-0.042,-0.298,0.0
33.439,-0.086,0.364,0.0
28.836,-0.081,0.147,5.0
26.142,-0.08,-0.016,0.0
23.163,-0.076,-0.15,0.0
19.873,-0.071,-0.243,0.0
17.464,-0.066,-0.315,0.0
33.17,-0.134,0.309,1.0
28.729,-0.123,0.102,6.0
25.214,-0.115,-0.055,0.0
22.058,-0.106,-0.178,0.0
19.139,-0.096,-0.264,0.0
17.074,-0.09,-0.334,0.0
31.508,-0.175,0.244,1.0
28.007,-0.162,0.056,1.0
24.537,-0.148,-0.091,0.0
21.641,-0.136,-0.207,0.0
18.392,-0.12,-0.282,0.0
16.654,-0.113,-0.351,0.0
28.901,-0.204,0.18,0.0
26.762,-0.195,0.013,0.0
23.886,-0.18,-0.125,0.0
20.437,-0.16,-0.226,0.0
17.935,-0.145,-0.302,0.0
16.306,-0.136,-0.368,0.0
28.797,-0.247,0.137,5.0
25.949,-0.23,-0.025,0.0
22.836,-0.208,-0.153,0.0
19.7,-0.185,-0.247,0.0
17.388,-0.168,-0.318,0.0
15.955,-0.158,-0.384,0.0
28.542,-0.29,0.094,1.0
25.065,-0.261,-0.061,0.0
22.304,-0.238,-0.182,0.0
18.919,-0.207,-0.265,0.0
16.956,-0.19,-0.335,0.0
15.64,-0.18,-0.399,0.0
27.686,-0.325,0.052,0.0
24.431,-0.294,-0.094,0.0
21.265,-0.261,-0.204,0.0
18.379,-0.231,-0.284,0.0
16.611,-0.213,-0.352,0.0
15.233,-0.199,-0.41,0.0
26.783,-0.358,0.012,0.0
23.48,-0.32,-0.123,0.0
20.446,-0.284,-0.224,0.0
17.865,-0.253,-0.3,0.0
16.321,-0.236,-0.368,0.0
14.827,-0.219,-0.42,0.0
25.889,-0.388,-0.022,0.0
23.258,-0.355,-0.153,0.0
19.593,-0.305,-0.242,0.0
17.421,-0.276,-0.317,0.0
15.993,-0.258,-0.382,0.0
14.586,-0.239,-0.432,0.0
25.294,-0.421,-0.056,0.0
22.283,-0.377,-0.177,0.0
19.235,-0.331,-0.263,0.0
17.02,-0.298,-0.332,0.0
15.71,-0.279,-0.396,0.0
14.264,-0.258,-0.442,0.0
