X,Y,Z,Reflectivity
54.721,6.796,1.481,6.0
46.036,5.716,0.977,9.0
43.941,5.455,0.68,6.0
39.554,4.91,0.386,0.0
54.55,6.774,2.039,25.0
54.603,6.778,1.728,13.0
56.307,6.988,1.459,4.0
45.666,5.666,0.916,11.0
43.876,5.443,0.629,5.0
36.162,4.485,0.311,0.0
54.459,6.756,1.973,28.0
58.693,7.278,1.789,10.0
55.798,6.917,1.381,2.0
45.415,5.628,0.858,7.0
42.152,5.223,0.555,1.0
0.0,0.0,0.0,0.0
54.491,6.75,1.91,26.0
54.677,6.771,1.602,13.0
51.304,6.351,1.21,2.0
44.288,5.48,0.785,3.0
42.087,5.207,0.505,1.0
33.051,4.088,0.207,0.0
54.564,6.747,1.848,20.0
54.697,6.761,1.539,11.0
46.186,5.706,1.034,4.0
43.972,5.431,0.728,5.0
39.741,4.907,0.43,0.0
31.762,3.921,0.162,0.0
54.666,6.746,1.788,14.0
58.158,7.173,1.569,11.0
45.97,5.667,0.976,11.0
43.986,5.421,0.677,5.0
39.645,4.884,0.383,0.0
29.491,3.632,0.115,0.0
58.725,7.228,1.852,15.0
57.074,7.021,1.472,8.0
45.703,5.62,0.917,15.0
43.918,5.398,0.624,3.0
35.101,4.312,0.298,0.0
29.33,3.602,0.081,1.0
58.714,7.206,1.783,16.0
46.485,5.702,1.145,2.0
45.529,5.581,0.861,18.0
42.192,5.17,0.551,1.0
34.01,4.165,0.249,0.0
59.254,7.248,1.73,24.0
46.408,5.673,1.089,11.0
44.266,5.408,0.785,3.0
42.19,5.152,0.502,0.0
32.92,4.018,0.203,1.0
27.731,3.383,0.012,0.0
59.208,7.216,1.661,34.0
46.181,5.625,1.031,10.0
44.047,5.361,0.73,4.0
40.294,4.902,0.434,0.0
31.824,3.869,0.16,0.0
26.584,3.231,-0.018,0.0
46.455,5.639,1.25,8.0
45.904,5.568,0.972,11.0
44.057,5.34,0.681,6.0
36.677,4.443,0.353,0.0
29.368,3.556,0.114,0.0
26.073,3.155,-0.047,1.0
46.373,5.604,1.194,12.0
45.524,5.497,0.912,15.0
44.033,5.313,0.629,3.0
0.0,0.0,0.0,0.0
29.311,3.532,0.08,1.0
25.501,3.071,-0.075,1.0
46.345,5.573,1.141,15.0
45.425,5.458,0.858,8.0
44.032,5.287,0.58,0.0
0.0,0.0,0.0,0.0
29.116,3.491,0.047,1.0
24.261,2.907,-0.099,1.0
46.308,5.539,1.088,14.0
44.399,5.307,0.788,3.0
42.409,5.065,0.51,0.0
32.572,3.887,0.202,0.0
27.701,3.303,0.013,0.0
23.849,2.842,-0.124,1.0
46.164,5.491,1.032,12.0
44.175,5.25,0.735,4.0
39.041,4.635,0.426,0.0
31.971,3.793,0.162,0.0
26.385,3.128,-0.016,0.0
23.4,2.772,-0.148,1.0
45.889,5.425,0.975,9.0
44.228,5.224,0.687,5.0
37.054,4.372,0.363,0.0
29.376,3.463,0.117,0.0
26.11,3.076,-0.045,1.0
22.816,2.686,-0.169,0.0
45.665,5.364,0.92,9.0
44.174,5.183,0.637,4.0
35.187,4.125,0.306,0.0
29.254,3.426,0.085,1.0
25.547,2.989,-0.071,0.0
22.131,2.587,-0.188,0.0
45.459,5.303,0.867,7.0
43.173,5.031,0.576,1.0
34.397,4.004,0.263,0.0
29.09,3.383,0.053,1.0
24.341,2.828,-0.094,1.0
21.477,2.493,-0.206,0.0
44.779,5.185,0.806,3.0
41.155,4.76,0.505,0.0
32.742,3.783,0.215,1.0
27.771,3.205,0.021,0.0
23.946,2.761,-0.118,1.0
20.96,2.415,-0.223,0.0
44.463,5.109,0.753,4.0
41.279,4.737,0.463,0.0
32.019,3.67,0.176,0.0
26.641,3.051,-0.007,0.0
23.604,2.7,-0.141,1.0
20.629,2.357,-0.241,0.0
44.446,5.065,0.706,5.0
37.683,4.289,0.384,0.0
29.403,3.343,0.132,3.0
26.112,2.965,-0.034,1.0
23.153,2.626,-0.162,0.0
20.208,2.29,-0.256,0.0
44.464,5.024,0.662,5.0
0.0,0.0,0.0,0.0
29.36,3.309,0.102,5.0
25.835,2.908,-0.059,1.0
22.07,2.482,-0.177,0.0
19.726,2.215,-0.27,0.0
44.359,4.967,0.616,3.0
34.072,3.81,0.278,0.0
29.268,3.268,0.072,4.0
24.538,2.737,-0.081,0.0
21.498,2.395,-0.193,1.0
19.304,2.148,-0.283,0.0
42.067,4.666,0.542,1.0
33.021,3.657,0.237,1.0
28.678,3.172,0.043,1.0
24.183,2.671,-0.103,2.0
21.365,2.357,-0.213,2.0
18.867,2.079,-0.295,0.0
41.725,4.582,0.497,0.0
32.283,3.54,0.201,1.0
27.556,3.017,0.015,0.0
23.956,2.619,-0.125,1.0
21.275,2.323,-0.232,0.0
18.444,2.011,-0.306,0.0
38.701,4.206,0.425,0.0
29.369,3.187,0.155,0.0
26.317,2.851,-0.01,1.0
23.368,2.528,-0.144,0.0
20.655,2.232,-0.244,0.0
18.222,1.966,-0.319,0.0
36.294,3.901,0.365,0.0
29.362,3.151,0.128,1.0
26.024,2.789,-0.033,1.0
22.903,2.451,-0.162,0.0
20.223,2.161,-0.258,0.0
17.829,1.902,-0.328,0.0
35.426,3.765,0.324,0.0
29.271,3.106,0.102,1.0
25.718,2.725,-0.056,1.0
21.887,2.315,-0.174,1.0
19.735,2.085,-0.269,0.0
17.521,1.848,-0.338,0.0
33.135,3.481,0.275,0.0
29.092,3.051,0.076,1.0
24.939,2.611,-0.076,0.0
21.755,2.274,-0.192,4.0
19.474,2.032,-0.282,0.0
17.315,1.804,-0.349,0.0
33.136,3.438,0.246,0.0
28.331,2.934,0.05,0.0
24.369,2.519,-0.094,0.0
21.485,2.217,-0.207,4.0
19.12,1.97,-0.293,0.0
17.078,1.757,-0.359,0.0
32.247,3.303,0.213,1.0
27.491,2.81,0.026,0.0
24.044,2.454,-0.113,0.0
21.255,2.165,-0.222,2.0
18.574,1.889,-0.3,0.0
16.818,1.707,-0.367,0.0
31.592,3.193,0.183,0.0
26.593,2.682,0.004,0.0
23.594,2.376,-0.13,0.0
20.926,2.103,-0.236,0.0
18.321,1.838,-0.31,0.0
16.604,1.663,-0.375,0.0
29.265,2.917,0.147,0.0
26.168,2.603,-0.016,1.0
22.878,2.271,-0.143,0.0
20.654,2.047,-0.248,0.0
17.978,1.778,-0.318,0.0
16.4,1.619,-0.383,0.0
29.289,2.878,0.125,5.0
25.842,2.534,-0.035,1.0
22.409,2.193,-0.157,0.0
0.0,0.0,0.0,0.0
17.894,1.744,-0.329,0.0
16.184,1.574,-0.389,0.0
29.245,2.83,0.104,5.0
25.548,2.468,-0.053,1.0
22.18,2.138,-0.171,3.0
19.608,1.886,-0.264,0.0
17.557,1.685,-0.335,0.0
16.079,1.54,-0.398,0.0
29.164,2.779,0.084,3.0
24.889,2.367,-0.068,0.0
21.941,2.082,-0.184,4.0
19.304,1.828,-0.273,0.0
17.408,1.645,-0.344,0.0
15.875,1.497,-0.404,0.0
28.962,2.716,0.064,1.0
24.622,2.303,-0.084,0.0
21.734,2.028,-0.197,4.0
19.076,1.776,-0.282,0.0
17.204,1.599,-0.351,0.0
15.792,1.464,-0.412,0.0
27.542,2.54,0.043,0.0
24.328,2.238,-0.098,0.0
21.623,1.984,-0.209,2.0
18.892,1.73,-0.291,0.0
17.031,1.556,-0.358,0.0
15.673,1.428,-0.418,0.0
26.971,2.444,0.026,0.0
24.07,2.176,-0.112,0.0
21.411,1.931,-0.22,1.0
18.452,1.66,-0.295,0.0
16.875,1.514,-0.365,0.0
15.496,1.387,-0.422,0.0
26.367,2.347,0.01,1.0
23.603,2.095,-0.123,0.0
21.105,1.869,-0.229,0.0
18.32,1.618,-0.303,0.0
16.683,1.47,-0.37,0.0
15.34,1.348,-0.427,0.0
26.432,2.309,-0.003,1.0
23.19,2.021,-0.133,0.0
20.814,1.809,-0.237,0.0
18.122,1.571,-0.31,0.0
16.553,1.431,-0.376,0.0
15.15,1.306,-0.429,0.0
26.124,2.239,-0.017,1.0
23.012,1.966,-0.144,0.0
20.329,1.732,-0.241,0.0
17.954,1.526,-0.316,0.0
16.451,1.394,-0.381,0.0
15.049,1.272,-0.433,0.0
25.783,2.166,-0.029,0.0
22.737,1.904,-0.153,1.0
20.142,1.682,-0.248,0.0
17.799,1.482,-0.321,0.0
16.218,1.347,-0.383,0.0
14.987,1.241,-0.438,0.0
25.578,2.104,-0.04,0.0
22.662,1.859,-0.162,1.0
19.796,1.619,-0.253,0.0
17.734,1.446,-0.327,0.0
16.169,1.315,-0.389,0.0
14.853,1.204,-0.441,0.0
25.413,2.047,-0.05,0.0
22.556,1.811,-0.17,1.0
19.543,1.564,-0.257,0.0
17.58,1.403,-0.331,0.0
16.093,1.28,-0.393,0.0
14.857,1.178,-0.446,0.0
25.189,1.984,-0.059,0.0
22.396,1.758,-0.178,0.0
19.457,1.522,-0.263,0.0
17.454,1.362,-0.335,0.0
16.057,1.248,-0.398,0.0
14.676,1.137,-0.446,0.0
24.895,1.916,-0.067,0.0
22.176,1.701,-0.183,0.0
19.207,1.468,-0.266,0.0
17.321,1.32,-0.338,0.0
15.902,1.208,-0.399,0.0
14.694,1.112,-0.451,0.0
24.614,1.85,-0.074,1.0
21.922,1.641,-0.188,0.0
19.282,1.438,-0.273,0.0
17.24,1.282,-0.342,0.0
15.853,1.174,-0.403,0.0
14.549,1.074,-0.451,0.0
24.483,1.794,-0.08,1.0
21.857,1.596,-0.193,0.0
19.227,1.399,-0.277,0.0
17.129,1.242,-0.344,0.0
15.819,1.142,-0.406,0.0
14.487,1.043,-0.452,0.0
24.289,1.735,-0.085,1.0
21.736,1.547,-0.197,0.0
18.95,1.343,-0.277,0.0
17.015,1.202,-0.345,0.0
15.745,1.108,-0.407,0.0
14.489,1.016,-0.455,0.0
24.202,1.684,-0.089,1.0
21.717,1.505,-0.201,0.0
18.757,1.295,-0.278,0.0
17.033,1.171,-0.349,0.0
15.737,1.078,-0.41,0.0
14.429,0.984,-0.456,0.0
24.217,1.639,-0.093,1.0
21.65,1.46,-0.203,0.0
18.905,1.269,-0.283,0.0
16.93,1.132,-0.349,0.0
15.667,1.043,-0.41,0.0
14.397,0.955,-0.456,0.0
24.309,1.6,-0.097,0.0
21.62,1.416,-0.206,0.0
18.822,1.228,-0.283,0.0
16.923,1.099,-0.35,0.0
15.671,1.014,-0.411,0.0
14.417,0.929,-0.458,0.0
24.438,1.561,-0.099,0.0
21.467,1.365,-0.206,0.0
18.727,1.186,-0.283,0.0
16.88,1.064,-0.351,0.0
15.644,0.982,-0.412,0.0
14.297,0.893,-0.455,0.0
24.313,1.506,-0.1,0.0
21.456,1.323,-0.207,2.0
18.734,1.15,-0.284,0.0
16.847,1.029,-0.35,0.0
15.595,0.948,-0.41,0.0
14.272,0.864,-0.455,0.0
24.334,1.46,-0.1,0.0
21.541,1.286,-0.208,2.0
18.708,1.112,-0.284,0.0
16.876,0.998,-0.351,0.0
15.694,0.924,-0.413,0.0
14.338,0.84,-0.456,0.0
24.328,1.413,-0.099,0.0
21.61,1.249,-0.208,3.0
18.764,1.079,-0.284,0.0
16.891,0.966,-0.35,0.0
15.638,0.89,-0.411,0.0
14.385,0.815,-0.457,0.0
24.373,1.368,-0.098,0.0
21.606,1.206,-0.206,4.0
18.728,1.04,-0.282,0.0
16.934,0.935,-0.35,0.0
15.728,0.864,-0.411,0.0
14.322,0.783,-0.454,0.0
24.481,1.326,-0.096,0.0
21.668,1.167,-0.204,3.0
18.866,1.01,-0.282,0.0
16.932,0.902,-0.347,0.0
15.663,0.83,-0.408,0.0
14.325,0.754,-0.452,0.0
24.524,1.279,-0.093,0.0
21.733,1.127,-0.201,2.0
18.865,0.972,-0.278,0.0
16.996,0.871,-0.346,0.0
15.658,0.798,-0.405,0.0
14.546,0.737,-0.456,0.0
24.672,1.238,-0.089,0.0
21.793,1.087,-0.198,2.0
18.895,0.937,-0.275,0.0
17.028,0.839,-0.343,0.0
15.72,0.77,-0.403,0.0
14.497,0.706,-0.451,0.0
24.811,1.196,-0.084,0.0
21.818,1.045,-0.193,1.0
19.019,0.905,-0.273,0.0
17.083,0.807,-0.34,0.0
15.825,0.743,-0.402,0.0
14.569,0.68,-0.45,0.0
24.958,1.153,-0.078,0.0
22.065,1.012,-0.19,1.0
19.291,0.879,-0.271,0.0
17.116,0.775,-0.336,0.0
15.886,0.714,-0.399,0.0
14.723,0.657,-0.45,0.0
25.136,1.111,-0.071,1.0
22.092,0.969,-0.183,0.0
19.447,0.847,-0.267,0.0
17.224,0.745,-0.333,0.0
15.912,0.683,-0.394,0.0
14.605,0.622,-0.442,0.0
25.168,1.061,-0.063,0.0
22.136,0.927,-0.176,0.0
19.574,0.813,-0.262,0.0
17.346,0.715,-0.329,0.0
15.99,0.654,-0.391,0.0
14.768,0.6,-0.441,0.0
25.474,1.023,-0.054,0.0
22.407,0.893,-0.17,0.0
19.684,0.778,-0.256,0.0
17.51,0.687,-0.325,0.0
16.089,0.626,-0.387,0.0
14.803,0.571,-0.436,0.0
25.809,0.984,-0.044,6.0
22.633,0.856,-0.162,0.0
19.797,0.743,-0.249,0.0
17.737,0.66,-0.322,0.0
16.173,0.596,-0.381,0.0
14.855,0.543,-0.431,0.0
25.978,0.938,-0.033,0.0
22.994,0.824,-0.154,0.0
20.143,0.715,-0.244,0.0
17.837,0.627,-0.315,0.0
16.339,0.57,-0.377,0.0
14.928,0.516,-0.426,0.0
26.255,0.895,-0.02,0.0
23.237,0.785,-0.144,0.0
20.473,0.685,-0.238,0.0
18.033,0.598,-0.309,0.0
16.443,0.54,-0.371,0.0
15.145,0.492,-0.424,0.0
26.533,0.851,-0.006,0.0
23.441,0.745,-0.133,0.0
20.751,0.652,-0.23,0.0
18.134,0.564,-0.301,0.0
16.545,0.51,-0.364,0.0
15.267,0.465,-0.419,0.0
26.84,0.807,0.008,0.0
23.676,0.704,-0.12,0.0
21.102,0.621,-0.222,0.0
18.314,0.533,-0.293,0.0
16.713,0.481,-0.358,0.0
15.462,0.44,-0.415,0.0
27.129,0.761,0.024,0.0
23.986,0.665,-0.107,0.0
21.631,0.593,-0.214,0.0
18.515,0.502,-0.285,0.0
16.852,0.451,-0.35,0.0
15.634,0.414,-0.41,0.0
27.422,0.715,0.042,0.0
24.528,0.631,-0.094,0.0
21.837,0.555,-0.202,0.0
18.861,0.473,-0.278,0.0
17.022,0.422,-0.343,0.0
15.736,0.385,-0.402,0.0
28.168,0.678,0.063,0.0
25.085,0.595,-0.079,0.0
22.122,0.518,-0.189,0.0
19.154,0.442,-0.268,0.0
17.214,0.392,-0.334,0.0
15.922,0.358,-0.395,0.0
28.699,0.634,0.084,2.0
25.419,0.553,-0.061,0.0
22.54,0.483,-0.176,0.0
19.655,0.415,-0.261,0.0
17.457,0.363,-0.326,0.0
16.056,0.329,-0.386,0.0
28.803,0.578,0.107,1.0
25.808,0.51,-0.042,0.0
23.052,0.448,-0.162,0.0
19.94,0.381,-0.249,0.0
17.765,0.334,-0.318,0.0
16.27,0.3,-0.378,0.0
28.793,0.522,0.129,0.0
26.025,0.463,-0.022,0.0
23.49,0.41,-0.146,0.0
20.414,0.35,-0.239,0.0
18.034,0.304,-0.308,0.0
16.472,0.272,-0.369,0.0
28.862,0.467,0.153,1.0
26.75,0.424,-0.001,0.0
23.89,0.371,-0.129,0.0
20.844,0.317,-0.226,0.0
18.348,0.273,-0.297,0.0
16.619,0.242,-0.359,0.0
28.983,0.412,0.179,0.0
27.227,0.378,0.022,0.0
24.34,0.331,-0.11,0.0
21.701,0.288,-0.216,1.0
18.64,0.241,-0.286,0.0
16.852,0.213,-0.348,0.0
30.745,0.378,0.217,0.0
27.789,0.333,0.048,0.0
24.915,0.29,-0.09,0.0
22.014,0.25,-0.199,2.0
18.897,0.208,-0.272,0.0
17.055,0.183,-0.337,0.0
32.022,0.332,0.256,0.0
28.749,0.288,0.077,4.0
25.479,0.248,-0.068,0.0
22.313,0.21,-0.181,2.0
19.25,0.175,-0.259,0.0
17.426,0.153,-0.327,0.0
32.838,0.278,0.295,0.0
28.817,0.235,0.105,5.0
25.975,0.204,-0.044,0.0
22.925,0.172,-0.163,0.0
20.126,0.145,-0.25,0.0
17.744,0.122,-0.315,0.0
33.996,0.223,0.339,0.0
28.839,0.18,0.134,0.0
26.525,0.157,-0.017,0.0
23.27,0.131,-0.142,0.0
20.892,0.111,-0.238,0.0
18.207,0.091,-0.305,0.0
34.833,0.163,0.384,0.0
30.272,0.132,0.172,0.0
27.141,0.11,0.01,0.0
23.916,0.09,-0.12,0.0
21.266,0.073,-0.22,4.0
18.586,0.058,-0.291,0.0
36.444,0.103,0.44,0.0
0.0,0.0,0.0,0.0
27.843,0.062,0.04,1.0
24.721,0.047,-0.097,0.0
21.697,0.035,-0.201,1.0
18.958,0.024,-0.276,0.0
36.956,0.036,0.487,0.0
31.881,0.021,0.251,0.0
28.438,0.01,0.073,1.0
25.343,0.002,-0.071,0.0
22.707,-0.005,-0.184,0.0
19.564,-0.01,-0.263,0.0
39.414,-0.032,0.564,0.0
33.156,-0.037,0.299,0.0
28.781,-0.041,0.107,6.0
25.94,-0.045,-0.043,0.0
23.148,-0.047,-0.161,0.0
20.153,-0.047,-0.247,0.0
0.0,0.0,0.0,0.0
33.459,-0.098,0.341,0.0
28.892,-0.093,0.141,4.0
26.731,-0.094,-0.013,0.0
23.901,-0.091,-0.138,0.0
21.106,-0.086,-0.234,0.0
0.0,0.0,0.0,0.0
35.855,-0.168,0.408,0.0
30.911,-0.154,0.188,1.0
27.348,-0.144,0.019,0.0
24.472,-0.136,-0.112,0.0
21.948,-0.129,-0.216,1.0
44.455,-0.274,0.796,0.0
36.829,-0.237,0.464,0.0
31.66,-0.213,0.232,2.0
28.519,-0.201,0.055,3.0
25.066,-0.184,-0.083,0.0
22.363,-0.17,-0.192,0.0
0.0,0.0,0.0,0.0
38.093,-0.312,0.529,0.0
32.439,-0.274,0.279,1.0
28.712,-0.251,0.092,6.0
25.85,-0.234,-0.052,0.0
23.009,-0.215,-0.168,0.0
0.0,0.0,0.0,0.0
39.287,-0.389,0.596,0.0
33.363,-0.34,0.33,0.0
28.99,-0.304,0.131,0.0
26.674,-0.287,-0.019,0.0
23.804,-0.263,-0.142,0.0
0.0,0.0,0.0,0.0
0.0,0.0,0.0,0.0
34.227,-0.406,0.384,0.0
30.674,-0.373,0.18,0.0
27.315,-0.339,0.016,0.0
24.392,-0.31,-0.113,0.0
0.0,0.0,0.0,0.0
45.105,-0.597,0.805,0.0
37.477,-0.507,0.472,0.0
31.736,-0.438,0.229,0.0
28.352,-0.399,0.055,1.0
25.176,-0.362,-0.082,0.0
63.827,-0.933,1.564,0.0
47.37,-0.705,0.911,0.0
0.0,0.0,0.0,0.0
32.718,-0.505,0.282,1.0
28.654,-0.45,0.096,0.0
26.093,-0.417,-0.049,0.0
0.0,0.0,0.0,0.0
0.0,0.0,0.0,0.0
0.0,0.0,0.0,0.0
33.812,-0.576,0.339,1.0
0.0,0.0,0.0,0.0
26.554,-0.467,-0.012,0.0
0.0,0.0,0.0,0.0
0.0,0.0,0.0,0.0
0.0,0.0,0.0,0.0
0.0,0.0,0.0,0.0
31.106,-0.587,0.193,0.0
27.778,-0.531,0.027,0.0
90.121,-1.746,2.593,1.0
0.0,0.0,0.0,0.0
0.0,0.0,0.0,0.0
37.963,-0.764,0.49,0.0
32.655,-0.666,0.251,1.0
28.655,-0.591,0.07,5.0
91.271,-1.906,2.759,1.0
0.0,0.0,0.0,0.0
49.102,-1.05,0.969,0.0
0.0,0.0,0.0,0.0
33.378,-0.731,0.306,1.0
28.734,-0.636,0.112,8.0
96.747,-2.164,3.068,5.0
0.0,0.0,0.0,0.0
0.0,0.0,0.0,0.0
0.0,0.0,0.0,0.0
35.073,-0.819,0.374,0.0
28.792,-0.679,0.156,0.0
106.888,-2.547,3.552,2.0
0.0,0.0,0.0,0.0
0.0,0.0,0.0,0.0
0.0,0.0,0.0,0.0
36.344,-0.901,0.443,0.0
31.299,-0.784,0.218,0.0
92.439,-2.334,3.213,150.0
0.0,0.0,0.0,0.0
0.0,0.0,0.0,0.0
0.0,0.0,0.0,0.0
38.523,-1.009,0.529,0.0
33.107,-0.875,0.281,0.0
92.381,-2.462,3.355,178.0
93.028,-2.501,2.892,2.0
0.0,0.0,0.0,0.0
0.0,0.0,0.0,0.0
40.658,-1.121,0.622,0.0
34.336,-0.954,0.346,0.0
92.329,-2.588,3.5,20.0
92.341,-2.608,3.016,7.0
0.0,0.0,0.0,0.0
0.0,0.0,0.0,0.0
0.0,0.0,0.0,0.0
36.007,-1.049,0.421,0.0
92.33,-2.711,3.647,16.0
92.229,-2.728,3.161,38.0
0.0,0.0,0.0,0.0
0.0,0.0,0.0,0.0
0.0,0.0,0.0,0.0
0.0,0.0,0.0,0.0
92.337,-2.831,3.797,10.0
92.209,-2.847,3.309,43.0
93.048,-2.891,2.853,1.0
0.0,0.0,0.0,0.0
0.0,0.0,0.0,0.0
0.0,0.0,0.0,0.0
0.0,0.0,0.0,0.0
92.262,-2.965,3.463,172.0
92.652,-2.996,2.994,8.0
0.0,0.0,0.0,0.0
0.0,0.0,0.0,0.0
0.0,0.0,0.0,0.0
0.0,0.0,0.0,0.0
92.244,-3.076,3.612,150.0
92.16,-3.092,3.129,40.0
0.0,0.0,0.0,0.0
0.0,0.0,0.0,0.0
0.0,0.0,0.0,0.0
190.166,-6.529,8.754,18.0
92.268,-3.186,3.766,16.0
92.223,-3.202,3.284,150.0
0.0,0.0,0.0,0.0
0.0,0.0,0.0,0.0
0.0,0.0,0.0,0.0
113.5,-4.028,5.415,5.0
0.0,0.0,0.0,0.0
92.21,-3.307,3.438,173.0
92.754,-3.344,2.967,3.0
0.0,0.0,0.0,0.0
0.0,0.0,0.0,0.0
113.389,-4.153,5.604,30.0
113.382,-4.173,5.013,6.0
92.17,-3.409,3.595,61.0
92.095,-3.422,3.104,42.0
0.0,0.0,0.0,0.0
0.0,0.0,0.0,0.0
113.379,-4.276,5.797,24.0
113.492,-4.3,5.212,19.0
92.189,-3.509,3.754,16.0
92.115,-3.521,3.261,72.0
0.0,0.0,0.0,0.0
0.0,0.0,0.0,0.0
113.652,-4.406,6.007,11.0
194.862,-7.585,9.282,12.0
0.0,0.0,0.0,0.0
92.166,-3.618,3.421,50.0
92.564,-3.649,2.955,1.0
0.0,0.0,0.0,0.0
113.675,-4.522,6.205,9.0
113.417,-4.53,5.601,7.0
93.265,-3.739,4.119,1.0
92.182,-3.709,3.583,16.0
92.168,-3.723,3.102,43.0
0.0,0.0,0.0,0.0
90.08,-3.67,5.073,11.0
120.275,-4.919,6.147,8.0
120.315,-4.939,5.524,9.0
92.34,-3.804,3.75,12.0
92.19,-3.811,3.264,174.0
0.0,0.0,0.0,0.0
89.992,-3.751,5.225,20.0
120.224,-5.027,6.354,12.0
120.217,-5.044,5.728,33.0
92.933,-3.913,3.936,5.0
92.2,-3.895,3.425,61.0
92.454,-3.918,2.954,1.0
89.767,-3.822,5.37,12.0
90.13,-3.85,4.922,15.0
120.212,-5.149,5.938,20.0
120.33,-5.17,5.306,6.0
92.397,-3.982,3.593,3.0
92.273,-3.989,3.11,18.0
97.64,-4.24,6.012,18.0
89.933,-3.917,5.069,10.0
120.285,-5.254,6.154,7.0
194.485,-8.518,8.919,8.0
0.0,0.0,0.0,0.0
92.387,-4.07,3.275,6.0
94.711,-4.191,5.999,14.0
108.432,-4.81,6.302,10.0
111.85,-4.974,5.919,16.0
194.516,-8.675,9.262,7.0
0.0,0.0,0.0,0.0
92.959,-4.166,3.46,3.0
91.072,-4.1,5.929,28.0
94.825,-4.278,5.678,11.0
112.104,-5.07,6.129,17.0
164.316,-7.45,8.111,29.0
0.0,0.0,0.0,0.0
93.949,-4.279,3.661,3.0
90.84,-4.156,6.074,20.0
91.135,-4.178,5.618,20.0
108.388,-4.98,6.117,6.0
111.623,-5.14,5.707,19.0
164.342,-7.584,7.548,26.0
0.0,0.0,0.0,0.0
89.591,-4.161,6.148,22.0
90.888,-4.228,5.763,21.0
97.931,-4.565,5.699,8.0
112.477,-5.254,5.948,13.0
164.333,-7.692,7.837,6.0
0.0,0.0,0.0,0.0
89.118,-4.197,6.274,25.0
90.781,-4.283,5.918,13.0
91.179,-4.308,5.467,17.0
112.017,-5.302,6.123,4.0
189.665,-8.994,9.379,10.0
0.0,0.0,0.0,0.0
89.311,-4.26,6.446,25.0
91.362,-4.365,6.117,19.0
91.895,-4.397,5.674,14.0
97.803,-4.687,5.518,9.0
112.016,-5.376,5.737,6.0
0.0,0.0,0.0,0.0
89.557,-4.324,6.623,16.0
91.331,-4.414,6.277,9.0
91.617,-4.435,5.818,20.0
90.934,-4.408,5.291,10.0
112.549,-5.463,5.964,17.0
194.583,-9.457,9.299,10.0
89.976,-4.391,6.814,7.0
89.192,-4.358,6.288,19.0
91.413,-4.472,5.967,17.0
91.965,-4.504,5.514,13.0
112.447,-5.514,6.155,13.0
189.51,-9.305,9.386,15.0
88.157,-4.345,6.831,13.0
89.191,-4.401,6.444,21.0
91.574,-4.523,6.138,14.0
91.931,-4.544,5.673,17.0
97.878,-4.844,5.53,14.0
189.39,-9.383,9.713,15.0
0.0,0.0,0.0,0.0
89.039,-4.432,6.591,16.0
91.668,-4.567,6.306,12.0
108.805,-5.425,6.904,8.0
111.943,-5.586,6.52,12.0
164.137,-8.198,8.703,13.0
87.919,-4.409,7.121,11.0
88.147,-4.422,6.678,20.0
88.933,-4.465,6.272,14.0
108.646,-5.458,7.085,16.0
92.077,-4.629,5.524,13.0
164.21,-8.262,8.998,9.0
92.795,-4.687,7.68,5.0
88.629,-4.479,6.871,11.0
89.23,-4.511,6.45,15.0
91.941,-4.651,6.156,8.0
108.784,-5.505,6.715,8.0
112.119,-5.677,6.335,3.0
90.469,-4.599,7.646,16.0
89.333,-4.542,7.08,21.0
88.419,-4.497,6.545,10.0
88.219,-4.489,6.058,24.0
108.686,-5.531,6.896,19.0
112.306,-5.718,6.539,12.0
87.304,-4.463,7.529,8.0
89.391,-4.569,7.239,16.0
88.252,-4.512,6.684,17.0
88.375,-4.519,6.221,19.0
108.608,-5.554,7.076,12.0
112.053,-5.732,6.715,18.0
87.263,-4.482,7.675,17.0
90.567,-4.651,7.489,10.0
88.454,-4.542,6.849,13.0
88.557,-4.547,6.384,8.0
88.134,-4.526,5.892,14.0
112.194,-5.761,6.912,8.0
87.165,-4.494,7.814,17.0
88.827,-4.578,7.495,11.0
89.306,-4.602,7.066,19.0
0.0,0.0,0.0,0.0
88.251,-4.546,6.047,28.0
108.654,-5.597,6.876,19.0
89.403,-4.623,8.166,9.0
88.77,-4.589,7.64,13.0
89.668,-4.634,7.245,17.0
88.347,-4.563,6.665,16.0
88.302,-4.56,6.197,26.0
92.705,-4.786,6.021,13.0
87.46,-4.533,8.136,14.0
87.235,-4.519,7.655,13.0
90.557,-4.688,7.469,20.0
88.33,-4.571,6.812,15.0
88.532,-4.58,6.362,11.0
88.104,-4.556,5.87,12.0
87.515,-4.543,8.287,15.0
87.186,-4.523,7.796,16.0
88.79,-4.603,7.471,14.0
89.246,-4.623,7.029,16.0
88.857,-4.601,6.532,12.0
88.268,-4.567,6.025,27.0
84.959,-4.413,8.186,21.0
89.339,-4.637,8.135,11.0
88.788,-4.604,7.616,16.0
89.581,-4.642,7.202,19.0
88.389,-4.577,6.641,15.0
88.319,-4.57,6.171,28.0
84.927,-4.411,8.321,16.0
87.466,-4.539,8.107,13.0
87.286,-4.525,7.628,11.0
90.491,-4.687,7.422,17.0
88.3,-4.569,6.777,15.0
88.456,-4.573,6.322,11.0
88.811,-4.609,8.845,10.0
87.486,-4.535,8.249,22.0
87.182,-4.515,7.76,17.0
90.632,-4.688,7.579,13.0
89.165,-4.607,6.986,18.0
0.0,0.0,0.0,0.0
83.872,-4.346,8.489,15.0
84.958,-4.397,8.147,14.0
89.417,-4.621,8.101,6.0
88.781,-4.583,7.565,15.0
89.422,-4.611,7.148,22.0
88.329,-4.548,6.594,8.0
88.915,-4.596,9.141,12.0
84.967,-4.386,8.283,19.0
85.398,-4.403,7.872,7.0
87.331,-4.496,7.578,9.0
89.911,-4.622,7.326,11.0
88.266,-4.532,6.727,15.0
89.158,-4.595,9.305,11.0
84.553,-4.351,8.374,14.0
87.69,-4.505,8.219,10.0
87.235,-4.475,7.705,26.0
90.591,-4.64,7.521,10.0
89.342,-4.57,6.944,12.0
82.341,-4.228,8.72,11.0
84.057,-4.308,8.454,23.0
85.109,-4.355,8.106,9.0
87.194,-4.454,7.833,21.0
90.463,-4.613,7.646,14.0
89.349,-4.549,7.079,24.0
82.424,-4.212,8.854,25.0
83.675,-4.269,8.542,15.0
85.076,-4.332,8.232,24.0
87.224,-4.433,7.967,4.0
87.348,-4.431,7.514,17.0
89.325,-4.523,7.21,13.0
82.524,-4.195,8.988,24.0
0.0,0.0,0.0,0.0
84.759,-4.291,8.325,26.0
85.445,-4.318,7.928,9.0
87.293,-4.403,7.636,12.0
89.455,-4.503,7.35,13.0
82.637,-4.175,9.121,23.0
90.544,-4.565,9.509,22.0
84.373,-4.245,8.411,32.0
87.663,-4.4,8.262,13.0
87.191,-4.368,7.753,10.0
90.243,-4.512,7.544,21.0
81.607,-4.095,9.126,17.0
0.0,0.0,0.0,0.0
84.277,-4.208,8.523,13.0
85.136,-4.242,8.146,13.0
87.193,-4.336,7.877,13.0
90.021,-4.466,7.653,9.0
81.447,-4.055,9.224,29.0
82.534,-4.099,8.904,20.0
82.576,-4.091,8.466,13.0
85.303,-4.217,8.279,23.0
88.271,-4.353,8.096,10.0
87.28,-4.294,7.539,10.0
81.762,-4.037,9.373,39.0
82.667,-4.071,9.033,25.0
82.638,-4.06,8.585,8.0
85.23,-4.175,8.389,19.0
87.966,-4.299,8.187,10.0
87.241,-4.253,7.653,21.0
82.136,-4.018,9.528,31.0
82.7,-4.035,9.147,26.0
82.832,-4.031,8.716,13.0
79.456,-3.855,7.927,10.0
85.487,-4.137,8.07,14.0
87.249,-4.211,7.77,18.0
82.119,-3.977,9.636,16.0
81.526,-3.937,9.126,9.0
82.798,-3.988,8.822,17.0
79.559,-3.82,8.041,24.0
85.468,-4.092,8.18,12.0
87.325,-4.169,7.89,15.0
82.268,-3.942,9.76,9.0
81.617,-3.899,9.242,23.0
82.817,-3.943,8.931,17.0
79.479,-3.774,8.135,7.0
85.418,-4.044,8.284,12.0
87.333,-4.122,8.001,10.0
0.0,0.0,0.0,0.0
81.818,-3.862,9.368,28.0
82.793,-3.896,9.032,29.0
83.203,-3.902,8.62,11.0
78.948,-3.692,7.754,23.0
85.457,-3.984,7.934,6.0
81.064,-3.791,9.822,16.0
81.903,-3.817,9.479,25.0
82.738,-3.844,9.127,13.0
82.867,-3.838,8.685,23.0
79.1,-3.65,7.864,36.0
85.477,-3.932,8.038,11.0
81.0,-3.738,9.911,20.0
82.212,-3.781,9.613,28.0
82.727,-3.79,9.225,19.0
82.005,-3.745,8.692,20.0
79.391,-3.613,7.986,18.0
85.382,-3.872,8.128,14.0
80.978,-3.685,10.004,26.0
82.212,-3.728,9.708,26.0
82.667,-3.734,9.313,22.0
81.716,-3.678,8.755,30.0
79.581,-3.569,8.096,13.0
78.931,-3.528,7.603,14.0
81.035,-3.631,10.103,26.0
81.269,-3.629,9.689,16.0
81.793,-3.638,9.307,15.0
81.865,-3.628,8.861,25.0
79.701,-3.518,8.195,16.0
79.003,-3.475,7.696,22.0
81.929,-3.614,10.305,26.0
81.144,-3.565,9.763,30.0
80.957,-3.543,9.299,19.0
80.383,-3.504,8.788,10.0
79.752,-3.463,8.285,21.0
79.202,-3.426,7.799,19.0
82.086,-3.561,10.412,23.0
81.337,-3.513,9.872,14.0
80.825,-3.476,9.369,27.0
80.327,-3.441,8.865,21.0
79.866,-3.408,8.38,9.0
79.333,-3.371,7.893,20.0
81.688,-3.481,10.445,16.0
86.01,-3.649,10.526,18.0
80.993,-3.422,9.469,27.0
64.519,-2.714,7.185,5.0
79.982,-3.351,8.471,12.0
79.15,-3.301,7.953,24.0
81.178,-3.394,10.461,25.0
81.72,-3.401,10.083,11.0
81.278,-3.369,9.582,31.0
64.437,-2.659,7.238,16.0
80.132,-3.292,8.563,25.0
79.226,-3.241,8.035,28.0
81.225,-3.33,10.545,24.0
81.752,-3.336,10.163,19.0
81.517,-3.311,9.687,10.0
64.436,-2.605,7.297,18.0
79.668,-3.206,8.587,26.0
79.591,-3.189,8.144,32.0
81.308,-3.265,10.63,10.0
81.786,-3.268,10.242,20.0
77.654,-3.088,9.297,31.0
64.451,-2.551,7.356,7.0
79.444,-3.129,8.633,20.0
79.823,-3.129,8.237,24.0
80.949,-3.18,10.654,12.0
0.0,0.0,0.0,0.0
77.706,-3.022,9.37,28.0
77.386,-2.994,8.898,19.0
79.359,-3.056,8.69,17.0
79.44,-3.044,8.264,17.0
80.749,-3.099,10.695,37.0
79.9,-3.051,10.141,22.0
77.727,-2.953,9.436,12.0
77.468,-2.928,8.97,12.0
64.555,-2.428,7.12,13.0
64.739,-2.422,6.785,20.0
79.766,-2.989,10.628,18.0
79.945,-2.981,10.209,29.0
76.941,-2.853,9.4,17.0
77.618,-2.863,9.047,17.0
64.697,-2.373,7.185,27.0
64.831,-2.366,6.844,26.0
79.86,-2.918,10.701,18.0
80.18,-2.913,10.299,28.0
76.754,-2.774,9.433,26.0
81.324,-2.923,9.537,13.0
64.63,-2.31,7.223,25.0
64.476,-2.292,6.852,28.0
76.208,-2.712,10.265,11.0
80.229,-2.838,10.361,31.0
76.794,-2.702,9.491,25.0
77.084,-2.696,9.093,27.0
64.768,-2.252,7.282,23.0
64.3,-2.223,6.875,33.0
76.433,-2.645,10.347,13.0
80.37,-2.764,10.432,31.0
77.029,-2.634,9.571,20.0
77.097,-2.621,9.144,24.0
78.155,-2.641,8.837,13.0
64.101,-2.153,6.894,33.0
76.355,-2.567,10.384,29.0
80.345,-2.684,10.478,17.0
77.174,-2.562,9.635,25.0
77.21,-2.547,9.203,23.0
77.892,-2.555,8.853,30.0
63.929,-2.083,6.913,34.0
76.543,-2.495,10.454,12.0
75.73,-2.453,9.92,12.0
77.119,-2.482,9.672,18.0
77.551,-2.479,9.287,23.0
77.69,-2.468,8.873,26.0
64.017,-2.021,6.956,27.0
76.315,-2.409,10.464,27.0
75.853,-2.378,9.977,23.0
76.776,-2.392,9.669,19.0
77.398,-2.395,9.308,27.0
64.778,-1.991,7.43,20.0
64.053,-1.956,6.992,28.0
76.329,-2.33,10.504,23.0
76.85,-2.329,10.145,34.0
76.321,-2.297,9.648,26.0
74.098,-2.215,8.946,10.0
64.769,-1.923,7.459,25.0
64.189,-1.892,7.036,27.0
76.082,-2.242,10.504,14.0
76.794,-2.247,10.171,23.0
76.188,-2.213,9.664,24.0
74.059,-2.135,8.973,23.0
64.861,-1.857,7.497,19.0
64.328,-1.828,7.077,24.0
75.712,-2.149,10.484,22.0
76.488,-2.155,10.161,38.0
0.0,0.0,0.0,0.0
74.16,-2.058,9.013,30.0
76.228,-2.1,8.839,11.0
64.422,-1.761,7.111,26.0
75.883,-2.071,10.535,21.0
76.376,-2.068,10.173,29.0
74.464,-2.002,9.5,9.0
74.277,-1.98,9.052,35.0
74.057,-1.959,8.611,18.0
64.439,-1.691,7.133,26.0
76.114,-1.993,10.591,25.0
76.623,-1.99,10.23,23.0
74.383,-1.915,9.512,10.0
74.311,-1.898,9.078,37.0
74.117,-1.878,8.639,27.0
64.535,-1.622,7.161,33.0
76.184,-1.909,10.621,26.0
76.73,-1.908,10.264,30.0
74.339,-1.832,9.525,12.0
74.371,-1.817,9.103,34.0
74.226,-1.798,8.669,27.0
64.495,-1.549,7.171,20.0
76.083,-1.822,10.624,15.0
76.208,-1.808,10.21,18.0
74.141,-1.744,9.515,26.0
74.523,-1.738,9.136,27.0
74.353,-1.718,8.698,27.0
64.933,-1.487,7.232,17.0
72.981,-1.665,10.204,27.0
73.457,-1.66,9.854,14.0
74.127,-1.66,9.525,9.0
74.33,-1.649,9.124,34.0
74.588,-1.64,8.736,22.0
64.892,-1.413,7.236,27.0
72.872,-1.58,10.198,27.0
64.06,-1.376,8.601,11.0
63.902,-1.358,8.218,22.0
74.236,-1.563,9.12,33.0
64.663,-1.348,7.579,20.0
64.891,-1.34,7.241,25.0
72.927,-1.498,10.211,22.0
63.971,-1.301,8.594,15.0
64.001,-1.288,8.235,32.0
74.272,-1.48,9.129,36.0
74.387,-1.467,8.723,16.0
64.816,-1.265,7.236,27.0
73.452,-1.424,10.288,35.0
64.121,-1.23,8.616,19.0
64.179,-1.218,8.259,28.0
74.452,-1.397,9.152,29.0
74.463,-1.382,8.732,30.0
64.796,-1.19,7.233,33.0
73.94,-1.349,10.355,11.0
64.216,-1.158,8.627,29.0
64.184,-1.144,8.258,31.0
58.498,-1.031,7.188,7.0
74.078,-1.289,8.684,18.0
64.795,-1.116,7.229,28.0
72.755,-1.242,10.185,19.0
64.243,-1.084,8.626,30.0
64.059,-1.068,8.237,26.0
58.535,-0.964,7.188,29.0
59.73,-0.972,6.996,15.0
64.874,-1.043,7.232,28.0
64.005,-1.019,8.953,14.0
64.249,-1.009,8.62,18.0
64.005,-0.993,8.222,32.0
58.126,-0.89,7.13,32.0
59.735,-0.903,6.989,28.0
65.412,-0.976,7.283,24.0
63.942,-0.944,8.934,7.0
57.61,-0.838,7.72,27.0
64.195,-0.921,8.236,25.0
58.133,-0.824,7.121,32.0
59.727,-0.834,6.977,25.0
65.309,-0.9,7.259,25.0
64.27,-0.875,8.967,13.0
57.572,-0.772,7.703,29.0
64.106,-0.847,8.211,12.0
58.041,-0.755,7.097,32.0
59.783,-0.766,6.97,20.0
63.913,-0.807,7.089,8.0
64.034,-0.797,8.919,20.0
57.663,-0.707,7.7,31.0
62.395,-0.752,7.975,7.0
58.088,-0.689,7.087,32.0
59.805,-0.698,6.956,27.0
57.302,-0.659,6.339,15.0
63.585,-0.718,8.838,6.0
57.751,-0.641,7.695,31.0
58.552,-0.639,7.466,33.0
58.112,-0.622,7.072,30.0
59.751,-0.629,6.93,21.0
57.242,-0.592,6.314,26.0
62.928,-0.638,8.725,18.0
57.82,-0.575,7.684,32.0
57.995,-0.566,7.375,32.0
58.294,-0.558,7.073,25.0
63.095,-0.592,7.295,12.0
57.287,-0.527,6.297,24.0
62.882,-0.566,8.694,7.0
58.185,-0.512,7.71,32.0
57.584,-0.496,7.299,29.0
58.241,-0.491,7.043,12.0
63.327,-0.523,7.296,27.0
57.366,-0.462,6.282,25.0
58.065,-0.456,8.003,17.0
58.257,-0.447,7.694,27.0
57.6,-0.431,7.276,27.0
59.748,-0.437,7.198,19.0
59.821,-0.426,6.865,16.0
57.375,-0.399,6.256,28.0
58.124,-0.39,7.983,28.0
58.35,-0.381,7.677,27.0
57.594,-0.367,7.247,29.0
58.705,-0.362,7.043,27.0
59.665,-0.358,6.817,6.0
57.425,-0.335,6.232,24.0
58.211,-0.325,7.964,27.0
58.436,-0.316,7.658,29.0
57.689,-0.302,7.227,31.0
58.572,-0.297,6.995,32.0
59.554,-0.292,6.771,6.0
57.351,-0.271,6.193,24.0
58.257,-0.261,7.937,16.0
58.56,-0.251,7.64,13.0
57.947,-0.239,7.226,30.0
59.132,-0.234,7.027,34.0
56.882,-0.215,6.433,29.0
57.386,-0.207,6.162,25.0
51.312,-0.173,6.96,20.0
56.401,-0.18,7.324,21.0
57.151,-0.173,7.091,29.0
58.77,-0.168,6.947,34.0
56.897,-0.154,6.399,28.0
57.133,-0.144,6.098,31.0
51.363,-0.117,6.933,26.0
56.488,-0.119,7.297,21.0
0.0,0.0,0.0,0.0
59.123,-0.104,6.949,34.0
56.955,-0.092,6.367,24.0
56.54,-0.082,5.996,24.0
51.428,-0.06,6.905,22.0
48.87,-0.05,6.278,19.0
57.161,-0.049,7.012,30.0
59.455,-0.042,6.945,26.0
57.063,-0.031,6.337,27.0
56.631,-0.022,5.964,27.0
58.516,-0.007,7.813,10.0
48.98,0.002,6.255,17.0
0.0,0.0,0.0,0.0
59.553,0.021,6.911,27.0
57.094,0.029,6.296,24.0
56.715,0.038,5.929,29.0
58.411,0.055,7.752,12.0
48.985,0.053,6.216,21.0
57.077,0.071,6.913,16.0
57.099,0.08,6.58,20.0
57.101,0.089,6.251,23.0
56.657,0.097,5.876,24.0
62.673,0.124,8.265,15.0
49.041,0.105,6.182,21.0
57.033,0.13,6.859,16.0
59.788,0.145,6.839,11.0
57.1,0.147,6.202,21.0
56.585,0.154,5.82,26.0
55.793,0.168,7.308,4.0
56.804,0.179,7.11,18.0
59.657,0.197,7.122,6.0
57.213,0.197,6.493,17.0
59.027,0.211,6.358,7.0
56.708,0.212,5.781,30.0
59.933,0.241,7.795,15.0
57.355,0.238,7.126,31.0
56.929,0.245,6.743,15.0
56.417,0.25,6.35,22.0
56.72,0.26,6.056,26.0
56.774,0.268,5.734,24.0
51.178,0.257,6.607,5.0
56.947,0.293,7.02,28.0
56.369,0.298,6.622,7.0
56.574,0.307,6.312,31.0
56.667,0.315,5.995,30.0
56.854,0.323,5.686,30.0
51.235,0.307,6.563,8.0
57.005,0.349,6.97,30.0
56.108,0.35,6.534,9.0
56.49,0.36,6.245,30.0
56.771,0.369,5.948,30.0
56.524,0.375,5.596,25.0
58.383,0.405,7.417,8.0
52.504,0.371,6.364,9.0
56.177,0.404,6.483,13.0
56.565,0.413,6.194,31.0
56.888,0.423,5.9,29.0
56.577,0.428,5.54,26.0
58.324,0.459,7.347,12.0
52.528,0.42,6.311,10.0
56.193,0.456,6.423,8.0
56.731,0.467,6.15,31.0
57.125,0.477,5.862,28.0
56.604,0.48,5.481,24.0
58.24,0.512,7.27,9.0
52.504,0.468,6.248,24.0
56.207,0.507,6.361,8.0
57.085,0.522,6.123,19.0
57.878,0.535,5.872,13.0
56.619,0.53,5.417,21.0
58.388,0.565,7.221,24.0
57.314,0.561,6.753,9.0
56.209,0.557,6.295,13.0
57.111,0.572,6.059,13.0
57.844,0.585,5.801,10.0
57.564,0.588,5.44,24.0
52.499,0.553,6.429,8.0
48.536,0.517,5.66,19.0
56.436,0.607,6.253,27.0
57.143,0.62,5.993,19.0
57.525,0.63,5.7,31.0
57.341,0.634,5.349,31.0
49.244,0.56,5.969,14.0
52.091,0.598,6.01,6.0
56.544,0.655,6.194,30.0
50.209,0.586,5.203,21.0
56.793,0.669,5.555,30.0
57.591,0.685,5.299,31.0
52.243,0.637,6.266,15.0
52.538,0.646,5.994,5.0
57.258,0.709,6.198,31.0
50.156,0.626,5.132,16.0
56.526,0.711,5.456,26.0
58.028,0.736,5.264,32.0
52.272,0.679,6.201,5.0
52.452,0.686,5.915,22.0
57.305,0.754,6.128,20.0
50.158,0.665,5.067,13.0
56.499,0.754,5.379,29.0
61.525,0.827,5.501,16.0
48.766,0.671,5.719,29.0
56.658,0.784,6.314,9.0
50.252,0.699,5.306,18.0
61.95,0.868,6.174,12.0
56.716,0.8,5.322,28.0
59.059,0.837,5.199,21.0
48.712,0.706,5.645,16.0
56.844,0.828,6.255,10.0
50.268,0.737,5.238,20.0
62.008,0.914,6.093,9.0
57.352,0.85,5.301,31.0
58.992,0.879,5.111,22.0
52.422,0.797,6.0,11.0
50.143,0.766,5.446,21.0
50.256,0.772,5.164,27.0
56.83,0.877,5.503,20.0
58.118,0.901,5.289,31.0
59.059,0.92,5.032,27.0
50.231,0.797,5.677,28.0
50.304,0.803,5.39,24.0
57.319,0.918,5.807,9.0
56.777,0.914,5.416,29.0
58.438,0.944,5.233,25.0
59.114,0.96,4.95,17.0
50.122,0.829,5.589,22.0
50.28,0.835,5.313,24.0
49.557,0.825,4.947,5.0
57.219,0.957,5.372,31.0
58.585,0.984,5.159,25.0
59.132,0.997,4.864,14.0
50.15,0.86,5.517,25.0
57.412,0.988,5.979,14.0
49.534,0.856,4.869,9.0
57.303,0.993,5.292,31.0
59.043,1.027,5.109,30.0
59.062,1.031,4.768,6.0
50.283,0.892,5.454,24.0
57.347,1.02,5.884,6.0
57.22,1.021,5.537,16.0
57.277,1.025,5.202,16.0
62.599,1.124,5.321,10.0
63.096,1.136,4.995,25.0
50.26,0.92,5.372,24.0
57.368,1.052,5.796,14.0
57.513,1.058,5.474,23.0
0.0,0.0,0.0,0.0
62.704,1.16,5.23,15.0
62.922,1.166,4.883,18.0
50.156,0.944,5.281,15.0
49.281,0.929,4.9,20.0
57.401,1.085,5.371,31.0
59.008,1.118,5.172,28.0
67.728,1.287,5.541,14.0
76.844,1.463,5.84,20.0
50.107,0.968,5.195,13.0
61.019,1.181,5.968,19.0
57.296,1.111,5.268,19.0
62.62,1.216,5.385,18.0
63.105,1.228,5.059,20.0
76.847,1.499,5.715,11.0
57.059,1.128,5.82,5.0
61.051,1.209,5.868,8.0
59.038,1.171,5.33,19.0
63.645,1.265,5.368,39.0
63.046,1.255,4.949,32.0
83.322,1.661,6.056,26.0
49.319,0.996,4.947,23.0
57.611,1.165,5.442,31.0
62.84,1.272,5.567,11.0
63.403,1.286,5.24,38.0
62.927,1.278,4.834,9.0
82.758,1.683,5.875,19.0
61.001,1.256,6.015,19.0
57.305,1.181,5.315,17.0
72.308,1.492,6.283,9.0
63.18,1.305,5.115,16.0
83.505,1.726,6.273,29.0
82.517,1.708,5.718,15.0
61.055,1.279,5.915,17.0
59.229,1.241,5.391,26.0
63.948,1.341,5.446,14.0
76.824,1.613,6.087,23.0
83.424,1.753,6.123,27.0
82.416,1.733,5.569,28.0
57.654,1.226,5.485,24.0
59.498,1.266,5.312,17.0
63.235,1.346,5.276,18.0
76.881,1.637,5.958,19.0
83.124,1.771,5.956,15.0
83.223,1.775,5.479,24.0
57.156,1.232,5.337,25.0
62.829,1.354,5.498,7.0
63.165,1.362,5.159,18.0
83.382,1.798,6.314,24.0
77.058,1.662,5.385,11.0
83.149,1.794,5.326,25.0
59.372,1.294,5.437,6.0
63.744,1.389,5.464,8.0
76.859,1.675,6.139,25.0
83.443,1.819,6.169,27.0
82.366,1.796,5.608,18.0
83.169,1.813,5.178,20.0
59.516,1.31,5.341,14.0
63.252,1.392,5.307,21.0
76.893,1.692,6.001,24.0
83.023,1.826,5.986,12.0
82.575,1.816,5.472,27.0
83.663,1.84,5.057,15.0
65.276,1.448,5.739,8.0
63.087,1.399,5.177,26.0
83.355,1.848,6.352,9.0
82.419,1.826,5.791,15.0
82.95,1.837,5.344,34.0
83.928,1.858,4.917,14.0
73.016,1.63,6.284,10.0
76.793,1.713,6.159,17.0
83.375,1.859,6.198,28.0
82.387,1.836,5.636,24.0
82.861,1.845,5.184,27.0
82.614,1.838,4.687,11.0
63.241,1.418,5.324,18.0
76.898,1.723,6.023,14.0
82.883,1.856,6.006,15.0
82.343,1.841,5.478,32.0
82.463,1.842,5.004,14.0
83.119,1.856,4.56,29.0
63.085,1.419,5.191,24.0
74.727,1.678,5.712,10.0
82.384,1.849,5.816,12.0
82.849,1.857,5.356,41.0
82.41,1.844,4.847,9.0
83.286,1.863,4.413,17.0
76.768,1.729,6.172,16.0
83.372,1.874,6.214,29.0
82.391,1.85,5.66,26.0
82.753,1.855,5.193,30.0
82.81,1.854,4.713,16.0
85.5,1.912,4.369,7.0
76.891,1.73,6.035,13.0
82.818,1.861,6.015,15.0
82.367,1.848,5.501,33.0
82.384,1.845,5.012,14.0
83.123,1.858,4.572,30.0
88.717,1.981,4.363,21.0
74.726,1.678,5.722,10.0
82.439,1.848,5.829,12.0
82.807,1.852,5.37,34.0
0.0,0.0,0.0,0.0
83.277,1.856,4.42,14.0
88.521,1.969,4.183,22.0
83.404,1.866,6.224,28.0
82.395,1.839,5.666,23.0
82.937,1.847,5.218,27.0
83.056,1.846,4.733,13.0
85.431,1.895,4.37,8.0
88.434,1.957,4.008,2.0
83.013,1.846,6.034,15.0
82.44,1.829,5.509,28.0
83.265,1.843,5.077,15.0
83.217,1.838,4.581,27.0
88.631,1.952,4.362,20.0
0.0,0.0,0.0,0.0
82.459,1.82,5.832,14.0
83.036,1.828,5.387,28.0
83.968,1.843,4.957,15.0
83.351,1.825,4.425,12.0
88.523,1.933,4.183,23.0
0.0,0.0,0.0,0.0
82.386,1.801,5.665,16.0
83.181,1.814,5.234,20.0
0.0,0.0,0.0,0.0
89.344,1.936,4.568,6.0
88.621,1.915,4.014,1.0
0.0,0.0,0.0,0.0
82.669,1.787,5.521,25.0
83.967,1.809,5.117,18.0
82.983,1.782,4.572,27.0
88.611,1.897,4.356,23.0
0.0,0.0,0.0,0.0
0.0,0.0,0.0,0.0
83.318,1.777,5.399,28.0
84.155,1.789,4.961,18.0
83.33,1.765,4.426,21.0
88.595,1.87,4.18,17.0
0.0,0.0,0.0,0.0
0.0,0.0,0.0,0.0
83.287,1.75,5.232,20.0
82.741,1.732,4.714,16.0
88.707,1.85,4.535,5.0
56.067,1.164,2.534,0.0
0.0,0.0,0.0,0.0
54.495,1.123,1.828,1.0
83.904,1.732,5.104,23.0
83.502,1.717,4.592,15.0
88.758,1.818,4.363,22.0
55.985,1.141,2.42,0.0
0.0,0.0,0.0,0.0
54.502,1.102,1.721,0.0
84.182,1.705,4.955,16.0
83.377,1.68,4.42,11.0
88.968,1.786,4.198,11.0
55.721,1.113,2.298,0.0
0.0,0.0,0.0,0.0
54.299,1.075,1.607,0.0
84.342,1.671,4.796,18.0
85.393,1.683,4.357,7.0
0.0,0.0,0.0,0.0
0.0,0.0,0.0,0.0
0.0,0.0,0.0,0.0
54.431,1.052,1.501,0.0
84.991,1.642,4.662,16.0
90.964,1.749,4.459,12.0
0.0,0.0,0.0,0.0
0.0,0.0,0.0,0.0
0.0,0.0,0.0,0.0
54.546,1.026,1.397,0.0
85.334,1.605,4.511,14.0
90.87,1.7,4.275,7.0
0.0,0.0,0.0,0.0
0.0,0.0,0.0,0.0
0.0,0.0,0.0,0.0
54.659,0.999,1.292,0.0
91.107,1.663,4.636,12.0
0.0,0.0,0.0,0.0
0.0,0.0,0.0,0.0
0.0,0.0,0.0,0.0
54.797,0.975,1.505,0.0
54.648,0.966,1.182,0.0
91.064,1.608,4.453,16.0
0.0,0.0,0.0,0.0
0.0,0.0,0.0,0.0
55.022,0.952,1.721,1.0
54.911,0.943,1.398,4.0
0.0,0.0,0.0,0.0
76.604,1.303,3.592,18.0
0.0,0.0,0.0,0.0
0.0,0.0,0.0,0.0
55.102,0.917,1.615,1.0
54.959,0.908,1.291,0.0
0.0,0.0,0.0,0.0
76.553,1.251,3.438,8.0
55.7,0.903,2.177,1.0
0.0,0.0,0.0,0.0
55.219,0.881,1.509,0.0
58.816,0.931,1.265,0.0
0.0,0.0,0.0,0.0
0.0,0.0,0.0,0.0
0.0,0.0,0.0,0.0
0.0,0.0,0.0,0.0
0.0,0.0,0.0,0.0
0.0,0.0,0.0,0.0
38.323,0.573,0.525,0.0
0.0,0.0,0.0,0.0
0.0,0.0,0.0,0.0
0.0,0.0,0.0,0.0
0.0,0.0,0.0,0.0
0.0,0.0,0.0,0.0
0.0,0.0,0.0,0.0
0.0,0.0,0.0,0.0
0.0,0.0,0.0,0.0
56.135,0.775,1.535,1.0
0.0,0.0,0.0,0.0
40.719,0.55,0.636,0.0
33.502,0.448,0.328,0.0
56.338,0.747,2.087,0.0
56.209,0.737,1.755,0.0
57.146,0.741,1.452,1.0
0.0,0.0,0.0,0.0
38.16,0.484,0.522,0.0
31.79,0.398,0.25,0.0
56.585,0.702,1.987,0.0
56.523,0.693,1.656,0.0
57.5,0.696,1.35,1.0
0.0,0.0,0.0,0.0
0.0,0.0,0.0,0.0
28.938,0.337,0.172,1.0
56.822,0.654,1.886,0.0
57.099,0.649,1.564,0.0
0.0,0.0,0.0,0.0
0.0,0.0,0.0,0.0
33.832,0.368,0.333,0.0
28.851,0.309,0.116,6.0
57.342,0.607,1.794,0.0
57.447,0.599,1.464,0.0
0.0,0.0,0.0,0.0
38.506,0.389,0.53,0.0
31.785,0.316,0.253,0.0
28.281,0.276,0.061,1.0
57.77,0.557,1.699,3.0
57.725,0.547,1.362,0.0
0.0,0.0,0.0,0.0
35.734,0.326,0.424,0.0
28.909,0.259,0.175,0.0
26.857,0.236,0.007,0.0
57.885,0.5,1.592,0.0
0.0,0.0,0.0,0.0
0.0,0.0,0.0,0.0
33.706,0.273,0.337,0.0
28.835,0.229,0.121,5.0
25.862,0.201,-0.041,0.0
0.0,0.0,0.0,0.0
0.0,0.0,0.0,0.0
38.197,0.277,0.536,0.0
31.807,0.224,0.258,0.0
28.168,0.194,0.065,1.0
24.771,0.166,-0.085,0.0
0.0,0.0,0.0,0.0
0.0,0.0,0.0,0.0
36.409,0.225,0.444,0.0
29.143,0.174,0.183,0.0
27.116,0.157,0.013,0.0
23.487,0.132,-0.124,0.0
0.0,0.0,0.0,0.0
41.243,0.217,0.668,0.0
34.116,0.173,0.354,0.0
28.738,0.14,0.128,0.0
26.028,0.122,-0.033,0.0
22.914,0.103,-0.162,1.0
0.0,0.0,0.0,0.0
37.75,0.155,0.542,0.0
31.946,0.125,0.274,0.0
28.374,0.106,0.075,1.0
25.026,0.088,-0.078,0.0
21.795,0.073,-0.194,2.0
0.0,0.0,0.0,0.0
36.542,0.108,0.459,0.0
30.361,0.083,0.206,0.0
27.136,0.069,0.024,0.0
23.875,0.056,-0.117,1.0
21.005,0.045,-0.224,2.0
0.0,0.0,0.0,0.0
34.352,0.06,0.371,0.0
28.847,0.045,0.144,0.0
26.232,0.035,-0.022,0.0
23.328,0.026,-0.155,0.0
19.713,0.018,-0.245,0.0
38.706,0.028,0.574,0.0
33.061,0.017,0.299,0.0
28.565,0.009,0.092,1.0
25.183,0.002,-0.066,0.0
21.938,-0.002,-0.184,0.0
18.947,-0.005,-0.269,0.0
36.628,-0.018,0.48,0.0
31.127,-0.022,0.227,0.0
27.49,-0.026,0.041,0.0
24.097,-0.027,-0.105,0.0
21.147,-0.029,-0.214,1.0
18.299,-0.029,-0.291,0.0
34.91,-0.063,0.397,0.0
28.865,-0.058,0.161,2.0
26.521,-0.059,-0.004,0.0
23.527,-0.057,-0.142,0.0
20.179,-0.054,-0.239,0.0
17.644,-0.051,-0.311,0.0
33.215,-0.103,0.322,1.0
28.77,-0.096,0.112,7.0
25.552,-0.091,-0.047,0.0
22.495,-0.085,-0.174,0.0
19.28,-0.077,-0.26,0.0
17.145,-0.072,-0.331,0.0
31.599,-0.141,0.253,1.0
28.396,-0.133,0.064,1.0
24.755,-0.121,-0.087,0.0
21.753,-0.112,-0.204,1.0
18.404,-0.099,-0.279,0.0
16.711,-0.093,-0.35,0.0
28.939,-0.169,0.185,0.0
27.003,-0.164,0.016,0.0
23.918,-0.15,-0.123,0.0
20.536,-0.134,-0.226,0.0
17.938,-0.121,-0.301,0.0
16.319,-0.114,-0.368,0.0
28.781,-0.208,0.137,5.0
26.083,-0.194,-0.025,0.0
23.017,-0.177,-0.155,0.0
19.656,-0.156,-0.248,0.0
17.397,-0.142,-0.32,0.0
15.972,-0.134,-0.386,0.0
28.637,-0.248,0.091,5.0
24.919,-0.221,-0.064,0.0
22.314,-0.204,-0.186,0.0
18.821,-0.176,-0.267,0.0
16.913,-0.163,-0.338,0.0
15.571,-0.153,-0.401,0.0
27.5,-0.278,0.044,0.0
24.21,-0.251,-0.1,0.0
21.335,-0.226,-0.211,0.0
18.253,-0.198,-0.288,0.0
16.59,-0.184,-0.357,0.0
15.218,-0.173,-0.415,0.0
26.537,-0.308,0.002,0.0
23.311,-0.276,-0.132,0.0
20.183,-0.244,-0.23,0.0
17.73,-0.219,-0.306,0.0
16.168,-0.204,-0.373,0.0
14.753,-0.189,-0.425,0.0
25.662,-0.336,-0.036,0.0
23.033,-0.307,-0.165,1.0
19.496,-0.265,-0.252,0.0
17.195,-0.238,-0.323,0.0
15.845,-0.223,-0.388,0.0
14.5,-0.208,-0.439,0.0
24.924,-0.364,-0.071,0.0
22.071,-0.328,-0.19,1.0
18.697,-0.283,-0.269,0.0
16.821,-0.259,-0.34,0.0
15.537,-0.243,-0.404,0.0
14.09,-0.224,-0.447,0.0
24.0,-0.387,-0.103,0.0
21.248,-0.348,-0.213,0.0
18.181,-0.303,-0.287,0.0
16.503,-0.279,-0.357,0.0
14.995,-0.258,-0.411,0.0
13.864,-0.242,-0.46,0.0
23.522,-0.417,-0.134,0.0
19.885,-0.357,-0.228,0.0
17.77,-0.324,-0.306,0.0
16.185,-0.3,-0.373,0.0
14.706,-0.276,-0.424,0.0
13.546,-0.258,-0.468,0.0
22.747,-0.439,-0.161,0.0
19.449,-0.381,-0.25,0.0
17.279,-0.343,-0.321,0.0
15.873,-0.32,-0.388,0.0
14.444,-0.295,-0.436,0.0
13.33,-0.276,-0.479,0.0
22.083,-0.462,-0.187,0.0
18.871,-0.4,-0.268,0.0
16.908,-0.363,-0.337,0.0
15.548,-0.338,-0.401,0.0
14.212,-0.313,-0.448,0.0
13.054,-0.291,-0.487,0.0
21.125,-0.477,-0.207,0.0
18.276,-0.418,-0.284,0.0
16.585,-0.384,-0.353,0.0
0.0,0.0,0.0,0.0
13.923,-0.33,-0.457,0.0
12.928,-0.31,-0.499,0.0
20.163,-0.489,-0.223,0.0
17.881,-0.439,-0.301,0.0
16.308,-0.405,-0.368,0.0
14.842,-0.372,-0.421,0.0
13.714,-0.348,-0.468,0.0
12.819,-0.329,-0.511,0.0
19.606,-0.508,-0.242,0.0
17.452,-0.457,-0.315,0.0
15.946,-0.422,-0.379,0.0
14.521,-0.389,-0.43,0.0
13.445,-0.364,-0.476,0.0
12.561,-0.344,-0.516,0.0
19.22,-0.531,-0.261,0.0
17.067,-0.476,-0.329,0.0
15.673,-0.442,-0.392,0.0
14.302,-0.407,-0.441,0.0
13.298,-0.383,-0.486,0.0
12.379,-0.36,-0.524,0.0
18.516,-0.543,-0.273,0.0
16.721,-0.495,-0.342,0.0
15.306,-0.457,-0.401,0.0
13.979,-0.422,-0.447,0.0
13.019,-0.397,-0.491,0.0
12.27,-0.378,-0.533,0.0
18.199,-0.564,-0.289,0.0
16.474,-0.516,-0.356,0.0
14.956,-0.473,-0.408,0.0
13.857,-0.442,-0.459,0.0
12.879,-0.415,-0.501,0.0
12.064,-0.392,-0.538,0.0
17.804,-0.583,-0.303,0.0
16.184,-0.535,-0.367,0.0
14.78,-0.493,-0.42,0.0
13.679,-0.46,-0.468,0.0
12.703,-0.431,-0.507,0.0
11.934,-0.409,-0.545,0.0
17.391,-0.6,-0.314,0.0
15.878,-0.552,-0.377,0.0
14.524,-0.51,-0.428,0.0
13.472,-0.477,-0.476,0.0
12.588,-0.449,-0.516,0.0
11.809,-0.425,-0.552,0.0
17.054,-0.618,-0.326,0.0
15.675,-0.573,-0.389,0.0
14.32,-0.528,-0.437,0.0
13.292,-0.494,-0.483,0.0
12.425,-0.466,-0.522,0.0
11.662,-0.441,-0.557,0.0
16.857,-0.641,-0.339,0.0
15.37,-0.589,-0.396,0.0
14.114,-0.545,-0.444,0.0
13.007,-0.506,-0.485,0.0
12.334,-0.484,-0.53,0.0
11.537,-0.457,-0.562,0.0
16.602,-0.661,-0.35,0.0
15.036,-0.603,-0.402,0.0
13.949,-0.563,-0.453,0.0
12.944,-0.527,-0.495,0.0
12.153,-0.499,-0.534,0.0
11.425,-0.472,-0.567,0.0
16.365,-0.68,-0.36,0.0
14.853,-0.622,-0.411,0.0
13.798,-0.582,-0.46,0.0
12.858,-0.546,-0.503,0.0
11.978,-0.513,-0.537,0.0
11.268,-0.486,-0.569,0.0
16.147,-0.7,-0.369,0.0
14.736,-0.643,-0.42,0.0
13.594,-0.598,-0.465,0.0
12.696,-0.562,-0.508,0.0
11.894,-0.531,-0.544,0.0
11.189,-0.503,-0.575,0.0
15.945,-0.72,-0.378,0.0
14.595,-0.663,-0.429,0.0
13.459,-0.616,-0.472,0.0
12.567,-0.579,-0.513,0.0
11.813,-0.548,-0.55,0.0
11.06,-0.517,-0.578,0.0
15.678,-0.736,-0.384,0.0
14.377,-0.679,-0.434,0.0
13.373,-0.636,-0.479,0.0
12.39,-0.593,-0.516,0.0
11.712,-0.565,-0.554,0.0
10.994,-0.534,-0.583,0.0
15.578,-0.759,-0.394,0.0
14.219,-0.698,-0.44,0.0
13.198,-0.652,-0.483,0.0
12.271,-0.61,-0.52,0.0
11.554,-0.578,-0.555,0.0
10.89,-0.549,-0.585,0.0
15.384,-0.778,-0.4,0.0
14.108,-0.718,-0.446,0.0
13.061,-0.669,-0.487,0.0
12.251,-0.631,-0.528,0.0
11.522,-0.598,-0.562,0.0
10.838,-0.566,-0.59,0.0
15.022,-0.786,-0.401,0.0
13.914,-0.733,-0.45,0.0
12.948,-0.686,-0.492,0.0
12.164,-0.649,-0.532,0.0
11.421,-0.613,-0.564,0.0
10.83,-0.585,-0.597,0.0
14.915,-0.808,-0.407,0.0
13.787,-0.751,-0.454,0.0
12.852,-0.704,-0.496,0.0
12.001,-0.662,-0.532,0.0
11.326,-0.628,-0.567,0.0
10.67,-0.596,-0.594,0.0
14.77,-0.827,-0.412,0.0
13.717,-0.772,-0.46,0.0
12.739,-0.721,-0.499,0.0
11.955,-0.681,-0.538,0.0
11.243,-0.644,-0.569,0.0
10.626,-0.612,-0.598,0.0
14.702,-0.849,-0.419,0.0
13.599,-0.79,-0.464,0.0
12.654,-0.739,-0.503,0.0
11.868,-0.698,-0.54,0.0
11.16,-0.66,-0.571,0.0
10.544,-0.627,-0.599,0.0
14.634,-0.872,-0.424,0.0
13.497,-0.809,-0.467,0.0
12.587,-0.758,-0.507,0.0
11.82,-0.716,-0.544,0.0
11.087,-0.675,-0.573,0.0
10.497,-0.643,-0.602,0.0
14.496,-0.89,-0.427,0.0
13.468,-0.831,-0.473,0.0
12.568,-0.78,-0.512,0.0
11.729,-0.732,-0.545,0.0
11.072,-0.694,-0.577,0.0
10.417,-0.657,-0.602,0.0
14.407,-0.91,-0.431,0.0
13.373,-0.849,-0.475,0.0
12.443,-0.794,-0.512,0.0
11.717,-0.752,-0.549,0.0
11.0,-0.71,-0.578,0.0
10.456,-0.678,-0.608,0.0
14.342,-0.932,-0.435,0.0
13.284,-0.867,-0.477,0.0
12.384,-0.813,-0.515,0.0
11.593,-0.765,-0.548,0.0
11.007,-0.73,-0.582,0.0
10.394,-0.693,-0.608,0.0
14.242,-0.951,-0.437,0.0
13.288,-0.891,-0.482,0.0
12.308,-0.83,-0.516,0.0
11.602,-0.786,-0.552,0.0
10.964,-0.747,-0.584,0.0
10.36,-0.709,-0.61,0.0
14.185,-0.972,-0.44,0.0
13.195,-0.909,-0.483,0.0
12.365,-0.856,-0.522,0.0
11.569,-0.804,-0.554,0.0
10.867,-0.759,-0.582,0.0
10.327,-0.725,-0.611,0.0
14.148,-0.995,-0.442,0.0
13.157,-0.929,-0.485,0.0
12.31,-0.874,-0.523,0.0
11.533,-0.822,-0.556,0.0
10.888,-0.78,-0.586,0.0
10.289,-0.741,-0.611,0.0
14.106,-1.017,-0.444,0.0
13.063,-0.946,-0.485,0.0
12.2,-0.887,-0.521,0.0
11.545,-0.843,-0.559,0.0
10.832,-0.795,-0.585,0.0
10.256,-0.756,-0.611,0.0
14.066,-1.038,-0.446,0.0
13.044,-0.967,-0.486,0.0
12.205,-0.909,-0.523,0.0
11.437,-0.855,-0.556,0.0
10.858,-0.816,-0.588,0.0
10.27,-0.775,-0.614,0.0
14.007,-1.058,-0.446,0.0
13.093,-0.993,-0.49,0.0
12.225,-0.931,-0.526,0.0
11.455,-0.877,-0.558,0.0
10.79,-0.829,-0.586,0.0
10.282,-0.794,-0.616,0.0
14.013,-1.083,-0.448,0.0
13.082,-1.015,-0.491,0.0
12.136,-0.946,-0.523,0.0
11.408,-0.893,-0.557,0.0
10.777,-0.847,-0.586,0.0
10.18,-0.804,-0.611,0.0
13.968,-1.103,-0.448,0.0
13.042,-1.034,-0.491,0.0
12.199,-0.971,-0.527,0.0
11.375,-0.909,-0.556,0.0
10.776,-0.865,-0.587,0.0
10.259,-0.827,-0.616,0.0
13.976,-1.127,-0.448,0.0
12.989,-1.052,-0.489,0.0
12.185,-0.991,-0.527,0.0
11.416,-0.932,-0.558,0.0
10.737,-0.88,-0.585,0.0
10.173,-0.837,-0.611,0.0
13.986,-1.152,-0.449,0.0
12.969,-1.072,-0.488,0.0
12.141,-1.008,-0.524,0.0
11.407,-0.951,-0.557,0.0
10.783,-0.902,-0.587,0.0
10.061,-0.845,-0.604,0.0
14.024,-1.178,-0.449,0.0
13.032,-1.099,-0.49,0.0
12.161,-1.03,-0.525,0.0
11.476,-0.975,-0.56,0.0
10.795,-0.921,-0.587,0.0
10.201,-0.874,-0.611,0.0
14.012,-1.2,-0.448,0.0
13.096,-1.126,-0.491,0.0
12.228,-1.055,-0.526,0.0
11.461,-0.993,-0.558,0.0
10.694,-0.93,-0.58,0.0
10.24,-0.894,-0.612,0.0
14.057,-1.227,-0.448,0.0
13.045,-1.143,-0.488,0.0
12.236,-1.076,-0.525,0.0
11.486,-1.014,-0.558,0.0
10.789,-0.956,-0.584,0.0
10.232,-0.91,-0.61,0.0
14.043,-1.248,-0.445,0.0
13.063,-1.165,-0.486,0.0
12.23,-1.095,-0.523,0.0
11.501,-1.033,-0.556,0.0
10.764,-0.971,-0.58,0.0
10.216,-0.925,-0.608,0.0
14.137,-1.279,-0.445,0.0
13.086,-1.188,-0.484,0.0
12.269,-1.118,-0.522,0.0
11.49,-1.05,-0.553,0.0
10.805,-0.991,-0.58,0.0
10.197,-0.939,-0.604,0.0
14.159,-1.303,-0.443,0.0
13.16,-1.215,-0.484,0.0
12.253,-1.135,-0.518,0.0
11.558,-1.074,-0.554,0.0
10.84,-1.011,-0.579,0.0
10.191,-0.954,-0.601,0.0
14.198,-1.328,-0.44,0.0
13.167,-1.236,-0.481,0.0
12.354,-1.163,-0.519,0.0
11.54,-1.09,-0.55,0.0
10.926,-1.036,-0.581,0.0
10.342,-0.983,-0.607,0.0
14.271,-1.357,-0.438,0.0
13.229,-1.261,-0.479,0.0
12.333,-1.18,-0.514,0.0
11.604,-1.114,-0.549,0.0
10.911,-1.05,-0.576,0.0
10.327,-0.998,-0.603,0.0
14.254,-1.376,-0.433,0.0
13.255,-1.284,-0.475,0.0
12.328,-1.198,-0.51,0.0
11.648,-1.135,-0.547,0.0
11.014,-1.077,-0.578,0.0
10.397,-1.02,-0.603,0.0
14.411,-1.413,-0.432,0.0
13.417,-1.319,-0.476,0.0
12.414,-1.224,-0.508,0.0
11.655,-1.153,-0.543,0.0
11.076,-1.099,-0.577,0.0
10.472,-1.042,-0.603,0.0
14.449,-1.437,-0.427,0.0
13.446,-1.341,-0.471,0.0
12.565,-1.257,-0.509,0.0
11.751,-1.179,-0.542,0.0
11.075,-1.114,-0.572,0.0
10.47,-1.057,-0.598,0.0
14.548,-1.467,-0.423,0.0
13.586,-1.374,-0.47,0.0
12.594,-1.277,-0.505,0.0
11.809,-1.201,-0.539,0.0
11.071,-1.13,-0.566,0.0
10.59,-1.084,-0.6,0.0
14.629,-1.496,-0.419,0.0
13.639,-1.398,-0.465,0.0
12.685,-1.304,-0.502,0.0
11.803,-1.217,-0.533,0.0
11.211,-1.159,-0.568,0.0
10.683,-1.108,-0.6,0.0
14.839,-1.537,-0.417,0.0
13.779,-1.431,-0.463,0.0
12.811,-1.334,-0.5,0.0
11.976,-1.251,-0.535,0.0
11.25,-1.178,-0.564,0.0
10.609,-1.114,-0.59,0.0
14.942,-1.568,-0.412,0.0
13.863,-1.458,-0.458,0.0
12.977,-1.368,-0.5,0.0
12.084,-1.278,-0.532,0.0
11.403,-1.209,-0.565,0.0
10.704,-1.138,-0.589,0.0
15.093,-1.603,-0.407,0.0
13.946,-1.485,-0.453,0.0
12.974,-1.385,-0.492,0.0
12.134,-1.298,-0.528,0.0
11.421,-1.225,-0.559,0.0
10.684,-1.149,-0.581,0.0
15.226,-1.636,-0.402,0.0
14.06,-1.515,-0.448,0.0
13.126,-1.417,-0.489,0.0
12.212,-1.322,-0.523,0.0
11.522,-1.25,-0.557,0.0
10.76,-1.17,-0.579,0.0
15.39,-1.673,-0.396,0.0
14.197,-1.547,-0.443,0.0
13.17,-1.438,-0.483,0.0
12.305,-1.347,-0.519,0.0
11.611,-1.274,-0.553,0.0
10.872,-1.196,-0.577,0.0
15.531,-1.707,-0.389,0.0
14.252,-1.569,-0.435,0.0
13.333,-1.471,-0.48,0.0
12.401,-1.372,-0.515,0.0
11.678,-1.295,-0.548,0.0
