X,Y,Z,Reflectivity
18.659,0.347,-0.28,0.0
16.938,0.31,-0.345,0.0
15.72,0.283,-0.404,0.0
28.0,0.494,0.058,0.0
25.096,0.435,-0.081,0.0
22.174,0.378,-0.19,0.0
19.334,0.324,-0.271,0.0
17.198,0.282,-0.333,0.0
15.987,0.258,-0.394,0.0
28.81,0.455,0.09,3.0
25.662,0.397,-0.056,0.0
22.882,0.347,-0.172,0.0
19.927,0.296,-0.258,0.0
17.57,0.256,-0.321,0.0
16.209,0.231,-0.383,0.0
28.87,0.403,0.121,5.0
26.2,0.357,-0.029,0.0
23.426,0.313,-0.151,0.0
20.349,0.266,-0.242,0.0
18.019,0.23,-0.31,0.0
16.454,0.205,-0.37,0.0
28.934,0.351,0.153,4.0
26.812,0.317,0.0,0.0
23.902,0.276,-0.127,0.0
21.078,0.237,-0.227,0.0
18.476,0.202,-0.297,0.0
16.724,0.178,-0.358,0.0
31.083,0.321,0.199,0.0
27.639,0.277,0.03,0.0
24.615,0.239,-0.103,0.0
21.913,0.206,-0.21,3.0
18.952,0.173,-0.282,0.0
17.006,0.15,-0.343,0.0
32.445,0.276,0.246,0.0
28.654,0.235,0.065,1.0
25.389,0.201,-0.076,0.0
22.31,0.17,-0.187,2.0
19.389,0.142,-0.265,0.0
17.329,0.122,-0.329,0.0
32.627,0.219,0.287,0.0
28.752,0.185,0.101,1.0
25.933,0.159,-0.046,0.0
22.879,0.134,-0.164,0.0
20.019,0.111,-0.249,0.0
17.782,0.093,-0.316,0.0
34.308,0.17,0.344,0.0
28.884,0.135,0.137,0.0
26.681,0.117,-0.014,0.0
23.477,0.096,-0.139,0.0
20.952,0.08,-0.235,2.0
18.26,0.064,-0.301,0.0
36.272,0.117,0.41,0.0
30.436,0.09,0.183,0.0
27.338,0.073,0.02,0.0
24.287,0.058,-0.113,0.0
21.395,0.045,-0.212,4.0
18.733,0.034,-0.285,0.0
0.0,0.0,0.0,0.0
31.735,0.04,0.232,0.0
28.504,0.027,0.058,1.0
25.197,0.017,-0.084,0.0
22.089,0.009,-0.19,0.0
19.466,0.002,-0.27,0.0
0.0,0.0,0.0,0.0
33.006,-0.013,0.285,0.0
28.756,-0.019,0.096,3.0
25.845,-0.024,-0.052,0.0
23.238,-0.028,-0.169,0.0
20.04,-0.03,-0.251,0.0
0.0,0.0,0.0,0.0
33.267,-0.067,0.331,0.0
28.851,-0.066,0.135,4.0
26.56,-0.069,-0.017,0.0
23.853,-0.068,-0.141,0.0
20.839,-0.065,-0.232,0.0
0.0,0.0,0.0,0.0
35.618,-0.131,0.405,0.0
31.022,-0.123,0.189,0.0
27.591,-0.117,0.02,0.0
24.538,-0.11,-0.11,0.0
21.849,-0.104,-0.213,1.0
0.0,0.0,0.0,0.0
37.279,-0.198,0.476,0.0
31.781,-0.177,0.239,1.0
28.64,-0.167,0.062,4.0
25.149,-0.153,-0.077,0.0
22.369,-0.142,-0.186,0.0
0.0,0.0,0.0,0.0
0.0,0.0,0.0,0.0
32.789,-0.234,0.294,1.0
28.762,-0.213,0.104,6.0
26.177,-0.201,-0.042,0.0
23.281,-0.185,-0.159,0.0
0.0,0.0,0.0,0.0
0.0,0.0,0.0,0.0
34.26,-0.299,0.358,0.0
28.836,-0.259,0.147,1.0
27.247,-0.251,-0.003,0.0
24.091,-0.228,-0.129,0.0
0.0,0.0,0.0,0.0
0.0,0.0,0.0,0.0
0.0,0.0,0.0,0.0
31.398,-0.329,0.207,0.0
28.079,-0.301,0.038,0.0
24.97,-0.274,-0.096,0.0
0.0,0.0,0.0,0.0
45.635,-0.524,0.853,0.0
0.0,0.0,0.0,0.0
32.541,-0.39,0.264,1.0
28.647,-0.35,0.083,1.0
25.852,-0.322,-0.06,0.0
0.0,0.0,0.0,0.0
0.0,0.0,0.0,0.0
0.0,0.0,0.0,0.0
33.823,-0.455,0.328,1.0
28.782,-0.394,0.128,0.0
26.708,-0.372,-0.02,0.0
0.0,0.0,0.0,0.0
0.0,0.0,0.0,0.0
0.0,0.0,0.0,0.0
34.955,-0.52,0.393,0.0
30.902,-0.467,0.186,0.0
27.841,-0.427,0.022,0.0
87.478,-1.362,2.503,1.0
0.0,0.0,0.0,0.0
0.0,0.0,0.0,0.0
37.349,-0.607,0.479,0.0
32.738,-0.54,0.249,1.0
28.575,-0.478,0.068,1.0
89.733,-1.522,2.712,3.0
0.0,0.0,0.0,0.0
48.185,-0.839,0.953,0.0
0.0,0.0,0.0,0.0
33.571,-0.6,0.31,2.0
28.72,-0.52,0.115,2.0
96.775,-1.773,3.082,12.0
0.0,0.0,0.0,0.0
0.0,0.0,0.0,0.0
41.633,-0.79,0.67,0.0
34.574,-0.664,0.376,0.0
28.931,-0.562,0.164,0.0
96.982,-1.905,3.248,18.0
0.0,0.0,0.0,0.0
0.0,0.0,0.0,0.0
0.0,0.0,0.0,0.0
37.87,-0.777,0.475,0.0
32.717,-0.678,0.24,1.0
128.394,-2.689,4.515,4.0
91.299,-1.932,2.735,1.0
0.0,0.0,0.0,0.0
0.0,0.0,0.0,0.0
0.0,0.0,0.0,0.0
33.373,-0.734,0.301,1.0
128.38,-2.85,4.731,34.0
96.773,-2.168,3.061,6.0
0.0,0.0,0.0,0.0
0.0,0.0,0.0,0.0
42.822,-0.985,0.681,0.0
34.841,-0.809,0.373,0.0
128.431,-3.01,4.953,12.0
0.0,0.0,0.0,0.0
0.0,0.0,0.0,0.0
0.0,0.0,0.0,0.0
0.0,0.0,0.0,0.0
36.716,-0.897,0.457,0.0
171.601,-4.227,6.913,33.0
92.478,-2.296,3.245,14.0
94.26,-2.358,2.817,1.0
0.0,0.0,0.0,0.0
0.0,0.0,0.0,0.0
38.8,-0.993,0.551,0.0
190.178,-4.908,7.998,14.0
92.431,-2.402,3.405,50.0
92.796,-2.428,2.935,3.0
0.0,0.0,0.0,0.0
52.516,-1.394,1.111,0.0
0.0,0.0,0.0,0.0
190.042,-5.116,8.322,17.0
92.439,-2.505,3.567,8.0
92.332,-2.518,3.082,150.0
0.0,0.0,0.0,0.0
0.0,0.0,0.0,0.0
0.0,0.0,0.0,0.0
190.033,-5.32,8.653,20.0
92.437,-2.604,3.729,10.0
92.302,-2.615,3.243,190.0
0.0,0.0,0.0,0.0
0.0,0.0,0.0,0.0
47.551,-1.371,0.925,0.0
189.686,-5.509,8.974,20.0
0.0,0.0,0.0,0.0
92.292,-2.71,3.406,37.0
92.521,-2.732,2.925,4.0
0.0,0.0,0.0,0.0
0.0,0.0,0.0,0.0
189.811,-5.704,9.318,20.0
0.0,0.0,0.0,0.0
92.279,-2.802,3.57,31.0
92.188,-2.813,3.079,24.0
0.0,0.0,0.0,0.0
0.0,0.0,0.0,0.0
190.011,-5.897,9.671,15.0
190.685,-5.944,8.712,9.0
92.26,-2.89,3.736,17.0
92.205,-2.902,3.247,81.0
92.951,-2.939,2.79,1.0
0.0,0.0,0.0,0.0
190.05,-6.076,10.017,14.0
190.303,-6.111,9.043,22.0
0.0,0.0,0.0,0.0
92.254,-2.988,3.415,163.0
92.844,-3.02,2.955,8.0
0.0,0.0,0.0,0.0
115.505,-3.796,6.297,7.0
190.884,-6.299,9.414,9.0
93.478,-3.096,4.124,1.0
92.269,-3.069,3.583,150.0
92.172,-3.078,3.101,31.0
0.0,0.0,0.0,0.0
115.318,-3.89,6.498,13.0
122.74,-4.155,6.279,8.0
190.242,-6.465,8.745,18.0
92.228,-3.145,3.751,14.0
92.214,-3.156,3.271,150.0
0.0,0.0,0.0,0.0
99.195,-3.427,5.772,15.0
122.843,-4.259,6.508,19.0
190.77,-6.635,9.115,7.0
0.0,0.0,0.0,0.0
92.223,-3.23,3.441,162.0
92.337,-3.244,2.966,5.0
99.012,-3.498,5.941,19.0
113.383,-4.017,6.213,15.0
113.429,-4.031,5.625,9.0
93.377,-3.329,4.136,2.0
92.206,-3.297,3.606,150.0
92.13,-3.304,3.125,42.0
95.077,-3.429,5.878,21.0
113.258,-4.097,6.415,14.0
113.374,-4.111,5.831,24.0
113.428,-4.125,5.233,22.0
92.205,-3.363,3.777,15.0
92.183,-3.372,3.298,150.0
95.265,-3.502,6.066,11.0
94.858,-3.496,5.546,14.0
113.321,-4.188,6.037,35.0
113.382,-4.201,5.441,42.0
0.0,0.0,0.0,0.0
92.182,-3.433,3.468,55.0
95.24,-3.566,6.242,5.0
90.355,-3.391,5.452,9.0
113.266,-4.261,6.248,18.0
113.378,-4.274,5.652,24.0
113.456,-4.287,5.067,11.0
92.18,-3.491,3.639,37.0
88.338,-3.363,5.954,22.0
90.339,-3.445,5.619,18.0
99.363,-3.797,5.663,21.0
113.479,-4.346,5.867,12.0
113.536,-4.356,5.28,8.0
92.23,-3.546,3.811,4.0
88.305,-3.413,6.115,12.0
89.685,-3.473,5.744,26.0
99.008,-3.84,5.824,15.0
113.643,-4.415,6.085,11.0
195.124,-7.596,9.436,8.0
0.0,0.0,0.0,0.0
87.855,-3.443,6.247,14.0
89.762,-3.523,5.913,21.0
90.125,-3.543,5.468,23.0
90.549,-3.565,5.013,21.0
113.57,-4.478,5.7,4.0
0.0,0.0,0.0,0.0
88.111,-3.498,6.427,21.0
89.866,-3.571,6.086,15.0
89.792,-3.573,5.614,17.0
90.411,-3.603,5.172,31.0
113.486,-4.528,5.901,6.0
194.813,-7.784,9.121,15.0
88.594,-3.557,6.625,14.0
87.87,-3.532,6.113,9.0
89.71,-3.61,5.772,11.0
90.183,-3.633,5.325,22.0
90.725,-3.659,4.885,6.0
113.429,-4.58,5.519,11.0
88.196,-3.579,6.759,28.0
88.567,-3.596,6.324,14.0
97.751,-3.973,6.469,8.0
90.45,-3.679,5.505,17.0
98.154,-3.996,5.464,13.0
113.49,-4.625,5.728,7.0
88.159,-3.61,6.915,31.0
88.88,-3.642,6.508,17.0
89.855,-3.685,6.111,8.0
91.272,-3.746,5.722,29.0
90.358,-3.71,5.193,18.0
113.529,-4.665,5.934,7.0
88.267,-3.644,7.083,19.0
89.049,-3.678,6.68,24.0
95.117,-3.931,6.639,11.0
91.301,-3.774,5.886,27.0
90.787,-3.755,5.38,14.0
98.209,-4.065,5.309,16.0
88.495,-3.68,7.263,14.0
88.799,-3.693,6.823,17.0
88.856,-3.697,6.362,16.0
91.293,-3.8,6.052,30.0
91.402,-3.806,5.583,27.0
90.43,-3.766,5.052,10.0
88.727,-3.712,7.442,11.0
88.25,-3.693,6.941,25.0
88.986,-3.724,6.532,15.0
91.283,-3.82,6.214,7.0
91.283,-3.821,5.738,29.0
90.416,-3.786,5.212,19.0
79.962,-3.363,6.85,11.0
88.326,-3.715,7.103,17.0
89.047,-3.745,6.695,15.0
91.378,-3.842,6.384,4.0
91.276,-3.837,5.9,32.0
91.329,-3.84,5.427,16.0
79.978,-3.378,6.995,20.0
88.542,-3.738,7.279,7.0
88.944,-3.754,6.846,15.0
88.916,-3.752,6.37,8.0
91.328,-3.853,6.066,28.0
91.347,-3.853,5.59,19.0
87.229,-3.696,7.784,14.0
93.892,-3.977,7.885,5.0
88.278,-3.736,6.951,20.0
89.014,-3.766,6.533,16.0
91.338,-3.863,6.226,9.0
91.32,-3.861,5.748,28.0
87.381,-3.711,7.951,11.0
80.012,-3.395,6.86,9.0
88.311,-3.745,7.108,13.0
89.082,-3.776,6.695,15.0
91.313,-3.867,6.383,13.0
91.294,-3.865,5.904,30.0
79.338,-3.374,7.358,15.0
79.972,-3.398,6.996,15.0
88.695,-3.765,7.292,4.0
89.14,-3.781,6.852,15.0
91.459,-3.876,6.55,12.0
91.3,-3.866,6.06,26.0
81.903,-3.484,7.737,10.0
87.23,-3.707,7.78,15.0
93.849,-3.984,7.877,8.0
88.331,-3.746,6.941,20.0
89.025,-3.772,6.528,14.0
91.328,-3.865,6.217,9.0
78.989,-3.358,7.597,13.0
87.4,-3.712,7.945,11.0
79.998,-3.393,6.851,10.0
88.341,-3.742,7.092,15.0
89.103,-3.77,6.684,14.0
91.353,-3.861,6.374,9.0
79.204,-3.363,7.754,33.0
79.371,-3.365,7.349,17.0
79.962,-3.385,6.982,20.0
88.496,-3.741,7.251,8.0
88.95,-3.756,6.82,14.0
88.895,-3.748,6.348,10.0
79.201,-3.355,7.883,22.0
79.437,-3.36,7.486,9.0
87.23,-3.683,7.759,8.0
88.766,-3.742,7.418,11.0
88.214,-3.714,6.908,20.0
89.013,-3.741,6.501,18.0
79.195,-3.343,8.013,21.0
81.798,-3.448,7.843,10.0
82.726,-3.48,7.493,7.0
79.972,-3.359,6.814,9.0
88.344,-3.705,7.06,20.0
89.034,-3.727,6.647,18.0
79.428,-3.339,8.166,18.0
78.962,-3.314,7.699,28.0
79.334,-3.322,7.314,19.0
79.95,-3.342,6.94,26.0
88.494,-3.692,7.215,13.0
88.934,-3.704,6.782,19.0
79.842,-3.339,8.338,26.0
79.084,-3.301,7.839,32.0
79.353,-3.306,7.444,23.0
79.982,-3.325,7.071,7.0
88.606,-3.676,7.366,13.0
88.239,-3.653,6.869,28.0
80.026,-3.327,8.486,14.0
79.201,-3.285,7.977,26.0
79.215,-3.279,7.557,13.0
82.671,-3.413,7.44,19.0
88.598,-3.65,7.504,10.0
88.219,-3.627,7.006,25.0
79.782,-3.294,8.585,11.0
79.261,-3.264,8.106,23.0
79.005,-3.246,7.659,21.0
82.77,-3.392,7.576,19.0
80.003,-3.271,6.899,23.0
88.228,-3.599,7.141,25.0
65.314,-2.675,7.128,8.0
64.199,-2.622,6.664,12.0
64.892,-2.644,6.391,16.0
82.858,-3.367,7.711,9.0
79.941,-3.24,7.015,23.0
79.827,-3.228,6.582,9.0
65.145,-2.645,7.21,28.0
64.102,-2.595,6.752,15.0
64.861,-2.618,6.486,28.0
79.228,-3.189,7.493,14.0
79.779,-3.203,7.12,22.0
79.853,-3.197,6.703,12.0
0.0,0.0,0.0,0.0
64.505,-2.586,6.891,22.0
64.488,-2.576,6.544,39.0
79.204,-3.155,7.608,16.0
79.91,-3.174,7.25,13.0
79.934,-3.166,6.826,9.0
80.876,-3.216,9.191,30.0
64.508,-2.557,6.985,31.0
64.184,-2.537,6.606,32.0
64.787,-2.552,6.315,21.0
82.602,-3.243,7.612,12.0
79.952,-3.13,6.941,11.0
81.099,-3.187,9.333,18.0
64.524,-2.527,7.079,34.0
64.229,-2.507,6.702,31.0
64.833,-2.522,6.411,28.0
82.624,-3.204,7.729,12.0
79.961,-3.09,7.054,11.0
77.633,-3.012,9.044,13.0
64.451,-2.492,7.161,26.0
64.484,-2.484,6.819,39.0
64.938,-2.493,6.512,29.0
79.238,-3.031,7.522,24.0
79.848,-3.044,7.152,23.0
77.79,-2.977,9.169,28.0
79.208,-3.02,8.91,14.0
64.591,-2.453,6.918,35.0
64.654,-2.446,6.571,40.0
0.0,0.0,0.0,0.0
66.645,-2.503,6.059,11.0
77.902,-2.937,9.287,28.0
79.194,-2.974,9.014,17.0
64.732,-2.422,7.018,40.0
64.34,-2.397,6.623,31.0
65.042,-2.414,6.346,31.0
66.618,-2.463,6.143,13.0
78.254,-2.904,9.431,15.0
79.231,-2.928,9.121,19.0
64.814,-2.385,7.111,40.0
64.401,-2.36,6.712,34.0
65.006,-2.373,6.425,33.0
66.692,-2.424,6.234,10.0
84.412,-3.079,10.281,8.0
81.533,-2.961,9.489,13.0
64.548,-2.335,7.163,20.0
64.585,-2.325,6.812,34.0
64.979,-2.33,6.503,31.0
80.158,-2.862,7.591,10.0
77.563,-2.778,9.543,23.0
81.651,-2.911,9.603,12.0
79.252,-2.814,8.892,19.0
64.72,-2.287,6.905,38.0
64.507,-2.269,6.534,19.0
65.38,-2.29,6.27,31.0
77.615,-2.727,9.644,26.0
78.116,-2.732,9.282,15.0
79.224,-2.757,8.983,16.0
64.684,-2.24,6.978,34.0
64.635,-2.228,6.623,35.0
64.994,-2.23,6.31,15.0
77.759,-2.676,9.755,16.0
77.872,-2.666,9.344,24.0
65.213,-2.222,7.471,7.0
64.831,-2.198,7.069,35.0
64.744,-2.185,6.709,39.0
65.042,-2.183,6.388,28.0
77.975,-2.626,9.87,13.0
77.226,-2.587,9.354,33.0
65.236,-2.174,7.546,28.0
64.9,-2.152,7.148,17.0
64.709,-2.134,6.776,28.0
65.011,-2.132,6.456,29.0
77.27,-2.542,9.867,28.0
77.251,-2.527,9.442,37.0
65.157,-2.12,7.608,20.0
0.0,0.0,0.0,0.0
65.044,-2.093,6.881,38.0
64.977,-2.08,6.521,24.0
77.341,-2.482,9.959,28.0
77.086,-2.46,9.503,26.0
77.68,-2.465,9.152,19.0
65.376,-2.063,7.339,22.0
64.894,-2.036,6.932,29.0
64.86,-2.023,6.576,32.0
77.819,-2.434,10.1,15.0
77.312,-2.403,9.61,28.0
77.775,-2.403,9.241,22.0
65.302,-2.006,7.396,9.0
64.914,-1.983,6.998,30.0
64.77,-1.966,6.63,36.0
80.228,-2.441,10.492,13.0
77.349,-2.339,9.69,16.0
81.074,-2.436,9.712,10.0
65.279,-1.949,7.456,22.0
64.899,-1.927,7.058,31.0
64.862,-1.913,6.7,30.0
80.331,-2.374,10.582,19.0
77.467,-2.275,9.778,16.0
77.643,-2.265,9.373,19.0
77.632,-2.25,8.938,17.0
64.983,-1.871,7.126,28.0
65.011,-1.86,6.775,40.0
80.261,-2.301,10.645,12.0
77.565,-2.208,9.859,13.0
74.152,-2.097,9.018,12.0
75.393,-2.117,8.747,12.0
65.061,-1.815,7.191,24.0
64.876,-1.797,6.816,32.0
64.343,-1.785,8.589,16.0
76.771,-2.114,9.825,10.0
74.239,-2.03,9.091,25.0
74.164,-2.014,8.666,9.0
65.506,-1.767,7.295,31.0
64.83,-1.736,6.864,29.0
64.346,-1.725,8.643,23.0
64.227,-1.709,8.271,25.0
74.346,-1.965,9.163,28.0
74.182,-1.946,8.727,31.0
76.236,-1.985,8.549,12.0
64.522,-1.667,6.881,27.0
64.385,-1.665,8.698,23.0
64.375,-1.651,8.34,27.0
74.398,-1.894,9.227,36.0
74.269,-1.876,8.794,33.0
75.78,-1.899,8.555,17.0
64.832,-1.612,6.963,40.0
64.445,-1.603,8.755,19.0
64.37,-1.588,8.387,32.0
74.419,-1.821,9.284,37.0
74.408,-1.806,8.863,30.0
65.351,-1.573,7.424,9.0
65.188,-1.557,7.046,40.0
64.562,-1.542,8.816,11.0
65.002,-1.539,8.514,41.0
74.504,-1.749,9.345,26.0
74.435,-1.733,8.916,36.0
74.429,-1.718,8.504,15.0
65.326,-1.494,7.104,28.0
64.635,-1.478,8.868,14.0
64.854,-1.47,8.536,40.0
64.463,-1.449,8.126,14.0
74.486,-1.659,8.969,33.0
65.232,-1.439,7.493,17.0
65.288,-1.428,7.139,23.0
65.518,-1.431,9.029,10.0
64.482,-1.395,8.526,30.0
74.393,-1.595,9.422,10.0
74.324,-1.579,8.992,33.0
65.214,-1.371,7.528,16.0
65.229,-1.359,7.169,27.0
58.071,-1.208,8.035,19.0
62.652,-1.291,8.319,16.0
64.571,-1.317,8.213,16.0
74.537,-1.506,9.058,16.0
74.241,-1.485,8.61,21.0
65.069,-1.288,7.185,26.0
58.042,-1.146,8.062,30.0
62.687,-1.225,8.356,17.0
64.899,-1.255,8.288,33.0
58.52,-1.119,7.141,31.0
63.319,-1.198,7.374,17.0
65.242,-1.222,7.236,26.0
58.137,-1.085,8.103,20.0
62.71,-1.158,8.388,7.0
64.598,-1.18,8.279,10.0
58.847,-1.063,7.207,33.0
63.32,-1.131,7.402,12.0
65.189,-1.151,7.258,21.0
58.072,-1.021,8.119,7.0
58.222,-1.012,7.812,30.0
64.522,-1.109,8.296,12.0
58.449,-0.993,7.182,33.0
63.296,-1.062,7.424,16.0
58.596,-0.971,6.547,15.0
63.38,-1.045,8.885,19.0
58.245,-0.949,7.837,28.0
64.418,-1.037,8.306,11.0
58.343,-0.927,7.19,30.0
59.987,-0.941,7.057,10.0
64.415,-0.998,7.219,9.0
63.292,-0.975,8.894,23.0
58.247,-0.886,7.857,28.0
57.801,-0.866,7.472,27.0
58.43,-0.864,7.219,32.0
59.984,-0.875,7.075,17.0
64.426,-0.927,7.239,7.0
63.304,-0.904,8.915,24.0
58.206,-0.82,7.868,31.0
57.87,-0.803,7.497,24.0
58.553,-0.8,7.25,31.0
60.011,-0.808,7.094,23.0
57.172,-0.759,6.438,24.0
63.453,-0.836,8.951,25.0
58.41,-0.757,7.91,30.0
57.946,-0.74,7.52,32.0
58.544,-0.735,7.262,33.0
60.003,-0.741,7.106,30.0
57.232,-0.696,6.457,22.0
63.322,-0.763,8.946,34.0
58.384,-0.691,7.917,32.0
57.868,-0.673,7.52,28.0
58.423,-0.668,7.257,33.0
60.07,-0.675,7.124,35.0
64.087,-0.706,7.24,11.0
63.183,-0.689,8.936,25.0
58.279,-0.623,7.911,26.0
58.15,-0.61,7.565,32.0
58.501,-0.602,7.274,33.0
60.017,-0.606,7.125,28.0
63.98,-0.633,7.236,11.0
63.361,-0.619,8.968,35.0
58.313,-0.558,7.922,27.0
57.066,-0.534,7.429,18.0
0.0,0.0,0.0,0.0
59.626,-0.535,7.083,34.0
60.018,-0.526,6.791,15.0
62.808,-0.542,8.893,16.0
58.479,-0.493,7.947,28.0
0.0,0.0,0.0,0.0
57.359,-0.46,7.139,27.0
59.527,-0.466,7.072,33.0
60.018,-0.458,6.793,7.0
62.91,-0.47,8.908,18.0
58.556,-0.426,7.958,32.0
58.51,-0.414,7.619,32.0
57.754,-0.398,7.187,32.0
59.898,-0.401,7.115,32.0
59.923,-0.39,6.78,8.0
63.61,-0.402,9.005,10.0
58.596,-0.359,7.961,8.0
58.601,-0.348,7.628,32.0
57.129,-0.329,7.106,31.0
59.842,-0.332,7.105,32.0
57.373,-0.307,6.487,21.0
59.24,-0.307,8.382,9.0
51.721,-0.258,7.022,23.0
58.377,-0.28,7.593,33.0
57.18,-0.263,7.107,28.0
59.978,-0.265,7.114,12.0
59.881,-0.253,6.764,9.0
59.228,-0.239,8.372,7.0
51.737,-0.199,7.018,20.0
58.587,-0.214,7.612,25.0
57.366,-0.199,7.121,29.0
59.758,-0.197,7.079,22.0
56.929,-0.176,6.421,30.0
51.229,-0.148,7.233,22.0
51.607,-0.14,6.99,26.0
58.579,-0.148,7.6,31.0
57.228,-0.134,7.093,30.0
59.789,-0.129,7.07,28.0
59.974,-0.118,6.752,9.0
51.36,-0.09,7.24,17.0
51.13,-0.08,6.914,23.0
58.584,-0.082,7.587,20.0
57.282,-0.069,7.085,31.0
59.808,-0.062,7.058,6.0
60.02,-0.051,6.742,9.0
51.392,-0.032,7.231,22.0
51.162,-0.023,6.904,25.0
58.956,-0.016,7.619,9.0
57.691,-0.005,7.119,32.0
57.326,0.004,6.748,14.0
56.557,0.014,6.335,24.0
51.419,0.025,7.218,22.0
51.189,0.034,6.891,25.0
62.877,0.053,8.104,21.0
57.892,0.059,7.125,33.0
57.367,0.069,6.733,24.0
56.508,0.078,6.31,25.0
51.586,0.084,7.223,30.0
51.268,0.092,6.883,25.0
58.647,0.115,7.537,7.0
57.413,0.123,7.044,31.0
57.436,0.133,6.718,20.0
56.501,0.14,6.287,27.0
51.662,0.141,7.212,26.0
51.324,0.149,6.869,25.0
58.694,0.18,7.518,11.0
57.284,0.185,7.004,16.0
57.257,0.195,6.673,31.0
56.527,0.202,6.265,24.0
51.832,0.199,7.212,20.0
51.26,0.205,6.837,6.0
48.933,0.204,6.245,13.0
0.0,0.0,0.0,0.0
57.213,0.257,6.64,31.0
56.682,0.264,6.255,22.0
51.6,0.254,7.155,9.0
48.239,0.245,6.41,10.0
48.978,0.257,6.226,17.0
59.587,0.323,7.226,34.0
57.318,0.32,6.622,31.0
56.849,0.326,6.243,29.0
51.676,0.311,7.137,21.0
48.351,0.299,6.398,36.0
48.982,0.31,6.199,16.0
60.033,0.39,7.247,35.0
52.515,0.349,6.038,8.0
56.885,0.387,6.215,30.0
51.578,0.365,7.093,13.0
48.802,0.353,6.429,23.0
48.949,0.362,6.165,20.0
59.996,0.453,7.206,35.0
52.521,0.404,6.006,23.0
57.097,0.449,6.202,31.0
51.644,0.421,7.069,17.0
48.558,0.403,6.365,10.0
48.904,0.413,6.129,17.0
59.566,0.512,7.116,11.0
52.499,0.459,5.97,23.0
57.545,0.512,6.213,28.0
49.746,0.457,6.776,15.0
48.576,0.453,6.335,22.0
58.226,0.552,7.257,16.0
52.744,0.508,6.264,23.0
57.006,0.557,6.442,8.0
57.513,0.571,6.169,17.0
49.428,0.506,6.696,24.0
48.563,0.503,6.298,22.0
59.392,0.625,7.358,34.0
52.735,0.562,6.223,21.0
56.823,0.614,6.379,30.0
57.636,0.631,6.139,10.0
49.269,0.554,6.637,24.0
48.815,0.556,6.292,23.0
59.191,0.682,7.287,12.0
52.508,0.612,6.156,23.0
57.158,0.675,6.371,28.0
50.257,0.601,5.313,18.0
47.304,0.579,6.334,16.0
48.734,0.604,6.242,23.0
49.193,0.616,6.016,22.0
52.57,0.666,6.119,9.0
52.937,0.677,5.857,11.0
50.12,0.648,5.257,23.0
47.36,0.627,6.301,15.0
48.403,0.647,6.158,32.0
49.155,0.664,5.969,23.0
48.796,0.666,5.638,23.0
57.075,0.786,6.265,11.0
50.059,0.696,5.207,16.0
47.317,0.672,6.252,24.0
48.422,0.694,6.117,34.0
49.167,0.711,5.926,23.0
48.825,0.712,5.597,11.0
50.201,0.738,5.465,21.0
50.028,0.742,5.158,15.0
49.077,0.744,6.439,3.0
48.365,0.739,6.064,27.0
48.885,0.753,5.845,22.0
50.086,0.777,5.694,24.0
50.229,0.786,5.42,19.0
55.079,0.868,5.625,21.0
47.361,0.761,6.168,25.0
48.858,0.792,6.078,23.0
48.776,0.796,5.784,23.0
50.03,0.822,5.638,31.0
50.241,0.831,5.371,23.0
55.075,0.918,5.57,13.0
49.439,0.84,6.388,6.0
48.881,0.836,6.031,31.0
48.638,0.837,5.718,18.0
50.041,0.867,5.587,24.0
57.708,1.006,6.11,10.0
55.01,0.965,5.506,16.0
48.932,0.874,6.27,18.0
48.823,0.878,5.971,38.0
48.98,0.886,5.706,22.0
50.183,0.913,5.549,24.0
49.968,0.915,5.236,16.0
49.113,0.904,4.863,15.0
48.936,0.917,6.217,23.0
48.823,0.92,5.917,37.0
50.102,0.949,5.781,29.0
50.262,0.957,5.502,18.0
55.066,1.054,5.709,12.0
60.966,1.174,5.968,9.0
48.99,0.959,6.168,29.0
48.704,0.958,5.848,22.0
50.152,0.991,5.73,24.0
50.026,0.993,5.42,24.0
55.031,1.098,5.643,28.0
60.958,1.222,5.898,21.0
48.943,0.997,6.105,20.0
48.656,0.996,5.785,22.0
50.032,1.029,5.657,34.0
49.933,1.031,5.35,29.0
55.297,1.147,5.604,11.0
57.731,1.203,5.516,17.0
48.811,1.033,6.029,24.0
0.0,0.0,0.0,0.0
50.059,1.068,5.599,23.0
57.686,1.236,6.111,6.0
49.198,1.058,4.926,22.0
57.652,1.246,5.438,24.0
48.697,1.068,5.954,33.0
50.199,1.105,5.845,15.0
49.721,1.098,5.499,31.0
54.996,1.219,5.757,7.0
60.973,1.357,6.029,10.0
57.013,1.273,5.307,31.0
48.638,1.102,5.885,9.0
50.036,1.137,5.762,18.0
49.708,1.134,5.434,22.0
55.02,1.259,5.689,9.0
0.0,0.0,0.0,0.0
56.768,1.308,5.21,30.0
48.647,1.136,5.822,7.0
49.998,1.171,5.691,20.0
49.699,1.168,5.367,14.0
49.451,1.165,5.048,25.0
63.057,1.49,6.071,26.0
56.288,1.334,5.092,26.0
50.218,1.206,5.942,10.0
49.671,1.197,5.587,21.0
49.625,1.199,5.292,15.0
49.215,1.192,4.957,23.0
57.348,1.393,5.442,13.0
56.125,1.367,5.0,22.0
50.241,1.24,5.875,14.0
49.631,1.228,5.513,12.0
49.438,1.226,5.203,23.0
49.209,1.223,4.887,20.0
57.232,1.426,5.351,26.0
50.902,1.271,4.464,10.0
50.283,1.272,5.808,7.0
49.65,1.259,5.445,26.0
49.434,1.256,5.132,23.0
61.702,1.571,6.04,14.0
56.457,1.441,5.198,29.0
63.034,1.612,5.438,9.0
45.613,1.18,5.203,14.0
49.618,1.286,5.37,17.0
49.312,1.281,5.048,24.0
61.554,1.602,5.937,15.0
56.182,1.465,5.092,11.0
63.057,1.648,5.349,11.0
49.768,1.315,5.603,12.0
49.48,1.31,5.281,15.0
57.007,1.512,5.752,8.0
57.093,1.517,5.421,25.0
50.506,1.344,4.502,24.0
64.348,1.715,5.361,19.0
49.58,1.336,5.507,18.0
49.532,1.337,5.212,23.0
50.832,1.374,5.051,24.0
49.865,1.35,4.66,23.0
50.906,1.38,4.46,13.0
62.912,1.708,5.147,12.0
49.448,1.357,5.416,6.0
49.382,1.357,5.12,17.0
50.808,1.398,4.97,21.0
49.79,1.371,4.575,27.0
63.766,1.758,5.488,7.0
62.229,1.719,4.994,13.0
49.247,1.374,5.316,22.0
50.433,1.408,5.149,24.0
50.551,1.413,4.866,24.0
49.954,1.397,4.512,24.0
62.551,1.752,5.286,22.0
62.153,1.743,4.891,13.0
49.314,1.396,5.246,17.0
50.808,1.44,5.108,24.0
50.134,1.422,4.747,24.0
63.056,1.79,5.595,17.0
62.493,1.775,5.181,22.0
62.244,1.77,4.799,16.0
0.0,0.0,0.0,0.0
50.779,1.458,5.022,26.0
49.952,1.435,4.648,23.0
62.55,1.799,5.449,15.0
62.349,1.794,5.068,19.0
74.433,2.143,5.617,16.0
50.797,1.476,5.237,21.0
50.724,1.474,4.933,24.0
56.358,1.639,5.151,8.0
62.35,1.813,5.329,26.0
62.203,1.81,4.954,24.0
74.335,2.165,5.487,27.0
50.872,1.494,5.16,21.0
50.465,1.482,4.824,24.0
56.271,1.653,5.05,5.0
62.283,1.83,5.219,21.0
62.133,1.826,4.845,9.0
74.255,2.183,5.358,11.0
50.832,1.507,5.071,25.0
49.963,1.481,4.691,26.0
62.679,1.858,5.519,26.0
62.29,1.846,5.115,26.0
66.071,1.959,5.041,28.0
82.182,2.437,5.791,27.0
50.885,1.521,4.988,20.0
49.925,1.492,4.602,23.0
62.562,1.87,5.401,31.0
62.231,1.859,5.003,19.0
74.401,2.222,5.549,22.0
82.153,2.454,5.65,30.0
56.41,1.698,5.433,18.0
0.0,0.0,0.0,0.0
62.263,1.873,5.268,26.0
62.173,1.869,4.892,16.0
74.326,2.234,5.414,10.0
82.114,2.467,5.505,31.0
50.021,1.514,4.73,23.0
57.958,1.753,5.142,9.0
62.27,1.883,5.16,20.0
65.799,1.988,5.061,42.0
82.118,2.48,5.838,26.0
82.076,2.478,5.357,31.0
49.944,1.518,4.634,22.0
62.475,1.898,5.431,12.0
64.059,1.944,5.194,8.0
66.074,2.004,4.966,33.0
82.102,2.489,5.692,29.0
81.666,2.474,5.186,29.0
56.194,1.713,5.113,15.0
62.279,1.897,5.303,20.0
62.239,1.894,4.936,20.0
74.339,2.26,5.453,10.0
82.089,2.494,5.543,35.0
81.403,2.471,5.024,34.0
57.953,1.77,5.168,5.0
62.258,1.899,5.188,14.0
65.623,2.001,5.084,35.0
82.179,2.502,5.88,27.0
82.116,2.498,5.396,30.0
81.429,2.474,4.877,40.0
62.575,1.913,5.465,9.0
64.056,1.955,5.22,13.0
66.06,2.014,4.998,41.0
82.108,2.5,5.725,28.0
81.738,2.486,5.222,35.0
81.715,2.482,4.746,33.0
62.287,1.902,5.327,15.0
62.252,1.898,4.96,20.0
66.115,2.013,4.881,9.0
82.071,2.496,5.572,35.0
81.426,2.473,5.054,36.0
81.782,2.481,4.601,26.0
62.257,1.898,5.21,16.0
65.485,1.993,5.097,20.0
82.325,2.502,5.927,20.0
82.102,2.491,5.423,34.0
81.416,2.466,4.903,40.0
82.053,2.482,4.465,6.0
0.0,0.0,0.0,0.0
66.071,2.004,5.019,39.0
82.083,2.485,5.757,29.0
81.827,2.473,5.253,30.0
81.636,2.463,4.766,36.0
82.19,2.475,4.319,15.0
62.218,1.882,4.974,22.0
74.328,2.244,5.507,17.0
82.136,2.474,5.606,35.0
81.419,2.448,5.075,41.0
81.747,2.453,4.619,30.0
81.816,2.45,4.148,27.0
65.711,1.976,5.13,42.0
82.349,2.471,5.947,17.0
82.12,2.458,5.451,31.0
81.409,2.432,4.921,36.0
82.019,2.445,4.48,14.0
81.894,2.436,3.997,16.0
66.093,1.973,5.034,25.0
82.173,2.447,5.779,27.0
81.912,2.434,5.283,27.0
81.544,2.417,4.775,31.0
82.324,2.434,4.34,13.0
83.731,2.471,3.928,10.0
74.369,2.201,5.523,31.0
82.162,2.425,5.621,26.0
81.414,2.397,5.094,33.0
81.71,2.4,4.628,37.0
82.082,2.404,4.171,10.0
0.0,0.0,0.0,0.0
74.231,2.174,5.369,10.0
82.126,2.399,5.461,24.0
81.394,2.371,4.936,32.0
81.952,2.381,4.484,31.0
82.81,2.4,4.049,11.0
0.0,0.0,0.0,0.0
82.216,2.381,5.789,28.0
81.87,2.363,5.286,32.0
81.643,2.35,4.795,31.0
82.342,2.363,4.348,17.0
83.677,2.394,3.93,6.0
57.752,1.647,2.376,0.0
82.135,2.347,5.623,28.0
81.512,2.322,5.105,33.0
81.831,2.323,4.648,32.0
83.034,2.351,4.225,14.0
0.0,0.0,0.0,0.0
0.0,0.0,0.0,0.0
82.164,2.314,5.469,23.0
81.507,2.288,4.95,32.0
81.971,2.293,4.5,30.0
83.041,2.315,4.066,15.0
0.0,0.0,0.0,0.0
0.0,0.0,0.0,0.0
82.054,2.273,5.303,15.0
81.761,2.257,4.806,30.0
82.36,2.265,4.362,24.0
85.278,2.337,4.011,9.0
57.868,1.58,2.385,0.0
0.0,0.0,0.0,0.0
81.75,2.225,5.125,29.0
81.834,2.219,4.654,32.0
83.177,2.246,4.245,27.0
56.181,1.511,2.534,0.0
0.0,0.0,0.0,0.0
54.191,1.446,1.814,31.0
81.939,2.186,4.978,31.0
82.224,2.184,4.516,23.0
83.506,2.209,4.098,16.0
0.0,0.0,0.0,0.0
0.0,0.0,0.0,0.0
54.279,1.417,1.712,3.0
82.069,2.142,4.826,32.0
83.117,2.16,4.404,18.0
85.556,2.213,4.034,9.0
0.0,0.0,0.0,0.0
0.0,0.0,0.0,0.0
54.134,1.381,1.603,1.0
82.453,2.101,4.69,23.0
84.004,2.13,4.289,12.0
56.19,1.418,2.541,0.0
0.0,0.0,0.0,0.0
54.385,1.359,1.822,3.0
54.106,1.345,1.498,1.0
82.763,2.055,4.547,25.0
88.84,2.195,4.363,7.0
0.0,0.0,0.0,0.0
0.0,0.0,0.0,0.0
54.385,1.322,1.716,8.0
54.144,1.309,1.394,0.0
83.522,2.016,4.427,23.0
88.957,2.136,4.198,13.0
0.0,0.0,0.0,0.0
0.0,0.0,0.0,0.0
54.192,1.279,1.606,1.0
54.485,1.279,1.299,1.0
83.709,1.959,4.277,7.0
56.103,1.306,2.54,0.0
0.0,0.0,0.0,0.0
54.432,1.252,1.826,3.0
54.142,1.238,1.502,0.0
57.927,1.316,1.271,5.0
88.598,2.007,4.359,24.0
0.0,0.0,0.0,0.0
0.0,0.0,0.0,0.0
54.458,1.209,1.723,6.0
54.062,1.193,1.397,0.0
0.0,0.0,0.0,0.0
88.564,1.934,4.188,15.0
0.0,0.0,0.0,0.0
0.0,0.0,0.0,0.0
54.281,1.161,1.615,0.0
54.44,1.157,1.304,0.0
0.0,0.0,0.0,0.0
56.107,1.178,2.547,0.0
0.0,0.0,0.0,0.0
54.394,1.126,1.837,1.0
54.21,1.113,1.51,0.0
54.695,1.115,1.207,1.0
0.0,0.0,0.0,0.0
0.0,0.0,0.0,0.0
0.0,0.0,0.0,0.0
0.0,0.0,0.0,0.0
54.312,1.067,1.411,1.0
0.0,0.0,0.0,0.0
0.0,0.0,0.0,0.0
0.0,0.0,0.0,0.0
0.0,0.0,0.0,0.0
0.0,0.0,0.0,0.0
0.0,0.0,0.0,0.0
0.0,0.0,0.0,0.0
0.0,0.0,0.0,0.0
0.0,0.0,0.0,0.0
0.0,0.0,0.0,0.0
0.0,0.0,0.0,0.0
54.765,0.972,1.219,0.0
0.0,0.0,0.0,0.0
34.178,0.594,0.364,0.0
0.0,0.0,0.0,0.0
55.13,0.942,1.77,1.0
55.068,0.931,1.448,1.0
0.0,0.0,0.0,0.0
38.498,0.638,0.562,0.0
32.845,0.538,0.289,0.0
55.363,0.899,1.996,1.0
55.268,0.887,1.672,0.0
0.0,0.0,0.0,0.0
0.0,0.0,0.0,0.0
36.811,0.571,0.47,0.0
31.542,0.484,0.22,0.0
55.661,0.844,1.905,0.0
0.0,0.0,0.0,0.0
0.0,0.0,0.0,0.0
0.0,0.0,0.0,0.0
34.591,0.499,0.378,0.0
28.917,0.412,0.148,4.0
55.807,0.785,1.808,0.0
56.125,0.779,1.493,4.0
0.0,0.0,0.0,0.0
0.0,0.0,0.0,0.0
0.0,0.0,0.0,0.0
28.812,0.378,0.096,4.0
56.31,0.728,1.723,0.0
57.43,0.732,1.425,1.0
0.0,0.0,0.0,0.0
0.0,0.0,0.0,0.0
31.315,0.381,0.23,0.0
27.519,0.329,0.043,0.0
56.94,0.671,1.641,0.0
57.601,0.667,1.326,0.0
0.0,0.0,0.0,0.0
35.305,0.394,0.401,0.0
28.907,0.317,0.161,3.0
26.573,0.286,-0.005,0.0
57.384,0.607,1.552,1.0
0.0,0.0,0.0,0.0
0.0,0.0,0.0,0.0
32.989,0.329,0.317,0.0
28.812,0.281,0.11,6.0
25.764,0.246,-0.05,0.0
57.848,0.541,1.464,1.0
0.0,0.0,0.0,0.0
37.319,0.333,0.512,0.0
0.0,0.0,0.0,0.0
28.256,0.24,0.058,1.0
24.795,0.205,-0.091,0.0
0.0,0.0,0.0,0.0
0.0,0.0,0.0,0.0
35.952,0.275,0.431,0.0
28.913,0.215,0.177,0.0
26.928,0.194,0.009,0.0
23.734,0.166,-0.128,0.0
0.0,0.0,0.0,0.0
43.402,0.285,0.698,0.0
0.0,0.0,0.0,0.0
28.793,0.176,0.127,0.0
25.941,0.153,-0.034,0.0
22.677,0.129,-0.161,0.0
0.0,0.0,0.0,0.0
38.023,0.199,0.548,0.0
32.482,0.163,0.281,0.0
28.476,0.136,0.079,1.0
25.163,0.115,-0.075,0.0
21.894,0.095,-0.191,2.0
0.0,0.0,0.0,0.0
36.102,0.14,0.46,0.0
30.97,0.113,0.216,0.0
27.361,0.094,0.031,0.0
24.219,0.077,-0.112,0.0
21.072,0.062,-0.219,3.0
41.777,0.114,0.706,0.0
0.0,0.0,0.0,0.0
28.776,0.065,0.154,0.0
26.335,0.053,-0.013,0.0
23.425,0.042,-0.146,1.0
20.068,0.031,-0.241,0.0
40.034,0.053,0.612,0.0
33.111,0.036,0.315,0.0
28.687,0.024,0.108,1.0
25.607,0.015,-0.053,0.0
22.286,0.008,-0.175,0.0
19.237,0.002,-0.262,0.0
37.338,-0.003,0.511,0.0
31.814,-0.01,0.252,0.0
28.118,-0.016,0.061,0.0
24.783,-0.02,-0.091,0.0
21.263,-0.022,-0.2,2.0
18.485,-0.024,-0.281,0.0
35.261,-0.055,0.427,0.0
30.032,-0.054,0.191,1.0
27.035,-0.056,0.016,0.0
23.787,-0.055,-0.125,0.0
20.526,-0.052,-0.226,0.0
18.014,-0.05,-0.302,0.0
33.33,-0.102,0.353,0.0
28.82,-0.095,0.139,6.0
26.098,-0.093,-0.023,0.0
23.07,-0.088,-0.156,0.0
19.774,-0.08,-0.247,0.0
17.436,-0.075,-0.318,0.0
32.743,-0.149,0.297,1.0
28.712,-0.138,0.096,6.0
25.267,-0.128,-0.06,0.0
22.062,-0.117,-0.181,1.0
19.125,-0.106,-0.267,0.0
17.009,-0.099,-0.336,0.0
31.515,-0.192,0.24,1.0
27.888,-0.177,0.052,0.0
24.536,-0.162,-0.095,0.0
21.465,-0.147,-0.208,0.0
18.429,-0.131,-0.285,0.0
16.626,-0.123,-0.352,0.0
28.851,-0.221,0.178,1.0
26.843,-0.213,0.011,0.0
23.978,-0.196,-0.127,0.0
20.344,-0.172,-0.227,0.0
17.889,-0.156,-0.302,0.0
16.288,-0.146,-0.369,0.0
28.782,-0.266,0.136,5.0
26.106,-0.248,-0.025,0.0
22.915,-0.224,-0.154,0.0
19.715,-0.198,-0.247,0.0
17.431,-0.18,-0.319,0.0
15.978,-0.169,-0.384,0.0
28.593,-0.311,0.095,1.0
25.268,-0.281,-0.06,0.0
22.397,-0.255,-0.181,0.0
19.071,-0.223,-0.266,0.0
16.985,-0.203,-0.334,0.0
15.697,-0.192,-0.399,0.0
27.805,-0.347,0.055,0.0
24.521,-0.313,-0.092,0.0
21.795,-0.285,-0.206,0.0
18.442,-0.246,-0.282,0.0
16.688,-0.227,-0.351,0.0
15.302,-0.213,-0.41,0.0
26.97,-0.382,0.017,0.0
23.65,-0.342,-0.12,0.0
20.54,-0.303,-0.222,0.0
18.04,-0.271,-0.3,0.0
16.396,-0.251,-0.367,0.0
14.924,-0.233,-0.419,0.0
26.301,-0.417,-0.017,0.0
23.364,-0.377,-0.149,0.0
19.786,-0.325,-0.239,0.0
17.479,-0.292,-0.313,0.0
16.052,-0.273,-0.38,0.0
14.649,-0.253,-0.43,0.0
25.426,-0.447,-0.049,0.0
22.504,-0.402,-0.172,0.0
19.337,-0.351,-0.258,0.0
17.117,-0.316,-0.329,0.0
15.76,-0.295,-0.393,0.0
14.368,-0.273,-0.44,0.0
24.836,-0.479,-0.079,0.0
21.984,-0.43,-0.195,0.0
18.674,-0.371,-0.272,0.0
16.759,-0.338,-0.342,0.0
15.427,-0.316,-0.403,0.0
14.149,-0.294,-0.451,0.0
24.41,-0.513,-0.107,1.0
21.161,-0.451,-0.213,0.0
18.237,-0.394,-0.288,0.0
16.511,-0.362,-0.357,0.0
14.996,-0.333,-0.41,0.0
13.908,-0.313,-0.459,0.0
23.664,-0.539,-0.131,0.0
19.865,-0.458,-0.223,0.0
17.819,-0.417,-0.302,0.0
16.172,-0.383,-0.368,0.0
14.71,-0.353,-0.419,0.0
13.716,-0.333,-0.469,0.0
23.103,-0.567,-0.154,0.0
19.655,-0.489,-0.244,0.0
17.389,-0.438,-0.315,0.0
15.97,-0.407,-0.382,0.0
14.559,-0.375,-0.431,0.0
13.535,-0.353,-0.478,0.0
22.367,-0.59,-0.174,1.0
19.275,-0.514,-0.26,0.0
17.037,-0.459,-0.327,0.0
15.668,-0.427,-0.392,0.0
14.39,-0.397,-0.442,0.0
13.276,-0.37,-0.483,0.0
21.286,-0.599,-0.188,1.0
18.706,-0.532,-0.272,0.0
16.829,-0.484,-0.341,0.0
15.435,-0.449,-0.402,0.0
14.177,-0.417,-0.45,0.0
13.077,-0.388,-0.49,0.0
21.039,-0.63,-0.208,1.0
18.256,-0.553,-0.284,0.0
16.591,-0.507,-0.353,0.0
15.039,-0.465,-0.407,0.0
13.949,-0.435,-0.457,0.0
12.953,-0.409,-0.498,0.0
20.91,-0.665,-0.227,0.0
18.021,-0.578,-0.298,0.0
16.257,-0.527,-0.362,0.0
14.888,-0.487,-0.417,0.0
13.745,-0.454,-0.463,0.0
12.825,-0.428,-0.505,0.0
19.732,-0.663,-0.233,0.0
17.634,-0.598,-0.309,0.0
16.027,-0.549,-0.372,0.0
14.647,-0.506,-0.424,0.0
13.637,-0.476,-0.473,0.0
12.692,-0.447,-0.512,0.0
19.378,-0.687,-0.247,0.0
17.28,-0.618,-0.318,0.0
15.825,-0.572,-0.381,0.0
14.452,-0.527,-0.432,0.0
13.479,-0.496,-0.479,0.0
12.539,-0.465,-0.517,0.0
19.233,-0.718,-0.262,0.0
17.066,-0.642,-0.329,0.0
15.655,-0.594,-0.391,0.0
14.309,-0.548,-0.44,0.0
13.312,-0.514,-0.485,0.0
12.454,-0.485,-0.524,0.0
18.835,-0.738,-0.272,0.0
16.883,-0.667,-0.34,0.0
15.447,-0.615,-0.399,0.0
14.121,-0.567,-0.446,0.0
13.171,-0.533,-0.49,0.0
12.344,-0.504,-0.53,0.0
18.385,-0.754,-0.281,0.0
16.63,-0.688,-0.348,0.0
15.172,-0.633,-0.403,0.0
13.989,-0.588,-0.453,0.0
12.992,-0.55,-0.494,0.0
12.242,-0.523,-0.535,0.0
18.106,-0.777,-0.29,0.0
16.443,-0.711,-0.356,0.0
14.984,-0.653,-0.41,0.0
13.857,-0.608,-0.459,0.0
12.861,-0.569,-0.498,0.0
12.118,-0.54,-0.538,0.0
17.896,-0.801,-0.3,0.0
16.259,-0.733,-0.364,0.0
14.823,-0.673,-0.416,0.0
13.721,-0.628,-0.464,0.0
12.769,-0.589,-0.504,0.0
11.977,-0.556,-0.54,0.0
17.667,-0.823,-0.308,0.0
16.07,-0.754,-0.371,0.0
14.674,-0.694,-0.421,0.0
13.601,-0.648,-0.469,0.0
12.719,-0.61,-0.51,0.0
11.922,-0.576,-0.546,0.0
17.46,-0.847,-0.315,0.0
15.918,-0.777,-0.377,0.0
14.543,-0.715,-0.427,0.0
13.509,-0.669,-0.474,0.0
12.611,-0.629,-0.514,0.0
11.866,-0.596,-0.55,0.0
17.298,-0.871,-0.323,0.0
15.721,-0.797,-0.382,0.0
14.482,-0.739,-0.434,0.0
13.416,-0.689,-0.479,0.0
12.552,-0.649,-0.519,0.0
11.831,-0.616,-0.556,0.0
17.116,-0.895,-0.329,0.0
15.652,-0.823,-0.389,0.0
14.313,-0.758,-0.436,0.0
13.303,-0.709,-0.482,0.0
12.396,-0.665,-0.519,0.0
11.731,-0.633,-0.557,0.0
17.023,-0.922,-0.336,0.0
15.497,-0.844,-0.393,0.0
14.201,-0.778,-0.44,0.0
13.252,-0.731,-0.487,0.0
12.373,-0.687,-0.524,0.0
11.589,-0.647,-0.556,0.0
16.873,-0.945,-0.342,0.0
34.2,-1.927,-0.885,0.0
14.135,-0.801,-0.445,0.0
13.149,-0.75,-0.489,0.0
12.327,-0.707,-0.528,0.0
11.555,-0.667,-0.56,0.0
16.72,-0.968,-0.346,0.0
15.138,-0.881,-0.398,0.0
14.061,-0.824,-0.449,0.0
13.134,-0.774,-0.494,0.0
12.298,-0.729,-0.532,0.0
11.521,-0.687,-0.563,0.0
16.68,-0.997,-0.352,0.0
15.118,-0.909,-0.404,0.0
13.965,-0.844,-0.451,0.0
12.933,-0.786,-0.492,0.0
12.293,-0.752,-0.536,0.0
11.465,-0.705,-0.565,0.0
16.49,-1.016,-0.354,0.0
14.937,-0.925,-0.404,0.0
13.905,-0.866,-0.454,0.0
12.917,-0.809,-0.496,0.0
12.144,-0.765,-0.534,0.0
11.41,-0.723,-0.566,0.0
16.508,-1.048,-0.36,0.0
14.986,-0.957,-0.41,0.0
13.871,-0.89,-0.458,0.0
12.889,-0.832,-0.498,0.0
12.112,-0.786,-0.536,0.0
11.382,-0.742,-0.568,0.0
16.428,-1.073,-0.363,0.0
14.896,-0.978,-0.412,0.0
13.767,-0.909,-0.458,0.0
12.86,-0.854,-0.501,0.0
12.022,-0.802,-0.535,0.0
11.368,-0.763,-0.57,0.0
16.309,-1.096,-0.364,0.0
14.822,-1.001,-0.414,0.0
13.712,-0.93,-0.459,0.0
12.825,-0.875,-0.502,0.0
12.018,-0.824,-0.538,0.0
11.245,-0.775,-0.566,0.0
16.282,-1.124,-0.367,0.0
14.748,-1.023,-0.414,0.0
13.717,-0.956,-0.462,0.0
12.768,-0.894,-0.503,0.0
11.958,-0.842,-0.538,0.0
11.297,-0.799,-0.571,0.0
16.0,-1.133,-0.363,0.0
14.772,-1.051,-0.417,0.0
13.636,-0.975,-0.461,0.0
12.763,-0.917,-0.504,0.0
11.955,-0.863,-0.539,0.0
11.284,-0.819,-0.572,0.0
16.034,-1.164,-0.366,0.0
14.679,-1.071,-0.417,0.0
13.652,-1.001,-0.463,0.0
12.766,-0.94,-0.506,0.0
11.954,-0.885,-0.54,0.0
11.259,-0.837,-0.572,0.0
16.003,-1.191,-0.366,0.0
14.75,-1.103,-0.42,0.0
13.625,-1.023,-0.464,0.0
12.652,-0.954,-0.502,0.0
11.922,-0.903,-0.539,0.0
11.219,-0.854,-0.57,0.0
16.0,-1.219,-0.367,0.0
14.773,-1.13,-0.421,0.0
13.605,-1.046,-0.463,0.0
12.664,-0.978,-0.503,0.0
11.936,-0.926,-0.54,0.0
11.239,-0.875,-0.571,0.0
16.081,-1.253,-0.369,0.0
14.712,-1.152,-0.419,0.0
13.655,-1.074,-0.465,0.0
12.698,-1.003,-0.504,0.0
11.938,-0.947,-0.54,0.0
11.242,-0.895,-0.571,0.0
15.945,-1.271,-0.366,0.0
14.696,-1.176,-0.418,0.0
13.652,-1.097,-0.464,0.0
12.713,-1.026,-0.504,0.0
11.885,-0.963,-0.537,0.0
11.17,-0.909,-0.567,0.0
15.993,-1.302,-0.366,0.0
14.732,-1.204,-0.418,0.0
13.626,-1.118,-0.462,0.0
12.707,-1.047,-0.503,0.0
11.949,-0.989,-0.539,0.0
11.199,-0.931,-0.567,0.0
16.159,-1.343,-0.368,0.0
14.764,-1.232,-0.418,0.0
13.692,-1.147,-0.463,0.0
12.823,-1.079,-0.506,0.0
11.945,-1.009,-0.537,0.0
11.29,-0.958,-0.57,0.0
16.099,-1.366,-0.364,0.0
14.834,-1.263,-0.417,0.0
13.742,-1.175,-0.462,0.0
12.831,-1.101,-0.504,0.0
12.012,-1.035,-0.538,0.0
11.311,-0.978,-0.569,0.0
16.313,-1.411,-0.366,0.0
14.844,-1.289,-0.415,0.0
13.745,-1.198,-0.46,0.0
12.83,-1.123,-0.501,0.0
11.999,-1.054,-0.535,0.0
11.267,-0.994,-0.565,0.0
16.377,-1.444,-0.363,0.0
14.853,-1.315,-0.412,0.0
13.787,-1.225,-0.458,0.0
12.883,-1.149,-0.5,0.0
12.05,-1.078,-0.535,0.0
11.391,-1.023,-0.568,0.0
16.528,-1.484,-0.363,0.0
14.962,-1.349,-0.411,0.0
13.875,-1.255,-0.457,0.0
12.839,-1.165,-0.495,0.0
12.026,-1.096,-0.53,0.0
11.41,-1.043,-0.566,0.0
16.559,-1.514,-0.359,0.0
15.022,-1.378,-0.408,0.0
13.935,-1.283,-0.455,0.0
12.93,-1.195,-0.495,0.0
12.163,-1.128,-0.532,0.0
11.443,-1.065,-0.564,0.0
16.605,-1.545,-0.354,0.0
14.992,-1.399,-0.402,0.0
14.004,-1.311,-0.452,0.0
13.021,-1.223,-0.494,0.0
12.196,-1.15,-0.529,0.0
11.472,-1.085,-0.561,0.0
16.704,-1.58,-0.35,0.0
15.085,-1.431,-0.399,0.0
14.021,-1.335,-0.448,0.0
13.071,-1.248,-0.491,0.0
12.243,-1.173,-0.527,0.0
11.557,-1.111,-0.561,0.0
16.752,-1.61,-0.344,0.0
15.236,-1.469,-0.397,0.0
14.156,-1.369,-0.446,0.0
13.173,-1.278,-0.489,0.0
12.335,-1.201,-0.525,0.0
11.593,-1.132,-0.557,0.0
16.961,-1.656,-0.341,0.0
15.431,-1.511,-0.395,0.0
14.226,-1.397,-0.442,0.0
13.251,-1.305,-0.486,0.0
12.378,-1.223,-0.522,0.0
11.679,-1.158,-0.556,0.0
17.113,-1.696,-0.336,0.0
15.558,-1.546,-0.391,0.0
14.308,-1.426,-0.438,0.0
13.269,-1.327,-0.48,0.0
12.416,-1.245,-0.517,0.0
11.681,-1.175,-0.551,0.0
17.269,-1.737,-0.331,0.0
15.658,-1.579,-0.385,0.0
14.403,-1.457,-0.433,0.0
13.371,-1.356,-0.477,0.0
12.407,-1.262,-0.51,0.0
11.736,-1.198,-0.547,0.0
17.415,-1.776,-0.324,0.0
15.803,-1.616,-0.381,0.0
14.517,-1.489,-0.429,0.0
13.571,-1.396,-0.476,0.0
12.578,-1.297,-0.51,0.0
11.812,-1.222,-0.544,0.0
17.608,-1.821,-0.318,0.0
15.958,-1.654,-0.375,0.0
14.638,-1.522,-0.424,0.0
13.648,-1.423,-0.471,0.0
12.661,-1.323,-0.506,0.0
11.903,-1.248,-0.541,0.0
17.838,-1.869,-0.311,0.0
16.269,-1.709,-0.373,0.0
14.728,-1.551,-0.418,0.0
13.772,-1.454,-0.467,0.0
12.773,-1.352,-0.503,0.0
12.002,-1.274,-0.538,0.0
17.912,-1.9,-0.301,0.0
16.385,-1.742,-0.365,0.0
14.8,-1.578,-0.41,0.0
13.782,-1.473,-0.458,0.0
12.733,-1.364,-0.493,0.0
12.091,-1.299,-0.534,0.0
18.179,-1.952,-0.294,0.0
16.668,-1.794,-0.36,0.0
14.991,-1.617,-0.406,0.0
13.97,-1.511,-0.455,0.0
12.981,-1.407,-0.494,0.0
12.159,-1.322,-0.529,0.0
18.592,-2.02,-0.288,0.0
16.847,-1.834,-0.353,0.0
15.248,-1.664,-0.402,0.0
14.108,-1.543,-0.45,0.0
13.087,-1.435,-0.489,0.0
12.265,-1.348,-0.525,0.0
23.64,-2.597,-0.35,0.0
17.001,-1.872,-0.344,0.0
15.469,-1.707,-0.397,0.0
14.212,-1.572,-0.443,0.0
13.276,-1.472,-0.486,0.0
12.364,-1.374,-0.52,0.0
23.64,-2.625,-0.332,1.0
17.184,-1.912,-0.335,0.0
15.643,-1.744,-0.389,0.0
14.347,-1.603,-0.436,0.0
13.334,-1.494,-0.478,0.0
12.487,-1.402,-0.515,0.0
23.621,-2.65,-0.314,1.0
17.476,-1.965,-0.327,0.0
15.925,-1.794,-0.384,0.0
14.499,-1.637,-0.43,0.0
13.504,-1.528,-0.473,0.0
12.617,-1.431,-0.511,0.0
20.011,-2.268,-0.25,0.0
17.728,-2.013,-0.317,0.0
16.1,-1.832,-0.375,0.0
14.729,-1.679,-0.424,0.0
13.684,-1.563,-0.468,0.0
12.721,-1.456,-0.504,0.0
20.408,-2.335,-0.238,0.0
17.945,-2.057,-0.306,0.0
16.379,-1.881,-0.368,0.0
14.969,-1.722,-0.419,0.0
13.772,-1.588,-0.46,0.0
12.859,-1.485,-0.499,0.0
21.145,-2.441,-0.229,0.0
18.333,-2.12,-0.297,0.0
16.663,-1.931,-0.36,0.0
15.053,-1.747,-0.408,1.0
13.966,-1.624,-0.454,0.0
12.954,-1.509,-0.492,0.0
22.194,-2.584,-0.221,1.0
18.825,-2.196,-0.289,0.0
16.871,-1.971,-0.35,0.0
15.093,-1.767,-0.396,0.0
14.196,-1.665,-0.45,0.0
13.225,-1.554,-0.49,0.0
22.358,-2.625,-0.203,3.0
19.212,-2.259,-0.278,0.0
17.092,-2.013,-0.34,0.0
15.443,-1.822,-0.392,0.0
14.351,-1.696,-0.441,0.0
13.261,-1.57,-0.479,0.0
22.359,-2.646,-0.183,10.0
19.57,-2.319,-0.265,0.0
17.33,-2.057,-0.328,0.0
15.781,-1.876,-0.386,0.0
14.54,-1.731,-0.434,0.0
13.446,-1.604,-0.474,0.0
22.213,-2.648,-0.161,8.0
20.012,-2.389,-0.253,0.0
17.679,-2.114,-0.318,0.0
16.164,-1.935,-0.38,0.0
14.738,-1.767,-0.426,0.0
13.658,-1.64,-0.468,0.0
22.232,-2.669,-0.14,4.0
20.412,-2.454,-0.238,0.0
17.96,-2.162,-0.307,0.0
16.381,-1.975,-0.369,0.0
14.977,-1.808,-0.418,0.0
13.823,-1.671,-0.461,0.0
22.21,-2.684,-0.118,11.0
22.071,-2.671,-0.236,0.0
18.532,-2.245,-0.298,0.0
16.67,-2.022,-0.359,0.0
15.047,-1.828,-0.405,0.0
14.001,-1.703,-0.453,0.0
22.212,-2.701,-0.096,19.0
22.189,-2.702,-0.215,1.0
19.107,-2.329,-0.288,0.0
16.979,-2.072,-0.349,0.0
15.407,-1.883,-0.399,0.0
14.293,-1.749,-0.447,0.0
22.207,-2.717,-0.074,17.0
22.191,-2.718,-0.193,2.0
19.437,-2.383,-0.273,0.0
17.206,-2.112,-0.336,0.0
15.674,-1.926,-0.39,0.0
14.42,-1.774,-0.437,0.0
22.226,-2.734,-0.051,13.0
22.233,-2.737,-0.17,4.0
19.792,-2.44,-0.258,0.0
17.553,-2.166,-0.325,0.0
15.916,-1.966,-0.38,0.0
14.687,-1.816,-0.43,0.0
25.672,-3.174,-0.032,9.0
22.243,-2.752,-0.147,4.0
20.684,-2.562,-0.248,1.0
17.87,-2.216,-0.312,0.0
16.281,-2.021,-0.372,0.0
14.913,-1.853,-0.421,0.0
25.626,-3.183,-0.005,12.0
22.232,-2.764,-0.124,1.0
21.137,-2.63,-0.231,3.0
18.392,-2.29,-0.302,0.0
16.699,-2.082,-0.364,0.0
15.138,-1.889,-0.411,0.0
25.58,-3.191,0.021,13.0
25.108,-3.134,-0.113,1.0
22.094,-2.761,-0.218,5.0
19.032,-2.38,-0.292,0.0
16.922,-2.118,-0.35,0.0
15.507,-1.943,-0.404,0.0
25.55,-3.2,0.048,12.0
25.528,-3.199,-0.087,6.0
22.421,-2.812,-0.197,5.0
19.443,-2.44,-0.277,0.0
17.179,-2.158,-0.337,0.0
15.718,-1.976,-0.393,0.0
25.557,-3.212,0.076,9.0
25.518,-3.209,-0.06,11.0
22.548,-2.838,-0.174,4.0
19.894,-2.505,-0.262,0.0
17.688,-2.229,-0.328,0.0
16.0,-2.018,-0.382,0.0
25.665,-3.236,0.104,4.0
25.496,-3.216,-0.032,11.0
23.226,-2.932,-0.154,5.0
20.706,-2.615,-0.25,1.0
17.982,-2.273,-0.313,0.0
16.352,-2.068,-0.373,0.0
26.074,-3.297,0.135,1.0
25.458,-3.221,-0.004,13.0
23.731,-3.004,-0.131,1.0
20.967,-2.655,-0.23,0.0
18.479,-2.341,-0.302,0.0
16.715,-2.119,-0.362,0.0
26.864,-3.405,0.169,1.0
25.446,-3.227,0.024,11.0
25.312,-3.211,-0.111,3.0
22.35,-2.837,-0.22,4.0
19.106,-2.426,-0.29,0.0
16.937,-2.152,-0.348,0.0
27.432,-3.485,0.204,1.0
25.418,-3.23,0.052,10.0
25.429,-3.232,-0.083,8.0
22.459,-2.856,-0.196,5.0
19.54,-2.486,-0.275,0.0
17.316,-2.204,-0.336,0.0
28.013,-3.564,0.239,1.0
25.475,-3.242,0.081,6.0
25.408,-3.235,-0.054,12.0
22.723,-2.894,-0.172,5.0
20.08,-2.558,-0.26,0.0
17.752,-2.262,-0.325,0.0
28.894,-3.682,0.28,0.0
25.763,-3.283,0.111,3.0
25.393,-3.236,-0.025,12.0
23.304,-2.971,-0.15,2.0
20.714,-2.641,-0.245,1.0
18.157,-2.316,-0.311,0.0
29.927,-3.817,0.324,1.0
26.42,-3.37,0.144,1.0
25.386,-3.238,0.003,13.0
24.215,-3.089,-0.129,1.0
0.0,0.0,0.0,0.0
18.626,-2.377,-0.298,0.0
30.972,-3.953,0.37,0.0
27.074,-3.455,0.178,1.0
25.385,-3.24,0.031,13.0
25.33,-3.233,-0.106,5.0
22.396,-2.859,-0.213,4.0
19.261,-2.459,-0.287,0.0
32.415,-4.138,0.424,0.0
27.651,-3.529,0.214,1.0
25.385,-3.24,0.06,11.0
25.386,-3.24,-0.077,11.0
22.49,-2.87,-0.189,5.0
19.662,-2.509,-0.27,0.0
33.424,-4.266,0.475,0.0
28.159,-3.594,0.25,1.0
25.506,-3.254,0.09,5.0
25.387,-3.239,-0.049,12.0
22.907,-2.922,-0.166,4.0
20.563,-2.623,-0.259,0.0
0.0,0.0,0.0,0.0
29.27,-3.733,0.293,0.0
25.976,-3.312,0.121,2.0
25.394,-3.237,-0.019,13.0
23.563,-3.003,-0.144,1.0
20.795,-2.65,-0.239,0.0
35.962,-4.584,0.594,0.0
30.421,-3.876,0.339,0.0
26.648,-3.395,0.154,1.0
25.396,-3.234,0.009,12.0
25.043,-3.188,-0.124,1.0
22.239,-2.831,-0.23,3.0
39.332,-5.008,0.694,0.0
31.608,-4.022,0.388,0.0
27.279,-3.47,0.189,1.0
25.413,-3.232,0.037,10.0
25.425,-3.232,-0.098,5.0
22.434,-2.851,-0.207,6.0
39.384,-5.006,0.739,1.0
32.965,-4.188,0.442,0.0
27.864,-3.538,0.224,1.0
25.461,-3.232,0.066,8.0
25.441,-3.228,-0.069,11.0
22.593,-2.865,-0.183,4.0
44.674,-5.668,0.889,0.0
34.608,-4.388,0.503,0.0
28.56,-3.619,0.262,1.0
25.664,-3.25,0.095,5.0
25.457,-3.223,-0.041,13.0
23.154,-2.93,-0.161,5.0
45.08,-5.706,0.947,0.0
35.36,-4.473,0.553,0.0
29.54,-3.734,0.304,0.0
26.077,-3.294,0.126,1.0
25.471,-3.216,-0.013,13.0
23.816,-3.005,-0.14,1.0
0.0,0.0,0.0,0.0
37.296,-4.705,0.624,0.0
30.986,-3.906,0.352,1.0
26.758,-3.37,0.158,1.0
25.503,-3.21,0.014,12.0
25.13,-3.161,-0.12,2.0
0.0,0.0,0.0,0.0
39.288,-4.94,0.701,0.0
31.978,-4.018,0.399,0.0
27.451,-3.446,0.193,1.0
25.538,-3.204,0.042,12.0
25.53,-3.2,-0.094,5.0
0.0,0.0,0.0,0.0
39.428,-4.94,0.747,2.0
33.232,-4.16,0.451,0.0
26.126,-3.268,0.212,0.0
25.605,-3.2,0.07,12.0
25.591,-3.196,-0.066,11.0
0.0,0.0,0.0,0.0
0.0,0.0,0.0,0.0
0.0,0.0,0.0,0.0
25.987,-3.237,0.239,0.0
25.803,-3.211,0.098,5.0
25.62,-3.186,-0.039,12.0
22.121,-2.752,0.585,0.0
22.171,-2.755,0.467,0.0
0.0,0.0,0.0,0.0
29.825,-3.699,0.306,1.0
26.184,-3.244,0.128,6.0
25.663,-3.177,-0.012,10.0
22.187,-2.748,0.61,6.0
22.198,-2.746,0.491,0.0
22.229,-2.746,0.373,0.0
31.048,-3.832,0.351,0.0
26.261,-3.238,0.155,6.0
25.699,-3.165,0.014,9.0
22.169,-2.732,0.633,14.0
22.17,-2.728,0.514,7.0
22.162,-2.724,0.394,9.0
32.234,-3.958,0.397,1.0
26.122,-3.204,0.182,3.0
25.763,-3.156,0.04,1.0
22.041,-2.701,0.652,11.0
22.149,-2.711,0.536,18.0
22.129,-2.705,0.416,13.0
22.324,-2.726,0.298,1.0
22.427,-2.735,0.178,0.0
22.174,-2.701,0.057,13.0
21.982,-2.679,0.672,24.0
22.132,-2.693,0.558,17.0
22.129,-2.689,0.439,16.0
22.137,-2.687,0.317,13.0
22.415,-2.717,0.201,11.0
22.164,-2.683,0.079,17.0
21.995,-2.664,0.695,32.0
22.132,-2.677,0.58,17.0
22.128,-2.672,0.46,16.0
22.109,-2.666,0.339,17.0
22.233,-2.677,0.221,13.0
22.152,-2.664,0.101,20.0
21.994,-2.647,0.716,22.0
22.121,-2.658,0.601,18.0
22.125,-2.654,0.482,14.0
22.103,-2.647,0.36,20.0
22.11,-2.644,0.241,18.0
22.133,-2.643,0.123,20.0
22.141,-2.646,0.743,15.0
22.144,-2.642,0.623,16.0
22.15,-2.638,0.504,11.0
22.109,-2.629,0.381,20.0
22.109,-2.625,0.262,19.0
22.139,-2.625,0.143,19.0
22.188,-2.632,0.765,13.0
22.167,-2.625,0.645,15.0
22.153,-2.619,0.524,13.0
22.114,-2.61,0.402,19.0
22.109,-2.605,0.283,20.0
22.14,-2.605,0.164,18.0
22.197,-2.613,0.786,13.0
22.205,-2.609,0.666,14.0
22.158,-2.599,0.545,10.0
22.143,-2.593,0.423,14.0
22.125,-2.586,0.303,17.0
22.124,-2.582,0.184,18.0
22.209,-2.593,0.806,13.0
22.264,-2.595,0.688,14.0
22.32,-2.597,0.569,9.0
22.301,-2.59,0.445,12.0
22.141,-2.567,0.323,15.0
22.145,-2.562,0.203,15.0
22.21,-2.572,0.825,11.0
22.362,-2.584,0.71,8.0
22.434,-2.587,0.591,2.0
22.47,-2.586,0.468,3.0
22.291,-2.561,0.344,2.0
22.166,-2.542,0.222,3.0
22.254,-2.554,0.846,9.0
22.246,-2.548,0.725,0.0
98.397,-11.247,2.677,2.0
0.0,0.0,0.0,0.0
0.0,0.0,0.0,0.0
0.0,0.0,0.0,0.0
22.32,-2.538,0.867,1.0
0.0,0.0,0.0,0.0
0.0,0.0,0.0,0.0
0.0,0.0,0.0,0.0
0.0,0.0,0.0,0.0
31.629,-3.558,0.369,4.0
153.758,-17.312,6.1,4.0
118.824,-13.348,4.07,2.0
0.0,0.0,0.0,0.0
0.0,0.0,0.0,0.0
0.0,0.0,0.0,0.0
31.157,-3.47,0.388,1.0
153.691,-17.128,6.219,12.0
0.0,0.0,0.0,0.0
0.0,0.0,0.0,0.0
0.0,0.0,0.0,0.0
0.0,0.0,0.0,0.0
39.878,-4.393,0.527,0.0
153.635,-16.938,6.333,4.0
145.565,-16.008,5.209,8.0
37.228,-4.084,1.13,0.0
37.146,-4.066,0.921,0.0
37.259,-4.069,0.722,2.0
37.414,-4.076,0.522,0.0
154.037,-16.795,6.461,8.0
0.0,0.0,0.0,0.0
36.255,-3.933,1.126,1.0
36.223,-3.92,0.924,0.0
36.577,-3.949,0.734,1.0
37.287,-4.016,0.546,0.0
154.339,-16.634,6.582,9.0
36.744,-3.95,1.366,0.0
35.257,-3.78,1.119,0.0
35.018,-3.745,0.917,1.0
35.053,-3.739,0.727,6.0
34.888,-3.713,0.534,0.0
154.71,-16.476,6.7,3.0
36.331,-3.858,1.375,0.0
34.306,-3.634,1.111,0.0
34.23,-3.616,0.919,0.0
34.32,-3.616,0.734,1.0
34.346,-3.61,0.548,0.0
0.0,0.0,0.0,0.0
35.653,-3.739,1.372,4.0
34.182,-3.575,1.129,0.0
34.038,-3.551,0.935,0.0
34.038,-3.541,0.749,0.0
34.186,-3.547,0.566,2.0
0.0,0.0,0.0,0.0
35.171,-3.641,1.374,1.0
34.049,-3.514,1.145,0.0
33.941,-3.494,0.952,5.0
33.987,-3.488,0.768,2.0
34.047,-3.485,0.583,0.0
36.202,-3.708,1.634,0.0
34.791,-3.553,1.38,0.0
33.943,-3.456,1.16,1.0
33.964,-3.448,0.972,166.0
33.91,-3.433,0.785,2.0
33.928,-3.425,0.6,0.0
35.444,-3.58,1.619,0.0
34.534,-3.478,1.388,0.0
33.916,-3.405,1.177,2.0
33.932,-3.397,0.989,163.0
33.886,-3.382,0.802,3.0
33.964,-3.38,0.618,0.0
34.987,-3.484,1.616,1.0
34.314,-3.406,1.396,0.0
33.914,-3.356,1.194,1.0
33.908,-3.344,1.005,152.0
33.86,-3.329,0.818,5.0
33.895,-3.322,0.634,0.0
34.767,-3.41,1.623,0.0
34.277,-3.351,1.412,0.0
33.871,-3.301,1.209,3.0
33.86,-3.289,1.019,8.0
33.835,-3.277,0.833,7.0
33.788,-3.262,0.647,0.0
34.697,-3.351,1.635,0.0
34.205,-3.292,1.424,1.0
33.866,-3.249,1.223,4.0
33.827,-3.234,1.033,11.0
33.808,-3.222,0.847,12.0
33.824,-3.213,0.662,0.0
34.68,-3.296,1.648,0.0
34.138,-3.233,1.435,1.0
33.855,-3.195,1.237,7.0
33.798,-3.179,1.045,28.0
33.798,-3.169,0.86,23.0
33.804,-3.159,0.674,7.0
34.76,-3.249,1.665,0.0
34.163,-3.182,1.449,0.0
33.826,-3.14,1.248,17.0
33.772,-3.124,1.057,46.0
33.786,-3.115,0.872,30.0
33.812,-3.106,0.687,15.0
34.91,-3.208,1.685,0.0
34.029,-3.115,1.454,0.0
33.81,-3.085,1.259,32.0
33.782,-3.071,1.068,67.0
33.789,-3.061,0.882,45.0
33.769,-3.048,0.696,0.0
34.752,-3.137,1.688,0.0
34.139,-3.071,1.469,0.0
33.804,-3.029,1.268,50.0
33.784,-3.016,1.078,82.0
33.803,-3.007,0.892,64.0
33.727,-2.989,0.705,0.0
34.636,-3.07,1.691,0.0
34.275,-3.027,1.484,0.0
33.809,-2.974,1.277,68.0
33.786,-2.961,1.087,96.0
33.8,-2.951,0.901,80.0
33.76,-2.937,0.713,0.0
35.043,-3.048,1.72,0.0
0.0,0.0,0.0,0.0
33.803,-2.917,1.285,83.0
33.787,-2.904,1.094,101.0
33.791,-2.894,0.908,100.0
33.816,-2.884,0.722,12.0
35.139,-2.997,1.731,0.0
0.0,0.0,0.0,0.0
33.804,-2.86,1.291,81.0
33.791,-2.848,1.1,104.0
33.802,-2.837,0.914,121.0
33.816,-2.827,0.728,156.0
34.974,-2.924,1.729,0.0
0.0,0.0,0.0,0.0
33.809,-2.803,1.296,85.0
33.778,-2.789,1.105,97.0
33.81,-2.78,0.919,135.0
33.828,-2.77,0.732,154.0
34.822,-2.851,1.726,0.0
34.435,-2.807,1.515,0.0
33.809,-2.745,1.3,84.0
33.792,-2.732,1.109,95.0
33.813,-2.722,0.922,132.0
33.835,-2.712,0.735,151.0
35.032,-2.808,1.739,0.0
0.0,0.0,0.0,0.0
33.819,-2.687,1.303,82.0
33.825,-2.675,1.112,82.0
33.815,-2.663,0.924,114.0
33.853,-2.655,0.737,154.0
35.169,-2.757,1.747,0.0
0.0,0.0,0.0,0.0
33.838,-2.629,1.305,74.0
33.816,-2.616,1.113,79.0
33.824,-2.604,0.925,110.0
