X,Y,Z,Reflectivity
46.397,5.604,1.449,14.0
46.409,5.608,1.184,11.0
54.599,6.614,2.907,29.0
46.462,5.63,2.207,5.0
46.452,5.63,1.941,16.0
46.424,5.629,1.668,9.0
58.792,7.131,1.777,18.0
46.424,5.633,1.137,12.0
54.23,6.596,2.832,27.0
58.964,7.173,2.741,26.0
53.849,6.552,2.194,11.0
54.468,6.63,1.901,27.0
58.803,7.16,1.716,19.0
46.426,5.655,1.089,11.0
54.127,6.607,2.77,22.0
58.976,7.2,2.679,22.0
58.612,7.157,2.327,11.0
54.573,6.666,1.848,16.0
58.944,7.202,1.658,31.0
46.32,5.661,1.038,10.0
54.161,6.633,2.714,20.0
58.897,7.214,2.612,20.0
58.58,7.176,2.262,13.0
54.584,6.688,1.789,14.0
58.752,7.201,1.589,30.0
46.047,5.645,0.982,10.0
59.216,7.273,2.903,11.0
58.878,7.232,2.548,11.0
54.708,6.721,2.054,27.0
58.85,7.231,1.866,10.0
57.614,7.08,1.496,11.0
45.765,5.626,0.926,13.0
59.018,7.267,2.829,28.0
53.726,6.616,2.266,21.0
54.598,6.724,1.99,28.0
58.763,7.237,1.799,17.0
55.655,6.856,1.385,4.0
45.518,5.608,0.871,11.0
58.94,7.273,2.76,33.0
53.749,6.632,2.208,22.0
54.527,6.729,1.927,28.0
58.763,7.252,1.733,12.0
53.434,6.595,1.27,1.0
45.071,5.564,0.812,4.0
58.909,7.282,2.692,25.0
53.728,6.641,2.147,25.0
54.414,6.726,1.862,28.0
58.722,7.259,1.666,15.0
46.328,5.727,1.048,3.0
44.01,5.442,0.744,4.0
58.898,7.291,2.625,12.0
53.826,6.663,2.089,27.0
54.503,6.746,1.803,25.0
58.471,7.237,1.592,22.0
46.106,5.707,0.991,7.0
43.963,5.442,0.693,6.0
53.593,6.641,2.327,23.0
54.036,6.695,2.036,28.0
54.48,6.75,1.74,17.0
0.0,0.0,0.0,0.0
45.787,5.672,0.932,11.0
43.918,5.441,0.643,6.0
53.591,6.645,2.265,31.0
54.266,6.728,1.983,28.0
54.419,6.746,1.676,7.0
55.639,6.897,1.388,2.0
45.517,5.642,0.874,11.0
43.834,5.433,0.591,1.0
53.608,6.649,2.204,27.0
54.333,6.738,1.922,28.0
54.712,6.784,1.621,10.0
51.292,6.359,1.221,2.0
45.019,5.581,0.813,4.0
42.071,5.215,0.518,1.0
53.668,6.656,2.145,27.0
54.395,6.745,1.861,26.0
54.755,6.788,1.559,11.0
46.359,5.746,1.049,3.0
44.019,5.455,0.743,3.0
39.927,4.948,0.446,0.0
53.798,6.669,2.087,28.0
54.485,6.752,1.801,20.0
58.48,7.246,1.598,17.0
46.083,5.708,0.989,7.0
43.953,5.444,0.691,5.0
39.663,4.912,0.396,0.0
54.131,6.705,2.037,29.0
54.544,6.754,1.739,14.0
0.0,0.0,0.0,0.0
45.722,5.658,0.928,11.0
43.927,5.435,0.639,5.0
35.918,4.443,0.317,0.0
54.486,6.741,1.985,29.0
54.662,6.76,1.678,10.0
55.624,6.876,1.388,3.0
45.453,5.617,0.869,9.0
43.899,5.424,0.588,1.0
0.0,0.0,0.0,0.0
54.52,6.734,1.923,29.0
58.761,7.255,1.735,14.0
53.063,6.549,1.262,1.0
44.561,5.498,0.8,3.0
42.157,5.2,0.515,1.0
32.864,4.052,0.213,0.0
54.488,6.717,1.858,24.0
58.749,7.239,1.666,25.0
46.269,5.699,1.047,4.0
44.015,5.419,0.739,4.0
39.932,4.914,0.441,0.0
31.75,3.906,0.168,0.0
54.66,6.722,1.8,12.0
58.561,7.198,1.592,25.0
45.979,5.649,0.986,13.0
43.978,5.401,0.686,6.0
37.05,4.548,0.366,0.0
31.484,3.864,0.131,0.0
58.817,7.214,1.867,8.0
0.0,0.0,0.0,0.0
45.685,5.597,0.927,18.0
43.943,5.381,0.635,4.0
36.341,4.448,0.317,0.0
29.348,3.591,0.088,1.0
58.814,7.191,1.799,15.0
46.481,5.679,1.155,8.0
45.568,5.565,0.872,16.0
43.902,5.359,0.584,0.0
34.139,4.165,0.258,0.0
29.137,3.553,0.053,1.0
58.834,7.168,1.732,18.0
46.4,5.65,1.099,12.0
44.463,5.41,0.798,3.0
42.258,5.139,0.513,0.0
33.015,4.013,0.211,0.0
28.207,3.427,0.019,0.0
58.913,7.15,1.666,10.0
46.21,5.604,1.041,12.0
44.098,5.344,0.741,4.0
40.189,4.868,0.441,0.0
32.172,3.894,0.169,0.0
26.797,3.242,-0.012,0.0
46.396,5.606,1.258,13.0
45.93,5.546,0.982,10.0
44.077,5.318,0.69,5.0
37.624,4.537,0.37,1.0
31.792,3.831,0.13,0.0
26.141,3.148,-0.042,1.0
46.364,5.576,1.204,23.0
45.67,5.488,0.924,12.0
44.092,5.295,0.64,3.0
36.613,4.394,0.318,0.0
29.327,3.517,0.086,1.0
25.792,3.091,-0.071,1.0
46.34,5.545,1.151,22.0
45.496,5.44,0.87,11.0
43.298,5.173,0.579,2.0
0.0,0.0,0.0,0.0
29.126,3.474,0.053,1.0
24.307,2.898,-0.094,0.0
46.303,5.51,1.098,16.0
44.602,5.303,0.802,3.0
42.581,5.059,0.522,0.0
32.622,3.872,0.21,0.0
28.113,3.335,0.02,0.0
23.896,2.832,-0.119,1.0
46.217,5.468,1.044,13.0
44.242,5.229,0.746,4.0
40.646,4.8,0.453,0.0
32.12,3.79,0.171,1.0
26.678,3.145,-0.01,0.0
23.534,2.772,-0.143,1.0
45.94,5.401,0.987,11.0
44.246,5.197,0.698,6.0
37.108,4.354,0.373,0.0
31.646,3.71,0.134,0.0
26.137,3.061,-0.038,1.0
23.045,2.697,-0.165,0.0
45.697,5.336,0.932,9.0
44.224,5.159,0.649,4.0
37.218,4.337,0.333,0.0
29.273,3.408,0.092,1.0
25.74,2.994,-0.065,0.0
22.188,2.579,-0.183,0.0
45.543,5.28,0.88,8.0
43.809,5.074,0.596,2.0
34.402,3.98,0.271,0.0
29.188,3.374,0.061,3.0
24.495,2.828,-0.088,0.0
21.676,2.501,-0.202,0.0
45.052,5.184,0.823,4.0
41.368,4.755,0.519,1.0
32.86,3.773,0.224,0.0
27.917,3.202,0.029,0.0
24.047,2.756,-0.112,1.0
21.074,2.413,-0.218,0.0
44.508,5.082,0.767,3.0
41.209,4.699,0.474,0.0
32.145,3.661,0.187,1.0
27.044,3.077,0.0,0.0
23.703,2.694,-0.134,1.0
20.804,2.362,-0.237,0.0
44.494,5.037,0.72,5.0
37.751,4.269,0.396,0.0
29.378,3.318,0.14,2.0
26.197,2.955,-0.026,1.0
23.37,2.633,-0.157,0.0
20.278,2.282,-0.252,0.0
44.507,4.994,0.675,4.0
37.68,4.222,0.356,0.0
29.359,3.286,0.11,6.0
25.927,2.898,-0.052,1.0
22.188,2.477,-0.171,0.0
19.763,2.204,-0.265,0.0
44.513,4.948,0.63,3.0
35.415,3.931,0.299,0.0
29.292,3.247,0.081,4.0
24.8,2.746,-0.075,0.0
21.564,2.384,-0.188,1.0
19.452,2.148,-0.28,0.0
42.03,4.626,0.553,0.0
32.932,3.62,0.246,0.0
28.615,3.141,0.051,4.0
24.234,2.656,-0.097,1.0
21.406,2.343,-0.207,3.0
19.062,2.084,-0.293,0.0
41.983,4.575,0.513,0.0
32.222,3.506,0.21,1.0
27.561,2.994,0.023,0.0
24.063,2.61,-0.119,1.0
21.276,2.305,-0.226,1.0
18.611,2.014,-0.303,0.0
38.346,4.134,0.432,0.0
31.737,3.416,0.177,0.0
26.702,2.87,-0.002,1.0
23.607,2.533,-0.138,0.0
20.813,2.23,-0.24,0.0
18.34,1.962,-0.316,0.0
37.072,3.952,0.384,0.0
29.315,3.12,0.137,0.0
26.141,2.777,-0.026,1.0
22.937,2.433,-0.155,0.0
20.28,2.148,-0.253,0.0
17.964,1.9,-0.326,0.0
35.761,3.767,0.338,0.0
29.243,3.075,0.11,1.0
25.874,2.717,-0.049,1.0
21.988,2.305,-0.168,1.0
19.775,2.07,-0.264,0.0
17.639,1.843,-0.335,0.0
34.528,3.594,0.296,0.0
29.126,3.026,0.085,1.0
25.202,2.614,-0.069,0.0
21.869,2.265,-0.186,4.0
19.43,2.009,-0.276,0.0
17.412,1.797,-0.346,0.0
33.559,3.449,0.26,0.0
28.799,2.954,0.059,0.0
24.535,2.512,-0.088,0.0
21.618,2.21,-0.202,4.0
19.15,1.954,-0.287,0.0
17.169,1.749,-0.355,0.0
32.301,3.276,0.224,0.0
27.621,2.796,0.034,0.0
24.234,2.449,-0.106,0.0
21.323,2.151,-0.216,3.0
18.663,1.879,-0.295,0.0
17.026,1.712,-0.365,0.0
31.86,3.188,0.195,0.0
26.812,2.678,0.012,0.0
23.845,2.377,-0.123,0.0
21.157,2.105,-0.231,1.0
18.455,1.833,-0.306,0.0
16.807,1.666,-0.374,0.0
29.313,2.892,0.157,1.0
26.193,2.578,-0.007,1.0
23.364,2.295,-0.138,0.0
20.881,2.047,-0.244,0.0
18.17,1.778,-0.315,0.0
16.558,1.617,-0.381,0.0
29.312,2.849,0.135,5.0
25.965,2.518,-0.026,1.0
22.565,2.184,-0.15,0.0
20.313,1.962,-0.252,0.0
17.955,1.731,-0.324,0.0
16.322,1.57,-0.387,0.0
29.254,2.799,0.114,6.0
25.663,2.45,-0.044,1.0
22.358,2.13,-0.165,2.0
19.672,1.87,-0.258,0.0
17.626,1.672,-0.331,0.0
16.18,1.532,-0.395,0.0
29.168,2.747,0.093,4.0
25.183,2.366,-0.061,0.0
22.014,2.064,-0.177,4.0
19.516,1.826,-0.269,0.0
17.409,1.625,-0.338,0.0
15.984,1.489,-0.401,0.0
29.007,2.687,0.074,1.0
24.815,2.293,-0.076,0.0
21.846,2.014,-0.19,3.0
19.193,1.765,-0.277,0.0
17.29,1.587,-0.347,0.0
15.894,1.455,-0.409,0.0
28.109,2.559,0.054,0.0
24.567,2.231,-0.09,0.0
21.716,1.967,-0.202,2.0
19.063,1.723,-0.287,0.0
17.119,1.544,-0.354,0.0
15.767,1.418,-0.415,0.0
27.466,2.456,0.036,1.0
24.224,2.161,-0.104,0.0
21.529,1.916,-0.213,1.0
18.656,1.656,-0.291,0.0
16.926,1.499,-0.36,0.0
15.615,1.379,-0.42,0.0
26.672,2.342,0.02,1.0
23.87,2.09,-0.115,0.0
21.265,1.857,-0.222,0.0
18.444,1.607,-0.298,0.0
16.815,1.461,-0.367,0.0
15.393,1.334,-0.422,0.0
26.625,2.294,0.006,1.0
23.587,2.026,-0.126,0.0
21.035,1.802,-0.231,0.0
18.297,1.563,-0.305,0.0
16.679,1.421,-0.372,0.0
15.349,1.304,-0.429,0.0
26.366,2.227,-0.006,1.0
23.233,1.956,-0.136,0.0
20.6,1.73,-0.236,0.0
18.177,1.522,-0.312,0.0
16.57,1.384,-0.378,0.0
15.154,1.262,-0.43,0.0
26.035,2.154,-0.019,1.0
22.951,1.893,-0.145,0.0
20.304,1.67,-0.242,0.0
18.004,1.476,-0.317,0.0
16.374,1.339,-0.38,0.0
15.083,1.23,-0.435,0.0
25.813,2.091,-0.03,0.0
22.815,1.842,-0.154,1.0
20.117,1.619,-0.248,0.0
17.865,1.433,-0.322,0.0
16.296,1.303,-0.385,0.0
15.019,1.198,-0.439,0.0
25.576,2.026,-0.04,0.0
22.704,1.792,-0.162,1.0
20.079,1.58,-0.256,0.0
17.693,1.388,-0.326,0.0
16.179,1.265,-0.389,0.0
14.928,1.164,-0.442,0.0
25.427,1.968,-0.049,0.0
22.675,1.749,-0.17,0.0
19.644,1.51,-0.257,0.0
17.563,1.346,-0.33,0.0
16.066,1.227,-0.391,0.0
14.834,1.129,-0.444,0.0
25.192,1.905,-0.056,0.0
22.486,1.694,-0.176,0.0
19.479,1.463,-0.261,0.0
17.408,1.303,-0.332,0.0
16.01,1.194,-0.395,0.0
14.727,1.094,-0.445,0.0
24.995,1.844,-0.063,0.0
22.286,1.638,-0.181,0.0
19.445,1.424,-0.266,0.0
17.36,1.267,-0.336,0.0
15.956,1.16,-0.398,0.0
14.722,1.067,-0.449,0.0
24.815,1.785,-0.069,0.0
22.144,1.587,-0.185,0.0
19.336,1.38,-0.269,0.0
17.222,1.225,-0.337,0.0
15.936,1.129,-0.401,0.0
14.75,1.041,-0.453,0.0
24.625,1.725,-0.074,1.0
22.038,1.538,-0.189,0.0
19.297,1.341,-0.273,0.0
17.198,1.191,-0.34,0.0
15.858,1.094,-0.402,0.0
14.646,1.006,-0.453,0.0
24.564,1.674,-0.078,1.0
21.924,1.488,-0.192,0.0
19.248,1.301,-0.275,0.0
17.157,1.155,-0.342,0.0
15.831,1.062,-0.404,0.0
14.524,0.97,-0.451,0.0
24.669,1.635,-0.082,0.0
21.933,1.447,-0.195,0.0
19.227,1.263,-0.277,0.0
17.079,1.117,-0.343,0.0
15.81,1.03,-0.405,0.0
14.559,0.945,-0.454,0.0
24.596,1.583,-0.085,0.0
21.823,1.399,-0.196,0.0
19.01,1.213,-0.276,0.0
17.033,1.082,-0.343,0.0
15.754,0.996,-0.405,0.0
14.546,0.916,-0.455,0.0
24.691,1.541,-0.087,0.0
21.581,1.341,-0.195,0.0
19.029,1.177,-0.278,0.0
17.027,1.048,-0.344,0.0
15.745,0.965,-0.405,0.0
14.554,0.888,-0.455,0.0
24.556,1.485,-0.087,0.0
21.605,1.3,-0.196,2.0
19.013,1.139,-0.278,0.0
17.029,1.015,-0.345,0.0
15.785,0.937,-0.407,0.0
14.477,0.855,-0.453,0.0
24.635,1.442,-0.087,0.0
21.725,1.265,-0.197,3.0
19.055,1.104,-0.278,0.0
17.034,0.982,-0.344,0.0
15.775,0.905,-0.406,0.0
14.498,0.827,-0.453,0.0
24.681,1.396,-0.086,0.0
21.786,1.226,-0.196,3.0
18.914,1.058,-0.275,0.0
17.015,0.947,-0.343,0.0
15.791,0.874,-0.405,0.0
14.474,0.797,-0.451,0.0
24.74,1.35,-0.085,0.0
21.758,1.181,-0.194,3.0
19.162,1.034,-0.277,0.0
17.077,0.917,-0.342,0.0
15.789,0.843,-0.403,0.0
14.581,0.774,-0.453,0.0
24.931,1.311,-0.083,0.0
21.867,1.143,-0.193,2.0
19.157,0.996,-0.274,0.0
17.083,0.883,-0.34,0.0
15.85,0.815,-0.403,0.0
14.579,0.745,-0.451,0.0
24.992,1.265,-0.079,0.0
21.911,1.102,-0.189,2.0
19.122,0.956,-0.27,0.0
17.121,0.851,-0.338,0.0
15.832,0.782,-0.399,0.0
14.624,0.718,-0.449,0.0
25.018,1.216,-0.074,0.0
21.984,1.062,-0.186,1.0
19.316,0.927,-0.269,0.0
17.184,0.819,-0.335,0.0
15.865,0.751,-0.396,0.0
14.638,0.689,-0.446,0.0
25.156,1.172,-0.068,0.0
22.226,1.029,-0.182,1.0
19.372,0.891,-0.265,0.0
17.208,0.786,-0.331,0.0
15.923,0.722,-0.394,0.0
14.782,0.666,-0.447,0.0
25.284,1.127,-0.062,0.0
22.247,0.985,-0.176,0.0
19.554,0.86,-0.262,0.0
17.332,0.757,-0.329,0.0
15.968,0.692,-0.39,0.0
14.759,0.635,-0.441,0.0
25.46,1.084,-0.054,0.0
22.436,0.949,-0.171,0.0
19.744,0.828,-0.258,0.0
17.457,0.727,-0.325,0.0
16.1,0.666,-0.388,0.0
14.882,0.611,-0.44,0.0
25.696,1.042,-0.046,0.0
22.802,0.918,-0.165,0.0
19.765,0.789,-0.251,0.0
17.614,0.698,-0.322,0.0
16.175,0.636,-0.383,0.0
14.905,0.581,-0.435,0.0
25.837,0.996,-0.036,9.0
23.022,0.88,-0.158,0.0
20.014,0.759,-0.246,0.0
17.8,0.669,-0.318,0.0
16.245,0.606,-0.378,0.0
14.895,0.551,-0.428,0.0
25.907,0.947,-0.025,1.0
23.129,0.837,-0.148,0.0
20.287,0.728,-0.24,0.0
17.921,0.638,-0.312,0.0
16.428,0.58,-0.375,0.0
14.995,0.524,-0.424,0.0
26.37,0.91,-0.014,1.0
23.393,0.8,-0.139,0.0
20.519,0.695,-0.234,0.0
18.09,0.607,-0.306,0.0
16.415,0.546,-0.367,0.0
15.166,0.499,-0.421,0.0
26.592,0.865,0.0,0.0
23.81,0.767,-0.129,0.0
20.854,0.665,-0.227,0.0
18.246,0.576,-0.299,0.0
16.575,0.518,-0.362,0.0
15.332,0.474,-0.418,0.0
26.915,0.82,0.013,0.0
23.804,0.718,-0.116,0.0
21.375,0.638,-0.22,0.0
18.412,0.543,-0.291,0.0
16.731,0.488,-0.355,0.0
15.525,0.448,-0.414,0.0
27.25,0.776,0.029,0.0
24.274,0.683,-0.104,0.0
21.672,0.603,-0.211,0.0
18.661,0.513,-0.284,0.0
16.868,0.459,-0.348,0.0
15.603,0.419,-0.406,0.0
27.461,0.727,0.046,0.0
24.726,0.646,-0.091,0.0
21.848,0.564,-0.198,0.0
18.942,0.483,-0.276,0.0
17.048,0.429,-0.341,0.0
15.698,0.39,-0.399,0.0
28.577,0.699,0.067,0.0
25.153,0.607,-0.076,0.0
22.2,0.529,-0.187,0.0
19.417,0.456,-0.27,0.0
17.262,0.4,-0.333,0.0
15.956,0.365,-0.394,0.0
28.724,0.645,0.088,1.0
25.533,0.565,-0.059,0.0
22.554,0.492,-0.174,0.0
19.772,0.425,-0.261,0.0
17.486,0.37,-0.325,0.0
16.016,0.334,-0.384,0.0
28.801,0.59,0.109,1.0
25.941,0.523,-0.041,0.0
23.182,0.46,-0.161,0.0
20.052,0.391,-0.249,0.0
17.729,0.34,-0.316,0.0
16.262,0.307,-0.377,0.0
28.864,0.534,0.131,1.0
26.342,0.479,-0.021,0.0
23.505,0.42,-0.145,0.0
20.313,0.356,-0.237,0.0
18.042,0.311,-0.307,0.0
16.441,0.278,-0.368,0.0
28.869,0.478,0.154,0.0
26.745,0.434,0.0,0.0
23.904,0.38,-0.128,0.0
20.724,0.323,-0.225,0.0
18.298,0.28,-0.297,0.0
16.645,0.249,-0.359,0.0
28.922,0.422,0.178,0.0
27.241,0.389,0.022,0.0
24.328,0.34,-0.11,1.0
21.7,0.296,-0.217,1.0
18.709,0.249,-0.287,0.0
16.849,0.219,-0.349,0.0
31.537,0.399,0.222,0.0
27.867,0.344,0.047,0.0
24.901,0.299,-0.091,0.0
21.94,0.257,-0.199,1.0
18.956,0.216,-0.274,0.0
17.06,0.189,-0.338,0.0
32.173,0.345,0.256,0.0
28.744,0.299,0.075,3.0
25.463,0.257,-0.069,0.0
22.27,0.218,-0.182,1.0
19.696,0.186,-0.266,0.0
17.386,0.159,-0.328,0.0
33.432,0.295,0.297,0.0
28.829,0.245,0.102,5.0
25.969,0.213,-0.046,0.0
22.784,0.179,-0.164,0.0
20.084,0.152,-0.252,0.0
17.699,0.128,-0.316,0.0
33.725,0.233,0.333,0.0
28.854,0.19,0.131,0.0
26.452,0.167,-0.021,0.0
23.386,0.14,-0.145,0.0
20.774,0.117,-0.24,0.0
18.065,0.096,-0.305,0.0
0.0,0.0,0.0,0.0
30.11,0.142,0.167,0.0
27.042,0.119,0.006,0.0
24.066,0.098,-0.125,0.0
21.213,0.08,-0.223,4.0
18.454,0.064,-0.292,0.0
36.158,0.114,0.431,0.0
31.514,0.089,0.208,0.0
27.825,0.07,0.036,0.0
24.65,0.055,-0.101,0.0
21.597,0.041,-0.204,2.0
18.994,0.03,-0.28,0.0
36.893,0.048,0.48,0.0
33.218,0.033,0.255,0.0
28.443,0.019,0.067,1.0
25.367,0.009,-0.076,0.0
22.207,0.001,-0.185,0.0
19.525,-0.004,-0.266,0.0
0.0,0.0,0.0,0.0
33.172,-0.027,0.292,0.0
28.786,-0.033,0.101,6.0
25.905,-0.037,-0.048,0.0
23.355,-0.041,-0.168,0.0
20.115,-0.041,-0.251,0.0
39.97,-0.094,0.61,0.0
33.39,-0.088,0.333,0.0
28.84,-0.085,0.135,5.0
26.491,-0.086,-0.019,0.0
23.801,-0.084,-0.143,0.0
20.83,-0.08,-0.235,0.0
41.849,-0.174,0.689,0.0
0.0,0.0,0.0,0.0
30.857,-0.147,0.181,1.0
27.358,-0.138,0.013,0.0
24.328,-0.13,-0.117,0.0
21.787,-0.123,-0.22,1.0
0.0,0.0,0.0,0.0
37.2,-0.232,0.46,0.0
31.572,-0.206,0.224,2.0
28.366,-0.193,0.048,1.0
25.06,-0.178,-0.089,0.0
22.266,-0.165,-0.197,1.0
46.847,-0.36,0.886,0.0
38.253,-0.305,0.521,0.0
32.492,-0.268,0.271,1.0
28.714,-0.246,0.085,6.0
25.63,-0.227,-0.059,0.0
22.749,-0.208,-0.172,0.0
0.0,0.0,0.0,0.0
0.0,0.0,0.0,0.0
33.167,-0.331,0.318,1.0
28.766,-0.296,0.122,0.0
26.441,-0.279,-0.027,0.0
23.59,-0.256,-0.148,0.0
0.0,0.0,0.0,0.0
0.0,0.0,0.0,0.0
34.188,-0.4,0.373,0.0
30.498,-0.365,0.169,0.0
27.299,-0.334,0.007,0.0
24.285,-0.304,-0.121,0.0
0.0,0.0,0.0,0.0
43.756,-0.572,0.766,0.0
0.0,0.0,0.0,0.0
31.349,-0.427,0.215,0.0
28.151,-0.391,0.045,1.0
25.076,-0.356,-0.091,0.0
0.0,0.0,0.0,0.0
47.677,-0.702,0.9,0.0
37.748,-0.566,0.514,0.0
32.667,-0.499,0.269,0.0
28.652,-0.446,0.085,1.0
25.928,-0.41,-0.058,0.0
0.0,0.0,0.0,0.0
0.0,0.0,0.0,0.0
0.0,0.0,0.0,0.0
33.676,-0.569,0.324,2.0
28.682,-0.492,0.126,0.0
26.614,-0.464,-0.022,0.0
0.0,0.0,0.0,0.0
0.0,0.0,0.0,0.0
41.978,-0.765,0.689,0.0
34.359,-0.635,0.38,0.0
30.982,-0.581,0.18,0.0
27.453,-0.522,0.016,0.0
89.869,-1.732,2.549,1.0
0.0,0.0,0.0,0.0
0.0,0.0,0.0,0.0
35.934,-0.72,0.449,0.0
31.617,-0.642,0.229,0.0
28.568,-0.587,0.057,5.0
0.0,0.0,0.0,0.0
0.0,0.0,0.0,0.0
0.0,0.0,0.0,0.0
0.0,0.0,0.0,0.0
33.132,-0.723,0.289,1.0
28.719,-0.634,0.1,10.0
96.722,-2.159,3.027,4.0
0.0,0.0,0.0,0.0
0.0,0.0,0.0,0.0
0.0,0.0,0.0,0.0
33.95,-0.792,0.347,0.0
28.771,-0.678,0.143,1.0
96.939,-2.307,3.178,3.0
0.0,0.0,0.0,0.0
0.0,0.0,0.0,0.0
0.0,0.0,0.0,0.0
36.011,-0.892,0.422,0.0
31.362,-0.785,0.204,0.0
92.459,-2.334,3.172,150.0
0.0,0.0,0.0,0.0
0.0,0.0,0.0,0.0
0.0,0.0,0.0,0.0
38.025,-0.997,0.505,0.0
32.487,-0.859,0.261,0.0
92.39,-2.463,3.312,189.0
93.187,-2.507,2.853,1.0
0.0,0.0,0.0,0.0
0.0,0.0,0.0,0.0
0.0,0.0,0.0,0.0
34.009,-0.947,0.327,0.0
92.313,-2.59,3.454,40.0
92.527,-2.617,2.978,2.0
0.0,0.0,0.0,0.0
53.283,-1.531,1.152,0.0
0.0,0.0,0.0,0.0
35.367,-1.032,0.395,0.0
92.317,-2.715,3.6,21.0
92.232,-2.732,3.114,26.0
0.0,0.0,0.0,0.0
0.0,0.0,0.0,0.0
0.0,0.0,0.0,0.0
0.0,0.0,0.0,0.0
92.272,-2.835,3.745,17.0
92.204,-2.853,3.261,45.0
0.0,0.0,0.0,0.0
0.0,0.0,0.0,0.0
0.0,0.0,0.0,0.0
0.0,0.0,0.0,0.0
0.0,0.0,0.0,0.0
92.262,-2.971,3.411,168.0
92.902,-3.012,2.95,7.0
0.0,0.0,0.0,0.0
0.0,0.0,0.0,0.0
0.0,0.0,0.0,0.0
93.577,-3.112,4.103,1.0
92.25,-3.087,3.563,152.0
92.195,-3.104,3.08,20.0
0.0,0.0,0.0,0.0
0.0,0.0,0.0,0.0
0.0,0.0,0.0,0.0
190.17,-6.555,8.651,11.0
92.188,-3.195,3.712,28.0
92.156,-3.213,3.231,58.0
0.0,0.0,0.0,0.0
0.0,0.0,0.0,0.0
0.0,0.0,0.0,0.0
113.482,-4.044,5.35,8.0
92.111,-3.301,3.862,1.0
92.219,-3.322,3.385,163.0
92.633,-3.353,2.908,2.0
0.0,0.0,0.0,0.0
0.0,0.0,0.0,0.0
113.396,-4.172,5.536,37.0
0.0,0.0,0.0,0.0
92.183,-3.424,3.539,59.0
92.111,-3.439,3.047,27.0
0.0,0.0,0.0,0.0
0.0,0.0,0.0,0.0
113.373,-4.297,5.727,21.0
113.441,-4.319,5.14,10.0
92.165,-3.526,3.697,29.0
92.089,-3.538,3.204,61.0
0.0,0.0,0.0,0.0
0.0,0.0,0.0,0.0
122.89,-4.789,6.418,9.0
194.748,-7.622,9.157,13.0
92.142,-3.622,3.853,1.0
92.14,-3.637,3.363,150.0
92.728,-3.675,2.903,2.0
0.0,0.0,0.0,0.0
90.69,-3.629,4.894,6.0
113.499,-4.56,5.534,8.0
93.388,-3.766,4.066,1.0
92.183,-3.732,3.524,14.0
92.255,-3.75,3.047,10.0
0.0,0.0,0.0,0.0
98.019,-4.019,5.458,15.0
113.423,-4.668,5.725,10.0
120.273,-4.969,5.445,12.0
92.339,-3.827,3.689,12.0
92.201,-3.836,3.204,162.0
0.0,0.0,0.0,0.0
98.373,-4.127,5.648,15.0
120.189,-5.06,6.274,8.0
120.209,-5.078,5.649,35.0
92.909,-3.937,3.872,3.0
92.238,-3.923,3.366,167.0
92.713,-3.956,2.901,1.0
91.41,-3.919,5.407,27.0
120.258,-5.171,6.487,17.0
120.292,-5.19,5.863,16.0
0.0,0.0,0.0,0.0
92.501,-4.016,3.537,7.0
92.392,-4.024,3.053,6.0
91.301,-3.994,5.562,18.0
111.769,-4.904,6.225,14.0
111.827,-4.922,5.647,10.0
194.327,-8.576,8.782,5.0
93.221,-4.126,3.729,1.0
92.655,-4.113,3.224,4.0
90.664,-4.043,5.683,14.0
98.545,-4.407,5.664,10.0
111.988,-5.021,5.853,17.0
164.411,-7.391,7.722,13.0
159.052,-7.17,6.642,3.0
93.305,-4.217,3.412,4.0
91.346,-4.146,5.887,16.0
98.255,-4.471,5.82,11.0
112.48,-5.131,6.077,18.0
164.299,-7.512,8.004,23.0
0.0,0.0,0.0,0.0
94.317,-4.334,3.614,4.0
91.655,-4.23,6.069,19.0
91.978,-4.254,5.61,19.0
113.197,-5.247,6.315,9.0
164.246,-7.631,8.29,22.0
164.302,-7.65,7.438,8.0
0.0,0.0,0.0,0.0
91.765,-4.301,6.238,4.0
91.991,-4.32,5.774,22.0
98.293,-4.625,5.656,16.0
112.371,-5.298,5.87,8.0
194.527,-9.191,9.149,12.0
0.0,0.0,0.0,0.0
91.54,-4.352,6.385,12.0
91.99,-4.381,5.935,12.0
92.051,-4.392,5.46,10.0
189.905,-9.077,10.254,8.0
189.608,-9.08,9.252,6.0
0.0,0.0,0.0,0.0
89.556,-4.315,6.406,13.0
108.585,-5.239,7.199,9.0
111.883,-5.407,6.833,15.0
112.464,-5.443,6.27,16.0
189.469,-9.186,9.577,18.0
0.0,0.0,0.0,0.0
88.661,-4.324,6.498,12.0
89.409,-4.366,6.085,9.0
108.743,-5.318,6.832,14.0
98.18,-4.807,5.646,16.0
112.645,-5.524,5.891,7.0
194.321,-9.544,9.151,8.0
88.494,-4.363,6.639,16.0
89.317,-4.409,6.234,26.0
108.658,-5.371,7.017,11.0
112.049,-5.545,6.639,14.0
112.54,-5.577,6.082,11.0
119.287,-5.919,5.825,1.0
91.337,-4.551,7.014,5.0
89.292,-4.453,6.389,21.0
89.392,-4.463,5.929,14.0
111.757,-5.586,6.818,11.0
119.155,-5.961,6.648,12.0
189.432,-9.488,9.581,17.0
88.69,-4.46,6.966,14.0
88.867,-4.472,6.514,17.0
89.323,-4.499,6.08,22.0
92.511,-4.664,5.805,16.0
92.534,-4.669,5.323,4.0
112.795,-5.697,5.901,5.0
88.691,-4.498,7.12,17.0
88.71,-4.501,6.656,18.0
89.291,-4.534,6.233,23.0
89.941,-4.571,5.8,21.0
92.49,-4.703,5.48,14.0
119.673,-6.091,6.468,12.0
88.521,-4.523,7.262,24.0
88.884,-4.544,6.825,16.0
88.727,-4.538,6.347,11.0
89.6,-4.586,5.932,18.0
92.531,-4.738,5.642,15.0
112.164,-5.747,6.255,13.0
88.6,-4.558,7.421,20.0
89.07,-4.584,6.993,11.0
88.57,-4.56,6.49,14.0
88.396,-4.552,6.006,16.0
92.58,-4.77,5.806,9.0
112.233,-5.785,6.451,9.0
88.76,-4.593,7.589,17.0
88.542,-4.582,7.105,16.0
88.6,-4.587,6.645,22.0
88.423,-4.578,6.159,18.0
89.807,-4.651,5.786,22.0
92.582,-4.796,5.482,12.0
89.067,-4.633,7.769,12.0
88.474,-4.602,7.252,20.0
88.786,-4.618,6.811,21.0
88.61,-4.609,6.324,14.0
88.228,-4.59,5.835,10.0
112.189,-5.837,6.833,8.0
89.123,-4.655,7.927,19.0
90.507,-4.727,7.574,7.0
88.533,-4.623,6.943,15.0
88.59,-4.626,6.474,15.0
88.285,-4.609,5.989,25.0
89.911,-4.694,5.628,10.0
89.231,-4.676,8.088,15.0
88.944,-4.66,7.592,11.0
88.502,-4.636,7.089,26.0
88.479,-4.633,6.614,19.0
88.417,-4.629,6.145,26.0
89.79,-4.7,5.77,26.0
87.597,-4.604,8.088,6.0
87.046,-4.573,7.578,11.0
88.52,-4.647,7.241,14.0
88.728,-4.657,6.782,20.0
88.555,-4.646,6.304,18.0
88.2,-4.625,5.815,13.0
87.207,-4.592,8.197,14.0
89.202,-4.694,7.914,16.0
0.0,0.0,0.0,0.0
88.667,-4.66,6.922,17.0
88.652,-4.657,6.454,15.0
88.311,-4.637,5.966,27.0
86.937,-4.582,8.315,24.0
89.25,-4.701,8.066,13.0
88.955,-4.681,7.569,11.0
88.541,-4.657,7.057,25.0
88.459,-4.649,6.586,17.0
88.377,-4.642,6.115,23.0
86.943,-4.584,8.459,12.0
87.588,-4.614,8.058,7.0
87.062,-4.582,7.55,12.0
88.532,-4.655,7.201,17.0
88.616,-4.656,6.741,17.0
88.537,-4.648,6.27,21.0
84.893,-4.475,8.398,16.0
87.325,-4.597,8.176,12.0
89.187,-4.69,7.879,15.0
90.479,-4.754,7.506,11.0
88.725,-4.658,6.892,16.0
88.643,-4.649,6.419,14.0
87.758,-4.62,8.823,14.0
86.953,-4.572,8.281,20.0
89.23,-4.687,8.024,16.0
90.57,-4.751,7.657,7.0
88.54,-4.639,7.018,23.0
88.537,-4.634,6.551,20.0
87.865,-4.616,8.974,12.0
86.874,-4.558,8.411,13.0
89.245,-4.677,8.167,8.0
87.099,-4.558,7.5,11.0
88.518,-4.626,7.155,24.0
88.488,-4.619,6.685,20.0
83.952,-4.399,8.705,13.0
84.948,-4.444,8.357,18.0
87.536,-4.573,8.147,7.0
89.061,-4.646,7.807,16.0
88.524,-4.612,7.291,19.0
88.945,-4.627,6.856,22.0
82.481,-4.307,8.681,19.0
84.963,-4.429,8.49,12.0
0.0,0.0,0.0,0.0
89.198,-4.635,7.955,18.0
88.67,-4.601,7.438,16.0
88.778,-4.599,6.978,13.0
82.536,-4.292,8.814,20.0
84.003,-4.36,8.522,14.0
86.988,-4.507,8.361,15.0
89.314,-4.62,8.1,15.0
0.0,0.0,0.0,0.0
88.55,-4.565,7.092,18.0
82.287,-4.258,8.91,22.0
84.053,-4.342,8.652,25.0
85.008,-4.382,8.297,18.0
87.889,-4.522,8.101,6.0
88.97,-4.569,7.728,9.0
88.542,-4.539,7.222,24.0
81.914,-4.215,8.992,19.0
84.029,-4.314,8.775,11.0
84.996,-4.355,8.422,15.0
87.717,-4.485,8.214,11.0
89.063,-4.545,7.867,17.0
88.56,-4.51,7.352,18.0
82.057,-4.194,9.128,21.0
90.581,-4.619,9.591,8.0
88.257,-4.491,8.873,10.0
85.529,-4.344,8.133,11.0
89.204,-4.52,8.007,21.0
88.438,-4.472,7.467,13.0
89.912,-4.562,10.13,13.0
82.554,-4.179,8.858,15.0
84.115,-4.248,8.575,16.0
85.238,-4.296,8.224,9.0
88.984,-4.474,8.11,16.0
87.178,-4.373,7.481,14.0
89.838,-4.523,10.247,23.0
82.472,-4.142,8.964,27.0
84.76,-4.246,8.757,8.0
0.0,0.0,0.0,0.0
85.464,-4.26,7.907,7.0
87.052,-4.329,7.589,17.0
85.727,-4.278,9.896,12.0
82.214,-4.092,9.048,20.0
83.514,-4.146,8.742,4.0
83.691,-4.144,8.303,14.0
85.493,-4.223,8.024,9.0
87.029,-4.287,7.703,16.0
85.727,-4.237,10.012,18.0
82.349,-4.059,9.173,15.0
82.291,-4.045,8.723,14.0
83.943,-4.115,8.439,9.0
85.494,-4.18,8.136,16.0
88.856,-4.332,7.98,12.0
87.056,-4.259,10.281,15.0
89.903,-4.386,10.131,8.0
82.372,-4.007,8.839,29.0
81.888,-3.971,8.337,21.0
85.5,-4.135,8.245,13.0
91.134,-4.395,8.3,9.0
87.081,-4.213,10.395,26.0
81.561,-3.934,9.295,12.0
82.359,-3.96,8.942,23.0
81.932,-3.927,8.446,29.0
79.6,-3.804,7.777,12.0
88.346,-4.209,8.156,13.0
86.133,-4.117,10.391,17.0
85.782,-4.087,9.884,14.0
81.491,-3.871,8.948,15.0
82.045,-3.884,8.557,28.0
79.569,-3.755,7.871,29.0
87.858,-4.133,8.218,13.0
85.932,-4.056,10.472,30.0
87.538,-4.117,10.192,2.0
81.296,-3.811,9.024,30.0
82.162,-3.839,8.668,33.0
79.489,-3.702,7.957,10.0
79.055,-3.669,7.487,13.0
85.904,-3.998,10.571,12.0
87.611,-4.064,10.304,14.0
81.518,-3.768,9.145,25.0
82.404,-3.796,8.789,19.0
82.439,-3.784,8.347,9.0
79.071,-3.617,7.579,27.0
87.913,-4.033,10.918,7.0
87.501,-4.0,10.391,19.0
81.75,-3.723,9.263,16.0
0.0,0.0,0.0,0.0
82.543,-3.732,8.449,11.0
79.269,-3.571,7.685,27.0
85.615,-3.868,10.729,15.0
80.555,-3.625,9.654,7.0
81.894,-3.672,9.368,27.0
81.167,-3.626,8.836,17.0
82.896,-3.688,8.574,20.0
79.495,-3.524,7.792,20.0
85.554,-3.803,10.813,23.0
80.398,-3.561,9.721,13.0
81.809,-3.608,9.445,30.0
81.356,-3.574,8.941,31.0
79.661,-3.487,8.322,8.0
79.561,-3.468,7.88,30.0
85.509,-3.737,10.896,13.0
86.038,-3.745,10.491,14.0
81.128,-3.517,9.449,19.0
65.069,-2.808,7.217,12.0
79.656,-3.424,8.401,13.0
79.509,-3.404,7.953,29.0
85.618,-3.675,10.995,10.0
85.916,-3.672,10.562,13.0
80.549,-3.428,9.46,21.0
65.146,-2.76,7.289,22.0
79.862,-3.37,8.499,12.0
79.47,-3.339,8.025,25.0
85.685,-3.609,11.086,18.0
85.645,-3.591,10.61,21.0
80.514,-3.361,9.532,17.0
65.158,-2.708,7.35,19.0
80.281,-3.322,8.618,27.0
64.408,-2.653,6.563,11.0
86.022,-3.552,11.209,30.0
85.473,-3.513,10.666,7.0
80.563,-3.296,9.611,11.0
77.511,-3.156,8.814,7.0
65.174,-2.641,7.054,6.0
64.116,-2.587,6.589,29.0
86.115,-3.482,11.297,24.0
85.634,-3.445,10.762,14.0
85.773,-3.435,10.307,14.0
77.592,-3.092,8.889,16.0
64.362,-2.552,7.021,28.0
64.181,-2.533,6.65,25.0
86.261,-3.411,11.389,28.0
76.996,-3.029,9.741,13.0
81.394,-3.187,9.848,9.0
77.622,-3.024,8.956,33.0
64.369,-2.495,7.074,32.0
64.225,-2.477,6.706,18.0
86.404,-3.338,11.478,23.0
76.934,-2.957,9.794,23.0
81.321,-3.11,9.903,17.0
77.662,-2.954,9.022,27.0
64.528,-2.442,7.141,37.0
64.36,-2.424,6.769,20.0
86.699,-3.269,11.584,17.0
76.936,-2.886,9.852,10.0
77.257,-2.881,9.466,9.0
77.796,-2.886,9.095,23.0
64.757,-2.39,7.213,39.0
64.717,-2.376,6.853,40.0
81.822,-3.007,10.991,6.0
80.707,-2.95,10.393,23.0
77.274,-2.809,9.522,19.0
77.831,-2.814,9.153,26.0
79.082,-2.842,8.864,13.0
64.617,-2.309,6.886,30.0
81.859,-2.929,11.052,12.0
80.703,-2.871,10.447,20.0
77.465,-2.739,9.598,23.0
77.866,-2.737,9.208,27.0
79.118,-2.765,8.919,18.0
64.666,-2.248,6.933,32.0
80.236,-2.791,10.884,12.0
81.057,-2.802,10.544,10.0
77.563,-2.666,9.658,22.0
77.934,-2.662,9.264,32.0
77.506,-2.632,8.784,11.0
64.7,-2.184,6.975,31.0
80.247,-2.71,10.934,13.0
77.734,-2.609,10.157,18.0
77.446,-2.583,9.688,9.0
78.221,-2.593,9.342,35.0
77.671,-2.559,8.846,20.0
64.774,-2.121,7.018,28.0
80.881,-2.648,11.065,10.0
77.674,-2.528,10.191,25.0
77.62,-2.51,9.751,14.0
77.127,-2.477,9.252,31.0
77.536,-2.475,8.87,11.0
64.827,-2.056,7.057,28.0
81.046,-2.57,11.128,20.0
77.702,-2.448,10.234,24.0
77.758,-2.433,9.806,28.0
77.074,-2.395,9.283,26.0
65.258,-2.014,7.496,18.0
64.943,-1.991,7.099,26.0
76.145,-2.334,10.491,14.0
79.798,-2.429,10.546,22.0
77.772,-2.35,9.843,9.0
77.139,-2.315,9.324,28.0
65.216,-1.944,7.519,25.0
64.953,-1.922,7.128,33.0
75.855,-2.243,10.482,27.0
80.081,-2.351,10.616,16.0
74.055,-2.159,9.402,19.0
77.158,-2.232,9.356,25.0
77.689,-2.232,8.987,19.0
64.85,-1.85,7.141,27.0
76.009,-2.165,10.532,27.0
80.968,-2.289,10.763,10.0
74.13,-2.08,9.438,17.0
76.193,-2.122,9.266,11.0
77.651,-2.147,9.009,11.0
64.936,-1.782,7.171,29.0
76.223,-2.088,10.586,20.0
76.068,-2.067,10.136,13.0
74.293,-2.003,9.481,13.0
77.116,-2.063,9.401,11.0
75.41,-2.001,8.771,26.0
65.068,-1.713,7.204,38.0
76.164,-2.001,10.599,24.0
64.197,-1.673,8.571,22.0
74.133,-1.916,9.48,11.0
74.12,-1.9,9.055,17.0
75.347,-1.917,8.782,32.0
65.119,-1.643,7.225,26.0
76.718,-1.93,10.695,9.0
64.203,-1.602,8.587,27.0
64.141,-1.587,8.216,22.0
77.082,-1.892,9.432,9.0
74.916,-1.822,8.746,29.0
65.343,-1.576,7.263,25.0
76.161,-1.831,10.631,24.0
64.225,-1.53,8.601,31.0
64.206,-1.517,8.236,26.0
74.166,-1.736,9.088,11.0
74.815,-1.737,8.746,24.0
65.511,-1.506,7.291,23.0
75.879,-1.739,10.602,20.0
64.327,-1.46,8.623,28.0
64.284,-1.446,8.254,29.0
74.029,-1.649,9.079,28.0
65.19,-1.439,7.628,20.0
65.404,-1.43,7.285,33.0
57.945,-1.261,8.102,14.0
64.722,-1.395,8.682,40.0
64.38,-1.374,8.271,21.0
74.172,-1.567,9.102,32.0
65.161,-1.363,7.629,18.0
65.539,-1.358,7.304,41.0
58.007,-1.196,8.113,22.0
64.456,-1.315,8.649,26.0
64.396,-1.3,8.275,26.0
74.073,-1.481,9.092,18.0
74.534,-1.474,8.727,26.0
65.1,-1.275,7.256,25.0
58.041,-1.129,8.118,27.0
58.216,-1.121,7.811,17.0
64.293,-1.224,8.261,8.0
58.883,-1.109,7.226,19.0
73.338,-1.367,8.585,14.0
65.171,-1.202,7.261,22.0
58.118,-1.063,8.126,20.0
58.198,-1.053,7.805,30.0
64.522,-1.154,8.286,29.0
58.892,-1.041,7.223,21.0
63.28,-1.106,7.403,20.0
65.117,-1.126,7.249,29.0
58.082,-0.995,8.116,14.0
58.235,-0.987,7.805,25.0
0.0,0.0,0.0,0.0
58.934,-0.974,7.221,22.0
63.22,-1.033,7.388,9.0
65.183,-1.052,7.248,40.0
58.079,-0.929,8.107,21.0
58.295,-0.919,7.804,28.0
64.226,-1.001,8.232,17.0
58.37,-0.898,7.143,21.0
63.3,-0.962,7.386,22.0
64.545,-0.967,7.166,26.0
58.064,-0.86,8.094,16.0
58.304,-0.852,7.794,31.0
64.224,-0.926,8.218,13.0
58.356,-0.83,7.129,22.0
63.331,-0.889,7.376,18.0
57.183,-0.792,6.336,19.0
58.391,-0.798,8.126,16.0
58.385,-0.786,7.791,32.0
58.477,-0.776,7.468,33.0
58.421,-0.763,7.122,31.0
63.285,-0.815,7.354,16.0
57.267,-0.726,6.33,17.0
63.122,-0.789,8.767,10.0
58.355,-0.717,7.77,32.0
57.979,-0.702,7.388,32.0
58.81,-0.701,7.151,33.0
63.438,-0.744,7.352,19.0
57.256,-0.66,6.31,22.0
58.24,-0.66,8.07,20.0
58.278,-0.649,7.74,33.0
57.588,-0.631,7.318,32.0
59.367,-0.639,7.198,34.0
63.511,-0.671,7.338,28.0
57.2,-0.595,6.283,30.0
58.307,-0.594,8.057,26.0
58.027,-0.579,7.684,32.0
57.43,-0.563,7.276,31.0
59.759,-0.575,7.222,34.0
63.913,-0.603,7.359,22.0
57.254,-0.53,6.266,27.0
58.358,-0.528,8.039,26.0
58.697,-0.52,7.748,26.0
57.24,-0.496,7.227,31.0
59.145,-0.502,7.122,34.0
63.715,-0.529,7.308,25.0
57.3,-0.465,6.245,27.0
58.453,-0.461,8.025,23.0
58.745,-0.453,7.726,33.0
57.43,-0.433,7.223,30.0
59.263,-0.435,7.107,29.0
59.969,-0.43,6.849,22.0
57.306,-0.401,6.217,38.0
58.567,-0.396,8.011,7.0
58.53,-0.385,7.668,33.0
57.23,-0.366,7.168,28.0
59.843,-0.373,7.145,30.0
59.84,-0.362,6.802,8.0
57.305,-0.337,6.186,30.0
51.771,-0.292,7.052,20.0
58.494,-0.319,7.63,32.0
57.178,-0.303,7.129,27.0
59.914,-0.306,7.119,33.0
57.518,-0.285,6.504,13.0
57.342,-0.273,6.156,34.0
51.801,-0.234,7.025,17.0
58.398,-0.254,7.582,33.0
57.762,-0.241,7.165,32.0
59.865,-0.239,7.076,22.0
57.363,-0.22,6.45,17.0
57.374,-0.21,6.123,31.0
51.877,-0.177,7.001,20.0
58.452,-0.189,7.55,29.0
57.489,-0.177,7.094,29.0
59.76,-0.174,7.023,27.0
57.404,-0.157,6.416,14.0
57.112,-0.147,6.056,31.0
51.843,-0.12,6.96,25.0
58.395,-0.125,7.501,24.0
57.29,-0.113,7.028,27.0
59.784,-0.109,6.983,17.0
57.514,-0.095,6.387,26.0
57.014,-0.085,6.004,29.0
58.747,-0.072,7.843,20.0
58.22,-0.062,7.435,28.0
57.318,-0.051,6.988,31.0
59.871,-0.044,6.948,11.0
57.212,-0.034,6.309,30.0
56.884,-0.025,5.947,29.0
61.088,-0.009,8.108,6.0
48.8,0.0,6.194,19.0
57.442,0.008,6.958,27.0
56.519,0.016,6.514,18.0
57.54,0.025,6.3,26.0
56.804,0.033,5.893,30.0
61.129,0.052,8.063,15.0
48.889,0.05,6.165,19.0
57.388,0.067,6.904,30.0
56.57,0.074,6.473,9.0
57.431,0.084,6.24,31.0
56.877,0.091,5.852,27.0
62.928,0.119,8.246,21.0
58.221,0.119,7.291,17.0
57.387,0.125,6.854,26.0
52.514,0.123,5.963,20.0
57.258,0.142,6.17,31.0
56.915,0.15,5.805,26.0
62.909,0.184,8.186,12.0
48.903,0.15,6.079,10.0
57.559,0.185,6.821,30.0
56.519,0.189,6.364,8.0
57.366,0.2,6.128,30.0
57.131,0.207,5.774,31.0
51.549,0.202,6.658,10.0
58.981,0.24,7.275,28.0
57.439,0.241,6.751,23.0
56.632,0.246,6.322,27.0
57.225,0.256,6.057,27.0
57.159,0.263,5.721,31.0
51.526,0.253,6.604,8.0
59.526,0.301,7.282,34.0
57.584,0.298,6.71,23.0
56.802,0.301,6.284,30.0
57.261,0.312,6.003,25.0
56.928,0.317,5.64,31.0
49.004,0.288,6.23,13.0
59.938,0.36,7.27,34.0
52.632,0.323,6.078,22.0
56.956,0.357,6.241,31.0
57.271,0.366,5.944,29.0
56.859,0.37,5.572,31.0
48.975,0.334,6.173,17.0
60.24,0.419,7.242,31.0
52.584,0.371,6.015,18.0
57.453,0.413,6.233,32.0
57.267,0.419,5.881,29.0
56.554,0.421,5.48,28.0
58.43,0.452,7.299,12.0
52.778,0.416,6.285,16.0
57.048,0.455,6.462,12.0
57.503,0.466,6.173,16.0
57.454,0.472,5.835,12.0
56.637,0.472,5.424,30.0
58.687,0.507,7.264,33.0
52.773,0.462,6.224,13.0
56.987,0.506,6.389,27.0
57.439,0.516,6.099,26.0
58.321,0.53,5.855,32.0
56.54,0.521,5.349,30.0
59.138,0.563,7.249,20.0
52.698,0.507,6.151,15.0
57.079,0.556,6.329,31.0
57.435,0.566,6.029,27.0
57.678,0.575,5.72,27.0
0.0,0.0,0.0,0.0
52.46,0.544,6.365,9.0
48.686,0.51,5.623,13.0
57.333,0.607,6.287,29.0
49.912,0.534,5.177,24.0
57.665,0.623,5.646,31.0
56.628,0.618,5.217,30.0
52.604,0.59,6.315,27.0
52.937,0.599,6.045,10.0
57.486,0.656,6.229,22.0
49.963,0.575,5.118,16.0
57.268,0.665,5.534,31.0
57.445,0.673,5.218,18.0
51.597,0.62,6.126,26.0
53.029,0.642,5.986,15.0
57.424,0.701,6.147,18.0
57.955,0.713,5.861,10.0
56.541,0.701,5.389,27.0
62.966,0.787,5.636,13.0
51.192,0.655,6.009,3.0
56.617,0.73,6.314,31.0
50.209,0.652,5.307,24.0
63.361,0.828,6.322,15.0
56.651,0.745,5.322,29.0
59.017,0.782,5.203,15.0
48.879,0.662,5.671,22.0
57.082,0.778,6.288,27.0
50.081,0.687,5.224,20.0
62.114,0.857,6.111,9.0
56.657,0.787,5.245,29.0
59.006,0.824,5.12,16.0
48.905,0.698,5.604,14.0
50.315,0.722,5.472,19.0
50.05,0.722,5.15,12.0
57.205,0.83,5.547,28.0
0.0,0.0,0.0,0.0
59.029,0.866,5.038,27.0
50.3,0.752,5.692,26.0
50.248,0.755,5.392,24.0
55.061,0.831,5.586,15.0
56.886,0.863,5.435,31.0
58.432,0.891,5.242,13.0
59.056,0.904,4.955,14.0
49.985,0.781,5.583,24.0
50.146,0.786,5.307,20.0
61.166,0.964,6.116,7.0
56.736,0.898,5.336,31.0
58.916,0.936,5.199,18.0
59.04,0.942,4.865,13.0
50.017,0.813,5.511,23.0
55.044,0.898,5.743,9.0
57.072,0.934,5.621,12.0
57.165,0.94,5.29,31.0
59.0,0.974,5.116,26.0
63.072,1.045,5.102,14.0
50.1,0.844,5.443,24.0
54.983,0.93,5.652,18.0
57.216,0.971,5.546,16.0
57.235,0.975,5.208,23.0
62.527,1.068,5.326,25.0
63.087,1.081,5.007,12.0
50.121,0.873,5.367,17.0
55.112,0.963,5.578,29.0
57.329,1.005,5.467,28.0
0.0,0.0,0.0,0.0
62.624,1.105,5.236,16.0
77.002,1.362,5.989,18.0
55.016,0.989,5.803,12.0
54.992,0.99,5.478,6.0
57.438,1.037,5.386,31.0
58.919,1.067,5.175,21.0
63.01,1.144,5.166,21.0
84.185,1.533,6.412,11.0
55.003,1.016,5.712,18.0
49.439,0.916,4.844,16.0
57.158,1.061,5.265,28.0
62.671,1.166,5.401,31.0
62.791,1.171,5.046,21.0
76.849,1.436,5.728,18.0
55.069,1.044,5.627,25.0
57.769,1.097,5.564,5.0
56.896,1.083,5.147,18.0
63.481,1.21,5.366,38.0
76.972,1.47,6.059,9.0
76.798,1.469,5.597,31.0
55.279,1.072,5.556,10.0
57.595,1.118,5.451,27.0
55.798,1.085,4.955,7.0
63.085,1.229,5.227,22.0
76.859,1.5,5.919,27.0
83.354,1.63,5.935,12.0
60.985,1.208,6.026,19.0
56.932,1.129,5.291,31.0
62.491,1.24,5.442,21.0
62.892,1.25,5.103,28.0
83.66,1.665,6.3,20.0
82.754,1.649,5.749,17.0
49.483,0.998,4.803,9.0
56.181,1.135,5.124,30.0
63.498,1.284,5.42,28.0
76.872,1.555,6.104,15.0
83.532,1.693,6.145,33.0
82.556,1.675,5.592,28.0
57.671,1.183,5.496,21.0
55.838,1.146,4.994,27.0
63.074,1.296,5.272,21.0
76.905,1.581,5.971,11.0
83.614,1.72,6.004,20.0
82.687,1.703,5.455,27.0
56.815,1.183,5.314,31.0
55.804,1.162,4.891,12.0
62.866,1.31,5.142,7.0
83.61,1.743,6.342,26.0
82.735,1.726,5.793,11.0
83.536,1.743,5.363,31.0
56.213,1.185,5.156,31.0
63.578,1.341,5.458,13.0
76.833,1.621,6.146,23.0
83.473,1.761,6.181,32.0
82.537,1.742,5.63,30.0
83.097,1.754,5.183,18.0
55.885,1.191,5.024,23.0
63.096,1.345,5.302,28.0
76.901,1.639,6.012,29.0
77.033,1.642,5.565,10.0
82.475,1.757,5.477,26.0
83.708,1.783,5.071,24.0
55.923,1.202,4.924,22.0
76.943,1.655,6.324,13.0
83.497,1.794,6.374,15.0
77.048,1.655,5.424,12.0
83.161,1.787,5.369,28.0
84.077,1.805,4.938,18.0
63.572,1.377,5.48,10.0
76.883,1.665,6.177,32.0
83.439,1.805,6.216,28.0
82.483,1.783,5.654,24.0
83.115,1.796,5.213,16.0
84.032,1.815,4.78,21.0
63.09,1.374,5.32,23.0
76.862,1.673,6.032,34.0
77.056,1.676,5.597,16.0
82.525,1.793,5.502,32.0
83.79,1.819,5.097,22.0
83.586,1.813,4.597,22.0
62.957,1.376,5.19,18.0
83.506,1.824,6.395,11.0
77.092,1.682,5.452,13.0
82.944,1.808,5.374,23.0
84.043,1.829,4.955,24.0
83.491,1.815,4.435,15.0
76.851,1.684,6.19,31.0
83.467,1.826,6.234,26.0
82.461,1.801,5.676,21.0
82.991,1.811,5.22,19.0
83.972,1.83,4.791,26.0
85.736,1.865,4.392,5.0
76.881,1.685,6.046,29.0
77.068,1.686,5.609,16.0
82.523,1.802,5.523,31.0
83.73,1.825,5.106,20.0
83.589,1.819,4.609,18.0
88.715,1.928,4.375,17.0
83.464,1.826,6.401,13.0
77.11,1.684,5.463,12.0
82.938,1.808,5.39,24.0
84.033,1.828,4.962,23.0
83.54,1.814,4.444,12.0
88.731,1.924,4.205,20.0
83.465,1.82,6.24,24.0
82.492,1.794,5.684,22.0
83.027,1.802,5.235,18.0
84.014,1.82,4.797,24.0
85.837,1.856,4.4,5.0
88.853,1.917,4.037,1.0
77.059,1.672,5.61,16.0
82.481,1.785,5.521,28.0
83.711,1.807,5.114,19.0
83.615,1.801,4.61,23.0
88.78,1.908,4.378,15.0
0.0,0.0,0.0,0.0
77.058,1.659,5.458,12.0
83.143,1.786,5.403,30.0
84.184,1.804,4.978,18.0
83.536,1.785,4.444,10.0
88.905,1.895,4.212,14.0
0.0,0.0,0.0,0.0
82.518,1.761,5.684,26.0
83.122,1.769,5.238,19.0
84.024,1.784,4.804,18.0
89.498,1.894,4.586,5.0
56.114,1.184,2.547,0.0
0.0,0.0,0.0,0.0
82.471,1.742,5.517,29.0
83.431,1.756,5.093,21.0
83.466,1.751,4.607,26.0
88.758,1.857,4.372,15.0
0.0,0.0,0.0,0.0
0.0,0.0,0.0,0.0
83.555,1.742,5.425,33.0
84.098,1.747,4.968,20.0
83.562,1.73,4.447,10.0
89.411,1.845,4.228,12.0
0.0,0.0,0.0,0.0
0.0,0.0,0.0,0.0
83.272,1.711,5.239,21.0
84.348,1.727,4.815,17.0
85.599,1.745,4.385,8.0
0.0,0.0,0.0,0.0
0.0,0.0,0.0,0.0
0.0,0.0,0.0,0.0
83.747,1.691,5.103,37.0
84.069,1.691,4.632,14.0
90.866,1.82,4.475,15.0
0.0,0.0,0.0,0.0
0.0,0.0,0.0,0.0
0.0,0.0,0.0,0.0
84.216,1.669,4.965,25.0
85.299,1.683,4.53,10.0
90.205,1.772,4.264,16.0
0.0,0.0,0.0,0.0
0.0,0.0,0.0,0.0
54.321,1.052,1.613,0.0
84.321,1.635,4.803,19.0
85.441,1.649,4.367,10.0
0.0,0.0,0.0,0.0
0.0,0.0,0.0,0.0
0.0,0.0,0.0,0.0
54.366,1.028,1.505,0.0
85.461,1.618,4.697,14.0
91.036,1.714,4.471,15.0
0.0,0.0,0.0,0.0
0.0,0.0,0.0,0.0
0.0,0.0,0.0,0.0
54.576,1.006,1.402,1.0
85.5,1.575,4.527,9.0
91.038,1.668,4.29,12.0
0.0,0.0,0.0,0.0
0.0,0.0,0.0,0.0
0.0,0.0,0.0,0.0
54.47,0.975,1.291,0.0
91.077,1.629,4.642,17.0
0.0,0.0,0.0,0.0
0.0,0.0,0.0,0.0
55.079,0.967,1.839,1.0
54.911,0.958,1.513,1.0
54.769,0.95,1.19,0.0
91.038,1.576,4.459,10.0
0.0,0.0,0.0,0.0
0.0,0.0,0.0,0.0
55.103,0.935,1.73,1.0
55.021,0.927,1.407,1.0
0.0,0.0,0.0,0.0
76.558,1.278,3.599,29.0
55.731,0.923,2.293,0.0
0.0,0.0,0.0,0.0
55.286,0.903,1.625,0.0
55.105,0.893,1.3,0.0
0.0,0.0,0.0,0.0
76.538,1.228,3.446,13.0
55.699,0.887,2.184,2.0
0.0,0.0,0.0,0.0
55.37,0.868,1.52,0.0
0.0,0.0,0.0,0.0
0.0,0.0,0.0,0.0
0.0,0.0,0.0,0.0
0.0,0.0,0.0,0.0
55.461,0.837,1.74,0.0
55.645,0.832,1.417,0.0
48.373,0.717,0.95,0.0
40.487,0.595,0.559,0.0
0.0,0.0,0.0,0.0
0.0,0.0,0.0,0.0
0.0,0.0,0.0,0.0
0.0,0.0,0.0,0.0
0.0,0.0,0.0,0.0
36.09,0.503,0.428,0.0
0.0,0.0,0.0,0.0
0.0,0.0,0.0,0.0
56.078,0.761,1.54,0.0
0.0,0.0,0.0,0.0
40.39,0.537,0.635,0.0
0.0,0.0,0.0,0.0
56.37,0.735,2.094,0.0
56.235,0.725,1.761,1.0
56.51,0.721,1.441,2.0
0.0,0.0,0.0,0.0
37.744,0.47,0.52,0.0
31.796,0.391,0.253,0.0
56.877,0.694,2.002,0.0
56.527,0.681,1.661,0.0
57.556,0.685,1.357,1.0
0.0,0.0,0.0,0.0
35.904,0.416,0.425,0.0
28.939,0.331,0.174,1.0
56.953,0.645,1.895,0.0
57.034,0.637,1.566,0.0
0.0,0.0,0.0,0.0
0.0,0.0,0.0,0.0
0.0,0.0,0.0,0.0
28.856,0.304,0.119,6.0
57.399,0.598,1.8,0.0
57.568,0.591,1.47,0.0
0.0,0.0,0.0,0.0
0.0,0.0,0.0,0.0
32.634,0.319,0.261,0.0
28.447,0.273,0.062,1.0
57.854,0.548,1.704,2.0
57.795,0.538,1.366,0.0
0.0,0.0,0.0,0.0
35.903,0.322,0.428,0.0
28.926,0.254,0.176,0.0
26.99,0.233,0.008,0.0
74.741,0.635,2.06,1.0
0.0,0.0,0.0,0.0
0.0,0.0,0.0,0.0
33.969,0.271,0.341,0.0
28.85,0.225,0.122,5.0
25.97,0.198,-0.04,0.0
0.0,0.0,0.0,0.0
0.0,0.0,0.0,0.0
38.295,0.273,0.539,0.0
32.16,0.223,0.262,0.0
28.326,0.192,0.067,1.0
25.017,0.165,-0.085,0.0
0.0,0.0,0.0,0.0
0.0,0.0,0.0,0.0
35.994,0.218,0.439,0.0
0.0,0.0,0.0,0.0
27.059,0.154,0.013,0.0
23.801,0.131,-0.125,0.0
0.0,0.0,0.0,0.0
41.471,0.214,0.67,0.0
0.0,0.0,0.0,0.0
28.868,0.138,0.129,0.0
25.879,0.119,-0.033,0.0
22.919,0.101,-0.162,1.0
0.0,0.0,0.0,0.0
37.392,0.151,0.537,0.0
0.0,0.0,0.0,0.0
28.441,0.104,0.075,1.0
25.054,0.086,-0.078,0.0
21.743,0.071,-0.194,3.0
0.0,0.0,0.0,0.0
36.428,0.105,0.457,0.0
0.0,0.0,0.0,0.0
27.165,0.067,0.023,0.0
23.937,0.054,-0.118,1.0
20.989,0.044,-0.225,2.0
41.723,0.079,0.691,0.0
0.0,0.0,0.0,0.0
28.829,0.043,0.143,0.0
26.193,0.034,-0.023,0.0
23.203,0.025,-0.155,0.0
19.804,0.017,-0.247,0.0
38.115,0.026,0.563,0.0
33.14,0.016,0.298,0.0
28.542,0.007,0.091,1.0
25.286,0.001,-0.067,0.0
21.822,-0.002,-0.184,0.0
18.888,-0.006,-0.269,0.0
37.299,-0.02,0.486,0.0
31.186,-0.023,0.226,0.0
27.529,-0.026,0.04,0.0
24.012,-0.028,-0.106,0.0
21.132,-0.029,-0.216,1.0
18.274,-0.029,-0.292,0.0
0.0,0.0,0.0,0.0
28.857,-0.059,0.158,3.0
26.475,-0.06,-0.007,0.0
23.498,-0.058,-0.144,0.0
20.154,-0.054,-0.24,0.0
17.604,-0.051,-0.312,0.0
33.239,-0.104,0.319,1.0
28.763,-0.096,0.109,7.0
25.504,-0.091,-0.05,0.0
22.39,-0.085,-0.175,0.0
19.164,-0.077,-0.261,0.0
17.138,-0.072,-0.332,0.0
31.574,-0.141,0.25,1.0
28.312,-0.132,0.06,1.0
24.618,-0.121,-0.089,0.0
21.727,-0.111,-0.206,1.0
18.423,-0.098,-0.281,0.0
16.719,-0.093,-0.352,0.0
28.856,-0.168,0.18,1.0
27.052,-0.163,0.013,0.0
23.945,-0.15,-0.126,0.0
20.372,-0.132,-0.227,0.0
17.9,-0.12,-0.303,0.0
16.258,-0.113,-0.369,0.0
28.774,-0.207,0.133,6.0
25.791,-0.191,-0.028,0.0
22.795,-0.174,-0.157,0.0
19.491,-0.154,-0.248,0.0
17.347,-0.141,-0.321,0.0
15.921,-0.133,-0.387,0.0
28.635,-0.247,0.087,4.0
25.119,-0.222,-0.068,0.0
22.153,-0.201,-0.187,0.0
18.876,-0.176,-0.271,0.0
16.892,-0.161,-0.34,0.0
15.515,-0.152,-0.402,0.0
27.552,-0.277,0.04,0.0
24.226,-0.249,-0.103,0.0
21.217,-0.223,-0.213,0.0
18.278,-0.197,-0.291,0.0
16.53,-0.182,-0.358,0.0
15.171,-0.171,-0.416,0.0
26.434,-0.304,-0.001,0.0
23.207,-0.273,-0.135,0.0
20.137,-0.242,-0.233,0.0
17.666,-0.217,-0.308,0.0
16.104,-0.201,-0.374,0.0
14.718,-0.188,-0.427,0.0
25.624,-0.333,-0.041,0.0
22.732,-0.301,-0.167,0.0
19.366,-0.262,-0.254,0.0
17.128,-0.236,-0.325,0.0
15.758,-0.221,-0.39,0.0
14.465,-0.207,-0.441,0.0
0.0,0.0,0.0,0.0
21.963,-0.325,-0.194,1.0
18.667,-0.281,-0.272,0.0
16.713,-0.255,-0.342,0.0
15.449,-0.24,-0.405,0.0
14.113,-0.223,-0.451,0.0
23.912,-0.384,-0.108,0.0
21.172,-0.346,-0.218,0.0
18.134,-0.301,-0.291,0.0
16.416,-0.276,-0.359,0.0
14.912,-0.255,-0.412,0.0
13.843,-0.241,-0.463,0.0
23.406,-0.413,-0.14,0.0
19.944,-0.357,-0.233,0.0
17.673,-0.321,-0.309,0.0
16.072,-0.296,-0.374,0.0
14.681,-0.274,-0.427,0.0
13.602,-0.258,-0.474,0.0
22.57,-0.433,-0.166,0.0
19.346,-0.376,-0.253,0.0
17.164,-0.339,-0.323,0.0
15.798,-0.316,-0.39,0.0
14.415,-0.292,-0.439,0.0
13.405,-0.275,-0.485,0.0
22.012,-0.458,-0.192,0.0
18.606,-0.392,-0.269,0.0
16.78,-0.358,-0.339,0.0
15.449,-0.334,-0.402,0.0
14.127,-0.309,-0.449,0.0
13.118,-0.291,-0.492,0.0
21.257,-0.477,-0.214,0.0
18.227,-0.414,-0.288,0.0
16.511,-0.379,-0.355,0.0
14.823,-0.345,-0.406,0.0
13.88,-0.326,-0.459,0.0
12.932,-0.308,-0.502,0.0
19.967,-0.48,-0.226,0.0
17.737,-0.432,-0.303,0.0
16.173,-0.398,-0.369,0.0
14.719,-0.366,-0.422,0.0
13.665,-0.344,-0.47,0.0
12.727,-0.324,-0.511,0.0
19.525,-0.502,-0.246,0.0
17.311,-0.45,-0.317,0.0
15.84,-0.416,-0.381,0.0
14.468,-0.384,-0.432,0.0
13.468,-0.361,-0.48,0.0
12.529,-0.34,-0.518,0.0
19.087,-0.522,-0.264,0.0
16.944,-0.468,-0.331,0.0
15.512,-0.433,-0.392,0.0
14.242,-0.402,-0.443,0.0
13.289,-0.379,-0.49,0.0
12.374,-0.356,-0.527,0.0
18.419,-0.535,-0.277,0.0
16.67,-0.489,-0.346,0.0
15.218,-0.451,-0.403,0.0
13.995,-0.419,-0.452,0.0
13.035,-0.394,-0.496,0.0
12.227,-0.373,-0.535,0.0
18.074,-0.556,-0.292,0.0
16.273,-0.505,-0.356,0.0
14.942,-0.468,-0.413,0.0
13.757,-0.435,-0.46,0.0
12.931,-0.413,-0.506,0.0
12.061,-0.389,-0.541,0.0
17.671,-0.574,-0.306,0.0
16.109,-0.528,-0.371,0.0
14.757,-0.488,-0.424,0.0
13.646,-0.455,-0.471,0.0
12.636,-0.425,-0.509,0.0
11.899,-0.404,-0.547,0.0
17.293,-0.591,-0.318,0.0
15.835,-0.546,-0.382,0.0
14.459,-0.503,-0.431,0.0
13.416,-0.471,-0.478,0.0
12.524,-0.444,-0.518,0.0
11.74,-0.419,-0.552,0.0
16.984,-0.611,-0.33,0.0
15.579,-0.565,-0.392,0.0
14.194,-0.519,-0.438,0.0
13.289,-0.49,-0.487,0.0
12.403,-0.461,-0.525,0.0
11.626,-0.436,-0.559,0.0
16.714,-0.63,-0.342,0.0
15.229,-0.579,-0.398,0.0
14.061,-0.539,-0.448,0.0
13.072,-0.505,-0.492,0.0
12.277,-0.478,-0.532,0.0
11.524,-0.452,-0.565,0.0
16.497,-0.651,-0.353,0.0
15.062,-0.599,-0.408,0.0
13.9,-0.557,-0.456,0.0
12.899,-0.521,-0.498,0.0
12.068,-0.491,-0.535,0.0
11.384,-0.467,-0.569,0.0
16.212,-0.668,-0.362,0.0
14.79,-0.614,-0.415,0.0
13.704,-0.573,-0.462,0.0
12.697,-0.535,-0.502,0.0
11.958,-0.508,-0.541,0.0
11.23,-0.481,-0.572,0.0
16.028,-0.689,-0.373,0.0
14.635,-0.634,-0.423,0.0
13.602,-0.593,-0.471,0.0
12.658,-0.556,-0.511,0.0
11.869,-0.525,-0.547,0.0
11.157,-0.498,-0.578,0.0
15.765,-0.706,-0.38,0.0
14.442,-0.651,-0.43,0.0
13.45,-0.611,-0.477,0.0
12.503,-0.572,-0.516,0.0
11.788,-0.543,-0.553,0.0
11.072,-0.514,-0.583,0.0
15.487,-0.721,-0.386,0.0
14.293,-0.67,-0.437,0.0
13.282,-0.627,-0.482,0.0
12.411,-0.59,-0.522,0.0
11.684,-0.559,-0.558,0.0
11.032,-0.532,-0.589,0.0
15.31,-0.74,-0.394,0.0
14.092,-0.686,-0.442,0.0
13.143,-0.644,-0.487,0.0
12.293,-0.606,-0.526,0.0
11.55,-0.574,-0.56,0.0
10.86,-0.543,-0.588,0.0
15.113,-0.758,-0.4,0.0
13.971,-0.705,-0.449,0.0
13.095,-0.665,-0.495,0.0
12.215,-0.624,-0.532,0.0
11.449,-0.589,-0.564,0.0
10.808,-0.56,-0.593,0.0
14.944,-0.776,-0.406,0.0
13.848,-0.724,-0.454,0.0
12.897,-0.678,-0.496,0.0
12.105,-0.641,-0.535,0.0
11.373,-0.606,-0.567,0.0
10.751,-0.576,-0.597,0.0
14.815,-0.796,-0.412,0.0
13.707,-0.741,-0.458,0.0
12.866,-0.7,-0.503,0.0
11.971,-0.655,-0.537,0.0
11.296,-0.622,-0.571,0.0
10.614,-0.588,-0.597,0.0
14.677,-0.815,-0.417,0.0
13.604,-0.76,-0.463,0.0
12.796,-0.719,-0.508,0.0
11.897,-0.673,-0.541,0.0
11.211,-0.638,-0.573,0.0
10.575,-0.605,-0.601,0.0
14.569,-0.836,-0.423,0.0
13.544,-0.781,-0.469,0.0
12.627,-0.733,-0.509,0.0
11.855,-0.692,-0.546,0.0
11.139,-0.654,-0.576,0.0
10.482,-0.619,-0.601,0.0
14.516,-0.859,-0.429,0.0
13.466,-0.801,-0.474,0.0
12.502,-0.748,-0.51,0.0
11.763,-0.708,-0.548,0.0
11.103,-0.672,-0.58,0.0
10.428,-0.635,-0.603,0.0
14.353,-0.875,-0.431,0.0
13.403,-0.822,-0.478,0.0
12.472,-0.769,-0.515,0.0
11.691,-0.725,-0.55,0.0
11.013,-0.686,-0.58,0.0
10.354,-0.649,-0.604,0.0
14.259,-0.895,-0.435,0.0
13.236,-0.835,-0.478,0.0
12.394,-0.786,-0.517,0.0
11.647,-0.743,-0.553,0.0
11.023,-0.707,-0.586,0.0
10.332,-0.666,-0.607,0.0
14.191,-0.916,-0.439,0.0
13.188,-0.856,-0.482,0.0
12.406,-0.809,-0.523,0.0
11.592,-0.76,-0.555,0.0
10.969,-0.723,-0.587,0.0
10.326,-0.684,-0.611,0.0
14.142,-0.938,-0.442,0.0
13.141,-0.876,-0.485,0.0
12.342,-0.827,-0.525,0.0
11.544,-0.778,-0.557,0.0
10.932,-0.74,-0.589,0.0
10.265,-0.699,-0.611,0.0
14.066,-0.958,-0.445,0.0
13.131,-0.899,-0.489,0.0
12.309,-0.847,-0.527,0.0
11.536,-0.798,-0.56,0.0
10.905,-0.758,-0.591,0.0
10.321,-0.721,-0.617,0.0
14.074,-0.984,-0.449,0.0
13.029,-0.915,-0.489,0.0
12.22,-0.862,-0.527,0.0
11.435,-0.811,-0.558,0.0
10.837,-0.772,-0.59,0.0
10.263,-0.735,-0.616,0.0
13.946,-0.999,-0.449,0.0
13.024,-0.938,-0.492,0.0
12.148,-0.879,-0.527,0.0
11.43,-0.831,-0.561,0.0
10.823,-0.79,-0.592,0.0
10.17,-0.746,-0.613,0.0
13.952,-1.024,-0.452,0.0
13.01,-0.959,-0.494,0.0
12.238,-0.907,-0.533,0.0
11.422,-0.85,-0.563,0.0
10.73,-0.802,-0.589,0.0
10.108,-0.759,-0.611,0.0
13.893,-1.044,-0.452,0.0
12.928,-0.976,-0.493,0.0
12.174,-0.923,-0.532,0.0
11.365,-0.866,-0.562,0.0
10.776,-0.824,-0.593,0.0
10.238,-0.787,-0.621,0.0
13.908,-1.069,-0.455,0.0
12.943,-0.999,-0.495,0.0
12.078,-0.937,-0.529,0.0
11.33,-0.882,-0.561,0.0
10.73,-0.839,-0.591,0.0
0.0,0.0,0.0,0.0
13.849,-1.088,-0.454,0.0
12.909,-1.018,-0.495,0.0
12.029,-0.953,-0.528,0.0
11.305,-0.899,-0.561,0.0
10.728,-0.857,-0.592,0.0
10.136,-0.813,-0.616,0.0
13.874,-1.113,-0.455,0.0
12.953,-1.044,-0.497,0.0
12.08,-0.977,-0.531,0.0
11.371,-0.924,-0.564,0.0
0.0,0.0,0.0,0.0
0.0,0.0,0.0,0.0
13.892,-1.138,-0.456,0.0
12.925,-1.063,-0.496,0.0
12.035,-0.994,-0.529,0.0
11.451,-0.949,-0.568,0.0
0.0,0.0,0.0,0.0
10.153,-0.849,-0.617,0.0
13.862,-1.159,-0.455,0.0
12.966,-1.088,-0.497,0.0
12.057,-1.015,-0.53,0.0
11.333,-0.958,-0.562,0.0
0.0,0.0,0.0,0.0
10.115,-0.862,-0.614,0.0
13.907,-1.185,-0.455,0.0
12.931,-1.106,-0.495,0.0
12.046,-1.034,-0.528,0.0
11.377,-0.981,-0.563,0.0
0.0,0.0,0.0,0.0
0.0,0.0,0.0,0.0
13.887,-1.206,-0.453,0.0
12.958,-1.13,-0.495,0.0
12.045,-1.054,-0.527,0.0
11.398,-1.001,-0.563,0.0
0.0,0.0,0.0,0.0
10.066,-0.891,-0.609,0.0
13.888,-1.229,-0.451,0.0
12.952,-1.15,-0.493,0.0
12.035,-1.072,-0.524,0.0
11.422,-1.021,-0.562,0.0
10.841,-0.973,-0.594,0.0
10.119,-0.912,-0.61,0.0
13.946,-1.256,-0.451,0.0
12.949,-1.17,-0.49,0.0
12.083,-1.096,-0.524,0.0
11.447,-1.042,-0.561,0.0
10.808,-0.987,-0.59,0.0
0.0,0.0,0.0,0.0
13.977,-1.281,-0.449,0.0
12.983,-1.193,-0.489,0.0
12.244,-1.129,-0.528,0.0
11.435,-1.058,-0.558,0.0
10.876,-1.01,-0.591,0.0
10.277,-0.958,-0.615,0.0
14.012,-1.305,-0.446,0.0
13.128,-1.227,-0.491,0.0
12.239,-1.148,-0.525,0.0
11.478,-1.08,-0.557,0.0
10.946,-1.033,-0.591,0.0
10.252,-0.971,-0.611,0.0
14.098,-1.335,-0.445,0.0
