X,Y,Z,Reflectivity
59.151,5.244,4.909,28.0
43.095,3.825,3.33,19.0
42.616,3.801,4.488,18.0
33.755,3.013,3.361,28.0
43.188,3.859,4.052,16.0
59.395,5.313,5.226,9.0
43.441,3.89,3.574,17.0
43.072,3.861,3.298,23.0
33.788,3.044,3.534,21.0
43.214,3.896,4.271,10.0
51.58,4.654,4.801,16.0
43.682,3.945,3.811,17.0
43.214,3.906,3.523,16.0
43.047,3.895,3.264,30.0
33.792,3.072,3.508,29.0
51.379,4.675,5.038,16.0
43.669,3.976,4.031,17.0
43.585,3.972,3.769,21.0
51.822,4.727,4.185,10.0
43.067,3.932,3.231,28.0
33.77,3.098,3.478,28.0
51.45,4.723,5.004,15.0
43.616,4.007,3.991,28.0
43.571,4.005,3.732,18.0
51.824,4.768,4.142,35.0
59.404,5.47,4.409,7.0
33.709,3.118,3.444,30.0
43.751,4.05,4.218,17.0
43.551,4.034,3.949,21.0
52.819,4.896,4.48,11.0
51.931,4.817,4.107,30.0
59.359,5.511,4.354,33.0
33.69,3.142,3.413,25.0
43.665,4.074,4.172,28.0
43.497,4.061,3.905,16.0
59.264,5.537,4.975,10.0
52.106,4.871,4.075,16.0
58.944,5.514,4.272,33.0
33.707,3.167,3.384,20.0
43.593,4.098,4.126,27.0
59.423,5.589,5.282,24.0
59.266,5.578,4.921,17.0
59.261,5.581,4.581,13.0
58.478,5.51,4.185,32.0
43.656,4.131,4.343,10.0
43.613,4.129,4.087,24.0
59.269,5.613,5.213,18.0
51.832,4.912,4.255,32.0
59.245,5.617,4.524,33.0
58.458,5.546,4.129,26.0
0.0,0.0,0.0,0.0
43.627,4.157,4.047,29.0
52.249,4.981,4.546,17.0
51.81,4.942,4.204,44.0
58.789,5.61,4.433,32.0
58.55,5.59,4.079,30.0
43.691,4.188,4.262,16.0
52.485,5.033,4.816,6.0
52.407,5.027,4.507,26.0
51.846,4.975,4.155,21.0
58.692,5.635,4.366,32.0
58.546,5.623,4.02,26.0
43.765,4.22,4.225,35.0
43.482,4.193,3.946,16.0
52.319,5.048,4.446,26.0
59.209,5.714,4.685,22.0
58.626,5.66,4.302,32.0
58.521,5.652,3.959,26.0
43.729,4.239,4.175,31.0
51.946,5.037,4.66,12.0
51.859,5.03,4.353,10.0
59.181,5.741,4.621,33.0
58.505,5.678,4.231,32.0
58.597,5.688,3.902,26.0
43.631,4.251,4.12,28.0
51.939,5.061,4.604,16.0
51.828,5.051,4.296,9.0
58.935,5.744,4.54,30.0
58.443,5.698,4.166,32.0
58.536,5.709,3.836,30.0
200.351,-15.84,10.291,9.0
0.0,0.0,0.0,0.0
33.838,-2.687,1.38,2.0
33.842,-2.694,1.198,9.0
33.808,-2.698,1.019,133.0
33.824,-2.705,0.841,42.0
200.256,-16.046,10.562,53.0
34.705,-2.787,1.646,0.0
34.16,-2.748,1.44,0.0
33.806,-2.726,1.243,36.0
33.804,-2.732,1.066,142.0
33.812,-2.739,0.888,62.0
200.22,-16.248,10.835,26.0
34.807,-2.83,1.7,0.0
34.177,-2.784,1.488,0.0
33.823,-2.761,1.291,81.0
33.792,-2.765,1.111,89.0
33.809,-2.772,0.934,150.0
200.169,-16.441,11.112,43.0
0.0,0.0,0.0,0.0
0.0,0.0,0.0,0.0
33.794,-2.791,1.337,29.0
33.798,-2.797,1.159,15.0
33.807,-2.804,0.982,150.0
0.0,0.0,0.0,0.0
152.003,-12.651,7.85,55.0
0.0,0.0,0.0,0.0
33.879,-2.829,1.388,0.0
33.822,-2.83,1.207,21.0
33.789,-2.833,1.028,120.0
209.398,-17.585,12.213,6.0
151.978,-12.785,8.061,150.0
34.938,-2.943,1.668,0.0
0.0,0.0,0.0,0.0
33.796,-2.857,1.254,54.0
33.784,-2.861,1.076,120.0
151.928,-12.889,9.075,12.0
151.966,-12.913,8.275,150.0
34.944,-2.974,1.718,0.0
0.0,0.0,0.0,0.0
33.819,-2.887,1.303,74.0
33.773,-2.888,1.123,45.0
209.275,-17.926,12.801,6.0
151.906,-13.03,8.488,14.0
152.011,-13.059,7.692,33.0
0.0,0.0,0.0,0.0
33.822,-2.914,1.351,8.0
33.81,-2.917,1.172,6.0
148.805,-12.863,9.315,23.0
185.447,-16.05,10.627,37.0
151.98,-13.171,7.907,123.0
34.59,-3.002,1.614,0.0
33.997,-2.954,1.407,0.0
33.823,-2.943,1.222,26.0
0.0,0.0,0.0,0.0
190.031,-16.586,11.166,68.0
190.087,-16.609,10.164,92.0
34.643,-3.03,1.666,0.0
34.442,-3.017,1.474,0.0
33.816,-2.965,1.269,61.0
208.526,-18.322,13.654,8.0
209.004,-18.384,12.581,11.0
209.194,-18.421,11.487,100.0
0.0,0.0,0.0,0.0
0.0,0.0,0.0,0.0
33.806,-2.987,1.318,35.0
147.209,-13.031,9.852,2.0
148.92,-13.194,9.179,8.0
209.157,-18.549,11.786,150.0
186.546,-16.561,9.508,17.0
34.523,-3.067,1.577,0.0
33.956,-3.02,1.372,1.0
148.46,-13.231,10.149,5.0
150.451,-13.418,9.49,14.0
209.172,-18.672,12.086,70.0
169.959,-15.186,8.906,19.0
34.631,-3.097,1.632,0.0
34.124,-3.054,1.428,0.0
148.355,-13.304,10.359,10.0
185.192,-16.62,11.949,5.0
150.371,-13.506,8.907,10.0
170.603,-15.334,9.186,7.0
0.0,0.0,0.0,0.0
0.0,0.0,0.0,0.0
148.173,-13.366,10.558,7.0
148.611,-13.412,9.803,20.0
150.085,-13.554,9.106,28.0
186.352,-16.841,10.304,14.0
0.0,0.0,0.0,0.0
0.0,0.0,0.0,0.0
146.451,-13.279,10.647,10.0
0.0,0.0,0.0,0.0
149.1,-13.534,9.261,17.0
186.314,-16.92,10.569,126.0
169.567,-15.408,8.724,15.0
0.0,0.0,0.0,0.0
146.359,-13.334,10.852,11.0
0.0,0.0,0.0,0.0
149.022,-13.587,9.47,12.0
186.26,-16.99,10.832,27.0
169.424,-15.463,8.957,13.0
34.621,-3.161,1.647,0.0
146.119,-13.367,11.044,7.0
147.393,-13.488,10.357,8.0
185.437,-16.976,12.048,5.0
150.37,-13.769,8.957,22.0
162.197,-14.858,8.804,4.0
0.0,0.0,0.0,0.0
145.875,-13.394,11.233,7.0
147.358,-13.533,10.565,7.0
208.518,-19.155,13.842,6.0
149.498,-13.735,9.118,18.0
150.377,-13.821,8.374,13.0
0.0,0.0,0.0,0.0
145.562,-13.409,11.415,8.0
146.254,-13.473,10.693,5.0
209.49,-19.301,14.203,7.0
149.549,-13.781,9.331,11.0
150.365,-13.859,8.584,26.0
169.433,-15.618,8.778,15.0
145.566,-13.445,11.622,8.0
0.0,0.0,0.0,0.0
209.471,-19.349,14.497,9.0
151.376,-13.982,9.659,13.0
150.008,-13.857,8.775,23.0
150.275,-13.884,7.994,8.0
145.857,-13.502,11.848,3.0
145.983,-13.512,11.082,4.0
153.348,-14.193,10.826,8.0
151.474,-14.019,9.874,13.0
149.58,-13.842,8.956,32.0
150.296,-13.909,8.203,21.0
0.0,0.0,0.0,0.0
0.0,0.0,0.0,0.0
153.337,-14.213,11.036,4.0
0.0,0.0,0.0,0.0
149.548,-13.858,9.159,13.0
150.32,-13.928,8.409,25.0
151.32,-14.05,12.712,11.0
145.478,-13.503,11.445,6.0
143.633,-13.329,10.534,8.0
209.324,-19.419,14.216,10.0
199.113,-18.468,12.465,5.0
150.194,-13.927,8.605,23.0
144.941,-13.468,12.373,12.0
145.61,-13.525,11.653,5.0
143.689,-13.342,10.732,12.0
209.493,-19.443,14.511,6.0
151.524,-14.059,9.689,12.0
149.6,-13.877,8.769,25.0
144.931,-13.471,12.567,2.0
145.512,-13.519,11.839,3.0
146.334,-13.589,11.125,4.0
153.287,-14.228,10.821,11.0
151.505,-14.056,9.888,13.0
149.57,-13.872,8.967,30.0
146.846,-13.649,12.928,11.0
0.0,0.0,0.0,0.0
145.604,-13.516,11.262,8.0
153.219,-14.216,11.016,5.0
208.424,-19.327,13.876,6.0
149.576,-13.864,9.161,13.0
146.865,-13.642,13.123,9.0
151.317,-14.044,12.712,12.0
145.447,-13.491,11.439,5.0
143.818,-13.332,10.527,2.0
209.402,-19.399,14.21,10.0
149.594,-13.851,9.355,3.0
147.138,-13.653,13.339,2.0
144.965,-13.439,12.364,13.0
145.708,-13.498,11.647,6.0
143.717,-13.304,10.705,5.0
209.538,-19.384,14.49,6.0
151.404,-13.996,9.662,11.0
0.0,0.0,0.0,0.0
144.869,-13.41,12.541,4.0
146.189,-13.519,11.871,3.0
145.994,-13.491,11.058,5.0
153.528,-14.175,10.807,5.0
151.447,-13.973,9.851,8.0
147.495,-13.638,13.745,11.0
147.164,-13.594,12.923,4.0
147.187,-13.582,12.136,5.0
145.679,-13.431,11.215,5.0
0.0,0.0,0.0,0.0
208.426,-19.182,13.819,5.0
147.436,-13.599,13.924,5.0
146.911,-13.537,13.083,5.0
147.022,-13.531,12.304,4.0
145.361,-13.366,11.369,7.0
146.341,-13.443,10.661,8.0
209.427,-19.221,14.135,7.0
33.862,-2.625,0.063,2.0
33.888,-2.617,-0.117,4.0
33.861,-2.604,-0.298,5.0
19.262,-1.475,-0.275,0.0
17.338,-1.323,-0.34,0.0
15.793,-1.2,-0.394,0.0
33.913,-2.575,0.094,1.0
33.88,-2.562,-0.086,3.0
33.885,-2.552,-0.268,9.0
19.785,-1.484,-0.264,0.0
17.653,-1.318,-0.33,0.0
15.93,-1.185,-0.383,0.0
33.918,-2.52,0.125,1.0
33.905,-2.509,-0.056,4.0
33.888,-2.497,-0.237,1.0
33.842,-2.483,-0.422,1.0
17.883,-1.306,-0.319,0.0
16.222,-1.18,-0.376,0.0
29.769,-2.163,0.136,0.0
33.877,-2.45,-0.026,2.0
33.866,-2.439,-0.208,2.0
33.894,-2.43,-0.393,3.0
18.134,-1.294,-0.307,0.0
16.6,-1.179,-0.37,0.0
30.157,-2.139,0.163,0.0
33.938,-2.397,0.002,1.0
33.907,-2.384,-0.179,0.0
21.248,-1.487,-0.228,0.0
18.558,-1.292,-0.299,0.0
16.81,-1.166,-0.361,0.0
0.0,0.0,0.0,0.0
27.547,-1.898,0.024,0.0
24.287,-1.666,-0.109,0.0
21.763,-1.486,-0.217,0.0
18.913,-1.285,-0.29,0.0
16.978,-1.148,-0.352,0.0
31.548,-2.13,0.221,0.0
28.161,-1.891,0.046,0.0
24.948,-1.668,-0.092,0.0
22.256,-1.48,-0.204,0.0
19.173,-1.269,-0.279,0.0
17.22,-1.134,-0.343,0.0
32.64,-2.145,0.254,1.0
28.38,-1.855,0.068,1.0
25.316,-1.647,-0.075,0.0
22.519,-1.457,-0.19,0.0
19.579,-1.26,-0.27,0.0
17.439,-1.117,-0.335,0.0
32.381,-2.07,0.276,1.0
28.4,-1.805,0.089,0.0
25.667,-1.623,-0.057,0.0
22.982,-1.446,-0.177,0.0
19.747,-1.235,-0.259,0.0
17.655,-1.099,-0.327,0.0
32.322,-2.007,0.298,0.0
28.505,-1.76,0.109,6.0
25.735,-1.58,-0.04,0.0
23.424,-1.43,-0.165,0.0
20.071,-1.218,-0.249,0.0
17.884,-1.08,-0.319,0.0
34.75,-2.094,0.343,0.0
28.578,-1.712,0.128,2.0
26.619,-1.585,-0.024,0.0
23.67,-1.401,-0.151,0.0
20.618,-1.213,-0.243,0.0
18.082,-1.058,-0.311,0.0
34.697,-2.025,0.365,0.0
0.0,0.0,0.0,0.0
27.201,-1.569,-0.007,0.0
23.733,-1.36,-0.137,1.0
34.223,-1.95,-0.383,0.0
34.228,-1.938,-0.568,1.0
34.712,-1.96,0.386,0.0
30.552,-1.715,0.174,2.0
34.225,-1.909,0.01,0.0
34.24,-1.897,-0.178,6.0
34.284,-1.888,-0.363,1.0
18.687,-1.023,-0.299,0.0
34.759,-1.897,0.406,0.0
31.298,-1.697,0.196,0.0
28.124,-1.515,0.024,2.0
34.205,-1.83,-0.158,0.0
22.088,-1.174,-0.222,0.0
18.905,-0.998,-0.292,0.0
34.904,-1.837,0.427,0.0
31.413,-1.642,0.214,0.0
28.022,-1.454,0.039,7.0
24.87,-1.282,-0.102,0.0
22.164,-1.134,-0.211,1.0
18.984,-0.965,-0.284,0.0
0.0,0.0,0.0,0.0
31.779,-1.599,0.232,0.0
28.121,-1.404,0.052,7.0
25.18,-1.248,-0.091,0.0
22.3,-1.097,-0.202,1.0
19.195,-0.938,-0.278,0.0
8.699,0.14,-0.685,0.0
8.349,0.132,-0.702,0.0
0.0,0.0,0.0,0.0
0.0,0.0,0.0,0.0
7.396,0.113,-0.742,0.0
7.131,0.108,-0.754,0.0
8.787,0.132,-0.681,0.0
8.517,0.126,-0.705,0.0
8.112,0.118,-0.715,0.0
0.0,0.0,0.0,0.0
0.0,0.0,0.0,0.0
7.218,0.101,-0.754,0.0
8.869,0.124,-0.675,0.0
8.515,0.117,-0.694,0.0
0.0,0.0,0.0,0.0
0.0,0.0,0.0,0.0
0.0,0.0,0.0,0.0
7.27,0.095,-0.749,0.0
8.95,0.116,-0.669,0.0
0.0,0.0,0.0,0.0
8.263,0.104,-0.706,0.0
0.0,0.0,0.0,0.0
0.0,0.0,0.0,0.0
7.337,0.088,-0.745,0.0
9.058,0.108,-0.664,0.0
0.0,0.0,0.0,0.0
0.0,0.0,0.0,0.0
0.0,0.0,0.0,0.0
0.0,0.0,0.0,0.0
7.434,0.082,-0.744,0.0
9.283,0.102,-0.667,0.0
8.85,0.096,-0.683,0.0
0.0,0.0,0.0,0.0
0.0,0.0,0.0,0.0
0.0,0.0,0.0,0.0
0.0,0.0,0.0,0.0
9.303,0.094,-0.655,0.0
0.0,0.0,0.0,0.0
8.557,0.083,-0.693,0.0
0.0,0.0,0.0,0.0
0.0,0.0,0.0,0.0
0.0,0.0,0.0,0.0
0.0,0.0,0.0,0.0
8.978,0.08,-0.666,0.0
0.0,0.0,0.0,0.0
0.0,0.0,0.0,0.0
0.0,0.0,0.0,0.0
7.647,0.063,-0.731,0.0
9.565,0.079,-0.644,0.0
0.0,0.0,0.0,0.0
0.0,0.0,0.0,0.0
0.0,0.0,0.0,0.0
0.0,0.0,0.0,0.0
0.0,0.0,0.0,0.0
9.791,0.072,-0.644,0.0
0.0,0.0,0.0,0.0
8.933,0.063,-0.682,0.0
0.0,0.0,0.0,0.0
0.0,0.0,0.0,0.0
0.0,0.0,0.0,0.0
0.0,0.0,0.0,0.0
0.0,0.0,0.0,0.0
9.022,0.056,-0.674,0.0
8.596,0.052,-0.688,0.0
8.256,0.049,-0.705,0.0
7.975,0.046,-0.723,0.0
10.143,0.058,-0.634,0.0
0.0,0.0,0.0,0.0
0.0,0.0,0.0,0.0
8.738,0.046,-0.685,0.0
0.0,0.0,0.0,0.0
8.073,0.04,-0.719,0.0
10.317,0.051,-0.627,0.0
9.747,0.046,-0.644,0.0
0.0,0.0,0.0,0.0
0.0,0.0,0.0,0.0
0.0,0.0,0.0,0.0
8.182,0.034,-0.714,0.0
10.384,0.043,-0.614,0.0
9.891,0.04,-0.636,0.0
0.0,0.0,0.0,0.0
0.0,0.0,0.0,0.0
0.0,0.0,0.0,0.0
8.257,0.028,-0.706,0.0
10.616,0.037,-0.609,0.0
9.99,0.033,-0.625,0.0
0.0,0.0,0.0,0.0
0.0,0.0,0.0,0.0
0.0,0.0,0.0,0.0
8.431,0.023,-0.706,0.0
10.775,0.03,-0.599,0.0
10.277,0.027,-0.625,0.0
0.0,0.0,0.0,0.0
0.0,0.0,0.0,0.0
0.0,0.0,0.0,0.0
8.473,0.017,-0.695,0.0
34.911,-0.022,0.392,0.0
30.453,-0.017,0.185,1.0
27.584,-0.013,0.025,0.0
24.952,-0.009,-0.108,0.0
21.724,-0.006,-0.206,1.0
19.387,-0.004,-0.283,0.0
37.56,-0.004,0.5,0.0
33.154,0.0,0.27,0.0
28.7,0.001,0.086,1.0
25.883,0.004,-0.057,0.0
23.376,0.005,-0.172,0.0
20.633,0.007,-0.258,0.0
0.0,0.0,0.0,0.0
0.0,0.0,0.0,0.0
30.008,0.019,0.153,0.0
27.033,0.02,-0.004,0.0
24.111,0.02,-0.128,0.0
21.331,0.02,-0.223,4.0
0.0,0.0,0.0,0.0
0.0,0.0,0.0,0.0
0.0,0.0,0.0,0.0
28.55,0.039,0.054,1.0
25.465,0.037,-0.082,0.0
22.731,0.036,-0.19,0.0
0.0,0.0,0.0,0.0
0.0,0.0,0.0,0.0
33.698,0.064,0.311,0.0
28.811,0.058,0.114,0.0
26.588,0.056,-0.031,0.0
23.709,0.053,-0.15,1.0
0.0,0.0,0.0,0.0
0.0,0.0,0.0,0.0
36.38,0.094,0.41,0.0
0.0,0.0,0.0,0.0
27.982,0.079,0.024,0.0
25.033,0.074,-0.107,0.0
0.0,0.0,0.0,0.0
0.0,0.0,0.0,0.0
39.169,0.129,0.521,0.0
0.0,0.0,0.0,0.0
28.732,0.102,0.082,1.0
25.929,0.096,-0.059,0.0
75.604,0.288,1.94,2.0
0.0,0.0,0.0,0.0
41.728,0.17,0.639,0.0
0.0,0.0,0.0,0.0
29.715,0.128,0.144,0.0
27.089,0.121,-0.008,0.0
75.771,0.347,2.097,3.0
0.0,0.0,0.0,0.0
0.0,0.0,0.0,0.0
37.124,0.185,0.446,0.0
32.027,0.164,0.219,0.0
28.443,0.149,0.047,1.0
77.045,0.414,2.283,5.0
0.0,0.0,0.0,0.0
0.0,0.0,0.0,0.0
39.163,0.227,0.548,0.0
0.0,0.0,0.0,0.0
28.865,0.176,0.104,0.0
78.152,0.486,2.47,23.0
74.972,0.477,1.98,3.0
0.0,0.0,0.0,0.0
43.471,0.29,0.693,1.0
35.695,0.243,0.383,0.0
29.103,0.203,0.162,0.0
78.13,0.555,2.621,21.0
75.973,0.551,2.155,4.0
0.0,0.0,0.0,0.0
0.0,0.0,0.0,0.0
37.98,0.293,0.481,0.0
32.158,0.253,0.24,0.0
78.07,0.625,2.769,20.0
78.426,0.64,2.375,8.0
74.622,0.621,1.872,1.0
0.0,0.0,0.0,0.0
0.0,0.0,0.0,0.0
33.753,0.297,0.317,0.0
79.41,0.71,2.969,6.0
57.993,0.528,1.867,1.0
57.938,0.537,1.563,2.0
0.0,0.0,0.0,0.0
0.0,0.0,0.0,0.0
0.0,0.0,0.0,0.0
108.193,1.073,4.25,13.0
0.0,0.0,0.0,0.0
57.677,0.591,1.664,0.0
57.499,0.599,1.354,0.0
0.0,0.0,0.0,0.0
38.031,0.409,0.499,0.0
108.727,1.185,4.47,8.0
57.397,0.635,2.06,0.0
57.066,0.641,1.75,0.0
57.229,0.654,1.451,1.0
0.0,0.0,0.0,0.0
0.0,0.0,0.0,0.0
66.133,2.118,4.537,25.0
81.692,2.634,5.167,18.0
81.767,2.656,4.735,35.0
81.754,2.675,4.289,30.0
81.144,2.675,3.824,19.0
0.0,0.0,0.0,0.0
66.133,2.213,4.624,8.0
65.888,2.22,4.254,21.0
81.569,2.767,4.83,33.0
81.977,2.8,4.406,27.0
81.124,2.79,3.927,26.0
56.193,1.945,2.42,0.0
81.416,2.842,5.797,14.0
81.593,2.867,5.372,16.0
81.742,2.891,4.943,20.0
81.421,2.899,4.479,40.0
81.289,2.915,4.036,32.0
81.121,2.928,3.594,7.0
65.304,2.375,4.732,9.0
81.724,2.992,5.482,18.0
65.724,2.422,4.055,24.0
81.395,3.019,4.577,31.0
81.203,3.031,4.131,33.0
81.248,3.052,3.697,26.0
65.318,2.473,4.812,23.0
65.337,2.489,4.461,52.0
65.42,2.508,4.115,28.0
65.555,2.528,3.764,28.0
81.132,3.149,4.223,29.0
65.637,2.564,3.064,24.0
77.579,3.053,5.806,10.0
81.159,3.213,5.635,19.0
65.392,2.604,4.188,26.0
65.472,2.623,3.834,26.0
65.557,2.642,3.486,45.0
65.567,2.658,3.134,57.0
66.577,2.72,5.058,9.0
80.986,3.328,5.714,25.0
81.577,3.372,5.315,30.0
65.404,2.719,3.902,24.0
65.52,2.739,3.555,58.0
65.547,2.756,3.204,53.0
66.516,2.817,5.124,26.0
66.093,2.815,4.734,28.0
66.025,2.828,4.372,20.0
65.417,2.817,3.971,27.0
65.519,2.837,3.624,36.0
65.628,2.858,3.276,16.0
75.452,3.311,5.892,16.0
66.11,2.916,4.804,27.0
65.948,2.926,4.435,19.0
65.422,2.917,4.038,32.0
65.614,2.942,3.695,8.0
80.97,3.65,4.123,30.0
58.312,2.648,4.613,13.0
65.871,3.008,4.853,38.0
65.905,3.026,4.498,47.0
81.4,3.756,5.106,11.0
81.259,3.769,4.657,34.0
80.951,3.775,4.202,30.0
58.214,2.735,4.661,26.0
77.905,3.679,5.815,17.0
80.683,3.828,5.584,35.0
81.338,3.879,5.178,20.0
81.371,3.901,4.739,33.0
80.924,3.899,4.275,35.0
58.033,2.816,4.701,49.0
64.211,3.131,4.851,11.0
64.993,3.185,4.557,10.0
81.588,4.018,5.268,17.0
81.434,4.029,4.815,33.0
81.319,4.043,4.367,32.0
65.721,3.292,5.382,13.0
64.059,3.224,4.896,8.0
64.907,3.281,4.607,12.0
81.046,4.116,5.302,24.0
81.254,4.146,4.874,18.0
80.681,4.136,4.401,36.0
65.722,3.394,5.437,23.0
58.23,3.021,4.499,32.0
64.59,3.366,4.638,9.0
80.523,4.216,5.335,37.0
80.743,4.247,4.909,14.0
80.59,4.258,4.46,35.0
58.531,3.115,4.89,20.0
58.277,3.115,4.549,14.0
64.971,3.487,4.716,21.0
80.423,4.336,5.39,34.0
80.52,4.36,4.957,17.0
80.545,4.381,4.519,31.0
49.172,2.694,4.145,17.0
58.515,3.219,4.612,21.0
58.325,3.223,4.277,27.0
80.466,4.464,5.452,34.0
80.471,4.483,5.012,17.0
80.62,4.51,4.581,36.0
49.194,2.772,4.182,25.0
58.492,3.309,4.651,28.0
58.255,3.309,4.312,37.0
58.448,3.334,4.0,29.0
58.606,3.357,3.69,14.0
58.663,3.373,3.373,24.0
49.437,2.863,4.236,16.0
80.481,4.68,6.454,21.0
58.256,3.401,4.351,32.0
58.338,3.419,4.031,29.0
58.458,3.44,3.718,38.0
58.569,3.46,3.404,51.0
57.889,3.444,4.997,15.0
80.788,4.824,6.529,30.0
58.278,3.493,4.388,19.0
58.326,3.509,4.065,57.0
58.461,3.531,3.754,31.0
58.563,3.551,3.439,55.0
57.877,3.534,5.03,23.0
58.116,3.561,4.73,40.0
58.198,3.58,4.416,33.0
58.311,3.6,4.097,25.0
58.521,3.626,3.79,26.0
58.588,3.643,3.472,33.0
0.0,0.0,0.0,0.0
81.056,5.094,6.641,21.0
58.228,3.673,4.449,32.0
58.375,3.695,4.132,29.0
80.644,5.123,5.264,28.0
80.799,5.152,4.83,28.0
58.12,3.731,5.113,20.0
66.93,4.312,5.517,13.0
58.299,3.769,4.483,24.0
68.14,4.419,4.856,8.0
80.78,5.257,5.312,29.0
80.273,5.243,4.835,27.0
0.0,0.0,0.0,0.0
58.125,3.835,4.818,18.0
58.137,3.849,4.496,32.0
61.259,4.068,4.392,16.0
80.665,5.375,5.338,19.0
80.112,5.356,4.859,31.0
59.284,3.991,5.267,22.0
58.325,3.938,4.858,17.0
58.067,3.934,4.514,25.0
61.077,4.151,4.403,22.0
78.127,5.326,5.201,11.0
80.018,5.473,4.884,14.0
51.942,3.577,4.634,7.0
58.649,4.051,4.906,20.0
58.123,4.026,4.54,32.0
61.562,4.278,4.46,13.0
61.72,4.302,4.129,27.0
77.765,5.438,4.773,13.0
51.843,3.65,4.643,22.0
58.692,4.144,4.929,28.0
58.127,4.117,4.558,32.0
61.384,4.36,4.466,30.0
61.051,4.349,4.103,26.0
60.664,4.335,3.741,17.0
51.816,3.728,4.655,4.0
58.736,4.238,4.949,32.0
58.108,4.204,4.572,31.0
60.792,4.411,4.439,27.0
61.049,4.442,4.119,25.0
60.639,4.425,3.754,18.0
43.48,3.194,3.917,12.0
57.985,4.271,4.9,32.0
61.87,4.57,4.882,7.0
60.517,4.482,4.432,35.0
60.685,4.507,4.107,18.0
60.729,4.523,3.772,28.0
43.504,3.261,3.928,11.0
61.392,4.614,5.199,19.0
60.382,4.55,4.777,13.0
0.0,0.0,0.0,0.0
60.4,4.575,4.098,31.0
60.791,4.618,3.786,32.0
43.285,3.309,3.915,30.0
51.897,3.978,4.404,28.0
60.197,4.626,4.771,26.0
59.482,4.583,4.376,21.0
59.903,4.627,4.072,26.0
60.68,4.699,3.787,30.0
43.119,3.361,3.905,25.0
51.888,4.055,4.408,44.0
60.222,4.717,4.779,33.0
59.437,4.667,4.378,24.0
59.85,4.711,4.074,29.0
61.033,4.817,3.814,35.0
43.161,3.428,3.912,36.0
51.906,4.132,4.413,22.0
60.046,4.791,4.769,27.0
59.357,4.747,4.376,26.0
59.764,4.792,4.071,33.0
60.661,4.876,3.793,23.0
43.18,3.493,3.915,27.0
60.311,4.889,5.13,15.0
51.987,4.224,4.129,25.0
59.389,4.836,4.378,24.0
59.4,4.849,4.046,25.0
59.845,4.896,3.742,24.0
43.146,3.552,3.912,31.0
59.826,4.936,5.088,29.0
51.907,4.291,4.122,28.0
51.912,4.301,3.825,18.0
51.923,4.312,3.535,36.0
51.981,4.326,3.248,29.0
43.133,3.612,3.908,30.0
59.592,5.001,5.064,31.0
51.828,4.358,4.112,28.0
51.861,4.37,3.818,34.0
51.886,4.382,3.529,27.0
51.947,4.397,3.241,52.0
43.22,3.681,3.912,21.0
59.594,5.085,5.058,16.0
51.794,4.428,4.104,41.0
51.833,4.44,3.81,35.0
51.86,4.452,3.521,31.0
51.948,4.469,3.235,57.0
51.448,4.453,4.65,11.0
51.649,4.478,4.376,39.0
51.784,4.498,4.096,8.0
51.832,4.511,3.802,33.0
51.863,4.523,3.513,20.0
51.979,4.543,3.229,45.0
51.538,4.531,4.649,24.0
59.257,5.219,5.011,22.0
43.219,3.813,3.41,28.0
51.865,4.585,3.795,24.0
51.94,4.6,3.507,20.0
0.0,0.0,0.0,0.0
53.078,4.738,4.777,14.0
43.679,3.906,3.684,15.0
43.186,3.868,3.398,18.0
51.92,4.659,3.787,15.0
59.345,5.335,3.993,33.0
59.145,5.327,3.647,32.0
43.689,3.957,3.921,20.0
43.492,3.946,3.657,15.0
43.195,3.925,3.387,28.0
59.545,5.42,4.327,32.0
59.113,5.391,3.961,32.0
58.574,5.351,3.595,28.0
43.607,4.006,3.901,15.0
43.386,3.992,3.635,18.0
51.935,4.786,4.057,14.0
59.368,5.48,4.296,34.0
58.986,5.454,3.935,31.0
58.357,5.406,3.563,30.0
43.512,4.053,3.878,14.0
52.616,4.908,4.39,7.0
52.237,4.88,4.062,7.0
58.696,5.492,4.227,33.0
59.016,5.53,3.916,32.0
58.337,5.476,3.541,32.0
59.361,5.603,5.269,23.0
59.275,5.602,4.924,12.0
59.247,5.608,4.585,12.0
58.464,5.543,4.187,33.0
58.896,5.592,3.884,31.0
58.048,5.52,3.5,29.0
52.603,5.029,4.648,18.0
51.861,4.965,4.287,16.0
59.059,5.662,4.546,33.0
58.452,5.612,4.162,30.0
58.813,5.655,3.854,32.0
58.197,5.604,3.484,23.0
51.862,5.02,4.559,10.0
51.802,5.021,4.258,20.0
58.843,5.71,4.503,33.0
58.51,5.686,4.139,33.0
58.616,5.705,3.814,32.0
58.188,5.671,3.456,26.0
43.632,4.274,3.814,28.0
51.815,5.082,4.234,17.0
58.744,5.769,4.466,33.0
58.391,5.741,4.102,31.0
58.286,5.739,3.763,31.0
58.137,5.732,3.424,26.0
43.608,4.322,3.789,23.0
51.76,5.135,4.203,14.0
58.812,5.842,4.44,33.0
58.334,5.802,4.066,30.0
58.267,5.802,3.731,28.0
58.05,5.788,3.388,27.0
51.896,5.201,4.481,6.0
59.113,5.93,4.767,18.0
58.886,5.914,4.413,25.0
58.181,5.85,4.023,32.0
58.087,5.847,3.686,31.0
57.866,5.832,3.344,27.0
43.319,4.387,3.715,25.0
58.435,5.925,4.677,33.0
58.87,5.975,4.377,25.0
58.187,5.912,3.988,32.0
57.786,5.878,3.632,31.0
58.045,5.912,3.318,30.0
43.259,4.427,3.683,17.0
58.352,5.977,4.635,18.0
59.489,6.099,4.385,33.0
58.237,5.977,3.954,28.0
57.728,5.931,3.591,31.0
58.116,5.978,3.285,32.0
43.178,4.462,3.647,24.0
58.223,6.022,4.586,20.0
58.813,6.089,4.297,25.0
58.056,6.016,3.903,32.0
57.667,5.982,3.549,29.0
57.95,6.018,3.237,26.0
43.053,4.491,3.608,29.0
58.265,6.083,4.549,17.0
58.772,6.141,4.253,28.0
57.848,6.05,3.849,32.0
57.724,6.043,3.512,28.0
57.922,6.07,3.194,27.0
42.992,4.525,3.572,24.0
54.06,5.695,4.181,13.0
58.958,6.216,4.223,21.0
57.618,6.079,3.792,30.0
57.736,6.098,3.47,25.0
57.953,6.126,3.153,25.0
42.994,4.564,3.54,25.0
58.746,6.241,4.5,17.0
58.74,6.245,4.163,33.0
57.573,6.126,3.746,26.0
57.867,6.162,3.434,30.0
58.077,6.19,3.115,32.0
43.0,4.602,3.506,30.0
54.279,5.813,4.115,21.0
58.33,6.252,4.088,32.0
57.588,6.177,3.7,27.0
58.078,6.235,3.4,28.0
58.247,6.258,3.078,32.0
43.025,4.641,3.473,28.0
54.178,5.848,4.063,26.0
58.144,6.28,4.027,26.0
57.664,6.233,3.658,18.0
58.097,6.284,3.354,30.0
58.52,6.335,3.043,29.0
53.375,5.8,4.264,24.0
54.193,5.893,4.018,13.0
57.842,6.293,3.957,24.0
54.388,5.921,3.404,17.0
58.105,6.33,3.305,23.0
58.521,6.38,2.993,25.0
53.173,5.819,4.201,27.0
58.764,6.434,4.306,14.0
57.645,6.315,3.893,27.0
54.433,5.966,3.359,27.0
57.823,6.342,3.238,31.0
58.718,6.445,2.952,28.0
53.151,5.855,4.152,27.0
58.69,6.468,4.248,15.0
53.986,5.953,3.597,17.0
54.59,6.023,3.319,16.0
57.829,6.384,3.185,31.0
58.01,6.408,2.863,27.0
52.998,5.875,4.091,24.0
58.755,6.515,4.198,21.0
54.024,5.993,3.55,24.0
55.233,6.13,3.307,11.0
57.609,6.397,3.12,31.0
58.09,6.454,2.814,32.0
52.959,5.904,4.038,21.0
58.035,6.472,4.092,30.0
53.982,6.023,3.496,27.0
57.404,6.407,3.383,14.0
57.981,6.475,3.084,31.0
58.178,6.5,2.762,32.0
52.859,5.925,3.979,24.0
54.233,6.081,3.771,13.0
54.159,6.075,3.454,28.0
57.655,6.469,3.341,25.0
57.963,6.506,3.027,28.0
58.393,6.558,2.715,32.0
53.212,5.994,3.953,28.0
54.056,6.091,3.705,22.0
54.541,6.148,3.424,28.0
57.537,6.487,3.276,32.0
58.047,6.547,2.974,31.0
58.563,6.608,2.664,32.0
53.268,6.028,3.904,15.0
54.058,6.119,3.65,28.0
55.262,6.257,3.414,27.0
57.661,6.53,3.225,32.0
58.06,6.577,2.915,30.0
58.437,6.623,2.599,33.0
53.551,6.086,3.869,8.0
53.939,6.131,3.586,26.0
55.25,6.281,3.356,12.0
57.725,6.564,3.169,32.0
57.965,6.593,2.85,6.0
58.813,6.692,2.554,33.0
55.001,6.275,3.915,30.0
54.035,6.165,3.535,17.0
46.45,5.3,2.772,23.0
57.849,6.602,3.114,27.0
55.556,6.342,2.672,5.0
59.066,6.745,2.502,24.0
46.547,5.328,3.263,8.0
46.495,5.323,2.992,9.0
46.448,5.318,2.722,23.0
57.948,6.635,3.057,22.0
55.565,6.364,2.613,10.0
59.142,6.775,2.442,13.0
46.526,5.342,3.211,14.0
46.457,5.334,2.939,16.0
46.433,5.332,2.67,17.0
57.837,6.642,2.988,8.0
58.093,6.672,2.668,14.0
59.152,6.795,2.377,25.0
46.479,5.351,3.156,13.0
46.436,5.346,2.885,27.0
46.448,5.347,2.619,16.0
46.505,5.354,2.35,14.0
58.94,6.787,2.64,15.0
59.087,6.805,2.308,20.0
46.46,5.361,3.102,14.0
46.414,5.355,2.831,32.0
46.448,5.359,2.566,18.0
46.484,5.363,2.297,19.0
46.482,5.363,2.03,15.0
46.459,5.361,1.762,16.0
46.439,5.369,3.048,34.0
46.396,5.363,2.777,36.0
46.433,5.367,2.512,30.0
46.482,5.372,2.243,22.0
46.466,5.37,1.976,30.0
46.44,5.368,1.708,28.0
46.433,5.376,2.993,37.0
46.388,5.37,2.724,40.0
46.427,5.374,2.459,36.0
46.462,5.377,2.189,22.0
46.452,5.376,1.922,40.0
46.437,5.374,1.655,24.0
46.42,5.38,2.939,33.0
46.407,5.378,2.671,40.0
46.43,5.379,2.405,36.0
46.45,5.381,2.135,25.0
46.434,5.379,1.868,39.0
46.414,5.376,1.601,26.0
46.405,5.383,2.884,37.0
46.413,5.382,2.617,34.0
46.444,5.385,2.351,37.0
46.44,5.383,2.079,35.0
46.419,5.38,1.812,33.0
46.423,5.38,1.546,30.0
46.4,5.384,2.828,43.0
46.413,5.384,2.561,33.0
46.438,5.385,2.296,35.0
46.445,5.385,2.024,39.0
46.423,5.381,1.757,28.0
46.41,5.379,1.49,29.0
46.392,5.383,2.771,48.0
46.421,5.384,2.506,38.0
46.446,5.385,2.24,35.0
46.446,5.384,1.968,40.0
46.42,5.38,1.701,26.0
46.409,5.377,1.434,31.0
46.398,5.381,2.716,46.0
46.434,5.383,2.45,37.0
46.458,5.384,2.185,24.0
46.43,5.379,1.912,41.0
46.429,5.377,1.645,25.0
46.393,5.372,1.378,31.0
46.41,5.378,2.66,36.0
46.451,5.38,2.395,33.0
46.474,5.381,2.129,19.0
46.449,5.376,1.856,32.0
46.429,5.372,1.588,27.0
46.404,5.367,1.322,29.0
46.415,5.372,2.604,23.0
46.469,5.375,2.339,26.0
46.47,5.373,2.072,18.0
46.456,5.369,1.8,18.0
46.441,5.366,1.533,33.0
46.401,5.359,1.265,32.0
46.457,5.368,2.549,17.0
46.49,5.368,2.283,18.0
46.487,5.366,2.015,12.0
46.455,5.359,1.743,16.0
46.446,5.356,1.476,36.0
46.406,5.35,1.208,33.0
46.46,5.357,2.492,16.0
46.52,5.361,2.228,14.0
59.056,6.802,2.488,12.0
46.48,5.35,1.686,12.0
46.446,5.344,1.418,24.0
46.405,5.337,1.151,17.0
46.487,5.347,2.435,12.0
57.975,6.664,2.703,10.0
59.233,6.805,2.421,26.0
46.492,5.338,1.629,8.0
46.441,5.33,1.361,17.0
46.402,5.323,1.093,14.0
57.949,6.647,2.964,17.0
58.052,6.654,2.635,22.0
59.52,6.818,2.36,19.0
59.387,6.799,2.008,7.0
46.46,5.316,1.304,17.0
46.238,5.288,1.033,9.0
58.104,6.643,2.9,18.0
58.71,6.707,2.592,33.0
59.819,6.829,2.298,15.0
59.362,6.773,1.933,21.0
60.106,6.853,1.612,11.0
45.936,5.235,0.969,8.0
55.569,6.33,2.704,9.0
58.766,6.689,2.522,33.0
59.404,6.756,2.208,32.0
59.354,6.746,1.86,20.0
46.446,5.275,1.189,4.0
45.691,5.186,0.908,10.0
57.995,6.579,2.75,18.0
58.703,6.654,2.447,33.0
59.249,6.711,2.13,14.0
59.312,6.713,1.785,19.0
46.483,5.257,1.132,3.0
45.5,5.143,0.848,11.0
58.549,6.613,2.704,33.0
58.862,6.642,2.38,33.0
59.469,6.705,2.063,28.0
0.0,0.0,0.0,0.0
46.357,5.218,1.072,6.0
44.775,5.037,0.779,3.0
58.614,6.587,2.635,30.0
59.36,6.665,2.327,16.0
59.455,6.67,1.99,12.0
60.316,6.76,1.666,35.0
46.225,5.177,1.012,9.0
44.594,4.99,0.721,4.0
58.532,6.543,2.558,28.0
59.174,6.608,2.246,30.0
59.134,6.597,1.906,15.0
59.687,6.652,1.575,11.0
45.898,5.111,0.948,9.0
44.586,4.961,0.666,4.0
58.422,6.492,2.482,26.0
59.171,6.569,2.174,27.0
59.061,6.55,1.831,10.0
46.503,5.152,1.17,4.0
45.619,5.05,0.887,10.0
44.518,4.924,0.61,3.0
58.578,6.469,2.416,31.0
59.137,6.524,2.1,28.0
59.178,6.522,1.763,12.0
46.476,5.117,1.113,4.0
45.273,4.979,0.825,10.0
41.922,4.606,0.524,0.0
59.01,6.474,2.362,32.0
59.179,6.485,2.03,23.0
59.903,6.556,1.711,19.0
46.35,5.068,1.054,4.0
44.877,4.902,0.763,4.0
38.386,4.189,0.434,0.0
59.141,6.442,2.297,24.0
59.09,6.428,1.955,27.0
59.919,6.511,1.64,34.0
46.251,5.02,0.996,10.0
44.777,4.855,0.708,3.0
38.34,4.153,0.387,0.0
59.253,6.405,2.229,27.0
59.076,6.378,1.884,26.0
58.993,6.361,1.544,4.0
45.954,4.949,0.935,12.0
44.825,4.822,0.656,3.0
34.845,3.744,0.311,0.0
59.244,6.353,2.159,25.0
59.431,6.364,1.825,24.0
56.578,6.051,1.413,1.0
45.584,4.869,0.874,13.0
44.87,4.787,0.604,1.0
33.668,3.588,0.261,0.0
59.152,6.29,2.086,24.0
59.782,6.348,1.767,20.0
51.587,5.47,1.229,3.0
45.277,4.795,0.815,9.0
42.389,4.484,0.521,0.0
32.428,3.426,0.214,1.0
59.186,6.237,2.019,29.0
59.84,6.296,1.698,18.0
51.466,5.408,1.167,6.0
45.143,4.737,0.761,6.0
39.068,4.094,0.435,0.0
31.659,3.313,0.172,1.0
59.332,6.193,1.956,25.0
59.752,6.227,1.628,27.0
46.685,4.858,1.005,2.0
45.145,4.691,0.709,7.0
0.0,0.0,0.0,0.0
29.351,3.042,0.126,0.0
59.971,6.197,1.908,24.0
59.261,6.114,1.547,11.0
46.286,4.768,0.944,4.0
45.336,4.663,0.661,4.0
34.698,3.564,0.308,0.0
29.213,2.996,0.092,1.0
59.843,6.119,1.837,20.0
56.321,5.75,1.407,1.0
46.088,4.698,0.888,5.0
45.592,4.64,0.615,1.0
34.326,3.488,0.267,0.0
28.734,2.916,0.059,0.0
60.009,6.07,1.777,21.0
51.722,5.223,1.236,3.0
45.99,4.636,0.837,4.0
41.228,4.149,0.511,0.0
31.996,3.215,0.214,0.0
27.665,2.776,0.027,0.0
60.155,6.015,1.715,5.0
51.489,5.139,1.174,4.0
46.03,4.587,0.787,12.0
39.665,3.945,0.448,0.0
31.556,3.134,0.177,0.0
26.378,2.615,-0.001,0.0
60.529,5.98,1.661,10.0
51.386,5.067,1.117,2.0
46.203,4.548,0.741,5.0
35.85,3.523,0.367,0.0
29.307,2.875,0.133,4.0
25.994,2.545,-0.029,1.0
61.891,6.038,1.634,1.0
46.91,4.568,0.971,0.0
46.289,4.499,0.695,5.0
35.273,3.422,0.325,0.0
29.252,2.833,0.103,5.0
25.65,2.48,-0.054,1.0
53.062,5.109,1.346,2.0
47.019,4.518,0.925,3.0
46.723,4.481,0.654,1.0
32.295,3.091,0.265,0.0
29.114,2.782,0.073,2.0
24.867,2.372,-0.078,0.0
52.077,4.946,1.269,6.0
47.073,4.462,0.879,3.0
40.634,3.844,0.528,0.0
32.375,3.056,0.233,0.0
27.827,2.622,0.042,0.0
24.338,2.289,-0.1,0.0
51.856,4.855,1.212,9.0
47.225,4.413,0.836,3.0
40.443,3.771,0.486,0.0
31.705,2.95,0.198,0.0
26.797,2.488,0.015,0.0
23.947,2.219,-0.122,0.0
51.462,4.747,1.153,6.0
47.495,4.371,0.795,2.0
0.0,0.0,0.0,0.0
29.288,2.684,0.155,1.0
26.066,2.383,-0.009,1.0
23.153,2.113,-0.14,0.0
51.211,4.651,1.099,3.0
47.778,4.329,0.754,3.0
0.0,0.0,0.0,0.0
29.214,2.635,0.127,1.0
25.964,2.337,-0.034,2.0
22.808,2.048,-0.159,1.0
48.927,4.373,1.006,1.0
48.316,4.308,0.719,3.0
35.108,3.122,0.323,0.0
29.054,2.578,0.1,1.0
25.286,2.239,-0.055,1.0
22.436,1.982,-0.176,2.0
48.52,4.265,0.954,3.0
48.378,4.242,0.678,0.0
33.626,2.941,0.281,0.0
28.455,2.483,0.073,0.0
24.851,2.163,-0.076,0.0
22.094,1.918,-0.192,1.0
48.721,4.208,0.916,5.0
42.255,3.64,0.555,0.0
32.503,2.792,0.243,0.0
27.771,2.38,0.047,1.0
24.474,2.092,-0.096,0.0
21.696,1.85,-0.207,1.0
49.041,4.159,0.881,5.0
0.0,0.0,0.0,0.0
31.597,2.665,0.21,0.0
27.01,2.272,0.024,1.0
24.039,2.017,-0.114,1.0
21.285,1.781,-0.221,0.0
49.304,4.103,0.845,9.0
0.0,0.0,0.0,0.0
30.466,2.521,0.178,1.0
26.544,2.19,0.002,1.0
23.796,1.958,-0.131,1.0
20.949,1.719,-0.234,0.0
48.017,3.918,0.785,1.0
35.797,2.913,0.383,1.0
29.837,2.42,0.151,2.0
26.136,2.114,-0.017,0.0
23.177,1.869,-0.146,0.0
20.406,1.641,-0.243,0.0
48.003,3.838,0.749,4.0
35.415,2.823,0.353,1.0
29.703,2.36,0.128,2.0
25.568,2.026,-0.035,0.0
22.781,1.799,-0.16,1.0
20.134,1.586,-0.255,0.0
47.914,3.751,0.713,0.0
34.682,2.706,0.32,1.0
29.244,2.275,0.105,1.0
25.314,1.963,-0.053,0.0
22.588,1.746,-0.175,0.0
19.485,1.501,-0.26,0.0
0.0,0.0,0.0,0.0
33.322,2.543,0.284,0.0
28.276,2.151,0.082,1.0
24.837,1.883,-0.069,0.0
22.218,1.679,-0.187,0.0
19.364,1.458,-0.272,0.0
0.0,0.0,0.0,0.0
32.634,2.434,0.257,1.0
28.006,2.081,0.063,1.0
24.372,1.805,-0.084,1.0
21.87,1.614,-0.198,0.0
19.214,1.414,-0.282,0.0
0.0,0.0,0.0,0.0
31.806,2.316,0.23,0.0
27.584,2.001,0.045,0.0
24.209,1.75,-0.098,1.0
21.501,1.549,-0.208,0.0
18.794,1.349,-0.287,0.0
37.596,2.68,0.461,0.0
31.518,2.238,0.21,1.0
27.129,1.92,0.028,0.0
24.079,1.698,-0.112,3.0
21.312,1.497,-0.218,0.0
18.661,1.306,-0.296,0.0
37.538,2.608,0.439,0.0
30.799,2.131,0.187,1.0
26.677,1.839,0.013,0.0
23.942,1.644,-0.124,1.0
20.899,1.429,-0.226,0.0
18.542,1.263,-0.304,0.0
47.164,3.19,0.526,1.0
30.35,2.045,0.168,1.0
26.355,1.768,-0.001,0.0
23.468,1.568,-0.134,0.0
20.62,1.372,-0.233,0.0
18.236,1.209,-0.308,0.0
36.336,2.39,0.387,0.0
29.517,1.933,0.149,0.0
26.22,1.71,-0.014,0.0
23.139,1.503,-0.144,0.0
20.533,1.328,-0.242,0.0
18.144,1.169,-0.315,0.0
36.469,2.331,0.371,0.0
29.312,1.865,0.134,1.0
25.907,1.641,-0.025,0.0
22.91,1.445,-0.152,0.0
20.247,1.272,-0.248,0.0
17.898,1.119,-0.319,0.0
33.919,2.103,0.33,0.0
29.047,1.793,0.12,1.0
25.718,1.58,-0.036,0.0
22.848,1.397,-0.162,0.0
20.124,1.225,-0.255,0.0
17.692,1.072,-0.323,0.0
33.685,2.024,0.314,0.0
28.755,1.719,0.108,0.0
25.477,1.516,-0.046,0.0
22.667,1.342,-0.169,0.0
19.737,1.163,-0.257,0.0
17.56,1.03,-0.327,0.0
32.754,1.905,0.293,0.0
28.497,1.649,0.097,0.0
25.27,1.455,-0.054,0.0
22.173,1.27,-0.173,0.0
19.515,1.112,-0.261,0.0
17.35,0.984,-0.329,0.0
32.955,1.853,0.284,1.0
28.438,1.59,0.087,0.0
25.17,1.4,-0.062,0.0
22.058,1.221,-0.179,1.0
19.443,1.07,-0.266,0.0
17.219,0.943,-0.331,0.0
32.686,1.774,0.272,0.0
28.25,1.525,0.078,0.0
25.046,1.344,-0.069,0.0
22.031,1.176,-0.185,2.0
19.406,1.03,-0.271,0.0
17.176,0.906,-0.335,0.0
32.031,1.674,0.258,1.0
28.131,1.462,0.071,1.0
24.992,1.291,-0.075,0.0
21.907,1.125,-0.189,2.0
19.162,0.978,-0.272,0.0
17.104,0.868,-0.338,0.0
31.934,1.605,0.25,1.0
27.762,1.387,0.064,0.0
24.808,1.232,-0.08,0.0
21.82,1.077,-0.193,2.0
19.017,0.933,-0.274,0.0
17.075,0.832,-0.341,0.0
31.926,1.54,0.244,1.0
27.666,1.327,0.058,0.0
24.885,1.186,-0.084,0.0
21.76,1.03,-0.196,1.0
19.046,0.896,-0.277,0.0
17.035,0.796,-0.342,0.0
31.927,1.477,0.239,1.0
27.536,1.265,0.054,0.0
24.746,1.129,-0.087,0.0
21.722,0.984,-0.199,1.0
19.148,0.862,-0.281,0.0
17.009,0.76,-0.344,0.0
31.694,1.402,0.234,1.0
27.646,1.214,0.051,0.0
24.717,1.078,-0.09,1.0
21.611,0.935,-0.2,2.0
18.917,0.813,-0.28,0.0
16.993,0.725,-0.345,0.0
31.693,1.337,0.231,0.0
27.542,1.153,0.049,0.0
24.517,1.018,-0.091,1.0
21.628,0.892,-0.202,1.0
19.027,0.778,-0.282,0.0
16.958,0.688,-0.345,0.0
31.252,1.254,0.227,0.0
27.437,1.092,0.048,0.0
24.541,0.969,-0.092,1.0
21.735,0.851,-0.203,1.0
18.823,0.731,-0.28,0.0
16.944,0.653,-0.345,0.0
31.367,1.194,0.228,1.0
27.485,1.037,0.048,0.0
24.546,0.918,-0.091,1.0
21.695,0.804,-0.202,1.0
19.14,0.704,-0.284,0.0
16.892,0.616,-0.344,0.0
31.247,1.124,0.228,0.0
27.446,0.979,0.049,0.0
24.553,0.867,-0.09,1.0
21.701,0.759,-0.201,0.0
19.061,0.661,-0.282,0.0
16.908,0.581,-0.343,0.0
31.397,1.064,0.231,0.0
27.603,0.926,0.051,0.0
24.578,0.817,-0.088,1.0
21.727,0.715,-0.2,0.0
19.098,0.622,-0.28,0.0
17.007,0.549,-0.343,0.0
31.542,1.003,0.235,0.0
27.697,0.872,0.055,0.0
24.758,0.771,-0.086,0.0
21.861,0.674,-0.198,0.0
19.085,0.582,-0.278,0.0
17.018,0.513,-0.341,0.0
31.517,0.936,0.24,0.0
27.789,0.816,0.059,0.0
24.948,0.725,-0.083,0.0
21.89,0.629,-0.195,0.0
19.152,0.544,-0.275,0.0
17.019,0.477,-0.338,0.0
31.773,0.877,0.248,0.0
28.467,0.776,0.066,1.0
25.051,0.675,-0.078,0.0
21.944,0.584,-0.191,0.0
19.21,0.504,-0.272,0.0
17.141,0.445,-0.336,0.0
31.884,0.813,0.256,0.0
28.678,0.721,0.073,1.0
25.204,0.625,-0.073,0.0
22.114,0.542,-0.187,0.0
19.488,0.471,-0.271,0.0
17.162,0.409,-0.332,0.0
32.141,0.752,0.266,0.0
28.594,0.659,0.08,1.0
25.315,0.575,-0.066,0.0
22.231,0.498,-0.182,0.0
19.625,0.433,-0.267,0.0
17.272,0.375,-0.329,0.0
32.429,0.692,0.278,0.0
28.603,0.6,0.089,1.0
25.424,0.525,-0.058,0.0
22.362,0.454,-0.176,0.0
19.762,0.394,-0.263,0.0
17.325,0.34,-0.325,0.0
32.792,0.631,0.292,0.0
28.712,0.542,0.099,1.0
25.623,0.475,-0.05,0.0
22.703,0.413,-0.17,0.0
20.052,0.358,-0.259,0.0
17.509,0.307,-0.322,0.0
34.184,0.586,0.317,0.0
28.79,0.484,0.11,1.0
25.894,0.426,-0.041,0.0
23.007,0.371,-0.163,0.0
20.074,0.317,-0.252,0.0
17.643,0.272,-0.317,0.0
33.148,0.498,0.321,0.0
28.871,0.425,0.123,6.0
26.109,0.375,-0.03,0.0
23.233,0.326,-0.155,0.0
20.309,0.278,-0.246,0.0
17.853,0.238,-0.313,0.0
33.796,0.438,0.342,0.0
28.883,0.365,0.136,5.0
26.338,0.323,-0.018,0.0
23.342,0.279,-0.145,0.0
20.452,0.237,-0.238,0.0
18.059,0.203,-0.308,0.0
34.427,0.374,0.366,0.0
28.906,0.304,0.15,3.0
26.542,0.27,-0.005,0.0
23.603,0.232,-0.135,0.0
20.852,0.198,-0.232,0.0
18.231,0.167,-0.301,0.0
0.0,0.0,0.0,0.0
28.96,0.245,0.166,1.0
26.976,0.219,0.008,0.0
23.928,0.186,-0.123,0.0
21.054,0.157,-0.222,1.0
18.489,0.131,-0.295,0.0
36.039,0.243,0.422,0.0
0.0,0.0,0.0,0.0
27.25,0.165,0.024,0.0
24.441,0.139,-0.112,0.0
21.376,0.115,-0.213,4.0
18.652,0.093,-0.287,0.0
36.794,0.172,0.452,0.0
29.841,0.129,0.206,0.0
25.43,0.101,0.038,1.0
24.726,0.09,-0.098,0.0
21.647,0.071,-0.202,4.0
18.921,0.056,-0.279,0.0
36.598,0.095,0.473,0.0
31.85,0.072,0.24,0.0
28.325,0.054,0.061,1.0
25.071,0.04,-0.083,0.0
22.001,0.027,-0.191,1.0
19.289,0.017,-0.272,0.0
37.548,0.021,0.511,0.0
33.01,0.008,0.271,0.0
28.581,-0.002,0.081,1.0
25.459,-0.011,-0.067,0.0
22.459,-0.017,-0.18,0.0
19.601,-0.021,-0.262,0.0
38.245,-0.055,0.547,0.0
33.179,-0.058,0.296,0.0
28.781,-0.06,0.102,7.0
25.759,-0.063,-0.049,0.0
23.0,-0.064,-0.167,0.0
20.084,-0.062,-0.254,0.0
0.0,0.0,0.0,0.0
33.201,-0.125,0.321,1.0
28.811,-0.118,0.123,5.0
26.143,-0.116,-0.03,0.0
23.193,-0.111,-0.151,0.0
20.351,-0.104,-0.242,0.0
0.0,0.0,0.0,0.0
33.266,-0.192,0.347,0.0
28.851,-0.176,0.146,3.0
26.305,-0.169,-0.01,0.0
23.852,-0.161,-0.136,0.0
20.729,-0.147,-0.23,0.0
42.173,-0.313,0.701,0.0
0.0,0.0,0.0,0.0
28.919,-0.233,0.17,0.0
27.317,-0.23,0.012,0.0
24.107,-0.211,-0.118,0.0
21.325,-0.193,-0.218,0.0
0.0,0.0,0.0,0.0
36.209,-0.351,0.438,0.0
31.086,-0.312,0.21,1.0
27.716,-0.288,0.036,0.0
24.645,-0.264,-0.099,0.0
21.869,-0.241,-0.205,1.0
45.779,-0.519,0.839,0.0
0.0,0.0,0.0,0.0
32.261,-0.387,0.246,0.0
28.201,-0.347,0.062,0.0
25.086,-0.317,-0.078,0.0
22.274,-0.289,-0.188,0.0
47.41,-0.629,0.912,0.0
37.917,-0.516,0.527,0.0
32.627,-0.454,0.279,0.0
28.603,-0.407,0.089,1.0
25.648,-0.374,-0.056,0.0
23.126,-0.344,-0.174,0.0
0.0,0.0,0.0,0.0
0.0,0.0,0.0,0.0
33.794,-0.535,0.321,1.0
28.679,-0.463,0.116,0.0
26.187,-0.432,-0.032,0.0
23.467,-0.394,-0.154,0.0
0.0,0.0,0.0,0.0
0.0,0.0,0.0,0.0
34.039,-0.603,0.357,1.0
28.844,-0.52,0.146,0.0
26.566,-0.488,-0.006,0.0
23.793,-0.444,-0.132,0.0
0.0,0.0,0.0,0.0
41.865,-0.807,0.704,0.0
35.063,-0.687,0.403,0.0
30.858,-0.615,0.188,0.0
27.409,-0.555,0.021,0.0
24.612,-0.506,-0.111,2.0
0.0,0.0,0.0,0.0
0.0,0.0,0.0,0.0
0.0,0.0,0.0,0.0
31.4,-0.683,0.224,0.0
28.493,-0.63,0.052,2.0
24.993,-0.56,-0.086,0.0
0.0,0.0,0.0,0.0
0.0,0.0,0.0,0.0
37.663,-0.877,0.514,0.0
32.998,-0.779,0.271,1.0
28.636,-0.685,0.084,6.0
25.508,-0.618,-0.06,0.0
0.0,0.0,0.0,0.0
0.0,0.0,0.0,0.0
0.0,0.0,0.0,0.0
33.135,-0.842,0.309,1.0
28.707,-0.738,0.116,5.0
26.269,-0.683,-0.032,0.0
0.0,0.0,0.0,0.0
0.0,0.0,0.0,0.0
0.0,0.0,0.0,0.0
0.0,0.0,0.0,0.0
28.89,-0.794,0.15,0.0
26.769,-0.744,-0.002,0.0
0.0,0.0,0.0,0.0
0.0,0.0,0.0,0.0
0.0,0.0,0.0,0.0
36.102,-1.044,0.421,0.0
31.027,-0.907,0.197,0.0
27.499,-0.812,0.029,1.0
0.0,0.0,0.0,0.0
0.0,0.0,0.0,0.0
0.0,0.0,0.0,0.0
0.0,0.0,0.0,0.0
31.669,-0.98,0.239,0.0
28.441,-0.888,0.065,1.0
0.0,0.0,0.0,0.0
0.0,0.0,0.0,0.0
0.0,0.0,0.0,0.0
38.136,-1.233,0.537,0.0
32.687,-1.067,0.287,0.0
28.599,-0.942,0.1,1.0
92.984,-3.083,2.908,4.0
0.0,0.0,0.0,0.0
0.0,0.0,0.0,0.0
39.601,-1.346,0.606,0.0
33.708,-1.156,0.338,0.0
28.688,-0.992,0.136,0.0
92.314,-3.212,3.003,4.0
0.0,0.0,0.0,0.0
51.303,-1.814,1.127,0.0
0.0,0.0,0.0,0.0
35.59,-1.278,0.403,0.0
30.759,-1.113,0.186,0.0
92.112,-3.354,3.114,25.0
0.0,0.0,0.0,0.0
0.0,0.0,0.0,0.0
0.0,0.0,0.0,0.0
36.873,-1.384,0.465,0.0
31.921,-1.207,0.235,0.0
92.125,-3.502,3.236,78.0
0.0,0.0,0.0,0.0
0.0,0.0,0.0,0.0
0.0,0.0,0.0,0.0
0.0,0.0,0.0,0.0
32.813,-1.292,0.285,0.0
92.164,-3.648,3.361,151.0
0.0,0.0,0.0,0.0
0.0,0.0,0.0,0.0
0.0,0.0,0.0,0.0
0.0,0.0,0.0,0.0
34.166,-1.397,0.343,0.0
92.186,-3.789,3.486,44.0
92.521,-3.828,3.012,2.0
0.0,0.0,0.0,0.0
0.0,0.0,0.0,0.0
0.0,0.0,0.0,0.0
36.329,-1.541,0.415,0.0
92.359,-3.935,3.62,3.0
92.251,-3.954,3.131,26.0
0.0,0.0,0.0,0.0
0.0,0.0,0.0,0.0
0.0,0.0,0.0,0.0
0.0,0.0,0.0,0.0
93.161,-4.105,3.782,1.0
92.557,-4.102,3.271,5.0
0.0,0.0,0.0,0.0
0.0,0.0,0.0,0.0
0.0,0.0,0.0,0.0
38.801,-1.758,0.552,0.0
0.0,0.0,0.0,0.0
93.784,-4.291,3.448,3.0
0.0,0.0,0.0,0.0
0.0,0.0,0.0,0.0
0.0,0.0,0.0,0.0
0.0,0.0,0.0,0.0
0.0,0.0,0.0,0.0
0.0,0.0,0.0,0.0
0.0,0.0,0.0,0.0
0.0,0.0,0.0,0.0
0.0,0.0,0.0,0.0
0.0,0.0,0.0,0.0
0.0,0.0,0.0,0.0
0.0,0.0,0.0,0.0
109.581,-5.34,3.773,2.0
0.0,0.0,0.0,0.0
0.0,0.0,0.0,0.0
0.0,0.0,0.0,0.0
0.0,0.0,0.0,0.0
0.0,0.0,0.0,0.0
109.427,-5.475,3.928,150.0
0.0,0.0,0.0,0.0
0.0,0.0,0.0,0.0
0.0,0.0,0.0,0.0
195.234,-9.935,9.349,7.0
0.0,0.0,0.0,0.0
109.33,-5.609,4.088,17.0
34.356,-1.77,1.101,0.0
34.454,-1.783,0.924,0.0
34.447,-1.79,0.744,0.0
189.169,-9.864,9.345,13.0
0.0,0.0,0.0,0.0
0.0,0.0,0.0,0.0
109.34,-5.768,3.67,20.0
34.214,-1.812,0.969,1.0
34.25,-1.821,0.791,1.0
189.136,-10.092,9.63,20.0
0.0,0.0,0.0,0.0
0.0,0.0,0.0,0.0
34.178,-1.844,1.199,1.0
34.169,-1.85,1.02,180.0
34.145,-1.856,0.841,2.0
119.745,-6.53,6.28,9.0
188.762,-10.331,8.911,9.0
0.0,0.0,0.0,0.0
34.168,-1.883,1.251,1.0
34.138,-1.888,1.072,182.0
34.137,-1.894,0.893,3.0
119.587,-6.657,6.457,15.0
188.854,-10.549,9.208,20.0
0.0,0.0,0.0,0.0
34.12,-1.918,1.302,1.0
34.14,-1.925,1.124,14.0
34.072,-1.927,0.944,4.0
122.536,-6.956,6.806,7.0
188.617,-10.74,9.486,18.0
0.0,0.0,0.0,0.0
34.221,-1.96,1.359,0.0
34.036,-1.956,1.174,2.0
34.061,-1.963,0.996,7.0
189.049,-10.932,10.796,6.0
122.886,-7.127,6.374,4.0
188.327,-10.954,8.781,6.0
34.726,-2.025,1.433,0.0
34.079,-1.993,1.229,2.0
34.051,-1.998,1.05,8.0
120.663,-7.102,7.081,15.0
122.757,-7.244,6.561,10.0
188.653,-11.163,9.094,8.0
34.661,-2.056,1.486,0.0
34.04,-2.025,1.281,3.0
34.013,-2.029,1.103,3.0
92.342,-5.526,5.567,12.0
188.362,-11.301,10.368,10.0
188.875,-11.359,9.406,8.0
34.775,-2.096,1.546,0.0
34.025,-2.056,1.335,2.0
33.988,-2.06,1.156,5.0
92.469,-5.621,5.722,8.0
120.893,-7.366,6.847,14.0
122.857,-7.503,6.315,6.0
34.977,-2.141,1.611,0.0
34.262,-2.102,1.399,0.0
33.997,-2.091,1.21,3.0
89.63,-5.528,5.689,8.0
188.539,-11.656,10.98,9.0
123.274,-7.638,6.532,9.0
34.897,-2.166,1.663,0.0
34.356,-2.137,1.457,0.0
33.98,-2.119,1.264,6.0
89.464,-5.595,5.822,6.0
92.284,-5.783,5.521,6.0
188.887,-11.862,10.313,8.0
35.243,-2.217,1.735,0.0
34.509,-2.175,1.519,0.0
33.97,-2.146,1.318,8.0
89.467,-5.669,5.967,4.0
91.779,-5.826,5.639,8.0
156.999,-9.985,8.824,19.0
35.279,-2.247,1.794,0.0
34.635,-2.211,1.58,0.0
34.09,-2.18,1.377,1.0
119.945,-7.693,8.192,11.0
121.936,-7.834,7.688,10.0
92.433,-5.949,5.344,9.0
188.695,-12.166,9.901,4.0
34.756,-2.244,1.642,0.0
34.213,-2.213,1.438,0.0
120.865,-7.842,8.453,6.0
121.79,-7.915,7.879,19.0
89.732,-5.84,5.333,6.0
157.012,-10.235,8.495,29.0
35.126,-2.293,1.716,0.0
34.392,-2.249,1.501,0.0
119.511,-7.838,8.553,9.0
121.854,-8.003,8.08,11.0
91.741,-6.033,5.602,6.0
121.283,-7.987,6.758,3.0
156.963,-10.352,7.925,4.0
0.0,0.0,0.0,0.0
122.158,-8.091,8.94,12.0
119.496,-7.925,8.116,7.0
121.594,-8.074,7.621,14.0
188.9,-12.56,10.832,9.0
156.962,-10.448,8.177,18.0
34.747,-2.316,1.628,0.0
88.405,-5.909,6.612,10.0
119.371,-7.988,8.301,3.0
121.969,-8.171,7.841,17.0
156.45,-10.493,9.223,14.0
156.851,-10.531,8.424,35.0
0.0,0.0,0.0,0.0
88.573,-5.972,6.768,21.0
119.391,-8.057,8.496,8.0
122.032,-8.242,8.042,18.0
91.762,-6.204,5.557,12.0
156.741,-10.609,8.669,15.0
0.0,0.0,0.0,0.0
88.741,-6.029,6.925,19.0
119.57,-8.131,8.701,10.0
121.739,-8.284,8.218,17.0
91.801,-6.253,5.705,12.0
189.301,-12.905,10.774,6.0
157.095,-10.718,8.117,4.0
88.709,-6.07,7.064,13.0
88.366,-6.05,6.57,3.0
122.366,-8.384,8.456,17.0
121.975,-8.364,7.775,14.0
91.625,-6.286,5.36,5.0
189.184,-12.991,10.076,13.0
118.51,-8.162,9.627,4.0
88.649,-6.108,6.734,11.0
122.326,-8.434,8.649,8.0
122.084,-8.421,7.979,17.0
91.736,-6.332,5.513,10.0
189.358,-13.08,10.386,18.0
119.526,-8.279,9.901,15.0
88.759,-6.151,6.883,11.0
119.541,-8.287,8.64,8.0
121.921,-8.456,8.159,14.0
91.837,-6.372,5.663,7.0
91.641,-6.362,5.171,7.0
119.247,-8.302,10.067,19.0
88.561,-6.168,7.009,4.0
119.941,-8.356,8.861,9.0
122.525,-8.538,8.394,15.0
122.295,-8.525,7.736,3.0
91.604,-6.388,5.314,15.0
118.946,-8.319,10.233,13.0
88.609,-6.198,7.155,14.0
119.327,-8.348,9.007,13.0
122.458,-8.569,8.584,10.0
122.248,-8.557,7.926,16.0
91.676,-6.418,5.461,5.0
88.466,-6.212,7.749,18.0
119.285,-8.375,9.817,13.0
88.91,-6.243,6.848,13.0
121.972,-8.564,8.738,6.0
122.22,-8.582,8.113,15.0
154.823,-10.874,9.461,5.0
88.526,-6.236,7.892,15.0
119.483,-8.415,10.018,14.0
88.672,-6.245,6.966,15.0
121.98,-8.59,8.927,8.0
122.45,-8.623,8.316,17.0
91.812,-6.465,5.752,4.0
119.195,-8.419,10.812,7.0
119.172,-8.416,10.178,15.0
88.549,-6.251,7.093,15.0
88.921,-6.276,6.644,5.0
122.5,-8.646,8.508,12.0
122.204,-8.624,7.844,10.0
118.907,-8.415,10.97,13.0
88.43,-6.256,7.69,11.0
119.418,-8.446,9.751,7.0
88.894,-6.284,6.78,21.0
122.03,-8.626,8.662,8.0
121.924,-8.617,8.01,12.0
118.667,-8.411,11.128,12.0
88.484,-6.268,7.828,26.0
119.311,-8.448,9.924,12.0
88.785,-6.285,6.905,14.0
121.806,-8.618,8.83,9.0
122.172,-8.641,8.211,16.0
146.711,-10.408,13.982,11.0
88.476,-6.272,7.961,9.0
119.332,-8.455,10.105,12.0
88.544,-6.27,7.02,16.0
122.096,-8.643,9.033,7.0
122.423,-8.661,8.409,11.0
146.637,-10.405,14.196,12.0
119.015,-8.439,10.888,16.0
118.983,-8.431,10.252,13.0
88.52,-6.268,7.149,11.0
88.896,-6.291,6.708,12.0
122.402,-8.657,8.59,9.0
91.116,-6.463,8.956,17.0
118.749,-8.417,11.038,11.0
88.464,-6.265,7.753,21.0
119.34,-8.445,9.812,11.0
88.873,-6.284,6.836,18.0
121.865,-8.612,8.728,7.0
91.261,-6.468,9.103,9.0
118.498,-8.39,11.188,10.0
88.482,-6.259,7.883,16.0
119.47,-8.445,9.996,13.0
88.652,-6.261,6.947,16.0
122.006,-8.608,8.914,8.0
91.443,-6.472,9.254,13.0
146.681,-10.371,14.059,15.0
119.183,-8.417,10.789,6.0
119.164,-8.407,10.141,15.0
88.546,-6.241,7.064,17.0
119.491,-8.415,8.898,6.0
91.123,-6.435,9.352,20.0
91.13,-6.429,8.865,13.0
117.041,-8.248,10.76,8.0
88.403,-6.222,7.647,9.0
88.516,-6.224,7.185,6.0
88.905,-6.245,6.744,8.0
91.088,-6.416,9.475,11.0
91.17,-6.414,8.995,15.0
118.507,-8.328,11.058,6.0
88.474,-6.21,7.775,22.0
119.338,-8.366,9.85,14.0
88.863,-6.222,6.862,9.0
147.957,-10.391,15.596,5.0
91.471,-6.415,9.151,12.0
118.523,-8.3,11.223,7.0
88.48,-6.188,7.895,12.0
119.187,-8.325,10.0,17.0
88.618,-6.181,6.963,4.0
147.848,-10.344,15.785,5.0
91.284,-6.377,9.256,24.0
91.26,-6.365,8.764,5.0
117.098,-8.156,10.606,8.0
119.014,-8.278,10.144,17.0
88.646,-6.157,7.082,8.0
148.836,-10.368,16.089,11.0
91.102,-6.337,9.357,16.0
91.229,-6.335,8.88,3.0
117.182,-8.125,10.766,12.0
88.647,-6.137,7.67,9.0
119.61,-8.268,9.71,3.0
148.682,-10.308,16.265,15.0
91.158,-6.309,9.481,12.0
91.304,-6.308,9.005,9.0
91.281,-6.296,8.503,5.0
88.614,-6.102,7.78,21.0
119.602,-8.223,9.861,9.0
148.478,-10.237,16.434,12.0
147.642,-10.161,15.545,3.0
91.325,-6.274,9.124,16.0
91.316,-6.262,8.623,28.0
88.492,-6.058,7.882,27.0
119.467,-8.164,10.0,9.0
150.582,-10.32,16.858,5.0
147.967,-10.121,15.766,4.0
91.248,-6.229,9.231,14.0
91.372,-6.226,8.741,18.0
88.241,-6.001,7.968,19.0
119.33,-8.102,10.134,11.0
91.262,-6.213,10.33,15.0
90.981,-6.181,9.806,5.0
91.276,-6.189,9.344,16.0
91.413,-6.186,8.855,10.0
88.306,-5.964,8.079,4.0
88.893,-5.992,7.655,16.0
90.714,-6.132,10.376,15.0
91.076,-6.142,9.924,18.0
112.953,-7.602,11.697,7.0
113.419,-7.618,11.121,10.0
118.526,-7.944,10.982,6.0
88.808,-5.941,7.75,18.0
89.987,-6.036,10.398,26.0
91.108,-6.097,10.033,25.0
87.142,-5.819,9.124,6.0
91.417,-6.091,9.068,11.0
118.259,-7.862,11.091,16.0
88.635,-5.88,7.835,22.0
90.08,-5.993,10.51,30.0
90.899,-6.033,10.111,22.0
93.204,-6.171,9.862,6.0
87.547,-5.783,8.78,15.0
91.45,-6.027,8.677,11.0
88.602,-5.826,7.929,27.0
90.237,-5.95,10.629,18.0
90.658,-5.963,10.184,19.0
97.721,-6.411,10.447,14.0
87.472,-5.725,8.867,12.0
91.43,-5.97,8.773,14.0
88.683,-5.777,8.031,14.0
90.409,-5.904,10.747,21.0
90.441,-5.891,10.258,34.0
97.707,-6.348,10.549,5.0
87.412,-5.665,8.953,23.0
91.062,-5.887,8.833,23.0
89.015,-5.741,8.152,11.0
90.123,-5.827,10.806,19.0
90.542,-5.839,10.361,26.0
87.024,-5.597,9.484,15.0
87.359,-5.603,9.037,13.0
91.078,-5.826,8.927,14.0
94.033,-6.0,8.706,12.0
89.82,-5.746,10.861,17.0
90.619,-5.78,10.462,23.0
86.972,-5.532,9.565,22.0
87.444,-5.547,9.131,22.0
87.284,-5.523,8.639,21.0
87.687,-5.533,8.203,15.0
89.761,-5.678,10.941,25.0
90.794,-5.726,10.569,20.0
86.987,-5.47,9.65,9.0
87.442,-5.483,9.214,28.0
87.513,-5.473,8.744,28.0
87.651,-5.465,8.281,25.0
89.733,-5.608,11.022,23.0
89.505,-5.577,10.502,19.0
91.295,-5.672,10.212,16.0
87.343,-5.409,9.283,26.0
87.631,-5.412,8.835,23.0
87.772,-5.405,8.371,26.0
89.965,-5.552,11.132,16.0
89.597,-5.513,10.593,31.0
91.386,-5.606,10.303,21.0
93.762,-5.734,10.047,10.0
87.693,-5.346,8.917,16.0
87.927,-5.345,8.461,30.0
90.037,-5.485,11.218,8.0
89.772,-5.45,10.691,27.0
91.289,-5.525,10.369,21.0
91.475,-5.519,9.879,14.0
87.585,-5.267,8.979,18.0
88.002,-5.277,8.54,30.0
87.18,-5.238,10.934,16.0
87.904,-5.265,10.539,15.0
91.04,-5.435,10.413,13.0
91.551,-5.447,9.959,15.0
87.334,-5.18,9.021,26.0
87.931,-5.198,8.601,22.0
87.161,-5.163,10.999,25.0
87.91,-5.188,10.609,32.0
82.372,-4.845,9.486,19.0
91.57,-5.368,10.031,21.0
87.346,-5.103,9.089,26.0
87.749,-5.11,8.649,23.0
87.238,-5.089,11.075,30.0
87.881,-5.108,10.67,18.0
89.993,-5.213,10.429,12.0
93.559,-5.401,10.317,9.0
87.29,-5.021,9.145,16.0
87.693,-5.028,8.705,30.0
87.11,-5.003,11.12,25.0
87.997,-5.035,10.745,14.0
87.131,-4.968,10.157,11.0
82.578,-4.692,9.162,7.0
82.937,-4.695,8.744,12.0
87.911,-4.959,8.785,24.0
86.821,-4.905,11.141,27.0
88.097,-4.959,10.815,10.0
86.648,-4.858,10.158,18.0
82.584,-4.613,9.216,21.0
82.897,-4.614,8.793,23.0
88.322,-4.898,8.881,20.0
86.672,-4.814,11.177,31.0
90.298,-4.995,11.142,10.0
86.759,-4.781,10.224,29.0
82.595,-4.534,9.267,30.0
82.421,-4.506,8.792,16.0
84.133,-4.583,8.51,13.0
86.451,-4.716,11.2,28.0
87.087,-4.731,10.797,25.0
86.905,-4.701,10.291,26.0
82.637,-4.453,9.318,21.0
82.479,-4.427,8.844,21.0
88.157,-4.714,8.965,14.0
86.428,-4.626,11.245,23.0
87.026,-4.639,10.836,27.0
86.992,-4.619,10.347,24.0
82.651,-4.371,9.363,10.0
82.473,-4.343,8.885,24.0
84.154,-4.415,8.6,13.0
86.546,-4.544,11.303,29.0
87.017,-4.55,10.878,32.0
87.266,-4.544,10.422,21.0
81.48,-4.225,9.269,14.0
82.446,-4.257,8.921,24.0
89.168,-4.585,9.154,9.0
86.67,-4.46,11.359,22.0
87.026,-4.459,10.919,26.0
87.013,-4.44,10.43,18.0
81.438,-4.137,9.299,23.0
82.587,-4.177,8.971,28.0
89.219,-4.493,9.196,13.0
86.171,-4.342,11.33,22.0
86.757,-4.352,10.921,14.0
87.253,-4.357,10.495,22.0
81.555,-4.054,9.345,33.0
82.634,-4.09,9.008,25.0
