X,Y,Z,Reflectivity
17.068,2.088,-0.368,0.0
15.615,1.909,-0.426,0.0
14.215,1.737,-0.47,0.0
13.287,1.623,-0.516,0.0
12.49,1.525,-0.556,0.0
18.475,2.25,-0.311,0.0
16.823,2.048,-0.379,0.0
15.357,1.868,-0.434,0.0
14.09,1.713,-0.48,0.0
13.171,1.6,-0.524,0.0
12.398,1.506,-0.564,0.0
18.079,2.19,-0.322,0.0
16.487,1.996,-0.388,0.0
15.154,1.833,-0.443,0.0
13.876,1.678,-0.486,0.0
12.988,1.569,-0.529,0.0
12.246,1.479,-0.569,0.0
17.737,2.136,-0.333,0.0
16.183,1.948,-0.396,0.0
14.975,1.801,-0.452,0.0
13.714,1.648,-0.494,0.0
12.812,1.539,-0.534,0.0
12.105,1.453,-0.574,0.0
17.404,2.083,-0.343,0.0
16.015,1.915,-0.407,0.0
14.7,1.757,-0.457,0.0
13.514,1.614,-0.499,0.0
12.666,1.512,-0.54,0.0
11.849,1.413,-0.573,0.0
17.178,2.043,-0.354,0.0
15.788,1.876,-0.416,0.0
14.52,1.724,-0.465,0.0
13.375,1.586,-0.506,0.0
12.57,1.49,-0.548,0.0
11.775,1.395,-0.58,0.0
16.988,2.006,-0.366,0.0
15.583,1.838,-0.424,0.0
14.34,1.69,-0.472,0.0
13.294,1.566,-0.515,0.0
12.492,1.47,-0.555,0.0
11.654,1.371,-0.585,0.0
16.783,1.967,-0.376,0.0
15.314,1.793,-0.43,0.0
14.101,1.65,-0.477,0.0
13.098,1.531,-0.519,0.0
12.33,1.44,-0.559,0.0
11.57,1.35,-0.59,0.0
16.49,1.918,-0.384,0.0
15.185,1.764,-0.44,0.0
13.906,1.614,-0.482,0.0
12.938,1.5,-0.524,0.0
12.202,1.414,-0.563,0.0
11.448,1.325,-0.594,0.0
16.295,1.88,-0.393,0.0
14.966,1.725,-0.446,0.0
13.786,1.587,-0.489,0.0
12.875,1.481,-0.532,0.0
12.121,1.393,-0.57,0.0
11.35,1.303,-0.598,0.0
16.045,1.835,-0.4,0.0
14.764,1.687,-0.452,0.0
13.633,1.556,-0.495,0.0
12.746,1.453,-0.536,0.0
12.045,1.372,-0.575,0.0
11.245,1.28,-0.601,0.0
15.962,1.809,-0.41,0.0
14.648,1.659,-0.46,0.0
13.468,1.523,-0.499,0.0
12.587,1.422,-0.539,0.0
11.862,1.339,-0.576,0.0
11.126,1.255,-0.603,0.0
15.77,1.771,-0.417,0.0
14.41,1.616,-0.463,0.0
13.374,1.498,-0.505,0.0
12.507,1.4,-0.545,0.0
11.773,1.316,-0.58,0.0
11.069,1.236,-0.608,0.0
15.543,1.729,-0.422,0.0
14.261,1.584,-0.468,0.0
13.293,1.475,-0.512,0.0
12.471,1.382,-0.552,0.0
11.613,1.285,-0.58,0.0
10.973,1.213,-0.611,0.0
15.391,1.694,-0.429,0.0
14.125,1.553,-0.474,0.0
13.155,1.444,-0.516,0.0
12.377,1.357,-0.557,0.0
11.544,1.264,-0.585,0.0
10.92,1.195,-0.615,0.0
15.246,1.66,-0.435,0.0
14.022,1.525,-0.479,0.0
13.041,1.416,-0.52,0.0
12.209,1.324,-0.557,0.0
11.464,1.242,-0.588,0.0
10.839,1.173,-0.618,0.0
15.031,1.619,-0.438,0.0
13.785,1.483,-0.48,0.0
12.982,1.394,-0.526,0.0
12.16,1.304,-0.562,0.0
11.407,1.222,-0.592,0.0
10.781,1.153,-0.621,0.0
14.912,1.588,-0.444,0.0
13.707,1.457,-0.486,0.0
12.833,1.362,-0.527,0.0
12.076,1.28,-0.566,0.0
11.329,1.199,-0.595,0.0
10.7,1.131,-0.623,0.0
14.762,1.553,-0.448,0.0
13.607,1.429,-0.49,0.0
12.741,1.336,-0.531,0.0
11.966,1.253,-0.567,0.0
11.236,1.175,-0.597,0.0
10.655,1.113,-0.626,0.0
14.63,1.52,-0.452,0.0
13.588,1.41,-0.496,0.0
12.666,1.312,-0.535,0.0
11.898,1.23,-0.571,0.0
11.231,1.16,-0.602,0.0
10.631,1.096,-0.63,0.0
14.558,1.493,-0.457,0.0
13.479,1.38,-0.499,0.0
12.585,1.287,-0.537,0.0
11.777,1.202,-0.571,0.0
11.137,1.135,-0.603,0.0
10.534,1.072,-0.63,0.0
14.468,1.464,-0.461,0.0
13.391,1.353,-0.503,0.0
12.52,1.263,-0.541,0.0
11.737,1.182,-0.574,0.0
11.079,1.114,-0.605,0.0
10.451,1.049,-0.629,0.0
14.286,1.426,-0.462,0.0
13.364,1.332,-0.507,0.0
12.466,1.24,-0.544,0.0
11.7,1.162,-0.577,0.0
11.003,1.091,-0.605,0.0
10.444,1.033,-0.633,0.0
14.17,1.394,-0.464,0.0
13.245,1.301,-0.508,0.0
12.442,1.22,-0.547,0.0
11.638,1.139,-0.579,0.0
10.947,1.069,-0.606,0.0
10.402,1.014,-0.635,0.0
14.159,1.373,-0.469,0.0
13.179,1.275,-0.511,0.0
12.379,1.196,-0.549,0.0
11.575,1.116,-0.58,0.0
10.939,1.052,-0.61,0.0
10.358,0.995,-0.636,0.0
14.101,1.347,-0.472,0.0
13.17,1.255,-0.515,0.0
12.315,1.171,-0.55,0.0
11.565,1.098,-0.583,0.0
10.903,1.033,-0.611,0.0
10.353,0.979,-0.639,0.0
13.976,1.314,-0.472,0.0
13.11,1.23,-0.516,0.0
12.283,1.15,-0.553,0.0
11.537,1.078,-0.585,0.0
10.858,1.012,-0.612,0.0
10.313,0.959,-0.639,0.0
13.992,1.294,-0.476,0.0
13.065,1.206,-0.518,0.0
12.263,1.129,-0.555,0.0
11.481,1.055,-0.585,0.0
10.822,0.992,-0.612,0.0
10.286,0.941,-0.64,0.0
13.918,1.266,-0.477,0.0
13.025,1.182,-0.519,0.0
12.238,1.108,-0.556,0.0
11.46,1.035,-0.586,0.0
10.799,0.973,-0.613,0.0
10.229,0.92,-0.638,0.0
13.892,1.242,-0.479,0.0
13.003,1.159,-0.521,0.0
12.203,1.085,-0.557,0.0
11.431,1.014,-0.587,0.0
10.828,0.959,-0.617,0.0
10.267,0.907,-0.642,0.0
13.841,1.215,-0.479,0.0
12.957,1.135,-0.521,0.0
12.17,1.063,-0.557,0.0
11.392,0.993,-0.586,0.0
10.772,0.936,-0.615,0.0
10.296,0.893,-0.645,0.0
13.787,1.188,-0.479,0.0
12.914,1.11,-0.52,0.0
12.161,1.043,-0.558,0.0
11.409,0.976,-0.588,0.0
10.723,0.915,-0.613,0.0
10.18,0.867,-0.639,0.0
13.746,1.162,-0.478,0.0
12.914,1.089,-0.521,0.0
12.173,1.024,-0.559,0.0
11.372,0.954,-0.587,0.0
10.761,0.901,-0.616,0.0
10.172,0.849,-0.639,0.0
13.796,1.144,-0.481,0.0
12.952,1.071,-0.523,0.0
12.162,1.003,-0.559,0.0
11.382,0.936,-0.588,0.0
10.754,0.882,-0.615,0.0
10.207,0.835,-0.641,0.0
13.809,1.123,-0.481,0.0
12.911,1.046,-0.521,0.0
12.127,0.98,-0.557,0.0
11.368,0.916,-0.587,0.0
10.753,0.864,-0.615,0.0
10.158,0.814,-0.638,0.0
13.827,1.101,-0.481,0.0
12.909,1.025,-0.521,0.0
12.124,0.959,-0.556,0.0
11.376,0.898,-0.587,0.0
10.714,0.843,-0.612,0.0
10.185,0.799,-0.639,0.0
13.757,1.072,-0.478,0.0
12.905,1.003,-0.519,0.0
12.135,0.94,-0.556,0.0
11.328,0.875,-0.583,0.0
10.8,0.832,-0.616,0.0
10.2,0.783,-0.638,0.0
13.799,1.052,-0.477,0.0
12.905,0.981,-0.518,0.0
12.174,0.922,-0.556,0.0
11.407,0.861,-0.585,0.0
10.748,0.809,-0.611,0.0
10.232,0.768,-0.639,0.0
13.893,1.036,-0.478,0.0
12.99,0.965,-0.519,0.0
12.21,0.904,-0.555,0.0
11.434,0.844,-0.585,0.0
10.782,0.793,-0.611,0.0
10.222,0.749,-0.636,0.0
13.906,1.012,-0.476,0.0
12.95,0.939,-0.515,0.0
12.249,0.886,-0.555,0.0
11.455,0.825,-0.583,0.0
10.844,0.779,-0.612,0.0
10.307,0.738,-0.639,0.0
13.9,0.988,-0.472,0.0
13.01,0.921,-0.514,0.0
12.269,0.866,-0.552,0.0
11.43,0.804,-0.579,0.0
10.865,0.761,-0.61,0.0
10.256,0.716,-0.633,0.0
13.978,0.969,-0.471,0.0
13.072,0.903,-0.513,0.0
12.311,0.847,-0.55,0.0
11.519,0.79,-0.58,0.0
10.848,0.741,-0.606,0.0
10.271,0.699,-0.63,0.0
14.019,0.947,-0.468,0.0
13.099,0.881,-0.509,0.0
12.366,0.829,-0.549,0.0
11.526,0.77,-0.576,0.0
10.933,0.727,-0.607,0.0
10.345,0.686,-0.631,0.0
14.177,0.933,-0.468,0.0
13.162,0.863,-0.507,0.0
12.34,0.806,-0.543,0.0
11.595,0.754,-0.575,0.0
0.0,0.0,0.0,0.0
10.347,0.668,-0.627,0.0
14.185,0.908,-0.463,0.0
13.243,0.844,-0.504,0.0
12.448,0.791,-0.543,0.0
11.68,0.739,-0.574,0.0
11.023,0.694,-0.603,0.0
10.4,0.652,-0.626,0.0
14.219,0.885,-0.457,0.0
13.294,0.824,-0.5,0.0
12.502,0.772,-0.539,0.0
11.736,0.721,-0.572,0.0
11.092,0.679,-0.601,0.0
10.492,0.639,-0.626,0.0
14.324,0.866,-0.454,0.0
13.394,0.806,-0.498,0.0
12.532,0.751,-0.534,0.0
11.802,0.704,-0.569,0.0
11.145,0.662,-0.598,0.0
10.505,0.621,-0.621,0.0
14.513,0.852,-0.452,0.0
13.463,0.787,-0.493,0.0
12.623,0.734,-0.531,0.0
11.87,0.687,-0.566,0.0
11.192,0.645,-0.594,0.0
10.582,0.607,-0.62,0.0
14.595,0.831,-0.447,0.0
13.543,0.767,-0.488,0.0
12.705,0.716,-0.527,0.0
11.992,0.673,-0.564,0.0
11.292,0.63,-0.593,0.0
10.636,0.591,-0.617,0.0
14.739,0.812,-0.442,0.0
13.697,0.751,-0.485,0.0
12.817,0.699,-0.524,0.0
12.065,0.655,-0.56,0.0
11.388,0.615,-0.591,0.0
10.701,0.575,-0.613,0.0
14.85,0.792,-0.436,0.0
13.777,0.731,-0.479,0.0
12.844,0.678,-0.516,0.0
12.184,0.64,-0.557,0.0
11.443,0.598,-0.586,0.0
10.809,0.562,-0.612,0.0
14.992,0.773,-0.429,0.0
13.866,0.711,-0.472,0.0
13.021,0.664,-0.514,0.0
12.183,0.618,-0.549,0.0
11.525,0.581,-0.582,0.0
10.855,0.545,-0.607,0.0
15.199,0.756,-0.424,0.0
13.99,0.692,-0.466,0.0
13.187,0.649,-0.511,0.0
12.369,0.605,-0.547,0.0
11.595,0.564,-0.576,0.0
10.921,0.528,-0.602,0.0
15.462,0.741,-0.419,0.0
14.244,0.679,-0.463,0.0
13.205,0.626,-0.501,0.0
12.416,0.585,-0.54,0.0
11.712,0.549,-0.573,0.0
11.077,0.516,-0.602,0.0
15.568,0.719,-0.41,0.0
14.317,0.657,-0.454,0.0
13.42,0.612,-0.498,0.0
12.488,0.566,-0.532,0.0
11.801,0.532,-0.567,0.0
11.119,0.498,-0.594,0.0
15.788,0.701,-0.402,0.0
14.569,0.643,-0.45,0.0
13.512,0.592,-0.49,0.0
12.639,0.551,-0.528,0.0
11.939,0.517,-0.563,0.0
11.267,0.485,-0.592,0.0
15.973,0.681,-0.392,0.0
14.712,0.623,-0.441,0.0
13.647,0.574,-0.482,0.0
12.755,0.533,-0.521,0.0
12.071,0.501,-0.558,0.0
11.347,0.468,-0.586,0.0
16.133,0.659,-0.381,0.0
14.919,0.605,-0.433,0.0
13.863,0.559,-0.477,0.0
12.906,0.517,-0.515,0.0
12.22,0.486,-0.553,0.0
11.478,0.453,-0.582,0.0
16.4,0.642,-0.372,0.0
15.175,0.589,-0.426,0.0
14.05,0.542,-0.469,0.0
13.102,0.502,-0.51,0.0
12.378,0.471,-0.548,0.0
11.636,0.439,-0.578,0.0
16.644,0.622,-0.361,0.0
15.451,0.573,-0.417,0.0
14.223,0.524,-0.461,0.0
13.223,0.483,-0.501,0.0
12.495,0.453,-0.54,0.0
11.698,0.421,-0.569,0.0
16.846,0.6,-0.347,0.0
15.661,0.554,-0.407,0.0
14.401,0.505,-0.451,0.0
13.389,0.466,-0.493,0.0
12.597,0.435,-0.531,0.0
11.917,0.408,-0.566,0.0
17.167,0.582,-0.335,0.0
15.941,0.536,-0.397,0.0
14.641,0.488,-0.443,0.0
13.622,0.451,-0.486,0.0
12.821,0.421,-0.526,0.0
11.946,0.389,-0.554,0.0
17.533,0.565,-0.323,0.0
16.14,0.515,-0.383,0.0
14.885,0.471,-0.433,0.0
13.834,0.434,-0.478,0.0
12.901,0.401,-0.514,0.0
12.186,0.376,-0.551,0.0
17.957,0.548,-0.31,0.0
16.462,0.498,-0.372,0.0
15.163,0.454,-0.423,0.0
14.013,0.416,-0.468,0.0
13.126,0.386,-0.508,0.0
12.428,0.362,-0.547,0.0
18.283,0.527,-0.294,0.0
16.705,0.477,-0.358,0.0
15.555,0.44,-0.416,0.0
14.185,0.398,-0.456,0.0
13.337,0.37,-0.5,0.0
12.564,0.345,-0.538,0.0
18.706,0.508,-0.278,0.0
16.965,0.456,-0.342,0.0
15.682,0.418,-0.4,0.0
14.488,0.382,-0.448,0.0
13.512,0.353,-0.489,0.0
12.683,0.328,-0.527,0.0
19.503,0.498,-0.265,0.0
17.293,0.437,-0.327,0.0
16.048,0.401,-0.389,0.0
14.661,0.362,-0.434,0.0
13.783,0.337,-0.481,0.0
12.899,0.312,-0.519,0.0
20.091,0.48,-0.247,0.0
17.867,0.422,-0.314,0.0
16.374,0.382,-0.375,0.0
15.092,0.348,-0.427,0.0
13.957,0.318,-0.469,0.0
13.103,0.295,-0.51,0.0
20.788,0.463,-0.228,0.0
18.329,0.403,-0.298,0.0
16.668,0.362,-0.359,0.0
15.488,0.333,-0.417,0.0
14.253,0.302,-0.46,0.0
13.302,0.279,-0.499,0.0
21.756,0.45,-0.209,1.0
18.891,0.386,-0.281,0.0
17.006,0.343,-0.343,0.0
15.773,0.314,-0.403,0.0
14.55,0.286,-0.449,0.0
13.545,0.262,-0.489,0.0
22.305,0.426,-0.183,0.0
19.7,0.371,-0.265,0.0
17.293,0.321,-0.324,0.0
16.052,0.294,-0.387,0.0
14.784,0.267,-0.435,0.0
13.832,0.246,-0.48,0.0
23.301,0.408,-0.157,0.0
20.23,0.349,-0.243,0.0
17.964,0.306,-0.311,0.0
16.387,0.275,-0.372,0.0
15.217,0.251,-0.425,0.0
14.023,0.228,-0.466,0.0
23.987,0.384,-0.127,0.0
20.884,0.329,-0.221,0.0
18.48,0.286,-0.293,0.0
16.746,0.255,-0.355,0.0
15.48,0.232,-0.41,0.0
14.361,0.212,-0.456,0.0
24.757,0.359,-0.094,0.0
21.892,0.312,-0.198,0.0
19.01,0.266,-0.272,0.0
17.108,0.235,-0.337,0.0
15.883,0.214,-0.396,0.0
14.716,0.195,-0.444,0.0
25.629,0.333,-0.058,0.0
23.007,0.293,-0.173,0.0
20.034,0.251,-0.256,0.0
17.69,0.217,-0.321,0.0
16.311,0.196,-0.382,0.0
15.01,0.177,-0.43,0.0
26.512,0.306,-0.019,0.0
23.604,0.267,-0.141,0.0
20.746,0.229,-0.233,0.0
18.3,0.198,-0.303,0.0
16.638,0.176,-0.363,0.0
15.474,0.16,-0.419,0.0
27.411,0.277,0.022,0.0
24.559,0.243,-0.108,0.0
21.85,0.211,-0.211,3.0
18.926,0.178,-0.284,0.0
17.012,0.156,-0.344,0.0
15.772,0.141,-0.402,0.0
28.708,0.25,0.069,3.0
25.476,0.216,-0.071,0.0
22.422,0.185,-0.18,1.0
19.637,0.157,-0.262,0.0
17.51,0.136,-0.326,0.0
16.241,0.122,-0.387,0.0
28.831,0.211,0.116,1.0
26.327,0.187,-0.031,0.0
23.525,0.161,-0.15,0.0
20.572,0.137,-0.241,0.0
18.209,0.117,-0.309,0.0
16.523,0.102,-0.366,0.0
0.0,0.0,0.0,0.0
27.21,0.156,0.013,0.0
24.423,0.135,-0.115,0.0
21.457,0.114,-0.216,4.0
18.721,0.095,-0.286,0.0
16.939,0.082,-0.347,0.0
31.757,0.147,0.234,0.0
28.523,0.126,0.062,1.0
25.347,0.106,-0.076,0.0
22.408,0.089,-0.187,0.0
19.609,0.074,-0.266,0.0
17.472,0.062,-0.328,0.0
33.022,0.11,0.301,0.0
28.798,0.09,0.112,1.0
26.295,0.076,-0.034,0.0
23.392,0.063,-0.155,1.0
20.76,0.051,-0.246,0.0
18.147,0.041,-0.309,0.0
33.898,0.07,0.367,0.0
30.488,0.056,0.172,0.0
27.167,0.045,0.011,0.0
24.216,0.035,-0.118,0.0
21.342,0.026,-0.215,4.0
18.775,0.019,-0.287,0.0
36.884,0.03,0.464,0.0
31.574,0.019,0.233,0.0
28.484,0.012,0.062,1.0
25.368,0.005,-0.079,0.0
22.494,0.0,-0.187,0.0
19.767,-0.003,-0.267,0.0
0.0,0.0,0.0,0.0
33.318,-0.018,0.305,0.0
28.779,-0.021,0.113,2.0
26.303,-0.025,-0.035,0.0
23.634,-0.027,-0.154,0.0
20.646,-0.027,-0.242,0.0
43.281,-0.066,0.698,0.0
35.554,-0.061,0.389,0.0
30.484,-0.058,0.175,0.0
27.427,-0.057,0.012,0.0
24.286,-0.056,-0.115,0.0
21.741,-0.054,-0.216,0.0
0.0,0.0,0.0,0.0
0.0,0.0,0.0,0.0
31.809,-0.097,0.241,1.0
28.688,-0.093,0.066,6.0
25.555,-0.087,-0.074,0.0
22.833,-0.082,-0.184,0.0
0.0,0.0,0.0,0.0
0.0,0.0,0.0,0.0
33.194,-0.138,0.313,0.0
28.814,-0.125,0.119,5.0
26.73,-0.121,-0.027,0.0
23.835,-0.112,-0.148,0.0
0.0,0.0,0.0,0.0
0.0,0.0,0.0,0.0
35.858,-0.188,0.405,0.0
31.204,-0.168,0.187,1.0
27.703,-0.154,0.022,0.0
24.654,-0.141,-0.107,0.0
0.0,0.0,0.0,0.0
0.0,0.0,0.0,0.0
0.0,0.0,0.0,0.0
32.13,-0.207,0.253,1.0
28.728,-0.189,0.077,6.0
25.942,-0.175,-0.063,0.0
0.0,0.0,0.0,0.0
0.0,0.0,0.0,0.0
0.0,0.0,0.0,0.0
33.753,-0.251,0.33,0.0
28.807,-0.218,0.132,2.0
26.829,-0.208,-0.015,0.0
82.528,-0.654,2.254,1.0
0.0,0.0,0.0,0.0
0.0,0.0,0.0,0.0
0.0,0.0,0.0,0.0
31.685,-0.271,0.206,1.0
28.176,-0.245,0.037,1.0
83.302,-0.739,2.435,3.0
0.0,0.0,0.0,0.0
0.0,0.0,0.0,0.0
0.0,0.0,0.0,0.0
32.659,-0.309,0.276,1.0
28.774,-0.276,0.094,2.0
90.461,-0.886,2.821,11.0
0.0,0.0,0.0,0.0
0.0,0.0,0.0,0.0
0.0,0.0,0.0,0.0
0.0,0.0,0.0,0.0
30.636,-0.321,0.16,0.0
90.611,-0.967,3.003,36.0
84.029,-0.908,2.349,1.0
0.0,0.0,0.0,0.0
44.637,-0.494,0.782,0.0
37.597,-0.421,0.464,0.0
32.313,-0.366,0.232,1.0
90.669,-1.043,3.18,36.0
89.965,-1.047,2.691,3.0
64.002,-0.752,1.583,0.0
0.0,0.0,0.0,0.0
0.0,0.0,0.0,0.0
33.5,-0.406,0.306,1.0
171.272,-2.108,6.345,11.0
90.706,-1.127,2.891,5.0
0.0,0.0,0.0,0.0
0.0,0.0,0.0,0.0
0.0,0.0,0.0,0.0
36.091,-0.465,0.4,0.0
174.326,-2.278,6.797,5.0
0.0,0.0,0.0,0.0
85.932,-1.142,2.462,2.0
0.0,0.0,0.0,0.0
47.397,-0.64,0.864,0.0
0.0,0.0,0.0,0.0
193.889,-2.676,7.947,4.0
171.379,-2.383,6.138,11.0
89.838,-1.258,2.753,4.0
0.0,0.0,0.0,0.0
0.0,0.0,0.0,0.0
0.0,0.0,0.0,0.0
193.266,-2.8,8.305,18.0
171.772,-2.506,6.494,22.0
96.664,-1.419,3.155,2.0
86.352,-1.276,2.364,1.0
0.0,0.0,0.0,0.0
0.0,0.0,0.0,0.0
193.058,-2.924,8.684,16.0
168.345,-2.565,6.701,5.0
0.0,0.0,0.0,0.0
87.321,-1.347,2.566,1.0
63.774,-0.989,1.545,1.0
47.694,-0.744,0.909,0.0
194.315,-3.063,9.13,10.0
193.976,-3.073,8.111,9.0
0.0,0.0,0.0,0.0
96.762,-1.549,3.036,6.0
0.0,0.0,0.0,0.0
0.0,0.0,0.0,0.0
191.393,-3.127,9.375,8.0
193.626,-3.179,8.486,9.0
171.464,-2.827,6.627,5.0
97.009,-1.607,3.238,16.0
87.971,-1.463,2.481,4.0
0.0,0.0,0.0,0.0
191.457,-3.231,9.761,8.0
0.0,0.0,0.0,0.0
171.427,-2.916,6.966,5.0
96.968,-1.656,3.43,5.0
89.686,-1.537,2.709,4.0
0.0,0.0,0.0,0.0
191.661,-3.33,10.157,8.0
191.065,-3.331,9.139,6.0
193.815,-3.392,8.267,11.0
0.0,0.0,0.0,0.0
96.85,-1.706,3.122,18.0
0.0,0.0,0.0,0.0
99.302,-1.77,5.461,2.0
190.452,-3.407,9.491,20.0
190.219,-3.413,8.497,7.0
96.95,-1.745,3.819,1.0
96.988,-1.75,3.319,37.0
89.239,-1.615,2.594,3.0
99.263,-1.812,5.66,4.0
190.232,-3.481,9.862,21.0
190.223,-3.49,8.879,20.0
0.0,0.0,0.0,0.0
96.961,-1.788,3.514,33.0
96.728,-1.788,3.007,8.0
99.175,-1.848,5.855,13.0
189.964,-3.549,10.232,22.0
190.289,-3.562,9.264,21.0
190.382,-3.57,8.265,5.0
96.984,-1.822,3.71,29.0
96.949,-1.825,3.207,31.0
98.895,-1.878,6.038,24.0
99.306,-1.888,5.547,7.0
190.28,-3.624,9.645,21.0
189.914,-3.623,8.626,21.0
96.958,-1.852,3.901,17.0
96.949,-1.855,3.4,40.0
98.742,-1.905,6.224,12.0
106.098,-2.049,6.138,10.0
189.941,-3.673,10.006,18.0
190.276,-3.684,9.018,19.0
96.932,-1.878,4.092,7.0
96.944,-1.881,3.591,41.0
76.176,-1.49,4.953,30.0
99.079,-1.938,5.928,15.0
99.41,-1.947,5.433,12.0
190.405,-3.731,9.398,20.0
190.152,-3.729,8.401,11.0
96.937,-1.902,3.782,40.0
76.102,-1.505,5.099,30.0
76.513,-1.513,4.73,10.0
99.21,-1.964,5.618,15.0
190.131,-3.765,9.764,20.0
189.872,-3.762,8.769,20.0
96.944,-1.92,3.976,33.0
76.011,-1.518,5.245,26.0
76.249,-1.523,4.864,32.0
128.423,-2.564,7.527,9.0
189.732,-3.789,10.116,17.0
190.348,-3.801,9.162,22.0
96.897,-1.935,4.163,17.0
76.866,-1.546,5.454,22.0
76.164,-1.532,5.009,36.0
99.032,-1.99,5.997,14.0
99.321,-1.995,5.49,18.0
190.338,-3.823,9.536,22.0
96.92,-1.946,4.354,4.0
77.164,-1.56,5.627,18.0
76.013,-1.536,5.148,30.0
76.377,-1.543,4.776,19.0
99.226,-2.003,5.68,14.0
189.995,-3.831,9.89,19.0
189.88,-3.826,8.899,18.0
76.898,-1.561,5.758,25.0
76.153,-1.544,5.306,26.0
76.174,-1.543,4.911,33.0
106.055,-2.145,6.274,9.0
99.449,-2.009,5.368,7.0
190.326,-3.842,9.287,19.0
76.623,-1.558,5.886,15.0
77.215,-1.568,5.53,22.0
76.115,-1.543,5.055,34.0
98.994,-2.004,6.049,11.0
99.245,-2.006,5.549,20.0
190.276,-3.84,9.649,19.0
74.553,-1.515,5.871,10.0
77.083,-1.564,5.667,18.0
76.038,-1.54,5.194,28.0
76.335,-1.543,4.808,31.0
128.397,-2.591,7.419,12.0
189.883,-3.825,9.987,19.0
74.616,-1.513,6.017,25.0
76.847,-1.555,5.796,19.0
76.331,-1.541,5.359,24.0
76.159,-1.535,4.943,41.0
99.068,-1.992,5.913,13.0
99.39,-1.994,5.416,14.0
74.731,-1.51,6.169,13.0
76.815,-1.548,5.939,13.0
77.256,-1.553,5.569,18.0
76.053,-1.525,5.077,32.0
76.496,-1.53,4.708,9.0
99.22,-1.979,5.59,17.0
66.052,-1.326,5.576,6.0
74.591,-1.494,5.906,14.0
77.089,-1.54,5.7,26.0
76.004,-1.513,5.215,26.0
76.311,-1.515,4.839,27.0
128.444,-2.543,7.475,8.0
66.032,-1.316,5.698,22.0
74.581,-1.481,6.045,21.0
77.044,-1.525,5.841,20.0
76.244,-1.505,5.374,26.0
76.176,-1.498,4.971,36.0
99.03,-1.941,5.946,18.0
0.0,0.0,0.0,0.0
74.761,-1.47,6.198,20.0
76.472,-1.498,5.94,23.0
77.121,-1.505,5.578,30.0
76.204,-1.482,5.113,35.0
98.778,-1.914,6.112,19.0
67.422,-1.315,6.067,19.0
66.023,-1.282,5.595,21.0
75.395,-1.459,5.994,13.0
76.988,-1.484,5.709,24.0
76.158,-1.461,5.248,30.0
76.17,-1.456,4.851,19.0
64.385,-1.239,5.911,10.0
66.016,-1.265,5.714,24.0
74.578,-1.422,6.063,15.0
77.046,-1.463,5.851,12.0
76.546,-1.447,5.412,29.0
76.227,-1.434,4.992,31.0
64.009,-1.212,5.992,9.0
67.436,-1.271,5.958,16.0
74.626,-1.4,6.201,23.0
0.0,0.0,0.0,0.0
76.602,-1.422,5.552,31.0
76.284,-1.409,5.129,29.0
63.984,-1.19,6.104,25.0
67.53,-1.249,6.087,23.0
65.994,-1.214,5.6,24.0
66.272,-1.213,5.268,16.0
76.668,-1.396,5.692,18.0
76.197,-1.38,5.258,30.0
64.294,-1.171,6.247,34.0
67.52,-1.223,6.204,27.0
65.986,-1.189,5.714,28.0
66.274,-1.187,5.382,24.0
76.616,-1.364,5.82,25.0
76.253,-1.35,5.391,26.0
64.459,-1.149,6.373,30.0
64.072,-1.135,5.996,11.0
65.849,-1.159,5.814,24.0
74.503,-1.303,6.177,12.0
76.714,-1.334,5.955,20.0
76.673,-1.324,5.55,26.0
64.503,-1.121,6.487,27.0
64.236,-1.109,6.119,32.0
65.696,-1.127,5.91,26.0
74.617,-1.271,6.31,6.0
66.286,-1.122,5.256,28.0
76.586,-1.287,5.669,24.0
64.662,-1.094,6.61,32.0
64.299,-1.08,6.232,30.0
64.17,-1.069,5.879,31.0
65.635,-1.086,5.659,27.0
66.282,-1.088,5.365,27.0
76.69,-1.25,5.803,24.0
64.646,-1.06,6.717,22.0
64.263,-1.045,6.334,31.0
64.182,-1.036,5.986,27.0
63.915,-1.024,5.615,20.0
66.324,-1.054,5.475,26.0
76.578,-1.207,5.917,34.0
65.206,-1.034,6.88,42.0
64.333,-1.011,6.445,33.0
64.125,-1.0,6.083,28.0
63.846,-0.987,5.711,21.0
65.698,-1.007,5.528,37.0
76.649,-1.165,6.043,23.0
65.498,-1.001,7.015,16.0
64.506,-0.977,6.564,31.0
64.053,-0.962,6.176,32.0
63.972,-0.952,5.822,30.0
65.496,-0.965,5.613,24.0
76.697,-1.12,6.166,8.0
58.603,-0.861,6.367,21.0
64.685,-0.941,6.682,25.0
63.986,-0.922,6.268,25.0
64.051,-0.914,5.927,22.0
65.897,-0.93,5.747,40.0
66.424,-0.928,5.44,12.0
57.614,-0.81,6.348,28.0
64.769,-0.901,6.79,14.0
64.459,-0.887,6.413,12.0
64.061,-0.872,6.025,25.0
63.907,-0.861,5.67,12.0
66.459,-0.885,5.542,29.0
57.3,-0.767,6.399,20.0
58.604,-0.776,6.231,17.0
64.876,-0.849,6.551,20.0
63.963,-0.827,6.11,8.0
63.93,-0.816,5.766,7.0
66.534,-0.84,5.647,25.0
57.29,-0.727,6.484,15.0
58.549,-0.734,6.312,32.0
64.588,-0.799,6.616,16.0
58.238,-0.712,5.648,17.0
65.824,-0.794,6.031,24.0
67.166,-0.8,5.796,34.0
63.826,-0.763,7.315,39.0
57.291,-0.676,6.257,28.0
58.863,-0.686,6.113,24.0
58.38,-0.67,5.744,29.0
66.497,-0.753,6.186,15.0
67.106,-0.749,5.885,38.0
63.795,-0.716,7.401,18.0
57.3,-0.633,6.339,31.0
58.578,-0.637,6.165,32.0
58.39,-0.626,5.826,6.0
58.406,-0.617,5.514,18.0
66.703,-0.693,5.94,18.0
60.071,-0.626,7.052,21.0
57.278,-0.588,6.415,14.0
0.0,0.0,0.0,0.0
65.358,-0.648,6.609,17.0
58.439,-0.57,5.595,26.0
67.073,-0.644,6.062,21.0
59.971,-0.577,7.12,26.0
60.052,-0.568,6.804,17.0
57.409,-0.533,6.195,31.0
58.783,-0.536,6.021,15.0
0.0,0.0,0.0,0.0
67.486,-0.592,6.186,21.0
59.172,-0.521,7.102,34.0
60.017,-0.518,6.877,7.0
57.359,-0.485,6.263,30.0
58.864,-0.487,6.103,31.0
58.608,-0.475,5.76,3.0
57.01,-0.452,5.297,11.0
0.0,0.0,0.0,0.0
63.585,-0.494,7.366,20.0
57.363,-0.435,6.334,29.0
57.464,-0.426,6.029,25.0
65.093,-0.471,6.477,8.0
56.972,-0.402,5.362,20.0
57.334,-0.405,7.023,26.0
63.656,-0.438,7.451,19.0
57.403,-0.385,6.407,15.0
57.353,-0.374,6.085,30.0
56.642,-0.359,5.703,10.0
57.01,-0.351,5.432,23.0
57.212,-0.353,7.076,26.0
59.948,-0.359,7.087,27.0
57.417,-0.333,6.475,15.0
57.323,-0.322,6.148,31.0
56.571,-0.307,5.761,28.0
57.125,-0.3,5.508,12.0
57.232,-0.3,7.143,28.0
58.341,-0.295,6.963,20.0
59.793,-0.292,6.811,29.0
57.441,-0.269,6.224,27.0
56.837,-0.256,5.85,30.0
65.008,-0.281,6.34,8.0
57.425,-0.247,7.231,32.0
57.947,-0.239,6.98,32.0
59.714,-0.235,6.867,27.0
57.482,-0.215,6.291,14.0
57.039,-0.203,5.932,30.0
56.72,-0.191,5.591,14.0
58.374,-0.195,7.413,33.0
57.326,-0.181,6.965,31.0
59.832,-0.177,6.943,22.0
57.531,-0.159,6.355,16.0
57.032,-0.148,5.989,30.0
56.721,-0.136,5.649,18.0
58.487,-0.138,7.486,25.0
57.331,-0.125,7.024,31.0
59.779,-0.119,6.996,30.0
57.348,-0.103,6.392,23.0
57.344,-0.092,6.078,30.0
56.672,-0.08,5.699,23.0
58.535,-0.079,7.55,20.0
57.335,-0.067,7.08,30.0
57.461,-0.056,6.78,16.0
59.989,-0.047,6.743,13.0
57.419,-0.034,6.14,31.0
56.959,-0.024,5.78,28.0
58.896,-0.02,7.652,14.0
48.821,-0.007,6.074,5.0
57.44,0.001,6.83,25.0
56.599,0.012,6.413,23.0
57.554,0.023,6.206,27.0
56.951,0.034,5.83,25.0
61.152,0.041,7.999,17.0
48.905,0.041,6.127,22.0
57.382,0.06,6.873,31.0
60.092,0.075,6.861,11.0
57.161,0.082,6.213,31.0
57.155,0.093,5.9,23.0
61.102,0.105,8.045,14.0
48.88,0.093,6.165,19.0
57.39,0.12,6.922,28.0
60.097,0.138,6.911,7.0
56.66,0.141,6.205,30.0
57.201,0.153,5.95,25.0
51.226,0.142,6.786,9.0
58.637,0.175,7.443,13.0
57.382,0.182,6.967,6.0
57.065,0.192,6.608,32.0
56.594,0.202,6.242,30.0
57.238,0.215,5.998,22.0
51.263,0.198,6.831,8.0
51.428,0.209,6.568,5.0
59.215,0.252,7.234,34.0
57.411,0.255,6.69,21.0
56.663,0.263,6.291,30.0
59.077,0.287,6.234,6.0
48.289,0.24,6.47,23.0
51.485,0.266,6.612,15.0
58.709,0.314,7.214,32.0
57.654,0.321,6.759,29.0
56.728,0.326,6.337,11.0
57.395,0.341,6.095,31.0
48.295,0.293,6.503,33.0
51.493,0.323,6.647,14.0
58.387,0.377,7.213,9.0
57.694,0.384,6.801,11.0
56.848,0.39,6.387,13.0
57.531,0.406,6.146,30.0
51.492,0.371,6.967,8.0
51.528,0.381,6.684,7.0
58.336,0.442,7.243,11.0
60.269,0.469,7.142,35.0
52.45,0.418,5.924,19.0
57.407,0.469,6.167,27.0
49.79,0.414,6.766,12.0
48.536,0.413,6.324,16.0
48.83,0.425,6.09,12.0
59.606,0.531,7.096,10.0
52.482,0.478,5.957,18.0
57.548,0.535,6.213,28.0
51.794,0.489,7.066,9.0
48.561,0.468,6.353,22.0
48.19,0.474,6.036,18.0
59.59,0.598,7.125,34.0
52.487,0.536,5.984,9.0
57.469,0.599,6.233,27.0
49.269,0.522,6.746,14.0
48.823,0.526,6.411,23.0
48.213,0.529,6.061,22.0
59.124,0.66,7.097,12.0
52.586,0.597,6.019,18.0
57.375,0.662,6.249,28.0
51.673,0.606,7.099,4.0
47.335,0.564,6.237,21.0
48.467,0.587,6.115,22.0
49.106,0.604,5.915,16.0
52.534,0.657,6.035,12.0
57.146,0.725,6.247,23.0
49.262,0.634,6.787,23.0
47.355,0.619,6.258,17.0
48.496,0.643,6.137,30.0
49.067,0.66,5.93,21.0
48.588,0.663,5.6,22.0
52.899,0.732,5.802,5.0
49.199,0.69,6.796,23.0
47.366,0.674,6.276,18.0
48.591,0.7,6.166,31.0
49.109,0.717,5.951,23.0
48.665,0.72,5.625,22.0
49.956,0.748,5.495,21.0
51.834,0.787,7.177,6.0
47.538,0.731,6.313,21.0
48.743,0.759,6.199,22.0
48.943,0.771,5.945,24.0
48.671,0.776,5.639,36.0
50.009,0.806,5.514,22.0
49.115,0.803,6.813,16.0
47.671,0.789,6.344,22.0
0.0,0.0,0.0,0.0
48.857,0.826,5.946,39.0
48.686,0.832,5.652,25.0
50.178,0.867,5.544,33.0
51.477,0.902,7.152,20.0
47.742,0.845,6.363,22.0
49.0,0.877,6.254,23.0
48.848,0.883,5.955,41.0
48.929,0.894,5.689,22.0
50.09,0.924,5.544,22.0
51.57,0.963,7.174,26.0
47.667,0.899,6.361,22.0
48.361,0.921,6.18,22.0
48.851,0.94,5.962,31.0
50.144,0.973,5.838,23.0
50.155,0.983,5.557,19.0
54.009,1.072,7.52,7.0
0.0,0.0,0.0,0.0
48.78,0.986,6.239,8.0
48.867,0.996,5.969,23.0
0.0,0.0,0.0,0.0
50.11,1.04,5.557,26.0
54.002,1.135,7.524,8.0
47.793,1.012,6.387,21.0
45.756,0.978,5.855,18.0
48.856,1.053,5.971,31.0
50.255,1.092,5.858,7.0
49.891,1.093,5.534,30.0
52.152,1.156,7.268,15.0
48.046,1.073,6.422,21.0
45.782,1.031,5.859,19.0
45.269,1.027,5.533,19.0
45.675,1.045,5.324,32.0
49.818,1.148,5.526,27.0
43.668,1.019,6.085,13.0
47.604,1.119,6.362,21.0
45.757,1.083,5.855,19.0
45.349,1.081,5.541,31.0
50.22,1.206,5.852,15.0
49.679,1.202,5.508,15.0
50.38,1.233,7.017,8.0
50.297,1.24,6.718,8.0
45.69,1.134,5.843,20.0
45.296,1.131,5.53,19.0
50.227,1.264,5.848,17.0
49.714,1.259,5.507,24.0
43.809,1.122,6.097,10.0
51.554,1.329,6.88,16.0
45.271,1.174,5.784,19.0
45.394,1.185,5.537,20.0
45.619,1.199,5.305,21.0
52.788,1.395,5.84,4.0
47.362,1.266,6.584,7.0
47.546,1.279,6.338,21.0
45.342,1.227,5.785,26.0
45.359,1.235,5.524,27.0
45.472,1.246,5.28,49.0
45.866,1.264,5.066,20.0
43.97,1.225,6.104,19.0
47.513,1.331,6.323,16.0
45.198,1.274,5.757,19.0
45.413,1.288,5.521,28.0
45.453,1.296,5.267,30.0
46.102,1.322,5.081,27.0
44.042,1.277,6.103,19.0
47.567,1.386,6.318,12.0
43.959,1.287,5.588,18.0
45.33,1.335,5.499,29.0
45.498,1.347,5.26,35.0
49.326,1.468,5.422,20.0
43.952,1.322,6.077,36.0
44.144,1.335,5.85,20.0
44.365,1.348,5.626,19.0
45.452,1.388,5.499,25.0
45.554,1.398,5.252,14.0
48.76,1.504,5.344,5.0
43.955,1.371,6.063,30.0
44.031,1.379,5.82,18.0
43.925,1.383,5.555,13.0
45.471,1.438,5.485,26.0
45.71,1.453,5.253,15.0
48.665,1.554,5.316,10.0
44.254,1.428,6.087,18.0
43.776,1.419,5.77,30.0
0.0,0.0,0.0,0.0
45.442,1.486,5.464,36.0
45.697,1.501,5.233,25.0
46.152,1.523,5.022,21.0
44.046,1.468,6.04,28.0
43.74,1.464,5.746,30.0
45.486,1.529,5.714,19.0
45.438,1.533,5.443,35.0
45.719,1.55,5.215,34.0
46.176,1.571,5.004,29.0
43.95,1.511,6.006,25.0
43.705,1.509,5.72,38.0
45.362,1.572,5.676,36.0
45.61,1.587,5.441,24.0
45.496,1.589,5.167,30.0
46.117,1.617,4.974,14.0
43.815,1.552,5.964,25.0
43.656,1.552,5.691,35.0
45.383,1.619,5.655,31.0
45.741,1.638,5.432,20.0
45.753,1.644,5.172,19.0
51.136,1.845,5.488,15.0
43.728,1.593,5.928,25.0
43.779,1.6,5.682,36.0
45.338,1.663,5.623,30.0
45.781,1.686,5.41,19.0
45.369,1.676,5.102,29.0
0.0,0.0,0.0,0.0
43.422,1.625,5.86,29.0
44.218,1.661,5.712,29.0
45.356,1.708,5.598,24.0
45.759,1.729,5.38,16.0
45.368,1.721,5.073,25.0
48.596,1.849,5.156,20.0
43.386,1.667,5.827,32.0
44.4,1.711,5.707,19.0
45.484,1.758,5.583,38.0
45.69,1.772,5.341,29.0
45.413,1.766,5.048,21.0
48.429,1.889,5.105,32.0
43.498,1.713,5.812,31.0
44.05,1.74,5.631,18.0
45.739,1.811,5.583,23.0
45.671,1.814,5.306,20.0
45.403,1.808,5.015,31.0
48.603,1.941,5.089,22.0
43.673,1.761,5.803,19.0
44.366,1.794,5.639,19.0
45.929,1.861,5.572,28.0
45.605,1.853,5.265,32.0
45.408,1.85,4.981,8.0
48.409,1.978,5.032,19.0
43.949,1.812,5.806,22.0
0.0,0.0,0.0,0.0
45.851,1.9,5.526,30.0
45.558,1.892,5.224,37.0
49.625,2.067,5.404,23.0
56.188,2.347,5.796,11.0
43.939,1.851,5.769,16.0
45.58,1.925,5.72,20.0
45.837,1.94,5.487,20.0
45.527,1.931,5.182,33.0
48.952,2.081,5.29,23.0
50.695,2.161,5.187,13.0
48.826,2.1,6.369,6.0
45.628,1.966,5.687,19.0
45.675,1.972,5.428,34.0
45.74,1.98,5.167,25.0
48.583,2.107,5.208,8.0
50.653,2.202,5.139,24.0
44.471,1.95,5.761,19.0
45.62,2.004,5.645,19.0
45.669,2.011,5.386,32.0
46.035,2.031,5.158,20.0
51.425,2.273,5.466,14.0
50.349,2.231,5.062,20.0
44.407,1.984,5.711,28.0
45.745,2.047,5.617,20.0
45.626,2.046,5.338,28.0
48.302,2.17,5.367,7.0
51.387,2.313,5.413,19.0
50.317,2.269,5.011,29.0
44.326,2.016,5.657,35.0
47.556,2.166,5.793,4.0
45.565,2.078,5.287,32.0
48.324,2.208,5.322,26.0
51.073,2.338,5.33,25.0
50.617,2.321,4.991,29.0
44.333,2.049,5.614,38.0
47.698,2.208,5.763,5.0
45.493,2.109,5.232,19.0
56.445,2.621,6.159,11.0
50.616,2.354,5.231,24.0
49.968,2.328,4.876,24.0
44.605,2.094,5.602,19.0
45.765,2.152,5.482,33.0
48.277,2.273,5.502,13.0
56.372,2.659,6.092,16.0
50.514,2.386,5.167,23.0
49.673,2.35,4.794,18.0
45.556,2.172,5.672,20.0
45.758,2.184,5.43,30.0
48.229,2.305,5.444,33.0
56.361,2.697,6.03,7.0
50.454,2.418,5.106,33.0
49.648,2.382,4.737,22.0
45.908,2.22,5.665,25.0
45.817,2.217,5.387,20.0
48.193,2.335,5.386,15.0
0.0,0.0,0.0,0.0
50.014,2.43,5.005,23.0
49.816,2.423,4.698,28.0
45.866,2.247,5.607,28.0
48.138,2.361,5.604,9.0
48.325,2.372,5.345,8.0
0.0,0.0,0.0,0.0
49.765,2.449,4.922,29.0
49.671,2.446,4.626,18.0
45.826,2.273,5.548,29.0
48.146,2.391,5.548,16.0
50.604,2.515,5.537,8.0
0.0,0.0,0.0,0.0
49.757,2.478,4.862,23.0
49.677,2.476,4.567,26.0
45.747,2.296,5.482,25.0
47.692,2.396,5.437,22.0
49.027,2.465,5.305,23.0
50.312,2.532,5.146,24.0
49.779,2.507,4.803,12.0
49.578,2.499,4.497,17.0
45.945,2.332,5.449,35.0
47.734,2.424,5.383,22.0
49.19,2.5,5.261,23.0
49.996,2.542,5.052,24.0
53.781,2.737,5.122,5.0
49.576,2.525,4.435,18.0
46.643,2.391,5.472,23.0
48.262,2.476,5.38,22.0
49.103,2.52,5.188,23.0
49.766,2.556,4.965,23.0
49.703,2.554,4.67,16.0
58.56,3.012,5.164,16.0
47.326,2.449,5.491,22.0
48.519,2.512,5.346,22.0
49.277,2.552,5.143,23.0
50.032,2.593,4.926,24.0
49.716,2.578,4.606,21.0
58.55,3.038,5.086,25.0
47.34,2.471,5.429,31.0
48.862,2.551,5.318,22.0
49.654,2.594,5.115,24.0
49.955,2.611,4.851,22.0
49.668,2.597,4.535,19.0
58.525,3.061,5.005,24.0
47.408,2.495,5.372,26.0
49.452,2.603,5.314,25.0
49.917,2.628,5.073,23.0
49.765,2.62,4.764,16.0
49.67,2.617,4.467,17.0
58.524,3.084,4.924,23.0
48.015,2.545,5.373,23.0
49.863,2.643,5.289,24.0
49.859,2.643,4.999,20.0
49.689,2.635,4.687,16.0
49.661,2.634,4.397,5.0
58.533,3.105,4.844,41.0
48.024,2.562,5.306,23.0
49.789,2.656,5.211,24.0
49.808,2.657,4.923,19.0
49.644,2.648,4.613,28.0
49.13,2.621,4.28,13.0
58.538,3.124,4.761,25.0
48.826,2.62,5.324,23.0
50.06,2.686,5.167,9.0
49.828,2.673,4.852,32.0
49.636,2.663,4.54,29.0
49.088,2.634,4.204,20.0
58.548,3.141,4.676,13.0
49.99,2.696,5.377,18.0
49.831,2.687,5.069,20.0
49.818,2.685,4.778,23.0
49.584,2.672,4.462,23.0
58.565,3.157,4.93,17.0
58.32,3.143,4.572,12.0
53.248,2.884,5.648,6.0
49.762,2.694,4.988,23.0
49.719,2.691,4.694,23.0
49.582,2.683,4.388,23.0
58.528,3.167,4.839,41.0
58.277,3.153,4.481,38.0
50.063,2.721,5.234,9.0
49.707,2.701,4.907,23.0
65.316,3.548,6.068,9.0
49.3,2.677,4.288,23.0
58.528,3.177,4.751,38.0
58.289,3.163,4.393,46.0
49.61,2.704,5.11,24.0
49.794,2.713,4.838,23.0
65.294,3.556,5.964,20.0
49.125,2.674,4.197,18.0
58.532,3.185,4.661,22.0
58.319,3.172,4.306,17.0
49.299,2.693,5.002,26.0
49.76,2.717,4.758,21.0
49.545,2.703,4.449,21.0
58.536,3.192,4.91,23.0
58.362,3.181,4.557,17.0
67.741,3.691,4.897,8.0
49.36,2.7,4.93,21.0
49.677,2.716,4.672,23.0
49.55,2.707,4.372,23.0
58.533,3.196,4.818,42.0
58.284,3.18,4.459,38.0
67.977,3.707,4.806,27.0
49.772,2.725,4.891,15.0
65.294,3.572,6.036,19.0
49.2,2.689,4.261,23.0
58.516,3.196,4.722,28.0
58.301,3.182,4.366,37.0
68.222,3.722,4.714,21.0
49.786,2.726,4.812,18.0
65.306,3.572,5.93,9.0
49.151,2.686,4.177,15.0
58.499,3.195,4.625,20.0
58.368,3.185,4.276,12.0
80.472,4.388,5.429,27.0
49.74,2.721,4.725,18.0
49.563,2.708,4.419,23.0
58.539,3.196,4.879,27.0
58.321,3.181,4.516,27.0
67.822,3.696,4.858,15.0
80.552,4.387,5.303,32.0
49.675,2.713,4.637,18.0
49.365,2.693,4.32,23.0
58.527,3.19,4.781,38.0
58.288,3.174,4.417,48.0
68.142,3.706,4.769,24.0
80.466,4.373,5.165,28.0
65.307,3.559,5.989,18.0
49.125,2.674,4.218,20.0
58.527,3.182,4.685,23.0
58.326,3.168,4.324,20.0
68.243,3.702,4.663,16.0
80.409,4.357,5.028,17.0
49.564,2.693,4.461,21.0
58.551,3.177,4.928,25.0
58.332,3.161,4.571,15.0
64.933,3.514,4.704,7.0
80.55,4.354,5.368,31.0
81.473,4.4,4.957,11.0
49.492,2.679,4.371,24.0
58.533,3.164,4.829,40.0
58.281,3.146,4.468,47.0
68.13,3.673,4.821,12.0
80.601,4.339,5.235,29.0
80.716,4.34,4.774,28.0
49.151,2.648,4.256,25.0
58.541,3.149,4.728,24.0
58.321,3.133,4.371,24.0
68.207,3.659,4.709,13.0
81.745,4.378,5.169,13.0
80.488,4.306,4.624,31.0
58.537,3.137,4.969,16.0
58.277,3.118,4.607,9.0
64.974,3.471,4.759,22.0
80.467,4.292,5.419,34.0
82.037,4.369,5.049,12.0
80.562,4.284,4.492,34.0
22.467,-2.591,0.484,12.0
22.168,-2.56,0.358,13.0
22.15,-2.561,0.24,17.0
22.18,-2.568,0.119,7.0
26.27,-3.046,0.001,3.0
22.577,-2.622,-0.119,9.0
22.333,-2.594,0.505,12.0
22.15,-2.576,0.382,14.0
22.129,-2.576,0.264,17.0
22.154,-2.583,0.143,17.0
26.229,-3.062,0.029,1.0
22.577,-2.64,-0.095,9.0
22.188,-2.594,0.526,10.0
22.138,-2.592,0.407,15.0
22.105,-2.591,0.288,18.0
22.125,-2.596,0.168,18.0
22.185,-2.607,0.049,14.0
22.448,-2.641,-0.069,11.0
22.146,-2.606,0.55,13.0
22.137,-2.607,0.431,17.0
22.111,-2.607,0.312,20.0
22.111,-2.61,0.192,18.0
22.166,-2.62,0.074,18.0
22.356,-2.646,-0.044,9.0
22.145,-2.621,0.575,16.0
22.126,-2.621,0.456,17.0
22.121,-2.624,0.338,20.0
22.102,-2.624,0.217,19.0
22.142,-2.632,0.099,19.0
22.206,-2.642,-0.018,16.0
22.147,-2.636,0.6,18.0
22.13,-2.636,0.481,16.0
22.12,-2.637,0.363,19.0
22.108,-2.639,0.242,17.0
22.137,-2.645,0.124,19.0
22.178,-2.652,0.006,19.0
22.104,-2.644,0.624,16.0
22.153,-2.652,0.507,13.0
22.118,-2.65,0.388,20.0
22.114,-2.652,0.268,15.0
22.146,-2.658,0.15,16.0
22.176,-2.664,0.031,21.0
21.988,-2.643,0.646,16.0
22.13,-2.662,0.532,16.0
22.125,-2.663,0.414,19.0
22.125,-2.665,0.293,13.0
22.199,-2.676,0.176,13.0
22.171,-2.675,0.057,19.0
21.974,-2.652,0.671,23.0
22.122,-2.672,0.557,17.0
22.129,-2.674,0.439,17.0
22.135,-2.677,0.319,13.0
22.465,-2.719,0.204,12.0
22.17,-2.685,0.083,15.0
21.994,-2.665,0.698,33.0
22.14,-2.684,0.584,18.0
22.132,-2.685,0.465,13.0
22.133,-2.687,0.345,13.0
22.513,-2.735,0.231,7.0
22.21,-2.7,0.109,7.0
21.999,-2.675,0.724,31.0
22.126,-2.692,0.61,18.0
22.159,-2.697,0.492,12.0
22.132,-2.695,0.371,13.0
22.435,-2.734,0.256,0.0
26.486,-3.23,0.161,4.0
22.0,-2.684,0.75,24.0
22.07,-2.693,0.634,12.0
22.156,-2.705,0.518,16.0
22.14,-2.704,0.397,13.0
32.407,-3.96,0.408,1.0
26.137,-3.195,0.19,2.0
22.006,-2.691,0.775,16.0
22.051,-2.698,0.659,10.0
22.139,-2.71,0.543,16.0
22.14,-2.711,0.423,12.0
33.57,-4.112,0.462,0.0
28.352,-3.474,0.239,0.0
22.027,-2.7,0.802,9.0
22.123,-2.713,0.687,11.0
22.145,-2.716,0.57,16.0
22.155,-2.718,0.449,12.0
22.089,-2.711,0.33,0.0
29.034,-3.565,0.278,0.0
22.041,-2.707,0.829,8.0
22.163,-2.723,0.715,14.0
22.155,-2.722,0.596,16.0
22.181,-2.726,0.476,5.0
22.224,-2.732,0.358,0.0
30.722,-3.778,0.331,0.0
22.061,-2.714,0.855,9.0
22.212,-2.733,0.742,19.0
22.153,-2.726,0.622,13.0
22.159,-2.727,0.501,3.0
22.178,-2.73,0.383,2.0
31.949,-3.934,0.382,0.0
0.0,0.0,0.0,0.0
0.0,0.0,0.0,0.0
0.0,0.0,0.0,0.0
0.0,0.0,0.0,0.0
0.0,0.0,0.0,0.0
0.0,0.0,0.0,0.0
0.0,0.0,0.0,0.0
0.0,0.0,0.0,0.0
0.0,0.0,0.0,0.0
0.0,0.0,0.0,0.0
0.0,0.0,0.0,0.0
7.493,0.049,-0.738,0.0
0.0,0.0,0.0,0.0
0.0,0.0,0.0,0.0
0.0,0.0,0.0,0.0
0.0,0.0,0.0,0.0
7.676,0.046,-0.723,0.0
7.388,0.043,-0.74,0.0
0.0,0.0,0.0,0.0
0.0,0.0,0.0,0.0
8.322,0.045,-0.7,0.0
0.0,0.0,0.0,0.0
7.618,0.04,-0.73,0.0
7.322,0.038,-0.745,0.0
0.0,0.0,0.0,0.0
0.0,0.0,0.0,0.0
8.266,0.04,-0.708,0.0
0.0,0.0,0.0,0.0
0.0,0.0,0.0,0.0
7.243,0.033,-0.748,0.0
0.0,0.0,0.0,0.0
0.0,0.0,0.0,0.0
0.0,0.0,0.0,0.0
0.0,0.0,0.0,0.0
0.0,0.0,0.0,0.0
7.138,0.027,-0.749,0.0
0.0,0.0,0.0,0.0
0.0,0.0,0.0,0.0
0.0,0.0,0.0,0.0
7.68,0.025,-0.728,0.0
7.391,0.023,-0.743,0.0
7.06,0.021,-0.752,0.0
0.0,0.0,0.0,0.0
8.291,0.022,-0.701,0.0
0.0,0.0,0.0,0.0
0.0,0.0,0.0,0.0
7.312,0.017,-0.747,0.0
7.007,0.016,-0.756,0.0
0.0,0.0,0.0,0.0
0.0,0.0,0.0,0.0
0.0,0.0,0.0,0.0
0.0,0.0,0.0,0.0
7.196,0.011,-0.745,0.0
6.94,0.01,-0.759,0.0
8.5,0.01,-0.694,0.0
8.16,0.009,-0.713,0.0
7.736,0.007,-0.721,0.0
0.0,0.0,0.0,0.0
7.138,0.005,-0.75,0.0
6.92,0.004,-0.767,0.0
8.43,0.003,-0.7,0.0
7.991,0.002,-0.71,0.0
7.699,0.001,-0.729,0.0
7.327,0.0,-0.737,0.0
7.08,0.0,-0.753,0.0
0.0,0.0,0.0,0.0
8.264,-0.003,-0.697,0.0
0.0,0.0,0.0,0.0
0.0,0.0,0.0,0.0
7.299,-0.005,-0.744,0.0
7.003,-0.006,-0.755,0.0
0.0,0.0,0.0,0.0
8.182,-0.01,-0.702,0.0
0.0,0.0,0.0,0.0
0.0,0.0,0.0,0.0
7.193,-0.012,-0.743,0.0
6.963,-0.012,-0.76,0.0
0.0,0.0,0.0,0.0
8.101,-0.018,-0.705,0.0
7.801,-0.018,-0.724,0.0
0.0,0.0,0.0,0.0
7.157,-0.018,-0.749,0.0
0.0,0.0,0.0,0.0
0.0,0.0,0.0,0.0
8.075,-0.025,-0.713,0.0
0.0,0.0,0.0,0.0
7.355,-0.025,-0.735,0.0
7.105,-0.025,-0.752,0.0
0.0,0.0,0.0,0.0
0.0,0.0,0.0,0.0
0.0,0.0,0.0,0.0
0.0,0.0,0.0,0.0
7.337,-0.032,-0.742,0.0
7.032,-0.032,-0.753,0.0
0.0,0.0,0.0,0.0
0.0,0.0,0.0,0.0
14.934,-0.783,-0.416,0.0
13.994,-0.731,-0.463,0.0
13.056,-0.68,-0.5,0.0
12.307,-0.638,-0.537,0.0
11.586,-0.599,-0.566,0.0
11.028,-0.568,-0.596,0.0
15.498,-0.796,-0.407,0.0
14.288,-0.731,-0.45,0.0
13.347,-0.68,-0.49,0.0
12.514,-0.635,-0.526,0.0
11.863,-0.6,-0.56,0.0
11.19,-0.564,-0.587,0.0
15.827,-0.794,-0.39,0.0
14.58,-0.729,-0.436,0.0
13.585,-0.677,-0.477,0.0
12.79,-0.634,-0.517,0.0
11.985,-0.592,-0.547,0.0
11.363,-0.559,-0.578,0.0
16.238,-0.796,-0.375,0.0
14.982,-0.731,-0.424,0.0
13.86,-0.674,-0.465,0.0
13.024,-0.63,-0.506,0.0
12.265,-0.591,-0.541,0.0
11.578,-0.556,-0.571,0.0
16.62,-0.795,-0.358,0.0
15.396,-0.733,-0.412,0.0
14.172,-0.672,-0.453,0.0
13.266,-0.626,-0.495,0.0
12.459,-0.585,-0.53,0.0
11.802,-0.552,-0.564,0.0
17.107,-0.797,-0.342,0.0
15.769,-0.731,-0.398,0.0
14.493,-0.669,-0.441,0.0
13.525,-0.621,-0.484,0.0
12.687,-0.58,-0.52,0.0
11.933,-0.543,-0.552,0.0
17.511,-0.793,-0.323,0.0
16.077,-0.725,-0.381,0.0
14.821,-0.665,-0.429,0.0
13.763,-0.614,-0.471,0.0
12.962,-0.575,-0.512,0.0
12.241,-0.541,-0.547,0.0
18.059,-0.795,-0.306,0.0
16.511,-0.723,-0.366,0.0
15.155,-0.66,-0.415,0.0
14.027,-0.607,-0.459,0.0
13.095,-0.564,-0.497,0.0
12.391,-0.531,-0.536,0.0
18.709,-0.798,-0.289,0.0
16.872,-0.716,-0.349,0.0
15.635,-0.659,-0.405,0.0
14.375,-0.603,-0.449,0.0
13.463,-0.561,-0.491,0.0
12.555,-0.52,-0.524,0.0
19.305,-0.797,-0.27,0.0
17.319,-0.71,-0.333,0.0
15.968,-0.651,-0.39,0.0
14.681,-0.595,-0.437,0.0
13.671,-0.551,-0.479,0.0
12.842,-0.514,-0.517,0.0
20.197,-0.805,-0.253,0.0
17.854,-0.707,-0.317,0.0
16.334,-0.642,-0.375,0.0
14.969,-0.585,-0.424,0.0
13.934,-0.541,-0.468,0.0
13.005,-0.502,-0.505,0.0
20.968,-0.805,-0.232,2.0
18.281,-0.697,-0.298,0.0
16.641,-0.63,-0.359,0.0
15.38,-0.578,-0.414,0.0
14.221,-0.531,-0.457,0.0
13.315,-0.494,-0.498,0.0
21.242,-0.784,-0.205,1.0
19.037,-0.697,-0.283,0.0
17.031,-0.62,-0.343,0.0
15.702,-0.567,-0.4,0.0
14.475,-0.519,-0.445,0.0
13.544,-0.482,-0.488,0.0
22.47,-0.795,-0.185,1.0
19.483,-0.684,-0.263,0.0
17.5,-0.61,-0.328,0.0
16.026,-0.554,-0.386,0.0
14.815,-0.508,-0.435,0.0
13.746,-0.468,-0.476,0.0
23.226,-0.786,-0.16,0.0
20.819,-0.699,-0.253,0.0
18.017,-0.6,-0.314,0.0
16.373,-0.541,-0.373,0.0
15.002,-0.491,-0.42,0.0
14.005,-0.455,-0.466,0.0
23.815,-0.769,-0.132,0.0
21.021,-0.672,-0.227,2.0
18.383,-0.583,-0.295,0.0
16.695,-0.525,-0.358,0.0
15.526,-0.484,-0.415,0.0
14.307,-0.442,-0.457,0.0
11.029,1.105,-0.601,0.0
10.483,1.049,-0.63,0.0
9.887,0.988,-0.651,0.0
9.413,0.94,-0.674,0.0
0.0,0.0,0.0,0.0
8.494,0.846,-0.705,0.0
10.964,1.086,-0.603,0.0
10.394,1.028,-0.63,0.0
9.88,0.976,-0.655,0.0
9.354,0.923,-0.674,0.0
0.0,0.0,0.0,0.0
8.549,0.841,-0.713,0.0
10.953,1.072,-0.607,0.0
10.363,1.013,-0.633,0.0
9.747,0.951,-0.651,0.0
9.276,0.904,-0.673,0.0
8.849,0.861,-0.692,0.0
8.481,0.824,-0.711,0.0
10.885,1.052,-0.608,0.0
10.38,1.002,-0.639,0.0
9.724,0.937,-0.653,0.0
9.298,0.894,-0.678,0.0
8.773,0.843,-0.69,0.0
8.441,0.81,-0.712,0.0
10.847,1.035,-0.61,0.0
10.222,0.973,-0.633,0.0
9.769,0.929,-0.66,0.0
9.225,0.876,-0.676,0.0
8.827,0.837,-0.697,0.0
8.435,0.798,-0.714,0.0
10.82,1.018,-0.613,0.0
10.278,0.966,-0.64,0.0
9.702,0.91,-0.659,0.0
9.204,0.862,-0.678,0.0
8.777,0.82,-0.696,0.0
8.393,0.783,-0.713,0.0
10.762,0.999,-0.613,0.0
10.255,0.95,-0.642,0.0
9.64,0.891,-0.658,0.0
9.18,0.847,-0.679,0.0
8.758,0.807,-0.697,0.0
8.394,0.772,-0.716,0.0
10.758,0.984,-0.616,0.0
10.172,0.929,-0.639,0.0
9.671,0.881,-0.662,0.0
0.0,0.0,0.0,0.0
8.731,0.793,-0.697,0.0
8.362,0.758,-0.715,0.0
10.723,0.966,-0.616,0.0
10.121,0.91,-0.638,0.0
9.616,0.863,-0.661,0.0
0.0,0.0,0.0,0.0
8.748,0.782,-0.701,0.0
8.337,0.744,-0.715,0.0
10.693,0.949,-0.617,0.0
10.185,0.902,-0.644,0.0
9.638,0.852,-0.664,0.0
9.165,0.808,-0.684,0.0
8.691,0.765,-0.698,0.0
8.384,0.737,-0.72,0.0
10.673,0.932,-0.617,0.0
10.088,0.879,-0.64,0.0
9.58,0.833,-0.662,0.0
9.103,0.79,-0.681,0.0
8.702,0.754,-0.7,0.0
8.304,0.718,-0.715,0.0
10.625,0.913,-0.616,0.0
10.054,0.862,-0.639,0.0
9.604,0.822,-0.664,0.0
9.117,0.778,-0.683,0.0
8.695,0.741,-0.7,0.0
8.309,0.706,-0.716,0.0
10.623,0.898,-0.616,0.0
10.147,0.855,-0.646,0.0
9.542,0.803,-0.661,0.0
9.08,0.762,-0.681,0.0
8.647,0.724,-0.697,0.0
8.307,0.694,-0.716,0.0
10.649,0.884,-0.619,0.0
10.086,0.835,-0.642,0.0
9.549,0.789,-0.661,0.0
9.078,0.748,-0.681,0.0
8.703,0.716,-0.701,0.0
8.37,0.687,-0.721,0.0
10.614,0.866,-0.617,0.0
10.089,0.821,-0.642,0.0
9.548,0.775,-0.661,0.0
9.118,0.738,-0.683,0.0
8.657,0.699,-0.697,0.0
8.35,0.673,-0.719,0.0
10.613,0.85,-0.616,0.0
10.115,0.808,-0.643,0.0
9.584,0.764,-0.663,0.0
9.032,0.718,-0.676,0.0
8.652,0.686,-0.696,0.0
8.314,0.657,-0.716,0.0
44.526,2.388,5.738,41.0
43.466,2.338,5.353,31.0
45.763,2.468,5.375,16.0
47.795,2.585,5.337,22.0
0.0,0.0,0.0,0.0
49.541,2.694,4.97,23.0
44.506,2.438,5.724,35.0
43.628,2.396,5.362,18.0
47.352,2.607,5.55,16.0
47.996,2.649,5.347,23.0
44.564,2.466,4.711,16.0
49.234,2.732,4.926,23.0
44.268,2.474,5.681,3.0
43.568,2.441,5.342,27.0
47.154,2.649,5.512,21.0
47.516,2.676,5.279,5.0
44.545,2.515,4.695,22.0
57.614,3.261,5.746,9.0
45.839,2.613,5.867,4.0
43.588,2.49,5.33,24.0
46.872,2.684,5.463,21.0
45.226,2.596,5.009,20.0
44.583,2.565,4.683,27.0
0.0,0.0,0.0,0.0
43.182,2.509,5.511,18.0
43.513,2.533,5.304,25.0
45.748,2.669,5.314,20.0
44.821,2.621,4.946,26.0
48.246,2.827,5.049,19.0
56.655,3.328,5.607,21.0
42.519,2.515,5.409,18.0
43.153,2.558,5.242,18.0
45.508,2.703,5.267,20.0
44.907,2.673,4.936,20.0
48.426,2.889,5.046,22.0
56.786,3.395,5.594,17.0
42.666,2.569,5.408,18.0
42.399,2.558,5.13,36.0
45.355,2.741,5.228,20.0
44.763,2.711,4.899,9.0
49.177,2.985,5.101,29.0
56.84,3.456,5.573,11.0
42.739,2.617,5.396,9.0
42.383,2.6,5.107,25.0
44.981,2.764,5.162,18.0
34.112,2.1,3.715,26.0
49.284,3.04,5.087,30.0
51.917,3.209,5.062,23.0
33.043,2.056,4.153,22.0
42.369,2.642,5.082,17.0
44.888,2.803,5.126,11.0
34.133,2.135,3.699,27.0
51.682,3.239,5.305,6.0
51.817,3.253,5.023,17.0
42.973,2.716,5.376,16.0
42.362,2.682,5.056,14.0
34.497,2.187,3.919,25.0
34.208,2.173,3.686,27.0
51.721,3.291,5.278,9.0
54.947,3.502,5.293,12.0
42.765,2.744,5.324,18.0
42.303,2.718,5.023,5.0
34.562,2.224,3.904,27.0
34.251,2.207,3.669,32.0
51.764,3.342,5.249,5.0
54.937,3.553,5.257,20.0
43.177,2.81,5.347,20.0
34.433,2.244,4.065,22.0
34.383,2.244,3.861,26.0
34.136,2.231,3.634,19.0
60.031,3.931,6.046,8.0
54.949,3.604,5.22,19.0
42.46,2.802,5.228,22.0
34.432,2.275,4.04,13.0
34.325,2.271,3.83,28.0
34.109,2.26,3.606,10.0
60.122,3.99,6.012,7.0
62.921,4.181,5.932,9.0
42.681,2.855,5.223,13.0
34.61,2.317,4.036,21.0
34.261,2.297,3.797,26.0
54.452,3.655,5.716,12.0
48.167,3.238,4.78,18.0
62.867,4.231,5.879,14.0
42.359,2.869,5.151,3.0
34.563,2.343,4.003,25.0
34.202,2.321,3.764,32.0
54.456,3.701,5.674,20.0
48.139,3.276,4.739,17.0
62.765,4.277,5.819,9.0
34.481,2.363,4.165,32.0
34.561,2.372,3.974,28.0
34.172,2.347,3.732,31.0
34.371,2.364,3.552,5.0
48.11,3.312,4.696,25.0
60.898,4.198,5.595,5.0
58.703,3.672,3.145,20.0
58.656,3.658,2.805,4.0
0.0,0.0,0.0,0.0
47.577,2.949,1.724,4.0
47.187,2.916,1.438,47.0
47.221,2.909,1.168,157.0
58.657,3.601,3.055,57.0
0.0,0.0,0.0,0.0
0.0,0.0,0.0,0.0
47.417,2.883,1.647,9.0
47.187,2.86,1.369,46.0
47.324,2.86,1.101,1.0
58.659,3.532,2.969,62.0
0.0,0.0,0.0,0.0
48.257,2.886,1.888,0.0
47.29,2.819,1.574,13.0
47.224,2.805,1.301,31.0
47.249,2.798,1.031,6.0
58.7,3.462,2.885,15.0
0.0,0.0,0.0,0.0
47.823,2.801,1.801,2.0
47.212,2.756,1.503,21.0
47.242,2.748,1.233,15.0
47.227,2.738,0.962,4.0
0.0,0.0,0.0,0.0
0.0,0.0,0.0,0.0
47.573,2.725,1.723,4.0
47.214,2.695,1.435,18.0
47.284,2.69,1.167,3.0
47.338,2.683,0.897,0.0
0.0,0.0,0.0,0.0
0.0,0.0,0.0,0.0
47.406,2.653,1.65,6.0
47.24,2.635,1.369,24.0
47.294,2.628,1.1,1.0
48.665,2.693,0.854,4.0
0.0,0.0,0.0,0.0
48.078,2.637,1.882,1.0
47.429,2.592,1.585,9.0
47.264,2.573,1.305,31.0
47.242,2.561,1.033,4.0
48.941,2.642,0.791,3.0
0.0,0.0,0.0,0.0
47.863,2.56,1.807,2.0
47.298,2.519,1.515,11.0
47.293,2.508,1.239,31.0
47.325,2.499,0.97,2.0
42.767,2.249,0.632,0.0
0.0,0.0,0.0,0.0
47.541,2.474,1.729,9.0
47.332,2.453,1.451,14.0
47.298,2.44,1.175,21.0
47.376,2.434,0.906,0.0
0.0,0.0,0.0,0.0
0.0,0.0,0.0,0.0
47.6,2.409,1.667,173.0
47.395,2.388,1.389,16.0
47.325,2.373,1.112,14.0
49.966,2.493,0.888,2.0
0.0,0.0,0.0,0.0
48.208,2.38,1.9,1.0
47.631,2.34,1.605,37.0
47.421,2.318,1.327,8.0
47.363,2.304,1.05,3.0
50.336,2.437,0.828,1.0
35.306,1.701,0.38,0.0
47.839,2.289,1.822,3.0
47.442,2.258,1.536,15.0
47.465,2.248,1.266,5.0
47.564,2.241,0.992,0.0
0.0,0.0,0.0,0.0
33.603,1.567,0.318,0.0
47.739,2.21,1.756,5.0
47.503,2.187,1.476,13.0
47.475,2.174,1.205,12.0
47.743,2.174,0.934,0.0
0.0,0.0,0.0,0.0
32.422,1.46,0.265,1.0
47.786,2.137,1.697,5.0
47.73,2.122,1.423,1.0
0.0,0.0,0.0,0.0
47.735,2.098,0.874,0.0
36.804,1.608,0.464,0.0
31.319,1.361,0.217,0.0
48.094,2.073,1.648,3.0
48.292,2.069,1.38,2.0
48.29,2.056,1.104,0.0
0.0,0.0,0.0,0.0
36.249,1.525,0.413,0.0
30.91,1.293,0.176,0.0
48.535,2.013,1.604,3.0
48.562,2.001,1.328,2.0
49.047,2.008,1.062,0.0
0.0,0.0,0.0,0.0
33.729,1.363,0.343,0.0
28.962,1.163,0.13,1.0
48.971,1.949,1.56,2.0
49.021,1.937,1.282,2.0
0.0,0.0,0.0,0.0
0.0,0.0,0.0,0.0
33.205,1.285,0.299,1.0
28.8,1.107,0.095,1.0
49.536,1.886,1.519,2.0
49.631,1.876,1.24,1.0
50.699,1.902,0.978,2.0
37.783,1.408,0.51,0.0
32.095,1.187,0.251,0.0
27.979,1.027,0.06,0.0
50.127,1.822,1.48,2.0
0.0,0.0,0.0,0.0
47.552,1.702,0.863,0.0
36.229,1.286,0.448,0.0
31.054,1.094,0.208,0.0
27.231,0.952,0.028,0.0
50.624,1.751,1.438,0.0
50.57,1.736,1.149,0.0
0.0,0.0,0.0,0.0
34.921,1.178,0.394,0.0
28.936,0.968,0.162,0.0
26.682,0.886,-0.001,1.0
54.077,1.776,1.478,120.0
50.952,1.658,1.103,0.0
42.649,1.375,0.681,0.0
34.669,1.108,0.354,0.0
28.964,0.918,0.132,6.0
26.236,0.824,-0.029,0.0
54.237,1.682,1.424,11.0
55.423,1.703,1.142,7.0
0.0,0.0,0.0,0.0
33.453,1.009,0.307,1.0
28.87,0.862,0.101,4.0
25.524,0.754,-0.054,0.0
54.1,1.579,1.365,4.0
56.125,1.622,1.098,2.0
37.616,1.075,0.523,0.0
32.268,0.913,0.262,0.0
28.622,0.801,0.071,1.0
25.104,0.695,-0.079,0.0
54.475,1.489,1.32,1.0
0.0,0.0,0.0,0.0
36.314,0.971,0.469,0.0
31.446,0.832,0.225,0.0
27.46,0.718,0.041,0.0
24.25,0.627,-0.1,0.0
54.62,1.391,1.271,0.0
47.558,1.197,0.838,0.0
35.959,0.894,0.43,0.0
29.008,0.712,0.18,0.0
26.963,0.653,0.015,0.0
23.871,0.571,-0.121,0.0
57.875,1.364,1.292,6.0
0.0,0.0,0.0,0.0
34.989,0.803,0.386,0.0
28.936,0.655,0.153,0.0
26.446,0.591,-0.009,0.0
23.558,0.519,-0.141,0.0
54.771,1.186,1.173,0.0
0.0,0.0,0.0,0.0
33.933,0.713,0.344,0.0
28.85,0.598,0.127,1.0
26.023,0.531,-0.032,0.0
23.105,0.464,-0.158,0.0
0.0,0.0,0.0,0.0
0.0,0.0,0.0,0.0
33.419,0.638,0.31,0.0
28.713,0.539,0.101,1.0
25.637,0.473,-0.053,0.0
22.519,0.408,-0.174,0.0
0.0,0.0,0.0,0.0
38.04,0.663,0.535,0.0
32.368,0.554,0.273,0.0
28.513,0.479,0.077,0.0
25.192,0.415,-0.073,0.0
22.177,0.358,-0.189,0.0
0.0,0.0,0.0,0.0
37.441,0.578,0.496,0.0
31.595,0.478,0.241,0.0
27.87,0.412,0.053,0.0
24.765,0.358,-0.091,0.0
21.76,0.308,-0.203,0.0
0.0,0.0,0.0,0.0
36.481,0.491,0.455,0.0
31.191,0.409,0.214,0.0
27.413,0.35,0.031,0.0
24.368,0.304,-0.108,0.0
21.614,0.262,-0.217,1.0
0.0,0.0,0.0,0.0
0.0,0.0,0.0,0.0
28.938,0.321,0.177,1.0
26.958,0.29,0.011,0.0
23.803,0.248,-0.123,0.0
20.953,0.211,-0.226,0.0
87.158,-4.342,7.8,11.0
89.491,-4.434,7.493,14.0
89.268,-4.398,6.961,22.0
89.478,-4.383,6.455,13.0
92.117,-4.488,6.118,8.0
92.31,-4.473,5.602,21.0
87.201,-4.213,7.728,19.0
89.397,-4.294,7.407,10.0
88.271,-4.216,6.807,25.0
89.303,-4.241,6.364,32.0
91.505,-4.322,5.996,19.0
98.497,-4.626,5.891,10.0
87.215,-4.083,7.651,25.0
89.168,-4.15,7.308,12.0
88.296,-4.086,6.729,16.0
89.126,-4.1,6.27,24.0
91.031,-4.164,5.881,9.0
94.902,-4.316,5.587,14.0
79.986,-3.625,6.942,12.0
91.964,-4.143,7.45,8.0
89.301,-3.999,6.72,9.0
91.129,-4.057,6.323,17.0
91.087,-4.031,5.797,11.0
98.426,-4.331,5.7,18.0
92.316,-4.045,7.92,12.0
88.254,-3.844,7.063,16.0
89.067,-3.856,6.613,11.0
91.329,-3.93,6.246,12.0
91.366,-3.908,5.723,12.0
90.264,-3.838,5.136,15.0
88.689,-3.755,7.518,9.0
88.093,-3.706,6.958,30.0
88.911,-3.718,6.509,22.0
91.284,-3.793,6.148,6.0
90.4,-3.733,5.568,20.0
90.383,-3.711,5.047,22.0
79.921,-3.266,6.688,14.0
87.853,-3.568,6.845,23.0
88.294,-3.563,6.369,21.0
89.573,-3.592,5.935,22.0
98.624,-3.929,5.966,11.0
113.744,-4.504,6.228,12.0
88.127,-3.473,7.278,13.0
87.841,-3.439,6.745,16.0
88.524,-3.444,6.287,7.0
89.668,-3.467,5.842,16.0
