X,Y,Z,Reflectivity
27.452,0.227,0.024,0.0
24.565,0.196,-0.107,0.0
21.723,0.168,-0.212,2.0
18.934,0.141,-0.284,0.0
17.001,0.122,-0.345,0.0
0.0,0.0,0.0,0.0
28.473,0.189,0.064,1.0
25.347,0.161,-0.076,0.0
22.359,0.136,-0.187,1.0
19.554,0.114,-0.267,0.0
17.384,0.096,-0.329,0.0
33.094,0.175,0.295,0.0
28.741,0.144,0.105,1.0
26.04,0.123,-0.041,0.0
23.176,0.103,-0.161,1.0
20.316,0.085,-0.248,0.0
17.932,0.07,-0.313,0.0
0.0,0.0,0.0,0.0
28.807,0.098,0.147,0.0
26.887,0.084,-0.004,0.0
23.936,0.069,-0.132,1.0
21.153,0.055,-0.227,4.0
18.479,0.043,-0.296,0.0
0.0,0.0,0.0,0.0
31.109,0.056,0.204,0.0
27.877,0.043,0.036,0.0
24.807,0.032,-0.1,0.0
21.641,0.022,-0.201,1.0
19.122,0.014,-0.278,0.0
37.808,0.019,0.503,0.0
32.934,0.008,0.265,0.0
28.639,0.0,0.08,1.0
25.701,-0.006,-0.065,0.0
22.919,-0.011,-0.178,0.0
19.794,-0.014,-0.258,0.0
40.02,-0.04,0.592,0.0
33.237,-0.041,0.317,0.0
28.824,-0.043,0.124,5.0
26.343,-0.046,-0.027,0.0
23.653,-0.047,-0.148,0.0
20.671,-0.046,-0.237,0.0
42.254,-0.106,0.69,0.0
35.122,-0.096,0.389,0.0
30.958,-0.093,0.181,0.0
27.448,-0.089,0.014,0.0
24.438,-0.085,-0.115,0.0
21.736,-0.081,-0.216,1.0
0.0,0.0,0.0,0.0
0.0,0.0,0.0,0.0
31.67,-0.141,0.235,1.0
28.606,-0.135,0.06,4.0
25.303,-0.125,-0.079,0.0
22.4,-0.116,-0.187,0.0
0.0,0.0,0.0,0.0
0.0,0.0,0.0,0.0
33.064,-0.195,0.298,1.0
28.785,-0.177,0.106,6.0
26.292,-0.168,-0.04,0.0
23.327,-0.154,-0.157,0.0
0.0,0.0,0.0,0.0
0.0,0.0,0.0,0.0
0.0,0.0,0.0,0.0
28.885,-0.218,0.153,1.0
27.35,-0.213,0.002,0.0
24.167,-0.194,-0.123,0.0
0.0,0.0,0.0,0.0
0.0,0.0,0.0,0.0
0.0,0.0,0.0,0.0
31.656,-0.283,0.22,1.0
28.362,-0.26,0.05,1.0
25.144,-0.236,-0.086,0.0
0.0,0.0,0.0,0.0
0.0,0.0,0.0,0.0
0.0,0.0,0.0,0.0
32.779,-0.337,0.283,1.0
28.712,-0.301,0.098,1.0
26.241,-0.281,-0.046,0.0
0.0,0.0,0.0,0.0
0.0,0.0,0.0,0.0
0.0,0.0,0.0,0.0
33.937,-0.393,0.35,0.0
30.601,-0.361,0.156,0.0
27.216,-0.327,-0.002,0.0
85.29,-1.045,2.367,1.0
0.0,0.0,0.0,0.0
0.0,0.0,0.0,0.0
0.0,0.0,0.0,0.0
31.711,-0.415,0.216,0.0
28.371,-0.377,0.045,1.0
86.294,-1.165,2.542,1.0
64.033,-0.878,1.552,0.0
47.497,-0.661,0.904,0.0
38.199,-0.539,0.525,0.0
32.874,-0.471,0.28,1.0
28.712,-0.417,0.096,1.0
89.857,-1.325,2.803,2.0
0.0,0.0,0.0,0.0
0.0,0.0,0.0,0.0
0.0,0.0,0.0,0.0
34.166,-0.531,0.352,1.0
30.589,-0.481,0.156,0.0
96.994,-1.547,3.197,13.0
87.707,-1.416,2.434,1.0
0.0,0.0,0.0,0.0
0.0,0.0,0.0,0.0
0.0,0.0,0.0,0.0
31.458,-0.532,0.216,0.0
97.046,-1.661,3.37,18.0
89.482,-1.548,2.642,4.0
0.0,0.0,0.0,0.0
48.596,-0.858,0.924,0.0
0.0,0.0,0.0,0.0
33.435,-0.603,0.289,2.0
96.988,-1.769,3.54,32.0
96.725,-1.782,3.028,5.0
0.0,0.0,0.0,0.0
0.0,0.0,0.0,0.0
41.609,-0.788,0.65,0.0
34.23,-0.655,0.357,1.0
96.934,-1.874,3.712,45.0
96.983,-1.892,3.21,18.0
0.0,0.0,0.0,0.0
0.0,0.0,0.0,0.0
43.288,-0.867,0.755,0.0
0.0,0.0,0.0,0.0
96.916,-1.977,3.889,47.0
96.917,-1.994,3.385,4.0
91.254,-1.893,2.714,2.0
0.0,0.0,0.0,0.0
0.0,0.0,0.0,0.0
0.0,0.0,0.0,0.0
96.878,-2.076,4.065,35.0
128.453,-2.773,4.722,19.0
96.81,-2.106,3.057,5.0
0.0,0.0,0.0,0.0
0.0,0.0,0.0,0.0
42.978,-0.955,0.685,0.0
96.9,-2.173,4.244,19.0
128.393,-2.899,4.958,36.0
97.06,-2.206,3.245,1.0
0.0,0.0,0.0,0.0
0.0,0.0,0.0,0.0
0.0,0.0,0.0,0.0
96.925,-2.266,4.425,5.0
171.619,-4.038,6.946,14.0
128.314,-3.038,4.529,15.0
93.543,-2.227,2.806,1.0
0.0,0.0,0.0,0.0
0.0,0.0,0.0,0.0
171.7,-4.17,8.158,32.0
171.615,-4.193,7.265,35.0
166.052,-4.08,6.168,92.0
96.854,-2.392,3.086,5.0
0.0,0.0,0.0,0.0
0.0,0.0,0.0,0.0
171.738,-4.323,8.481,28.0
171.643,-4.342,7.586,16.0
0.0,0.0,0.0,0.0
92.454,-2.363,3.119,151.0
0.0,0.0,0.0,0.0
0.0,0.0,0.0,0.0
99.279,-2.582,5.089,7.0
189.739,-4.957,8.739,9.0
170.583,-4.477,6.972,7.0
92.411,-2.437,3.289,185.0
93.055,-2.465,2.83,1.0
0.0,0.0,0.0,0.0
99.238,-2.66,5.274,6.0
189.622,-5.106,9.093,23.0
190.115,-5.14,8.132,19.0
92.403,-2.509,3.464,11.0
92.381,-2.519,2.985,6.0
0.0,0.0,0.0,0.0
97.006,-2.674,5.337,27.0
189.729,-5.249,9.453,22.0
190.075,-5.28,8.484,16.0
92.403,-2.576,3.636,12.0
92.322,-2.584,3.155,175.0
93.177,-2.618,2.702,1.0
97.103,-2.747,5.525,19.0
97.323,-2.762,5.033,11.0
189.699,-5.403,8.826,19.0
92.893,-2.655,3.832,1.0
92.296,-2.648,3.33,151.0
92.764,-2.671,2.868,2.0
80.247,-2.771,7.135,15.0
80.399,-2.774,6.727,11.0
80.89,-2.788,6.345,9.0
87.909,-3.027,6.426,20.0
95.879,-3.298,6.506,10.0
98.293,-3.377,6.157,15.0
66.614,-2.301,6.043,17.0
80.311,-2.771,6.864,27.0
80.847,-2.785,6.484,24.0
87.952,-3.027,6.585,15.0
87.694,-3.014,6.107,21.0
94.439,-3.242,6.084,9.0
66.616,-2.299,6.162,14.0
80.317,-2.768,7.007,17.0
80.878,-2.783,6.631,5.0
85.84,-2.95,6.579,10.0
87.86,-3.015,6.274,27.0
88.137,-3.02,5.833,9.0
64.914,-2.235,6.12,14.0
80.241,-2.759,7.143,12.0
80.399,-2.76,6.734,10.0
85.829,-2.941,6.73,10.0
87.964,-3.009,6.436,21.0
87.817,-3.0,5.965,11.0
64.947,-2.23,6.238,23.0
66.604,-2.282,6.045,15.0
80.338,-2.748,6.869,20.0
80.867,-2.761,6.481,24.0
87.989,-2.999,6.59,24.0
87.715,-2.984,6.108,22.0
65.094,-2.225,6.364,17.0
66.625,-2.273,6.161,20.0
80.292,-2.733,7.002,22.0
80.845,-2.747,6.616,12.0
87.802,-2.977,6.723,7.0
87.877,-2.973,6.268,28.0
65.024,-2.211,6.467,30.0
64.786,-2.198,6.101,11.0
80.277,-2.717,7.136,12.0
87.014,-2.939,7.267,8.0
85.844,-2.893,6.718,18.0
87.98,-2.957,6.423,23.0
64.884,-2.192,6.563,38.0
64.848,-2.185,6.217,29.0
67.29,-2.262,6.094,19.0
86.965,-2.916,7.409,9.0
80.906,-2.706,6.466,15.0
87.919,-2.934,6.564,20.0
64.678,-2.168,6.651,38.0
64.973,-2.172,6.337,34.0
66.584,-2.22,6.141,22.0
80.354,-2.672,6.978,19.0
80.714,-2.676,6.583,23.0
87.823,-2.904,6.7,15.0
64.784,-2.153,6.768,31.0
65.026,-2.154,6.448,29.0
64.809,-2.141,6.082,16.0
67.637,-2.228,5.983,9.0
80.577,-2.646,6.702,20.0
83.344,-2.729,6.492,8.0
64.751,-2.131,6.869,29.0
64.964,-2.131,6.546,35.0
64.847,-2.12,6.19,33.0
67.486,-2.199,6.077,39.0
80.675,-2.621,6.838,19.0
83.331,-2.698,6.622,10.0
64.824,-2.109,6.98,31.0
64.941,-2.106,6.646,40.0
64.935,-2.098,6.3,27.0
66.63,-2.146,6.104,16.0
80.685,-2.59,6.964,8.0
80.756,-2.583,6.543,13.0
64.907,-2.086,7.091,23.0
65.134,-2.085,6.768,40.0
64.953,-2.072,6.403,28.0
64.879,-2.062,6.044,16.0
65.91,-2.088,5.789,5.0
80.713,-2.548,6.662,27.0
65.073,-2.063,7.208,17.0
64.975,-2.053,6.85,33.0
64.996,-2.045,6.506,25.0
64.883,-2.034,6.141,34.0
67.634,-2.112,6.043,8.0
80.625,-2.508,6.776,25.0
65.39,-2.042,7.343,14.0
64.942,-2.02,6.945,31.0
64.845,-2.009,6.588,34.0
64.914,-2.003,6.242,31.0
66.158,-2.033,6.01,26.0
77.377,-2.367,6.617,11.0
65.301,-2.007,7.431,15.0
64.922,-1.986,7.04,36.0
64.792,-1.974,6.679,40.0
64.781,-1.965,6.324,39.0
66.721,-2.015,6.157,9.0
66.449,-1.998,5.778,42.0
51.387,-0.031,7.282,26.0
51.306,-0.021,6.979,25.0
58.931,-0.013,7.683,7.0
57.89,-0.001,7.214,32.0
57.417,0.01,6.832,25.0
56.574,0.02,6.414,22.0
51.384,0.027,7.287,25.0
51.248,0.036,6.976,25.0
0.0,0.0,0.0,0.0
48.857,0.053,6.092,18.0
57.404,0.073,6.834,25.0
56.582,0.084,6.418,21.0
51.64,0.086,7.326,26.0
51.398,0.095,6.999,25.0
62.971,0.128,8.218,17.0
58.238,0.13,7.264,8.0
57.428,0.138,6.839,28.0
56.63,0.147,6.424,23.0
51.679,0.145,7.332,26.0
48.142,0.144,6.556,19.0
62.994,0.2,8.22,10.0
48.945,0.165,6.104,23.0
57.608,0.205,6.859,24.0
52.376,0.195,5.94,15.0
51.682,0.204,7.33,30.0
48.19,0.199,6.56,22.0
51.436,0.222,6.709,5.0
58.442,0.263,7.285,12.0
57.586,0.27,6.852,20.0
56.814,0.277,6.439,10.0
52.008,0.265,7.372,27.0
48.404,0.255,6.585,22.0
48.359,0.264,6.303,21.0
58.445,0.33,7.279,25.0
57.681,0.336,6.857,10.0
56.833,0.342,6.434,12.0
51.932,0.325,7.354,26.0
48.289,0.31,6.562,22.0
51.586,0.341,6.716,8.0
58.459,0.396,7.272,15.0
60.377,0.42,7.167,10.0
52.484,0.374,5.933,18.0
51.936,0.383,7.345,25.0
51.675,0.391,7.013,6.0
49.168,0.38,6.391,19.0
58.387,0.462,7.251,11.0
59.95,0.485,7.104,27.0
52.494,0.433,5.923,18.0
51.855,0.441,7.322,26.0
49.447,0.429,6.699,23.0
48.494,0.43,6.292,19.0
58.479,0.528,7.248,24.0
53.005,0.487,6.268,12.0
52.438,0.492,5.903,13.0
51.852,0.5,7.307,4.0
49.493,0.485,6.691,23.0
48.498,0.484,6.278,22.0
59.01,0.599,7.296,16.0
52.623,0.543,6.206,21.0
57.017,0.598,6.4,28.0
49.22,0.529,6.921,20.0
49.5,0.541,6.675,23.0
48.529,0.538,6.266,22.0
59.264,0.667,7.307,8.0
52.605,0.601,6.186,20.0
56.901,0.659,6.367,31.0
49.23,0.584,6.904,18.0
0.0,0.0,0.0,0.0
48.956,0.596,6.303,23.0
48.944,0.604,6.016,23.0
52.508,0.657,6.154,21.0
52.877,0.669,5.896,8.0
49.267,0.638,6.889,20.0
47.463,0.621,6.364,21.0
48.479,0.642,6.221,25.0
49.157,0.659,6.021,22.0
48.41,0.658,5.653,16.0
52.949,0.727,5.881,5.0
51.913,0.728,7.235,6.0
47.407,0.672,6.334,11.0
48.594,0.696,6.213,29.0
49.074,0.711,5.988,23.0
48.662,0.712,5.659,22.0
49.938,0.739,5.522,23.0
49.011,0.739,6.806,19.0
47.481,0.724,6.32,21.0
48.515,0.747,6.178,22.0
48.857,0.76,5.936,23.0
48.655,0.764,5.632,26.0
50.072,0.794,5.51,23.0
48.611,0.785,6.724,24.0
47.462,0.774,6.291,21.0
48.757,0.802,6.181,22.0
48.82,0.811,5.904,33.0
0.0,0.0,0.0,0.0
50.174,0.848,5.492,25.0
48.826,0.84,6.725,23.0
47.325,0.821,6.244,24.0
48.952,0.856,6.177,23.0
48.776,0.86,5.869,40.0
0.0,0.0,0.0,0.0
50.224,0.9,5.467,13.0
48.128,0.878,6.598,22.0
0.0,0.0,0.0,0.0
49.062,0.908,6.159,23.0
48.852,0.911,5.846,23.0
50.138,0.942,5.712,32.0
50.247,0.951,5.436,24.0
48.002,0.924,6.548,23.0
0.0,0.0,0.0,0.0
48.928,0.955,6.108,34.0
48.769,0.958,5.802,23.0
50.094,0.991,5.672,31.0
49.982,0.996,5.372,23.0
48.151,0.975,6.533,23.0
45.774,0.933,5.946,19.0
48.946,1.003,6.075,23.0
48.665,1.004,5.754,21.0
50.073,1.04,5.632,30.0
49.855,1.042,5.321,11.0
48.039,1.019,6.481,21.0
45.762,0.977,5.909,17.0
48.838,1.049,6.023,19.0
48.802,1.054,5.732,12.0
50.017,1.087,5.586,24.0
57.702,1.261,6.113,14.0
47.984,1.064,6.436,20.0
45.794,1.021,5.876,23.0
48.768,1.094,5.975,7.0
45.643,1.029,5.323,26.0
49.751,1.128,5.515,32.0
55.065,1.256,5.788,11.0
47.82,1.106,6.373,14.0
45.748,1.063,5.83,17.0
45.235,1.056,5.503,26.0
50.23,1.18,5.815,6.0
49.636,1.171,5.46,24.0
55.095,1.306,5.743,7.0
47.492,1.142,6.286,19.0
45.526,1.1,5.762,20.0
45.222,1.097,5.461,25.0
45.589,1.112,5.237,16.0
49.662,1.216,5.418,13.0
49.379,1.215,5.102,36.0
0.0,0.0,0.0,0.0
45.426,1.138,5.706,20.0
50.312,1.266,6.028,4.0
45.613,1.153,5.196,27.0
49.648,1.26,5.369,21.0
49.417,1.26,5.059,29.0
0.0,0.0,0.0,0.0
45.418,1.178,5.661,21.0
45.293,1.179,5.382,30.0
49.731,1.3,5.616,8.0
56.892,1.493,6.096,10.0
54.888,1.446,5.564,6.0
0.0,0.0,0.0,0.0
45.618,1.222,5.639,20.0
45.345,1.219,5.341,24.0
45.596,1.231,5.102,8.0
0.0,0.0,0.0,0.0
50.711,1.379,5.088,24.0
45.185,1.244,5.8,27.0
45.379,1.253,5.561,22.0
45.461,1.26,5.307,48.0
45.746,1.272,5.07,17.0
49.306,1.376,5.179,6.0
50.756,1.421,5.039,28.0
44.526,1.262,5.668,21.0
45.376,1.29,5.511,27.0
45.441,1.296,5.255,30.0
46.041,1.316,5.052,19.0
0.0,0.0,0.0,0.0
50.69,1.459,4.976,27.0
44.073,1.283,5.56,23.0
45.322,1.323,5.453,32.0
45.582,1.335,5.219,19.0
46.046,1.352,5.0,20.0
50.806,1.497,5.222,24.0
50.857,1.502,4.934,22.0
44.834,1.339,5.604,21.0
45.454,1.361,5.416,27.0
45.636,1.37,5.172,16.0
48.321,1.454,5.19,5.0
50.875,1.535,5.17,16.0
56.377,1.706,5.403,11.0
45.501,1.392,5.632,24.0
45.472,1.395,5.363,27.0
45.682,1.405,5.122,18.0
48.36,1.49,5.136,9.0
51.062,1.577,5.127,17.0
50.447,1.562,4.773,24.0
45.48,1.423,5.573,29.0
45.445,1.425,5.303,19.0
48.97,1.539,5.43,4.0
48.393,1.524,5.079,11.0
50.82,1.604,5.039,24.0
56.043,1.773,5.233,7.0
45.494,1.454,5.518,29.0
45.679,1.463,5.273,17.0
48.693,1.562,5.337,22.0
48.649,1.564,5.044,21.0
50.623,1.631,4.955,28.0
54.49,1.759,5.018,25.0
45.452,1.482,5.453,36.0
45.676,1.492,5.213,20.0
46.083,1.507,4.99,17.0
51.066,1.673,5.228,18.0
50.385,1.654,4.866,27.0
54.504,1.792,4.948,27.0
47.344,1.573,5.616,3.0
45.752,1.522,5.16,24.0
46.059,1.534,4.926,20.0
51.091,1.704,5.162,18.0
50.327,1.682,4.792,23.0
55.683,1.864,4.979,29.0
0.0,0.0,0.0,0.0
45.998,1.556,5.124,20.0
48.443,1.641,5.114,14.0
50.992,1.73,5.081,15.0
50.259,1.707,4.716,21.0
73.228,2.492,6.448,12.0
45.71,1.569,5.296,27.0
46.1,1.584,5.071,21.0
57.903,1.993,6.032,10.0
50.456,1.738,4.957,24.0
54.351,1.875,5.024,19.0
66.78,2.307,5.785,9.0
45.612,1.59,5.219,24.0
46.072,1.607,5.002,35.0
61.64,2.152,6.333,12.0
50.335,1.759,4.873,27.0
54.798,1.918,4.986,29.0
55.937,1.96,4.765,26.0
45.348,1.602,5.122,32.0
48.478,1.715,5.192,14.0
0.0,0.0,0.0,0.0
50.313,1.782,4.796,24.0
66.796,2.368,5.979,9.0
56.029,1.988,4.69,28.0
45.678,1.635,5.091,21.0
48.447,1.735,5.115,11.0
50.312,1.803,5.019,15.0
49.962,1.791,4.688,21.0
56.094,2.013,4.937,21.0
56.125,2.015,4.614,19.0
46.091,1.668,5.067,34.0
61.61,2.231,6.413,12.0
50.248,1.82,4.936,24.0
50.167,1.818,4.631,24.0
56.02,2.032,4.846,29.0
66.696,2.42,5.382,7.0
51.166,1.871,5.546,12.0
56.354,2.062,5.779,13.0
50.083,1.833,4.843,23.0
66.814,2.446,6.065,15.0
55.917,2.048,4.75,29.0
63.126,2.313,4.996,7.0
57.853,2.135,6.18,5.0
50.41,1.861,5.089,18.0
49.984,1.846,4.755,32.0
66.826,2.468,5.961,8.0
55.881,2.064,4.659,25.0
65.404,2.417,5.073,8.0
56.354,2.098,5.929,11.0
50.263,1.871,4.994,25.0
50.013,1.862,4.677,23.0
56.042,2.086,4.908,20.0
63.898,2.379,5.225,28.0
65.354,2.433,4.964,15.0
56.338,2.112,5.836,13.0
50.128,1.879,4.899,24.0
50.352,1.887,4.627,24.0
56.077,2.101,4.821,28.0
63.142,2.366,5.061,17.0
65.3,2.447,4.854,24.0
50.656,1.911,5.164,14.0
50.03,1.886,4.808,23.0
50.22,1.894,4.533,19.0
56.045,2.112,4.726,30.0
75.541,2.847,5.93,3.0
65.298,2.461,4.747,29.0
50.445,1.913,5.059,25.0
50.009,1.895,4.723,28.0
50.168,1.901,4.445,18.0
66.668,2.525,5.512,14.0
65.464,2.478,5.031,7.0
65.326,2.473,4.641,53.0
50.2,1.911,4.95,33.0
49.972,1.901,4.636,23.0
56.243,2.139,4.889,22.0
63.139,2.4,5.114,19.0
65.398,2.484,4.916,19.0
65.327,2.481,4.531,57.0
50.068,1.912,4.852,31.0
50.083,1.911,4.561,24.0
56.168,2.142,4.787,29.0
63.12,2.406,5.005,6.0
65.314,2.488,4.799,18.0
65.356,2.488,4.423,52.0
49.939,1.911,4.754,33.0
50.177,1.919,4.483,24.0
56.212,2.148,4.694,18.0
75.682,2.89,5.871,17.0
65.321,2.492,4.686,31.0
65.358,2.492,4.309,34.0
49.87,1.911,4.66,20.0
56.284,2.155,4.93,15.0
63.179,2.416,5.165,14.0
65.425,2.5,4.961,16.0
65.328,2.494,4.573,49.0
65.414,2.495,4.2,26.0
49.976,1.915,4.583,24.0
56.244,2.153,4.828,28.0
63.139,2.414,5.052,10.0
65.316,2.494,4.839,12.0
65.355,2.494,4.462,56.0
65.439,2.494,4.087,24.0
50.168,1.921,4.512,21.0
56.163,2.148,4.723,26.0
75.641,2.889,5.919,13.0
65.309,2.491,4.723,30.0
65.363,2.49,4.346,34.0
65.497,2.493,3.975,23.0
56.278,2.15,4.961,9.0
63.202,2.411,5.201,10.0
65.44,2.494,5.004,12.0
65.323,2.486,4.607,50.0
65.439,2.487,4.235,22.0
65.562,2.489,3.862,11.0
56.238,2.143,4.856,25.0
63.141,2.402,5.083,17.0
65.326,2.481,4.878,21.0
65.329,2.478,4.491,43.0
65.475,2.479,4.12,25.0
81.384,3.078,4.649,28.0
56.095,2.129,4.742,29.0
75.601,2.864,5.949,6.0
65.295,2.469,4.757,29.0
65.365,2.468,4.375,23.0
65.481,2.468,4.001,26.0
81.306,3.06,4.496,32.0
66.666,2.517,5.514,10.0
65.447,2.466,5.031,8.0
65.317,2.457,4.64,53.0
81.478,3.059,5.305,16.0
81.39,3.051,4.826,22.0
81.263,3.04,4.347,35.0
63.125,2.368,5.105,17.0
65.291,2.445,4.9,24.0
65.378,2.443,4.525,25.0
65.694,2.45,4.158,31.0
81.436,3.032,4.68,33.0
81.359,3.023,4.203,33.0
80.642,3.004,6.374,10.0
65.296,2.426,4.779,35.0
81.697,3.03,5.504,30.0
65.63,2.429,4.033,9.0
81.244,3.0,4.52,27.0
81.288,2.996,4.051,32.0
65.435,2.417,5.051,14.0
65.387,2.409,4.665,17.0
65.76,2.417,4.308,11.0
81.65,2.995,4.866,27.0
81.279,2.974,4.371,42.0
81.252,2.966,3.897,30.0
65.275,2.387,4.916,25.0
81.666,2.98,5.675,19.0
65.74,2.392,4.184,26.0
81.52,2.959,4.707,32.0
81.469,2.951,4.23,35.0
81.354,2.939,3.751,20.0
77.511,2.804,5.693,14.0
81.718,2.948,5.525,17.0
81.673,2.94,5.047,17.0
81.653,2.931,4.562,21.0
81.492,2.917,4.079,30.0
56.214,2.007,2.488,0.0
81.368,2.909,5.825,21.0
65.82,2.346,4.328,17.0
81.88,2.91,4.907,19.0
81.685,2.895,4.413,33.0
81.41,2.877,3.924,29.0
56.254,1.983,2.386,0.0
81.655,2.88,5.694,22.0
65.824,2.315,4.206,19.0
81.842,2.869,4.752,34.0
81.875,2.862,4.271,21.0
81.32,2.834,3.769,24.0
0.0,0.0,0.0,0.0
81.724,2.841,5.546,15.0
81.677,2.83,5.066,34.0
81.984,2.831,4.608,23.0
81.479,2.805,4.099,37.0
56.274,1.931,2.504,0.0
50.951,1.743,1.972,1.0
65.875,2.254,4.347,21.0
81.567,2.781,4.908,35.0
81.932,2.784,4.453,31.0
81.317,2.753,3.938,35.0
56.105,1.893,2.391,0.0
50.972,1.714,1.877,2.0
81.663,2.745,5.236,15.0
81.698,2.736,4.762,33.0
81.901,2.733,4.297,12.0
81.242,2.701,3.783,22.0
0.0,0.0,0.0,0.0
51.004,1.683,1.782,2.0
81.637,2.692,5.081,32.0
81.9,2.69,4.62,34.0
81.596,2.67,4.129,29.0
0.0,0.0,0.0,0.0
0.0,0.0,0.0,0.0
51.134,1.654,1.692,1.0
81.477,2.632,4.919,34.0
81.746,2.63,4.46,33.0
81.517,2.612,3.973,23.0
0.0,0.0,0.0,0.0
0.0,0.0,0.0,0.0
54.169,1.714,1.692,1.0
81.744,2.583,4.782,37.0
81.991,2.579,4.319,30.0
81.26,2.544,3.808,17.0
0.0,0.0,0.0,0.0
0.0,0.0,0.0,0.0
54.079,1.671,1.588,4.0
81.873,2.524,4.636,26.0
81.758,2.509,4.154,35.0
0.0,0.0,0.0,0.0
0.0,0.0,0.0,0.0
54.134,1.638,1.802,1.0
54.173,1.632,1.489,8.0
82.512,2.479,4.519,11.0
81.715,2.443,4.001,13.0
0.0,0.0,0.0,0.0
0.0,0.0,0.0,0.0
54.111,1.594,1.703,1.0
54.14,1.587,1.39,12.0
82.316,2.406,4.358,15.0
83.626,2.431,3.942,11.0
0.0,0.0,0.0,0.0
0.0,0.0,0.0,0.0
54.129,1.549,1.604,3.0
54.234,1.543,1.292,1.0
82.994,2.354,4.241,15.0
0.0,0.0,0.0,0.0
57.611,1.615,2.275,0.0
54.164,1.511,1.82,1.0
54.061,1.499,1.503,6.0
56.467,1.557,1.243,4.0
83.074,2.281,4.092,19.0
0.0,0.0,0.0,0.0
0.0,0.0,0.0,0.0
54.157,1.461,1.72,25.0
54.108,1.45,1.406,1.0
56.646,1.509,1.143,4.0
85.341,2.264,4.049,10.0
0.0,0.0,0.0,0.0
0.0,0.0,0.0,0.0
54.158,1.409,1.622,2.0
54.342,1.404,1.313,1.0
47.575,1.221,0.874,0.0
85.577,2.186,3.904,0.0
0.0,0.0,0.0,0.0
54.362,1.37,1.851,1.0
54.182,1.355,1.525,1.0
57.422,1.427,1.284,4.0
47.586,1.174,0.788,0.0
0.0,0.0,0.0,0.0
0.0,0.0,0.0,0.0
54.418,1.315,1.753,21.0
54.153,1.298,1.425,0.0
57.787,1.375,1.187,4.0
0.0,0.0,0.0,0.0
0.0,0.0,0.0,0.0
0.0,0.0,0.0,0.0
54.251,1.252,1.65,1.0
54.448,1.247,1.336,1.0
47.883,1.088,0.898,2.0
36.982,0.833,0.48,0.0
0.0,0.0,0.0,0.0
54.496,1.209,1.876,25.0
52.027,1.144,1.49,1.0
58.052,1.265,1.321,1.0
0.0,0.0,0.0,0.0
34.994,0.749,0.391,0.0
0.0,0.0,0.0,0.0
54.448,1.146,1.778,3.0
54.427,1.135,1.462,0.0
54.663,1.129,1.147,1.0
0.0,0.0,0.0,0.0
33.629,0.681,0.317,1.0
0.0,0.0,0.0,0.0
54.48,1.083,1.684,0.0
54.303,1.068,1.364,0.0
0.0,0.0,0.0,0.0
37.601,0.725,0.506,0.0
31.763,0.606,0.244,0.0
0.0,0.0,0.0,0.0
0.0,0.0,0.0,0.0
54.543,1.007,1.276,0.0
0.0,0.0,0.0,0.0
35.613,0.643,0.418,0.0
30.849,0.551,0.184,0.0
55.022,0.971,1.828,1.0
54.955,0.959,1.508,2.0
54.842,0.945,1.188,1.0
0.0,0.0,0.0,0.0
34.328,0.577,0.344,1.0
28.836,0.479,0.123,1.0
55.148,0.904,1.739,0.0
0.0,0.0,0.0,0.0
0.0,0.0,0.0,0.0
0.0,0.0,0.0,0.0
32.062,0.498,0.267,0.0
28.633,0.438,0.073,1.0
55.528,0.838,1.657,0.0
0.0,0.0,0.0,0.0
48.221,0.706,0.882,0.0
36.503,0.527,0.454,0.0
28.954,0.411,0.193,0.0
27.165,0.38,0.024,0.0
56.035,0.772,1.58,1.0
0.0,0.0,0.0,0.0
42.23,0.562,0.703,0.0
0.0,0.0,0.0,0.0
28.892,0.372,0.145,4.0
26.388,0.333,-0.019,0.0
56.77,0.705,1.507,1.0
0.0,0.0,0.0,0.0
39.404,0.471,0.592,0.0
33.254,0.39,0.305,0.0
28.834,0.331,0.098,6.0
25.592,0.288,-0.06,0.0
0.0,0.0,0.0,0.0
0.0,0.0,0.0,0.0
0.0,0.0,0.0,0.0
31.348,0.324,0.237,0.0
27.736,0.28,0.05,0.0
24.591,0.243,-0.096,0.0
57.827,0.557,1.351,0.0
0.0,0.0,0.0,0.0
0.0,0.0,0.0,0.0
28.916,0.258,0.173,1.0
26.898,0.233,0.006,0.0
23.72,0.2,-0.13,0.0
0.0,0.0,0.0,0.0
40.998,0.326,0.657,0.0
0.0,0.0,0.0,0.0
28.854,0.215,0.127,3.0
26.122,0.188,-0.034,0.0
22.611,0.157,-0.16,0.0
0.0,0.0,0.0,0.0
37.838,0.244,0.548,0.0
31.968,0.198,0.279,0.0
28.563,0.17,0.082,1.0
25.28,0.144,-0.072,0.0
22.04,0.12,-0.19,3.0
0.0,0.0,0.0,0.0
36.884,0.182,0.477,0.0
31.25,0.146,0.224,0.0
27.473,0.121,0.036,0.0
24.271,0.101,-0.106,0.0
21.2,0.083,-0.215,4.0
41.778,0.152,0.717,0.0
35.316,0.12,0.404,0.0
30.153,0.094,0.171,0.0
26.701,0.077,-0.003,0.0
23.432,0.061,-0.138,1.0
20.501,0.048,-0.238,0.0
40.41,0.084,0.635,0.0
0.0,0.0,0.0,0.0
28.78,0.045,0.121,1.0
25.845,0.033,-0.041,0.0
22.719,0.023,-0.166,0.0
19.623,0.015,-0.256,0.0
0.0,0.0,0.0,0.0
32.911,0.008,0.28,0.0
28.436,0.0,0.079,1.0
25.096,-0.007,-0.076,0.0
21.632,-0.012,-0.19,1.0
18.819,-0.015,-0.273,0.0
36.574,-0.04,0.469,0.0
31.046,-0.042,0.22,0.0
27.64,-0.045,0.037,0.0
24.104,-0.046,-0.107,0.0
21.015,-0.046,-0.214,0.0
18.336,-0.045,-0.292,0.0
34.062,-0.094,0.389,0.0
28.886,-0.087,0.164,2.0
26.709,-0.088,0.0,0.0
23.554,-0.084,-0.137,0.0
20.243,-0.078,-0.234,0.0
17.807,-0.074,-0.308,0.0
33.157,-0.146,0.334,1.0
28.785,-0.135,0.125,6.0
26.005,-0.129,-0.035,0.0
22.876,-0.12,-0.164,0.0
19.539,-0.108,-0.252,0.0
17.316,-0.1,-0.322,0.0
32.173,-0.195,0.281,1.0
28.654,-0.182,0.086,5.0
25.023,-0.166,-0.067,0.0
22.125,-0.153,-0.188,1.0
19.046,-0.137,-0.271,0.0
16.918,-0.127,-0.337,0.0
31.522,-0.245,0.234,1.0
27.711,-0.224,0.047,0.0
24.349,-0.204,-0.097,0.0
21.331,-0.184,-0.209,0.0
18.459,-0.165,-0.286,0.0
16.629,-0.153,-0.353,0.0
28.852,-0.275,0.177,0.0
27.015,-0.265,0.012,0.0
23.966,-0.242,-0.126,0.0
20.401,-0.212,-0.225,0.0
18.006,-0.192,-0.302,0.0
16.363,-0.18,-0.368,0.0
28.767,-0.324,0.141,0.0
26.243,-0.303,-0.02,0.0
23.084,-0.274,-0.149,1.0
19.918,-0.242,-0.245,0.0
17.563,-0.219,-0.316,0.0
16.073,-0.205,-0.381,0.0
28.646,-0.373,0.106,1.0
25.453,-0.339,-0.05,0.0
22.499,-0.307,-0.173,1.0
19.195,-0.267,-0.259,0.0
17.11,-0.244,-0.328,0.0
15.755,-0.229,-0.392,0.0
28.322,-0.42,0.072,1.0
24.933,-0.377,-0.078,0.0
22.006,-0.339,-0.194,0.0
18.77,-0.295,-0.275,0.0
16.816,-0.27,-0.342,0.0
15.489,-0.253,-0.403,0.0
27.559,-0.458,0.038,0.0
24.198,-0.41,-0.104,0.0
21.218,-0.366,-0.212,0.0
18.226,-0.32,-0.287,0.0
16.576,-0.296,-0.356,0.0
15.105,-0.274,-0.41,0.0
26.762,-0.494,0.007,0.0
23.723,-0.445,-0.128,0.0
20.244,-0.386,-0.224,0.0
17.938,-0.348,-0.302,0.0
16.333,-0.322,-0.368,0.0
14.883,-0.298,-0.42,0.0
26.024,-0.528,-0.02,0.0
23.181,-0.477,-0.149,0.0
19.784,-0.414,-0.24,0.0
17.533,-0.372,-0.314,0.0
16.042,-0.345,-0.379,0.0
14.653,-0.32,-0.429,0.0
25.569,-0.566,-0.046,0.0
22.578,-0.507,-0.169,0.0
19.416,-0.442,-0.255,0.0
17.142,-0.395,-0.324,0.0
15.83,-0.37,-0.39,0.0
14.494,-0.344,-0.439,0.0
25.126,-0.602,-0.07,0.0
22.167,-0.538,-0.187,0.0
18.995,-0.467,-0.268,0.0
16.92,-0.422,-0.337,0.0
15.595,-0.394,-0.399,0.0
14.245,-0.364,-0.445,0.0
24.548,-0.634,-0.092,0.0
21.113,-0.553,-0.199,0.0
18.39,-0.487,-0.278,0.0
16.681,-0.447,-0.348,0.0
15.353,-0.417,-0.407,0.0
14.033,-0.386,-0.452,0.0
23.778,-0.66,-0.111,0.0
20.989,-0.589,-0.217,2.0
18.155,-0.515,-0.291,0.0
16.418,-0.472,-0.358,0.0
14.931,-0.434,-0.41,0.0
13.865,-0.407,-0.459,0.0
23.457,-0.695,-0.131,0.0
20.713,-0.621,-0.233,0.0
17.873,-0.541,-0.302,0.0
16.237,-0.497,-0.368,0.0
14.808,-0.459,-0.419,0.0
13.743,-0.43,-0.467,0.0
23.224,-0.732,-0.149,0.0
19.716,-0.628,-0.238,0.0
17.582,-0.566,-0.312,0.0
16.049,-0.522,-0.377,0.0
14.687,-0.483,-0.428,0.0
13.566,-0.451,-0.472,0.0
22.329,-0.747,-0.161,0.0
19.477,-0.658,-0.251,0.0
17.288,-0.589,-0.32,0.0
15.764,-0.543,-0.383,0.0
14.45,-0.502,-0.433,0.0
13.524,-0.475,-0.481,0.0
22.328,-0.789,-0.179,1.0
19.222,-0.686,-0.262,0.0
17.06,-0.615,-0.329,0.0
15.698,-0.571,-0.393,0.0
14.361,-0.527,-0.441,0.0
13.331,-0.494,-0.485,0.0
21.292,-0.794,-0.186,0.0
18.923,-0.712,-0.272,0.0
16.913,-0.642,-0.339,0.0
15.448,-0.592,-0.398,0.0
14.173,-0.548,-0.445,0.0
13.199,-0.515,-0.489,0.0
21.157,-0.83,-0.2,2.0
18.561,-0.734,-0.28,0.0
16.747,-0.668,-0.347,0.0
15.349,-0.618,-0.406,0.0
14.031,-0.57,-0.45,0.0
13.142,-0.538,-0.496,0.0
21.021,-0.865,-0.212,2.0
18.308,-0.76,-0.288,0.0
16.536,-0.692,-0.353,0.0
15.008,-0.633,-0.407,0.0
13.89,-0.591,-0.455,0.0
12.961,-0.556,-0.497,0.0
20.917,-0.901,-0.224,1.0
18.048,-0.784,-0.295,0.0
16.41,-0.718,-0.361,0.0
15.032,-0.663,-0.417,0.0
13.866,-0.617,-0.462,0.0
12.914,-0.579,-0.503,0.0
20.607,-0.928,-0.233,0.0
17.846,-0.81,-0.302,0.0
16.204,-0.741,-0.365,0.0
14.837,-0.684,-0.42,0.0
13.721,-0.637,-0.465,0.0
12.777,-0.598,-0.505,0.0
19.683,-0.925,-0.233,0.0
17.67,-0.836,-0.309,0.0
16.046,-0.765,-0.37,0.0
14.722,-0.707,-0.424,0.0
13.621,-0.659,-0.469,0.0
12.742,-0.621,-0.51,0.0
19.548,-0.956,-0.242,0.0
17.508,-0.863,-0.314,0.0
15.895,-0.789,-0.375,0.0
14.565,-0.728,-0.427,0.0
13.571,-0.683,-0.474,0.0
12.663,-0.642,-0.513,0.0
19.43,-0.988,-0.249,0.0
17.358,-0.889,-0.32,0.0
15.835,-0.817,-0.381,0.0
14.527,-0.754,-0.432,0.0
13.469,-0.704,-0.476,0.0
12.61,-0.664,-0.517,0.0
19.205,-1.014,-0.254,0.0
17.301,-0.92,-0.326,0.0
15.655,-0.838,-0.383,0.0
14.388,-0.775,-0.434,0.0
13.363,-0.724,-0.478,0.0
12.485,-0.681,-0.516,0.0
19.031,-1.042,-0.259,0.0
17.174,-0.946,-0.33,0.0
15.671,-0.869,-0.389,0.0
14.322,-0.799,-0.437,0.0
13.377,-0.751,-0.483,0.0
12.402,-0.701,-0.517,0.0
18.981,-1.075,-0.265,0.0
17.062,-0.973,-0.334,0.0
15.507,-0.889,-0.39,0.0
14.248,-0.822,-0.439,0.0
13.266,-0.77,-0.483,0.0
12.431,-0.726,-0.522,0.0
18.876,-1.105,-0.27,0.0
17.0,-1.002,-0.338,0.0
15.396,-0.913,-0.392,0.0
14.174,-0.845,-0.441,0.0
13.257,-0.795,-0.487,0.0
12.375,-0.747,-0.524,0.0
18.83,-1.139,-0.274,0.0
16.907,-1.029,-0.34,0.0
15.341,-0.939,-0.394,0.0
14.15,-0.871,-0.444,0.0
13.212,-0.818,-0.488,0.0
12.379,-0.771,-0.527,0.0
18.712,-1.168,-0.276,0.0
16.87,-1.059,-0.343,0.0
15.251,-0.963,-0.395,0.0
14.075,-0.893,-0.445,0.0
13.113,-0.837,-0.487,0.0
12.327,-0.791,-0.527,0.0
18.644,-1.199,-0.279,0.0
16.786,-1.085,-0.345,0.0
15.234,-0.99,-0.397,0.0
14.08,-0.92,-0.447,0.0
13.147,-0.864,-0.491,0.0
12.341,-0.816,-0.529,0.0
18.574,-1.23,-0.281,0.0
16.758,-1.115,-0.346,0.0
15.061,-1.007,-0.395,0.0
14.047,-0.945,-0.448,0.0
13.155,-0.889,-0.493,0.0
12.315,-0.837,-0.53,0.0
18.537,-1.262,-0.282,0.0
16.749,-1.146,-0.348,0.0
15.174,-1.043,-0.399,0.0
14.024,-0.969,-0.449,0.0
13.071,-0.908,-0.491,0.0
12.301,-0.859,-0.53,0.0
18.5,-1.294,-0.283,0.0
16.794,-1.18,-0.35,0.0
15.159,-1.071,-0.4,0.0
14.013,-0.995,-0.449,0.0
13.082,-0.933,-0.492,0.0
12.255,-0.879,-0.529,0.0
18.496,-1.328,-0.283,0.0
16.679,-1.203,-0.348,0.0
15.16,-1.099,-0.4,0.0
14.027,-1.022,-0.449,0.0
13.119,-0.96,-0.493,0.0
12.28,-0.903,-0.53,0.0
18.491,-1.361,-0.283,0.0
16.783,-1.241,-0.35,0.0
15.171,-1.127,-0.4,0.0
14.013,-1.046,-0.449,0.0
13.115,-0.984,-0.493,0.0
12.234,-0.922,-0.527,0.0
18.527,-1.398,-0.283,0.0
16.794,-1.273,-0.349,0.0
15.259,-1.162,-0.402,0.0
14.009,-1.071,-0.448,0.0
13.12,-1.008,-0.492,0.0
12.349,-0.953,-0.531,0.0
18.595,-1.436,-0.282,0.0
16.822,-1.305,-0.348,0.0
15.216,-1.186,-0.399,0.0
14.033,-1.098,-0.447,0.0
13.17,-1.035,-0.492,0.0
12.276,-0.969,-0.527,0.0
18.659,-1.474,-0.281,0.0
16.85,-1.337,-0.347,0.0
15.258,-1.216,-0.398,0.0
14.027,-1.123,-0.445,0.0
13.152,-1.057,-0.49,0.0
12.313,-0.994,-0.526,0.0
18.738,-1.513,-0.279,0.0
16.84,-1.366,-0.344,0.0
15.272,-1.244,-0.396,0.0
14.06,-1.15,-0.443,0.0
13.186,-1.083,-0.488,0.0
12.305,-1.015,-0.524,0.0
18.801,-1.552,-0.276,0.0
16.918,-1.402,-0.342,0.0
15.376,-1.279,-0.395,0.0
14.127,-1.18,-0.442,0.0
13.265,-1.113,-0.488,0.0
12.368,-1.042,-0.524,0.0
18.922,-1.594,-0.274,0.0
16.982,-1.436,-0.339,0.0
15.453,-1.312,-0.393,0.0
14.184,-1.209,-0.441,0.0
13.286,-1.137,-0.486,0.0
12.385,-1.064,-0.521,0.0
19.023,-1.635,-0.27,0.0
17.067,-1.472,-0.336,0.0
15.418,-1.335,-0.388,0.0
14.238,-1.238,-0.438,0.0
13.348,-1.165,-0.484,0.0
12.459,-1.091,-0.521,0.0
19.203,-1.682,-0.267,0.0
17.169,-1.51,-0.333,0.0
15.602,-1.377,-0.388,0.0
14.326,-1.269,-0.436,0.0
13.37,-1.189,-0.481,0.0
12.418,-1.108,-0.515,0.0
19.371,-1.729,-0.262,0.0
17.312,-1.551,-0.329,0.0
15.638,-1.406,-0.383,0.0
14.374,-1.297,-0.433,0.0
13.488,-1.222,-0.48,0.0
12.524,-1.138,-0.514,0.0
19.471,-1.77,-0.256,0.0
17.439,-1.591,-0.325,0.0
15.77,-1.443,-0.38,0.0
14.488,-1.331,-0.43,0.0
13.51,-1.245,-0.475,0.0
12.62,-1.168,-0.513,0.0
19.64,-1.817,-0.251,0.0
17.497,-1.624,-0.319,0.0
15.847,-1.476,-0.376,0.0
14.599,-1.364,-0.427,0.0
13.571,-1.272,-0.472,0.0
12.64,-1.189,-0.509,0.0
19.869,-1.869,-0.245,0.0
17.673,-1.668,-0.314,0.0
16.112,-1.526,-0.375,0.0
14.734,-1.4,-0.425,0.0
13.667,-1.303,-0.469,0.0
12.738,-1.218,-0.507,0.0
20.162,-1.928,-0.239,0.0
17.78,-1.706,-0.308,0.0
16.247,-1.563,-0.37,0.0
14.78,-1.427,-0.419,0.0
13.803,-1.337,-0.466,0.0
12.766,-1.241,-0.501,0.0
20.585,-2.0,-0.233,0.0
17.934,-1.747,-0.301,0.0
16.436,-1.606,-0.366,0.0
14.894,-1.46,-0.414,0.0
13.891,-1.366,-0.462,0.0
12.835,-1.266,-0.497,0.0
20.903,-2.062,-0.226,0.0
33.957,-3.36,-0.552,0.0
16.601,-1.647,-0.36,0.0
15.054,-1.498,-0.41,0.0
13.964,-1.394,-0.457,0.0
12.881,-1.29,-0.492,0.0
33.97,-3.4,-0.348,2.0
34.029,-3.416,-0.534,1.0
16.718,-1.683,-0.353,0.0
15.219,-1.537,-0.406,0.0
14.08,-1.426,-0.452,0.0
13.171,-1.338,-0.495,0.0
21.484,-2.181,-0.207,0.0
18.906,-1.925,-0.285,0.0
16.889,-1.724,-0.346,0.0
15.31,-1.567,-0.399,0.0
14.173,-1.455,-0.446,0.0
13.115,-1.35,-0.484,0.0
22.042,-2.269,-0.198,0.0
18.999,-1.961,-0.274,0.0
17.076,-1.767,-0.339,0.0
15.44,-1.602,-0.392,0.0
14.277,-1.486,-0.44,0.0
13.27,-1.385,-0.481,0.0
22.373,-2.334,-0.186,0.0
19.328,-2.022,-0.266,0.0
17.239,-1.808,-0.33,0.0
15.577,-1.638,-0.385,0.0
14.392,-1.517,-0.434,0.0
13.461,-1.423,-0.479,0.0
22.341,-2.361,-0.17,3.0
19.725,-2.089,-0.257,0.0
17.525,-1.861,-0.324,0.0
15.903,-1.693,-0.382,0.0
14.607,-1.559,-0.43,0.0
13.639,-1.459,-0.475,0.0
22.637,-2.421,-0.157,2.0
19.923,-2.136,-0.246,0.0
17.721,-1.905,-0.314,0.0
16.067,-1.731,-0.374,0.0
14.732,-1.591,-0.423,0.0
13.721,-1.486,-0.468,0.0
23.528,-2.546,-0.145,5.0
20.318,-2.204,-0.235,0.0
18.01,-1.958,-0.306,0.0
16.353,-1.782,-0.368,0.0
14.797,-1.617,-0.413,0.0
13.871,-1.519,-0.463,0.0
23.586,-2.582,-0.127,32.0
23.628,-2.592,-0.255,7.0
23.637,-2.599,-0.383,1.0
16.618,-1.831,-0.361,0.0
14.953,-1.651,-0.406,0.0
14.04,-1.554,-0.457,0.0
23.595,-2.611,-0.108,74.0
0.0,0.0,0.0,0.0
23.629,-2.626,-0.364,3.0
16.839,-1.876,-0.352,0.0
15.306,-1.709,-0.403,0.0
14.165,-1.585,-0.449,0.0
23.598,-2.639,-0.089,78.0
22.347,-2.504,-0.205,3.0
23.674,-2.658,-0.345,0.0
16.997,-1.913,-0.341,0.0
15.538,-1.752,-0.396,0.0
14.317,-1.618,-0.442,0.0
23.595,-2.665,-0.069,23.0
22.369,-2.532,-0.186,4.0
19.589,-2.221,-0.268,0.0
17.31,-1.967,-0.332,0.0
15.767,-1.795,-0.388,0.0
14.456,-1.649,-0.434,0.0
26.208,-2.989,-0.053,0.0
22.428,-2.562,-0.166,3.0
19.845,-2.272,-0.254,0.0
17.563,-2.014,-0.322,0.0
16.039,-1.843,-0.38,0.0
14.729,-1.696,-0.429,0.0
26.312,-3.028,-0.03,3.0
22.57,-2.602,-0.147,3.0
20.277,-2.342,-0.242,0.0
17.828,-2.063,-0.31,0.0
16.294,-1.889,-0.372,0.0
14.992,-1.741,-0.423,1.0
26.249,-3.047,-0.006,3.0
22.58,-2.625,-0.127,7.0
22.247,-2.591,-0.245,0.0
18.413,-2.148,-0.304,0.0
16.606,-1.941,-0.363,0.0
15.063,-1.764,-0.411,0.0
22.981,-2.69,0.015,5.0
22.563,-2.645,-0.105,13.0
22.278,-2.616,-0.224,1.0
18.856,-2.218,-0.293,0.0
16.902,-1.991,-0.354,0.0
15.335,-1.81,-0.403,0.0
22.199,-2.619,0.036,16.0
22.488,-2.657,-0.083,13.0
22.364,-2.646,-0.203,8.0
19.185,-2.274,-0.28,0.0
17.118,-2.032,-0.341,0.0
15.57,-1.851,-0.394,0.0
22.179,-2.636,0.058,20.0
22.353,-2.661,-0.061,22.0
22.186,-2.645,-0.18,8.0
19.675,-2.349,-0.267,0.0
17.442,-2.085,-0.331,0.0
15.909,-1.905,-0.387,0.0
22.164,-2.653,0.08,21.0
22.2,-2.661,-0.039,15.0
22.169,-2.661,-0.158,4.0
20.052,-2.41,-0.252,0.0
17.704,-2.131,-0.318,0.0
16.108,-1.942,-0.376,0.0
22.164,-2.671,0.102,18.0
22.177,-2.676,-0.016,19.0
22.194,-2.681,-0.135,8.0
22.124,-2.676,-0.256,0.0
18.109,-2.193,-0.307,0.0
16.418,-1.991,-0.366,0.0
22.189,-2.69,0.125,10.0
22.184,-2.693,0.006,19.0
22.205,-2.699,-0.113,14.0
22.159,-2.697,-0.233,1.0
18.655,-2.273,-0.297,0.0
16.877,-2.059,-0.359,0.0
26.464,-3.228,0.177,5.0
22.197,-2.71,0.029,11.0
22.206,-2.714,-0.089,16.0
22.179,-2.714,-0.21,2.0
19.233,-2.356,-0.286,0.0
17.046,-2.091,-0.345,0.0
26.106,-3.201,0.202,2.0
25.722,-3.158,0.061,11.0
22.214,-2.73,-0.066,13.0
22.217,-2.733,-0.187,3.0
19.544,-2.407,-0.27,0.0
17.445,-2.151,-0.334,0.0
28.237,-3.48,0.248,0.0
25.731,-3.174,0.088,6.0
25.673,-3.17,-0.049,2.0
22.237,-2.749,-0.164,4.0
20.477,-2.534,-0.26,0.0
17.771,-2.201,-0.321,0.0
28.981,-3.589,0.286,0.0
25.973,-3.219,0.117,5.0
25.629,-3.179,-0.021,12.0
22.244,-2.762,-0.139,3.0
20.783,-2.583,-0.242,2.0
18.159,-2.259,-0.308,0.0
30.244,-3.762,0.332,1.0
26.19,-3.26,0.147,2.0
25.593,-3.188,0.006,12.0
24.304,-3.03,-0.126,0.0
21.779,-2.717,-0.229,4.0
18.668,-2.331,-0.297,0.0
31.238,-3.9,0.377,0.0
26.813,-3.35,0.18,1.0
25.552,-3.195,0.035,12.0
25.446,-3.184,-0.103,5.0
22.369,-2.801,-0.211,4.0
19.288,-2.417,-0.285,0.0
32.412,-4.061,0.427,0.0
27.74,-3.478,0.217,1.0
25.541,-3.204,0.063,10.0
25.53,-3.205,-0.075,10.0
22.469,-2.823,-0.187,4.0
19.694,-2.476,-0.269,0.0
33.817,-4.251,0.484,0.0
28.343,-3.565,0.253,0.0
25.594,-3.221,0.092,5.0
25.493,-3.21,-0.046,10.0
22.877,-2.882,-0.164,4.0
20.581,-2.594,-0.258,0.0
35.054,-4.419,0.541,0.0
29.127,-3.673,0.294,0.0
25.958,-3.275,0.123,1.0
25.474,-3.216,-0.017,13.0
23.629,-2.984,-0.143,2.0
20.788,-2.627,-0.237,1.0
0.0,0.0,0.0,0.0
30.576,-3.865,0.343,0.0
26.639,-3.369,0.156,1.0
25.456,-3.22,0.01,12.0
25.007,-3.165,-0.123,1.0
22.308,-2.825,-0.229,3.0
39.317,-4.979,0.695,1.0
31.649,-4.009,0.391,0.0
27.286,-3.457,0.19,1.0
25.436,-3.223,0.039,10.0
25.407,-3.221,-0.096,6.0
22.424,-2.844,-0.205,6.0
39.398,-4.997,0.742,1.0
33.205,-4.212,0.447,0.0
27.892,-3.539,0.226,1.0
25.469,-3.232,0.068,8.0
25.438,-3.229,-0.068,11.0
22.621,-2.873,-0.181,4.0
44.77,-5.686,0.894,0.0
34.143,-4.337,0.499,0.0
28.529,-3.624,0.264,0.0
25.671,-3.262,0.098,5.0
25.423,-3.231,-0.038,13.0
23.186,-2.947,-0.159,5.0
45.161,-5.741,0.954,0.0
35.825,-4.554,0.565,0.0
30.019,-3.816,0.312,1.0
26.195,-3.33,0.13,2.0
25.418,-3.232,-0.009,14.0
23.77,-3.023,-0.136,1.0
0.0,0.0,0.0,0.0
0.0,0.0,0.0,0.0
31.134,-3.96,0.36,0.0
26.807,-3.409,0.164,1.0
25.403,-3.231,0.019,11.0
25.299,-3.218,-0.115,4.0
0.0,0.0,0.0,0.0
0.0,0.0,0.0,0.0
32.726,-4.162,0.416,0.0
27.493,-3.497,0.199,1.0
25.415,-3.232,0.048,10.0
25.414,-3.232,-0.087,10.0
0.0,0.0,0.0,0.0
0.0,0.0,0.0,0.0
33.245,-4.227,0.46,0.0
28.067,-3.568,0.235,1.0
25.515,-3.243,0.077,5.0
25.425,-3.231,-0.058,12.0
0.0,0.0,0.0,0.0
44.714,-5.683,0.91,0.0
34.806,-4.423,0.522,0.0
28.789,-3.657,0.274,0.0
25.817,-3.279,0.108,4.0
25.433,-3.229,-0.029,13.0
0.0,0.0,0.0,0.0
48.076,-6.104,1.033,0.0
0.0,0.0,0.0,0.0
30.257,-3.839,0.323,0.0
26.33,-3.34,0.14,1.0
25.439,-3.226,0.0,13.0
0.0,0.0,0.0,0.0
0.0,0.0,0.0,0.0
39.347,-4.987,0.679,0.0
31.184,-3.951,0.368,0.0
27.149,-3.438,0.175,1.0
25.46,-3.223,0.028,11.0
0.0,0.0,0.0,0.0
0.0,0.0,0.0,0.0
39.324,-4.975,0.723,1.0
32.598,-4.122,0.421,1.0
27.757,-3.508,0.209,1.0
25.489,-3.22,0.056,9.0
0.0,0.0,0.0,0.0
0.0,0.0,0.0,0.0
44.539,-5.623,0.868,0.0
33.822,-4.267,0.474,0.0
28.329,-3.572,0.245,0.0
25.609,-3.228,0.084,5.0
0.0,0.0,0.0,0.0
66.471,-8.376,1.725,1.0
44.628,-5.62,0.918,0.0
35.296,-4.442,0.533,0.0
29.078,-3.657,0.283,0.0
25.919,-3.258,0.114,3.0
22.337,-2.809,0.724,1.0
0.0,0.0,0.0,0.0
0.0,0.0,0.0,0.0
0.0,0.0,0.0,0.0
30.778,-3.859,0.334,1.0
26.139,-3.275,0.143,2.0
22.313,-2.797,0.747,17.0
0.0,0.0,0.0,0.0
0.0,0.0,0.0,0.0
39.354,-4.921,0.68,2.0
31.536,-3.94,0.376,0.0
26.44,-3.301,0.173,1.0
22.291,-2.784,0.77,23.0
22.308,-2.784,0.651,0.0
0.0,0.0,0.0,0.0
39.392,-4.907,0.723,0.0
33.142,-4.125,0.43,1.0
26.113,-3.247,0.199,3.0
22.253,-2.769,0.793,19.0
22.266,-2.768,0.674,8.0
22.124,-2.747,0.55,0.0
22.186,-2.752,0.43,1.0
33.69,-4.176,0.473,0.0
26.016,-3.222,0.225,1.0
22.187,-2.749,0.814,20.0
22.224,-2.751,0.696,17.0
22.169,-2.741,0.575,8.0
22.161,-2.737,0.453,7.0
35.082,-4.328,0.528,0.0
29.128,-3.59,0.282,0.0
22.081,-2.723,0.833,10.0
22.2,-2.735,0.717,15.0
22.158,-2.726,0.597,16.0
22.178,-2.726,0.476,7.0
22.158,-2.72,0.356,2.0
30.667,-3.761,0.328,0.0
21.999,-2.7,0.852,8.0
22.017,-2.698,0.734,18.0
22.118,-2.708,0.618,14.0
22.157,-2.709,0.497,13.0
22.14,-2.704,0.378,13.0
22.412,-2.734,0.262,0.0
21.999,-2.685,0.874,10.0
22.006,-2.683,0.755,29.0
21.989,-2.677,0.636,16.0
22.137,-2.691,0.519,17.0
22.13,-2.687,0.399,17.0
22.217,-2.694,0.282,12.0
21.999,-2.67,0.895,10.0
21.983,-2.664,0.776,20.0
21.976,-2.66,0.657,21.0
22.121,-2.673,0.54,17.0
22.122,-2.67,0.421,18.0
22.124,-2.667,0.301,17.0
22.006,-2.654,0.917,9.0
21.999,-2.649,0.798,9.0
21.991,-2.645,0.679,19.0
22.119,-2.656,0.561,18.0
22.13,-2.654,0.442,18.0
22.124,-2.649,0.322,20.0
22.033,-2.64,0.939,7.0
22.052,-2.638,0.821,8.0
22.117,-2.642,0.703,13.0
22.132,-2.64,0.582,17.0
22.131,-2.635,0.462,17.0
22.109,-2.629,0.343,20.0
22.129,-2.633,0.963,15.0
22.152,-2.632,0.844,15.0
22.188,-2.632,0.726,17.0
22.144,-2.622,0.603,15.0
22.153,-2.619,0.483,13.0
22.118,-2.611,0.363,19.0
22.155,-2.617,0.985,19.0
22.164,-2.614,0.865,15.0
22.219,-2.616,0.747,14.0
22.182,-2.607,0.623,14.0
22.18,-2.602,0.503,11.0
22.133,-2.592,0.382,16.0
22.161,-2.598,1.004,16.0
22.165,-2.594,0.884,15.0
22.223,-2.595,0.766,14.0
22.3,-2.6,0.646,13.0
22.314,-2.597,0.525,10.0
22.175,-2.576,0.402,12.0
22.161,-2.577,1.023,14.0
22.182,-2.574,0.904,12.0
22.22,-2.574,0.785,15.0
22.397,-2.589,0.668,5.0
22.435,-2.589,0.547,3.0
22.479,-2.589,0.427,3.0
22.176,-2.557,1.042,12.0
22.206,-2.555,0.923,11.0
22.272,-2.557,0.805,8.0
98.536,-11.293,3.02,5.0
98.523,-11.27,2.485,5.0
0.0,0.0,0.0,0.0
22.23,-2.54,1.063,8.0
22.265,-2.539,0.944,5.0
22.309,-2.538,0.824,1.0
0.0,0.0,0.0,0.0
0.0,0.0,0.0,0.0
0.0,0.0,0.0,0.0
22.325,-2.527,1.085,0.0
153.779,-17.369,6.641,5.0
0.0,0.0,0.0,0.0
0.0,0.0,0.0,0.0
0.0,0.0,0.0,0.0
0.0,0.0,0.0,0.0
162.177,-18.18,8.009,4.0
0.0,0.0,0.0,0.0
153.775,-17.16,5.918,11.0
0.0,0.0,0.0,0.0
0.0,0.0,0.0,0.0
0.0,0.0,0.0,0.0
159.195,-17.665,7.977,16.0
155.378,-17.2,6.939,7.0
153.785,-16.982,6.031,5.0
0.0,0.0,0.0,0.0
37.249,-4.094,1.05,0.0
37.272,-4.088,0.849,0.0
159.417,-17.5,8.1,17.0
155.399,-17.016,7.048,10.0
36.57,-3.995,1.458,0.0
37.367,-4.072,1.283,0.0
36.467,-3.964,1.053,1.0
36.549,-3.964,0.857,1.0
159.58,-17.323,8.215,17.0
160.195,-17.346,7.373,6.0
36.5,-3.942,1.48,1.0
36.062,-3.885,1.261,0.0
35.601,-3.826,1.051,0.0
35.415,-3.797,0.853,1.0
159.329,-17.098,8.304,17.0
159.952,-17.121,7.462,18.0
36.664,-3.914,1.51,0.0
35.335,-3.762,1.258,1.0
34.356,-3.649,1.036,0.0
34.373,-3.642,0.849,0.0
159.096,-16.869,8.39,17.0
159.737,-16.892,7.547,20.0
155.209,-16.369,6.486,7.0
34.755,-3.656,1.258,0.0
34.152,-3.583,1.049,0.0
34.101,-3.568,0.862,0.0
158.838,-16.636,8.466,20.0
159.569,-16.665,7.631,18.0
36.547,-3.806,1.547,0.0
34.284,-3.561,1.26,0.0
33.961,-3.518,1.062,1.0
33.994,-3.512,0.877,1.0
158.869,-16.426,8.555,16.0
159.255,-16.418,7.701,20.0
35.605,-3.66,1.526,0.0
34.11,-3.496,1.272,0.0
33.931,-3.468,1.079,26.0
33.934,-3.459,0.893,3.0
158.779,-16.2,8.631,17.0
158.981,-16.173,7.768,17.0
35.177,-3.567,1.525,0.0
34.01,-3.439,1.285,0.0
33.924,-3.421,1.095,22.0
33.88,-3.406,0.908,4.0
158.882,-15.988,8.713,14.0
35.65,-3.576,1.759,1.0
34.728,-3.473,1.522,0.0
33.967,-3.387,1.299,1.0
33.896,-3.37,1.11,7.0
33.861,-3.357,0.923,6.0
159.024,-15.776,8.791,15.0
35.154,-3.476,1.749,0.0
34.511,-3.402,1.527,0.0
33.889,-3.331,1.31,1.0
33.847,-3.316,1.122,5.0
33.849,-3.307,0.937,8.0
160.156,-15.657,8.918,7.0
0.0,0.0,0.0,0.0
34.473,-3.348,1.539,0.0
33.916,-3.283,1.324,1.0
33.815,-3.263,1.134,6.0
33.829,-3.254,0.949,18.0
160.422,-15.442,8.994,15.0
0.0,0.0,0.0,0.0
34.383,-3.288,1.548,1.0
33.88,-3.229,1.335,1.0
33.797,-3.21,1.145,6.0
33.817,-3.202,0.96,21.0
149.756,-14.191,8.446,29.0
150.123,-14.176,7.639,12.0
34.474,-3.244,1.563,0.0
33.907,-3.18,1.347,1.0
33.788,-3.158,1.156,6.0
33.804,-3.149,0.97,29.0
150.28,-14.007,8.523,24.0
169.373,-15.73,8.669,6.0
0.0,0.0,0.0,0.0
33.863,-3.123,1.355,1.0
33.786,-3.105,1.166,6.0
33.793,-3.095,0.979,49.0
186.306,-17.072,10.615,63.0
169.696,-15.495,8.73,12.0
0.0,0.0,0.0,0.0
33.907,-3.073,1.365,1.0
33.79,-3.052,1.174,7.0
33.801,-3.042,0.988,74.0
209.139,-18.831,11.965,150.0
169.967,-15.248,8.781,12.0
34.467,-3.08,1.589,0.0
33.891,-3.018,1.372,1.0
33.811,-3.0,1.181,7.0
33.788,-2.987,0.994,96.0
209.165,-18.498,12.007,74.0
194.706,-17.152,10.096,56.0
34.446,-3.023,1.594,0.0
33.89,-2.963,1.378,1.0
33.814,-2.946,1.187,8.0
33.783,-2.932,0.999,121.0
209.192,-18.157,12.04,15.0
151.956,-13.139,7.902,150.0
34.502,-2.971,1.602,0.0
33.92,-2.91,1.383,0.0
33.803,-2.889,1.191,8.0
33.787,-2.877,1.003,130.0
151.951,-12.939,8.763,14.0
151.989,-12.889,7.919,150.0
0.0,0.0,0.0,0.0
34.005,-2.861,1.39,0.0
33.807,-2.833,1.194,14.0
33.791,-2.82,1.006,138.0
200.273,-16.718,11.566,11.0
200.176,-16.64,10.446,23.0
34.641,-2.867,1.614,0.0
33.897,-2.794,1.388,0.0
33.809,-2.776,1.196,9.0
33.798,-2.764,1.008,145.0
200.174,-16.375,11.568,10.0
200.205,-16.309,10.452,20.0
0.0,0.0,0.0,0.0
33.898,-2.738,1.388,0.0
33.809,-2.719,1.197,15.0
33.805,-2.708,1.008,133.0
0.0,0.0,0.0,0.0
200.155,-15.964,10.449,17.0
34.295,-2.723,1.599,0.0
33.872,-2.678,1.387,1.0
33.829,-2.663,1.197,8.0
33.817,-2.651,1.008,128.0
194.274,-15.228,11.219,6.0
200.291,-15.629,10.447,10.0
34.731,-2.698,1.617,0.0
33.882,-2.621,1.385,1.0
33.854,-2.607,1.195,7.0
33.825,-2.593,1.006,114.0
190.296,-14.584,10.973,11.0
0.0,0.0,0.0,0.0
0.0,0.0,0.0,0.0
33.885,-2.561,1.382,2.0
33.87,-2.549,1.192,12.0
33.835,-2.535,1.002,106.0
190.097,-14.237,10.939,8.0
0.0,0.0,0.0,0.0
0.0,0.0,0.0,0.0
33.87,-2.501,1.377,3.0
33.853,-2.488,1.187,5.0
33.839,-2.476,0.997,92.0
189.792,-13.88,10.891,12.0
0.0,0.0,0.0,0.0
0.0,0.0,0.0,0.0
33.874,-2.442,1.371,5.0
33.857,-2.429,1.181,7.0
33.865,-2.418,0.991,72.0
189.751,-13.538,10.849,12.0
0.0,0.0,0.0,0.0
0.0,0.0,0.0,0.0
33.897,-2.383,1.364,6.0
33.882,-2.37,1.174,7.0
33.889,-2.359,0.984,62.0
189.484,-13.18,10.789,8.0
157.141,-10.874,8.064,4.0
0.0,0.0,0.0,0.0
33.9,-2.322,1.355,8.0
33.891,-2.31,1.165,8.0
33.889,-2.298,0.975,46.0
92.164,-6.244,5.221,9.0
156.962,-10.579,8.01,13.0
0.0,0.0,0.0,0.0
33.919,-2.262,1.346,8.0
33.889,-2.248,1.154,9.0
33.912,-2.239,0.965,49.0
157.022,-10.352,8.845,15.0
0.0,0.0,0.0,0.0
34.522,-2.251,1.555,0.0
33.936,-2.202,1.335,8.0
33.919,-2.189,1.144,10.0
33.965,-2.18,0.954,55.0
157.007,-10.065,8.785,12.0
190.454,-12.142,9.583,6.0
34.544,-2.19,1.543,0.0
33.969,-2.142,1.323,7.0
33.946,-2.129,1.131,8.0
33.971,-2.119,0.941,15.0
188.193,-11.723,10.454,19.0
189.397,-11.734,9.454,6.0
34.607,-2.131,1.532,0.0
33.989,-2.082,1.31,5.0
33.976,-2.069,1.118,3.0
33.993,-2.059,0.927,7.0
188.193,-11.379,10.371,16.0
188.679,-11.343,9.331,7.0
0.0,0.0,0.0,0.0
34.047,-2.023,1.296,3.0
34.069,-2.013,1.105,23.0
34.032,-1.999,0.912,5.0
121.122,-7.103,6.616,7.0
188.586,-10.994,9.234,20.0
0.0,0.0,0.0,0.0
34.127,-1.966,1.282,1.0
34.153,-1.956,1.09,154.0
34.106,-1.942,0.896,3.0
123.148,-6.996,6.66,13.0
188.907,-10.665,9.148,22.0
0.0,0.0,0.0,0.0
34.2,-1.907,1.266,0.0
34.164,-1.894,1.071,235.0
34.162,-1.882,0.879,2.0
123.243,-6.775,6.596,5.0
190.202,-10.391,9.101,5.0
0.0,0.0,0.0,0.0
109.33,-5.899,3.984,86.0
34.181,-1.832,1.052,5.0
34.283,-1.826,0.861,0.0
188.844,-10.036,9.992,15.0
189.222,-9.99,8.939,6.0
0.0,0.0,0.0,0.0
109.374,-5.7,3.916,157.0
0.0,0.0,0.0,0.0
0.0,0.0,0.0,0.0
112.736,-5.783,5.89,6.0
189.52,-9.659,8.829,5.0
0.0,0.0,0.0,0.0
109.367,-5.5,3.843,26.0
0.0,0.0,0.0,0.0
0.0,0.0,0.0,0.0
189.395,-9.37,9.766,16.0
0.0,0.0,0.0,0.0
0.0,0.0,0.0,0.0
0.0,0.0,0.0,0.0
0.0,0.0,0.0,0.0
0.0,0.0,0.0,0.0
118.83,-5.66,6.04,6.0
164.423,-7.776,7.423,4.0
94.369,-4.432,3.724,5.0
94.137,-4.39,3.172,4.0
0.0,0.0,0.0,0.0
0.0,0.0,0.0,0.0
164.385,-7.531,8.23,14.0
0.0,0.0,0.0,0.0
92.798,-4.19,3.59,3.0
92.609,-4.151,3.048,4.0
0.0,0.0,0.0,0.0
0.0,0.0,0.0,0.0
120.246,-5.289,5.922,17.0
0.0,0.0,0.0,0.0
92.227,-3.996,3.492,31.0
92.687,-3.986,2.973,1.0
0.0,0.0,0.0,0.0
0.0,0.0,0.0,0.0
120.255,-5.071,5.82,12.0
92.819,-3.883,3.963,1.0
92.158,-3.825,3.41,152.0
92.629,-3.815,2.891,1.0
0.0,0.0,0.0,0.0
0.0,0.0,0.0,0.0
194.766,-7.86,9.254,17.0
92.158,-3.688,3.852,4.0
92.126,-3.658,3.326,60.0
0.0,0.0,0.0,0.0
0.0,0.0,0.0,0.0
0.0,0.0,0.0,0.0
113.432,-4.371,5.283,25.0
92.182,-3.523,3.767,20.0
92.113,-3.491,3.239,61.0
0.0,0.0,0.0,0.0
0.0,0.0,0.0,0.0
0.0,0.0,0.0,0.0
113.51,-4.171,5.177,10.0
92.194,-3.358,3.678,55.0
92.122,-3.326,3.149,42.0
0.0,0.0,0.0,0.0
0.0,0.0,0.0,0.0
42.811,-1.505,0.727,0.0
93.541,-3.269,4.171,1.0
92.244,-3.196,3.587,152.0
92.204,-3.166,3.059,13.0
0.0,0.0,0.0,0.0
0.0,0.0,0.0,0.0
0.0,0.0,0.0,0.0
0.0,0.0,0.0,0.0
92.258,-3.034,3.492,169.0
92.772,-3.022,2.981,6.0
0.0,0.0,0.0,0.0
0.0,0.0,0.0,0.0
0.0,0.0,0.0,0.0
0.0,0.0,0.0,0.0
92.252,-2.873,3.392,47.0
0.0,0.0,0.0,0.0
0.0,0.0,0.0,0.0
0.0,0.0,0.0,0.0
0.0,0.0,0.0,0.0
92.384,-2.744,3.823,5.0
92.3,-2.712,3.29,176.0
93.434,-2.717,2.796,1.0
0.0,0.0,0.0,0.0
0.0,0.0,0.0,0.0
0.0,0.0,0.0,0.0
92.476,-2.585,3.72,9.0
92.377,-2.555,3.186,189.0
0.0,0.0,0.0,0.0
0.0,0.0,0.0,0.0
0.0,0.0,0.0,0.0
0.0,0.0,0.0,0.0
0.0,0.0,0.0,0.0
107.216,-2.781,3.569,2.0
0.0,0.0,0.0,0.0
0.0,0.0,0.0,0.0
0.0,0.0,0.0,0.0
33.594,-0.832,0.345,0.0
128.47,-3.151,4.857,9.0
96.837,-2.347,3.105,5.0
0.0,0.0,0.0,0.0
0.0,0.0,0.0,0.0
0.0,0.0,0.0,0.0
33.31,-0.769,0.301,1.0
128.378,-2.932,4.692,29.0
0.0,0.0,0.0,0.0
0.0,0.0,0.0,0.0
0.0,0.0,0.0,0.0
37.582,-0.815,0.507,0.0
32.715,-0.7,0.253,1.0
97.008,-2.053,3.419,15.0
90.468,-1.889,2.669,1.0
0.0,0.0,0.0,0.0
43.848,-0.89,0.785,0.0
36.228,-0.725,0.441,0.0
30.973,-0.612,0.199,0.0
96.936,-1.892,3.289,33.0
0.0,0.0,0.0,0.0
0.0,0.0,0.0,0.0
0.0,0.0,0.0,0.0
34.12,-0.628,0.37,1.0
28.927,-0.524,0.147,0.0
96.839,-1.732,3.155,14.0
0.0,0.0,0.0,0.0
0.0,0.0,0.0,0.0
0.0,0.0,0.0,0.0
33.799,-0.567,0.32,2.0
28.663,-0.473,0.107,0.0
89.755,-1.462,2.8,4.0
0.0,0.0,0.0,0.0
47.765,-0.752,0.94,0.0
38.487,-0.595,0.532,0.0
32.564,-0.495,0.263,1.0
28.443,-0.425,0.066,1.0
86.418,-1.27,2.572,1.0
0.0,0.0,0.0,0.0
0.0,0.0,0.0,0.0
0.0,0.0,0.0,0.0
30.982,-0.422,0.205,0.0
27.473,-0.367,0.024,0.0
85.159,-1.117,2.411,3.0
0.0,0.0,0.0,0.0
0.0,0.0,0.0,0.0
33.894,-0.418,0.37,0.0
0.0,0.0,0.0,0.0
26.669,-0.315,-0.015,0.0
0.0,0.0,0.0,0.0
0.0,0.0,0.0,0.0
0.0,0.0,0.0,0.0
32.978,-0.356,0.311,1.0
28.776,-0.303,0.105,2.0
25.889,-0.266,-0.053,0.0
0.0,0.0,0.0,0.0
0.0,0.0,0.0,0.0
37.754,-0.36,0.52,0.0
32.184,-0.299,0.254,1.0
28.559,-0.258,0.061,3.0
24.949,-0.219,-0.089,0.0
0.0,0.0,0.0,0.0
44.49,-0.37,0.801,0.0
0.0,0.0,0.0,0.0
31.351,-0.245,0.2,1.0
27.388,-0.207,0.017,0.0
24.146,-0.177,-0.124,0.0
0.0,0.0,0.0,0.0
0.0,0.0,0.0,0.0
0.0,0.0,0.0,0.0
28.827,-0.183,0.138,6.0
26.509,-0.162,-0.025,0.0
23.12,-0.136,-0.155,0.0
0.0,0.0,0.0,0.0
0.0,0.0,0.0,0.0
33.022,-0.171,0.299,1.0
28.733,-0.142,0.092,6.0
25.446,-0.119,-0.065,0.0
22.312,-0.099,-0.186,0.0
47.797,-0.203,0.909,0.0
37.545,-0.15,0.497,0.0
31.57,-0.119,0.235,1.0
27.995,-0.099,0.044,1.0
24.568,-0.081,-0.102,0.0
21.429,-0.066,-0.213,0.0
43.522,-0.124,0.755,0.0
36.138,-0.095,0.419,0.0
29.207,-0.07,0.169,1.0
26.77,-0.058,-0.001,0.0
23.749,-0.046,-0.138,0.0
20.615,-0.035,-0.239,0.0
0.0,0.0,0.0,0.0
33.169,-0.042,0.329,0.0
28.758,-0.03,0.119,0.0
25.852,-0.021,-0.045,0.0
23.126,-0.014,-0.174,0.0
19.615,-0.007,-0.26,0.0
0.0,0.0,0.0,0.0
32.943,0.001,0.27,0.0
28.515,0.007,0.069,1.0
25.039,0.012,-0.086,0.0
21.582,0.015,-0.199,2.0
18.806,0.017,-0.282,0.0
36.446,0.041,0.447,0.0
0.0,0.0,0.0,0.0
27.204,0.042,0.019,0.0
23.894,0.042,-0.123,1.0
21.008,0.041,-0.23,2.0
18.128,0.039,-0.303,0.0
34.754,0.083,0.367,0.0
28.859,0.075,0.137,0.0
26.324,0.074,-0.026,0.0
23.148,0.07,-0.16,1.0
19.897,0.064,-0.252,0.0
17.455,0.059,-0.322,0.0
32.521,0.118,0.286,0.0
28.632,0.109,0.086,1.0
25.396,0.102,-0.07,0.0
22.032,0.093,-0.191,2.0
19.04,0.084,-0.275,0.0
16.909,0.078,-0.342,0.0
0.0,0.0,0.0,0.0
27.519,0.138,0.033,0.0
24.401,0.128,-0.111,0.0
21.051,0.114,-0.22,2.0
18.296,0.103,-0.297,0.0
16.492,0.096,-0.363,0.0
28.892,0.173,0.15,0.0
26.462,0.164,-0.015,0.0
23.365,0.149,-0.149,0.0
20.031,0.132,-0.246,0.0
17.546,0.119,-0.317,0.0
16.117,0.112,-0.384,0.0
28.771,0.206,0.097,3.0
25.445,0.187,-0.061,0.0
22.313,0.168,-0.183,2.0
19.073,0.147,-0.268,0.0
17.019,0.134,-0.338,0.0
15.619,0.126,-0.401,0.0
27.564,0.228,0.042,0.0
24.4,0.206,-0.103,0.0
21.37,0.184,-0.214,1.0
18.362,0.162,-0.293,0.0
16.574,0.149,-0.36,0.0
15.303,0.14,-0.421,0.0
26.404,0.247,-0.008,0.0
23.419,0.223,-0.143,0.0
20.217,0.196,-0.24,0.0
17.654,0.174,-0.314,0.0
16.145,0.162,-0.381,0.0
14.844,0.152,-0.437,0.0
25.545,0.265,-0.055,0.0
22.112,0.233,-0.176,1.0
18.957,0.203,-0.261,0.0
16.993,0.185,-0.334,0.0
15.66,0.173,-0.399,0.0
14.346,0.161,-0.449,0.0
24.451,0.278,-0.098,0.0
21.713,0.251,-0.213,1.0
18.487,0.216,-0.289,0.0
16.559,0.196,-0.357,0.0
15.289,0.184,-0.418,0.0
13.959,0.17,-0.463,0.0
23.49,0.29,-0.139,0.0
20.253,0.253,-0.237,0.0
17.773,0.225,-0.311,0.0
16.175,0.207,-0.379,0.0
14.785,0.192,-0.432,0.0
13.649,0.179,-0.478,0.0
22.369,0.297,-0.175,0.0
19.014,0.255,-0.259,0.0
17.093,0.232,-0.332,0.0
15.653,0.215,-0.396,0.0
14.375,0.2,-0.448,0.0
13.321,0.187,-0.492,0.0
21.346,0.303,-0.208,0.0
18.426,0.264,-0.286,0.0
16.626,0.24,-0.355,0.0
15.151,0.221,-0.413,0.0
14.041,0.207,-0.464,0.0
13.024,0.194,-0.506,0.0
20.189,0.303,-0.235,0.0
17.721,0.269,-0.309,0.0
16.15,0.247,-0.376,0.0
14.796,0.229,-0.432,0.0
13.719,0.214,-0.48,0.0
12.715,0.2,-0.519,0.0
19.227,0.305,-0.261,0.0
17.045,0.273,-0.331,0.0
15.697,0.253,-0.396,0.0
14.372,0.234,-0.447,0.0
13.294,0.218,-0.491,0.0
12.455,0.206,-0.533,0.0
18.398,0.306,-0.286,0.0
16.577,0.278,-0.354,0.0
15.267,0.258,-0.415,0.0
13.979,0.238,-0.462,0.0
13.03,0.224,-0.507,0.0
12.213,0.211,-0.546,0.0
17.699,0.308,-0.31,0.0
