X,Y,Z,Reflectivity
9.856,1.02,-0.651,0.0
9.363,0.968,-0.672,0.0
8.894,0.919,-0.69,0.0
8.498,0.877,-0.708,0.0
8.163,0.842,-0.727,0.0
10.355,1.064,-0.634,0.0
9.815,1.008,-0.657,0.0
9.261,0.951,-0.673,0.0
0.0,0.0,0.0,0.0
8.431,0.864,-0.71,0.0
8.097,0.83,-0.729,0.0
10.272,1.048,-0.638,0.0
9.684,0.987,-0.656,0.0
0.0,0.0,0.0,0.0
0.0,0.0,0.0,0.0
8.435,0.858,-0.718,0.0
0.0,0.0,0.0,0.0
10.152,1.028,-0.638,0.0
9.64,0.975,-0.661,0.0
0.0,0.0,0.0,0.0
8.752,0.884,-0.701,0.0
8.303,0.838,-0.713,0.0
0.0,0.0,0.0,0.0
10.114,1.015,-0.644,0.0
9.585,0.961,-0.665,0.0
0.0,0.0,0.0,0.0
8.677,0.869,-0.702,0.0
8.264,0.827,-0.716,0.0
0.0,0.0,0.0,0.0
10.004,0.996,-0.644,0.0
9.495,0.944,-0.666,0.0
0.0,0.0,0.0,0.0
8.634,0.857,-0.705,0.0
8.248,0.818,-0.721,0.0
0.0,0.0,0.0,0.0
9.961,0.982,-0.649,0.0
9.411,0.927,-0.667,0.0
0.0,0.0,0.0,0.0
0.0,0.0,0.0,0.0
8.241,0.81,-0.726,0.0
9.887,0.966,-0.651,0.0
9.403,0.918,-0.673,0.0
0.0,0.0,0.0,0.0
8.479,0.826,-0.704,0.0
8.171,0.795,-0.725,0.0
9.826,0.95,-0.653,0.0
9.32,0.9,-0.673,0.0
8.891,0.858,-0.692,0.0
0.0,0.0,0.0,0.0
8.134,0.783,-0.727,0.0
0.0,0.0,0.0,0.0
9.756,0.934,-0.655,0.0
9.387,0.897,-0.683,0.0
8.791,0.839,-0.69,0.0
8.413,0.802,-0.709,0.0
8.129,0.774,-0.732,0.0
0.0,0.0,0.0,0.0
9.688,0.917,-0.656,0.0
0.0,0.0,0.0,0.0
8.871,0.838,-0.701,0.0
8.332,0.786,-0.707,0.0
8.047,0.758,-0.729,0.0
0.0,0.0,0.0,0.0
9.668,0.905,-0.66,0.0
9.136,0.854,-0.675,0.0
8.744,0.817,-0.696,0.0
8.315,0.776,-0.71,0.0
0.0,0.0,0.0,0.0
7.643,0.711,-0.74,0.0
9.575,0.886,-0.658,0.0
0.0,0.0,0.0,0.0
8.715,0.805,-0.698,0.0
8.325,0.767,-0.715,0.0
0.0,0.0,0.0,0.0
7.644,0.703,-0.744,0.0
9.503,0.869,-0.658,0.0
0.0,0.0,0.0,0.0
0.0,0.0,0.0,0.0
8.303,0.756,-0.717,0.0
0.0,0.0,0.0,0.0
7.636,0.693,-0.746,0.0
9.487,0.857,-0.661,0.0
9.083,0.819,-0.684,0.0
8.651,0.779,-0.701,0.0
8.223,0.739,-0.714,0.0
0.0,0.0,0.0,0.0
7.599,0.681,-0.746,0.0
9.486,0.846,-0.665,0.0
9.049,0.805,-0.685,0.0
8.614,0.765,-0.701,0.0
8.212,0.729,-0.716,0.0
0.0,0.0,0.0,0.0
7.618,0.674,-0.751,0.0
9.439,0.83,-0.665,0.0
8.964,0.787,-0.682,0.0
8.533,0.748,-0.698,0.0
8.209,0.718,-0.718,0.0
0.0,0.0,0.0,0.0
7.544,0.658,-0.746,0.0
9.401,0.815,-0.665,0.0
8.918,0.772,-0.681,0.0
8.567,0.74,-0.703,0.0
8.202,0.708,-0.72,0.0
0.0,0.0,0.0,0.0
7.556,0.65,-0.749,0.0
9.405,0.804,-0.668,0.0
8.91,0.76,-0.683,0.0
8.528,0.726,-0.702,0.0
0.0,0.0,0.0,0.0
0.0,0.0,0.0,0.0
7.546,0.639,-0.75,0.0
9.349,0.787,-0.667,0.0
9.003,0.757,-0.693,0.0
8.525,0.715,-0.704,0.0
0.0,0.0,0.0,0.0
0.0,0.0,0.0,0.0
7.53,0.628,-0.75,0.0
9.331,0.774,-0.667,0.0
8.905,0.737,-0.687,0.0
0.0,0.0,0.0,0.0
0.0,0.0,0.0,0.0
0.0,0.0,0.0,0.0
7.493,0.615,-0.748,0.0
9.332,0.762,-0.669,0.0
8.885,0.724,-0.687,0.0
0.0,0.0,0.0,0.0
0.0,0.0,0.0,0.0
0.0,0.0,0.0,0.0
7.47,0.604,-0.747,0.0
9.296,0.747,-0.667,0.0
8.882,0.712,-0.688,0.0
0.0,0.0,0.0,0.0
0.0,0.0,0.0,0.0
0.0,0.0,0.0,0.0
7.478,0.594,-0.748,0.0
9.305,0.735,-0.669,0.0
8.88,0.7,-0.688,0.0
0.0,0.0,0.0,0.0
0.0,0.0,0.0,0.0
0.0,0.0,0.0,0.0
7.485,0.585,-0.749,0.0
9.314,0.723,-0.67,0.0
8.881,0.688,-0.689,0.0
8.449,0.653,-0.702,0.0
0.0,0.0,0.0,0.0
0.0,0.0,0.0,0.0
7.487,0.574,-0.75,0.0
9.346,0.712,-0.672,0.0
8.813,0.67,-0.683,0.0
8.478,0.643,-0.705,0.0
0.0,0.0,0.0,0.0
0.0,0.0,0.0,0.0
7.472,0.563,-0.748,0.0
9.325,0.698,-0.67,0.0
8.888,0.664,-0.689,0.0
0.0,0.0,0.0,0.0
0.0,0.0,0.0,0.0
0.0,0.0,0.0,0.0
7.475,0.552,-0.748,0.0
9.318,0.684,-0.669,0.0
8.781,0.643,-0.679,0.0
0.0,0.0,0.0,0.0
0.0,0.0,0.0,0.0
7.477,0.542,-0.747,0.0
9.289,0.669,-0.666,0.0
8.961,0.643,-0.692,0.0
0.0,0.0,0.0,0.0
0.0,0.0,0.0,0.0
7.463,0.53,-0.744,0.0
9.33,0.659,-0.667,0.0
0.0,0.0,0.0,0.0
0.0,0.0,0.0,0.0
0.0,0.0,0.0,0.0
7.473,0.52,-0.744,0.0
9.351,0.647,-0.667,0.0
8.938,0.616,-0.687,0.0
0.0,0.0,0.0,0.0
0.0,0.0,0.0,0.0
7.508,0.512,-0.745,0.0
9.347,0.633,-0.664,0.0
0.0,0.0,0.0,0.0
0.0,0.0,0.0,0.0
0.0,0.0,0.0,0.0
0.0,0.0,0.0,0.0
7.514,0.501,-0.744,0.0
9.398,0.623,-0.665,0.0
0.0,0.0,0.0,0.0
0.0,0.0,0.0,0.0
0.0,0.0,0.0,0.0
0.0,0.0,0.0,0.0
7.547,0.492,-0.744,0.0
9.448,0.612,-0.665,0.0
0.0,0.0,0.0,0.0
0.0,0.0,0.0,0.0
0.0,0.0,0.0,0.0
0.0,0.0,0.0,0.0
7.572,0.482,-0.744,0.0
9.482,0.6,-0.664,0.0
0.0,0.0,0.0,0.0
8.594,0.54,-0.697,0.0
0.0,0.0,0.0,0.0
0.0,0.0,0.0,0.0
0.0,0.0,0.0,0.0
9.451,0.584,-0.658,0.0
0.0,0.0,0.0,0.0
8.654,0.531,-0.698,0.0
0.0,0.0,0.0,0.0
0.0,0.0,0.0,0.0
0.0,0.0,0.0,0.0
9.586,0.579,-0.662,0.0
0.0,0.0,0.0,0.0
0.0,0.0,0.0,0.0
0.0,0.0,0.0,0.0
0.0,0.0,0.0,0.0
0.0,0.0,0.0,0.0
0.0,0.0,0.0,0.0
9.185,0.539,-0.68,0.0
0.0,0.0,0.0,0.0
0.0,0.0,0.0,0.0
0.0,0.0,0.0,0.0
0.0,0.0,0.0,0.0
9.605,0.551,-0.653,0.0
9.17,0.524,-0.674,0.0
0.0,0.0,0.0,0.0
0.0,0.0,0.0,0.0
0.0,0.0,0.0,0.0
0.0,0.0,0.0,0.0
9.628,0.538,-0.649,0.0
0.0,0.0,0.0,0.0
0.0,0.0,0.0,0.0
0.0,0.0,0.0,0.0
0.0,0.0,0.0,0.0
0.0,0.0,0.0,0.0
9.773,0.532,-0.653,0.0
0.0,0.0,0.0,0.0
0.0,0.0,0.0,0.0
0.0,0.0,0.0,0.0
0.0,0.0,0.0,0.0
0.0,0.0,0.0,0.0
9.755,0.516,-0.645,0.0
0.0,0.0,0.0,0.0
0.0,0.0,0.0,0.0
0.0,0.0,0.0,0.0
0.0,0.0,0.0,0.0
0.0,0.0,0.0,0.0
9.931,0.511,-0.649,0.0
9.402,0.482,-0.666,0.0
0.0,0.0,0.0,0.0
0.0,0.0,0.0,0.0
0.0,0.0,0.0,0.0
0.0,0.0,0.0,0.0
9.935,0.496,-0.642,0.0
9.496,0.472,-0.665,0.0
0.0,0.0,0.0,0.0
0.0,0.0,0.0,0.0
0.0,0.0,0.0,0.0
0.0,0.0,0.0,0.0
9.977,0.484,-0.636,0.0
0.0,0.0,0.0,0.0
0.0,0.0,0.0,0.0
0.0,0.0,0.0,0.0
8.318,0.396,-0.713,0.0
0.0,0.0,0.0,0.0
10.031,0.472,-0.631,0.0
9.628,0.451,-0.658,0.0
0.0,0.0,0.0,0.0
0.0,0.0,0.0,0.0
8.357,0.385,-0.709,0.0
0.0,0.0,0.0,0.0
10.092,0.46,-0.626,0.0
9.675,0.439,-0.652,0.0
0.0,0.0,0.0,0.0
8.793,0.394,-0.689,0.0
0.0,0.0,0.0,0.0
0.0,0.0,0.0,0.0
10.281,0.453,-0.628,0.0
0.0,0.0,0.0,0.0
0.0,0.0,0.0,0.0
0.0,0.0,0.0,0.0
0.0,0.0,0.0,0.0
0.0,0.0,0.0,0.0
10.363,0.442,-0.623,0.0
0.0,0.0,0.0,0.0
0.0,0.0,0.0,0.0
0.0,0.0,0.0,0.0
8.532,0.356,-0.698,0.0
8.236,0.342,-0.719,0.0
10.487,0.432,-0.619,0.0
9.997,0.41,-0.644,0.0
0.0,0.0,0.0,0.0
0.0,0.0,0.0,0.0
8.582,0.346,-0.693,0.0
8.279,0.332,-0.714,0.0
10.513,0.418,-0.61,0.0
10.076,0.399,-0.639,0.0
0.0,0.0,0.0,0.0
0.0,0.0,0.0,0.0
0.0,0.0,0.0,0.0
8.316,0.321,-0.708,0.0
10.615,0.407,-0.604,0.0
10.134,0.386,-0.631,0.0
9.657,0.366,-0.653,0.0
0.0,0.0,0.0,0.0
0.0,0.0,0.0,0.0
8.415,0.313,-0.706,0.0
10.776,0.398,-0.601,0.0
10.239,0.376,-0.626,0.0
0.0,0.0,0.0,0.0
0.0,0.0,0.0,0.0
0.0,0.0,0.0,0.0
8.502,0.304,-0.704,0.0
10.986,0.391,-0.6,0.0
10.358,0.366,-0.621,0.0
9.95,0.349,-0.65,0.0
0.0,0.0,0.0,0.0
0.0,0.0,0.0,0.0
8.547,0.294,-0.697,0.0
11.026,0.377,-0.588,0.0
10.506,0.357,-0.617,0.0
9.936,0.335,-0.636,0.0
0.0,0.0,0.0,0.0
8.988,0.299,-0.673,0.0
8.651,0.286,-0.694,0.0
11.226,0.368,-0.585,0.0
10.615,0.346,-0.61,0.0
10.172,0.329,-0.639,0.0
9.618,0.309,-0.656,0.0
9.141,0.292,-0.673,0.0
0.0,0.0,0.0,0.0
11.363,0.358,-0.577,0.0
10.694,0.334,-0.6,0.0
10.224,0.317,-0.629,0.0
0.0,0.0,0.0,0.0
0.0,0.0,0.0,0.0
8.851,0.269,-0.687,0.0
11.554,0.348,-0.572,0.0
10.885,0.326,-0.596,0.0
10.365,0.308,-0.623,0.0
0.0,0.0,0.0,0.0
9.423,0.275,-0.668,0.0
8.971,0.26,-0.684,0.0
11.733,0.338,-0.564,0.0
11.078,0.317,-0.592,0.0
10.48,0.297,-0.616,0.0
9.95,0.28,-0.638,0.0
9.487,0.265,-0.659,0.0
9.028,0.25,-0.676,0.0
11.852,0.326,-0.553,0.0
11.261,0.307,-0.586,0.0
10.66,0.289,-0.611,0.0
10.103,0.271,-0.634,0.0
9.608,0.256,-0.654,0.0
0.0,0.0,0.0,0.0
12.132,0.318,-0.549,0.0
11.437,0.297,-0.578,0.0
10.783,0.278,-0.602,0.0
10.252,0.262,-0.628,0.0
9.749,0.247,-0.649,0.0
9.305,0.234,-0.669,0.0
12.339,0.308,-0.54,0.0
11.636,0.288,-0.571,0.0
11.019,0.27,-0.599,0.0
10.397,0.253,-0.622,0.0
9.872,0.238,-0.643,0.0
0.0,0.0,0.0,0.0
12.514,0.297,-0.529,0.0
11.804,0.278,-0.562,0.0
11.13,0.26,-0.589,0.0
10.547,0.244,-0.615,0.0
10.0,0.229,-0.636,0.0
9.573,0.217,-0.659,0.0
12.734,0.287,-0.519,0.0
11.938,0.267,-0.55,0.0
11.349,0.251,-0.583,0.0
10.691,0.235,-0.606,0.0
10.207,0.222,-0.633,0.0
9.698,0.209,-0.653,0.0
12.987,0.278,-0.509,0.0
12.251,0.26,-0.545,0.0
11.543,0.242,-0.575,0.0
10.856,0.225,-0.599,0.0
10.302,0.212,-0.622,0.0
9.849,0.201,-0.647,0.0
13.239,0.268,-0.498,0.0
12.465,0.249,-0.534,0.0
11.727,0.232,-0.565,0.0
11.06,0.217,-0.592,0.0
10.54,0.205,-0.62,0.0
10.008,0.192,-0.641,0.0
13.541,0.258,-0.487,0.0
12.667,0.239,-0.522,0.0
11.942,0.223,-0.555,0.0
11.281,0.208,-0.585,0.0
10.64,0.194,-0.608,0.0
10.191,0.184,-0.636,0.0
13.794,0.248,-0.473,0.0
12.938,0.23,-0.512,0.0
12.248,0.215,-0.549,0.0
11.485,0.199,-0.576,0.0
10.874,0.187,-0.603,0.0
10.314,0.175,-0.626,0.0
14.056,0.237,-0.458,0.0
13.188,0.22,-0.499,0.0
12.447,0.205,-0.537,0.0
11.72,0.191,-0.568,0.0
11.117,0.179,-0.597,0.0
10.489,0.167,-0.618,0.0
14.357,0.227,-0.444,0.0
13.473,0.21,-0.487,0.0
12.677,0.195,-0.524,0.0
11.918,0.182,-0.557,0.0
11.257,0.169,-0.585,0.0
10.636,0.158,-0.608,0.0
14.747,0.217,-0.43,0.0
13.763,0.2,-0.473,0.0
12.964,0.186,-0.513,0.0
12.185,0.173,-0.548,0.0
11.518,0.161,-0.578,0.0
10.846,0.15,-0.601,0.0
15.197,0.209,-0.416,0.0
14.025,0.19,-0.457,0.0
13.236,0.177,-0.5,0.0
12.372,0.163,-0.534,0.0
11.744,0.153,-0.568,0.0
11.061,0.142,-0.593,0.0
15.7,0.2,-0.401,0.0
14.334,0.18,-0.441,0.0
13.487,0.167,-0.485,0.0
12.687,0.155,-0.524,0.0
11.935,0.144,-0.555,0.0
11.289,0.134,-0.584,0.0
16.171,0.191,-0.384,0.0
14.84,0.173,-0.429,0.0
13.799,0.158,-0.471,0.0
12.921,0.146,-0.51,0.0
12.27,0.136,-0.548,0.0
11.532,0.126,-0.575,0.0
16.579,0.18,-0.363,0.0
15.426,0.165,-0.418,0.0
14.097,0.149,-0.455,0.0
13.245,0.137,-0.498,0.0
12.482,0.128,-0.534,0.0
11.778,0.118,-0.565,0.0
16.992,0.17,-0.34,0.0
15.773,0.155,-0.397,0.0
14.621,0.141,-0.444,0.0
13.556,0.129,-0.484,0.0
12.766,0.119,-0.522,0.0
11.977,0.11,-0.552,0.0
17.585,0.16,-0.319,0.0
16.282,0.146,-0.379,0.0
14.947,0.132,-0.426,0.0
13.905,0.12,-0.47,0.0
13.082,0.111,-0.51,0.0
12.343,0.103,-0.545,0.0
18.424,0.153,-0.298,0.0
16.747,0.136,-0.358,0.0
15.449,0.123,-0.41,0.0
14.215,0.111,-0.453,0.0
13.335,0.103,-0.494,0.0
12.525,0.095,-0.529,0.0
19.189,0.144,-0.273,0.0
17.265,0.127,-0.335,0.0
15.947,0.115,-0.392,0.0
14.604,0.103,-0.436,0.0
13.643,0.094,-0.478,0.0
12.891,0.087,-0.519,0.0
20.316,0.136,-0.249,0.0
17.941,0.118,-0.313,0.0
16.402,0.106,-0.371,0.0
15.087,0.095,-0.421,0.0
13.954,0.086,-0.462,0.0
13.148,0.08,-0.503,0.0
21.296,0.127,-0.219,3.0
18.703,0.109,-0.289,0.0
16.89,0.097,-0.348,0.0
15.684,0.088,-0.407,0.0
14.348,0.078,-0.446,0.0
13.504,0.072,-0.49,0.0
22.365,0.118,-0.185,1.0
19.689,0.101,-0.265,0.0
17.455,0.088,-0.325,0.0
16.153,0.079,-0.386,0.0
14.9,0.071,-0.433,0.0
13.876,0.065,-0.475,0.0
23.359,0.108,-0.146,0.0
20.9,0.094,-0.239,1.0
18.329,0.08,-0.304,0.0
16.653,0.071,-0.364,0.0
15.429,0.064,-0.417,0.0
14.209,0.057,-0.457,0.0
24.703,0.098,-0.105,0.0
21.78,0.084,-0.204,2.0
18.961,0.071,-0.276,0.0
17.17,0.063,-0.34,0.0
15.845,0.056,-0.396,0.0
14.617,0.05,-0.441,0.0
25.736,0.087,-0.056,0.0
23.19,0.076,-0.17,1.0
20.188,0.064,-0.252,0.0
17.835,0.055,-0.317,0.0
16.44,0.049,-0.377,0.0
15.173,0.043,-0.426,0.0
26.964,0.076,-0.003,0.0
24.1,0.065,-0.127,0.0
21.289,0.056,-0.222,4.0
18.635,0.047,-0.292,0.0
16.905,0.041,-0.352,0.0
15.64,0.037,-0.407,0.0
28.508,0.065,0.054,1.0
25.273,0.056,-0.081,0.0
22.266,0.047,-0.186,0.0
19.547,0.039,-0.266,0.0
17.481,0.034,-0.328,0.0
16.232,0.03,-0.388,0.0
28.751,0.052,0.115,0.0
26.38,0.045,-0.029,0.0
23.666,0.038,-0.148,1.0
20.944,0.032,-0.241,2.0
18.3,0.027,-0.305,0.0
16.676,0.023,-0.364,0.0
30.616,0.041,0.187,0.0
27.474,0.035,0.026,0.0
24.909,0.03,-0.104,0.0
21.765,0.024,-0.205,1.0
19.257,0.02,-0.28,0.0
17.217,0.017,-0.339,0.0
32.87,0.03,0.27,0.0
28.758,0.024,0.088,1.0
26.015,0.02,-0.053,0.0
23.426,0.017,-0.171,0.0
20.548,0.013,-0.256,0.0
17.999,0.01,-0.316,0.0
34.434,0.019,0.356,0.0
30.255,0.014,0.157,0.0
27.105,0.011,0.001,0.0
24.16,0.009,-0.125,0.0
21.299,0.006,-0.22,4.0
18.76,0.004,-0.29,0.0
36.634,0.007,0.457,0.0
31.525,0.004,0.23,0.0
28.536,0.002,0.062,1.0
25.48,0.001,-0.078,0.0
22.614,0.0,-0.185,0.0
19.941,-0.001,-0.266,0.0
0.0,0.0,0.0,0.0
33.131,-0.004,0.312,0.0
29.224,-0.005,0.125,0.0
26.436,-0.006,-0.025,0.0
23.766,-0.006,-0.144,1.0
21.052,-0.006,-0.236,3.0
42.837,-0.016,0.716,0.0
0.0,0.0,0.0,0.0
31.166,-0.014,0.2,0.0
27.9,-0.013,0.032,0.0
25.06,-0.013,-0.099,0.0
22.021,-0.012,-0.2,0.0
0.0,0.0,0.0,0.0
38.462,-0.024,0.527,0.0
33.155,-0.022,0.283,0.0
28.71,-0.02,0.095,1.0
26.104,-0.019,-0.047,0.0
23.578,-0.017,-0.164,1.0
0.0,0.0,0.0,0.0
42.789,-0.035,0.678,0.0
0.0,0.0,0.0,0.0
30.325,-0.026,0.166,0.0
27.341,-0.024,0.008,0.0
24.497,-0.022,-0.118,0.0
0.0,0.0,0.0,0.0
0.0,0.0,0.0,0.0
37.329,-0.037,0.479,0.0
31.51,-0.032,0.239,0.0
28.716,-0.029,0.071,4.0
25.711,-0.026,-0.068,0.0
78.657,-0.085,1.99,3.0
0.0,0.0,0.0,0.0
40.131,-0.044,0.603,0.0
33.325,-0.037,0.325,0.0
28.907,-0.032,0.134,0.0
26.868,-0.03,-0.013,0.0
78.719,-0.092,2.159,4.0
0.0,0.0,0.0,0.0
0.0,0.0,0.0,0.0
36.129,-0.042,0.429,0.0
31.52,-0.037,0.213,0.0
28.6,-0.033,0.046,3.0
82.832,-0.101,2.451,5.0
0.0,0.0,0.0,0.0
0.0,0.0,0.0,0.0
39.565,-0.047,0.556,0.0
33.201,-0.039,0.295,0.0
28.828,-0.034,0.108,3.0
83.264,-0.102,2.641,2.0
78.67,-0.095,2.091,7.0
0.0,0.0,0.0,0.0
0.0,0.0,0.0,0.0
0.0,0.0,0.0,0.0
30.797,-0.035,0.181,0.0
105.631,-0.126,3.576,2.0
82.834,-0.097,2.377,3.0
0.0,0.0,0.0,0.0
0.0,0.0,0.0,0.0
37.915,-0.042,0.498,0.0
33.084,-0.036,0.265,0.0
108.851,-0.123,3.916,10.0
83.15,-0.092,2.564,4.0
78.679,-0.085,2.021,6.0
0.0,0.0,0.0,0.0
40.419,-0.041,0.617,0.0
34.527,-0.034,0.35,0.0
0.0,0.0,0.0,0.0
99.717,-0.099,3.288,1.0
78.622,-0.075,2.186,1.0
0.0,0.0,0.0,0.0
0.0,0.0,0.0,0.0
37.266,-0.031,0.456,0.0
0.0,0.0,0.0,0.0
108.507,-0.092,3.807,11.0
82.925,-0.066,2.481,8.0
78.629,-0.06,1.94,1.0
0.0,0.0,0.0,0.0
0.0,0.0,0.0,0.0
204.212,-0.145,8.646,7.0
0.0,0.0,0.0,0.0
83.351,-0.051,2.669,5.0
78.287,-0.044,2.094,3.0
0.0,0.0,0.0,0.0
42.977,-0.019,0.706,0.0
202.356,-0.1,8.991,9.0
0.0,0.0,0.0,0.0
83.427,-0.032,2.845,6.0
82.743,-0.027,2.385,5.0
0.0,0.0,0.0,0.0
0.0,0.0,0.0,0.0
201.779,-0.049,9.386,19.0
0.0,0.0,0.0,0.0
108.925,-0.013,3.939,7.0
83.183,-0.005,2.57,12.0
77.763,0.0,2.002,2.0
0.0,0.0,0.0,0.0
201.502,0.008,9.789,26.0
202.606,0.021,8.796,6.0
0.0,0.0,0.0,0.0
83.29,0.02,2.747,22.0
77.788,0.024,2.164,2.0
0.0,0.0,0.0,0.0
201.347,0.073,10.201,13.0
201.883,0.089,9.182,23.0
0.0,0.0,0.0,0.0
83.284,0.049,2.918,25.0
82.991,0.055,2.477,8.0
0.0,0.0,0.0,0.0
151.071,0.109,7.965,37.0
201.578,0.163,9.584,21.0
202.318,0.18,8.573,8.0
83.295,0.081,3.088,27.0
83.299,0.088,2.658,6.0
77.249,0.088,2.065,3.0
151.05,0.169,8.271,42.0
201.382,0.243,9.984,19.0
83.301,0.107,3.697,11.0
83.318,0.115,3.259,30.0
83.257,0.123,2.825,12.0
82.707,0.129,2.378,1.0
151.022,0.234,8.575,32.0
83.338,0.137,4.298,7.0
83.291,0.144,3.864,19.0
83.286,0.152,3.422,34.0
83.258,0.16,2.989,35.0
83.183,0.169,2.556,12.0
83.251,0.167,4.892,15.0
83.333,0.176,4.464,12.0
83.267,0.184,4.027,28.0
83.284,0.192,3.587,46.0
83.259,0.201,3.154,38.0
83.186,0.209,2.718,12.0
83.257,0.209,5.057,24.0
83.248,0.217,4.622,20.0
83.24,0.226,4.189,28.0
83.251,0.235,3.749,46.0
83.24,0.244,3.315,39.0
83.239,0.253,2.883,14.0
83.162,0.253,5.215,31.0
83.186,0.262,4.784,23.0
83.22,0.272,4.352,26.0
83.223,0.281,3.91,48.0
83.264,0.291,3.479,45.0
83.282,0.301,3.048,39.0
83.149,0.3,5.378,13.0
83.175,0.31,4.944,34.0
83.227,0.32,4.513,26.0
83.238,0.33,4.072,36.0
83.281,0.34,3.64,38.0
83.303,0.351,3.208,37.0
79.441,0.335,5.289,81.0
83.162,0.361,5.103,27.0
83.204,0.371,4.672,27.0
83.232,0.382,4.232,31.0
83.3,0.392,3.801,14.0
83.302,0.404,3.367,6.0
62.808,0.304,4.303,13.0
79.424,0.395,5.025,46.0
83.211,0.425,4.83,10.0
79.291,0.415,4.181,8.0
79.364,0.426,3.771,8.0
79.359,0.437,3.356,14.0
62.831,0.346,4.423,26.0
79.364,0.448,5.172,17.0
79.341,0.459,4.754,5.0
79.317,0.47,4.33,10.0
79.296,0.481,3.915,10.0
79.371,0.492,3.505,13.0
63.002,0.392,4.553,24.0
79.31,0.504,5.316,4.0
79.255,0.515,4.897,3.0
79.313,0.527,4.476,8.0
79.34,0.539,4.064,9.0
79.373,0.55,3.65,10.0
63.171,0.439,4.682,26.0
76.866,0.545,5.292,13.0
79.288,0.574,5.044,3.0
79.225,0.585,4.616,3.0
79.329,0.598,4.206,6.0
79.341,0.609,3.791,7.0
63.464,0.489,4.817,28.0
62.825,0.493,4.438,27.0
76.545,0.612,5.005,13.0
79.286,0.646,4.759,2.0
79.349,0.659,4.347,8.0
79.383,0.671,3.933,8.0
63.544,0.54,4.936,39.0
63.079,0.545,4.568,27.0
76.712,0.675,5.15,24.0
76.717,0.687,4.74,4.0
79.336,0.723,4.485,7.0
79.353,0.736,4.07,8.0
63.29,0.589,5.027,39.0
63.353,0.599,4.698,7.0
76.287,0.734,5.255,21.0
79.503,0.778,5.049,9.0
89.708,0.893,5.226,13.0
90.594,0.916,4.803,12.0
62.5,0.635,5.073,20.0
63.401,0.654,4.811,8.0
76.061,0.797,5.37,28.0
76.459,0.814,4.986,20.0
76.685,0.829,4.598,17.0
90.707,0.996,4.961,17.0
57.328,0.632,4.75,14.0
63.413,0.71,4.918,23.0
63.265,0.719,4.573,14.0
76.238,0.879,5.099,24.0
76.522,0.895,4.715,26.0
76.621,0.91,4.318,14.0
62.671,0.748,5.299,26.0
62.828,0.761,4.978,20.0
63.346,0.778,4.684,25.0
76.13,0.948,5.219,19.0
76.434,0.965,4.835,42.0
76.51,0.98,4.437,28.0
62.756,0.808,5.409,19.0
62.83,0.82,5.082,18.0
59.073,0.781,4.464,19.0
63.122,0.846,4.43,22.0
76.474,1.039,4.962,21.0
76.53,1.053,4.562,18.0
59.041,0.817,5.184,15.0
59.117,0.828,4.876,27.0
59.052,0.838,4.557,8.0
63.295,0.91,4.542,12.0
76.446,1.113,5.081,17.0
76.58,1.129,4.685,23.0
58.717,0.871,5.25,34.0
59.085,0.887,4.967,33.0
59.096,0.897,4.653,27.0
77.29,1.188,5.668,29.0
76.675,1.193,5.216,27.0
76.663,1.207,4.808,15.0
57.247,0.906,5.206,32.0
58.965,0.944,5.048,33.0
63.736,1.033,5.116,8.0
83.413,1.367,6.243,15.0
76.767,1.273,5.338,17.0
84.757,1.422,5.443,11.0
57.275,0.967,5.296,27.0
0.0,0.0,0.0,0.0
67.701,1.167,5.537,5.0
83.433,1.455,6.37,13.0
84.192,1.485,5.979,18.0
89.011,1.587,5.849,8.0
57.496,1.031,5.402,30.0
57.348,1.04,5.081,19.0
62.557,1.146,5.207,17.0
63.198,1.169,4.917,23.0
76.786,1.436,5.563,11.0
84.823,1.603,5.694,9.0
49.522,0.941,4.724,11.0
57.359,1.101,5.164,31.0
62.222,1.207,5.268,11.0
63.051,1.235,4.994,28.0
76.836,1.52,5.676,14.0
82.577,1.651,5.659,24.0
49.189,0.989,4.761,10.0
57.083,1.16,5.219,31.0
55.856,1.146,4.807,6.0
63.184,1.308,5.092,20.0
83.446,1.745,6.279,27.0
82.645,1.745,5.777,11.0
49.266,1.046,4.836,21.0
57.539,1.233,5.339,31.0
55.842,1.208,4.881,21.0
63.148,1.379,5.174,12.0
76.916,1.695,5.89,11.0
82.9,1.844,5.905,11.0
49.219,1.101,4.898,15.0
57.725,1.303,5.433,22.0
56.082,1.278,4.976,29.0
63.204,1.452,5.262,18.0
76.916,1.784,5.99,14.0
82.777,1.937,6.003,24.0
55.024,1.296,5.547,19.0
62.472,1.483,5.961,15.0
56.281,1.348,5.066,30.0
63.158,1.525,5.338,19.0
77.369,1.884,6.123,10.0
82.69,2.031,6.099,16.0
49.695,1.228,5.072,19.0
61.562,1.534,5.95,19.0
56.534,1.42,5.158,30.0
55.949,1.417,4.797,19.0
64.451,1.645,5.179,9.0
82.812,2.132,6.208,24.0
54.776,1.419,5.657,9.0
49.147,1.282,4.809,14.0
56.928,1.498,5.262,32.0
62.998,1.671,5.476,12.0
64.646,1.727,5.27,34.0
62.393,1.68,4.751,16.0
49.508,1.342,5.171,22.0
49.224,1.345,4.874,21.0
56.543,1.556,5.292,13.0
56.103,1.555,4.941,26.0
73.608,2.056,6.085,8.0
62.288,1.753,4.813,20.0
49.487,1.403,5.225,14.0
49.301,1.407,4.937,22.0
50.137,1.441,4.749,24.0
56.271,1.63,5.018,20.0
62.404,1.82,5.227,25.0
62.361,1.831,4.886,24.0
49.405,1.461,5.27,24.0
50.059,1.491,5.067,25.0
50.545,1.515,4.842,22.0
56.203,1.697,5.072,13.0
62.576,1.903,5.308,32.0
62.424,1.911,4.956,7.0
49.479,1.525,5.33,16.0
50.753,1.575,5.191,21.0
50.622,1.581,4.901,24.0
49.99,1.572,4.562,24.0
50.929,1.612,4.371,11.0
64.202,2.046,5.162,9.0
46.048,1.478,5.007,17.0
50.754,1.639,5.242,24.0
50.582,1.644,4.948,24.0
53.983,1.766,4.981,5.0
50.96,1.678,4.424,12.0
64.054,2.123,5.212,20.0
46.101,1.538,5.059,28.0
50.992,1.712,5.316,11.0
50.343,1.7,4.972,22.0
50.488,1.716,4.706,24.0
56.053,1.917,4.919,19.0
56.253,1.936,4.629,20.0
46.114,1.598,5.103,38.0
48.625,1.695,5.114,22.0
50.845,1.783,5.069,24.0
54.041,1.907,5.086,7.0
56.061,1.989,4.969,9.0
56.124,2.004,4.669,30.0
46.044,1.655,5.136,38.0
48.53,1.755,5.146,22.0
50.951,1.853,5.123,24.0
50.532,1.848,4.799,25.0
53.992,1.986,4.832,7.0
55.975,2.072,4.704,25.0
46.048,1.716,5.176,34.0
51.087,1.914,5.46,7.0
50.602,1.907,5.13,14.0
50.088,1.898,4.798,28.0
50.171,1.911,4.531,22.0
56.29,2.156,4.775,24.0
45.248,1.746,5.122,20.0
61.818,2.397,6.656,22.0
50.619,1.974,5.172,13.0
50.143,1.966,4.842,29.0
49.921,1.967,4.546,26.0
56.436,2.236,4.83,26.0
45.412,1.812,5.175,24.0
48.591,1.949,5.269,8.0
56.297,2.27,5.793,7.0
50.241,2.036,4.888,37.0
49.893,2.032,4.58,26.0
56.542,2.315,4.879,28.0
45.534,1.877,5.221,31.0
48.605,2.013,5.304,15.0
48.388,2.015,5.013,17.0
50.246,2.102,4.923,20.0
54.007,2.27,4.994,19.0
56.586,2.39,4.92,20.0
45.559,1.938,5.254,39.0
49.561,2.119,5.441,11.0
48.362,2.077,5.041,22.0
50.247,2.169,4.955,31.0
0.0,0.0,0.0,0.0
55.149,2.403,4.83,29.0
45.61,2.001,5.288,23.0
48.305,2.129,5.332,22.0
48.386,2.142,5.073,22.0
50.315,2.237,4.991,22.0
49.654,2.218,4.651,19.0
54.804,2.46,4.831,30.0
45.562,2.059,5.309,29.0
48.335,2.194,5.363,34.0
49.397,2.252,5.206,18.0
50.341,2.305,5.021,31.0
49.606,2.281,4.674,18.0
55.415,2.56,4.914,23.0
45.604,2.122,5.338,33.0
48.264,2.256,5.38,34.0
49.441,2.32,5.237,9.0
50.541,2.382,5.067,24.0
49.646,2.349,4.702,22.0
55.591,2.642,4.957,6.0
45.629,2.184,5.363,35.0
48.254,2.319,5.402,36.0
51.283,2.474,5.456,25.0
50.481,2.446,5.084,29.0
49.629,2.414,4.723,24.0
53.396,2.608,4.785,5.0
45.77,2.252,5.4,26.0
48.258,2.383,5.424,22.0
0.0,0.0,0.0,0.0
50.768,2.527,5.134,25.0
49.759,2.486,4.756,30.0
49.473,2.482,4.453,27.0
45.734,2.311,5.414,13.0
47.514,2.409,5.359,16.0
50.027,2.547,5.362,24.0
50.391,2.575,5.115,24.0
49.782,2.553,4.776,23.0
49.533,2.55,4.477,29.0
43.534,2.258,5.169,15.0
47.351,2.464,5.356,21.0
48.825,2.549,5.25,18.0
49.986,2.62,5.09,24.0
49.833,2.621,4.796,9.0
49.601,2.619,4.498,21.0
43.529,2.314,5.182,26.0
47.362,2.527,5.372,23.0
49.047,2.626,5.288,23.0
49.725,2.671,5.077,24.0
49.934,2.692,4.82,19.0
65.344,3.535,5.943,13.0
43.618,2.376,5.203,22.0
47.387,2.59,5.386,22.0
0.0,0.0,0.0,0.0
53.478,2.942,5.473,7.0
49.799,2.748,4.818,30.0
49.612,2.748,4.523,34.0
43.629,2.433,5.214,19.0
47.858,2.678,5.45,23.0
48.483,2.721,5.248,18.0
49.694,2.798,5.095,19.0
49.542,2.799,4.802,23.0
49.549,2.809,4.526,14.0
43.634,2.49,5.222,34.0
45.895,2.627,5.234,17.0
44.559,2.559,4.83,15.0
48.562,2.797,4.986,15.0
49.69,2.871,4.824,23.0
49.543,2.871,4.532,11.0
43.633,2.546,5.227,35.0
45.714,2.676,5.218,20.0
44.489,2.612,4.827,19.0
48.446,2.852,4.979,22.0
56.951,3.363,5.534,17.0
57.584,3.411,5.272,29.0
43.648,2.604,5.232,36.0
45.199,2.703,5.163,19.0
44.596,2.675,4.842,27.0
48.797,2.935,5.018,24.0
56.817,3.427,5.523,12.0
57.507,3.479,5.268,24.0
43.74,2.665,5.245,33.0
45.158,2.758,5.159,20.0
44.694,2.737,4.853,17.0
49.339,3.03,5.075,36.0
63.312,3.898,6.155,6.0
57.439,3.547,5.261,18.0
0.0,0.0,0.0,0.0
44.931,2.801,5.132,19.0
47.241,2.952,5.129,14.0
49.352,3.092,5.074,31.0
51.954,3.264,5.049,25.0
57.452,3.619,5.26,11.0
42.282,2.681,5.067,12.0
44.897,2.854,5.126,15.0
47.108,3.002,5.111,16.0
49.318,3.15,5.067,25.0
51.827,3.319,5.032,25.0
59.696,3.833,5.46,6.0
42.293,2.734,5.064,31.0
45.583,2.953,5.199,20.0
47.129,3.06,5.108,14.0
59.839,3.894,6.141,5.0
52.114,3.4,5.054,23.0
52.297,3.421,4.776,11.0
42.381,2.79,5.069,13.0
46.876,3.093,5.34,13.0
49.295,3.26,5.335,20.0
49.111,3.256,5.032,5.0
51.931,3.451,5.027,8.0
61.014,4.065,5.561,16.0
42.305,2.836,5.052,11.0
33.602,2.258,3.821,18.0
49.306,3.321,5.326,13.0
54.703,3.692,5.594,16.0
54.924,3.715,5.305,5.0
60.993,4.135,5.546,11.0
33.96,2.317,4.047,25.0
33.539,2.293,3.806,23.0
47.108,3.227,5.078,10.0
54.662,3.753,5.576,16.0
48.353,3.327,4.658,20.0
60.934,4.201,5.525,8.0
34.048,2.363,4.049,29.0
33.518,2.33,3.794,24.0
54.208,3.776,5.828,6.0
54.556,3.808,5.549,12.0
48.343,3.381,4.642,33.0
59.146,4.145,5.345,6.0
34.069,2.403,4.04,35.0
33.594,2.373,3.792,19.0
33.903,2.399,3.634,19.0
48.391,3.431,4.906,19.0
48.316,3.433,4.624,30.0
51.86,3.692,4.669,20.0
33.925,2.43,4.011,33.0
33.626,2.413,3.783,25.0
51.909,3.732,5.544,8.0
48.355,3.482,4.884,25.0
59.457,4.29,5.668,14.0
51.82,3.746,4.645,12.0
33.91,2.467,3.996,30.0
33.598,2.448,3.767,30.0
0.0,0.0,0.0,0.0
48.344,3.534,4.863,33.0
59.415,4.352,5.638,33.0
58.816,4.315,5.248,15.0
33.866,2.5,3.975,30.0
33.757,2.496,3.769,28.0
49.127,3.638,5.205,24.0
48.385,3.589,4.845,33.0
63.764,4.737,6.021,7.0
60.52,4.503,5.371,8.0
33.81,2.531,3.953,33.0
33.762,2.532,3.753,30.0
48.39,3.634,5.103,25.0
48.509,3.648,4.833,8.0
58.792,4.429,5.523,10.0
51.899,3.916,4.579,14.0
33.862,2.57,3.941,40.0
33.882,2.575,3.749,29.0
48.391,3.683,5.077,25.0
42.958,3.274,4.257,17.0
51.888,3.961,4.846,4.0
51.887,3.967,4.55,29.0
33.888,2.606,3.925,43.0
42.608,3.281,4.691,7.0
48.72,3.756,5.084,22.0
42.98,3.318,4.235,17.0
51.873,4.01,4.814,4.0
51.86,4.015,4.517,17.0
33.86,2.637,3.902,31.0
48.514,3.782,5.312,10.0
49.391,3.856,5.124,23.0
43.057,3.366,4.215,33.0
49.554,3.878,4.569,23.0
51.87,4.065,4.486,18.0
42.776,3.372,4.902,3.0
48.516,3.829,5.28,20.0
49.512,3.912,5.104,13.0
43.113,3.41,4.193,21.0
49.146,3.892,4.499,29.0
51.9,4.115,4.455,23.0
42.717,3.406,4.866,5.0
48.563,3.876,5.253,22.0
49.386,3.946,5.058,23.0
49.283,3.943,4.759,7.0
49.09,3.931,4.46,24.0
51.925,4.163,4.421,13.0
33.862,2.73,3.833,26.0
0.0,0.0,0.0,0.0
43.134,3.485,4.386,24.0
48.988,3.962,4.696,15.0
49.065,3.972,4.422,30.0
51.968,4.212,4.386,10.0
33.832,2.757,3.805,23.0
49.53,4.04,5.285,23.0
42.964,3.507,4.337,17.0
48.906,3.996,4.65,13.0
60.436,4.944,5.4,19.0
59.933,4.907,5.013,10.0
33.831,2.785,3.778,19.0
49.761,4.1,5.27,12.0
42.882,3.536,4.294,30.0
48.83,4.03,4.604,18.0
51.526,4.256,4.564,4.0
59.832,4.948,4.956,17.0
33.818,2.811,3.749,22.0
43.158,3.59,4.535,15.0
42.706,3.555,4.242,33.0
49.099,4.091,4.589,17.0
59.235,4.939,5.197,25.0
59.515,4.968,4.88,19.0
42.69,3.581,4.696,3.0
43.154,3.622,4.498,34.0
42.689,3.585,4.203,22.0
49.682,4.176,4.601,15.0
59.461,5.003,5.165,33.0
51.8,4.361,4.203,15.0
49.525,4.191,5.404,14.0
43.11,3.65,4.455,31.0
42.732,3.62,4.17,28.0
51.496,4.366,4.723,5.0
59.53,5.05,5.118,30.0
51.794,4.397,4.156,45.0
43.036,3.672,4.656,17.0
42.945,3.666,4.398,34.0
42.771,3.653,4.134,18.0
51.427,4.395,4.669,23.0
59.588,5.096,5.068,16.0
51.795,4.432,4.108,42.0
42.882,3.687,4.599,18.0
42.927,3.692,4.356,30.0
42.827,3.686,4.098,16.0
53.342,4.593,4.792,7.0
51.685,4.453,4.346,22.0
51.793,4.465,4.058,42.0
42.989,3.723,4.568,21.0
42.862,3.714,4.307,32.0
51.478,4.462,4.875,8.0
51.613,4.477,4.585,7.0
51.683,4.485,4.294,22.0
51.802,4.498,4.006,33.0
42.978,3.748,4.523,20.0
42.945,3.746,4.271,35.0
51.432,4.489,4.818,25.0
51.639,4.509,4.534,52.0
59.165,5.168,4.855,12.0
51.827,4.53,3.955,15.0
42.971,3.772,4.477,37.0
42.789,3.757,4.21,17.0
51.505,4.523,4.77,25.0
51.633,4.536,4.48,21.0
51.831,4.555,4.198,14.0
51.856,4.56,3.903,17.0
42.93,3.79,4.427,36.0
42.749,3.775,4.161,17.0
51.445,4.544,4.71,22.0
59.156,5.227,5.068,30.0
51.815,4.58,4.141,22.0
51.863,4.586,3.847,19.0
42.832,3.802,4.37,31.0
51.505,4.573,4.957,11.0
51.439,4.568,4.653,6.0
59.069,5.247,4.996,9.0
51.821,4.604,4.085,22.0
51.886,4.611,3.791,18.0
42.762,3.815,4.315,30.0
51.498,4.595,4.898,18.0
43.28,3.862,3.866,11.0
42.84,3.823,3.576,17.0
51.831,4.627,4.027,22.0
51.915,4.635,3.735,17.0
42.706,3.827,4.26,32.0
53.6,4.804,5.037,4.0
59.428,5.326,5.24,11.0
59.065,5.294,4.861,9.0
51.87,4.65,3.97,19.0
51.928,4.656,3.676,18.0
42.664,3.839,4.206,25.0
43.416,3.906,4.028,15.0
59.238,5.33,5.154,21.0
51.823,4.663,4.205,21.0
51.925,4.673,3.914,15.0
51.968,4.678,3.617,10.0
51.324,4.635,4.998,15.0
43.425,3.921,3.977,13.0
59.143,5.34,5.075,7.0
51.817,4.679,4.141,39.0
51.955,4.691,3.853,14.0
59.67,5.389,4.081,25.0
51.616,4.676,4.963,24.0
53.039,4.804,4.792,12.0
42.891,3.885,3.627,22.0
51.836,4.695,4.079,38.0
59.722,5.409,4.355,13.0
59.523,5.391,3.998,33.0
51.756,4.702,4.912,7.0
52.992,4.813,4.722,22.0
42.815,3.888,3.568,17.0
51.89,4.711,4.019,24.0
59.226,5.377,4.246,32.0
59.1,5.365,3.896,30.0
43.472,3.958,4.071,30.0
52.962,4.821,4.652,24.0
42.806,3.895,3.513,17.0
51.985,4.73,3.96,9.0
59.078,5.374,4.16,34.0
58.94,5.361,3.811,25.0
43.436,3.961,4.012,25.0
52.953,4.828,4.584,6.0
42.78,3.899,3.455,24.0
59.674,5.438,4.469,22.0
59.25,5.398,4.096,33.0
58.947,5.37,3.736,33.0
43.381,3.962,3.95,15.0
42.919,3.918,3.659,30.0
51.852,4.732,4.121,10.0
59.498,5.428,4.379,34.0
59.226,5.402,4.017,33.0
58.579,5.342,3.636,32.0
52.71,4.818,4.73,10.0
42.868,3.916,3.599,24.0
51.963,4.746,4.062,22.0
58.94,5.381,4.261,34.0
59.109,5.394,3.932,32.0
58.59,5.345,3.56,29.0
52.811,4.829,4.669,27.0
42.791,3.911,3.535,19.0
52.098,4.759,4.003,9.0
58.513,5.342,4.151,31.0
59.024,5.387,3.847,32.0
58.543,5.341,3.479,24.0
52.919,4.838,4.607,8.0
42.763,3.908,3.475,26.0
59.617,5.445,4.5,20.0
58.99,5.385,4.106,34.0
59.054,5.388,3.77,32.0
58.511,5.337,3.398,26.0
42.935,3.923,3.679,30.0
42.765,3.905,3.417,16.0
59.534,5.434,4.412,32.0
59.28,5.407,4.045,34.0
58.637,5.346,3.663,32.0
58.594,5.34,3.322,32.0
42.883,3.914,3.615,28.0
51.911,4.735,4.076,20.0
59.11,5.389,4.299,35.0
59.206,5.394,3.959,33.0
58.571,5.333,3.578,31.0
58.715,5.343,3.249,32.0
42.82,3.903,3.55,17.0
51.935,4.73,4.006,16.0
58.977,5.367,4.208,34.0
58.998,5.366,3.863,31.0
58.636,5.329,3.501,23.0
58.854,5.346,3.174,33.0
42.816,3.895,3.49,14.0
51.988,4.725,3.937,5.0
59.558,5.409,4.166,33.0
58.947,5.35,3.777,27.0
58.572,5.312,3.415,26.0
59.754,5.416,3.14,34.0
51.831,4.703,4.152,17.0
59.791,5.421,4.444,12.0
59.615,5.4,4.086,29.0
59.557,5.39,3.732,34.0
58.611,5.301,3.335,32.0
60.474,5.466,3.093,30.0
51.86,4.691,4.081,41.0
51.963,4.696,3.788,13.0
59.888,5.407,4.019,34.0
59.824,5.397,3.664,34.0
58.948,5.314,3.27,32.0
60.708,5.468,3.018,22.0
51.891,4.678,4.008,25.0
51.947,4.678,3.711,19.0
59.386,5.343,3.9,33.0
59.881,5.382,3.582,34.0
59.118,5.309,3.195,33.0
61.393,5.509,2.965,27.0
51.89,4.659,3.934,14.0
51.952,4.66,3.638,17.0
59.237,5.308,3.806,33.0
59.547,5.33,3.477,34.0
59.765,5.344,3.145,21.0
61.764,5.519,2.894,19.0
51.9,4.639,3.859,15.0
51.979,4.641,3.564,15.0
59.822,5.335,3.757,34.0
59.53,5.303,3.389,34.0
60.287,5.366,3.084,9.0
52.154,4.637,2.369,5.0
51.893,4.615,3.783,20.0
51.958,4.615,3.487,19.0
60.078,5.33,3.686,20.0
59.812,5.301,3.318,34.0
52.154,4.618,2.593,8.0
52.113,4.609,2.292,29.0
51.889,4.589,3.708,31.0
51.953,4.589,3.412,33.0
52.065,4.593,3.118,20.0
52.111,4.592,2.816,21.0
52.106,4.586,2.516,22.0
52.099,4.58,2.216,47.0
51.888,4.561,3.631,21.0
51.968,4.562,3.337,44.0
52.038,4.562,3.041,31.0
52.072,4.56,2.738,27.0
52.083,4.555,2.439,49.0
52.096,4.551,2.14,51.0
51.889,4.531,3.557,19.0
51.967,4.532,3.262,49.0
52.025,4.53,2.966,49.0
52.061,4.528,2.663,34.0
52.067,4.523,2.364,58.0
52.097,4.52,2.066,63.0
51.882,4.499,3.481,32.0
51.968,4.499,3.187,53.0
52.006,4.496,2.89,45.0
52.048,4.494,2.587,46.0
52.07,4.49,2.289,62.0
52.092,4.485,1.99,54.0
51.903,4.465,3.407,54.0
51.967,4.465,3.112,52.0
52.007,4.461,2.814,55.0
52.04,4.457,2.512,46.0
52.084,4.454,2.213,54.0
52.134,4.453,1.917,49.0
51.934,4.431,3.334,54.0
51.962,4.426,3.036,47.0
52.045,4.427,2.741,59.0
52.074,4.422,2.438,46.0
52.122,4.42,2.14,40.0
52.163,4.417,1.842,32.0
51.968,4.395,3.26,50.0
51.992,4.39,2.962,37.0
52.052,4.387,2.666,48.0
52.11,4.386,2.364,31.0
52.161,4.383,2.067,22.0
52.244,4.383,1.77,15.0
51.998,4.357,3.187,43.0
52.032,4.351,2.889,24.0
52.093,4.349,2.593,25.0
52.163,4.347,2.291,7.0
62.532,5.203,2.387,4.0
62.425,5.186,2.026,9.0
52.038,4.316,3.115,19.0
52.098,4.313,2.818,14.0
62.404,5.157,3.017,9.0
62.744,5.176,2.667,8.0
81.211,6.687,2.986,12.0
47.673,3.919,1.479,7.0
52.105,4.276,3.045,10.0
62.15,5.09,3.274,32.0
81.58,6.669,3.828,14.0
81.305,6.634,3.34,11.0
62.812,5.116,2.219,8.0
47.679,3.877,1.411,2.0
62.473,5.069,3.562,5.0
62.552,5.065,3.207,11.0
81.597,6.595,3.713,29.0
81.405,6.566,3.23,27.0
47.898,3.856,1.625,162.0
47.604,3.826,1.343,2.0
62.544,5.015,3.477,5.0
81.538,6.523,4.064,13.0
81.852,6.536,3.61,22.0
48.861,3.893,1.87,10.0
47.846,3.805,1.556,38.0
47.541,3.773,1.274,11.0
62.527,4.95,3.388,13.0
81.561,6.443,3.951,34.0
81.816,6.449,3.493,32.0
48.839,3.841,1.8,3.0
47.458,3.725,1.477,6.0
47.459,3.717,1.205,13.0
81.468,6.364,4.3,14.0
81.742,6.372,3.845,33.0
81.612,6.347,3.372,14.0
47.684,3.7,1.691,4.0
47.418,3.671,1.41,8.0
47.414,3.663,1.139,12.0
81.438,6.273,4.186,20.0
81.716,6.279,3.731,28.0
48.792,3.741,1.948,3.0
47.665,3.646,1.625,91.0
47.372,3.615,1.344,14.0
0.0,0.0,0.0,0.0
81.432,6.181,4.074,26.0
81.791,6.193,3.623,19.0
48.484,3.662,1.869,0.0
47.461,3.576,1.553,4.0
47.356,3.56,1.279,19.0
47.364,3.552,1.008,1.0
81.249,6.073,3.954,33.0
49.022,3.654,2.104,3.0
48.247,3.587,1.795,1.0
47.332,3.511,1.485,13.0
47.328,3.501,1.214,14.0
47.36,3.495,0.944,2.0
81.229,5.973,3.843,17.0
0.0,0.0,0.0,0.0
47.741,3.492,1.712,3.0
47.264,3.447,1.42,20.0
47.367,3.446,1.152,2.0
51.787,3.758,0.963,1.0
49.265,3.561,2.265,1.0
0.0,0.0,0.0,0.0
47.507,3.414,1.64,7.0
47.252,3.387,1.356,26.0
47.257,3.377,1.086,1.0
52.067,3.711,0.9,2.0
0.0,0.0,0.0,0.0
0.0,0.0,0.0,0.0
47.352,3.342,1.573,12.0
47.267,3.327,1.295,160.0
47.303,3.32,1.026,2.0
47.653,3.335,0.762,0.0
0.0,0.0,0.0,0.0
47.964,3.332,1.805,1.0
47.263,3.273,1.509,15.0
47.263,3.263,1.234,163.0
47.286,3.255,0.965,3.0
42.139,2.892,0.62,0.0
0.0,0.0,0.0,0.0
47.668,3.246,1.733,3.0
47.22,3.206,1.447,24.0
47.246,3.197,1.174,158.0
50.852,3.431,0.973,1.0
41.333,2.78,0.555,0.0
0.0,0.0,0.0,0.0
47.476,3.167,1.666,6.0
47.2,3.138,1.387,42.0
47.233,3.13,1.114,150.0
50.963,3.366,0.912,2.0
47.173,3.106,0.576,0.0
0.0,0.0,0.0,0.0
47.373,3.093,1.604,11.0
47.222,3.072,1.33,161.0
47.267,3.064,1.057,3.0
47.718,3.082,0.795,0.0
36.672,2.36,0.402,1.0
48.018,3.075,1.841,1.0
47.253,3.015,1.543,15.0
47.217,3.002,1.272,168.0
47.241,2.993,0.999,5.0
45.632,2.88,0.705,0.0
36.46,2.293,0.356,0.0
47.754,2.987,1.774,2.0
47.209,2.941,1.485,31.0
47.216,2.93,1.216,165.0
47.243,2.922,0.943,2.0
43.337,2.669,0.618,0.0
33.057,2.029,0.284,0.0
47.522,2.9,1.709,5.0
47.19,2.868,1.429,51.0
47.211,2.858,1.161,12.0
52.551,3.169,0.988,1.0
38.939,2.339,0.511,0.0
31.915,1.909,0.237,0.0
47.402,2.818,1.65,9.0
47.212,2.795,1.375,40.0
47.253,2.786,1.108,1.0
47.821,2.808,0.844,5.0
0.0,0.0,0.0,0.0
30.626,1.784,0.193,0.0
47.311,2.738,1.594,11.0
47.223,2.721,1.322,31.0
47.249,2.71,1.054,5.0
48.075,2.746,0.795,5.0
35.115,1.997,0.381,0.0
30.136,1.706,0.156,0.0
47.238,2.656,1.538,11.0
47.259,2.645,1.271,35.0
47.257,2.633,1.002,5.0
44.465,2.466,0.686,0.0
34.218,1.889,0.334,0.0
29.18,1.604,0.119,0.0
47.261,2.579,1.488,12.0
47.27,2.567,1.22,26.0
47.325,2.557,0.953,1.0
0.0,0.0,0.0,0.0
32.964,1.764,0.286,1.0
28.438,1.515,0.086,0.0
47.324,2.502,1.44,15.0
47.306,2.488,1.171,17.0
0.0,0.0,0.0,0.0
0.0,0.0,0.0,0.0
31.643,1.639,0.242,1.0
27.917,1.439,0.055,0.0
47.369,2.423,1.392,14.0
47.322,2.407,1.122,12.0
49.708,2.515,0.897,3.0
0.0,0.0,0.0,0.0
31.174,1.561,0.207,1.0
27.208,1.355,0.026,0.0
47.412,2.342,1.346,10.0
47.388,2.328,1.077,6.0
50.279,2.457,0.858,3.0
35.174,1.709,0.398,0.0
30.289,1.463,0.171,0.0
26.619,1.278,0.0,0.0
47.466,2.261,1.301,2.0
47.417,2.245,1.031,0.0
0.0,0.0,0.0,0.0
34.343,1.606,0.355,0.0
29.468,1.371,0.138,0.0
26.168,1.21,-0.024,0.0
47.488,2.176,1.256,12.0
0.0,0.0,0.0,0.0
0.0,0.0,0.0,0.0
33.6,1.511,0.316,0.0
28.847,1.289,0.108,0.0
25.638,1.139,-0.048,0.0
47.984,2.111,1.225,0.0
47.833,2.09,0.951,0.0
42.078,1.826,0.599,0.0
32.671,1.409,0.278,1.0
28.385,1.216,0.081,1.0
25.14,1.07,-0.069,1.0
48.418,2.041,1.194,6.0
52.1,2.181,0.991,0.0
38.276,1.591,0.512,0.0
32.109,1.326,0.245,1.0
27.809,1.14,0.055,1.0
24.555,1.0,-0.088,1.0
48.893,1.97,1.164,1.0
0.0,0.0,0.0,0.0
36.784,1.461,0.461,0.0
31.1,1.225,0.211,0.0
27.276,1.067,0.032,0.0
24.312,0.944,-0.108,1.0
49.543,1.903,1.138,0.0
47.204,1.799,0.819,0.0
35.374,1.337,0.414,0.0
29.014,1.088,0.173,0.0
26.443,0.984,0.009,1.0
24.062,0.888,-0.126,0.0
50.583,1.846,1.122,0.0
0.0,0.0,0.0,0.0
34.689,1.244,0.379,0.0
28.943,1.029,0.15,0.0
26.426,0.932,-0.01,0.0
23.42,0.819,-0.141,0.0
50.594,1.747,1.084,0.0
0.0,0.0,0.0,0.0
34.073,1.156,0.347,1.0
28.891,0.971,0.129,1.0
138.123,4.603,-0.158,29.0
22.984,0.759,-0.155,0.0
54.853,1.787,1.135,1.0
0.0,0.0,0.0,0.0
33.134,1.059,0.313,0.0
28.886,0.914,0.108,5.0
25.611,0.803,-0.047,0.0
22.917,0.711,-0.171,0.0
55.506,1.7,1.11,4.0
0.0,0.0,0.0,0.0
33.007,0.99,0.29,1.0
28.745,0.853,0.088,2.0
25.345,0.744,-0.064,0.0
22.28,0.647,-0.181,0.0
0.0,0.0,0.0,0.0
37.619,1.065,0.516,0.0
32.187,0.901,0.261,0.0
28.604,0.791,0.069,1.0
25.074,0.686,-0.079,0.0
21.946,0.593,-0.192,0.0
0.0,0.0,0.0,0.0
0.0,0.0,0.0,0.0
31.678,0.823,0.238,0.0
27.584,0.707,0.05,0.0
24.538,0.622,-0.092,0.0
21.749,0.544,-0.203,0.0
47.558,1.17,0.861,3.0
36.419,0.884,0.456,0.0
31.139,0.745,0.215,0.0
27.156,0.641,0.033,0.0
24.372,0.567,-0.106,0.0
21.569,0.495,-0.214,0.0
47.847,1.079,0.84,0.0
0.0,0.0,0.0,0.0
30.878,0.676,0.197,0.0
27.003,0.582,0.018,0.0
24.119,0.512,-0.117,0.0
21.185,0.442,-0.221,0.0
0.0,0.0,0.0,0.0
35.112,0.708,0.401,0.0
28.916,0.573,0.169,0.0
26.831,0.522,0.004,0.0
23.822,0.456,-0.128,0.0
20.715,0.389,-0.227,0.0
0.0,0.0,0.0,0.0
34.839,0.629,0.381,0.0
28.839,0.511,0.155,0.0
26.505,0.461,-0.007,0.0
23.671,0.403,-0.138,1.0
20.405,0.341,-0.233,0.0
0.0,0.0,0.0,0.0
34.414,0.55,0.361,0.0
28.884,0.452,0.142,4.0
26.292,0.402,-0.019,0.0
23.435,0.35,-0.147,0.0
20.275,0.296,-0.24,0.0
0.0,0.0,0.0,0.0
34.274,0.476,0.346,0.0
28.878,0.391,0.13,6.0
26.088,0.344,-0.029,0.0
23.201,0.298,-0.155,0.0
20.134,0.252,-0.246,0.0
39.763,0.482,0.607,0.0
33.675,0.397,0.327,0.0
28.861,0.33,0.12,6.0
25.968,0.288,-0.038,0.0
23.06,0.248,-0.162,0.0
19.89,0.207,-0.25,0.0
0.0,0.0,0.0,0.0
32.872,0.318,0.308,0.0
28.822,0.269,0.11,6.0
25.725,0.231,-0.046,0.0
22.491,0.194,-0.165,1.0
19.741,0.163,-0.254,0.0
0.0,0.0,0.0,0.0
33.175,0.25,0.301,0.0
28.716,0.207,0.101,1.0
25.639,0.175,-0.054,0.0
22.398,0.145,-0.171,1.0
19.627,0.121,-0.258,0.0
39.143,0.226,0.562,0.0
32.577,0.177,0.287,0.0
28.647,0.145,0.093,1.0
25.466,0.12,-0.06,0.0
22.441,0.098,-0.177,1.0
19.433,0.077,-0.261,0.0
37.4,0.135,0.528,0.0
32.201,0.105,0.276,0.0
28.662,0.084,0.087,3.0
25.396,0.065,-0.065,0.0
22.113,0.049,-0.179,0.0
19.245,0.035,-0.262,0.0
0.0,0.0,0.0,0.0
31.713,0.035,0.266,0.0
28.565,0.021,0.081,1.0
25.259,0.01,-0.069,0.0
22.002,0.001,-0.182,0.0
19.347,-0.005,-0.267,0.0
0.0,0.0,0.0,0.0
31.749,-0.032,0.261,0.0
28.665,-0.039,0.077,4.0
25.252,-0.043,-0.073,0.0
22.042,-0.045,-0.185,0.0
19.228,-0.046,-0.268,0.0
37.064,-0.103,0.505,0.0
31.674,-0.099,0.257,0.0
28.623,-0.1,0.074,4.0
25.112,-0.097,-0.075,0.0
22.024,-0.092,-0.187,0.0
19.343,-0.088,-0.271,0.0
36.682,-0.18,0.497,0.0
31.738,-0.167,0.255,1.0
28.615,-0.161,0.072,4.0
25.014,-0.15,-0.076,0.0
143.397,-0.915,-1.23,88.0
19.188,-0.129,-0.27,0.0
0.0,0.0,0.0,0.0
31.854,-0.237,0.254,1.0
28.596,-0.222,0.071,3.0
25.037,-0.204,-0.077,0.0
22.263,-0.19,-0.191,1.0
19.196,-0.17,-0.27,0.0
37.917,-0.349,0.511,0.0
32.044,-0.307,0.256,1.0
28.351,-0.282,0.07,1.0
25.09,-0.258,-0.077,0.0
22.274,-0.237,-0.191,0.0
19.175,-0.212,-0.27,0.0
0.0,0.0,0.0,0.0
32.175,-0.377,0.258,1.0
28.48,-0.344,0.072,1.0
24.996,-0.311,-0.076,0.0
22.149,-0.284,-0.189,0.0
19.311,-0.254,-0.27,0.0
0.0,0.0,0.0,0.0
31.93,-0.443,0.258,0.0
28.428,-0.404,0.074,1.0
25.233,-0.368,-0.074,0.0
22.287,-0.333,-0.188,0.0
19.335,-0.296,-0.269,0.0
37.188,-0.582,0.509,0.0
31.911,-0.511,0.262,0.0
28.436,-0.465,0.077,1.0
25.13,-0.42,-0.071,0.0
22.344,-0.382,-0.185,0.0
19.341,-0.338,-0.266,0.0
0.0,0.0,0.0,0.0
32.518,-0.589,0.271,1.0
28.641,-0.53,0.082,5.0
25.182,-0.475,-0.067,0.0
22.464,-0.432,-0.183,0.0
19.361,-0.38,-0.263,0.0
37.836,-0.753,0.53,0.0
32.808,-0.665,0.28,1.0
28.645,-0.591,0.088,6.0
25.215,-0.529,-0.062,0.0
22.569,-0.482,-0.179,0.0
19.527,-0.424,-0.261,0.0
0.0,0.0,0.0,0.0
32.991,-0.738,0.289,1.0
28.678,-0.652,0.094,7.0
25.564,-0.59,-0.057,0.0
22.739,-0.534,-0.175,0.0
19.603,-0.467,-0.258,0.0
38.26,-0.922,0.554,0.0
32.888,-0.805,0.296,1.0
28.667,-0.712,0.102,7.0
25.514,-0.642,-0.05,0.0
22.926,-0.586,-0.17,0.0
19.632,-0.509,-0.253,0.0
0.0,0.0,0.0,0.0
32.597,-0.866,0.303,0.0
28.683,-0.772,0.11,2.0
25.996,-0.709,-0.043,0.0
23.016,-0.636,-0.164,0.0
19.742,-0.553,-0.248,0.0
0.0,0.0,0.0,0.0
33.263,-0.952,0.32,0.0
28.663,-0.831,0.12,0.0
26.266,-0.771,-0.035,0.0
23.316,-0.693,-0.158,0.0
19.93,-0.599,-0.243,0.0
0.0,0.0,0.0,0.0
0.0,0.0,0.0,0.0
28.696,-0.891,0.131,0.0
26.416,-0.83,-0.025,0.0
23.486,-0.746,-0.15,0.0
20.747,-0.667,-0.245,0.0
0.0,0.0,0.0,0.0
34.135,-1.118,0.355,0.0
28.735,-0.951,0.143,0.0
26.434,-0.885,-0.014,0.0
23.531,-0.796,-0.14,0.0
20.918,-0.716,-0.238,1.0
0.0,0.0,0.0,0.0
0.0,0.0,0.0,0.0
28.726,-1.01,0.155,0.0
26.984,-0.958,-0.002,0.0
24.082,-0.864,-0.132,1.0
20.952,-0.759,-0.229,2.0
0.0,0.0,0.0,0.0
34.605,-1.275,0.391,0.0
28.746,-1.069,0.169,0.0
27.393,-1.028,0.01,0.0
23.717,-0.899,-0.119,0.0
21.036,-0.805,-0.219,3.0
0.0,0.0,0.0,0.0
35.82,-1.392,0.423,0.0
30.915,-1.212,0.198,0.0
27.542,-1.09,0.024,0.0
23.803,-0.95,-0.107,0.0
21.153,-0.852,-0.209,2.0
0.0,0.0,0.0,0.0
0.0,0.0,0.0,0.0
31.032,-1.279,0.216,0.0
28.211,-1.173,0.041,1.0
23.764,-0.996,-0.093,0.0
21.942,-0.928,-0.205,1.0
0.0,0.0,0.0,0.0
36.781,-1.576,0.476,0.0
31.723,-1.37,0.239,0.0
28.49,-1.241,0.058,4.0
25.704,-1.129,-0.086,0.0
22.325,-0.988,-0.195,1.0
0.0,0.0,0.0,0.0
37.788,-1.693,0.512,0.0
31.929,-1.442,0.26,0.0
28.499,-1.297,0.076,2.0
25.661,-1.177,-0.069,0.0
22.663,-1.047,-0.183,1.0
0.0,0.0,0.0,0.0
38.047,-1.779,0.54,0.0
32.395,-1.526,0.285,0.0
28.525,-1.353,0.094,6.0
25.769,-1.232,-0.053,0.0
22.857,-1.101,-0.17,1.0
0.0,0.0,0.0,0.0
0.0,0.0,0.0,0.0
33.128,-1.624,0.314,0.0
28.497,-1.407,0.114,1.0
26.193,-1.302,-0.035,0.0
23.25,-1.164,-0.156,1.0
0.0,0.0,0.0,0.0
0.0,0.0,0.0,0.0
33.699,-1.715,0.344,0.0
28.66,-1.469,0.135,0.0
26.409,-1.363,-0.017,0.0
23.553,-1.223,-0.141,1.0
34.422,-1.794,0.747,1.0
34.652,-1.818,0.566,0.0
34.659,-1.83,0.379,0.0
28.733,-1.526,0.157,0.0
34.226,-1.83,0.003,0.0
34.264,-1.844,-0.18,2.0
34.21,-1.846,0.768,1.0
34.396,-1.868,0.588,1.0
34.776,-1.9,0.408,0.0
30.56,-1.68,0.191,1.0
28.094,-1.554,0.025,0.0
34.228,-1.905,-0.152,4.0
34.126,-1.904,0.794,1.0
34.169,-1.917,0.611,1.0
34.684,-1.958,0.434,0.0
30.783,-1.748,0.217,1.0
28.423,-1.623,0.048,5.0
34.134,-1.96,-0.124,0.0
34.039,-1.96,0.82,1.0
34.02,-1.97,0.636,0.0
34.707,-2.021,0.464,4.0
31.46,-1.842,0.248,0.0
28.487,-1.677,0.072,6.0
25.546,-1.512,-0.071,0.0
33.994,-2.017,0.847,4.0
33.959,-2.026,0.665,0.0
34.836,-2.09,0.495,2.0
32.223,-1.943,0.282,2.0
28.491,-1.727,0.097,15.0
25.801,-1.573,-0.049,0.0
33.956,-2.075,0.876,6.0
34.051,-2.091,0.697,0.0
34.669,-2.14,0.524,6.0
32.553,-2.02,0.314,0.0
30.214,-1.884,0.13,0.0
26.229,-1.644,-0.026,0.0
33.955,-2.133,0.907,14.0
33.982,-2.145,0.726,0.0
34.334,-2.178,0.55,2.0
0.0,0.0,0.0,0.0
30.139,-1.931,0.158,0.0
27.455,-1.768,-0.002,0.0
33.921,-2.188,0.938,20.0
33.9,-2.197,0.757,0.0
34.015,-2.215,0.577,0.0
36.157,-2.366,0.417,0.0
30.957,-2.035,0.192,0.0
27.393,-1.809,0.023,0.0
33.913,-2.245,0.971,38.0
33.884,-2.252,0.789,0.0
34.01,-2.271,0.611,1.0
36.877,-2.474,0.462,0.0
31.73,-2.138,0.228,0.0
0.0,0.0,0.0,0.0
33.884,-2.298,1.004,49.0
33.859,-2.306,0.822,2.0
33.851,-2.315,0.641,0.0
34.488,-2.369,0.466,1.0
32.013,-2.209,0.262,0.0
33.921,-2.35,0.097,0.0
33.872,-2.351,1.038,57.0
33.874,-2.361,0.857,22.0
33.869,-2.37,0.676,153.0
34.394,-2.417,0.5,3.0
33.634,-2.374,0.31,0.0
29.387,-2.082,0.114,0.0
33.862,-2.404,1.073,73.0
33.841,-2.412,0.892,33.0
33.865,-2.423,0.712,159.0
34.22,-2.458,0.534,4.0
35.539,-2.563,0.365,1.0
30.424,-2.203,0.151,0.0
33.854,-2.455,1.109,80.0
33.867,-2.465,0.929,68.0
33.877,-2.475,0.748,157.0
34.024,-2.496,0.567,3.0
35.98,-2.649,0.409,1.0
30.402,-2.247,0.184,0.0
33.833,-2.505,1.145,47.0
33.855,-2.516,0.966,106.0
33.866,-2.526,0.786,160.0
33.892,-2.537,0.603,7.0
37.862,-2.845,0.473,1.0
31.695,-2.39,0.227,0.0
33.834,-2.555,1.183,8.0
33.847,-2.565,1.004,119.0
33.865,-2.575,0.825,154.0
33.844,-2.583,0.641,150.0
34.425,-2.637,0.469,1.0
32.772,-2.518,0.272,0.0
33.833,-2.604,1.222,6.0
33.819,-2.612,1.042,113.0
33.808,-2.62,0.862,40.0
33.837,-2.631,0.679,154.0
34.274,-2.673,0.506,4.0
0.0,0.0,0.0,0.0
33.822,-2.651,1.261,33.0
33.804,-2.658,1.081,126.0
33.853,-2.67,0.903,62.0
33.835,-2.677,0.719,156.0
34.083,-2.705,0.543,4.0
35.512,-2.828,0.378,0.0
33.83,-2.697,1.301,85.0
33.813,-2.704,1.121,86.0
33.814,-2.712,0.941,134.0
33.836,-2.722,0.759,154.0
33.936,-2.739,0.581,2.0
36.678,-2.969,0.434,0.0
33.812,-2.741,1.341,49.0
33.786,-2.747,1.16,21.0
33.812,-2.757,0.982,150.0
33.841,-2.767,0.8,153.0
33.788,-2.771,0.62,36.0
34.409,-2.83,0.449,1.0
33.824,-2.786,1.383,3.0
33.83,-2.794,1.203,19.0
33.803,-2.799,1.023,133.0
33.824,-2.809,0.842,112.0
33.81,-2.816,0.662,153.0
34.343,-2.868,0.49,4.0
34.107,-2.852,1.436,0.0
33.806,-2.834,1.244,41.0
33.793,-2.84,1.064,138.0
33.773,-2.846,0.882,55.0
33.793,-2.855,0.703,24.0
34.123,-2.891,0.529,4.0
0.0,0.0,0.0,0.0
33.804,-2.874,1.286,78.0
33.777,-2.879,1.106,84.0
33.797,-2.888,0.925,109.0
33.789,-2.894,0.746,0.0
33.945,-2.915,0.569,2.0
0.0,0.0,0.0,0.0
33.79,-2.912,1.328,47.0
33.784,-2.918,1.149,22.0
33.797,-2.926,0.967,117.0
33.795,-2.933,0.788,2.0
33.773,-2.938,0.609,2.0
0.0,0.0,0.0,0.0
33.844,-2.955,1.374,3.0
33.805,-2.958,1.193,7.0
33.793,-2.964,1.01,88.0
33.776,-2.969,0.831,22.0
33.711,-2.97,0.651,0.0
34.62,-3.054,1.633,0.0
34.101,-3.014,1.428,0.0
33.826,-2.996,1.238,21.0
33.789,-2.999,1.054,81.0
33.778,-3.005,0.875,43.0
33.887,-3.021,0.698,0.0
34.861,-3.111,1.69,0.0
34.153,-3.054,1.475,0.0
33.815,-3.03,1.281,49.0
33.764,-3.031,1.097,55.0
33.783,-3.039,0.919,54.0
33.781,-3.045,0.741,0.0
34.982,-3.157,1.742,0.0
0.0,0.0,0.0,0.0
33.815,-3.063,1.325,24.0
33.798,-3.067,1.142,15.0
33.791,-3.072,0.963,50.0
33.792,-3.079,0.785,9.0
169.542,-15.466,8.667,5.0
0.0,0.0,0.0,0.0
34.001,-3.112,1.377,1.0
33.821,-3.101,1.188,6.0
33.797,-3.104,1.008,40.0
33.785,-3.109,0.83,19.0
169.477,-15.619,8.89,16.0
0.0,0.0,0.0,0.0
34.102,-3.152,1.428,0.0
33.82,-3.132,1.233,8.0
33.793,-3.134,1.054,34.0
33.807,-3.141,0.875,24.0
150.224,-13.976,8.083,19.0
34.946,-3.256,1.694,0.0
34.253,-3.196,1.479,0.0
33.829,-3.161,1.279,16.0
33.797,-3.163,1.099,22.0
33.81,-3.17,0.921,23.0
149.88,-14.07,8.268,32.0
0.0,0.0,0.0,0.0
34.4,-3.238,1.533,0.0
33.845,-3.19,1.325,4.0
33.817,-3.192,1.145,6.0
33.819,-3.197,0.967,21.0
149.777,-14.178,8.463,26.0
150.217,-14.238,7.692,20.0
34.821,-3.304,1.598,0.0
34.066,-3.237,1.38,0.0
33.864,-3.222,1.193,4.0
33.809,-3.221,1.012,14.0
167.791,-16.011,9.71,6.0
150.232,-14.353,7.897,5.0
34.671,-3.316,1.639,0.0
34.276,-3.282,1.435,1.0
33.861,-3.246,1.239,4.0
33.88,-3.252,1.06,9.0
149.574,-14.378,8.861,5.0
159.239,-15.324,8.589,16.0
0.0,0.0,0.0,0.0
34.341,-3.311,1.485,2.0
33.868,-3.269,1.285,5.0
33.858,-3.272,1.106,7.0
160.022,-15.488,9.698,15.0
159.24,-15.428,8.807,6.0
0.0,0.0,0.0,0.0
34.499,-3.348,1.538,0.0
34.038,-3.307,1.337,0.0
33.852,-3.292,1.151,4.0
160.015,-15.586,9.913,5.0
160.16,-15.613,9.073,13.0
158.732,-15.488,8.151,6.0
34.648,-3.383,1.592,0.0
34.196,-3.342,1.39,0.0
33.917,-3.318,1.199,3.0
150.104,-14.706,9.504,10.0
160.193,-15.707,9.292,17.0
158.753,-15.578,8.368,15.0
34.911,-3.428,1.651,0.0
34.444,-3.385,1.447,0.0
33.878,-3.332,1.244,2.0
150.037,-14.779,9.705,22.0
160.283,-15.799,9.517,14.0
158.998,-15.683,8.596,15.0
35.148,-3.469,1.71,0.0
34.638,-3.421,1.502,1.0
33.904,-3.351,1.291,1.0
149.443,-14.794,9.872,23.0
160.437,-15.891,9.746,12.0
158.982,-15.755,8.815,13.0
35.448,-3.515,1.774,0.0
34.822,-3.455,1.558,0.0
34.227,-3.398,1.35,0.0
143.965,-14.315,9.706,6.0
160.631,-15.979,9.977,8.0
160.008,-15.924,9.088,15.0
159.168,-15.848,8.18,17.0
35.131,-3.499,1.619,0.0
34.566,-3.445,1.41,0.0
143.893,-14.365,9.898,13.0
176.674,-17.643,11.213,11.0
160.092,-15.993,9.311,15.0
158.906,-15.88,8.382,19.0
35.605,-3.559,1.689,2.0
34.731,-3.474,1.464,1.0
143.851,-14.412,10.091,19.0
176.551,-17.691,11.446,18.0
160.072,-16.044,9.526,17.0
158.821,-15.924,8.592,16.0
35.847,-3.595,1.749,1.0
35.063,-3.517,1.525,0.0
143.707,-14.441,10.275,19.0
149.938,-15.069,9.921,11.0
159.947,-16.077,9.733,13.0
160.167,-16.103,8.88,11.0
159.514,-16.04,7.996,16.0
35.323,-3.553,1.583,0.0
143.615,-14.469,10.461,13.0
149.675,-15.08,10.105,12.0
160.114,-16.133,9.958,6.0
160.33,-16.156,9.103,16.0
159.029,-16.028,8.184,16.0
35.545,-3.582,1.64,0.0
142.522,-14.39,10.574,9.0
143.405,-14.478,9.873,12.0
176.31,-17.8,11.2,12.0
159.929,-16.146,9.292,16.0
158.913,-16.044,8.389,22.0
35.984,-3.633,1.708,1.0
142.569,-14.419,10.767,5.0
143.5,-14.511,10.071,18.0
176.303,-17.826,11.434,20.0
160.23,-16.2,9.523,15.0
158.952,-16.069,8.601,14.0
158.982,-16.072,7.758,12.0
148.442,-15.032,11.406,4.0
143.782,-14.557,10.281,18.0
176.23,-17.838,11.66,18.0
160.093,-16.201,9.724,6.0
160.331,-16.222,8.884,5.0
159.097,-16.096,7.969,18.0
143.019,-14.495,11.177,4.0
143.759,-14.565,10.466,8.0
149.686,-15.16,10.098,14.0
160.281,-16.229,9.942,6.0
160.013,-16.198,9.074,16.0
159.055,-16.097,8.173,10.0
143.133,-14.512,11.371,17.0
142.589,-14.451,10.565,12.0
143.413,-14.528,9.86,13.0
176.344,-17.857,11.165,14.0
160.005,-16.198,9.276,17.0
158.957,-16.087,8.369,17.0
143.025,-14.5,11.546,18.0
142.664,-14.456,10.751,5.0
143.554,-14.54,10.051,18.0
176.269,-17.844,11.382,21.0
160.233,-16.214,9.491,16.0
158.926,-16.076,8.567,14.0
