X,Y,Z,Reflectivity
26.229,3.085,-0.028,1.0
23.233,2.73,-0.158,0.0
45.783,5.369,0.951,9.0
44.215,5.18,0.665,4.0
37.05,4.336,0.345,0.0
29.318,3.428,0.103,0.0
25.888,3.024,-0.056,1.0
22.344,2.608,-0.176,0.0
45.602,5.311,0.898,9.0
44.001,5.119,0.614,2.0
0.0,0.0,0.0,0.0
29.247,3.396,0.071,3.0
24.605,2.854,-0.08,0.0
21.758,2.522,-0.195,0.0
45.349,5.243,0.843,5.0
0.0,0.0,0.0,0.0
33.119,3.821,0.238,0.0
28.721,3.31,0.039,1.0
24.154,2.781,-0.104,1.0
21.445,2.467,-0.215,0.0
29.227,2.78,0.099,5.0
25.266,2.398,-0.056,0.0
22.126,2.095,-0.174,3.0
19.58,1.85,-0.266,0.0
17.51,1.651,-0.337,0.0
16.017,1.507,-0.399,0.0
29.088,2.722,0.079,2.0
24.846,2.319,-0.072,0.0
21.846,2.035,-0.186,4.0
19.266,1.79,-0.275,0.0
17.322,1.606,-0.345,0.0
15.888,1.47,-0.406,0.0
28.631,2.635,0.06,1.0
24.594,2.258,-0.086,0.0
21.749,1.992,-0.199,3.0
19.103,1.745,-0.284,0.0
17.131,1.561,-0.351,0.0
15.768,1.434,-0.412,0.0
27.487,2.486,0.04,0.0
24.305,2.193,-0.1,0.0
21.598,1.944,-0.21,2.0
18.797,1.688,-0.291,0.0
16.968,1.52,-0.358,0.0
15.628,1.396,-0.418,0.0
26.79,2.38,0.024,1.0
24.015,2.128,-0.113,0.0
21.345,1.886,-0.22,0.0
18.507,1.631,-0.297,0.0
16.787,1.476,-0.364,0.0
15.486,1.358,-0.423,0.0
26.639,2.323,0.009,1.0
23.504,2.044,-0.123,0.0
21.061,1.827,-0.229,0.0
18.371,1.589,-0.304,0.0
16.668,1.438,-0.37,0.0
15.291,1.316,-0.425,0.0
26.505,2.266,-0.004,1.0
23.415,1.996,-0.135,1.0
20.811,1.77,-0.236,0.0
18.202,1.544,-0.311,0.0
16.548,1.399,-0.375,0.0
15.24,1.285,-0.431,0.0
26.01,2.18,-0.016,1.0
22.994,1.921,-0.143,0.0
20.509,1.709,-0.243,0.0
18.005,1.496,-0.316,0.0
16.395,1.358,-0.379,0.0
15.092,1.247,-0.434,0.0
25.772,2.115,-0.028,0.0
22.851,1.87,-0.153,1.0
20.301,1.656,-0.249,0.0
17.876,1.454,-0.321,0.0
16.216,1.315,-0.382,0.0
14.927,1.207,-0.436,0.0
25.544,2.051,-0.038,0.0
22.735,1.82,-0.161,1.0
19.981,1.594,-0.253,0.0
17.705,1.409,-0.325,0.0
16.197,1.285,-0.388,0.0
14.918,1.18,-0.441,0.0
25.348,1.99,-0.047,0.0
22.59,1.768,-0.169,0.0
19.634,1.532,-0.256,0.0
17.603,1.369,-0.33,0.0
16.14,1.251,-0.393,0.0
14.812,1.145,-0.443,0.0
25.231,1.936,-0.056,0.0
22.481,1.719,-0.175,0.0
19.628,1.496,-0.263,0.0
17.44,1.325,-0.333,0.0
15.996,1.211,-0.394,0.0
14.756,1.113,-0.446,0.0
25.024,1.875,-0.063,0.0
22.232,1.66,-0.18,0.0
19.38,1.442,-0.265,0.0
17.273,1.281,-0.334,0.0
15.91,1.175,-0.397,0.0
14.679,1.081,-0.448,0.0
24.77,1.811,-0.069,1.0
22.09,1.609,-0.185,0.0
19.23,1.395,-0.268,0.0
17.308,1.251,-0.34,0.0
15.883,1.144,-0.4,0.0
14.646,1.051,-0.45,0.0
24.585,1.751,-0.075,0.0
21.893,1.554,-0.188,0.0
19.1,1.35,-0.271,0.0
17.17,1.209,-0.34,0.0
15.85,1.112,-0.403,0.0
14.582,1.019,-0.451,0.0
24.373,1.691,-0.079,1.0
21.824,1.508,-0.192,0.0
19.128,1.317,-0.275,0.0
17.129,1.174,-0.343,0.0
15.818,1.08,-0.405,0.0
14.494,0.986,-0.451,0.0
24.357,1.644,-0.083,1.0
21.785,1.465,-0.195,0.0
19.008,1.273,-0.276,0.0
17.098,1.14,-0.345,0.0
15.779,1.048,-0.406,0.0
14.414,0.953,-0.451,0.0
24.559,1.611,-0.087,0.0
21.736,1.419,-0.197,0.0
19.105,1.242,-0.279,0.0
17.003,1.101,-0.345,0.0
15.736,1.014,-0.406,0.0
14.503,0.931,-0.455,0.0
24.567,1.564,-0.089,0.0
21.65,1.372,-0.198,0.0
18.868,1.19,-0.277,0.0
16.992,1.067,-0.346,0.0
15.705,0.982,-0.406,0.0
14.364,0.894,-0.451,0.0
24.517,1.514,-0.09,0.0
21.531,1.323,-0.198,1.0
18.895,1.156,-0.279,0.0
16.955,1.032,-0.346,0.0
15.726,0.953,-0.407,0.0
14.439,0.871,-0.454,0.0
24.497,1.465,-0.091,0.0
21.616,1.286,-0.199,2.0
18.908,1.12,-0.279,0.0
16.982,1.0,-0.346,0.0
15.743,0.923,-0.408,0.0
14.553,0.849,-0.457,0.0
24.533,1.419,-0.09,0.0
21.691,1.248,-0.199,3.0
18.999,1.087,-0.28,0.0
16.997,0.968,-0.346,0.0
15.769,0.893,-0.408,0.0
14.463,0.815,-0.454,0.0
24.57,1.373,-0.089,0.0
21.731,1.207,-0.198,4.0
18.955,1.048,-0.278,0.0
16.993,0.934,-0.344,0.0
15.74,0.861,-0.405,0.0
14.455,0.786,-0.452,0.0
24.663,1.329,-0.087,0.0
21.751,1.166,-0.196,2.0
19.06,1.016,-0.277,0.0
17.04,0.903,-0.343,0.0
15.778,0.831,-0.404,0.0
14.351,0.752,-0.447,0.0
24.804,1.287,-0.084,0.0
21.836,1.127,-0.194,2.0
18.923,0.97,-0.272,0.0
17.084,0.871,-0.341,0.0
15.786,0.8,-0.402,0.0
14.444,0.728,-0.447,0.0
24.791,1.236,-0.08,0.0
21.898,1.085,-0.19,2.0
19.14,0.943,-0.272,0.0
17.097,0.837,-0.338,0.0
15.821,0.77,-0.4,0.0
14.559,0.704,-0.448,0.0
25.027,1.198,-0.075,0.0
21.98,1.045,-0.186,1.0
19.255,0.91,-0.269,0.0
17.169,0.806,-0.336,0.0
15.891,0.741,-0.398,0.0
14.601,0.677,-0.445,0.0
25.088,1.151,-0.069,0.0
22.139,1.008,-0.182,1.0
19.477,0.881,-0.267,0.0
17.205,0.773,-0.331,0.0
15.872,0.708,-0.393,0.0
14.728,0.653,-0.445,0.0
25.181,1.104,-0.062,1.0
22.251,0.968,-0.176,0.0
19.549,0.845,-0.262,0.0
17.346,0.744,-0.329,0.0
15.975,0.68,-0.39,0.0
14.731,0.623,-0.44,0.0
25.409,1.062,-0.054,0.0
22.449,0.931,-0.17,0.0
19.753,0.813,-0.257,0.0
17.495,0.715,-0.325,0.0
16.045,0.651,-0.386,0.0
14.847,0.597,-0.438,0.0
25.753,1.024,-0.045,1.0
22.661,0.894,-0.163,0.0
19.872,0.778,-0.251,0.0
17.62,0.684,-0.321,0.0
16.093,0.62,-0.381,0.0
14.868,0.568,-0.433,0.0
25.833,0.976,-0.035,10.0
22.848,0.856,-0.155,0.0
19.918,0.74,-0.244,0.0
17.897,0.659,-0.318,0.0
16.229,0.592,-0.377,0.0
14.824,0.537,-0.425,0.0
26.186,0.936,-0.024,0.0
23.177,0.821,-0.147,0.0
20.333,0.714,-0.239,0.0
17.963,0.625,-0.311,0.0
16.386,0.565,-0.373,0.0
15.046,0.514,-0.424,0.0
26.524,0.895,-0.011,1.0
23.433,0.783,-0.137,0.0
20.606,0.682,-0.232,0.0
18.073,0.592,-0.304,0.0
16.51,0.536,-0.367,0.0
15.138,0.486,-0.419,0.0
26.689,0.846,0.002,0.0
23.636,0.742,-0.126,0.0
21.169,0.658,-0.227,0.0
18.223,0.56,-0.296,0.0
16.659,0.507,-0.361,0.0
15.443,0.465,-0.418,0.0
27.08,0.804,0.017,0.0
23.972,0.704,-0.114,0.0
21.456,0.623,-0.218,1.0
18.408,0.529,-0.288,0.0
16.775,0.477,-0.354,0.0
15.542,0.437,-0.412,0.0
27.234,0.754,0.034,0.0
24.12,0.66,-0.1,0.0
21.678,0.586,-0.207,0.0
18.808,0.503,-0.283,0.0
16.902,0.446,-0.346,0.0
15.655,0.408,-0.405,0.0
27.528,0.707,0.052,0.0
24.802,0.629,-0.087,0.0
21.993,0.55,-0.196,0.0
19.04,0.47,-0.274,0.0
17.078,0.416,-0.338,0.0
15.818,0.381,-0.398,0.0
28.789,0.682,0.073,1.0
25.225,0.589,-0.071,0.0
22.26,0.513,-0.183,0.0
19.482,0.442,-0.267,0.0
17.293,0.387,-0.33,0.0
15.947,0.352,-0.39,0.0
28.805,0.624,0.094,4.0
25.628,0.547,-0.053,0.0
22.658,0.476,-0.169,0.0
19.745,0.408,-0.256,0.0
17.589,0.358,-0.323,0.0
16.14,0.324,-0.383,0.0
28.814,0.567,0.116,1.0
25.994,0.503,-0.034,0.0
23.194,0.441,-0.155,0.0
20.117,0.376,-0.245,0.0
17.897,0.329,-0.314,0.0
16.345,0.295,-0.375,0.0
28.905,0.512,0.139,0.0
26.567,0.461,-0.014,0.0
23.641,0.403,-0.139,0.0
20.441,0.342,-0.232,0.0
18.166,0.298,-0.304,0.0
16.534,0.266,-0.366,0.0
28.952,0.455,0.163,1.0
26.809,0.413,0.007,0.0
24.081,0.363,-0.122,0.0
21.268,0.314,-0.224,0.0
18.382,0.266,-0.292,0.0
16.729,0.236,-0.356,0.0
28.877,0.398,0.187,0.0
27.468,0.37,0.031,0.0
24.484,0.322,-0.103,0.0
21.779,0.279,-0.21,1.0
18.792,0.235,-0.282,0.0
16.922,0.206,-0.345,0.0
31.593,0.374,0.233,0.0
28.514,0.328,0.058,1.0
25.095,0.281,-0.082,0.0
22.048,0.24,-0.192,2.0
19.213,0.203,-0.271,0.0
17.162,0.176,-0.333,0.0
0.0,0.0,0.0,0.0
28.767,0.276,0.085,6.0
25.62,0.238,-0.06,0.0
22.429,0.201,-0.175,1.0
19.677,0.17,-0.258,0.0
17.528,0.146,-0.324,0.0
33.262,0.266,0.309,0.0
28.853,0.221,0.114,2.0
26.05,0.191,-0.035,0.0
23.106,0.162,-0.157,0.0
20.343,0.137,-0.247,0.0
17.928,0.115,-0.313,0.0
34.318,0.208,0.354,0.0
28.933,0.166,0.144,0.0
26.723,0.145,-0.009,0.0
23.426,0.12,-0.135,0.0
20.962,0.101,-0.233,2.0
18.27,0.082,-0.3,0.0
35.656,0.15,0.404,0.0
30.338,0.118,0.182,0.0
27.169,0.097,0.018,0.0
24.278,0.079,-0.115,0.0
21.327,0.063,-0.214,4.0
18.673,0.049,-0.287,0.0
36.109,0.084,0.447,0.0
0.0,0.0,0.0,0.0
28.179,0.048,0.049,1.0
24.963,0.035,-0.091,0.0
21.885,0.024,-0.196,1.0
19.153,0.015,-0.273,0.0
37.053,0.018,0.5,0.0
32.971,0.007,0.269,0.0
28.614,-0.002,0.081,1.0
25.631,-0.01,-0.065,0.0
22.661,-0.015,-0.178,0.0
19.849,-0.019,-0.261,0.0
36.99,-0.048,0.541,0.0
33.207,-0.053,0.309,1.0
28.803,-0.055,0.115,6.0
26.167,-0.057,-0.036,0.0
23.436,-0.058,-0.157,0.0
20.405,-0.057,-0.245,0.0
40.281,-0.125,0.635,0.0
0.0,0.0,0.0,0.0
28.848,-0.106,0.149,2.0
26.716,-0.106,-0.006,0.0
23.918,-0.102,-0.132,0.0
21.326,-0.097,-0.23,0.0
0.0,0.0,0.0,0.0
35.782,-0.184,0.417,0.0
31.201,-0.17,0.198,1.0
27.508,-0.158,0.026,0.0
24.582,-0.148,-0.106,0.0
21.929,-0.138,-0.21,1.0
0.0,0.0,0.0,0.0
0.0,0.0,0.0,0.0
31.864,-0.229,0.242,2.0
28.606,-0.214,0.062,4.0
25.316,-0.197,-0.077,0.0
22.434,-0.181,-0.187,1.0
0.0,0.0,0.0,0.0
0.0,0.0,0.0,0.0
32.723,-0.292,0.289,1.0
28.754,-0.265,0.1,4.0
25.852,-0.246,-0.046,0.0
22.996,-0.225,-0.162,0.0
0.0,0.0,0.0,0.0
0.0,0.0,0.0,0.0
33.678,-0.358,0.341,0.0
28.844,-0.315,0.137,0.0
26.583,-0.298,-0.013,0.0
23.739,-0.273,-0.136,0.0
0.0,0.0,0.0,0.0
0.0,0.0,0.0,0.0
34.149,-0.421,0.392,0.0
30.99,-0.39,0.189,0.0
27.602,-0.356,0.023,0.0
24.549,-0.323,-0.108,0.0
0.0,0.0,0.0,0.0
0.0,0.0,0.0,0.0
37.629,-0.526,0.482,0.0
31.818,-0.454,0.237,0.0
28.501,-0.414,0.062,1.0
25.387,-0.376,-0.077,0.0
63.947,-0.964,1.581,0.0
47.817,-0.734,0.931,0.0
38.054,-0.594,0.54,0.0
33.478,-0.532,0.296,1.0
28.685,-0.464,0.103,0.0
26.11,-0.429,-0.043,0.0
0.0,0.0,0.0,0.0
0.0,0.0,0.0,0.0
0.0,0.0,0.0,0.0
33.995,-0.595,0.348,1.0
28.761,-0.511,0.144,0.0
27.003,-0.487,-0.006,0.0
0.0,0.0,0.0,0.0
0.0,0.0,0.0,0.0
0.0,0.0,0.0,0.0
0.0,0.0,0.0,0.0
31.203,-0.603,0.201,0.0
27.982,-0.548,0.033,1.0
90.274,-1.792,2.617,1.0
0.0,0.0,0.0,0.0
0.0,0.0,0.0,0.0
38.073,-0.785,0.5,0.0
32.986,-0.688,0.26,1.0
28.639,-0.605,0.076,6.0
91.776,-1.961,2.795,1.0
0.0,0.0,0.0,0.0
0.0,0.0,0.0,0.0
0.0,0.0,0.0,0.0
33.54,-0.751,0.314,1.0
28.739,-0.651,0.119,6.0
96.831,-2.215,3.094,5.0
0.0,0.0,0.0,0.0
0.0,0.0,0.0,0.0
0.0,0.0,0.0,0.0
35.105,-0.837,0.382,0.0
31.009,-0.748,0.175,0.0
96.915,-2.36,3.244,1.0
0.0,0.0,0.0,0.0
0.0,0.0,0.0,0.0
0.0,0.0,0.0,0.0
36.059,-0.912,0.447,0.0
31.673,-0.809,0.228,0.0
92.454,-2.383,3.236,174.0
0.0,0.0,0.0,0.0
0.0,0.0,0.0,0.0
0.0,0.0,0.0,0.0
38.954,-1.041,0.544,0.0
33.148,-0.893,0.29,0.0
92.359,-2.51,3.376,162.0
93.073,-2.552,2.915,1.0
0.0,0.0,0.0,0.0
0.0,0.0,0.0,0.0
0.0,0.0,0.0,0.0
0.0,0.0,0.0,0.0
92.328,-2.636,3.52,23.0
92.337,-2.657,3.038,13.0
0.0,0.0,0.0,0.0
0.0,0.0,0.0,0.0
0.0,0.0,0.0,0.0
36.023,-1.069,0.429,0.0
92.301,-2.76,3.667,22.0
92.221,-2.777,3.182,40.0
0.0,0.0,0.0,0.0
0.0,0.0,0.0,0.0
0.0,0.0,0.0,0.0
0.0,0.0,0.0,0.0
92.292,-2.879,3.815,6.0
92.239,-2.897,3.332,150.0
92.99,-2.94,2.873,3.0
0.0,0.0,0.0,0.0
0.0,0.0,0.0,0.0
40.347,-1.301,0.611,0.0
0.0,0.0,0.0,0.0
92.258,-3.014,3.483,171.0
92.453,-3.04,3.008,9.0
0.0,0.0,0.0,0.0
0.0,0.0,0.0,0.0
0.0,0.0,0.0,0.0
93.47,-3.149,4.169,1.0
92.237,-3.125,3.632,150.0
92.149,-3.14,3.147,40.0
0.0,0.0,0.0,0.0
0.0,0.0,0.0,0.0
0.0,0.0,0.0,0.0
190.211,-6.634,8.798,20.0
92.219,-3.234,3.785,14.0
92.216,-3.252,3.303,150.0
0.0,0.0,0.0,0.0
0.0,0.0,0.0,0.0
0.0,0.0,0.0,0.0
113.45,-4.09,5.438,22.0
0.0,0.0,0.0,0.0
92.206,-3.357,3.458,154.0
92.482,-3.385,2.978,6.0
0.0,0.0,0.0,0.0
0.0,0.0,0.0,0.0
113.379,-4.214,5.626,25.0
113.424,-4.235,5.037,7.0
92.179,-3.458,3.612,49.0
92.117,-3.472,3.121,81.0
0.0,0.0,0.0,0.0
0.0,0.0,0.0,0.0
113.478,-4.339,5.822,11.0
113.505,-4.359,5.231,6.0
92.205,-3.557,3.769,13.0
92.128,-3.571,3.278,58.0
93.095,-3.624,2.828,1.0
0.0,0.0,0.0,0.0
122.586,-4.817,6.5,10.0
194.809,-7.688,9.315,13.0
0.0,0.0,0.0,0.0
92.145,-3.666,3.437,59.0
92.41,-3.692,2.966,5.0
0.0,0.0,0.0,0.0
113.654,-4.583,6.224,5.0
113.49,-4.593,5.622,13.0
93.587,-3.802,4.148,1.0
92.237,-3.761,3.599,11.0
92.164,-3.772,3.117,109.0
0.0,0.0,0.0,0.0
97.946,-4.044,5.533,21.0
120.252,-4.982,6.165,13.0
120.255,-5.0,5.54,26.0
92.522,-3.861,3.771,9.0
92.207,-3.862,3.279,173.0
0.0,0.0,0.0,0.0
89.973,-3.799,5.239,10.0
120.174,-5.09,6.37,12.0
120.21,-5.108,5.746,31.0
0.0,0.0,0.0,0.0
92.248,-3.945,3.439,43.0
92.463,-3.968,2.966,3.0
89.762,-3.87,5.382,16.0
90.043,-3.894,4.93,14.0
120.257,-5.217,5.958,8.0
0.0,0.0,0.0,0.0
92.549,-4.039,3.613,4.0
92.42,-4.045,3.127,7.0
91.052,-4.003,5.619,14.0
89.984,-3.968,5.085,10.0
194.49,-8.601,9.978,9.0
194.596,-8.63,8.95,8.0
0.0,0.0,0.0,0.0
92.692,-4.133,3.299,4.0
91.084,-4.08,5.781,17.0
89.892,-4.036,5.237,16.0
111.819,-5.034,5.932,16.0
164.329,-7.417,7.846,24.0
0.0,0.0,0.0,0.0
93.413,-4.237,3.488,4.0
90.924,-4.142,5.931,18.0
90.904,-4.151,5.456,15.0
112.117,-5.132,6.144,15.0
164.307,-7.539,8.133,25.0
0.0,0.0,0.0,0.0
94.359,-4.349,3.69,5.0
90.622,-4.195,6.072,24.0
90.809,-4.213,5.611,6.0
97.9,-4.551,5.538,13.0
111.549,-5.197,5.717,17.0
164.382,-7.676,7.571,11.0
0.0,0.0,0.0,0.0
89.107,-4.187,6.127,15.0
90.674,-4.269,5.761,13.0
97.988,-4.621,5.715,11.0
112.655,-5.324,5.972,13.0
194.464,-9.209,9.298,12.0
0.0,0.0,0.0,0.0
88.949,-4.237,6.272,19.0
108.457,-5.176,7.082,10.0
109.052,-5.212,6.552,7.0
112.088,-5.367,6.139,8.0
189.62,-9.096,9.399,17.0
0.0,0.0,0.0,0.0
89.241,-4.307,6.453,23.0
91.425,-4.418,6.132,15.0
90.749,-4.392,5.612,9.0
98.023,-4.752,5.542,16.0
189.376,-9.194,9.721,12.0
0.0,0.0,0.0,0.0
88.151,-4.304,6.529,20.0
88.146,-4.309,6.067,24.0
92.013,-4.504,5.853,26.0
112.369,-5.509,6.55,14.0
112.34,-5.514,5.963,11.0
194.481,-9.56,9.311,8.0
88.253,-4.356,6.692,18.0
88.32,-4.364,6.234,24.0
91.895,-4.546,6.007,16.0
92.057,-4.559,5.528,10.0
112.538,-5.581,6.172,8.0
189.394,-9.402,9.4,17.0
88.467,-4.41,6.863,17.0
88.739,-4.428,6.421,19.0
88.11,-4.4,5.914,8.0
91.969,-4.597,5.683,16.0
97.943,-4.901,5.54,14.0
189.358,-9.485,9.726,17.0
88.779,-4.465,7.043,19.0
88.412,-4.45,6.55,13.0
88.168,-4.441,6.071,25.0
92.008,-4.638,5.846,8.0
112.178,-5.66,6.542,13.0
112.64,-5.689,5.981,6.0
89.5,-4.537,7.257,16.0
88.31,-4.48,6.698,22.0
88.329,-4.484,6.236,28.0
108.533,-5.514,7.085,11.0
111.917,-5.688,6.722,14.0
123.099,-6.261,6.751,12.0
88.531,-4.521,7.333,15.0
88.938,-4.543,6.9,23.0
88.387,-4.518,6.394,15.0
92.129,-4.711,6.174,7.0
112.14,-5.737,6.928,6.0
112.161,-5.741,6.345,9.0
88.668,-4.557,7.499,16.0
89.223,-4.587,7.077,12.0
88.262,-4.538,6.538,16.0
87.984,-4.525,6.048,13.0
108.605,-5.589,6.896,16.0
112.273,-5.779,6.545,17.0
88.829,-4.59,7.666,25.0
88.633,-4.581,7.183,16.0
87.899,-4.544,6.662,16.0
88.118,-4.555,6.208,28.0
108.508,-5.61,7.077,13.0
112.168,-5.801,6.729,18.0
89.231,-4.633,7.855,20.0
88.604,-4.599,7.334,21.0
89.027,-4.622,6.9,14.0
88.437,-4.591,6.382,16.0
92.267,-4.789,6.175,10.0
112.096,-5.819,6.916,5.0
89.297,-4.654,8.013,8.0
88.673,-4.62,7.489,23.0
88.974,-4.635,7.047,17.0
88.149,-4.592,6.509,17.0
87.9,-4.577,6.03,15.0
108.658,-5.658,6.885,6.0
87.426,-4.571,7.992,20.0
88.8,-4.641,7.65,25.0
88.59,-4.628,7.166,27.0
87.963,-4.594,6.644,16.0
88.066,-4.598,6.19,27.0
108.511,-5.664,7.058,8.0
86.918,-4.555,8.094,14.0
89.151,-4.669,7.831,15.0
88.656,-4.641,7.32,23.0
89.022,-4.658,6.873,12.0
88.455,-4.625,6.364,19.0
92.404,-4.83,6.163,10.0
87.506,-4.592,8.294,25.0
89.285,-4.683,7.991,6.0
88.715,-4.649,7.471,25.0
88.969,-4.66,7.015,16.0
88.082,-4.611,6.482,16.0
87.848,-4.595,6.004,14.0
88.053,-4.624,8.492,14.0
87.43,-4.588,7.969,19.0
88.748,-4.653,7.619,21.0
88.578,-4.64,7.129,25.0
87.87,-4.6,6.609,18.0
88.002,-4.604,6.157,28.0
84.839,-4.455,8.32,18.0
0.0,0.0,0.0,0.0
89.057,-4.668,7.79,16.0
88.641,-4.641,7.277,25.0
88.967,-4.654,6.835,12.0
88.282,-4.615,6.318,19.0
88.237,-4.63,8.797,5.0
87.257,-4.574,8.236,16.0
89.317,-4.676,7.958,11.0
88.676,-4.638,7.422,26.0
89.121,-4.656,6.989,13.0
88.389,-4.613,6.466,17.0
83.76,-4.388,8.484,15.0
87.968,-4.603,8.444,16.0
87.506,-4.573,7.935,13.0
88.717,-4.631,7.565,28.0
88.716,-4.625,7.097,26.0
87.934,-4.579,6.571,23.0
83.585,-4.369,8.599,16.0
84.92,-4.432,8.284,19.0
87.13,-4.542,8.038,14.0
88.936,-4.63,7.724,21.0
88.594,-4.605,7.225,21.0
88.148,-4.576,6.724,15.0
82.241,-4.286,8.589,14.0
84.956,-4.42,8.42,15.0
85.242,-4.428,7.995,10.0
89.264,-4.63,7.89,21.0
88.604,-4.589,7.362,16.0
89.049,-4.605,6.928,17.0
82.286,-4.272,8.72,25.0
88.868,-4.606,8.944,8.0
87.615,-4.533,8.351,16.0
89.322,-4.613,8.031,10.0
88.677,-4.573,7.502,18.0
89.351,-4.601,7.086,12.0
82.465,-4.261,8.865,26.0
83.536,-4.308,8.534,19.0
85.014,-4.377,8.231,11.0
87.015,-4.472,7.953,15.0
88.783,-4.555,7.643,22.0
89.257,-4.571,7.211,19.0
82.651,-4.248,9.008,26.0
83.549,-4.286,8.659,7.0
84.978,-4.351,8.353,28.0
85.264,-4.357,7.917,11.0
88.866,-4.532,7.779,19.0
88.583,-4.51,7.284,9.0
82.551,-4.217,9.116,19.0
82.251,-4.193,8.643,15.0
84.542,-4.302,8.431,19.0
85.273,-4.33,8.041,16.0
88.856,-4.501,7.906,19.0
88.678,-4.484,7.418,12.0
81.351,-4.128,9.102,21.0
82.341,-4.169,8.771,18.0
83.826,-4.234,8.48,19.0
85.257,-4.298,8.16,14.0
0.0,0.0,0.0,0.0
88.741,-4.453,7.548,12.0
81.375,-4.098,9.219,14.0
82.473,-4.143,8.9,24.0
83.308,-4.175,8.544,13.0
85.185,-4.26,8.271,16.0
87.314,-4.356,8.011,19.0
88.906,-4.425,7.684,13.0
81.993,-4.095,9.403,21.0
82.535,-4.111,9.022,27.0
83.488,-4.149,8.677,16.0
85.077,-4.217,8.378,25.0
87.495,-4.326,8.147,16.0
88.875,-4.383,7.801,12.0
82.005,-4.059,9.516,26.0
81.541,-4.024,9.023,17.0
83.463,-4.108,8.786,10.0
84.862,-4.167,8.468,14.0
85.344,-4.178,8.06,26.0
90.764,-4.432,8.087,8.0
81.981,-4.017,9.622,12.0
81.414,-3.978,9.116,25.0
83.368,-4.062,8.886,17.0
82.512,-4.008,8.343,7.0
85.335,-4.134,8.17,21.0
88.652,-4.284,8.012,6.0
86.019,-4.169,10.208,13.0
81.524,-3.94,9.234,14.0
83.104,-4.005,8.964,21.0
82.64,-3.971,8.461,21.0
85.307,-4.086,8.275,13.0
0.0,0.0,0.0,0.0
86.088,-4.126,10.325,14.0
81.873,-3.911,9.377,17.0
82.747,-3.94,9.03,21.0
82.461,-3.914,8.545,14.0
79.574,-3.766,7.817,20.0
87.818,-4.143,8.155,14.0
80.743,-3.822,9.784,14.0
82.102,-3.874,9.503,21.0
81.781,-3.845,9.023,15.0
82.052,-3.845,8.602,21.0
85.374,-3.988,8.49,9.0
85.356,-3.974,8.029,8.0
80.648,-3.767,9.871,18.0
81.952,-3.815,9.585,20.0
81.711,-3.79,9.113,22.0
81.946,-3.789,8.687,32.0
83.613,-3.852,8.412,9.0
82.359,-3.782,7.842,15.0
80.569,-3.711,9.955,12.0
81.308,-3.732,9.603,21.0
81.636,-3.733,9.199,20.0
82.052,-3.739,8.792,30.0
83.985,-3.813,8.545,11.0
79.402,-3.593,7.649,8.0
80.646,-3.66,10.056,7.0
80.87,-3.656,9.643,27.0
81.746,-3.682,9.302,22.0
82.287,-3.691,8.909,29.0
84.569,-3.78,8.697,21.0
79.23,-3.529,7.719,20.0
82.544,-3.686,10.383,19.0
80.848,-3.596,9.729,26.0
81.499,-3.611,9.363,30.0
82.462,-3.64,9.016,29.0
79.642,-3.502,8.276,13.0
79.255,-3.471,7.806,23.0
82.553,-3.625,10.473,13.0
80.947,-3.541,9.826,31.0
81.332,-3.543,9.428,26.0
80.852,-3.508,8.924,15.0
79.762,-3.447,8.369,9.0
79.502,-3.422,7.911,31.0
82.554,-3.562,10.557,8.0
81.734,-3.512,10.004,25.0
81.295,-3.479,9.506,27.0
80.782,-3.441,8.997,33.0
64.606,-2.741,6.843,7.0
79.419,-3.355,7.981,31.0
89.744,-3.8,11.566,8.0
81.893,-3.453,10.105,24.0
81.48,-3.421,9.607,16.0
80.861,-3.378,9.084,29.0
64.581,-2.687,6.903,17.0
79.457,-3.292,8.059,25.0
86.045,-3.572,11.172,15.0
81.364,-3.363,10.116,15.0
81.511,-3.354,9.687,16.0
81.065,-3.32,9.182,23.0
80.249,-3.272,8.65,12.0
79.658,-3.233,8.152,18.0
86.006,-3.498,11.245,10.0
81.228,-3.289,10.172,16.0
77.452,-3.12,9.274,9.0
81.446,-3.266,9.297,27.0
80.377,-3.207,8.735,19.0
79.946,-3.176,8.251,10.0
80.385,-3.2,10.58,23.0
80.918,-3.205,10.203,26.0
77.468,-3.053,9.342,20.0
81.518,-3.197,9.373,12.0
78.842,-3.077,8.633,11.0
64.695,-2.513,6.729,8.0
80.314,-3.125,10.637,20.0
81.057,-3.138,10.287,28.0
77.475,-2.984,9.405,12.0
77.242,-2.959,8.944,11.0
78.756,-3.002,8.686,16.0
64.613,-2.45,6.772,18.0
76.154,-2.893,10.147,15.0
81.247,-3.07,10.375,22.0
81.648,-3.068,9.975,20.0
77.274,-2.889,9.006,23.0
78.718,-2.927,8.741,25.0
64.537,-2.387,6.812,38.0
76.206,-2.822,10.211,19.0
80.256,-2.956,10.308,14.0
81.087,-2.971,9.965,25.0
77.435,-2.821,9.081,25.0
78.702,-2.852,8.795,25.0
64.802,-2.336,6.885,18.0
76.268,-2.752,10.273,23.0
80.091,-2.873,10.342,24.0
81.031,-2.891,10.014,10.0
77.45,-2.747,9.135,26.0
78.735,-2.776,8.852,18.0
64.831,-2.273,6.931,17.0
76.382,-2.681,10.339,17.0
80.026,-2.792,10.386,18.0
76.741,-2.662,9.533,36.0
76.976,-2.655,9.128,34.0
78.806,-2.702,8.909,17.0
78.998,-2.692,8.494,16.0
76.349,-2.604,10.381,25.0
75.68,-2.566,9.868,13.0
76.654,-2.583,9.568,34.0
77.0,-2.578,9.176,28.0
78.951,-2.628,8.971,13.0
79.237,-2.621,8.565,11.0
76.577,-2.534,10.456,11.0
75.736,-2.491,9.918,30.0
76.556,-2.501,9.598,30.0
77.311,-2.51,9.255,33.0
77.732,-2.508,8.874,8.0
80.109,-2.568,8.702,15.0
76.393,-2.449,10.472,23.0
75.818,-2.414,9.968,22.0
76.861,-2.432,9.676,16.0
77.53,-2.437,9.321,10.0
77.603,-2.422,8.898,24.0
64.877,-2.012,7.079,7.0
76.44,-2.37,10.515,24.0
75.902,-2.337,10.016,11.0
76.229,-2.332,9.632,27.0
77.358,-2.35,9.335,23.0
77.43,-2.336,8.913,35.0
78.935,-2.365,8.647,14.0
75.907,-2.274,10.475,13.0
78.745,-2.342,10.425,13.0
76.25,-2.251,9.667,31.0
77.315,-2.267,9.362,33.0
77.419,-2.253,8.943,31.0
64.981,-1.878,7.145,19.0
75.732,-2.187,10.481,18.0
76.342,-2.187,10.137,24.0
76.108,-2.164,9.678,30.0
77.044,-2.176,9.358,24.0
75.977,-2.13,8.804,15.0
64.98,-1.808,7.167,6.0
76.252,-2.118,10.58,17.0
76.44,-2.107,10.176,24.0
75.894,-2.076,9.676,21.0
77.114,-2.093,9.392,8.0
75.97,-2.046,8.827,14.0
76.028,-2.032,8.41,12.0
76.363,-2.036,10.619,29.0
76.405,-2.021,10.194,24.0
74.083,-1.944,9.467,8.0
73.714,-1.919,8.998,34.0
76.008,-1.963,8.852,19.0
75.991,-1.947,8.425,20.0
76.151,-1.946,10.61,25.0
76.466,-1.938,10.221,19.0
74.123,-1.863,9.49,21.0
73.796,-1.839,9.026,32.0
76.014,-1.878,8.87,31.0
66.988,-1.642,7.442,12.0
76.002,-1.856,10.605,25.0
75.727,-1.833,10.138,9.0
63.866,-1.534,8.189,18.0
74.004,-1.761,9.065,21.0
75.998,-1.793,8.882,8.0
64.793,-1.515,7.209,15.0
76.21,-1.776,10.647,21.0
64.026,-1.478,8.582,30.0
63.822,-1.461,8.193,25.0
74.121,-1.681,9.09,18.0
73.897,-1.66,8.646,27.0
64.752,-1.441,7.213,25.0
76.974,-1.705,10.763,8.0
63.929,-1.403,8.576,31.0
63.937,-1.389,8.215,32.0
74.249,-1.598,9.113,11.0
73.766,-1.573,8.637,26.0
64.856,-1.37,7.23,18.0
65.103,-1.368,9.108,10.0
64.209,-1.336,8.618,34.0
64.165,-1.322,8.248,15.0
73.917,-1.508,9.075,27.0
74.118,-1.498,8.682,17.0
65.215,-1.305,7.272,10.0
65.157,-1.295,9.117,14.0
64.31,-1.265,8.632,30.0
74.317,-1.446,9.554,10.0
73.838,-1.421,9.066,30.0
68.122,-1.297,7.979,26.0
65.21,-1.228,7.27,28.0
65.197,-1.22,9.121,23.0
64.206,-1.188,8.617,27.0
74.395,-1.362,9.561,25.0
73.885,-1.338,9.069,34.0
68.071,-1.218,7.97,20.0
64.906,-1.149,7.233,30.0
74.021,-1.3,10.351,10.0
64.108,-1.112,8.599,28.0
64.083,-1.099,8.23,15.0
74.399,-1.261,9.125,25.0
74.14,-1.242,8.673,19.0
64.88,-1.074,7.223,22.0
64.451,-1.057,9.005,36.0
62.371,-1.01,8.358,19.0
58.453,-0.934,7.5,26.0
63.562,-1.003,7.787,21.0
73.886,-1.152,8.633,10.0
65.475,-1.008,7.279,16.0
64.4,-0.981,8.988,32.0
62.467,-0.939,8.361,17.0
58.496,-0.868,7.495,25.0
63.641,-0.932,7.785,16.0
63.086,-0.911,7.359,11.0
65.189,-0.929,7.235,13.0
64.37,-0.906,8.971,25.0
62.566,-0.868,8.36,9.0
58.532,-0.801,7.487,26.0
0.0,0.0,0.0,0.0
63.213,-0.84,7.359,9.0
64.026,-0.838,7.09,14.0
57.454,-0.741,7.992,23.0
57.525,-0.732,7.672,23.0
58.588,-0.734,7.478,32.0
0.0,0.0,0.0,0.0
59.311,-0.72,6.887,28.0
57.974,-0.693,6.403,17.0
57.597,-0.677,7.995,21.0
57.531,-0.665,7.655,26.0
58.514,-0.666,7.45,32.0
57.932,-0.648,7.039,17.0
59.303,-0.652,6.867,25.0
56.853,-0.615,6.26,25.0
57.937,-0.615,8.021,33.0
57.704,-0.602,7.657,32.0
58.476,-0.599,7.424,32.0
58.037,-0.583,7.03,21.0
59.385,-0.586,6.855,26.0
56.635,-0.548,6.215,17.0
57.97,-0.549,8.003,33.0
57.811,-0.537,7.649,28.0
57.997,-0.528,7.34,32.0
63.674,-0.568,7.687,14.0
63.629,-0.556,7.318,22.0
56.705,-0.485,6.198,21.0
57.948,-0.484,7.975,33.0
57.927,-0.473,7.638,32.0
57.407,-0.457,7.24,23.0
63.676,-0.496,7.658,11.0
63.677,-0.485,7.294,31.0
56.809,-0.422,6.183,23.0
57.835,-0.417,7.931,19.0
58.098,-0.408,7.633,29.0
57.415,-0.394,7.212,25.0
58.938,-0.394,7.059,34.0
63.512,-0.413,7.243,32.0
56.845,-0.359,6.158,23.0
57.806,-0.352,7.897,28.0
58.233,-0.344,7.619,27.0
57.074,-0.327,7.139,32.0
59.11,-0.329,7.047,34.0
63.449,-0.342,7.201,27.0
56.998,-0.298,6.143,22.0
57.922,-0.289,7.88,27.0
58.339,-0.28,7.599,24.0
56.513,-0.262,7.035,27.0
59.273,-0.265,7.032,33.0
63.402,-0.272,7.158,32.0
57.034,-0.236,6.112,17.0
58.063,-0.225,7.863,33.0
58.242,-0.215,7.55,26.0
56.467,-0.2,6.994,27.0
59.221,-0.2,6.988,31.0
56.837,-0.182,6.38,7.0
57.029,-0.173,6.075,26.0
58.428,-0.162,7.873,31.0
0.0,0.0,0.0,0.0
56.612,-0.138,6.974,22.0
63.545,-0.145,7.455,23.0
56.686,-0.12,6.324,13.0
56.99,-0.112,6.031,27.0
58.504,-0.1,7.842,15.0
0.0,0.0,0.0,0.0
56.567,-0.077,6.927,22.0
65.068,-0.079,7.586,8.0
56.712,-0.06,6.286,24.0
57.101,-0.051,6.001,26.0
58.434,-0.037,7.789,24.0
48.794,-0.023,6.221,11.0
0.0,0.0,0.0,0.0
65.336,-0.011,7.568,16.0
56.773,0.0,6.249,31.0
57.241,0.007,5.972,17.0
58.49,0.023,7.751,29.0
58.173,0.032,7.371,7.0
56.641,0.04,6.848,10.0
64.855,0.056,7.459,11.0
56.851,0.057,6.211,30.0
57.29,0.066,5.93,26.0
59.008,0.085,7.769,34.0
48.917,0.078,6.156,20.0
56.772,0.099,6.816,8.0
64.947,0.123,7.415,23.0
56.932,0.116,6.172,24.0
57.303,0.125,5.882,12.0
59.551,0.147,7.788,27.0
49.003,0.128,6.124,24.0
52.074,0.143,6.205,17.0
72.282,0.209,8.188,8.0
56.974,0.173,6.125,13.0
57.316,0.183,5.831,18.0
59.617,0.207,7.742,15.0
52.567,0.19,6.52,12.0
52.084,0.196,6.158,25.0
63.547,0.248,7.138,21.0
56.983,0.23,6.072,6.0
57.425,0.24,5.787,31.0
62.87,0.282,8.102,7.0
52.42,0.242,6.45,17.0
52.526,0.25,6.158,26.0
56.955,0.279,6.341,8.0
59.202,0.298,6.249,13.0
57.165,0.295,5.704,32.0
58.543,0.32,7.485,20.0
56.862,0.318,6.939,11.0
52.557,0.301,6.108,6.0
56.24,0.329,6.205,29.0
56.537,0.338,5.91,18.0
57.26,0.351,5.655,31.0
58.472,0.375,7.415,9.0
52.15,0.341,6.309,25.0
56.365,0.376,6.491,10.0
56.445,0.384,6.166,30.0
56.531,0.392,5.849,25.0
57.19,0.403,5.586,28.0
48.641,0.358,6.114,23.0
52.237,0.391,6.262,26.0
56.211,0.428,6.411,29.0
56.327,0.435,6.092,30.0
56.495,0.443,5.782,27.0
57.232,0.456,5.527,27.0
48.166,0.398,6.0,13.0
52.346,0.439,6.216,26.0
56.085,0.477,6.333,23.0
56.387,0.487,6.033,27.0
56.668,0.495,5.735,30.0
57.148,0.506,5.453,29.0
48.305,0.443,5.961,19.0
57.21,0.53,6.726,10.0
56.16,0.527,6.276,29.0
56.933,0.541,6.025,26.0
57.437,0.551,5.745,30.0
56.962,0.553,5.368,27.0
48.552,0.487,5.933,23.0
57.407,0.582,6.68,28.0
56.2,0.576,6.212,28.0
50.099,0.518,5.241,24.0
57.629,0.602,5.694,27.0
56.763,0.599,5.28,28.0
52.523,0.571,6.353,20.0
48.507,0.532,5.584,14.0
56.329,0.624,6.155,29.0
50.071,0.559,5.175,22.0
57.594,0.65,5.618,31.0
56.709,0.645,5.203,26.0
52.353,0.612,6.265,11.0
56.431,0.665,6.423,10.0
56.495,0.671,6.101,26.0
50.059,0.6,5.109,14.0
57.547,0.694,5.539,24.0
56.501,0.688,5.111,26.0
52.34,0.653,6.194,11.0
56.445,0.71,6.35,23.0
56.627,0.717,6.039,18.0
50.066,0.639,5.043,14.0
57.635,0.741,5.47,29.0
56.442,0.73,5.03,25.0
48.992,0.649,5.731,16.0
56.557,0.755,6.285,12.0
50.21,0.674,5.287,20.0
58.475,0.79,5.811,11.0
57.315,0.78,5.362,30.0
62.745,0.859,5.506,7.0
48.807,0.683,5.642,29.0
56.61,0.797,6.213,8.0
50.16,0.71,5.211,20.0
58.488,0.833,5.73,10.0
56.766,0.813,5.231,30.0
58.933,0.849,5.089,24.0
48.674,0.716,5.557,14.0
50.228,0.742,5.44,24.0
50.132,0.744,5.137,12.0
57.441,0.858,5.545,31.0
56.589,0.85,5.133,26.0
58.978,0.89,5.007,20.0
0.0,0.0,0.0,0.0
50.287,0.778,5.372,24.0
55.039,0.855,5.559,19.0
57.256,0.894,5.443,29.0
56.648,0.888,5.055,20.0
58.997,0.929,4.922,19.0
50.072,0.803,5.569,31.0
50.227,0.809,5.292,24.0
55.128,0.892,5.485,23.0
56.963,0.925,5.33,31.0
58.981,0.962,5.175,18.0
62.752,1.027,5.141,17.0
50.11,0.835,5.497,24.0
50.153,0.839,5.207,7.0
49.685,0.834,4.868,12.0
56.764,0.956,5.225,31.0
58.945,0.997,5.082,13.0
63.136,1.072,5.076,13.0
50.197,0.866,5.427,21.0
57.294,0.992,5.859,11.0
49.409,0.858,4.764,23.0
56.746,0.989,5.134,31.0
62.457,1.092,5.286,36.0
63.213,1.109,4.982,22.0
57.357,1.022,6.11,11.0
55.074,0.985,5.544,18.0
57.133,1.024,5.417,12.0
57.278,1.029,5.091,26.0
62.616,1.129,5.201,15.0
63.198,1.142,4.881,11.0
57.436,1.054,6.027,14.0
55.261,1.017,5.474,25.0
57.287,1.056,5.34,26.0
62.602,1.157,5.463,10.0
63.237,1.172,5.151,14.0
76.869,1.427,5.814,12.0
49.97,0.941,5.162,8.0
55.103,1.041,5.369,8.0
57.346,1.085,5.252,25.0
62.607,1.187,5.362,30.0
63.208,1.201,5.045,28.0
76.819,1.462,5.684,32.0
55.121,1.064,5.602,21.0
57.715,1.115,5.528,9.0
57.295,1.11,5.152,29.0
62.689,1.216,5.265,31.0
76.873,1.494,6.007,11.0
83.577,1.627,6.046,13.0
55.092,1.087,5.506,26.0
57.572,1.138,5.417,31.0
62.011,1.227,5.472,18.0
63.44,1.257,5.22,32.0
76.877,1.525,5.878,9.0
83.202,1.653,5.878,13.0
49.395,0.994,4.852,11.0
57.424,1.157,5.304,31.0
62.588,1.262,5.415,25.0
63.004,1.272,5.076,19.0
83.631,1.691,6.25,28.0
76.891,1.556,5.298,10.0
49.265,1.009,4.753,16.0
57.308,1.174,5.193,29.0
63.526,1.303,5.386,25.0
62.893,1.291,4.958,20.0
83.499,1.716,6.096,28.0
82.503,1.697,5.542,30.0
57.622,1.198,5.459,26.0
62.142,1.293,5.523,28.0
63.371,1.32,5.261,38.0
83.852,1.747,6.463,15.0
83.514,1.741,5.951,20.0
82.749,1.726,5.414,27.0
57.464,1.211,5.342,25.0
67.336,1.42,5.865,12.0
63.166,1.333,5.132,17.0
83.497,1.762,6.288,26.0
82.7,1.746,5.746,13.0
83.492,1.764,5.314,28.0
57.33,1.223,5.226,26.0
63.97,1.365,5.457,11.0
62.862,1.342,4.994,24.0
83.427,1.78,6.132,26.0
82.501,1.76,5.583,30.0
83.074,1.773,5.138,17.0
62.155,1.339,5.554,14.0
63.207,1.361,5.277,20.0
62.823,1.353,4.877,9.0
83.344,1.795,5.976,25.0
82.483,1.776,5.433,28.0
83.895,1.806,5.037,19.0
67.336,1.463,5.894,7.0
63.059,1.369,5.149,8.0
83.546,1.814,6.334,14.0
76.991,1.671,5.379,12.0
83.176,1.804,5.326,24.0
83.982,1.821,4.888,19.0
63.704,1.393,5.457,15.0
62.861,1.374,5.016,18.0
83.44,1.822,6.17,26.0
82.457,1.8,5.607,20.0
83.222,1.815,5.173,19.0
83.832,1.827,4.722,19.0
63.187,1.389,5.294,18.0
76.896,1.688,5.992,24.0
83.184,1.824,5.995,25.0
82.503,1.807,5.455,29.0
83.732,1.833,5.049,18.0
83.43,1.824,4.545,23.0
63.06,1.39,5.165,7.0
83.628,1.841,6.36,13.0
76.978,1.692,5.403,13.0
82.991,1.823,5.333,23.0
83.961,1.842,4.905,18.0
83.413,1.827,4.387,10.0
62.851,1.387,5.029,12.0
83.464,1.839,6.189,28.0
82.424,1.814,5.629,19.0
83.196,1.828,5.187,22.0
83.832,1.839,4.739,18.0
88.631,1.942,4.494,10.0
76.908,1.696,6.007,25.0
83.105,1.83,6.003,26.0
82.498,1.813,5.477,25.0
83.794,1.839,5.066,18.0
83.457,1.829,4.558,23.0
88.59,1.938,4.321,24.0
83.615,1.84,6.369,14.0
76.997,1.691,5.414,14.0
83.084,1.821,5.356,24.0
83.951,1.837,4.912,18.0
83.426,1.822,4.396,11.0
88.909,1.938,4.167,12.0
83.469,1.83,6.197,26.0
82.492,1.804,5.642,20.0
83.201,1.816,5.204,19.0
83.879,1.827,4.748,18.0
88.719,1.928,4.504,10.0
56.084,1.216,2.52,0.0
83.271,1.815,6.021,25.0
82.479,1.793,5.48,28.0
83.819,1.818,5.08,18.0
83.436,1.806,4.561,23.0
88.664,1.914,4.33,19.0
0.0,0.0,0.0,0.0
82.67,1.789,5.817,12.0
83.128,1.793,5.362,24.0
84.023,1.808,4.928,20.0
83.479,1.791,4.399,4.0
88.981,1.904,4.171,12.0
0.0,0.0,0.0,0.0
82.514,1.769,5.643,27.0
83.187,1.778,5.202,19.0
83.842,1.786,4.754,20.0
88.656,1.883,4.5,11.0
0.0,0.0,0.0,0.0
0.0,0.0,0.0,0.0
82.476,1.747,5.478,30.0
83.752,1.769,5.073,21.0
83.394,1.755,4.564,23.0
88.725,1.862,4.33,19.0
0.0,0.0,0.0,0.0
0.0,0.0,0.0,0.0
83.573,1.748,5.387,27.0
84.216,1.755,4.935,15.0
83.471,1.733,4.404,7.0
89.348,1.849,4.185,12.0
0.0,0.0,0.0,0.0
0.0,0.0,0.0,0.0
83.192,1.713,5.197,21.0
84.291,1.729,4.773,16.0
88.694,1.812,4.504,5.0
56.056,1.141,2.514,0.0
0.0,0.0,0.0,0.0
54.35,1.097,1.804,0.0
83.69,1.693,5.062,20.0
83.837,1.689,4.581,14.0
90.941,1.825,4.438,8.0
0.0,0.0,0.0,0.0
0.0,0.0,0.0,0.0
0.0,0.0,0.0,0.0
84.291,1.673,4.932,16.0
85.41,1.687,4.498,10.0
90.665,1.782,4.244,6.0
0.0,0.0,0.0,0.0
0.0,0.0,0.0,0.0
0.0,0.0,0.0,0.0
84.321,1.636,4.763,17.0
93.245,1.8,4.722,4.0
0.0,0.0,0.0,0.0
0.0,0.0,0.0,0.0
0.0,0.0,0.0,0.0
0.0,0.0,0.0,0.0
85.021,1.608,4.632,18.0
91.001,1.713,4.427,15.0
0.0,0.0,0.0,0.0
0.0,0.0,0.0,0.0
0.0,0.0,0.0,0.0
54.547,1.005,1.376,1.0
85.454,1.573,4.486,10.0
90.881,1.664,4.241,7.0
0.0,0.0,0.0,0.0
0.0,0.0,0.0,0.0
0.0,0.0,0.0,0.0
54.74,0.979,1.273,0.0
91.057,1.626,4.599,17.0
0.0,0.0,0.0,0.0
0.0,0.0,0.0,0.0
55.025,0.964,1.81,1.0
54.922,0.956,1.487,1.0
54.806,0.948,1.165,0.0
76.616,1.323,3.716,6.0
0.0,0.0,0.0,0.0
0.0,0.0,0.0,0.0
55.104,0.932,1.704,0.0
55.013,0.924,1.381,1.0
0.0,0.0,0.0,0.0
76.559,1.274,3.563,24.0
55.626,0.918,2.264,0.0
55.216,0.905,1.925,0.0
55.181,0.898,1.598,1.0
58.736,0.949,1.359,0.0
43.514,0.697,0.753,0.0
76.588,1.223,3.413,8.0
55.722,0.883,2.158,2.0
0.0,0.0,0.0,0.0
55.475,0.865,1.497,0.0
0.0,0.0,0.0,0.0
40.437,0.62,0.62,0.0
0.0,0.0,0.0,0.0
0.0,0.0,0.0,0.0
0.0,0.0,0.0,0.0
56.113,0.834,1.404,0.0
48.065,0.708,0.923,0.0
37.528,0.548,0.503,0.0
0.0,0.0,0.0,0.0
0.0,0.0,0.0,0.0
55.849,0.797,1.62,0.0
0.0,0.0,0.0,0.0
0.0,0.0,0.0,0.0
35.463,0.491,0.406,0.0
0.0,0.0,0.0,0.0
0.0,0.0,0.0,0.0
56.049,0.755,1.516,0.0
0.0,0.0,0.0,0.0
39.189,0.516,0.6,0.0
33.264,0.433,0.315,0.0
56.327,0.729,2.069,1.0
56.335,0.72,1.741,0.0
57.399,0.725,1.44,1.0
0.0,0.0,0.0,0.0
35.969,0.444,0.481,0.0
0.0,0.0,0.0,0.0
56.681,0.685,1.973,0.0
56.649,0.676,1.641,0.0
57.601,0.679,1.334,1.0
43.061,0.501,0.743,0.0
35.374,0.406,0.404,0.0
28.94,0.327,0.162,3.0
57.015,0.639,1.875,0.0
57.211,0.632,1.548,0.0
0.0,0.0,0.0,0.0
0.0,0.0,0.0,0.0
33.508,0.354,0.319,0.0
28.823,0.3,0.107,5.0
57.495,0.591,1.781,0.0
0.0,0.0,0.0,0.0
49.855,0.496,0.964,0.0
0.0,0.0,0.0,0.0
0.0,0.0,0.0,0.0
27.952,0.264,0.05,0.0
57.866,0.539,1.681,1.0
57.722,0.529,1.342,0.0
0.0,0.0,0.0,0.0
35.575,0.313,0.41,0.0
28.923,0.25,0.165,1.0
26.698,0.226,-0.002,0.0
74.791,0.623,2.032,2.0
0.0,0.0,0.0,0.0
0.0,0.0,0.0,0.0
33.17,0.259,0.32,0.0
28.812,0.22,0.11,5.0
25.71,0.192,-0.05,0.0
0.0,0.0,0.0,0.0
0.0,0.0,0.0,0.0
36.552,0.253,0.5,0.0
31.589,0.213,0.245,0.0
27.997,0.184,0.055,1.0
24.742,0.158,-0.094,0.0
0.0,0.0,0.0,0.0
0.0,0.0,0.0,0.0
35.399,0.207,0.418,0.0
28.951,0.164,0.171,0.0
26.756,0.147,0.003,0.0
23.375,0.124,-0.132,0.0
0.0,0.0,0.0,0.0
41.042,0.202,0.647,0.0
33.086,0.157,0.33,0.0
28.76,0.131,0.117,1.0
25.771,0.112,-0.044,0.0
22.622,0.095,-0.169,1.0
0.0,0.0,0.0,0.0
37.282,0.142,0.521,0.0
31.786,0.115,0.26,0.0
28.369,0.097,0.064,1.0
24.806,0.08,-0.087,0.0
21.442,0.065,-0.199,4.0
0.0,0.0,0.0,0.0
35.891,0.095,0.436,0.0
30.423,0.074,0.193,0.0
26.942,0.06,0.012,0.0
23.7,0.048,-0.126,1.0
20.843,0.038,-0.231,1.0
41.588,0.068,0.672,0.0
33.66,0.048,0.349,0.0
28.806,0.035,0.132,0.0
25.977,0.027,-0.033,0.0
22.818,0.018,-0.162,0.0
19.647,0.012,-0.253,0.0
37.754,0.016,0.544,0.0
33.104,0.007,0.285,0.0
28.396,0.0,0.08,1.0
25.035,-0.004,-0.076,0.0
21.601,-0.008,-0.191,1.0
18.637,-0.011,-0.273,0.0
36.287,-0.03,0.459,0.0
30.758,-0.032,0.211,0.0
27.205,-0.034,0.029,0.0
23.926,-0.035,-0.114,0.0
20.974,-0.035,-0.222,0.0
18.15,-0.034,-0.297,0.0
33.499,-0.071,0.366,0.0
28.853,-0.067,0.148,5.0
26.258,-0.067,-0.016,0.0
23.132,-0.064,-0.151,0.0
19.939,-0.06,-0.245,0.0
17.457,-0.056,-0.315,0.0
33.132,-0.114,0.305,1.0
28.736,-0.105,0.098,7.0
25.292,-0.098,-0.059,0.0
22.101,-0.091,-0.181,0.0
18.987,-0.082,-0.266,0.0
16.984,-0.077,-0.336,0.0
31.301,-0.15,0.236,1.0
27.747,-0.139,0.049,0.0
24.304,-0.127,-0.097,0.0
21.601,-0.118,-0.213,1.0
18.287,-0.104,-0.286,0.0
16.571,-0.098,-0.355,0.0
28.846,-0.178,0.17,2.0
26.665,-0.17,0.003,0.0
23.444,-0.155,-0.132,0.0
20.328,-0.139,-0.234,0.0
17.734,-0.125,-0.306,0.0
16.194,-0.118,-0.373,0.0
28.769,-0.217,0.123,6.0
25.738,-0.2,-0.038,0.0
22.615,-0.181,-0.164,0.0
19.419,-0.16,-0.255,0.0
17.271,-0.147,-0.326,0.0
15.794,-0.138,-0.39,0.0
28.453,-0.255,0.076,2.0
24.807,-0.229,-0.076,0.0
21.997,-0.208,-0.194,0.0
18.574,-0.18,-0.273,0.0
16.763,-0.167,-0.343,0.0
15.411,-0.157,-0.404,0.0
27.32,-0.285,0.03,0.0
24.063,-0.257,-0.111,0.0
20.841,-0.227,-0.216,0.0
18.109,-0.202,-0.294,0.0
16.461,-0.188,-0.363,0.0
14.95,-0.174,-0.416,0.0
26.351,-0.314,-0.011,0.0
23.13,-0.281,-0.143,1.0
19.946,-0.247,-0.238,0.0
17.567,-0.222,-0.312,0.0
16.08,-0.208,-0.379,0.0
14.671,-0.193,-0.43,0.0
25.453,-0.342,-0.049,0.0
22.398,-0.306,-0.172,0.0
19.274,-0.268,-0.259,0.0
17.067,-0.242,-0.329,0.0
15.754,-0.227,-0.395,0.0
14.292,-0.21,-0.44,0.0
24.824,-0.371,-0.084,0.0
21.745,-0.331,-0.199,0.0
18.486,-0.286,-0.276,0.0
16.671,-0.262,-0.346,0.0
15.332,-0.245,-0.407,0.0
13.967,-0.227,-0.451,0.0
23.774,-0.392,-0.115,0.0
20.852,-0.349,-0.221,0.0
18.109,-0.308,-0.296,0.0
16.366,-0.283,-0.363,0.0
14.902,-0.261,-0.417,0.0
13.783,-0.246,-0.465,0.0
23.131,-0.418,-0.145,0.0
19.78,-0.363,-0.238,0.0
17.494,-0.325,-0.311,0.0
15.957,-0.301,-0.377,0.0
14.64,-0.28,-0.43,0.0
13.51,-0.262,-0.474,0.0
22.509,-0.442,-0.172,0.0
19.223,-0.383,-0.257,0.0
17.07,-0.345,-0.327,0.0
15.664,-0.321,-0.391,0.0
14.343,-0.297,-0.441,0.0
13.298,-0.279,-0.485,0.0
21.833,-0.464,-0.196,0.0
18.521,-0.398,-0.273,0.0
16.724,-0.364,-0.342,0.0
15.39,-0.34,-0.405,0.0
14.052,-0.314,-0.451,0.0
13.022,-0.295,-0.492,0.0
20.741,-0.475,-0.214,0.0
18.136,-0.42,-0.291,0.0
16.431,-0.385,-0.358,0.0
14.855,-0.352,-0.41,0.0
13.801,-0.331,-0.461,0.0
12.873,-0.312,-0.503,0.0
19.99,-0.49,-0.232,0.0
17.678,-0.438,-0.306,0.0
16.046,-0.403,-0.37,0.0
14.648,-0.372,-0.423,0.0
13.648,-0.35,-0.473,0.0
12.712,-0.33,-0.513,0.0
19.421,-0.509,-0.25,0.0
17.188,-0.455,-0.319,0.0
15.836,-0.424,-0.385,0.0
14.401,-0.39,-0.434,0.0
13.367,-0.365,-0.48,0.0
12.473,-0.345,-0.519,0.0
18.923,-0.527,-0.266,0.0
16.933,-0.477,-0.335,0.0
15.414,-0.438,-0.393,0.0
14.139,-0.406,-0.443,0.0
13.13,-0.381,-0.487,0.0
12.324,-0.361,-0.528,0.0
18.326,-0.542,-0.28,0.0
16.597,-0.496,-0.348,0.0
15.056,-0.454,-0.402,0.0
13.928,-0.424,-0.453,0.0
12.929,-0.398,-0.495,0.0
12.164,-0.378,-0.535,0.0
17.961,-0.562,-0.295,0.0
16.361,-0.517,-0.362,0.0
14.911,-0.475,-0.415,0.0
13.713,-0.441,-0.462,0.0
12.792,-0.415,-0.504,0.0
11.995,-0.393,-0.541,0.0
17.558,-0.579,-0.308,0.0
16.037,-0.534,-0.372,0.0
14.669,-0.493,-0.424,0.0
13.56,-0.46,-0.471,0.0
12.596,-0.431,-0.51,0.0
11.828,-0.408,-0.546,0.0
17.216,-0.598,-0.32,0.0
15.796,-0.553,-0.384,0.0
14.361,-0.507,-0.431,0.0
13.369,-0.476,-0.479,0.0
12.487,-0.449,-0.519,0.0
11.698,-0.424,-0.553,0.0
16.985,-0.62,-0.333,0.0
15.612,-0.574,-0.395,0.0
14.239,-0.528,-0.442,0.0
13.157,-0.492,-0.485,0.0
12.345,-0.465,-0.525,0.0
11.597,-0.441,-0.56,0.0
16.659,-0.637,-0.343,0.0
15.202,-0.586,-0.4,0.0
13.975,-0.543,-0.447,0.0
12.972,-0.508,-0.49,0.0
12.235,-0.483,-0.532,0.0
11.397,-0.454,-0.561,0.0
16.386,-0.655,-0.353,0.0
14.871,-0.599,-0.405,0.0
13.802,-0.561,-0.455,0.0
12.898,-0.528,-0.5,0.0
12.101,-0.499,-0.538,0.0
11.305,-0.47,-0.567,0.0
16.169,-0.676,-0.364,0.0
14.749,-0.621,-0.416,0.0
13.653,-0.579,-0.462,0.0
12.713,-0.543,-0.504,0.0
11.946,-0.514,-0.542,0.0
11.225,-0.487,-0.573,0.0
15.988,-0.696,-0.374,0.0
14.623,-0.642,-0.425,0.0
13.55,-0.599,-0.471,0.0
12.611,-0.561,-0.511,0.0
11.818,-0.53,-0.546,0.0
11.134,-0.503,-0.578,0.0
15.751,-0.714,-0.382,0.0
14.434,-0.659,-0.432,0.0
13.35,-0.614,-0.475,0.0
12.508,-0.579,-0.517,0.0
11.746,-0.548,-0.553,0.0
11.025,-0.518,-0.582,0.0
15.533,-0.732,-0.389,0.0
14.272,-0.678,-0.438,0.0
13.315,-0.636,-0.485,0.0
12.345,-0.594,-0.52,0.0
11.626,-0.563,-0.556,0.0
10.948,-0.534,-0.586,0.0
15.342,-0.751,-0.396,0.0
14.114,-0.696,-0.444,0.0
13.139,-0.652,-0.488,0.0
12.277,-0.613,-0.527,0.0
11.474,-0.577,-0.557,0.0
10.861,-0.549,-0.589,0.0
15.028,-0.763,-0.398,0.0
13.966,-0.713,-0.449,0.0
13.005,-0.668,-0.492,0.0
12.216,-0.632,-0.533,0.0
11.447,-0.596,-0.564,0.0
10.793,-0.566,-0.593,0.0
14.823,-0.779,-0.403,0.0
13.842,-0.732,-0.455,0.0
12.893,-0.686,-0.497,0.0
12.071,-0.646,-0.535,0.0
11.338,-0.611,-0.566,0.0
10.707,-0.581,-0.596,0.0
14.804,-0.805,-0.412,0.0
13.691,-0.749,-0.459,0.0
12.81,-0.705,-0.502,0.0
11.932,-0.661,-0.536,0.0
11.256,-0.627,-0.569,0.0
10.671,-0.598,-0.6,0.0
14.715,-0.827,-0.419,0.0
13.614,-0.769,-0.464,0.0
12.694,-0.721,-0.505,0.0
11.866,-0.678,-0.54,0.0
11.191,-0.643,-0.573,0.0
10.576,-0.612,-0.601,0.0
14.604,-0.847,-0.424,0.0
13.581,-0.792,-0.471,0.0
12.617,-0.74,-0.508,0.0
11.805,-0.696,-0.544,0.0
11.127,-0.66,-0.575,0.0
10.521,-0.628,-0.604,0.0
14.45,-0.864,-0.427,0.0
13.485,-0.811,-0.474,0.0
12.509,-0.756,-0.511,0.0
11.758,-0.715,-0.548,0.0
11.07,-0.677,-0.578,0.0
10.443,-0.642,-0.604,0.0
14.354,-0.884,-0.431,0.0
13.308,-0.824,-0.474,0.0
12.463,-0.776,-0.515,0.0
11.65,-0.729,-0.548,0.0
11.037,-0.695,-0.581,0.0
10.389,-0.657,-0.606,0.0
14.276,-0.905,-0.435,0.0
13.287,-0.846,-0.479,0.0
12.41,-0.795,-0.518,0.0
11.586,-0.746,-0.55,0.0
10.915,-0.706,-0.579,0.0
10.351,-0.673,-0.608,0.0
14.214,-0.926,-0.439,0.0
13.181,-0.863,-0.481,0.0
12.345,-0.813,-0.52,0.0
11.529,-0.763,-0.551,0.0
10.958,-0.729,-0.586,0.0
10.31,-0.689,-0.609,0.0
14.081,-0.943,-0.44,0.0
13.169,-0.886,-0.485,0.0
12.27,-0.83,-0.521,0.0
11.521,-0.783,-0.555,0.0
10.844,-0.741,-0.583,0.0
10.276,-0.706,-0.611,0.0
14.097,-0.969,-0.445,0.0
13.07,-0.903,-0.486,0.0
12.242,-0.85,-0.523,0.0
11.46,-0.799,-0.556,0.0
10.832,-0.759,-0.586,0.0
10.221,-0.72,-0.61,0.0
14.047,-0.99,-0.447,0.0
13.066,-0.925,-0.489,0.0
12.187,-0.867,-0.524,0.0
11.45,-0.819,-0.558,0.0
10.845,-0.779,-0.589,0.0
10.152,-0.733,-0.609,0.0
13.98,-1.01,-0.448,0.0
12.987,-0.943,-0.489,0.0
12.248,-0.893,-0.53,0.0
11.433,-0.838,-0.56,0.0
10.766,-0.793,-0.587,0.0
10.012,-0.74,-0.602,0.0
13.919,-1.03,-0.449,0.0
13.006,-0.967,-0.492,0.0
12.144,-0.907,-0.527,0.0
11.463,-0.86,-0.563,0.0
10.719,-0.808,-0.587,0.0
10.075,-0.763,-0.608,0.0
13.879,-1.051,-0.45,0.0
12.934,-0.984,-0.491,0.0
12.12,-0.926,-0.528,0.0
11.323,-0.869,-0.558,0.0
10.755,-0.829,-0.59,0.0
10.118,-0.783,-0.612,0.0
13.859,-1.073,-0.451,0.0
12.863,-1.001,-0.49,0.0
12.14,-0.948,-0.53,0.0
11.349,-0.89,-0.56,0.0
10.741,-0.846,-0.59,0.0
10.187,-0.806,-0.617,0.0
13.857,-1.097,-0.452,0.0
12.996,-1.033,-0.496,0.0
12.079,-0.964,-0.528,0.0
11.373,-0.911,-0.562,0.0
10.675,-0.859,-0.587,0.0
10.167,-0.821,-0.616,0.0
13.845,-1.119,-0.452,0.0
12.884,-1.046,-0.492,0.0
12.078,-0.984,-0.529,0.0
11.362,-0.93,-0.562,0.0
10.625,-0.873,-0.585,0.0
10.183,-0.84,-0.617,0.0
13.875,-1.145,-0.453,0.0
12.931,-1.071,-0.494,0.0
12.132,-1.009,-0.531,0.0
11.313,-0.945,-0.559,0.0
10.72,-0.898,-0.589,0.0
10.104,-0.85,-0.612,0.0
13.899,-1.17,-0.453,0.0
12.911,-1.091,-0.493,0.0
12.03,-1.02,-0.526,0.0
11.358,-0.967,-0.561,0.0
10.739,-0.918,-0.59,0.0
10.12,-0.868,-0.612,0.0
13.91,-1.193,-0.452,0.0
12.988,-1.118,-0.494,0.0
12.081,-1.044,-0.527,0.0
11.391,-0.988,-0.561,0.0
10.771,-0.938,-0.59,0.0
10.139,-0.886,-0.612,0.0
13.906,-1.216,-0.451,0.0
12.96,-1.137,-0.492,0.0
12.06,-1.062,-0.524,0.0
11.392,-1.007,-0.56,0.0
10.686,-0.948,-0.584,0.0
10.164,-0.905,-0.612,0.0
13.927,-1.24,-0.449,0.0
13.001,-1.162,-0.491,0.0
12.134,-1.088,-0.526,0.0
11.419,-1.028,-0.559,0.0
10.8,-0.975,-0.589,0.0
10.174,-0.922,-0.611,0.0
13.992,-1.268,-0.448,0.0
12.935,-1.176,-0.486,0.0
12.195,-1.113,-0.526,0.0
11.398,-1.043,-0.556,0.0
10.78,-0.99,-0.585,0.0
10.21,-0.941,-0.611,0.0
14.032,-1.293,-0.447,0.0
13.043,-1.206,-0.487,0.0
12.28,-1.139,-0.526,0.0
11.437,-1.065,-0.554,0.0
10.769,-1.006,-0.582,0.0
10.24,-0.96,-0.61,0.0
14.049,-1.316,-0.443,0.0
13.066,-1.228,-0.484,0.0
12.262,-1.156,-0.522,0.0
11.511,-1.089,-0.555,0.0
10.87,-1.032,-0.584,0.0
10.217,-0.973,-0.605,0.0
14.1,-1.343,-0.44,0.0
13.141,-1.255,-0.483,0.0
12.306,-1.179,-0.52,0.0
11.571,-1.112,-0.554,0.0
10.871,-1.048,-0.58,0.0
10.302,-0.997,-0.607,0.0
14.212,-1.374,-0.439,0.0
13.216,-1.282,-0.481,0.0
12.249,-1.192,-0.513,0.0
11.604,-1.132,-0.551,0.0
10.963,-1.073,-0.581,0.0
10.27,-1.009,-0.601,0.0
14.294,-1.403,-0.436,0.0
13.303,-1.31,-0.479,0.0
12.377,-1.222,-0.514,0.0
11.617,-1.151,-0.547,0.0
10.975,-1.09,-0.577,0.0
10.361,-1.033,-0.602,0.0
14.33,-1.427,-0.431,0.0
13.345,-1.333,-0.475,0.0
12.423,-1.244,-0.51,0.0
11.674,-1.173,-0.545,0.0
11.178,-1.126,-0.583,0.0
10.488,-1.06,-0.605,0.0
14.463,-1.461,-0.429,0.0
13.445,-1.362,-0.472,0.0
12.458,-1.265,-0.506,0.0
11.754,-1.197,-0.543,0.0
11.023,-1.126,-0.57,0.0
10.458,-1.071,-0.598,0.0
14.553,-1.49,-0.425,0.0
13.551,-1.391,-0.47,0.0
12.574,-1.294,-0.505,0.0
11.766,-1.214,-0.538,0.0
11.082,-1.147,-0.567,0.0
10.478,-1.088,-0.594,0.0
14.707,-1.526,-0.421,0.0
13.716,-1.426,-0.468,0.0
12.692,-1.323,-0.503,0.0
11.91,-1.245,-0.538,0.0
11.214,-1.176,-0.568,0.0
10.584,-1.113,-0.594,0.0
14.777,-1.552,-0.416,0.0
13.724,-1.445,-0.461,0.0
12.866,-1.358,-0.502,0.0
11.931,-1.263,-0.532,0.0
11.314,-1.201,-0.567,0.0
10.593,-1.127,-0.589,0.0
14.813,-1.575,-0.408,0.0
13.838,-1.475,-0.457,0.0
12.848,-1.373,-0.494,0.0
12.094,-1.295,-0.533,0.0
11.299,-1.213,-0.559,0.0
10.73,-1.155,-0.59,0.0
15.092,-1.623,-0.406,0.0
13.959,-1.505,-0.452,0.0
12.938,-1.398,-0.49,0.0
12.188,-1.32,-0.529,0.0
11.428,-1.241,-0.558,0.0
10.789,-1.174,-0.586,0.0
15.267,-1.661,-0.401,0.0
14.082,-1.535,-0.447,0.0
13.011,-1.422,-0.484,0.0
12.266,-1.344,-0.524,0.0
11.492,-1.262,-0.554,0.0
10.838,-1.193,-0.581,0.0
15.457,-1.7,-0.396,0.0
14.204,-1.566,-0.441,0.0
13.173,-1.455,-0.481,0.0
12.36,-1.368,-0.52,0.0
11.618,-1.289,-0.552,0.0
10.947,-1.217,-0.58,0.0
15.637,-1.738,-0.39,0.0
14.281,-1.59,-0.433,0.0
13.227,-1.476,-0.473,0.0
12.393,-1.386,-0.512,0.0
11.705,-1.312,-0.548,0.0
11.011,-1.237,-0.575,0.0
15.811,-1.775,-0.382,0.0
14.528,-1.634,-0.43,0.0
13.449,-1.516,-0.471,0.0
12.436,-1.404,-0.505,0.0
11.799,-1.335,-0.543,0.0
11.089,-1.257,-0.571,0.0
15.983,-1.811,-0.374,0.0
14.618,-1.66,-0.422,0.0
13.672,-1.555,-0.469,0.0
12.628,-1.439,-0.503,0.0
11.893,-1.358,-0.538,0.0
11.192,-1.281,-0.567,0.0
16.18,-1.85,-0.367,0.0
14.79,-1.694,-0.415,0.0
13.772,-1.581,-0.461,0.0
12.752,-1.466,-0.498,0.0
12.046,-1.388,-0.535,0.0
11.334,-1.308,-0.565,0.0
16.445,-1.897,-0.359,0.0
15.041,-1.738,-0.41,1.0
13.862,-1.605,-0.453,0.0
12.88,-1.494,-0.492,0.0
12.138,-1.41,-0.53,0.0
11.454,-1.333,-0.562,0.0
16.724,-1.945,-0.352,0.0
15.085,-1.758,-0.399,1.0
14.02,-1.636,-0.446,0.0
12.979,-1.517,-0.485,0.0
12.24,-1.434,-0.524,0.0
11.603,-1.361,-0.559,0.0
16.969,-1.989,-0.342,0.0
15.378,-1.806,-0.393,0.0
14.206,-1.671,-0.44,0.0
13.1,-1.543,-0.478,0.0
12.407,-1.464,-0.52,0.0
11.634,-1.375,-0.551,0.0
17.223,-2.035,-0.332,0.0
15.708,-1.858,-0.388,0.0
14.307,-1.695,-0.431,0.0
13.354,-1.585,-0.475,0.0
12.5,-1.486,-0.513,0.0
11.773,-1.402,-0.546,0.0
17.521,-2.084,-0.322,0.0
15.943,-1.899,-0.379,0.0
14.631,-1.746,-0.427,0.0
13.463,-1.609,-0.467,0.0
12.632,-1.512,-0.506,0.0
11.901,-1.427,-0.541,0.0
17.837,-2.136,-0.312,0.0
16.247,-1.949,-0.371,0.0
14.83,-1.781,-0.419,0.0
13.701,-1.648,-0.462,0.0
12.799,-1.542,-0.501,0.0
11.996,-1.447,-0.534,0.0
18.113,-2.183,-0.299,0.0
16.505,-1.992,-0.361,0.0
15.059,-1.82,-0.411,0.0
13.879,-1.68,-0.455,0.0
12.901,-1.563,-0.493,0.0
12.205,-1.481,-0.532,0.0
18.705,-2.268,-0.291,0.0
16.878,-2.049,-0.353,0.0
15.189,-1.846,-0.4,0.0
14.088,-1.715,-0.448,0.0
13.113,-1.598,-0.488,0.0
12.276,-1.498,-0.523,0.0
19.157,-2.336,-0.279,0.0
17.079,-2.085,-0.341,0.0
15.584,-1.905,-0.395,0.0
14.291,-1.749,-0.44,0.0
13.269,-1.626,-0.48,0.0
12.432,-1.525,-0.517,0.0
19.52,-2.393,-0.265,0.0
17.45,-2.141,-0.33,0.0
15.786,-1.939,-0.384,0.0
14.42,-1.773,-0.43,0.0
13.443,-1.655,-0.473,0.0
12.611,-1.555,-0.512,0.0
20.069,-2.472,-0.252,0.0
17.768,-2.191,-0.318,0.0
16.05,-1.981,-0.374,0.0
14.781,-1.826,-0.425,0.0
13.634,-1.686,-0.466,0.0
12.695,-1.572,-0.502,0.0
20.712,-2.563,-0.238,0.0
18.072,-2.238,-0.305,0.0
16.463,-2.041,-0.366,0.0
14.906,-1.849,-0.413,0.0
13.86,-1.721,-0.459,0.0
12.941,-1.609,-0.498,0.0
21.733,-2.7,-0.227,4.0
18.562,-2.308,-0.294,0.0
16.78,-2.088,-0.356,0.0
15.236,-1.898,-0.406,0.0
14.081,-1.755,-0.451,0.0
13.07,-1.631,-0.489,0.0
22.111,-2.757,-0.208,9.0
19.198,-2.396,-0.283,0.0
17.067,-2.131,-0.343,0.0
15.549,-1.943,-0.398,0.0
14.304,-1.789,-0.443,0.0
13.293,-1.664,-0.483,0.0
22.354,-2.797,-0.186,5.0
19.615,-2.456,-0.268,0.0
17.407,-2.181,-0.332,0.0
15.79,-1.979,-0.387,0.0
14.517,-1.821,-0.434,0.0
13.473,-1.691,-0.475,0.0
22.521,-2.826,-0.163,2.0
20.297,-2.548,-0.256,0.0
17.752,-2.23,-0.319,0.0
16.067,-2.02,-0.376,0.0
14.773,-1.858,-0.425,0.0
13.639,-1.717,-0.466,0.0
23.345,-2.937,-0.143,1.0
20.728,-2.609,-0.238,1.0
18.147,-2.285,-0.306,0.0
16.402,-2.067,-0.366,0.0
15.048,-1.897,-0.416,0.0
13.904,-1.754,-0.46,0.0
24.073,-3.035,-0.121,1.0
0.0,0.0,0.0,0.0
18.638,-2.352,-0.293,0.0
16.783,-2.119,-0.356,0.0
15.341,-1.938,-0.407,0.0
14.069,-1.778,-0.449,0.0
25.338,-3.201,-0.099,4.0
22.394,-2.83,-0.207,4.0
19.318,-2.442,-0.282,0.0
17.067,-2.158,-0.343,0.0
15.658,-1.981,-0.398,0.0
14.342,-1.815,-0.442,0.0
25.462,-3.221,-0.071,10.0
22.498,-2.847,-0.183,4.0
19.68,-2.491,-0.266,0.0
17.491,-2.215,-0.331,0.0
15.89,-2.012,-0.386,0.0
14.615,-1.852,-0.433,0.0
25.456,-3.224,-0.042,12.0
22.906,-2.902,-0.161,5.0
20.567,-2.606,-0.254,0.0
17.825,-2.259,-0.318,0.0
16.165,-2.049,-0.375,0.0
14.81,-1.878,-0.423,0.0
25.452,-3.226,-0.013,13.0
23.459,-2.974,-0.138,1.0
20.757,-2.631,-0.233,0.0
18.204,-2.308,-0.304,0.0
16.555,-2.099,-0.365,0.0
15.094,-1.914,-0.414,0.0
25.454,-3.227,0.014,12.0
24.753,-3.138,-0.117,1.0
22.17,-2.811,-0.224,2.0
18.677,-2.368,-0.29,0.0
16.898,-2.143,-0.353,0.0
15.479,-1.963,-0.406,0.0
25.45,-3.227,0.043,10.0
25.411,-3.222,-0.092,5.0
22.437,-2.844,-0.201,4.0
19.388,-2.458,-0.279,0.0
17.215,-2.182,-0.34,0.0
15.775,-2.0,-0.396,0.0
25.499,-3.232,0.073,8.0
25.45,-3.225,-0.062,10.0
22.625,-2.867,-0.176,4.0
19.847,-2.514,-0.262,0.0
17.634,-2.234,-0.328,0.0
15.995,-2.026,-0.383,0.0
25.695,-3.254,0.103,4.0
