X,Y,Z,Reflectivity
0.0,0.0,0.0,0.0
0.0,0.0,0.0,0.0
0.0,0.0,0.0,0.0
0.0,0.0,0.0,0.0
0.0,0.0,0.0,0.0
7.329,0.128,-0.743,0.0
0.0,0.0,0.0,0.0
0.0,0.0,0.0,0.0
0.0,0.0,0.0,0.0
0.0,0.0,0.0,0.0
0.0,0.0,0.0,0.0
7.262,0.121,-0.745,0.0
0.0,0.0,0.0,0.0
0.0,0.0,0.0,0.0
0.0,0.0,0.0,0.0
0.0,0.0,0.0,0.0
0.0,0.0,0.0,0.0
7.31,0.115,-0.758,0.0
0.0,0.0,0.0,0.0
0.0,0.0,0.0,0.0
0.0,0.0,0.0,0.0
0.0,0.0,0.0,0.0
7.443,0.112,-0.737,0.0
7.132,0.106,-0.747,0.0
0.0,0.0,0.0,0.0
0.0,0.0,0.0,0.0
0.0,0.0,0.0,0.0
0.0,0.0,0.0,0.0
7.399,0.104,-0.74,0.0
0.0,0.0,0.0,0.0
0.0,0.0,0.0,0.0
0.0,0.0,0.0,0.0
0.0,0.0,0.0,0.0
0.0,0.0,0.0,0.0
7.312,0.097,-0.739,0.0
7.038,0.092,-0.752,0.0
0.0,0.0,0.0,0.0
0.0,0.0,0.0,0.0
0.0,0.0,0.0,0.0
0.0,0.0,0.0,0.0
7.255,0.089,-0.741,0.0
6.998,0.085,-0.755,0.0
0.0,0.0,0.0,0.0
0.0,0.0,0.0,0.0
0.0,0.0,0.0,0.0
0.0,0.0,0.0,0.0
7.236,0.082,-0.746,0.0
0.0,0.0,0.0,0.0
0.0,0.0,0.0,0.0
0.0,0.0,0.0,0.0
0.0,0.0,0.0,0.0
0.0,0.0,0.0,0.0
7.208,0.075,-0.749,0.0
0.0,0.0,0.0,0.0
0.0,0.0,0.0,0.0
0.0,0.0,0.0,0.0
0.0,0.0,0.0,0.0
0.0,0.0,0.0,0.0
7.117,0.067,-0.746,0.0
0.0,0.0,0.0,0.0
0.0,0.0,0.0,0.0
0.0,0.0,0.0,0.0
0.0,0.0,0.0,0.0
0.0,0.0,0.0,0.0
7.075,0.059,-0.747,0.0
0.0,0.0,0.0,0.0
0.0,0.0,0.0,0.0
0.0,0.0,0.0,0.0
0.0,0.0,0.0,0.0
0.0,0.0,0.0,0.0
0.0,0.0,0.0,0.0
0.0,0.0,0.0,0.0
0.0,0.0,0.0,0.0
0.0,0.0,0.0,0.0
0.0,0.0,0.0,0.0
0.0,0.0,0.0,0.0
7.063,0.045,-0.757,0.0
0.0,0.0,0.0,0.0
0.0,0.0,0.0,0.0
0.0,0.0,0.0,0.0
0.0,0.0,0.0,0.0
0.0,0.0,0.0,0.0
6.983,0.037,-0.753,0.0
0.0,0.0,0.0,0.0
0.0,0.0,0.0,0.0
0.0,0.0,0.0,0.0
0.0,0.0,0.0,0.0
0.0,0.0,0.0,0.0
6.975,0.029,-0.757,0.0
0.0,0.0,0.0,0.0
0.0,0.0,0.0,0.0
0.0,0.0,0.0,0.0
0.0,0.0,0.0,0.0
0.0,0.0,0.0,0.0
6.929,0.022,-0.756,0.0
0.0,0.0,0.0,0.0
0.0,0.0,0.0,0.0
0.0,0.0,0.0,0.0
0.0,0.0,0.0,0.0
0.0,0.0,0.0,0.0
6.895,0.014,-0.756,0.0
0.0,0.0,0.0,0.0
0.0,0.0,0.0,0.0
0.0,0.0,0.0,0.0
0.0,0.0,0.0,0.0
0.0,0.0,0.0,0.0
0.0,0.0,0.0,0.0
0.0,0.0,0.0,0.0
0.0,0.0,0.0,0.0
0.0,0.0,0.0,0.0
0.0,0.0,0.0,0.0
0.0,0.0,0.0,0.0
0.0,0.0,0.0,0.0
0.0,0.0,0.0,0.0
0.0,0.0,0.0,0.0
0.0,0.0,0.0,0.0
0.0,0.0,0.0,0.0
0.0,0.0,0.0,0.0
0.0,0.0,0.0,0.0
0.0,0.0,0.0,0.0
0.0,0.0,0.0,0.0
0.0,0.0,0.0,0.0
0.0,0.0,0.0,0.0
0.0,0.0,0.0,0.0
6.844,-0.139,-0.761,0.0
0.0,0.0,0.0,0.0
0.0,0.0,0.0,0.0
0.0,0.0,0.0,0.0
0.0,0.0,0.0,0.0
0.0,0.0,0.0,0.0
0.0,0.0,0.0,0.0
0.0,0.0,0.0,0.0
0.0,0.0,0.0,0.0
0.0,0.0,0.0,0.0
0.0,0.0,0.0,0.0
0.0,0.0,0.0,0.0
0.0,0.0,0.0,0.0
0.0,0.0,0.0,0.0
0.0,0.0,0.0,0.0
0.0,0.0,0.0,0.0
0.0,0.0,0.0,0.0
0.0,0.0,0.0,0.0
0.0,0.0,0.0,0.0
0.0,0.0,0.0,0.0
0.0,0.0,0.0,0.0
0.0,0.0,0.0,0.0
0.0,0.0,0.0,0.0
0.0,0.0,0.0,0.0
0.0,0.0,0.0,0.0
0.0,0.0,0.0,0.0
0.0,0.0,0.0,0.0
0.0,0.0,0.0,0.0
0.0,0.0,0.0,0.0
0.0,0.0,0.0,0.0
0.0,0.0,0.0,0.0
0.0,0.0,0.0,0.0
0.0,0.0,0.0,0.0
0.0,0.0,0.0,0.0
0.0,0.0,0.0,0.0
0.0,0.0,0.0,0.0
0.0,0.0,0.0,0.0
0.0,0.0,0.0,0.0
0.0,0.0,0.0,0.0
0.0,0.0,0.0,0.0
0.0,0.0,0.0,0.0
0.0,0.0,0.0,0.0
7.028,-0.193,-0.755,0.0
0.0,0.0,0.0,0.0
0.0,0.0,0.0,0.0
0.0,0.0,0.0,0.0
0.0,0.0,0.0,0.0
0.0,0.0,0.0,0.0
7.024,-0.2,-0.75,0.0
0.0,0.0,0.0,0.0
0.0,0.0,0.0,0.0
0.0,0.0,0.0,0.0
0.0,0.0,0.0,0.0
0.0,0.0,0.0,0.0
7.1,-0.209,-0.752,0.0
6.856,-0.203,-0.764,0.0
0.0,0.0,0.0,0.0
0.0,0.0,0.0,0.0
0.0,0.0,0.0,0.0
0.0,0.0,0.0,0.0
7.101,-0.216,-0.747,0.0
0.0,0.0,0.0,0.0
0.0,0.0,0.0,0.0
0.0,0.0,0.0,0.0
0.0,0.0,0.0,0.0
0.0,0.0,0.0,0.0
7.135,-0.223,-0.744,0.0
0.0,0.0,0.0,0.0
0.0,0.0,0.0,0.0
0.0,0.0,0.0,0.0
0.0,0.0,0.0,0.0
0.0,0.0,0.0,0.0
7.156,-0.23,-0.74,0.0
0.0,0.0,0.0,0.0
0.0,0.0,0.0,0.0
0.0,0.0,0.0,0.0
0.0,0.0,0.0,0.0
0.0,0.0,0.0,0.0
7.241,-0.239,-0.743,0.0
0.0,0.0,0.0,0.0
0.0,0.0,0.0,0.0
0.0,0.0,0.0,0.0
0.0,0.0,0.0,0.0
0.0,0.0,0.0,0.0
7.272,-0.246,-0.739,0.0
0.0,0.0,0.0,0.0
6.828,-0.234,-0.768,0.0
0.0,0.0,0.0,0.0
0.0,0.0,0.0,0.0
0.0,0.0,0.0,0.0
7.325,-0.254,-0.737,0.0
0.0,0.0,0.0,0.0
6.811,-0.239,-0.759,0.0
0.0,0.0,0.0,0.0
0.0,0.0,0.0,0.0
0.0,0.0,0.0,0.0
0.0,0.0,0.0,0.0
7.102,-0.253,-0.745,0.0
0.0,0.0,0.0,0.0
0.0,0.0,0.0,0.0
0.0,0.0,0.0,0.0
0.0,0.0,0.0,0.0
0.0,0.0,0.0,0.0
7.223,-0.263,-0.75,0.0
0.0,0.0,0.0,0.0
0.0,0.0,0.0,0.0
0.0,0.0,0.0,0.0
0.0,0.0,0.0,0.0
0.0,0.0,0.0,0.0
7.246,-0.269,-0.745,0.0
0.0,0.0,0.0,0.0
0.0,0.0,0.0,0.0
0.0,0.0,0.0,0.0
0.0,0.0,0.0,0.0
0.0,0.0,0.0,0.0
7.277,-0.275,-0.739,0.0
7.014,-0.267,-0.751,0.0
6.714,-0.256,-0.756,0.0
0.0,0.0,0.0,0.0
0.0,0.0,0.0,0.0
0.0,0.0,0.0,0.0
0.0,0.0,0.0,0.0
7.059,-0.273,-0.747,0.0
6.836,-0.265,-0.761,0.0
0.0,0.0,0.0,0.0
0.0,0.0,0.0,0.0
0.0,0.0,0.0,0.0
0.0,0.0,0.0,0.0
7.13,-0.28,-0.746,0.0
0.0,0.0,0.0,0.0
6.649,-0.263,-0.768,0.0
0.0,0.0,0.0,0.0
0.0,0.0,0.0,0.0
0.0,0.0,0.0,0.0
7.216,-0.288,-0.746,0.0
0.0,0.0,0.0,0.0
6.706,-0.27,-0.766,0.0
0.0,0.0,0.0,0.0
0.0,0.0,0.0,0.0
0.0,0.0,0.0,0.0
7.274,-0.295,-0.742,0.0
0.0,0.0,0.0,0.0
6.801,-0.277,-0.768,0.0
6.553,-0.268,-0.775,0.0
0.0,0.0,0.0,0.0
0.0,0.0,0.0,0.0
0.0,0.0,0.0,0.0
0.0,0.0,0.0,0.0
6.842,-0.283,-0.763,0.0
6.57,-0.272,-0.769,0.0
7.982,-0.33,-0.708,0.0
0.0,0.0,0.0,0.0
0.0,0.0,0.0,0.0
0.0,0.0,0.0,0.0
6.898,-0.289,-0.76,0.0
6.654,-0.279,-0.769,0.0
8.127,-0.34,-0.71,0.0
0.0,0.0,0.0,0.0
0.0,0.0,0.0,0.0
7.237,-0.305,-0.749,0.0
0.0,0.0,0.0,0.0
6.705,-0.284,-0.765,0.0
8.243,-0.349,-0.708,0.0
0.0,0.0,0.0,0.0
0.0,0.0,0.0,0.0
7.231,-0.308,-0.738,0.0
7.053,-0.301,-0.757,0.0
6.791,-0.291,-0.766,0.0
8.273,-0.353,-0.699,0.0
0.0,0.0,0.0,0.0
0.0,0.0,0.0,0.0
0.0,0.0,0.0,0.0
7.096,-0.306,-0.752,0.0
6.873,-0.297,-0.765,0.0
0.0,0.0,0.0,0.0
0.0,0.0,0.0,0.0
0.0,0.0,0.0,0.0
0.0,0.0,0.0,0.0
7.166,-0.312,-0.748,0.0
6.931,-0.302,-0.761,0.0
0.0,0.0,0.0,0.0
0.0,0.0,0.0,0.0
0.0,0.0,0.0,0.0
0.0,0.0,0.0,0.0
7.267,-0.319,-0.748,0.0
6.953,-0.306,-0.752,0.0
8.507,-0.372,-0.681,0.0
0.0,0.0,0.0,0.0
0.0,0.0,0.0,0.0
0.0,0.0,0.0,0.0
7.273,-0.321,-0.737,0.0
7.028,-0.311,-0.75,0.0
8.686,-0.383,-0.682,0.0
0.0,0.0,0.0,0.0
0.0,0.0,0.0,0.0
0.0,0.0,0.0,0.0
0.0,0.0,0.0,0.0
7.148,-0.318,-0.751,0.0
0.0,0.0,0.0,0.0
0.0,0.0,0.0,0.0
0.0,0.0,0.0,0.0
0.0,0.0,0.0,0.0
0.0,0.0,0.0,0.0
7.239,-0.324,-0.75,0.0
8.968,-0.399,-0.676,0.0
0.0,0.0,0.0,0.0
0.0,0.0,0.0,0.0
0.0,0.0,0.0,0.0
0.0,0.0,0.0,0.0
7.305,-0.328,-0.745,0.0
9.012,-0.403,-0.665,0.0
8.621,-0.386,-0.682,0.0
0.0,0.0,0.0,0.0
0.0,0.0,0.0,0.0
0.0,0.0,0.0,0.0
0.0,0.0,0.0,0.0
9.182,-0.412,-0.663,0.0
0.0,0.0,0.0,0.0
0.0,0.0,0.0,0.0
0.0,0.0,0.0,0.0
0.0,0.0,0.0,0.0
0.0,0.0,0.0,0.0
9.307,-0.418,-0.656,0.0
8.97,-0.403,-0.68,0.0
0.0,0.0,0.0,0.0
0.0,0.0,0.0,0.0
0.0,0.0,0.0,0.0
0.0,0.0,0.0,0.0
0.0,0.0,0.0,0.0
9.045,-0.407,-0.67,0.0
8.584,-0.387,-0.681,0.0
0.0,0.0,0.0,0.0
0.0,0.0,0.0,0.0
0.0,0.0,0.0,0.0
0.0,0.0,0.0,0.0
0.0,0.0,0.0,0.0
8.747,-0.394,-0.679,0.0
0.0,0.0,0.0,0.0
0.0,0.0,0.0,0.0
0.0,0.0,0.0,0.0
0.0,0.0,0.0,0.0
9.383,-0.422,-0.664,0.0
8.806,-0.397,-0.669,0.0
0.0,0.0,0.0,0.0
0.0,0.0,0.0,0.0
0.0,0.0,0.0,0.0
0.0,0.0,0.0,0.0
0.0,0.0,0.0,0.0
8.972,-0.403,-0.666,0.0
0.0,0.0,0.0,0.0
0.0,0.0,0.0,0.0
0.0,0.0,0.0,0.0
10.093,-0.452,-0.626,0.0
0.0,0.0,0.0,0.0
0.0,0.0,0.0,0.0
0.0,0.0,0.0,0.0
0.0,0.0,0.0,0.0
8.056,-0.361,-0.712,0.0
10.255,-0.458,-0.619,0.0
0.0,0.0,0.0,0.0
0.0,0.0,0.0,0.0
0.0,0.0,0.0,0.0
8.495,-0.38,-0.691,0.0
8.139,-0.364,-0.705,0.0
10.394,-0.463,-0.609,0.0
0.0,0.0,0.0,0.0
0.0,0.0,0.0,0.0
0.0,0.0,0.0,0.0
8.612,-0.383,-0.685,0.0
8.238,-0.366,-0.699,0.0
10.575,-0.468,-0.601,0.0
10.019,-0.443,-0.621,0.0
0.0,0.0,0.0,0.0
0.0,0.0,0.0,0.0
8.804,-0.389,-0.685,0.0
0.0,0.0,0.0,0.0
10.85,-0.478,-0.597,0.0
10.234,-0.45,-0.617,0.0
0.0,0.0,0.0,0.0
0.0,0.0,0.0,0.0
8.898,-0.391,-0.676,0.0
0.0,0.0,0.0,0.0
10.996,-0.481,-0.585,0.0
10.457,-0.457,-0.611,0.0
0.0,0.0,0.0,0.0
0.0,0.0,0.0,0.0
9.086,-0.396,-0.674,0.0
8.676,-0.378,-0.689,0.0
11.263,-0.488,-0.579,0.0
10.697,-0.464,-0.606,0.0
0.0,0.0,0.0,0.0
0.0,0.0,0.0,0.0
9.199,-0.397,-0.666,0.0
8.765,-0.378,-0.68,0.0
11.505,-0.495,-0.571,0.0
10.792,-0.463,-0.592,0.0
10.298,-0.442,-0.618,0.0
0.0,0.0,0.0,0.0
9.292,-0.398,-0.656,0.0
8.928,-0.382,-0.677,0.0
11.687,-0.497,-0.559,0.0
11.029,-0.469,-0.585,0.0
10.423,-0.442,-0.607,0.0
0.0,0.0,0.0,0.0
9.515,-0.403,-0.654,0.0
8.986,-0.38,-0.665,0.0
11.936,-0.502,-0.549,0.0
11.296,-0.475,-0.579,0.0
10.69,-0.449,-0.603,0.0
10.214,-0.428,-0.63,0.0
0.0,0.0,0.0,0.0
9.201,-0.384,-0.664,0.0
12.231,-0.509,-0.541,0.0
11.541,-0.479,-0.57,0.0
10.854,-0.45,-0.593,0.0
10.305,-0.426,-0.617,0.0
9.793,-0.404,-0.638,0.0
9.313,-0.384,-0.655,0.0
12.425,-0.51,-0.527,0.0
11.729,-0.48,-0.558,0.0
11.062,-0.452,-0.584,0.0
10.543,-0.43,-0.612,0.0
9.984,-0.407,-0.632,0.0
9.61,-0.391,-0.658,0.0
12.669,-0.512,-0.514,0.0
11.963,-0.483,-0.548,0.0
11.271,-0.454,-0.574,0.0
10.776,-0.433,-0.606,0.0
10.172,-0.408,-0.625,0.0
9.718,-0.389,-0.648,0.0
12.976,-0.517,-0.503,0.0
12.26,-0.487,-0.539,0.0
11.546,-0.458,-0.568,0.0
10.883,-0.43,-0.592,0.0
10.32,-0.407,-0.616,0.0
9.875,-0.389,-0.641,0.0
13.312,-0.521,-0.492,0.0
12.516,-0.489,-0.528,0.0
11.778,-0.459,-0.558,0.0
11.116,-0.432,-0.585,0.0
10.523,-0.408,-0.609,0.0
10.041,-0.388,-0.633,0.0
13.557,-0.521,-0.477,0.0
12.688,-0.486,-0.512,0.0
11.978,-0.458,-0.545,0.0
11.356,-0.433,-0.577,0.0
10.753,-0.409,-0.602,0.0
10.235,-0.388,-0.627,0.0
13.916,-0.525,-0.464,0.0
13.039,-0.49,-0.502,0.0
12.34,-0.462,-0.54,0.0
11.574,-0.432,-0.567,0.0
10.936,-0.407,-0.593,0.0
10.421,-0.387,-0.619,0.0
14.275,-0.527,-0.45,0.0
13.349,-0.491,-0.49,0.0
12.543,-0.46,-0.526,0.0
11.772,-0.43,-0.556,0.0
11.201,-0.408,-0.587,0.0
10.613,-0.385,-0.611,0.0
14.599,-0.527,-0.434,0.0
13.681,-0.492,-0.478,0.0
12.827,-0.459,-0.514,0.0
12.034,-0.429,-0.546,0.0
11.47,-0.408,-0.58,0.0
10.753,-0.381,-0.6,0.0
15.005,-0.528,-0.419,0.0
13.978,-0.49,-0.463,0.0
13.092,-0.457,-0.501,0.0
12.325,-0.429,-0.537,0.0
11.619,-0.403,-0.567,0.0
11.042,-0.381,-0.596,0.0
15.622,-0.536,-0.408,0.0
14.345,-0.49,-0.449,0.0
13.381,-0.455,-0.489,0.0
12.552,-0.425,-0.525,0.0
11.861,-0.4,-0.557,0.0
11.255,-0.378,-0.588,0.0
15.967,-0.533,-0.389,0.0
14.73,-0.489,-0.435,0.0
13.665,-0.451,-0.475,0.0
12.877,-0.423,-0.515,0.0
12.156,-0.398,-0.55,0.0
11.441,-0.372,-0.577,0.0
16.436,-0.532,-0.371,0.0
15.027,-0.484,-0.417,0.0
14.075,-0.451,-0.464,0.0
13.12,-0.418,-0.502,0.0
12.347,-0.392,-0.536,0.0
11.712,-0.369,-0.57,0.0
16.859,-0.528,-0.351,0.0
15.584,-0.486,-0.405,0.0
14.411,-0.447,-0.45,0.0
13.448,-0.415,-0.491,0.0
12.629,-0.387,-0.527,0.0
11.891,-0.362,-0.558,0.0
17.309,-0.524,-0.33,0.0
15.987,-0.481,-0.388,0.0
14.733,-0.441,-0.434,0.0
13.697,-0.408,-0.476,0.0
12.885,-0.381,-0.515,0.0
12.178,-0.358,-0.55,0.0
17.95,-0.524,-0.311,0.0
16.459,-0.478,-0.371,0.0
15.123,-0.436,-0.419,0.0
13.989,-0.401,-0.462,0.0
13.142,-0.374,-0.502,0.0
12.376,-0.35,-0.538,0.0
18.508,-0.52,-0.289,0.0
16.88,-0.471,-0.351,0.0
15.657,-0.433,-0.407,0.0
14.395,-0.396,-0.451,0.0
13.449,-0.367,-0.491,0.0
12.634,-0.342,-0.527,0.0
19.43,-0.523,-0.27,0.0
17.301,-0.462,-0.331,0.0
16.041,-0.425,-0.39,0.0
14.727,-0.388,-0.436,0.0
13.71,-0.358,-0.477,0.0
12.864,-0.333,-0.515,0.0
20.168,-0.519,-0.246,0.0
17.964,-0.458,-0.313,0.0
16.488,-0.417,-0.373,0.0
15.084,-0.378,-0.421,0.0
14.071,-0.35,-0.466,0.0
13.081,-0.323,-0.501,0.0
21.463,-0.525,-0.226,0.0
18.453,-0.448,-0.29,0.0
16.833,-0.405,-0.353,0.0
15.605,-0.372,-0.41,0.0
14.411,-0.34,-0.453,0.0
13.42,-0.314,-0.492,0.0
22.225,-0.516,-0.197,0.0
19.424,-0.447,-0.273,0.0
17.298,-0.394,-0.334,0.0
16.027,-0.361,-0.394,0.0
14.747,-0.329,-0.44,0.0
13.694,-0.303,-0.48,0.0
23.224,-0.509,-0.168,0.0
19.981,-0.433,-0.248,0.0
17.942,-0.385,-0.317,0.0
16.378,-0.348,-0.376,0.0
15.166,-0.318,-0.427,0.0
14.011,-0.291,-0.468,0.0
24.395,-0.502,-0.137,2.0
21.165,-0.43,-0.229,0.0
18.415,-0.37,-0.295,0.0
16.78,-0.333,-0.358,0.0
15.506,-0.304,-0.412,0.0
14.306,-0.278,-0.455,0.0
24.889,-0.478,-0.099,0.0
22.189,-0.421,-0.204,0.0
19.287,-0.361,-0.278,0.0
17.21,-0.318,-0.34,0.0
15.939,-0.291,-0.398,0.0
14.702,-0.265,-0.444,0.0
26.132,-0.465,-0.063,0.0
22.988,-0.403,-0.175,0.0
19.886,-0.344,-0.256,0.0
17.78,-0.303,-0.323,0.0
16.343,-0.275,-0.383,0.0
15.039,-0.249,-0.431,0.0
26.53,-0.434,-0.022,0.0
23.78,-0.383,-0.145,0.0
20.922,-0.332,-0.236,0.0
18.243,-0.285,-0.303,0.0
16.723,-0.257,-0.366,0.0
15.551,-0.235,-0.422,0.0
27.604,-0.411,0.018,0.0
24.597,-0.36,-0.112,0.0
21.951,-0.316,-0.215,1.0
19.014,-0.269,-0.287,0.0
17.034,-0.237,-0.347,0.0
15.835,-0.216,-0.405,0.0
28.516,-0.382,0.062,1.0
25.336,-0.333,-0.076,0.0
22.88,-0.295,-0.189,1.0
19.655,-0.248,-0.267,0.0
17.53,-0.217,-0.33,0.0
16.13,-0.195,-0.389,0.0
28.716,-0.341,0.105,0.0
26.213,-0.305,-0.04,0.0
23.308,-0.265,-0.158,0.0
20.349,-0.226,-0.247,0.0
18.088,-0.196,-0.314,0.0
16.558,-0.175,-0.375,0.0
30.857,-0.319,0.159,0.0
27.388,-0.276,-0.002,0.0
24.139,-0.237,-0.128,0.0
21.388,-0.204,-0.228,0.0
18.605,-0.172,-0.296,0.0
16.802,-0.151,-0.356,0.0
31.475,-0.275,0.208,1.0
28.275,-0.24,0.038,1.0
24.978,-0.205,-0.097,0.0
22.224,-0.176,-0.205,1.0
19.304,-0.148,-0.28,0.0
17.275,-0.128,-0.341,0.0
32.269,-0.23,0.259,1.0
28.735,-0.197,0.079,6.0
25.611,-0.169,-0.063,0.0
22.955,-0.145,-0.18,0.0
19.822,-0.12,-0.26,0.0
17.689,-0.102,-0.325,0.0
33.508,-0.184,0.316,0.0
28.833,-0.15,0.12,5.0
26.572,-0.131,-0.028,0.0
23.659,-0.11,-0.152,0.0
20.771,-0.091,-0.243,0.0
18.191,-0.074,-0.309,0.0
0.0,0.0,0.0,0.0
30.939,-0.11,0.17,0.0
27.498,-0.09,0.007,0.0
24.111,-0.072,-0.123,0.0
21.445,-0.058,-0.222,0.0
18.677,-0.045,-0.292,0.0
0.0,0.0,0.0,0.0
31.435,-0.058,0.215,0.0
28.56,-0.045,0.045,1.0
25.068,-0.032,-0.095,0.0
22.003,-0.022,-0.199,0.0
19.39,-0.014,-0.278,0.0
0.0,0.0,0.0,0.0
33.107,-0.005,0.27,0.0
28.716,0.003,0.082,1.0
25.828,0.01,-0.064,0.0
23.321,0.016,-0.181,0.0
20.044,0.02,-0.262,0.0
39.868,0.052,0.588,0.0
33.719,0.053,0.318,0.0
28.83,0.054,0.119,0.0
26.537,0.057,-0.032,0.0
23.537,0.057,-0.153,1.0
20.959,0.057,-0.247,2.0
41.672,0.127,0.666,0.0
35.591,0.118,0.38,0.0
30.559,0.111,0.164,0.0
27.159,0.106,0.0,0.0
24.326,0.102,-0.129,0.0
21.316,0.095,-0.226,4.0
0.0,0.0,0.0,0.0
37.062,0.188,0.44,0.0
31.793,0.171,0.209,0.0
27.8,0.157,0.032,0.0
25.041,0.149,-0.103,0.0
22.168,0.139,-0.209,2.0
0.0,0.0,0.0,0.0
37.505,0.258,0.49,0.0
32.571,0.234,0.252,0.0
28.754,0.215,0.067,4.0
25.609,0.199,-0.075,0.0
22.458,0.181,-0.186,1.0
0.0,0.0,0.0,0.0
39.708,0.346,0.564,0.0
33.348,0.3,0.296,0.0
28.836,0.268,0.1,6.0
26.133,0.251,-0.048,0.0
23.406,0.232,-0.167,0.0
0.0,0.0,0.0,0.0
0.0,0.0,0.0,0.0
34.837,0.378,0.348,0.0
28.911,0.322,0.132,4.0
26.791,0.307,-0.02,0.0
23.833,0.28,-0.144,0.0
57.567,0.696,1.251,1.0
0.0,0.0,0.0,0.0
35.951,0.456,0.398,0.0
29.049,0.377,0.163,0.0
27.407,0.364,0.008,0.0
24.355,0.331,-0.122,1.0
0.0,0.0,0.0,0.0
0.0,0.0,0.0,0.0
37.407,0.544,0.452,0.0
31.764,0.471,0.211,0.0
28.294,0.429,0.037,0.0
25.106,0.388,-0.1,0.0
0.0,0.0,0.0,0.0
0.0,0.0,0.0,0.0
38.049,0.625,0.498,0.0
32.273,0.54,0.247,0.0
28.672,0.488,0.066,1.0
25.588,0.444,-0.077,0.0
0.0,0.0,0.0,0.0
0.0,0.0,0.0,0.0
40.113,0.735,0.564,0.0
33.582,0.626,0.289,0.0
28.878,0.547,0.094,1.0
26.134,0.503,-0.054,0.0
54.336,1.066,1.398,2.0
54.76,1.09,1.115,0.0
0.0,0.0,0.0,0.0
34.291,0.704,0.327,0.0
28.894,0.602,0.121,1.0
26.527,0.561,-0.031,0.0
54.43,1.173,1.45,0.0
58.047,1.269,1.235,4.0
0.0,0.0,0.0,0.0
35.872,0.806,0.374,0.0
29.017,0.661,0.147,0.0
26.955,0.622,-0.008,0.0
54.214,1.274,1.492,0.0
57.887,1.377,1.282,2.0
47.622,1.148,0.798,2.0
36.103,0.881,0.407,0.0
31.227,0.771,0.184,0.0
27.283,0.683,0.014,0.0
54.139,1.377,1.535,1.0
54.57,1.405,1.254,1.0
0.0,0.0,0.0,0.0
36.687,0.967,0.444,0.0
31.593,0.843,0.212,0.0
28.494,0.768,0.038,0.0
54.108,1.482,1.578,4.0
54.171,1.501,1.288,1.0
0.0,0.0,0.0,0.0
39.088,1.107,0.504,0.0
32.852,0.941,0.246,1.0
28.776,0.833,0.06,2.0
54.123,1.59,1.62,3.0
54.225,1.61,1.331,10.0
55.564,1.666,1.063,5.0
0.0,0.0,0.0,0.0
33.254,1.018,0.274,0.0
28.905,0.893,0.082,4.0
54.141,1.696,1.66,1.0
54.251,1.717,1.37,9.0
54.863,1.752,1.089,1.0
0.0,0.0,0.0,0.0
34.025,1.108,0.304,1.0
28.917,0.951,0.102,2.0
51.127,1.704,1.603,2.0
0.0,0.0,0.0,0.0
50.61,1.717,1.039,0.0
0.0,0.0,0.0,0.0
34.371,1.187,0.329,0.0
28.902,1.007,0.121,0.0
50.249,1.773,1.608,2.0
50.179,1.786,1.334,2.0
50.435,1.811,1.067,0.0
47.216,1.71,0.738,1.0
34.722,1.268,0.354,0.0
29.069,1.07,0.139,0.0
49.603,1.849,1.618,3.0
49.576,1.863,1.348,3.0
49.725,1.883,1.082,0.0
47.379,1.809,0.769,0.0
35.581,1.37,0.384,0.0
30.968,1.201,0.166,0.0
49.034,1.925,1.627,2.0
48.893,1.934,1.357,2.0
48.85,1.947,1.09,0.0
0.0,0.0,0.0,0.0
35.533,1.438,0.403,0.0
30.942,1.261,0.182,0.0
48.5,2.0,1.635,3.0
48.377,2.009,1.368,17.0
48.351,2.023,1.104,1.0
48.018,2.023,0.83,0.0
0.0,0.0,0.0,0.0
32.079,1.372,0.205,1.0
47.945,2.072,1.64,2.0
47.971,2.088,1.38,1.0
47.792,2.095,1.114,0.0
47.96,2.117,0.852,0.0
0.0,0.0,0.0,0.0
32.203,1.44,0.22,1.0
47.72,2.157,1.654,8.0
47.481,2.16,1.387,14.0
47.449,2.173,1.127,15.0
47.726,2.199,0.868,1.0
0.0,0.0,0.0,0.0
32.185,1.502,0.234,1.0
47.697,2.25,1.673,150.0
47.409,2.25,1.404,1.0
47.4,2.264,1.145,19.0
50.385,2.421,0.936,0.0
0.0,0.0,0.0,0.0
32.326,1.573,0.247,1.0
47.608,2.34,1.688,15.0
47.397,2.343,1.421,4.0
47.344,2.354,1.16,21.0
47.521,2.377,0.9,0.0
0.0,0.0,0.0,0.0
32.913,1.666,0.263,1.0
47.561,2.432,1.703,13.0
47.352,2.435,1.436,12.0
47.294,2.446,1.175,29.0
47.292,2.46,0.91,1.0
0.0,0.0,0.0,0.0
33.481,1.762,0.278,1.0
47.546,2.525,1.717,5.0
47.284,2.525,1.448,12.0
47.277,2.539,1.188,31.0
47.303,2.554,0.924,2.0
44.423,2.411,0.624,0.0
33.327,1.819,0.285,0.0
47.704,2.628,1.735,3.0
47.247,2.616,1.458,14.0
47.262,2.631,1.199,19.0
47.248,2.644,0.934,3.0
42.097,2.368,0.601,1.0
33.849,1.914,0.297,0.0
47.727,2.724,1.746,3.0
47.217,2.708,1.468,21.0
47.245,2.722,1.208,17.0
47.281,2.738,0.944,4.0
47.784,2.781,0.691,2.0
0.0,0.0,0.0,0.0
47.767,2.819,1.756,2.0
47.209,2.799,1.476,41.0
47.233,2.813,1.216,21.0
47.243,2.828,0.951,4.0
47.553,2.86,0.695,1.0
34.788,2.102,0.317,0.0
47.83,2.916,1.765,2.0
47.218,2.891,1.482,21.0
47.218,2.904,1.222,167.0
47.253,2.919,0.957,5.0
43.479,2.698,0.641,0.0
33.856,2.11,0.312,0.0
47.822,3.006,1.77,2.0
47.23,2.982,1.487,18.0
47.227,2.995,1.226,163.0
47.225,3.008,0.96,4.0
46.129,2.951,0.683,0.0
36.524,2.347,0.339,0.0
47.967,3.108,1.779,1.0
47.237,3.073,1.49,14.0
47.23,3.085,1.229,173.0
47.268,3.101,0.963,4.0
43.032,2.834,0.639,0.0
36.019,2.382,0.336,0.0
47.943,3.197,1.779,1.0
47.257,3.164,1.492,15.0
47.242,3.176,1.23,163.0
47.285,3.191,0.964,4.0
47.153,3.196,0.7,1.0
47.267,3.216,0.44,1.0
48.009,3.293,1.781,1.0
47.3,3.256,1.492,16.0
47.267,3.266,1.229,165.0
47.293,3.281,0.963,4.0
0.0,0.0,0.0,0.0
35.899,2.51,0.332,0.0
48.099,3.389,1.782,1.0
47.308,3.346,1.49,15.0
47.277,3.356,1.226,111.0
47.311,3.371,0.959,3.0
0.0,0.0,0.0,0.0
35.535,2.551,0.326,0.0
48.13,3.482,1.779,1.0
47.336,3.437,1.486,15.0
47.318,3.447,1.223,20.0
47.354,3.462,0.955,3.0
44.789,3.286,0.654,0.0
35.55,2.617,0.322,0.0
48.259,3.58,1.777,1.0
47.36,3.525,1.481,9.0
47.366,3.538,1.217,20.0
47.357,3.549,0.949,2.0
43.895,3.301,0.635,0.0
35.602,2.687,0.317,0.0
48.267,3.669,1.77,1.0
47.663,3.635,1.482,57.0
47.415,3.628,1.21,17.0
47.385,3.638,0.94,2.0
47.737,3.677,0.681,0.0
35.035,2.708,0.305,1.0
48.775,3.797,1.779,4.0
47.472,3.707,1.466,7.0
47.491,3.72,1.202,15.0
47.498,3.732,0.932,1.0
47.831,3.77,0.672,1.0
35.313,2.792,0.299,0.0
81.066,6.455,2.937,5.0
47.579,3.8,1.458,7.0
47.59,3.812,1.193,10.0
47.504,3.818,0.92,0.0
45.297,3.651,0.624,1.0
35.114,2.839,0.288,1.0
62.723,5.106,2.256,10.0
47.662,3.891,1.448,6.0
47.655,3.902,1.18,1.0
47.778,3.923,0.911,0.0
47.267,3.893,0.637,3.0
34.101,2.817,0.269,0.0
52.236,4.344,1.862,12.0
52.299,4.361,1.572,7.0
52.197,4.364,1.277,11.0
49.212,4.126,0.923,5.0
42.496,3.573,0.559,0.0
33.88,2.857,0.256,0.0
52.142,4.425,1.841,51.0
52.154,4.438,1.549,25.0
52.074,4.444,1.255,12.0
48.796,4.176,0.897,5.0
0.0,0.0,0.0,0.0
33.042,2.842,0.237,0.0
52.115,4.512,1.82,61.0
52.115,4.523,1.528,45.0
51.997,4.525,1.232,10.0
48.429,4.225,0.872,6.0
41.373,3.619,0.512,0.0
32.381,2.84,0.219,0.0
52.133,4.601,1.8,45.0
52.116,4.611,1.506,27.0
51.855,4.598,1.207,10.0
48.057,4.272,0.844,5.0
40.657,3.623,0.486,0.0
32.47,2.901,0.205,0.0
62.46,5.615,2.128,27.0
52.18,4.701,1.484,22.0
51.768,4.675,1.182,9.0
47.675,4.316,0.816,4.0
0.0,0.0,0.0,0.0
31.756,2.889,0.186,0.0
60.446,5.531,2.031,6.0
65.42,6.0,1.829,4.0
51.597,4.743,1.153,9.0
47.332,4.361,0.786,3.0
40.92,3.778,0.449,0.0
31.706,2.934,0.17,0.0
60.325,5.615,1.996,17.0
62.369,5.818,1.712,12.0
51.523,4.817,1.124,6.0
47.017,4.405,0.756,6.0
0.0,0.0,0.0,0.0
29.338,2.761,0.142,2.0
60.369,5.713,1.965,11.0
62.118,5.891,1.671,6.0
51.422,4.887,1.094,4.0
46.745,4.452,0.726,6.0
36.129,3.448,0.357,0.0
29.312,2.804,0.124,3.0
60.337,5.804,1.929,17.0
61.834,5.959,1.627,3.0
51.302,4.954,1.06,1.0
46.377,4.488,0.693,6.0
35.753,3.467,0.332,0.0
29.296,2.846,0.107,5.0
60.174,5.878,1.887,19.0
58.185,5.694,1.496,4.0
46.691,4.579,0.937,3.0
46.098,4.529,0.66,5.0
35.505,3.495,0.307,1.0
29.254,2.886,0.088,4.0
60.217,5.971,1.85,21.0
57.528,5.715,1.442,3.0
46.641,4.642,0.905,3.0
45.919,4.579,0.627,8.0
34.469,3.444,0.276,0.0
29.114,2.914,0.069,1.0
59.581,5.995,1.791,32.0
56.444,5.689,1.377,2.0
46.181,4.662,0.865,5.0
45.548,4.606,0.591,1.0
0.0,0.0,0.0,0.0
28.951,2.939,0.048,1.0
59.809,6.101,1.756,31.0
51.723,5.285,1.226,3.0
45.688,4.676,0.824,4.0
41.377,4.242,0.508,0.0
32.83,3.372,0.217,0.0
28.101,2.891,0.027,0.0
59.811,6.184,1.713,21.0
51.579,5.341,1.185,7.0
45.269,4.695,0.783,13.0
39.228,4.075,0.453,0.0
31.919,3.321,0.188,0.0
27.399,2.856,0.006,0.0
59.792,6.261,1.668,14.0
51.507,5.402,1.145,7.0
45.055,4.732,0.746,4.0
38.616,4.062,0.416,0.0
31.833,3.354,0.163,1.0
26.473,2.794,-0.014,0.0
60.523,6.417,1.641,30.0
46.489,4.936,0.997,5.0
44.934,4.778,0.709,4.0
0.0,0.0,0.0,0.0
29.414,3.137,0.127,0.0
26.223,2.801,-0.035,1.0
59.977,6.436,1.578,13.0
46.111,4.954,0.951,12.0
44.825,4.823,0.67,4.0
35.51,3.827,0.325,0.0
29.335,3.166,0.102,4.0
25.997,2.81,-0.056,2.0
56.382,6.12,1.436,2.0
45.764,4.974,0.906,15.0
44.625,4.857,0.629,3.0
35.531,3.872,0.296,0.0
29.216,3.189,0.077,7.0
25.588,2.797,-0.077,1.0
46.518,5.105,1.145,2.0
45.504,5.0,0.861,12.0
44.398,4.885,0.588,2.0
0.0,0.0,0.0,0.0
29.172,3.218,0.051,2.0
24.346,2.689,-0.094,1.0
46.509,5.158,1.104,8.0
45.109,5.009,0.814,9.0
41.864,4.654,0.517,0.0
32.709,3.641,0.215,0.0
28.132,3.135,0.025,1.0
24.129,2.693,-0.115,2.0
46.326,5.189,1.058,7.0
44.681,5.011,0.767,3.0
39.754,4.464,0.455,0.0
32.126,3.611,0.182,1.0
27.371,3.081,0.0,0.0
23.856,2.689,-0.136,2.0
46.151,5.22,1.012,9.0
44.492,5.038,0.722,5.0
37.83,4.288,0.398,0.0
29.424,3.339,0.139,1.0
26.403,3.0,-0.025,1.0
23.458,2.668,-0.155,1.0
45.878,5.236,0.963,8.0
44.419,5.075,0.679,6.0
37.366,4.274,0.358,0.0
29.403,3.366,0.111,4.0
26.066,2.988,-0.049,1.0
22.514,2.584,-0.171,0.0
45.678,5.259,0.915,10.0
44.276,5.103,0.634,4.0
37.098,4.28,0.32,0.0
29.324,3.386,0.082,5.0
25.705,2.972,-0.074,1.0
22.037,2.551,-0.189,0.0
45.506,5.283,0.866,9.0
43.734,5.082,0.583,2.0
0.0,0.0,0.0,0.0
28.997,3.376,0.053,1.0
24.355,2.839,-0.094,0.0
21.581,2.518,-0.206,0.0
44.864,5.25,0.809,4.0
42.911,5.025,0.53,0.0
32.666,3.829,0.216,1.0
28.327,3.324,0.023,0.0
23.994,2.818,-0.117,1.0
21.102,2.481,-0.223,0.0
44.295,5.222,0.754,4.0
40.57,4.787,0.458,0.0
32.311,3.815,0.181,1.0
27.342,3.231,-0.005,0.0
23.658,2.799,-0.139,1.0
20.681,2.449,-0.24,0.0
44.146,5.241,0.706,5.0
38.955,4.628,0.4,0.0
31.558,3.753,0.144,0.0
26.273,3.127,-0.032,1.0
23.125,2.755,-0.16,1.0
20.336,2.425,-0.257,0.0
44.106,5.272,0.658,5.0
36.721,4.392,0.338,0.0
29.382,3.517,0.103,0.0
25.986,3.113,-0.059,1.0
22.405,2.686,-0.179,0.0
19.824,2.379,-0.272,0.0
43.906,5.28,0.609,2.0
36.491,4.391,0.298,0.0
29.215,3.518,0.071,1.0
25.082,3.023,-0.084,0.0
21.865,2.637,-0.198,0.0
19.38,2.339,-0.286,0.0
42.399,5.129,0.543,0.0
33.524,4.058,0.237,0.0
28.898,3.5,0.039,1.0
24.127,2.924,-0.107,2.0
21.253,2.578,-0.216,0.0
19.022,2.309,-0.302,0.0
40.09,4.876,0.47,0.0
32.808,3.992,0.196,0.0
27.668,3.369,0.007,0.0
23.857,2.907,-0.132,3.0
20.764,2.532,-0.233,0.0
18.588,2.268,-0.315,0.0
39.955,4.884,0.425,0.0
31.746,3.882,0.156,0.0
26.501,3.242,-0.021,1.0
23.279,2.85,-0.154,1.0
20.419,2.501,-0.252,0.0
18.166,2.227,-0.328,0.0
0.0,0.0,0.0,0.0
29.41,3.613,0.111,0.0
26.124,3.211,-0.05,1.0
22.63,2.783,-0.175,0.0
19.947,2.454,-0.268,0.0
17.78,2.189,-0.341,0.0
35.805,4.415,0.301,0.0
29.25,3.608,0.078,1.0
25.553,3.154,-0.077,1.0
21.959,2.712,-0.194,0.0
19.473,2.406,-0.284,0.0
17.47,2.16,-0.355,0.0
0.0,0.0,0.0,0.0
28.843,3.572,0.044,1.0
24.077,2.983,-0.1,1.0
21.409,2.654,-0.214,0.0
18.968,2.352,-0.298,0.0
17.185,2.132,-0.369,0.0
32.608,4.051,0.2,0.0
28.126,3.495,0.012,1.0
23.798,2.958,-0.126,3.0
20.742,2.579,-0.231,0.0
18.521,2.304,-0.312,0.0
16.877,2.101,-0.381,0.0
29.505,3.676,0.147,0.0
26.567,3.311,-0.019,0.0
23.341,2.91,-0.15,1.0
20.36,2.539,-0.25,0.0
18.188,2.269,-0.327,0.0
16.671,2.081,-0.395,0.0
29.444,3.679,0.114,4.0
26.127,3.265,-0.048,1.0
22.57,2.821,-0.171,1.0
19.846,2.482,-0.266,0.0
17.849,2.233,-0.342,0.0
16.316,2.042,-0.406,0.0
29.343,3.675,0.079,6.0
25.559,3.201,-0.077,0.0
22.089,2.767,-0.193,0.0
19.475,2.441,-0.283,0.0
17.447,2.187,-0.354,0.0
15.895,1.993,-0.413,0.0
28.851,3.62,0.045,4.0
24.018,3.014,-0.099,0.0
21.407,2.687,-0.211,0.0
18.967,2.381,-0.298,0.0
17.146,2.153,-0.367,0.0
15.731,1.976,-0.427,0.0
28.093,3.531,0.012,1.0
23.759,2.986,-0.125,3.0
20.973,2.636,-0.231,0.0
18.484,2.324,-0.311,0.0
16.899,2.125,-0.381,0.0
15.44,1.942,-0.437,0.0
26.509,3.335,-0.019,0.0
23.264,2.927,-0.15,1.0
20.489,2.579,-0.249,0.0
18.15,2.284,-0.327,0.0
16.664,2.098,-0.395,0.0
15.216,1.916,-0.448,0.0
26.052,3.281,-0.048,1.0
22.529,2.837,-0.171,1.0
19.883,2.504,-0.264,0.0
17.797,2.242,-0.341,0.0
16.262,2.049,-0.404,0.0
14.963,1.885,-0.458,0.0
25.553,3.219,-0.077,0.0
22.031,2.776,-0.192,0.0
19.411,2.446,-0.281,0.0
17.436,2.197,-0.354,0.0
15.85,1.997,-0.413,0.0
14.615,1.842,-0.464,0.0
23.951,3.018,-0.099,1.0
21.36,2.691,-0.211,0.0
18.933,2.385,-0.296,0.0
17.069,2.151,-0.366,0.0
15.729,1.982,-0.428,0.0
14.408,1.816,-0.474,0.0
23.721,2.988,-0.126,3.0
20.769,2.616,-0.229,0.0
18.467,2.326,-0.309,0.0
16.868,2.124,-0.381,0.0
15.461,1.947,-0.438,0.0
14.178,1.786,-0.483,0.0
23.122,2.911,-0.149,1.0
20.418,2.57,-0.248,0.0
18.127,2.281,-0.324,0.0
16.578,2.086,-0.393,0.0
15.197,1.912,-0.448,0.0
13.959,1.757,-0.491,0.0
22.497,2.829,-0.17,1.0
19.74,2.482,-0.262,0.0
17.78,2.235,-0.338,0.0
16.078,2.021,-0.4,0.0
14.996,1.885,-0.459,0.0
13.735,1.726,-0.499,0.0
22.028,2.766,-0.191,0.0
19.442,2.441,-0.28,0.0
17.473,2.193,-0.352,0.0
15.853,1.99,-0.412,0.0
14.586,1.831,-0.463,0.0
13.53,1.698,-0.507,0.0
21.317,2.672,-0.209,0.0
18.93,2.372,-0.294,0.0
17.117,2.145,-0.364,0.0
15.706,1.968,-0.425,0.0
14.434,1.808,-0.474,0.0
13.364,1.674,-0.515,0.0
20.859,2.609,-0.227,0.0
18.526,2.317,-0.308,0.0
16.848,2.106,-0.377,0.0
15.416,1.927,-0.435,0.0
14.149,1.768,-0.48,0.0
13.135,1.641,-0.521,0.0
20.385,2.544,-0.244,0.0
18.133,2.262,-0.321,0.0
16.645,2.076,-0.39,0.0
15.164,1.891,-0.444,0.0
13.989,1.744,-0.49,0.0
12.996,1.62,-0.529,0.0
19.976,2.486,-0.261,0.0
17.809,2.215,-0.335,0.0
16.23,2.018,-0.398,0.0
14.974,1.861,-0.454,0.0
13.793,1.714,-0.497,0.0
12.883,1.601,-0.539,0.0
19.434,2.41,-0.275,0.0
17.481,2.167,-0.347,0.0
15.978,1.98,-0.409,0.0
14.757,1.828,-0.464,0.0
13.565,1.68,-0.504,0.0
12.687,1.571,-0.544,0.0
19.07,2.357,-0.29,0.0
17.222,2.127,-0.36,0.0
15.783,1.949,-0.42,0.0
14.455,1.784,-0.469,0.0
13.428,1.657,-0.513,0.0
12.529,1.545,-0.55,0.0
18.635,2.294,-0.303,0.0
16.945,2.085,-0.372,0.0
15.513,1.908,-0.429,0.0
14.295,1.757,-0.479,0.0
13.28,1.632,-0.521,0.0
12.405,1.524,-0.558,0.0
18.267,2.239,-0.315,0.0
16.739,2.05,-0.384,0.0
15.29,1.872,-0.439,0.0
14.04,1.718,-0.485,0.0
13.079,1.6,-0.526,0.0
12.305,1.505,-0.566,0.0
17.928,2.187,-0.328,0.0
16.395,1.999,-0.393,0.0
15.073,1.836,-0.448,0.0
13.804,1.681,-0.49,0.0
12.94,1.575,-0.534,0.0
12.139,1.477,-0.571,0.0
17.56,2.131,-0.338,0.0
16.081,1.95,-0.402,0.0
14.822,1.797,-0.455,0.0
13.627,1.651,-0.498,0.0
12.751,1.544,-0.539,0.0
11.964,1.448,-0.574,0.0
17.306,2.089,-0.35,0.0
15.847,1.911,-0.411,0.0
14.468,1.744,-0.458,0.0
13.485,1.624,-0.506,0.0
12.652,1.523,-0.547,0.0
11.802,1.42,-0.578,0.0
17.06,2.047,-0.362,0.0
15.647,1.876,-0.421,0.0
14.284,1.712,-0.466,0.0
13.348,1.598,-0.513,0.0
12.546,1.501,-0.554,0.0
11.69,1.398,-0.583,0.0
16.891,2.014,-0.374,0.0
15.483,1.845,-0.431,0.0
14.216,1.693,-0.477,0.0
13.181,1.568,-0.519,0.0
12.407,1.475,-0.559,0.0
11.581,1.376,-0.588,0.0
16.618,1.969,-0.383,0.0
15.293,1.81,-0.44,0.0
14.026,1.659,-0.483,0.0
13.11,1.549,-0.528,0.0
12.303,1.453,-0.566,0.0
11.446,1.351,-0.592,0.0
16.292,1.916,-0.39,0.0
15.051,1.769,-0.446,0.0
13.798,1.62,-0.488,0.0
12.867,1.51,-0.53,0.0
12.148,1.424,-0.569,0.0
11.334,1.328,-0.596,0.0
16.168,1.888,-0.401,0.0
14.816,1.728,-0.452,0.0
13.67,1.593,-0.495,0.0
12.717,1.481,-0.534,0.0
12.024,1.399,-0.574,0.0
11.273,1.311,-0.602,0.0
15.884,1.84,-0.408,0.0
14.621,1.692,-0.459,0.0
13.505,1.562,-0.5,0.0
12.643,1.461,-0.542,0.0
11.812,1.363,-0.574,0.0
11.16,1.287,-0.606,0.0
15.7,1.804,-0.416,0.0
14.393,1.652,-0.463,0.0
13.401,1.537,-0.508,0.0
12.538,1.436,-0.548,0.0
11.771,1.347,-0.581,0.0
11.058,1.264,-0.609,0.0
15.502,1.766,-0.423,0.0
14.211,1.617,-0.469,0.0
13.269,1.508,-0.513,0.0
12.459,1.415,-0.554,0.0
11.655,1.322,-0.585,0.0
10.991,1.246,-0.614,0.0
15.36,1.734,-0.431,0.0
14.122,1.593,-0.477,0.0
13.13,1.479,-0.518,0.0
12.317,1.386,-0.557,0.0
11.508,1.294,-0.586,0.0
10.889,1.223,-0.616,0.0
15.191,1.699,-0.438,0.0
13.934,1.557,-0.48,0.0
13.016,1.452,-0.523,0.0
12.166,1.356,-0.559,0.0
11.488,1.279,-0.593,0.0
10.851,1.207,-0.622,0.0
15.05,1.667,-0.444,0.0
13.79,1.525,-0.485,0.0
12.894,1.425,-0.527,0.0
12.138,1.339,-0.566,0.0
11.354,1.252,-0.594,0.0
10.758,1.185,-0.624,0.0
14.835,1.626,-0.448,0.0
13.687,1.498,-0.491,0.0
12.805,1.4,-0.532,0.0
12.058,1.317,-0.571,0.0
11.266,1.229,-0.597,0.0
10.717,1.168,-0.629,0.0
14.742,1.599,-0.455,0.0
13.603,1.473,-0.497,0.0
12.675,1.371,-0.535,0.0
12.021,1.299,-0.577,0.0
11.211,1.21,-0.601,0.0
10.619,1.144,-0.63,0.0
13.495,1.137,-0.497,0.0
12.563,1.056,-0.533,0.0
11.816,0.99,-0.567,0.0
11.161,0.933,-0.599,0.0
10.541,0.879,-0.625,0.0
9.985,0.831,-0.647,0.0
13.495,1.115,-0.497,0.0
12.61,1.039,-0.535,0.0
11.816,0.971,-0.567,0.0
11.167,0.915,-0.599,0.0
10.501,0.858,-0.622,0.0
9.963,0.812,-0.646,0.0
13.447,1.089,-0.495,0.0
12.592,1.017,-0.534,0.0
11.812,0.951,-0.567,0.0
11.159,0.896,-0.598,0.0
10.5,0.841,-0.622,0.0
10.04,0.802,-0.65,0.0
13.491,1.07,-0.496,0.0
12.575,0.995,-0.532,0.0
11.775,0.929,-0.564,0.0
11.184,0.879,-0.599,0.0
10.542,0.827,-0.623,0.0
9.967,0.779,-0.645,0.0
13.505,1.049,-0.495,0.0
12.629,0.978,-0.533,0.0
11.851,0.915,-0.566,0.0
11.185,0.861,-0.598,0.0
10.531,0.808,-0.621,0.0
10.016,0.766,-0.647,0.0
13.549,1.029,-0.495,0.0
12.604,0.955,-0.53,0.0
11.892,0.898,-0.566,0.0
11.192,0.842,-0.596,0.0
10.565,0.793,-0.621,0.0
10.09,0.755,-0.649,0.0
13.549,1.006,-0.493,0.0
12.643,0.936,-0.53,0.0
11.966,0.883,-0.568,0.0
11.178,0.822,-0.593,0.0
10.572,0.775,-0.619,0.0
10.059,0.735,-0.645,0.0
13.572,0.985,-0.491,0.0
12.689,0.917,-0.529,0.0
11.962,0.862,-0.565,0.0
11.236,0.807,-0.593,0.0
10.64,0.761,-0.621,0.0
10.061,0.718,-0.643,0.0
13.612,0.964,-0.488,0.0
12.764,0.901,-0.528,0.0
12.021,0.845,-0.564,0.0
11.284,0.79,-0.593,0.0
10.65,0.744,-0.618,0.0
10.131,0.705,-0.644,0.0
13.677,0.945,-0.487,0.0
12.795,0.88,-0.526,0.0
12.041,0.825,-0.561,0.0
11.334,0.774,-0.592,0.0
10.678,0.727,-0.616,0.0
10.099,0.685,-0.639,0.0
13.692,0.922,-0.482,0.0
12.823,0.86,-0.522,0.0
12.094,0.808,-0.559,0.0
11.277,0.751,-0.585,0.0
10.716,0.711,-0.615,0.0
10.172,0.672,-0.639,0.0
13.791,0.905,-0.481,0.0
12.876,0.841,-0.519,0.0
12.097,0.787,-0.554,0.0
11.328,0.734,-0.583,0.0
10.77,0.695,-0.613,0.0
10.234,0.658,-0.639,0.0
13.839,0.883,-0.476,0.0
12.942,0.823,-0.516,0.0
12.148,0.769,-0.551,0.0
11.472,0.723,-0.585,0.0
0.0,0.0,0.0,0.0
10.267,0.642,-0.636,0.0
13.934,0.865,-0.473,0.0
13.038,0.806,-0.514,0.0
12.279,0.756,-0.551,0.0
11.518,0.706,-0.582,0.0
0.0,0.0,0.0,0.0
10.304,0.626,-0.633,0.0
14.007,0.845,-0.469,0.0
13.13,0.788,-0.511,0.0
12.345,0.738,-0.548,0.0
11.582,0.689,-0.579,0.0
11.043,0.654,-0.612,0.0
10.307,0.608,-0.628,0.0
14.093,0.825,-0.464,0.0
13.164,0.767,-0.505,0.0
12.392,0.719,-0.543,0.0
11.645,0.672,-0.575,0.0
11.015,0.633,-0.604,0.0
10.429,0.597,-0.629,0.0
14.169,0.804,-0.458,0.0
13.256,0.749,-0.501,0.0
12.461,0.701,-0.539,0.0
11.679,0.654,-0.57,0.0
11.039,0.615,-0.599,0.0
10.431,0.578,-0.623,0.0
14.201,0.781,-0.45,0.0
13.343,0.73,-0.495,0.0
12.532,0.683,-0.533,0.0
11.792,0.639,-0.568,0.0
11.197,0.604,-0.6,0.0
10.516,0.564,-0.621,0.0
14.405,0.767,-0.447,0.0
13.479,0.714,-0.491,0.0
12.672,0.668,-0.531,0.0
11.867,0.622,-0.563,0.0
11.166,0.582,-0.59,0.0
10.657,0.553,-0.621,0.0
14.525,0.747,-0.44,0.0
13.617,0.697,-0.487,0.0
12.697,0.647,-0.523,0.0
12.02,0.609,-0.561,0.0
11.281,0.568,-0.588,0.0
10.626,0.533,-0.612,0.0
14.686,0.73,-0.434,0.0
13.743,0.679,-0.481,0.0
12.851,0.632,-0.519,0.0
12.098,0.591,-0.556,0.0
11.34,0.551,-0.582,0.0
10.719,0.518,-0.609,0.0
14.977,0.718,-0.431,0.0
13.829,0.659,-0.473,0.0
12.943,0.613,-0.512,0.0
12.208,0.575,-0.551,0.0
11.458,0.537,-0.579,0.0
10.854,0.506,-0.607,0.0
15.197,0.702,-0.425,0.0
14.047,0.645,-0.468,0.0
13.118,0.599,-0.508,0.0
12.339,0.56,-0.546,0.0
11.6,0.523,-0.576,0.0
11.014,0.494,-0.607,0.0
15.383,0.683,-0.416,0.0
14.179,0.626,-0.46,0.0
13.233,0.581,-0.501,0.0
12.465,0.543,-0.54,0.0
11.778,0.51,-0.574,0.0
11.06,0.476,-0.599,0.0
15.616,0.666,-0.408,0.0
14.348,0.608,-0.452,0.0
13.406,0.565,-0.495,0.0
12.556,0.526,-0.533,0.0
11.85,0.493,-0.567,0.0
11.133,0.46,-0.592,0.0
15.76,0.645,-0.397,0.0
14.577,0.593,-0.446,0.0
13.534,0.546,-0.487,0.0
12.725,0.51,-0.527,0.0
11.966,0.477,-0.56,0.0
11.284,0.446,-0.589,0.0
16.047,0.629,-0.388,0.0
14.828,0.577,-0.439,0.0
13.743,0.531,-0.48,0.0
12.816,0.492,-0.518,0.0
12.069,0.46,-0.553,0.0
11.387,0.431,-0.583,0.0
16.232,0.608,-0.376,0.0
14.973,0.557,-0.427,0.0
13.934,0.514,-0.472,0.0
12.972,0.475,-0.511,0.0
12.296,0.447,-0.55,0.0
11.542,0.417,-0.578,0.0
16.49,0.59,-0.365,0.0
15.267,0.542,-0.419,0.0
14.079,0.496,-0.462,0.0
13.119,0.458,-0.502,0.0
12.394,0.43,-0.541,0.0
11.668,0.401,-0.572,0.0
16.766,0.571,-0.353,0.0
15.551,0.525,-0.41,0.0
14.302,0.479,-0.454,0.0
13.284,0.442,-0.494,0.0
12.552,0.414,-0.534,0.0
11.792,0.386,-0.564,0.0
17.089,0.553,-0.34,0.0
15.766,0.506,-0.398,0.0
14.541,0.463,-0.444,0.0
13.568,0.428,-0.488,0.0
12.768,0.399,-0.528,0.0
11.941,0.37,-0.557,0.0
17.381,0.534,-0.325,0.0
16.034,0.488,-0.385,0.0
14.81,0.447,-0.435,0.0
13.786,0.412,-0.48,0.0
12.889,0.382,-0.517,0.0
12.169,0.357,-0.553,0.0
17.938,0.521,-0.314,0.0
16.407,0.472,-0.374,0.0
15.089,0.43,-0.425,0.0
13.959,0.394,-0.468,0.0
13.075,0.366,-0.509,0.0
12.364,0.343,-0.547,0.0
18.27,0.5,-0.297,0.0
16.654,0.452,-0.359,0.0
15.508,0.417,-0.417,0.0
14.138,0.376,-0.457,0.0
13.289,0.35,-0.5,0.0
12.531,0.327,-0.538,0.0
18.896,0.487,-0.283,0.0
16.911,0.432,-0.343,0.0
15.673,0.396,-0.401,0.0
14.526,0.363,-0.45,0.0
13.526,0.334,-0.491,0.0
12.692,0.31,-0.528,0.0
19.502,0.471,-0.266,0.0
17.322,0.414,-0.328,0.0
16.041,0.379,-0.389,0.0
14.702,0.343,-0.436,0.0
13.764,0.318,-0.481,0.0
12.878,0.294,-0.518,0.0
20.103,0.454,-0.247,0.0
17.833,0.398,-0.314,0.0
16.377,0.361,-0.375,0.0
15.061,0.328,-0.426,0.0
13.95,0.3,-0.468,0.0
13.137,0.279,-0.511,0.0
20.763,0.436,-0.227,0.0
18.329,0.38,-0.297,0.0
16.686,0.342,-0.359,0.0
15.528,0.314,-0.417,0.0
14.316,0.286,-0.46,0.0
13.303,0.262,-0.498,0.0
21.764,0.423,-0.207,0.0
18.857,0.362,-0.279,0.0
17.002,0.322,-0.341,0.0
15.722,0.294,-0.4,0.0
14.513,0.268,-0.446,0.0
13.57,0.247,-0.488,0.0
22.288,0.399,-0.179,0.0
19.824,0.35,-0.264,0.0
17.472,0.304,-0.325,0.0
16.146,0.277,-0.387,0.0
14.895,0.252,-0.435,0.0
13.852,0.231,-0.478,0.0
23.437,0.384,-0.154,0.0
20.314,0.328,-0.24,0.0
17.993,0.286,-0.308,0.0
16.521,0.259,-0.371,0.0
15.393,0.237,-0.427,0.0
14.043,0.213,-0.463,0.0
24.033,0.358,-0.122,0.0
21.44,0.315,-0.221,0.0
18.547,0.267,-0.289,0.0
16.847,0.239,-0.352,0.0
15.665,0.218,-0.41,0.0
14.388,0.197,-0.452,0.0
25.008,0.336,-0.088,0.0
21.936,0.29,-0.192,0.0
19.132,0.248,-0.268,0.0
17.211,0.219,-0.333,0.0
15.994,0.2,-0.394,0.0
14.763,0.181,-0.441,0.0
25.91,0.311,-0.05,0.0
23.147,0.273,-0.167,0.0
20.181,0.233,-0.251,0.0
17.802,0.201,-0.317,0.0
16.416,0.182,-0.378,0.0
15.088,0.163,-0.426,0.0
26.625,0.282,-0.009,0.0
23.776,0.247,-0.133,0.0
21.081,0.214,-0.228,1.0
18.38,0.182,-0.297,0.0
16.733,0.162,-0.358,0.0
15.586,0.147,-0.416,0.0
27.532,0.254,0.034,0.0
24.815,0.223,-0.098,0.0
22.082,0.194,-0.203,3.0
19.103,0.163,-0.277,0.0
17.179,0.143,-0.339,0.0
15.903,0.128,-0.397,0.0
28.759,0.226,0.083,2.0
25.639,0.196,-0.059,0.0
22.615,0.167,-0.17,0.0
19.954,0.143,-0.257,0.0
17.688,0.123,-0.32,0.0
16.351,0.11,-0.381,0.0
28.827,0.188,0.132,0.0
26.687,0.168,-0.017,0.0
23.694,0.144,-0.138,0.0
20.957,0.123,-0.234,1.0
18.369,0.104,-0.301,0.0
16.696,0.09,-0.361,0.0
31.416,0.164,0.197,0.0
27.724,0.139,0.029,0.0
24.775,0.118,-0.102,0.0
21.794,0.099,-0.206,3.0
19.115,0.083,-0.28,0.0
17.113,0.071,-0.34,0.0
0.0,0.0,0.0,0.0
28.703,0.107,0.08,2.0
25.726,0.09,-0.061,0.0
23.065,0.076,-0.177,0.0
19.923,0.062,-0.257,0.0
17.77,0.051,-0.322,0.0
34.136,0.092,0.333,0.0
28.827,0.071,0.131,0.0
26.715,0.061,-0.016,0.0
23.736,0.049,-0.14,1.0
21.034,0.039,-0.234,3.0
18.399,0.03,-0.3,0.0
35.991,0.053,0.416,0.0
30.773,0.039,0.196,0.0
27.906,0.029,0.032,0.0
24.917,0.022,-0.103,0.0
21.777,0.014,-0.203,1.0
19.21,0.009,-0.279,0.0
0.0,0.0,0.0,0.0
0.0,0.0,0.0,0.0
28.708,-0.002,0.085,1.0
25.846,-0.007,-0.06,0.0
23.238,-0.011,-0.175,0.0
20.181,-0.013,-0.256,0.0
39.814,-0.033,0.603,0.0
33.626,-0.035,0.335,0.0
28.857,-0.035,0.137,2.0
26.863,-0.037,-0.014,0.0
23.945,-0.038,-0.136,0.0
21.046,-0.037,-0.229,0.0
43.583,-0.086,0.741,0.0
36.288,-0.078,0.429,0.0
31.481,-0.073,0.208,0.0
28.233,-0.071,0.037,1.0
25.057,-0.067,-0.096,0.0
22.235,-0.064,-0.201,0.0
0.0,0.0,0.0,0.0
0.0,0.0,0.0,0.0
33.158,-0.113,0.281,1.0
28.781,-0.103,0.092,7.0
26.068,-0.098,-0.051,0.0
23.273,-0.091,-0.166,0.0
0.0,0.0,0.0,0.0
0.0,0.0,0.0,0.0
0.0,0.0,0.0,0.0
28.853,-0.133,0.146,1.0
27.028,-0.129,-0.002,0.0
24.149,-0.119,-0.127,0.0
0.0,0.0,0.0,0.0
0.0,0.0,0.0,0.0
37.156,-0.203,0.455,0.0
31.527,-0.177,0.219,1.0
28.633,-0.165,0.051,3.0
25.1,-0.149,-0.084,0.0
0.0,0.0,0.0,0.0
0.0,0.0,0.0,0.0
0.0,0.0,0.0,0.0
32.733,-0.216,0.29,0.0
28.784,-0.194,0.107,6.0
0.0,0.0,0.0,0.0
82.026,-0.58,2.168,1.0
0.0,0.0,0.0,0.0
41.501,-0.306,0.667,0.0
0.0,0.0,0.0,0.0
31.228,-0.24,0.176,0.0
27.567,-0.215,0.013,0.0
82.739,-0.662,2.347,3.0
0.0,0.0,0.0,0.0
278.802,-2.309,5.02,13.0
37.553,-0.316,0.479,0.0
32.261,-0.276,0.244,1.0
28.704,-0.25,0.069,5.0
90.155,-0.8,2.732,5.0
0.0,0.0,0.0,0.0
0.0,0.0,0.0,0.0
0.0,0.0,0.0,0.0
33.457,-0.315,0.318,0.0
28.818,-0.275,0.125,1.0
90.545,-0.88,2.921,21.0
83.79,-0.825,2.269,1.0
0.0,0.0,0.0,0.0
42.802,-0.433,0.713,0.0
0.0,0.0,0.0,0.0
31.495,-0.326,0.199,0.0
90.628,-0.955,3.102,40.0
84.207,-0.897,2.446,1.0
0.0,0.0,0.0,0.0
0.0,0.0,0.0,0.0
0.0,0.0,0.0,0.0
32.707,-0.364,0.271,2.0
90.647,-1.025,3.281,44.0
90.447,-1.034,2.807,13.0
0.0,0.0,0.0,0.0
0.0,0.0,0.0,0.0
0.0,0.0,0.0,0.0
34.058,-0.404,0.35,0.0
90.765,-1.093,3.465,5.0
90.819,-1.103,2.996,5.0
85.066,-1.042,2.368,3.0
0.0,0.0,0.0,0.0
0.0,0.0,0.0,0.0
0.0,0.0,0.0,0.0
0.0,0.0,0.0,0.0
0.0,0.0,0.0,0.0
89.794,-1.163,2.68,2.0
64.012,-0.835,1.573,0.0
0.0,0.0,0.0,0.0
0.0,0.0,0.0,0.0
193.615,-2.595,8.167,21.0
171.418,-2.314,6.344,14.0
96.516,-1.312,3.074,2.0
0.0,0.0,0.0,0.0
0.0,0.0,0.0,0.0
0.0,0.0,0.0,0.0
193.198,-2.712,8.538,19.0
171.824,-2.425,6.703,15.0
0.0,0.0,0.0,0.0
86.704,-1.239,2.479,1.0
0.0,0.0,0.0,0.0
47.725,-0.69,0.872,0.0
193.344,-2.827,8.932,6.0
0.0,0.0,0.0,0.0
171.494,-2.534,6.15,10.0
89.851,-1.335,2.749,3.0
0.0,0.0,0.0,0.0
0.0,0.0,0.0,0.0
193.939,-2.941,9.349,8.0
0.0,0.0,0.0,0.0
171.632,-2.627,6.501,15.0
96.829,-1.489,3.158,4.0
87.224,-1.348,2.395,1.0
0.0,0.0,0.0,0.0
191.468,-3.002,9.618,8.0
192.972,-3.038,8.697,9.0
168.389,-2.662,6.718,7.0
0.0,0.0,0.0,0.0
89.754,-1.43,2.645,1.0
0.0,0.0,0.0,0.0
191.454,-3.093,10.006,11.0
0.0,0.0,0.0,0.0
193.933,-3.154,8.13,9.0
0.0,0.0,0.0,0.0
96.856,-1.586,3.05,10.0
0.0,0.0,0.0,0.0
192.913,-3.2,10.471,10.0
191.367,-3.184,9.399,16.0
193.493,-3.228,8.503,9.0
171.62,-2.872,6.639,4.0
97.006,-1.628,3.251,16.0
87.966,-1.48,2.495,4.0
99.415,-1.688,5.597,20.0
191.428,-3.259,9.787,9.0
191.023,-3.26,8.779,6.0
171.561,-2.935,6.983,4.0
97.122,-1.665,3.45,5.0
89.728,-1.542,2.724,4.0
99.192,-1.719,5.784,28.0
191.871,-3.333,10.195,7.0
191.201,-3.328,9.171,10.0
193.799,-3.379,8.273,16.0
0.0,0.0,0.0,0.0
96.874,-1.695,3.135,20.0
98.863,-1.745,5.964,24.0
99.35,-1.756,5.478,2.0
190.364,-3.371,9.513,19.0
190.47,-3.376,8.512,6.0
0.0,0.0,0.0,0.0
96.971,-1.724,3.332,28.0
98.831,-1.771,6.159,8.0
99.291,-1.782,5.673,11.0
190.256,-3.418,9.886,14.0
190.49,-3.425,8.891,14.0
194.349,-3.498,8.067,6.0
97.025,-1.748,3.527,17.0
76.42,-1.388,4.916,6.0
99.139,-1.802,5.865,19.0
189.901,-3.454,10.25,8.0
190.536,-3.468,9.28,15.0
0.0,0.0,0.0,0.0
97.049,-1.768,3.723,10.0
76.251,-1.401,5.06,24.0
98.914,-1.817,6.05,23.0
132.04,-2.427,7.392,9.0
190.274,-3.498,9.648,21.0
190.147,-3.496,8.659,17.0
0.0,0.0,0.0,0.0
76.26,-1.413,5.214,29.0
98.765,-1.83,6.239,16.0
106.11,-1.966,6.153,8.0
190.101,-3.52,10.017,19.0
190.385,-3.525,9.047,19.0
194.108,-3.593,8.219,8.0
76.279,-1.423,5.366,36.0
76.218,-1.421,4.965,31.0
99.107,-1.846,5.942,16.0
132.148,-2.461,7.225,11.0
190.394,-3.542,9.423,21.0
190.245,-3.537,8.43,13.0
76.672,-1.437,5.545,27.0
76.309,-1.428,5.121,32.0
98.801,-1.847,6.117,22.0
131.875,-2.463,7.466,8.0
190.286,-3.551,9.785,19.0
190.253,-3.547,8.797,17.0
76.928,-1.445,5.712,17.0
76.236,-1.43,5.263,37.0
76.237,-1.428,4.867,14.0
106.019,-1.982,6.207,14.0
189.921,-3.547,10.135,17.0
190.371,-3.551,9.171,23.0
77.023,-1.447,5.87,13.0
76.475,-1.434,5.43,32.0
76.222,-1.427,5.015,36.0
99.002,-1.85,5.99,23.0
132.108,-2.464,7.306,12.0
190.404,-3.545,9.541,23.0
0.0,0.0,0.0,0.0
76.69,-1.435,5.595,24.0
76.305,-1.425,5.168,35.0
98.766,-1.84,6.165,23.0
106.11,-1.973,6.073,5.0
190.167,-3.528,9.897,20.0
66.153,-1.236,5.298,11.0
77.023,-1.435,5.767,12.0
76.192,-1.417,5.307,37.0
76.32,-1.415,4.909,24.0
99.18,-1.834,5.863,16.0
132.126,-2.437,7.125,5.0
74.603,-1.386,6.116,17.0
76.93,-1.425,5.905,18.0
76.324,-1.41,5.46,28.0
76.255,-1.404,5.049,26.0
98.928,-1.816,6.035,20.0
132.007,-2.416,7.364,7.0
74.652,-1.376,6.261,22.0
76.361,-1.403,6.005,12.0
76.563,-1.402,5.621,18.0
76.24,-1.391,5.19,33.0
98.78,-1.797,6.209,9.0
99.198,-1.798,5.719,14.0
65.964,-1.204,5.656,23.0
74.583,-1.356,6.004,9.0
76.641,-1.389,5.768,22.0
76.154,-1.374,5.325,36.0
88.129,-1.585,5.702,11.0
98.966,-1.773,5.888,29.0
65.87,-1.188,5.769,21.0
74.563,-1.339,6.14,13.0
76.707,-1.372,5.914,24.0
76.351,-1.36,5.48,20.0
76.241,-1.352,5.072,26.0
98.931,-1.747,6.066,13.0
65.739,-1.169,5.88,11.0
74.596,-1.321,6.28,22.0
76.955,-1.356,6.075,17.0
76.729,-1.345,5.648,32.0
76.298,-1.332,5.216,32.0
90.945,-1.58,5.743,6.0
67.452,-1.18,6.157,9.0
65.765,-1.144,5.657,32.0
66.167,-1.145,5.344,29.0
76.56,-1.318,5.775,28.0
76.256,-1.307,5.352,33.0
90.956,-1.55,5.907,37.0
64.243,-1.102,5.981,26.0
0.0,0.0,0.0,0.0
66.191,-1.123,5.465,10.0
76.614,-1.293,5.915,26.0
76.36,-1.281,5.495,29.0
76.305,-1.273,5.09,23.0
64.219,-1.079,6.092,26.0
63.969,-1.068,5.731,24.0
65.525,-1.087,5.527,21.0
66.165,-1.091,5.225,19.0
76.535,-1.254,5.641,30.0
76.328,-1.243,5.226,32.0
64.231,-1.054,6.207,28.0
64.056,-1.044,5.852,28.0
65.517,-1.06,5.639,28.0
66.148,-1.063,5.338,27.0
76.564,-1.223,5.776,25.0
76.351,-1.211,5.358,31.0
64.228,-1.026,6.317,30.0
64.185,-1.018,5.974,21.0
0.0,0.0,0.0,0.0
66.053,-1.032,5.444,36.0
76.544,-1.187,5.905,32.0
76.445,-1.177,5.495,27.0
64.343,-0.997,6.439,27.0
64.112,-0.986,6.076,32.0
63.844,-0.975,5.712,23.0
65.633,-0.994,5.519,39.0
76.611,-1.151,6.038,25.0
76.558,-1.141,5.631,19.0
64.502,-0.967,6.564,28.0
64.037,-0.953,6.177,30.0
64.013,-0.944,5.835,30.0
65.951,-0.964,5.656,25.0
76.69,-1.112,6.171,9.0
76.611,-1.101,5.761,19.0
64.653,-0.935,6.686,23.0
64.031,-0.918,6.281,19.0
65.918,-0.928,5.76,24.0
66.367,-0.926,5.448,19.0
76.701,-1.06,5.891,26.0
64.66,-0.899,6.791,20.0
64.268,-0.884,6.409,39.0
64.081,-0.874,6.049,15.0
63.906,-0.863,5.686,18.0
66.365,-0.886,5.553,30.0
76.722,-1.015,6.014,21.0
0.0,0.0,0.0,0.0
64.799,-0.853,6.564,31.0
58.281,-0.759,5.593,28.0
63.939,-0.823,5.79,7.0
66.338,-0.845,5.656,33.0
76.756,-0.968,6.137,12.0
57.392,-0.727,6.21,28.0
64.609,-0.81,6.646,11.0
58.365,-0.723,5.692,12.0
65.928,-0.807,6.072,25.0
66.543,-0.805,5.775,30.0
66.45,-0.794,5.414,18.0
57.45,-0.69,6.305,25.0
0.0,0.0,0.0,0.0
64.142,-0.751,6.353,6.0
58.456,-0.676,5.472,20.0
66.575,-0.76,5.877,24.0
73.775,-0.831,6.12,23.0
0.0,0.0,0.0,0.0
57.466,-0.643,6.085,27.0
64.506,-0.711,6.484,14.0
58.373,-0.635,5.55,26.0
67.052,-0.719,6.017,14.0
73.822,-0.78,6.231,14.0
59.991,-0.637,6.761,24.0
57.429,-0.601,6.164,31.0
58.763,-0.605,5.992,14.0
58.514,-0.594,5.647,29.0
67.696,-0.676,6.172,36.0
66.821,-0.656,5.735,11.0
60.043,-0.593,6.853,18.0
57.419,-0.558,6.245,30.0
58.421,-0.558,6.04,32.0
66.991,-0.629,6.561,16.0
67.667,-0.624,6.264,8.0
64.719,-0.587,5.645,14.0
63.625,-0.579,7.352,14.0
57.461,-0.513,6.33,21.0
57.469,-0.504,6.022,28.0
67.218,-0.579,6.675,41.0
57.004,-0.481,5.355,22.0
64.767,-0.535,5.738,22.0
63.672,-0.528,7.445,20.0
59.972,-0.488,6.688,24.0
57.391,-0.457,6.091,35.0
56.705,-0.441,5.707,9.0
57.082,-0.435,5.439,13.0
64.779,-0.483,5.825,13.0
58.752,-0.439,6.948,19.0
59.966,-0.438,6.767,24.0
57.436,-0.41,6.171,31.0
56.768,-0.395,5.787,24.0
58.711,-0.399,5.669,12.0
57.115,-0.378,5.208,26.0
58.7,-0.39,7.018,30.0
59.808,-0.386,6.826,34.0
57.437,-0.36,6.245,29.0
57.552,-0.351,5.941,32.0
56.669,-0.336,5.544,22.0
57.119,-0.328,5.28,32.0
58.19,-0.335,7.03,33.0
59.695,-0.333,6.887,26.0
57.493,-0.311,6.321,21.0
57.475,-0.3,6.003,31.0
56.712,-0.285,5.617,30.0
57.18,-0.278,5.355,18.0
57.446,-0.28,7.01,27.0
59.739,-0.28,6.965,28.0
57.57,-0.259,6.399,22.0
57.448,-0.248,6.068,31.0
56.811,-0.235,5.694,28.0
0.0,0.0,0.0,0.0
57.409,-0.227,7.073,29.0
59.773,-0.225,7.038,15.0
56.891,-0.204,6.389,17.0
57.525,-0.195,6.142,24.0
56.877,-0.183,5.765,30.0
58.928,-0.179,5.653,7.0
57.3,-0.173,7.125,29.0
58.034,-0.164,6.899,14.0
56.552,-0.149,6.414,22.0
57.551,-0.142,6.208,29.0
57.043,-0.129,5.844,30.0
56.871,-0.118,5.518,27.0
57.713,-0.118,7.239,33.0
57.431,-0.107,6.89,28.0
56.569,-0.095,6.477,21.0
57.595,-0.085,6.275,30.0
57.028,-0.074,5.904,23.0
56.975,-0.063,5.589,29.0
48.859,-0.052,6.181,14.0
57.371,-0.05,6.943,31.0
59.785,-0.041,6.908,11.0
56.808,-0.028,6.249,27.0
57.155,-0.017,5.975,30.0
56.939,-0.007,5.643,26.0
58.764,-0.004,7.493,10.0
57.735,0.006,7.045,32.0
57.415,0.017,6.692,17.0
56.529,0.028,6.273,30.0
57.279,0.039,6.044,30.0
56.933,0.049,5.697,20.0
62.839,0.058,8.075,19.0
57.881,0.066,7.119,33.0
56.519,0.086,6.326,23.0
57.551,0.098,6.127,29.0
57.224,0.109,5.78,28.0
62.937,0.124,8.147,23.0
49.013,0.106,6.074,23.0
57.515,0.135,6.811,26.0
56.626,0.144,6.39,26.0
57.109,0.156,6.131,31.0
57.182,0.168,5.826,31.0
62.883,0.19,8.196,16.0
58.332,0.187,7.281,8.0
57.619,0.196,6.874,21.0
56.776,0.205,6.455,31.0
56.838,0.216,6.151,30.0
57.204,0.228,5.877,27.0
48.423,0.198,6.352,12.0
49.07,0.21,6.166,14.0
59.896,0.268,7.195,15.0
57.019,0.266,6.53,31.0
56.954,0.277,6.209,30.0
57.319,0.29,5.934,21.0
48.459,0.249,6.396,31.0
49.064,0.262,6.204,13.0
59.452,0.33,7.189,34.0
57.217,0.329,6.597,32.0
56.9,0.338,6.247,30.0
57.402,0.352,5.987,21.0
48.548,0.303,6.445,22.0
51.484,0.332,6.549,6.0
0.0,0.0,0.0,0.0
57.622,0.394,6.686,17.0
56.82,0.4,6.28,19.0
57.398,0.416,6.028,25.0
48.582,0.357,6.485,32.0
51.516,0.389,6.59,9.0
58.625,0.455,7.174,32.0
57.676,0.459,6.732,5.0
52.325,0.426,5.819,15.0
57.504,0.48,6.078,13.0
48.631,0.412,6.524,23.0
48.611,0.422,6.251,22.0
58.631,0.521,7.213,27.0
57.8,0.525,6.784,7.0
52.382,0.485,5.858,21.0
57.569,0.545,6.121,13.0
49.549,0.476,6.679,24.0
48.708,0.478,6.293,22.0
48.338,0.484,5.977,19.0
60.423,0.617,7.129,35.0
52.468,0.546,5.899,35.0
57.608,0.611,6.159,11.0
49.36,0.531,6.682,20.0
48.922,0.535,6.349,23.0
48.336,0.539,6.004,18.0
60.286,0.683,7.146,14.0
52.436,0.605,5.925,24.0
57.449,0.674,6.173,31.0
49.359,0.587,6.708,14.0
0.0,0.0,0.0,0.0
48.544,0.597,6.055,22.0
52.658,0.657,6.269,9.0
52.56,0.667,5.965,5.0
57.297,0.738,6.185,31.0
48.707,0.636,6.644,25.0
47.454,0.628,6.207,17.0
48.468,0.652,6.068,22.0
49.155,0.67,5.875,16.0
48.875,0.676,5.569,22.0
50.25,0.705,5.447,11.0
48.443,0.689,6.63,23.0
47.338,0.682,6.213,17.0
48.736,0.712,6.123,22.0
48.89,0.723,5.864,23.0
48.675,0.73,5.567,11.0
50.031,0.759,5.443,20.0
48.598,0.747,6.67,24.0
47.38,0.737,6.237,22.0
49.054,0.773,6.181,23.0
48.881,0.779,5.881,32.0
48.661,0.785,5.583,11.0
50.105,0.818,5.469,23.0
48.787,0.807,6.713,23.0
47.439,0.793,6.261,28.0
49.131,0.831,6.208,23.0
48.883,0.836,5.897,40.0
0.0,0.0,0.0,0.0
50.218,0.878,5.497,25.0
51.677,0.915,7.127,28.0
47.462,0.849,6.278,21.0
49.061,0.887,6.213,23.0
48.793,0.891,5.9,34.0
50.244,0.928,5.794,25.0
