X,Y,Z,Reflectivity
10.551,0.021,-0.612,0.0
9.997,0.019,-0.632,0.0
13.653,0.026,-0.48,0.0
12.853,0.023,-0.519,0.0
12.014,0.02,-0.547,0.0
11.328,0.018,-0.576,0.0
10.825,0.016,-0.607,0.0
10.245,0.014,-0.627,0.0
13.953,0.02,-0.463,0.0
13.105,0.017,-0.503,0.0
12.415,0.015,-0.541,0.0
11.612,0.013,-0.567,0.0
10.989,0.011,-0.594,0.0
10.395,0.009,-0.616,0.0
14.393,0.014,-0.449,0.0
13.438,0.011,-0.489,0.0
12.614,0.01,-0.525,0.0
11.907,0.008,-0.558,0.0
11.257,0.007,-0.586,0.0
10.662,0.005,-0.61,0.0
14.921,0.008,-0.436,0.0
13.801,0.006,-0.475,0.0
12.922,0.005,-0.511,0.0
12.231,0.003,-0.549,0.0
11.503,0.002,-0.575,0.0
10.92,0.001,-0.603,0.0
15.375,0.002,-0.418,0.0
14.179,0.001,-0.459,0.0
13.232,0.0,-0.497,0.0
12.454,0.0,-0.533,0.0
11.813,-0.001,-0.567,0.0
11.123,-0.002,-0.592,0.0
15.804,-0.002,-0.398,0.0
14.507,-0.003,-0.44,0.0
13.675,-0.004,-0.486,0.0
12.758,-0.004,-0.52,0.0
12.054,-0.005,-0.554,0.0
11.316,-0.005,-0.579,0.0
16.333,-0.007,-0.378,0.0
15.011,-0.008,-0.425,0.0
13.993,-0.008,-0.468,0.0
12.986,-0.008,-0.503,0.0
12.404,-0.009,-0.545,0.0
11.653,-0.009,-0.572,0.0
16.738,-0.012,-0.353,0.0
15.563,-0.012,-0.409,0.0
14.321,-0.012,-0.45,0.0
13.434,-0.012,-0.493,0.0
12.543,-0.012,-0.525,0.0
11.922,-0.012,-0.56,0.0
17.332,-0.017,-0.33,0.0
16.106,-0.016,-0.39,0.0
14.806,-0.016,-0.434,0.0
13.794,-0.015,-0.477,0.0
12.955,-0.015,-0.515,0.0
12.224,-0.015,-0.549,0.0
18.101,-0.021,-0.306,0.0
16.574,-0.02,-0.366,0.0
15.373,-0.019,-0.418,0.0
14.163,-0.018,-0.46,0.0
13.335,-0.018,-0.502,0.0
12.472,-0.017,-0.534,0.0
18.842,-0.025,-0.279,0.0
17.09,-0.024,-0.341,0.0
15.878,-0.022,-0.399,0.0
14.576,-0.021,-0.443,0.0
13.695,-0.02,-0.486,0.0
12.771,-0.019,-0.52,0.0
20.121,-0.03,-0.256,0.0
17.804,-0.027,-0.318,0.0
16.412,-0.025,-0.378,0.0
15.042,-0.023,-0.425,0.0
14.045,-0.022,-0.469,0.0
13.133,-0.021,-0.506,0.0
21.164,-0.033,-0.224,0.0
18.437,-0.029,-0.29,0.0
16.851,-0.027,-0.352,0.0
15.642,-0.025,-0.409,0.0
14.388,-0.024,-0.45,0.0
13.508,-0.022,-0.492,0.0
22.332,-0.036,-0.189,0.0
19.714,-0.032,-0.268,0.0
17.508,-0.029,-0.328,0.0
16.133,-0.027,-0.387,0.0
14.832,-0.025,-0.432,0.0
13.874,-0.023,-0.476,0.0
23.583,-0.039,-0.149,0.0
20.855,-0.034,-0.239,0.0
18.285,-0.03,-0.304,0.0
16.665,-0.028,-0.364,0.0
15.502,-0.026,-0.418,0.0
14.265,-0.024,-0.458,0.0
24.827,-0.04,-0.104,0.0
21.875,-0.036,-0.204,0.0
19.214,-0.031,-0.278,0.0
17.205,-0.028,-0.339,0.0
16.0,-0.026,-0.397,0.0
14.75,-0.024,-0.442,0.0
25.836,-0.041,-0.052,0.0
23.23,-0.036,-0.166,0.0
20.301,-0.032,-0.25,0.0
17.976,-0.028,-0.316,0.0
16.548,-0.025,-0.376,0.0
15.291,-0.023,-0.426,0.0
27.163,-0.04,0.002,0.0
24.147,-0.035,-0.122,0.0
21.396,-0.031,-0.218,1.0
18.541,-0.026,-0.286,0.0
17.027,-0.024,-0.35,0.0
15.822,-0.022,-0.407,0.0
28.675,-0.039,0.063,4.0
25.533,-0.034,-0.074,0.0
22.791,-0.03,-0.184,0.0
19.92,-0.025,-0.265,0.0
17.744,-0.022,-0.328,0.0
16.266,-0.02,-0.384,0.0
28.816,-0.034,0.124,2.0
26.577,-0.031,-0.021,0.0
23.829,-0.027,-0.141,0.0
21.075,-0.023,-0.236,1.0
18.418,-0.019,-0.301,0.0
16.783,-0.017,-0.36,0.0
31.304,-0.031,0.201,0.0
28.17,-0.026,0.036,1.0
25.111,-0.023,-0.096,0.0
21.949,-0.019,-0.199,0.0
19.432,-0.016,-0.276,0.0
17.387,-0.014,-0.337,0.0
33.22,-0.024,0.284,0.0
28.773,-0.02,0.098,1.0
26.104,-0.017,-0.045,0.0
23.475,-0.014,-0.163,1.0
20.835,-0.011,-0.252,0.0
18.197,-0.009,-0.314,0.0
0.0,0.0,0.0,0.0
30.418,-0.012,0.168,0.0
27.481,-0.01,0.011,0.0
24.595,-0.007,-0.119,0.0
21.503,-0.005,-0.214,2.0
18.864,-0.003,-0.285,0.0
37.161,-0.005,0.476,0.0
33.054,-0.003,0.253,0.0
28.621,-0.001,0.072,1.0
25.738,0.0,-0.069,0.0
22.975,0.001,-0.18,0.0
20.113,0.002,-0.261,0.0
40.181,0.008,0.6,0.0
0.0,0.0,0.0,0.0
30.326,0.01,0.14,0.0
26.855,0.01,-0.016,0.0
23.876,0.011,-0.137,0.0
21.204,0.011,-0.231,3.0
0.0,0.0,0.0,0.0
36.49,0.024,0.434,0.0
0.0,0.0,0.0,0.0
28.317,0.023,0.042,1.0
25.339,0.022,-0.092,0.0
22.305,0.021,-0.195,0.0
0.0,0.0,0.0,0.0
39.659,0.043,0.555,0.0
33.303,0.039,0.295,0.0
28.81,0.036,0.104,0.0
26.35,0.035,-0.04,0.0
23.645,0.033,-0.158,1.0
0.0,0.0,0.0,0.0
0.0,0.0,0.0,0.0
0.0,0.0,0.0,0.0
30.549,0.053,0.174,0.0
27.671,0.05,0.015,0.0
24.769,0.047,-0.114,0.0
0.0,0.0,0.0,0.0
0.0,0.0,0.0,0.0
0.0,0.0,0.0,0.0
0.0,0.0,0.0,0.0
28.738,0.068,0.075,4.0
25.84,0.063,-0.065,0.0
76.144,0.193,1.936,6.0
0.0,0.0,0.0,0.0
41.89,0.114,0.632,0.0
34.039,0.096,0.334,0.0
30.134,0.088,0.14,0.0
26.964,0.081,-0.013,0.0
76.265,0.237,2.097,3.0
0.0,0.0,0.0,0.0
0.0,0.0,0.0,0.0
36.839,0.126,0.437,0.0
31.764,0.112,0.213,0.0
28.556,0.103,0.044,1.0
82.897,0.308,2.448,3.0
0.0,0.0,0.0,0.0
0.0,0.0,0.0,0.0
0.0,0.0,0.0,0.0
33.786,0.14,0.296,0.0
28.816,0.123,0.103,0.0
78.094,0.34,2.465,21.0
75.389,0.336,1.988,3.0
0.0,0.0,0.0,0.0
41.893,0.197,0.667,0.0
36.293,0.175,0.39,0.0
0.0,0.0,0.0,0.0
78.195,0.393,2.625,8.0
76.448,0.393,2.169,6.0
48.468,0.255,1.124,0.0
0.0,0.0,0.0,0.0
37.217,0.205,0.474,0.0
32.404,0.183,0.245,0.0
0.0,0.0,0.0,0.0
78.128,0.457,2.372,9.0
74.433,0.446,1.875,1.0
0.0,0.0,0.0,0.0
40.712,0.254,0.6,0.0
34.142,0.218,0.326,0.0
79.362,0.514,2.98,5.0
78.143,0.516,2.527,25.0
75.555,0.509,2.052,5.0
0.0,0.0,0.0,0.0
43.549,0.305,0.726,0.0
36.594,0.262,0.421,0.0
79.319,0.575,3.133,3.0
78.06,0.577,2.679,16.0
78.178,0.589,2.277,3.0
0.0,0.0,0.0,0.0
0.0,0.0,0.0,0.0
39.635,0.316,0.533,0.0
79.359,0.64,3.291,7.0
78.042,0.641,2.831,22.0
78.146,0.653,2.428,12.0
74.748,0.636,1.926,2.0
0.0,0.0,0.0,0.0
0.0,0.0,0.0,0.0
79.357,0.707,3.444,9.0
79.391,0.719,3.032,9.0
78.092,0.719,2.575,1.0
57.927,0.543,1.604,2.0
57.609,0.549,1.296,0.0
0.0,0.0,0.0,0.0
79.37,0.777,3.596,7.0
108.337,1.077,4.344,9.0
0.0,0.0,0.0,0.0
57.447,0.589,1.699,1.0
57.496,0.599,1.402,0.0
0.0,0.0,0.0,0.0
92.073,0.985,4.348,14.0
108.974,1.184,4.578,11.0
0.0,0.0,0.0,0.0
57.099,0.639,1.797,0.0
57.068,0.648,1.499,1.0
57.499,0.662,1.21,0.0
91.91,1.07,4.511,11.0
109.053,1.287,4.783,18.0
108.09,1.294,4.175,7.0
56.564,0.687,1.884,0.0
56.535,0.696,1.587,0.0
57.491,0.717,1.315,1.0
89.225,1.124,4.542,12.0
92.29,1.178,4.215,7.0
108.77,1.407,4.399,10.0
56.379,0.739,1.98,1.0
56.138,0.746,1.678,1.0
56.282,0.758,1.389,0.0
76.595,1.041,4.038,20.0
76.642,1.055,3.638,18.0
76.648,1.069,3.238,8.0
0.0,0.0,0.0,0.0
55.817,0.799,1.769,0.0
55.789,0.808,1.476,0.0
76.555,1.119,4.173,31.0
76.554,1.132,3.771,30.0
76.559,1.147,3.37,35.0
0.0,0.0,0.0,0.0
55.565,0.853,1.859,0.0
55.453,0.862,1.564,0.0
76.566,1.2,4.31,25.0
76.532,1.214,3.906,31.0
76.549,1.229,3.504,41.0
0.0,0.0,0.0,0.0
55.397,0.91,1.95,0.0
55.152,0.917,1.652,1.0
76.645,1.284,4.447,11.0
76.644,1.299,4.045,11.0
76.583,1.313,3.639,15.0
0.0,0.0,0.0,0.0
0.0,0.0,0.0,0.0
55.063,0.976,1.743,1.0
84.172,1.505,5.03,21.0
85.434,1.544,4.655,14.0
91.101,1.664,4.484,17.0
0.0,0.0,0.0,0.0
0.0,0.0,0.0,0.0
0.0,0.0,0.0,0.0
83.96,1.597,5.159,21.0
84.313,1.62,4.736,19.0
85.4,1.658,4.347,11.0
89.039,1.746,4.053,8.0
0.0,0.0,0.0,0.0
0.0,0.0,0.0,0.0
83.728,1.69,5.283,20.0
84.248,1.717,4.87,17.0
83.603,1.721,4.392,10.0
88.541,1.84,4.174,30.0
0.0,0.0,0.0,0.0
0.0,0.0,0.0,0.0
82.945,1.773,5.369,26.0
84.063,1.814,4.996,22.0
82.959,1.807,4.492,18.0
88.77,1.952,4.328,22.0
56.097,1.245,2.439,0.0
0.0,0.0,0.0,0.0
82.512,1.863,5.472,32.0
82.348,1.877,5.025,34.0
82.723,1.902,4.609,32.0
85.616,1.987,4.308,7.0
85.546,2.003,3.853,3.0
0.0,0.0,0.0,0.0
82.418,1.964,5.595,33.0
82.232,1.976,5.145,29.0
82.382,1.997,4.718,33.0
83.725,2.048,4.343,27.0
85.534,2.11,3.983,10.0
0.0,0.0,0.0,0.0
82.445,2.068,5.724,32.0
82.039,2.076,5.26,28.0
81.961,2.091,4.818,32.0
82.601,2.126,4.41,34.0
83.024,2.155,3.992,12.0
0.0,0.0,0.0,0.0
82.357,2.172,5.841,19.0
82.099,2.182,5.385,29.0
81.67,2.189,4.923,37.0
81.953,2.214,4.495,35.0
83.373,2.271,4.13,16.0
0.0,0.0,0.0,0.0
74.263,2.054,5.374,23.0
82.204,2.292,5.511,30.0
81.55,2.291,5.031,31.0
81.8,2.316,4.603,37.0
82.391,2.351,4.198,10.0
83.938,2.415,3.831,9.0
74.514,2.159,5.498,36.0
82.184,2.4,5.626,37.0
81.815,2.408,5.164,32.0
81.631,2.42,4.708,36.0
82.233,2.456,4.304,11.0
81.329,2.447,3.824,7.0
66.073,2.003,4.968,35.0
82.211,2.511,5.741,22.0
82.065,2.524,5.291,29.0
81.446,2.524,4.808,41.0
81.877,2.555,4.396,28.0
81.436,2.559,3.938,31.0
65.087,2.061,4.98,7.0
66.121,2.108,4.705,51.0
66.068,2.121,4.347,16.0
81.597,2.638,4.924,36.0
81.93,2.668,4.506,32.0
81.562,2.674,4.049,29.0
76.016,2.511,5.916,8.0
81.38,2.707,5.897,14.0
66.128,2.214,4.437,32.0
81.774,2.757,5.04,35.0
81.898,2.779,4.609,36.0
81.718,2.792,4.162,16.0
76.074,2.619,6.018,18.0
77.398,2.682,5.707,23.0
81.743,2.851,5.588,18.0
65.822,2.31,4.139,17.0
82.014,2.898,4.717,42.0
81.379,2.894,4.245,46.0
56.205,2.013,4.516,23.0
65.218,2.351,4.888,23.0
81.573,2.959,5.675,21.0
65.792,2.402,4.217,25.0
81.561,2.997,4.789,24.0
81.33,3.008,4.34,36.0
56.103,2.09,4.576,19.0
65.404,2.451,4.981,8.0
65.313,2.462,4.621,52.0
65.369,2.48,4.267,23.0
65.481,2.499,3.922,26.0
81.314,3.123,4.432,22.0
56.35,2.18,4.661,32.0
75.677,2.945,5.851,15.0
77.507,3.034,5.574,12.0
65.362,2.574,4.342,23.0
65.424,2.592,3.992,26.0
65.543,2.612,3.647,41.0
56.567,2.27,4.743,26.0
66.497,2.684,5.215,42.0
81.16,3.295,5.926,14.0
77.966,3.183,5.264,23.0
65.458,2.687,4.066,20.0
65.479,2.704,3.714,29.0
55.095,2.291,4.679,13.0
76.238,3.189,6.062,7.0
66.383,2.791,4.918,10.0
66.085,2.794,4.531,19.0
65.488,2.783,4.135,10.0
65.468,2.797,3.78,29.0
49.193,2.117,4.229,10.0
58.238,2.52,4.69,7.0
66.188,2.879,4.97,23.0
66.061,2.889,4.596,38.0
65.635,2.886,4.211,38.0
65.508,2.896,3.848,21.0
49.265,2.193,4.284,18.0
58.205,2.605,4.745,29.0
65.892,2.964,5.013,22.0
65.915,2.98,4.65,38.0
65.555,2.979,4.269,40.0
81.635,3.729,4.873,18.0
49.271,2.267,4.332,22.0
58.213,2.692,4.801,31.0
0.0,0.0,0.0,0.0
80.375,3.753,5.745,15.0
65.274,3.062,4.311,9.0
81.442,3.841,4.936,37.0
49.31,2.342,4.381,33.0
57.983,2.767,4.834,45.0
58.149,2.788,4.531,26.0
80.364,3.872,5.816,25.0
65.075,3.151,4.355,32.0
81.482,3.964,5.01,34.0
49.393,2.42,4.432,35.0
58.392,2.874,4.919,19.0
58.136,2.875,4.58,18.0
64.639,3.211,4.733,10.0
81.076,4.046,5.494,17.0
81.602,4.092,5.085,19.0
49.571,2.504,4.489,17.0
63.341,3.214,5.389,14.0
58.299,2.971,4.64,14.0
64.343,3.294,4.763,20.0
80.67,4.148,5.532,39.0
67.788,3.502,4.279,12.0
49.604,2.58,4.531,19.0
58.534,3.058,5.026,18.0
58.425,3.065,4.696,11.0
64.927,3.421,4.856,13.0
80.627,4.267,5.589,31.0
80.546,4.281,5.144,12.0
49.517,2.65,4.56,22.0
49.046,2.636,4.247,21.0
58.536,3.159,4.748,39.0
58.29,3.159,4.401,50.0
80.617,4.388,5.646,33.0
80.544,4.403,5.2,30.0
49.593,2.73,4.602,14.0
49.25,2.721,4.299,25.0
58.538,3.248,4.788,34.0
58.3,3.247,4.442,26.0
58.43,3.267,4.131,20.0
80.467,4.519,5.248,31.0
57.263,3.238,5.352,11.0
49.324,2.8,4.338,26.0
80.223,4.572,6.613,14.0
58.363,3.339,4.484,23.0
58.312,3.349,4.16,23.0
58.494,3.374,3.851,44.0
57.49,3.339,5.409,27.0
49.356,2.877,4.371,4.0
80.632,4.717,6.695,27.0
58.413,3.43,4.522,6.0
58.287,3.436,4.192,31.0
58.429,3.457,3.88,37.0
57.719,3.438,5.464,45.0
57.781,3.454,5.15,38.0
58.048,3.483,4.852,15.0
67.651,4.074,5.275,14.0
58.258,3.521,4.221,40.0
58.41,3.543,3.911,50.0
63.036,3.851,6.0,17.0
57.651,3.533,5.168,12.0
58.042,3.57,4.882,32.0
58.17,3.591,4.565,59.0
58.231,3.607,4.248,50.0
58.447,3.634,3.942,25.0
52.107,3.262,4.986,13.0
52.253,3.282,4.709,15.0
58.086,3.66,4.913,28.0
58.088,3.672,4.585,17.0
58.266,3.695,4.277,28.0
80.71,5.136,5.479,20.0
52.082,3.337,5.006,13.0
54.977,3.534,4.979,10.0
57.979,3.739,4.929,11.0
58.159,3.763,4.615,30.0
58.389,3.79,4.31,21.0
80.879,5.267,5.523,27.0
54.921,3.601,5.301,12.0
61.061,4.017,5.553,9.0
57.854,3.817,4.94,6.0
58.076,3.843,4.631,28.0
61.369,4.075,4.552,6.0
80.778,5.381,5.545,12.0
54.906,3.682,5.319,13.0
60.929,4.098,5.563,16.0
80.877,5.456,6.933,13.0
58.334,3.947,4.671,33.0
61.468,4.172,4.58,22.0
61.351,4.177,4.231,17.0
48.074,3.294,4.672,14.0
60.852,4.182,5.574,8.0
80.907,5.577,6.96,18.0
58.526,4.046,4.703,32.0
61.493,4.263,4.599,18.0
60.615,4.214,4.197,28.0
48.085,3.366,4.686,8.0
51.942,3.646,4.771,12.0
58.765,4.136,5.07,20.0
58.471,4.127,4.713,13.0
61.345,4.343,4.603,23.0
60.867,4.322,4.228,33.0
64.228,4.591,6.274,15.0
59.248,4.247,5.456,16.0
58.771,4.224,5.083,34.0
58.108,4.187,4.695,19.0
61.29,4.428,4.61,27.0
60.647,4.394,4.224,25.0
59.62,4.348,5.835,14.0
58.812,4.3,5.426,26.0
51.902,3.804,4.498,10.0
58.075,4.268,4.701,32.0
61.008,4.495,4.598,33.0
60.595,4.477,4.23,28.0
59.608,4.433,5.842,12.0
49.54,3.693,4.577,16.0
51.9,3.879,4.504,22.0
61.584,4.614,4.993,15.0
60.917,4.576,4.598,31.0
60.599,4.564,4.236,26.0
51.819,3.927,5.084,13.0
49.487,3.76,4.577,15.0
51.888,3.951,4.507,33.0
61.441,4.69,4.986,27.0
60.649,4.641,4.582,34.0
60.362,4.631,4.223,26.0
51.789,3.999,5.083,8.0
51.863,4.013,4.799,9.0
51.861,4.022,4.507,19.0
60.894,4.734,4.943,31.0
60.52,4.716,4.574,34.0
59.616,4.657,4.172,27.0
43.172,3.393,4.238,18.0
42.874,3.377,3.967,17.0
51.907,4.098,4.51,15.0
60.558,4.792,4.916,25.0
59.861,4.747,4.523,29.0
59.261,4.711,4.145,25.0
43.092,3.447,4.229,24.0
42.861,3.436,3.964,22.0
60.351,4.848,5.241,27.0
51.962,4.183,4.215,33.0
60.111,4.849,4.539,33.0
59.37,4.8,4.15,26.0
42.97,3.496,4.213,33.0
48.995,3.994,4.527,23.0
59.716,4.878,5.181,34.0
51.916,4.25,4.206,36.0
51.981,4.264,3.919,13.0
59.439,4.886,4.148,8.0
42.974,3.554,4.209,31.0
51.537,4.27,4.756,5.0
59.495,4.939,5.154,30.0
51.873,4.315,4.196,18.0
51.881,4.325,3.904,47.0
51.896,4.335,3.613,21.0
42.928,3.608,4.197,32.0
51.542,4.339,4.748,6.0
59.543,5.022,5.148,33.0
51.778,4.375,4.179,25.0
51.847,4.389,3.892,41.0
51.858,4.399,3.601,21.0
42.825,3.655,4.179,32.0
51.468,4.4,4.731,25.0
59.436,5.09,5.126,29.0
51.764,4.441,4.166,44.0
51.805,4.453,3.877,46.0
51.86,4.466,3.589,39.0
42.807,3.708,4.167,29.0
51.415,4.461,4.713,25.0
51.645,4.489,4.441,47.0
51.784,4.508,4.155,7.0
51.824,4.52,3.865,31.0
51.876,4.532,3.577,19.0
42.825,3.763,4.157,39.0
51.457,4.529,4.702,25.0
59.203,5.219,5.074,22.0
43.098,3.805,3.445,23.0
51.873,4.588,3.854,20.0
51.929,4.6,3.564,23.0
42.816,3.815,4.142,35.0
51.532,4.599,4.692,15.0
59.167,5.288,5.051,16.0
43.012,3.85,3.424,17.0
51.92,4.655,3.839,14.0
51.963,4.666,3.548,4.0
42.905,3.875,4.135,28.0
51.523,4.66,4.673,8.0
43.413,3.932,3.69,18.0
43.091,3.909,3.414,30.0
59.651,5.419,4.388,31.0
58.702,5.341,3.987,32.0
42.922,3.927,4.12,3.0
43.612,3.996,3.938,21.0
43.309,3.973,3.664,17.0
43.042,3.955,3.393,17.0
59.437,5.47,4.347,28.0
58.968,5.434,3.979,27.0
43.635,4.043,4.17,13.0
43.516,4.038,3.91,15.0
43.339,4.027,3.647,14.0
52.062,4.844,4.08,20.0
59.133,5.509,4.298,33.0
58.961,5.501,3.952,33.0
43.518,4.082,4.138,32.0
59.564,5.594,5.323,14.0
59.304,5.577,4.962,28.0
52.44,4.938,4.084,9.0
58.818,5.546,4.246,31.0
58.806,5.553,3.912,33.0
43.519,4.131,4.115,27.0
51.942,4.936,4.615,14.0
51.917,4.939,4.317,19.0
59.143,5.633,4.575,23.0
58.58,5.587,4.198,31.0
58.777,5.613,3.878,33.0
43.651,4.19,4.104,28.0
52.196,5.016,4.609,26.0
51.784,4.982,4.277,24.0
59.002,5.683,4.531,33.0
58.547,5.645,4.163,29.0
58.638,5.662,3.836,28.0
43.42,4.213,4.057,30.0
51.875,5.038,4.551,10.0
51.799,5.037,4.248,31.0
58.847,5.728,4.484,31.0
58.397,5.691,4.117,27.0
58.345,5.693,3.781,25.0
43.41,4.256,4.029,29.0
43.52,4.271,3.79,36.0
51.816,5.09,4.217,22.0
59.106,5.813,4.466,30.0
58.265,5.736,4.071,31.0
58.343,5.75,3.744,25.0
43.402,4.298,4.0,31.0
43.522,4.314,3.762,30.0
59.294,5.883,4.786,14.0
58.986,5.858,4.418,24.0
58.386,5.804,4.04,32.0
58.242,5.796,3.698,30.0
43.222,4.322,3.954,36.0
51.889,5.193,4.449,15.0
59.255,5.935,4.741,20.0
59.004,5.915,4.378,17.0
58.21,5.842,3.987,28.0
58.065,5.832,3.646,31.0
43.224,4.362,3.923,30.0
51.799,5.231,4.404,25.0
58.518,5.914,4.64,33.0
59.02,5.97,4.336,24.0
58.161,5.889,3.941,31.0
57.884,5.866,3.592,32.0
43.079,4.385,3.877,34.0
51.629,5.259,4.351,19.0
58.294,5.943,4.578,32.0
59.032,6.023,4.292,27.0
57.999,5.922,3.885,31.0
57.832,5.91,3.544,28.0
43.114,4.425,3.846,37.0
51.748,5.315,4.32,8.0
58.601,6.023,4.555,33.0
58.765,6.045,4.226,31.0
57.894,5.959,3.832,28.0
57.672,5.942,3.488,27.0
43.125,4.462,3.812,31.0
58.376,6.043,4.825,9.0
58.618,6.072,4.509,33.0
58.641,6.079,4.169,33.0
57.739,5.989,3.775,31.0
57.831,6.003,3.45,32.0
43.068,4.489,3.771,34.0
58.174,6.067,4.76,29.0
58.764,6.132,4.471,16.0
58.494,6.107,4.109,33.0
57.796,6.039,3.729,28.0
58.021,6.066,3.412,24.0
43.017,4.515,3.729,26.0
58.172,6.109,4.709,32.0
58.856,6.184,4.426,19.0
58.288,6.128,4.043,30.0
57.767,6.077,3.676,29.0
58.098,6.116,3.365,27.0
42.903,4.533,3.681,24.0
58.245,6.158,4.662,19.0
59.133,6.254,4.393,9.0
58.032,6.141,3.973,31.0
57.757,6.115,3.623,29.0
58.104,6.156,3.312,27.0
42.819,4.553,3.634,24.0
53.607,5.703,4.241,27.0
59.152,6.295,4.339,20.0
57.796,6.153,3.903,32.0
57.804,6.157,3.572,25.0
58.158,6.199,3.261,32.0
42.87,4.585,3.598,26.0
53.407,5.714,4.174,27.0
59.003,6.315,4.272,21.0
57.789,6.188,3.847,29.0
58.012,6.214,3.529,31.0
58.091,6.226,3.202,31.0
53.378,5.74,4.427,9.0
53.678,5.774,4.143,27.0
58.81,6.328,4.201,33.0
57.771,6.219,3.789,25.0
58.024,6.248,3.473,31.0
58.188,6.269,3.149,31.0
53.27,5.758,4.365,24.0
53.559,5.79,4.08,21.0
58.339,6.308,4.109,33.0
57.701,6.241,3.727,32.0
58.105,6.287,3.419,26.0
58.282,6.309,3.096,30.0
53.286,5.786,4.312,28.0
53.381,5.797,4.012,27.0
57.876,6.287,4.017,29.0
57.63,6.262,3.663,29.0
58.033,6.307,3.356,31.0
58.565,6.367,3.051,27.0
53.145,5.795,4.245,24.0
53.376,5.821,3.956,27.0
57.658,6.289,3.941,27.0
57.547,6.278,3.597,22.0
57.768,6.304,3.279,31.0
58.176,6.351,2.969,32.0
53.119,5.815,4.187,24.0
53.261,5.831,3.891,27.0
57.595,6.306,3.875,27.0
54.372,5.954,3.34,22.0
57.921,6.344,3.226,31.0
58.036,6.359,2.899,29.0
53.142,5.838,4.129,25.0
53.087,5.832,3.819,13.0
57.512,6.319,3.806,21.0
54.41,5.978,3.282,16.0
58.057,6.38,3.169,31.0
58.409,6.42,2.853,33.0
53.181,5.86,4.073,27.0
58.214,6.415,4.123,6.0
57.496,6.335,3.741,5.0
57.725,6.361,3.418,6.0
58.21,6.415,3.113,31.0
58.684,6.468,2.801,32.0
53.108,5.868,4.008,24.0
57.876,6.394,4.034,20.0
54.266,5.995,3.47,27.0
57.494,6.352,3.339,19.0
58.152,6.425,3.044,25.0
58.677,6.483,2.734,32.0
53.001,5.869,3.939,21.0
57.758,6.395,3.959,24.0
54.278,6.009,3.408,28.0
57.426,6.358,3.269,31.0
58.046,6.427,2.971,28.0
58.605,6.489,2.663,27.0
53.061,5.887,3.881,24.0
57.644,6.395,3.884,23.0
54.671,6.064,3.368,29.0
57.634,6.392,3.214,32.0
57.922,6.423,2.898,31.0
58.58,6.497,2.594,28.0
53.156,5.906,3.825,26.0
57.463,6.383,3.804,7.0
55.103,6.12,3.33,29.0
57.913,6.431,3.161,32.0
58.054,6.446,2.835,31.0
58.51,6.497,2.521,23.0
57.89,6.439,4.097,9.0
54.241,6.032,3.525,28.0
57.459,6.388,3.404,7.0
57.941,6.44,3.093,29.0
58.296,6.479,2.777,32.0
58.64,6.517,2.456,30.0
57.877,6.442,4.026,19.0
54.228,6.034,3.459,28.0
57.429,6.388,3.333,24.0
58.084,6.46,3.03,32.0
58.387,6.492,2.711,32.0
59.02,6.562,2.402,25.0
57.742,6.429,3.946,17.0
54.292,6.042,3.397,26.0
57.477,6.395,3.265,31.0
57.988,6.45,2.954,32.0
58.6,6.517,2.648,31.0
0.0,0.0,0.0,0.0
57.526,6.404,3.86,13.0
54.773,6.095,3.359,30.0
57.802,6.43,3.212,32.0
57.825,6.43,2.875,32.0
58.577,6.512,2.575,25.0
59.262,6.586,2.265,20.0
54.279,6.039,3.575,21.0
55.337,6.154,3.325,28.0
57.922,6.438,3.147,29.0
58.172,6.464,2.819,33.0
58.538,6.503,2.5,32.0
59.094,6.562,2.185,22.0
54.243,6.029,3.504,29.0
57.45,6.383,3.38,14.0
57.986,6.439,3.077,30.0
58.549,6.499,2.765,33.0
58.754,6.519,2.437,32.0
59.147,6.56,2.114,26.0
54.263,6.024,3.437,25.0
57.425,6.371,3.306,26.0
58.051,6.437,3.009,29.0
58.581,6.492,2.693,33.0
58.855,6.52,2.367,21.0
59.453,6.584,2.051,13.0
54.387,6.026,3.376,26.0
57.457,6.363,3.236,31.0
58.14,6.435,2.94,32.0
58.632,6.486,2.621,33.0
59.179,6.543,2.306,18.0
63.726,7.043,2.117,11.0
54.871,6.067,3.337,30.0
57.757,6.382,3.179,32.0
58.333,6.442,2.876,33.0
58.486,6.455,2.542,33.0
59.152,6.524,2.23,25.0
59.218,6.529,1.892,16.0
55.318,6.1,3.294,15.0
58.222,6.416,3.131,32.0
58.665,6.461,2.817,32.0
58.472,6.435,2.465,30.0
59.151,6.506,2.155,23.0
59.286,6.517,1.819,17.0
57.741,6.348,3.364,27.0
58.091,6.382,3.049,32.0
58.76,6.451,2.746,32.0
58.535,6.422,2.393,24.0
59.169,6.487,2.079,27.0
59.489,6.519,1.75,18.0
57.808,6.334,3.293,32.0
58.0,6.35,2.97,31.0
58.631,6.414,2.665,32.0
59.185,6.47,2.344,28.0
59.219,6.469,2.005,26.0
59.973,6.547,1.687,20.0
58.026,6.333,3.231,32.0
58.155,6.341,2.903,32.0
58.494,6.373,2.583,29.0
59.12,6.437,2.265,25.0
59.17,6.437,1.928,25.0
59.957,6.518,1.61,33.0
58.324,6.338,3.172,33.0
58.321,6.332,2.836,32.0
58.446,6.34,2.507,30.0
59.107,6.406,2.19,28.0
59.148,6.405,1.852,26.0
59.19,6.405,1.513,5.0
58.509,6.328,3.107,33.0
58.68,6.34,2.779,28.0
58.633,6.329,2.439,32.0
59.165,6.381,2.115,28.0
59.661,6.429,1.791,33.0
51.601,5.556,1.253,1.0
58.643,6.309,3.038,28.0
58.563,6.294,2.698,32.0
59.142,6.35,2.385,33.0
59.248,6.356,2.043,27.0
59.915,6.422,1.722,21.0
51.475,5.512,1.185,6.0
58.579,6.267,2.961,24.0
58.509,6.253,2.62,31.0
59.271,6.327,2.315,29.0
59.185,6.313,1.966,28.0
60.59,6.456,1.666,33.0
46.567,4.957,1.014,4.0
58.6,6.232,2.888,26.0
58.407,6.204,2.542,28.0
59.397,6.302,2.244,33.0
59.164,6.271,1.891,26.0
59.495,6.3,1.56,10.0
46.264,4.894,0.948,13.0
58.51,6.181,2.808,27.0
58.374,6.159,2.467,26.0
59.263,6.246,2.164,21.0
59.463,6.26,1.824,22.0
57.13,6.008,1.425,2.0
45.703,4.801,0.878,13.0
58.665,6.154,2.741,25.0
58.785,6.159,2.41,33.0
59.195,6.194,2.087,28.0
59.796,6.25,1.76,19.0
51.57,5.384,1.222,5.0
45.411,4.736,0.816,12.0
58.851,6.127,2.676,21.0
59.282,6.164,2.356,29.0
59.359,6.164,2.019,25.0
59.807,6.204,1.685,22.0
0.0,0.0,0.0,0.0
45.25,4.682,0.757,7.0
59.764,6.173,2.643,26.0
59.129,6.099,2.276,30.0
59.294,6.108,1.943,30.0
59.614,6.134,1.606,26.0
46.721,4.801,0.992,1.0
45.396,4.66,0.704,4.0
59.528,6.098,2.56,22.0
59.131,6.048,2.203,27.0
59.624,6.09,1.88,27.0
59.81,6.101,1.538,3.0
46.341,4.721,0.927,4.0
45.563,4.636,0.651,3.0
59.163,6.006,2.471,29.0
59.021,5.983,2.127,29.0
59.675,6.04,1.809,33.0
56.388,5.7,1.381,2.0
46.185,4.662,0.868,4.0
45.732,4.61,0.598,0.0
59.12,5.946,2.398,21.0
59.693,5.994,2.08,34.0
59.621,5.978,1.736,13.0
51.531,5.159,1.201,5.0
46.022,4.601,0.809,13.0
39.65,3.959,0.471,0.0
58.994,5.875,2.322,26.0
60.095,5.975,2.022,27.0
61.567,6.112,1.719,8.0
51.43,5.097,1.137,6.0
46.114,4.564,0.756,7.0
36.296,3.587,0.387,0.0
59.076,5.822,2.255,22.0
60.11,5.914,1.951,19.0
61.597,6.05,1.647,4.0
46.74,4.584,0.978,1.0
46.316,4.535,0.704,6.0
35.516,3.472,0.338,0.0
59.514,5.801,2.202,23.0
60.418,5.879,1.89,10.0
58.546,5.686,1.497,4.0
46.905,4.548,0.927,3.0
46.501,4.502,0.653,2.0
0.0,0.0,0.0,0.0
60.763,5.854,2.177,36.0
62.909,6.05,1.895,30.0
52.154,5.007,1.273,6.0
46.883,4.493,0.872,5.0
40.266,3.852,0.519,0.0
32.655,3.119,0.235,0.0
60.402,5.749,2.094,19.0
62.92,5.978,1.823,9.0
51.829,4.915,1.206,13.0
46.935,4.443,0.82,5.0
40.583,3.835,0.477,0.0
31.714,2.991,0.192,0.0
60.814,5.716,2.04,36.0
62.376,5.851,1.737,11.0
51.456,4.817,1.139,6.0
47.185,4.409,0.771,4.0
36.508,3.405,0.389,0.0
29.326,2.73,0.145,2.0
61.476,5.702,1.994,32.0
52.23,4.835,1.397,3.0
51.182,4.728,1.077,2.0
47.415,4.371,0.722,3.0
35.686,3.284,0.341,0.0
29.235,2.685,0.113,4.0
62.123,5.683,1.947,17.0
52.095,4.755,1.336,15.0
48.055,4.377,0.959,2.0
45.557,4.141,0.645,1.0
34.509,3.131,0.292,0.0
29.065,2.631,0.081,2.0
52.188,4.706,1.58,17.0
52.01,4.68,1.279,14.0
47.99,4.309,0.906,3.0
40.328,3.613,0.528,0.0
32.905,2.942,0.244,0.0
27.693,2.471,0.048,1.0
52.122,4.63,1.523,30.0
51.787,4.59,1.219,8.0
48.332,4.273,0.863,6.0
0.0,0.0,0.0,0.0
31.696,2.79,0.202,1.0
26.858,2.359,0.019,1.0
52.094,4.555,1.469,20.0
51.469,4.49,1.158,7.0
48.507,4.221,0.816,11.0
36.91,3.204,0.407,0.0
30.856,2.673,0.165,0.0
26.539,2.293,-0.008,1.0
52.122,4.483,1.416,15.0
51.273,4.4,1.102,5.0
48.875,4.183,0.773,4.0
36.106,3.083,0.362,0.0
29.817,2.54,0.13,1.0
25.906,2.201,-0.033,1.0
52.184,4.412,1.366,14.0
49.807,4.201,1.022,4.0
49.141,4.134,0.729,1.0
34.231,2.873,0.31,0.0
29.216,2.446,0.099,1.0
25.421,2.123,-0.057,0.0
47.683,3.961,1.203,11.0
49.434,4.096,0.967,2.0
47.309,3.91,0.657,0.0
33.449,2.757,0.272,0.0
28.462,2.34,0.07,0.0
24.494,2.008,-0.078,0.0
47.617,3.883,1.156,10.0
47.883,3.894,0.892,1.0
0.0,0.0,0.0,0.0
32.543,2.632,0.234,0.0
27.533,2.221,0.042,1.0
24.14,1.942,-0.099,2.0
47.514,3.801,1.11,15.0
47.934,3.823,0.849,3.0
37.278,2.965,0.449,0.0
31.178,2.473,0.196,0.0
27.071,2.141,0.017,1.0
24.006,1.893,-0.12,3.0
47.424,3.719,1.066,3.0
47.968,3.75,0.807,3.0
36.88,2.875,0.412,0.0
30.151,2.343,0.163,1.0
26.423,2.047,-0.005,0.0
23.719,1.832,-0.139,1.0
47.414,3.641,1.025,1.0
0.0,0.0,0.0,0.0
36.856,2.812,0.381,0.0
29.704,2.26,0.136,1.0
26.017,1.973,-0.027,0.0
23.081,1.745,-0.154,0.0
47.422,3.564,0.986,2.0
46.905,3.513,0.71,0.0
0.0,0.0,0.0,0.0
29.041,2.161,0.109,1.0
25.466,1.889,-0.047,0.0
22.764,1.683,-0.171,0.0
47.384,3.481,0.947,2.0
0.0,0.0,0.0,0.0
0.0,0.0,0.0,0.0
28.428,2.067,0.084,1.0
25.098,1.818,-0.067,0.0
22.306,1.611,-0.185,0.0
52.062,3.734,0.999,0.0
0.0,0.0,0.0,0.0
32.444,2.311,0.257,0.0
27.982,1.986,0.061,0.0
24.489,1.732,-0.084,0.0
21.845,1.539,-0.198,0.0
50.946,3.566,0.94,0.0
47.174,3.289,0.604,0.0
31.816,2.21,0.228,0.0
27.367,1.894,0.04,0.0
24.184,1.668,-0.1,2.0
21.603,1.484,-0.211,0.0
50.951,3.476,0.903,14.0
47.258,3.211,0.572,0.0
31.343,2.121,0.203,1.0
26.998,1.82,0.02,0.0
24.088,1.618,-0.117,1.0
21.217,1.42,-0.222,0.0
50.949,3.385,0.868,1.0
47.288,3.128,0.54,0.0
30.779,2.028,0.178,0.0
26.572,1.743,0.002,0.0
23.696,1.548,-0.131,0.0
20.798,1.354,-0.231,0.0
0.0,0.0,0.0,0.0
36.53,2.35,0.393,1.0
29.821,1.91,0.153,0.0
26.251,1.674,-0.014,0.0
23.238,1.475,-0.143,0.0
20.67,1.307,-0.243,0.0
43.476,2.728,0.685,0.0
36.469,2.278,0.37,0.0
29.565,1.839,0.134,1.0
25.932,1.606,-0.03,1.0
22.985,1.417,-0.155,0.0
20.367,1.25,-0.252,0.0
47.516,2.893,0.72,0.0
0.0,0.0,0.0,0.0
29.159,1.759,0.115,0.0
25.597,1.537,-0.044,0.0
22.771,1.36,-0.167,0.0
19.724,1.173,-0.255,0.0
0.0,0.0,0.0,0.0
33.75,1.981,0.303,0.0
28.696,1.676,0.097,0.0
25.293,1.47,-0.057,0.0
22.21,1.285,-0.175,0.0
19.568,1.126,-0.263,0.0
42.007,2.397,0.591,0.0
32.829,1.863,0.278,1.0
28.355,1.601,0.081,0.0
25.077,1.409,-0.07,0.0
21.989,1.229,-0.184,2.0
19.244,1.07,-0.269,0.0
0.0,0.0,0.0,0.0
32.309,1.772,0.258,0.0
27.991,1.526,0.067,0.0
24.983,1.355,-0.081,0.0
21.858,1.179,-0.193,2.0
19.12,1.026,-0.276,0.0
37.696,2.004,0.494,0.0
32.094,1.697,0.241,1.0
27.653,1.454,0.054,0.0
24.766,1.295,-0.092,0.0
21.763,1.131,-0.202,2.0
19.01,0.983,-0.282,0.0
0.0,0.0,0.0,0.0
31.43,1.6,0.223,1.0
27.618,1.397,0.042,0.0
24.446,1.23,-0.1,0.0
21.63,1.081,-0.209,2.0
18.764,0.932,-0.286,0.0
37.353,1.838,0.459,0.0
31.421,1.536,0.211,1.0
27.268,1.325,0.031,0.0
24.338,1.175,-0.109,0.0
21.533,1.033,-0.216,1.0
18.61,0.887,-0.29,0.0
35.823,1.69,0.428,0.0
30.831,1.445,0.196,0.0
26.979,1.256,0.022,0.0
23.593,1.092,-0.114,0.0
21.378,0.983,-0.222,1.0
18.391,0.84,-0.293,0.0
35.935,1.623,0.418,0.0
30.691,1.377,0.186,0.0
26.931,1.2,0.014,0.0
23.497,1.039,-0.12,0.0
21.367,0.939,-0.228,2.0
18.295,0.798,-0.297,0.0
0.0,0.0,0.0,0.0
30.719,1.316,0.178,0.0
26.755,1.137,0.006,0.0
23.573,0.995,-0.127,1.0
21.146,0.886,-0.231,0.0
18.188,0.756,-0.299,0.0
35.354,1.453,0.392,0.0
29.02,1.183,0.161,0.0
26.655,1.079,0.0,0.0
23.541,0.945,-0.132,0.0
20.697,0.824,-0.231,0.0
18.131,0.716,-0.302,0.0
34.886,1.362,0.38,0.0
29.047,1.124,0.155,0.0
25.904,0.995,-0.004,4.0
23.676,0.901,-0.137,1.0
20.784,0.785,-0.235,1.0
18.065,0.676,-0.305,0.0
34.375,1.271,0.368,0.0
28.95,1.061,0.15,0.0
26.313,0.956,-0.008,0.0
23.317,0.839,-0.139,0.0
20.399,0.728,-0.234,0.0
18.011,0.637,-0.306,0.0
34.281,1.196,0.363,1.0
28.982,1.001,0.146,0.0
26.498,0.907,-0.012,0.0
23.304,0.79,-0.141,0.0
20.404,0.685,-0.236,0.0
18.02,0.599,-0.308,0.0
34.583,1.134,0.363,1.0
28.97,0.94,0.144,5.0
26.504,0.851,-0.014,0.0
23.22,0.738,-0.142,0.0
20.381,0.641,-0.237,0.0
17.967,0.56,-0.308,0.0
34.653,1.064,0.361,1.0
28.97,0.88,0.142,6.0
26.38,0.792,-0.015,0.0
23.343,0.693,-0.144,1.0
20.33,0.597,-0.238,0.0
17.979,0.522,-0.309,0.0
33.693,0.963,0.35,0.0
28.959,0.818,0.142,6.0
26.532,0.74,-0.015,0.0
23.461,0.647,-0.145,1.0
20.367,0.555,-0.238,0.0
18.016,0.485,-0.309,0.0
34.329,0.908,0.358,0.0
28.942,0.756,0.142,5.0
26.477,0.683,-0.015,0.0
23.503,0.598,-0.144,1.0
20.482,0.515,-0.238,0.0
18.056,0.447,-0.309,0.0
0.0,0.0,0.0,0.0
28.905,0.695,0.144,1.0
26.418,0.626,-0.013,0.0
23.525,0.549,-0.143,0.0
20.506,0.472,-0.237,0.0
18.054,0.409,-0.308,0.0
34.068,0.758,0.36,0.0
28.915,0.633,0.147,0.0
26.576,0.573,-0.01,0.0
23.491,0.498,-0.14,0.0
20.442,0.427,-0.234,0.0
18.058,0.371,-0.306,0.0
34.316,0.691,0.367,0.0
28.928,0.572,0.151,0.0
26.656,0.518,-0.006,0.0
23.55,0.45,-0.137,0.0
20.512,0.385,-0.232,0.0
18.183,0.335,-0.305,0.0
34.565,0.622,0.375,0.0
28.933,0.511,0.156,0.0
26.626,0.461,-0.002,0.0
23.713,0.402,-0.133,1.0
20.654,0.343,-0.229,0.0
18.211,0.296,-0.302,0.0
34.5,0.547,0.381,0.0
28.931,0.449,0.162,2.0
26.775,0.406,0.003,0.0
23.869,0.354,-0.129,0.0
21.086,0.305,-0.229,0.0
18.292,0.258,-0.299,0.0
0.0,0.0,0.0,0.0
28.93,0.387,0.169,1.0
27.087,0.353,0.01,0.0
23.824,0.302,-0.122,0.0
21.405,0.264,-0.227,0.0
18.363,0.22,-0.295,0.0
0.0,0.0,0.0,0.0
28.951,0.326,0.177,0.0
27.263,0.298,0.018,0.0
23.997,0.254,-0.116,0.0
21.457,0.22,-0.221,1.0
18.481,0.183,-0.291,0.0
35.874,0.341,0.427,0.0
28.981,0.265,0.187,0.0
27.365,0.241,0.027,0.0
24.419,0.206,-0.11,0.0
21.583,0.175,-0.215,1.0
18.56,0.144,-0.285,0.0
36.544,0.27,0.448,0.0
0.0,0.0,0.0,0.0
27.583,0.184,0.038,0.0
24.734,0.157,-0.102,0.0
21.687,0.13,-0.207,3.0
18.735,0.105,-0.281,0.0
36.707,0.194,0.464,0.0
31.587,0.155,0.228,0.0
27.903,0.127,0.05,0.0
24.88,0.105,-0.092,0.0
21.803,0.084,-0.199,3.0
18.999,0.067,-0.277,0.0
0.0,0.0,0.0,0.0
31.628,0.089,0.242,0.0
28.673,0.071,0.064,5.0
25.052,0.053,-0.082,0.0
21.919,0.038,-0.19,1.0
19.133,0.027,-0.27,0.0
37.238,0.039,0.504,0.0
33.068,0.023,0.269,0.0
28.514,0.011,0.077,1.0
25.433,0.001,-0.071,0.0
22.252,-0.006,-0.182,0.0
19.46,-0.012,-0.265,0.0
0.0,0.0,0.0,0.0
33.156,-0.044,0.286,0.0
28.74,-0.048,0.092,7.0
25.632,-0.052,-0.058,0.0
22.819,-0.054,-0.175,0.0
19.76,-0.053,-0.258,0.0
0.0,0.0,0.0,0.0
33.211,-0.113,0.305,1.0
28.797,-0.107,0.108,7.0
26.046,-0.106,-0.044,0.0
22.978,-0.102,-0.163,0.0
19.966,-0.095,-0.25,0.0
0.0,0.0,0.0,0.0
33.221,-0.181,0.324,0.0
28.813,-0.168,0.125,6.0
26.377,-0.162,-0.029,0.0
23.2,-0.151,-0.151,0.0
20.328,-0.14,-0.242,0.0
0.0,0.0,0.0,0.0
33.612,-0.253,0.348,0.0
28.829,-0.227,0.143,3.0
26.581,-0.218,-0.013,0.0
23.998,-0.205,-0.141,0.0
20.673,-0.184,-0.233,0.0
0.0,0.0,0.0,0.0
34.063,-0.325,0.375,0.0
30.908,-0.306,0.174,0.0
27.201,-0.279,0.004,0.0
24.109,-0.255,-0.125,0.0
21.094,-0.23,-0.223,0.0
0.0,0.0,0.0,0.0
35.988,-0.416,0.421,0.0
30.633,-0.365,0.194,0.0
27.394,-0.336,0.023,0.0
24.453,-0.308,-0.11,0.0
21.737,-0.281,-0.215,1.0
0.0,0.0,0.0,0.0
0.0,0.0,0.0,0.0
0.0,0.0,0.0,0.0
27.95,-0.398,0.044,0.0
24.905,-0.363,-0.094,0.0
22.123,-0.331,-0.202,1.0
0.0,0.0,0.0,0.0
0.0,0.0,0.0,0.0
31.748,-0.505,0.248,0.0
28.39,-0.462,0.066,1.0
25.15,-0.417,-0.075,0.0
22.347,-0.378,-0.187,0.0
0.0,0.0,0.0,0.0
37.958,-0.667,0.53,0.0
33.277,-0.596,0.286,1.0
28.668,-0.523,0.09,7.0
25.319,-0.47,-0.055,0.0
22.816,-0.431,-0.172,0.0
0.0,0.0,0.0,0.0
0.0,0.0,0.0,0.0
33.395,-0.664,0.315,1.0
28.721,-0.58,0.114,7.0
26.25,-0.539,-0.035,0.0
23.401,-0.488,-0.156,0.0
0.0,0.0,0.0,0.0
0.0,0.0,0.0,0.0
33.958,-0.741,0.35,1.0
28.759,-0.637,0.14,5.0
26.658,-0.6,-0.012,0.0
23.679,-0.54,-0.137,0.0
0.0,0.0,0.0,0.0
0.0,0.0,0.0,0.0
35.207,-0.836,0.394,0.0
28.678,-0.69,0.165,0.0
27.321,-0.667,0.011,0.0
23.822,-0.589,-0.117,0.0
0.0,0.0,0.0,0.0
0.0,0.0,0.0,0.0
36.298,-0.931,0.44,0.0
30.985,-0.804,0.207,0.0
28.046,-0.738,0.038,1.0
0.0,0.0,0.0,0.0
0.0,0.0,0.0,0.0
0.0,0.0,0.0,0.0
37.856,-1.042,0.495,0.0
31.747,-0.885,0.243,0.0
28.457,-0.802,0.066,1.0
25.507,-0.727,-0.076,0.0
0.0,0.0,0.0,0.0
0.0,0.0,0.0,0.0
38.709,-1.138,0.545,0.0
0.0,0.0,0.0,0.0
28.584,-0.858,0.095,1.0
26.008,-0.789,-0.051,0.0
0.0,0.0,0.0,0.0
0.0,0.0,0.0,0.0
0.0,0.0,0.0,0.0
33.814,-1.066,0.327,0.0
28.621,-0.912,0.124,0.0
26.566,-0.855,-0.025,0.0
0.0,0.0,0.0,0.0
0.0,0.0,0.0,0.0
0.0,0.0,0.0,0.0
0.0,0.0,0.0,0.0
30.619,-1.031,0.165,0.0
27.04,-0.918,0.002,0.0
0.0,0.0,0.0,0.0
0.0,0.0,0.0,0.0
0.0,0.0,0.0,0.0
36.211,-1.272,0.427,0.0
31.049,-1.1,0.201,0.0
28.12,-1.005,0.033,0.0
0.0,0.0,0.0,0.0
0.0,0.0,0.0,0.0
0.0,0.0,0.0,0.0
37.184,-1.371,0.479,0.0
31.973,-1.188,0.243,0.0
28.55,-1.07,0.065,5.0
0.0,0.0,0.0,0.0
0.0,0.0,0.0,0.0
0.0,0.0,0.0,0.0
39.153,-1.512,0.55,0.0
32.586,-1.267,0.285,0.0
28.632,-1.122,0.098,9.0
0.0,0.0,0.0,0.0
0.0,0.0,0.0,0.0
0.0,0.0,0.0,0.0
0.0,0.0,0.0,0.0
34.028,-1.381,0.337,0.0
28.67,-1.172,0.132,3.0
92.563,-3.805,2.997,1.0
0.0,0.0,0.0,0.0
0.0,0.0,0.0,0.0
0.0,0.0,0.0,0.0
35.014,-1.48,0.389,0.0
30.586,-1.301,0.178,0.0
92.267,-3.945,3.097,11.0
0.0,0.0,0.0,0.0
0.0,0.0,0.0,0.0
0.0,0.0,0.0,0.0
36.564,-1.604,0.45,0.0
31.376,-1.386,0.22,0.0
92.619,-4.11,3.222,4.0
0.0,0.0,0.0,0.0
0.0,0.0,0.0,0.0
0.0,0.0,0.0,0.0
0.0,0.0,0.0,0.0
32.374,-1.482,0.268,0.0
94.11,-4.327,3.392,3.0
0.0,0.0,0.0,0.0
0.0,0.0,0.0,0.0
0.0,0.0,0.0,0.0
0.0,0.0,0.0,0.0
33.899,-1.605,0.324,0.0
95.638,-4.546,3.569,2.0
0.0,0.0,0.0,0.0
0.0,0.0,0.0,0.0
0.0,0.0,0.0,0.0
0.0,0.0,0.0,0.0
35.823,-1.751,0.388,0.0
0.0,0.0,0.0,0.0
109.508,-5.402,3.649,1.0
0.0,0.0,0.0,0.0
0.0,0.0,0.0,0.0
0.0,0.0,0.0,0.0
36.245,-1.826,0.44,0.0
0.0,0.0,0.0,0.0
109.396,-5.559,3.79,153.0
0.0,0.0,0.0,0.0
0.0,0.0,0.0,0.0
34.671,-1.788,0.65,0.0
34.745,-1.801,0.468,0.0
0.0,0.0,0.0,0.0
109.373,-5.717,3.936,169.0
34.225,-1.797,1.051,1.0
34.243,-1.807,0.868,1.0
34.228,-1.814,0.687,0.0
34.686,-1.848,0.514,0.0
0.0,0.0,0.0,0.0
34.388,-1.846,1.284,0.0
34.208,-1.845,1.097,157.0
34.151,-1.85,0.912,2.0
34.126,-1.858,0.732,0.0
34.378,-1.88,0.557,1.0
0.0,0.0,0.0,0.0
34.309,-1.89,1.328,0.0
34.139,-1.888,1.142,7.0
34.099,-1.894,0.958,4.0
34.083,-1.902,0.778,1.0
34.234,-1.918,0.602,1.0
0.0,0.0,0.0,0.0
34.438,-1.944,1.382,0.0
34.057,-1.93,1.187,2.0
34.111,-1.941,1.006,121.0
34.059,-1.946,0.826,2.0
33.955,-1.948,0.645,0.0
0.0,0.0,0.0,0.0
0.0,0.0,0.0,0.0
34.099,-1.977,1.237,2.0
34.077,-1.983,1.053,13.0
34.019,-1.988,0.873,4.0
0.0,0.0,0.0,0.0
188.533,-11.091,9.092,5.0
34.767,-2.052,1.493,0.0
34.041,-2.017,1.283,3.0
34.031,-2.023,1.1,6.0
34.003,-2.029,0.922,6.0
33.903,-2.031,0.741,0.0
188.823,-11.344,9.378,8.0
34.716,-2.092,1.541,0.0
34.001,-2.057,1.331,4.0
33.977,-2.062,1.148,7.0
33.981,-2.069,0.97,8.0
33.958,-2.075,0.791,0.0
187.758,-11.51,9.599,6.0
34.714,-2.134,1.592,0.0
34.17,-2.108,1.387,0.0
33.953,-2.101,1.197,4.0
33.968,-2.109,1.019,151.0
33.932,-2.114,0.84,7.0
188.523,-11.778,9.917,17.0
34.918,-2.188,1.653,0.0
34.288,-2.155,1.443,0.0
33.975,-2.142,1.248,5.0
33.934,-2.146,1.069,100.0
33.932,-2.153,0.891,16.0
188.721,-12.006,10.21,16.0
34.911,-2.227,1.705,0.0
34.386,-2.2,1.498,0.0
33.935,-2.177,1.297,11.0
33.917,-2.182,1.119,22.0
33.931,-2.19,0.941,28.0
157.0,-10.159,8.727,30.0
0.0,0.0,0.0,0.0
34.589,-2.25,1.559,0.0
33.918,-2.213,1.348,7.0
33.921,-2.219,1.17,6.0
33.918,-2.225,0.992,38.0
121.361,-7.981,6.928,3.0
157.054,-10.355,8.14,21.0
0.0,0.0,0.0,0.0
34.089,-2.258,1.405,0.0
33.925,-2.253,1.22,5.0
33.895,-2.258,1.042,39.0
156.549,-10.454,9.173,11.0
156.857,-10.5,8.367,35.0
0.0,0.0,0.0,0.0
34.318,-2.308,1.467,0.0
33.909,-2.286,1.271,20.0
33.881,-2.29,1.093,45.0
156.565,-10.608,9.413,10.0
189.166,-12.845,10.377,12.0
0.0,0.0,0.0,0.0
0.0,0.0,0.0,0.0
33.887,-2.316,1.322,25.0
33.867,-2.32,1.144,20.0
92.129,-6.329,5.681,4.0
189.472,-13.042,10.687,15.0
0.0,0.0,0.0,0.0
34.646,-2.395,1.587,0.0
33.921,-2.35,1.376,2.0
33.893,-2.353,1.197,5.0
154.542,-10.756,9.769,8.0
91.96,-6.413,5.33,2.0
191.979,-13.414,10.118,5.0
34.881,-2.441,1.652,0.0
34.187,-2.397,1.439,0.0
33.883,-2.381,1.249,17.0
122.268,-8.614,7.918,8.0
92.013,-6.494,5.474,6.0
189.564,-13.403,10.283,7.0
35.009,-2.479,1.711,0.0
34.441,-2.443,1.503,0.0
33.861,-2.407,1.3,46.0
148.46,-10.579,9.844,22.0
155.075,-11.069,9.466,6.0
189.819,-13.572,10.588,19.0
35.153,-2.517,1.773,0.0
34.489,-2.474,1.558,0.0
33.856,-2.432,1.352,8.0
147.986,-10.661,10.042,7.0
154.686,-11.161,9.684,13.0
189.975,-13.726,10.895,9.0
0.0,0.0,0.0,0.0
34.683,-2.513,1.621,0.0
34.074,-2.473,1.414,0.0
147.392,-10.726,10.233,5.0
154.405,-11.251,9.908,11.0
189.532,-13.831,11.166,9.0
190.537,-13.922,10.206,8.0
34.768,-2.544,1.679,0.0
0.0,0.0,0.0,0.0
123.01,-9.037,8.733,6.0
154.204,-11.341,10.134,11.0
189.548,-13.958,11.461,9.0
189.825,-13.997,10.462,16.0
35.15,-2.594,1.752,0.0
0.0,0.0,0.0,0.0
122.025,-9.043,8.853,6.0
154.338,-11.448,10.383,5.0
0.0,0.0,0.0,0.0
190.13,-14.136,10.774,13.0
0.0,0.0,0.0,0.0
0.0,0.0,0.0,0.0
150.364,-11.233,11.143,3.0
155.322,-11.613,10.691,9.0
156.218,-11.692,9.931,3.0
190.185,-14.249,11.069,6.0
193.395,-14.502,10.239,8.0
34.787,-2.611,1.659,0.0
147.114,-11.072,11.129,10.0
149.281,-11.243,10.507,5.0
156.078,-11.765,10.163,14.0
193.778,-14.62,11.58,5.0
190.16,-14.361,10.363,5.0
35.071,-2.65,1.727,0.0
147.22,-11.155,11.367,10.0
0.0,0.0,0.0,0.0
0.0,0.0,0.0,0.0
0.0,0.0,0.0,0.0
190.272,-14.46,10.662,6.0
0.0,0.0,0.0,0.0
147.545,-11.249,11.619,12.0
151.436,-11.553,11.126,11.0
155.223,-11.848,10.585,12.0
208.605,-15.933,13.104,10.0
190.345,-14.548,10.957,5.0
193.692,-14.812,10.133,9.0
88.257,-6.767,7.086,12.0
148.614,-11.4,11.146,6.0
155.227,-11.912,10.824,4.0
208.578,-16.014,13.424,6.0
0.0,0.0,0.0,0.0
193.733,-14.892,10.43,12.0
88.227,-6.798,7.219,22.0
147.367,-11.36,11.28,7.0
150.993,-11.644,10.761,3.0
151.339,-11.674,9.971,5.0
208.802,-16.113,12.658,15.0
193.447,-14.935,10.708,19.0
88.153,-6.823,7.349,4.0
147.418,-11.412,11.509,16.0
150.788,-11.676,10.976,11.0
155.33,-12.032,10.469,9.0
208.555,-16.158,12.959,26.0
193.678,-15.011,11.013,8.0
145.684,-11.32,12.367,18.0
88.217,-6.855,7.021,2.0
146.536,-11.388,10.888,9.0
155.325,-12.073,10.705,12.0
208.656,-16.222,13.281,11.0
0.0,0.0,0.0,0.0
147.293,-11.483,12.726,5.0
145.142,-11.315,11.771,14.0
146.873,-11.449,11.135,4.0
149.336,-11.642,10.518,10.0
151.38,-11.802,9.863,8.0
209.232,-16.315,12.527,7.0
146.027,-11.416,12.839,13.0
145.347,-11.361,12.007,12.0
147.267,-11.51,11.386,12.0
149.212,-11.661,10.732,7.0
150.941,-11.794,10.058,12.0
208.605,-16.301,12.798,20.0
146.0,-11.438,13.053,13.0
145.897,-11.427,12.271,13.0
147.275,-11.533,11.604,9.0
148.7,-11.643,10.913,10.0
0.0,0.0,0.0,0.0
208.573,-16.325,13.101,20.0
146.016,-11.459,13.271,6.0
145.84,-11.441,12.48,17.0
145.358,-11.4,11.667,13.0
146.477,-11.482,10.967,13.0
149.222,-11.695,10.383,6.0
151.701,-11.886,9.754,4.0
144.944,-11.387,13.39,18.0
145.863,-11.453,12.698,15.0
145.21,-11.397,11.87,12.0
147.058,-11.538,11.224,5.0
149.29,-11.707,10.603,9.0
151.239,-11.856,9.941,15.0
145.015,-11.399,13.607,14.0
145.794,-11.454,12.902,16.0
145.741,-11.442,12.122,7.0
147.225,-11.553,11.448,11.0
148.769,-11.669,10.779,13.0
150.898,-11.829,10.133,10.0
145.809,-11.461,13.888,15.0
145.417,-11.422,13.077,15.0
145.847,-11.448,12.338,16.0
147.298,-11.555,11.662,6.0
148.694,-11.658,10.981,7.0
0.0,0.0,0.0,0.0
145.874,-11.46,14.101,14.0
144.842,-11.371,13.227,11.0
145.751,-11.432,12.533,14.0
145.361,-11.393,11.711,14.0
146.634,-11.485,11.035,11.0
149.307,-11.687,10.444,11.0
145.864,-11.447,14.306,13.0
144.892,-11.361,13.436,15.0
145.95,-11.434,12.754,14.0
145.189,-11.365,11.899,14.0
147.117,-11.506,11.273,9.0
149.37,-11.673,10.652,11.0
145.734,-11.42,14.495,4.0
145.113,-11.36,13.657,16.0
0.0,0.0,0.0,0.0
145.694,-11.383,12.138,12.0
147.363,-11.502,11.493,12.0
150.943,-11.771,10.967,9.0
148.458,-11.609,14.966,7.0
145.894,-11.396,13.926,20.0
146.052,-11.396,13.161,8.0
145.688,-11.354,12.334,14.0
88.243,-6.871,6.999,2.0
146.641,-11.407,10.85,8.0
148.398,-11.574,15.16,11.0
145.785,-11.357,14.109,16.0
146.164,-11.371,13.364,13.0
145.822,-11.332,12.536,9.0
88.216,-6.848,7.112,6.0
152.59,-11.831,11.488,5.0
147.964,-11.504,15.309,4.0
145.834,-11.324,14.305,12.0
146.321,-11.347,13.568,12.0
146.283,-11.329,12.765,10.0
88.207,-6.823,7.224,14.0
147.351,-11.384,11.283,9.0
147.387,-11.417,15.441,10.0
145.951,-11.289,14.506,10.0
0.0,0.0,0.0,0.0
119.113,-9.189,10.546,13.0
88.176,-6.793,7.335,10.0
147.495,-11.347,11.481,15.0
147.247,-11.358,15.616,11.0
145.699,-11.222,14.667,9.0
145.699,-11.205,13.883,16.0
119.05,-9.141,10.691,5.0
145.642,-11.167,12.298,25.0
88.313,-6.763,6.984,6.0
152.169,-11.682,16.328,5.0
147.938,-11.339,15.076,11.0
145.636,-11.144,14.057,19.0
147.624,-11.28,13.438,8.0
145.628,-11.11,12.475,22.0
88.359,-6.73,7.096,15.0
148.304,-11.326,16.095,5.0
147.884,-11.276,15.249,14.0
145.626,-11.083,14.231,18.0
119.068,-9.047,10.981,5.0
145.666,-11.05,12.65,11.0
88.278,-6.686,7.191,11.0
148.522,-11.279,16.294,9.0
147.966,-11.216,15.432,11.0
145.453,-11.004,14.385,14.0
147.583,-11.147,13.783,5.0
119.263,-8.992,10.496,12.0
119.677,-9.008,9.889,2.0
148.431,-11.201,16.459,12.0
148.07,-11.152,15.616,13.0
145.577,-10.943,14.565,18.0
0.0,0.0,0.0,0.0
119.178,-8.925,10.624,10.0
119.55,-8.938,10.013,12.0
148.274,-11.114,16.61,14.0
148.442,-11.104,15.823,5.0
145.538,-10.864,14.724,11.0
147.08,-10.958,14.069,5.0
119.128,-8.858,10.752,12.0
119.19,-8.846,10.115,11.0
90.775,-6.753,10.269,20.0
148.166,-11.0,15.957,9.0
148.845,-11.028,15.221,15.0
91.362,-6.754,8.838,16.0
146.438,-10.805,13.373,11.0
119.244,-8.781,10.246,11.0
90.78,-6.701,10.368,10.0
148.154,-10.912,16.113,19.0
0.0,0.0,0.0,0.0
91.434,-6.705,8.942,11.0
119.609,-8.752,11.049,5.0
119.008,-8.689,10.35,12.0
89.737,-6.568,10.344,6.0
90.99,-6.645,9.991,7.0
148.592,-10.826,15.507,4.0
91.476,-6.649,9.04,6.0
146.594,-10.632,13.691,14.0
119.113,-8.62,10.479,13.0
89.716,-6.508,10.432,28.0
90.862,-6.575,10.069,22.0
148.343,-10.709,15.63,15.0
91.449,-6.586,9.127,5.0
146.815,-10.55,13.855,14.0
88.55,-6.347,7.877,15.0
89.711,-6.446,10.519,28.0
90.84,-6.512,10.154,32.0
148.335,-10.607,15.77,18.0
91.504,-6.527,9.22,16.0
91.509,-6.511,8.722,4.0
119.06,-8.451,10.701,8.0
89.704,-6.382,10.603,22.0
90.611,-6.43,10.213,22.0
148.704,-10.525,15.947,17.0
91.449,-6.456,9.298,21.0
91.589,-6.449,8.813,15.0
116.901,-8.211,10.612,10.0
90.0,-6.336,10.719,14.0
90.259,-6.337,10.254,22.0
148.416,-10.393,16.048,16.0
91.401,-6.384,9.373,12.0
91.521,-6.375,8.885,6.0
117.172,-8.141,10.737,8.0
90.457,-6.298,10.852,14.0
90.205,-6.263,10.326,16.0
148.326,-10.27,16.165,14.0
91.516,-6.319,9.462,10.0
91.686,-6.315,8.978,12.0
91.757,-6.302,8.484,15.0
90.53,-6.23,10.937,9.0
90.089,-6.183,10.387,27.0
90.147,-6.169,9.898,11.0
94.105,-6.421,9.806,24.0
91.738,-6.242,9.057,23.0
91.743,-6.225,8.556,19.0
90.203,-6.115,10.471,24.0
90.014,-6.084,9.954,26.0
94.124,-6.343,9.88,6.0
91.614,-6.156,9.114,21.0
91.724,-6.145,8.623,11.0
90.616,-6.083,11.088,3.0
90.198,-6.036,10.539,20.0
90.011,-6.005,10.02,31.0
91.027,-6.054,9.623,10.0
91.628,-6.076,9.182,18.0
91.321,-6.038,8.651,15.0
89.805,-5.93,10.557,22.0
90.176,-5.935,10.102,20.0
91.162,-5.982,9.7,31.0
87.388,-5.716,8.818,15.0
91.318,-5.955,8.713,20.0
89.815,-5.867,11.117,1.0
89.696,-5.841,10.604,33.0
90.649,-5.883,10.215,20.0
91.146,-5.895,9.759,40.0
87.319,-5.63,8.868,16.0
91.424,-5.876,8.782,28.0
89.878,-5.787,11.183,5.0
89.207,-5.724,10.604,27.0
90.472,-5.784,10.254,28.0
91.185,-5.811,9.82,18.0
87.353,-5.548,8.925,15.0
91.423,-5.788,8.837,15.0
89.355,-5.666,11.173,17.0
89.265,-5.641,10.664,28.0
90.705,-5.712,10.333,21.0
86.903,-5.452,9.41,15.0
87.497,-5.471,8.99,22.0
87.839,-5.474,8.54,20.0
89.237,-5.569,11.209,28.0
89.292,-5.552,10.718,34.0
89.515,-5.546,10.247,15.0
86.884,-5.363,9.455,22.0
87.534,-5.384,9.041,19.0
87.782,-5.382,8.581,23.0
89.381,-5.487,11.274,27.0
89.647,-5.483,10.807,22.0
89.553,-5.458,10.296,16.0
87.092,-5.287,9.521,12.0
87.47,-5.291,9.077,18.0
88.002,-5.305,8.645,18.0
89.498,-5.402,11.332,30.0
89.907,-5.405,10.881,25.0
82.433,-4.938,9.516,13.0
91.583,-5.465,10.054,17.0
87.899,-5.225,9.161,16.0
87.85,-5.204,8.668,14.0
89.618,-5.314,11.387,13.0
89.599,-5.293,10.882,19.0
82.506,-4.855,9.56,19.0
91.29,-5.351,10.059,26.0
87.72,-5.122,9.177,26.0
87.639,-5.098,8.682,21.0
88.795,-5.171,11.317,14.0
87.782,-5.091,10.696,22.0
90.018,-5.2,10.464,14.0
93.908,-5.404,10.382,10.0
87.701,-5.026,9.207,11.0
87.648,-5.003,8.714,27.0
0.0,0.0,0.0,0.0
87.735,-4.992,10.72,22.0
90.055,-5.103,10.499,15.0
91.804,-5.181,10.18,6.0
91.72,-5.155,9.658,14.0
88.138,-4.934,8.79,13.0
88.975,-4.985,11.399,25.0
87.566,-4.885,10.726,12.0
87.158,-4.843,10.187,18.0
82.729,-4.577,9.197,11.0
82.367,-4.537,8.697,8.0
88.508,-4.857,8.851,12.0
89.033,-4.888,11.43,12.0
90.258,-4.934,11.079,6.0
86.518,-4.708,10.134,22.0
90.073,-4.881,10.036,12.0
82.426,-4.448,8.722,16.0
84.604,-4.545,8.48,9.0
86.558,-4.652,11.132,10.0
86.92,-4.651,10.688,10.0
86.492,-4.609,10.148,20.0
81.764,-4.337,9.126,11.0
82.548,-4.359,8.751,14.0
84.395,-4.437,8.474,22.0
86.588,-4.554,11.151,14.0
87.06,-4.558,10.72,25.0
86.693,-4.518,10.186,26.0
81.642,-4.235,9.125,25.0
91.156,-4.708,9.676,5.0
84.209,-4.33,8.467,15.0
86.651,-4.455,11.171,20.0
81.035,-4.146,9.989,10.0
0.0,0.0,0.0,0.0
81.722,-4.142,9.143,15.0
83.96,-4.237,8.921,13.0
79.8,-4.009,8.031,18.0
86.359,-4.337,11.141,15.0
81.017,-4.05,9.993,23.0
86.044,-4.28,10.126,14.0
81.844,-4.051,9.162,17.0
82.122,-4.046,8.73,10.0
79.708,-3.909,8.026,27.0
86.383,-4.234,11.148,16.0
80.998,-3.95,9.994,24.0
82.36,-3.997,9.695,15.0
81.932,-3.958,9.173,25.0
82.058,-3.945,8.725,24.0
79.793,-3.818,8.034,28.0
86.619,-4.142,11.178,22.0
81.132,-3.86,10.009,28.0
82.337,-3.898,9.691,25.0
82.798,-3.9,9.268,29.0
81.939,-3.84,8.709,16.0
79.7,-3.717,8.022,27.0
86.025,-4.008,11.097,21.0
81.646,-3.785,10.068,21.0
82.308,-3.796,9.682,23.0
82.837,-3.801,9.266,12.0
79.901,-3.647,8.486,10.0
79.696,-3.62,8.015,26.0
85.616,-3.884,11.037,23.0
82.519,-3.724,10.167,28.0
81.412,-3.654,9.568,30.0
82.01,-3.662,9.164,11.0
80.185,-3.562,8.506,9.0
79.49,-3.513,7.984,25.0
81.689,-3.606,10.519,19.0
82.426,-3.619,10.143,24.0
81.52,-3.56,9.568,17.0
82.028,-3.563,9.153,11.0
80.168,-3.465,8.491,11.0
79.527,-3.417,7.973,24.0
81.406,-3.492,10.467,27.0
81.956,-3.497,10.07,22.0
78.128,-3.316,9.154,19.0
65.202,-2.752,7.262,25.0
80.085,-3.362,8.465,10.0
64.737,-2.703,6.476,10.0
0.0,0.0,0.0,0.0
81.771,-3.388,10.028,17.0
78.008,-3.213,9.121,26.0
65.213,-2.671,7.247,29.0
80.266,-3.27,8.463,10.0
64.685,-2.619,6.453,30.0
80.325,-3.246,10.287,12.0
81.857,-3.288,10.015,11.0
78.067,-3.118,9.105,36.0
65.226,-2.59,7.228,18.0
64.075,-2.53,6.736,25.0
64.695,-2.54,6.434,22.0
80.282,-3.143,10.256,24.0
77.441,-3.014,9.448,24.0
77.967,-3.016,9.066,28.0
64.358,-2.475,7.11,28.0
64.128,-2.452,6.719,27.0
64.905,-2.467,6.431,28.0
80.374,-3.045,10.238,30.0
77.659,-2.925,9.446,26.0
77.939,-2.918,9.033,19.0
64.352,-2.395,7.084,32.0
64.239,-2.375,6.705,31.0
65.276,-2.399,6.442,40.0
80.685,-2.956,10.243,20.0
77.71,-2.829,9.419,18.0
81.168,-2.936,9.373,16.0
64.51,-2.319,7.073,30.0
64.323,-2.298,6.685,31.0
65.633,-2.331,6.448,41.0
78.033,-2.76,9.871,23.0
77.365,-2.72,9.341,16.0
0.0,0.0,0.0,0.0
64.556,-2.24,7.047,36.0
64.523,-2.225,6.674,34.0
64.79,-2.22,6.332,27.0
77.452,-2.642,9.757,34.0
74.544,-2.527,8.961,14.0
77.681,-2.616,8.892,18.0
64.756,-2.166,7.034,32.0
64.55,-2.144,6.642,32.0
64.851,-2.141,6.303,25.0
77.238,-2.538,9.687,29.0
74.679,-2.437,8.935,29.0
65.25,-2.116,7.432,20.0
64.739,-2.085,6.995,35.0
64.84,-2.074,6.634,35.0
64.813,-2.059,6.261,24.0
76.73,-2.426,9.577,16.0
74.664,-2.344,8.888,21.0
65.451,-2.04,7.414,20.0
64.92,-2.009,6.974,32.0
64.681,-1.989,6.577,39.0
64.808,-1.979,6.22,20.0
77.395,-2.35,9.61,15.0
76.733,-2.314,9.084,11.0
65.455,-1.96,7.372,24.0
64.913,-1.93,6.931,40.0
64.542,-1.905,6.52,32.0
66.436,-1.947,6.331,22.0
74.58,-2.172,9.209,9.0
0.0,0.0,0.0,0.0
65.196,-1.872,7.297,39.0
64.955,-1.851,6.889,40.0
64.402,-1.822,6.46,30.0
66.236,-1.86,6.264,25.0
74.764,-2.086,9.176,38.0
74.9,-2.074,8.76,24.0
65.127,-1.79,7.24,40.0
64.714,-1.765,6.814,38.0
64.178,-1.737,6.388,38.0
66.179,-1.778,6.208,31.0
74.864,-1.996,9.13,32.0
74.924,-1.983,8.703,26.0
65.004,-1.707,7.174,34.0
64.614,-1.683,6.752,36.0
64.178,-1.659,6.337,38.0
65.946,-1.691,6.132,28.0
74.528,-1.896,9.026,31.0
76.082,-1.92,8.773,6.0
65.325,-1.636,7.155,29.0
64.644,-1.606,6.7,38.0
63.947,-1.577,6.26,32.0
66.005,-1.615,6.082,16.0
74.55,-1.807,8.965,31.0
65.275,-1.57,7.47,12.0
65.241,-1.556,7.089,40.0
64.783,-1.533,6.658,40.0
64.153,-1.506,6.223,36.0
67.012,-1.56,6.114,13.0
74.905,-1.726,8.939,15.0
65.423,-1.495,7.427,34.0
64.66,-1.466,6.966,37.0
64.862,-1.458,6.606,33.0
63.681,-1.419,6.118,34.0
0.0,0.0,0.0,0.0
65.123,-1.425,7.71,10.0
65.772,-1.427,7.404,27.0
64.696,-1.391,6.907,38.0
64.312,-1.371,6.488,33.0
63.524,-1.343,6.041,26.0
65.608,-1.375,5.862,21.0
74.741,-1.549,8.774,23.0
65.128,-1.337,7.266,29.0
64.548,-1.314,6.828,29.0
64.292,-1.297,6.422,30.0
63.631,-1.272,5.987,31.0
65.731,-1.302,5.805,23.0
68.395,-1.338,7.958,11.0
65.056,-1.261,7.191,26.0
64.625,-1.241,6.767,11.0
64.192,-1.222,6.344,33.0
63.66,-1.2,5.923,29.0
67.394,-1.259,5.881,16.0
68.346,-1.259,7.878,19.0
58.838,-1.074,6.44,20.0
64.496,-1.166,6.684,16.0
64.296,-1.151,6.283,37.0
65.637,-1.164,6.034,25.0
65.606,-1.152,5.653,16.0
0.0,0.0,0.0,0.0
65.383,-1.121,7.082,16.0
