X,Y,Z,Reflectivity
28.066,2.796,0.042,0.0
24.435,2.438,-0.101,0.0
21.495,2.148,-0.213,4.0
18.878,1.89,-0.295,0.0
17.053,1.71,-0.363,0.0
31.725,3.195,0.197,0.0
27.364,2.76,0.014,0.0
23.958,2.42,-0.123,0.0
21.211,2.146,-0.231,2.0
18.634,1.889,-0.309,0.0
16.855,1.711,-0.376,0.0
31.511,3.212,0.164,0.0
26.367,2.692,-0.012,1.0
23.348,2.387,-0.143,0.0
20.858,2.136,-0.249,0.0
18.189,1.866,-0.321,0.0
16.6,1.706,-0.387,0.0
29.302,3.022,0.123,0.0
26.038,2.689,-0.038,1.0
22.426,2.319,-0.161,0.0
20.002,2.072,-0.259,0.0
17.768,1.843,-0.331,0.0
16.231,1.687,-0.395,0.0
29.234,3.049,0.092,1.0
25.597,2.673,-0.065,0.0
21.889,2.289,-0.18,1.0
19.633,2.056,-0.275,0.0
17.499,1.835,-0.345,0.0
16.001,1.681,-0.407,0.0
28.943,3.05,0.06,1.0
24.479,2.583,-0.088,1.0
21.627,2.285,-0.2,4.0
19.124,2.024,-0.288,0.0
17.191,1.822,-0.357,0.0
15.798,1.676,-0.418,0.0
27.686,2.947,0.028,0.0
24.24,2.584,-0.113,1.0
21.312,2.275,-0.221,2.0
18.595,1.987,-0.301,0.0
16.907,1.809,-0.37,0.0
15.559,1.667,-0.429,0.0
26.784,2.878,-0.001,1.0
23.798,2.561,-0.136,0.0
20.885,2.25,-0.239,0.0
18.303,1.974,-0.316,0.0
16.666,1.8,-0.383,0.0
15.306,1.655,-0.439,0.0
26.074,2.828,-0.03,1.0
22.953,2.492,-0.157,0.0
20.305,2.207,-0.255,0.0
17.906,1.949,-0.329,0.0
16.348,1.782,-0.394,0.0
15.072,1.645,-0.449,0.0
25.781,2.821,-0.058,1.0
21.997,2.409,-0.175,0.0
19.632,2.152,-0.269,0.0
17.548,1.926,-0.342,0.0
15.999,1.758,-0.403,0.0
14.809,1.629,-0.458,0.0
24.407,2.692,-0.083,1.0
21.436,2.367,-0.195,2.0
19.198,2.122,-0.284,0.0
17.27,1.911,-0.356,0.0
15.811,1.751,-0.417,0.0
14.509,1.609,-0.465,0.0
24.097,2.679,-0.109,2.0
21.315,2.372,-0.218,2.0
18.625,2.074,-0.297,0.0
16.939,1.889,-0.369,0.0
15.525,1.733,-0.427,0.0
14.284,1.596,-0.475,0.0
23.765,2.661,-0.135,1.0
20.909,2.343,-0.238,0.0
18.339,2.057,-0.314,0.0
16.634,1.868,-0.382,0.0
15.269,1.716,-0.438,0.0
14.048,1.581,-0.483,0.0
22.953,2.588,-0.157,0.0
20.158,2.275,-0.253,0.0
17.899,2.022,-0.327,0.0
16.253,1.837,-0.392,0.0
15.065,1.705,-0.45,0.0
13.778,1.561,-0.49,0.0
22.085,2.506,-0.178,0.0
19.69,2.236,-0.271,0.0
17.56,1.996,-0.342,0.0
15.972,1.817,-0.404,0.0
14.786,1.683,-0.459,0.0
13.607,1.551,-0.5,0.0
21.685,2.475,-0.2,0.0
19.105,2.182,-0.286,0.0
17.243,1.971,-0.356,0.0
15.796,1.807,-0.418,0.0
14.549,1.666,-0.469,0.0
13.404,1.536,-0.509,0.0
20.966,2.407,-0.218,0.0
18.703,2.148,-0.302,0.0
16.945,1.948,-0.37,0.0
15.426,1.774,-0.427,0.0
14.319,1.648,-0.479,0.0
13.235,1.525,-0.518,0.0
20.515,2.367,-0.238,0.0
18.356,2.119,-0.318,0.0
16.65,1.923,-0.384,0.0
15.224,1.76,-0.44,0.0
13.971,1.616,-0.484,0.0
13.028,1.508,-0.526,0.0
20.073,2.327,-0.257,0.0
17.867,2.072,-0.331,0.0
16.221,1.882,-0.393,0.0
15.011,1.743,-0.451,0.0
13.766,1.6,-0.493,0.0
12.809,1.49,-0.532,0.0
19.731,2.297,-0.276,0.0
17.495,2.038,-0.345,0.0
15.982,1.862,-0.407,0.0
14.66,1.709,-0.459,0.0
13.56,1.582,-0.502,0.0
12.633,1.475,-0.54,0.0
19.028,2.224,-0.289,0.0
17.136,2.003,-0.359,0.0
15.771,1.845,-0.42,0.0
14.449,1.691,-0.47,0.0
13.384,1.568,-0.512,0.0
12.492,1.464,-0.549,0.0
18.54,2.174,-0.304,0.0
16.835,1.975,-0.373,0.0
15.442,1.813,-0.431,0.0
14.176,1.665,-0.478,0.0
13.13,1.543,-0.518,0.0
12.403,1.458,-0.561,0.0
18.184,2.139,-0.32,0.0
16.495,1.941,-0.385,0.0
15.174,1.786,-0.441,0.0
13.936,1.641,-0.487,0.0
12.966,1.528,-0.527,0.0
12.189,1.437,-0.566,0.0
17.693,2.087,-0.333,0.0
16.139,1.904,-0.396,0.0
14.845,1.752,-0.45,0.0
13.701,1.618,-0.495,0.0
12.775,1.509,-0.535,0.0
12.087,1.429,-0.576,0.0
17.398,2.057,-0.349,0.0
15.902,1.88,-0.41,0.0
14.588,1.726,-0.46,0.0
13.485,1.596,-0.504,0.0
12.613,1.493,-0.544,0.0
11.796,1.397,-0.576,0.0
17.06,2.021,-0.363,0.0
15.687,1.858,-0.423,0.0
14.379,1.704,-0.471,0.0
13.298,1.576,-0.513,0.0
12.491,1.481,-0.554,0.0
11.646,1.382,-0.583,0.0
16.781,1.99,-0.377,0.0
15.366,1.823,-0.433,0.0
14.116,1.675,-0.479,0.0
13.09,1.554,-0.521,0.0
12.315,1.462,-0.56,0.0
11.508,1.367,-0.59,0.0
16.427,1.951,-0.388,0.0
15.052,1.788,-0.442,0.0
13.872,1.648,-0.487,0.0
12.919,1.535,-0.529,0.0
12.105,1.439,-0.565,0.0
11.318,1.346,-0.594,0.0
16.064,1.909,-0.399,0.0
14.809,1.76,-0.453,0.0
13.612,1.618,-0.494,0.0
12.735,1.514,-0.537,0.0
11.93,1.419,-0.572,0.0
11.245,1.338,-0.604,0.0
15.833,1.882,-0.412,0.0
14.575,1.733,-0.463,0.0
13.439,1.598,-0.504,0.0
12.59,1.497,-0.546,0.0
11.838,1.408,-0.581,0.0
11.065,1.316,-0.607,0.0
15.545,1.848,-0.423,0.0
14.312,1.701,-0.471,0.0
13.273,1.578,-0.513,0.0
12.444,1.479,-0.554,0.0
11.669,1.388,-0.587,0.0
11.011,1.31,-0.617,0.0
15.263,1.813,-0.433,0.0
14.038,1.668,-0.479,0.0
13.045,1.55,-0.52,0.0
12.344,1.467,-0.564,0.0
11.436,1.359,-0.588,0.0
10.879,1.293,-0.622,0.0
15.022,1.783,-0.444,0.0
13.805,1.639,-0.487,0.0
12.87,1.528,-0.528,0.0
12.122,1.439,-0.568,0.0
11.346,1.347,-0.597,0.0
10.747,1.276,-0.627,0.0
14.8,1.755,-0.454,0.0
13.603,1.613,-0.495,0.0
12.706,1.506,-0.535,0.0
11.947,1.416,-0.573,0.0
11.218,1.33,-0.603,0.0
10.584,1.255,-0.63,0.0
14.485,1.715,-0.461,0.0
13.385,1.584,-0.503,0.0
12.573,1.488,-0.544,0.0
11.744,1.39,-0.577,0.0
11.09,1.312,-0.609,0.0
10.456,1.237,-0.634,0.0
14.277,1.687,-0.47,0.0
13.276,1.568,-0.513,0.0
12.449,1.47,-0.553,0.0
11.585,1.368,-0.582,0.0
10.984,1.297,-0.615,0.0
10.405,1.229,-0.642,0.0
14.061,1.657,-0.479,0.0
13.036,1.536,-0.518,0.0
12.254,1.444,-0.558,0.0
11.463,1.35,-0.588,0.0
10.893,1.283,-0.622,0.0
10.261,1.209,-0.645,0.0
13.816,1.624,-0.485,0.0
12.86,1.511,-0.525,0.0
12.11,1.423,-0.564,0.0
11.305,1.328,-0.593,0.0
10.726,1.26,-0.624,0.0
10.128,1.189,-0.648,0.0
13.64,1.598,-0.494,0.0
12.701,1.488,-0.533,0.0
11.933,1.397,-0.569,0.0
11.215,1.313,-0.6,0.0
10.612,1.242,-0.629,0.0
10.009,1.171,-0.651,0.0
13.426,1.568,-0.5,0.0
12.585,1.469,-0.541,0.0
11.773,1.374,-0.574,0.0
11.079,1.292,-0.604,0.0
10.486,1.223,-0.632,0.0
9.87,1.151,-0.652,0.0
13.273,1.544,-0.509,0.0
12.476,1.451,-0.549,0.0
11.643,1.353,-0.579,0.0
10.988,1.277,-0.611,0.0
10.417,1.21,-0.639,0.0
9.782,1.136,-0.656,0.0
13.134,1.521,-0.517,0.0
12.302,1.424,-0.554,0.0
11.532,1.335,-0.586,0.0
10.874,1.258,-0.616,0.0
10.31,1.192,-0.643,0.0
9.694,1.121,-0.66,0.0
12.933,1.491,-0.522,0.0
12.223,1.409,-0.563,0.0
11.41,1.314,-0.591,0.0
10.784,1.242,-0.621,0.0
10.179,1.171,-0.645,0.0
9.6,1.104,-0.663,0.0
12.803,1.469,-0.529,0.0
12.076,1.384,-0.568,0.0
11.311,1.296,-0.597,0.0
10.661,1.221,-0.625,0.0
10.099,1.156,-0.65,0.0
9.553,1.093,-0.669,0.0
12.645,1.443,-0.535,0.0
11.849,1.351,-0.569,0.0
11.144,1.27,-0.599,0.0
10.566,1.203,-0.629,0.0
9.916,1.129,-0.647,0.0
9.466,1.077,-0.672,0.0
12.539,1.422,-0.542,0.0
11.723,1.329,-0.574,0.0
11.063,1.253,-0.605,0.0
10.465,1.185,-0.633,0.0
9.884,1.118,-0.654,0.0
9.373,1.06,-0.674,0.0
12.439,1.402,-0.549,0.0
11.623,1.309,-0.579,0.0
11.003,1.239,-0.611,0.0
10.363,1.166,-0.636,0.0
9.758,1.097,-0.655,0.0
9.3,1.045,-0.677,0.0
12.305,1.378,-0.554,0.0
11.516,1.289,-0.584,0.0
10.897,1.219,-0.615,0.0
10.305,1.152,-0.642,0.0
9.713,1.085,-0.66,0.0
9.195,1.026,-0.678,0.0
12.168,1.353,-0.558,0.0
11.415,1.269,-0.589,0.0
10.813,1.201,-0.62,0.0
10.262,1.139,-0.648,0.0
9.598,1.064,-0.661,0.0
9.098,1.008,-0.678,0.0
12.076,1.333,-0.564,0.0
11.312,1.248,-0.593,0.0
10.708,1.18,-0.622,0.0
10.044,1.106,-0.642,0.0
9.55,1.051,-0.665,0.0
9.051,0.995,-0.682,0.0
11.98,1.313,-0.569,0.0
11.206,1.227,-0.596,0.0
10.646,1.164,-0.627,0.0
9.946,1.087,-0.644,0.0
9.475,1.035,-0.668,0.0
8.964,0.978,-0.683,0.0
11.878,1.291,-0.574,0.0
11.095,1.205,-0.599,0.0
10.482,1.137,-0.626,0.0
9.917,1.075,-0.65,0.0
9.418,1.02,-0.671,0.0
8.898,0.963,-0.685,0.0
11.744,1.265,-0.576,0.0
11.046,1.189,-0.605,0.0
10.428,1.121,-0.63,0.0
9.885,1.062,-0.655,0.0
9.314,1.0,-0.67,0.0
8.858,0.95,-0.688,0.0
11.631,1.242,-0.579,0.0
10.955,1.169,-0.607,0.0
10.395,1.108,-0.636,0.0
9.739,1.037,-0.652,0.0
9.364,0.996,-0.68,0.0
8.85,0.94,-0.694,0.0
11.503,1.217,-0.58,0.0
10.892,1.151,-0.612,0.0
10.311,1.088,-0.638,0.0
9.691,1.022,-0.655,0.0
9.315,0.981,-0.683,0.0
8.827,0.929,-0.698,0.0
11.434,1.198,-0.585,0.0
10.815,1.132,-0.614,0.0
10.231,1.069,-0.639,0.0
9.622,1.005,-0.657,0.0
9.181,0.958,-0.679,0.0
8.778,0.915,-0.699,0.0
11.387,1.181,-0.589,0.0
10.78,1.117,-0.619,0.0
10.096,1.045,-0.637,0.0
9.563,0.988,-0.659,0.0
9.134,0.943,-0.681,0.0
8.694,0.896,-0.698,0.0
11.307,1.16,-0.592,0.0
10.694,1.096,-0.62,0.0
10.057,1.029,-0.641,0.0
9.549,0.976,-0.663,0.0
9.07,0.926,-0.682,0.0
8.634,0.881,-0.698,0.0
11.23,1.14,-0.594,0.0
10.626,1.077,-0.622,0.0
10.02,1.014,-0.644,0.0
9.519,0.962,-0.667,0.0
9.065,0.915,-0.686,0.0
8.622,0.869,-0.702,0.0
11.168,1.12,-0.597,0.0
10.558,1.058,-0.624,0.0
9.901,0.991,-0.641,0.0
9.442,0.943,-0.666,0.0
0.0,0.0,0.0,0.0
8.586,0.856,-0.703,0.0
11.102,1.101,-0.599,0.0
10.52,1.041,-0.627,0.0
9.934,0.982,-0.648,0.0
9.421,0.93,-0.669,0.0
8.881,0.875,-0.681,0.0
8.575,0.844,-0.706,0.0
11.022,1.079,-0.599,0.0
10.465,1.023,-0.628,0.0
9.836,0.96,-0.646,0.0
9.429,0.919,-0.674,0.0
8.848,0.861,-0.682,0.0
8.545,0.831,-0.708,0.0
10.984,1.062,-0.602,0.0
10.425,1.006,-0.63,0.0
9.807,0.945,-0.648,0.0
9.342,0.899,-0.671,0.0
8.858,0.851,-0.687,0.0
8.483,0.814,-0.706,0.0
10.956,1.045,-0.605,0.0
10.34,0.985,-0.629,0.0
9.828,0.935,-0.653,0.0
9.306,0.883,-0.672,0.0
8.796,0.834,-0.685,0.0
8.443,0.799,-0.706,0.0
10.905,1.026,-0.606,0.0
10.323,0.97,-0.631,0.0
9.809,0.92,-0.655,0.0
9.257,0.867,-0.672,0.0
8.834,0.826,-0.691,0.0
8.458,0.789,-0.709,0.0
10.848,1.007,-0.606,0.0
10.331,0.957,-0.635,0.0
9.744,0.901,-0.654,0.0
9.243,0.853,-0.673,0.0
8.794,0.81,-0.69,0.0
8.438,0.776,-0.71,0.0
10.831,0.991,-0.608,0.0
10.231,0.934,-0.632,0.0
9.683,0.882,-0.652,0.0
9.26,0.842,-0.677,0.0
8.784,0.797,-0.692,0.0
8.435,0.764,-0.712,0.0
10.817,0.974,-0.609,0.0
10.261,0.923,-0.636,0.0
9.703,0.871,-0.656,0.0
9.144,0.819,-0.67,0.0
8.756,0.783,-0.691,0.0
8.432,0.752,-0.713,0.0
10.807,0.958,-0.611,0.0
10.211,0.904,-0.635,0.0
9.674,0.854,-0.656,0.0
9.128,0.805,-0.671,0.0
8.766,0.771,-0.694,0.0
8.427,0.74,-0.714,0.0
10.746,0.938,-0.609,0.0
10.175,0.886,-0.634,0.0
9.73,0.846,-0.661,0.0
9.133,0.792,-0.672,0.0
8.69,0.752,-0.689,0.0
8.401,0.726,-0.713,0.0
10.742,0.922,-0.61,0.0
10.17,0.871,-0.635,0.0
9.67,0.826,-0.658,0.0
9.218,0.786,-0.68,0.0
8.735,0.743,-0.693,0.0
8.387,0.712,-0.713,0.0
10.69,0.902,-0.608,0.0
10.195,0.859,-0.637,0.0
9.635,0.809,-0.656,0.0
9.079,0.761,-0.67,0.0
8.733,0.73,-0.693,0.0
8.375,0.699,-0.712,0.0
10.757,0.892,-0.612,0.0
10.223,0.846,-0.639,0.0
9.661,0.797,-0.658,0.0
9.166,0.755,-0.676,0.0
8.735,0.718,-0.694,0.0
8.391,0.688,-0.713,0.0
10.731,0.874,-0.611,0.0
10.194,0.828,-0.637,0.0
9.644,0.781,-0.656,0.0
9.13,0.738,-0.673,0.0
8.718,0.703,-0.692,0.0
8.387,0.675,-0.713,0.0
10.749,0.859,-0.611,0.0
10.151,0.809,-0.634,0.0
9.65,0.767,-0.656,0.0
9.136,0.724,-0.673,0.0
8.774,0.694,-0.696,0.0
8.394,0.662,-0.712,0.0
10.738,0.842,-0.609,0.0
10.183,0.796,-0.635,0.0
9.677,0.755,-0.657,0.0
9.192,0.715,-0.676,0.0
8.795,0.682,-0.696,0.0
8.379,0.648,-0.71,0.0
10.759,0.827,-0.609,0.0
10.221,0.784,-0.636,0.0
9.713,0.742,-0.658,0.0
9.145,0.697,-0.671,0.0
8.771,0.667,-0.693,0.0
8.426,0.639,-0.713,0.0
10.763,0.811,-0.607,0.0
10.237,0.769,-0.635,0.0
9.646,0.723,-0.652,0.0
9.241,0.69,-0.677,0.0
8.799,0.655,-0.693,0.0
8.397,0.624,-0.708,0.0
10.772,0.795,-0.606,0.0
10.239,0.753,-0.632,0.0
9.735,0.714,-0.655,0.0
9.217,0.674,-0.673,0.0
8.804,0.642,-0.691,0.0
8.421,0.612,-0.708,0.0
10.813,0.781,-0.605,0.0
10.226,0.736,-0.629,0.0
9.699,0.696,-0.65,0.0
9.179,0.657,-0.667,0.0
8.817,0.629,-0.69,0.0
8.409,0.598,-0.705,0.0
10.861,0.767,-0.605,0.0
10.312,0.726,-0.631,0.0
9.72,0.682,-0.649,0.0
9.279,0.649,-0.672,0.0
8.825,0.616,-0.688,0.0
8.448,0.587,-0.705,0.0
10.863,0.75,-0.601,0.0
10.33,0.711,-0.628,0.0
9.815,0.673,-0.651,0.0
9.3,0.636,-0.67,0.0
8.87,0.605,-0.688,0.0
8.479,0.576,-0.704,0.0
10.944,0.739,-0.601,0.0
10.342,0.695,-0.625,0.0
0.0,0.0,0.0,0.0
9.286,0.62,-0.665,0.0
8.863,0.59,-0.684,0.0
8.56,0.568,-0.708,0.0
11.016,0.726,-0.601,0.0
10.44,0.685,-0.627,0.0
9.824,0.643,-0.644,0.0
9.401,0.613,-0.669,0.0
8.925,0.58,-0.684,0.0
8.561,0.554,-0.704,0.0
11.102,0.714,-0.6,0.0
10.466,0.67,-0.623,0.0
9.94,0.634,-0.646,0.0
9.441,0.6,-0.667,0.0
8.887,0.563,-0.677,0.0
8.58,0.542,-0.701,0.0
11.089,0.695,-0.593,0.0
10.523,0.657,-0.621,0.0
9.956,0.619,-0.642,0.0
9.402,0.582,-0.659,0.0
9.06,0.559,-0.685,0.0
8.628,0.531,-0.7,0.0
11.161,0.681,-0.591,0.0
10.497,0.638,-0.613,0.0
9.972,0.604,-0.637,0.0
9.498,0.573,-0.66,0.0
9.079,0.546,-0.681,0.0
8.624,0.516,-0.694,0.0
11.247,0.669,-0.589,0.0
10.631,0.629,-0.615,0.0
10.055,0.593,-0.637,0.0
0.0,0.0,0.0,0.0
9.11,0.533,-0.678,0.0
8.727,0.508,-0.697,0.0
11.327,0.655,-0.586,0.0
10.706,0.617,-0.612,0.0
10.295,0.59,-0.645,0.0
0.0,0.0,0.0,0.0
9.171,0.521,-0.676,0.0
8.746,0.495,-0.693,0.0
11.42,0.642,-0.583,0.0
10.783,0.604,-0.609,0.0
10.294,0.574,-0.638,0.0
0.0,0.0,0.0,0.0
9.245,0.511,-0.675,0.0
8.775,0.483,-0.689,0.0
11.44,0.625,-0.576,0.0
0.0,0.0,0.0,0.0
10.282,0.556,-0.629,0.0
9.699,0.522,-0.648,0.0
9.248,0.496,-0.668,0.0
8.863,0.473,-0.689,0.0
11.564,0.613,-0.573,0.0
10.97,0.579,-0.603,0.0
10.334,0.543,-0.625,0.0
9.839,0.514,-0.649,0.0
9.358,0.487,-0.669,0.0
8.898,0.461,-0.684,0.0
11.701,0.602,-0.571,0.0
10.994,0.562,-0.596,0.0
10.421,0.53,-0.621,0.0
9.914,0.502,-0.646,0.0
9.367,0.472,-0.661,0.0
8.935,0.448,-0.679,0.0
11.779,0.587,-0.564,0.0
11.119,0.551,-0.593,0.0
10.49,0.517,-0.616,0.0
0.0,0.0,0.0,0.0
9.441,0.461,-0.658,0.0
8.993,0.437,-0.676,0.0
11.924,0.575,-0.561,0.0
11.288,0.541,-0.592,0.0
10.63,0.507,-0.615,0.0
0.0,0.0,0.0,0.0
9.569,0.452,-0.658,0.0
9.078,0.426,-0.674,0.0
12.035,0.561,-0.555,0.0
11.363,0.527,-0.585,0.0
10.697,0.493,-0.609,0.0
10.097,0.463,-0.63,0.0
9.6,0.438,-0.651,0.0
9.13,0.414,-0.669,0.0
12.173,0.548,-0.549,0.0
11.448,0.513,-0.578,0.0
10.698,0.477,-0.598,0.0
10.222,0.453,-0.628,0.0
9.784,0.431,-0.654,0.0
9.217,0.404,-0.666,0.0
12.342,0.536,-0.544,0.0
11.588,0.501,-0.573,0.0
10.956,0.47,-0.601,0.0
10.316,0.44,-0.623,0.0
9.766,0.415,-0.642,0.0
9.321,0.393,-0.663,0.0
12.442,0.521,-0.536,0.0
11.713,0.488,-0.567,0.0
11.054,0.458,-0.595,0.0
10.447,0.43,-0.619,0.0
9.951,0.407,-0.644,0.0
9.398,0.382,-0.659,0.0
12.605,0.508,-0.529,0.0
11.847,0.475,-0.561,0.0
11.174,0.445,-0.589,0.0
10.53,0.417,-0.613,0.0
10.006,0.394,-0.636,0.0
9.533,0.373,-0.657,0.0
12.787,0.496,-0.522,0.0
12.017,0.463,-0.555,0.0
11.318,0.433,-0.584,0.0
10.706,0.407,-0.61,0.0
10.143,0.383,-0.633,0.0
9.632,0.362,-0.653,0.0
12.89,0.48,-0.511,0.0
12.181,0.451,-0.548,0.0
11.417,0.42,-0.575,0.0
10.811,0.395,-0.604,0.0
10.288,0.373,-0.63,0.0
9.793,0.353,-0.652,0.0
13.076,0.468,-0.503,0.0
12.378,0.439,-0.542,0.0
11.642,0.41,-0.572,0.0
11.022,0.386,-0.602,0.0
10.397,0.361,-0.623,0.0
9.888,0.341,-0.646,0.0
13.285,0.455,-0.494,0.0
12.486,0.424,-0.531,0.0
11.806,0.398,-0.565,0.0
11.15,0.374,-0.595,0.0
10.47,0.348,-0.614,0.0
9.956,0.329,-0.637,0.0
13.513,0.443,-0.486,0.0
12.737,0.414,-0.526,0.0
11.949,0.385,-0.557,0.0
11.285,0.361,-0.587,0.0
10.662,0.339,-0.612,0.0
10.095,0.318,-0.633,0.0
13.765,0.43,-0.476,0.0
12.909,0.4,-0.515,0.0
12.147,0.374,-0.55,0.0
11.415,0.349,-0.579,0.0
10.752,0.326,-0.602,0.0
10.272,0.309,-0.63,0.0
13.974,0.417,-0.465,0.0
13.107,0.388,-0.506,0.0
12.379,0.363,-0.543,0.0
11.624,0.338,-0.573,0.0
10.932,0.315,-0.597,0.0
10.358,0.296,-0.621,0.0
14.216,0.403,-0.453,0.0
13.405,0.377,-0.498,0.0
12.565,0.35,-0.534,0.0
11.731,0.324,-0.562,0.0
11.152,0.306,-0.593,0.0
10.582,0.288,-0.619,0.0
14.509,0.391,-0.442,0.0
13.625,0.364,-0.487,0.0
12.787,0.339,-0.525,0.0
11.93,0.313,-0.554,0.0
11.313,0.294,-0.585,0.0
10.727,0.277,-0.612,0.0
14.836,0.379,-0.43,0.0
13.831,0.35,-0.474,0.0
12.944,0.325,-0.512,0.0
12.213,0.304,-0.549,0.0
11.504,0.283,-0.578,0.0
10.916,0.266,-0.606,0.0
15.092,0.365,-0.415,0.0
14.062,0.337,-0.461,0.0
13.174,0.312,-0.501,0.0
12.376,0.291,-0.538,0.0
11.679,0.272,-0.569,0.0
11.02,0.254,-0.595,0.0
15.577,0.356,-0.405,0.0
14.371,0.325,-0.449,0.0
13.442,0.301,-0.491,0.0
12.548,0.278,-0.526,0.0
11.883,0.26,-0.561,0.0
11.204,0.243,-0.588,0.0
15.921,0.342,-0.389,0.0
14.619,0.311,-0.434,0.0
13.727,0.289,-0.48,0.0
12.868,0.268,-0.519,0.0
12.094,0.249,-0.551,0.0
11.415,0.233,-0.581,0.0
16.338,0.33,-0.373,0.0
15.009,0.299,-0.422,0.0
14.008,0.276,-0.467,0.0
13.044,0.255,-0.505,0.0
12.349,0.238,-0.543,0.0
11.595,0.221,-0.571,0.0
16.656,0.315,-0.354,0.0
15.411,0.288,-0.408,0.0
14.309,0.264,-0.454,0.0
13.333,0.243,-0.495,0.0
12.524,0.226,-0.531,0.0
11.831,0.211,-0.563,0.0
17.084,0.301,-0.335,0.0
15.807,0.275,-0.393,0.0
14.704,0.253,-0.443,0.0
13.634,0.232,-0.483,0.0
12.861,0.216,-0.523,0.0
12.032,0.199,-0.553,0.0
17.673,0.29,-0.317,0.0
16.273,0.263,-0.377,0.0
14.892,0.238,-0.423,0.0
13.862,0.219,-0.468,0.0
13.043,0.203,-0.508,0.0
12.301,0.189,-0.544,0.0
18.313,0.278,-0.297,0.0
16.64,0.249,-0.357,0.0
15.405,0.228,-0.411,0.0
14.147,0.206,-0.453,0.0
13.348,0.192,-0.498,0.0
12.542,0.178,-0.533,0.0
18.938,0.265,-0.275,0.0
17.06,0.236,-0.337,0.0
15.873,0.216,-0.397,0.0
14.592,0.196,-0.442,0.0
13.655,0.181,-0.485,0.0
12.782,0.166,-0.521,0.0
19.781,0.254,-0.253,0.0
17.74,0.225,-0.319,0.0
16.294,0.203,-0.378,0.0
14.938,0.183,-0.426,0.0
13.873,0.168,-0.468,0.0
13.046,0.155,-0.509,0.0
20.865,0.245,-0.23,0.0
18.304,0.211,-0.297,0.0
16.718,0.19,-0.358,0.0
15.424,0.172,-0.413,0.0
14.185,0.156,-0.453,0.0
13.368,0.144,-0.497,0.0
21.992,0.234,-0.202,2.0
18.972,0.198,-0.273,0.0
17.113,0.176,-0.336,0.0
15.849,0.16,-0.395,0.0
14.605,0.145,-0.44,0.0
13.678,0.133,-0.484,0.0
22.714,0.218,-0.168,0.0
19.885,0.187,-0.25,0.0
17.835,0.164,-0.317,0.0
16.346,0.148,-0.377,0.0
15.162,0.134,-0.429,0.0
14.015,0.122,-0.469,0.0
23.875,0.204,-0.132,0.0
21.163,0.177,-0.227,1.0
18.402,0.151,-0.293,0.0
16.776,0.134,-0.356,0.0
15.549,0.122,-0.411,0.0
14.25,0.109,-0.45,0.0
25.027,0.188,-0.091,0.0
22.192,0.163,-0.196,2.0
19.198,0.138,-0.27,0.0
17.281,0.121,-0.334,0.0
15.998,0.11,-0.393,0.0
14.731,0.098,-0.438,0.0
25.943,0.17,-0.046,0.0
23.09,0.148,-0.161,0.0
20.408,0.127,-0.248,0.0
17.966,0.109,-0.313,0.0
16.458,0.097,-0.372,0.0
15.166,0.087,-0.422,0.0
26.983,0.151,0.003,0.0
24.363,0.133,-0.123,0.0
21.408,0.113,-0.219,3.0
18.635,0.096,-0.289,0.0
16.898,0.084,-0.35,0.0
15.644,0.075,-0.405,0.0
28.3,0.133,0.058,1.0
25.293,0.115,-0.079,0.0
22.407,0.098,-0.185,1.0
19.496,0.082,-0.264,0.0
17.505,0.071,-0.328,0.0
16.207,0.064,-0.387,0.0
28.798,0.11,0.115,1.0
26.379,0.097,-0.03,0.0
23.381,0.082,-0.148,0.0
20.873,0.07,-0.242,1.0
18.255,0.059,-0.306,0.0
16.658,0.051,-0.366,0.0
30.227,0.09,0.18,0.0
27.398,0.078,0.021,0.0
24.744,0.066,-0.108,0.0
21.662,0.055,-0.208,3.0
18.964,0.046,-0.28,0.0
17.147,0.039,-0.342,0.0
0.0,0.0,0.0,0.0
28.678,0.058,0.079,2.0
25.706,0.049,-0.061,0.0
23.211,0.041,-0.177,0.0
19.897,0.032,-0.254,0.0
17.811,0.026,-0.32,0.0
33.554,0.046,0.334,0.0
29.884,0.037,0.143,0.0
26.953,0.03,-0.009,0.0
23.889,0.024,-0.134,0.0
21.151,0.018,-0.228,3.0
18.441,0.014,-0.294,0.0
35.837,0.022,0.43,0.0
31.206,0.016,0.212,0.0
28.189,0.011,0.046,1.0
25.145,0.007,-0.09,0.0
22.011,0.003,-0.192,0.0
19.523,0.0,-0.271,0.0
0.0,0.0,0.0,0.0
33.224,-0.006,0.294,0.0
28.768,-0.008,0.106,1.0
26.109,-0.01,-0.04,0.0
23.583,-0.012,-0.158,0.0
20.868,-0.013,-0.247,0.0
41.631,-0.03,0.668,0.0
34.954,-0.029,0.381,0.0
30.268,-0.028,0.173,0.0
27.498,-0.029,0.013,0.0
24.611,-0.028,-0.114,0.0
21.51,-0.027,-0.211,0.0
0.0,0.0,0.0,0.0
0.0,0.0,0.0,0.0
31.631,-0.05,0.246,0.0
28.733,-0.048,0.072,6.0
25.632,-0.045,-0.066,0.0
23.115,-0.043,-0.179,0.0
0.0,0.0,0.0,0.0
40.009,-0.082,0.6,0.0
33.467,-0.072,0.33,0.0
28.88,-0.065,0.132,3.0
26.81,-0.062,-0.014,0.0
23.954,-0.058,-0.136,0.0
57.631,-0.146,1.282,0.0
43.169,-0.113,0.737,0.0
35.86,-0.097,0.428,0.0
31.396,-0.088,0.21,1.0
28.496,-0.082,0.043,2.0
25.233,-0.074,-0.09,0.0
0.0,0.0,0.0,0.0
0.0,0.0,0.0,0.0
39.763,-0.128,0.557,0.0
33.206,-0.109,0.291,1.0
28.812,-0.097,0.104,6.0
26.309,-0.091,-0.04,0.0
79.933,-0.285,2.111,1.0
0.0,0.0,0.0,0.0
0.0,0.0,0.0,0.0
35.575,-0.134,0.386,0.0
30.677,-0.118,0.175,1.0
27.71,-0.108,0.016,0.0
0.0,0.0,0.0,0.0
63.775,-0.261,1.491,0.0
0.0,0.0,0.0,0.0
37.895,-0.16,0.492,0.0
32.765,-0.14,0.257,1.0
28.752,-0.124,0.077,6.0
83.227,-0.369,2.548,4.0
0.0,0.0,0.0,0.0
0.0,0.0,0.0,0.0
40.437,-0.186,0.609,0.0
33.292,-0.155,0.33,0.0
28.871,-0.136,0.138,2.0
104.539,-0.504,3.42,8.0
80.667,-0.393,2.224,2.0
0.0,0.0,0.0,0.0
0.0,0.0,0.0,0.0
37.235,-0.186,0.448,0.0
31.552,-0.159,0.217,1.0
108.413,-0.56,3.777,3.0
82.87,-0.431,2.46,5.0
0.0,0.0,0.0,0.0
0.0,0.0,0.0,0.0
38.546,-0.205,0.544,0.0
33.242,-0.178,0.298,0.0
0.0,0.0,0.0,0.0
90.336,-0.497,2.87,5.0
81.043,-0.449,2.158,1.0
0.0,0.0,0.0,0.0
0.0,0.0,0.0,0.0
0.0,0.0,0.0,0.0
0.0,0.0,0.0,0.0
104.831,-0.604,3.553,4.0
82.74,-0.479,2.377,4.0
0.0,0.0,0.0,0.0
0.0,0.0,0.0,0.0
38.224,-0.224,0.503,0.0
194.539,-1.16,8.001,8.0
0.0,0.0,0.0,0.0
90.336,-0.542,2.783,5.0
79.009,-0.475,2.02,0.0
0.0,0.0,0.0,0.0
0.0,0.0,0.0,0.0
194.285,-1.195,8.401,22.0
0.0,0.0,0.0,0.0
104.615,-0.646,3.445,8.0
81.438,-0.504,2.253,1.0
0.0,0.0,0.0,0.0
0.0,0.0,0.0,0.0
193.563,-1.221,8.779,21.0
0.0,0.0,0.0,0.0
121.093,-0.765,4.242,2.0
82.927,-0.524,2.47,5.0
0.0,0.0,0.0,0.0
0.0,0.0,0.0,0.0
193.828,-1.244,9.197,17.0
194.347,-1.247,8.217,20.0
0.0,0.0,0.0,0.0
90.533,-0.58,2.885,7.0
81.426,-0.522,2.176,2.0
0.0,0.0,0.0,0.0
193.744,-1.258,9.599,6.0
193.785,-1.257,8.602,14.0
0.0,0.0,0.0,0.0
105.029,-0.679,3.566,3.0
82.678,-0.534,2.381,5.0
0.0,0.0,0.0,0.0
193.907,-1.267,10.015,21.0
193.764,-1.263,9.003,19.0
194.407,-1.264,8.032,9.0
0.0,0.0,0.0,0.0
90.463,-0.585,2.793,8.0
0.0,0.0,0.0,0.0
193.753,-1.266,10.411,21.0
193.65,-1.261,9.403,20.0
194.197,-1.261,8.427,11.0
0.0,0.0,0.0,0.0
104.572,-0.673,3.447,7.0
81.657,-0.523,2.271,3.0
179.196,-1.164,10.001,17.0
193.839,-1.254,9.814,9.0
193.476,-1.245,8.796,23.0
194.587,-1.246,7.823,5.0
0.0,0.0,0.0,0.0
90.322,-0.572,2.698,4.0
179.013,-1.149,10.362,4.0
193.76,-1.237,10.214,23.0
193.806,-1.23,9.216,9.0
194.306,-1.225,8.213,16.0
0.0,0.0,0.0,0.0
104.593,-0.651,3.338,7.0
171.635,-1.083,10.286,3.0
179.289,-1.123,9.817,15.0
179.282,-1.115,8.885,4.0
194.02,-1.197,8.593,20.0
0.0,0.0,0.0,0.0
0.0,0.0,0.0,0.0
106.086,-0.653,6.576,9.0
179.122,-1.094,10.171,16.0
193.921,-1.174,10.008,20.0
193.83,-1.163,8.981,12.0
194.393,-1.156,7.998,15.0
0.0,0.0,0.0,0.0
96.265,-0.574,6.163,15.0
171.699,-1.015,10.101,5.0
179.259,-1.049,9.614,13.0
193.855,-1.123,9.373,5.0
194.375,-1.114,8.391,17.0
0.0,0.0,0.0,0.0
96.451,-0.554,6.367,9.0
128.0,-0.727,7.785,8.0
179.14,-1.005,9.965,27.0
179.346,-0.995,9.029,7.0
193.992,-1.063,8.76,18.0
0.0,0.0,0.0,0.0
87.305,-0.479,5.938,16.0
96.283,-0.521,6.048,15.0
179.043,-0.957,10.313,6.0
179.23,-0.944,9.376,23.0
179.244,-0.931,8.447,16.0
179.033,-0.916,7.51,17.0
87.541,-0.454,6.128,20.0
96.33,-0.492,6.242,15.0
171.079,-0.861,10.196,5.0
193.845,-0.96,10.526,8.0
179.147,-0.872,8.795,23.0
179.045,-0.857,7.862,29.0
82.695,-0.401,5.953,9.0
96.188,-0.458,6.423,15.0
96.385,-0.451,5.933,11.0
180.467,-0.829,10.153,6.0
179.267,-0.809,9.152,12.0
179.04,-0.791,8.208,36.0
82.749,-0.371,6.119,11.0
87.448,-0.384,6.009,16.0
96.234,-0.414,6.111,25.0
106.101,-0.446,6.173,5.0
194.209,-0.799,10.29,21.0
179.12,-0.72,8.558,26.0
62.824,-0.256,4.767,16.0
82.854,-0.33,5.852,12.0
96.128,-0.373,6.288,20.0
106.167,-0.402,6.379,12.0
194.703,-0.718,10.684,5.0
179.143,-0.643,8.898,18.0
62.735,-0.228,4.879,38.0
82.744,-0.293,6.002,11.0
87.536,-0.301,5.891,14.0
96.31,-0.321,5.969,24.0
179.598,-0.58,10.192,5.0
179.181,-0.56,9.234,12.0
62.345,-0.198,4.965,23.0
76.398,-0.235,5.683,19.0
63.322,-0.187,4.379,20.0
96.291,-0.274,6.146,18.0
106.103,-0.29,6.217,12.0
179.127,-0.47,9.563,11.0
62.475,-0.167,5.091,12.0
62.591,-0.16,4.773,14.0
63.425,-0.154,4.504,24.0
96.414,-0.224,6.333,17.0
96.311,-0.212,5.821,13.0
179.017,-0.374,9.884,18.0
59.125,-0.126,4.928,11.0
62.499,-0.125,4.88,28.0
63.408,-0.12,4.619,5.0
63.311,-0.112,4.273,7.0
96.497,-0.158,6.009,18.0
178.733,-0.271,10.192,14.0
62.876,-0.098,5.356,7.0
62.482,-0.089,4.993,14.0
62.463,-0.081,4.662,4.0
63.439,-0.074,4.396,36.0
96.687,-0.101,6.193,11.0
96.244,-0.089,5.66,7.0
67.229,-0.064,5.847,11.0
59.163,-0.049,4.833,23.0
62.491,-0.043,4.775,22.0
63.464,-0.035,4.51,34.0
87.534,-0.037,5.761,12.0
96.32,-0.028,5.835,13.0
59.231,-0.019,5.256,12.0
59.194,-0.01,4.941,21.0
62.448,-0.002,4.883,28.0
63.546,0.005,4.627,18.0
83.05,0.019,5.611,25.0
96.528,0.036,6.015,5.0
59.056,0.02,5.345,20.0
59.241,0.028,5.048,22.0
62.53,0.039,4.997,31.0
63.673,0.049,4.746,17.0
63.576,0.058,4.405,25.0
83.1,0.088,5.32,12.0
58.041,0.06,5.352,29.0
59.221,0.07,5.147,16.0
62.645,0.084,5.114,12.0
63.074,0.094,4.809,38.0
63.574,0.104,4.511,16.0
83.127,0.148,5.461,30.0
57.729,0.102,5.421,33.0
59.137,0.114,5.239,26.0
59.158,0.123,4.928,15.0
62.804,0.14,4.893,35.0
63.595,0.152,4.619,29.0
79.348,0.201,5.344,8.0
57.713,0.146,5.516,33.0
58.707,0.157,5.298,33.0
62.694,0.179,5.325,12.0
62.793,0.188,4.994,36.0
63.605,0.2,4.722,15.0
76.91,0.255,5.305,4.0
57.23,0.19,5.562,23.0
58.191,0.202,5.346,28.0
63.021,0.23,5.455,21.0
62.861,0.239,5.101,29.0
63.137,0.251,4.789,37.0
76.934,0.317,5.428,10.0
57.179,0.236,5.649,25.0
57.914,0.249,5.412,30.0
63.297,0.283,5.579,19.0
63.249,0.292,5.232,30.0
62.974,0.302,4.874,27.0
63.294,0.314,4.563,19.0
56.891,0.283,5.71,28.0
57.425,0.295,5.456,30.0
58.705,0.312,5.265,19.0
63.057,0.346,5.313,34.0
63.053,0.356,4.977,35.0
63.339,0.369,4.663,29.0
56.752,0.331,5.782,31.0
57.48,0.345,5.548,31.0
58.761,0.363,5.357,29.0
62.929,0.399,5.396,22.0
63.539,0.415,5.109,37.0
63.408,0.425,4.761,28.0
56.884,0.383,5.88,31.0
57.346,0.396,5.621,31.0
57.896,0.41,5.365,32.0
58.503,0.424,5.102,12.0
63.55,0.472,5.204,29.0
63.607,0.484,4.869,31.0
56.437,0.432,5.917,18.0
56.918,0.445,5.661,31.0
57.649,0.461,5.424,31.0
0.0,0.0,0.0,0.0
63.492,0.531,5.289,12.0
62.991,0.538,4.911,37.0
56.607,0.486,6.016,23.0
56.824,0.499,5.733,30.0
56.975,0.51,5.442,30.0
58.679,0.536,5.284,32.0
57.047,0.532,4.832,19.0
62.756,0.597,4.98,32.0
56.378,0.539,6.07,14.0
0.0,0.0,0.0,0.0
56.576,0.562,5.482,27.0
57.322,0.579,5.24,27.0
57.019,0.587,4.907,25.0
62.562,0.656,5.048,26.0
56.13,0.592,6.119,21.0
50.073,0.537,5.188,16.0
56.524,0.617,5.552,25.0
57.581,0.64,5.34,32.0
57.074,0.645,4.986,23.0
62.669,0.72,5.138,26.0
56.076,0.648,6.187,18.0
50.158,0.589,5.262,24.0
56.76,0.678,5.649,30.0
57.41,0.696,5.398,31.0
63.049,0.776,5.589,10.0
62.653,0.783,5.216,10.0
56.1,0.706,6.261,7.0
50.194,0.641,5.33,23.0
57.772,0.749,5.821,25.0
56.598,0.745,5.392,30.0
58.448,0.78,5.253,14.0
59.007,0.799,4.986,26.0
49.849,0.68,5.626,17.0
50.441,0.698,5.418,24.0
63.118,0.886,6.439,19.0
56.485,0.803,5.451,29.0
58.266,0.84,5.307,32.0
59.001,0.862,5.056,28.0
0.0,0.0,0.0,0.0
50.323,0.75,5.466,27.0
61.068,0.923,6.302,8.0
56.423,0.864,5.511,18.0
58.086,0.9,5.359,32.0
58.994,0.925,5.124,19.0
48.688,0.77,5.61,16.0
50.254,0.804,5.516,24.0
57.354,0.929,5.983,15.0
49.426,0.81,4.883,5.0
57.093,0.947,5.331,30.0
58.746,0.986,5.167,32.0
48.763,0.825,5.673,19.0
50.244,0.859,5.571,29.0
57.261,0.991,6.037,12.0
49.414,0.865,4.936,9.0
56.733,1.004,5.359,30.0
58.525,1.048,5.211,25.0
49.285,0.889,5.787,24.0
50.148,0.914,5.614,24.0
50.033,0.922,5.328,19.0
54.982,1.024,5.55,24.0
57.271,1.078,5.47,30.0
57.226,1.089,5.155,16.0
48.65,0.933,5.763,33.0
50.083,0.97,5.659,24.0
49.978,0.979,5.373,23.0
54.942,1.086,5.602,22.0
60.866,1.215,5.874,12.0
57.193,1.154,5.208,18.0
48.66,0.989,5.813,23.0
50.176,1.03,5.719,24.0
57.479,1.191,6.236,13.0
48.909,1.023,5.034,9.0
60.913,1.287,5.937,23.0
57.19,1.22,5.262,27.0
48.752,1.047,5.87,25.0
50.195,1.089,5.768,14.0
49.938,1.093,5.464,11.0
54.976,1.214,5.708,15.0
56.747,1.265,5.582,16.0
57.377,1.29,5.331,26.0
45.333,1.027,5.5,16.0
50.224,1.149,5.817,7.0
49.612,1.144,5.473,26.0
55.008,1.28,5.761,7.0
56.803,1.333,5.637,14.0
57.406,1.359,5.383,24.0
45.512,1.086,5.561,20.0
45.891,1.104,5.354,16.0
45.895,1.113,5.102,19.0
49.591,1.212,5.235,19.0
49.119,1.211,4.916,16.0
50.588,1.258,4.786,7.0
45.659,1.144,5.617,20.0
50.284,1.27,5.908,10.0
49.654,1.264,5.56,5.0
49.511,1.27,5.266,21.0
49.138,1.27,4.956,21.0
57.518,1.499,5.486,6.0
45.523,1.196,5.635,23.0
45.447,1.203,5.375,38.0
45.765,1.22,5.159,15.0
49.927,1.342,5.348,24.0
49.242,1.333,5.003,21.0
50.587,1.379,4.862,20.0
45.392,1.248,5.653,20.0
45.484,1.259,5.412,21.0
45.766,1.276,5.192,18.0
48.637,1.366,5.244,23.0
49.904,1.411,5.105,24.0
49.628,1.414,4.804,16.0
45.31,1.301,5.674,28.0
45.511,1.316,5.446,30.0
45.815,1.333,5.228,16.0
46.267,1.355,5.019,17.0
50.715,1.496,5.221,8.0
49.599,1.473,4.833,33.0
45.272,1.355,5.698,27.0
45.53,1.372,5.477,30.0
0.0,0.0,0.0,0.0
48.63,1.484,5.305,5.0
48.583,1.493,5.031,20.0
50.021,1.546,4.904,24.0
43.853,1.366,5.546,27.0
0.0,0.0,0.0,0.0
0.0,0.0,0.0,0.0
48.62,1.543,5.332,23.0
48.57,1.551,5.058,22.0
49.991,1.607,4.929,23.0
43.823,1.42,5.566,27.0
0.0,0.0,0.0,0.0
0.0,0.0,0.0,0.0
45.527,1.502,5.017,11.0
48.512,1.609,5.077,12.0
50.413,1.683,4.996,24.0
43.795,1.473,5.585,30.0
0.0,0.0,0.0,0.0
46.501,1.582,5.41,22.0
48.662,1.665,5.386,8.0
46.298,1.593,4.867,5.0
50.167,1.736,4.995,30.0
43.854,1.53,5.613,35.0
0.0,0.0,0.0,0.0
45.951,1.62,5.367,27.0
45.457,1.612,5.051,20.0
55.169,1.967,5.823,7.0
50.14,1.797,5.013,22.0
43.851,1.584,5.631,33.0
0.0,0.0,0.0,0.0
45.836,1.673,5.372,23.0
45.605,1.674,5.085,28.0
48.591,1.792,5.147,22.0
50.128,1.858,5.031,17.0
43.645,1.631,5.62,32.0
0.0,0.0,0.0,0.0
45.851,1.73,5.39,12.0
45.518,1.726,5.091,26.0
48.959,1.866,5.202,23.0
50.095,1.919,5.044,14.0
43.597,1.683,5.629,29.0
0.0,0.0,0.0,0.0
45.85,1.787,5.404,32.0
45.556,1.784,5.109,31.0
48.887,1.924,5.209,23.0
50.037,1.978,5.052,26.0
43.626,1.738,5.644,28.0
44.058,1.764,5.452,19.0
45.867,1.845,5.418,20.0
45.565,1.84,5.122,32.0
48.561,1.971,5.187,33.0
0.0,0.0,0.0,0.0
43.531,1.789,5.642,34.0
44.109,1.82,5.468,36.0
45.814,1.899,5.422,20.0
45.603,1.899,5.135,22.0
49.622,2.075,5.31,11.0
48.268,2.027,4.895,17.0
43.692,1.849,5.671,32.0
44.033,1.872,5.467,19.0
45.714,1.951,5.418,31.0
45.796,1.963,5.165,21.0
48.377,2.082,5.184,4.0
50.112,2.165,5.089,11.0
43.803,1.908,5.692,33.0
45.73,2.0,5.684,17.0
45.742,2.008,5.426,33.0
45.956,2.025,5.188,31.0
56.405,2.496,6.05,7.0
50.111,2.226,5.094,25.0
43.836,1.962,5.7,36.0
44.585,2.004,5.545,19.0
45.731,2.063,5.429,19.0
45.896,2.078,5.185,20.0
56.43,2.565,6.057,14.0
50.47,2.303,5.133,24.0
44.112,2.028,5.738,29.0
44.375,2.048,5.52,32.0
45.774,2.12,5.435,32.0
48.127,2.237,5.438,29.0
51.346,2.395,5.512,18.0
50.38,2.359,5.125,24.0
44.392,2.095,5.775,37.0
44.386,2.102,5.522,35.0
45.828,2.177,5.441,29.0
48.115,2.293,5.436,29.0
51.183,2.448,5.493,24.0
50.198,2.409,5.105,15.0
44.476,2.151,5.784,28.0
44.385,2.154,5.519,35.0
45.806,2.23,5.436,34.0
48.113,2.35,5.432,19.0
50.802,2.49,5.449,24.0
50.372,2.477,5.118,14.0
44.469,2.203,5.779,31.0
44.367,2.205,5.513,15.0
45.806,2.283,5.431,20.0
48.361,2.418,5.455,11.0
50.521,2.535,5.413,17.0
56.471,2.842,5.731,8.0
44.469,2.255,5.773,36.0
45.909,2.335,5.698,13.0
45.918,2.343,5.438,20.0
47.378,2.425,5.337,21.0
49.852,2.558,5.333,23.0
49.723,2.56,5.038,19.0
44.472,2.307,5.765,39.0
0.0,0.0,0.0,0.0
45.819,2.39,5.417,24.0
47.238,2.471,5.312,15.0
48.872,2.565,5.218,17.0
49.723,2.617,5.027,23.0
44.546,2.362,5.765,35.0
46.154,2.454,5.709,20.0
43.618,2.325,5.147,31.0
47.491,2.539,5.329,22.0
0.0,0.0,0.0,0.0
49.668,2.67,5.009,13.0
44.608,2.416,5.761,36.0
45.196,2.454,5.578,20.0
43.594,2.373,5.132,23.0
47.825,2.61,5.352,23.0
47.856,2.619,5.084,6.0
45.036,2.47,4.529,16.0
43.87,2.425,5.652,21.0
45.901,2.543,5.651,15.0
43.667,2.425,5.126,26.0
48.244,2.685,5.384,23.0
53.221,2.971,5.636,14.0
45.056,2.521,4.515,30.0
42.762,2.41,5.494,18.0
43.791,2.474,5.375,24.0
43.663,2.472,5.11,30.0
45.871,2.603,5.102,17.0
45.057,2.563,4.754,7.0
49.202,2.806,4.912,9.0
42.959,2.467,5.502,18.0
43.092,2.48,5.272,18.0
43.617,2.516,5.086,33.0
45.849,2.651,5.08,23.0
45.117,2.615,4.741,11.0
48.859,2.837,4.857,22.0
42.644,2.494,5.443,18.0
42.926,2.516,5.232,18.0
43.408,2.549,5.043,26.0
45.249,2.663,4.993,19.0
45.134,2.662,4.722,16.0
56.647,3.349,5.604,6.0
32.657,1.944,4.152,18.0
43.311,2.583,5.258,19.0
42.751,2.555,4.945,22.0
45.118,2.702,4.956,32.0
48.172,2.89,5.016,23.0
48.99,2.946,4.822,12.0
35.449,2.146,4.489,2.0
43.127,2.616,5.213,19.0
43.112,2.62,4.963,19.0
45.064,2.744,4.925,22.0
48.923,2.984,5.067,22.0
52.029,3.18,5.092,7.0
35.475,2.183,4.472,21.0
42.568,2.624,5.121,23.0
45.029,2.781,5.158,19.0
45.105,2.79,4.903,17.0
49.319,3.056,5.079,38.0
52.006,3.229,5.059,22.0
42.858,2.678,5.377,9.0
42.886,2.684,5.133,18.0
45.47,2.85,5.181,8.0
33.917,2.13,3.666,15.0
49.288,3.1,5.046,29.0
51.948,3.273,5.021,16.0
35.518,2.253,4.433,20.0
42.569,2.705,5.067,32.0
34.403,2.189,3.897,21.0
33.987,2.166,3.651,29.0
49.25,3.143,5.009,19.0
52.074,3.329,4.998,16.0
43.22,2.781,5.365,5.0
42.519,2.74,5.032,12.0
34.252,2.21,3.856,31.0
34.011,2.198,3.63,20.0
51.733,3.348,5.225,6.0
54.848,3.556,5.225,3.0
42.614,2.78,5.258,10.0
34.238,2.237,4.027,22.0
34.154,2.234,3.82,27.0
34.075,2.232,3.612,28.0
51.563,3.383,5.169,15.0
68.403,4.494,6.465,2.0
32.899,2.175,4.034,25.0
42.864,2.838,5.008,17.0
34.077,2.258,3.785,27.0
33.962,2.254,3.573,29.0
51.55,3.425,5.128,11.0
80.668,5.368,7.562,19.0
42.669,2.857,5.197,7.0
34.302,2.299,3.98,23.0
34.05,2.285,3.754,23.0
49.118,3.3,5.127,18.0
54.817,3.688,5.407,5.0
80.686,5.434,7.497,11.0
33.881,2.296,4.098,32.0
34.432,2.335,3.966,24.0
34.051,2.312,3.725,30.0
49.109,3.338,5.085,9.0
48.065,3.271,4.7,14.0
80.822,5.507,7.44,11.0
34.301,2.351,4.12,26.0
34.286,2.352,3.919,34.0
34.018,2.336,3.692,33.0
54.544,3.75,5.599,17.0
65.025,4.475,6.301,19.0
61.123,4.21,5.572,0.0
34.28,2.375,4.085,33.0
34.221,2.373,3.88,28.0
34.048,2.363,3.663,32.0
48.206,3.349,4.904,13.0
64.889,4.513,6.228,20.0
59.102,4.115,5.332,6.0
34.292,2.401,4.054,30.0
34.146,2.392,3.839,29.0
34.166,2.396,3.643,33.0
48.153,3.379,4.853,20.0
64.854,4.555,6.163,13.0
51.831,3.644,4.627,20.0
34.259,2.422,4.017,23.0
34.115,2.413,3.802,31.0
34.205,2.421,3.614,25.0
48.109,3.408,4.801,22.0
43.641,3.094,4.104,19.0
58.811,4.173,5.192,8.0
34.253,2.443,3.982,30.0
34.175,2.439,3.774,25.0
48.234,3.445,5.047,8.0
48.2,3.445,4.761,13.0
43.616,3.119,4.056,18.0
58.787,4.208,5.129,24.0
34.235,2.464,3.943,36.0
34.132,2.457,3.733,35.0
48.203,3.472,4.993,21.0
63.936,4.609,6.247,10.0
43.607,3.145,4.009,22.0
58.777,4.242,5.066,35.0
34.201,2.481,3.902,32.0
34.114,2.476,3.694,31.0
48.181,3.499,4.938,19.0
59.56,4.327,5.754,15.0
43.576,3.167,3.959,17.0
58.427,4.25,4.971,32.0
34.193,2.5,3.863,38.0
34.206,2.501,3.666,32.0
48.19,3.526,4.886,13.0
43.422,3.178,4.147,17.0
58.815,4.306,5.278,8.0
58.009,4.25,4.871,24.0
34.182,2.516,3.823,39.0
34.294,2.525,3.636,28.0
59.655,4.394,5.98,13.0
43.324,3.192,4.087,34.0
51.895,3.826,4.597,12.0
58.035,4.28,4.806,27.0
34.153,2.53,3.78,28.0
48.263,3.577,5.061,5.0
59.635,4.421,5.908,25.0
43.302,3.21,4.035,37.0
51.895,3.849,4.535,20.0
61.307,4.549,5.005,6.0
34.267,2.554,3.751,30.0
48.322,3.602,5.009,15.0
59.626,4.446,5.835,20.0
43.273,3.227,3.98,27.0
58.032,4.329,5.002,11.0
61.709,4.604,4.963,20.0
34.279,2.569,3.71,31.0
48.373,3.625,4.955,14.0
59.671,4.472,5.766,7.0
43.211,3.239,3.921,19.0
60.761,4.556,5.163,11.0
61.907,4.642,4.903,36.0
34.204,2.576,3.659,21.0
51.778,3.899,5.239,18.0
43.642,3.286,4.163,18.0
43.257,3.258,3.871,26.0
61.191,4.609,5.122,35.0
61.309,4.619,4.779,27.0
42.86,3.242,4.531,15.0
51.789,3.917,5.173,27.0
43.44,3.285,4.087,19.0
51.889,3.924,4.577,13.0
61.448,4.647,5.065,24.0
60.964,4.611,4.674,25.0
42.88,3.256,4.477,30.0
51.797,3.932,5.107,25.0
43.26,3.284,4.014,22.0
51.899,3.939,4.51,23.0
61.593,4.675,4.996,26.0
60.89,4.621,4.588,27.0
42.894,3.267,4.421,27.0
51.819,3.947,5.04,10.0
43.24,3.293,3.954,32.0
51.89,3.951,4.44,21.0
61.734,4.7,4.925,33.0
60.919,4.637,4.508,26.0
51.765,3.954,5.266,12.0
43.606,3.33,4.182,26.0
43.26,3.303,3.898,37.0
61.305,4.68,5.162,19.0
61.185,4.67,4.798,32.0
61.015,4.656,4.432,28.0
51.768,3.963,5.194,11.0
43.454,3.326,4.108,24.0
51.874,3.969,4.602,5.0
61.322,4.69,5.08,23.0
60.922,4.659,4.694,26.0
60.857,4.652,4.338,26.0
61.352,4.48,4.587,25.0
60.808,4.433,4.195,25.0
60.901,4.433,3.849,20.0
77.479,5.63,4.441,17.0
80.688,5.854,4.16,19.0
82.113,5.949,3.759,9.0
61.389,4.447,4.493,30.0
60.738,4.391,4.093,27.0
60.906,4.396,3.752,19.0
77.454,5.581,4.317,6.0
80.694,5.805,4.032,31.0
0.0,0.0,0.0,0.0
61.215,4.394,4.383,37.0
60.686,4.349,3.995,31.0
60.781,4.348,3.65,7.0
81.125,5.793,4.395,10.0
80.799,5.76,3.911,27.0
0.0,0.0,0.0,0.0
61.561,4.378,4.311,33.0
60.828,4.318,3.909,14.0
77.505,5.491,4.532,22.0
77.703,5.494,4.087,16.0
80.92,5.712,3.79,9.0
0.0,0.0,0.0,0.0
61.104,4.301,4.184,22.0
77.497,5.445,4.858,10.0
81.201,5.694,4.622,12.0
80.781,5.653,4.124,27.0
0.0,0.0,0.0,0.0
0.0,0.0,0.0,0.0
60.708,4.227,4.061,21.0
77.523,5.387,4.739,20.0
79.769,5.532,4.415,15.0
80.774,5.589,3.996,33.0
0.0,0.0,0.0,0.0
48.256,3.325,1.832,0.0
60.605,4.171,3.959,18.0
78.403,5.384,4.67,48.0
80.052,5.486,4.307,28.0
80.799,5.525,3.873,14.0
0.0,0.0,0.0,0.0
47.726,3.25,1.738,2.0
80.292,5.459,5.121,29.0
78.663,5.335,4.562,28.0
80.914,5.475,4.226,23.0
0.0,0.0,0.0,0.0
0.0,0.0,0.0,0.0
47.51,3.193,1.656,6.0
80.218,5.382,4.99,34.0
78.494,5.254,4.43,32.0
80.871,5.4,4.098,29.0
0.0,0.0,0.0,0.0
0.0,0.0,0.0,0.0
47.387,3.142,1.579,7.0
80.217,5.307,4.866,22.0
78.674,5.192,4.319,9.0
80.897,5.326,3.974,22.0
0.0,0.0,0.0,0.0
47.912,3.138,1.798,1.0
47.226,3.086,1.5,13.0
80.742,5.264,4.773,24.0
80.82,5.255,4.312,31.0
80.917,5.247,3.851,4.0
0.0,0.0,0.0,0.0
47.618,3.072,1.714,4.0
47.195,3.037,1.427,36.0
80.882,5.19,4.656,15.0
80.881,5.176,4.19,28.0
0.0,0.0,0.0,0.0
0.0,0.0,0.0,0.0
47.414,3.009,1.633,8.0
47.233,2.99,1.356,150.0
80.902,5.107,4.534,18.0
58.698,3.694,2.952,21.0
0.0,0.0,0.0,0.0
47.936,3.0,1.854,0.0
47.261,2.949,1.557,12.0
47.215,2.938,1.284,163.0
58.655,3.639,3.199,39.0
58.676,3.629,2.862,23.0
0.0,0.0,0.0,0.0
47.77,2.937,1.776,2.0
47.205,2.893,1.484,27.0
47.217,2.885,1.214,154.0
58.639,3.572,3.109,58.0
0.0,0.0,0.0,0.0
0.0,0.0,0.0,0.0
47.495,2.866,1.695,6.0
47.185,2.838,1.413,84.0
47.238,2.832,1.144,1.0
58.651,3.504,3.023,53.0
0.0,0.0,0.0,0.0
0.0,0.0,0.0,0.0
47.356,2.801,1.62,10.0
47.202,2.783,1.343,35.0
47.286,2.779,1.075,2.0
58.744,3.438,2.941,15.0
0.0,0.0,0.0,0.0
48.056,2.793,1.854,1.0
47.258,2.738,1.548,13.0
47.242,2.728,1.276,28.0
47.245,2.719,1.006,6.0
81.069,4.646,3.942,5.0
0.0,0.0,0.0,0.0
47.74,2.716,1.773,3.0
47.212,2.677,1.479,16.0
47.243,2.669,1.209,13.0
47.292,2.662,0.939,1.0
0.0,0.0,0.0,0.0
0.0,0.0,0.0,0.0
47.485,2.641,1.696,6.0
47.253,2.618,1.412,19.0
47.276,2.609,1.142,1.0
0.0,0.0,0.0,0.0
0.0,0.0,0.0,0.0
0.0,0.0,0.0,0.0
47.523,2.58,1.629,17.0
47.29,2.557,1.346,21.0
47.269,2.546,1.075,2.0
48.895,2.623,0.832,5.0
0.0,0.0,0.0,0.0
48.035,2.553,1.855,1.0
47.407,2.51,1.559,13.0
47.303,2.493,1.28,21.0
47.286,2.482,1.009,3.0
45.458,2.376,0.71,1.0
0.0,0.0,0.0,0.0
47.645,2.466,1.774,4.0
47.362,2.441,1.492,11.0
47.32,2.428,1.215,22.0
47.329,2.418,0.945,1.0
0.0,0.0,0.0,0.0
0.0,0.0,0.0,0.0
47.601,2.396,1.707,152.0
47.401,2.375,1.428,10.0
47.336,2.361,1.151,20.0
50.081,2.486,0.931,1.0
37.53,1.855,0.484,0.0
0.0,0.0,0.0,0.0
47.664,2.329,1.644,80.0
47.494,2.31,1.367,1.0
47.378,2.293,1.088,10.0
50.386,2.427,0.87,1.0
0.0,0.0,0.0,0.0
48.12,2.291,1.871,2.0
47.48,2.249,1.575,13.0
47.306,2.23,1.299,0.0
47.459,2.225,1.027,0.0
0.0,0.0,0.0,0.0
0.0,0.0,0.0,0.0
47.814,2.204,1.796,4.0
47.527,2.178,1.513,12.0
47.486,2.165,1.241,10.0
47.492,2.154,0.965,0.0
0.0,0.0,0.0,0.0
32.652,1.465,0.291,0.0
47.924,2.135,1.738,3.0
47.798,2.116,1.46,1.0
0.0,0.0,0.0,0.0
47.769,2.091,0.91,0.0
37.885,1.649,0.505,0.0
32.127,1.39,0.245,1.0
48.136,2.067,1.684,2.0
48.341,2.063,1.415,5.0
48.348,2.05,1.139,1.0
0.0,0.0,0.0,0.0
36.934,1.548,0.446,0.0
30.71,1.279,0.196,0.0
48.596,2.008,1.639,3.0
48.515,1.992,1.36,2.0
0.0,0.0,0.0,0.0
0.0,0.0,0.0,0.0
34.604,1.394,0.376,0.0
28.975,1.159,0.15,0.0
49.0,1.944,1.593,2.0
49.144,1.937,1.318,2.0
0.0,0.0,0.0,0.0
0.0,0.0,0.0,0.0
33.456,1.292,0.323,0.0
28.899,1.108,0.115,1.0
49.546,1.882,1.551,2.0
49.635,1.872,1.272,2.0
50.671,1.898,1.011,2.0
0.0,0.0,0.0,0.0
32.504,1.199,0.275,0.0
28.488,1.044,0.079,0.0
50.127,1.819,1.511,2.0
50.326,1.812,1.231,0.0
50.682,1.812,0.952,0.0
0.0,0.0,0.0,0.0
31.132,1.095,0.228,0.0
27.644,0.965,0.045,0.0
0.0,0.0,0.0,0.0
50.358,1.726,1.174,0.0
0.0,0.0,0.0,0.0
36.429,1.227,0.432,0.0
30.759,1.028,0.19,0.0
26.875,0.89,0.013,0.0
54.086,1.773,1.508,150.0
0.0,0.0,0.0,0.0
0.0,0.0,0.0,0.0
34.758,1.11,0.374,0.0
28.971,0.917,0.147,5.0
26.361,0.827,-0.014,0.0
54.25,1.682,1.454,7.0
55.45,1.703,1.172,5.0
0.0,0.0,0.0,0.0
33.808,1.019,0.327,1.0
28.91,0.863,0.116,5.0
25.682,0.759,-0.041,0.0
54.069,1.578,1.392,7.0
56.08,1.621,1.126,2.0
0.0,0.0,0.0,0.0
32.479,0.92,0.281,0.0
28.796,0.807,0.086,2.0
25.255,0.7,-0.067,0.0
54.119,1.481,1.338,1.0
0.0,0.0,0.0,0.0
0.0,0.0,0.0,0.0
31.298,0.829,0.239,0.0
28.013,0.734,0.055,0.0
24.686,0.639,-0.09,0.0
54.438,1.389,1.292,1.0
47.671,1.202,0.861,0.0
36.106,0.899,0.448,0.0
31.072,0.765,0.207,0.0
26.999,0.656,0.027,0.0
24.074,0.577,-0.111,0.0
57.857,1.367,1.316,4.0
47.593,1.11,0.814,0.0
34.917,0.804,0.4,0.0
29.072,0.66,0.166,0.0
26.729,0.599,0.001,0.0
23.73,0.524,-0.132,0.0
54.724,1.19,1.194,1.0
0.0,0.0,0.0,0.0
34.195,0.722,0.36,0.0
28.897,0.601,0.138,0.0
26.243,0.538,-0.022,0.0
23.283,0.47,-0.151,0.0
0.0,0.0,0.0,0.0
0.0,0.0,0.0,0.0
33.726,0.647,0.325,0.0
28.815,0.544,0.112,1.0
25.654,0.476,-0.044,0.0
22.823,0.416,-0.168,0.0
0.0,0.0,0.0,0.0
38.3,0.672,0.552,0.0
32.374,0.558,0.284,0.0
28.614,0.484,0.087,1.0
25.325,0.421,-0.065,0.0
22.328,0.364,-0.183,0.0
0.0,0.0,0.0,0.0
37.306,0.582,0.506,0.0
31.893,0.487,0.253,0.0
28.243,0.422,0.062,0.0
24.909,0.365,-0.084,0.0
21.907,0.314,-0.197,0.0
0.0,0.0,0.0,0.0
0.0,0.0,0.0,0.0
31.606,0.421,0.226,0.0
27.454,0.356,0.039,0.0
24.484,0.309,-0.102,0.0
21.714,0.267,-0.213,1.0
0.0,0.0,0.0,0.0
35.472,0.412,0.426,0.0
28.963,0.327,0.185,0.0
27.093,0.297,0.018,0.0
23.872,0.254,-0.118,0.0
21.132,0.218,-0.223,0.0
41.852,0.417,0.707,0.0
34.872,0.335,0.393,0.0
28.915,0.268,0.163,1.0
26.612,0.238,-0.001,0.0
23.77,0.205,-0.134,0.0
20.637,0.171,-0.232,0.0
40.76,0.323,0.66,0.0
34.144,0.259,0.361,0.0
28.92,0.21,0.143,1.0
26.232,0.182,-0.019,0.0
23.451,0.154,-0.148,0.0
20.304,0.127,-0.242,0.0
0.0,0.0,0.0,0.0
33.427,0.186,0.331,0.0
28.758,0.15,0.124,0.0
25.826,0.126,-0.035,0.0
23.01,0.104,-0.16,1.0
19.925,0.083,-0.251,0.0
39.644,0.152,0.59,0.0
32.817,0.114,0.304,0.0
28.68,0.09,0.105,2.0
25.597,0.072,-0.051,0.0
22.719,0.056,-0.172,0.0
19.425,0.041,-0.256,0.0
0.0,0.0,0.0,0.0
0.0,0.0,0.0,0.0
28.625,0.031,0.088,1.0
25.401,0.018,-0.065,0.0
22.043,0.008,-0.18,0.0
19.112,0.0,-0.263,0.0
0.0,0.0,0.0,0.0
31.656,-0.019,0.257,0.0
28.576,-0.028,0.072,2.0
25.082,-0.033,-0.078,0.0
21.899,-0.036,-0.191,0.0
18.719,-0.037,-0.267,0.0
0.0,0.0,0.0,0.0
31.411,-0.085,0.239,1.0
28.241,-0.086,0.057,1.0
24.874,-0.085,-0.09,0.0
21.71,-0.081,-0.2,0.0
18.772,-0.077,-0.277,0.0
35.838,-0.159,0.455,0.0
30.987,-0.149,0.221,1.0
27.737,-0.143,0.043,0.0
24.478,-0.135,-0.1,0.0
21.773,-0.128,-0.211,0.0
18.441,-0.115,-0.281,0.0
35.685,-0.233,0.437,0.0
31.212,-0.215,0.208,1.0
27.435,-0.199,0.03,0.0
24.224,-0.184,-0.11,0.0
21.2,-0.169,-0.214,0.0
18.332,-0.152,-0.287,0.0
35.717,-0.309,0.423,0.0
30.634,-0.276,0.192,0.0
27.369,-0.256,0.019,0.0
24.046,-0.234,-0.119,0.0
21.04,-0.212,-0.221,0.0
18.222,-0.19,-0.293,0.0
33.923,-0.365,0.389,0.0
30.151,-0.335,0.178,0.0
26.888,-0.309,0.009,0.0
23.645,-0.28,-0.125,0.0
20.756,-0.253,-0.225,0.0
18.072,-0.227,-0.297,0.0
33.905,-0.437,0.377,0.0
28.592,-0.379,0.159,0.0
26.723,-0.363,0.0,0.0
23.574,-0.329,-0.132,0.0
20.55,-0.294,-0.229,0.0
18.008,-0.265,-0.301,0.0
34.152,-0.512,0.369,1.0
0.0,0.0,0.0,0.0
26.465,-0.416,-0.007,0.0
23.624,-0.379,-0.139,0.0
20.34,-0.334,-0.233,0.0
17.996,-0.302,-0.306,0.0
33.795,-0.577,0.357,2.0
28.671,-0.5,0.143,0.0
26.14,-0.466,-0.013,0.0
23.42,-0.426,-0.144,0.0
20.308,-0.377,-0.237,0.0
17.889,-0.338,-0.308,0.0
33.668,-0.647,0.348,2.0
28.763,-0.563,0.137,5.0
26.223,-0.523,-0.019,0.0
23.447,-0.477,-0.149,0.0
19.934,-0.413,-0.237,0.0
17.762,-0.374,-0.31,0.0
33.557,-0.716,0.34,1.0
28.746,-0.624,0.132,6.0
26.258,-0.58,-0.024,0.0
23.292,-0.523,-0.152,0.0
19.661,-0.449,-0.237,0.0
17.763,-0.412,-0.312,0.0
33.243,-0.78,0.332,1.0
28.712,-0.684,0.128,6.0
25.977,-0.628,-0.027,0.0
23.24,-0.571,-0.155,0.0
19.754,-0.492,-0.241,0.0
17.653,-0.447,-0.313,0.0
33.145,-0.847,0.327,1.0
28.69,-0.744,0.125,6.0
25.901,-0.681,-0.03,0.0
23.116,-0.616,-0.156,0.0
19.906,-0.538,-0.244,0.0
17.625,-0.483,-0.314,0.0
33.411,-0.925,0.327,0.0
28.643,-0.804,0.122,1.0
26.034,-0.74,-0.031,0.0
23.215,-0.669,-0.158,0.0
19.835,-0.579,-0.245,0.0
17.659,-0.522,-0.315,0.0
33.166,-0.989,0.323,0.0
28.65,-0.864,0.121,0.0
26.003,-0.794,-0.032,0.0
23.195,-0.717,-0.159,0.0
19.564,-0.612,-0.241,0.0
17.645,-0.559,-0.315,0.0
33.358,-1.065,0.325,0.0
28.589,-0.923,0.121,1.0
26.04,-0.85,-0.032,0.0
23.271,-0.769,-0.159,0.0
19.649,-0.656,-0.242,0.0
17.639,-0.596,-0.314,0.0
33.404,-1.136,0.327,0.0
28.587,-0.983,0.123,1.0
26.106,-0.907,-0.031,0.0
22.875,-0.804,-0.155,0.0
19.725,-0.7,-0.242,0.0
17.69,-0.634,-0.314,0.0
32.791,-1.184,0.323,0.0
28.656,-1.045,0.125,7.0
25.918,-0.955,-0.028,0.0
23.006,-0.856,-0.153,1.0
20.064,-0.754,-0.244,0.0
17.755,-0.674,-0.313,0.0
33.246,-1.27,0.332,0.0
28.643,-1.104,0.129,5.0
25.94,-1.009,-0.025,0.0
23.196,-0.911,-0.152,1.0
20.325,-0.806,-0.244,0.0
17.822,-0.713,-0.312,0.0
33.783,-1.36,0.342,0.0
28.66,-1.164,0.133,5.0
25.962,-1.064,-0.021,1.0
23.299,-0.963,-0.149,1.0
20.654,-0.862,-0.245,0.0
17.889,-0.753,-0.31,0.0
34.099,-1.443,0.352,0.0
28.655,-1.223,0.139,4.0
26.098,-1.123,-0.016,1.0
23.529,-1.021,-0.145,1.0
20.711,-0.906,-0.241,0.0
17.881,-0.789,-0.306,0.0
34.186,-1.516,0.36,0.0
28.666,-1.282,0.145,0.0
26.361,-1.188,-0.01,1.0
23.526,-1.069,-0.14,2.0
21.022,-0.963,-0.24,0.0
17.948,-0.829,-0.303,0.0
34.324,-1.592,0.37,0.0
30.286,-1.415,0.161,0.0
27.18,-1.28,-0.003,1.0
23.634,-1.122,-0.134,1.0
20.894,-0.999,-0.232,0.0
18.023,-0.869,-0.299,0.0
34.509,-1.67,0.383,0.0
30.409,-1.483,0.171,0.0
27.468,-1.349,0.005,2.0
23.69,-1.172,-0.127,1.0
21.034,-1.048,-0.227,0.0
18.172,-0.912,-0.295,0.0
35.458,-1.787,0.405,0.0
30.381,-1.542,0.181,0.0
27.574,-1.409,0.014,1.0
23.712,-1.221,-0.118,0.0
21.246,-1.102,-0.222,0.0
18.263,-0.954,-0.29,0.0
34.82,-1.824,0.411,0.0
30.846,-1.627,0.196,0.0
27.885,-1.481,0.025,1.0
34.223,-1.83,-0.158,0.0
34.272,-1.845,-0.345,0.0
18.637,-1.01,-0.289,0.0
34.721,-1.887,0.423,0.0
30.761,-1.683,0.208,0.0
28.275,-1.557,0.037,1.0
34.225,-1.897,-0.144,4.0
34.279,-1.912,-0.33,0.0
34.221,-1.921,-0.516,1.0
34.736,-1.956,0.439,0.0
30.71,-1.739,0.221,1.0
28.4,-1.619,0.05,4.0
34.192,-1.961,-0.128,0.0
22.158,-1.279,-0.203,0.0
18.856,-1.095,-0.275,0.0
34.709,-2.021,0.454,3.0
31.116,-1.822,0.239,1.0
28.458,-1.677,0.064,7.0
24.728,-1.466,-0.08,0.0
22.277,-1.328,-0.193,0.0
19.152,-1.149,-0.27,0.0
34.843,-2.095,0.474,0.0
31.942,-1.932,0.261,4.0
28.495,-1.733,0.078,13.0
25.566,-1.564,-0.07,0.0
22.452,-1.381,-0.183,0.0
19.355,-1.198,-0.263,0.0
34.764,-2.156,0.492,1.0
32.15,-2.005,0.281,1.0
28.443,-1.784,0.094,1.0
25.717,-1.622,-0.056,0.0
22.892,-1.452,-0.174,0.0
19.683,-1.255,-0.256,0.0
34.622,-2.212,0.509,3.0
32.855,-2.111,0.306,1.0
28.572,-1.845,0.111,0.0
25.949,-1.685,-0.041,0.0
23.162,-1.512,-0.162,0.0
19.881,-1.305,-0.246,0.0
34.505,-2.269,0.529,4.0
33.707,-2.227,0.334,1.0
29.655,-1.97,0.134,0.0
26.117,-1.743,-0.025,0.0
23.377,-1.569,-0.149,0.0
20.313,-1.37,-0.239,0.0
34.345,-2.32,0.548,2.0
34.335,-2.331,0.362,1.0
29.899,-2.04,0.154,0.0
0.0,0.0,0.0,0.0
23.64,-1.629,-0.135,0.0
20.628,-1.428,-0.229,0.0
34.092,-2.365,0.567,2.0
35.36,-2.464,0.397,1.0
30.313,-2.122,0.177,0.0
33.904,-2.385,0.011,2.0
33.902,-2.396,-0.171,6.0
33.895,-2.407,-0.353,1.0
34.023,-2.42,0.589,2.0
35.873,-2.563,0.428,2.0
31.379,-2.252,0.205,0.0
33.905,-2.445,0.036,2.0
33.894,-2.455,-0.146,9.0
33.914,-2.468,-0.329,2.0
33.95,-2.474,0.613,1.0
37.08,-2.714,0.47,1.0
31.904,-2.345,0.232,0.0
33.903,-2.503,0.061,7.0
33.896,-2.514,-0.121,42.0
33.906,-2.526,-0.303,9.0
33.827,-2.523,0.637,38.0
38.129,-2.856,0.512,1.0
31.951,-2.403,0.257,0.0
33.894,-2.56,0.087,1.0
33.886,-2.57,-0.094,5.0
33.901,-2.582,-0.277,3.0
33.85,-2.582,0.664,151.0
34.398,-2.634,0.49,2.0
0.0,0.0,0.0,0.0
33.905,-2.617,0.114,0.0
33.932,-2.63,-0.067,1.0
33.883,-2.637,-0.249,4.0
33.832,-2.636,0.691,154.0
34.283,-2.681,0.516,4.0
34.316,-2.694,0.332,0.0
33.914,-2.673,0.142,0.0
33.893,-2.682,-0.039,1.0
33.887,-2.692,-0.221,7.0
33.834,-2.69,0.719,154.0
34.133,-2.724,0.542,4.0
35.346,-2.832,0.372,0.0
30.106,-2.421,0.152,0.0
33.926,-2.739,-0.01,1.0
33.865,-2.744,-0.191,6.0
33.829,-2.744,0.748,155.0
33.993,-2.767,0.57,3.0
35.995,-2.941,0.41,0.0
30.683,-2.516,0.182,0.0
33.868,-2.788,0.02,0.0
33.858,-2.797,-0.161,6.0
33.827,-2.797,0.779,154.0
33.857,-2.809,0.598,2.0
0.0,0.0,0.0,0.0
31.664,-2.645,0.217,0.0
