X,Y,Z,Reflectivity
89.236,-4.338,6.237,12.0
83.892,-4.095,8.222,19.0
88.125,-4.297,8.17,10.0
87.199,-4.248,7.623,15.0
89.446,-4.353,7.339,24.0
88.312,-4.294,6.78,11.0
89.407,-4.342,6.393,15.0
84.024,-4.097,8.372,20.0
85.521,-4.165,8.067,14.0
87.191,-4.24,7.765,14.0
89.715,-4.358,7.507,14.0
89.422,-4.339,7.01,25.0
89.546,-4.341,6.548,17.0
79.659,-3.876,8.067,12.0
85.602,-4.16,8.214,12.0
88.84,-4.312,8.054,8.0
87.306,-4.23,7.445,16.0
89.008,-4.307,7.12,14.0
88.278,-4.267,6.596,12.0
79.656,-3.866,8.195,18.0
83.861,-4.063,8.182,14.0
88.736,-4.292,8.187,9.0
87.261,-4.215,7.581,23.0
89.293,-4.307,7.285,19.0
88.293,-4.251,6.737,16.0
79.681,-3.852,8.324,7.0
83.972,-4.053,8.326,22.0
85.483,-4.119,8.022,18.0
87.2,-4.195,7.712,15.0
89.582,-4.302,7.448,14.0
89.207,-4.277,6.945,27.0
82.351,-3.964,8.732,21.0
79.701,-3.829,8.026,6.0
85.511,-4.101,8.156,21.0
88.879,-4.255,7.997,13.0
89.609,-4.282,7.587,14.0
89.41,-4.265,7.097,19.0
82.442,-3.948,8.868,23.0
79.636,-3.806,8.14,25.0
85.483,-4.077,8.283,14.0
88.73,-4.224,8.117,16.0
87.259,-4.145,7.521,21.0
89.495,-4.243,7.238,11.0
82.242,-3.914,8.971,16.0
79.395,-3.771,8.236,20.0
79.05,-3.746,7.779,16.0
91.568,-4.33,8.515,4.0
87.266,-4.117,7.651,18.0
89.356,-4.207,7.36,6.0
81.353,-3.845,8.997,22.0
82.723,-3.901,8.706,9.0
79.01,-3.717,7.894,30.0
85.62,-4.019,8.089,14.0
87.384,-4.092,7.79,16.0
87.272,-4.078,7.316,14.0
81.49,-3.822,9.132,27.0
82.665,-3.867,8.821,17.0
79.216,-3.697,8.029,31.0
85.45,-3.978,8.196,9.0
87.573,-4.067,7.933,12.0
87.209,-4.04,7.435,25.0
81.705,-3.8,9.273,30.0
82.623,-3.832,8.934,18.0
79.462,-3.676,8.166,23.0
85.35,-3.939,8.305,4.0
85.088,-3.917,7.826,13.0
87.273,-4.006,7.562,21.0
82.057,-3.78,9.429,30.0
81.58,-3.749,8.935,10.0
79.55,-3.645,8.285,17.0
78.992,-3.61,7.795,15.0
85.14,-3.88,7.947,13.0
87.222,-3.963,7.676,17.0
82.053,-3.742,9.541,30.0
81.56,-3.709,9.044,26.0
81.887,-3.713,8.64,16.0
79.147,-3.578,7.918,31.0
81.995,-3.696,7.764,17.0
87.354,-3.926,7.804,19.0
81.834,-3.692,9.625,19.0
81.592,-3.669,9.157,26.0
82.244,-3.687,8.787,21.0
79.405,-3.549,8.048,15.0
81.839,-3.646,7.856,21.0
87.479,-3.886,7.93,17.0
81.051,-3.613,9.641,27.0
81.687,-3.629,9.275,25.0
65.289,-2.891,7.061,18.0
79.492,-3.508,8.161,29.0
79.591,-3.502,7.743,8.0
79.368,-3.481,7.295,6.0
80.914,-3.561,9.728,27.0
81.788,-3.587,9.39,21.0
65.3,-2.854,7.144,9.0
79.52,-3.464,8.263,34.0
79.623,-3.457,7.845,24.0
79.397,-3.435,7.396,18.0
81.08,-3.52,9.85,10.0
81.644,-3.531,9.476,21.0
82.704,-3.564,9.151,7.0
79.741,-3.424,8.385,24.0
79.358,-3.395,7.917,25.0
79.429,-3.386,7.497,22.0
81.594,-3.49,10.013,17.0
81.395,-3.468,9.546,20.0
80.614,-3.422,9.017,21.0
80.034,-3.385,8.511,13.0
79.232,-3.339,7.998,27.0
79.242,-3.327,7.572,21.0
81.457,-3.431,10.092,17.0
77.71,-3.26,9.205,14.0
80.581,-3.367,9.108,34.0
65.395,-2.721,7.03,7.0
79.219,-3.284,8.088,22.0
79.123,-3.268,7.651,15.0
81.415,-3.373,10.181,23.0
78.023,-3.219,9.331,17.0
80.842,-3.321,9.229,27.0
65.215,-2.668,7.084,29.0
64.196,-2.616,6.626,21.0
64.956,-2.636,6.353,17.0
85.671,-3.486,10.81,5.0
78.083,-3.164,9.426,10.0
80.987,-3.267,9.335,16.0
64.445,-2.589,7.071,22.0
64.184,-2.568,6.694,24.0
64.839,-2.583,6.412,31.0
77.176,-3.083,9.821,11.0
81.732,-3.251,9.954,11.0
77.638,-3.074,9.032,21.0
64.461,-2.541,7.141,27.0
64.253,-2.522,6.768,25.0
64.863,-2.535,6.48,27.0
77.132,-3.021,9.896,30.0
81.911,-3.194,10.06,25.0
77.744,-3.017,9.123,28.0
64.48,-2.491,7.208,17.0
64.458,-2.479,6.854,24.0
64.92,-2.485,6.55,25.0
77.063,-2.958,9.963,24.0
77.396,-2.957,9.581,8.0
77.824,-2.958,9.208,27.0
79.164,-2.995,8.926,18.0
64.683,-2.435,6.94,39.0
64.558,-2.419,6.575,39.0
80.921,-3.039,10.541,20.0
77.378,-2.891,9.654,25.0
77.994,-2.9,9.302,22.0
79.225,-2.931,9.007,31.0
64.695,-2.381,7.002,35.0
64.349,-2.357,6.613,28.0
80.951,-2.972,10.619,24.0
77.404,-2.826,9.728,28.0
77.953,-2.831,9.369,20.0
79.262,-2.864,9.083,24.0
64.658,-2.323,7.055,30.0
64.519,-2.307,6.687,31.0
79.705,-2.856,10.527,7.0
77.549,-2.763,9.814,10.0
78.117,-2.768,9.456,13.0
65.195,-2.297,7.527,12.0
64.813,-2.272,7.128,36.0
64.742,-2.258,6.765,28.0
77.943,-2.722,10.361,13.0
79.772,-2.77,10.163,12.0
77.283,-2.669,9.419,13.0
65.202,-2.238,7.581,25.0
79.358,-2.709,8.791,8.0
65.088,-2.21,6.853,35.0
79.782,-2.713,10.67,16.0
77.44,-2.618,9.927,17.0
77.282,-2.597,9.48,34.0
65.146,-2.176,7.625,9.0
78.133,-2.595,8.715,13.0
64.801,-2.14,6.872,29.0
80.136,-2.649,10.778,26.0
77.759,-2.555,10.027,35.0
77.143,-2.519,9.52,27.0
77.728,-2.523,9.155,16.0
65.37,-2.109,7.339,20.0
64.892,-2.081,6.929,29.0
80.651,-2.589,10.905,7.0
77.962,-2.486,10.109,27.0
77.264,-2.448,9.59,27.0
77.741,-2.448,9.211,27.0
65.365,-2.045,7.383,17.0
64.945,-2.019,6.978,28.0
76.001,-2.365,10.328,12.0
80.246,-2.48,10.459,9.0
77.303,-2.373,9.645,23.0
77.779,-2.373,9.265,14.0
65.314,-1.979,7.419,22.0
64.922,-1.955,7.016,31.0
76.048,-2.291,10.383,25.0
80.119,-2.397,10.492,23.0
77.381,-2.299,9.702,10.0
76.446,-2.255,9.153,8.0
75.52,-2.213,8.624,6.0
64.959,-1.89,7.059,23.0
76.807,-2.235,10.532,20.0
76.519,-2.21,10.065,15.0
77.642,-2.227,9.78,16.0
76.371,-2.175,9.187,12.0
75.517,-2.136,8.665,25.0
65.015,-1.825,7.101,25.0
76.133,-2.137,10.481,17.0
64.415,-1.794,8.508,24.0
77.457,-2.141,9.798,11.0
74.31,-2.039,8.979,10.0
74.352,-2.025,8.57,19.0
65.012,-1.757,7.133,32.0
76.796,-2.074,10.612,10.0
64.43,-1.727,8.542,25.0
74.294,-1.976,9.434,12.0
76.373,-2.015,9.264,10.0
74.303,-1.945,8.599,30.0
65.22,-1.695,7.186,28.0
76.305,-1.98,10.579,14.0
64.512,-1.66,8.582,29.0
64.307,-1.641,8.194,22.0
74.49,-1.886,9.068,18.0
74.429,-1.869,8.646,33.0
65.409,-1.629,7.234,21.0
76.025,-1.891,10.571,28.0
64.556,-1.592,8.613,35.0
64.341,-1.573,8.224,26.0
74.496,-1.806,9.097,16.0
74.733,-1.797,8.709,25.0
65.453,-1.56,7.263,24.0
73.684,-1.753,10.273,10.0
64.7,-1.525,8.656,27.0
64.448,-1.507,8.26,32.0
74.196,-1.718,9.086,33.0
65.181,-1.497,7.617,23.0
65.491,-1.491,7.288,33.0
64.714,-1.469,9.043,8.0
64.78,-1.456,8.687,33.0
64.412,-1.434,8.275,32.0
74.147,-1.636,9.102,29.0
74.826,-1.636,8.766,13.0
65.776,-1.424,7.338,29.0
57.908,-1.25,8.108,14.0
64.92,-1.387,8.723,21.0
64.46,-1.365,8.298,30.0
64.113,-1.344,7.886,20.0
74.994,-1.556,8.804,28.0
65.575,-1.347,7.331,41.0
64.713,-1.325,9.076,14.0
58.037,-1.176,7.811,21.0
0.0,0.0,0.0,0.0
64.123,-1.272,7.901,16.0
74.574,-1.465,8.769,15.0
65.544,-1.274,7.34,41.0
64.776,-1.252,9.097,13.0
58.08,-1.111,7.827,32.0
62.836,-1.189,8.113,14.0
58.57,-1.096,7.226,33.0
74.599,-1.381,8.783,25.0
65.48,-1.199,7.342,9.0
63.378,-1.154,8.909,20.0
58.079,-1.046,7.834,32.0
62.773,-1.117,8.112,22.0
58.597,-1.03,7.236,33.0
74.587,-1.297,8.79,12.0
65.245,-1.122,7.322,24.0
63.367,-1.081,8.913,27.0
58.11,-0.979,7.844,27.0
62.797,-1.046,8.12,20.0
58.346,-0.96,7.208,30.0
60.038,-0.976,7.079,6.0
64.524,-1.036,7.244,9.0
63.427,-1.01,8.924,25.0
58.175,-0.914,7.854,30.0
57.864,-0.898,7.484,24.0
58.275,-0.892,7.201,30.0
60.016,-0.907,7.077,19.0
57.266,-0.854,6.43,20.0
63.49,-0.938,8.933,26.0
58.181,-0.848,7.855,32.0
57.881,-0.832,7.485,32.0
58.325,-0.827,7.206,31.0
59.995,-0.839,7.072,19.0
57.226,-0.789,6.423,21.0
63.373,-0.864,8.914,32.0
58.392,-0.784,7.88,32.0
57.938,-0.766,7.489,32.0
58.442,-0.762,7.216,33.0
60.071,-0.771,7.077,27.0
57.287,-0.724,6.425,23.0
63.509,-0.793,8.927,27.0
58.337,-0.716,7.866,31.0
57.913,-0.7,7.479,29.0
58.373,-0.694,7.2,33.0
60.06,-0.702,7.068,30.0
64.33,-0.74,7.206,10.0
63.583,-0.72,8.928,26.0
58.356,-0.65,7.86,32.0
57.616,-0.63,7.432,32.0
58.53,-0.629,7.21,33.0
60.032,-0.634,7.054,24.0
57.252,-0.593,6.403,20.0
0.0,0.0,0.0,0.0
58.281,-0.582,7.839,28.0
57.179,-0.56,7.364,22.0
58.868,-0.565,7.239,33.0
60.031,-0.566,7.041,24.0
60.042,-0.554,6.701,8.0
62.883,-0.568,8.803,10.0
58.366,-0.516,7.836,31.0
57.581,-0.498,7.401,31.0
0.0,0.0,0.0,0.0
60.018,-0.496,7.023,24.0
57.354,-0.464,6.386,28.0
63.697,-0.502,8.899,31.0
58.519,-0.451,7.839,32.0
57.907,-0.435,7.426,33.0
57.434,-0.421,7.031,26.0
63.676,-0.455,7.432,22.0
57.374,-0.399,6.37,22.0
63.752,-0.43,8.885,23.0
58.902,-0.386,7.871,13.0
57.489,-0.366,7.352,31.0
57.674,-0.357,7.04,32.0
63.668,-0.382,7.408,7.0
57.439,-0.334,6.356,27.0
63.711,-0.357,8.856,8.0
58.92,-0.32,7.851,11.0
57.559,-0.302,7.339,31.0
57.862,-0.293,7.04,33.0
59.795,-0.292,6.934,32.0
57.454,-0.27,6.334,23.0
59.071,-0.264,8.186,23.0
59.004,-0.253,7.837,29.0
58.003,-0.239,7.37,32.0
57.337,-0.226,6.951,31.0
59.677,-0.225,6.893,23.0
57.484,-0.206,6.312,20.0
51.936,-0.174,7.173,26.0
58.733,-0.186,7.773,24.0
57.931,-0.174,7.333,33.0
57.34,-0.162,6.923,29.0
59.906,-0.159,6.89,7.0
57.528,-0.143,6.288,24.0
51.988,-0.116,7.153,22.0
58.706,-0.122,7.739,28.0
57.813,-0.11,7.288,33.0
57.384,-0.098,6.898,26.0
56.524,-0.088,6.471,14.0
57.514,-0.08,6.255,24.0
51.296,-0.058,7.029,26.0
58.771,-0.057,7.714,14.0
57.629,-0.046,7.232,31.0
57.465,-0.036,6.875,28.0
56.547,-0.027,6.441,25.0
57.514,-0.018,6.221,23.0
51.298,-0.002,6.999,26.0
61.125,0.007,7.986,21.0
58.338,0.016,7.285,7.0
57.411,0.025,6.833,24.0
56.595,0.033,6.411,24.0
57.498,0.043,6.183,26.0
51.175,0.052,6.949,30.0
0.0,0.0,0.0,0.0
58.008,0.078,7.205,18.0
57.403,0.087,6.793,27.0
56.563,0.095,6.368,25.0
57.453,0.105,6.139,31.0
51.27,0.108,6.926,24.0
62.937,0.142,8.137,7.0
57.44,0.139,7.094,14.0
57.495,0.148,6.763,30.0
56.555,0.154,6.327,28.0
59.161,0.171,6.279,7.0
51.315,0.162,6.894,5.0
48.935,0.163,6.29,10.0
58.297,0.202,7.156,18.0
57.366,0.208,6.705,32.0
56.613,0.214,6.291,29.0
57.267,0.224,6.034,23.0
56.031,0.236,7.484,10.0
58.806,0.256,7.513,7.0
0.0,0.0,0.0,0.0
57.367,0.267,6.66,31.0
56.765,0.273,6.262,30.0
57.351,0.283,5.997,20.0
48.38,0.254,6.422,26.0
48.991,0.263,6.218,15.0
59.638,0.329,7.224,34.0
57.088,0.324,6.579,31.0
56.952,0.331,6.235,26.0
57.304,0.341,5.943,24.0
48.407,0.303,6.383,26.0
49.006,0.313,6.177,22.0
60.238,0.393,7.244,25.0
56.879,0.38,6.504,20.0
57.139,0.39,6.205,31.0
57.321,0.398,5.894,25.0
49.084,0.356,6.428,24.0
48.954,0.361,6.126,16.0
60.197,0.453,7.183,34.0
52.475,0.402,5.952,22.0
57.452,0.447,6.185,30.0
0.0,0.0,0.0,0.0
51.628,0.425,6.711,10.0
58.552,0.49,7.271,25.0
48.734,0.414,5.768,1.0
56.871,0.491,6.396,9.0
57.484,0.503,6.133,19.0
58.447,0.519,5.898,33.0
48.606,0.446,6.27,20.0
58.975,0.55,7.264,26.0
52.766,0.498,6.193,22.0
56.946,0.545,6.347,18.0
57.53,0.558,6.079,10.0
57.901,0.569,5.784,23.0
48.231,0.489,6.171,23.0
59.13,0.606,7.222,13.0
52.664,0.547,6.125,10.0
57.164,0.6,6.311,31.0
50.091,0.532,5.24,29.0
57.772,0.62,5.71,26.0
48.262,0.534,6.123,23.0
59.103,0.661,7.154,12.0
52.616,0.594,6.063,22.0
57.349,0.654,6.269,31.0
49.994,0.576,5.175,23.0
57.71,0.672,5.64,29.0
48.242,0.576,6.067,30.0
52.683,0.635,6.318,15.0
52.513,0.639,5.992,14.0
57.387,0.705,6.209,31.0
50.048,0.62,5.124,16.0
57.029,0.713,5.51,31.0
48.783,0.625,6.079,24.0
0.0,0.0,0.0,0.0
49.531,0.645,5.594,8.0
50.159,0.659,5.368,18.0
63.169,0.836,6.395,19.0
56.906,0.76,5.431,27.0
48.904,0.669,6.035,23.0
48.462,0.667,5.698,16.0
49.868,0.692,5.573,10.0
57.504,0.804,6.085,12.0
57.051,0.803,5.706,13.0
56.74,0.804,5.347,28.0
49.113,0.712,6.001,21.0
48.656,0.71,5.66,22.0
49.97,0.734,5.522,23.0
50.13,0.741,5.243,20.0
57.245,0.852,5.655,5.0
57.012,0.854,5.301,31.0
48.872,0.747,5.909,30.0
48.694,0.749,5.603,16.0
50.166,0.776,5.48,24.0
55.008,0.856,5.683,29.0
57.294,0.897,5.586,19.0
57.256,0.902,5.251,28.0
48.875,0.785,5.846,23.0
0.0,0.0,0.0,0.0
50.314,0.817,5.43,30.0
55.051,0.898,5.615,15.0
57.2,0.939,5.502,18.0
57.273,0.945,5.177,20.0
48.739,0.819,5.764,26.0
50.084,0.846,5.63,24.0
57.733,0.98,6.153,6.0
55.387,0.945,5.574,11.0
57.3,0.982,5.434,28.0
57.097,0.983,5.084,31.0
48.751,0.854,5.698,18.0
50.178,0.883,5.572,27.0
49.934,0.883,5.253,11.0
49.12,0.872,4.876,19.0
57.438,1.024,5.368,30.0
55.912,1.001,4.901,18.0
0.0,0.0,0.0,0.0
50.198,0.918,5.503,17.0
54.994,1.01,5.708,17.0
49.333,0.909,4.827,11.0
57.011,1.054,5.247,30.0
62.506,1.161,5.39,23.0
50.174,0.947,5.722,28.0
50.078,0.948,5.418,24.0
55.011,1.046,5.63,28.0
58.858,1.123,5.675,19.0
56.279,1.077,5.098,29.0
63.238,1.215,5.361,39.0
50.109,0.977,5.64,24.0
50.005,0.979,5.336,23.0
55.279,1.085,5.575,7.0
57.642,1.135,5.472,27.0
55.975,1.105,4.988,22.0
63.645,1.261,5.301,7.0
50.036,1.006,5.557,40.0
50.025,1.009,5.263,19.0
49.169,0.994,4.885,23.0
56.914,1.154,5.317,31.0
55.977,1.138,4.903,23.0
63.137,1.287,5.163,14.0
49.939,1.033,5.469,18.0
55.039,1.141,5.705,28.0
61.081,1.269,5.974,26.0
56.519,1.177,5.192,30.0
56.088,1.171,4.826,16.0
63.158,1.322,5.067,13.0
57.709,1.224,6.229,12.0
55.169,1.173,5.632,21.0
57.799,1.232,5.562,7.0
56.243,1.201,5.078,30.0
68.993,1.476,5.828,8.0
62.933,1.35,4.949,20.0
57.695,1.253,6.136,12.0
49.269,1.072,4.951,28.0
57.523,1.254,5.444,31.0
55.981,1.222,4.966,30.0
63.185,1.382,5.236,21.0
62.928,1.379,4.849,14.0
55.003,1.221,5.761,14.0
49.191,1.093,4.864,17.0
56.758,1.263,5.28,30.0
55.971,1.247,4.874,30.0
63.085,1.408,5.126,22.0
83.476,1.866,6.297,24.0
49.715,1.125,5.125,19.0
62.171,1.408,6.044,36.0
56.338,1.277,5.148,30.0
63.529,1.442,5.427,13.0
76.884,1.749,6.12,24.0
83.423,1.899,6.155,29.0
49.477,1.139,5.017,24.0
62.386,1.438,5.961,18.0
56.073,1.294,5.03,27.0
63.107,1.457,5.285,16.0
77.027,1.781,6.002,11.0
82.687,1.913,5.962,21.0
49.219,1.152,4.907,22.0
57.164,1.338,5.365,25.0
56.007,1.312,4.928,24.0
63.049,1.479,5.173,21.0
74.742,1.754,5.697,11.0
82.458,1.937,5.804,21.0
49.134,1.166,4.814,5.0
56.466,1.34,5.202,30.0
63.385,1.505,5.468,16.0
63.133,1.5,5.071,8.0
83.149,1.977,6.193,35.0
82.458,1.961,5.661,30.0
61.92,1.488,5.958,18.0
56.132,1.349,5.072,27.0
63.089,1.516,5.332,13.0
74.698,1.796,5.87,14.0
82.44,1.982,5.998,25.0
82.17,1.976,5.499,28.0
57.224,1.389,5.406,22.0
56.063,1.361,4.968,17.0
0.0,0.0,0.0,0.0
83.361,2.025,6.404,12.0
82.394,2.001,5.848,30.0
82.013,1.992,5.343,26.0
56.564,1.386,5.242,31.0
63.255,1.55,5.492,23.0
64.183,1.572,5.196,11.0
83.243,2.039,6.245,26.0
82.439,2.019,5.705,32.0
82.095,2.01,5.202,24.0
56.146,1.386,5.102,24.0
63.078,1.557,5.363,11.0
74.708,1.843,5.914,12.0
82.459,2.033,6.038,25.0
82.253,2.027,5.543,29.0
82.248,2.027,5.065,23.0
56.078,1.393,4.994,8.0
64.932,1.612,5.402,28.0
74.731,1.854,5.779,21.0
82.386,2.043,5.882,29.0
82.097,2.034,5.383,26.0
82.253,2.037,4.913,19.0
63.208,1.577,5.511,24.0
64.615,1.611,5.256,13.0
83.161,2.071,6.278,16.0
82.419,2.051,5.732,29.0
82.062,2.041,5.229,24.0
82.264,2.044,4.762,30.0
63.152,1.58,5.39,21.0
74.742,1.869,5.941,11.0
82.43,2.059,6.069,26.0
82.208,2.051,5.564,29.0
82.072,2.045,5.076,26.0
82.504,2.054,4.622,33.0
0.0,0.0,0.0,0.0
74.736,1.87,5.8,21.0
82.324,2.058,5.906,28.0
82.066,2.048,5.4,30.0
82.149,2.049,4.926,21.0
82.925,2.065,4.49,20.0
64.708,1.621,5.278,13.0
83.112,2.079,6.293,16.0
82.463,2.06,5.761,33.0
82.035,2.047,5.245,26.0
82.218,2.048,4.777,35.0
83.757,2.083,4.378,24.0
74.718,1.869,5.953,11.0
82.457,2.059,6.087,29.0
82.258,2.051,5.591,30.0
82.112,2.043,5.093,27.0
82.495,2.05,4.637,32.0
83.991,2.083,4.232,9.0
74.746,1.864,5.813,21.0
82.351,2.049,5.921,28.0
82.086,2.039,5.423,23.0
82.281,2.04,4.947,22.0
82.842,2.049,4.497,19.0
88.906,2.196,4.309,9.0
83.245,2.066,6.313,18.0
82.436,2.041,5.768,30.0
82.094,2.028,5.264,24.0
82.323,2.029,4.789,36.0
83.747,2.06,4.385,21.0
88.903,2.182,4.136,8.0
82.575,2.036,6.101,24.0
82.335,2.025,5.603,30.0
82.213,2.017,5.113,25.0
82.491,2.019,4.641,34.0
0.0,0.0,0.0,0.0
55.98,1.363,2.498,0.0
82.358,2.015,5.928,28.0
82.022,2.001,5.422,26.0
82.345,2.003,4.963,26.0
82.723,2.007,4.494,24.0
88.882,2.151,4.313,11.0
0.0,0.0,0.0,0.0
82.459,1.998,5.775,33.0
82.165,1.984,5.274,25.0
82.363,1.983,4.805,35.0
83.617,2.008,4.383,22.0
88.967,2.13,4.145,10.0
0.0,0.0,0.0,0.0
82.338,1.972,5.606,30.0
82.261,1.964,5.12,32.0
82.585,1.965,4.657,32.0
85.557,2.029,4.316,12.0
56.104,1.326,2.503,0.0
0.0,0.0,0.0,0.0
82.093,1.94,5.427,28.0
82.254,1.937,4.956,35.0
82.717,1.941,4.5,25.0
85.604,2.002,4.15,10.0
0.0,0.0,0.0,0.0
0.0,0.0,0.0,0.0
82.277,1.914,5.276,21.0
82.41,1.911,4.803,27.0
83.57,1.93,4.383,19.0
88.916,2.046,4.136,10.0
0.0,0.0,0.0,0.0
54.514,1.245,1.9,1.0
82.347,1.884,5.119,30.0
83.139,1.895,4.683,17.0
88.83,2.016,4.486,12.0
55.968,1.265,2.494,0.0
0.0,0.0,0.0,0.0
54.463,1.221,1.792,14.0
84.025,1.886,5.058,7.0
83.076,1.856,4.515,19.0
88.595,1.971,4.299,25.0
0.0,0.0,0.0,0.0
0.0,0.0,0.0,0.0
54.213,1.191,1.677,0.0
83.987,1.845,4.889,24.0
83.507,1.826,4.373,11.0
88.604,1.928,4.122,9.0
0.0,0.0,0.0,0.0
54.494,1.175,1.896,18.0
54.26,1.164,1.572,0.0
83.817,1.798,4.714,19.0
88.646,1.893,4.468,16.0
0.0,0.0,0.0,0.0
0.0,0.0,0.0,0.0
54.474,1.145,1.787,5.0
54.398,1.138,1.468,0.0
83.538,1.746,4.533,12.0
88.62,1.842,4.291,21.0
56.202,1.162,2.393,0.0
0.0,0.0,0.0,0.0
54.415,1.113,1.678,0.0
54.36,1.106,1.36,0.0
85.505,1.737,4.471,11.0
88.908,1.795,4.13,3.0
0.0,0.0,0.0,0.0
0.0,0.0,0.0,0.0
54.296,1.077,1.568,1.0
54.637,1.078,1.261,0.0
88.767,1.748,4.468,6.0
0.0,0.0,0.0,0.0
0.0,0.0,0.0,0.0
0.0,0.0,0.0,0.0
54.417,1.045,1.466,0.0
0.0,0.0,0.0,0.0
90.447,1.721,4.375,14.0
0.0,0.0,0.0,0.0
0.0,0.0,0.0,0.0
0.0,0.0,0.0,0.0
54.539,1.009,1.362,1.0
0.0,0.0,0.0,0.0
90.803,1.663,4.214,4.0
0.0,0.0,0.0,0.0
0.0,0.0,0.0,0.0
0.0,0.0,0.0,0.0
54.722,0.973,1.259,0.0
43.323,0.764,0.745,0.0
0.0,0.0,0.0,0.0
0.0,0.0,0.0,0.0
55.068,0.952,1.806,2.0
54.985,0.943,1.479,2.0
0.0,0.0,0.0,0.0
0.0,0.0,0.0,0.0
0.0,0.0,0.0,0.0
0.0,0.0,0.0,0.0
55.131,0.91,1.702,1.0
55.088,0.901,1.374,0.0
0.0,0.0,0.0,0.0
38.141,0.613,0.508,1.0
55.662,0.889,2.258,1.0
55.466,0.878,1.927,0.0
55.313,0.867,1.6,0.0
0.0,0.0,0.0,0.0
0.0,0.0,0.0,0.0
34.805,0.53,0.396,0.0
55.662,0.841,2.15,0.0
0.0,0.0,0.0,0.0
55.809,0.826,1.507,0.0
0.0,0.0,0.0,0.0
40.488,0.587,0.619,2.0
33.875,0.486,0.321,0.0
0.0,0.0,0.0,0.0
0.0,0.0,0.0,0.0
0.0,0.0,0.0,0.0
0.0,0.0,0.0,0.0
37.834,0.514,0.505,0.0
31.989,0.429,0.241,0.0
56.194,0.747,1.955,0.0
56.251,0.738,1.63,0.0
57.588,0.746,1.335,1.0
0.0,0.0,0.0,0.0
35.286,0.446,0.404,0.0
28.944,0.361,0.163,1.0
56.569,0.697,1.861,0.0
56.694,0.689,1.535,0.0
0.0,0.0,0.0,0.0
0.0,0.0,0.0,0.0
33.538,0.39,0.321,0.0
28.839,0.33,0.108,6.0
56.994,0.645,1.768,0.0
57.676,0.643,1.454,0.0
0.0,0.0,0.0,0.0
0.0,0.0,0.0,0.0
0.0,0.0,0.0,0.0
27.946,0.292,0.053,0.0
57.441,0.591,1.674,0.0
0.0,0.0,0.0,0.0
0.0,0.0,0.0,0.0
35.579,0.347,0.414,0.0
28.946,0.277,0.169,1.0
26.673,0.25,0.001,0.0
57.949,0.534,1.582,2.0
0.0,0.0,0.0,0.0
41.022,0.363,0.643,0.0
0.0,0.0,0.0,0.0
28.826,0.244,0.115,5.0
25.85,0.214,-0.046,0.0
0.0,0.0,0.0,0.0
0.0,0.0,0.0,0.0
0.0,0.0,0.0,0.0
0.0,0.0,0.0,0.0
28.268,0.208,0.062,1.0
24.885,0.178,-0.088,0.0
0.0,0.0,0.0,0.0
43.593,0.296,0.779,1.0
35.89,0.237,0.434,0.0
0.0,0.0,0.0,0.0
27.043,0.168,0.01,0.0
23.772,0.143,-0.128,0.0
0.0,0.0,0.0,0.0
40.752,0.229,0.655,0.0
33.741,0.183,0.347,0.0
28.786,0.15,0.126,1.0
26.024,0.13,-0.036,0.0
22.819,0.11,-0.163,1.0
0.0,0.0,0.0,0.0
37.519,0.165,0.536,0.0
32.128,0.135,0.273,0.0
28.446,0.114,0.074,1.0
25.062,0.095,-0.079,0.0
21.784,0.078,-0.195,3.0
0.0,0.0,0.0,0.0
35.846,0.114,0.449,0.0
0.0,0.0,0.0,0.0
27.107,0.074,0.023,0.0
23.973,0.061,-0.117,0.0
20.979,0.049,-0.224,2.0
41.825,0.089,0.694,0.0
0.0,0.0,0.0,0.0
28.859,0.049,0.145,0.0
26.276,0.039,-0.021,0.0
23.416,0.03,-0.155,0.0
19.865,0.021,-0.246,0.0
38.626,0.032,0.575,0.0
33.227,0.02,0.303,1.0
28.65,0.011,0.095,1.0
25.389,0.005,-0.064,0.0
21.945,0.0,-0.182,0.0
18.958,-0.004,-0.267,0.0
0.0,0.0,0.0,0.0
31.348,-0.021,0.233,0.0
27.695,-0.025,0.045,0.0
24.186,-0.027,-0.102,0.0
21.191,-0.028,-0.211,1.0
18.38,-0.029,-0.29,0.0
0.0,0.0,0.0,0.0
28.861,-0.059,0.166,1.0
26.733,-0.061,0.0,0.0
23.606,-0.059,-0.139,0.0
20.291,-0.055,-0.236,0.0
17.723,-0.052,-0.309,0.0
33.171,-0.106,0.328,1.0
28.787,-0.099,0.118,7.0
25.636,-0.094,-0.042,0.0
22.692,-0.088,-0.17,0.0
19.477,-0.08,-0.258,0.0
17.167,-0.075,-0.327,0.0
31.901,-0.147,0.263,1.0
28.582,-0.138,0.071,1.0
24.861,-0.126,-0.081,0.0
21.842,-0.116,-0.199,2.0
18.73,-0.104,-0.279,0.0
16.747,-0.097,-0.346,0.0
31.164,-0.189,0.208,0.0
27.091,-0.17,0.024,0.0
24.106,-0.157,-0.117,0.0
20.618,-0.14,-0.221,0.0
18.157,-0.127,-0.299,0.0
16.403,-0.119,-0.365,0.0
28.806,-0.216,0.147,5.0
26.313,-0.204,-0.017,0.0
23.06,-0.184,-0.147,0.0
19.893,-0.164,-0.244,0.0
17.471,-0.148,-0.315,0.0
16.03,-0.14,-0.381,0.0
28.715,-0.258,0.103,5.0
25.388,-0.234,-0.055,0.0
22.453,-0.213,-0.178,1.0
19.107,-0.186,-0.263,0.0
17.024,-0.17,-0.332,0.0
15.692,-0.16,-0.397,0.0
27.896,-0.293,0.058,0.0
24.43,-0.262,-0.089,0.0
21.516,-0.237,-0.202,0.0
18.537,-0.209,-0.283,0.0
16.65,-0.192,-0.35,0.0
15.306,-0.18,-0.41,0.0
0.0,0.0,0.0,0.0
23.441,-0.288,-0.12,0.0
20.491,-0.257,-0.223,0.0
17.895,-0.229,-0.3,0.0
16.295,-0.213,-0.367,0.0
14.86,-0.198,-0.42,0.0
26.085,-0.354,-0.022,0.0
23.192,-0.321,-0.152,1.0
19.741,-0.279,-0.243,0.0
17.408,-0.25,-0.316,0.0
15.952,-0.234,-0.382,0.0
14.609,-0.218,-0.434,0.0
25.318,-0.384,-0.057,0.0
22.265,-0.344,-0.178,0.0
19.101,-0.3,-0.263,0.0
16.968,-0.271,-0.333,0.0
15.671,-0.255,-0.397,0.0
14.317,-0.237,-0.445,0.0
24.409,-0.41,-0.089,0.0
21.72,-0.37,-0.204,0.0
18.454,-0.32,-0.279,0.0
16.654,-0.293,-0.349,0.0
15.133,-0.27,-0.404,0.0
14.026,-0.254,-0.455,0.0
23.647,-0.435,-0.118,0.0
20.607,-0.385,-0.221,0.0
18.035,-0.342,-0.297,0.0
16.321,-0.314,-0.364,0.0
14.901,-0.29,-0.418,0.0
13.748,-0.272,-0.464,0.0
23.174,-0.464,-0.146,0.0
19.75,-0.401,-0.238,0.0
17.534,-0.361,-0.312,0.0
16.046,-0.335,-0.379,0.0
14.675,-0.31,-0.431,0.0
13.552,-0.29,-0.476,0.0
22.397,-0.486,-0.17,0.0
19.37,-0.425,-0.258,0.0
17.074,-0.38,-0.325,0.0
15.757,-0.355,-0.392,0.0
14.41,-0.329,-0.441,0.0
13.346,-0.308,-0.485,0.0
21.889,-0.511,-0.194,0.0
18.652,-0.441,-0.272,0.0
16.735,-0.4,-0.34,0.0
15.373,-0.372,-0.402,0.0
14.126,-0.346,-0.45,0.0
13.064,-0.324,-0.491,0.0
20.914,-0.524,-0.211,0.0
18.223,-0.461,-0.288,0.0
16.506,-0.423,-0.355,0.0
15.054,-0.39,-0.411,0.0
13.866,-0.363,-0.458,0.0
12.911,-0.342,-0.501,0.0
20.577,-0.55,-0.232,0.0
17.767,-0.481,-0.302,0.0
16.229,-0.444,-0.368,0.0
14.769,-0.408,-0.421,0.0
13.725,-0.383,-0.47,0.0
12.77,-0.361,-0.51,0.0
19.536,-0.556,-0.242,0.0
17.37,-0.5,-0.315,0.0
15.884,-0.462,-0.379,0.0
14.572,-0.428,-0.432,0.0
13.545,-0.402,-0.479,0.0
12.563,-0.377,-0.516,0.0
19.248,-0.581,-0.26,0.0
17.085,-0.521,-0.329,0.0
15.705,-0.484,-0.392,0.0
14.322,-0.446,-0.44,0.0
13.333,-0.419,-0.486,0.0
12.42,-0.394,-0.524,0.0
18.755,-0.599,-0.274,0.0
16.782,-0.541,-0.341,0.0
15.372,-0.501,-0.4,0.0
14.124,-0.465,-0.45,0.0
13.067,-0.434,-0.49,0.0
12.298,-0.412,-0.532,0.0
18.227,-0.615,-0.285,0.0
16.487,-0.561,-0.352,0.0
14.947,-0.513,-0.404,0.0
13.916,-0.482,-0.457,0.0
12.95,-0.453,-0.499,0.0
12.102,-0.427,-0.536,0.0
17.924,-0.636,-0.298,0.0
16.242,-0.581,-0.363,0.0
14.789,-0.534,-0.415,0.0
13.675,-0.498,-0.463,0.0
12.804,-0.47,-0.506,0.0
11.978,-0.444,-0.542,0.0
17.557,-0.655,-0.309,0.0
16.031,-0.603,-0.374,0.0
14.625,-0.554,-0.424,0.0
13.585,-0.519,-0.473,0.0
12.62,-0.486,-0.511,0.0
11.89,-0.462,-0.549,0.0
17.247,-0.674,-0.32,0.0
15.808,-0.622,-0.383,0.0
14.497,-0.575,-0.434,0.0
13.422,-0.537,-0.479,0.0
12.555,-0.506,-0.52,0.0
11.75,-0.478,-0.553,0.0
17.015,-0.695,-0.331,0.0
15.618,-0.643,-0.392,0.0
14.257,-0.592,-0.439,0.0
13.219,-0.553,-0.484,0.0
12.414,-0.523,-0.525,0.0
11.645,-0.495,-0.558,0.0
16.781,-0.716,-0.341,0.0
15.376,-0.661,-0.399,0.0
14.135,-0.612,-0.447,0.0
13.1,-0.572,-0.49,0.0
12.322,-0.542,-0.531,0.0
11.558,-0.512,-0.564,0.0
16.547,-0.736,-0.349,0.0
15.025,-0.673,-0.402,0.0
13.944,-0.629,-0.452,0.0
12.991,-0.591,-0.496,0.0
12.205,-0.559,-0.536,0.0
11.44,-0.528,-0.567,0.0
16.399,-0.76,-0.359,0.0
14.858,-0.693,-0.409,0.0
13.815,-0.649,-0.459,0.0
12.817,-0.606,-0.5,0.0
11.968,-0.57,-0.534,0.0
11.317,-0.543,-0.57,0.0
16.136,-0.777,-0.365,0.0
14.719,-0.713,-0.416,0.0
13.669,-0.667,-0.464,0.0
12.829,-0.63,-0.509,0.0
11.982,-0.592,-0.544,0.0
11.262,-0.56,-0.575,0.0
15.963,-0.797,-0.372,0.0
14.645,-0.736,-0.424,0.0
13.573,-0.687,-0.47,0.0
12.683,-0.646,-0.512,0.0
11.878,-0.609,-0.547,0.0
11.19,-0.578,-0.579,0.0
15.785,-0.817,-0.378,0.0
14.53,-0.757,-0.43,0.0
13.42,-0.704,-0.473,0.0
12.532,-0.661,-0.514,0.0
11.846,-0.629,-0.553,0.0
11.102,-0.594,-0.581,0.0
15.635,-0.838,-0.384,0.0
14.342,-0.774,-0.434,0.0
13.338,-0.724,-0.479,0.0
12.416,-0.678,-0.517,0.0
11.756,-0.646,-0.556,0.0
10.999,-0.608,-0.582,0.0
15.402,-0.854,-0.388,0.0
14.272,-0.796,-0.44,0.0
13.218,-0.742,-0.482,0.0
12.327,-0.696,-0.52,0.0
11.617,-0.66,-0.556,0.0
10.97,-0.627,-0.587,0.0
15.322,-0.878,-0.394,0.0
14.137,-0.815,-0.443,0.0
13.163,-0.763,-0.487,0.0
12.325,-0.719,-0.527,0.0
11.566,-0.678,-0.559,0.0
10.909,-0.644,-0.589,0.0
15.185,-0.898,-0.398,0.0
14.02,-0.834,-0.446,0.0
13.072,-0.782,-0.49,0.0
12.307,-0.74,-0.532,0.0
11.532,-0.698,-0.563,0.0
10.862,-0.661,-0.592,0.0
15.159,-0.924,-0.404,0.0
13.922,-0.853,-0.45,0.0
12.99,-0.801,-0.493,0.0
12.171,-0.754,-0.531,0.0
11.441,-0.713,-0.564,0.0
10.731,-0.673,-0.589,0.0
14.993,-0.942,-0.406,0.0
13.826,-0.873,-0.452,0.0
12.96,-0.822,-0.497,0.0
12.052,-0.769,-0.531,0.0
11.377,-0.73,-0.565,0.0
10.732,-0.692,-0.593,0.0
14.849,-0.959,-0.408,0.0
13.793,-0.896,-0.456,0.0
12.828,-0.837,-0.496,0.0
12.012,-0.788,-0.533,0.0
11.367,-0.75,-0.569,0.0
10.7,-0.709,-0.595,0.0
14.84,-0.985,-0.413,0.0
13.763,-0.919,-0.46,0.0
12.852,-0.862,-0.501,0.0
11.962,-0.806,-0.535,0.0
11.32,-0.767,-0.57,0.0
10.684,-0.728,-0.598,0.0
14.765,-1.007,-0.415,0.0
13.677,-0.937,-0.461,0.0
12.79,-0.881,-0.503,0.0
11.927,-0.826,-0.537,0.0
11.242,-0.782,-0.569,0.0
10.594,-0.741,-0.596,0.0
14.7,-1.029,-0.417,0.0
13.68,-0.962,-0.464,0.0
12.783,-0.903,-0.505,0.0
11.868,-0.843,-0.537,0.0
11.215,-0.8,-0.57,0.0
10.533,-0.755,-0.595,0.0
14.715,-1.056,-0.42,0.0
13.582,-0.979,-0.464,0.0
12.704,-0.92,-0.505,0.0
11.866,-0.864,-0.539,0.0
11.205,-0.819,-0.572,0.0
10.558,-0.776,-0.598,0.0
14.667,-1.079,-0.422,0.0
13.596,-1.004,-0.467,0.0
12.678,-0.941,-0.506,0.0
11.825,-0.882,-0.539,0.0
11.158,-0.836,-0.571,0.0
10.577,-0.796,-0.601,0.0
14.655,-1.104,-0.423,0.0
13.508,-1.022,-0.465,0.0
12.625,-0.959,-0.505,0.0
11.868,-0.906,-0.543,0.0
11.145,-0.854,-0.572,0.0
10.636,-0.819,-0.605,0.0
14.633,-1.127,-0.424,0.0
13.558,-1.049,-0.468,0.0
12.582,-0.978,-0.505,0.0
11.841,-0.924,-0.542,0.0
11.11,-0.871,-0.571,0.0
10.575,-0.833,-0.602,0.0
14.569,-1.148,-0.423,0.0
13.537,-1.071,-0.468,0.0
12.658,-1.006,-0.508,0.0
11.867,-0.947,-0.544,0.0
11.199,-0.897,-0.576,0.0
10.47,-0.843,-0.597,0.0
14.606,-1.176,-0.424,0.0
13.504,-1.092,-0.467,0.0
12.599,-1.022,-0.506,0.0
11.899,-0.97,-0.545,0.0
11.171,-0.914,-0.574,0.0
10.561,-0.868,-0.601,0.0
14.61,-1.201,-0.424,0.0
13.539,-1.117,-0.468,0.0
12.706,-1.053,-0.51,0.0
11.839,-0.985,-0.542,0.0
11.185,-0.934,-0.574,0.0
10.609,-0.89,-0.604,0.0
14.637,-1.228,-0.424,0.0
13.528,-1.139,-0.467,0.0
12.599,-1.065,-0.505,0.0
11.824,-1.003,-0.54,0.0
11.16,-0.951,-0.572,0.0
10.601,-0.907,-0.602,0.0
14.653,-1.253,-0.423,0.0
13.554,-1.164,-0.466,0.0
12.689,-1.093,-0.507,0.0
11.851,-1.025,-0.54,0.0
11.199,-0.972,-0.572,0.0
10.599,-0.924,-0.601,0.0
14.663,-1.278,-0.421,0.0
13.574,-1.187,-0.465,0.0
12.672,-1.113,-0.504,0.0
11.885,-1.047,-0.54,0.0
11.226,-0.993,-0.572,0.0
10.546,-0.937,-0.596,0.0
14.725,-1.307,-0.42,0.0
13.605,-1.212,-0.464,0.0
12.7,-1.136,-0.503,0.0
11.922,-1.07,-0.539,0.0
11.278,-1.016,-0.573,0.0
10.66,-0.964,-0.6,0.0
14.754,-1.333,-0.418,0.0
13.686,-1.241,-0.463,0.0
12.787,-1.164,-0.503,0.0
11.885,-1.085,-0.535,0.0
11.291,-1.035,-0.57,0.0
10.631,-0.978,-0.596,0.0
14.837,-1.364,-0.417,0.0
13.761,-1.269,-0.462,0.0
12.796,-1.184,-0.5,0.0
11.909,-1.106,-0.533,0.0
11.34,-1.057,-0.57,0.0
10.637,-0.995,-0.593,0.0
14.907,-1.394,-0.414,0.0
13.795,-1.294,-0.459,0.0
12.801,-1.205,-0.497,0.0
11.961,-1.129,-0.531,0.0
11.348,-1.075,-0.567,0.0
10.637,-1.011,-0.59,0.0
14.917,-1.418,-0.41,0.0
13.848,-1.32,-0.457,0.0
12.97,-1.241,-0.499,0.0
11.997,-1.151,-0.529,0.0
11.386,-1.096,-0.565,0.0
10.713,-1.035,-0.59,0.0
14.994,-1.448,-0.407,0.0
13.913,-1.347,-0.454,0.0
12.945,-1.257,-0.493,0.0
12.102,-1.179,-0.529,0.0
11.46,-1.12,-0.564,0.0
10.73,-1.052,-0.587,0.0
15.157,-1.486,-0.405,0.0
13.997,-1.376,-0.451,0.0
12.214,-1.208,-0.529,0.0
11.464,-1.138,-0.559,0.0
10.802,-1.075,-0.586,0.0
15.201,-1.512,-0.4,0.0
14.088,-1.406,-0.447,0.0
13.092,-1.31,-0.488,0.0
12.251,-1.23,-0.525,0.0
11.531,-1.161,-0.557,0.0
10.874,-1.098,-0.585,0.0
15.367,-1.551,-0.397,0.0
14.164,-1.433,-0.443,0.0
13.171,-1.336,-0.484,0.0
12.327,-1.254,-0.522,0.0
11.567,-1.18,-0.553,0.0
10.853,-1.111,-0.579,0.0
15.436,-1.579,-0.391,0.0
14.241,-1.461,-0.439,0.0
13.262,-1.364,-0.481,0.0
12.326,-1.271,-0.516,0.0
11.646,-1.204,-0.551,0.0
10.954,-1.136,-0.579,0.0
15.558,-1.612,-0.386,0.0
14.319,-1.488,-0.433,0.0
13.247,-1.38,-0.473,0.0
12.429,-1.298,-0.514,0.0
11.737,-1.23,-0.549,0.0
11.066,-1.163,-0.578,0.0
15.634,-1.641,-0.379,0.0
14.443,-1.52,-0.429,0.0
13.476,-1.422,-0.474,0.0
12.519,-1.324,-0.51,0.0
11.774,-1.249,-0.544,0.0
11.12,-1.183,-0.574,0.0
15.964,-1.697,-0.378,0.0
14.604,-1.556,-0.425,0.0
13.567,-1.449,-0.469,0.0
12.603,-1.35,-0.506,0.0
11.868,-1.274,-0.541,0.0
11.235,-1.209,-0.573,0.0
16.158,-1.738,-0.372,0.0
14.713,-1.586,-0.419,0.0
13.744,-1.485,-0.466,0.0
12.676,-1.373,-0.5,0.0
11.914,-1.294,-0.535,0.0
11.253,-1.225,-0.567,0.0
16.357,-1.78,-0.366,0.0
14.829,-1.617,-0.412,0.0
13.827,-1.511,-0.46,0.0
12.823,-1.405,-0.498,0.0
12.05,-1.323,-0.533,0.0
11.453,-1.261,-0.569,0.0
16.51,-1.816,-0.358,0.0
15.004,-1.654,-0.407,0.0
13.987,-1.545,-0.456,0.0
12.996,-1.439,-0.495,0.0
12.166,-1.35,-0.53,0.0
11.453,-1.274,-0.561,0.0
16.766,-1.864,-0.352,0.0
15.224,-1.696,-0.402,0.0
14.113,-1.576,-0.449,0.0
13.038,-1.459,-0.488,0.0
12.313,-1.381,-0.527,0.0
11.554,-1.299,-0.558,0.0
16.927,-1.901,-0.343,0.0
15.372,-1.73,-0.395,0.0
14.226,-1.604,-0.442,0.0
13.27,-1.5,-0.486,0.0
12.367,-1.4,-0.52,0.0
11.67,-1.324,-0.554,0.0
17.186,-1.949,-0.335,0.0
15.69,-1.783,-0.391,0.0
14.392,-1.638,-0.436,0.0
13.361,-1.524,-0.479,0.0
12.446,-1.423,-0.514,0.0
11.703,-1.341,-0.547,0.0
17.449,-1.997,-0.326,0.0
15.885,-1.822,-0.383,0.0
14.56,-1.673,-0.43,0.0
13.574,-1.562,-0.476,0.0
12.584,-1.451,-0.509,0.0
11.851,-1.37,-0.544,0.0
17.657,-2.039,-0.316,0.0
16.077,-1.86,-0.374,0.0
14.894,-1.726,-0.427,0.0
13.632,-1.583,-0.466,0.0
12.768,-1.485,-0.506,0.0
11.993,-1.398,-0.54,0.0
17.922,-2.087,-0.305,0.0
16.335,-1.906,-0.366,0.0
15.019,-1.755,-0.418,1.0
13.86,-1.622,-0.462,0.0
12.863,-1.509,-0.499,0.0
12.095,-1.421,-0.534,0.0
18.416,-2.162,-0.298,0.0
16.623,-1.955,-0.358,0.0
15.077,-1.776,-0.407,0.0
13.925,-1.643,-0.452,0.0
12.967,-1.533,-0.491,0.0
12.239,-1.449,-0.53,0.0
18.881,-2.234,-0.288,0.0
16.899,-2.002,-0.349,0.0
15.374,-1.825,-0.401,0.0
14.145,-1.681,-0.446,0.0
13.177,-1.569,-0.487,0.0
12.345,-1.472,-0.523,0.0
19.231,-2.292,-0.276,0.0
17.141,-2.046,-0.339,0.0
15.499,-1.853,-0.39,0.0
14.33,-1.715,-0.439,0.0
13.323,-1.597,-0.48,0.0
12.419,-1.491,-0.515,0.0
19.544,-2.345,-0.263,0.0
17.445,-2.096,-0.328,0.0
15.834,-1.905,-0.383,0.0
14.578,-1.757,-0.433,0.0
13.502,-1.629,-0.474,0.0
12.64,-1.528,-0.512,0.0
19.984,-2.414,-0.249,0.0
17.732,-2.144,-0.317,0.0
16.124,-1.952,-0.375,0.0
14.771,-1.791,-0.425,0.0
13.642,-1.656,-0.466,0.0
12.744,-1.549,-0.504,0.0
22.19,-2.696,-0.256,0.0
18.045,-2.195,-0.305,0.0
16.477,-2.007,-0.367,0.0
14.945,-1.822,-0.415,0.0
13.84,-1.69,-0.459,0.0
12.915,-1.579,-0.498,0.0
22.188,-2.711,-0.234,1.0
18.431,-2.255,-0.294,0.0
16.784,-2.056,-0.357,0.0
15.094,-1.851,-0.404,0.0
14.049,-1.725,-0.452,0.0
13.098,-1.61,-0.492,0.0
22.16,-2.722,-0.211,1.0
19.076,-2.346,-0.285,0.0
16.997,-2.093,-0.345,0.0
15.515,-1.912,-0.4,0.0
14.218,-1.754,-0.443,0.0
13.289,-1.642,-0.485,0.0
22.195,-2.74,-0.189,3.0
19.476,-2.407,-0.27,0.0
17.311,-2.141,-0.333,0.0
15.723,-1.947,-0.389,0.0
14.506,-1.798,-0.437,0.0
13.472,-1.672,-0.478,0.0
22.3,-2.766,-0.167,4.0
20.115,-2.497,-0.258,0.0
17.654,-2.193,-0.322,0.0
15.974,-1.986,-0.379,0.0
14.741,-1.835,-0.428,0.0
13.618,-1.697,-0.469,0.0
22.337,-2.782,-0.144,1.0
20.723,-2.583,-0.245,1.0
17.964,-2.241,-0.309,0.0
16.339,-2.04,-0.37,0.0
14.882,-1.86,-0.417,0.0
13.853,-1.733,-0.462,0.0
24.057,-3.008,-0.129,1.0
21.04,-2.632,-0.226,1.0
18.445,-2.309,-0.297,0.0
16.679,-2.09,-0.359,0.0
15.157,-1.901,-0.408,0.0
13.977,-1.754,-0.451,0.0
25.228,-3.165,-0.108,3.0
22.315,-2.801,-0.215,4.0
19.063,-2.395,-0.286,0.0
16.97,-2.133,-0.347,0.0
15.483,-1.948,-0.4,0.0
14.288,-1.799,-0.446,0.0
25.49,-3.208,-0.081,6.0
22.436,-2.825,-0.192,6.0
19.529,-2.46,-0.271,0.0
17.338,-2.186,-0.336,0.0
15.777,-1.99,-0.39,0.0
14.53,-1.834,-0.437,0.0
25.493,-3.217,-0.053,11.0
22.696,-2.865,-0.169,4.0
20.196,-2.551,-0.259,0.0
17.689,-2.236,-0.323,0.0
15.967,-2.019,-0.377,0.0
14.699,-1.86,-0.426,0.0
25.474,-3.222,-0.025,14.0
23.329,-2.952,-0.148,4.0
20.742,-2.626,-0.243,1.0
18.019,-2.282,-0.309,0.0
16.411,-2.079,-0.369,0.0
15.002,-1.902,-0.418,0.0
25.449,-3.225,0.002,14.0
24.041,-3.048,-0.126,1.0
21.002,-2.663,-0.222,0.0
18.475,-2.344,-0.296,0.0
16.764,-2.128,-0.359,0.0
15.295,-1.942,-0.409,0.0
25.432,-3.228,0.031,12.0
25.319,-3.215,-0.104,4.0
22.382,-2.843,-0.212,4.0
19.2,-2.439,-0.286,0.0
17.052,-2.167,-0.346,0.0
15.57,-1.979,-0.399,0.0
25.44,-3.233,0.06,10.0
25.419,-3.231,-0.076,8.0
22.491,-2.859,-0.187,4.0
19.609,-2.494,-0.27,0.0
17.484,-2.224,-0.335,0.0
15.883,-2.021,-0.389,0.0
25.514,-3.246,0.089,4.0
25.412,-3.233,-0.047,12.0
22.89,-2.912,-0.165,5.0
20.518,-2.611,-0.26,0.0
17.833,-2.269,-0.321,0.0
16.115,-2.051,-0.377,0.0
25.888,-3.295,0.119,3.0
25.412,-3.234,-0.018,13.0
23.441,-2.983,-0.142,1.0
20.757,-2.642,-0.239,1.0
18.189,-2.315,-0.307,0.0
16.532,-2.104,-0.368,0.0
26.461,-3.368,0.152,1.0
25.424,-3.236,0.01,13.0
24.697,-3.143,-0.122,1.0
22.034,-2.804,-0.229,1.0
18.813,-2.394,-0.296,0.0
16.857,-2.145,-0.356,0.0
27.136,-3.453,0.186,1.0
25.412,-3.233,0.039,11.0
25.388,-3.23,-0.096,5.0
22.414,-2.851,-0.208,4.0
19.43,-2.471,-0.284,0.0
17.201,-2.188,-0.343,0.0
27.785,-3.534,0.223,1.0
25.452,-3.236,0.068,7.0
25.418,-3.231,-0.067,10.0
22.54,-2.865,-0.183,4.0
19.804,-2.517,-0.267,0.0
17.574,-2.233,-0.331,0.0
28.384,-3.606,0.26,1.0
25.665,-3.26,0.097,5.0
25.428,-3.229,-0.038,12.0
23.047,-2.926,-0.16,5.0
20.648,-2.62,-0.254,0.0
17.92,-2.274,-0.316,0.0
29.447,-3.736,0.303,0.0
26.01,-3.299,0.129,2.0
25.448,-3.226,-0.009,12.0
23.586,-2.989,-0.137,1.0
20.842,-2.641,-0.233,0.0
18.404,-2.331,-0.304,0.0
30.69,-3.887,0.351,0.0
26.761,-3.388,0.163,1.0
25.466,-3.223,0.018,11.0
25.216,-3.19,-0.119,2.0
22.322,-2.823,-0.224,4.0
19.134,-2.418,-0.295,0.0
31.763,-4.015,0.399,0.0
27.462,-3.469,0.198,1.0
25.49,-3.218,0.047,9.0
25.476,-3.215,-0.091,6.0
22.443,-2.831,-0.2,7.0
19.49,-2.457,-0.279,0.0
33.25,-4.193,0.455,0.0
27.989,-3.527,0.233,1.0
25.544,-3.217,0.075,6.0
25.515,-3.211,-0.063,11.0
22.529,-2.834,-0.176,4.0
20.201,-2.54,-0.266,0.0
34.26,-4.308,0.507,0.0
28.744,-3.612,0.271,0.0
25.815,-3.241,0.105,5.0
25.537,-3.204,-0.034,13.0
23.394,-2.934,-0.157,0.0
20.722,-2.597,-0.25,1.0
0.0,0.0,0.0,0.0
30.335,-3.799,0.32,1.0
26.056,-3.261,0.135,4.0
25.569,-3.197,-0.006,13.0
24.144,-3.017,-0.135,0.0
21.576,-2.694,-0.237,4.0
0.0,0.0,0.0,0.0
0.0,0.0,0.0,0.0
0.0,0.0,0.0,0.0
44.354,-4.925,0.729,0.0
29.599,-3.279,0.326,6.0
27.655,-3.057,0.155,1.0
0.0,0.0,0.0,0.0
37.918,-4.185,1.068,3.0
37.939,-4.177,0.863,1.0
37.787,-4.151,0.651,0.0
31.053,-3.403,0.367,0.0
27.629,-3.021,0.177,3.0
0.0,0.0,0.0,0.0
36.852,-4.022,1.067,0.0
36.88,-4.015,0.868,1.0
37.06,-4.025,0.667,1.0
37.495,-4.063,0.472,0.0
27.838,-3.009,0.2,1.0
36.308,-3.927,1.276,0.0
35.889,-3.872,1.066,2.0
36.08,-3.883,0.876,0.0
36.512,-3.92,0.685,10.0
37.416,-4.007,0.499,0.0
28.302,-3.024,0.224,1.0
35.605,-3.806,1.277,0.0
34.623,-3.691,1.054,0.0
34.902,-3.711,0.873,0.0
34.863,-3.698,0.679,0.0
34.413,-3.641,0.483,1.0
34.46,-3.637,0.297,0.0
35.005,-3.696,1.281,0.0
34.264,-3.608,1.067,0.0
34.138,-3.585,0.877,0.0
34.17,-3.578,0.689,0.0
34.385,-3.592,0.507,0.0
34.376,-3.581,0.32,0.0
34.711,-3.618,1.293,0.0
34.086,-3.543,1.084,0.0
34.016,-3.526,0.897,0.0
34.045,-3.519,0.709,1.0
34.226,-3.529,0.526,1.0
34.393,-3.536,0.342,0.0
34.312,-3.529,1.301,0.0
33.925,-3.48,1.101,1.0
33.935,-3.47,0.916,3.0
33.945,-3.461,0.728,1.0
34.041,-3.461,0.545,1.0
34.449,-3.493,0.364,0.0
34.217,-3.471,1.319,0.0
33.909,-3.429,1.121,3.0
33.915,-3.42,0.937,9.0
33.882,-3.406,0.748,1.0
33.984,-3.407,0.565,0.0
34.506,-3.449,0.385,0.0
34.166,-3.417,1.336,0.0
33.874,-3.377,1.14,3.0
33.883,-3.367,0.956,9.0
33.852,-3.354,0.766,2.0
33.892,-3.347,0.583,0.0
0.0,0.0,0.0,0.0
34.029,-3.352,1.35,0.0
33.873,-3.326,1.159,3.0
33.834,-3.312,0.972,9.0
33.839,-3.302,0.784,3.0
33.849,-3.293,0.6,0.0
34.65,-3.36,0.425,0.0
34.088,-3.307,1.37,0.0
33.855,-3.273,1.175,4.0
33.822,-3.26,0.99,15.0
33.814,-3.248,0.801,6.0
33.81,-3.237,0.616,0.0
34.604,-3.303,0.441,1.0
34.104,-3.256,1.388,0.0
33.841,-3.22,1.191,4.0
33.805,-3.206,1.005,20.0
33.79,-3.194,0.816,9.0
33.777,-3.182,0.631,0.0
34.554,-3.244,0.457,2.0
34.1,-3.202,1.403,1.0
33.821,-3.165,1.206,4.0
33.796,-3.152,1.02,31.0
33.781,-3.14,0.831,20.0
33.803,-3.131,0.647,2.0
34.344,-3.17,0.469,3.0
34.074,-3.146,1.417,0.0
33.827,-3.112,1.221,9.0
33.802,-3.099,1.034,53.0
33.789,-3.087,0.845,28.0
33.773,-3.074,0.659,0.0
34.314,-3.112,0.482,5.0
34.088,-3.093,1.431,0.0
33.815,-3.057,1.233,19.0
33.788,-3.043,1.046,78.0
33.777,-3.031,0.857,37.0
33.807,-3.023,0.672,0.0
34.326,-3.058,0.494,3.0
34.161,-3.043,1.445,0.0
33.802,-3.0,1.244,29.0
33.782,-2.987,1.058,97.0
33.764,-2.974,0.868,49.0
33.795,-2.966,0.683,4.0
34.225,-2.992,0.504,4.0
34.007,-2.973,1.45,0.0
33.801,-2.944,1.255,48.0
33.792,-2.932,1.068,120.0
33.805,-2.921,0.879,60.0
33.776,-2.907,0.693,0.0
34.188,-2.932,0.513,5.0
0.0,0.0,0.0,0.0
33.818,-2.888,1.265,64.0
33.788,-2.874,1.078,135.0
33.795,-2.863,0.888,73.0
33.805,-2.852,0.702,155.0
34.141,-2.869,0.521,4.0
34.276,-2.88,1.48,0.0
33.829,-2.831,1.274,81.0
33.798,-2.817,1.086,151.0
33.818,-2.807,0.897,151.0
33.821,-2.796,0.71,155.0
34.098,-2.807,0.528,4.0
34.22,-2.817,1.484,0.0
33.817,-2.771,1.28,82.0
33.792,-2.758,1.092,119.0
33.809,-2.747,0.903,85.0
33.834,-2.737,0.717,152.0
34.082,-2.746,0.534,4.0
34.229,-2.757,1.491,0.0
33.824,-2.713,1.286,84.0
33.805,-2.699,1.098,107.0
33.813,-2.688,0.908,84.0
33.843,-2.679,0.722,155.0
34.084,-2.686,0.539,4.0
0.0,0.0,0.0,0.0
33.833,-2.653,1.291,78.0
33.803,-2.639,1.103,93.0
33.824,-2.629,0.912,83.0
33.852,-2.619,0.726,157.0
34.059,-2.624,0.542,4.0
34.214,-2.634,1.498,0.0
33.848,-2.594,1.294,74.0
33.825,-2.58,1.106,82.0
33.831,-2.568,0.916,80.0
33.869,-2.56,0.729,154.0
34.064,-2.563,0.545,4.0
0.0,0.0,0.0,0.0
33.867,-2.534,1.297,64.0
33.832,-2.519,1.108,75.0
33.854,-2.509,0.918,72.0
33.87,-2.498,0.73,155.0
34.067,-2.501,0.546,3.0
34.378,-2.522,1.508,0.0
33.854,-2.471,1.297,51.0
33.853,-2.459,1.109,68.0
33.836,-2.446,0.917,57.0
33.876,-2.437,0.731,156.0
34.118,-2.443,0.546,4.0
185.285,-13.253,8.127,5.0
33.868,-2.41,1.297,43.0
33.855,-2.397,1.108,54.0
33.853,-2.385,0.916,48.0
33.862,-2.374,0.729,25.0
34.129,-2.381,0.545,2.0
34.283,-2.389,1.502,0.0
33.885,-2.349,1.296,32.0
33.856,-2.335,1.106,47.0
33.875,-2.324,0.915,38.0
33.934,-2.316,0.728,0.0
34.173,-2.32,0.543,1.0
0.0,0.0,0.0,0.0
33.906,-2.287,1.293,24.0
33.882,-2.273,1.103,35.0
33.897,-2.262,0.912,27.0
33.877,-2.248,0.722,0.0
34.342,-2.267,0.541,1.0
34.353,-2.265,1.497,0.0
33.933,-2.225,1.289,14.0
33.895,-2.21,1.099,32.0
33.921,-2.2,0.907,19.0
33.861,-2.184,0.717,0.0
34.345,-2.202,0.536,2.0
34.368,-2.2,1.491,0.0
33.964,-2.162,1.284,8.0
33.939,-2.148,1.094,39.0
33.949,-2.137,0.901,11.0
33.935,-2.124,0.711,0.0
34.498,-2.147,0.531,6.0
34.475,-2.141,1.489,0.0
34.007,-2.1,1.278,5.0
33.98,-2.087,1.088,8.0
33.977,-2.074,0.894,7.0
33.978,-2.063,0.705,0.0
34.655,-2.092,0.525,7.0
34.629,-2.086,1.487,0.0
34.052,-2.039,1.272,2.0
34.074,-2.028,1.082,14.0
34.009,-2.012,0.886,5.0
0.0,0.0,0.0,0.0
34.544,-2.019,0.514,1.0
0.0,0.0,0.0,0.0
34.088,-1.976,1.263,2.0
34.137,-1.966,1.073,158.0
34.071,-1.95,0.877,3.0
0.0,0.0,0.0,0.0
34.611,-1.956,0.504,0.0
0.0,0.0,0.0,0.0
34.196,-1.916,1.255,1.0
34.157,-1.901,1.062,254.0
34.177,-1.89,0.868,2.0
34.149,-1.876,0.676,0.0
34.64,-1.891,0.492,0.0
0.0,0.0,0.0,0.0
109.318,-5.914,3.971,38.0
34.186,-1.837,1.05,10.0
34.262,-1.829,0.857,0.0
34.451,-1.827,0.668,1.0
34.746,-1.83,0.479,0.0
0.0,0.0,0.0,0.0
109.381,-5.707,3.928,171.0
0.0,0.0,0.0,0.0
0.0,0.0,0.0,0.0
0.0,0.0,0.0,0.0
38.294,-1.944,0.512,0.0
0.0,0.0,0.0,0.0
109.397,-5.497,3.879,14.0
0.0,0.0,0.0,0.0
0.0,0.0,0.0,0.0
0.0,0.0,0.0,0.0
0.0,0.0,0.0,0.0
0.0,0.0,0.0,0.0
95.438,-4.61,3.337,1.0
0.0,0.0,0.0,0.0
0.0,0.0,0.0,0.0
0.0,0.0,0.0,0.0
36.494,-1.711,0.451,0.0
94.312,-4.407,3.778,5.0
93.596,-4.34,3.222,6.0
0.0,0.0,0.0,0.0
0.0,0.0,0.0,0.0
0.0,0.0,0.0,0.0
36.334,-1.634,0.429,0.0
92.73,-4.154,3.662,3.0
92.394,-4.107,3.128,6.0
0.0,0.0,0.0,0.0
0.0,0.0,0.0,0.0
0.0,0.0,0.0,0.0
0.0,0.0,0.0,0.0
92.276,-3.953,3.588,11.0
92.254,-3.919,3.066,5.0
0.0,0.0,0.0,0.0
0.0,0.0,0.0,0.0
0.0,0.0,0.0,0.0
34.524,-1.419,0.365,0.0
92.178,-3.77,3.523,35.0
92.323,-3.743,3.007,5.0
0.0,0.0,0.0,0.0
0.0,0.0,0.0,0.0
0.0,0.0,0.0,0.0
33.701,-1.32,0.333,0.0
92.181,-3.592,3.46,57.0
92.653,-3.579,2.954,1.0
0.0,0.0,0.0,0.0
0.0,0.0,0.0,0.0
0.0,0.0,0.0,0.0
32.639,-1.216,0.299,1.0
92.214,-3.417,3.395,152.0
92.811,-3.406,2.891,1.0
0.0,0.0,0.0,0.0
0.0,0.0,0.0,0.0
39.276,-1.401,0.553,0.0
32.156,-1.136,0.271,0.0
92.224,-3.24,3.325,151.0
0.0,0.0,0.0,0.0
0.0,0.0,0.0,0.0
0.0,0.0,0.0,0.0
37.753,-1.275,0.502,0.0
32.282,-1.08,0.246,0.0
92.195,-3.063,3.25,65.0
0.0,0.0,0.0,0.0
0.0,0.0,0.0,0.0
0.0,0.0,0.0,0.0
37.632,-1.199,0.469,0.0
31.399,-0.99,0.214,0.0
92.193,-2.887,3.172,34.0
0.0,0.0,0.0,0.0
0.0,0.0,0.0,0.0
0.0,0.0,0.0,0.0
36.129,-1.083,0.419,0.0
30.778,-0.912,0.183,0.0
92.293,-2.715,3.094,32.0
0.0,0.0,0.0,0.0
0.0,0.0,0.0,0.0
0.0,0.0,0.0,0.0
35.148,-0.987,0.376,0.0
28.747,-0.798,0.145,1.0
92.385,-2.544,3.013,5.0
0.0,0.0,0.0,0.0
0.0,0.0,0.0,0.0
0.0,0.0,0.0,0.0
33.355,-0.875,0.326,0.0
28.712,-0.744,0.118,5.0
96.814,-2.485,3.066,4.0
0.0,0.0,0.0,0.0
0.0,0.0,0.0,0.0
0.0,0.0,0.0,0.0
33.136,-0.808,0.292,1.0
28.691,-0.69,0.09,9.0
92.772,-2.21,2.847,1.0
0.0,0.0,0.0,0.0
0.0,0.0,0.0,0.0
38.228,-0.873,0.516,0.0
32.722,-0.736,0.256,1.0
28.581,-0.634,0.061,5.0
91.285,-2.003,2.707,1.0
0.0,0.0,0.0,0.0
0.0,0.0,0.0,0.0
0.0,0.0,0.0,0.0
31.286,-0.647,0.212,0.0
27.909,-0.568,0.03,0.0
90.029,-1.811,2.575,1.0
55.088,-1.091,1.261,0.0
0.0,0.0,0.0,0.0
34.638,-0.664,0.395,0.0
30.877,-0.582,0.176,0.0
27.178,-0.504,0.0,0.0
0.0,0.0,0.0,0.0
0.0,0.0,0.0,0.0
0.0,0.0,0.0,0.0
33.902,-0.588,0.349,1.0
28.769,-0.491,0.132,0.0
26.455,-0.443,-0.028,0.0
0.0,0.0,0.0,0.0
0.0,0.0,0.0,0.0
0.0,0.0,0.0,0.0
0.0,0.0,0.0,0.0
28.658,-0.437,0.099,1.0
25.679,-0.384,-0.057,0.0
63.935,-0.94,1.612,0.0
47.607,-0.686,0.929,0.0
0.0,0.0,0.0,0.0
32.368,-0.447,0.258,1.0
28.441,-0.384,0.064,1.0
25.152,-0.332,-0.086,0.0
0.0,0.0,0.0,0.0
0.0,0.0,0.0,0.0
0.0,0.0,0.0,0.0
31.653,-0.381,0.215,0.0
27.748,-0.326,0.029,0.0
24.319,-0.278,-0.112,0.0
0.0,0.0,0.0,0.0
0.0,0.0,0.0,0.0
0.0,0.0,0.0,0.0
28.807,-0.296,0.159,0.0
27.163,-0.271,-0.004,0.0
23.914,-0.232,-0.14,0.0
0.0,0.0,0.0,0.0
0.0,0.0,0.0,0.0
0.0,0.0,0.0,0.0
28.788,-0.247,0.123,5.0
26.162,-0.217,-0.037,0.0
23.007,-0.184,-0.164,0.0
0.0,0.0,0.0,0.0
0.0,0.0,0.0,0.0
32.631,-0.234,0.287,1.0
28.732,-0.197,0.085,6.0
25.465,-0.168,-0.069,0.0
22.223,-0.14,-0.188,0.0
0.0,0.0,0.0,0.0
0.0,0.0,0.0,0.0
31.564,-0.172,0.235,1.0
28.301,-0.147,0.046,1.0
24.695,-0.121,-0.101,0.0
21.731,-0.1,-0.213,1.0
0.0,0.0,0.0,0.0
35.674,-0.145,0.422,0.0
30.896,-0.117,0.188,0.0
27.097,-0.095,0.007,0.0
23.873,-0.077,-0.13,0.0
20.684,-0.061,-0.231,0.0
0.0,0.0,0.0,0.0
0.0,0.0,0.0,0.0
28.845,-0.062,0.135,3.0
26.253,-0.049,-0.029,0.0
23.377,-0.037,-0.16,0.0
20.036,-0.027,-0.252,0.0
0.0,0.0,0.0,0.0
33.135,-0.027,0.298,0.0
28.659,-0.015,0.094,1.0
25.534,-0.007,-0.065,0.0
22.357,0.0,-0.185,0.0
19.294,0.004,-0.27,0.0
0.0,0.0,0.0,0.0
0.0,0.0,0.0,0.0
28.252,0.029,0.052,1.0
24.652,0.031,-0.098,0.0
21.44,0.033,-0.208,4.0
18.649,0.033,-0.288,0.0
36.076,0.074,0.428,0.0
30.216,0.07,0.185,0.0
26.983,0.069,0.01,0.0
23.699,0.067,-0.129,0.0
20.93,0.064,-0.234,1.0
18.056,0.06,-0.306,0.0
0.0,0.0,0.0,0.0
28.789,0.111,0.133,0.0
26.204,0.107,-0.028,0.0
23.075,0.1,-0.16,0.0
19.938,0.092,-0.253,0.0
17.458,0.084,-0.322,0.0
32.552,0.166,0.288,0.0
28.671,0.154,0.089,1.0
25.357,0.142,-0.066,0.0
22.212,0.13,-0.188,2.0
19.114,0.116,-0.272,0.0
17.001,0.107,-0.339,0.0
31.086,0.205,0.227,0.0
27.663,0.189,0.043,0.0
24.635,0.175,-0.103,0.0
21.553,0.158,-0.216,1.0
18.531,0.14,-0.292,0.0
16.651,0.13,-0.359,0.0
28.94,0.234,0.166,1.0
26.775,0.223,0.0,0.0
23.653,0.202,-0.136,0.0
20.519,0.18,-0.238,0.0
17.884,0.161,-0.311,0.0
16.283,0.151,-0.377,0.0
28.853,0.274,0.119,5.0
26.046,0.254,-0.042,0.0
22.679,0.226,-0.167,0.0
19.587,0.2,-0.259,0.0
17.294,0.18,-0.328,0.0
15.892,0.169,-0.393,0.0
28.681,0.313,0.072,2.0
25.085,0.279,-0.08,0.0
21.921,0.249,-0.196,1.0
18.864,0.218,-0.28,0.0
16.838,0.199,-0.347,0.0
15.562,0.187,-0.41,0.0
27.227,0.334,0.024,0.0
24.085,0.301,-0.116,0.0
21.211,0.269,-0.224,0.0
18.25,0.236,-0.3,0.0
16.509,0.217,-0.367,0.0
15.142,0.202,-0.424,0.0
26.437,0.36,-0.019,0.0
23.244,0.321,-0.151,0.0
20.181,0.283,-0.247,0.0
17.546,0.25,-0.318,0.0
16.124,0.233,-0.385,0.0
14.824,0.217,-0.439,0.0
25.41,0.379,-0.061,0.0
22.328,0.338,-0.182,0.0
19.16,0.294,-0.267,0.0
17.044,0.265,-0.338,0.0
15.678,0.247,-0.401,0.0
14.35,0.229,-0.45,0.0
24.41,0.395,-0.1,0.0
21.492,0.352,-0.212,0.0
18.413,0.306,-0.288,0.0
16.606,0.279,-0.357,0.0
15.333,0.261,-0.418,0.0
14.001,0.241,-0.463,0.0
23.631,0.412,-0.137,0.0
20.237,0.357,-0.234,0.0
17.892,0.319,-0.311,0.0
16.19,0.292,-0.376,0.0
14.888,0.272,-0.432,0.0
13.728,0.253,-0.477,0.0
22.485,0.419,-0.169,0.0
19.647,0.37,-0.262,0.0
17.2,0.327,-0.328,0.0
15.777,0.303,-0.394,0.0
14.477,0.281,-0.445,0.0
13.447,0.264,-0.491,0.0
21.809,0.432,-0.203,0.0
18.66,0.373,-0.281,0.0
16.721,0.338,-0.349,0.0
15.475,0.316,-0.414,0.0
14.136,0.291,-0.459,0.0
13.129,0.273,-0.503,0.0
20.451,0.429,-0.226,0.0
18.036,0.381,-0.304,0.0
16.395,0.35,-0.371,0.0
14.891,0.32,-0.424,0.0
13.838,0.3,-0.475,0.0
12.897,0.282,-0.517,0.0
19.76,0.436,-0.254,0.0
17.376,0.387,-0.324,0.0
15.911,0.357,-0.388,0.0
14.609,0.33,-0.442,0.0
13.483,0.307,-0.486,0.0
12.63,0.29,-0.529,0.0
18.812,0.435,-0.275,0.0
16.869,0.393,-0.344,0.0
15.547,0.365,-0.407,0.0
14.195,0.336,-0.455,0.0
13.198,0.315,-0.5,0.0
12.39,0.298,-0.541,0.0
18.112,0.438,-0.298,0.0
16.428,0.4,-0.365,0.0
15.009,0.368,-0.421,0.0
13.877,0.342,-0.47,0.0
12.917,0.321,-0.513,0.0
12.137,0.304,-0.552,0.0
17.431,0.439,-0.319,0.0
15.928,0.404,-0.383,0.0
14.645,0.374,-0.437,0.0
13.55,0.348,-0.484,0.0
12.661,0.327,-0.526,0.0
11.853,0.308,-0.561,0.0
16.941,0.443,-0.34,0.0
15.588,0.41,-0.403,0.0
14.199,0.375,-0.45,0.0
13.256,0.353,-0.498,0.0
12.486,0.334,-0.541,0.0
11.681,0.315,-0.574,0.0
16.496,0.446,-0.362,0.0
15.153,0.412,-0.42,0.0
13.917,0.381,-0.466,0.0
12.91,0.355,-0.509,0.0
12.214,0.338,-0.552,0.0
11.347,0.316,-0.579,0.0
16.029,0.448,-0.381,0.0
14.662,0.412,-0.433,0.0
13.622,0.384,-0.482,0.0
12.646,0.359,-0.522,0.0
11.842,0.338,-0.557,0.0
11.164,0.32,-0.59,0.0
15.667,0.451,-0.401,0.0
14.382,0.416,-0.452,0.0
13.322,0.387,-0.496,0.0
12.46,0.364,-0.537,0.0
11.621,0.341,-0.569,0.0
10.925,0.322,-0.598,0.0
15.222,0.45,-0.418,0.0
13.888,0.413,-0.462,0.0
13.033,0.389,-0.509,0.0
12.213,0.366,-0.549,0.0
11.409,0.344,-0.579,0.0
10.723,0.325,-0.607,0.0
14.739,0.447,-0.432,0.0
13.643,0.416,-0.479,0.0
12.697,0.389,-0.52,0.0
11.876,0.365,-0.556,0.0
11.198,0.346,-0.589,0.0
10.486,0.325,-0.613,0.0
14.333,0.445,-0.447,0.0
13.342,0.416,-0.494,0.0
12.454,0.39,-0.533,0.0
11.664,0.367,-0.568,0.0
10.896,0.344,-0.594,0.0
10.352,0.328,-0.625,0.0
13.993,0.444,-0.463,0.0
12.999,0.414,-0.505,0.0
12.18,0.39,-0.544,0.0
11.41,0.366,-0.577,0.0
10.743,0.346,-0.606,0.0
10.175,0.329,-0.633,0.0
13.699,0.444,-0.478,0.0
12.783,0.416,-0.521,0.0
11.954,0.39,-0.556,0.0
11.148,0.365,-0.585,0.0
10.561,0.347,-0.615,0.0
9.978,0.329,-0.639,0.0
13.268,0.438,-0.488,0.0
12.468,0.413,-0.531,0.0
11.692,0.389,-0.566,0.0
11.02,0.367,-0.599,0.0
10.345,0.346,-0.622,0.0
9.849,0.331,-0.65,0.0
13.059,0.439,-0.505,0.0
12.177,0.41,-0.542,0.0
11.426,0.386,-0.575,0.0
10.734,0.364,-0.603,0.0
10.171,0.346,-0.631,0.0
9.532,0.325,-0.647,0.0
12.792,0.436,-0.519,0.0
11.983,0.41,-0.556,0.0
11.143,0.382,-0.581,0.0
10.528,0.362,-0.612,0.0
9.969,0.344,-0.637,0.0
9.415,0.326,-0.657,0.0
12.478,0.432,-0.529,0.0
11.688,0.405,-0.564,0.0
11.036,0.384,-0.596,0.0
10.363,0.362,-0.621,0.0
9.852,0.345,-0.648,0.0
0.0,0.0,0.0,0.0
12.24,0.429,-0.542,0.0
11.453,0.402,-0.574,0.0
10.765,0.379,-0.602,0.0
10.149,0.358,-0.627,0.0
0.0,0.0,0.0,0.0
0.0,0.0,0.0,0.0
11.98,0.425,-0.553,0.0
11.228,0.399,-0.583,0.0
10.577,0.377,-0.611,0.0
0.0,0.0,0.0,0.0
9.525,0.341,-0.662,0.0
0.0,0.0,0.0,0.0
11.742,0.421,-0.564,0.0
11.06,0.397,-0.595,0.0
10.336,0.372,-0.616,0.0
0.0,0.0,0.0,0.0
0.0,0.0,0.0,0.0
0.0,0.0,0.0,0.0
