X,Y,Z,Reflectivity
58.13,2.887,4.57,15.0
48.904,2.445,5.229,11.0
50.327,2.527,5.103,24.0
49.791,2.511,4.773,16.0
49.598,2.512,4.475,23.0
58.555,2.977,4.961,8.0
66.308,3.385,5.253,9.0
48.917,2.515,5.26,18.0
49.803,2.571,5.079,24.0
49.868,2.584,4.81,17.0
55.331,2.879,5.025,12.0
58.534,3.057,4.993,14.0
66.446,3.485,5.302,15.0
48.976,2.586,5.294,23.0
49.555,2.627,5.082,24.0
49.81,2.651,4.832,23.0
49.553,2.647,4.527,31.0
49.09,2.632,4.213,9.0
58.553,3.152,4.702,25.0
47.569,2.579,5.168,20.0
49.921,2.717,5.145,15.0
49.769,2.718,4.853,23.0
65.28,3.579,5.997,12.0
49.246,2.71,4.251,22.0
58.525,3.232,4.728,44.0
48.491,2.697,5.291,23.0
48.301,2.696,5.0,22.0
49.322,2.763,4.832,23.0
66.469,3.736,6.136,16.0
49.281,2.78,4.275,23.0
58.519,3.314,4.753,21.0
45.787,2.61,5.015,15.0
48.388,2.768,5.03,22.0
49.21,2.825,4.841,20.0
57.33,3.302,5.315,17.0
49.284,2.848,4.296,18.0
80.502,4.669,6.57,31.0
45.774,2.673,5.032,29.0
48.255,2.827,5.035,20.0
49.193,2.892,4.858,15.0
57.566,3.396,5.358,32.0
57.854,3.424,5.063,16.0
80.788,4.797,6.622,33.0
44.888,2.684,4.95,27.0
44.55,2.672,4.663,15.0
49.263,2.964,4.881,5.0
57.691,3.483,5.388,29.0
57.758,3.498,5.073,21.0
58.094,3.529,4.779,32.0
44.858,2.744,4.96,29.0
49.438,3.033,5.189,14.0
49.524,3.048,4.921,4.0
63.088,3.895,5.91,26.0
57.802,3.58,5.092,8.0
58.095,3.609,4.794,26.0
44.806,2.802,4.966,37.0
48.922,3.068,5.147,22.0
51.806,3.259,5.16,16.0
52.315,3.3,4.913,17.0
0.0,0.0,0.0,0.0
58.015,3.682,4.8,19.0
44.817,2.864,4.976,28.0
48.903,3.134,5.155,23.0
51.745,3.325,5.164,23.0
52.331,3.373,4.924,17.0
59.32,3.835,5.25,21.0
57.83,3.749,4.795,12.0
45.055,2.94,5.01,20.0
48.8,3.194,5.152,22.0
51.595,3.386,5.157,15.0
55.003,3.619,5.183,19.0
59.276,3.912,5.253,20.0
58.061,3.842,4.821,17.0
0.0,0.0,0.0,0.0
49.164,3.284,5.196,9.0
51.569,3.454,5.16,8.0
54.866,3.684,5.176,6.0
59.293,3.992,5.261,23.0
58.281,3.934,4.845,23.0
47.14,3.203,5.251,7.0
49.254,3.355,5.209,4.0
54.777,3.741,5.484,6.0
51.965,3.558,4.905,5.0
59.221,4.064,5.257,11.0
58.56,4.03,4.87,23.0
47.324,3.278,5.273,22.0
54.327,3.772,5.747,15.0
48.246,3.357,4.831,18.0
52.001,3.627,4.909,21.0
51.875,3.628,4.605,15.0
58.657,4.113,4.878,27.0
49.205,3.473,5.483,13.0
54.57,3.86,5.771,6.0
48.289,3.424,4.834,26.0
59.335,4.217,5.599,11.0
51.805,3.69,4.597,16.0
58.714,4.193,4.88,27.0
49.197,3.535,5.479,20.0
51.876,3.736,5.483,21.0
48.301,3.486,4.832,22.0
59.357,4.294,5.597,34.0
51.824,3.758,4.594,15.0
58.122,4.224,4.826,22.0
33.596,2.457,3.738,16.0
48.31,3.541,5.101,21.0
48.324,3.549,4.829,17.0
59.239,4.361,5.578,23.0
51.861,3.825,4.591,18.0
58.033,4.29,4.811,26.0
33.589,2.499,3.732,27.0
48.338,3.603,5.097,19.0
59.631,4.454,5.949,12.0
58.797,4.401,5.527,8.0
49.67,3.725,4.389,16.0
61.459,4.619,5.084,24.0
33.57,2.539,3.724,18.0
48.36,3.664,5.09,22.0
51.775,3.93,5.156,5.0
49.687,3.779,4.661,19.0
49.569,3.778,4.37,18.0
61.359,4.686,5.063,21.0
33.648,2.586,3.725,27.0
48.859,3.762,5.131,21.0
42.881,3.307,4.26,17.0
49.652,3.837,4.646,22.0
51.867,4.016,4.559,31.0
61.091,4.739,5.024,26.0
33.784,2.637,3.731,30.0
49.194,3.846,5.153,23.0
42.973,3.366,4.257,24.0
49.62,3.894,4.628,15.0
51.884,4.078,4.545,18.0
61.003,4.804,4.999,13.0
33.885,2.685,3.731,28.0
49.559,3.933,5.175,23.0
43.062,3.423,4.252,31.0
51.458,4.097,4.783,15.0
61.085,4.872,5.331,20.0
51.967,4.152,4.241,19.0
33.951,2.729,3.727,19.0
49.648,3.997,5.167,24.0
42.808,3.451,4.211,17.0
49.419,3.991,4.575,23.0
60.008,4.854,5.215,28.0
51.94,4.208,4.219,43.0
33.8,2.755,3.697,5.0
43.078,3.516,4.466,17.0
42.752,3.495,4.188,23.0
49.166,4.026,4.532,23.0
59.394,4.871,5.137,28.0
51.918,4.265,4.196,35.0
49.193,4.064,5.36,9.0
49.149,4.066,5.074,9.0
42.588,3.529,4.153,20.0
49.035,4.068,4.498,30.0
59.576,4.951,5.126,33.0
51.864,4.316,4.168,20.0
49.323,4.129,5.35,9.0
43.012,3.605,4.42,17.0
42.6,3.575,4.134,22.0
48.994,4.118,4.47,23.0
59.675,5.023,5.105,33.0
51.794,4.365,4.136,28.0
49.947,4.233,5.393,24.0
42.922,3.642,4.389,19.0
42.644,3.623,4.116,17.0
48.966,4.166,4.442,26.0
59.62,5.079,5.069,23.0
51.795,4.418,4.109,46.0
42.706,3.663,4.588,19.0
42.853,3.68,4.358,29.0
42.86,3.685,4.114,15.0
51.454,4.429,4.639,15.0
51.672,4.454,4.364,20.0
51.794,4.47,4.08,41.0
43.051,3.735,4.6,15.0
42.79,3.717,4.327,33.0
48.678,4.234,4.643,11.0
51.569,4.49,4.619,31.0
51.665,4.504,4.332,21.0
51.805,4.522,4.049,30.0
43.012,3.774,4.569,14.0
42.818,3.761,4.302,31.0
51.331,4.514,4.863,7.0
51.601,4.542,4.589,39.0
59.169,5.214,4.924,28.0
51.824,4.573,4.017,13.0
42.95,3.81,4.534,36.0
42.753,3.795,4.268,17.0
51.433,4.571,4.839,24.0
59.557,5.298,5.256,12.0
59.148,5.267,4.882,18.0
51.856,4.623,3.984,20.0
42.923,3.846,4.501,34.0
42.618,3.822,4.224,24.0
51.578,4.63,4.816,12.0
59.327,5.331,5.194,13.0
42.978,3.866,3.517,17.0
51.9,4.673,3.95,22.0
42.932,3.885,4.471,32.0
42.644,3.862,4.196,17.0
51.557,4.673,4.776,14.0
52.946,4.803,4.596,16.0
42.945,3.899,3.482,19.0
51.987,4.725,3.919,5.0
42.903,3.919,4.435,28.0
51.435,4.701,5.021,6.0
59.718,5.463,5.487,17.0
43.418,3.975,3.735,15.0
42.895,3.93,3.445,16.0
59.484,5.455,4.437,30.0
42.753,3.94,4.386,38.0
43.503,4.012,4.212,14.0
43.578,4.022,3.968,31.0
52.834,4.879,4.503,10.0
42.857,3.961,3.407,27.0
59.434,5.498,4.385,28.0
42.744,3.972,4.349,31.0
51.365,4.776,4.93,25.0
43.525,4.05,3.927,17.0
43.134,4.016,3.64,18.0
42.808,3.989,3.367,33.0
59.278,5.528,4.323,33.0
42.73,4.003,4.311,34.0
43.539,4.081,4.141,15.0
43.526,4.082,3.889,24.0
59.3,5.565,4.953,9.0
42.8,4.019,3.329,20.0
58.566,5.504,4.22,32.0
42.774,4.037,4.277,25.0
43.5,4.108,4.099,29.0
43.397,4.1,3.839,16.0
51.832,4.9,4.282,18.0
59.187,5.599,4.55,25.0
58.497,5.538,4.162,29.0
42.766,4.066,4.237,14.0
43.414,4.129,4.051,12.0
43.278,4.118,3.789,23.0
51.825,4.934,4.234,39.0
58.823,5.603,4.467,32.0
58.694,5.594,4.121,31.0
43.1,4.125,4.228,18.0
52.441,5.021,4.842,10.0
52.414,5.021,4.538,12.0
51.828,4.966,4.184,36.0
58.785,5.636,4.407,32.0
58.711,5.632,4.066,30.0
43.642,4.203,4.239,23.0
52.269,5.035,4.775,11.0
52.456,5.055,4.49,26.0
59.238,5.711,4.724,15.0
58.678,5.66,4.342,32.0
58.585,5.654,3.999,28.0
43.605,4.224,4.191,17.0
51.936,5.032,4.693,10.0
51.899,5.03,4.39,15.0
59.247,5.745,4.664,30.0
58.515,5.676,4.27,28.0
58.579,5.685,3.939,28.0
43.507,4.238,4.137,27.0
51.945,5.061,4.639,14.0
51.838,5.051,4.331,23.0
59.004,5.751,4.584,33.0
58.399,5.694,4.201,27.0
58.624,5.718,3.881,29.0
43.387,4.247,4.079,26.0
59.414,5.817,5.244,11.0
51.814,5.073,4.274,25.0
58.788,5.758,4.504,33.0
58.41,5.722,4.139,29.0
58.632,5.746,3.818,32.0
43.389,4.267,4.032,24.0
43.523,4.28,3.793,14.0
51.817,5.097,4.217,22.0
58.705,5.775,4.433,33.0
58.514,5.757,4.083,32.0
58.507,5.759,3.746,32.0
51.946,5.13,4.769,9.0
43.475,4.293,3.741,14.0
59.309,5.857,4.761,17.0
58.606,5.788,4.361,27.0
58.453,5.774,4.013,31.0
58.251,5.755,3.665,27.0
51.943,5.148,4.711,5.0
43.437,4.305,3.688,25.0
59.29,5.876,4.692,24.0
58.455,5.794,4.283,25.0
58.515,5.801,3.951,32.0
58.127,5.763,3.59,27.0
43.504,4.326,3.895,12.0
51.745,5.145,4.333,10.0
59.133,5.88,4.61,30.0
58.394,5.806,4.21,29.0
58.392,5.806,3.874,32.0
58.2,5.788,3.527,25.0
43.487,4.337,3.842,32.0
51.729,5.158,4.271,19.0
58.949,5.878,4.527,31.0
58.235,5.806,4.131,30.0
58.279,5.81,3.798,29.0
58.181,5.801,3.457,24.0
43.46,4.345,3.788,35.0
59.319,5.929,4.827,11.0
58.923,5.889,4.454,26.0
58.388,5.834,4.072,31.0
58.283,5.823,3.729,27.0
58.045,5.8,3.38,24.0
43.419,4.349,3.732,29.0
59.38,5.946,4.761,21.0
58.715,5.879,4.368,29.0
58.509,5.857,4.009,33.0
58.253,5.831,3.656,29.0
57.934,5.799,3.303,25.0
43.403,4.354,3.676,22.0
59.252,5.943,4.676,31.0
58.403,5.856,4.272,29.0
58.26,5.841,3.92,30.0
58.349,5.848,3.591,32.0
57.987,5.811,3.235,26.0
51.701,5.193,4.315,15.0
58.872,5.911,4.574,33.0
58.209,5.842,4.186,27.0
58.171,5.837,3.842,29.0
58.483,5.867,3.526,32.0
58.687,5.886,3.201,33.0
51.739,5.2,4.253,16.0
58.756,5.903,4.49,33.0
58.219,5.847,4.113,32.0
58.246,5.848,3.774,30.0
58.212,5.843,3.436,27.0
58.886,5.909,3.136,31.0
59.141,5.946,4.785,19.0
58.847,5.913,4.422,28.0
58.415,5.868,4.051,32.0
58.24,5.848,3.697,31.0
57.999,5.822,3.348,24.0
58.848,5.905,3.058,31.0
59.2,5.951,4.713,30.0
58.604,5.888,4.326,32.0
58.412,5.866,3.976,32.0
58.249,5.847,3.622,32.0
57.926,5.812,3.269,23.0
58.918,5.91,2.986,27.0
58.916,5.919,4.613,34.0
58.246,5.848,4.224,27.0
58.19,5.839,3.884,28.0
58.477,5.865,3.561,33.0
58.418,5.857,3.221,32.0
59.049,5.918,2.916,22.0
58.832,5.904,4.53,34.0
58.203,5.838,4.144,31.0
58.2,5.834,3.808,29.0
58.311,5.842,3.473,33.0
58.993,5.907,3.175,32.0
59.069,5.912,2.839,18.0
58.916,5.904,4.458,21.0
58.415,5.85,4.082,32.0
58.274,5.832,3.736,30.0
58.004,5.801,3.378,27.0
58.967,5.895,3.095,32.0
0.0,0.0,0.0,0.0
58.655,5.866,4.359,30.0
58.471,5.844,4.008,32.0
58.242,5.817,3.655,30.0
57.954,5.784,3.298,29.0
58.955,5.881,3.015,30.0
59.966,5.978,2.722,7.0
58.412,5.828,4.262,28.0
58.382,5.821,3.923,32.0
58.158,5.794,3.573,32.0
58.866,5.861,3.271,33.0
59.013,5.871,2.939,24.0
59.549,5.921,2.623,27.0
58.343,5.805,4.178,23.0
58.365,5.802,3.842,32.0
58.261,5.787,3.5,30.0
59.113,5.867,3.204,28.0
59.06,5.858,2.861,17.0
59.455,5.893,2.538,23.0
58.399,5.791,4.102,26.0
58.394,5.785,3.765,27.0
58.078,5.749,3.41,32.0
58.975,5.833,3.116,30.0
59.003,5.831,2.779,6.0
59.485,5.875,2.459,24.0
58.503,5.78,4.03,28.0
58.214,5.746,3.674,29.0
58.002,5.719,3.326,27.0
58.977,5.811,3.036,32.0
60.824,5.988,2.782,30.0
59.667,5.869,2.385,20.0
58.527,5.757,3.951,25.0
58.136,5.713,3.589,32.0
58.826,5.775,3.292,33.0
0.0,0.0,0.0,0.0
60.386,5.918,2.679,34.0
59.513,5.828,2.298,25.0
58.678,5.745,3.88,31.0
58.237,5.696,3.515,32.0
59.063,5.771,3.225,28.0
59.18,5.777,2.885,16.0
59.675,5.819,2.565,25.0
59.315,5.779,2.209,16.0
58.736,5.721,3.803,34.0
58.147,5.657,3.43,32.0
59.024,5.737,3.141,33.0
61.086,5.931,2.894,19.0
59.965,5.816,2.496,33.0
60.97,5.908,2.188,35.0
58.569,5.673,3.712,33.0
58.667,5.675,3.381,33.0
59.175,5.718,3.068,32.0
60.818,5.87,2.798,19.0
0.0,0.0,0.0,0.0
60.34,5.813,2.083,24.0
58.35,5.617,3.618,33.0
58.78,5.651,3.306,33.0
60.097,5.771,3.034,34.0
60.271,5.781,2.691,30.0
59.639,5.714,2.32,9.0
60.307,5.772,2.0,16.0
58.097,5.556,3.523,29.0
59.126,5.647,3.246,33.0
60.135,5.736,2.954,34.0
60.344,5.749,2.612,33.0
60.58,5.765,2.275,23.0
0.0,0.0,0.0,0.0
58.139,5.52,3.447,28.0
59.464,5.639,3.183,33.0
60.235,5.704,2.878,33.0
60.174,5.691,2.523,26.0
60.284,5.694,2.181,16.0
62.186,5.867,1.893,23.0
58.21,5.485,3.371,31.0
59.704,5.617,3.114,30.0
60.173,5.654,2.793,30.0
60.415,5.669,2.451,30.0
60.345,5.655,2.102,30.0
62.753,5.873,1.826,17.0
58.568,5.474,3.312,35.0
60.661,5.66,3.081,17.0
60.322,5.62,2.717,27.0
60.504,5.63,2.372,23.0
60.285,5.601,2.017,17.0
65.449,6.073,1.814,3.0
58.873,5.454,3.249,34.0
60.629,5.607,2.997,27.0
60.665,5.602,2.65,27.0
61.109,5.635,2.312,30.0
62.24,5.73,1.998,32.0
52.192,4.798,1.376,9.0
59.083,5.422,3.18,34.0
60.787,5.57,2.923,22.0
60.587,5.542,2.565,28.0
61.425,5.611,2.243,25.0
62.041,5.658,1.909,17.0
52.073,4.742,1.304,15.0
60.022,5.455,3.15,22.0
60.679,5.505,2.836,22.0
61.253,5.547,2.511,27.0
0.0,0.0,0.0,0.0
52.185,4.711,1.536,19.0
51.935,4.681,1.232,10.0
60.471,5.438,3.093,33.0
61.429,5.515,2.789,23.0
60.805,5.449,2.412,8.0
52.161,4.666,1.765,26.0
52.105,4.654,1.464,23.0
51.512,4.593,1.153,9.0
61.449,5.466,3.061,17.0
52.14,4.63,2.298,25.0
52.104,4.618,1.998,40.0
52.119,4.61,1.695,47.0
52.098,4.6,1.396,22.0
51.305,4.523,1.081,3.0
52.098,4.581,2.527,36.0
52.099,4.572,2.228,47.0
52.087,4.562,1.929,46.0
52.118,4.556,1.627,61.0
52.097,4.546,1.328,17.0
48.852,4.255,0.966,3.0
52.077,4.523,2.457,55.0
52.091,4.515,2.159,68.0
52.102,4.507,1.861,57.0
52.117,4.499,1.558,34.0
52.033,4.484,1.258,11.0
48.761,4.194,0.9,5.0
52.073,4.465,2.39,63.0
52.103,4.458,2.093,46.0
52.145,4.452,1.796,39.0
52.151,4.444,1.493,18.0
51.69,4.395,1.184,8.0
49.007,4.159,0.843,5.0
52.117,4.409,2.325,40.0
52.147,4.401,2.028,24.0
52.237,4.4,1.733,18.0
52.236,4.39,1.429,11.0
51.386,4.31,1.112,6.0
49.271,4.124,0.785,6.0
52.18,4.352,2.262,5.0
62.468,5.198,2.351,7.0
47.811,3.97,1.526,2.0
47.649,3.948,1.244,4.0
47.654,3.939,0.972,1.0
49.17,4.055,0.722,7.0
62.882,5.167,2.647,14.0
62.682,5.139,2.28,7.0
47.631,3.896,1.461,4.0
47.6,3.884,1.183,7.0
47.85,3.895,0.916,0.0
45.354,3.684,0.61,0.0
81.351,6.582,3.325,13.0
47.912,3.866,1.684,150.0
47.611,3.832,1.401,2.0
47.522,3.816,1.123,15.0
47.885,3.836,0.858,3.0
0.0,0.0,0.0,0.0
48.898,3.892,1.938,9.0
47.815,3.796,1.622,66.0
47.528,3.763,1.342,10.0
47.47,3.749,1.065,8.0
48.019,3.784,0.803,5.0
0.0,0.0,0.0,0.0
48.933,3.829,1.882,13.0
47.603,3.716,1.559,3.0
47.457,3.694,1.283,15.0
47.428,3.682,1.007,1.0
47.881,3.708,0.745,1.0
35.135,2.714,0.346,0.0
48.425,3.723,1.805,1.0
47.658,3.654,1.505,72.0
47.396,3.624,1.227,17.0
47.317,3.608,0.951,2.0
0.0,0.0,0.0,0.0
34.093,2.585,0.297,0.0
47.832,3.611,1.728,2.0
47.327,3.562,1.44,14.0
47.37,3.555,1.172,7.0
47.373,3.544,0.897,1.0
0.0,0.0,0.0,0.0
32.686,2.432,0.247,0.0
47.604,3.524,1.666,4.0
47.296,3.49,1.386,21.0
47.194,3.472,1.114,0.0
51.437,3.773,0.916,3.0
37.4,2.735,0.454,0.0
31.654,2.308,0.204,1.0
47.476,3.444,1.608,9.0
47.27,3.418,1.332,21.0
47.302,3.41,1.064,1.0
51.899,3.73,0.868,1.0
36.74,2.632,0.406,1.0
30.368,2.169,0.163,0.0
47.346,3.363,1.552,11.0
47.267,3.346,1.281,167.0
47.321,3.339,1.014,3.0
46.34,3.259,0.725,0.0
35.912,2.517,0.358,0.0
29.154,2.037,0.125,1.0
47.253,3.283,1.499,16.0
47.253,3.272,1.231,166.0
47.33,3.266,0.964,3.0
42.156,2.898,0.615,0.0
33.412,2.29,0.298,0.0
28.776,1.965,0.093,1.0
47.221,3.206,1.449,27.0
47.247,3.197,1.182,161.0
47.347,3.192,0.915,1.0
0.0,0.0,0.0,0.0
32.568,2.18,0.257,0.0
28.007,1.868,0.062,0.0
47.214,3.129,1.401,38.0
47.236,3.119,1.133,152.0
50.92,3.35,0.933,1.0
47.273,3.098,0.593,0.0
31.755,2.073,0.218,1.0
27.28,1.774,0.033,0.0
47.24,3.052,1.354,155.0
47.339,3.047,1.089,2.0
52.202,3.347,0.905,0.0
36.82,2.351,0.426,1.0
30.429,1.936,0.18,0.0
26.75,1.695,0.006,0.0
47.219,2.972,1.308,161.0
47.252,2.962,1.041,4.0
47.563,2.969,0.779,0.0
47.177,2.934,0.501,1.0
29.746,1.842,0.148,1.0
26.247,1.619,-0.017,0.0
47.214,2.892,1.263,156.0
47.251,2.882,0.997,4.0
47.595,2.89,0.735,1.0
0.0,0.0,0.0,0.0
29.202,1.758,0.118,0.0
25.714,1.541,-0.04,0.0
47.232,2.811,1.221,10.0
47.267,2.801,0.955,2.0
0.0,0.0,0.0,0.0
0.0,0.0,0.0,0.0
28.453,1.663,0.09,0.0
25.216,1.467,-0.062,0.0
47.224,2.727,1.179,3.0
53.177,3.057,1.027,1.0
42.016,2.404,0.575,0.0
32.508,1.851,0.258,1.0
27.945,1.584,0.064,0.0
24.817,1.4,-0.082,0.0
47.339,2.65,1.142,0.0
53.238,2.966,0.984,1.0
0.0,0.0,0.0,0.0
31.061,1.713,0.22,0.0
27.361,1.501,0.04,0.0
24.478,1.336,-0.101,0.0
47.234,2.558,1.1,1.0
48.945,2.637,0.864,5.0
37.076,1.987,0.445,0.0
30.772,1.64,0.193,1.0
26.945,1.429,0.017,0.0
23.984,1.265,-0.119,0.0
47.297,2.474,1.064,2.0
49.403,2.57,0.833,2.0
35.888,1.856,0.403,0.0
30.04,1.545,0.165,0.0
26.509,1.356,-0.003,0.0
23.371,1.189,-0.134,0.0
47.442,2.393,1.031,0.0
0.0,0.0,0.0,0.0
0.0,0.0,0.0,0.0
29.535,1.464,0.14,0.0
26.275,1.295,-0.022,0.0
23.078,1.131,-0.149,0.0
47.605,2.311,0.999,0.0
0.0,0.0,0.0,0.0
33.82,1.622,0.33,0.0
29.113,1.388,0.117,0.0
25.737,1.219,-0.04,0.0
22.961,1.081,-0.164,1.0
47.75,2.227,0.969,0.0
41.596,1.927,0.61,0.0
32.976,1.518,0.299,0.0
28.566,1.307,0.096,0.0
25.408,1.155,-0.057,0.0
22.303,1.007,-0.175,0.0
47.724,2.133,0.937,0.0
0.0,0.0,0.0,0.0
32.551,1.435,0.273,1.0
28.346,1.241,0.076,0.0
25.053,1.09,-0.072,0.0
21.916,0.947,-0.186,1.0
48.016,2.053,0.912,0.0
0.0,0.0,0.0,0.0
32.475,1.368,0.253,0.0
27.813,1.164,0.058,0.0
24.592,1.021,-0.086,1.0
21.74,0.896,-0.197,1.0
0.0,0.0,0.0,0.0
0.0,0.0,0.0,0.0
0.0,0.0,0.0,0.0
27.539,1.097,0.041,1.0
24.452,0.966,-0.1,1.0
21.663,0.849,-0.209,1.0
47.393,1.837,0.844,0.0
0.0,0.0,0.0,0.0
30.954,1.18,0.205,0.0
27.13,1.026,0.025,0.0
24.302,0.911,-0.112,1.0
21.376,0.795,-0.218,1.0
47.231,1.735,0.816,1.0
36.169,1.317,0.423,0.0
30.749,1.111,0.188,0.0
26.906,0.963,0.011,0.0
24.064,0.854,-0.123,0.0
21.124,0.743,-0.226,1.0
48.421,1.682,0.813,0.0
34.561,1.189,0.387,1.0
29.09,0.992,0.163,0.0
26.622,0.899,-0.001,0.0
23.688,0.792,-0.133,0.0
20.712,0.686,-0.231,0.0
0.0,0.0,0.0,0.0
34.869,1.128,0.375,0.0
28.98,0.928,0.15,4.0
26.502,0.841,-0.013,0.0
23.211,0.729,-0.14,0.0
20.368,0.633,-0.236,0.0
43.738,1.341,0.695,0.0
34.464,1.045,0.356,1.0
28.943,0.868,0.138,5.0
26.175,0.776,-0.023,0.0
23.33,0.684,-0.15,1.0
20.123,0.583,-0.242,0.0
0.0,0.0,0.0,0.0
33.732,0.952,0.335,0.0
28.916,0.807,0.126,6.0
25.865,0.713,-0.033,0.0
23.234,0.633,-0.158,0.0
20.017,0.538,-0.248,0.0
0.0,0.0,0.0,0.0
33.407,0.873,0.32,1.0
28.895,0.745,0.116,6.0
25.856,0.658,-0.041,0.0
22.89,0.575,-0.164,0.0
19.819,0.491,-0.252,0.0
0.0,0.0,0.0,0.0
0.0,0.0,0.0,0.0
28.834,0.682,0.107,3.0
25.604,0.598,-0.049,0.0
22.742,0.523,-0.169,0.0
19.743,0.448,-0.256,0.0
0.0,0.0,0.0,0.0
32.927,0.722,0.296,0.0
28.816,0.622,0.099,5.0
25.532,0.542,-0.055,0.0
22.523,0.47,-0.174,0.0
19.599,0.403,-0.26,0.0
0.0,0.0,0.0,0.0
32.672,0.646,0.286,0.0
28.677,0.557,0.092,1.0
25.334,0.483,-0.061,0.0
22.411,0.42,-0.178,0.0
19.642,0.362,-0.264,0.0
37.675,0.678,0.53,0.0
32.336,0.571,0.276,0.0
28.576,0.495,0.086,1.0
25.377,0.431,-0.066,0.0
22.265,0.37,-0.181,0.0
19.367,0.315,-0.264,0.0
0.0,0.0,0.0,0.0
32.468,0.504,0.272,0.0
28.752,0.436,0.082,1.0
25.277,0.375,-0.069,0.0
22.336,0.323,-0.184,0.0
19.258,0.272,-0.265,0.0
37.061,0.509,0.51,0.0
32.282,0.433,0.266,0.0
28.729,0.375,0.078,2.0
25.247,0.32,-0.072,0.0
22.045,0.272,-0.184,1.0
19.296,0.232,-0.268,0.0
36.784,0.427,0.503,0.0
32.187,0.362,0.262,0.0
28.693,0.312,0.076,2.0
25.096,0.265,-0.074,0.0
22.131,0.225,-0.187,2.0
19.172,0.189,-0.267,0.0
37.403,0.354,0.509,0.0
32.498,0.296,0.263,0.0
28.678,0.251,0.074,2.0
25.221,0.212,-0.075,0.0
22.218,0.179,-0.188,3.0
19.175,0.147,-0.268,0.0
38.029,0.278,0.517,0.0
32.201,0.224,0.26,0.0
28.39,0.187,0.073,1.0
25.271,0.158,-0.075,0.0
22.2,0.13,-0.188,2.0
19.272,0.107,-0.269,0.0
0.0,0.0,0.0,0.0
0.0,0.0,0.0,0.0
28.522,0.127,0.074,1.0
25.214,0.103,-0.074,0.0
22.121,0.083,-0.186,1.0
19.232,0.065,-0.268,0.0
37.16,0.113,0.507,0.0
31.713,0.085,0.259,0.0
28.655,0.066,0.077,2.0
25.254,0.049,-0.073,0.0
22.081,0.036,-0.184,0.0
19.258,0.024,-0.266,0.0
0.0,0.0,0.0,0.0
32.967,0.018,0.272,0.0
28.534,0.005,0.079,1.0
25.318,-0.003,-0.07,0.0
22.144,-0.011,-0.182,0.0
19.396,-0.016,-0.266,0.0
37.397,-0.045,0.519,0.0
33.042,-0.051,0.277,0.0
28.715,-0.055,0.084,6.0
25.462,-0.058,-0.067,0.0
22.418,-0.059,-0.181,0.0
19.358,-0.058,-0.262,0.0
0.0,0.0,0.0,0.0
32.717,-0.12,0.28,1.0
28.731,-0.116,0.089,6.0
25.394,-0.112,-0.062,0.0
22.529,-0.107,-0.178,0.0
19.437,-0.099,-0.26,0.0
38.397,-0.21,0.547,0.0
32.425,-0.188,0.284,1.0
28.737,-0.177,0.095,7.0
25.524,-0.167,-0.057,0.0
22.57,-0.156,-0.173,0.0
19.51,-0.142,-0.256,0.0
0.0,0.0,0.0,0.0
32.671,-0.26,0.295,1.0
28.738,-0.239,0.102,5.0
25.671,-0.223,-0.05,0.0
22.708,-0.205,-0.168,0.0
19.611,-0.184,-0.252,0.0
0.0,0.0,0.0,0.0
32.829,-0.331,0.305,1.0
28.699,-0.3,0.111,1.0
25.811,-0.278,-0.043,0.0
22.994,-0.257,-0.163,1.0
19.857,-0.229,-0.249,0.0
0.0,0.0,0.0,0.0
33.471,-0.408,0.322,1.0
28.655,-0.36,0.12,0.0
25.954,-0.335,-0.034,0.0
23.256,-0.309,-0.157,1.0
20.053,-0.273,-0.245,0.0
0.0,0.0,0.0,0.0
33.925,-0.486,0.339,1.0
28.728,-0.421,0.13,0.0
26.166,-0.393,-0.025,0.0
23.586,-0.363,-0.151,1.0
20.084,-0.316,-0.237,0.0
0.0,0.0,0.0,0.0
33.893,-0.556,0.351,2.0
28.63,-0.48,0.141,0.0
26.566,-0.455,-0.015,0.0
23.505,-0.411,-0.141,0.0
20.469,-0.365,-0.233,0.0
0.0,0.0,0.0,0.0
34.096,-0.631,0.368,1.0
28.756,-0.542,0.154,1.0
26.577,-0.511,-0.003,0.0
23.949,-0.469,-0.133,0.0
20.747,-0.414,-0.227,0.0
0.0,0.0,0.0,0.0
34.496,-0.71,0.389,1.0
28.726,-0.601,0.168,0.0
27.073,-0.576,0.009,0.0
23.907,-0.517,-0.121,0.0
21.405,-0.471,-0.224,0.0
0.0,0.0,0.0,0.0
35.552,-0.804,0.418,0.0
30.973,-0.712,0.196,0.0
27.478,-0.641,0.023,0.0
24.106,-0.571,-0.109,0.0
21.735,-0.523,-0.216,0.0
0.0,0.0,0.0,0.0
0.0,0.0,0.0,0.0
31.151,-0.779,0.214,0.0
27.815,-0.706,0.038,1.0
25.06,-0.645,-0.1,0.0
21.841,-0.57,-0.205,0.0
0.0,0.0,0.0,0.0
0.0,0.0,0.0,0.0
31.533,-0.853,0.235,0.0
28.127,-0.771,0.055,1.0
0.0,0.0,0.0,0.0
22.112,-0.622,-0.194,0.0
0.0,0.0,0.0,0.0
37.945,-1.09,0.511,0.0
32.052,-0.932,0.259,0.0
28.438,-0.837,0.073,1.0
25.125,-0.748,-0.07,0.0
22.439,-0.676,-0.183,0.0
0.0,0.0,0.0,0.0
38.2,-1.174,0.539,0.0
32.55,-1.011,0.284,0.0
28.529,-0.896,0.092,1.0
25.693,-0.816,-0.055,0.0
22.888,-0.735,-0.172,0.0
0.0,0.0,0.0,0.0
39.34,-1.286,0.581,0.0
0.0,0.0,0.0,0.0
28.574,-0.954,0.112,1.0
26.274,-0.887,-0.038,0.0
23.045,-0.785,-0.157,0.0
0.0,0.0,0.0,0.0
0.0,0.0,0.0,0.0
33.628,-1.177,0.34,0.0
28.658,-1.013,0.132,1.0
26.5,-0.946,-0.019,0.0
23.801,-0.858,-0.145,0.0
0.0,0.0,0.0,0.0
0.0,0.0,0.0,0.0
34.21,-1.264,0.371,0.0
28.689,-1.07,0.154,1.0
27.024,-1.017,0.0,0.0
23.562,-0.895,-0.125,0.0
0.0,0.0,0.0,0.0
0.0,0.0,0.0,0.0
35.829,-1.393,0.416,0.0
30.709,-1.204,0.189,0.0
27.385,-1.083,0.022,0.0
24.001,-0.957,-0.109,0.0
0.0,0.0,0.0,0.0
0.0,0.0,0.0,0.0
0.0,0.0,0.0,0.0
31.277,-1.286,0.218,0.0
28.46,-1.18,0.046,3.0
25.523,-1.067,-0.095,0.0
0.0,0.0,0.0,0.0
0.0,0.0,0.0,0.0
37.838,-1.614,0.502,0.0
31.736,-1.364,0.248,0.0
28.557,-1.237,0.07,6.0
25.778,-1.125,-0.074,1.0
0.0,0.0,0.0,0.0
0.0,0.0,0.0,0.0
0.0,0.0,0.0,0.0
32.791,-1.47,0.285,0.0
28.521,-1.288,0.095,1.0
26.061,-1.186,-0.051,1.0
0.0,0.0,0.0,0.0
0.0,0.0,0.0,0.0
0.0,0.0,0.0,0.0
0.0,0.0,0.0,0.0
28.541,-1.341,0.121,0.0
26.598,-1.258,-0.028,0.0
0.0,0.0,0.0,0.0
0.0,0.0,0.0,0.0
0.0,0.0,0.0,0.0
35.141,-1.702,0.37,0.0
30.386,-1.482,0.157,0.0
27.405,-1.346,-0.003,2.0
0.0,0.0,0.0,0.0
0.0,0.0,0.0,0.0
0.0,0.0,0.0,0.0
36.118,-1.814,0.414,0.0
30.986,-1.566,0.19,0.0
27.741,-1.411,0.023,4.0
0.0,0.0,0.0,0.0
0.0,0.0,0.0,0.0
34.639,-1.79,0.62,0.0
34.678,-1.803,0.432,0.0
31.666,-1.656,0.226,0.0
28.331,-1.49,0.052,4.0
34.189,-1.805,1.011,2.0
34.235,-1.817,0.83,1.0
34.32,-1.832,0.649,0.0
34.653,-1.861,0.467,0.0
32.209,-1.74,0.263,0.0
28.518,-1.549,0.081,9.0
34.16,-1.861,1.045,204.0
34.124,-1.869,0.862,2.0
0.0,0.0,0.0,0.0
34.644,-1.919,0.503,0.0
32.767,-1.825,0.302,0.0
28.581,-1.601,0.112,4.0
34.161,-1.919,1.081,159.0
34.061,-1.923,0.897,3.0
0.0,0.0,0.0,0.0
34.464,-1.966,0.538,1.0
34.524,-1.98,0.355,0.0
0.0,0.0,0.0,0.0
34.098,-1.971,1.116,30.0
34.043,-1.978,0.933,5.0
0.0,0.0,0.0,0.0
34.206,-2.007,0.571,2.0
34.927,-2.059,0.398,4.0
30.864,-1.829,0.188,7.0
34.03,-2.022,1.152,6.0
34.006,-2.03,0.97,7.0
33.934,-2.035,0.788,0.0
34.032,-2.051,0.606,1.0
37.316,-2.26,0.467,0.0
31.772,-1.933,0.229,6.0
33.995,-2.073,1.188,5.0
33.97,-2.081,1.007,26.0
33.942,-2.089,0.826,3.0
33.97,-2.1,0.643,0.0
34.814,-2.162,0.475,2.0
32.177,-2.008,0.269,2.0
33.989,-2.125,1.228,4.0
33.951,-2.132,1.046,151.0
33.936,-2.141,0.866,9.0
33.856,-2.145,0.681,0.0
34.602,-2.202,0.512,4.0
33.235,-2.124,0.316,0.0
33.95,-2.174,1.266,6.0
33.93,-2.182,1.085,84.0
33.92,-2.191,0.905,18.0
33.997,-2.205,0.724,0.0
34.375,-2.238,0.55,1.0
34.06,-2.227,0.365,0.0
33.932,-2.223,1.306,18.0
33.89,-2.23,1.125,30.0
33.912,-2.24,0.946,31.0
33.819,-2.243,0.761,0.0
34.023,-2.265,0.586,1.0
36.856,-2.464,0.44,0.0
33.911,-2.272,1.347,18.0
33.886,-2.279,1.166,10.0
33.888,-2.287,0.987,48.0
33.906,-2.297,0.805,1.0
33.876,-2.304,0.625,0.0
34.589,-2.362,0.456,0.0
33.973,-2.324,1.391,2.0
33.908,-2.328,1.209,4.0
33.873,-2.333,1.029,53.0
33.861,-2.341,0.846,10.0
33.849,-2.349,0.667,14.0
34.434,-2.398,0.496,3.0
34.111,-2.38,1.44,0.0
33.898,-2.374,1.252,9.0
33.877,-2.38,1.071,58.0
33.844,-2.386,0.888,32.0
33.871,-2.396,0.71,155.0
34.204,-2.428,0.536,4.0
34.271,-2.437,1.49,0.0
33.849,-2.415,1.293,42.0
33.846,-2.423,1.114,55.0
33.865,-2.433,0.933,71.0
33.882,-2.441,0.754,155.0
34.021,-2.46,0.578,2.0
0.0,0.0,0.0,0.0
33.839,-2.459,1.337,32.0
33.835,-2.466,1.158,20.0
33.848,-2.475,0.976,96.0
33.883,-2.485,0.799,154.0
33.847,-2.49,0.619,7.0
34.48,-2.541,1.59,0.0
33.887,-2.505,1.383,3.0
33.848,-2.509,1.203,7.0
33.84,-2.516,1.021,94.0
33.851,-2.525,0.842,102.0
33.845,-2.531,0.664,152.0
34.828,-2.61,1.652,0.0
34.285,-2.576,1.445,0.0
33.839,-2.55,1.248,25.0
33.819,-2.555,1.065,104.0
33.818,-2.563,0.887,47.0
33.853,-2.573,0.709,155.0
34.917,-2.658,1.704,0.0
34.152,-2.607,1.486,0.0
33.843,-2.59,1.294,68.0
33.817,-2.595,1.111,81.0
33.83,-2.603,0.933,109.0
33.857,-2.612,0.755,153.0
0.0,0.0,0.0,0.0
0.0,0.0,0.0,0.0
33.811,-2.626,1.338,38.0
33.8,-2.632,1.156,19.0
33.824,-2.64,0.979,150.0
33.85,-2.649,0.801,152.0
200.306,-15.706,10.321,68.0
0.0,0.0,0.0,0.0
33.891,-2.669,1.388,1.0
33.805,-2.669,1.203,14.0
33.82,-2.677,1.025,118.0
33.805,-2.682,0.847,39.0
200.238,-15.915,10.596,20.0
34.62,-2.757,1.649,0.0
34.127,-2.724,1.445,0.0
33.808,-2.705,1.25,45.0
33.804,-2.711,1.072,140.0
33.813,-2.717,0.894,68.0
200.253,-16.125,10.877,53.0
34.839,-2.811,1.708,0.0
34.184,-2.763,1.495,0.0
33.815,-2.739,1.297,85.0
33.803,-2.744,1.119,70.0
33.816,-2.751,0.942,150.0
200.203,-16.319,11.155,19.0
0.0,0.0,0.0,0.0
36.21,-2.962,1.635,0.0
33.803,-2.771,1.345,24.0
33.8,-2.776,1.167,13.0
33.807,-2.782,0.989,150.0
200.136,-16.504,11.435,23.0
200.21,-16.539,10.381,12.0
0.0,0.0,0.0,0.0
33.889,-2.809,1.396,0.0
33.829,-2.81,1.215,38.0
33.794,-2.812,1.036,131.0
209.409,-17.46,12.264,12.0
151.983,-12.692,8.097,150.0
34.799,-2.911,1.67,0.0
0.0,0.0,0.0,0.0
33.821,-2.838,1.263,73.0
33.782,-2.84,1.084,116.0
151.957,-12.801,9.116,11.0
151.96,-12.82,8.314,150.0
34.798,-2.94,1.72,0.0
0.0,0.0,0.0,0.0
33.818,-2.867,1.312,62.0
33.781,-2.868,1.132,36.0
0.0,0.0,0.0,0.0
151.93,-12.942,8.531,13.0
152.004,-12.968,7.733,88.0
34.5,-2.947,1.57,0.0
33.824,-2.894,1.361,5.0
33.801,-2.896,1.182,8.0
148.806,-12.775,9.356,17.0
209.189,-17.98,12.049,14.0
151.986,-13.081,7.95,150.0
34.637,-2.985,1.625,0.0
34.048,-2.938,1.418,0.0
33.801,-2.921,1.23,25.0
148.519,-12.857,9.551,8.0
185.383,-16.068,10.942,31.0
151.954,-13.187,8.167,111.0
34.858,-3.029,1.686,0.0
0.0,0.0,0.0,0.0
33.819,-2.946,1.279,68.0
208.482,-18.194,13.709,10.0
194.62,-17.003,11.769,11.0
194.718,-17.029,10.745,30.0
0.0,0.0,0.0,0.0
0.0,0.0,0.0,0.0
33.81,-2.967,1.327,27.0
147.331,-12.953,9.902,5.0
148.831,-13.098,9.216,13.0
209.169,-18.426,11.845,150.0
186.599,-16.453,9.565,16.0
0.0,0.0,0.0,0.0
34.039,-3.007,1.385,0.0
147.022,-13.014,10.094,11.0
150.318,-13.318,9.525,13.0
209.074,-18.54,12.143,34.0
186.547,-16.558,9.829,49.0
34.789,-3.09,1.649,0.0
34.174,-3.038,1.44,0.0
146.775,-13.074,10.288,9.0
185.345,-16.523,12.011,8.0
209.125,-18.657,12.445,10.0
209.18,-18.675,11.321,100.0
0.0,0.0,0.0,0.0
0.0,0.0,0.0,0.0
148.206,-13.278,10.601,11.0
208.435,-18.686,13.805,7.0
149.111,-13.377,9.086,7.0
195.732,-17.57,10.874,12.0
0.0,0.0,0.0,0.0
0.0,0.0,0.0,0.0
145.869,-13.139,10.644,9.0
148.455,-13.379,10.047,7.0
149.199,-13.452,9.308,13.0
186.465,-16.822,10.627,80.0
169.689,-15.319,8.773,10.0
0.0,0.0,0.0,0.0
146.193,-13.23,10.878,8.0
153.771,-13.922,10.627,4.0
148.889,-13.485,9.5,17.0
186.332,-16.885,10.883,76.0
169.526,-15.37,9.005,6.0
34.82,-3.158,1.666,0.0
146.109,-13.279,11.082,7.0
153.667,-13.97,10.84,14.0
148.682,-13.522,9.699,12.0
150.421,-13.685,9.001,18.0
162.16,-14.758,8.846,7.0
0.0,0.0,0.0,0.0
146.009,-13.321,11.282,10.0
145.869,-13.309,10.497,3.0
0.0,0.0,0.0,0.0
149.436,-13.642,9.154,15.0
186.245,-17.006,10.422,19.0
169.67,-15.498,8.598,6.0
145.686,-13.334,11.463,4.0
146.152,-13.377,10.723,7.0
209.418,-19.17,14.255,9.0
149.431,-13.681,9.363,12.0
150.432,-13.776,8.63,19.0
169.463,-15.521,8.824,16.0
145.534,-13.356,11.658,3.0
146.123,-13.411,10.928,8.0
153.643,-14.101,10.675,5.0
185.366,-17.012,11.878,6.0
150.364,-13.801,8.837,23.0
169.42,-15.553,9.058,4.0
145.917,-13.421,11.894,5.0
145.92,-13.421,11.117,9.0
145.716,-13.401,10.327,3.0
185.266,-17.036,12.126,11.0
149.619,-13.758,9.0,20.0
150.433,-13.834,8.252,9.0
146.441,-13.494,12.141,9.0
0.0,0.0,0.0,0.0
0.0,0.0,0.0,0.0
0.0,0.0,0.0,0.0
149.506,-13.768,9.199,18.0
150.41,-13.849,8.458,19.0
147.041,-13.567,12.394,9.0
145.534,-13.424,11.491,11.0
146.158,-13.478,10.762,4.0
209.629,-19.325,14.298,8.0
149.535,-13.783,9.404,7.0
150.316,-13.852,8.655,23.0
146.433,-13.522,12.542,3.0
145.493,-13.43,11.685,5.0
146.233,-13.494,10.964,3.0
145.605,-13.43,10.126,3.0
151.456,-13.966,9.728,11.0
149.934,-13.822,8.834,22.0
144.79,-13.375,12.597,10.0
145.665,-13.449,11.895,5.0
146.116,-13.485,11.153,5.0
145.704,-13.44,10.329,7.0
185.308,-17.086,12.151,7.0
149.585,-13.788,9.012,22.0
144.798,-13.376,12.791,5.0
0.0,0.0,0.0,0.0
0.0,0.0,0.0,0.0
0.0,0.0,0.0,0.0
0.0,0.0,0.0,0.0
149.504,-13.772,9.203,16.0
145.748,-13.455,13.067,3.0
146.808,-13.543,12.377,6.0
145.562,-13.419,11.492,11.0
146.207,-13.47,10.748,4.0
209.596,-19.298,14.289,10.0
149.552,-13.762,9.399,9.0
145.534,-13.421,13.239,6.0
146.332,-13.485,12.526,4.0
145.685,-13.414,11.69,5.0
146.21,-13.453,10.936,5.0
153.745,-14.137,10.678,4.0
151.337,-13.905,9.704,4.0
144.909,-13.343,13.369,7.0
144.822,-13.324,12.582,4.0
146.13,-13.432,11.914,9.0
145.958,-13.405,11.104,11.0
145.743,-13.375,10.307,4.0
185.181,-16.982,12.108,7.0
146.507,-13.464,13.702,4.0
146.997,-13.497,12.957,3.0
146.354,-13.424,12.114,14.0
145.723,-13.354,11.266,5.0
145.897,-13.358,10.499,3.0
0.0,0.0,0.0,0.0
146.188,-13.402,13.855,13.0
145.456,-13.321,13.003,5.0
146.564,-13.409,12.313,14.0
145.796,-13.325,11.451,4.0
146.211,-13.35,10.701,11.0
209.381,-19.1,14.204,9.0
145.96,-13.344,14.013,11.0
145.203,-13.259,13.158,19.0
146.727,-13.383,12.506,12.0
0.0,0.0,0.0,0.0
146.231,-13.309,10.878,9.0
153.787,-13.981,10.618,8.0
145.631,-13.269,14.158,13.0
145.046,-13.2,13.318,13.0
146.748,-13.338,12.683,4.0
144.662,-13.132,11.71,13.0
146.038,-13.243,11.036,6.0
153.782,-13.929,10.796,10.0
145.963,-13.25,14.361,10.0
146.937,-13.32,13.664,11.0
147.22,-13.328,12.896,3.0
144.7,-13.082,11.881,11.0
145.903,-13.175,11.196,8.0
148.204,-13.366,10.577,9.0
146.131,-13.208,14.549,16.0
146.903,-13.259,13.831,13.0
147.192,-13.267,13.062,12.0
144.918,-13.044,12.064,6.0
145.37,-13.066,11.32,3.0
148.232,-13.306,10.745,4.0
145.877,-13.124,14.689,17.0
146.602,-13.168,13.968,12.0
145.61,-13.06,13.086,13.0
147.318,-13.194,12.428,8.0
144.914,-12.96,11.444,12.0
145.93,-13.033,10.739,11.0
145.911,-13.059,14.854,16.0
146.53,-13.094,14.121,12.0
145.5,-12.98,13.235,14.0
148.507,-13.229,12.689,4.0
144.739,-12.874,11.586,14.0
145.03,-12.88,10.828,11.0
145.781,-12.975,14.999,15.0
146.446,-13.012,14.272,14.0
0.0,0.0,0.0,0.0
148.415,-13.143,12.84,7.0
144.553,-12.78,11.725,19.0
144.751,-12.778,10.958,14.0
145.472,-12.869,15.12,15.0
146.09,-12.902,14.389,15.0
146.504,-12.915,13.634,7.0
145.877,-12.838,12.77,13.0
144.559,-12.699,11.873,19.0
144.566,-12.679,11.091,18.0
145.317,-12.774,15.252,15.0
146.046,-12.811,14.535,7.0
146.533,-12.831,13.786,12.0
145.778,-12.742,12.907,20.0
144.531,-12.61,12.013,18.0
144.896,-12.62,11.259,14.0
145.638,-12.712,15.432,13.0
145.754,-12.698,14.648,5.0
145.606,-12.659,13.841,13.0
145.844,-12.655,13.056,5.0
144.451,-12.511,12.147,16.0
145.11,-12.545,11.416,12.0
146.035,-12.651,15.616,9.0
145.203,-12.553,14.734,9.0
145.499,-12.553,13.971,21.0
144.94,-12.48,13.112,4.0
144.345,-12.403,12.274,8.0
145.168,-12.451,11.555,13.0
146.52,-12.593,15.805,5.0
145.448,-12.474,14.894,11.0
145.617,-12.462,14.116,18.0
144.967,-12.38,13.247,14.0
146.208,-12.46,12.565,4.0
145.143,-12.345,11.684,12.0
146.839,-12.515,15.973,4.0
145.672,-12.388,15.047,12.0
145.696,-12.363,14.252,17.0
145.022,-12.28,13.378,16.0
145.308,-12.277,12.613,6.0
145.171,-12.24,11.811,3.0
147.062,-12.423,16.125,11.0
146.893,-12.381,15.299,10.0
145.641,-12.247,14.371,12.0
145.037,-12.169,13.504,13.0
145.362,-12.169,12.74,14.0
146.277,-12.22,12.022,4.0
148.434,-12.423,16.4,16.0
147.079,-12.28,15.442,14.0
146.957,-12.24,14.622,5.0
144.875,-12.039,13.606,15.0
145.63,-12.074,12.88,13.0
146.258,-12.099,12.138,10.0
148.691,-12.324,16.547,15.0
147.142,-12.164,15.565,17.0
146.727,-12.1,14.715,13.0
144.827,-11.914,13.715,5.0
145.354,-11.929,12.969,18.0
146.257,-11.976,12.249,9.0
148.821,-12.207,16.677,14.0
146.946,-12.023,15.656,13.0
146.934,-11.991,14.846,4.0
145.994,-11.884,13.934,10.0
145.327,-11.801,13.073,12.0
146.038,-11.828,12.338,5.0
148.807,-12.074,16.785,11.0
146.706,-11.873,15.737,14.0
147.423,-11.899,15.001,4.0
145.71,-11.73,14.01,13.0
145.336,-11.67,13.176,10.0
146.072,-11.699,12.442,10.0
151.165,-12.127,17.157,8.0
149.022,-11.924,16.088,9.0
148.468,-11.848,15.208,3.0
145.696,-11.595,14.106,14.0
146.449,-11.625,13.373,4.0
145.9,-11.55,12.522,12.0
151.24,-11.995,17.263,11.0
148.423,-11.738,16.119,9.0
148.274,-11.693,15.283,5.0
145.649,-11.454,14.193,20.0
146.53,-11.491,13.472,4.0
145.705,-11.397,12.594,13.0
0.0,0.0,0.0,0.0
150.908,-11.787,16.482,4.0
148.208,-11.544,15.365,13.0
145.714,-11.317,14.286,17.0
119.086,-9.222,11.018,2.0
145.699,-11.253,12.678,15.0
0.0,0.0,0.0,0.0
148.76,-11.474,16.33,7.0
148.03,-11.384,15.429,17.0
145.888,-11.186,14.384,13.0
145.644,-11.134,13.555,7.0
119.361,-9.1,10.449,9.0
0.0,0.0,0.0,0.0
148.658,-11.314,16.399,16.0
148.501,-11.268,15.556,16.0
146.154,-11.056,14.485,4.0
145.679,-10.986,13.633,10.0
119.246,-8.967,10.499,14.0
148.46,-11.145,16.45,15.0
0.0,0.0,0.0,0.0
146.169,-10.904,14.556,13.0
146.476,-10.893,13.775,13.0
119.158,-8.834,10.547,12.0
148.857,-11.014,16.562,10.0
148.927,-10.984,15.74,10.0
146.258,-10.753,14.629,13.0
146.704,-10.752,13.859,7.0
119.181,-8.707,10.599,17.0
89.957,-6.58,10.548,1.0
90.939,-6.629,10.155,10.0
148.505,-10.791,15.754,11.0
91.559,-6.631,9.194,11.0
90.956,-6.566,8.628,4.0
119.405,-8.592,10.664,14.0
90.125,-6.492,10.602,5.0
90.963,-6.531,10.191,23.0
148.233,-10.607,15.78,8.0
91.383,-6.516,9.209,11.0
91.101,-6.475,8.672,7.0
117.078,-8.294,10.495,2.0
90.107,-6.39,10.63,22.0
91.0,-6.431,10.225,19.0
147.734,-10.403,15.774,12.0
90.978,-6.385,9.196,13.0
91.227,-6.38,8.712,14.0
117.289,-8.175,10.549,12.0
90.157,-6.291,10.662,16.0
91.046,-6.33,10.256,21.0
91.477,-6.337,9.792,3.0
91.045,-6.285,9.227,17.0
91.325,-6.282,8.745,7.0
117.076,-8.026,10.559,15.0
90.198,-6.188,10.69,22.0
90.304,-6.173,10.195,15.0
113.639,-7.74,12.191,3.0
91.298,-6.195,9.274,15.0
91.442,-6.183,8.777,13.0
117.179,-7.895,10.594,8.0
90.361,-6.092,10.729,27.0
90.453,-6.076,10.23,19.0
93.44,-6.253,10.043,4.0
91.461,-6.098,9.307,15.0
91.522,-6.08,8.801,18.0
88.252,-5.841,7.993,6.0
90.472,-5.991,10.757,16.0
90.945,-6.0,10.3,16.0
91.051,-5.984,9.799,14.0
91.77,-6.007,9.352,14.0
91.249,-5.952,8.787,23.0
88.107,-5.725,7.992,7.0
90.323,-5.871,10.75,22.0
90.381,-5.851,10.247,22.0
91.095,-5.874,9.814,28.0
91.598,-5.883,9.343,17.0
91.128,-5.83,8.784,21.0
87.948,-5.605,7.984,14.0
90.264,-5.754,10.75,22.0
90.51,-5.746,10.268,27.0
91.149,-5.764,9.826,15.0
91.52,-5.765,9.341,7.0
91.163,-5.719,8.792,21.0
88.516,-5.531,8.04,22.0
90.049,-5.628,10.728,18.0
91.139,-5.673,10.341,19.0
91.363,-5.663,9.851,13.0
87.279,-5.387,8.909,15.0
91.137,-5.603,8.789,12.0
88.661,-5.429,8.053,21.0
89.976,-5.509,10.719,15.0
91.306,-5.567,10.359,14.0
86.979,-5.281,9.376,22.0
87.211,-5.272,8.899,22.0
87.432,-5.264,8.429,10.0
88.746,-5.322,8.056,26.0
90.509,-5.426,10.777,10.0
86.891,-5.188,9.853,15.0
87.332,-5.191,9.408,19.0
87.199,-5.161,8.892,24.0
87.478,-5.156,8.426,20.0
88.818,-5.214,8.054,29.0
89.969,-5.279,10.704,24.0
87.068,-5.086,9.864,20.0
87.306,-5.078,9.396,13.0
87.479,-5.066,8.909,18.0
87.676,-5.056,8.434,14.0
88.841,-5.101,8.044,28.0
90.062,-5.168,10.703,12.0
87.117,-4.977,9.856,20.0
87.741,-4.99,9.428,19.0
87.976,-4.98,8.946,15.0
88.003,-4.959,8.45,23.0
88.946,-4.991,8.038,11.0
86.597,-4.856,10.274,26.0
86.562,-4.831,9.777,21.0
87.311,-4.852,9.364,7.0
87.719,-4.852,8.901,12.0
84.815,-4.671,8.126,8.0
92.931,-5.095,8.377,11.0
86.719,-4.75,10.269,27.0
86.491,-4.715,9.748,18.0
82.631,-4.483,8.842,12.0
83.452,-4.507,8.447,15.0
84.869,-4.562,8.109,12.0
89.32,-4.78,8.028,13.0
86.93,-4.646,10.269,27.0
82.175,-4.371,9.238,11.0
82.708,-4.378,8.826,13.0
83.487,-4.398,8.425,19.0
84.896,-4.452,8.085,16.0
89.224,-4.656,7.992,15.0
87.232,-4.547,10.277,23.0
85.644,-4.442,9.6,8.0
83.109,-4.289,8.841,15.0
83.963,-4.312,8.445,18.0
85.015,-4.346,8.066,22.0
89.102,-4.532,7.949,10.0
87.241,-4.43,10.246,23.0
82.293,-4.159,9.193,14.0
82.263,-4.136,8.72,30.0
84.229,-4.214,8.439,22.0
85.344,-4.25,8.064,18.0
87.084,-4.315,7.733,12.0
86.015,-4.254,10.066,10.0
81.109,-3.991,9.027,21.0
82.213,-4.024,8.679,25.0
84.401,-4.111,8.419,6.0
85.412,-4.14,8.033,22.0
87.167,-4.204,7.702,20.0
82.043,-3.947,9.564,18.0
81.137,-3.884,8.992,31.0
82.716,-3.94,8.693,26.0
84.416,-3.999,8.381,15.0
85.466,-4.029,7.997,12.0
87.206,-4.091,7.663,15.0
81.893,-3.831,9.505,24.0
81.205,-3.78,8.958,19.0
82.632,-3.825,8.641,28.0
79.462,-3.659,7.847,13.0
85.083,-3.898,7.916,12.0
87.262,-3.976,7.621,28.0
81.887,-3.722,9.459,31.0
81.983,-3.705,8.999,18.0
82.061,-3.69,8.536,10.0
79.122,-3.538,7.768,35.0
84.255,-3.747,7.791,11.0
87.396,-3.867,7.582,20.0
81.663,-3.602,9.384,27.0
82.408,-3.615,8.996,35.0
85.441,-3.728,8.836,8.0
79.167,-3.435,7.724,29.0
82.541,-3.562,7.581,19.0
90.432,-3.881,7.789,4.0
81.459,-3.485,9.309,21.0
81.746,-3.477,8.871,20.0
79.635,-3.369,8.184,17.0
79.187,-3.332,7.675,16.0
79.246,-3.316,7.227,11.0
84.467,-3.515,7.219,5.0
80.997,-3.359,9.202,25.0
80.199,-3.306,8.648,23.0
79.516,-3.26,8.117,20.0
79.132,-3.225,7.615,30.0
79.277,-3.213,7.174,22.0
88.392,-3.562,7.492,8.0
80.601,-3.235,9.098,10.0
80.214,-3.201,8.591,25.0
79.432,-3.152,8.049,31.0
78.964,-3.114,7.539,32.0
82.205,-3.223,7.377,19.0
79.472,-3.097,6.676,9.0
80.883,-3.14,9.067,15.0
79.53,-3.069,8.456,25.0
65.981,-2.53,6.635,20.0
66.095,-2.519,6.258,14.0
79.958,-3.03,7.111,23.0
83.575,-3.148,6.954,10.0
78.95,-2.961,8.786,20.0
79.366,-2.957,8.373,11.0
65.752,-2.436,6.557,18.0
66.127,-2.434,6.207,25.0
79.881,-2.922,7.038,12.0
83.235,-3.027,6.855,10.0
64.522,-2.334,7.124,11.0
79.407,-2.855,8.308,19.0
65.588,-2.343,6.483,27.0
66.159,-2.349,6.151,28.0
79.617,-2.81,6.945,19.0
79.939,-2.803,6.513,13.0
64.299,-2.242,7.042,29.0
64.384,-2.231,6.678,14.0
65.693,-2.262,6.434,27.0
79.886,-2.734,7.354,7.0
79.666,-2.709,6.876,20.0
80.027,-2.705,6.446,15.0
64.343,-2.162,6.986,36.0
79.162,-2.642,8.136,12.0
65.87,-2.184,6.389,41.0
79.86,-2.631,7.276,8.0
79.821,-2.613,6.812,16.0
80.337,-2.612,6.393,21.0
64.223,-2.076,6.91,33.0
64.218,-2.061,6.536,23.0
66.184,-2.11,6.353,39.0
67.274,-2.131,6.062,25.0
76.538,-2.408,6.454,8.0
81.196,-2.537,6.379,17.0
64.275,-1.995,6.849,38.0
64.089,-1.976,6.457,31.0
66.094,-2.024,6.275,24.0
67.294,-2.047,5.993,27.0
80.226,-2.423,6.681,19.0
81.268,-2.439,6.299,7.0
64.356,-1.917,6.789,30.0
64.195,-1.899,6.399,28.0
80.163,-2.355,7.525,11.0
66.891,-1.951,5.884,10.0
80.592,-2.333,6.624,21.0
86.289,-2.481,6.594,13.0
64.294,-1.834,6.709,25.0
65.928,-1.867,6.496,40.0
66.469,-1.869,6.164,11.0
66.188,-1.847,5.747,27.0
80.751,-2.238,6.545,24.0
76.285,-2.1,5.742,20.0
64.14,-1.75,6.618,24.0
66.085,-1.79,6.435,32.0
66.276,-1.782,6.068,41.0
76.699,-2.047,6.57,13.0
86.392,-2.289,6.901,7.0
76.365,-2.009,5.658,18.0
64.048,-1.67,6.533,26.0
66.249,-1.715,6.372,33.0
65.823,-1.69,5.948,26.0
66.987,-1.708,5.657,7.0
76.311,-1.931,6.004,26.0
76.52,-1.922,5.578,8.0
64.234,-1.599,6.473,21.0
66.182,-1.635,6.284,34.0
65.656,-1.609,5.852,33.0
80.939,-1.969,6.736,7.0
76.486,-1.846,5.923,24.0
87.075,-2.086,6.239,16.0
65.888,-1.563,6.556,19.0
65.988,-1.553,6.182,30.0
73.641,-1.72,6.471,14.0
76.451,-1.771,6.265,17.0
76.66,-1.762,5.837,23.0
89.724,-2.046,6.313,11.0
66.226,-1.494,6.503,31.0
65.869,-1.474,6.084,31.0
67.165,-1.49,5.813,14.0
76.709,-1.689,6.185,26.0
87.148,-1.903,6.521,9.0
75.848,-1.642,5.236,30.0
66.19,-1.417,6.41,34.0
0.0,0.0,0.0,0.0
67.218,-1.415,5.727,10.0
76.639,-1.6,6.075,20.0
76.363,-1.581,5.609,27.0
75.998,-1.561,5.142,7.0
66.642,-1.352,6.362,19.0
67.24,-1.352,6.026,17.0
76.227,-1.519,6.387,15.0
76.766,-1.517,5.977,19.0
76.31,-1.496,5.499,31.0
88.013,-1.711,5.832,10.0
67.141,-1.288,6.314,26.0
67.332,-1.281,5.939,21.0
76.546,-1.443,6.305,10.0
76.421,-1.428,5.843,26.0
76.291,-1.414,5.39,37.0
76.092,-1.398,4.935,19.0
65.335,-1.184,6.051,21.0
65.633,-1.179,5.695,9.0
76.586,-1.362,6.198,22.0
76.549,-1.35,5.742,13.0
76.241,-1.332,5.275,33.0
76.07,-1.317,4.821,22.0
65.318,-1.114,5.951,26.0
65.691,-1.11,5.601,17.0
76.102,-1.275,6.045,25.0
76.278,-1.265,5.607,34.0
75.656,-1.243,5.12,27.0
90.774,-1.477,5.615,19.0
65.482,-1.049,5.865,34.0
74.323,-1.179,6.222,24.0
75.75,-1.19,5.9,30.0
76.191,-1.186,5.482,33.0
75.37,-1.161,4.984,32.0
90.641,-1.383,5.466,10.0
65.363,-0.981,5.753,36.0
74.204,-1.103,6.097,24.0
75.849,-1.116,5.788,25.0
75.843,-1.104,5.338,36.0
75.644,-1.091,4.884,22.0
90.629,-1.293,5.324,14.0
74.275,-1.041,6.418,17.0
66.456,-0.922,5.354,20.0
75.784,-1.04,5.662,34.0
75.785,-1.029,5.212,36.0
75.662,-1.017,4.762,19.0
90.542,-1.205,5.173,26.0
66.417,-0.867,5.631,17.0
66.483,-0.859,5.247,34.0
76.022,-0.972,5.556,44.0
75.745,-0.957,5.086,11.0
90.437,-1.131,5.545,21.0
90.546,-1.12,5.024,38.0
66.375,-0.804,5.516,17.0
75.521,-0.905,5.835,14.0
76.211,-0.903,5.442,21.0
91.279,-1.07,5.976,31.0
90.439,-1.048,5.395,26.0
90.566,-1.038,4.875,31.0
66.443,-0.745,5.411,22.0
75.471,-0.837,5.704,26.0
76.148,-0.834,5.31,30.0
90.592,-0.981,5.778,24.0
90.503,-0.969,5.245,28.0
90.586,-0.958,4.722,29.0
76.672,-0.793,6.112,15.0
76.205,-0.779,5.629,21.0
75.922,-0.766,5.164,25.0
90.492,-0.902,5.616,25.0
90.642,-0.893,5.098,15.0
90.679,-0.882,4.571,15.0
62.727,-0.595,4.891,19.0
76.16,-0.714,5.492,25.0
75.997,-0.703,5.036,23.0
107.636,-0.982,6.492,5.0
193.796,-1.746,10.556,13.0
193.272,-1.719,9.399,24.0
76.441,-0.662,5.823,11.0
76.073,-0.65,5.35,31.0
97.637,-0.823,6.294,8.0
179.139,-1.49,10.482,7.0
193.676,-1.589,10.2,21.0
193.397,-1.565,9.06,17.0
76.371,-0.6,5.679,21.0
76.071,-0.59,5.211,22.0
105.727,-0.809,6.625,20.0
179.347,-1.353,10.171,15.0
193.558,-1.44,9.847,8.0
193.428,-1.419,8.715,14.0
76.218,-0.542,5.53,6.0
96.486,-0.676,6.434,16.0
105.802,-0.73,6.435,6.0
193.367,-1.314,10.61,17.0
193.793,-1.297,9.504,13.0
194.391,-1.282,8.397,21.0
76.12,-0.485,5.38,9.0
96.261,-0.604,6.238,14.0
178.902,-1.104,10.546,4.0
179.21,-1.089,9.5,17.0
193.894,-1.16,9.146,15.0
179.044,-1.054,7.399,6.0
87.939,-0.498,6.05,9.0
98.917,-0.551,6.225,10.0
179.447,-0.984,10.242,5.0
179.211,-0.967,9.164,18.0
179.057,-0.948,8.107,31.0
175.996,-0.917,6.941,10.0
96.136,-0.481,6.431,16.0
99.094,-0.487,6.048,16.0
194.338,-0.938,10.722,20.0
179.11,-0.85,8.816,34.0
179.001,-0.834,7.763,28.0
175.913,-0.804,6.604,8.0
96.171,-0.42,6.248,21.0
170.726,-0.733,10.091,7.0
194.476,-0.818,10.356,13.0
179.287,-0.74,8.481,7.0
178.928,-0.724,7.416,13.0
108.687,-0.431,3.871,6.0
96.36,-0.364,6.075,23.0
179.744,-0.666,10.278,6.0
179.169,-0.649,9.196,23.0
195.061,-0.691,8.849,5.0
0.0,0.0,0.0,0.0
0.0,0.0,0.0,0.0
99.247,-0.318,6.062,5.0
0.0,0.0,0.0,0.0
194.624,-0.595,9.602,9.0
204.129,-0.61,8.854,5.0
0.0,0.0,0.0,0.0
83.348,-0.237,2.641,5.0
180.095,-0.481,10.64,5.0
179.048,-0.466,9.529,14.0
202.005,-0.513,9.567,6.0
179.116,-0.444,7.417,67.0
108.62,-0.262,3.861,9.0
82.822,-0.194,2.46,3.0
178.847,-0.389,10.21,16.0
202.029,-0.427,10.347,18.0
195.096,-0.4,8.851,7.0
179.116,-0.357,7.058,7.0
105.728,-0.204,3.546,3.0
78.684,-0.147,2.179,5.0
179.299,-0.307,9.873,4.0
201.928,-0.334,9.933,22.0
204.219,-0.327,8.85,8.0
109.029,-0.168,4.077,6.0
83.189,-0.124,2.623,6.0
78.582,-0.112,2.018,3.0
151.081,-0.194,8.011,13.0
201.722,-0.249,9.516,19.0
0.0,0.0,0.0,0.0
108.307,-0.122,3.828,8.0
82.812,-0.089,2.443,5.0
0.0,0.0,0.0,0.0
201.191,-0.179,10.256,22.0
0.0,0.0,0.0,0.0
0.0,0.0,0.0,0.0
83.329,-0.062,2.774,13.0
78.041,-0.055,2.141,4.0
0.0,0.0,0.0,0.0
201.581,-0.108,9.861,22.0
202.758,-0.101,8.73,8.0
108.97,-0.049,4.055,6.0
83.122,-0.034,2.597,10.0
0.0,0.0,0.0,0.0
0.0,0.0,0.0,0.0
201.827,-0.044,9.458,24.0
0.0,0.0,0.0,0.0
83.283,-0.012,2.926,24.0
82.766,-0.009,2.414,1.0
0.0,0.0,0.0,0.0
43.22,-0.002,0.755,0.0
201.946,0.013,9.044,20.0
83.346,0.007,3.243,8.0
83.241,0.01,2.749,19.0
77.563,0.011,2.1,2.0
0.0,0.0,0.0,0.0
40.984,0.008,0.63,0.0
202.638,0.063,8.647,6.0
83.294,0.028,3.066,24.0
83.042,0.03,2.57,9.0
0.0,0.0,0.0,0.0
0.0,0.0,0.0,0.0
0.0,0.0,0.0,0.0
83.306,0.043,3.379,16.0
83.261,0.045,2.889,19.0
77.511,0.043,2.235,1.0
0.0,0.0,0.0,0.0
0.0,0.0,0.0,0.0
0.0,0.0,0.0,0.0
83.293,0.058,3.202,25.0
78.088,0.055,2.544,6.0
77.118,0.055,2.059,3.0
0.0,0.0,0.0,0.0
39.747,0.029,0.592,0.0
32.747,0.024,0.296,0.0
83.258,0.069,3.024,29.0
82.778,0.069,2.521,4.0
0.0,0.0,0.0,0.0
0.0,0.0,0.0,0.0
36.518,0.031,0.466,0.0
30.915,0.026,0.214,0.0
78.092,0.072,2.67,16.0
77.347,0.072,2.191,4.0
0.0,0.0,0.0,0.0
42.963,0.04,0.709,0.0
33.973,0.032,0.362,0.0
28.805,0.027,0.138,0.0
78.102,0.077,2.503,15.0
76.837,0.076,2.012,1.0
0.0,0.0,0.0,0.0
38.206,0.037,0.549,0.0
0.0,0.0,0.0,0.0
28.587,0.027,0.075,1.0
82.768,0.084,2.474,2.0
0.0,0.0,0.0,0.0
0.0,0.0,0.0,0.0
35.529,0.035,0.434,0.0
30.575,0.03,0.194,0.0
26.988,0.026,0.014,0.0
77.086,0.077,2.141,3.0
0.0,0.0,0.0,0.0
40.915,0.04,0.657,0.0
33.652,0.032,0.34,0.0
28.8,0.027,0.122,1.0
25.874,0.024,-0.041,0.0
0.0,0.0,0.0,0.0
0.0,0.0,0.0,0.0
37.355,0.034,0.52,0.0
31.907,0.028,0.254,0.0
28.376,0.024,0.06,1.0
24.619,0.021,-0.091,0.0
0.0,0.0,0.0,0.0
42.716,0.036,0.754,0.0
35.266,0.028,0.416,0.0
30.215,0.023,0.176,0.0
26.645,0.02,0.0,0.0
23.589,0.017,-0.138,1.0
0.0,0.0,0.0,0.0
0.0,0.0,0.0,0.0
33.16,0.022,0.319,0.0
28.653,0.018,0.105,1.0
25.68,0.016,-0.055,0.0
22.31,0.013,-0.178,0.0
46.419,0.026,0.892,0.0
0.0,0.0,0.0,0.0
0.0,0.0,0.0,0.0
27.528,0.013,0.042,0.0
24.111,0.01,-0.103,0.0
21.131,0.008,-0.214,4.0
0.0,0.0,0.0,0.0
34.539,0.011,0.388,0.0
30.278,0.009,0.163,0.0
26.436,0.006,-0.014,0.0
23.376,0.005,-0.149,1.0
19.923,0.003,-0.244,0.0
0.0,0.0,0.0,0.0
32.987,0.003,0.301,0.0
28.613,0.001,0.094,1.0
25.245,0.0,-0.067,0.0
21.865,0.0,-0.186,1.0
18.921,-0.001,-0.272,0.0
36.605,-0.004,0.47,0.0
30.778,-0.005,0.216,0.0
27.272,-0.006,0.031,0.0
23.815,-0.006,-0.113,0.0
21.007,-0.006,-0.223,2.0
18.049,-0.006,-0.297,0.0
33.479,-0.014,0.359,0.0
28.892,-0.014,0.141,0.0
26.023,-0.014,-0.025,0.0
23.133,-0.014,-0.16,0.0
19.579,-0.013,-0.25,0.0
17.265,-0.012,-0.321,0.0
33.026,-0.026,0.284,0.0
28.392,-0.024,0.078,1.0
25.06,-0.022,-0.077,0.0
21.481,-0.021,-0.194,1.0
18.566,-0.019,-0.276,0.0
16.724,-0.018,-0.347,0.0
30.319,-0.035,0.197,0.0
26.88,-0.033,0.017,0.0
23.68,-0.031,-0.123,1.0
20.645,-0.028,-0.23,0.0
17.928,-0.025,-0.304,0.0
16.263,-0.024,-0.371,0.0
28.768,-0.046,0.127,4.0
25.821,-0.043,-0.037,0.0
22.632,-0.039,-0.165,0.0
19.361,-0.035,-0.256,0.0
17.207,-0.032,-0.328,0.0
15.753,-0.03,-0.393,0.0
28.297,-0.058,0.064,1.0
24.838,-0.053,-0.088,0.0
21.348,-0.047,-0.2,0.0
18.414,-0.042,-0.282,0.0
16.634,-0.039,-0.352,0.0
15.275,-0.037,-0.413,0.0
26.621,-0.068,0.005,0.0
23.602,-0.062,-0.132,0.0
20.223,-0.055,-0.232,0.0
17.69,-0.049,-0.308,0.0
16.106,-0.046,-0.374,0.0
14.709,-0.043,-0.428,0.0
25.558,-0.078,-0.046,0.0
22.299,-0.07,-0.171,0.0
19.14,-0.062,-0.259,0.0
17.076,-0.057,-0.332,0.0
15.656,-0.053,-0.396,0.0
14.319,-0.05,-0.446,0.0
24.285,-0.088,-0.094,0.0
21.223,-0.079,-0.206,0.0
18.321,-0.07,-0.285,0.0
16.521,-0.064,-0.356,0.0
15.147,-0.06,-0.414,0.0
13.897,-0.057,-0.461,0.0
23.293,-0.099,-0.138,0.0
19.912,-0.086,-0.234,0.0
17.566,-0.077,-0.309,0.0
16.059,-0.072,-0.378,0.0
14.65,-0.067,-0.431,0.0
13.564,-0.064,-0.478,0.0
22.066,-0.107,-0.175,0.0
19.125,-0.095,-0.264,0.0
16.967,-0.086,-0.333,0.0
15.565,-0.08,-0.398,0.0
14.204,-0.075,-0.446,0.0
13.186,-0.071,-0.491,0.0
21.472,-0.119,-0.214,0.0
18.161,-0.102,-0.287,0.0
16.504,-0.095,-0.357,0.0
15.146,-0.089,-0.418,0.0
13.851,-0.082,-0.463,0.0
12.871,-0.078,-0.506,0.0
19.798,-0.123,-0.237,0.0
17.463,-0.111,-0.311,0.0
15.991,-0.103,-0.378,0.0
14.563,-0.096,-0.431,0.0
13.453,-0.09,-0.476,0.0
12.457,-0.084,-0.514,0.0
19.064,-0.133,-0.265,0.0
16.929,-0.12,-0.334,0.0
15.612,-0.112,-0.4,0.0
14.155,-0.104,-0.447,0.0
13.163,-0.098,-0.492,0.0
12.299,-0.093,-0.532,0.0
18.238,-0.141,-0.29,0.0
16.417,-0.129,-0.357,0.0
15.057,-0.12,-0.415,0.0
13.786,-0.112,-0.462,0.0
12.802,-0.105,-0.504,0.0
12.046,-0.101,-0.544,0.0
17.478,-0.149,-0.312,0.0
16.006,-0.139,-0.379,0.0
14.53,-0.128,-0.429,0.0
13.473,-0.12,-0.477,0.0
12.523,-0.113,-0.517,0.0
11.719,-0.107,-0.552,0.0
16.885,-0.158,-0.333,0.0
15.564,-0.148,-0.398,0.0
14.198,-0.137,-0.446,0.0
13.063,-0.128,-0.488,0.0
12.335,-0.122,-0.533,0.0
11.486,-0.115,-0.563,0.0
16.465,-0.169,-0.356,0.0
14.999,-0.155,-0.412,0.0
13.852,-0.145,-0.461,0.0
12.752,-0.136,-0.5,0.0
11.996,-0.129,-0.541,0.0
11.312,-0.123,-0.576,0.0
15.975,-0.178,-0.375,0.0
14.556,-0.164,-0.427,0.0
13.389,-0.153,-0.471,0.0
12.536,-0.145,-0.515,0.0
11.784,-0.138,-0.553,0.0
11.091,-0.131,-0.585,0.0
15.567,-0.188,-0.395,0.0
14.224,-0.174,-0.443,0.0
13.201,-0.163,-0.488,0.0
12.321,-0.154,-0.529,0.0
11.558,-0.146,-0.564,0.0
10.828,-0.138,-0.591,0.0
15.046,-0.196,-0.409,0.0
13.866,-0.182,-0.457,0.0
12.87,-0.171,-0.5,0.0
12.03,-0.162,-0.538,0.0
11.286,-0.154,-0.571,0.0
10.565,-0.145,-0.596,0.0
14.683,-0.205,-0.425,0.0
13.48,-0.191,-0.469,0.0
12.601,-0.18,-0.512,0.0
