X,Y,Z,Reflectivity
17.318,-2.037,-0.331,0.0
15.79,-1.861,-0.387,0.0
14.353,-1.694,-0.429,0.0
22.42,-2.646,-0.043,13.0
22.37,-2.644,-0.164,8.0
19.946,-2.361,-0.253,0.0
17.651,-2.092,-0.321,0.0
16.129,-1.915,-0.38,0.0
14.655,-1.743,-0.424,0.0
22.246,-2.645,-0.022,15.0
22.368,-2.663,-0.142,14.0
22.406,-2.671,-0.263,0.0
17.92,-2.14,-0.309,0.0
16.401,-1.961,-0.371,0.0
14.924,-1.787,-0.418,0.0
22.182,-2.656,0.0,19.0
22.361,-2.681,-0.121,10.0
22.017,-2.643,-0.237,0.0
18.337,-2.204,-0.298,0.0
16.618,-2.001,-0.36,0.0
15.252,-1.839,-0.412,0.0
22.183,-2.674,0.021,20.0
22.213,-2.681,-0.098,14.0
22.148,-2.676,-0.217,1.0
18.879,-2.284,-0.288,0.0
16.965,-2.056,-0.35,0.0
15.421,-1.871,-0.401,0.0
22.186,-2.691,0.043,17.0
22.202,-2.696,-0.075,18.0
22.18,-2.697,-0.195,3.0
19.421,-2.364,-0.277,0.0
17.226,-2.1,-0.338,0.0
15.753,-1.923,-0.393,0.0
22.194,-2.708,0.066,8.0
22.199,-2.712,-0.052,15.0
22.182,-2.713,-0.171,4.0
19.685,-2.41,-0.26,0.0
17.633,-2.162,-0.327,0.0
15.968,-1.96,-0.382,0.0
25.916,-3.18,0.104,6.0
22.217,-2.729,-0.029,10.0
22.215,-2.732,-0.148,7.0
20.476,-2.521,-0.249,0.0
17.836,-2.198,-0.313,0.0
16.272,-2.008,-0.372,0.0
26.212,-3.233,0.133,6.0
25.673,-3.17,-0.007,7.0
22.222,-2.746,-0.125,5.0
20.928,-2.589,-0.232,1.0
18.32,-2.269,-0.301,0.0
16.664,-2.066,-0.364,0.0
26.247,-3.253,0.161,6.0
25.642,-3.181,0.02,11.0
25.508,-3.167,-0.116,0.0
21.97,-2.73,-0.22,4.0
19.0,-2.364,-0.292,0.0
16.916,-2.106,-0.351,0.0
26.195,-3.261,0.189,2.0
25.598,-3.189,0.048,12.0
25.561,-3.187,-0.089,5.0
22.188,-2.769,-0.198,10.0
19.388,-2.422,-0.277,0.0
17.276,-2.16,-0.34,0.0
27.883,-3.485,0.232,0.0
25.598,-3.202,0.075,10.0
25.55,-3.198,-0.061,11.0
22.46,-2.813,-0.176,3.0
19.878,-2.492,-0.263,0.0
17.624,-2.211,-0.327,0.0
14.261,0.333,-0.448,0.0
13.217,0.31,-0.492,0.0
12.386,0.292,-0.533,0.0
11.592,0.274,-0.568,0.0
10.872,0.258,-0.596,0.0
10.278,0.245,-0.623,0.0
13.856,0.33,-0.462,0.0
12.896,0.309,-0.505,0.0
12.083,0.29,-0.544,0.0
11.327,0.273,-0.577,0.0
10.65,0.258,-0.604,0.0
10.099,0.246,-0.632,0.0
13.546,0.329,-0.478,0.0
12.648,0.308,-0.52,0.0
11.856,0.29,-0.557,0.0
11.094,0.273,-0.587,0.0
10.498,0.259,-0.616,0.0
9.91,0.245,-0.64,0.0
13.171,0.325,-0.491,0.0
12.418,0.308,-0.535,0.0
11.54,0.287,-0.564,0.0
10.891,0.272,-0.597,0.0
10.254,0.257,-0.622,0.0
9.737,0.245,-0.648,0.0
12.883,0.323,-0.505,0.0
12.081,0.304,-0.544,0.0
11.308,0.285,-0.575,0.0
10.592,0.268,-0.601,0.0
10.077,0.256,-0.631,0.0
0.0,0.0,0.0,0.0
12.588,0.32,-0.518,0.0
11.823,0.301,-0.555,0.0
11.137,0.285,-0.588,0.0
10.459,0.268,-0.614,0.0
9.88,0.254,-0.638,0.0
9.39,0.242,-0.661,0.0
12.367,0.318,-0.533,0.0
11.586,0.299,-0.567,0.0
10.88,0.281,-0.596,0.0
10.216,0.265,-0.62,0.0
9.724,0.252,-0.647,0.0
0.0,0.0,0.0,0.0
12.119,0.314,-0.545,0.0
11.282,0.293,-0.573,0.0
10.668,0.278,-0.604,0.0
10.065,0.263,-0.63,0.0
0.0,0.0,0.0,0.0
9.056,0.238,-0.673,0.0
11.846,0.31,-0.556,0.0
11.174,0.293,-0.589,0.0
10.428,0.274,-0.611,0.0
9.858,0.26,-0.636,0.0
0.0,0.0,0.0,0.0
8.904,0.236,-0.679,0.0
11.585,0.305,-0.566,0.0
10.866,0.287,-0.594,0.0
10.215,0.27,-0.618,0.0
9.705,0.257,-0.645,0.0
0.0,0.0,0.0,0.0
8.758,0.233,-0.684,0.0
11.288,0.299,-0.573,0.0
10.609,0.281,-0.6,0.0
10.107,0.269,-0.631,0.0
0.0,0.0,0.0,0.0
9.001,0.24,-0.668,0.0
8.652,0.231,-0.693,0.0
11.106,0.295,-0.585,0.0
10.438,0.278,-0.61,0.0
9.914,0.264,-0.637,0.0
0.0,0.0,0.0,0.0
0.0,0.0,0.0,0.0
8.498,0.227,-0.696,0.0
10.857,0.289,-0.592,0.0
10.215,0.272,-0.616,0.0
9.705,0.259,-0.642,0.0
0.0,0.0,0.0,0.0
8.729,0.234,-0.68,0.0
8.416,0.226,-0.705,0.0
10.642,0.284,-0.6,0.0
10.052,0.268,-0.625,0.0
9.564,0.255,-0.65,0.0
0.0,0.0,0.0,0.0
0.0,0.0,0.0,0.0
8.276,0.222,-0.709,0.0
10.48,0.279,-0.61,0.0
9.926,0.265,-0.635,0.0
0.0,0.0,0.0,0.0
0.0,0.0,0.0,0.0
0.0,0.0,0.0,0.0
8.168,0.218,-0.715,0.0
10.297,0.274,-0.618,0.0
9.732,0.259,-0.641,0.0
0.0,0.0,0.0,0.0
0.0,0.0,0.0,0.0
0.0,0.0,0.0,0.0
0.0,0.0,0.0,0.0
12.676,-0.528,-0.512,0.0
11.976,-0.498,-0.546,0.0
11.339,-0.47,-0.576,0.0
10.699,-0.443,-0.6,0.0
10.164,-0.42,-0.623,0.0
9.717,-0.4,-0.646,0.0
12.917,-0.53,-0.499,0.0
12.253,-0.501,-0.537,0.0
11.605,-0.473,-0.569,0.0
10.969,-0.446,-0.595,0.0
10.317,-0.419,-0.614,0.0
9.845,-0.399,-0.637,0.0
13.316,-0.537,-0.49,0.0
12.462,-0.501,-0.523,0.0
11.783,-0.472,-0.556,0.0
11.105,-0.444,-0.583,0.0
10.531,-0.42,-0.608,0.0
10.063,-0.4,-0.633,0.0
13.597,-0.538,-0.476,0.0
12.695,-0.501,-0.51,0.0
12.03,-0.473,-0.546,0.0
11.367,-0.446,-0.576,0.0
10.748,-0.42,-0.601,0.0
10.198,-0.398,-0.623,0.0
13.901,-0.54,-0.462,0.0
12.955,-0.501,-0.498,0.0
12.258,-0.473,-0.535,0.0
11.612,-0.446,-0.568,0.0
10.94,-0.419,-0.592,0.0
10.38,-0.396,-0.615,0.0
14.243,-0.541,-0.448,0.0
13.29,-0.503,-0.487,0.0
12.443,-0.47,-0.52,0.0
11.784,-0.443,-0.555,0.0
11.175,-0.419,-0.584,0.0
10.541,-0.394,-0.606,0.0
14.658,-0.545,-0.434,0.0
13.63,-0.504,-0.475,0.0
12.746,-0.47,-0.51,0.0
12.099,-0.444,-0.548,0.0
11.387,-0.417,-0.575,0.0
10.831,-0.395,-0.603,0.0
15.006,-0.544,-0.418,0.0
13.931,-0.503,-0.46,0.0
12.976,-0.467,-0.496,0.0
12.294,-0.44,-0.535,0.0
11.654,-0.416,-0.568,0.0
10.993,-0.39,-0.593,0.0
15.579,-0.55,-0.406,0.0
14.297,-0.503,-0.447,0.0
13.335,-0.467,-0.486,0.0
12.484,-0.435,-0.521,0.0
11.885,-0.412,-0.558,0.0
11.211,-0.387,-0.584,0.0
15.916,-0.547,-0.386,0.0
14.707,-0.503,-0.433,0.0
13.684,-0.466,-0.474,0.0
12.81,-0.434,-0.512,0.0
12.084,-0.407,-0.546,0.0
11.462,-0.384,-0.577,0.0
16.442,-0.549,-0.371,0.0
15.005,-0.498,-0.416,0.0
14.004,-0.462,-0.461,0.0
13.046,-0.429,-0.499,0.0
12.318,-0.403,-0.535,0.0
11.657,-0.379,-0.567,0.0
16.841,-0.544,-0.35,0.0
15.618,-0.502,-0.406,0.0
14.369,-0.459,-0.448,0.0
13.326,-0.424,-0.486,0.0
12.522,-0.396,-0.522,0.0
11.866,-0.373,-0.556,0.0
17.384,-0.543,-0.331,0.0
16.028,-0.498,-0.389,0.0
14.728,-0.455,-0.434,0.0
13.705,-0.421,-0.476,0.0
12.817,-0.391,-0.512,0.0
12.096,-0.367,-0.546,0.0
17.901,-0.539,-0.311,0.0
16.498,-0.494,-0.372,0.0
15.134,-0.45,-0.42,0.0
14.009,-0.414,-0.463,0.0
13.131,-0.386,-0.502,0.0
12.356,-0.36,-0.537,0.0
18.472,-0.535,-0.289,0.0
16.878,-0.486,-0.351,0.0
15.67,-0.448,-0.408,0.0
14.386,-0.408,-0.451,0.0
13.412,-0.378,-0.49,0.0
12.561,-0.351,-0.524,0.0
19.394,-0.539,-0.27,0.0
17.382,-0.479,-0.332,0.0
16.006,-0.438,-0.389,0.0
14.697,-0.399,-0.436,0.0
13.696,-0.369,-0.477,0.0
12.858,-0.344,-0.515,0.0
20.096,2.506,-0.259,0.0
17.876,2.228,-0.333,0.0
16.283,2.029,-0.396,0.0
14.939,1.861,-0.451,0.0
13.792,1.718,-0.495,0.0
12.865,1.602,-0.536,0.0
19.518,2.427,-0.273,0.0
17.529,2.179,-0.346,0.0
15.99,1.987,-0.407,0.0
14.644,1.82,-0.458,0.0
13.57,1.686,-0.502,0.0
12.684,1.576,-0.542,0.0
19.177,2.378,-0.289,0.0
17.254,2.139,-0.359,0.0
15.715,1.947,-0.417,0.0
14.411,1.785,-0.466,0.0
13.376,1.657,-0.509,0.0
12.535,1.552,-0.549,0.0
18.705,2.312,-0.302,0.0
16.962,2.096,-0.371,0.0
15.517,1.916,-0.428,0.0
14.185,1.751,-0.474,0.0
13.294,1.641,-0.52,0.0
12.438,1.535,-0.558,0.0
18.319,2.256,-0.315,0.0
16.685,2.054,-0.382,0.0
15.275,1.879,-0.437,0.0
13.993,1.721,-0.482,0.0
13.077,1.608,-0.525,0.0
12.305,1.512,-0.565,0.0
17.977,2.205,-0.327,0.0
16.355,2.005,-0.391,0.0
14.931,1.829,-0.443,0.0
13.764,1.686,-0.488,0.0
12.974,1.588,-0.535,0.0
11.821,1.447,-0.555,0.0
17.602,2.149,-0.339,0.0
16.098,1.965,-0.402,0.0
14.617,1.783,-0.448,0.0
13.594,1.657,-0.496,0.0
12.747,1.553,-0.538,0.0
11.909,1.451,-0.571,0.0
17.333,2.106,-0.351,0.0
15.756,1.914,-0.409,0.0
14.491,1.759,-0.459,0.0
13.447,1.631,-0.504,0.0
12.598,1.528,-0.544,0.0
11.735,1.422,-0.574,0.0
17.109,2.068,-0.363,0.0
15.563,1.88,-0.419,0.0
14.297,1.726,-0.467,0.0
13.307,1.606,-0.512,0.0
12.488,1.506,-0.552,0.0
11.651,1.405,-0.582,0.0
16.854,2.026,-0.374,0.0
15.375,1.847,-0.429,0.0
14.146,1.698,-0.476,0.0
13.14,1.577,-0.518,0.0
12.403,1.487,-0.56,0.0
11.577,1.388,-0.589,0.0
16.547,1.977,-0.383,0.0
15.105,1.804,-0.436,0.0
13.948,1.664,-0.482,0.0
13.017,1.552,-0.526,0.0
12.213,1.456,-0.563,0.0
11.418,1.36,-0.592,0.0
16.243,1.929,-0.391,0.0
14.906,1.769,-0.444,0.0
13.778,1.634,-0.489,0.0
12.875,1.526,-0.532,0.0
12.13,1.436,-0.57,0.0
11.319,1.339,-0.597,0.0
16.044,1.893,-0.401,0.0
14.724,1.736,-0.452,0.0
13.597,1.601,-0.495,0.0
12.675,1.492,-0.535,0.0
12.01,1.412,-0.575,0.0
11.246,1.322,-0.603,0.0
15.843,1.856,-0.41,0.0
14.49,1.696,-0.457,0.0
13.437,1.571,-0.501,0.0
12.572,1.469,-0.541,0.0
11.787,1.376,-0.575,0.0
11.126,1.298,-0.606,0.0
15.574,1.811,-0.416,0.0
14.314,1.663,-0.464,0.0
13.283,1.542,-0.506,0.0
12.487,1.448,-0.549,0.0
11.691,1.354,-0.58,0.0
11.041,1.278,-0.611,0.0
15.36,1.772,-0.423,0.0
14.17,1.633,-0.471,0.0
13.178,1.517,-0.513,0.0
12.47,1.434,-0.558,0.0
11.604,1.333,-0.586,0.0
10.947,1.257,-0.615,0.0
15.204,1.739,-0.431,0.0
14.001,1.6,-0.477,0.0
13.102,1.496,-0.521,0.0
12.293,1.402,-0.56,0.0
11.464,1.306,-0.588,0.0
10.904,1.241,-0.621,0.0
15.05,1.707,-0.439,0.0
13.82,1.565,-0.482,0.0
12.936,1.464,-0.524,0.0
12.135,1.372,-0.562,0.0
11.403,1.288,-0.593,0.0
10.785,1.217,-0.623,0.0
14.873,1.671,-0.445,0.0
13.753,1.544,-0.49,0.0
12.819,1.437,-0.529,0.0
12.071,1.352,-0.568,0.0
11.294,1.264,-0.596,0.0
10.674,1.193,-0.624,0.0
14.641,1.63,-0.449,0.0
13.603,1.512,-0.494,0.0
12.675,1.407,-0.533,0.0
11.961,1.327,-0.572,0.0
11.201,1.241,-0.599,0.0
10.621,1.176,-0.629,0.0
14.494,1.597,-0.455,0.0
13.467,1.482,-0.499,0.0
12.603,1.385,-0.538,0.0
11.843,1.3,-0.574,0.0
11.122,1.22,-0.603,0.0
10.532,1.154,-0.631,0.0
14.373,1.568,-0.46,0.0
13.378,1.457,-0.505,0.0
12.559,1.366,-0.545,0.0
11.754,1.277,-0.578,0.0
11.07,1.201,-0.607,0.0
10.492,1.137,-0.635,0.0
14.286,1.541,-0.467,0.0
13.259,1.429,-0.508,0.0
12.477,1.343,-0.549,0.0
11.584,1.245,-0.577,0.0
10.963,1.177,-0.608,0.0
10.371,1.112,-0.634,0.0
14.102,1.505,-0.47,0.0
13.206,1.407,-0.514,0.0
12.404,1.32,-0.553,0.0
11.572,1.23,-0.583,0.0
10.927,1.159,-0.613,0.0
10.365,1.098,-0.64,0.0
14.007,1.477,-0.474,0.0
13.106,1.38,-0.518,0.0
12.283,1.292,-0.555,0.0
11.441,1.201,-0.583,0.0
10.868,1.139,-0.615,0.0
10.305,1.079,-0.642,0.0
13.887,1.447,-0.478,0.0
12.988,1.351,-0.52,0.0
12.166,1.264,-0.556,0.0
11.43,1.185,-0.588,0.0
10.821,1.121,-0.618,0.0
10.234,1.058,-0.643,0.0
13.817,1.422,-0.483,0.0
12.839,1.319,-0.521,0.0
12.129,1.244,-0.561,0.0
11.347,1.162,-0.59,0.0
10.759,1.1,-0.62,0.0
10.181,1.04,-0.645,0.0
13.712,1.393,-0.485,0.0
12.809,1.299,-0.526,0.0
12.115,1.227,-0.566,0.0
11.331,1.145,-0.594,0.0
10.7,1.08,-0.622,0.0
10.128,1.02,-0.646,0.0
13.621,1.365,-0.488,0.0
12.717,1.272,-0.528,0.0
12.025,1.201,-0.567,0.0
11.246,1.121,-0.595,0.0
10.654,1.061,-0.624,0.0
10.106,1.004,-0.649,0.0
13.6,1.345,-0.493,0.0
12.671,1.25,-0.531,0.0
11.944,1.176,-0.568,0.0
11.196,1.101,-0.596,0.0
10.614,1.042,-0.625,0.0
10.012,0.981,-0.646,0.0
13.526,1.318,-0.496,0.0
12.657,1.231,-0.535,0.0
11.895,1.155,-0.57,0.0
11.146,1.08,-0.598,0.0
10.556,1.021,-0.626,0.0
10.005,0.966,-0.649,0.0
13.459,1.292,-0.498,0.0
12.561,1.204,-0.535,0.0
11.855,1.134,-0.572,0.0
11.1,1.06,-0.599,0.0
10.532,1.004,-0.628,0.0
9.962,0.948,-0.65,0.0
13.421,0.921,-0.496,0.0
12.501,0.854,-0.53,0.0
11.779,0.802,-0.565,0.0
11.047,0.749,-0.592,0.0
10.525,0.712,-0.622,0.0
9.962,0.671,-0.643,0.0
13.41,0.897,-0.49,0.0
12.601,0.839,-0.53,0.0
11.905,0.79,-0.566,0.0
11.143,0.736,-0.592,0.0
10.536,0.694,-0.618,0.0
9.994,0.656,-0.641,0.0
13.475,0.877,-0.487,0.0
12.656,0.821,-0.527,0.0
11.919,0.77,-0.562,0.0
11.202,0.721,-0.591,0.0
10.644,0.682,-0.62,0.0
10.015,0.639,-0.638,0.0
13.602,0.862,-0.485,0.0
12.683,0.8,-0.522,0.0
12.007,0.754,-0.56,0.0
11.291,0.707,-0.59,0.0
10.686,0.666,-0.617,0.0
10.018,0.622,-0.633,0.0
13.7,0.844,-0.482,0.0
12.809,0.786,-0.521,0.0
12.026,0.735,-0.555,0.0
11.295,0.687,-0.584,0.0
10.686,0.647,-0.611,0.0
10.179,0.614,-0.638,0.0
13.752,0.823,-0.477,0.0
12.891,0.768,-0.518,0.0
12.173,0.722,-0.555,0.0
11.39,0.673,-0.583,0.0
10.744,0.632,-0.609,0.0
10.202,0.597,-0.634,0.0
13.847,0.805,-0.472,0.0
12.914,0.747,-0.511,0.0
12.229,0.704,-0.551,0.0
11.478,0.658,-0.581,0.0
10.847,0.619,-0.608,0.0
10.249,0.582,-0.631,0.0
13.956,0.787,-0.468,0.0
13.005,0.73,-0.507,0.0
12.312,0.687,-0.547,0.0
11.589,0.644,-0.579,0.0
10.846,0.6,-0.601,0.0
10.334,0.569,-0.629,0.0
13.982,0.764,-0.46,0.0
13.184,0.717,-0.505,0.0
12.381,0.67,-0.542,0.0
11.579,0.623,-0.571,0.0
11.01,0.59,-0.603,0.0
10.407,0.555,-0.626,0.0
14.232,0.752,-0.458,0.0
13.215,0.695,-0.497,0.0
12.436,0.651,-0.535,0.0
11.714,0.61,-0.569,0.0
11.04,0.572,-0.596,0.0
10.469,0.539,-0.622,0.0
14.274,0.729,-0.449,0.0
13.352,0.679,-0.492,0.0
12.539,0.634,-0.53,0.0
11.834,0.595,-0.566,0.0
11.166,0.559,-0.595,0.0
10.531,0.524,-0.618,0.0
14.542,0.718,-0.446,0.0
13.546,0.665,-0.489,0.0
12.678,0.619,-0.526,0.0
11.955,0.58,-0.562,0.0
11.18,0.54,-0.586,0.0
10.639,0.511,-0.616,0.0
14.778,0.704,-0.441,0.0
13.586,0.643,-0.479,0.0
12.791,0.602,-0.52,0.0
12.059,0.564,-0.557,0.0
11.324,0.527,-0.584,0.0
10.71,0.496,-0.611,0.0
14.788,0.679,-0.429,0.0
13.767,0.628,-0.474,0.0
12.919,0.586,-0.514,0.0
12.146,0.547,-0.55,0.0
11.457,0.513,-0.581,0.0
10.814,0.482,-0.607,0.0
15.027,0.663,-0.423,0.0
13.993,0.614,-0.469,0.0
13.125,0.572,-0.511,0.0
12.303,0.533,-0.546,0.0
11.554,0.497,-0.575,0.0
10.911,0.467,-0.602,0.0
15.272,0.648,-0.415,0.0
14.091,0.594,-0.459,0.0
13.175,0.552,-0.5,0.0
12.386,0.515,-0.538,0.0
11.682,0.483,-0.571,0.0
11.087,0.455,-0.601,0.0
15.55,0.633,-0.408,0.0
14.267,0.577,-0.451,0.0
13.328,0.535,-0.493,0.0
12.502,0.498,-0.531,0.0
11.795,0.467,-0.564,0.0
11.139,0.438,-0.593,0.0
15.731,0.613,-0.397,0.0
14.496,0.561,-0.443,0.0
13.485,0.518,-0.485,0.0
12.672,0.484,-0.525,0.0
11.931,0.452,-0.558,0.0
11.221,0.422,-0.585,0.0
15.989,0.596,-0.386,0.0
14.722,0.545,-0.435,0.0
13.705,0.503,-0.478,0.0
12.824,0.468,-0.517,0.0
12.026,0.435,-0.55,0.0
11.434,0.411,-0.584,0.0
16.315,0.58,-0.377,0.0
14.872,0.525,-0.423,0.0
13.9,0.487,-0.47,0.0
12.954,0.45,-0.508,0.0
12.352,0.426,-0.551,0.0
11.513,0.394,-0.575,0.0
16.535,0.561,-0.363,0.0
15.171,0.51,-0.414,0.0
14.078,0.47,-0.46,0.0
13.116,0.434,-0.5,0.0
12.425,0.408,-0.54,0.0
11.745,0.382,-0.573,0.0
16.821,0.542,-0.35,0.0
15.603,0.499,-0.408,0.0
14.352,0.455,-0.452,0.0
13.289,0.418,-0.491,0.0
12.571,0.392,-0.531,0.0
11.813,0.365,-0.562,0.0
17.114,0.523,-0.336,0.0
15.853,0.481,-0.396,0.0
14.614,0.439,-0.442,0.0
13.536,0.403,-0.483,0.0
12.717,0.375,-0.522,0.0
11.974,0.35,-0.555,0.0
17.546,0.508,-0.323,0.0
16.1,0.462,-0.382,0.0
14.736,0.419,-0.428,0.0
13.816,0.389,-0.476,0.0
12.9,0.36,-0.513,0.0
12.21,0.337,-0.551,0.0
18.022,0.493,-0.309,0.0
16.446,0.445,-0.369,0.0
15.18,0.407,-0.421,0.0
14.021,0.372,-0.465,0.0
13.083,0.344,-0.503,0.0
12.377,0.322,-0.542,0.0
18.451,0.475,-0.292,0.0
16.783,0.427,-0.355,0.0
15.587,0.393,-0.412,0.0
14.286,0.356,-0.455,0.0
13.279,0.328,-0.493,0.0
12.528,0.306,-0.532,0.0
19.005,0.459,-0.275,0.0
17.051,0.407,-0.337,0.0
15.85,0.374,-0.398,0.0
14.523,0.339,-0.443,0.0
13.518,0.312,-0.484,0.0
12.701,0.29,-0.522,0.0
19.728,0.445,-0.259,0.0
17.463,0.389,-0.321,0.0
16.146,0.356,-0.383,0.0
14.741,0.321,-0.429,0.0
13.866,0.298,-0.477,0.0
12.939,0.275,-0.514,0.0
20.405,0.429,-0.239,0.0
18.085,0.375,-0.307,0.0
16.489,0.338,-0.368,0.0
15.049,0.305,-0.417,0.0
14.037,0.281,-0.463,0.0
13.119,0.259,-0.502,0.0
21.46,0.418,-0.221,0.0
18.576,0.357,-0.289,0.0
16.829,0.319,-0.351,0.0
15.584,0.292,-0.409,0.0
14.363,0.265,-0.453,0.0
13.392,0.244,-0.493,0.0
22.004,0.396,-0.195,0.0
19.2,0.341,-0.271,0.0
17.192,0.301,-0.333,0.0
15.873,0.274,-0.393,0.0
14.6,0.248,-0.439,0.0
13.674,0.229,-0.483,0.0
22.902,0.378,-0.169,0.0
19.966,0.325,-0.252,0.0
17.719,0.284,-0.317,0.0
16.286,0.257,-0.379,0.0
14.858,0.231,-0.424,0.0
13.929,0.213,-0.471,0.0
23.718,0.357,-0.139,0.0
20.796,0.308,-0.231,0.0
18.308,0.267,-0.299,0.0
16.647,0.238,-0.361,0.0
15.478,0.218,-0.417,0.0
14.203,0.197,-0.458,0.0
24.405,0.332,-0.105,1.0
21.793,0.291,-0.208,1.0
18.903,0.248,-0.28,0.0
16.974,0.219,-0.342,0.0
15.805,0.2,-0.401,0.0
14.489,0.18,-0.444,0.0
25.435,0.31,-0.069,0.0
22.273,0.267,-0.177,0.0
19.728,0.231,-0.26,0.0
17.532,0.202,-0.325,0.0
16.219,0.183,-0.386,0.0
14.922,0.165,-0.433,0.0
26.206,0.284,-0.029,0.0
23.499,0.249,-0.149,0.0
20.685,0.214,-0.239,0.0
18.101,0.183,-0.306,0.0
16.573,0.164,-0.367,0.0
15.368,0.149,-0.421,0.0
27.018,0.255,0.013,0.0
24.363,0.225,-0.114,0.0
21.69,0.195,-0.215,2.0
18.76,0.164,-0.286,0.0
16.963,0.145,-0.347,0.0
15.766,0.131,-0.405,0.0
28.614,0.232,0.062,1.0
25.255,0.199,-0.076,0.0
22.322,0.171,-0.184,1.0
19.418,0.144,-0.263,0.0
17.472,0.126,-0.328,0.0
16.162,0.113,-0.388,0.0
28.758,0.195,0.112,1.0
26.21,0.172,-0.034,0.0
23.416,0.149,-0.153,0.0
20.556,0.126,-0.243,1.0
18.135,0.107,-0.309,0.0
16.565,0.094,-0.369,0.0
0.0,0.0,0.0,0.0
27.107,0.143,0.011,0.0
24.324,0.123,-0.116,0.0
21.361,0.104,-0.216,4.0
18.78,0.087,-0.287,0.0
16.981,0.075,-0.348,0.0
31.436,0.133,0.232,0.0
28.48,0.115,0.061,1.0
25.397,0.097,-0.077,0.0
22.396,0.081,-0.187,0.0
19.609,0.067,-0.266,0.0
17.495,0.056,-0.328,0.0
33.689,0.102,0.307,0.0
28.789,0.081,0.113,1.0
26.287,0.068,-0.033,0.0
23.466,0.056,-0.154,1.0
20.806,0.046,-0.244,1.0
18.168,0.036,-0.308,0.0
35.19,0.064,0.384,0.0
30.451,0.049,0.174,0.0
27.271,0.039,0.014,0.0
24.217,0.029,-0.115,0.0
21.384,0.022,-0.212,3.0
18.761,0.016,-0.284,0.0
36.901,0.024,0.47,0.0
31.533,0.014,0.238,0.0
28.553,0.008,0.067,1.0
25.445,0.002,-0.074,0.0
22.531,-0.001,-0.183,0.0
19.788,-0.005,-0.263,0.0
40.097,-0.018,0.584,0.0
33.25,-0.021,0.312,0.0
28.829,-0.024,0.12,2.0
26.391,-0.026,-0.029,0.0
23.706,-0.028,-0.149,0.0
20.931,-0.028,-0.24,0.0
43.405,-0.068,0.713,0.0
36.231,-0.063,0.407,0.0
30.748,-0.059,0.186,1.0
27.625,-0.058,0.021,0.0
24.583,-0.055,-0.108,0.0
21.836,-0.053,-0.209,0.0
0.0,0.0,0.0,0.0
37.24,-0.104,0.487,0.0
32.041,-0.095,0.253,1.0
28.717,-0.09,0.075,6.0
25.667,-0.084,-0.065,0.0
23.062,-0.08,-0.178,0.0
0.0,0.0,0.0,0.0
0.0,0.0,0.0,0.0
33.192,-0.132,0.325,0.0
28.865,-0.119,0.13,3.0
26.668,-0.115,-0.017,0.0
24.046,-0.108,-0.139,0.0
0.0,0.0,0.0,0.0
0.0,0.0,0.0,0.0
36.773,-0.183,0.431,0.0
31.225,-0.16,0.201,1.0
28.225,-0.149,0.035,1.0
24.787,-0.135,-0.096,0.0
0.0,0.0,0.0,0.0
0.0,0.0,0.0,0.0
0.0,0.0,0.0,0.0
32.626,-0.198,0.273,1.0
28.753,-0.179,0.091,7.0
26.144,-0.166,-0.051,0.0
0.0,0.0,0.0,0.0
0.0,0.0,0.0,0.0
0.0,0.0,0.0,0.0
34.998,-0.244,0.361,0.0
28.863,-0.206,0.148,1.0
27.065,-0.197,0.0,0.0
82.188,-0.612,2.291,2.0
0.0,0.0,0.0,0.0
0.0,0.0,0.0,0.0
37.349,-0.294,0.458,0.0
31.885,-0.255,0.226,1.0
28.61,-0.233,0.055,4.0
83.26,-0.692,2.484,3.0
0.0,0.0,0.0,0.0
0.0,0.0,0.0,0.0
0.0,0.0,0.0,0.0
33.051,-0.292,0.3,1.0
28.806,-0.258,0.112,4.0
90.503,-0.826,2.879,19.0
0.0,0.0,0.0,0.0
0.0,0.0,0.0,0.0
0.0,0.0,0.0,0.0
35.744,-0.344,0.394,0.0
30.938,-0.301,0.181,1.0
90.604,-0.897,3.058,33.0
83.72,-0.839,2.394,1.0
0.0,0.0,0.0,0.0
0.0,0.0,0.0,0.0
0.0,0.0,0.0,0.0
32.529,-0.341,0.255,1.0
90.612,-0.966,3.239,46.0
90.394,-0.973,2.764,8.0
0.0,0.0,0.0,0.0
0.0,0.0,0.0,0.0
0.0,0.0,0.0,0.0
33.925,-0.38,0.333,0.0
90.661,-1.031,3.421,40.0
90.72,-1.041,2.955,22.0
84.782,-0.981,2.324,1.0
57.267,-0.669,1.268,0.0
0.0,0.0,0.0,0.0
36.175,-0.43,0.428,0.0
90.717,-1.092,3.605,10.0
90.752,-1.101,3.136,5.0
85.487,-1.046,2.513,1.0
64.042,-0.789,1.544,0.0
0.0,0.0,0.0,0.0
0.0,0.0,0.0,0.0
127.354,-1.614,5.315,12.0
0.0,0.0,0.0,0.0
90.431,-1.163,2.84,2.0
0.0,0.0,0.0,0.0
0.0,0.0,0.0,0.0
0.0,0.0,0.0,0.0
193.147,-2.565,8.451,20.0
171.444,-2.291,6.617,7.0
0.0,0.0,0.0,0.0
86.192,-1.166,2.427,1.0
0.0,0.0,0.0,0.0
47.599,-0.651,0.85,0.0
193.42,-2.677,8.855,19.0
0.0,0.0,0.0,0.0
171.416,-2.399,6.078,6.0
89.892,-1.264,2.713,3.0
64.079,-0.906,1.604,0.0
0.0,0.0,0.0,0.0
193.469,-2.779,9.248,20.0
193.319,-2.79,8.241,16.0
171.704,-2.49,6.434,18.0
96.808,-1.411,3.118,2.0
86.556,-1.266,2.341,1.0
0.0,0.0,0.0,0.0
191.446,-2.844,9.54,8.0
192.985,-2.878,8.617,17.0
171.602,-2.57,6.777,7.0
0.0,0.0,0.0,0.0
87.109,-1.315,2.533,3.0
63.9,-0.968,1.528,0.0
193.374,-2.959,10.029,6.0
194.349,-2.985,9.076,6.0
193.992,-2.989,8.055,6.0
171.552,-2.652,6.22,4.0
96.624,-1.499,3.004,4.0
0.0,0.0,0.0,0.0
99.26,-1.559,5.347,18.0
191.471,-3.017,9.325,7.0
0.0,0.0,0.0,0.0
171.402,-2.716,6.558,8.0
97.038,-1.542,3.213,5.0
0.0,0.0,0.0,0.0
98.878,-1.59,5.526,21.0
191.4,-3.084,9.706,12.0
193.257,-3.122,8.8,5.0
168.596,-2.73,6.789,5.0
0.0,0.0,0.0,0.0
89.785,-1.46,2.688,3.0
98.762,-1.62,5.719,23.0
99.222,-1.631,5.231,5.0
191.164,-3.148,9.09,7.0
193.789,-3.197,8.193,14.0
0.0,0.0,0.0,0.0
96.908,-1.604,3.097,14.0
98.768,-1.649,5.918,14.0
99.163,-1.659,5.428,19.0
191.31,-3.204,9.479,19.0
193.51,-3.245,8.57,14.0
171.51,-2.88,6.711,11.0
97.054,-1.631,3.295,12.0
105.91,-1.796,6.558,8.0
98.799,-1.677,5.606,28.0
191.545,-3.255,9.879,16.0
0.0,0.0,0.0,0.0
194.143,-3.303,7.984,5.0
168.549,-2.87,6.063,3.0
90.951,-1.561,5.815,15.0
98.718,-1.696,5.8,19.0
191.912,-3.299,10.282,5.0
191.096,-3.287,9.231,17.0
193.594,-3.33,8.35,16.0
0.0,0.0,0.0,0.0
75.354,-1.307,4.97,17.0
105.869,-1.837,6.432,9.0
98.949,-1.717,5.499,17.0
191.475,-3.323,9.63,9.0
190.197,-3.3,8.583,5.0
171.328,-2.972,6.845,3.0
75.436,-1.319,5.126,22.0
105.853,-1.851,6.643,16.0
98.709,-1.725,5.684,27.0
191.555,-3.346,10.016,11.0
191.003,-3.335,8.997,6.0
193.828,-3.381,8.127,7.0
75.946,-1.335,5.312,29.0
90.928,-1.598,5.888,6.0
98.768,-1.734,5.882,19.0
99.075,-1.738,5.376,4.0
191.225,-3.351,9.388,15.0
193.468,-3.388,8.495,7.0
75.933,-1.34,5.462,27.0
75.373,-1.329,5.03,23.0
105.868,-1.864,6.515,13.0
98.841,-1.738,5.559,20.0
191.717,-3.367,9.79,6.0
190.379,-3.338,8.733,7.0
76.113,-1.345,5.625,32.0
75.72,-1.336,5.202,23.0
105.855,-1.865,6.722,14.0
98.71,-1.736,5.746,27.0
191.627,-3.363,10.16,8.0
191.381,-3.354,9.154,10.0
76.498,-1.351,5.804,21.0
75.93,-1.338,5.365,30.0
75.435,-1.326,4.937,12.0
98.778,-1.734,5.941,13.0
99.004,-1.733,5.441,13.0
191.399,-3.344,9.526,7.0
76.22,-1.342,5.932,21.0
76.009,-1.335,5.518,29.0
75.385,-1.32,5.08,23.0
105.834,-1.849,6.571,14.0
98.78,-1.721,5.62,23.0
191.604,-3.331,9.906,13.0
75.309,-1.319,6.006,21.0
76.168,-1.33,5.677,26.0
75.803,-1.32,5.255,28.0
90.955,-1.579,5.822,14.0
98.711,-1.708,5.806,18.0
99.244,-1.712,5.321,3.0
75.147,-1.306,6.138,20.0
76.542,-1.326,5.853,22.0
75.779,-1.308,5.399,19.0
75.327,-1.296,4.965,20.0
105.879,-1.815,6.428,6.0
98.909,-1.69,5.49,21.0
75.837,-1.305,6.339,12.0
76.658,-1.315,6.006,17.0
76.047,-1.299,5.561,37.0
75.395,-1.283,5.111,26.0
90.894,-1.541,5.688,11.0
98.734,-1.667,5.665,29.0
67.289,-1.145,5.751,9.0
75.108,-1.272,6.025,19.0
76.176,-1.285,5.711,34.0
75.882,-1.274,5.284,26.0
90.929,-1.521,5.857,31.0
98.785,-1.645,5.847,15.0
67.216,-1.127,5.868,16.0
65.882,-1.1,5.406,14.0
76.735,-1.275,5.893,23.0
75.362,-1.246,5.385,20.0
75.32,-1.24,4.989,28.0
90.756,-1.486,5.537,11.0
72.839,-1.202,6.492,13.0
65.87,-1.081,5.525,19.0
75.153,-1.227,5.909,19.0
76.008,-1.235,5.57,37.0
75.464,-1.219,5.135,30.0
90.895,-1.461,5.71,28.0
63.71,-1.031,5.794,11.0
73.135,-1.178,6.267,14.0
75.036,-1.201,6.036,17.0
76.174,-1.212,5.719,14.0
75.318,-1.192,5.26,25.0
98.605,-1.551,6.371,7.0
63.805,-1.011,5.918,23.0
65.441,-1.03,5.724,13.0
65.861,-1.031,5.415,24.0
76.1,-1.183,5.849,15.0
75.231,-1.162,5.388,26.0
75.34,-1.157,5.0,22.0
63.919,-0.989,6.042,27.0
65.436,-1.005,5.84,31.0
65.866,-1.004,5.532,25.0
75.753,-1.147,5.956,40.0
75.781,-1.14,5.56,31.0
75.44,-1.127,5.139,21.0
64.156,-0.965,6.177,21.0
64.495,-0.963,5.869,33.0
0.0,0.0,0.0,0.0
75.452,-1.11,6.063,16.0
75.948,-1.109,5.703,27.0
75.3,-1.091,5.259,25.0
64.294,-0.938,6.302,8.0
64.017,-0.927,5.936,32.0
63.856,-0.917,5.583,16.0
65.854,-0.938,5.404,10.0
76.09,-1.075,5.843,33.0
75.587,-1.059,5.407,34.0
64.321,-0.907,6.414,28.0
64.102,-0.896,6.053,24.0
63.964,-0.887,5.701,26.0
65.752,-0.904,5.506,41.0
76.011,-1.035,5.965,27.0
75.877,-1.024,5.554,32.0
64.35,-0.874,6.526,27.0
58.359,-0.786,5.609,23.0
64.058,-0.854,5.816,22.0
65.171,-0.861,5.566,40.0
75.915,-0.993,6.082,23.0
76.097,-0.985,5.695,29.0
64.528,-0.841,6.65,11.0
64.203,-0.829,6.275,11.0
64.035,-0.818,5.918,29.0
63.865,-0.807,5.558,16.0
76.003,-0.951,6.212,7.0
66.337,-0.821,5.071,19.0
58.771,-0.732,6.153,25.0
64.315,-0.792,6.39,26.0
63.85,-0.778,6.004,14.0
63.911,-0.77,5.665,23.0
65.338,-0.778,5.444,24.0
66.297,-0.78,5.173,26.0
0.0,0.0,0.0,0.0
64.462,-0.755,6.507,14.0
58.408,-0.675,5.585,22.0
63.97,-0.73,5.77,16.0
65.67,-0.74,5.575,40.0
66.369,-0.739,5.282,20.0
57.247,-0.641,6.174,23.0
58.869,-0.65,6.035,8.0
58.448,-0.637,5.679,21.0
64.048,-0.689,5.875,12.0
66.205,-0.703,5.72,26.0
62.776,-0.657,5.091,15.0
57.212,-0.603,6.257,25.0
58.78,-0.61,6.114,26.0
58.606,-0.599,5.783,12.0
58.427,-0.588,5.448,9.0
66.489,-0.66,5.845,25.0
66.391,-0.649,5.483,11.0
63.915,-0.628,7.087,8.0
0.0,0.0,0.0,0.0
64.416,-0.613,6.452,26.0
58.487,-0.547,5.539,23.0
66.799,-0.615,5.971,41.0
66.466,-0.601,5.586,27.0
63.906,-0.582,7.179,23.0
57.356,-0.512,6.136,31.0
64.42,-0.564,6.546,10.0
58.652,-0.505,5.64,25.0
66.663,-0.563,6.054,28.0
66.623,-0.552,5.694,21.0
59.481,-0.496,6.768,23.0
57.293,-0.468,6.21,31.0
58.837,-0.471,6.061,32.0
67.364,-0.528,6.572,18.0
57.003,-0.438,5.256,5.0
64.706,-0.486,5.62,18.0
59.542,-0.449,6.858,23.0
56.89,-0.42,6.246,25.0
57.456,-0.414,5.999,21.0
68.164,-0.48,6.743,13.0
56.961,-0.391,5.33,15.0
64.73,-0.435,5.71,22.0
59.551,-0.401,6.94,29.0
0.0,0.0,0.0,0.0
57.357,-0.367,6.065,27.0
64.889,-0.404,6.506,7.0
56.993,-0.345,5.408,24.0
64.708,-0.381,5.793,16.0
59.509,-0.351,7.015,24.0
63.378,-0.362,7.128,25.0
57.073,-0.317,6.11,31.0
56.559,-0.304,5.744,21.0
56.979,-0.296,5.48,19.0
64.69,-0.325,5.875,25.0
59.34,-0.299,7.071,34.0
63.341,-0.308,7.205,11.0
56.988,-0.266,6.175,27.0
56.962,-0.256,5.858,32.0
56.598,-0.245,5.515,7.0
57.127,-0.237,5.259,15.0
0.0,0.0,0.0,0.0
59.243,-0.235,6.813,14.0
57.009,-0.216,6.247,29.0
57.356,-0.206,5.968,31.0
56.581,-0.194,5.582,27.0
57.132,-0.186,5.328,22.0
57.436,-0.186,6.987,32.0
59.304,-0.181,6.891,26.0
57.033,-0.164,6.317,26.0
57.393,-0.155,6.04,30.0
56.663,-0.143,5.656,29.0
57.254,-0.133,5.406,25.0
56.778,-0.132,6.973,23.0
59.393,-0.127,6.97,19.0
57.064,-0.111,6.386,21.0
57.278,-0.101,6.093,24.0
56.7,-0.09,5.724,30.0
57.122,-0.079,5.458,31.0
56.73,-0.077,7.032,29.0
57.114,-0.067,6.767,22.0
65.247,-0.064,7.376,18.0
57.146,-0.045,6.143,24.0
56.953,-0.035,5.813,26.0
56.874,-0.025,5.496,24.0
56.713,-0.023,7.091,26.0
57.156,-0.012,6.834,26.0
59.63,-0.001,6.804,21.0
57.215,0.009,6.211,24.0
57.076,0.019,5.885,31.0
56.842,0.03,5.552,25.0
48.937,0.028,6.171,18.0
56.93,0.044,6.867,31.0
59.551,0.057,6.857,25.0
57.253,0.066,6.274,28.0
56.713,0.076,5.906,24.0
56.825,0.088,5.609,25.0
48.929,0.078,6.22,16.0
56.937,0.102,6.925,28.0
59.612,0.118,6.924,15.0
56.854,0.123,6.287,32.0
56.865,0.134,5.977,14.0
56.8,0.145,5.661,27.0
58.341,0.153,7.473,12.0
57.245,0.161,7.018,31.0
57.066,0.172,6.683,22.0
56.263,0.181,6.275,24.0
56.995,0.194,6.045,29.0
56.806,0.204,5.714,26.0
48.994,0.18,6.322,10.0
57.424,0.222,7.093,31.0
57.081,0.232,6.737,28.0
56.3,0.239,6.33,11.0
56.764,0.252,6.071,30.0
56.894,0.264,5.774,27.0
51.414,0.243,6.68,10.0
58.318,0.287,7.255,25.0
57.234,0.293,6.805,27.0
52.325,0.278,5.928,11.0
56.4,0.311,6.08,29.0
56.927,0.325,5.825,24.0
28.777,-0.59,0.154,3.0
26.491,-0.553,-0.006,0.0
23.56,-0.5,-0.138,0.0
20.193,-0.435,-0.233,0.0
17.936,-0.393,-0.308,0.0
16.292,-0.363,-0.371,0.0
28.742,-0.649,0.136,9.0
26.227,-0.601,-0.022,0.0
23.274,-0.541,-0.15,0.0
19.738,-0.466,-0.24,0.0
17.606,-0.422,-0.312,0.0
16.148,-0.393,-0.377,0.0
28.681,-0.705,0.12,6.0
25.921,-0.646,-0.036,0.0
23.018,-0.582,-0.161,0.0
19.56,-0.502,-0.248,0.0
17.449,-0.454,-0.319,0.0
16.007,-0.422,-0.382,0.0
28.641,-0.762,0.104,4.0
25.563,-0.69,-0.049,0.0
22.662,-0.619,-0.17,0.0
19.352,-0.536,-0.256,0.0
17.245,-0.483,-0.324,0.0
15.875,-0.451,-0.387,0.0
28.467,-0.816,0.09,1.0
25.232,-0.732,-0.061,0.0
22.381,-0.658,-0.179,0.0
19.245,-0.572,-0.263,0.0
17.157,-0.516,-0.331,0.0
15.776,-0.481,-0.392,0.0
28.401,-0.872,0.077,1.0
25.089,-0.779,-0.072,0.0
22.008,-0.692,-0.186,0.0
19.104,-0.607,-0.27,0.0
17.097,-0.549,-0.337,0.0
15.719,-0.511,-0.398,0.0
28.177,-0.923,0.064,1.0
24.903,-0.825,-0.081,0.0
21.958,-0.735,-0.194,2.0
18.919,-0.64,-0.275,0.0
16.976,-0.581,-0.341,0.0
15.551,-0.537,-0.399,0.0
28.019,-0.975,0.053,0.0
24.316,-0.855,-0.088,0.0
21.326,-0.757,-0.196,0.0
18.688,-0.67,-0.278,0.0
16.797,-0.609,-0.343,0.0
15.451,-0.566,-0.402,0.0
27.699,-1.021,0.043,0.0
24.29,-0.904,-0.096,0.0
21.123,-0.794,-0.201,1.0
18.527,-0.703,-0.282,0.0
16.756,-0.642,-0.348,0.0
15.425,-0.596,-0.406,0.0
27.538,-1.071,0.035,0.0
23.661,-0.929,-0.101,0.0
21.095,-0.836,-0.207,2.0
18.49,-0.739,-0.286,0.0
16.692,-0.674,-0.351,0.0
15.247,-0.621,-0.406,0.0
27.36,-1.12,0.027,0.0
23.83,-0.984,-0.108,0.0
21.053,-0.878,-0.212,2.0
18.272,-0.768,-0.287,0.0
16.657,-0.706,-0.355,0.0
15.128,-0.647,-0.406,0.0
26.776,-1.151,0.021,0.0
23.81,-1.032,-0.113,1.0
21.06,-0.921,-0.217,2.0
18.279,-0.805,-0.291,0.0
16.577,-0.737,-0.356,0.0
15.125,-0.678,-0.409,0.0
26.73,-1.204,0.016,0.0
23.723,-1.077,-0.117,1.0
21.158,-0.968,-0.221,1.0
18.146,-0.837,-0.292,0.0
16.545,-0.769,-0.358,0.0
15.209,-0.713,-0.414,0.0
27.296,-1.284,0.012,2.0
23.684,-1.122,-0.12,1.0
20.893,-0.998,-0.221,0.0
18.127,-0.872,-0.294,0.0
16.496,-0.8,-0.359,0.0
15.005,-0.733,-0.41,0.0
27.424,-1.345,0.009,2.0
23.696,-1.171,-0.122,1.0
20.852,-1.038,-0.223,0.0
18.096,-0.907,-0.296,0.0
16.505,-0.834,-0.361,0.0
15.109,-0.769,-0.414,0.0
27.482,-1.403,0.007,1.0
23.617,-1.214,-0.124,1.0
20.943,-1.085,-0.225,0.0
18.068,-0.942,-0.296,0.0
16.486,-0.866,-0.361,0.0
14.979,-0.792,-0.411,0.0
27.203,-1.443,0.006,0.0
23.626,-1.262,-0.124,1.0
34.266,-1.843,-0.37,1.0
18.118,-0.981,-0.297,0.0
16.43,-0.896,-0.36,0.0
34.222,-1.88,-0.94,0.0
34.244,-1.886,0.008,1.0
23.666,-1.312,-0.124,1.0
34.205,-1.909,-0.369,1.0
18.036,-1.013,-0.295,0.0
16.517,-0.934,-0.362,0.0
15.015,-0.854,-0.412,0.0
26.96,-1.538,0.007,0.0
23.694,-1.36,-0.123,0.0
20.901,-1.207,-0.224,0.0
18.059,-1.05,-0.295,0.0
16.549,-0.968,-0.361,0.0
15.074,-0.888,-0.412,0.0
26.872,-1.586,0.009,0.0
23.946,-1.422,-0.122,0.0
20.901,-1.248,-0.222,0.0
18.073,-1.086,-0.293,0.0
16.615,-1.004,-0.361,0.0
15.063,-0.916,-0.41,0.0
26.957,-1.643,0.012,0.0
23.836,-1.461,-0.119,0.0
21.131,-1.303,-0.222,0.0
18.242,-1.132,-0.294,0.0
16.58,-1.035,-0.358,0.0
15.055,-0.945,-0.408,0.0
27.182,-1.71,0.017,0.0
23.809,-1.506,-0.115,0.0
21.224,-1.35,-0.219,0.0
18.252,-1.168,-0.291,0.0
16.552,-1.065,-0.355,0.0
15.2,-0.983,-0.409,0.0
27.456,-1.78,0.022,0.0
23.922,-1.559,-0.111,0.0
21.276,-1.394,-0.216,0.0
18.374,-1.211,-0.289,0.0
16.673,-1.105,-0.353,0.0
15.191,-1.012,-0.405,0.0
27.281,-1.82,0.028,0.0
23.96,-1.607,-0.106,0.0
21.327,-1.438,-0.211,0.0
18.448,-1.251,-0.285,0.0
16.802,-1.145,-0.352,0.0
15.297,-1.048,-0.404,0.0
27.685,-1.9,0.036,0.0
24.147,-1.665,-0.1,0.0
21.484,-1.489,-0.207,0.0
18.595,-1.296,-0.282,0.0
16.884,-1.183,-0.349,0.0
15.371,-1.082,-0.402,0.0
33.919,-2.391,0.054,3.0
33.903,-2.402,-0.13,10.0
33.894,-2.413,-0.316,2.0
18.746,-1.341,-0.279,0.0
16.905,-1.216,-0.344,0.0
15.409,-1.114,-0.398,0.0
33.905,-2.454,0.065,3.0
33.893,-2.464,-0.119,10.0
33.89,-2.476,-0.304,1.0
18.823,-1.382,-0.273,0.0
17.035,-1.256,-0.34,0.0
15.517,-1.15,-0.395,0.0
33.892,-2.515,0.078,5.0
33.892,-2.526,-0.106,19.0
33.893,-2.538,-0.291,7.0
19.046,-1.433,-0.269,0.0
17.153,-1.296,-0.336,0.0
15.62,-1.186,-0.391,0.0
33.9,-2.577,0.092,2.0
33.891,-2.587,-0.092,5.0
33.871,-2.597,-0.277,5.0
19.341,-1.49,-0.265,0.0
17.243,-1.334,-0.331,0.0
15.682,-1.219,-0.386,0.0
33.886,-2.636,0.107,2.0
33.892,-2.648,-0.077,2.0
33.892,-2.659,-0.262,2.0
19.688,-1.551,-0.261,0.0
17.398,-1.377,-0.325,0.0
15.783,-1.254,-0.381,0.0
33.922,-2.698,0.123,0.0
33.899,-2.708,-0.061,0.0
33.861,-2.716,-0.245,5.0
19.826,-1.597,-0.253,0.0
17.658,-1.428,-0.322,0.0
15.991,-1.299,-0.378,0.0
33.87,-2.753,0.14,0.0
33.873,-2.764,-0.044,0.0
33.836,-2.772,-0.228,4.0
33.823,-2.782,-0.415,0.0
17.716,-1.463,-0.314,0.0
16.22,-1.345,-0.375,0.0
145.657,-13.503,11.28,8.0
147.208,-13.601,10.58,3.0
185.299,-17.066,12.286,5.0
149.626,-13.735,9.074,21.0
162.238,-14.846,8.939,6.0
0.0,0.0,0.0,0.0
145.591,-13.289,11.306,9.0
145.831,-13.265,10.511,14.0
148.558,-13.468,9.881,10.0
150.262,-13.577,9.143,6.0
209.177,-18.84,11.564,150.0
0.0,0.0,0.0,0.0
145.249,-13.046,11.306,14.0
145.839,-13.054,10.537,14.0
147.374,-13.146,9.826,10.0
149.019,-13.248,9.091,10.0
209.17,-18.532,11.597,150.0
0.0,0.0,0.0,0.0
145.05,-12.816,11.31,13.0
146.069,-12.859,10.574,12.0
145.901,-12.798,9.747,10.0
185.352,-16.203,11.329,41.0
185.414,-16.152,10.302,25.0
0.0,0.0,0.0,0.0
145.342,-12.624,11.348,14.0
146.723,-12.698,10.636,9.0
147.115,-12.685,9.841,12.0
148.759,-12.782,9.105,3.0
151.927,-13.007,8.451,43.0
151.982,-12.967,7.608,17.0
145.62,-12.429,11.379,6.0
145.342,-12.359,10.542,4.0
148.249,-12.559,9.925,8.0
209.046,-17.644,12.805,8.0
209.163,-17.589,11.643,10.0
0.0,0.0,0.0,0.0
145.992,-12.236,11.41,14.0
147.316,-12.299,10.688,4.0
148.177,-12.325,9.92,13.0
208.689,-17.292,12.781,12.0
200.153,-16.524,11.141,35.0
0.0,0.0,0.0,0.0
146.871,-12.083,11.476,19.0
146.727,-12.024,10.64,11.0
149.276,-12.184,9.989,17.0
208.718,-16.972,12.775,13.0
200.204,-16.217,11.133,22.0
0.0,0.0,0.0,0.0
146.807,-11.848,11.462,12.0
0.0,0.0,0.0,0.0
149.365,-11.958,9.984,3.0
208.804,-16.653,12.764,11.0
195.091,-15.497,10.832,8.0
34.921,-2.763,1.743,0.0
145.324,-11.498,11.331,3.0
149.042,-11.744,10.782,6.0
150.98,-11.848,10.073,7.0
208.846,-16.322,12.74,20.0
193.474,-15.062,10.716,18.0
0.0,0.0,0.0,0.0
147.395,-11.426,11.471,12.0
149.165,-11.516,10.768,5.0
156.055,-11.997,10.388,6.0
193.614,-14.824,11.779,5.0
190.072,-14.494,10.497,6.0
35.011,-2.659,1.737,0.0
147.312,-11.184,11.438,12.0
155.15,-11.729,11.17,10.0
154.172,-11.605,10.232,9.0
190.454,-14.277,11.548,9.0
189.973,-14.182,10.45,19.0
34.993,-2.601,1.728,0.0
119.292,-8.865,9.235,4.0
147.447,-10.909,10.581,14.0
122.0,-8.986,8.066,5.0
189.353,-13.887,11.433,8.0
0.0,0.0,0.0,0.0
35.076,-2.55,1.723,0.0
119.37,-8.675,9.208,8.0
121.957,-8.824,8.718,9.0
121.966,-8.785,8.03,14.0
188.81,-13.538,11.346,16.0
189.46,-13.526,10.316,15.0
34.878,-2.479,1.703,0.0
119.217,-8.469,9.159,11.0
122.245,-8.645,8.699,8.0
122.085,-8.594,7.998,15.0
188.856,-13.233,11.286,19.0
189.243,-13.202,10.241,19.0
34.801,-2.416,1.687,0.0
119.343,-8.281,9.126,8.0
122.197,-8.438,8.652,10.0
121.915,-8.38,7.941,18.0
156.537,-10.71,9.297,15.0
156.794,-10.679,8.426,29.0
0.0,0.0,0.0,0.0
89.716,-3.694,5.743,15.0
98.307,-4.019,5.727,22.0
123.011,-4.992,6.46,9.0
194.751,-7.849,9.09,13.0
92.197,-3.69,3.774,15.0
92.11,-3.661,3.243,53.0
97.286,-3.847,6.121,8.0
99.411,-3.903,5.682,19.0
113.39,-4.419,5.829,15.0
113.436,-4.39,5.169,17.0
92.171,-3.542,3.67,38.0
92.112,-3.514,3.139,53.0
98.057,-3.721,6.058,15.0
113.243,-4.265,6.344,18.0
113.378,-4.238,5.699,25.0
113.358,-4.205,5.034,4.0
92.234,-3.397,3.567,152.0
92.19,-3.371,3.036,11.0
98.308,-3.574,5.958,19.0
113.295,-4.087,6.214,6.0
190.851,-6.831,9.367,10.0
0.0,0.0,0.0,0.0
92.234,-3.251,3.456,164.0
92.837,-3.247,2.946,3.0
99.152,-3.447,5.889,17.0
190.196,-6.562,10.199,20.0
190.437,-6.518,9.116,12.0
92.512,-3.142,3.886,1.0
92.25,-3.108,3.344,151.0
93.063,-3.111,2.839,2.0
99.313,-3.298,5.775,22.0
190.189,-6.264,9.96,18.0
190.33,-6.218,8.87,19.0
92.22,-2.989,3.758,16.0
92.208,-2.965,3.226,43.0
0.0,0.0,0.0,0.0
122.765,-3.889,6.982,3.0
189.58,-5.954,9.686,19.0
190.528,-5.932,8.634,7.0
92.288,-2.85,3.641,24.0
92.243,-2.824,3.108,24.0
0.0,0.0,0.0,0.0
97.144,-2.927,5.395,17.0
189.894,-5.67,9.447,19.0
0.0,0.0,0.0,0.0
92.309,-2.709,3.518,27.0
92.399,-2.688,2.989,3.0
0.0,0.0,0.0,0.0
88.317,-2.526,4.785,19.0
189.514,-5.372,9.17,21.0
190.247,-5.345,8.107,11.0
92.35,-2.571,3.393,150.0
92.976,-2.564,2.879,1.0
0.0,0.0,0.0,0.0
132.014,-3.578,6.967,7.0
189.641,-5.091,8.91,20.0
170.51,-4.536,7.027,5.0
92.431,-2.436,3.266,151.0
0.0,0.0,0.0,0.0
0.0,0.0,0.0,0.0
171.588,-4.4,8.813,16.0
171.664,-4.359,7.824,37.0
125.022,-3.144,4.975,33.0
0.0,0.0,0.0,0.0
0.0,0.0,0.0,0.0
0.0,0.0,0.0,0.0
96.819,-2.343,4.832,35.0
124.886,-2.99,5.51,22.0
124.875,-2.959,4.786,35.0
96.912,-2.273,3.144,6.0
0.0,0.0,0.0,0.0
0.0,0.0,0.0,0.0
96.826,-2.203,4.687,42.0
96.919,-2.182,4.13,28.0
128.487,-2.863,4.734,18.0
96.612,-2.129,2.99,1.0
0.0,0.0,0.0,0.0
0.0,0.0,0.0,0.0
96.889,-2.068,4.544,13.0
96.897,-2.045,3.982,46.0
96.968,-2.025,3.425,25.0
0.0,0.0,0.0,0.0
0.0,0.0,0.0,0.0
43.829,-0.884,0.782,0.0
189.947,-3.79,8.611,22.0
96.945,-1.911,3.833,27.0
96.945,-1.889,3.271,33.0
80.248,-1.545,2.234,0.0
0.0,0.0,0.0,0.0
0.0,0.0,0.0,0.0
0.0,0.0,0.0,0.0
97.069,-1.782,3.684,2.0
96.772,-1.755,3.112,11.0
0.0,0.0,0.0,0.0
0.0,0.0,0.0,0.0
38.523,-0.673,0.565,0.0
193.882,-3.344,8.171,8.0
0.0,0.0,0.0,0.0
89.712,-1.508,2.74,2.0
63.964,-1.061,1.576,0.0
47.576,-0.779,0.897,0.0
0.0,0.0,0.0,0.0
171.626,-2.736,6.954,3.0
0.0,0.0,0.0,0.0
86.677,-1.344,2.506,1.0
0.0,0.0,0.0,0.0
43.542,-0.656,0.749,0.0
34.954,-0.519,0.399,0.0
171.859,-2.517,6.675,15.0
96.549,-1.393,3.189,1.0
0.0,0.0,0.0,0.0
0.0,0.0,0.0,0.0
0.0,0.0,0.0,0.0
33.726,-0.458,0.327,1.0
127.248,-1.701,4.724,2.0
90.168,-1.186,2.823,4.0
64.001,-0.829,1.632,0.0
0.0,0.0,0.0,0.0
0.0,0.0,0.0,0.0
32.372,-0.399,0.259,1.0
90.634,-1.099,3.208,37.0
84.575,-1.009,2.502,1.0
0.0,0.0,0.0,0.0
0.0,0.0,0.0,0.0
35.758,-0.405,0.431,0.0
30.825,-0.342,0.192,0.0
90.566,-0.989,3.047,30.0
83.738,-0.898,2.331,1.0
0.0,0.0,0.0,0.0
41.251,-0.426,0.665,0.0
33.731,-0.342,0.348,0.0
28.8,-0.286,0.129,3.0
90.445,-0.88,2.882,13.0
0.0,0.0,0.0,0.0
0.0,0.0,0.0,0.0
0.0,0.0,0.0,0.0
32.402,-0.29,0.275,1.0
28.66,-0.251,0.077,5.0
83.051,-0.712,2.497,3.0
0.0,0.0,0.0,0.0
0.0,0.0,0.0,0.0
0.0,0.0,0.0,0.0
31.383,-0.246,0.21,1.0
27.459,-0.21,0.025,0.0
81.784,-0.61,2.31,3.0
0.0,0.0,0.0,0.0
0.0,0.0,0.0,0.0
33.685,-0.233,0.36,0.0
28.833,-0.194,0.14,5.0
26.262,-0.172,-0.024,0.0
0.0,0.0,0.0,0.0
0.0,0.0,0.0,0.0
0.0,0.0,0.0,0.0
32.618,-0.19,0.288,1.0
28.725,-0.163,0.087,7.0
25.227,-0.138,-0.07,0.0
63.811,-0.339,1.567,1.0
0.0,0.0,0.0,0.0
37.249,-0.185,0.48,0.0
31.351,-0.15,0.219,1.0
27.598,-0.128,0.032,0.0
24.18,-0.108,-0.112,0.0
57.554,-0.247,1.304,1.0
0.0,0.0,0.0,0.0
35.418,-0.14,0.39,0.0
28.87,-0.109,0.147,3.0
26.308,-0.095,-0.018,0.0
23.504,-0.081,-0.153,0.0
0.0,0.0,0.0,0.0
40.092,-0.126,0.599,0.0
33.179,-0.098,0.302,1.0
28.731,-0.081,0.091,6.0
25.378,-0.067,-0.066,0.0
22.03,-0.055,-0.186,0.0
0.0,0.0,0.0,0.0
0.0,0.0,0.0,0.0
31.193,-0.063,0.223,0.0
27.568,-0.051,0.034,0.0
24.158,-0.041,-0.11,0.0
21.108,-0.032,-0.219,2.0
42.646,-0.059,0.72,0.0
34.548,-0.043,0.382,0.0
29.928,-0.033,0.156,0.0
26.289,-0.025,-0.018,0.0
23.478,-0.018,-0.152,1.0
20.091,-0.013,-0.247,0.0
39.758,-0.02,0.593,0.0
33.114,-0.011,0.301,0.0
28.583,-0.006,0.093,1.0
25.317,-0.001,-0.067,0.0
21.972,0.001,-0.186,0.0
19.003,0.003,-0.271,0.0
0.0,0.0,0.0,0.0
31.147,0.015,0.222,0.0
27.544,0.017,0.035,0.0
24.134,0.018,-0.111,1.0
21.089,0.019,-0.22,3.0
18.267,0.019,-0.297,0.0
34.9,0.041,0.382,0.0
28.903,0.038,0.148,0.0
26.368,0.038,-0.018,0.0
23.321,0.036,-0.154,1.0
19.906,0.034,-0.247,0.0
17.548,0.032,-0.32,0.0
0.0,0.0,0.0,0.0
28.665,0.06,0.09,4.0
25.248,0.056,-0.067,0.0
21.882,0.051,-0.188,1.0
18.882,0.046,-0.272,0.0
16.929,0.044,-0.343,0.0
30.465,0.082,0.212,0.0
27.19,0.077,0.031,0.0
24.109,0.071,-0.112,0.0
21.077,0.065,-0.223,3.0
18.179,0.058,-0.298,0.0
16.452,0.054,-0.366,0.0
28.788,0.099,0.142,0.0
26.081,0.092,-0.022,0.0
23.105,0.084,-0.154,1.0
19.829,0.075,-0.25,0.0
17.424,0.068,-0.321,0.0
15.901,0.064,-0.386,0.0
28.456,0.117,0.083,1.0
25.182,0.106,-0.072,0.0
21.845,0.094,-0.19,2.0
18.789,0.083,-0.275,0.0
16.824,0.076,-0.344,0.0
15.48,0.072,-0.407,0.0
27.164,0.129,0.024,0.0
23.953,0.116,-0.117,0.0
20.902,0.104,-0.225,1.0
18.074,0.092,-0.302,0.0
16.379,0.085,-0.369,0.0
14.876,0.078,-0.422,0.0
25.961,0.139,-0.03,0.0
22.51,0.123,-0.157,0.0
19.68,0.109,-0.252,0.0
17.207,0.097,-0.323,0.0
15.837,0.091,-0.389,0.0
14.453,0.085,-0.44,0.0
24.85,0.147,-0.079,0.0
21.789,0.131,-0.197,2.0
18.704,0.115,-0.278,0.0
16.771,0.104,-0.349,0.0
15.468,0.098,-0.412,0.0
14.073,0.09,-0.457,0.0
23.786,0.154,-0.125,0.0
20.63,0.135,-0.229,0.0
17.913,0.119,-0.303,0.0
16.265,0.109,-0.372,0.0
14.832,0.101,-0.426,0.0
13.715,0.095,-0.474,0.0
22.426,0.156,-0.164,1.0
19.196,0.135,-0.252,0.0
17.23,0.123,-0.327,0.0
15.754,0.114,-0.393,0.0
14.341,0.105,-0.441,0.0
13.311,0.098,-0.488,0.0
21.616,0.161,-0.203,2.0
18.527,0.139,-0.282,0.0
16.654,0.126,-0.351,0.0
15.259,0.117,-0.412,0.0
14.012,0.108,-0.46,0.0
12.983,0.102,-0.503,0.0
20.356,0.16,-0.233,0.0
17.663,0.14,-0.305,0.0
16.214,0.13,-0.375,0.0
14.723,0.119,-0.428,0.0
13.639,0.111,-0.476,0.0
12.65,0.104,-0.516,0.0
19.129,0.157,-0.259,0.0
17.074,0.142,-0.331,0.0
15.737,0.132,-0.397,0.0
14.252,0.12,-0.444,0.0
13.151,0.112,-0.487,0.0
12.429,0.107,-0.533,0.0
18.311,0.157,-0.286,0.0
16.574,0.143,-0.355,0.0
15.204,0.132,-0.415,0.0
13.856,0.121,-0.46,0.0
12.904,0.114,-0.504,0.0
12.138,0.108,-0.545,0.0
17.566,0.156,-0.31,0.0
16.055,0.144,-0.377,0.0
14.744,0.133,-0.433,0.0
13.53,0.122,-0.477,0.0
12.618,0.115,-0.519,0.0
11.839,0.109,-0.556,0.0
16.926,0.155,-0.334,0.0
15.58,0.143,-0.398,0.0
14.229,0.132,-0.447,0.0
13.142,0.122,-0.491,0.0
12.375,0.116,-0.535,0.0
11.547,0.109,-0.567,0.0
16.493,0.155,-0.36,0.0
14.956,0.141,-0.414,0.0
13.82,0.131,-0.463,0.0
12.804,0.122,-0.505,0.0
12.113,0.116,-0.549,0.0
11.3,0.109,-0.578,0.0
15.944,0.153,-0.381,0.0
14.544,0.14,-0.432,0.0
13.419,0.13,-0.477,0.0
12.524,0.122,-0.52,0.0
11.779,0.115,-0.558,0.0
11.016,0.108,-0.587,0.0
15.511,0.151,-0.403,0.0
14.131,0.138,-0.45,0.0
13.046,0.128,-0.491,0.0
12.292,0.121,-0.536,0.0
11.506,0.114,-0.569,0.0
10.78,0.107,-0.596,0.0
14.907,0.147,-0.418,0.0
13.695,0.135,-0.464,0.0
12.767,0.127,-0.507,0.0
11.998,0.119,-0.548,0.0
11.292,0.113,-0.582,0.0
10.647,0.107,-0.611,0.0
14.509,0.144,-0.436,0.0
13.326,0.133,-0.478,0.0
12.486,0.125,-0.521,0.0
11.741,0.118,-0.56,0.0
11.022,0.111,-0.59,0.0
10.362,0.104,-0.615,0.0
14.07,0.14,-0.451,0.0
13.039,0.13,-0.495,0.0
12.266,0.123,-0.537,0.0
11.435,0.115,-0.568,0.0
10.792,0.108,-0.6,0.0
10.127,0.102,-0.622,0.0
13.651,0.136,-0.465,0.0
12.731,0.127,-0.509,0.0
11.958,0.12,-0.548,0.0
11.2,0.112,-0.58,0.0
10.539,0.106,-0.607,0.0
9.948,0.1,-0.631,0.0
13.299,0.132,-0.48,0.0
12.503,0.124,-0.525,0.0
11.699,0.117,-0.559,0.0
10.94,0.109,-0.588,0.0
10.399,0.104,-0.62,0.0
9.854,0.098,-0.645,0.0
12.928,0.128,-0.493,0.0
12.248,0.121,-0.538,0.0
11.433,0.113,-0.569,0.0
10.605,0.105,-0.591,0.0
10.134,0.1,-0.624,0.0
0.0,0.0,0.0,0.0
12.703,0.124,-0.509,0.0
11.936,0.117,-0.548,0.0
11.172,0.109,-0.578,0.0
10.529,0.103,-0.608,0.0
9.929,0.097,-0.631,0.0
0.0,0.0,0.0,0.0
12.442,0.12,-0.524,0.0
11.66,0.112,-0.559,0.0
10.956,0.105,-0.589,0.0
10.274,0.099,-0.614,0.0
9.788,0.094,-0.642,0.0
0.0,0.0,0.0,0.0
12.224,0.115,-0.539,0.0
11.452,0.108,-0.571,0.0
10.753,0.101,-0.599,0.0
0.0,0.0,0.0,0.0
0.0,0.0,0.0,0.0
9.084,0.085,-0.667,0.0
11.918,0.11,-0.549,0.0
11.171,0.103,-0.579,0.0
10.45,0.096,-0.603,0.0
9.921,0.091,-0.632,0.0
0.0,0.0,0.0,0.0
9.014,0.082,-0.68,0.0
11.687,0.105,-0.561,0.0
10.937,0.098,-0.588,0.0
10.296,0.092,-0.614,0.0
0.0,0.0,0.0,0.0
0.0,0.0,0.0,0.0
8.773,0.078,-0.678,0.0
11.329,0.098,-0.565,0.0
10.718,0.093,-0.597,0.0
10.135,0.087,-0.624,0.0
0.0,0.0,0.0,0.0
0.0,0.0,0.0,0.0
0.0,0.0,0.0,0.0
7.257,-0.392,-0.734,0.0
7.032,-0.382,-0.75,0.0
6.802,-0.37,-0.763,0.0
0.0,0.0,0.0,0.0
0.0,0.0,0.0,0.0
0.0,0.0,0.0,0.0
7.312,-0.402,-0.735,0.0
7.048,-0.389,-0.747,0.0
6.787,-0.376,-0.757,0.0
0.0,0.0,0.0,0.0
0.0,0.0,0.0,0.0
0.0,0.0,0.0,0.0
0.0,0.0,0.0,0.0
7.074,-0.397,-0.745,0.0
6.846,-0.386,-0.759,0.0
0.0,0.0,0.0,0.0
0.0,0.0,0.0,0.0
0.0,0.0,0.0,0.0
0.0,0.0,0.0,0.0
7.087,-0.404,-0.742,0.0
6.819,-0.39,-0.751,0.0
6.615,-0.38,-0.766,0.0
0.0,0.0,0.0,0.0
0.0,0.0,0.0,0.0
0.0,0.0,0.0,0.0
7.117,-0.412,-0.74,0.0
6.908,-0.402,-0.756,0.0
0.0,0.0,0.0,0.0
0.0,0.0,0.0,0.0
0.0,0.0,0.0,0.0
0.0,0.0,0.0,0.0
7.214,-0.424,-0.744,0.0
6.925,-0.409,-0.752,0.0
0.0,0.0,0.0,0.0
0.0,0.0,0.0,0.0
0.0,0.0,0.0,0.0
0.0,0.0,0.0,0.0
7.231,-0.431,-0.74,0.0
6.953,-0.416,-0.75,0.0
6.718,-0.403,-0.762,0.0
0.0,0.0,0.0,0.0
6.309,-0.381,-0.785,0.0
0.0,0.0,0.0,0.0
7.315,-0.442,-0.742,0.0
6.98,-0.423,-0.746,0.0
6.759,-0.411,-0.76,0.0
0.0,0.0,0.0,0.0
6.271,-0.384,-0.774,0.0
0.0,0.0,0.0,0.0
7.287,-0.446,-0.733,0.0
7.024,-0.431,-0.745,0.0
6.798,-0.419,-0.759,0.0
6.556,-0.405,-0.768,0.0
6.319,-0.392,-0.774,0.0
0.0,0.0,0.0,0.0
0.0,0.0,0.0,0.0
7.04,-0.438,-0.74,0.0
6.834,-0.426,-0.756,0.0
6.649,-0.416,-0.772,0.0
6.378,-0.4,-0.776,0.0
0.0,0.0,0.0,0.0
0.0,0.0,0.0,0.0
7.163,-0.45,-0.746,0.0
0.0,0.0,0.0,0.0
6.621,-0.419,-0.762,0.0
6.425,-0.407,-0.775,0.0
0.0,0.0,0.0,0.0
0.0,0.0,0.0,0.0
7.205,-0.458,-0.743,0.0
0.0,0.0,0.0,0.0
6.692,-0.428,-0.764,0.0
6.476,-0.415,-0.774,0.0
0.0,0.0,0.0,0.0
0.0,0.0,0.0,0.0
7.249,-0.465,-0.74,0.0
0.0,0.0,0.0,0.0
6.765,-0.437,-0.765,0.0
6.5,-0.42,-0.77,0.0
7.888,-0.509,-0.711,0.0
0.0,0.0,0.0,0.0
7.273,-0.472,-0.735,0.0
0.0,0.0,0.0,0.0
6.806,-0.443,-0.762,0.0
6.564,-0.429,-0.771,0.0
7.949,-0.518,-0.708,0.0
0.0,0.0,0.0,0.0
0.0,0.0,0.0,0.0
0.0,0.0,0.0,0.0
6.845,-0.45,-0.759,0.0
6.602,-0.435,-0.767,0.0
8.003,-0.526,-0.704,0.0
0.0,0.0,0.0,0.0
0.0,0.0,0.0,0.0
0.0,0.0,0.0,0.0
0.0,0.0,0.0,0.0
6.676,-0.443,-0.768,0.0
8.065,-0.534,-0.7,0.0
0.0,0.0,0.0,0.0
0.0,0.0,0.0,0.0
7.189,-0.479,-0.741,0.0
0.0,0.0,0.0,0.0
6.734,-0.451,-0.767,0.0
8.163,-0.545,-0.699,0.0
0.0,0.0,0.0,0.0
0.0,0.0,0.0,0.0
7.233,-0.485,-0.737,0.0
6.981,-0.469,-0.749,0.0
6.779,-0.457,-0.764,0.0
8.243,-0.554,-0.696,0.0
0.0,0.0,0.0,0.0
0.0,0.0,0.0,0.0
0.0,0.0,0.0,0.0
7.085,-0.48,-0.751,0.0
6.812,-0.462,-0.759,0.0
8.332,-0.563,-0.693,0.0
7.963,-0.539,-0.705,0.0
0.0,0.0,0.0,0.0
0.0,0.0,0.0,0.0
7.105,-0.484,-0.744,0.0
6.866,-0.468,-0.756,0.0
8.362,-0.569,-0.685,0.0
8.03,-0.547,-0.701,0.0
0.0,0.0,0.0,0.0
0.0,0.0,0.0,0.0
7.176,-0.491,-0.742,0.0
0.0,0.0,0.0,0.0
8.488,-0.58,-0.684,0.0
8.171,-0.559,-0.702,0.0
0.0,0.0,0.0,0.0
0.0,0.0,0.0,0.0
7.291,-0.501,-0.745,0.0
6.969,-0.48,-0.749,0.0
8.527,-0.586,-0.676,0.0
8.221,-0.565,-0.696,0.0
7.913,-0.545,-0.712,0.0
0.0,0.0,0.0,0.0
7.265,-0.502,-0.732,0.0
7.05,-0.487,-0.748,0.0
8.671,-0.598,-0.676,0.0
8.234,-0.568,-0.686,0.0
8.002,-0.553,-0.709,0.0
0.0,0.0,0.0,0.0
0.0,0.0,0.0,0.0
7.139,-0.495,-0.748,0.0
8.755,-0.606,-0.671,0.0
8.416,-0.583,-0.69,0.0
8.057,-0.559,-0.703,0.0
0.0,0.0,0.0,0.0
0.0,0.0,0.0,0.0
7.218,-0.502,-0.746,0.0
8.891,-0.617,-0.669,0.0
8.445,-0.586,-0.68,0.0
0.0,0.0,0.0,0.0
0.0,0.0,0.0,0.0
0.0,0.0,0.0,0.0
7.267,-0.507,-0.741,0.0
8.948,-0.622,-0.661,0.0
8.593,-0.598,-0.68,0.0
8.226,-0.573,-0.695,0.0
0.0,0.0,0.0,0.0
0.0,0.0,0.0,0.0
0.0,0.0,0.0,0.0
9.171,-0.639,-0.664,0.0
8.758,-0.61,-0.68,0.0
8.339,-0.582,-0.692,0.0
0.0,0.0,0.0,0.0
0.0,0.0,0.0,0.0
0.0,0.0,0.0,0.0
9.261,-0.646,-0.657,0.0
8.762,-0.611,-0.668,0.0
8.454,-0.59,-0.689,0.0
0.0,0.0,0.0,0.0
0.0,0.0,0.0,0.0
0.0,0.0,0.0,0.0
9.338,-0.652,-0.649,0.0
8.532,-0.596,-0.683,0.0
0.0,0.0,0.0,0.0
7.831,-0.548,-0.711,0.0
0.0,0.0,0.0,0.0
9.487,-0.662,-0.645,0.0
0.0,0.0,0.0,0.0
8.614,-0.602,-0.677,0.0
0.0,0.0,0.0,0.0
8.01,-0.56,-0.715,0.0
0.0,0.0,0.0,0.0
9.662,-0.674,-0.643,0.0
9.116,-0.636,-0.654,0.0
8.725,-0.609,-0.673,0.0
8.414,-0.587,-0.694,0.0
8.09,-0.565,-0.71,0.0
0.0,0.0,0.0,0.0
9.69,-0.675,-0.63,0.0
9.301,-0.648,-0.654,0.0
8.895,-0.62,-0.672,0.0
8.45,-0.589,-0.684,0.0
0.0,0.0,0.0,0.0
7.887,-0.55,-0.722,0.0
9.808,-0.682,-0.623,0.0
9.436,-0.656,-0.649,0.0
8.985,-0.625,-0.665,0.0
8.614,-0.599,-0.684,0.0
8.254,-0.574,-0.699,0.0
7.942,-0.552,-0.715,0.0
10.049,-0.697,-0.623,0.0
9.582,-0.664,-0.644,0.0
9.084,-0.63,-0.658,0.0
0.0,0.0,0.0,0.0
8.345,-0.579,-0.694,0.0
8.069,-0.56,-0.713,0.0
10.209,-0.706,-0.617,0.0
9.664,-0.668,-0.634,0.0
9.196,-0.636,-0.652,0.0
0.0,0.0,0.0,0.0
8.465,-0.585,-0.69,0.0
8.121,-0.561,-0.705,0.0
10.294,-0.709,-0.606,0.0
9.78,-0.674,-0.627,0.0
0.0,0.0,0.0,0.0
0.0,0.0,0.0,0.0
8.557,-0.589,-0.684,0.0
8.253,-0.568,-0.703,0.0
10.533,-0.723,-0.603,0.0
9.944,-0.682,-0.621,0.0
9.498,-0.651,-0.643,0.0
0.0,0.0,0.0,0.0
8.71,-0.597,-0.683,0.0
8.287,-0.567,-0.693,0.0
10.727,-0.732,-0.597,0.0
10.216,-0.697,-0.622,0.0
9.634,-0.657,-0.637,0.0
0.0,0.0,0.0,0.0
8.806,-0.6,-0.676,0.0
8.44,-0.575,-0.692,0.0
10.891,-0.739,-0.589,0.0
10.281,-0.697,-0.609,0.0
9.805,-0.665,-0.633,0.0
0.0,0.0,0.0,0.0
0.0,0.0,0.0,0.0
8.516,-0.576,-0.685,0.0
11.095,-0.749,-0.582,0.0
10.47,-0.706,-0.604,0.0
0.0,0.0,0.0,0.0
0.0,0.0,0.0,0.0
9.016,-0.606,-0.663,0.0
8.644,-0.581,-0.681,0.0
11.258,-0.754,-0.572,0.0
10.697,-0.716,-0.6,0.0
10.109,-0.676,-0.62,0.0
9.618,-0.643,-0.641,0.0
9.143,-0.61,-0.658,0.0
8.753,-0.584,-0.676,0.0
11.463,-0.762,-0.565,0.0
10.896,-0.724,-0.594,0.0
10.269,-0.681,-0.613,0.0
9.758,-0.647,-0.635,0.0
0.0,0.0,0.0,0.0
8.897,-0.588,-0.672,0.0
11.699,-0.772,-0.557,0.0
11.035,-0.727,-0.583,0.0
10.424,-0.686,-0.606,0.0
0.0,0.0,0.0,0.0
0.0,0.0,0.0,0.0
9.048,-0.593,-0.669,0.0
11.882,-0.777,-0.546,0.0
11.215,-0.732,-0.574,0.0
10.643,-0.694,-0.601,0.0
10.103,-0.658,-0.624,0.0
9.605,-0.624,-0.644,0.0
