X,Y,Z,Reflectivity
8.982,-0.457,-0.661,0.0
0.0,0.0,0.0,0.0
0.0,0.0,0.0,0.0
0.0,0.0,0.0,0.0
0.0,0.0,0.0,0.0
7.267,-0.379,-0.743,0.0
8.964,-0.469,-0.665,0.0
8.416,-0.442,-0.672,0.0
0.0,0.0,0.0,0.0
0.0,0.0,0.0,0.0
0.0,0.0,0.0,0.0
7.232,-0.388,-0.744,0.0
8.988,0.766,-0.679,0.0
8.595,0.732,-0.699,0.0
8.281,0.705,-0.721,0.0
0.0,0.0,0.0,0.0
7.586,0.646,-0.749,0.0
7.239,0.616,-0.757,0.0
8.935,0.757,-0.685,0.0
8.542,0.724,-0.704,0.0
0.0,0.0,0.0,0.0
0.0,0.0,0.0,0.0
0.0,0.0,0.0,0.0
7.148,0.605,-0.755,0.0
8.822,0.743,-0.687,0.0
0.0,0.0,0.0,0.0
8.105,0.682,-0.724,0.0
0.0,0.0,0.0,0.0
7.424,0.624,-0.75,0.0
7.155,0.602,-0.764,0.0
8.772,0.734,-0.692,0.0
8.427,0.705,-0.713,0.0
8.092,0.677,-0.731,0.0
0.0,0.0,0.0,0.0
7.355,0.615,-0.75,0.0
7.025,0.587,-0.757,0.0
8.64,0.718,-0.69,0.0
8.289,0.689,-0.71,0.0
0.0,0.0,0.0,0.0
0.0,0.0,0.0,0.0
7.299,0.606,-0.752,0.0
7.061,0.586,-0.769,0.0
8.614,0.711,-0.697,0.0
8.27,0.682,-0.717,0.0
0.0,0.0,0.0,0.0
0.0,0.0,0.0,0.0
7.271,0.599,-0.757,0.0
6.94,0.571,-0.762,0.0
8.519,0.698,-0.698,0.0
0.0,0.0,0.0,0.0
0.0,0.0,0.0,0.0
0.0,0.0,0.0,0.0
7.177,0.586,-0.754,0.0
0.0,0.0,0.0,0.0
8.411,0.683,-0.697,0.0
0.0,0.0,0.0,0.0
0.0,0.0,0.0,0.0
0.0,0.0,0.0,0.0
0.0,0.0,0.0,0.0
0.0,0.0,0.0,0.0
8.409,0.677,-0.704,0.0
0.0,0.0,0.0,0.0
0.0,0.0,0.0,0.0
7.372,0.592,-0.745,0.0
0.0,0.0,0.0,0.0
0.0,0.0,0.0,0.0
8.353,0.667,-0.707,0.0
0.0,0.0,0.0,0.0
0.0,0.0,0.0,0.0
7.363,0.586,-0.751,0.0
0.0,0.0,0.0,0.0
0.0,0.0,0.0,0.0
8.397,0.664,-0.718,0.0
0.0,0.0,0.0,0.0
0.0,0.0,0.0,0.0
7.349,0.579,-0.756,0.0
0.0,0.0,0.0,0.0
0.0,0.0,0.0,0.0
8.287,0.648,-0.715,0.0
0.0,0.0,0.0,0.0
0.0,0.0,0.0,0.0
7.268,0.567,-0.753,0.0
0.0,0.0,0.0,0.0
0.0,0.0,0.0,0.0
0.0,0.0,0.0,0.0
0.0,0.0,0.0,0.0
0.0,0.0,0.0,0.0
0.0,0.0,0.0,0.0
0.0,0.0,0.0,0.0
0.0,0.0,0.0,0.0
0.0,0.0,0.0,0.0
0.0,0.0,0.0,0.0
0.0,0.0,0.0,0.0
0.0,0.0,0.0,0.0
0.0,0.0,0.0,0.0
0.0,0.0,0.0,0.0
0.0,0.0,0.0,0.0
0.0,0.0,0.0,0.0
7.449,0.562,-0.745,0.0
0.0,0.0,0.0,0.0
0.0,0.0,0.0,0.0
0.0,0.0,0.0,0.0
0.0,0.0,0.0,0.0
0.0,0.0,0.0,0.0
7.414,0.553,-0.746,0.0
0.0,0.0,0.0,0.0
0.0,0.0,0.0,0.0
0.0,0.0,0.0,0.0
0.0,0.0,0.0,0.0
0.0,0.0,0.0,0.0
7.414,0.546,-0.751,0.0
0.0,0.0,0.0,0.0
0.0,0.0,0.0,0.0
0.0,0.0,0.0,0.0
0.0,0.0,0.0,0.0
0.0,0.0,0.0,0.0
7.359,0.534,-0.749,0.0
0.0,0.0,0.0,0.0
0.0,0.0,0.0,0.0
0.0,0.0,0.0,0.0
0.0,0.0,0.0,0.0
0.0,0.0,0.0,0.0
7.338,0.525,-0.751,0.0
0.0,0.0,0.0,0.0
0.0,0.0,0.0,0.0
0.0,0.0,0.0,0.0
0.0,0.0,0.0,0.0
0.0,0.0,0.0,0.0
7.306,0.515,-0.752,0.0
0.0,0.0,0.0,0.0
0.0,0.0,0.0,0.0
0.0,0.0,0.0,0.0
0.0,0.0,0.0,0.0
0.0,0.0,0.0,0.0
7.221,0.502,-0.746,0.0
0.0,0.0,0.0,0.0
0.0,0.0,0.0,0.0
0.0,0.0,0.0,0.0
0.0,0.0,0.0,0.0
0.0,0.0,0.0,0.0
7.232,0.495,-0.751,0.0
0.0,0.0,0.0,0.0
0.0,0.0,0.0,0.0
0.0,0.0,0.0,0.0
0.0,0.0,0.0,0.0
0.0,0.0,0.0,0.0
7.187,0.484,-0.749,0.0
0.0,0.0,0.0,0.0
0.0,0.0,0.0,0.0
0.0,0.0,0.0,0.0
0.0,0.0,0.0,0.0
7.472,0.496,-0.738,0.0
7.172,0.475,-0.749,0.0
0.0,0.0,0.0,0.0
0.0,0.0,0.0,0.0
0.0,0.0,0.0,0.0
0.0,0.0,0.0,0.0
7.485,0.488,-0.742,0.0
7.187,0.468,-0.753,0.0
0.0,0.0,0.0,0.0
0.0,0.0,0.0,0.0
0.0,0.0,0.0,0.0
0.0,0.0,0.0,0.0
7.503,0.481,-0.746,0.0
7.176,0.459,-0.754,0.0
0.0,0.0,0.0,0.0
0.0,0.0,0.0,0.0
0.0,0.0,0.0,0.0
0.0,0.0,0.0,0.0
7.474,0.47,-0.744,0.0
7.196,0.452,-0.757,0.0
0.0,0.0,0.0,0.0
0.0,0.0,0.0,0.0
0.0,0.0,0.0,0.0
0.0,0.0,0.0,0.0
7.45,0.46,-0.743,0.0
7.186,0.443,-0.758,0.0
0.0,0.0,0.0,0.0
0.0,0.0,0.0,0.0
0.0,0.0,0.0,0.0
0.0,0.0,0.0,0.0
7.44,0.45,-0.743,0.0
7.135,0.431,-0.753,0.0
0.0,0.0,0.0,0.0
0.0,0.0,0.0,0.0
0.0,0.0,0.0,0.0
0.0,0.0,0.0,0.0
7.458,0.442,-0.746,0.0
7.125,0.422,-0.753,0.0
0.0,0.0,0.0,0.0
0.0,0.0,0.0,0.0
0.0,0.0,0.0,0.0
0.0,0.0,0.0,0.0
7.437,0.432,-0.744,0.0
0.0,0.0,0.0,0.0
0.0,0.0,0.0,0.0
0.0,0.0,0.0,0.0
0.0,0.0,0.0,0.0
0.0,0.0,0.0,0.0
7.453,0.424,-0.745,0.0
7.147,0.405,-0.755,0.0
0.0,0.0,0.0,0.0
0.0,0.0,0.0,0.0
0.0,0.0,0.0,0.0
42.579,3.542,4.096,13.0
49.622,4.136,4.493,23.0
59.713,4.986,5.069,34.0
51.839,4.337,4.103,34.0
51.881,4.349,3.815,40.0
51.899,4.36,3.524,37.0
42.57,3.598,4.089,19.0
49.116,4.159,4.44,23.0
59.699,5.065,5.059,21.0
51.818,4.405,4.093,49.0
51.866,4.418,3.805,30.0
51.859,4.426,3.512,28.0
48.818,4.191,4.68,9.0
48.973,4.212,4.417,12.0
51.663,4.451,4.368,20.0
51.779,4.469,4.08,43.0
51.848,4.483,3.793,46.0
51.865,4.494,3.502,20.0
48.839,4.257,4.671,6.0
51.567,4.502,4.64,32.0
59.224,5.179,4.993,7.0
51.785,4.537,4.067,23.0
51.855,4.551,3.78,35.0
51.907,4.563,3.491,35.0
51.375,4.543,4.9,13.0
51.498,4.561,4.619,18.0
59.205,5.253,4.974,31.0
43.031,3.824,3.368,16.0
51.884,4.618,3.767,20.0
52.005,4.638,3.483,9.0
51.662,4.634,4.911,22.0
53.05,4.766,4.741,22.0
59.137,5.32,4.95,20.0
51.849,4.672,4.041,11.0
51.96,4.69,3.755,15.0
59.746,5.401,3.981,34.0
59.864,5.443,5.671,14.0
43.536,3.964,3.876,15.0
43.182,3.938,3.599,17.0
42.859,3.914,3.325,18.0
59.261,5.421,4.261,33.0
59.065,5.412,3.913,32.0
53.693,4.947,5.065,8.0
43.473,4.011,3.853,17.0
43.111,3.983,3.576,17.0
42.869,3.966,3.308,25.0
58.457,5.417,4.18,30.0
58.933,5.469,3.88,32.0
43.523,4.061,4.087,25.0
43.491,4.063,3.836,22.0
51.865,4.852,4.28,13.0
42.901,4.019,3.292,27.0
58.528,5.491,4.159,32.0
59.023,5.545,3.859,29.0
43.491,4.108,4.064,24.0
43.369,4.102,3.805,21.0
51.816,4.907,4.252,32.0
59.135,5.607,4.509,32.0
58.672,5.571,4.141,32.0
58.911,5.601,3.824,27.0
43.418,4.15,4.036,21.0
43.332,4.146,3.78,20.0
51.829,4.966,4.226,45.0
58.803,5.641,4.454,33.0
58.694,5.638,4.112,30.0
58.826,5.659,3.787,27.0
43.477,4.204,4.017,21.0
51.87,5.021,4.497,13.0
51.823,5.022,4.197,26.0
58.638,5.689,4.409,33.0
58.718,5.704,4.081,32.0
58.695,5.709,3.746,33.0
43.422,4.244,3.988,21.0
43.518,4.258,3.748,15.0
51.836,5.078,4.168,18.0
58.683,5.755,4.378,31.0
58.466,5.741,4.029,29.0
58.395,5.741,3.692,31.0
43.483,4.296,3.966,29.0
43.464,4.298,3.716,35.0
59.321,5.872,4.734,20.0
58.536,5.801,4.331,24.0
58.473,5.801,3.993,31.0
58.152,5.776,3.64,26.0
43.541,4.345,3.944,21.0
43.425,4.338,3.685,28.0
59.237,5.923,4.688,32.0
58.474,5.852,4.288,33.0
58.381,5.849,3.948,32.0
58.29,5.847,3.61,30.0
43.331,4.366,3.896,20.0
51.735,5.218,4.355,25.0
58.566,5.912,4.595,33.0
58.296,5.89,4.234,31.0
58.12,5.878,3.89,28.0
58.254,5.898,3.568,21.0
0.0,0.0,0.0,0.0
0.0,0.0,0.0,0.0
0.0,0.0,0.0,0.0
0.0,0.0,0.0,0.0
0.0,0.0,0.0,0.0
38.171,-1.902,0.508,0.0
0.0,0.0,0.0,0.0
109.412,-5.5,3.921,153.0
0.0,0.0,0.0,0.0
0.0,0.0,0.0,0.0
0.0,0.0,0.0,0.0
0.0,0.0,0.0,0.0
0.0,0.0,0.0,0.0
109.353,-5.653,4.069,150.0
34.405,-1.787,1.099,0.0
34.267,-1.788,0.911,0.0
34.285,-1.797,0.731,0.0
34.617,-1.823,0.556,0.0
0.0,0.0,0.0,0.0
109.313,-5.804,4.221,6.0
34.208,-1.824,1.14,0.0
34.146,-1.829,0.955,2.0
34.199,-1.84,0.777,1.0
34.328,-1.855,0.6,1.0
0.0,0.0,0.0,0.0
0.0,0.0,0.0,0.0
34.174,-1.868,1.188,1.0
34.183,-1.877,1.005,166.0
34.138,-1.882,0.824,2.0
34.054,-1.886,0.644,0.0
188.641,-10.48,8.812,8.0
0.0,0.0,0.0,0.0
34.15,-1.912,1.236,1.0
34.158,-1.92,1.053,157.0
34.078,-1.924,0.872,3.0
0.0,0.0,0.0,0.0
188.68,-10.73,9.089,15.0
0.0,0.0,0.0,0.0
34.107,-1.953,1.284,2.0
34.118,-1.961,1.101,95.0
34.037,-1.964,0.92,4.0
0.0,0.0,0.0,0.0
188.691,-10.964,9.363,19.0
0.0,0.0,0.0,0.0
34.088,-1.995,1.333,1.0
34.044,-1.999,1.149,5.0
34.009,-2.005,0.97,6.0
33.974,-2.01,0.791,1.0
188.545,-11.188,9.637,15.0
0.0,0.0,0.0,0.0
34.219,-2.043,1.389,0.0
34.011,-2.038,1.199,3.0
33.984,-2.043,1.019,8.0
33.982,-2.05,0.841,5.0
187.45,-11.343,9.859,18.0
188.125,-11.42,8.905,5.0
34.419,-2.096,1.448,0.0
34.004,-2.077,1.249,4.0
33.961,-2.081,1.07,16.0
33.961,-2.088,0.892,8.0
188.278,-11.61,10.185,13.0
189.315,-11.706,9.245,9.0
34.524,-2.141,1.505,0.0
33.97,-2.113,1.299,8.0
33.947,-2.118,1.12,11.0
33.959,-2.125,0.943,21.0
121.221,-7.608,6.74,6.0
0.0,0.0,0.0,0.0
34.582,-2.182,1.559,0.0
33.968,-2.149,1.35,4.0
33.927,-2.153,1.171,6.0
33.947,-2.16,0.994,150.0
156.994,-10.019,8.967,16.0
0.0,0.0,0.0,0.0
34.854,-2.235,1.624,0.0
34.119,-2.194,1.408,0.0
33.952,-2.189,1.223,4.0
33.94,-2.194,1.045,150.0
92.352,-5.988,5.417,14.0
156.998,-10.203,8.383,21.0
0.0,0.0,0.0,0.0
34.335,-2.242,1.469,0.0
33.924,-2.221,1.274,11.0
33.893,-2.224,1.095,31.0
91.884,-6.048,5.531,4.0
189.1,-12.476,10.39,14.0
0.0,0.0,0.0,0.0
0.0,0.0,0.0,0.0
33.905,-2.252,1.326,16.0
33.895,-2.257,1.148,15.0
91.751,-6.126,5.667,12.0
156.8,-10.491,8.86,14.0
156.986,-10.526,8.045,16.0
0.0,0.0,0.0,0.0
34.004,-2.289,1.383,1.0
33.919,-2.289,1.202,5.0
10.525,-0.926,-0.595,0.0
9.952,-0.879,-0.618,0.0
9.429,-0.835,-0.638,0.0
8.973,-0.798,-0.658,0.0
8.568,-0.764,-0.676,0.0
8.22,-0.736,-0.695,0.0
10.486,-0.938,-0.591,0.0
9.941,-0.892,-0.616,0.0
9.453,-0.851,-0.638,0.0
8.983,-0.811,-0.657,0.0
8.553,-0.775,-0.673,0.0
8.21,-0.746,-0.692,0.0
10.508,-0.954,-0.59,0.0
9.924,-0.904,-0.613,0.0
0.0,0.0,0.0,0.0
0.0,0.0,0.0,0.0
8.591,-0.79,-0.674,0.0
8.238,-0.76,-0.693,0.0
10.476,-0.965,-0.586,0.0
10.042,-0.928,-0.617,0.0
9.435,-0.874,-0.632,0.0
0.0,0.0,0.0,0.0
8.605,-0.803,-0.673,0.0
8.27,-0.774,-0.693,0.0
10.634,-0.994,-0.592,0.0
10.054,-0.942,-0.615,0.0
9.505,-0.894,-0.634,0.0
0.0,0.0,0.0,0.0
8.606,-0.814,-0.67,0.0
8.276,-0.785,-0.691,0.0
10.667,-1.011,-0.59,0.0
10.155,-0.965,-0.618,0.0
0.0,0.0,0.0,0.0
0.0,0.0,0.0,0.0
8.699,-0.834,-0.675,0.0
8.306,-0.799,-0.69,0.0
10.664,-1.024,-0.586,0.0
10.082,-0.971,-0.61,0.0
0.0,0.0,0.0,0.0
9.086,-0.88,-0.651,0.0
8.654,-0.84,-0.668,0.0
8.313,-0.81,-0.687,0.0
10.662,-1.038,-0.582,0.0
10.102,-0.986,-0.607,0.0
9.635,-0.943,-0.632,0.0
0.0,0.0,0.0,0.0
8.706,-0.856,-0.668,0.0
8.352,-0.824,-0.687,0.0
10.723,-1.056,-0.58,0.0
0.0,0.0,0.0,0.0
0.0,0.0,0.0,0.0
0.0,0.0,0.0,0.0
8.68,-0.864,-0.662,0.0
8.381,-0.837,-0.685,0.0
10.882,-1.085,-0.584,0.0
10.238,-1.024,-0.605,0.0
0.0,0.0,0.0,0.0
0.0,0.0,0.0,0.0
8.783,-0.885,-0.665,0.0
8.418,-0.85,-0.684,0.0
10.856,-1.095,-0.577,0.0
10.335,-1.045,-0.606,0.0
9.796,-0.993,-0.628,0.0
0.0,0.0,0.0,0.0
8.818,-0.898,-0.663,0.0
8.411,-0.859,-0.679,0.0
10.938,-1.116,-0.575,0.0
10.31,-1.055,-0.599,0.0
0.0,0.0,0.0,0.0
0.0,0.0,0.0,0.0
8.882,-0.915,-0.663,0.0
8.443,-0.872,-0.677,0.0
11.025,-1.137,-0.573,0.0
10.454,-1.081,-0.601,0.0
9.727,-1.008,-0.612,0.0
0.0,0.0,0.0,0.0
8.869,-0.923,-0.657,0.0
8.527,-0.89,-0.678,0.0
11.124,-1.159,-0.572,0.0
10.39,-1.085,-0.591,0.0
9.94,-1.041,-0.62,0.0
0.0,0.0,0.0,0.0
8.933,-0.939,-0.656,0.0
8.563,-0.903,-0.676,0.0
11.189,-1.178,-0.568,0.0
0.0,0.0,0.0,0.0
9.971,-1.054,-0.615,0.0
0.0,0.0,0.0,0.0
8.976,-0.953,-0.653,0.0
8.612,-0.917,-0.674,0.0
11.252,-1.196,-0.563,0.0
0.0,0.0,0.0,0.0
9.996,-1.067,-0.61,0.0
9.539,-1.02,-0.635,0.0
9.036,-0.968,-0.651,0.0
8.645,-0.929,-0.67,0.0
19.757,0.769,-0.249,0.0
17.557,0.688,-0.321,0.0
16.0,0.63,-0.384,0.0
14.731,0.583,-0.44,0.0
13.618,0.543,-0.485,0.0
12.735,0.51,-0.527,0.0
19.101,0.771,-0.269,0.0
17.102,0.694,-0.338,0.0
15.763,0.643,-0.402,0.0
14.344,0.588,-0.45,0.0
13.401,0.552,-0.497,0.0
12.44,0.516,-0.533,0.0
18.484,0.771,-0.288,0.0
16.719,0.701,-0.356,0.0
15.411,0.65,-0.416,0.0
14.105,0.598,-0.463,0.0
13.151,0.56,-0.508,0.0
12.257,0.525,-0.544,0.0
17.974,0.774,-0.307,0.0
16.333,0.707,-0.372,0.0
14.817,0.644,-0.423,0.0
13.819,0.604,-0.475,0.0
12.868,0.565,-0.516,0.0
12.083,0.533,-0.554,0.0
17.376,0.771,-0.323,0.0
15.967,0.712,-0.388,0.0
14.729,0.66,-0.443,0.0
13.581,0.611,-0.488,0.0
12.639,0.571,-0.527,0.0
11.922,0.541,-0.565,0.0
17.006,0.776,-0.343,0.0
15.608,0.716,-0.404,0.0
14.253,0.656,-0.451,0.0
13.294,0.615,-0.498,0.0
12.467,0.579,-0.539,0.0
11.703,0.546,-0.573,0.0
16.661,0.781,-0.362,0.0
15.287,0.719,-0.42,0.0
13.932,0.658,-0.462,0.0
12.996,0.617,-0.507,0.0
12.245,0.583,-0.548,0.0
11.442,0.547,-0.578,0.0
16.236,0.78,-0.378,0.0
14.799,0.714,-0.429,0.0
28.415,1.382,-1.155,3.0
11.992,0.585,-0.556,0.0
11.258,0.552,-0.587,0.0
15.793,0.777,-0.393,0.0
14.469,0.715,-0.443,0.0
13.491,0.669,-0.49,0.0
12.536,0.624,-0.529,0.0
11.792,0.589,-0.566,0.0
11.129,0.558,-0.598,0.0
15.464,0.778,-0.409,0.0
14.233,0.719,-0.458,0.0
13.159,0.667,-0.499,0.0
12.401,0.631,-0.543,0.0
11.567,0.59,-0.573,0.0
10.862,0.557,-0.601,0.0
15.056,0.774,-0.423,0.0
13.908,0.718,-0.47,0.0
12.942,0.67,-0.512,0.0
12.135,0.63,-0.551,0.0
11.34,0.591,-0.581,0.0
10.692,0.559,-0.609,0.0
14.757,0.774,-0.438,0.0
13.69,0.72,-0.485,0.0
12.678,0.669,-0.522,0.0
11.893,0.63,-0.56,0.0
11.229,0.596,-0.593,0.0
10.474,0.558,-0.614,0.0
14.378,0.768,-0.45,0.0
13.338,0.715,-0.494,0.0
12.501,0.672,-0.535,0.0
11.663,0.629,-0.568,0.0
10.959,0.593,-0.597,0.0
10.368,0.563,-0.625,0.0
13.987,0.761,-0.461,0.0
13.109,0.715,-0.507,0.0
12.256,0.671,-0.545,0.0
11.448,0.628,-0.576,0.0
10.772,0.593,-0.604,0.0
10.203,0.563,-0.631,0.0
13.758,0.761,-0.476,0.0
12.772,0.708,-0.515,0.0
12.06,0.671,-0.556,0.0
11.274,0.629,-0.586,0.0
10.607,0.593,-0.613,0.0
10.002,0.561,-0.636,0.0
13.485,0.758,-0.489,0.0
12.622,0.711,-0.53,0.0
11.819,0.668,-0.564,0.0
11.031,0.625,-0.592,0.0
10.447,0.593,-0.621,0.0
9.838,0.56,-0.641,0.0
8.392,-0.013,-0.701,0.0
7.975,-0.013,-0.708,0.0
7.752,-0.014,-0.73,0.0
0.0,0.0,0.0,0.0
7.173,-0.016,-0.753,0.0
6.955,-0.016,-0.768,0.0
8.478,-0.02,-0.696,0.0
8.157,-0.02,-0.713,0.0
7.78,-0.021,-0.721,0.0
0.0,0.0,0.0,0.0
7.239,-0.022,-0.749,0.0
6.973,-0.022,-0.759,0.0
8.553,-0.027,-0.69,0.0
8.187,-0.027,-0.704,0.0
0.0,0.0,0.0,0.0
0.0,0.0,0.0,0.0
7.337,-0.028,-0.749,0.0
7.065,-0.028,-0.759,0.0
0.0,0.0,0.0,0.0
0.0,0.0,0.0,0.0
0.0,0.0,0.0,0.0
0.0,0.0,0.0,0.0
7.417,-0.034,-0.746,0.0
7.131,-0.033,-0.755,0.0
0.0,0.0,0.0,0.0
0.0,0.0,0.0,0.0
8.108,-0.04,-0.715,0.0
7.778,-0.04,-0.728,0.0
0.0,0.0,0.0,0.0
7.209,-0.039,-0.752,0.0
0.0,0.0,0.0,0.0
8.457,-0.047,-0.688,0.0
0.0,0.0,0.0,0.0
0.0,0.0,0.0,0.0
0.0,0.0,0.0,0.0
7.299,-0.044,-0.75,0.0
8.939,-0.054,-0.666,0.0
0.0,0.0,0.0,0.0
8.26,-0.052,-0.703,0.0
0.0,0.0,0.0,0.0
0.0,0.0,0.0,0.0
7.354,-0.05,-0.744,0.0
9.133,-0.061,-0.666,0.0
0.0,0.0,0.0,0.0
0.0,0.0,0.0,0.0
0.0,0.0,0.0,0.0
7.808,-0.057,-0.735,0.0
0.0,0.0,0.0,0.0
9.277,-0.068,-0.661,0.0
0.0,0.0,0.0,0.0
0.0,0.0,0.0,0.0
0.0,0.0,0.0,0.0
0.0,0.0,0.0,0.0
0.0,0.0,0.0,0.0
9.416,-0.075,-0.655,0.0
0.0,0.0,0.0,0.0
8.602,-0.07,-0.689,0.0
0.0,0.0,0.0,0.0
7.928,-0.067,-0.72,0.0
0.0,0.0,0.0,0.0
9.504,-0.081,-0.646,0.0
9.108,-0.078,-0.667,0.0
0.0,0.0,0.0,0.0
0.0,0.0,0.0,0.0
8.036,-0.072,-0.716,0.0
7.721,-0.07,-0.729,0.0
9.649,-0.087,-0.639,0.0
9.235,-0.084,-0.66,0.0
0.0,0.0,0.0,0.0
0.0,0.0,0.0,0.0
8.159,-0.077,-0.713,0.0
7.822,-0.075,-0.724,0.0
9.827,-0.094,-0.634,0.0
0.0,0.0,0.0,0.0
9.001,-0.088,-0.675,0.0
0.0,0.0,0.0,0.0
8.241,-0.082,-0.705,0.0
7.963,-0.08,-0.723,0.0
10.041,-0.1,-0.629,0.0
9.579,-0.097,-0.651,0.0
0.0,0.0,0.0,0.0
0.0,0.0,0.0,0.0
8.365,-0.087,-0.701,0.0
8.04,-0.085,-0.716,0.0
10.239,-0.107,-0.623,0.0
9.766,-0.103,-0.646,0.0
9.248,-0.098,-0.66,0.0
0.0,0.0,0.0,0.0
0.0,0.0,0.0,0.0
8.206,-0.09,-0.716,0.0
10.397,-0.113,-0.614,0.0
9.885,-0.108,-0.636,0.0
9.476,-0.104,-0.659,0.0
0.0,0.0,0.0,0.0
8.606,-0.096,-0.689,0.0
8.266,-0.093,-0.706,0.0
10.581,-0.118,-0.606,0.0
0.0,0.0,0.0,0.0
9.577,-0.109,-0.648,0.0
9.127,-0.105,-0.666,0.0
0.0,0.0,0.0,0.0
8.422,-0.098,-0.703,0.0
10.827,-0.125,-0.6,0.0
10.281,-0.119,-0.623,0.0
0.0,0.0,0.0,0.0
0.0,0.0,0.0,0.0
0.0,0.0,0.0,0.0
8.55,-0.102,-0.698,0.0
10.982,-0.13,-0.588,0.0
10.382,-0.124,-0.609,0.0
9.932,-0.119,-0.635,0.0
9.425,-0.114,-0.652,0.0
9.029,-0.109,-0.672,0.0
8.631,-0.105,-0.688,0.0
11.278,-0.136,-0.582,0.0
10.707,-0.13,-0.608,0.0
0.0,0.0,0.0,0.0
0.0,0.0,0.0,0.0
9.204,-0.114,-0.668,0.0
8.727,-0.108,-0.679,0.0
11.461,-0.141,-0.57,0.0
10.843,-0.134,-0.595,0.0
10.377,-0.129,-0.624,0.0
9.808,-0.122,-0.641,0.0
9.343,-0.117,-0.66,0.0
8.941,-0.113,-0.678,0.0
11.737,-0.147,-0.561,0.0
11.099,-0.139,-0.588,0.0
10.494,-0.132,-0.61,0.0
0.0,0.0,0.0,0.0
9.468,-0.12,-0.65,0.0
9.055,-0.115,-0.669,0.0
11.96,-0.151,-0.548,0.0
11.289,-0.143,-0.575,0.0
10.743,-0.137,-0.603,0.0
10.26,-0.131,-0.631,0.0
9.73,-0.125,-0.648,0.0
9.226,-0.119,-0.663,0.0
12.271,-0.157,-0.538,0.0
11.569,-0.148,-0.567,0.0
10.957,-0.141,-0.594,0.0
10.363,-0.133,-0.616,0.0
9.841,-0.127,-0.636,0.0
9.425,-0.122,-0.658,0.0
12.521,-0.161,-0.524,0.0
11.827,-0.152,-0.556,0.0
11.155,-0.144,-0.582,0.0
10.553,-0.136,-0.607,0.0
0.0,0.0,0.0,0.0
9.567,-0.124,-0.649,0.0
12.775,-0.164,-0.509,0.0
12.151,-0.157,-0.547,0.0
11.388,-0.147,-0.572,0.0
10.781,-0.139,-0.598,0.0
10.287,-0.133,-0.624,0.0
9.751,-0.127,-0.642,0.0
13.181,-0.17,-0.499,0.0
12.407,-0.16,-0.534,0.0
11.729,-0.151,-0.565,0.0
11.049,-0.143,-0.591,0.0
10.456,-0.135,-0.614,0.0
9.956,-0.129,-0.636,0.0
13.464,-0.173,-0.483,0.0
12.591,-0.162,-0.517,0.0
11.965,-0.154,-0.553,0.0
11.333,-0.146,-0.583,0.0
10.729,-0.138,-0.608,0.0
10.182,-0.131,-0.63,0.0
13.843,-0.177,-0.469,0.0
12.978,-0.166,-0.506,0.0
12.269,-0.157,-0.542,0.0
11.563,-0.148,-0.572,0.0
10.929,-0.139,-0.597,0.0
10.365,-0.132,-0.62,0.0
14.192,-0.179,-0.452,0.0
13.324,-0.168,-0.493,0.0
12.505,-0.158,-0.527,0.0
11.816,-0.149,-0.56,0.0
11.153,-0.141,-0.586,0.0
10.594,-0.134,-0.612,0.0
14.592,-0.182,-0.435,0.0
13.626,-0.17,-0.476,0.0
12.732,-0.159,-0.511,0.0
12.079,-0.15,-0.548,0.0
11.409,-0.142,-0.577,0.0
10.814,-0.134,-0.602,0.0
15.147,-0.186,-0.42,0.0
13.941,-0.171,-0.459,0.0
13.172,-0.161,-0.502,0.0
12.387,-0.152,-0.537,0.0
11.715,-0.143,-0.568,0.0
10.97,-0.134,-0.589,0.0
15.738,-0.19,-0.405,0.0
14.442,-0.174,-0.446,0.0
13.449,-0.162,-0.484,0.0
12.548,-0.15,-0.518,0.0
11.939,-0.143,-0.554,0.0
11.274,-0.134,-0.582,0.0
16.142,-0.191,-0.382,0.0
14.841,-0.175,-0.428,0.0
13.805,-0.162,-0.469,0.0
13.034,-0.152,-0.511,0.0
12.262,-0.143,-0.544,0.0
11.573,-0.134,-0.573,0.0
16.653,-0.192,-0.36,0.0
15.478,-0.177,-0.414,0.0
14.246,-0.163,-0.454,0.0
13.334,-0.152,-0.495,0.0
12.492,-0.141,-0.529,0.0
11.825,-0.133,-0.561,0.0
17.153,-0.191,-0.335,0.0
15.933,-0.177,-0.394,0.0
14.534,-0.161,-0.434,0.0
13.634,-0.15,-0.479,0.0
12.755,-0.14,-0.514,0.0
12.142,-0.132,-0.552,0.0
17.904,-0.193,-0.313,0.0
16.484,-0.177,-0.373,0.0
15.348,-0.164,-0.427,0.0
13.993,-0.148,-0.462,0.0
13.154,-0.139,-0.503,0.0
12.389,-0.13,-0.537,0.0
18.608,-0.193,-0.287,0.0
16.909,-0.174,-0.348,0.0
15.734,-0.161,-0.405,0.0
14.482,-0.147,-0.449,0.0
13.499,-0.136,-0.488,0.0
12.608,-0.126,-0.521,0.0
19.588,-0.194,-0.262,0.0
17.536,-0.172,-0.325,0.0
16.226,-0.158,-0.384,0.0
14.817,-0.143,-0.428,0.0
13.907,-0.133,-0.474,0.0
12.986,-0.124,-0.51,0.0
20.774,-0.195,-0.235,0.0
18.323,-0.171,-0.302,0.0
16.676,-0.154,-0.36,0.0
15.478,-0.142,-0.416,0.0
14.267,-0.129,-0.457,0.0
13.386,-0.12,-0.498,0.0
22.137,-0.196,-0.205,0.0
19.181,-0.168,-0.277,0.0
17.234,-0.15,-0.337,0.0
15.961,-0.137,-0.396,0.0
14.634,-0.124,-0.439,0.0
13.697,-0.115,-0.482,0.0
22.979,-0.19,-0.166,0.0
20.092,-0.164,-0.249,0.0
17.982,-0.145,-0.315,0.0
16.512,-0.132,-0.376,0.0
15.241,-0.12,-0.426,0.0
14.13,-0.11,-0.468,0.0
24.117,-0.185,-0.126,1.0
21.451,-0.162,-0.222,0.0
18.686,-0.14,-0.29,0.0
16.906,-0.125,-0.351,0.0
15.765,-0.114,-0.409,0.0
14.467,-0.103,-0.45,0.0
25.037,-0.176,-0.079,0.0
22.503,-0.156,-0.187,0.0
19.638,-0.134,-0.265,0.0
17.555,-0.117,-0.329,0.0
16.18,-0.106,-0.386,0.0
14.902,-0.096,-0.433,0.0
26.344,-0.167,-0.03,0.0
23.58,-0.147,-0.148,0.0
20.633,-0.126,-0.237,0.0
18.263,-0.109,-0.305,0.0
16.671,-0.098,-0.365,0.0
15.563,-0.089,-0.421,0.0
27.681,-0.155,0.023,0.0
24.713,-0.136,-0.106,0.0
21.919,-0.118,-0.207,2.0
19.122,-0.1,-0.282,0.0
17.219,-0.088,-0.342,0.0
15.941,-0.08,-0.399,0.0
28.744,-0.14,0.081,6.0
25.751,-0.122,-0.059,0.0
23.088,-0.106,-0.172,0.0
20.038,-0.09,-0.255,0.0
17.889,-0.078,-0.32,0.0
16.463,-0.069,-0.379,0.0
28.902,-0.117,0.14,2.0
27.135,-0.107,-0.008,0.0
24.094,-0.091,-0.132,0.0
21.259,-0.078,-0.228,0.0
18.515,-0.065,-0.295,0.0
16.873,-0.057,-0.356,0.0
31.467,-0.102,0.213,1.0
28.51,-0.088,0.046,2.0
25.23,-0.075,-0.089,0.0
22.416,-0.063,-0.197,0.0
19.522,-0.052,-0.272,0.0
17.471,-0.044,-0.334,0.0
33.236,-0.079,0.291,1.0
28.807,-0.064,0.103,6.0
25.996,-0.054,-0.04,0.0
23.533,-0.046,-0.161,0.0
20.431,-0.036,-0.245,0.0
18.235,-0.03,-0.313,0.0
35.222,-0.052,0.377,0.0
30.379,-0.04,0.168,0.0
27.455,-0.032,0.009,0.0
24.368,-0.025,-0.119,0.0
21.423,-0.018,-0.216,1.0
18.735,-0.013,-0.285,0.0
37.355,-0.021,0.472,0.0
32.924,-0.013,0.246,0.0
28.511,-0.006,0.065,1.0
25.572,-0.002,-0.076,0.0
22.835,0.001,-0.186,0.0
19.894,0.004,-0.265,0.0
0.0,0.0,0.0,0.0
33.304,0.018,0.312,0.0
28.828,0.021,0.121,0.0
26.556,0.023,-0.028,0.0
23.754,0.025,-0.148,1.0
21.05,0.026,-0.24,3.0
42.234,0.059,0.695,0.0
0.0,0.0,0.0,0.0
30.92,0.053,0.188,0.0
27.698,0.053,0.022,0.0
24.801,0.051,-0.108,0.0
21.824,0.049,-0.208,1.0
0.0,0.0,0.0,0.0
37.44,0.097,0.492,0.0
32.346,0.09,0.258,0.0
28.736,0.085,0.077,2.0
25.977,0.081,-0.065,0.0
23.205,0.077,-0.178,1.0
0.0,0.0,0.0,0.0
41.779,0.153,0.627,0.0
0.0,0.0,0.0,0.0
30.137,0.121,0.136,0.0
26.713,0.112,-0.018,0.0
24.013,0.106,-0.14,0.0
0.0,0.0,0.0,0.0
0.0,0.0,0.0,0.0
0.0,0.0,0.0,0.0
31.542,0.162,0.2,0.0
28.039,0.149,0.031,0.0
25.079,0.138,-0.101,0.0
0.0,0.0,0.0,0.0
0.0,0.0,0.0,0.0
38.053,0.232,0.512,0.0
32.755,0.205,0.266,0.0
28.757,0.186,0.084,1.0
26.017,0.174,-0.058,0.0
75.015,0.516,1.926,1.0
0.0,0.0,0.0,0.0
0.0,0.0,0.0,0.0
0.0,0.0,0.0,0.0
28.899,0.221,0.136,1.0
26.842,0.211,-0.013,0.0
75.311,0.607,2.067,5.0
0.0,0.0,0.0,0.0
0.0,0.0,0.0,0.0
35.744,0.309,0.418,0.0
0.0,0.0,0.0,0.0
28.588,0.259,0.036,1.0
57.891,0.537,1.691,1.0
57.726,0.548,1.385,1.0
0.0,0.0,0.0,0.0
38.352,0.38,0.515,0.0
32.955,0.333,0.27,0.0
28.84,0.297,0.086,5.0
57.352,0.603,1.774,0.0
57.376,0.616,1.475,1.0
0.0,0.0,0.0,0.0
0.0,0.0,0.0,0.0
34.253,0.39,0.34,0.0
28.944,0.335,0.136,3.0
56.733,0.67,1.852,0.0
56.823,0.683,1.558,0.0
57.618,0.705,1.278,1.0
0.0,0.0,0.0,0.0
36.443,0.461,0.422,0.0
31.822,0.41,0.202,0.0
56.334,0.738,1.934,1.0
0.0,0.0,0.0,0.0
57.456,0.778,1.37,1.0
0.0,0.0,0.0,0.0
0.0,0.0,0.0,0.0
34.096,0.484,0.273,0.0
0.0,0.0,0.0,0.0
55.644,0.815,1.709,0.0
55.837,0.83,1.422,0.0
0.0,0.0,0.0,0.0
40.681,0.623,0.605,0.0
34.34,0.534,0.33,0.0
55.676,0.878,2.094,2.0
55.34,0.885,1.789,0.0
55.19,0.896,1.495,0.0
55.161,0.908,1.199,0.0
0.0,0.0,0.0,0.0
35.867,0.607,0.402,0.0
0.0,0.0,0.0,0.0
54.992,0.956,1.865,0.0
54.905,0.967,1.574,1.0
54.665,0.975,1.274,0.0
0.0,0.0,0.0,0.0
37.821,0.692,0.483,0.0
0.0,0.0,0.0,0.0
0.0,0.0,0.0,0.0
0.0,0.0,0.0,0.0
54.422,1.048,1.352,0.0
0.0,0.0,0.0,0.0
0.0,0.0,0.0,0.0
0.0,0.0,0.0,0.0
0.0,0.0,0.0,0.0
54.432,1.113,1.727,0.0
54.264,1.123,1.43,0.0
54.713,1.145,1.154,2.0
0.0,0.0,0.0,0.0
56.06,1.201,2.456,0.0
0.0,0.0,0.0,0.0
54.491,1.193,1.81,108.0
54.215,1.201,1.509,0.0
54.536,1.221,1.23,0.0
47.846,1.083,0.826,2.0
88.73,2.032,4.018,6.0
0.0,0.0,0.0,0.0
0.0,0.0,0.0,0.0
54.162,1.28,1.586,1.0
54.159,1.293,1.3,0.0
0.0,0.0,0.0,0.0
88.859,2.167,4.151,21.0
0.0,0.0,0.0,0.0
0.0,0.0,0.0,0.0
54.193,1.362,1.664,1.0
54.169,1.375,1.377,1.0
56.966,1.46,1.146,6.0
84.487,2.189,4.066,14.0
0.0,0.0,0.0,0.0
0.0,0.0,0.0,0.0
54.187,1.444,1.739,19.0
54.082,1.455,1.449,3.0
54.621,1.483,1.174,0.0
82.846,2.274,4.103,13.0
0.0,0.0,0.0,0.0
57.875,1.617,2.249,0.0
54.269,1.53,1.816,0.0
54.088,1.539,1.522,4.0
54.222,1.556,1.238,1.0
82.869,2.402,4.214,7.0
83.579,2.444,3.805,7.0
0.0,0.0,0.0,0.0
0.0,0.0,0.0,0.0
54.112,1.623,1.594,4.0
54.223,1.64,1.309,9.0
82.098,2.51,4.283,20.0
83.355,2.57,3.904,13.0
0.0,0.0,0.0,0.0
0.0,0.0,0.0,0.0
54.153,1.71,1.664,1.0
54.137,1.724,1.376,31.0
81.831,2.632,4.374,28.0
82.077,2.66,3.948,20.0
0.0,0.0,0.0,0.0
0.0,0.0,0.0,0.0
51.053,1.693,1.632,3.0
50.938,1.702,1.357,0.0
81.766,2.759,4.47,25.0
81.158,2.759,4.002,30.0
81.628,2.796,3.589,2.0
50.841,1.754,1.958,1.0
50.457,1.754,1.673,3.0
50.377,1.764,1.402,3.0
81.797,2.892,4.571,23.0
81.304,2.896,4.107,32.0
81.034,2.907,3.659,11.0
50.653,1.83,2.011,1.0
50.063,1.822,1.72,2.0
49.899,1.829,1.447,2.0
81.314,3.008,4.638,31.0
81.242,3.027,4.198,33.0
81.191,3.046,3.76,28.0
50.724,1.916,2.071,1.0
49.598,1.886,1.759,3.0
49.296,1.888,1.485,2.0
65.553,2.533,3.814,26.0
81.088,3.155,4.281,19.0
65.622,2.569,3.111,31.0
50.494,1.99,2.118,0.0
49.228,1.953,1.8,1.0
48.822,1.95,1.523,3.0
65.461,2.638,3.88,20.0
65.546,2.658,3.531,52.0
65.554,2.676,3.178,62.0
0.0,0.0,0.0,0.0
48.784,2.016,1.836,3.0
48.406,2.013,1.561,3.0
65.409,2.745,3.945,25.0
65.52,2.767,3.598,34.0
65.566,2.785,3.247,42.0
0.0,0.0,0.0,0.0
48.661,2.092,1.88,1.0
47.954,2.074,1.594,2.0
65.456,2.856,4.014,32.0
65.53,2.876,3.664,29.0
81.171,3.584,4.1,34.0
0.0,0.0,0.0,0.0
48.57,2.169,1.924,10.0
47.743,2.145,1.634,6.0
65.441,2.965,4.076,20.0
81.271,3.704,4.622,31.0
81.046,3.714,4.171,34.0
49.098,2.262,2.256,2.0
0.0,0.0,0.0,0.0
47.69,2.222,1.675,13.0
81.377,3.824,5.144,32.0
81.305,3.841,4.699,35.0
81.057,3.85,4.244,36.0
80.663,3.852,3.779,1.0
0.0,0.0,0.0,0.0
47.687,2.303,1.718,14.0
81.44,3.965,5.22,34.0
81.393,3.984,4.776,35.0
81.179,3.994,4.323,32.0
80.685,3.991,3.851,6.0
0.0,0.0,0.0,0.0
47.825,2.391,1.764,3.0
81.391,4.103,5.288,23.0
80.861,4.096,4.813,32.0
80.794,4.112,4.369,45.0
80.982,4.143,3.932,19.0
0.0,0.0,0.0,0.0
48.097,2.485,1.813,2.0
80.625,4.2,5.303,33.0
80.607,4.219,4.862,20.0
80.635,4.241,4.424,33.0
81.018,4.282,3.997,15.0
0.0,0.0,0.0,0.0
48.292,2.577,1.857,0.0
80.51,4.331,5.357,33.0
81.209,4.389,4.96,12.0
80.599,4.376,4.483,35.0
81.013,4.42,4.056,35.0
0.0,0.0,0.0,0.0
0.0,0.0,0.0,0.0
80.473,4.466,5.413,28.0
80.773,4.502,4.991,15.0
80.655,4.516,4.543,35.0
80.931,4.552,4.109,34.0
0.0,0.0,0.0,0.0
0.0,0.0,0.0,0.0
58.477,3.345,3.973,28.0
58.607,3.367,3.661,20.0
58.626,3.382,3.341,30.0
58.693,3.401,3.018,17.0
0.0,0.0,0.0,0.0
0.0,0.0,0.0,0.0
58.377,3.439,4.004,36.0
58.477,3.459,3.69,32.0
58.57,3.478,3.375,53.0
58.625,3.496,3.05,51.0
58.655,3.513,2.731,2.0
0.0,0.0,0.0,0.0
58.346,3.536,4.036,50.0
58.485,3.558,3.725,29.0
58.562,3.577,3.409,58.0
58.633,3.596,3.085,55.0
58.667,3.613,2.765,12.0
0.0,0.0,0.0,0.0
58.354,3.636,4.07,24.0
58.57,3.663,3.763,29.0
58.606,3.68,3.443,21.0
80.899,5.1,4.301,33.0
80.919,5.121,3.857,10.0
0.0,0.0,0.0,0.0
58.433,3.741,4.106,11.0
80.607,5.18,5.221,36.0
80.725,5.206,4.783,29.0
80.915,5.239,4.342,22.0
80.905,5.258,3.897,23.0
0.0,0.0,0.0,0.0
61.587,4.048,4.357,9.0
80.58,5.315,5.257,33.0
80.068,5.3,4.781,10.0
78.858,5.238,4.267,15.0
80.807,5.388,3.928,32.0
0.0,0.0,0.0,0.0
61.683,4.159,4.391,9.0
78.371,5.302,5.146,14.0
80.056,5.434,4.814,31.0
78.878,5.372,4.301,24.0
80.763,5.52,3.959,26.0
0.0,0.0,0.0,0.0
60.93,4.21,4.361,25.0
60.749,4.212,4.012,15.0
0.0,0.0,0.0,0.0
77.762,5.429,4.269,23.0
77.979,5.462,3.85,16.0
0.0,0.0,0.0,0.0
60.827,4.306,4.376,27.0
60.733,4.313,4.032,18.0
77.814,5.544,4.736,25.0
77.886,5.567,4.302,18.0
80.771,5.792,4.015,29.0
49.227,3.542,2.175,1.0
60.802,4.406,4.393,22.0
60.618,4.406,4.043,15.0
77.552,5.653,4.743,12.0
77.596,5.674,4.307,33.0
80.901,5.935,4.043,28.0
81.197,5.976,3.609,15.0
60.679,4.498,4.401,23.0
60.072,4.465,4.022,32.0
60.703,4.526,3.728,30.0
77.329,5.782,4.312,30.0
81.327,6.101,4.085,17.0
81.616,6.142,3.646,24.0
60.765,4.604,4.421,27.0
59.977,4.557,4.03,34.0
60.594,4.618,3.734,31.0
77.548,5.927,4.34,23.0
81.458,6.244,4.107,11.0
81.811,6.29,3.671,32.0
60.158,4.657,4.388,36.0
59.646,4.63,4.018,34.0
60.594,4.717,3.744,34.0
77.3,6.034,4.339,15.0
81.469,6.378,4.12,12.0
81.794,6.421,3.682,27.0
59.945,4.737,4.381,35.0
59.607,4.723,4.024,34.0
61.019,4.848,3.779,32.0
62.464,4.976,3.514,10.0
62.273,4.975,3.157,20.0
81.619,6.539,3.684,23.0
59.36,4.787,4.345,28.0
59.806,4.836,4.043,33.0
59.96,4.861,3.719,34.0
62.226,5.058,3.506,11.0
62.228,5.071,3.159,22.0
81.554,6.664,3.686,21.0
51.982,4.275,3.808,11.0
51.958,4.284,3.515,23.0
51.999,4.298,3.227,20.0
52.036,4.311,2.933,18.0
52.08,4.326,2.646,28.0
52.142,4.342,2.358,20.0
51.898,4.35,3.802,36.0
51.908,4.361,3.512,45.0
51.964,4.377,3.226,48.0
51.975,4.388,2.931,45.0
52.053,4.406,2.644,61.0
52.073,4.419,2.354,51.0
51.871,4.43,3.8,39.0
51.859,4.439,3.508,30.0
51.951,4.457,3.223,62.0
51.994,4.471,2.929,42.0
52.051,4.487,2.642,39.0
52.074,4.5,2.352,57.0
51.863,4.51,3.796,36.0
51.876,4.521,3.506,21.0
51.985,4.54,3.222,46.0
52.064,4.557,2.929,25.0
52.128,4.573,2.641,24.0
52.111,4.582,2.349,28.0
51.882,4.59,3.792,21.0
51.953,4.606,3.506,18.0
60.012,5.333,3.712,29.0
59.991,5.342,3.369,26.0
60.452,5.394,3.056,19.0
61.295,5.482,2.755,28.0
51.965,4.676,3.792,16.0
60.102,5.42,4.047,34.0
60.006,5.422,3.703,33.0
59.127,5.354,3.311,33.0
60.115,5.454,3.029,27.0
60.693,5.519,2.717,26.0
59.244,5.419,4.312,35.0
59.178,5.424,3.974,33.0
59.354,5.451,3.652,33.0
58.727,5.405,3.277,33.0
60.37,5.567,3.029,34.0
60.997,5.637,2.718,29.0
58.705,5.457,4.26,34.0
58.684,5.465,3.928,32.0
58.308,5.44,3.574,25.0
58.94,5.51,3.275,34.0
60.075,5.628,3.0,27.0
60.095,5.64,2.663,26.0
58.663,5.538,4.242,33.0
59.012,5.581,3.934,33.0
58.165,5.51,3.55,29.0
59.055,5.604,3.266,33.0
60.549,5.757,3.007,34.0
60.208,5.736,2.652,27.0
58.608,5.615,4.221,29.0
58.949,5.658,3.913,33.0
58.093,5.585,3.528,29.0
59.066,5.688,3.248,33.0
59.616,5.752,2.942,21.0
60.477,5.846,2.644,34.0
58.556,5.692,4.198,30.0
58.789,5.724,3.882,33.0
58.089,5.665,3.508,29.0
59.053,5.769,3.226,27.0
59.635,5.836,2.922,16.0
59.796,5.862,2.593,34.0
58.406,5.757,4.166,27.0
58.497,5.775,3.841,32.0
58.296,5.764,3.498,32.0
59.035,5.847,3.203,31.0
59.045,5.858,2.87,17.0
59.446,5.907,2.555,26.0
58.292,5.823,4.135,27.0
58.256,5.829,3.802,31.0
58.376,5.849,3.479,32.0
59.01,5.922,3.177,27.0
58.942,5.925,2.84,24.0
59.204,5.96,2.519,28.0
58.189,5.889,4.102,32.0
58.187,5.898,3.772,32.0
58.02,5.889,3.432,26.0
58.755,5.973,3.137,33.0
58.868,5.993,2.81,25.0
59.071,6.023,2.486,25.0
58.107,5.955,4.069,29.0
57.893,5.942,3.725,30.0
58.026,5.964,3.404,31.0
58.463,6.017,3.093,33.0
58.802,6.061,2.778,30.0
59.083,6.099,2.457,25.0
58.071,6.025,4.037,33.0
57.825,6.007,3.691,32.0
57.939,6.026,3.37,32.0
58.706,6.114,3.075,29.0
58.767,6.129,2.745,28.0
59.203,6.184,2.431,23.0
57.932,6.081,3.996,31.0
57.682,6.062,3.65,28.0
57.816,6.084,3.331,27.0
58.752,6.19,3.045,23.0
58.697,6.192,2.709,28.0
59.354,6.27,2.404,21.0
57.765,6.132,3.951,32.0
57.649,6.126,3.616,31.0
57.743,6.143,3.293,23.0
58.297,6.21,2.988,26.0
58.736,6.264,2.677,25.0
59.287,6.332,2.366,23.0
57.496,6.169,3.898,27.0
57.721,6.2,3.585,31.0
57.94,6.231,3.269,32.0
58.235,6.27,2.949,25.0
58.456,6.301,2.628,27.0
59.31,6.401,2.33,25.0
57.591,6.244,3.868,27.0
58.004,6.296,3.565,26.0
57.995,6.302,3.234,30.0
58.296,6.341,2.914,29.0
58.425,6.363,2.588,29.0
59.12,6.446,2.283,26.0
57.701,6.319,3.837,25.0
57.92,6.349,3.522,9.0
58.119,6.378,3.201,32.0
58.413,6.417,2.879,30.0
58.444,6.428,2.548,21.0
59.068,6.504,2.24,22.0
53.979,5.969,3.551,16.0
54.532,6.036,3.277,16.0
58.04,6.43,3.156,32.0
58.522,6.49,2.843,31.0
58.335,6.476,2.502,27.0
59.119,6.57,2.199,24.0
53.98,6.024,3.512,21.0
54.804,6.121,3.253,12.0
58.141,6.5,3.119,32.0
58.625,6.56,2.805,33.0
58.402,6.542,2.461,30.0
59.029,6.619,2.152,24.0
53.958,6.075,3.469,24.0
57.464,6.474,3.367,30.0
57.886,6.528,3.061,32.0
58.506,6.603,2.754,30.0
58.616,6.622,2.425,32.0
59.127,6.686,2.11,13.0
54.225,6.156,3.444,29.0
57.358,6.517,3.315,29.0
57.861,6.579,3.014,30.0
58.638,6.673,2.714,25.0
58.959,6.715,2.393,24.0
63.781,7.271,2.225,12.0
46.472,5.317,2.914,13.0
46.46,5.32,2.648,13.0
57.697,6.612,2.958,16.0
58.617,6.722,2.665,23.0
59.36,6.813,2.36,33.0
46.467,5.338,1.583,26.0
46.419,5.352,2.872,38.0
46.426,5.356,2.607,20.0
46.463,5.364,2.343,26.0
46.457,5.367,2.073,21.0
46.437,5.369,1.806,30.0
46.409,5.371,1.541,30.0
46.396,5.388,2.831,46.0
46.395,5.391,2.565,36.0
46.426,5.398,2.3,46.0
46.416,5.4,2.03,50.0
46.394,5.402,1.764,32.0
46.375,5.404,1.498,38.0
46.38,5.423,2.788,52.0
46.371,5.424,2.522,44.0
46.404,5.432,2.258,49.0
46.384,5.433,1.987,44.0
46.362,5.434,1.721,33.0
46.368,5.439,1.457,38.0
46.37,5.456,2.745,46.0
46.377,5.46,2.479,40.0
46.395,5.465,2.215,50.0
46.363,5.464,1.943,47.0
46.352,5.467,1.678,46.0
46.341,5.469,1.412,42.0
46.388,5.492,2.702,50.0
46.388,5.494,2.436,51.0
46.387,5.497,2.171,48.0
46.361,5.497,1.899,42.0
46.348,5.498,1.634,44.0
46.345,5.501,1.369,34.0
46.399,5.524,2.658,48.0
46.392,5.525,2.392,58.0
46.384,5.527,2.126,45.0
46.357,5.526,1.855,33.0
46.366,5.53,1.59,47.0
46.353,5.532,1.325,32.0
46.413,5.554,2.614,42.0
46.395,5.554,2.347,43.0
46.393,5.556,2.081,39.0
46.362,5.555,1.809,33.0
46.367,5.558,1.544,40.0
46.369,5.562,1.279,29.0
46.43,5.584,2.569,17.0
46.408,5.583,2.301,20.0
46.408,5.585,2.035,31.0
46.378,5.583,1.763,33.0
46.375,5.586,1.497,22.0
46.383,5.589,1.232,13.0
46.464,5.613,2.523,9.0
46.457,5.614,2.256,12.0
46.425,5.611,1.988,21.0
46.394,5.61,1.716,19.0
46.414,5.614,1.451,9.0
46.429,5.619,1.186,11.0
54.626,6.626,2.91,29.0
54.206,6.577,2.576,13.0
46.465,5.639,1.941,12.0
54.466,6.612,1.959,12.0
58.809,7.141,1.778,16.0
46.436,5.641,1.138,13.0
54.238,6.603,2.832,28.0
58.945,7.178,2.739,15.0
53.897,6.565,2.195,16.0
54.508,6.641,1.902,24.0
58.842,7.171,1.716,16.0
46.425,5.66,1.088,10.0
54.156,6.616,2.77,24.0
58.904,7.197,2.674,11.0
58.586,7.159,2.324,19.0
54.705,6.686,1.851,14.0
58.813,7.19,1.653,24.0
46.314,5.664,1.036,10.0
54.212,6.642,2.714,22.0
58.871,7.214,2.609,9.0
58.631,7.185,2.262,27.0
54.634,6.696,1.789,13.0
58.663,7.192,1.584,32.0
46.031,5.645,0.98,9.0
0.0,0.0,0.0,0.0
58.834,7.227,2.543,9.0
58.693,7.211,2.2,7.0
58.903,7.238,1.864,10.0
57.435,7.058,1.489,11.0
45.747,5.623,0.923,13.0
59.025,7.267,2.825,13.0
53.714,6.613,2.263,17.0
54.637,6.727,1.988,25.0
58.781,7.238,1.796,17.0
55.748,6.865,1.383,4.0
45.51,5.605,0.868,10.0
58.987,7.275,2.757,9.0
53.731,6.627,2.202,20.0
54.454,6.716,1.92,28.0
58.749,7.246,1.728,18.0
53.364,6.582,1.264,1.0
44.969,5.548,0.807,3.0
58.919,7.278,2.688,12.0
53.735,6.637,2.143,23.0
54.389,6.717,1.857,26.0
58.722,7.252,1.662,22.0
46.301,5.719,1.045,3.0
43.988,5.433,0.741,4.0
58.852,7.277,2.619,10.0
53.814,6.653,2.084,26.0
54.507,6.739,1.799,20.0
58.478,7.229,1.589,31.0
46.086,5.697,0.987,7.0
43.969,5.436,0.69,6.0
53.598,6.632,2.323,22.0
54.24,6.711,2.04,29.0
54.606,6.755,1.74,16.0
0.0,0.0,0.0,0.0
45.762,5.66,0.928,11.0
43.927,5.433,0.639,5.0
53.65,6.641,2.263,28.0
54.391,6.731,1.982,28.0
54.54,6.749,1.674,9.0
55.589,6.878,1.382,3.0
45.516,5.631,0.87,10.0
43.892,5.43,0.588,0.0
53.644,6.64,2.201,23.0
54.341,6.725,1.917,28.0
58.764,7.271,1.735,12.0
51.208,6.335,1.213,1.0
44.862,5.549,0.806,4.0
42.083,5.205,0.514,1.0
53.685,6.643,2.14,24.0
54.334,6.721,1.854,26.0
58.721,7.262,1.666,17.0
46.267,5.72,1.042,4.0
43.981,5.437,0.739,4.0
42.064,5.199,0.465,0.0
53.922,6.667,2.086,28.0
54.563,6.744,1.797,17.0
58.45,7.222,1.59,32.0
46.011,5.684,0.983,9.0
43.964,5.43,0.687,5.0
39.803,4.915,0.394,0.0
54.486,6.729,2.044,29.0
54.716,6.755,1.738,5.0
0.0,0.0,0.0,0.0
45.684,5.636,0.923,12.0
43.929,5.418,0.635,4.0
36.034,4.443,0.314,0.0
54.587,6.731,1.984,24.0
58.779,7.245,1.798,15.0
55.862,6.882,1.388,4.0
45.465,5.6,0.864,10.0
43.798,5.393,0.581,1.0
33.829,4.164,0.255,0.0
54.557,6.714,1.918,24.0
58.792,7.232,1.729,11.0
46.48,5.715,1.101,2.0
44.504,5.47,0.794,3.0
42.078,5.17,0.509,0.0
32.615,4.006,0.208,0.0
54.656,6.711,1.857,17.0
58.829,7.22,1.661,20.0
46.3,5.679,1.042,8.0
44.011,5.396,0.734,4.0
40.103,4.915,0.439,0.0
31.979,3.918,0.166,1.0
54.619,6.688,1.792,10.0
58.594,7.171,1.586,32.0
45.905,5.615,0.98,12.0
43.989,5.378,0.682,6.0
0.0,0.0,0.0,0.0
29.396,3.591,0.119,0.0
58.83,7.182,1.862,13.0
46.476,5.67,1.204,4.0
45.669,5.569,0.921,16.0
43.996,5.362,0.631,3.0
34.665,4.223,0.298,0.0
29.337,3.572,0.085,1.0
58.798,7.154,1.793,17.0
46.426,5.645,1.149,13.0
45.517,5.531,0.866,8.0
43.762,5.315,0.577,0.0
33.824,4.105,0.252,0.0
29.086,3.529,0.05,1.0
58.784,7.125,1.723,6.0
46.316,5.609,1.092,12.0
44.486,5.384,0.794,3.0
40.495,4.898,0.487,0.0
33.049,3.995,0.208,0.0
27.9,3.371,0.016,0.0
46.391,5.599,1.306,15.0
46.191,5.57,1.036,14.0
44.132,5.318,0.737,4.0
40.297,4.853,0.438,0.0
31.964,3.847,0.165,1.0
26.573,3.197,-0.014,0.0
46.36,5.569,1.253,29.0
45.945,5.515,0.978,9.0
44.098,5.289,0.687,5.0
36.543,4.38,0.356,0.0
29.385,3.52,0.118,0.0
26.095,3.124,-0.044,1.0
46.347,5.54,1.2,32.0
45.675,5.455,0.921,11.0
44.075,5.26,0.636,3.0
36.489,4.351,0.314,0.0
29.296,3.491,0.084,1.0
25.584,3.047,-0.072,0.0
46.316,5.506,1.146,22.0
45.48,5.402,0.865,7.0
42.908,5.092,0.57,0.0
33.719,3.998,0.252,0.0
29.112,3.449,0.051,1.0
24.368,2.885,-0.096,0.0
46.309,5.473,1.094,18.0
44.604,5.267,0.799,3.0
40.691,4.8,0.496,0.0
32.525,3.834,0.207,1.0
27.564,3.247,0.018,0.0
23.907,2.814,-0.12,1.0
46.191,5.426,1.041,11.0
44.287,5.197,0.745,4.0
40.618,4.762,0.45,1.0
32.081,3.758,0.169,1.0
26.74,3.129,-0.011,0.0
23.494,2.747,-0.144,1.0
45.903,5.356,0.983,9.0
44.307,5.164,0.696,5.0
37.027,4.311,0.37,0.0
29.338,3.413,0.122,0.0
26.069,3.03,-0.04,1.0
22.928,2.663,-0.166,0.0
45.696,5.294,0.929,9.0
44.283,5.125,0.648,4.0
35.876,4.148,0.32,0.0
29.325,3.387,0.091,5.0
25.766,2.973,-0.066,1.0
22.017,2.538,-0.182,0.0
45.532,5.236,0.878,9.0
43.883,5.041,0.595,2.0
34.205,3.925,0.269,0.0
29.198,3.347,0.059,1.0
24.354,2.788,-0.089,0.0
21.672,2.479,-0.202,0.0
45.119,5.147,0.822,5.0
41.387,4.716,0.517,1.0
33.172,3.776,0.225,1.0
27.716,3.151,0.027,0.0
24.045,2.731,-0.113,1.0
21.276,2.414,-0.221,1.0
44.567,5.042,0.765,4.0
41.482,4.687,0.475,0.0
31.912,3.601,0.183,0.0
26.723,3.012,0.0,0.0
23.725,2.671,-0.136,1.0
20.929,2.354,-0.239,0.0
44.547,4.996,0.719,4.0
38.087,4.265,0.397,1.0
29.41,3.289,0.139,3.0
26.147,2.921,-0.027,1.0
23.155,2.584,-0.156,0.0
20.339,2.267,-0.253,0.0
44.613,4.957,0.676,4.0
35.333,3.921,0.333,0.0
29.344,3.252,0.11,5.0
25.904,2.867,-0.053,1.0
22.205,2.455,-0.171,0.0
19.854,2.192,-0.266,0.0
44.513,4.898,0.63,2.0
35.174,3.865,0.297,0.0
29.108,3.194,0.08,8.0
24.778,2.715,-0.075,0.0
21.603,2.364,-0.188,1.0
19.476,2.129,-0.281,0.0
42.312,4.609,0.557,0.0
33.109,3.601,0.248,0.0
29.001,3.15,0.052,1.0
24.216,2.626,-0.096,1.0
21.471,2.325,-0.207,3.0
18.998,2.055,-0.292,0.0
42.34,4.563,0.518,0.0
32.121,3.456,0.21,0.0
27.276,2.93,0.022,0.0
24.089,2.584,-0.119,1.0
21.271,2.278,-0.225,1.0
18.634,1.993,-0.303,0.0
38.533,4.107,0.435,0.0
31.833,3.387,0.179,0.0
26.649,2.831,-0.001,0.0
23.423,2.484,-0.136,0.0
20.858,2.209,-0.24,0.0
18.324,1.938,-0.315,0.0
0.0,0.0,0.0,0.0
29.226,3.074,0.138,0.0
26.135,2.744,-0.024,1.0
22.782,2.388,-0.153,0.0
20.275,2.122,-0.251,0.0
17.959,1.877,-0.325,0.0
34.683,3.61,0.33,0.0
29.284,3.042,0.112,0.0
25.882,2.685,-0.047,1.0
22.044,2.283,-0.167,1.0
19.696,2.036,-0.261,0.0
17.632,1.82,-0.334,0.0
34.311,3.527,0.297,0.0
29.083,2.984,0.087,1.0
25.151,2.576,-0.067,0.0
21.914,2.24,-0.185,4.0
19.469,1.987,-0.275,0.0
17.405,1.773,-0.344,0.0
34.03,3.452,0.266,0.0
28.38,2.873,0.061,0.0
24.598,2.486,-0.086,0.0
21.663,2.185,-0.2,4.0
19.146,1.928,-0.285,0.0
17.199,1.729,-0.354,0.0
32.185,3.221,0.226,0.0
27.692,2.766,0.037,0.0
24.228,2.415,-0.104,0.0
21.437,2.133,-0.215,4.0
18.803,1.867,-0.295,0.0
17.025,1.688,-0.364,0.0
31.827,3.14,0.198,0.0
27.061,2.665,0.015,0.0
23.829,2.342,-0.12,0.0
21.265,2.085,-0.23,3.0
18.407,1.802,-0.303,0.0
16.798,1.641,-0.372,0.0
29.326,2.851,0.161,1.0
26.292,2.55,-0.004,1.0
23.449,2.27,-0.136,0.0
20.896,2.019,-0.241,0.0
18.267,1.761,-0.314,0.0
16.539,1.591,-0.378,0.0
29.301,2.805,0.139,4.0
26.007,2.484,-0.023,1.0
22.784,2.172,-0.149,0.0
20.174,1.919,-0.247,0.0
17.945,1.703,-0.322,0.0
16.326,1.546,-0.385,0.0
29.246,2.756,0.118,5.0
25.759,2.422,-0.04,1.0
22.502,2.111,-0.162,1.0
19.826,1.855,-0.257,0.0
17.716,1.654,-0.329,0.0
16.18,1.508,-0.392,0.0
29.181,2.705,0.099,4.0
25.385,2.347,-0.057,1.0
22.149,2.043,-0.174,2.0
19.422,1.788,-0.264,0.0
17.477,1.605,-0.336,0.0
16.016,1.468,-0.398,0.0
28.937,2.637,0.079,1.0
24.945,2.268,-0.071,0.0
21.965,1.992,-0.186,3.0
19.364,1.752,-0.275,0.0
17.323,1.563,-0.344,0.0
15.884,1.43,-0.405,0.0
27.802,2.489,0.059,1.0
24.585,2.195,-0.085,0.0
21.808,1.942,-0.198,2.0
19.092,1.696,-0.283,0.0
17.19,1.524,-0.351,0.0
15.775,1.395,-0.411,0.0
27.388,2.408,0.043,0.0
24.382,2.138,-0.098,0.0
21.596,1.889,-0.208,1.0
18.821,1.642,-0.289,0.0
16.983,1.477,-0.357,0.0
15.651,1.358,-0.417,0.0
26.869,2.317,0.027,1.0
23.999,2.064,-0.11,0.0
21.4,1.836,-0.218,1.0
18.694,1.599,-0.297,0.0
16.879,1.44,-0.363,0.0
15.511,1.32,-0.421,0.0
26.756,2.263,0.013,1.0
23.774,2.005,-0.121,0.0
21.141,1.778,-0.226,0.0
18.394,1.542,-0.302,0.0
16.739,1.4,-0.368,0.0
15.401,1.284,-0.425,0.0
26.452,2.192,0.0,1.0
23.67,1.955,-0.131,1.0
20.895,1.721,-0.233,0.0
18.149,1.491,-0.306,0.0
16.645,1.363,-0.374,0.0
15.294,1.249,-0.429,0.0
26.174,2.123,-0.01,0.0
23.157,1.873,-0.139,0.0
20.512,1.654,-0.238,0.0
18.111,1.456,-0.313,0.0
16.433,1.317,-0.376,0.0
15.107,1.207,-0.431,0.0
25.984,2.062,-0.021,0.0
22.878,1.81,-0.146,0.0
20.383,1.607,-0.244,0.0
17.945,1.411,-0.317,0.0
16.421,1.287,-0.382,0.0
15.077,1.178,-0.435,0.0
25.771,2.0,-0.031,0.0
22.91,1.772,-0.155,0.0
20.166,1.554,-0.249,0.0
17.825,1.369,-0.322,0.0
16.289,1.247,-0.385,0.0
14.901,1.137,-0.436,0.0
25.531,1.935,-0.039,0.0
22.734,1.717,-0.162,0.0
19.826,1.492,-0.252,0.0
17.679,1.326,-0.325,0.0
16.129,1.206,-0.386,0.0
14.916,1.111,-0.441,0.0
25.427,1.881,-0.047,0.0
22.607,1.666,-0.168,0.0
19.713,1.448,-0.256,0.0
17.573,1.286,-0.328,0.0
16.08,1.173,-0.39,0.0
14.808,1.076,-0.442,0.0
25.282,1.824,-0.053,0.0
22.41,1.611,-0.172,0.0
19.459,1.393,-0.258,0.0
17.499,1.248,-0.331,0.0
16.043,1.14,-0.393,0.0
14.672,1.039,-0.441,0.0
25.191,1.771,-0.059,0.0
22.244,1.557,-0.176,0.0
19.508,1.361,-0.263,0.0
17.403,1.209,-0.333,0.0
16.004,1.107,-0.395,0.0
14.715,1.014,-0.445,0.0
24.989,1.709,-0.064,0.0
22.184,1.511,-0.18,0.0
19.421,1.318,-0.265,0.0
17.315,1.17,-0.335,0.0
15.944,1.073,-0.397,0.0
14.652,0.983,-0.446,0.0
24.988,1.663,-0.068,0.0
22.229,1.473,-0.184,0.0
19.282,1.272,-0.266,0.0
17.253,1.133,-0.336,0.0
15.95,1.044,-0.399,0.0
14.61,0.952,-0.447,0.0
24.955,1.613,-0.071,0.0
22.069,1.42,-0.185,0.0
19.248,1.232,-0.268,0.0
17.161,1.094,-0.336,0.0
15.896,1.009,-0.399,0.0
14.626,0.924,-0.449,0.0
24.915,1.562,-0.073,1.0
22.011,1.373,-0.187,0.0
19.187,1.191,-0.269,0.0
17.2,1.063,-0.338,0.0
15.846,0.975,-0.399,0.0
14.6,0.894,-0.449,0.0
24.926,1.514,-0.075,0.0
21.821,1.319,-0.186,0.0
19.261,1.159,-0.271,0.0
17.163,1.027,-0.338,0.0
15.869,0.946,-0.4,0.0
14.62,0.867,-0.449,0.0
24.867,1.462,-0.075,0.0
21.781,1.274,-0.186,1.0
19.208,1.118,-0.27,0.0
17.165,0.994,-0.338,0.0
15.835,0.912,-0.399,0.0
14.63,0.839,-0.45,0.0
24.827,1.411,-0.074,0.0
21.902,1.238,-0.186,2.0
19.157,1.077,-0.269,0.0
17.168,0.96,-0.337,0.0
15.844,0.881,-0.398,0.0
14.609,0.808,-0.448,0.0
24.925,1.367,-0.073,0.0
21.921,1.196,-0.185,2.0
19.363,1.05,-0.27,0.0
17.142,0.925,-0.335,0.0
15.905,0.854,-0.399,0.0
14.578,0.778,-0.446,0.0
25.024,1.323,-0.071,0.0
22.011,1.157,-0.183,1.0
19.307,1.009,-0.267,0.0
17.217,0.894,-0.335,0.0
15.904,0.822,-0.397,0.0
14.636,0.752,-0.445,0.0
25.131,1.279,-0.068,0.0
22.007,1.113,-0.18,1.0
19.375,0.974,-0.265,0.0
17.213,0.86,-0.332,0.0
15.909,0.79,-0.394,0.0
14.65,0.723,-0.443,0.0
25.26,1.234,-0.064,0.0
22.167,1.076,-0.178,1.0
19.621,0.947,-0.265,0.0
17.278,0.828,-0.33,0.0
15.984,0.761,-0.393,0.0
14.648,0.693,-0.44,0.0
25.428,1.191,-0.059,0.0
22.38,1.041,-0.174,1.0
19.671,0.909,-0.261,0.0
17.318,0.795,-0.326,0.0
16.014,0.73,-0.39,0.0
14.757,0.668,-0.44,0.0
25.425,1.14,-0.052,0.0
22.475,1.0,-0.169,1.0
19.739,0.873,-0.256,0.0
17.498,0.768,-0.325,0.0
16.058,0.7,-0.386,0.0
14.718,0.637,-0.434,0.0
25.54,1.094,-0.045,0.0
22.794,0.969,-0.165,0.0
19.809,0.836,-0.251,0.0
17.647,0.739,-0.322,0.0
16.178,0.673,-0.384,0.0
14.802,0.611,-0.432,0.0
25.868,1.055,-0.037,0.0
22.978,0.93,-0.158,0.0
19.888,0.799,-0.246,0.0
17.768,0.708,-0.318,0.0
16.228,0.641,-0.379,0.0
14.96,0.587,-0.431,0.0
25.853,1.002,-0.027,6.0
23.145,0.89,-0.151,0.0
20.154,0.769,-0.241,0.0
17.934,0.678,-0.314,0.0
16.356,0.613,-0.376,0.0
14.973,0.557,-0.425,0.0
25.907,0.952,-0.017,3.0
23.289,0.848,-0.142,0.0
20.376,0.736,-0.235,0.0
17.982,0.643,-0.307,0.0
16.45,0.584,-0.371,0.0
15.072,0.53,-0.422,0.0
26.52,0.921,-0.005,0.0
23.86,0.821,-0.135,0.0
20.979,0.715,-0.232,0.0
18.188,0.614,-0.302,0.0
16.537,0.553,-0.365,0.0
15.209,0.504,-0.418,0.0
26.777,0.875,0.006,0.0
23.998,0.777,-0.124,0.0
21.18,0.679,-0.224,0.0
18.309,0.581,-0.295,0.0
16.658,0.523,-0.359,0.0
15.417,0.479,-0.416,0.0
27.02,0.829,0.021,0.0
24.034,0.729,-0.111,0.0
21.505,0.646,-0.216,0.0
18.523,0.55,-0.288,0.0
16.779,0.493,-0.352,0.0
15.608,0.454,-0.412,0.0
27.392,0.785,0.036,0.0
24.474,0.693,-0.099,0.0
21.673,0.607,-0.205,0.0
18.715,0.518,-0.281,0.0
16.969,0.464,-0.346,0.0
15.633,0.423,-0.404,0.0
27.894,0.743,0.053,0.0
24.83,0.653,-0.086,0.0
21.946,0.57,-0.194,0.0
18.88,0.485,-0.271,0.0
17.112,0.434,-0.338,0.0
15.802,0.395,-0.398,0.0
28.673,0.706,0.073,0.0
25.231,0.613,-0.071,0.0
22.218,0.533,-0.182,0.0
19.426,0.459,-0.266,0.0
17.254,0.402,-0.33,0.0
15.975,0.367,-0.391,0.0
28.715,0.649,0.093,1.0
25.584,0.57,-0.054,0.0
22.677,0.498,-0.171,0.0
19.621,0.425,-0.255,0.0
17.601,0.375,-0.324,0.0
16.143,0.339,-0.384,0.0
28.822,0.594,0.114,1.0
25.934,0.526,-0.037,0.0
23.174,0.463,-0.157,0.0
20.038,0.393,-0.246,0.0
17.76,0.343,-0.314,0.0
16.342,0.31,-0.377,0.0
28.914,0.538,0.136,0.0
26.348,0.482,-0.017,0.0
23.555,0.424,-0.142,0.0
20.328,0.359,-0.234,0.0
18.067,0.313,-0.305,0.0
16.532,0.281,-0.368,0.0
28.929,0.482,0.158,0.0
26.688,0.436,0.003,0.0
23.925,0.383,-0.125,0.0
20.669,0.325,-0.221,0.0
18.36,0.283,-0.295,0.0
16.646,0.251,-0.357,0.0
28.929,0.426,0.182,0.0
27.28,0.393,0.025,0.0
24.317,0.342,-0.107,1.0
21.655,0.297,-0.214,1.0
18.656,0.25,-0.284,0.0
16.857,0.221,-0.347,0.0
31.753,0.405,0.227,0.0
28.031,0.349,0.05,0.0
24.811,0.301,-0.088,0.0
21.941,0.259,-0.198,2.0
19.061,0.219,-0.274,0.0
17.076,0.191,-0.337,0.0
32.163,0.348,0.258,0.0
28.736,0.302,0.077,3.0
25.443,0.259,-0.067,0.0
22.221,0.22,-0.18,1.0
19.378,0.185,-0.261,0.0
17.409,0.161,-0.327,0.0
33.135,0.295,0.296,0.0
28.807,0.247,0.104,5.0
25.892,0.214,-0.044,0.0
22.734,0.181,-0.163,0.0
19.902,0.152,-0.249,0.0
17.751,0.13,-0.317,0.0
33.573,0.235,0.333,0.0
28.871,0.193,0.132,0.0
26.321,0.167,-0.019,0.0
23.278,0.141,-0.144,0.0
20.623,0.118,-0.237,0.0
18.118,0.098,-0.305,0.0
34.372,0.175,0.375,0.0
0.0,0.0,0.0,0.0
26.95,0.12,0.006,0.0
24.103,0.1,-0.124,0.0
21.197,0.081,-0.222,4.0
18.496,0.065,-0.293,0.0
0.0,0.0,0.0,0.0
0.0,0.0,0.0,0.0
27.91,0.072,0.035,0.0
24.486,0.056,-0.101,0.0
21.561,0.043,-0.204,2.0
18.906,0.031,-0.279,0.0
37.212,0.051,0.483,0.0
33.123,0.034,0.254,0.0
28.448,0.021,0.067,1.0
25.236,0.011,-0.077,0.0
22.292,0.002,-0.186,0.0
19.383,-0.003,-0.265,0.0
0.0,0.0,0.0,0.0
33.103,-0.026,0.29,0.0
28.768,-0.031,0.1,6.0
25.775,-0.036,-0.049,0.0
23.017,-0.039,-0.166,0.0
20.043,-0.04,-0.251,0.0
0.0,0.0,0.0,0.0
33.316,-0.087,0.33,1.0
28.843,-0.084,0.132,5.0
26.426,-0.085,-0.02,0.0
23.758,-0.083,-0.144,0.0
20.586,-0.078,-0.234,0.0
42.299,-0.173,0.692,0.0
35.445,-0.156,0.392,0.0
30.787,-0.144,0.177,1.0
27.148,-0.135,0.01,0.0
24.233,-0.129,-0.119,0.0
21.667,-0.121,-0.221,0.0
0.0,0.0,0.0,0.0
36.545,-0.226,0.448,0.0
31.586,-0.204,0.22,1.0
28.242,-0.191,0.044,1.0
24.829,-0.175,-0.092,0.0
22.205,-0.163,-0.199,1.0
46.903,-0.359,0.881,0.0
0.0,0.0,0.0,0.0
32.389,-0.266,0.265,1.0
28.687,-0.244,0.08,6.0
25.443,-0.224,-0.062,0.0
22.716,-0.207,-0.176,0.0
0.0,0.0,0.0,0.0
38.748,-0.375,0.571,0.0
33.159,-0.33,0.313,1.0
28.772,-0.295,0.117,0.0
26.274,-0.277,-0.031,0.0
23.474,-0.254,-0.151,0.0
0.0,0.0,0.0,0.0
0.0,0.0,0.0,0.0
34.217,-0.4,0.368,0.0
0.0,0.0,0.0,0.0
27.078,-0.331,0.002,0.0
24.122,-0.302,-0.124,0.0
0.0,0.0,0.0,0.0
43.573,-0.57,0.755,0.0
36.093,-0.482,0.435,0.0
31.278,-0.426,0.209,0.0
27.923,-0.388,0.039,0.0
24.921,-0.354,-0.095,0.0
0.0,0.0,0.0,0.0
47.499,-0.699,0.886,0.0
37.852,-0.567,0.506,0.0
32.478,-0.496,0.26,0.0
28.569,-0.444,0.078,1.0
25.641,-0.406,-0.063,0.0
64.024,-1.029,1.618,0.0
48.287,-0.79,0.967,0.0
0.0,0.0,0.0,0.0
33.532,-0.567,0.315,3.0
28.739,-0.493,0.119,0.0
26.282,-0.458,-0.029,0.0
0.0,0.0,0.0,0.0
0.0,0.0,0.0,0.0
0.0,0.0,0.0,0.0
34.347,-0.636,0.371,1.0
28.793,-0.541,0.16,0.0
27.26,-0.519,0.008,0.0
0.0,0.0,0.0,0.0
0.0,0.0,0.0,0.0
43.287,-0.858,0.761,0.0
36.223,-0.727,0.443,0.0
31.43,-0.639,0.219,0.0
28.474,-0.586,0.049,2.0
91.173,-1.9,2.691,1.0
0.0,0.0,0.0,0.0
0.0,0.0,0.0,0.0
0.0,0.0,0.0,0.0
33.035,-0.722,0.278,1.0
28.708,-0.635,0.091,9.0
96.818,-2.166,3.0,1.0
0.0,0.0,0.0,0.0
0.0,0.0,0.0,0.0
0.0,0.0,0.0,0.0
33.577,-0.785,0.332,0.0
28.742,-0.679,0.134,2.0
96.81,-2.312,3.144,4.0
0.0,0.0,0.0,0.0
0.0,0.0,0.0,0.0
0.0,0.0,0.0,0.0
0.0,0.0,0.0,0.0
31.338,-0.787,0.194,0.0
92.471,-2.344,3.142,150.0
0.0,0.0,0.0,0.0
0.0,0.0,0.0,0.0
0.0,0.0,0.0,0.0
0.0,0.0,0.0,0.0
32.018,-0.851,0.247,0.0
92.386,-2.474,3.281,193.0
93.091,-2.516,2.819,2.0
0.0,0.0,0.0,0.0
0.0,0.0,0.0,0.0
0.0,0.0,0.0,0.0
33.407,-0.934,0.309,0.0
92.301,-2.603,3.422,135.0
92.656,-2.634,2.95,2.0
0.0,0.0,0.0,0.0
53.291,-1.54,1.135,0.0
41.921,-1.221,0.673,0.0
34.645,-1.017,0.376,0.0
92.292,-2.729,3.567,26.0
92.268,-2.749,3.083,16.0
0.0,0.0,0.0,0.0
0.0,0.0,0.0,0.0
0.0,0.0,0.0,0.0
0.0,0.0,0.0,0.0
92.266,-2.85,3.71,20.0
92.205,-2.867,3.225,45.0
0.0,0.0,0.0,0.0
0.0,0.0,0.0,0.0
0.0,0.0,0.0,0.0
0.0,0.0,0.0,0.0
92.418,-2.975,3.864,1.0
92.257,-2.99,3.376,162.0
92.895,-3.029,2.914,5.0
0.0,0.0,0.0,0.0
0.0,0.0,0.0,0.0
0.0,0.0,0.0,0.0
0.0,0.0,0.0,0.0
92.246,-3.105,3.525,168.0
