X,Y,Z,Reflectivity
0.0,0.0,0.0,0.0
7.699,0.031,-0.734,0.0
7.364,0.029,-0.745,0.0
0.0,0.0,0.0,0.0
0.0,0.0,0.0,0.0
0.0,0.0,0.0,0.0
0.0,0.0,0.0,0.0
0.0,0.0,0.0,0.0
7.261,0.023,-0.746,0.0
0.0,0.0,0.0,0.0
0.0,0.0,0.0,0.0
8.113,0.022,-0.703,0.0
0.0,0.0,0.0,0.0
0.0,0.0,0.0,0.0
7.199,0.018,-0.751,0.0
0.0,0.0,0.0,0.0
0.0,0.0,0.0,0.0
8.088,0.016,-0.714,0.0
7.668,0.014,-0.722,0.0
7.39,0.013,-0.739,0.0
7.094,0.012,-0.751,0.0
0.0,0.0,0.0,0.0
8.304,0.011,-0.697,0.0
7.972,0.01,-0.715,0.0
7.674,0.008,-0.734,0.0
7.362,0.007,-0.747,0.0
7.031,0.006,-0.755,0.0
8.58,0.005,-0.683,0.0
0.0,0.0,0.0,0.0
0.0,0.0,0.0,0.0
0.0,0.0,0.0,0.0
7.261,0.001,-0.748,0.0
6.96,0.0,-0.758,0.0
8.493,-0.001,-0.688,0.0
8.171,-0.002,-0.709,0.0
0.0,0.0,0.0,0.0
0.0,0.0,0.0,0.0
7.181,-0.004,-0.75,0.0
6.926,-0.004,-0.764,0.0
0.0,0.0,0.0,0.0
0.0,0.0,0.0,0.0
0.0,0.0,0.0,0.0
7.384,-0.009,-0.738,0.0
7.09,-0.01,-0.75,0.0
0.0,0.0,0.0,0.0
0.0,0.0,0.0,0.0
0.0,0.0,0.0,0.0
0.0,0.0,0.0,0.0
7.337,-0.016,-0.743,0.0
7.077,-0.016,-0.758,0.0
0.0,0.0,0.0,0.0
8.253,-0.022,-0.703,0.0
0.0,0.0,0.0,0.0
0.0,0.0,0.0,0.0
7.288,-0.023,-0.748,0.0
6.988,-0.022,-0.758,0.0
0.0,0.0,0.0,0.0
8.133,-0.03,-0.703,0.0
7.788,-0.029,-0.718,0.0
0.0,0.0,0.0,0.0
7.141,-0.029,-0.742,0.0
0.0,0.0,0.0,0.0
0.0,0.0,0.0,0.0
8.079,-0.037,-0.708,0.0
7.789,-0.037,-0.728,0.0
7.42,-0.036,-0.737,0.0
7.103,-0.035,-0.747,0.0
0.0,0.0,0.0,0.0
0.0,0.0,0.0,0.0
8.004,-0.044,-0.712,0.0
7.689,-0.044,-0.728,0.0
7.353,-0.043,-0.739,0.0
7.051,-0.042,-0.75,0.0
0.0,0.0,0.0,0.0
0.0,0.0,0.0,0.0
7.971,-0.052,-0.718,0.0
0.0,0.0,0.0,0.0
7.318,-0.05,-0.744,0.0
0.0,0.0,0.0,0.0
0.0,0.0,0.0,0.0
0.0,0.0,0.0,0.0
7.856,-0.059,-0.717,0.0
0.0,0.0,0.0,0.0
7.216,-0.056,-0.742,0.0
0.0,0.0,0.0,0.0
0.0,0.0,0.0,0.0
0.0,0.0,0.0,0.0
0.0,0.0,0.0,0.0
0.0,0.0,0.0,0.0
7.177,-0.064,-0.746,0.0
0.0,0.0,0.0,0.0
0.0,0.0,0.0,0.0
0.0,0.0,0.0,0.0
0.0,0.0,0.0,0.0
7.429,-0.073,-0.737,0.0
7.134,-0.071,-0.749,0.0
0.0,0.0,0.0,0.0
0.0,0.0,0.0,0.0
0.0,0.0,0.0,0.0
0.0,0.0,0.0,0.0
7.342,-0.079,-0.736,0.0
7.095,-0.078,-0.752,0.0
0.0,0.0,0.0,0.0
0.0,0.0,0.0,0.0
0.0,0.0,0.0,0.0
0.0,0.0,0.0,0.0
7.325,-0.087,-0.742,0.0
0.0,0.0,0.0,0.0
0.0,0.0,0.0,0.0
0.0,0.0,0.0,0.0
0.0,0.0,0.0,0.0
0.0,0.0,0.0,0.0
7.302,-0.095,-0.746,0.0
0.0,0.0,0.0,0.0
0.0,0.0,0.0,0.0
0.0,0.0,0.0,0.0
0.0,0.0,0.0,0.0
7.486,-0.104,-0.729,0.0
7.198,-0.101,-0.742,0.0
0.0,0.0,0.0,0.0
0.0,0.0,0.0,0.0
0.0,0.0,0.0,0.0
0.0,0.0,0.0,0.0
7.481,-0.113,-0.735,0.0
7.181,-0.109,-0.746,0.0
0.0,0.0,0.0,0.0
0.0,0.0,0.0,0.0
0.0,0.0,0.0,0.0
0.0,0.0,0.0,0.0
7.454,-0.121,-0.738,0.0
7.112,-0.116,-0.745,0.0
0.0,0.0,0.0,0.0
0.0,0.0,0.0,0.0
0.0,0.0,0.0,0.0
0.0,0.0,0.0,0.0
7.333,-0.127,-0.732,0.0
7.122,-0.125,-0.752,0.0
0.0,0.0,0.0,0.0
0.0,0.0,0.0,0.0
0.0,0.0,0.0,0.0
0.0,0.0,0.0,0.0
7.325,-0.135,-0.736,0.0
7.064,-0.132,-0.751,0.0
0.0,0.0,0.0,0.0
0.0,0.0,0.0,0.0
0.0,0.0,0.0,0.0
0.0,0.0,0.0,0.0
7.278,-0.143,-0.737,0.0
0.0,0.0,0.0,0.0
0.0,0.0,0.0,0.0
0.0,0.0,0.0,0.0
0.0,0.0,0.0,0.0
0.0,0.0,0.0,0.0
7.262,-0.151,-0.74,0.0
0.0,0.0,0.0,0.0
0.0,0.0,0.0,0.0
0.0,0.0,0.0,0.0
0.0,0.0,0.0,0.0
0.0,0.0,0.0,0.0
7.204,-0.158,-0.738,0.0
0.0,0.0,0.0,0.0
0.0,0.0,0.0,0.0
0.0,0.0,0.0,0.0
0.0,0.0,0.0,0.0
0.0,0.0,0.0,0.0
7.193,-0.167,-0.741,0.0
0.0,0.0,0.0,0.0
0.0,0.0,0.0,0.0
0.0,0.0,0.0,0.0
0.0,0.0,0.0,0.0
0.0,0.0,0.0,0.0
7.191,-0.175,-0.745,0.0
0.0,0.0,0.0,0.0
0.0,0.0,0.0,0.0
0.0,0.0,0.0,0.0
0.0,0.0,0.0,0.0
0.0,0.0,0.0,0.0
7.124,-0.182,-0.741,0.0
0.0,0.0,0.0,0.0
0.0,0.0,0.0,0.0
0.0,0.0,0.0,0.0
0.0,0.0,0.0,0.0
0.0,0.0,0.0,0.0
7.143,-0.191,-0.746,0.0
0.0,0.0,0.0,0.0
0.0,0.0,0.0,0.0
0.0,0.0,0.0,0.0
0.0,0.0,0.0,0.0
0.0,0.0,0.0,0.0
7.121,-0.199,-0.746,0.0
0.0,0.0,0.0,0.0
0.0,0.0,0.0,0.0
0.0,0.0,0.0,0.0
0.0,0.0,0.0,0.0
0.0,0.0,0.0,0.0
7.107,-0.207,-0.747,0.0
6.858,-0.201,-0.76,0.0
0.0,0.0,0.0,0.0
0.0,0.0,0.0,0.0
0.0,0.0,0.0,0.0
0.0,0.0,0.0,0.0
7.058,-0.214,-0.744,0.0
6.84,-0.209,-0.76,0.0
0.0,0.0,0.0,0.0
0.0,0.0,0.0,0.0
0.0,0.0,0.0,0.0
0.0,0.0,0.0,0.0
7.036,-0.222,-0.743,0.0
6.816,-0.216,-0.759,0.0
0.0,0.0,0.0,0.0
0.0,0.0,0.0,0.0
0.0,0.0,0.0,0.0
0.0,0.0,0.0,0.0
7.024,-0.23,-0.744,0.0
0.0,0.0,0.0,0.0
0.0,0.0,0.0,0.0
0.0,0.0,0.0,0.0
0.0,0.0,0.0,0.0
0.0,0.0,0.0,0.0
7.02,-0.238,-0.744,0.0
6.802,-0.232,-0.759,0.0
0.0,0.0,0.0,0.0
0.0,0.0,0.0,0.0
0.0,0.0,0.0,0.0
0.0,0.0,0.0,0.0
7.046,-0.247,-0.748,0.0
6.798,-0.24,-0.76,0.0
0.0,0.0,0.0,0.0
0.0,0.0,0.0,0.0
0.0,0.0,0.0,0.0
0.0,0.0,0.0,0.0
7.023,-0.254,-0.746,0.0
6.798,-0.248,-0.76,0.0
0.0,0.0,0.0,0.0
0.0,0.0,0.0,0.0
0.0,0.0,0.0,0.0
0.0,0.0,0.0,0.0
7.053,-0.264,-0.749,0.0
6.807,-0.256,-0.761,0.0
0.0,0.0,0.0,0.0
0.0,0.0,0.0,0.0
0.0,0.0,0.0,0.0
0.0,0.0,0.0,0.0
7.053,-0.272,-0.749,0.0
6.811,-0.264,-0.761,0.0
0.0,0.0,0.0,0.0
0.0,0.0,0.0,0.0
0.0,0.0,0.0,0.0
0.0,0.0,0.0,0.0
7.019,-0.279,-0.744,0.0
6.817,-0.272,-0.761,0.0
6.532,-0.262,-0.766,0.0
0.0,0.0,0.0,0.0
0.0,0.0,0.0,0.0
0.0,0.0,0.0,0.0
7.047,-0.288,-0.746,0.0
6.818,-0.28,-0.76,0.0
0.0,0.0,0.0,0.0
0.0,0.0,0.0,0.0
0.0,0.0,0.0,0.0
0.0,0.0,0.0,0.0
7.065,-0.297,-0.747,0.0
6.85,-0.289,-0.763,0.0
0.0,0.0,0.0,0.0
0.0,0.0,0.0,0.0
0.0,0.0,0.0,0.0
0.0,0.0,0.0,0.0
7.054,-0.304,-0.744,0.0
6.825,-0.296,-0.758,0.0
0.0,0.0,0.0,0.0
0.0,0.0,0.0,0.0
0.0,0.0,0.0,0.0
0.0,0.0,0.0,0.0
7.056,-0.312,-0.743,0.0
6.818,-0.303,-0.756,0.0
0.0,0.0,0.0,0.0
0.0,0.0,0.0,0.0
0.0,0.0,0.0,0.0
0.0,0.0,0.0,0.0
7.098,-0.322,-0.745,0.0
6.835,-0.311,-0.756,0.0
0.0,0.0,0.0,0.0
0.0,0.0,0.0,0.0
0.0,0.0,0.0,0.0
0.0,0.0,0.0,0.0
7.126,-0.331,-0.746,0.0
6.847,-0.319,-0.755,0.0
6.596,-0.309,-0.764,0.0
0.0,0.0,0.0,0.0
0.0,0.0,0.0,0.0
0.0,0.0,0.0,0.0
7.131,-0.338,-0.743,0.0
6.892,-0.329,-0.757,0.0
0.0,0.0,0.0,0.0
0.0,0.0,0.0,0.0
0.0,0.0,0.0,0.0
0.0,0.0,0.0,0.0
7.134,-0.346,-0.74,0.0
6.893,-0.336,-0.754,0.0
0.0,0.0,0.0,0.0
0.0,0.0,0.0,0.0
0.0,0.0,0.0,0.0
0.0,0.0,0.0,0.0
7.182,-0.356,-0.742,0.0
6.899,-0.343,-0.751,0.0
6.626,-0.331,-0.758,0.0
0.0,0.0,0.0,0.0
0.0,0.0,0.0,0.0
0.0,0.0,0.0,0.0
7.215,-0.365,-0.742,0.0
6.928,-0.352,-0.75,0.0
6.691,-0.341,-0.762,0.0
0.0,0.0,0.0,0.0
0.0,0.0,0.0,0.0
0.0,0.0,0.0,0.0
7.23,-0.373,-0.739,0.0
6.962,-0.36,-0.75,0.0
6.691,-0.348,-0.758,0.0
0.0,0.0,0.0,0.0
0.0,0.0,0.0,0.0
0.0,0.0,0.0,0.0
7.258,-0.381,-0.738,0.0
6.978,-0.368,-0.748,0.0
6.77,-0.358,-0.763,0.0
0.0,0.0,0.0,0.0
0.0,0.0,0.0,0.0
0.0,0.0,0.0,0.0
7.296,-0.39,-0.737,0.0
7.032,-0.377,-0.749,0.0
6.786,-0.366,-0.76,0.0
0.0,0.0,0.0,0.0
0.0,0.0,0.0,0.0
0.0,0.0,0.0,0.0
7.334,-0.399,-0.736,0.0
7.076,-0.386,-0.749,0.0
6.794,-0.372,-0.756,0.0
0.0,0.0,0.0,0.0
0.0,0.0,0.0,0.0
0.0,0.0,0.0,0.0
0.0,0.0,0.0,0.0
7.062,-0.392,-0.742,0.0
6.852,-0.382,-0.757,0.0
6.594,-0.369,-0.766,0.0
0.0,0.0,0.0,0.0
0.0,0.0,0.0,0.0
0.0,0.0,0.0,0.0
7.162,-0.404,-0.747,0.0
6.86,-0.388,-0.753,0.0
0.0,0.0,0.0,0.0
0.0,0.0,0.0,0.0
0.0,0.0,0.0,0.0
0.0,0.0,0.0,0.0
7.165,-0.41,-0.741,0.0
6.921,-0.397,-0.754,0.0
6.647,-0.383,-0.761,0.0
0.0,0.0,0.0,0.0
0.0,0.0,0.0,0.0
0.0,0.0,0.0,0.0
7.245,-0.42,-0.743,0.0
6.969,-0.406,-0.753,0.0
6.731,-0.393,-0.765,0.0
0.0,0.0,0.0,0.0
0.0,0.0,0.0,0.0
0.0,0.0,0.0,0.0
7.26,-0.427,-0.739,0.0
6.913,-0.408,-0.741,0.0
6.776,-0.401,-0.764,0.0
6.517,-0.387,-0.77,0.0
0.0,0.0,0.0,0.0
0.0,0.0,0.0,0.0
7.284,-0.434,-0.734,0.0
7.045,-0.421,-0.749,0.0
6.805,-0.408,-0.761,0.0
0.0,0.0,0.0,0.0
0.0,0.0,0.0,0.0
0.0,0.0,0.0,0.0
0.0,0.0,0.0,0.0
7.061,-0.427,-0.744,0.0
6.792,-0.412,-0.753,0.0
6.619,-0.403,-0.77,0.0
6.407,-0.391,-0.78,0.0
7.662,-0.466,-0.716,0.0
0.0,0.0,0.0,0.0
7.115,-0.435,-0.742,0.0
0.0,0.0,0.0,0.0
6.621,-0.407,-0.763,0.0
0.0,0.0,0.0,0.0
0.0,0.0,0.0,0.0
0.0,0.0,0.0,0.0
7.177,-0.444,-0.741,0.0
0.0,0.0,0.0,0.0
6.682,-0.415,-0.763,0.0
6.485,-0.404,-0.776,0.0
7.877,-0.49,-0.72,0.0
0.0,0.0,0.0,0.0
7.261,-0.454,-0.742,0.0
0.0,0.0,0.0,0.0
6.757,-0.424,-0.765,0.0
6.518,-0.41,-0.773,0.0
7.868,-0.494,-0.71,0.0
0.0,0.0,0.0,0.0
7.319,-0.462,-0.74,0.0
7.02,-0.444,-0.748,0.0
6.833,-0.433,-0.766,0.0
6.584,-0.418,-0.773,0.0
7.937,-0.503,-0.708,0.0
0.0,0.0,0.0,0.0
0.0,0.0,0.0,0.0
0.0,0.0,0.0,0.0
6.866,-0.439,-0.761,0.0
6.607,-0.423,-0.769,0.0
8.013,-0.512,-0.705,0.0
0.0,0.0,0.0,0.0
0.0,0.0,0.0,0.0
7.111,-0.457,-0.742,0.0
0.0,0.0,0.0,0.0
6.672,-0.431,-0.768,0.0
8.079,-0.52,-0.702,0.0
0.0,0.0,0.0,0.0
0.0,0.0,0.0,0.0
7.192,-0.466,-0.742,0.0
0.0,0.0,0.0,0.0
6.722,-0.437,-0.766,0.0
8.14,-0.528,-0.697,0.0
0.0,0.0,0.0,0.0
0.0,0.0,0.0,0.0
7.266,-0.474,-0.74,0.0
6.998,-0.458,-0.751,0.0
6.776,-0.444,-0.763,0.0
8.206,-0.536,-0.693,0.0
7.899,-0.517,-0.709,0.0
0.0,0.0,0.0,0.0
7.313,-0.48,-0.736,0.0
7.036,-0.463,-0.746,0.0
6.813,-0.449,-0.759,0.0
8.376,-0.551,-0.697,0.0
8.052,-0.53,-0.713,0.0
0.0,0.0,0.0,0.0
0.0,0.0,0.0,0.0
7.149,-0.473,-0.748,0.0
6.869,-0.455,-0.756,0.0
8.422,-0.557,-0.689,0.0
8.06,-0.534,-0.703,0.0
0.0,0.0,0.0,0.0
0.0,0.0,0.0,0.0
7.207,-0.48,-0.745,0.0
0.0,0.0,0.0,0.0
8.455,-0.562,-0.681,0.0
8.079,-0.538,-0.694,0.0
0.0,0.0,0.0,0.0
0.0,0.0,0.0,0.0
7.299,-0.488,-0.745,0.0
7.017,-0.47,-0.754,0.0
8.558,-0.571,-0.678,0.0
8.189,-0.547,-0.692,0.0
7.904,-0.529,-0.71,0.0
0.0,0.0,0.0,0.0
7.341,-0.493,-0.739,0.0
7.064,-0.475,-0.749,0.0
8.702,-0.583,-0.677,0.0
8.322,-0.558,-0.692,0.0
7.982,-0.536,-0.706,0.0
0.0,0.0,0.0,0.0
0.0,0.0,0.0,0.0
7.181,-0.484,-0.751,0.0
8.836,-0.594,-0.676,0.0
8.391,-0.565,-0.686,0.0
8.099,-0.546,-0.705,0.0
0.0,0.0,0.0,0.0
0.0,0.0,0.0,0.0
7.232,-0.489,-0.746,0.0
0.0,0.0,0.0,0.0
8.493,-0.573,-0.682,0.0
8.23,-0.556,-0.705,0.0
0.0,0.0,0.0,0.0
0.0,0.0,0.0,0.0
7.288,-0.494,-0.741,0.0
0.0,0.0,0.0,0.0
8.613,-0.582,-0.68,0.0
8.274,-0.56,-0.697,0.0
0.0,0.0,0.0,0.0
0.0,0.0,0.0,0.0
7.359,-0.499,-0.738,0.0
0.0,0.0,0.0,0.0
8.696,-0.589,-0.674,0.0
8.304,-0.563,-0.687,0.0
0.0,0.0,0.0,0.0
0.0,0.0,0.0,0.0
0.0,0.0,0.0,0.0
9.252,-0.627,-0.654,0.0
0.0,0.0,0.0,0.0
8.423,-0.571,-0.685,0.0
0.0,0.0,0.0,0.0
7.766,-0.527,-0.714,0.0
0.0,0.0,0.0,0.0
9.36,-0.634,-0.648,0.0
0.0,0.0,0.0,0.0
8.524,-0.578,-0.68,0.0
0.0,0.0,0.0,0.0
7.903,-0.537,-0.715,0.0
0.0,0.0,0.0,0.0
9.527,-0.645,-0.645,0.0
0.0,0.0,0.0,0.0
8.661,-0.587,-0.678,0.0
8.28,-0.561,-0.692,0.0
8.005,-0.543,-0.712,0.0
0.0,0.0,0.0,0.0
9.65,-0.653,-0.639,0.0
0.0,0.0,0.0,0.0
8.747,-0.592,-0.671,0.0
8.338,-0.565,-0.684,0.0
8.063,-0.546,-0.705,0.0
7.812,-0.529,-0.724,0.0
9.793,-0.662,-0.633,0.0
9.369,-0.633,-0.655,0.0
0.0,0.0,0.0,0.0
8.471,-0.573,-0.682,0.0
8.194,-0.554,-0.703,0.0
7.876,-0.533,-0.718,0.0
9.898,-0.667,-0.624,0.0
9.461,-0.638,-0.647,0.0
0.0,0.0,0.0,0.0
8.617,-0.581,-0.681,0.0
8.311,-0.56,-0.7,0.0
7.984,-0.538,-0.715,0.0
10.082,-0.678,-0.62,0.0
9.602,-0.646,-0.641,0.0
0.0,0.0,0.0,0.0
8.722,-0.586,-0.675,0.0
8.4,-0.565,-0.695,0.0
8.062,-0.542,-0.709,0.0
10.267,-0.688,-0.616,0.0
9.738,-0.652,-0.635,0.0
9.218,-0.617,-0.65,0.0
0.0,0.0,0.0,0.0
8.494,-0.569,-0.689,0.0
8.122,-0.544,-0.702,0.0
10.398,-0.694,-0.607,0.0
9.89,-0.66,-0.629,0.0
9.324,-0.622,-0.642,0.0
0.0,0.0,0.0,0.0
8.511,-0.567,-0.677,0.0
8.173,-0.545,-0.693,0.0
10.519,-0.699,-0.597,0.0
9.984,-0.663,-0.619,0.0
9.595,-0.637,-0.645,0.0
0.0,0.0,0.0,0.0
8.693,-0.576,-0.677,0.0
8.352,-0.554,-0.695,0.0
10.776,-0.712,-0.595,0.0
10.189,-0.673,-0.616,0.0
9.686,-0.639,-0.636,0.0
0.0,0.0,0.0,0.0
0.0,0.0,0.0,0.0
8.464,-0.558,-0.69,0.0
10.975,-0.721,-0.588,0.0
10.313,-0.677,-0.606,0.0
9.898,-0.649,-0.634,0.0
0.0,0.0,0.0,0.0
0.0,0.0,0.0,0.0
8.577,-0.561,-0.685,0.0
11.067,-0.722,-0.575,0.0
10.477,-0.683,-0.599,0.0
10.071,-0.656,-0.628,0.0
0.0,0.0,0.0,0.0
9.081,-0.59,-0.663,0.0
8.695,-0.565,-0.68,0.0
11.307,-0.732,-0.569,0.0
10.727,-0.694,-0.596,0.0
10.17,-0.657,-0.618,0.0
9.718,-0.627,-0.642,0.0
9.226,-0.595,-0.658,0.0
8.772,-0.565,-0.672,0.0
11.496,-0.739,-0.559,0.0
10.939,-0.702,-0.589,0.0
10.317,-0.661,-0.61,0.0
9.834,-0.629,-0.634,0.0
0.0,0.0,0.0,0.0
8.899,-0.568,-0.667,0.0
11.703,-0.745,-0.55,0.0
11.076,-0.704,-0.579,0.0
10.535,-0.669,-0.605,0.0
9.973,-0.632,-0.626,0.0
9.495,-0.601,-0.646,0.0
9.077,-0.574,-0.665,0.0
11.896,-0.75,-0.54,0.0
11.248,-0.708,-0.569,0.0
10.699,-0.673,-0.597,0.0
10.171,-0.639,-0.622,0.0
9.647,-0.605,-0.641,0.0
9.215,-0.577,-0.66,0.0
12.17,-0.76,-0.532,0.0
11.476,-0.715,-0.562,0.0
10.887,-0.677,-0.59,0.0
10.289,-0.639,-0.613,0.0
9.829,-0.609,-0.637,0.0
0.0,0.0,0.0,0.0
12.412,-0.766,-0.523,0.0
11.655,-0.718,-0.552,0.0
11.084,-0.682,-0.583,0.0
10.462,-0.642,-0.606,0.0
9.962,-0.611,-0.629,0.0
9.566,-0.585,-0.654,0.0
12.735,-0.777,-0.516,0.0
11.858,-0.722,-0.542,0.0
11.266,-0.684,-0.574,0.0
10.676,-0.647,-0.601,0.0
10.189,-0.617,-0.627,0.0
9.636,-0.582,-0.643,0.0
12.949,-0.78,-0.503,0.0
12.21,-0.734,-0.538,0.0
11.461,-0.687,-0.565,0.0
10.851,-0.649,-0.593,0.0
10.244,-0.612,-0.613,0.0
9.771,-0.582,-0.636,0.0
13.216,-0.785,-0.492,0.0
12.373,-0.733,-0.525,0.0
11.654,-0.689,-0.556,0.0
11.061,-0.653,-0.586,0.0
10.456,-0.616,-0.609,0.0
9.881,-0.58,-0.627,0.0
13.497,-0.79,-0.481,0.0
12.556,-0.733,-0.513,0.0
11.855,-0.691,-0.546,0.0
11.236,-0.653,-0.577,0.0
10.672,-0.619,-0.604,0.0
10.175,-0.588,-0.629,0.0
13.741,-0.792,-0.467,0.0
12.938,-0.744,-0.507,0.0
12.117,-0.695,-0.538,0.0
11.399,-0.652,-0.567,0.0
10.875,-0.62,-0.598,0.0
10.257,-0.584,-0.618,0.0
14.027,-0.796,-0.454,0.0
13.102,-0.741,-0.493,0.0
12.349,-0.696,-0.529,0.0
11.587,-0.652,-0.558,0.0
11.03,-0.618,-0.589,0.0
10.414,-0.582,-0.61,0.0
14.399,-0.803,-0.443,0.0
13.431,-0.746,-0.484,0.0
12.557,-0.696,-0.518,0.0
11.828,-0.653,-0.55,0.0
11.212,-0.617,-0.581,0.0
10.606,-0.582,-0.605,0.0
14.705,-0.805,-0.429,0.0
13.672,-0.746,-0.47,0.0
12.835,-0.698,-0.508,0.0
12.001,-0.65,-0.539,0.0
11.408,-0.616,-0.572,0.0
10.844,-0.584,-0.601,0.0
15.052,-0.808,-0.415,0.0
13.998,-0.748,-0.459,0.0
13.109,-0.698,-0.498,0.0
12.282,-0.652,-0.532,0.0
11.526,-0.61,-0.56,0.0
10.98,-0.579,-0.591,0.0
15.545,-0.817,-0.404,0.0
14.312,-0.749,-0.447,0.0
13.363,-0.697,-0.487,0.0
12.427,-0.646,-0.519,0.0
11.773,-0.61,-0.553,0.0
11.144,-0.575,-0.582,0.0
15.86,-0.816,-0.388,0.0
14.619,-0.749,-0.434,0.0
13.625,-0.695,-0.475,0.0
12.671,-0.644,-0.51,0.0
11.967,-0.606,-0.544,0.0
11.366,-0.573,-0.576,0.0
16.3,-0.819,-0.373,0.0
14.902,-0.746,-0.419,0.0
13.867,-0.691,-0.462,0.0
12.967,-0.643,-0.501,0.0
12.248,-0.605,-0.538,0.0
11.49,-0.565,-0.565,0.0
16.725,-0.82,-0.357,0.0
15.403,-0.752,-0.409,0.0
14.22,-0.691,-0.452,0.0
13.299,-0.644,-0.494,0.0
12.432,-0.599,-0.527,0.0
11.738,-0.563,-0.559,0.0
17.119,-0.818,-0.339,0.0
15.781,-0.751,-0.395,0.0
14.526,-0.688,-0.44,0.0
13.528,-0.637,-0.482,0.0
12.674,-0.594,-0.518,0.0
11.873,-0.554,-0.547,0.0
17.586,-0.818,-0.322,0.0
16.155,-0.748,-0.38,0.0
14.802,-0.682,-0.426,0.0
13.78,-0.631,-0.47,0.0
12.875,-0.587,-0.507,0.0
12.122,-0.55,-0.541,0.0
18.079,-0.817,-0.304,0.0
16.572,-0.745,-0.366,0.0
15.201,-0.68,-0.415,0.0
14.071,-0.626,-0.459,0.0
13.204,-0.584,-0.5,0.0
12.302,-0.542,-0.531,0.0
18.691,-0.819,-0.287,0.0
16.909,-0.737,-0.348,0.0
15.615,-0.677,-0.403,0.0
14.328,-0.618,-0.447,0.0
13.425,-0.576,-0.489,0.0
12.545,-0.535,-0.523,0.0
19.282,-0.819,-0.268,0.0
17.352,-0.732,-0.332,0.0
15.996,-0.671,-0.39,0.0
14.679,-0.612,-0.436,0.0
13.656,-0.566,-0.478,0.0
12.795,-0.527,-0.515,0.0
20.034,-0.822,-0.25,0.0
17.746,-0.724,-0.314,0.0
16.403,-0.665,-0.377,0.0
14.921,-0.601,-0.422,0.0
13.873,-0.555,-0.466,0.0
13.015,-0.518,-0.505,0.0
20.954,-0.829,-0.232,2.0
18.349,-0.721,-0.299,0.0
16.666,-0.65,-0.359,0.0
15.341,-0.595,-0.412,0.0
14.224,-0.548,-0.457,0.0
13.237,-0.506,-0.495,0.0
21.324,-0.811,-0.205,0.0
19.042,-0.72,-0.283,0.0
17.012,-0.638,-0.342,0.0
15.699,-0.585,-0.4,0.0
14.489,-0.536,-0.446,0.0
13.535,-0.497,-0.487,0.0
22.515,-0.823,-0.186,0.0
19.53,-0.708,-0.264,0.0
17.52,-0.631,-0.329,0.0
16.013,-0.572,-0.386,0.0
14.78,-0.524,-0.434,0.0
13.701,-0.482,-0.475,0.0
22.875,-0.8,-0.158,0.0
20.706,-0.718,-0.252,0.0
17.939,-0.617,-0.312,0.0
16.41,-0.56,-0.374,0.0
15.05,-0.51,-0.422,0.0
14.009,-0.471,-0.467,0.0
23.691,-0.791,-0.132,0.0
21.025,-0.696,-0.228,3.0
18.419,-0.605,-0.297,0.0
16.751,-0.545,-0.36,0.0
15.519,-0.501,-0.415,0.0
14.266,-0.456,-0.457,0.0
24.271,-0.771,-0.103,0.0
21.38,-0.673,-0.204,0.0
19.147,-0.597,-0.283,0.0
17.072,-0.528,-0.344,0.0
15.78,-0.483,-0.402,0.0
14.577,-0.442,-0.448,0.0
25.254,-0.761,-0.075,0.0
22.489,-0.671,-0.186,0.0
19.557,-0.578,-0.264,0.0
17.46,-0.511,-0.33,0.0
16.107,-0.466,-0.39,0.0
14.764,-0.423,-0.435,0.0
26.069,-0.742,-0.045,0.0
23.164,-0.652,-0.162,0.0
20.728,-0.577,-0.255,0.0
17.896,-0.493,-0.316,0.0
16.422,-0.448,-0.377,0.0
15.051,-0.406,-0.425,0.0
26.714,-0.715,-0.013,0.0
23.578,-0.624,-0.136,0.0
20.931,-0.548,-0.232,0.0
18.295,-0.473,-0.301,0.0
16.717,-0.427,-0.364,0.0
15.423,-0.39,-0.417,0.0
27.522,-0.689,0.018,0.0
24.067,-0.595,-0.11,0.0
21.989,-0.537,-0.217,0.0
18.851,-0.454,-0.288,0.0
17.028,-0.405,-0.35,0.0
15.645,-0.367,-0.404,0.0
28.526,-0.663,0.053,3.0
25.174,-0.578,-0.086,0.0
22.353,-0.506,-0.194,0.0
19.431,-0.434,-0.274,0.0
17.322,-0.381,-0.336,0.0
15.99,-0.347,-0.395,0.0
28.68,-0.616,0.086,7.0
25.832,-0.546,-0.058,0.0
23.135,-0.482,-0.175,0.0
19.766,-0.406,-0.256,0.0
17.76,-0.359,-0.324,0.0
16.277,-0.324,-0.384,0.0
28.767,-0.565,0.119,5.0
26.265,-0.507,-0.03,0.0
23.507,-0.447,-0.151,0.0
20.428,-0.382,-0.242,0.0
18.122,-0.333,-0.311,0.0
16.564,-0.299,-0.372,0.0
30.246,-0.539,0.158,0.0
26.909,-0.471,-0.001,0.0
24.07,-0.413,-0.129,0.0
21.455,-0.361,-0.231,0.0
18.404,-0.304,-0.296,0.0
16.818,-0.273,-0.36,0.0
30.91,-0.493,0.194,0.0
27.797,-0.435,0.027,0.0
24.819,-0.38,-0.107,0.0
21.975,-0.329,-0.214,1.0
18.932,-0.278,-0.285,0.0
17.036,-0.244,-0.347,0.0
31.876,-0.449,0.233,0.0
28.416,-0.391,0.057,1.0
25.158,-0.338,-0.083,0.0
22.434,-0.294,-0.196,0.0
19.411,-0.248,-0.273,0.0
17.369,-0.216,-0.337,0.0
32.617,-0.398,0.271,1.0
28.643,-0.339,0.086,1.0
25.913,-0.298,-0.06,0.0
22.868,-0.256,-0.177,0.0
19.868,-0.216,-0.26,0.0
17.635,-0.186,-0.324,0.0
33.067,-0.339,0.307,1.0
28.785,-0.286,0.114,4.0
26.309,-0.252,-0.036,0.0
23.504,-0.218,-0.16,0.0
20.352,-0.182,-0.247,0.0
18.049,-0.155,-0.315,0.0
33.763,-0.28,0.345,0.0
28.829,-0.23,0.141,2.0
26.691,-0.204,-0.011,0.0
24.005,-0.175,-0.141,0.0
21.109,-0.147,-0.237,0.0
18.278,-0.121,-0.303,0.0
35.072,-0.222,0.391,0.0
31.029,-0.186,0.18,1.0
27.256,-0.154,0.012,0.0
24.367,-0.13,-0.121,0.0
21.719,-0.108,-0.224,1.0
18.748,-0.087,-0.294,0.0
36.542,-0.159,0.439,0.0
31.478,-0.127,0.209,1.0
28.135,-0.104,0.036,1.0
24.934,-0.084,-0.103,0.0
21.979,-0.067,-0.209,0.0
19.064,-0.051,-0.283,0.0
36.842,-0.087,0.473,0.0
31.637,-0.065,0.236,0.0
28.681,-0.049,0.06,4.0
25.319,-0.035,-0.084,0.0
22.313,-0.023,-0.194,0.0
19.583,-0.014,-0.275,0.0
38.069,-0.014,0.519,0.0
33.106,-0.001,0.273,0.0
28.677,0.007,0.083,1.0
25.682,0.015,-0.066,0.0
23.086,0.021,-0.183,0.0
19.958,0.025,-0.266,0.0
39.217,0.063,0.564,0.0
33.201,0.064,0.299,0.0
28.753,0.065,0.104,1.0
26.087,0.068,-0.047,0.0
23.187,0.068,-0.167,1.0
20.274,0.066,-0.255,0.0
41.224,0.15,0.623,0.0
33.839,0.135,0.329,0.0
28.846,0.124,0.125,0.0
26.326,0.122,-0.029,0.0
23.392,0.116,-0.152,0.0
20.73,0.11,-0.246,0.0
0.0,0.0,0.0,0.0
35.321,0.212,0.368,0.0
29.074,0.185,0.146,0.0
26.738,0.179,-0.012,0.0
23.932,0.168,-0.14,0.0
21.042,0.155,-0.236,1.0
0.0,0.0,0.0,0.0
35.802,0.288,0.396,0.0
28.979,0.243,0.164,0.0
27.018,0.235,0.004,0.0
24.194,0.219,-0.126,0.0
21.612,0.203,-0.229,3.0
0.0,0.0,0.0,0.0
36.095,0.365,0.421,0.0
0.0,0.0,0.0,0.0
27.433,0.296,0.021,0.0
24.723,0.275,-0.114,0.0
21.847,0.25,-0.219,2.0
0.0,0.0,0.0,0.0
0.0,0.0,0.0,0.0
31.525,0.394,0.215,0.0
27.975,0.359,0.037,0.0
24.656,0.325,-0.1,0.0
21.897,0.296,-0.208,0.0
0.0,0.0,0.0,0.0
38.202,0.544,0.488,0.0
32.205,0.469,0.237,0.0
28.535,0.425,0.052,1.0
25.247,0.384,-0.09,0.0
22.239,0.346,-0.2,0.0
0.0,0.0,0.0,0.0
38.099,0.621,0.505,0.0
32.359,0.538,0.254,0.0
28.494,0.483,0.066,1.0
25.434,0.44,-0.079,0.0
22.438,0.395,-0.191,0.0
0.0,0.0,0.0,0.0
0.0,0.0,0.0,0.0
33.191,0.621,0.275,0.0
28.696,0.547,0.079,1.0
25.548,0.495,-0.067,0.0
22.714,0.448,-0.183,0.0
54.773,1.103,1.074,0.0
0.0,0.0,0.0,0.0
33.258,0.693,0.29,0.0
28.81,0.609,0.091,3.0
25.832,0.555,-0.058,0.0
23.023,0.502,-0.177,0.0
57.934,1.29,1.159,2.0
40.151,0.907,0.584,0.0
33.806,0.775,0.308,0.0
28.801,0.67,0.102,2.0
25.961,0.612,-0.049,0.0
23.247,0.556,-0.17,0.0
57.386,1.398,1.168,4.0
0.0,0.0,0.0,0.0
34.037,0.851,0.321,0.0
28.902,0.732,0.112,5.0
26.241,0.673,-0.041,0.0
23.529,0.612,-0.165,1.0
56.68,1.499,1.172,6.0
0.0,0.0,0.0,0.0
34.631,0.939,0.337,0.0
28.967,0.795,0.121,6.0
26.424,0.734,-0.033,0.0
23.438,0.658,-0.157,1.0
56.044,1.599,1.174,4.0
0.0,0.0,0.0,0.0
34.046,0.994,0.341,1.0
28.96,0.855,0.128,5.0
26.545,0.792,-0.027,0.0
23.339,0.704,-0.151,0.0
55.357,1.696,1.173,2.0
0.0,0.0,0.0,0.0
34.936,1.093,0.358,1.0
28.998,0.916,0.135,4.0
26.671,0.852,-0.021,0.0
23.767,0.767,-0.149,0.0
0.0,0.0,0.0,0.0
0.0,0.0,0.0,0.0
34.502,1.151,0.36,1.0
28.92,0.975,0.14,0.0
26.682,0.908,-0.016,0.0
23.864,0.819,-0.145,0.0
50.478,1.757,1.088,0.0
0.0,0.0,0.0,0.0
0.0,0.0,0.0,0.0
28.941,1.035,0.144,0.0
26.343,0.95,-0.012,1.0
23.937,0.871,-0.143,0.0
50.416,1.859,1.093,0.0
0.0,0.0,0.0,0.0
0.0,0.0,0.0,0.0
0.0,0.0,0.0,0.0
26.389,1.007,-0.01,1.0
23.86,0.918,-0.14,1.0
0.0,0.0,0.0,0.0
0.0,0.0,0.0,0.0
36.12,1.43,0.389,0.0
30.824,1.229,0.159,0.0
26.811,1.078,-0.008,0.0
23.858,0.967,-0.139,1.0
48.63,1.995,1.062,1.0
0.0,0.0,0.0,0.0
36.267,1.51,0.392,0.0
30.812,1.293,0.16,0.0
26.838,1.135,-0.008,0.0
23.599,1.005,-0.137,1.0
0.0,0.0,0.0,0.0
0.0,0.0,0.0,0.0
35.73,1.563,0.386,0.0
30.505,1.343,0.158,0.0
26.801,1.188,-0.008,1.0
23.557,1.052,-0.137,1.0
47.564,2.148,1.038,1.0
47.822,2.174,0.779,1.0
36.294,1.661,0.391,0.0
30.365,1.399,0.156,0.0
26.742,1.24,-0.009,0.0
23.436,1.094,-0.138,0.0
47.437,2.239,1.032,3.0
0.0,0.0,0.0,0.0
35.799,1.711,0.383,0.0
30.211,1.453,0.153,0.0
26.656,1.29,-0.012,0.0
23.616,1.15,-0.141,0.0
47.367,2.332,1.026,2.0
49.867,2.471,0.804,1.0
36.02,1.795,0.381,0.0
30.311,1.519,0.15,1.0
26.597,1.341,-0.015,0.0
23.563,1.195,-0.144,0.0
47.315,2.425,1.018,2.0
49.317,2.542,0.788,1.0
0.0,0.0,0.0,0.0
29.974,1.563,0.143,0.0
26.517,1.391,-0.019,0.0
23.421,1.235,-0.147,0.0
47.265,2.518,1.009,4.0
48.915,2.62,0.773,2.0
35.436,1.909,0.363,0.0
29.891,1.619,0.137,0.0
26.342,1.435,-0.024,0.0
23.364,1.279,-0.151,0.0
47.237,2.611,0.999,6.0
48.439,2.692,0.755,1.0
34.923,1.95,0.35,0.0
29.721,1.668,0.13,0.0
26.278,1.483,-0.031,0.0
23.173,1.314,-0.156,0.0
47.219,2.703,0.987,5.0
47.913,2.757,0.735,4.0
35.233,2.037,0.344,0.0
29.394,1.708,0.12,0.0
26.045,1.521,-0.037,0.0
23.019,1.35,-0.161,0.0
47.237,2.796,0.974,5.0
47.617,2.833,0.716,3.0
0.0,0.0,0.0,0.0
29.13,1.749,0.111,1.0
25.932,1.564,-0.045,0.0
22.91,1.388,-0.167,0.0
47.288,2.891,0.96,4.0
43.347,2.662,0.638,1.0
34.171,2.108,0.312,0.0
29.13,1.805,0.101,1.0
25.71,1.6,-0.053,0.0
22.812,1.427,-0.175,0.0
47.281,2.982,0.943,3.0
0.0,0.0,0.0,0.0
33.564,2.135,0.294,1.0
28.957,1.85,0.089,1.0
25.479,1.635,-0.063,0.0
22.6,1.456,-0.182,0.0
47.239,3.07,0.924,2.0
0.0,0.0,0.0,0.0
33.557,2.198,0.281,0.0
28.598,1.881,0.077,1.0
25.352,1.674,-0.073,0.0
22.363,1.483,-0.189,0.0
47.312,3.163,0.905,1.0
41.876,2.81,0.567,0.0
32.902,2.217,0.261,0.0
28.304,1.915,0.064,1.0
24.96,1.695,-0.083,0.0
22.22,1.515,-0.198,0.0
50.942,3.5,0.951,0.0
0.0,0.0,0.0,0.0
32.257,2.233,0.241,0.0
28.003,1.946,0.05,1.0
24.575,1.714,-0.093,1.0
21.892,1.533,-0.206,0.0
52.065,3.673,0.947,2.0
0.0,0.0,0.0,0.0
32.24,2.291,0.225,0.0
27.657,1.972,0.035,0.0
24.211,1.733,-0.104,1.0
21.695,1.559,-0.215,0.0
51.687,3.741,0.913,3.0
39.195,2.847,0.472,0.0
31.771,2.315,0.204,0.0
27.252,1.993,0.02,1.0
24.11,1.769,-0.117,3.0
21.48,1.582,-0.225,0.0
51.296,3.804,0.877,3.0
37.247,2.771,0.428,0.0
31.335,2.34,0.184,0.0
26.869,2.013,0.004,1.0
24.002,1.804,-0.131,3.0
21.133,1.594,-0.233,0.0
48.106,3.653,0.794,0.0
37.024,2.821,0.403,0.0
30.426,2.325,0.16,0.0
26.476,2.03,-0.011,0.0
23.849,1.835,-0.144,1.0
20.863,1.61,-0.243,0.0
48.013,3.731,0.763,3.0
36.682,2.859,0.376,0.0
29.888,2.336,0.138,1.0
26.053,2.043,-0.028,1.0
23.152,1.821,-0.155,0.0
20.543,1.621,-0.253,0.0
47.99,3.812,0.731,3.0
35.617,2.837,0.342,1.0
29.744,2.376,0.118,2.0
25.714,2.06,-0.045,0.0
22.765,1.83,-0.168,1.0
20.281,1.635,-0.264,0.0
47.914,3.887,0.696,1.0
0.0,0.0,0.0,0.0
29.536,2.409,0.096,1.0
25.464,2.083,-0.062,0.0
22.591,1.854,-0.183,1.0
19.751,1.625,-0.271,0.0
47.331,3.918,0.654,1.0
33.642,2.793,0.275,0.0
28.763,2.394,0.073,0.0
24.972,2.084,-0.079,0.0
22.212,1.859,-0.196,1.0
19.388,1.627,-0.28,0.0
42.298,3.57,0.553,0.0
32.932,2.787,0.245,0.0
27.965,2.372,0.05,0.0
24.631,2.095,-0.097,0.0
21.79,1.858,-0.209,1.0
19.185,1.641,-0.292,0.0
0.0,0.0,0.0,0.0
32.339,2.788,0.215,1.0
27.317,2.361,0.027,1.0
24.175,2.094,-0.114,0.0
21.576,1.874,-0.224,1.0
18.705,1.629,-0.3,0.0
0.0,0.0,0.0,0.0
31.818,2.792,0.186,0.0
26.579,2.338,0.005,1.0
23.819,2.101,-0.132,0.0
21.206,1.875,-0.237,0.0
18.435,1.634,-0.31,0.0
0.0,0.0,0.0,0.0
29.287,2.615,0.147,0.0
26.129,2.338,-0.016,1.0
23.0,2.063,-0.146,0.0
20.793,1.87,-0.25,0.0
18.198,1.64,-0.322,0.0
0.0,0.0,0.0,0.0
29.247,2.655,0.122,3.0
25.905,2.357,-0.038,2.0
22.698,2.07,-0.164,1.0
20.193,1.845,-0.26,0.0
17.928,1.642,-0.333,0.0
34.467,3.173,0.308,0.0
29.209,2.694,0.096,5.0
25.632,2.369,-0.06,1.0
22.171,2.054,-0.18,2.0
19.639,1.823,-0.271,0.0
17.545,1.632,-0.341,0.0
33.816,3.161,0.272,0.0
29.108,2.727,0.069,2.0
24.875,2.335,-0.081,0.0
21.807,2.051,-0.197,4.0
19.311,1.82,-0.284,0.0
17.328,1.637,-0.353,0.0
32.684,3.101,0.233,0.0
27.977,2.66,0.04,0.0
24.315,2.316,-0.102,0.0
21.504,2.052,-0.215,4.0
18.941,1.811,-0.296,0.0
17.067,1.635,-0.364,0.0
32.02,3.082,0.197,0.0
27.244,2.627,0.013,0.0
23.92,2.31,-0.123,0.0
21.328,2.064,-0.233,4.0
18.513,1.795,-0.308,0.0
16.813,1.633,-0.375,0.0
29.322,2.861,0.152,2.0
26.305,2.571,-0.012,1.0
23.282,2.279,-0.143,0.0
20.869,2.047,-0.249,0.0
18.123,1.781,-0.319,0.0
16.511,1.625,-0.385,0.0
29.294,2.895,0.123,2.0
26.01,2.575,-0.038,1.0
22.444,2.226,-0.16,0.0
19.942,1.981,-0.258,0.0
17.749,1.766,-0.33,0.0
16.254,1.62,-0.395,0.0
29.161,2.918,0.093,1.0
25.463,2.552,-0.063,0.0
22.08,2.217,-0.18,3.0
19.479,1.959,-0.272,0.0
17.543,1.767,-0.344,0.0
15.992,1.614,-0.405,0.0
28.891,2.926,0.062,1.0
24.686,2.504,-0.086,0.0
21.76,2.21,-0.2,4.0
19.153,1.949,-0.287,0.0
17.242,1.757,-0.356,0.0
15.795,1.612,-0.417,0.0
27.671,2.835,0.031,0.0
24.128,2.475,-0.11,0.0
21.367,2.195,-0.219,2.0
18.754,1.93,-0.301,0.0
17.014,1.753,-0.37,0.0
15.537,1.604,-0.426,0.0
26.616,2.756,0.001,0.0
23.62,2.45,-0.133,0.0
21.049,2.186,-0.238,0.0
18.3,1.903,-0.313,0.0
16.676,1.737,-0.381,0.0
15.294,1.595,-0.436,0.0
26.117,2.733,-0.026,1.0
22.969,2.407,-0.154,0.0
20.342,2.134,-0.253,0.0
18.002,1.891,-0.328,0.0
16.365,1.722,-0.392,0.0
15.031,1.584,-0.446,0.0
25.766,2.723,-0.054,1.0
21.876,2.315,-0.171,0.0
19.636,2.081,-0.266,0.0
17.529,1.86,-0.339,0.0
16.093,1.71,-0.403,0.0
14.789,1.573,-0.455,0.0
24.442,2.608,-0.079,1.0
21.642,2.312,-0.194,2.0
19.302,2.064,-0.283,0.0
17.295,1.852,-0.354,0.0
15.839,1.698,-0.415,0.0
14.514,1.558,-0.463,0.0
24.186,2.604,-0.105,1.0
21.393,2.305,-0.216,2.0
18.804,2.029,-0.297,0.0
16.976,1.834,-0.366,0.0
15.618,1.689,-0.427,0.0
14.253,1.543,-0.471,0.0
23.914,2.596,-0.131,0.0
21.082,2.291,-0.236,0.0
18.477,2.01,-0.312,0.0
16.678,1.816,-0.379,0.0
15.244,1.662,-0.434,0.0
14.044,1.533,-0.48,0.0
23.001,2.517,-0.153,0.0
20.339,2.228,-0.251,0.0
17.966,1.97,-0.324,0.0
16.23,1.781,-0.388,0.0
15.026,1.651,-0.445,0.0
13.825,1.521,-0.488,0.0
22.111,2.438,-0.173,0.0
19.844,2.19,-0.268,0.0
17.609,1.945,-0.339,0.0
16.085,1.778,-0.403,0.0
14.768,1.635,-0.455,0.0
13.61,1.508,-0.497,0.0
21.433,2.38,-0.193,1.0
19.306,2.146,-0.284,0.0
17.315,1.926,-0.354,0.0
15.788,1.758,-0.414,0.0
14.467,1.613,-0.463,0.0
13.425,1.498,-0.506,0.0
21.311,2.382,-0.217,1.0
18.692,2.091,-0.297,0.0
17.014,1.905,-0.368,0.0
15.524,1.74,-0.426,0.0
14.123,1.584,-0.468,0.0
13.245,1.487,-0.515,0.0
20.787,2.338,-0.236,0.0
18.32,2.062,-0.313,0.0
16.713,1.883,-0.381,0.0
15.228,1.717,-0.436,0.0
13.894,1.568,-0.478,0.0
13.06,1.475,-0.524,0.0
20.268,2.293,-0.255,0.0
17.901,2.027,-0.327,0.0
16.314,1.848,-0.392,0.0
15.004,1.701,-0.448,0.0
13.728,1.558,-0.489,0.0
12.872,1.462,-0.532,0.0
19.629,2.233,-0.271,0.0
17.503,1.992,-0.341,0.0
16.01,1.824,-0.404,0.0
14.701,1.676,-0.457,0.0
13.568,1.548,-0.499,0.0
12.659,1.445,-0.539,0.0
19.077,2.181,-0.286,0.0
17.23,1.971,-0.357,0.0
15.711,1.798,-0.416,0.0
14.364,1.645,-0.464,0.0
13.353,1.531,-0.508,0.0
12.515,1.436,-0.548,0.0
18.676,2.145,-0.303,0.0
16.877,1.939,-0.371,0.0
15.448,1.776,-0.428,0.0
14.126,1.625,-0.474,0.0
13.132,1.512,-0.516,0.0
12.445,1.434,-0.56,0.0
18.23,2.102,-0.318,0.0
16.574,1.912,-0.384,0.0
15.197,1.754,-0.439,0.0
13.899,1.605,-0.483,0.0
12.988,1.501,-0.526,0.0
12.195,1.41,-0.564,0.0
17.707,2.049,-0.33,0.0
16.23,1.879,-0.396,0.0
14.869,1.722,-0.448,0.0
13.628,1.58,-0.49,0.0
12.866,1.492,-0.536,0.0
11.982,1.391,-0.569,0.0
17.369,2.017,-0.345,0.0
15.935,1.851,-0.408,0.0
14.604,1.697,-0.458,0.0
13.443,1.563,-0.5,0.0
12.631,1.47,-0.542,0.0
11.804,1.374,-0.575,0.0
17.098,1.991,-0.361,0.0
15.63,1.821,-0.419,0.0
14.293,1.666,-0.465,0.0
13.248,1.545,-0.509,0.0
12.482,1.456,-0.551,0.0
11.729,1.369,-0.585,0.0
16.774,1.958,-0.375,0.0
15.316,1.788,-0.43,0.0
14.053,1.641,-0.475,0.0
13.083,1.529,-0.519,0.0
12.38,1.448,-0.562,0.0
11.525,1.348,-0.589,0.0
16.375,1.915,-0.386,0.0
15.103,1.767,-0.442,0.0
13.817,1.617,-0.484,0.0
12.927,1.514,-0.528,0.0
12.206,1.43,-0.569,0.0
11.378,1.333,-0.596,0.0
16.088,1.885,-0.398,0.0
14.791,1.733,-0.451,0.0
13.629,1.598,-0.494,0.0
12.747,1.495,-0.536,0.0
11.957,1.403,-0.572,0.0
11.275,1.323,-0.604,0.0
15.907,1.866,-0.413,0.0
14.483,1.699,-0.459,0.0
13.437,1.577,-0.503,0.0
12.549,1.473,-0.543,0.0
11.783,1.384,-0.578,0.0
11.091,1.303,-0.608,0.0
15.542,1.825,-0.422,0.0
14.199,1.667,-0.467,0.0
13.234,1.554,-0.512,0.0
12.418,1.459,-0.553,0.0
11.635,1.367,-0.585,0.0
10.964,1.289,-0.614,0.0
15.271,1.794,-0.433,0.0
13.98,1.642,-0.477,0.0
13.056,1.534,-0.52,0.0
12.252,1.44,-0.56,0.0
11.455,1.347,-0.589,0.0
10.874,1.279,-0.622,0.0
15.017,1.764,-0.444,0.0
13.751,1.616,-0.486,0.0
12.886,1.514,-0.529,0.0
12.13,1.426,-0.569,0.0
11.314,1.33,-0.595,0.0
10.748,1.264,-0.627,0.0
14.745,1.732,-0.453,0.0
13.535,1.59,-0.494,0.0
12.679,1.489,-0.535,0.0
11.891,1.397,-0.571,0.0
11.243,1.321,-0.605,0.0
10.562,1.241,-0.629,0.0
14.39,1.689,-0.459,0.0
13.373,1.57,-0.503,0.0
12.541,1.472,-0.544,0.0
11.731,1.377,-0.577,0.0
11.084,1.301,-0.609,0.0
10.437,1.226,-0.634,0.0
14.162,1.661,-0.468,0.0
13.187,1.546,-0.512,0.0
12.422,1.456,-0.553,0.0
11.584,1.358,-0.584,0.0
10.97,1.286,-0.616,0.0
10.341,1.213,-0.64,0.0
13.914,1.629,-0.476,0.0
12.99,1.521,-0.519,0.0
12.275,1.437,-0.561,0.0
11.441,1.339,-0.59,0.0
10.897,1.276,-0.624,0.0
10.276,1.203,-0.648,0.0
13.741,1.606,-0.486,0.0
12.876,1.505,-0.529,0.0
12.063,1.409,-0.565,0.0
11.332,1.324,-0.597,0.0
10.687,1.249,-0.624,0.0
10.14,1.185,-0.65,0.0
13.571,1.583,-0.495,0.0
12.674,1.478,-0.535,0.0
11.923,1.39,-0.571,0.0
11.211,1.307,-0.603,0.0
10.649,1.241,-0.634,0.0
10.025,1.169,-0.654,0.0
13.335,1.551,-0.501,0.0
12.532,1.457,-0.543,0.0
11.77,1.368,-0.577,0.0
11.043,1.284,-0.606,0.0
10.459,1.216,-0.634,0.0
9.932,1.154,-0.659,0.0
13.21,1.532,-0.511,0.0
12.461,1.445,-0.553,0.0
11.597,1.344,-0.581,0.0
10.956,1.27,-0.613,0.0
10.345,1.199,-0.638,0.0
9.783,1.133,-0.66,0.0
13.039,1.507,-0.518,0.0
12.243,1.415,-0.556,0.0
11.496,1.328,-0.588,0.0
10.846,1.253,-0.618,0.0
10.304,1.19,-0.647,0.0
9.75,1.126,-0.668,0.0
12.846,1.479,-0.524,0.0
12.145,1.398,-0.565,0.0
11.341,1.305,-0.592,0.0
10.755,1.237,-0.624,0.0
10.148,1.167,-0.648,0.0
9.567,1.1,-0.665,0.0
12.72,1.459,-0.532,0.0
12.041,1.38,-0.572,0.0
11.248,1.289,-0.599,0.0
10.637,1.218,-0.629,0.0
10.106,1.157,-0.655,0.0
9.521,1.09,-0.672,0.0
12.586,1.437,-0.539,0.0
11.786,1.345,-0.572,0.0
11.106,1.267,-0.603,0.0
10.518,1.199,-0.632,0.0
9.906,1.129,-0.652,0.0
9.397,1.071,-0.673,0.0
12.483,1.418,-0.547,0.0
11.683,1.327,-0.579,0.0
11.032,1.252,-0.61,0.0
10.377,1.177,-0.634,0.0
9.808,1.112,-0.655,0.0
9.362,1.061,-0.679,0.0
12.358,1.397,-0.553,0.0
11.543,1.304,-0.583,0.0
10.91,1.231,-0.613,0.0
10.315,1.164,-0.64,0.0
9.739,1.098,-0.66,0.0
9.306,1.049,-0.684,0.0
12.199,1.371,-0.558,0.0
11.442,1.285,-0.589,0.0
10.802,1.212,-0.617,0.0
10.181,1.142,-0.641,0.0
9.642,1.081,-0.663,0.0
9.166,1.027,-0.683,0.0
12.117,1.353,-0.565,0.0
11.291,1.26,-0.591,0.0
10.694,1.193,-0.621,0.0
10.14,1.13,-0.648,0.0
9.569,1.066,-0.666,0.0
9.059,1.009,-0.683,0.0
11.987,1.33,-0.57,0.0
11.199,1.242,-0.596,0.0
10.587,1.173,-0.624,0.0
9.984,1.106,-0.647,0.0
9.512,1.053,-0.671,0.0
9.111,1.008,-0.695,0.0
11.852,1.306,-0.574,0.0
11.086,1.221,-0.6,0.0
10.506,1.156,-0.629,0.0
9.942,1.093,-0.653,0.0
9.452,1.039,-0.675,0.0
8.924,0.98,-0.688,0.0
11.682,1.278,-0.576,0.0
11.001,1.203,-0.605,0.0
10.408,1.137,-0.632,0.0
9.858,1.076,-0.656,0.0
9.379,1.023,-0.677,0.0
8.868,0.967,-0.691,0.0
11.567,1.256,-0.579,0.0
10.929,1.186,-0.61,0.0
10.399,1.127,-0.639,0.0
9.726,1.053,-0.655,0.0
9.299,1.006,-0.679,0.0
8.822,0.954,-0.695,0.0
11.459,1.234,-0.583,0.0
10.852,1.168,-0.614,0.0
10.236,1.1,-0.637,0.0
9.672,1.039,-0.659,0.0
9.263,0.994,-0.684,0.0
8.85,0.949,-0.704,0.0
11.363,1.214,-0.587,0.0
10.779,1.15,-0.618,0.0
10.155,1.082,-0.64,0.0
9.592,1.022,-0.66,0.0
9.211,0.98,-0.687,0.0
8.692,0.924,-0.698,0.0
11.285,1.195,-0.591,0.0
10.685,1.13,-0.62,0.0
10.126,1.07,-0.646,0.0
9.549,1.008,-0.664,0.0
9.118,0.961,-0.686,0.0
8.691,0.916,-0.704,0.0
11.236,1.178,-0.596,0.0
10.613,1.112,-0.623,0.0
9.97,1.043,-0.643,0.0
9.515,0.995,-0.668,0.0
9.035,0.944,-0.686,0.0
8.553,0.892,-0.699,0.0
11.125,1.155,-0.598,0.0
10.534,1.093,-0.626,0.0
9.998,1.036,-0.651,0.0
9.422,0.975,-0.668,0.0
9.005,0.931,-0.69,0.0
8.573,0.886,-0.706,0.0
11.01,1.132,-0.599,0.0
10.466,1.075,-0.628,0.0
9.878,1.013,-0.649,0.0
9.425,0.966,-0.674,0.0
8.932,0.914,-0.69,0.0
8.499,0.869,-0.705,0.0
10.978,1.117,-0.603,0.0
10.368,1.054,-0.629,0.0
9.838,0.999,-0.652,0.0
9.328,0.946,-0.673,0.0
0.0,0.0,0.0,0.0
8.469,0.857,-0.707,0.0
10.91,1.098,-0.606,0.0
10.384,1.044,-0.635,0.0
9.772,0.981,-0.653,0.0
9.256,0.928,-0.672,0.0
8.857,0.887,-0.694,0.0
8.455,0.846,-0.711,0.0
10.874,1.082,-0.609,0.0
10.304,1.024,-0.636,0.0
9.679,0.961,-0.652,0.0
0.0,0.0,0.0,0.0
8.808,0.872,-0.695,0.0
8.395,0.83,-0.71,0.0
10.804,1.063,-0.611,0.0
10.215,1.003,-0.635,0.0
9.675,0.949,-0.657,0.0
0.0,0.0,0.0,0.0
8.72,0.853,-0.692,0.0
8.407,0.821,-0.715,0.0
10.771,1.047,-0.614,0.0
10.142,0.984,-0.636,0.0
9.672,0.937,-0.661,0.0
0.0,0.0,0.0,0.0
8.729,0.843,-0.696,0.0
8.332,0.804,-0.712,0.0
10.713,1.028,-0.615,0.0
10.151,0.972,-0.64,0.0
9.638,0.922,-0.663,0.0
0.0,0.0,0.0,0.0
8.705,0.83,-0.698,0.0
8.336,0.794,-0.716,0.0
10.682,1.012,-0.618,0.0
10.093,0.954,-0.641,0.0
9.575,0.904,-0.662,0.0
0.0,0.0,0.0,0.0
8.662,0.815,-0.698,0.0
8.298,0.78,-0.715,0.0
10.608,0.991,-0.617,0.0
10.02,0.935,-0.639,0.0
9.555,0.89,-0.664,0.0
0.0,0.0,0.0,0.0
8.612,0.799,-0.697,0.0
8.312,0.77,-0.719,0.0
10.597,0.976,-0.62,0.0
10.005,0.92,-0.642,0.0
9.5,0.872,-0.663,0.0
0.0,0.0,0.0,0.0
8.649,0.791,-0.702,0.0
8.266,0.755,-0.718,0.0
10.583,0.961,-0.622,0.0
10.014,0.908,-0.645,0.0
9.488,0.858,-0.664,0.0
0.0,0.0,0.0,0.0
8.661,0.781,-0.705,0.0
8.266,0.744,-0.72,0.0
10.564,0.945,-0.623,0.0
9.976,0.891,-0.645,0.0
9.468,0.844,-0.665,0.0
8.991,0.8,-0.683,0.0
8.636,0.767,-0.705,0.0
8.246,0.731,-0.72,0.0
10.506,0.926,-0.622,0.0
9.932,0.873,-0.644,0.0
9.494,0.833,-0.669,0.0
8.982,0.787,-0.684,0.0
8.597,0.751,-0.703,0.0
8.24,0.719,-0.721,0.0
0.0,0.0,0.0,0.0
30.694,-0.325,0.195,0.0
27.128,-0.296,0.021,0.0
24.075,-0.272,-0.116,0.0
20.987,-0.244,-0.218,0.0
18.314,-0.22,-0.291,0.0
0.0,0.0,0.0,0.0
30.684,-0.389,0.186,0.0
26.812,-0.35,0.014,0.0
23.607,-0.317,-0.12,0.0
20.973,-0.289,-0.223,0.0
18.239,-0.258,-0.295,0.0
34.315,-0.496,0.39,0.0
30.132,-0.447,0.176,0.0
26.591,-0.404,0.008,0.0
23.742,-0.369,-0.126,1.0
20.848,-0.331,-0.226,0.0
18.139,-0.295,-0.297,0.0
34.025,-0.564,0.38,1.0
0.0,0.0,0.0,0.0
26.625,-0.46,0.003,0.0
23.78,-0.42,-0.131,0.0
20.716,-0.374,-0.228,0.0
18.177,-0.334,-0.301,0.0
34.092,-0.637,0.375,1.0
28.786,-0.549,0.157,2.0
26.612,-0.517,-0.001,0.0
23.721,-0.469,-0.134,0.0
20.445,-0.412,-0.228,0.0
18.071,-0.371,-0.302,0.0
34.278,-0.714,0.372,1.0
28.753,-0.609,0.154,3.0
26.573,-0.573,-0.004,0.0
23.621,-0.518,-0.136,0.0
20.375,-0.454,-0.23,0.0
18.054,-0.409,-0.303,0.0
33.903,-0.778,0.365,0.0
28.762,-0.67,0.151,4.0
26.528,-0.628,-0.006,0.0
23.737,-0.571,-0.139,1.0
20.261,-0.495,-0.23,0.0
18.002,-0.446,-0.304,0.0
33.766,-0.847,0.362,0.0
28.745,-0.731,0.15,3.0
26.585,-0.686,-0.007,0.0
23.365,-0.611,-0.137,0.0
20.722,-0.55,-0.236,0.0
18.024,-0.485,-0.304,0.0
33.912,-0.922,0.363,0.0
28.649,-0.789,0.149,0.0
26.417,-0.737,-0.007,0.0
23.422,-0.662,-0.138,0.0
20.873,-0.598,-0.237,0.0
17.993,-0.522,-0.304,0.0
34.146,-1.001,0.366,0.0
28.702,-0.851,0.15,0.0
26.614,-0.799,-0.007,0.0
23.455,-0.713,-0.137,0.0
20.914,-0.644,-0.237,0.0
18.046,-0.562,-0.304,0.0
0.0,0.0,0.0,0.0
28.613,-0.909,0.151,0.0
26.648,-0.856,-0.005,0.0
23.572,-0.766,-0.136,0.0
20.89,-0.687,-0.235,1.0
18.06,-0.601,-0.302,0.0
34.573,-1.158,0.376,0.0
29.789,-1.009,0.16,0.0
26.902,-0.921,-0.002,0.0
23.632,-0.818,-0.134,0.0
20.928,-0.732,-0.233,1.0
18.112,-0.64,-0.301,0.0
34.263,-1.219,0.377,0.0
28.698,-1.032,0.158,1.0
26.793,-0.973,0.001,0.0
0.0,0.0,0.0,0.0
20.94,-0.776,-0.23,1.0
18.11,-0.678,-0.298,0.0
34.405,-1.296,0.384,0.0
28.735,-1.093,0.164,1.0
27.004,-1.037,0.006,0.0
23.757,-0.921,-0.126,1.0
20.962,-0.82,-0.226,2.0
18.206,-0.719,-0.296,0.0
35.384,-1.406,0.403,0.0
28.69,-1.15,0.169,0.0
27.078,-1.096,0.012,0.0
23.71,-0.968,-0.121,0.0
21.021,-0.866,-0.222,2.0
18.259,-0.759,-0.293,0.0
0.0,0.0,0.0,0.0
28.956,-1.221,0.178,0.0
0.0,0.0,0.0,0.0
23.804,-1.021,-0.115,1.0
21.084,-0.912,-0.217,2.0
18.4,-0.803,-0.29,0.0
145.896,-11.864,14.427,13.0
144.847,-11.737,13.51,14.0
145.708,-11.767,12.772,8.0
145.345,-11.696,11.911,15.0
145.33,-11.654,11.097,11.0
148.706,-11.885,10.525,7.0
145.673,-11.649,14.418,13.0
146.229,-11.652,13.65,5.0
145.892,-11.583,12.8,12.0
145.263,-11.491,11.915,16.0
145.335,-11.458,11.106,8.0
149.431,-11.739,10.583,12.0
145.692,-11.451,14.427,19.0
146.283,-11.455,13.661,11.0
145.813,-11.376,12.796,14.0
147.061,-11.432,12.066,8.0
152.588,-11.818,11.663,8.0
149.259,-11.52,10.572,7.0
145.942,-11.269,14.452,13.0
119.003,-9.154,11.113,3.0
119.299,-9.141,10.468,9.0
88.009,-6.718,7.218,1.0
147.228,-11.198,11.25,18.0
155.077,-11.752,10.98,9.0
147.092,-11.151,14.559,3.0
145.588,-10.995,13.589,10.0
119.364,-8.98,10.467,17.0
88.015,-6.596,7.213,20.0
147.069,-10.98,11.228,11.0
147.455,-10.969,10.429,3.0
146.156,-10.874,14.456,13.0
146.796,-10.878,13.689,14.0
119.07,-8.79,10.43,14.0
119.096,-8.757,9.749,8.0
119.286,-8.738,9.093,8.0
122.071,-8.909,8.619,8.0
146.53,-10.693,14.473,12.0
145.563,-10.58,13.554,8.0
119.13,-8.624,10.419,13.0
119.514,-8.618,9.765,8.0
119.482,-8.581,9.09,13.0
122.14,-8.739,8.604,9.0
91.517,-6.548,9.024,10.0
118.696,-8.456,11.032,8.0
118.878,-8.436,10.375,9.0
87.956,-6.216,7.17,11.0
119.107,-8.383,9.038,13.0
122.251,-8.569,8.588,9.0
91.575,-6.417,9.011,13.0
117.568,-8.205,10.9,16.0
88.195,-6.129,7.678,7.0
88.047,-6.094,7.157,17.0
117.651,-8.11,8.899,4.0
122.023,-8.376,8.542,12.0
113.488,-7.787,11.138,3.0
118.518,-8.098,10.958,7.0
88.255,-6.004,7.658,16.0
88.127,-5.97,7.14,20.0
118.991,-8.028,8.967,8.0
119.368,-8.02,8.32,7.0
91.743,-6.161,8.976,9.0
91.731,-6.133,8.453,7.0
88.431,-5.886,7.646,25.0
88.305,-5.852,7.126,12.0
117.789,-7.773,8.838,11.0
121.057,-7.954,8.398,9.0
91.573,-6.013,8.928,9.0
116.904,-7.641,10.732,9.0
88.625,-5.768,7.632,21.0
88.379,-5.726,7.099,17.0
117.865,-7.603,8.799,5.0
88.937,-5.712,6.137,13.0
87.107,-5.589,8.459,23.0
117.388,-7.498,10.729,9.0
88.693,-5.64,7.602,27.0
88.548,-5.605,7.077,17.0
94.443,-5.952,7.012,7.0
89.152,-5.594,6.114,12.0
87.264,-5.469,8.436,21.0
88.625,-5.529,8.062,20.0
0.0,0.0,0.0,0.0
88.531,-5.473,7.036,10.0
87.657,-5.394,6.468,8.0
89.239,-5.466,6.078,6.0
87.644,-5.361,8.431,15.0
88.861,-5.41,8.04,14.0
89.832,-5.444,7.616,18.0
88.607,-5.344,6.998,21.0
87.805,-5.272,6.435,6.0
89.084,-5.324,6.023,17.0
87.867,-5.244,8.407,32.0
88.878,-5.279,7.996,30.0
93.182,-5.508,7.85,12.0
88.472,-5.203,6.939,30.0
98.447,-5.763,7.162,8.0
89.258,-5.201,5.986,14.0
87.816,-5.108,8.352,22.0
88.771,-5.139,7.936,17.0
89.006,-5.127,7.447,12.0
88.476,-5.071,6.889,16.0
87.978,-5.019,6.348,18.0
92.139,-5.23,6.124,11.0
86.834,-4.92,8.207,19.0
93.444,-5.267,8.295,16.0
89.068,-4.996,7.397,20.0
88.771,-4.954,6.855,16.0
87.946,-4.883,6.29,17.0
89.871,-4.966,5.916,12.0
87.017,-4.798,8.166,21.0
89.303,-4.899,7.869,16.0
88.719,-4.842,7.309,19.0
88.635,-4.814,6.786,15.0
87.927,-4.751,6.23,26.0
89.786,-4.827,5.849,14.0
87.213,-4.678,8.124,14.0
89.042,-4.752,7.783,14.0
88.666,-4.706,7.242,22.0
88.614,-4.68,6.722,16.0
88.158,-4.632,6.184,20.0
108.593,-5.676,6.997,10.0
87.744,-4.576,8.11,11.0
88.784,-4.605,7.695,11.0
89.656,-4.626,7.257,17.0
88.655,-4.549,6.658,12.0
88.022,-4.493,6.106,14.0
108.829,-5.526,6.928,16.0
89.022,-4.508,8.158,4.0
90.562,-4.561,7.778,17.0
89.269,-4.471,7.154,23.0
89.128,-4.44,6.623,19.0
92.094,-4.564,6.315,11.0
92.033,-4.536,5.784,17.0
86.912,-4.27,7.893,15.0
89.644,-4.381,7.625,13.0
89.259,-4.337,7.079,10.0
89.163,-4.308,6.55,22.0
91.814,-4.412,6.218,15.0
94.733,-4.528,5.874,7.0
86.996,-4.144,7.825,28.0
89.786,-4.253,7.559,14.0
88.077,-4.149,6.908,15.0
88.989,-4.168,6.459,23.0
91.277,-4.251,6.101,25.0
94.83,-4.392,5.796,14.0
87.011,-4.016,7.748,23.0
90.488,-4.151,7.535,13.0
87.8,-4.005,6.805,25.0
0.0,0.0,0.0,0.0
90.69,-4.09,5.978,21.0
89.563,-4.016,5.389,18.0
87.46,-3.906,7.704,10.0
91.059,-4.043,7.496,17.0
87.975,-3.883,6.734,15.0
91.006,-3.993,6.433,19.0
90.907,-3.965,5.903,19.0
97.932,-4.246,5.797,17.0
79.413,-3.43,6.916,9.0
88.211,-3.787,7.172,20.0
88.637,-3.782,6.696,19.0
88.729,-3.764,6.183,12.0
0.0,0.0,0.0,0.0
98.541,-4.13,5.734,21.0
88.369,-3.687,7.605,7.0
87.926,-3.647,7.058,13.0
88.53,-3.649,6.596,25.0
88.199,-3.613,6.054,22.0
97.345,-3.963,6.121,11.0
99.111,-4.01,5.662,14.0
87.799,-3.536,7.461,11.0
87.941,-3.519,6.965,21.0
88.525,-3.52,6.499,16.0
88.252,-3.487,5.961,10.0
98.966,-3.886,6.114,12.0
99.491,-3.882,5.574,26.0
79.926,-3.103,6.702,30.0
79.984,-3.085,6.244,22.0
87.469,-3.352,6.323,22.0
97.484,-3.712,6.475,15.0
98.199,-3.715,5.955,18.0
113.269,-4.258,6.217,24.0
80.095,-2.995,6.625,11.0
87.566,-3.253,6.735,8.0
87.748,-3.237,6.241,27.0
98.16,-3.598,6.404,15.0
98.835,-3.599,5.878,16.0
113.358,-4.102,6.089,6.0
80.081,-2.881,6.527,24.0
87.916,-3.142,6.657,15.0
87.73,-3.114,6.134,28.0
98.095,-3.459,6.282,12.0
99.165,-3.473,5.777,17.0
190.143,-6.616,9.984,19.0
8.038,-0.615,-0.705,0.0
0.0,0.0,0.0,0.0
0.0,0.0,0.0,0.0
0.0,0.0,0.0,0.0
6.857,-0.531,-0.754,0.0
6.634,-0.515,-0.766,0.0
8.07,-0.625,-0.703,0.0
0.0,0.0,0.0,0.0
0.0,0.0,0.0,0.0
7.162,-0.559,-0.743,0.0
6.868,-0.538,-0.75,0.0
6.654,-0.523,-0.764,0.0
8.088,-0.634,-0.699,0.0
7.792,-0.612,-0.717,0.0
0.0,0.0,0.0,0.0
7.178,-0.567,-0.74,0.0
0.0,0.0,0.0,0.0
6.704,-0.532,-0.765,0.0
8.113,-0.643,-0.696,0.0
0.0,0.0,0.0,0.0
0.0,0.0,0.0,0.0
7.194,-0.575,-0.736,0.0
0.0,0.0,0.0,0.0
6.721,-0.54,-0.761,0.0
8.108,-0.65,-0.689,0.0
7.864,-0.632,-0.711,0.0
0.0,0.0,0.0,0.0
7.233,-0.584,-0.734,0.0
7.036,-0.569,-0.753,0.0
6.764,-0.549,-0.761,0.0
8.151,-0.66,-0.686,0.0
7.924,-0.643,-0.711,0.0
0.0,0.0,0.0,0.0
7.279,-0.594,-0.733,0.0
0.0,0.0,0.0,0.0
6.803,-0.557,-0.76,0.0
8.265,-0.676,-0.689,0.0
7.948,-0.651,-0.706,0.0
0.0,0.0,0.0,0.0
0.0,0.0,0.0,0.0
7.062,-0.583,-0.744,0.0
6.809,-0.563,-0.755,0.0
8.3,-0.685,-0.685,0.0
7.983,-0.66,-0.703,0.0
0.0,0.0,0.0,0.0
0.0,0.0,0.0,0.0
7.091,-0.59,-0.741,0.0
6.87,-0.573,-0.755,0.0
8.369,-0.697,-0.684,0.0
8.061,-0.673,-0.702,0.0
0.0,0.0,0.0,0.0
0.0,0.0,0.0,0.0
7.194,-0.604,-0.745,0.0
6.885,-0.579,-0.751,0.0
8.433,-0.708,-0.681,0.0
8.133,-0.684,-0.701,0.0
0.0,0.0,0.0,0.0
0.0,0.0,0.0,0.0
7.231,-0.612,-0.742,0.0
0.0,0.0,0.0,0.0
8.53,-0.722,-0.681,0.0
8.108,-0.687,-0.691,0.0
0.0,0.0,0.0,0.0
0.0,0.0,0.0,0.0
7.279,-0.621,-0.74,0.0
7.019,-0.6,-0.752,0.0
8.567,-0.73,-0.675,0.0
8.187,-0.699,-0.69,0.0
7.929,-0.678,-0.711,0.0
0.0,0.0,0.0,0.0
0.0,0.0,0.0,0.0
7.058,-0.607,-0.749,0.0
8.611,-0.739,-0.67,0.0
8.276,-0.712,-0.689,0.0
8.014,-0.69,-0.71,0.0
0.0,0.0,0.0,0.0
0.0,0.0,0.0,0.0
7.079,-0.613,-0.743,0.0
8.729,-0.754,-0.67,0.0
8.298,-0.718,-0.682,0.0
8.003,-0.694,-0.701,0.0
0.0,0.0,0.0,0.0
0.0,0.0,0.0,0.0
7.158,-0.624,-0.744,0.0
8.763,-0.762,-0.664,0.0
8.445,-0.735,-0.685,0.0
8.064,-0.703,-0.698,0.0
0.0,0.0,0.0,0.0
0.0,0.0,0.0,0.0
7.209,-0.631,-0.741,0.0
8.846,-0.773,-0.66,0.0
8.441,-0.739,-0.676,0.0
8.112,-0.711,-0.693,0.0
0.0,0.0,0.0,0.0
0.0,0.0,0.0,0.0
7.262,-0.639,-0.739,0.0
18.035,1.591,-0.317,0.0
16.356,1.445,-0.381,0.0
15.031,1.33,-0.436,0.0
13.828,1.226,-0.482,0.0
12.841,1.141,-0.521,0.0
12.156,1.082,-0.563,0.0
17.629,1.574,-0.333,0.0
16.04,1.434,-0.394,0.0
14.777,1.324,-0.448,0.0
13.588,1.219,-0.491,0.0
12.702,1.142,-0.531,0.0
11.961,1.077,-0.569,0.0
17.233,1.556,-0.347,0.0
15.815,1.431,-0.409,0.0
14.463,1.311,-0.457,0.0
13.335,1.21,-0.499,0.0
12.553,1.141,-0.542,0.0
11.763,1.071,-0.575,0.0
16.938,1.547,-0.363,0.0
15.44,1.412,-0.419,0.0
14.21,1.302,-0.467,0.0
13.188,1.21,-0.511,0.0
12.443,1.144,-0.553,0.0
11.614,1.069,-0.583,0.0
16.54,1.526,-0.377,0.0
15.141,1.399,-0.431,0.0
13.92,1.288,-0.476,0.0
12.978,1.203,-0.52,0.0
12.185,1.131,-0.558,0.0
11.468,1.066,-0.591,0.0
16.197,1.509,-0.39,0.0
14.855,1.386,-0.443,0.0
13.677,1.278,-0.486,0.0
12.749,1.193,-0.527,0.0
12.04,1.128,-0.567,0.0
11.301,1.061,-0.597,0.0
15.927,1.498,-0.405,0.0
14.577,1.373,-0.454,0.0
13.423,1.266,-0.495,0.0
12.574,1.187,-0.537,0.0
11.856,1.121,-0.574,0.0
11.143,1.055,-0.604,0.0
15.575,1.478,-0.416,0.0
14.235,1.352,-0.462,0.0
13.251,1.26,-0.506,0.0
12.448,1.186,-0.548,0.0
11.637,1.11,-0.579,0.0
10.979,1.049,-0.61,0.0
15.268,1.46,-0.429,0.0
13.944,1.335,-0.471,0.0
13.012,1.248,-0.515,0.0
12.213,1.172,-0.554,0.0
11.483,1.104,-0.587,0.0
10.832,1.043,-0.616,0.0
14.868,1.433,-0.437,0.0
13.772,1.329,-0.484,0.0
12.776,1.234,-0.522,0.0
12.058,1.166,-0.563,0.0
11.374,1.102,-0.597,0.0
10.688,1.036,-0.622,0.0
14.646,1.422,-0.45,0.0
13.527,1.315,-0.494,0.0
12.68,1.234,-0.535,0.0
11.875,1.157,-0.571,0.0
11.167,1.089,-0.601,0.0
10.535,1.029,-0.628,0.0
14.343,1.402,-0.46,0.0
13.257,1.297,-0.502,0.0
12.509,1.225,-0.545,0.0
11.661,1.143,-0.577,0.0
11.041,1.084,-0.609,0.0
10.433,1.025,-0.636,0.0
14.08,1.385,-0.471,0.0
13.105,1.29,-0.514,0.0
12.282,1.21,-0.552,0.0
11.503,1.135,-0.584,0.0
10.876,1.074,-0.615,0.0
10.325,1.021,-0.644,0.0
13.771,1.362,-0.48,0.0
12.822,1.269,-0.52,0.0
12.098,1.199,-0.56,0.0
11.338,1.125,-0.592,0.0
10.703,1.063,-0.62,0.0
10.101,1.004,-0.643,0.0
13.519,1.344,-0.489,0.0
12.697,1.263,-0.532,0.0
11.98,1.193,-0.571,0.0
11.165,1.113,-0.598,0.0
10.623,1.06,-0.63,0.0
10.051,1.004,-0.654,0.0
13.342,1.333,-0.501,0.0
12.51,1.251,-0.542,0.0
11.759,1.177,-0.577,0.0
11.036,1.105,-0.606,0.0
10.412,1.044,-0.632,0.0
9.888,0.992,-0.657,0.0
76.768,0.673,4.69,9.0
79.363,0.708,4.434,7.0
79.365,0.72,4.021,8.0
79.346,0.732,3.597,11.0
79.386,0.744,3.185,11.0
79.381,0.756,2.772,1.0
79.422,0.761,5.003,3.0
89.963,0.875,5.197,3.0
79.339,0.784,4.168,6.0
92.731,0.931,4.378,11.0
109.044,1.111,4.579,7.0
107.97,1.117,3.971,6.0
76.587,0.797,4.967,15.0
89.983,0.951,5.365,10.0
89.225,0.956,4.852,8.0
92.402,1.005,4.531,19.0
109.078,1.204,4.78,16.0
108.073,1.211,4.172,15.0
76.264,0.86,5.087,26.0
76.561,0.875,4.706,21.0
90.588,1.05,5.092,13.0
92.509,1.088,4.706,11.0
91.891,1.096,4.194,14.0
108.458,1.312,4.383,10.0
76.117,0.926,5.216,21.0
76.431,0.942,4.835,47.0
76.511,0.956,4.439,33.0
76.669,0.971,4.038,11.0
91.743,1.178,4.352,16.0
109.033,1.419,4.6,19.0
63.187,0.827,4.443,24.0
76.371,1.013,4.968,30.0
76.478,1.027,4.572,22.0
76.574,1.042,4.168,30.0
76.617,1.055,3.768,18.0
76.634,1.069,3.367,16.0
63.246,0.888,4.558,24.0
76.546,1.088,5.112,19.0
76.574,1.102,4.711,18.0
76.53,1.115,4.298,32.0
76.55,1.128,3.896,22.0
76.564,1.142,3.495,37.0
0.0,0.0,0.0,0.0
76.755,1.166,5.258,22.0
76.647,1.178,4.846,20.0
76.525,1.19,4.427,23.0
76.55,1.204,4.026,23.0
76.557,1.218,3.623,32.0
83.763,1.341,6.322,6.0
77.033,1.247,5.407,12.0
89.178,1.461,5.789,12.0
84.758,1.404,5.045,10.0
76.627,1.284,4.157,17.0
76.605,1.297,3.752,20.0
63.278,1.078,4.882,10.0
88.568,1.526,6.363,12.0
89.281,1.555,5.942,11.0
84.117,1.481,5.145,23.0
84.734,1.507,4.734,14.0
85.311,1.534,4.317,10.0
63.322,1.146,4.988,28.0
83.734,1.531,6.153,12.0
76.73,1.418,5.23,5.0
83.776,1.564,5.259,27.0
84.151,1.587,4.837,26.0
85.183,1.623,4.447,14.0
63.207,1.212,5.08,16.0
76.835,1.488,5.767,33.0
83.782,1.639,5.844,15.0
83.699,1.653,5.385,31.0
84.043,1.677,4.962,17.0
83.588,1.684,4.493,6.0
63.355,1.285,5.191,27.0
63.037,1.29,4.829,21.0
82.517,1.705,5.883,23.0
83.644,1.745,5.509,33.0
83.938,1.767,5.083,30.0
83.294,1.771,4.603,24.0
63.398,1.356,5.292,22.0
63.047,1.361,4.925,19.0
82.734,1.803,6.023,42.0
82.897,1.823,5.585,26.0
83.403,1.851,5.176,31.0
