X,Y,Z,Reflectivity
0.0,0.0,0.0,0.0
7.157,-0.428,-0.744,0.0
6.902,-0.414,-0.756,0.0
0.0,0.0,0.0,0.0
0.0,0.0,0.0,0.0
0.0,0.0,0.0,0.0
0.0,0.0,0.0,0.0
7.152,-0.434,-0.739,0.0
6.873,-0.419,-0.748,0.0
0.0,0.0,0.0,0.0
0.0,0.0,0.0,0.0
0.0,0.0,0.0,0.0
0.0,0.0,0.0,0.0
7.185,-0.443,-0.738,0.0
0.0,0.0,0.0,0.0
6.729,-0.418,-0.766,0.0
0.0,0.0,0.0,0.0
0.0,0.0,0.0,0.0
0.0,0.0,0.0,0.0
7.216,-0.451,-0.736,0.0
6.891,-0.432,-0.741,0.0
6.76,-0.426,-0.765,0.0
0.0,0.0,0.0,0.0
0.0,0.0,0.0,0.0
0.0,0.0,0.0,0.0
7.254,-0.46,-0.735,0.0
7.024,-0.447,-0.75,0.0
6.759,-0.431,-0.759,0.0
0.0,0.0,0.0,0.0
0.0,0.0,0.0,0.0
0.0,0.0,0.0,0.0
7.31,-0.47,-0.735,0.0
6.997,-0.451,-0.741,0.0
6.797,-0.44,-0.758,0.0
0.0,0.0,0.0,0.0
0.0,0.0,0.0,0.0
0.0,0.0,0.0,0.0
0.0,0.0,0.0,0.0
7.048,-0.46,-0.741,0.0
6.799,-0.445,-0.753,0.0
6.623,-0.435,-0.769,0.0
0.0,0.0,0.0,0.0
0.0,0.0,0.0,0.0
7.426,-0.489,-0.734,0.0
7.143,-0.472,-0.745,0.0
0.0,0.0,0.0,0.0
6.64,-0.441,-0.766,0.0
6.435,-0.429,-0.777,0.0
0.0,0.0,0.0,0.0
0.0,0.0,0.0,0.0
7.165,-0.479,-0.741,0.0
0.0,0.0,0.0,0.0
6.706,-0.45,-0.767,0.0
0.0,0.0,0.0,0.0
0.0,0.0,0.0,0.0
7.441,-0.501,-0.722,0.0
7.231,-0.488,-0.741,0.0
0.0,0.0,0.0,0.0
6.748,-0.458,-0.765,0.0
6.524,-0.444,-0.776,0.0
7.874,-0.535,-0.713,0.0
0.0,0.0,0.0,0.0
7.285,-0.497,-0.739,0.0
0.0,0.0,0.0,0.0
6.769,-0.464,-0.761,0.0
6.565,-0.451,-0.774,0.0
7.898,-0.542,-0.708,0.0
0.0,0.0,0.0,0.0
7.268,-0.501,-0.73,0.0
0.0,0.0,0.0,0.0
6.821,-0.472,-0.76,0.0
6.588,-0.457,-0.77,0.0
7.943,-0.55,-0.704,0.0
0.0,0.0,0.0,0.0
0.0,0.0,0.0,0.0
0.0,0.0,0.0,0.0
6.813,-0.476,-0.752,0.0
6.639,-0.465,-0.769,0.0
8.045,-0.562,-0.704,0.0
0.0,0.0,0.0,0.0
0.0,0.0,0.0,0.0
7.16,-0.503,-0.743,0.0
0.0,0.0,0.0,0.0
6.664,-0.47,-0.764,0.0
8.105,-0.571,-0.701,0.0
7.814,-0.551,-0.717,0.0
0.0,0.0,0.0,0.0
7.203,-0.51,-0.74,0.0
0.0,0.0,0.0,0.0
6.731,-0.479,-0.764,0.0
8.198,-0.582,-0.699,0.0
7.873,-0.56,-0.714,0.0
0.0,0.0,0.0,0.0
7.191,-0.513,-0.73,0.0
6.996,-0.5,-0.748,0.0
6.774,-0.485,-0.761,0.0
8.273,-0.591,-0.696,0.0
7.887,-0.564,-0.706,0.0
0.0,0.0,0.0,0.0
0.0,0.0,0.0,0.0
7.052,-0.507,-0.746,0.0
6.868,-0.495,-0.764,0.0
8.308,-0.598,-0.689,0.0
7.99,-0.575,-0.706,0.0
0.0,0.0,0.0,0.0
0.0,0.0,0.0,0.0
7.151,-0.518,-0.748,0.0
6.86,-0.498,-0.755,0.0
8.377,-0.606,-0.685,0.0
8.015,-0.581,-0.698,0.0
0.0,0.0,0.0,0.0
0.0,0.0,0.0,0.0
7.221,-0.526,-0.746,0.0
0.0,0.0,0.0,0.0
8.455,-0.615,-0.681,0.0
8.122,-0.592,-0.698,0.0
0.0,0.0,0.0,0.0
0.0,0.0,0.0,0.0
7.255,-0.531,-0.741,0.0
7.009,-0.514,-0.754,0.0
8.551,-0.625,-0.678,0.0
0.0,0.0,0.0,0.0
7.921,-0.581,-0.713,0.0
0.0,0.0,0.0,0.0
7.3,-0.537,-0.736,0.0
7.061,-0.52,-0.75,0.0
8.646,-0.635,-0.675,0.0
8.244,-0.606,-0.687,0.0
7.985,-0.588,-0.708,0.0
0.0,0.0,0.0,0.0
0.0,0.0,0.0,0.0
7.096,-0.524,-0.744,0.0
8.716,-0.642,-0.669,0.0
8.409,-0.621,-0.69,0.0
8.035,-0.594,-0.702,0.0
0.0,0.0,0.0,0.0
0.0,0.0,0.0,0.0
7.177,-0.532,-0.743,0.0
8.852,-0.655,-0.667,0.0
8.441,-0.625,-0.681,0.0
8.124,-0.602,-0.699,0.0
0.0,0.0,0.0,0.0
0.0,0.0,0.0,0.0
7.246,-0.539,-0.741,0.0
8.916,-0.661,-0.66,0.0
8.548,-0.634,-0.678,0.0
8.252,-0.613,-0.699,0.0
0.0,0.0,0.0,0.0
0.0,0.0,0.0,0.0
7.286,-0.543,-0.735,0.0
9.035,-0.671,-0.657,0.0
8.673,-0.645,-0.677,0.0
8.291,-0.617,-0.691,0.0
0.0,0.0,0.0,0.0
0.0,0.0,0.0,0.0
0.0,0.0,0.0,0.0
9.105,-0.678,-0.649,0.0
0.0,0.0,0.0,0.0
8.396,-0.626,-0.688,0.0
0.0,0.0,0.0,0.0
7.784,-0.581,-0.721,0.0
0.0,0.0,0.0,0.0
0.0,0.0,0.0,0.0
8.903,-0.664,-0.669,0.0
8.5,-0.634,-0.684,0.0
8.12,-0.606,-0.698,0.0
7.853,-0.587,-0.716,0.0
0.0,0.0,0.0,0.0
9.367,-0.698,-0.641,0.0
9.057,-0.676,-0.668,0.0
8.584,-0.641,-0.679,0.0
8.242,-0.616,-0.696,0.0
7.928,-0.592,-0.712,0.0
0.0,0.0,0.0,0.0
9.563,-0.713,-0.641,0.0
0.0,0.0,0.0,0.0
8.744,-0.652,-0.678,0.0
8.266,-0.617,-0.686,0.0
8.047,-0.601,-0.711,0.0
0.0,0.0,0.0,0.0
9.635,-0.718,-0.632,0.0
9.172,-0.684,-0.65,0.0
8.805,-0.657,-0.67,0.0
8.385,-0.625,-0.684,0.0
8.116,-0.606,-0.705,0.0
7.808,-0.583,-0.719,0.0
9.747,-0.726,-0.625,0.0
9.384,-0.699,-0.651,0.0
8.887,-0.662,-0.663,0.0
8.513,-0.634,-0.681,0.0
8.205,-0.611,-0.7,0.0
7.88,-0.587,-0.714,0.0
9.893,-0.735,-0.619,0.0
0.0,0.0,0.0,0.0
0.0,0.0,0.0,0.0
8.578,-0.638,-0.674,0.0
8.325,-0.619,-0.698,0.0
7.964,-0.592,-0.71,0.0
10.052,-0.745,-0.614,0.0
9.508,-0.705,-0.631,0.0
0.0,0.0,0.0,0.0
0.0,0.0,0.0,0.0
8.423,-0.625,-0.693,0.0
8.039,-0.596,-0.704,0.0
10.269,-0.759,-0.612,0.0
9.683,-0.716,-0.628,0.0
0.0,0.0,0.0,0.0
0.0,0.0,0.0,0.0
8.476,-0.626,-0.684,0.0
8.12,-0.6,-0.699,0.0
10.388,-0.766,-0.603,0.0
9.788,-0.721,-0.62,0.0
9.395,-0.692,-0.644,0.0
0.0,0.0,0.0,0.0
8.582,-0.632,-0.68,0.0
8.304,-0.611,-0.702,0.0
10.572,-0.776,-0.597,0.0
10.054,-0.738,-0.621,0.0
9.571,-0.702,-0.641,0.0
0.0,0.0,0.0,0.0
8.751,-0.641,-0.679,0.0
8.338,-0.611,-0.691,0.0
10.75,-0.786,-0.591,0.0
10.228,-0.747,-0.616,0.0
9.683,-0.707,-0.634,0.0
0.0,0.0,0.0,0.0
8.855,-0.646,-0.674,0.0
8.476,-0.618,-0.69,0.0
11.01,-0.8,-0.588,0.0
10.332,-0.751,-0.606,0.0
9.764,-0.709,-0.624,0.0
0.0,0.0,0.0,0.0
0.0,0.0,0.0,0.0
8.559,-0.62,-0.683,0.0
11.172,-0.808,-0.579,0.0
10.459,-0.755,-0.597,0.0
9.957,-0.719,-0.62,0.0
0.0,0.0,0.0,0.0
9.042,-0.651,-0.659,0.0
8.712,-0.627,-0.681,0.0
11.341,-0.814,-0.57,0.0
10.762,-0.772,-0.597,0.0
10.116,-0.725,-0.614,0.0
9.615,-0.689,-0.635,0.0
9.221,-0.66,-0.658,0.0
8.808,-0.63,-0.675,0.0
11.557,-0.824,-0.563,0.0
10.914,-0.777,-0.588,0.0
10.333,-0.735,-0.611,0.0
9.797,-0.696,-0.632,0.0
9.34,-0.663,-0.652,0.0
8.9,-0.631,-0.668,0.0
11.745,-0.831,-0.553,0.0
11.096,-0.784,-0.581,0.0
10.482,-0.74,-0.603,0.0
9.906,-0.698,-0.623,0.0
9.507,-0.669,-0.648,0.0
9.024,-0.635,-0.663,0.0
11.887,-0.834,-0.541,0.0
11.249,-0.788,-0.571,0.0
10.663,-0.746,-0.597,0.0
9.99,-0.698,-0.613,0.0
9.669,-0.675,-0.644,0.0
9.194,-0.641,-0.66,0.0
12.134,-0.844,-0.533,0.0
11.528,-0.8,-0.566,0.0
10.854,-0.752,-0.59,0.0
10.248,-0.709,-0.612,0.0
9.779,-0.676,-0.635,0.0
9.347,-0.645,-0.656,0.0
12.415,-0.855,-0.525,0.0
11.673,-0.802,-0.555,0.0
11.054,-0.758,-0.584,0.0
10.386,-0.712,-0.604,0.0
9.922,-0.679,-0.629,0.0
9.439,-0.645,-0.648,0.0
12.633,-0.861,-0.515,0.0
11.86,-0.806,-0.545,0.0
11.194,-0.76,-0.573,0.0
10.554,-0.715,-0.597,0.0
10.098,-0.683,-0.624,0.0
9.567,-0.646,-0.641,0.0
12.873,-0.867,-0.504,0.0
12.083,-0.812,-0.536,0.0
11.404,-0.765,-0.566,0.0
10.758,-0.72,-0.591,0.0
10.217,-0.683,-0.615,0.0
9.766,-0.652,-0.639,0.0
13.091,-0.871,-0.492,0.0
12.319,-0.818,-0.527,0.0
11.681,-0.774,-0.561,0.0
11.003,-0.728,-0.587,0.0
10.417,-0.688,-0.611,0.0
9.893,-0.652,-0.632,0.0
13.374,-0.879,-0.482,0.0
12.646,-0.829,-0.521,0.0
11.856,-0.775,-0.551,0.0
11.174,-0.729,-0.579,0.0
10.532,-0.686,-0.601,0.0
10.038,-0.652,-0.625,0.0
13.678,-0.887,-0.471,0.0
12.858,-0.831,-0.51,0.0
11.973,-0.772,-0.538,0.0
11.398,-0.734,-0.573,0.0
10.749,-0.69,-0.596,0.0
10.223,-0.655,-0.621,0.0
13.929,-0.89,-0.458,0.0
12.993,-0.828,-0.495,0.0
12.312,-0.783,-0.534,0.0
11.58,-0.734,-0.564,0.0
10.945,-0.692,-0.59,0.0
10.343,-0.652,-0.612,0.0
14.202,-0.894,-0.445,0.0
13.316,-0.836,-0.487,0.0
12.526,-0.784,-0.524,0.0
11.778,-0.735,-0.555,0.0
11.115,-0.692,-0.582,0.0
10.521,-0.653,-0.606,0.0
14.638,-0.906,-0.436,0.0
13.6,-0.839,-0.476,0.0
12.698,-0.781,-0.511,0.0
11.922,-0.732,-0.544,0.0
11.304,-0.692,-0.575,0.0
10.698,-0.653,-0.6,0.0
14.846,-0.904,-0.42,0.0
13.807,-0.838,-0.462,0.0
12.921,-0.781,-0.5,0.0
12.22,-0.737,-0.538,0.0
11.524,-0.693,-0.568,0.0
10.883,-0.652,-0.594,0.0
15.196,-0.908,-0.406,0.0
14.123,-0.841,-0.452,0.0
13.184,-0.783,-0.491,0.0
12.406,-0.734,-0.528,0.0
11.679,-0.689,-0.558,0.0
11.034,-0.649,-0.585,0.0
15.689,-0.92,-0.396,0.0
14.434,-0.844,-0.44,0.0
13.48,-0.785,-0.481,0.0
12.602,-0.731,-0.517,0.0
11.871,-0.687,-0.549,0.0
11.264,-0.649,-0.58,0.0
15.991,-0.919,-0.379,0.0
14.761,-0.845,-0.427,0.0
13.724,-0.783,-0.469,0.0
12.843,-0.73,-0.508,0.0
12.109,-0.686,-0.542,0.0
11.427,-0.645,-0.572,0.0
16.504,-0.929,-0.367,0.0
34.192,-1.917,-0.94,0.0
14.006,-0.782,-0.458,0.0
13.041,-0.725,-0.496,0.0
12.355,-0.685,-0.535,0.0
11.672,-0.644,-0.567,0.0
16.874,-0.929,-0.35,0.0
15.502,-0.849,-0.403,0.0
14.29,-0.78,-0.446,0.0
13.296,-0.723,-0.486,0.0
12.504,-0.677,-0.523,0.0
11.814,-0.637,-0.556,0.0
17.284,-0.929,-0.334,0.0
15.856,-0.848,-0.389,0.0
14.612,-0.778,-0.435,0.0
13.611,-0.722,-0.478,0.0
12.807,-0.677,-0.517,0.0
11.996,-0.631,-0.547,0.0
17.757,-0.931,-0.317,0.0
16.256,-0.848,-0.376,0.0
14.82,-0.77,-0.42,0.0
13.842,-0.716,-0.467,0.0
12.986,-0.669,-0.506,0.0
12.302,-0.63,-0.544,0.0
18.233,-0.931,-0.3,0.0
16.626,-0.845,-0.36,0.0
15.366,-0.777,-0.414,0.0
14.158,-0.713,-0.457,0.0
13.148,-0.659,-0.493,0.0
12.358,-0.616,-0.529,0.0
18.874,-0.938,-0.284,0.0
17.016,-0.841,-0.345,0.0
15.694,-0.772,-0.401,0.0
14.397,-0.705,-0.445,0.0
13.432,-0.654,-0.486,0.0
12.643,-0.612,-0.523,0.0
19.313,-0.932,-0.264,0.0
17.448,-0.838,-0.33,0.0
16.01,-0.765,-0.387,0.0
14.65,-0.696,-0.432,0.0
13.673,-0.646,-0.475,0.0
12.785,-0.6,-0.512,0.0
20.056,-0.938,-0.246,0.0
17.882,-0.832,-0.313,0.0
16.36,-0.757,-0.373,0.0
15.001,-0.69,-0.422,0.0
13.929,-0.637,-0.465,0.0
13.077,-0.594,-0.506,0.0
21.045,-0.953,-0.23,1.0
18.384,-0.828,-0.297,0.0
16.724,-0.749,-0.358,0.0
15.224,-0.677,-0.408,0.0
14.135,-0.625,-0.453,0.0
13.186,-0.579,-0.492,0.0
21.538,-0.943,-0.207,1.0
18.978,-0.825,-0.282,0.0
17.063,-0.737,-0.343,0.0
15.71,-0.675,-0.4,0.0
14.469,-0.617,-0.445,0.0
13.48,-0.571,-0.486,0.0
22.45,-0.947,-0.186,2.0
19.376,-0.812,-0.262,0.0
17.444,-0.726,-0.328,0.0
16.021,-0.663,-0.387,0.0
14.732,-0.605,-0.434,0.0
13.703,-0.559,-0.476,0.0
23.166,-0.941,-0.162,1.0
20.598,-0.831,-0.253,0.0
17.86,-0.715,-0.313,0.0
16.366,-0.651,-0.375,0.0
14.987,-0.591,-0.422,0.0
13.902,-0.545,-0.465,0.0
23.404,-0.913,-0.134,0.0
20.959,-0.811,-0.231,3.0
18.316,-0.703,-0.298,0.0
16.658,-0.635,-0.361,0.0
15.311,-0.579,-0.413,0.0
14.195,-0.533,-0.458,0.0
24.51,-0.915,-0.11,0.0
21.251,-0.787,-0.208,1.0
18.902,-0.694,-0.285,0.0
16.922,-0.617,-0.346,0.0
15.725,-0.569,-0.405,0.0
14.429,-0.517,-0.448,0.0
24.956,-0.89,-0.082,0.0
22.38,-0.791,-0.192,1.0
19.409,-0.68,-0.269,0.0
17.294,-0.601,-0.333,0.0
15.942,-0.549,-0.391,0.0
14.687,-0.502,-0.438,0.0
26.054,-0.884,-0.055,0.0
23.031,-0.775,-0.17,0.0
19.969,-0.666,-0.253,0.0
17.743,-0.586,-0.321,0.0
16.285,-0.533,-0.381,0.0
14.904,-0.483,-0.427,0.0
26.666,-0.859,-0.025,0.0
23.514,-0.75,-0.147,0.0
20.928,-0.661,-0.241,1.0
18.166,-0.568,-0.308,0.0
16.562,-0.513,-0.368,0.0
15.313,-0.47,-0.422,0.0
27.183,-0.828,0.004,0.0
23.882,-0.72,-0.123,0.0
21.079,-0.629,-0.22,1.0
18.51,-0.546,-0.293,0.0
16.832,-0.492,-0.356,0.0
15.558,-0.449,-0.411,0.0
27.825,-0.798,0.034,0.0
24.79,-0.703,-0.1,0.0
22.06,-0.619,-0.206,0.0
19.138,-0.531,-0.282,0.0
17.077,-0.468,-0.343,0.0
15.849,-0.429,-0.402,0.0
28.597,-0.768,0.066,4.0
25.378,-0.673,-0.075,0.0
22.638,-0.594,-0.188,0.0
19.371,-0.502,-0.265,0.0
17.418,-0.446,-0.331,0.0
16.05,-0.405,-0.391,0.0
28.693,-0.718,0.096,6.0
25.885,-0.639,-0.05,0.0
23.28,-0.568,-0.169,0.0
19.852,-0.478,-0.252,0.0
17.861,-0.424,-0.322,0.0
16.35,-0.383,-0.381,0.0
28.756,-0.666,0.125,6.0
26.463,-0.604,-0.025,0.0
23.67,-0.533,-0.148,0.0
20.614,-0.457,-0.241,0.0
18.125,-0.396,-0.308,0.0
16.55,-0.356,-0.37,0.0
28.778,-0.613,0.154,0.0
27.157,-0.569,0.0,0.0
24.526,-0.506,-0.13,2.0
21.292,-0.432,-0.228,0.0
18.469,-0.369,-0.297,0.0
16.778,-0.33,-0.359,0.0
30.981,-0.6,0.195,0.0
27.744,-0.528,0.026,0.0
24.842,-0.465,-0.108,0.0
21.989,-0.404,-0.215,0.0
18.899,-0.341,-0.286,0.0
16.947,-0.3,-0.347,0.0
31.629,-0.552,0.228,0.0
28.356,-0.485,0.053,1.0
25.127,-0.421,-0.086,0.0
22.281,-0.366,-0.198,0.0
19.259,-0.31,-0.274,0.0
17.224,-0.272,-0.337,0.0
32.633,-0.506,0.264,1.0
28.62,-0.434,0.079,1.0
25.467,-0.377,-0.065,0.0
22.946,-0.332,-0.184,0.0
19.677,-0.278,-0.263,0.0
17.585,-0.243,-0.329,0.0
33.144,-0.448,0.297,1.0
28.674,-0.378,0.103,0.0
26.133,-0.335,-0.045,0.0
23.157,-0.29,-0.166,1.0
20.127,-0.245,-0.252,0.0
17.842,-0.211,-0.319,0.0
33.484,-0.387,0.327,1.0
29.032,-0.325,0.128,0.0
26.391,-0.286,-0.024,0.0
23.797,-0.25,-0.152,0.0
20.633,-0.21,-0.242,0.0
18.19,-0.179,-0.311,0.0
34.235,-0.327,0.361,0.0
28.847,-0.266,0.15,0.0
27.028,-0.239,-0.004,0.0
24.051,-0.205,-0.135,0.0
21.053,-0.172,-0.231,0.0
18.396,-0.144,-0.301,0.0
0.0,0.0,0.0,0.0
31.274,-0.225,0.185,1.0
27.517,-0.189,0.015,0.0
24.452,-0.159,-0.12,0.0
21.797,-0.135,-0.224,1.0
18.709,-0.109,-0.293,0.0
0.0,0.0,0.0,0.0
31.185,-0.162,0.207,1.0
28.299,-0.137,0.035,1.0
24.88,-0.111,-0.104,0.0
21.868,-0.09,-0.209,0.0
19.009,-0.072,-0.284,0.0
0.0,0.0,0.0,0.0
31.64,-0.099,0.232,0.0
28.628,-0.079,0.055,4.0
25.199,-0.061,-0.089,0.0
22.091,-0.046,-0.197,0.0
19.325,-0.034,-0.277,0.0
37.638,-0.053,0.503,0.0
32.929,-0.035,0.262,0.0
28.612,-0.02,0.073,1.0
25.546,-0.009,-0.074,0.0
22.553,0.0,-0.187,0.0
19.648,0.005,-0.269,0.0
39.365,0.025,0.55,0.0
32.555,0.032,0.279,0.0
28.739,0.038,0.091,1.0
25.726,0.043,-0.059,0.0
23.176,0.047,-0.179,1.0
19.975,0.047,-0.262,0.0
39.799,0.108,0.579,0.0
33.458,0.102,0.305,0.0
28.789,0.098,0.107,0.0
25.93,0.097,-0.046,0.0
23.173,0.095,-0.166,0.0
20.26,0.09,-0.255,0.0
0.0,0.0,0.0,0.0
33.857,0.174,0.327,0.0
28.822,0.158,0.122,0.0
26.44,0.154,-0.033,0.0
23.466,0.145,-0.156,0.0
20.64,0.134,-0.249,0.0
41.405,0.286,0.645,0.0
34.526,0.25,0.35,0.0
28.9,0.219,0.137,2.0
26.694,0.211,-0.02,0.0
23.669,0.195,-0.146,0.0
20.884,0.18,-0.243,0.0
41.733,0.375,0.669,0.0
35.226,0.328,0.374,0.0
28.958,0.28,0.15,1.0
26.852,0.269,-0.009,0.0
23.968,0.249,-0.138,0.0
21.272,0.228,-0.238,0.0
0.0,0.0,0.0,0.0
35.489,0.406,0.391,0.0
28.955,0.341,0.162,0.0
27.005,0.327,0.001,0.0
24.183,0.302,-0.129,0.0
21.599,0.277,-0.233,1.0
0.0,0.0,0.0,0.0
35.391,0.479,0.404,0.0
28.985,0.403,0.173,0.0
27.133,0.387,0.011,0.0
24.297,0.354,-0.121,0.0
21.587,0.322,-0.225,0.0
0.0,0.0,0.0,0.0
35.938,0.564,0.423,0.0
0.0,0.0,0.0,0.0
27.248,0.446,0.02,0.0
24.46,0.408,-0.114,0.0
21.846,0.372,-0.221,0.0
0.0,0.0,0.0,0.0
35.993,0.641,0.434,0.0
31.376,0.569,0.207,0.0
27.468,0.507,0.029,0.0
24.729,0.465,-0.108,0.0
21.895,0.42,-0.215,1.0
0.0,0.0,0.0,0.0
36.886,0.735,0.455,0.0
31.631,0.641,0.217,0.0
27.753,0.572,0.036,0.0
24.828,0.519,-0.103,0.0
21.973,0.468,-0.211,0.0
47.886,1.04,0.864,1.0
37.103,0.818,0.466,0.0
31.783,0.711,0.225,0.0
28.324,0.644,0.043,0.0
24.937,0.575,-0.098,0.0
22.018,0.515,-0.207,0.0
47.634,1.136,0.869,2.0
0.0,0.0,0.0,0.0
31.839,0.78,0.232,0.0
28.62,0.711,0.049,1.0
25.061,0.631,-0.094,0.0
21.989,0.561,-0.203,0.0
0.0,0.0,0.0,0.0
37.361,0.982,0.482,0.0
32.01,0.852,0.238,0.0
28.654,0.772,0.053,1.0
25.006,0.683,-0.09,0.0
22.171,0.612,-0.202,0.0
0.0,0.0,0.0,0.0
0.0,0.0,0.0,0.0
32.129,0.923,0.242,0.0
28.505,0.828,0.055,1.0
25.078,0.737,-0.088,0.0
22.137,0.658,-0.199,0.0
55.439,1.674,1.032,1.0
0.0,0.0,0.0,0.0
32.359,0.998,0.246,0.0
28.469,0.888,0.057,1.0
25.153,0.792,-0.087,0.0
22.137,0.705,-0.198,0.0
50.729,1.639,0.947,0.0
38.254,1.249,0.503,0.0
32.555,1.073,0.249,0.0
28.427,0.947,0.058,0.0
24.898,0.837,-0.086,0.0
22.085,0.75,-0.198,0.0
48.521,1.671,0.906,1.0
0.0,0.0,0.0,0.0
32.429,1.138,0.248,0.0
28.176,0.998,0.057,1.0
25.088,0.897,-0.087,0.0
22.193,0.8,-0.199,0.0
50.716,1.854,0.945,2.0
0.0,0.0,0.0,0.0
32.542,1.21,0.247,1.0
28.338,1.063,0.056,1.0
25.335,0.958,-0.089,1.0
22.075,0.842,-0.199,1.0
0.0,0.0,0.0,0.0
0.0,0.0,0.0,0.0
32.478,1.276,0.244,1.0
28.034,1.11,0.053,0.0
24.776,0.989,-0.089,0.0
21.956,0.884,-0.2,0.0
0.0,0.0,0.0,0.0
38.841,1.594,0.502,0.0
32.434,1.342,0.24,1.0
27.997,1.167,0.049,0.0
24.871,1.044,-0.093,0.0
21.838,0.924,-0.202,1.0
47.857,2.049,0.877,0.0
37.491,1.617,0.479,0.0
32.35,1.405,0.234,1.0
27.894,1.22,0.045,0.0
24.811,1.093,-0.097,0.0
21.842,0.969,-0.206,1.0
47.795,2.144,0.867,1.0
37.909,1.712,0.478,0.0
32.093,1.459,0.226,0.0
27.787,1.272,0.039,0.0
24.762,1.141,-0.102,0.0
21.792,1.011,-0.21,1.0
47.822,2.244,0.857,3.0
0.0,0.0,0.0,0.0
31.884,1.515,0.217,1.0
27.574,1.318,0.032,0.0
24.547,1.181,-0.107,0.0
21.713,1.052,-0.215,2.0
50.155,2.454,0.886,3.0
37.175,1.83,0.45,0.0
31.34,1.552,0.205,1.0
27.554,1.373,0.025,0.0
24.568,1.232,-0.114,0.0
21.592,1.089,-0.22,3.0
49.584,2.526,0.862,4.0
37.361,1.914,0.442,0.0
31.292,1.612,0.196,1.0
27.183,1.409,0.016,0.0
24.461,1.275,-0.121,0.0
21.535,1.129,-0.226,2.0
48.92,2.59,0.834,5.0
37.753,2.009,0.434,1.0
30.824,1.649,0.182,0.0
26.999,1.452,0.007,0.0
24.101,1.303,-0.127,0.0
21.417,1.165,-0.233,3.0
48.644,2.671,0.812,5.0
36.374,2.008,0.404,0.0
30.598,1.698,0.17,0.0
26.76,1.492,-0.003,0.0
23.943,1.342,-0.136,0.0
21.284,1.199,-0.239,2.0
48.003,2.729,0.783,9.0
36.677,2.095,0.393,0.0
30.074,1.727,0.155,1.0
26.543,1.532,-0.014,0.0
23.544,1.365,-0.144,0.0
20.892,1.218,-0.244,0.0
47.714,2.806,0.758,7.0
36.182,2.138,0.372,0.0
29.824,1.771,0.14,0.0
26.334,1.571,-0.025,1.0
23.242,1.393,-0.152,0.0
20.76,1.25,-0.252,0.0
47.514,2.886,0.732,0.0
47.242,2.882,0.464,0.0
29.49,1.807,0.124,1.0
25.92,1.595,-0.037,1.0
23.003,1.422,-0.162,0.0
20.216,1.255,-0.255,0.0
43.433,2.72,0.648,0.0
34.218,2.151,0.319,0.0
29.293,1.849,0.109,1.0
25.739,1.632,-0.05,0.0
22.809,1.453,-0.172,0.0
19.945,1.276,-0.262,0.0
44.011,2.838,0.633,0.0
0.0,0.0,0.0,0.0
28.901,1.879,0.092,1.0
25.297,1.651,-0.063,0.0
22.584,1.48,-0.183,0.0
19.772,1.301,-0.271,0.0
0.0,0.0,0.0,0.0
32.675,2.176,0.268,0.0
28.528,1.907,0.074,1.0
25.122,1.686,-0.077,0.0
22.239,1.498,-0.193,0.0
19.335,1.308,-0.277,0.0
42.102,2.87,0.557,0.0
32.539,2.226,0.247,0.0
28.074,1.928,0.056,0.0
24.435,1.684,-0.09,0.0
21.916,1.516,-0.204,0.0
19.043,1.323,-0.284,0.0
38.032,2.661,0.479,0.0
31.829,2.235,0.222,1.0
27.713,1.953,0.037,0.0
24.162,1.709,-0.105,1.0
21.579,1.532,-0.215,0.0
18.853,1.343,-0.294,0.0
37.547,2.694,0.448,0.0
31.433,2.263,0.198,0.0
27.055,1.954,0.018,0.0
24.052,1.743,-0.121,3.0
21.303,1.55,-0.227,0.0
18.48,1.349,-0.301,0.0
37.15,2.73,0.417,0.0
30.916,2.28,0.173,0.0
26.595,1.967,0.0,0.0
23.876,1.772,-0.137,3.0
20.92,1.558,-0.237,0.0
18.311,1.368,-0.311,0.0
37.002,2.783,0.389,0.0
29.89,2.255,0.146,1.0
26.218,1.985,-0.019,0.0
23.475,1.782,-0.152,1.0
20.523,1.563,-0.248,0.0
18.101,1.383,-0.321,0.0
35.362,2.72,0.345,0.0
29.665,2.289,0.122,1.0
25.859,2.001,-0.039,0.0
22.872,1.776,-0.165,0.0
20.079,1.564,-0.259,0.0
17.817,1.392,-0.33,0.0
35.042,2.755,0.315,1.0
29.481,2.324,0.098,1.0
25.443,2.011,-0.058,0.0
22.591,1.791,-0.181,1.0
19.437,1.546,-0.266,0.0
17.565,1.401,-0.339,0.0
33.17,2.662,0.271,0.0
28.736,2.313,0.072,1.0
24.81,2.002,-0.077,0.0
22.159,1.793,-0.196,0.0
19.284,1.565,-0.28,0.0
17.326,1.41,-0.349,0.0
32.406,2.653,0.237,0.0
27.492,2.256,0.046,0.0
24.282,1.998,-0.096,1.0
21.707,1.791,-0.211,0.0
18.999,1.572,-0.292,0.0
17.096,1.418,-0.359,0.0
31.83,2.656,0.205,0.0
27.037,2.261,0.021,1.0
23.99,2.012,-0.116,0.0
21.296,1.79,-0.225,0.0
18.637,1.571,-0.303,0.0
16.848,1.424,-0.369,0.0
30.649,2.604,0.171,1.0
26.692,2.273,-0.002,1.0
23.552,2.011,-0.135,0.0
20.992,1.797,-0.241,0.0
18.285,1.569,-0.314,0.0
16.623,1.43,-0.379,0.0
29.312,2.535,0.136,0.0
26.194,2.27,-0.026,0.0
22.84,1.984,-0.152,0.0
20.068,1.748,-0.249,0.0
18.031,1.574,-0.326,0.0
16.378,1.433,-0.389,0.0
29.166,2.566,0.108,1.0
25.605,2.257,-0.049,1.0
22.534,1.991,-0.171,2.0
19.684,1.743,-0.263,0.0
17.664,1.568,-0.336,0.0
16.118,1.434,-0.399,0.0
28.981,2.591,0.079,1.0
25.013,2.241,-0.072,0.0
22.068,1.981,-0.189,3.0
19.364,1.742,-0.278,0.0
17.379,1.567,-0.348,0.0
15.938,1.44,-0.41,0.0
28.107,2.552,0.049,1.0
24.62,2.239,-0.096,0.0
21.705,1.978,-0.207,3.0
18.982,1.734,-0.291,0.0
17.151,1.57,-0.361,0.0
15.707,1.441,-0.419,0.0
27.178,2.504,0.02,0.0
24.118,2.227,-0.118,0.0
21.418,1.981,-0.227,2.0
18.536,1.718,-0.303,0.0
16.814,1.562,-0.371,0.0
15.523,1.445,-0.431,0.0
26.11,2.44,-0.006,1.0
23.039,2.157,-0.136,0.0
21.029,1.973,-0.244,0.0
18.214,1.712,-0.317,0.0
16.511,1.555,-0.381,0.0
15.182,1.433,-0.437,0.0
25.883,2.452,-0.033,1.0
22.634,2.148,-0.158,0.0
19.996,1.901,-0.253,0.0
17.813,1.697,-0.329,0.0
16.192,1.545,-0.391,0.0
14.98,1.432,-0.447,0.0
25.412,2.439,-0.06,1.0
22.144,2.129,-0.178,4.0
19.576,1.886,-0.269,0.0
17.413,1.68,-0.34,0.0
15.998,1.546,-0.404,0.0
14.759,1.429,-0.457,0.0
24.771,2.408,-0.085,0.0
21.679,2.111,-0.198,4.0
19.148,1.868,-0.284,0.0
17.156,1.676,-0.354,0.0
15.83,1.549,-0.417,0.0
14.441,1.416,-0.463,0.0
24.116,2.373,-0.11,0.0
21.39,2.107,-0.219,3.0
18.653,1.841,-0.297,0.0
16.885,1.669,-0.367,0.0
15.567,1.541,-0.427,0.0
14.266,1.415,-0.473,0.0
23.576,2.346,-0.134,0.0
20.967,2.09,-0.239,0.0
18.306,1.827,-0.313,0.0
16.552,1.655,-0.379,0.0
15.234,1.525,-0.436,0.0
14.023,1.406,-0.481,0.0
22.443,2.258,-0.153,0.0
20.096,2.025,-0.252,0.0
17.886,1.805,-0.326,0.0
16.285,1.645,-0.391,0.0
14.962,1.514,-0.445,0.0
13.784,1.397,-0.489,0.0
22.051,2.242,-0.176,3.0
19.539,1.989,-0.267,0.0
17.488,1.783,-0.339,0.0
16.013,1.635,-0.403,0.0
14.72,1.505,-0.455,0.0
13.607,1.393,-0.498,0.0
21.664,2.224,-0.198,4.0
19.265,1.98,-0.286,0.0
17.178,1.768,-0.353,0.0
15.778,1.626,-0.416,0.0
14.455,1.492,-0.464,0.0
13.383,1.383,-0.506,0.0
21.279,2.205,-0.22,2.0
18.58,1.928,-0.298,0.0
16.895,1.755,-0.367,0.0
15.558,1.618,-0.429,0.0
14.301,1.49,-0.476,0.0
13.15,1.372,-0.513,0.0
20.81,2.176,-0.24,0.0
18.175,1.902,-0.313,0.0
16.532,1.732,-0.379,0.0
15.162,1.591,-0.436,0.0
14.005,1.471,-0.483,0.0
13.002,1.368,-0.523,0.0
19.897,2.098,-0.253,0.0
17.742,1.872,-0.327,0.0
16.263,1.718,-0.393,0.0
14.987,1.585,-0.449,0.0
13.769,1.458,-0.492,0.0
12.79,1.356,-0.53,0.0
19.556,2.078,-0.273,0.0
17.454,1.857,-0.343,0.0
15.995,1.703,-0.406,0.0
14.658,1.563,-0.457,0.0
13.561,1.448,-0.501,0.0
12.61,1.348,-0.538,0.0
19.079,2.043,-0.289,0.0
17.082,1.831,-0.357,0.0
15.741,1.689,-0.419,0.0
14.361,1.542,-0.466,0.0
13.348,1.435,-0.51,0.0
12.494,1.345,-0.549,0.0
18.502,1.995,-0.304,0.0
16.788,1.812,-0.371,0.0
15.451,1.669,-0.43,0.0
14.097,1.524,-0.475,0.0
13.129,1.421,-0.517,0.0
12.294,1.332,-0.555,0.0
18.031,1.956,-0.318,0.0
16.506,1.793,-0.386,0.0
15.172,1.649,-0.441,0.0
13.896,1.512,-0.485,0.0
12.894,1.404,-0.524,0.0
12.128,1.322,-0.563,0.0
17.674,1.93,-0.334,0.0
16.131,1.763,-0.397,0.0
14.894,1.629,-0.452,0.0
13.642,1.493,-0.493,0.0
12.704,1.392,-0.532,0.0
11.963,1.312,-0.57,0.0
17.26,1.895,-0.348,0.0
15.843,1.741,-0.41,0.0
14.598,1.605,-0.461,0.0
13.428,1.478,-0.503,0.0
12.566,1.384,-0.543,0.0
11.772,1.298,-0.576,0.0
16.942,1.87,-0.362,0.0
15.571,1.719,-0.422,0.0
14.298,1.58,-0.47,0.0
13.182,1.458,-0.51,0.0
12.465,1.38,-0.554,0.0
11.636,1.289,-0.584,0.0
16.685,1.85,-0.378,0.0
15.293,1.697,-0.434,0.0
14.06,1.561,-0.48,0.0
13.055,1.45,-0.522,0.0
12.213,1.358,-0.558,0.0
11.496,1.279,-0.591,0.0
16.327,1.818,-0.39,0.0
15.083,1.681,-0.447,0.0
13.728,1.531,-0.485,0.0
12.841,1.433,-0.529,0.0
12.085,1.349,-0.567,0.0
11.32,1.265,-0.597,0.0
16.039,1.793,-0.404,0.0
14.659,1.64,-0.453,0.0
13.553,1.517,-0.497,0.0
12.617,1.413,-0.536,0.0
11.866,1.33,-0.572,0.0
11.148,1.25,-0.602,0.0
15.776,1.77,-0.417,0.0
14.384,1.614,-0.463,0.0
13.348,1.499,-0.506,0.0
12.474,1.402,-0.546,0.0
11.722,1.318,-0.58,0.0
11.055,1.244,-0.611,0.0
15.491,1.743,-0.429,0.0
14.182,1.596,-0.474,0.0
13.15,1.481,-0.515,0.0
12.306,1.387,-0.554,0.0
11.588,1.306,-0.588,0.0
10.927,1.233,-0.617,0.0
15.132,1.707,-0.438,0.0
13.893,1.568,-0.481,0.0
12.969,1.464,-0.524,0.0
12.102,1.367,-0.56,0.0
11.423,1.291,-0.594,0.0
10.799,1.221,-0.624,0.0
14.868,1.681,-0.449,0.0
13.662,1.545,-0.491,0.0
12.751,1.443,-0.531,0.0
11.943,1.352,-0.567,0.0
11.247,1.274,-0.599,0.0
10.647,1.206,-0.628,0.0
14.642,1.658,-0.46,0.0
13.462,1.525,-0.5,0.0
12.577,1.425,-0.54,0.0
11.787,1.336,-0.575,0.0
11.096,1.259,-0.605,0.0
10.506,1.192,-0.633,0.0
14.358,1.628,-0.469,0.0
13.278,1.506,-0.51,0.0
12.461,1.414,-0.55,0.0
11.622,1.319,-0.581,0.0
10.987,1.248,-0.612,0.0
10.377,1.179,-0.638,0.0
14.048,1.595,-0.476,0.0
13.04,1.481,-0.517,0.0
12.275,1.394,-0.557,0.0
11.493,1.306,-0.589,0.0
10.875,1.236,-0.62,0.0
10.245,1.165,-0.643,0.0
13.816,1.569,-0.485,0.0
12.863,1.461,-0.526,0.0
12.064,1.371,-0.562,0.0
11.344,1.289,-0.595,0.0
10.734,1.22,-0.625,0.0
10.133,1.152,-0.648,0.0
13.597,1.545,-0.494,0.0
12.657,1.438,-0.532,0.0
11.942,1.357,-0.571,0.0
11.179,1.271,-0.6,0.0
10.606,1.206,-0.63,0.0
9.985,1.135,-0.651,0.0
13.354,1.517,-0.501,0.0
12.542,1.425,-0.543,0.0
11.83,1.344,-0.58,0.0
11.047,1.255,-0.606,0.0
10.463,1.189,-0.634,0.0
9.855,1.12,-0.654,0.0
13.195,1.498,-0.511,0.0
12.475,1.416,-0.554,0.0
11.617,1.319,-0.583,0.0
10.929,1.241,-0.612,0.0
10.362,1.177,-0.64,0.0
9.748,1.107,-0.659,0.0
12.986,1.473,-0.518,0.0
12.231,1.387,-0.558,0.0
11.473,1.301,-0.589,0.0
10.843,1.23,-0.62,0.0
10.218,1.159,-0.643,0.0
9.664,1.096,-0.664,0.0
12.825,1.452,-0.527,0.0
12.026,1.362,-0.563,0.0
11.302,1.28,-0.594,0.0
10.713,1.213,-0.625,0.0
10.103,1.144,-0.648,0.0
9.542,1.081,-0.667,0.0
12.632,1.428,-0.533,0.0
11.883,1.343,-0.57,0.0
11.139,1.259,-0.598,0.0
10.531,1.19,-0.627,0.0
10.005,1.131,-0.653,0.0
9.451,1.068,-0.671,0.0
12.518,1.412,-0.543,0.0
11.72,1.322,-0.575,0.0
11.075,1.249,-0.607,0.0
10.416,1.174,-0.632,0.0
9.878,1.114,-0.656,0.0
9.346,1.054,-0.674,0.0
12.381,1.393,-0.55,0.0
11.578,1.302,-0.581,0.0
10.951,1.231,-0.612,0.0
10.297,1.158,-0.636,0.0
9.745,1.096,-0.658,0.0
9.294,1.045,-0.681,0.0
12.212,1.37,-0.556,0.0
11.445,1.283,-0.587,0.0
10.846,1.216,-0.618,0.0
10.161,1.139,-0.639,0.0
9.681,1.085,-0.664,0.0
9.175,1.028,-0.682,0.0
12.011,1.343,-0.56,0.0
11.291,1.262,-0.591,0.0
10.721,1.198,-0.623,0.0
10.118,1.13,-0.647,0.0
9.588,1.071,-0.668,0.0
9.072,1.013,-0.684,0.0
11.834,1.318,-0.564,0.0
11.145,1.241,-0.595,0.0
10.59,1.179,-0.627,0.0
9.95,1.107,-0.647,0.0
9.451,1.051,-0.669,0.0
8.967,0.997,-0.686,0.0
11.78,1.306,-0.574,0.0
11.071,1.227,-0.603,0.0
10.479,1.161,-0.631,0.0
9.903,1.097,-0.654,0.0
9.411,1.042,-0.676,0.0
8.913,0.987,-0.691,0.0
11.665,1.288,-0.58,0.0
10.948,1.208,-0.607,0.0
10.356,1.142,-0.634,0.0
9.748,1.075,-0.654,0.0
9.298,1.025,-0.677,0.0
8.814,0.971,-0.692,0.0
11.5,1.263,-0.584,0.0
10.849,1.191,-0.613,0.0
10.238,1.124,-0.637,0.0
9.692,1.063,-0.659,0.0
9.136,1.002,-0.674,0.0
8.779,0.962,-0.698,0.0
11.386,1.244,-0.589,0.0
10.785,1.178,-0.62,0.0
10.176,1.111,-0.643,0.0
9.602,1.047,-0.663,0.0
9.055,0.987,-0.677,0.0
8.714,0.95,-0.702,0.0
11.268,1.224,-0.594,0.0
10.645,1.156,-0.622,0.0
10.035,1.089,-0.644,0.0
9.499,1.03,-0.665,0.0
9.04,0.98,-0.684,0.0
8.619,0.934,-0.702,0.0
11.129,1.201,-0.597,0.0
10.544,1.138,-0.626,0.0
9.93,1.071,-0.646,0.0
9.409,1.014,-0.667,0.0
8.957,0.965,-0.686,0.0
8.568,0.922,-0.706,0.0
11.056,1.186,-0.603,0.0
10.462,1.121,-0.63,0.0
9.845,1.054,-0.649,0.0
9.331,0.999,-0.67,0.0
8.894,0.952,-0.689,0.0
8.497,0.909,-0.707,0.0
10.97,1.169,-0.608,0.0
10.406,1.108,-0.636,0.0
9.782,1.04,-0.654,0.0
9.236,0.982,-0.671,0.0
8.844,0.939,-0.693,0.0
8.458,0.898,-0.711,0.0
10.846,1.147,-0.61,0.0
10.284,1.087,-0.637,0.0
9.673,1.021,-0.654,0.0
9.194,0.97,-0.675,0.0
8.832,0.931,-0.7,0.0
8.397,0.885,-0.713,0.0
10.809,1.134,-0.617,0.0
10.134,1.062,-0.636,0.0
9.592,1.005,-0.657,0.0
9.151,0.958,-0.68,0.0
8.733,0.913,-0.699,0.0
8.36,0.874,-0.717,0.0
10.729,1.117,-0.621,0.0
10.09,1.049,-0.641,0.0
9.543,0.991,-0.661,0.0
0.0,0.0,0.0,0.0
8.645,0.897,-0.698,0.0
8.271,0.857,-0.716,0.0
10.618,1.096,-0.622,0.0
9.991,1.03,-0.642,0.0
9.446,0.973,-0.661,0.0
9.018,0.928,-0.684,0.0
8.574,0.882,-0.699,0.0
8.29,0.852,-0.723,0.0
10.515,1.075,-0.624,0.0
9.911,1.013,-0.644,0.0
9.445,0.964,-0.668,0.0
0.0,0.0,0.0,0.0
8.576,0.874,-0.705,0.0
8.209,0.836,-0.722,0.0
10.464,1.06,-0.628,0.0
9.888,1.001,-0.649,0.0
9.372,0.948,-0.669,0.0
0.0,0.0,0.0,0.0
8.485,0.856,-0.703,0.0
8.163,0.823,-0.723,0.0
10.382,1.042,-0.63,0.0
9.789,0.981,-0.649,0.0
9.34,0.935,-0.673,0.0
0.0,0.0,0.0,0.0
8.42,0.841,-0.703,0.0
8.138,0.812,-0.726,0.0
10.344,1.027,-0.634,0.0
9.768,0.969,-0.654,0.0
9.269,0.918,-0.673,0.0
8.858,0.877,-0.695,0.0
8.459,0.836,-0.712,0.0
8.145,0.804,-0.732,0.0
10.313,1.014,-0.638,0.0
9.732,0.955,-0.657,0.0
9.2,0.902,-0.674,0.0
8.748,0.857,-0.691,0.0
8.374,0.819,-0.709,0.0
8.068,0.788,-0.73,0.0
10.207,0.992,-0.637,0.0
9.635,0.935,-0.656,0.0
9.236,0.895,-0.681,0.0
8.713,0.844,-0.693,0.0
8.361,0.809,-0.713,0.0
8.01,0.774,-0.729,0.0
10.108,0.971,-0.636,0.0
9.624,0.924,-0.66,0.0
9.093,0.871,-0.675,0.0
8.679,0.831,-0.695,0.0
8.322,0.795,-0.714,0.0
8.012,0.765,-0.733,0.0
10.054,0.955,-0.638,0.0
9.534,0.904,-0.659,0.0
9.081,0.86,-0.679,0.0
8.625,0.816,-0.695,0.0
8.296,0.783,-0.715,0.0
0.0,0.0,0.0,0.0
9.999,0.938,-0.639,0.0
9.559,0.895,-0.665,0.0
8.968,0.839,-0.674,0.0
8.664,0.809,-0.702,0.0
8.302,0.774,-0.719,0.0
0.0,0.0,0.0,0.0
10.003,0.926,-0.643,0.0
9.488,0.877,-0.663,0.0
9.024,0.833,-0.682,0.0
8.636,0.796,-0.703,0.0
8.247,0.759,-0.718,0.0
0.0,0.0,0.0,0.0
9.952,0.91,-0.643,0.0
9.45,0.862,-0.664,0.0
8.946,0.815,-0.679,0.0
8.594,0.782,-0.702,0.0
8.206,0.745,-0.717,0.0
0.0,0.0,0.0,0.0
9.958,0.898,-0.647,0.0
9.383,0.845,-0.663,0.0
8.938,0.803,-0.682,0.0
8.567,0.769,-0.703,0.0
8.206,0.735,-0.72,0.0
0.0,0.0,0.0,0.0
9.966,0.886,-0.651,0.0
9.392,0.834,-0.666,0.0
8.894,0.788,-0.681,0.0
8.53,0.754,-0.702,0.0
8.211,0.725,-0.722,0.0
0.0,0.0,0.0,0.0
9.864,0.864,-0.647,0.0
9.392,0.821,-0.668,0.0
8.922,0.779,-0.685,0.0
8.457,0.737,-0.698,0.0
8.189,0.712,-0.722,0.0
0.0,0.0,0.0,0.0
9.845,0.85,-0.647,0.0
9.361,0.806,-0.668,0.0
8.902,0.765,-0.686,0.0
8.481,0.728,-0.702,0.0
8.157,0.699,-0.721,0.0
7.853,0.671,-0.739,0.0
9.822,0.835,-0.648,0.0
9.302,0.789,-0.666,0.0
8.866,0.75,-0.684,0.0
8.487,0.717,-0.704,0.0
8.169,0.689,-0.724,0.0
7.851,0.66,-0.74,0.0
9.824,0.821,-0.649,0.0
9.313,0.777,-0.668,0.0
8.922,0.743,-0.69,0.0
8.436,0.701,-0.701,0.0
8.121,0.673,-0.72,0.0
7.824,0.647,-0.738,0.0
9.751,0.802,-0.645,0.0
9.284,0.762,-0.666,0.0
8.889,0.728,-0.688,0.0
0.0,0.0,0.0,0.0
0.0,0.0,0.0,0.0
0.0,0.0,0.0,0.0
9.781,0.791,-0.648,0.0
9.367,0.756,-0.673,0.0
8.779,0.707,-0.68,0.0
8.434,0.677,-0.701,0.0
0.0,0.0,0.0,0.0
0.0,0.0,0.0,0.0
9.797,0.779,-0.649,0.0
9.28,0.736,-0.667,0.0
8.871,0.701,-0.687,0.0
0.0,0.0,0.0,0.0
0.0,0.0,0.0,0.0
0.0,0.0,0.0,0.0
9.78,0.763,-0.648,0.0
9.352,0.728,-0.672,0.0
8.885,0.69,-0.688,0.0
8.482,0.657,-0.705,0.0
0.0,0.0,0.0,0.0
0.0,0.0,0.0,0.0
9.864,0.756,-0.653,0.0
9.327,0.713,-0.669,0.0
8.866,0.676,-0.686,0.0
0.0,0.0,0.0,0.0
0.0,0.0,0.0,0.0
0.0,0.0,0.0,0.0
9.829,0.739,-0.649,0.0
9.357,0.701,-0.67,0.0
8.881,0.664,-0.686,0.0
0.0,0.0,0.0,0.0
0.0,0.0,0.0,0.0
0.0,0.0,0.0,0.0
9.83,0.725,-0.648,0.0
9.377,0.689,-0.67,0.0
8.885,0.651,-0.684,0.0
0.0,0.0,0.0,0.0
0.0,0.0,0.0,0.0
0.0,0.0,0.0,0.0
9.835,0.71,-0.646,0.0
9.317,0.671,-0.664,0.0
8.916,0.64,-0.685,0.0
0.0,0.0,0.0,0.0
0.0,0.0,0.0,0.0
0.0,0.0,0.0,0.0
9.852,0.697,-0.645,0.0
9.353,0.66,-0.664,0.0
8.94,0.629,-0.685,0.0
8.473,0.594,-0.697,0.0
0.0,0.0,0.0,0.0
0.0,0.0,0.0,0.0
9.899,0.685,-0.645,0.0
9.39,0.648,-0.664,0.0
8.954,0.616,-0.683,0.0
0.0,0.0,0.0,0.0
0.0,0.0,0.0,0.0
0.0,0.0,0.0,0.0
9.899,0.671,-0.642,0.0
9.416,0.636,-0.663,0.0
8.984,0.605,-0.682,0.0
0.0,0.0,0.0,0.0
8.176,0.547,-0.713,0.0
7.952,0.53,-0.737,0.0
0.0,0.0,0.0,0.0
9.505,0.627,-0.666,0.0
9.024,0.594,-0.682,0.0
0.0,0.0,0.0,0.0
0.0,0.0,0.0,0.0
7.945,0.518,-0.733,0.0
9.987,0.646,-0.64,0.0
9.455,0.61,-0.658,0.0
8.974,0.577,-0.674,0.0
8.623,0.552,-0.697,0.0
8.292,0.529,-0.716,0.0
0.0,0.0,0.0,0.0
9.993,0.631,-0.636,0.0
9.535,0.6,-0.659,0.0
9.092,0.57,-0.679,0.0
8.635,0.54,-0.693,0.0
0.0,0.0,0.0,0.0
7.975,0.495,-0.729,0.0
10.088,0.622,-0.637,0.0
9.609,0.59,-0.66,0.0
9.123,0.558,-0.677,0.0
8.695,0.53,-0.694,0.0
8.367,0.508,-0.714,0.0
0.0,0.0,0.0,0.0
10.107,0.608,-0.633,0.0
9.645,0.578,-0.657,0.0
9.171,0.547,-0.675,0.0
8.696,0.517,-0.689,0.0
8.312,0.492,-0.704,0.0
8.036,0.474,-0.725,0.0
10.156,0.595,-0.63,0.0
0.0,0.0,0.0,0.0
9.171,0.533,-0.67,0.0
8.801,0.509,-0.692,0.0
8.383,0.483,-0.705,0.0
8.04,0.462,-0.721,0.0
10.221,0.583,-0.628,0.0
9.738,0.553,-0.651,0.0
9.289,0.526,-0.672,0.0
0.0,0.0,0.0,0.0
8.457,0.475,-0.706,0.0
8.101,0.453,-0.721,0.0
10.282,0.571,-0.625,0.0
9.828,0.543,-0.651,0.0
9.344,0.514,-0.67,0.0
8.902,0.488,-0.688,0.0
0.0,0.0,0.0,0.0
8.153,0.443,-0.719,0.0
10.373,0.56,-0.623,0.0
0.0,0.0,0.0,0.0
9.306,0.498,-0.66,0.0
0.0,0.0,0.0,0.0
8.61,0.457,-0.706,0.0
8.217,0.434,-0.719,0.0
10.433,0.547,-0.619,0.0
9.927,0.519,-0.643,0.0
9.414,0.489,-0.661,0.0
8.944,0.463,-0.678,0.0
8.623,0.444,-0.7,0.0
8.242,0.423,-0.715,0.0
10.469,0.533,-0.612,0.0
0.0,0.0,0.0,0.0
0.0,0.0,0.0,0.0
0.0,0.0,0.0,0.0
8.664,0.433,-0.697,0.0
8.291,0.413,-0.712,0.0
10.596,0.524,-0.611,0.0
10.022,0.493,-0.632,0.0
0.0,0.0,0.0,0.0
0.0,0.0,0.0,0.0
8.633,0.419,-0.687,0.0
8.311,0.401,-0.706,0.0
10.643,0.51,-0.605,0.0
10.152,0.484,-0.632,0.0
9.593,0.455,-0.649,0.0
0.0,0.0,0.0,0.0
8.75,0.411,-0.688,0.0
8.373,0.391,-0.704,0.0
10.778,0.5,-0.602,0.0
10.207,0.471,-0.626,0.0
9.636,0.442,-0.643,0.0
0.0,0.0,0.0,0.0
8.873,0.403,-0.689,0.0
8.415,0.38,-0.699,0.0
10.919,0.49,-0.6,0.0
10.324,0.461,-0.623,0.0
9.814,0.436,-0.645,0.0
0.0,0.0,0.0,0.0
8.841,0.388,-0.678,0.0
8.535,0.373,-0.701,0.0
11.058,0.48,-0.596,0.0
10.421,0.45,-0.618,0.0
9.877,0.424,-0.639,0.0
0.0,0.0,0.0,0.0
0.0,0.0,0.0,0.0
8.599,0.363,-0.697,0.0
11.144,0.467,-0.589,0.0
10.508,0.437,-0.612,0.0
10.055,0.416,-0.64,0.0
0.0,0.0,0.0,0.0
0.0,0.0,0.0,0.0
8.648,0.352,-0.692,0.0
11.28,0.456,-0.584,0.0
10.644,0.427,-0.609,0.0
10.169,0.406,-0.636,0.0
0.0,0.0,0.0,0.0
9.121,0.36,-0.67,0.0
8.751,0.343,-0.69,0.0
11.403,0.444,-0.578,0.0
10.744,0.416,-0.602,0.0
10.257,0.394,-0.63,0.0
9.719,0.371,-0.65,0.0
9.306,0.354,-0.673,0.0
8.836,0.334,-0.686,0.0
11.588,0.434,-0.574,0.0
10.851,0.404,-0.596,0.0
10.386,0.384,-0.626,0.0
9.847,0.362,-0.647,0.0
9.423,0.344,-0.67,0.0
8.902,0.323,-0.681,0.0
11.677,0.421,-0.564,0.0
11.078,0.397,-0.595,0.0
10.506,0.374,-0.62,0.0
9.912,0.35,-0.639,0.0
9.388,0.329,-0.656,0.0
8.962,0.312,-0.674,0.0
11.851,0.41,-0.558,0.0
11.13,0.383,-0.584,0.0
10.573,0.361,-0.611,0.0
9.958,0.338,-0.63,0.0
9.537,0.321,-0.654,0.0
9.104,0.305,-0.673,0.0
12.017,0.399,-0.551,0.0
11.342,0.374,-0.58,0.0
10.654,0.349,-0.602,0.0
10.153,0.33,-0.629,0.0
9.671,0.312,-0.651,0.0
9.202,0.295,-0.669,0.0
12.282,0.391,-0.547,0.0
11.471,0.362,-0.572,0.0
10.827,0.339,-0.597,0.0
10.308,0.321,-0.625,0.0
9.802,0.303,-0.646,0.0
9.347,0.287,-0.666,0.0
12.423,0.378,-0.536,0.0
11.652,0.352,-0.565,0.0
11.061,0.332,-0.595,0.0
10.429,0.31,-0.618,0.0
9.947,0.293,-0.642,0.0
9.44,0.276,-0.66,0.0
12.595,0.366,-0.526,0.0
11.788,0.34,-0.555,0.0
11.212,0.321,-0.588,0.0
10.537,0.299,-0.609,0.0
10.079,0.284,-0.637,0.0
9.565,0.267,-0.655,0.0
12.818,0.355,-0.517,0.0
12.061,0.332,-0.551,0.0
11.376,0.31,-0.58,0.0
10.741,0.29,-0.606,0.0
10.173,0.273,-0.628,0.0
9.707,0.258,-0.651,0.0
13.012,0.343,-0.506,0.0
12.281,0.321,-0.543,0.0
11.526,0.299,-0.571,0.0
10.901,0.28,-0.599,0.0
10.322,0.263,-0.622,0.0
9.894,0.25,-0.648,0.0
13.248,0.332,-0.496,0.0
12.454,0.31,-0.532,0.0
11.742,0.289,-0.564,0.0
11.034,0.269,-0.589,0.0
10.535,0.255,-0.618,0.0
9.971,0.239,-0.638,0.0
13.607,0.324,-0.488,0.0
12.661,0.298,-0.521,0.0
11.909,0.278,-0.553,0.0
11.18,0.259,-0.58,0.0
10.593,0.243,-0.605,0.0
10.152,0.231,-0.634,0.0
13.801,0.311,-0.474,0.0
12.975,0.29,-0.514,0.0
12.193,0.27,-0.547,0.0
11.439,0.25,-0.575,0.0
10.82,0.235,-0.601,0.0
10.284,0.221,-0.626,0.0
14.053,0.299,-0.46,0.0
13.156,0.277,-0.5,0.0
12.361,0.258,-0.535,0.0
11.631,0.24,-0.566,0.0
10.99,0.225,-0.593,0.0
10.464,0.212,-0.62,0.0
14.435,0.29,-0.45,0.0
13.451,0.267,-0.49,0.0
12.616,0.248,-0.526,0.0
11.841,0.23,-0.557,0.0
11.177,0.215,-0.585,0.0
10.582,0.202,-0.609,0.0
14.792,0.28,-0.436,0.0
13.723,0.256,-0.477,0.0
12.885,0.238,-0.515,0.0
12.091,0.221,-0.548,0.0
11.402,0.206,-0.577,0.0
10.799,0.193,-0.604,0.0
15.247,0.27,-0.424,0.0
14.0,0.245,-0.463,0.0
13.139,0.228,-0.504,0.0
12.353,0.212,-0.54,0.0
11.655,0.198,-0.57,0.0
10.972,0.184,-0.595,0.0
15.614,0.259,-0.408,0.0
14.35,0.235,-0.45,0.0
13.46,0.218,-0.493,0.0
12.54,0.201,-0.526,0.0
11.852,0.187,-0.559,0.0
11.149,0.174,-0.585,0.0
15.974,0.247,-0.39,0.0
14.746,0.226,-0.437,0.0
13.735,0.207,-0.479,0.0
12.835,0.191,-0.516,0.0
12.076,0.178,-0.549,0.0
11.422,0.166,-0.579,0.0
16.425,0.237,-0.372,0.0
15.148,0.215,-0.422,0.0
14.022,0.197,-0.464,0.0
13.127,0.182,-0.504,0.0
12.352,0.169,-0.539,0.0
11.658,0.157,-0.57,0.0
16.787,0.224,-0.35,0.0
15.609,0.206,-0.407,0.0
14.37,0.187,-0.45,0.0
13.401,0.172,-0.491,0.0
12.601,0.159,-0.527,0.0
11.884,0.148,-0.559,0.0
17.257,0.213,-0.329,0.0
15.979,0.194,-0.387,0.0
14.781,0.177,-0.435,0.0
13.723,0.162,-0.477,0.0
12.805,0.149,-0.512,0.0
12.159,0.139,-0.55,0.0
17.936,0.203,-0.309,0.0
16.462,0.184,-0.369,0.0
15.231,0.167,-0.421,0.0
14.044,0.152,-0.463,0.0
13.207,0.141,-0.504,0.0
12.361,0.129,-0.536,0.0
18.656,0.193,-0.287,0.0
16.801,0.171,-0.345,0.0
15.669,0.157,-0.404,0.0
14.392,0.142,-0.447,0.0
13.461,0.131,-0.488,0.0
12.655,0.121,-0.525,0.0
19.441,0.183,-0.262,0.0
17.424,0.161,-0.326,0.0
16.079,0.146,-0.384,0.0
14.851,0.133,-0.433,0.0
13.814,0.121,-0.475,0.0
12.975,0.112,-0.513,0.0
20.684,0.176,-0.239,0.0
18.152,0.152,-0.304,0.0
16.562,0.136,-0.364,0.0
15.358,0.124,-0.418,0.0
14.267,0.113,-0.463,0.0
13.273,0.103,-0.5,0.0
21.789,0.167,-0.21,2.0
18.96,0.142,-0.281,0.0
17.048,0.125,-0.341,0.0
15.753,0.113,-0.399,0.0
14.518,0.102,-0.443,0.0
13.641,0.094,-0.487,0.0
22.444,0.153,-0.173,1.0
19.807,0.132,-0.255,0.0
17.661,0.115,-0.319,0.0
16.286,0.104,-0.38,0.0
14.903,0.093,-0.425,0.0
13.993,0.085,-0.472,0.0
23.642,0.142,-0.136,0.0
21.028,0.123,-0.229,1.0
18.429,0.105,-0.296,0.0
16.716,0.093,-0.357,0.0
15.614,0.085,-0.415,0.0
14.352,0.076,-0.455,0.0
25.09,0.131,-0.094,0.0
22.046,0.112,-0.197,2.0
19.234,0.095,-0.271,0.0
17.27,0.083,-0.335,0.0
15.994,0.075,-0.393,0.0
14.78,0.067,-0.439,0.0
25.874,0.116,-0.046,0.0
23.159,0.101,-0.16,1.0
20.605,0.087,-0.249,0.0
17.989,0.074,-0.312,0.0
16.518,0.066,-0.372,0.0
15.329,0.059,-0.424,0.0
27.133,0.102,0.006,0.0
24.442,0.089,-0.12,0.0
21.414,0.075,-0.215,4.0
18.755,0.064,-0.287,0.0
17.0,0.056,-0.348,0.0
15.786,0.05,-0.405,0.0
28.594,0.088,0.065,2.0
25.457,0.076,-0.073,0.0
22.819,0.065,-0.183,0.0
19.706,0.054,-0.262,0.0
17.607,0.046,-0.325,0.0
16.266,0.041,-0.384,0.0
28.808,0.071,0.124,0.0
26.487,0.062,-0.022,0.0
23.727,0.053,-0.142,1.0
20.985,0.045,-0.236,3.0
18.351,0.037,-0.301,0.0
16.741,0.032,-0.361,0.0
30.796,0.057,0.196,0.0
27.823,0.049,0.034,0.0
24.901,0.041,-0.098,0.0
21.845,0.034,-0.201,1.0
19.252,0.028,-0.276,0.0
17.271,0.023,-0.336,0.0
0.0,0.0,0.0,0.0
28.73,0.034,0.094,1.0
26.048,0.029,-0.048,0.0
23.409,0.024,-0.166,1.0
20.616,0.019,-0.252,0.0
18.038,0.015,-0.314,0.0
0.0,0.0,0.0,0.0
30.341,0.02,0.162,0.0
27.236,0.016,0.006,0.0
24.27,0.012,-0.121,0.0
21.377,0.009,-0.217,3.0
18.832,0.006,-0.288,0.0
36.663,0.009,0.462,0.0
31.937,0.006,0.238,0.0
28.517,0.003,0.065,1.0
25.51,0.0,-0.074,0.0
22.795,0.0,-0.184,0.0
19.934,-0.002,-0.264,0.0
40.613,-0.007,0.597,0.0
33.257,-0.008,0.318,0.0
29.912,-0.009,0.131,0.0
26.648,-0.01,-0.022,0.0
23.77,-0.011,-0.142,1.0
21.074,-0.011,-0.234,2.0
0.0,0.0,0.0,0.0
36.016,-0.024,0.42,0.0
31.263,-0.023,0.203,0.0
28.212,-0.022,0.035,1.0
25.066,-0.021,-0.097,0.0
22.16,-0.02,-0.199,0.0
0.0,0.0,0.0,0.0
39.578,-0.041,0.545,0.0
33.158,-0.036,0.286,0.0
28.789,-0.033,0.097,6.0
25.952,-0.031,-0.045,0.0
23.557,-0.029,-0.162,0.0
0.0,0.0,0.0,0.0
0.0,0.0,0.0,0.0
35.665,-0.051,0.382,0.0
30.483,-0.045,0.167,0.0
27.499,-0.042,0.009,0.0
24.752,-0.039,-0.118,0.0
0.0,0.0,0.0,0.0
0.0,0.0,0.0,0.0
0.0,0.0,0.0,0.0
31.574,-0.056,0.24,0.0
28.753,-0.052,0.071,6.0
25.65,-0.047,-0.068,0.0
78.717,-0.152,1.991,0.0
0.0,0.0,0.0,0.0
40.311,-0.08,0.604,0.0
33.569,-0.068,0.327,0.0
28.878,-0.059,0.133,2.0
26.777,-0.056,-0.014,0.0
79.13,-0.171,2.17,3.0
0.0,0.0,0.0,0.0
43.573,-0.097,0.747,0.0
36.349,-0.081,0.432,0.0
31.502,-0.071,0.212,0.0
28.586,-0.065,0.046,3.0
82.841,-0.196,2.449,6.0
0.0,0.0,0.0,0.0
47.76,-0.115,0.92,0.0
39.204,-0.095,0.549,0.0
33.209,-0.081,0.294,1.0
28.82,-0.071,0.107,5.0
83.318,-0.21,2.641,3.0
79.2,-0.201,2.102,2.0
0.0,0.0,0.0,0.0
0.0,0.0,0.0,0.0
0.0,0.0,0.0,0.0
31.049,-0.08,0.181,0.0
108.442,-0.287,3.668,3.0
82.785,-0.22,2.373,3.0
0.0,0.0,0.0,0.0
0.0,0.0,0.0,0.0
0.0,0.0,0.0,0.0
33.174,-0.088,0.264,1.0
108.876,-0.298,3.914,5.0
83.298,-0.228,2.565,5.0
0.0,0.0,0.0,0.0
0.0,0.0,0.0,0.0
0.0,0.0,0.0,0.0
34.843,-0.095,0.352,0.0
174.954,-0.487,6.66,4.0
104.936,-0.291,3.452,2.0
79.49,-0.22,2.205,3.0
57.572,-0.159,1.295,0.0
0.0,0.0,0.0,0.0
0.0,0.0,0.0,0.0
0.0,0.0,0.0,0.0
108.733,-0.302,3.809,8.0
82.969,-0.229,2.479,7.0
0.0,0.0,0.0,0.0
0.0,0.0,0.0,0.0
39.561,-0.107,0.567,0.0
0.0,0.0,0.0,0.0
174.875,-0.481,6.495,7.0
0.0,0.0,0.0,0.0
79.323,-0.214,2.119,3.0
57.629,-0.154,1.243,0.0
0.0,0.0,0.0,0.0
195.042,-0.528,8.66,4.0
178.992,-0.479,7.026,6.0
108.595,-0.287,3.703,7.0
82.786,-0.216,2.388,3.0
0.0,0.0,0.0,0.0
0.0,0.0,0.0,0.0
194.87,-0.507,9.067,11.0
204.004,-0.524,8.438,6.0
174.783,-0.442,6.33,5.0
83.307,-0.207,2.577,5.0
79.186,-0.194,2.041,1.0
0.0,0.0,0.0,0.0
194.45,-0.479,9.454,8.0
195.162,-0.473,8.481,9.0
179.171,-0.426,6.862,12.0
105.458,-0.246,3.484,3.0
79.19,-0.181,2.207,2.0
0.0,0.0,0.0,0.0
202.587,-0.463,10.277,6.0
194.823,-0.436,8.875,8.0
179.171,-0.391,7.235,150.0
108.727,-0.232,3.818,10.0
82.957,-0.172,2.485,6.0
78.764,-0.159,1.952,0.0
179.097,-0.371,9.456,19.0
194.784,-0.393,9.275,8.0
204.033,-0.399,8.659,10.0
0.0,0.0,0.0,0.0
105.338,-0.193,3.372,2.0
79.055,-0.14,2.123,4.0
178.986,-0.326,9.82,24.0
202.161,-0.356,10.043,16.0
195.209,-0.331,8.689,5.0
179.118,-0.292,7.029,53.0
108.348,-0.168,3.691,7.0
82.849,-0.123,2.394,4.0
178.697,-0.274,10.173,19.0
201.996,-0.296,10.453,12.0
201.705,-0.281,9.39,21.0
204.132,-0.269,8.427,7.0
108.925,-0.136,3.932,8.0
83.218,-0.097,2.573,4.0
106.138,-0.128,6.258,2.0
202.051,-0.229,10.865,6.0
201.917,-0.213,9.808,16.0
202.695,-0.198,8.774,6.0
0.0,0.0,0.0,0.0
99.747,-0.081,3.283,1.0
106.062,-0.091,6.465,8.0
151.058,-0.117,8.422,22.0
201.705,-0.139,10.2,10.0
201.828,-0.122,9.138,14.0
0.0,0.0,0.0,0.0
83.371,-0.035,2.911,4.0
96.417,-0.044,6.072,16.0
91.51,-0.033,5.287,17.0
151.138,-0.042,7.946,31.0
201.553,-0.037,9.529,23.0
202.779,-0.018,8.536,9.0
108.91,0.0,4.021,3.0
87.636,-0.002,5.695,14.0
91.517,0.005,5.47,8.0
151.082,0.025,8.244,41.0
201.216,0.053,9.915,24.0
201.903,0.073,8.899,14.0
83.363,0.038,3.241,2.0
83.046,0.036,5.56,33.0
96.296,0.051,5.945,14.0
151.028,0.097,8.539,27.0
151.092,0.112,7.74,14.0
201.783,0.171,9.285,21.0
83.332,0.079,3.402,5.0
83.488,0.077,5.753,4.0
83.128,0.087,5.294,5.0
91.575,0.105,5.354,9.0
151.097,0.19,8.032,36.0
201.481,0.276,9.658,9.0
83.308,0.123,3.56,27.0
83.609,0.122,5.923,7.0
83.099,0.131,5.451,34.0
83.378,0.141,5.034,7.0
151.07,0.273,8.318,18.0
83.259,0.161,4.15,13.0
83.291,0.17,3.717,34.0
63.361,0.128,4.608,20.0
83.493,0.179,5.635,5.0
83.198,0.188,5.18,28.0
83.206,0.198,4.737,16.0
83.24,0.209,4.304,22.0
83.26,0.22,3.872,38.0
63.399,0.166,4.73,20.0
79.314,0.218,5.502,14.0
83.139,0.239,5.332,28.0
83.186,0.25,4.892,29.0
83.223,0.26,4.459,26.0
83.241,0.272,4.025,34.0
63.5,0.206,4.856,16.0
76.915,0.26,5.479,37.0
79.419,0.28,5.24,59.0
83.183,0.304,5.045,33.0
83.216,0.315,4.611,28.0
83.234,0.327,4.178,25.0
63.475,0.249,4.972,19.0
90.68,0.368,6.626,14.0
79.445,0.333,5.387,19.0
83.136,0.36,5.193,25.0
83.195,0.372,4.76,23.0
83.228,0.384,4.327,31.0
62.684,0.289,5.024,25.0
63.601,0.302,4.762,29.0
76.953,0.377,5.356,19.0
79.436,0.4,5.105,100.0
83.219,0.431,4.91,7.0
79.31,0.423,4.264,9.0
62.707,0.335,5.137,24.0
63.624,0.349,4.876,22.0
62.808,0.354,4.483,21.0
79.329,0.458,5.237,10.0
79.271,0.47,4.816,5.0
79.309,0.482,4.403,9.0
63.01,0.384,5.272,19.0
63.111,0.394,4.947,38.0
62.882,0.402,4.598,22.0
76.847,0.504,5.207,7.0
79.312,0.532,4.957,4.0
79.315,0.544,4.541,5.0
63.157,0.435,5.395,12.0
57.083,0.402,4.574,19.0
63.052,0.454,4.72,24.0
76.861,0.565,5.341,18.0
76.461,0.575,4.91,4.0
79.362,0.61,4.679,2.0
62.937,0.485,5.485,8.0
56.965,0.448,4.663,20.0
63.317,0.509,4.848,16.0
62.793,0.515,4.471,24.0
76.66,0.641,5.052,28.0
76.709,0.654,4.651,5.0
58.145,0.497,5.165,34.0
57.212,0.499,4.778,30.0
63.341,0.563,4.955,38.0
62.886,0.569,4.58,29.0
76.698,0.707,5.18,15.0
79.362,0.745,4.941,3.0
57.547,0.542,5.207,32.0
57.516,0.552,4.898,31.0
63.23,0.617,5.049,25.0
90.911,0.903,6.768,15.0
76.096,0.769,5.262,38.0
76.641,0.788,4.894,16.0
56.52,0.583,5.205,24.0
57.359,0.602,4.976,25.0
58.015,0.619,4.725,32.0
63.412,0.688,4.822,24.0
83.128,0.917,5.881,19.0
76.342,0.855,4.995,20.0
56.554,0.636,5.297,24.0
57.365,0.655,5.067,23.0
62.296,0.723,5.172,8.0
64.461,0.759,5.001,20.0
63.3,0.757,4.575,11.0
76.242,0.925,5.106,18.0
56.797,0.693,5.408,24.0
57.222,0.708,5.143,31.0
62.461,0.785,5.281,16.0
64.673,0.824,5.116,16.0
63.235,0.817,4.666,17.0
76.262,0.999,5.222,24.0
57.593,0.759,5.571,21.0
56.73,0.758,5.184,30.0
59.067,0.8,5.082,15.0
59.08,0.811,4.762,17.0
76.26,1.062,5.742,8.0
76.366,1.078,5.342,16.0
62.024,0.88,6.092,15.0
56.737,0.816,5.269,29.0
58.736,0.855,5.141,33.0
59.074,0.871,4.848,28.0
76.208,1.138,5.847,20.0
63.076,0.954,4.504,9.0
62.006,0.943,6.181,13.0
56.926,0.877,5.368,30.0
57.904,0.902,5.15,33.0
59.1,0.932,4.934,22.0
63.092,1.007,4.93,6.0
83.368,1.348,6.07,20.0
61.974,1.008,6.265,8.0
57.23,0.941,5.478,11.0
57.327,0.954,5.178,31.0
58.485,0.985,4.964,22.0
63.08,1.074,5.016,10.0
83.418,1.437,6.187,29.0
55.007,0.953,5.636,13.0
49.25,0.863,4.781,19.0
57.373,1.016,5.261,27.0
58.551,1.048,5.048,33.0
63.104,1.143,5.102,13.0
76.946,1.409,5.81,10.0
54.926,1.011,5.701,12.0
49.354,0.918,4.856,11.0
57.586,1.082,5.356,29.0
0.0,0.0,0.0,0.0
63.138,1.212,5.187,6.0
76.886,1.491,5.903,19.0
50.171,0.979,5.272,24.0
56.914,1.122,5.673,19.0
57.78,1.15,5.448,22.0
57.323,1.153,5.09,21.0
61.793,1.255,5.154,15.0
76.895,1.578,6.0,15.0
50.139,1.035,5.332,25.0
49.892,1.04,5.036,6.0
56.239,1.184,5.372,3.0
56.823,1.208,5.115,31.0
63.811,1.369,5.401,10.0
62.761,1.359,4.974,21.0
49.89,1.088,5.367,20.0
55.349,1.218,5.654,6.0
49.245,1.093,4.764,15.0
56.072,1.256,5.115,25.0
0.0,0.0,0.0,0.0
62.977,1.436,5.065,12.0
49.753,1.142,5.411,27.0
54.961,1.273,5.678,14.0
49.324,1.152,4.828,21.0
55.85,1.316,5.159,24.0
0.0,0.0,0.0,0.0
62.96,1.508,5.134,17.0
49.742,1.199,5.466,19.0
49.634,1.207,5.184,22.0
49.379,1.211,4.889,22.0
55.856,1.381,5.22,10.0
50.238,1.252,4.423,23.0
64.966,1.633,5.368,16.0
45.95,1.163,5.099,16.0
49.674,1.267,5.242,21.0
49.432,1.271,4.947,23.0
50.616,1.312,4.784,20.0
50.181,1.311,4.471,22.0
62.998,1.659,5.272,10.0
45.866,1.216,5.139,15.0
49.547,1.324,5.28,19.0
49.541,1.333,5.009,23.0
50.687,1.375,4.843,19.0
50.14,1.37,4.518,26.0
76.426,2.105,6.472,18.0
45.867,1.272,5.185,14.0
49.155,1.373,5.287,20.0
50.515,1.421,5.158,24.0
50.842,1.441,4.908,15.0
50.197,1.433,4.572,19.0
63.749,1.833,5.46,10.0
45.871,1.328,5.23,10.0
46.252,1.349,5.02,16.0
50.797,1.491,5.235,5.0
56.244,1.663,5.483,11.0
50.401,1.501,4.638,23.0
74.559,2.237,6.455,4.0
47.84,1.445,5.499,9.0
46.013,1.399,5.036,20.0
48.619,1.488,5.055,18.0
50.991,1.571,5.017,21.0
54.034,1.676,5.021,6.0
62.541,1.953,5.47,9.0
0.0,0.0,0.0,0.0
45.651,1.445,5.037,19.0
48.503,1.545,5.085,19.0
51.06,1.637,5.067,23.0
50.449,1.628,4.73,24.0
67.85,2.204,5.99,20.0
47.174,1.543,5.504,23.0
45.829,1.508,5.094,20.0
46.248,1.531,4.886,22.0
51.012,1.7,5.104,13.0
50.496,1.693,4.775,23.0
67.023,2.261,5.971,24.0
45.982,1.562,5.402,20.0
45.791,1.565,5.126,20.0
46.225,1.59,4.92,20.0
61.924,2.142,6.244,7.0
50.185,1.746,4.785,35.0
49.949,1.749,4.488,16.0
46.161,1.627,5.458,21.0
45.971,1.63,5.181,19.0
45.94,1.638,4.924,21.0
56.378,2.023,5.726,22.0
50.209,1.811,4.823,31.0
50.0,1.814,4.528,24.0
45.96,1.68,5.467,17.0
45.921,1.688,5.208,17.0
45.834,1.694,4.944,22.0
56.329,2.093,5.76,10.0
50.3,1.88,4.866,16.0
50.208,1.886,4.58,28.0
45.818,1.734,5.481,18.0
45.958,1.748,5.242,17.0
45.77,1.75,4.967,20.0
48.383,1.859,4.978,22.0
50.407,1.948,4.908,25.0
50.364,1.957,4.626,20.0
45.973,1.799,5.528,35.0
45.745,1.799,5.246,20.0
45.826,1.811,5.0,20.0
48.391,1.922,5.007,22.0
50.338,2.009,4.93,32.0
53.946,2.164,4.986,6.0
46.051,1.861,5.564,29.0
45.74,1.858,5.271,20.0
0.0,0.0,0.0,0.0
48.938,2.008,5.091,24.0
50.313,2.074,4.955,24.0
49.622,2.055,4.613,11.0
45.981,1.918,5.579,17.0
45.729,1.916,5.294,30.0
48.433,2.039,5.337,13.0
49.567,2.097,5.181,23.0
50.358,2.14,4.984,34.0
49.667,2.121,4.641,16.0
45.965,1.977,5.6,20.0
45.678,1.974,5.309,31.0
46.206,2.006,5.113,29.0
56.26,2.453,5.907,14.0
50.417,2.208,5.013,23.0
49.728,2.188,4.669,16.0
45.751,2.028,5.594,31.0
45.77,2.037,5.34,32.0
46.185,2.064,5.13,35.0
51.415,2.308,5.419,6.0
50.692,2.285,5.061,24.0
49.686,2.25,4.684,33.0
0.0,0.0,0.0,0.0
45.766,2.095,5.357,35.0
46.217,2.125,5.151,20.0
51.498,2.378,5.447,17.0
50.578,2.344,5.068,28.0
49.699,2.314,4.703,19.0
44.442,2.084,5.467,13.0
45.788,2.155,5.375,30.0
48.375,2.286,5.408,22.0
51.361,2.436,5.449,25.0
50.429,2.402,5.068,24.0
49.783,2.381,4.726,26.0
44.463,2.142,5.483,15.0
45.859,2.217,5.397,27.0
48.288,2.344,5.412,5.0
50.588,2.464,5.381,24.0
50.21,2.456,5.06,23.0
49.824,2.446,4.743,32.0
0.0,0.0,0.0,0.0
43.679,2.168,5.151,16.0
47.971,2.389,5.388,22.0
48.877,2.444,5.21,18.0
50.376,2.528,5.088,22.0
53.668,2.702,5.121,6.0
