X,Y,Z,Reflectivity
10.751,1.105,-0.621,0.0
10.048,1.033,-0.638,0.0
9.545,0.981,-0.662,0.0
9.07,0.933,-0.681,0.0
8.694,0.894,-0.703,0.0
11.178,1.148,-0.595,0.0
10.585,1.087,-0.624,0.0
9.923,1.019,-0.642,0.0
9.383,0.964,-0.662,0.0
8.998,0.924,-0.687,0.0
8.524,0.876,-0.7,0.0
11.02,1.13,-0.6,0.0
10.432,1.07,-0.628,0.0
9.876,1.013,-0.651,0.0
9.332,0.957,-0.67,0.0
8.83,0.906,-0.685,0.0
8.49,0.871,-0.708,0.0
10.909,1.117,-0.607,0.0
10.345,1.059,-0.635,0.0
9.778,1.001,-0.656,0.0
9.213,0.943,-0.672,0.0
8.801,0.901,-0.693,0.0
8.359,0.856,-0.707,0.0
10.811,1.104,-0.614,0.0
10.138,1.036,-0.634,0.0
9.662,0.987,-0.66,0.0
0.0,0.0,0.0,0.0
8.716,0.89,-0.697,0.0
8.329,0.851,-0.714,0.0
10.652,1.085,-0.618,0.0
9.991,1.018,-0.637,0.0
9.492,0.967,-0.66,0.0
0.0,0.0,0.0,0.0
8.611,0.877,-0.698,0.0
8.262,0.842,-0.718,0.0
10.566,1.074,-0.625,0.0
9.977,1.013,-0.647,0.0
9.378,0.952,-0.662,0.0
0.0,0.0,0.0,0.0
8.532,0.866,-0.702,0.0
8.219,0.835,-0.724,0.0
10.426,1.056,-0.628,0.0
9.859,0.998,-0.651,0.0
9.319,0.943,-0.669,0.0
0.0,0.0,0.0,0.0
8.467,0.857,-0.706,0.0
8.118,0.821,-0.724,0.0
10.29,1.038,-0.632,0.0
9.773,0.986,-0.656,0.0
9.206,0.928,-0.671,0.0
0.0,0.0,0.0,0.0
8.423,0.849,-0.712,0.0
8.1,0.816,-0.731,0.0
10.146,1.019,-0.634,0.0
9.649,0.969,-0.658,0.0
0.0,0.0,0.0,0.0
8.784,0.882,-0.701,0.0
8.375,0.84,-0.717,0.0
0.0,0.0,0.0,0.0
10.035,1.003,-0.637,0.0
9.522,0.952,-0.659,0.0
0.0,0.0,0.0,0.0
8.62,0.861,-0.697,0.0
8.295,0.828,-0.718,0.0
0.0,0.0,0.0,0.0
9.954,0.99,-0.643,0.0
9.451,0.94,-0.664,0.0
0.0,0.0,0.0,0.0
0.0,0.0,0.0,0.0
8.211,0.816,-0.72,0.0
7.867,0.781,-0.735,0.0
9.884,0.978,-0.648,0.0
9.364,0.926,-0.668,0.0
0.0,0.0,0.0,0.0
8.48,0.838,-0.703,0.0
8.187,0.809,-0.726,0.0
7.833,0.773,-0.74,0.0
9.758,0.96,-0.649,0.0
9.276,0.912,-0.671,0.0
8.82,0.867,-0.688,0.0
8.433,0.828,-0.707,0.0
8.046,0.79,-0.721,0.0
7.715,0.757,-0.736,0.0
9.701,0.948,-0.655,0.0
9.245,0.903,-0.677,0.0
8.701,0.85,-0.687,0.0
8.347,0.815,-0.708,0.0
8.067,0.787,-0.731,0.0
7.707,0.751,-0.743,0.0
9.608,0.933,-0.658,0.0
9.151,0.888,-0.679,0.0
8.677,0.841,-0.693,0.0
8.33,0.807,-0.714,0.0
8.016,0.776,-0.734,0.0
7.655,0.741,-0.744,0.0
9.525,0.918,-0.661,0.0
9.08,0.875,-0.682,0.0
8.614,0.829,-0.696,0.0
8.293,0.798,-0.718,0.0
7.93,0.763,-0.733,0.0
0.0,0.0,0.0,0.0
9.432,0.902,-0.662,0.0
8.955,0.856,-0.68,0.0
8.589,0.821,-0.701,0.0
8.205,0.783,-0.718,0.0
7.853,0.749,-0.732,0.0
7.493,0.714,-0.742,0.0
9.37,0.889,-0.666,0.0
8.919,0.846,-0.685,0.0
8.487,0.804,-0.7,0.0
8.119,0.769,-0.717,0.0
0.0,0.0,0.0,0.0
7.523,0.711,-0.751,0.0
9.289,0.874,-0.668,0.0
8.877,0.835,-0.689,0.0
8.494,0.798,-0.708,0.0
8.118,0.762,-0.724,0.0
0.0,0.0,0.0,0.0
7.493,0.702,-0.754,0.0
9.212,0.859,-0.669,0.0
8.802,0.82,-0.69,0.0
8.358,0.778,-0.703,0.0
8.024,0.747,-0.721,0.0
0.0,0.0,0.0,0.0
7.38,0.685,-0.748,0.0
9.149,0.846,-0.672,0.0
8.739,0.807,-0.691,0.0
8.371,0.772,-0.71,0.0
0.0,0.0,0.0,0.0
0.0,0.0,0.0,0.0
7.36,0.677,-0.752,0.0
9.125,0.835,-0.676,0.0
8.666,0.792,-0.692,0.0
8.34,0.762,-0.713,0.0
0.0,0.0,0.0,0.0
0.0,0.0,0.0,0.0
7.354,0.67,-0.756,0.0
9.007,0.816,-0.674,0.0
8.655,0.783,-0.697,0.0
8.275,0.748,-0.713,0.0
0.0,0.0,0.0,0.0
0.0,0.0,0.0,0.0
7.308,0.658,-0.756,0.0
8.997,0.806,-0.679,0.0
8.626,0.772,-0.7,0.0
8.22,0.735,-0.714,0.0
0.0,0.0,0.0,0.0
7.598,0.678,-0.747,0.0
7.278,0.649,-0.758,0.0
8.963,0.795,-0.682,0.0
8.52,0.754,-0.696,0.0
8.198,0.725,-0.717,0.0
0.0,0.0,0.0,0.0
7.494,0.661,-0.742,0.0
7.242,0.638,-0.758,0.0
8.933,0.783,-0.684,0.0
8.538,0.747,-0.703,0.0
8.171,0.714,-0.719,0.0
0.0,0.0,0.0,0.0
0.0,0.0,0.0,0.0
7.186,0.626,-0.756,0.0
8.879,0.769,-0.685,0.0
8.461,0.731,-0.701,0.0
8.183,0.706,-0.724,0.0
0.0,0.0,0.0,0.0
7.497,0.645,-0.75,0.0
7.17,0.616,-0.758,0.0
8.867,0.758,-0.689,0.0
8.472,0.723,-0.706,0.0
0.0,0.0,0.0,0.0
0.0,0.0,0.0,0.0
7.44,0.632,-0.748,0.0
7.137,0.606,-0.758,0.0
8.789,0.742,-0.686,0.0
8.402,0.708,-0.704,0.0
8.101,0.682,-0.725,0.0
0.0,0.0,0.0,0.0
7.43,0.623,-0.75,0.0
7.121,0.597,-0.759,0.0
8.763,0.73,-0.688,0.0
8.426,0.701,-0.709,0.0
0.0,0.0,0.0,0.0
0.0,0.0,0.0,0.0
7.413,0.614,-0.751,0.0
7.086,0.586,-0.758,0.0
8.739,0.718,-0.689,0.0
8.369,0.686,-0.708,0.0
8.024,0.657,-0.724,0.0
0.0,0.0,0.0,0.0
7.378,0.602,-0.75,0.0
7.075,0.576,-0.76,0.0
8.719,0.706,-0.691,0.0
8.313,0.672,-0.706,0.0
0.0,0.0,0.0,0.0
0.0,0.0,0.0,0.0
7.378,0.593,-0.753,0.0
7.074,0.568,-0.762,0.0
8.663,0.691,-0.689,0.0
8.333,0.664,-0.71,0.0
0.0,0.0,0.0,0.0
0.0,0.0,0.0,0.0
7.387,0.585,-0.755,0.0
7.036,0.556,-0.76,0.0
8.65,0.68,-0.69,0.0
8.369,0.657,-0.715,0.0
0.0,0.0,0.0,0.0
0.0,0.0,0.0,0.0
7.324,0.571,-0.751,0.0
7.062,0.55,-0.764,0.0
8.642,0.669,-0.691,0.0
8.304,0.641,-0.711,0.0
0.0,0.0,0.0,0.0
0.0,0.0,0.0,0.0
7.345,0.564,-0.754,0.0
7.088,0.543,-0.768,0.0
8.649,0.658,-0.693,0.0
8.311,0.631,-0.713,0.0
0.0,0.0,0.0,0.0
0.0,0.0,0.0,0.0
7.315,0.552,-0.752,0.0
7.047,0.531,-0.765,0.0
8.639,0.647,-0.694,0.0
8.296,0.62,-0.713,0.0
0.0,0.0,0.0,0.0
0.0,0.0,0.0,0.0
7.343,0.545,-0.756,0.0
7.023,0.52,-0.763,0.0
8.612,0.634,-0.692,0.0
0.0,0.0,0.0,0.0
0.0,0.0,0.0,0.0
7.672,0.56,-0.747,0.0
7.322,0.534,-0.754,0.0
7.057,0.513,-0.767,0.0
8.625,0.623,-0.694,0.0
0.0,0.0,0.0,0.0
0.0,0.0,0.0,0.0
0.0,0.0,0.0,0.0
7.315,0.523,-0.754,0.0
7.04,0.503,-0.765,0.0
8.59,0.609,-0.691,0.0
0.0,0.0,0.0,0.0
0.0,0.0,0.0,0.0
0.0,0.0,0.0,0.0
7.332,0.515,-0.755,0.0
7.004,0.491,-0.761,0.0
8.62,0.6,-0.693,0.0
0.0,0.0,0.0,0.0
0.0,0.0,0.0,0.0
0.0,0.0,0.0,0.0
7.337,0.505,-0.755,0.0
6.998,0.481,-0.76,0.0
8.638,0.59,-0.694,0.0
0.0,0.0,0.0,0.0
7.934,0.539,-0.726,0.0
0.0,0.0,0.0,0.0
7.305,0.493,-0.751,0.0
6.989,0.471,-0.758,0.0
8.66,0.58,-0.695,0.0
0.0,0.0,0.0,0.0
0.0,0.0,0.0,0.0
0.0,0.0,0.0,0.0
7.363,0.487,-0.756,0.0
7.036,0.464,-0.762,0.0
8.612,0.565,-0.689,0.0
0.0,0.0,0.0,0.0
0.0,0.0,0.0,0.0
0.0,0.0,0.0,0.0
7.37,0.478,-0.755,0.0
7.042,0.455,-0.761,0.0
8.662,0.556,-0.692,0.0
0.0,0.0,0.0,0.0
0.0,0.0,0.0,0.0
0.0,0.0,0.0,0.0
7.359,0.467,-0.753,0.0
7.051,0.446,-0.761,0.0
8.703,0.547,-0.693,0.0
0.0,0.0,0.0,0.0
0.0,0.0,0.0,0.0
0.0,0.0,0.0,0.0
7.356,0.456,-0.75,0.0
7.078,0.438,-0.761,0.0
8.746,0.537,-0.693,0.0
0.0,0.0,0.0,0.0
0.0,0.0,0.0,0.0
0.0,0.0,0.0,0.0
7.374,0.447,-0.749,0.0
7.09,0.428,-0.76,0.0
8.733,0.524,-0.689,0.0
0.0,0.0,0.0,0.0
0.0,0.0,0.0,0.0
0.0,0.0,0.0,0.0
7.407,0.438,-0.75,0.0
7.096,0.419,-0.758,0.0
8.705,0.51,-0.684,0.0
0.0,0.0,0.0,0.0
0.0,0.0,0.0,0.0
0.0,0.0,0.0,0.0
7.413,0.428,-0.748,0.0
7.094,0.408,-0.755,0.0
0.0,0.0,0.0,0.0
0.0,0.0,0.0,0.0
0.0,0.0,0.0,0.0
0.0,0.0,0.0,0.0
7.451,0.42,-0.748,0.0
7.15,0.402,-0.757,0.0
0.0,0.0,0.0,0.0
0.0,0.0,0.0,0.0
0.0,0.0,0.0,0.0
0.0,0.0,0.0,0.0
7.469,0.41,-0.746,0.0
7.178,0.393,-0.757,0.0
0.0,0.0,0.0,0.0
0.0,0.0,0.0,0.0
0.0,0.0,0.0,0.0
0.0,0.0,0.0,0.0
7.481,0.4,-0.743,0.0
7.197,0.384,-0.755,0.0
0.0,0.0,0.0,0.0
0.0,0.0,0.0,0.0
0.0,0.0,0.0,0.0
0.0,0.0,0.0,0.0
0.0,0.0,0.0,0.0
7.229,0.375,-0.754,0.0
8.957,0.462,-0.68,0.0
0.0,0.0,0.0,0.0
0.0,0.0,0.0,0.0
0.0,0.0,0.0,0.0
0.0,0.0,0.0,0.0
7.266,0.367,-0.753,0.0
0.0,0.0,0.0,0.0
0.0,0.0,0.0,0.0
0.0,0.0,0.0,0.0
7.896,0.391,-0.725,0.0
0.0,0.0,0.0,0.0
7.301,0.358,-0.751,0.0
9.031,0.44,-0.674,0.0
0.0,0.0,0.0,0.0
0.0,0.0,0.0,0.0
7.95,0.382,-0.725,0.0
0.0,0.0,0.0,0.0
7.337,0.349,-0.75,0.0
9.086,0.43,-0.671,0.0
8.631,0.406,-0.685,0.0
8.311,0.389,-0.705,0.0
7.953,0.371,-0.719,0.0
0.0,0.0,0.0,0.0
7.396,0.342,-0.75,0.0
9.115,0.418,-0.666,0.0
8.775,0.401,-0.689,0.0
0.0,0.0,0.0,0.0
8.069,0.365,-0.723,0.0
0.0,0.0,0.0,0.0
7.414,0.332,-0.746,0.0
9.163,0.408,-0.662,0.0
8.785,0.389,-0.683,0.0
8.45,0.372,-0.703,0.0
0.0,0.0,0.0,0.0
7.769,0.339,-0.732,0.0
7.477,0.324,-0.746,0.0
9.323,0.402,-0.666,0.0
8.87,0.38,-0.682,0.0
8.433,0.36,-0.694,0.0
0.0,0.0,0.0,0.0
0.0,0.0,0.0,0.0
7.519,0.316,-0.743,0.0
9.312,0.388,-0.657,0.0
8.869,0.368,-0.674,0.0
8.582,0.354,-0.698,0.0
8.175,0.335,-0.711,0.0
0.0,0.0,0.0,0.0
7.605,0.309,-0.744,0.0
9.432,0.38,-0.656,0.0
8.979,0.36,-0.673,0.0
8.603,0.343,-0.692,0.0
8.279,0.328,-0.712,0.0
7.999,0.315,-0.731,0.0
0.0,0.0,0.0,0.0
9.509,0.37,-0.652,0.0
9.103,0.353,-0.673,0.0
8.562,0.33,-0.68,0.0
8.301,0.318,-0.705,0.0
8.008,0.305,-0.724,0.0
7.67,0.29,-0.735,0.0
9.593,0.361,-0.648,0.0
9.139,0.341,-0.667,0.0
0.0,0.0,0.0,0.0
0.0,0.0,0.0,0.0
8.034,0.295,-0.717,0.0
7.787,0.284,-0.738,0.0
9.688,0.351,-0.644,0.0
9.237,0.333,-0.664,0.0
0.0,0.0,0.0,0.0
0.0,0.0,0.0,0.0
0.0,0.0,0.0,0.0
7.818,0.275,-0.732,0.0
9.847,0.344,-0.643,0.0
9.298,0.322,-0.658,0.0
8.929,0.308,-0.68,0.0
8.494,0.291,-0.693,0.0
8.229,0.28,-0.716,0.0
7.888,0.267,-0.729,0.0
9.916,0.333,-0.637,0.0
9.443,0.315,-0.657,0.0
8.972,0.297,-0.672,0.0
0.0,0.0,0.0,0.0
8.272,0.27,-0.71,0.0
7.944,0.258,-0.725,0.0
9.988,0.322,-0.629,0.0
9.511,0.305,-0.65,0.0
8.979,0.286,-0.662,0.0
0.0,0.0,0.0,0.0
8.377,0.263,-0.709,0.0
8.043,0.251,-0.724,0.0
10.153,0.314,-0.627,0.0
9.607,0.295,-0.645,0.0
9.167,0.28,-0.664,0.0
8.731,0.265,-0.681,0.0
8.351,0.251,-0.696,0.0
8.118,0.242,-0.72,0.0
10.268,0.305,-0.621,0.0
9.751,0.287,-0.642,0.0
9.348,0.273,-0.666,0.0
0.0,0.0,0.0,0.0
8.452,0.243,-0.693,0.0
8.205,0.234,-0.717,0.0
10.401,0.295,-0.616,0.0
9.901,0.279,-0.639,0.0
9.383,0.263,-0.656,0.0
8.983,0.249,-0.677,0.0
8.573,0.236,-0.692,0.0
8.215,0.225,-0.707,0.0
10.584,0.287,-0.612,0.0
10.011,0.27,-0.632,0.0
9.57,0.256,-0.656,0.0
9.061,0.24,-0.67,0.0
8.704,0.229,-0.69,0.0
8.272,0.216,-0.7,0.0
10.693,0.277,-0.604,0.0
10.168,0.261,-0.628,0.0
9.703,0.247,-0.651,0.0
9.18,0.232,-0.666,0.0
8.811,0.221,-0.686,0.0
8.377,0.208,-0.697,0.0
10.902,0.269,-0.6,0.0
10.26,0.251,-0.619,0.0
9.829,0.239,-0.645,0.0
9.325,0.225,-0.663,0.0
8.902,0.212,-0.68,0.0
8.461,0.2,-0.692,0.0
11.06,0.26,-0.592,0.0
10.47,0.244,-0.616,0.0
9.894,0.229,-0.635,0.0
0.0,0.0,0.0,0.0
9.001,0.204,-0.674,0.0
8.562,0.192,-0.687,0.0
11.218,0.251,-0.584,0.0
10.585,0.234,-0.607,0.0
10.081,0.221,-0.632,0.0
9.623,0.209,-0.655,0.0
9.134,0.197,-0.67,0.0
8.711,0.186,-0.686,0.0
11.442,0.243,-0.579,0.0
10.76,0.226,-0.601,0.0
10.221,0.213,-0.625,0.0
0.0,0.0,0.0,0.0
0.0,0.0,0.0,0.0
8.883,0.179,-0.685,0.0
11.627,0.233,-0.57,0.0
10.961,0.218,-0.595,0.0
10.362,0.204,-0.617,0.0
0.0,0.0,0.0,0.0
0.0,0.0,0.0,0.0
8.95,0.171,-0.676,0.0
11.827,0.225,-0.561,0.0
11.171,0.21,-0.589,0.0
10.576,0.197,-0.613,0.0
10.091,0.186,-0.639,0.0
9.51,0.173,-0.653,0.0
9.086,0.164,-0.672,0.0
12.01,0.215,-0.55,0.0
11.376,0.201,-0.581,0.0
10.651,0.187,-0.6,0.0
10.232,0.177,-0.631,0.0
9.751,0.167,-0.653,0.0
9.213,0.156,-0.666,0.0
12.304,0.207,-0.543,0.0
11.54,0.192,-0.57,0.0
11.017,0.182,-0.602,0.0
10.302,0.168,-0.618,0.0
9.81,0.158,-0.641,0.0
9.302,0.148,-0.657,0.0
12.462,0.197,-0.529,0.0
11.794,0.185,-0.563,0.0
11.104,0.172,-0.588,0.0
10.536,0.161,-0.615,0.0
10.058,0.152,-0.64,0.0
9.546,0.142,-0.657,0.0
12.74,0.189,-0.519,0.0
12.022,0.176,-0.553,0.0
11.331,0.164,-0.581,0.0
10.68,0.153,-0.604,0.0
10.199,0.144,-0.631,0.0
9.694,0.135,-0.651,0.0
12.997,0.18,-0.507,0.0
12.264,0.168,-0.543,0.0
11.571,0.156,-0.573,0.0
10.911,0.146,-0.598,0.0
10.416,0.137,-0.626,0.0
9.833,0.128,-0.643,0.0
13.312,0.172,-0.496,0.0
12.442,0.159,-0.528,0.0
11.753,0.148,-0.561,0.0
11.13,0.138,-0.59,0.0
10.531,0.129,-0.614,0.0
9.966,0.12,-0.633,0.0
13.603,0.163,-0.482,0.0
12.737,0.151,-0.518,0.0
11.973,0.14,-0.55,0.0
11.312,0.13,-0.58,0.0
10.673,0.121,-0.603,0.0
10.191,0.114,-0.629,0.0
13.957,0.155,-0.47,0.0
13.065,0.143,-0.508,0.0
12.339,0.133,-0.544,0.0
11.569,0.123,-0.572,0.0
10.915,0.115,-0.596,0.0
10.403,0.108,-0.623,0.0
14.297,0.147,-0.455,0.0
13.299,0.135,-0.492,0.0
12.568,0.125,-0.531,0.0
11.804,0.116,-0.561,0.0
11.182,0.108,-0.59,0.0
10.547,0.1,-0.612,0.0
14.621,0.138,-0.438,0.0
13.693,0.127,-0.481,0.0
12.765,0.117,-0.515,0.0
12.033,0.108,-0.549,0.0
11.376,0.101,-0.579,0.0
10.796,0.094,-0.606,0.0
15.099,0.131,-0.423,0.0
14.02,0.119,-0.466,0.0
13.114,0.11,-0.504,0.0
12.378,0.102,-0.542,0.0
11.622,0.094,-0.569,0.0
11.034,0.088,-0.598,0.0
15.515,0.123,-0.405,0.0
14.34,0.111,-0.449,0.0
13.433,0.102,-0.49,0.0
12.614,0.094,-0.527,0.0
11.882,0.087,-0.559,0.0
11.235,0.081,-0.587,0.0
16.016,0.115,-0.388,0.0
14.745,0.104,-0.433,0.0
13.76,0.095,-0.476,0.0
12.82,0.087,-0.511,0.0
12.271,0.082,-0.553,0.0
11.473,0.075,-0.577,0.0
16.436,0.107,-0.366,0.0
15.232,0.097,-0.418,0.0
14.102,0.088,-0.46,0.0
13.137,0.08,-0.498,0.0
12.397,0.074,-0.534,0.0
11.763,0.069,-0.568,0.0
16.927,0.099,-0.343,0.0
15.746,0.09,-0.401,0.0
14.36,0.08,-0.44,0.0
13.592,0.074,-0.488,0.0
12.696,0.068,-0.522,0.0
11.985,0.063,-0.555,0.0
17.552,0.091,-0.321,0.0
16.216,0.082,-0.381,0.0
14.938,0.074,-0.428,0.0
13.897,0.067,-0.471,0.0
13.048,0.062,-0.51,0.0
12.306,0.057,-0.545,0.0
18.34,0.084,-0.299,0.0
16.688,0.075,-0.358,0.0
15.463,0.068,-0.412,0.0
14.284,0.061,-0.456,0.0
13.358,0.056,-0.495,0.0
12.562,0.051,-0.531,0.0
19.135,0.077,-0.273,0.0
17.209,0.068,-0.334,0.0
15.924,0.061,-0.392,0.0
14.744,0.055,-0.44,0.0
13.717,0.05,-0.481,0.0
12.867,0.045,-0.517,0.0
20.365,0.072,-0.249,0.0
17.899,0.061,-0.311,0.0
16.428,0.055,-0.371,0.0
15.137,0.049,-0.421,0.0
14.141,0.044,-0.466,0.0
13.119,0.04,-0.5,0.0
21.283,0.064,-0.216,4.0
18.754,0.055,-0.287,0.0
16.904,0.048,-0.346,0.0
15.726,0.043,-0.405,0.0
14.439,0.039,-0.446,0.0
13.561,0.035,-0.489,0.0
22.349,0.058,-0.181,0.0
19.621,0.049,-0.26,0.0
17.607,0.042,-0.324,0.0
16.201,0.038,-0.383,0.0
14.936,0.033,-0.431,0.0
13.922,0.03,-0.473,0.0
23.663,0.051,-0.143,1.0
20.979,0.044,-0.234,2.0
18.435,0.037,-0.301,0.0
16.678,0.032,-0.36,0.0
15.5,0.029,-0.414,0.0
14.336,0.025,-0.457,0.0
24.841,0.044,-0.098,0.0
21.839,0.037,-0.198,1.0
19.146,0.031,-0.272,0.0
17.241,0.027,-0.336,0.0
16.003,0.024,-0.394,0.0
14.72,0.021,-0.439,0.0
26.006,0.037,-0.047,0.0
23.43,0.032,-0.163,1.0
20.642,0.027,-0.25,0.0
18.047,0.022,-0.313,0.0
16.505,0.019,-0.371,0.0
15.253,0.017,-0.422,0.0
27.198,0.03,0.007,0.0
24.147,0.025,-0.118,0.0
21.378,0.021,-0.214,3.0
18.835,0.018,-0.287,0.0
17.027,0.015,-0.347,0.0
15.806,0.013,-0.404,0.0
28.589,0.024,0.068,1.0
25.623,0.02,-0.07,0.0
22.857,0.017,-0.18,0.0
19.794,0.014,-0.26,0.0
17.734,0.011,-0.324,0.0
16.325,0.01,-0.382,0.0
28.8,0.017,0.13,0.0
26.61,0.015,-0.016,0.0
23.812,0.012,-0.136,0.0
21.067,0.01,-0.231,3.0
18.496,0.008,-0.298,0.0
16.793,0.007,-0.357,0.0
31.197,0.012,0.208,0.0
28.118,0.01,0.043,1.0
25.206,0.008,-0.09,0.0
22.065,0.006,-0.195,0.0
19.43,0.005,-0.272,0.0
17.424,0.004,-0.333,0.0
33.088,0.008,0.291,0.0
28.731,0.006,0.105,0.0
26.223,0.005,-0.038,0.0
23.628,0.004,-0.158,1.0
20.897,0.003,-0.247,1.0
18.258,0.002,-0.31,0.0
0.0,0.0,0.0,0.0
30.581,0.003,0.177,0.0
27.422,0.002,0.018,0.0
24.714,0.001,-0.113,0.0
21.587,0.001,-0.209,1.0
19.069,0.0,-0.283,0.0
36.961,0.001,0.483,0.0
32.708,0.0,0.259,1.0
28.652,0.0,0.08,1.0
25.827,0.0,-0.062,0.0
23.4,0.0,-0.177,0.0
20.149,0.0,-0.256,0.0
40.948,0.0,0.624,0.0
34.093,0.0,0.344,0.0
30.219,0.0,0.15,0.0
26.996,0.0,-0.007,0.0
23.987,0.0,-0.129,0.0
21.22,0.0,-0.223,3.0
0.0,0.0,0.0,0.0
36.524,-0.001,0.448,0.0
31.269,0.0,0.223,0.0
28.437,0.0,0.054,1.0
25.511,0.0,-0.082,0.0
22.77,0.0,-0.19,0.0
0.0,0.0,0.0,0.0
0.0,0.0,0.0,0.0
33.239,0.0,0.309,0.0
30.138,0.0,0.122,0.0
26.57,0.0,-0.028,0.0
23.74,0.001,-0.147,1.0
0.0,0.0,0.0,0.0
42.853,0.002,0.71,0.0
35.949,0.003,0.411,0.0
30.992,0.003,0.192,0.0
27.862,0.003,0.029,0.0
25.128,0.003,-0.103,0.0
0.0,0.0,0.0,0.0
0.0,0.0,0.0,0.0
0.0,0.0,0.0,0.0
33.009,0.007,0.275,0.0
28.683,0.007,0.091,0.0
26.206,0.007,-0.05,0.0
77.673,0.022,2.02,2.0
0.0,0.0,0.0,0.0
42.065,0.014,0.661,0.0
0.0,0.0,0.0,0.0
30.529,0.012,0.162,0.0
27.456,0.012,0.005,0.0
77.924,0.035,2.194,0.0
0.0,0.0,0.0,0.0
0.0,0.0,0.0,0.0
36.923,0.021,0.465,0.0
33.091,0.02,0.246,0.0
28.648,0.019,0.065,1.0
83.019,0.055,2.514,9.0
0.0,0.0,0.0,0.0
0.0,0.0,0.0,0.0
40.0,0.032,0.588,0.0
33.39,0.028,0.319,0.0
30.17,0.027,0.133,0.0
83.264,0.075,2.696,14.0
77.304,0.074,2.105,3.0
0.0,0.0,0.0,0.0
42.565,0.045,0.715,0.0
0.0,0.0,0.0,0.0
31.17,0.037,0.202,0.0
83.271,0.099,2.872,24.0
82.807,0.104,2.429,5.0
0.0,0.0,0.0,0.0
0.0,0.0,0.0,0.0
0.0,0.0,0.0,0.0
33.388,0.05,0.287,0.0
83.275,0.126,3.047,31.0
78.103,0.123,2.455,16.0
76.857,0.126,2.019,3.0
0.0,0.0,0.0,0.0
41.9,0.075,0.664,0.0
35.658,0.066,0.381,0.0
83.278,0.156,3.222,32.0
78.046,0.151,2.617,19.0
77.861,0.157,2.209,3.0
0.0,0.0,0.0,0.0
0.0,0.0,0.0,0.0
36.973,0.083,0.473,0.0
83.265,0.188,3.395,33.0
83.247,0.195,2.965,30.0
83.084,0.202,2.53,10.0
76.141,0.191,1.917,4.0
0.0,0.0,0.0,0.0
41.787,0.112,0.62,0.0
83.264,0.224,3.568,43.0
83.252,0.231,3.136,41.0
83.202,0.239,2.705,18.0
76.348,0.226,2.08,2.0
0.0,0.0,0.0,0.0
0.0,0.0,0.0,0.0
76.305,1.149,5.732,30.0
76.972,1.173,5.375,12.0
76.675,1.182,4.95,15.0
76.558,1.194,4.53,18.0
76.557,1.208,4.126,29.0
76.546,1.222,3.723,33.0
83.824,1.346,6.438,10.0
83.424,1.355,5.964,10.0
89.116,1.464,5.9,15.0
83.999,1.395,5.11,12.0
76.627,1.287,4.256,15.0
76.589,1.3,3.85,17.0
83.213,1.422,6.527,13.0
83.402,1.44,6.099,13.0
76.706,1.339,5.203,7.0
83.804,1.478,5.233,19.0
84.288,1.503,4.817,15.0
85.379,1.539,4.429,8.0
83.04,1.506,6.648,16.0
83.951,1.538,6.274,12.0
76.72,1.42,5.326,26.0
83.844,1.568,5.368,15.0
84.057,1.588,4.937,23.0
85.037,1.622,4.544,15.0
73.009,1.402,5.959,5.0
76.837,1.49,5.864,13.0
76.779,1.504,5.45,9.0
83.347,1.649,5.466,22.0
83.755,1.673,5.048,21.0
83.63,1.687,4.598,18.0
63.641,1.292,5.294,10.0
63.2,1.295,4.92,27.0
83.509,1.728,6.056,31.0
82.461,1.723,5.533,25.0
82.989,1.75,5.128,24.0
83.273,1.772,4.703,21.0
63.76,1.366,5.399,17.0
63.032,1.363,5.002,13.0
83.348,1.819,6.17,28.0
76.999,1.695,5.281,14.0
82.952,1.843,5.249,28.0
83.852,1.88,4.86,14.0
72.494,1.636,6.246,6.0
63.102,1.437,5.1,11.0
62.926,1.446,4.75,17.0
76.986,1.784,5.393,11.0
82.244,1.923,5.323,36.0
82.195,1.939,4.883,33.0
0.0,0.0,0.0,0.0
63.135,1.512,5.195,21.0
76.896,1.857,5.916,13.0
82.407,2.007,5.89,28.0
82.107,2.017,5.431,35.0
82.228,2.036,5.001,29.0
65.874,1.642,5.866,25.0
63.019,1.584,5.273,16.0
64.658,1.638,5.064,25.0
82.434,2.106,6.006,29.0
82.254,2.119,5.554,28.0
82.209,2.135,5.112,35.0
50.581,1.322,4.573,20.0
63.043,1.66,5.361,8.0
64.361,1.709,5.128,32.0
82.562,2.209,6.126,25.0
82.335,2.221,5.669,31.0
81.819,2.223,5.196,29.0
50.441,1.38,4.628,24.0
55.752,1.536,4.815,16.0
62.947,1.748,5.098,24.0
62.169,1.739,4.694,18.0
82.301,2.32,5.773,29.0
82.093,2.332,5.319,27.0
49.679,1.42,4.623,16.0
55.649,1.603,4.878,24.0
63.116,1.831,5.192,32.0
62.192,1.817,4.775,20.0
82.611,2.432,5.899,27.0
82.07,2.434,5.42,23.0
49.655,1.482,4.683,35.0
55.805,1.678,4.961,29.0
62.306,1.887,5.203,27.0
64.903,1.979,5.064,15.0
66.101,2.03,4.802,7.0
82.077,2.539,5.52,33.0
49.807,1.551,4.758,31.0
55.957,1.754,5.043,29.0
62.25,1.965,5.274,15.0
62.205,1.976,4.927,15.0
66.1,2.115,4.88,23.0
66.119,2.13,4.526,35.0
50.056,1.623,4.841,11.0
56.109,1.831,5.122,18.0
76.444,2.511,6.565,18.0
64.034,2.118,5.147,21.0
65.104,2.167,4.881,15.0
66.141,2.215,4.602,7.0
50.145,1.691,4.907,21.0
53.535,1.817,4.948,21.0
73.024,2.493,6.353,4.0
64.217,2.207,5.232,23.0
65.171,2.254,4.957,17.0
81.424,2.834,5.754,17.0
50.236,1.76,4.971,25.0
53.637,1.891,5.016,22.0
66.722,2.367,5.877,21.0
64.07,2.287,5.289,9.0
77.437,2.781,5.974,14.0
81.162,2.933,5.821,13.0
50.231,1.827,5.024,22.0
50.2,1.837,4.748,22.0
66.782,2.458,5.952,17.0
56.199,2.081,4.698,26.0
56.163,2.092,4.39,29.0
65.295,2.446,4.75,28.0
50.378,1.901,5.091,16.0
49.993,1.897,4.779,23.0
50.084,1.911,4.514,19.0
56.304,2.161,4.763,12.0
56.205,2.169,4.448,29.0
65.723,2.551,4.845,8.0
48.414,1.892,4.94,13.0
49.946,1.962,4.822,23.0
49.916,1.972,4.547,23.0
56.41,2.241,4.825,15.0
66.635,2.662,5.337,13.0
0.0,0.0,0.0,0.0
48.407,1.958,4.984,32.0
50.001,2.033,4.874,24.0
49.883,2.039,4.59,23.0
56.161,2.308,4.855,30.0
56.443,2.332,4.572,24.0
66.574,2.765,5.03,13.0
48.421,2.025,5.029,29.0
50.183,2.11,4.936,30.0
53.709,2.269,4.989,5.0
55.334,2.35,4.832,29.0
0.0,0.0,0.0,0.0
66.476,2.852,5.078,19.0
49.225,2.127,5.155,24.0
50.177,2.178,4.978,25.0
49.651,2.166,4.653,14.0
0.0,0.0,0.0,0.0
58.174,2.563,4.809,15.0
66.37,2.939,5.124,9.0
49.557,2.21,5.23,14.0
50.28,2.253,5.029,24.0
49.614,2.234,4.689,14.0
55.488,2.51,4.934,16.0
49.21,2.237,4.106,5.0
64.182,2.931,5.004,13.0
0.0,0.0,0.0,0.0
50.449,2.33,5.083,24.0
49.924,2.317,4.756,23.0
55.524,2.589,4.978,24.0
49.276,2.307,4.147,18.0
58.237,2.74,4.582,16.0
49.369,2.339,5.283,15.0
50.491,2.402,5.124,13.0
49.666,2.373,4.766,21.0
55.507,2.663,5.015,14.0
57.966,2.794,4.918,9.0
58.053,2.81,4.606,49.0
50.921,2.482,5.483,19.0
50.365,2.466,5.144,22.0
49.723,2.444,4.803,20.0
49.666,2.452,4.518,31.0
49.326,2.445,4.216,26.0
58.25,2.899,4.658,7.0
50.531,2.533,5.472,10.0
50.449,2.539,5.183,18.0
49.71,2.512,4.832,29.0
49.615,2.517,4.543,30.0
49.414,2.518,4.252,27.0
66.106,3.383,5.325,10.0
48.353,2.491,5.265,19.0
48.997,2.534,5.062,17.0
49.677,2.579,4.857,16.0
49.67,2.589,4.576,23.0
58.546,3.064,5.071,19.0
58.504,3.074,4.744,11.0
47.83,2.531,5.233,22.0
49.244,2.615,5.114,23.0
49.927,2.662,4.908,18.0
49.689,2.659,4.604,23.0
49.03,2.634,4.271,6.0
58.535,3.157,4.776,44.0
47.792,2.595,5.253,22.0
49.363,2.691,5.151,16.0
45.085,2.467,4.453,7.0
49.655,2.726,4.624,22.0
49.358,2.72,4.323,23.0
58.522,3.237,4.801,26.0
48.1,2.679,5.309,23.0
51.669,2.888,5.414,3.0
45.15,2.533,4.479,19.0
49.696,2.797,4.649,28.0
49.221,2.78,4.331,22.0
66.522,3.772,5.485,6.0
45.89,2.62,5.083,17.0
45.104,2.584,4.744,8.0
49.076,2.821,4.888,18.0
57.291,3.304,5.381,8.0
49.423,2.86,4.367,20.0
80.356,4.666,6.655,15.0
45.683,2.671,5.077,20.0
45.186,2.651,4.769,16.0
48.807,2.872,4.878,18.0
57.652,3.404,5.435,31.0
49.447,2.929,4.386,20.0
80.683,4.796,6.708,19.0
45.214,2.706,5.039,20.0
45.125,2.709,4.776,29.0
48.903,2.945,4.903,22.0
54.913,3.318,5.193,13.0
57.707,3.498,5.135,20.0
58.041,3.529,4.842,38.0
45.176,2.766,5.047,25.0
48.49,2.977,5.145,4.0
49.41,3.043,4.966,18.0
52.226,3.226,4.951,16.0
52.237,3.237,4.661,8.0
58.074,3.61,4.858,21.0
45.168,2.827,5.056,25.0
49.363,3.098,5.249,14.0
49.306,3.103,4.966,7.0
52.192,3.295,4.959,10.0
0.0,0.0,0.0,0.0
58.074,3.688,4.869,9.0
34.185,2.185,3.833,24.0
0.0,0.0,0.0,0.0
51.69,3.322,5.215,18.0
52.139,3.361,4.962,17.0
59.493,3.846,5.329,6.0
57.894,3.753,4.862,13.0
34.13,2.227,3.832,17.0
48.789,3.193,5.202,21.0
51.593,3.385,5.211,8.0
74.902,4.928,7.137,11.0
63.16,4.167,5.664,4.0
61.113,4.043,5.138,6.0
34.159,2.275,3.838,19.0
48.762,3.256,5.204,11.0
51.528,3.45,5.209,11.0
65.921,4.424,6.286,21.0
63.079,4.244,5.661,11.0
66.817,4.508,5.622,8.0
34.038,2.311,3.826,28.0
33.73,2.296,3.601,9.0
54.578,3.725,5.519,9.0
65.124,4.456,6.212,12.0
59.222,4.063,5.316,7.0
58.635,4.033,4.934,7.0
33.888,2.346,3.81,33.0
33.892,2.352,3.618,23.0
48.161,3.35,4.87,15.0
43.573,3.038,4.156,4.0
59.154,4.135,5.308,7.0
58.698,4.113,4.938,23.0
33.898,2.39,3.809,25.0
33.792,2.388,3.606,24.0
48.118,3.409,4.863,21.0
43.409,3.082,4.137,13.0
51.834,3.689,4.648,23.0
58.714,4.189,4.935,28.0
33.967,2.439,3.814,25.0
33.909,2.44,3.615,32.0
48.152,3.472,4.861,24.0
43.286,3.127,4.121,27.0
51.799,3.751,4.639,8.0
58.414,4.24,4.903,32.0
33.953,2.48,3.808,31.0
33.939,2.484,3.614,23.0
48.172,3.532,4.857,14.0
43.268,3.179,4.113,33.0
43.251,3.185,3.867,21.0
58.001,4.28,4.859,26.0
33.933,2.52,3.8,33.0
34.01,2.53,3.616,20.0
51.791,3.861,5.213,5.0
43.462,3.247,4.124,23.0
43.228,3.236,3.857,22.0
61.072,4.581,5.105,34.0
34.0,2.566,3.801,33.0
42.952,3.248,4.557,10.0
51.776,3.923,5.199,17.0
43.41,3.296,4.109,24.0
49.739,3.783,4.426,23.0
61.319,4.673,5.11,21.0
33.997,2.607,3.792,32.0
42.891,3.295,4.54,33.0
43.487,3.347,4.355,16.0
43.332,3.341,4.09,29.0
51.885,4.008,4.603,5.0
61.29,4.743,5.091,11.0
43.163,3.36,4.802,7.0
42.925,3.348,4.53,30.0
43.504,3.399,4.344,17.0
43.221,3.383,4.066,30.0
51.859,4.065,4.584,33.0
51.919,4.078,4.295,19.0
43.17,3.412,4.788,9.0
42.92,3.397,4.516,28.0
43.475,3.446,4.326,20.0
43.091,3.422,4.038,33.0
60.626,4.823,5.338,20.0
51.938,4.139,4.278,35.0
33.995,2.725,3.758,13.0
42.937,3.447,4.501,33.0
43.393,3.489,4.301,23.0
43.1,3.471,4.022,35.0
59.826,4.825,5.244,33.0
51.934,4.196,4.257,44.0
33.981,2.762,3.742,26.0
42.789,3.483,4.467,27.0
43.254,3.525,4.269,27.0
43.039,3.513,3.998,32.0
59.679,4.878,5.205,33.0
51.933,4.252,4.234,41.0
33.978,2.798,3.726,20.0
42.428,3.498,4.41,22.0
43.283,3.574,4.252,24.0
49.143,4.064,4.542,5.0
59.53,4.93,5.163,28.0
51.888,4.303,4.206,19.0
42.963,3.584,4.69,7.0
42.69,3.565,4.416,18.0
43.185,3.611,4.22,36.0
43.094,3.608,3.961,30.0
59.607,4.998,5.14,33.0
51.795,4.349,4.172,12.0
42.025,3.549,4.566,14.0
42.426,3.587,4.366,17.0
43.172,3.655,4.195,35.0
51.424,4.359,4.698,11.0
59.508,5.051,5.098,29.0
43.055,3.659,3.443,21.0
42.102,3.598,4.55,17.0
42.768,3.659,4.376,22.0
43.15,3.696,4.168,37.0
51.449,4.412,4.671,25.0
59.55,5.114,5.066,17.0
51.785,4.453,4.111,12.0
42.136,3.642,4.528,20.0
42.949,3.717,4.368,32.0
51.398,4.453,4.933,14.0
51.446,4.462,4.638,23.0
51.649,4.485,4.361,19.0
42.922,3.732,3.38,23.0
42.282,3.696,4.516,5.0
43.241,3.783,4.37,35.0
51.294,4.492,4.89,22.0
51.574,4.522,4.615,36.0
43.2,3.792,3.619,27.0
42.923,3.772,3.351,28.0
33.593,2.967,3.565,32.0
43.229,3.822,4.338,31.0
51.356,4.545,4.859,24.0
43.597,3.862,3.871,18.0
43.145,3.826,3.584,23.0
51.884,4.606,4.014,6.0
33.599,2.998,3.541,27.0
51.419,4.592,5.123,7.0
51.517,4.605,4.837,19.0
43.557,3.897,3.836,17.0
59.136,5.297,4.869,7.0
51.881,4.651,3.975,5.0
43.323,3.903,4.533,9.0
51.42,4.637,5.084,17.0
43.587,3.934,4.059,26.0
43.518,3.93,3.799,23.0
59.108,5.343,4.821,8.0
51.919,4.698,3.938,15.0
43.343,3.941,4.5,7.0
51.349,4.672,5.036,20.0
43.495,3.961,4.016,29.0
52.904,4.821,4.575,18.0
51.817,4.726,4.184,30.0
59.44,5.426,4.46,20.0
43.01,3.945,4.43,18.0
43.709,4.012,4.25,30.0
43.474,3.993,3.977,15.0
52.858,4.859,4.527,21.0
51.825,4.768,4.141,42.0
59.362,5.465,4.404,27.0
42.319,3.914,4.323,5.0
43.568,4.032,4.199,25.0
59.672,5.526,5.408,16.0
52.819,4.894,4.478,19.0
51.949,4.817,4.106,30.0
59.049,5.48,4.329,33.0
42.31,3.944,4.284,14.0
43.585,4.065,4.162,20.0
59.583,5.56,5.347,23.0
43.518,4.064,3.65,7.0
52.115,4.87,4.072,15.0
58.745,5.493,4.254,33.0
42.503,3.991,4.265,14.0
43.555,4.092,4.118,24.0
59.428,5.586,5.277,26.0
59.308,5.578,4.919,14.0
59.167,5.568,4.568,15.0
58.64,5.522,4.191,23.0
43.691,4.131,4.342,11.0
43.628,4.127,4.084,17.0
59.288,5.611,5.209,8.0
51.823,4.907,4.249,32.0
58.817,5.571,4.485,32.0
58.67,5.561,4.137,27.0
43.647,4.154,4.295,21.0
43.437,4.135,4.024,17.0
43.538,4.146,3.782,16.0
51.832,4.939,4.199,42.0
58.762,5.602,4.422,32.0
58.597,5.588,4.074,26.0
43.663,4.181,4.253,27.0
52.475,5.026,4.808,9.0
43.482,4.166,3.733,26.0
51.855,4.97,4.148,21.0
58.723,5.63,4.36,32.0
58.584,5.62,4.013,28.0
43.612,4.199,4.203,28.0
52.323,5.039,4.74,26.0
43.435,4.185,3.684,14.0
59.142,5.699,4.67,26.0
58.517,5.641,4.284,31.0
58.587,5.65,3.953,28.0
43.538,4.214,4.15,25.0
51.954,5.029,4.651,11.0
51.833,5.018,4.342,18.0
58.988,5.713,4.595,31.0
58.453,5.663,4.217,32.0
58.693,5.688,3.897,32.0
43.458,4.226,4.094,32.0
51.966,5.054,4.596,6.0
51.815,5.04,4.284,30.0
58.861,5.726,4.521,33.0
58.46,5.689,4.154,28.0
58.67,5.711,3.832,33.0
43.405,4.239,4.042,33.0
43.533,4.252,3.802,22.0
51.813,5.061,4.226,25.0
58.589,5.724,4.435,28.0
58.518,5.718,4.093,26.0
58.405,5.708,3.749,30.0
43.389,4.254,3.991,25.0
59.274,5.812,5.109,11.0
59.261,5.81,4.766,7.0
58.512,5.737,4.362,32.0
58.496,5.737,4.024,32.0
58.215,5.71,3.671,25.0
43.319,4.262,3.934,28.0
59.171,5.822,5.032,9.0
59.179,5.822,4.691,30.0
58.466,5.752,4.291,29.0
58.363,5.742,3.948,32.0
58.252,5.732,3.606,27.0
43.314,4.274,3.883,24.0
51.795,5.111,4.344,14.0
59.047,5.826,4.611,33.0
58.355,5.757,4.215,26.0
58.305,5.752,3.875,27.0
58.131,5.736,3.529,26.0
59.546,5.891,5.267,7.0
51.771,5.121,4.28,24.0
58.883,5.824,4.528,33.0
58.415,5.777,4.149,31.0
58.363,5.772,3.809,25.0
57.948,5.731,3.449,25.0
43.233,4.287,3.771,31.0
51.785,5.133,4.218,16.0
58.746,5.822,4.446,33.0
58.481,5.795,4.082,33.0
58.276,5.775,3.732,28.0
58.246,5.771,3.396,24.0
43.217,4.292,3.716,16.0
59.315,5.89,4.758,19.0
58.523,5.809,4.357,32.0
58.323,5.789,4.0,32.0
58.286,5.784,3.662,31.0
58.544,5.809,3.342,26.0
51.85,5.156,4.395,12.0
59.072,5.873,4.665,28.0
58.257,5.79,4.265,28.0
58.278,5.79,3.924,31.0
58.226,5.784,3.585,31.0
58.501,5.811,3.265,25.0
51.775,5.153,4.323,18.0
58.955,5.866,4.581,30.0
58.265,5.795,4.191,31.0
58.318,5.798,3.852,28.0
57.891,5.755,3.491,27.0
58.58,5.822,3.195,27.0
51.76,5.154,4.255,15.0
58.948,5.867,4.505,28.0
58.513,5.822,4.134,32.0
58.304,5.798,3.777,25.0
57.868,5.753,3.416,17.0
58.806,5.845,3.133,33.0
59.324,5.907,4.8,15.0
58.675,5.839,4.409,33.0
58.452,5.815,4.055,32.0
58.249,5.792,3.698,28.0
58.482,5.813,3.376,32.0
58.922,5.855,3.062,28.0
59.159,5.888,4.709,26.0
58.298,5.799,4.303,32.0
58.298,5.796,3.967,32.0
58.296,5.793,3.625,32.0
58.507,5.811,3.301,30.0
58.996,5.858,2.989,25.0
59.016,5.868,4.62,25.0
58.225,5.786,4.221,30.0
58.304,5.79,3.891,28.0
57.943,5.752,3.526,32.0
58.542,5.809,3.225,30.0
59.004,5.852,2.912,24.0
58.982,5.857,4.539,34.0
58.4,5.795,4.156,32.0
58.347,5.787,3.815,28.0
57.872,5.736,3.445,27.0
58.712,5.816,3.157,32.0
59.038,5.846,2.836,13.0
58.692,5.818,4.438,29.0
58.502,5.795,4.085,32.0
58.282,5.769,3.733,29.0
58.325,5.769,3.395,32.0
58.87,5.82,3.087,29.0
60.898,6.017,2.843,12.0
58.468,5.782,4.342,23.0
58.429,5.774,4.002,32.0
58.243,5.752,3.653,27.0
58.797,5.802,3.343,33.0
59.052,5.824,3.017,28.0
60.159,5.929,2.728,19.0
58.401,5.76,4.258,21.0
58.294,5.745,3.914,30.0
58.188,5.73,3.571,26.0
58.902,5.796,3.269,33.0
59.221,5.823,2.946,23.0
59.358,5.833,2.612,28.0
58.373,5.739,4.176,27.0
58.355,5.732,3.837,28.0
58.061,5.698,3.483,28.0
58.905,5.777,3.188,33.0
60.547,5.933,2.929,26.0
59.217,5.799,2.524,28.0
58.528,5.734,4.106,29.0
58.304,5.706,3.754,32.0
58.114,5.682,3.407,26.0
58.95,5.76,3.11,27.0
61.115,5.966,2.873,25.0
59.492,5.803,2.454,31.0
58.497,5.707,4.023,27.0
58.175,5.67,3.665,32.0
59.311,5.775,3.395,26.0
59.01,5.74,3.032,23.0
61.131,5.941,2.789,19.0
59.355,5.764,2.367,17.0
58.614,5.692,3.951,33.0
58.108,5.638,3.581,30.0
59.172,5.735,3.306,28.0
60.747,5.881,3.039,28.0
60.23,5.826,2.666,33.0
59.349,5.736,2.286,12.0
58.806,5.682,3.883,34.0
58.174,5.615,3.505,30.0
59.059,5.694,3.218,31.0
60.65,5.842,2.95,22.0
60.073,5.78,2.577,33.0
60.37,5.803,2.242,19.0
58.68,5.639,3.793,33.0
58.634,5.628,3.453,33.0
59.114,5.667,3.14,31.0
60.6,5.803,2.864,26.0
60.068,5.746,2.494,25.0
60.289,5.762,2.157,20.0
58.369,5.575,3.692,33.0
59.224,5.65,3.405,29.0
59.854,5.703,3.097,34.0
60.342,5.743,2.768,35.0
59.901,5.695,2.405,31.0
60.181,5.715,2.07,23.0
58.169,5.519,3.599,27.0
59.337,5.623,3.329,33.0
60.216,5.699,3.031,34.0
60.207,5.691,2.679,27.0
60.391,5.702,2.34,30.0
60.259,5.683,1.989,19.0
58.198,5.483,3.52,26.0
59.311,5.58,3.245,28.0
60.43,5.678,2.959,34.0
60.193,5.649,2.594,32.0
61.06,5.723,2.281,16.0
62.028,5.806,1.962,15.0
58.194,5.441,3.439,30.0
59.559,5.56,3.176,21.0
60.644,5.653,2.885,29.0
60.493,5.632,2.524,33.0
61.098,5.681,2.199,24.0
62.122,5.768,1.88,10.0
58.813,5.454,3.394,34.0
60.931,5.642,3.166,35.0
60.62,5.605,2.801,32.0
60.573,5.593,2.445,27.0
61.314,5.653,2.123,17.0
62.251,5.732,1.798,6.0
59.28,5.45,3.339,33.0
60.184,5.524,3.044,25.0
60.76,5.569,2.724,35.0
60.91,5.574,2.376,26.0
62.624,5.723,2.084,34.0
52.207,4.764,1.437,9.0
59.332,5.405,3.262,32.0
60.332,5.487,2.97,34.0
61.234,5.56,2.662,21.0
60.904,5.521,2.293,16.0
62.998,5.703,2.01,17.0
52.08,4.707,1.364,17.0
59.732,5.388,3.203,35.0
61.079,5.5,2.924,30.0
0.0,0.0,0.0,0.0
52.152,4.681,1.892,23.0
52.154,4.673,1.594,23.0
52.044,4.656,1.293,13.0
60.161,5.371,3.144,19.0
60.974,5.434,2.837,20.0
52.138,4.639,2.127,23.0
52.118,4.629,1.822,34.0
52.109,4.62,1.523,27.0
51.855,4.59,1.219,9.0
52.134,4.604,2.655,15.0
52.105,4.593,2.355,33.0
52.099,4.584,2.055,46.0
52.112,4.577,1.752,54.0
52.099,4.568,1.454,23.0
51.497,4.507,1.142,6.0
52.075,4.546,2.583,42.0
52.08,4.538,2.285,55.0
52.097,4.531,1.987,61.0
52.116,4.524,1.684,62.0
52.103,4.515,1.385,23.0
51.235,4.431,1.07,2.0
52.056,4.49,2.514,55.0
52.08,4.483,2.217,64.0
52.12,4.477,1.92,48.0
52.155,4.472,1.617,24.0
52.118,4.46,1.318,12.0
49.118,4.195,0.961,5.0
52.079,4.435,2.447,47.0
52.121,4.429,2.15,41.0
52.162,4.423,1.853,28.0
52.219,4.419,1.551,17.0
52.076,4.398,1.249,8.0
49.131,4.141,0.897,5.0
52.138,4.38,2.381,22.0
52.188,4.375,2.085,20.0
52.272,4.372,1.789,9.0
47.729,3.984,1.356,3.0
51.536,4.293,1.169,3.0
49.29,4.097,0.837,10.0
81.472,6.749,3.618,9.0
81.142,6.707,3.138,20.0
47.823,3.944,1.576,3.0
47.745,3.928,1.296,0.0
47.605,3.908,1.02,6.0
49.038,4.017,0.771,18.0
81.343,6.64,3.509,12.0
81.03,6.598,3.032,16.0
47.602,3.867,1.509,4.0
47.604,3.858,1.232,6.0
47.545,3.844,0.959,1.0
45.584,3.677,0.66,1.0
81.375,6.54,3.408,24.0
47.86,3.837,1.731,3.0
47.565,3.804,1.448,6.0
47.512,3.791,1.171,14.0
47.732,3.799,0.904,1.0
43.351,3.442,0.574,0.0
81.484,6.445,3.313,13.0
47.708,3.763,1.666,6.0
47.48,3.735,1.388,9.0
47.448,3.723,1.111,15.0
47.891,3.749,0.848,2.0
37.404,2.92,0.449,0.0
48.951,3.806,1.93,14.0
47.639,3.693,1.606,6.0
47.415,3.667,1.328,14.0
47.388,3.655,1.053,0.0
47.794,3.676,0.789,0.0
36.577,2.806,0.396,0.0
48.577,3.71,1.857,1.0
47.637,3.628,1.55,16.0
47.365,3.597,1.271,17.0
47.34,3.585,0.995,2.0
0.0,0.0,0.0,0.0
35.405,2.667,0.341,0.0
48.146,3.609,1.784,1.0
47.329,3.538,1.484,12.0
47.341,3.528,1.215,16.0
47.368,3.52,0.941,2.0
0.0,0.0,0.0,0.0
33.784,2.496,0.287,0.0
47.77,3.513,1.715,3.0
47.275,3.466,1.428,20.0
47.364,3.462,1.161,3.0
51.68,3.766,0.968,1.0
0.0,0.0,0.0,0.0
32.245,2.336,0.237,0.0
47.529,3.425,1.653,6.0
47.26,3.395,1.375,23.0
47.293,3.387,1.106,2.0
52.005,3.713,0.916,3.0
37.667,2.68,0.449,0.0
31.36,2.225,0.196,1.0
47.391,3.344,1.595,10.0
47.272,3.324,1.322,160.0
47.354,3.318,1.055,1.0
47.436,3.313,0.783,0.0
35.736,2.488,0.387,0.0
29.939,2.077,0.154,0.0
47.285,3.262,1.54,13.0
47.25,3.249,1.27,168.0
47.296,3.241,1.003,3.0
47.102,3.216,0.726,1.0
34.374,2.339,0.335,0.0
28.957,1.964,0.118,0.0
47.23,3.184,1.487,18.0
47.24,3.173,1.219,169.0
47.3,3.165,0.952,3.0
43.95,2.931,0.631,0.0
33.515,2.226,0.291,0.0
28.54,1.889,0.086,1.0
47.204,3.106,1.437,35.0
47.228,3.095,1.17,161.0
51.145,3.339,0.976,0.0
0.0,0.0,0.0,0.0
32.751,2.122,0.251,1.0
27.748,1.791,0.055,0.0
47.207,3.027,1.389,60.0
47.203,3.015,1.121,63.0
52.22,3.323,0.944,2.0
36.903,2.339,0.455,0.0
31.066,1.961,0.207,0.0
27.128,1.706,0.027,0.0
47.218,2.949,1.342,158.0
47.275,2.941,1.076,3.0
47.524,2.943,0.813,0.0
47.26,2.915,0.536,2.0
30.215,1.856,0.172,0.0
26.659,1.631,0.001,1.0
47.211,2.868,1.297,81.0
47.243,2.858,1.03,5.0
47.607,2.868,0.769,3.0
34.54,2.071,0.359,0.0
29.674,1.772,0.141,0.0
26.079,1.55,-0.023,0.0
47.249,2.789,1.254,16.0
47.262,2.777,0.987,4.0
47.761,2.794,0.727,2.0
33.805,1.968,0.32,0.0
28.914,1.676,0.111,0.0
25.665,1.481,-0.046,0.0
47.267,2.707,1.212,9.0
47.265,2.694,0.945,1.0
42.107,2.389,0.604,1.0
32.918,1.859,0.283,1.0
28.241,1.587,0.083,0.0
25.131,1.406,-0.067,0.0
47.255,2.623,1.17,4.0
47.444,2.621,0.907,0.0
0.0,0.0,0.0,0.0
32.31,1.767,0.25,0.0
27.806,1.513,0.058,0.0
24.831,1.344,-0.087,0.0
47.294,2.54,1.131,2.0
48.987,2.616,0.895,2.0
37.521,1.994,0.474,0.0
31.285,1.654,0.216,1.0
27.401,1.441,0.035,0.0
24.385,1.275,-0.106,0.0
47.278,2.451,1.092,3.0
49.648,2.561,0.867,3.0
34.988,1.794,0.414,0.0
30.807,1.571,0.188,1.0
26.861,1.362,0.013,0.0
23.962,1.209,-0.123,0.0
47.349,2.367,1.057,3.0
49.93,2.482,0.833,1.0
34.902,1.724,0.386,0.0
30.111,1.479,0.16,0.0
26.523,1.295,-0.007,0.0
23.179,1.125,-0.136,0.0
47.43,2.281,1.022,0.0
43.834,2.095,0.698,0.0
33.719,1.602,0.347,0.0
29.215,1.379,0.134,0.0
26.067,1.223,-0.026,0.0
23.142,1.079,-0.153,1.0
47.632,2.2,0.992,0.0
0.0,0.0,0.0,0.0
33.349,1.52,0.32,1.0
28.793,1.304,0.112,0.0
25.685,1.156,-0.044,0.0
22.856,1.022,-0.167,1.0
47.683,2.111,0.961,0.0
0.0,0.0,0.0,0.0
32.781,1.431,0.292,1.0
28.604,1.24,0.092,0.0
25.332,1.091,-0.06,0.0
22.162,0.948,-0.177,0.0
0.0,0.0,0.0,0.0
38.837,1.632,0.539,0.0
32.721,1.364,0.271,1.0
28.198,1.167,0.072,0.0
24.786,1.019,-0.074,0.0
21.906,0.893,-0.188,0.0
0.0,0.0,0.0,0.0
38.593,1.545,0.512,0.0
31.811,1.263,0.243,0.0
27.675,1.091,0.054,0.0
24.594,0.962,-0.089,1.0
21.836,0.847,-0.201,1.0
47.693,1.83,0.872,0.0
0.0,0.0,0.0,0.0
31.469,1.188,0.223,0.0
27.364,1.024,0.038,0.0
24.421,0.907,-0.102,1.0
21.545,0.793,-0.21,1.0
47.382,1.723,0.84,1.0
0.0,0.0,0.0,0.0
30.861,1.103,0.202,0.0
27.138,0.961,0.023,0.0
24.189,0.849,-0.114,1.0
21.343,0.743,-0.219,1.0
44.893,1.543,0.772,0.0
0.0,0.0,0.0,0.0
30.84,1.04,0.186,0.0
26.71,0.892,0.009,1.0
24.114,0.798,-0.125,0.0
20.924,0.686,-0.225,0.0
0.0,0.0,0.0,0.0
34.842,1.115,0.388,0.0
28.98,0.918,0.161,3.0
26.591,0.834,-0.002,0.0
23.386,0.726,-0.132,0.0
20.43,0.627,-0.229,0.0
0.0,0.0,0.0,0.0
33.952,1.016,0.363,1.0
28.973,0.858,0.148,4.0
26.408,0.774,-0.014,0.0
23.428,0.679,-0.143,1.0
20.184,0.578,-0.235,0.0
0.0,0.0,0.0,0.0
33.787,0.942,0.347,0.0
28.952,0.798,0.136,5.0
26.181,0.713,-0.024,0.0
23.403,0.63,-0.152,1.0
20.148,0.535,-0.243,0.0
40.373,1.056,0.624,0.0
33.519,0.866,0.332,1.0
28.902,0.737,0.125,5.0
25.972,0.653,-0.033,0.0
23.182,0.575,-0.158,0.0
19.967,0.489,-0.247,0.0
39.093,0.942,0.591,0.0
33.248,0.789,0.318,1.0
28.831,0.675,0.116,4.0
25.868,0.597,-0.042,0.0
22.964,0.522,-0.164,0.0
19.891,0.445,-0.253,0.0
0.0,0.0,0.0,0.0
32.959,0.713,0.305,0.0
28.83,0.614,0.107,4.0
25.587,0.536,-0.049,0.0
22.635,0.466,-0.168,0.0
19.635,0.398,-0.255,0.0
0.0,0.0,0.0,0.0
32.882,0.642,0.296,0.0
28.755,0.551,0.099,1.0
25.524,0.481,-0.055,0.0
22.551,0.417,-0.173,0.0
19.72,0.358,-0.261,0.0
37.748,0.67,0.54,0.0
32.479,0.565,0.285,0.0
28.715,0.49,0.093,1.0
25.419,0.425,-0.06,0.0
22.463,0.368,-0.177,0.0
19.491,0.313,-0.262,0.0
38.062,0.596,0.537,0.0
32.304,0.494,0.277,0.0
28.788,0.43,0.088,2.0
25.355,0.37,-0.064,0.0
22.395,0.32,-0.181,0.0
19.259,0.268,-0.262,0.0
37.637,0.509,0.525,0.0
32.003,0.422,0.27,0.0
28.74,0.369,0.083,3.0
25.341,0.316,-0.068,0.0
22.061,0.267,-0.181,0.0
19.2,0.226,-0.263,0.0
37.576,0.428,0.52,0.0
32.079,0.354,0.266,0.0
28.728,0.307,0.08,3.0
25.317,0.261,-0.071,0.0
22.169,0.221,-0.184,2.0
19.264,0.185,-0.266,0.0
37.797,0.35,0.519,0.0
32.112,0.286,0.264,0.0
28.731,0.245,0.078,4.0
25.258,0.207,-0.072,0.0
22.234,0.174,-0.186,2.0
19.172,0.143,-0.266,0.0
37.362,0.265,0.511,0.0
32.332,0.218,0.265,0.0
28.562,0.182,0.076,1.0
25.272,0.152,-0.073,0.0
22.229,0.126,-0.186,2.0
19.25,0.102,-0.267,0.0
37.279,0.185,0.51,0.0
31.63,0.146,0.259,0.0
28.488,0.121,0.076,1.0
25.163,0.098,-0.072,0.0
22.065,0.078,-0.185,0.0
19.209,0.061,-0.266,0.0
0.0,0.0,0.0,0.0
0.0,0.0,0.0,0.0
28.589,0.059,0.078,1.0
25.362,0.044,-0.072,0.0
22.022,0.03,-0.183,0.0
19.264,0.019,-0.266,0.0
0.0,0.0,0.0,0.0
32.035,0.009,0.265,0.0
28.542,-0.001,0.08,1.0
25.281,-0.01,-0.07,0.0
22.106,-0.016,-0.182,0.0
19.311,-0.021,-0.265,0.0
37.924,-0.056,0.526,0.0
31.835,-0.058,0.267,0.0
28.688,-0.062,0.083,5.0
25.361,-0.064,-0.067,0.0
22.309,-0.064,-0.181,0.0
19.283,-0.062,-0.262,0.0
37.707,-0.136,0.528,0.0
32.447,-0.128,0.277,1.0
28.708,-0.124,0.088,6.0
25.257,-0.118,-0.063,0.0
22.347,-0.112,-0.178,0.0
19.49,-0.105,-0.261,0.0
0.0,0.0,0.0,0.0
32.46,-0.197,0.283,1.0
28.732,-0.185,0.093,7.0
25.488,-0.173,-0.058,0.0
22.473,-0.161,-0.174,0.0
19.476,-0.146,-0.257,0.0
0.0,0.0,0.0,0.0
32.586,-0.267,0.291,1.0
28.736,-0.246,0.1,6.0
25.403,-0.227,-0.052,0.0
22.689,-0.211,-0.17,0.0
19.606,-0.189,-0.254,0.0
0.0,0.0,0.0,0.0
32.714,-0.338,0.301,1.0
28.735,-0.307,0.107,1.0
25.79,-0.285,-0.046,0.0
22.979,-0.263,-0.166,1.0
19.709,-0.232,-0.25,0.0
0.0,0.0,0.0,0.0
33.352,-0.416,0.316,1.0
28.669,-0.368,0.116,0.0
25.937,-0.342,-0.038,0.0
23.215,-0.314,-0.161,1.0
19.888,-0.277,-0.246,0.0
0.0,0.0,0.0,0.0
33.789,-0.493,0.332,1.0
28.693,-0.429,0.125,0.0
25.972,-0.398,-0.029,0.0
23.442,-0.368,-0.154,0.0
19.857,-0.318,-0.238,0.0
0.0,0.0,0.0,0.0
33.75,-0.564,0.344,2.0
28.723,-0.49,0.136,0.0
26.479,-0.461,-0.02,0.0
23.442,-0.417,-0.145,0.0
20.206,-0.367,-0.235,0.0
0.0,0.0,0.0,0.0
34.013,-0.639,0.36,1.0
28.748,-0.551,0.148,2.0
26.754,-0.522,-0.009,0.0
23.868,-0.474,-0.138,0.0
20.578,-0.416,-0.23,0.0
0.0,0.0,0.0,0.0
34.414,-0.719,0.379,1.0
28.769,-0.611,0.161,1.0
26.978,-0.583,0.002,0.0
23.862,-0.524,-0.126,0.0
20.983,-0.468,-0.225,0.0
0.0,0.0,0.0,0.0
34.608,-0.795,0.398,0.0
28.784,-0.671,0.175,0.0
27.231,-0.644,0.015,0.0
23.986,-0.576,-0.115,1.0
21.762,-0.53,-0.222,0.0
0.0,0.0,0.0,0.0
0.0,0.0,0.0,0.0
31.066,-0.788,0.205,0.0
27.573,-0.709,0.03,0.0
0.0,0.0,0.0,0.0
21.221,-0.561,-0.206,0.0
0.0,0.0,0.0,0.0
0.0,0.0,0.0,0.0
0.0,0.0,0.0,0.0
28.033,-0.778,0.046,0.0
25.119,-0.706,-0.093,0.0
21.544,-0.613,-0.196,0.0
0.0,0.0,0.0,0.0
36.752,-1.068,0.483,0.0
0.0,0.0,0.0,0.0
28.362,-0.844,0.063,1.0
25.552,-0.77,-0.08,0.0
22.314,-0.68,-0.19,0.0
0.0,0.0,0.0,0.0
37.99,-1.182,0.523,0.0
0.0,0.0,0.0,0.0
28.543,-0.908,0.082,1.0
25.538,-0.821,-0.063,0.0
22.37,-0.727,-0.176,0.0
0.0,0.0,0.0,0.0
39.196,-1.297,0.565,0.0
0.0,0.0,0.0,0.0
28.59,-0.966,0.101,2.0
25.89,-0.884,-0.047,0.0
22.741,-0.784,-0.164,0.0
0.0,0.0,0.0,0.0
0.0,0.0,0.0,0.0
33.589,-1.19,0.326,0.0
28.644,-1.024,0.121,6.0
26.377,-0.952,-0.03,0.0
23.042,-0.84,-0.15,0.0
0.0,0.0,0.0,0.0
0.0,0.0,0.0,0.0
0.0,0.0,0.0,0.0
28.678,-1.081,0.142,3.0
26.899,-1.023,-0.01,0.0
23.334,-0.896,-0.134,0.0
0.0,0.0,0.0,0.0
0.0,0.0,0.0,0.0
35.353,-1.389,0.395,0.0
28.657,-1.135,0.163,0.0
27.354,-1.093,0.009,0.0
23.764,-0.958,-0.119,0.0
0.0,0.0,0.0,0.0
0.0,0.0,0.0,0.0
35.71,-1.471,0.427,0.0
30.965,-1.287,0.201,0.0
28.178,-1.181,0.032,1.0
23.978,-1.012,-0.1,0.0
0.0,0.0,0.0,0.0
0.0,0.0,0.0,0.0
36.619,-1.578,0.468,0.0
31.519,-1.369,0.231,0.0
28.486,-1.247,0.056,3.0
25.684,-1.133,-0.086,0.0
0.0,0.0,0.0,0.0
0.0,0.0,0.0,0.0
38.121,-1.714,0.519,0.0
31.871,-1.443,0.26,0.0
28.501,-1.3,0.08,2.0
25.927,-1.191,-0.065,0.0
0.0,0.0,0.0,0.0
0.0,0.0,0.0,0.0
0.0,0.0,0.0,0.0
33.262,-1.567,0.301,0.0
28.512,-1.353,0.106,3.0
26.096,-1.247,-0.042,0.0
0.0,0.0,0.0,0.0
0.0,0.0,0.0,0.0
40.598,-1.974,0.626,0.0
0.0,0.0,0.0,0.0
28.527,-1.405,0.132,0.0
27.279,-1.353,-0.019,0.0
0.0,0.0,0.0,0.0
0.0,0.0,0.0,0.0
0.0,0.0,0.0,0.0
35.395,-1.795,0.386,0.0
30.802,-1.572,0.172,0.0
27.649,-1.42,0.006,1.0
34.482,-1.777,0.965,0.0
34.429,-1.785,0.779,0.0
34.657,-1.808,0.6,1.0
34.866,-1.829,0.414,0.0
31.174,-1.645,0.204,0.0
28.233,-1.499,0.034,4.0
34.179,-1.821,0.99,3.0
34.197,-1.832,0.808,1.0
34.281,-1.847,0.627,0.0
34.677,-1.879,0.446,0.0
0.0,0.0,0.0,0.0
28.494,-1.562,0.063,6.0
34.175,-1.879,1.024,167.0
34.126,-1.887,0.841,2.0
34.074,-1.894,0.658,0.0
34.636,-1.937,0.482,0.0
32.344,-1.818,0.277,0.0
28.536,-1.613,0.093,8.0
34.132,-1.935,1.059,154.0
34.067,-1.941,0.875,3.0
0.0,0.0,0.0,0.0
34.59,-1.992,0.517,1.0
34.263,-1.983,0.33,0.0
28.61,-1.665,0.124,3.0
34.082,-1.989,1.093,21.0
34.044,-1.996,0.911,5.0
34.024,-2.005,0.73,0.0
34.451,-2.041,0.552,5.0
35.016,-2.084,0.375,0.0
30.644,-1.833,0.166,3.0
33.977,-2.038,1.127,3.0
34.001,-2.049,0.947,9.0
33.975,-2.057,0.766,0.0
34.1,-2.074,0.584,2.0
0.0,0.0,0.0,0.0
31.664,-1.944,0.206,3.0
33.959,-2.09,1.164,6.0
33.973,-2.101,0.984,67.0
33.949,-2.109,0.803,1.0
33.942,-2.118,0.619,1.0
34.783,-2.181,0.45,0.0
31.992,-2.015,0.245,3.0
33.951,-2.143,1.202,5.0
33.951,-2.152,1.022,152.0
33.929,-2.16,0.842,6.0
33.89,-2.167,0.658,0.0
34.563,-2.22,0.487,2.0
32.936,-2.125,0.29,1.0
33.966,-2.196,1.243,4.0
33.928,-2.203,1.061,150.0
33.912,-2.211,0.881,16.0
0.0,0.0,0.0,0.0
34.479,-2.266,0.527,3.0
33.952,-2.241,0.339,1.0
33.918,-2.243,1.281,15.0
33.879,-2.25,1.1,39.0
33.895,-2.26,0.921,29.0
33.838,-2.265,0.736,0.0
34.057,-2.289,0.561,1.0
34.776,-2.347,0.389,0.0
33.9,-2.292,1.321,29.0
33.878,-2.299,1.141,29.0
33.886,-2.308,0.961,50.0
33.906,-2.319,0.779,0.0
33.963,-2.332,0.601,1.0
0.0,0.0,0.0,0.0
33.9,-2.341,1.362,13.0
33.882,-2.347,1.182,8.0
33.879,-2.356,1.003,57.0
33.875,-2.364,0.82,102.0
33.863,-2.372,0.641,133.0
34.439,-2.421,0.47,1.0
34.031,-2.397,1.41,0.0
33.886,-2.395,1.225,5.0
33.879,-2.402,1.045,67.0
33.843,-2.408,0.862,29.0
33.872,-2.419,0.684,156.0
34.338,-2.461,0.512,4.0
0.0,0.0,0.0,0.0
33.861,-2.439,1.267,28.0
33.847,-2.446,1.087,78.0
33.829,-2.453,0.904,49.0
33.876,-2.464,0.727,154.0
34.089,-2.488,0.552,3.0
34.343,-2.511,1.511,0.0
33.843,-2.482,1.31,54.0
33.819,-2.488,1.13,50.0
33.839,-2.497,0.949,95.0
33.859,-2.507,0.77,166.0
33.927,-2.52,0.593,2.0
0.0,0.0,0.0,0.0
33.846,-2.525,1.354,24.0
33.82,-2.531,1.174,10.0
33.831,-2.539,0.992,115.0
33.876,-2.55,0.815,152.0
33.848,-2.555,0.636,150.0
0.0,0.0,0.0,0.0
33.866,-2.568,1.399,0.0
33.844,-2.574,1.219,7.0
33.82,-2.579,1.036,99.0
33.808,-2.585,0.858,32.0
33.849,-2.596,0.68,153.0
34.659,-2.663,1.661,0.0
34.155,-2.631,1.456,0.0
33.832,-2.613,1.264,41.0
33.811,-2.619,1.081,112.0
33.83,-2.627,0.903,68.0
33.847,-2.635,0.725,152.0
34.822,-2.716,1.716,0.0
34.203,-2.674,1.504,0.0
33.831,-2.652,1.309,74.0
33.778,-2.654,1.125,55.0
33.819,-2.664,0.948,144.0
33.842,-2.673,0.771,153.0
0.0,0.0,0.0,0.0
0.0,0.0,0.0,0.0
33.793,-2.686,1.353,22.0
33.804,-2.693,1.172,9.0
33.819,-2.701,0.994,149.0
33.849,-2.71,0.817,150.0
200.271,-16.063,10.411,43.0
0.0,0.0,0.0,0.0
33.981,-2.737,1.407,0.0
33.831,-2.731,1.219,15.0
33.803,-2.735,1.04,138.0
33.795,-2.741,0.861,40.0
200.244,-16.269,10.686,25.0
34.915,-2.842,1.678,0.0
0.0,0.0,0.0,0.0
33.819,-2.765,1.266,68.0
33.798,-2.769,1.087,135.0
33.825,-2.777,0.91,150.0
200.187,-16.469,10.964,35.0
34.854,-2.872,1.724,0.0
0.0,0.0,0.0,0.0
33.812,-2.797,1.312,70.0
33.777,-2.8,1.133,47.0
33.814,-2.809,0.956,150.0
209.21,-17.411,11.749,5.0
151.978,-12.671,7.732,17.0
0.0,0.0,0.0,0.0
33.817,-2.829,1.36,8.0
33.82,-2.835,1.182,10.0
33.799,-2.839,1.003,125.0
152.0,-12.789,8.751,6.0
151.974,-12.809,7.947,150.0
34.58,-2.919,1.625,0.0
33.973,-2.873,1.414,0.0
33.804,-2.864,1.229,27.0
33.784,-2.867,1.05,120.0
151.986,-12.921,8.965,4.0
151.979,-12.941,8.161,150.0
34.774,-2.965,1.684,0.0
0.0,0.0,0.0,0.0
33.81,-2.893,1.277,77.0
33.779,-2.895,1.098,77.0
209.124,-17.956,12.635,10.0
151.965,-13.066,8.379,97.0
0.0,0.0,0.0,0.0
34.364,-2.963,1.528,0.0
33.8,-2.919,1.325,41.0
33.792,-2.923,1.147,16.0
148.913,-12.904,9.209,16.0
185.418,-16.087,10.486,47.0
185.441,-16.111,9.508,24.0
34.65,-3.014,1.59,0.0
33.939,-2.956,1.378,1.0
33.816,-2.95,1.195,7.0
148.655,-12.992,9.404,8.0
194.656,-17.032,11.286,48.0
194.729,-17.06,10.262,47.0
34.666,-3.041,1.64,0.0
34.034,-2.989,1.431,0.0
33.811,-2.973,1.243,35.0
150.282,-13.24,9.724,11.0
209.199,-18.452,12.428,7.0
209.212,-18.472,11.325,68.0
34.716,-3.068,1.692,0.0
34.307,-3.036,1.491,0.0
33.809,-2.995,1.291,52.0
208.365,-18.495,13.781,8.0
148.905,-13.231,9.061,4.0
209.173,-18.605,11.623,150.0
0.0,0.0,0.0,0.0
0.0,0.0,0.0,0.0
33.822,-3.018,1.34,8.0
148.391,-13.263,10.027,8.0
150.941,-13.503,9.403,5.0
209.137,-18.727,11.92,150.0
169.777,-15.217,8.762,10.0
34.69,-3.112,1.607,0.0
34.107,-3.062,1.4,0.0
148.373,-13.348,10.241,11.0
149.023,-13.417,9.498,4.0
186.37,-16.792,10.891,14.0
170.059,-15.335,9.021,6.0
34.858,-3.146,1.665,0.0
0.0,0.0,0.0,0.0
145.81,-13.195,10.275,4.0
148.702,-13.466,9.69,20.0
150.496,-13.638,9.011,21.0
162.225,-14.711,8.839,10.0
35.016,-3.177,1.723,0.0
0.0,0.0,0.0,0.0
147.219,-13.395,10.584,7.0
151.99,-13.836,10.123,3.0
149.371,-13.605,9.158,13.0
186.29,-16.979,10.418,20.0
169.481,-15.457,8.581,4.0
146.165,-13.364,10.719,10.0
209.485,-19.162,14.252,9.0
149.342,-13.667,9.369,12.0
150.429,-13.772,8.626,18.0
169.488,-15.526,8.821,15.0
34.721,-3.182,1.623,0.0
146.105,-13.416,10.923,4.0
153.715,-14.12,10.676,6.0
185.242,-17.022,11.882,7.0
150.281,-13.815,8.829,28.0
169.361,-15.575,9.055,5.0
34.767,-3.198,1.675,0.0
146.328,-13.489,11.149,7.0
153.432,-14.148,10.874,10.0
151.323,-13.956,9.923,4.0
149.56,-13.797,9.0,28.0
150.341,-13.874,8.25,19.0
0.0,0.0,0.0,0.0
146.433,-13.544,11.364,4.0
153.139,-14.166,11.069,6.0
0.0,0.0,0.0,0.0
149.528,-13.836,9.206,14.0
150.344,-13.915,8.459,29.0
169.268,-15.669,8.629,4.0
145.527,-13.498,11.498,9.0
143.597,-13.32,10.582,4.0
147.21,-13.656,10.065,5.0
198.963,-18.457,12.529,6.0
150.004,-13.917,8.651,25.0
150.289,-13.946,7.872,8.0
145.401,-13.52,11.692,11.0
143.666,-13.356,10.787,9.0
153.435,-14.264,10.703,8.0
151.526,-14.085,9.751,13.0
149.546,-13.902,8.831,28.0
150.212,-13.965,8.073,19.0
0.0,0.0,0.0,0.0
147.979,-13.782,11.315,5.0
153.317,-14.277,10.907,12.0
151.459,-14.103,9.954,15.0
149.542,-13.922,9.033,14.0
150.173,-13.981,8.275,19.0
145.831,-13.604,12.128,2.0
147.987,-13.802,11.517,5.0
143.702,-13.398,10.418,4.0
0.0,0.0,0.0,0.0
199.045,-18.55,12.293,5.0
149.969,-13.975,8.467,19.0
145.416,-13.578,12.292,8.0
145.45,-13.577,11.517,5.0
143.627,-13.401,10.608,15.0
147.232,-13.734,10.074,5.0
189.944,-17.713,11.987,8.0
149.592,-13.946,8.646,24.0
145.051,-13.551,12.455,10.0
145.361,-13.574,11.705,12.0
143.556,-13.399,10.793,10.0
153.396,-14.311,10.701,12.0
151.551,-14.134,9.765,13.0
149.581,-13.946,8.842,25.0
0.0,0.0,0.0,0.0
146.322,-13.663,11.977,3.0
148.043,-13.815,11.327,7.0
153.387,-14.307,10.9,12.0
151.491,-14.124,9.959,13.0
149.571,-13.938,9.036,12.0
147.023,-13.73,13.015,13.0
0.0,0.0,0.0,0.0
147.836,-13.788,11.503,8.0
143.757,-13.399,10.403,3.0
209.325,-19.5,14.033,5.0
