X,Y,Z,Reflectivity
79.36,0.651,3.593,8.0
79.404,0.662,3.181,5.0
78.097,0.662,2.721,30.0
76.657,0.654,4.824,5.0
79.361,0.688,4.579,3.0
79.332,0.699,4.161,7.0
79.352,0.711,3.74,6.0
79.412,0.723,3.329,10.0
79.412,0.735,2.914,5.0
76.66,0.714,4.967,17.0
76.791,0.726,4.573,5.0
79.37,0.762,4.311,9.0
79.349,0.774,3.886,8.0
79.432,0.787,3.476,4.0
108.11,1.089,4.167,16.0
76.55,0.775,5.1,17.0
79.515,0.817,4.881,11.0
88.622,0.925,4.976,17.0
89.938,0.953,4.569,11.0
92.161,0.991,4.2,9.0
108.382,1.182,4.372,11.0
76.155,0.835,5.213,28.0
76.555,0.852,4.838,20.0
76.664,0.865,4.443,12.0
91.052,1.043,4.79,14.0
92.054,1.069,4.36,13.0
109.015,1.285,4.594,15.0
83.173,0.985,5.844,9.0
76.288,0.917,4.959,33.0
76.477,0.932,4.569,54.0
76.67,0.947,4.171,12.0
89.346,1.118,4.391,10.0
109.033,1.383,4.788,17.0
63.136,0.806,4.548,24.0
76.233,0.986,5.09,30.0
76.468,1.002,4.704,27.0
76.548,1.016,4.297,33.0
76.615,1.03,3.899,23.0
76.648,1.044,3.499,12.0
63.177,0.865,4.661,17.0
76.295,1.058,5.227,29.0
76.574,1.076,4.842,17.0
76.512,1.089,4.428,30.0
76.558,1.102,4.028,26.0
76.585,1.117,3.627,33.0
76.235,1.118,5.756,28.0
76.954,1.142,5.404,16.0
76.656,1.152,4.979,18.0
76.532,1.164,4.56,23.0
76.555,1.178,4.157,33.0
76.532,1.192,3.754,40.0
76.288,1.195,5.89,9.0
77.304,1.224,5.559,14.0
89.079,1.428,5.934,10.0
76.637,1.242,4.693,10.0
76.605,1.255,4.285,17.0
76.577,1.269,3.881,25.0
63.051,1.051,4.972,7.0
83.383,1.406,6.133,25.0
76.717,1.307,5.235,17.0
83.885,1.445,5.272,12.0
84.882,1.479,4.887,16.0
85.463,1.505,4.468,9.0
82.508,1.461,6.639,17.0
83.464,1.494,6.273,14.0
76.69,1.387,5.357,28.0
83.685,1.53,5.394,10.0
84.068,1.553,4.973,22.0
85.484,1.596,4.605,10.0
76.851,1.444,6.307,4.0
76.917,1.46,5.903,11.0
76.766,1.472,5.484,29.0
82.855,1.605,5.471,14.0
83.863,1.641,5.093,21.0
84.28,1.665,4.671,15.0
63.69,1.266,5.326,23.0
63.0,1.265,4.933,23.0
83.564,1.694,6.099,31.0
82.575,1.69,5.579,29.0
83.328,1.722,5.187,21.0
84.282,1.759,4.799,16.0
63.786,1.339,5.431,13.0
62.955,1.334,5.025,20.0
83.456,1.785,6.216,30.0
77.09,1.664,5.323,11.0
82.768,1.804,5.275,24.0
84.054,1.848,4.911,17.0
55.835,1.236,4.837,20.0
63.007,1.407,5.121,25.0
77.008,1.734,5.848,5.0
82.65,1.879,5.827,11.0
82.278,1.887,5.362,32.0
82.264,1.903,4.924,36.0
55.967,1.303,4.93,24.0
63.047,1.481,5.215,13.0
74.724,1.77,5.782,15.0
82.496,1.971,5.934,25.0
82.253,1.982,5.477,29.0
82.293,2.0,5.041,31.0
56.253,1.376,5.034,10.0
62.966,1.553,5.297,10.0
64.694,1.609,5.096,24.0
82.589,2.071,6.055,18.0
82.298,2.081,5.594,29.0
82.036,2.091,5.138,28.0
50.79,1.303,4.615,22.0
55.952,1.447,4.784,17.0
64.259,1.675,5.149,31.0
74.501,1.957,5.563,21.0
82.39,2.181,5.711,30.0
82.123,2.192,5.252,18.0
56.319,1.513,5.193,10.0
62.977,1.705,5.467,11.0
64.426,1.757,5.247,39.0
74.519,2.048,5.661,19.0
82.323,2.281,5.812,22.0
82.179,2.294,5.362,30.0
56.227,1.58,5.258,10.0
56.146,1.589,4.947,29.0
64.927,1.851,5.371,40.0
74.836,2.149,5.781,11.0
82.725,2.393,5.945,15.0
82.119,2.393,5.461,28.0
49.88,1.463,4.727,27.0
56.18,1.66,5.02,20.0
62.337,1.854,5.234,11.0
62.019,1.858,4.867,17.0
74.872,2.259,5.472,6.0
82.109,2.496,5.56,30.0
50.03,1.53,4.802,22.0
56.224,1.732,5.092,28.0
62.26,1.931,5.302,24.0
62.037,1.937,4.941,7.0
66.097,2.078,4.909,35.0
66.133,2.093,4.556,13.0
50.37,1.605,4.894,25.0
53.73,1.724,4.929,15.0
62.627,2.023,5.407,6.0
62.146,2.021,5.023,23.0
65.099,2.131,4.91,15.0
66.126,2.179,4.631,25.0
50.462,1.674,4.961,25.0
53.761,1.795,4.994,25.0
56.048,1.883,4.902,25.0
64.058,2.167,5.249,21.0
65.163,2.218,4.987,16.0
81.389,2.788,5.789,14.0
50.342,1.735,5.005,24.0
50.304,1.745,4.727,15.0
55.938,1.952,4.953,29.0
55.988,1.966,4.648,29.0
76.02,2.687,5.9,12.0
77.459,2.754,5.592,19.0
50.258,1.799,5.05,17.0
49.947,1.799,4.747,26.0
49.961,1.81,4.476,13.0
56.048,2.043,4.711,27.0
56.285,2.064,4.426,11.0
65.284,2.407,4.78,30.0
50.283,1.867,5.104,23.0
49.95,1.865,4.798,27.0
50.094,1.881,4.539,21.0
56.095,2.119,4.771,26.0
63.138,2.398,5.026,17.0
65.44,2.5,4.855,17.0
50.257,1.934,5.151,14.0
49.929,1.931,4.844,29.0
50.012,1.945,4.579,18.0
56.381,2.205,4.849,23.0
66.663,2.622,5.37,17.0
80.768,3.195,6.068,9.0
49.906,1.987,5.162,25.0
50.217,2.011,4.919,40.0
56.985,2.294,5.27,12.0
56.606,2.291,4.92,30.0
56.458,2.297,4.6,12.0
66.614,2.725,5.064,14.0
49.812,2.051,5.197,24.0
50.216,2.079,4.963,24.0
0.0,0.0,0.0,0.0
55.303,2.313,4.855,24.0
58.236,2.449,4.795,19.0
66.512,2.811,5.113,27.0
51.427,2.188,5.41,12.0
50.326,2.152,5.017,24.0
49.507,2.128,4.663,14.0
49.259,2.128,4.365,23.0
58.206,2.526,4.839,28.0
76.086,3.319,5.91,8.0
51.464,2.261,5.455,20.0
50.341,2.222,5.059,23.0
49.547,2.198,4.707,18.0
49.195,2.192,4.398,15.0
58.128,2.603,4.878,13.0
64.209,2.889,5.037,13.0
51.406,2.329,5.488,24.0
50.565,2.301,5.12,24.0
49.58,2.267,4.747,18.0
55.525,2.551,5.005,9.0
58.028,2.678,4.912,23.0
64.182,2.976,5.081,12.0
56.395,2.633,6.063,19.0
50.494,2.368,5.149,24.0
49.654,2.34,4.789,23.0
49.44,2.34,4.491,28.0
57.888,2.752,4.94,18.0
58.071,2.773,4.637,26.0
56.461,2.715,6.108,23.0
50.518,2.44,5.185,24.0
49.727,2.411,4.829,23.0
49.509,2.411,4.53,29.0
57.903,2.833,4.979,11.0
58.066,2.853,4.674,14.0
48.357,2.393,5.262,12.0
50.223,2.496,5.187,24.0
49.774,2.483,4.865,23.0
49.646,2.487,4.573,23.0
49.319,2.482,4.27,10.0
65.931,3.331,5.346,13.0
48.547,2.47,5.312,20.0
49.298,2.518,5.12,23.0
49.774,2.552,4.893,12.0
49.603,2.554,4.597,21.0
58.54,3.026,5.101,28.0
65.643,3.407,5.358,11.0
48.174,2.517,5.297,23.0
49.099,2.576,5.126,23.0
49.992,2.633,4.941,23.0
49.569,2.62,4.619,23.0
49.029,2.602,4.298,20.0
58.529,3.119,4.807,48.0
47.709,2.559,5.27,22.0
53.116,2.861,5.571,9.0
49.537,2.678,4.92,23.0
49.606,2.691,4.646,23.0
49.084,2.672,4.326,25.0
58.552,3.2,4.836,29.0
48.266,2.656,5.353,23.0
53.162,2.935,5.6,7.0
49.163,2.725,4.904,21.0
49.566,2.757,4.664,22.0
49.304,2.752,4.366,27.0
65.696,3.681,5.453,8.0
47.79,2.696,5.321,22.0
44.873,2.54,4.745,16.0
48.887,2.777,4.897,9.0
57.238,3.262,5.409,21.0
49.34,2.822,4.387,32.0
66.603,3.824,5.553,22.0
45.359,2.622,5.067,20.0
44.977,2.608,4.772,12.0
48.798,2.839,4.905,22.0
57.462,3.354,5.449,32.0
49.402,2.893,4.41,12.0
80.876,4.753,6.77,22.0
45.018,2.663,5.043,17.0
44.932,2.666,4.782,6.0
51.693,3.078,5.211,8.0
57.707,3.446,5.49,27.0
57.761,3.461,5.173,46.0
58.023,3.489,4.873,22.0
45.08,2.729,5.062,18.0
34.322,2.084,3.662,31.0
51.675,3.147,5.223,21.0
63.098,3.855,6.018,10.0
57.65,3.532,5.177,8.0
58.021,3.566,4.887,37.0
34.802,2.154,3.916,33.0
34.3,2.129,3.667,22.0
51.873,3.229,5.255,4.0
52.042,3.249,4.975,23.0
57.853,3.623,5.207,4.0
58.085,3.649,4.903,27.0
34.826,2.203,3.926,28.0
34.458,2.185,3.69,28.0
51.748,3.291,5.251,13.0
54.965,3.506,5.263,8.0
59.625,3.815,5.376,23.0
57.998,3.721,4.905,13.0
34.766,2.246,3.924,30.0
34.363,2.226,3.684,32.0
65.812,4.274,6.687,6.0
54.945,3.578,5.268,26.0
57.988,3.787,5.235,3.0
66.907,4.381,5.666,8.0
34.744,2.29,3.925,29.0
34.369,2.271,3.688,29.0
64.697,4.287,6.579,13.0
54.882,3.646,5.266,13.0
60.966,4.061,5.508,18.0
58.109,3.881,4.924,18.0
34.568,2.324,3.907,28.0
34.345,2.315,3.687,30.0
48.132,3.253,4.896,17.0
65.087,4.41,6.248,22.0
0.0,0.0,0.0,0.0
80.996,5.516,6.865,16.0
34.624,2.374,3.913,38.0
34.408,2.364,3.694,29.0
48.145,3.316,4.897,11.0
51.986,3.589,4.989,4.0
0.0,0.0,0.0,0.0
58.699,4.072,4.974,12.0
34.567,2.414,3.906,32.0
34.399,2.407,3.692,30.0
48.104,3.374,4.891,5.0
64.247,4.518,6.163,24.0
51.867,3.656,4.683,20.0
58.711,4.148,4.971,27.0
34.586,2.459,3.905,34.0
34.486,2.458,3.698,24.0
48.145,3.439,4.89,18.0
64.013,4.582,6.134,10.0
51.84,3.719,4.675,16.0
58.737,4.224,4.967,28.0
34.536,2.5,3.895,40.0
34.653,2.513,3.712,38.0
48.166,3.5,4.886,18.0
59.522,4.335,5.695,29.0
58.83,4.294,5.297,25.0
57.996,4.243,4.895,27.0
34.557,2.544,3.892,33.0
34.557,2.549,3.695,29.0
48.253,3.566,4.886,14.0
43.088,3.191,4.115,13.0
49.443,3.669,4.442,17.0
57.996,4.313,4.883,15.0
34.329,2.569,3.859,36.0
34.471,2.585,3.679,24.0
0.0,0.0,0.0,0.0
43.173,3.25,4.113,19.0
49.365,3.723,4.424,26.0
61.427,4.642,5.158,19.0
34.273,2.606,3.844,30.0
34.447,2.624,3.668,11.0
49.566,3.782,4.996,7.0
43.197,3.303,4.104,21.0
51.872,3.973,4.634,42.0
61.167,4.694,5.119,9.0
34.242,2.644,3.831,26.0
49.36,3.818,5.241,7.0
43.27,3.352,4.348,6.0
51.856,4.025,4.91,6.0
51.858,4.032,4.617,56.0
51.906,4.043,4.327,34.0
34.245,2.684,3.82,29.0
34.216,2.686,3.621,33.0
34.058,2.678,3.411,24.0
42.764,3.368,4.035,27.0
48.963,3.862,4.342,18.0
51.93,4.104,4.311,42.0
34.456,2.739,3.83,35.0
34.208,2.724,3.608,25.0
43.163,3.442,4.306,16.0
42.824,3.421,4.024,30.0
48.943,3.916,4.321,12.0
51.94,4.163,4.29,36.0
34.176,2.755,3.785,33.0
34.168,2.759,3.589,13.0
43.058,3.482,4.277,17.0
42.827,3.468,4.006,27.0
60.206,4.883,5.289,34.0
51.95,4.22,4.268,47.0
34.156,2.791,3.767,31.0
34.238,2.801,3.581,22.0
42.949,3.519,4.246,27.0
48.631,3.99,4.525,19.0
59.963,4.927,5.239,33.0
51.934,4.274,4.242,30.0
34.099,2.822,3.744,35.0
34.22,2.836,3.562,30.0
42.942,3.564,4.224,37.0
49.256,4.093,4.559,13.0
59.507,4.952,5.168,29.0
51.827,4.32,4.207,15.0
34.152,2.862,3.732,20.0
34.195,2.869,3.541,22.0
42.904,3.605,4.197,31.0
51.531,4.335,4.741,9.0
59.511,5.013,5.136,30.0
51.793,4.369,4.175,21.0
41.992,3.562,4.565,5.0
43.094,3.659,4.437,17.0
42.839,3.642,4.166,31.0
51.431,4.378,4.702,23.0
59.453,5.067,5.096,28.0
51.782,4.419,4.143,49.0
34.126,2.928,3.689,31.0
43.021,3.695,4.403,31.0
42.796,3.68,4.135,34.0
51.434,4.428,4.67,17.0
59.555,5.133,5.068,11.0
51.783,4.468,4.111,40.0
34.135,2.961,3.668,33.0
43.0,3.734,4.374,11.0
42.784,3.719,4.106,29.0
51.538,4.485,4.646,24.0
51.655,4.5,4.361,36.0
43.11,3.76,3.393,24.0
34.118,2.991,3.643,30.0
43.026,3.776,4.346,9.0
51.311,4.507,4.889,13.0
51.561,4.533,4.612,40.0
59.14,5.205,4.952,28.0
43.059,3.794,3.36,17.0
34.15,3.024,3.622,30.0
42.887,3.801,4.302,28.0
51.407,4.561,4.861,16.0
0.0,0.0,0.0,0.0
59.235,5.265,4.917,21.0
42.94,3.821,3.319,13.0
34.138,3.052,3.595,23.0
42.912,3.84,4.272,19.0
42.816,3.835,4.016,5.0
59.487,5.332,5.233,8.0
43.108,3.867,3.545,19.0
42.922,3.855,3.284,20.0
43.059,3.886,4.501,9.0
42.956,3.879,4.243,33.0
51.502,4.655,4.79,11.0
43.512,3.936,3.793,18.0
43.12,3.903,3.512,30.0
42.937,3.89,3.251,13.0
43.099,3.924,4.47,9.0
42.894,3.908,4.201,17.0
43.586,3.973,4.018,28.0
52.898,4.826,4.567,14.0
43.138,3.939,3.477,30.0
59.505,5.438,4.456,18.0
43.063,3.953,4.429,15.0
43.255,3.973,4.2,18.0
43.532,4.001,3.976,27.0
43.323,3.985,3.703,17.0
51.832,4.771,4.133,9.0
59.417,5.473,4.399,28.0
42.913,3.97,4.376,18.0
43.637,4.04,4.198,18.0
43.483,4.028,3.933,15.0
43.312,4.015,3.663,16.0
51.992,4.822,4.1,22.0
59.391,5.512,4.343,32.0
43.598,4.064,4.406,10.0
43.569,4.063,4.151,25.0
43.408,4.05,3.886,15.0
59.278,5.535,4.959,8.0
52.23,4.879,4.07,8.0
58.939,5.509,4.255,33.0
43.742,4.106,4.379,14.0
43.543,4.089,4.107,25.0
43.394,4.077,3.844,17.0
59.305,5.575,4.906,13.0
59.113,5.56,4.55,20.0
58.784,5.532,4.188,31.0
51.075,4.826,5.064,17.0
43.484,4.11,4.059,23.0
43.401,4.104,3.802,28.0
51.82,4.902,4.236,41.0
59.154,5.599,4.495,32.0
58.754,5.564,4.128,20.0
50.781,4.828,4.983,10.0
43.474,4.134,4.015,25.0
43.333,4.122,3.752,15.0
51.843,4.934,4.185,39.0
58.832,5.601,4.411,32.0
58.736,5.594,4.067,32.0
43.584,4.167,4.232,19.0
43.418,4.152,3.965,24.0
52.303,5.003,4.475,14.0
59.222,5.667,4.72,8.0
58.698,5.619,4.341,30.0
58.614,5.613,3.998,29.0
43.609,4.192,4.188,26.0
51.984,4.997,4.693,8.0
52.333,5.032,4.422,9.0
59.25,5.698,4.659,25.0
58.727,5.65,4.28,32.0
58.634,5.642,3.937,25.0
43.488,4.2,4.13,28.0
51.95,5.018,4.634,13.0
51.795,5.004,4.321,18.0
59.088,5.709,4.583,28.0
58.493,5.653,4.2,25.0
58.594,5.664,3.871,27.0
43.424,4.212,4.076,29.0
51.83,5.028,4.566,8.0
51.794,5.025,4.263,27.0
58.834,5.709,4.498,33.0
58.458,5.674,4.132,27.0
58.462,5.675,3.797,29.0
43.383,4.225,4.023,27.0
43.52,4.238,3.784,31.0
51.83,5.048,4.206,25.0
58.715,5.719,4.421,33.0
58.392,5.688,4.061,26.0
58.395,5.689,3.726,25.0
43.494,4.251,3.983,16.0
43.466,4.248,3.728,29.0
59.307,5.796,4.745,12.0
58.622,5.729,4.346,30.0
58.503,5.718,4.0,32.0
58.352,5.704,3.654,24.0
43.547,4.269,3.936,15.0
43.436,4.258,3.675,19.0
59.285,5.811,4.673,28.0
58.575,5.741,4.273,28.0
58.477,5.732,3.93,32.0
58.308,5.716,3.584,26.0
59.74,5.873,5.329,9.0
51.808,5.092,4.322,14.0
59.215,5.819,4.597,33.0
58.348,5.733,4.188,24.0
58.347,5.733,3.852,30.0
58.458,5.744,3.523,32.0
43.515,4.287,3.828,29.0
51.788,5.101,4.257,23.0
59.161,5.826,4.521,33.0
58.26,5.737,4.11,28.0
58.361,5.746,3.782,28.0
58.376,5.747,3.447,32.0
43.484,4.292,3.772,26.0
59.342,5.855,4.804,8.0
59.02,5.822,4.438,26.0
58.38,5.758,4.046,32.0
58.371,5.756,3.71,25.0
58.033,5.722,3.355,25.0
58.727,5.804,5.021,10.0
59.312,5.86,4.727,24.0
58.795,5.807,4.347,33.0
58.574,5.784,3.987,33.0
58.306,5.756,3.632,30.0
58.012,5.726,3.28,28.0
51.812,5.125,4.364,12.0
59.144,5.849,4.639,29.0
58.497,5.782,4.251,25.0
58.477,5.779,3.907,33.0
58.45,5.775,3.568,32.0
58.333,5.762,3.225,32.0
51.781,5.125,4.295,20.0
59.041,5.84,4.556,31.0
58.403,5.775,4.169,28.0
58.355,5.768,3.823,30.0
58.503,5.781,3.496,32.0
58.597,5.789,3.165,29.0
51.784,5.125,4.228,16.0
59.027,5.839,4.478,30.0
58.342,5.769,4.089,29.0
58.346,5.767,3.747,26.0
58.152,5.745,3.4,30.0
58.906,5.818,3.105,33.0
59.312,5.868,4.765,16.0
58.884,5.822,4.39,29.0
58.491,5.78,4.023,32.0
58.316,5.761,3.668,30.0
57.979,5.725,3.313,30.0
59.063,5.83,3.036,31.0
59.233,5.856,4.68,27.0
58.572,5.787,4.289,28.0
58.56,5.782,3.95,32.0
58.37,5.76,3.595,33.0
58.192,5.74,3.249,32.0
59.051,5.822,2.957,26.0
59.167,5.841,4.596,31.0
58.366,5.759,4.195,28.0
58.375,5.756,3.859,30.0
58.523,5.767,3.525,33.0
58.513,5.763,3.187,32.0
59.128,5.82,2.881,24.0
59.16,5.83,4.515,30.0
58.286,5.74,4.111,30.0
58.353,5.742,3.779,29.0
58.225,5.727,3.43,32.0
58.859,5.785,3.128,32.0
59.313,5.827,2.811,23.0
59.04,5.806,4.426,29.0
58.562,5.754,4.052,33.0
58.39,5.733,3.703,25.0
57.984,5.689,3.337,27.0
59.014,5.787,3.056,27.0
60.508,5.93,2.786,25.0
58.653,5.752,4.317,28.0
58.464,5.729,3.965,32.0
58.308,5.709,3.618,31.0
58.223,5.696,3.271,32.0
59.082,5.776,2.98,29.0
0.0,0.0,0.0,0.0
58.359,5.706,4.215,27.0
58.38,5.702,3.879,32.0
58.302,5.69,3.538,31.0
58.529,5.708,3.208,34.0
59.272,5.776,2.907,17.0
59.54,5.797,2.579,22.0
58.396,5.689,4.137,24.0
58.45,5.689,3.803,32.0
58.434,5.682,3.464,32.0
59.139,5.745,3.16,27.0
59.24,5.751,2.825,15.0
59.621,5.783,2.5,28.0
58.507,5.676,4.064,27.0
58.545,5.674,3.729,32.0
58.161,5.632,3.369,29.0
59.071,5.714,3.075,30.0
59.933,5.793,2.775,10.0
59.609,5.757,2.417,18.0
58.661,5.665,3.993,24.0
58.269,5.621,3.631,27.0
58.164,5.606,3.288,31.0
59.215,5.701,3.001,25.0
60.389,5.809,2.714,27.0
59.531,5.722,2.333,16.0
58.631,5.634,3.91,30.0
58.259,5.592,3.549,32.0
58.914,5.649,3.249,33.0
60.387,5.784,2.977,25.0
60.122,5.753,2.619,26.0
59.436,5.682,2.247,14.0
58.94,5.633,3.849,28.0
58.268,5.562,3.469,31.0
59.197,5.644,3.183,32.0
60.648,5.776,2.906,25.0
60.194,5.727,2.538,34.0
60.585,5.758,2.207,23.0
58.839,5.59,3.761,27.0
58.246,5.526,3.387,32.0
59.24,5.614,3.104,29.0
60.512,5.728,2.816,26.0
60.069,5.679,2.45,31.0
60.368,5.701,2.116,23.0
58.671,5.538,3.669,33.0
0.0,0.0,0.0,0.0
0.0,0.0,0.0,0.0
60.383,5.677,2.726,30.0
60.148,5.648,2.37,32.0
60.389,5.664,2.033,29.0
58.458,5.478,3.573,33.0
59.404,5.559,3.289,33.0
60.291,5.634,2.991,34.0
60.264,5.625,2.637,30.0
60.974,5.684,2.318,21.0
0.0,0.0,0.0,0.0
58.135,5.406,3.473,27.0
59.248,5.502,3.198,33.0
60.314,5.593,2.909,34.0
60.199,5.575,2.552,30.0
61.038,5.646,2.236,33.0
61.968,5.724,1.915,20.0
58.497,5.396,3.414,33.0
59.489,5.479,3.13,24.0
60.632,5.577,2.841,19.0
60.475,5.554,2.48,31.0
61.115,5.605,2.155,22.0
62.213,5.699,1.837,7.0
58.284,5.331,3.321,32.0
60.564,5.53,3.102,35.0
60.627,5.527,2.757,35.0
60.846,5.539,2.412,28.0
62.445,5.676,2.117,36.0
52.188,4.737,1.47,17.0
58.637,5.313,3.26,34.0
60.511,5.474,3.016,35.0
60.914,5.502,2.687,23.0
60.915,5.493,2.331,17.0
52.231,4.703,1.699,14.0
52.076,4.682,1.396,21.0
58.95,5.29,3.198,34.0
60.929,5.459,2.954,24.0
60.956,5.452,2.606,6.0
52.099,4.652,1.923,31.0
52.143,4.649,1.626,42.0
52.053,4.633,1.325,16.0
59.547,5.289,3.149,19.0
52.147,4.624,2.459,15.0
52.118,4.613,2.158,36.0
52.104,4.603,1.853,45.0
52.131,4.599,1.556,39.0
52.005,4.58,1.254,10.0
52.105,4.578,2.686,30.0
52.091,4.568,2.386,42.0
52.099,4.56,2.087,54.0
52.101,4.552,1.783,57.0
52.101,4.544,1.485,31.0
51.633,4.496,1.176,7.0
52.057,4.521,2.613,41.0
52.062,4.513,2.315,62.0
52.084,4.507,2.018,65.0
52.12,4.501,1.715,44.0
52.104,4.491,1.417,19.0
51.204,4.406,1.099,6.0
52.044,4.466,2.544,47.0
52.087,4.461,2.248,58.0
52.114,4.455,1.951,47.0
52.174,4.451,1.649,23.0
52.169,4.441,1.35,12.0
49.291,4.188,0.994,2.0
52.075,4.412,2.477,45.0
52.127,4.407,2.181,34.0
52.19,4.404,1.885,24.0
52.266,4.401,1.583,17.0
52.164,4.384,1.282,10.0
49.232,4.13,0.929,5.0
52.148,4.36,2.413,19.0
52.225,4.357,2.118,11.0
62.33,5.188,2.171,16.0
47.676,3.959,1.383,6.0
47.673,3.951,1.11,13.0
49.237,4.073,0.866,13.0
81.762,6.74,3.679,13.0
81.136,6.673,3.185,19.0
47.814,3.924,1.604,1.0
0.0,0.0,0.0,0.0
47.596,3.888,1.048,10.0
48.099,3.921,0.784,2.0
81.691,6.636,3.571,11.0
81.261,6.585,3.088,28.0
47.849,3.868,1.544,21.0
47.587,3.838,1.259,7.0
47.538,3.825,0.986,3.0
47.833,3.84,0.72,1.0
81.837,6.546,3.475,22.0
48.202,3.845,1.771,2.0
47.53,3.782,1.475,7.0
47.499,3.771,1.197,14.0
47.49,3.761,0.927,0.0
0.0,0.0,0.0,0.0
81.635,6.425,3.365,20.0
47.758,3.749,1.695,4.0
47.449,3.715,1.413,8.0
47.439,3.704,1.138,16.0
47.735,3.719,0.873,2.0
0.0,0.0,0.0,0.0
48.965,3.789,1.958,8.0
47.629,3.676,1.633,9.0
47.404,3.648,1.355,14.0
47.432,3.641,1.081,1.0
48.02,3.677,0.82,0.0
37.08,2.832,0.422,0.0
48.658,3.699,1.888,0.0
47.556,3.605,1.573,5.0
47.354,3.58,1.297,18.0
47.353,3.57,1.022,1.0
47.084,3.539,0.748,0.0
35.766,2.682,0.365,0.0
48.242,3.6,1.814,1.0
47.344,3.522,1.51,10.0
47.331,3.511,1.24,17.0
47.36,3.503,0.966,3.0
0.0,0.0,0.0,0.0
35.451,2.607,0.32,0.0
47.827,3.501,1.743,2.0
47.279,3.45,1.453,20.0
47.342,3.443,1.186,7.0
47.315,3.431,0.911,1.0
0.0,0.0,0.0,0.0
32.657,2.354,0.257,0.0
47.588,3.413,1.679,5.0
47.261,3.378,1.399,23.0
47.261,3.368,1.13,98.0
52.077,3.699,0.944,3.0
37.801,2.677,0.47,0.0
31.566,2.228,0.213,0.0
47.435,3.33,1.62,9.0
47.273,3.308,1.346,156.0
47.311,3.299,1.078,2.0
50.896,3.537,0.865,1.0
47.292,3.277,0.535,1.0
30.473,2.104,0.172,1.0
47.32,3.249,1.565,13.0
47.245,3.232,1.293,167.0
47.283,3.224,1.025,3.0
50.92,3.46,0.81,1.0
35.557,2.408,0.364,1.0
29.467,1.988,0.134,1.0
47.241,3.17,1.511,13.0
47.241,3.158,1.242,168.0
47.327,3.152,0.976,3.0
0.0,0.0,0.0,0.0
33.797,2.235,0.31,0.0
28.935,1.906,0.101,1.0
47.209,3.092,1.46,33.0
47.229,3.081,1.193,164.0
47.332,3.076,0.926,1.0
0.0,0.0,0.0,0.0
33.409,2.155,0.272,1.0
28.106,1.806,0.07,0.0
47.201,3.014,1.412,42.0
47.235,3.004,1.145,152.0
53.157,3.368,0.987,1.0
47.198,2.978,0.604,0.0
31.889,2.004,0.227,0.0
27.522,1.723,0.04,0.0
47.22,2.936,1.365,153.0
47.277,2.928,1.099,3.0
53.413,3.295,0.939,2.0
47.255,2.903,0.558,4.0
30.647,1.875,0.189,0.0
26.916,1.64,0.013,0.0
47.223,2.857,1.319,47.0
47.286,2.848,1.053,4.0
47.655,2.859,0.792,6.0
35.15,2.099,0.382,0.0
30.106,1.79,0.157,1.0
26.341,1.56,-0.011,0.0
47.234,2.777,1.275,25.0
47.232,2.764,1.008,5.0
47.877,2.79,0.751,4.0
34.568,2.005,0.343,0.0
29.356,1.695,0.126,0.0
25.862,1.486,-0.035,0.0
47.253,2.695,1.232,13.0
47.244,2.682,0.965,3.0
42.0,2.373,0.62,0.0
33.127,1.863,0.299,0.0
28.8,1.612,0.097,0.0
25.415,1.415,-0.057,0.0
47.252,2.611,1.19,10.0
47.339,2.603,0.925,1.0
0.0,0.0,0.0,0.0
32.872,1.789,0.268,0.0
28.245,1.529,0.071,0.0
24.995,1.346,-0.078,0.0
47.287,2.527,1.15,7.0
49.185,2.615,0.919,1.0
37.821,2.0,0.493,0.0
31.859,1.676,0.232,1.0
27.616,1.445,0.046,0.0
24.688,1.285,-0.097,0.0
47.311,2.442,1.111,6.0
49.655,2.549,0.887,4.0
37.108,1.894,0.454,0.0
30.935,1.57,0.201,1.0
27.211,1.374,0.023,0.0
24.266,1.218,-0.115,0.0
47.345,2.356,1.075,5.0
50.147,2.481,0.856,2.0
35.934,1.768,0.411,0.0
30.183,1.476,0.172,0.0
26.681,1.297,0.002,0.0
23.266,1.124,-0.128,0.0
47.389,2.269,1.039,1.0
43.718,2.081,0.713,0.0
35.7,1.689,0.381,0.0
29.788,1.4,0.147,0.0
26.313,1.229,-0.017,0.0
23.177,1.076,-0.145,2.0
11.814,-0.288,-0.549,0.0
11.105,-0.272,-0.58,0.0
10.409,-0.257,-0.604,0.0
0.0,0.0,0.0,0.0
9.331,-0.235,-0.651,0.0
8.844,-0.224,-0.669,0.0
11.564,-0.296,-0.555,0.0
10.981,-0.283,-0.59,0.0
10.28,-0.267,-0.612,0.0
0.0,0.0,0.0,0.0
9.203,-0.243,-0.656,0.0
8.816,-0.234,-0.679,0.0
11.424,-0.307,-0.564,0.0
10.679,-0.289,-0.589,0.0
10.13,-0.276,-0.618,0.0
9.579,-0.263,-0.641,0.0
9.166,-0.253,-0.666,0.0
8.687,-0.242,-0.682,0.0
11.251,-0.316,-0.572,0.0
10.557,-0.299,-0.597,0.0
10.041,-0.286,-0.626,0.0
0.0,0.0,0.0,0.0
8.999,-0.26,-0.667,0.0
8.567,-0.25,-0.685,0.0
11.063,-0.325,-0.577,0.0
10.371,-0.307,-0.601,0.0
9.892,-0.295,-0.631,0.0
0.0,0.0,0.0,0.0
0.0,0.0,0.0,0.0
8.46,-0.258,-0.687,0.0
10.925,-0.335,-0.584,0.0
10.291,-0.318,-0.61,0.0
9.806,-0.305,-0.638,0.0
9.199,-0.288,-0.653,0.0
8.814,-0.278,-0.676,0.0
8.364,-0.266,-0.691,0.0
10.738,-0.344,-0.588,0.0
10.161,-0.327,-0.615,0.0
9.668,-0.314,-0.642,0.0
0.0,0.0,0.0,0.0
8.718,-0.287,-0.68,0.0
8.266,-0.274,-0.693,0.0
10.665,-0.356,-0.598,0.0
0.0,0.0,0.0,0.0
0.0,0.0,0.0,0.0
0.0,0.0,0.0,0.0
8.655,-0.296,-0.686,0.0
8.219,-0.283,-0.699,0.0
10.432,-0.362,-0.598,0.0
0.0,0.0,0.0,0.0
9.501,-0.334,-0.654,0.0
0.0,0.0,0.0,0.0
8.534,-0.304,-0.687,0.0
8.154,-0.292,-0.704,0.0
10.401,-0.375,-0.608,0.0
9.809,-0.356,-0.63,0.0
0.0,0.0,0.0,0.0
0.0,0.0,0.0,0.0
8.488,-0.314,-0.693,0.0
8.079,-0.301,-0.706,0.0
10.305,-0.386,-0.614,0.0
9.603,-0.362,-0.628,0.0
9.253,-0.351,-0.658,0.0
0.0,0.0,0.0,0.0
8.363,-0.321,-0.692,0.0
8.038,-0.311,-0.712,0.0
10.108,-0.393,-0.614,0.0
9.58,-0.374,-0.637,0.0
9.115,-0.358,-0.658,0.0
8.704,-0.344,-0.68,0.0
8.284,-0.33,-0.695,0.0
7.945,-0.318,-0.712,0.0
10.06,-0.405,-0.621,0.0
9.518,-0.385,-0.643,0.0
9.031,-0.368,-0.662,0.0
0.0,0.0,0.0,0.0
8.217,-0.339,-0.698,0.0
0.0,0.0,0.0,0.0
9.941,-0.414,-0.624,0.0
9.47,-0.397,-0.649,0.0
8.977,-0.378,-0.667,0.0
0.0,0.0,0.0,0.0
8.164,-0.348,-0.702,0.0
0.0,0.0,0.0,0.0
9.788,-0.422,-0.624,0.0
9.362,-0.406,-0.651,0.0
8.912,-0.388,-0.671,0.0
0.0,0.0,0.0,0.0
0.0,0.0,0.0,0.0
0.0,0.0,0.0,0.0
9.779,-0.435,-0.633,0.0
9.26,-0.415,-0.653,0.0
8.773,-0.395,-0.669,0.0
0.0,0.0,0.0,0.0
7.926,-0.361,-0.696,0.0
0.0,0.0,0.0,0.0
33.823,-2.771,-0.08,1.0
33.856,-2.764,-0.26,5.0
19.883,-1.617,-0.259,0.0
17.703,-1.435,-0.327,0.0
16.052,-1.297,-0.382,0.0
14.75,-1.188,-0.43,0.0
33.872,-2.725,-0.045,0.0
33.857,-2.714,-0.226,8.0
20.702,-1.653,-0.248,1.0
17.881,-1.423,-0.312,0.0
16.405,-1.301,-0.374,0.0
15.031,-1.188,-0.423,0.0
33.887,-2.676,-0.012,1.0
33.866,-2.664,-0.192,8.0
20.902,-1.638,-0.23,1.0
18.384,-1.435,-0.302,0.0
16.7,-1.299,-0.364,0.0
15.361,-1.19,-0.417,0.0
33.881,-2.623,0.021,2.0
33.877,-2.612,-0.159,23.0
33.886,-2.603,-0.34,5.0
18.677,-1.429,-0.289,0.0
16.993,-1.295,-0.354,0.0
15.425,-1.171,-0.404,0.0
33.879,-2.569,0.053,2.0
33.884,-2.559,-0.127,15.0
33.902,-2.55,-0.308,10.0
19.156,-1.435,-0.279,0.0
17.234,-1.286,-0.343,0.0
15.732,-1.169,-0.397,0.0
33.902,-2.516,0.085,5.0
33.9,-2.506,-0.096,9.0
33.904,-2.495,-0.277,1.0
19.631,-1.438,-0.267,0.0
17.498,-1.277,-0.332,0.0
15.964,-1.16,-0.388,0.0
33.91,-2.461,0.115,1.0
33.912,-2.45,-0.065,2.0
33.892,-2.439,-0.247,1.0
19.939,-1.428,-0.254,0.0
17.754,-1.266,-0.321,0.0
16.063,-1.141,-0.377,0.0
33.961,-2.409,0.145,0.0
33.882,-2.392,-0.036,1.0
23.538,-1.654,-0.151,0.0
20.385,-1.426,-0.242,0.0
18.028,-1.255,-0.311,0.0
16.442,-1.14,-0.372,0.0
30.288,-2.096,0.155,0.0
27.139,-1.869,-0.006,0.0
23.837,-1.634,-0.133,0.0
20.904,-1.426,-0.231,0.0
18.346,-1.246,-0.301,0.0
16.677,-1.127,-0.363,0.0
30.448,-2.055,0.181,0.0
27.423,-1.842,0.015,0.0
24.249,-1.62,-0.116,0.0
21.351,-1.42,-0.219,0.0
18.719,-1.239,-0.292,0.0
16.909,-1.113,-0.355,0.0
31.53,-2.072,0.212,0.0
28.085,-1.837,0.038,1.0
0.0,0.0,0.0,0.0
22.126,-1.432,-0.21,0.0
19.066,-1.228,-0.283,0.0
17.128,-1.097,-0.346,0.0
31.947,-2.043,0.239,3.0
28.413,-1.807,0.06,1.0
25.615,-1.621,-0.083,0.0
22.441,-1.412,-0.196,0.0
19.441,-1.217,-0.274,0.0
17.369,-1.081,-0.339,0.0
32.045,-1.991,0.263,3.0
28.514,-1.762,0.08,8.0
25.767,-1.583,-0.065,0.0
22.862,-1.397,-0.183,0.0
19.71,-1.198,-0.264,0.0
17.54,-1.06,-0.33,0.0
31.992,-1.929,0.285,0.0
28.555,-1.712,0.1,6.0
26.108,-1.556,-0.048,0.0
23.119,-1.37,-0.17,0.0
20.101,-1.184,-0.256,0.0
17.759,-1.04,-0.322,0.0
34.251,-2.002,0.328,0.0
28.642,-1.664,0.12,5.0
34.168,-1.973,-0.041,0.0
23.571,-1.353,-0.158,0.0
34.192,-1.951,-0.414,0.0
17.992,-1.02,-0.315,0.0
34.632,-1.959,0.353,0.0
28.63,-1.609,0.137,1.0
34.237,-1.912,-0.019,1.0
34.237,-1.9,-0.208,4.0
34.255,-1.889,-0.393,2.0
18.168,-0.995,-0.307,0.0
34.644,-1.893,0.375,0.0
28.597,-1.552,0.155,0.0
27.755,-1.496,0.0,0.0
23.702,-1.269,-0.13,0.0
21.235,-1.13,-0.231,0.0
18.491,-0.977,-0.301,0.0
35.197,-1.855,0.401,0.0
31.018,-1.623,0.185,0.0
27.721,-1.44,0.015,2.0
23.789,-1.228,-0.117,0.0
21.882,-1.122,-0.226,0.0
18.793,-0.957,-0.296,0.0
36.025,-1.828,0.429,0.0
31.385,-1.581,0.204,0.0
27.802,-1.39,0.03,7.0
24.568,-1.22,-0.108,0.0
21.951,-1.082,-0.216,1.0
18.986,-0.929,-0.29,0.0
0.0,0.0,0.0,0.0
31.437,-1.522,0.22,0.0
28.166,-1.353,0.044,7.0
24.986,-1.191,-0.098,0.0
22.099,-1.046,-0.207,0.0
19.148,-0.899,-0.283,0.0
37.328,-1.746,0.481,0.0
32.051,-1.487,0.239,0.0
28.469,-1.31,0.057,1.0
25.464,-1.163,-0.088,0.0
22.371,-1.013,-0.199,1.0
19.262,-0.866,-0.276,0.0
0.0,0.0,0.0,0.0
32.505,-1.443,0.256,0.0
28.571,-1.258,0.07,6.0
25.804,-1.126,-0.079,1.0
22.424,-0.971,-0.191,1.0
19.401,-0.833,-0.27,0.0
0.0,0.0,0.0,0.0
32.434,-1.374,0.268,0.0
28.587,-1.201,0.081,7.0
25.849,-1.077,-0.069,2.0
22.666,-0.936,-0.184,2.0
19.408,-0.794,-0.263,0.0
38.849,-1.583,0.547,0.0
32.653,-1.318,0.281,0.0
28.639,-1.145,0.091,7.0
25.677,-1.018,-0.06,0.0
22.92,-0.9,-0.179,1.0
19.67,-0.765,-0.261,0.0
39.159,-1.515,0.564,0.0
0.0,0.0,0.0,0.0
28.634,-1.086,0.1,7.0
26.122,-0.981,-0.053,0.0
22.902,-0.852,-0.172,0.0
19.77,-0.728,-0.256,0.0
39.279,-1.438,0.577,0.0
33.569,-1.217,0.309,0.0
28.617,-1.026,0.107,1.0
26.175,-0.929,-0.046,0.0
22.89,-0.804,-0.166,0.0
20.155,-0.701,-0.256,0.0
0.0,0.0,0.0,0.0
32.957,-1.126,0.312,0.0
28.656,-0.969,0.114,0.0
26.137,-0.874,-0.04,0.0
23.416,-0.774,-0.164,0.0
20.668,-0.676,-0.258,0.0
0.0,0.0,0.0,0.0
0.0,0.0,0.0,0.0
28.638,-0.908,0.12,0.0
26.191,-0.821,-0.035,0.0
23.378,-0.724,-0.159,1.0
20.704,-0.634,-0.254,0.0
39.956,-1.214,0.612,0.0
34.049,-1.021,0.335,0.0
28.646,-0.849,0.125,0.0
26.439,-0.773,-0.031,0.0
23.42,-0.677,-0.156,0.0
20.899,-0.596,-0.254,0.0
0.0,0.0,0.0,0.0
33.856,-0.945,0.338,0.0
28.752,-0.791,0.129,2.0
26.511,-0.72,-0.028,0.0
23.364,-0.626,-0.153,0.0
20.856,-0.551,-0.251,0.0
0.0,0.0,0.0,0.0
33.677,-0.868,0.339,0.0
28.751,-0.73,0.132,3.0
26.383,-0.661,-0.026,0.0
23.739,-0.585,-0.154,1.0
20.495,-0.498,-0.245,0.0
0.0,0.0,0.0,0.0
33.756,-0.799,0.342,0.0
28.741,-0.67,0.133,5.0
26.626,-0.611,-0.025,0.0
23.648,-0.533,-0.152,0.0
20.625,-0.457,-0.246,0.0
0.0,0.0,0.0,0.0
7.368,0.297,-0.742,0.0
7.075,0.284,-0.752,0.0
0.0,0.0,0.0,0.0
0.0,0.0,0.0,0.0
0.0,0.0,0.0,0.0
0.0,0.0,0.0,0.0
7.419,0.29,-0.744,0.0
7.098,0.276,-0.751,0.0
0.0,0.0,0.0,0.0
0.0,0.0,0.0,0.0
0.0,0.0,0.0,0.0
0.0,0.0,0.0,0.0
7.446,0.281,-0.742,0.0
7.152,0.269,-0.753,0.0
0.0,0.0,0.0,0.0
0.0,0.0,0.0,0.0
0.0,0.0,0.0,0.0
0.0,0.0,0.0,0.0
7.467,0.273,-0.74,0.0
7.185,0.261,-0.752,0.0
0.0,0.0,0.0,0.0
0.0,0.0,0.0,0.0
0.0,0.0,0.0,0.0
0.0,0.0,0.0,0.0
7.503,0.265,-0.739,0.0
7.207,0.253,-0.75,0.0
0.0,0.0,0.0,0.0
0.0,0.0,0.0,0.0
0.0,0.0,0.0,0.0
0.0,0.0,0.0,0.0
0.0,0.0,0.0,0.0
7.23,0.244,-0.747,0.0
0.0,0.0,0.0,0.0
0.0,0.0,0.0,0.0
0.0,0.0,0.0,0.0
0.0,0.0,0.0,0.0
0.0,0.0,0.0,0.0
7.232,0.235,-0.742,0.0
0.0,0.0,0.0,0.0
0.0,0.0,0.0,0.0
0.0,0.0,0.0,0.0
0.0,0.0,0.0,0.0
0.0,0.0,0.0,0.0
7.32,0.229,-0.745,0.0
0.0,0.0,0.0,0.0
0.0,0.0,0.0,0.0
0.0,0.0,0.0,0.0
0.0,0.0,0.0,0.0
0.0,0.0,0.0,0.0
7.358,0.221,-0.743,0.0
7.092,0.212,-0.756,0.0
0.0,0.0,0.0,0.0
0.0,0.0,0.0,0.0
0.0,0.0,0.0,0.0
0.0,0.0,0.0,0.0
7.404,0.213,-0.742,0.0
0.0,0.0,0.0,0.0
0.0,0.0,0.0,0.0
0.0,0.0,0.0,0.0
0.0,0.0,0.0,0.0
0.0,0.0,0.0,0.0
7.46,0.206,-0.741,0.0
0.0,0.0,0.0,0.0
0.0,0.0,0.0,0.0
0.0,0.0,0.0,0.0
8.158,0.218,-0.713,0.0
0.0,0.0,0.0,0.0
0.0,0.0,0.0,0.0
7.217,0.189,-0.75,0.0
6.955,0.18,-0.761,0.0
0.0,0.0,0.0,0.0
8.179,0.209,-0.707,0.0
0.0,0.0,0.0,0.0
0.0,0.0,0.0,0.0
7.321,0.183,-0.753,0.0
6.974,0.173,-0.756,0.0
6.796,0.167,-0.774,0.0
8.255,0.201,-0.706,0.0
0.0,0.0,0.0,0.0
0.0,0.0,0.0,0.0
7.29,0.173,-0.743,0.0
7.068,0.167,-0.759,0.0
0.0,0.0,0.0,0.0
8.309,0.193,-0.702,0.0
0.0,0.0,0.0,0.0
0.0,0.0,0.0,0.0
7.383,0.167,-0.744,0.0
7.123,0.16,-0.757,0.0
0.0,0.0,0.0,0.0
0.0,0.0,0.0,0.0
0.0,0.0,0.0,0.0
0.0,0.0,0.0,0.0
7.448,0.16,-0.743,0.0
7.159,0.152,-0.753,0.0
0.0,0.0,0.0,0.0
51.879,5.022,4.614,13.0
51.823,5.023,4.314,15.0
59.167,5.742,4.588,33.0
58.51,5.686,4.198,30.0
58.44,5.686,3.862,32.0
58.321,5.683,3.523,28.0
43.526,4.264,3.849,23.0
51.786,5.078,4.284,19.0
59.173,5.81,4.558,31.0
58.322,5.733,4.155,25.0
58.376,5.746,3.827,26.0
58.509,5.767,3.504,32.0
43.529,4.312,3.826,15.0
51.764,5.134,4.254,22.0
59.022,5.861,4.514,25.0
58.665,5.832,4.147,33.0
58.269,5.8,3.788,29.0
58.325,5.813,3.46,31.0
51.92,5.2,4.534,9.0
59.136,5.929,4.826,7.0
58.707,5.892,4.456,33.0
58.412,5.869,4.095,33.0
57.906,5.825,3.73,31.0
58.18,5.859,3.418,22.0
51.846,5.247,4.496,8.0
58.614,5.938,4.748,30.0
59.125,5.995,4.452,33.0
58.549,5.943,4.069,33.0
57.673,5.861,3.68,27.0
58.035,5.904,3.373,28.0
43.094,4.405,3.71,19.0
58.484,5.983,4.7,32.0
59.459,6.089,4.439,33.0
58.285,5.974,4.013,29.0
57.77,5.928,3.648,31.0
58.04,5.962,3.335,29.0
43.016,4.439,3.674,27.0
58.17,6.008,4.636,32.0
59.489,6.15,4.401,32.0
58.087,6.01,3.96,32.0
57.766,5.983,3.609,26.0
57.999,6.014,3.292,29.0
42.904,4.468,3.635,17.0
58.216,6.068,4.598,31.0
58.902,6.145,4.316,22.0
57.836,6.039,3.901,32.0
57.853,6.046,3.572,29.0
58.049,6.073,3.253,29.0
42.778,4.495,3.592,14.0
54.123,5.691,4.235,17.0
59.071,6.217,4.284,19.0
57.706,6.078,3.849,29.0
57.749,6.088,3.522,26.0
58.109,6.131,3.213,32.0
42.838,4.539,3.564,16.0
53.731,5.697,4.163,27.0
58.98,6.258,4.231,33.0
57.647,6.121,3.801,28.0
58.012,6.165,3.493,31.0
58.465,6.219,3.187,32.0
53.753,5.741,4.43,11.0
53.707,5.74,4.118,27.0
58.535,6.26,4.153,33.0
57.71,6.177,3.758,30.0
58.097,6.223,3.451,28.0
58.27,6.246,3.129,32.0
53.246,5.73,4.344,18.0
53.756,5.789,4.077,27.0
58.378,6.29,4.093,32.0
57.704,6.221,3.71,28.0
58.078,6.266,3.402,30.0
58.398,6.306,3.086,32.0
53.367,5.785,4.309,28.0
53.373,5.789,4.002,19.0
57.871,6.28,4.008,28.0
57.635,6.258,3.656,29.0
57.986,6.3,3.346,31.0
58.553,6.366,3.045,30.0
53.168,5.802,4.246,21.0
53.361,5.826,3.955,27.0
57.681,6.301,3.944,30.0
57.518,6.286,3.597,19.0
57.765,6.317,3.282,31.0
58.014,6.348,2.965,25.0
53.125,5.834,4.194,20.0
53.056,5.829,3.884,24.0
57.584,6.329,3.885,24.0
54.37,5.979,3.351,24.0
57.543,6.332,3.217,31.0
58.089,6.395,2.915,32.0
53.058,5.862,4.14,23.0
53.138,5.873,3.84,23.0
57.53,6.361,3.827,22.0
54.571,6.036,3.312,28.0
57.906,6.409,3.182,31.0
58.145,6.439,2.863,32.0
92.939,-3.113,2.864,1.0
0.0,0.0,0.0,0.0
0.0,0.0,0.0,0.0
39.469,-1.356,0.586,0.0
33.59,-1.164,0.322,0.0
28.667,-1.002,0.123,0.0
92.988,-3.271,2.981,1.0
0.0,0.0,0.0,0.0
0.0,0.0,0.0,0.0
0.0,0.0,0.0,0.0
34.314,-1.246,0.372,0.0
28.754,-1.052,0.16,0.0
92.181,-3.394,3.072,13.0
0.0,0.0,0.0,0.0
0.0,0.0,0.0,0.0
0.0,0.0,0.0,0.0
36.319,-1.377,0.44,0.0
31.704,-1.211,0.217,0.0
92.122,-3.539,3.188,46.0
0.0,0.0,0.0,0.0
0.0,0.0,0.0,0.0
0.0,0.0,0.0,0.0
38.786,-1.532,0.52,0.0
32.48,-1.292,0.264,0.0
92.148,-3.685,3.309,160.0
0.0,0.0,0.0,0.0
0.0,0.0,0.0,0.0
0.0,0.0,0.0,0.0
39.458,-1.621,0.582,0.0
33.958,-1.404,0.322,0.0
92.205,-3.831,3.435,152.0
0.0,0.0,0.0,0.0
0.0,0.0,0.0,0.0
0.0,0.0,0.0,0.0
0.0,0.0,0.0,0.0
34.561,-1.481,0.374,0.0
92.378,-3.977,3.565,8.0
92.355,-4.0,3.078,6.0
0.0,0.0,0.0,0.0
0.0,0.0,0.0,0.0
0.0,0.0,0.0,0.0
0.0,0.0,0.0,0.0
93.19,-4.15,3.725,3.0
0.0,0.0,0.0,0.0
0.0,0.0,0.0,0.0
0.0,0.0,0.0,0.0
0.0,0.0,0.0,0.0
37.65,-1.724,0.511,0.0
0.0,0.0,0.0,0.0
94.414,-4.365,3.409,3.0
0.0,0.0,0.0,0.0
0.0,0.0,0.0,0.0
0.0,0.0,0.0,0.0
0.0,0.0,0.0,0.0
0.0,0.0,0.0,0.0
0.0,0.0,0.0,0.0
0.0,0.0,0.0,0.0
0.0,0.0,0.0,0.0
0.0,0.0,0.0,0.0
0.0,0.0,0.0,0.0
0.0,0.0,0.0,0.0
0.0,0.0,0.0,0.0
109.532,-5.393,3.692,2.0
0.0,0.0,0.0,0.0
0.0,0.0,0.0,0.0
0.0,0.0,0.0,0.0
0.0,0.0,0.0,0.0
0.0,0.0,0.0,0.0
109.389,-5.532,3.847,167.0
0.0,0.0,0.0,0.0
0.0,0.0,0.0,0.0
0.0,0.0,0.0,0.0
189.146,-9.729,8.916,6.0
0.0,0.0,0.0,0.0
109.351,-5.671,4.006,151.0
34.307,-1.787,1.073,0.0
34.25,-1.791,0.892,0.0
34.312,-1.802,0.714,0.0
189.268,-9.976,9.203,6.0
0.0,0.0,0.0,0.0
109.308,-5.808,4.167,7.0
34.164,-1.822,1.12,2.0
34.162,-1.829,0.941,2.0
34.198,-1.839,0.763,1.0
189.136,-10.206,9.482,20.0
0.0,0.0,0.0,0.0
0.0,0.0,0.0,0.0
34.153,-1.863,1.172,1.0
34.208,-1.874,0.994,160.0
34.117,-1.876,0.813,2.0
189.115,-10.433,9.771,11.0
188.432,-10.433,8.748,6.0
0.0,0.0,0.0,0.0
34.159,-1.904,1.224,1.0
34.116,-1.908,1.044,170.0
34.095,-1.914,0.865,3.0
123.221,-6.94,6.553,6.0
188.786,-10.67,9.053,18.0
0.0,0.0,0.0,0.0
34.116,-1.94,1.274,1.0
34.138,-1.948,1.097,155.0
34.054,-1.95,0.916,4.0
120.888,-6.946,6.617,12.0
188.6,-10.872,9.337,22.0
0.0,0.0,0.0,0.0
34.106,-1.978,1.327,1.0
34.061,-1.981,1.147,6.0
34.03,-1.986,0.968,5.0
120.818,-7.073,6.802,5.0
188.45,-11.065,9.62,17.0
0.0,0.0,0.0,0.0
34.248,-2.022,1.386,0.0
34.006,-2.014,1.199,2.0
33.992,-2.019,1.021,7.0
120.836,-7.202,6.994,3.0
187.639,-11.213,9.876,21.0
188.318,-11.285,8.926,6.0
34.437,-2.069,1.448,0.0
34.04,-2.051,1.254,3.0
33.984,-2.054,1.074,7.0
120.885,-7.327,7.189,7.0
187.786,-11.412,10.183,11.0
188.938,-11.511,9.254,6.0
34.487,-2.106,1.505,0.0
33.99,-2.081,1.305,6.0
33.96,-2.085,1.127,7.0
122.372,-7.535,7.47,13.0
188.346,-11.626,10.51,16.0
0.0,0.0,0.0,0.0
34.59,-2.145,1.564,0.0
34.035,-2.116,1.361,1.0
33.973,-2.117,1.181,5.0
122.063,-7.63,7.645,13.0
121.177,-7.59,6.954,6.0
188.539,-11.836,9.831,8.0
34.749,-2.186,1.627,0.0
34.26,-2.16,1.424,0.0
33.984,-2.148,1.235,4.0
89.622,-5.681,5.758,8.0
120.73,-7.669,7.122,10.0
188.786,-12.016,10.148,19.0
34.968,-2.23,1.693,0.0
34.317,-2.193,1.482,0.0
33.944,-2.174,1.288,13.0
121.844,-7.826,8.023,14.0
89.678,-5.771,5.433,4.0
157.084,-10.129,8.695,16.0
0.0,0.0,0.0,0.0
34.564,-2.237,1.547,0.0
33.937,-2.201,1.342,5.0
121.498,-7.903,8.196,5.0
89.654,-5.842,5.577,15.0
121.268,-7.915,6.909,8.0
157.034,-10.267,8.107,14.0
34.712,-2.273,1.61,0.0
34.137,-2.24,1.405,0.0
119.303,-7.85,8.241,7.0
89.633,-5.907,5.721,4.0
188.923,-12.47,11.066,18.0
157.07,-10.384,8.361,14.0
35.021,-2.319,1.681,0.0
34.31,-2.276,1.467,0.0
119.275,-7.935,8.432,8.0
122.221,-8.142,7.997,15.0
122.022,-8.14,7.343,3.0
156.797,-10.476,8.599,15.0
35.405,-2.368,1.756,0.0
0.0,0.0,0.0,0.0
119.416,-8.025,8.634,7.0
121.89,-8.201,8.171,18.0
92.195,-6.211,5.696,5.0
156.642,-10.567,8.841,20.0
156.942,-10.6,8.035,10.0
0.0,0.0,0.0,0.0
122.193,-8.289,9.031,3.0
122.325,-8.307,8.398,13.0
92.286,-6.275,5.851,13.0
92.227,-6.277,5.355,3.0
189.201,-12.894,9.994,11.0
34.918,-2.382,1.661,0.0
119.745,-8.194,9.045,3.0
122.409,-8.384,8.602,13.0
122.417,-8.393,7.959,15.0
92.148,-6.325,5.499,12.0
189.113,-12.993,10.293,10.0
35.028,-2.409,1.722,0.0
118.589,-8.18,9.147,15.0
122.203,-8.435,8.783,7.0
122.262,-8.447,8.142,16.0
156.081,-10.792,9.56,4.0
189.452,-13.112,10.611,19.0
0.0,0.0,0.0,0.0
88.59,-6.154,6.974,15.0
121.843,-8.471,8.95,8.0
122.672,-8.535,8.365,17.0
154.514,-10.759,9.71,8.0
92.083,-6.416,5.304,6.0
0.0,0.0,0.0,0.0
88.241,-6.171,7.089,16.0
119.387,-8.355,8.962,13.0
122.642,-8.587,8.56,13.0
122.355,-8.573,7.884,10.0
92.126,-6.459,5.452,10.0
189.228,-13.275,10.207,10.0
88.051,-6.195,7.213,15.0
119.206,-8.391,9.137,11.0
122.259,-8.611,8.728,10.0
122.16,-8.607,8.065,12.0
188.644,-13.299,11.464,8.0
189.392,-13.358,10.514,17.0
87.847,-6.214,7.336,8.0
88.531,-6.264,6.926,21.0
121.977,-8.633,8.899,13.0
122.763,-8.692,8.296,12.0
154.742,-10.96,9.643,11.0
189.948,-13.46,10.84,7.0
119.038,-8.46,10.128,15.0
88.43,-6.286,7.057,19.0
119.51,-8.498,8.906,7.0
148.009,-10.525,10.236,12.0
122.327,-8.702,7.815,5.0
189.299,-13.471,11.1,7.0
88.501,-6.315,7.67,16.0
88.014,-6.281,7.162,15.0
119.4,-8.522,9.085,11.0
122.219,-8.725,8.643,8.0
148.858,-10.627,9.743,11.0
189.011,-13.496,11.377,4.0
88.506,-6.338,7.809,20.0
87.931,-6.297,7.293,14.0
88.493,-6.337,6.872,11.0
122.122,-8.744,8.826,10.0
148.647,-10.645,9.961,10.0
154.882,-11.092,9.562,11.0
119.422,-8.578,10.723,10.0
119.503,-8.581,10.098,8.0
88.495,-6.354,7.009,19.0
122.471,-8.791,9.039,4.0
122.936,-8.824,8.426,12.0
154.729,-11.106,9.79,2.0
119.225,-8.583,10.888,14.0
119.246,-8.581,10.258,9.0
88.172,-6.343,7.118,12.0
119.463,-8.593,9.0,12.0
147.633,-10.617,10.343,12.0
149.027,-10.715,9.654,6.0
145.809,-10.514,13.54,11.0
88.463,-6.376,7.745,9.0
87.974,-6.338,7.235,9.0
119.376,-8.598,9.173,8.0
122.061,-8.789,8.735,11.0
148.972,-10.722,9.873,13.0
146.834,-10.599,13.856,16.0
119.342,-8.611,10.627,9.0
119.448,-8.613,10.002,4.0
88.499,-6.379,6.931,11.0
122.266,-8.809,8.93,6.0
122.878,-8.849,8.326,11.0
91.487,-6.607,8.77,10.0
119.355,-8.615,10.805,13.0
119.321,-8.607,10.168,7.0
88.449,-6.376,7.059,16.0
119.527,-8.613,8.905,9.0
147.648,-10.632,10.219,10.0
91.532,-6.611,8.908,21.0
119.006,-8.589,10.949,8.0
119.083,-8.588,10.323,8.0
88.033,-6.344,7.154,9.0
119.512,-8.607,9.078,10.0
147.472,-10.615,10.42,9.0
91.585,-6.61,9.047,8.0
146.63,-10.574,13.703,15.0
88.49,-6.377,7.798,11.0
87.957,-6.333,7.274,11.0
88.454,-6.363,6.846,5.0
122.1,-8.778,8.803,12.0
146.738,-10.579,14.707,16.0
146.815,-10.574,13.931,14.0
119.415,-8.592,10.695,11.0
119.512,-8.592,10.055,8.0
88.505,-6.357,6.976,21.0
122.36,-8.78,8.995,5.0
91.561,-6.589,9.309,10.0
91.527,-6.58,8.816,15.0
119.235,-8.563,10.847,10.0
119.2,-8.551,10.196,8.0
88.276,-6.326,7.081,15.0
119.459,-8.553,8.948,11.0
148.411,-10.656,15.296,10.0
91.551,-6.566,8.945,14.0
118.91,-8.518,10.983,4.0
88.488,-6.331,7.692,22.0
87.949,-6.286,7.176,14.0
119.463,-8.53,9.111,8.0
148.511,-10.633,15.512,9.0
91.502,-6.542,9.067,7.0
146.816,-10.484,13.762,7.0
88.513,-6.313,7.815,21.0
87.948,-6.264,7.296,10.0
88.507,-6.297,6.87,20.0
148.342,-10.586,15.695,19.0
91.572,-6.524,9.197,17.0
91.519,-6.512,8.701,5.0
119.182,-8.469,10.681,8.0
119.299,-8.465,10.054,14.0
88.504,-6.272,6.986,24.0
148.536,-10.556,15.914,16.0
91.447,-6.489,9.305,13.0
91.53,-6.486,8.821,17.0
118.972,-8.418,10.817,9.0
88.511,-6.253,7.574,9.0
88.193,-6.222,7.075,20.0
148.43,-10.502,16.097,14.0
93.617,-6.613,9.648,6.0
91.594,-6.459,8.948,14.0
118.673,-8.356,10.944,9.0
88.544,-6.224,7.691,24.0
88.109,-6.184,7.182,11.0
90.91,-6.399,9.976,10.0
93.605,-6.577,9.767,9.0
91.533,-6.42,9.059,13.0
118.484,-8.298,11.076,11.0
88.595,-6.193,7.807,17.0
94.036,-6.563,7.782,12.0
90.31,-6.321,10.024,19.0
148.162,-10.352,15.644,8.0
91.503,-6.381,9.168,22.0
146.645,-10.209,13.888,9.0
88.683,-6.163,7.921,12.0
119.197,-8.269,10.008,13.0
90.08,-6.266,10.108,26.0
148.556,-10.315,15.866,15.0
91.51,-6.341,9.279,21.0
91.584,-6.333,8.784,5.0
88.387,-6.101,8.001,12.0
118.785,-8.185,10.116,10.0
90.177,-6.23,10.228,25.0
148.61,-10.247,16.051,14.0
93.656,-6.445,9.608,9.0
91.702,-6.297,8.903,13.0
91.838,-6.294,8.421,12.0
88.702,-6.068,7.656,17.0
90.326,-6.195,10.351,19.0
90.92,-6.222,9.926,10.0
93.911,-6.414,9.743,16.0
91.672,-6.247,9.005,27.0
91.807,-6.244,8.522,25.0
88.696,-6.02,7.756,20.0
90.352,-6.149,10.456,25.0
90.358,-6.135,9.966,16.0
94.034,-6.371,9.861,16.0
91.604,-6.191,9.101,15.0
91.831,-6.194,8.626,16.0
88.563,-5.96,7.842,28.0
90.066,-6.077,10.523,23.0
90.126,-6.067,10.04,20.0
90.991,-6.111,9.641,4.0
91.541,-6.134,9.194,21.0
91.69,-6.129,8.712,16.0
88.513,-5.904,7.932,26.0
89.635,-5.994,10.57,28.0
90.262,-6.021,10.152,20.0
91.01,-6.056,9.741,16.0
92.011,-6.106,9.34,16.0
91.562,-6.063,8.797,15.0
88.656,-5.856,8.038,17.0
89.284,-5.913,10.623,32.0
90.368,-5.969,10.259,20.0
90.969,-5.994,9.83,29.0
87.031,-5.719,8.923,16.0
91.449,-5.994,8.88,15.0
118.891,-7.773,10.9,8.0
89.23,-5.848,10.708,27.0
90.397,-5.909,10.354,19.0
90.617,-5.908,9.883,39.0
86.951,-5.654,9.001,14.0
87.252,-5.658,8.558,14.0
94.194,-6.093,8.727,4.0
89.313,-5.791,10.806,19.0
90.13,-5.826,10.411,21.0
90.576,-5.84,9.967,28.0
86.921,-5.588,9.082,9.0
87.246,-5.594,8.64,16.0
91.368,-5.842,8.552,11.0
89.44,-5.733,10.907,14.0
89.9,-5.745,10.469,17.0
90.664,-5.777,10.061,19.0
87.235,-5.543,9.195,11.0
87.217,-5.526,8.717,29.0
91.374,-5.773,8.635,10.0
89.376,-5.66,10.98,14.0
89.729,-5.665,10.53,20.0
91.009,-5.728,10.181,16.0
87.037,-5.463,9.251,24.0
87.563,-5.479,8.828,22.0
87.822,-5.48,8.375,19.0
89.42,-5.591,11.064,16.0
89.81,-5.598,10.617,16.0
89.386,-5.554,10.076,8.0
86.953,-5.387,9.315,32.0
87.654,-5.413,8.911,22.0
87.923,-5.413,8.458,21.0
89.489,-5.522,11.147,30.0
89.991,-5.535,10.713,24.0
89.541,-5.489,10.166,24.0
87.129,-5.325,9.405,12.0
87.528,-5.332,8.968,15.0
87.958,-5.341,8.531,28.0
89.517,-5.448,11.222,21.0
89.85,-5.449,10.768,22.0
89.689,-5.422,10.253,24.0
91.724,-5.526,9.972,13.0
87.583,-5.259,9.041,19.0
88.01,-5.268,8.602,20.0
88.884,-5.33,11.21,24.0
89.455,-5.346,10.787,16.0
82.444,-4.91,9.487,19.0
91.635,-5.438,10.03,16.0
87.714,-5.188,9.118,20.0
87.662,-5.168,8.631,23.0
88.834,-5.247,11.268,27.0
89.23,-5.251,10.824,14.0
82.488,-4.837,9.55,20.0
91.321,-5.336,10.059,25.0
87.758,-5.11,9.183,16.0
87.601,-5.083,8.685,23.0
88.906,-5.168,11.338,26.0
87.335,-5.059,10.652,22.0
90.129,-5.201,10.494,17.0
93.993,-5.404,10.414,10.0
91.784,-5.258,9.663,6.0
87.604,-5.002,8.74,31.0
88.946,-5.086,11.4,28.0
87.235,-4.969,10.695,27.0
89.991,-5.106,10.534,19.0
91.818,-5.191,10.229,6.0
82.639,-4.655,8.75,10.0
88.119,-4.946,8.844,18.0
88.961,-4.999,11.455,21.0
87.231,-4.884,10.746,29.0
89.976,-5.018,10.584,12.0
82.718,-4.594,9.263,19.0
82.608,-4.571,8.794,14.0
88.189,-4.862,8.9,9.0
89.233,-4.926,11.54,11.0
87.406,-4.805,10.816,18.0
87.058,-4.767,10.288,21.0
82.716,-4.511,9.307,16.0
82.54,-4.485,8.829,25.0
84.444,-4.57,8.565,12.0
93.406,-5.061,12.128,7.0
87.577,-4.726,10.881,15.0
86.615,-4.655,10.278,27.0
82.063,-4.392,9.273,20.0
82.622,-4.404,8.877,23.0
84.304,-4.476,8.591,11.0
86.422,-4.593,11.262,15.0
87.737,-4.643,10.941,15.0
86.733,-4.57,10.332,31.0
81.633,-4.284,9.261,26.0
82.593,-4.316,8.91,26.0
0.0,0.0,0.0,0.0
86.488,-4.506,11.307,21.0
86.913,-4.508,10.875,9.0
86.886,-4.487,10.386,25.0
81.679,-4.199,9.299,19.0
82.632,-4.231,8.947,23.0
82.672,-4.214,8.492,10.0
86.417,-4.409,11.331,18.0
80.892,-4.108,10.152,17.0
87.146,-4.406,10.449,30.0
81.824,-4.119,9.345,23.0
82.76,-4.147,8.99,22.0
82.863,-4.135,8.539,11.0
86.121,-4.3,11.321,16.0
80.886,-4.02,10.178,19.0
81.134,-4.013,9.754,10.0
81.852,-4.031,9.373,19.0
83.584,-4.099,9.104,22.0
82.861,-4.044,8.564,14.0
86.134,-4.206,11.349,14.0
87.136,-4.234,10.99,13.0
81.279,-3.93,9.794,19.0
81.965,-3.945,9.409,23.0
82.965,-3.976,9.059,28.0
83.153,-3.966,8.615,9.0
86.278,-4.115,11.39,15.0
86.955,-4.128,10.988,14.0
81.3,-3.84,9.816,23.0
81.948,-3.851,9.426,26.0
82.543,-3.862,9.031,23.0
83.305,-3.88,8.648,11.0
86.733,-4.039,11.467,17.0
86.837,-4.022,10.991,20.0
81.277,-3.747,9.829,30.0
80.965,-3.714,9.327,26.0
82.579,-3.769,9.049,32.0
79.957,-3.631,8.315,19.0
86.683,-3.936,11.475,21.0
85.402,-3.857,10.822,14.0
81.597,-3.667,9.88,19.0
81.015,-3.623,9.344,33.0
65.149,-2.898,7.148,5.0
80.029,-3.543,8.331,24.0
85.998,-3.804,11.395,22.0
85.42,-3.759,10.834,10.0
85.968,-3.764,10.417,8.0
81.138,-3.533,9.366,33.0
65.243,-2.826,7.164,16.0
80.088,-3.451,8.344,23.0
85.955,-3.702,11.395,27.0
81.605,-3.494,10.356,26.0
81.835,-3.486,9.921,25.0
77.593,-3.288,8.96,19.0
65.264,-2.75,7.169,18.0
80.078,-3.357,8.345,10.0
86.087,-3.604,11.415,12.0
81.27,-3.384,10.315,12.0
81.779,-3.387,9.915,25.0
77.655,-3.198,8.968,31.0
65.306,-2.675,7.173,29.0
64.071,-2.61,6.676,16.0
80.537,-3.276,10.677,11.0
77.083,-3.118,9.781,23.0
81.787,-3.289,9.913,14.0
77.707,-3.108,8.97,32.0
64.86,-2.579,7.12,26.0
64.132,-2.536,6.679,29.0
80.303,-3.17,10.641,27.0
77.084,-3.025,9.775,18.0
81.837,-3.193,9.912,18.0
77.805,-3.018,8.975,19.0
64.342,-2.482,7.057,28.0
64.174,-2.461,6.676,24.0
80.276,-3.072,10.629,16.0
77.391,-2.945,9.805,27.0
82.021,-3.102,9.924,18.0
77.799,-2.925,8.963,11.0
64.451,-2.409,7.06,28.0
64.308,-2.39,6.681,28.0
80.455,-2.982,10.64,9.0
80.613,-2.97,10.2,12.0
77.741,-2.846,9.393,23.0
79.345,-2.887,9.127,11.0
64.508,-2.332,7.054,29.0
64.39,-2.314,6.677,29.0
78.089,-2.8,10.31,9.0
80.734,-2.875,10.198,10.0
77.426,-2.74,9.338,17.0
0.0,0.0,0.0,0.0
64.584,-2.257,7.047,32.0
64.55,-2.242,6.678,27.0
78.456,-2.715,10.339,10.0
77.564,-2.668,9.777,35.0
77.16,-2.637,9.285,34.0
77.784,-2.641,8.909,10.0
64.73,-2.183,7.045,28.0
64.589,-2.164,6.663,33.0
79.07,-2.641,10.396,14.0
77.394,-2.567,9.732,34.0
74.538,-2.455,8.946,22.0
65.221,-2.135,7.449,13.0
64.818,-2.108,7.034,34.0
64.88,-2.096,6.671,32.0
77.043,-2.479,10.103,8.0
77.097,-2.464,9.667,25.0
74.613,-2.368,8.929,31.0
65.288,-2.058,7.433,20.0
64.829,-2.029,7.011,29.0
64.733,-2.012,6.632,34.0
79.136,-2.45,10.347,7.0
76.91,-2.364,9.614,17.0
74.686,-2.28,8.907,31.0
65.375,-1.982,7.416,25.0
64.862,-1.952,6.987,38.0
64.678,-1.933,6.599,32.0
64.558,-1.919,8.413,25.0
76.905,-2.268,9.579,12.0
74.806,-2.191,8.887,19.0
74.754,-2.173,8.445,24.0
64.912,-1.874,6.962,30.0
64.572,-1.85,6.557,28.0
64.521,-1.839,8.376,23.0
74.459,-2.105,9.238,22.0
76.436,-2.146,9.043,9.0
65.489,-1.825,7.366,22.0
64.829,-1.793,6.92,37.0
64.509,-1.771,6.518,32.0
64.369,-1.756,8.322,28.0
74.442,-2.015,9.195,34.0
74.611,-2.003,8.787,27.0
74.458,-1.985,8.334,11.0
64.62,-1.709,6.862,31.0
64.459,-1.692,6.477,37.0
64.349,-1.677,8.283,28.0
74.805,-1.935,9.197,29.0
74.816,-1.919,8.767,27.0
65.268,-1.661,7.266,19.0
64.394,-1.627,6.8,28.0
64.63,-1.619,6.455,31.0
64.407,-1.602,8.251,27.0
74.631,-1.841,9.129,26.0
74.835,-1.83,8.723,30.0
65.352,-1.586,7.234,27.0
64.392,-1.55,6.758,26.0
64.113,-1.53,6.362,23.0
64.401,-1.524,8.207,25.0
74.565,-1.751,9.071,33.0
65.241,-1.518,7.56,9.0
65.345,-1.508,7.189,28.0
64.49,-1.475,6.724,35.0
64.061,-1.453,6.312,27.0
64.6,-1.452,8.187,32.0
74.89,-1.669,9.057,32.0
65.217,-1.441,7.51,18.0
65.195,-1.427,7.125,27.0
64.53,-1.4,6.681,28.0
64.076,-1.378,6.266,25.0
64.748,-1.379,8.156,21.0
74.913,-1.58,9.002,24.0
73.668,-1.54,8.427,13.0
65.115,-1.349,7.066,30.0
64.557,-1.325,6.634,29.0
63.884,-1.3,6.198,28.0
64.15,-1.291,8.03,22.0
73.788,-1.471,8.809,36.0
65.828,-1.3,7.477,41.0
65.281,-1.277,7.031,16.0
64.921,-1.258,6.619,39.0
63.794,-1.225,6.137,32.0
58.725,-1.114,7.302,18.0
73.492,-1.381,8.711,25.0
65.35,-1.216,7.368,11.0
65.16,-1.2,6.963,13.0
64.533,-1.177,6.524,25.0
63.897,-1.154,6.092,27.0
0.0,0.0,0.0,0.0
63.281,-1.116,7.445,9.0
65.04,-1.135,7.274,37.0
58.813,-1.016,6.231,24.0
64.482,-1.102,6.46,31.0
64.135,-1.084,6.056,8.0
59.773,-0.996,7.323,17.0
63.347,-1.045,7.393,26.0
57.254,-0.934,6.349,11.0
58.837,-0.949,6.178,32.0
64.261,-1.026,6.377,23.0
58.51,-0.924,5.468,16.0
59.863,-0.931,7.275,22.0
63.402,-0.974,7.337,30.0
57.365,-0.872,6.305,28.0
58.933,-0.885,6.13,26.0
64.216,-0.954,6.308,30.0
64.079,-0.94,5.925,12.0
59.883,-0.863,7.217,21.0
63.628,-0.907,7.298,38.0
57.483,-0.81,6.259,27.0
59.024,-0.821,6.079,33.0
64.042,-0.881,6.225,24.0
63.992,-0.87,5.851,13.0
59.924,-0.8,7.159,22.0
64.3,-0.847,7.307,39.0
57.362,-0.746,6.185,25.0
58.947,-0.757,6.008,32.0
58.687,-0.744,5.642,20.0
63.962,-0.801,5.78,12.0
63.567,-0.78,7.525,12.0
59.757,-0.723,6.725,16.0
57.426,-0.686,6.128,31.0
58.95,-0.694,5.943,26.0
58.742,-0.683,5.582,31.0
66.598,-0.764,5.943,16.0
63.583,-0.712,7.453,22.0
59.787,-0.66,6.66,11.0
57.454,-0.626,6.066,20.0
59.008,-0.633,5.882,17.0
58.707,-0.621,5.511,21.0
66.975,-0.698,5.899,26.0
63.67,-0.647,7.389,15.0
57.296,-0.573,6.315,25.0
0.0,0.0,0.0,0.0
64.024,-0.621,6.305,13.0
0.0,0.0,0.0,0.0
64.671,-0.608,5.618,7.0
59.861,-0.547,6.874,16.0
57.298,-0.515,6.245,31.0
0.0,0.0,0.0,0.0
67.358,-0.585,6.55,10.0
58.709,-0.502,5.368,31.0
76.544,-0.643,6.556,9.0
59.842,-0.486,6.796,23.0
57.254,-0.457,6.168,31.0
58.901,-0.462,6.002,17.0
57.089,-0.439,5.48,26.0
64.764,-0.489,5.84,12.0
62.506,-0.464,5.274,23.0
57.257,-0.409,6.428,7.0
57.301,-0.401,6.099,31.0
58.684,-0.404,5.904,14.0
57.115,-0.384,5.408,29.0
64.812,-0.427,5.76,13.0
62.463,-0.404,5.189,24.0
57.295,-0.355,6.357,25.0
57.293,-0.347,6.022,31.0
56.714,-0.336,5.63,18.0
57.129,-0.33,5.332,27.0
64.717,-0.367,5.665,26.0
62.453,-0.346,5.104,24.0
57.287,-0.301,6.277,27.0
56.888,-0.291,5.9,31.0
58.858,-0.293,5.761,20.0
0.0,0.0,0.0,0.0
64.539,-0.306,5.559,19.0
67.699,-0.312,5.438,10.0
57.361,-0.249,6.204,25.0
57.039,-0.24,5.836,31.0
58.904,-0.24,5.682,7.0
64.799,-0.256,5.866,23.0
62.413,-0.239,5.286,23.0
67.783,-0.252,5.348,12.0
57.755,-0.198,6.163,31.0
56.783,-0.189,5.727,19.0
57.35,-0.184,5.449,21.0
64.813,-0.199,5.773,24.0
62.53,-0.185,5.205,28.0
76.867,-0.219,5.952,16.0
57.518,-0.148,6.052,32.0
56.802,-0.14,5.645,30.0
57.315,-0.134,5.36,30.0
