X,Y,Z,Reflectivity
153.855,-13.358,12.579,4.0
145.575,-12.605,11.098,5.0
145.97,-12.658,15.254,15.0
145.455,-12.577,14.392,3.0
145.634,-12.556,13.601,5.0
146.008,-12.553,12.81,12.0
145.869,-12.504,11.992,9.0
145.373,-12.427,11.148,3.0
146.331,-12.527,15.357,16.0
145.22,-12.394,14.432,18.0
144.964,-12.335,13.6,12.0
145.051,-12.306,12.788,9.0
146.196,-12.369,12.078,4.0
145.809,-12.299,11.241,16.0
147.392,-12.45,15.529,12.0
145.197,-12.227,14.487,21.0
144.708,-12.148,13.633,11.0
145.24,-12.155,12.861,11.0
146.359,-12.212,12.147,14.0
146.152,-12.159,11.32,14.0
147.325,-12.271,15.576,13.0
145.659,-12.094,14.587,9.0
144.744,-11.981,13.687,10.0
145.552,-12.011,12.938,14.0
146.368,-12.041,12.198,11.0
146.853,-12.044,11.423,19.0
146.99,-12.07,15.588,13.0
146.552,-11.993,14.722,15.0
144.693,-11.802,13.729,13.0
145.206,-11.806,12.953,19.0
146.168,-11.848,12.224,10.0
146.814,-11.864,11.462,11.0
146.598,-11.858,15.59,11.0
147.755,-11.913,14.884,11.0
144.608,-11.62,13.758,8.0
145.289,-11.636,12.997,11.0
146.127,-11.665,12.259,16.0
145.599,-11.587,11.404,4.0
148.855,-11.857,15.866,4.0
148.324,-11.774,14.978,4.0
145.795,-11.534,13.906,14.0
145.894,-11.503,13.084,15.0
145.784,-11.458,12.26,13.0
147.305,-11.538,11.567,12.0
148.411,-11.634,15.849,5.0
148.572,-11.607,15.031,7.0
145.905,-11.36,13.944,16.0
118.795,-9.218,10.675,3.0
145.56,-11.257,12.266,15.0
147.572,-11.374,11.612,14.0
150.547,-11.61,16.102,5.0
145.809,-11.204,14.775,12.0
145.832,-11.168,13.957,17.0
118.981,-9.079,10.708,8.0
145.77,-11.084,12.304,14.0
88.41,-6.7,6.968,7.0
148.842,-11.286,15.936,11.0
145.606,-11.0,14.769,12.0
146.657,-11.038,14.053,9.0
119.056,-8.93,10.727,9.0
119.15,-8.906,10.067,12.0
88.458,-6.588,6.979,17.0
148.7,-11.082,15.932,4.0
148.858,-11.05,15.11,12.0
91.129,-6.741,8.737,14.0
119.423,-8.801,10.766,13.0
119.137,-8.748,10.072,6.0
88.455,-6.472,6.982,19.0
148.448,-10.867,15.911,11.0
147.585,-10.762,14.984,13.0
91.28,-6.631,8.752,12.0
119.233,-8.629,10.75,13.0
87.941,-6.34,7.435,9.0
88.48,-6.355,6.984,20.0
148.347,-10.658,15.898,15.0
91.158,-6.524,9.254,4.0
91.406,-6.516,8.763,18.0
118.867,-8.441,10.713,8.0
88.531,-6.263,7.481,12.0
88.545,-6.241,6.984,22.0
148.666,-10.479,15.924,16.0
93.517,-6.565,9.487,9.0
91.469,-6.395,8.762,17.0
117.059,-8.154,10.541,11.0
88.653,-6.15,7.484,6.0
88.557,-6.121,6.977,7.0
148.674,-10.276,15.91,14.0
91.363,-6.288,9.259,16.0
91.544,-6.276,8.759,14.0
88.292,-6.028,7.94,6.0
88.861,-6.044,7.489,13.0
88.618,-6.003,6.97,22.0
90.955,-6.16,9.72,3.0
91.523,-6.172,9.261,12.0
93.801,-6.3,8.96,11.0
117.086,-7.832,10.51,10.0
88.963,-5.926,7.483,25.0
88.546,-5.875,6.948,22.0
91.082,-6.042,9.716,17.0
87.162,-5.756,8.803,14.0
91.648,-6.028,8.736,17.0
88.681,-5.809,7.941,18.0
88.96,-5.803,7.464,16.0
88.579,-5.755,6.932,21.0
91.119,-5.917,9.699,9.0
87.317,-5.646,8.798,18.0
91.257,-5.875,8.676,22.0
88.88,-5.697,7.937,28.0
93.943,-5.997,7.857,11.0
88.366,-5.617,6.892,31.0
87.047,-5.529,9.242,28.0
87.485,-5.532,8.79,22.0
91.364,-5.753,8.66,8.0
89.023,-5.581,7.924,22.0
93.69,-5.849,7.808,21.0
88.628,-5.509,6.885,19.0
87.232,-5.418,9.234,19.0
87.643,-5.42,8.777,19.0
87.792,-5.404,8.292,21.0
88.97,-5.452,7.889,26.0
93.734,-5.72,7.779,23.0
88.912,-5.401,6.875,26.0
87.695,-5.323,9.251,6.0
87.537,-5.288,8.734,15.0
87.93,-5.287,8.272,32.0
88.954,-5.326,7.853,11.0
88.841,-5.295,7.338,14.0
88.674,-5.261,6.821,26.0
87.789,-5.203,9.225,18.0
87.649,-5.17,8.709,22.0
88.299,-5.185,8.269,18.0
93.994,-5.494,8.258,16.0
88.802,-5.168,7.297,18.0
88.961,-5.153,6.804,14.0
87.245,-5.047,9.129,11.0
87.66,-5.046,8.67,30.0
86.903,-4.979,8.099,18.0
93.844,-5.353,8.201,13.0
89.152,-5.061,7.283,19.0
89.083,-5.033,6.771,6.0
91.792,-5.179,9.559,20.0
88.304,-4.957,8.689,19.0
87.02,-4.861,8.065,22.0
89.18,-4.958,7.747,19.0
88.744,-4.91,7.203,21.0
90.611,-4.99,6.839,15.0
82.843,-4.554,8.581,4.0
85.093,-4.654,8.326,12.0
87.228,-4.747,8.036,18.0
89.173,-4.829,7.696,11.0
88.765,-4.785,7.154,25.0
88.62,-4.753,6.638,13.0
88.079,-4.714,9.072,24.0
85.131,-4.533,8.28,18.0
87.707,-4.648,8.027,17.0
88.761,-4.68,7.607,15.0
89.286,-4.684,7.142,15.0
88.695,-4.63,6.588,18.0
88.991,-4.635,9.11,16.0
85.247,-4.416,8.237,13.0
89.022,-4.589,8.09,11.0
90.404,-4.637,7.689,15.0
0.0,0.0,0.0,0.0
88.714,-4.503,6.531,15.0
79.623,-4.032,8.097,8.0
85.501,-4.307,8.202,10.0
87.146,-4.366,7.86,6.0
89.951,-4.484,7.588,9.0
89.488,-4.439,7.037,13.0
89.543,-4.418,6.53,17.0
84.044,-4.135,8.486,12.0
85.624,-4.191,8.152,18.0
87.211,-4.246,7.803,15.0
89.351,-4.328,7.472,7.0
88.364,-4.257,6.883,23.0
89.337,-4.281,6.448,27.0
79.006,-3.774,7.917,21.0
85.534,-4.064,8.078,7.0
87.265,-4.123,7.739,25.0
0.0,0.0,0.0,0.0
88.243,-4.125,6.804,20.0
89.147,-4.145,6.364,26.0
79.181,-3.67,7.87,28.0
79.472,-3.662,7.441,9.0
80.067,-3.669,7.036,14.0
90.97,-4.147,7.462,13.0
88.622,-4.018,6.761,13.0
89.564,-4.039,6.319,13.0
79.648,-3.579,7.85,18.0
79.476,-3.551,7.374,17.0
80.093,-3.558,6.97,20.0
91.903,-4.06,7.46,9.0
89.285,-3.923,6.735,13.0
87.707,-3.832,6.112,7.0
79.087,-3.442,7.725,29.0
82.529,-3.571,7.584,29.0
80.166,-3.449,6.904,26.0
88.295,-3.778,7.088,21.0
0.0,0.0,0.0,0.0
95.353,-4.033,6.559,13.0
79.206,-3.337,7.663,18.0
82.627,-3.46,7.516,10.0
80.146,-3.337,6.828,12.0
87.86,-3.636,6.97,32.0
87.761,-3.61,6.457,30.0
88.345,-3.614,5.992,14.0
79.335,-3.231,7.598,25.0
80.013,-3.239,7.2,20.0
80.063,-3.221,6.742,22.0
87.71,-3.508,6.872,23.0
88.542,-3.519,6.426,17.0
88.15,-3.483,5.891,21.0
81.698,-3.213,7.741,17.0
80.074,-3.129,7.123,22.0
80.413,-3.123,6.689,20.0
88.138,-3.402,6.813,18.0
88.246,-3.385,6.312,17.0
88.079,-3.359,5.793,22.0
80.256,-3.045,7.519,11.0
80.172,-3.023,7.047,24.0
80.854,-3.029,6.638,19.0
88.188,-3.282,6.722,14.0
88.065,-3.258,6.205,20.0
96.248,-3.539,6.227,8.0
66.663,-2.438,6.173,17.0
80.422,-2.922,6.98,20.0
80.908,-2.921,6.553,22.0
87.982,-3.156,6.608,15.0
87.66,-3.124,6.079,10.0
94.636,-3.351,6.017,24.0
66.675,-2.348,6.097,24.0
80.454,-2.814,6.89,10.0
81.386,-2.828,6.499,8.0
87.963,-3.038,6.506,26.0
87.721,-3.009,5.981,11.0
98.413,-3.354,6.143,14.0
66.662,-2.257,6.017,21.0
80.703,-2.714,6.816,28.0
85.995,-2.872,6.763,14.0
87.919,-2.917,6.398,28.0
98.186,-3.236,6.577,7.0
98.702,-3.232,6.041,17.0
67.61,-2.199,6.019,19.0
80.828,-2.611,6.726,30.0
85.8,-2.752,6.643,4.0
99.993,-3.185,7.152,11.0
95.847,-3.032,6.3,16.0
100.018,-3.142,5.996,17.0
65.979,-2.058,5.791,24.0
81.303,-2.518,6.663,17.0
96.744,-2.975,7.366,10.0
87.669,-2.678,6.158,9.0
96.496,-2.926,6.22,18.0
97.481,-2.935,5.719,8.0
66.676,-1.992,5.764,32.0
85.888,-2.548,6.925,12.0
77.132,-2.272,5.771,19.0
76.711,-2.244,5.288,27.0
97.029,-2.818,6.126,12.0
97.207,-2.802,5.574,17.0
66.552,-1.903,5.665,18.0
80.987,-2.298,6.421,10.0
77.13,-2.173,5.667,8.0
76.046,-2.127,5.138,23.0
88.2,-2.449,5.449,9.0
96.892,-2.671,5.425,14.0
76.613,-2.094,6.415,25.0
87.377,-2.37,6.808,8.0
87.204,-2.348,6.288,15.0
88.056,-2.353,5.828,11.0
88.269,-2.341,5.33,21.0
97.032,-2.554,5.297,15.0
76.81,-2.004,6.323,13.0
77.1,-1.996,5.898,17.0
76.649,-1.969,5.417,24.0
96.582,-2.461,6.256,6.0
88.357,-2.235,5.21,7.0
96.831,-2.43,5.148,19.0
0.0,0.0,0.0,0.0
87.271,-2.152,6.549,13.0
76.269,-1.866,5.28,38.0
75.927,-1.842,4.806,25.0
88.246,-2.125,5.073,14.0
96.787,-2.312,5.004,38.0
75.615,-1.788,6.003,29.0
76.897,-1.804,5.656,8.0
75.941,-1.767,5.143,17.0
96.626,-2.23,5.973,20.0
96.777,-2.215,5.419,23.0
96.825,-2.199,4.86,32.0
75.494,-1.697,5.879,28.0
77.1,-1.718,5.554,17.0
76.139,-1.682,5.041,36.0
106.063,-2.323,6.393,18.0
128.4,-2.789,6.993,10.0
96.868,-2.087,4.714,6.0
76.812,-1.637,5.862,24.0
76.108,-1.608,5.365,26.0
76.234,-1.597,4.929,38.0
99.196,-2.061,5.826,9.0
189.993,-3.913,10.053,20.0
190.031,-3.881,8.954,22.0
76.979,-1.553,5.753,22.0
76.281,-1.525,5.255,37.0
98.734,-1.957,6.227,21.0
99.274,-1.951,5.673,3.0
190.328,-3.708,9.769,22.0
190.091,-3.671,8.655,16.0
76.364,-1.456,5.584,31.0
76.242,-1.441,5.13,26.0
98.917,-1.852,6.079,20.0
191.102,-3.546,10.612,9.0
0.0,0.0,0.0,0.0
193.497,-3.525,8.495,12.0
76.235,-1.371,5.45,30.0
90.93,-1.62,5.968,37.0
98.925,-1.746,5.915,34.0
191.503,-3.347,10.317,5.0
190.95,-3.307,9.176,8.0
193.867,-3.327,8.189,14.0
76.322,-1.292,5.327,36.0
90.898,-1.523,5.814,32.0
98.986,-1.643,5.753,35.0
191.483,-3.147,9.993,6.0
193.217,-3.145,8.957,5.0
168.404,-2.713,6.827,6.0
75.992,-1.206,5.173,12.0
90.783,-1.427,5.649,33.0
99.479,-1.548,5.61,12.0
193.533,-2.983,9.768,10.0
193.063,-2.947,8.62,20.0
171.818,-2.595,6.672,16.0
90.267,-1.343,5.99,35.0
90.65,-1.335,5.485,24.0
193.45,-2.82,10.578,17.0
193.488,-2.791,9.43,23.0
193.405,-2.761,8.299,20.0
171.375,-2.421,6.355,10.0
90.33,-1.256,5.835,23.0
90.581,-1.246,5.321,16.0
90.64,-1.233,4.795,18.0
192.889,-2.598,9.063,22.0
193.886,-2.583,7.978,8.0
171.295,-2.257,6.049,3.0
90.382,-1.17,5.676,19.0
90.514,-1.159,5.154,29.0
90.619,-1.147,4.631,45.0
90.685,-1.135,4.096,31.0
90.677,-1.123,3.567,31.0
90.685,-1.111,3.04,26.0
90.449,-1.088,5.516,18.0
90.555,-1.077,4.992,43.0
90.618,-1.065,4.467,47.0
90.614,-1.053,3.928,54.0
90.63,-1.04,3.399,57.0
90.548,-1.028,2.869,18.0
90.463,-1.008,5.351,30.0
90.557,-0.997,4.827,35.0
90.602,-0.985,4.299,49.0
90.601,-0.974,3.762,53.0
90.597,-0.962,3.232,49.0
83.556,-0.876,2.493,1.0
90.576,-0.931,5.189,27.0
90.604,-0.92,4.66,26.0
90.643,-0.909,4.132,37.0
90.615,-0.897,3.592,52.0
90.587,-0.886,3.063,40.0
83.108,-0.803,2.325,2.0
90.668,-0.857,5.024,8.0
193.143,-1.803,9.572,20.0
90.702,-0.835,3.963,6.0
90.641,-0.824,3.423,30.0
90.529,-0.812,2.89,15.0
0.0,0.0,0.0,0.0
193.921,-1.679,10.375,22.0
193.532,-1.653,9.222,22.0
193.95,-1.635,8.107,9.0
90.716,-0.754,3.254,9.0
82.996,-0.68,2.491,4.0
0.0,0.0,0.0,0.0
193.464,-1.527,9.976,20.0
193.579,-1.506,8.849,22.0
0.0,0.0,0.0,0.0
90.756,-0.686,3.077,5.0
81.859,-0.609,2.297,3.0
0.0,0.0,0.0,0.0
193.674,-1.386,9.607,18.0
194.396,-1.37,8.503,19.0
0.0,0.0,0.0,0.0
90.419,-0.618,2.888,8.0
0.0,0.0,0.0,0.0
0.0,0.0,0.0,0.0
194.099,-1.252,9.244,8.0
194.536,-1.235,8.124,14.0
0.0,0.0,0.0,0.0
82.801,-0.508,2.479,5.0
0.0,0.0,0.0,0.0
0.0,0.0,0.0,0.0
179.072,-1.034,8.167,17.0
175.994,-1.0,6.996,5.0
104.712,-0.584,3.549,10.0
80.543,-0.442,2.25,3.0
0.0,0.0,0.0,0.0
0.0,0.0,0.0,0.0
178.985,-0.92,7.801,34.0
175.876,-0.887,6.634,17.0
90.308,-0.447,2.878,3.0
0.0,0.0,0.0,0.0
0.0,0.0,0.0,0.0
38.256,-0.179,0.544,0.0
178.974,-0.813,7.438,20.0
108.741,-0.484,3.884,6.0
80.716,-0.353,2.41,3.0
0.0,0.0,0.0,0.0
0.0,0.0,0.0,0.0
36.127,-0.149,0.441,0.0
179.089,-0.713,7.08,4.0
104.644,-0.408,3.523,5.0
79.693,-0.304,2.217,3.0
57.503,-0.215,1.258,0.0
41.346,-0.151,0.662,0.0
33.331,-0.119,0.339,0.0
174.872,-0.604,6.555,5.0
83.275,-0.281,2.633,5.0
0.0,0.0,0.0,0.0
0.0,0.0,0.0,0.0
0.0,0.0,0.0,0.0
33.193,-0.102,0.268,0.0
108.542,-0.32,3.841,8.0
82.739,-0.238,2.443,3.0
0.0,0.0,0.0,0.0
0.0,0.0,0.0,0.0
36.148,-0.096,0.429,0.0
30.506,-0.079,0.184,0.0
105.536,-0.264,3.516,2.0
78.845,-0.192,2.165,5.0
0.0,0.0,0.0,0.0
0.0,0.0,0.0,0.0
33.186,-0.074,0.325,0.0
28.798,-0.062,0.113,6.0
83.012,-0.172,2.591,6.0
78.652,-0.158,1.995,2.0
0.0,0.0,0.0,0.0
0.0,0.0,0.0,0.0
31.443,-0.058,0.242,0.0
28.227,-0.05,0.052,1.0
82.743,-0.14,2.41,1.0
0.0,0.0,0.0,0.0
43.594,-0.069,0.759,0.0
0.0,0.0,0.0,0.0
30.176,-0.044,0.168,0.0
26.622,-0.038,-0.006,0.0
78.551,-0.105,2.122,9.0
0.0,0.0,0.0,0.0
0.0,0.0,0.0,0.0
33.299,-0.039,0.31,0.0
28.691,-0.033,0.099,1.0
25.565,-0.028,-0.06,0.0
0.0,0.0,0.0,0.0
0.0,0.0,0.0,0.0
37.164,-0.035,0.489,0.0
31.21,-0.028,0.225,0.0
27.557,-0.023,0.038,0.0
24.102,-0.019,-0.108,0.0
0.0,0.0,0.0,0.0
42.776,-0.03,0.723,0.0
0.0,0.0,0.0,0.0
29.482,-0.019,0.15,0.0
26.349,-0.016,-0.019,0.0
23.518,-0.013,-0.155,0.0
0.0,0.0,0.0,0.0
0.0,0.0,0.0,0.0
33.065,-0.015,0.295,0.0
28.542,-0.012,0.084,1.0
25.242,-0.009,-0.073,0.0
21.716,-0.007,-0.189,1.0
0.0,0.0,0.0,0.0
36.653,-0.01,0.462,0.0
30.685,-0.008,0.207,0.0
27.243,-0.006,0.022,0.0
23.848,-0.005,-0.12,0.0
20.968,-0.003,-0.228,2.0
0.0,0.0,0.0,0.0
33.39,-0.004,0.35,0.0
28.843,-0.003,0.133,0.0
26.048,-0.002,-0.034,0.0
23.154,-0.001,-0.166,0.0
19.712,0.0,-0.256,0.0
0.0,0.0,0.0,0.0
33.146,0.0,0.276,0.0
28.325,0.0,0.07,1.0
24.883,0.0,-0.086,0.0
21.417,0.0,-0.199,3.0
18.563,0.0,-0.281,0.0
35.832,0.002,0.432,0.0
30.337,0.002,0.188,0.0
26.83,0.002,0.009,0.0
23.681,0.002,-0.132,1.0
20.75,0.002,-0.237,0.0
17.756,0.002,-0.307,0.0
33.183,0.003,0.328,0.0
28.772,0.003,0.116,1.0
25.686,0.003,-0.046,0.0
22.28,0.002,-0.173,0.0
19.256,0.002,-0.262,0.0
17.097,0.002,-0.333,0.0
0.0,0.0,0.0,0.0
27.79,0.003,0.052,0.0
24.267,0.003,-0.096,0.0
21.166,0.002,-0.209,4.0
18.38,0.002,-0.29,0.0
16.612,0.002,-0.359,0.0
30.139,0.003,0.169,0.0
26.463,0.002,-0.006,0.0
23.524,0.002,-0.143,1.0
20.143,0.001,-0.242,0.0
17.517,0.001,-0.313,0.0
16.062,0.001,-0.381,0.0
28.625,0.001,0.099,1.0
25.424,0.0,-0.06,0.0
21.864,0.0,-0.179,0.0
18.937,0.0,-0.268,0.0
16.935,0.0,-0.339,0.0
15.61,0.0,-0.404,0.0
27.397,-0.001,0.037,0.0
23.917,-0.001,-0.107,0.0
21.031,-0.001,-0.217,2.0
18.176,-0.001,-0.296,0.0
16.461,-0.001,-0.365,0.0
15.071,-0.002,-0.422,0.0
26.078,-0.004,-0.02,0.0
23.336,-0.004,-0.154,0.0
19.709,-0.004,-0.246,0.0
17.367,-0.004,-0.32,0.0
15.863,-0.004,-0.385,0.0
14.585,-0.004,-0.44,0.0
25.065,-0.009,-0.073,0.0
21.55,-0.008,-0.189,1.0
18.624,-0.007,-0.272,0.0
16.745,-0.007,-0.344,0.0
15.379,-0.007,-0.406,0.0
14.082,-0.006,-0.455,0.0
23.758,-0.013,-0.12,1.0
20.874,-0.012,-0.227,0.0
17.977,-0.011,-0.301,0.0
16.266,-0.01,-0.369,0.0
14.893,-0.01,-0.425,0.0
13.663,-0.009,-0.47,0.0
22.916,-0.018,-0.163,0.0
19.497,-0.016,-0.253,0.0
17.21,-0.015,-0.324,0.0
15.765,-0.014,-0.391,0.0
14.422,-0.013,-0.442,0.0
13.395,-0.013,-0.489,0.0
21.281,-0.023,-0.197,2.0
18.433,-0.021,-0.278,0.0
16.632,-0.019,-0.348,0.0
15.181,-0.018,-0.408,0.0
13.989,-0.017,-0.458,0.0
12.945,-0.017,-0.5,0.0
20.468,-0.029,-0.232,0.0
17.788,-0.026,-0.306,0.0
16.18,-0.024,-0.373,0.0
14.792,-0.023,-0.429,0.0
13.646,-0.021,-0.476,0.0
12.66,-0.021,-0.515,0.0
19.192,-0.034,-0.258,0.0
17.063,-0.031,-0.329,0.0
15.707,-0.029,-0.394,0.0
14.236,-0.027,-0.442,0.0
13.265,-0.026,-0.49,0.0
12.388,-0.025,-0.53,0.0
18.33,-0.039,-0.284,0.0
16.6,-0.036,-0.354,0.0
15.148,-0.034,-0.412,0.0
13.921,-0.032,-0.461,0.0
12.921,-0.031,-0.504,0.0
12.078,-0.029,-0.542,0.0
17.548,-0.045,-0.308,0.0
16.053,-0.042,-0.375,0.0
14.721,-0.04,-0.43,0.0
13.563,-0.037,-0.477,0.0
12.6,-0.035,-0.517,0.0
11.871,-0.034,-0.557,0.0
16.953,-0.051,-0.332,0.0
15.587,-0.048,-0.397,0.0
14.192,-0.045,-0.444,0.0
13.252,-0.043,-0.493,0.0
12.334,-0.041,-0.532,0.0
11.542,-0.039,-0.565,0.0
16.497,-0.058,-0.357,0.0
15.107,-0.054,-0.415,0.0
13.838,-0.051,-0.461,0.0
12.909,-0.048,-0.507,0.0
12.075,-0.046,-0.545,0.0
11.301,-0.044,-0.576,0.0
16.007,-0.065,-0.378,0.0
14.602,-0.06,-0.43,0.0
13.557,-0.057,-0.479,0.0
12.459,-0.053,-0.514,0.0
11.817,-0.052,-0.557,0.0
11.082,-0.049,-0.587,0.0
15.583,-0.072,-0.399,0.0
14.222,-0.067,-0.447,0.0
13.093,-0.063,-0.488,0.0
12.327,-0.06,-0.533,0.0
11.546,-0.057,-0.567,0.0
10.809,-0.054,-0.594,0.0
15.038,-0.079,-0.415,0.0
13.855,-0.074,-0.463,0.0
12.885,-0.069,-0.506,0.0
11.987,-0.066,-0.542,0.0
11.297,-0.063,-0.577,0.0
10.599,-0.06,-0.603,0.0
14.577,-0.085,-0.431,0.0
13.458,-0.08,-0.476,0.0
12.513,-0.076,-0.516,0.0
11.8,-0.072,-0.557,0.0
11.067,-0.069,-0.587,0.0
10.398,-0.066,-0.612,0.0
14.151,-0.092,-0.445,0.0
13.124,-0.087,-0.49,0.0
12.344,-0.083,-0.533,0.0
11.523,-0.078,-0.566,0.0
10.888,-0.075,-0.598,0.0
10.242,-0.072,-0.623,0.0
13.791,-0.1,-0.461,0.0
12.843,-0.094,-0.504,0.0
11.996,-0.089,-0.541,0.0
11.279,-0.085,-0.575,0.0
10.571,-0.081,-0.601,0.0
0.0,0.0,0.0,0.0
13.492,-0.107,-0.476,0.0
12.597,-0.102,-0.518,0.0
11.713,-0.096,-0.55,0.0
11.037,-0.091,-0.584,0.0
10.383,-0.087,-0.61,0.0
9.83,-0.083,-0.635,0.0
13.177,-0.115,-0.49,0.0
12.356,-0.109,-0.531,0.0
11.53,-0.103,-0.563,0.0
10.793,-0.098,-0.591,0.0
10.299,-0.094,-0.624,0.0
9.688,-0.09,-0.644,0.0
12.891,-0.123,-0.503,0.0
12.068,-0.116,-0.541,0.0
11.258,-0.11,-0.571,0.0
10.657,-0.105,-0.603,0.0
10.062,-0.1,-0.629,0.0
0.0,0.0,0.0,0.0
12.571,-0.13,-0.513,0.0
11.861,-0.124,-0.553,0.0
11.096,-0.117,-0.583,0.0
10.421,-0.112,-0.609,0.0
0.0,0.0,0.0,0.0
0.0,0.0,0.0,0.0
12.365,-0.138,-0.527,0.0
11.586,-0.131,-0.561,0.0
10.849,-0.124,-0.589,0.0
10.209,-0.118,-0.615,0.0
0.0,0.0,0.0,0.0
0.0,0.0,0.0,0.0
12.08,-0.146,-0.536,0.0
11.382,-0.139,-0.571,0.0
10.677,-0.132,-0.598,0.0
0.0,0.0,0.0,0.0
0.0,0.0,0.0,0.0
9.034,-0.115,-0.666,0.0
11.843,-0.154,-0.546,0.0
11.184,-0.147,-0.581,0.0
10.457,-0.139,-0.604,0.0
0.0,0.0,0.0,0.0
0.0,0.0,0.0,0.0
0.0,0.0,0.0,0.0
11.612,-0.162,-0.556,0.0
10.982,-0.154,-0.589,0.0
10.334,-0.147,-0.615,0.0
0.0,0.0,0.0,0.0
9.2,-0.133,-0.656,0.0
8.813,-0.129,-0.68,0.0
11.409,-0.17,-0.565,0.0
10.814,-0.163,-0.598,0.0
10.126,-0.154,-0.619,0.0
0.0,0.0,0.0,0.0
0.0,0.0,0.0,0.0
8.623,-0.135,-0.679,0.0
11.25,-0.179,-0.576,0.0
10.561,-0.169,-0.602,0.0
9.974,-0.161,-0.626,0.0
0.0,0.0,0.0,0.0
0.0,0.0,0.0,0.0
8.566,-0.143,-0.689,0.0
11.006,-0.186,-0.581,0.0
10.421,-0.178,-0.61,0.0
9.808,-0.169,-0.632,0.0
0.0,0.0,0.0,0.0
0.0,0.0,0.0,0.0
8.434,-0.149,-0.692,0.0
10.87,-0.195,-0.591,0.0
10.157,-0.184,-0.611,0.0
0.0,0.0,0.0,0.0
0.0,0.0,0.0,0.0
0.0,0.0,0.0,0.0
8.337,-0.156,-0.697,0.0
10.642,-0.202,-0.595,0.0
0.0,0.0,0.0,0.0
0.0,0.0,0.0,0.0
9.036,-0.176,-0.664,0.0
8.593,-0.169,-0.681,0.0
8.24,-0.163,-0.701,0.0
10.462,-0.21,-0.601,0.0
9.847,-0.199,-0.622,0.0
0.0,0.0,0.0,0.0
0.0,0.0,0.0,0.0
8.527,-0.177,-0.689,0.0
8.127,-0.17,-0.704,0.0
10.31,-0.218,-0.607,0.0
9.791,-0.209,-0.633,0.0
0.0,0.0,0.0,0.0
0.0,0.0,0.0,0.0
8.412,-0.184,-0.692,0.0
8.114,-0.179,-0.715,0.0
10.184,-0.227,-0.614,0.0
0.0,0.0,0.0,0.0
9.221,-0.209,-0.663,0.0
0.0,0.0,0.0,0.0
0.0,0.0,0.0,0.0
8.039,-0.187,-0.72,0.0
10.041,-0.235,-0.62,0.0
0.0,0.0,0.0,0.0
0.0,0.0,0.0,0.0
8.607,-0.206,-0.682,0.0
8.208,-0.199,-0.698,0.0
0.0,0.0,0.0,0.0
9.905,-0.244,-0.625,0.0
0.0,0.0,0.0,0.0
0.0,0.0,0.0,0.0
8.472,-0.213,-0.683,0.0
8.162,-0.207,-0.706,0.0
0.0,0.0,0.0,0.0
9.826,-0.254,-0.634,0.0
9.289,-0.242,-0.653,0.0
0.0,0.0,0.0,0.0
0.0,0.0,0.0,0.0
0.0,0.0,0.0,0.0
7.718,-0.207,-0.722,0.0
0.0,0.0,0.0,0.0
9.188,-0.25,-0.658,0.0
0.0,0.0,0.0,0.0
0.0,0.0,0.0,0.0
0.0,0.0,0.0,0.0
0.0,0.0,0.0,0.0
0.0,0.0,0.0,0.0
0.0,0.0,0.0,0.0
8.594,-0.246,-0.676,0.0
8.267,-0.238,-0.699,0.0
0.0,0.0,0.0,0.0
0.0,0.0,0.0,0.0
0.0,0.0,0.0,0.0
9.005,-0.267,-0.667,0.0
0.0,0.0,0.0,0.0
0.0,0.0,0.0,0.0
0.0,0.0,0.0,0.0
0.0,0.0,0.0,0.0
0.0,0.0,0.0,0.0
8.873,-0.275,-0.668,0.0
0.0,0.0,0.0,0.0
0.0,0.0,0.0,0.0
0.0,0.0,0.0,0.0
0.0,0.0,0.0,0.0
9.286,-0.297,-0.656,0.0
8.774,-0.283,-0.67,0.0
0.0,0.0,0.0,0.0
0.0,0.0,0.0,0.0
0.0,0.0,0.0,0.0
0.0,0.0,0.0,0.0
9.206,-0.307,-0.66,0.0
8.756,-0.294,-0.679,0.0
0.0,0.0,0.0,0.0
8.027,-0.273,-0.716,0.0
0.0,0.0,0.0,0.0
7.34,-0.252,-0.739,0.0
0.0,0.0,0.0,0.0
8.631,-0.301,-0.678,0.0
0.0,0.0,0.0,0.0
0.0,0.0,0.0,0.0
0.0,0.0,0.0,0.0
7.282,-0.26,-0.741,0.0
0.0,0.0,0.0,0.0
8.62,-0.311,-0.686,0.0
0.0,0.0,0.0,0.0
0.0,0.0,0.0,0.0
0.0,0.0,0.0,0.0
7.239,-0.268,-0.744,0.0
0.0,0.0,0.0,0.0
0.0,0.0,0.0,0.0
8.204,-0.309,-0.708,0.0
0.0,0.0,0.0,0.0
0.0,0.0,0.0,0.0
7.186,-0.276,-0.746,0.0
8.831,-0.341,-0.669,0.0
0.0,0.0,0.0,0.0
0.0,0.0,0.0,0.0
0.0,0.0,0.0,0.0
0.0,0.0,0.0,0.0
7.153,-0.284,-0.749,0.0
8.723,-0.348,-0.669,0.0
8.326,-0.334,-0.686,0.0
0.0,0.0,0.0,0.0
0.0,0.0,0.0,0.0
0.0,0.0,0.0,0.0
7.102,-0.292,-0.75,0.0
8.651,-0.357,-0.671,0.0
8.342,-0.346,-0.695,0.0
0.0,0.0,0.0,0.0
0.0,0.0,0.0,0.0
7.357,-0.311,-0.74,0.0
7.061,-0.3,-0.751,0.0
8.665,-0.369,-0.679,0.0
8.26,-0.354,-0.694,0.0
0.0,0.0,0.0,0.0
0.0,0.0,0.0,0.0
7.29,-0.318,-0.739,0.0
7.034,-0.308,-0.754,0.0
8.628,-0.379,-0.683,0.0
0.0,0.0,0.0,0.0
0.0,0.0,0.0,0.0
0.0,0.0,0.0,0.0
7.261,-0.326,-0.742,0.0
6.949,-0.314,-0.75,0.0
8.55,-0.388,-0.683,0.0
0.0,0.0,0.0,0.0
0.0,0.0,0.0,0.0
0.0,0.0,0.0,0.0
7.229,-0.335,-0.744,0.0
6.913,-0.322,-0.751,0.0
0.0,0.0,0.0,0.0
8.061,-0.378,-0.695,0.0
0.0,0.0,0.0,0.0
0.0,0.0,0.0,0.0
7.201,-0.343,-0.746,0.0
6.882,-0.33,-0.752,0.0
0.0,0.0,0.0,0.0
8.108,-0.392,-0.705,0.0
0.0,0.0,0.0,0.0
0.0,0.0,0.0,0.0
7.143,-0.35,-0.744,0.0
6.88,-0.339,-0.756,0.0
0.0,0.0,0.0,0.0
8.114,-0.403,-0.71,0.0
0.0,0.0,0.0,0.0
0.0,0.0,0.0,0.0
7.147,-0.36,-0.749,0.0
6.85,-0.347,-0.757,0.0
8.352,-0.424,-0.688,0.0
8.021,-0.41,-0.706,0.0
0.0,0.0,0.0,0.0
0.0,0.0,0.0,0.0
7.089,-0.367,-0.746,0.0
6.818,-0.355,-0.757,0.0
8.335,-0.435,-0.691,0.0
7.979,-0.418,-0.707,0.0
0.0,0.0,0.0,0.0
0.0,0.0,0.0,0.0
7.057,-0.375,-0.746,0.0
6.822,-0.365,-0.761,0.0
8.292,-0.444,-0.691,0.0
7.961,-0.428,-0.709,0.0
0.0,0.0,0.0,0.0
0.0,0.0,0.0,0.0
7.013,-0.383,-0.745,0.0
6.831,-0.375,-0.765,0.0
8.285,-0.455,-0.694,0.0
7.956,-0.439,-0.712,0.0
0.0,0.0,0.0,0.0
7.29,-0.406,-0.736,0.0
7.021,-0.393,-0.748,0.0
6.811,-0.383,-0.765,0.0
8.228,-0.463,-0.692,0.0
0.0,0.0,0.0,0.0
0.0,0.0,0.0,0.0
7.276,-0.415,-0.737,0.0
7.006,-0.401,-0.749,0.0
6.761,-0.389,-0.762,0.0
8.218,-0.474,-0.694,0.0
0.0,0.0,0.0,0.0
0.0,0.0,0.0,0.0
7.254,-0.424,-0.737,0.0
6.997,-0.41,-0.751,0.0
6.76,-0.398,-0.764,0.0
8.209,-0.484,-0.696,0.0
0.0,0.0,0.0,0.0
0.0,0.0,0.0,0.0
7.262,-0.434,-0.74,0.0
6.976,-0.419,-0.75,0.0
6.74,-0.406,-0.763,0.0
8.196,-0.494,-0.697,0.0
0.0,0.0,0.0,0.0
0.0,0.0,0.0,0.0
7.226,-0.441,-0.738,0.0
6.986,-0.429,-0.753,0.0
6.712,-0.414,-0.761,0.0
8.155,-0.503,-0.695,0.0
0.0,0.0,0.0,0.0
0.0,0.0,0.0,0.0
7.224,-0.451,-0.739,0.0
0.0,0.0,0.0,0.0
6.72,-0.423,-0.763,0.0
8.123,-0.512,-0.693,0.0
0.0,0.0,0.0,0.0
0.0,0.0,0.0,0.0
7.25,-0.462,-0.742,0.0
0.0,0.0,0.0,0.0
6.731,-0.433,-0.766,0.0
0.0,0.0,0.0,0.0
0.0,0.0,0.0,0.0
0.0,0.0,0.0,0.0
7.209,-0.469,-0.739,0.0
0.0,0.0,0.0,0.0
6.704,-0.44,-0.763,0.0
8.084,-0.53,-0.692,0.0
0.0,0.0,0.0,0.0
0.0,0.0,0.0,0.0
7.219,-0.479,-0.74,0.0
0.0,0.0,0.0,0.0
6.7,-0.448,-0.763,0.0
8.154,-0.546,-0.698,0.0
0.0,0.0,0.0,0.0
0.0,0.0,0.0,0.0
7.202,-0.487,-0.739,0.0
0.0,0.0,0.0,0.0
6.695,-0.457,-0.762,0.0
8.173,-0.557,-0.699,0.0
0.0,0.0,0.0,0.0
0.0,0.0,0.0,0.0
7.213,-0.497,-0.74,0.0
0.0,0.0,0.0,0.0
6.704,-0.466,-0.763,0.0
8.141,-0.565,-0.696,0.0
0.0,0.0,0.0,0.0
0.0,0.0,0.0,0.0
7.222,-0.507,-0.74,0.0
0.0,0.0,0.0,0.0
6.741,-0.477,-0.767,0.0
8.145,-0.576,-0.696,0.0
0.0,0.0,0.0,0.0
0.0,0.0,0.0,0.0
7.231,-0.517,-0.74,0.0
0.0,0.0,0.0,0.0
6.72,-0.484,-0.763,0.0
8.153,-0.586,-0.695,0.0
0.0,0.0,0.0,0.0
0.0,0.0,0.0,0.0
7.233,-0.526,-0.739,0.0
0.0,0.0,0.0,0.0
6.723,-0.492,-0.762,0.0
8.149,-0.596,-0.694,0.0
7.877,-0.578,-0.714,0.0
0.0,0.0,0.0,0.0
7.226,-0.534,-0.737,0.0
0.0,0.0,0.0,0.0
6.749,-0.502,-0.764,0.0
8.144,-0.605,-0.691,0.0
7.832,-0.584,-0.708,0.0
0.0,0.0,0.0,0.0
7.237,-0.543,-0.736,0.0
6.998,-0.527,-0.751,0.0
6.747,-0.51,-0.762,0.0
8.169,-0.617,-0.691,0.0
7.901,-0.599,-0.712,0.0
0.0,0.0,0.0,0.0
7.263,-0.554,-0.737,0.0
0.0,0.0,0.0,0.0
6.759,-0.519,-0.761,0.0
8.179,-0.627,-0.69,0.0
7.888,-0.607,-0.709,0.0
0.0,0.0,0.0,0.0
7.258,-0.562,-0.734,0.0
0.0,0.0,0.0,0.0
6.758,-0.526,-0.759,0.0
8.253,-0.642,-0.693,0.0
7.934,-0.619,-0.71,0.0
0.0,0.0,0.0,0.0
7.325,-0.575,-0.738,0.0
7.064,-0.556,-0.751,0.0
6.792,-0.537,-0.76,0.0
8.288,-0.654,-0.693,0.0
7.935,-0.628,-0.707,0.0
0.0,0.0,0.0,0.0
0.0,0.0,0.0,0.0
7.019,-0.56,-0.743,0.0
6.809,-0.545,-0.759,0.0
8.31,-0.665,-0.691,0.0
7.964,-0.639,-0.706,0.0
0.0,0.0,0.0,0.0
0.0,0.0,0.0,0.0
7.076,-0.573,-0.746,0.0
6.816,-0.553,-0.756,0.0
8.324,-0.675,-0.688,0.0
7.965,-0.647,-0.703,0.0
0.0,0.0,0.0,0.0
0.0,0.0,0.0,0.0
7.112,-0.583,-0.746,0.0
6.839,-0.562,-0.755,0.0
8.356,-0.686,-0.687,0.0
8.057,-0.663,-0.706,0.0
0.0,0.0,0.0,0.0
0.0,0.0,0.0,0.0
7.112,-0.59,-0.742,0.0
6.883,-0.573,-0.757,0.0
8.362,-0.695,-0.683,0.0
8.081,-0.673,-0.704,0.0
0.0,0.0,0.0,0.0
0.0,0.0,0.0,0.0
7.147,-0.6,-0.742,0.0
6.82,-0.574,-0.746,0.0
8.387,-0.705,-0.68,0.0
8.094,-0.683,-0.7,0.0
0.0,0.0,0.0,0.0
0.0,0.0,0.0,0.0
7.202,-0.612,-0.743,0.0
0.0,0.0,0.0,0.0
8.471,-0.721,-0.681,0.0
8.099,-0.691,-0.696,0.0
0.0,0.0,0.0,0.0
0.0,0.0,0.0,0.0
7.232,-0.621,-0.741,0.0
6.953,-0.599,-0.751,0.0
8.513,-0.732,-0.679,0.0
8.178,-0.705,-0.697,0.0
0.0,0.0,0.0,0.0
0.0,0.0,0.0,0.0
7.254,-0.63,-0.739,0.0
6.939,-0.604,-0.745,0.0
8.544,-0.743,-0.676,0.0
8.202,-0.714,-0.694,0.0
7.942,-0.693,-0.715,0.0
0.0,0.0,0.0,0.0
7.309,-0.641,-0.739,0.0
7.035,-0.619,-0.75,0.0
8.588,-0.754,-0.673,0.0
8.241,-0.725,-0.691,0.0
7.976,-0.703,-0.712,0.0
0.0,0.0,0.0,0.0
0.0,0.0,0.0,0.0
7.053,-0.626,-0.747,0.0
8.634,-0.765,-0.67,0.0
8.346,-0.741,-0.693,0.0
7.979,-0.71,-0.706,0.0
0.0,0.0,0.0,0.0
0.0,0.0,0.0,0.0
7.076,-0.634,-0.743,0.0
8.701,-0.778,-0.668,0.0
8.332,-0.747,-0.685,0.0
8.082,-0.726,-0.709,0.0
0.0,0.0,0.0,0.0
0.0,0.0,0.0,0.0
7.144,-0.646,-0.745,0.0
8.771,-0.791,-0.666,0.0
8.391,-0.758,-0.683,0.0
8.037,-0.728,-0.698,0.0
0.0,0.0,0.0,0.0
0.0,0.0,0.0,0.0
7.188,-0.655,-0.743,0.0
8.853,-0.805,-0.665,0.0
8.434,-0.769,-0.679,0.0
8.114,-0.741,-0.698,0.0
0.0,0.0,0.0,0.0
0.0,0.0,0.0,0.0
7.228,-0.664,-0.741,0.0
8.97,-0.822,-0.666,0.0
8.528,-0.783,-0.679,0.0
8.169,-0.752,-0.695,0.0
0.0,0.0,0.0,0.0
0.0,0.0,0.0,0.0
7.257,-0.671,-0.737,0.0
8.987,-0.83,-0.659,0.0
8.602,-0.796,-0.677,0.0
8.244,-0.764,-0.694,0.0
7.89,-0.732,-0.707,0.0
0.0,0.0,0.0,0.0
7.322,-0.682,-0.736,0.0
0.0,0.0,0.0,0.0
8.653,-0.806,-0.673,0.0
8.29,-0.773,-0.689,0.0
7.947,-0.743,-0.705,0.0
0.0,0.0,0.0,0.0
0.0,0.0,0.0,0.0
0.0,0.0,0.0,0.0
8.706,-0.816,-0.668,0.0
8.348,-0.784,-0.686,0.0
8.026,-0.755,-0.704,0.0
0.0,0.0,0.0,0.0
0.0,0.0,0.0,0.0
0.0,0.0,0.0,0.0
8.765,-0.827,-0.664,0.0
8.433,-0.796,-0.684,0.0
8.116,-0.768,-0.703,0.0
0.0,0.0,0.0,0.0
0.0,0.0,0.0,0.0
9.321,-0.883,-0.646,0.0
8.871,-0.841,-0.663,0.0
8.46,-0.803,-0.678,0.0
8.16,-0.776,-0.698,0.0
0.0,0.0,0.0,0.0
0.0,0.0,0.0,0.0
9.451,-0.899,-0.645,0.0
0.0,0.0,0.0,0.0
8.577,-0.818,-0.678,0.0
8.199,-0.783,-0.693,0.0
7.941,-0.76,-0.714,0.0
0.0,0.0,0.0,0.0
9.481,-0.907,-0.637,0.0
0.0,0.0,0.0,0.0
8.627,-0.827,-0.672,0.0
8.267,-0.793,-0.69,0.0
7.931,-0.762,-0.704,0.0
0.0,0.0,0.0,0.0
0.0,0.0,0.0,0.0
0.0,0.0,0.0,0.0
8.738,-0.841,-0.671,0.0
8.302,-0.8,-0.683,0.0
8.047,-0.776,-0.706,0.0
0.0,0.0,0.0,0.0
0.0,0.0,0.0,0.0
0.0,0.0,0.0,0.0
8.777,-0.848,-0.664,0.0
8.434,-0.816,-0.684,0.0
8.138,-0.788,-0.704,0.0
0.0,0.0,0.0,0.0
0.0,0.0,0.0,0.0
0.0,0.0,0.0,0.0
8.964,-0.869,-0.668,0.0
8.49,-0.824,-0.679,0.0
8.182,-0.794,-0.698,0.0
7.906,-0.768,-0.717,0.0
9.966,-0.967,-0.624,0.0
9.456,-0.918,-0.643,0.0
0.0,0.0,0.0,0.0
8.582,-0.835,-0.676,0.0
8.253,-0.803,-0.694,0.0
7.946,-0.774,-0.711,0.0
0.0,0.0,0.0,0.0
9.582,-0.933,-0.639,0.0
0.0,0.0,0.0,0.0
8.69,-0.847,-0.674,0.0
8.322,-0.812,-0.69,0.0
7.951,-0.776,-0.702,0.0
10.103,-0.985,-0.608,0.0
0.0,0.0,0.0,0.0
0.0,0.0,0.0,0.0
8.797,-0.859,-0.672,0.0
8.417,-0.823,-0.688,0.0
8.068,-0.789,-0.702,0.0
10.312,-1.007,-0.608,0.0
0.0,0.0,0.0,0.0
0.0,0.0,0.0,0.0
8.852,-0.866,-0.665,0.0
8.483,-0.83,-0.682,0.0
8.125,-0.796,-0.697,0.0
0.0,0.0,0.0,0.0
0.0,0.0,0.0,0.0
9.435,-0.923,-0.645,0.0
0.0,0.0,0.0,0.0
8.634,-0.846,-0.683,0.0
8.226,-0.806,-0.695,0.0
0.0,0.0,0.0,0.0
0.0,0.0,0.0,0.0
9.539,-0.934,-0.64,0.0
0.0,0.0,0.0,0.0
8.643,-0.847,-0.673,0.0
8.318,-0.815,-0.692,0.0
10.662,-1.043,-0.588,0.0
0.0,0.0,0.0,0.0
0.0,0.0,0.0,0.0
0.0,0.0,0.0,0.0
8.755,-0.858,-0.67,0.0
8.386,-0.822,-0.687,0.0
10.914,-1.068,-0.588,0.0
0.0,0.0,0.0,0.0
0.0,0.0,0.0,0.0
0.0,0.0,0.0,0.0
8.872,-0.869,-0.668,0.0
8.496,-0.832,-0.685,0.0
11.073,-1.083,-0.582,0.0
0.0,0.0,0.0,0.0
0.0,0.0,0.0,0.0
9.438,-0.923,-0.647,0.0
0.0,0.0,0.0,0.0
8.592,-0.841,-0.681,0.0
11.126,-1.087,-0.57,0.0
10.605,-1.036,-0.599,0.0
0.0,0.0,0.0,0.0
9.47,-0.925,-0.637,0.0
0.0,0.0,0.0,0.0
8.688,-0.849,-0.677,0.0
11.367,-1.109,-0.567,0.0
0.0,0.0,0.0,0.0
10.167,-0.992,-0.615,0.0
0.0,0.0,0.0,0.0
0.0,0.0,0.0,0.0
8.768,-0.855,-0.671,0.0
11.567,-1.126,-0.561,0.0
10.936,-1.065,-0.589,0.0
10.313,-1.004,-0.61,0.0
0.0,0.0,0.0,0.0
9.358,-0.911,-0.654,0.0
8.852,-0.861,-0.665,0.0
11.675,-1.134,-0.551,0.0
11.096,-1.078,-0.582,0.0
0.0,0.0,0.0,0.0
0.0,0.0,0.0,0.0
9.454,-0.917,-0.647,0.0
0.0,0.0,0.0,0.0
11.836,-1.147,-0.542,0.0
11.157,-1.08,-0.57,0.0
0.0,0.0,0.0,0.0
0.0,0.0,0.0,0.0
0.0,0.0,0.0,0.0
9.12,-0.882,-0.66,0.0
12.035,-1.162,-0.535,0.0
11.358,-1.096,-0.565,0.0
0.0,0.0,0.0,0.0
0.0,0.0,0.0,0.0
0.0,0.0,0.0,0.0
9.178,-0.884,-0.652,0.0
12.274,-1.181,-0.528,0.0
11.569,-1.112,-0.559,0.0
10.955,-1.053,-0.587,0.0
0.0,0.0,0.0,0.0
0.0,0.0,0.0,0.0
9.373,-0.899,-0.653,0.0
12.405,-1.188,-0.517,0.0
11.746,-1.124,-0.551,0.0
11.116,-1.063,-0.581,0.0
0.0,0.0,0.0,0.0
0.0,0.0,0.0,0.0
9.444,-0.902,-0.644,0.0
12.621,-1.203,-0.508,0.0
11.866,-1.13,-0.541,0.0
11.185,-1.065,-0.569,0.0
0.0,0.0,0.0,0.0
0.0,0.0,0.0,0.0
9.587,-0.911,-0.641,0.0
12.9,-1.223,-0.502,0.0
12.073,-1.144,-0.533,0.0
11.442,-1.083,-0.566,0.0
0.0,0.0,0.0,0.0
0.0,0.0,0.0,0.0
0.0,0.0,0.0,0.0
13.139,-1.239,-0.493,0.0
12.312,-1.16,-0.527,0.0
11.564,-1.088,-0.556,0.0
11.047,-1.039,-0.59,0.0
0.0,0.0,0.0,0.0
9.843,-0.924,-0.63,0.0
13.346,-1.251,-0.482,0.0
12.511,-1.171,-0.518,0.0
11.772,-1.101,-0.549,0.0
11.156,-1.042,-0.581,0.0
10.568,-0.986,-0.606,0.0
10.014,-0.933,-0.627,0.0
13.585,-1.265,-0.472,0.0
12.675,-1.178,-0.507,0.0
11.87,-1.102,-0.537,0.0
11.312,-1.049,-0.573,0.0
0.0,0.0,0.0,0.0
0.0,0.0,0.0,0.0
13.86,-1.281,-0.462,0.0
12.948,-1.195,-0.5,0.0
12.115,-1.117,-0.532,0.0
11.409,-1.05,-0.562,0.0
10.853,-0.998,-0.592,0.0
0.0,0.0,0.0,0.0
14.098,-1.293,-0.451,0.0
13.243,-1.213,-0.493,0.0
12.368,-1.131,-0.526,0.0
11.614,-1.06,-0.556,0.0
10.979,-1.001,-0.584,0.0
10.372,-0.944,-0.607,0.0
14.378,-1.308,-0.44,0.0
13.4,-1.217,-0.481,0.0
12.53,-1.136,-0.515,0.0
11.827,-1.07,-0.55,0.0
11.173,-1.01,-0.579,0.0
10.609,-0.957,-0.606,0.0
14.697,-1.325,-0.429,0.0
13.652,-1.228,-0.471,0.0
12.816,-1.151,-0.509,0.0
11.917,-1.069,-0.538,0.0
11.35,-1.016,-0.572,0.0
10.645,-0.952,-0.593,0.0
14.941,-1.334,-0.416,0.0
13.902,-1.239,-0.46,0.0
12.947,-1.152,-0.497,0.0
12.147,-1.079,-0.532,0.0
11.534,-1.023,-0.566,0.0
10.897,-0.964,-0.592,0.0
15.375,-1.359,-0.407,0.0
14.131,-1.247,-0.449,0.0
13.172,-1.16,-0.488,0.0
12.304,-1.081,-0.522,0.0
11.723,-1.028,-0.559,0.0
11.028,-0.966,-0.584,0.0
15.602,-1.364,-0.392,0.0
14.451,-1.261,-0.439,0.0
13.471,-1.173,-0.481,0.0
12.587,-1.094,-0.517,0.0
11.859,-1.029,-0.55,0.0
11.24,-0.973,-0.58,0.0
15.963,-1.38,-0.379,0.0
14.795,-1.277,-0.43,0.0
13.65,-1.175,-0.468,0.0
12.825,-1.102,-0.509,0.0
12.026,-1.031,-0.541,0.0
11.391,-0.975,-0.573,0.0
16.477,-1.408,-0.37,0.0
14.991,-1.278,-0.415,0.0
13.917,-1.184,-0.459,0.0
13.013,-1.105,-0.499,0.0
12.209,-1.034,-0.533,0.0
11.562,-0.977,-0.566,0.0
16.812,-1.419,-0.355,0.0
15.383,-1.296,-0.406,0.0
14.178,-1.191,-0.449,0.0
13.27,-1.112,-0.492,0.0
12.389,-1.036,-0.525,0.0
11.717,-0.978,-0.558,0.0
17.11,-1.426,-0.339,0.0
15.56,-1.293,-0.391,0.0
14.477,-1.2,-0.44,0.0
13.478,-1.115,-0.482,0.0
12.548,-1.035,-0.515,0.0
11.848,-0.975,-0.549,0.0
17.51,-1.439,-0.324,0.0
16.091,-1.319,-0.383,0.0
14.733,-1.204,-0.429,0.0
13.634,-1.112,-0.47,0.0
12.852,-1.045,-0.511,0.0
11.984,-0.972,-0.54,0.0
17.896,-1.449,-0.308,0.0
16.425,-1.327,-0.37,0.0
15.007,-1.209,-0.417,0.0
13.918,-1.118,-0.462,0.0
13.064,-1.047,-0.503,0.0
12.233,-0.977,-0.536,0.0
18.453,-1.472,-0.295,0.0
16.79,-1.336,-0.357,0.0
15.346,-1.217,-0.407,0.0
14.106,-1.116,-0.45,0.0
13.292,-1.048,-0.495,0.0
12.436,-0.978,-0.529,0.0
19.024,-1.494,-0.28,0.0
17.12,-1.34,-0.342,0.0
15.657,-1.222,-0.396,0.0
14.461,-1.125,-0.444,0.0
13.468,-1.045,-0.485,0.0
12.552,-0.971,-0.518,0.0
19.533,-1.509,-0.263,0.0
17.501,-1.347,-0.329,0.0
15.945,-1.224,-0.384,0.0
14.709,-1.125,-0.433,0.0
13.673,-1.043,-0.475,0.0
12.816,-0.974,-0.513,0.0
20.51,-1.557,-0.252,0.0
17.799,-1.346,-0.312,0.0
16.345,-1.232,-0.373,0.0
14.878,-1.118,-0.42,0.0
13.873,-1.039,-0.465,0.0
13.029,-0.972,-0.506,0.0
33.877,-2.525,-0.375,5.0
18.317,-1.36,-0.3,0.0
16.726,-1.238,-0.362,0.0
15.309,-1.129,-0.414,0.0
14.11,-1.037,-0.456,0.0
13.207,-0.967,-0.497,0.0
33.896,-2.478,-0.335,3.0
18.808,-1.37,-0.285,0.0
17.035,-1.236,-0.349,0.0
15.593,-1.127,-0.403,0.0
14.322,-1.032,-0.446,0.0
13.423,-0.963,-0.49,0.0
33.909,-2.43,-0.295,1.0
19.306,-1.378,-0.27,0.0
17.208,-1.224,-0.332,0.0
15.804,-1.12,-0.391,0.0
14.594,-1.03,-0.438,0.0
13.577,-0.954,-0.48,0.0
22.967,-1.612,-0.174,0.0
19.87,-1.389,-0.256,0.0
17.735,-1.235,-0.323,0.0
16.041,-1.112,-0.378,0.0
14.801,-1.022,-0.428,0.0
13.797,-0.949,-0.472,0.0
23.444,-1.61,-0.151,0.0
20.427,-1.397,-0.24,0.0
18.034,-1.228,-0.308,0.0
16.461,-1.116,-0.37,0.0
14.999,-1.013,-0.417,0.0
13.967,-0.939,-0.463,0.0
23.855,-1.601,-0.128,0.0
21.173,-1.415,-0.226,0.0
18.524,-1.233,-0.296,0.0
16.751,-1.11,-0.359,0.0
15.344,-1.012,-0.41,0.0
14.144,-0.929,-0.453,0.0
24.325,-1.595,-0.104,0.0
22.043,-1.439,-0.212,0.0
18.975,-1.233,-0.283,0.0
17.025,-1.101,-0.346,0.0
15.667,-1.009,-0.402,0.0
14.372,-0.921,-0.445,0.0
25.643,-1.64,-0.083,0.0
22.406,-1.426,-0.192,0.0
19.41,-1.229,-0.269,0.0
17.357,-1.094,-0.335,0.0
15.903,-0.998,-0.392,0.0
14.648,-0.915,-0.439,0.0
25.731,-1.603,-0.057,0.0
23.071,-1.43,-0.174,0.0
19.774,-1.22,-0.254,0.0
17.661,-1.084,-0.323,0.0
16.078,-0.982,-0.38,0.0
14.832,-0.901,-0.43,0.0
26.063,-1.58,-0.032,0.0
23.473,-1.416,-0.154,0.0
20.268,-1.216,-0.241,0.0
17.99,-1.074,-0.312,0.0
16.404,-0.974,-0.372,0.0
15.09,-0.891,-0.422,0.0
27.119,-1.598,-0.007,0.0
23.984,-1.405,-0.134,0.0
21.215,-1.236,-0.232,0.0
18.38,-1.065,-0.301,0.0
16.733,-0.964,-0.363,0.0
34.286,-1.966,-0.928,0.0
28.221,-1.614,0.019,1.0
34.216,-1.945,-0.159,1.0
21.85,-1.235,-0.218,0.0
34.204,-1.923,-0.528,2.0
17.015,-0.951,-0.353,0.0
34.22,-1.902,-0.894,0.0
28.429,-1.576,0.045,4.0
34.24,-1.886,-0.128,9.0
22.397,-1.226,-0.203,0.0
19.01,-1.035,-0.276,0.0
17.229,-0.932,-0.342,0.0
15.813,-0.85,-0.399,0.0
28.48,-1.527,0.07,7.0
0.0,0.0,0.0,0.0
22.558,-1.194,-0.185,1.0
19.452,-1.024,-0.266,0.0
17.46,-0.913,-0.332,0.0
15.957,-0.829,-0.389,0.0
28.516,-1.477,0.095,1.0
26.001,-1.338,-0.052,0.0
23.046,-1.178,-0.17,1.0
19.876,-1.009,-0.255,0.0
17.707,-0.893,-0.322,0.0
16.278,-0.816,-0.383,0.0
28.579,-1.428,0.118,0.0
26.631,-1.321,-0.031,0.0
23.539,-1.16,-0.154,1.0
20.272,-0.992,-0.243,0.0
18.045,-0.877,-0.313,0.0
16.479,-0.795,-0.375,0.0
30.276,-1.456,0.15,0.0
27.294,-1.303,-0.011,2.0
23.728,-1.125,-0.137,1.0
21.181,-0.997,-0.238,0.0
18.274,-0.854,-0.303,0.0
16.64,-0.772,-0.365,0.0
30.688,-1.418,0.175,0.0
27.179,-1.246,0.009,0.0
23.841,-1.085,-0.119,0.0
21.179,-0.956,-0.222,2.0
18.707,-0.838,-0.296,0.0
16.857,-0.749,-0.358,0.0
31.0,-1.372,0.2,0.0
28.399,-1.247,0.03,1.0
24.187,-1.054,-0.103,0.0
21.75,-0.94,-0.212,1.0
18.982,-0.814,-0.287,0.0
16.987,-0.722,-0.348,0.0
31.513,-1.334,0.225,0.0
28.507,-1.197,0.05,5.0
25.719,-1.07,-0.092,0.0
22.313,-0.921,-0.202,2.0
19.198,-0.786,-0.278,0.0
17.209,-0.698,-0.341,0.0
32.052,-1.294,0.251,0.0
28.583,-1.144,0.069,6.0
25.635,-1.017,-0.075,0.0
22.546,-0.886,-0.19,1.0
19.486,-0.759,-0.269,0.0
17.352,-0.67,-0.333,0.0
32.452,-1.246,0.274,0.0
28.615,-1.089,0.087,6.0
25.75,-0.97,-0.059,0.0
22.833,-0.852,-0.178,0.0
19.682,-0.728,-0.26,0.0
17.589,-0.644,-0.327,0.0
32.898,-1.198,0.298,0.0
28.609,-1.031,0.104,3.0
26.078,-0.931,-0.045,0.0
22.946,-0.811,-0.166,0.0
20.379,-0.713,-0.257,0.0
17.793,-0.616,-0.321,0.0
33.611,-1.157,0.323,0.0
28.568,-0.973,0.12,0.0
26.487,-0.892,-0.031,0.0
23.505,-0.783,-0.157,0.0
20.875,-0.688,-0.252,0.0
17.961,-0.586,-0.314,0.0
0.0,0.0,0.0,0.0
28.658,-0.917,0.136,0.0
26.732,-0.846,-0.017,0.0
23.536,-0.736,-0.145,0.0
20.929,-0.647,-0.242,1.0
18.086,-0.553,-0.307,0.0
34.392,-1.043,0.366,0.0
30.449,-0.913,0.159,0.0
27.146,-0.804,-0.004,0.0
23.728,-0.694,-0.135,0.0
21.015,-0.607,-0.233,2.0
18.304,-0.522,-0.302,0.0
34.906,-0.987,0.388,0.0
30.503,-0.851,0.173,0.0
27.326,-0.752,0.007,0.0
23.541,-0.64,-0.123,0.0
21.003,-0.563,-0.224,1.0
18.479,-0.489,-0.297,0.0
0.0,0.0,0.0,0.0
31.169,-0.805,0.19,0.0
27.522,-0.701,0.018,0.0
24.226,-0.608,-0.117,0.0
21.858,-0.541,-0.224,0.0
18.65,-0.454,-0.293,0.0
35.737,-0.862,0.426,0.0
31.349,-0.744,0.203,0.0
28.015,-0.654,0.029,0.0
24.839,-0.571,-0.111,0.0
21.982,-0.498,-0.217,0.0
18.843,-0.42,-0.289,0.0
0.0,0.0,0.0,0.0
31.386,-0.679,0.215,0.0
28.319,-0.602,0.039,1.0
24.676,-0.515,-0.102,4.0
22.076,-0.453,-0.211,0.0
19.072,-0.384,-0.286,0.0
0.0,0.0,0.0,0.0
31.703,-0.619,0.227,0.0
28.483,-0.545,0.048,2.0
24.879,-0.467,-0.095,0.0
22.186,-0.408,-0.206,0.0
19.205,-0.346,-0.283,0.0
0.0,0.0,0.0,0.0
31.753,-0.552,0.236,0.0
28.31,-0.482,0.056,0.0
25.131,-0.418,-0.089,0.0
22.232,-0.362,-0.2,0.0
19.38,-0.309,-0.28,0.0
37.624,-0.588,0.494,0.0
32.328,-0.493,0.248,0.0
28.514,-0.425,0.063,1.0
25.152,-0.365,-0.084,0.0
22.302,-0.316,-0.196,0.0
19.422,-0.268,-0.277,0.0
0.0,0.0,0.0,0.0
32.43,-0.426,0.255,1.0
28.535,-0.364,0.068,1.0
25.286,-0.313,-0.079,0.0
22.643,-0.272,-0.195,1.0
19.416,-0.226,-0.273,0.0
0.0,0.0,0.0,0.0
32.488,-0.357,0.261,2.0
28.615,-0.304,0.073,1.0
25.368,-0.26,-0.076,0.0
22.554,-0.222,-0.191,1.0
19.396,-0.184,-0.27,0.0
0.0,0.0,0.0,0.0
32.477,-0.287,0.265,1.0
28.724,-0.243,0.077,7.0
25.459,-0.206,-0.073,0.0
22.44,-0.173,-0.188,0.0
19.505,-0.143,-0.27,0.0
0.0,0.0,0.0,0.0
32.49,-0.217,0.268,1.0
28.757,-0.182,0.079,7.0
25.58,-0.153,-0.072,0.0
22.584,-0.126,-0.187,0.0
19.522,-0.102,-0.269,0.0
38.022,-0.186,0.524,0.0
33.036,-0.15,0.274,1.0
28.746,-0.12,0.08,7.0
25.591,-0.097,-0.071,0.0
22.796,-0.078,-0.188,0.0
19.658,-0.06,-0.27,0.0
0.0,0.0,0.0,0.0
33.229,-0.079,0.276,0.0
28.749,-0.058,0.081,6.0
25.609,-0.042,-0.071,0.0
22.619,-0.029,-0.187,0.0
19.662,-0.018,-0.271,0.0
0.0,0.0,0.0,0.0
33.186,-0.008,0.275,0.0
28.701,0.003,0.08,2.0
25.612,0.012,-0.072,0.0
22.277,0.018,-0.185,0.0
19.518,0.023,-0.27,0.0
38.835,0.06,0.533,0.0
31.515,0.06,0.259,0.0
28.68,0.065,0.078,3.0
25.504,0.067,-0.073,0.0
22.461,0.067,-0.188,0.0
19.617,0.065,-0.273,0.0
0.0,0.0,0.0,0.0
0.0,0.0,0.0,0.0
28.611,0.126,0.074,1.0
25.4,0.121,-0.076,0.0
22.358,0.114,-0.19,1.0
19.493,0.106,-0.273,0.0
37.849,0.221,0.511,0.0
0.0,0.0,0.0,0.0
28.656,0.187,0.07,1.0
25.367,0.175,-0.08,0.0
22.315,0.162,-0.193,2.0
19.297,0.146,-0.274,0.0
0.0,0.0,0.0,0.0
0.0,0.0,0.0,0.0
28.737,0.249,0.065,4.0
25.214,0.228,-0.084,0.0
22.114,0.207,-0.196,2.0
19.261,0.188,-0.277,0.0
0.0,0.0,0.0,0.0
31.484,0.33,0.239,0.0
28.713,0.311,0.059,2.0
25.146,0.281,-0.089,0.0
21.936,0.252,-0.199,1.0
19.225,0.228,-0.281,0.0
36.704,0.45,0.473,0.0
31.674,0.399,0.233,0.0
28.563,0.37,0.051,1.0
24.756,0.329,-0.094,0.0
21.901,0.299,-0.205,0.0
19.035,0.266,-0.284,0.0
37.165,0.535,0.469,0.0
31.765,0.468,0.224,0.0
28.13,0.424,0.042,0.0
24.872,0.383,-0.102,0.0
21.936,0.346,-0.212,0.0
18.908,0.304,-0.288,0.0
37.003,0.611,0.455,0.0
31.287,0.528,0.211,0.0
27.674,0.476,0.033,0.0
24.542,0.43,-0.109,0.0
21.764,0.389,-0.218,0.0
18.756,0.341,-0.292,0.0
36.52,0.68,0.436,0.0
31.3,0.593,0.2,0.0
27.392,0.528,0.022,0.0
24.339,0.477,-0.117,0.0
21.604,0.431,-0.224,0.0
18.586,0.377,-0.296,0.0
0.0,0.0,0.0,0.0
31.053,0.653,0.186,0.0
27.089,0.579,0.011,0.0
24.104,0.523,-0.126,0.0
21.346,0.47,-0.23,1.0
18.422,0.412,-0.301,0.0
35.557,0.811,0.396,0.0
29.101,0.674,0.161,0.0
26.898,0.632,0.0,0.0
23.868,0.568,-0.135,1.0
20.939,0.505,-0.235,0.0
18.23,0.446,-0.307,0.0
34.352,0.856,0.366,0.0
28.979,0.731,0.147,3.0
26.595,0.68,-0.012,0.0
23.696,0.613,-0.146,1.0
20.625,0.54,-0.242,0.0
18.081,0.48,-0.313,1.0
34.875,0.941,0.354,0.0
28.976,0.791,0.132,6.0
26.434,0.73,-0.026,0.0
23.353,0.652,-0.156,1.0
20.242,0.572,-0.248,0.0
17.918,0.512,-0.32,0.0
33.719,0.978,0.325,2.0
28.939,0.849,0.117,6.0
26.136,0.775,-0.04,0.0
23.169,0.694,-0.167,1.0
20.047,0.607,-0.257,0.0
17.761,0.544,-0.327,0.0
33.272,1.034,0.301,0.0
28.906,0.907,0.1,5.0
25.583,0.811,-0.054,0.0
22.752,0.728,-0.177,0.0
19.856,0.642,-0.266,0.0
17.513,0.572,-0.333,0.0
32.963,1.09,0.279,1.0
28.661,0.957,0.082,1.0
25.363,0.855,-0.069,0.0
22.302,0.758,-0.188,0.0
19.465,0.668,-0.273,0.0
17.257,0.597,-0.339,0.0
32.442,1.137,0.254,0.0
28.193,0.997,0.062,0.0
24.948,0.89,-0.084,1.0
21.935,0.789,-0.199,1.0
19.353,0.702,-0.284,0.0
17.088,0.625,-0.347,0.0
31.811,1.178,0.227,0.0
27.662,1.033,0.043,0.0
24.526,0.923,-0.099,1.0
21.705,0.823,-0.212,1.0
18.802,0.719,-0.289,0.0
16.909,0.652,-0.355,0.0
31.032,1.21,0.2,0.0
27.29,1.072,0.023,0.0
24.37,0.964,-0.116,1.0
21.476,0.856,-0.225,1.0
18.379,0.738,-0.295,0.0
16.773,0.679,-0.364,0.0
30.765,1.259,0.176,0.0
26.79,1.104,0.002,0.0
23.705,0.984,-0.13,1.0
21.144,0.884,-0.237,0.0
18.18,0.765,-0.306,0.0
16.611,0.704,-0.373,0.0
29.071,1.246,0.144,0.0
26.377,1.138,-0.017,0.0
23.349,1.014,-0.147,1.0
20.369,0.89,-0.244,0.0
17.955,0.79,-0.316,0.0
16.369,0.725,-0.381,0.0
29.076,1.301,0.12,0.0
26.021,1.171,-0.038,0.0
23.015,1.043,-0.163,1.0
19.941,0.909,-0.256,0.0
17.745,0.814,-0.327,0.0
16.118,0.744,-0.388,0.0
28.677,1.336,0.095,1.0
25.54,1.198,-0.058,0.0
22.546,1.063,-0.179,1.0
19.654,0.932,-0.268,0.0
17.29,0.825,-0.333,0.0
15.964,0.766,-0.398,0.0
28.129,1.362,0.069,0.0
25.096,1.223,-0.079,0.0
21.967,1.076,-0.193,2.0
19.06,0.939,-0.277,0.0
17.119,0.848,-0.345,0.0
15.809,0.788,-0.408,0.0
27.568,1.386,0.043,0.0
24.637,1.245,-0.1,0.0
21.655,1.1,-0.21,3.0
18.725,0.956,-0.289,0.0
16.904,0.868,-0.356,0.0
15.594,0.805,-0.417,0.0
26.943,1.403,0.017,0.0
24.252,1.269,-0.12,0.0
21.375,1.124,-0.227,2.0
18.301,0.967,-0.299,0.0
16.722,0.888,-0.368,0.0
15.334,0.818,-0.424,0.0
26.506,1.426,-0.007,0.0
23.329,1.261,-0.138,0.0
20.916,1.136,-0.242,0.0
18.146,0.991,-0.314,0.0
16.438,0.902,-0.378,0.0
15.126,0.834,-0.433,0.0
25.999,1.444,-0.032,0.0
22.999,1.283,-0.158,0.0
20.164,1.131,-0.253,0.0
17.763,1.0,-0.325,0.0
16.2,0.917,-0.388,0.0
14.867,0.845,-0.441,0.0
25.402,1.455,-0.057,0.0
22.142,1.273,-0.175,0.0
19.49,1.126,-0.264,0.0
17.386,1.009,-0.336,0.0
15.899,0.927,-0.397,0.0
14.739,0.863,-0.452,0.0
24.931,1.47,-0.082,0.0
21.722,1.286,-0.194,1.0
19.145,1.138,-0.28,0.0
17.06,1.018,-0.348,0.0
15.754,0.944,-0.41,0.0
14.438,0.869,-0.458,0.0
24.352,1.476,-0.105,0.0
21.418,1.303,-0.214,2.0
18.652,1.139,-0.292,0.0
16.798,1.03,-0.36,0.0
15.54,0.957,-0.421,0.0
14.205,0.878,-0.466,0.0
23.887,1.486,-0.129,0.0
21.021,1.313,-0.233,1.0
18.395,1.153,-0.308,0.0
16.627,1.046,-0.374,0.0
15.221,0.961,-0.429,0.0
14.055,0.891,-0.476,0.0
23.047,1.47,-0.15,0.0
20.3,1.3,-0.247,0.0
17.954,1.153,-0.321,0.0
16.278,1.05,-0.385,0.0
15.072,0.975,-0.442,0.0
13.864,0.9,-0.485,0.0
22.452,1.467,-0.171,0.0
19.676,1.29,-0.262,0.0
17.43,1.147,-0.331,0.0
15.993,1.056,-0.396,0.0
14.692,0.973,-0.448,0.0
13.653,0.908,-0.494,0.0
21.883,1.463,-0.192,0.0
19.128,1.283,-0.277,0.0
17.113,1.152,-0.345,0.0
15.81,1.067,-0.41,0.0
14.452,0.979,-0.457,0.0
13.468,0.915,-0.503,0.0
21.435,1.465,-0.213,0.0
18.569,1.273,-0.29,0.0
16.797,1.155,-0.358,0.0
15.447,1.065,-0.419,0.0
14.245,0.986,-0.468,0.0
13.248,0.92,-0.51,0.0
20.725,1.446,-0.231,0.0
18.325,1.282,-0.308,0.0
16.596,1.165,-0.374,0.0
15.143,1.066,-0.429,0.0
13.978,0.987,-0.476,0.0
13.097,0.928,-0.52,0.0
20.238,1.441,-0.25,0.0
17.774,1.269,-0.321,0.0
16.196,1.16,-0.384,0.0
14.907,1.07,-0.44,0.0
13.793,0.993,-0.486,0.0
12.905,0.932,-0.528,0.0
19.513,1.416,-0.265,0.0
17.37,1.264,-0.335,0.0
15.922,1.162,-0.398,0.0
14.614,1.069,-0.45,0.0
13.606,0.998,-0.496,0.0
12.608,0.928,-0.532,0.0
19.069,1.409,-0.283,0.0
17.063,1.264,-0.351,0.0
15.683,1.165,-0.412,0.0
14.369,1.07,-0.461,0.0
13.387,1.0,-0.506,0.0
12.524,0.938,-0.545,0.0
18.523,1.393,-0.298,0.0
16.771,1.265,-0.366,0.0
15.402,1.164,-0.424,0.0
14.145,1.072,-0.471,0.0
13.188,1.002,-0.515,0.0
12.379,0.943,-0.554,0.0
18.05,1.38,-0.314,0.0
16.394,1.257,-0.379,0.0
15.028,1.155,-0.433,0.0
13.852,1.067,-0.48,0.0
12.937,0.999,-0.522,0.0
12.166,0.942,-0.56,0.0
17.567,1.365,-0.328,0.0
16.095,1.253,-0.392,0.0
14.795,1.155,-0.445,0.0
13.646,1.067,-0.49,0.0
12.757,1.0,-0.531,0.0
12.024,0.945,-0.57,0.0
17.206,1.357,-0.344,0.0
15.793,1.248,-0.406,0.0
14.458,1.145,-0.454,0.0
13.457,1.068,-0.501,0.0
12.51,0.995,-0.538,0.0
11.759,0.938,-0.573,0.0
16.854,1.349,-0.359,0.0
15.502,1.243,-0.419,0.0
14.222,1.143,-0.466,0.0
13.155,1.059,-0.508,0.0
12.421,1.002,-0.551,0.0
11.636,0.941,-0.582,0.0
16.479,1.337,-0.374,0.0
15.18,1.234,-0.431,0.0
13.949,1.136,-0.476,0.0
12.989,1.06,-0.519,0.0
12.194,0.997,-0.557,0.0
11.42,0.936,-0.587,0.0
16.172,1.329,-0.388,0.0
14.845,1.222,-0.442,0.0
13.72,1.132,-0.487,0.0
12.767,1.055,-0.527,0.0
12.074,1.0,-0.568,0.0
11.296,0.937,-0.596,0.0
15.866,1.32,-0.403,0.0
14.595,1.216,-0.454,0.0
13.489,1.126,-0.497,0.0
12.613,1.055,-0.538,0.0
11.855,0.994,-0.574,0.0
11.079,0.93,-0.6,0.0
15.602,1.314,-0.417,0.0
14.257,1.202,-0.463,0.0
13.326,1.126,-0.509,0.0
12.43,1.052,-0.547,0.0
11.623,0.986,-0.579,0.0
10.955,0.931,-0.608,0.0
15.172,1.292,-0.427,0.0
14.018,1.195,-0.475,0.0
13.035,1.113,-0.516,0.0
12.207,1.044,-0.555,0.0
11.48,0.984,-0.588,0.0
10.776,0.925,-0.614,0.0
14.938,1.285,-0.441,0.0
13.728,1.183,-0.484,0.0
12.759,1.101,-0.523,0.0
12.07,1.043,-0.565,0.0
11.309,0.979,-0.595,0.0
10.652,0.924,-0.621,0.0
14.566,1.266,-0.451,0.0
13.546,1.179,-0.497,0.0
12.629,1.1,-0.535,0.0
11.858,1.035,-0.572,0.0
11.121,0.972,-0.6,0.0
10.52,0.921,-0.629,0.0
14.255,1.25,-0.461,0.0
13.261,1.165,-0.505,0.0
12.472,1.097,-0.546,0.0
11.591,1.021,-0.575,0.0
10.938,0.965,-0.606,0.0
10.399,0.919,-0.636,0.0
13.993,1.238,-0.472,0.0
13.112,1.161,-0.518,0.0
12.251,1.087,-0.554,0.0
11.447,1.017,-0.585,0.0
10.792,0.96,-0.613,0.0
10.197,0.908,-0.638,0.0
13.744,1.226,-0.483,0.0
12.71,1.135,-0.52,0.0
12.099,1.082,-0.564,0.0
11.314,1.013,-0.594,0.0
10.718,0.961,-0.624,0.0
10.015,0.899,-0.641,0.0
13.516,1.215,-0.494,0.0
12.558,1.13,-0.531,0.0
11.857,1.068,-0.57,0.0
11.123,1.003,-0.599,0.0
10.52,0.95,-0.628,0.0
9.962,0.901,-0.652,0.0
13.296,1.203,-0.505,0.0
12.486,1.131,-0.546,0.0
11.654,1.057,-0.577,0.0
10.95,0.994,-0.606,0.0
10.403,0.946,-0.636,0.0
9.838,0.896,-0.658,0.0
13.08,1.192,-0.515,0.0
12.237,1.116,-0.552,0.0
11.527,1.052,-0.587,0.0
10.787,0.986,-0.612,0.0
10.216,0.935,-0.639,0.0
9.697,0.888,-0.662,0.0
12.891,1.182,-0.526,0.0
12.058,1.106,-0.561,0.0
11.313,1.039,-0.592,0.0
10.665,0.981,-0.62,0.0
10.095,0.929,-0.645,0.0
9.586,0.883,-0.668,0.0
12.638,1.165,-0.534,0.0
11.888,1.097,-0.57,0.0
11.129,1.028,-0.598,0.0
10.509,0.971,-0.626,0.0
9.963,0.922,-0.651,0.0
9.425,0.873,-0.67,0.0
12.492,1.157,-0.545,0.0
11.635,1.079,-0.575,0.0
10.978,1.019,-0.605,0.0
10.408,0.967,-0.635,0.0
9.81,0.912,-0.655,0.0
9.333,0.868,-0.677,0.0
12.234,1.138,-0.551,0.0
11.476,1.068,-0.583,0.0
10.828,1.009,-0.612,0.0
10.176,0.949,-0.635,0.0
9.721,0.907,-0.663,0.0
9.203,0.86,-0.681,0.0
12.081,1.128,-0.561,0.0
11.36,1.062,-0.593,0.0
10.716,1.002,-0.621,0.0
10.034,0.939,-0.64,0.0
9.567,0.896,-0.666,0.0
0.0,0.0,0.0,0.0
11.869,1.112,-0.568,0.0
11.149,1.046,-0.597,0.0
10.52,0.987,-0.624,0.0
9.931,0.933,-0.648,0.0
9.43,0.886,-0.669,0.0
0.0,0.0,0.0,0.0
11.657,1.096,-0.574,0.0
10.978,1.033,-0.603,0.0
10.42,0.981,-0.633,0.0
9.786,0.922,-0.652,0.0
9.386,0.885,-0.679,0.0
8.88,0.838,-0.694,0.0
11.502,1.084,-0.582,0.0
10.825,1.021,-0.61,0.0
10.313,0.973,-0.641,0.0
9.688,0.915,-0.659,0.0
9.185,0.868,-0.677,0.0
8.782,0.83,-0.699,0.0
11.338,1.071,-0.589,0.0
10.674,1.009,-0.616,0.0
10.054,0.95,-0.638,0.0
9.579,0.906,-0.664,0.0
0.0,0.0,0.0,0.0
8.672,0.821,-0.702,0.0
11.156,1.055,-0.595,0.0
10.587,1.002,-0.625,0.0
10.004,0.947,-0.649,0.0
9.445,0.895,-0.668,0.0
0.0,0.0,0.0,0.0
8.59,0.815,-0.707,0.0
11.005,1.042,-0.602,0.0
10.439,0.989,-0.631,0.0
9.829,0.932,-0.65,0.0
9.39,0.89,-0.677,0.0
0.0,0.0,0.0,0.0
8.507,0.808,-0.711,0.0
10.869,1.03,-0.609,0.0
10.242,0.971,-0.632,0.0
9.681,0.918,-0.654,0.0
0.0,0.0,0.0,0.0
8.764,0.832,-0.694,0.0
8.383,0.796,-0.712,0.0
10.761,1.02,-0.617,0.0
10.128,0.96,-0.639,0.0
9.627,0.913,-0.663,0.0
0.0,0.0,0.0,0.0
8.676,0.823,-0.698,0.0
8.338,0.792,-0.719,0.0
10.582,1.003,-0.62,0.0
10.039,0.951,-0.646,0.0
9.47,0.898,-0.664,0.0
0.0,0.0,0.0,0.0
8.606,0.816,-0.704,0.0
8.255,0.783,-0.723,0.0
10.474,0.992,-0.628,0.0
9.902,0.938,-0.65,0.0
9.403,0.891,-0.672,0.0
0.0,0.0,0.0,0.0
8.534,0.809,-0.709,0.0
8.176,0.775,-0.727,0.0
10.355,0.979,-0.634,0.0
9.746,0.922,-0.652,0.0
9.232,0.873,-0.671,0.0
8.798,0.832,-0.691,0.0
8.451,0.8,-0.713,0.0
8.087,0.766,-0.729,0.0
10.22,0.965,-0.638,0.0
9.645,0.911,-0.658,0.0
0.0,0.0,0.0,0.0
0.0,0.0,0.0,0.0
8.316,0.786,-0.712,0.0
0.0,0.0,0.0,0.0
10.062,0.948,-0.641,0.0
9.536,0.899,-0.662,0.0
0.0,0.0,0.0,0.0
8.689,0.819,-0.704,0.0
8.226,0.775,-0.714,0.0
0.0,0.0,0.0,0.0
10.004,0.94,-0.649,0.0
9.432,0.887,-0.666,0.0
0.0,0.0,0.0,0.0
0.0,0.0,0.0,0.0
8.213,0.772,-0.723,0.0
0.0,0.0,0.0,0.0
9.861,0.924,-0.652,0.0
9.358,0.877,-0.672,0.0
8.9,0.834,-0.691,0.0
0.0,0.0,0.0,0.0
8.16,0.765,-0.728,0.0
0.0,0.0,0.0,0.0
9.781,0.914,-0.658,0.0
9.274,0.866,-0.677,0.0
8.778,0.82,-0.691,0.0
0.0,0.0,0.0,0.0
0.0,0.0,0.0,0.0
0.0,0.0,0.0,0.0
9.657,0.899,-0.661,0.0
0.0,0.0,0.0,0.0
8.748,0.814,-0.699,0.0
0.0,0.0,0.0,0.0
0.0,0.0,0.0,0.0
7.622,0.709,-0.742,0.0
9.525,0.883,-0.662,0.0
0.0,0.0,0.0,0.0
0.0,0.0,0.0,0.0
0.0,0.0,0.0,0.0
0.0,0.0,0.0,0.0
7.555,0.699,-0.744,0.0
9.466,0.873,-0.668,0.0
0.0,0.0,0.0,0.0
8.593,0.792,-0.706,0.0
8.157,0.752,-0.718,0.0
0.0,0.0,0.0,0.0
7.524,0.693,-0.749,0.0
