X,Y,Z,Reflectivity
11.153,-0.382,-0.582,0.0
10.628,-0.363,-0.61,0.0
10.066,-0.343,-0.63,0.0
13.641,-0.463,-0.473,0.0
12.754,-0.431,-0.508,0.0
12.106,-0.408,-0.545,0.0
11.417,-0.384,-0.575,0.0
10.794,-0.362,-0.599,0.0
10.256,-0.343,-0.623,0.0
14.011,-0.466,-0.46,0.0
13.087,-0.433,-0.497,0.0
12.322,-0.407,-0.532,0.0
11.621,-0.382,-0.563,0.0
11.015,-0.361,-0.591,0.0
10.465,-0.342,-0.616,0.0
14.389,-0.468,-0.445,0.0
13.397,-0.434,-0.484,0.0
12.603,-0.407,-0.521,0.0
11.85,-0.381,-0.552,0.0
11.274,-0.361,-0.584,0.0
10.682,-0.341,-0.609,0.0
14.784,-0.469,-0.43,0.0
13.737,-0.434,-0.471,0.0
12.87,-0.405,-0.508,0.0
12.196,-0.383,-0.546,0.0
11.457,-0.358,-0.572,0.0
10.851,-0.338,-0.598,0.0
15.106,-0.467,-0.412,0.0
14.102,-0.434,-0.457,0.0
13.203,-0.405,-0.497,0.0
12.421,-0.379,-0.533,0.0
11.711,-0.356,-0.563,0.0
11.041,-0.334,-0.588,0.0
15.71,-0.473,-0.399,0.0
14.52,-0.435,-0.444,0.0
13.515,-0.403,-0.484,0.0
12.671,-0.376,-0.52,0.0
11.939,-0.353,-0.552,0.0
11.262,-0.331,-0.579,0.0
16.182,-0.473,-0.382,0.0
14.783,-0.43,-0.425,0.0
13.779,-0.398,-0.468,0.0
12.916,-0.372,-0.507,0.0
12.293,-0.352,-0.546,0.0
11.53,-0.328,-0.572,0.0
16.59,-0.469,-0.361,0.0
15.216,-0.428,-0.41,0.0
14.149,-0.396,-0.454,0.0
13.195,-0.367,-0.494,0.0
12.421,-0.344,-0.529,0.0
11.793,-0.324,-0.564,0.0
17.058,-0.466,-0.34,0.0
15.862,-0.431,-0.399,0.0
14.523,-0.392,-0.44,0.0
13.571,-0.364,-0.483,0.0
12.679,-0.338,-0.517,0.0
11.999,-0.318,-0.552,0.0
17.663,-0.465,-0.32,0.0
16.24,-0.425,-0.379,0.0
14.929,-0.388,-0.426,0.0
13.907,-0.359,-0.47,0.0
13.005,-0.334,-0.507,0.0
12.287,-0.313,-0.543,0.0
18.31,-0.463,-0.299,0.0
16.687,-0.419,-0.359,0.0
15.365,-0.383,-0.41,0.0
14.188,-0.351,-0.454,0.0
13.348,-0.328,-0.496,0.0
12.5,-0.305,-0.53,0.0
19.187,-0.465,-0.279,0.0
17.11,-0.411,-0.338,0.0
15.908,-0.38,-0.397,0.0
14.556,-0.345,-0.44,0.0
13.617,-0.32,-0.482,0.0
12.774,-0.298,-0.519,0.0
19.762,-0.457,-0.253,0.0
17.772,-0.408,-0.32,0.0
16.286,-0.37,-0.377,0.0
14.994,-0.338,-0.427,0.0
13.95,-0.312,-0.47,0.0
12.979,-0.288,-0.505,0.0
20.928,-0.46,-0.232,0.0
18.354,-0.4,-0.298,0.0
16.7,-0.361,-0.358,0.0
15.504,-0.332,-0.414,0.0
14.233,-0.302,-0.455,0.0
13.33,-0.28,-0.495,0.0
22.067,-0.459,-0.206,0.0
19.128,-0.394,-0.277,0.0
17.182,-0.351,-0.338,0.0
15.889,-0.321,-0.397,0.0
14.655,-0.293,-0.442,0.0
13.608,-0.269,-0.482,0.0
22.913,-0.449,-0.173,0.0
20.013,-0.388,-0.255,0.0
17.806,-0.341,-0.32,0.0
16.31,-0.309,-0.379,0.0
14.84,-0.278,-0.422,0.0
13.93,-0.258,-0.469,0.0
23.673,-0.434,-0.138,0.0
21.029,-0.381,-0.232,0.0
18.279,-0.327,-0.297,0.0
16.727,-0.296,-0.361,0.0
15.49,-0.271,-0.415,0.0
14.282,-0.246,-0.457,0.0
24.734,-0.422,-0.103,0.0
22.083,-0.372,-0.207,0.0
19.154,-0.318,-0.279,0.0
17.101,-0.28,-0.34,0.0
15.9,-0.257,-0.399,0.0
14.664,-0.234,-0.444,0.0
25.756,-0.405,-0.064,0.0
23.107,-0.358,-0.178,0.0
19.859,-0.304,-0.256,0.0
17.763,-0.267,-0.324,0.0
16.291,-0.242,-0.382,0.0
14.931,-0.218,-0.428,0.0
26.703,-0.384,-0.022,0.0
23.568,-0.334,-0.143,0.0
20.974,-0.292,-0.236,0.0
18.25,-0.25,-0.302,0.0
16.666,-0.224,-0.363,0.0
15.402,-0.204,-0.416,0.0
27.572,-0.358,0.021,0.0
24.798,-0.316,-0.109,0.0
22.002,-0.276,-0.212,0.0
18.977,-0.233,-0.284,0.0
17.072,-0.206,-0.344,0.0
15.869,-0.187,-0.403,0.0
28.556,-0.331,0.068,1.0
25.482,-0.289,-0.071,0.0
22.844,-0.254,-0.183,0.0
19.715,-0.214,-0.263,0.0
17.624,-0.187,-0.327,0.0
16.234,-0.168,-0.387,0.0
28.795,-0.292,0.115,1.0
26.449,-0.262,-0.032,0.0
23.58,-0.228,-0.152,0.0
20.653,-0.194,-0.243,0.0
18.201,-0.167,-0.31,0.0
16.581,-0.148,-0.369,0.0
31.09,-0.27,0.172,0.0
27.421,-0.231,0.008,0.0
24.293,-0.199,-0.119,0.0
21.745,-0.172,-0.223,0.0
18.721,-0.144,-0.29,0.0
16.92,-0.126,-0.351,0.0
31.704,-0.228,0.224,2.0
28.592,-0.198,0.052,3.0
25.062,-0.167,-0.085,0.0
22.297,-0.143,-0.194,0.0
19.417,-0.12,-0.271,0.0
17.378,-0.103,-0.334,0.0
33.034,-0.187,0.284,1.0
28.781,-0.155,0.096,7.0
26.143,-0.135,-0.049,0.0
23.084,-0.113,-0.167,0.0
20.328,-0.094,-0.254,0.0
17.969,-0.078,-0.318,0.0
33.574,-0.137,0.339,0.0
28.884,-0.11,0.14,2.0
27.132,-0.097,-0.011,0.0
23.88,-0.079,-0.137,0.0
21.199,-0.064,-0.233,0.0
18.441,-0.051,-0.299,0.0
36.139,-0.091,0.417,0.0
31.241,-0.07,0.197,0.0
28.047,-0.055,0.029,0.0
24.94,-0.042,-0.107,0.0
21.844,-0.031,-0.209,1.0
19.119,-0.022,-0.283,0.0
0.0,0.0,0.0,0.0
33.191,-0.021,0.256,0.0
28.642,-0.01,0.07,1.0
25.685,-0.002,-0.074,0.0
22.785,0.004,-0.185,0.0
19.743,0.008,-0.265,0.0
39.159,0.028,0.564,0.0
33.394,0.033,0.305,0.0
28.841,0.037,0.111,0.0
26.467,0.041,-0.039,0.0
23.47,0.043,-0.158,1.0
20.868,0.044,-0.251,1.0
0.0,0.0,0.0,0.0
35.587,0.095,0.374,0.0
29.821,0.088,0.156,0.0
27.122,0.088,-0.003,0.0
24.191,0.085,-0.13,0.0
21.301,0.08,-0.227,4.0
0.0,0.0,0.0,0.0
36.316,0.158,0.431,0.0
31.337,0.146,0.206,0.0
27.809,0.137,0.033,1.0
25.198,0.131,-0.102,0.0
22.176,0.122,-0.207,2.0
0.0,0.0,0.0,0.0
0.0,0.0,0.0,0.0
32.539,0.207,0.257,0.0
28.671,0.19,0.071,1.0
25.838,0.179,-0.072,0.0
22.553,0.162,-0.182,0.0
0.0,0.0,0.0,0.0
39.436,0.307,0.569,0.0
34.212,0.276,0.313,0.0
28.843,0.241,0.108,5.0
26.466,0.229,-0.04,0.0
23.494,0.21,-0.16,0.0
0.0,0.0,0.0,0.0
0.0,0.0,0.0,0.0
34.283,0.337,0.356,0.0
28.931,0.293,0.144,1.0
27.006,0.281,-0.008,0.0
24.134,0.258,-0.135,0.0
0.0,0.0,0.0,0.0
0.0,0.0,0.0,0.0
0.0,0.0,0.0,0.0
31.461,0.374,0.194,0.0
27.776,0.338,0.024,0.0
24.838,0.309,-0.11,0.0
57.537,0.736,1.347,1.0
0.0,0.0,0.0,0.0
37.304,0.499,0.476,0.0
32.098,0.439,0.236,0.0
28.727,0.401,0.058,2.0
25.428,0.362,-0.083,0.0
55.937,0.816,1.374,0.0
0.0,0.0,0.0,0.0
0.0,0.0,0.0,0.0
0.0,0.0,0.0,0.0
28.852,0.455,0.091,3.0
26.086,0.419,-0.056,0.0
55.018,0.902,1.413,0.0
0.0,0.0,0.0,0.0
0.0,0.0,0.0,0.0
34.262,0.592,0.328,0.0
28.872,0.507,0.122,0.0
26.679,0.477,-0.028,0.0
54.624,0.997,1.463,1.0
0.0,0.0,0.0,0.0
0.0,0.0,0.0,0.0
0.0,0.0,0.0,0.0
29.031,0.564,0.154,0.0
27.087,0.534,0.0,0.0
54.32,1.091,1.511,1.0
54.573,1.113,1.227,0.0
0.0,0.0,0.0,0.0
36.752,0.771,0.429,1.0
31.454,0.67,0.199,0.0
27.618,0.596,0.027,0.0
54.34,1.194,1.568,0.0
54.616,1.216,1.283,0.0
47.871,1.08,0.868,1.0
37.095,0.848,0.47,0.0
32.299,0.748,0.236,0.0
28.727,0.675,0.057,1.0
54.154,1.292,1.616,1.0
54.08,1.306,1.324,0.0
57.279,1.401,1.094,1.0
0.0,0.0,0.0,0.0
33.293,0.834,0.276,1.0
28.879,0.732,0.084,5.0
54.233,1.396,1.669,3.0
54.12,1.409,1.375,1.0
56.641,1.492,1.135,5.0
41.378,1.102,0.603,0.0
34.046,0.917,0.313,0.0
28.953,0.788,0.11,5.0
54.161,1.497,1.716,1.0
54.069,1.51,1.422,6.0
56.171,1.585,1.175,3.0
41.906,1.196,0.647,0.0
34.748,1.002,0.35,1.0
28.977,0.844,0.136,3.0
54.098,1.598,1.761,0.0
54.162,1.616,1.471,5.0
54.481,1.641,1.186,0.0
46.258,1.407,0.754,0.0
35.448,1.089,0.387,0.0
29.065,0.902,0.16,0.0
54.116,1.702,1.807,0.0
54.098,1.718,1.514,150.0
0.0,0.0,0.0,0.0
0.0,0.0,0.0,0.0
0.0,0.0,0.0,0.0
31.376,1.034,0.198,0.0
50.853,1.698,1.739,2.0
0.0,0.0,0.0,0.0
50.576,1.719,1.183,0.0
48.517,1.664,0.868,2.0
37.036,1.281,0.462,0.0
31.968,1.115,0.226,0.0
50.369,1.779,1.76,2.0
50.166,1.787,1.482,2.0
50.061,1.798,1.208,1.0
50.703,1.837,0.944,2.0
0.0,0.0,0.0,0.0
32.924,1.213,0.257,1.0
49.781,1.855,1.775,2.0
49.551,1.861,1.499,2.0
49.428,1.872,1.228,2.0
50.55,1.929,0.976,0.0
0.0,0.0,0.0,0.0
33.387,1.294,0.283,0.0
49.217,1.929,1.789,2.0
48.868,1.93,1.511,2.0
48.895,1.945,1.247,2.0
0.0,0.0,0.0,0.0
0.0,0.0,0.0,0.0
33.589,1.367,0.307,1.0
48.801,2.008,1.805,3.0
48.359,2.004,1.526,3.0
48.406,2.021,1.265,15.0
48.168,2.025,0.992,0.0
42.282,1.79,0.641,0.0
35.526,1.515,0.346,0.0
48.393,2.086,1.82,2.0
47.99,2.082,1.543,3.0
47.84,2.09,1.278,0.0
47.636,2.095,1.009,0.0
0.0,0.0,0.0,0.0
0.0,0.0,0.0,0.0
48.308,2.176,1.843,3.0
47.596,2.158,1.557,11.0
47.465,2.165,1.294,15.0
47.466,2.18,1.031,3.0
47.767,2.208,0.777,1.0
36.528,1.7,0.396,0.0
48.23,2.267,1.866,1.0
47.671,2.255,1.584,105.0
47.269,2.249,1.313,0.0
47.369,2.267,1.052,12.0
50.273,2.422,0.843,4.0
36.806,1.784,0.416,0.0
48.177,2.358,1.887,0.0
47.59,2.343,1.604,96.0
47.417,2.348,1.339,12.0
47.319,2.357,1.073,14.0
49.72,2.491,0.856,3.0
0.0,0.0,0.0,0.0
0.0,0.0,0.0,0.0
47.588,2.435,1.625,150.0
47.349,2.437,1.358,18.0
47.295,2.447,1.093,9.0
49.307,2.566,0.87,2.0
38.014,1.989,0.463,1.0
0.0,0.0,0.0,0.0
47.57,2.527,1.643,141.0
47.288,2.526,1.375,18.0
47.299,2.54,1.111,5.0
47.353,2.557,0.853,0.0
0.0,0.0,0.0,0.0
0.0,0.0,0.0,0.0
47.47,2.614,1.657,6.0
47.242,2.615,1.39,18.0
47.268,2.63,1.127,2.0
47.247,2.643,0.867,0.0
42.032,2.363,0.541,0.0
0.0,0.0,0.0,0.0
47.519,2.709,1.674,5.0
47.21,2.705,1.404,31.0
47.259,2.72,1.141,4.0
47.347,2.739,0.883,1.0
0.0,0.0,0.0,0.0
0.0,0.0,0.0,0.0
47.568,2.802,1.689,5.0
47.198,2.794,1.416,76.0
47.223,2.809,1.152,7.0
47.372,2.831,0.896,1.0
0.0,0.0,0.0,0.0
0.0,0.0,0.0,0.0
47.632,2.898,1.703,4.0
47.198,2.885,1.427,41.0
47.218,2.9,1.163,161.0
47.263,2.916,0.904,2.0
43.412,2.69,0.591,0.0
0.0,0.0,0.0,0.0
47.679,2.993,1.714,3.0
47.211,2.976,1.437,31.0
47.228,2.989,1.172,160.0
47.293,3.006,0.913,2.0
43.539,2.78,0.601,0.0
0.0,0.0,0.0,0.0
47.756,3.087,1.725,3.0
47.199,3.064,1.444,21.0
47.228,3.079,1.179,166.0
47.281,3.095,0.92,3.0
0.0,0.0,0.0,0.0
0.0,0.0,0.0,0.0
47.795,3.18,1.732,2.0
47.232,3.155,1.45,20.0
47.256,3.169,1.185,162.0
47.316,3.186,0.925,3.0
47.157,3.188,0.661,0.0
0.0,0.0,0.0,0.0
47.834,3.273,1.738,2.0
47.256,3.246,1.455,19.0
47.264,3.258,1.189,162.0
47.314,3.275,0.928,3.0
0.0,0.0,0.0,0.0
0.0,0.0,0.0,0.0
47.881,3.366,1.742,1.0
47.276,3.335,1.457,16.0
47.277,3.348,1.191,150.0
47.302,3.363,0.929,3.0
0.0,0.0,0.0,0.0
0.0,0.0,0.0,0.0
47.907,3.457,1.743,1.0
47.302,3.425,1.458,17.0
47.307,3.438,1.191,15.0
47.354,3.454,0.929,3.0
0.0,0.0,0.0,0.0
49.043,3.617,2.055,1.0
48.115,3.56,1.749,1.0
47.338,3.515,1.458,12.0
47.355,3.528,1.19,15.0
47.4,3.543,0.928,2.0
0.0,0.0,0.0,0.0
81.514,6.16,3.411,20.0
48.083,3.645,1.744,1.0
47.627,3.622,1.463,38.0
47.408,3.617,1.187,18.0
47.435,3.632,0.924,2.0
45.307,3.48,0.631,0.0
81.297,6.29,3.394,27.0
48.623,3.773,1.759,3.0
47.466,3.695,1.453,6.0
47.478,3.708,1.183,17.0
47.461,3.718,0.919,1.0
47.906,3.765,0.661,0.0
81.391,6.442,3.387,28.0
47.849,3.799,1.724,1.0
47.568,3.787,1.448,6.0
47.561,3.798,1.178,13.0
47.495,3.805,0.912,0.0
45.312,3.641,0.617,2.0
81.4,6.586,3.373,13.0
62.805,5.096,2.251,6.0
47.627,3.875,1.441,5.0
47.649,3.888,1.171,2.0
47.718,3.906,0.906,0.0
47.267,3.881,0.634,1.0
62.409,5.159,2.573,15.0
62.585,5.188,2.23,12.0
62.864,5.225,1.888,2.0
52.211,4.352,1.271,10.0
49.302,4.121,0.925,5.0
0.0,0.0,0.0,0.0
52.125,4.398,2.136,41.0
52.151,4.412,1.845,41.0
52.172,4.426,1.554,20.0
52.077,4.43,1.254,11.0
48.894,4.171,0.904,4.0
0.0,0.0,0.0,0.0
52.109,4.486,2.12,66.0
52.116,4.498,1.828,60.0
52.113,4.51,1.536,48.0
52.019,4.513,1.237,11.0
48.474,4.217,0.881,4.0
41.342,3.606,0.52,0.0
52.12,4.575,2.104,46.0
52.11,4.586,1.811,45.0
52.124,4.599,1.519,33.0
51.913,4.592,1.217,9.0
48.112,4.266,0.857,5.0
0.0,0.0,0.0,0.0
60.837,5.442,2.434,15.0
62.252,5.582,2.141,10.0
52.188,4.691,1.502,21.0
51.839,4.671,1.195,10.0
47.713,4.31,0.832,4.0
41.093,3.721,0.487,0.0
60.917,5.55,2.413,21.0
62.586,5.715,2.127,37.0
62.322,5.703,1.768,6.0
51.751,4.747,1.172,10.0
47.448,4.363,0.808,3.0
40.821,3.762,0.466,0.0
60.68,5.626,2.378,27.0
60.35,5.608,2.025,20.0
62.652,5.835,1.749,9.0
51.615,4.817,1.146,8.0
47.048,4.401,0.78,5.0
39.053,3.661,0.428,0.0
0.0,0.0,0.0,0.0
60.481,5.715,2.002,27.0
62.645,5.932,1.72,8.0
51.535,4.89,1.12,8.0
46.767,4.447,0.753,7.0
36.74,3.502,0.384,0.0
60.03,5.754,2.295,35.0
60.199,5.781,1.963,21.0
62.319,5.997,1.68,10.0
51.395,4.956,1.091,4.0
46.495,4.493,0.725,5.0
36.705,3.555,0.365,0.0
59.705,5.813,2.251,32.0
60.267,5.88,1.932,14.0
61.824,6.044,1.633,3.0
51.251,5.02,1.06,1.0
46.168,4.531,0.694,6.0
36.09,3.549,0.339,0.0
59.588,5.891,2.214,17.0
60.074,5.95,1.892,16.0
61.0,6.054,1.577,4.0
46.809,4.654,0.941,2.0
45.959,4.578,0.664,13.0
0.0,0.0,0.0,0.0
59.85,6.005,2.188,35.0
60.011,6.032,1.855,34.0
59.944,6.036,1.513,2.0
46.418,4.682,0.905,5.0
45.626,4.611,0.632,3.0
34.469,3.49,0.283,0.0
59.646,6.07,2.144,26.0
59.62,6.078,1.805,34.0
59.265,6.052,1.46,1.0
46.04,4.71,0.868,5.0
45.392,4.652,0.6,2.0
34.262,3.517,0.259,0.0
59.616,6.151,2.104,35.0
59.826,6.183,1.772,31.0
51.687,5.35,1.238,1.0
45.539,4.722,0.829,9.0
45.137,4.689,0.566,2.0
32.665,3.399,0.224,0.0
59.225,6.192,2.049,26.0
59.793,6.262,1.73,23.0
51.543,5.406,1.199,5.0
45.319,4.761,0.793,8.0
42.323,4.454,0.501,1.0
32.382,3.413,0.2,1.0
59.198,6.269,2.007,32.0
60.011,6.365,1.694,18.0
51.507,5.471,1.161,5.0
44.99,4.786,0.755,5.0
42.24,4.501,0.469,0.0
31.956,3.41,0.174,1.0
59.009,6.326,1.956,24.0
60.539,6.499,1.664,35.0
46.353,4.983,1.01,4.0
44.848,4.828,0.719,4.0
38.405,4.141,0.398,0.0
29.432,3.178,0.138,0.0
59.059,6.405,1.913,23.0
59.946,6.51,1.602,26.0
46.163,5.02,0.971,11.0
44.707,4.869,0.682,3.0
38.321,4.179,0.367,0.0
29.366,3.208,0.114,3.0
59.077,6.48,1.867,15.0
46.464,5.103,1.204,7.0
45.85,5.042,0.928,10.0
44.635,4.915,0.645,4.0
0.0,0.0,0.0,0.0
29.342,3.241,0.09,5.0
59.234,6.568,1.823,23.0
46.518,5.165,1.167,6.0
45.647,5.074,0.886,11.0
44.3,4.931,0.603,3.0
35.332,3.938,0.28,0.0
29.293,3.269,0.066,5.0
59.303,6.645,1.776,12.0
46.466,5.212,1.127,1.0
45.487,5.108,0.844,10.0
43.489,4.89,0.555,1.0
33.203,3.738,0.235,0.0
29.078,3.278,0.041,1.0
0.0,0.0,0.0,0.0
46.418,5.258,1.086,12.0
44.972,5.1,0.796,3.0
41.357,4.695,0.492,0.0
32.836,3.732,0.203,1.0
27.845,3.169,0.014,0.0
46.458,5.307,1.31,21.0
46.263,5.29,1.041,13.0
44.464,5.09,0.747,4.0
41.183,4.72,0.452,0.0
31.914,3.662,0.169,0.0
26.98,3.099,-0.01,0.0
46.405,5.349,1.266,34.0
46.032,5.311,0.993,9.0
44.357,5.123,0.704,4.0
0.0,0.0,0.0,0.0
31.598,3.657,0.138,0.0
26.251,3.042,-0.034,1.0
46.386,5.393,1.222,28.0
45.816,5.331,0.946,9.0
44.288,5.159,0.661,5.0
37.046,4.319,0.338,0.0
29.322,3.422,0.1,0.0
25.962,3.033,-0.058,1.0
46.346,5.432,1.177,27.0
45.669,5.358,0.899,10.0
44.167,5.186,0.617,2.0
0.0,0.0,0.0,0.0
29.258,3.442,0.072,1.0
25.318,2.982,-0.081,0.0
46.332,5.473,1.131,26.0
45.469,5.375,0.851,5.0
44.065,5.214,0.574,0.0
33.589,3.978,0.242,0.0
28.979,3.435,0.043,1.0
24.307,2.884,-0.102,1.0
46.3,5.509,1.085,14.0
44.579,5.308,0.79,3.0
42.429,5.057,0.51,0.0
32.639,3.893,0.202,0.0
27.723,3.31,0.013,0.0
23.966,2.864,-0.124,2.0
46.212,5.537,1.037,12.0
44.157,5.295,0.738,4.0
40.388,4.846,0.444,0.0
32.076,3.852,0.166,1.0
26.83,3.225,-0.013,0.0
23.576,2.836,-0.146,1.0
45.973,5.545,0.984,11.0
44.076,5.319,0.692,5.0
37.72,4.555,0.377,0.0
29.371,3.55,0.122,0.0
26.178,3.166,-0.04,1.0
23.031,2.788,-0.167,0.0
45.75,5.552,0.932,12.0
43.995,5.342,0.645,4.0
36.245,4.404,0.324,0.0
29.366,3.57,0.091,1.0
25.957,3.159,-0.067,1.0
22.333,2.72,-0.185,0.0
45.588,5.564,0.881,13.0
43.905,5.361,0.597,1.0
33.821,4.133,0.266,0.0
29.215,3.572,0.06,1.0
24.485,2.996,-0.089,0.0
21.781,2.667,-0.204,0.0
45.146,5.539,0.824,4.0
42.139,5.173,0.528,1.0
33.487,4.113,0.228,0.0
28.35,3.484,0.028,1.0
24.076,2.961,-0.113,2.0
21.317,2.623,-0.222,0.0
44.038,5.43,0.757,4.0
39.857,4.917,0.457,0.0
32.486,4.009,0.186,0.0
27.353,3.378,-0.001,0.0
23.764,2.936,-0.137,3.0
20.767,2.568,-0.239,0.0
43.947,5.443,0.707,5.0
39.773,4.929,0.413,0.0
29.486,3.655,0.137,1.0
26.293,3.261,-0.03,1.0
23.099,2.867,-0.159,1.0
20.39,2.532,-0.257,0.0
43.888,5.459,0.658,5.0
36.067,4.488,0.334,0.0
29.422,3.662,0.104,4.0
26.041,3.243,-0.059,1.0
22.547,2.809,-0.18,0.0
19.719,2.458,-0.27,0.0
43.838,5.473,0.609,2.0
0.0,0.0,0.0,0.0
29.323,3.664,0.071,6.0
25.088,3.136,-0.084,0.0
21.957,2.746,-0.199,0.0
19.32,2.417,-0.286,0.0
42.026,5.265,0.538,1.0
33.562,4.206,0.237,0.0
28.735,3.602,0.038,2.0
23.95,3.003,-0.107,1.0
21.417,2.687,-0.218,0.0
18.95,2.378,-0.302,0.0
41.73,5.244,0.487,0.0
32.652,4.104,0.194,0.0
28.079,3.53,0.006,1.0
23.691,2.979,-0.132,3.0
20.796,2.616,-0.235,0.0
18.486,2.327,-0.315,0.0
39.255,4.946,0.413,0.0
29.466,3.713,0.141,0.0
26.525,3.343,-0.024,0.0
23.213,2.927,-0.156,1.0
20.376,2.57,-0.254,0.0
18.124,2.287,-0.33,0.0
36.064,4.554,0.339,0.0
29.448,3.719,0.108,4.0
26.025,3.288,-0.053,1.0
22.5,2.843,-0.177,1.0
19.848,2.509,-0.27,0.0
17.765,2.246,-0.343,0.0
35.671,4.513,0.295,0.0
29.328,3.711,0.074,6.0
25.567,3.236,-0.081,0.0
22.159,2.805,-0.2,0.0
19.389,2.455,-0.286,0.0
17.324,2.194,-0.355,0.0
0.0,0.0,0.0,0.0
28.605,3.625,0.039,2.0
24.021,3.044,-0.104,0.0
21.306,2.701,-0.216,0.0
18.979,2.406,-0.302,0.0
17.053,2.163,-0.369,0.0
31.673,4.018,0.189,0.0
27.716,3.516,0.007,1.0
23.634,2.999,-0.129,1.0
20.765,2.635,-0.235,0.0
18.468,2.344,-0.315,0.0
16.86,2.14,-0.384,0.0
31.543,4.005,0.152,1.0
26.92,3.418,-0.023,1.0
23.246,2.951,-0.154,1.0
20.463,2.598,-0.254,0.0
18.163,2.307,-0.33,0.0
16.477,2.093,-0.394,0.0
29.443,3.74,0.108,5.0
25.986,3.3,-0.052,1.0
22.477,2.855,-0.174,1.0
19.724,2.505,-0.268,0.0
17.711,2.25,-0.342,0.0
16.0,2.033,-0.401,0.0
29.347,3.728,0.075,6.0
25.164,3.196,-0.079,0.0
22.072,2.803,-0.196,0.0
19.351,2.458,-0.285,0.0
17.335,2.202,-0.355,0.0
15.844,2.013,-0.415,0.0
28.733,3.648,0.04,2.0
24.099,3.06,-0.103,0.0
21.237,2.696,-0.213,0.0
18.964,2.407,-0.301,0.0
17.076,2.168,-0.369,0.0
15.633,1.985,-0.427,0.0
27.572,3.499,0.008,1.0
23.667,3.003,-0.128,1.0
20.784,2.637,-0.231,0.0
18.462,2.342,-0.313,0.0
16.84,2.136,-0.383,0.0
15.378,1.951,-0.437,0.0
26.718,3.387,-0.022,1.0
23.195,2.94,-0.152,1.0
20.344,2.578,-0.25,0.0
18.098,2.293,-0.328,0.0
16.571,2.099,-0.395,0.0
15.126,1.916,-0.447,0.0
26.063,3.299,-0.051,1.0
22.493,2.846,-0.172,1.0
19.67,2.489,-0.263,0.0
17.681,2.237,-0.34,0.0
16.163,2.044,-0.403,0.0
14.934,1.889,-0.458,0.0
25.388,3.208,-0.077,0.0
22.039,2.784,-0.193,0.0
19.4,2.45,-0.281,0.0
17.296,2.184,-0.352,0.0
15.832,1.999,-0.413,0.0
14.62,1.845,-0.465,0.0
23.982,3.024,-0.1,1.0
21.276,2.682,-0.21,0.0
18.977,2.391,-0.296,0.0
17.044,2.147,-0.366,0.0
15.609,1.966,-0.424,0.0
14.395,1.813,-0.474,0.0
23.709,2.982,-0.125,2.0
20.99,2.639,-0.231,0.0
18.443,2.318,-0.308,0.0
16.845,2.117,-0.38,0.0
15.351,1.928,-0.434,0.0
14.156,1.778,-0.481,0.0
23.258,2.917,-0.147,1.0
20.367,2.553,-0.246,0.0
18.145,2.274,-0.323,0.0
16.462,2.062,-0.389,0.0
15.177,1.901,-0.445,0.0
13.923,1.743,-0.488,0.0
22.56,2.82,-0.167,1.0
20.013,2.501,-0.263,0.0
17.82,2.226,-0.336,0.0
15.986,1.996,-0.395,0.0
14.951,1.866,-0.455,0.0
13.787,1.72,-0.498,0.0
22.178,2.762,-0.188,0.0
19.431,2.419,-0.276,0.0
17.471,2.174,-0.348,0.0
15.867,1.973,-0.409,0.0
14.735,1.832,-0.464,0.0
13.604,1.691,-0.506,0.0
21.395,2.654,-0.204,0.0
19.07,2.364,-0.291,0.0
17.174,2.128,-0.36,0.0
15.661,1.94,-0.42,0.0
14.441,1.788,-0.47,0.0
13.401,1.659,-0.512,0.0
20.839,2.574,-0.22,0.0
18.655,2.303,-0.304,0.0
16.861,2.08,-0.371,0.0
15.462,1.907,-0.43,0.0
14.269,1.759,-0.479,0.0
13.206,1.627,-0.519,0.0
20.547,2.526,-0.238,0.0
18.272,2.245,-0.316,0.0
16.658,2.045,-0.384,0.0
15.257,1.872,-0.44,0.0
14.003,1.717,-0.484,0.0
13.06,1.601,-0.526,0.0
20.08,2.456,-0.253,0.0
17.891,2.187,-0.328,0.0
16.343,1.996,-0.393,0.0
15.03,1.835,-0.449,0.0
13.768,1.68,-0.49,0.0
12.889,1.572,-0.532,0.0
19.654,2.39,-0.267,0.0
17.584,2.137,-0.339,0.0
15.98,1.941,-0.4,0.0
14.75,1.79,-0.455,0.0
13.676,1.659,-0.5,0.0
12.761,1.547,-0.54,0.0
19.311,2.335,-0.281,0.0
17.318,2.092,-0.351,0.0
15.783,1.905,-0.41,0.0
14.495,1.749,-0.461,0.0
13.492,1.627,-0.506,0.0
12.635,1.522,-0.546,0.0
18.842,2.264,-0.293,0.0
17.052,2.047,-0.362,0.0
15.629,1.875,-0.421,0.0
14.315,1.716,-0.469,0.0
13.368,1.601,-0.514,0.0
12.495,1.496,-0.552,0.0
18.466,2.204,-0.304,0.0
16.846,2.009,-0.373,0.0
15.426,1.838,-0.43,0.0
14.082,1.677,-0.474,0.0
13.19,1.569,-0.52,0.0
12.363,1.47,-0.558,0.0
18.158,2.152,-0.316,0.0
16.624,1.968,-0.383,0.0
15.123,1.789,-0.435,0.0
13.929,1.646,-0.482,0.0
13.034,1.539,-0.525,0.0
12.256,1.446,-0.564,0.0
17.869,2.102,-0.326,0.0
16.242,1.909,-0.389,0.0
14.998,1.761,-0.445,0.0
13.792,1.618,-0.489,0.0
12.92,1.514,-0.532,0.0
12.122,1.42,-0.568,0.0
17.576,2.051,-0.336,0.0
16.092,1.876,-0.399,0.0
14.775,1.721,-0.451,0.0
13.634,1.587,-0.495,0.0
12.751,1.483,-0.536,0.0
12.03,1.397,-0.574,0.0
17.333,2.006,-0.346,0.0
15.809,1.828,-0.406,0.0
14.604,1.687,-0.458,0.0
13.541,1.563,-0.503,0.0
12.61,1.454,-0.54,0.0
11.783,1.357,-0.572,0.0
17.138,1.967,-0.356,0.0
15.684,1.798,-0.415,0.0
14.426,1.652,-0.464,0.0
13.369,1.529,-0.507,0.0
12.506,1.429,-0.546,0.0
11.742,1.341,-0.58,0.0
16.891,1.921,-0.365,0.0
15.487,1.759,-0.422,0.0
14.212,1.613,-0.468,0.0
13.301,1.507,-0.515,0.0
12.486,1.414,-0.555,0.0
11.619,1.314,-0.582,0.0
16.692,1.881,-0.373,0.0
15.298,1.721,-0.429,0.0
14.077,1.582,-0.475,0.0
13.139,1.475,-0.519,0.0
12.34,1.384,-0.558,0.0
11.551,1.294,-0.588,0.0
16.553,1.847,-0.382,0.0
15.158,1.689,-0.436,0.0
13.97,1.554,-0.481,0.0
13.02,1.447,-0.524,0.0
12.215,1.356,-0.561,0.0
11.425,1.267,-0.589,0.0
16.319,1.802,-0.389,0.0
15.019,1.656,-0.443,0.0
13.791,1.519,-0.485,0.0
12.907,1.419,-0.528,0.0
12.152,1.335,-0.566,0.0
11.366,1.247,-0.594,0.0
16.05,1.753,-0.393,0.0
14.816,1.616,-0.447,0.0
13.691,1.491,-0.49,0.0
12.82,1.394,-0.533,0.0
12.042,1.308,-0.569,0.0
11.264,1.222,-0.596,0.0
15.97,1.725,-0.402,0.0
14.662,1.581,-0.452,0.0
13.591,1.464,-0.496,0.0
12.612,1.356,-0.533,0.0
11.937,1.282,-0.572,0.0
11.168,1.198,-0.598,0.0
15.774,1.684,-0.406,0.0
14.551,1.551,-0.457,0.0
13.498,1.437,-0.5,0.0
12.576,1.337,-0.539,0.0
11.827,1.255,-0.574,0.0
11.131,1.18,-0.603,0.0
15.735,1.66,-0.415,0.0
14.345,1.511,-0.459,0.0
13.366,1.405,-0.504,0.0
12.534,1.316,-0.544,0.0
11.786,1.236,-0.579,0.0
11.085,1.161,-0.607,0.0
15.566,1.622,-0.419,0.0
14.243,1.481,-0.464,0.0
13.332,1.384,-0.51,0.0
12.499,1.296,-0.55,0.0
11.68,1.209,-0.58,0.0
10.998,1.137,-0.608,0.0
15.467,1.591,-0.425,0.0
14.188,1.457,-0.47,0.0
13.233,1.356,-0.513,0.0
12.382,1.267,-0.551,0.0
11.612,1.186,-0.582,0.0
10.921,1.114,-0.609,0.0
15.286,1.551,-0.427,0.0
14.055,1.424,-0.472,0.0
13.228,1.338,-0.519,0.0
12.32,1.244,-0.554,0.0
11.486,1.157,-0.581,0.0
10.89,1.096,-0.613,0.0
15.117,1.513,-0.429,0.0
14.022,1.401,-0.477,0.0
13.126,1.309,-0.521,0.0
12.188,1.213,-0.554,0.0
11.491,1.141,-0.587,0.0
10.841,1.075,-0.615,0.0
15.004,1.48,-0.433,0.0
13.895,1.368,-0.479,0.0
12.962,1.274,-0.52,0.0
12.176,1.194,-0.558,0.0
11.453,1.121,-0.59,0.0
10.802,1.056,-0.617,0.0
14.92,1.45,-0.436,0.0
13.82,1.341,-0.482,0.0
12.882,1.247,-0.521,0.0
12.11,1.17,-0.56,0.0
11.414,1.101,-0.592,0.0
10.761,1.036,-0.619,0.0
14.902,1.426,-0.441,0.0
13.73,1.311,-0.483,0.0
12.81,1.221,-0.523,0.0
12.057,1.147,-0.561,0.0
11.332,1.076,-0.591,0.0
10.693,1.013,-0.618,0.0
14.841,1.398,-0.444,0.0
13.693,1.287,-0.486,0.0
12.802,1.201,-0.527,0.0
12.038,1.127,-0.564,0.0
11.339,1.059,-0.595,0.0
10.663,0.994,-0.62,0.0
14.786,1.37,-0.447,0.0
13.633,1.261,-0.488,0.0
12.74,1.175,-0.528,0.0
11.998,1.105,-0.566,0.0
11.248,1.033,-0.593,0.0
10.645,0.976,-0.621,0.0
14.667,1.336,-0.447,0.0
13.603,1.237,-0.49,0.0
12.667,1.149,-0.528,0.0
11.974,1.084,-0.567,0.0
11.239,1.015,-0.595,0.0
10.645,0.959,-0.624,0.0
14.531,1.301,-0.446,0.0
13.593,1.214,-0.493,0.0
12.678,1.13,-0.531,0.0
11.926,1.06,-0.567,0.0
11.243,0.997,-0.598,0.0
10.585,0.937,-0.622,0.0
14.562,1.28,-0.449,0.0
13.556,1.189,-0.494,0.0
12.606,1.103,-0.53,0.0
11.903,1.039,-0.568,0.0
11.197,0.975,-0.597,0.0
10.581,0.919,-0.623,0.0
14.548,1.256,-0.451,0.0
13.47,1.16,-0.493,0.0
12.612,1.083,-0.532,0.0
11.9,1.019,-0.569,0.0
11.157,0.953,-0.596,0.0
10.573,0.901,-0.624,0.0
14.44,1.223,-0.449,0.0
13.525,1.142,-0.496,0.0
12.623,1.063,-0.533,0.0
11.856,0.996,-0.568,0.0
11.133,0.933,-0.596,0.0
10.514,0.879,-0.621,0.0
14.527,1.206,-0.453,0.0
13.464,1.115,-0.494,0.0
12.595,1.04,-0.533,0.0
11.834,0.974,-0.568,0.0
11.113,0.913,-0.595,0.0
10.544,0.864,-0.623,0.0
14.505,1.18,-0.452,0.0
13.463,1.092,-0.495,0.0
12.573,1.017,-0.532,0.0
11.842,0.955,-0.568,0.0
11.176,0.899,-0.598,0.0
10.513,0.843,-0.621,0.0
14.463,1.152,-0.451,0.0
13.468,1.07,-0.495,0.0
12.588,0.997,-0.532,0.0
11.759,0.929,-0.564,0.0
11.174,0.88,-0.598,0.0
10.524,0.826,-0.622,0.0
14.491,1.13,-0.451,0.0
13.491,1.049,-0.495,0.0
12.596,0.976,-0.532,0.0
11.872,0.917,-0.568,0.0
11.121,0.856,-0.594,0.0
10.519,0.808,-0.62,0.0
14.497,1.105,-0.45,0.0
13.498,1.026,-0.494,0.0
12.6,0.954,-0.531,0.0
11.871,0.896,-0.567,0.0
11.146,0.839,-0.594,0.0
10.527,0.79,-0.619,0.0
14.515,1.081,-0.449,0.0
13.537,1.005,-0.493,0.0
12.567,0.93,-0.527,0.0
11.894,0.877,-0.566,0.0
11.192,0.823,-0.595,0.0
10.534,0.772,-0.618,0.0
14.584,1.061,-0.448,0.0
13.543,0.982,-0.491,0.0
12.646,0.913,-0.528,0.0
11.876,0.855,-0.563,0.0
11.249,0.807,-0.595,0.0
10.56,0.755,-0.617,0.0
14.619,1.038,-0.446,0.0
13.6,0.962,-0.49,0.0
12.666,0.893,-0.526,0.0
11.921,0.837,-0.562,0.0
11.238,0.786,-0.592,0.0
10.567,0.737,-0.615,0.0
14.716,1.018,-0.445,0.0
13.636,0.94,-0.488,0.0
12.742,0.875,-0.526,0.0
11.941,0.817,-0.56,0.0
11.26,0.768,-0.59,0.0
10.551,0.717,-0.611,0.0
14.717,0.992,-0.441,0.0
13.676,0.918,-0.485,0.0
12.76,0.854,-0.523,0.0
11.97,0.798,-0.558,0.0
11.303,0.75,-0.589,0.0
10.605,0.701,-0.611,0.0
14.821,0.973,-0.439,0.0
13.756,0.899,-0.483,0.0
12.748,0.83,-0.518,0.0
12.029,0.78,-0.556,0.0
11.293,0.729,-0.584,0.0
10.684,0.687,-0.611,0.0
14.835,0.947,-0.434,0.0
13.814,0.878,-0.48,0.0
12.921,0.818,-0.52,0.0
12.062,0.761,-0.553,0.0
11.39,0.715,-0.584,0.0
10.722,0.671,-0.609,0.0
14.95,0.928,-0.431,0.0
13.868,0.857,-0.476,0.0
12.904,0.794,-0.514,0.0
12.189,0.746,-0.553,0.0
11.473,0.699,-0.584,0.0
10.781,0.655,-0.608,0.0
15.066,0.908,-0.428,0.0
13.905,0.834,-0.471,0.0
13.022,0.777,-0.512,0.0
12.271,0.729,-0.551,0.0
11.455,0.678,-0.577,0.0
10.869,0.64,-0.607,0.0
15.212,0.889,-0.424,0.0
14.005,0.814,-0.467,0.0
13.089,0.757,-0.508,0.0
12.293,0.708,-0.545,0.0
11.581,0.664,-0.577,0.0
10.919,0.623,-0.604,0.0
15.268,0.864,-0.417,0.0
14.129,0.796,-0.463,0.0
13.2,0.74,-0.505,0.0
12.346,0.689,-0.541,0.0
11.636,0.646,-0.573,0.0
10.939,0.604,-0.599,0.0
15.41,0.844,-0.412,0.0
14.149,0.771,-0.456,0.0
13.262,0.719,-0.499,0.0
12.412,0.67,-0.536,0.0
11.694,0.628,-0.569,0.0
10.953,0.585,-0.593,0.0
15.565,0.825,-0.407,0.0
14.234,0.75,-0.45,0.0
13.354,0.7,-0.494,0.0
12.525,0.653,-0.533,0.0
11.761,0.61,-0.565,0.0
11.1,0.573,-0.594,0.0
15.746,0.806,-0.401,0.0
14.48,0.737,-0.448,0.0
13.508,0.684,-0.491,0.0
12.61,0.635,-0.528,0.0
11.903,0.596,-0.563,0.0
11.221,0.559,-0.592,0.0
15.829,0.781,-0.392,0.0
14.664,0.72,-0.443,0.0
13.572,0.662,-0.484,0.0
12.698,0.616,-0.523,0.0
11.971,0.577,-0.558,0.0
11.284,0.541,-0.587,0.0
16.076,0.764,-0.387,0.0
14.745,0.697,-0.434,0.0
13.697,0.643,-0.478,0.0
12.778,0.597,-0.516,0.0
12.116,0.562,-0.555,0.0
11.349,0.524,-0.582,0.0
16.212,0.741,-0.377,0.0
14.863,0.675,-0.426,0.0
13.845,0.625,-0.472,0.0
12.879,0.578,-0.51,0.0
12.179,0.543,-0.548,0.0
11.421,0.506,-0.576,0.0
16.41,0.721,-0.369,0.0
15.202,0.663,-0.423,0.0
13.951,0.605,-0.464,0.0
13.065,0.563,-0.506,0.0
12.344,0.528,-0.545,0.0
11.578,0.492,-0.574,0.0
16.642,0.701,-0.359,0.0
15.38,0.643,-0.415,0.0
14.169,0.589,-0.459,0.0
13.229,0.546,-0.501,0.0
12.445,0.51,-0.538,0.0
11.698,0.476,-0.569,0.0
16.851,0.68,-0.349,0.0
15.652,0.627,-0.408,0.0
14.406,0.573,-0.453,0.0
13.398,0.529,-0.495,0.0
12.605,0.494,-0.534,0.0
11.813,0.46,-0.564,0.0
17.086,0.659,-0.338,0.0
15.805,0.605,-0.397,0.0
14.535,0.552,-0.444,0.0
13.574,0.512,-0.489,0.0
12.753,0.478,-0.528,0.0
11.978,0.445,-0.56,0.0
17.322,0.637,-0.326,0.0
16.008,0.584,-0.387,0.0
14.742,0.534,-0.435,0.0
13.701,0.492,-0.479,0.0
12.876,0.459,-0.52,0.0
12.056,0.427,-0.551,0.0
17.762,0.622,-0.316,0.0
16.259,0.565,-0.376,0.0
14.83,0.511,-0.423,0.0
13.794,0.472,-0.469,0.0
13.08,0.444,-0.515,0.0
12.303,0.414,-0.55,0.0
18.116,0.603,-0.303,0.0
16.528,0.545,-0.365,0.0
15.081,0.493,-0.414,0.0
14.092,0.457,-0.464,0.0
13.144,0.423,-0.503,0.0
12.421,0.396,-0.542,0.0
18.452,0.582,-0.289,0.0
16.788,0.525,-0.353,0.0
15.534,0.481,-0.409,0.0
14.286,0.439,-0.454,0.0
13.311,0.405,-0.494,0.0
12.533,0.378,-0.533,0.0
18.939,0.565,-0.275,0.0
17.056,0.504,-0.339,0.0
15.816,0.463,-0.399,0.0
14.43,0.418,-0.442,0.0
13.507,0.388,-0.486,0.0
12.721,0.362,-0.526,0.0
19.582,0.55,-0.262,0.0
17.395,0.484,-0.326,0.0
16.041,0.442,-0.386,0.0
14.662,0.4,-0.432,0.0
13.737,0.371,-0.478,0.0
12.923,0.345,-0.519,0.0
20.115,0.531,-0.245,0.0
17.885,0.467,-0.313,0.0
16.392,0.424,-0.374,0.0
15.026,0.384,-0.425,0.0
13.921,0.352,-0.468,0.0
13.078,0.327,-0.509,0.0
20.802,0.514,-0.228,0.0
18.305,0.447,-0.298,0.0
16.685,0.403,-0.36,0.0
15.381,0.368,-0.415,0.0
14.198,0.335,-0.459,0.0
13.217,0.309,-0.497,0.0
21.668,0.499,-0.21,0.0
18.763,0.427,-0.282,0.0
16.923,0.381,-0.344,0.0
15.716,0.349,-0.404,0.0
14.499,0.318,-0.45,0.0
13.483,0.292,-0.49,0.0
22.169,0.474,-0.186,1.0
19.535,0.413,-0.268,0.0
17.324,0.361,-0.329,0.0
15.997,0.329,-0.39,0.0
14.72,0.299,-0.437,0.0
13.732,0.275,-0.481,0.0
22.97,0.454,-0.162,0.0
20.056,0.391,-0.248,0.0
17.773,0.342,-0.314,0.0
16.325,0.31,-0.376,0.0
14.99,0.28,-0.425,0.0
13.967,0.258,-0.47,0.0
23.626,0.429,-0.135,0.0
20.454,0.366,-0.225,0.0
18.221,0.321,-0.297,0.0
16.627,0.289,-0.36,0.0
15.34,0.262,-0.413,0.0
14.202,0.239,-0.458,0.0
24.407,0.404,-0.105,0.0
21.787,0.355,-0.209,0.0
18.718,0.3,-0.278,0.0
16.977,0.268,-0.344,0.0
15.739,0.244,-0.402,0.0
14.552,0.222,-0.448,0.0
25.268,0.379,-0.073,0.0
22.362,0.33,-0.183,0.0
19.506,0.283,-0.262,0.0
17.412,0.248,-0.327,0.0
16.132,0.225,-0.388,0.0
14.788,0.203,-0.434,0.0
26.047,0.351,-0.038,0.0
23.211,0.307,-0.156,0.0
20.357,0.264,-0.244,0.0
17.917,0.228,-0.311,0.0
16.494,0.205,-0.373,0.0
15.157,0.185,-0.422,0.0
26.791,0.32,0.0,0.0
23.946,0.28,-0.125,0.0
21.465,0.245,-0.225,1.0
18.451,0.206,-0.292,0.0
16.758,0.183,-0.353,0.0
15.554,0.166,-0.41,0.0
27.998,0.292,0.042,0.0
24.911,0.254,-0.092,0.0
22.06,0.22,-0.198,3.0
19.097,0.185,-0.273,0.0
17.173,0.162,-0.336,0.0
15.896,0.146,-0.394,0.0
28.776,0.258,0.088,5.0
25.833,0.226,-0.056,0.0
22.652,0.192,-0.168,0.0
19.916,0.164,-0.254,0.0
17.639,0.141,-0.317,0.0
16.329,0.126,-0.379,0.0
28.892,0.217,0.134,2.0
26.621,0.194,-0.015,0.0
23.567,0.166,-0.137,0.0
20.872,0.142,-0.232,1.0
18.359,0.12,-0.3,0.0
16.633,0.105,-0.359,0.0
0.0,0.0,0.0,0.0
27.594,0.161,0.028,0.0
24.822,0.139,-0.104,0.0
21.781,0.117,-0.207,3.0
18.933,0.097,-0.279,0.0
17.076,0.084,-0.341,0.0
31.921,0.15,0.251,0.0
28.613,0.127,0.076,1.0
25.517,0.108,-0.065,0.0
22.685,0.09,-0.179,1.0
19.898,0.075,-0.261,0.0
17.616,0.062,-0.323,0.0
33.625,0.112,0.32,0.0
28.867,0.089,0.124,1.0
26.529,0.076,-0.024,0.0
23.504,0.062,-0.146,1.0
20.944,0.051,-0.24,2.0
18.322,0.04,-0.305,0.0
36.018,0.071,0.403,0.0
29.734,0.052,0.178,0.0
27.429,0.042,0.021,0.0
24.413,0.032,-0.11,0.0
21.495,0.023,-0.209,2.0
18.818,0.016,-0.281,0.0
0.0,0.0,0.0,0.0
31.966,0.014,0.246,0.0
28.561,0.006,0.071,1.0
25.483,0.0,-0.071,0.0
22.779,-0.004,-0.183,0.0
19.835,-0.007,-0.262,0.0
0.0,0.0,0.0,0.0
33.309,-0.027,0.314,0.0
28.829,-0.03,0.122,3.0
26.411,-0.032,-0.028,0.0
23.567,-0.034,-0.148,0.0
20.744,-0.034,-0.238,0.0
42.751,-0.08,0.701,0.0
35.397,-0.074,0.396,0.0
30.539,-0.069,0.183,1.0
27.557,-0.068,0.019,0.0
24.615,-0.066,-0.11,0.0
21.673,-0.062,-0.21,0.0
0.0,0.0,0.0,0.0
37.249,-0.123,0.483,0.0
32.184,-0.113,0.25,1.0
28.713,-0.106,0.071,6.0
25.33,-0.098,-0.068,0.0
22.839,-0.093,-0.18,0.0
0.0,0.0,0.0,0.0
40.656,-0.182,0.6,0.0
33.485,-0.156,0.32,0.0
28.821,-0.14,0.123,6.0
26.466,-0.133,-0.024,0.0
23.759,-0.124,-0.144,0.0
0.0,0.0,0.0,0.0
0.0,0.0,0.0,0.0
35.57,-0.207,0.404,0.0
31.238,-0.187,0.19,1.0
27.805,-0.172,0.025,0.0
24.792,-0.158,-0.106,0.0
0.0,0.0,0.0,0.0
0.0,0.0,0.0,0.0
0.0,0.0,0.0,0.0
32.275,-0.229,0.256,1.0
28.73,-0.209,0.079,6.0
25.72,-0.192,-0.062,0.0
0.0,0.0,0.0,0.0
0.0,0.0,0.0,0.0
40.082,-0.321,0.604,0.0
33.754,-0.276,0.33,1.0
28.842,-0.241,0.133,1.0
27.036,-0.231,-0.015,0.0
83.073,-0.725,2.269,1.0
0.0,0.0,0.0,0.0
0.0,0.0,0.0,0.0
36.191,-0.334,0.421,0.0
31.447,-0.295,0.204,1.0
27.901,-0.266,0.036,0.0
83.533,-0.814,2.438,1.0
0.0,0.0,0.0,0.0
0.0,0.0,0.0,0.0
37.64,-0.385,0.509,0.0
32.588,-0.338,0.272,1.0
28.659,-0.302,0.09,1.0
90.473,-0.971,2.81,11.0
0.0,0.0,0.0,0.0
0.0,0.0,0.0,0.0
0.0,0.0,0.0,0.0
33.983,-0.385,0.347,0.0
30.486,-0.35,0.154,0.0
90.722,-1.06,2.99,16.0
84.868,-1.003,2.356,1.0
0.0,0.0,0.0,0.0
0.0,0.0,0.0,0.0
37.332,-0.458,0.453,0.0
32.236,-0.4,0.224,0.0
0.0,0.0,0.0,0.0
89.843,-1.145,2.668,2.0
0.0,0.0,0.0,0.0
0.0,0.0,0.0,0.0
38.684,-0.509,0.544,0.0
33.513,-0.446,0.298,1.0
171.423,-2.311,6.308,15.0
89.987,-1.225,2.845,2.0
0.0,0.0,0.0,0.0
0.0,0.0,0.0,0.0
0.0,0.0,0.0,0.0
34.738,-0.491,0.377,0.0
171.757,-2.462,6.656,18.0
0.0,0.0,0.0,0.0
86.716,-1.265,2.463,1.0
0.0,0.0,0.0,0.0
45.494,-0.675,0.816,0.0
37.67,-0.563,0.482,0.0
168.511,-2.551,6.858,5.0
0.0,0.0,0.0,0.0
89.69,-1.379,2.722,3.0
63.87,-0.99,1.602,0.0
0.0,0.0,0.0,0.0
0.0,0.0,0.0,0.0
193.863,-3.085,8.27,12.0
0.0,0.0,0.0,0.0
96.909,-1.564,3.132,13.0
0.0,0.0,0.0,0.0
0.0,0.0,0.0,0.0
0.0,0.0,0.0,0.0
193.507,-3.221,8.634,6.0
171.523,-2.873,6.765,7.0
97.011,-1.635,3.325,11.0
88.441,-1.501,2.566,1.0
0.0,0.0,0.0,0.0
0.0,0.0,0.0,0.0
190.754,-3.309,8.887,8.0
0.0,0.0,0.0,0.0
97.024,-1.701,3.515,9.0
96.629,-1.704,2.993,5.0
0.0,0.0,0.0,0.0
0.0,0.0,0.0,0.0
190.467,-3.428,9.247,15.0
193.7,-3.503,8.402,6.0
96.998,-1.763,3.705,13.0
96.916,-1.77,3.191,27.0
0.0,0.0,0.0,0.0
0.0,0.0,0.0,0.0
190.464,-3.544,9.62,23.0
190.126,-3.554,8.618,19.0
96.968,-1.821,3.895,10.0
96.95,-1.828,3.382,42.0
89.925,-1.703,2.673,1.0
0.0,0.0,0.0,0.0
190.148,-3.649,9.98,23.0
190.146,-3.664,8.995,14.0
96.952,-1.875,4.086,9.0
96.923,-1.882,3.574,43.0
96.844,-1.887,3.07,11.0
0.0,0.0,0.0,0.0
99.216,-1.957,5.403,8.0
190.358,-3.769,9.382,21.0
96.857,-1.925,4.273,7.0
96.923,-1.933,3.766,53.0
96.989,-1.94,3.267,17.0
90.529,-1.817,2.583,1.0
99.078,-2.005,5.595,24.0
190.247,-3.863,9.757,16.0
96.866,-1.972,4.466,6.0
96.903,-1.979,3.957,46.0
96.977,-1.986,3.46,22.0
96.814,-1.988,2.953,3.0
99.104,-2.052,5.791,15.0
128.358,-2.665,6.837,13.0
96.854,-2.015,4.656,5.0
96.876,-2.021,4.147,46.0
96.964,-2.028,3.651,30.0
96.835,-2.03,3.145,5.0
106.009,-2.24,6.406,8.0
128.274,-2.717,7.088,9.0
96.856,-2.055,4.849,10.0
96.869,-2.06,4.338,48.0
96.951,-2.066,3.843,29.0
128.444,-2.743,4.427,8.0
96.695,-2.08,6.035,21.0
96.81,-2.087,5.54,11.0
96.857,-2.092,5.042,12.0
96.818,-2.094,4.528,48.0
96.919,-2.1,4.031,31.0
128.442,-2.788,4.68,21.0
86.73,-1.897,5.586,12.0
96.732,-2.118,5.727,28.0
96.871,-2.124,5.234,14.0
96.817,-2.126,4.719,47.0
96.898,-2.13,4.221,39.0
128.439,-2.827,4.932,12.0
86.559,-1.92,5.744,22.0
96.654,-2.145,5.913,25.0
88.288,-1.962,4.943,15.0
96.801,-2.153,4.908,28.0
96.847,-2.156,4.408,44.0
124.444,-2.773,5.021,11.0
86.488,-1.941,5.91,14.0
76.45,-1.717,4.826,13.0
96.751,-2.174,5.606,31.0
96.784,-2.177,5.097,19.0
96.815,-2.179,4.598,49.0
124.465,-2.802,5.266,15.0
76.009,-1.724,5.343,27.0
86.594,-1.964,5.636,15.0
96.68,-2.193,5.79,38.0
88.204,-2.002,4.817,22.0
96.803,-2.198,4.784,42.0
96.913,-2.2,4.288,21.0
76.036,-1.739,5.494,12.0
86.51,-1.978,5.801,18.0
96.577,-2.209,5.974,17.0
88.31,-2.02,4.996,21.0
96.776,-2.212,4.973,30.0
96.838,-2.214,4.475,24.0
76.656,-1.765,5.689,11.0
75.944,-1.747,5.24,11.0
86.664,-1.994,5.529,9.0
96.727,-2.225,5.659,27.0
88.232,-2.028,4.703,19.0
96.833,-2.225,4.659,38.0
76.667,-1.774,5.837,22.0
75.949,-1.756,5.388,28.0
86.543,-1.999,5.688,22.0
96.692,-2.232,5.843,22.0
88.267,-2.036,4.876,27.0
96.768,-2.231,4.843,36.0
76.725,-1.781,5.99,22.0
87.144,-2.021,6.349,6.0
86.521,-2.004,5.854,10.0
96.501,-2.233,6.017,18.0
88.358,-2.042,5.051,15.0
96.778,-2.235,5.03,24.0
76.668,-1.782,6.135,24.0
76.665,-1.78,5.734,24.0
75.901,-1.759,5.281,24.0
86.596,-2.005,5.565,13.0
96.778,-2.238,5.717,26.0
88.247,-2.037,4.753,25.0
66.878,-1.554,5.479,12.0
76.676,-1.78,5.88,22.0
75.995,-1.76,5.431,21.0
86.532,-2.001,5.724,22.0
96.646,-2.232,5.889,20.0
88.305,-2.035,4.921,25.0
66.876,-1.552,5.604,15.0
76.728,-1.777,6.028,24.0
76.662,-1.772,5.623,7.0
86.528,-1.996,5.885,6.0
96.497,-2.222,6.06,12.0
96.713,-2.222,5.57,17.0
63.678,-1.472,5.455,8.0
76.664,-1.769,6.166,27.0
76.687,-1.766,5.766,21.0
75.96,-1.744,5.307,31.0
86.598,-1.984,5.6,14.0
96.702,-2.211,5.749,33.0
63.601,-1.464,5.567,28.0
66.889,-1.535,5.503,19.0
76.697,-1.756,5.909,20.0
76.031,-1.736,5.453,18.0
86.512,-1.97,5.752,22.0
96.645,-2.195,5.921,20.0
63.557,-1.453,5.68,20.0
66.951,-1.525,5.632,17.0
76.736,-1.744,6.052,33.0
89.738,-2.033,6.599,7.0
76.047,-1.718,5.195,9.0
76.478,-1.722,4.824,14.0
65.672,-1.488,5.989,16.0
63.662,-1.438,5.471,18.0
76.665,-1.727,6.186,27.0
76.767,-1.723,5.784,27.0
76.002,-1.7,5.328,28.0
86.664,-1.932,5.621,15.0
64.059,-1.437,5.957,20.0
63.624,-1.422,5.582,24.0
76.189,-1.697,6.284,13.0
76.716,-1.703,5.918,27.0
76.102,-1.683,5.47,13.0
86.471,-1.905,5.763,27.0
64.137,-1.422,6.079,29.0
63.648,-1.405,5.697,22.0
66.911,-1.471,5.638,11.0
76.722,-1.681,6.053,31.0
76.457,-1.669,5.631,9.0
76.264,-1.658,5.217,11.0
0.0,0.0,0.0,0.0
63.731,-1.388,5.817,22.0
66.898,-1.45,5.753,8.0
76.49,-1.651,6.168,42.0
87.158,-1.874,6.57,11.0
76.222,-1.632,5.345,23.0
64.153,-1.381,6.305,14.0
64.163,-1.375,5.967,32.0
63.677,-1.359,5.586,26.0
76.219,-1.618,6.276,26.0
76.746,-1.622,5.916,11.0
76.259,-1.604,5.478,25.0
64.201,-1.359,6.421,29.0
64.059,-1.349,6.067,30.0
63.665,-1.334,5.693,21.0
76.374,-1.592,6.418,8.0
76.729,-1.591,6.043,14.0
76.407,-1.577,5.616,25.0
64.263,-1.334,6.535,30.0
64.278,-1.327,6.195,35.0
63.879,-1.312,5.818,24.0
63.601,-1.299,5.45,7.0
76.573,-1.555,6.158,17.0
76.473,-1.545,5.747,21.0
64.688,-1.314,6.686,28.0
64.508,-1.303,6.324,35.0
63.972,-1.285,5.933,29.0
63.64,-1.271,5.558,32.0
73.577,-1.461,6.038,20.0
76.355,-1.507,5.863,13.0
64.813,-1.286,6.806,26.0
64.306,-1.268,6.41,28.0
64.117,-1.257,6.051,26.0
63.751,-1.241,5.671,29.0
73.497,-1.423,6.149,27.0
75.212,-1.447,5.895,13.0
64.77,-1.253,6.905,28.0
64.33,-1.236,6.515,29.0
64.253,-1.226,6.166,29.0
63.835,-1.21,5.781,29.0
73.714,-1.387,6.284,18.0
76.496,-1.43,6.116,10.0
64.758,-1.218,7.007,28.0
64.535,-1.205,6.638,35.0
64.381,-1.193,6.279,33.0
63.953,-1.176,5.891,21.0
67.396,-1.231,5.85,24.0
74.269,-1.346,6.052,29.0
64.86,-1.182,7.119,30.0
65.204,-1.18,6.808,34.0
64.493,-1.157,6.389,30.0
64.081,-1.141,6.001,30.0
67.438,-1.192,5.956,7.0
73.835,-1.294,6.128,11.0
64.887,-1.144,7.22,25.0
65.121,-1.139,6.897,40.0
64.401,-1.117,6.477,35.0
64.218,-1.104,6.109,21.0
64.182,-1.094,5.764,38.0
65.428,-1.106,5.528,21.0
68.012,-1.156,7.67,19.0
65.086,-1.096,6.991,28.0
64.612,-1.078,6.594,34.0
64.389,-1.065,6.22,32.0
63.955,-1.049,5.836,29.0
65.34,-1.062,5.615,29.0
68.093,-1.112,7.777,21.0
65.38,-1.058,7.116,37.0
64.792,-1.038,6.704,39.0
64.339,-1.022,6.306,35.0
64.172,-1.009,5.947,32.0
65.262,-1.016,5.699,35.0
63.028,-0.986,7.289,11.0
65.417,-1.013,7.212,24.0
65.229,-1.0,6.841,34.0
64.444,-0.978,6.406,28.0
64.124,-0.963,6.031,33.0
64.118,-0.953,5.688,30.0
63.056,-0.94,7.38,10.0
73.536,-1.086,8.21,8.0
65.139,-0.951,6.921,27.0
64.325,-0.929,6.483,26.0
64.077,-0.915,6.114,27.0
64.003,-0.903,5.765,20.0
64.279,-0.911,7.611,10.0
73.388,-1.028,8.293,30.0
65.468,-0.906,7.045,17.0
64.384,-0.881,6.575,29.0
64.219,-0.868,6.213,30.0
63.811,-0.851,5.831,28.0
63.889,-0.856,7.649,40.0
63.202,-0.836,7.226,37.0
58.02,-0.757,6.319,18.0
64.694,-0.834,6.69,29.0
64.354,-0.819,6.309,28.0
63.725,-0.8,5.905,26.0
63.564,-0.801,7.692,15.0
63.191,-0.785,7.304,27.0
0.0,0.0,0.0,0.0
58.151,-0.702,6.087,24.0
64.407,-0.767,6.394,17.0
63.803,-0.749,5.991,21.0
57.938,-0.682,7.084,11.0
59.278,-0.687,6.926,22.0
64.109,-0.732,7.143,24.0
57.822,-0.65,6.123,32.0
64.391,-0.713,6.471,26.0
58.056,-0.632,5.522,14.0
57.882,-0.632,7.148,24.0
59.344,-0.638,7.005,21.0
64.184,-0.678,7.228,35.0
56.881,-0.591,6.091,20.0
64.724,-0.66,6.581,30.0
58.065,-0.582,5.59,26.0
58.002,-0.583,7.231,28.0
63.907,-0.631,7.619,33.0
63.621,-0.616,7.238,31.0
56.754,-0.539,6.143,27.0
58.463,-0.545,6.011,21.0
58.15,-0.531,5.664,21.0
58.092,-0.531,7.308,33.0
63.62,-0.571,7.656,17.0
63.488,-0.557,7.294,13.0
64.069,-0.55,7.006,17.0
0.0,0.0,0.0,0.0
58.308,-0.48,5.743,8.0
57.638,-0.475,7.314,30.0
63.687,-0.512,7.733,12.0
59.419,-0.467,6.89,16.0
64.234,-0.493,7.091,29.0
56.942,-0.427,5.977,22.0
64.976,-0.475,6.467,18.0
57.848,-0.422,7.402,33.0
57.811,-0.411,7.08,32.0
59.411,-0.411,6.951,26.0
63.406,-0.427,7.066,31.0
56.937,-0.372,6.034,27.0
65.314,-0.415,6.567,9.0
58.134,-0.369,7.497,29.0
57.539,-0.354,7.105,31.0
59.219,-0.352,6.988,32.0
63.446,-0.366,7.133,37.0
57.018,-0.318,6.099,21.0
58.616,-0.316,5.951,21.0
58.238,-0.312,7.568,23.0
56.998,-0.295,7.093,33.0
59.349,-0.295,7.06,32.0
63.435,-0.303,7.192,26.0
56.84,-0.261,6.133,11.0
0.0,0.0,0.0,0.0
58.346,-0.255,7.636,22.0
56.399,-0.236,7.071,27.0
59.03,-0.235,7.076,33.0
63.454,-0.24,7.251,34.0
56.562,-0.203,6.154,28.0
57.096,-0.194,5.9,27.0
58.483,-0.195,7.707,24.0
56.375,-0.178,7.118,25.0
58.722,-0.174,7.091,28.0
0.0,0.0,0.0,0.0
56.714,-0.145,6.219,22.0
57.097,-0.135,5.949,20.0
58.409,-0.135,7.747,24.0
56.494,-0.12,7.18,24.0
0.0,0.0,0.0,0.0
0.0,0.0,0.0,0.0
56.761,-0.087,6.27,28.0
57.085,-0.077,5.993,31.0
58.51,-0.074,7.807,18.0
0.0,0.0,0.0,0.0
56.516,-0.05,6.915,20.0
59.281,-0.041,6.92,13.0
56.826,-0.028,6.321,27.0
57.028,-0.017,6.03,25.0
58.42,-0.012,7.84,24.0
58.269,-0.001,7.496,24.0
56.588,0.009,6.966,16.0
59.313,0.022,6.968,27.0
64.698,0.037,7.244,15.0
64.423,0.049,6.859,12.0
58.353,0.05,7.873,25.0
58.465,0.061,7.563,32.0
56.583,0.07,7.006,13.0
59.37,0.085,7.016,22.0
64.375,0.105,7.251,10.0
56.924,0.104,6.098,16.0
48.197,0.093,6.536,17.0
58.954,0.126,7.666,33.0
49.023,0.114,6.102,26.0
51.96,0.131,6.174,16.0
0.0,0.0,0.0,0.0
57.03,0.167,6.146,20.0
48.201,0.146,6.566,10.0
59.547,0.192,7.78,15.0
49.032,0.168,6.133,18.0
56.853,0.206,6.79,19.0
63.923,0.245,7.28,26.0
57.035,0.229,6.18,22.0
49.185,0.204,6.729,17.0
48.409,0.21,6.353,28.0
58.426,0.265,7.341,14.0
52.106,0.246,6.252,26.0
52.542,0.259,6.012,12.0
56.528,0.289,6.155,30.0
58.419,0.307,8.024,7.0
48.476,0.264,6.387,22.0
58.481,0.331,7.379,10.0
52.118,0.305,6.28,24.0
56.079,0.339,6.445,6.0
56.282,0.351,6.156,25.0
51.098,0.326,7.044,24.0
48.485,0.319,6.412,22.0
58.489,0.396,7.408,25.0
52.162,0.364,6.31,21.0
52.557,0.377,6.065,10.0
56.118,0.413,6.164,23.0
51.165,0.384,7.076,23.0
48.759,0.376,6.47,23.0
58.69,0.464,7.458,9.0
52.261,0.423,6.344,10.0
52.511,0.436,6.081,13.0
56.179,0.477,6.193,25.0
51.25,0.443,7.109,7.0
50.941,0.451,6.779,4.0
48.6,0.44,6.195,22.0
48.323,0.446,5.884,26.0
57.385,0.541,6.667,19.0
56.187,0.541,6.214,23.0
49.262,0.483,6.851,18.0
51.406,0.514,6.859,18.0
48.78,0.497,6.234,22.0
48.309,0.501,5.898,31.0
57.417,0.607,6.689,26.0
56.378,0.606,6.253,26.0
49.256,0.539,6.865,25.0
49.264,0.549,6.588,23.0
49.067,0.556,6.285,23.0
48.45,0.558,5.929,19.0
57.417,0.672,6.705,20.0
56.452,0.672,6.276,24.0
49.298,0.597,6.884,13.0
49.389,0.607,6.617,19.0
48.937,0.611,6.281,23.0
48.433,0.614,5.939,32.0
49.094,0.631,5.744,2.0
56.59,0.739,6.304,18.0
51.495,0.683,7.202,8.0
49.19,0.661,6.601,23.0
48.991,0.668,6.298,20.0
48.439,0.67,5.949,30.0
49.042,0.687,5.747,12.0
56.72,0.805,6.329,11.0
51.439,0.742,7.203,22.0
0.0,0.0,0.0,0.0
47.134,0.697,6.066,18.0
48.902,0.733,6.013,23.0
48.866,0.741,5.733,22.0
0.0,0.0,0.0,0.0
51.437,0.801,7.209,22.0
47.642,0.751,6.407,25.0
0.0,0.0,0.0,0.0
48.988,0.79,6.028,23.0
48.856,0.796,5.737,32.0
0.0,0.0,0.0,0.0
51.595,0.863,7.235,17.0
47.702,0.807,6.418,21.0
47.637,0.814,6.139,22.0
49.079,0.847,6.042,17.0
48.881,0.853,5.742,35.0
50.151,0.884,5.608,20.0
51.564,0.922,7.232,20.0
47.672,0.861,6.415,24.0
47.612,0.868,6.137,22.0
48.904,0.9,6.021,32.0
48.582,0.903,5.707,25.0
50.283,0.944,5.623,27.0
51.4,0.978,7.208,26.0
47.663,0.915,6.413,29.0
46.268,0.896,5.962,17.0
48.977,0.957,6.028,13.0
48.711,0.96,5.719,31.0
50.165,0.998,5.607,22.0
51.319,1.035,7.194,26.0
47.65,0.97,6.407,21.0
46.824,0.961,6.03,21.0
45.525,0.942,5.599,22.0
48.665,1.016,5.71,28.0
50.093,1.054,5.594,30.0
56.255,1.199,7.879,6.0
47.685,1.024,6.407,17.0
46.729,1.012,6.012,22.0
45.678,0.997,5.612,25.0
48.729,1.072,5.71,29.0
50.069,1.109,5.584,15.0
52.172,1.171,7.299,18.0
47.731,1.08,6.405,21.0
46.996,1.07,6.038,21.0
45.606,1.046,5.595,20.0
0.0,0.0,0.0,0.0
49.958,1.163,5.562,17.0
51.956,1.225,7.259,26.0
43.642,1.035,5.847,17.0
47.086,1.125,6.039,21.0
45.643,1.098,5.589,20.0
50.278,1.217,5.871,19.0
45.882,1.118,5.097,16.0
0.0,0.0,0.0,0.0
43.696,1.085,5.843,22.0
47.391,1.184,6.066,7.0
45.569,1.146,5.568,20.0
45.707,1.156,5.325,22.0
49.756,1.267,5.514,8.0
50.256,1.296,6.994,12.0
43.766,1.135,5.839,26.0
47.436,1.237,6.057,5.0
45.525,1.195,5.548,30.0
45.641,1.205,5.302,17.0
49.78,1.323,5.5,16.0
43.925,1.181,6.097,14.0
43.838,1.185,5.833,16.0
45.318,1.232,5.77,19.0
45.557,1.245,5.536,24.0
47.833,1.315,5.539,10.0
45.898,1.268,5.054,14.0
43.954,1.229,6.084,20.0
43.916,1.234,5.826,18.0
45.387,1.282,5.761,19.0
45.492,1.292,5.509,32.0
47.865,1.366,5.523,7.0
46.133,1.324,5.06,19.0
43.736,1.27,6.035,19.0
43.9,1.281,5.805,30.0
45.352,1.329,5.737,24.0
45.576,1.343,5.499,20.0
47.862,1.417,5.501,6.0
46.257,1.376,5.053,23.0
43.307,1.303,5.956,33.0
44.025,1.331,5.8,18.0
43.988,1.335,5.543,25.0
45.833,1.397,5.507,20.0
45.796,1.403,5.241,11.0
48.565,1.495,5.28,9.0
43.34,1.349,5.937,35.0
44.132,1.38,5.791,31.0
43.74,1.373,5.488,22.0
45.756,1.443,5.473,24.0
45.639,1.445,5.198,19.0
48.671,1.548,5.265,14.0
43.418,1.396,5.924,37.0
44.27,1.429,5.784,19.0
43.719,1.417,5.46,29.0
46.112,1.501,5.489,21.0
45.473,1.486,5.152,31.0
48.514,1.592,5.219,9.0
43.558,1.444,5.916,33.0
43.916,1.462,5.711,29.0
43.899,1.466,5.455,31.0
45.916,1.54,5.437,20.0
45.801,1.541,5.161,22.0
46.19,1.561,4.94,14.0
43.688,1.491,5.905,28.0
44.002,1.508,5.693,29.0
43.871,1.508,5.423,27.0
46.083,1.59,5.426,20.0
45.475,1.575,5.093,19.0
46.271,1.608,4.917,35.0
43.74,1.535,5.882,30.0
43.765,1.542,5.632,29.0
0.0,0.0,0.0,0.0
45.929,1.628,5.376,24.0
45.416,1.615,5.054,27.0
55.337,1.975,5.841,7.0
43.864,1.582,5.866,35.0
43.531,1.575,5.569,33.0
45.541,1.652,5.563,33.0
45.852,1.669,5.332,29.0
45.514,1.662,5.03,26.0
48.433,1.774,5.075,10.0
43.838,1.622,5.828,27.0
43.485,1.613,5.529,18.0
45.672,1.699,5.543,29.0
45.909,1.713,5.302,17.0
45.891,1.717,5.036,27.0
56.354,2.115,5.86,7.0
43.859,1.662,5.795,19.0
43.854,1.666,5.54,26.0
45.741,1.743,5.513,25.0
45.74,1.747,5.244,20.0
46.011,1.762,5.01,24.0
48.165,1.85,4.968,16.0
43.683,1.694,5.734,23.0
43.966,1.709,5.516,26.0
46.033,1.793,5.509,29.0
45.64,1.783,5.193,23.0
48.487,1.899,5.237,19.0
50.462,1.981,5.16,13.0
43.534,1.725,5.675,30.0
44.189,1.755,5.504,33.0
45.879,1.826,5.449,20.0
45.542,1.818,5.14,33.0
49.105,1.964,5.259,23.0
50.307,2.017,5.099,19.0
43.583,1.763,5.641,35.0
44.198,1.792,5.464,22.0
45.772,1.86,5.393,20.0
48.319,1.967,5.408,3.0
48.906,1.996,5.192,23.0
50.254,2.055,5.045,21.0
43.538,1.796,5.593,38.0
0.0,0.0,0.0,0.0
45.788,1.897,5.35,26.0
48.328,2.006,5.362,7.0
49.388,2.054,5.194,22.0
50.206,2.092,4.991,18.0
43.737,1.839,5.574,18.0
45.923,1.934,5.585,16.0
45.634,1.925,5.285,29.0
46.177,1.952,5.076,31.0
56.256,2.383,5.858,6.0
50.234,2.131,4.942,28.0
0.0,0.0,0.0,0.0
45.882,1.967,5.532,22.0
45.644,1.959,5.238,27.0
48.402,2.081,5.269,6.0
56.29,2.425,5.802,16.0
50.355,2.173,4.9,19.0
45.775,1.992,5.735,9.0
45.777,1.995,5.469,34.0
45.942,2.005,5.222,26.0
48.881,2.137,5.268,23.0
50.323,2.203,5.132,16.0
49.804,2.184,4.791,6.0
45.09,1.993,5.599,22.0
45.785,2.027,5.419,25.0
46.135,2.045,5.192,33.0
56.37,2.502,6.011,15.0
50.301,2.236,5.073,23.0
0.0,0.0,0.0,0.0
0.0,0.0,0.0,0.0
45.69,2.053,5.354,33.0
46.212,2.079,5.147,27.0
56.36,2.539,5.944,11.0
50.354,2.271,5.019,23.0
49.755,2.247,4.672,26.0
0.0,0.0,0.0,0.0
45.628,2.079,5.292,29.0
48.495,2.212,5.342,22.0
50.669,2.314,5.283,24.0
50.639,2.315,4.986,27.0
49.723,2.276,4.608,23.0
45.941,2.119,5.54,19.0
45.539,2.102,5.226,12.0
51.398,2.375,5.599,4.0
50.476,2.335,5.2,24.0
50.169,2.323,4.878,23.0
55.05,2.552,5.034,6.0
45.788,2.138,5.464,35.0
48.276,2.256,5.479,21.0
51.39,2.403,5.533,18.0
50.415,2.36,5.13,24.0
49.856,2.336,4.784,20.0
49.638,2.327,4.476,14.0
45.796,2.163,5.406,32.0
48.25,2.28,5.414,39.0
51.341,2.428,5.462,25.0
50.663,2.398,5.09,24.0
49.906,2.364,4.725,19.0
49.615,2.352,4.41,27.0
45.818,2.187,5.348,16.0
48.216,2.303,5.347,22.0
50.721,2.424,5.329,24.0
49.876,2.385,4.945,12.0
49.819,2.384,4.65,23.0
49.559,2.373,4.339,31.0
48.203,2.324,5.561,18.0
51.561,2.487,5.647,12.0
50.491,2.436,5.236,31.0
49.787,2.403,4.869,23.0
49.78,2.404,4.579,24.0
49.55,2.395,4.271,35.0
48.207,2.345,5.495,34.0
56.369,2.743,6.096,13.0
50.461,2.457,5.163,22.0
49.803,2.425,4.801,29.0
49.684,2.421,4.502,27.0
49.553,2.415,4.203,18.0
47.916,2.35,5.394,23.0
50.586,2.482,5.399,22.0
53.797,2.64,5.428,9.0
49.866,2.448,4.736,36.0
49.673,2.439,4.43,24.0
49.272,2.42,4.108,9.0
51.556,2.548,5.729,5.0
50.492,2.495,5.316,29.0
49.838,2.464,4.956,20.0
49.822,2.463,4.659,23.0
49.548,2.45,4.346,29.0
65.736,3.252,5.386,19.0
56.984,2.835,6.249,11.0
50.379,2.506,5.231,33.0
49.756,2.476,4.876,23.0
49.758,2.476,4.581,22.0
49.53,2.464,4.272,12.0
65.883,3.278,5.302,7.0
50.511,2.528,5.464,21.0
50.474,2.526,5.165,21.0
49.817,2.492,4.807,23.0
49.782,2.491,4.509,23.0
49.185,2.46,4.17,10.0
58.169,2.91,4.594,19.0
49.551,2.492,5.285,26.0
