X,Y,Z,Reflectivity
0.0,0.0,0.0,0.0
0.0,0.0,0.0,0.0
0.0,0.0,0.0,0.0
0.0,0.0,0.0,0.0
7.217,-0.279,-0.744,0.0
6.912,-0.269,-0.752,0.0
0.0,0.0,0.0,0.0
0.0,0.0,0.0,0.0
0.0,0.0,0.0,0.0
0.0,0.0,0.0,0.0
7.215,-0.288,-0.745,0.0
6.901,-0.277,-0.751,0.0
0.0,0.0,0.0,0.0
0.0,0.0,0.0,0.0
0.0,0.0,0.0,0.0
0.0,0.0,0.0,0.0
7.189,-0.295,-0.743,0.0
6.962,-0.288,-0.759,0.0
0.0,0.0,0.0,0.0
0.0,0.0,0.0,0.0
0.0,0.0,0.0,0.0
0.0,0.0,0.0,0.0
7.164,-0.303,-0.741,0.0
6.939,-0.295,-0.756,0.0
0.0,0.0,0.0,0.0
0.0,0.0,0.0,0.0
0.0,0.0,0.0,0.0
0.0,0.0,0.0,0.0
7.21,-0.314,-0.745,0.0
6.894,-0.301,-0.752,0.0
0.0,0.0,0.0,0.0
0.0,0.0,0.0,0.0
0.0,0.0,0.0,0.0
0.0,0.0,0.0,0.0
7.188,-0.321,-0.743,0.0
6.935,-0.311,-0.756,0.0
6.601,-0.298,-0.757,0.0
0.0,0.0,0.0,0.0
0.0,0.0,0.0,0.0
0.0,0.0,0.0,0.0
7.182,-0.329,-0.742,0.0
6.912,-0.318,-0.753,0.0
6.688,-0.31,-0.766,0.0
0.0,0.0,0.0,0.0
0.0,0.0,0.0,0.0
0.0,0.0,0.0,0.0
7.191,-0.338,-0.742,0.0
6.914,-0.327,-0.752,0.0
6.656,-0.316,-0.761,0.0
0.0,0.0,0.0,0.0
0.0,0.0,0.0,0.0
0.0,0.0,0.0,0.0
7.198,-0.347,-0.741,0.0
6.909,-0.334,-0.75,0.0
6.684,-0.325,-0.763,0.0
0.0,0.0,0.0,0.0
0.0,0.0,0.0,0.0
0.0,0.0,0.0,0.0
7.216,-0.356,-0.742,0.0
6.905,-0.342,-0.748,0.0
0.0,0.0,0.0,0.0
0.0,0.0,0.0,0.0
0.0,0.0,0.0,0.0
0.0,0.0,0.0,0.0
7.245,-0.365,-0.743,0.0
6.969,-0.353,-0.753,0.0
6.704,-0.341,-0.762,0.0
0.0,0.0,0.0,0.0
0.0,0.0,0.0,0.0
0.0,0.0,0.0,0.0
7.228,-0.372,-0.739,0.0
6.966,-0.36,-0.751,0.0
6.696,-0.348,-0.759,0.0
0.0,0.0,0.0,0.0
0.0,0.0,0.0,0.0
0.0,0.0,0.0,0.0
7.214,-0.379,-0.735,0.0
7.027,-0.371,-0.755,0.0
6.711,-0.356,-0.758,0.0
0.0,0.0,0.0,0.0
0.0,0.0,0.0,0.0
0.0,0.0,0.0,0.0
7.267,-0.39,-0.737,0.0
6.989,-0.377,-0.748,0.0
6.747,-0.365,-0.76,0.0
0.0,0.0,0.0,0.0
0.0,0.0,0.0,0.0
0.0,0.0,0.0,0.0
7.278,-0.398,-0.736,0.0
7.025,-0.386,-0.749,0.0
6.801,-0.375,-0.763,0.0
0.0,0.0,0.0,0.0
0.0,0.0,0.0,0.0
0.0,0.0,0.0,0.0
7.277,-0.405,-0.732,0.0
7.023,-0.393,-0.745,0.0
6.813,-0.382,-0.761,0.0
6.551,-0.369,-0.769,0.0
0.0,0.0,0.0,0.0
0.0,0.0,0.0,0.0
7.325,-0.415,-0.733,0.0
7.097,-0.404,-0.749,0.0
6.82,-0.39,-0.758,0.0
0.0,0.0,0.0,0.0
0.0,0.0,0.0,0.0
0.0,0.0,0.0,0.0
0.0,0.0,0.0,0.0
7.114,-0.412,-0.747,0.0
6.827,-0.397,-0.755,0.0
0.0,0.0,0.0,0.0
0.0,0.0,0.0,0.0
6.211,-0.365,-0.791,0.0
0.0,0.0,0.0,0.0
7.131,-0.42,-0.745,0.0
6.854,-0.405,-0.754,0.0
0.0,0.0,0.0,0.0
0.0,0.0,0.0,0.0
0.0,0.0,0.0,0.0
0.0,0.0,0.0,0.0
7.171,-0.429,-0.744,0.0
6.875,-0.413,-0.751,0.0
0.0,0.0,0.0,0.0
0.0,0.0,0.0,0.0
0.0,0.0,0.0,0.0
0.0,0.0,0.0,0.0
7.218,-0.439,-0.744,0.0
0.0,0.0,0.0,0.0
0.0,0.0,0.0,0.0
0.0,0.0,0.0,0.0
0.0,0.0,0.0,0.0
0.0,0.0,0.0,0.0
7.228,-0.446,-0.74,0.0
6.96,-0.43,-0.751,0.0
6.708,-0.416,-0.761,0.0
0.0,0.0,0.0,0.0
0.0,0.0,0.0,0.0
0.0,0.0,0.0,0.0
7.288,-0.456,-0.74,0.0
6.987,-0.438,-0.748,0.0
6.78,-0.426,-0.764,0.0
0.0,0.0,0.0,0.0
0.0,0.0,0.0,0.0
0.0,0.0,0.0,0.0
7.316,-0.463,-0.737,0.0
7.053,-0.448,-0.75,0.0
6.778,-0.432,-0.758,0.0
0.0,0.0,0.0,0.0
0.0,0.0,0.0,0.0
0.0,0.0,0.0,0.0
0.0,0.0,0.0,0.0
7.081,-0.456,-0.746,0.0
6.8,-0.439,-0.755,0.0
6.557,-0.424,-0.764,0.0
0.0,0.0,0.0,0.0
0.0,0.0,0.0,0.0
0.0,0.0,0.0,0.0
7.129,-0.464,-0.745,0.0
0.0,0.0,0.0,0.0
6.649,-0.435,-0.769,0.0
0.0,0.0,0.0,0.0
0.0,0.0,0.0,0.0
0.0,0.0,0.0,0.0
7.2,-0.474,-0.746,0.0
0.0,0.0,0.0,0.0
6.683,-0.443,-0.766,0.0
6.444,-0.428,-0.774,0.0
0.0,0.0,0.0,0.0
0.0,0.0,0.0,0.0
7.217,-0.481,-0.741,0.0
0.0,0.0,0.0,0.0
6.728,-0.45,-0.765,0.0
6.503,-0.436,-0.775,0.0
0.0,0.0,0.0,0.0
0.0,0.0,0.0,0.0
7.267,-0.489,-0.739,0.0
0.0,0.0,0.0,0.0
6.757,-0.457,-0.761,0.0
6.532,-0.443,-0.772,0.0
7.893,-0.534,-0.709,0.0
0.0,0.0,0.0,0.0
7.308,-0.496,-0.735,0.0
0.0,0.0,0.0,0.0
6.82,-0.466,-0.761,0.0
6.567,-0.449,-0.769,0.0
7.974,-0.544,-0.708,0.0
0.0,0.0,0.0,0.0
0.0,0.0,0.0,0.0
0.0,0.0,0.0,0.0
6.85,-0.472,-0.757,0.0
6.622,-0.457,-0.768,0.0
7.975,-0.549,-0.7,0.0
0.0,0.0,0.0,0.0
0.0,0.0,0.0,0.0
7.105,-0.492,-0.739,0.0
0.0,0.0,0.0,0.0
6.675,-0.465,-0.767,0.0
8.155,-0.566,-0.706,0.0
0.0,0.0,0.0,0.0
0.0,0.0,0.0,0.0
7.228,-0.505,-0.744,0.0
0.0,0.0,0.0,0.0
6.723,-0.471,-0.765,0.0
8.184,-0.573,-0.699,0.0
0.0,0.0,0.0,0.0
0.0,0.0,0.0,0.0
7.284,-0.512,-0.741,0.0
0.0,0.0,0.0,0.0
6.769,-0.478,-0.762,0.0
8.226,-0.579,-0.694,0.0
0.0,0.0,0.0,0.0
0.0,0.0,0.0,0.0
0.0,0.0,0.0,0.0
7.053,-0.501,-0.747,0.0
6.851,-0.487,-0.763,0.0
8.331,-0.591,-0.692,0.0
8.004,-0.568,-0.708,0.0
0.0,0.0,0.0,0.0
0.0,0.0,0.0,0.0
7.144,-0.51,-0.748,0.0
6.857,-0.49,-0.755,0.0
8.405,-0.599,-0.689,0.0
8.072,-0.577,-0.704,0.0
0.0,0.0,0.0,0.0
0.0,0.0,0.0,0.0
7.225,-0.519,-0.748,0.0
0.0,0.0,0.0,0.0
8.481,-0.608,-0.684,0.0
0.0,0.0,0.0,0.0
0.0,0.0,0.0,0.0
0.0,0.0,0.0,0.0
7.243,-0.523,-0.74,0.0
6.992,-0.505,-0.752,0.0
8.535,-0.615,-0.678,0.0
0.0,0.0,0.0,0.0
0.0,0.0,0.0,0.0
0.0,0.0,0.0,0.0
7.302,-0.529,-0.737,0.0
7.078,-0.514,-0.752,0.0
8.64,-0.625,-0.675,0.0
8.301,-0.602,-0.693,0.0
0.0,0.0,0.0,0.0
0.0,0.0,0.0,0.0
0.0,0.0,0.0,0.0
7.092,-0.517,-0.744,0.0
8.702,-0.632,-0.668,0.0
8.381,-0.61,-0.688,0.0
8.063,-0.587,-0.705,0.0
0.0,0.0,0.0,0.0
0.0,0.0,0.0,0.0
7.201,-0.526,-0.746,0.0
8.846,-0.645,-0.667,0.0
8.475,-0.618,-0.684,0.0
8.137,-0.594,-0.701,0.0
0.0,0.0,0.0,0.0
0.0,0.0,0.0,0.0
7.264,-0.532,-0.743,0.0
8.894,-0.65,-0.659,0.0
8.557,-0.626,-0.679,0.0
8.219,-0.602,-0.696,0.0
0.0,0.0,0.0,0.0
0.0,0.0,0.0,0.0
7.282,-0.535,-0.734,0.0
0.0,0.0,0.0,0.0
8.645,-0.634,-0.675,0.0
0.0,0.0,0.0,0.0
0.0,0.0,0.0,0.0
0.0,0.0,0.0,0.0
0.0,0.0,0.0,0.0
0.0,0.0,0.0,0.0
8.804,-0.646,-0.674,0.0
8.433,-0.619,-0.691,0.0
0.0,0.0,0.0,0.0
0.0,0.0,0.0,0.0
0.0,0.0,0.0,0.0
0.0,0.0,0.0,0.0
8.914,-0.655,-0.67,0.0
8.506,-0.625,-0.684,0.0
0.0,0.0,0.0,0.0
0.0,0.0,0.0,0.0
0.0,0.0,0.0,0.0
0.0,0.0,0.0,0.0
0.0,0.0,0.0,0.0
8.679,-0.638,-0.686,0.0
0.0,0.0,0.0,0.0
7.964,-0.586,-0.714,0.0
0.0,0.0,0.0,0.0
9.544,-0.701,-0.639,0.0
0.0,0.0,0.0,0.0
0.0,0.0,0.0,0.0
8.386,-0.617,-0.695,0.0
8.068,-0.594,-0.712,0.0
0.0,0.0,0.0,0.0
9.772,-0.717,-0.64,0.0
0.0,0.0,0.0,0.0
8.863,-0.651,-0.674,0.0
8.453,-0.621,-0.688,0.0
8.187,-0.602,-0.71,0.0
7.809,-0.574,-0.719,0.0
9.862,-0.723,-0.631,0.0
0.0,0.0,0.0,0.0
0.0,0.0,0.0,0.0
8.583,-0.629,-0.686,0.0
8.207,-0.602,-0.699,0.0
7.914,-0.581,-0.717,0.0
0.0,0.0,0.0,0.0
0.0,0.0,0.0,0.0
0.0,0.0,0.0,0.0
8.641,-0.632,-0.678,0.0
8.367,-0.612,-0.7,0.0
7.972,-0.584,-0.71,0.0
0.0,0.0,0.0,0.0
9.589,-0.7,-0.635,0.0
0.0,0.0,0.0,0.0
8.782,-0.641,-0.675,0.0
8.416,-0.614,-0.691,0.0
8.106,-0.592,-0.709,0.0
10.291,-0.749,-0.612,0.0
9.768,-0.711,-0.632,0.0
0.0,0.0,0.0,0.0
8.87,-0.645,-0.668,0.0
8.517,-0.619,-0.687,0.0
8.121,-0.591,-0.698,0.0
13.93,-0.872,-0.455,0.0
13.059,-0.815,-0.495,0.0
12.357,-0.77,-0.533,0.0
11.652,-0.724,-0.565,0.0
10.989,-0.681,-0.59,0.0
10.391,-0.642,-0.613,0.0
14.24,-0.878,-0.443,0.0
13.382,-0.822,-0.487,0.0
12.534,-0.768,-0.521,0.0
11.791,-0.721,-0.553,0.0
11.121,-0.678,-0.58,0.0
10.584,-0.643,-0.608,0.0
14.608,-0.886,-0.432,0.0
13.634,-0.824,-0.474,0.0
12.771,-0.769,-0.511,0.0
11.992,-0.72,-0.544,0.0
11.372,-0.681,-0.576,0.0
10.735,-0.641,-0.6,0.0
14.907,-0.888,-0.418,0.0
13.882,-0.824,-0.462,0.0
13.045,-0.772,-0.502,0.0
12.278,-0.724,-0.538,0.0
11.563,-0.68,-0.567,0.0
10.95,-0.642,-0.595,0.0
15.315,-0.895,-0.406,0.0
14.13,-0.823,-0.448,0.0
13.267,-0.77,-0.49,0.0
12.365,-0.716,-0.523,0.0
11.793,-0.68,-0.561,0.0
11.141,-0.641,-0.588,0.0
15.65,-0.897,-0.391,0.0
14.515,-0.829,-0.438,0.0
13.535,-0.77,-0.48,0.0
12.77,-0.724,-0.521,0.0
11.887,-0.672,-0.547,0.0
11.288,-0.636,-0.579,0.0
16.079,-0.903,-0.378,0.0
14.808,-0.828,-0.425,0.0
13.759,-0.767,-0.467,0.0
12.931,-0.718,-0.508,0.0
12.203,-0.675,-0.543,0.0
11.494,-0.633,-0.572,0.0
16.513,-0.907,-0.363,0.0
15.092,-0.826,-0.411,0.0
14.093,-0.768,-0.457,0.0
13.157,-0.714,-0.497,0.0
12.34,-0.667,-0.531,0.0
11.72,-0.631,-0.566,0.0
16.989,-0.912,-0.348,0.0
15.5,-0.828,-0.399,0.0
14.346,-0.764,-0.444,0.0
13.404,-0.71,-0.487,0.0
12.56,-0.663,-0.522,0.0
11.893,-0.625,-0.557,0.0
17.357,-0.91,-0.33,0.0
15.958,-0.832,-0.387,0.0
14.67,-0.762,-0.433,0.0
13.672,-0.707,-0.476,0.0
12.775,-0.658,-0.512,0.0
12.07,-0.618,-0.547,0.0
17.871,-0.913,-0.314,0.0
16.3,-0.829,-0.372,0.0
14.877,-0.753,-0.417,0.0
13.844,-0.697,-0.462,0.0
13.063,-0.655,-0.505,0.0
12.286,-0.613,-0.539,0.0
18.4,-0.915,-0.297,0.0
16.745,-0.828,-0.358,0.0
15.328,-0.755,-0.408,0.0
14.197,-0.695,-0.454,0.0
13.216,-0.644,-0.492,0.0
12.463,-0.604,-0.53,0.0
19.022,-0.919,-0.28,0.0
17.093,-0.822,-0.342,0.0
15.748,-0.753,-0.397,0.0
14.49,-0.689,-0.443,0.0
13.523,-0.64,-0.485,0.0
12.692,-0.597,-0.522,0.0
19.399,-0.91,-0.259,0.0
17.517,-0.817,-0.326,0.0
16.045,-0.744,-0.383,0.0
14.698,-0.678,-0.429,0.0
13.697,-0.628,-0.472,0.0
12.916,-0.589,-0.513,0.0
20.76,-0.943,-0.248,0.0
17.937,-0.81,-0.309,0.0
16.479,-0.74,-0.37,0.0
14.907,-0.665,-0.415,0.0
13.978,-0.62,-0.462,0.0
13.049,-0.575,-0.5,0.0
21.125,-0.928,-0.224,2.0
18.466,-0.806,-0.293,0.0
16.799,-0.729,-0.355,0.0
15.476,-0.667,-0.41,0.0
14.256,-0.611,-0.453,0.0
13.366,-0.569,-0.495,0.0
22.128,-0.938,-0.205,1.0
19.148,-0.807,-0.278,0.0
17.174,-0.719,-0.34,0.0
15.814,-0.657,-0.398,0.0
14.526,-0.6,-0.442,0.0
13.529,-0.555,-0.483,0.0
22.694,-0.927,-0.181,1.0
19.491,-0.791,-0.258,0.0
17.52,-0.706,-0.324,0.0
16.079,-0.643,-0.384,0.0
14.792,-0.588,-0.431,0.0
13.75,-0.542,-0.473,0.0
23.257,-0.913,-0.155,1.0
20.859,-0.813,-0.249,1.0
18.025,-0.697,-0.31,0.0
16.442,-0.631,-0.371,0.0
15.045,-0.573,-0.419,0.0
13.976,-0.528,-0.463,0.0
24.318,-0.915,-0.132,0.0
21.045,-0.785,-0.225,2.0
18.487,-0.685,-0.295,0.0
16.728,-0.615,-0.357,0.0
15.512,-0.566,-0.413,0.0
14.226,-0.514,-0.454,0.0
24.241,-0.872,-0.101,0.0
22.022,-0.785,-0.208,1.0
19.059,-0.674,-0.281,0.0
17.076,-0.599,-0.343,0.0
15.774,-0.548,-0.401,0.0
14.487,-0.5,-0.445,0.0
25.501,-0.874,-0.075,0.0
22.331,-0.759,-0.184,0.0
19.489,-0.656,-0.264,0.0
17.424,-0.582,-0.33,0.0
16.068,-0.532,-0.389,0.0
14.729,-0.483,-0.434,0.0
26.138,-0.851,-0.046,0.0
23.267,-0.751,-0.164,0.0
20.572,-0.658,-0.254,0.0
17.935,-0.568,-0.318,0.0
16.411,-0.515,-0.378,0.0
14.985,-0.465,-0.425,0.0
0.0,0.0,0.0,0.0
23.58,-0.72,-0.139,0.0
20.961,-0.633,-0.235,1.0
18.182,-0.544,-0.302,0.0
16.645,-0.493,-0.364,0.0
15.294,-0.448,-0.416,0.0
27.54,-0.8,0.014,0.0
24.408,-0.702,-0.116,0.0
21.212,-0.603,-0.214,1.0
18.613,-0.523,-0.288,0.0
16.927,-0.47,-0.352,0.0
15.671,-0.431,-0.409,0.0
28.283,-0.771,0.045,1.0
25.214,-0.679,-0.092,0.0
22.359,-0.596,-0.201,0.0
19.228,-0.506,-0.277,0.0
17.206,-0.447,-0.339,0.0
15.908,-0.409,-0.398,0.0
28.642,-0.729,0.077,6.0
25.475,-0.64,-0.066,0.0
22.88,-0.568,-0.181,0.0
19.648,-0.481,-0.262,0.0
17.562,-0.424,-0.327,0.0
16.136,-0.385,-0.387,0.0
28.72,-0.678,0.107,9.0
26.298,-0.612,-0.041,0.0
23.447,-0.538,-0.161,0.0
20.176,-0.456,-0.248,0.0
18.022,-0.402,-0.317,0.0
16.445,-0.361,-0.377,0.0
28.772,-0.625,0.137,2.0
26.631,-0.57,-0.014,0.0
24.229,-0.51,-0.142,1.0
20.992,-0.435,-0.237,0.0
18.327,-0.374,-0.304,0.0
16.645,-0.334,-0.365,0.0
28.792,-0.571,0.165,0.0
27.454,-0.535,0.011,0.0
24.619,-0.472,-0.12,0.0
21.698,-0.409,-0.224,0.0
18.658,-0.345,-0.292,0.0
16.886,-0.307,-0.354,0.0
31.389,-0.563,0.21,0.0
27.985,-0.493,0.038,0.0
24.975,-0.431,-0.098,0.0
22.124,-0.375,-0.208,0.0
19.159,-0.318,-0.282,0.0
17.055,-0.278,-0.342,0.0
32.123,-0.514,0.245,0.0
28.542,-0.447,0.065,1.0
25.393,-0.389,-0.077,0.0
22.572,-0.338,-0.191,0.0
19.468,-0.285,-0.269,0.0
17.362,-0.249,-0.333,0.0
32.885,-0.462,0.28,1.0
28.688,-0.393,0.091,1.0
25.751,-0.344,-0.055,0.0
23.121,-0.301,-0.176,1.0
19.98,-0.254,-0.259,0.0
17.758,-0.219,-0.325,0.0
33.485,-0.404,0.314,1.0
28.787,-0.338,0.115,0.0
26.294,-0.3,-0.034,0.0
23.466,-0.26,-0.159,0.0
20.288,-0.218,-0.246,0.0
18.041,-0.187,-0.315,0.0
34.03,-0.344,0.347,0.0
28.844,-0.282,0.139,1.0
26.952,-0.254,-0.014,0.0
23.995,-0.218,-0.143,1.0
20.858,-0.183,-0.236,0.0
18.312,-0.154,-0.306,0.0
0.0,0.0,0.0,0.0
31.245,-0.242,0.175,0.0
27.391,-0.203,0.006,0.0
24.32,-0.172,-0.126,0.0
21.628,-0.145,-0.228,0.0
18.535,-0.118,-0.295,0.0
36.311,-0.22,0.426,0.0
31.259,-0.179,0.199,1.0
28.129,-0.152,0.028,0.0
24.615,-0.125,-0.11,0.0
21.854,-0.103,-0.215,1.0
18.964,-0.083,-0.289,0.0
36.838,-0.149,0.459,0.0
31.595,-0.117,0.224,1.0
28.589,-0.096,0.048,2.0
25.176,-0.076,-0.095,0.0
22.08,-0.059,-0.202,0.0
19.243,-0.045,-0.28,0.0
37.26,-0.075,0.49,0.0
33.018,-0.054,0.256,0.0
28.648,-0.038,0.068,2.0
25.513,-0.025,-0.079,0.0
22.279,-0.014,-0.189,0.0
19.576,-0.005,-0.272,0.0
0.0,0.0,0.0,0.0
0.0,0.0,0.0,0.0
28.727,0.021,0.086,1.0
25.752,0.027,-0.063,0.0
23.149,0.032,-0.182,0.0
19.907,0.035,-0.264,0.0
0.0,0.0,0.0,0.0
0.0,0.0,0.0,0.0
28.795,0.08,0.103,1.0
26.011,0.081,-0.049,0.0
23.185,0.08,-0.169,1.0
20.172,0.077,-0.256,0.0
40.481,0.168,0.606,0.0
33.947,0.153,0.325,0.0
28.824,0.14,0.12,0.0
26.277,0.136,-0.035,0.0
23.495,0.13,-0.158,0.0
20.58,0.121,-0.25,0.0
0.0,0.0,0.0,0.0
34.581,0.227,0.349,0.0
28.911,0.2,0.135,1.0
26.64,0.193,-0.022,0.0
23.757,0.18,-0.148,0.0
20.86,0.165,-0.243,0.0
0.0,0.0,0.0,0.0
35.065,0.303,0.371,0.0
28.925,0.26,0.149,1.0
26.836,0.25,-0.009,0.0
23.872,0.231,-0.137,0.0
21.139,0.212,-0.236,1.0
0.0,0.0,0.0,0.0
0.0,0.0,0.0,0.0
28.968,0.321,0.163,0.0
27.102,0.31,0.002,0.0
24.231,0.285,-0.129,0.0
21.618,0.262,-0.232,1.0
46.777,0.585,0.791,0.0
35.587,0.457,0.408,0.0
29.005,0.382,0.175,0.0
27.378,0.37,0.013,0.0
24.386,0.338,-0.12,0.0
21.565,0.306,-0.223,0.0
0.0,0.0,0.0,0.0
36.259,0.543,0.43,0.0
31.384,0.48,0.201,0.0
27.369,0.428,0.024,0.0
24.674,0.394,-0.112,0.0
21.94,0.358,-0.219,0.0
0.0,0.0,0.0,0.0
0.0,0.0,0.0,0.0
31.693,0.552,0.214,0.0
27.795,0.494,0.033,0.0
24.86,0.45,-0.105,0.0
21.994,0.405,-0.213,0.0
0.0,0.0,0.0,0.0
36.877,0.708,0.461,0.0
31.68,0.618,0.223,0.0
27.963,0.555,0.042,0.0
24.941,0.504,-0.098,0.0
22.041,0.453,-0.207,0.0
0.0,0.0,0.0,0.0
37.145,0.791,0.475,0.0
32.281,0.699,0.236,0.0
28.353,0.623,0.05,0.0
25.08,0.56,-0.092,0.0
22.076,0.5,-0.202,0.0
47.753,1.103,0.883,1.0
0.0,0.0,0.0,0.0
32.08,0.762,0.242,0.0
28.627,0.69,0.056,1.0
25.234,0.616,-0.087,0.0
22.183,0.549,-0.198,0.0
0.0,0.0,0.0,0.0
38.222,0.976,0.505,0.0
32.474,0.84,0.251,0.0
28.826,0.755,0.062,2.0
25.368,0.673,-0.084,0.0
22.272,0.598,-0.195,0.0
56.272,1.537,1.061,1.0
37.935,1.048,0.507,0.0
32.423,0.907,0.256,0.0
28.763,0.814,0.066,2.0
25.317,0.725,-0.08,0.0
22.309,0.646,-0.193,0.0
55.637,1.638,1.057,2.0
0.0,0.0,0.0,0.0
32.708,0.984,0.262,0.0
28.784,0.875,0.069,2.0
25.39,0.781,-0.078,0.0
22.546,0.701,-0.193,0.0
54.866,1.731,1.047,4.0
0.0,0.0,0.0,0.0
32.87,1.058,0.265,0.0
28.793,0.936,0.071,2.0
25.349,0.832,-0.076,0.0
22.488,0.746,-0.191,0.0
50.544,1.7,0.967,0.0
0.0,0.0,0.0,0.0
32.852,1.127,0.266,0.0
28.725,0.994,0.072,1.0
25.371,0.886,-0.075,0.0
22.403,0.79,-0.19,0.0
50.683,1.812,0.97,2.0
0.0,0.0,0.0,0.0
33.027,1.201,0.268,1.0
28.714,1.054,0.072,1.0
25.718,0.952,-0.077,4.0
22.259,0.831,-0.189,1.0
50.703,1.919,0.969,1.0
0.0,0.0,0.0,0.0
33.072,1.272,0.267,1.0
28.649,1.111,0.07,1.0
25.437,0.995,-0.077,0.0
22.195,0.875,-0.19,0.0
0.0,0.0,0.0,0.0
0.0,0.0,0.0,0.0
33.07,1.34,0.264,1.0
28.56,1.166,0.067,1.0
25.155,1.036,-0.079,0.0
22.116,0.918,-0.191,0.0
48.128,2.021,0.912,0.0
38.685,1.636,0.519,0.0
32.647,1.391,0.257,1.0
28.475,1.222,0.064,1.0
25.157,1.087,-0.082,0.0
22.204,0.967,-0.195,0.0
47.637,2.098,0.896,0.0
0.0,0.0,0.0,0.0
32.408,1.447,0.25,1.0
28.18,1.267,0.059,0.0
25.222,1.142,-0.086,0.0
22.077,1.007,-0.198,1.0
47.75,2.201,0.89,1.0
0.0,0.0,0.0,0.0
32.224,1.505,0.243,1.0
28.067,1.319,0.053,1.0
25.031,1.184,-0.091,0.0
21.972,1.046,-0.201,1.0
50.297,2.42,0.927,4.0
0.0,0.0,0.0,0.0
32.015,1.559,0.234,1.0
27.897,1.367,0.046,0.0
24.855,1.226,-0.096,0.0
21.881,1.086,-0.206,2.0
49.715,2.492,0.904,2.0
0.0,0.0,0.0,0.0
31.627,1.604,0.223,0.0
27.748,1.415,0.039,0.0
24.778,1.272,-0.102,0.0
21.796,1.125,-0.211,2.0
49.255,2.569,0.881,3.0
37.83,1.983,0.466,0.0
31.347,1.652,0.212,1.0
27.594,1.463,0.03,0.0
24.692,1.316,-0.11,0.0
21.619,1.159,-0.216,4.0
48.802,2.642,0.858,4.0
0.0,0.0,0.0,0.0
31.032,1.697,0.199,0.0
27.183,1.495,0.02,0.0
24.377,1.348,-0.116,0.0
21.573,1.199,-0.223,4.0
48.218,2.705,0.83,4.0
36.316,2.048,0.423,0.0
30.839,1.747,0.187,0.0
27.027,1.539,0.01,0.0
24.259,1.389,-0.125,0.0
21.449,1.234,-0.23,3.0
47.821,2.776,0.805,10.0
0.0,0.0,0.0,0.0
30.539,1.79,0.173,0.0
26.806,1.578,0.0,0.0
24.046,1.423,-0.134,0.0
21.327,1.268,-0.238,2.0
47.629,2.857,0.781,3.0
47.258,2.848,0.511,1.0
30.176,1.826,0.158,1.0
26.585,1.616,-0.011,1.0
23.723,1.449,-0.143,0.0
21.139,1.297,-0.245,1.0
47.673,2.95,0.76,0.0
47.241,2.936,0.489,1.0
29.774,1.859,0.142,1.0
26.293,1.648,-0.024,0.0
23.211,1.462,-0.151,0.0
20.798,1.316,-0.252,0.0
46.31,2.953,0.716,0.0
36.543,2.341,0.36,0.0
29.388,1.89,0.125,1.0
26.024,1.681,-0.037,0.0
23.023,1.493,-0.162,0.0
20.333,1.324,-0.257,0.0
0.0,0.0,0.0,0.0
0.0,0.0,0.0,0.0
29.159,1.929,0.108,1.0
25.698,1.707,-0.051,0.0
22.715,1.515,-0.172,0.0
19.995,1.339,-0.263,0.0
47.247,3.189,0.679,0.0
33.977,2.302,0.297,0.0
28.838,1.961,0.091,1.0
25.396,1.734,-0.065,0.0
22.544,1.545,-0.184,0.0
19.691,1.355,-0.271,0.0
0.0,0.0,0.0,0.0
33.055,2.299,0.269,0.0
28.483,1.989,0.072,1.0
25.063,1.757,-0.079,0.0
22.223,1.563,-0.195,0.0
19.307,1.363,-0.278,0.0
41.341,2.94,0.543,0.0
32.578,2.325,0.245,0.0
28.189,2.019,0.053,1.0
24.436,1.756,-0.093,1.0
21.827,1.574,-0.205,0.0
19.118,1.384,-0.287,0.0
39.259,2.861,0.49,0.0
32.06,2.344,0.22,0.0
27.558,2.022,0.034,1.0
24.197,1.781,-0.108,2.0
21.563,1.592,-0.217,0.0
18.87,1.398,-0.296,0.0
37.266,2.781,0.44,0.0
31.353,2.347,0.193,0.0
27.084,2.034,0.014,1.0
24.039,1.811,-0.124,3.0
21.277,1.609,-0.23,0.0
18.503,1.403,-0.304,0.0
37.047,2.829,0.41,0.0
30.694,2.351,0.167,0.0
26.572,2.041,-0.004,0.0
23.82,1.835,-0.14,1.0
20.839,1.611,-0.24,0.0
18.294,1.418,-0.314,0.0
35.44,2.766,0.366,0.0
29.863,2.337,0.14,1.0
26.15,2.053,-0.024,0.0
23.06,1.815,-0.154,0.0
20.524,1.621,-0.252,0.0
18.042,1.429,-0.324,0.0
35.552,2.833,0.34,1.0
29.709,2.374,0.116,3.0
25.694,2.06,-0.044,0.0
22.693,1.824,-0.169,1.0
20.075,1.618,-0.263,0.0
17.755,1.435,-0.333,0.0
35.725,2.905,0.313,0.0
29.432,2.4,0.091,1.0
25.325,2.07,-0.064,0.0
22.448,1.84,-0.185,1.0
19.56,1.608,-0.272,0.0
17.504,1.443,-0.343,0.0
33.111,2.745,0.262,0.0
28.396,2.36,0.064,0.0
24.752,2.063,-0.083,0.0
22.021,1.84,-0.201,1.0
19.319,1.619,-0.285,0.0
17.223,1.447,-0.352,0.0
32.064,2.709,0.227,0.0
27.348,2.316,0.038,0.0
24.398,2.071,-0.103,0.0
21.615,1.84,-0.216,1.0
18.851,1.608,-0.295,0.0
17.006,1.455,-0.362,0.0
31.613,2.719,0.195,0.0
26.955,2.323,0.014,1.0
23.937,2.068,-0.123,0.0
21.224,1.838,-0.231,0.0
18.481,1.605,-0.306,0.0
16.767,1.459,-0.372,0.0
31.121,2.722,0.164,0.0
26.303,2.306,-0.009,1.0
23.077,2.028,-0.139,0.0
20.831,1.835,-0.246,0.0
18.243,1.611,-0.318,0.0
16.493,1.46,-0.382,0.0
29.229,2.6,0.127,0.0
25.987,2.316,-0.033,2.0
22.79,2.036,-0.159,1.0
20.265,1.814,-0.258,0.0
17.887,1.605,-0.329,0.0
16.221,1.459,-0.391,0.0
29.144,2.634,0.099,2.0
25.452,2.305,-0.057,1.0
22.301,2.023,-0.177,1.0
19.607,1.783,-0.268,0.0
17.555,1.6,-0.34,0.0
16.053,1.466,-0.402,0.0
29.07,2.667,0.07,1.0
24.876,2.287,-0.08,0.0
21.884,2.016,-0.195,4.0
19.216,1.774,-0.282,0.0
17.276,1.598,-0.352,0.0
15.873,1.471,-0.414,0.0
27.723,2.581,0.039,0.0
24.341,2.271,-0.103,0.0
21.554,2.014,-0.214,4.0
18.877,1.768,-0.296,0.0
17.09,1.604,-0.366,0.0
15.571,1.464,-0.422,0.0
26.876,2.538,0.01,0.0
23.842,2.256,-0.126,0.0
21.258,2.015,-0.233,2.0
18.356,1.743,-0.307,0.0
16.745,1.593,-0.376,0.0
15.396,1.468,-0.433,0.0
26.043,2.493,-0.016,1.0
23.075,2.213,-0.146,0.0
20.741,1.992,-0.249,0.0
18.072,1.739,-0.322,0.0
16.394,1.581,-0.385,0.0
15.101,1.459,-0.441,0.0
25.776,2.5,-0.044,1.0
22.295,2.166,-0.165,1.0
20.088,1.955,-0.263,0.0
17.678,1.723,-0.334,0.0
16.125,1.575,-0.397,0.0
14.873,1.455,-0.451,0.0
25.065,2.461,-0.07,1.0
21.964,2.16,-0.187,4.0
19.422,1.913,-0.276,0.0
17.389,1.716,-0.348,0.0
15.904,1.572,-0.409,0.0
14.646,1.45,-0.46,0.0
24.463,2.43,-0.095,0.0
21.611,2.15,-0.207,4.0
19.099,1.903,-0.292,0.0
17.083,1.705,-0.36,0.0
15.66,1.565,-0.42,0.0
14.413,1.443,-0.469,0.0
23.894,2.401,-0.12,0.0
21.196,2.133,-0.227,2.0
18.452,1.859,-0.303,0.0
16.727,1.688,-0.372,0.0
15.425,1.559,-0.431,0.0
14.206,1.438,-0.478,0.0
23.151,2.351,-0.143,0.0
20.776,2.113,-0.247,0.0
18.087,1.842,-0.318,0.0
16.459,1.678,-0.385,0.0
15.144,1.547,-0.44,0.0
13.977,1.43,-0.486,0.0
22.132,2.27,-0.161,0.0
19.859,2.04,-0.258,0.0
17.698,1.82,-0.331,0.0
16.138,1.662,-0.396,0.0
14.928,1.54,-0.451,0.0
13.733,1.418,-0.494,0.0
21.873,2.265,-0.185,4.0
19.451,2.017,-0.275,0.0
17.405,1.807,-0.346,0.0
15.927,1.656,-0.409,0.0
14.607,1.521,-0.459,0.0
13.567,1.414,-0.504,0.0
21.483,2.245,-0.207,3.0
18.897,1.977,-0.29,0.0
17.079,1.789,-0.359,0.0
15.672,1.644,-0.421,0.0
14.38,1.51,-0.468,0.0
13.359,1.405,-0.512,0.0
21.176,2.232,-0.229,0.0
18.506,1.953,-0.306,0.0
16.834,1.779,-0.374,0.0
15.349,1.624,-0.43,0.0
14.161,1.5,-0.478,0.0
13.185,1.398,-0.521,0.0
20.545,2.184,-0.246,0.0
18.087,1.925,-0.32,0.0
16.423,1.749,-0.385,0.0
15.113,1.612,-0.442,0.0
13.913,1.485,-0.487,0.0
12.998,1.39,-0.529,0.0
19.821,2.123,-0.262,0.0
17.595,1.887,-0.333,0.0
16.105,1.729,-0.397,0.0
14.866,1.597,-0.453,0.0
13.679,1.472,-0.495,0.0
12.785,1.377,-0.536,0.0
19.246,2.077,-0.278,0.0
17.338,1.872,-0.349,0.0
15.896,1.719,-0.411,0.0
14.535,1.573,-0.461,0.0
13.476,1.46,-0.504,0.0
12.56,1.362,-0.542,0.0
18.729,2.035,-0.293,0.0
16.994,1.848,-0.363,0.0
15.621,1.7,-0.423,0.0
14.38,1.567,-0.473,0.0
13.308,1.451,-0.514,0.0
12.489,1.363,-0.554,0.0
18.349,2.006,-0.31,0.0
16.726,1.83,-0.378,0.0
15.303,1.676,-0.433,0.0
14.07,1.542,-0.481,0.0
13.117,1.439,-0.523,0.0
12.308,1.352,-0.562,0.0
17.852,1.963,-0.323,0.0
16.317,1.796,-0.389,0.0
15.041,1.657,-0.445,0.0
13.806,1.522,-0.489,0.0
12.888,1.422,-0.53,0.0
12.13,1.34,-0.569,0.0
17.508,1.936,-0.339,0.0
16.013,1.772,-0.402,0.0
14.707,1.629,-0.453,0.0
13.607,1.508,-0.499,0.0
12.652,1.404,-0.536,0.0
11.985,1.331,-0.577,0.0
17.171,1.908,-0.354,0.0
15.78,1.755,-0.416,0.0
14.42,1.605,-0.462,0.0
13.396,1.492,-0.508,0.0
12.536,1.397,-0.547,0.0
11.765,1.313,-0.581,0.0
16.882,1.885,-0.369,0.0
15.475,1.729,-0.427,0.0
14.116,1.578,-0.47,0.0
13.201,1.477,-0.517,0.0
12.439,1.393,-0.559,0.0
11.593,1.299,-0.587,0.0
16.525,1.853,-0.382,0.0
15.144,1.699,-0.437,0.0
13.974,1.569,-0.483,0.0
12.992,1.459,-0.525,0.0
12.237,1.376,-0.565,0.0
11.441,1.287,-0.594,0.0
16.21,1.824,-0.395,0.0
14.933,1.682,-0.449,0.0
13.79,1.554,-0.494,0.0
12.817,1.445,-0.534,0.0
12.079,1.363,-0.573,0.0
11.245,1.27,-0.598,0.0
15.948,1.801,-0.408,0.0
14.602,1.65,-0.458,0.0
13.526,1.529,-0.501,0.0
12.634,1.429,-0.542,0.0
11.91,1.348,-0.58,0.0
11.121,1.259,-0.605,0.0
15.578,1.764,-0.418,0.0
14.386,1.63,-0.469,0.0
13.313,1.509,-0.51,0.0
12.479,1.415,-0.551,0.0
11.691,1.327,-0.584,0.0
11.005,1.25,-0.613,0.0
15.341,1.742,-0.431,0.0
14.058,1.597,-0.476,0.0
13.124,1.491,-0.519,0.0
12.306,1.399,-0.559,0.0
11.499,1.308,-0.588,0.0
10.915,1.242,-0.621,0.0
15.039,1.711,-0.441,0.0
13.867,1.578,-0.486,0.0
12.901,1.469,-0.527,0.0
12.134,1.382,-0.566,0.0
11.358,1.294,-0.595,0.0
10.765,1.227,-0.626,0.0
14.78,1.684,-0.452,0.0
13.644,1.555,-0.495,0.0
12.7,1.448,-0.534,0.0
11.92,1.36,-0.571,0.0
11.227,1.281,-0.602,0.0
10.64,1.215,-0.632,0.0
14.516,1.656,-0.462,0.0
13.419,1.532,-0.504,0.0
12.577,1.436,-0.544,0.0
11.708,1.337,-0.575,0.0
11.047,1.262,-0.606,0.0
10.492,1.199,-0.636,0.0
14.271,1.63,-0.471,0.0
13.226,1.511,-0.513,0.0
12.464,1.424,-0.555,0.0
11.612,1.327,-0.585,0.0
10.965,1.254,-0.615,0.0
10.365,1.186,-0.641,0.0
13.968,1.596,-0.478,0.0
13.038,1.49,-0.521,0.0
12.267,1.402,-0.561,0.0
11.441,1.308,-0.59,0.0
10.844,1.24,-0.622,0.0
10.242,1.172,-0.646,0.0
13.771,1.574,-0.488,0.0
12.881,1.472,-0.53,0.0
12.132,1.387,-0.569,0.0
11.307,1.293,-0.597,0.0
10.721,1.226,-0.627,0.0
10.097,1.155,-0.649,0.0
13.582,1.552,-0.498,0.0
12.627,1.443,-0.535,0.0
11.918,1.362,-0.574,0.0
11.167,1.276,-0.603,0.0
10.549,1.206,-0.63,0.0
9.986,1.142,-0.654,0.0
13.382,1.528,-0.506,0.0
12.557,1.434,-0.547,0.0
11.691,1.335,-0.576,0.0
11.037,1.26,-0.609,0.0
10.447,1.193,-0.636,0.0
9.902,1.131,-0.66,0.0
13.166,1.501,-0.513,0.0
12.415,1.416,-0.555,0.0
11.555,1.318,-0.583,0.0
10.935,1.247,-0.616,0.0
10.325,1.178,-0.641,0.0
9.758,1.113,-0.662,0.0
12.999,1.48,-0.522,0.0
12.206,1.39,-0.56,0.0
11.441,1.303,-0.591,0.0
10.801,1.23,-0.621,0.0
10.21,1.163,-0.646,0.0
9.643,1.098,-0.665,0.0
12.847,1.46,-0.53,0.0
12.12,1.377,-0.57,0.0
11.283,1.282,-0.595,0.0
10.694,1.215,-0.627,0.0
10.084,1.146,-0.649,0.0
9.529,1.083,-0.668,0.0
12.649,1.434,-0.536,0.0
11.871,1.346,-0.572,0.0
11.131,1.262,-0.6,0.0
10.534,1.194,-0.629,0.0
9.934,1.126,-0.651,0.0
9.42,1.068,-0.671,0.0
12.562,1.421,-0.547,0.0
11.727,1.326,-0.578,0.0
11.045,1.249,-0.608,0.0
10.429,1.179,-0.634,0.0
9.906,1.12,-0.66,0.0
9.367,1.059,-0.678,0.0
12.414,1.4,-0.554,0.0
11.572,1.305,-0.583,0.0
10.936,1.233,-0.613,0.0
10.302,1.161,-0.638,0.0
9.774,1.101,-0.662,0.0
9.281,1.046,-0.681,0.0
12.213,1.372,-0.558,0.0
11.43,1.284,-0.588,0.0
10.825,1.216,-0.619,0.0
10.243,1.15,-0.645,0.0
9.701,1.089,-0.667,0.0
9.192,1.032,-0.685,0.0
12.074,1.352,-0.564,0.0
11.316,1.266,-0.594,0.0
10.697,1.197,-0.623,0.0
10.143,1.134,-0.65,0.0
9.558,1.069,-0.667,0.0
9.091,1.016,-0.687,0.0
11.929,1.33,-0.57,0.0
11.158,1.243,-0.597,0.0
10.588,1.179,-0.627,0.0
9.971,1.11,-0.649,0.0
9.447,1.052,-0.669,0.0
0.0,0.0,0.0,0.0
11.758,1.305,-0.574,0.0
11.073,1.228,-0.604,0.0
10.487,1.163,-0.632,0.0
9.902,1.097,-0.654,0.0
9.393,1.041,-0.675,0.0
8.928,0.989,-0.693,0.0
11.614,1.282,-0.578,0.0
10.948,1.208,-0.608,0.0
10.354,1.142,-0.634,0.0
9.773,1.078,-0.656,0.0
9.331,1.028,-0.68,0.0
8.852,0.975,-0.696,0.0
11.482,1.261,-0.583,0.0
10.883,1.194,-0.615,0.0
10.278,1.127,-0.639,0.0
9.677,1.061,-0.659,0.0
9.195,1.008,-0.679,0.0
8.829,0.967,-0.702,0.0
11.372,1.242,-0.588,0.0
10.785,1.177,-0.619,0.0
10.198,1.112,-0.644,0.0
9.609,1.047,-0.663,0.0
0.0,0.0,0.0,0.0
8.708,0.948,-0.701,0.0
11.308,1.227,-0.595,0.0
10.7,1.16,-0.624,0.0
10.03,1.087,-0.643,0.0
9.515,1.031,-0.665,0.0
0.0,0.0,0.0,0.0
8.656,0.937,-0.704,0.0
11.143,1.201,-0.596,0.0
10.588,1.141,-0.627,0.0
9.982,1.075,-0.648,0.0
9.475,1.019,-0.671,0.0
0.0,0.0,0.0,0.0
8.546,0.918,-0.703,0.0
11.048,1.183,-0.601,0.0
10.483,1.121,-0.63,0.0
9.9,1.058,-0.652,0.0
9.362,1.0,-0.671,0.0
8.876,0.948,-0.687,0.0
8.554,0.913,-0.711,0.0
10.994,1.168,-0.607,0.0
10.41,1.105,-0.634,0.0
9.831,1.043,-0.655,0.0
9.319,0.988,-0.675,0.0
8.87,0.94,-0.694,0.0
8.465,0.896,-0.71,0.0
10.906,1.15,-0.611,0.0
10.313,1.087,-0.637,0.0
9.764,1.028,-0.659,0.0
0.0,0.0,0.0,0.0
8.851,0.93,-0.699,0.0
8.445,0.887,-0.715,0.0
10.816,1.131,-0.614,0.0
10.266,1.073,-0.642,0.0
9.666,1.009,-0.659,0.0
0.0,0.0,0.0,0.0
8.821,0.919,-0.703,0.0
8.377,0.872,-0.716,0.0
10.752,1.115,-0.619,0.0
10.152,1.052,-0.642,0.0
9.629,0.997,-0.664,0.0
0.0,0.0,0.0,0.0
8.745,0.904,-0.704,0.0
8.321,0.859,-0.717,0.0
10.638,1.093,-0.62,0.0
10.062,1.033,-0.644,0.0
9.518,0.976,-0.663,0.0
0.0,0.0,0.0,0.0
8.7,0.891,-0.706,0.0
8.272,0.846,-0.719,0.0
10.594,1.079,-0.625,0.0
9.992,1.016,-0.646,0.0
9.478,0.963,-0.667,0.0
0.0,0.0,0.0,0.0
8.569,0.869,-0.702,0.0
8.185,0.829,-0.717,0.0
10.532,1.062,-0.628,0.0
9.997,1.007,-0.653,0.0
9.439,0.949,-0.67,0.0
0.0,0.0,0.0,0.0
8.587,0.862,-0.708,0.0
8.159,0.818,-0.72,0.0
10.431,1.041,-0.628,0.0
9.913,0.988,-0.653,0.0
9.394,0.935,-0.673,0.0
0.0,0.0,0.0,0.0
8.536,0.848,-0.709,0.0
8.163,0.81,-0.725,0.0
10.396,1.027,-0.632,0.0
9.832,0.97,-0.654,0.0
9.337,0.92,-0.674,0.0
0.0,0.0,0.0,0.0
8.463,0.832,-0.708,0.0
8.128,0.798,-0.727,0.0
10.344,1.01,-0.635,0.0
9.765,0.952,-0.655,0.0
9.268,0.903,-0.674,0.0
0.0,0.0,0.0,0.0
8.427,0.819,-0.71,0.0
8.114,0.787,-0.73,0.0
10.251,0.99,-0.635,0.0
9.759,0.941,-0.659,0.0
9.216,0.887,-0.675,0.0
8.746,0.841,-0.691,0.0
8.456,0.812,-0.716,0.0
8.045,0.771,-0.727,0.0
10.238,0.977,-0.639,0.0
9.651,0.919,-0.657,0.0
0.0,0.0,0.0,0.0
8.833,0.839,-0.702,0.0
8.379,0.795,-0.714,0.0
8.017,0.759,-0.728,0.0
10.157,0.957,-0.638,0.0
9.627,0.906,-0.659,0.0
0.0,0.0,0.0,0.0
8.777,0.823,-0.701,0.0
8.345,0.782,-0.714,0.0
7.954,0.744,-0.726,0.0
10.144,0.944,-0.642,0.0
9.582,0.89,-0.66,0.0
0.0,0.0,0.0,0.0
0.0,0.0,0.0,0.0
8.334,0.77,-0.717,0.0
0.0,0.0,0.0,0.0
10.124,0.929,-0.644,0.0
9.595,0.879,-0.665,0.0
0.0,0.0,0.0,0.0
8.625,0.788,-0.696,0.0
8.309,0.758,-0.717,0.0
0.0,0.0,0.0,0.0
10.04,0.909,-0.642,0.0
9.523,0.861,-0.663,0.0
0.0,0.0,0.0,0.0
0.0,0.0,0.0,0.0
8.263,0.743,-0.716,0.0
0.0,0.0,0.0,0.0
10.053,0.897,-0.646,0.0
9.482,0.845,-0.662,0.0
9.037,0.804,-0.682,0.0
0.0,0.0,0.0,0.0
8.241,0.73,-0.716,0.0
0.0,0.0,0.0,0.0
10.023,0.882,-0.646,0.0
9.495,0.834,-0.666,0.0
9.004,0.789,-0.682,0.0
0.0,0.0,0.0,0.0
8.247,0.72,-0.719,0.0
0.0,0.0,0.0,0.0
9.989,0.866,-0.646,0.0
9.505,0.822,-0.668,0.0
8.956,0.773,-0.68,0.0
8.602,0.741,-0.703,0.0
8.227,0.707,-0.719,0.0
0.0,0.0,0.0,0.0
9.95,0.849,-0.646,0.0
9.478,0.807,-0.668,0.0
8.956,0.761,-0.682,0.0
8.635,0.732,-0.707,0.0
8.252,0.698,-0.722,0.0
0.0,0.0,0.0,0.0
9.917,0.832,-0.645,0.0
9.459,0.792,-0.668,0.0
8.981,0.751,-0.685,0.0
0.0,0.0,0.0,0.0
8.162,0.679,-0.715,0.0
0.0,0.0,0.0,0.0
9.913,0.819,-0.645,0.0
9.398,0.774,-0.665,0.0
9.007,0.74,-0.687,0.0
0.0,0.0,0.0,0.0
8.274,0.677,-0.725,0.0
0.0,0.0,0.0,0.0
10.001,0.812,-0.652,0.0
9.489,0.768,-0.671,0.0
8.987,0.726,-0.686,0.0
0.0,0.0,0.0,0.0
0.0,0.0,0.0,0.0
0.0,0.0,0.0,0.0
9.913,0.791,-0.646,0.0
9.459,0.753,-0.669,0.0
8.946,0.71,-0.683,0.0
0.0,0.0,0.0,0.0
0.0,0.0,0.0,0.0
0.0,0.0,0.0,0.0
9.89,0.775,-0.644,0.0
9.469,0.74,-0.67,0.0
8.942,0.697,-0.682,0.0
0.0,0.0,0.0,0.0
0.0,0.0,0.0,0.0
0.0,0.0,0.0,0.0
9.924,0.763,-0.646,0.0
9.433,0.723,-0.666,0.0
8.951,0.685,-0.682,0.0
8.538,0.651,-0.7,0.0
0.0,0.0,0.0,0.0
0.0,0.0,0.0,0.0
9.971,0.752,-0.648,0.0
9.484,0.713,-0.669,0.0
8.947,0.671,-0.681,0.0
0.0,0.0,0.0,0.0
0.0,0.0,0.0,0.0
0.0,0.0,0.0,0.0
9.949,0.736,-0.645,0.0
9.4,0.693,-0.661,0.0
8.999,0.662,-0.683,0.0
0.0,0.0,0.0,0.0
0.0,0.0,0.0,0.0
0.0,0.0,0.0,0.0
9.985,0.724,-0.645,0.0
9.479,0.685,-0.665,0.0
9.018,0.65,-0.683,0.0
0.0,0.0,0.0,0.0
0.0,0.0,0.0,0.0
9.989,0.709,-0.643,0.0
9.473,0.67,-0.662,0.0
9.057,0.639,-0.684,0.0
0.0,0.0,0.0,0.0
0.0,0.0,0.0,0.0
0.0,0.0,0.0,0.0
9.505,0.658,-0.662,0.0
9.034,0.624,-0.679,0.0
0.0,0.0,0.0,0.0
0.0,0.0,0.0,0.0
8.018,0.549,-0.737,0.0
0.0,0.0,0.0,0.0
9.588,0.65,-0.664,0.0
9.082,0.613,-0.68,0.0
0.0,0.0,0.0,0.0
0.0,0.0,0.0,0.0
0.0,0.0,0.0,0.0
9.55,0.633,-0.658,0.0
9.054,0.598,-0.674,0.0
0.0,0.0,0.0,0.0
0.0,0.0,0.0,0.0
7.994,0.523,-0.729,0.0
0.0,0.0,0.0,0.0
9.627,0.623,-0.659,0.0
9.136,0.589,-0.676,0.0
8.698,0.559,-0.693,0.0
0.0,0.0,0.0,0.0
0.0,0.0,0.0,0.0
0.0,0.0,0.0,0.0
9.6,0.606,-0.653,0.0
0.0,0.0,0.0,0.0
0.0,0.0,0.0,0.0
0.0,0.0,0.0,0.0
10.201,0.631,-0.633,0.0
9.64,0.594,-0.651,0.0
0.0,0.0,0.0,0.0
0.0,0.0,0.0,0.0
0.0,0.0,0.0,0.0
0.0,0.0,0.0,0.0
10.21,0.616,-0.628,0.0
9.708,0.583,-0.65,0.0
9.231,0.552,-0.669,0.0
8.877,0.529,-0.693,0.0
0.0,0.0,0.0,0.0
0.0,0.0,0.0,0.0
10.322,0.607,-0.629,0.0
0.0,0.0,0.0,0.0
9.346,0.545,-0.672,0.0
8.823,0.512,-0.684,0.0
0.0,0.0,0.0,0.0
0.0,0.0,0.0,0.0
10.368,0.593,-0.625,0.0
0.0,0.0,0.0,0.0
0.0,0.0,0.0,0.0
0.0,0.0,0.0,0.0
0.0,0.0,0.0,0.0
0.0,0.0,0.0,0.0
10.434,0.581,-0.622,0.0
9.922,0.55,-0.646,0.0
0.0,0.0,0.0,0.0
0.0,0.0,0.0,0.0
0.0,0.0,0.0,0.0
0.0,0.0,0.0,0.0
10.464,0.566,-0.616,0.0
10.017,0.54,-0.645,0.0
0.0,0.0,0.0,0.0
0.0,0.0,0.0,0.0
0.0,0.0,0.0,0.0
8.274,0.438,-0.714,0.0
10.573,0.556,-0.615,0.0
10.059,0.527,-0.64,0.0
0.0,0.0,0.0,0.0
0.0,0.0,0.0,0.0
0.0,0.0,0.0,0.0
8.334,0.428,-0.713,0.0
10.658,0.544,-0.611,0.0
10.188,0.518,-0.64,0.0
0.0,0.0,0.0,0.0
0.0,0.0,0.0,0.0
0.0,0.0,0.0,0.0
8.395,0.419,-0.711,0.0
10.771,0.533,-0.609,0.0
10.226,0.504,-0.633,0.0
0.0,0.0,0.0,0.0
0.0,0.0,0.0,0.0
0.0,0.0,0.0,0.0
8.411,0.406,-0.705,0.0
10.822,0.519,-0.602,0.0
10.273,0.49,-0.627,0.0
0.0,0.0,0.0,0.0
0.0,0.0,0.0,0.0
0.0,0.0,0.0,0.0
8.464,0.396,-0.702,0.0
10.955,0.509,-0.599,0.0
10.371,0.479,-0.624,0.0
0.0,0.0,0.0,0.0
0.0,0.0,0.0,0.0
0.0,0.0,0.0,0.0
8.547,0.387,-0.7,0.0
11.074,0.498,-0.595,0.0
10.442,0.467,-0.618,0.0
0.0,0.0,0.0,0.0
0.0,0.0,0.0,0.0
0.0,0.0,0.0,0.0
8.664,0.379,-0.701,0.0
11.173,0.486,-0.589,0.0
10.528,0.455,-0.612,0.0
10.077,0.433,-0.64,0.0
9.517,0.407,-0.657,0.0
0.0,0.0,0.0,0.0
8.711,0.368,-0.696,0.0
11.357,0.476,-0.587,0.0
10.638,0.444,-0.607,0.0
10.127,0.42,-0.633,0.0
0.0,0.0,0.0,0.0
0.0,0.0,0.0,0.0
0.0,0.0,0.0,0.0
11.446,0.463,-0.58,0.0
10.794,0.434,-0.605,0.0
10.214,0.408,-0.627,0.0
0.0,0.0,0.0,0.0
0.0,0.0,0.0,0.0
0.0,0.0,0.0,0.0
11.585,0.452,-0.574,0.0
10.868,0.421,-0.596,0.0
10.317,0.397,-0.622,0.0
0.0,0.0,0.0,0.0
0.0,0.0,0.0,0.0
8.955,0.338,-0.685,0.0
11.733,0.44,-0.567,0.0
11.137,0.415,-0.598,0.0
10.467,0.388,-0.618,0.0
9.961,0.367,-0.643,0.0
0.0,0.0,0.0,0.0
8.978,0.326,-0.676,0.0
11.904,0.429,-0.561,0.0
11.193,0.401,-0.588,0.0
10.601,0.377,-0.614,0.0
10.05,0.355,-0.636,0.0
0.0,0.0,0.0,0.0
9.149,0.319,-0.678,0.0
12.017,0.416,-0.552,0.0
11.331,0.39,-0.581,0.0
10.683,0.365,-0.605,0.0
10.205,0.346,-0.633,0.0
0.0,0.0,0.0,0.0
9.207,0.308,-0.67,0.0
12.26,0.407,-0.548,0.0
11.436,0.377,-0.572,0.0
10.89,0.357,-0.602,0.0
10.302,0.335,-0.626,0.0
9.848,0.318,-0.651,0.0
9.317,0.299,-0.666,0.0
12.417,0.395,-0.538,0.0
11.666,0.369,-0.568,0.0
11.072,0.347,-0.598,0.0
10.423,0.324,-0.619,0.0
9.925,0.307,-0.643,0.0
9.512,0.292,-0.667,0.0
12.628,0.384,-0.53,0.0
11.85,0.358,-0.561,0.0
11.16,0.334,-0.587,0.0
10.588,0.315,-0.615,0.0
10.072,0.297,-0.638,0.0
9.573,0.28,-0.658,0.0
12.752,0.371,-0.518,0.0
11.969,0.345,-0.55,0.0
11.321,0.324,-0.58,0.0
10.664,0.302,-0.604,0.0
10.188,0.287,-0.631,0.0
9.699,0.271,-0.653,0.0
13.027,0.361,-0.511,0.0
12.366,0.34,-0.55,0.0
11.515,0.314,-0.573,0.0
10.85,0.293,-0.599,0.0
10.336,0.277,-0.626,0.0
9.866,0.262,-0.65,0.0
13.232,0.349,-0.499,0.0
12.495,0.327,-0.538,0.0
11.707,0.303,-0.566,0.0
11.06,0.284,-0.594,0.0
10.45,0.266,-0.617,0.0
10.005,0.253,-0.644,0.0
13.478,0.338,-0.488,0.0
12.619,0.313,-0.524,0.0
11.91,0.293,-0.558,0.0
11.15,0.272,-0.582,0.0
10.609,0.256,-0.61,0.0
10.13,0.242,-0.636,0.0
13.741,0.326,-0.477,0.0
12.877,0.303,-0.515,0.0
12.104,0.282,-0.548,0.0
11.361,0.262,-0.576,0.0
10.751,0.246,-0.602,0.0
10.246,0.232,-0.628,0.0
13.979,0.314,-0.464,0.0
13.134,0.292,-0.505,0.0
12.378,0.273,-0.541,0.0
11.615,0.254,-0.57,0.0
10.993,0.238,-0.598,0.0
10.427,0.223,-0.622,0.0
14.321,0.304,-0.452,0.0
13.362,0.281,-0.492,0.0
12.556,0.261,-0.529,0.0
11.836,0.244,-0.562,0.0
11.115,0.227,-0.586,0.0
10.596,0.214,-0.615,0.0
14.647,0.293,-0.439,0.0
13.639,0.27,-0.481,0.0
12.821,0.252,-0.519,0.0
12.029,0.233,-0.552,0.0
11.404,0.219,-0.583,0.0
10.778,0.205,-0.608,0.0
15.013,0.283,-0.426,0.0
13.913,0.259,-0.468,0.0
13.064,0.241,-0.508,0.0
12.268,0.224,-0.543,0.0
11.59,0.209,-0.574,0.0
11.001,0.196,-0.602,0.0
15.45,0.273,-0.413,0.0
14.289,0.25,-0.456,0.0
13.345,0.231,-0.496,0.0
12.491,0.213,-0.531,0.0
11.799,0.199,-0.564,0.0
11.151,0.186,-0.591,0.0
15.834,0.262,-0.396,0.0
14.658,0.239,-0.443,0.0
13.628,0.22,-0.483,0.0
12.773,0.204,-0.521,0.0
12.003,0.189,-0.553,0.0
11.359,0.177,-0.583,0.0
16.274,0.251,-0.379,0.0
14.828,0.226,-0.423,0.0
13.912,0.209,-0.469,0.0
13.059,0.194,-0.51,0.0
12.282,0.18,-0.544,0.0
11.591,0.168,-0.574,0.0
16.644,0.238,-0.358,0.0
15.425,0.218,-0.412,0.0
14.279,0.199,-0.456,0.0
13.321,0.183,-0.497,0.0
12.49,0.17,-0.531,0.0
11.844,0.159,-0.566,0.0
17.09,0.227,-0.337,0.0
15.848,0.207,-0.395,0.0
14.582,0.188,-0.44,0.0
13.593,0.173,-0.482,0.0
12.783,0.16,-0.52,0.0
12.02,0.148,-0.552,0.0
17.691,0.216,-0.317,0.0
16.301,0.196,-0.377,0.0
15.006,0.178,-0.425,0.0
13.971,0.163,-0.47,0.0
13.016,0.15,-0.506,0.0
12.373,0.14,-0.546,0.0
18.344,0.206,-0.295,0.0
16.737,0.185,-0.356,0.0
15.498,0.169,-0.411,0.0
14.262,0.153,-0.454,0.0
13.391,0.141,-0.496,0.0
12.499,0.13,-0.528,0.0
19.204,0.197,-0.274,0.0
17.237,0.174,-0.335,0.0
15.932,0.158,-0.392,0.0
14.669,0.143,-0.439,0.0
13.702,0.131,-0.481,0.0
12.864,0.121,-0.519,0.0
20.109,0.187,-0.248,0.0
17.897,0.164,-0.314,0.0
16.468,0.148,-0.375,0.0
15.176,0.134,-0.426,0.0
14.016,0.121,-0.466,0.0
13.158,0.112,-0.506,0.0
21.349,0.179,-0.223,1.0
18.573,0.153,-0.29,0.0
16.827,0.136,-0.35,0.0
15.59,0.123,-0.407,0.0
14.427,0.112,-0.452,0.0
13.5,0.103,-0.493,0.0
22.287,0.167,-0.19,2.0
19.323,0.142,-0.265,0.0
17.368,0.125,-0.328,0.0
16.119,0.113,-0.389,0.0
14.827,0.102,-0.435,0.0
13.811,0.093,-0.477,0.0
23.36,0.155,-0.153,0.0
20.565,0.134,-0.242,0.0
18.224,0.116,-0.309,0.0
16.556,0.103,-0.368,0.0
15.416,0.094,-0.422,0.0
14.132,0.084,-0.461,0.0
24.608,0.144,-0.114,0.0
21.695,0.123,-0.212,3.0
18.931,0.105,-0.283,0.0
17.067,0.092,-0.345,0.0
15.798,0.083,-0.401,0.0
14.602,0.075,-0.447,0.0
25.585,0.129,-0.067,0.0
22.701,0.111,-0.177,1.0
19.907,0.095,-0.258,0.0
17.57,0.081,-0.32,0.0
16.297,0.073,-0.382,0.0
15.048,0.066,-0.43,0.0
26.777,0.115,-0.016,0.0
23.711,0.099,-0.137,0.0
21.086,0.085,-0.231,3.0
18.383,0.072,-0.298,0.0
16.789,0.063,-0.359,0.0
15.621,0.057,-0.415,0.0
27.831,0.099,0.038,1.0
25.01,0.086,-0.094,0.0
21.974,0.073,-0.196,1.0
19.216,0.062,-0.273,0.0
17.287,0.053,-0.335,0.0
15.998,0.047,-0.392,0.0
28.771,0.083,0.098,2.0
26.083,0.072,-0.045,0.0
23.371,0.062,-0.161,1.0
20.667,0.052,-0.251,0.0
18.068,0.044,-0.313,0.0
16.564,0.038,-0.372,0.0
30.306,0.068,0.165,0.0
27.191,0.058,0.007,0.0
24.241,0.049,-0.118,0.0
21.409,0.041,-0.216,4.0
18.812,0.034,-0.287,0.0
17.083,0.029,-0.349,0.0
32.202,0.052,0.242,0.0
28.633,0.044,0.067,2.0
25.632,0.036,-0.071,0.0
22.798,0.03,-0.183,0.0
19.924,0.024,-0.263,0.0
17.629,0.02,-0.323,0.0
33.236,0.035,0.318,0.0
28.828,0.027,0.128,0.0
26.582,0.023,-0.018,0.0
23.741,0.018,-0.141,1.0
21.06,0.014,-0.234,3.0
18.445,0.011,-0.3,0.0
0.0,0.0,0.0,0.0
30.833,0.013,0.201,0.0
27.98,0.009,0.038,0.0
25.112,0.006,-0.097,0.0
21.931,0.003,-0.197,0.0
19.442,0.001,-0.275,0.0
38.246,0.0,0.526,0.0
33.108,-0.001,0.284,0.0
28.754,-0.004,0.099,0.0
26.028,-0.005,-0.046,0.0
23.54,-0.006,-0.163,1.0
20.75,-0.007,-0.251,0.0
0.0,0.0,0.0,0.0
0.0,0.0,0.0,0.0
30.251,-0.017,0.167,0.0
27.429,-0.018,0.008,0.0
24.411,-0.017,-0.118,0.0
21.449,-0.017,-0.214,1.0
0.0,0.0,0.0,0.0
37.183,-0.035,0.475,0.0
0.0,0.0,0.0,0.0
28.719,-0.03,0.067,5.0
25.669,-0.029,-0.071,0.0
23.004,-0.027,-0.182,0.0
0.0,0.0,0.0,0.0
0.0,0.0,0.0,0.0
33.39,-0.046,0.325,0.0
28.885,-0.041,0.13,2.0
26.692,-0.04,-0.016,0.0
23.932,-0.037,-0.138,0.0
0.0,0.0,0.0,0.0
43.803,-0.073,0.745,0.0
14.14,-0.024,0.167,0.0
31.479,-0.056,0.208,0.0
28.566,-0.052,0.042,1.0
25.256,-0.047,-0.092,0.0
0.0,0.0,0.0,0.0
0.0,0.0,0.0,0.0
0.0,0.0,0.0,0.0
33.339,-0.069,0.292,1.0
28.816,-0.061,0.104,6.0
26.394,-0.057,-0.04,0.0
79.008,-0.176,2.088,2.0
0.0,0.0,0.0,0.0
0.0,0.0,0.0,0.0
14.085,-0.033,0.153,0.0
30.75,-0.073,0.177,0.0
27.748,-0.066,0.017,0.0
79.378,-0.197,2.268,1.0
0.0,0.0,0.0,0.0
0.0,0.0,0.0,0.0
37.483,-0.096,0.487,0.0
33.152,-0.086,0.26,1.0
28.771,-0.075,0.078,6.0
83.168,-0.223,2.551,4.0
79.22,-0.214,2.022,1.0
0.0,0.0,0.0,0.0
0.0,0.0,0.0,0.0
33.851,-0.093,0.338,0.0
28.872,-0.08,0.14,1.0
104.694,-0.299,3.435,2.0
79.459,-0.228,2.199,3.0
0.0,0.0,0.0,0.0
0.0,0.0,0.0,0.0
37.427,-0.109,0.454,0.0
31.638,-0.092,0.22,0.0
108.75,-0.325,3.799,8.0
82.887,-0.248,2.469,5.0
0.0,0.0,0.0,0.0
0.0,0.0,0.0,0.0
39.985,-0.12,0.569,0.0
33.253,-0.1,0.302,1.0
0.0,0.0,0.0,0.0
104.456,-0.322,3.331,2.0
79.565,-0.245,2.128,3.0
57.539,-0.177,1.237,1.0
43.474,-0.134,0.711,0.0
0.0,0.0,0.0,0.0
0.0,0.0,0.0,0.0
108.43,-0.34,3.687,6.0
82.755,-0.259,2.387,3.0
0.0,0.0,0.0,0.0
0.0,0.0,0.0,0.0
0.0,0.0,0.0,0.0
0.0,0.0,0.0,0.0
108.839,-0.342,3.932,1.0
83.318,-0.261,2.579,4.0
79.572,-0.248,2.046,1.0
57.657,-0.178,1.185,0.0
0.0,0.0,0.0,0.0
194.99,-0.612,8.465,5.0
0.0,0.0,0.0,0.0
104.588,-0.324,3.461,2.0
79.615,-0.245,2.217,2.0
57.592,-0.175,1.306,1.0
0.0,0.0,0.0,0.0
194.126,-0.599,8.837,19.0
0.0,0.0,0.0,0.0
108.77,-0.329,3.828,6.0
82.925,-0.249,2.482,6.0
0.0,0.0,0.0,0.0
0.0,0.0,0.0,0.0
194.149,-0.581,9.245,21.0
195.153,-0.578,8.286,6.0
174.855,-0.511,6.519,18.0
104.535,-0.302,3.347,1.0
79.45,-0.226,2.134,3.0
57.555,-0.161,1.249,0.0
179.244,-0.513,8.909,11.0
194.602,-0.55,8.665,6.0
179.165,-0.498,7.052,4.0
108.452,-0.296,3.697,8.0
82.792,-0.223,2.395,4.0
0.0,0.0,0.0,0.0
179.128,-0.483,9.273,19.0
194.097,-0.514,9.045,19.0
204.405,-0.531,8.468,6.0
108.911,-0.277,3.938,2.0
83.366,-0.208,2.584,5.0
79.066,-0.193,2.043,1.0
179.077,-0.446,9.646,12.0
194.357,-0.473,9.46,20.0
195.352,-0.465,8.497,6.0
179.099,-0.416,6.847,14.0
105.41,-0.238,3.485,5.0
79.292,-0.174,2.211,2.0
179.146,-0.403,10.018,12.0
202.44,-0.443,10.268,6.0
0.0,0.0,0.0,0.0
179.15,-0.369,7.211,98.0
108.758,-0.217,3.816,7.0
83.032,-0.16,2.484,5.0
106.148,-0.21,6.149,9.0
179.148,-0.342,9.45,15.0
194.44,-0.358,9.248,12.0
204.078,-0.36,8.628,11.0
0.0,0.0,0.0,0.0
83.333,-0.135,2.661,2.0
106.197,-0.176,6.369,9.0
178.952,-0.284,9.801,20.0
194.366,-0.294,9.636,12.0
195.352,-0.28,8.654,5.0
129.349,-0.175,5.061,17.0
108.453,-0.138,3.68,5.0
96.539,-0.126,5.985,14.0
178.71,-0.22,10.15,16.0
202.019,-0.232,10.422,18.0
201.612,-0.214,9.336,19.0
129.332,-0.126,5.319,24.0
108.864,-0.097,3.913,6.0
96.51,-0.089,6.176,19.0
96.37,-0.081,5.665,6.0
151.079,-0.113,8.094,27.0
201.671,-0.133,9.738,19.0
129.246,-0.073,5.571,3.0
0.0,0.0,0.0,0.0
82.987,-0.042,5.474,7.0
96.497,-0.04,5.863,20.0
151.023,-0.048,8.391,33.0
201.294,-0.044,10.119,15.0
201.778,-0.024,9.092,9.0
129.233,-0.002,5.153,30.0
83.002,-0.004,5.64,20.0
96.597,0.004,6.059,20.0
91.526,0.013,5.264,14.0
151.061,0.038,7.887,34.0
201.603,0.072,9.478,22.0
129.166,0.059,5.4,35.0
63.526,0.027,4.439,23.0
83.147,0.044,5.377,8.0
91.551,0.059,5.442,12.0
151.046,0.113,8.175,41.0
201.248,0.175,9.844,24.0
129.114,0.126,5.644,13.0
63.552,0.06,4.564,34.0
83.068,0.088,5.531,27.0
91.507,0.108,5.615,8.0
91.167,0.118,5.108,12.0
151.092,0.214,7.68,9.0
83.3,0.127,3.799,12.0
63.638,0.096,4.69,26.0
63.557,0.103,4.352,9.0
83.191,0.145,5.262,22.0
83.288,0.156,4.823,11.0
83.343,0.166,4.392,12.0
83.273,0.176,3.955,28.0
63.614,0.133,4.809,22.0
63.566,0.141,4.472,24.0
83.11,0.195,5.412,29.0
83.249,0.206,4.977,26.0
83.269,0.217,4.543,22.0
83.255,0.228,4.108,31.0
62.825,0.171,4.867,20.0
63.613,0.181,4.594,28.0
79.398,0.237,5.318,38.0
83.167,0.26,5.127,31.0
83.21,0.271,4.693,27.0
83.228,0.282,4.26,27.0
62.846,0.212,4.984,29.0
63.724,0.224,4.719,21.0
91.431,0.334,6.291,9.0
83.134,0.315,5.274,23.0
83.181,0.327,4.842,27.0
83.228,0.339,4.408,27.0
63.02,0.256,5.112,16.0
63.515,0.267,4.817,38.0
63.037,0.274,4.45,8.0
79.423,0.357,5.18,108.0
83.187,0.386,4.99,22.0
83.206,0.398,4.555,16.0
63.257,0.302,5.244,9.0
63.269,0.312,4.911,25.0
63.416,0.322,4.589,17.0
79.417,0.415,5.321,26.0
79.361,0.426,4.901,13.0
79.338,0.438,4.483,7.0
63.104,0.35,5.343,24.0
63.204,0.359,5.018,10.0
63.216,0.369,4.686,30.0
62.884,0.377,4.322,28.0
79.356,0.488,5.038,6.0
79.348,0.5,4.62,4.0
58.74,0.371,5.075,16.0
57.223,0.37,4.641,25.0
63.329,0.419,4.802,29.0
63.036,0.427,4.441,28.0
76.432,0.531,4.981,11.0
79.29,0.563,4.751,2.0
58.716,0.418,5.173,23.0
57.637,0.419,4.772,31.0
63.422,0.472,4.916,35.0
63.206,0.48,4.559,31.0
76.679,0.596,5.126,22.0
76.716,0.608,4.724,4.0
58.499,0.466,5.252,34.0
57.495,0.467,4.857,31.0
62.88,0.521,4.978,26.0
75.856,0.642,5.597,13.0
62.959,0.543,4.312,12.0
76.595,0.673,4.842,5.0
57.23,0.505,5.232,33.0
57.449,0.516,4.947,31.0
57.349,0.525,4.634,11.0
63.509,0.592,4.787,21.0
76.04,0.722,5.33,17.0
76.691,0.742,4.97,22.0
56.632,0.55,5.269,26.0
57.442,0.568,5.038,28.0
57.328,0.577,4.723,22.0
63.465,0.649,4.886,31.0
76.049,0.792,5.45,15.0
76.328,0.808,5.066,22.0
56.758,0.604,5.37,19.0
57.42,0.621,5.126,30.0
57.334,0.63,4.813,17.0
62.664,0.699,4.921,32.0
63.371,0.718,4.639,28.0
76.167,0.877,5.172,24.0
57.879,0.67,5.566,32.0
56.853,0.668,5.163,27.0
62.833,0.749,5.37,22.0
62.782,0.76,5.025,32.0
63.388,0.779,4.736,4.0
76.131,0.949,5.283,9.0
57.724,0.723,5.637,26.0
56.759,0.721,5.239,29.0
0.0,0.0,0.0,0.0
59.098,0.773,4.818,18.0
59.013,0.783,4.496,21.0
63.233,0.85,4.481,28.0
62.954,0.851,6.241,9.0
56.867,0.779,5.332,24.0
59.043,0.82,5.22,21.0
59.082,0.832,4.901,27.0
59.035,0.842,4.582,17.0
76.295,1.103,5.515,14.0
59.035,0.858,5.937,1.0
57.177,0.841,5.443,29.0
58.195,0.868,5.228,33.0
59.071,0.892,4.984,30.0
59.041,0.903,4.666,23.0
77.265,1.196,5.693,24.0
55.038,0.856,5.612,21.0
57.334,0.903,5.538,22.0
57.303,0.913,5.227,27.0
58.672,0.947,5.031,33.0
63.87,1.043,5.135,9.0
83.425,1.378,6.26,13.0
55.032,0.915,5.687,20.0
49.484,0.832,4.847,17.0
57.477,0.978,5.321,31.0
58.74,1.011,5.116,33.0
82.756,1.44,6.763,11.0
63.292,1.114,4.833,17.0
55.007,0.974,5.758,8.0
49.098,0.879,4.874,20.0
57.554,1.042,5.403,26.0
0.0,0.0,0.0,0.0
62.601,1.157,5.197,20.0
63.125,1.18,4.901,29.0
50.153,0.943,5.315,20.0
55.098,1.047,5.541,11.0
57.77,1.109,5.497,7.0
56.9,1.104,5.102,22.0
63.182,1.239,5.325,38.0
63.124,1.25,4.981,26.0
57.731,1.15,6.19,20.0
55.011,1.107,5.6,10.0
60.964,1.238,5.877,27.0
56.707,1.163,5.153,31.0
55.844,1.156,4.774,7.0
63.203,1.322,5.062,17.0
0.0,0.0,0.0,0.0
54.982,1.168,5.663,17.0
61.024,1.309,5.955,31.0
56.905,1.232,5.239,31.0
55.975,1.223,4.851,22.0
63.236,1.395,5.139,19.0
49.647,1.103,5.443,17.0
49.68,1.113,5.176,13.0
61.0,1.379,6.023,10.0
57.417,1.31,5.353,31.0
55.963,1.288,4.914,20.0
63.167,1.467,5.205,20.0
49.648,1.161,5.499,20.0
48.858,1.152,5.145,23.0
49.14,1.169,4.907,15.0
63.247,1.517,5.966,9.0
50.58,1.223,4.497,24.0
63.074,1.539,5.266,10.0
49.712,1.221,5.56,28.0
49.243,1.219,5.239,23.0
49.245,1.23,4.971,23.0
50.427,1.27,4.81,14.0
49.962,1.268,4.495,26.0
63.137,1.616,5.338,17.0
45.497,1.172,5.137,19.0
48.778,1.267,5.24,23.0
49.338,1.291,5.031,13.0
50.651,1.336,4.884,24.0
50.059,1.331,4.555,29.0
63.015,1.689,5.391,10.0
45.49,1.228,5.182,22.0
48.813,1.327,5.294,23.0
0.0,0.0,0.0,0.0
50.729,1.4,4.941,24.0
50.189,1.395,4.615,25.0
63.758,1.786,5.516,15.0
45.517,1.284,5.229,17.0
49.086,1.394,5.37,17.0
48.641,1.391,5.054,19.0
61.742,1.778,6.071,12.0
50.209,1.457,4.663,18.0
62.688,1.832,5.48,13.0
45.327,1.334,5.249,43.0
45.928,1.361,5.066,20.0
48.682,1.452,5.102,22.0
51.005,1.532,5.061,19.0
50.353,1.522,4.721,16.0
0.0,0.0,0.0,0.0
45.338,1.39,5.29,24.0
48.846,1.507,5.43,9.0
48.863,1.518,5.163,22.0
51.062,1.597,5.11,23.0
50.542,1.591,4.781,21.0
56.185,1.78,5.008,9.0
45.381,1.448,5.333,40.0
45.617,1.465,5.109,19.0
48.971,1.583,5.215,12.0
51.072,1.662,5.153,17.0
50.402,1.65,4.809,27.0
55.647,1.833,5.004,24.0
47.822,1.586,5.658,13.0
45.589,1.521,5.142,34.0
46.011,1.545,4.935,30.0
57.678,1.948,5.863,19.0
50.496,1.716,4.855,23.0
55.536,1.899,5.035,24.0
45.365,1.562,5.401,26.0
45.605,1.58,5.177,33.0
46.041,1.604,4.972,34.0
48.402,1.696,4.955,7.0
50.295,1.772,4.872,33.0
50.129,1.777,4.58,16.0
45.384,1.62,5.435,29.0
45.655,1.639,5.215,23.0
46.086,1.664,5.009,35.0
48.444,1.759,4.992,22.0
50.231,1.835,4.9,40.0
49.966,1.835,4.599,23.0
45.466,1.682,5.476,39.0
45.862,1.706,5.268,16.0
46.007,1.72,5.03,12.0
48.423,1.82,5.021,22.0
50.428,1.905,4.95,21.0
50.003,1.9,4.633,23.0
45.44,1.739,5.501,42.0
45.813,1.762,5.29,34.0
45.799,1.771,5.034,20.0
48.859,1.899,5.095,23.0
50.276,1.964,4.964,21.0
50.116,1.968,4.672,24.0
45.537,1.801,5.538,35.0
45.679,1.815,5.301,30.0
45.318,1.81,5.007,10.0
49.542,1.989,5.193,14.0
50.311,2.029,4.995,27.0
49.851,2.02,4.673,17.0
45.925,1.875,5.609,28.0
45.757,1.877,5.333,20.0
45.232,1.864,5.02,28.0
63.223,2.618,6.659,7.0
50.311,2.093,5.019,26.0
50.287,2.103,4.738,24.0
45.723,1.926,5.606,25.0
45.645,1.931,5.342,34.0
45.379,1.929,5.057,36.0
56.358,2.406,5.961,5.0
50.417,2.162,5.052,23.0
49.885,2.15,4.722,23.0
45.734,1.985,5.628,24.0
45.609,1.989,5.357,24.0
45.435,1.99,5.082,35.0
56.367,2.479,5.985,8.0
50.362,2.224,5.067,32.0
49.834,2.211,4.737,19.0
45.581,2.037,5.627,23.0
45.669,2.049,5.382,31.0
48.296,2.177,5.42,4.0
51.439,2.329,5.481,21.0
50.472,2.295,5.096,23.0
49.914,2.278,4.762,30.0
44.883,2.064,5.556,21.0
45.628,2.107,5.392,20.0
48.301,2.239,5.437,7.0
56.34,2.622,6.021,16.0
50.456,2.358,5.11,27.0
49.928,2.343,4.779,36.0
44.419,2.099,5.512,18.0
45.699,2.169,5.414,39.0
48.263,2.299,5.446,19.0
56.383,2.696,6.041,15.0
50.485,2.423,5.127,26.0
49.964,2.408,4.795,14.0
44.525,2.162,5.536,19.0
45.746,2.229,5.431,35.0
47.953,2.345,5.423,22.0
48.859,2.398,5.246,13.0
50.167,2.472,5.105,29.0
50.036,2.474,4.812,10.0
0.0,0.0,0.0,0.0
43.579,2.178,5.182,16.0
47.472,2.381,5.377,21.0
48.849,2.459,5.254,19.0
50.272,2.539,5.125,31.0
49.994,2.535,4.817,28.0
0.0,0.0,0.0,0.0
43.519,2.23,5.181,19.0
47.465,2.441,5.383,24.0
49.27,2.542,5.306,23.0
50.146,2.597,5.119,20.0
49.937,2.594,4.818,16.0
47.523,2.487,5.932,18.0
43.541,2.286,5.189,18.0
47.452,2.499,5.387,33.0
48.71,2.574,5.25,10.0
50.087,2.656,5.117,14.0
53.708,2.857,5.186,8.0
0.0,0.0,0.0,0.0
43.659,2.346,5.206,21.0
48.129,2.595,5.466,22.0
47.551,2.572,5.128,15.0
49.149,2.667,5.023,22.0
56.815,3.092,5.487,6.0
44.469,2.438,5.555,16.0
43.675,2.401,5.208,28.0
48.349,2.666,5.492,22.0
51.48,2.847,5.551,4.0
48.777,2.706,4.985,22.0
56.862,3.164,5.491,20.0
43.767,2.453,5.467,28.0
43.607,2.451,5.199,31.0
48.29,2.722,5.484,22.0
47.743,2.698,5.146,33.0
48.898,2.772,4.995,22.0
