X,Y,Z,Reflectivity
147.258,-13.111,9.817,4.0
148.909,-13.214,9.098,12.0
209.165,-18.503,11.618,116.0
144.28,-12.773,12.072,15.0
144.956,-12.789,11.319,15.0
146.04,-12.841,10.587,5.0
145.849,-12.78,9.744,13.0
185.363,-16.19,11.353,26.0
185.349,-16.136,10.319,21.0
44.078,0.655,0.748,0.0
35.843,0.545,0.412,0.0
31.217,0.485,0.189,0.0
27.196,0.432,0.013,0.0
24.395,0.396,-0.12,0.0
21.808,0.361,-0.226,0.0
0.0,0.0,0.0,0.0
36.751,0.637,0.434,0.0
0.0,0.0,0.0,0.0
27.401,0.493,0.021,0.0
24.669,0.452,-0.115,0.0
21.817,0.407,-0.221,0.0
0.0,0.0,0.0,0.0
36.997,0.719,0.446,0.0
31.553,0.624,0.208,0.0
27.484,0.552,0.028,0.0
24.756,0.506,-0.11,0.0
21.837,0.453,-0.216,1.0
0.0,0.0,0.0,0.0
37.232,0.801,0.457,1.0
31.267,0.684,0.212,0.0
27.521,0.611,0.033,0.0
24.853,0.561,-0.105,0.0
21.908,0.501,-0.212,1.0
47.654,1.111,0.854,1.0
0.0,0.0,0.0,0.0
31.722,0.761,0.221,0.0
28.558,0.694,0.039,0.0
24.893,0.614,-0.101,0.0
21.922,0.547,-0.209,0.0
0.0,0.0,0.0,0.0
36.743,0.946,0.462,0.0
0.0,0.0,0.0,0.0
28.262,0.747,0.042,0.0
25.094,0.671,-0.099,0.0
21.983,0.595,-0.207,0.0
0.0,0.0,0.0,0.0
37.328,1.041,0.474,0.0
31.655,0.893,0.228,0.0
28.251,0.806,0.045,0.0
24.952,0.72,-0.096,0.0
21.962,0.641,-0.206,0.0
48.195,1.43,0.88,0.0
37.804,1.133,0.482,0.0
32.181,0.976,0.233,0.0
28.206,0.865,0.046,0.0
24.967,0.773,-0.095,0.0
21.983,0.688,-0.205,0.0
0.0,0.0,0.0,0.0
0.0,0.0,0.0,0.0
31.394,1.018,0.228,0.0
28.072,0.919,0.047,1.0
24.731,0.818,-0.094,0.0
21.924,0.732,-0.204,0.0
48.498,1.643,0.887,1.0
37.844,1.294,0.483,0.0
31.959,1.103,0.232,0.0
27.949,0.974,0.046,0.0
24.694,0.868,-0.095,1.0
21.987,0.78,-0.206,0.0
50.728,1.825,0.925,1.0
38.528,1.398,0.49,0.0
32.144,1.176,0.231,0.0
27.928,1.031,0.044,0.0
24.741,0.921,-0.097,1.0
22.005,0.826,-0.208,1.0
0.0,0.0,0.0,0.0
37.941,1.455,0.479,0.0
31.837,1.231,0.226,0.0
27.798,1.084,0.041,0.0
24.618,0.968,-0.099,1.0
21.861,0.866,-0.209,1.0
0.0,0.0,0.0,0.0
37.65,1.522,0.471,0.0
31.925,1.301,0.223,1.0
27.729,1.139,0.037,0.0
24.555,1.016,-0.102,1.0
21.714,0.905,-0.21,2.0
47.928,2.022,0.858,0.0
38.207,1.624,0.472,0.0
32.119,1.375,0.219,1.0
27.606,1.191,0.032,0.0
24.709,1.073,-0.107,0.0
21.663,0.948,-0.214,1.0
47.846,2.117,0.847,0.0
37.492,1.67,0.456,0.0
31.664,1.42,0.209,1.0
27.463,1.24,0.026,0.0
24.691,1.123,-0.112,0.0
21.628,0.99,-0.218,1.0
47.833,2.215,0.836,1.0
0.0,0.0,0.0,0.0
31.65,1.484,0.202,1.0
27.33,1.29,0.019,0.0
24.487,1.163,-0.118,0.0
21.616,1.033,-0.224,1.0
10.073,0.587,-0.634,0.0
0.0,0.0,0.0,0.0
9.128,0.528,-0.674,0.0
8.707,0.501,-0.692,0.0
0.0,0.0,0.0,0.0
0.0,0.0,0.0,0.0
10.196,0.578,-0.635,0.0
0.0,0.0,0.0,0.0
0.0,0.0,0.0,0.0
0.0,0.0,0.0,0.0
0.0,0.0,0.0,0.0
0.0,0.0,0.0,0.0
10.258,0.566,-0.632,0.0
0.0,0.0,0.0,0.0
0.0,0.0,0.0,0.0
0.0,0.0,0.0,0.0
0.0,0.0,0.0,0.0
0.0,0.0,0.0,0.0
10.304,0.553,-0.628,0.0
0.0,0.0,0.0,0.0
0.0,0.0,0.0,0.0
0.0,0.0,0.0,0.0
0.0,0.0,0.0,0.0
0.0,0.0,0.0,0.0
10.395,0.542,-0.625,0.0
9.898,0.514,-0.649,0.0
0.0,0.0,0.0,0.0
0.0,0.0,0.0,0.0
0.0,0.0,0.0,0.0
0.0,0.0,0.0,0.0
10.449,0.529,-0.62,0.0
9.879,0.498,-0.64,0.0
0.0,0.0,0.0,0.0
0.0,0.0,0.0,0.0
8.563,0.425,-0.696,0.0
0.0,0.0,0.0,0.0
10.477,0.514,-0.613,0.0
0.0,0.0,0.0,0.0
0.0,0.0,0.0,0.0
0.0,0.0,0.0,0.0
0.0,0.0,0.0,0.0
8.304,0.398,-0.713,0.0
10.626,0.506,-0.612,0.0
0.0,0.0,0.0,0.0
0.0,0.0,0.0,0.0
0.0,0.0,0.0,0.0
8.709,0.406,-0.692,0.0
8.364,0.388,-0.71,0.0
10.706,0.493,-0.607,0.0
10.19,0.467,-0.633,0.0
9.703,0.443,-0.656,0.0
0.0,0.0,0.0,0.0
8.788,0.397,-0.69,0.0
8.413,0.378,-0.706,0.0
10.853,0.484,-0.605,0.0
10.306,0.457,-0.63,0.0
0.0,0.0,0.0,0.0
0.0,0.0,0.0,0.0
8.818,0.385,-0.684,0.0
8.495,0.369,-0.705,0.0
10.957,0.472,-0.6,0.0
10.357,0.444,-0.623,0.0
0.0,0.0,0.0,0.0
0.0,0.0,0.0,0.0
8.922,0.376,-0.682,0.0
8.543,0.358,-0.699,0.0
11.092,0.461,-0.596,0.0
10.524,0.435,-0.622,0.0
0.0,0.0,0.0,0.0
0.0,0.0,0.0,0.0
9.004,0.366,-0.679,0.0
8.629,0.349,-0.697,0.0
11.124,0.446,-0.585,0.0
10.547,0.421,-0.612,0.0
10.04,0.398,-0.636,0.0
0.0,0.0,0.0,0.0
0.0,0.0,0.0,0.0
8.715,0.339,-0.694,0.0
11.351,0.439,-0.584,0.0
10.673,0.41,-0.607,0.0
10.202,0.39,-0.635,0.0
0.0,0.0,0.0,0.0
0.0,0.0,0.0,0.0
8.823,0.331,-0.692,0.0
11.445,0.426,-0.576,0.0
10.802,0.399,-0.601,0.0
10.277,0.378,-0.627,0.0
0.0,0.0,0.0,0.0
0.0,0.0,0.0,0.0
8.869,0.32,-0.685,0.0
11.597,0.415,-0.57,0.0
10.995,0.391,-0.599,0.0
10.397,0.367,-0.622,0.0
9.932,0.348,-0.648,0.0
9.403,0.328,-0.665,0.0
8.94,0.309,-0.68,0.0
11.817,0.406,-0.566,0.0
11.138,0.38,-0.593,0.0
10.496,0.356,-0.615,0.0
9.936,0.334,-0.636,0.0
9.584,0.32,-0.665,0.0
9.091,0.302,-0.68,0.0
11.96,0.394,-0.557,0.0
11.3,0.37,-0.587,0.0
10.726,0.348,-0.614,0.0
10.152,0.327,-0.637,0.0
9.589,0.307,-0.653,0.0
0.0,0.0,0.0,0.0
12.116,0.383,-0.549,0.0
11.377,0.357,-0.576,0.0
10.751,0.334,-0.602,0.0
10.218,0.316,-0.627,0.0
0.0,0.0,0.0,0.0
0.0,0.0,0.0,0.0
12.394,0.374,-0.545,0.0
11.566,0.347,-0.57,0.0
11.01,0.327,-0.601,0.0
10.349,0.305,-0.621,0.0
9.868,0.289,-0.645,0.0
9.359,0.272,-0.662,0.0
12.494,0.36,-0.532,0.0
11.74,0.336,-0.562,0.0
11.149,0.316,-0.593,0.0
10.497,0.296,-0.615,0.0
10.04,0.281,-0.642,0.0
9.55,0.265,-0.661,0.0
12.691,0.349,-0.522,0.0
11.963,0.326,-0.556,0.0
11.267,0.305,-0.583,0.0
10.616,0.285,-0.607,0.0
10.185,0.271,-0.636,0.0
9.676,0.255,-0.656,0.0
12.94,0.339,-0.514,0.0
12.271,0.319,-0.552,0.0
11.451,0.295,-0.576,0.0
10.867,0.278,-0.605,0.0
10.264,0.26,-0.626,0.0
9.816,0.246,-0.651,0.0
13.101,0.326,-0.5,0.0
12.424,0.307,-0.54,0.0
11.684,0.286,-0.57,0.0
11.031,0.268,-0.598,0.0
10.418,0.25,-0.62,0.0
9.909,0.236,-0.642,0.0
13.371,0.316,-0.491,0.0
12.561,0.294,-0.527,0.0
11.865,0.275,-0.561,0.0
11.17,0.257,-0.588,0.0
10.594,0.241,-0.614,0.0
10.11,0.228,-0.639,0.0
13.7,0.307,-0.481,0.0
12.81,0.284,-0.518,0.0
12.045,0.265,-0.55,0.0
11.384,0.248,-0.581,0.0
10.811,0.233,-0.609,0.0
10.236,0.218,-0.631,0.0
13.944,0.295,-0.468,0.0
13.067,0.274,-0.507,0.0
12.35,0.256,-0.544,0.0
11.603,0.238,-0.574,0.0
10.997,0.224,-0.602,0.0
10.399,0.209,-0.624,0.0
14.257,0.285,-0.455,0.0
13.294,0.263,-0.494,0.0
12.514,0.245,-0.531,0.0
11.797,0.228,-0.564,0.0
11.191,0.214,-0.594,0.0
10.558,0.2,-0.616,0.0
14.616,0.275,-0.442,0.0
13.571,0.252,-0.482,0.0
12.754,0.234,-0.52,0.0
11.999,0.218,-0.553,0.0
11.329,0.204,-0.582,0.0
10.741,0.191,-0.608,0.0
14.909,0.263,-0.426,0.0
13.902,0.242,-0.47,0.0
12.993,0.224,-0.508,0.0
12.282,0.209,-0.546,0.0
11.558,0.195,-0.574,0.0
11.002,0.183,-0.604,0.0
15.268,0.252,-0.411,0.0
14.208,0.232,-0.456,0.0
13.293,0.214,-0.497,0.0
12.458,0.198,-0.532,0.0
11.811,0.186,-0.566,0.0
11.156,0.173,-0.593,0.0
15.794,0.243,-0.397,0.0
14.585,0.222,-0.443,0.0
13.558,0.204,-0.483,0.0
12.733,0.189,-0.521,0.0
12.046,0.176,-0.556,0.0
11.335,0.164,-0.583,0.0
16.211,0.232,-0.379,0.0
14.924,0.211,-0.427,0.0
13.931,0.194,-0.471,0.0
13.01,0.179,-0.509,0.0
12.315,0.167,-0.547,0.0
11.574,0.155,-0.574,0.0
16.638,0.221,-0.359,0.0
15.48,0.203,-0.415,0.0
14.257,0.184,-0.457,0.0
13.31,0.17,-0.497,0.0
12.491,0.157,-0.532,0.0
11.833,0.147,-0.566,0.0
17.066,0.21,-0.338,0.0
15.854,0.192,-0.397,0.0
14.59,0.174,-0.441,0.0
13.594,0.16,-0.483,0.0
12.792,0.148,-0.521,0.0
12.047,0.137,-0.554,0.0
17.655,0.199,-0.317,0.0
16.297,0.181,-0.377,0.0
15.068,0.165,-0.427,0.0
13.885,0.15,-0.467,0.0
13.075,0.139,-0.508,0.0
12.292,0.128,-0.542,0.0
18.418,0.19,-0.296,0.0
16.71,0.17,-0.355,0.0
15.502,0.155,-0.41,0.0
14.24,0.14,-0.452,0.0
13.385,0.129,-0.495,0.0
12.597,0.12,-0.531,0.0
19.317,0.182,-0.274,0.0
17.25,0.159,-0.334,0.0
15.941,0.145,-0.391,0.0
14.768,0.132,-0.441,0.0
13.752,0.12,-0.482,0.0
12.827,0.11,-0.516,0.0
20.193,0.172,-0.247,0.0
17.857,0.149,-0.311,0.0
16.472,0.135,-0.373,0.0
15.154,0.122,-0.423,0.0
14.087,0.111,-0.466,0.0
13.19,0.102,-0.505,0.0
21.308,0.163,-0.22,1.0
18.67,0.14,-0.289,0.0
16.872,0.124,-0.349,0.0
15.658,0.112,-0.407,0.0
14.396,0.101,-0.449,0.0
13.539,0.093,-0.492,0.0
22.321,0.152,-0.187,2.0
19.515,0.13,-0.264,0.0
17.406,0.113,-0.326,0.0
16.155,0.103,-0.388,0.0
14.849,0.092,-0.433,0.0
13.888,0.085,-0.477,0.0
23.425,0.141,-0.15,0.0
20.727,0.122,-0.24,0.0
18.233,0.104,-0.305,0.0
16.575,0.093,-0.365,0.0
15.373,0.084,-0.418,0.0
14.214,0.076,-0.46,0.0
24.667,0.129,-0.109,0.0
21.742,0.111,-0.209,3.0
18.932,0.094,-0.28,0.0
17.055,0.083,-0.342,0.0
15.8,0.075,-0.398,0.0
14.558,0.067,-0.443,0.0
25.726,0.116,-0.063,0.0
22.91,0.101,-0.174,1.0
20.055,0.086,-0.256,0.0
17.655,0.073,-0.318,0.0
16.381,0.066,-0.38,0.0
15.002,0.058,-0.426,0.0
26.803,0.103,-0.011,0.0
23.84,0.088,-0.133,0.0
21.177,0.076,-0.227,4.0
18.441,0.064,-0.295,0.0
16.813,0.056,-0.356,0.0
15.579,0.05,-0.41,0.0
28.323,0.09,0.045,1.0
25.204,0.077,-0.089,0.0
22.129,0.065,-0.192,0.0
19.382,0.055,-0.27,0.0
17.402,0.047,-0.333,0.0
16.142,0.042,-0.392,0.0
28.763,0.073,0.104,2.0
26.253,0.064,-0.039,0.0
23.421,0.054,-0.156,1.0
20.768,0.046,-0.247,0.0
18.167,0.038,-0.31,0.0
16.583,0.033,-0.368,0.0
30.165,0.059,0.172,0.0
27.387,0.051,0.015,0.0
24.366,0.043,-0.112,0.0
21.433,0.035,-0.211,3.0
18.963,0.029,-0.284,0.0
17.109,0.025,-0.345,0.0
0.0,0.0,0.0,0.0
28.703,0.037,0.075,2.0
25.665,0.031,-0.064,0.0
23.043,0.026,-0.179,0.0
20.092,0.021,-0.259,0.0
17.752,0.017,-0.321,0.0
33.255,0.029,0.327,0.0
29.275,0.023,0.137,0.0
26.653,0.019,-0.012,0.0
23.829,0.015,-0.136,0.0
21.149,0.011,-0.229,3.0
18.56,0.008,-0.297,0.0
36.287,0.014,0.433,0.0
30.938,0.01,0.21,0.0
28.219,0.007,0.046,1.0
25.31,0.004,-0.09,0.0
22.122,0.002,-0.193,0.0
19.549,0.0,-0.271,0.0
39.299,-0.001,0.552,0.0
33.244,-0.003,0.296,0.0
28.785,-0.005,0.108,0.0
26.385,-0.006,-0.039,0.0
23.64,-0.007,-0.156,1.0
20.922,-0.008,-0.246,1.0
0.0,0.0,0.0,0.0
36.38,-0.018,0.401,0.0
30.649,-0.017,0.18,0.0
27.486,-0.017,0.017,0.0
24.849,-0.017,-0.112,0.0
21.558,-0.016,-0.208,1.0
0.0,0.0,0.0,0.0
0.0,0.0,0.0,0.0
33.146,-0.031,0.265,0.0
28.748,-0.028,0.079,5.0
25.956,-0.027,-0.061,0.0
23.308,-0.025,-0.175,0.0
0.0,0.0,0.0,0.0
0.0,0.0,0.0,0.0
0.0,0.0,0.0,0.0
29.046,-0.038,0.142,1.0
26.981,-0.036,-0.006,0.0
24.102,-0.033,-0.129,0.0
0.0,0.0,0.0,0.0
0.0,0.0,0.0,0.0
0.0,0.0,0.0,0.0
31.501,-0.05,0.221,0.0
28.649,-0.046,0.054,4.0
25.378,-0.042,-0.082,0.0
0.0,0.0,0.0,0.0
0.0,0.0,0.0,0.0
40.408,-0.072,0.582,0.0
33.177,-0.06,0.304,0.0
28.837,-0.053,0.116,5.0
26.496,-0.05,-0.029,0.0
78.94,-0.154,2.119,3.0
0.0,0.0,0.0,0.0
43.876,-0.088,0.726,0.0
36.058,-0.073,0.407,0.0
31.175,-0.064,0.192,1.0
28.118,-0.058,0.028,1.0
82.75,-0.177,2.399,3.0
0.0,0.0,0.0,0.0
0.0,0.0,0.0,0.0
0.0,0.0,0.0,0.0
33.211,-0.073,0.275,1.0
28.795,-0.064,0.091,6.0
83.326,-0.19,2.594,5.0
78.89,-0.181,2.05,1.0
0.0,0.0,0.0,0.0
41.404,-0.096,0.645,0.0
0.0,0.0,0.0,0.0
30.462,-0.071,0.161,0.0
105.503,-0.253,3.509,4.0
79.366,-0.19,2.231,3.0
0.0,0.0,0.0,0.0
0.0,0.0,0.0,0.0
37.176,-0.089,0.467,0.0
33.206,-0.08,0.246,0.0
108.802,-0.268,3.85,10.0
83.001,-0.205,2.509,6.0
0.0,0.0,0.0,0.0
0.0,0.0,0.0,0.0
0.0,0.0,0.0,0.0
33.409,-0.081,0.318,0.0
174.833,-0.438,6.559,4.0
105.467,-0.263,3.411,2.0
79.308,-0.197,2.157,3.0
0.0,0.0,0.0,0.0
0.0,0.0,0.0,0.0
36.546,-0.089,0.426,0.0
179.112,-0.448,7.099,8.0
108.598,-0.27,3.745,8.0
82.864,-0.204,2.429,5.0
0.0,0.0,0.0,0.0
47.859,-0.116,0.906,0.0
0.0,0.0,0.0,0.0
0.0,0.0,0.0,0.0
0.0,0.0,0.0,0.0
83.332,-0.201,2.619,3.0
79.156,-0.189,2.072,2.0
0.0,0.0,0.0,0.0
43.056,-0.1,0.683,0.0
195.201,-0.465,8.56,6.0
179.093,-0.422,6.928,13.0
105.494,-0.245,3.536,4.0
79.341,-0.181,2.243,1.0
0.0,0.0,0.0,0.0
47.865,-0.106,0.86,0.0
0.0,0.0,0.0,0.0
179.127,-0.399,7.309,150.0
108.842,-0.238,3.88,7.0
83.22,-0.179,2.528,6.0
78.837,-0.166,1.988,1.0
0.0,0.0,0.0,0.0
194.306,-0.411,9.341,14.0
195.344,-0.404,8.382,6.0
0.0,0.0,0.0,0.0
105.555,-0.208,3.428,5.0
79.063,-0.152,2.16,3.0
0.0,0.0,0.0,0.0
202.187,-0.389,10.142,10.0
202.279,-0.378,9.102,7.0
179.092,-0.326,7.134,118.0
108.518,-0.191,3.752,10.0
82.908,-0.141,2.437,4.0
78.628,-0.129,1.906,0.0
202.032,-0.342,10.559,12.0
201.803,-0.33,9.504,8.0
204.167,-0.322,8.56,10.0
108.98,-0.165,3.993,2.0
83.241,-0.12,2.62,2.0
78.663,-0.109,2.069,8.0
179.072,-0.256,9.727,14.0
202.14,-0.276,9.935,10.0
201.954,-0.263,8.879,6.0
0.0,0.0,0.0,0.0
105.817,-0.123,3.546,2.0
82.747,-0.09,2.345,1.0
178.772,-0.202,10.077,15.0
201.919,-0.214,10.336,16.0
201.822,-0.199,9.284,15.0
0.0,0.0,0.0,0.0
108.847,-0.091,3.868,11.0
83.101,-0.063,2.523,8.0
151.018,-0.121,8.82,13.0
151.028,-0.108,8.036,21.0
201.697,-0.129,9.686,19.0
203.031,-0.113,8.678,6.0
0.0,0.0,0.0,0.0
83.341,-0.032,2.699,10.0
96.506,-0.041,5.832,8.0
151.047,-0.051,8.341,34.0
201.301,-0.051,10.07,22.0
201.99,-0.034,9.036,16.0
0.0,0.0,0.0,0.0
83.293,0.0,2.862,15.0
96.527,-0.002,6.023,21.0
91.572,0.006,5.238,12.0
151.085,0.023,7.857,26.0
201.649,0.051,9.42,23.0
202.773,0.071,8.42,9.0
83.332,0.036,3.027,10.0
96.635,0.04,6.221,8.0
91.444,0.047,5.412,11.0
151.058,0.092,8.153,37.0
201.263,0.143,9.798,23.0
201.884,0.164,8.777,12.0
83.356,0.076,3.191,21.0
83.056,0.073,5.511,34.0
91.433,0.091,5.59,12.0
151.056,0.167,8.449,37.0
151.037,0.183,7.648,9.0
83.336,0.109,3.786,4.0
83.307,0.119,3.352,26.0
79.248,0.111,5.413,3.0
83.169,0.126,5.248,8.0
83.333,0.135,4.823,5.0
83.337,0.145,4.38,8.0
83.315,0.154,3.946,21.0
83.284,0.163,3.511,35.0
63.5,0.123,4.461,25.0
83.129,0.172,5.405,36.0
83.289,0.182,4.981,22.0
83.285,0.191,4.538,12.0
83.25,0.202,4.102,26.0
83.263,0.212,3.669,39.0
63.557,0.161,4.587,16.0
83.389,0.221,5.582,6.0
83.226,0.231,5.136,29.0
83.214,0.241,4.691,26.0
83.246,0.251,4.259,27.0
83.252,0.262,3.825,37.0
63.57,0.199,4.707,16.0
79.383,0.259,5.462,3.0
83.14,0.282,5.285,21.0
83.177,0.293,4.843,29.0
83.226,0.304,4.411,28.0
83.228,0.315,3.978,37.0
63.587,0.24,4.826,23.0
76.935,0.301,5.436,30.0
79.433,0.321,5.195,81.0
83.176,0.347,4.995,28.0
83.249,0.359,4.565,27.0
83.251,0.37,4.129,28.0
63.233,0.281,4.915,39.0
63.341,0.291,4.591,23.0
79.414,0.376,5.34,36.0
83.141,0.405,5.145,20.0
83.212,0.417,4.713,9.0
79.316,0.408,4.078,7.0
63.187,0.326,5.026,10.0
63.6,0.337,4.725,38.0
62.748,0.342,4.331,23.0
79.376,0.444,5.055,21.0
79.291,0.456,4.633,6.0
79.317,0.467,4.219,11.0
57.152,0.337,4.649,15.0
63.245,0.382,4.811,32.0
62.83,0.389,4.449,20.0
79.25,0.503,5.187,2.0
79.364,0.516,4.778,3.0
79.313,0.527,4.359,8.0
57.825,0.386,4.806,34.0
63.406,0.432,4.935,25.0
63.109,0.44,4.58,30.0
76.705,0.548,5.154,9.0
76.772,0.56,4.754,3.0
79.296,0.591,4.494,6.0
57.833,0.432,4.907,33.0
62.898,0.48,5.004,23.0
63.357,0.493,4.707,29.0
62.777,0.499,4.326,8.0
76.56,0.621,4.872,7.0
79.422,0.657,4.636,2.0
57.83,0.48,5.006,33.0
57.385,0.485,4.663,23.0
63.696,0.549,4.838,18.0
62.921,0.553,4.441,25.0
76.693,0.686,5.007,15.0
76.759,0.699,4.607,12.0
57.471,0.525,5.07,27.0
57.343,0.534,4.754,24.0
63.707,0.604,4.945,38.0
75.991,0.733,5.488,25.0
76.666,0.752,5.131,19.0
79.488,0.793,4.9,33.0
57.259,0.574,5.144,32.0
57.368,0.585,4.85,17.0
62.635,0.649,4.962,37.0
90.547,0.954,6.685,14.0
76.124,0.815,5.218,35.0
76.595,0.834,4.844,18.0
57.034,0.623,5.217,32.0
62.975,0.699,5.424,20.0
62.94,0.71,5.087,37.0
63.422,0.726,4.783,30.0
83.149,0.967,5.83,25.0
76.357,0.902,4.949,21.0
56.823,0.675,5.288,31.0
63.083,0.76,5.534,25.0
62.622,0.766,5.16,22.0
58.962,0.732,4.539,3.0
63.233,0.796,4.532,10.0
76.225,0.973,5.059,29.0
57.044,0.732,5.397,30.0
57.593,0.75,5.142,8.0
59.093,0.781,4.96,21.0
58.984,0.789,4.631,16.0
63.336,0.859,4.635,25.0
76.268,1.048,5.176,29.0
57.228,0.791,5.501,17.0
57.489,0.805,5.219,21.0
59.014,0.837,5.041,26.0
59.012,0.848,4.72,29.0
76.261,1.11,5.694,38.0
76.902,1.134,5.333,16.0
49.415,0.733,4.823,23.0
56.963,0.855,5.254,31.0
58.932,0.896,5.12,33.0
59.067,0.909,4.811,13.0
76.4,1.19,5.814,18.0
77.213,1.218,5.465,15.0
49.471,0.784,4.9,14.0
57.19,0.917,5.357,28.0
57.664,0.936,5.093,31.0
62.616,1.029,5.188,8.0
83.479,1.388,6.471,12.0
83.391,1.402,6.019,19.0
57.07,0.965,5.733,8.0
57.346,0.981,5.452,24.0
57.348,0.992,5.144,29.0
62.578,1.094,5.272,37.0
63.085,1.116,4.977,23.0
83.458,1.492,6.137,10.0
55.063,0.99,5.607,26.0
59.342,1.079,5.722,10.0
57.38,1.055,5.225,23.0
62.609,1.163,5.358,15.0
63.131,1.185,5.063,27.0
76.856,1.458,5.753,11.0
55.083,1.051,5.682,26.0
60.965,1.175,5.959,8.0
57.084,1.111,5.272,32.0
62.289,1.226,5.412,37.0
63.111,1.254,5.144,16.0
76.892,1.543,5.854,17.0
54.992,1.11,5.744,11.0
49.379,1.007,4.891,23.0
57.715,1.189,5.404,14.0
55.888,1.162,4.926,16.0
63.18,1.326,5.229,31.0
76.904,1.63,5.952,26.0
55.065,1.175,5.821,7.0
49.405,1.063,4.955,23.0
62.22,1.352,5.904,10.0
55.909,1.226,4.997,18.0
63.344,1.402,5.32,18.0
76.853,1.716,6.041,26.0
49.082,1.103,5.248,25.0
49.557,1.124,5.03,29.0
0.0,0.0,0.0,0.0
55.895,1.29,5.062,16.0
63.549,1.48,5.412,26.0
77.016,1.809,6.143,12.0
49.753,1.176,5.379,17.0
49.405,1.178,5.072,23.0
50.56,1.216,4.916,24.0
56.04,1.359,5.14,10.0
63.224,1.546,5.456,18.0
63.987,1.578,5.176,14.0
49.607,1.231,5.419,21.0
49.303,1.234,5.117,23.0
50.776,1.281,4.994,20.0
50.226,1.277,4.662,24.0
51.086,1.31,4.465,29.0
64.918,1.678,5.323,40.0
49.182,1.28,5.427,18.0
48.708,1.278,5.108,19.0
50.801,1.343,5.051,23.0
50.272,1.339,4.72,21.0
63.054,1.693,5.578,9.0
64.443,1.744,5.351,9.0
49.417,1.346,5.505,16.0
48.696,1.336,5.158,27.0
51.01,1.41,5.125,16.0
50.459,1.405,4.789,11.0
56.123,1.575,5.022,25.0
65.218,1.843,5.482,13.0
45.547,1.297,5.12,31.0
48.762,1.398,5.214,30.0
55.255,1.595,5.607,6.0
50.455,1.467,4.838,21.0
56.305,1.649,5.093,25.0
62.467,1.842,5.311,23.0
45.484,1.351,5.157,35.0
48.747,1.458,5.259,7.0
51.148,1.539,5.238,14.0
50.846,1.541,4.924,25.0
56.211,1.716,5.137,24.0
62.374,1.917,5.36,21.0
45.496,1.408,5.201,18.0
45.864,1.429,4.99,20.0
51.119,1.603,5.282,17.0
50.617,1.598,4.948,24.0
56.162,1.785,5.182,14.0
72.916,2.333,6.331,8.0
48.84,1.573,5.626,4.0
48.705,1.579,5.343,22.0
51.148,1.669,5.33,6.0
50.518,1.659,4.981,14.0
50.167,1.657,4.672,22.0
73.151,2.432,6.412,12.0
47.628,1.594,5.527,26.0
48.721,1.641,5.385,6.0
48.71,1.651,5.115,13.0
50.534,1.723,5.024,11.0
50.081,1.718,4.704,25.0
66.716,2.302,5.901,15.0
45.633,1.585,5.331,15.0
48.571,1.698,5.407,5.0
48.839,1.717,5.167,11.0
50.408,1.783,5.05,8.0
50.088,1.782,4.743,22.0
50.245,1.798,4.482,16.0
43.81,2.48,5.411,31.0
43.637,2.477,5.143,33.0
48.328,2.752,5.422,21.0
47.73,2.726,5.08,8.0
48.66,2.787,4.905,17.0
57.163,3.284,5.441,10.0
43.171,2.498,5.332,18.0
43.634,2.531,5.141,36.0
45.321,2.636,5.083,20.0
47.679,2.781,5.073,7.0
48.662,2.847,4.903,15.0
57.512,3.374,5.471,32.0
42.923,2.536,5.298,42.0
43.673,2.587,5.143,31.0
45.413,2.697,5.09,20.0
44.598,2.656,4.742,23.0
51.722,3.088,5.207,22.0
57.716,3.456,5.485,23.0
43.052,2.596,5.31,43.0
43.718,2.642,5.143,34.0
45.07,2.731,5.046,20.0
44.699,2.715,4.747,19.0
51.704,3.149,5.198,13.0
63.21,3.86,5.998,29.0
42.72,2.627,5.263,30.0
44.402,2.737,5.216,19.0
44.954,2.777,5.026,4.0
44.775,2.773,4.747,11.0
60.153,3.734,6.037,7.0
55.024,3.424,5.211,9.0
42.465,2.661,5.223,37.0
45.516,2.859,5.338,20.0
34.151,2.15,3.811,27.0
0.0,0.0,0.0,0.0
51.74,3.272,5.182,19.0
52.268,3.314,4.938,11.0
42.651,2.722,5.236,30.0
42.309,2.706,4.952,3.0
33.934,2.175,3.778,28.0
0.0,0.0,0.0,0.0
51.787,3.335,5.172,17.0
52.339,3.378,4.931,20.0
42.54,2.764,5.21,25.0
42.343,2.757,4.944,7.0
33.984,2.217,3.774,30.0
48.754,3.188,5.131,23.0
51.612,3.382,5.139,16.0
63.131,4.146,5.928,15.0
34.226,2.263,4.18,20.0
34.373,2.277,4.001,26.0
34.035,2.259,3.768,21.0
64.503,4.289,6.767,6.0
51.592,3.438,5.119,11.0
63.073,4.212,5.9,13.0
42.374,2.848,5.16,3.0
34.4,2.316,3.992,25.0
34.023,2.295,3.754,30.0
54.533,3.685,5.7,2.0
48.303,3.271,4.774,14.0
63.034,4.276,5.872,10.0
34.297,2.342,4.162,32.0
34.297,2.346,3.966,33.0
33.996,2.329,3.736,33.0
54.46,3.739,5.669,12.0
48.266,3.32,4.749,19.0
63.083,4.346,5.849,2.0
34.255,2.376,4.142,22.0
34.295,2.382,3.95,26.0
34.043,2.368,3.726,32.0
54.529,3.8,5.651,13.0
48.246,3.368,4.725,27.0
58.89,4.119,5.432,7.0
34.268,2.412,4.127,33.0
34.122,2.405,3.913,29.0
34.124,2.409,3.718,32.0
48.301,3.415,4.981,17.0
48.337,3.424,4.709,22.0
51.943,3.686,4.764,19.0
34.206,2.442,4.101,27.0
34.164,2.443,3.9,14.0
34.166,2.447,3.703,25.0
48.292,3.463,4.954,22.0
64.178,4.61,6.217,16.0
51.898,3.733,4.732,7.0
34.204,2.476,4.081,31.0
34.171,2.476,3.881,38.0
34.246,2.486,3.692,23.0
48.316,3.512,4.928,32.0
59.553,4.335,5.734,26.0
58.823,4.288,5.328,21.0
34.277,2.514,4.069,30.0
34.143,2.507,3.856,40.0
34.289,2.521,3.676,22.0
48.33,3.559,4.899,32.0
59.55,4.39,5.697,17.0
58.8,4.342,5.289,23.0
34.274,2.546,4.046,27.0
34.133,2.538,3.833,28.0
48.349,3.6,5.152,17.0
48.619,3.624,4.897,17.0
49.719,3.711,4.723,20.0
49.52,3.701,4.421,17.0
34.255,2.575,4.021,29.0
34.183,2.573,3.815,21.0
48.368,3.645,5.12,26.0
51.803,3.908,5.181,8.0
49.658,3.751,4.682,21.0
51.921,3.927,4.599,6.0
34.328,2.611,4.004,32.0
34.145,2.6,3.786,26.0
48.415,3.691,5.089,28.0
0.0,0.0,0.0,0.0
49.341,3.769,4.616,29.0
49.168,3.761,4.318,24.0
34.225,2.632,3.966,33.0
34.197,2.633,3.765,29.0
49.047,3.78,5.118,23.0
49.346,3.807,4.861,11.0
49.285,3.806,4.572,22.0
51.888,4.011,4.517,6.0
34.102,2.651,3.925,37.0
34.139,2.656,3.732,17.0
49.568,3.86,5.133,23.0
42.852,3.34,4.187,20.0
49.127,3.833,4.518,22.0
51.867,4.051,4.473,18.0
33.984,2.668,3.883,37.0
43.071,3.384,4.673,10.0
49.544,3.897,5.089,19.0
51.428,4.048,4.982,5.0
48.938,3.855,4.46,20.0
51.883,4.092,4.43,35.0
33.978,2.693,3.853,26.0
43.122,3.421,4.641,4.0
49.153,3.902,5.007,6.0
49.782,3.955,4.779,13.0
49.636,3.947,4.48,21.0
51.915,4.132,4.388,33.0
33.988,2.719,3.824,25.0
50.282,4.025,5.366,18.0
42.994,3.444,4.341,18.0
49.048,3.932,4.664,23.0
49.585,3.978,4.43,8.0
51.92,4.169,4.341,29.0
42.687,3.444,4.763,6.0
49.462,3.993,5.233,19.0
42.966,3.471,4.297,17.0
48.863,3.95,4.601,29.0
60.288,4.877,5.33,34.0
51.943,4.205,4.293,43.0
42.775,3.48,4.731,6.0
43.094,3.507,4.517,5.0
42.812,3.486,4.241,17.0
48.87,3.982,4.554,25.0
59.36,4.84,5.19,22.0
51.943,4.238,4.243,42.0
34.048,2.791,3.732,16.0
33.835,2.775,3.513,24.0
42.724,3.505,4.189,22.0
48.979,4.021,4.515,9.0
59.476,4.885,5.14,28.0
51.903,4.266,4.187,29.0
33.886,2.798,3.679,26.0
42.883,3.542,4.408,10.0
42.719,3.53,4.144,17.0
51.566,4.263,4.7,13.0
59.65,4.934,5.093,30.0
51.904,4.295,4.133,32.0
33.868,2.815,3.641,29.0
42.876,3.565,4.362,19.0
51.622,4.294,4.953,7.0
60.247,5.013,5.427,9.0
59.783,4.977,5.041,27.0
51.896,4.322,4.077,34.0
33.84,2.831,3.602,30.0
42.919,3.591,4.319,25.0
51.567,4.316,4.891,13.0
59.847,5.01,5.325,34.0
59.615,4.993,4.961,26.0
51.865,4.345,4.017,40.0
33.792,2.843,3.559,31.0
42.632,3.587,4.242,32.0
51.728,4.354,4.848,19.0
59.823,5.036,5.255,34.0
51.769,4.36,4.249,16.0
51.851,4.368,3.957,43.0
33.751,2.855,3.515,31.0
42.561,3.6,4.186,30.0
51.619,4.367,4.779,25.0
59.472,5.032,5.156,31.0
51.776,4.382,4.19,31.0
51.849,4.39,3.897,39.0
42.749,3.633,4.402,5.0
42.565,3.618,4.137,27.0
51.432,4.371,4.701,21.0
59.594,5.066,5.096,26.0
51.795,4.403,4.131,52.0
51.845,4.408,3.837,28.0
42.824,3.655,4.359,15.0
42.542,3.631,4.083,18.0
51.475,4.394,4.643,15.0
51.699,4.413,4.359,18.0
51.819,4.424,4.07,42.0
51.865,4.428,3.775,32.0
42.712,3.66,4.295,35.0
51.596,4.42,4.889,14.0
59.39,5.088,5.284,11.0
51.695,4.429,4.295,34.0
51.807,4.438,4.006,34.0
51.866,4.444,3.711,38.0
42.601,3.663,4.23,28.0
51.495,4.427,4.815,18.0
59.362,5.102,5.207,25.0
51.737,4.447,4.234,40.0
51.804,4.452,3.941,41.0
51.859,4.457,3.646,41.0
42.642,3.677,4.181,23.0
51.429,4.433,4.744,22.0
59.476,5.126,5.142,23.0
51.763,4.461,4.17,43.0
51.817,4.465,3.875,46.0
51.843,4.467,3.578,37.0
42.76,3.696,4.137,19.0
51.439,4.445,4.678,22.0
51.659,4.463,4.399,20.0
51.775,4.472,4.104,42.0
51.835,4.476,3.81,43.0
51.853,4.477,3.513,29.0
51.385,4.45,4.904,11.0
51.504,4.459,4.617,7.0
51.682,4.472,4.333,32.0
51.806,4.482,4.039,36.0
51.851,4.485,3.744,43.0
51.887,4.487,3.447,32.0
51.507,4.467,4.848,23.0
51.654,4.478,4.562,7.0
51.734,4.483,4.27,22.0
51.807,4.488,3.97,36.0
51.867,4.492,3.675,44.0
51.91,4.494,3.379,42.0
51.48,4.468,4.776,24.0
51.657,4.482,4.493,22.0
51.77,4.49,4.203,22.0
51.819,4.492,3.902,47.0
51.86,4.494,3.605,36.0
51.938,4.499,3.312,54.0
51.486,4.471,4.706,28.0
51.651,4.483,4.421,42.0
51.786,4.492,4.133,28.0
51.829,4.494,3.832,46.0
51.854,4.494,3.535,25.0
51.952,4.501,3.242,57.0
51.54,4.476,4.64,16.0
51.662,4.484,4.351,36.0
51.793,4.492,4.062,35.0
51.844,4.495,3.761,43.0
51.874,4.495,3.464,30.0
51.973,4.502,3.171,53.0
51.652,4.483,4.578,12.0
51.727,4.487,4.285,21.0
51.813,4.491,3.991,33.0
51.86,4.493,3.69,46.0
51.91,4.494,3.394,44.0
51.976,4.498,3.098,42.0
51.656,4.479,4.505,17.0
51.769,4.485,4.215,22.0
51.813,4.486,3.919,47.0
51.854,4.487,3.616,39.0
51.937,4.491,3.323,55.0
51.984,4.493,3.026,39.0
51.653,4.471,4.431,22.0
51.773,4.479,4.142,37.0
51.826,4.48,3.846,43.0
51.85,4.478,3.542,28.0
51.951,4.485,3.249,61.0
52.0,4.486,2.953,41.0
51.678,4.465,4.359,29.0
51.793,4.471,4.069,40.0
51.86,4.473,3.773,37.0
51.869,4.47,3.469,35.0
51.966,4.475,3.175,61.0
52.002,4.476,2.878,42.0
51.739,4.459,4.289,36.0
51.823,4.462,3.996,39.0
51.852,4.46,3.698,41.0
51.9,4.461,3.396,52.0
51.977,4.464,3.102,53.0
52.026,4.465,2.805,52.0
51.766,4.448,4.216,44.0
51.822,4.448,3.92,35.0
51.846,4.446,3.622,27.0
51.92,4.448,3.322,58.0
51.974,4.449,3.026,46.0
52.041,4.451,2.73,59.0
51.804,4.435,4.144,45.0
51.853,4.435,3.847,30.0
51.851,4.43,3.547,25.0
51.941,4.433,3.248,63.0
51.976,4.432,2.95,48.0
52.05,4.434,2.655,58.0
51.835,4.419,4.07,41.0
51.866,4.417,3.772,20.0
51.88,4.413,3.473,38.0
51.94,4.414,3.171,52.0
51.997,4.414,2.875,49.0
52.042,4.414,2.577,52.0
51.859,4.401,3.994,40.0
51.873,4.397,3.695,25.0
51.913,4.395,3.398,40.0
51.959,4.394,3.096,48.0
52.036,4.396,2.8,45.0
52.065,4.394,2.502,44.0
51.86,4.378,3.918,43.0
51.876,4.374,3.619,25.0
51.953,4.375,3.324,43.0
51.978,4.372,3.02,25.0
52.058,4.374,2.724,51.0
52.111,4.373,2.427,26.0
51.887,4.356,3.842,40.0
51.897,4.35,3.543,39.0
51.98,4.352,3.249,38.0
52.01,4.349,2.945,22.0
52.064,4.348,2.649,43.0
52.159,4.351,2.353,16.0
51.918,4.331,3.767,22.0
51.933,4.326,3.469,25.0
52.012,4.326,3.173,33.0
52.041,4.324,2.87,20.0
52.135,4.326,2.574,16.0
62.588,5.186,2.731,11.0
51.939,4.303,3.692,14.0
52.019,4.303,3.397,19.0
52.034,4.298,3.097,16.0
52.111,4.298,2.797,15.0
62.462,5.146,2.993,17.0
62.842,5.17,2.649,12.0
59.497,4.893,4.14,8.0
59.262,4.866,3.782,22.0
52.116,4.273,3.025,11.0
62.076,5.082,3.239,36.0
62.504,5.11,2.902,9.0
63.034,5.146,2.564,14.0
59.902,4.888,4.08,35.0
59.765,4.868,3.725,34.0
62.262,5.063,3.522,8.0
62.021,5.036,3.145,31.0
81.627,6.618,3.669,30.0
81.38,6.589,3.19,22.0
59.763,4.834,3.982,35.0
60.077,4.851,3.655,22.0
62.563,5.044,3.446,13.0
62.175,5.004,3.06,7.0
81.99,6.588,3.564,15.0
81.23,6.518,3.064,13.0
59.875,4.799,3.899,35.0
62.239,4.979,3.695,18.0
62.383,4.982,3.344,16.0
81.595,6.506,3.896,28.0
81.731,6.505,3.432,28.0
47.908,3.807,1.736,2.0
60.874,4.831,3.874,36.0
62.251,4.931,3.603,13.0
62.265,4.923,3.244,17.0
81.622,6.441,3.775,37.0
81.59,6.428,3.305,14.0
47.689,3.751,1.657,5.0
60.92,4.784,3.787,36.0
77.289,6.057,4.358,34.0
81.598,6.383,4.132,13.0
82.076,6.408,3.675,30.0
48.955,3.815,1.91,15.0
47.629,3.705,1.585,4.0
60.63,4.708,3.679,14.0
77.328,5.993,4.246,28.0
81.655,6.315,4.013,18.0
81.885,6.321,3.547,28.0
48.715,3.753,1.83,4.0
47.659,3.665,1.517,32.0
61.274,4.703,3.628,20.0
77.24,5.916,4.129,37.0
81.59,6.235,3.892,29.0
81.628,6.226,3.416,23.0
47.793,3.638,1.725,2.0
47.365,3.598,1.438,9.0
77.388,5.865,4.468,13.0
77.232,5.84,4.014,10.0
81.379,6.141,3.762,32.0
48.926,3.684,1.976,1.0
47.58,3.575,1.649,6.0
47.322,3.548,1.368,14.0
77.272,5.78,4.35,29.0
80.197,5.985,4.053,24.0
81.333,6.056,3.643,17.0
0.0,0.0,0.0,0.0
47.475,3.519,1.576,8.0
47.31,3.499,1.3,17.0
77.499,5.717,4.251,11.0
80.946,5.956,3.975,37.0
49.123,3.606,2.13,1.0
48.154,3.527,1.807,1.0
47.322,3.457,1.504,13.0
47.305,3.449,1.232,16.0
78.032,5.673,4.169,12.0
80.9,5.866,3.857,24.0
0.0,0.0,0.0,0.0
47.744,3.445,1.724,2.0
47.253,3.401,1.435,20.0
47.266,3.393,1.165,9.0
80.119,5.735,4.166,9.0
80.89,5.775,3.742,5.0
0.0,0.0,0.0,0.0
47.504,3.374,1.648,7.0
47.25,3.347,1.368,40.0
47.269,3.34,1.098,150.0
77.928,5.489,3.942,15.0
0.0,0.0,0.0,0.0
0.0,0.0,0.0,0.0
47.353,3.307,1.576,12.0
47.26,3.292,1.302,161.0
47.321,3.288,1.034,2.0
80.817,5.596,3.977,26.0
0.0,0.0,0.0,0.0
47.97,3.302,1.81,1.0
47.264,3.244,1.508,17.0
47.254,3.235,1.237,171.0
47.287,3.228,0.968,3.0
80.778,5.494,3.864,10.0
0.0,0.0,0.0,0.0
47.674,3.223,1.734,3.0
47.214,3.182,1.442,27.0
47.252,3.176,1.173,160.0
50.932,3.413,0.973,0.0
0.0,0.0,0.0,0.0
0.0,0.0,0.0,0.0
47.5,3.15,1.662,7.0
47.191,3.12,1.377,54.0
47.24,3.114,1.108,150.0
50.978,3.35,0.905,1.0
0.0,0.0,0.0,0.0
0.0,0.0,0.0,0.0
47.328,3.076,1.593,11.0
47.228,3.06,1.315,160.0
47.28,3.053,1.046,3.0
47.603,3.064,0.781,0.0
0.0,0.0,0.0,0.0
47.949,3.062,1.824,1.0
47.232,3.006,1.527,15.0
47.219,2.995,1.252,164.0
47.28,2.989,0.984,4.0
43.515,2.742,0.657,0.0
0.0,0.0,0.0,0.0
47.672,2.978,1.751,3.0
47.188,2.938,1.464,38.0
47.216,2.929,1.19,160.0
47.336,2.926,0.923,1.0
43.242,2.664,0.597,0.0
0.0,0.0,0.0,0.0
47.455,2.898,1.682,6.0
47.191,2.871,1.404,49.0
47.24,2.863,1.131,5.0
53.839,3.252,0.982,0.0
0.0,0.0,0.0,0.0
0.0,0.0,0.0,0.0
47.332,2.822,1.618,11.0
47.204,2.803,1.344,34.0
47.237,2.794,1.071,4.0
47.773,2.815,0.811,10.0
37.269,2.188,0.42,0.0
48.04,2.804,1.856,1.0
47.282,2.749,1.557,12.0
47.228,2.734,1.287,28.0
47.218,2.722,1.012,7.0
48.04,2.758,0.756,3.0
0.0,0.0,0.0,0.0
47.722,2.713,1.785,3.0
47.239,2.674,1.498,16.0
47.258,2.664,1.229,16.0
47.273,2.653,0.955,2.0
42.123,2.354,0.612,0.0
33.051,1.839,0.292,0.0
47.503,2.627,1.72,5.0
47.256,2.602,1.442,16.0
47.291,2.591,1.173,10.0
47.444,2.589,0.903,0.0
0.0,0.0,0.0,0.0
31.806,1.72,0.243,1.0
47.566,2.555,1.665,150.0
47.292,2.529,1.387,20.0
47.297,2.517,1.118,2.0
49.107,2.601,0.876,4.0
37.594,1.982,0.457,0.0
31.12,1.633,0.201,1.0
47.556,2.478,1.61,29.0
47.335,2.454,1.333,19.0
47.336,2.442,1.064,1.0
49.659,2.549,0.829,1.0
0.0,0.0,0.0,0.0
30.303,1.54,0.162,0.0
47.436,2.393,1.551,11.0
47.378,2.377,1.28,19.0
0.0,0.0,0.0,0.0
0.0,0.0,0.0,0.0
34.352,1.697,0.339,0.0
29.067,1.428,0.122,0.0
47.413,2.312,1.498,4.0
47.394,2.298,1.228,18.0
47.559,2.294,0.962,1.0
0.0,0.0,0.0,0.0
32.488,1.55,0.285,0.0
28.54,1.354,0.089,1.0
47.444,2.232,1.447,15.0
47.432,2.219,1.177,18.0
47.741,2.221,0.914,0.0
0.0,0.0,0.0,0.0
32.133,1.478,0.248,1.0
27.674,1.265,0.057,0.0
47.54,2.156,1.4,8.0
47.624,2.146,1.132,1.0
47.716,2.137,0.864,0.0
37.044,1.649,0.457,0.0
31.046,1.373,0.207,0.0
27.162,1.194,0.028,1.0
47.994,2.091,1.364,0.0
0.0,0.0,0.0,0.0
47.817,2.058,0.817,0.0
36.025,1.54,0.408,0.0
30.85,1.31,0.175,0.0
26.619,1.123,0.0,0.0
48.432,2.024,1.327,6.0
0.0,0.0,0.0,0.0
0.0,0.0,0.0,0.0
34.393,1.408,0.355,1.0
28.971,1.178,0.135,0.0
26.17,1.057,-0.025,0.0
49.017,1.959,1.295,2.0
57.145,2.268,1.187,0.0
0.0,0.0,0.0,0.0
33.38,1.306,0.313,1.0
28.855,1.12,0.107,1.0
25.798,0.994,-0.049,6.0
49.461,1.887,1.26,2.0
50.732,1.92,1.006,3.0
0.0,0.0,0.0,0.0
32.721,1.219,0.276,1.0
28.515,1.054,0.08,0.0
25.428,0.933,-0.072,1.0
50.216,1.823,1.234,0.0
50.643,1.823,0.959,1.0
37.241,1.329,0.495,0.0
31.4,1.112,0.237,0.0
27.8,0.976,0.053,0.0
24.547,0.854,-0.091,1.0
50.668,1.744,1.2,0.0
0.0,0.0,0.0,0.0
0.0,0.0,0.0,0.0
30.978,1.038,0.206,0.0
27.131,0.901,0.028,0.0
24.346,0.801,-0.111,1.0
51.204,1.664,1.169,0.0
0.0,0.0,0.0,0.0
35.328,1.126,0.408,0.0
28.998,0.915,0.169,2.0
26.82,0.838,0.005,0.0
23.53,0.728,-0.127,0.0
55.596,1.699,1.223,2.0
0.0,0.0,0.0,0.0
34.506,1.033,0.371,1.0
28.98,0.859,0.145,5.0
26.391,0.773,-0.015,0.0
23.373,0.678,-0.145,1.0
56.222,1.608,1.192,6.0
0.0,0.0,0.0,0.0
33.742,0.943,0.336,0.0
28.916,0.799,0.122,6.0
25.984,0.71,-0.035,0.0
23.119,0.625,-0.161,0.0
56.718,1.51,1.16,3.0
0.0,0.0,0.0,0.0
33.312,0.866,0.307,0.0
28.832,0.74,0.101,4.0
25.57,0.648,-0.053,0.0
22.568,0.565,-0.174,0.0
47.705,1.176,0.941,1.0
38.251,0.93,0.539,0.0
32.392,0.777,0.275,0.0
28.759,0.681,0.08,1.0
25.23,0.589,-0.071,0.0
22.134,0.51,-0.186,0.0
47.874,1.083,0.911,1.0
37.258,0.83,0.5,1.0
32.06,0.704,0.25,0.0
28.291,0.612,0.059,0.0
24.849,0.53,-0.086,0.0
21.928,0.46,-0.199,0.0
0.0,0.0,0.0,0.0
37.055,0.751,0.473,0.0
31.346,0.625,0.224,0.0
27.439,0.538,0.04,0.0
24.586,0.474,-0.101,0.0
21.727,0.412,-0.211,0.0
0.0,0.0,0.0,0.0
35.632,0.65,0.433,0.0
31.121,0.558,0.204,0.0
27.032,0.475,0.023,0.0
24.11,0.416,-0.113,0.0
20.921,0.354,-0.215,0.0
43.205,0.714,0.742,0.0
35.4,0.573,0.41,0.0
28.908,0.458,0.173,0.0
26.824,0.416,0.008,0.0
23.936,0.363,-0.126,0.0
20.895,0.31,-0.227,0.0
0.0,0.0,0.0,0.0
35.114,0.496,0.387,0.0
28.901,0.399,0.157,3.0
26.537,0.357,-0.006,0.0
23.623,0.31,-0.137,0.0
20.536,0.262,-0.233,0.0
41.953,0.521,0.676,0.0
34.235,0.413,0.36,0.0
28.908,0.339,0.143,6.0
26.327,0.3,-0.019,0.0
23.359,0.258,-0.147,0.0
20.407,0.218,-0.242,0.0
0.0,0.0,0.0,0.0
34.38,0.343,0.345,0.0
28.859,0.278,0.129,5.0
26.184,0.243,-0.031,0.0
22.998,0.206,-0.155,0.0
20.039,0.172,-0.247,0.0
0.0,0.0,0.0,0.0
33.603,0.265,0.323,0.0
28.849,0.217,0.116,2.0
25.928,0.186,-0.041,0.0
22.544,0.154,-0.161,0.0
19.765,0.128,-0.251,0.0
38.521,0.236,0.569,0.0
32.803,0.189,0.302,0.0
28.746,0.156,0.105,1.0
25.711,0.13,-0.051,0.0
22.685,0.107,-0.171,1.0
19.63,0.086,-0.257,0.0
0.0,0.0,0.0,0.0
32.481,0.119,0.287,0.0
28.707,0.095,0.094,2.0
25.436,0.075,-0.059,0.0
22.547,0.059,-0.178,1.0
19.357,0.043,-0.26,0.0
37.362,0.071,0.525,0.0
0.0,0.0,0.0,0.0
28.638,0.034,0.085,1.0
25.381,0.021,-0.067,0.0
22.112,0.01,-0.181,0.0
19.329,0.002,-0.266,0.0
38.021,-0.007,0.523,0.0
31.762,-0.018,0.261,0.0
28.613,-0.026,0.076,2.0
25.207,-0.031,-0.074,0.0
21.968,-0.035,-0.186,0.0
19.089,-0.037,-0.268,0.0
0.0,0.0,0.0,0.0
31.625,-0.085,0.252,0.0
28.567,-0.087,0.069,3.0
25.096,-0.085,-0.08,0.0
21.965,-0.082,-0.191,0.0
19.094,-0.078,-0.272,0.0
37.369,-0.166,0.497,0.0
31.45,-0.151,0.244,1.0
28.54,-0.148,0.063,1.0
24.767,-0.137,-0.084,0.0
22.001,-0.129,-0.196,1.0
18.978,-0.119,-0.274,0.0
0.0,0.0,0.0,0.0
31.717,-0.221,0.24,1.0
28.467,-0.208,0.058,1.0
24.741,-0.19,-0.088,0.0
22.147,-0.178,-0.201,0.0
19.008,-0.159,-0.277,0.0
0.0,0.0,0.0,0.0
31.746,-0.288,0.236,1.0
27.779,-0.262,0.053,1.0
24.671,-0.242,-0.091,0.0
21.916,-0.223,-0.202,0.0
18.833,-0.198,-0.277,0.0
35.93,-0.39,0.461,0.0
31.781,-0.357,0.233,0.0
27.921,-0.324,0.05,0.0
24.673,-0.295,-0.093,0.0
21.881,-0.27,-0.203,0.0
18.815,-0.239,-0.278,0.0
35.941,-0.468,0.459,0.0
31.531,-0.422,0.229,0.0
27.846,-0.383,0.049,0.0
24.787,-0.35,-0.095,0.0
21.905,-0.317,-0.204,1.0
18.847,-0.279,-0.28,0.0
36.459,-0.552,0.464,0.0
31.197,-0.484,0.225,0.0
27.848,-0.442,0.048,0.0
24.8,-0.403,-0.095,0.0
21.922,-0.364,-0.205,0.0
18.791,-0.319,-0.279,0.0
0.0,0.0,0.0,0.0
0.0,0.0,0.0,0.0
27.941,-0.503,0.049,1.0
24.851,-0.457,-0.095,0.0
21.984,-0.412,-0.205,0.0
18.805,-0.359,-0.278,0.0
36.373,-0.706,0.465,0.0
0.0,0.0,0.0,0.0
28.153,-0.567,0.05,1.0
24.652,-0.505,-0.093,4.0
22.025,-0.46,-0.204,0.0
18.819,-0.4,-0.277,0.0
0.0,0.0,0.0,0.0
31.331,-0.686,0.231,0.0
28.337,-0.631,0.053,1.0
0.0,0.0,0.0,0.0
22.092,-0.508,-0.202,0.0
18.87,-0.441,-0.276,0.0
0.0,0.0,0.0,0.0
31.429,-0.755,0.235,0.0
28.421,-0.693,0.057,1.0
24.922,-0.617,-0.088,0.0
22.197,-0.557,-0.2,0.0
19.008,-0.484,-0.275,0.0
37.27,-0.96,0.489,0.0
0.0,0.0,0.0,0.0
28.48,-0.754,0.062,1.0
25.171,-0.676,-0.085,0.0
22.091,-0.602,-0.195,0.0
19.018,-0.525,-0.272,0.0
37.465,-1.044,0.499,0.0
31.813,-0.898,0.249,0.0
28.407,-0.813,0.067,1.0
25.298,-0.733,-0.08,0.0
22.227,-0.652,-0.192,0.0
19.211,-0.57,-0.27,0.0
37.207,-1.114,0.504,0.0
32.089,-0.973,0.259,0.0
28.463,-0.873,0.074,1.0
25.487,-0.791,-0.074,0.0
22.426,-0.705,-0.188,0.0
19.328,-0.614,-0.267,0.0
0.0,0.0,0.0,0.0
32.075,-1.039,0.267,0.0
28.545,-0.935,0.082,1.0
25.653,-0.85,-0.068,0.0
22.317,-0.747,-0.18,0.0
19.338,-0.655,-0.262,0.0
38.259,-1.305,0.539,0.0
32.361,-1.115,0.28,0.0
28.571,-0.995,0.091,1.0
25.48,-0.897,-0.059,0.0
22.568,-0.803,-0.175,0.0
19.444,-0.699,-0.257,0.0
39.085,-1.414,0.564,0.0
32.645,-1.193,0.293,2.0
28.626,-1.056,0.101,7.0
25.811,-0.962,-0.051,0.0
22.976,-0.865,-0.17,1.0
19.486,-0.74,-0.25,0.0
39.594,-1.513,0.586,0.0
32.763,-1.264,0.307,0.0
28.637,-1.115,0.112,7.0
25.786,-1.013,-0.041,0.0
23.05,-0.914,-0.162,1.0
19.668,-0.788,-0.245,0.0
39.686,-1.597,0.604,0.0
33.597,-1.365,0.328,0.0
28.643,-1.174,0.124,5.0
25.968,-1.073,-0.03,2.0
23.299,-0.972,-0.153,1.0
20.409,-0.859,-0.245,0.0
40.966,-1.732,0.641,0.0
33.877,-1.444,0.346,0.0
28.66,-1.232,0.137,3.0
26.15,-1.134,-0.018,1.0
23.581,-1.031,-0.144,1.0
20.8,-0.917,-0.24,0.0
0.0,0.0,0.0,0.0
34.593,-1.544,0.37,0.0
30.329,-1.364,0.16,0.0
26.514,-1.202,-0.005,1.0
23.65,-1.081,-0.133,1.0
21.154,-0.975,-0.233,0.0
0.0,0.0,0.0,0.0
35.598,-1.66,0.4,0.0
30.472,-1.431,0.177,0.0
27.403,-1.297,0.008,3.0
23.789,-1.134,-0.121,1.0
21.481,-1.032,-0.225,0.0
0.0,0.0,0.0,0.0
35.966,-1.747,0.424,0.0
31.236,-1.528,0.199,0.0
27.624,-1.361,0.024,6.0
23.875,-1.185,-0.108,0.0
21.867,-1.093,-0.217,0.0
0.0,0.0,0.0,0.0
0.0,0.0,0.0,0.0
31.406,-1.598,0.218,0.0
27.887,-1.428,0.04,4.0
24.241,-1.25,-0.095,0.0
22.224,-1.154,-0.207,1.0
34.597,-1.803,0.636,1.0
34.671,-1.818,0.45,0.0
31.804,-1.679,0.241,0.0
28.395,-1.509,0.059,7.0
34.27,-1.833,-0.113,1.0
22.504,-1.212,-0.195,0.0
34.201,-1.847,0.65,0.0
34.711,-1.886,0.473,0.0
32.319,-1.767,0.266,0.0
28.503,-1.568,0.078,7.0
34.235,-1.896,-0.09,6.0
22.598,-1.259,-0.181,0.0
34.018,-1.901,0.67,0.0
34.645,-1.948,0.496,0.0
32.57,-1.842,0.29,0.0
28.553,-1.624,0.098,9.0
34.303,-1.964,-0.066,0.0
23.01,-1.325,-0.168,0.0
34.079,-1.968,0.695,0.0
34.629,-2.011,0.52,2.0
34.704,-2.027,0.334,0.0
28.571,-1.678,0.119,5.0
26.117,-1.543,-0.031,0.0
23.365,-1.388,-0.153,0.0
34.047,-2.028,0.72,0.0
34.585,-2.072,0.545,6.0
0.0,0.0,0.0,0.0
28.589,-1.731,0.14,1.0
26.847,-1.635,-0.011,0.0
23.681,-1.45,-0.137,0.0
33.948,-2.084,0.744,0.0
34.26,-2.113,0.567,3.0
35.391,-2.195,0.395,0.0
30.248,-1.886,0.172,1.0
27.435,-1.72,0.009,0.0
23.979,-1.511,-0.12,0.0
33.963,-2.144,0.771,0.0
34.048,-2.161,0.591,1.0
36.447,-2.325,0.436,0.0
31.828,-2.041,0.207,0.0
27.915,-1.799,0.032,1.0
0.0,0.0,0.0,0.0
33.901,-2.2,0.798,0.0
33.95,-2.214,0.617,1.0
37.66,-2.468,0.483,0.0
31.837,-2.096,0.234,0.0
28.282,-1.872,0.056,0.0
25.321,-1.684,-0.084,0.0
33.882,-2.257,0.827,3.0
33.868,-2.267,0.645,0.0
34.58,-2.326,0.473,1.0
32.827,-2.218,0.27,1.0
28.741,-1.951,0.082,0.0
25.846,-1.763,-0.063,3.0
33.879,-2.315,0.857,9.0
33.877,-2.325,0.675,0.0
34.448,-2.375,0.503,3.0
34.273,-2.374,0.313,0.0
29.329,-2.04,0.111,0.0
33.967,-2.374,-0.052,0.0
33.869,-2.371,0.887,28.0
33.877,-2.381,0.707,158.0
34.3,-2.421,0.532,4.0
35.027,-2.484,0.352,1.0
29.906,-2.129,0.141,0.0
33.918,-2.426,-0.021,3.0
33.854,-2.425,0.919,51.0
33.88,-2.437,0.738,158.0
34.095,-2.462,0.561,3.0
35.863,-2.601,0.395,1.0
30.39,-2.213,0.172,0.0
33.924,-2.481,0.011,3.0
33.868,-2.48,0.952,83.0
33.874,-2.49,0.771,162.0
33.982,-2.508,0.592,2.0
36.78,-2.726,0.441,1.0
31.544,-2.347,0.21,0.0
33.913,-2.534,0.045,3.0
33.848,-2.532,0.985,124.0
33.873,-2.543,0.805,155.0
33.859,-2.552,0.624,22.0
38.037,-2.878,0.494,1.0
32.347,-2.457,0.248,0.0
33.908,-2.585,0.079,2.0
33.833,-2.583,1.019,118.0
33.879,-2.596,0.84,151.0
33.84,-2.602,0.658,153.0
34.395,-2.655,0.482,2.0
0.0,0.0,0.0,0.0
33.924,-2.638,0.114,0.0
33.823,-2.634,1.054,125.0
33.8,-2.64,0.873,33.0
33.842,-2.653,0.694,157.0
34.25,-2.695,0.516,6.0
34.68,-2.738,0.338,0.0
29.757,-2.358,0.131,0.0
33.82,-2.683,1.09,138.0
33.815,-2.691,0.909,75.0
33.832,-2.701,0.729,156.0
34.075,-2.73,0.55,4.0
35.842,-2.881,0.388,0.0
30.585,-2.467,0.168,0.0
33.807,-2.73,1.126,84.0
33.816,-2.74,0.946,150.0
33.832,-2.749,0.766,156.0
33.915,-2.765,0.584,2.0
0.0,0.0,0.0,0.0
31.233,-2.563,0.206,0.0
33.79,-2.776,1.163,26.0
33.82,-2.787,0.984,154.0
33.832,-2.796,0.804,154.0
33.776,-2.8,0.62,28.0
34.414,-2.862,0.449,1.0
32.226,-2.689,0.249,0.0
33.832,-2.826,1.202,12.0
33.797,-2.831,1.021,132.0
33.841,-2.843,0.843,73.0
33.788,-2.847,0.658,24.0
34.337,-2.902,0.487,3.0
32.752,-2.776,0.29,0.0
33.804,-2.869,1.24,25.0
33.802,-2.876,1.06,117.0
33.789,-2.883,0.88,52.0
33.774,-2.89,0.697,1.0
34.187,-2.933,0.524,5.0
0.0,0.0,0.0,0.0
33.814,-2.913,1.28,66.0
33.789,-2.918,1.099,95.0
33.799,-2.927,0.92,89.0
33.758,-2.931,0.736,0.0
33.975,-2.958,0.561,2.0
36.475,-3.184,0.408,0.0
33.825,-2.956,1.32,62.0
33.78,-2.96,1.139,33.0
33.798,-2.969,0.96,95.0
33.788,-2.975,0.777,1.0
33.79,-2.983,0.598,0.0
34.488,-3.053,0.427,0.0
33.836,-2.998,1.361,6.0
33.798,-3.002,1.18,8.0
33.803,-3.01,1.001,79.0
33.759,-3.013,0.817,10.0
33.72,-3.017,0.637,0.0
34.364,-3.082,0.467,3.0
34.058,-3.058,1.412,0.0
33.817,-3.043,1.223,9.0
33.809,-3.05,1.043,65.0
33.779,-3.054,0.859,29.0
33.757,-3.059,0.68,0.0
34.252,-3.111,0.508,4.0
34.144,-3.105,1.458,0.0
33.812,-3.081,1.264,30.0
33.782,-3.085,1.084,50.0
33.786,-3.092,0.901,37.0
33.818,-3.102,0.722,152.0
34.035,-3.129,0.547,1.0
34.336,-3.16,1.509,0.0
33.809,-3.118,1.306,23.0
33.776,-3.121,1.125,21.0
33.802,-3.13,0.944,29.0
33.803,-3.136,0.765,32.0
33.871,-3.149,0.587,0.0
34.492,-3.21,1.559,0.0
33.872,-3.159,1.351,2.0
33.82,-3.16,1.17,5.0
33.802,-3.165,0.986,23.0
33.802,-3.171,0.808,7.0
33.767,-3.174,0.628,0.0
34.549,-3.251,1.606,0.0
34.125,-3.217,1.405,1.0
33.86,-3.197,1.214,4.0
33.804,-3.198,1.03,14.0
33.822,-3.206,0.851,11.0
33.816,-3.211,0.672,1.0
34.704,-3.299,1.658,0.0
34.257,-3.262,1.455,1.0
33.857,-3.23,1.258,6.0
33.866,-3.236,1.075,7.0
33.829,-3.238,0.895,14.0
33.796,-3.241,0.715,0.0
0.0,0.0,0.0,0.0
34.329,-3.3,1.502,3.0
33.873,-3.262,1.302,3.0
33.839,-3.264,1.118,7.0
33.833,-3.268,0.939,12.0
33.852,-3.276,0.76,1.0
35.399,-3.429,1.783,0.0
34.512,-3.348,1.555,0.0
34.059,-3.309,1.353,0.0
33.834,-3.292,1.162,3.0
33.879,-3.301,0.984,26.0
33.847,-3.304,0.804,4.0
160.114,-15.648,8.274,5.0
34.703,-3.395,1.609,0.0
34.302,-3.361,1.408,0.0
33.87,-3.323,1.207,2.0
33.93,-3.334,1.03,155.0
33.873,-3.333,0.849,5.0
159.049,-15.67,8.427,15.0
34.981,-3.45,1.667,1.0
34.477,-3.405,1.46,0.0
33.903,-3.353,1.253,2.0
33.936,-3.36,1.075,152.0
33.885,-3.36,0.894,5.0
158.899,-15.775,8.63,14.0
35.39,-3.517,1.734,2.0
34.735,-3.456,1.517,0.0
33.987,-3.385,1.301,0.0
33.901,-3.381,1.118,5.0
33.905,-3.386,0.939,7.0
160.293,-16.027,8.919,8.0
35.706,-3.574,1.797,0.0
35.16,-3.523,1.582,0.0
34.44,-3.454,1.364,0.0
33.925,-3.406,1.164,2.0
33.928,-3.411,0.985,172.0
160.281,-16.134,9.133,13.0
159.096,-16.03,8.22,15.0
35.732,-3.603,1.656,0.0
34.771,-3.51,1.424,1.0
33.988,-3.434,1.212,1.0
33.926,-3.431,1.03,186.0
160.092,-16.214,9.336,16.0
158.859,-16.103,8.419,20.0
158.921,-16.122,7.578,7.0
35.343,-3.588,1.494,0.0
33.997,-3.454,1.257,0.0
33.943,-3.452,1.075,47.0
160.545,-16.352,9.573,15.0
158.762,-16.181,8.625,17.0
158.982,-16.216,7.793,16.0
35.592,-3.633,1.552,0.0
34.458,-3.52,1.32,0.0
33.998,-3.476,1.122,0.0
160.58,-16.441,9.791,15.0
158.955,-16.285,8.846,6.0
159.106,-16.31,8.009,9.0
36.344,-3.728,1.633,0.0
35.09,-3.602,1.39,1.0
34.06,-3.499,1.169,0.0
160.389,-16.499,9.994,12.0
158.544,-16.318,9.034,8.0
159.284,-16.403,8.232,17.0
159.571,-16.442,7.384,15.0
35.769,-3.688,1.465,0.0
34.153,-3.523,1.217,0.0
175.534,-18.135,11.172,7.0
160.307,-16.569,9.348,5.0
159.075,-16.448,8.43,18.0
159.532,-16.504,7.592,18.0
36.456,-3.773,1.541,0.0
34.431,-3.566,1.273,0.0
175.486,-18.199,11.4,19.0
160.01,-16.6,9.545,16.0
158.631,-16.463,8.618,18.0
159.16,-16.524,7.785,18.0
0.0,0.0,0.0,0.0
35.384,-3.677,1.355,1.0
175.346,-18.248,11.624,22.0
160.113,-16.665,9.761,12.0
158.479,-16.5,8.819,16.0
159.192,-16.58,7.997,17.0
160.007,-16.669,7.188,12.0
35.663,-3.716,1.412,1.0
175.249,-18.291,11.852,21.0
161.379,-16.845,10.053,6.0
158.42,-16.54,9.024,14.0
159.247,-16.63,8.209,16.0
159.986,-16.71,7.396,17.0
155.159,-16.211,6.348,2.0
175.171,-18.329,12.075,17.0
175.243,-18.336,11.145,7.0
159.996,-16.743,9.323,4.0
158.945,-16.635,8.402,17.0
159.739,-16.721,7.594,17.0
155.042,-16.231,6.547,2.0
175.085,-18.358,12.298,11.0
175.122,-18.361,11.367,19.0
160.03,-16.778,9.534,12.0
158.633,-16.632,8.589,16.0
159.314,-16.705,7.778,16.0
155.097,-16.263,6.749,3.0
142.561,-14.972,10.201,20.0
175.117,-18.389,11.596,23.0
0.0,0.0,0.0,0.0
158.599,-16.651,8.795,15.0
159.321,-16.726,7.987,15.0
159.812,-16.778,7.16,13.0
142.877,-15.024,10.409,19.0
175.044,-18.402,11.817,20.0
161.17,-16.94,10.02,5.0
158.51,-16.658,8.992,16.0
159.355,-16.744,8.191,14.0
159.881,-16.798,7.367,16.0
143.11,-15.061,10.608,14.0
174.98,-18.408,12.036,18.0
175.02,-18.407,11.102,6.0
159.821,-16.805,9.269,4.0
159.003,-16.714,8.374,14.0
159.796,-16.795,7.565,17.0
143.066,-15.061,10.787,12.0
142.297,-14.973,9.968,12.0
175.027,-18.411,11.324,17.0
160.129,-16.839,9.487,14.0
158.733,-16.686,8.559,16.0
159.338,-16.745,7.742,15.0
143.142,-15.068,10.973,12.0
142.438,-14.987,10.156,22.0
175.03,-18.407,11.543,22.0
160.124,-16.832,9.688,13.0
158.716,-16.678,8.755,14.0
159.093,-16.712,7.928,15.0
142.397,-14.982,11.094,3.0
142.818,-15.018,10.362,19.0
175.007,-18.393,11.758,25.0
160.929,-16.904,9.935,9.0
158.474,-16.639,8.936,14.0
159.46,-16.735,8.141,13.0
142.391,-14.969,11.27,16.0
143.079,-15.03,10.558,16.0
175.066,-18.379,11.978,19.0
161.289,-16.923,10.155,4.0
158.329,-16.603,9.12,10.0
159.083,-16.672,8.315,16.0
142.427,-14.953,11.446,19.0
143.065,-15.009,10.729,17.0
175.042,-18.349,12.189,16.0
175.174,-18.35,11.24,17.0
159.924,-16.743,9.404,12.0
158.847,-16.618,8.492,17.0
142.447,-14.929,11.62,23.0
142.949,-14.969,10.892,14.0
142.404,-14.899,10.086,18.0
175.25,-18.321,11.454,22.0
160.044,-16.72,9.601,14.0
158.565,-16.554,8.662,18.0
142.639,-14.917,11.804,19.0
142.879,-14.928,11.055,5.0
142.662,-14.892,10.271,16.0
175.277,-18.281,11.659,27.0
160.079,-16.681,9.79,9.0
158.429,-16.497,8.839,17.0
142.843,-14.901,11.986,9.0
142.53,-14.852,11.193,12.0
142.967,-14.883,10.456,12.0
175.383,-18.242,11.865,18.0
162.093,-16.843,10.097,4.0
158.55,-16.461,9.024,12.0
143.246,-14.898,12.184,19.0
142.409,-14.795,11.344,9.0
142.938,-14.834,10.616,14.0
143.22,-14.847,9.851,18.0
175.661,-18.193,11.137,7.0
160.23,-16.579,9.298,5.0
142.933,-14.816,12.317,19.0
142.592,-14.762,11.518,14.0
142.939,-14.782,10.774,12.0
143.318,-14.804,10.015,18.0
175.697,-18.129,11.333,19.0
160.283,-16.521,9.477,14.0
142.994,-14.766,12.481,11.0
142.806,-14.727,11.692,19.0
175.615,-18.089,13.43,7.0
143.666,-14.78,10.197,10.0
175.798,-18.064,11.531,20.0
160.577,-16.481,9.668,15.0
144.333,-14.841,12.755,7.0
142.863,-14.67,11.852,17.0
148.128,-15.19,11.487,4.0
143.784,-14.725,10.359,7.0
175.978,-18.001,11.728,20.0
160.496,-16.397,9.832,14.0
142.516,-14.587,12.745,11.0
142.617,-14.575,11.982,12.0
148.235,-15.128,11.65,5.0
142.927,-14.567,10.446,11.0
149.691,-15.235,10.132,6.0
160.197,-16.284,9.977,11.0
142.546,-14.517,12.894,10.0
142.474,-14.488,12.114,15.0
143.146,-14.534,11.395,17.0
142.636,-14.461,10.567,13.0
143.477,-14.526,9.853,13.0
176.384,-17.833,11.16,14.0
144.057,-14.591,13.175,10.0
142.628,-14.423,12.269,15.0
143.076,-14.447,11.53,14.0
147.229,-14.843,11.051,6.0
143.67,-14.461,10.008,19.0
176.564,-17.746,11.345,16.0
142.703,-14.369,13.193,9.0
142.83,-14.358,12.426,10.0
142.764,-14.327,11.645,9.0
147.135,-14.741,11.188,8.0
143.541,-14.359,10.136,19.0
150.004,-14.982,9.78,13.0
142.84,-14.293,13.342,14.0
142.799,-14.264,12.558,10.0
144.773,-14.436,11.944,13.0
146.658,-14.599,11.287,7.0
143.53,-14.264,10.268,14.0
148.858,-14.769,9.842,9.0
143.45,-14.258,13.531,14.0
144.315,-14.317,12.825,9.0
144.656,-14.325,12.067,15.0
145.774,-14.411,11.351,4.0
143.401,-14.151,10.387,12.0
143.874,-14.172,9.642,5.0
143.474,-14.159,13.662,11.0
144.594,-14.242,12.979,14.0
144.707,-14.226,12.199,20.0
145.165,-14.244,11.432,10.0
142.585,-13.965,10.453,8.0
150.548,-14.719,10.218,9.0
143.365,-14.041,13.777,12.0
144.758,-14.15,13.118,12.0
144.805,-14.125,12.332,12.0
145.254,-14.141,11.563,11.0
142.465,-13.844,10.563,12.0
143.416,-13.912,9.852,12.0
143.391,-13.933,13.9,13.0
144.362,-13.998,13.201,4.0
148.548,-14.374,12.771,3.0
145.21,-14.023,11.676,13.0
147.54,-14.22,11.057,4.0
143.407,-13.795,9.966,11.0
143.333,-13.812,14.008,14.0
144.504,-13.895,13.328,13.0
147.554,-14.158,12.801,4.0
145.271,-13.908,11.794,4.0
147.658,-14.108,11.18,8.0
151.49,-14.445,10.644,19.0
143.418,-13.699,14.127,15.0
144.55,-13.775,13.444,9.0
146.456,-13.926,12.818,7.0
0.0,0.0,0.0,0.0
0.0,0.0,0.0,0.0
145.899,-13.783,10.359,8.0
145.108,-13.731,14.402,15.0
144.564,-13.649,13.551,4.0
146.644,-13.812,12.941,13.0
0.0,0.0,0.0,0.0
145.505,-13.645,11.228,15.0
146.078,-13.669,10.473,4.0
145.235,-13.612,14.516,17.0
148.109,-13.848,13.987,5.0
146.891,-13.701,13.063,9.0
151.363,-14.086,12.613,4.0
145.419,-13.501,11.32,12.0
146.251,-13.548,10.583,7.0
145.586,-13.508,14.648,8.0
145.852,-13.5,13.869,11.0
145.303,-13.416,13.016,10.0
144.944,-13.35,12.172,4.0
144.781,-13.303,11.363,13.0
146.277,-13.41,10.677,9.0
146.347,-13.437,14.817,15.0
145.932,-13.364,13.968,10.0
145.269,-13.27,13.103,18.0
146.582,-13.356,12.399,12.0
144.725,-13.155,11.445,18.0
144.87,-13.135,10.662,8.0
145.608,-13.222,14.831,14.0
146.596,-13.278,14.119,14.0
145.305,-13.126,13.192,11.0
147.393,-13.28,12.553,14.0
144.461,-12.982,11.507,24.0
144.644,-12.966,10.726,18.0
145.894,-13.098,14.942,19.0
146.366,-13.105,14.178,13.0
