X,Y,Z,Reflectivity
21.663,-0.003,-0.188,1.0
18.697,-0.005,-0.271,0.0
36.071,-0.014,0.46,0.0
30.77,-0.016,0.212,0.0
27.295,-0.017,0.029,0.0
23.827,-0.018,-0.115,0.0
20.961,-0.019,-0.223,2.0
18.105,-0.018,-0.298,0.0
34.33,-0.04,0.369,0.0
28.817,-0.037,0.142,1.0
26.055,-0.037,-0.023,0.0
22.979,-0.036,-0.157,0.0
19.761,-0.033,-0.25,0.0
17.328,-0.031,-0.32,0.0
33.187,-0.066,0.291,0.0
28.67,-0.06,0.084,4.0
25.167,-0.056,-0.072,0.0
21.796,-0.052,-0.192,0.0
18.669,-0.047,-0.273,0.0
16.821,-0.045,-0.344,0.0
30.931,-0.087,0.21,0.0
27.256,-0.081,0.026,0.0
23.862,-0.074,-0.115,0.0
20.671,-0.067,-0.223,0.0
18.063,-0.061,-0.3,0.0
16.378,-0.058,-0.367,0.0
28.828,-0.107,0.139,6.0
25.879,-0.1,-0.025,0.0
23.022,-0.092,-0.156,0.0
19.553,-0.081,-0.249,0.0
17.306,-0.074,-0.321,0.0
15.858,-0.07,-0.386,0.0
28.589,-0.132,0.083,3.0
24.92,-0.119,-0.072,0.0
21.858,-0.108,-0.191,1.0
18.636,-0.095,-0.273,0.0
16.803,-0.088,-0.344,0.0
15.46,-0.083,-0.407,0.0
27.103,-0.151,0.026,0.0
24.011,-0.138,-0.116,0.0
20.669,-0.122,-0.22,0.0
18.02,-0.109,-0.299,0.0
16.328,-0.101,-0.365,0.0
14.846,-0.094,-0.419,0.0
25.935,-0.17,-0.023,0.0
22.854,-0.153,-0.153,0.0
19.701,-0.135,-0.247,0.0
17.29,-0.122,-0.319,0.0
15.895,-0.114,-0.386,0.0
14.456,-0.106,-0.435,0.0
24.967,-0.189,-0.069,0.0
22.069,-0.171,-0.19,1.0
18.755,-0.148,-0.271,0.0
16.754,-0.135,-0.341,0.0
15.436,-0.127,-0.404,0.0
14.148,-0.119,-0.453,0.0
24.067,-0.208,-0.112,0.0
20.65,-0.182,-0.216,0.0
18.056,-0.162,-0.294,0.0
16.359,-0.149,-0.363,0.0
14.874,-0.138,-0.416,0.0
13.806,-0.131,-0.467,0.0
22.905,-0.222,-0.148,0.0
19.744,-0.195,-0.242,0.0
17.425,-0.175,-0.315,0.0
15.915,-0.163,-0.382,0.0
14.575,-0.151,-0.435,0.0
13.469,-0.142,-0.48,0.0
22.152,-0.239,-0.183,0.0
18.963,-0.208,-0.267,0.0
16.861,-0.188,-0.335,0.0
15.504,-0.176,-0.4,0.0
14.124,-0.163,-0.447,0.0
13.216,-0.155,-0.495,0.0
20.808,-0.248,-0.209,0.0
18.164,-0.22,-0.288,0.0
16.47,-0.203,-0.357,0.0
14.908,-0.186,-0.411,0.0
13.835,-0.175,-0.462,0.0
12.891,-0.166,-0.506,0.0
19.945,-0.261,-0.236,0.0
17.535,-0.233,-0.309,0.0
16.036,-0.216,-0.376,0.0
14.585,-0.199,-0.428,0.0
13.543,-0.188,-0.476,0.0
12.624,-0.177,-0.517,0.0
27.622,-2.958,0.091,4.0
26.454,-2.828,-0.054,2.0
22.417,-2.391,-0.165,1.0
19.932,-2.122,-0.256,0.0
17.692,-1.879,-0.322,0.0
16.196,-1.717,-0.381,0.0
28.047,-2.973,0.122,2.0
26.711,-2.826,-0.026,1.0
23.3,-2.46,-0.148,0.0
20.636,-2.174,-0.243,0.0
18.024,-1.895,-0.309,0.0
16.498,-1.731,-0.371,0.0
30.513,-3.201,0.164,1.0
27.176,-2.844,0.0,0.0
23.966,-2.503,-0.127,0.0
21.097,-2.198,-0.227,0.0
18.578,-1.932,-0.299,0.0
16.779,-1.741,-0.36,0.0
30.926,-3.208,0.197,3.0
27.669,-2.864,0.028,2.0
25.169,-2.599,-0.108,0.0
21.884,-2.255,-0.213,0.0
19.097,-1.963,-0.289,0.0
17.042,-1.748,-0.349,0.0
31.861,-3.267,0.235,0.0
34.04,-3.482,0.069,1.0
34.016,-3.471,-0.113,0.0
22.395,-2.28,-0.196,0.0
19.51,-1.981,-0.276,0.0
17.379,-1.761,-0.339,0.0
32.286,-3.271,0.27,0.0
28.729,-2.903,0.086,1.0
25.843,-2.605,-0.06,0.0
22.698,-2.282,-0.177,0.0
19.885,-1.994,-0.262,0.0
17.649,-1.766,-0.327,0.0
34.149,-3.416,0.317,0.0
29.152,-2.909,0.115,0.0
33.979,-3.381,-0.048,0.0
23.339,-2.316,-0.16,1.0
20.447,-2.024,-0.25,0.0
17.939,-1.771,-0.316,0.0
34.362,-3.392,0.352,0.0
30.452,-2.998,0.148,1.0
26.88,-2.639,-0.013,0.0
23.456,-2.297,-0.139,0.0
20.973,-2.048,-0.237,0.0
18.314,-1.784,-0.306,0.0
0.0,0.0,0.0,0.0
30.91,-3.001,0.178,1.0
27.791,-2.691,0.011,0.0
23.78,-2.296,-0.12,0.0
21.648,-2.084,-0.226,0.0
18.769,-1.802,-0.296,0.0
37.256,-3.576,0.448,0.0
31.459,-3.011,0.209,0.0
28.297,-2.7,0.036,0.0
24.594,-2.34,-0.103,0.0
22.014,-2.088,-0.21,1.0
19.207,-1.817,-0.287,0.0
34.592,-3.272,0.446,0.0
32.148,-3.031,0.241,0.0
28.625,-2.69,0.061,0.0
25.478,-2.387,-0.085,0.0
22.431,-2.095,-0.195,1.0
19.461,-1.812,-0.274,0.0
34.467,-3.209,0.473,2.0
32.784,-3.042,0.274,0.0
29.063,-2.689,0.086,0.0
25.63,-2.363,-0.064,0.0
22.799,-2.096,-0.18,1.0
19.751,-1.81,-0.262,0.0
34.316,-3.144,0.499,4.0
33.236,-3.035,0.304,0.0
29.49,-2.684,0.111,0.0
25.99,-2.357,-0.044,0.0
23.11,-2.089,-0.164,1.0
20.643,-1.86,-0.258,0.0
34.191,-3.08,0.524,4.0
0.0,0.0,0.0,0.0
29.946,-2.679,0.135,0.0
26.655,-2.377,-0.025,0.0
23.351,-2.075,-0.148,1.0
20.854,-1.847,-0.245,2.0
34.017,-3.012,0.547,0.0
35.691,-3.149,0.381,0.0
30.434,-2.676,0.16,0.0
27.335,-2.395,-0.006,0.0
23.571,-2.058,-0.132,0.0
21.007,-1.828,-0.231,1.0
33.998,-2.957,0.571,2.0
36.725,-3.182,0.418,0.0
30.931,-2.67,0.185,0.0
27.491,-2.364,0.013,0.0
33.914,-2.906,-0.167,0.0
21.369,-1.825,-0.22,1.0
7.284,0.359,-0.744,0.0
0.0,0.0,0.0,0.0
0.0,0.0,0.0,0.0
0.0,0.0,0.0,0.0
0.0,0.0,0.0,0.0
0.0,0.0,0.0,0.0
7.245,0.35,-0.745,0.0
0.0,0.0,0.0,0.0
0.0,0.0,0.0,0.0
0.0,0.0,0.0,0.0
0.0,0.0,0.0,0.0
0.0,0.0,0.0,0.0
7.228,0.343,-0.748,0.0
0.0,0.0,0.0,0.0
0.0,0.0,0.0,0.0
0.0,0.0,0.0,0.0
0.0,0.0,0.0,0.0
0.0,0.0,0.0,0.0
7.217,0.335,-0.751,0.0
0.0,0.0,0.0,0.0
0.0,0.0,0.0,0.0
0.0,0.0,0.0,0.0
0.0,0.0,0.0,0.0
0.0,0.0,0.0,0.0
7.147,0.325,-0.748,0.0
0.0,0.0,0.0,0.0
0.0,0.0,0.0,0.0
0.0,0.0,0.0,0.0
0.0,0.0,0.0,0.0
0.0,0.0,0.0,0.0
7.168,0.318,-0.754,0.0
0.0,0.0,0.0,0.0
0.0,0.0,0.0,0.0
0.0,0.0,0.0,0.0
0.0,0.0,0.0,0.0
0.0,0.0,0.0,0.0
7.133,0.31,-0.754,0.0
0.0,0.0,0.0,0.0
0.0,0.0,0.0,0.0
0.0,0.0,0.0,0.0
0.0,0.0,0.0,0.0
0.0,0.0,0.0,0.0
7.097,0.3,-0.753,0.0
0.0,0.0,0.0,0.0
0.0,0.0,0.0,0.0
0.0,0.0,0.0,0.0
0.0,0.0,0.0,0.0
0.0,0.0,0.0,0.0
7.042,0.291,-0.75,0.0
0.0,0.0,0.0,0.0
0.0,0.0,0.0,0.0
0.0,0.0,0.0,0.0
0.0,0.0,0.0,0.0
0.0,0.0,0.0,0.0
7.045,0.283,-0.753,0.0
0.0,0.0,0.0,0.0
0.0,0.0,0.0,0.0
0.0,0.0,0.0,0.0
0.0,0.0,0.0,0.0
0.0,0.0,0.0,0.0
7.054,0.276,-0.756,0.0
6.751,0.263,-0.762,0.0
0.0,0.0,0.0,0.0
0.0,0.0,0.0,0.0
0.0,0.0,0.0,0.0
0.0,0.0,0.0,0.0
7.033,0.267,-0.756,0.0
0.0,0.0,0.0,0.0
0.0,0.0,0.0,0.0
0.0,0.0,0.0,0.0
0.0,0.0,0.0,0.0
0.0,0.0,0.0,0.0
0.0,0.0,0.0,0.0
6.763,0.248,-0.767,0.0
0.0,0.0,0.0,0.0
0.0,0.0,0.0,0.0
0.0,0.0,0.0,0.0
0.0,0.0,0.0,0.0
0.0,0.0,0.0,0.0
0.0,0.0,0.0,0.0
0.0,0.0,0.0,0.0
0.0,0.0,0.0,0.0
0.0,0.0,0.0,0.0
0.0,0.0,0.0,0.0
0.0,0.0,0.0,0.0
0.0,0.0,0.0,0.0
0.0,0.0,0.0,0.0
0.0,0.0,0.0,0.0
0.0,0.0,0.0,0.0
0.0,0.0,0.0,0.0
0.0,0.0,0.0,0.0
0.0,0.0,0.0,0.0
0.0,0.0,0.0,0.0
0.0,0.0,0.0,0.0
0.0,0.0,0.0,0.0
0.0,0.0,0.0,0.0
28.795,-0.142,0.098,6.0
26.026,-0.125,-0.045,0.0
23.351,-0.109,-0.161,0.0
20.367,-0.092,-0.248,0.0
18.14,-0.079,-0.314,0.0
16.56,-0.07,-0.373,0.0
28.934,-0.118,0.155,0.0
27.214,-0.107,0.005,0.0
24.399,-0.092,-0.12,0.0
21.561,-0.079,-0.22,0.0
18.814,-0.066,-0.289,0.0
17.033,-0.057,-0.35,0.0
31.686,-0.101,0.232,1.0
28.69,-0.087,0.062,5.0
25.512,-0.074,-0.076,0.0
22.797,-0.062,-0.188,0.0
19.764,-0.051,-0.265,0.0
17.644,-0.043,-0.328,0.0
33.197,-0.075,0.309,0.0
28.853,-0.061,0.119,4.0
26.426,-0.051,-0.027,0.0
23.742,-0.042,-0.149,0.0
20.923,-0.034,-0.24,0.0
18.351,-0.027,-0.305,0.0
35.605,-0.046,0.4,0.0
30.925,-0.035,0.188,0.0
27.765,-0.027,0.024,0.0
24.962,-0.02,-0.109,0.0
21.746,-0.014,-0.207,1.0
19.206,-0.009,-0.283,0.0
37.674,-0.012,0.496,0.0
33.154,-0.005,0.264,0.0
28.691,0.0,0.08,1.0
25.836,0.004,-0.064,0.0
23.203,0.008,-0.177,0.0
20.285,0.01,-0.26,0.0
0.0,0.0,0.0,0.0
33.494,0.028,0.33,0.0
30.04,0.031,0.14,0.0
26.845,0.032,-0.016,0.0
23.975,0.033,-0.139,1.0
21.157,0.033,-0.232,4.0
0.0,0.0,0.0,0.0
36.414,0.07,0.427,0.0
31.275,0.065,0.204,0.0
28.487,0.065,0.035,1.0
25.081,0.062,-0.098,0.0
22.066,0.058,-0.201,1.0
0.0,0.0,0.0,0.0
0.0,0.0,0.0,0.0
32.91,0.105,0.276,0.0
28.715,0.097,0.088,1.0
25.869,0.092,-0.054,0.0
23.214,0.087,-0.169,1.0
0.0,0.0,0.0,0.0
41.514,0.172,0.641,0.0
35.307,0.153,0.361,0.0
0.0,0.0,0.0,0.0
27.062,0.128,-0.006,0.0
24.242,0.119,-0.132,0.0
0.0,0.0,0.0,0.0
0.0,0.0,0.0,0.0
36.472,0.2,0.439,0.0
31.537,0.179,0.212,0.0
28.348,0.167,0.043,1.0
25.32,0.154,-0.093,0.0
0.0,0.0,0.0,0.0
0.0,0.0,0.0,0.0
38.981,0.261,0.539,0.0
33.419,0.23,0.284,0.0
28.844,0.205,0.095,2.0
26.255,0.191,-0.05,0.0
74.8,0.561,1.947,2.0
0.0,0.0,0.0,0.0
0.0,0.0,0.0,0.0
0.0,0.0,0.0,0.0
28.969,0.241,0.146,0.0
27.09,0.231,-0.004,0.0
58.0,0.507,1.61,0.0
57.822,0.518,1.303,0.0
0.0,0.0,0.0,0.0
36.921,0.346,0.442,0.0
31.723,0.304,0.214,0.0
28.639,0.28,0.044,2.0
57.692,0.578,1.701,1.0
57.535,0.588,1.396,0.0
0.0,0.0,0.0,0.0
0.0,0.0,0.0,0.0
33.43,0.363,0.283,0.0
28.877,0.32,0.093,6.0
57.037,0.646,1.78,0.0
57.046,0.658,1.48,0.0
57.651,0.678,1.194,0.0
0.0,0.0,0.0,0.0
35.33,0.431,0.358,0.0
28.943,0.359,0.142,1.0
56.392,0.713,1.853,0.0
0.0,0.0,0.0,0.0
57.527,0.752,1.287,1.0
0.0,0.0,0.0,0.0
36.431,0.493,0.429,0.0
32.126,0.442,0.21,0.0
0.0,0.0,0.0,0.0
0.0,0.0,0.0,0.0
0.0,0.0,0.0,0.0
48.119,0.706,0.897,0.0
40.485,0.603,0.542,0.0
32.675,0.494,0.266,0.0
0.0,0.0,0.0,0.0
0.0,0.0,0.0,0.0
55.363,0.877,1.418,1.0
0.0,0.0,0.0,0.0
42.616,0.694,0.639,0.0
34.418,0.569,0.335,1.0
55.819,0.937,2.106,0.0
55.097,0.937,1.788,2.0
55.014,0.948,1.495,2.0
54.761,0.957,1.194,2.0
0.0,0.0,0.0,0.0
35.928,0.645,0.405,0.0
0.0,0.0,0.0,0.0
0.0,0.0,0.0,0.0
0.0,0.0,0.0,0.0
54.519,1.031,1.273,0.0
0.0,0.0,0.0,0.0
37.365,0.724,0.478,0.0
0.0,0.0,0.0,0.0
0.0,0.0,0.0,0.0
54.363,1.094,1.643,0.0
54.379,1.107,1.351,0.0
54.779,1.129,1.072,1.0
0.0,0.0,0.0,0.0
0.0,0.0,0.0,0.0
0.0,0.0,0.0,0.0
54.536,1.178,1.729,150.0
54.364,1.187,1.431,0.0
58.038,1.282,1.221,4.0
0.0,0.0,0.0,0.0
56.014,1.266,2.45,0.0
0.0,0.0,0.0,0.0
54.342,1.255,1.802,1.0
54.113,1.264,1.503,1.0
54.673,1.29,1.229,0.0
47.1,1.124,0.81,2.0
88.657,2.141,4.007,5.0
0.0,0.0,0.0,0.0
0.0,0.0,0.0,0.0
54.131,1.346,1.579,1.0
54.15,1.36,1.293,0.0
56.805,1.441,1.055,0.0
88.75,2.278,4.135,15.0
0.0,0.0,0.0,0.0
0.0,0.0,0.0,0.0
54.152,1.43,1.654,3.0
54.168,1.444,1.367,1.0
56.53,1.522,1.127,6.0
84.54,2.301,4.054,14.0
0.0,0.0,0.0,0.0
0.0,0.0,0.0,0.0
54.423,1.523,1.736,0.0
54.081,1.527,1.438,12.0
0.0,0.0,0.0,0.0
82.725,2.383,4.078,4.0
0.0,0.0,0.0,0.0
0.0,0.0,0.0,0.0
54.12,1.6,1.798,0.0
54.093,1.614,1.509,4.0
54.302,1.634,1.226,2.0
82.137,2.497,4.156,25.0
84.034,2.576,3.804,5.0
0.0,0.0,0.0,0.0
0.0,0.0,0.0,0.0
54.108,1.701,1.578,5.0
54.26,1.72,1.293,7.0
81.807,2.619,4.242,39.0
82.277,2.655,3.827,13.0
0.0,0.0,0.0,0.0
51.25,1.68,1.83,0.0
51.174,1.691,1.555,4.0
50.934,1.696,1.276,0.0
81.684,2.747,4.336,31.0
81.03,2.745,3.867,25.0
56.166,1.918,2.38,0.0
50.721,1.745,1.873,2.0
50.482,1.75,1.594,3.0
50.45,1.762,1.323,3.0
81.673,2.88,4.432,31.0
81.135,2.882,3.968,32.0
56.302,2.014,2.451,0.0
50.494,1.82,1.923,3.0
49.977,1.815,1.636,2.0
49.934,1.826,1.367,2.0
43.133,4.819,0.564,0.0
33.603,3.749,0.248,1.0
29.031,3.234,0.049,1.0
24.21,2.694,-0.099,1.0
21.375,2.376,-0.209,2.0
18.909,2.099,-0.293,0.0
41.791,4.624,0.506,0.0
32.15,3.552,0.206,1.0
27.689,3.055,0.019,1.0
23.996,2.644,-0.121,1.0
21.264,2.34,-0.228,1.0
18.6,2.044,-0.306,0.0
38.23,4.187,0.426,0.0
31.681,3.465,0.173,0.0
26.414,2.885,-0.005,1.0
23.624,2.576,-0.142,0.0
20.646,2.249,-0.241,0.0
18.331,1.994,-0.318,0.0
0.0,0.0,0.0,0.0
29.374,3.179,0.133,2.0
26.104,2.82,-0.03,1.0
22.66,2.445,-0.157,0.0
20.347,2.192,-0.256,0.0
17.938,1.93,-0.328,0.0
35.336,3.787,0.328,1.0
29.272,3.132,0.106,1.0
25.75,2.751,-0.052,1.0
21.84,2.33,-0.171,0.0
19.686,2.097,-0.266,0.0
17.577,1.869,-0.337,0.0
34.022,3.604,0.286,1.0
29.144,3.083,0.079,1.0
24.762,2.615,-0.072,0.0
21.757,2.294,-0.189,3.0
19.482,2.051,-0.28,0.0
17.355,1.824,-0.348,0.0
33.775,3.535,0.255,0.0
28.281,2.955,0.052,0.0
24.459,2.552,-0.092,0.0
21.473,2.236,-0.205,4.0
19.161,1.992,-0.292,0.0
17.164,1.782,-0.359,0.0
32.025,3.31,0.214,0.0
27.556,2.843,0.028,0.0
24.031,2.475,-0.111,0.0
21.279,2.188,-0.221,2.0
18.742,1.924,-0.301,0.0
16.932,1.735,-0.368,0.0
31.834,3.248,0.187,0.0
26.617,2.711,0.005,0.0
23.603,2.399,-0.128,0.0
21.048,2.135,-0.236,0.0
18.319,1.855,-0.309,0.0
16.769,1.696,-0.378,0.0
31.518,3.172,0.16,0.0
26.162,2.628,-0.014,1.0
23.276,2.333,-0.144,0.0
20.666,2.068,-0.247,0.0
18.083,1.806,-0.319,0.0
16.503,1.645,-0.384,0.0
29.257,2.903,0.126,3.0
25.929,2.568,-0.034,1.0
22.345,2.208,-0.156,0.0
20.066,1.979,-0.255,0.0
17.797,1.752,-0.327,0.0
16.197,1.592,-0.389,0.0
29.254,2.861,0.105,5.0
25.59,2.497,-0.052,1.0
22.137,2.156,-0.17,3.0
19.687,1.913,-0.265,0.0
17.554,1.703,-0.335,0.0
16.029,1.552,-0.397,0.0
29.14,2.807,0.084,2.0
24.979,2.401,-0.069,0.0
21.921,2.102,-0.184,4.0
19.308,1.848,-0.273,0.0
17.391,1.661,-0.344,0.0
15.916,1.517,-0.405,0.0
28.752,2.726,0.063,1.0
24.528,2.32,-0.084,0.0
21.719,2.05,-0.197,4.0
19.067,1.796,-0.282,0.0
17.217,1.618,-0.352,0.0
15.793,1.481,-0.412,0.0
27.582,2.573,0.043,0.0
24.318,2.263,-0.099,0.0
21.569,2.003,-0.209,4.0
18.843,1.746,-0.291,0.0
17.078,1.578,-0.36,0.0
15.626,1.441,-0.417,0.0
26.988,2.475,0.025,0.0
24.052,2.201,-0.112,0.0
21.393,1.953,-0.22,1.0
18.568,1.691,-0.298,0.0
16.875,1.533,-0.365,0.0
15.521,1.407,-0.424,0.0
26.27,2.368,0.009,1.0
23.504,2.113,-0.123,0.0
21.151,1.897,-0.23,0.0
18.423,1.648,-0.306,0.0
16.664,1.487,-0.37,0.0
15.353,1.367,-0.428,0.0
26.24,2.322,-0.005,2.0
23.091,2.038,-0.134,0.0
20.777,1.829,-0.237,0.0
18.214,1.599,-0.312,0.0
16.524,1.447,-0.376,0.0
15.224,1.33,-0.432,0.0
26.037,2.261,-0.018,1.0
22.895,1.983,-0.145,1.0
20.24,1.748,-0.242,0.0
18.058,1.556,-0.319,0.0
16.437,1.412,-0.382,0.0
15.027,1.288,-0.434,0.0
25.697,2.188,-0.031,0.0
22.75,1.932,-0.155,1.0
20.041,1.697,-0.249,0.0
17.832,1.506,-0.323,0.0
16.227,1.366,-0.385,0.0
14.988,1.259,-0.44,0.0
25.519,2.129,-0.042,0.0
22.609,1.881,-0.164,1.0
19.78,1.641,-0.255,0.0
17.653,1.46,-0.328,0.0
16.117,1.329,-0.39,0.0
14.893,1.225,-0.444,0.0
25.277,2.065,-0.053,0.0
22.494,1.832,-0.173,1.0
19.508,1.584,-0.259,0.0
17.533,1.42,-0.333,0.0
16.06,1.297,-0.395,0.0
14.791,1.191,-0.446,0.0
24.978,1.998,-0.062,0.0
22.292,1.777,-0.18,1.0
19.481,1.548,-0.266,0.0
17.41,1.379,-0.337,0.0
15.902,1.256,-0.397,0.0
14.734,1.16,-0.45,0.0
24.636,1.926,-0.07,0.0
22.008,1.715,-0.185,0.0
19.254,1.496,-0.27,0.0
17.256,1.336,-0.34,0.0
15.904,1.228,-0.402,0.0
14.611,1.124,-0.451,0.0
24.451,1.868,-0.077,1.0
21.794,1.659,-0.19,0.0
19.19,1.456,-0.275,0.0
17.136,1.296,-0.343,0.0
15.825,1.193,-0.405,0.0
14.58,1.095,-0.454,0.0
24.297,1.812,-0.084,1.0
21.761,1.617,-0.196,0.0
19.185,1.421,-0.28,0.0
17.097,1.262,-0.346,0.0
15.753,1.158,-0.407,0.0
14.55,1.066,-0.457,0.0
24.187,1.759,-0.089,1.0
21.647,1.569,-0.2,0.0
18.942,1.368,-0.281,0.0
17.009,1.224,-0.348,0.0
15.684,1.124,-0.409,0.0
14.487,1.035,-0.458,0.0
24.177,1.714,-0.094,2.0
21.557,1.523,-0.204,0.0
18.858,1.327,-0.283,0.0
16.955,1.188,-0.351,0.0
15.622,1.091,-0.41,0.0
14.439,1.004,-0.459,0.0
24.161,1.667,-0.099,2.0
21.562,1.482,-0.208,0.0
18.862,1.292,-0.286,0.0
16.923,1.154,-0.353,0.0
15.712,1.067,-0.415,0.0
14.431,0.976,-0.461,0.0
24.183,1.624,-0.102,2.0
21.471,1.435,-0.21,0.0
18.657,1.242,-0.286,0.0
16.916,1.122,-0.355,0.0
15.608,1.03,-0.414,0.0
14.37,0.945,-0.461,0.0
24.141,1.575,-0.104,0.0
21.378,1.388,-0.211,0.0
18.684,1.208,-0.288,0.0
16.654,1.072,-0.35,0.0
15.549,0.996,-0.413,0.0
14.341,0.915,-0.461,0.0
24.22,1.533,-0.106,0.0
21.337,1.344,-0.212,1.0
18.686,1.172,-0.289,0.0
16.79,1.048,-0.354,0.0
15.539,0.966,-0.414,0.0
14.314,0.885,-0.46,0.0
26.839,0.788,0.009,0.0
23.693,0.688,-0.119,0.0
21.287,0.611,-0.222,0.0
18.388,0.522,-0.293,0.0
16.753,0.47,-0.358,0.0
15.495,0.43,-0.415,0.0
27.04,0.739,0.026,0.0
24.003,0.649,-0.106,0.0
21.591,0.577,-0.212,0.0
18.704,0.493,-0.286,0.0
16.818,0.438,-0.348,0.0
15.612,0.402,-0.408,0.0
27.403,0.694,0.045,0.0
24.592,0.615,-0.091,0.0
21.842,0.539,-0.199,0.0
18.906,0.461,-0.276,0.0
17.044,0.41,-0.341,0.0
15.736,0.374,-0.4,0.0
28.787,0.672,0.067,1.0
25.109,0.578,-0.076,0.0
22.163,0.503,-0.186,0.0
19.298,0.432,-0.268,0.0
17.277,0.381,-0.333,0.0
15.896,0.346,-0.392,0.0
28.789,0.615,0.089,2.0
25.524,0.537,-0.058,0.0
22.529,0.467,-0.172,0.0
19.72,0.403,-0.259,0.0
17.496,0.352,-0.324,0.0
16.098,0.319,-0.385,0.0
28.833,0.56,0.111,1.0
25.867,0.494,-0.039,0.0
23.156,0.434,-0.159,0.0
20.087,0.371,-0.248,0.0
17.775,0.322,-0.315,0.0
16.321,0.291,-0.377,0.0
28.857,0.504,0.134,0.0
26.343,0.451,-0.018,0.0
23.606,0.396,-0.143,0.0
20.422,0.337,-0.235,0.0
18.143,0.293,-0.306,0.0
16.524,0.262,-0.367,0.0
28.92,0.448,0.159,2.0
26.737,0.405,0.004,0.0
23.937,0.355,-0.124,0.0
21.253,0.309,-0.226,0.0
18.396,0.261,-0.294,0.0
16.729,0.232,-0.357,0.0
28.883,0.391,0.185,0.0
27.375,0.362,0.028,0.0
24.454,0.315,-0.104,0.0
21.772,0.274,-0.212,2.0
18.778,0.231,-0.283,0.0
16.917,0.203,-0.346,0.0
0.0,0.0,0.0,0.0
28.355,0.321,0.056,1.0
25.12,0.276,-0.084,0.0
22.054,0.235,-0.194,2.0
19.104,0.198,-0.27,0.0
17.197,0.173,-0.335,0.0
0.0,0.0,0.0,0.0
28.743,0.27,0.084,5.0
25.647,0.233,-0.061,0.0
22.405,0.196,-0.175,1.0
19.563,0.165,-0.257,0.0
17.491,0.142,-0.323,0.0
0.0,0.0,0.0,0.0
28.843,0.216,0.113,1.0
26.152,0.188,-0.036,0.0
23.082,0.159,-0.157,0.0
20.28,0.133,-0.246,0.0
17.89,0.112,-0.313,0.0
0.0,0.0,0.0,0.0
28.875,0.162,0.143,0.0
26.731,0.142,-0.009,0.0
23.577,0.118,-0.136,0.0
21.005,0.098,-0.233,2.0
18.281,0.08,-0.3,0.0
35.398,0.143,0.401,0.0
30.336,0.113,0.183,0.0
27.173,0.093,0.019,0.0
24.264,0.076,-0.114,0.0
21.345,0.06,-0.214,4.0
18.748,0.047,-0.287,0.0
36.462,0.08,0.454,0.0
30.986,0.059,0.22,0.0
28.302,0.045,0.051,1.0
25.012,0.032,-0.09,0.0
21.884,0.021,-0.195,1.0
19.162,0.013,-0.272,0.0
38.079,0.014,0.516,0.0
33.039,0.002,0.272,0.0
28.649,-0.006,0.084,1.0
25.621,-0.013,-0.063,0.0
22.695,-0.018,-0.176,0.0
19.852,-0.022,-0.259,0.0
0.0,0.0,0.0,0.0
33.219,-0.056,0.312,0.0
28.821,-0.057,0.118,6.0
26.214,-0.06,-0.033,0.0
23.573,-0.061,-0.155,0.0
20.411,-0.059,-0.242,0.0
0.0,0.0,0.0,0.0
34.842,-0.122,0.369,0.0
28.892,-0.109,0.153,1.0
26.742,-0.109,-0.002,0.0
24.057,-0.105,-0.129,0.0
21.51,-0.1,-0.229,1.0
0.0,0.0,0.0,0.0
36.066,-0.189,0.426,0.0
31.401,-0.174,0.205,1.0
27.649,-0.161,0.031,0.0
24.739,-0.152,-0.102,0.0
22.009,-0.141,-0.207,1.0
0.0,0.0,0.0,0.0
0.0,0.0,0.0,0.0
31.963,-0.233,0.249,2.0
28.616,-0.216,0.068,5.0
25.306,-0.199,-0.072,0.0
22.518,-0.183,-0.183,1.0
0.0,0.0,0.0,0.0
0.0,0.0,0.0,0.0
32.825,-0.294,0.297,1.0
28.748,-0.266,0.105,4.0
25.997,-0.248,-0.041,0.0
23.066,-0.227,-0.158,0.0
0.0,0.0,0.0,0.0
0.0,0.0,0.0,0.0
33.887,-0.362,0.351,0.0
0.0,0.0,0.0,0.0
26.656,-0.299,-0.007,0.0
23.91,-0.275,-0.132,0.0
57.371,-0.675,1.275,0.0
0.0,0.0,0.0,0.0
35.65,-0.44,0.417,0.0
31.041,-0.391,0.196,0.0
27.571,-0.355,0.029,0.0
24.733,-0.326,-0.103,0.0
0.0,0.0,0.0,0.0
0.0,0.0,0.0,0.0
0.0,0.0,0.0,0.0
32.225,-0.46,0.249,0.0
28.498,-0.414,0.07,1.0
25.376,-0.376,-0.07,0.0
0.0,0.0,0.0,0.0
0.0,0.0,0.0,0.0
0.0,0.0,0.0,0.0
33.67,-0.534,0.307,1.0
28.737,-0.464,0.111,0.0
26.144,-0.429,-0.035,0.0
0.0,0.0,0.0,0.0
0.0,0.0,0.0,0.0
0.0,0.0,0.0,0.0
34.148,-0.596,0.36,1.0
30.424,-0.539,0.161,0.0
27.196,-0.489,0.001,0.0
0.0,0.0,0.0,0.0
0.0,0.0,0.0,0.0
0.0,0.0,0.0,0.0
0.0,0.0,0.0,0.0
31.253,-0.601,0.211,0.0
28.383,-0.554,0.043,1.0
90.425,-1.787,2.651,1.0
0.0,0.0,0.0,0.0
0.0,0.0,0.0,0.0
37.978,-0.779,0.512,0.0
33.09,-0.687,0.272,1.0
28.676,-0.603,0.086,7.0
96.673,-2.056,2.977,1.0
0.0,0.0,0.0,0.0
0.0,0.0,0.0,0.0
0.0,0.0,0.0,0.0
33.82,-0.753,0.329,1.0
28.765,-0.648,0.129,5.0
96.874,-2.203,3.13,5.0
0.0,0.0,0.0,0.0
0.0,0.0,0.0,0.0
0.0,0.0,0.0,0.0
35.351,-0.838,0.398,0.0
30.913,-0.741,0.186,0.0
0.0,0.0,0.0,0.0
0.0,0.0,0.0,0.0
0.0,0.0,0.0,0.0
0.0,0.0,0.0,0.0
37.295,-0.938,0.478,0.0
32.357,-0.821,0.245,1.0
92.465,-2.368,3.272,157.0
0.0,0.0,0.0,0.0
0.0,0.0,0.0,0.0
0.0,0.0,0.0,0.0
0.0,0.0,0.0,0.0
33.338,-0.892,0.305,0.0
17.285,-0.611,-0.316,0.0
15.855,-0.565,-0.38,0.0
14.486,-0.521,-0.43,0.0
13.393,-0.485,-0.475,0.0
12.512,-0.457,-0.516,0.0
11.796,-0.435,-0.554,0.0
17.046,-0.632,-0.329,0.0
15.59,-0.583,-0.39,0.0
14.27,-0.538,-0.438,0.0
13.195,-0.501,-0.481,0.0
12.345,-0.473,-0.521,0.0
11.683,-0.451,-0.56,0.0
16.797,-0.652,-0.34,0.0
15.358,-0.601,-0.399,0.0
14.101,-0.556,-0.446,0.0
13.074,-0.52,-0.49,0.0
12.286,-0.493,-0.53,0.0
11.538,-0.466,-0.564,0.0
16.523,-0.671,-0.35,0.0
15.048,-0.616,-0.405,0.0
13.91,-0.574,-0.453,0.0
12.93,-0.537,-0.496,0.0
12.19,-0.51,-0.537,0.0
11.395,-0.481,-0.567,0.0
16.291,-0.691,-0.36,0.0
14.856,-0.635,-0.413,0.0
13.723,-0.591,-0.459,0.0
12.779,-0.554,-0.502,0.0
12.006,-0.525,-0.54,0.0
11.281,-0.497,-0.571,0.0
16.068,-0.71,-0.369,0.0
14.693,-0.654,-0.421,0.0
13.599,-0.61,-0.467,0.0
12.653,-0.572,-0.507,0.0
11.908,-0.542,-0.545,0.0
11.151,-0.511,-0.574,0.0
15.907,-0.732,-0.378,0.0
14.534,-0.673,-0.428,0.0
13.443,-0.627,-0.472,0.0
12.606,-0.592,-0.516,0.0
11.812,-0.559,-0.55,0.0
11.082,-0.528,-0.579,0.0
15.688,-0.75,-0.385,0.0
14.366,-0.692,-0.434,0.0
13.301,-0.645,-0.477,0.0
12.435,-0.607,-0.518,0.0
11.725,-0.576,-0.555,0.0
10.974,-0.543,-0.582,0.0
15.563,-0.772,-0.394,0.0
14.193,-0.709,-0.439,0.0
13.174,-0.662,-0.482,0.0
12.345,-0.625,-0.523,0.0
11.562,-0.589,-0.556,0.0
10.916,-0.559,-0.587,0.0
15.359,-0.79,-0.399,0.0
14.089,-0.729,-0.446,0.0
13.104,-0.682,-0.489,0.0
12.264,-0.643,-0.528,0.0
11.489,-0.606,-0.56,0.0
10.835,-0.575,-0.59,0.0
15.041,-0.801,-0.401,0.0
13.955,-0.747,-0.451,0.0
12.983,-0.7,-0.493,0.0
12.183,-0.661,-0.533,0.0
11.438,-0.624,-0.565,0.0
10.733,-0.589,-0.591,0.0
14.868,-0.819,-0.405,0.0
13.774,-0.763,-0.453,0.0
12.915,-0.72,-0.498,0.0
12.051,-0.675,-0.534,0.0
11.34,-0.639,-0.567,0.0
10.668,-0.605,-0.594,0.0
14.808,-0.842,-0.412,0.0
13.688,-0.783,-0.459,0.0
12.827,-0.738,-0.502,0.0
11.958,-0.692,-0.537,0.0
11.276,-0.656,-0.57,0.0
10.621,-0.622,-0.597,0.0
14.71,-0.863,-0.418,0.0
13.599,-0.802,-0.463,0.0
12.708,-0.754,-0.504,0.0
11.914,-0.711,-0.541,0.0
11.178,-0.671,-0.571,0.0
10.493,-0.633,-0.595,0.0
14.633,-0.885,-0.423,0.0
13.561,-0.825,-0.468,0.0
12.609,-0.771,-0.506,0.0
11.816,-0.727,-0.542,0.0
11.154,-0.69,-0.575,0.0
10.44,-0.649,-0.597,0.0
14.541,-0.906,-0.427,0.0
13.525,-0.847,-0.473,0.0
12.546,-0.79,-0.509,0.0
11.718,-0.742,-0.543,0.0
11.084,-0.705,-0.576,0.0
10.431,-0.667,-0.601,0.0
14.452,-0.926,-0.43,0.0
13.388,-0.863,-0.474,0.0
12.456,-0.807,-0.511,0.0
11.742,-0.764,-0.549,0.0
11.015,-0.721,-0.577,0.0
10.375,-0.683,-0.602,0.0
14.319,-0.943,-0.431,0.0
13.313,-0.881,-0.476,0.0
12.486,-0.831,-0.516,0.0
11.742,-0.785,-0.553,0.0
11.01,-0.74,-0.58,0.0
10.373,-0.701,-0.605,0.0
14.259,-0.965,-0.434,0.0
13.277,-0.903,-0.479,0.0
12.429,-0.849,-0.518,0.0
11.602,-0.796,-0.55,0.0
10.965,-0.757,-0.581,0.0
10.327,-0.716,-0.605,0.0
14.194,-0.986,-0.437,0.0
13.254,-0.925,-0.482,0.0
12.346,-0.865,-0.518,0.0
11.642,-0.82,-0.555,0.0
10.927,-0.773,-0.582,0.0
10.318,-0.734,-0.608,0.0
14.117,-1.005,-0.438,0.0
13.233,-0.947,-0.484,0.0
12.35,-0.888,-0.521,0.0
11.597,-0.838,-0.556,0.0
10.911,-0.792,-0.584,0.0
10.281,-0.75,-0.608,0.0
14.146,-1.032,-0.442,0.0
13.154,-0.964,-0.484,0.0
12.329,-0.908,-0.523,0.0
11.591,-0.857,-0.558,0.0
10.842,-0.806,-0.582,0.0
10.252,-0.765,-0.608,0.0
14.062,-1.051,-0.441,0.0
13.141,-0.986,-0.486,0.0
12.325,-0.929,-0.525,0.0
11.542,-0.874,-0.557,0.0
10.858,-0.826,-0.585,0.0
10.16,-0.776,-0.604,0.0
14.079,-1.076,-0.444,0.0
13.146,-1.01,-0.488,0.0
12.276,-0.947,-0.524,0.0
11.553,-0.895,-0.559,0.0
10.896,-0.848,-0.588,0.0
10.259,-0.802,-0.611,0.0
14.047,-1.098,-0.444,0.0
13.083,-1.027,-0.487,0.0
12.304,-0.97,-0.526,0.0
11.478,-0.909,-0.556,0.0
10.791,-0.858,-0.583,0.0
10.162,-0.811,-0.606,0.0
14.054,-1.123,-0.445,0.0
13.102,-1.051,-0.488,0.0
12.305,-0.991,-0.527,0.0
11.567,-0.935,-0.561,0.0
10.831,-0.879,-0.585,0.0
10.253,-0.836,-0.611,0.0
14.067,-1.147,-0.446,0.0
13.075,-1.071,-0.487,0.0
12.256,-1.007,-0.525,0.0
11.503,-0.949,-0.558,0.0
10.814,-0.896,-0.584,0.0
10.18,-0.847,-0.607,0.0
14.047,-1.169,-0.445,0.0
13.093,-1.094,-0.487,0.0
12.214,-1.024,-0.522,0.0
11.481,-0.967,-0.556,0.0
10.82,-0.915,-0.584,0.0
10.142,-0.861,-0.604,0.0
14.064,-1.194,-0.444,0.0
13.094,-1.115,-0.486,0.0
12.22,-1.045,-0.522,0.0
11.534,-0.99,-0.558,0.0
10.878,-0.937,-0.586,0.0
10.182,-0.881,-0.605,0.0
14.115,-1.221,-0.444,0.0
13.144,-1.141,-0.487,0.0
12.282,-1.07,-0.523,0.0
11.488,-1.005,-0.554,0.0
10.849,-0.953,-0.583,0.0
10.208,-0.9,-0.606,0.0
14.106,-1.243,-0.442,0.0
13.184,-1.166,-0.486,0.0
12.304,-1.092,-0.522,0.0
11.555,-1.029,-0.555,0.0
10.789,-0.965,-0.578,0.0
10.185,-0.914,-0.602,0.0
14.167,-1.271,-0.442,0.0
13.205,-1.189,-0.485,0.0
12.282,-1.11,-0.519,0.0
11.608,-1.052,-0.556,0.0
10.925,-0.994,-0.583,0.0
10.291,-0.94,-0.606,0.0
14.169,-1.294,-0.439,0.0
13.194,-1.209,-0.481,0.0
12.36,-1.136,-0.519,0.0
11.601,-1.07,-0.553,0.0
10.958,-1.014,-0.582,0.0
10.346,-0.961,-0.607,0.0
14.26,-1.324,-0.438,0.0
13.239,-1.234,-0.479,0.0
12.362,-1.156,-0.516,0.0
11.599,-1.088,-0.549,0.0
10.946,-1.03,-0.579,0.0
10.395,-0.982,-0.607,0.0
14.304,-1.35,-0.435,0.0
13.248,-1.255,-0.476,0.0
12.332,-1.171,-0.511,0.0
11.676,-1.113,-0.549,0.0
10.934,-1.046,-0.575,0.0
10.372,-0.995,-0.602,0.0
14.334,-1.375,-0.431,0.0
13.302,-1.28,-0.473,0.0
12.461,-1.202,-0.512,0.0
11.685,-1.131,-0.546,0.0
11.011,-1.069,-0.575,0.0
10.361,-1.009,-0.598,0.0
14.383,-1.401,-0.427,0.0
13.374,-1.306,-0.471,0.0
12.52,-1.227,-0.51,0.0
11.796,-1.159,-0.546,0.0
11.079,-1.092,-0.574,0.0
10.412,-1.03,-0.597,0.0
14.538,-1.437,-0.426,0.0
13.502,-1.338,-0.47,0.0
12.65,-1.258,-0.51,0.0
11.818,-1.179,-0.542,0.0
11.12,-1.112,-0.571,0.0
10.44,-1.047,-0.594,0.0
14.61,-1.465,-0.422,0.0
13.566,-1.364,-0.466,0.0
12.543,-1.265,-0.5,0.0
11.876,-1.201,-0.54,0.0
11.223,-1.138,-0.572,0.0
10.505,-1.069,-0.593,0.0
14.703,-1.495,-0.418,0.0
13.692,-1.396,-0.464,0.0
12.789,-1.307,-0.503,0.0
11.892,-1.219,-0.535,0.0
11.234,-1.155,-0.567,0.0
10.611,-1.094,-0.593,0.0
14.818,-1.527,-0.413,0.0
13.779,-1.423,-0.46,0.0
12.87,-1.333,-0.5,0.0
11.997,-1.246,-0.533,0.0
11.353,-1.182,-0.567,0.0
10.639,-1.111,-0.589,0.0
14.919,-1.557,-0.408,0.0
13.884,-1.453,-0.456,0.0
12.989,-1.362,-0.498,0.0
12.094,-1.272,-0.531,0.0
11.451,-1.207,-0.565,0.0
10.696,-1.131,-0.587,0.0
15.058,-1.591,-0.404,0.0
13.95,-1.478,-0.45,0.0
12.969,-1.377,-0.489,0.0
12.17,-1.296,-0.527,0.0
11.49,-1.226,-0.56,0.0
10.794,-1.155,-0.585,0.0
15.361,-1.643,-0.403,0.0
13.99,-1.5,-0.443,0.0
13.064,-1.404,-0.485,0.0
12.29,-1.324,-0.525,0.0
11.588,-1.251,-0.558,0.0
10.886,-1.178,-0.584,0.0
15.45,-1.671,-0.395,0.0
14.148,-1.534,-0.439,0.0
13.125,-1.426,-0.479,0.0
12.313,-1.341,-0.518,0.0
11.664,-1.274,-0.554,0.0
11.007,-1.205,-0.583,0.0
15.557,-1.701,-0.388,0.0
14.33,-1.571,-0.435,0.0
13.223,-1.453,-0.474,0.0
12.374,-1.363,-0.512,0.0
11.689,-1.29,-0.547,0.0
11.026,-1.22,-0.576,0.0
15.784,-1.745,-0.383,0.0
14.438,-1.599,-0.429,0.0
13.379,-1.485,-0.47,0.0
12.472,-1.388,-0.507,0.0
11.803,-1.316,-0.544,0.0
11.063,-1.236,-0.571,0.0
16.002,-1.787,-0.377,0.0
14.483,-1.621,-0.42,0.0
13.58,-1.523,-0.467,0.0
12.608,-1.417,-0.504,0.0
11.938,-1.344,-0.542,0.0
11.179,-1.262,-0.568,0.0
16.208,-1.828,-0.37,0.0
14.732,-1.664,-0.416,0.0
13.688,-1.55,-0.461,0.0
12.728,-1.444,-0.499,0.0
11.977,-1.362,-0.535,0.0
11.335,-1.291,-0.568,0.0
16.419,-1.869,-0.362,0.0
14.91,-1.7,-0.409,0.0
13.837,-1.581,-0.455,0.0
12.869,-1.473,-0.494,0.0
12.113,-1.389,-0.531,0.0
11.408,-1.311,-0.562,0.0
16.643,-1.911,-0.354,0.0
15.1,-1.737,-0.403,0.0
13.97,-1.61,-0.448,0.0
13.01,-1.502,-0.489,0.0
12.267,-1.419,-0.528,0.0
11.537,-1.338,-0.559,0.0
16.938,-1.962,-0.346,0.0
15.115,-1.754,-0.39,0.0
14.155,-1.646,-0.442,0.0
13.114,-1.527,-0.482,0.0
12.344,-1.44,-0.521,0.0
11.639,-1.361,-0.554,0.0
17.154,-2.004,-0.336,0.0
15.613,-1.827,-0.39,0.0
14.222,-1.667,-0.432,0.0
13.276,-1.558,-0.477,0.0
12.498,-1.47,-0.516,0.0
11.717,-1.38,-0.548,0.0
17.435,-2.052,-0.326,0.0
15.89,-1.873,-0.383,0.0
14.482,-1.71,-0.428,0.0
13.492,-1.596,-0.472,0.0
12.575,-1.49,-0.509,0.0
11.825,-1.403,-0.542,0.0
17.714,-2.101,-0.315,0.0
16.099,-1.912,-0.374,0.0
14.701,-1.748,-0.421,0.0
13.682,-1.63,-0.467,0.0
12.708,-1.516,-0.502,0.0
11.979,-1.432,-0.538,0.0
17.953,-2.144,-0.303,0.0
16.367,-1.957,-0.365,0.0
14.969,-1.793,-0.414,0.0
13.777,-1.652,-0.457,0.0
12.874,-1.546,-0.497,0.0
12.109,-1.457,-0.533,0.0
18.382,-2.21,-0.293,0.0
16.621,-2.001,-0.355,0.0
15.222,-1.835,-0.407,0.0
13.997,-1.689,-0.451,0.0
13.014,-1.573,-0.49,0.0
12.234,-1.481,-0.527,0.0
18.962,-2.294,-0.284,0.0
16.968,-2.055,-0.346,0.0
15.401,-1.868,-0.397,0.0
14.222,-1.727,-0.445,0.0
13.13,-1.596,-0.481,0.0
12.373,-1.506,-0.52,0.0
19.395,-2.36,-0.272,0.0
17.191,-2.094,-0.334,0.0
15.718,-1.917,-0.389,0.0
14.32,-1.749,-0.434,0.0
13.378,-1.636,-0.477,0.0
12.487,-1.529,-0.513,0.0
19.748,-2.416,-0.257,0.0
17.626,-2.159,-0.325,0.0
15.997,-1.961,-0.381,0.0
14.655,-1.799,-0.429,0.0
13.573,-1.668,-0.47,0.0
12.663,-1.558,-0.507,0.0
20.185,-2.482,-0.243,0.0
17.844,-2.196,-0.31,0.0
16.192,-1.995,-0.369,0.0
14.812,-1.827,-0.419,0.0
13.759,-1.699,-0.463,0.0
12.83,-1.586,-0.501,0.0
20.784,-2.568,-0.228,0.0
18.319,-2.265,-0.3,0.0
16.618,-2.057,-0.361,0.0
15.028,-1.862,-0.409,0.0
13.954,-1.731,-0.455,0.0
12.913,-1.603,-0.49,0.0
21.938,-2.722,-0.218,4.0
18.846,-2.34,-0.289,0.0
16.9,-2.1,-0.35,0.0
15.265,-1.899,-0.399,0.0
14.119,-1.758,-0.445,0.0
13.129,-1.636,-0.485,0.0
22.172,-2.762,-0.197,10.0
19.348,-2.412,-0.276,0.0
17.202,-2.146,-0.338,0.0
15.655,-1.955,-0.393,0.0
14.381,-1.797,-0.438,0.0
13.353,-1.67,-0.479,0.0
22.395,-2.8,-0.175,4.0
19.707,-2.465,-0.26,0.0
17.561,-2.198,-0.326,0.0
15.891,-1.991,-0.382,0.0
14.684,-1.841,-0.432,0.0
13.572,-1.703,-0.472,0.0
22.578,-2.831,-0.152,1.0
20.574,-2.582,-0.249,0.0
17.847,-2.241,-0.312,0.0
16.241,-2.041,-0.372,0.0
14.898,-1.873,-0.422,0.0
13.792,-1.735,-0.464,0.0
23.881,-3.003,-0.135,1.0
20.795,-2.616,-0.229,1.0
18.277,-2.301,-0.299,0.0
16.594,-2.09,-0.362,0.0
15.131,-1.907,-0.411,0.0
13.971,-1.762,-0.455,0.0
24.619,-3.104,-0.112,1.0
22.225,-2.803,-0.22,3.0
18.978,-2.395,-0.29,0.0
16.963,-2.141,-0.352,0.0
15.488,-1.956,-0.404,0.0
14.219,-1.797,-0.447,0.0
25.462,-3.217,-0.087,5.0
22.434,-2.835,-0.197,4.0
19.416,-2.455,-0.275,0.0
17.212,-2.177,-0.337,0.0
15.801,-1.999,-0.394,0.0
14.42,-1.825,-0.437,0.0
25.459,-3.222,-0.059,12.0
22.608,-2.862,-0.173,4.0
19.876,-2.517,-0.259,0.0
17.63,-2.233,-0.326,0.0
15.949,-2.021,-0.38,0.0
14.611,-1.852,-0.427,0.0
25.455,-3.226,-0.03,13.0
23.175,-2.937,-0.151,4.0
20.667,-2.62,-0.246,0.0
17.959,-2.277,-0.312,0.0
16.337,-2.072,-0.371,0.0
14.869,-1.887,-0.417,0.0
25.436,-3.226,-0.002,13.0
23.669,-3.003,-0.128,0.0
20.883,-2.65,-0.225,0.0
18.43,-2.339,-0.299,0.0
16.743,-2.125,-0.361,0.0
15.184,-1.928,-0.409,0.0
25.446,-3.23,0.026,11.0
25.311,-3.213,-0.108,2.0
22.352,-2.837,-0.216,4.0
19.081,-2.422,-0.288,0.0
17.065,-2.166,-0.349,0.0
15.602,-1.981,-0.403,0.0
25.448,-3.231,0.055,10.0
25.432,-3.228,-0.08,8.0
22.461,-2.851,-0.191,4.0
19.54,-2.48,-0.273,0.0
17.402,-2.209,-0.336,0.0
15.863,-2.014,-0.391,0.0
25.532,-3.241,0.084,6.0
25.444,-3.229,-0.051,11.0
22.824,-2.896,-0.168,5.0
20.082,-2.548,-0.257,0.0
17.775,-2.255,-0.323,0.0
16.059,-2.038,-0.378,0.0
25.81,-3.275,0.115,3.0
25.441,-3.227,-0.022,13.0
23.302,-2.955,-0.145,2.0
20.701,-2.625,-0.241,1.0
18.17,-2.304,-0.309,0.0
16.502,-2.092,-0.369,0.0
26.357,-3.341,0.147,1.0
25.45,-3.225,0.006,12.0
24.38,-3.089,-0.124,1.0
0.0,0.0,0.0,0.0
18.716,-2.37,-0.297,0.0
16.871,-2.136,-0.358,0.0
27.129,-3.435,0.182,1.0
25.46,-3.222,0.035,10.0
25.417,-3.216,-0.101,4.0
22.389,-2.832,-0.21,4.0
19.335,-2.445,-0.285,0.0
17.164,-2.17,-0.345,0.0
27.758,-3.509,0.218,1.0
25.498,-3.222,0.064,8.0
25.479,-3.218,-0.071,10.0
22.503,-2.841,-0.186,4.0
19.702,-2.486,-0.268,0.0
17.569,-2.216,-0.333,0.0
28.29,-3.569,0.254,0.0
25.619,-3.23,0.093,5.0
25.51,-3.215,-0.043,10.0
22.864,-2.88,-0.163,2.0
20.528,-2.585,-0.256,0.0
17.869,-2.249,-0.319,0.0
29.072,-3.659,0.294,0.0
25.965,-3.266,0.124,2.0
25.518,-3.208,-0.014,12.0
23.958,-3.01,-0.144,1.0
20.788,-2.61,-0.236,1.0
18.35,-2.303,-0.307,0.0
30.809,-3.867,0.346,1.0
26.188,-3.285,0.154,1.0
25.544,-3.202,0.013,12.0
0.0,0.0,0.0,0.0
22.033,-2.758,-0.226,4.0
18.991,-2.376,-0.296,0.0
31.693,-3.966,0.392,0.0
27.183,-3.399,0.19,1.0
25.577,-3.196,0.042,12.0
25.566,-3.192,-0.097,4.0
22.19,-2.769,-0.203,9.0
19.404,-2.419,-0.281,0.0
33.27,-4.149,0.448,0.0
26.119,-3.254,0.212,2.0
25.624,-3.19,0.07,7.0
25.609,-3.186,-0.068,9.0
22.292,-2.771,-0.179,4.0
19.869,-2.468,-0.266,0.0
33.839,-4.204,0.493,0.0
26.045,-3.233,0.24,0.0
25.822,-3.202,0.099,6.0
25.652,-3.178,-0.041,9.0
22.232,-2.752,-0.154,6.0
20.609,-2.549,-0.253,0.0
35.733,-4.421,0.559,0.0
29.931,-3.699,0.308,1.0
26.208,-3.236,0.13,6.0
25.692,-3.169,-0.012,2.0
22.222,-2.738,-0.13,7.0
22.157,-2.728,-0.248,0.0
22.156,-2.728,0.371,0.0
30.807,-3.789,0.351,0.0
26.199,-3.219,0.158,6.0
25.723,-3.157,0.015,1.0
22.209,-2.723,-0.106,15.0
22.166,-2.715,-0.224,1.0
22.153,-2.714,0.395,12.0
32.159,-3.935,0.401,1.0
26.256,-3.209,0.187,2.0
22.182,-2.708,0.036,12.0
22.195,-2.707,-0.082,18.0
22.185,-2.703,-0.201,3.0
22.136,-2.697,0.418,16.0
22.297,-2.713,0.302,7.0
22.48,-2.732,0.184,7.0
22.159,-2.69,0.06,15.0
22.194,-2.691,-0.059,19.0
22.138,-2.681,-0.177,7.0
22.129,-2.681,0.441,18.0
22.127,-2.677,0.322,14.0
22.353,-2.701,0.206,12.0
22.152,-2.673,0.083,17.0
22.189,-2.674,-0.035,18.0
22.218,-2.674,-0.155,4.0
22.136,-2.665,0.465,18.0
22.12,-2.66,0.345,18.0
22.161,-2.661,0.227,13.0
22.137,-2.654,0.105,19.0
22.189,-2.657,-0.012,17.0
22.391,-2.677,-0.133,22.0
22.135,-2.648,0.487,16.0
22.113,-2.641,0.368,20.0
22.101,-2.635,0.249,18.0
22.118,-2.634,0.128,18.0
22.182,-2.637,0.009,16.0
22.426,-2.662,-0.11,15.0
22.16,-2.632,0.51,12.0
22.121,-2.623,0.39,19.0
22.108,-2.617,0.271,19.0
22.123,-2.615,0.15,18.0
22.199,-2.62,0.031,14.0
22.51,-2.653,-0.089,11.0
22.162,-2.613,0.532,13.0
22.131,-2.605,0.412,16.0
22.11,-2.598,0.293,19.0
22.123,-2.595,0.171,18.0
22.195,-2.6,0.053,8.0
26.19,-3.063,-0.078,1.0
22.167,-2.593,0.554,11.0
22.161,-2.588,0.434,13.0
22.126,-2.579,0.314,17.0
22.127,-2.575,0.193,16.0
26.305,-3.056,0.088,13.0
26.274,-3.047,-0.053,2.0
22.374,-2.596,0.58,10.0
22.43,-2.598,0.46,13.0
22.155,-2.561,0.335,13.0
22.16,-2.557,0.214,13.0
26.51,-3.053,0.113,11.0
26.351,-3.03,-0.029,2.0
98.475,-11.328,2.646,12.0
22.504,-2.583,0.483,0.0
22.303,-2.555,0.358,0.0
22.176,-2.536,0.234,1.0
26.846,-3.064,0.139,6.0
23.601,-2.689,-0.004,13.0
98.582,-11.239,2.738,1.0
0.0,0.0,0.0,0.0
0.0,0.0,0.0,0.0
0.0,0.0,0.0,0.0
27.339,-3.091,0.166,5.0
23.614,-2.665,0.016,153.0
0.0,0.0,0.0,0.0
0.0,0.0,0.0,0.0
0.0,0.0,0.0,0.0
31.731,-3.56,0.391,4.0
27.734,-3.105,0.193,4.0
23.587,-2.635,0.036,167.0
0.0,0.0,0.0,0.0
0.0,0.0,0.0,0.0
0.0,0.0,0.0,0.0
31.544,-3.503,0.416,0.0
28.279,-3.134,0.22,7.0
23.625,-2.612,0.056,154.0
37.867,-4.19,1.149,1.0
37.972,-4.192,0.947,5.0
37.982,-4.183,0.742,0.0
37.845,-4.158,0.531,0.0
29.203,-3.201,0.251,4.0
27.224,-2.978,0.087,2.0
37.09,-4.06,1.156,1.0
36.954,-4.034,0.952,0.0
37.068,-4.037,0.754,1.0
37.303,-4.054,0.553,0.0
29.931,-3.245,0.281,3.0
27.43,-2.967,0.109,3.0
36.083,-3.905,1.153,1.0
36.076,-3.894,0.957,0.0
36.447,-3.925,0.769,0.0
37.022,-3.977,0.577,0.0
29.426,-3.153,0.299,0.0
27.688,-2.96,0.131,2.0
34.786,-3.72,1.138,0.0
34.991,-3.732,0.955,1.0
34.956,-3.719,0.764,1.0
34.701,-3.683,0.567,0.0
34.45,-3.647,0.376,0.0
30.989,-3.272,0.171,1.0
34.357,-3.629,1.15,0.0
34.202,-3.603,0.958,0.0
34.214,-3.595,0.773,0.0
34.372,-3.602,0.587,0.0
34.405,-3.596,0.4,0.0
31.088,-3.241,0.193,1.0
34.185,-3.565,1.168,1.0
34.019,-3.538,0.977,1.0
34.044,-3.53,0.793,1.0
34.099,-3.526,0.606,1.0
34.353,-3.543,0.424,0.0
31.716,-3.262,0.219,0.0
34.03,-3.502,1.186,0.0
33.947,-3.483,0.998,121.0
33.949,-3.474,0.814,2.0
33.969,-3.466,0.626,0.0
34.403,-3.5,0.447,0.0
32.147,-3.262,0.243,1.0
34.023,-3.454,1.208,1.0
33.91,-3.432,1.019,186.0
33.897,-3.421,0.834,3.0
0.0,0.0,0.0,0.0
34.412,-3.452,0.468,0.0
32.319,-3.233,0.264,0.0
33.958,-3.398,1.226,2.0
33.894,-3.382,1.039,168.0
33.875,-3.37,0.854,5.0
0.0,0.0,0.0,0.0
34.534,-3.414,0.491,5.0
0.0,0.0,0.0,0.0
33.901,-3.343,1.245,3.0
33.923,-3.334,1.06,154.0
33.838,-3.316,0.873,7.0
0.0,0.0,0.0,0.0
34.542,-3.364,0.511,3.0
0.0,0.0,0.0,0.0
33.86,-3.289,1.262,4.0
33.88,-3.28,1.077,15.0
33.826,-3.264,0.891,10.0
33.849,-3.256,0.703,0.0
34.191,-3.278,0.523,1.0
0.0,0.0,0.0,0.0
33.834,-3.235,1.278,8.0
33.796,-3.22,1.092,4.0
33.818,-3.211,0.908,21.0
33.831,-3.202,0.72,0.0
34.059,-3.213,0.539,1.0
35.856,-3.371,0.371,0.0
33.833,-3.182,1.295,18.0
33.786,-3.167,1.108,24.0
33.804,-3.158,0.924,28.0
33.81,-3.147,0.735,150.0
34.007,-3.155,0.554,1.0
0.0,0.0,0.0,0.0
33.831,-3.128,1.31,25.0
33.793,-3.114,1.124,26.0
33.795,-3.103,0.939,45.0
33.798,-3.092,0.75,8.0
33.975,-3.098,0.568,0.0
36.147,-3.284,0.407,0.0
33.812,-3.072,1.324,27.0
33.785,-3.058,1.137,22.0
33.807,-3.049,0.953,77.0
33.782,-3.036,0.764,1.0
33.895,-3.035,0.581,0.0
36.841,-3.287,0.429,0.0
33.807,-3.016,1.337,24.0
33.782,-3.002,1.151,16.0
33.8,-2.992,0.966,94.0
33.803,-2.981,0.777,1.0
33.812,-2.971,0.592,1.0
0.0,0.0,0.0,0.0
33.818,-2.96,1.35,16.0
33.791,-2.946,1.163,10.0
33.792,-2.935,0.977,125.0
33.787,-2.923,0.788,4.0
33.786,-2.912,0.603,1.0
34.457,-2.958,0.425,0.0
33.817,-2.903,1.361,7.0
33.812,-2.891,1.175,9.0
33.798,-2.878,0.988,148.0
33.834,-2.87,0.8,150.0
33.795,-2.855,0.613,28.0
34.452,-2.899,0.435,0.0
33.832,-2.847,1.371,5.0
33.819,-2.834,1.184,10.0
33.804,-2.821,0.997,150.0
33.825,-2.81,0.808,152.0
33.819,-2.799,0.622,116.0
34.373,-2.833,0.443,0.0
33.82,-2.787,1.379,3.0
33.819,-2.774,1.193,8.0
33.8,-2.761,1.006,148.0
33.846,-2.753,0.817,150.0
33.818,-2.739,0.63,68.0
34.432,-2.777,0.452,1.0
33.89,-2.733,1.389,1.0
33.849,-2.717,1.201,9.0
33.808,-2.702,1.013,132.0
33.856,-2.694,0.824,151.0
33.845,-2.682,0.637,151.0
34.433,-2.717,0.458,2.0
33.999,-2.681,1.4,1.0
33.835,-2.656,1.206,7.0
33.816,-2.643,1.018,121.0
33.859,-2.634,0.829,150.0
33.857,-2.622,0.642,151.0
34.378,-2.651,0.462,1.0
33.976,-2.618,1.403,0.0
33.839,-2.596,1.211,7.0
33.829,-2.583,1.023,105.0
33.88,-2.575,0.834,150.0
33.858,-2.562,0.646,152.0
34.402,-2.591,0.466,2.0
34.02,-2.561,1.409,0.0
33.858,-2.536,1.215,8.0
33.842,-2.523,1.027,89.0
33.852,-2.511,0.836,48.0
33.857,-2.5,0.649,150.0
34.449,-2.532,0.47,2.0
34.09,-2.504,1.414,0.0
33.877,-2.476,1.217,6.0
33.857,-2.462,1.029,79.0
33.898,-2.453,0.839,150.0
33.875,-2.439,0.651,153.0
34.445,-2.468,0.471,2.0
34.059,-2.439,1.413,0.0
33.867,-2.412,1.217,5.0
33.893,-2.402,1.031,62.0
33.855,-2.387,0.838,30.0
33.851,-2.375,0.65,9.0
34.484,-2.407,0.471,2.0
34.087,-2.377,1.414,0.0
33.896,-2.351,1.218,4.0
33.871,-2.337,1.029,50.0
33.873,-2.325,0.837,10.0
33.831,-2.31,0.649,0.0
34.556,-2.347,0.471,2.0
34.158,-2.317,1.415,0.0
33.921,-2.288,1.217,4.0
33.891,-2.274,1.027,38.0
33.887,-2.262,0.835,8.0
33.885,-2.25,0.647,0.0
34.567,-2.283,0.468,2.0
34.148,-2.252,1.412,0.0
33.947,-2.226,1.214,4.0
33.934,-2.213,1.025,152.0
33.897,-2.198,0.832,7.0
33.92,-2.187,0.644,0.0
34.729,-2.227,0.466,1.0
34.173,-2.188,1.408,0.0
33.978,-2.164,1.211,4.0
33.961,-2.15,1.021,151.0
33.922,-2.135,0.828,5.0
33.988,-2.127,0.64,0.0
34.814,-2.166,0.462,1.0
34.207,-2.125,1.404,0.0
34.008,-2.1,1.206,4.0
33.989,-2.086,1.016,8.0
33.979,-2.073,0.822,3.0
33.978,-2.061,0.633,0.0
35.031,-2.113,0.458,5.0
34.351,-2.067,1.403,0.0
34.011,-2.035,1.199,2.0
34.011,-2.022,1.009,6.0
34.006,-2.01,0.815,2.0
34.069,-2.001,0.627,0.0
34.615,-2.021,0.444,0.0
34.487,-2.009,1.4,0.0
34.067,-1.972,1.192,2.0
34.138,-1.964,1.004,79.0
34.071,-1.948,0.808,2.0
34.141,-1.94,0.619,0.0
34.712,-1.96,0.436,0.0
0.0,0.0,0.0,0.0
34.132,-1.91,1.184,2.0
34.223,-1.903,0.996,160.0
34.164,-1.888,0.8,2.0
34.287,-1.882,0.611,0.0
34.783,-1.897,0.425,0.0
0.0,0.0,0.0,0.0
109.35,-5.91,3.759,18.0
34.196,-1.835,0.983,1.0
34.241,-1.826,0.79,0.0
34.607,-1.832,0.605,1.0
36.323,-1.91,0.431,0.0
0.0,0.0,0.0,0.0
109.398,-5.699,3.72,151.0
0.0,0.0,0.0,0.0
0.0,0.0,0.0,0.0
44.32,-2.261,0.757,0.0
36.277,-1.837,0.416,0.0
0.0,0.0,0.0,0.0
109.529,-5.493,3.679,2.0
0.0,0.0,0.0,0.0
0.0,0.0,0.0,0.0
0.0,0.0,0.0,0.0
35.793,-1.744,0.395,0.0
0.0,0.0,0.0,0.0
0.0,0.0,0.0,0.0
0.0,0.0,0.0,0.0
0.0,0.0,0.0,0.0
0.0,0.0,0.0,0.0
0.0,0.0,0.0,0.0
94.193,-4.392,3.605,3.0
0.0,0.0,0.0,0.0
0.0,0.0,0.0,0.0
0.0,0.0,0.0,0.0
0.0,0.0,0.0,0.0
34.026,-1.526,0.342,0.0
92.486,-4.132,3.491,5.0
92.71,-4.108,2.977,2.0
0.0,0.0,0.0,0.0
0.0,0.0,0.0,0.0
0.0,0.0,0.0,0.0
0.0,0.0,0.0,0.0
92.207,-3.938,3.429,154.0
0.0,0.0,0.0,0.0
0.0,0.0,0.0,0.0
0.0,0.0,0.0,0.0
0.0,0.0,0.0,0.0
0.0,0.0,0.0,0.0
92.154,-3.754,3.37,155.0
0.0,0.0,0.0,0.0
58.281,-2.333,1.474,0.0
0.0,0.0,0.0,0.0
39.074,-1.537,0.544,0.0
32.523,-1.268,0.269,0.0
92.134,-3.574,3.311,104.0
0.0,0.0,0.0,0.0
0.0,0.0,0.0,0.0
0.0,0.0,0.0,0.0
37.249,-1.392,0.494,0.0
32.572,-1.206,0.248,0.0
92.132,-3.392,3.247,57.0
0.0,0.0,0.0,0.0
0.0,0.0,0.0,0.0
0.0,0.0,0.0,0.0
0.0,0.0,0.0,0.0
31.398,-1.102,0.217,0.0
92.152,-3.214,3.181,37.0
0.0,0.0,0.0,0.0
0.0,0.0,0.0,0.0
0.0,0.0,0.0,0.0
0.0,0.0,0.0,0.0
0.0,0.0,0.0,0.0
92.144,-3.036,3.111,21.0
0.0,0.0,0.0,0.0
0.0,0.0,0.0,0.0
0.0,0.0,0.0,0.0
34.735,-1.097,0.383,0.0
30.328,-0.947,0.163,0.0
92.281,-2.862,3.043,9.0
0.0,0.0,0.0,0.0
0.0,0.0,0.0,0.0
0.0,0.0,0.0,0.0
34.37,-1.019,0.351,0.0
28.644,-0.84,0.13,0.0
92.793,-2.7,2.981,1.0
0.0,0.0,0.0,0.0
0.0,0.0,0.0,0.0
0.0,0.0,0.0,0.0
0.0,0.0,0.0,0.0
28.716,-0.787,0.106,4.0
93.048,-2.53,2.909,1.0
0.0,0.0,0.0,0.0
0.0,0.0,0.0,0.0
0.0,0.0,0.0,0.0
33.038,-0.854,0.28,1.0
28.651,-0.731,0.08,6.0
93.918,-2.375,2.851,1.0
0.0,0.0,0.0,0.0
0.0,0.0,0.0,0.0
0.0,0.0,0.0,0.0
31.985,-0.767,0.242,0.0
28.535,-0.675,0.053,3.0
0.0,0.0,0.0,0.0
0.0,0.0,0.0,0.0
0.0,0.0,0.0,0.0
35.521,-0.796,0.436,0.0
31.155,-0.688,0.205,0.0
27.65,-0.602,0.025,0.0
0.0,0.0,0.0,0.0
0.0,0.0,0.0,0.0
43.102,-0.9,0.735,0.0
34.821,-0.716,0.393,0.0
28.836,-0.583,0.161,0.0
26.828,-0.534,-0.002,0.0
80.245,-1.578,2.201,0.0
0.0,0.0,0.0,0.0
0.0,0.0,0.0,0.0
33.942,-0.635,0.348,2.0
28.768,-0.529,0.131,0.0
26.305,-0.475,-0.029,0.0
0.0,0.0,0.0,0.0
0.0,0.0,0.0,0.0
0.0,0.0,0.0,0.0
33.632,-0.567,0.309,1.0
28.636,-0.474,0.1,1.0
25.608,-0.416,-0.056,0.0
63.821,-1.019,1.613,0.0
47.967,-0.751,0.939,0.0
38.342,-0.589,0.532,0.0
32.433,-0.488,0.262,0.0
28.524,-0.42,0.068,1.0
25.181,-0.363,-0.083,0.0
0.0,0.0,0.0,0.0
0.0,0.0,0.0,0.0
0.0,0.0,0.0,0.0
31.428,-0.416,0.219,0.0
27.668,-0.358,0.035,0.0
24.7,-0.312,-0.109,0.0
0.0,0.0,0.0,0.0
44.31,-0.535,0.767,0.0
35.72,-0.42,0.414,0.0
30.283,-0.347,0.175,0.0
26.864,-0.3,0.002,0.0
24.031,-0.261,-0.134,0.0
0.0,0.0,0.0,0.0
0.0,0.0,0.0,0.0
0.0,0.0,0.0,0.0
28.777,-0.278,0.132,4.0
26.198,-0.245,-0.029,0.0
23.163,-0.21,-0.158,0.0
0.0,0.0,0.0,0.0
38.62,-0.328,0.575,0.0
32.883,-0.27,0.301,1.0
28.739,-0.227,0.096,6.0
25.548,-0.195,-0.059,0.0
22.517,-0.165,-0.181,0.0
0.0,0.0,0.0,0.0
38.189,-0.258,0.521,0.0
31.89,-0.207,0.252,1.0
28.568,-0.177,0.06,2.0
24.854,-0.147,-0.089,0.0
21.868,-0.123,-0.203,2.0
0.0,0.0,0.0,0.0
0.0,0.0,0.0,0.0
31.278,-0.149,0.207,1.0
27.448,-0.123,0.022,0.0
24.069,-0.101,-0.117,0.0
21.084,-0.082,-0.224,0.0
41.91,-0.152,0.702,0.0
35.18,-0.118,0.388,0.0
28.85,-0.089,0.153,1.0
26.405,-0.073,-0.013,0.0
23.586,-0.059,-0.147,0.0
20.314,-0.045,-0.243,0.0
39.871,-0.078,0.614,0.0
33.316,-0.055,0.322,0.0
28.764,-0.04,0.113,1.0
25.817,-0.028,-0.048,0.0
22.825,-0.019,-0.173,0.0
19.647,-0.011,-0.261,0.0
0.0,0.0,0.0,0.0
33.189,-0.001,0.275,0.0
28.594,0.006,0.073,1.0
25.104,0.012,-0.081,0.0
21.802,0.017,-0.195,1.0
18.95,0.019,-0.278,0.0
36.781,0.048,0.465,0.0
31.061,0.049,0.214,0.0
27.373,0.051,0.032,0.0
24.242,0.051,-0.112,0.0
21.198,0.051,-0.22,4.0
18.351,0.049,-0.296,0.0
35.291,0.104,0.394,0.0
30.011,0.096,0.163,0.0
26.701,0.092,-0.007,0.0
23.262,0.086,-0.142,0.0
20.573,0.082,-0.243,0.0
17.831,0.075,-0.313,0.0
0.0,0.0,0.0,0.0
28.754,0.137,0.115,0.0
25.919,0.13,-0.044,0.0
22.553,0.119,-0.17,1.0
19.536,0.108,-0.26,0.0
17.257,0.1,-0.328,0.0
32.366,0.196,0.267,0.0
28.49,0.18,0.072,1.0
25.048,0.164,-0.08,0.0
22.028,0.15,-0.199,2.0
18.907,0.134,-0.28,0.0
16.884,0.124,-0.347,0.0
30.812,0.234,0.208,0.0
27.221,0.213,0.027,0.0
24.091,0.195,-0.113,0.0
21.087,0.176,-0.223,1.0
18.289,0.157,-0.298,0.0
16.546,0.146,-0.365,0.0
28.905,0.263,0.15,3.0
26.379,0.247,-0.014,0.0
23.456,0.225,-0.147,0.0
20.078,0.198,-0.243,0.0
17.69,0.178,-0.316,0.0
16.16,0.167,-0.382,0.0
28.824,0.305,0.105,5.0
25.664,0.278,-0.054,0.0
22.317,0.247,-0.175,0.0
19.235,0.217,-0.263,0.0
17.167,0.198,-0.334,0.0
15.749,0.185,-0.397,0.0
28.129,0.338,0.058,1.0
24.72,0.303,-0.091,0.0
21.755,0.271,-0.205,1.0
18.613,0.237,-0.284,0.0
16.717,0.216,-0.352,0.0
15.388,0.203,-0.412,0.0
26.906,0.361,0.012,0.0
23.931,0.327,-0.126,1.0
20.65,0.287,-0.228,0.0
18.014,0.254,-0.304,0.0
16.398,0.235,-0.371,0.0
14.939,0.217,-0.424,0.0
26.046,0.385,-0.029,0.0
23.045,0.346,-0.159,0.0
19.957,0.304,-0.252,0.0
17.401,0.269,-0.322,0.0
15.954,0.25,-0.387,0.0
14.677,0.233,-0.441,0.0
25.136,0.406,-0.07,0.0
22.064,0.361,-0.188,0.0
18.974,0.315,-0.271,0.0
16.947,0.285,-0.342,0.0
15.581,0.265,-0.404,0.0
14.283,0.246,-0.453,0.0
24.251,0.424,-0.108,0.0
21.23,0.375,-0.216,0.0
18.341,0.328,-0.293,0.0
16.594,0.3,-0.362,0.0
15.163,0.278,-0.419,0.0
13.971,0.259,-0.466,0.0
23.331,0.437,-0.143,0.0
20.121,0.381,-0.239,0.0
17.728,0.339,-0.313,0.0
16.104,0.311,-0.378,0.0
14.76,0.289,-0.432,0.0
13.675,0.27,-0.48,0.0
22.397,0.448,-0.175,0.0
19.413,0.392,-0.263,0.0
17.137,0.349,-0.331,0.0
15.695,0.323,-0.396,0.0
14.474,0.301,-0.448,0.0
13.362,0.28,-0.491,0.0
21.638,0.458,-0.206,0.0
18.538,0.396,-0.283,0.0
16.719,0.361,-0.352,0.0
15.307,0.333,-0.412,0.0
14.063,0.309,-0.46,0.0
13.179,0.292,-0.507,0.0
20.411,0.457,-0.23,0.0
17.923,0.404,-0.305,0.0
16.291,0.371,-0.371,0.0
14.871,0.341,-0.427,0.0
13.822,0.32,-0.476,0.0
12.831,0.299,-0.516,0.0
19.592,0.461,-0.255,0.0
17.28,0.409,-0.324,0.0
15.833,0.378,-0.389,0.0
14.558,0.35,-0.443,0.0
13.428,0.326,-0.486,0.0
12.565,0.307,-0.528,0.0
18.691,0.46,-0.276,0.0
16.806,0.417,-0.345,0.0
15.585,0.389,-0.41,0.0
14.151,0.356,-0.456,0.0
13.164,0.334,-0.5,0.0
12.33,0.315,-0.54,0.0
18.065,0.464,-0.299,0.0
16.419,0.425,-0.367,0.0
14.968,0.39,-0.421,0.0
13.851,0.363,-0.471,0.0
12.9,0.341,-0.513,0.0
12.123,0.322,-0.552,0.0
17.444,0.466,-0.32,0.0
15.923,0.428,-0.384,0.0
14.657,0.397,-0.438,0.0
13.497,0.368,-0.483,0.0
12.61,0.346,-0.524,0.0
11.758,0.324,-0.557,0.0
16.905,0.469,-0.34,0.0
15.524,0.433,-0.402,0.0
14.185,0.398,-0.45,0.0
13.267,0.374,-0.499,0.0
12.426,0.353,-0.539,0.0
11.574,0.331,-0.569,0.0
16.528,0.474,-0.363,0.0
15.005,0.433,-0.416,0.0
13.93,0.404,-0.467,0.0
12.931,0.377,-0.51,0.0
12.23,0.359,-0.553,0.0
11.335,0.334,-0.578,0.0
16.021,0.474,-0.381,0.0
14.688,0.437,-0.434,0.0
13.606,0.407,-0.481,0.0
12.694,0.382,-0.524,0.0
11.846,0.358,-0.557,0.0
11.107,0.337,-0.587,0.0
15.55,0.474,-0.398,0.0
14.266,0.437,-0.448,0.0
13.286,0.409,-0.494,0.0
12.454,0.385,-0.536,0.0
11.61,0.361,-0.567,0.0
10.871,0.34,-0.594,0.0
15.119,0.474,-0.415,0.0
13.943,0.439,-0.463,0.0
12.974,0.41,-0.506,0.0
12.165,0.387,-0.546,0.0
11.399,0.364,-0.578,0.0
10.681,0.343,-0.604,0.0
14.766,0.475,-0.432,0.0
13.627,0.44,-0.478,0.0
12.733,0.413,-0.52,0.0
11.917,0.388,-0.557,0.0
11.131,0.364,-0.585,0.0
10.469,0.344,-0.611,0.0
14.34,0.472,-0.446,0.0
13.348,0.441,-0.493,0.0
12.472,0.414,-0.533,0.0
11.616,0.387,-0.565,0.0
10.95,0.366,-0.596,0.0
10.321,0.347,-0.622,0.0
13.966,0.47,-0.46,0.0
13.001,0.439,-0.504,0.0
12.2,0.414,-0.544,0.0
11.37,0.387,-0.574,0.0
10.694,0.365,-0.602,0.0
10.184,0.349,-0.632,0.0
13.592,0.467,-0.473,0.0
12.747,0.439,-0.518,0.0
11.963,0.414,-0.555,0.0
11.13,0.386,-0.582,0.0
10.54,0.367,-0.613,0.0
9.969,0.349,-0.637,0.0
13.398,0.469,-0.491,0.0
12.456,0.437,-0.529,0.0
11.666,0.411,-0.563,0.0
11.005,0.389,-0.596,0.0
10.366,0.368,-0.622,0.0
9.822,0.349,-0.646,0.0
13.019,0.463,-0.501,0.0
12.264,0.438,-0.543,0.0
11.437,0.41,-0.573,0.0
10.658,0.383,-0.597,0.0
10.178,0.367,-0.629,0.0
9.622,0.348,-0.651,0.0
12.804,0.463,-0.517,0.0
11.946,0.433,-0.551,0.0
11.145,0.405,-0.579,0.0
10.52,0.384,-0.609,0.0
9.971,0.365,-0.635,0.0
9.46,0.347,-0.658,0.0
12.488,0.458,-0.527,0.0
11.744,0.432,-0.564,0.0
11.042,0.407,-0.594,0.0
10.342,0.383,-0.618,0.0
9.773,0.363,-0.641,0.0
9.322,0.347,-0.665,0.0
12.283,0.457,-0.541,0.0
11.477,0.428,-0.572,0.0
10.755,0.402,-0.599,0.0
10.195,0.382,-0.628,0.0
9.661,0.363,-0.651,0.0
0.0,0.0,0.0,0.0
11.968,0.45,-0.549,0.0
11.287,0.426,-0.584,0.0
10.6,0.401,-0.61,0.0
9.971,0.378,-0.633,0.0
9.466,0.36,-0.656,0.0
8.991,0.343,-0.675,0.0
11.733,0.446,-0.561,0.0
11.042,0.421,-0.592,0.0
10.36,0.396,-0.615,0.0
0.0,0.0,0.0,0.0
9.351,0.359,-0.665,0.0
8.824,0.34,-0.679,0.0
11.45,0.44,-0.568,0.0
10.898,0.42,-0.604,0.0
10.299,0.397,-0.631,0.0
0.0,0.0,0.0,0.0
0.0,0.0,0.0,0.0
8.735,0.339,-0.688,0.0
11.245,0.436,-0.578,0.0
10.61,0.412,-0.607,0.0
10.025,0.39,-0.632,0.0
0.0,0.0,0.0,0.0
0.0,0.0,0.0,0.0
8.605,0.337,-0.694,0.0
11.042,0.431,-0.588,0.0
10.377,0.406,-0.613,0.0
9.826,0.385,-0.637,0.0
0.0,0.0,0.0,0.0
8.832,0.347,-0.677,0.0
8.464,0.333,-0.698,0.0
10.855,0.426,-0.598,0.0
10.248,0.403,-0.624,0.0
9.646,0.38,-0.643,0.0
0.0,0.0,0.0,0.0
8.75,0.346,-0.686,0.0
8.375,0.332,-0.706,0.0
10.676,0.421,-0.607,0.0
10.09,0.399,-0.632,0.0
0.0,0.0,0.0,0.0
0.0,0.0,0.0,0.0
8.623,0.342,-0.692,0.0
8.29,0.33,-0.713,0.0
10.43,0.413,-0.612,0.0
9.833,0.39,-0.634,0.0
0.0,0.0,0.0,0.0
8.951,0.356,-0.682,0.0
0.0,0.0,0.0,0.0
8.134,0.325,-0.715,0.0
10.279,0.409,-0.621,0.0
9.716,0.387,-0.643,0.0
0.0,0.0,0.0,0.0
