X,Y,Z,Reflectivity
19.412,-0.145,-0.269,0.0
17.477,-0.126,-0.334,0.0
32.714,-0.227,0.283,1.0
28.785,-0.191,0.097,7.0
26.069,-0.166,-0.049,0.0
23.191,-0.141,-0.168,0.0
20.109,-0.116,-0.252,0.0
17.885,-0.098,-0.318,0.0
33.251,-0.174,0.331,0.0
28.863,-0.143,0.135,2.0
26.709,-0.125,-0.015,0.0
23.94,-0.105,-0.142,0.0
21.15,-0.086,-0.237,0.0
18.304,-0.069,-0.302,0.0
35.785,-0.126,0.403,0.0
31.149,-0.101,0.186,0.0
27.541,-0.081,0.019,0.0
24.509,-0.065,-0.114,0.0
21.764,-0.051,-0.217,0.0
18.741,-0.039,-0.286,0.0
37.517,-0.067,0.47,0.0
31.409,-0.046,0.227,0.0
28.576,-0.034,0.056,1.0
25.216,-0.022,-0.086,0.0
22.174,-0.013,-0.193,0.0
19.502,-0.006,-0.273,0.0
38.205,-0.001,0.526,0.0
33.144,0.008,0.28,0.0
28.742,0.016,0.091,1.0
25.906,0.022,-0.057,0.0
23.304,0.026,-0.175,1.0
20.219,0.029,-0.259,0.0
40.188,0.069,0.601,0.0
0.0,0.0,0.0,0.0
28.886,0.067,0.125,0.0
26.547,0.07,-0.028,0.0
23.555,0.069,-0.149,0.0
20.996,0.068,-0.244,2.0
41.806,0.148,0.674,0.0
0.0,0.0,0.0,0.0
30.128,0.125,0.165,0.0
27.199,0.121,0.002,0.0
24.421,0.115,-0.127,0.0
21.496,0.108,-0.226,4.0
0.0,0.0,0.0,0.0
36.934,0.209,0.441,0.0
31.548,0.188,0.209,0.0
27.993,0.175,0.033,1.0
24.945,0.164,-0.102,0.0
22.181,0.152,-0.209,2.0
0.0,0.0,0.0,0.0
37.394,0.281,0.488,0.0
32.316,0.252,0.249,0.0
28.748,0.233,0.066,5.0
25.54,0.215,-0.077,0.0
22.415,0.195,-0.187,1.0
0.0,0.0,0.0,0.0
39.329,0.368,0.554,0.0
33.074,0.32,0.29,0.0
28.834,0.287,0.096,5.0
26.098,0.268,-0.052,0.0
23.356,0.247,-0.171,0.0
0.0,0.0,0.0,0.0
0.0,0.0,0.0,0.0
34.321,0.396,0.336,0.0
28.887,0.342,0.125,4.0
26.421,0.321,-0.026,0.0
23.72,0.295,-0.15,0.0
57.59,0.739,1.237,0.0
0.0,0.0,0.0,0.0
34.952,0.47,0.377,0.0
28.965,0.398,0.154,1.0
26.869,0.378,0.0,0.0
24.311,0.349,-0.13,0.0
61.048,0.899,1.37,0.0
0.0,0.0,0.0,0.0
36.582,0.562,0.429,0.0
31.423,0.492,0.197,0.0
27.541,0.44,0.025,0.0
24.796,0.404,-0.109,0.0
54.988,0.915,1.285,1.0
0.0,0.0,0.0,0.0
37.747,0.651,0.477,0.0
32.013,0.563,0.23,0.0
28.4,0.508,0.052,0.0
25.221,0.459,-0.088,0.0
54.665,1.016,1.327,0.0
0.0,0.0,0.0,0.0
39.779,0.764,0.538,0.0
32.834,0.641,0.265,0.0
28.749,0.57,0.077,1.0
25.648,0.516,-0.068,0.0
54.267,1.114,1.364,0.0
54.713,1.14,1.081,0.0
0.0,0.0,0.0,0.0
33.559,0.719,0.298,0.0
28.844,0.627,0.101,1.0
26.149,0.577,-0.048,0.0
54.257,1.219,1.408,1.0
57.849,1.317,1.19,6.0
0.0,0.0,0.0,0.0
34.266,0.801,0.332,0.0
28.939,0.686,0.125,1.0
26.556,0.638,-0.027,0.0
54.138,1.322,1.448,1.0
57.315,1.418,1.224,4.0
0.0,0.0,0.0,0.0
35.23,0.894,0.369,1.0
29.0,0.745,0.147,1.0
26.898,0.699,-0.008,0.0
54.133,1.429,1.489,3.0
54.647,1.46,1.207,0.0
0.0,0.0,0.0,0.0
35.859,0.98,0.402,0.0
31.137,0.861,0.18,0.0
27.318,0.764,0.011,0.0
54.104,1.536,1.526,4.0
54.206,1.556,1.236,1.0
0.0,0.0,0.0,0.0
0.0,0.0,0.0,0.0
31.302,0.928,0.203,0.0
27.68,0.829,0.03,0.0
54.069,1.643,1.562,6.0
54.301,1.667,1.275,5.0
48.259,1.497,0.872,0.0
0.0,0.0,0.0,0.0
32.255,1.02,0.23,0.0
28.579,0.913,0.049,1.0
54.095,1.751,1.597,7.0
0.0,0.0,0.0,0.0
50.553,1.668,0.945,0.0
38.653,1.287,0.509,0.0
33.077,1.112,0.256,1.0
28.685,0.973,0.067,1.0
50.477,1.736,1.521,3.0
50.548,1.753,1.249,2.0
50.666,1.773,0.977,1.0
0.0,0.0,0.0,0.0
33.343,1.187,0.277,0.0
28.785,1.034,0.083,1.0
49.907,1.816,1.532,2.0
49.771,1.826,1.258,2.0
50.648,1.874,1.004,2.0
0.0,0.0,0.0,0.0
33.647,1.265,0.298,0.0
28.908,1.096,0.099,1.0
49.182,1.888,1.536,2.0
49.156,1.901,1.267,2.0
0.0,0.0,0.0,0.0
0.0,0.0,0.0,0.0
33.577,1.33,0.314,0.0
28.924,1.154,0.113,1.0
48.659,1.964,1.543,3.0
48.571,1.976,1.275,2.0
48.545,1.989,1.01,0.0
0.0,0.0,0.0,0.0
34.091,1.418,0.334,0.0
28.91,1.211,0.125,0.0
48.173,2.041,1.549,4.0
48.161,2.055,1.285,0.0
47.831,2.055,1.015,0.0
0.0,0.0,0.0,0.0
35.137,1.531,0.359,0.0
29.535,1.296,0.14,1.0
47.664,2.115,1.552,7.0
47.536,2.123,1.288,4.0
47.502,2.136,1.027,1.0
47.688,2.159,0.766,1.0
0.0,0.0,0.0,0.0
30.065,1.38,0.154,0.0
47.522,2.203,1.565,11.0
47.452,2.215,1.303,1.0
47.43,2.228,1.043,6.0
47.822,2.26,0.785,1.0
36.357,1.73,0.397,0.0
30.406,1.456,0.166,0.0
47.639,2.304,1.584,36.0
47.427,2.308,1.317,7.0
47.345,2.318,1.056,11.0
50.014,2.464,0.836,2.0
36.538,1.811,0.41,0.0
31.041,1.548,0.179,1.0
47.581,2.397,1.597,195.0
47.371,2.399,1.329,17.0
47.307,2.41,1.068,6.0
49.491,2.537,0.841,3.0
36.799,1.897,0.423,0.0
30.974,1.606,0.186,1.0
47.515,2.488,1.606,12.0
47.315,2.491,1.34,21.0
47.27,2.502,1.078,1.0
48.908,2.604,0.842,4.0
37.653,2.016,0.441,0.0
31.069,1.672,0.193,1.0
47.466,2.579,1.615,9.0
47.264,2.582,1.348,18.0
47.164,2.59,1.086,0.0
48.631,2.685,0.847,2.0
0.0,0.0,0.0,0.0
31.069,1.733,0.199,0.0
47.403,2.67,1.621,7.0
47.233,2.674,1.355,24.0
47.242,2.687,1.095,2.0
53.087,3.036,0.933,1.0
0.0,0.0,0.0,0.0
31.826,1.838,0.208,0.0
47.403,2.763,1.628,9.0
47.192,2.765,1.36,44.0
47.281,2.783,1.101,1.0
0.0,0.0,0.0,0.0
0.0,0.0,0.0,0.0
31.649,1.89,0.21,0.0
47.451,2.859,1.634,7.0
47.19,2.856,1.364,47.0
47.234,2.872,1.104,150.0
53.206,3.25,0.945,3.0
47.334,2.905,0.579,0.0
31.778,1.96,0.213,1.0
47.452,2.952,1.637,7.0
47.195,2.948,1.366,51.0
47.244,2.965,1.107,152.0
52.361,3.301,0.932,2.0
39.04,2.472,0.479,0.0
31.738,2.019,0.213,1.0
47.485,3.046,1.639,7.0
47.198,3.041,1.367,43.0
47.249,3.057,1.107,154.0
50.98,3.312,0.907,1.0
47.475,3.098,0.582,0.0
31.524,2.066,0.212,0.0
47.487,3.138,1.638,7.0
47.208,3.132,1.366,36.0
47.264,3.148,1.106,154.0
50.975,3.409,0.905,4.0
38.828,2.608,0.474,0.0
31.965,2.156,0.213,1.0
47.487,3.228,1.635,6.0
47.233,3.223,1.364,33.0
47.282,3.239,1.103,155.0
50.987,3.507,0.901,1.0
38.413,2.652,0.465,0.0
31.661,2.195,0.208,1.0
47.514,3.32,1.632,7.0
47.251,3.314,1.36,30.0
47.294,3.329,1.098,152.0
52.069,3.679,0.914,3.0
0.0,0.0,0.0,0.0
31.745,2.26,0.205,1.0
47.542,3.411,1.626,6.0
47.283,3.404,1.354,25.0
47.401,3.425,1.094,0.0
51.682,3.749,0.9,3.0
39.352,2.864,0.466,0.0
31.8,2.323,0.2,1.0
47.549,3.5,1.618,6.0
47.313,3.494,1.346,21.0
0.0,0.0,0.0,0.0
51.189,3.807,0.881,2.0
37.194,2.775,0.433,0.0
31.588,2.365,0.192,1.0
47.583,3.59,1.61,7.0
47.375,3.586,1.338,15.0
47.406,3.6,1.075,1.0
47.812,3.642,0.812,0.0
37.295,2.851,0.425,0.0
31.32,2.402,0.183,1.0
47.618,3.678,1.599,4.0
47.452,3.677,1.329,12.0
47.452,3.688,1.064,8.0
47.964,3.74,0.803,3.0
36.924,2.889,0.411,0.0
31.356,2.461,0.174,1.0
47.852,3.782,1.594,35.0
47.545,3.769,1.318,10.0
47.517,3.778,1.051,13.0
47.996,3.828,0.789,4.0
37.021,2.962,0.401,0.0
31.035,2.491,0.163,1.0
47.871,3.868,1.58,12.0
0.0,0.0,0.0,0.0
47.593,3.868,1.037,11.0
49.104,4.003,0.791,22.0
36.261,2.965,0.381,0.0
30.138,2.471,0.148,1.0
62.241,5.138,2.032,15.0
47.703,3.949,1.29,4.0
51.418,4.268,1.102,6.0
49.232,4.099,0.775,8.0
36.048,3.009,0.365,0.0
30.176,2.527,0.137,0.0
52.205,4.4,1.684,18.0
52.168,4.409,1.39,17.0
51.187,4.338,1.077,5.0
48.853,4.151,0.749,3.0
36.245,3.088,0.352,0.0
30.433,2.6,0.125,1.0
52.137,4.483,1.66,48.0
52.111,4.492,1.367,21.0
50.959,4.405,1.05,4.0
48.417,4.195,0.721,10.0
0.0,0.0,0.0,0.0
29.184,2.542,0.107,0.0
52.128,4.569,1.636,55.0
52.077,4.576,1.342,19.0
48.828,4.302,0.984,1.0
48.289,4.265,0.697,4.0
34.116,3.021,0.3,0.0
29.14,2.587,0.093,1.0
52.176,4.661,1.612,19.0
52.055,4.661,1.316,19.0
48.426,4.346,0.951,2.0
47.773,4.298,0.665,1.0
34.031,3.069,0.282,0.0
29.114,2.632,0.078,2.0
62.123,5.65,1.888,19.0
52.1,4.749,1.29,13.0
47.878,4.374,0.915,3.0
47.408,4.341,0.635,0.0
34.023,3.123,0.264,1.0
29.114,2.679,0.062,3.0
62.159,5.753,1.854,6.0
52.128,4.835,1.261,9.0
47.584,4.423,0.883,4.0
40.745,3.796,0.522,0.0
33.217,3.101,0.238,0.0
28.899,2.704,0.045,1.0
62.424,5.875,1.826,12.0
51.999,4.904,1.227,8.0
46.94,4.436,0.843,4.0
40.608,3.846,0.496,0.0
32.627,3.097,0.215,0.0
27.745,2.639,0.026,0.0
63.049,6.031,1.805,17.0
51.874,4.972,1.193,7.0
46.664,4.482,0.809,4.0
40.331,3.882,0.467,0.0
32.197,3.105,0.191,0.0
27.448,2.653,0.008,0.0
0.0,0.0,0.0,0.0
51.489,5.013,1.15,5.0
46.325,4.519,0.773,6.0
40.135,3.923,0.439,0.0
31.773,3.112,0.167,0.0
26.389,2.59,-0.009,0.0
60.598,5.978,1.655,12.0
51.454,5.085,1.114,4.0
46.024,4.557,0.736,14.0
0.0,0.0,0.0,0.0
31.555,3.136,0.144,0.0
26.14,2.603,-0.027,1.0
60.481,6.054,1.609,13.0
46.967,4.709,0.984,1.0
45.702,4.591,0.698,4.0
0.0,0.0,0.0,0.0
29.314,2.955,0.113,0.0
25.968,2.623,-0.046,1.0
0.0,0.0,0.0,0.0
46.329,4.71,0.936,4.0
45.442,4.627,0.661,4.0
0.0,0.0,0.0,0.0
29.239,2.988,0.091,1.0
25.709,2.632,-0.065,1.0
59.161,6.085,1.486,3.0
46.106,4.75,0.897,4.0
45.22,4.667,0.623,4.0
34.507,3.567,0.276,0.0
29.088,3.012,0.068,1.0
25.021,2.596,-0.082,0.0
51.706,5.389,1.258,1.0
45.579,4.757,0.85,14.0
45.087,4.713,0.585,2.0
33.568,3.515,0.242,0.0
28.685,3.008,0.044,0.0
24.464,2.57,-0.101,1.0
51.543,5.439,1.212,4.0
45.267,4.784,0.808,10.0
44.892,4.751,0.546,1.0
32.816,3.478,0.209,1.0
27.75,2.946,0.019,0.0
24.241,2.578,-0.12,1.0
51.473,5.497,1.167,5.0
44.983,4.81,0.765,5.0
42.297,4.529,0.479,0.0
31.731,3.403,0.176,0.0
26.97,2.897,-0.003,0.0
23.974,2.579,-0.139,1.0
46.296,5.0,1.01,7.0
44.785,4.843,0.723,3.0
38.617,4.182,0.404,0.0
29.388,3.187,0.137,1.0
26.278,2.854,-0.026,1.0
23.392,2.544,-0.156,0.0
46.058,5.029,0.965,13.0
44.697,4.887,0.682,3.0
38.219,4.184,0.366,0.0
29.341,3.217,0.111,4.0
26.057,2.86,-0.049,1.0
22.658,2.491,-0.171,0.0
45.75,5.048,0.917,11.0
44.592,4.926,0.64,3.0
34.847,3.854,0.302,0.0
29.336,3.249,0.084,6.0
25.633,2.843,-0.072,1.0
21.953,2.438,-0.186,0.0
45.527,5.074,0.87,10.0
44.202,4.932,0.593,2.0
0.0,0.0,0.0,0.0
29.205,3.267,0.056,2.0
24.433,2.736,-0.091,0.0
21.465,2.407,-0.202,1.0
45.242,5.091,0.822,6.0
43.458,4.895,0.542,1.0
33.103,3.733,0.225,0.0
28.2,3.184,0.027,1.0
24.084,2.722,-0.113,1.0
21.308,2.412,-0.221,0.0
44.576,5.062,0.767,3.0
41.259,4.69,0.475,0.0
32.268,3.672,0.187,1.0
27.105,3.088,0.0,0.0
23.781,2.712,-0.135,1.0
20.821,2.377,-0.237,0.0
44.407,5.087,0.72,5.0
0.0,0.0,0.0,0.0
29.449,3.38,0.141,1.0
26.323,3.024,-0.026,1.0
23.436,2.696,-0.156,0.0
20.325,2.341,-0.251,0.0
44.329,5.12,0.674,5.0
37.034,4.282,0.351,0.0
29.355,3.397,0.111,1.0
26.07,3.02,-0.052,1.0
22.579,2.618,-0.174,0.0
19.994,2.321,-0.268,0.0
44.16,5.141,0.626,3.0
35.218,4.104,0.298,0.0
29.291,3.416,0.081,1.0
25.622,2.991,-0.078,0.0
22.027,2.574,-0.192,0.0
19.646,2.298,-0.284,0.0
42.756,5.015,0.562,0.0
33.686,3.954,0.25,1.0
29.154,3.425,0.05,1.0
24.276,2.855,-0.099,1.0
21.637,2.547,-0.212,0.0
19.171,2.259,-0.297,0.0
40.688,4.805,0.492,0.0
32.69,3.864,0.209,1.0
27.979,3.31,0.018,0.0
23.906,2.83,-0.122,1.0
20.928,2.48,-0.227,0.0
18.685,2.216,-0.309,0.0
39.061,4.644,0.43,0.0
31.86,3.791,0.169,0.0
26.813,3.192,-0.011,0.0
23.487,2.799,-0.146,1.0
20.538,2.449,-0.245,0.0
18.323,2.187,-0.323,0.0
36.778,4.399,0.366,0.0
31.547,3.776,0.133,0.0
26.194,3.137,-0.038,1.0
22.951,2.751,-0.167,0.0
20.292,2.434,-0.264,0.0
17.94,2.154,-0.336,0.0
36.474,4.388,0.323,0.0
29.32,3.529,0.092,1.0
25.806,3.109,-0.066,1.0
22.148,2.67,-0.185,0.0
19.59,2.363,-0.276,0.0
17.562,2.12,-0.348,0.0
33.849,4.094,0.262,0.0
29.132,3.526,0.059,1.0
24.303,2.943,-0.089,0.0
21.538,2.61,-0.204,0.0
19.275,2.337,-0.293,0.0
17.248,2.093,-0.361,0.0
33.015,4.013,0.219,0.0
27.851,3.387,0.025,0.0
24.054,2.927,-0.115,3.0
20.968,2.553,-0.223,0.0
18.754,2.285,-0.306,0.0
16.994,2.072,-0.375,0.0
31.934,3.9,0.175,0.0
27.12,3.313,-0.005,0.0
23.665,2.893,-0.14,2.0
20.515,2.509,-0.241,0.0
18.315,2.241,-0.32,0.0
16.714,2.047,-0.388,0.0
31.392,3.85,0.137,0.0
26.218,3.217,-0.035,1.0
22.98,2.821,-0.162,0.0
20.253,2.487,-0.261,0.0
17.958,2.207,-0.334,0.0
16.372,2.013,-0.398,0.0
29.377,3.616,0.095,1.0
25.926,3.193,-0.064,1.0
22.399,2.759,-0.183,0.0
19.62,2.418,-0.275,0.0
17.584,2.168,-0.347,0.0
16.046,1.98,-0.409,0.0
28.993,3.581,0.061,1.0
24.347,3.008,-0.088,0.0
21.836,2.699,-0.204,0.0
19.214,2.376,-0.291,0.0
17.302,2.141,-0.362,0.0
15.822,1.958,-0.421,0.0
28.488,3.529,0.027,1.0
23.954,2.968,-0.114,3.0
21.095,2.615,-0.221,0.0
18.755,2.326,-0.306,0.0
16.961,2.104,-0.374,0.0
15.564,1.932,-0.432,0.0
26.941,3.346,-0.005,0.0
23.605,2.933,-0.139,2.0
20.464,2.543,-0.238,0.0
18.339,2.28,-0.32,0.0
16.746,2.083,-0.389,0.0
15.289,1.902,-0.442,0.0
26.201,3.262,-0.035,1.0
22.785,2.837,-0.161,1.0
20.22,2.518,-0.259,0.0
17.951,2.236,-0.334,0.0
16.382,2.042,-0.399,0.0
15.085,1.881,-0.454,0.0
25.899,3.23,-0.065,0.0
22.358,2.789,-0.184,0.0
19.556,2.44,-0.273,0.0
17.572,2.193,-0.348,0.0
15.977,1.995,-0.408,0.0
14.707,1.837,-0.46,0.0
24.197,3.023,-0.089,0.0
21.491,2.685,-0.202,0.0
19.226,2.402,-0.291,0.0
17.243,2.155,-0.361,0.0
15.796,1.975,-0.421,0.0
14.459,1.808,-0.469,0.0
23.85,2.983,-0.115,2.0
21.176,2.648,-0.223,0.0
18.638,2.331,-0.303,0.0
16.936,2.119,-0.374,0.0
15.532,1.944,-0.432,0.0
14.183,1.775,-0.476,0.0
23.491,2.94,-0.14,2.0
20.519,2.568,-0.24,0.0
18.272,2.287,-0.318,0.0
16.669,2.087,-0.388,0.0
15.252,1.91,-0.442,0.0
13.999,1.753,-0.486,0.0
22.679,2.839,-0.161,1.0
20.131,2.52,-0.259,0.0
17.937,2.246,-0.333,0.0
16.355,2.048,-0.399,0.0
14.991,1.877,-0.452,0.0
13.831,1.732,-0.497,0.0
22.302,2.792,-0.184,0.0
19.537,2.446,-0.273,0.0
17.57,2.2,-0.347,0.0
15.917,1.993,-0.407,0.0
14.694,1.84,-0.46,0.0
13.576,1.7,-0.503,0.0
21.578,2.701,-0.203,0.0
19.165,2.398,-0.29,0.0
17.233,2.156,-0.36,0.0
15.741,1.97,-0.42,0.0
14.472,1.811,-0.47,0.0
13.427,1.68,-0.513,0.0
20.969,2.622,-0.221,0.0
18.609,2.327,-0.303,0.0
16.92,2.116,-0.372,0.0
15.492,1.937,-0.431,0.0
14.202,1.776,-0.477,0.0
13.189,1.649,-0.519,0.0
20.559,2.568,-0.24,0.0
18.266,2.281,-0.318,0.0
16.742,2.091,-0.387,0.0
15.213,1.9,-0.441,0.0
14.028,1.752,-0.487,0.0
13.041,1.629,-0.528,0.0
20.113,2.509,-0.258,0.0
17.915,2.234,-0.332,0.0
16.339,2.037,-0.396,0.0
14.982,1.868,-0.451,0.0
13.822,1.723,-0.495,0.0
12.917,1.61,-0.537,0.0
19.533,2.432,-0.272,0.0
17.561,2.186,-0.345,0.0
15.962,1.986,-0.405,0.0
14.738,1.834,-0.46,0.0
13.621,1.695,-0.503,0.0
12.666,1.576,-0.541,0.0
19.133,2.377,-0.287,0.0
17.263,2.144,-0.358,0.0
15.765,1.957,-0.417,0.0
14.415,1.79,-0.466,0.0
13.396,1.663,-0.51,0.0
12.555,1.558,-0.55,0.0
18.665,2.313,-0.301,0.0
16.98,2.103,-0.371,0.0
15.529,1.923,-0.428,0.0
14.192,1.757,-0.474,0.0
13.247,1.64,-0.518,0.0
12.482,1.545,-0.56,0.0
18.335,2.265,-0.315,0.0
16.669,2.059,-0.382,0.0
15.316,1.891,-0.439,0.0
14.03,1.732,-0.484,0.0
13.088,1.615,-0.526,0.0
12.288,1.516,-0.565,0.0
17.942,2.209,-0.328,0.0
16.342,2.011,-0.392,0.0
14.996,1.845,-0.445,0.0
13.783,1.695,-0.49,0.0
12.901,1.586,-0.532,0.0
12.116,1.489,-0.569,0.0
17.649,2.165,-0.341,0.0
16.093,1.973,-0.403,0.0
14.748,1.808,-0.454,0.0
13.644,1.672,-0.499,0.0
12.708,1.557,-0.538,0.0
12.053,1.476,-0.579,0.0
17.295,2.113,-0.352,0.0
15.797,1.929,-0.412,0.0
14.547,1.776,-0.462,0.0
13.428,1.638,-0.505,0.0
12.587,1.535,-0.546,0.0
11.751,1.433,-0.577,0.0
17.041,2.073,-0.364,0.0
15.586,1.895,-0.422,0.0
14.332,1.741,-0.47,0.0
13.278,1.613,-0.513,0.0
12.498,1.517,-0.554,0.0
11.657,1.415,-0.584,0.0
16.801,2.034,-0.376,0.0
15.377,1.86,-0.432,0.0
14.101,1.705,-0.477,0.0
13.154,1.59,-0.521,0.0
12.329,1.489,-0.559,0.0
11.53,1.392,-0.589,0.0
16.472,1.984,-0.385,0.0
15.139,1.822,-0.44,0.0
13.888,1.67,-0.483,0.0
13.01,1.564,-0.528,0.0
12.144,1.459,-0.563,0.0
11.42,1.371,-0.594,0.0
16.098,1.928,-0.391,0.0
14.936,1.787,-0.448,0.0
13.722,1.641,-0.49,0.0
12.78,1.527,-0.531,0.0
12.081,1.443,-0.571,0.0
11.3,1.349,-0.599,0.0
15.985,1.903,-0.404,0.0
14.716,1.751,-0.456,0.0
13.553,1.611,-0.497,0.0
12.678,1.506,-0.539,0.0
11.882,1.411,-0.573,0.0
11.247,1.334,-0.607,0.0
15.782,1.867,-0.413,0.0
14.483,1.712,-0.462,0.0
13.405,1.583,-0.504,0.0
12.551,1.481,-0.545,0.0
11.735,1.384,-0.577,0.0
11.091,1.307,-0.608,0.0
15.54,1.826,-0.421,0.0
14.244,1.672,-0.467,0.0
13.27,1.557,-0.511,0.0
12.473,1.462,-0.553,0.0
11.643,1.364,-0.582,0.0
10.998,1.287,-0.613,0.0
15.4,1.797,-0.431,0.0
14.12,1.646,-0.475,0.0
13.073,1.522,-0.515,0.0
12.346,1.437,-0.558,0.0
11.553,1.343,-0.588,0.0
10.926,1.27,-0.618,0.0
15.225,1.763,-0.439,0.0
13.898,1.608,-0.48,0.0
12.987,1.501,-0.522,0.0
12.162,1.404,-0.56,0.0
11.448,1.321,-0.592,0.0
10.844,1.25,-0.623,0.0
14.999,1.723,-0.445,0.0
13.752,1.578,-0.486,0.0
12.832,1.471,-0.527,0.0
12.132,1.39,-0.568,0.0
11.383,1.303,-0.598,0.0
10.749,1.229,-0.626,0.0
98.976,-1.455,5.279,18.0
193.611,-2.853,9.324,15.0
193.361,-2.858,8.314,15.0
171.748,-2.546,6.48,18.0
96.736,-1.437,3.15,1.0
86.701,-1.291,2.376,1.0
98.726,-1.485,5.466,23.0
191.514,-2.888,9.615,6.0
192.926,-2.915,8.686,14.0
0.0,0.0,0.0,0.0
0.0,0.0,0.0,0.0
87.05,-1.323,2.563,1.0
98.637,-1.514,5.662,20.0
99.045,-1.523,5.174,4.0
194.114,-2.99,9.136,9.0
193.886,-2.99,8.102,5.0
171.664,-2.652,6.286,5.0
96.83,-1.498,3.046,5.0
98.647,-1.54,5.862,10.0
99.035,-1.548,5.372,27.0
191.324,-2.995,9.391,6.0
192.975,-3.024,8.456,15.0
171.446,-2.689,6.627,8.0
0.0,0.0,0.0,0.0
90.757,-1.438,5.579,15.0
98.679,-1.565,5.555,26.0
191.553,-3.039,9.792,13.0
0.0,0.0,0.0,0.0
168.536,-2.677,6.854,4.0
0.0,0.0,0.0,0.0
75.491,-1.21,4.791,23.0
98.624,-1.582,5.749,21.0
99.047,-1.588,5.259,9.0
191.333,-3.069,9.152,5.0
193.771,-3.108,8.264,8.0
0.0,0.0,0.0,0.0
75.594,-1.223,4.95,30.0
98.672,-1.596,5.951,8.0
98.904,-1.599,5.451,31.0
191.313,-3.093,9.535,10.0
193.251,-3.123,8.633,5.0
0.0,0.0,0.0,0.0
75.578,-1.232,5.102,33.0
90.812,-1.478,5.658,12.0
98.579,-1.604,5.631,29.0
191.442,-3.113,9.923,15.0
0.0,0.0,0.0,0.0
193.966,-3.148,8.048,6.0
75.361,-1.233,5.238,32.0
75.47,-1.234,4.853,27.0
98.61,-1.61,5.828,19.0
99.018,-1.615,5.329,14.0
191.431,-3.119,9.31,6.0
193.596,-3.149,8.413,7.0
75.903,-1.245,5.425,48.0
75.637,-1.239,5.013,29.0
90.745,-1.483,5.542,9.0
98.772,-1.612,5.51,30.0
191.377,-3.119,9.685,14.0
0.0,0.0,0.0,0.0
76.293,-1.251,5.605,31.0
75.421,-1.234,5.148,31.0
75.463,-1.232,4.758,14.0
98.613,-1.607,5.697,29.0
98.994,-1.609,5.204,3.0
0.0,0.0,0.0,0.0
76.284,-1.247,5.752,36.0
75.447,-1.231,5.296,38.0
75.536,-1.229,4.909,31.0
98.63,-1.601,5.886,14.0
98.982,-1.603,5.393,26.0
191.35,-3.091,9.434,12.0
0.0,0.0,0.0,0.0
76.111,-1.235,5.49,29.0
75.609,-1.223,5.06,31.0
90.757,-1.464,5.593,13.0
98.67,-1.586,5.567,27.0
191.391,-3.069,9.804,12.0
75.407,-1.219,5.979,23.0
76.16,-1.227,5.641,26.0
75.363,-1.21,5.188,31.0
75.452,-1.207,4.795,27.0
98.633,-1.573,5.753,18.0
99.035,-1.573,5.261,15.0
65.908,-1.055,5.351,29.0
76.29,-1.216,5.795,32.0
75.594,-1.201,5.347,37.0
75.644,-1.197,4.948,34.0
90.695,-1.429,5.46,8.0
98.859,-1.552,5.437,26.0
65.916,-1.043,5.476,26.0
75.646,-1.191,5.888,23.0
75.986,-1.192,5.518,26.0
75.58,-1.18,5.086,27.0
90.83,-1.411,5.638,26.0
98.641,-1.526,5.609,21.0
65.93,-1.028,5.602,10.0
75.367,-1.169,6.009,15.0
76.095,-1.175,5.669,31.0
75.473,-1.159,5.22,39.0
75.519,-1.154,4.829,23.0
98.633,-1.501,5.793,3.0
73.916,-1.133,6.419,8.0
65.907,-1.005,5.377,30.0
76.175,-1.155,5.816,30.0
75.746,-1.142,5.378,37.0
75.718,-1.135,4.981,20.0
90.72,-1.353,5.494,28.0
65.359,-0.982,5.797,23.0
65.95,-0.985,5.502,25.0
75.226,-1.117,5.881,22.0
76.016,-1.122,5.536,31.0
75.732,-1.111,5.118,26.0
90.639,-1.322,5.653,17.0
65.539,-0.963,5.93,30.0
65.984,-0.963,5.623,25.0
75.231,-1.092,6.016,11.0
76.244,-1.099,5.689,36.0
75.71,-1.084,5.252,30.0
90.31,-1.284,5.792,39.0
65.366,-0.936,6.032,31.0
66.008,-0.939,5.744,24.0
0.0,0.0,0.0,0.0
76.13,-1.067,5.815,33.0
75.937,-1.057,5.402,27.0
76.018,-1.051,5.01,9.0
63.598,-0.885,5.981,29.0
66.065,-0.913,5.865,17.0
65.981,-0.905,5.51,8.0
75.176,-1.023,5.874,25.0
76.168,-1.028,5.551,26.0
75.916,-1.016,5.135,8.0
58.384,-0.787,5.593,15.0
63.728,-0.852,5.769,14.0
66.116,-0.876,5.636,23.0
75.176,-0.988,6.006,28.0
76.259,-0.994,5.69,29.0
75.934,-0.981,5.267,14.0
63.207,-0.822,6.166,15.0
63.764,-0.822,5.882,31.0
66.08,-0.844,5.746,26.0
76.24,-0.965,6.22,13.0
76.257,-0.957,5.819,26.0
76.125,-0.945,5.408,28.0
63.83,-0.799,6.334,40.0
63.798,-0.79,5.992,8.0
63.602,-0.78,5.638,10.0
66.146,-0.803,5.507,22.0
75.867,-0.911,5.916,24.0
76.254,-0.906,5.545,24.0
58.88,-0.705,5.943,19.0
58.431,-0.692,5.587,26.0
63.587,-0.745,5.743,23.0
66.151,-0.766,5.617,17.0
76.512,-0.876,6.093,21.0
76.342,-0.865,5.676,17.0
58.929,-0.672,6.044,26.0
63.571,-0.716,6.183,11.0
58.562,-0.652,5.384,15.0
66.588,-0.732,5.762,19.0
73.748,-0.801,5.991,17.0
76.37,-0.819,5.801,13.0
58.919,-0.637,6.139,27.0
63.955,-0.681,6.324,9.0
58.468,-0.615,5.47,24.0
67.21,-0.698,5.924,38.0
73.857,-0.756,6.117,21.0
62.698,-0.633,4.861,13.0
64.376,-0.655,6.81,12.0
58.972,-0.591,5.923,32.0
58.575,-0.579,5.571,30.0
63.621,-0.619,5.707,25.0
73.721,-0.707,6.221,18.0
62.754,-0.593,4.963,15.0
64.529,-0.614,6.927,19.0
59.041,-0.552,6.022,31.0
63.815,-0.587,6.169,13.0
63.622,-0.576,5.804,8.0
73.768,-0.658,6.337,18.0
76.795,-0.672,6.19,21.0
59.671,-0.526,6.497,12.0
59.079,-0.512,6.116,22.0
63.766,-0.542,6.26,8.0
58.563,-0.489,5.431,27.0
73.852,-0.606,6.455,31.0
78.434,-0.632,6.439,5.0
59.715,-0.483,6.591,12.0
64.975,-0.515,6.824,12.0
58.999,-0.459,5.88,28.0
58.721,-0.447,5.533,18.0
73.93,-0.551,6.571,15.0
64.419,-0.47,5.383,17.0
0.0,0.0,0.0,0.0
38.311,0.417,0.552,0.0
32.034,0.339,0.279,0.0
28.737,0.296,0.084,3.0
25.248,0.252,-0.069,0.0
22.129,0.214,-0.186,2.0
0.0,0.0,0.0,0.0
37.268,0.338,0.495,0.0
31.206,0.273,0.237,0.0
28.097,0.238,0.051,0.0
24.61,0.2,-0.094,0.0
21.774,0.17,-0.207,2.0
43.475,0.327,0.776,0.0
36.294,0.261,0.442,0.0
30.264,0.208,0.196,0.0
27.121,0.178,0.019,0.0
23.972,0.15,-0.118,0.0
20.947,0.125,-0.222,1.0
0.0,0.0,0.0,0.0
0.0,0.0,0.0,0.0
29.184,0.147,0.159,0.0
26.422,0.124,-0.008,0.0
23.326,0.102,-0.139,0.0
20.575,0.084,-0.239,0.0
41.693,0.157,0.657,0.0
0.0,0.0,0.0,0.0
28.76,0.09,0.127,1.0
25.927,0.073,-0.034,0.0
23.191,0.058,-0.162,0.0
19.74,0.043,-0.249,0.0
38.495,0.073,0.568,0.0
0.0,0.0,0.0,0.0
28.664,0.036,0.098,1.0
25.364,0.023,-0.058,0.0
22.154,0.013,-0.177,0.0
19.333,0.005,-0.263,0.0
0.0,0.0,0.0,0.0
31.78,-0.011,0.258,0.0
28.354,-0.019,0.07,1.0
24.821,-0.025,-0.081,0.0
21.604,-0.028,-0.193,0.0
18.655,-0.03,-0.272,0.0
36.441,-0.071,0.468,0.0
31.337,-0.071,0.225,1.0
27.688,-0.072,0.042,0.0
24.292,-0.071,-0.102,0.0
21.241,-0.069,-0.209,0.0
18.416,-0.066,-0.285,0.0
35.815,-0.14,0.428,0.0
29.282,-0.124,0.184,1.0
27.065,-0.123,0.017,0.0
23.975,-0.117,-0.121,0.0
21.071,-0.11,-0.226,0.0
18.193,-0.101,-0.298,0.0
0.0,0.0,0.0,0.0
28.855,-0.179,0.157,3.0
26.515,-0.173,-0.005,0.0
23.587,-0.162,-0.14,0.0
20.266,-0.145,-0.234,0.0
17.799,-0.134,-0.306,0.0
33.001,-0.259,0.338,0.0
28.785,-0.235,0.133,5.0
26.064,-0.222,-0.026,0.0
22.929,-0.202,-0.154,0.0
20.012,-0.184,-0.247,0.0
17.528,-0.167,-0.316,0.0
32.693,-0.321,0.309,1.0
28.669,-0.291,0.109,1.0
25.669,-0.269,-0.046,0.0
22.718,-0.246,-0.171,0.0
19.335,-0.216,-0.254,0.0
17.244,-0.198,-0.324,0.0
32.356,-0.382,0.281,1.0
28.515,-0.346,0.087,1.0
25.129,-0.314,-0.063,0.0
22.252,-0.285,-0.183,0.0
19.184,-0.252,-0.266,0.0
17.053,-0.23,-0.333,0.0
31.77,-0.439,0.253,0.0
28.196,-0.399,0.066,1.0
24.978,-0.362,-0.081,0.0
22.028,-0.327,-0.197,0.0
18.789,-0.285,-0.274,0.0
16.886,-0.262,-0.341,0.0
31.257,-0.495,0.228,0.0
27.868,-0.451,0.046,0.0
24.436,-0.404,-0.096,0.0
21.706,-0.366,-0.209,0.0
18.429,-0.318,-0.281,0.0
16.728,-0.294,-0.349,0.0
30.47,-0.544,0.202,0.0
27.398,-0.499,0.028,0.0
24.16,-0.448,-0.11,0.0
20.927,-0.396,-0.215,0.0
18.305,-0.352,-0.291,0.0
16.57,-0.325,-0.356,0.0
143.314,-15.902,10.183,12.0
174.418,-19.315,11.44,14.0
159.861,-17.667,9.613,16.0
159.193,-17.56,8.687,23.0
159.467,-17.556,7.834,22.0
155.36,-17.073,6.785,4.0
143.28,-15.766,10.288,24.0
174.444,-19.156,11.571,10.0
160.084,-17.542,9.743,14.0
159.357,-17.426,8.813,18.0
159.486,-17.405,7.952,22.0
155.593,-16.947,6.909,10.0
143.21,-15.619,10.387,18.0
142.693,-15.528,9.569,13.0
160.048,-17.38,9.856,6.0
159.461,-17.28,8.931,18.0
159.439,-17.241,8.061,17.0
160.017,-17.268,7.217,6.0
142.948,-15.445,10.469,18.0
174.472,-18.809,11.82,20.0
159.814,-17.19,9.953,16.0
159.527,-17.122,9.045,16.0
159.531,-17.085,8.173,16.0
159.751,-17.073,7.313,17.0
143.053,-15.307,10.573,13.0
142.541,-15.216,9.752,23.0
159.805,-17.019,10.057,7.0
158.912,-16.885,9.114,9.0
159.373,-16.895,8.27,16.0
159.79,-16.903,7.417,20.0
143.071,-15.153,10.666,11.0
142.548,-15.061,9.844,16.0
175.17,-18.465,11.134,6.0
158.585,-16.678,9.193,7.0
158.931,-16.676,8.342,19.0
159.807,-16.73,7.512,17.0
143.054,-14.994,10.751,11.0
142.557,-14.904,9.929,15.0
175.445,-18.297,11.256,17.0
160.103,-16.657,9.375,9.0
158.998,-16.501,8.439,17.0
159.294,-16.494,7.581,18.0
142.894,-14.813,10.821,13.0
142.837,-14.768,10.029,21.0
175.73,-18.123,11.373,18.0
160.384,-16.499,9.481,18.0
158.749,-16.289,8.513,16.0
158.995,-16.276,7.652,15.0
148.279,-15.196,11.31,13.0
143.702,-14.688,10.167,18.0
176.126,-17.954,11.492,25.0
160.208,-16.29,9.554,14.0
158.882,-16.113,8.601,16.0
35.991,-3.64,1.75,1.0
147.305,-14.918,11.31,4.0
143.501,-14.493,10.225,20.0
176.448,-17.771,11.599,12.0
159.991,-16.07,9.619,14.0
158.84,-15.913,8.674,14.0
35.475,-3.544,1.742,1.0
147.057,-14.709,11.361,9.0
143.535,-14.316,10.295,19.0
143.941,-14.317,9.529,5.0
160.48,-15.919,9.721,14.0
159.044,-15.734,8.756,15.0
35.265,-3.479,1.747,0.0
146.81,-14.5,11.405,11.0
143.588,-14.14,10.359,10.0
143.751,-14.116,9.576,5.0
160.436,-15.711,9.784,13.0
160.181,-15.641,8.884,12.0
0.0,0.0,0.0,0.0
146.341,-14.264,11.427,11.0
143.809,-13.976,10.431,19.0
177.72,-17.22,11.907,15.0
149.484,-14.441,9.173,25.0
160.381,-15.448,8.957,14.0
150.294,-14.435,7.563,3.0
151.494,-14.565,11.884,3.0
143.664,-13.769,10.474,20.0
0.0,0.0,0.0,0.0
160.069,-15.251,9.877,9.0
149.756,-14.224,8.412,26.0
150.193,-14.224,7.608,16.0
146.423,-13.879,11.534,7.0
143.791,-13.586,10.528,10.0
151.452,-14.266,10.247,14.0
199.08,-18.696,12.346,9.0
149.902,-14.034,8.465,18.0
169.143,-15.785,8.617,4.0
147.454,-13.775,11.656,5.0
146.14,-13.607,10.741,5.0
209.535,-19.447,14.235,9.0
149.518,-13.834,9.311,14.0
150.413,-13.872,8.534,20.0
169.447,-15.58,8.674,12.0
145.405,-13.381,11.53,7.0
146.418,-13.429,10.796,3.0
209.318,-19.134,14.269,9.0
149.123,-13.586,9.321,21.0
186.448,-16.932,10.618,75.0
169.689,-15.362,8.721,13.0
0.0,0.0,0.0,0.0
145.934,-13.174,10.79,7.0
146.977,-13.225,10.047,12.0
150.638,-13.508,9.443,10.0
209.162,-18.694,11.951,150.0
186.533,-16.618,9.621,28.0
145.125,-12.938,11.565,13.0
144.957,-12.877,10.741,10.0
147.397,-13.048,10.099,4.0
150.241,-13.254,9.441,5.0
190.069,-16.71,10.886,32.0
185.433,-16.247,9.589,64.0
144.932,-12.706,11.568,17.0
144.756,-12.645,10.744,9.0
145.916,-12.7,10.014,18.0
148.68,-12.896,9.36,21.0
209.147,-18.08,12.0,17.0
151.976,-13.092,7.873,150.0
145.089,-12.504,11.592,13.0
147.158,-12.637,10.934,3.0
154.317,-13.204,10.602,5.0
148.914,-12.695,9.385,13.0
151.967,-12.911,8.729,12.0
151.963,-12.866,7.88,150.0
145.331,-12.31,11.62,12.0
145.398,-12.27,10.809,9.0
147.305,-12.384,10.125,8.0
149.684,-12.537,9.438,13.0
200.052,-16.694,11.495,11.0
200.252,-16.652,10.388,22.0
145.81,-12.129,11.659,17.0
145.456,-12.053,10.814,6.0
154.175,-12.724,10.598,9.0
208.515,-17.146,13.143,13.0
200.08,-16.39,11.492,11.0
200.232,-16.341,10.383,21.0
146.806,-11.984,11.733,14.0
146.645,-11.923,10.896,9.0
148.514,-12.029,10.202,4.0
208.537,-16.825,13.134,20.0
195.309,-15.699,11.206,5.0
200.215,-16.031,10.367,18.0
146.963,-11.767,11.736,7.0
146.605,-11.693,10.881,6.0
148.621,-11.807,10.195,9.0
208.48,-16.499,13.111,13.0
0.0,0.0,0.0,0.0
200.279,-15.727,10.351,74.0
145.719,-11.441,11.619,8.0
146.581,-11.463,10.861,10.0
155.248,-12.091,10.63,14.0
208.64,-16.184,13.093,22.0
0.0,0.0,0.0,0.0
0.0,0.0,0.0,0.0
147.546,-11.352,11.74,13.0
151.266,-11.589,11.184,6.0
155.138,-11.835,10.596,14.0
154.428,-11.732,9.662,3.0
190.208,-14.392,10.831,16.0
0.0,0.0,0.0,0.0
88.474,-6.665,7.022,8.0
122.32,-9.175,9.018,2.0
122.719,-9.167,8.356,3.0
154.679,-11.506,9.644,9.0
189.944,-14.07,10.774,16.0
0.0,0.0,0.0,0.0
88.496,-6.525,7.003,17.0
122.296,-8.977,8.986,5.0
122.577,-8.958,8.314,8.0
154.567,-11.247,9.596,14.0
189.824,-13.754,10.717,18.0
0.0,0.0,0.0,0.0
88.518,-6.382,6.979,25.0
121.875,-8.747,8.919,10.0
122.098,-8.725,8.246,16.0
154.808,-11.015,9.564,12.0
189.328,-13.411,10.629,17.0
0.0,0.0,0.0,0.0
88.605,-6.245,6.957,22.0
121.735,-8.541,8.869,6.0
122.011,-8.522,8.198,14.0
91.888,-6.39,5.645,15.0
121.185,-8.389,6.761,3.0
0.0,0.0,0.0,0.0
88.653,-6.105,6.928,9.0
119.616,-8.199,8.67,9.0
121.75,-8.306,8.135,17.0
91.934,-6.242,5.613,12.0
156.789,-10.597,8.686,19.0
0.0,0.0,0.0,0.0
88.5,-5.947,6.88,22.0
122.035,-8.162,8.793,9.0
121.767,-8.105,8.083,12.0
120.429,-7.977,7.3,8.0
157.02,-10.354,8.63,22.0
0.0,0.0,0.0,0.0
88.372,-5.792,6.829,19.0
119.655,-7.804,8.566,10.0
121.526,-7.888,8.011,10.0
92.555,-5.979,5.566,14.0
189.021,-12.152,10.297,8.0
35.039,-2.242,1.71,0.0
88.278,-5.642,6.778,25.0
119.879,-7.622,8.522,11.0
122.039,-7.722,7.983,7.0
92.523,-5.826,5.517,6.0
188.381,-11.803,10.165,11.0
189.484,-11.813,9.153,6.0
88.813,-5.529,6.771,18.0
91.789,-5.685,6.475,8.0
89.58,-5.519,5.809,7.0
120.807,-7.406,7.137,8.0
122.731,-7.487,6.554,6.0
188.24,-11.428,8.986,5.0
88.868,-5.385,6.724,23.0
111.645,-6.731,7.811,10.0
91.785,-5.505,5.899,20.0
120.584,-7.196,7.052,9.0
122.862,-7.294,6.487,10.0
188.485,-11.132,8.883,5.0
89.273,-5.263,6.699,9.0
92.028,-5.396,6.38,3.0
92.231,-5.379,5.868,19.0
122.616,-7.112,7.092,3.0
189.55,-10.939,9.886,6.0
0.0,0.0,0.0,0.0
90.513,-5.185,6.732,13.0
87.902,-5.009,6.036,17.0
92.698,-5.253,5.836,23.0
122.642,-6.911,7.009,13.0
189.103,-10.599,9.733,11.0
0.0,0.0,0.0,0.0
98.223,-5.462,7.235,8.0
88.018,-4.868,5.98,14.0
92.563,-5.091,5.761,5.0
119.432,-6.532,6.739,23.0
189.174,-10.291,9.597,22.0
188.502,-10.197,8.489,4.0
88.588,-4.78,6.459,17.0
92.537,-4.963,6.217,19.0
92.499,-4.932,5.685,6.0
119.146,-6.317,6.631,11.0
119.219,-6.286,5.956,7.0
0.0,0.0,0.0,0.0
88.399,-4.621,6.374,14.0
92.765,-4.82,6.157,13.0
112.115,-5.792,6.8,12.0
164.293,-8.439,9.011,6.0
195.023,-9.961,9.583,5.0
0.0,0.0,0.0,0.0
89.097,-4.51,6.35,24.0
91.72,-4.615,6.011,14.0
112.215,-5.612,6.712,15.0
112.53,-5.595,6.077,21.0
194.468,-9.613,9.39,9.0
0.0,0.0,0.0,0.0
89.081,-4.363,6.272,27.0
91.207,-4.44,5.898,16.0
91.04,-4.405,5.365,19.0
112.205,-5.395,5.96,12.0
194.52,-9.298,9.22,15.0
0.0,0.0,0.0,0.0
89.429,-4.235,6.215,25.0
90.91,-4.278,5.796,20.0
97.908,-4.579,5.681,14.0
111.738,-5.192,5.832,19.0
164.317,-7.589,7.636,24.0
93.38,-4.286,3.805,1.0
91.084,-4.165,6.243,12.0
94.783,-4.306,5.952,13.0
89.872,-4.057,5.128,12.0
194.593,-8.729,9.969,8.0
194.389,-8.663,8.845,5.0
92.561,-4.099,3.682,4.0
95.011,-4.191,6.418,12.0
97.413,-4.267,6.02,14.0
90.019,-3.918,5.046,30.0
120.202,-5.196,6.035,24.0
120.26,-5.165,5.35,14.0
92.286,-3.937,3.577,11.0
88.14,-3.744,5.862,23.0
89.727,-3.786,5.451,20.0
113.591,-4.76,6.249,10.0
113.459,-4.721,5.578,12.0
93.505,-3.864,4.06,1.0
92.166,-3.784,3.475,34.0
88.246,-3.607,5.774,19.0
89.956,-3.651,5.368,7.0
113.617,-4.579,6.128,11.0
194.881,-7.799,9.37,17.0
0.0,0.0,0.0,0.0
92.155,-3.637,3.373,53.0
98.868,-3.882,6.359,11.0
98.559,-3.842,5.771,19.0
113.327,-4.386,5.984,22.0
113.394,-4.357,5.323,25.0
92.183,-3.516,3.797,12.0
92.124,-3.489,3.266,51.0
98.751,-3.72,6.237,21.0
98.965,-3.701,5.68,17.0
113.361,-4.208,5.854,26.0
113.463,-4.181,5.195,15.0
92.189,-3.372,3.69,42.0
92.111,-3.344,3.157,40.0
97.824,-3.532,6.062,17.0
99.073,-3.55,5.568,19.0
190.211,-6.764,9.596,20.0
0.0,0.0,0.0,0.0
92.237,-3.23,3.581,151.0
92.175,-3.204,3.05,14.0
0.0,0.0,0.0,0.0
190.455,-6.53,10.471,13.0
190.725,-6.487,9.385,17.0
93.475,-3.154,4.052,1.0
92.253,-3.089,3.468,164.0
92.877,-3.085,2.956,7.0
99.002,-3.268,5.89,23.0
189.893,-6.217,10.199,15.0
190.19,-6.177,9.118,20.0
0.0,0.0,0.0,0.0
92.237,-2.947,3.348,53.0
96.002,-3.043,2.933,1.0
98.984,-3.115,5.759,19.0
97.111,-3.031,5.089,16.0
189.929,-5.879,8.857,19.0
92.281,-2.833,3.761,12.0
92.225,-2.807,3.227,44.0
0.0,0.0,0.0,0.0
88.1,-2.641,5.009,22.0
189.381,-5.627,9.671,19.0
120.399,-3.546,5.453,19.0
92.413,-2.698,3.642,14.0
92.308,-2.671,3.105,150.0
0.0,0.0,0.0,0.0
96.891,-2.758,5.374,8.0
189.613,-5.349,9.421,21.0
120.507,-3.368,5.29,15.0
92.465,-2.561,3.515,11.0
92.563,-2.541,2.984,3.0
0.0,0.0,0.0,0.0
171.368,-4.625,9.263,31.0
189.56,-5.067,9.148,19.0
123.045,-3.259,5.228,35.0
92.477,-2.426,3.385,41.0
96.744,-2.514,2.982,1.0
0.0,0.0,0.0,0.0
96.909,-2.473,5.099,13.0
171.711,-4.34,8.039,35.0
171.622,-4.297,7.042,17.0
128.259,-3.179,4.507,10.0
0.0,0.0,0.0,0.0
0.0,0.0,0.0,0.0
96.781,-2.331,4.948,39.0
96.959,-2.311,4.395,11.0
128.371,-3.03,5.077,34.0
97.055,-2.268,3.267,1.0
0.0,0.0,0.0,0.0
0.0,0.0,0.0,0.0
96.822,-2.196,4.805,38.0
96.891,-2.174,4.247,43.0
128.46,-2.852,4.887,13.0
96.758,-2.126,3.111,6.0
0.0,0.0,0.0,0.0
0.0,0.0,0.0,0.0
190.04,-4.047,9.141,17.0
96.89,-2.04,4.098,43.0
96.954,-2.02,3.54,40.0
90.55,-1.865,2.772,1.0
0.0,0.0,0.0,0.0
0.0,0.0,0.0,0.0
189.979,-3.786,8.841,22.0
96.97,-1.91,3.949,13.0
96.949,-1.887,3.386,41.0
89.255,-1.717,2.591,2.0
0.0,0.0,0.0,0.0
0.0,0.0,0.0,0.0
193.16,-3.591,8.681,4.0
0.0,0.0,0.0,0.0
96.919,-1.758,3.23,20.0
0.0,0.0,0.0,0.0
0.0,0.0,0.0,0.0
0.0,0.0,0.0,0.0
193.748,-3.345,8.392,17.0
0.0,0.0,0.0,0.0
96.827,-1.629,3.069,6.0
0.0,0.0,0.0,0.0
47.68,-0.781,0.953,0.0
38.927,-0.63,0.553,0.0
168.48,-2.689,7.016,4.0
171.358,-2.698,6.139,6.0
0.0,0.0,0.0,0.0
0.0,0.0,0.0,0.0
0.0,0.0,0.0,0.0
36.249,-0.54,0.453,0.0
171.769,-2.525,6.864,6.0
0.0,0.0,0.0,0.0
86.105,-1.23,2.441,1.0
0.0,0.0,0.0,0.0
0.0,0.0,0.0,0.0
34.09,-0.466,0.369,0.0
171.562,-2.309,6.563,5.0
90.734,-1.202,2.943,5.0
0.0,0.0,0.0,0.0
0.0,0.0,0.0,0.0
0.0,0.0,0.0,0.0
32.938,-0.41,0.3,1.0
90.662,-1.11,3.31,40.0
90.057,-1.085,2.764,5.0
0.0,0.0,0.0,0.0
0.0,0.0,0.0,0.0
0.0,0.0,0.0,0.0
31.892,-0.359,0.234,1.0
90.605,-1.002,3.148,36.0
83.755,-0.91,2.423,2.0
0.0,0.0,0.0,0.0
0.0,0.0,0.0,0.0
0.0,0.0,0.0,0.0
28.878,-0.292,0.161,0.0
90.548,-0.896,2.984,28.0
0.0,0.0,0.0,0.0
0.0,0.0,0.0,0.0
40.499,-0.378,0.624,0.0
33.099,-0.303,0.318,1.0
28.762,-0.258,0.109,5.0
90.365,-0.793,2.815,5.0
0.0,0.0,0.0,0.0
47.046,-0.396,0.918,0.0
0.0,0.0,0.0,0.0
31.842,-0.256,0.248,2.0
28.531,-0.224,0.056,2.0
82.48,-0.634,2.419,5.0
0.0,0.0,0.0,0.0
0.0,0.0,0.0,0.0
0.0,0.0,0.0,0.0
30.938,-0.216,0.184,0.0
26.94,-0.183,0.003,0.0
81.172,-0.538,2.23,1.0
0.0,0.0,0.0,0.0
41.163,-0.258,0.651,0.0
33.076,-0.201,0.327,0.0
28.8,-0.171,0.117,6.0
25.795,-0.148,-0.044,0.0
0.0,0.0,0.0,0.0
0.0,0.0,0.0,0.0
37.879,-0.198,0.527,0.0
31.923,-0.162,0.255,1.0
28.586,-0.14,0.062,2.0
24.815,-0.118,-0.089,0.0
0.0,0.0,0.0,0.0
0.0,0.0,0.0,0.0
36.025,-0.153,0.433,0.0
29.916,-0.122,0.183,1.0
27.115,-0.106,0.008,0.0
23.856,-0.09,-0.131,0.0
0.0,0.0,0.0,0.0
39.429,-0.136,0.628,0.0
33.297,-0.109,0.336,0.0
28.815,-0.09,0.12,6.0
25.859,-0.077,-0.042,0.0
23.1,-0.065,-0.172,0.0
0.0,0.0,0.0,0.0
38.251,-0.096,0.536,0.0
31.68,-0.075,0.259,0.0
28.539,-0.063,0.064,2.0
24.81,-0.051,-0.088,0.0
21.438,-0.041,-0.201,1.0
0.0,0.0,0.0,0.0
0.0,0.0,0.0,0.0
30.378,-0.045,0.189,0.0
26.903,-0.036,0.008,0.0
23.781,-0.028,-0.13,1.0
20.869,-0.022,-0.236,0.0
40.563,-0.037,0.647,0.0
33.197,-0.025,0.335,0.0
28.741,-0.018,0.123,0.0
25.783,-0.012,-0.042,0.0
22.963,-0.008,-0.171,0.0
19.494,-0.004,-0.259,0.0
37.951,-0.003,0.53,0.0
0.0,0.0,0.0,0.0
28.329,0.005,0.065,1.0
24.795,0.008,-0.089,0.0
21.457,0.009,-0.202,3.0
18.476,0.011,-0.282,0.0
36.193,0.026,0.433,0.0
30.418,0.026,0.186,0.0
26.823,0.026,0.008,0.0
23.658,0.026,-0.133,1.0
20.753,0.025,-0.238,0.0
17.822,0.024,-0.308,0.0
33.17,0.049,0.33,0.0
28.744,0.046,0.118,1.0
25.875,0.045,-0.044,0.0
22.774,0.042,-0.173,0.0
19.272,0.038,-0.259,0.0
17.146,0.036,-0.331,0.0
31.57,0.07,0.25,0.0
28.386,0.066,0.059,1.0
24.57,0.06,-0.091,0.0
21.396,0.055,-0.206,4.0
18.431,0.049,-0.285,0.0
16.59,0.046,-0.354,0.0
29.943,0.087,0.177,0.0
26.758,0.08,0.002,0.0
23.369,0.073,-0.134,1.0
20.382,0.066,-0.238,0.0
17.785,0.059,-0.311,0.0
16.179,0.056,-0.378,0.0
28.698,0.102,0.111,1.0
25.54,0.093,-0.05,0.0
22.436,0.085,-0.175,1.0
19.118,0.074,-0.262,0.0
17.091,0.068,-0.334,0.0
15.712,0.064,-0.399,0.0
27.673,0.116,0.05,0.0
24.425,0.104,-0.098,0.0
21.246,0.093,-0.209,3.0
18.343,0.082,-0.289,0.0
16.581,0.076,-0.358,0.0
15.044,0.07,-0.413,0.0
26.455,0.126,-0.007,0.0
23.227,0.113,-0.141,0.0
20.139,0.1,-0.24,0.0
17.595,0.089,-0.314,0.0
16.117,0.083,-0.382,0.0
14.607,0.077,-0.431,0.0
25.408,0.135,-0.059,0.0
22.222,0.12,-0.181,2.0
19.122,0.105,-0.267,0.0
16.925,0.094,-0.337,0.0
15.608,0.089,-0.402,0.0
14.199,0.082,-0.449,0.0
24.127,0.14,-0.106,0.0
21.047,0.124,-0.215,1.0
18.188,0.109,-0.292,0.0
16.46,0.1,-0.362,0.0
14.994,0.092,-0.417,0.0
13.829,0.086,-0.466,0.0
23.063,0.145,-0.149,0.0
19.789,0.126,-0.243,0.0
17.411,0.112,-0.316,0.0
15.946,0.104,-0.384,0.0
14.532,0.096,-0.435,0.0
13.47,0.09,-0.482,0.0
22.062,0.148,-0.189,2.0
18.906,0.129,-0.272,0.0
16.83,0.116,-0.34,0.0
15.469,0.108,-0.405,0.0
14.11,0.099,-0.452,0.0
13.111,0.093,-0.497,0.0
20.83,0.148,-0.222,0.0
17.952,0.129,-0.296,0.0
16.371,0.119,-0.365,0.0
14.915,0.109,-0.421,0.0
13.722,0.102,-0.468,0.0
12.771,0.095,-0.51,0.0
19.369,0.145,-0.246,0.0
17.353,0.131,-0.322,0.0
15.827,0.12,-0.386,0.0
14.401,0.111,-0.437,0.0
13.384,0.104,-0.484,0.0
12.494,0.097,-0.525,0.0
18.647,0.146,-0.276,0.0
16.762,0.132,-0.346,0.0
15.351,0.122,-0.407,0.0
14.07,0.112,-0.456,0.0
13.034,0.105,-0.499,0.0
12.285,0.1,-0.542,0.0
17.807,0.144,-0.301,0.0
16.267,0.132,-0.37,0.0
14.76,0.121,-0.422,0.0
13.706,0.113,-0.473,0.0
12.732,0.106,-0.514,0.0
11.93,0.1,-0.551,0.0
17.153,0.143,-0.325,0.0
15.735,0.132,-0.39,0.0
14.29,0.12,-0.438,0.0
13.363,0.113,-0.489,0.0
12.453,0.106,-0.529,0.0
11.65,0.1,-0.563,0.0
16.63,0.142,-0.35,0.0
15.176,0.13,-0.408,0.0
13.985,0.12,-0.457,0.0
12.984,0.112,-0.502,0.0
12.18,0.106,-0.542,0.0
11.36,0.099,-0.572,0.0
16.127,0.14,-0.373,0.0
14.69,0.128,-0.425,0.0
13.597,0.119,-0.473,0.0
12.681,0.112,-0.517,0.0
11.886,0.105,-0.554,0.0
11.13,0.099,-0.584,0.0
15.633,0.138,-0.394,0.0
14.285,0.127,-0.443,0.0
13.213,0.117,-0.487,0.0
12.381,0.111,-0.53,0.0
11.617,0.104,-0.565,0.0
10.901,0.098,-0.594,0.0
15.117,0.135,-0.412,0.0
13.901,0.124,-0.46,0.0
12.945,0.116,-0.504,0.0
12.1,0.109,-0.543,0.0
11.326,0.102,-0.575,0.0
10.655,0.096,-0.603,0.0
14.618,0.131,-0.428,0.0
13.558,0.122,-0.476,0.0
12.649,0.114,-0.518,0.0
11.819,0.107,-0.554,0.0
11.133,0.101,-0.587,0.0
10.454,0.095,-0.613,0.0
14.139,0.127,-0.443,0.0
13.147,0.118,-0.489,0.0
12.386,0.112,-0.533,0.0
11.581,0.105,-0.567,0.0
10.857,0.098,-0.595,0.0
10.247,0.093,-0.622,0.0
13.847,0.124,-0.462,0.0
12.893,0.116,-0.505,0.0
12.021,0.108,-0.541,0.0
11.227,0.101,-0.572,0.0
10.622,0.096,-0.604,0.0
10.038,0.091,-0.63,0.0
13.462,0.12,-0.476,0.0
12.554,0.112,-0.517,0.0
11.806,0.105,-0.556,0.0
11.009,0.098,-0.584,0.0
10.451,0.093,-0.615,0.0
9.836,0.088,-0.637,0.0
13.094,0.115,-0.49,0.0
12.327,0.109,-0.533,0.0
11.523,0.102,-0.566,0.0
10.767,0.095,-0.593,0.0
10.217,0.09,-0.622,0.0
9.65,0.085,-0.644,0.0
12.771,0.111,-0.503,0.0
11.99,0.104,-0.543,0.0
11.208,0.097,-0.573,0.0
10.559,0.091,-0.602,0.0
0.0,0.0,0.0,0.0
0.0,0.0,0.0,0.0
12.526,0.107,-0.518,0.0
11.741,0.1,-0.555,0.0
10.967,0.093,-0.582,0.0
10.317,0.087,-0.609,0.0
0.0,0.0,0.0,0.0
0.0,0.0,0.0,0.0
12.288,0.102,-0.533,0.0
11.498,0.095,-0.566,0.0
10.796,0.089,-0.594,0.0
0.0,0.0,0.0,0.0
9.61,0.079,-0.643,0.0
9.14,0.075,-0.665,0.0
11.981,0.096,-0.543,0.0
11.25,0.09,-0.576,0.0
10.569,0.085,-0.603,0.0
0.0,0.0,0.0,0.0
0.0,0.0,0.0,0.0
8.998,0.071,-0.672,0.0
11.726,0.091,-0.554,0.0
11.059,0.086,-0.587,0.0
10.379,0.08,-0.612,0.0
0.0,0.0,0.0,0.0
0.0,0.0,0.0,0.0
8.844,0.068,-0.678,0.0
11.486,0.086,-0.565,0.0
10.826,0.08,-0.596,0.0
10.245,0.076,-0.624,0.0
0.0,0.0,0.0,0.0
9.133,0.067,-0.664,0.0
8.685,0.063,-0.683,0.0
11.221,0.08,-0.574,0.0
10.625,0.075,-0.605,0.0
0.0,0.0,0.0,0.0
0.0,0.0,0.0,0.0
8.976,0.062,-0.67,0.0
8.505,0.059,-0.684,0.0
11.007,0.074,-0.583,0.0
10.386,0.069,-0.611,0.0
0.0,0.0,0.0,0.0
0.0,0.0,0.0,0.0
8.836,0.058,-0.676,0.0
8.438,0.055,-0.695,0.0
10.805,0.068,-0.593,0.0
10.212,0.064,-0.62,0.0
9.718,0.06,-0.646,0.0
0.0,0.0,0.0,0.0
8.677,0.053,-0.68,0.0
8.32,0.05,-0.7,0.0
10.576,0.062,-0.599,0.0
10.026,0.058,-0.627,0.0
0.0,0.0,0.0,0.0
0.0,0.0,0.0,0.0
8.663,0.049,-0.694,0.0
8.191,0.046,-0.705,0.0
10.433,0.056,-0.61,0.0
0.0,0.0,0.0,0.0
0.0,0.0,0.0,0.0
0.0,0.0,0.0,0.0
8.401,0.043,-0.689,0.0
8.099,0.041,-0.711,0.0
10.228,0.049,-0.617,0.0
9.66,0.046,-0.639,0.0
0.0,0.0,0.0,0.0
0.0,0.0,0.0,0.0
8.325,0.038,-0.697,0.0
8.032,0.036,-0.72,0.0
10.005,0.043,-0.621,0.0
0.0,0.0,0.0,0.0
0.0,0.0,0.0,0.0
0.0,0.0,0.0,0.0
0.0,0.0,0.0,0.0
7.899,0.031,-0.722,0.0
0.0,0.0,0.0,0.0
0.0,0.0,0.0,0.0
0.0,0.0,0.0,0.0
0.0,0.0,0.0,0.0
8.129,0.028,-0.709,0.0
7.761,0.026,-0.723,0.0
9.751,0.03,-0.639,0.0
0.0,0.0,0.0,0.0
0.0,0.0,0.0,0.0
0.0,0.0,0.0,0.0
8.017,0.022,-0.713,0.0
7.7,0.021,-0.73,0.0
0.0,0.0,0.0,0.0
9.151,0.022,-0.668,0.0
0.0,0.0,0.0,0.0
0.0,0.0,0.0,0.0
0.0,0.0,0.0,0.0
0.0,0.0,0.0,0.0
9.391,0.017,-0.647,0.0
0.0,0.0,0.0,0.0
8.519,0.013,-0.686,0.0
0.0,0.0,0.0,0.0
0.0,0.0,0.0,0.0
7.516,0.01,-0.738,0.0
9.286,0.01,-0.654,0.0
0.0,0.0,0.0,0.0
0.0,0.0,0.0,0.0
0.0,0.0,0.0,0.0
7.713,0.005,-0.724,0.0
7.392,0.004,-0.738,0.0
0.0,0.0,0.0,0.0
0.0,0.0,0.0,0.0
0.0,0.0,0.0,0.0
0.0,0.0,0.0,0.0
7.666,0.0,-0.732,0.0
7.355,0.0,-0.746,0.0
8.984,-0.003,-0.662,0.0
0.0,0.0,0.0,0.0
0.0,0.0,0.0,0.0
0.0,0.0,0.0,0.0
0.0,0.0,0.0,0.0
7.236,-0.006,-0.745,0.0
8.883,-0.01,-0.668,0.0
0.0,0.0,0.0,0.0
8.098,-0.011,-0.703,0.0
0.0,0.0,0.0,0.0
0.0,0.0,0.0,0.0
7.181,-0.012,-0.75,0.0
0.0,0.0,0.0,0.0
0.0,0.0,0.0,0.0
8.033,-0.017,-0.71,0.0
0.0,0.0,0.0,0.0
7.374,-0.018,-0.738,0.0
7.097,-0.018,-0.752,0.0
8.648,-0.024,-0.676,0.0
0.0,0.0,0.0,0.0
7.962,-0.024,-0.715,0.0
0.0,0.0,0.0,0.0
7.315,-0.024,-0.743,0.0
7.023,-0.024,-0.755,0.0
8.588,-0.031,-0.684,0.0
8.201,-0.031,-0.701,0.0
0.0,0.0,0.0,0.0
0.0,0.0,0.0,0.0
7.286,-0.03,-0.751,0.0
6.926,-0.03,-0.754,0.0
8.433,-0.038,-0.683,0.0
8.061,-0.038,-0.7,0.0
0.0,0.0,0.0,0.0
0.0,0.0,0.0,0.0
7.174,-0.036,-0.749,0.0
6.884,-0.036,-0.759,0.0
8.414,-0.046,-0.693,0.0
8.11,-0.045,-0.715,0.0
7.752,-0.044,-0.729,0.0
7.341,-0.043,-0.734,0.0
7.06,-0.042,-0.747,0.0
6.804,-0.042,-0.759,0.0
8.322,-0.053,-0.697,0.0
7.996,-0.052,-0.716,0.0
0.0,0.0,0.0,0.0
7.294,-0.05,-0.739,0.0
7.033,-0.049,-0.753,0.0
6.816,-0.048,-0.77,0.0
8.242,-0.061,-0.701,0.0
0.0,0.0,0.0,0.0
0.0,0.0,0.0,0.0
7.223,-0.056,-0.741,0.0
6.984,-0.055,-0.757,0.0
0.0,0.0,0.0,0.0
8.156,-0.068,-0.704,0.0
0.0,0.0,0.0,0.0
0.0,0.0,0.0,0.0
7.175,-0.063,-0.745,0.0
0.0,0.0,0.0,0.0
0.0,0.0,0.0,0.0
8.06,-0.075,-0.705,0.0
0.0,0.0,0.0,0.0
7.398,-0.071,-0.733,0.0
0.0,0.0,0.0,0.0
0.0,0.0,0.0,0.0
0.0,0.0,0.0,0.0
8.008,-0.083,-0.71,0.0
0.0,0.0,0.0,0.0
7.337,-0.078,-0.736,0.0
0.0,0.0,0.0,0.0
0.0,0.0,0.0,0.0
0.0,0.0,0.0,0.0
8.008,-0.091,-0.719,0.0
0.0,0.0,0.0,0.0
7.299,-0.086,-0.74,0.0
0.0,0.0,0.0,0.0
0.0,0.0,0.0,0.0
0.0,0.0,0.0,0.0
0.0,0.0,0.0,0.0
7.592,-0.096,-0.734,0.0
7.245,-0.093,-0.743,0.0
0.0,0.0,0.0,0.0
0.0,0.0,0.0,0.0
0.0,0.0,0.0,0.0
0.0,0.0,0.0,0.0
0.0,0.0,0.0,0.0
7.183,-0.1,-0.744,0.0
0.0,0.0,0.0,0.0
0.0,0.0,0.0,0.0
0.0,0.0,0.0,0.0
0.0,0.0,0.0,0.0
0.0,0.0,0.0,0.0
7.145,-0.107,-0.747,0.0
0.0,0.0,0.0,0.0
0.0,0.0,0.0,0.0
0.0,0.0,0.0,0.0
0.0,0.0,0.0,0.0
7.373,-0.118,-0.736,0.0
7.085,-0.114,-0.748,0.0
0.0,0.0,0.0,0.0
0.0,0.0,0.0,0.0
0.0,0.0,0.0,0.0
0.0,0.0,0.0,0.0
7.296,-0.125,-0.735,0.0
7.011,-0.121,-0.746,0.0
0.0,0.0,0.0,0.0
0.0,0.0,0.0,0.0
0.0,0.0,0.0,0.0
0.0,0.0,0.0,0.0
7.28,-0.133,-0.739,0.0
0.0,0.0,0.0,0.0
0.0,0.0,0.0,0.0
0.0,0.0,0.0,0.0
0.0,0.0,0.0,0.0
0.0,0.0,0.0,0.0
7.259,-0.141,-0.744,0.0
0.0,0.0,0.0,0.0
0.0,0.0,0.0,0.0
0.0,0.0,0.0,0.0
0.0,0.0,0.0,0.0
0.0,0.0,0.0,0.0
7.176,-0.147,-0.741,0.0
0.0,0.0,0.0,0.0
0.0,0.0,0.0,0.0
0.0,0.0,0.0,0.0
0.0,0.0,0.0,0.0
0.0,0.0,0.0,0.0
7.163,-0.156,-0.745,0.0
0.0,0.0,0.0,0.0
0.0,0.0,0.0,0.0
0.0,0.0,0.0,0.0
0.0,0.0,0.0,0.0
0.0,0.0,0.0,0.0
7.116,-0.163,-0.745,0.0
0.0,0.0,0.0,0.0
0.0,0.0,0.0,0.0
0.0,0.0,0.0,0.0
0.0,0.0,0.0,0.0
7.37,-0.176,-0.734,0.0
7.086,-0.171,-0.747,0.0
0.0,0.0,0.0,0.0
0.0,0.0,0.0,0.0
0.0,0.0,0.0,0.0
0.0,0.0,0.0,0.0
7.32,-0.184,-0.734,0.0
7.055,-0.178,-0.748,0.0
0.0,0.0,0.0,0.0
0.0,0.0,0.0,0.0
0.0,0.0,0.0,0.0
0.0,0.0,0.0,0.0
7.296,-0.192,-0.736,0.0
7.074,-0.187,-0.754,0.0
0.0,0.0,0.0,0.0
0.0,0.0,0.0,0.0
0.0,0.0,0.0,0.0
0.0,0.0,0.0,0.0
7.271,-0.2,-0.737,0.0
7.035,-0.195,-0.754,0.0
0.0,0.0,0.0,0.0
0.0,0.0,0.0,0.0
0.0,0.0,0.0,0.0
0.0,0.0,0.0,0.0
7.238,-0.208,-0.738,0.0
0.0,0.0,0.0,0.0
0.0,0.0,0.0,0.0
0.0,0.0,0.0,0.0
0.0,0.0,0.0,0.0
0.0,0.0,0.0,0.0
7.236,-0.216,-0.741,0.0
0.0,0.0,0.0,0.0
0.0,0.0,0.0,0.0
0.0,0.0,0.0,0.0
0.0,0.0,0.0,0.0
0.0,0.0,0.0,0.0
7.208,-0.224,-0.741,0.0
0.0,0.0,0.0,0.0
0.0,0.0,0.0,0.0
0.0,0.0,0.0,0.0
0.0,0.0,0.0,0.0
0.0,0.0,0.0,0.0
7.228,-0.234,-0.745,0.0
0.0,0.0,0.0,0.0
0.0,0.0,0.0,0.0
0.0,0.0,0.0,0.0
0.0,0.0,0.0,0.0
0.0,0.0,0.0,0.0
7.205,-0.242,-0.745,0.0
0.0,0.0,0.0,0.0
0.0,0.0,0.0,0.0
0.0,0.0,0.0,0.0
0.0,0.0,0.0,0.0
0.0,0.0,0.0,0.0
7.135,-0.248,-0.74,0.0
0.0,0.0,0.0,0.0
0.0,0.0,0.0,0.0
0.0,0.0,0.0,0.0
0.0,0.0,0.0,0.0
0.0,0.0,0.0,0.0
7.195,-0.259,-0.748,0.0
0.0,0.0,0.0,0.0
0.0,0.0,0.0,0.0
0.0,0.0,0.0,0.0
0.0,0.0,0.0,0.0
0.0,0.0,0.0,0.0
7.149,-0.266,-0.744,0.0
6.873,-0.257,-0.754,0.0
0.0,0.0,0.0,0.0
0.0,0.0,0.0,0.0
0.0,0.0,0.0,0.0
0.0,0.0,0.0,0.0
7.132,-0.274,-0.743,0.0
6.888,-0.266,-0.757,0.0
0.0,0.0,0.0,0.0
0.0,0.0,0.0,0.0
0.0,0.0,0.0,0.0
0.0,0.0,0.0,0.0
7.142,-0.282,-0.745,0.0
6.86,-0.273,-0.754,0.0
0.0,0.0,0.0,0.0
0.0,0.0,0.0,0.0
0.0,0.0,0.0,0.0
0.0,0.0,0.0,0.0
7.122,-0.29,-0.743,0.0
6.863,-0.281,-0.755,0.0
0.0,0.0,0.0,0.0
0.0,0.0,0.0,0.0
0.0,0.0,0.0,0.0
0.0,0.0,0.0,0.0
7.144,-0.299,-0.746,0.0
6.894,-0.29,-0.758,0.0
0.0,0.0,0.0,0.0
0.0,0.0,0.0,0.0
0.0,0.0,0.0,0.0
0.0,0.0,0.0,0.0
7.152,-0.308,-0.746,0.0
6.882,-0.298,-0.757,0.0
0.0,0.0,0.0,0.0
0.0,0.0,0.0,0.0
0.0,0.0,0.0,0.0
0.0,0.0,0.0,0.0
7.142,-0.316,-0.744,0.0
6.87,-0.305,-0.754,0.0
0.0,0.0,0.0,0.0
0.0,0.0,0.0,0.0
0.0,0.0,0.0,0.0
0.0,0.0,0.0,0.0
7.134,-0.324,-0.742,0.0
6.858,-0.313,-0.752,0.0
0.0,0.0,0.0,0.0
0.0,0.0,0.0,0.0
0.0,0.0,0.0,0.0
0.0,0.0,0.0,0.0
7.162,-0.333,-0.744,0.0
6.89,-0.322,-0.754,0.0
6.608,-0.31,-0.76,0.0
0.0,0.0,0.0,0.0
0.0,0.0,0.0,0.0
0.0,0.0,0.0,0.0
7.144,-0.34,-0.741,0.0
6.877,-0.329,-0.751,0.0
6.64,-0.319,-0.762,0.0
0.0,0.0,0.0,0.0
0.0,0.0,0.0,0.0
0.0,0.0,0.0,0.0
7.169,-0.35,-0.741,0.0
6.881,-0.337,-0.75,0.0
6.677,-0.328,-0.765,0.0
0.0,0.0,0.0,0.0
0.0,0.0,0.0,0.0
0.0,0.0,0.0,0.0
7.17,-0.358,-0.739,0.0
6.947,-0.348,-0.755,0.0
6.613,-0.332,-0.755,0.0
0.0,0.0,0.0,0.0
0.0,0.0,0.0,0.0
0.0,0.0,0.0,0.0
7.209,-0.367,-0.74,0.0
6.943,-0.355,-0.752,0.0
6.72,-0.345,-0.765,0.0
0.0,0.0,0.0,0.0
0.0,0.0,0.0,0.0
0.0,0.0,0.0,0.0
7.227,-0.376,-0.739,0.0
6.944,-0.362,-0.749,0.0
6.71,-0.352,-0.761,0.0
0.0,0.0,0.0,0.0
0.0,0.0,0.0,0.0
0.0,0.0,0.0,0.0
7.234,-0.384,-0.737,0.0
6.962,-0.371,-0.748,0.0
6.725,-0.359,-0.76,0.0
0.0,0.0,0.0,0.0
0.0,0.0,0.0,0.0
0.0,0.0,0.0,0.0
7.26,-0.392,-0.736,0.0
6.996,-0.38,-0.748,0.0
6.731,-0.366,-0.757,0.0
0.0,0.0,0.0,0.0
0.0,0.0,0.0,0.0
0.0,0.0,0.0,0.0
7.284,-0.401,-0.735,0.0
7.039,-0.389,-0.749,0.0
6.78,-0.376,-0.759,0.0
6.531,-0.364,-0.768,0.0
0.0,0.0,0.0,0.0
0.0,0.0,0.0,0.0
7.314,-0.41,-0.733,0.0
7.065,-0.397,-0.747,0.0
6.831,-0.385,-0.76,0.0
0.0,0.0,0.0,0.0
6.325,-0.36,-0.775,0.0
0.0,0.0,0.0,0.0
7.274,-0.414,-0.725,0.0
7.072,-0.404,-0.744,0.0
6.8,-0.39,-0.753,0.0
0.0,0.0,0.0,0.0
0.0,0.0,0.0,0.0
6.125,-0.355,-0.78,0.0
0.0,0.0,0.0,0.0
7.103,-0.413,-0.742,0.0
6.831,-0.398,-0.751,0.0
0.0,0.0,0.0,0.0
0.0,0.0,0.0,0.0
0.0,0.0,0.0,0.0
7.435,-0.437,-0.731,0.0
7.137,-0.421,-0.741,0.0
6.923,-0.41,-0.757,0.0
0.0,0.0,0.0,0.0
0.0,0.0,0.0,0.0
0.0,0.0,0.0,0.0
0.0,0.0,0.0,0.0
7.22,-0.433,-0.744,0.0
0.0,0.0,0.0,0.0
6.686,-0.403,-0.763,0.0
0.0,0.0,0.0,0.0
0.0,0.0,0.0,0.0
0.0,0.0,0.0,0.0
7.236,-0.44,-0.74,0.0
6.987,-0.426,-0.753,0.0
6.714,-0.41,-0.761,0.0
0.0,0.0,0.0,0.0
6.267,-0.386,-0.779,0.0
0.0,0.0,0.0,0.0
7.262,-0.447,-0.737,0.0
7.014,-0.433,-0.75,0.0
6.76,-0.419,-0.761,0.0
0.0,0.0,0.0,0.0
0.0,0.0,0.0,0.0
0.0,0.0,0.0,0.0
7.313,-0.456,-0.736,0.0
6.998,-0.438,-0.742,0.0
6.767,-0.425,-0.756,0.0
0.0,0.0,0.0,0.0
0.0,0.0,0.0,0.0
0.0,0.0,0.0,0.0
0.0,0.0,0.0,0.0
7.128,-0.451,-0.75,0.0
6.797,-0.432,-0.753,0.0
6.596,-0.42,-0.767,0.0
0.0,0.0,0.0,0.0
0.0,0.0,0.0,0.0
0.0,0.0,0.0,0.0
7.11,-0.456,-0.741,0.0
0.0,0.0,0.0,0.0
6.652,-0.429,-0.767,0.0
6.449,-0.417,-0.779,0.0
0.0,0.0,0.0,0.0
0.0,0.0,0.0,0.0
7.122,-0.461,-0.736,0.0
0.0,0.0,0.0,0.0
6.712,-0.437,-0.767,0.0
6.484,-0.423,-0.777,0.0
0.0,0.0,0.0,0.0
0.0,0.0,0.0,0.0
7.26,-0.475,-0.743,0.0
0.0,0.0,0.0,0.0
6.74,-0.443,-0.763,0.0
6.492,-0.428,-0.771,0.0
7.868,-0.518,-0.711,0.0
0.0,0.0,0.0,0.0
7.268,-0.48,-0.736,0.0
0.0,0.0,0.0,0.0
6.781,-0.451,-0.761,0.0
6.556,-0.437,-0.771,0.0
7.928,-0.527,-0.709,0.0
0.0,0.0,0.0,0.0
7.285,-0.486,-0.73,0.0
7.119,-0.476,-0.752,0.0
6.838,-0.458,-0.76,0.0
6.595,-0.443,-0.769,0.0
7.977,-0.535,-0.704,0.0
0.0,0.0,0.0,0.0
0.0,0.0,0.0,0.0
7.123,-0.481,-0.745,0.0
0.0,0.0,0.0,0.0
6.66,-0.451,-0.769,0.0
8.068,-0.545,-0.703,0.0
0.0,0.0,0.0,0.0
0.0,0.0,0.0,0.0
7.136,-0.485,-0.738,0.0
0.0,0.0,0.0,0.0
6.722,-0.459,-0.768,0.0
8.123,-0.553,-0.699,0.0
0.0,0.0,0.0,0.0
0.0,0.0,0.0,0.0
7.236,-0.496,-0.74,0.0
0.0,0.0,0.0,0.0
6.747,-0.464,-0.763,0.0
8.215,-0.563,-0.697,0.0
7.858,-0.54,-0.709,0.0
0.0,0.0,0.0,0.0
7.25,-0.5,-0.733,0.0
7.017,-0.485,-0.747,0.0
