X,Y,Z,Reflectivity
59.228,6.803,2.228,8.0
46.466,5.355,3.04,17.0
46.392,5.35,2.769,33.0
46.443,5.359,2.507,24.0
46.478,5.366,2.238,21.0
46.453,5.367,1.971,34.0
46.434,5.368,1.705,27.0
46.431,5.386,2.996,45.0
46.387,5.384,2.727,48.0
46.4,5.388,2.461,39.0
46.424,5.394,2.192,39.0
46.426,5.397,1.927,46.0
46.383,5.396,1.66,32.0
46.405,5.416,2.951,50.0
46.38,5.415,2.683,57.0
46.405,5.421,2.418,52.0
46.394,5.423,2.147,47.0
46.393,5.425,1.882,42.0
46.364,5.425,1.616,41.0
46.38,5.444,2.905,56.0
46.372,5.445,2.638,57.0
46.394,5.45,2.374,51.0
46.382,5.451,2.103,47.0
46.353,5.45,1.836,35.0
46.352,5.453,1.571,45.0
46.381,5.473,2.86,50.0
46.379,5.474,2.594,51.0
46.381,5.476,2.328,57.0
46.372,5.478,2.057,49.0
46.331,5.475,1.79,37.0
46.352,5.481,1.525,45.0
46.388,5.5,2.814,49.0
46.388,5.502,2.548,53.0
46.386,5.503,2.282,57.0
46.376,5.504,2.01,50.0
46.343,5.503,1.744,38.0
46.355,5.507,1.48,43.0
46.387,5.525,2.768,47.0
46.386,5.526,2.501,53.0
46.383,5.527,2.235,50.0
46.375,5.528,1.964,45.0
46.36,5.528,1.698,40.0
46.351,5.53,1.433,43.0
46.405,5.55,2.72,39.0
46.396,5.55,2.454,45.0
46.392,5.551,2.187,39.0
46.379,5.551,1.916,40.0
46.37,5.552,1.65,44.0
46.358,5.552,1.384,34.0
46.428,5.573,2.674,32.0
46.427,5.574,2.407,29.0
46.396,5.572,2.139,36.0
46.372,5.57,1.867,32.0
46.373,5.572,1.602,37.0
46.375,5.574,1.336,28.0
46.455,5.595,2.626,13.0
46.428,5.593,2.357,17.0
46.403,5.591,2.089,28.0
46.387,5.59,1.818,23.0
46.38,5.59,1.552,23.0
46.394,5.594,1.286,13.0
46.466,5.614,2.576,10.0
46.458,5.613,2.308,12.0
46.431,5.611,2.04,22.0
46.389,5.606,1.768,20.0
46.393,5.608,1.502,14.0
46.433,5.614,1.237,11.0
0.0,0.0,0.0,0.0
46.468,5.629,2.258,5.0
46.437,5.626,1.989,18.0
46.425,5.625,1.718,15.0
58.827,7.128,1.839,12.0
46.434,5.628,1.186,11.0
55.001,6.677,2.928,28.0
54.302,6.592,2.578,17.0
46.459,5.64,1.939,12.0
54.606,6.63,1.96,10.0
58.821,7.142,1.774,16.0
46.428,5.638,1.134,12.0
54.622,6.644,2.846,30.0
58.926,7.167,2.732,7.0
53.924,6.558,2.19,6.0
54.668,6.649,1.901,18.0
58.854,7.158,1.709,23.0
46.389,5.643,1.081,12.0
54.255,6.609,2.765,25.0
58.873,7.171,2.662,21.0
54.016,6.579,2.132,10.0
63.673,7.754,2.142,9.0
58.919,7.176,1.644,25.0
46.226,5.63,1.025,10.0
54.321,6.624,2.707,27.0
58.815,7.171,2.592,17.0
58.659,7.151,2.248,20.0
58.811,7.17,1.91,6.0
58.656,7.15,1.569,25.0
45.927,5.599,0.965,11.0
54.41,6.64,2.648,26.0
58.662,7.157,2.518,17.0
58.679,7.159,2.181,14.0
58.823,7.175,1.843,18.0
46.473,5.668,1.189,4.0
45.683,5.572,0.908,16.0
54.351,6.635,2.582,20.0
58.631,7.156,2.449,12.0
54.637,6.667,1.968,21.0
58.822,7.177,1.775,17.0
46.477,5.67,1.135,10.0
45.552,5.557,0.852,14.0
58.985,7.201,2.734,9.0
58.592,7.151,2.378,8.0
54.678,6.671,1.905,18.0
58.827,7.176,1.707,18.0
46.403,5.66,1.08,13.0
44.253,5.397,0.776,3.0
58.892,7.186,2.66,18.0
58.623,7.151,2.311,13.0
63.596,7.756,2.142,9.0
58.874,7.178,1.639,27.0
46.221,5.634,1.021,10.0
44.045,5.368,0.72,5.0
58.778,7.167,2.586,16.0
58.66,7.15,2.244,18.0
58.817,7.167,1.911,7.0
58.656,7.145,1.564,13.0
45.883,5.588,0.96,12.0
44.043,5.363,0.669,6.0
58.654,7.144,2.512,12.0
58.706,7.147,2.176,7.0
58.797,7.156,1.841,16.0
46.434,5.649,1.183,12.0
45.662,5.554,0.901,14.0
43.935,5.342,0.615,3.0
46.464,5.65,1.933,7.0
54.636,6.641,1.959,15.0
58.807,7.145,1.772,16.0
46.396,5.635,1.127,13.0
45.447,5.518,0.843,6.0
42.356,5.141,0.543,0.0
46.46,5.639,1.879,10.0
54.557,6.618,1.893,5.0
58.846,7.135,1.704,10.0
46.312,5.613,1.07,13.0
44.209,5.356,0.768,3.0
40.324,4.884,0.47,0.0
46.42,5.621,1.822,15.0
46.411,5.617,1.555,12.0
46.421,5.615,1.289,11.0
46.145,5.579,1.011,12.0
44.093,5.329,0.714,5.0
38.015,4.593,0.398,0.0
46.404,5.604,1.767,30.0
46.384,5.598,1.499,19.0
46.394,5.596,1.233,16.0
45.806,5.523,0.95,12.0
44.079,5.312,0.662,5.0
36.684,4.419,0.34,0.0
46.377,5.583,1.71,37.0
46.369,5.579,1.443,27.0
46.356,5.574,1.177,20.0
45.577,5.477,0.891,13.0
43.996,5.285,0.608,2.0
34.185,4.104,0.277,0.0
46.371,5.563,1.655,45.0
46.361,5.558,1.388,32.0
46.332,5.551,1.122,19.0
45.279,5.422,0.832,5.0
42.614,5.1,0.539,1.0
33.206,3.972,0.23,0.0
46.37,5.542,1.6,50.0
46.351,5.535,1.333,33.0
46.27,5.522,1.066,12.0
44.22,5.274,0.761,4.0
40.617,4.841,0.466,0.0
32.137,3.828,0.185,1.0
46.37,5.518,1.546,47.0
46.349,5.511,1.279,33.0
46.087,5.476,1.008,11.0
44.155,5.243,0.708,5.0
39.009,4.629,0.402,0.0
31.737,3.764,0.146,0.0
46.358,5.491,1.491,47.0
46.344,5.485,1.225,33.0
45.816,5.418,0.949,10.0
44.164,5.219,0.657,4.0
36.777,4.343,0.337,0.0
29.382,3.467,0.101,1.0
46.348,5.462,1.437,40.0
46.336,5.456,1.172,22.0
45.629,5.369,0.893,9.0
43.874,5.158,0.602,2.0
34.371,4.038,0.275,0.0
29.188,3.426,0.066,1.0
46.356,5.433,1.384,34.0
46.324,5.425,1.118,20.0
45.143,5.282,0.831,4.0
32.626,3.814,0.41,0.0
32.839,3.836,0.225,1.0
28.229,3.295,0.032,0.0
46.378,5.404,1.332,30.0
46.295,5.389,1.064,17.0
44.37,5.16,0.766,3.0
40.787,4.739,0.466,0.0
32.105,3.727,0.184,0.0
27.202,3.156,0.0,0.0
46.394,5.372,1.28,32.0
46.054,5.327,1.006,9.0
44.344,5.125,0.716,5.0
37.186,4.293,0.383,0.0
29.439,3.396,0.135,1.0
26.239,3.024,-0.029,1.0
46.418,5.339,1.228,30.0
45.767,5.258,0.949,11.0
44.357,5.091,0.666,4.0
37.283,4.275,0.343,0.0
29.359,3.363,0.102,5.0
25.995,2.975,-0.057,1.0
46.447,5.304,1.177,14.0
45.56,5.197,0.895,12.0
43.95,5.008,0.611,3.0
34.056,3.876,0.275,0.0
29.276,3.329,0.07,4.0
24.555,2.79,-0.081,0.0
46.459,5.266,1.126,8.0
45.38,5.137,0.841,6.0
43.521,4.921,0.557,1.0
33.077,3.736,0.231,0.0
28.739,3.243,0.037,1.0
24.125,2.719,-0.106,1.0
46.328,5.209,1.072,6.0
44.69,5.018,0.779,3.0
41.674,4.674,0.489,0.0
32.024,3.588,0.189,0.0
27.223,3.046,0.005,0.0
23.876,2.669,-0.13,1.0
46.164,5.147,1.019,9.0
44.628,4.969,0.731,4.0
37.991,4.225,0.405,0.0
29.383,3.264,0.142,2.0
26.264,2.914,-0.021,1.0
23.393,2.592,-0.153,0.0
45.956,5.078,0.966,10.0
44.642,4.926,0.684,4.0
37.531,4.136,0.36,0.0
29.337,3.228,0.111,4.0
25.934,2.851,-0.049,1.0
22.153,2.432,-0.168,0.0
45.696,5.002,0.913,13.0
44.575,4.872,0.636,3.0
34.09,3.721,0.292,0.0
29.247,3.188,0.081,4.0
25.259,2.75,-0.073,0.0
21.662,2.355,-0.186,1.0
45.458,4.927,0.862,11.0
44.583,4.825,0.591,1.0
33.588,3.63,0.254,0.0
28.816,3.11,0.05,0.0
24.307,2.62,-0.095,1.0
21.488,2.313,-0.206,3.0
45.169,4.846,0.811,7.0
42.291,4.53,0.518,0.0
32.148,3.438,0.211,0.0
27.497,2.937,0.021,0.0
24.124,2.573,-0.118,0.0
21.303,2.269,-0.225,2.0
45.014,4.777,0.763,7.0
38.517,4.081,0.434,0.0
31.903,3.375,0.178,1.0
26.503,2.799,-0.005,1.0
23.571,2.486,-0.138,0.0
20.944,2.206,-0.242,0.0
45.042,4.727,0.721,4.0
38.918,4.077,0.401,0.0
31.535,3.298,0.146,0.0
26.099,2.725,-0.029,2.0
22.512,2.347,-0.153,0.0
20.477,2.132,-0.256,0.0
45.206,4.688,0.681,6.0
34.579,3.58,0.324,0.0
29.234,3.021,0.108,1.0
25.74,2.656,-0.053,1.0
22.019,2.268,-0.171,1.0
19.615,2.017,-0.263,0.0
45.483,4.659,0.643,1.0
33.894,3.466,0.286,0.0
29.081,2.968,0.081,1.0
24.948,2.542,-0.074,0.0
21.875,2.225,-0.189,4.0
19.375,1.968,-0.277,0.0
43.588,4.408,0.577,0.0
33.118,3.343,0.25,0.0
28.502,2.872,0.054,0.0
24.456,2.46,-0.094,0.0
21.561,2.165,-0.206,4.0
19.096,1.914,-0.29,0.0
39.596,3.951,0.489,0.0
32.435,3.23,0.217,0.0
27.565,2.74,0.028,0.0
24.061,2.387,-0.114,0.0
21.319,2.111,-0.222,3.0
18.676,1.846,-0.3,0.0
0.0,0.0,0.0,0.0
29.343,2.882,0.171,0.0
26.612,2.609,0.004,0.0
23.65,2.314,-0.131,0.0
21.155,2.066,-0.237,1.0
18.329,1.786,-0.31,0.0
0.0,0.0,0.0,0.0
29.302,2.836,0.147,3.0
26.073,2.519,-0.016,1.0
22.841,2.202,-0.146,0.0
20.68,1.99,-0.249,0.0
18.067,1.735,-0.32,0.0
35.135,3.358,0.347,0.0
29.285,2.792,0.124,6.0
25.884,2.463,-0.036,1.0
22.558,2.142,-0.161,1.0
20.086,1.903,-0.257,0.0
17.748,1.678,-0.328,0.0
34.1,3.208,0.311,0.0
29.208,2.742,0.101,5.0
25.526,2.391,-0.055,1.0
22.131,2.068,-0.175,3.0
19.695,1.837,-0.267,0.0
17.514,1.63,-0.337,0.0
33.599,3.11,0.281,0.0
29.054,2.683,0.079,2.0
24.926,2.297,-0.072,0.0
21.893,2.013,-0.189,4.0
19.359,1.776,-0.276,0.0
17.337,1.587,-0.346,0.0
32.733,2.98,0.25,0.0
28.249,2.565,0.056,0.0
24.58,2.226,-0.088,0.0
21.703,1.961,-0.203,3.0
19.078,1.72,-0.286,0.0
17.145,1.542,-0.354,0.0
32.355,2.894,0.225,0.0
27.538,2.457,0.036,1.0
24.209,2.154,-0.104,0.0
21.523,1.911,-0.216,1.0
18.719,1.658,-0.293,0.0
16.962,1.498,-0.361,0.0
31.103,2.732,0.196,0.0
26.811,2.349,0.018,1.0
23.825,2.082,-0.118,0.0
21.205,1.848,-0.226,0.0
18.55,1.612,-0.302,0.0
16.78,1.455,-0.368,0.0
30.779,2.653,0.174,0.0
26.621,2.289,0.001,1.0
23.487,2.014,-0.13,0.0
20.931,1.79,-0.236,0.0
18.298,1.56,-0.309,0.0
16.604,1.412,-0.374,0.0
30.069,2.542,0.153,0.0
26.16,2.205,-0.013,1.0
23.125,1.944,-0.142,1.0
20.398,1.71,-0.242,0.0
18.036,1.508,-0.315,0.0
16.458,1.372,-0.38,0.0
29.81,2.47,0.135,2.0
25.911,2.141,-0.028,0.0
22.824,1.88,-0.153,1.0
20.297,1.667,-0.252,0.0
17.858,1.463,-0.322,0.0
16.295,1.331,-0.385,0.0
29.575,2.4,0.118,3.0
25.624,2.073,-0.041,0.0
22.708,1.831,-0.164,1.0
19.854,1.597,-0.256,0.0
17.645,1.415,-0.327,0.0
16.139,1.29,-0.389,0.0
29.247,2.322,0.102,1.0
25.328,2.005,-0.053,0.0
22.52,1.777,-0.173,1.0
19.544,1.537,-0.262,0.0
17.505,1.373,-0.333,0.0
16.051,1.255,-0.395,0.0
28.231,2.192,0.085,1.0
25.107,1.943,-0.064,0.0
22.263,1.717,-0.181,0.0
19.317,1.485,-0.267,0.0
17.318,1.327,-0.337,0.0
15.96,1.219,-0.4,0.0
27.99,2.123,0.072,1.0
24.715,1.868,-0.074,0.0
21.979,1.655,-0.188,0.0
19.18,1.44,-0.274,0.0
17.213,1.287,-0.342,0.0
15.89,1.185,-0.404,0.0
27.886,2.064,0.061,1.0
24.418,1.801,-0.082,1.0
21.856,1.606,-0.196,0.0
19.022,1.393,-0.279,0.0
17.104,1.248,-0.346,0.0
15.794,1.148,-0.408,0.0
27.623,1.994,0.05,0.0
24.24,1.743,-0.091,1.0
21.639,1.55,-0.202,0.0
18.829,1.344,-0.282,0.0
17.004,1.209,-0.35,0.0
15.752,1.116,-0.412,0.0
27.397,1.927,0.041,0.0
24.169,1.693,-0.098,2.0
21.591,1.507,-0.208,0.0
18.781,1.306,-0.287,0.0
16.942,1.173,-0.354,0.0
15.647,1.079,-0.414,0.0
27.147,1.858,0.032,1.0
24.138,1.646,-0.105,2.0
21.456,1.457,-0.213,0.0
18.597,1.258,-0.29,0.0
16.83,1.134,-0.356,0.0
15.554,1.043,-0.416,0.0
26.947,1.793,0.025,0.0
24.136,1.599,-0.111,0.0
21.311,1.406,-0.216,0.0
18.48,1.214,-0.292,0.0
16.792,1.099,-0.359,0.0
15.479,1.009,-0.417,0.0
26.912,1.739,0.019,0.0
24.09,1.55,-0.116,0.0
21.197,1.358,-0.22,1.0
18.53,1.182,-0.297,0.0
16.769,1.065,-0.362,0.0
15.374,0.972,-0.417,0.0
26.752,1.677,0.014,0.0
23.986,1.497,-0.12,0.0
21.273,1.321,-0.224,2.0
18.395,1.137,-0.298,0.0
16.7,1.028,-0.363,0.0
15.444,0.946,-0.421,0.0
26.663,1.62,0.01,0.0
23.913,1.446,-0.123,0.0
21.288,1.281,-0.227,2.0
18.344,1.098,-0.299,0.0
16.717,0.996,-0.365,0.0
15.3,0.907,-0.419,0.0
26.619,1.565,0.007,0.0
23.832,1.394,-0.125,0.0
21.209,1.234,-0.228,1.0
18.441,1.068,-0.302,0.0
16.65,0.959,-0.365,0.0
15.396,0.883,-0.423,0.0
26.584,1.511,0.005,0.0
23.76,1.343,-0.126,0.0
21.22,1.194,-0.23,1.0
18.253,1.021,-0.3,1.0
16.628,0.925,-0.366,0.0
15.304,0.847,-0.421,0.0
26.684,1.464,0.004,0.0
23.6,1.287,-0.126,0.0
21.267,1.154,-0.231,2.0
18.218,0.983,-0.3,0.0
16.623,0.892,-0.366,0.0
15.312,0.817,-0.421,0.0
26.616,1.407,0.004,0.0
23.451,1.233,-0.125,0.0
21.16,1.106,-0.229,0.0
18.18,0.945,-0.299,1.0
16.587,0.857,-0.364,0.0
15.184,0.78,-0.417,0.0
26.601,1.353,0.005,0.0
23.704,1.198,-0.125,0.0
21.078,1.059,-0.227,0.0
18.206,0.909,-0.298,0.0
16.682,0.828,-0.365,0.0
15.314,0.755,-0.42,0.0
26.721,1.305,0.007,0.0
23.491,1.14,-0.122,0.0
21.205,1.022,-0.227,0.0
18.274,0.876,-0.298,0.0
16.652,0.793,-0.363,0.0
15.373,0.727,-0.42,0.0
26.733,1.251,0.01,0.0
23.434,1.09,-0.119,0.0
21.206,0.979,-0.224,0.0
18.321,0.84,-0.296,0.0
16.714,0.762,-0.362,0.0
15.391,0.697,-0.418,0.0
26.83,1.201,0.015,0.0
23.611,1.05,-0.116,0.0
21.394,0.944,-0.222,2.0
18.312,0.803,-0.293,0.0
16.719,0.728,-0.359,0.0
15.362,0.664,-0.414,0.0
27.099,1.158,0.02,0.0
24.032,1.02,-0.113,1.0
21.476,0.904,-0.219,1.0
18.548,0.775,-0.292,0.0
16.753,0.695,-0.356,0.0
15.542,0.64,-0.415,0.0
27.168,1.106,0.026,0.0
24.328,0.983,-0.109,1.0
21.562,0.864,-0.214,0.0
18.525,0.737,-0.287,0.0
16.807,0.663,-0.353,0.0
15.535,0.608,-0.411,0.0
27.299,1.055,0.034,1.0
24.401,0.936,-0.102,1.0
21.6,0.822,-0.209,1.0
18.603,0.702,-0.283,0.0
16.881,0.631,-0.349,0.0
15.645,0.58,-0.409,0.0
27.489,1.006,0.043,1.0
24.486,0.889,-0.095,1.0
21.717,0.781,-0.203,0.0
18.98,0.677,-0.283,0.0
16.981,0.6,-0.345,0.0
15.711,0.55,-0.405,0.0
27.697,0.958,0.052,0.0
24.619,0.843,-0.087,1.0
21.813,0.74,-0.196,1.0
19.032,0.64,-0.276,0.0
17.1,0.569,-0.341,0.0
15.79,0.52,-0.401,0.0
28.237,0.918,0.065,1.0
25.036,0.806,-0.078,0.0
22.08,0.703,-0.189,0.0
19.265,0.607,-0.272,0.0
17.175,0.536,-0.336,0.0
15.862,0.49,-0.396,0.0
28.68,0.873,0.078,1.0
25.205,0.759,-0.068,0.0
22.303,0.665,-0.181,0.0
19.522,0.576,-0.267,0.0
17.283,0.504,-0.33,0.0
15.973,0.46,-0.392,0.0
28.868,0.82,0.092,2.0
25.436,0.714,-0.057,0.0
22.631,0.628,-0.173,0.0
19.748,0.542,-0.26,0.0
17.472,0.474,-0.325,0.0
16.023,0.429,-0.385,0.0
28.88,0.761,0.106,4.0
25.909,0.675,-0.044,0.0
22.973,0.591,-0.164,0.0
19.965,0.507,-0.253,0.0
17.68,0.443,-0.32,0.0
16.215,0.401,-0.381,0.0
28.864,0.702,0.122,2.0
26.129,0.626,-0.03,0.0
23.267,0.55,-0.153,0.0
20.146,0.47,-0.244,0.0
17.919,0.412,-0.314,0.0
16.362,0.371,-0.375,0.0
28.899,0.644,0.138,0.0
26.535,0.582,-0.015,0.0
23.489,0.507,-0.141,0.0
20.445,0.435,-0.235,0.0
18.063,0.378,-0.305,0.0
16.508,0.34,-0.368,0.0
29.018,0.587,0.157,0.0
26.747,0.532,0.0,0.0
23.758,0.465,-0.127,0.0
20.972,0.403,-0.228,0.0
18.295,0.346,-0.297,0.0
16.622,0.309,-0.36,0.0
30.486,0.555,0.185,0.0
27.076,0.484,0.018,0.0
24.228,0.425,-0.114,0.0
21.365,0.368,-0.218,0.0
18.583,0.314,-0.289,0.0
16.773,0.278,-0.352,0.0
31.204,0.505,0.211,0.0
27.438,0.435,0.037,0.0
24.604,0.382,-0.098,0.0
21.676,0.329,-0.205,0.0
18.73,0.278,-0.278,0.0
16.971,0.247,-0.343,0.0
31.954,0.453,0.239,0.0
28.503,0.395,0.06,1.0
25.0,0.338,-0.081,0.0
21.943,0.289,-0.192,0.0
19.074,0.245,-0.269,0.0
17.121,0.215,-0.334,0.0
32.293,0.393,0.266,0.0
28.758,0.341,0.082,4.0
25.455,0.293,-0.063,0.0
22.224,0.249,-0.177,0.0
19.618,0.213,-0.261,0.0
17.405,0.183,-0.325,0.0
32.92,0.336,0.297,0.0
28.819,0.285,0.105,6.0
26.125,0.249,-0.044,0.0
22.747,0.21,-0.162,0.0
20.045,0.178,-0.25,0.0
17.667,0.151,-0.315,0.0
0.0,0.0,0.0,0.0
28.861,0.228,0.13,3.0
26.447,0.2,-0.022,0.0
23.482,0.17,-0.147,0.0
20.668,0.143,-0.24,0.0
18.116,0.119,-0.308,0.0
34.358,0.215,0.369,0.0
28.863,0.171,0.155,0.0
26.819,0.151,0.001,0.0
23.896,0.126,-0.129,0.0
21.089,0.105,-0.227,3.0
18.452,0.086,-0.297,0.0
35.705,0.154,0.415,0.0
30.567,0.122,0.192,0.0
27.364,0.1,0.026,0.0
24.386,0.081,-0.109,0.0
21.422,0.065,-0.21,4.0
18.744,0.051,-0.284,0.0
0.0,0.0,0.0,0.0
31.514,0.065,0.228,0.0
28.418,0.049,0.054,1.0
25.055,0.035,-0.088,0.0
21.856,0.024,-0.193,0.0
19.24,0.015,-0.273,0.0
0.0,0.0,0.0,0.0
33.134,0.005,0.272,0.0
28.674,-0.004,0.083,1.0
25.549,-0.012,-0.064,0.0
22.652,-0.017,-0.178,0.0
19.682,-0.021,-0.259,0.0
38.832,-0.054,0.565,0.0
33.229,-0.057,0.306,0.0
28.792,-0.058,0.112,7.0
26.005,-0.061,-0.039,0.0
23.242,-0.061,-0.159,0.0
20.236,-0.06,-0.246,0.0
39.987,-0.131,0.623,0.0
33.434,-0.121,0.343,0.0
28.852,-0.113,0.142,3.0
26.892,-0.113,-0.012,0.0
23.779,-0.108,-0.137,0.0
21.044,-0.102,-0.233,0.0
42.052,-0.216,0.7,0.0
35.179,-0.191,0.398,0.0
31.042,-0.179,0.187,0.0
27.389,-0.166,0.016,0.0
24.404,-0.156,-0.114,0.0
21.734,-0.145,-0.217,0.0
44.69,-0.312,0.793,0.0
36.656,-0.266,0.456,0.0
31.624,-0.239,0.225,1.0
28.319,-0.223,0.048,1.0
24.919,-0.204,-0.089,0.0
22.295,-0.189,-0.198,1.0
0.0,0.0,0.0,0.0
38.028,-0.346,0.516,0.0
32.428,-0.304,0.268,1.0
28.597,-0.277,0.082,1.0
25.672,-0.257,-0.062,0.0
22.845,-0.235,-0.176,0.0
0.0,0.0,0.0,0.0
0.0,0.0,0.0,0.0
33.043,-0.37,0.312,1.0
28.738,-0.33,0.116,0.0
26.251,-0.309,-0.032,0.0
23.303,-0.282,-0.152,1.0
0.0,0.0,0.0,0.0
0.0,0.0,0.0,0.0
34.024,-0.441,0.363,0.0
30.47,-0.404,0.16,0.0
27.051,-0.366,0.0,0.0
24.043,-0.333,-0.127,0.0
0.0,0.0,0.0,0.0
43.494,-0.627,0.747,0.0
0.0,0.0,0.0,0.0
31.216,-0.469,0.203,0.0
27.896,-0.427,0.034,0.0
24.663,-0.385,-0.099,0.0
0.0,0.0,0.0,0.0
0.0,0.0,0.0,0.0
37.332,-0.614,0.491,0.0
32.545,-0.545,0.253,1.0
28.469,-0.484,0.071,1.0
25.454,-0.441,-0.07,0.0
0.0,0.0,0.0,0.0
0.0,0.0,0.0,0.0
38.595,-0.7,0.558,0.0
33.417,-0.616,0.303,2.0
28.72,-0.537,0.109,6.0
26.308,-0.5,-0.038,0.0
0.0,0.0,0.0,0.0
0.0,0.0,0.0,0.0
41.582,-0.824,0.656,0.0
34.399,-0.691,0.358,1.0
28.776,-0.586,0.148,1.0
27.051,-0.559,-0.002,0.0
0.0,0.0,0.0,0.0
0.0,0.0,0.0,0.0
0.0,0.0,0.0,0.0
36.39,-0.791,0.428,0.0
31.142,-0.685,0.202,0.0
28.164,-0.628,0.035,1.0
0.0,0.0,0.0,0.0
0.0,0.0,0.0,0.0
0.0,0.0,0.0,0.0
37.796,-0.882,0.496,0.0
32.174,-0.76,0.254,1.0
28.641,-0.684,0.075,6.0
93.763,-2.263,2.852,2.0
0.0,0.0,0.0,0.0
0.0,0.0,0.0,0.0
0.0,0.0,0.0,0.0
33.237,-0.837,0.309,1.0
28.714,-0.731,0.116,4.0
92.798,-2.384,2.952,1.0
0.0,0.0,0.0,0.0
0.0,0.0,0.0,0.0
0.0,0.0,0.0,0.0
34.698,-0.927,0.371,0.0
28.915,-0.78,0.157,0.0
92.322,-2.512,3.068,30.0
0.0,0.0,0.0,0.0
0.0,0.0,0.0,0.0
0.0,0.0,0.0,0.0
36.575,-1.032,0.444,0.0
31.272,-0.89,0.215,0.0
92.291,-2.649,3.2,150.0
0.0,0.0,0.0,0.0
0.0,0.0,0.0,0.0
0.0,0.0,0.0,0.0
0.0,0.0,0.0,0.0
32.378,-0.97,0.271,0.0
92.251,-2.784,3.336,39.0
0.0,0.0,0.0,0.0
0.0,0.0,0.0,0.0
0.0,0.0,0.0,0.0
0.0,0.0,0.0,0.0
34.217,-1.075,0.337,0.0
92.276,-2.917,3.475,151.0
92.589,-2.949,3.001,7.0
0.0,0.0,0.0,0.0
0.0,0.0,0.0,0.0
0.0,0.0,0.0,0.0
0.0,0.0,0.0,0.0
92.251,-3.046,3.613,150.0
92.161,-3.064,3.127,32.0
0.0,0.0,0.0,0.0
0.0,0.0,0.0,0.0
0.0,0.0,0.0,0.0
0.0,0.0,0.0,0.0
92.216,-3.171,3.754,20.0
92.193,-3.191,3.27,150.0
0.0,0.0,0.0,0.0
0.0,0.0,0.0,0.0
51.273,-1.81,1.009,0.0
39.058,-1.387,0.565,0.0
0.0,0.0,0.0,0.0
92.222,-3.315,3.415,168.0
92.678,-3.353,2.948,2.0
0.0,0.0,0.0,0.0
0.0,0.0,0.0,0.0
0.0,0.0,0.0,0.0
0.0,0.0,0.0,0.0
92.162,-3.434,3.558,59.0
92.135,-3.452,3.075,56.0
0.0,0.0,0.0,0.0
0.0,0.0,0.0,0.0
0.0,0.0,0.0,0.0
113.503,-4.349,5.157,6.0
92.202,-3.552,3.707,26.0
92.121,-3.568,3.223,56.0
0.0,0.0,0.0,0.0
0.0,0.0,0.0,0.0
0.0,0.0,0.0,0.0
194.761,-7.703,9.162,15.0
92.293,-3.668,3.859,2.0
92.153,-3.682,3.372,158.0
92.482,-3.713,2.892,2.0
0.0,0.0,0.0,0.0
0.0,0.0,0.0,0.0
113.448,-4.623,5.521,9.0
0.0,0.0,0.0,0.0
92.249,-3.794,3.524,16.0
92.25,-3.811,3.034,5.0
0.0,0.0,0.0,0.0
0.0,0.0,0.0,0.0
120.237,-5.037,6.046,18.0
120.273,-5.062,5.42,20.0
92.401,-3.906,3.681,4.0
92.232,-3.916,3.184,155.0
0.0,0.0,0.0,0.0
0.0,0.0,0.0,0.0
120.196,-5.171,6.241,10.0
120.367,-5.2,5.622,8.0
0.0,0.0,0.0,0.0
92.241,-4.018,3.336,53.0
0.0,0.0,0.0,0.0
0.0,0.0,0.0,0.0
111.876,-4.935,5.995,20.0
194.492,-8.611,9.405,16.0
0.0,0.0,0.0,0.0
92.829,-4.14,3.51,4.0
0.0,0.0,0.0,0.0
0.0,0.0,0.0,0.0
112.823,-5.094,6.232,15.0
164.333,-7.446,8.219,23.0
164.198,-7.467,7.356,4.0
94.112,-4.294,3.715,3.0
94.092,-4.309,3.224,4.0
0.0,0.0,0.0,0.0
98.351,-4.539,5.597,14.0
164.32,-7.61,8.495,23.0
164.384,-7.639,7.64,18.0
0.0,0.0,0.0,0.0
94.946,-4.441,3.414,2.0
0.0,0.0,0.0,0.0
108.602,-5.119,6.365,8.0
112.181,-5.303,5.989,12.0
194.482,-9.223,9.367,9.0
0.0,0.0,0.0,0.0
0.0,0.0,0.0,0.0
0.0,0.0,0.0,0.0
92.045,-4.424,5.55,7.0
112.434,-5.42,6.193,8.0
189.521,-9.161,9.451,17.0
0.0,0.0,0.0,0.0
0.0,0.0,0.0,0.0
0.0,0.0,0.0,0.0
111.389,-5.453,6.907,7.0
112.418,-5.518,6.384,17.0
189.472,-9.327,9.773,12.0
0.0,0.0,0.0,0.0
0.0,0.0,0.0,0.0
109.387,-5.428,3.922,52.0
108.949,-5.428,6.944,19.0
112.072,-5.597,6.557,16.0
112.61,-5.639,6.003,8.0
119.189,-5.982,5.719,6.0
0.0,0.0,0.0,0.0
109.416,-5.519,4.112,3.0
87.826,-4.448,5.75,7.0
111.869,-5.677,6.739,17.0
118.937,-6.05,6.545,17.0
189.234,-9.648,9.406,11.0
0.0,0.0,0.0,0.0
0.0,0.0,0.0,0.0
87.877,-4.518,5.904,26.0
117.208,-6.037,7.262,5.0
112.099,-5.786,6.359,11.0
189.035,-9.779,9.72,20.0
188.91,-9.793,8.73,8.0
0.0,0.0,0.0,0.0
88.266,-4.602,6.082,20.0
108.819,-5.685,6.929,11.0
112.158,-5.87,6.556,19.0
119.762,-6.279,6.364,10.0
189.197,-9.94,9.069,6.0
0.0,0.0,0.0,0.0
89.076,-4.707,6.292,20.0
92.198,-4.879,6.03,16.0
92.399,-4.898,5.561,16.0
119.344,-6.336,6.546,16.0
189.18,-10.062,9.392,20.0
0.0,0.0,0.0,0.0
94.591,-5.059,6.844,3.0
89.436,-4.79,6.003,9.0
92.484,-4.961,5.724,18.0
119.517,-6.421,6.761,19.0
119.518,-6.43,6.137,6.0
0.0,0.0,0.0,0.0
94.487,-5.11,6.998,13.0
88.16,-4.774,6.068,20.0
92.166,-4.998,5.863,15.0
111.935,-6.079,6.523,11.0
122.664,-6.669,6.508,8.0
188.998,-10.291,9.043,7.0
88.367,-4.829,6.698,28.0
0.0,0.0,0.0,0.0
89.864,-4.922,5.87,12.0
92.519,-5.074,5.551,13.0
122.703,-6.738,6.722,15.0
188.998,-10.392,9.37,19.0
88.739,-4.896,6.879,28.0
94.563,-5.223,6.834,10.0
89.554,-4.951,6.004,12.0
92.479,-5.118,5.706,13.0
122.574,-6.791,6.922,7.0
122.528,-6.794,6.28,5.0
88.751,-4.939,7.031,27.0
88.386,-4.923,6.538,14.0
88.017,-4.906,6.049,12.0
91.586,-5.11,5.807,11.0
111.911,-6.25,6.511,10.0
122.725,-6.86,6.501,6.0
88.911,-4.988,7.197,11.0
88.267,-4.955,6.681,22.0
89.937,-5.052,6.336,7.0
89.752,-5.045,5.844,15.0
111.948,-6.297,6.703,15.0
122.649,-6.904,6.704,14.0
89.022,-5.03,7.358,17.0
88.525,-5.004,6.852,23.0
112.584,-6.367,8.122,9.0
89.423,-5.06,5.975,15.0
91.744,-5.195,5.65,11.0
122.794,-6.957,6.921,7.0
92.98,-5.286,7.843,14.0
88.607,-5.04,7.009,14.0
88.607,-5.042,6.543,16.0
88.042,-5.012,6.031,10.0
91.437,-5.206,5.785,11.0
122.707,-6.991,7.121,4.0
88.749,-5.074,7.637,12.0
92.919,-5.313,7.506,10.0
88.6,-5.068,6.692,22.0
91.86,-5.255,6.447,5.0
89.364,-5.114,5.804,19.0
92.357,-5.287,5.514,15.0
88.705,-5.096,7.782,29.0
92.832,-5.333,7.656,23.0
88.775,-5.101,6.854,21.0
88.698,-5.096,6.373,6.0
89.331,-5.134,5.95,25.0
92.103,-5.294,5.652,17.0
87.987,-5.075,7.866,18.0
93.033,-5.366,7.826,12.0
88.661,-5.113,6.992,16.0
88.733,-5.117,6.522,33.0
89.516,-5.162,6.11,9.0
0.0,0.0,0.0,0.0
87.748,-5.078,7.99,30.0
88.734,-5.135,7.611,27.0
92.815,-5.369,7.473,12.0
88.723,-5.131,6.667,30.0
91.874,-5.312,6.421,9.0
89.332,-5.165,5.774,16.0
87.798,-5.094,8.139,25.0
88.776,-5.149,7.761,31.0
92.809,-5.381,7.624,22.0
88.693,-5.14,6.809,27.0
88.476,-5.126,6.328,6.0
89.286,-5.172,5.916,26.0
87.736,-5.1,8.277,14.0
88.207,-5.125,7.854,19.0
93.089,-5.406,7.798,12.0
88.712,-5.149,6.955,22.0
88.619,-5.141,6.48,25.0
89.469,-5.189,6.071,12.0
87.349,-5.084,8.381,11.0
87.71,-5.101,7.951,30.0
88.725,-5.157,7.573,25.0
92.846,-5.392,7.426,9.0
88.703,-5.149,6.627,30.0
91.867,-5.33,6.379,5.0
87.273,-5.082,8.513,19.0
87.778,-5.106,8.097,28.0
88.772,-5.161,7.718,33.0
92.796,-5.391,7.568,27.0
88.735,-5.15,6.769,28.0
91.865,-5.329,6.523,2.0
87.461,-5.091,8.67,17.0
87.762,-5.104,8.233,16.0
88.489,-5.141,7.833,23.0
92.961,-5.397,7.727,17.0
88.74,-5.147,6.908,24.0
88.658,-5.138,6.434,17.0
87.467,-5.087,8.807,12.0
87.366,-5.076,8.333,13.0
87.743,-5.092,7.903,29.0
88.685,-5.141,7.51,16.0
88.688,-5.136,7.041,17.0
88.728,-5.134,6.575,26.0
90.768,-5.27,9.28,12.0
87.218,-5.058,8.453,21.0
87.773,-5.084,8.04,32.0
88.711,-5.132,7.646,34.0
92.802,-5.363,7.508,17.0
88.737,-5.123,6.71,27.0
90.778,-5.258,9.419,21.0
87.281,-5.049,8.592,19.0
87.795,-5.073,8.175,25.0
88.704,-5.119,7.78,30.0
92.861,-5.351,7.652,22.0
88.762,-5.108,6.845,21.0
90.971,-5.254,9.577,12.0
87.558,-5.049,8.75,19.0
87.551,-5.042,8.283,18.0
88.037,-5.062,7.852,26.0
92.952,-5.338,7.797,18.0
88.595,-5.081,6.962,16.0
91.056,-5.24,9.723,24.0
87.474,-5.025,8.872,14.0
87.152,-5.0,8.374,23.0
87.873,-5.033,7.966,29.0
92.871,-5.311,7.924,13.0
93.052,-5.313,7.446,4.0
91.11,-5.22,9.859,8.0
98.072,-5.61,10.088,11.0
86.998,-4.968,8.484,31.0
87.739,-5.001,8.079,35.0
88.696,-5.047,7.695,25.0
92.97,-5.282,7.572,9.0
86.915,-4.955,9.53,15.0
92.957,-5.29,9.694,5.0
87.279,-4.957,8.635,28.0
87.516,-4.961,8.182,29.0
88.401,-5.003,7.793,31.0
89.041,-5.031,7.376,21.0
81.731,-4.633,9.076,13.0
90.955,-5.146,9.613,10.0
87.49,-4.94,8.778,16.0
87.378,-4.924,8.291,27.0
88.309,-4.966,7.908,32.0
92.821,-5.21,7.817,8.0
81.696,-4.602,9.186,10.0
82.367,-4.629,8.82,7.0
91.2,-5.115,9.276,4.0
87.16,-4.878,8.389,26.0
88.209,-4.927,8.019,21.0
92.821,-5.174,7.942,16.0
86.477,-4.836,9.842,19.0
86.348,-4.819,9.361,29.0
92.701,-5.161,9.552,12.0
87.055,-4.836,8.494,26.0
87.723,-4.863,8.089,33.0
89.248,-4.936,7.753,9.0
86.559,-4.804,9.965,27.0
86.244,-4.775,9.464,15.0
92.722,-5.121,9.675,10.0
88.468,-4.875,8.746,19.0
87.602,-4.817,8.191,27.0
92.995,-5.102,8.198,4.0
86.745,-4.774,10.099,28.0
81.769,-4.489,9.078,16.0
82.473,-4.516,8.712,11.0
88.892,-4.855,8.902,28.0
87.707,-4.779,8.312,12.0
86.786,-4.718,7.759,20.0
86.986,-4.743,10.239,24.0
81.866,-4.452,9.193,18.0
82.5,-4.474,8.819,22.0
88.948,-4.812,9.019,15.0
88.045,-4.751,8.454,19.0
86.943,-4.679,7.881,19.0
86.776,-4.686,10.321,31.0
86.828,-4.675,9.857,15.0
82.43,-4.426,8.911,10.0
83.162,-4.453,8.533,10.0
88.048,-4.702,8.559,15.0
87.702,-4.671,8.054,18.0
86.724,-4.634,10.419,32.0
86.732,-4.62,9.949,27.0
82.28,-4.37,8.993,14.0
83.185,-4.406,8.633,13.0
83.841,-4.429,8.249,13.0
84.689,-4.46,7.876,16.0
86.466,-4.566,10.491,24.0
86.418,-4.551,10.014,34.0
82.146,-4.313,9.074,18.0
92.846,-4.859,9.744,15.0
83.931,-4.38,8.354,12.0
84.691,-4.407,7.973,23.0
86.401,-4.509,10.582,30.0
0.0,0.0,0.0,0.0
82.257,-4.265,9.179,21.0
84.776,-4.383,8.991,6.0
88.668,-4.57,8.923,22.0
84.761,-4.356,8.071,16.0
86.196,-4.441,10.651,30.0
85.204,-4.376,10.064,30.0
82.436,-4.22,9.288,12.0
82.524,-4.211,8.841,10.0
88.744,-4.512,9.027,11.0
84.481,-4.282,8.135,24.0
86.304,-4.387,10.758,22.0
85.32,-4.322,10.169,18.0
85.939,-4.337,9.775,24.0
82.388,-4.144,8.913,30.0
81.928,-4.107,8.419,8.0
84.073,-4.201,8.183,21.0
85.913,-4.304,10.799,19.0
85.658,-4.276,10.298,24.0
81.658,-4.062,9.371,11.0
82.41,-4.084,8.999,34.0
82.017,-4.051,8.51,13.0
84.087,-4.139,8.268,22.0
85.887,-4.238,10.882,26.0
85.902,-4.223,10.413,27.0
81.707,-4.002,9.457,33.0
82.42,-4.022,9.081,24.0
82.415,-4.007,8.631,21.0
84.201,-4.079,8.36,18.0
86.01,-4.177,10.981,30.0
85.839,-4.152,10.487,32.0
81.764,-3.94,9.541,26.0
81.065,-3.892,9.007,15.0
82.371,-3.939,8.703,30.0
84.341,-4.019,8.451,12.0
85.734,-4.095,11.024,26.0
85.734,-4.079,10.552,31.0
82.078,-3.889,9.651,13.0
81.132,-3.829,9.087,31.0
82.545,-3.88,8.794,30.0
83.571,-3.913,8.447,13.0
85.414,-4.008,11.059,27.0
85.849,-4.012,10.642,23.0
85.414,-3.975,10.118,12.0
81.213,-3.764,9.166,26.0
82.58,-3.812,8.868,28.0
84.903,-3.903,8.654,18.0
85.468,-3.937,11.139,29.0
86.0,-3.944,10.733,20.0
85.42,-3.901,10.19,22.0
81.5,-3.706,9.266,33.0
82.443,-3.733,8.921,36.0
83.13,-3.748,8.54,10.0
85.507,-3.862,11.214,16.0
82.12,-3.693,10.316,12.0
85.541,-3.829,10.273,20.0
81.584,-3.637,9.339,35.0
82.415,-3.659,8.981,29.0
82.278,-3.636,8.515,12.0
85.979,-3.806,11.342,23.0
81.948,-3.611,10.356,19.0
80.64,-3.537,9.744,17.0
81.584,-3.562,9.4,29.0
82.53,-3.588,9.054,33.0
81.499,-3.527,8.493,10.0
85.928,-3.723,11.398,22.0
82.243,-3.547,10.452,9.0
80.479,-3.455,9.782,24.0
81.589,-3.486,9.458,27.0
82.191,-3.495,9.074,20.0
81.396,-3.445,8.538,14.0
86.027,-3.647,11.469,16.0
82.434,-3.477,10.532,12.0
80.508,-3.379,9.839,18.0
81.19,-3.391,9.465,25.0
0.0,0.0,0.0,0.0
81.28,-3.363,8.578,23.0
86.068,-3.565,11.53,7.0
80.916,-3.335,10.389,23.0
80.391,-3.296,9.875,13.0
81.046,-3.306,9.498,34.0
64.997,-2.638,7.257,7.0
0.0,0.0,0.0,0.0
80.453,-3.252,10.826,19.0
81.009,-3.258,10.449,23.0
81.426,-3.258,10.049,11.0
81.282,-3.234,9.572,22.0
64.96,-2.572,7.29,28.0
79.592,-3.135,8.492,14.0
80.418,-3.17,10.867,23.0
81.216,-3.183,10.521,27.0
81.242,-3.168,10.071,22.0
81.41,-3.157,9.63,26.0
64.958,-2.505,7.324,25.0
63.781,-2.448,6.837,4.0
80.545,-3.092,10.925,18.0
81.109,-3.096,10.548,14.0
81.2,-3.082,10.106,29.0
81.331,-3.07,9.661,30.0
65.018,-2.441,7.361,27.0
79.332,-2.962,8.542,16.0
81.176,-3.032,11.049,25.0
80.928,-3.004,10.562,14.0
81.263,-3.0,10.151,29.0
81.454,-2.99,9.711,30.0
64.991,-2.372,7.386,20.0
64.624,-2.345,6.986,17.0
81.178,-2.947,11.084,28.0
80.375,-2.899,10.523,14.0
81.054,-2.906,10.158,17.0
76.834,-2.739,9.191,10.0
64.282,-2.278,7.331,10.0
64.444,-2.27,6.991,33.0
81.205,-2.859,11.119,28.0
79.442,-2.78,10.431,20.0
79.761,-2.774,10.025,10.0
76.885,-2.657,9.225,31.0
65.015,-2.234,7.437,11.0
64.374,-2.197,7.005,29.0
81.234,-2.772,11.15,22.0
79.521,-2.697,10.467,36.0
79.725,-2.686,10.046,30.0
77.029,-2.579,9.266,29.0
78.869,-2.623,9.046,15.0
64.42,-2.129,7.029,26.0
80.206,-2.648,11.033,22.0
79.817,-2.618,10.529,25.0
79.978,-2.606,10.1,20.0
77.212,-2.499,9.309,19.0
65.368,-2.101,7.515,7.0
64.446,-2.059,7.048,23.0
80.876,-2.58,11.145,17.0
80.016,-2.534,10.574,16.0
76.743,-2.414,9.709,16.0
77.223,-2.412,9.328,16.0
65.092,-2.019,7.497,20.0
64.527,-1.988,7.07,27.0
80.723,-2.483,11.14,34.0
79.371,-2.424,10.504,11.0
76.452,-2.319,9.686,26.0
76.648,-2.308,9.271,15.0
65.198,-1.95,7.52,18.0
64.692,-1.921,7.099,30.0
79.742,-2.363,11.017,14.0
76.688,-2.255,10.161,9.0
76.426,-2.231,9.694,28.0
76.872,-2.228,9.308,9.0
65.108,-1.873,7.517,23.0
64.709,-1.848,7.108,31.0
79.773,-2.271,11.03,11.0
76.788,-2.169,10.182,35.0
77.335,-2.168,9.816,23.0
77.337,-2.152,9.371,14.0
77.123,-2.13,8.911,21.0
64.741,-1.774,7.116,27.0
79.7,-2.177,11.025,13.0
76.757,-2.081,10.182,25.0
77.44,-2.082,9.833,27.0
76.0,-2.027,9.212,25.0
77.267,-2.044,8.93,26.0
64.726,-1.699,7.116,32.0
79.424,-2.077,10.988,14.0
75.871,-1.967,10.065,13.0
79.1,-2.035,10.044,11.0
76.599,-1.955,9.284,17.0
0.0,0.0,0.0,0.0
64.907,-1.629,7.134,33.0
79.293,-1.982,10.967,32.0
63.9,-1.583,8.474,31.0
76.947,-1.89,9.767,26.0
75.933,-1.849,9.199,22.0
75.828,-1.831,8.757,18.0
65.123,-1.559,7.153,22.0
76.297,-1.817,10.547,17.0
63.922,-1.509,8.471,27.0
76.936,-1.8,9.758,24.0
75.916,-1.76,9.19,17.0
65.134,-1.496,7.515,8.0
65.244,-1.486,7.159,16.0
64.029,-1.45,8.843,16.0
63.997,-1.436,8.473,31.0
73.504,-1.633,9.312,20.0
75.838,-1.67,9.169,13.0
65.032,-1.418,7.493,17.0
65.026,-1.405,7.124,16.0
64.047,-1.375,8.834,22.0
64.089,-1.363,8.473,29.0
73.46,-1.547,9.293,38.0
74.059,-1.544,8.939,10.0
65.003,-1.343,7.477,12.0
64.937,-1.328,7.101,21.0
58.38,-0.132,7.47,33.0
57.146,-0.121,6.979,29.0
59.76,-0.117,6.951,28.0
57.438,-0.105,6.342,24.0
57.09,-0.095,5.974,30.0
56.834,-0.087,5.619,24.0
58.091,-0.072,7.375,33.0
57.223,-0.062,6.931,31.0
59.826,-0.057,6.899,21.0
57.506,-0.047,6.292,29.0
56.833,-0.037,5.89,25.0
56.895,-0.03,5.568,27.0
57.797,-0.013,7.278,33.0
57.329,-0.005,6.885,31.0
56.331,0.002,6.438,18.0
57.424,0.01,6.224,30.0
56.966,0.017,5.844,30.0
57.019,0.025,5.52,26.0
58.278,0.043,7.276,33.0
57.316,0.051,6.822,29.0
56.395,0.057,6.384,22.0
57.424,0.066,6.161,31.0
56.967,0.074,5.782,28.0
57.265,0.082,5.481,31.0
57.799,0.099,7.152,33.0
57.265,0.106,6.752,28.0
56.451,0.112,6.327,26.0
57.336,0.121,6.087,31.0
57.169,0.128,5.738,30.0
56.577,0.134,5.352,25.0
57.343,0.153,7.03,29.0
57.347,0.16,6.696,21.0
56.375,0.164,6.254,24.0
57.13,0.173,6.0,25.0
57.212,0.18,5.677,30.0
56.609,0.185,5.29,27.0
57.697,0.206,7.005,20.0
60.09,0.222,6.945,7.0
56.446,0.216,6.195,29.0
57.115,0.225,5.93,31.0
57.194,0.233,5.606,28.0
57.12,0.239,5.268,31.0
57.486,0.258,6.909,16.0
56.613,0.26,6.473,30.0
56.571,0.267,6.138,30.0
57.121,0.277,5.86,27.0
56.948,0.282,5.511,30.0
0.0,0.0,0.0,0.0
57.513,0.308,6.84,18.0
56.569,0.31,6.397,30.0
56.997,0.319,6.112,31.0
57.276,0.326,5.803,28.0
56.689,0.33,5.414,30.0
58.197,0.345,5.221,25.0
57.58,0.358,6.773,23.0
56.676,0.359,6.335,7.0
57.365,0.369,6.077,29.0
0.0,0.0,0.0,0.0
56.639,0.376,5.335,29.0
58.742,0.397,5.192,27.0
57.206,0.404,6.652,32.0
56.656,0.405,6.256,5.0
57.3,0.416,5.993,31.0
57.902,0.427,5.712,32.0
56.664,0.423,5.261,29.0
0.0,0.0,0.0,0.0
56.821,0.446,6.529,23.0
56.84,0.452,6.199,16.0
57.272,0.461,5.911,28.0
57.458,0.468,5.589,32.0
57.342,0.473,5.244,31.0
57.385,0.479,4.915,23.0
57.025,0.493,6.472,32.0
57.142,0.499,6.15,17.0
57.529,0.508,5.856,21.0
56.941,0.508,5.458,31.0
57.288,0.516,5.158,30.0
57.295,0.522,4.826,21.0
52.591,0.494,5.892,18.0
57.416,0.544,6.097,21.0
58.094,0.556,5.83,26.0
56.638,0.547,5.347,30.0
57.412,0.559,5.086,20.0
62.608,0.615,5.182,10.0
52.625,0.533,5.819,19.0
57.492,0.587,6.02,9.0
57.724,0.594,5.706,26.0
56.519,0.586,5.252,29.0
57.3,0.598,4.99,16.0
62.712,0.661,5.097,36.0
57.348,0.62,6.254,26.0
50.138,0.546,5.174,21.0
57.762,0.634,5.622,31.0
57.329,0.633,5.24,31.0
62.788,0.698,5.373,20.0
62.551,0.701,4.989,31.0
50.5,0.58,5.43,14.0
57.935,0.669,5.889,18.0
57.212,0.665,5.481,31.0
57.232,0.669,5.143,16.0
62.695,0.738,5.268,29.0
62.883,0.744,4.918,16.0
50.339,0.61,5.332,21.0
57.901,0.706,5.793,30.0
56.771,0.696,5.349,30.0
62.936,0.775,5.556,12.0
62.65,0.775,5.165,34.0
82.623,1.028,6.331,12.0
50.227,0.639,5.24,19.0
57.706,0.738,5.681,27.0
56.765,0.73,5.256,29.0
62.773,0.81,5.441,21.0
62.76,0.814,5.073,21.0
82.645,1.076,6.2,22.0
50.163,0.667,5.152,11.0
57.217,0.764,5.541,27.0
57.853,0.776,5.263,31.0
59.106,0.796,5.026,21.0
63.353,0.856,5.018,16.0
76.293,1.035,5.599,27.0
63.088,0.873,6.374,16.0
56.953,0.791,5.42,30.0
59.033,0.823,5.272,27.0
59.114,0.827,4.928,30.0
59.037,0.828,4.577,21.0
76.331,1.075,5.474,30.0
56.977,0.817,5.661,6.0
56.817,0.817,5.312,30.0
58.895,0.85,5.162,33.0
59.093,0.855,4.828,27.0
76.209,1.107,5.782,12.0
76.884,1.12,5.384,18.0
57.384,0.85,5.604,15.0
57.415,0.853,5.269,31.0
58.926,0.878,5.063,33.0
59.103,0.883,4.727,29.0
77.176,1.156,5.722,32.0
76.662,1.151,5.237,26.0
57.134,0.872,5.48,25.0
57.404,0.878,5.168,27.0
59.13,0.906,4.977,31.0
59.093,0.908,4.622,24.0
77.265,1.19,5.594,17.0
76.708,1.183,5.107,10.0
57.094,0.894,5.375,27.0
58.498,0.918,5.163,26.0
59.166,0.931,4.876,26.0
83.672,1.318,6.398,6.0
77.0,1.215,5.438,16.0
89.061,1.407,5.771,11.0
57.402,0.921,5.301,21.0
58.938,0.947,5.097,33.0
59.068,0.95,4.762,20.0
83.399,1.344,6.228,22.0
76.705,1.238,5.28,22.0
88.645,1.432,5.584,5.0
57.33,0.939,5.19,25.0
62.408,1.023,5.283,26.0
63.262,1.039,4.985,7.0
83.361,1.37,6.073,22.0
89.281,1.468,5.983,11.0
85.187,1.403,5.213,12.0
57.336,0.956,5.086,15.0
59.209,0.988,4.906,10.0
83.426,1.394,6.423,12.0
88.455,1.479,6.284,15.0
84.795,1.418,5.529,9.0
85.081,1.424,5.052,9.0
59.068,1.001,5.131,26.0
82.685,1.402,6.697,13.0
83.397,1.414,6.266,26.0
76.686,1.301,5.305,17.0
83.92,1.424,5.316,12.0
85.383,1.449,4.911,8.0
62.599,1.075,5.321,19.0
63.274,1.087,5.007,15.0
88.486,1.52,6.484,13.0
89.419,1.536,6.021,11.0
84.365,1.449,5.188,15.0
85.084,1.461,4.736,8.0
82.862,1.439,6.887,12.0
76.904,1.335,5.941,7.0
76.683,1.331,5.475,11.0
83.928,1.456,5.492,10.0
85.044,1.475,5.068,15.0
89.076,1.544,4.788,10.0
82.778,1.451,6.721,13.0
83.436,1.461,6.286,16.0
76.718,1.342,5.331,18.0
83.867,1.467,5.329,12.0
85.217,1.489,4.917,16.0
91.779,1.604,4.761,12.0
63.249,1.116,5.015,19.0
88.499,1.56,6.498,14.0
89.328,1.573,6.035,11.0
84.058,1.479,5.18,17.0
85.086,1.495,4.747,14.0
91.083,1.599,4.55,15.0
76.921,1.363,5.95,10.0
76.705,1.358,5.483,18.0
83.831,1.482,5.502,10.0
85.041,1.501,5.075,16.0
89.088,1.571,4.796,6.0
90.991,1.603,4.368,16.0
83.558,1.484,6.3,10.0
76.724,1.36,5.335,13.0
83.854,1.485,5.34,13.0
85.13,1.505,4.915,15.0
91.736,1.619,4.761,13.0
91.056,1.605,4.195,6.0
88.462,1.572,6.497,16.0
89.322,1.584,6.036,10.0
84.049,1.487,5.188,18.0
85.05,1.503,4.744,13.0
91.121,1.607,4.55,16.0
0.0,0.0,0.0,0.0
76.701,1.36,5.481,22.0
83.804,1.483,5.498,11.0
85.001,1.5,5.08,17.0
89.066,1.569,4.793,6.0
91.002,1.6,4.366,15.0
0.0,0.0,0.0,0.0
76.698,1.354,5.329,11.0
83.885,1.478,5.338,12.0
85.201,1.497,4.923,15.0
91.836,1.61,4.76,12.0
91.051,1.592,4.187,5.0
0.0,0.0,0.0,0.0
89.318,1.567,6.028,12.0
84.06,1.471,5.18,15.0
85.079,1.485,4.746,11.0
91.079,1.585,4.54,13.0
0.0,0.0,0.0,0.0
0.0,0.0,0.0,0.0
83.828,1.458,5.489,6.0
85.062,1.475,5.073,14.0
89.14,1.541,4.794,10.0
76.601,1.32,3.665,7.0
0.0,0.0,0.0,0.0
0.0,0.0,0.0,0.0
83.883,1.443,5.325,13.0
85.33,1.463,4.917,11.0
76.663,1.31,3.969,8.0
76.562,1.303,3.509,9.0
0.0,0.0,0.0,0.0
54.96,0.929,1.877,5.0
85.014,1.443,5.225,16.0
76.64,1.296,4.262,7.0
76.611,1.291,3.813,16.0
0.0,0.0,0.0,0.0
0.0,0.0,0.0,0.0
55.164,0.918,1.774,1.0
76.61,1.28,4.555,7.0
76.627,1.275,4.107,16.0
76.55,1.268,3.654,31.0
0.0,0.0,0.0,0.0
0.0,0.0,0.0,0.0
55.144,0.902,1.662,0.0
76.591,1.256,4.398,17.0
76.56,1.25,3.949,25.0
76.546,1.244,3.501,29.0
55.626,0.9,2.213,1.0
55.268,0.89,1.877,0.0
55.237,0.885,1.553,0.0
76.575,1.229,4.242,23.0
76.543,1.223,3.792,31.0
76.24,1.212,3.332,0.0
55.694,0.881,2.103,0.0
55.191,0.869,1.763,0.0
55.378,0.867,1.446,0.0
76.542,1.2,4.086,22.0
76.538,1.194,3.639,35.0
0.0,0.0,0.0,0.0
0.0,0.0,0.0,0.0
55.474,0.851,1.661,0.0
0.0,0.0,0.0,0.0
76.54,1.168,3.932,32.0
76.549,1.161,3.485,35.0
55.925,0.843,2.219,0.0
0.0,0.0,0.0,0.0
0.0,0.0,0.0,0.0
0.0,0.0,0.0,0.0
76.545,1.133,3.776,32.0
76.569,1.125,3.33,10.0
0.0,0.0,0.0,0.0
55.776,0.809,1.769,0.0
55.951,0.806,1.448,0.0
0.0,0.0,0.0,0.0
76.611,1.096,3.625,29.0
0.0,0.0,0.0,0.0
0.0,0.0,0.0,0.0
55.977,0.783,1.662,0.0
0.0,0.0,0.0,0.0
0.0,0.0,0.0,0.0
76.629,1.054,3.47,15.0
0.0,0.0,0.0,0.0
55.845,0.756,1.877,0.0
56.302,0.756,1.558,0.0
0.0,0.0,0.0,0.0
0.0,0.0,0.0,0.0
108.981,1.437,4.715,14.0
0.0,0.0,0.0,0.0
56.288,0.73,1.778,0.0
56.386,0.724,1.446,2.0
0.0,0.0,0.0,0.0
37.915,0.479,0.531,0.0
108.551,1.365,4.478,7.0
56.357,0.702,1.995,0.0
56.411,0.696,1.668,1.0
57.473,0.702,1.359,1.0
0.0,0.0,0.0,0.0
0.0,0.0,0.0,0.0
108.201,1.289,4.245,1.0
56.699,0.669,1.894,0.0
56.759,0.662,1.565,1.0
53.656,0.619,1.161,0.0
0.0,0.0,0.0,0.0
33.868,0.383,0.338,0.0
0.0,0.0,0.0,0.0
57.095,0.634,1.792,0.0
57.432,0.63,1.468,0.0
0.0,0.0,0.0,0.0
37.762,0.404,0.521,0.0
32.177,0.341,0.257,0.0
57.413,0.603,2.023,0.0
57.145,0.592,1.68,0.0
0.0,0.0,0.0,0.0
0.0,0.0,0.0,0.0
35.928,0.358,0.425,0.0
28.975,0.285,0.174,0.0
58.018,0.565,1.929,0.0
57.838,0.555,1.586,2.0
0.0,0.0,0.0,0.0
0.0,0.0,0.0,0.0
33.826,0.311,0.333,0.0
28.836,0.261,0.116,6.0
58.038,0.519,1.816,1.0
57.932,0.51,1.474,0.0
0.0,0.0,0.0,0.0
39.148,0.333,0.536,0.0
0.0,0.0,0.0,0.0
28.405,0.233,0.058,1.0
75.937,0.616,2.226,5.0
0.0,0.0,0.0,0.0
0.0,0.0,0.0,0.0
35.92,0.275,0.422,0.0
28.922,0.217,0.171,0.0
26.806,0.197,0.003,0.0
74.896,0.542,2.05,3.0
0.0,0.0,0.0,0.0
0.0,0.0,0.0,0.0
33.687,0.228,0.33,0.0
28.784,0.19,0.114,1.0
25.737,0.166,-0.046,0.0
0.0,0.0,0.0,0.0
0.0,0.0,0.0,0.0
38.308,0.23,0.527,0.0
0.0,0.0,0.0,0.0
27.861,0.158,0.057,0.0
24.943,0.138,-0.094,0.0
0.0,0.0,0.0,0.0
0.0,0.0,0.0,0.0
35.622,0.18,0.422,0.0
0.0,0.0,0.0,0.0
26.804,0.126,0.003,0.0
23.463,0.107,-0.133,0.0
0.0,0.0,0.0,0.0
40.195,0.17,0.633,0.0
0.0,0.0,0.0,0.0
28.758,0.112,0.116,1.0
25.657,0.095,-0.045,0.0
22.562,0.08,-0.17,1.0
0.0,0.0,0.0,0.0
37.33,0.121,0.518,0.0
32.027,0.098,0.258,0.0
28.302,0.081,0.061,1.0
24.683,0.066,-0.09,0.0
21.405,0.054,-0.202,4.0
0.0,0.0,0.0,0.0
35.959,0.078,0.431,0.0
30.347,0.06,0.187,0.0
26.783,0.048,0.007,0.0
23.689,0.039,-0.131,1.0
20.759,0.03,-0.235,0.0
0.0,0.0,0.0,0.0
33.458,0.037,0.339,0.0
28.777,0.026,0.124,1.0
25.794,0.019,-0.04,0.0
22.693,0.012,-0.167,0.0
19.492,0.007,-0.256,0.0
37.684,0.006,0.531,0.0
33.162,0.0,0.275,0.0
28.279,-0.005,0.07,1.0
24.886,-0.009,-0.084,0.0
21.443,-0.012,-0.197,2.0
18.548,-0.014,-0.278,0.0
36.263,-0.034,0.445,0.0
30.428,-0.034,0.197,0.0
26.999,-0.036,0.018,0.0
23.81,-0.036,-0.124,1.0
20.714,-0.036,-0.228,0.0
17.956,-0.034,-0.302,0.0
33.286,-0.07,0.349,0.0
28.823,-0.067,0.135,6.0
26.016,-0.065,-0.028,0.0
22.96,-0.062,-0.16,0.0
19.656,-0.057,-0.251,0.0
17.374,-0.054,-0.323,0.0
0.0,0.0,0.0,0.0
28.636,-0.1,0.084,4.0
25.047,-0.093,-0.071,0.0
21.834,-0.085,-0.191,0.0
18.86,-0.078,-0.274,0.0
16.836,-0.073,-0.342,0.0
31.069,-0.141,0.216,1.0
27.343,-0.129,0.032,0.0
24.071,-0.119,-0.11,0.0
21.088,-0.109,-0.221,0.0
18.191,-0.097,-0.296,0.0
16.514,-0.092,-0.365,0.0
28.846,-0.167,0.151,5.0
26.155,-0.157,-0.014,0.0
23.081,-0.143,-0.146,0.0
19.793,-0.127,-0.241,0.0
17.504,-0.116,-0.315,0.0
15.997,-0.109,-0.38,0.0
28.71,-0.203,0.102,5.0
25.251,-0.184,-0.056,0.0
22.269,-0.167,-0.178,0.0
19.164,-0.148,-0.266,0.0
16.976,-0.135,-0.334,0.0
15.671,-0.128,-0.399,0.0
27.728,-0.232,0.052,1.0
24.254,-0.209,-0.094,0.0
21.341,-0.188,-0.207,0.0
18.394,-0.166,-0.286,0.0
16.563,-0.153,-0.354,0.0
15.146,-0.144,-0.411,0.0
26.704,-0.26,0.005,0.0
23.698,-0.236,-0.131,0.0
20.341,-0.207,-0.23,0.0
17.752,-0.184,-0.305,0.0
16.199,-0.172,-0.372,0.0
14.697,-0.159,-0.423,0.0
25.761,-0.285,-0.035,0.0
22.768,-0.258,-0.163,0.0
19.421,-0.224,-0.251,0.0
17.235,-0.203,-0.324,0.0
15.897,-0.191,-0.391,0.0
14.43,-0.176,-0.438,0.0
24.748,-0.309,-0.074,0.0
21.963,-0.279,-0.192,1.0
18.681,-0.242,-0.271,0.0
16.77,-0.221,-0.342,0.0
15.462,-0.207,-0.405,0.0
14.073,-0.192,-0.45,0.0
23.869,-0.332,-0.108,0.0
20.897,-0.295,-0.216,0.0
18.071,-0.26,-0.291,0.0
16.429,-0.24,-0.361,0.0
14.932,-0.222,-0.414,0.0
13.777,-0.208,-0.462,0.0
23.458,-0.36,-0.143,1.0
19.874,-0.31,-0.236,0.0
17.56,-0.278,-0.309,0.0
16.03,-0.258,-0.377,0.0
14.66,-0.239,-0.429,0.0
13.545,-0.224,-0.475,0.0
22.393,-0.376,-0.17,0.0
19.241,-0.328,-0.257,0.0
17.118,-0.296,-0.327,0.0
15.7,-0.275,-0.393,0.0
14.359,-0.256,-0.442,0.0
13.244,-0.239,-0.484,0.0
21.815,-0.399,-0.198,0.0
18.452,-0.342,-0.274,0.0
16.69,-0.314,-0.344,0.0
15.382,-0.293,-0.407,0.0
14.026,-0.271,-0.452,0.0
13.04,-0.255,-0.496,0.0
13.298,-1.319,-0.479,0.0
12.366,-1.23,-0.514,0.0
11.681,-1.165,-0.55,0.0
10.957,-1.096,-0.577,0.0
10.355,-1.039,-0.602,0.0
9.825,-0.989,-0.626,0.0
13.347,-1.342,-0.475,0.0
12.468,-1.257,-0.513,0.0
11.701,-1.183,-0.545,0.0
11.028,-1.118,-0.576,0.0
0.0,0.0,0.0,0.0
9.887,-1.008,-0.625,0.0
13.42,-1.368,-0.472,0.0
12.46,-1.273,-0.507,0.0
11.726,-1.201,-0.541,0.0
10.98,-1.128,-0.568,0.0
10.449,-1.076,-0.598,0.0
9.926,-1.025,-0.623,0.0
13.517,-1.395,-0.469,0.0
12.629,-1.307,-0.507,0.0
11.836,-1.228,-0.54,0.0
11.101,-1.155,-0.569,0.0
10.474,-1.093,-0.594,0.0
10.015,-1.048,-0.623,0.0
13.699,-1.432,-0.468,0.0
12.711,-1.332,-0.504,0.0
11.913,-1.251,-0.537,0.0
11.162,-1.176,-0.566,0.0
10.631,-1.123,-0.597,0.0
10.041,-1.063,-0.619,0.0
13.697,-1.449,-0.46,0.0
12.756,-1.352,-0.498,0.0
11.953,-1.27,-0.532,0.0
11.335,-1.208,-0.568,0.0
10.636,-1.136,-0.591,0.0
10.095,-1.081,-0.617,0.0
13.807,-1.477,-0.456,0.0
12.854,-1.379,-0.495,0.0
12.051,-1.296,-0.53,0.0
11.353,-1.223,-0.562,0.0
10.731,-1.159,-0.59,0.0
10.198,-1.104,-0.617,0.0
13.906,-1.504,-0.451,0.0
12.889,-1.398,-0.488,0.0
12.133,-1.319,-0.526,0.0
11.423,-1.244,-0.558,0.0
10.838,-1.183,-0.589,0.0
10.136,-1.109,-0.606,0.0
14.03,-1.534,-0.446,0.0
13.054,-1.431,-0.486,0.0
12.236,-1.344,-0.522,0.0
11.493,-1.265,-0.554,0.0
10.791,-1.191,-0.579,0.0
10.245,-1.133,-0.606,0.0
14.191,-1.568,-0.441,0.0
13.202,-1.462,-0.482,0.0
12.352,-1.37,-0.518,0.0
11.572,-1.287,-0.55,0.0
10.921,-1.217,-0.578,0.0
10.35,-1.156,-0.605,0.0
14.264,-1.591,-0.433,0.0
13.401,-1.498,-0.48,0.0
12.418,-1.391,-0.512,0.0
11.718,-1.315,-0.548,0.0
11.038,-1.241,-0.577,0.0
10.381,-1.17,-0.599,0.0
14.507,-1.634,-0.43,0.0
13.44,-1.516,-0.471,0.0
12.539,-1.418,-0.508,0.0
11.801,-1.337,-0.543,0.0
11.095,-1.259,-0.571,0.0
10.583,-1.204,-0.603,0.0
14.604,-1.659,-0.422,0.0
13.561,-1.544,-0.465,0.0
12.657,-1.443,-0.503,0.0
11.88,-1.357,-0.538,0.0
11.258,-1.289,-0.571,0.0
10.612,-1.217,-0.596,0.0
14.817,-1.698,-0.416,0.0
13.709,-1.574,-0.459,0.0
12.75,-1.466,-0.496,0.0
12.006,-1.383,-0.534,0.0
11.385,-1.314,-0.568,0.0
10.632,-1.23,-0.588,0.0
15.035,-1.737,-0.41,1.0
13.837,-1.602,-0.452,0.0
12.907,-1.497,-0.492,0.0
12.118,-1.408,-0.529,0.0
11.373,-1.323,-0.558,0.0
10.718,-1.249,-0.584,0.0
15.067,-1.755,-0.398,1.0
14.023,-1.636,-0.446,0.0
13.027,-1.522,-0.485,0.0
12.271,-1.436,-0.525,0.0
11.561,-1.355,-0.557,0.0
10.87,-1.277,-0.583,0.0
15.361,-1.802,-0.392,0.0
14.221,-1.671,-0.44,0.0
13.23,-1.557,-0.481,0.0
12.381,-1.459,-0.519,0.0
11.655,-1.376,-0.551,0.0
10.959,-1.296,-0.578,0.0
15.62,-1.845,-0.385,0.0
14.393,-1.703,-0.433,0.0
13.358,-1.583,-0.474,0.0
12.459,-1.479,-0.511,0.0
11.764,-1.398,-0.546,0.0
11.086,-1.32,-0.574,0.0
15.921,-1.894,-0.378,0.0
14.638,-1.743,-0.427,0.0
13.565,-1.618,-0.469,0.0
12.604,-1.505,-0.505,0.0
11.893,-1.422,-0.541,0.0
11.219,-1.344,-0.571,0.0
16.26,-1.946,-0.371,0.0
14.842,-1.778,-0.419,0.0
13.737,-1.648,-0.462,0.0
12.743,-1.531,-0.498,0.0
11.985,-1.442,-0.533,0.0
11.365,-1.369,-0.567,0.0
16.492,-1.985,-0.361,0.0
15.022,-1.811,-0.409,0.0
13.896,-1.677,-0.454,0.0
12.87,-1.555,-0.491,0.0
12.153,-1.47,-0.529,0.0
11.471,-1.39,-0.562,0.0
16.804,-2.034,-0.351,0.0
15.221,-1.844,-0.4,0.0
14.01,-1.7,-0.444,0.0
12.998,-1.579,-0.483,0.0
12.342,-1.501,-0.525,0.0
11.631,-1.416,-0.558,0.0
17.093,-2.08,-0.34,0.0
15.52,-1.89,-0.392,0.0
14.291,-1.742,-0.438,0.0
13.311,-1.625,-0.481,0.0
12.415,-1.517,-0.516,0.0
11.718,-1.434,-0.55,0.0
17.382,-2.125,-0.328,0.0
15.776,-1.93,-0.383,0.0
14.515,-1.778,-0.43,0.0
13.442,-1.648,-0.472,0.0
12.581,-1.544,-0.51,0.0
11.871,-1.459,-0.545,0.0
17.639,-2.166,-0.315,0.0
16.133,-1.983,-0.375,0.0
14.746,-1.814,-0.422,0.0
13.661,-1.682,-0.466,0.0
12.726,-1.568,-0.502,0.0
12.054,-1.487,-0.541,0.0
18.042,-2.224,-0.304,0.0
16.492,-2.035,-0.366,0.0
14.97,-1.848,-0.413,0.0
13.855,-1.712,-0.458,0.0
12.854,-1.59,-0.494,0.0
12.181,-1.508,-0.534,0.0
18.52,-2.291,-0.292,0.0
16.758,-2.075,-0.354,0.0
15.209,-1.884,-0.403,0.0
14.049,-1.742,-0.449,0.0
13.051,-1.619,-0.488,0.0
12.293,-1.527,-0.525,0.0
19.143,-2.376,-0.281,0.0
17.024,-2.114,-0.342,0.0
15.492,-1.925,-0.394,0.0
14.238,-1.771,-0.44,0.0
13.325,-1.658,-0.483,0.0
12.452,-1.551,-0.519,0.0
19.557,-2.434,-0.266,0.0
17.404,-2.167,-0.331,0.0
15.739,-1.961,-0.383,0.0
14.536,-1.812,-0.433,0.0
13.493,-1.683,-0.475,0.0
12.689,-1.584,-0.515,0.0
20.283,-2.531,-0.254,0.0
17.768,-2.218,-0.318,0.0
16.124,-2.014,-0.375,0.0
14.747,-1.843,-0.424,0.0
13.676,-1.71,-0.466,0.0
12.709,-1.59,-0.502,0.0
20.766,-2.597,-0.237,1.0
18.092,-2.263,-0.304,0.0
16.52,-2.067,-0.366,0.0
14.986,-1.876,-0.414,0.0
13.926,-1.744,-0.459,0.0
12.944,-1.622,-0.496,0.0
21.049,-2.637,-0.217,0.0
18.721,-2.346,-0.293,0.0
16.807,-2.107,-0.353,0.0
15.286,-1.917,-0.405,0.0
14.102,-1.769,-0.449,0.0
13.1,-1.644,-0.487,0.0
22.386,-2.808,-0.206,4.0
19.219,-2.411,-0.28,0.0
17.154,-2.153,-0.341,0.0
15.526,-1.949,-0.394,0.0
14.304,-1.796,-0.439,0.0
13.352,-1.677,-0.482,0.0
22.461,-2.82,-0.181,4.0
19.628,-2.465,-0.263,0.0
17.504,-2.199,-0.328,0.0
15.849,-1.991,-0.384,0.0
14.621,-1.837,-0.432,0.0
13.526,-1.7,-0.473,0.0
22.657,-2.847,-0.157,2.0
20.577,-2.586,-0.253,0.0
17.832,-2.241,-0.314,0.0
16.214,-2.038,-0.374,0.0
14.856,-1.867,-0.422,0.0
13.721,-1.725,-0.464,0.0
23.843,-2.997,-0.138,1.0
20.804,-2.615,-0.232,1.0
18.272,-2.296,-0.301,0.0
16.519,-2.076,-0.362,0.0
15.138,-1.903,-0.413,0.0
13.961,-1.755,-0.456,0.0
24.468,-3.075,-0.113,1.0
22.237,-2.794,-0.222,4.0
18.903,-2.375,-0.29,0.0
16.862,-2.119,-0.35,0.0
15.271,-1.919,-0.399,0.0
14.236,-1.789,-0.448,0.0
25.495,-3.203,-0.089,5.0
22.418,-2.815,-0.198,5.0
19.378,-2.433,-0.275,0.0
17.239,-2.164,-0.338,0.0
15.697,-1.971,-0.392,0.0
14.471,-1.817,-0.439,0.0
25.538,-3.205,-0.059,12.0
22.477,-2.82,-0.172,3.0
20.099,-2.521,-0.262,0.0
17.603,-2.208,-0.325,0.0
16.027,-2.01,-0.382,0.0
14.744,-1.849,-0.43,0.0
25.557,-3.204,-0.03,13.0
23.24,-2.912,-0.151,0.0
20.713,-2.595,-0.246,1.0
17.923,-2.245,-0.31,0.0
16.371,-2.05,-0.371,0.0
14.965,-1.873,-0.419,0.0
25.569,-3.2,0.0,14.0
24.122,-3.018,-0.129,1.0
21.702,-2.714,-0.232,2.0
18.461,-2.308,-0.298,0.0
16.769,-2.095,-0.36,0.0
15.185,-1.897,-0.407,0.0
25.587,-3.196,0.029,12.0
25.341,-3.164,-0.106,3.0
22.152,-2.764,-0.212,8.0
19.175,-2.392,-0.287,0.0
17.109,-2.133,-0.348,0.0
15.5,-1.932,-0.398,0.0
25.604,-3.191,0.058,11.0
25.597,-3.188,-0.078,6.0
22.252,-2.77,-0.187,5.0
19.54,-2.431,-0.27,0.0
17.474,-2.173,-0.335,0.0
15.784,-1.962,-0.387,0.0
25.699,-3.194,0.088,6.0
25.635,-3.184,-0.048,11.0
22.269,-2.764,-0.161,4.0
20.529,-2.546,-0.261,0.0
17.765,-2.202,-0.32,0.0
16.119,-1.997,-0.377,0.0
26.054,-3.228,0.119,6.0
25.66,-3.177,-0.02,9.0
22.215,-2.748,-0.136,5.0
20.895,-2.583,-0.241,0.0
18.204,-2.249,-0.308,0.0
16.652,-2.056,-0.371,0.0
26.287,-3.245,0.149,6.0
25.685,-3.168,0.009,4.0
22.207,-2.737,-0.11,9.0
22.144,-2.727,-0.231,1.0
18.79,-2.312,-0.296,0.0
16.873,-2.075,-0.357,0.0
26.161,-3.218,0.178,3.0
25.708,-3.159,0.037,8.0
22.203,-2.726,-0.086,14.0
22.173,-2.72,-0.206,2.0
19.343,-2.371,-0.284,0.0
17.173,-2.103,-0.344,0.0
26.147,-3.202,0.207,1.0
25.794,-3.156,0.066,1.0
22.199,-2.713,-0.061,17.0
22.181,-2.709,-0.182,4.0
19.717,-2.405,-0.267,0.0
17.526,-2.136,-0.331,0.0
28.519,-3.477,0.258,0.0
22.17,-2.7,0.082,10.0
22.187,-2.699,-0.036,20.0
22.153,-2.692,-0.157,7.0
20.196,-2.452,-0.251,0.0
17.822,-2.161,-0.317,0.0
22.498,-2.729,0.228,8.0
22.159,-2.684,0.106,13.0
22.178,-2.684,-0.012,19.0
22.212,-2.685,-0.133,9.0
22.111,-2.67,-0.251,0.0
18.287,-2.206,-0.305,0.0
22.285,-2.688,0.25,12.0
22.139,-2.667,0.13,16.0
22.172,-2.668,0.011,19.0
22.319,-2.682,-0.109,12.0
22.19,-2.664,-0.228,3.0
18.918,-2.269,-0.296,0.0
22.123,-2.653,0.272,17.0
22.134,-2.651,0.154,16.0
22.173,-2.652,0.035,19.0
22.359,-2.671,-0.086,19.0
22.287,-2.659,-0.205,10.0
19.349,-2.306,-0.281,0.0
22.121,-2.636,0.296,22.0
22.12,-2.632,0.177,18.0
22.162,-2.634,0.059,18.0
22.378,-2.656,-0.062,11.0
22.346,-2.649,-0.182,9.0
19.771,-2.34,-0.267,0.0
22.115,-2.618,0.319,21.0
22.115,-2.614,0.201,18.0
22.166,-2.616,0.082,17.0
22.4,-2.64,-0.038,15.0
22.473,-2.645,-0.159,6.0
20.136,-2.367,-0.25,0.0
22.121,-2.6,0.342,20.0
22.127,-2.597,0.224,16.0
