X,Y,Z,Reflectivity
0.0,0.0,0.0,0.0
0.0,0.0,0.0,0.0
7.459,-0.447,-0.729,0.0
7.178,-0.432,-0.742,0.0
6.874,-0.415,-0.748,0.0
0.0,0.0,0.0,0.0
0.0,0.0,0.0,0.0
0.0,0.0,0.0,0.0
7.505,-0.458,-0.731,0.0
7.197,-0.441,-0.741,0.0
6.973,-0.429,-0.756,0.0
0.0,0.0,0.0,0.0
0.0,0.0,0.0,0.0
0.0,0.0,0.0,0.0
0.0,0.0,0.0,0.0
7.233,-0.451,-0.741,0.0
0.0,0.0,0.0,0.0
6.658,-0.418,-0.757,0.0
0.0,0.0,0.0,0.0
0.0,0.0,0.0,0.0
0.0,0.0,0.0,0.0
7.254,-0.46,-0.74,0.0
0.0,0.0,0.0,0.0
6.709,-0.428,-0.76,0.0
6.486,-0.415,-0.77,0.0
0.0,0.0,0.0,0.0
0.0,0.0,0.0,0.0
7.306,-0.47,-0.742,0.0
7.022,-0.454,-0.752,0.0
6.758,-0.438,-0.762,0.0
0.0,0.0,0.0,0.0
0.0,0.0,0.0,0.0
0.0,0.0,0.0,0.0
7.291,-0.477,-0.736,0.0
0.0,0.0,0.0,0.0
6.764,-0.445,-0.759,0.0
0.0,0.0,0.0,0.0
6.342,-0.42,-0.782,0.0
0.0,0.0,0.0,0.0
7.346,-0.488,-0.738,0.0
7.049,-0.469,-0.747,0.0
6.79,-0.454,-0.757,0.0
6.56,-0.44,-0.768,0.0
0.0,0.0,0.0,0.0
7.676,-0.515,-0.724,0.0
0.0,0.0,0.0,0.0
7.005,-0.473,-0.738,0.0
6.789,-0.46,-0.753,0.0
6.568,-0.446,-0.765,0.0
0.0,0.0,0.0,0.0
7.719,-0.525,-0.723,0.0
0.0,0.0,0.0,0.0
7.118,-0.487,-0.745,0.0
6.795,-0.466,-0.749,0.0
6.61,-0.455,-0.765,0.0
6.395,-0.442,-0.776,0.0
7.735,-0.533,-0.719,0.0
0.0,0.0,0.0,0.0
7.137,-0.495,-0.742,0.0
0.0,0.0,0.0,0.0
6.649,-0.464,-0.765,0.0
6.42,-0.449,-0.774,0.0
0.0,0.0,0.0,0.0
0.0,0.0,0.0,0.0
7.169,-0.503,-0.74,0.0
0.0,0.0,0.0,0.0
6.664,-0.47,-0.761,0.0
6.466,-0.458,-0.774,0.0
0.0,0.0,0.0,0.0
0.0,0.0,0.0,0.0
7.245,-0.515,-0.742,0.0
0.0,0.0,0.0,0.0
6.718,-0.48,-0.762,0.0
6.482,-0.464,-0.771,0.0
0.0,0.0,0.0,0.0
7.576,-0.543,-0.728,0.0
7.261,-0.522,-0.737,0.0
0.0,0.0,0.0,0.0
6.794,-0.491,-0.765,0.0
6.511,-0.471,-0.769,0.0
7.9,-0.571,-0.709,0.0
0.0,0.0,0.0,0.0
7.31,-0.531,-0.736,0.0
0.0,0.0,0.0,0.0
6.785,-0.495,-0.758,0.0
6.569,-0.481,-0.77,0.0
7.943,-0.58,-0.706,0.0
0.0,0.0,0.0,0.0
0.0,0.0,0.0,0.0
0.0,0.0,0.0,0.0
6.827,-0.503,-0.757,0.0
6.587,-0.487,-0.766,0.0
7.994,-0.59,-0.704,0.0
0.0,0.0,0.0,0.0
0.0,0.0,0.0,0.0
0.0,0.0,0.0,0.0
0.0,0.0,0.0,0.0
6.625,-0.494,-0.764,0.0
8.077,-0.601,-0.703,0.0
0.0,0.0,0.0,0.0
0.0,0.0,0.0,0.0
7.18,-0.538,-0.743,0.0
0.0,0.0,0.0,0.0
6.699,-0.504,-0.766,0.0
8.157,-0.613,-0.702,0.0
0.0,0.0,0.0,0.0
0.0,0.0,0.0,0.0
7.196,-0.544,-0.737,0.0
0.0,0.0,0.0,0.0
6.72,-0.51,-0.762,0.0
8.162,-0.618,-0.694,0.0
0.0,0.0,0.0,0.0
0.0,0.0,0.0,0.0
7.229,-0.551,-0.733,0.0
0.0,0.0,0.0,0.0
6.772,-0.518,-0.761,0.0
8.23,-0.628,-0.692,0.0
7.916,-0.605,-0.708,0.0
0.0,0.0,0.0,0.0
0.0,0.0,0.0,0.0
7.094,-0.546,-0.75,0.0
6.832,-0.527,-0.76,0.0
8.312,-0.639,-0.69,0.0
7.976,-0.614,-0.705,0.0
0.0,0.0,0.0,0.0
0.0,0.0,0.0,0.0
7.052,-0.546,-0.738,0.0
6.871,-0.533,-0.757,0.0
8.387,-0.649,-0.687,0.0
8.021,-0.622,-0.7,0.0
0.0,0.0,0.0,0.0
0.0,0.0,0.0,0.0
7.204,-0.562,-0.746,0.0
6.946,-0.542,-0.757,0.0
8.412,-0.655,-0.679,0.0
8.059,-0.629,-0.694,0.0
0.0,0.0,0.0,0.0
0.0,0.0,0.0,0.0
7.26,-0.569,-0.744,0.0
6.966,-0.547,-0.751,0.0
8.498,-0.666,-0.676,0.0
8.188,-0.643,-0.696,0.0
7.876,-0.619,-0.711,0.0
0.0,0.0,0.0,0.0
7.232,-0.57,-0.732,0.0
7.021,-0.554,-0.749,0.0
8.581,-0.676,-0.673,0.0
8.224,-0.649,-0.689,0.0
7.952,-0.628,-0.709,0.0
0.0,0.0,0.0,0.0
0.0,0.0,0.0,0.0
7.093,-0.563,-0.748,0.0
8.676,-0.687,-0.67,0.0
8.296,-0.657,-0.685,0.0
8.001,-0.635,-0.704,0.0
0.0,0.0,0.0,0.0
0.0,0.0,0.0,0.0
7.136,-0.569,-0.743,0.0
8.736,-0.694,-0.664,0.0
8.38,-0.667,-0.682,0.0
8.048,-0.641,-0.698,0.0
0.0,0.0,0.0,0.0
0.0,0.0,0.0,0.0
7.242,-0.579,-0.745,0.0
8.918,-0.712,-0.666,0.0
8.48,-0.677,-0.679,0.0
8.173,-0.654,-0.698,0.0
0.0,0.0,0.0,0.0
7.542,-0.605,-0.726,0.0
7.293,-0.585,-0.741,0.0
8.997,-0.72,-0.661,0.0
8.564,-0.686,-0.675,0.0
8.241,-0.661,-0.693,0.0
0.0,0.0,0.0,0.0
0.0,0.0,0.0,0.0
0.0,0.0,0.0,0.0
9.037,-0.725,-0.652,0.0
8.619,-0.692,-0.668,0.0
8.325,-0.669,-0.689,0.0
0.0,0.0,0.0,0.0
0.0,0.0,0.0,0.0
0.0,0.0,0.0,0.0
9.197,-0.74,-0.651,0.0
8.817,-0.71,-0.671,0.0
8.379,-0.675,-0.683,0.0
8.079,-0.652,-0.702,0.0
0.0,0.0,0.0,0.0
0.0,0.0,0.0,0.0
9.299,-0.749,-0.646,0.0
8.838,-0.713,-0.661,0.0
8.49,-0.685,-0.68,0.0
8.187,-0.661,-0.7,0.0
7.874,-0.636,-0.716,0.0
7.577,-0.613,-0.729,0.0
9.442,-0.762,-0.643,0.0
9.077,-0.733,-0.667,0.0
8.552,-0.691,-0.673,0.0
8.224,-0.665,-0.692,0.0
7.935,-0.642,-0.71,0.0
0.0,0.0,0.0,0.0
0.0,0.0,0.0,0.0
9.087,-0.734,-0.655,0.0
8.671,-0.701,-0.671,0.0
8.379,-0.678,-0.694,0.0
8.036,-0.65,-0.708,0.0
0.0,0.0,0.0,0.0
9.717,-0.785,-0.635,0.0
9.199,-0.743,-0.65,0.0
8.761,-0.708,-0.665,0.0
8.379,-0.678,-0.682,0.0
8.154,-0.66,-0.707,0.0
7.777,-0.63,-0.715,0.0
9.835,-0.794,-0.629,0.0
0.0,0.0,0.0,0.0
8.938,-0.722,-0.666,0.0
8.511,-0.688,-0.68,0.0
8.177,-0.661,-0.697,0.0
7.89,-0.638,-0.715,0.0
9.937,-0.802,-0.621,0.0
9.475,-0.765,-0.642,0.0
9.032,-0.729,-0.66,0.0
8.584,-0.693,-0.674,0.0
8.282,-0.669,-0.694,0.0
7.954,-0.642,-0.709,0.0
10.061,-0.811,-0.614,0.0
0.0,0.0,0.0,0.0
9.121,-0.735,-0.653,0.0
8.697,-0.701,-0.67,0.0
8.393,-0.676,-0.691,0.0
8.081,-0.652,-0.708,0.0
10.225,-0.822,-0.61,0.0
0.0,0.0,0.0,0.0
9.267,-0.745,-0.65,0.0
8.867,-0.713,-0.67,0.0
8.506,-0.684,-0.688,0.0
8.177,-0.658,-0.704,0.0
10.4,-0.834,-0.605,0.0
0.0,0.0,0.0,0.0
0.0,0.0,0.0,0.0
0.0,0.0,0.0,0.0
8.514,-0.683,-0.676,0.0
8.252,-0.662,-0.699,0.0
10.565,-0.845,-0.598,0.0
0.0,0.0,0.0,0.0
0.0,0.0,0.0,0.0
0.0,0.0,0.0,0.0
8.64,-0.69,-0.673,0.0
8.36,-0.668,-0.695,0.0
10.712,-0.854,-0.591,0.0
10.178,-0.811,-0.615,0.0
9.611,-0.766,-0.631,0.0
0.0,0.0,0.0,0.0
8.8,-0.7,-0.672,0.0
8.403,-0.669,-0.686,0.0
10.862,-0.862,-0.583,0.0
10.184,-0.808,-0.6,0.0
0.0,0.0,0.0,0.0
0.0,0.0,0.0,0.0
8.851,-0.701,-0.663,0.0
8.536,-0.676,-0.684,0.0
11.078,-0.875,-0.578,0.0
10.547,-0.833,-0.606,0.0
9.891,-0.781,-0.62,0.0
0.0,0.0,0.0,0.0
9.021,-0.711,-0.662,0.0
8.649,-0.682,-0.68,0.0
11.24,-0.884,-0.569,0.0
10.665,-0.838,-0.596,0.0
10.029,-0.787,-0.613,0.0
0.0,0.0,0.0,0.0
9.115,-0.715,-0.655,0.0
8.728,-0.684,-0.673,0.0
11.435,-0.894,-0.562,0.0
10.783,-0.842,-0.586,0.0
0.0,0.0,0.0,0.0
0.0,0.0,0.0,0.0
9.269,-0.722,-0.652,0.0
8.811,-0.686,-0.666,0.0
11.65,-0.905,-0.555,0.0
11.038,-0.857,-0.584,0.0
0.0,0.0,0.0,0.0
9.91,-0.768,-0.629,0.0
0.0,0.0,0.0,0.0
8.966,-0.693,-0.664,0.0
11.862,-0.915,-0.547,0.0
11.194,-0.863,-0.575,0.0
10.534,-0.811,-0.596,0.0
10.07,-0.774,-0.624,0.0
0.0,0.0,0.0,0.0
9.1,-0.698,-0.66,0.0
12.024,-0.921,-0.536,0.0
11.351,-0.868,-0.565,0.0
10.945,-0.836,-0.603,0.0
10.137,-0.773,-0.613,0.0
9.726,-0.741,-0.639,0.0
9.165,-0.697,-0.65,0.0
12.307,-0.935,-0.53,0.0
11.584,-0.878,-0.559,0.0
10.979,-0.831,-0.588,0.0
0.0,0.0,0.0,0.0
9.913,-0.749,-0.636,0.0
9.453,-0.713,-0.656,0.0
12.51,-0.941,-0.519,0.0
11.803,-0.887,-0.552,0.0
11.09,-0.832,-0.577,0.0
10.504,-0.787,-0.602,0.0
9.948,-0.744,-0.623,0.0
9.452,-0.706,-0.642,0.0
12.77,-0.952,-0.511,0.0
11.931,-0.888,-0.54,0.0
11.318,-0.841,-0.571,0.0
10.719,-0.795,-0.598,0.0
10.107,-0.749,-0.617,0.0
9.662,-0.715,-0.641,0.0
12.972,-0.957,-0.499,0.0
12.232,-0.901,-0.535,0.0
11.476,-0.844,-0.562,0.0
11.012,-0.808,-0.598,0.0
10.295,-0.754,-0.613,0.0
9.846,-0.72,-0.638,0.0
13.253,-0.967,-0.489,0.0
12.405,-0.904,-0.523,0.0
11.694,-0.85,-0.554,0.0
11.063,-0.803,-0.584,0.0
10.372,-0.751,-0.602,0.0
9.876,-0.714,-0.625,0.0
13.502,-0.974,-0.478,0.0
12.623,-0.909,-0.513,0.0
11.866,-0.853,-0.544,0.0
11.216,-0.804,-0.575,0.0
10.608,-0.759,-0.599,0.0
10.05,-0.718,-0.62,0.0
13.756,-0.98,-0.466,0.0
12.864,-0.915,-0.503,0.0
12.11,-0.859,-0.537,0.0
11.368,-0.805,-0.565,0.0
10.829,-0.765,-0.595,0.0
10.225,-0.721,-0.616,0.0
14.087,-0.991,-0.456,0.0
13.129,-0.921,-0.494,0.0
12.387,-0.867,-0.531,0.0
11.658,-0.814,-0.562,0.0
11.028,-0.768,-0.589,0.0
10.356,-0.72,-0.608,0.0
14.28,-0.991,-0.441,0.0
13.4,-0.927,-0.484,0.0
12.561,-0.867,-0.519,0.0
11.835,-0.815,-0.553,0.0
11.161,-0.767,-0.58,0.0
10.513,-0.72,-0.601,0.0
14.666,-1.003,-0.431,0.0
13.66,-0.932,-0.473,0.0
12.821,-0.872,-0.511,0.0
11.973,-0.812,-0.541,0.0
11.363,-0.769,-0.573,0.0
10.8,-0.729,-0.602,0.0
14.913,-1.004,-0.416,0.0
13.932,-0.935,-0.461,0.0
13.005,-0.871,-0.499,0.0
12.259,-0.818,-0.536,0.0
11.556,-0.769,-0.566,0.0
10.962,-0.728,-0.594,0.0
15.228,-1.009,-0.402,0.0
14.17,-0.936,-0.449,0.0
13.278,-0.874,-0.49,0.0
12.419,-0.815,-0.524,0.0
11.732,-0.768,-0.557,0.0
11.106,-0.725,-0.586,0.0
15.68,-1.021,-0.391,0.0
14.5,-0.941,-0.438,0.0
13.562,-0.877,-0.48,0.0
12.705,-0.819,-0.518,0.0
11.893,-0.765,-0.547,0.0
11.236,-0.72,-0.576,0.0
15.994,-1.023,-0.376,0.0
14.749,-0.94,-0.424,0.0
13.805,-0.877,-0.469,0.0
12.846,-0.813,-0.505,0.0
12.219,-0.771,-0.545,0.0
11.462,-0.721,-0.571,0.0
16.486,-1.034,-0.363,0.0
15.041,-0.94,-0.411,0.0
13.999,-0.872,-0.456,0.0
13.092,-0.813,-0.496,0.0
12.343,-0.764,-0.533,0.0
11.64,-0.718,-0.564,0.0
16.932,-1.041,-0.349,0.0
15.47,-0.948,-0.4,0.0
14.275,-0.871,-0.444,0.0
13.381,-0.814,-0.488,0.0
12.48,-0.756,-0.521,0.0
11.826,-0.714,-0.556,0.0
17.308,-1.042,-0.332,0.0
15.928,-0.955,-0.39,0.0
14.636,-0.874,-0.435,0.0
13.59,-0.809,-0.477,0.0
12.746,-0.756,-0.514,0.0
11.956,-0.706,-0.545,0.0
17.72,-1.043,-0.316,0.0
16.201,-0.95,-0.374,0.0
14.802,-0.865,-0.419,0.0
13.822,-0.804,-0.466,0.0
13.039,-0.755,-0.508,0.0
12.21,-0.704,-0.54,0.0
18.168,-1.045,-0.299,0.0
16.704,-0.957,-0.363,0.0
15.077,-0.86,-0.406,0.0
14.064,-0.799,-0.454,0.0
13.181,-0.745,-0.495,0.0
12.376,-0.697,-0.53,0.0
18.802,-1.056,-0.284,0.0
17.019,-0.951,-0.346,0.0
15.624,-0.869,-0.4,0.0
14.383,-0.797,-0.445,0.0
13.453,-0.742,-0.487,0.0
12.585,-0.691,-0.522,0.0
19.256,-1.054,-0.265,0.0
17.391,-0.947,-0.331,0.0
15.973,-0.866,-0.388,0.0
14.673,-0.791,-0.435,0.0
13.634,-0.732,-0.476,0.0
12.767,-0.682,-0.513,0.0
19.863,-1.058,-0.247,0.0
17.863,-0.946,-0.316,0.0
16.196,-0.854,-0.372,0.0
14.818,-0.777,-0.42,0.0
13.907,-0.726,-0.467,0.0
12.939,-0.672,-0.503,0.0
20.815,-1.078,-0.232,0.0
18.327,-0.944,-0.301,0.0
16.611,-0.851,-0.36,0.0
15.229,-0.776,-0.412,0.0
14.146,-0.717,-0.457,0.0
13.178,-0.664,-0.496,0.0
21.981,-1.104,-0.217,1.0
18.874,-0.943,-0.285,0.0
17.03,-0.846,-0.347,0.0
15.568,-0.769,-0.401,0.0
14.385,-0.707,-0.447,0.0
13.459,-0.657,-0.489,0.0
22.408,-1.09,-0.193,1.0
19.284,-0.933,-0.268,0.0
17.378,-0.836,-0.333,0.0
15.939,-0.762,-0.391,0.0
14.597,-0.694,-0.435,0.0
13.625,-0.644,-0.478,0.0
23.033,-1.084,-0.17,1.0
19.714,-0.922,-0.249,0.0
17.725,-0.824,-0.318,0.0
16.229,-0.75,-0.378,0.0
14.871,-0.683,-0.425,0.0
13.862,-0.632,-0.47,0.0
23.604,-1.073,-0.145,1.0
20.943,-0.946,-0.24,1.0
18.118,-0.813,-0.303,0.0
16.566,-0.738,-0.366,0.0
15.033,-0.665,-0.412,0.0
14.076,-0.619,-0.46,0.0
23.827,-1.044,-0.118,0.0
21.368,-0.929,-0.219,3.0
18.626,-0.804,-0.29,0.0
16.84,-0.722,-0.353,0.0
15.53,-0.661,-0.408,0.0
14.319,-0.606,-0.452,0.0
25.026,-1.054,-0.095,0.0
22.288,-0.932,-0.203,2.0
19.175,-0.796,-0.276,0.0
17.175,-0.707,-0.34,0.0
15.822,-0.647,-0.397,0.0
14.592,-0.592,-0.444,0.0
25.723,-1.039,-0.069,0.0
22.675,-0.909,-0.181,1.0
19.551,-0.778,-0.26,0.0
17.453,-0.689,-0.326,0.0
16.068,-0.629,-0.386,0.0
14.765,-0.573,-0.433,0.0
0.0,0.0,0.0,0.0
23.084,-0.885,-0.159,1.0
20.789,-0.79,-0.253,0.0
17.93,-0.676,-0.315,0.0
16.382,-0.612,-0.375,0.0
15.087,-0.559,-0.426,0.0
26.525,-0.978,-0.013,0.0
24.093,-0.881,-0.14,1.0
20.967,-0.76,-0.233,2.0
18.187,-0.653,-0.301,0.0
16.63,-0.592,-0.363,0.0
15.278,-0.539,-0.415,0.0
27.501,-0.964,0.014,0.0
24.588,-0.855,-0.117,0.0
21.224,-0.731,-0.214,1.0
18.793,-0.641,-0.291,0.0
16.897,-0.571,-0.352,0.0
15.63,-0.523,-0.409,0.0
28.232,-0.939,0.043,1.0
24.946,-0.821,-0.094,0.0
22.033,-0.719,-0.2,0.0
19.239,-0.621,-0.279,0.0
17.156,-0.548,-0.34,0.0
15.87,-0.502,-0.399,0.0
28.541,-0.897,0.072,1.0
25.369,-0.789,-0.07,0.0
22.724,-0.699,-0.184,0.0
19.561,-0.595,-0.265,0.0
17.542,-0.528,-0.331,0.0
16.117,-0.48,-0.39,0.0
28.61,-0.845,0.1,1.0
26.098,-0.762,-0.047,0.0
23.172,-0.669,-0.166,0.0
20.164,-0.575,-0.254,0.0
17.799,-0.502,-0.319,0.0
16.379,-0.457,-0.381,0.0
28.697,-0.793,0.127,1.0
26.418,-0.722,-0.024,0.0
23.418,-0.632,-0.146,0.0
20.856,-0.556,-0.243,0.0
18.102,-0.476,-0.308,0.0
16.55,-0.43,-0.37,0.0
28.758,-0.74,0.153,0.0
27.127,-0.689,0.0,0.0
23.916,-0.599,-0.128,0.0
21.398,-0.529,-0.231,0.0
18.286,-0.445,-0.295,0.0
16.741,-0.402,-0.36,0.0
31.034,-0.738,0.192,0.0
27.683,-0.649,0.023,0.0
24.379,-0.563,-0.109,0.0
21.914,-0.499,-0.218,0.0
18.86,-0.423,-0.288,0.0
16.942,-0.374,-0.35,0.0
31.603,-0.69,0.222,0.0
28.491,-0.612,0.047,1.0
24.689,-0.521,-0.09,2.0
22.257,-0.463,-0.203,0.0
19.231,-0.393,-0.278,0.0
17.182,-0.345,-0.341,0.0
32.847,-0.652,0.257,1.0
28.654,-0.559,0.07,5.0
25.651,-0.491,-0.074,0.0
22.625,-0.425,-0.189,0.0
19.483,-0.36,-0.267,0.0
17.445,-0.316,-0.333,0.0
33.254,-0.593,0.286,2.0
28.707,-0.502,0.093,1.0
25.95,-0.445,-0.055,0.0
23.117,-0.389,-0.175,0.0
19.804,-0.326,-0.257,0.0
17.681,-0.285,-0.324,0.0
33.864,-0.536,0.316,0.0
28.677,-0.444,0.113,0.0
26.21,-0.397,-0.037,0.0
23.362,-0.345,-0.161,1.0
20.232,-0.292,-0.248,0.0
17.899,-0.252,-0.316,0.0
33.965,-0.469,0.341,0.0
28.788,-0.387,0.134,0.0
26.47,-0.347,-0.019,0.0
23.336,-0.297,-0.144,0.0
20.673,-0.256,-0.239,0.0
18.201,-0.219,-0.309,0.0
35.023,-0.412,0.375,0.0
30.116,-0.344,0.16,0.0
27.059,-0.299,-0.002,0.0
24.061,-0.258,-0.133,0.0
21.147,-0.219,-0.231,0.0
18.412,-0.185,-0.301,0.0
35.568,-0.346,0.402,0.0
31.118,-0.292,0.184,0.0
27.5,-0.248,0.014,0.0
24.241,-0.21,-0.12,0.0
21.682,-0.18,-0.224,0.0
18.603,-0.148,-0.293,0.0
0.0,0.0,0.0,0.0
31.444,-0.23,0.205,1.0
27.934,-0.194,0.031,1.0
24.694,-0.163,-0.108,0.0
21.886,-0.136,-0.214,1.0
18.887,-0.111,-0.287,0.0
36.86,-0.205,0.46,0.0
31.495,-0.164,0.222,1.0
28.597,-0.139,0.047,2.0
24.952,-0.113,-0.096,0.0
21.992,-0.092,-0.203,0.0
19.016,-0.072,-0.278,0.0
0.0,0.0,0.0,0.0
31.632,-0.099,0.24,0.0
28.688,-0.079,0.062,5.0
25.327,-0.061,-0.084,0.0
22.138,-0.045,-0.193,0.0
19.299,-0.033,-0.273,0.0
0.0,0.0,0.0,0.0
33.031,-0.034,0.266,0.0
28.627,-0.019,0.075,1.0
25.518,-0.008,-0.073,0.0
22.591,0.0,-0.187,0.0
19.653,0.007,-0.269,0.0
0.0,0.0,0.0,0.0
0.0,0.0,0.0,0.0
28.716,0.04,0.088,1.0
25.766,0.045,-0.063,0.0
23.101,0.048,-0.182,0.0
19.859,0.048,-0.264,0.0
39.216,0.11,0.562,0.0
33.226,0.104,0.295,0.0
28.758,0.1,0.099,1.0
25.767,0.099,-0.053,0.0
23.051,0.097,-0.172,1.0
20.076,0.091,-0.259,0.0
38.576,0.19,0.567,0.0
33.599,0.177,0.311,0.0
28.778,0.162,0.11,0.0
26.108,0.156,-0.044,0.0
23.244,0.147,-0.166,0.0
20.355,0.136,-0.256,0.0
0.0,0.0,0.0,0.0
33.931,0.251,0.326,0.0
28.884,0.224,0.12,4.0
26.307,0.213,-0.036,0.0
23.429,0.198,-0.16,0.0
20.462,0.18,-0.251,0.0
40.519,0.372,0.622,0.0
34.05,0.324,0.337,0.0
28.886,0.285,0.128,3.0
26.454,0.27,-0.029,0.0
23.508,0.248,-0.154,0.0
20.484,0.223,-0.246,0.0
0.0,0.0,0.0,0.0
34.43,0.402,0.349,0.0
28.886,0.346,0.135,3.0
26.556,0.328,-0.023,0.0
23.699,0.301,-0.15,0.0
20.632,0.269,-0.243,0.0
41.494,0.558,0.657,0.0
34.291,0.473,0.355,0.0
28.906,0.408,0.141,3.0
26.691,0.386,-0.017,0.0
23.768,0.352,-0.145,0.0
20.52,0.311,-0.238,0.0
0.0,0.0,0.0,0.0
34.507,0.549,0.364,1.0
28.916,0.47,0.146,0.0
26.667,0.443,-0.013,0.0
23.859,0.405,-0.142,0.0
20.528,0.355,-0.235,0.0
0.0,0.0,0.0,0.0
35.043,0.633,0.374,0.0
29.044,0.535,0.151,0.0
26.753,0.502,-0.009,0.0
23.936,0.457,-0.14,0.0
21.016,0.409,-0.238,0.0
0.0,0.0,0.0,0.0
35.286,0.713,0.381,0.0
30.695,0.631,0.163,0.0
26.749,0.559,-0.007,0.0
23.916,0.508,-0.137,0.0
21.109,0.456,-0.237,0.0
0.0,0.0,0.0,0.0
35.334,0.79,0.384,0.0
30.888,0.701,0.165,0.0
26.74,0.616,-0.005,0.0
23.871,0.558,-0.136,0.0
21.19,0.502,-0.237,0.0
47.65,1.151,0.781,1.0
35.686,0.874,0.389,0.0
28.998,0.719,0.156,1.0
26.74,0.672,-0.005,0.0
23.848,0.607,-0.136,1.0
21.169,0.546,-0.237,0.0
0.0,0.0,0.0,0.0
35.461,0.943,0.386,1.0
28.994,0.78,0.156,1.0
26.82,0.731,-0.006,0.0
23.828,0.657,-0.136,0.0
20.921,0.584,-0.235,0.0
0.0,0.0,0.0,0.0
35.256,1.012,0.382,1.0
29.024,0.842,0.154,1.0
26.847,0.788,-0.007,0.0
23.626,0.701,-0.137,0.0
21.169,0.635,-0.239,0.0
0.0,0.0,0.0,0.0
34.972,1.077,0.376,0.0
29.007,0.903,0.152,2.0
26.762,0.842,-0.01,0.0
23.849,0.758,-0.14,0.0
20.902,0.671,-0.239,0.0
0.0,0.0,0.0,0.0
34.837,1.146,0.37,0.0
30.738,1.021,0.157,0.0
26.588,0.892,-0.013,0.0
23.821,0.807,-0.144,0.0
20.975,0.717,-0.242,0.0
0.0,0.0,0.0,0.0
34.679,1.213,0.363,0.0
29.028,1.025,0.143,0.0
26.44,0.942,-0.018,0.0
23.625,0.849,-0.147,0.0
20.707,0.751,-0.243,0.0
0.0,0.0,0.0,0.0
34.452,1.277,0.354,0.0
28.964,1.083,0.137,0.0
25.898,0.977,-0.023,4.0
23.597,0.897,-0.151,1.0
20.589,0.789,-0.246,0.0
0.0,0.0,0.0,0.0
34.385,1.346,0.345,0.0
29.011,1.145,0.13,0.0
26.243,1.044,-0.03,0.0
23.324,0.935,-0.156,1.0
20.32,0.821,-0.248,0.0
0.0,0.0,0.0,0.0
34.425,1.418,0.336,0.0
28.984,1.203,0.122,0.0
26.076,1.09,-0.037,0.0
23.208,0.978,-0.162,1.0
20.104,0.853,-0.252,0.0
0.0,0.0,0.0,0.0
33.947,1.468,0.321,1.0
28.977,1.262,0.113,0.0
25.902,1.136,-0.045,0.0
23.081,1.019,-0.168,1.0
19.954,0.887,-0.256,0.0
0.0,0.0,0.0,0.0
33.734,1.527,0.308,0.0
28.899,1.317,0.103,0.0
25.718,1.18,-0.053,0.0
22.968,1.061,-0.175,1.0
19.84,0.922,-0.262,0.0
0.0,0.0,0.0,0.0
33.09,1.565,0.289,0.0
28.745,1.368,0.091,0.0
25.488,1.221,-0.063,0.0
22.601,1.089,-0.182,1.0
19.706,0.956,-0.268,0.0
0.0,0.0,0.0,0.0
32.651,1.61,0.272,0.0
28.484,1.413,0.078,0.0
25.293,1.262,-0.073,0.0
22.123,1.111,-0.187,1.0
19.292,0.974,-0.271,0.0
0.0,0.0,0.0,0.0
32.37,1.66,0.255,0.0
28.179,1.454,0.065,0.0
25.014,1.298,-0.084,0.0
21.943,1.145,-0.196,1.0
19.1,1.002,-0.277,0.0
0.0,0.0,0.0,0.0
31.828,1.696,0.235,0.0
27.88,1.493,0.05,0.0
24.818,1.336,-0.096,0.0
21.784,1.179,-0.206,3.0
19.071,1.038,-0.287,0.0
0.0,0.0,0.0,0.0
31.338,1.73,0.216,0.0
27.554,1.529,0.035,0.0
24.484,1.366,-0.107,0.0
21.678,1.215,-0.216,3.0
18.779,1.058,-0.292,0.0
36.637,2.083,0.437,0.0
30.932,1.768,0.196,1.0
27.264,1.565,0.02,0.0
24.304,1.402,-0.12,0.0
21.478,1.246,-0.227,2.0
18.57,1.082,-0.3,0.0
37.052,2.178,0.42,0.0
30.438,1.797,0.175,0.0
26.864,1.594,0.003,0.0
23.976,1.429,-0.133,0.0
21.263,1.274,-0.237,2.0
18.369,1.105,-0.308,0.0
47.223,2.865,0.507,2.0
30.022,1.83,0.154,1.0
26.405,1.616,-0.012,1.0
23.336,1.435,-0.144,0.0
20.962,1.294,-0.247,0.0
18.195,1.129,-0.317,0.0
36.509,2.283,0.368,1.0
29.668,1.863,0.133,1.0
26.141,1.648,-0.029,0.0
23.052,1.46,-0.158,0.0
20.223,1.286,-0.252,0.0
17.998,1.149,-0.325,0.0
34.282,2.206,0.323,0.0
29.239,1.889,0.111,0.0
25.742,1.67,-0.046,0.0
22.731,1.48,-0.171,0.0
19.807,1.295,-0.26,0.0
17.625,1.157,-0.331,0.0
33.372,2.207,0.291,0.0
28.731,1.908,0.088,1.0
25.351,1.69,-0.064,0.0
22.393,1.498,-0.184,0.0
19.301,1.296,-0.267,0.0
17.394,1.172,-0.339,0.0
32.333,2.195,0.258,0.0
28.283,1.927,0.067,1.0
24.769,1.694,-0.08,0.0
22.056,1.514,-0.198,0.0
19.215,1.324,-0.281,0.0
17.162,1.187,-0.347,0.0
32.217,2.244,0.232,1.0
27.757,1.94,0.044,0.0
24.294,1.704,-0.098,1.0
21.629,1.523,-0.211,0.0
18.868,1.333,-0.291,0.0
17.013,1.206,-0.358,0.0
31.391,2.241,0.202,0.0
27.122,1.942,0.021,0.0
24.053,1.728,-0.116,2.0
21.361,1.54,-0.226,0.0
18.605,1.346,-0.302,0.0
16.776,1.218,-0.367,0.0
30.625,2.237,0.171,1.0
26.635,1.952,0.0,0.0
23.817,1.751,-0.135,2.0
20.871,1.54,-0.238,0.0
18.287,1.353,-0.312,0.0
16.666,1.237,-0.378,0.0
30.04,2.245,0.143,0.0
26.114,1.957,-0.023,0.0
23.312,1.753,-0.152,0.0
20.372,1.536,-0.25,0.0
18.06,1.366,-0.324,0.0
16.375,1.243,-0.386,0.0
29.506,2.253,0.114,1.0
25.57,1.958,-0.045,0.0
22.73,1.746,-0.168,0.0
19.798,1.525,-0.26,0.0
17.658,1.364,-0.332,0.0
16.175,1.254,-0.396,0.0
28.708,2.238,0.085,1.0
25.118,1.963,-0.067,0.0
22.386,1.755,-0.186,1.0
19.375,1.523,-0.273,0.0
17.41,1.372,-0.344,0.0
15.943,1.261,-0.405,0.0
27.754,2.207,0.056,1.0
24.394,1.945,-0.088,0.0
21.858,1.748,-0.202,0.0
19.113,1.532,-0.287,0.0
17.082,1.373,-0.353,0.0
15.731,1.268,-0.415,0.0
27.201,2.204,0.029,1.0
24.099,1.958,-0.11,1.0
21.444,1.747,-0.219,0.0
18.573,1.517,-0.297,0.0
16.855,1.38,-0.365,0.0
15.535,1.276,-0.425,0.0
26.641,2.199,0.003,1.0
23.817,1.971,-0.132,1.0
20.974,1.74,-0.235,0.0
18.247,1.517,-0.31,0.0
16.638,1.387,-0.377,0.0
15.282,1.277,-0.433,0.0
26.076,2.191,-0.023,1.0
22.967,1.934,-0.15,1.0
20.231,1.708,-0.247,0.0
17.918,1.516,-0.322,0.0
16.364,1.388,-0.387,0.0
14.933,1.27,-0.438,0.0
25.496,2.178,-0.048,0.0
22.603,1.935,-0.171,2.0
19.839,1.703,-0.263,0.0
17.622,1.516,-0.335,0.0
16.078,1.386,-0.397,0.0
14.836,1.282,-0.451,0.0
24.863,2.159,-0.073,0.0
22.109,1.924,-0.19,2.0
19.334,1.686,-0.277,0.0
17.307,1.513,-0.348,0.0
15.869,1.39,-0.409,0.0
14.636,1.285,-0.46,0.0
24.409,2.152,-0.098,0.0
21.652,1.913,-0.209,1.0
18.895,1.673,-0.29,0.0
16.993,1.508,-0.359,0.0
15.672,1.393,-0.421,0.0
14.388,1.282,-0.468,0.0
23.749,2.125,-0.12,0.0
21.153,1.897,-0.228,0.0
18.449,1.658,-0.304,0.0
16.627,1.497,-0.37,0.0
15.317,1.382,-0.428,0.0
14.147,1.279,-0.476,0.0
22.947,2.083,-0.142,0.0
20.521,1.866,-0.244,0.0
18.111,1.65,-0.318,0.0
16.361,1.494,-0.382,0.0
15.047,1.376,-0.437,0.0
13.956,1.279,-0.485,0.0
22.525,2.073,-0.165,1.0
19.624,1.809,-0.255,0.0
17.726,1.637,-0.331,0.0
16.113,1.491,-0.395,0.0
14.882,1.38,-0.449,0.0
13.734,1.276,-0.493,0.0
21.917,2.043,-0.185,4.0
19.278,1.8,-0.273,0.0
17.36,1.624,-0.345,0.0
15.798,1.481,-0.405,0.0
14.627,1.373,-0.459,0.0
13.486,1.269,-0.5,0.0
21.542,2.033,-0.207,4.0
18.852,1.782,-0.289,0.0
17.03,1.613,-0.358,0.0
15.602,1.48,-0.418,0.0
14.34,1.363,-0.466,0.0
13.308,1.267,-0.509,0.0
21.234,2.028,-0.229,3.0
18.432,1.763,-0.304,0.0
16.723,1.602,-0.371,0.0
15.359,1.474,-0.43,0.0
14.138,1.359,-0.477,0.0
13.138,1.265,-0.518,0.0
20.625,1.992,-0.247,0.0
18.053,1.746,-0.319,0.0
16.409,1.59,-0.384,0.0
15.036,1.459,-0.439,0.0
13.83,1.344,-0.483,0.0
12.848,1.251,-0.522,0.0
19.665,1.92,-0.259,0.0
17.6,1.721,-0.332,0.0
16.053,1.572,-0.395,0.0
14.803,1.452,-0.451,0.0
13.68,1.344,-0.494,0.0
12.725,1.252,-0.533,0.0
19.217,1.895,-0.277,0.0
17.314,1.71,-0.348,0.0
15.879,1.571,-0.41,0.0
14.531,1.439,-0.46,0.0
13.425,1.332,-0.502,0.0
12.538,1.246,-0.54,0.0
18.631,1.856,-0.291,0.0
16.996,1.695,-0.363,0.0
15.603,1.558,-0.422,0.0
14.246,1.425,-0.469,0.0
13.295,1.331,-0.513,0.0
12.415,1.245,-0.551,0.0
18.261,1.835,-0.308,0.0
16.639,1.675,-0.376,0.0
15.281,1.54,-0.433,0.0
14.018,1.414,-0.478,0.0
13.075,1.321,-0.521,0.0
12.242,1.239,-0.558,0.0
17.831,1.808,-0.323,0.0
16.233,1.648,-0.387,0.0
14.988,1.523,-0.443,0.0
13.801,1.404,-0.489,0.0
12.867,1.311,-0.529,0.0
12.027,1.227,-0.564,0.0
17.494,1.788,-0.339,0.0
16.013,1.639,-0.402,0.0
14.768,1.513,-0.455,0.0
13.584,1.393,-0.498,0.0
12.648,1.299,-0.536,0.0
11.852,1.219,-0.571,0.0
17.102,1.762,-0.353,0.0
15.735,1.622,-0.415,0.0
14.421,1.489,-0.463,0.0
13.348,1.379,-0.506,0.0
12.514,1.295,-0.546,0.0
11.631,1.205,-0.575,0.0
16.823,1.745,-0.369,0.0
15.393,1.598,-0.425,0.0
14.202,1.476,-0.474,0.0
13.139,1.367,-0.515,0.0
12.353,1.287,-0.555,0.0
11.537,1.203,-0.585,0.0
16.426,1.715,-0.381,0.0
15.108,1.579,-0.437,0.0
13.846,1.449,-0.48,0.0
12.955,1.357,-0.524,0.0
12.158,1.275,-0.562,0.0
11.388,1.195,-0.592,0.0
16.099,1.692,-0.394,0.0
14.849,1.562,-0.448,0.0
13.678,1.44,-0.491,0.0
12.742,1.343,-0.532,0.0
11.936,1.259,-0.567,0.0
11.221,1.185,-0.598,0.0
15.846,1.675,-0.408,0.0
14.608,1.545,-0.46,0.0
13.49,1.428,-0.502,0.0
12.562,1.331,-0.541,0.0
11.788,1.25,-0.575,0.0
11.056,1.174,-0.603,0.0
15.604,1.658,-0.422,0.0
14.311,1.522,-0.469,0.0
13.267,1.412,-0.511,0.0
12.44,1.325,-0.552,0.0
11.584,1.235,-0.58,0.0
10.975,1.171,-0.613,0.0
15.313,1.635,-0.434,0.0
14.036,1.5,-0.478,0.0
13.083,1.399,-0.521,0.0
12.195,1.305,-0.557,0.0
11.444,1.226,-0.588,0.0
10.837,1.162,-0.619,0.0
14.97,1.605,-0.443,0.0
13.776,1.478,-0.487,0.0
12.814,1.376,-0.526,0.0
12.073,1.298,-0.567,0.0
11.298,1.215,-0.595,0.0
10.696,1.151,-0.625,0.0
14.75,1.588,-0.456,0.0
13.53,1.458,-0.496,0.0
12.62,1.361,-0.535,0.0
11.849,1.278,-0.571,0.0
11.128,1.202,-0.601,0.0
10.569,1.142,-0.631,0.0
14.402,1.556,-0.464,0.0
13.369,1.445,-0.507,0.0
12.497,1.352,-0.546,0.0
11.623,1.258,-0.576,0.0
11.01,1.193,-0.609,0.0
10.442,1.132,-0.638,0.0
14.156,1.535,-0.474,0.0
13.159,1.427,-0.516,0.0
12.305,1.335,-0.553,0.0
11.45,1.243,-0.582,0.0
10.87,1.181,-0.615,0.0
10.265,1.116,-0.64,0.0
13.868,1.507,-0.482,0.0
12.952,1.408,-0.525,0.0
12.121,1.319,-0.561,0.0
11.324,1.233,-0.59,0.0
10.739,1.17,-0.622,0.0
10.116,1.103,-0.644,0.0
13.636,1.485,-0.492,0.0
12.764,1.391,-0.534,0.0
11.961,1.304,-0.569,0.0
11.193,1.221,-0.598,0.0
10.66,1.163,-0.631,0.0
10.021,1.094,-0.651,0.0
13.384,1.461,-0.5,0.0
12.573,1.373,-0.541,0.0
11.69,1.277,-0.571,0.0
11.07,1.21,-0.605,0.0
10.444,1.142,-0.631,0.0
9.859,1.078,-0.653,0.0
13.175,1.44,-0.509,0.0
12.452,1.361,-0.552,0.0
11.563,1.265,-0.579,0.0
10.944,1.197,-0.612,0.0
10.351,1.133,-0.639,0.0
9.765,1.069,-0.659,0.0
13.026,1.425,-0.519,0.0
12.191,1.334,-0.556,0.0
11.373,1.245,-0.584,0.0
10.83,1.186,-0.619,0.0
10.246,1.122,-0.645,0.0
9.667,1.059,-0.664,0.0
12.831,1.405,-0.527,0.0
12.033,1.318,-0.564,0.0
11.249,1.232,-0.592,0.0
10.691,1.171,-0.625,0.0
10.122,1.109,-0.65,0.0
9.519,1.044,-0.666,0.0
12.591,1.379,-0.533,0.0
11.841,1.297,-0.569,0.0
11.133,1.219,-0.599,0.0
10.523,1.153,-0.628,0.0
9.951,1.091,-0.651,0.0
9.436,1.034,-0.672,0.0
12.486,1.367,-0.544,0.0
11.613,1.271,-0.573,0.0
11.017,1.206,-0.607,0.0
10.399,1.139,-0.633,0.0
9.853,1.079,-0.657,0.0
9.305,1.02,-0.674,0.0
12.349,1.351,-0.553,0.0
11.471,1.255,-0.58,0.0
10.9,1.193,-0.613,0.0
10.301,1.127,-0.64,0.0
9.735,1.065,-0.661,0.0
9.271,1.015,-0.683,0.0
12.122,1.325,-0.557,0.0
11.369,1.242,-0.588,0.0
10.773,1.177,-0.619,0.0
10.222,1.117,-0.647,0.0
9.609,1.05,-0.664,0.0
9.12,0.997,-0.683,0.0
11.954,1.304,-0.564,0.0
11.205,1.223,-0.593,0.0
10.655,1.163,-0.625,0.0
10.009,1.092,-0.646,0.0
9.52,1.039,-0.669,0.0
9.004,0.983,-0.685,0.0
11.825,1.288,-0.572,0.0
11.093,1.208,-0.6,0.0
10.535,1.147,-0.63,0.0
9.896,1.078,-0.65,0.0
9.408,1.025,-0.672,0.0
8.913,0.971,-0.688,0.0
11.578,1.258,-0.573,0.0
10.981,1.193,-0.606,0.0
10.413,1.131,-0.635,0.0
9.782,1.063,-0.654,0.0
9.331,1.014,-0.677,0.0
8.819,0.958,-0.691,0.0
11.465,1.243,-0.58,0.0
10.865,1.177,-0.612,0.0
10.311,1.117,-0.64,0.0
9.742,1.056,-0.662,0.0
9.161,0.992,-0.675,0.0
8.721,0.945,-0.693,0.0
11.339,1.225,-0.586,0.0
10.73,1.159,-0.617,0.0
10.212,1.103,-0.645,0.0
9.575,1.034,-0.661,0.0
9.059,0.978,-0.678,0.0
8.65,0.934,-0.697,0.0
11.243,1.211,-0.594,0.0
10.612,1.142,-0.621,0.0
10.076,1.085,-0.648,0.0
9.485,1.021,-0.665,0.0
9.037,0.972,-0.686,0.0
8.589,0.924,-0.701,0.0
11.115,1.192,-0.599,0.0
10.478,1.124,-0.624,0.0
10.017,1.074,-0.654,0.0
9.428,1.01,-0.671,0.0
8.882,0.952,-0.683,0.0
8.528,0.914,-0.705,0.0
11.012,1.176,-0.605,0.0
10.425,1.113,-0.632,0.0
9.805,1.047,-0.651,0.0
9.299,0.992,-0.672,0.0
8.84,0.943,-0.689,0.0
8.451,0.901,-0.708,0.0
10.915,1.161,-0.611,0.0
10.362,1.101,-0.639,0.0
9.728,1.034,-0.656,0.0
9.225,0.98,-0.676,0.0
8.841,0.939,-0.698,0.0
8.381,0.89,-0.71,0.0
10.814,1.144,-0.616,0.0
10.205,1.079,-0.64,0.0
9.659,1.021,-0.661,0.0
9.117,0.963,-0.677,0.0
8.739,0.923,-0.699,0.0
8.368,0.884,-0.718,0.0
10.692,1.125,-0.619,0.0
10.1,1.062,-0.643,0.0
9.535,1.002,-0.662,0.0
0.0,0.0,0.0,0.0
8.596,0.903,-0.696,0.0
8.268,0.868,-0.717,0.0
10.588,1.108,-0.623,0.0
9.962,1.042,-0.643,0.0
9.458,0.988,-0.665,0.0
0.0,0.0,0.0,0.0
8.528,0.89,-0.698,0.0
8.22,0.858,-0.721,0.0
10.477,1.089,-0.627,0.0
9.921,1.031,-0.65,0.0
9.418,0.978,-0.671,0.0
8.862,0.92,-0.683,0.0
8.541,0.886,-0.707,0.0
8.163,0.846,-0.723,0.0
10.387,1.073,-0.63,0.0
9.828,1.014,-0.653,0.0
9.34,0.963,-0.674,0.0
8.83,0.91,-0.689,0.0
8.418,0.867,-0.705,0.0
8.082,0.832,-0.723,0.0
10.331,1.059,-0.636,0.0
9.729,0.997,-0.655,0.0
9.218,0.944,-0.673,0.0
0.0,0.0,0.0,0.0
8.382,0.857,-0.709,0.0
8.048,0.822,-0.727,0.0
10.226,1.041,-0.638,0.0
9.653,0.982,-0.658,0.0
9.137,0.928,-0.675,0.0
0.0,0.0,0.0,0.0
8.338,0.846,-0.712,0.0
7.992,0.81,-0.729,0.0
10.144,1.024,-0.642,0.0
9.573,0.966,-0.66,0.0
0.0,0.0,0.0,0.0
8.637,0.87,-0.695,0.0
8.312,0.837,-0.717,0.0
0.0,0.0,0.0,0.0
10.025,1.004,-0.642,0.0
9.524,0.953,-0.664,0.0
0.0,0.0,0.0,0.0
8.627,0.862,-0.701,0.0
8.234,0.822,-0.716,0.0
7.911,0.789,-0.734,0.0
9.978,0.991,-0.646,0.0
9.469,0.939,-0.667,0.0
0.0,0.0,0.0,0.0
8.537,0.845,-0.7,0.0
8.213,0.812,-0.721,0.0
7.859,0.777,-0.735,0.0
9.866,0.97,-0.646,0.0
9.43,0.927,-0.671,0.0
8.967,0.88,-0.69,0.0
8.498,0.833,-0.703,0.0
8.194,0.803,-0.725,0.0
0.0,0.0,0.0,0.0
9.801,0.955,-0.649,0.0
9.263,0.901,-0.666,0.0
8.824,0.858,-0.685,0.0
8.419,0.817,-0.702,0.0
8.107,0.786,-0.723,0.0
0.0,0.0,0.0,0.0
9.749,0.94,-0.652,0.0
9.323,0.898,-0.676,0.0
8.764,0.843,-0.686,0.0
8.403,0.808,-0.706,0.0
8.106,0.778,-0.728,0.0
7.772,0.745,-0.742,0.0
9.693,0.925,-0.654,0.0
9.213,0.878,-0.674,0.0
8.738,0.832,-0.689,0.0
8.34,0.793,-0.706,0.0
8.035,0.763,-0.726,0.0
7.738,0.734,-0.744,0.0
9.661,0.912,-0.658,0.0
9.278,0.875,-0.684,0.0
8.698,0.819,-0.691,0.0
8.31,0.782,-0.708,0.0
0.0,0.0,0.0,0.0
0.0,0.0,0.0,0.0
9.623,0.898,-0.66,0.0
0.0,0.0,0.0,0.0
8.706,0.811,-0.696,0.0
8.302,0.772,-0.712,0.0
0.0,0.0,0.0,0.0
7.632,0.708,-0.742,0.0
9.581,0.884,-0.662,0.0
0.0,0.0,0.0,0.0
8.568,0.788,-0.69,0.0
8.268,0.76,-0.713,0.0
0.0,0.0,0.0,0.0
7.615,0.698,-0.744,0.0
9.54,0.87,-0.664,0.0
0.0,0.0,0.0,0.0
8.598,0.782,-0.696,0.0
8.286,0.752,-0.719,0.0
0.0,0.0,0.0,0.0
7.587,0.687,-0.744,0.0
9.489,0.854,-0.664,0.0
8.969,0.806,-0.679,0.0
8.535,0.766,-0.694,0.0
8.229,0.738,-0.717,0.0
0.0,0.0,0.0,0.0
7.591,0.678,-0.748,0.0
9.477,0.842,-0.667,0.0
8.936,0.793,-0.68,0.0
8.457,0.749,-0.691,0.0
8.185,0.724,-0.716,0.0
0.0,0.0,0.0,0.0
7.515,0.663,-0.743,0.0
9.445,0.828,-0.669,0.0
8.919,0.781,-0.682,0.0
8.542,0.747,-0.701,0.0
8.208,0.716,-0.721,0.0
0.0,0.0,0.0,0.0
7.532,0.655,-0.747,0.0
9.395,0.813,-0.668,0.0
8.904,0.769,-0.684,0.0
8.514,0.734,-0.702,0.0
8.172,0.703,-0.721,0.0
0.0,0.0,0.0,0.0
7.498,0.643,-0.746,0.0
9.368,0.799,-0.669,0.0
8.905,0.758,-0.686,0.0
8.505,0.722,-0.703,0.0
8.182,0.694,-0.724,0.0
0.0,0.0,0.0,0.0
7.532,0.636,-0.752,0.0
9.36,0.786,-0.671,0.0
8.848,0.742,-0.684,0.0
8.454,0.707,-0.701,0.0
0.0,0.0,0.0,0.0
0.0,0.0,0.0,0.0
7.51,0.625,-0.751,0.0
9.332,0.772,-0.671,0.0
8.874,0.732,-0.687,0.0
8.467,0.698,-0.704,0.0
0.0,0.0,0.0,0.0
0.0,0.0,0.0,0.0
7.494,0.614,-0.751,0.0
9.296,0.757,-0.669,0.0
8.854,0.719,-0.687,0.0
8.461,0.686,-0.705,0.0
0.0,0.0,0.0,0.0
0.0,0.0,0.0,0.0
7.514,0.606,-0.754,0.0
9.338,0.748,-0.674,0.0
8.844,0.707,-0.688,0.0
8.53,0.68,-0.711,0.0
0.0,0.0,0.0,0.0
0.0,0.0,0.0,0.0
7.493,0.594,-0.752,0.0
9.278,0.731,-0.67,0.0
8.87,0.697,-0.69,0.0
8.474,0.664,-0.707,0.0
0.0,0.0,0.0,0.0
0.0,0.0,0.0,0.0
7.463,0.581,-0.75,0.0
9.285,0.719,-0.671,0.0
8.812,0.68,-0.686,0.0
8.459,0.651,-0.706,0.0
0.0,0.0,0.0,0.0
0.0,0.0,0.0,0.0
7.445,0.569,-0.748,0.0
9.314,0.708,-0.673,0.0
8.851,0.671,-0.689,0.0
8.437,0.638,-0.704,0.0
0.0,0.0,0.0,0.0
0.0,0.0,0.0,0.0
7.466,0.561,-0.75,0.0
9.276,0.692,-0.67,0.0
8.841,0.658,-0.688,0.0
0.0,0.0,0.0,0.0
0.0,0.0,0.0,0.0
0.0,0.0,0.0,0.0
7.454,0.549,-0.748,0.0
9.275,0.679,-0.669,0.0
8.878,0.648,-0.69,0.0
0.0,0.0,0.0,0.0
0.0,0.0,0.0,0.0
0.0,0.0,0.0,0.0
7.472,0.54,-0.749,0.0
9.327,0.67,-0.672,0.0
8.889,0.636,-0.69,0.0
0.0,0.0,0.0,0.0
0.0,0.0,0.0,0.0
0.0,0.0,0.0,0.0
7.458,0.528,-0.746,0.0
9.328,0.656,-0.67,0.0
0.0,0.0,0.0,0.0
8.455,0.592,-0.701,0.0
0.0,0.0,0.0,0.0
0.0,0.0,0.0,0.0
7.481,0.519,-0.747,0.0
9.261,0.638,-0.663,0.0
0.0,0.0,0.0,0.0
0.0,0.0,0.0,0.0
0.0,0.0,0.0,0.0
0.0,0.0,0.0,0.0
7.468,0.507,-0.744,0.0
9.32,0.629,-0.665,0.0
0.0,0.0,0.0,0.0
0.0,0.0,0.0,0.0
0.0,0.0,0.0,0.0
0.0,0.0,0.0,0.0
7.512,0.499,-0.746,0.0
9.402,0.621,-0.668,0.0
0.0,0.0,0.0,0.0
0.0,0.0,0.0,0.0
0.0,0.0,0.0,0.0
0.0,0.0,0.0,0.0
7.5,0.487,-0.742,0.0
9.455,0.61,-0.668,0.0
0.0,0.0,0.0,0.0
0.0,0.0,0.0,0.0
0.0,0.0,0.0,0.0
0.0,0.0,0.0,0.0
7.571,0.481,-0.746,0.0
9.446,0.596,-0.664,0.0
0.0,0.0,0.0,0.0
8.571,0.537,-0.697,0.0
0.0,0.0,0.0,0.0
0.0,0.0,0.0,0.0
7.588,0.471,-0.745,0.0
9.487,0.585,-0.663,0.0
0.0,0.0,0.0,0.0
8.581,0.525,-0.694,0.0
0.0,0.0,0.0,0.0
0.0,0.0,0.0,0.0
0.0,0.0,0.0,0.0
9.511,0.572,-0.66,0.0
9.099,0.545,-0.682,0.0
8.632,0.515,-0.694,0.0
0.0,0.0,0.0,0.0
7.937,0.47,-0.727,0.0
7.634,0.451,-0.742,0.0
9.534,0.559,-0.657,0.0
9.113,0.533,-0.678,0.0
8.678,0.505,-0.693,0.0
0.0,0.0,0.0,0.0
0.0,0.0,0.0,0.0
0.0,0.0,0.0,0.0
0.0,0.0,0.0,0.0
9.181,0.523,-0.678,0.0
8.674,0.492,-0.688,0.0
0.0,0.0,0.0,0.0
0.0,0.0,0.0,0.0
0.0,0.0,0.0,0.0
9.619,0.536,-0.651,0.0
0.0,0.0,0.0,0.0
0.0,0.0,0.0,0.0
0.0,0.0,0.0,0.0
0.0,0.0,0.0,0.0
0.0,0.0,0.0,0.0
9.736,0.528,-0.653,0.0
0.0,0.0,0.0,0.0
0.0,0.0,0.0,0.0
0.0,0.0,0.0,0.0
0.0,0.0,0.0,0.0
7.805,0.414,-0.738,0.0
9.837,0.518,-0.653,0.0
0.0,0.0,0.0,0.0
8.856,0.463,-0.685,0.0
0.0,0.0,0.0,0.0
0.0,0.0,0.0,0.0
7.797,0.402,-0.732,0.0
9.857,0.505,-0.647,0.0
0.0,0.0,0.0,0.0
8.899,0.452,-0.681,0.0
0.0,0.0,0.0,0.0
0.0,0.0,0.0,0.0
7.82,0.392,-0.728,0.0
9.957,0.495,-0.646,0.0
0.0,0.0,0.0,0.0
8.958,0.441,-0.679,0.0
0.0,0.0,0.0,0.0
0.0,0.0,0.0,0.0
0.0,0.0,0.0,0.0
9.997,0.482,-0.64,0.0
0.0,0.0,0.0,0.0
8.998,0.43,-0.674,0.0
0.0,0.0,0.0,0.0
8.311,0.393,-0.714,0.0
0.0,0.0,0.0,0.0
10.036,0.47,-0.634,0.0
9.495,0.442,-0.651,0.0
0.0,0.0,0.0,0.0
0.0,0.0,0.0,0.0
8.325,0.382,-0.708,0.0
7.976,0.364,-0.722,0.0
10.134,0.459,-0.631,0.0
9.711,0.438,-0.657,0.0
0.0,0.0,0.0,0.0
8.773,0.391,-0.69,0.0
0.0,0.0,0.0,0.0
8.046,0.355,-0.721,0.0
10.204,0.447,-0.626,0.0
0.0,0.0,0.0,0.0
0.0,0.0,0.0,0.0
8.823,0.381,-0.685,0.0
8.413,0.361,-0.699,0.0
8.137,0.348,-0.721,0.0
10.311,0.437,-0.622,0.0
9.873,0.417,-0.649,0.0
9.338,0.392,-0.664,0.0
0.0,0.0,0.0,0.0
8.54,0.354,-0.701,0.0
8.199,0.338,-0.718,0.0
10.411,0.427,-0.617,0.0
9.929,0.404,-0.642,0.0
0.0,0.0,0.0,0.0
0.0,0.0,0.0,0.0
8.612,0.345,-0.698,0.0
8.259,0.329,-0.714,0.0
10.496,0.415,-0.611,0.0
9.967,0.392,-0.634,0.0
0.0,0.0,0.0,0.0
0.0,0.0,0.0,0.0
8.664,0.335,-0.692,0.0
8.291,0.318,-0.707,0.0
10.59,0.404,-0.605,0.0
10.129,0.384,-0.633,0.0
9.6,0.362,-0.652,0.0
0.0,0.0,0.0,0.0
0.0,0.0,0.0,0.0
8.383,0.31,-0.706,0.0
10.679,0.392,-0.598,0.0
10.209,0.373,-0.626,0.0
9.775,0.354,-0.652,0.0
0.0,0.0,0.0,0.0
0.0,0.0,0.0,0.0
8.477,0.302,-0.704,0.0
10.879,0.384,-0.596,0.0
10.326,0.362,-0.621,0.0
9.817,0.342,-0.643,0.0
0.0,0.0,0.0,0.0
8.946,0.308,-0.683,0.0
8.516,0.291,-0.696,0.0
11.065,0.376,-0.593,0.0
10.463,0.353,-0.616,0.0
9.944,0.333,-0.639,0.0
0.0,0.0,0.0,0.0
0.0,0.0,0.0,0.0
8.587,0.282,-0.691,0.0
11.161,0.364,-0.584,0.0
10.531,0.341,-0.607,0.0
10.065,0.323,-0.634,0.0
0.0,0.0,0.0,0.0
9.177,0.291,-0.677,0.0
8.727,0.274,-0.691,0.0
11.357,0.355,-0.579,0.0
10.663,0.331,-0.601,0.0
10.199,0.314,-0.629,0.0
9.698,0.296,-0.651,0.0
0.0,0.0,0.0,0.0
8.872,0.267,-0.69,0.0
11.548,0.345,-0.573,0.0
10.883,0.323,-0.598,0.0
10.26,0.302,-0.619,0.0
9.845,0.288,-0.647,0.0
9.358,0.272,-0.665,0.0
8.894,0.256,-0.68,0.0
11.696,0.334,-0.565,0.0
10.948,0.311,-0.587,0.0
10.49,0.295,-0.618,0.0
9.915,0.277,-0.638,0.0
9.416,0.261,-0.656,0.0
8.96,0.246,-0.672,0.0
11.872,0.324,-0.556,0.0
11.203,0.303,-0.585,0.0
10.584,0.284,-0.609,0.0
10.091,0.269,-0.635,0.0
9.569,0.253,-0.653,0.0
9.093,0.238,-0.669,0.0
12.113,0.315,-0.55,0.0
11.389,0.294,-0.578,0.0
10.808,0.277,-0.606,0.0
10.179,0.258,-0.626,0.0
9.681,0.244,-0.646,0.0
9.295,0.232,-0.67,0.0
12.311,0.305,-0.541,0.0
11.518,0.283,-0.567,0.0
10.933,0.266,-0.596,0.0
10.333,0.25,-0.62,0.0
9.909,0.237,-0.647,0.0
9.44,0.224,-0.666,0.0
12.466,0.294,-0.529,0.0
11.788,0.275,-0.563,0.0
11.079,0.256,-0.587,0.0
10.47,0.24,-0.612,0.0
10.022,0.228,-0.639,0.0
9.549,0.215,-0.659,0.0
12.691,0.284,-0.519,0.0
11.935,0.264,-0.551,0.0
11.275,0.247,-0.58,0.0
10.602,0.23,-0.603,0.0
10.169,0.219,-0.632,0.0
9.665,0.206,-0.652,0.0
12.976,0.275,-0.51,0.0
12.253,0.257,-0.547,0.0
11.513,0.239,-0.574,0.0
10.765,0.221,-0.595,0.0
10.277,0.209,-0.622,0.0
9.84,0.198,-0.648,0.0
13.144,0.263,-0.496,0.0
12.427,0.246,-0.534,0.0
11.746,0.23,-0.567,0.0
11.017,0.214,-0.591,0.0
10.487,0.202,-0.618,0.0
9.97,0.19,-0.64,0.0
13.482,0.255,-0.487,0.0
12.602,0.235,-0.521,0.0
11.94,0.221,-0.557,0.0
11.211,0.205,-0.583,0.0
10.617,0.192,-0.608,0.0
10.086,0.181,-0.631,0.0
13.819,0.246,-0.476,0.0
12.92,0.227,-0.513,0.0
12.159,0.211,-0.546,0.0
11.458,0.197,-0.576,0.0
10.829,0.184,-0.602,0.0
10.278,0.173,-0.625,0.0
14.101,0.235,-0.462,0.0
13.155,0.217,-0.5,0.0
12.374,0.202,-0.535,0.0
11.704,0.189,-0.569,0.0
11.018,0.175,-0.593,0.0
10.45,0.165,-0.617,0.0
14.415,0.225,-0.447,0.0
13.454,0.208,-0.488,0.0
12.691,0.193,-0.526,0.0
11.864,0.179,-0.556,0.0
11.274,0.168,-0.587,0.0
10.607,0.156,-0.608,0.0
14.782,0.216,-0.432,0.0
13.822,0.199,-0.477,0.0
12.904,0.184,-0.512,0.0
12.157,0.171,-0.548,0.0
11.499,0.159,-0.578,0.0
10.83,0.148,-0.601,0.0
15.215,0.207,-0.418,0.0
14.107,0.189,-0.462,0.0
13.187,0.175,-0.5,0.0
12.372,0.162,-0.535,0.0
11.723,0.151,-0.568,0.0
11.033,0.14,-0.593,0.0
15.675,0.198,-0.403,0.0
14.394,0.179,-0.445,0.0
13.531,0.166,-0.489,0.0
12.664,0.153,-0.525,0.0
11.954,0.143,-0.558,0.0
11.229,0.132,-0.583,0.0
16.089,0.188,-0.384,0.0
14.85,0.171,-0.431,0.0
13.852,0.157,-0.475,0.0
12.914,0.144,-0.511,0.0
12.263,0.135,-0.549,0.0
11.498,0.125,-0.575,0.0
16.552,0.178,-0.364,0.0
15.28,0.162,-0.416,0.0
14.109,0.147,-0.457,0.0
13.208,0.136,-0.498,0.0
12.481,0.126,-0.536,0.0
11.789,0.117,-0.567,0.0
16.954,0.167,-0.341,0.0
15.738,0.153,-0.398,0.0
14.494,0.138,-0.442,0.0
13.607,0.128,-0.488,0.0
12.671,0.117,-0.52,0.0
11.954,0.109,-0.553,0.0
17.568,0.158,-0.32,0.0
16.176,0.143,-0.379,0.0
14.963,0.13,-0.428,0.0
13.937,0.119,-0.473,0.0
12.997,0.109,-0.508,0.0
12.3,0.102,-0.545,0.0
18.248,0.15,-0.298,0.0
16.641,0.134,-0.358,0.0
15.43,0.122,-0.412,0.0
14.174,0.11,-0.453,0.0
13.313,0.101,-0.495,0.0
12.521,0.094,-0.53,0.0
19.124,0.141,-0.275,0.0
17.216,0.125,-0.337,0.0
15.832,0.113,-0.391,0.0
14.672,0.102,-0.44,0.0
13.699,0.094,-0.482,0.0
12.849,0.086,-0.519,0.0
20.134,0.134,-0.249,0.0
17.86,0.116,-0.314,0.0
16.364,0.104,-0.372,0.0
15.055,0.094,-0.422,0.0
14.021,0.086,-0.466,0.0
13.175,0.079,-0.506,0.0
21.271,0.126,-0.221,2.0
18.56,0.107,-0.289,0.0
16.884,0.095,-0.35,0.0
15.647,0.086,-0.407,0.0
14.328,0.077,-0.447,0.0
13.482,0.071,-0.49,0.0
22.48,0.117,-0.189,2.0
19.652,0.1,-0.266,0.0
17.416,0.086,-0.326,0.0
16.087,0.078,-0.386,0.0
14.927,0.071,-0.435,0.0
13.892,0.064,-0.477,0.0
23.285,0.106,-0.148,0.0
20.864,0.092,-0.24,1.0
18.219,0.079,-0.304,0.0
16.618,0.07,-0.365,0.0
15.419,0.063,-0.418,0.0
14.192,0.056,-0.458,0.0
24.609,0.096,-0.106,0.0
21.742,0.083,-0.206,2.0
19.075,0.071,-0.279,0.0
17.102,0.061,-0.34,0.0
15.879,0.055,-0.398,0.0
14.63,0.049,-0.442,0.0
25.711,0.086,-0.059,0.0
23.151,0.075,-0.172,1.0
20.127,0.063,-0.254,0.0
17.774,0.054,-0.317,0.0
16.388,0.048,-0.377,0.0
15.196,0.043,-0.428,0.0
26.878,0.075,-0.006,0.0
24.047,0.064,-0.129,1.0
21.238,0.055,-0.224,4.0
18.506,0.046,-0.292,0.0
16.859,0.04,-0.353,0.0
15.605,0.036,-0.407,0.0
28.519,0.064,0.052,1.0
25.275,0.055,-0.083,0.0
22.206,0.046,-0.187,0.0
19.499,0.039,-0.267,0.0
17.435,0.033,-0.329,0.0
16.153,0.029,-0.388,0.0
28.804,0.051,0.112,0.0
26.364,0.045,-0.032,0.0
23.615,0.038,-0.15,1.0
20.915,0.032,-0.243,1.0
18.234,0.026,-0.306,0.0
16.632,0.023,-0.365,0.0
30.626,0.041,0.184,0.0
27.618,0.034,0.024,0.0
24.725,0.029,-0.105,0.0
21.743,0.024,-0.207,1.0
19.082,0.02,-0.279,0.0
17.225,0.016,-0.341,0.0
32.953,0.03,0.268,0.0
28.715,0.024,0.086,1.0
25.844,0.02,-0.056,0.0
23.298,0.016,-0.172,0.0
20.407,0.013,-0.256,0.0
17.932,0.01,-0.317,0.0
34.215,0.018,0.351,0.0
30.329,0.014,0.155,0.0
26.924,0.011,0.0,0.0
23.997,0.008,-0.126,0.0
21.239,0.006,-0.221,3.0
18.588,0.004,-0.289,0.0
36.902,0.007,0.456,0.0
31.511,0.005,0.227,0.0
28.492,0.003,0.059,1.0
25.44,0.001,-0.08,0.0
22.421,0.0,-0.186,0.0
19.677,0.0,-0.264,0.0
39.403,-0.003,0.571,0.0
33.258,-0.004,0.311,0.0
30.13,-0.005,0.126,0.0
26.403,-0.005,-0.027,0.0
23.772,-0.006,-0.146,1.0
21.042,-0.006,-0.238,2.0
43.097,-0.015,0.716,0.0
36.017,-0.014,0.414,0.0
31.005,-0.013,0.197,0.0
28.108,-0.013,0.031,0.0
24.975,-0.012,-0.1,0.0
22.01,-0.011,-0.201,0.0
0.0,0.0,0.0,0.0
0.0,0.0,0.0,0.0
33.056,-0.021,0.28,0.0
28.754,-0.019,0.093,1.0
26.116,-0.018,-0.049,0.0
23.537,-0.017,-0.165,0.0
0.0,0.0,0.0,0.0
41.446,-0.032,0.654,0.0
0.0,0.0,0.0,0.0
30.383,-0.025,0.163,0.0
27.291,-0.023,0.007,0.0
24.494,-0.021,-0.119,0.0
0.0,0.0,0.0,0.0
0.0,0.0,0.0,0.0
0.0,0.0,0.0,0.0
31.653,-0.03,0.239,0.0
28.747,-0.028,0.069,4.0
25.708,-0.025,-0.07,0.0
78.663,-0.081,1.984,4.0
0.0,0.0,0.0,0.0
39.573,-0.041,0.59,0.0
0.0,0.0,0.0,0.0
28.9,-0.03,0.131,0.0
26.866,-0.028,-0.015,0.0
78.682,-0.087,2.154,5.0
0.0,0.0,0.0,0.0
0.0,0.0,0.0,0.0
0.0,0.0,0.0,0.0
31.521,-0.035,0.211,0.0
28.611,-0.031,0.044,2.0
82.846,-0.095,2.444,5.0
78.486,-0.089,1.912,0.0
0.0,0.0,0.0,0.0
39.693,-0.044,0.554,0.0
33.136,-0.037,0.292,0.0
28.833,-0.032,0.106,3.0
83.279,-0.095,2.637,3.0
78.625,-0.089,2.084,9.0
0.0,0.0,0.0,0.0
43.107,-0.047,0.694,0.0
0.0,0.0,0.0,0.0
30.72,-0.033,0.178,0.0
108.031,-0.12,3.651,2.0
82.771,-0.09,2.37,1.0
0.0,0.0,0.0,0.0
0.0,0.0,0.0,0.0
37.889,-0.038,0.495,0.0
32.815,-0.033,0.26,0.0
108.784,-0.113,3.907,11.0
83.13,-0.084,2.558,6.0
78.585,-0.077,2.012,7.0
0.0,0.0,0.0,0.0
0.0,0.0,0.0,0.0
0.0,0.0,0.0,0.0
0.0,0.0,0.0,0.0
83.492,-0.074,2.744,1.0
78.471,-0.067,2.175,1.0
0.0,0.0,0.0,0.0
0.0,0.0,0.0,0.0
37.454,-0.028,0.455,0.0
0.0,0.0,0.0,0.0
108.34,-0.08,3.787,9.0
82.924,-0.058,2.471,7.0
78.511,-0.051,1.928,1.0
0.0,0.0,0.0,0.0
39.678,-0.022,0.565,0.0
0.0,0.0,0.0,0.0
109.165,-0.059,4.046,3.0
83.314,-0.041,2.657,8.0
78.124,-0.035,2.082,3.0
0.0,0.0,0.0,0.0
42.935,-0.015,0.7,0.0
202.714,-0.076,8.985,9.0
0.0,0.0,0.0,0.0
83.372,-0.022,2.833,9.0
82.715,-0.017,2.376,4.0
0.0,0.0,0.0,0.0
0.0,0.0,0.0,0.0
201.725,-0.024,9.36,23.0
202.856,-0.011,8.363,7.0
83.345,0.0,3.005,4.0
83.2,0.005,2.56,11.0
77.747,0.01,1.992,2.0
0.0,0.0,0.0,0.0
201.431,0.035,9.766,20.0
202.656,0.049,8.778,8.0
176.691,0.055,6.737,4.0
83.267,0.031,2.736,25.0
77.614,0.035,2.15,0.0
0.0,0.0,0.0,0.0
201.264,0.102,10.173,13.0
201.73,0.117,9.153,20.0
83.333,0.054,3.35,1.0
83.274,0.061,2.907,26.0
82.947,0.067,2.467,8.0
77.152,0.068,1.896,0.0
151.129,0.132,7.951,35.0
201.598,0.193,9.561,23.0
83.298,0.086,3.518,3.0
83.296,0.093,3.079,30.0
78.118,0.094,2.483,9.0
77.22,0.099,2.055,3.0
151.087,0.193,8.257,41.0
201.227,0.274,9.95,14.0
83.293,0.121,3.687,17.0
83.304,0.129,3.249,31.0
78.065,0.127,2.64,15.0
78.06,0.135,2.235,4.0
151.199,0.26,8.569,15.0
83.336,0.151,4.291,10.0
83.268,0.159,3.854,27.0
83.271,0.166,3.413,35.0
83.241,0.175,2.982,40.0
83.112,0.183,2.547,12.0
83.267,0.182,4.886,14.0
83.304,0.191,4.455,13.0
83.256,0.199,4.02,33.0
83.256,0.208,3.579,39.0
83.259,0.216,3.148,42.0
83.197,0.225,2.714,15.0
83.235,0.224,5.051,25.0
83.238,0.233,4.616,23.0
83.238,0.242,4.184,30.0
83.241,0.252,3.744,41.0
83.251,0.261,3.312,43.0
83.259,0.27,2.879,15.0
83.172,0.269,5.21,27.0
83.182,0.279,4.778,25.0
83.227,0.289,4.347,26.0
83.248,0.299,3.907,49.0
83.265,0.309,3.475,45.0
83.285,0.318,3.043,43.0
79.412,0.303,5.13,26.0
83.153,0.328,4.938,30.0
83.234,0.338,4.511,26.0
83.236,0.348,4.068,34.0
83.303,0.359,3.637,38.0
83.32,0.369,3.205,34.0
79.437,0.352,5.286,88.0
83.159,0.379,5.099,24.0
83.208,0.39,4.668,25.0
83.24,0.4,4.227,15.0
83.278,0.411,3.796,4.0
79.365,0.403,3.204,8.0
79.43,0.403,5.438,6.0
79.435,0.414,5.023,46.0
79.351,0.424,4.603,4.0
79.341,0.434,4.179,10.0
79.374,0.445,3.767,7.0
79.354,0.455,3.351,11.0
62.758,0.361,4.414,25.0
79.326,0.467,5.165,8.0
79.316,0.478,4.749,3.0
79.332,0.489,4.327,10.0
79.358,0.5,3.913,9.0
79.36,0.511,3.5,11.0
62.823,0.405,4.536,22.0
79.335,0.524,5.312,3.0
79.274,0.535,4.893,3.0
79.309,0.546,4.472,7.0
79.335,0.558,4.058,9.0
79.374,0.569,3.645,9.0
63.084,0.454,4.671,35.0
76.86,0.565,5.288,16.0
76.408,0.573,4.855,10.0
79.304,0.606,4.616,2.0
79.385,0.618,4.204,6.0
79.353,0.63,3.787,6.0
75.817,0.604,5.751,11.0
62.792,0.51,4.432,26.0
76.58,0.633,5.003,27.0
76.74,0.647,4.604,3.0
79.298,0.681,4.342,7.0
79.362,0.694,3.93,8.0
63.627,0.558,4.94,18.0
62.879,0.561,4.551,8.0
76.706,0.697,5.148,15.0
76.697,0.709,4.737,3.0
79.364,0.747,4.485,6.0
79.371,0.759,4.068,10.0
63.51,0.61,5.045,9.0
66.835,0.653,4.956,8.0
76.146,0.756,5.244,32.0
79.481,0.801,5.047,11.0
0.0,0.0,0.0,0.0
91.078,0.949,4.826,17.0
57.246,0.599,4.645,22.0
63.436,0.674,4.813,25.0
76.062,0.821,5.368,12.0
76.409,0.837,4.982,19.0
76.608,0.852,4.591,23.0
90.849,1.026,4.966,10.0
57.371,0.651,4.753,24.0
67.175,0.774,5.21,19.0
63.197,0.739,4.567,24.0
76.184,0.904,5.096,20.0
76.46,0.92,4.71,40.0
76.612,0.935,4.317,22.0
62.459,0.766,5.28,20.0
62.708,0.78,4.968,15.0
63.32,0.799,4.681,20.0
76.264,0.976,5.228,18.0
76.429,0.991,4.835,32.0
76.507,1.005,4.435,23.0
62.584,0.827,5.393,13.0
62.913,0.842,5.088,12.0
82.63,1.121,6.243,27.0
76.303,1.048,5.353,30.0
76.565,1.066,4.966,16.0
76.49,1.078,4.556,17.0
59.013,0.836,5.179,22.0
59.042,0.847,4.868,29.0
58.969,0.857,4.548,22.0
63.314,0.932,4.541,7.0
76.648,1.142,5.092,22.0
76.584,1.155,4.681,25.0
0.0,0.0,0.0,0.0
59.028,0.906,4.959,33.0
59.002,0.916,4.643,31.0
77.316,1.216,5.666,15.0
76.687,1.22,5.212,26.0
89.046,1.432,5.58,10.0
56.955,0.921,5.176,31.0
58.603,0.959,5.013,32.0
58.99,0.976,4.732,19.0
83.399,1.396,6.238,24.0
76.703,1.299,5.329,19.0
89.181,1.528,5.723,10.0
57.18,0.985,5.284,26.0
57.857,1.008,5.037,32.0
63.271,1.114,5.17,7.0
83.443,1.485,6.366,11.0
76.702,1.38,5.443,10.0
89.225,1.623,5.858,14.0
57.509,1.053,5.4,32.0
57.3,1.06,5.073,25.0
67.547,1.262,5.619,8.0
76.944,1.453,5.983,14.0
76.8,1.465,5.561,31.0
82.847,1.597,5.558,10.0
57.795,1.121,5.511,6.0
57.366,1.124,5.161,31.0
61.732,1.221,5.223,16.0
62.763,1.254,4.968,15.0
83.547,1.685,6.166,31.0
82.516,1.681,5.65,22.0
60.609,1.242,5.863,7.0
56.216,1.163,5.135,30.0
61.762,1.289,5.31,17.0
62.911,1.326,5.065,20.0
83.52,1.777,6.277,25.0
82.553,1.773,5.763,15.0
49.37,1.067,4.842,23.0
55.922,1.219,5.184,17.0
56.089,1.234,4.898,7.0
62.995,1.398,5.155,22.0
76.934,1.724,5.884,22.0
76.985,1.741,5.476,16.0
49.46,1.125,4.917,24.0
56.524,1.297,5.314,10.0
55.949,1.295,4.959,19.0
62.994,1.471,5.238,12.0
76.85,1.811,5.977,13.0
82.704,1.966,5.989,28.0
49.481,1.183,4.983,32.0
50.418,1.216,4.804,20.0
50.098,1.218,4.503,23.0
62.961,1.544,5.314,13.0
64.706,1.601,5.113,14.0
82.483,2.057,6.075,16.0
49.579,1.244,5.055,23.0
49.847,1.261,4.812,16.0
50.006,1.276,4.557,26.0
63.243,1.627,5.416,29.0
64.546,1.673,5.179,26.0
82.614,2.159,6.184,27.0
49.517,1.302,5.108,26.0
50.564,1.34,4.942,10.0
50.262,1.342,4.64,24.0
62.986,1.695,5.468,22.0
64.554,1.75,5.255,30.0
65.038,1.778,4.944,8.0
49.17,1.352,5.13,24.0
50.608,1.402,5.005,24.0
50.541,1.411,4.724,24.0
63.09,1.775,5.549,11.0
64.492,1.827,5.323,9.0
82.656,2.36,6.376,11.0
48.637,1.398,5.13,23.0
50.833,1.472,5.085,23.0
56.278,1.641,5.323,14.0
55.977,1.644,4.986,7.0
63.008,1.863,5.27,8.0
62.159,1.852,4.863,10.0
46.306,1.389,4.935,22.0
50.869,1.536,5.143,12.0
50.363,1.531,4.818,17.0
0.0,0.0,0.0,0.0
62.36,1.922,5.281,24.0
62.147,1.929,4.927,17.0
48.562,1.516,5.226,8.0
50.891,1.6,5.198,13.0
50.859,1.609,4.917,21.0
56.627,1.804,5.16,13.0
62.336,1.999,5.342,20.0
62.271,2.01,4.998,18.0
48.746,1.584,5.294,12.0
50.967,1.667,5.257,8.0
50.77,1.672,4.959,25.0
56.089,1.859,5.167,5.0
67.526,2.252,5.853,41.0
64.093,2.151,5.207,19.0
48.658,1.644,5.332,4.0
51.023,1.735,5.312,15.0
56.55,1.935,5.578,13.0
50.237,1.73,4.675,24.0
66.777,2.313,5.85,29.0
64.218,2.238,5.276,19.0
45.502,1.597,5.029,30.0
46.322,1.635,4.865,17.0
56.659,2.011,5.64,16.0
50.068,1.788,4.704,31.0
50.022,1.797,4.426,8.0
64.168,2.319,5.328,15.0
45.598,1.659,5.079,18.0
48.712,1.783,5.158,7.0
56.408,2.076,5.663,6.0
50.083,1.854,4.749,25.0
50.039,1.863,4.47,23.0
66.685,2.497,5.593,18.0
45.554,1.717,5.113,24.0
46.251,1.753,4.935,14.0
48.426,1.846,4.901,9.0
50.28,1.926,4.808,29.0
50.26,1.936,4.53,32.0
55.954,2.167,4.737,7.0
45.616,1.779,5.155,22.0
49.014,1.922,5.269,23.0
48.431,1.909,4.939,23.0
50.325,1.994,4.85,40.0
57.856,2.304,5.259,11.0
56.096,2.246,4.791,22.0
45.634,1.84,5.192,31.0
49.604,2.01,5.369,23.0
48.4,1.971,4.971,22.0
50.28,2.058,4.882,20.0
49.71,2.045,4.553,15.0
56.009,2.317,4.822,10.0
45.656,1.901,5.226,37.0
49.717,2.08,5.416,16.0
56.145,2.36,5.805,16.0
50.385,2.129,4.926,24.0
49.7,2.11,4.586,21.0
49.327,2.105,4.279,13.0
45.65,1.962,5.256,29.0
46.207,1.995,5.063,32.0
56.297,2.441,5.857,23.0
50.372,2.195,4.957,24.0
49.776,2.179,4.624,20.0
56.495,2.484,4.936,9.0
45.63,2.022,5.281,32.0
46.221,2.057,5.093,20.0
56.313,2.517,5.893,15.0
50.427,2.264,4.992,24.0
49.719,2.243,4.647,18.0
56.555,2.562,4.974,10.0
45.655,2.083,5.31,32.0
48.366,2.216,5.356,13.0
56.36,2.594,5.928,9.0
50.632,2.34,5.04,24.0
49.708,2.307,4.673,21.0
49.538,2.31,4.383,31.0
45.705,2.146,5.34,33.0
48.322,2.278,5.376,40.0
51.364,2.432,5.429,25.0
50.452,2.399,5.047,25.0
49.821,2.378,4.708,30.0
49.569,2.376,4.409,32.0
45.891,2.216,5.384,16.0
48.155,2.334,5.381,22.0
50.649,2.464,5.377,24.0
50.148,2.45,5.039,22.0
49.868,2.446,4.734,34.0
49.799,2.453,4.451,23.0
45.824,2.273,5.396,6.0
47.87,2.383,5.369,22.0
48.896,2.444,5.211,15.0
50.296,2.524,5.075,17.0
53.544,2.697,5.105,9.0
49.71,2.514,4.463,19.0
43.735,2.228,5.167,14.0
47.604,2.433,5.357,21.0
48.79,2.503,5.218,22.0
49.977,2.574,5.061,24.0
49.915,2.581,4.777,23.0
49.664,2.577,4.476,28.0
43.651,2.281,5.172,35.0
47.502,2.492,5.362,39.0
48.708,2.564,5.226,19.0
