X,Y,Z,Reflectivity
13.693,0.889,-0.486,0.0
12.782,0.833,-0.527,0.0
12.041,0.787,-0.565,0.0
17.21,1.13,-0.337,0.0
15.824,1.042,-0.401,0.0
14.519,0.959,-0.451,0.0
13.456,0.891,-0.496,0.0
12.629,0.839,-0.538,0.0
11.85,0.79,-0.573,0.0
16.86,1.128,-0.354,0.0
15.515,1.041,-0.414,0.0
14.239,0.958,-0.462,0.0
13.246,0.894,-0.507,0.0
12.421,0.84,-0.546,0.0
11.672,0.792,-0.58,0.0
16.632,1.133,-0.372,0.0
15.186,1.037,-0.426,0.0
13.99,0.958,-0.473,0.0
13.015,0.894,-0.516,0.0
12.202,0.84,-0.554,0.0
11.494,0.794,-0.588,0.0
16.126,1.117,-0.384,0.0
14.884,1.034,-0.439,0.0
13.767,0.959,-0.485,0.0
12.824,0.895,-0.527,0.0
12.049,0.844,-0.564,0.0
11.302,0.793,-0.594,0.0
15.854,1.116,-0.4,0.0
14.597,1.031,-0.452,0.0
13.487,0.955,-0.495,0.0
12.626,0.896,-0.537,0.0
11.863,0.844,-0.572,0.0
11.124,0.793,-0.6,0.0
15.538,1.111,-0.414,0.0
14.301,1.025,-0.463,0.0
13.281,0.954,-0.506,0.0
12.408,0.894,-0.545,0.0
11.643,0.84,-0.578,0.0
10.956,0.793,-0.607,0.0
15.226,1.105,-0.428,0.0
13.986,1.017,-0.473,0.0
13.048,0.951,-0.516,0.0
12.236,0.894,-0.555,0.0
11.463,0.839,-0.586,0.0
10.752,0.789,-0.612,0.0
14.86,1.094,-0.439,0.0
13.74,1.013,-0.485,0.0
12.753,0.943,-0.523,0.0
12.018,0.89,-0.563,0.0
11.25,0.835,-0.592,0.0
10.648,0.792,-0.621,0.0
14.57,1.086,-0.452,0.0
13.513,1.01,-0.496,0.0
12.604,0.944,-0.535,0.0
11.816,0.886,-0.571,0.0
11.108,0.835,-0.601,0.0
10.483,0.79,-0.627,0.0
14.213,1.073,-0.461,0.0
13.223,1.0,-0.505,0.0
12.396,0.939,-0.545,0.0
11.584,0.88,-0.577,0.0
10.943,0.833,-0.608,0.0
10.331,0.788,-0.633,0.0
13.975,1.067,-0.474,0.0
12.917,0.988,-0.513,0.0
12.215,0.936,-0.555,0.0
11.349,0.872,-0.582,0.0
10.831,0.833,-0.618,0.0
10.192,0.786,-0.64,0.0
13.668,1.056,-0.484,0.0
12.715,0.984,-0.523,0.0
12.024,0.932,-0.564,0.0
11.266,0.875,-0.594,0.0
10.605,0.825,-0.621,0.0
10.066,0.784,-0.647,0.0
13.469,1.051,-0.497,0.0
12.568,0.982,-0.536,0.0
11.703,0.916,-0.566,0.0
11.09,0.87,-0.602,0.0
10.436,0.82,-0.626,0.0
9.87,0.777,-0.649,0.0
13.163,1.037,-0.505,0.0
12.391,0.978,-0.547,0.0
11.616,0.918,-0.579,0.0
10.901,0.863,-0.608,0.0
10.305,0.817,-0.634,0.0
9.728,0.773,-0.654,0.0
12.941,1.029,-0.516,0.0
12.174,0.969,-0.555,0.0
11.406,0.909,-0.586,0.0
10.73,0.857,-0.614,0.0
10.165,0.813,-0.64,0.0
9.619,0.771,-0.661,0.0
12.709,1.019,-0.526,0.0
12.019,0.965,-0.566,0.0
11.235,0.903,-0.594,0.0
10.59,0.853,-0.622,0.0
9.99,0.806,-0.644,0.0
9.497,0.767,-0.667,0.0
12.539,1.013,-0.537,0.0
11.75,0.951,-0.571,0.0
11.043,0.895,-0.6,0.0
10.418,0.845,-0.628,0.0
9.843,0.8,-0.65,0.0
9.383,0.764,-0.674,0.0
12.349,1.005,-0.548,0.0
11.546,0.941,-0.579,0.0
10.844,0.885,-0.606,0.0
10.334,0.845,-0.638,0.0
9.768,0.799,-0.66,0.0
9.182,0.752,-0.673,0.0
12.139,0.995,-0.557,0.0
11.376,0.933,-0.587,0.0
10.654,0.875,-0.611,0.0
10.111,0.832,-0.639,0.0
9.625,0.793,-0.664,0.0
9.085,0.749,-0.68,0.0
11.913,0.982,-0.564,0.0
11.181,0.923,-0.594,0.0
10.543,0.871,-0.621,0.0
9.949,0.823,-0.644,0.0
9.444,0.782,-0.666,0.0
8.977,0.745,-0.685,0.0
11.709,0.971,-0.572,0.0
11.013,0.914,-0.601,0.0
10.386,0.863,-0.627,0.0
9.849,0.819,-0.652,0.0
9.321,0.776,-0.671,0.0
8.888,0.741,-0.691,0.0
11.551,0.963,-0.581,0.0
10.858,0.906,-0.609,0.0
10.215,0.853,-0.632,0.0
9.714,0.812,-0.658,0.0
9.224,0.772,-0.678,0.0
8.788,0.736,-0.697,0.0
11.35,0.95,-0.588,0.0
10.638,0.891,-0.612,0.0
10.107,0.848,-0.64,0.0
9.585,0.805,-0.663,0.0
9.094,0.764,-0.682,0.0
8.643,0.727,-0.698,0.0
11.188,0.94,-0.596,0.0
10.594,0.891,-0.625,0.0
10.0,0.842,-0.648,0.0
9.438,0.795,-0.667,0.0
9.004,0.759,-0.688,0.0
8.561,0.723,-0.704,0.0
10.998,0.927,-0.601,0.0
10.404,0.878,-0.629,0.0
9.824,0.83,-0.651,0.0
9.263,0.783,-0.668,0.0
8.919,0.755,-0.695,0.0
8.469,0.717,-0.709,0.0
10.86,0.918,-0.61,0.0
10.273,0.869,-0.636,0.0
9.692,0.821,-0.656,0.0
9.233,0.783,-0.679,0.0
8.784,0.745,-0.697,0.0
8.416,0.714,-0.717,0.0
10.621,0.9,-0.612,0.0
10.108,0.857,-0.641,0.0
9.531,0.809,-0.659,0.0
9.088,0.772,-0.682,0.0
8.697,0.739,-0.703,0.0
8.263,0.703,-0.716,0.0
10.584,0.899,-0.625,0.0
9.961,0.846,-0.646,0.0
9.494,0.807,-0.67,0.0
8.988,0.765,-0.687,0.0
8.584,0.731,-0.706,0.0
8.271,0.705,-0.728,0.0
10.401,0.884,-0.629,0.0
9.844,0.837,-0.652,0.0
9.337,0.795,-0.672,0.0
0.0,0.0,0.0,0.0
8.496,0.724,-0.711,0.0
8.122,0.693,-0.726,0.0
10.227,0.87,-0.632,0.0
9.699,0.826,-0.656,0.0
9.254,0.788,-0.679,0.0
0.0,0.0,0.0,0.0
8.419,0.718,-0.716,0.0
0.0,0.0,0.0,0.0
78.056,0.412,2.436,22.0
74.94,0.406,1.951,3.0
0.0,0.0,0.0,0.0
0.0,0.0,0.0,0.0
34.623,0.201,0.36,0.0
0.0,0.0,0.0,0.0
78.16,0.474,2.595,24.0
75.733,0.47,2.122,4.0
0.0,0.0,0.0,0.0
0.0,0.0,0.0,0.0
37.614,0.25,0.465,0.0
32.287,0.219,0.232,0.0
78.058,0.538,2.746,11.0
78.19,0.55,2.345,11.0
74.931,0.539,1.859,1.0
0.0,0.0,0.0,0.0
39.632,0.297,0.568,0.0
0.0,0.0,0.0,0.0
78.033,0.605,2.898,9.0
78.126,0.618,2.496,17.0
74.894,0.604,2.004,5.0
0.0,0.0,0.0,0.0
0.0,0.0,0.0,0.0
36.104,0.308,0.4,0.0
79.367,0.686,3.103,9.0
78.096,0.687,2.646,26.0
58.006,0.52,1.664,1.0
57.716,0.526,1.35,1.0
0.0,0.0,0.0,0.0
0.0,0.0,0.0,0.0
79.391,0.759,3.255,10.0
79.397,0.772,2.842,1.0
57.676,0.571,1.764,1.0
57.761,0.581,1.46,0.0
0.0,0.0,0.0,0.0
41.244,0.429,0.614,0.0
109.108,1.148,4.68,11.0
108.002,1.154,4.069,9.0
57.326,0.622,1.861,0.0
57.136,0.63,1.552,1.0
57.607,0.645,1.265,0.0
0.0,0.0,0.0,0.0
109.054,1.255,4.883,11.0
108.086,1.262,4.275,13.0
0.0,0.0,0.0,0.0
56.639,0.681,1.643,0.0
57.367,0.7,1.365,1.0
0.0,0.0,0.0,0.0
92.336,1.156,4.304,14.0
108.958,1.383,4.509,15.0
56.44,0.726,2.04,1.0
56.29,0.734,1.735,1.0
56.299,0.745,1.442,1.0
0.0,0.0,0.0,0.0
76.622,1.039,3.71,12.0
76.691,1.053,3.312,7.0
0.0,0.0,0.0,0.0
55.95,0.789,1.826,0.0
0.0,0.0,0.0,0.0
0.0,0.0,0.0,0.0
76.555,1.119,3.843,26.0
76.577,1.134,3.443,44.0
0.0,0.0,0.0,0.0
55.683,0.845,1.915,0.0
55.49,0.853,1.617,0.0
55.756,0.868,1.334,0.0
76.543,1.203,3.978,25.0
76.539,1.218,3.577,35.0
0.0,0.0,0.0,0.0
0.0,0.0,0.0,0.0
55.079,0.908,1.702,1.0
55.006,0.918,1.411,1.0
76.655,1.292,4.118,16.0
76.573,1.305,3.711,15.0
0.0,0.0,0.0,0.0
0.0,0.0,0.0,0.0
55.059,0.971,1.795,1.0
54.694,0.976,1.497,0.0
84.833,1.528,4.702,18.0
91.112,1.658,4.57,12.0
90.923,1.673,4.082,2.0
0.0,0.0,0.0,0.0
0.0,0.0,0.0,0.0
0.0,0.0,0.0,0.0
84.272,1.617,4.813,26.0
85.392,1.656,4.426,12.0
90.195,1.767,4.2,17.0
0.0,0.0,0.0,0.0
0.0,0.0,0.0,0.0
54.196,1.095,1.663,0.0
84.044,1.714,4.939,20.0
83.608,1.722,4.472,17.0
88.715,1.846,4.276,22.0
56.06,1.178,2.401,0.0
0.0,0.0,0.0,0.0
54.488,1.168,1.76,51.0
83.872,1.814,5.065,20.0
83.225,1.817,4.586,15.0
88.872,1.959,4.428,10.0
88.738,1.975,3.942,1.0
0.0,0.0,0.0,0.0
54.404,1.234,1.843,1.0
82.394,1.884,5.105,30.0
82.589,1.906,4.681,22.0
83.446,1.944,4.287,13.0
88.807,2.087,4.083,15.0
0.0,0.0,0.0,0.0
0.0,0.0,0.0,0.0
82.211,1.984,5.221,32.0
82.341,2.005,4.793,29.0
83.078,2.041,4.396,21.0
88.881,2.203,4.222,13.0
0.0,0.0,0.0,0.0
0.0,0.0,0.0,0.0
82.048,2.086,5.335,30.0
81.992,2.103,4.897,26.0
82.793,2.141,4.505,20.0
83.665,2.183,4.101,16.0
56.089,1.476,2.452,0.0
0.0,0.0,0.0,0.0
82.152,2.198,5.466,31.0
81.812,2.207,5.008,40.0
81.87,2.226,4.575,35.0
83.035,2.277,4.192,22.0
85.329,2.358,3.853,5.0
57.72,1.608,2.3,1.0
82.191,2.309,5.588,30.0
81.76,2.314,5.122,27.0
81.749,2.333,4.686,29.0
82.275,2.366,4.271,17.0
83.818,2.43,3.905,7.0
0.0,0.0,0.0,0.0
82.205,2.42,5.705,33.0
82.044,2.434,5.256,29.0
81.48,2.436,4.785,33.0
82.547,2.487,4.399,11.0
81.536,2.474,3.911,33.0
0.0,0.0,0.0,0.0
82.242,2.535,5.821,21.0
82.057,2.547,5.369,28.0
81.43,2.546,4.893,36.0
81.903,2.58,4.476,32.0
81.666,2.591,4.028,32.0
81.323,2.6,3.578,2.0
66.134,2.13,4.77,31.0
66.126,2.145,4.416,32.0
81.691,2.669,5.018,29.0
81.884,2.694,4.583,34.0
81.721,2.707,4.137,13.0
81.245,2.71,3.68,19.0
81.477,2.739,5.983,8.0
66.153,2.239,4.503,6.0
81.737,2.785,5.126,17.0
81.718,2.803,4.678,37.0
82.203,2.839,4.266,14.0
81.363,2.829,3.787,32.0
65.189,2.283,4.87,18.0
81.607,2.877,5.658,20.0
65.809,2.335,4.209,25.0
81.964,2.927,4.794,20.0
81.574,2.933,4.334,34.0
81.428,2.947,3.89,31.0
65.366,2.384,4.964,22.0
65.499,2.404,4.621,8.0
81.562,3.012,5.315,21.0
81.495,3.029,4.865,12.0
81.276,3.04,4.416,32.0
81.34,3.062,3.984,32.0
80.581,3.057,6.216,14.0
65.33,2.493,4.687,29.0
65.362,2.509,4.338,56.0
65.441,2.528,3.984,25.0
65.598,2.55,3.641,21.0
65.613,2.567,3.289,17.0
66.535,2.622,5.211,26.0
77.57,3.075,5.656,24.0
81.922,3.267,5.53,19.0
65.418,2.623,4.057,24.0
65.512,2.643,3.71,27.0
65.55,2.661,3.36,59.0
66.591,2.723,5.289,19.0
81.075,3.334,6.002,9.0
80.997,3.35,5.558,7.0
65.457,2.723,4.131,9.0
65.455,2.738,3.778,29.0
65.541,2.757,3.429,59.0
64.1,2.717,5.161,2.0
66.325,2.826,4.981,24.0
66.066,2.831,4.604,37.0
65.641,2.828,4.212,17.0
65.467,2.837,3.847,28.0
65.581,2.857,3.5,27.0
0.0,0.0,0.0,0.0
32.747,2.223,0.273,0.0
28.338,1.916,0.077,1.0
24.833,1.672,-0.073,0.0
22.12,1.483,-0.189,0.0
19.286,1.288,-0.273,0.0
0.0,0.0,0.0,0.0
32.156,2.123,0.249,0.0
27.77,1.826,0.06,0.0
24.707,1.618,-0.087,0.0
21.904,1.429,-0.2,0.0
19.103,1.241,-0.281,0.0
38.99,2.514,0.499,0.0
31.471,2.02,0.227,0.0
27.387,1.75,0.044,0.0
24.458,1.556,-0.099,0.0
21.517,1.363,-0.208,0.0
18.75,1.183,-0.286,0.0
47.233,2.956,0.58,1.0
31.113,1.938,0.208,0.0
27.29,1.693,0.03,1.0
24.244,1.497,-0.111,0.0
21.374,1.314,-0.217,3.0
18.581,1.137,-0.293,0.0
36.557,2.218,0.431,0.0
30.501,1.842,0.189,0.0
26.891,1.616,0.016,0.0
23.928,1.431,-0.12,0.0
21.346,1.271,-0.227,1.0
18.446,1.093,-0.299,0.0
0.0,0.0,0.0,0.0
30.272,1.77,0.174,1.0
26.678,1.552,0.005,0.0
23.654,1.369,-0.129,0.0
21.082,1.214,-0.233,1.0
18.297,1.049,-0.304,0.0
35.292,2.006,0.386,0.0
30.192,1.707,0.161,0.0
26.49,1.49,-0.005,0.0
23.356,1.307,-0.137,0.0
20.865,1.161,-0.239,0.0
18.175,1.006,-0.309,0.0
0.0,0.0,0.0,0.0
29.905,1.632,0.148,0.0
26.237,1.424,-0.015,0.0
23.193,1.252,-0.145,0.0
20.449,1.098,-0.241,0.0
18.066,0.965,-0.314,1.0
0.0,0.0,0.0,0.0
29.363,1.544,0.136,0.0
25.967,1.358,-0.023,1.0
23.141,1.203,-0.152,0.0
20.051,1.036,-0.243,0.0
17.998,0.925,-0.318,1.0
33.731,1.717,0.333,0.0
29.258,1.48,0.126,0.0
25.878,1.302,-0.031,0.0
22.868,1.143,-0.157,0.0
19.968,0.992,-0.248,0.0
17.829,0.881,-0.32,0.0
33.759,1.651,0.324,0.0
29.031,1.41,0.117,0.0
25.791,1.245,-0.038,0.0
22.952,1.101,-0.163,1.0
19.962,0.951,-0.253,0.0
17.726,0.84,-0.323,0.0
33.433,1.567,0.313,1.0
28.879,1.345,0.11,0.0
25.708,1.189,-0.044,0.0
22.804,1.048,-0.167,1.0
19.771,0.902,-0.255,0.0
17.578,0.796,-0.324,0.0
32.945,1.477,0.302,1.0
28.777,1.281,0.104,0.0
25.611,1.132,-0.048,0.0
22.62,0.993,-0.17,0.0
19.804,0.863,-0.259,0.0
17.466,0.756,-0.325,0.0
32.74,1.402,0.294,1.0
28.753,1.222,0.099,1.0
25.472,1.074,-0.052,0.0
22.317,0.934,-0.171,0.0
19.737,0.82,-0.261,0.0
17.475,0.72,-0.327,0.0
32.943,1.342,0.292,1.0
28.737,1.162,0.096,1.0
25.51,1.023,-0.055,0.0
22.161,0.881,-0.173,0.0
19.598,0.773,-0.261,0.0
17.379,0.68,-0.327,0.0
33.19,1.284,0.291,1.0
28.784,1.104,0.093,1.0
25.773,0.98,-0.058,5.0
22.271,0.839,-0.175,0.0
19.556,0.731,-0.262,0.0
17.339,0.643,-0.328,0.0
80.653,-2.942,10.543,33.0
77.511,-2.809,9.688,20.0
78.01,-2.81,9.305,29.0
79.221,-2.836,8.989,29.0
64.713,-2.302,6.974,31.0
64.522,-2.281,6.588,26.0
77.94,-2.747,10.164,15.0
77.667,-2.719,9.683,27.0
77.965,-2.712,9.274,15.0
77.737,-2.686,8.795,17.0
64.828,-2.226,6.965,38.0
64.772,-2.21,6.591,40.0
77.951,-2.65,10.138,19.0
77.397,-2.614,9.622,28.0
0.0,0.0,0.0,0.0
77.608,-2.588,8.752,22.0
64.785,-2.146,6.936,33.0
64.919,-2.137,6.581,31.0
77.614,-2.544,10.064,30.0
77.136,-2.511,9.558,25.0
77.698,-2.512,9.182,13.0
65.337,-2.098,7.341,15.0
64.825,-2.069,6.913,26.0
64.919,-2.058,6.553,29.0
77.546,-2.446,10.02,32.0
77.175,-2.418,9.529,26.0
65.155,-2.027,7.67,13.0
65.502,-2.023,7.329,12.0
65.027,-1.996,6.904,39.0
64.7,-1.972,6.5,37.0
76.98,-2.334,9.91,18.0
77.245,-2.325,9.498,15.0
77.845,-2.326,9.125,21.0
65.523,-1.945,7.298,32.0
65.046,-1.917,6.873,39.0
64.461,-1.886,6.443,29.0
77.265,-2.249,9.905,17.0
74.117,-2.14,9.074,16.0
77.692,-2.228,9.065,20.0
65.023,-1.851,7.207,33.0
65.04,-1.838,6.836,36.0
64.409,-1.807,6.401,27.0
77.02,-2.148,9.829,9.0
74.202,-2.053,9.042,6.0
75.431,-2.071,8.757,22.0
65.031,-1.773,7.169,38.0
64.72,-1.751,6.764,35.0
64.467,-1.731,6.368,32.0
74.356,-1.983,9.443,11.0
76.355,-2.02,9.256,9.0
75.452,-1.981,8.711,17.0
65.183,-1.698,7.144,36.0
64.628,-1.671,6.712,33.0
64.231,-1.648,6.303,27.0
74.137,-1.887,9.365,23.0
74.292,-1.877,8.955,11.0
75.341,-1.887,8.647,29.0
65.349,-1.623,7.117,38.0
64.713,-1.595,6.676,39.0
64.212,-1.57,6.256,26.0
74.42,-1.804,9.348,29.0
74.392,-1.788,8.913,32.0
65.335,-1.558,7.451,12.0
65.037,-1.538,7.035,41.0
64.79,-1.52,6.636,39.0
64.282,-1.496,6.215,32.0
74.452,-1.716,9.295,39.0
74.81,-1.71,8.907,21.0
65.441,-1.483,7.412,34.0
64.963,-1.459,6.977,40.0
64.851,-1.445,6.592,35.0
63.978,-1.413,6.135,30.0
74.1,-1.621,9.192,27.0
65.211,-1.414,7.711,15.0
65.795,-1.413,7.399,29.0
64.774,-1.38,6.904,40.0
64.953,-1.371,6.549,39.0
63.876,-1.337,6.073,28.0
74.181,-1.535,9.139,15.0
74.053,-1.519,8.694,9.0
65.193,-1.324,7.276,30.0
64.685,-1.303,6.838,33.0
64.465,-1.286,6.443,35.0
64.076,-1.267,6.036,31.0
74.766,-1.46,9.144,13.0
73.51,-1.423,8.564,10.0
65.128,-1.248,7.21,31.0
64.699,-1.228,6.781,40.0
64.513,-1.212,6.389,30.0
63.961,-1.19,5.966,14.0
58.91,-1.082,7.149,16.0
68.486,-1.246,7.914,10.0
65.187,-1.174,7.154,25.0
64.654,-1.153,6.715,32.0
64.347,-1.136,6.311,33.0
64.269,-1.124,5.933,21.0
59.934,-1.033,7.215,19.0
63.393,-1.082,7.262,10.0
58.742,-0.991,6.389,12.0
64.648,-1.08,6.65,22.0
64.24,-1.062,6.236,33.0
64.197,-1.05,5.862,27.0
59.972,-0.966,7.158,13.0
64.326,-1.026,7.304,31.0
58.738,-0.926,6.328,29.0
64.497,-1.005,6.568,35.0
64.107,-0.989,6.157,31.0
64.066,-0.978,5.784,27.0
63.407,-0.952,7.502,6.0
64.318,-0.955,7.234,21.0
58.779,-0.862,6.27,30.0
64.482,-0.935,6.497,28.0
63.956,-0.917,6.074,27.0
63.988,-0.907,5.707,23.0
63.362,-0.881,7.426,19.0
57.229,-0.787,6.374,15.0
58.91,-0.8,6.218,29.0
64.438,-0.864,6.42,15.0
64.141,-0.85,6.02,21.0
66.456,-0.871,5.853,16.0
63.548,-0.816,7.375,18.0
57.311,-0.727,6.317,12.0
58.873,-0.737,6.147,31.0
58.457,-0.723,5.758,24.0
66.383,-0.81,6.154,20.0
66.956,-0.807,5.819,31.0
63.506,-0.748,7.296,10.0
57.256,-0.665,6.243,16.0
58.86,-0.675,6.075,27.0
58.517,-0.662,5.694,26.0
67.525,-0.754,6.179,16.0
73.741,-0.812,6.32,10.0
57.204,-0.615,6.501,19.0
57.568,-0.61,6.206,31.0
58.908,-0.615,6.008,22.0
58.505,-0.602,5.62,27.0
66.846,-0.678,6.033,26.0
62.588,-0.626,5.287,6.0
57.193,-0.557,6.428,23.0
65.153,-0.625,6.942,9.0
66.785,-0.631,6.727,18.0
58.527,-0.545,5.549,23.0
64.857,-0.594,5.772,18.0
62.644,-0.564,5.212,27.0
57.269,-0.5,6.362,26.0
59.068,-0.508,6.217,23.0
67.102,-0.567,6.671,16.0
58.62,-0.487,5.48,18.0
64.745,-0.529,5.677,19.0
62.565,-0.503,5.122,23.0
57.29,-0.445,6.288,30.0
59.154,-0.451,6.146,30.0
58.759,-0.44,5.762,7.0
64.816,-0.476,5.972,29.0
64.771,-0.467,5.591,19.0
62.571,-0.443,5.038,22.0
57.306,-0.39,6.21,29.0
58.604,-0.391,6.008,29.0
56.804,-0.371,5.491,10.0
64.824,-0.415,5.882,34.0
64.783,-0.406,5.502,12.0
76.625,-0.471,6.063,21.0
57.279,-0.336,6.126,18.0
58.726,-0.337,5.937,27.0
56.902,-0.319,5.42,20.0
64.845,-0.356,5.792,21.0
62.454,-0.335,5.215,31.0
82.345,-0.432,6.398,25.0
57.063,-0.283,6.02,32.0
58.801,-0.285,5.86,16.0
56.953,-0.269,5.343,13.0
64.758,-0.298,5.69,22.0
62.667,-0.281,5.142,29.0
82.641,-0.361,6.301,5.0
56.734,-0.232,5.902,14.0
56.938,-0.226,5.59,11.0
64.913,-0.251,5.994,25.0
62.449,-0.234,5.395,14.0
62.709,-0.228,5.053,11.0
82.65,-0.29,6.179,6.0
56.56,-0.183,5.798,19.0
57.055,-0.178,5.514,24.0
65.041,-0.196,5.907,30.0
62.479,-0.182,5.303,20.0
76.876,-0.215,6.077,11.0
63.138,-0.17,4.623,19.0
58.805,-0.141,5.937,17.0
57.11,-0.131,5.431,25.0
63.231,-0.139,5.643,7.0
59.016,-0.123,4.917,17.0
76.887,-0.153,5.957,16.0
63.132,-0.119,4.524,11.0
58.875,-0.095,5.851,9.0
57.345,-0.086,5.363,31.0
62.886,-0.088,5.513,20.0
62.397,-0.081,5.099,17.0
63.26,-0.076,4.801,6.0
83.454,-0.092,5.848,29.0
57.315,-0.048,5.604,32.0
67.428,-0.05,6.197,9.0
59.158,-0.038,5.091,18.0
76.822,-0.042,6.154,11.0
63.32,-0.029,4.703,33.0
83.058,-0.03,5.686,26.0
57.326,-0.006,5.511,27.0
59.142,0.0,5.338,23.0
59.052,0.004,4.984,18.0
76.885,0.012,6.033,6.0
63.352,0.015,4.602,33.0
83.052,0.028,5.548,30.0
57.606,0.035,5.441,33.0
59.095,0.041,5.235,29.0
62.548,0.049,5.174,22.0
63.494,0.054,4.875,17.0
96.877,0.092,6.871,12.0
83.114,0.086,5.412,29.0
58.279,0.075,5.404,33.0
59.107,0.081,5.135,22.0
62.634,0.091,5.074,26.0
63.492,0.097,4.766,31.0
79.276,0.127,5.489,16.0
83.182,0.14,5.275,28.0
58.882,0.113,5.36,34.0
62.866,0.126,5.354,17.0
62.936,0.131,4.991,5.0
63.418,0.137,4.652,14.0
79.385,0.177,5.361,13.0
83.224,0.192,5.134,26.0
59.238,0.151,5.289,14.0
62.712,0.164,5.23,32.0
63.511,0.171,4.925,13.0
62.76,0.173,4.494,7.0
79.414,0.225,5.223,21.0
83.207,0.241,4.986,30.0
62.964,0.198,5.509,24.0
62.759,0.201,5.122,32.0
63.499,0.208,4.81,23.0
62.732,0.21,4.379,7.0
83.133,0.283,5.318,22.0
83.183,0.288,4.837,28.0
63.154,0.234,5.412,29.0
62.928,0.237,5.023,17.0
63.104,0.241,4.667,15.0
79.409,0.308,5.401,43.0
83.178,0.327,5.171,28.0
83.217,0.332,4.688,25.0
63.067,0.266,5.289,24.0
63.503,0.271,4.953,23.0
62.85,0.272,4.534,28.0
79.422,0.348,5.257,113.0
83.182,0.369,5.019,22.0
83.245,0.373,4.538,9.0
62.84,0.296,5.153,28.0
63.35,0.301,4.823,28.0
62.699,0.301,4.407,11.0
79.419,0.386,5.109,48.0
79.331,0.389,4.641,5.0
79.306,0.392,4.176,9.0
63.184,0.326,5.063,39.0
62.974,0.328,4.677,25.0
79.348,0.417,5.428,8.0
79.296,0.42,4.953,9.0
79.309,0.423,4.491,10.0
79.336,0.427,4.029,11.0
63.242,0.353,4.948,29.0
62.874,0.354,4.551,26.0
76.373,0.432,5.081,6.0
79.299,0.451,4.804,4.0
79.308,0.455,4.342,11.0
79.356,0.458,3.881,8.0
63.241,0.377,4.829,31.0
76.921,0.462,5.422,20.0
76.336,0.46,4.934,6.0
79.322,0.481,4.654,4.0
79.331,0.484,4.191,9.0
79.342,0.486,3.728,10.0
63.108,0.399,4.696,29.0
76.8,0.488,5.264,8.0
79.302,0.506,4.97,3.0
79.286,0.508,4.498,8.0
79.363,0.51,4.037,10.0
79.345,0.512,3.573,11.0
62.837,0.417,4.553,30.0
76.526,0.51,5.096,12.0
79.326,0.53,4.817,3.0
79.315,0.532,4.343,8.0
79.331,0.534,3.881,7.0
79.365,0.536,3.419,8.0
76.867,0.532,5.417,16.0
76.523,0.531,4.945,9.0
79.401,0.552,4.665,3.0
79.349,0.553,4.189,9.0
79.381,0.555,3.728,9.0
79.356,0.555,3.263,8.0
76.74,0.549,5.257,22.0
79.291,0.569,4.967,2.0
79.293,0.57,4.502,7.0
79.358,0.571,4.032,10.0
79.355,0.572,3.569,11.0
78.031,0.563,3.054,5.0
76.601,0.564,5.094,24.0
79.309,0.585,4.808,1.0
79.335,0.586,4.346,7.0
79.349,0.586,3.874,7.0
79.375,0.587,3.411,7.0
78.045,0.578,2.898,11.0
76.611,0.578,4.941,10.0
79.309,0.598,4.649,3.0
79.351,0.598,4.187,7.0
79.309,0.598,3.712,9.0
79.356,0.599,3.251,5.0
78.093,0.589,2.742,14.0
76.782,0.589,4.795,6.0
79.303,0.609,4.488,7.0
79.346,0.608,4.025,9.0
79.345,0.608,3.554,9.0
0.0,0.0,0.0,0.0
78.127,0.598,2.585,19.0
79.381,0.617,4.796,2.0
79.349,0.616,4.328,9.0
79.36,0.615,3.864,6.0
79.362,0.615,3.391,7.0
78.052,0.603,2.878,20.0
78.189,0.604,2.426,6.0
79.341,0.622,4.629,4.0
79.336,0.62,4.163,7.0
79.335,0.619,3.698,9.0
79.286,0.617,3.224,6.0
78.1,0.607,2.72,18.0
75.968,0.589,2.201,4.0
79.325,0.623,4.465,8.0
79.332,0.621,4.001,8.0
79.37,0.62,3.537,7.0
79.337,0.618,3.065,5.0
78.154,0.607,2.562,19.0
74.797,0.579,2.014,3.0
79.303,0.622,4.301,8.0
79.365,0.62,3.839,6.0
79.363,0.618,3.374,7.0
78.062,0.606,2.854,25.0
79.266,0.613,2.434,2.0
0.0,0.0,0.0,0.0
79.333,0.617,4.137,9.0
79.372,0.615,3.675,9.0
79.346,0.613,3.209,4.0
78.108,0.601,2.693,12.0
75.9,0.581,2.172,5.0
0.0,0.0,0.0,0.0
79.354,0.61,3.972,10.0
79.356,0.607,3.507,7.0
78.035,0.594,2.992,5.0
78.119,0.592,2.531,18.0
74.797,0.564,1.986,2.0
0.0,0.0,0.0,0.0
79.397,0.6,3.808,7.0
79.356,0.597,3.342,8.0
78.073,0.584,2.83,12.0
78.105,0.58,2.367,3.0
0.0,0.0,0.0,0.0
0.0,0.0,0.0,0.0
79.349,0.586,3.64,11.0
0.0,0.0,0.0,0.0
78.113,0.57,2.667,20.0
75.565,0.548,2.131,6.0
0.0,0.0,0.0,0.0
43.022,0.307,0.709,0.0
79.362,0.57,3.472,7.0
78.045,0.556,2.957,8.0
78.146,0.553,2.504,25.0
74.727,0.525,1.949,2.0
0.0,0.0,0.0,0.0
0.0,0.0,0.0,0.0
79.373,0.55,3.306,8.0
78.037,0.537,2.793,17.0
78.158,0.533,2.339,4.0
0.0,0.0,0.0,0.0
0.0,0.0,0.0,0.0
36.505,0.242,0.448,0.0
77.994,0.518,3.084,2.0
78.154,0.515,2.633,25.0
75.35,0.492,2.098,5.0
0.0,0.0,0.0,0.0
43.332,0.277,0.694,0.0
34.226,0.216,0.349,0.0
79.402,0.502,2.973,7.0
78.169,0.489,2.469,10.0
74.456,0.461,1.916,0.0
0.0,0.0,0.0,0.0
37.676,0.228,0.525,0.0
32.178,0.192,0.261,0.0
78.116,0.466,2.762,19.0
75.959,0.448,2.241,3.0
0.0,0.0,0.0,0.0
0.0,0.0,0.0,0.0
36.292,0.206,0.43,0.0
0.0,0.0,0.0,0.0
78.133,0.435,2.599,28.0
75.193,0.413,2.061,3.0
0.0,0.0,0.0,0.0
40.611,0.217,0.634,0.0
33.529,0.176,0.327,0.0
28.766,0.148,0.113,1.0
78.002,0.4,2.431,9.0
73.992,0.374,1.873,1.0
0.0,0.0,0.0,0.0
37.477,0.183,0.507,0.0
31.524,0.151,0.242,0.0
27.841,0.131,0.051,0.0
75.976,0.354,2.21,6.0
0.0,0.0,0.0,0.0
0.0,0.0,0.0,0.0
35.626,0.156,0.408,0.0
0.0,0.0,0.0,0.0
26.727,0.112,-0.005,0.0
75.335,0.313,2.035,2.0
0.0,0.0,0.0,0.0
39.182,0.155,0.6,0.0
33.441,0.129,0.313,0.0
28.665,0.108,0.101,1.0
25.59,0.094,-0.058,0.0
0.0,0.0,0.0,0.0
0.0,0.0,0.0,0.0
37.106,0.126,0.492,0.0
31.488,0.104,0.23,0.0
27.583,0.088,0.04,0.0
24.505,0.076,-0.106,0.0
0.0,0.0,0.0,0.0
0.0,0.0,0.0,0.0
34.803,0.098,0.39,0.0
28.889,0.078,0.152,0.0
26.512,0.069,-0.015,0.0
23.32,0.058,-0.149,1.0
0.0,0.0,0.0,0.0
0.0,0.0,0.0,0.0
0.0,0.0,0.0,0.0
28.703,0.059,0.091,4.0
25.296,0.049,-0.066,0.0
21.87,0.04,-0.185,1.0
0.0,0.0,0.0,0.0
36.695,0.06,0.474,0.0
30.737,0.046,0.218,0.0
27.298,0.038,0.031,0.0
24.048,0.03,-0.112,1.0
21.051,0.024,-0.221,3.0
41.859,0.044,0.7,0.0
0.0,0.0,0.0,0.0
28.898,0.023,0.146,0.0
26.212,0.018,-0.023,0.0
23.293,0.013,-0.156,0.0
19.782,0.008,-0.248,0.0
39.027,0.012,0.573,0.0
33.009,0.006,0.292,0.0
28.438,0.002,0.086,1.0
25.088,-0.001,-0.073,5.0
21.631,-0.003,-0.189,1.0
18.766,-0.005,-0.273,0.0
36.203,-0.015,0.459,0.0
30.669,-0.017,0.21,0.0
27.245,-0.019,0.027,0.0
23.823,-0.019,-0.117,0.0
20.956,-0.02,-0.225,2.0
18.101,-0.019,-0.3,0.0
33.385,-0.041,0.357,0.0
28.841,-0.039,0.14,2.0
26.065,-0.039,-0.025,0.0
23.091,-0.038,-0.159,0.0
19.661,-0.035,-0.25,0.0
17.347,-0.033,-0.322,0.0
32.971,-0.068,0.286,0.0
28.656,-0.063,0.082,3.0
25.184,-0.059,-0.074,0.0
21.839,-0.054,-0.194,0.0
18.683,-0.049,-0.275,0.0
16.782,-0.046,-0.344,0.0
30.514,-0.089,0.205,0.0
27.196,-0.084,0.024,0.0
23.849,-0.077,-0.117,0.0
20.703,-0.069,-0.224,0.0
18.081,-0.063,-0.301,0.0
16.327,-0.06,-0.367,0.0
28.823,-0.11,0.137,7.0
26.058,-0.104,-0.027,0.0
22.983,-0.095,-0.158,0.0
19.611,-0.084,-0.251,0.0
17.296,-0.076,-0.322,0.0
15.904,-0.073,-0.388,0.0
28.636,-0.136,0.081,4.0
24.975,-0.123,-0.074,0.0
21.854,-0.111,-0.192,1.0
18.689,-0.098,-0.275,0.0
16.797,-0.09,-0.345,0.0
15.416,-0.085,-0.406,0.0
27.224,-0.156,0.025,0.0
24.059,-0.142,-0.117,0.0
20.747,-0.125,-0.221,0.0
18.051,-0.112,-0.3,0.0
16.366,-0.104,-0.367,0.0
14.913,-0.097,-0.421,0.0
26.235,-0.176,-0.024,0.0
22.966,-0.158,-0.155,0.0
19.555,-0.138,-0.245,0.0
17.304,-0.125,-0.32,0.0
15.905,-0.117,-0.386,0.0
14.484,-0.109,-0.436,0.0
25.033,-0.194,-0.07,0.0
22.113,-0.175,-0.19,1.0
18.818,-0.152,-0.271,0.0
16.744,-0.138,-0.341,0.0
15.529,-0.131,-0.406,0.0
14.127,-0.121,-0.452,0.0
24.072,-0.212,-0.112,1.0
20.807,-0.187,-0.217,0.0
18.128,-0.166,-0.295,0.0
16.392,-0.153,-0.364,0.0
14.867,-0.141,-0.416,0.0
13.852,-0.134,-0.468,0.0
22.872,-0.226,-0.148,0.0
19.686,-0.198,-0.242,0.0
17.393,-0.178,-0.315,0.0
15.903,-0.166,-0.382,0.0
14.513,-0.154,-0.433,0.0
13.502,-0.146,-0.481,0.0
22.158,-0.244,-0.183,0.0
18.944,-0.212,-0.267,0.0
16.849,-0.192,-0.335,0.0
15.506,-0.179,-0.4,0.0
14.227,-0.167,-0.45,0.0
13.172,-0.157,-0.493,0.0
20.944,-0.255,-0.21,0.0
18.199,-0.225,-0.288,0.0
16.471,-0.206,-0.357,0.0
15.049,-0.191,-0.415,0.0
13.842,-0.179,-0.462,0.0
12.819,-0.168,-0.502,0.0
19.966,-0.266,-0.235,0.0
17.591,-0.238,-0.309,0.0
16.039,-0.22,-0.375,0.0
14.626,-0.203,-0.428,0.0
13.523,-0.191,-0.475,0.0
12.625,-0.181,-0.517,0.0
19.165,-0.279,-0.259,0.0
17.048,-0.251,-0.329,0.0
15.668,-0.234,-0.393,0.0
14.305,-0.216,-0.443,0.0
13.242,-0.203,-0.487,0.0
12.395,-0.192,-0.528,0.0
18.391,-0.29,-0.279,0.0
16.618,-0.265,-0.349,0.0
15.173,-0.245,-0.406,0.0
13.97,-0.229,-0.457,0.0
12.98,-0.215,-0.5,0.0
12.188,-0.205,-0.54,0.0
17.809,-0.303,-0.3,0.0
16.245,-0.28,-0.368,0.0
14.8,-0.258,-0.421,0.0
13.666,-0.241,-0.47,0.0
12.679,-0.226,-0.509,0.0
11.929,-0.216,-0.549,0.0
17.214,-0.315,-0.319,0.0
15.854,-0.294,-0.386,0.0
14.454,-0.271,-0.435,0.0
13.309,-0.252,-0.479,0.0
12.537,-0.24,-0.524,0.0
11.713,-0.227,-0.557,0.0
16.783,-0.329,-0.338,0.0
15.364,-0.305,-0.398,0.0
14.126,-0.283,-0.448,0.0
13.064,-0.265,-0.491,0.0
12.322,-0.252,-0.535,0.0
11.497,-0.238,-0.566,0.0
16.456,-0.344,-0.357,0.0
14.983,-0.317,-0.412,0.0
13.837,-0.296,-0.46,0.0
12.805,-0.277,-0.501,0.0
12.023,-0.262,-0.541,0.0
11.315,-0.25,-0.574,0.0
16.077,-0.358,-0.374,0.0
14.654,-0.33,-0.425,0.0
13.564,-0.309,-0.472,0.0
12.699,-0.292,-0.517,0.0
11.861,-0.275,-0.552,0.0
11.17,-0.262,-0.584,0.0
15.697,-0.372,-0.389,0.0
14.371,-0.343,-0.439,0.0
13.304,-0.321,-0.483,0.0
12.414,-0.302,-0.524,0.0
11.656,-0.287,-0.56,0.0
10.994,-0.273,-0.592,0.0
15.342,-0.385,-0.403,0.0
14.031,-0.355,-0.45,0.0
12.984,-0.332,-0.491,0.0
12.223,-0.315,-0.534,0.0
11.449,-0.298,-0.567,0.0
10.729,-0.282,-0.593,0.0
14.843,-0.393,-0.411,0.0
13.759,-0.368,-0.461,0.0
12.789,-0.345,-0.502,0.0
11.984,-0.326,-0.541,0.0
11.305,-0.31,-0.576,0.0
10.58,-0.293,-0.6,0.0
14.59,-0.407,-0.425,0.0
13.516,-0.381,-0.472,0.0
12.6,-0.358,-0.512,0.0
11.808,-0.338,-0.55,0.0
11.153,-0.322,-0.584,0.0
10.482,-0.306,-0.609,0.0
14.332,-0.421,-0.437,0.0
13.279,-0.393,-0.482,0.0
12.449,-0.372,-0.523,0.0
11.651,-0.351,-0.558,0.0
10.99,-0.334,-0.59,0.0
10.349,-0.317,-0.616,0.0
14.023,-0.433,-0.447,0.0
13.06,-0.406,-0.491,0.0
12.247,-0.384,-0.531,0.0
11.477,-0.363,-0.565,0.0
10.787,-0.343,-0.593,0.0
10.137,-0.325,-0.616,0.0
13.78,-0.446,-0.457,0.0
12.872,-0.419,-0.501,0.0
11.999,-0.394,-0.536,0.0
11.269,-0.373,-0.569,0.0
10.694,-0.356,-0.602,0.0
10.025,-0.337,-0.622,0.0
13.628,-0.461,-0.469,0.0
12.705,-0.433,-0.51,0.0
11.894,-0.408,-0.546,0.0
11.142,-0.385,-0.577,0.0
10.44,-0.364,-0.601,0.0
9.944,-0.349,-0.63,0.0
13.407,-0.474,-0.478,0.0
12.49,-0.445,-0.517,0.0
11.735,-0.421,-0.554,0.0
11.014,-0.398,-0.584,0.0
10.357,-0.377,-0.609,0.0
9.825,-0.36,-0.634,0.0
13.2,-0.487,-0.487,0.0
12.323,-0.458,-0.525,0.0
11.559,-0.433,-0.559,0.0
10.815,-0.408,-0.587,0.0
10.25,-0.389,-0.615,0.0
9.659,-0.369,-0.635,0.0
12.976,-0.499,-0.494,0.0
12.185,-0.472,-0.534,0.0
11.377,-0.444,-0.564,0.0
10.735,-0.421,-0.595,0.0
10.146,-0.401,-0.62,0.0
9.614,-0.383,-0.643,0.0
12.802,-0.512,-0.502,0.0
11.975,-0.482,-0.538,0.0
11.223,-0.455,-0.569,0.0
10.553,-0.431,-0.596,0.0
9.991,-0.411,-0.622,0.0
9.511,-0.394,-0.647,0.0
12.612,-0.524,-0.508,0.0
11.871,-0.497,-0.546,0.0
11.146,-0.47,-0.577,0.0
10.449,-0.443,-0.602,0.0
0.0,0.0,0.0,0.0
9.339,-0.401,-0.645,0.0
12.488,-0.539,-0.516,0.0
11.683,-0.508,-0.55,0.0
10.986,-0.481,-0.58,0.0
10.42,-0.459,-0.611,0.0
0.0,0.0,0.0,0.0
9.298,-0.415,-0.652,0.0
12.391,-0.555,-0.525,0.0
11.541,-0.52,-0.555,0.0
10.907,-0.495,-0.587,0.0
10.226,-0.467,-0.61,0.0
9.7,-0.445,-0.634,0.0
9.213,-0.426,-0.655,0.0
12.269,-0.569,-0.531,0.0
11.47,-0.535,-0.562,0.0
10.806,-0.507,-0.592,0.0
10.17,-0.48,-0.616,0.0
9.631,-0.458,-0.639,0.0
9.139,-0.437,-0.659,0.0
12.049,-0.578,-0.533,0.0
11.345,-0.548,-0.567,0.0
10.66,-0.518,-0.594,0.0
10.01,-0.489,-0.616,0.0
9.593,-0.471,-0.645,0.0
9.081,-0.449,-0.663,0.0
11.932,-0.592,-0.539,0.0
11.243,-0.561,-0.572,0.0
10.582,-0.531,-0.599,0.0
9.968,-0.503,-0.622,0.0
0.0,0.0,0.0,0.0
9.018,-0.461,-0.666,0.0
11.854,-0.607,-0.545,0.0
11.145,-0.574,-0.576,0.0
10.523,-0.545,-0.604,0.0
0.0,0.0,0.0,0.0
0.0,0.0,0.0,0.0
8.949,-0.472,-0.668,0.0
11.756,-0.622,-0.55,0.0
11.01,-0.585,-0.578,0.0
10.346,-0.553,-0.602,0.0
9.85,-0.529,-0.631,0.0
9.273,-0.501,-0.647,0.0
8.891,-0.483,-0.671,0.0
11.605,-0.632,-0.552,0.0
10.974,-0.601,-0.584,0.0
10.286,-0.567,-0.606,0.0
9.754,-0.54,-0.632,0.0
9.279,-0.517,-0.654,0.0
8.84,-0.495,-0.674,0.0
11.504,-0.646,-0.556,0.0
10.869,-0.613,-0.587,0.0
10.263,-0.582,-0.612,0.0
9.646,-0.55,-0.632,0.0
9.213,-0.528,-0.656,0.0
8.759,-0.505,-0.673,0.0
11.409,-0.659,-0.559,0.0
10.751,-0.624,-0.588,0.0
10.148,-0.592,-0.612,0.0
9.617,-0.564,-0.636,0.0
0.0,0.0,0.0,0.0
8.698,-0.516,-0.675,0.0
11.368,-0.675,-0.564,0.0
10.714,-0.64,-0.592,0.0
10.159,-0.609,-0.62,0.0
9.609,-0.579,-0.642,0.0
9.102,-0.552,-0.66,0.0
8.674,-0.528,-0.678,0.0
11.239,-0.686,-0.565,0.0
10.587,-0.649,-0.592,0.0
10.083,-0.621,-0.621,0.0
0.0,0.0,0.0,0.0
0.0,0.0,0.0,0.0
8.616,-0.539,-0.678,0.0
11.216,-0.703,-0.57,0.0
10.542,-0.664,-0.595,0.0
10.014,-0.634,-0.622,0.0
0.0,0.0,0.0,0.0
0.0,0.0,0.0,0.0
8.585,-0.551,-0.68,0.0
11.146,-0.716,-0.572,0.0
10.457,-0.675,-0.596,0.0
0.0,0.0,0.0,0.0
0.0,0.0,0.0,0.0
0.0,0.0,0.0,0.0
8.571,-0.564,-0.684,0.0
11.074,-0.73,-0.573,0.0
10.42,-0.69,-0.598,0.0
0.0,0.0,0.0,0.0
0.0,0.0,0.0,0.0
0.0,0.0,0.0,0.0
8.488,-0.573,-0.681,0.0
11.036,-0.745,-0.576,0.0
10.409,-0.706,-0.602,0.0
9.897,-0.674,-0.629,0.0
0.0,0.0,0.0,0.0
0.0,0.0,0.0,0.0
8.498,-0.587,-0.685,0.0
10.996,-0.76,-0.578,0.0
10.278,-0.714,-0.599,0.0
0.0,0.0,0.0,0.0
0.0,0.0,0.0,0.0
0.0,0.0,0.0,0.0
8.437,-0.596,-0.683,0.0
10.955,-0.775,-0.58,0.0
10.307,-0.732,-0.604,0.0
0.0,0.0,0.0,0.0
0.0,0.0,0.0,0.0
8.787,-0.632,-0.665,0.0
8.438,-0.61,-0.686,0.0
10.981,-0.794,-0.585,0.0
0.0,0.0,0.0,0.0
9.829,-0.717,-0.634,0.0
0.0,0.0,0.0,0.0
8.821,-0.649,-0.67,0.0
8.39,-0.62,-0.684,0.0
10.876,-0.804,-0.582,0.0
0.0,0.0,0.0,0.0
0.0,0.0,0.0,0.0
0.0,0.0,0.0,0.0
0.0,0.0,0.0,0.0
8.399,-0.634,-0.687,0.0
10.856,-0.82,-0.583,0.0
0.0,0.0,0.0,0.0
0.0,0.0,0.0,0.0
9.123,-0.697,-0.645,0.0
8.742,-0.671,-0.667,0.0
8.379,-0.646,-0.687,0.0
10.879,-0.838,-0.587,0.0
0.0,0.0,0.0,0.0
0.0,0.0,0.0,0.0
0.0,0.0,0.0,0.0
0.0,0.0,0.0,0.0
8.373,-0.658,-0.688,0.0
10.804,-0.849,-0.584,0.0
0.0,0.0,0.0,0.0
0.0,0.0,0.0,0.0
0.0,0.0,0.0,0.0
8.78,-0.701,-0.673,0.0
8.354,-0.67,-0.687,0.0
10.87,-0.871,-0.589,0.0
0.0,0.0,0.0,0.0
0.0,0.0,0.0,0.0
0.0,0.0,0.0,0.0
8.758,-0.713,-0.672,0.0
8.342,-0.681,-0.687,0.0
10.832,-0.885,-0.587,0.0
0.0,0.0,0.0,0.0
0.0,0.0,0.0,0.0
0.0,0.0,0.0,0.0
8.787,-0.728,-0.674,0.0
8.369,-0.696,-0.689,0.0
0.0,0.0,0.0,0.0
0.0,0.0,0.0,0.0
9.749,-0.817,-0.638,0.0
0.0,0.0,0.0,0.0
8.825,-0.745,-0.677,0.0
8.389,-0.71,-0.69,0.0
10.772,-0.912,-0.584,0.0
0.0,0.0,0.0,0.0
0.0,0.0,0.0,0.0
0.0,0.0,0.0,0.0
8.83,-0.758,-0.677,0.0
8.361,-0.72,-0.688,0.0
10.821,-0.932,-0.586,0.0
0.0,0.0,0.0,0.0
0.0,0.0,0.0,0.0
0.0,0.0,0.0,0.0
8.728,-0.762,-0.668,0.0
8.369,-0.733,-0.687,0.0
10.871,-0.952,-0.587,0.0
0.0,0.0,0.0,0.0
0.0,0.0,0.0,0.0
0.0,0.0,0.0,0.0
8.694,-0.772,-0.664,0.0
8.355,-0.744,-0.685,0.0
10.814,-0.962,-0.583,0.0
0.0,0.0,0.0,0.0
0.0,0.0,0.0,0.0
0.0,0.0,0.0,0.0
8.783,-0.792,-0.67,0.0
8.399,-0.76,-0.687,0.0
10.87,-0.983,-0.584,0.0
0.0,0.0,0.0,0.0
0.0,0.0,0.0,0.0
0.0,0.0,0.0,0.0
8.797,-0.806,-0.669,0.0
8.388,-0.771,-0.685,0.0
10.895,-1.001,-0.583,0.0
0.0,0.0,0.0,0.0
0.0,0.0,0.0,0.0
0.0,0.0,0.0,0.0
8.791,-0.817,-0.666,0.0
8.385,-0.782,-0.682,0.0
10.968,-1.022,-0.584,0.0
0.0,0.0,0.0,0.0
0.0,0.0,0.0,0.0
0.0,0.0,0.0,0.0
8.816,-0.832,-0.666,0.0
8.42,-0.797,-0.682,0.0
10.932,-1.033,-0.579,0.0
0.0,0.0,0.0,0.0
0.0,0.0,0.0,0.0
0.0,0.0,0.0,0.0
8.87,-0.848,-0.667,0.0
8.415,-0.807,-0.679,0.0
11.012,-1.055,-0.579,0.0
0.0,0.0,0.0,0.0
0.0,0.0,0.0,0.0
0.0,0.0,0.0,0.0
8.844,-0.857,-0.662,0.0
8.48,-0.825,-0.681,0.0
11.046,-1.073,-0.577,0.0
10.409,-1.014,-0.601,0.0
0.0,0.0,0.0,0.0
9.391,-0.92,-0.647,0.0
8.941,-0.878,-0.665,0.0
8.494,-0.837,-0.679,0.0
11.035,-1.086,-0.572,0.0
0.0,0.0,0.0,0.0
0.0,0.0,0.0,0.0
0.0,0.0,0.0,0.0
0.0,0.0,0.0,0.0
8.508,-0.849,-0.676,0.0
11.115,-1.108,-0.571,0.0
0.0,0.0,0.0,0.0
0.0,0.0,0.0,0.0
0.0,0.0,0.0,0.0
0.0,0.0,0.0,0.0
8.537,-0.862,-0.675,0.0
11.185,-1.128,-0.569,0.0
0.0,0.0,0.0,0.0
0.0,0.0,0.0,0.0
0.0,0.0,0.0,0.0
0.0,0.0,0.0,0.0
8.579,-0.876,-0.674,0.0
11.28,-1.151,-0.568,0.0
0.0,0.0,0.0,0.0
0.0,0.0,0.0,0.0
0.0,0.0,0.0,0.0
0.0,0.0,0.0,0.0
8.675,-0.896,-0.676,0.0
11.375,-1.173,-0.567,0.0
0.0,0.0,0.0,0.0
10.119,-1.049,-0.615,0.0
0.0,0.0,0.0,0.0
9.126,-0.95,-0.656,0.0
8.703,-0.909,-0.673,0.0
11.374,-1.186,-0.56,0.0
0.0,0.0,0.0,0.0
10.177,-1.066,-0.612,0.0
9.696,-1.018,-0.638,0.0
0.0,0.0,0.0,0.0
8.725,-0.921,-0.67,0.0
11.449,-1.206,-0.556,0.0
0.0,0.0,0.0,0.0
0.0,0.0,0.0,0.0
0.0,0.0,0.0,0.0
9.237,-0.982,-0.652,0.0
8.744,-0.932,-0.665,0.0
11.588,-1.233,-0.556,0.0
10.956,-1.168,-0.585,0.0
10.207,-1.091,-0.601,0.0
0.0,0.0,0.0,0.0
0.0,0.0,0.0,0.0
8.835,-0.951,-0.666,0.0
11.748,-1.262,-0.555,0.0
10.949,-1.179,-0.577,0.0
0.0,0.0,0.0,0.0
0.0,0.0,0.0,0.0
0.0,0.0,0.0,0.0
8.847,-0.961,-0.661,0.0
11.734,-1.272,-0.546,0.0
11.149,-1.211,-0.58,0.0
10.38,-1.13,-0.596,0.0
0.0,0.0,0.0,0.0
9.362,-1.023,-0.641,0.0
8.97,-0.983,-0.663,0.0
11.825,-1.294,-0.542,0.0
11.225,-1.23,-0.575,0.0
10.42,-1.144,-0.591,0.0
9.948,-1.094,-0.619,0.0
0.0,0.0,0.0,0.0
8.991,-0.993,-0.658,0.0
11.923,-1.315,-0.537,0.0
11.335,-1.253,-0.572,0.0
10.633,-1.177,-0.594,0.0
0.0,0.0,0.0,0.0
0.0,0.0,0.0,0.0
9.115,-1.015,-0.66,0.0
12.036,-1.339,-0.532,0.0
11.358,-1.265,-0.564,0.0
10.653,-1.189,-0.587,0.0
0.0,0.0,0.0,0.0
0.0,0.0,0.0,0.0
9.15,-1.026,-0.654,0.0
12.155,-1.362,-0.528,0.0
11.447,-1.285,-0.559,0.0
10.915,-1.227,-0.592,0.0
10.127,-1.14,-0.605,0.0
0.0,0.0,0.0,0.0
9.231,-1.043,-0.652,0.0
12.244,-1.382,-0.521,0.0
11.55,-1.306,-0.554,0.0
10.916,-1.236,-0.583,0.0
10.215,-1.158,-0.602,0.0
0.0,0.0,0.0,0.0
9.285,-1.056,-0.648,0.0
12.403,-1.409,-0.517,0.0
11.652,-1.326,-0.548,0.0
10.97,-1.25,-0.576,0.0
0.0,0.0,0.0,0.0
0.0,0.0,0.0,0.0
0.0,0.0,0.0,0.0
12.523,-1.432,-0.51,0.0
11.76,-1.346,-0.543,0.0
11.072,-1.269,-0.571,0.0
0.0,0.0,0.0,0.0
9.904,-1.139,-0.619,0.0
0.0,0.0,0.0,0.0
12.68,-1.458,-0.505,0.0
11.948,-1.376,-0.54,0.0
11.216,-1.293,-0.568,0.0
10.565,-1.22,-0.593,0.0
10.066,-1.164,-0.62,0.0
9.546,-1.105,-0.639,0.0
12.828,-1.484,-0.499,0.0
12.007,-1.39,-0.532,0.0
11.379,-1.319,-0.565,0.0
10.738,-1.247,-0.593,0.0
10.076,-1.171,-0.611,0.0
9.576,-1.115,-0.632,0.0
12.905,-1.5,-0.489,0.0
12.201,-1.42,-0.528,0.0
11.511,-1.341,-0.56,0.0
10.721,-1.251,-0.581,0.0
10.192,-1.19,-0.607,0.0
22.307,-2.609,-1.451,0.0
13.226,-1.545,-0.488,0.0
12.343,-1.443,-0.522,0.0
11.603,-1.358,-0.553,0.0
10.977,-1.286,-0.584,0.0
10.333,-1.212,-0.605,0.0
22.179,-2.606,-1.42,0.0
13.34,-1.565,-0.479,0.0
12.481,-1.466,-0.515,0.0
11.702,-1.376,-0.546,0.0
22.31,-2.626,-1.164,0.0
10.366,-1.221,-0.597,0.0
22.257,-2.626,-1.402,0.0
13.557,-1.597,-0.473,0.0
12.624,-1.488,-0.508,0.0
11.871,-1.401,-0.542,0.0
0.0,0.0,0.0,0.0
10.501,-1.242,-0.593,0.0
10.024,-1.187,-0.621,0.0
13.657,-1.615,-0.462,0.0
12.755,-1.509,-0.5,0.0
11.938,-1.414,-0.532,0.0
22.273,-2.641,-1.115,0.0
22.256,-2.641,-1.234,0.0
10.089,-1.198,-0.614,0.0
13.935,-1.653,-0.457,0.0
12.947,-1.537,-0.494,0.0
12.144,-1.443,-0.528,0.0
11.43,-1.359,-0.56,0.0
22.224,-2.645,-1.209,0.0
10.215,-1.217,-0.61,0.0
14.084,-1.676,-0.446,0.0
13.153,-1.566,-0.487,0.0
12.318,-1.467,-0.522,0.0
11.626,-1.386,-0.556,0.0
10.961,-1.308,-0.584,0.0
10.321,-1.232,-0.605,0.0
14.333,-1.71,-0.438,0.0
13.301,-1.587,-0.478,0.0
12.466,-1.489,-0.515,0.0
11.717,-1.4,-0.548,0.0
22.347,-2.672,-1.166,0.0
10.432,-1.248,-0.6,0.0
14.588,-1.744,-0.43,0.0
13.526,-1.617,-0.471,0.0
12.591,-1.507,-0.506,0.0
11.845,-1.418,-0.541,0.0
22.134,-2.652,-1.13,0.0
10.654,-1.277,-0.601,0.0
14.771,-1.769,-0.419,0.0
13.667,-1.637,-0.46,0.0
12.824,-1.537,-0.501,0.0
12.033,-1.443,-0.536,0.0
11.453,-1.374,-0.571,0.0
22.131,-2.657,-1.223,0.0
15.141,-1.816,-0.412,0.0
13.926,-1.67,-0.453,0.0
12.967,-1.556,-0.491,0.0
12.185,-1.463,-0.528,0.0
11.562,-1.388,-0.563,0.0
22.137,-2.66,-1.198,0.0
15.286,-1.835,-0.398,0.0
14.166,-1.701,-0.445,0.0
13.231,-1.589,-0.486,0.0
12.361,-1.485,-0.522,0.0
11.642,-1.399,-0.554,0.0
10.917,-1.312,-0.578,0.0
15.665,-1.881,-0.39,0.0
14.431,-1.733,-0.436,0.0
13.426,-1.613,-0.478,0.0
12.477,-1.499,-0.512,0.0
11.774,-1.415,-0.546,0.0
22.16,-2.665,-1.147,0.0
16.017,-1.924,-0.38,0.0
14.683,-1.764,-0.427,0.0
13.637,-1.639,-0.469,0.0
12.74,-1.531,-0.508,0.0
11.995,-1.442,-0.542,0.0
22.247,-2.675,-1.125,0.0
16.377,-1.967,-0.369,0.0
14.856,-1.784,-0.414,0.0
13.822,-1.66,-0.459,0.0
12.9,-1.55,-0.499,0.0
12.121,-1.456,-0.534,0.0
11.421,-1.372,-0.564,0.0
16.675,-2.002,-0.356,0.0
15.255,-1.831,-0.407,0.0
14.025,-1.684,-0.449,0.0
13.015,-1.562,-0.488,0.0
12.335,-1.481,-0.528,0.0
11.588,-1.391,-0.558,0.0
17.021,-2.042,-0.343,0.0
15.346,-1.84,-0.392,0.0
14.279,-1.712,-0.441,0.0
13.284,-1.593,-0.482,0.0
12.439,-1.491,-0.518,0.0
11.706,-1.403,-0.55,0.0
17.418,-2.087,-0.331,0.0
15.838,-1.897,-0.385,0.0
14.56,-1.743,-0.432,0.0
13.51,-1.617,-0.474,0.0
12.609,-1.509,-0.51,0.0
11.888,-1.423,-0.544,0.0
17.763,-2.124,-0.316,0.0
16.274,-1.946,-0.376,0.0
14.791,-1.768,-0.421,0.0
13.731,-1.641,-0.465,0.0
12.774,-1.526,-0.501,0.0
12.006,-1.434,-0.535,0.0
18.149,-2.166,-0.301,0.0
16.552,-1.975,-0.363,0.0
15.117,-1.803,-0.412,0.0
13.943,-1.662,-0.456,0.0
13.076,-1.558,-0.497,0.0
12.206,-1.454,-0.529,0.0
18.905,-2.251,-0.291,0.0
16.905,-2.012,-0.35,0.0
15.453,-1.838,-0.403,0.0
14.203,-1.688,-0.447,0.0
13.188,-1.567,-0.486,0.0
12.406,-1.474,-0.523,0.0
19.39,-2.302,-0.275,0.0
17.202,-2.041,-0.336,0.0
15.734,-1.866,-0.391,0.0
14.31,-1.696,-0.433,0.0
13.441,-1.592,-0.479,0.0
12.576,-1.489,-0.515,0.0
19.854,-2.349,-0.258,0.0
17.637,-2.086,-0.323,0.0
16.135,-1.907,-0.381,0.0
14.653,-1.73,-0.426,0.0
13.685,-1.615,-0.471,0.0
12.76,-1.505,-0.507,0.0
20.495,-2.416,-0.242,0.0
18.109,-2.133,-0.31,0.0
16.416,-1.932,-0.369,0.0
14.94,-1.757,-0.417,0.0
13.914,-1.636,-0.462,0.0
12.923,-1.518,-0.498,0.0
22.233,-2.611,-0.236,0.0
18.513,-2.172,-0.295,0.0
16.78,-1.967,-0.357,0.0
15.091,-1.768,-0.403,0.0
14.104,-1.651,-0.452,0.0
13.091,-1.531,-0.489,0.0
22.363,-2.614,-0.211,3.0
19.053,-2.225,-0.281,0.0
17.099,-1.995,-0.343,0.0
15.459,-1.802,-0.394,0.0
14.336,-1.67,-0.442,0.0
13.346,-1.553,-0.483,0.0
22.404,-2.606,-0.184,3.0
19.72,-2.292,-0.267,0.0
17.49,-2.03,-0.33,0.0
15.923,-1.847,-0.387,0.0
14.69,-1.702,-0.435,0.0
13.633,-1.578,-0.477,0.0
22.526,-2.606,-0.158,2.0
20.198,-2.334,-0.249,0.0
17.816,-2.057,-0.315,0.0
16.295,-1.879,-0.377,0.0
14.873,-1.713,-0.423,0.0
13.885,-1.598,-0.469,0.0
22.584,-2.598,-0.132,7.0
20.995,-2.412,-0.235,0.0
18.403,-2.112,-0.304,0.0
16.592,-1.902,-0.364,0.0
15.026,-1.721,-0.41,0.0
14.034,-1.605,-0.458,0.0
22.617,-2.586,-0.106,3.0
22.156,-2.53,-0.222,1.0
18.84,-2.149,-0.289,0.0
16.964,-1.932,-0.353,0.0
15.492,-1.762,-0.405,0.0
14.213,-1.615,-0.447,0.0
23.481,-2.667,-0.083,11.0
22.356,-2.536,-0.198,4.0
19.566,-2.216,-0.278,0.0
17.271,-1.954,-0.339,0.0
15.829,-1.788,-0.395,0.0
14.456,-1.631,-0.438,0.0
23.623,-2.665,-0.056,46.0
22.433,-2.527,-0.173,3.0
23.624,-2.657,-0.309,2.0
17.629,-1.98,-0.326,0.0
16.079,-1.803,-0.383,0.0
14.676,-1.644,-0.428,0.0
23.62,-2.645,-0.03,155.0
23.329,-2.608,-0.154,7.0
23.649,-2.64,-0.282,31.0
23.637,-2.634,-0.411,2.0
16.434,-1.829,-0.373,0.0
14.911,-1.657,-0.418,0.0
23.589,-2.621,-0.004,183.0
23.578,-2.615,-0.129,47.0
23.6,-2.613,-0.256,24.0
23.617,-2.611,-0.385,2.0
16.736,-1.847,-0.362,0.0
15.305,-1.686,-0.412,0.0
23.595,-2.599,0.022,161.0
23.617,-2.597,-0.104,41.0
22.264,-2.444,-0.217,2.0
18.939,-2.076,-0.287,0.0
16.997,-1.859,-0.349,0.0
15.538,-1.697,-0.402,0.0
23.651,-2.583,0.047,41.0
23.63,-2.576,-0.078,9.0
22.337,-2.431,-0.193,4.0
19.493,-2.117,-0.275,0.0
17.314,-1.877,-0.337,0.0
15.836,-1.714,-0.392,0.0
27.408,-2.966,0.084,4.0
26.321,-2.843,-0.059,1.0
22.467,-2.422,-0.17,2.0
19.889,-2.14,-0.259,0.0
17.725,-1.903,-0.326,0.0
16.137,-1.73,-0.383,0.0
27.606,-2.958,0.114,5.0
26.685,-2.854,-0.031,4.0
23.554,-2.514,-0.154,1.0
20.524,-2.186,-0.246,0.0
17.914,-1.904,-0.31,0.0
16.524,-1.753,-0.375,0.0
28.038,-2.974,0.145,1.0
26.916,-2.849,-0.003,1.0
24.324,-2.569,-0.134,0.0
21.502,-2.266,-0.235,0.0
18.474,-1.943,-0.301,0.0
16.735,-1.756,-0.362,0.0
31.095,-3.264,0.193,1.0
28.623,-2.997,0.024,0.0
24.947,-2.607,-0.112,0.0
21.707,-2.263,-0.216,0.0
18.903,-1.966,-0.289,0.0
16.993,-1.764,-0.351,0.0
31.367,-3.255,0.226,1.0
0.0,0.0,0.0,0.0
25.442,-2.628,-0.088,0.0
22.445,-2.313,-0.201,0.0
19.441,-1.999,-0.278,0.0
17.321,-1.777,-0.34,0.0
32.872,-3.372,0.27,0.0
29.336,-3.002,0.083,1.0
25.766,-2.63,-0.064,0.0
22.715,-2.313,-0.181,0.0
19.803,-2.012,-0.264,0.0
17.6,-1.784,-0.329,0.0
33.236,-3.368,0.305,0.0
29.534,-2.985,0.112,0.0
33.988,-3.426,-0.052,1.0
23.194,-2.332,-0.162,0.0
33.986,-3.409,-0.42,2.0
17.919,-1.793,-0.318,0.0
34.398,-3.442,0.348,0.0
30.705,-3.064,0.146,0.0
34.012,-3.385,-0.02,0.0
23.528,-2.335,-0.143,0.0
20.945,-2.073,-0.239,0.0
18.214,-1.798,-0.306,0.0
34.603,-3.416,0.382,0.0
30.699,-3.022,0.174,1.0
27.668,-2.716,0.008,0.0
23.738,-2.324,-0.122,0.0
21.439,-2.093,-0.226,0.0
18.651,-1.816,-0.296,0.0
0.0,0.0,0.0,0.0
31.033,-3.012,0.204,1.0
28.285,-2.738,0.033,0.0
24.796,-2.393,-0.106,0.0
22.14,-2.131,-0.213,0.0
19.114,-1.834,-0.287,0.0
34.608,-3.321,0.443,1.0
31.917,-3.053,0.237,0.0
28.65,-2.732,0.059,0.0
25.376,-2.413,-0.086,0.0
22.468,-2.13,-0.197,1.0
19.445,-1.838,-0.275,0.0
34.538,-3.264,0.472,2.0
32.542,-3.066,0.27,0.0
29.099,-2.733,0.084,0.0
25.64,-2.401,-0.065,0.0
22.741,-2.123,-0.181,1.0
19.626,-1.827,-0.261,0.0
34.36,-3.197,0.498,5.0
0.0,0.0,0.0,0.0
29.5,-2.728,0.109,0.0
25.923,-2.389,-0.045,0.0
23.103,-2.123,-0.165,1.0
20.593,-1.886,-0.258,0.0
34.207,-3.132,0.523,4.0
34.62,-3.159,0.342,0.0
29.962,-2.725,0.134,0.0
26.663,-2.417,-0.026,0.0
23.38,-2.112,-0.149,1.0
20.853,-1.878,-0.245,1.0
34.099,-3.07,0.547,2.0
35.561,-3.19,0.379,0.0
30.362,-2.714,0.16,0.0
27.292,-2.431,-0.006,0.0
23.518,-2.088,-0.132,0.0
21.023,-1.86,-0.231,2.0
33.917,-3.0,0.57,0.0
36.44,-3.212,0.415,0.0
30.965,-2.719,0.186,0.0
27.546,-2.41,0.013,0.0
24.05,-2.097,-0.117,0.0
21.405,-1.86,-0.22,1.0
33.856,-2.941,0.593,1.0
0.0,0.0,0.0,0.0
31.383,-2.705,0.21,0.0
28.018,-2.406,0.033,0.0
24.941,-2.134,-0.104,0.0
21.851,-1.863,-0.21,0.0
33.822,-2.882,0.615,1.0
34.412,-2.921,0.44,0.0
32.337,-2.735,0.238,1.0
33.841,-2.851,0.063,1.0
33.847,-2.841,-0.119,2.0
33.847,-2.83,-0.303,7.0
33.807,-2.825,0.637,150.0
34.428,-2.865,0.462,1.0
32.524,-2.696,0.261,0.0
33.848,-2.795,0.085,1.0
33.895,-2.788,-0.098,1.0
33.862,-2.774,-0.282,6.0
33.815,-2.769,0.659,152.0
34.353,-2.801,0.483,2.0
33.148,-2.691,0.286,0.0
33.835,-2.736,0.105,0.0
33.908,-2.731,-0.078,0.0
33.869,-2.717,-0.261,21.0
33.833,-2.712,0.679,153.0
34.306,-2.738,0.502,5.0
34.164,-2.714,0.315,0.0
33.961,-2.687,0.125,0.0
33.909,-2.672,-0.058,1.0
33.877,-2.658,-0.242,6.0
33.843,-2.654,0.698,155.0
34.222,-2.671,0.52,5.0
33.886,-2.634,0.331,0.0
29.812,-2.307,0.126,0.0
33.922,-2.614,-0.04,2.0
33.894,-2.6,-0.224,7.0
33.852,-2.595,0.716,157.0
34.136,-2.604,0.536,5.0
35.404,-2.689,0.364,0.0
30.222,-2.285,0.143,0.0
33.923,-2.553,-0.023,4.0
33.892,-2.539,-0.207,16.0
33.855,-2.534,0.733,163.0
34.076,-2.538,0.552,4.0
35.703,-2.647,0.384,1.0
30.238,-2.232,0.157,1.0
33.913,-2.491,-0.007,2.0
33.901,-2.479,-0.192,4.0
33.879,-2.475,0.749,153.0
34.031,-2.473,0.567,3.0
35.719,-2.583,0.4,2.0
30.386,-2.187,0.172,0.0
33.924,-2.43,0.007,3.0
33.921,-2.418,-0.177,5.0
33.892,-2.413,0.764,155.0
34.007,-2.409,0.581,2.0
35.62,-2.511,0.414,1.0
30.55,-2.143,0.185,0.0
27.554,-1.923,0.017,0.0
24.369,-1.692,-0.117,0.0
33.894,-2.35,0.777,0.0
33.98,-2.344,0.594,1.0
36.778,-2.523,0.441,0.0
30.89,-2.108,0.199,0.0
28.023,-1.903,0.027,0.0
24.767,-1.673,-0.11,0.0
33.844,-2.283,0.788,0.0
33.935,-2.277,0.605,1.0
37.734,-2.518,0.466,1.0
31.674,-2.103,0.214,0.0
28.028,-1.851,0.037,1.0
24.879,-1.634,-0.103,0.0
33.904,-2.224,0.8,1.0
34.004,-2.218,0.616,0.0
37.62,-2.44,0.476,0.0
32.011,-2.064,0.226,2.0
28.239,-1.811,0.045,1.0
25.248,-1.61,-0.097,0.0
33.924,-2.159,0.81,2.0
34.005,-2.152,0.626,0.0
34.798,-2.19,0.45,0.0
31.874,-1.994,0.234,6.0
28.466,-1.771,0.053,5.0
25.405,-1.571,-0.091,0.0
33.921,-2.094,0.819,2.0
34.028,-2.088,0.634,0.0
34.871,-2.126,0.459,1.0
31.809,-1.928,0.241,2.0
28.477,-1.715,0.06,7.0
25.328,-1.517,-0.085,0.0
33.976,-2.03,0.827,2.0
33.952,-2.016,0.64,0.0
34.716,-2.049,0.464,4.0
0.0,0.0,0.0,0.0
28.509,-1.661,0.065,8.0
34.19,-1.98,-0.109,0.0
34.048,-1.967,0.835,2.0
34.12,-1.959,0.649,0.0
34.696,-1.979,0.469,0.0
31.903,-1.808,0.253,0.0
28.518,-1.606,0.069,7.0
34.242,-1.916,-0.104,7.0
34.128,-1.905,0.842,2.0
34.267,-1.9,0.656,0.0
34.649,-1.908,0.473,0.0
32.323,-1.768,0.26,0.0
28.492,-1.548,0.072,9.0
34.254,-1.848,-0.1,0.0
34.236,-1.842,0.848,1.0
34.432,-1.84,0.663,1.0
34.734,-1.843,0.477,0.0
32.553,-1.715,0.265,0.0
28.452,-1.488,0.075,3.0
25.687,-1.334,-0.073,0.0
0.0,0.0,0.0,0.0
0.0,0.0,0.0,0.0
38.34,-1.958,0.529,0.0
32.272,-1.636,0.264,0.0
28.42,-1.43,0.076,2.0
25.742,-1.286,-0.073,0.0
0.0,0.0,0.0,0.0
0.0,0.0,0.0,0.0
0.0,0.0,0.0,0.0
32.396,-1.576,0.265,0.0
28.519,-1.378,0.076,7.0
25.869,-1.24,-0.073,0.0
0.0,0.0,0.0,0.0
0.0,0.0,0.0,0.0
38.549,-1.813,0.531,0.0
32.231,-1.504,0.263,0.0
28.518,-1.32,0.075,2.0
25.784,-1.184,-0.074,1.0
0.0,0.0,0.0,0.0
0.0,0.0,0.0,0.0
0.0,0.0,0.0,0.0
32.068,-1.431,0.259,0.0
28.565,-1.263,0.073,7.0
25.834,-1.133,-0.076,2.0
0.0,0.0,0.0,0.0
0.0,0.0,0.0,0.0
38.782,-1.665,0.529,0.0
0.0,0.0,0.0,0.0
28.568,-1.205,0.07,7.0
25.81,-1.079,-0.079,2.0
0.0,0.0,0.0,0.0
0.0,0.0,0.0,0.0
0.0,0.0,0.0,0.0
32.127,-1.301,0.252,0.0
28.584,-1.147,0.066,6.0
25.519,-1.015,-0.082,0.0
0.0,0.0,0.0,0.0
0.0,0.0,0.0,0.0
0.0,0.0,0.0,0.0
32.021,-1.23,0.245,1.0
28.575,-1.087,0.06,5.0
25.326,-0.954,-0.086,0.0
0.0,0.0,0.0,0.0
0.0,0.0,0.0,0.0
37.399,-1.374,0.49,0.0
31.766,-1.155,0.236,0.0
28.514,-1.026,0.054,2.0
25.04,-0.892,-0.091,0.0
0.0,0.0,0.0,0.0
0.0,0.0,0.0,0.0
37.572,-1.303,0.483,0.0
31.534,-1.082,0.226,0.0
28.296,-0.961,0.046,1.0
25.012,-0.84,-0.098,0.0
0.0,0.0,0.0,0.0
0.0,0.0,0.0,0.0
36.285,-1.183,0.455,0.0
31.55,-1.017,0.217,0.0
28.024,-0.893,0.037,0.0
24.931,-0.785,-0.105,0.0
0.0,0.0,0.0,0.0
0.0,0.0,0.0,0.0
36.53,-1.116,0.447,0.0
0.0,0.0,0.0,0.0
27.777,-0.828,0.027,0.0
24.594,-0.724,-0.112,0.0
0.0,0.0,0.0,0.0
0.0,0.0,0.0,0.0
35.25,-1.004,0.418,0.0
0.0,0.0,0.0,0.0
27.613,-0.766,0.017,0.0
0.0,0.0,0.0,0.0
54.551,-1.48,1.234,0.0
0.0,0.0,0.0,0.0
0.0,0.0,0.0,0.0
30.847,-0.804,0.178,0.0
27.319,-0.702,0.005,0.0
23.748,-0.601,-0.127,0.0
0.0,0.0,0.0,0.0
0.0,0.0,0.0,0.0
35.192,-0.857,0.388,0.0
28.726,-0.689,0.153,1.0
27.057,-0.639,-0.006,0.0
23.831,-0.554,-0.139,0.0
0.0,0.0,0.0,0.0
0.0,0.0,0.0,0.0
34.195,-0.761,0.36,1.0
28.762,-0.63,0.139,2.0
26.62,-0.574,-0.019,0.0
23.782,-0.504,-0.15,0.0
0.0,0.0,0.0,0.0
41.813,-0.86,0.653,0.0
33.987,-0.687,0.34,2.0
28.746,-0.57,0.124,5.0
26.365,-0.514,-0.033,0.0
23.328,-0.446,-0.16,0.0
0.0,0.0,0.0,0.0
0.0,0.0,0.0,0.0
33.531,-0.608,0.317,2.0
28.704,-0.511,0.107,0.0
26.117,-0.456,-0.048,0.0
23.169,-0.396,-0.172,0.0
48.333,-0.812,0.971,0.0
0.0,0.0,0.0,0.0
32.865,-0.528,0.291,1.0
28.645,-0.45,0.09,1.0
25.495,-0.392,-0.062,0.0
22.84,-0.343,-0.184,0.0
47.491,-0.699,0.924,0.0
0.0,0.0,0.0,0.0
32.391,-0.454,0.266,1.0
28.501,-0.39,0.071,1.0
25.279,-0.337,-0.078,0.0
22.374,-0.29,-0.194,0.0
45.602,-0.578,0.857,0.0
0.0,0.0,0.0,0.0
32.26,-0.386,0.243,1.0
28.321,-0.33,0.052,1.0
24.917,-0.281,-0.094,0.0
22.062,-0.242,-0.207,0.0
0.0,0.0,0.0,0.0
0.0,0.0,0.0,0.0
31.644,-0.316,0.217,1.0
27.624,-0.266,0.031,1.0
24.288,-0.225,-0.109,0.0
21.68,-0.194,-0.219,0.0
43.99,-0.38,0.764,0.0
35.965,-0.298,0.422,0.0
31.299,-0.249,0.191,1.0
27.297,-0.208,0.01,0.0
24.233,-0.176,-0.126,0.0
21.182,-0.147,-0.23,0.0
0.0,0.0,0.0,0.0
0.0,0.0,0.0,0.0
28.874,-0.171,0.154,1.0
26.712,-0.149,-0.01,0.0
23.865,-0.126,-0.143,1.0
20.569,-0.101,-0.239,0.0
0.0,0.0,0.0,0.0
33.42,-0.143,0.339,0.0
28.86,-0.114,0.13,6.0
26.247,-0.095,-0.031,0.0
23.538,-0.077,-0.161,0.0
20.101,-0.059,-0.251,0.0
40.048,-0.106,0.599,0.0
33.153,-0.076,0.309,0.0
28.786,-0.056,0.105,5.0
25.899,-0.042,-0.053,0.0
23.012,-0.03,-0.177,0.0
19.633,-0.019,-0.262,0.0
38.149,-0.025,0.537,0.0
33.069,-0.01,0.279,0.0
28.669,0.0,0.08,1.0
25.481,0.008,-0.075,0.0
22.127,0.014,-0.19,0.0
19.186,0.018,-0.273,0.0
0.0,0.0,0.0,0.0
31.921,0.051,0.24,0.0
28.565,0.055,0.053,1.0
24.896,0.056,-0.096,0.0
21.694,0.056,-0.206,3.0
18.813,0.054,-0.285,0.0
36.378,0.117,0.445,0.0
31.156,0.11,0.205,0.0
27.515,0.106,0.025,0.0
24.27,0.101,-0.117,0.0
21.24,0.096,-0.223,3.0
18.459,0.089,-0.298,0.0
35.871,0.185,0.404,0.0
28.987,0.158,0.162,0.0
26.999,0.156,-0.001,0.0
23.819,0.145,-0.138,0.0
20.817,0.133,-0.239,0.0
18.038,0.121,-0.309,0.0
0.0,0.0,0.0,0.0
28.877,0.212,0.132,4.0
26.352,0.202,-0.028,0.0
23.274,0.185,-0.159,0.0
20.074,0.166,-0.251,0.0
17.708,0.152,-0.322,0.0
32.895,0.293,0.303,0.0
28.818,0.266,0.102,6.0
25.827,0.246,-0.054,0.0
22.218,0.219,-0.175,0.0
19.41,0.197,-0.263,0.0
17.249,0.18,-0.332,0.0
32.21,0.348,0.262,0.0
28.73,0.319,0.07,3.0
25.165,0.287,-0.08,0.0
21.911,0.256,-0.196,1.0
19.001,0.228,-0.278,0.0
16.961,0.208,-0.344,0.0
31.297,0.395,0.22,0.0
27.643,0.357,0.037,0.0
24.426,0.323,-0.105,0.0
