X,Y,Z,Reflectivity
11.821,0.251,-0.563,0.0
11.125,0.234,-0.589,0.0
10.537,0.219,-0.614,0.0
10.069,0.207,-0.64,0.0
13.65,0.279,-0.484,0.0
12.752,0.258,-0.519,0.0
11.989,0.24,-0.551,0.0
11.364,0.225,-0.583,0.0
10.726,0.21,-0.607,0.0
10.196,0.198,-0.631,0.0
13.863,0.267,-0.469,0.0
12.943,0.247,-0.505,0.0
12.281,0.232,-0.544,0.0
11.566,0.216,-0.575,0.0
10.912,0.202,-0.6,0.0
10.38,0.19,-0.625,0.0
14.188,0.257,-0.456,0.0
13.25,0.238,-0.495,0.0
12.43,0.221,-0.53,0.0
11.761,0.206,-0.565,0.0
11.133,0.193,-0.593,0.0
10.531,0.181,-0.616,0.0
14.533,0.247,-0.443,0.0
13.551,0.228,-0.484,0.0
12.738,0.212,-0.522,0.0
11.984,0.197,-0.555,0.0
11.325,0.184,-0.584,0.0
10.696,0.172,-0.608,0.0
14.902,0.238,-0.429,0.0
13.892,0.219,-0.472,0.0
12.992,0.202,-0.51,0.0
12.265,0.189,-0.547,0.0
11.582,0.176,-0.577,0.0
10.894,0.164,-0.6,0.0
15.32,0.228,-0.414,0.0
14.134,0.208,-0.456,0.0
13.289,0.193,-0.498,0.0
12.461,0.179,-0.534,0.0
11.766,0.167,-0.566,0.0
11.152,0.156,-0.594,0.0
15.78,0.219,-0.399,0.0
14.584,0.2,-0.445,0.0
13.599,0.184,-0.485,0.0
12.716,0.169,-0.522,0.0
12.004,0.158,-0.555,0.0
11.314,0.147,-0.582,0.0
16.185,0.208,-0.379,0.0
14.914,0.189,-0.427,0.0
13.88,0.173,-0.47,0.0
12.906,0.159,-0.506,0.0
12.31,0.15,-0.547,0.0
11.556,0.138,-0.574,0.0
16.641,0.198,-0.36,0.0
15.463,0.181,-0.415,0.0
14.238,0.164,-0.456,0.0
13.3,0.151,-0.496,0.0
12.539,0.14,-0.534,0.0
11.797,0.13,-0.563,0.0
17.041,0.186,-0.336,0.0
15.85,0.17,-0.395,0.0
14.72,0.156,-0.444,0.0
13.601,0.142,-0.482,0.0
12.784,0.131,-0.52,0.0
11.996,0.121,-0.55,0.0
17.741,0.177,-0.317,0.0
16.318,0.161,-0.376,0.0
15.104,0.146,-0.427,0.0
13.956,0.133,-0.468,0.0
13.125,0.123,-0.509,0.0
12.334,0.113,-0.542,0.0
18.417,0.168,-0.294,0.0
16.755,0.15,-0.354,0.0
15.54,0.137,-0.409,0.0
14.284,0.123,-0.452,0.0
13.38,0.114,-0.493,0.0
12.605,0.105,-0.53,0.0
19.199,0.159,-0.269,0.0
17.303,0.14,-0.332,0.0
16.004,0.127,-0.391,0.0
14.763,0.115,-0.439,0.0
13.718,0.105,-0.479,0.0
12.908,0.097,-0.517,0.0
20.411,0.152,-0.247,0.0
17.963,0.131,-0.31,0.0
16.481,0.118,-0.37,0.0
15.32,0.107,-0.425,0.0
14.091,0.097,-0.464,0.0
13.194,0.089,-0.503,0.0
21.364,0.142,-0.216,2.0
18.677,0.121,-0.285,0.0
16.931,0.108,-0.347,0.0
15.739,0.098,-0.405,0.0
14.442,0.088,-0.447,0.0
13.573,0.081,-0.49,0.0
22.391,0.132,-0.182,1.0
19.666,0.113,-0.262,0.0
17.521,0.099,-0.324,0.0
16.185,0.089,-0.385,0.0
14.938,0.08,-0.432,0.0
13.935,0.073,-0.476,0.0
23.312,0.12,-0.143,0.0
20.93,0.105,-0.237,1.0
18.274,0.09,-0.301,0.0
16.656,0.08,-0.363,0.0
15.483,0.072,-0.417,0.0
14.265,0.065,-0.458,0.0
24.602,0.11,-0.102,0.0
21.791,0.095,-0.203,2.0
19.178,0.081,-0.277,0.0
17.179,0.071,-0.339,0.0
15.939,0.064,-0.397,0.0
14.657,0.057,-0.441,0.0
25.858,0.099,-0.055,0.0
23.172,0.086,-0.169,1.0
20.217,0.073,-0.251,0.0
17.84,0.062,-0.315,0.0
16.441,0.055,-0.376,0.0
15.226,0.05,-0.427,0.0
26.907,0.086,-0.002,0.0
24.11,0.075,-0.126,0.0
21.295,0.064,-0.221,4.0
18.625,0.054,-0.291,0.0
16.939,0.047,-0.352,0.0
15.674,0.042,-0.407,0.0
28.546,0.075,0.056,1.0
25.307,0.064,-0.08,0.0
22.329,0.054,-0.185,0.0
19.654,0.046,-0.267,0.0
17.509,0.039,-0.328,0.0
16.184,0.034,-0.386,0.0
28.832,0.06,0.117,0.0
26.541,0.052,-0.029,0.0
23.629,0.044,-0.147,1.0
20.947,0.037,-0.24,2.0
18.293,0.031,-0.304,0.0
16.671,0.027,-0.363,0.0
30.677,0.048,0.188,0.0
27.72,0.041,0.027,0.0
24.758,0.034,-0.103,0.0
21.703,0.028,-0.204,1.0
19.282,0.023,-0.28,0.0
17.208,0.019,-0.339,0.0
33.199,0.036,0.273,0.0
28.712,0.029,0.088,1.0
25.98,0.024,-0.053,0.0
23.34,0.02,-0.17,0.0
20.491,0.016,-0.255,0.0
18.016,0.012,-0.317,0.0
0.0,0.0,0.0,0.0
30.219,0.017,0.156,0.0
27.209,0.013,0.001,0.0
24.003,0.01,-0.124,0.0
21.334,0.007,-0.22,3.0
18.698,0.005,-0.289,0.0
37.05,0.009,0.461,0.0
32.788,0.005,0.239,0.0
28.499,0.003,0.061,1.0
25.633,0.001,-0.079,0.0
22.574,0.0,-0.185,0.0
19.921,-0.001,-0.266,0.0
0.0,0.0,0.0,0.0
33.375,-0.005,0.314,0.0
28.797,-0.006,0.122,0.0
26.532,-0.007,-0.025,0.0
23.736,-0.008,-0.144,1.0
21.053,-0.008,-0.237,2.0
42.618,-0.019,0.711,0.0
35.966,-0.018,0.415,0.0
31.111,-0.017,0.198,0.0
28.054,-0.016,0.032,0.0
25.099,-0.016,-0.1,0.0
22.092,-0.015,-0.202,1.0
0.0,0.0,0.0,0.0
0.0,0.0,0.0,0.0
33.237,-0.027,0.282,0.0
28.742,-0.024,0.093,4.0
26.203,-0.023,-0.049,0.0
23.472,-0.022,-0.164,0.0
0.0,0.0,0.0,0.0
40.688,-0.042,0.642,0.0
34.85,-0.037,0.371,0.0
30.396,-0.033,0.164,0.0
27.422,-0.031,0.007,0.0
24.464,-0.028,-0.119,0.0
0.0,0.0,0.0,0.0
0.0,0.0,0.0,0.0
37.936,-0.048,0.485,0.0
33.074,-0.042,0.249,0.0
28.738,-0.038,0.069,5.0
25.829,-0.034,-0.07,0.0
78.603,-0.11,1.982,2.0
0.0,0.0,0.0,0.0
41.281,-0.059,0.616,0.0
33.694,-0.049,0.326,0.0
28.877,-0.042,0.131,2.0
26.874,-0.04,-0.016,0.0
78.88,-0.121,2.158,4.0
0.0,0.0,0.0,0.0
0.0,0.0,0.0,0.0
36.338,-0.057,0.429,0.0
31.423,-0.049,0.209,0.0
28.603,-0.045,0.043,2.0
82.888,-0.136,2.444,5.0
0.0,0.0,0.0,0.0
0.0,0.0,0.0,0.0
0.0,0.0,0.0,0.0
33.313,-0.055,0.293,1.0
28.817,-0.048,0.106,5.0
83.288,-0.143,2.636,3.0
78.675,-0.135,2.084,3.0
0.0,0.0,0.0,0.0
42.822,-0.073,0.688,0.0
35.96,-0.061,0.393,0.0
30.88,-0.052,0.179,0.0
105.417,-0.184,3.559,4.0
79.304,-0.138,2.268,3.0
0.0,0.0,0.0,0.0
0.0,0.0,0.0,0.0
0.0,0.0,0.0,0.0
33.282,-0.056,0.262,0.0
108.817,-0.189,3.902,9.0
83.143,-0.143,2.554,5.0
78.661,-0.134,2.011,1.0
0.0,0.0,0.0,0.0
40.072,-0.067,0.608,0.0
33.807,-0.055,0.339,0.0
128.639,-0.218,4.89,2.0
105.487,-0.176,3.467,4.0
79.112,-0.13,2.191,3.0
0.0,0.0,0.0,0.0
0.0,0.0,0.0,0.0
36.95,-0.058,0.449,0.0
128.584,-0.207,5.161,29.0
108.668,-0.172,3.801,10.0
82.92,-0.128,2.473,6.0
78.497,-0.119,1.929,1.0
0.0,0.0,0.0,0.0
39.843,-0.058,0.569,0.0
128.573,-0.192,5.434,36.0
0.0,0.0,0.0,0.0
83.253,-0.118,2.658,2.0
78.646,-0.108,2.098,5.0
0.0,0.0,0.0,0.0
0.0,0.0,0.0,0.0
128.509,-0.172,5.702,5.0
128.564,-0.166,5.042,17.0
108.493,-0.135,3.693,3.0
82.769,-0.099,2.382,3.0
0.0,0.0,0.0,0.0
0.0,0.0,0.0,0.0
201.753,-0.231,9.377,17.0
128.561,-0.141,5.31,24.0
108.897,-0.113,3.934,9.0
83.186,-0.082,2.568,5.0
78.531,-0.073,2.019,4.0
0.0,0.0,0.0,0.0
201.622,-0.184,9.79,17.0
128.557,-0.11,5.578,9.0
128.514,-0.102,4.912,9.0
83.487,-0.061,2.75,1.0
78.247,-0.053,2.174,1.0
0.0,0.0,0.0,0.0
201.578,-0.131,10.203,15.0
201.884,-0.118,9.175,11.0
128.546,-0.067,5.176,9.0
83.374,-0.037,2.917,4.0
82.928,-0.032,2.473,8.0
0.0,0.0,0.0,0.0
151.097,-0.052,7.962,30.0
201.694,-0.055,9.583,22.0
0.0,0.0,0.0,0.0
0.0,0.0,0.0,0.0
83.269,-0.004,2.654,15.0
77.858,0.001,2.079,3.0
151.043,-0.001,8.266,37.0
201.28,0.013,9.972,22.0
201.977,0.029,8.959,22.0
128.491,0.029,5.019,7.0
83.288,0.025,2.823,23.0
82.779,0.032,2.377,3.0
151.058,0.054,8.571,25.0
151.105,0.067,7.79,17.0
201.726,0.107,9.355,24.0
202.881,0.125,8.336,5.0
83.266,0.059,2.989,22.0
83.186,0.066,2.557,11.0
91.382,0.07,5.372,11.0
151.09,0.13,8.096,34.0
201.38,0.193,9.745,23.0
83.412,0.087,3.595,3.0
83.327,0.095,3.16,29.0
78.075,0.097,2.556,12.0
91.362,0.111,5.553,9.0
151.068,0.199,8.398,38.0
151.133,0.214,7.617,3.0
83.282,0.126,3.757,13.0
83.31,0.135,3.324,30.0
83.245,0.143,2.89,24.0
83.205,0.142,5.223,14.0
83.319,0.15,4.796,9.0
83.32,0.159,4.363,12.0
83.282,0.167,3.918,28.0
83.268,0.176,3.485,36.0
83.257,0.185,3.053,35.0
83.14,0.184,5.381,32.0
83.26,0.193,4.955,22.0
83.252,0.202,4.519,16.0
83.237,0.211,4.077,30.0
83.266,0.221,3.646,43.0
83.261,0.23,3.213,37.0
79.383,0.219,5.292,16.0
83.197,0.239,5.112,29.0
83.22,0.249,4.68,25.0
83.216,0.259,4.238,28.0
83.261,0.269,3.806,47.0
83.259,0.279,3.373,36.0
79.368,0.265,5.446,4.0
83.125,0.288,5.269,22.0
83.171,0.298,4.837,31.0
83.249,0.308,4.398,30.0
83.256,0.319,3.965,44.0
83.274,0.329,3.531,40.0
76.929,0.304,5.424,28.0
79.426,0.324,5.185,48.0
83.182,0.35,4.994,28.0
83.21,0.361,4.553,29.0
83.258,0.372,4.121,31.0
83.31,0.384,3.689,24.0
63.36,0.292,4.587,9.0
62.967,0.298,4.229,27.0
83.148,0.405,5.149,18.0
83.173,0.417,4.708,9.0
79.35,0.408,4.076,7.0
79.359,0.419,3.662,7.0
63.32,0.335,4.702,28.0
63.068,0.342,4.353,25.0
79.375,0.442,5.062,17.0
79.289,0.452,4.633,5.0
79.308,0.464,4.22,11.0
79.348,0.475,3.808,8.0
63.397,0.381,4.825,29.0
63.223,0.389,4.48,28.0
63.007,0.396,4.134,7.0
79.259,0.51,4.776,3.0
79.339,0.522,4.365,10.0
79.36,0.534,3.951,9.0
63.32,0.427,4.934,26.0
63.335,0.437,4.601,28.0
63.065,0.444,4.251,31.0
76.802,0.552,4.764,3.0
79.347,0.583,4.507,6.0
79.345,0.595,4.09,7.0
63.403,0.477,5.054,32.0
75.872,0.582,5.647,24.0
63.143,0.494,4.367,25.0
76.554,0.611,4.885,8.0
79.311,0.646,4.645,1.0
79.35,0.658,4.229,6.0
57.196,0.476,4.66,23.0
63.517,0.539,4.839,8.0
76.262,0.659,5.408,5.0
76.663,0.674,5.024,21.0
76.799,0.688,4.63,10.0
79.335,0.724,4.366,8.0
57.193,0.524,4.758,24.0
63.206,0.589,4.924,32.0
75.971,0.72,5.518,19.0
76.691,0.739,5.157,20.0
79.478,0.779,4.925,25.0
89.948,0.897,5.1,6.0
57.338,0.574,4.867,23.0
62.567,0.637,4.98,27.0
63.472,0.657,4.716,22.0
76.113,0.801,5.245,36.0
76.584,0.819,4.874,16.0
90.038,0.978,5.256,10.0
57.309,0.625,4.961,17.0
62.819,0.696,5.105,31.0
88.442,0.996,6.719,14.0
63.357,0.724,4.472,33.0
76.286,0.885,4.982,22.0
76.485,0.901,4.591,33.0
57.375,0.679,5.063,10.0
62.653,0.753,5.195,34.0
62.863,0.766,4.879,18.0
63.411,0.784,4.578,19.0
76.213,0.956,5.099,23.0
76.446,0.972,4.71,28.0
57.06,0.729,5.125,31.0
62.772,0.813,5.305,12.0
63.11,0.829,4.998,37.0
88.726,1.181,6.545,12.0
76.307,1.029,5.224,22.0
76.533,1.046,4.835,15.0
56.769,0.78,5.189,21.0
59.042,0.822,5.082,15.0
59.123,0.834,4.774,20.0
59.077,0.844,4.45,23.0
76.433,1.106,5.352,25.0
76.626,1.124,4.959,12.0
56.769,0.837,5.277,26.0
58.513,0.873,5.126,31.0
59.1,0.893,4.862,29.0
76.232,1.166,5.858,17.0
77.259,1.197,5.526,19.0
76.714,1.203,5.08,13.0
57.028,0.899,5.388,29.0
57.386,0.916,5.115,26.0
62.607,1.011,5.246,7.0
59.077,0.966,4.629,8.0
83.368,1.378,6.088,32.0
76.72,1.283,5.194,13.0
57.245,0.963,5.494,15.0
57.344,0.975,5.195,31.0
59.073,1.016,5.036,21.0
63.224,1.1,5.046,10.0
83.44,1.468,6.213,23.0
76.712,1.364,5.303,24.0
55.155,0.986,5.372,8.0
57.419,1.038,5.285,30.0
59.004,1.078,5.113,20.0
63.071,1.165,5.122,9.0
77.015,1.438,5.844,8.0
76.699,1.447,5.41,29.0
55.111,1.046,5.445,9.0
57.639,1.105,5.385,27.0
55.926,1.083,4.925,29.0
63.51,1.243,5.245,16.0
62.945,1.244,4.861,16.0
83.228,1.661,5.983,12.0
55.048,1.105,5.514,7.0
57.782,1.172,5.477,21.0
56.126,1.149,5.018,29.0
63.74,1.317,5.349,29.0
62.913,1.313,4.942,18.0
83.44,1.758,6.108,29.0
55.052,1.167,5.587,10.0
61.479,1.316,5.907,35.0
56.478,1.22,5.122,30.0
56.01,1.221,4.772,12.0
76.908,1.692,6.14,24.0
83.398,1.852,6.211,24.0
49.868,1.114,5.126,17.0
60.973,1.374,5.937,20.0
56.708,1.29,5.215,30.0
55.983,1.285,4.841,29.0
63.061,1.46,5.114,24.0
83.447,1.949,6.318,21.0
49.707,1.168,5.171,13.0
49.161,1.165,4.847,13.0
57.379,1.372,5.347,30.0
55.961,1.349,4.907,30.0
62.986,1.531,5.183,10.0
76.87,1.885,5.912,13.0
49.642,1.225,5.224,16.0
49.172,1.223,4.908,23.0
57.426,1.441,5.42,17.0
56.093,1.418,4.984,8.0
63.056,1.608,5.262,13.0
64.388,1.655,5.026,7.0
49.609,1.283,5.278,18.0
49.405,1.288,4.987,22.0
50.393,1.324,4.813,15.0
50.843,1.346,4.576,24.0
63.045,1.683,5.333,10.0
64.092,1.724,5.076,36.0
49.703,1.346,5.344,21.0
49.491,1.35,5.052,23.0
50.239,1.381,4.855,24.0
56.148,1.556,5.116,8.0
63.745,1.779,5.462,9.0
62.584,1.76,5.024,18.0
49.232,1.394,5.348,23.0
50.68,1.446,5.228,24.0
50.464,1.449,4.931,24.0
56.261,1.628,5.186,11.0
62.731,1.828,5.441,10.0
62.42,1.832,5.076,22.0
45.776,2.304,5.515,33.0
47.51,2.4,5.457,21.0
50.61,2.566,5.529,16.0
49.895,2.539,5.167,25.0
49.79,2.543,4.878,25.0
49.801,2.553,4.602,23.0
45.829,2.366,5.534,20.0
47.508,2.461,5.47,24.0
48.124,2.502,5.271,22.0
49.566,2.587,5.146,24.0
49.857,2.611,4.898,23.0
49.752,2.615,4.61,20.0
43.565,2.306,5.272,14.0
47.467,2.521,5.477,34.0
47.917,2.553,5.259,22.0
49.757,2.66,5.177,24.0
53.67,2.879,5.284,10.0
49.781,2.68,4.623,23.0
43.465,2.356,5.268,16.0
47.53,2.585,5.493,21.0
47.79,2.608,5.254,21.0
0.0,0.0,0.0,0.0
49.868,2.738,4.918,18.0
49.776,2.743,4.63,20.0
43.653,2.423,5.298,16.0
47.2,2.627,5.462,21.0
47.734,2.666,5.255,21.0
48.513,2.718,5.063,9.0
49.165,2.763,4.855,22.0
49.808,2.808,4.639,25.0
43.634,2.478,5.3,34.0
47.143,2.685,5.46,29.0
47.651,2.721,5.25,33.0
48.191,2.76,5.033,19.0
49.14,2.823,4.856,22.0
57.321,3.303,5.344,17.0
43.752,2.539,5.318,29.0
46.67,2.716,5.408,21.0
47.69,2.783,5.257,25.0
48.238,2.823,5.04,28.0
49.039,2.879,4.848,22.0
57.594,3.391,5.371,39.0
43.406,2.574,5.277,29.0
46.199,2.746,5.354,5.0
45.413,2.707,5.007,24.0
48.164,2.879,5.033,31.0
56.746,3.401,5.61,7.0
57.679,3.466,5.378,29.0
42.534,2.574,5.17,27.0
0.0,0.0,0.0,0.0
45.272,2.754,4.989,20.0
48.877,2.981,5.105,24.0
51.94,3.177,5.132,4.0
52.26,3.205,4.87,10.0
42.352,2.615,5.145,38.0
45.294,2.804,5.245,20.0
44.846,2.783,4.939,27.0
49.299,3.067,5.145,23.0
51.965,3.241,5.13,14.0
52.167,3.262,4.856,11.0
42.533,2.678,5.162,17.0
45.122,2.848,5.22,11.0
44.733,2.83,4.921,26.0
49.287,3.125,5.137,7.0
51.646,3.283,5.091,21.0
59.799,3.811,5.557,10.0
42.38,2.719,5.137,13.0
45.28,2.912,5.231,20.0
44.738,2.883,4.914,27.0
49.044,3.168,5.103,20.0
51.781,3.353,5.095,25.0
63.128,4.098,5.855,17.0
42.313,2.765,5.121,5.0
44.911,2.941,5.179,15.0
44.75,2.937,4.905,20.0
48.904,3.217,5.078,23.0
48.379,3.189,4.75,14.0
63.046,4.165,5.833,21.0
42.442,2.823,5.126,13.0
33.58,2.238,3.864,17.0
47.101,3.146,5.151,7.0
64.531,4.319,6.684,8.0
48.362,3.244,4.735,21.0
63.011,4.236,5.812,22.0
33.999,2.3,4.096,24.0
33.547,2.274,3.85,27.0
47.117,3.201,5.139,17.0
54.52,3.711,5.63,17.0
48.41,3.302,4.724,27.0
63.02,4.307,5.793,15.0
34.023,2.34,4.088,22.0
33.594,2.315,3.844,27.0
47.111,3.253,5.122,13.0
48.403,3.349,4.982,17.0
48.462,3.359,4.713,14.0
61.099,4.244,5.595,5.0
34.039,2.38,4.077,37.0
33.614,2.354,3.834,20.0
49.126,3.447,5.322,6.0
48.405,3.402,4.963,22.0
64.578,4.548,6.254,8.0
51.92,3.663,4.733,15.0
33.854,2.403,4.041,36.0
33.62,2.391,3.82,25.0
51.901,3.697,5.601,11.0
48.392,3.454,4.941,32.0
64.218,4.591,6.191,12.0
51.884,3.716,4.707,15.0
33.859,2.44,4.026,27.0
33.629,2.427,3.806,26.0
42.748,3.091,4.593,12.0
48.424,3.506,4.922,22.0
59.537,4.319,5.712,25.0
58.827,4.275,5.309,12.0
33.765,2.468,3.998,37.0
33.839,2.477,3.813,24.0
42.779,3.137,4.575,22.0
48.567,3.567,4.912,14.0
59.539,4.379,5.681,27.0
58.815,4.333,5.278,23.0
33.754,2.502,3.979,29.0
33.91,2.517,3.802,29.0
42.809,3.182,4.555,28.0
59.66,4.441,6.001,7.0
49.716,3.706,4.716,4.0
60.54,4.52,5.398,7.0
33.833,2.541,3.969,38.0
33.957,2.554,3.788,29.0
48.596,3.66,5.143,16.0
51.784,3.905,5.178,16.0
49.659,3.75,4.682,5.0
51.938,3.928,4.601,7.0
33.813,2.572,3.946,33.0
33.918,2.583,3.763,21.0
48.548,3.702,5.107,21.0
51.828,3.957,5.15,4.0
49.372,3.775,4.624,23.0
49.108,3.76,4.319,20.0
33.782,2.601,3.92,30.0
42.862,3.304,4.727,14.0
49.229,3.8,5.146,23.0
42.984,3.321,4.243,17.0
49.02,3.793,4.558,24.0
51.903,4.021,4.53,5.0
33.917,2.642,3.912,24.0
42.925,3.348,4.705,17.0
49.548,3.869,5.145,23.0
42.875,3.351,4.202,26.0
48.895,3.826,4.512,23.0
51.86,4.063,4.489,18.0
33.837,2.666,3.879,21.0
42.93,3.386,4.673,15.0
49.505,3.909,5.104,12.0
42.957,3.395,4.178,15.0
49.06,3.881,4.491,22.0
51.906,4.111,4.455,22.0
33.827,2.694,3.852,23.0
43.15,3.44,4.664,14.0
43.034,3.434,4.404,23.0
49.292,3.937,4.756,21.0
49.69,3.973,4.51,37.0
51.915,4.155,4.414,16.0
33.778,2.718,3.819,24.0
43.188,3.478,4.634,17.0
43.021,3.468,4.368,17.0
48.907,3.946,4.679,20.0
49.658,4.01,4.466,35.0
51.929,4.198,4.373,15.0
42.788,3.477,4.802,13.0
49.965,4.063,5.319,14.0
43.106,3.508,4.34,33.0
49.754,4.053,4.718,13.0
49.644,4.047,4.423,14.0
51.945,4.238,4.33,17.0
42.709,3.503,4.756,26.0
43.125,3.539,4.553,17.0
42.886,3.522,4.281,24.0
51.57,4.238,4.846,22.0
59.43,4.888,5.243,26.0
59.689,4.914,4.924,8.0
42.659,3.53,4.712,32.0
50.102,4.148,5.245,21.0
42.703,3.537,4.224,23.0
51.538,4.272,4.796,17.0
59.295,4.919,5.177,30.0
51.891,4.308,4.233,16.0
42.598,3.554,4.665,28.0
43.11,3.599,4.472,19.0
42.676,3.564,4.181,27.0
53.389,4.462,4.918,5.0
59.546,4.98,5.142,33.0
51.818,4.336,4.178,15.0
42.429,3.567,4.606,23.0
43.041,3.621,4.423,34.0
42.58,3.584,4.13,23.0
51.476,4.335,4.691,23.0
59.768,5.036,5.103,28.0
51.821,4.369,4.127,34.0
42.229,3.577,4.542,17.0
42.968,3.641,4.373,24.0
42.651,3.616,4.094,27.0
51.43,4.362,4.635,18.0
59.636,5.061,5.031,14.0
51.826,4.401,4.075,45.0
41.994,3.582,4.473,29.0
42.83,3.654,4.314,29.0
42.738,3.648,4.058,15.0
59.438,5.076,5.294,7.0
51.7,4.417,4.308,35.0
51.814,4.429,4.019,35.0
42.075,3.612,4.437,31.0
42.768,3.672,4.262,30.0
51.514,4.425,4.837,11.0
59.318,5.097,5.221,20.0
51.718,4.445,4.254,36.0
51.815,4.455,3.965,39.0
42.538,3.673,4.44,25.0
42.825,3.699,4.222,31.0
51.508,4.45,4.78,24.0
59.377,5.131,5.162,23.0
51.766,4.475,4.202,28.0
51.82,4.481,3.908,46.0
42.685,3.706,4.408,27.0
42.934,3.728,4.185,17.0
51.484,4.471,4.72,25.0
51.638,4.486,4.431,42.0
51.778,4.499,4.145,22.0
51.821,4.504,3.85,44.0
42.693,3.725,4.36,18.0
42.961,3.749,4.138,24.0
51.529,4.498,4.665,27.0
51.65,4.508,4.373,27.0
51.787,4.521,4.086,28.0
51.837,4.527,3.792,27.0
42.89,3.76,4.33,34.0
42.956,3.766,4.087,23.0
51.601,4.524,4.612,50.0
59.177,5.188,4.941,26.0
51.813,4.543,4.027,18.0
51.858,4.548,3.732,43.0
42.877,3.774,4.277,37.0
51.432,4.526,4.833,12.0
51.642,4.545,4.553,32.0
59.14,5.205,4.867,19.0
51.846,4.563,3.968,15.0
51.878,4.567,3.672,32.0
42.81,3.781,4.219,25.0
51.488,4.547,4.776,25.0
59.43,5.249,5.168,24.0
51.822,4.577,4.202,19.0
51.86,4.58,3.906,18.0
51.894,4.583,3.61,28.0
42.774,3.79,4.162,30.0
51.45,4.558,4.708,20.0
59.144,5.239,5.07,30.0
51.801,4.588,4.136,25.0
51.869,4.594,3.842,21.0
51.926,4.599,3.547,21.0
42.831,3.805,4.114,27.0
51.494,4.574,4.647,13.0
59.136,5.252,4.995,26.0
51.816,4.601,4.072,21.0
51.877,4.605,3.777,21.0
51.952,4.612,3.483,16.0
51.502,4.586,4.881,18.0
53.105,4.727,4.724,10.0
59.164,5.265,4.921,28.0
51.852,4.613,4.008,21.0
51.895,4.616,3.712,22.0
52.016,4.626,3.421,14.0
51.504,4.594,4.814,18.0
59.459,5.301,5.213,30.0
59.122,5.27,4.841,16.0
51.852,4.62,3.941,21.0
51.926,4.626,3.647,31.0
59.168,5.27,3.814,14.0
51.519,4.601,4.747,16.0
59.188,5.283,5.111,32.0
51.813,4.623,4.174,22.0
51.877,4.627,3.874,21.0
51.946,4.632,3.58,22.0
59.556,5.31,3.761,35.0
0.0,0.0,0.0,0.0
59.145,5.283,5.028,27.0
51.829,4.628,4.106,24.0
51.897,4.632,3.806,19.0
51.977,4.638,3.512,12.0
59.932,5.346,3.705,34.0
53.087,4.746,4.749,14.0
59.151,5.285,4.949,25.0
51.856,4.631,4.039,24.0
51.882,4.631,3.735,20.0
52.004,4.64,3.444,7.0
0.0,0.0,0.0,0.0
59.489,5.317,5.24,19.0
59.11,5.28,4.865,18.0
51.857,4.63,3.968,21.0
51.919,4.633,3.667,26.0
59.321,5.291,3.848,24.0
58.608,5.225,3.465,20.0
59.231,5.291,5.137,28.0
51.821,4.626,4.193,20.0
51.892,4.629,3.899,21.0
51.936,4.63,3.597,22.0
59.506,5.302,3.778,33.0
58.763,5.234,3.393,23.0
59.142,5.277,5.047,23.0
51.813,4.619,4.121,25.0
51.891,4.623,3.827,21.0
51.949,4.625,3.526,15.0
60.05,5.343,3.729,29.0
59.044,5.251,3.327,33.0
59.178,5.271,4.966,25.0
51.85,4.615,4.051,23.0
51.878,4.614,3.753,21.0
51.981,4.62,3.455,17.0
60.015,5.331,3.642,33.0
59.026,5.239,3.242,33.0
59.125,5.255,4.877,20.0
51.875,4.607,3.978,23.0
51.895,4.605,3.68,23.0
51.97,4.608,3.38,20.0
58.627,5.194,3.475,16.0
59.246,5.246,3.17,33.0
51.829,4.594,4.201,20.0
51.881,4.595,3.905,20.0
51.907,4.593,3.607,25.0
51.999,4.597,3.307,23.0
58.58,5.176,3.388,9.0
59.962,5.294,3.123,12.0
51.811,4.578,4.125,19.0
51.865,4.579,3.829,25.0
51.906,4.578,3.532,37.0
52.011,4.583,3.234,26.0
52.089,4.586,2.938,21.0
52.106,4.584,2.639,19.0
51.813,4.562,4.05,15.0
51.882,4.563,3.755,43.0
51.919,4.562,3.458,35.0
52.022,4.567,3.159,33.0
52.065,4.566,2.862,26.0
52.089,4.564,2.563,34.0
51.831,4.545,3.976,14.0
51.868,4.543,3.679,38.0
51.923,4.543,3.384,40.0
52.018,4.547,3.084,37.0
52.061,4.546,2.787,38.0
52.068,4.542,2.487,48.0
51.832,4.524,3.901,40.0
51.876,4.522,3.605,22.0
51.945,4.523,3.31,52.0
52.012,4.524,3.008,42.0
52.06,4.523,2.711,35.0
52.063,4.519,2.412,53.0
51.85,4.502,3.827,46.0
51.865,4.497,3.528,25.0
51.964,4.5,3.235,58.0
52.01,4.499,2.932,42.0
52.054,4.498,2.635,41.0
52.075,4.495,2.336,57.0
51.855,4.476,3.752,43.0
51.884,4.473,3.453,41.0
51.966,4.474,3.159,59.0
52.008,4.472,2.856,43.0
52.05,4.471,2.558,46.0
52.076,4.468,2.26,62.0
51.863,4.449,3.675,34.0
51.916,4.447,3.379,53.0
51.967,4.445,3.082,45.0
52.01,4.444,2.779,60.0
52.045,4.441,2.481,47.0
52.093,4.439,2.184,46.0
51.865,4.418,3.599,21.0
51.948,4.419,3.304,58.0
51.976,4.415,3.006,49.0
52.034,4.414,2.704,60.0
52.078,4.412,2.407,49.0
52.135,4.411,2.11,37.0
51.888,4.388,3.523,49.0
51.956,4.387,3.228,49.0
51.988,4.383,2.931,39.0
52.052,4.382,2.629,48.0
52.14,4.383,2.334,30.0
52.174,4.38,2.035,19.0
51.915,4.355,3.448,44.0
51.99,4.354,3.154,40.0
52.048,4.352,2.858,30.0
52.088,4.349,2.555,26.0
52.181,4.351,2.259,10.0
62.522,5.205,2.347,6.0
51.987,4.324,3.378,18.0
52.022,4.32,3.08,20.0
52.097,4.319,2.784,17.0
62.477,5.171,2.973,12.0
62.458,5.162,2.613,20.0
62.69,5.173,2.262,16.0
52.066,4.291,3.306,7.0
52.078,4.284,3.006,15.0
61.946,5.087,3.219,26.0
81.621,6.691,3.763,16.0
81.175,6.644,3.276,13.0
62.804,5.132,2.173,4.0
59.985,4.895,3.72,27.0
62.434,5.085,3.512,17.0
61.883,5.031,3.125,12.0
81.63,6.625,3.645,23.0
81.338,6.591,3.165,26.0
47.888,3.874,1.588,103.0
60.007,4.846,3.634,14.0
62.622,5.047,3.432,17.0
81.62,6.567,4.004,15.0
82.008,6.585,3.543,19.0
81.191,6.508,3.041,7.0
47.744,3.82,1.514,11.0
62.19,4.967,3.677,22.0
62.433,4.976,3.332,15.0
81.606,6.493,3.885,32.0
81.599,6.479,3.408,29.0
47.846,3.792,1.723,2.0
47.492,3.756,1.438,7.0
77.191,6.094,4.452,12.0
62.328,4.91,3.236,8.0
81.73,6.425,3.773,33.0
48.93,3.838,1.973,10.0
47.701,3.735,1.65,7.0
47.447,3.708,1.369,9.0
77.439,6.039,4.356,22.0
81.479,6.34,4.114,15.0
81.934,6.361,3.667,30.0
48.923,3.791,1.904,14.0
47.635,3.683,1.581,8.0
47.411,3.658,1.301,15.0
77.329,5.951,4.239,23.0
81.593,6.266,4.004,22.0
81.694,6.259,3.54,20.0
48.443,3.704,1.816,1.0
47.647,3.635,1.513,46.0
47.394,3.608,1.233,17.0
77.249,5.864,4.125,35.0
81.381,6.162,3.878,32.0
81.63,6.168,3.421,9.0
47.829,3.605,1.725,2.0
47.338,3.56,1.436,13.0
47.372,3.554,1.166,8.0
80.913,6.052,4.206,26.0
81.199,6.059,3.755,30.0
0.0,0.0,0.0,0.0
47.568,3.532,1.649,5.0
47.301,3.504,1.369,20.0
47.345,3.499,1.099,0.0
80.675,5.943,4.081,33.0
81.265,5.971,3.644,9.0
0.0,0.0,0.0,0.0
47.44,3.468,1.579,10.0
47.296,3.449,1.303,21.0
47.378,3.447,1.034,1.0
80.815,5.859,3.977,32.0
0.0,0.0,0.0,0.0
48.178,3.474,1.818,1.0
47.319,3.403,1.51,14.0
47.276,3.391,1.239,46.0
47.318,3.386,0.969,3.0
80.81,5.762,3.867,26.0
0.0,0.0,0.0,0.0
47.754,3.385,1.738,2.0
47.24,3.34,1.444,21.0
47.28,3.333,1.175,159.0
47.355,3.33,0.906,1.0
80.93,5.669,3.763,1.0
0.0,0.0,0.0,0.0
47.523,3.309,1.665,5.0
47.226,3.279,1.38,33.0
47.267,3.273,1.111,150.0
50.938,3.517,0.906,3.0
0.0,0.0,0.0,0.0
0.0,0.0,0.0,0.0
47.37,3.237,1.597,12.0
47.251,3.219,1.318,160.0
47.361,3.217,1.051,2.0
50.902,3.447,0.838,5.0
0.0,0.0,0.0,0.0
48.026,3.228,1.831,0.0
47.266,3.167,1.531,10.0
47.235,3.155,1.256,164.0
47.263,3.147,0.987,4.0
46.151,3.064,0.701,0.0
0.0,0.0,0.0,0.0
47.724,3.142,1.757,3.0
47.203,3.097,1.468,19.0
47.231,3.089,1.195,163.0
47.344,3.087,0.927,1.0
0.0,0.0,0.0,0.0
0.0,0.0,0.0,0.0
47.504,3.061,1.689,6.0
47.199,3.031,1.408,40.0
47.225,3.023,1.135,150.0
52.17,3.328,0.957,3.0
47.302,3.007,0.598,0.0
0.0,0.0,0.0,0.0
47.367,2.984,1.624,11.0
47.222,2.964,1.35,158.0
47.278,2.957,1.077,3.0
47.621,2.967,0.813,0.0
47.24,2.934,0.538,3.0
48.062,2.968,1.863,0.0
47.268,2.909,1.562,14.0
47.211,2.894,1.292,161.0
47.209,2.883,1.018,6.0
47.494,2.889,0.753,1.0
0.0,0.0,0.0,0.0
47.834,2.883,1.795,2.0
47.204,2.833,1.503,69.0
47.235,2.824,1.234,17.0
47.293,2.816,0.962,3.0
43.33,2.57,0.635,0.0
33.401,1.973,0.299,0.0
47.564,2.793,1.728,5.0
47.201,2.76,1.446,45.0
47.237,2.751,1.178,4.0
53.138,3.082,1.018,0.0
0.0,0.0,0.0,0.0
32.514,1.87,0.253,0.0
47.424,2.71,1.667,7.0
47.222,2.687,1.391,22.0
47.31,2.681,1.125,2.0
48.422,2.732,0.871,2.0
0.0,0.0,0.0,0.0
30.968,1.732,0.205,0.0
47.357,2.631,1.611,3.0
47.257,2.614,1.339,29.0
47.255,2.602,1.07,3.0
48.763,2.672,0.822,4.0
35.671,1.946,0.399,0.0
30.362,1.649,0.167,1.0
47.509,2.562,1.562,61.0
47.287,2.539,1.286,28.0
47.284,2.526,1.018,3.0
46.287,2.461,0.729,1.0
34.108,1.805,0.344,0.0
29.441,1.551,0.13,0.0
47.34,2.475,1.505,9.0
47.322,2.462,1.236,24.0
47.363,2.452,0.968,1.0
0.0,0.0,0.0,0.0
33.207,1.701,0.298,1.0
28.626,1.459,0.095,0.0
47.396,2.398,1.456,11.0
47.343,2.382,1.185,21.0
47.633,2.384,0.922,0.0
0.0,0.0,0.0,0.0
32.039,1.587,0.254,1.0
28.02,1.381,0.063,0.0
47.385,2.316,1.405,0.0
47.36,2.301,1.136,17.0
50.324,2.431,0.922,2.0
37.076,1.781,0.465,0.0
31.786,1.518,0.219,1.0
27.366,1.3,0.033,0.0
47.44,2.234,1.358,5.0
47.435,2.221,1.089,6.0
47.778,2.224,0.827,1.0
36.091,1.67,0.416,0.0
30.407,1.398,0.179,0.0
26.757,1.223,0.006,0.0
47.517,2.154,1.313,5.0
47.648,2.146,1.047,0.0
0.0,0.0,0.0,0.0
34.612,1.539,0.365,0.0
29.122,1.287,0.143,0.0
26.223,1.152,-0.019,0.0
48.057,2.091,1.281,0.0
47.87,2.07,1.006,0.0
42.017,1.804,0.645,1.0
33.243,1.418,0.319,1.0
28.811,1.221,0.114,1.0
25.847,1.088,-0.043,0.0
48.485,2.021,1.247,4.0
0.0,0.0,0.0,0.0
0.0,0.0,0.0,0.0
32.945,1.344,0.286,1.0
28.555,1.157,0.086,0.0
25.097,1.009,-0.065,0.0
48.977,1.951,1.215,2.0
0.0,0.0,0.0,0.0
37.959,1.489,0.513,0.0
32.178,1.253,0.25,0.0
27.731,1.072,0.059,0.0
24.596,0.944,-0.085,1.0
49.712,1.888,1.191,0.0
50.716,1.911,0.929,0.0
0.0,0.0,0.0,0.0
31.193,1.156,0.216,0.0
27.299,1.004,0.035,0.0
24.402,0.89,-0.105,1.0
0.0,0.0,0.0,0.0
0.0,0.0,0.0,0.0
36.083,1.28,0.427,0.0
30.779,1.083,0.188,0.0
26.905,0.938,0.013,0.0
24.176,0.836,-0.124,0.0
0.0,0.0,0.0,0.0
0.0,0.0,0.0,0.0
34.719,1.164,0.383,1.0
28.965,0.963,0.154,1.0
26.678,0.879,-0.008,0.0
23.289,0.76,-0.137,0.0
54.978,1.772,1.183,3.0
0.0,0.0,0.0,0.0
34.663,1.095,0.356,1.0
28.954,0.906,0.131,6.0
26.257,0.814,-0.027,0.0
23.136,0.71,-0.154,1.0
55.596,1.683,1.155,6.0
0.0,0.0,0.0,0.0
33.63,0.997,0.32,1.0
28.906,0.847,0.11,5.0
25.712,0.746,-0.046,0.0
22.808,0.655,-0.168,0.0
56.345,1.594,1.13,3.0
0.0,0.0,0.0,0.0
32.969,0.911,0.291,0.0
28.838,0.788,0.09,3.0
25.388,0.686,-0.063,0.0
22.319,0.596,-0.18,0.0
0.0,0.0,0.0,0.0
38.108,0.99,0.524,0.0
32.16,0.825,0.262,0.0
28.674,0.726,0.07,1.0
25.052,0.626,-0.078,0.0
22.075,0.544,-0.193,0.0
47.148,1.143,0.882,3.0
36.813,0.881,0.483,0.0
31.562,0.745,0.237,0.0
27.643,0.644,0.05,0.0
24.679,0.567,-0.093,0.0
21.799,0.493,-0.204,1.0
0.0,0.0,0.0,0.0
36.774,0.806,0.46,0.0
31.386,0.677,0.217,0.0
27.307,0.58,0.033,0.0
24.446,0.512,-0.106,0.0
21.65,0.446,-0.215,0.0
0.0,0.0,0.0,0.0
0.0,0.0,0.0,0.0
29.066,0.568,0.184,0.0
26.945,0.517,0.017,0.0
24.057,0.454,-0.118,0.0
21.037,0.39,-0.221,0.0
0.0,0.0,0.0,0.0
0.0,0.0,0.0,0.0
28.97,0.506,0.168,0.0
26.714,0.458,0.003,0.0
23.784,0.399,-0.129,0.0
20.538,0.338,-0.226,0.0
0.0,0.0,0.0,0.0
34.335,0.54,0.374,0.0
28.89,0.444,0.153,3.0
26.495,0.399,-0.009,0.0
23.656,0.348,-0.14,0.0
20.462,0.294,-0.235,0.0
40.61,0.568,0.65,0.0
34.318,0.468,0.358,0.0
28.893,0.385,0.14,5.0
26.222,0.34,-0.021,0.0
23.391,0.295,-0.149,0.0
20.223,0.248,-0.241,0.0
39.749,0.473,0.619,0.0
33.659,0.389,0.336,0.0
28.876,0.324,0.128,7.0
26.146,0.284,-0.031,0.0
23.225,0.244,-0.157,0.0
20.064,0.204,-0.247,0.0
39.912,0.391,0.605,0.0
0.0,0.0,0.0,0.0
28.828,0.262,0.116,6.0
25.882,0.226,-0.041,0.0
22.644,0.191,-0.162,0.0
19.81,0.16,-0.252,0.0
38.937,0.299,0.576,0.0
32.889,0.241,0.304,0.0
28.761,0.201,0.106,1.0
25.639,0.17,-0.05,0.0
22.505,0.142,-0.168,0.0
19.662,0.117,-0.256,0.0
0.0,0.0,0.0,0.0
32.312,0.169,0.288,0.0
28.698,0.14,0.097,1.0
25.593,0.116,-0.057,0.0
22.46,0.093,-0.175,1.0
19.583,0.075,-0.261,0.0
0.0,0.0,0.0,0.0
32.417,0.1,0.28,0.0
28.658,0.079,0.089,3.0
25.388,0.061,-0.064,0.0
22.128,0.045,-0.178,0.0
19.295,0.032,-0.262,0.0
0.0,0.0,0.0,0.0
33.08,0.032,0.278,0.0
28.477,0.017,0.081,1.0
25.244,0.006,-0.069,0.0
22.021,-0.001,-0.182,0.0
19.287,-0.008,-0.266,0.0
37.466,-0.03,0.514,0.0
31.7,-0.036,0.259,0.0
28.683,-0.043,0.076,4.0
25.166,-0.047,-0.074,0.0
22.072,-0.049,-0.187,0.0
19.203,-0.049,-0.269,0.0
37.092,-0.109,0.502,0.0
31.675,-0.105,0.254,1.0
28.661,-0.104,0.071,4.0
24.929,-0.1,-0.077,0.0
21.993,-0.096,-0.19,1.0
19.146,-0.091,-0.271,0.0
37.114,-0.188,0.497,0.0
31.702,-0.172,0.25,1.0
28.615,-0.166,0.067,2.0
25.01,-0.154,-0.081,0.0
22.133,-0.144,-0.193,1.0
19.085,-0.131,-0.272,0.0
36.806,-0.265,0.489,0.0
31.779,-0.24,0.247,2.0
28.495,-0.226,0.065,2.0
24.768,-0.206,-0.082,0.0
22.199,-0.192,-0.196,0.0
19.018,-0.172,-0.272,0.0
36.662,-0.343,0.485,0.0
31.772,-0.308,0.245,1.0
28.303,-0.285,0.063,1.0
24.906,-0.26,-0.084,0.0
22.168,-0.239,-0.196,0.0
19.012,-0.212,-0.273,0.0
0.0,0.0,0.0,0.0
32.146,-0.381,0.248,0.0
28.324,-0.346,0.062,1.0
24.909,-0.313,-0.084,0.0
22.056,-0.285,-0.196,1.0
19.071,-0.253,-0.274,0.0
37.615,-0.512,0.497,0.0
31.783,-0.444,0.245,0.0
28.327,-0.407,0.063,1.0
24.982,-0.368,-0.083,0.0
22.136,-0.334,-0.195,1.0
19.065,-0.294,-0.273,0.0
37.267,-0.587,0.494,0.0
31.767,-0.512,0.247,0.0
28.21,-0.465,0.064,0.0
24.82,-0.418,-0.081,0.0
22.2,-0.382,-0.194,0.0
19.128,-0.336,-0.272,0.0
0.0,0.0,0.0,0.0
31.186,-0.569,0.245,0.0
28.567,-0.532,0.068,3.0
24.997,-0.475,-0.079,0.0
22.291,-0.431,-0.193,0.0
19.186,-0.378,-0.271,0.0
37.269,-0.746,0.502,0.0
32.195,-0.656,0.257,1.0
28.588,-0.593,0.072,4.0
25.173,-0.532,-0.076,0.0
22.225,-0.478,-0.189,0.0
19.236,-0.42,-0.269,0.0
38.069,-0.843,0.519,0.0
31.971,-0.719,0.261,0.0
28.619,-0.654,0.077,4.0
25.033,-0.582,-0.071,0.0
22.396,-0.529,-0.186,0.0
19.318,-0.463,-0.266,0.0
0.0,0.0,0.0,0.0
32.611,-0.803,0.272,0.0
28.625,-0.715,0.083,5.0
25.454,-0.645,-0.067,0.0
22.406,-0.576,-0.181,0.0
19.408,-0.507,-0.263,0.0
37.807,-0.997,0.531,0.0
32.563,-0.87,0.28,0.0
28.573,-0.774,0.089,1.0
25.554,-0.702,-0.061,0.0
22.54,-0.627,-0.177,0.0
19.459,-0.549,-0.259,0.0
0.0,0.0,0.0,0.0
32.523,-0.938,0.288,0.0
28.58,-0.834,0.098,1.0
0.0,0.0,0.0,0.0
22.755,-0.681,-0.172,0.0
19.528,-0.591,-0.254,0.0
0.0,0.0,0.0,0.0
33.117,-1.024,0.304,0.0
28.591,-0.894,0.107,1.0
26.093,-0.826,-0.046,0.0
22.993,-0.736,-0.166,0.0
19.613,-0.635,-0.248,0.0
0.0,0.0,0.0,0.0
0.0,0.0,0.0,0.0
28.627,-0.955,0.117,1.0
26.249,-0.885,-0.037,0.0
22.719,-0.774,-0.156,0.0
19.846,-0.683,-0.244,0.0
0.0,0.0,0.0,0.0
33.254,-1.165,0.33,0.0
28.637,-1.014,0.128,2.0
26.36,-0.942,-0.027,0.0
23.257,-0.84,-0.15,0.0
20.803,-0.759,-0.247,0.0
40.094,-1.472,0.632,0.0
34.186,-1.267,0.353,0.0
28.655,-1.072,0.14,3.0
26.651,-1.007,-0.016,0.0
23.22,-0.886,-0.14,0.0
20.92,-0.806,-0.239,2.0
0.0,0.0,0.0,0.0
34.572,-1.351,0.373,0.0
28.66,-1.13,0.154,2.0
26.956,-1.073,-0.003,0.0
23.56,-0.946,-0.131,1.0
20.988,-0.85,-0.23,2.0
0.0,0.0,0.0,0.0
34.462,-1.416,0.388,0.0
28.642,-1.187,0.168,0.0
27.202,-1.137,0.009,0.0
23.741,-1.001,-0.12,0.0
21.063,-0.896,-0.22,2.0
0.0,0.0,0.0,0.0
35.564,-1.532,0.42,0.0
30.709,-1.334,0.196,0.0
27.994,-1.226,0.024,0.0
23.868,-1.053,-0.107,0.0
21.234,-0.945,-0.21,1.0
0.0,0.0,0.0,0.0
36.338,-1.636,0.449,0.0
31.33,-1.422,0.217,0.0
27.606,-1.263,0.04,1.0
24.574,-1.133,-0.097,0.0
21.728,-1.009,-0.203,1.0
0.0,0.0,0.0,0.0
35.788,-1.682,0.463,0.0
31.767,-1.504,0.239,0.0
28.186,-1.344,0.057,7.0
25.398,-1.221,-0.084,0.0
22.267,-1.078,-0.194,1.0
0.0,0.0,0.0,0.0
0.0,0.0,0.0,0.0
32.061,-1.581,0.262,0.0
28.286,-1.404,0.076,3.0
25.602,-1.28,-0.068,0.0
22.561,-1.136,-0.182,1.0
0.0,0.0,0.0,0.0
38.333,-1.951,0.546,0.0
32.751,-1.677,0.29,0.0
28.489,-1.469,0.095,2.0
25.8,-1.339,-0.051,0.0
22.818,-1.192,-0.168,1.0
34.405,-1.804,0.699,1.0
34.688,-1.83,0.517,0.0
32.514,-1.727,0.31,0.0
28.569,-1.527,0.116,5.0
34.271,-1.844,-0.044,2.0
34.25,-1.855,-0.229,3.0
0.0,0.0,0.0,0.0
34.556,-1.888,0.541,1.0
34.488,-1.896,0.354,0.0
28.594,-1.582,0.137,2.0
34.238,-1.906,-0.019,1.0
23.662,-1.325,-0.14,2.0
0.0,0.0,0.0,0.0
34.394,-1.943,0.564,1.0
34.712,-1.972,0.383,0.0
30.401,-1.738,0.169,6.0
27.4,-1.575,0.005,0.0
24.028,-1.389,-0.124,0.0
0.0,0.0,0.0,0.0
34.171,-1.992,0.587,2.0
34.797,-2.04,0.411,4.0
30.846,-1.819,0.196,9.0
28.225,-1.674,0.028,1.0
24.203,-1.443,-0.105,0.0
33.937,-2.029,0.793,0.0
34.046,-2.046,0.613,1.0
36.61,-2.212,0.462,0.0
31.638,-1.922,0.227,6.0
28.437,-1.737,0.051,6.0
25.153,-1.544,-0.088,0.0
33.944,-2.089,0.821,2.0
34.035,-2.105,0.641,0.0
34.771,-2.162,0.469,1.0
31.955,-1.997,0.256,4.0
28.443,-1.787,0.076,1.0
25.412,-1.605,-0.067,0.0
33.943,-2.148,0.851,5.0
33.904,-2.157,0.668,0.0
34.574,-2.211,0.497,3.0
32.801,-2.108,0.292,2.0
28.515,-1.841,0.101,0.0
25.861,-1.678,-0.045,0.0
33.901,-2.204,0.88,16.0
33.897,-2.214,0.699,0.0
34.498,-2.264,0.527,3.0
33.722,-2.224,0.331,1.0
29.762,-1.972,0.133,0.0
26.565,-1.769,-0.022,0.0
33.896,-2.261,0.912,27.0
33.901,-2.272,0.73,0.0
34.202,-2.302,0.554,1.0
34.405,-2.327,0.37,1.0
30.36,-2.062,0.164,0.0
27.505,-1.877,0.002,0.0
33.889,-2.317,0.944,44.0
33.872,-2.326,0.762,0.0
34.002,-2.345,0.583,1.0
35.529,-2.461,0.417,0.0
31.223,-2.172,0.199,0.0
33.902,-2.369,0.036,1.0
33.882,-2.372,0.977,74.0
33.89,-2.382,0.796,158.0
33.904,-2.393,0.615,1.0
36.403,-2.58,0.463,0.0
31.824,-2.265,0.235,0.0
33.903,-2.423,0.069,5.0
33.87,-2.424,1.01,81.0
33.894,-2.436,0.83,156.0
33.872,-2.444,0.649,150.0
34.449,-2.496,0.472,1.0
32.46,-2.361,0.272,0.0
33.92,-2.478,0.104,2.0
33.849,-2.476,1.044,83.0
33.836,-2.485,0.864,28.0
33.867,-2.496,0.684,156.0
34.345,-2.542,0.507,5.0
33.664,-2.5,0.318,0.0
33.936,-2.53,0.139,0.0
33.839,-2.527,1.079,103.0
33.826,-2.535,0.899,48.0
33.853,-2.547,0.719,158.0
34.137,-2.578,0.54,4.0
35.284,-2.674,0.37,0.0
30.36,-2.309,0.157,0.0
33.826,-2.577,1.115,92.0
33.838,-2.586,0.935,94.0
33.857,-2.597,0.756,159.0
33.946,-2.613,0.574,4.0
0.0,0.0,0.0,0.0
31.298,-2.426,0.196,0.0
33.814,-2.625,1.152,39.0
33.829,-2.635,0.972,150.0
33.851,-2.645,0.793,156.0
33.832,-2.653,0.609,7.0
34.471,-2.712,0.437,0.0
31.847,-2.514,0.235,0.0
33.823,-2.674,1.19,8.0
33.818,-2.682,1.01,144.0
33.834,-2.692,0.831,151.0
33.815,-2.699,0.647,135.0
34.362,-2.752,0.475,2.0
32.858,-2.64,0.28,0.0
33.833,-2.722,1.229,13.0
33.805,-2.728,1.048,139.0
33.796,-2.735,0.868,38.0
33.823,-2.746,0.686,155.0
34.235,-2.788,0.512,4.0
33.867,-2.767,0.327,0.0
33.812,-2.766,1.267,56.0
33.804,-2.773,1.087,150.0
33.821,-2.783,0.908,150.0
33.822,-2.791,0.725,153.0
34.023,-2.816,0.549,3.0
0.0,0.0,0.0,0.0
33.818,-2.811,1.307,91.0
33.797,-2.817,1.127,74.0
33.806,-2.825,0.948,150.0
33.818,-2.834,0.765,154.0
33.893,-2.849,0.587,1.0
36.853,-3.107,0.443,0.0
33.81,-2.853,1.347,35.0
33.793,-2.86,1.167,14.0
33.799,-2.867,0.988,140.0
33.8,-2.875,0.806,7.0
33.8,-2.883,0.626,1.0
34.435,-2.946,0.456,1.0
33.911,-2.904,1.393,1.0
33.812,-2.903,1.209,8.0
33.792,-2.909,1.029,109.0
33.778,-2.915,0.846,30.0
33.797,-2.924,0.667,8.0
34.265,-2.972,0.495,3.0
34.186,-2.969,1.446,0.0
33.804,-2.943,1.251,40.0
33.79,-2.948,1.071,101.0
33.76,-2.953,0.887,53.0
33.787,-2.962,0.709,0.0
34.074,-2.995,0.535,1.0
34.397,-3.027,1.498,0.0
33.804,-2.981,1.293,58.0
33.773,-2.985,1.112,54.0
33.804,-2.995,0.931,81.0
33.764,-2.999,0.751,0.0
33.96,-3.023,0.576,0.0
0.0,0.0,0.0,0.0
33.811,-3.02,1.335,24.0
33.783,-3.024,1.155,12.0
33.809,-3.033,0.974,76.0
33.8,-3.039,0.794,4.0
33.858,-3.051,0.616,0.0
0.0,0.0,0.0,0.0
33.967,-3.07,1.385,0.0
33.823,-3.064,1.2,7.0
33.778,-3.066,1.016,52.0
33.784,-3.073,0.837,25.0
33.81,-3.082,0.659,0.0
34.667,-3.164,1.642,0.0
34.155,-3.122,1.437,0.0
33.825,-3.098,1.243,17.0
33.779,-3.1,1.059,46.0
33.795,-3.107,0.881,29.0
33.821,-3.116,0.703,155.0
34.842,-3.214,1.695,0.0
34.31,-3.17,1.488,0.0
33.81,-3.13,1.286,22.0
33.783,-3.133,1.103,26.0
33.806,-3.141,0.925,27.0
33.807,-3.147,0.746,18.0
0.0,0.0,0.0,0.0
0.0,0.0,0.0,0.0
33.839,-3.164,1.332,5.0
33.806,-3.167,1.148,7.0
33.809,-3.173,0.969,21.0
33.793,-3.177,0.79,4.0
150.249,-14.142,7.705,16.0
34.517,-3.253,1.587,0.0
34.065,-3.216,1.385,0.0
33.826,-3.199,1.193,4.0
33.815,-3.203,1.014,18.0
33.813,-3.208,0.835,8.0
150.244,-14.272,7.904,25.0
34.778,-3.308,1.644,0.0
34.202,-3.258,1.436,1.0
33.858,-3.23,1.239,5.0
33.864,-3.235,1.06,7.0
33.83,-3.237,0.88,12.0
159.324,-15.266,8.592,15.0
0.0,0.0,0.0,0.0
34.341,-3.299,1.487,4.0
33.841,-3.255,1.283,5.0
33.859,-3.262,1.105,8.0
33.836,-3.264,0.925,12.0
159.421,-15.4,8.81,5.0
0.0,0.0,0.0,0.0
34.466,-3.338,1.539,0.0
33.894,-3.286,1.331,1.0
33.854,-3.287,1.15,4.0
33.843,-3.29,0.971,8.0
160.197,-15.594,9.07,15.0
158.643,-15.461,8.14,5.0
34.68,-3.383,1.595,0.0
34.189,-3.34,1.388,0.0
33.879,-3.313,1.196,3.0
33.912,-3.32,1.018,150.0
160.173,-15.705,9.285,18.0
158.815,-15.588,8.364,13.0
34.874,-3.426,1.651,0.0
34.373,-3.38,1.442,0.0
33.87,-3.335,1.241,2.0
33.932,-3.344,1.064,153.0
160.327,-15.825,9.51,12.0
158.909,-15.699,8.583,15.0
35.174,-3.478,1.713,1.0
34.641,-3.428,1.5,1.0
33.923,-3.361,1.289,1.0
33.901,-3.362,1.109,7.0
159.907,-15.88,9.701,12.0
160.017,-15.905,8.859,6.0
35.51,-3.532,1.777,0.0
35.016,-3.486,1.563,0.0
34.192,-3.407,1.346,0.0
33.896,-3.381,1.154,2.0
167.678,-16.747,10.401,4.0
160.396,-16.031,9.098,15.0
159.014,-15.905,8.175,17.0
35.296,-3.533,1.624,0.0
34.583,-3.464,1.408,0.0
33.955,-3.404,1.202,1.0
160.178,-16.082,10.152,6.0
160.221,-16.097,9.305,13.0
158.915,-15.975,8.386,18.0
35.808,-3.602,1.695,1.0
34.831,-3.506,1.465,0.0
33.957,-3.42,1.248,1.0
176.408,-17.795,11.419,19.0
160.315,-16.181,9.525,17.0
158.921,-16.047,8.598,15.0
158.944,-16.059,7.741,7.0
35.28,-3.566,1.53,0.0
34.146,-3.454,1.301,0.0
176.188,-17.849,11.643,19.0
160.519,-16.268,9.754,11.0
158.698,-16.09,8.8,6.0
159.046,-16.133,7.959,18.0
35.453,-3.598,1.585,0.0
34.722,-3.525,1.369,0.0
176.125,-17.91,11.876,18.0
160.33,-16.309,9.958,12.0
160.171,-16.298,9.096,14.0
159.006,-16.186,8.168,15.0
36.261,-3.692,1.67,0.0
35.066,-3.572,1.429,0.0
143.263,-14.617,9.852,10.0
175.866,-17.948,11.156,9.0
160.321,-16.364,9.319,15.0
158.806,-16.215,8.371,18.0
159.102,-16.25,7.543,15.0
35.406,-3.617,1.49,0.0
143.334,-14.668,10.049,19.0
175.892,-18.001,11.396,20.0
160.473,-16.425,9.542,17.0
158.883,-16.266,8.587,17.0
159.058,-16.286,7.751,18.0
35.769,-3.663,1.553,0.0
143.65,-14.736,10.262,13.0
175.86,-18.04,11.626,20.0
160.537,-16.469,9.756,14.0
158.673,-16.28,8.783,14.0
159.144,-16.329,7.965,13.0
36.372,-3.732,1.627,0.0
143.773,-14.778,10.461,3.0
175.757,-18.065,11.851,20.0
160.366,-16.481,9.96,16.0
158.522,-16.292,8.986,7.0
159.309,-16.373,8.182,15.0
0.0,0.0,0.0,0.0
142.927,-14.714,10.589,9.0
143.26,-14.746,9.849,15.0
160.258,-16.494,10.162,7.0
158.594,-16.321,9.196,8.0
159.046,-16.366,8.375,16.0
159.295,-16.391,7.542,15.0
142.854,-14.724,10.771,11.0
143.278,-14.764,10.037,21.0
175.689,-18.099,11.37,19.0
160.194,-16.5,9.497,16.0
158.777,-16.351,8.568,17.0
159.247,-16.397,7.746,19.0
142.804,-14.729,10.953,2.0
143.233,-14.768,10.219,7.0
175.654,-18.104,11.593,25.0
160.327,-16.52,9.71,15.0
158.541,-16.333,8.756,11.0
159.359,-16.412,7.954,19.0
152.997,-15.784,11.929,3.0
142.802,-14.727,10.369,3.0
175.644,-18.105,11.814,21.0
160.34,-16.522,9.911,14.0
158.498,-16.326,8.953,9.0
159.336,-16.408,8.15,16.0
153.173,-15.799,12.135,3.0
142.874,-14.729,10.554,8.0
143.222,-14.758,9.814,12.0
160.326,-16.514,10.111,11.0
158.685,-16.337,9.16,8.0
158.993,-16.362,8.33,16.0
142.996,-14.742,11.507,10.0
142.777,-14.71,10.724,12.0
143.223,-14.747,9.99,23.0
175.687,-18.08,11.298,17.0
160.409,-16.5,9.458,15.0
158.807,-16.326,8.516,15.0
142.774,-14.705,11.667,13.0
175.567,-18.069,13.404,6.0
143.386,-14.747,10.178,15.0
175.79,-18.068,11.519,19.0
160.577,-16.494,9.664,14.0
158.756,-16.298,8.706,12.0
142.822,-14.688,11.848,18.0
148.054,-15.214,11.485,3.0
143.822,-14.768,10.385,10.0
175.83,-18.041,11.736,21.0
160.5,-16.457,9.854,14.0
158.535,-16.245,8.886,4.0
142.521,-14.631,11.994,14.0
143.162,-14.682,11.279,11.0
151.059,-15.48,11.089,4.0
175.857,-18.006,11.948,15.0
160.186,-16.388,10.024,13.0
160.177,-16.376,9.165,12.0
142.43,-14.588,12.156,20.0
143.146,-14.647,11.446,19.0
142.909,-14.609,10.658,5.0
143.284,-14.634,9.901,13.0
176.103,-17.971,11.224,14.0
160.347,-16.348,9.362,16.0
142.762,-14.582,12.353,17.0
143.019,-14.594,11.602,19.0
148.292,-15.116,11.232,7.0
143.421,-14.605,10.077,19.0
176.114,-17.918,11.427,19.0
160.332,-16.297,9.543,16.0
142.997,-14.561,12.537,11.0
142.751,-14.52,11.744,22.0
148.352,-15.073,11.405,4.0
143.689,-14.583,10.259,15.0
176.197,-17.864,11.632,17.0
160.157,-16.221,9.713,11.0
144.282,-14.64,12.813,9.0
142.579,-14.449,11.891,11.0
152.554,-15.442,11.9,4.0
143.718,-14.531,10.42,13.0
149.727,-15.12,10.051,13.0
160.275,-16.169,9.896,4.0
144.278,-14.583,12.971,18.0
144.566,-14.592,12.216,11.0
143.139,-14.429,11.322,12.0
143.336,-14.432,10.548,16.0
176.402,-17.74,12.031,13.0
176.547,-17.733,11.09,9.0
144.172,-14.509,13.117,18.0
144.224,-14.493,12.342,12.0
143.025,-14.353,11.464,10.0
142.906,-14.323,10.667,11.0
143.735,-14.386,9.954,16.0
176.638,-17.658,11.28,8.0
144.103,-14.433,13.264,12.0
142.699,-14.271,12.36,13.0
142.589,-14.239,11.578,11.0
142.403,-14.2,10.779,10.0
143.738,-14.314,10.102,11.0
150.02,-14.92,9.734,19.0
143.681,-14.316,13.373,13.0
142.662,-14.192,12.504,12.0
144.9,-14.393,11.914,6.0
142.374,-14.119,10.922,13.0
143.575,-14.217,10.238,7.0
148.938,-14.728,9.814,13.0
143.511,-14.218,13.503,7.0
142.518,-14.096,12.635,9.0
144.861,-14.305,12.056,12.0
142.409,-14.041,11.064,12.0
143.63,-14.138,10.382,12.0
177.339,-17.431,11.858,5.0
143.405,-14.123,13.633,13.0
144.389,-14.194,12.941,11.0
144.633,-14.194,12.177,19.0
145.168,-14.223,11.417,7.0
143.629,-14.049,10.517,12.0
150.584,-14.707,10.21,8.0
143.425,-14.034,13.771,12.0
144.533,-14.116,13.091,12.0
144.769,-14.114,12.323,13.0
145.227,-14.134,11.557,11.0
143.675,-13.959,10.654,10.0
177.636,-17.229,12.209,18.0
143.249,-13.92,13.888,11.0
0.0,0.0,0.0,0.0
0.0,0.0,0.0,0.0
145.273,-14.037,11.693,13.0
143.572,-13.848,10.776,10.0
177.833,-17.123,12.38,4.0
143.281,-13.822,14.019,10.0
147.212,-14.171,13.6,3.0
0.0,0.0,0.0,0.0
145.063,-13.911,11.803,9.0
143.675,-13.752,10.908,3.0
151.437,-14.467,10.675,18.0
145.349,-13.912,14.349,6.0
144.521,-13.804,13.476,3.0
146.607,-13.975,12.868,5.0
0.0,0.0,0.0,0.0
0.0,0.0,0.0,0.0
145.985,-13.833,10.411,9.0
145.265,-13.791,14.461,13.0
148.312,-14.05,13.951,3.0
146.79,-13.876,13.004,9.0
145.622,-13.736,12.09,3.0
145.428,-13.691,11.279,12.0
146.087,-13.725,10.534,5.0
145.145,-13.661,14.566,21.0
145.793,-13.691,13.83,9.0
147.194,-13.793,13.156,4.0
0.0,0.0,0.0,0.0
145.379,-13.564,11.388,12.0
146.235,-13.615,10.657,5.0
145.441,-13.566,14.707,15.0
145.838,-13.571,13.945,10.0
145.359,-13.495,13.102,10.0
144.942,-13.427,12.254,4.0
144.661,-13.371,11.438,16.0
146.177,-13.483,10.758,9.0
146.06,-13.495,14.877,17.0
145.701,-13.43,14.038,15.0
145.1,-13.343,13.182,14.0
144.988,-13.302,12.36,4.0
144.697,-13.245,11.542,18.0
146.199,-13.352,10.862,9.0
145.468,-13.308,14.918,15.0
145.622,-13.29,14.13,8.0
145.148,-13.215,13.285,9.0
146.98,-13.349,12.629,6.0
144.665,-13.107,11.636,14.0
144.889,-13.097,10.86,13.0
145.849,-13.204,15.055,15.0
146.392,-13.22,14.302,12.0
146.986,-13.24,13.549,5.0
147.435,-13.246,12.765,8.0
144.398,-12.943,11.707,20.0
144.828,-12.95,10.947,12.0
145.635,-13.043,15.125,16.0
146.306,-13.068,14.385,14.0
146.687,-13.069,13.611,10.0
145.865,-12.962,12.716,5.0
144.459,-12.805,11.798,14.0
145.447,-12.859,11.08,10.0
145.344,-12.871,15.18,19.0
146.054,-12.899,14.446,15.0
146.338,-12.89,13.663,8.0
145.706,-12.8,12.785,14.0
0.0,0.0,0.0,0.0
146.206,-12.779,11.217,3.0
145.301,-12.719,15.256,13.0
145.962,-12.741,14.515,4.0
144.791,-12.603,13.597,8.0
145.85,-12.659,12.876,11.0
145.685,-12.611,12.057,9.0
145.451,-12.558,11.235,10.0
146.539,-12.67,15.462,14.0
145.291,-12.526,14.524,16.0
145.096,-12.475,13.698,14.0
145.16,-12.445,12.886,13.0
146.062,-12.489,12.157,7.0
145.776,-12.431,11.329,11.0
146.604,-12.519,15.539,8.0
145.224,-12.364,14.585,19.0
144.796,-12.291,13.738,7.0
145.216,-12.292,12.956,11.0
146.372,-12.355,12.249,15.0
145.996,-12.289,11.411,13.0
146.676,-12.362,15.611,5.0
145.588,-12.234,14.683,13.0
144.664,-12.12,13.786,14.0
145.179,-12.127,13.014,15.0
146.326,-12.186,12.305,11.0
146.774,-12.188,11.53,14.0
147.44,-12.257,15.753,15.0
146.554,-12.147,14.839,13.0
144.559,-11.944,13.832,3.0
145.17,-11.958,13.068,17.0
146.015,-11.991,12.334,13.0
146.638,-12.008,11.572,10.0
147.206,-12.068,15.78,7.0
146.673,-11.986,14.903,5.0
145.945,-11.888,14.015,7.0
145.367,-11.804,13.135,13.0
146.062,-11.825,12.384,6.0
146.841,-11.852,11.636,4.0
146.686,-11.852,15.771,13.0
148.148,-11.932,15.098,5.0
145.604,-11.688,14.027,13.0
145.759,-11.664,13.213,15.0
145.852,-11.634,12.409,15.0
147.212,-11.704,11.707,4.0
148.899,-11.851,16.051,11.0
148.629,-11.79,15.189,8.0
145.633,-11.513,14.067,21.0
146.424,-11.538,13.311,7.0
145.599,-11.437,12.424,19.0
147.508,-11.549,11.765,10.0
147.584,-11.566,15.944,6.0
145.681,-11.378,14.92,6.0
145.649,-11.336,14.102,13.0
147.783,-11.464,13.466,12.0
145.601,-11.258,12.454,20.0
0.0,0.0,0.0,0.0
148.939,-11.488,16.12,3.0
147.948,-11.371,15.181,10.0
148.815,-11.398,14.435,5.0
119.035,-9.085,10.867,7.0
145.78,-11.09,12.493,9.0
0.0,0.0,0.0,0.0
148.859,-11.295,16.133,7.0
148.623,-11.236,15.271,10.0
147.433,-11.107,14.321,15.0
119.113,-8.941,10.89,7.0
119.171,-8.914,10.228,11.0
150.095,-11.188,12.043,7.0
148.503,-11.074,16.113,13.0
148.774,-11.055,15.303,4.0
146.659,-10.857,14.26,16.0
119.51,-8.815,10.937,9.0
119.1,-8.754,10.232,11.0
149.234,-10.931,11.985,7.0
148.475,-10.88,16.119,16.0
90.825,-6.63,9.348,5.0
90.204,-6.559,8.776,11.0
119.142,-8.633,10.909,10.0
119.166,-8.602,10.242,11.0
119.269,-8.578,9.582,3.0
148.547,-10.687,16.132,10.0
146.363,-10.49,15.067,10.0
90.566,-6.466,8.812,14.0
118.866,-8.454,10.884,11.0
118.91,-8.426,10.22,18.0
118.464,-8.364,9.516,7.0
89.89,-6.348,9.76,4.0
146.197,-10.282,15.047,12.0
90.611,-6.348,8.813,14.0
117.021,-8.168,10.71,17.0
118.549,-8.242,10.183,13.0
118.449,-8.204,9.509,3.0
90.023,-6.235,9.768,10.0
112.717,-7.776,11.592,5.0
90.788,-6.239,8.824,20.0
116.971,-8.006,10.696,13.0
117.147,-7.987,10.052,12.0
118.767,-8.067,9.522,8.0
90.367,-6.137,9.796,5.0
112.803,-7.63,11.589,11.0
91.054,-6.133,8.839,13.0
117.096,-7.857,10.692,6.0
89.464,-5.979,7.665,6.0
117.617,-7.829,9.414,9.0
90.293,-6.01,9.775,14.0
98.128,-6.503,10.066,8.0
91.044,-6.009,8.823,26.0
118.122,-7.765,10.766,18.0
89.163,-5.838,7.623,20.0
117.596,-7.668,9.391,11.0
90.273,-5.884,9.755,34.0
90.916,-5.901,9.308,12.0
90.787,-5.867,8.779,22.0
116.941,-7.526,10.633,13.0
88.212,-5.653,7.523,13.0
117.432,-7.495,9.351,11.0
90.227,-5.755,9.729,24.0
90.668,-5.758,9.26,9.0
87.21,-5.515,8.412,10.0
91.43,-5.756,8.29,11.0
88.373,-5.541,7.512,28.0
113.593,-7.093,9.014,13.0
113.431,-7.077,12.199,13.0
90.637,-5.63,9.231,14.0
87.004,-5.38,8.366,23.0
89.115,-5.487,8.053,15.0
88.696,-5.438,7.512,19.0
88.437,-5.398,6.99,5.0
90.877,-5.542,9.744,24.0
87.296,-5.3,8.862,14.0
87.053,-5.262,8.341,21.0
87.472,-5.262,7.875,17.0
88.718,-5.314,7.483,4.0
88.666,-5.288,6.976,16.0
91.006,-5.422,9.724,13.0
86.613,-5.137,8.76,26.0
87.389,-5.159,8.339,25.0
88.04,-5.173,7.892,23.0
92.839,-5.43,7.794,15.0
88.607,-5.16,6.936,26.0
91.096,-5.299,9.695,15.0
86.833,-5.027,8.745,18.0
87.489,-5.041,8.312,21.0
88.645,-5.084,7.908,17.0
89.078,-5.085,7.439,28.0
89.017,-5.059,6.928,24.0
82.589,-4.687,8.752,18.0
87.464,-4.939,8.768,30.0
87.414,-4.913,8.263,25.0
88.968,-4.976,7.893,7.0
89.043,-4.957,7.393,18.0
88.817,-4.921,6.869,29.0
82.616,-4.571,8.713,15.0
88.397,-4.866,8.816,21.0
87.477,-4.791,8.224,31.0
86.918,-4.737,7.666,25.0
88.987,-4.827,7.341,20.0
88.682,-4.787,6.811,23.0
82.122,-4.425,8.616,12.0
88.532,-4.747,8.781,20.0
88.089,-4.699,8.232,7.0
86.905,-4.613,7.616,20.0
0.0,0.0,0.0,0.0
89.15,-4.688,6.795,18.0
82.136,-4.309,8.569,27.0
83.922,-4.379,8.273,13.0
84.623,-4.394,7.857,15.0
88.691,-4.581,7.717,18.0
88.647,-4.556,7.208,8.0
88.998,-4.553,6.728,18.0
82.699,-4.22,8.574,17.0
83.992,-4.264,8.226,20.0
85.028,-4.295,7.839,26.0
87.136,-4.378,7.526,16.0
89.546,-4.477,7.222,21.0
88.313,-4.393,6.618,16.0
82.718,-4.103,8.52,28.0
84.105,-4.15,8.179,26.0
87.151,-4.277,7.975,12.0
87.116,-4.253,7.463,23.0
89.012,-4.324,7.115,19.0
88.363,-4.27,6.559,15.0
82.775,-3.989,8.466,15.0
85.093,-4.079,8.213,19.0
85.158,-4.059,7.73,11.0
87.206,-4.134,7.406,30.0
89.085,-4.2,7.055,13.0
88.547,-4.154,6.505,16.0
83.293,-3.894,8.455,14.0
85.223,-3.962,8.159,24.0
89.756,-4.15,8.076,6.0
87.168,-4.009,7.334,29.0
88.208,-4.034,6.915,11.0
89.351,-4.064,6.493,19.0
84.461,-3.828,8.504,4.0
82.427,-3.715,7.823,13.0
87.381,-3.917,7.791,14.0
87.453,-3.899,7.285,12.0
88.119,-3.906,6.834,21.0
88.87,-3.917,6.383,16.0
79.215,-3.479,7.908,13.0
82.324,-3.595,7.743,26.0
87.287,-3.79,7.707,23.0
88.247,-3.81,7.275,6.0
88.576,-3.802,6.792,16.0
88.093,-3.761,6.25,17.0
81.816,-3.479,8.095,12.0
82.131,-3.472,7.651,32.0
87.418,-3.674,7.638,3.0
88.367,-3.692,7.203,21.0
88.241,-3.664,6.684,21.0
88.693,-3.662,6.21,13.0
81.444,-3.349,7.98,21.0
82.179,-3.358,7.576,25.0
84.231,-3.421,7.279,10.0
88.009,-3.553,7.089,28.0
87.72,-3.521,6.561,23.0
88.264,-3.523,6.094,26.0
66.054,-2.624,6.407,18.0
84.307,-3.328,7.689,9.0
87.245,-3.423,7.453,16.0
87.901,-3.427,6.992,26.0
