X,Y,Z,Reflectivity
90.534,-1.124,5.117,29.0
73.818,-0.924,6.246,26.0
76.333,-0.949,6.059,24.0
76.322,-0.942,5.658,28.0
87.922,-1.078,6.05,15.0
105.939,-1.29,6.735,11.0
90.455,-1.093,5.279,20.0
66.495,-0.81,5.751,14.0
73.831,-0.893,5.997,9.0
76.481,-0.918,5.812,26.0
76.32,-0.909,5.391,17.0
105.809,-1.251,6.921,15.0
90.451,-1.061,5.443,17.0
64.079,-0.758,5.659,13.0
73.793,-0.865,6.128,31.0
76.475,-0.889,5.95,27.0
76.28,-0.879,5.526,14.0
76.146,-0.87,5.118,10.0
90.499,-1.026,5.609,26.0
64.049,-0.732,5.773,26.0
73.846,-0.836,6.268,25.0
76.546,-0.858,6.094,27.0
76.273,-0.848,5.664,14.0
76.146,-0.838,5.254,24.0
91.161,-0.994,5.813,29.0
63.851,-0.702,5.87,27.0
63.888,-0.695,5.536,18.0
73.719,-0.794,6.0,6.0
76.385,-0.814,5.807,17.0
76.199,-0.804,5.393,27.0
76.069,-0.794,4.986,25.0
63.752,-0.671,5.975,25.0
63.956,-0.665,5.656,29.0
73.764,-0.759,6.134,13.0
76.52,-0.779,5.953,21.0
76.181,-0.766,5.525,16.0
75.931,-0.755,5.109,28.0
63.844,-0.64,6.095,16.0
63.982,-0.633,5.769,32.0
63.924,-0.625,5.427,16.0
76.724,-0.74,6.102,10.0
76.362,-0.728,5.671,29.0
76.009,-0.715,5.245,24.0
58.234,-0.552,5.66,16.0
63.969,-0.598,5.879,18.0
63.911,-0.59,5.535,24.0
76.842,-0.699,6.241,15.0
76.51,-0.686,5.811,18.0
76.133,-0.674,5.381,27.0
58.242,-0.519,5.76,23.0
66.722,-0.586,6.244,5.0
63.931,-0.553,5.645,26.0
74.588,-0.635,6.184,7.0
76.642,-0.643,5.949,9.0
76.297,-0.629,5.52,28.0
58.338,-0.485,5.867,16.0
74.069,-0.605,7.056,18.0
63.925,-0.514,5.75,10.0
74.507,-0.588,6.3,22.0
76.689,-0.595,6.078,11.0
76.448,-0.583,5.656,19.0
65.993,-0.507,6.746,26.0
58.268,-0.439,5.646,20.0
74.009,-0.547,6.778,16.0
64.616,-0.469,5.568,9.0
76.844,-0.547,6.215,6.0
76.508,-0.533,5.783,10.0
65.919,-0.462,6.845,22.0
58.451,-0.401,5.758,26.0
65.023,-0.437,6.059,13.0
64.681,-0.425,5.677,29.0
64.634,-0.415,5.33,19.0
62.535,-0.393,4.825,10.0
58.576,-0.37,6.175,22.0
64.904,-0.4,6.497,13.0
58.406,-0.351,5.534,7.0
64.711,-0.379,5.781,25.0
64.657,-0.369,5.433,15.0
62.513,-0.347,4.921,18.0
58.659,-0.328,6.275,21.0
65.299,-0.356,6.636,13.0
58.538,-0.309,5.636,11.0
64.712,-0.332,5.879,31.0
64.73,-0.322,5.536,22.0
62.557,-0.301,5.018,9.0
56.863,-0.276,6.169,21.0
58.641,-0.275,6.048,17.0
58.63,-0.266,5.733,10.0
64.773,-0.283,5.98,26.0
64.787,-0.273,5.636,26.0
64.689,-0.262,5.284,11.0
56.887,-0.232,6.255,25.0
58.77,-0.23,6.147,30.0
64.958,-0.244,6.446,11.0
56.75,-0.203,5.322,11.0
64.755,-0.221,5.727,28.0
64.678,-0.21,5.376,14.0
56.56,-0.185,6.303,29.0
58.804,-0.183,6.236,18.0
58.682,-0.172,5.908,3.0
56.754,-0.157,5.404,20.0
64.823,-0.168,5.825,32.0
58.946,-0.143,4.982,17.0
63.394,-0.155,7.153,19.0
56.962,-0.129,6.121,21.0
58.73,-0.123,5.994,22.0
56.758,-0.11,5.482,27.0
64.997,-0.115,5.929,12.0
59.034,-0.094,5.069,18.0
63.444,-0.102,7.244,18.0
56.575,-0.081,6.155,26.0
58.72,-0.074,6.072,7.0
56.627,-0.061,5.546,6.0
57.75,-0.052,5.345,25.0
59.098,-0.042,5.153,20.0
56.66,-0.04,6.547,6.0
56.662,-0.031,6.241,30.0
57.077,-0.021,5.978,17.0
58.791,-0.011,5.835,10.0
57.101,0.0,5.36,28.0
59.091,0.009,5.229,22.0
59.49,0.01,6.951,27.0
56.654,0.02,6.313,30.0
57.13,0.03,6.056,23.0
56.254,0.04,5.654,10.0
56.826,0.051,5.406,30.0
59.017,0.063,5.296,23.0
59.422,0.065,7.018,29.0
56.742,0.072,6.394,28.0
57.005,0.083,6.114,14.0
57.083,0.093,5.808,19.0
56.525,0.102,5.446,30.0
58.482,0.117,5.319,33.0
59.46,0.12,7.095,9.0
56.833,0.125,6.473,20.0
56.87,0.136,6.168,24.0
57.227,0.148,5.891,26.0
56.435,0.156,5.504,28.0
57.921,0.171,5.336,28.0
59.479,0.178,7.168,12.0
56.893,0.181,6.546,14.0
56.917,0.192,6.24,28.0
57.542,0.204,5.99,32.0
56.54,0.212,5.579,29.0
57.431,0.225,5.356,31.0
52.561,0.209,6.394,16.0
52.14,0.217,6.059,26.0
56.928,0.248,6.305,25.0
57.311,0.26,6.03,25.0
56.797,0.269,5.668,30.0
57.347,0.283,5.412,31.0
56.671,0.282,6.957,8.0
52.091,0.269,6.11,25.0
57.009,0.306,6.376,22.0
58.375,0.324,6.205,24.0
57.531,0.33,5.802,31.0
57.194,0.34,5.458,31.0
56.75,0.34,7.027,6.0
52.187,0.323,6.177,26.0
63.673,0.407,7.189,11.0
0.0,0.0,0.0,0.0
57.36,0.389,5.845,31.0
57.096,0.399,5.508,31.0
48.977,0.345,6.116,12.0
52.296,0.38,6.243,26.0
48.784,0.364,5.557,7.0
0.0,0.0,0.0,0.0
56.523,0.443,5.816,19.0
57.178,0.46,5.572,27.0
48.941,0.398,6.16,13.0
52.268,0.435,6.292,13.0
48.812,0.416,5.608,18.0
56.079,0.489,6.13,21.0
56.477,0.504,5.865,21.0
56.989,0.519,5.607,31.0
48.938,0.451,6.206,23.0
52.31,0.492,6.346,26.0
52.479,0.504,6.078,20.0
56.103,0.55,6.184,27.0
49.973,0.5,5.235,21.0
56.724,0.579,5.632,11.0
48.223,0.497,6.16,23.0
52.369,0.55,6.4,26.0
52.351,0.561,6.11,26.0
56.006,0.61,6.223,21.0
50.19,0.557,5.301,22.0
57.229,0.647,5.732,31.0
48.49,0.554,6.235,24.0
52.303,0.608,6.437,17.0
52.554,0.62,6.178,6.0
55.972,0.672,6.266,30.0
56.083,0.686,5.97,6.0
57.645,0.716,5.82,31.0
48.849,0.612,6.322,23.0
52.335,0.667,6.483,8.0
48.642,0.629,5.757,21.0
49.629,0.652,5.595,24.0
50.229,0.669,5.386,18.0
58.338,0.79,5.935,32.0
48.864,0.668,6.361,23.0
48.373,0.671,6.029,16.0
50.923,0.717,6.065,4.0
56.378,0.805,6.398,18.0
50.291,0.727,5.43,23.0
58.515,0.858,5.995,21.0
47.051,0.697,6.159,13.0
48.257,0.724,6.049,22.0
48.903,0.744,5.859,22.0
0.0,0.0,0.0,0.0
50.17,0.783,5.451,23.0
0.0,0.0,0.0,0.0
48.893,0.781,6.434,23.0
0.0,0.0,0.0,0.0
48.786,0.797,5.877,32.0
0.0,0.0,0.0,0.0
50.22,0.841,5.489,27.0
0.0,0.0,0.0,0.0
49.013,0.84,6.481,24.0
0.0,0.0,0.0,0.0
48.818,0.855,5.911,44.0
0.0,0.0,0.0,0.0
50.234,0.9,5.52,24.0
57.292,1.037,5.979,9.0
48.006,0.878,6.376,23.0
46.305,0.856,5.891,20.0
48.81,0.911,5.938,39.0
50.109,0.945,5.812,24.0
50.104,0.955,5.534,21.0
57.319,1.104,6.013,6.0
47.86,0.931,6.382,23.0
46.405,0.912,5.929,21.0
48.729,0.967,5.954,20.0
49.987,1.001,5.824,24.0
50.03,1.013,5.551,37.0
50.067,1.023,5.277,21.0
47.673,0.984,6.382,33.0
46.931,0.978,6.019,21.0
45.526,0.957,5.585,19.0
0.0,0.0,0.0,0.0
50.102,1.073,5.582,27.0
57.416,1.24,6.078,10.0
47.662,1.04,6.402,19.0
46.932,1.033,6.04,21.0
45.56,1.012,5.609,31.0
50.121,1.123,5.885,24.0
49.929,1.129,5.584,23.0
57.558,1.312,6.117,7.0
47.678,1.097,6.424,17.0
47.206,1.096,6.095,31.0
45.596,1.067,5.631,19.0
45.359,1.07,5.343,29.0
45.951,1.093,5.157,14.0
49.705,1.192,5.301,15.0
43.652,1.057,5.897,15.0
47.321,1.155,6.126,15.0
45.41,1.117,5.624,19.0
45.35,1.124,5.357,18.0
49.882,1.246,5.614,9.0
49.593,1.247,5.305,17.0
43.631,1.109,5.908,15.0
47.317,1.211,6.14,24.0
45.437,1.172,5.641,19.0
45.401,1.179,5.377,27.0
45.898,1.201,5.178,13.0
49.745,1.31,5.335,15.0
43.719,1.163,5.931,16.0
47.353,1.268,6.157,21.0
45.272,1.221,5.632,28.0
45.416,1.233,5.389,36.0
45.817,1.252,5.18,6.0
49.596,1.365,5.33,23.0
47.406,1.317,6.442,5.0
0.0,0.0,0.0,0.0
45.27,1.274,5.64,20.0
45.459,1.288,5.403,34.0
45.825,1.307,5.19,15.0
49.112,1.409,5.286,4.0
44.072,1.277,5.997,19.0
0.0,0.0,0.0,0.0
44.28,1.299,5.524,18.0
45.455,1.341,5.41,37.0
45.836,1.36,5.197,12.0
46.285,1.382,4.988,25.0
43.811,1.321,5.967,19.0
44.087,1.337,5.754,18.0
43.911,1.34,5.483,32.0
45.688,1.401,5.442,20.0
45.805,1.413,5.198,11.0
48.589,1.508,5.241,4.0
43.368,1.359,5.91,23.0
44.111,1.389,5.761,18.0
43.805,1.388,5.473,20.0
45.591,1.452,5.433,37.0
45.758,1.465,5.195,10.0
48.612,1.565,5.246,11.0
43.364,1.41,5.911,36.0
44.068,1.44,5.756,26.0
43.72,1.436,5.463,24.0
45.617,1.506,5.437,35.0
45.837,1.521,5.204,19.0
46.062,1.536,4.97,20.0
43.396,1.461,5.915,40.0
43.993,1.488,5.746,31.0
43.783,1.488,5.47,30.0
45.737,1.562,5.45,28.0
45.812,1.573,5.2,18.0
48.593,1.676,5.241,4.0
43.491,1.514,5.925,25.0
44.056,1.541,5.751,25.0
43.784,1.539,5.467,35.0
45.862,1.62,5.461,20.0
45.946,1.63,5.211,26.0
45.669,1.628,4.922,20.0
43.558,1.567,5.93,34.0
43.775,1.582,5.71,24.0
0.0,0.0,0.0,0.0
45.894,1.673,5.459,20.0
45.95,1.683,5.205,24.0
45.578,1.676,4.905,18.0
44.107,1.637,5.998,19.0
43.705,1.629,5.694,33.0
43.885,1.642,5.467,18.0
45.785,1.721,5.438,18.0
45.962,1.735,5.199,19.0
45.85,1.738,4.926,20.0
44.434,1.699,6.034,19.0
43.552,1.672,5.665,20.0
44.872,1.73,5.581,21.0
46.033,1.781,5.458,20.0
45.76,1.778,5.166,22.0
48.557,1.894,5.206,14.0
44.195,1.739,5.991,19.0
43.509,1.719,5.649,26.0
44.087,1.748,5.472,20.0
45.876,1.826,5.428,24.0
45.677,1.825,5.144,20.0
48.55,1.947,5.192,19.0
44.571,1.803,6.029,21.0
43.429,1.764,5.626,33.0
44.182,1.8,5.471,20.0
45.825,1.874,5.408,22.0
45.571,1.87,5.118,31.0
49.312,2.032,5.258,23.0
43.95,1.827,5.931,33.0
43.547,1.816,5.626,36.0
44.17,1.848,5.454,27.0
45.794,1.923,5.388,22.0
45.788,1.929,5.126,24.0
49.558,2.095,5.266,23.0
44.008,1.877,5.922,26.0
43.578,1.864,5.614,39.0
0.0,0.0,0.0,0.0
45.688,1.967,5.357,34.0
46.108,1.991,5.144,30.0
49.518,2.146,5.242,26.0
44.28,1.935,5.94,19.0
43.721,1.916,5.614,35.0
45.709,2.009,5.606,27.0
45.714,2.016,5.34,23.0
46.217,2.044,5.135,36.0
49.577,2.2,5.226,25.0
44.176,1.977,5.905,34.0
43.942,1.972,5.621,21.0
45.945,2.068,5.613,20.0
45.686,2.063,5.315,35.0
48.161,2.18,5.328,11.0
49.771,2.259,5.222,23.0
44.256,2.026,5.893,32.0
44.248,2.031,5.638,32.0
44.393,2.043,5.401,11.0
45.627,2.106,5.284,34.0
48.297,2.236,5.317,22.0
50.774,2.356,5.3,24.0
44.606,2.087,5.916,19.0
44.5,2.088,5.645,29.0
45.974,2.162,5.567,16.0
45.663,2.153,5.262,19.0
48.746,2.304,5.339,23.0
50.502,2.393,5.242,20.0
44.53,2.128,5.879,38.0
44.45,2.129,5.612,35.0
45.864,2.202,5.526,20.0
48.074,2.314,5.511,33.0
49.382,2.382,5.378,10.0
50.406,2.437,5.201,30.0
44.482,2.169,5.844,27.0
44.375,2.168,5.574,18.0
45.841,2.245,5.494,34.0
48.088,2.36,5.481,17.0
50.782,2.498,5.497,10.0
50.487,2.489,5.176,24.0
44.466,2.21,5.812,27.0
44.385,2.21,5.545,14.0
45.79,2.285,5.456,21.0
49.542,2.478,5.613,9.0
50.529,2.532,5.435,8.0
53.905,2.708,5.489,7.0
44.479,2.252,5.782,35.0
45.94,2.33,5.706,15.0
45.964,2.336,5.444,29.0
47.465,2.416,5.343,21.0
0.0,0.0,0.0,0.0
53.815,2.751,5.44,6.0
44.466,2.29,5.747,40.0
0.0,0.0,0.0,0.0
45.872,2.372,5.398,8.0
47.577,2.464,5.319,22.0
49.156,2.551,5.213,22.0
49.886,2.594,5.004,25.0
44.548,2.334,5.722,38.0
46.652,2.448,5.722,22.0
43.61,2.292,5.096,20.0
50.609,2.665,5.617,10.0
48.921,2.58,5.148,22.0
49.816,2.632,4.957,23.0
44.558,2.372,5.685,36.0
0.0,0.0,0.0,0.0
43.697,2.333,5.069,16.0
47.602,2.546,5.243,21.0
49.088,2.63,5.124,22.0
50.006,2.683,4.933,18.0
44.598,2.411,5.652,42.0
45.883,2.484,5.548,6.0
47.458,2.573,5.464,8.0
47.62,2.585,5.203,21.0
49.06,2.667,5.078,15.0
49.806,2.713,4.868,23.0
0.0,0.0,0.0,0.0
43.774,2.404,5.253,27.0
47.762,2.627,5.455,15.0
47.962,2.641,5.196,20.0
45.097,2.487,4.626,16.0
49.796,2.75,4.821,23.0
43.145,2.399,5.387,18.0
43.684,2.432,5.201,33.0
48.141,2.684,5.452,22.0
48.27,2.694,5.183,23.0
45.119,2.521,4.585,27.0
56.895,3.184,5.454,7.0
43.428,2.447,5.38,19.0
43.661,2.463,5.155,18.0
47.976,2.709,5.387,22.0
53.195,3.007,5.66,12.0
45.187,2.557,4.547,15.0
49.814,2.823,4.726,20.0
43.683,2.492,5.367,24.0
43.399,2.478,5.08,32.0
45.849,2.621,5.101,16.0
45.112,2.581,4.754,13.0
49.015,2.808,4.882,22.0
57.277,3.285,5.375,10.0
43.111,2.488,5.251,19.0
43.624,2.52,5.06,29.0
45.632,2.639,5.028,20.0
45.179,2.615,4.712,16.0
48.838,2.83,4.812,22.0
57.377,3.327,5.323,17.0
42.705,2.493,5.155,34.0
43.775,2.557,5.03,18.0
45.212,2.643,4.933,25.0
48.619,2.844,5.018,6.0
57.311,3.356,5.584,16.0
57.383,3.364,5.26,12.0
43.154,2.545,5.161,19.0
43.775,2.583,4.981,16.0
45.211,2.67,4.882,33.0
48.619,2.874,4.963,22.0
57.484,3.4,5.536,31.0
57.736,3.418,5.227,21.0
42.817,2.55,5.072,21.0
45.266,2.697,5.099,19.0
45.11,2.69,4.819,30.0
48.809,2.913,4.926,23.0
57.716,3.446,5.491,22.0
57.788,3.453,5.164,38.0
42.58,2.56,4.992,40.0
45.142,2.715,5.03,19.0
48.211,2.901,5.092,7.0
48.819,2.939,4.868,22.0
57.703,3.476,5.42,9.0
57.774,3.483,5.093,21.0
42.68,2.588,4.952,28.0
45.123,2.736,4.973,22.0
48.771,2.96,5.091,23.0
65.08,3.951,6.41,5.0
57.484,3.492,5.329,21.0
57.876,3.517,5.031,26.0
45.157,2.76,5.183,11.0
45.104,2.757,4.914,19.0
49.22,3.01,5.076,23.0
54.97,3.362,5.345,4.0
57.484,3.518,5.257,22.0
57.946,3.548,4.964,29.0
45.121,2.777,5.121,26.0
45.164,2.78,4.863,15.0
49.341,3.038,5.026,22.0
63.254,3.896,6.07,11.0
57.571,3.548,5.191,19.0
58.036,3.577,4.897,28.0
45.126,2.796,5.062,32.0
49.251,3.052,5.238,23.0
51.988,3.222,5.227,5.0
52.284,3.241,4.948,11.0
0.0,0.0,0.0,0.0
58.077,3.602,4.825,29.0
45.111,2.812,5.0,28.0
49.296,3.073,5.177,23.0
51.962,3.239,5.155,15.0
52.256,3.258,4.876,15.0
59.591,3.716,5.215,7.0
58.136,3.625,4.751,25.0
45.172,2.831,4.946,16.0
49.272,3.088,5.108,32.0
51.91,3.252,5.079,19.0
52.203,3.271,4.8,14.0
80.912,5.07,6.971,11.0
58.171,3.645,4.676,22.0
49.321,3.105,5.332,6.0
49.267,3.101,5.039,19.0
52.02,3.274,5.018,10.0
52.253,3.289,4.732,20.0
58.088,3.656,4.925,12.0
58.185,3.662,4.597,20.0
48.613,3.073,5.188,17.0
51.867,3.278,5.232,7.0
59.858,3.782,5.691,9.0
0.0,0.0,0.0,0.0
80.96,5.115,6.749,13.0
58.243,3.679,4.518,25.0
48.835,3.098,5.141,23.0
51.844,3.288,5.156,14.0
52.264,3.313,4.894,18.0
57.752,3.66,5.067,7.0
81.059,5.137,6.641,12.0
58.242,3.69,4.435,32.0
49.248,3.133,5.112,28.0
51.892,3.3,5.084,15.0
52.258,3.322,4.816,19.0
80.827,5.137,6.972,11.0
57.993,3.685,4.666,18.0
58.25,3.7,4.35,24.0
49.232,3.139,5.038,14.0
52.048,3.317,5.023,18.0
59.607,3.797,5.405,8.0
58.061,3.697,4.923,6.0
58.087,3.698,4.588,11.0
58.3,3.709,4.268,19.0
51.72,3.303,5.215,19.0
59.865,3.821,5.688,10.0
0.0,0.0,0.0,0.0
80.907,5.159,6.738,8.0
58.251,3.712,4.514,20.0
58.373,3.719,4.186,21.0
51.673,3.303,5.132,26.0
52.268,3.339,4.887,22.0
0.0,0.0,0.0,0.0
57.951,3.697,4.739,12.0
58.241,3.714,4.425,26.0
58.452,3.725,4.103,17.0
51.873,3.317,5.072,21.0
59.65,3.812,5.485,12.0
80.783,5.158,6.959,13.0
57.981,3.699,4.652,20.0
58.267,3.716,4.337,24.0
80.681,5.142,5.54,14.0
52.046,3.327,5.008,14.0
59.586,3.806,5.387,16.0
58.041,3.704,4.911,5.0
58.167,3.709,4.577,10.0
58.339,3.718,4.253,24.0
80.629,5.135,5.412,28.0
59.848,3.822,5.666,7.0
0.0,0.0,0.0,0.0
80.956,5.161,6.723,9.0
58.233,3.709,4.492,27.0
58.383,3.716,4.166,22.0
80.632,5.128,5.288,24.0
52.253,3.332,4.865,18.0
80.726,5.142,7.047,12.0
57.967,3.689,4.723,14.0
58.244,3.703,4.402,32.0
58.477,3.715,4.08,21.0
80.827,5.13,5.173,9.0
52.227,3.323,4.78,10.0
58.044,3.689,4.974,6.0
58.048,3.685,4.637,19.0
58.262,3.695,4.311,29.0
58.549,3.71,3.992,14.0
58.687,3.715,3.663,9.0
0.0,0.0,0.0,0.0
58.07,3.68,4.883,6.0
58.21,3.684,4.557,24.0
58.294,3.685,4.219,24.0
58.573,3.699,3.9,15.0
58.641,3.7,3.565,10.0
57.76,3.651,5.1,8.0
81.014,5.115,6.682,19.0
58.222,3.671,4.463,34.0
58.364,3.676,4.129,29.0
58.569,3.684,3.805,22.0
58.608,3.683,3.469,20.0
80.881,5.091,7.01,16.0
58.172,3.657,4.703,13.0
58.225,3.655,4.369,49.0
58.428,3.663,4.04,30.0
58.575,3.668,3.711,27.0
58.622,3.667,3.375,26.0
58.075,3.638,4.938,15.0
58.181,3.639,4.609,34.0
58.241,3.638,4.275,40.0
58.469,3.647,3.947,28.0
58.559,3.647,3.614,29.0
58.631,3.647,3.279,38.0
58.098,3.618,4.844,22.0
58.184,3.618,4.513,49.0
58.273,3.618,4.181,31.0
58.495,3.626,3.853,29.0
58.562,3.626,3.518,53.0
58.636,3.625,3.184,45.0
58.116,3.597,4.75,42.0
58.206,3.597,4.419,40.0
58.342,3.599,4.091,31.0
58.493,3.603,3.757,41.0
58.561,3.602,3.422,62.0
58.643,3.601,3.088,53.0
58.159,3.574,4.657,53.0
58.225,3.572,4.324,31.0
58.377,3.575,3.997,34.0
58.521,3.578,3.662,40.0
58.578,3.576,3.327,57.0
58.641,3.574,2.991,57.0
58.207,3.55,4.565,21.0
58.264,3.547,4.23,44.0
58.425,3.55,3.903,35.0
58.542,3.551,3.567,43.0
58.601,3.548,3.232,55.0
58.653,3.545,2.895,45.0
58.258,3.523,4.472,14.0
58.318,3.52,4.138,56.0
58.451,3.521,3.809,48.0
58.556,3.521,3.471,61.0
58.617,3.518,3.135,47.0
58.676,3.515,2.798,6.0
58.265,3.49,4.374,19.0
58.365,3.49,4.044,42.0
58.497,3.49,3.713,34.0
58.563,3.487,3.372,53.0
58.648,3.485,3.038,49.0
0.0,0.0,0.0,0.0
58.266,3.455,4.276,25.0
58.426,3.457,3.949,32.0
58.524,3.455,3.617,22.0
58.589,3.452,3.275,29.0
58.674,3.45,2.941,25.0
0.0,0.0,0.0,0.0
58.304,3.42,4.182,24.0
58.469,3.422,3.855,32.0
58.578,3.42,3.522,25.0
58.655,3.418,3.182,27.0
58.713,3.413,2.846,2.0
0.0,0.0,0.0,0.0
58.393,3.386,4.09,29.0
58.539,3.386,3.761,25.0
58.644,3.383,3.428,28.0
80.889,4.657,4.253,18.0
0.0,0.0,0.0,0.0
0.0,0.0,0.0,0.0
58.481,3.348,4.0,24.0
80.773,4.613,5.056,8.0
80.665,4.596,4.582,31.0
80.955,4.601,4.123,38.0
0.0,0.0,0.0,0.0
48.173,2.725,1.898,0.0
80.426,4.544,5.366,28.0
80.727,4.548,4.919,27.0
80.66,4.533,4.449,32.0
80.937,4.537,3.988,15.0
0.0,0.0,0.0,0.0
47.888,2.67,1.806,1.0
80.415,4.477,5.231,29.0
80.441,4.467,4.767,29.0
80.858,4.477,4.324,36.0
0.0,0.0,0.0,0.0
0.0,0.0,0.0,0.0
47.528,2.61,1.714,5.0
80.337,4.404,5.091,19.0
80.537,4.403,4.638,35.0
81.123,4.422,4.204,33.0
0.0,0.0,0.0,0.0
0.0,0.0,0.0,0.0
47.519,2.568,1.635,25.0
80.643,4.35,4.978,14.0
80.598,4.335,4.509,34.0
81.031,4.345,4.066,20.0
0.0,0.0,0.0,0.0
48.119,2.565,1.854,1.0
47.511,2.525,1.557,52.0
80.763,4.282,4.853,32.0
80.837,4.271,4.389,41.0
80.981,4.266,3.929,4.0
0.0,0.0,0.0,0.0
47.599,2.491,1.755,4.0
47.33,2.469,1.473,10.0
80.899,4.21,4.726,34.0
81.275,4.215,4.279,23.0
0.0,0.0,0.0,0.0
0.0,0.0,0.0,0.0
47.591,2.444,1.677,150.0
47.363,2.424,1.397,15.0
81.112,4.139,4.606,31.0
81.064,4.122,4.135,34.0
0.0,0.0,0.0,0.0
48.293,2.438,1.901,1.0
47.598,2.395,1.599,152.0
47.401,2.377,1.32,14.0
81.385,4.068,4.489,28.0
80.907,4.029,3.995,13.0
0.0,0.0,0.0,0.0
47.777,2.361,1.804,4.0
47.431,2.335,1.517,8.0
47.387,2.324,1.243,16.0
80.97,3.958,4.334,33.0
0.0,0.0,0.0,0.0
0.0,0.0,0.0,0.0
47.692,2.304,1.723,157.0
47.371,2.28,1.439,1.0
47.409,2.273,1.167,15.0
80.876,3.862,4.198,32.0
0.0,0.0,0.0,0.0
0.0,0.0,0.0,0.0
47.652,2.247,1.645,29.0
47.457,2.229,1.365,7.0
47.439,2.219,1.092,9.0
80.929,3.77,4.071,25.0
48.927,2.269,2.179,0.0
48.108,2.221,1.865,1.0
47.539,2.186,1.565,12.0
47.479,2.174,1.291,15.0
0.0,0.0,0.0,0.0
81.011,3.675,3.947,7.0
48.715,2.2,2.093,8.0
47.991,2.158,1.786,2.0
47.618,2.131,1.493,4.0
47.732,2.127,1.223,0.0
47.706,2.116,0.948,1.0
0.0,0.0,0.0,0.0
48.89,2.148,2.024,0.0
47.966,2.097,1.71,2.0
48.07,2.091,1.433,1.0
48.057,2.081,1.156,0.0
47.888,2.063,0.877,1.0
0.0,0.0,0.0,0.0
48.704,2.077,1.941,4.0
48.17,2.043,1.642,2.0
48.382,2.042,1.367,13.0
48.596,2.041,1.094,0.0
0.0,0.0,0.0,0.0
0.0,0.0,0.0,0.0
48.809,2.017,1.87,2.0
48.571,1.996,1.582,3.0
48.64,1.988,1.3,2.0
49.182,2.0,1.032,0.0
0.0,0.0,0.0,0.0
48.706,1.958,2.072,1.0
49.088,1.963,1.807,1.0
48.92,1.945,1.52,2.0
49.043,1.938,1.237,2.0
0.0,0.0,0.0,0.0
38.304,1.497,0.527,0.0
50.093,1.945,2.057,1.0
49.432,1.907,1.745,3.0
49.418,1.896,1.462,2.0
49.481,1.887,1.175,0.0
47.228,1.79,0.85,0.0
0.0,0.0,0.0,0.0
50.316,1.882,1.992,2.0
49.81,1.852,1.686,2.0
49.906,1.844,1.403,2.0
50.243,1.844,1.12,0.0
47.31,1.725,0.783,1.0
34.377,1.246,0.372,0.0
50.472,1.815,1.924,3.0
50.19,1.793,1.625,2.0
50.346,1.786,1.342,2.0
50.501,1.78,1.052,0.0
0.0,0.0,0.0,0.0
33.737,1.173,0.316,1.0
50.71,1.749,1.86,2.0
50.722,1.737,1.57,0.0
0.0,0.0,0.0,0.0
50.458,1.702,0.979,0.0
0.0,0.0,0.0,0.0
32.282,1.073,0.256,0.0
51.167,1.686,1.804,1.0
54.092,1.769,1.597,143.0
0.0,0.0,0.0,0.0
47.431,1.528,0.853,0.0
36.525,1.167,0.448,0.0
29.016,0.92,0.19,0.0
54.152,1.701,1.833,0.0
54.149,1.687,1.524,6.0
54.581,1.686,1.223,0.0
0.0,0.0,0.0,0.0
34.867,1.06,0.379,1.0
28.988,0.874,0.15,4.0
54.073,1.614,1.757,1.0
54.166,1.603,1.45,12.0
55.897,1.639,1.177,4.0
0.0,0.0,0.0,0.0
33.497,0.965,0.319,0.0
28.906,0.825,0.11,5.0
54.122,1.528,1.686,1.0
54.067,1.513,1.375,2.0
56.407,1.563,1.112,2.0
0.0,0.0,0.0,0.0
32.182,0.875,0.264,0.0
28.687,0.772,0.072,1.0
54.114,1.44,1.614,3.0
54.23,1.428,1.308,1.0
47.673,1.243,0.878,0.0
36.332,0.938,0.458,0.0
31.305,0.799,0.216,0.0
27.186,0.687,0.032,0.0
54.065,1.349,1.542,0.0
57.738,1.425,1.318,2.0
47.469,1.158,0.812,1.0
35.371,0.853,0.4,0.0
28.981,0.691,0.162,0.0
26.658,0.628,-0.002,0.0
54.291,1.261,1.479,0.0
57.936,1.33,1.248,4.0
42.101,0.955,0.667,0.0
33.772,0.757,0.339,0.0
28.83,0.638,0.125,1.0
25.852,0.565,-0.034,0.0
0.0,0.0,0.0,0.0
0.0,0.0,0.0,0.0
38.129,0.8,0.557,0.0
32.91,0.681,0.29,1.0
28.639,0.584,0.089,1.0
25.352,0.51,-0.064,0.0
0.0,0.0,0.0,0.0
0.0,0.0,0.0,0.0
36.833,0.708,0.494,0.0
31.703,0.6,0.241,0.0
27.613,0.515,0.053,0.0
24.765,0.454,-0.092,0.0
54.736,0.986,1.292,0.0
0.0,0.0,0.0,0.0
35.676,0.622,0.436,0.0
30.616,0.524,0.197,0.0
27.112,0.457,0.02,0.0
24.016,0.397,-0.118,0.0
58.795,0.954,1.319,1.0
0.0,0.0,0.0,0.0
34.437,0.538,0.381,0.0
28.892,0.443,0.153,3.0
26.482,0.398,-0.01,0.0
23.548,0.346,-0.142,0.0
0.0,0.0,0.0,0.0
40.582,0.572,0.634,0.0
33.297,0.459,0.331,0.0
28.826,0.389,0.12,6.0
25.918,0.342,-0.038,0.0
22.94,0.296,-0.164,0.0
0.0,0.0,0.0,0.0
0.0,0.0,0.0,0.0
32.948,0.394,0.292,0.0
28.775,0.335,0.089,5.0
25.305,0.287,-0.065,0.0
22.095,0.244,-0.182,1.0
0.0,0.0,0.0,0.0
37.631,0.391,0.507,0.0
31.782,0.32,0.248,0.0
28.323,0.276,0.057,1.0
24.791,0.234,-0.089,0.0
21.863,0.2,-0.203,4.0
0.0,0.0,0.0,0.0
36.093,0.307,0.449,0.0
30.683,0.251,0.208,0.0
27.282,0.215,0.027,0.0
24.202,0.183,-0.112,0.0
21.062,0.152,-0.216,1.0
43.532,0.301,0.744,1.0
0.0,0.0,0.0,0.0
29.054,0.182,0.168,0.0
26.762,0.159,0.0,0.0
23.55,0.133,-0.132,0.0
20.628,0.11,-0.232,0.0
0.0,0.0,0.0,0.0
33.875,0.158,0.355,0.0
28.806,0.125,0.139,0.0
26.152,0.105,-0.024,0.0
23.177,0.086,-0.152,1.0
19.977,0.068,-0.244,0.0
0.0,0.0,0.0,0.0
0.0,0.0,0.0,0.0
28.769,0.069,0.112,2.0
25.714,0.054,-0.047,0.0
22.856,0.04,-0.171,0.0
19.548,0.028,-0.256,0.0
37.703,0.042,0.539,0.0
32.993,0.025,0.285,0.0
28.595,0.013,0.086,1.0
25.289,0.003,-0.069,0.0
21.845,-0.004,-0.183,0.0
19.14,-0.009,-0.268,0.0
36.809,-0.031,0.494,0.0
31.543,-0.037,0.246,0.0
28.312,-0.042,0.061,1.0
24.907,-0.045,-0.089,0.0
21.639,-0.046,-0.199,0.0
18.705,-0.046,-0.278,0.0
36.418,-0.102,0.459,0.0
31.326,-0.098,0.218,0.0
27.558,-0.096,0.036,0.0
24.3,-0.092,-0.106,0.0
21.437,-0.089,-0.215,0.0
18.415,-0.082,-0.288,0.0
34.694,-0.167,0.409,0.0
29.21,-0.15,0.18,1.0
27.211,-0.149,0.014,0.0
23.949,-0.139,-0.124,0.0
20.648,-0.127,-0.223,0.0
18.121,-0.117,-0.297,0.0
34.188,-0.233,0.377,0.0
28.853,-0.206,0.156,3.0
26.497,-0.198,-0.005,0.0
23.519,-0.184,-0.139,0.0
20.08,-0.163,-0.231,0.0
17.803,-0.151,-0.305,0.0
33.118,-0.292,0.342,0.0
28.793,-0.263,0.135,4.0
0.0,0.0,0.0,0.0
22.941,-0.225,-0.152,0.0
19.826,-0.201,-0.242,0.0
17.563,-0.185,-0.313,0.0
32.76,-0.355,0.315,1.0
28.669,-0.32,0.115,1.0
25.796,-0.297,-0.04,0.0
22.928,-0.272,-0.167,1.0
19.558,-0.239,-0.252,0.0
17.389,-0.218,-0.322,0.0
32.567,-0.419,0.292,1.0
28.581,-0.378,0.096,1.0
25.375,-0.344,-0.056,0.0
22.394,-0.311,-0.177,0.0
19.283,-0.275,-0.261,0.0
17.193,-0.251,-0.329,0.0
32.239,-0.48,0.269,1.0
28.364,-0.433,0.078,1.0
25.109,-0.392,-0.071,0.0
22.173,-0.354,-0.189,0.0
19.139,-0.312,-0.27,0.0
16.997,-0.283,-0.335,0.0
31.43,-0.533,0.244,0.0
27.911,-0.483,0.061,0.0
24.719,-0.437,-0.084,0.0
21.945,-0.395,-0.199,0.0
18.79,-0.345,-0.276,0.0
16.825,-0.315,-0.341,0.0
31.062,-0.591,0.225,0.0
27.856,-0.539,0.046,0.0
24.608,-0.485,-0.096,1.0
21.629,-0.434,-0.208,0.0
18.374,-0.375,-0.279,0.0
16.697,-0.347,-0.347,0.0
30.84,-0.649,0.208,0.0
27.449,-0.588,0.031,0.0
24.016,-0.523,-0.106,0.0
21.207,-0.469,-0.214,0.0
18.351,-0.413,-0.288,0.0
16.648,-0.38,-0.354,0.0
28.779,-0.666,0.18,0.0
27.207,-0.639,0.019,0.0
23.942,-0.571,-0.116,0.0
20.705,-0.501,-0.218,0.0
18.224,-0.447,-0.294,0.0
16.508,-0.411,-0.358,0.0
28.752,-0.724,0.168,1.0
26.74,-0.683,0.007,0.0
23.457,-0.608,-0.124,0.0
20.885,-0.549,-0.229,0.0
18.094,-0.482,-0.299,0.0
16.436,-0.444,-0.363,0.0
28.845,-0.787,0.157,0.0
26.558,-0.734,-0.003,0.0
23.414,-0.655,-0.133,0.0
20.811,-0.59,-0.236,0.0
17.979,-0.516,-0.304,0.0
16.377,-0.476,-0.368,0.0
28.727,-0.842,0.146,0.0
26.471,-0.786,-0.012,0.0
23.365,-0.702,-0.14,0.0
20.417,-0.621,-0.238,0.0
17.838,-0.549,-0.307,0.0
16.291,-0.507,-0.371,0.0
28.66,-0.9,0.137,0.0
26.626,-0.846,-0.02,0.0
23.424,-0.752,-0.148,0.0
20.054,-0.651,-0.24,0.0
17.759,-0.583,-0.311,0.0
16.137,-0.536,-0.372,0.0
28.618,-0.957,0.129,1.0
26.175,-0.885,-0.027,0.0
22.917,-0.783,-0.151,0.0
19.787,-0.683,-0.242,0.0
17.698,-0.618,-0.315,0.0
16.076,-0.567,-0.375,0.0
28.625,-1.017,0.122,4.0
26.105,-0.937,-0.033,0.0
22.894,-0.83,-0.156,0.0
19.625,-0.719,-0.244,0.0
17.582,-0.65,-0.316,0.0
16.102,-0.602,-0.379,0.0
28.636,-1.077,0.116,7.0
0.0,0.0,0.0,0.0
22.971,-0.881,-0.161,1.0
19.593,-0.758,-0.248,0.0
17.455,-0.682,-0.317,0.0
15.998,-0.631,-0.379,0.0
28.632,-1.136,0.111,9.0
25.819,-1.034,-0.042,1.0
22.875,-0.924,-0.163,1.0
19.445,-0.793,-0.249,0.0
17.452,-0.718,-0.32,0.0
15.985,-0.664,-0.381,0.0
28.604,-1.194,0.108,6.0
25.87,-1.089,-0.045,2.0
22.651,-0.962,-0.165,1.0
19.423,-0.832,-0.25,0.0
17.467,-0.755,-0.322,0.0
15.962,-0.696,-0.382,0.0
28.58,-1.252,0.105,6.0
25.855,-1.142,-0.047,3.0
22.753,-1.013,-0.167,2.0
19.378,-0.87,-0.251,0.0
17.4,-0.788,-0.322,0.0
15.929,-0.727,-0.382,0.0
28.526,-1.308,0.103,2.0
26.053,-1.204,-0.048,0.0
22.845,-1.064,-0.169,1.0
19.45,-0.913,-0.253,0.0
17.466,-0.826,-0.323,0.0
15.95,-0.761,-0.383,0.0
28.545,-1.367,0.103,6.0
25.74,-1.242,-0.048,0.0
22.764,-1.107,-0.168,1.0
19.432,-0.952,-0.252,0.0
17.464,-0.862,-0.323,0.0
15.867,-0.789,-0.381,0.0
28.474,-1.422,0.104,2.0
25.673,-1.291,-0.047,0.0
22.745,-1.152,-0.167,0.0
19.466,-0.994,-0.252,0.0
17.437,-0.896,-0.322,0.0
15.895,-0.823,-0.381,0.0
28.467,-1.479,0.105,1.0
25.605,-1.34,-0.045,0.0
22.788,-1.2,-0.166,1.0
19.441,-1.031,-0.25,0.0
17.487,-0.934,-0.321,0.0
15.985,-0.86,-0.381,0.0
28.56,-1.54,0.109,8.0
34.262,-1.86,-0.057,5.0
34.235,-1.872,-0.245,2.0
34.246,-1.885,-0.437,1.0
17.532,-0.971,-0.32,0.0
15.884,-0.886,-0.377,0.0
28.569,-1.597,0.113,7.0
34.218,-1.925,-0.052,1.0
23.195,-1.314,-0.162,0.0
19.745,-1.125,-0.248,0.0
17.585,-1.009,-0.318,0.0
15.97,-0.922,-0.376,0.0
28.575,-1.654,0.118,7.0
25.923,-1.51,-0.035,0.0
23.053,-1.351,-0.157,0.0
19.749,-1.164,-0.245,0.0
17.626,-1.046,-0.315,0.0
16.052,-0.958,-0.375,0.0
28.552,-1.708,0.124,5.0
25.925,-1.561,-0.029,0.0
23.233,-1.407,-0.153,0.0
19.834,-1.208,-0.241,0.0
17.741,-1.087,-0.313,0.0
16.067,-0.99,-0.372,0.0
28.58,-1.765,0.131,1.0
26.086,-1.62,-0.023,0.0
23.296,-1.455,-0.148,0.0
19.911,-1.251,-0.237,0.0
17.843,-1.128,-0.31,0.0
16.191,-1.029,-0.37,0.0
28.564,-1.819,0.139,0.0
26.334,-1.686,-0.015,0.0
23.455,-1.51,-0.142,0.0
20.225,-1.31,-0.235,0.0
17.991,-1.172,-0.307,0.0
16.247,-1.064,-0.366,0.0
30.086,-1.974,0.156,0.0
26.516,-1.749,-0.007,0.0
23.684,-1.571,-0.135,0.0
20.383,-1.359,-0.23,0.0
17.968,-1.205,-0.3,0.0
16.404,-1.106,-0.364,0.0
30.201,-2.039,0.167,0.0
26.45,-1.795,0.002,0.0
23.795,-1.623,-0.127,0.0
20.536,-1.408,-0.224,0.0
18.199,-1.254,-0.297,0.0
16.581,-1.149,-0.361,0.0
30.368,-2.107,0.18,0.0
33.922,-2.366,0.016,1.0
33.884,-2.375,-0.167,2.0
33.943,-2.391,-0.356,0.0
18.431,-1.305,-0.294,0.0
16.743,-1.191,-0.358,0.0
30.57,-2.177,0.194,0.0
33.918,-2.428,0.031,4.0
33.896,-2.437,-0.153,8.0
33.884,-2.449,-0.341,1.0
18.631,-1.353,-0.289,0.0
16.81,-1.227,-0.352,0.0
31.164,-2.277,0.212,0.0
33.896,-2.488,0.047,4.0
33.893,-2.5,-0.137,22.0
33.887,-2.511,-0.324,4.0
18.67,-1.39,-0.28,0.0
16.933,-1.266,-0.346,0.0
31.468,-2.356,0.23,0.0
33.885,-2.549,0.063,2.0
33.871,-2.559,-0.12,10.0
33.839,-2.568,-0.307,2.0
18.929,-1.443,-0.274,0.0
17.114,-1.31,-0.341,0.0
31.821,-2.439,0.249,0.0
33.886,-2.609,0.082,2.0
33.857,-2.618,-0.101,4.0
33.846,-2.628,-0.288,2.0
19.347,-1.509,-0.27,0.0
17.227,-1.35,-0.334,0.0
32.104,-2.518,0.269,0.0
33.907,-2.67,0.101,1.0
33.874,-2.678,-0.082,1.0
33.862,-2.689,-0.269,3.0
19.705,-1.571,-0.263,0.0
17.495,-1.401,-0.329,0.0
32.584,-2.611,0.293,0.0
33.911,-2.728,0.121,0.0
33.885,-2.737,-0.062,0.0
33.854,-2.745,-0.249,5.0
19.858,-1.617,-0.253,0.0
17.675,-1.445,-0.321,0.0
33.547,-2.745,0.322,0.0
33.844,-2.78,0.142,0.0
33.874,-2.793,-0.041,0.0
33.835,-2.801,-0.227,4.0
33.895,-2.817,-0.411,0.0
17.804,-1.485,-0.312,0.0
0.0,0.0,0.0,0.0
29.858,-2.502,0.144,0.0
33.826,-2.845,-0.018,0.0
23.327,-1.969,-0.141,1.0
20.801,-1.763,-0.238,1.0
18.034,-1.534,-0.304,0.0
35.575,-3.029,0.389,0.0
30.481,-2.605,0.168,0.0
26.892,-2.306,0.003,0.0
23.477,-2.02,-0.126,0.0
20.908,-1.806,-0.225,1.0
18.471,-1.601,-0.298,0.0
35.815,-3.106,0.417,0.0
30.878,-2.687,0.193,0.0
27.531,-2.404,0.023,0.0
24.278,-2.128,-0.113,0.0
21.305,-1.874,-0.214,1.0
18.649,-1.646,-0.288,0.0
0.0,0.0,0.0,0.0
31.43,-2.785,0.219,0.0
27.929,-2.483,0.044,0.0
24.916,-2.223,-0.097,0.0
21.801,-1.952,-0.202,1.0
19.121,-1.717,-0.28,0.0
34.472,-3.098,0.453,0.0
31.86,-2.872,0.247,0.0
28.665,-2.593,0.068,0.0
25.232,-2.29,-0.078,0.0
22.362,-2.036,-0.19,1.0
19.375,-1.77,-0.269,0.0
34.358,-3.14,0.479,2.0
32.58,-2.986,0.278,0.0
29.054,-2.671,0.092,0.0
25.599,-2.361,-0.059,0.0
22.707,-2.101,-0.175,1.0
19.753,-1.833,-0.258,0.0
34.438,-3.198,0.508,4.0
33.64,-3.133,0.315,0.0
29.489,-2.755,0.117,0.0
25.931,-2.43,-0.038,0.0
23.12,-2.173,-0.158,1.0
20.086,-1.894,-0.246,0.0
34.306,-3.236,0.535,1.0
34.059,-3.222,0.348,0.0
30.131,-2.858,0.146,0.0
26.521,-2.523,-0.016,0.0
23.432,-2.236,-0.14,1.0
20.716,-1.983,-0.235,0.0
33.858,-3.241,0.558,0.0
36.204,-3.476,0.402,0.0
30.795,-2.965,0.176,1.0
27.589,-2.663,0.007,0.0
23.636,-2.288,-0.12,0.0
21.228,-2.061,-0.222,0.0
33.922,-3.294,0.589,0.0
37.339,-3.636,0.448,0.0
31.121,-3.038,0.206,0.0
28.097,-2.75,0.032,0.0
33.977,-3.335,-0.142,0.0
21.898,-2.155,-0.209,0.0
33.911,-3.339,0.62,0.0
34.491,-3.405,0.446,2.0
32.014,-3.168,0.242,0.0
28.852,-2.862,0.06,0.0
33.994,-3.382,-0.111,1.0
22.465,-2.241,-0.193,0.0
33.976,-3.389,0.653,0.0
34.433,-3.444,0.478,0.0
32.575,-3.266,0.277,0.0
28.699,-2.884,0.087,2.0
34.032,-3.429,-0.078,0.0
22.712,-2.294,-0.174,0.0
34.039,-3.439,0.688,0.0
34.3,-3.474,0.509,1.0
33.622,-3.413,0.319,0.0
29.469,-2.999,0.118,1.0
34.003,-3.469,-0.045,0.0
23.213,-2.374,-0.155,0.0
33.98,-3.475,0.72,1.0
34.222,-3.508,0.542,1.0
34.467,-3.541,0.361,0.0
30.417,-3.132,0.153,8.0
27.523,-2.841,-0.008,1.0
23.634,-2.445,-0.134,0.0
34.072,-3.526,0.756,0.0
34.295,-3.556,0.577,1.0
34.393,-3.574,0.395,0.0
30.957,-3.224,0.186,3.0
27.949,-2.917,0.019,0.0
24.504,-2.563,-0.114,0.0
34.196,-3.578,0.794,0.0
34.348,-3.601,0.614,1.0
34.492,-3.624,0.431,0.0
31.65,-3.332,0.223,1.0
28.2,-2.975,0.048,4.0
25.366,-2.682,-0.091,0.0
34.784,-3.679,0.844,0.0
35.047,-3.714,0.663,2.0
37.244,-3.954,0.505,0.0
28.271,-3.007,0.229,1.0
27.663,-2.948,0.076,4.0
26.088,-2.786,-0.066,1.0
35.532,-3.796,0.9,1.0
36.531,-3.91,0.73,4.0
37.381,-4.008,0.547,0.0
29.424,-3.161,0.27,1.0
27.451,-2.954,0.105,4.0
26.641,-2.873,-0.039,5.0
36.263,-3.911,0.957,0.0
36.834,-3.98,0.775,1.0
37.33,-4.041,0.586,0.0
29.946,-3.247,0.307,6.0
27.307,-2.966,0.134,3.0
23.633,-2.572,-0.009,98.0
36.977,-4.025,1.016,0.0
37.256,-4.062,0.825,1.0
37.441,-4.089,0.629,0.0
29.588,-3.237,0.336,1.0
27.44,-3.007,0.165,7.0
23.594,-2.59,0.016,161.0
37.844,-4.156,1.082,1.0
37.952,-4.174,0.883,0.0
0.0,0.0,0.0,0.0
29.404,-3.244,0.367,0.0
27.843,-3.077,0.198,6.0
23.596,-2.612,0.042,171.0
0.0,0.0,0.0,0.0
0.0,0.0,0.0,0.0
0.0,0.0,0.0,0.0
31.739,-3.53,0.432,1.0
27.88,-3.106,0.231,2.0
23.625,-2.636,0.069,152.0
0.0,0.0,0.0,0.0
0.0,0.0,0.0,0.0
0.0,0.0,0.0,0.0
0.0,0.0,0.0,0.0
29.247,-3.282,0.275,4.0
23.633,-2.656,0.096,7.0
0.0,0.0,0.0,0.0
0.0,0.0,0.0,0.0
0.0,0.0,0.0,0.0
0.0,0.0,0.0,0.0
0.0,0.0,0.0,0.0
26.976,-3.053,0.141,6.0
0.0,0.0,0.0,0.0
0.0,0.0,0.0,0.0
0.0,0.0,0.0,0.0
0.0,0.0,0.0,0.0
31.637,-3.599,0.371,3.0
27.246,-3.103,0.174,3.0
22.29,-2.54,0.765,1.0
98.597,-11.248,2.861,7.0
22.458,-2.564,0.531,0.0
22.499,-2.572,0.41,0.0
22.154,-2.536,0.285,3.0
22.189,-2.543,0.168,1.0
22.29,-2.555,0.792,9.0
22.417,-2.572,0.676,0.0
22.441,-2.578,0.557,1.0
22.469,-2.584,0.436,9.0
22.153,-2.55,0.312,12.0
22.161,-2.554,0.194,12.0
22.223,-2.562,0.816,12.0
22.366,-2.581,0.701,10.0
22.407,-2.588,0.583,9.0
22.408,-2.59,0.461,13.0
22.152,-2.563,0.338,13.0
22.139,-2.564,0.22,16.0
22.194,-2.572,0.841,12.0
22.242,-2.58,0.724,16.0
22.306,-2.589,0.607,10.0
22.294,-2.59,0.486,12.0
22.145,-2.575,0.364,14.0
22.127,-2.576,0.246,18.0
22.179,-2.583,0.867,13.0
22.234,-2.591,0.75,15.0
22.225,-2.592,0.631,13.0
22.192,-2.59,0.51,9.0
22.134,-2.585,0.391,15.0
22.115,-2.585,0.272,18.0
22.167,-2.593,0.893,16.0
22.204,-2.599,0.776,13.0
22.21,-2.601,0.658,13.0
22.148,-2.596,0.535,10.0
22.138,-2.596,0.417,15.0
22.113,-2.595,0.299,19.0
22.167,-2.603,0.92,15.0
22.171,-2.605,0.802,12.0
22.193,-2.609,0.684,13.0
22.147,-2.605,0.562,12.0
22.139,-2.606,0.444,15.0
22.118,-2.605,0.325,19.0
22.158,-2.612,0.946,16.0
22.165,-2.614,0.828,13.0
22.184,-2.617,0.71,16.0
22.137,-2.613,0.588,14.0
22.128,-2.613,0.47,15.0
22.119,-2.614,0.352,19.0
22.151,-2.619,0.973,17.0
22.152,-2.62,0.854,15.0
22.192,-2.626,0.738,16.0
22.146,-2.622,0.615,15.0
22.154,-2.624,0.498,12.0
22.123,-2.621,0.379,20.0
22.132,-2.624,0.999,16.0
22.148,-2.627,0.881,15.0
22.176,-2.631,0.764,12.0
22.146,-2.628,0.642,14.0
22.138,-2.628,0.524,11.0
22.132,-2.629,0.406,20.0
22.112,-2.628,1.025,15.0
22.119,-2.63,0.907,14.0
22.125,-2.631,0.789,13.0
22.129,-2.632,0.669,12.0
22.129,-2.633,0.55,16.0
22.136,-2.634,0.432,19.0
22.075,-2.629,1.05,11.0
22.099,-2.632,0.933,12.0
22.106,-2.633,0.815,12.0
22.121,-2.636,0.695,13.0
22.125,-2.637,0.577,17.0
22.129,-2.638,0.459,18.0
22.065,-2.632,1.076,8.0
22.056,-2.631,0.957,8.0
22.097,-2.636,0.841,10.0
22.102,-2.637,0.721,13.0
22.137,-2.642,0.604,17.0
22.136,-2.642,0.485,15.0
22.054,-2.634,1.102,7.0
22.045,-2.633,0.983,7.0
22.043,-2.633,0.865,8.0
22.092,-2.639,0.747,12.0
22.107,-2.64,0.629,13.0
22.144,-2.645,0.512,11.0
22.06,-2.637,1.129,8.0
22.062,-2.637,1.011,7.0
22.04,-2.634,0.891,8.0
22.052,-2.635,0.772,10.0
22.051,-2.635,0.654,12.0
22.129,-2.644,0.538,16.0
22.045,-2.637,1.154,8.0
22.046,-2.636,1.036,6.0
22.039,-2.635,0.917,7.0
22.027,-2.633,0.797,8.0
22.053,-2.636,0.68,12.0
22.127,-2.644,0.564,18.0
22.044,-2.637,1.18,7.0
22.053,-2.637,1.062,6.0
22.035,-2.634,0.943,6.0
22.034,-2.633,0.823,8.0
22.08,-2.638,0.707,13.0
22.142,-2.645,0.59,17.0
22.055,-2.637,1.206,3.0
22.063,-2.637,1.089,6.0
22.04,-2.634,0.969,7.0
22.049,-2.634,0.849,8.0
22.108,-2.64,0.733,13.0
22.129,-2.642,0.615,15.0
22.091,-2.64,1.234,3.0
22.051,-2.634,1.114,7.0
22.056,-2.633,0.996,10.0
22.079,-2.635,0.876,10.0
22.122,-2.639,0.759,11.0
22.119,-2.638,0.641,14.0
22.121,-2.641,1.262,2.0
22.058,-2.632,1.139,7.0
22.062,-2.631,1.021,11.0
22.107,-2.635,0.902,12.0
22.118,-2.635,0.784,12.0
22.15,-2.637,0.667,13.0
22.14,-2.639,1.288,12.0
22.069,-2.629,1.165,7.0
22.094,-2.63,1.048,11.0
22.119,-2.632,0.928,13.0
22.142,-2.633,0.81,14.0
22.175,-2.636,0.693,14.0
22.138,-2.634,1.313,18.0
22.084,-2.626,1.191,6.0
22.112,-2.627,1.073,13.0
22.128,-2.627,0.953,14.0
22.151,-2.628,0.835,15.0
22.194,-2.632,0.718,17.0
22.159,-2.631,1.339,12.0
22.098,-2.621,1.216,3.0
22.121,-2.622,1.098,17.0
22.139,-2.622,0.978,16.0
22.16,-2.623,0.86,16.0
22.197,-2.625,0.742,16.0
22.21,-2.63,1.366,17.0
22.134,-2.619,1.242,10.0
22.124,-2.615,1.123,18.0
22.134,-2.614,1.002,16.0
22.151,-2.614,0.884,15.0
22.203,-2.618,0.767,12.0
22.221,-2.623,1.391,22.0
22.13,-2.61,1.266,17.0
22.126,-2.607,1.147,19.0
22.136,-2.606,1.025,16.0
22.159,-2.606,0.907,14.0
22.179,-2.607,0.789,12.0
22.214,-2.614,1.414,22.0
22.132,-2.602,1.289,15.0
22.14,-2.6,1.171,20.0
22.136,-2.597,1.049,17.0
22.167,-2.598,0.931,15.0
22.176,-2.597,0.812,12.0
22.204,-2.603,1.437,24.0
22.179,-2.597,1.316,9.0
22.134,-2.589,1.194,20.0
22.134,-2.586,1.072,18.0
22.161,-2.587,0.954,14.0
22.18,-2.586,0.835,12.0
22.197,-2.592,1.459,23.0
22.237,-2.593,1.342,12.0
22.137,-2.578,1.217,17.0
22.137,-2.575,1.095,19.0
22.157,-2.575,0.976,12.0
22.188,-2.575,0.858,12.0
22.193,-2.579,1.482,23.0
22.245,-2.582,1.365,11.0
22.145,-2.567,1.239,10.0
22.139,-2.564,1.117,17.0
22.159,-2.563,0.998,11.0
22.201,-2.565,0.88,11.0
22.193,-2.567,1.503,22.0
22.24,-2.569,1.386,9.0
22.237,-2.565,1.266,6.0
22.14,-2.55,1.138,12.0
22.166,-2.55,1.02,11.0
22.22,-2.553,0.902,10.0
22.192,-2.553,1.525,23.0
22.218,-2.553,1.406,13.0
22.32,-2.561,1.292,3.0
22.196,-2.543,1.162,7.0
22.211,-2.541,1.043,10.0
22.241,-2.541,0.924,9.0
22.194,-2.539,1.547,20.0
22.203,-2.536,1.427,16.0
159.713,-18.22,9.398,5.0
22.276,-2.537,1.188,4.0
22.268,-2.532,1.066,4.0
22.306,-2.533,0.948,2.0
22.19,-2.524,1.567,12.0
22.216,-2.522,1.448,16.0
159.718,-18.108,9.544,13.0
22.277,-2.521,1.208,0.0
22.351,-2.526,1.091,0.0
0.0,0.0,0.0,0.0
22.211,-2.51,1.588,9.0
22.224,-2.507,1.468,17.0
159.743,-17.991,9.688,15.0
159.271,-17.909,8.777,17.0
162.193,-18.208,8.059,3.0
154.9,-17.362,6.858,4.0
22.237,-2.495,1.61,3.0
22.237,-2.491,1.488,14.0
159.505,-17.839,9.811,13.0
159.086,-17.762,8.905,18.0
158.581,-17.677,8.014,16.0
155.08,-17.258,6.996,4.0
143.961,-16.042,10.545,6.0
22.257,-2.475,1.509,3.0
159.943,-17.757,9.972,15.0
159.192,-17.643,9.041,18.0
158.892,-17.58,8.159,20.0
155.292,-17.152,7.131,3.0
143.482,-15.869,10.626,9.0
142.63,-15.745,9.783,18.0
160.002,-17.628,10.104,14.0
159.497,-17.539,9.187,19.0
159.152,-17.47,8.299,20.0
160.086,-17.54,7.477,14.0
142.962,-15.686,10.701,9.0
142.749,-15.63,9.905,19.0
160.116,-17.498,10.234,9.0
159.816,-17.43,9.329,16.0
158.867,-17.294,8.406,16.0
160.005,-17.385,7.595,14.0
143.024,-15.561,10.815,18.0
142.893,-15.514,10.023,13.0
174.507,-18.907,11.287,23.0
159.829,-17.281,9.448,8.0
159.12,-17.17,8.538,17.0
159.796,-17.209,7.704,21.0
143.139,-15.436,10.93,18.0
142.893,-15.376,10.127,18.0
174.518,-18.738,11.414,28.0
159.981,-17.141,9.573,17.0
159.295,-17.033,8.66,17.0
159.811,-17.053,7.816,13.0
143.227,-15.303,11.039,17.0
142.785,-15.222,10.22,18.0
174.684,-18.582,11.544,22.0
159.949,-16.976,9.68,11.0
158.914,-16.83,8.749,18.0
159.118,-16.817,7.889,14.0
142.815,-15.113,11.101,7.0
142.989,-15.096,10.33,14.0
175.087,-18.442,11.688,23.0
160.373,-16.855,9.809,6.0
158.393,-16.609,8.822,16.0
159.174,-16.655,7.994,17.0
142.437,-14.923,11.163,9.0
142.847,-14.93,10.41,19.0
175.355,-18.283,11.816,23.0
160.187,-16.663,9.897,12.0
158.445,-16.444,8.921,12.0
159.227,-16.486,8.094,17.0
142.346,-14.758,11.243,11.0
143.029,-14.791,10.509,13.0
175.74,-18.13,11.946,22.0
160.174,-16.484,9.991,13.0
160.176,-16.444,9.112,11.0
159.032,-16.289,8.174,15.0
142.884,-14.653,11.368,11.0
142.819,-14.609,10.574,16.0
143.383,-14.629,9.826,11.0
160.065,-16.29,10.073,7.0
160.064,-16.25,9.193,18.0
158.903,-16.094,8.253,17.0
143.057,-14.506,11.458,14.0
142.54,-14.415,10.63,13.0
143.471,-14.471,9.908,13.0
176.553,-17.761,11.202,16.0
160.172,-16.072,9.281,16.0
158.878,-15.902,8.334,18.0
142.856,-14.315,11.515,17.0
142.539,-14.243,10.702,13.0
143.655,-14.316,9.992,18.0
150.105,-14.918,9.599,13.0
160.115,-15.872,9.355,15.0
158.898,-15.712,8.409,15.0
142.59,-14.116,11.561,16.0
142.414,-14.058,10.758,17.0
143.511,-14.127,10.047,10.0
149.454,-14.672,9.623,22.0
160.052,-15.669,9.423,16.0
158.897,-15.516,8.478,16.0
145.207,-14.194,11.835,4.0
142.41,-13.879,10.819,8.0
143.552,-13.951,10.11,13.0
149.313,-14.47,9.675,14.0
160.133,-15.474,9.493,9.0
159.325,-15.355,8.565,14.0
144.935,-13.983,11.871,18.0
147.72,-14.209,11.279,3.0
151.471,-14.526,10.727,10.0
189.936,-18.163,12.379,6.0
149.535,-14.26,8.918,19.0
150.001,-14.264,8.118,29.0
0.0,0.0,0.0,0.0
146.227,-13.876,11.216,8.0
153.582,-14.53,10.929,13.0
151.475,-14.287,9.924,11.0
170.086,-15.997,10.2,7.0
150.04,-14.069,8.169,20.0
147.677,-13.862,12.196,3.0
148.083,-13.857,11.406,8.0
153.306,-14.301,10.957,8.0
151.545,-14.094,9.973,9.0
149.567,-13.868,9.014,27.0
150.387,-13.902,8.231,11.0
146.568,-13.562,12.145,14.0
145.808,-13.448,11.27,3.0
147.239,-13.537,10.562,3.0
152.217,-13.949,10.058,3.0
150.31,-13.732,9.097,13.0
186.322,-16.969,10.243,14.0
144.858,-13.204,12.04,11.0
145.749,-13.242,11.3,5.0
148.067,-13.41,10.656,14.0
148.488,-13.404,9.845,14.0
149.195,-13.426,9.061,6.0
209.163,-18.762,11.542,150.0
144.706,-12.989,12.058,7.0
145.508,-13.016,11.311,10.0
145.819,-13.0,10.522,10.0
208.802,-18.552,13.882,8.0
148.897,-13.187,9.071,9.0
209.196,-18.469,11.581,63.0
144.467,-12.764,12.06,24.0
145.098,-12.774,11.303,13.0
145.982,-12.809,10.556,11.0
147.077,-12.86,9.799,11.0
185.372,-16.153,11.319,19.0
151.952,-13.197,8.433,12.0
145.903,-12.678,12.2,3.0
0.0,0.0,0.0,0.0
146.317,-12.623,10.597,11.0
151.934,-13.063,10.138,3.0
208.572,-17.87,12.756,6.0
151.939,-12.973,8.446,48.0
145.843,-12.46,12.207,14.0
145.631,-12.395,11.374,8.0
152.321,-12.918,11.043,5.0
148.256,-12.527,9.904,8.0
208.456,-17.554,12.76,8.0
209.235,-17.557,11.64,12.0
146.376,-12.288,12.258,12.0
146.134,-12.221,11.418,15.0
146.17,-12.179,10.601,5.0
147.328,-12.231,9.845,12.0
208.528,-17.251,12.768,19.0
200.166,-16.499,11.138,33.0
146.423,-12.072,12.262,6.0
146.717,-12.05,11.463,15.0
146.993,-12.028,10.659,15.0
147.295,-12.008,9.839,12.0
208.608,-16.943,12.769,19.0
200.158,-16.196,11.132,19.0
146.02,-11.819,12.223,9.0
146.547,-11.816,11.443,6.0
151.975,-12.206,11.013,3.0
149.317,-11.947,9.968,11.0
208.674,-16.635,12.759,20.0
195.089,-15.493,10.836,5.0
146.0,-11.597,12.211,12.0
145.51,-11.511,11.35,6.0
151.06,-11.904,10.932,4.0
151.126,-11.863,10.073,13.0
208.725,-16.323,12.74,17.0
193.488,-15.072,10.725,20.0
145.303,-11.318,12.134,13.0
154.275,-11.967,12.014,4.0
150.854,-11.655,10.897,7.0
156.053,-12.01,10.378,3.0
0.0,0.0,0.0,0.0
190.294,-14.53,10.519,8.0
147.281,-11.245,12.275,3.0
147.298,-11.199,11.446,5.0
155.087,-11.742,11.176,6.0
154.068,-11.618,10.218,7.0
190.696,-14.323,11.576,6.0
190.004,-14.213,10.466,18.0
148.596,-11.112,12.354,8.0
147.321,-10.971,11.415,5.0
150.412,-11.153,10.806,4.0
122.098,-9.015,8.071,4.0
154.574,-11.366,9.346,4.0
189.747,-13.895,10.405,20.0
87.987,-6.44,7.293,17.0
119.232,-8.688,9.209,11.0
121.991,-8.851,8.732,8.0
122.102,-8.821,8.037,9.0
188.911,-13.59,11.372,9.0
189.455,-13.571,10.337,12.0
88.128,-6.309,7.279,23.0
119.305,-8.502,9.178,6.0
122.27,-8.676,8.715,7.0
122.16,-8.631,8.004,14.0
91.85,-6.461,5.499,18.0
189.178,-13.249,10.259,15.0
88.208,-6.174,7.256,24.0
118.92,-8.287,9.108,17.0
119.476,-8.289,8.475,7.0
122.024,-8.425,7.952,15.0
156.408,-10.753,9.309,9.0
156.847,-10.735,8.449,12.0
88.106,-6.025,7.214,15.0
117.776,-8.017,8.976,5.0
119.317,-8.085,8.416,9.0
89.304,-6.024,5.785,19.0
189.037,-12.694,11.175,11.0
157.013,-10.495,8.394,7.0
88.151,-5.886,7.181,16.0
117.762,-7.827,8.925,9.0
119.438,-7.9,8.373,9.0
92.834,-6.111,5.972,9.0
120.576,-7.902,7.073,8.0
188.728,-12.31,10.005,7.0
88.292,-5.752,7.152,13.0
91.969,-5.962,6.926,10.0
89.106,-5.749,6.204,11.0
91.955,-5.905,5.871,14.0
120.954,-7.73,7.037,9.0
188.485,-11.991,9.898,10.0
88.422,-5.618,7.118,14.0
92.006,-5.817,6.882,10.0
89.326,-5.618,6.173,12.0
122.061,-7.64,7.729,9.0
120.717,-7.52,6.96,10.0
187.591,-11.629,9.752,5.0
88.365,-5.469,7.064,20.0
92.13,-5.674,6.839,4.0
91.916,-5.632,6.301,8.0
92.518,-5.64,5.806,12.0
188.574,-11.441,10.763,13.0
122.949,-7.422,6.319,8.0
88.69,-5.344,7.038,27.0
87.765,-5.262,6.463,10.0
89.289,-5.326,6.067,20.0
92.435,-5.485,5.745,7.0
120.795,-7.133,6.82,15.0
188.477,-11.075,9.573,17.0
88.478,-5.189,6.965,25.0
87.981,-5.133,6.423,4.0
89.715,-5.206,6.038,18.0
92.547,-5.343,5.692,5.0
122.54,-7.039,6.839,10.0
188.741,-10.785,9.463,18.0
88.368,-5.039,6.897,15.0
88.114,-4.996,6.373,15.0
92.016,-5.19,6.13,10.0
92.483,-5.189,5.625,7.0
119.398,-6.665,6.581,13.0
189.033,-10.497,9.345,19.0
94.757,-5.249,7.328,13.0
88.982,-4.902,6.372,15.0
92.553,-5.071,6.098,28.0
112.0,-6.104,6.73,15.0
119.264,-6.465,6.486,13.0
189.125,-10.199,9.21,10.0
87.89,-4.727,6.731,15.0
88.102,-4.712,6.243,27.0
111.198,-5.915,7.243,13.0
112.109,-5.931,6.651,23.0
119.081,-6.266,6.385,13.0
195.066,-10.207,9.347,5.0
88.253,-4.604,6.688,20.0
88.311,-4.581,6.187,33.0
92.075,-4.749,5.923,8.0
112.175,-5.753,6.563,14.0
112.536,-5.739,5.941,6.0
0.0,0.0,0.0,0.0
88.328,-4.465,6.62,18.0
88.161,-4.431,6.101,29.0
92.056,-4.6,5.844,25.0
98.052,-4.872,5.654,16.0
112.14,-5.54,5.826,3.0
0.0,0.0,0.0,0.0
89.327,-4.373,6.617,27.0
91.47,-4.451,6.251,13.0
90.855,-4.395,5.688,7.0
98.011,-4.714,5.565,12.0
113.108,-5.407,5.774,4.0
0.0,0.0,0.0,0.0
89.136,-4.221,6.521,18.0
90.776,-4.272,6.118,27.0
94.435,-4.417,5.824,14.0
112.064,-5.209,6.257,10.0
164.327,-7.594,8.235,29.0
0.0,0.0,0.0,0.0
91.208,-4.173,6.585,7.0
91.176,-4.146,6.059,24.0
0.0,0.0,0.0,0.0
90.013,-4.042,4.938,15.0
194.535,-8.68,9.559,18.0
0.0,0.0,0.0,0.0
91.332,-4.034,6.502,13.0
91.208,-4.002,5.968,14.0
89.756,-3.913,5.358,15.0
120.217,-5.207,6.473,10.0
120.231,-5.176,5.784,39.0
92.935,-3.975,3.939,5.0
88.343,-3.762,6.197,10.0
89.573,-3.789,5.768,18.0
98.347,-4.134,5.768,6.0
113.575,-4.742,5.996,8.0
194.657,-8.075,9.161,10.0
92.231,-3.801,3.811,5.0
88.114,-3.614,6.087,19.0
89.931,-3.663,5.693,25.0
98.422,-3.983,5.665,23.0
113.544,-4.563,5.87,6.0
0.0,0.0,0.0,0.0
92.191,-3.655,3.707,18.0
88.136,-3.477,5.989,9.0
98.791,-3.87,6.143,22.0
113.307,-4.407,6.393,15.0
113.397,-4.381,5.735,23.0
113.463,-4.353,5.085,14.0
92.169,-3.512,3.601,45.0
98.967,-3.752,6.611,15.0
98.82,-3.719,6.03,11.0
99.117,-3.702,5.477,24.0
113.392,-4.206,5.602,23.0
0.0,0.0,0.0,0.0
92.214,-3.372,3.494,157.0
94.001,-3.418,6.166,20.0
97.711,-3.526,5.845,17.0
99.167,-3.553,5.36,15.0
190.743,-6.783,9.191,16.0
0.0,0.0,0.0,0.0
92.224,-3.232,3.382,153.0
97.62,-3.401,6.283,13.0
98.896,-3.42,5.794,20.0
190.156,-6.525,10.043,19.0
190.385,-6.484,8.938,16.0
92.242,-3.118,3.799,10.0
92.218,-3.094,3.267,150.0
97.886,-3.262,6.176,29.0
98.939,-3.272,5.67,20.0
190.281,-6.244,9.807,14.0
190.45,-6.2,8.696,8.0
92.278,-2.981,3.681,31.0
92.191,-2.955,3.147,33.0
110.877,-3.53,6.85,10.0
97.366,-3.074,5.452,12.0
97.162,-3.043,4.878,5.0
0.0,0.0,0.0,0.0
92.29,-2.845,3.56,31.0
92.26,-2.822,3.028,11.0
99.048,-3.008,5.987,13.0
96.885,-2.918,5.296,26.0
189.807,-5.67,9.278,18.0
121.177,-3.589,5.21,6.0
92.305,-2.71,3.435,47.0
92.636,-2.698,2.913,1.0
88.417,-2.555,5.221,13.0
99.074,-2.839,5.277,13.0
189.598,-5.387,9.003,23.0
121.385,-3.42,5.051,17.0
92.359,-2.579,3.309,185.0
93.114,-2.578,2.798,1.0
88.404,-2.428,5.096,17.0
99.091,-2.698,5.139,5.0
189.738,-5.12,8.74,6.0
123.888,-3.312,4.977,24.0
92.462,-2.451,3.181,152.0
0.0,0.0,0.0,0.0
96.737,-2.519,5.436,19.0
171.615,-4.428,8.649,20.0
123.882,-3.167,5.526,26.0
123.912,-3.138,4.797,5.0
96.82,-2.429,3.187,5.0
0.0,0.0,0.0,0.0
96.764,-2.383,5.294,36.0
96.833,-2.363,4.736,23.0
123.892,-2.995,5.341,22.0
128.388,-3.073,4.779,29.0
96.891,-2.297,3.045,5.0
0.0,0.0,0.0,0.0
96.803,-2.251,5.148,26.0
96.831,-2.23,4.589,48.0
128.398,-2.927,5.34,14.0
128.337,-2.897,4.582,19.0
91.702,-2.05,2.743,1.0
0.0,0.0,0.0,0.0
128.41,-2.813,6.634,18.0
96.891,-2.1,4.442,36.0
96.925,-2.079,3.881,52.0
97.01,-2.059,3.311,5.0
0.0,0.0,0.0,0.0
0.0,0.0,0.0,0.0
190.395,-3.915,9.533,23.0
97.021,-1.974,4.295,1.0
96.92,-1.951,3.728,44.0
96.863,-1.929,3.154,18.0
0.0,0.0,0.0,0.0
0.0,0.0,0.0,0.0
190.299,-3.666,9.224,17.0
193.884,-3.694,8.273,7.0
96.977,-1.826,3.574,21.0
96.605,-1.799,2.99,3.0
0.0,0.0,0.0,0.0
0.0,0.0,0.0,0.0
190.56,-3.427,8.925,10.0
171.377,-3.045,7.029,7.0
96.971,-1.702,3.413,7.0
88.044,-1.527,2.579,1.0
0.0,0.0,0.0,0.0
0.0,0.0,0.0,0.0
0.0,0.0,0.0,0.0
171.518,-2.831,6.748,5.0
96.942,-1.58,3.25,3.0
0.0,0.0,0.0,0.0
0.0,0.0,0.0,0.0
0.0,0.0,0.0,0.0
193.637,-2.998,8.416,8.0
171.745,-2.624,6.466,18.0
90.006,-1.356,2.865,3.0
0.0,0.0,0.0,0.0
0.0,0.0,0.0,0.0
0.0,0.0,0.0,0.0
193.677,-2.763,8.083,12.0
171.139,-2.409,6.147,4.0
89.895,-1.247,2.706,1.0
64.069,-0.876,1.549,0.0
0.0,0.0,0.0,0.0
36.346,-0.483,0.456,0.0
174.296,-2.28,6.969,6.0
90.815,-1.171,3.102,7.0
84.912,-1.078,2.406,2.0
57.216,-0.716,1.283,0.0
42.559,-0.524,0.707,0.0
34.076,-0.413,0.368,0.0
90.641,-1.081,3.462,49.0
90.573,-1.063,2.933,23.0
0.0,0.0,0.0,0.0
0.0,0.0,0.0,0.0
0.0,0.0,0.0,0.0
32.671,-0.359,0.294,1.0
90.598,-0.979,3.298,48.0
90.174,-0.958,2.757,2.0
0.0,0.0,0.0,0.0
0.0,0.0,0.0,0.0
36.466,-0.368,0.475,0.0
31.835,-0.315,0.23,1.0
90.611,-0.88,3.134,37.0
83.05,-0.792,2.388,3.0
0.0,0.0,0.0,0.0
0.0,0.0,0.0,0.0
35.039,-0.316,0.392,0.0
28.851,-0.255,0.154,1.0
90.576,-0.783,2.965,19.0
0.0,0.0,0.0,0.0
0.0,0.0,0.0,0.0
0.0,0.0,0.0,0.0
32.907,-0.262,0.307,1.0
28.77,-0.224,0.101,6.0
90.403,-0.689,2.791,3.0
0.0,0.0,0.0,0.0
0.0,0.0,0.0,0.0
36.961,-0.263,0.491,0.0
31.608,-0.22,0.236,1.0
28.3,-0.192,0.046,1.0
81.167,-0.537,2.351,2.0
0.0,0.0,0.0,0.0
0.0,0.0,0.0,0.0
0.0,0.0,0.0,0.0
28.868,-0.172,0.16,1.0
26.726,-0.155,-0.006,0.0
0.0,0.0,0.0,0.0
0.0,0.0,0.0,0.0
0.0,0.0,0.0,0.0
33.151,-0.172,0.314,1.0
28.768,-0.144,0.105,6.0
25.623,-0.125,-0.055,0.0
0.0,0.0,0.0,0.0
0.0,0.0,0.0,0.0
37.474,-0.165,0.504,0.0
31.645,-0.134,0.238,1.0
28.044,-0.115,0.047,1.0
24.657,-0.097,-0.101,0.0
57.625,-0.218,1.335,1.0
43.383,-0.158,0.751,0.0
0.0,0.0,0.0,0.0
28.862,-0.097,0.16,1.0
26.573,-0.085,-0.007,0.0
23.719,-0.073,-0.144,0.0
0.0,0.0,0.0,0.0
0.0,0.0,0.0,0.0
33.226,-0.088,0.316,1.0
28.773,-0.072,0.103,7.0
25.571,-0.06,-0.057,0.0
22.253,-0.049,-0.179,0.0
0.0,0.0,0.0,0.0
37.29,-0.073,0.499,0.0
31.534,-0.057,0.238,0.0
27.896,-0.047,0.044,0.0
24.491,-0.038,-0.103,0.0
21.175,-0.03,-0.212,2.0
43.16,-0.055,0.743,0.0
35.082,-0.04,0.399,0.0
30.206,-0.031,0.167,0.0
26.316,-0.023,-0.009,0.0
23.623,-0.018,-0.146,1.0
20.145,-0.013,-0.242,0.0
0.0,0.0,0.0,0.0
32.96,-0.013,0.309,0.0
28.666,-0.008,0.101,1.0
25.519,-0.004,-0.06,0.0
22.059,0.0,-0.181,0.0
19.157,0.001,-0.269,0.0
37.026,0.007,0.489,0.0
31.659,0.009,0.233,0.0
27.641,0.012,0.042,0.0
