X,Y,Z,Reflectivity
7.244,-0.445,-0.745,0.0
0.0,0.0,0.0,0.0
0.0,0.0,0.0,0.0
0.0,0.0,0.0,0.0
0.0,0.0,0.0,0.0
0.0,0.0,0.0,0.0
7.288,-0.455,-0.745,0.0
0.0,0.0,0.0,0.0
6.695,-0.42,-0.758,0.0
0.0,0.0,0.0,0.0
0.0,0.0,0.0,0.0
0.0,0.0,0.0,0.0
7.271,-0.46,-0.737,0.0
7.053,-0.448,-0.754,0.0
6.775,-0.431,-0.762,0.0
0.0,0.0,0.0,0.0
0.0,0.0,0.0,0.0
0.0,0.0,0.0,0.0
7.33,-0.47,-0.738,0.0
7.029,-0.452,-0.746,0.0
6.783,-0.438,-0.758,0.0
0.0,0.0,0.0,0.0
0.0,0.0,0.0,0.0
0.0,0.0,0.0,0.0
0.0,0.0,0.0,0.0
7.095,-0.462,-0.747,0.0
6.806,-0.445,-0.755,0.0
6.591,-0.432,-0.767,0.0
0.0,0.0,0.0,0.0
0.0,0.0,0.0,0.0
0.0,0.0,0.0,0.0
0.0,0.0,0.0,0.0
0.0,0.0,0.0,0.0
6.637,-0.44,-0.766,0.0
0.0,0.0,0.0,0.0
0.0,0.0,0.0,0.0
0.0,0.0,0.0,0.0
7.174,-0.478,-0.743,0.0
0.0,0.0,0.0,0.0
6.673,-0.447,-0.764,0.0
6.463,-0.435,-0.776,0.0
0.0,0.0,0.0,0.0
0.0,0.0,0.0,0.0
7.249,-0.489,-0.744,0.0
0.0,0.0,0.0,0.0
6.728,-0.456,-0.764,0.0
6.507,-0.442,-0.775,0.0
0.0,0.0,0.0,0.0
0.0,0.0,0.0,0.0
7.268,-0.495,-0.739,0.0
0.0,0.0,0.0,0.0
6.796,-0.465,-0.765,0.0
6.508,-0.447,-0.768,0.0
8.025,-0.55,-0.72,0.0
0.0,0.0,0.0,0.0
7.29,-0.502,-0.734,0.0
0.0,0.0,0.0,0.0
6.801,-0.47,-0.759,0.0
6.589,-0.457,-0.771,0.0
8.001,-0.553,-0.71,0.0
0.0,0.0,0.0,0.0
0.0,0.0,0.0,0.0
0.0,0.0,0.0,0.0
6.851,-0.478,-0.757,0.0
6.619,-0.463,-0.768,0.0
8.038,-0.561,-0.705,0.0
0.0,0.0,0.0,0.0
0.0,0.0,0.0,0.0
7.128,-0.5,-0.742,0.0
0.0,0.0,0.0,0.0
6.657,-0.469,-0.765,0.0
8.146,-0.573,-0.706,0.0
0.0,0.0,0.0,0.0
0.0,0.0,0.0,0.0
7.185,-0.508,-0.74,0.0
0.0,0.0,0.0,0.0
6.732,-0.478,-0.766,0.0
8.183,-0.58,-0.7,0.0
0.0,0.0,0.0,0.0
0.0,0.0,0.0,0.0
7.255,-0.517,-0.739,0.0
7.021,-0.501,-0.753,0.0
6.78,-0.485,-0.764,0.0
8.232,-0.588,-0.695,0.0
0.0,0.0,0.0,0.0
0.0,0.0,0.0,0.0
0.0,0.0,0.0,0.0
7.089,-0.51,-0.752,0.0
6.811,-0.491,-0.759,0.0
8.353,-0.6,-0.695,0.0
0.0,0.0,0.0,0.0
0.0,0.0,0.0,0.0
0.0,0.0,0.0,0.0
7.158,-0.518,-0.75,0.0
6.844,-0.496,-0.754,0.0
8.412,-0.608,-0.69,0.0
8.054,-0.583,-0.704,0.0
0.0,0.0,0.0,0.0
0.0,0.0,0.0,0.0
7.188,-0.523,-0.745,0.0
0.0,0.0,0.0,0.0
8.477,-0.616,-0.685,0.0
0.0,0.0,0.0,0.0
0.0,0.0,0.0,0.0
0.0,0.0,0.0,0.0
7.231,-0.529,-0.74,0.0
7.028,-0.515,-0.757,0.0
8.517,-0.622,-0.677,0.0
8.203,-0.6,-0.696,0.0
0.0,0.0,0.0,0.0
0.0,0.0,0.0,0.0
7.291,-0.536,-0.737,0.0
7.03,-0.517,-0.748,0.0
8.694,-0.638,-0.68,0.0
0.0,0.0,0.0,0.0
7.951,-0.585,-0.707,0.0
0.0,0.0,0.0,0.0
0.0,0.0,0.0,0.0
7.098,-0.524,-0.746,0.0
8.743,-0.644,-0.673,0.0
8.427,-0.622,-0.693,0.0
8.061,-0.595,-0.706,0.0
0.0,0.0,0.0,0.0
0.0,0.0,0.0,0.0
7.151,-0.53,-0.742,0.0
0.0,0.0,0.0,0.0
8.437,-0.624,-0.683,0.0
8.193,-0.607,-0.707,0.0
0.0,0.0,0.0,0.0
0.0,0.0,0.0,0.0
7.249,-0.539,-0.743,0.0
8.949,-0.663,-0.665,0.0
8.581,-0.637,-0.683,0.0
8.202,-0.609,-0.697,0.0
0.0,0.0,0.0,0.0
0.0,0.0,0.0,0.0
7.251,-0.54,-0.733,0.0
0.0,0.0,0.0,0.0
8.631,-0.642,-0.675,0.0
0.0,0.0,0.0,0.0
0.0,0.0,0.0,0.0
0.0,0.0,0.0,0.0
0.0,0.0,0.0,0.0
0.0,0.0,0.0,0.0
8.687,-0.647,-0.667,0.0
8.349,-0.622,-0.686,0.0
0.0,0.0,0.0,0.0
0.0,0.0,0.0,0.0
0.0,0.0,0.0,0.0
0.0,0.0,0.0,0.0
8.899,-0.664,-0.671,0.0
8.435,-0.63,-0.681,0.0
0.0,0.0,0.0,0.0
7.793,-0.582,-0.713,0.0
0.0,0.0,0.0,0.0
0.0,0.0,0.0,0.0
0.0,0.0,0.0,0.0
8.522,-0.636,-0.676,0.0
0.0,0.0,0.0,0.0
0.0,0.0,0.0,0.0
0.0,0.0,0.0,0.0
0.0,0.0,0.0,0.0
0.0,0.0,0.0,0.0
8.689,-0.649,-0.676,0.0
0.0,0.0,0.0,0.0
0.0,0.0,0.0,0.0
0.0,0.0,0.0,0.0
0.0,0.0,0.0,0.0
0.0,0.0,0.0,0.0
8.808,-0.657,-0.673,0.0
8.399,-0.627,-0.687,0.0
8.085,-0.604,-0.704,0.0
0.0,0.0,0.0,0.0
0.0,0.0,0.0,0.0
0.0,0.0,0.0,0.0
8.852,-0.66,-0.663,0.0
8.509,-0.634,-0.683,0.0
8.178,-0.61,-0.7,0.0
7.891,-0.588,-0.717,0.0
0.0,0.0,0.0,0.0
0.0,0.0,0.0,0.0
0.0,0.0,0.0,0.0
0.0,0.0,0.0,0.0
8.289,-0.617,-0.697,0.0
7.96,-0.592,-0.711,0.0
0.0,0.0,0.0,0.0
9.67,-0.718,-0.644,0.0
0.0,0.0,0.0,0.0
0.0,0.0,0.0,0.0
8.409,-0.624,-0.694,0.0
8.085,-0.6,-0.71,0.0
0.0,0.0,0.0,0.0
0.0,0.0,0.0,0.0
0.0,0.0,0.0,0.0
0.0,0.0,0.0,0.0
8.497,-0.629,-0.688,0.0
8.123,-0.601,-0.701,0.0
10.445,-0.771,-0.609,0.0
0.0,0.0,0.0,0.0
0.0,0.0,0.0,0.0
0.0,0.0,0.0,0.0
8.598,-0.634,-0.683,0.0
8.275,-0.61,-0.701,0.0
10.62,-0.78,-0.602,0.0
0.0,0.0,0.0,0.0
0.0,0.0,0.0,0.0
0.0,0.0,0.0,0.0
8.693,-0.638,-0.677,0.0
8.343,-0.612,-0.694,0.0
10.69,-0.782,-0.59,0.0
0.0,0.0,0.0,0.0
0.0,0.0,0.0,0.0
0.0,0.0,0.0,0.0
8.807,-0.643,-0.672,0.0
8.482,-0.619,-0.692,0.0
10.985,-0.8,-0.589,0.0
10.35,-0.753,-0.609,0.0
0.0,0.0,0.0,0.0
0.0,0.0,0.0,0.0
0.0,0.0,0.0,0.0
8.588,-0.623,-0.687,0.0
11.099,-0.803,-0.578,0.0
10.566,-0.764,-0.606,0.0
0.0,0.0,0.0,0.0
0.0,0.0,0.0,0.0
0.0,0.0,0.0,0.0
8.634,-0.623,-0.677,0.0
11.33,-0.815,-0.572,0.0
0.0,0.0,0.0,0.0
0.0,0.0,0.0,0.0
0.0,0.0,0.0,0.0
0.0,0.0,0.0,0.0
8.738,-0.626,-0.672,0.0
11.518,-0.823,-0.563,0.0
10.951,-0.781,-0.593,0.0
10.374,-0.739,-0.616,0.0
0.0,0.0,0.0,0.0
0.0,0.0,0.0,0.0
8.918,-0.634,-0.671,0.0
11.726,-0.831,-0.555,0.0
11.141,-0.789,-0.586,0.0
10.422,-0.737,-0.603,0.0
0.0,0.0,0.0,0.0
0.0,0.0,0.0,0.0
0.0,0.0,0.0,0.0
11.87,-0.834,-0.543,0.0
11.244,-0.789,-0.573,0.0
0.0,0.0,0.0,0.0
10.111,-0.708,-0.623,0.0
9.7,-0.678,-0.648,0.0
9.162,-0.64,-0.661,0.0
12.088,-0.842,-0.534,0.0
11.503,-0.8,-0.569,0.0
10.869,-0.755,-0.594,0.0
10.264,-0.712,-0.616,0.0
9.764,-0.676,-0.637,0.0
9.275,-0.642,-0.654,0.0
12.365,-0.853,-0.527,0.0
11.664,-0.804,-0.558,0.0
11.071,-0.761,-0.588,0.0
10.419,-0.716,-0.609,0.0
0.0,0.0,0.0,0.0
0.0,0.0,0.0,0.0
12.648,-0.864,-0.519,0.0
11.859,-0.808,-0.549,0.0
11.162,-0.76,-0.575,0.0
10.559,-0.717,-0.6,0.0
10.167,-0.69,-0.631,0.0
9.635,-0.652,-0.649,0.0
12.817,-0.866,-0.506,0.0
12.065,-0.813,-0.539,0.0
11.413,-0.768,-0.57,0.0
10.785,-0.724,-0.596,0.0
10.223,-0.685,-0.619,0.0
9.718,-0.65,-0.639,0.0
13.027,-0.87,-0.494,0.0
12.346,-0.822,-0.533,0.0
11.622,-0.772,-0.562,0.0
10.992,-0.729,-0.59,0.0
10.356,-0.685,-0.61,0.0
9.905,-0.654,-0.636,0.0
13.399,-0.883,-0.487,0.0
12.49,-0.821,-0.519,0.0
11.853,-0.778,-0.554,0.0
11.138,-0.729,-0.58,0.0
10.616,-0.693,-0.609,0.0
9.987,-0.651,-0.625,0.0
13.621,-0.886,-0.473,0.0
12.815,-0.831,-0.512,0.0
11.974,-0.775,-0.541,0.0
11.327,-0.731,-0.573,0.0
10.747,-0.692,-0.6,0.0
10.192,-0.655,-0.622,0.0
13.915,-0.892,-0.462,0.0
13.006,-0.832,-0.5,0.0
12.241,-0.781,-0.534,0.0
11.548,-0.735,-0.566,0.0
10.919,-0.693,-0.592,0.0
10.324,-0.654,-0.614,0.0
14.186,-0.896,-0.449,0.0
13.256,-0.835,-0.489,0.0
12.482,-0.784,-0.525,0.0
11.768,-0.737,-0.558,0.0
11.124,-0.695,-0.586,0.0
10.573,-0.659,-0.613,0.0
14.515,-0.902,-0.437,0.0
13.551,-0.839,-0.479,0.0
12.716,-0.786,-0.516,0.0
11.885,-0.732,-0.545,0.0
11.264,-0.692,-0.576,0.0
10.658,-0.653,-0.601,0.0
14.877,-0.909,-0.425,0.0
13.807,-0.841,-0.466,0.0
12.962,-0.787,-0.506,0.0
12.145,-0.735,-0.539,0.0
11.545,-0.697,-0.573,0.0
10.938,-0.658,-0.6,0.0
15.158,-0.909,-0.409,0.0
14.085,-0.842,-0.454,0.0
13.094,-0.781,-0.491,0.0
12.368,-0.735,-0.53,0.0
11.696,-0.693,-0.562,0.0
11.008,-0.65,-0.587,0.0
15.632,-0.92,-0.399,0.0
14.415,-0.846,-0.443,0.0
13.503,-0.789,-0.486,0.0
12.583,-0.733,-0.52,0.0
11.884,-0.69,-0.553,0.0
11.214,-0.649,-0.581,0.0
15.943,-0.92,-0.383,0.0
14.671,-0.844,-0.429,0.0
13.701,-0.785,-0.472,0.0
12.848,-0.733,-0.511,0.0
12.046,-0.685,-0.542,0.0
11.407,-0.646,-0.574,0.0
16.402,-0.927,-0.369,0.0
34.229,-1.927,-0.949,0.0
13.986,-0.784,-0.461,0.0
13.094,-0.731,-0.502,0.0
12.325,-0.686,-0.537,0.0
11.622,-0.644,-0.567,0.0
16.801,-0.929,-0.353,0.0
34.268,-1.887,-0.9,0.0
14.264,-0.782,-0.449,0.0
13.257,-0.724,-0.488,0.0
12.505,-0.68,-0.526,0.0
11.837,-0.641,-0.56,0.0
17.221,-0.93,-0.337,0.0
15.808,-0.85,-0.392,0.0
14.574,-0.78,-0.438,0.0
13.554,-0.722,-0.48,0.0
12.773,-0.678,-0.519,0.0
11.977,-0.633,-0.55,0.0
17.631,-0.929,-0.319,0.0
16.153,-0.847,-0.377,0.0
14.854,-0.775,-0.425,0.0
13.788,-0.717,-0.468,0.0
13.002,-0.673,-0.51,0.0
12.238,-0.63,-0.544,0.0
18.151,-0.932,-0.303,0.0
16.535,-0.845,-0.363,0.0
15.257,-0.776,-0.415,0.0
14.099,-0.714,-0.459,0.0
13.128,-0.661,-0.496,0.0
12.417,-0.622,-0.535,0.0
18.844,-0.941,-0.288,0.0
16.958,-0.843,-0.348,0.0
15.691,-0.776,-0.405,0.0
14.388,-0.708,-0.448,0.0
13.481,-0.66,-0.491,0.0
12.609,-0.614,-0.525,0.0
19.288,-0.936,-0.268,0.0
17.352,-0.838,-0.332,0.0
15.995,-0.768,-0.39,0.0
14.696,-0.702,-0.437,0.0
13.651,-0.649,-0.478,0.0
12.77,-0.603,-0.514,0.0
19.893,-0.936,-0.249,0.0
17.832,-0.835,-0.317,0.0
16.327,-0.76,-0.376,0.0
14.818,-0.686,-0.421,0.0
13.882,-0.639,-0.467,0.0
13.038,-0.597,-0.507,0.0
21.03,-0.959,-0.235,1.0
18.354,-0.832,-0.301,0.0
16.613,-0.749,-0.36,0.0
15.254,-0.683,-0.413,0.0
14.173,-0.631,-0.458,0.0
13.207,-0.584,-0.496,0.0
21.354,-0.941,-0.21,1.0
18.967,-0.83,-0.286,0.0
17.054,-0.742,-0.347,0.0
15.648,-0.677,-0.403,0.0
14.435,-0.621,-0.447,0.0
13.484,-0.576,-0.489,0.0
22.425,-0.954,-0.191,2.0
19.399,-0.819,-0.267,0.0
17.391,-0.73,-0.331,0.0
15.992,-0.666,-0.391,0.0
14.683,-0.608,-0.436,0.0
13.695,-0.563,-0.479,0.0
23.067,-0.944,-0.167,1.0
20.351,-0.827,-0.254,0.0
17.881,-0.722,-0.318,0.0
16.294,-0.653,-0.377,0.0
14.93,-0.594,-0.424,0.0
13.91,-0.549,-0.469,0.0
23.364,-0.918,-0.139,0.0
20.956,-0.817,-0.235,2.0
18.234,-0.706,-0.301,0.0
16.622,-0.639,-0.364,0.0
15.313,-0.584,-0.416,0.0
14.19,-0.537,-0.461,0.0
24.556,-0.925,-0.116,0.0
21.116,-0.789,-0.211,1.0
18.967,-0.703,-0.29,0.0
16.956,-0.624,-0.35,0.0
15.685,-0.572,-0.407,0.0
14.438,-0.522,-0.451,0.0
0.0,0.0,0.0,0.0
22.354,-0.798,-0.196,1.0
19.345,-0.684,-0.272,0.0
17.27,-0.606,-0.336,0.0
15.898,-0.553,-0.394,0.0
14.618,-0.504,-0.439,0.0
26.086,-0.894,-0.06,0.0
0.0,0.0,0.0,0.0
19.696,-0.663,-0.254,0.0
17.646,-0.589,-0.323,0.0
16.246,-0.537,-0.383,0.0
14.889,-0.488,-0.43,0.0
26.407,-0.86,-0.031,0.0
23.529,-0.759,-0.152,0.0
20.873,-0.667,-0.245,0.0
18.099,-0.573,-0.311,0.0
16.588,-0.52,-0.373,0.0
15.182,-0.471,-0.421,0.0
27.321,-0.841,-0.001,0.0
23.922,-0.729,-0.127,0.0
21.053,-0.635,-0.224,1.0
18.466,-0.551,-0.296,0.0
16.776,-0.495,-0.358,0.0
15.508,-0.453,-0.413,0.0
27.805,-0.807,0.029,0.0
24.504,-0.703,-0.104,0.0
21.567,-0.612,-0.206,1.0
19.109,-0.536,-0.286,0.0
17.093,-0.474,-0.346,0.0
15.826,-0.434,-0.405,0.0
28.542,-0.777,0.06,2.0
25.447,-0.684,-0.08,0.0
22.504,-0.598,-0.191,0.0
19.44,-0.51,-0.27,0.0
17.333,-0.449,-0.333,0.0
16.021,-0.41,-0.393,0.0
28.674,-0.728,0.091,6.0
26.028,-0.652,-0.055,0.0
23.174,-0.573,-0.172,0.0
19.981,-0.488,-0.257,0.0
17.782,-0.428,-0.323,0.0
16.328,-0.388,-0.384,0.0
28.747,-0.676,0.12,6.0
26.485,-0.614,-0.029,0.0
23.57,-0.539,-0.152,0.0
20.511,-0.462,-0.243,0.0
18.185,-0.404,-0.313,0.0
16.525,-0.362,-0.372,0.0
28.773,-0.622,0.149,1.0
27.288,-0.582,-0.004,0.0
24.51,-0.514,-0.134,3.0
21.327,-0.44,-0.232,0.0
18.39,-0.373,-0.298,0.0
16.731,-0.334,-0.361,0.0
31.04,-0.612,0.19,0.0
27.78,-0.538,0.022,0.0
24.531,-0.467,-0.111,0.0
21.895,-0.41,-0.218,0.0
18.954,-0.348,-0.29,0.0
16.982,-0.307,-0.35,0.0
31.577,-0.562,0.223,0.0
28.243,-0.493,0.048,0.0
24.947,-0.427,-0.09,0.0
22.221,-0.373,-0.201,0.0
19.298,-0.318,-0.278,0.0
17.208,-0.278,-0.34,0.0
32.558,-0.517,0.258,0.0
28.58,-0.444,0.074,1.0
25.577,-0.388,-0.07,0.0
22.833,-0.339,-0.187,0.0
19.648,-0.285,-0.266,0.0
17.51,-0.248,-0.331,0.0
33.114,-0.46,0.291,1.0
28.698,-0.389,0.099,0.0
26.025,-0.344,-0.049,0.0
23.171,-0.299,-0.17,1.0
20.053,-0.251,-0.254,0.0
17.859,-0.218,-0.322,0.0
33.623,-0.401,0.324,1.0
28.78,-0.333,0.123,0.0
26.473,-0.297,-0.028,0.0
23.688,-0.258,-0.155,0.0
20.548,-0.217,-0.244,0.0
18.159,-0.185,-0.313,0.0
34.101,-0.338,0.356,0.0
28.861,-0.276,0.146,1.0
27.308,-0.252,-0.008,0.0
24.064,-0.214,-0.138,1.0
20.983,-0.179,-0.233,0.0
18.349,-0.151,-0.303,0.0
35.493,-0.28,0.397,0.0
31.217,-0.236,0.181,0.0
27.534,-0.198,0.012,0.0
24.378,-0.167,-0.122,0.0
21.826,-0.142,-0.227,1.0
18.692,-0.115,-0.295,0.0
36.272,-0.213,0.432,0.0
31.222,-0.172,0.204,1.0
28.263,-0.146,0.032,1.0
24.7,-0.119,-0.106,0.0
21.877,-0.098,-0.212,1.0
19.0,-0.078,-0.286,0.0
37.586,-0.143,0.473,0.0
31.663,-0.11,0.228,0.0
28.627,-0.089,0.052,3.0
25.261,-0.07,-0.092,0.0
22.157,-0.054,-0.2,0.0
19.292,-0.04,-0.278,0.0
37.673,-0.066,0.499,0.0
32.914,-0.046,0.259,0.0
28.63,-0.03,0.07,2.0
25.586,-0.018,-0.077,0.0
22.21,-0.008,-0.187,0.0
19.659,0.0,-0.271,0.0
0.0,0.0,0.0,0.0
33.195,0.021,0.281,0.0
28.707,0.028,0.088,1.0
25.896,0.034,-0.063,0.0
23.225,0.038,-0.182,1.0
19.883,0.039,-0.263,0.0
39.645,0.093,0.572,0.0
33.621,0.091,0.304,0.0
28.796,0.087,0.104,1.0
26.049,0.088,-0.048,0.0
23.173,0.086,-0.168,1.0
20.349,0.083,-0.258,0.0
40.024,0.178,0.6,0.0
0.0,0.0,0.0,0.0
28.858,0.148,0.12,0.0
26.393,0.144,-0.035,0.0
23.529,0.137,-0.159,0.0
20.555,0.127,-0.25,0.0
43.406,0.284,0.672,0.0
0.0,0.0,0.0,0.0
28.89,0.209,0.134,2.0
26.697,0.202,-0.022,0.0
23.722,0.188,-0.149,0.0
20.768,0.172,-0.243,0.0
41.742,0.361,0.667,0.0
35.569,0.32,0.375,0.0
28.942,0.271,0.148,1.0
26.821,0.26,-0.01,0.0
23.885,0.239,-0.139,0.0
21.027,0.218,-0.237,0.0
0.0,0.0,0.0,0.0
0.0,0.0,0.0,0.0
28.979,0.331,0.16,1.0
27.032,0.318,0.0,0.0
24.162,0.293,-0.131,0.0
21.568,0.269,-0.234,1.0
0.0,0.0,0.0,0.0
35.721,0.472,0.405,0.0
29.046,0.393,0.171,0.0
27.302,0.379,0.01,0.0
24.358,0.346,-0.123,0.0
21.263,0.31,-0.223,0.0
0.0,0.0,0.0,0.0
0.0,0.0,0.0,0.0
31.442,0.493,0.196,0.0
27.519,0.44,0.019,0.0
24.533,0.401,-0.116,0.0
21.868,0.365,-0.222,0.0
0.0,0.0,0.0,0.0
36.139,0.63,0.434,0.0
31.352,0.557,0.205,0.0
27.682,0.501,0.027,0.0
24.728,0.456,-0.11,0.0
21.879,0.411,-0.216,0.0
0.0,0.0,0.0,0.0
37.032,0.724,0.455,0.0
31.701,0.631,0.216,0.0
27.738,0.561,0.035,0.0
24.877,0.512,-0.104,0.0
21.974,0.459,-0.212,0.0
0.0,0.0,0.0,0.0
37.214,0.807,0.466,1.0
31.713,0.698,0.224,0.0
28.329,0.633,0.042,0.0
25.019,0.568,-0.099,0.0
21.976,0.506,-0.207,1.0
47.411,1.113,0.863,2.0
36.939,0.879,0.47,0.0
31.86,0.769,0.231,0.0
28.681,0.702,0.048,0.0
25.092,0.622,-0.095,0.0
22.0,0.553,-0.204,0.0
0.0,0.0,0.0,0.0
0.0,0.0,0.0,0.0
31.969,0.839,0.236,0.0
28.674,0.762,0.052,1.0
25.163,0.677,-0.092,0.0
22.083,0.602,-0.201,0.0
0.0,0.0,0.0,0.0
37.283,1.045,0.485,0.0
32.598,0.925,0.245,0.0
28.557,0.819,0.055,1.0
25.198,0.731,-0.089,0.0
22.11,0.649,-0.2,0.0
55.483,1.654,1.031,1.0
37.824,1.14,0.495,0.0
32.224,0.982,0.245,0.0
28.57,0.879,0.057,1.0
25.179,0.783,-0.087,0.0
22.178,0.697,-0.199,0.0
0.0,0.0,0.0,0.0
0.0,0.0,0.0,0.0
32.241,1.05,0.246,0.0
28.451,0.936,0.058,1.0
25.018,0.831,-0.086,0.0
22.158,0.743,-0.198,0.0
48.514,1.649,0.905,2.0
0.0,0.0,0.0,0.0
0.0,0.0,0.0,0.0
28.251,0.988,0.057,0.0
25.018,0.883,-0.087,0.0
22.207,0.791,-0.199,1.0
50.697,1.83,0.945,2.0
38.803,1.413,0.509,0.0
32.573,1.196,0.247,1.0
28.334,1.05,0.056,1.0
25.423,0.95,-0.089,1.0
22.062,0.832,-0.199,1.0
0.0,0.0,0.0,0.0
38.052,1.465,0.497,0.0
32.439,1.259,0.244,0.0
28.244,1.105,0.054,0.0
24.79,0.978,-0.089,1.0
21.919,0.872,-0.2,1.0
0.0,0.0,0.0,0.0
39.167,1.589,0.507,0.0
32.623,1.334,0.242,1.0
28.158,1.16,0.05,0.0
24.814,1.03,-0.092,1.0
21.813,0.913,-0.202,1.0
47.999,2.031,0.881,0.0
38.854,1.657,0.498,0.0
32.398,1.392,0.235,1.0
27.805,1.203,0.045,0.0
24.9,1.085,-0.097,0.0
21.825,0.958,-0.205,1.0
47.811,2.122,0.869,1.0
0.0,0.0,0.0,0.0
32.236,1.451,0.228,0.0
27.739,1.257,0.04,0.0
24.884,1.135,-0.101,0.0
21.796,1.001,-0.21,1.0
47.83,2.222,0.859,2.0
0.0,0.0,0.0,0.0
31.996,1.505,0.219,1.0
27.668,1.31,0.033,0.0
24.656,1.175,-0.106,0.0
21.744,1.043,-0.214,2.0
50.189,2.433,0.89,6.0
36.95,1.802,0.449,0.0
31.646,1.553,0.209,1.0
27.446,1.355,0.026,0.0
24.549,1.22,-0.112,0.0
21.608,1.08,-0.219,3.0
49.632,2.506,0.866,4.0
36.938,1.876,0.438,0.0
31.208,1.594,0.197,1.0
27.286,1.401,0.018,0.0
24.428,1.262,-0.119,0.0
21.577,1.121,-0.225,2.0
49.092,2.576,0.841,4.0
36.984,1.952,0.427,0.0
30.942,1.642,0.185,1.0
27.065,1.444,0.008,0.0
24.323,1.305,-0.127,0.0
21.425,1.156,-0.231,4.0
48.728,2.653,0.817,6.0
0.0,0.0,0.0,0.0
30.716,1.69,0.172,0.0
26.826,1.484,-0.001,0.0
24.093,1.339,-0.135,0.0
21.311,1.191,-0.238,2.0
48.088,2.712,0.788,5.0
35.713,2.025,0.386,0.0
30.371,1.73,0.159,0.0
26.498,1.517,-0.011,0.0
23.675,1.362,-0.142,0.0
20.862,1.206,-0.242,0.0
47.763,2.786,0.763,8.0
36.483,2.139,0.379,2.0
30.069,1.771,0.144,0.0
26.412,1.563,-0.023,0.0
23.243,1.382,-0.15,0.0
20.808,1.243,-0.251,0.0
47.542,2.865,0.737,1.0
47.195,2.857,0.468,0.0
29.686,1.805,0.128,1.0
26.059,1.592,-0.035,1.0
23.088,1.417,-0.16,0.0
20.456,1.261,-0.256,0.0
45.625,2.835,0.685,0.0
36.369,2.27,0.343,0.0
29.341,1.839,0.112,1.0
25.714,1.619,-0.047,0.0
22.961,1.452,-0.171,0.0
20.021,1.271,-0.261,0.0
43.575,2.79,0.632,0.0
33.542,2.156,0.298,0.0
29.042,1.875,0.095,0.0
25.424,1.648,-0.061,0.0
22.56,1.468,-0.18,0.0
19.561,1.279,-0.266,0.0
42.523,2.801,0.593,0.0
33.044,2.186,0.275,0.0
28.607,1.9,0.078,1.0
25.21,1.681,-0.075,0.0
22.243,1.489,-0.191,0.0
19.365,1.302,-0.275,0.0
42.117,2.852,0.562,0.0
32.681,2.222,0.253,0.0
28.148,1.921,0.06,1.0
24.716,1.693,-0.088,0.0
21.971,1.511,-0.202,0.0
19.185,1.324,-0.284,0.0
0.0,0.0,0.0,0.0
32.146,2.243,0.228,0.0
27.744,1.944,0.041,0.0
24.255,1.705,-0.102,1.0
21.621,1.526,-0.212,0.0
18.876,1.337,-0.291,0.0
37.397,2.668,0.451,0.0
31.51,2.255,0.203,1.0
27.227,1.956,0.022,0.0
24.079,1.736,-0.117,3.0
21.381,1.546,-0.224,0.0
18.584,1.349,-0.299,0.0
37.056,2.707,0.422,0.0
31.292,2.294,0.18,1.0
26.799,1.971,0.003,0.0
23.948,1.768,-0.133,2.0
21.074,1.561,-0.236,0.0
18.409,1.368,-0.31,0.0
36.508,2.731,0.39,1.0
30.017,2.253,0.151,1.0
26.344,1.983,-0.015,0.0
23.627,1.784,-0.149,1.0
20.605,1.561,-0.246,0.0
18.195,1.383,-0.32,0.0
35.291,2.7,0.35,0.0
29.744,2.283,0.127,1.0
26.045,2.005,-0.034,1.0
22.947,1.772,-0.162,0.0
20.259,1.569,-0.257,0.0
17.863,1.388,-0.328,0.0
35.076,2.742,0.321,0.0
29.497,2.313,0.103,1.0
25.548,2.009,-0.054,0.0
22.625,1.785,-0.178,1.0
19.632,1.553,-0.265,0.0
17.641,1.4,-0.338,0.0
35.375,2.825,0.295,0.0
28.816,2.307,0.077,1.0
25.05,2.011,-0.073,0.0
22.266,1.793,-0.193,0.0
19.341,1.562,-0.277,0.0
17.424,1.411,-0.348,0.0
32.854,2.676,0.247,0.0
27.746,2.266,0.051,0.0
24.347,1.994,-0.091,0.0
21.792,1.789,-0.207,0.0
19.076,1.571,-0.289,0.0
17.121,1.414,-0.357,0.0
32.102,2.666,0.214,0.0
27.166,2.262,0.027,1.0
24.114,2.013,-0.112,1.0
21.462,1.796,-0.223,0.0
18.803,1.577,-0.302,0.0
16.91,1.423,-0.367,0.0
30.85,2.61,0.178,0.0
26.737,2.267,0.003,1.0
23.756,2.019,-0.131,0.0
21.055,1.794,-0.238,0.0
18.342,1.567,-0.311,0.0
16.676,1.428,-0.377,0.0
30.649,2.639,0.149,0.0
26.222,2.263,-0.02,1.0
22.919,1.983,-0.148,0.0
20.363,1.766,-0.249,0.0
18.052,1.569,-0.323,0.0
16.393,1.429,-0.386,0.0
29.177,2.556,0.114,1.0
25.836,2.268,-0.045,1.0
22.671,1.995,-0.168,1.0
19.896,1.755,-0.262,0.0
17.742,1.568,-0.334,0.0
16.163,1.432,-0.396,0.0
29.039,2.586,0.085,1.0
25.172,2.246,-0.068,0.0
22.175,1.983,-0.185,3.0
19.49,1.747,-0.276,0.0
17.458,1.568,-0.346,0.0
15.905,1.432,-0.406,0.0
28.559,2.583,0.056,1.0
24.75,2.243,-0.091,0.0
21.776,1.978,-0.204,3.0
19.075,1.736,-0.288,0.0
17.212,1.57,-0.358,0.0
15.718,1.437,-0.417,0.0
27.385,2.515,0.026,0.0
24.219,2.228,-0.114,0.0
21.447,1.977,-0.222,2.0
18.587,1.717,-0.3,0.0
16.889,1.563,-0.369,0.0
15.521,1.44,-0.427,0.0
26.276,2.448,-0.001,1.0
23.704,2.212,-0.135,0.0
21.166,1.979,-0.241,0.0
18.336,1.718,-0.315,0.0
16.573,1.556,-0.379,0.0
15.253,1.435,-0.436,0.0
25.951,2.451,-0.028,1.0
22.648,2.143,-0.153,0.0
20.384,1.933,-0.254,0.0
17.885,1.699,-0.326,0.0
16.286,1.55,-0.39,0.0
15.013,1.431,-0.445,0.0
25.568,2.447,-0.055,1.0
22.196,2.128,-0.174,3.0
19.787,1.901,-0.268,0.0
17.508,1.685,-0.338,0.0
16.044,1.547,-0.401,0.0
14.798,1.429,-0.455,0.0
24.731,2.398,-0.08,0.0
21.705,2.108,-0.194,5.0
19.271,1.875,-0.282,0.0
17.224,1.678,-0.352,0.0
15.831,1.545,-0.414,0.0
14.591,1.427,-0.465,0.0
24.234,2.378,-0.105,0.0
21.426,2.106,-0.215,4.0
18.777,1.849,-0.296,0.0
16.938,1.67,-0.365,0.0
15.606,1.542,-0.425,0.0
14.31,1.416,-0.472,0.0
23.752,2.358,-0.13,0.0
21.043,2.092,-0.235,0.0
18.302,1.822,-0.309,0.0
16.641,1.66,-0.377,0.0
15.329,1.531,-0.435,0.0
14.078,1.409,-0.48,0.0
22.573,2.266,-0.149,0.0
20.4,2.05,-0.251,0.0
17.932,1.805,-0.323,0.0
16.426,1.656,-0.391,0.0
15.03,1.518,-0.444,0.0
13.869,1.403,-0.489,0.0
22.087,2.24,-0.171,2.0
19.726,2.004,-0.266,0.0
17.566,1.787,-0.337,0.0
16.056,1.635,-0.401,0.0
14.84,1.514,-0.456,0.0
13.666,1.396,-0.498,0.0
21.759,2.23,-0.194,4.0
19.358,1.986,-0.284,0.0
17.281,1.775,-0.352,0.0
15.831,1.629,-0.414,0.0
14.528,1.497,-0.463,0.0
13.444,1.387,-0.506,0.0
21.344,2.208,-0.216,2.0
18.848,1.952,-0.298,0.0
17.003,1.763,-0.366,0.0
15.575,1.617,-0.426,0.0
14.275,1.484,-0.472,0.0
13.279,1.382,-0.515,0.0
20.95,2.186,-0.237,0.0
18.351,1.917,-0.312,0.0
16.716,1.748,-0.38,0.0
15.266,1.599,-0.436,0.0
13.987,1.467,-0.479,0.0
13.117,1.377,-0.525,0.0
20.044,2.11,-0.251,0.0
17.892,1.885,-0.326,0.0
16.256,1.715,-0.389,0.0
14.975,1.581,-0.446,0.0
13.809,1.46,-0.49,0.0
12.847,1.36,-0.529,0.0
19.617,2.081,-0.269,0.0
17.508,1.859,-0.34,0.0
16.055,1.707,-0.404,0.0
14.691,1.564,-0.455,0.0
13.615,1.451,-0.5,0.0
12.696,1.354,-0.539,0.0
19.116,2.043,-0.285,0.0
17.194,1.84,-0.355,0.0
15.77,1.689,-0.416,0.0
14.341,1.537,-0.462,0.0
13.413,1.44,-0.509,0.0
12.557,1.349,-0.548,0.0
18.58,2.0,-0.3,0.0
16.906,1.821,-0.37,0.0
15.499,1.672,-0.428,0.0
14.211,1.534,-0.475,0.0
13.267,1.434,-0.52,0.0
12.412,1.343,-0.557,0.0
18.223,1.974,-0.317,0.0
16.493,1.789,-0.381,0.0
15.216,1.652,-0.439,0.0
13.975,1.518,-0.485,0.0
13.02,1.416,-0.526,0.0
12.184,1.327,-0.562,0.0
17.701,1.93,-0.33,0.0
16.238,1.772,-0.395,0.0
14.905,1.628,-0.448,0.0
13.765,1.505,-0.495,0.0
12.821,1.403,-0.534,0.0
12.033,1.318,-0.57,0.0
17.396,1.907,-0.346,0.0
15.949,1.75,-0.408,0.0
14.667,1.611,-0.46,0.0
13.448,1.478,-0.5,0.0
12.628,1.389,-0.542,0.0
11.884,1.309,-0.578,0.0
17.004,1.874,-0.359,0.0
15.652,1.726,-0.42,0.0
14.348,1.584,-0.468,0.0
13.304,1.47,-0.511,0.0
12.48,1.38,-0.551,0.0
11.675,1.292,-0.583,0.0
16.799,1.861,-0.376,0.0
15.348,1.701,-0.432,0.0
14.039,1.557,-0.475,0.0
13.161,1.461,-0.522,0.0
12.305,1.367,-0.559,0.0
11.517,1.28,-0.589,0.0
16.363,1.82,-0.387,0.0
15.044,1.674,-0.442,0.0
13.847,1.542,-0.486,0.0
12.882,1.436,-0.527,0.0
12.108,1.351,-0.565,0.0
11.347,1.267,-0.595,0.0
16.086,1.796,-0.4,0.0
14.8,1.654,-0.453,0.0
13.597,1.52,-0.494,0.0
12.777,1.429,-0.539,0.0
11.969,1.34,-0.574,0.0
11.194,1.254,-0.601,0.0
15.771,1.768,-0.412,0.0
14.423,1.617,-0.46,0.0
13.419,1.505,-0.505,0.0
12.561,1.41,-0.546,0.0
11.776,1.323,-0.58,0.0
11.059,1.243,-0.608,0.0
15.469,1.739,-0.424,0.0
14.194,1.596,-0.47,0.0
13.266,1.493,-0.516,0.0
12.418,1.398,-0.555,0.0
11.625,1.31,-0.587,0.0
10.95,1.234,-0.616,0.0
15.243,1.718,-0.437,0.0
13.963,1.575,-0.48,0.0
13.003,1.467,-0.522,0.0
12.201,1.377,-0.561,0.0
11.45,1.293,-0.592,0.0
10.823,1.223,-0.622,0.0
14.974,1.692,-0.448,0.0
13.708,1.549,-0.489,0.0
12.864,1.455,-0.532,0.0
12.037,1.362,-0.569,0.0
11.294,1.278,-0.598,0.0
10.696,1.211,-0.628,0.0
14.676,1.661,-0.457,0.0
13.525,1.531,-0.499,0.0
12.678,1.436,-0.54,0.0
11.81,1.338,-0.573,0.0
11.09,1.257,-0.601,0.0
10.579,1.2,-0.635,0.0
14.405,1.633,-0.467,0.0
13.351,1.514,-0.509,0.0
12.52,1.42,-0.549,0.0
11.716,1.329,-0.582,0.0
11.024,1.251,-0.611,0.0
10.44,1.186,-0.639,0.0
14.072,1.597,-0.473,0.0
13.17,1.495,-0.518,0.0
12.388,1.407,-0.559,0.0
11.516,1.308,-0.587,0.0
10.898,1.238,-0.618,0.0
10.33,1.174,-0.645,0.0
13.88,1.576,-0.484,0.0
12.933,1.469,-0.525,0.0
12.16,1.381,-0.563,0.0
11.399,1.295,-0.595,0.0
10.791,1.227,-0.625,0.0
10.139,1.153,-0.646,0.0
13.654,1.551,-0.492,0.0
12.758,1.449,-0.533,0.0
12.002,1.364,-0.571,0.0
11.255,1.279,-0.601,0.0
10.654,1.211,-0.63,0.0
10.05,1.143,-0.652,0.0
13.518,1.535,-0.504,0.0
12.584,1.429,-0.541,0.0
11.798,1.34,-0.575,0.0
11.066,1.257,-0.604,0.0
10.518,1.195,-0.635,0.0
9.937,1.13,-0.657,0.0
13.303,1.51,-0.512,0.0
12.459,1.414,-0.55,0.0
11.64,1.321,-0.581,0.0
10.989,1.248,-0.613,0.0
10.404,1.181,-0.64,0.0
9.799,1.113,-0.659,0.0
13.089,1.484,-0.519,0.0
12.322,1.397,-0.559,0.0
11.521,1.307,-0.589,0.0
10.857,1.231,-0.618,0.0
10.256,1.163,-0.643,0.0
9.715,1.102,-0.665,0.0
12.886,1.459,-0.526,0.0
12.095,1.37,-0.563,0.0
11.323,1.282,-0.592,0.0
10.739,1.216,-0.624,0.0
10.21,1.157,-0.652,0.0
9.575,1.085,-0.667,0.0
12.721,1.438,-0.534,0.0
11.97,1.353,-0.571,0.0
11.166,1.262,-0.596,0.0
10.614,1.2,-0.629,0.0
10.058,1.137,-0.654,0.0
9.478,1.072,-0.671,0.0
12.564,1.418,-0.541,0.0
11.808,1.332,-0.577,0.0
11.064,1.248,-0.604,0.0
10.452,1.179,-0.631,0.0
9.959,1.123,-0.659,0.0
9.415,1.062,-0.677,0.0
12.44,1.4,-0.55,0.0
11.689,1.315,-0.584,0.0
10.967,1.234,-0.611,0.0
10.322,1.161,-0.635,0.0
9.808,1.103,-0.66,0.0
9.35,1.052,-0.683,0.0
12.261,1.376,-0.555,0.0
11.453,1.285,-0.585,0.0
10.871,1.219,-0.617,0.0
10.212,1.145,-0.639,0.0
9.705,1.088,-0.664,0.0
9.271,1.04,-0.687,0.0
12.139,1.358,-0.563,0.0
11.366,1.271,-0.593,0.0
10.76,1.203,-0.623,0.0
10.111,1.13,-0.644,0.0
9.592,1.072,-0.666,0.0
0.0,0.0,0.0,0.0
12.023,1.34,-0.571,0.0
11.149,1.242,-0.593,0.0
10.634,1.184,-0.627,0.0
10.003,1.114,-0.648,0.0
9.485,1.056,-0.669,0.0
0.0,0.0,0.0,0.0
11.868,1.317,-0.576,0.0
11.097,1.231,-0.602,0.0
10.515,1.166,-0.63,0.0
9.907,1.099,-0.652,0.0
9.398,1.042,-0.672,0.0
0.0,0.0,0.0,0.0
11.643,1.287,-0.576,0.0
10.957,1.21,-0.605,0.0
10.393,1.148,-0.634,0.0
9.818,1.084,-0.656,0.0
9.332,1.03,-0.677,0.0
8.908,0.983,-0.698,0.0
11.546,1.27,-0.583,0.0
10.887,1.197,-0.612,0.0
10.306,1.132,-0.639,0.0
9.655,1.06,-0.655,0.0
9.237,1.014,-0.679,0.0
8.805,0.966,-0.698,0.0
11.462,1.254,-0.59,0.0
10.81,1.182,-0.619,0.0
10.21,1.116,-0.643,0.0
9.656,1.055,-0.664,0.0
0.0,0.0,0.0,0.0
8.741,0.954,-0.702,0.0
11.277,1.227,-0.592,0.0
10.701,1.163,-0.623,0.0
10.014,1.088,-0.64,0.0
9.559,1.038,-0.667,0.0
0.0,0.0,0.0,0.0
0.0,0.0,0.0,0.0
11.14,1.205,-0.595,0.0
10.615,1.147,-0.627,0.0
9.966,1.076,-0.646,0.0
9.477,1.023,-0.67,0.0
0.0,0.0,0.0,0.0
8.58,0.925,-0.705,0.0
11.078,1.19,-0.601,0.0
10.471,1.124,-0.628,0.0
9.935,1.066,-0.653,0.0
9.386,1.006,-0.672,0.0
8.91,0.955,-0.689,0.0
8.569,0.918,-0.711,0.0
10.983,1.172,-0.606,0.0
10.426,1.112,-0.635,0.0
9.838,1.048,-0.655,0.0
9.361,0.997,-0.678,0.0
8.898,0.947,-0.695,0.0
8.453,0.899,-0.709,0.0
10.875,1.152,-0.609,0.0
10.328,1.093,-0.637,0.0
9.728,1.029,-0.656,0.0
9.325,0.986,-0.683,0.0
8.846,0.934,-0.699,0.0
8.429,0.89,-0.714,0.0
10.809,1.137,-0.614,0.0
10.243,1.076,-0.641,0.0
9.706,1.019,-0.663,0.0
0.0,0.0,0.0,0.0
8.78,0.92,-0.701,0.0
8.39,0.879,-0.718,0.0
10.741,1.12,-0.619,0.0
10.137,1.056,-0.642,0.0
9.595,0.999,-0.662,0.0
0.0,0.0,0.0,0.0
8.734,0.908,-0.704,0.0
8.325,0.865,-0.719,0.0
10.657,1.102,-0.622,0.0
10.065,1.04,-0.645,0.0
9.559,0.987,-0.667,0.0
0.0,0.0,0.0,0.0
8.692,0.896,-0.707,0.0
8.263,0.851,-0.72,0.0
10.582,1.085,-0.626,0.0
9.963,1.02,-0.646,0.0
9.486,0.971,-0.669,0.0
0.0,0.0,0.0,0.0
8.589,0.877,-0.705,0.0
8.236,0.84,-0.723,0.0
10.523,1.069,-0.63,0.0
9.896,1.004,-0.648,0.0
9.414,0.954,-0.67,0.0
0.0,0.0,0.0,0.0
8.556,0.865,-0.708,0.0
8.194,0.828,-0.725,0.0
10.393,1.045,-0.629,0.0
9.869,0.992,-0.653,0.0
9.343,0.938,-0.672,0.0
0.0,0.0,0.0,0.0
8.47,0.848,-0.706,0.0
8.125,0.813,-0.724,0.0
10.351,1.031,-0.633,0.0
9.805,0.975,-0.655,0.0
9.343,0.928,-0.677,0.0
0.0,0.0,0.0,0.0
8.446,0.837,-0.71,0.0
8.137,0.806,-0.73,0.0
10.328,1.018,-0.638,0.0
9.75,0.96,-0.657,0.0
9.253,0.91,-0.676,0.0
0.0,0.0,0.0,0.0
8.43,0.827,-0.713,0.0
8.095,0.793,-0.731,0.0
10.199,0.994,-0.635,0.0
9.698,0.944,-0.659,0.0
0.0,0.0,0.0,0.0
8.757,0.85,-0.696,0.0
8.359,0.811,-0.712,0.0
8.096,0.784,-0.736,0.0
10.192,0.982,-0.64,0.0
9.635,0.927,-0.66,0.0
0.0,0.0,0.0,0.0
8.739,0.839,-0.699,0.0
8.362,0.802,-0.716,0.0
7.996,0.766,-0.73,0.0
10.117,0.964,-0.641,0.0
9.609,0.914,-0.663,0.0
0.0,0.0,0.0,0.0
0.0,0.0,0.0,0.0
8.294,0.786,-0.714,0.0
0.0,0.0,0.0,0.0
10.051,0.946,-0.641,0.0
9.54,0.897,-0.662,0.0
0.0,0.0,0.0,0.0
8.696,0.815,-0.703,0.0
8.258,0.773,-0.715,0.0
0.0,0.0,0.0,0.0
9.988,0.928,-0.641,0.0
9.524,0.884,-0.665,0.0
0.0,0.0,0.0,0.0
0.0,0.0,0.0,0.0
8.261,0.763,-0.718,0.0
0.0,0.0,0.0,0.0
10.003,0.918,-0.646,0.0
9.48,0.868,-0.666,0.0
8.96,0.819,-0.68,0.0
0.0,0.0,0.0,0.0
8.254,0.752,-0.721,0.0
0.0,0.0,0.0,0.0
9.955,0.901,-0.646,0.0
9.508,0.859,-0.671,0.0
9.042,0.815,-0.689,0.0
0.0,0.0,0.0,0.0
8.261,0.742,-0.724,0.0
0.0,0.0,0.0,0.0
9.941,0.887,-0.648,0.0
9.453,0.842,-0.67,0.0
8.925,0.793,-0.683,0.0
0.0,0.0,0.0,0.0
8.214,0.728,-0.722,0.0
0.0,0.0,0.0,0.0
9.896,0.87,-0.648,0.0
9.477,0.832,-0.674,0.0
8.927,0.782,-0.685,0.0
8.502,0.744,-0.702,0.0
8.178,0.714,-0.721,0.0
0.0,0.0,0.0,0.0
9.855,0.854,-0.648,0.0
9.43,0.815,-0.673,0.0
8.949,0.772,-0.689,0.0
8.499,0.732,-0.703,0.0
8.19,0.704,-0.724,0.0
0.0,0.0,0.0,0.0
9.834,0.839,-0.648,0.0
9.372,0.798,-0.671,0.0
8.949,0.76,-0.691,0.0
0.0,0.0,0.0,0.0
8.182,0.692,-0.725,0.0
0.0,0.0,0.0,0.0
9.803,0.823,-0.648,0.0
9.363,0.784,-0.671,0.0
8.937,0.747,-0.691,0.0
0.0,0.0,0.0,0.0
0.0,0.0,0.0,0.0
0.0,0.0,0.0,0.0
9.839,0.813,-0.651,0.0
9.356,0.771,-0.672,0.0
8.89,0.731,-0.688,0.0
0.0,0.0,0.0,0.0
0.0,0.0,0.0,0.0
0.0,0.0,0.0,0.0
9.789,0.795,-0.648,0.0
9.384,0.761,-0.674,0.0
8.931,0.722,-0.692,0.0
0.0,0.0,0.0,0.0
0.0,0.0,0.0,0.0
0.0,0.0,0.0,0.0
9.865,0.788,-0.654,0.0
9.33,0.743,-0.671,0.0
8.907,0.708,-0.69,0.0
0.0,0.0,0.0,0.0
0.0,0.0,0.0,0.0
0.0,0.0,0.0,0.0
9.797,0.768,-0.649,0.0
9.348,0.731,-0.672,0.0
8.919,0.696,-0.691,0.0
8.437,0.657,-0.702,0.0
0.0,0.0,0.0,0.0
0.0,0.0,0.0,0.0
9.818,0.756,-0.65,0.0
9.356,0.718,-0.672,0.0
8.886,0.681,-0.688,0.0
0.0,0.0,0.0,0.0
0.0,0.0,0.0,0.0
0.0,0.0,0.0,0.0
9.831,0.743,-0.65,0.0
9.311,0.701,-0.667,0.0
8.886,0.668,-0.687,0.0
8.482,0.636,-0.704,0.0
0.0,0.0,0.0,0.0
0.0,0.0,0.0,0.0
9.842,0.729,-0.649,0.0
9.399,0.694,-0.672,0.0
8.905,0.656,-0.687,0.0
0.0,0.0,0.0,0.0
0.0,0.0,0.0,0.0
0.0,0.0,0.0,0.0
9.859,0.716,-0.649,0.0
9.407,0.681,-0.671,0.0
0.0,0.0,0.0,0.0
0.0,0.0,0.0,0.0
0.0,0.0,0.0,0.0
0.0,0.0,0.0,0.0
9.833,0.699,-0.645,0.0
9.425,0.668,-0.67,0.0
0.0,0.0,0.0,0.0
0.0,0.0,0.0,0.0
0.0,0.0,0.0,0.0
9.924,0.691,-0.648,0.0
9.437,0.655,-0.669,0.0
8.987,0.622,-0.686,0.0
0.0,0.0,0.0,0.0
0.0,0.0,0.0,0.0
9.972,0.679,-0.648,0.0
9.394,0.638,-0.663,0.0
8.984,0.608,-0.683,0.0
0.0,0.0,0.0,0.0
0.0,0.0,0.0,0.0
0.0,0.0,0.0,0.0
9.505,0.631,-0.667,0.0
9.043,0.599,-0.684,0.0
0.0,0.0,0.0,0.0
0.0,0.0,0.0,0.0
7.976,0.523,-0.737,0.0
0.0,0.0,0.0,0.0
9.48,0.615,-0.661,0.0
0.0,0.0,0.0,0.0
0.0,0.0,0.0,0.0
0.0,0.0,0.0,0.0
10.013,0.637,-0.639,0.0
9.556,0.606,-0.662,0.0
0.0,0.0,0.0,0.0
0.0,0.0,0.0,0.0
0.0,0.0,0.0,0.0
0.0,0.0,0.0,0.0
10.058,0.624,-0.637,0.0
9.585,0.593,-0.66,0.0
0.0,0.0,0.0,0.0
0.0,0.0,0.0,0.0
0.0,0.0,0.0,0.0
0.0,0.0,0.0,0.0
10.155,0.615,-0.638,0.0
0.0,0.0,0.0,0.0
9.169,0.551,-0.677,0.0
0.0,0.0,0.0,0.0
0.0,0.0,0.0,0.0
0.0,0.0,0.0,0.0
10.147,0.599,-0.631,0.0
0.0,0.0,0.0,0.0
9.237,0.541,-0.676,0.0
8.718,0.508,-0.687,0.0
0.0,0.0,0.0,0.0
0.0,0.0,0.0,0.0
10.217,0.587,-0.629,0.0
9.734,0.557,-0.653,0.0
9.23,0.526,-0.67,0.0
0.0,0.0,0.0,0.0
0.0,0.0,0.0,0.0
0.0,0.0,0.0,0.0
10.32,0.577,-0.629,0.0
0.0,0.0,0.0,0.0
0.0,0.0,0.0,0.0
0.0,0.0,0.0,0.0
0.0,0.0,0.0,0.0
0.0,0.0,0.0,0.0
10.363,0.564,-0.625,0.0
0.0,0.0,0.0,0.0
9.363,0.505,-0.667,0.0
0.0,0.0,0.0,0.0
8.545,0.457,-0.703,0.0
0.0,0.0,0.0,0.0
10.36,0.548,-0.617,0.0
10.001,0.527,-0.65,0.0
0.0,0.0,0.0,0.0
0.0,0.0,0.0,0.0
0.0,0.0,0.0,0.0
0.0,0.0,0.0,0.0
10.52,0.54,-0.618,0.0
0.0,0.0,0.0,0.0
0.0,0.0,0.0,0.0
0.0,0.0,0.0,0.0
8.697,0.438,-0.702,0.0
8.271,0.415,-0.712,0.0
10.619,0.529,-0.615,0.0
0.0,0.0,0.0,0.0
0.0,0.0,0.0,0.0
0.0,0.0,0.0,0.0
0.0,0.0,0.0,0.0
8.376,0.407,-0.714,0.0
10.724,0.518,-0.612,0.0
10.197,0.49,-0.637,0.0
9.64,0.461,-0.655,0.0
0.0,0.0,0.0,0.0
0.0,0.0,0.0,0.0
8.414,0.396,-0.71,0.0
10.775,0.504,-0.605,0.0
10.317,0.48,-0.635,0.0
9.695,0.449,-0.65,0.0
0.0,0.0,0.0,0.0
8.829,0.405,-0.688,0.0
8.463,0.386,-0.706,0.0
10.888,0.493,-0.601,0.0
10.363,0.467,-0.628,0.0
9.859,0.442,-0.651,0.0
0.0,0.0,0.0,0.0
0.0,0.0,0.0,0.0
8.52,0.376,-0.702,0.0
11.054,0.484,-0.599,0.0
10.446,0.455,-0.623,0.0
9.88,0.428,-0.642,0.0
0.0,0.0,0.0,0.0
0.0,0.0,0.0,0.0
8.645,0.368,-0.703,0.0
11.134,0.471,-0.592,0.0
10.485,0.441,-0.614,0.0
10.039,0.419,-0.642,0.0
0.0,0.0,0.0,0.0
0.0,0.0,0.0,0.0
8.667,0.356,-0.696,0.0
11.237,0.458,-0.586,0.0
10.574,0.429,-0.608,0.0
10.108,0.407,-0.636,0.0
0.0,0.0,0.0,0.0
0.0,0.0,0.0,0.0
8.771,0.347,-0.694,0.0
11.398,0.448,-0.581,0.0
10.704,0.418,-0.603,0.0
10.217,0.397,-0.631,0.0
0.0,0.0,0.0,0.0
0.0,0.0,0.0,0.0
8.843,0.337,-0.69,0.0
11.55,0.437,-0.576,0.0
10.825,0.407,-0.598,0.0
10.337,0.386,-0.626,0.0
0.0,0.0,0.0,0.0
0.0,0.0,0.0,0.0
8.87,0.325,-0.682,0.0
11.702,0.426,-0.57,0.0
11.047,0.4,-0.597,0.0
10.39,0.373,-0.617,0.0
9.987,0.357,-0.648,0.0
9.423,0.334,-0.662,0.0
8.989,0.317,-0.68,0.0
11.836,0.414,-0.562,0.0
11.144,0.387,-0.588,0.0
10.571,0.365,-0.615,0.0
0.0,0.0,0.0,0.0
9.583,0.326,-0.661,0.0
9.026,0.305,-0.671,0.0
11.997,0.403,-0.554,0.0
11.335,0.378,-0.584,0.0
10.681,0.353,-0.607,0.0
10.141,0.333,-0.632,0.0
9.705,0.317,-0.657,0.0
0.0,0.0,0.0,0.0
12.196,0.392,-0.547,0.0
11.482,0.366,-0.576,0.0
10.822,0.343,-0.601,0.0
10.263,0.323,-0.626,0.0
9.785,0.306,-0.649,0.0
0.0,0.0,0.0,0.0
12.445,0.383,-0.542,0.0
11.64,0.355,-0.569,0.0
11.074,0.336,-0.6,0.0
10.383,0.312,-0.619,0.0
9.883,0.295,-0.642,0.0
9.482,0.281,-0.666,0.0
12.585,0.37,-0.531,0.0
11.78,0.344,-0.559,0.0
11.165,0.323,-0.589,0.0
10.533,0.302,-0.613,0.0
10.055,0.286,-0.639,0.0
9.577,0.271,-0.66,0.0
12.79,0.359,-0.521,0.0
12.019,0.334,-0.553,0.0
11.388,0.314,-0.585,0.0
10.683,0.292,-0.607,0.0
10.243,0.278,-0.636,0.0
9.781,0.263,-0.659,0.0
12.985,0.347,-0.51,0.0
12.287,0.326,-0.548,0.0
11.559,0.304,-0.577,0.0
10.898,0.284,-0.603,0.0
10.302,0.266,-0.625,0.0
9.802,0.251,-0.646,0.0
13.175,0.335,-0.499,0.0
12.446,0.314,-0.537,0.0
11.734,0.293,-0.568,0.0
11.111,0.275,-0.598,0.0
10.512,0.258,-0.621,0.0
10.023,0.244,-0.646,0.0
13.457,0.325,-0.489,0.0
12.652,0.302,-0.526,0.0
11.889,0.282,-0.558,0.0
11.201,0.263,-0.586,0.0
10.601,0.247,-0.61,0.0
10.144,0.234,-0.638,0.0
13.746,0.314,-0.478,0.0
12.886,0.292,-0.516,0.0
12.163,0.273,-0.551,0.0
11.391,0.253,-0.578,0.0
10.801,0.238,-0.605,0.0
10.225,0.223,-0.627,0.0
13.949,0.302,-0.463,0.0
13.163,0.282,-0.507,0.0
12.37,0.262,-0.541,0.0
11.672,0.245,-0.573,0.0
11.032,0.229,-0.6,0.0
10.408,0.214,-0.621,0.0
14.301,0.292,-0.452,0.0
13.349,0.27,-0.492,0.0
12.525,0.25,-0.528,0.0
11.809,0.234,-0.561,0.0
11.186,0.219,-0.59,0.0
10.575,0.205,-0.614,0.0
14.695,0.282,-0.44,0.0
13.683,0.26,-0.482,0.0
12.884,0.242,-0.521,0.0
12.062,0.224,-0.553,0.0
11.429,0.21,-0.584,0.0
10.788,0.196,-0.608,0.0
15.067,0.272,-0.427,0.0
13.948,0.249,-0.468,0.0
13.037,0.23,-0.506,0.0
12.329,0.215,-0.544,0.0
11.64,0.201,-0.575,0.0
11.01,0.188,-0.602,0.0
15.502,0.262,-0.413,0.0
14.334,0.239,-0.457,0.0
13.389,0.221,-0.497,0.0
12.574,0.205,-0.534,0.0
11.84,0.191,-0.565,0.0
11.196,0.178,-0.593,0.0
15.893,0.251,-0.396,0.0
14.676,0.229,-0.442,0.0
13.613,0.21,-0.482,0.0
12.797,0.195,-0.521,0.0
12.046,0.181,-0.554,0.0
11.402,0.169,-0.584,0.0
16.332,0.24,-0.378,0.0
15.045,0.218,-0.427,0.0
13.976,0.2,-0.47,0.0
13.058,0.185,-0.509,0.0
12.352,0.172,-0.546,0.0
11.595,0.16,-0.573,0.0
16.678,0.227,-0.356,0.0
15.479,0.208,-0.412,0.0
14.276,0.189,-0.454,0.0
13.353,0.175,-0.496,0.0
12.562,0.162,-0.532,0.0
11.885,0.151,-0.566,0.0
17.102,0.216,-0.335,0.0
15.904,0.198,-0.394,0.0
14.67,0.18,-0.44,0.0
13.648,0.165,-0.482,0.0
12.805,0.152,-0.519,0.0
12.096,0.142,-0.554,0.0
17.768,0.206,-0.315,0.0
16.348,0.187,-0.375,0.0
15.108,0.17,-0.426,0.0
13.982,0.155,-0.468,0.0
13.105,0.143,-0.507,0.0
12.355,0.133,-0.542,0.0
18.473,0.196,-0.294,0.0
16.76,0.175,-0.354,0.0
15.598,0.16,-0.41,0.0
14.285,0.145,-0.452,0.0
13.437,0.134,-0.495,0.0
12.603,0.123,-0.53,0.0
19.303,0.187,-0.271,0.0
17.256,0.164,-0.332,0.0
15.98,0.149,-0.39,0.0
14.724,0.135,-0.437,0.0
13.77,0.124,-0.481,0.0
12.907,0.114,-0.518,0.0
20.257,0.178,-0.245,0.0
17.956,0.154,-0.311,0.0
16.488,0.139,-0.371,0.0
15.242,0.126,-0.423,0.0
14.107,0.115,-0.465,0.0
13.21,0.105,-0.504,0.0
21.488,0.169,-0.219,1.0
18.75,0.145,-0.288,0.0
16.902,0.128,-0.347,0.0
15.674,0.116,-0.405,0.0
14.457,0.105,-0.449,0.0
13.51,0.096,-0.49,0.0
22.311,0.157,-0.184,1.0
19.529,0.134,-0.262,0.0
17.421,0.117,-0.324,0.0
16.198,0.107,-0.387,0.0
14.924,0.096,-0.434,0.0
13.894,0.088,-0.476,0.0
23.556,0.146,-0.148,0.0
20.691,0.125,-0.237,1.0
18.293,0.108,-0.304,0.0
16.604,0.096,-0.364,0.0
15.44,0.087,-0.419,0.0
14.242,0.079,-0.46,0.0
24.664,0.134,-0.106,0.0
21.769,0.115,-0.206,3.0
19.124,0.099,-0.28,0.0
17.079,0.086,-0.34,0.0
15.884,0.078,-0.399,0.0
14.648,0.07,-0.443,0.0
25.732,0.12,-0.059,0.0
23.034,0.105,-0.172,1.0
20.158,0.089,-0.255,0.0
17.829,0.076,-0.319,0.0
16.384,0.068,-0.378,0.0
15.196,0.061,-0.429,0.0
26.933,0.106,-0.008,0.0
23.949,0.092,-0.13,0.0
21.193,0.078,-0.225,4.0
18.558,0.066,-0.295,0.0
16.836,0.058,-0.354,0.0
15.664,0.052,-0.41,0.0
28.466,0.093,0.049,1.0
25.332,0.08,-0.086,0.0
22.203,0.067,-0.19,0.0
19.579,0.057,-0.271,0.0
17.426,0.049,-0.331,0.0
16.129,0.043,-0.39,0.0
28.765,0.075,0.108,2.0
26.36,0.066,-0.035,0.0
23.513,0.056,-0.153,1.0
20.811,0.048,-0.245,1.0
18.217,0.04,-0.308,0.0
16.65,0.034,-0.368,0.0
30.421,0.061,0.177,0.0
27.55,0.052,0.019,0.0
24.556,0.044,-0.109,0.0
21.554,0.037,-0.209,2.0
19.143,0.03,-0.284,0.0
17.121,0.026,-0.343,0.0
0.0,0.0,0.0,0.0
28.695,0.038,0.079,2.0
25.792,0.032,-0.061,0.0
23.155,0.026,-0.177,0.0
20.115,0.021,-0.257,0.0
17.865,0.017,-0.321,0.0
33.523,0.03,0.334,0.0
30.124,0.024,0.145,0.0
26.841,0.019,-0.008,0.0
23.848,0.015,-0.132,0.0
21.165,0.011,-0.227,3.0
18.595,0.008,-0.295,0.0
36.236,0.014,0.437,0.0
31.01,0.009,0.214,0.0
28.277,0.006,0.05,1.0
25.262,0.003,-0.087,0.0
22.218,0.001,-0.191,0.0
19.693,0.0,-0.271,0.0
39.442,-0.002,0.559,0.0
33.232,-0.004,0.3,0.0
28.769,-0.006,0.111,0.0
26.379,-0.007,-0.036,0.0
23.677,-0.008,-0.154,1.0
20.928,-0.009,-0.244,1.0
42.56,-0.021,0.692,0.0
0.0,0.0,0.0,0.0
30.627,-0.019,0.183,0.0
27.67,-0.019,0.02,0.0
24.798,-0.018,-0.109,0.0
21.642,-0.017,-0.206,0.0
0.0,0.0,0.0,0.0
0.0,0.0,0.0,0.0
32.987,-0.033,0.266,0.0
28.761,-0.03,0.081,5.0
26.012,-0.029,-0.059,0.0
23.492,-0.027,-0.174,0.0
0.0,0.0,0.0,0.0
40.835,-0.053,0.626,0.0
0.0,0.0,0.0,0.0
28.904,-0.04,0.143,1.0
27.085,-0.039,-0.004,0.0
24.229,-0.036,-0.128,0.0
0.0,0.0,0.0,0.0
43.706,-0.071,0.764,0.0
36.729,-0.061,0.453,0.0
31.618,-0.054,0.224,0.0
28.689,-0.05,0.056,4.0
25.414,-0.045,-0.08,0.0
0.0,0.0,0.0,0.0
0.0,0.0,0.0,0.0
40.343,-0.078,0.583,0.0
33.27,-0.065,0.307,0.0
28.86,-0.057,0.118,5.0
26.608,-0.054,-0.027,0.0
79.012,-0.166,2.126,3.0
0.0,0.0,0.0,0.0
43.562,-0.094,0.723,0.0
0.0,0.0,0.0,0.0
31.468,-0.07,0.195,0.0
28.191,-0.063,0.03,1.0
82.801,-0.191,2.404,3.0
0.0,0.0,0.0,0.0
47.889,-0.113,0.897,0.0
0.0,0.0,0.0,0.0
33.235,-0.079,0.277,1.0
28.788,-0.069,0.092,6.0
83.282,-0.207,2.594,5.0
79.233,-0.198,2.059,1.0
0.0,0.0,0.0,0.0
0.0,0.0,0.0,0.0
34.536,-0.087,0.361,0.0
30.441,-0.077,0.161,0.0
105.438,-0.276,3.509,3.0
79.43,-0.208,2.235,3.0
0.0,0.0,0.0,0.0
0.0,0.0,0.0,0.0
0.0,0.0,0.0,0.0
31.752,-0.084,0.236,0.0
108.778,-0.295,3.851,7.0
83.081,-0.225,2.514,7.0
0.0,0.0,0.0,0.0
0.0,0.0,0.0,0.0
40.104,-0.108,0.59,0.0
33.428,-0.09,0.32,0.0
175.034,-0.485,6.575,5.0
0.0,0.0,0.0,0.0
79.423,-0.219,2.163,3.0
57.689,-0.158,1.269,0.0
43.519,-0.119,0.733,0.0
36.495,-0.099,0.427,0.0
0.0,0.0,0.0,0.0
108.613,-0.301,3.75,8.0
82.842,-0.229,2.434,6.0
0.0,0.0,0.0,0.0
0.0,0.0,0.0,0.0
39.932,-0.108,0.552,0.0
0.0,0.0,0.0,0.0
0.0,0.0,0.0,0.0
83.349,-0.227,2.625,3.0
79.347,-0.214,2.082,2.0
0.0,0.0,0.0,0.0
0.0,0.0,0.0,0.0
195.32,-0.53,8.579,8.0
0.0,0.0,0.0,0.0
108.518,-0.288,3.647,4.0
82.807,-0.217,2.348,2.0
0.0,0.0,0.0,0.0
0.0,0.0,0.0,0.0
195.271,-0.511,8.991,4.0
0.0,0.0,0.0,0.0
108.82,-0.277,3.887,6.0
83.196,-0.209,2.533,6.0
79.135,-0.195,2.002,0.0
0.0,0.0,0.0,0.0
194.384,-0.484,9.358,6.0
195.272,-0.477,8.391,8.0
174.97,-0.42,6.616,4.0
105.316,-0.248,3.428,5.0
79.146,-0.183,2.166,3.0
0.0,0.0,0.0,0.0
194.178,-0.45,9.757,11.0
195.239,-0.443,8.8,6.0
179.118,-0.398,7.146,150.0
108.657,-0.235,3.763,9.0
82.871,-0.175,2.442,6.0
0.0,0.0,0.0,0.0
179.028,-0.379,9.368,18.0
0.0,0.0,0.0,0.0
204.216,-0.408,8.574,8.0
0.0,0.0,0.0,0.0
83.333,-0.157,2.627,3.0
78.739,-0.143,2.076,5.0
179.006,-0.335,9.738,24.0
194.36,-0.351,9.567,9.0
202.216,-0.352,8.906,10.0
179.185,-0.301,6.946,51.0
108.335,-0.175,3.639,2.0
82.79,-0.128,2.353,2.0
178.804,-0.284,10.092,18.0
202.112,-0.308,10.362,11.0
201.637,-0.292,9.29,12.0
204.165,-0.281,8.33,7.0
108.771,-0.142,3.874,11.0
83.117,-0.102,2.53,6.0
106.244,-0.135,6.213,20.0
202.224,-0.243,10.778,10.0
201.814,-0.227,9.708,16.0
202.924,-0.212,8.689,6.0
0.0,0.0,0.0,0.0
83.312,-0.074,2.705,2.0
106.285,-0.098,6.431,12.0
151.114,-0.127,8.358,25.0
201.567,-0.154,10.101,16.0
202.207,-0.137,9.061,9.0
0.0,0.0,0.0,0.0
83.357,-0.042,2.872,4.0
96.483,-0.052,6.032,15.0
151.032,-0.067,8.656,17.0
151.122,-0.054,7.876,29.0
201.705,-0.054,9.446,21.0
202.72,-0.035,8.445,9.0
108.95,-0.009,3.973,6.0
96.626,-0.01,6.235,15.0
91.441,-0.001,5.424,16.0
151.068,0.011,8.176,45.0
201.324,0.035,9.83,22.0
202.229,0.055,8.826,9.0
83.387,0.031,3.205,0.0
83.002,0.028,5.521,27.0
96.338,0.043,5.904,10.0
151.018,0.083,8.47,42.0
151.129,0.098,7.674,10.0
201.766,0.152,9.198,20.0
83.3,0.071,3.363,4.0
83.183,0.069,5.695,7.0
96.652,0.091,6.113,12.0
91.743,0.096,5.325,9.0
151.062,0.176,7.965,41.0
201.595,0.257,9.58,19.0
83.314,0.115,3.526,23.0
63.235,0.086,4.452,6.0
83.097,0.122,5.416,38.0
91.219,0.145,5.469,12.0
151.036,0.258,8.254,33.0
83.289,0.152,4.118,13.0
83.292,0.161,3.683,35.0
63.347,0.122,4.582,25.0
83.254,0.17,5.585,10.0
83.275,0.18,5.151,27.0
83.248,0.19,4.707,13.0
83.264,0.2,4.273,23.0
83.27,0.21,3.84,42.0
63.452,0.159,4.709,26.0
79.289,0.209,5.469,17.0
83.137,0.23,5.3,32.0
83.189,0.241,4.86,25.0
83.256,0.252,4.429,27.0
83.244,0.262,3.994,40.0
63.424,0.199,4.827,20.0
76.946,0.252,5.453,27.0
79.411,0.271,5.211,41.0
83.2,0.295,5.016,41.0
83.242,0.306,4.583,31.0
83.237,0.318,4.149,27.0
63.499,0.242,4.951,10.0
63.366,0.25,4.607,6.0
79.402,0.324,5.357,37.0
83.131,0.351,5.165,26.0
83.205,0.363,4.734,25.0
83.24,0.375,4.299,30.0
77.113,0.347,6.153,21.0
63.459,0.294,4.73,34.0
76.961,0.369,5.331,17.0
79.438,0.392,5.078,97.0
83.193,0.422,4.88,14.0
79.27,0.414,4.235,8.0
62.802,0.328,5.124,31.0
63.542,0.341,4.849,29.0
62.717,0.346,4.456,20.0
79.392,0.45,5.215,16.0
79.334,0.462,4.795,6.0
79.312,0.474,4.378,10.0
63.14,0.377,5.264,13.0
63.304,0.388,4.942,35.0
63.014,0.395,4.587,32.0
76.771,0.494,5.177,4.0
79.31,0.523,4.931,3.0
79.341,0.535,4.517,6.0
58.219,0.394,4.955,24.0
63.239,0.438,5.048,35.0
63.069,0.446,4.701,22.0
62.669,0.453,4.334,18.0
76.518,0.565,4.889,9.0
79.283,0.599,4.649,2.0
58.4,0.442,5.07,25.0
63.168,0.488,5.149,14.0
63.296,0.5,4.825,35.0
62.795,0.506,4.448,22.0
76.672,0.63,5.027,27.0
76.797,0.644,4.63,9.0
58.458,0.492,5.173,28.0
56.976,0.488,4.739,19.0
63.221,0.552,4.925,38.0
62.879,0.56,4.559,31.0
76.722,0.696,5.157,15.0
76.78,0.709,4.755,3.0
57.622,0.534,5.194,32.0
57.12,0.539,4.845,24.0
62.782,0.603,4.993,37.0
90.879,0.889,6.735,12.0
76.139,0.758,5.24,33.0
76.654,0.776,4.871,18.0
56.602,0.576,5.193,27.0
57.269,0.592,4.95,31.0
62.605,0.658,5.079,26.0
63.361,0.677,4.797,25.0
76.126,0.827,5.36,10.0
76.372,0.842,4.972,21.0
56.51,0.627,5.274,27.0
57.293,0.645,5.042,22.0
62.696,0.717,5.184,22.0
63.227,0.734,4.886,17.0
83.095,0.98,5.979,19.0
76.193,0.912,5.079,22.0
56.916,0.685,5.402,31.0
63.047,0.77,5.646,10.0
62.694,0.777,5.28,17.0
62.858,0.79,4.953,8.0
63.188,0.806,4.642,26.0
76.259,0.987,5.198,25.0
57.375,0.746,5.532,32.0
56.785,0.748,5.171,30.0
58.972,0.788,5.055,20.0
63.088,0.855,5.065,21.0
82.653,1.135,6.196,19.0
76.329,1.063,5.316,30.0
62.202,0.871,6.091,17.0
56.839,0.807,5.261,30.0
58.965,0.848,5.142,20.0
58.909,0.858,4.817,30.0
76.224,1.125,5.827,23.0
63.062,0.942,4.484,12.0
56.975,0.856,5.662,10.0
56.781,0.864,5.338,30.0
58.688,0.904,5.202,11.0
58.97,0.919,4.905,15.0
58.864,0.929,4.582,9.0
77.31,1.235,5.606,9.0
57.158,0.919,5.761,6.0
57.148,0.93,5.453,24.0
57.509,0.947,5.179,31.0
62.58,1.042,5.294,30.0
82.579,1.391,6.543,12.0
83.404,1.42,6.162,27.0
54.996,0.942,5.619,16.0
57.219,0.992,5.538,13.0
57.349,1.005,5.242,31.0
62.46,1.106,5.367,8.0
73.195,1.31,5.897,16.0
83.708,1.515,6.296,9.0
55.061,1.003,5.7,14.0
49.606,0.913,4.867,11.0
57.31,1.066,5.314,31.0
58.923,1.108,5.141,10.0
73.151,1.39,5.99,14.0
76.883,1.476,5.882,13.0
50.024,0.967,5.244,19.0
49.103,0.959,4.882,5.0
57.62,1.136,5.418,26.0
55.894,1.113,4.948,10.0
63.688,1.281,5.295,21.0
62.934,1.278,4.894,24.0
50.028,1.023,5.307,27.0
49.71,1.026,5.004,16.0
57.712,1.203,5.498,11.0
56.104,1.18,5.036,30.0
63.874,1.356,5.389,14.0
76.773,1.646,6.064,13.0
49.851,1.076,5.349,16.0
55.1,1.2,5.614,24.0
61.065,1.342,5.89,24.0
56.252,1.247,5.116,27.0
55.941,1.252,4.786,4.0
63.081,1.424,5.056,15.0
49.72,1.13,5.394,24.0
55.007,1.26,5.668,11.0
49.219,1.138,4.804,18.0
56.741,1.324,5.226,31.0
55.959,1.317,4.851,6.0
63.062,1.497,5.126,16.0
49.662,1.187,5.445,28.0
49.691,1.198,5.177,15.0
49.261,1.197,4.865,23.0
57.09,1.399,5.322,31.0
50.962,1.259,4.474,10.0
0.0,0.0,0.0,0.0
49.722,1.247,5.506,16.0
49.566,1.253,5.218,22.0
49.335,1.257,4.925,26.0
50.448,1.296,4.756,12.0
50.877,1.317,4.521,25.0
0.0,0.0,0.0,0.0
49.764,1.308,5.564,9.0
0.0,0.0,0.0,0.0
49.435,1.32,4.987,23.0
50.677,1.363,4.831,24.0
50.063,1.357,4.5,21.0
69.076,1.888,5.835,21.0
45.664,1.256,5.152,31.0
48.577,1.346,5.215,22.0
50.061,1.398,5.1,25.0
50.676,1.425,4.882,24.0
49.801,1.411,4.526,25.0
62.383,1.78,5.331,11.0
45.594,1.311,5.189,25.0
46.125,1.335,4.997,17.0
50.821,1.481,5.227,13.0
50.891,1.494,4.951,21.0
49.949,1.477,4.587,29.0
62.66,1.865,5.413,25.0
45.634,1.368,5.236,20.0
45.998,1.388,5.025,14.0
50.755,1.542,5.267,7.0
50.96,1.559,5.004,16.0
49.955,1.539,4.632,23.0
68.904,2.137,6.013,10.0
52.217,1.631,6.039,17.0
48.758,1.533,5.371,18.0
48.479,1.534,5.073,20.0
50.76,1.617,5.029,24.0
56.128,1.799,5.253,16.0
56.062,1.809,4.94,21.0
47.559,1.545,5.541,5.0
46.106,1.508,5.117,20.0
48.586,1.599,5.125,16.0
51.114,1.693,5.106,24.0
50.285,1.676,4.747,28.0
54.448,1.825,4.842,17.0
0.0,0.0,0.0,0.0
45.636,1.551,5.102,20.0
48.687,1.664,5.174,22.0
61.889,2.128,6.231,5.0
50.456,1.745,4.802,23.0
54.356,1.892,4.875,24.0
45.694,1.602,5.396,16.0
45.34,1.598,5.103,30.0
51.15,1.814,5.474,5.0
56.589,2.018,5.739,17.0
50.239,1.802,4.818,21.0
50.489,1.821,4.565,12.0
45.782,1.663,5.439,18.0
45.574,1.665,5.162,20.0
0.0,0.0,0.0,0.0
56.297,2.08,5.748,12.0
50.157,1.863,4.845,20.0
50.095,1.872,4.563,20.0
45.755,1.722,5.467,15.0
45.789,1.732,5.217,20.0
48.626,1.849,5.27,5.0
48.296,1.846,4.963,22.0
50.188,1.929,4.88,37.0
49.882,1.928,4.575,19.0
45.802,1.783,5.501,20.0
45.839,1.793,5.251,25.0
48.76,1.917,5.315,8.0
48.322,1.91,4.995,22.0
50.223,1.996,4.913,19.0
49.972,1.995,4.613,29.0
45.929,1.848,5.544,30.0
45.671,1.846,5.258,25.0
49.65,2.017,5.44,7.0
48.453,1.978,5.035,22.0
50.232,2.06,4.942,31.0
49.897,2.057,4.633,9.0
45.853,1.904,5.559,30.0
45.623,1.903,5.277,32.0
45.867,1.923,5.05,20.0
49.488,2.085,5.168,16.0
50.252,2.126,4.969,38.0
49.544,2.106,4.625,13.0
45.896,1.966,5.587,20.0
45.61,1.962,5.297,27.0
46.076,1.991,5.095,26.0
56.295,2.443,5.905,13.0
50.56,2.205,5.022,24.0
49.541,2.17,4.647,18.0
45.661,2.015,5.579,26.0
45.601,2.021,5.317,27.0
46.054,2.05,5.112,18.0
56.324,2.518,5.932,9.0
50.327,2.259,5.02,31.0
49.537,2.233,4.666,16.0
45.747,2.078,5.608,15.0
45.637,2.081,5.339,33.0
48.254,2.21,5.374,29.0
51.51,2.369,5.444,25.0
50.538,2.334,5.06,24.0
54.149,2.511,5.12,6.0
0.0,0.0,0.0,0.0
45.658,2.141,5.357,42.0
48.231,2.27,5.389,38.0
56.336,2.663,5.973,11.0
50.455,2.394,5.068,27.0
49.692,2.368,4.714,23.0
51.481,4.427,4.671,21.0
51.673,4.441,4.389,18.0
43.142,3.706,3.415,26.0
51.861,4.452,3.799,33.0
51.866,4.45,3.5,39.0
51.959,4.456,3.207,62.0
59.3,5.097,5.297,10.0
51.694,4.44,4.318,28.0
51.807,4.447,4.027,8.0
51.848,4.448,3.726,37.0
51.882,4.448,3.429,51.0
51.952,4.453,3.133,55.0
59.38,5.099,5.221,25.0
51.729,4.439,4.248,26.0
51.811,4.443,3.955,22.0
51.854,4.444,3.653,31.0
51.907,4.446,3.358,55.0
51.966,4.448,3.062,46.0
59.53,5.105,5.15,28.0
51.756,4.435,4.177,8.0
51.828,4.437,3.883,39.0
51.855,4.436,3.58,25.0
51.934,4.44,3.286,62.0
51.974,4.441,2.989,45.0
59.585,5.099,5.069,9.0
43.147,3.689,3.42,22.0
51.868,4.432,3.812,32.0
51.877,4.429,3.507,38.0
51.949,4.432,3.212,62.0
51.98,4.431,2.914,50.0
51.711,4.415,4.324,36.0
51.849,4.422,4.035,15.0
51.87,4.42,3.736,22.0
51.887,4.418,3.433,40.0
51.944,4.419,3.137,52.0
52.004,4.421,2.841,50.0
51.741,4.404,4.251,43.0
51.834,4.408,3.959,38.0
51.864,4.406,3.661,25.0
51.923,4.407,3.36,41.0
51.979,4.408,3.064,50.0
52.026,4.408,2.767,52.0
51.811,4.395,4.181,38.0
51.864,4.395,3.885,31.0
51.869,4.391,3.585,24.0
51.942,4.393,3.285,52.0
51.989,4.393,2.988,44.0
52.043,4.393,2.692,53.0
51.836,4.379,4.107,40.0
51.878,4.378,3.81,28.0
51.887,4.374,3.51,50.0
51.959,4.375,3.21,49.0
51.999,4.374,2.912,36.0
52.054,4.375,2.615,50.0
51.864,4.362,4.032,43.0
51.885,4.358,3.733,25.0
51.92,4.356,3.436,43.0
51.971,4.356,3.134,42.0
52.033,4.356,2.837,39.0
52.079,4.355,2.54,34.0
51.89,4.342,3.957,49.0
51.895,4.337,3.657,23.0
51.962,4.337,3.362,26.0
52.0,4.335,3.059,24.0
52.073,4.336,2.763,23.0
52.147,4.337,2.466,15.0
