X,Y,Z,Reflectivity
0.0,0.0,0.0,0.0
9.69,0.392,-0.645,0.0
0.0,0.0,0.0,0.0
0.0,0.0,0.0,0.0
0.0,0.0,0.0,0.0
0.0,0.0,0.0,0.0
0.0,0.0,0.0,0.0
9.788,0.383,-0.641,0.0
0.0,0.0,0.0,0.0
0.0,0.0,0.0,0.0
0.0,0.0,0.0,0.0
0.0,0.0,0.0,0.0
0.0,0.0,0.0,0.0
9.886,0.373,-0.637,0.0
9.506,0.356,-0.664,0.0
0.0,0.0,0.0,0.0
0.0,0.0,0.0,0.0
8.299,0.305,-0.715,0.0
0.0,0.0,0.0,0.0
10.057,0.366,-0.637,0.0
0.0,0.0,0.0,0.0
0.0,0.0,0.0,0.0
0.0,0.0,0.0,0.0
0.0,0.0,0.0,0.0
8.016,0.282,-0.725,0.0
10.194,0.357,-0.634,0.0
9.653,0.336,-0.652,0.0
0.0,0.0,0.0,0.0
0.0,0.0,0.0,0.0
0.0,0.0,0.0,0.0
0.0,0.0,0.0,0.0
10.265,0.345,-0.627,0.0
9.797,0.328,-0.651,0.0
0.0,0.0,0.0,0.0
0.0,0.0,0.0,0.0
0.0,0.0,0.0,0.0
0.0,0.0,0.0,0.0
10.38,0.336,-0.621,0.0
9.796,0.314,-0.638,0.0
0.0,0.0,0.0,0.0
9.064,0.287,-0.689,0.0
8.61,0.271,-0.701,0.0
8.23,0.257,-0.714,0.0
10.502,0.326,-0.615,0.0
9.97,0.307,-0.637,0.0
9.495,0.29,-0.658,0.0
0.0,0.0,0.0,0.0
0.0,0.0,0.0,0.0
8.391,0.251,-0.717,0.0
10.619,0.316,-0.608,0.0
10.088,0.298,-0.632,0.0
9.574,0.28,-0.651,0.0
0.0,0.0,0.0,0.0
8.785,0.253,-0.692,0.0
8.407,0.241,-0.707,0.0
10.794,0.307,-0.604,0.0
10.286,0.29,-0.63,0.0
9.755,0.273,-0.65,0.0
0.0,0.0,0.0,0.0
8.871,0.245,-0.687,0.0
8.5,0.233,-0.703,0.0
10.936,0.297,-0.596,0.0
10.363,0.279,-0.62,0.0
9.95,0.266,-0.649,0.0
0.0,0.0,0.0,0.0
0.0,0.0,0.0,0.0
8.549,0.223,-0.695,0.0
11.104,0.288,-0.59,0.0
10.515,0.27,-0.615,0.0
10.0,0.255,-0.638,0.0
0.0,0.0,0.0,0.0
9.106,0.228,-0.679,0.0
0.0,0.0,0.0,0.0
11.286,0.279,-0.583,0.0
10.641,0.261,-0.606,0.0
10.178,0.247,-0.634,0.0
9.667,0.233,-0.655,0.0
9.141,0.218,-0.668,0.0
8.768,0.208,-0.687,0.0
11.459,0.27,-0.576,0.0
10.824,0.252,-0.601,0.0
10.291,0.238,-0.626,0.0
0.0,0.0,0.0,0.0
9.292,0.211,-0.665,0.0
8.841,0.199,-0.68,0.0
11.659,0.261,-0.568,0.0
11.085,0.245,-0.599,0.0
10.472,0.23,-0.621,0.0
9.953,0.216,-0.644,0.0
9.457,0.204,-0.662,0.0
0.0,0.0,0.0,0.0
11.867,0.251,-0.56,0.0
11.174,0.234,-0.586,0.0
10.613,0.22,-0.613,0.0
0.0,0.0,0.0,0.0
0.0,0.0,0.0,0.0
9.12,0.184,-0.672,0.0
12.077,0.242,-0.551,0.0
11.404,0.226,-0.58,0.0
10.778,0.212,-0.605,0.0
10.202,0.199,-0.628,0.0
9.716,0.187,-0.649,0.0
0.0,0.0,0.0,0.0
12.334,0.234,-0.543,0.0
11.613,0.218,-0.572,0.0
10.968,0.204,-0.598,0.0
10.412,0.191,-0.624,0.0
0.0,0.0,0.0,0.0
9.353,0.168,-0.659,0.0
12.531,0.224,-0.531,0.0
11.807,0.209,-0.562,0.0
11.122,0.195,-0.588,0.0
10.523,0.182,-0.613,0.0
0.0,0.0,0.0,0.0
9.56,0.162,-0.658,0.0
12.717,0.214,-0.517,0.0
12.036,0.2,-0.553,0.0
11.382,0.187,-0.582,0.0
10.687,0.174,-0.604,0.0
10.235,0.164,-0.633,0.0
9.764,0.155,-0.655,0.0
13.022,0.205,-0.507,0.0
12.296,0.192,-0.543,0.0
11.606,0.179,-0.574,0.0
11.012,0.168,-0.603,0.0
10.381,0.156,-0.623,0.0
9.854,0.146,-0.644,0.0
13.286,0.196,-0.494,0.0
12.485,0.182,-0.53,0.0
11.824,0.17,-0.564,0.0
11.125,0.158,-0.59,0.0
10.547,0.148,-0.615,0.0
9.993,0.139,-0.635,0.0
13.617,0.188,-0.483,0.0
12.768,0.174,-0.519,0.0
12.039,0.162,-0.553,0.0
11.388,0.151,-0.584,0.0
10.725,0.14,-0.606,0.0
10.219,0.132,-0.631,0.0
13.893,0.178,-0.468,0.0
13.022,0.165,-0.507,0.0
12.34,0.154,-0.544,0.0
11.618,0.143,-0.574,0.0
10.945,0.133,-0.598,0.0
10.406,0.125,-0.624,0.0
14.178,0.169,-0.452,0.0
13.219,0.155,-0.49,0.0
12.544,0.145,-0.531,0.0
11.783,0.135,-0.561,0.0
11.126,0.125,-0.588,0.0
10.573,0.117,-0.614,0.0
14.631,0.161,-0.439,0.0
13.621,0.148,-0.48,0.0
12.755,0.137,-0.516,0.0
12.027,0.127,-0.55,0.0
11.399,0.118,-0.581,0.0
10.807,0.111,-0.608,0.0
15.031,0.153,-0.423,0.0
13.944,0.14,-0.465,0.0
13.122,0.129,-0.506,0.0
12.35,0.12,-0.542,0.0
11.631,0.111,-0.571,0.0
11.047,0.104,-0.6,0.0
15.59,0.146,-0.41,0.0
14.296,0.132,-0.45,0.0
13.368,0.121,-0.491,0.0
12.529,0.112,-0.526,0.0
11.876,0.104,-0.561,0.0
11.242,0.097,-0.589,0.0
15.956,0.136,-0.389,0.0
14.741,0.124,-0.436,0.0
13.72,0.113,-0.477,0.0
12.853,0.104,-0.515,0.0
12.161,0.097,-0.55,0.0
11.485,0.09,-0.58,0.0
16.428,0.128,-0.369,0.0
15.189,0.116,-0.419,0.0
14.084,0.106,-0.462,0.0
13.093,0.096,-0.499,0.0
12.45,0.09,-0.539,0.0
11.74,0.083,-0.569,0.0
16.912,0.119,-0.346,0.0
15.708,0.109,-0.403,0.0
14.384,0.098,-0.444,0.0
13.466,0.09,-0.487,0.0
12.694,0.083,-0.525,0.0
11.936,0.076,-0.555,0.0
17.413,0.111,-0.322,0.0
16.183,0.101,-0.383,0.0
14.937,0.091,-0.431,0.0
13.818,0.083,-0.472,0.0
13.004,0.076,-0.512,0.0
12.282,0.07,-0.547,0.0
18.229,0.104,-0.301,0.0
16.661,0.093,-0.362,0.0
15.508,0.084,-0.417,0.0
14.125,0.075,-0.454,0.0
13.351,0.07,-0.499,0.0
12.55,0.064,-0.534,0.0
18.98,0.096,-0.276,0.0
17.184,0.085,-0.339,0.0
15.89,0.077,-0.395,0.0
14.617,0.069,-0.441,0.0
13.684,0.063,-0.483,0.0
12.856,0.058,-0.521,0.0
20.096,0.09,-0.252,0.0
17.782,0.077,-0.314,0.0
16.396,0.07,-0.374,0.0
15.113,0.062,-0.425,0.0
13.97,0.056,-0.465,0.0
13.156,0.052,-0.506,0.0
21.246,0.083,-0.222,4.0
18.59,0.07,-0.29,0.0
16.833,0.062,-0.35,0.0
15.657,0.056,-0.408,0.0
14.447,0.05,-0.451,0.0
13.516,0.046,-0.492,0.0
22.245,0.075,-0.187,0.0
19.537,0.064,-0.265,0.0
17.448,0.055,-0.327,0.0
16.191,0.05,-0.389,0.0
14.902,0.045,-0.434,0.0
13.834,0.04,-0.475,0.0
23.448,0.067,-0.149,1.0
20.925,0.058,-0.24,1.0
18.268,0.049,-0.304,0.0
16.603,0.043,-0.364,0.0
15.421,0.039,-0.417,0.0
14.224,0.035,-0.458,0.0
24.61,0.059,-0.105,0.0
21.71,0.051,-0.204,2.0
19.041,0.043,-0.277,0.0
17.16,0.037,-0.34,0.0
15.924,0.033,-0.398,0.0
14.719,0.03,-0.443,0.0
25.821,0.051,-0.056,0.0
23.262,0.044,-0.17,0.0
20.461,0.038,-0.255,0.0
17.925,0.032,-0.317,0.0
16.484,0.028,-0.377,0.0
15.17,0.025,-0.425,0.0
26.883,0.043,-0.002,0.0
24.105,0.037,-0.126,1.0
21.235,0.031,-0.22,4.0
18.578,0.026,-0.29,0.0
16.918,0.023,-0.351,0.0
15.698,0.02,-0.407,0.0
28.528,0.036,0.057,1.0
25.387,0.03,-0.078,0.0
22.436,0.025,-0.185,0.0
19.66,0.021,-0.265,0.0
17.494,0.018,-0.326,0.0
16.245,0.016,-0.386,0.0
28.824,0.027,0.12,0.0
26.529,0.024,-0.026,0.0
23.718,0.02,-0.145,1.0
20.997,0.016,-0.238,2.0
18.369,0.013,-0.303,0.0
16.711,0.011,-0.362,0.0
30.873,0.021,0.194,0.0
27.774,0.017,0.032,0.0
25.086,0.014,-0.1,0.0
21.859,0.012,-0.202,0.0
19.271,0.009,-0.277,0.0
17.301,0.008,-0.338,0.0
33.197,0.014,0.279,0.0
28.748,0.011,0.094,1.0
26.053,0.009,-0.048,0.0
23.507,0.007,-0.167,0.0
20.755,0.006,-0.254,0.0
18.063,0.004,-0.314,0.0
35.055,0.008,0.371,0.0
30.444,0.006,0.165,0.0
27.298,0.004,0.007,0.0
24.385,0.003,-0.121,0.0
21.36,0.002,-0.216,2.0
18.821,0.001,-0.287,0.0
36.738,0.002,0.467,0.0
0.0,0.0,0.0,0.0
28.62,0.0,0.069,1.0
25.673,0.0,-0.072,0.0
23.11,0.0,-0.184,0.0
20.007,0.0,-0.262,0.0
40.499,-0.001,0.6,0.0
33.663,-0.002,0.326,0.0
29.981,-0.002,0.136,0.0
26.692,-0.002,-0.018,0.0
23.874,-0.002,-0.139,1.0
21.129,-0.002,-0.232,3.0
0.0,0.0,0.0,0.0
36.201,-0.005,0.428,0.0
31.316,-0.004,0.209,0.0
28.149,-0.004,0.04,0.0
25.238,-0.004,-0.093,0.0
22.139,-0.003,-0.195,0.0
0.0,0.0,0.0,0.0
0.0,0.0,0.0,0.0
33.13,-0.006,0.292,0.0
28.704,-0.005,0.103,0.0
26.375,-0.005,-0.04,0.0
23.678,-0.004,-0.158,1.0
0.0,0.0,0.0,0.0
42.453,-0.008,0.685,0.0
0.0,0.0,0.0,0.0
30.6,-0.005,0.175,0.0
27.485,-0.004,0.016,0.0
24.836,-0.004,-0.112,0.0
0.0,0.0,0.0,0.0
0.0,0.0,0.0,0.0
0.0,0.0,0.0,0.0
33.043,-0.004,0.26,0.0
28.668,-0.003,0.078,1.0
25.88,-0.002,-0.062,0.0
77.916,-0.009,1.991,1.0
0.0,0.0,0.0,0.0
0.0,0.0,0.0,0.0
0.0,0.0,0.0,0.0
30.311,-0.001,0.148,0.0
27.131,0.0,-0.006,0.0
77.859,-0.001,2.158,3.0
0.0,0.0,0.0,0.0
0.0,0.0,0.0,0.0
0.0,0.0,0.0,0.0
31.805,0.002,0.223,0.0
28.507,0.003,0.053,1.0
82.927,0.009,2.474,7.0
0.0,0.0,0.0,0.0
0.0,0.0,0.0,0.0
0.0,0.0,0.0,0.0
33.322,0.008,0.304,0.0
30.124,0.008,0.12,0.0
83.259,0.023,2.661,17.0
77.655,0.025,2.083,3.0
0.0,0.0,0.0,0.0
0.0,0.0,0.0,0.0
36.188,0.016,0.408,0.0
30.795,0.015,0.188,0.0
83.292,0.041,2.84,24.0
82.708,0.044,2.394,4.0
0.0,0.0,0.0,0.0
0.0,0.0,0.0,0.0
0.0,0.0,0.0,0.0
33.226,0.024,0.273,0.0
83.296,0.061,3.017,23.0
83.203,0.066,2.584,12.0
77.309,0.065,2.002,2.0
0.0,0.0,0.0,0.0
41.712,0.04,0.646,0.0
0.0,0.0,0.0,0.0
83.31,0.085,3.193,25.0
83.25,0.09,2.76,11.0
77.542,0.088,2.17,2.0
0.0,0.0,0.0,0.0
0.0,0.0,0.0,0.0
0.0,0.0,0.0,0.0
83.321,0.111,3.368,25.0
83.248,0.117,2.935,28.0
78.098,0.115,2.35,7.0
76.721,0.119,1.905,1.0
0.0,0.0,0.0,0.0
0.0,0.0,0.0,0.0
83.298,0.141,3.541,32.0
83.25,0.147,3.109,36.0
83.18,0.154,2.678,12.0
76.934,0.148,2.072,3.0
0.0,0.0,0.0,0.0
0.0,0.0,0.0,0.0
83.284,0.174,3.715,37.0
83.256,0.181,3.282,37.0
78.066,0.176,2.674,15.0
78.113,0.183,2.264,7.0
0.0,0.0,0.0,0.0
0.0,0.0,0.0,0.0
83.269,0.21,3.885,43.0
83.274,0.217,3.455,41.0
83.246,0.224,3.023,38.0
83.133,0.231,2.579,13.0
76.162,0.219,1.969,5.0
0.0,0.0,0.0,0.0
83.248,0.248,4.055,39.0
83.256,0.256,3.625,46.0
83.255,0.264,3.193,46.0
83.199,0.272,2.752,14.0
78.144,0.263,2.179,2.0
0.0,0.0,0.0,0.0
83.224,0.29,4.224,26.0
83.251,0.299,3.794,47.0
83.271,0.307,3.364,39.0
83.296,0.316,2.924,13.0
82.979,0.324,2.483,7.0
75.604,0.303,1.871,0.0
83.232,0.335,4.393,31.0
83.249,0.344,3.961,43.0
83.295,0.353,3.532,45.0
83.309,0.362,3.09,42.0
78.087,0.348,2.492,23.0
75.511,0.345,2.019,3.0
83.233,0.382,4.56,27.0
83.238,0.391,4.126,24.0
83.315,0.401,3.697,10.0
79.346,0.391,3.101,7.0
78.066,0.394,2.646,7.0
76.705,0.397,2.202,6.0
83.152,0.431,4.719,3.0
79.3,0.421,4.087,10.0
79.336,0.43,3.676,7.0
79.328,0.44,3.254,11.0
79.219,0.449,2.838,17.0
78.091,0.453,2.393,13.0
79.316,0.462,4.657,5.0
79.335,0.472,4.245,10.0
79.327,0.482,3.83,8.0
79.354,0.492,3.411,12.0
79.365,0.503,2.999,3.0
78.16,0.506,2.548,24.0
79.252,0.515,4.807,3.0
79.318,0.526,4.398,9.0
79.335,0.536,3.985,9.0
79.336,0.547,3.564,11.0
79.333,0.558,3.15,4.0
78.039,0.559,2.693,16.0
76.736,0.553,4.803,3.0
79.325,0.582,4.55,4.0
79.348,0.594,4.138,7.0
79.348,0.604,3.715,7.0
79.349,0.616,3.302,7.0
78.047,0.616,2.841,13.0
76.582,0.608,4.939,10.0
79.392,0.641,4.704,1.0
79.305,0.652,4.285,7.0
79.357,0.664,3.864,8.0
79.392,0.676,3.452,7.0
79.382,0.687,3.038,7.0
76.704,0.668,5.09,21.0
76.783,0.68,4.693,10.0
79.363,0.714,4.435,7.0
79.34,0.726,4.011,9.0
79.369,0.739,3.598,11.0
79.384,0.75,3.184,11.0
76.638,0.728,5.228,18.0
79.417,0.767,5.0,3.0
89.936,0.882,5.191,2.0
79.282,0.79,4.153,4.0
92.973,0.941,4.383,15.0
109.044,1.12,4.571,6.0
76.09,0.786,5.329,33.0
76.605,0.803,4.962,16.0
90.054,0.959,5.361,12.0
90.805,0.981,4.92,21.0
92.275,1.011,4.515,14.0
109.077,1.213,4.765,13.0
63.119,0.705,4.533,9.0
76.267,0.865,5.077,24.0
76.573,0.881,4.693,26.0
90.679,1.058,5.073,11.0
92.175,1.091,4.674,12.0
92.011,1.104,4.182,11.0
63.254,0.763,4.655,24.0
76.161,0.932,5.204,19.0
76.431,0.948,4.82,42.0
76.509,0.962,4.415,31.0
76.666,0.977,4.021,11.0
91.966,1.188,4.341,14.0
82.658,1.074,6.229,25.0
76.269,1.004,5.344,12.0
76.372,1.018,4.948,30.0
76.473,1.033,4.545,22.0
76.592,1.047,4.149,28.0
76.603,1.061,3.746,18.0
58.929,0.821,4.541,8.0
76.305,1.076,5.476,16.0
76.446,1.091,5.082,22.0
76.533,1.106,4.677,20.0
76.541,1.12,4.274,32.0
76.547,1.133,3.87,23.0
58.993,0.879,4.645,15.0
76.887,1.159,5.647,34.0
76.678,1.17,5.225,26.0
76.636,1.182,4.81,23.0
76.562,1.195,4.4,23.0
76.557,1.209,3.996,21.0
76.128,1.21,6.119,23.0
77.369,1.244,5.809,5.0
76.893,1.25,5.366,19.0
88.98,1.462,5.729,18.0
76.641,1.274,4.53,8.0
76.637,1.288,4.125,18.0
73.547,1.244,6.031,16.0
83.432,1.426,6.398,16.0
88.38,1.527,6.308,17.0
89.247,1.559,5.888,15.0
83.918,1.482,5.092,15.0
84.92,1.516,4.705,16.0
62.603,1.124,5.233,23.0
63.084,1.145,4.937,11.0
88.489,1.622,6.456,11.0
82.747,1.533,5.59,9.0
84.012,1.573,5.229,22.0
84.252,1.593,4.798,22.0
62.568,1.191,5.328,24.0
63.155,1.214,5.042,14.0
76.826,1.492,5.723,39.0
82.716,1.622,5.714,16.0
84.09,1.666,5.363,21.0
84.062,1.682,4.916,25.0
62.532,1.259,5.421,30.0
73.16,1.487,5.951,15.0
83.638,1.717,6.358,14.0
82.961,1.719,5.856,16.0
0.0,0.0,0.0,0.0
83.758,1.769,5.021,28.0
62.576,1.33,5.518,14.0
63.145,1.355,5.23,8.0
62.816,1.36,4.867,16.0
83.46,1.823,6.013,14.0
82.439,1.818,5.5,26.0
82.948,1.845,5.092,21.0
55.857,1.25,5.006,18.0
63.403,1.432,5.342,12.0
62.868,1.432,4.961,13.0
83.379,1.916,6.125,31.0
82.455,1.912,5.617,26.0
82.685,1.934,5.192,32.0
55.851,1.314,5.084,25.0
63.712,1.513,5.458,17.0
63.114,1.512,5.069,25.0
83.121,2.007,6.222,38.0
82.441,2.008,5.731,31.0
82.153,2.019,5.272,25.0
56.014,1.385,5.177,30.0
63.578,1.585,5.534,15.0
63.02,1.584,5.148,20.0
74.775,1.895,5.698,21.0
82.318,2.103,5.832,33.0
81.928,2.11,5.367,30.0
56.182,1.457,5.268,13.0
63.216,1.652,5.587,12.0
0.0,0.0,0.0,0.0
62.138,1.65,4.818,19.0
82.309,2.202,5.939,26.0
81.977,2.211,5.477,31.0
56.205,1.526,5.344,8.0
55.968,1.531,5.019,11.0
69.115,1.905,5.825,8.0
62.075,1.723,4.892,12.0
82.396,2.305,6.051,15.0
82.188,2.318,5.594,31.0
49.872,1.415,4.805,31.0
56.046,1.602,5.097,26.0
62.388,1.797,5.336,25.0
62.216,1.805,4.98,29.0
74.425,2.175,5.557,24.0
82.122,2.418,5.691,30.0
49.9,1.479,4.869,19.0
56.163,1.676,5.176,29.0
62.76,1.886,5.445,25.0
0.0,0.0,0.0,0.0
65.855,2.008,4.995,41.0
82.114,2.52,5.787,26.0
50.22,1.552,4.959,12.0
56.257,1.75,5.251,26.0
68.872,2.157,6.055,19.0
64.085,2.021,5.281,16.0
64.969,2.063,5.003,17.0
66.119,2.113,4.735,54.0
50.303,1.619,5.026,29.0
56.238,1.822,5.313,11.0
54.008,1.761,4.809,9.0
64.091,2.104,5.353,13.0
75.234,2.485,5.877,11.0
81.922,2.724,5.956,16.0
50.385,1.686,5.09,10.0
50.338,1.696,4.811,24.0
0.0,0.0,0.0,0.0
72.95,2.488,6.172,5.0
75.714,2.599,5.994,22.0
65.192,2.252,4.809,6.0
50.31,1.749,5.135,9.0
50.357,1.761,4.865,21.0
50.036,1.761,4.562,9.0
66.771,2.364,5.718,18.0
66.711,2.376,5.35,7.0
65.237,2.338,4.878,23.0
61.501,2.219,6.341,9.0
50.0,1.815,4.881,23.0
50.109,1.829,4.619,6.0
66.713,2.45,5.779,33.0
64.121,2.368,5.206,25.0
65.373,2.429,4.952,12.0
49.416,1.848,5.143,24.0
50.073,1.883,4.937,27.0
49.887,1.887,4.646,23.0
68.136,2.592,5.967,16.0
66.686,2.552,5.477,33.0
80.907,3.113,6.205,10.0
49.196,1.906,5.166,24.0
50.499,1.967,5.026,24.0
49.891,1.954,4.692,23.0
56.921,2.242,5.037,25.0
56.091,2.221,4.657,26.0
66.578,2.651,5.166,20.0
48.564,1.947,5.143,28.0
50.228,2.024,5.044,24.0
0.0,0.0,0.0,0.0
56.241,2.291,5.026,18.0
56.06,2.296,4.703,22.0
66.564,2.74,5.221,21.0
48.55,2.012,5.184,14.0
50.243,2.094,5.088,26.0
0.0,0.0,0.0,0.0
56.613,2.383,5.106,22.0
56.171,2.376,4.758,14.0
66.555,2.829,5.274,3.0
51.586,2.208,5.55,5.0
50.43,2.169,5.147,6.0
49.796,2.152,4.808,23.0
56.837,2.469,5.171,13.0
49.395,2.156,4.222,31.0
58.178,2.552,4.655,24.0
48.475,2.141,5.252,10.0
50.416,2.237,5.184,21.0
50.934,2.271,4.957,24.0
54.11,2.425,4.963,8.0
49.346,2.221,4.255,17.0
58.269,2.636,4.704,26.0
48.38,2.203,5.277,40.0
50.573,2.313,5.236,24.0
49.845,2.291,4.886,3.0
49.801,2.299,4.602,25.0
49.563,2.298,4.307,24.0
58.212,2.712,4.739,29.0
48.388,2.27,5.31,29.0
50.55,2.382,5.268,24.0
51.714,2.447,5.103,4.0
49.74,2.363,4.628,30.0
49.627,2.368,4.344,35.0
58.021,2.782,4.76,19.0
48.318,2.332,5.333,33.0
50.501,2.448,5.294,31.0
49.893,2.429,4.954,15.0
49.937,2.441,4.677,17.0
49.614,2.436,4.373,21.0
58.486,2.884,4.833,18.0
48.347,2.401,5.365,18.0
50.299,2.508,5.302,24.0
50.165,2.511,5.01,23.0
51.878,2.608,4.888,17.0
49.817,2.515,4.419,21.0
58.573,2.969,4.872,17.0
47.576,2.428,5.306,17.0
0.0,0.0,0.0,0.0
49.974,2.57,5.017,23.0
49.984,2.581,4.736,14.0
49.792,2.581,4.442,36.0
49.588,2.58,4.15,22.0
47.364,2.481,5.305,17.0
48.561,2.554,5.169,22.0
49.181,2.597,4.961,23.0
49.931,2.646,4.755,31.0
49.823,2.65,4.468,22.0
49.32,2.634,4.15,23.0
47.478,2.553,5.34,20.0
48.614,2.624,5.197,22.0
49.114,2.661,4.976,26.0
53.776,2.924,5.144,6.0
65.327,3.565,5.886,11.0
49.441,2.708,4.18,27.0
47.37,2.612,5.348,25.0
47.994,2.656,5.15,22.0
49.092,2.726,4.993,12.0
56.881,3.169,5.463,20.0
65.373,3.655,5.915,24.0
49.636,2.786,4.215,17.0
47.497,2.684,5.379,21.0
48.706,2.761,5.244,22.0
53.77,3.059,5.488,13.0
56.911,3.249,5.485,8.0
57.523,3.295,5.224,5.0
49.709,2.857,4.238,10.0
45.84,2.653,5.206,26.0
47.64,2.766,5.144,5.0
48.723,2.838,4.988,23.0
57.225,3.344,5.532,21.0
52.31,3.067,4.766,15.0
66.532,3.913,5.691,25.0
47.065,2.787,5.358,4.0
44.667,2.653,4.835,34.0
48.329,2.88,4.96,22.0
48.705,2.911,4.721,7.0
57.748,3.462,5.275,10.0
57.908,3.483,4.967,33.0
45.473,2.754,5.188,20.0
44.712,2.715,4.849,27.0
48.691,2.966,5.008,23.0
52.066,3.181,5.058,19.0
57.45,3.52,5.259,15.0
57.911,3.56,4.978,25.0
34.623,2.143,3.956,29.0
44.76,2.779,4.863,7.0
49.016,3.051,5.05,23.0
59.996,3.745,5.838,10.0
57.423,3.595,5.266,14.0
58.081,3.648,5.002,22.0
44.951,2.842,5.143,5.0
34.075,2.16,3.706,23.0
49.093,3.121,5.064,23.0
51.704,3.295,5.038,30.0
59.711,3.816,5.482,20.0
58.105,3.725,5.01,13.0
34.546,2.229,3.956,28.0
34.16,2.21,3.719,30.0
49.146,3.188,5.073,16.0
51.604,3.357,5.031,12.0
63.092,4.115,5.797,20.0
59.387,3.883,5.124,10.0
34.574,2.276,3.961,28.0
34.168,2.255,3.721,22.0
48.679,3.22,5.027,17.0
54.966,3.645,5.361,8.0
63.063,4.193,5.796,24.0
59.335,3.955,5.121,10.0
34.572,2.32,3.961,28.0
34.207,2.301,3.726,32.0
48.961,3.302,5.056,8.0
48.279,3.264,4.708,10.0
63.047,4.273,5.794,23.0
59.257,4.026,5.112,7.0
34.463,2.357,3.948,31.0
34.194,2.344,3.723,33.0
34.55,2.374,3.566,6.0
48.285,3.326,4.706,17.0
63.008,4.351,5.786,4.0
0.0,0.0,0.0,0.0
34.407,2.397,3.938,26.0
34.194,2.387,3.72,27.0
34.339,2.403,3.541,17.0
48.324,3.388,4.705,30.0
51.962,3.652,4.766,17.0
58.782,4.142,5.061,19.0
34.413,2.44,3.935,28.0
34.277,2.436,3.725,30.0
48.386,3.445,4.983,22.0
48.351,3.451,4.701,22.0
49.738,3.557,4.555,16.0
58.754,4.211,5.05,33.0
34.392,2.481,3.927,32.0
34.335,2.482,3.725,28.0
48.366,3.503,4.973,14.0
59.577,4.324,5.782,14.0
49.739,3.617,4.546,22.0
58.47,4.262,5.014,33.0
34.409,2.524,3.922,39.0
34.403,2.528,3.725,34.0
48.386,3.563,4.964,22.0
59.575,4.396,5.768,30.0
58.824,4.349,5.362,26.0
57.997,4.297,4.959,22.0
34.429,2.567,3.915,32.0
34.453,2.573,3.722,27.0
48.419,3.623,4.955,13.0
49.681,3.725,4.797,19.0
49.256,3.701,4.476,28.0
61.219,4.608,5.217,12.0
34.454,2.609,3.908,36.0
34.321,2.604,3.697,26.0
48.516,3.687,4.95,7.0
49.389,3.761,4.753,13.0
49.156,3.749,4.452,21.0
51.896,3.966,4.406,21.0
34.268,2.635,3.875,36.0
34.335,2.645,3.687,27.0
49.504,3.82,5.033,6.0
49.297,3.81,4.727,21.0
49.096,3.801,4.429,22.0
51.893,4.025,4.387,45.0
34.159,2.666,3.85,35.0
34.283,2.679,3.668,22.0
42.893,3.357,4.345,17.0
49.771,3.903,4.753,5.0
49.413,3.881,4.437,22.0
51.902,4.083,4.367,50.0
34.204,2.707,3.841,27.0
34.311,2.72,3.656,29.0
42.728,3.392,4.309,19.0
49.187,3.911,4.675,23.0
60.656,4.831,5.42,21.0
51.911,4.141,4.344,42.0
34.117,2.738,3.815,32.0
43.133,3.466,4.577,4.0
34.077,2.742,3.421,14.0
48.873,3.938,4.623,19.0
60.35,4.87,5.365,25.0
51.932,4.197,4.321,35.0
34.191,2.779,3.807,33.0
34.017,2.769,3.592,27.0
42.688,3.479,4.264,14.0
51.822,4.229,4.875,5.0
60.434,4.939,5.341,29.0
51.95,4.252,4.296,18.0
34.111,2.808,3.779,33.0
34.044,2.806,3.577,28.0
42.703,3.524,4.242,15.0
51.543,4.259,4.82,21.0
59.869,4.954,5.258,32.0
59.598,4.939,4.894,12.0
34.033,2.836,3.751,33.0
33.958,2.833,3.548,20.0
42.795,3.575,4.226,17.0
51.501,4.307,4.786,12.0
59.86,5.012,5.221,33.0
59.465,4.986,4.848,8.0
34.016,2.868,3.728,35.0
33.971,2.867,3.529,25.0
42.801,3.616,4.2,19.0
51.602,4.365,4.763,25.0
59.441,5.034,5.147,27.0
51.772,4.39,4.188,41.0
34.051,2.903,3.71,34.0
34.058,2.906,3.515,31.0
42.834,3.659,4.175,20.0
51.476,4.402,4.718,25.0
59.534,5.096,5.116,29.0
51.772,4.437,4.153,43.0
34.153,2.943,3.698,18.0
42.793,3.69,4.388,6.0
42.902,3.703,4.152,24.0
51.438,4.445,4.679,23.0
51.658,4.469,4.403,27.0
51.792,4.485,4.118,35.0
34.175,2.975,3.676,22.0
42.745,3.724,4.351,27.0
51.372,4.48,4.935,10.0
51.552,4.499,4.652,37.0
51.653,4.513,4.365,19.0
51.803,4.531,4.081,18.0
34.133,3.0,3.645,24.0
42.698,3.756,4.314,24.0
51.333,4.52,4.892,24.0
51.547,4.543,4.611,27.0
59.16,5.219,4.953,23.0
51.826,4.576,4.042,10.0
34.157,3.031,3.621,24.0
42.654,3.788,4.276,26.0
51.475,4.575,4.864,25.0
53.078,4.721,4.705,7.0
42.992,3.827,3.565,17.0
51.853,4.62,4.002,18.0
34.135,3.056,3.59,22.0
42.681,3.824,4.243,34.0
51.655,4.631,4.838,17.0
43.404,3.894,3.811,13.0
42.921,3.854,3.522,18.0
51.9,4.664,3.962,12.0
34.075,3.076,3.554,33.0
42.808,3.867,4.218,17.0
51.52,4.657,4.78,13.0
52.939,4.789,4.603,7.0
42.888,3.882,3.482,22.0
51.955,4.707,3.921,9.0
34.06,3.1,3.522,36.0
51.443,4.684,5.023,13.0
43.53,3.966,4.0,21.0
52.894,4.822,4.55,15.0
42.896,3.913,3.444,29.0
59.509,5.433,4.437,24.0
34.048,3.122,3.49,20.0
51.503,4.725,4.981,8.0
43.511,3.993,3.958,24.0
52.869,4.855,4.499,9.0
42.832,3.936,3.399,30.0
59.453,5.467,4.377,29.0
42.767,3.949,4.343,9.0
43.528,4.021,4.168,13.0
43.465,4.018,3.911,29.0
43.184,3.993,3.633,18.0
42.834,3.963,3.358,26.0
59.383,5.498,4.315,33.0
43.158,4.012,4.34,18.0
43.486,4.044,4.121,16.0
43.367,4.034,3.86,15.0
52.658,4.901,4.379,21.0
59.174,5.51,4.58,12.0
58.957,5.493,4.225,33.0
43.588,4.077,4.339,17.0
43.452,4.065,4.075,28.0
43.269,4.05,3.808,9.0
51.846,4.854,4.259,20.0
59.08,5.534,4.513,30.0
58.835,5.513,4.157,32.0
43.617,4.103,4.297,18.0
43.377,4.081,4.022,18.0
59.244,5.576,5.152,11.0
51.812,4.878,4.202,42.0
59.032,5.56,4.448,32.0
58.807,5.541,4.094,21.0
43.476,4.112,4.236,15.0
59.783,5.655,5.48,19.0
51.917,4.912,4.459,20.0
51.923,4.914,4.155,26.0
58.927,5.578,4.377,32.0
58.677,5.556,4.021,29.0
43.501,4.134,4.191,20.0
59.771,5.681,5.413,9.0
51.775,4.922,4.39,11.0
52.254,4.968,4.125,20.0
58.649,5.577,4.292,32.0
58.661,5.58,3.956,30.0
43.436,4.146,4.137,29.0
43.361,4.139,3.879,18.0
52.185,4.982,4.367,26.0
59.253,5.658,4.611,27.0
58.563,5.593,4.22,32.0
58.68,5.605,3.891,32.0
43.457,4.165,4.089,20.0
43.313,4.151,3.825,18.0
51.835,4.968,4.279,36.0
59.086,5.663,4.53,32.0
58.56,5.614,4.152,27.0
58.78,5.636,3.831,29.0
43.429,4.177,4.036,27.0
52.164,5.017,4.546,11.0
51.828,4.984,4.217,39.0
58.894,5.664,4.447,33.0
58.527,5.629,4.082,30.0
58.843,5.66,3.766,33.0
52.014,5.018,4.773,6.0
52.242,5.04,4.491,11.0
59.316,5.722,4.757,11.0
58.688,5.661,4.362,30.0
58.557,5.648,4.015,27.0
58.599,5.652,3.681,32.0
51.95,5.026,4.704,13.0
51.904,5.02,4.399,13.0
59.312,5.736,4.685,27.0
58.622,5.669,4.287,33.0
58.61,5.667,3.948,30.0
58.277,5.635,3.59,25.0
51.976,5.039,4.643,8.0
51.821,5.023,4.329,21.0
59.167,5.734,4.601,33.0
58.509,5.669,4.206,31.0
58.471,5.665,3.866,32.0
58.492,5.667,3.532,32.0
43.418,4.217,3.824,16.0
51.812,5.031,4.264,35.0
58.847,5.713,4.503,33.0
58.335,5.662,4.121,25.0
58.473,5.675,3.794,32.0
58.459,5.672,3.456,30.0
43.352,4.216,3.764,26.0
51.842,5.04,4.201,23.0
58.755,5.711,4.422,33.0
58.42,5.677,4.054,29.0
58.494,5.683,3.722,29.0
58.254,5.658,3.371,23.0
51.929,5.055,4.442,6.0
59.349,5.775,4.733,18.0
58.659,5.706,4.339,30.0
58.556,5.695,3.987,29.0
58.394,5.677,3.64,25.0
58.086,5.646,3.286,25.0
51.88,5.053,4.37,18.0
59.291,5.772,4.651,31.0
58.5,5.693,4.251,31.0
58.517,5.692,3.909,33.0
58.499,5.689,3.571,32.0
58.089,5.647,3.212,26.0
51.822,5.047,4.298,39.0
59.086,5.752,4.558,33.0
58.339,5.677,4.163,27.0
58.397,5.68,3.824,30.0
58.473,5.685,3.492,32.0
0.0,0.0,0.0,0.0
51.829,5.046,4.23,37.0
58.825,5.724,4.46,33.0
58.366,5.676,4.088,26.0
58.464,5.683,3.752,32.0
58.335,5.668,3.407,29.0
59.115,5.741,3.113,24.0
59.343,5.772,4.763,14.0
58.706,5.707,4.373,30.0
58.502,5.683,4.019,31.0
58.425,5.673,3.672,27.0
58.116,5.64,3.317,24.0
59.03,5.726,3.03,27.0
59.339,5.764,4.683,25.0
58.611,5.69,4.287,30.0
58.552,5.68,3.945,31.0
58.354,5.658,3.588,32.0
58.127,5.633,3.24,26.0
59.129,5.727,2.956,23.0
59.028,5.723,4.579,32.0
58.507,5.669,4.2,32.0
58.497,5.664,3.861,32.0
58.481,5.659,3.517,33.0
58.963,5.702,3.207,32.0
59.309,5.732,2.884,14.0
58.784,5.687,4.479,30.0
58.462,5.651,4.117,26.0
58.729,5.673,3.796,33.0
58.282,5.626,3.426,32.0
59.154,5.706,3.136,26.0
61.034,5.884,2.885,8.0
58.712,5.665,4.393,28.0
58.563,5.646,4.043,27.0
58.644,5.649,3.711,32.0
58.129,5.595,3.337,31.0
59.181,5.692,3.056,27.0
60.895,5.853,2.794,14.0
58.689,5.644,4.31,28.0
58.653,5.636,3.968,27.0
58.29,5.596,3.607,31.0
58.305,5.593,3.266,32.0
59.313,5.685,2.981,18.0
60.42,5.787,2.689,24.0
58.567,5.612,4.22,27.0
58.695,5.619,3.889,33.0
58.268,5.573,3.525,31.0
58.978,5.636,3.222,34.0
60.64,5.79,2.964,31.0
60.31,5.754,2.601,31.0
58.733,5.605,4.15,34.0
58.944,5.619,3.824,31.0
58.301,5.553,3.446,32.0
59.262,5.639,3.156,32.0
60.594,5.76,2.878,26.0
60.217,5.719,2.513,31.0
58.67,5.573,4.063,24.0
58.871,5.586,3.737,33.0
58.423,5.537,3.372,32.0
59.274,5.613,3.074,31.0
60.452,5.719,2.787,29.0
59.956,5.666,2.419,28.0
58.708,5.548,3.984,27.0
58.648,5.536,3.641,33.0
58.791,5.543,3.31,32.0
59.713,5.624,3.012,34.0
60.237,5.667,2.692,32.0
60.156,5.654,2.343,34.0
58.996,5.544,3.919,34.0
58.598,5.499,3.555,33.0
59.437,5.572,3.263,32.0
60.251,5.642,2.955,35.0
60.169,5.628,2.605,27.0
60.722,5.674,2.28,10.0
59.231,5.532,3.852,28.0
58.263,5.434,3.453,27.0
59.331,5.527,3.174,33.0
60.347,5.615,2.876,32.0
60.281,5.603,2.525,33.0
60.916,5.655,2.203,35.0
59.295,5.501,3.773,34.0
58.269,5.399,3.372,26.0
59.48,5.504,3.099,26.0
60.606,5.6,2.803,28.0
60.559,5.589,2.453,26.0
60.649,5.591,2.108,35.0
58.977,5.432,3.669,34.0
58.424,5.374,3.298,32.0
60.701,5.575,3.077,29.0
60.602,5.559,2.717,34.0
60.901,5.579,2.381,26.0
0.0,0.0,0.0,0.0
58.585,5.354,3.563,33.0
58.512,5.34,3.221,33.0
60.555,5.518,2.984,31.0
60.753,5.529,2.639,26.0
60.983,5.542,2.299,9.0
61.926,5.62,1.979,15.0
58.59,5.311,3.481,33.0
58.929,5.333,3.161,33.0
61.191,5.53,2.931,16.0
60.861,5.492,2.559,16.0
52.18,4.701,1.894,5.0
52.188,4.696,1.596,18.0
58.759,5.279,3.409,27.0
59.366,5.325,3.102,34.0
61.296,5.49,2.851,24.0
52.155,4.664,2.121,7.0
52.142,4.656,1.821,32.0
52.119,4.647,1.522,31.0
59.03,5.255,3.343,34.0
60.167,5.347,3.061,26.0
52.123,4.624,2.352,21.0
52.121,4.616,2.048,41.0
52.127,4.61,1.749,48.0
52.096,4.6,1.45,20.0
52.094,4.591,2.879,17.0
52.109,4.585,2.579,25.0
52.09,4.575,2.28,45.0
52.097,4.568,1.976,50.0
52.118,4.563,1.678,66.0
52.104,4.554,1.379,16.0
52.053,4.54,2.805,40.0
52.063,4.533,2.507,53.0
52.071,4.525,2.208,63.0
52.091,4.518,1.905,64.0
52.117,4.513,1.607,54.0
52.121,4.506,1.308,14.0
52.052,4.49,2.734,52.0
52.068,4.482,2.436,57.0
52.103,4.477,2.139,59.0
52.129,4.471,1.835,47.0
52.145,4.464,1.537,21.0
52.003,4.444,1.236,8.0
52.047,4.437,2.663,63.0
52.084,4.431,2.366,50.0
52.136,4.426,2.07,34.0
52.182,4.422,1.767,26.0
52.203,4.415,1.468,16.0
51.541,4.351,1.155,7.0
52.068,4.383,2.594,51.0
52.154,4.381,2.299,25.0
52.207,4.377,2.002,19.0
62.396,5.221,2.03,11.0
47.707,3.984,1.279,3.0
51.266,4.273,1.081,5.0
52.157,4.334,2.529,13.0
62.443,5.178,2.671,19.0
62.609,5.181,2.319,14.0
47.686,3.938,1.488,5.0
47.768,3.936,1.218,0.0
47.83,3.934,0.946,0.0
62.505,5.124,2.949,7.0
62.962,5.15,2.61,21.0
62.794,5.125,2.244,12.0
47.621,3.878,1.425,3.0
47.592,3.868,1.152,10.0
47.923,3.886,0.886,2.0
81.605,6.596,3.745,24.0
81.422,6.565,3.271,24.0
47.893,3.853,1.649,158.0
47.577,3.818,1.362,4.0
47.499,3.803,1.088,14.0
47.954,3.831,0.825,4.0
81.84,6.516,3.65,30.0
48.902,3.883,1.901,17.0
47.792,3.787,1.585,97.0
47.526,3.756,1.299,13.0
47.448,3.741,1.026,2.0
48.001,3.776,0.764,4.0
81.868,6.417,3.547,26.0
48.893,3.822,1.839,9.0
47.505,3.704,1.515,4.0
47.431,3.689,1.237,17.0
47.44,3.681,0.967,2.0
0.0,0.0,0.0,0.0
81.646,6.295,3.435,29.0
47.812,3.676,1.739,2.0
47.396,3.634,1.453,9.0
47.394,3.625,1.177,16.0
47.473,3.622,0.908,1.0
0.0,0.0,0.0,0.0
48.902,3.706,1.997,3.0
47.611,3.598,1.673,5.0
47.332,3.566,1.392,13.0
47.292,3.554,1.117,1.0
51.155,3.834,0.916,2.0
0.0,0.0,0.0,0.0
0.0,0.0,0.0,0.0
47.486,3.523,1.61,8.0
47.306,3.5,1.334,21.0
47.346,3.493,1.061,1.0
51.493,3.788,0.861,1.0
36.361,2.668,0.401,1.0
48.357,3.531,1.858,0.0
47.358,3.447,1.549,12.0
47.288,3.432,1.277,21.0
47.305,3.424,1.004,2.0
44.602,3.218,0.693,0.0
35.797,2.576,0.352,0.0
48.008,3.437,1.788,1.0
47.289,3.376,1.492,17.0
47.275,3.364,1.222,162.0
47.355,3.359,0.95,2.0
0.0,0.0,0.0,0.0
33.43,2.357,0.29,0.0
47.687,3.345,1.721,4.0
47.239,3.303,1.436,22.0
47.26,3.294,1.168,161.0
47.378,3.291,0.897,0.0
0.0,0.0,0.0,0.0
32.201,2.223,0.243,0.0
47.501,3.261,1.661,7.0
47.231,3.231,1.382,46.0
47.261,3.223,1.114,150.0
50.929,3.461,0.906,12.0
47.328,3.205,0.573,0.0
31.353,2.116,0.201,1.0
47.361,3.179,1.602,9.0
47.235,3.158,1.329,161.0
47.31,3.152,1.063,2.0
50.902,3.379,0.849,1.0
36.687,2.427,0.404,1.0
30.025,1.979,0.16,0.0
47.283,3.099,1.548,11.0
47.223,3.084,1.278,167.0
47.267,3.075,1.011,5.0
46.297,3.001,0.722,0.0
36.551,2.36,0.363,0.0
29.392,1.891,0.125,1.0
47.208,3.018,1.495,23.0
47.224,3.007,1.227,169.0
47.291,3.0,0.961,3.0
43.458,2.747,0.632,0.0
33.327,2.098,0.296,0.0
28.706,1.8,0.092,0.0
47.195,2.941,1.445,46.0
47.22,2.93,1.179,160.0
53.637,3.316,1.035,2.0
0.0,0.0,0.0,0.0
32.206,1.974,0.253,0.0
27.995,1.71,0.061,0.0
47.198,2.863,1.398,51.0
47.253,2.854,1.131,2.0
52.947,3.184,0.967,1.0
0.0,0.0,0.0,0.0
31.575,1.883,0.216,0.0
27.276,1.619,0.032,0.0
47.23,2.784,1.351,36.0
47.298,2.776,1.085,3.0
47.865,2.797,0.828,7.0
36.692,2.134,0.423,0.0
30.366,1.758,0.178,1.0
26.746,1.542,0.006,0.0
47.242,2.704,1.306,34.0
47.249,2.692,1.039,9.0
48.28,2.738,0.789,3.0
35.066,1.979,0.371,0.0
29.933,1.681,0.147,0.0
26.224,1.466,-0.018,0.0
47.269,2.623,1.262,38.0
47.28,2.61,0.995,4.0
44.487,2.444,0.685,0.0
34.297,1.875,0.331,0.0
29.127,1.584,0.116,0.0
25.72,1.392,-0.041,0.0
47.295,2.539,1.22,29.0
47.298,2.527,0.953,1.0
0.0,0.0,0.0,0.0
32.919,1.74,0.288,1.0
28.53,1.501,0.089,0.0
25.398,1.329,-0.063,1.0
47.314,2.455,1.179,19.0
47.243,2.439,0.911,0.0
0.0,0.0,0.0,0.0
32.154,1.642,0.254,1.0
28.002,1.422,0.063,0.0
24.925,1.259,-0.083,0.0
47.336,2.37,1.139,15.0
50.059,2.493,0.923,3.0
0.0,0.0,0.0,0.0
31.607,1.556,0.223,1.0
27.415,1.342,0.039,0.0
24.511,1.193,-0.102,0.0
47.389,2.285,1.102,10.0
47.823,2.292,0.842,1.0
0.0,0.0,0.0,0.0
30.602,1.449,0.191,0.0
26.979,1.27,0.017,0.0
23.615,1.104,-0.117,0.0
47.44,2.199,1.065,2.0
47.789,2.2,0.804,1.0
35.574,1.627,0.398,0.0
30.09,1.368,0.165,0.0
26.631,1.203,-0.003,0.0
23.385,1.049,-0.134,1.0
47.592,2.114,1.032,0.0
0.0,0.0,0.0,0.0
34.04,1.492,0.356,0.0
28.97,1.261,0.137,0.0
26.147,1.13,-0.023,0.0
23.262,0.999,-0.151,1.0
48.36,2.055,1.014,0.0
0.0,0.0,0.0,0.0
33.53,1.404,0.326,1.0
28.909,1.202,0.116,1.0
25.881,1.068,-0.041,0.0
22.99,0.942,-0.165,0.0
0.0,0.0,0.0,0.0
0.0,0.0,0.0,0.0
33.21,1.326,0.3,1.0
28.744,1.139,0.096,1.0
25.711,1.011,-0.058,1.0
22.254,0.868,-0.175,0.0
50.753,1.958,0.995,1.0
38.694,1.481,0.542,0.0
32.731,1.243,0.275,1.0
28.339,1.067,0.076,1.0
25.451,0.95,-0.073,1.0
22.133,0.819,-0.188,1.0
50.734,1.856,0.963,1.0
38.425,1.394,0.514,0.0
31.885,1.147,0.248,0.0
27.885,0.994,0.058,0.0
24.637,0.871,-0.086,1.0
21.769,0.763,-0.197,0.0
48.427,1.675,0.891,2.0
37.131,1.273,0.475,0.0
31.297,1.063,0.225,0.0
27.511,0.926,0.041,0.0
24.48,0.816,-0.099,1.0
21.627,0.714,-0.208,1.0
0.0,0.0,0.0,0.0
0.0,0.0,0.0,0.0
31.006,0.99,0.206,0.0
27.084,0.856,0.026,0.0
24.255,0.759,-0.111,0.0
21.438,0.664,-0.218,0.0
45.942,1.404,0.795,0.0
35.55,1.074,0.417,0.0
29.017,0.867,0.178,1.0
26.952,0.797,0.012,0.0
23.781,0.696,-0.121,0.0
21.062,0.609,-0.224,0.0
46.086,1.313,0.775,0.0
35.452,0.998,0.398,0.0
28.983,0.806,0.164,3.0
26.726,0.735,0.0,0.0
23.733,0.645,-0.132,1.0
20.779,0.558,-0.231,0.0
0.0,0.0,0.0,0.0
34.27,0.895,0.37,0.0
28.939,0.746,0.151,3.0
26.473,0.673,-0.011,0.0
23.585,0.592,-0.141,0.0
20.43,0.506,-0.236,0.0
0.0,0.0,0.0,0.0
34.2,0.821,0.355,0.0
28.886,0.684,0.139,1.0
26.227,0.612,-0.021,0.0
23.34,0.537,-0.149,0.0
20.233,0.459,-0.241,0.0
40.611,0.905,0.632,0.0
33.802,0.741,0.338,0.0
28.835,0.623,0.128,3.0
26.012,0.553,-0.031,0.0
23.26,0.486,-0.157,0.0
19.909,0.41,-0.244,0.0
41.98,0.847,0.639,0.0
33.724,0.669,0.326,0.0
28.851,0.562,0.119,1.0
25.809,0.494,-0.039,0.0
23.025,0.433,-0.162,0.0
20.009,0.369,-0.252,0.0
0.0,0.0,0.0,0.0
33.453,0.592,0.313,0.0
28.8,0.5,0.11,1.0
25.794,0.439,-0.046,0.0
22.894,0.382,-0.168,0.0
19.837,0.324,-0.255,0.0
0.0,0.0,0.0,0.0
0.0,0.0,0.0,0.0
28.827,0.439,0.103,4.0
25.589,0.381,-0.052,0.0
22.745,0.331,-0.172,0.0
19.815,0.282,-0.26,0.0
38.848,0.537,0.56,0.0
32.728,0.441,0.29,0.0
28.816,0.378,0.096,4.0
25.529,0.326,-0.058,0.0
22.25,0.276,-0.173,0.0
19.47,0.235,-0.259,0.0
0.0,0.0,0.0,0.0
0.0,0.0,0.0,0.0
28.78,0.316,0.091,5.0
25.389,0.27,-0.062,0.0
22.209,0.228,-0.177,1.0
19.413,0.193,-0.262,0.0
38.583,0.368,0.542,0.0
32.741,0.301,0.279,0.0
28.77,0.254,0.086,4.0
25.45,0.216,-0.066,0.0
22.327,0.182,-0.181,2.0
19.31,0.15,-0.263,0.0
37.695,0.28,0.525,0.0
32.029,0.226,0.269,0.0
28.643,0.192,0.083,1.0
25.437,0.161,-0.068,0.0
22.293,0.134,-0.183,2.0
19.327,0.109,-0.265,0.0
37.583,0.198,0.52,0.0
32.357,0.159,0.27,0.0
28.578,0.13,0.081,1.0
25.355,0.106,-0.07,0.0
22.267,0.085,-0.184,1.0
19.239,0.067,-0.265,0.0
0.0,0.0,0.0,0.0
31.714,0.087,0.263,0.0
28.636,0.069,0.08,3.0
25.388,0.052,-0.071,0.0
22.097,0.038,-0.183,0.0
19.344,0.026,-0.266,0.0
37.66,0.038,0.519,0.0
33.094,0.021,0.274,0.0
28.531,0.008,0.08,1.0
25.433,-0.001,-0.07,0.0
22.089,-0.009,-0.183,0.0
19.372,-0.015,-0.266,0.0
38.038,-0.043,0.525,0.0
31.703,-0.047,0.264,0.0
28.694,-0.053,0.081,5.0
25.399,-0.056,-0.069,0.0
22.14,-0.057,-0.182,0.0
19.171,-0.056,-0.263,0.0
38.038,-0.125,0.528,0.0
32.086,-0.117,0.269,1.0
28.694,-0.114,0.083,5.0
25.253,-0.11,-0.067,0.0
22.214,-0.105,-0.18,0.0
19.357,-0.099,-0.263,0.0
0.0,0.0,0.0,0.0
32.178,-0.186,0.274,1.0
28.722,-0.177,0.087,6.0
25.258,-0.165,-0.064,0.0
22.427,-0.154,-0.179,0.0
19.362,-0.14,-0.261,0.0
38.202,-0.29,0.54,0.0
32.508,-0.258,0.281,1.0
28.719,-0.239,0.091,6.0
25.441,-0.221,-0.06,0.0
22.64,-0.205,-0.177,0.0
19.584,-0.184,-0.26,0.0
38.453,-0.375,0.55,0.0
32.54,-0.329,0.287,2.0
28.662,-0.3,0.096,1.0
25.493,-0.276,-0.055,0.0
22.844,-0.255,-0.174,1.0
19.495,-0.225,-0.255,0.0
0.0,0.0,0.0,0.0
32.934,-0.403,0.298,1.0
28.657,-0.361,0.103,1.0
25.601,-0.332,-0.049,0.0
23.04,-0.307,-0.17,1.0
19.733,-0.27,-0.253,0.0
39.278,-0.55,0.58,0.0
33.499,-0.481,0.312,1.0
28.673,-0.422,0.111,0.0
25.727,-0.388,-0.043,0.0
23.198,-0.358,-0.165,0.0
19.875,-0.314,-0.249,0.0
0.0,0.0,0.0,0.0
33.58,-0.554,0.323,2.0
28.649,-0.483,0.119,0.0
26.22,-0.451,-0.035,0.0
23.243,-0.408,-0.158,0.0
20.014,-0.359,-0.245,0.0
0.0,0.0,0.0,0.0
33.689,-0.626,0.335,2.0
28.729,-0.544,0.129,5.0
26.293,-0.508,-0.026,0.0
23.384,-0.46,-0.151,0.0
20.067,-0.402,-0.238,0.0
0.0,0.0,0.0,0.0
34.007,-0.704,0.351,1.0
28.739,-0.606,0.14,4.0
26.46,-0.567,-0.016,0.0
23.637,-0.515,-0.143,0.0
0.0,0.0,0.0,0.0
0.0,0.0,0.0,0.0
34.081,-0.778,0.365,0.0
28.719,-0.666,0.152,2.0
26.668,-0.628,-0.005,0.0
23.881,-0.571,-0.134,1.0
20.78,-0.504,-0.229,0.0
0.0,0.0,0.0,0.0
34.46,-0.857,0.385,0.0
28.761,-0.726,0.165,0.0
26.979,-0.691,0.006,0.0
23.618,-0.613,-0.122,0.0
20.972,-0.552,-0.222,1.0
42.675,-1.136,0.728,0.0
34.956,-0.943,0.407,0.0
30.638,-0.837,0.191,0.0
27.427,-0.759,0.019,0.0
0.0,0.0,0.0,0.0
21.126,-0.6,-0.213,2.0
0.0,0.0,0.0,0.0
36.345,-1.053,0.442,0.0
30.849,-0.905,0.208,0.0
27.59,-0.82,0.034,0.0
0.0,0.0,0.0,0.0
21.177,-0.644,-0.202,0.0
0.0,0.0,0.0,0.0
0.0,0.0,0.0,0.0
31.458,-0.986,0.229,0.0
28.131,-0.892,0.05,0.0
25.072,-0.804,-0.09,0.0
21.769,-0.706,-0.195,0.0
0.0,0.0,0.0,0.0
0.0,0.0,0.0,0.0
31.952,-1.066,0.252,0.0
28.476,-0.96,0.068,2.0
25.388,-0.865,-0.076,0.0
22.398,-0.771,-0.187,1.0
0.0,0.0,0.0,0.0
0.0,0.0,0.0,0.0
32.296,-1.142,0.274,0.0
28.609,-1.022,0.086,6.0
25.623,-0.924,-0.06,0.0
22.726,-0.828,-0.176,0.0
0.0,0.0,0.0,0.0
0.0,0.0,0.0,0.0
32.603,-1.218,0.298,0.0
28.624,-1.08,0.105,7.0
25.916,-0.986,-0.044,0.0
23.122,-0.888,-0.163,1.0
0.0,0.0,0.0,0.0
0.0,0.0,0.0,0.0
0.0,0.0,0.0,0.0
28.663,-1.137,0.125,7.0
25.973,-1.04,-0.025,0.0
23.364,-0.943,-0.148,1.0
0.0,0.0,0.0,0.0
0.0,0.0,0.0,0.0
34.156,-1.41,0.361,0.0
28.646,-1.192,0.146,1.0
26.232,-1.101,-0.006,0.0
23.652,-1.001,-0.133,1.0
0.0,0.0,0.0,0.0
42.647,-1.828,0.712,0.0
0.0,0.0,0.0,0.0
30.492,-1.328,0.179,0.0
27.033,-1.186,0.013,0.0
23.8,-1.052,-0.115,0.0
0.0,0.0,0.0,0.0
0.0,0.0,0.0,0.0
0.0,0.0,0.0,0.0
30.975,-1.407,0.206,0.0
27.584,-1.263,0.035,1.0
24.026,-1.108,-0.097,0.0
0.0,0.0,0.0,0.0
0.0,0.0,0.0,0.0
37.279,-1.75,0.482,0.0
31.775,-1.503,0.237,0.0
28.265,-1.346,0.06,7.0
25.432,-1.22,-0.082,0.0
0.0,0.0,0.0,0.0
0.0,0.0,0.0,0.0
38.243,-1.867,0.527,0.0
31.883,-1.567,0.265,0.0
28.429,-1.406,0.084,2.0
25.53,-1.271,-0.06,0.0
0.0,0.0,0.0,0.0
0.0,0.0,0.0,0.0
39.7,-2.01,0.581,0.0
33.032,-1.683,0.304,0.0
28.555,-1.464,0.11,0.0
25.994,-1.342,-0.038,0.0
34.446,-1.784,0.904,0.0
34.491,-1.797,0.721,1.0
34.711,-1.819,0.54,0.0
34.361,-1.812,0.347,0.0
28.648,-1.52,0.137,1.0
34.22,-1.827,-0.019,0.0
34.185,-1.831,0.929,2.0
34.232,-1.845,0.747,0.0
34.375,-1.863,0.567,1.0
34.569,-1.885,0.382,2.0
30.331,-1.663,0.173,1.0
34.245,-1.889,0.013,1.0
34.123,-1.888,0.96,3.0
34.126,-1.899,0.778,0.0
34.214,-1.914,0.597,1.0
34.727,-1.954,0.418,0.0
30.597,-1.731,0.205,1.0
28.405,-1.616,0.039,4.0
34.082,-1.945,0.993,6.0
34.029,-1.952,0.809,1.0
34.062,-1.964,0.629,0.0
34.667,-2.01,0.451,2.0
0.0,0.0,0.0,0.0
28.495,-1.67,0.068,6.0
34.027,-1.999,1.025,5.0
33.995,-2.007,0.843,3.0
33.914,-2.013,0.66,0.0
34.941,-2.084,0.49,6.0
32.028,-1.92,0.279,0.0
28.519,-1.718,0.097,12.0
33.982,-2.053,1.059,7.0
33.969,-2.062,0.877,6.0
33.91,-2.068,0.695,0.0
34.68,-2.125,0.523,7.0
33.939,-2.09,0.331,0.0
28.572,-1.768,0.127,0.0
33.984,-2.108,1.095,71.0
33.941,-2.115,0.913,10.0
33.892,-2.122,0.731,0.0
34.24,-2.154,0.553,3.0
35.571,-2.248,0.386,0.0
30.417,-1.931,0.168,0.0
33.932,-2.159,1.13,20.0
33.93,-2.169,0.949,24.0
33.893,-2.176,0.768,0.0
33.957,-2.19,0.586,0.0
0.0,0.0,0.0,0.0
31.487,-2.049,0.209,0.0
33.913,-2.211,1.167,12.0
33.906,-2.22,0.986,36.0
33.927,-2.231,0.807,1.0
33.942,-2.241,0.623,1.0
37.812,-2.507,0.494,1.0
32.335,-2.153,0.251,0.0
33.91,-2.263,1.205,5.0
33.893,-2.271,1.024,43.0
33.883,-2.279,0.844,8.0
33.89,-2.289,0.661,0.0
34.512,-2.34,0.49,3.0
33.991,-2.315,0.303,1.0
33.901,-2.313,1.244,5.0
33.866,-2.319,1.063,52.0
33.866,-2.328,0.883,26.0
33.85,-2.337,0.7,4.0
34.298,-2.377,0.527,3.0
34.786,-2.42,0.35,1.0
33.875,-2.361,1.283,27.0
33.863,-2.369,1.102,59.0
33.859,-2.377,0.923,48.0
33.891,-2.388,0.74,155.0
34.069,-2.41,0.564,3.0
35.696,-2.534,0.402,2.0
33.863,-2.409,1.322,48.0
33.842,-2.415,1.142,38.0
33.864,-2.426,0.964,80.0
33.885,-2.436,0.782,158.0
33.929,-2.448,0.603,1.0
36.875,-2.67,0.46,0.0
33.867,-2.456,1.364,17.0
33.849,-2.464,1.184,7.0
33.847,-2.471,1.004,92.0
33.884,-2.482,0.823,152.0
33.859,-2.489,0.643,71.0
34.464,-2.542,0.472,2.0
34.048,-2.516,1.414,0.0
33.86,-2.51,1.226,7.0
33.833,-2.516,1.046,92.0
33.813,-2.523,0.863,29.0
33.851,-2.534,0.686,154.0
34.31,-2.577,0.513,5.0
0.0,0.0,0.0,0.0
33.839,-2.553,1.268,42.0
33.816,-2.559,1.089,99.0
33.838,-2.569,0.907,66.0
33.858,-2.579,0.729,155.0
34.053,-2.601,0.553,4.0
34.283,-2.623,1.51,0.0
33.85,-2.598,1.312,74.0
33.824,-2.603,1.132,55.0
33.822,-2.61,0.95,140.0
33.851,-2.62,0.772,154.0
33.881,-2.631,0.593,5.0
0.0,0.0,0.0,0.0
33.824,-2.638,1.355,25.0
33.807,-2.644,1.175,9.0
33.817,-2.652,0.994,141.0
33.856,-2.662,0.816,152.0
33.825,-2.667,0.637,150.0
34.486,-2.724,1.609,0.0
33.955,-2.689,1.404,0.0
33.822,-2.685,1.22,9.0
33.802,-2.691,1.037,126.0
33.789,-2.697,0.859,36.0
33.833,-2.707,0.682,151.0
34.764,-2.787,1.668,0.0
0.0,0.0,0.0,0.0
33.82,-2.724,1.265,52.0
33.8,-2.729,1.082,137.0
33.804,-2.736,0.904,77.0
33.83,-2.745,0.726,154.0
34.933,-2.839,1.722,0.0
34.359,-2.799,1.512,0.0
33.818,-2.761,1.309,77.0
33.795,-2.766,1.126,65.0
33.818,-2.774,0.949,150.0
33.833,-2.782,0.771,154.0
0.0,0.0,0.0,0.0
0.0,0.0,0.0,0.0
33.796,-2.796,1.354,16.0
33.81,-2.803,1.172,12.0
33.805,-2.809,0.994,147.0
33.847,-2.819,0.817,150.0
151.972,-12.677,7.902,94.0
0.0,0.0,0.0,0.0
34.004,-2.848,1.408,0.0
33.806,-2.837,1.218,23.0
33.792,-2.842,1.039,127.0
33.79,-2.848,0.861,44.0
151.971,-12.83,8.109,150.0
34.764,-2.94,1.671,0.0
0.0,0.0,0.0,0.0
33.796,-2.87,1.264,58.0
33.788,-2.875,1.086,109.0
33.798,-2.882,0.908,93.0
151.975,-12.98,8.321,150.0
0.0,0.0,0.0,0.0
34.312,-2.941,1.516,0.0
33.821,-2.904,1.312,67.0
33.773,-2.905,1.132,33.0
33.797,-2.913,0.955,127.0
185.375,-16.004,10.408,15.0
151.964,-13.142,7.728,14.0
34.404,-2.98,1.567,0.0
33.821,-2.934,1.359,6.0
33.806,-2.938,1.18,13.0
33.796,-2.943,1.001,99.0
190.048,-16.575,10.935,76.0
190.078,-16.604,9.931,91.0
34.549,-3.022,1.622,0.0
34.044,-2.983,1.416,0.0
33.815,-2.968,1.227,20.0
33.782,-2.97,1.048,90.0
209.225,-18.423,12.331,14.0
209.202,-18.448,11.222,25.0
34.879,-3.08,1.686,0.0
34.185,-3.023,1.469,0.0
33.794,-2.993,1.273,53.0
33.79,-2.997,1.095,68.0
0.0,0.0,0.0,0.0
209.174,-18.61,11.514,150.0
0.0,0.0,0.0,0.0
0.0,0.0,0.0,0.0
33.813,-3.02,1.322,28.0
33.787,-3.022,1.143,17.0
149.141,-13.365,9.211,10.0
209.148,-18.766,11.811,150.0
169.83,-15.257,8.691,7.0
0.0,0.0,0.0,0.0
34.004,-3.062,1.378,0.0
33.815,-3.049,1.192,6.0
149.156,-13.474,9.423,12.0
186.328,-16.849,10.785,83.0
169.578,-15.352,8.919,15.0
34.783,-3.152,1.642,0.0
34.099,-3.094,1.43,0.0
33.815,-3.072,1.239,26.0
148.767,-13.538,9.611,13.0
150.436,-13.704,8.922,20.0
162.16,-14.785,8.759,9.0
34.582,-3.156,1.682,0.0
34.371,-3.14,1.49,0.0
33.81,-3.092,1.287,34.0
185.324,-16.98,12.237,6.0
149.616,-13.72,9.087,21.0
150.413,-13.806,8.34,11.0
0.0,0.0,0.0,0.0
34.375,-3.161,1.539,0.0
33.851,-3.116,1.337,5.0
209.266,-19.297,14.115,6.0
149.537,-13.798,9.294,14.0
150.35,-13.884,8.549,27.0
169.321,-15.65,8.715,11.0
0.0,0.0,0.0,0.0
34.074,-3.154,1.393,0.0
145.94,-13.535,10.05,3.0
185.22,-17.19,11.774,7.0
149.705,-13.903,8.722,22.0
150.223,-13.96,7.945,13.0
34.714,-3.228,1.652,0.0
34.203,-3.183,1.447,0.0
153.337,-14.297,10.779,9.0
151.5,-14.133,9.846,13.0
149.555,-13.96,8.926,18.0
150.007,-14.011,8.144,20.0
0.0,0.0,0.0,0.0
34.303,-3.208,1.5,0.0
145.943,-13.673,10.467,10.0
151.519,-14.202,10.061,20.0
170.098,-15.949,10.393,7.0
149.781,-14.052,8.342,28.0
150.253,-14.102,7.573,7.0
34.508,-3.24,1.557,0.0
145.976,-13.734,10.671,7.0
151.494,-14.259,10.27,20.0
199.079,-18.743,12.44,8.0
149.627,-14.093,8.542,28.0
150.222,-14.155,7.78,31.0
34.599,-3.261,1.609,0.0
143.698,-13.571,10.707,9.0
147.088,-13.895,10.179,10.0
185.176,-17.498,11.83,13.0
149.577,-14.137,8.749,20.0
150.095,-14.191,7.985,29.0
34.687,-3.28,1.662,0.0
147.783,-14.004,11.221,8.0
151.449,-14.354,10.692,12.0
189.922,-18.001,12.403,6.0
149.519,-14.175,8.955,13.0
149.935,-14.218,8.184,24.0
0.0,0.0,0.0,0.0
145.557,-13.832,11.253,16.0
151.608,-14.407,10.915,6.0
185.213,-17.603,12.35,7.0
149.48,-14.207,9.158,4.0
149.858,-14.245,8.385,18.0
150.241,-14.284,7.611,13.0
145.358,-13.845,11.44,19.0
143.628,-13.68,10.538,13.0
147.083,-14.008,10.009,11.0
149.308,-14.221,9.352,10.0
149.686,-14.256,8.583,12.0
150.209,-14.307,7.817,20.0
145.363,-13.872,11.64,12.0
143.737,-13.715,10.743,9.0
151.374,-14.441,10.509,11.0
149.21,-14.234,9.549,12.0
149.534,-14.264,8.776,24.0
159.347,-15.198,8.506,6.0
145.251,-13.881,11.829,4.0
146.101,-13.959,11.119,4.0
151.459,-14.468,10.72,20.0
194.573,-18.581,12.716,8.0
149.565,-14.281,8.979,31.0
160.212,-15.296,8.768,5.0
145.535,-13.922,12.05,10.0
145.696,-13.931,11.285,14.0
151.509,-14.483,10.928,12.0
185.11,-17.69,12.347,8.0
149.521,-14.286,9.176,16.0
160.499,-15.33,8.998,7.0
145.335,-13.91,12.226,12.0
145.329,-13.902,11.45,15.0
143.716,-13.742,10.554,12.0
143.475,-13.714,9.757,4.0
149.308,-14.267,9.358,13.0
149.566,-14.286,8.58,4.0
144.975,-13.875,12.389,4.0
145.306,-13.9,11.638,14.0
147.703,-14.121,11.04,7.0
143.427,-13.706,9.941,10.0
149.26,-14.257,9.549,11.0
149.548,-14.278,8.772,24.0
147.611,-14.122,12.807,5.0
145.187,-13.881,11.819,5.0
147.808,-14.123,11.242,7.0
151.431,-14.461,10.692,20.0
189.892,-18.123,12.396,8.0
149.582,-14.269,8.968,26.0
146.323,-13.986,12.886,6.0
145.412,-13.889,12.026,5.0
145.617,-13.9,11.262,14.0
151.386,-14.44,10.883,13.0
185.264,-17.66,12.329,9.0
149.6,-14.252,9.158,8.0
146.42,-13.977,13.082,7.0
145.215,-13.851,12.194,13.0
145.317,-13.849,11.423,18.0
143.639,-13.679,10.506,11.0
147.054,-13.994,9.97,12.0
149.256,-14.193,9.322,4.0
147.312,-14.038,13.344,5.0
145.237,-13.828,12.375,3.0
145.424,-13.833,11.61,6.0
143.727,-13.659,10.69,10.0
147.101,-13.969,10.153,11.0
185.152,-17.568,11.789,5.0
146.874,-13.966,13.484,4.0
147.858,-14.045,12.779,6.0
0.0,0.0,0.0,0.0
147.721,-14.004,11.167,4.0
151.48,-14.348,10.638,9.0
185.164,-17.523,12.013,11.0
144.671,-13.72,13.457,3.0
146.533,-13.881,12.841,5.0
145.515,-13.77,11.97,3.0
145.499,-13.753,11.173,14.0
145.971,-13.785,10.425,11.0
151.505,-14.294,10.008,12.0
144.562,-13.667,13.621,6.0
147.076,-13.888,13.065,10.0
145.377,-13.712,12.13,12.0
145.396,-13.699,11.335,18.0
146.037,-13.743,10.602,9.0
151.497,-14.242,10.185,14.0
145.403,-13.699,13.87,14.0
147.528,-13.88,13.277,10.0
145.042,-13.629,12.272,8.0
145.49,-13.655,11.51,13.0
143.73,-13.474,10.598,11.0
147.119,-13.776,10.058,7.0
145.571,-13.66,14.053,18.0
0.0,0.0,0.0,0.0
147.698,-13.821,12.664,3.0
145.848,-13.631,11.703,12.0
143.704,-13.414,10.757,10.0
153.451,-14.306,10.662,6.0
145.507,-13.593,14.212,16.0
147.059,-13.718,13.568,5.0
0.0,0.0,0.0,0.0
145.887,-13.57,11.869,7.0
145.513,-13.518,11.052,6.0
153.448,-14.237,10.828,3.0
145.422,-13.52,14.364,13.0
147.68,-13.708,13.787,12.0
146.906,-13.616,12.919,9.0
147.127,-13.616,12.129,8.0
145.466,-13.442,11.206,9.0
146.312,-13.501,10.483,6.0
145.492,-13.455,14.528,4.0
146.11,-13.49,13.796,8.0
147.048,-13.554,13.087,4.0
145.066,-13.351,12.11,7.0
144.832,-13.309,11.307,13.0
146.315,-13.426,10.632,6.0
146.398,-13.461,14.771,15.0
145.846,-13.387,13.923,12.0
145.28,-13.313,13.079,12.0
145.057,-13.271,12.258,10.0
144.676,-13.214,11.442,21.0
146.238,-13.336,10.776,11.0
145.835,-13.326,14.863,14.0
145.649,-13.285,14.052,10.0
144.986,-13.201,13.199,17.0
146.844,-13.348,12.555,5.0
144.655,-13.126,11.584,14.0
145.624,-13.191,10.875,15.0
145.397,-13.198,14.964,19.0
146.026,-13.23,14.231,17.0
147.024,-13.296,13.529,8.0
147.24,-13.291,12.733,8.0
144.612,-13.031,11.72,14.0
145.147,-13.057,10.976,17.0
145.702,-13.134,15.133,17.0
146.325,-13.165,14.398,15.0
146.957,-13.195,13.66,10.0
147.025,-13.175,12.851,3.0
144.386,-12.916,11.835,18.0
145.237,-12.968,11.116,14.0
145.61,-13.027,15.259,19.0
146.093,-13.044,14.51,15.0
146.748,-13.075,13.775,6.0
145.629,-12.95,12.86,12.0
144.31,-12.808,11.958,17.0
144.94,-12.84,11.222,18.0
145.426,-12.906,15.372,19.0
146.104,-12.939,14.642,15.0
145.715,-12.879,13.806,9.0
145.643,-12.845,12.989,20.0
144.742,-12.741,12.119,14.0
144.879,-12.727,11.342,13.0
145.402,-12.797,15.495,13.0
145.718,-12.796,14.729,16.0
145.772,-12.773,13.935,14.0
145.804,-12.748,13.127,12.0
145.127,-12.661,12.275,13.0
145.058,-12.629,11.477,17.0
145.919,-12.729,15.672,10.0
145.717,-12.68,14.851,14.0
145.523,-12.635,14.032,15.0
0.0,0.0,0.0,0.0
146.128,-12.632,12.476,3.0
145.007,-12.507,11.59,14.0
146.0,-12.616,15.799,4.0
145.806,-12.571,14.973,12.0
145.442,-12.509,14.138,18.0
146.991,-12.612,13.468,5.0
146.176,-12.515,12.592,6.0
145.152,-12.399,11.711,10.0
148.792,-12.732,16.215,7.0
145.742,-12.44,15.08,18.0
145.424,-12.383,14.246,17.0
144.938,-12.312,13.388,16.0
145.349,-12.317,12.629,4.0
154.222,-13.038,12.556,5.0
148.346,-12.564,16.275,12.0
145.807,-12.317,15.192,5.0
145.411,-12.252,14.35,17.0
145.014,-12.189,13.497,13.0
145.359,-12.188,12.731,12.0
146.13,-12.222,11.998,11.0
148.237,-12.422,16.365,8.0
147.573,-12.333,15.476,9.0
145.75,-12.147,14.482,9.0
144.919,-12.048,13.586,13.0
145.63,-12.076,12.852,12.0
146.343,-12.103,12.113,10.0
148.393,-12.295,16.481,20.0
147.212,-12.163,15.535,15.0
146.584,-12.079,14.659,12.0
144.868,-11.906,13.673,13.0
145.371,-11.916,12.92,20.0
146.267,-11.958,12.196,7.0
148.657,-12.174,16.603,12.0
147.117,-12.015,15.615,13.0
146.763,-11.952,14.765,13.0
144.695,-11.751,13.743,9.0
145.419,-11.777,13.01,13.0
146.108,-11.803,12.266,10.0
148.779,-12.036,16.704,9.0
146.689,-11.834,15.654,14.0
148.112,-11.914,14.985,5.0
145.929,-11.705,13.942,7.0
145.402,-11.63,13.089,11.0
146.019,-11.648,12.338,13.0
148.714,-11.88,16.778,16.0
146.69,-11.683,15.734,7.0
148.259,-11.774,15.078,9.0
145.892,-11.552,14.014,12.0
145.892,-11.518,13.208,6.0
145.72,-11.473,12.387,14.0
151.681,-11.96,17.188,7.0
148.965,-11.708,16.052,12.0
148.763,-11.658,15.203,9.0
145.811,-11.393,14.076,20.0
146.859,-11.439,13.365,4.0
145.666,-11.313,12.451,22.0
148.708,-11.565,16.922,4.0
148.613,-11.522,16.081,10.0
148.233,-11.456,15.215,10.0
145.669,-11.223,14.128,22.0
118.823,-9.127,10.865,8.0
145.652,-11.155,12.511,13.0
0.0,0.0,0.0,0.0
0.0,0.0,0.0,0.0
147.965,-11.273,15.249,15.0
146.232,-11.107,14.241,9.0
147.56,-11.174,13.549,4.0
119.186,-8.996,10.284,12.0
148.756,-11.205,16.215,9.0
148.014,-11.111,15.309,13.0
147.232,-11.017,14.391,5.0
145.663,-10.865,13.428,13.0
119.268,-8.868,10.332,18.0
148.563,-11.02,16.245,14.0
148.705,-10.993,15.429,11.0
146.178,-10.769,14.336,13.0
146.72,-10.774,13.572,9.0
118.87,-8.7,10.334,14.0
0.0,0.0,0.0,0.0
148.574,-10.848,16.289,14.0
147.676,-10.743,15.365,11.0
146.325,-10.61,14.391,14.0
146.583,-10.594,13.598,7.0
118.935,-8.567,10.371,13.0
0.0,0.0,0.0,0.0
148.555,-10.671,16.325,17.0
148.596,-10.636,15.497,11.0
146.492,-10.45,14.442,13.0
118.397,-8.416,11.01,6.0
118.825,-8.417,10.387,16.0
148.445,-10.524,17.18,7.0
89.684,-6.334,9.874,10.0
148.14,-10.425,15.479,5.0
90.546,-6.349,8.944,9.0
118.362,-8.27,11.03,9.0
117.004,-8.146,10.25,13.0
89.618,-6.243,10.388,4.0
