X,Y,Z,Reflectivity
34.159,2.678,3.923,35.0
34.196,2.684,3.73,28.0
49.399,3.881,5.104,8.0
49.531,3.895,4.828,9.0
48.911,3.851,4.487,19.0
51.879,4.088,4.463,19.0
34.152,2.706,3.896,26.0
34.27,2.718,3.711,29.0
43.01,3.414,4.41,22.0
51.701,4.108,4.999,4.0
53.546,4.259,4.87,5.0
51.906,4.132,4.424,18.0
34.175,2.735,3.87,27.0
34.24,2.743,3.679,29.0
42.952,3.443,4.369,17.0
48.868,3.921,4.685,16.0
60.357,4.847,5.439,19.0
51.927,4.174,4.382,17.0
34.065,2.752,3.829,29.0
34.169,2.763,3.643,18.0
34.033,2.754,3.432,21.0
48.878,3.958,4.643,21.0
60.373,4.894,5.389,28.0
51.957,4.215,4.339,23.0
34.161,2.785,3.809,24.0
43.113,3.518,4.558,4.0
42.693,3.486,4.268,16.0
48.854,3.991,4.597,16.0
60.477,4.945,5.343,25.0
51.933,4.25,4.29,23.0
49.053,4.034,5.425,12.0
33.957,2.794,3.559,31.0
42.664,3.513,4.225,22.0
51.549,4.247,4.803,14.0
59.613,4.915,5.212,27.0
51.84,4.278,4.234,19.0
49.062,4.068,5.379,18.0
33.954,2.816,3.526,30.0
42.543,3.531,4.172,16.0
0.0,0.0,0.0,0.0
59.577,4.951,5.151,33.0
51.868,4.313,4.187,20.0
34.086,2.848,3.703,22.0
33.89,2.833,3.486,31.0
42.546,3.557,4.131,14.0
51.654,4.321,4.712,18.0
59.708,4.998,5.103,33.0
51.849,4.343,4.133,27.0
34.095,2.869,3.669,22.0
33.854,2.85,3.448,28.0
42.499,3.579,4.083,8.0
53.411,4.5,4.817,8.0
59.729,5.035,5.043,20.0
51.838,4.372,4.079,39.0
34.017,2.881,3.626,29.0
42.643,3.614,4.298,13.0
51.534,4.368,4.896,20.0
59.752,5.067,5.326,8.0
51.711,4.387,4.312,29.0
51.833,4.399,4.024,36.0
34.021,2.9,3.59,23.0
42.656,3.637,4.253,21.0
51.6,4.401,4.847,22.0
59.377,5.065,5.229,24.0
51.716,4.413,4.257,46.0
51.813,4.423,3.967,35.0
33.967,2.912,3.547,31.0
42.698,3.661,4.211,17.0
51.48,4.415,4.779,20.0
59.475,5.102,5.172,30.0
51.749,4.44,4.202,44.0
51.818,4.448,3.909,38.0
33.925,2.924,3.504,30.0
42.83,3.691,4.175,16.0
51.428,4.433,4.716,21.0
59.506,5.13,5.107,19.0
51.768,4.464,4.145,41.0
51.825,4.471,3.851,44.0
33.994,2.944,3.471,29.0
51.379,4.449,4.95,6.0
51.44,4.455,4.658,19.0
51.658,4.474,4.374,41.0
51.796,4.487,4.087,38.0
51.847,4.493,3.792,43.0
42.784,3.721,4.319,31.0
51.355,4.466,4.886,21.0
51.599,4.488,4.611,23.0
51.676,4.494,4.315,21.0
51.807,4.506,4.027,33.0
51.87,4.512,3.733,37.0
42.887,3.744,4.278,39.0
51.447,4.491,4.834,25.0
51.633,4.507,4.552,54.0
59.16,5.164,4.868,14.0
51.823,4.524,3.965,17.0
51.865,4.528,3.67,43.0
42.927,3.76,4.229,32.0
51.525,4.513,4.777,27.0
51.632,4.522,4.488,49.0
51.792,4.536,4.197,13.0
51.833,4.539,3.902,21.0
51.89,4.544,3.607,20.0
42.872,3.767,4.169,14.0
51.454,4.52,4.706,25.0
59.114,5.191,5.064,12.0
51.8,4.549,4.133,22.0
51.851,4.553,3.837,27.0
51.895,4.556,3.542,25.0
51.322,4.52,4.925,18.0
51.542,4.538,4.648,32.0
59.136,5.206,4.99,25.0
51.803,4.559,4.067,18.0
51.862,4.564,3.772,42.0
51.908,4.568,3.476,38.0
51.366,4.533,4.863,27.0
51.623,4.554,4.588,24.0
59.227,5.223,4.921,25.0
51.834,4.57,4.002,13.0
51.865,4.572,3.705,37.0
51.939,4.578,3.411,41.0
51.477,4.55,4.805,30.0
59.562,5.262,5.215,19.0
59.223,5.23,4.842,13.0
51.85,4.578,3.935,17.0
51.893,4.58,3.638,26.0
51.965,4.586,3.344,26.0
51.442,4.551,4.733,23.0
59.287,5.243,5.111,33.0
51.804,4.579,4.166,22.0
51.863,4.583,3.866,20.0
51.895,4.584,3.569,30.0
51.997,4.592,3.277,18.0
51.461,4.555,4.666,22.0
59.176,5.236,5.022,27.0
51.793,4.58,4.096,19.0
51.863,4.584,3.797,26.0
51.919,4.587,3.501,31.0
52.045,4.597,3.21,16.0
51.558,4.564,4.604,13.0
59.209,5.238,4.945,28.0
51.846,4.585,4.029,15.0
51.869,4.584,3.726,33.0
51.938,4.588,3.432,30.0
60.143,5.311,3.627,9.0
59.597,5.274,5.24,19.0
59.206,5.235,4.863,19.0
51.85,4.583,3.958,16.0
51.886,4.583,3.656,25.0
51.973,4.588,3.363,23.0
60.156,5.308,3.546,7.0
59.318,5.244,5.134,33.0
51.816,4.577,4.184,21.0
51.865,4.579,3.888,18.0
51.895,4.579,3.585,29.0
51.986,4.584,3.292,25.0
52.105,4.592,2.999,16.0
59.189,5.225,5.04,25.0
51.804,4.57,4.111,20.0
51.863,4.572,3.815,29.0
51.905,4.572,3.513,35.0
52.01,4.579,3.22,26.0
52.076,4.582,2.924,19.0
59.182,5.215,4.955,23.0
51.827,4.563,4.039,16.0
51.876,4.564,3.742,42.0
51.916,4.564,3.44,36.0
52.024,4.57,3.147,27.0
52.075,4.572,2.85,20.0
59.159,5.2,4.868,14.0
51.833,4.552,3.965,14.0
51.882,4.553,3.669,25.0
51.936,4.554,3.367,43.0
52.033,4.559,3.074,35.0
52.082,4.56,2.777,30.0
51.806,4.541,4.189,15.0
51.84,4.54,3.891,24.0
51.857,4.537,3.593,21.0
51.952,4.541,3.295,51.0
52.046,4.546,3.0,40.0
52.072,4.544,2.702,38.0
51.805,4.525,4.115,34.0
51.851,4.525,3.818,25.0
51.881,4.523,3.52,23.0
51.963,4.526,3.22,45.0
52.029,4.527,2.924,53.0
52.062,4.527,2.627,38.0
51.813,4.508,4.04,32.0
51.858,4.508,3.743,40.0
51.89,4.506,3.445,28.0
51.974,4.508,3.146,45.0
52.022,4.508,2.849,42.0
52.05,4.507,2.551,46.0
51.822,4.489,3.964,40.0
51.858,4.487,3.667,42.0
51.907,4.487,3.371,46.0
51.975,4.488,3.07,43.0
52.034,4.488,2.774,51.0
52.059,4.486,2.475,54.0
51.824,4.467,3.889,43.0
51.856,4.464,3.591,31.0
51.927,4.465,3.296,59.0
51.978,4.465,2.995,44.0
52.035,4.465,2.698,58.0
52.074,4.463,2.4,58.0
51.871,4.447,3.816,37.0
51.865,4.441,3.516,35.0
51.946,4.442,3.221,64.0
51.973,4.439,2.918,51.0
52.043,4.44,2.622,58.0
52.073,4.437,2.324,53.0
51.873,4.42,3.74,18.0
51.886,4.415,3.441,38.0
51.96,4.416,3.146,53.0
51.995,4.413,2.843,48.0
52.05,4.412,2.546,52.0
52.109,4.412,2.249,39.0
51.875,4.391,3.663,33.0
51.935,4.39,3.367,43.0
51.978,4.388,3.071,39.0
52.034,4.387,2.769,50.0
52.085,4.385,2.471,39.0
52.161,4.386,2.175,28.0
51.906,4.362,3.589,33.0
51.966,4.361,3.293,38.0
51.993,4.357,2.995,22.0
52.055,4.356,2.693,43.0
52.143,4.357,2.398,20.0
52.212,4.357,2.1,14.0
51.922,4.33,3.514,36.0
51.99,4.329,3.218,35.0
52.028,4.326,2.92,18.0
52.106,4.326,2.62,20.0
62.496,5.181,2.783,7.0
81.182,6.721,3.148,12.0
51.989,4.3,3.442,16.0
52.044,4.298,3.146,14.0
52.113,4.297,2.849,14.0
62.368,5.134,3.044,15.0
62.81,5.162,2.705,8.0
81.143,6.66,3.028,19.0
59.399,4.87,3.845,26.0
60.006,4.911,3.538,4.0
62.115,5.075,3.304,32.0
81.596,6.656,3.863,8.0
62.936,5.125,2.618,6.0
62.814,5.107,2.251,12.0
59.341,4.819,3.754,29.0
62.291,5.049,3.582,6.0
62.068,5.022,3.211,32.0
81.607,6.592,3.745,23.0
81.462,6.569,3.269,27.0
47.895,3.856,1.647,150.0
0.0,0.0,0.0,0.0
62.589,5.022,3.507,7.0
62.199,4.981,3.126,8.0
81.81,6.54,3.634,24.0
48.903,3.902,1.891,6.0
47.854,3.812,1.575,17.0
0.0,0.0,0.0,0.0
62.494,4.959,3.41,11.0
81.58,6.462,3.982,26.0
81.795,6.467,3.515,30.0
48.884,3.858,1.82,7.0
47.579,3.748,1.498,8.0
62.247,4.894,3.665,20.0
62.384,4.895,3.314,7.0
81.64,6.393,3.867,36.0
81.67,6.382,3.39,27.0
47.738,3.723,1.708,3.0
47.43,3.692,1.425,8.0
77.356,6.009,4.442,20.0
81.493,6.316,4.211,11.0
81.811,6.327,3.756,34.0
48.931,3.777,1.961,3.0
47.637,3.669,1.635,7.0
47.396,3.643,1.355,12.0
77.516,5.944,4.339,29.0
81.478,6.234,4.092,12.0
81.59,6.229,3.629,28.0
48.745,3.713,1.883,1.0
47.643,3.621,1.567,12.0
47.371,3.593,1.286,16.0
77.331,5.85,4.217,26.0
81.406,6.144,3.972,30.0
81.776,6.157,3.52,10.0
48.249,3.624,1.795,1.0
47.367,3.55,1.491,10.0
47.353,3.541,1.219,15.0
77.29,5.764,4.105,26.0
81.218,6.042,3.847,31.0
49.06,3.641,2.042,0.0
47.771,3.537,1.71,2.0
47.29,3.493,1.422,20.0
47.367,3.491,1.153,3.0
80.188,5.891,4.147,20.0
81.365,5.962,3.74,19.0
0.0,0.0,0.0,0.0
47.547,3.467,1.635,6.0
47.281,3.439,1.355,23.0
47.323,3.433,1.085,0.0
80.838,5.846,4.067,37.0
49.163,3.546,2.191,0.0
48.263,3.471,1.874,0.0
47.365,3.398,1.563,12.0
47.265,3.382,1.289,71.0
47.323,3.378,1.02,2.0
80.644,5.737,3.946,46.0
0.0,0.0,0.0,0.0
48.056,3.399,1.8,1.0
47.266,3.334,1.495,17.0
47.271,3.325,1.224,164.0
47.312,3.319,0.955,3.0
80.83,5.649,3.843,12.0
0.0,0.0,0.0,0.0
47.693,3.313,1.72,3.0
47.225,3.271,1.428,26.0
47.26,3.265,1.159,158.0
50.997,3.513,0.96,1.0
0.0,0.0,0.0,0.0
0.0,0.0,0.0,0.0
47.466,3.237,1.649,8.0
47.222,3.211,1.365,120.0
47.242,3.203,1.095,60.0
50.918,3.442,0.89,8.0
0.0,0.0,0.0,0.0
0.0,0.0,0.0,0.0
47.358,3.168,1.582,8.0
47.24,3.15,1.303,160.0
47.252,3.14,1.033,3.0
47.734,3.163,0.771,0.0
0.0,0.0,0.0,0.0
47.901,3.149,1.811,1.0
47.218,3.094,1.515,14.0
47.226,3.085,1.241,164.0
47.291,3.079,0.972,4.0
44.057,2.859,0.655,0.0
0.0,0.0,0.0,0.0
47.655,3.067,1.739,3.0
47.199,3.027,1.453,35.0
47.223,3.018,1.179,156.0
47.341,3.015,0.912,0.0
0.0,0.0,0.0,0.0
0.0,0.0,0.0,0.0
47.458,2.986,1.671,7.0
47.184,2.958,1.392,67.0
47.208,2.95,1.119,150.0
53.682,3.342,0.966,0.0
47.244,2.931,0.581,1.0
0.0,0.0,0.0,0.0
47.321,2.909,1.606,11.0
47.216,2.892,1.334,153.0
47.265,2.884,1.061,5.0
47.597,2.894,0.797,2.0
47.284,2.864,0.523,0.0
48.024,2.892,1.845,1.0
47.248,2.834,1.546,17.0
47.228,2.822,1.275,23.0
47.22,2.81,1.002,6.0
47.754,2.832,0.741,4.0
33.672,1.989,0.331,0.0
47.699,2.8,1.775,3.0
47.198,2.759,1.487,31.0
47.246,2.751,1.219,14.0
47.291,2.742,0.946,2.0
41.885,2.419,0.6,0.0
33.015,1.899,0.285,0.0
47.521,2.717,1.711,5.0
47.231,2.688,1.431,20.0
47.28,2.679,1.164,2.0
0.0,0.0,0.0,0.0
0.0,0.0,0.0,0.0
32.26,1.805,0.24,1.0
47.4,2.635,1.651,5.0
47.244,2.614,1.376,22.0
47.297,2.605,1.109,0.0
48.819,2.676,0.862,4.0
0.0,0.0,0.0,0.0
30.851,1.676,0.194,1.0
47.529,2.564,1.6,79.0
47.288,2.539,1.323,25.0
47.262,2.526,1.054,3.0
49.0,2.606,0.809,1.0
35.388,1.873,0.384,0.0
30.027,1.582,0.155,0.0
47.331,2.476,1.54,10.0
47.33,2.463,1.271,21.0
47.293,2.45,1.002,2.0
45.043,2.321,0.694,0.0
33.788,1.732,0.329,0.0
29.037,1.481,0.118,0.0
47.391,2.4,1.49,11.0
47.344,2.384,1.22,21.0
47.547,2.382,0.955,0.0
0.0,0.0,0.0,0.0
32.595,1.615,0.282,1.0
28.4,1.4,0.084,0.0
47.601,2.328,1.445,0.0
47.388,2.305,1.17,21.0
50.389,2.438,0.958,2.0
0.0,0.0,0.0,0.0
32.091,1.535,0.243,1.0
27.719,1.319,0.053,0.0
47.438,2.239,1.391,7.0
47.42,2.224,1.121,13.0
47.782,2.228,0.859,1.0
36.349,1.685,0.444,0.0
30.9,1.424,0.202,0.0
27.115,1.242,0.024,0.0
47.517,2.157,1.344,7.0
47.599,2.148,1.077,1.0
47.535,2.132,0.806,0.0
35.594,1.586,0.399,0.0
29.943,1.326,0.166,1.0
26.536,1.168,-0.002,0.0
47.939,2.091,1.309,0.0
0.0,0.0,0.0,0.0
42.121,1.813,0.673,1.0
34.023,1.455,0.348,0.0
28.957,1.23,0.132,0.0
26.084,1.101,-0.027,0.0
48.457,2.026,1.276,5.0
0.0,0.0,0.0,0.0
0.0,0.0,0.0,0.0
33.339,1.366,0.31,1.0
28.81,1.172,0.105,1.0
25.615,1.034,-0.051,0.0
48.983,1.958,1.244,2.0
0.0,0.0,0.0,0.0
0.0,0.0,0.0,0.0
32.794,1.282,0.274,1.0
28.499,1.106,0.077,1.0
25.442,0.98,-0.073,1.0
49.521,1.887,1.213,0.0
50.694,1.917,0.956,1.0
0.0,0.0,0.0,0.0
31.892,1.187,0.238,0.0
27.758,1.025,0.051,0.0
24.503,0.897,-0.092,1.0
0.0,0.0,0.0,0.0
0.0,0.0,0.0,0.0
36.187,1.289,0.447,0.0
30.944,1.093,0.205,0.0
27.2,0.952,0.027,0.0
24.293,0.843,-0.112,1.0
50.718,1.74,1.156,0.0
0.0,0.0,0.0,0.0
35.285,1.189,0.406,0.0
29.002,0.969,0.168,0.0
26.76,0.886,0.004,0.0
23.858,0.782,-0.129,0.0
0.0,0.0,0.0,0.0
0.0,0.0,0.0,0.0
34.823,1.106,0.373,1.0
28.959,0.911,0.145,6.0
26.456,0.824,-0.016,0.0
23.272,0.718,-0.144,0.0
55.583,1.691,1.179,5.0
0.0,0.0,0.0,0.0
33.754,1.006,0.336,1.0
28.92,0.853,0.123,6.0
26.017,0.759,-0.035,0.0
23.177,0.669,-0.161,0.0
56.303,1.602,1.152,4.0
0.0,0.0,0.0,0.0
0.0,0.0,0.0,0.0
28.847,0.794,0.101,5.0
25.584,0.696,-0.053,0.0
22.583,0.607,-0.173,0.0
56.819,1.504,1.123,1.0
39.67,1.037,0.561,0.0
32.7,0.844,0.279,0.0
28.739,0.733,0.081,1.0
25.25,0.636,-0.07,0.0
22.173,0.551,-0.185,0.0
47.673,1.167,0.91,2.0
0.0,0.0,0.0,0.0
32.026,0.763,0.252,0.0
28.578,0.672,0.062,0.0
24.952,0.578,-0.085,0.0
21.931,0.501,-0.198,0.0
47.758,1.072,0.881,1.0
36.999,0.819,0.475,0.0
31.433,0.685,0.227,0.0
27.449,0.589,0.042,0.0
24.608,0.52,-0.099,0.0
21.787,0.453,-0.21,0.0
0.0,0.0,0.0,0.0
36.552,0.734,0.447,0.0
31.213,0.616,0.207,0.0
27.219,0.529,0.026,0.0
24.157,0.461,-0.111,0.0
21.513,0.404,-0.219,0.0
0.0,0.0,0.0,0.0
35.555,0.641,0.415,0.0
29.063,0.515,0.177,0.0
26.839,0.466,0.01,0.0
23.947,0.408,-0.123,0.0
20.648,0.345,-0.222,0.0
43.432,0.709,0.727,0.0
34.921,0.558,0.389,0.0
28.919,0.452,0.161,2.0
26.638,0.408,-0.002,0.0
23.767,0.355,-0.135,0.0
20.577,0.301,-0.231,0.0
40.72,0.58,0.661,0.0
0.0,0.0,0.0,0.0
28.896,0.391,0.146,4.0
26.386,0.348,-0.015,0.0
23.519,0.302,-0.145,0.0
20.298,0.254,-0.238,0.0
0.0,0.0,0.0,0.0
34.031,0.401,0.346,0.0
28.887,0.33,0.133,6.0
26.115,0.29,-0.027,0.0
23.318,0.251,-0.154,0.0
20.027,0.208,-0.243,0.0
0.0,0.0,0.0,0.0
33.237,0.322,0.324,0.0
28.823,0.269,0.121,5.0
25.987,0.234,-0.037,0.0
22.693,0.196,-0.159,0.0
19.786,0.164,-0.248,0.0
38.951,0.309,0.582,0.0
0.0,0.0,0.0,0.0
28.759,0.207,0.109,1.0
25.79,0.177,-0.047,0.0
22.546,0.147,-0.166,0.0
19.648,0.121,-0.254,0.0
0.0,0.0,0.0,0.0
33.291,0.181,0.3,0.0
28.691,0.146,0.099,1.0
25.495,0.121,-0.055,0.0
22.524,0.099,-0.173,1.0
19.548,0.079,-0.259,0.0
0.0,0.0,0.0,0.0
0.0,0.0,0.0,0.0
28.691,0.085,0.091,3.0
25.36,0.066,-0.062,0.0
22.124,0.05,-0.177,0.0
19.414,0.037,-0.263,0.0
0.0,0.0,0.0,0.0
33.061,0.04,0.279,0.0
28.618,0.024,0.083,1.0
25.269,0.013,-0.069,0.0
22.082,0.003,-0.182,0.0
19.242,-0.003,-0.265,0.0
0.0,0.0,0.0,0.0
31.776,-0.028,0.261,0.0
28.647,-0.035,0.076,4.0
25.194,-0.04,-0.074,0.0
22.003,-0.043,-0.186,0.0
19.252,-0.044,-0.27,0.0
0.0,0.0,0.0,0.0
31.71,-0.095,0.254,0.0
28.62,-0.096,0.071,4.0
25.063,-0.093,-0.078,0.0
21.983,-0.089,-0.19,0.0
19.054,-0.084,-0.27,0.0
36.683,-0.175,0.49,0.0
31.689,-0.162,0.248,1.0
28.548,-0.156,0.066,3.0
24.827,-0.145,-0.081,0.0
22.078,-0.137,-0.194,1.0
19.068,-0.125,-0.273,0.0
37.368,-0.258,0.494,0.0
31.746,-0.231,0.245,2.0
28.486,-0.218,0.062,2.0
24.879,-0.199,-0.084,0.0
22.151,-0.185,-0.197,0.0
18.912,-0.165,-0.273,0.0
0.0,0.0,0.0,0.0
31.855,-0.3,0.243,1.0
28.095,-0.274,0.059,1.0
24.754,-0.251,-0.086,0.0
22.064,-0.232,-0.198,0.0
18.999,-0.206,-0.275,0.0
0.0,0.0,0.0,0.0
32.036,-0.37,0.242,0.0
28.081,-0.335,0.058,0.0
24.835,-0.305,-0.087,0.0
22.021,-0.278,-0.198,1.0
18.961,-0.247,-0.275,0.0
0.0,0.0,0.0,0.0
31.542,-0.432,0.238,0.0
28.106,-0.395,0.058,1.0
24.879,-0.359,-0.087,0.0
22.063,-0.326,-0.199,1.0
18.985,-0.288,-0.275,0.0
0.0,0.0,0.0,0.0
31.602,-0.5,0.239,0.0
28.098,-0.455,0.058,1.0
24.996,-0.414,-0.087,0.0
22.08,-0.374,-0.198,0.0
18.988,-0.328,-0.274,0.0
0.0,0.0,0.0,0.0
31.48,-0.565,0.24,0.0
28.383,-0.52,0.061,1.0
24.846,-0.464,-0.085,0.0
22.172,-0.423,-0.197,0.0
18.967,-0.369,-0.273,0.0
0.0,0.0,0.0,0.0
31.722,-0.638,0.245,0.0
28.52,-0.584,0.064,2.0
24.68,-0.515,-0.081,0.0
22.126,-0.469,-0.194,0.0
19.189,-0.414,-0.273,0.0
0.0,0.0,0.0,0.0
31.797,-0.707,0.25,0.0
28.55,-0.645,0.068,4.0
25.081,-0.576,-0.079,0.0
22.277,-0.519,-0.192,0.0
19.275,-0.457,-0.271,0.0
0.0,0.0,0.0,0.0
0.0,0.0,0.0,0.0
28.559,-0.706,0.074,6.0
25.196,-0.632,-0.075,0.0
22.309,-0.567,-0.188,0.0
19.332,-0.499,-0.268,0.0
37.871,-0.987,0.52,0.0
32.081,-0.848,0.265,0.0
28.577,-0.766,0.08,2.0
25.466,-0.692,-0.07,0.0
22.411,-0.617,-0.184,0.0
19.451,-0.543,-0.266,0.0
37.899,-1.068,0.529,0.0
32.4,-0.925,0.275,0.0
28.531,-0.825,0.087,1.0
0.0,0.0,0.0,0.0
22.474,-0.666,-0.178,0.0
19.443,-0.583,-0.26,0.0
38.136,-1.154,0.543,0.0
32.462,-0.994,0.285,0.0
28.579,-0.885,0.095,1.0
0.0,0.0,0.0,0.0
22.578,-0.716,-0.172,0.0
19.546,-0.627,-0.256,0.0
0.0,0.0,0.0,0.0
32.253,-1.054,0.294,0.0
28.587,-0.945,0.104,1.0
26.006,-0.87,-0.048,0.0
22.539,-0.762,-0.164,0.0
19.589,-0.669,-0.249,0.0
39.257,-1.351,0.585,0.0
33.164,-1.153,0.314,0.0
28.596,-1.004,0.115,1.0
26.095,-0.926,-0.039,0.0
22.912,-0.821,-0.159,0.0
19.925,-0.721,-0.246,0.0
0.0,0.0,0.0,0.0
32.757,-1.206,0.323,0.0
28.644,-1.064,0.126,6.0
26.043,-0.977,-0.028,0.0
23.144,-0.877,-0.151,1.0
20.736,-0.793,-0.248,0.0
0.0,0.0,0.0,0.0
34.089,-1.323,0.35,0.0
28.667,-1.123,0.139,4.0
26.029,-1.029,-0.017,0.0
23.362,-0.932,-0.142,1.0
20.891,-0.841,-0.24,1.0
0.0,0.0,0.0,0.0
34.253,-1.399,0.368,0.0
28.689,-1.182,0.152,1.0
26.074,-1.084,-0.005,0.0
23.657,-0.991,-0.132,1.0
20.99,-0.887,-0.231,2.0
0.0,0.0,0.0,0.0
35.157,-1.506,0.395,0.0
28.631,-1.236,0.166,0.0
26.612,-1.159,0.008,0.0
23.791,-1.045,-0.121,1.0
21.092,-0.934,-0.221,2.0
43.267,-1.925,0.743,0.0
35.556,-1.594,0.418,0.0
30.879,-1.395,0.196,0.0
27.358,-1.246,0.023,1.0
23.904,-1.097,-0.108,0.0
21.346,-0.987,-0.212,2.0
0.0,0.0,0.0,0.0
35.881,-1.679,0.442,0.0
31.229,-1.472,0.216,0.0
27.877,-1.324,0.039,7.0
24.216,-1.159,-0.096,0.0
21.974,-1.059,-0.205,1.0
0.0,0.0,0.0,0.0
36.227,-1.766,0.468,0.0
31.65,-1.554,0.238,0.0
28.012,-1.385,0.057,7.0
25.034,-1.247,-0.083,0.0
22.257,-1.117,-0.194,1.0
0.0,0.0,0.0,0.0
37.193,-1.885,0.505,0.0
32.242,-1.646,0.263,0.0
28.358,-1.457,0.076,5.0
25.599,-1.324,-0.068,0.0
22.521,-1.173,-0.181,2.0
34.474,-1.802,0.676,2.0
34.635,-1.822,0.493,0.0
32.359,-1.713,0.286,0.0
28.533,-1.521,0.096,7.0
34.271,-1.838,-0.069,1.0
22.994,-1.241,-0.17,2.0
0.0,0.0,0.0,0.0
34.641,-1.887,0.517,0.0
34.358,-1.883,0.328,0.0
28.579,-1.576,0.116,6.0
34.238,-1.9,-0.044,3.0
23.508,-1.313,-0.157,1.0
0.0,0.0,0.0,0.0
34.484,-1.943,0.54,1.0
34.472,-1.953,0.354,0.0
28.588,-1.629,0.137,3.0
26.693,-1.531,-0.015,0.0
23.696,-1.367,-0.14,0.0
0.0,0.0,0.0,0.0
34.306,-1.996,0.563,2.0
34.788,-2.035,0.384,3.0
30.573,-1.799,0.17,8.0
27.294,-1.615,0.005,0.0
24.042,-1.431,-0.123,0.0
0.0,0.0,0.0,0.0
34.189,-2.05,0.588,2.0
36.376,-2.193,0.43,0.0
31.08,-1.884,0.198,4.0
28.272,-1.723,0.028,1.0
24.273,-1.488,-0.105,0.0
33.942,-2.085,0.794,0.0
34.048,-2.102,0.613,1.0
37.468,-2.325,0.474,0.0
31.784,-1.983,0.228,4.0
28.359,-1.779,0.052,1.0
25.128,-1.584,-0.088,0.0
33.939,-2.144,0.822,1.0
33.919,-2.154,0.64,0.0
34.757,-2.218,0.469,0.0
32.289,-2.071,0.26,2.0
28.454,-1.834,0.077,1.0
25.669,-1.663,-0.067,0.0
33.917,-2.202,0.851,7.0
33.844,-2.207,0.668,0.0
34.546,-2.264,0.497,3.0
33.144,-2.183,0.296,1.0
28.971,-1.917,0.104,0.0
25.959,-1.726,-0.045,0.0
33.89,-2.258,0.881,19.0
33.979,-2.274,0.702,0.0
34.498,-2.32,0.528,3.0
34.112,-2.304,0.336,2.0
30.028,-2.038,0.135,0.0
25.903,-1.765,-0.021,0.0
33.883,-2.314,0.912,32.0
33.836,-2.321,0.73,0.0
34.167,-2.354,0.555,2.0
34.984,-2.421,0.377,2.0
30.347,-2.109,0.165,0.0
33.918,-2.367,0.003,1.0
33.87,-2.368,0.944,55.0
33.882,-2.379,0.763,159.0
33.987,-2.396,0.584,2.0
35.759,-2.532,0.42,1.0
33.941,-2.414,0.218,0.0
33.922,-2.423,0.036,4.0
33.864,-2.422,0.977,84.0
33.889,-2.434,0.797,159.0
33.862,-2.442,0.615,1.0
36.725,-2.659,0.468,0.0
31.795,-2.311,0.235,0.0
33.908,-2.475,0.07,4.0
33.858,-2.475,1.011,95.0
33.885,-2.487,0.831,152.0
33.853,-2.494,0.65,77.0
34.379,-2.543,0.473,1.0
32.467,-2.411,0.273,0.0
33.915,-2.528,0.105,1.0
33.846,-2.527,1.045,103.0
33.828,-2.535,0.865,43.0
33.852,-2.546,0.685,156.0
34.298,-2.589,0.507,3.0
33.735,-2.556,0.32,0.0
33.919,-2.58,0.141,0.0
33.829,-2.577,1.081,112.0
33.814,-2.585,0.9,52.0
33.845,-2.596,0.72,158.0
34.109,-2.626,0.541,5.0
35.034,-2.707,0.369,0.0
30.199,-2.342,0.158,0.0
33.822,-2.626,1.117,97.0
33.821,-2.635,0.937,109.0
33.849,-2.647,0.757,156.0
33.951,-2.663,0.575,4.0
36.512,-2.874,0.424,0.0
31.239,-2.468,0.197,0.0
33.807,-2.674,1.153,39.0
33.825,-2.684,0.974,150.0
33.847,-2.694,0.794,155.0
33.833,-2.702,0.611,4.0
34.458,-2.761,0.439,0.0
31.781,-2.555,0.236,0.0
33.815,-2.722,1.191,8.0
33.814,-2.73,1.012,150.0
33.835,-2.741,0.832,150.0
33.827,-2.749,0.649,150.0
34.332,-2.798,0.476,1.0
33.492,-2.739,0.287,0.0
33.826,-2.77,1.231,27.0
33.806,-2.776,1.05,136.0
33.787,-2.783,0.87,55.0
33.816,-2.794,0.688,154.0
34.264,-2.839,0.515,4.0
34.131,-2.837,0.332,0.0
33.833,-2.815,1.27,61.0
33.793,-2.82,1.089,130.0
33.803,-2.829,0.91,83.0
33.815,-2.838,0.727,153.0
34.017,-2.863,0.551,3.0
35.294,-2.979,0.384,0.0
33.82,-2.858,1.309,85.0
33.786,-2.862,1.128,59.0
33.802,-2.872,0.949,145.0
33.824,-2.881,0.767,1.0
33.874,-2.893,0.588,1.0
0.0,0.0,0.0,0.0
33.811,-2.899,1.349,30.0
33.794,-2.905,1.169,9.0
33.793,-2.913,0.989,122.0
33.782,-2.919,0.807,5.0
33.782,-2.927,0.627,6.0
34.378,-2.987,0.456,1.0
33.931,-2.951,1.395,0.0
33.813,-2.948,1.21,8.0
33.794,-2.953,1.03,94.0
33.775,-2.959,0.847,29.0
33.734,-2.963,0.667,0.0
34.342,-3.024,0.498,2.0
34.157,-3.011,1.446,0.0
33.805,-2.987,1.251,27.0
33.795,-2.992,1.072,83.0
33.778,-2.998,0.889,52.0
33.802,-3.008,0.71,0.0
34.091,-3.04,0.536,2.0
34.177,-3.051,1.489,0.0
33.803,-3.025,1.293,53.0
33.776,-3.029,1.113,49.0
33.814,-3.039,0.932,65.0
33.843,-3.049,0.753,0.0
33.966,-3.067,0.576,0.0
0.0,0.0,0.0,0.0
33.811,-3.062,1.336,17.0
33.789,-3.067,1.156,9.0
33.78,-3.072,0.974,50.0
33.8,-3.081,0.795,21.0
33.823,-3.09,0.616,0.0
34.591,-3.163,1.595,0.0
34.009,-3.116,1.388,0.0
33.82,-3.105,1.2,5.0
33.785,-3.108,1.017,39.0
33.79,-3.114,0.838,21.0
33.833,-3.125,0.66,1.0
34.808,-3.218,1.649,0.0
34.071,-3.156,1.433,0.0
33.836,-3.14,1.244,9.0
33.784,-3.141,1.06,31.0
33.808,-3.149,0.882,23.0
33.803,-3.155,0.703,7.0
35.068,-3.277,1.707,0.0
34.24,-3.205,1.485,0.0
33.823,-3.172,1.288,13.0
33.796,-3.175,1.105,16.0
33.82,-3.183,0.926,23.0
33.756,-3.182,0.746,0.0
0.0,0.0,0.0,0.0
34.361,-3.248,1.535,0.0
33.855,-3.206,1.333,2.0
33.816,-3.207,1.149,6.0
33.813,-3.213,0.97,22.0
33.807,-3.218,0.791,5.0
150.237,-14.316,7.71,13.0
34.491,-3.291,1.586,0.0
34.132,-3.262,1.389,0.0
33.802,-3.235,1.193,2.0
33.85,-3.245,1.016,12.0
33.832,-3.249,0.836,7.0
158.871,-15.273,8.361,14.0
34.652,-3.336,1.64,0.0
34.298,-3.306,1.441,1.0
33.872,-3.27,1.24,4.0
33.899,-3.278,1.062,9.0
33.835,-3.276,0.882,7.0
158.934,-15.41,8.579,15.0
34.864,-3.384,1.697,0.0
34.418,-3.346,1.492,0.0
33.832,-3.293,1.284,3.0
33.873,-3.301,1.107,7.0
33.847,-3.303,0.927,8.0
159.142,-15.553,8.802,15.0
35.309,-3.454,1.765,0.0
34.558,-3.385,1.544,0.0
33.971,-3.331,1.335,0.0
33.843,-3.323,1.15,4.0
33.915,-3.334,0.973,72.0
159.104,-15.662,9.012,12.0
159.463,-15.714,8.186,12.0
34.818,-3.435,1.602,2.0
34.262,-3.383,1.392,0.0
33.908,-3.352,1.198,2.0
33.934,-3.359,1.019,155.0
160.213,-15.88,9.29,14.0
158.918,-15.766,8.371,16.0
35.248,-3.5,1.669,2.0
34.591,-3.438,1.451,0.0
33.937,-3.377,1.244,2.0
33.935,-3.38,1.064,160.0
160.175,-15.977,9.501,15.0
158.902,-15.863,8.584,16.0
35.656,-3.562,1.736,2.0
34.825,-3.483,1.508,0.0
33.99,-3.402,1.292,0.0
33.92,-3.398,1.11,7.0
160.014,-16.055,9.709,13.0
160.288,-16.095,8.875,5.0
159.099,-15.988,7.963,13.0
35.242,-3.544,1.574,0.0
34.376,-3.46,1.352,0.0
33.912,-3.416,1.155,2.0
160.208,-16.163,9.937,5.0
160.238,-16.175,9.089,17.0
159.028,-16.064,8.175,16.0
35.711,-3.609,1.642,0.0
34.781,-3.518,1.415,0.0
33.951,-3.437,1.202,1.0
176.199,-17.863,11.169,7.0
159.913,-16.222,9.287,17.0
158.833,-16.122,8.381,16.0
36.227,-3.679,1.715,0.0
35.327,-3.59,1.485,0.0
34.109,-3.468,1.253,0.0
176.148,-17.938,11.404,22.0
160.567,-16.359,9.54,15.0
158.732,-16.18,8.588,17.0
158.951,-16.211,7.741,17.0
35.592,-3.631,1.544,0.0
34.355,-3.507,1.308,0.0
175.937,-17.989,11.628,22.0
160.623,-16.428,9.76,16.0
158.693,-16.237,8.8,7.0
159.109,-16.287,7.962,12.0
36.298,-3.717,1.623,0.0
34.977,-3.583,1.379,0.0
175.746,-18.033,11.85,15.0
160.296,-16.451,9.955,13.0
158.55,-16.277,9.002,8.0
159.223,-16.352,8.178,13.0
159.892,-16.427,7.362,7.0
35.489,-3.647,1.446,0.0
143.272,-14.746,9.852,15.0
175.825,-18.1,11.154,5.0
160.264,-16.502,9.314,9.0
159.076,-16.383,8.384,16.0
159.259,-16.405,7.549,16.0
35.702,-3.679,1.502,0.0
143.195,-14.778,10.037,16.0
175.663,-18.129,11.378,19.0
160.211,-16.536,9.523,16.0
158.73,-16.386,8.575,16.0
159.239,-16.442,7.756,19.0
36.417,-3.76,1.58,0.0
142.293,-14.717,10.165,11.0
175.523,-18.154,11.601,21.0
160.11,-16.56,9.73,14.0
158.509,-16.394,8.774,18.0
159.283,-16.476,7.968,17.0
160.07,-16.559,7.156,4.0
142.659,-14.78,10.379,3.0
175.445,-18.176,11.826,18.0
160.148,-16.589,9.94,6.0
158.375,-16.404,8.971,14.0
159.221,-16.492,8.17,16.0
159.775,-16.55,7.35,16.0
143.027,-14.839,10.591,13.0
143.21,-14.854,9.841,18.0
162.141,-16.815,10.275,6.0
158.669,-16.453,9.193,3.0
159.011,-16.486,8.366,19.0
159.548,-16.54,7.546,17.0
143.012,-14.85,10.776,21.0
142.975,-14.842,10.009,18.0
175.441,-18.207,11.345,19.0
160.066,-16.608,9.479,16.0
158.759,-16.469,8.556,15.0
159.186,-16.51,7.731,17.0
142.932,-14.849,10.952,14.0
142.311,-14.779,10.143,13.0
175.463,-18.215,11.568,25.0
160.006,-16.605,9.679,15.0
158.546,-16.448,8.745,16.0
159.173,-16.509,7.931,16.0
142.478,-14.802,11.1,4.0
142.588,-14.807,10.343,12.0
175.441,-18.211,11.788,18.0
160.124,-16.613,9.887,10.0
158.42,-16.43,8.936,14.0
159.203,-16.506,8.132,15.0
142.464,-14.795,11.278,10.0
142.978,-14.84,10.552,13.0
143.272,-14.862,9.807,15.0
161.956,-16.792,10.204,6.0
158.519,-16.428,9.14,6.0
159.067,-16.477,8.323,17.0
142.306,-14.767,11.443,16.0
142.982,-14.827,10.73,18.0
143.233,-14.844,9.981,15.0
175.519,-18.179,11.272,17.0
160.059,-16.569,9.423,13.0
158.772,-16.426,8.499,13.0
142.452,-14.764,11.628,21.0
142.95,-14.805,10.901,11.0
142.309,-14.727,10.089,15.0
175.59,-18.159,11.491,20.0
160.078,-16.544,9.619,16.0
158.588,-16.379,8.681,16.0
142.679,-14.762,11.822,19.0
175.45,-18.139,13.592,5.0
142.482,-14.718,10.273,10.0
175.566,-18.121,11.701,17.0
160.471,-16.551,9.833,14.0
158.415,-16.328,8.86,9.0
142.922,-14.757,12.013,12.0
0.0,0.0,0.0,0.0
142.723,-14.71,10.459,12.0
143.17,-14.743,9.708,11.0
160.208,-16.484,10.005,14.0
158.544,-16.3,9.052,9.0
142.752,-14.703,12.166,14.0
142.993,-14.713,11.416,7.0
142.825,-14.681,10.634,13.0
143.341,-14.721,9.886,18.0
175.907,-18.049,11.188,12.0
160.336,-16.437,9.338,15.0
142.871,-14.673,12.342,18.0
143.025,-14.671,11.585,14.0
148.246,-15.191,11.209,5.0
143.554,-14.695,10.066,16.0
175.983,-17.997,11.394,19.0
160.577,-16.406,9.533,14.0
142.953,-14.631,12.512,10.0
142.954,-14.615,11.739,21.0
148.224,-15.135,11.373,16.0
143.695,-14.658,10.235,14.0
176.059,-17.939,11.594,19.0
160.598,-16.347,9.711,14.0
144.381,-14.723,12.796,7.0
142.799,-14.543,11.884,15.0
148.351,-15.091,11.543,3.0
0.0,0.0,0.0,0.0
143.251,-14.536,9.589,7.0
160.289,-16.247,9.868,6.0
144.419,-14.665,12.959,9.0
142.638,-14.466,12.025,14.0
143.059,-14.488,11.288,13.0
142.624,-14.426,10.468,13.0
143.64,-14.51,9.768,13.0
176.504,-17.809,11.053,5.0
144.209,-14.578,13.092,13.0
142.471,-14.382,12.161,15.0
143.124,-14.428,11.442,15.0
142.474,-14.342,10.605,11.0
143.744,-14.45,9.925,18.0
176.603,-17.731,11.24,13.0
144.238,-14.508,13.245,10.0
142.778,-14.34,12.336,14.0
144.606,-14.502,11.709,5.0
142.469,-14.266,10.751,10.0
143.727,-14.371,10.069,17.0
150.026,-14.98,9.701,12.0
142.814,-14.288,13.26,8.0
142.828,-14.266,12.485,13.0
142.702,-14.231,11.699,8.0
176.733,-17.597,13.513,7.0
143.598,-14.277,10.201,15.0
150.017,-14.894,9.845,11.0
143.257,-14.249,13.442,15.0
144.195,-14.318,12.746,10.0
144.753,-14.349,12.008,14.0
145.576,-14.408,11.271,5.0
143.385,-14.168,10.325,10.0
148.869,-14.687,9.915,4.0
143.459,-14.18,13.6,10.0
144.467,-14.254,12.908,14.0
144.737,-14.256,12.145,20.0
145.401,-14.298,11.394,11.0
143.077,-14.045,10.435,14.0
150.489,-14.749,10.161,9.0
143.422,-14.082,13.73,14.0
144.631,-14.174,13.057,13.0
144.73,-14.158,12.277,16.0
142.515,-13.916,11.299,5.0
147.437,-14.373,10.887,5.0
143.445,-13.959,9.814,10.0
143.428,-13.983,13.861,13.0
144.754,-14.085,13.198,6.0
144.771,-14.06,12.41,5.0
145.182,-14.073,11.639,14.0
142.458,-13.784,10.646,5.0
143.494,-13.86,9.942,11.0
143.372,-13.873,13.981,13.0
144.428,-13.946,13.295,9.0
147.611,-14.225,12.781,3.0
145.13,-13.959,11.759,12.0
147.749,-14.184,11.166,5.0
151.404,-14.506,10.62,12.0
143.337,-13.759,14.1,15.0
144.364,-13.829,13.409,12.0
146.268,-13.983,12.785,4.0
146.71,-13.996,12.007,3.0
146.098,-13.91,11.16,10.0
151.495,-14.395,10.747,4.0
143.872,-13.696,14.268,8.0
144.555,-13.731,13.543,11.0
146.642,-13.898,12.936,11.0
145.472,-13.759,12.021,6.0
145.435,-13.727,11.223,16.0
146.067,-13.758,10.475,11.0
145.08,-13.689,14.503,17.0
145.317,-13.68,13.728,6.0
0.0,0.0,0.0,0.0
145.11,-13.6,12.102,3.0
145.537,-13.61,11.342,16.0
146.217,-13.646,10.595,9.0
145.168,-13.572,14.62,17.0
145.681,-13.587,13.87,5.0
147.223,-13.699,13.208,3.0
145.056,-13.468,12.201,10.0
144.948,-13.428,11.398,10.0
146.197,-13.513,10.697,9.0
145.937,-13.512,14.802,13.0
145.657,-13.453,13.971,15.0
145.245,-13.383,13.132,13.0
145.021,-13.331,12.3,15.0
144.631,-13.265,11.472,19.0
146.172,-13.374,10.795,11.0
145.878,-13.37,14.896,15.0
145.55,-13.306,14.059,12.0
144.997,-13.223,13.205,14.0
146.812,-13.355,12.549,7.0
144.709,-13.132,11.574,13.0
144.971,-13.124,10.8,14.0
145.563,-13.199,14.958,17.0
146.386,-13.239,14.233,15.0
145.147,-13.093,13.312,4.0
147.302,-13.254,12.683,13.0
144.465,-12.966,11.644,21.0
144.858,-12.97,10.88,15.0
145.787,-13.075,15.07,20.0
146.286,-13.085,14.31,15.0
146.575,-13.075,13.53,5.0
151.971,-13.523,13.173,5.0
144.453,-12.822,11.724,20.0
145.437,-12.875,11.005,10.0
145.409,-12.894,15.113,14.0
145.949,-12.906,14.36,16.0
146.598,-12.929,13.611,3.0
145.804,-12.824,12.717,9.0
144.399,-12.667,11.798,6.0
145.952,-12.771,11.12,9.0
145.337,-12.736,15.182,18.0
145.943,-12.753,14.435,10.0
0.0,0.0,0.0,0.0
145.879,-12.676,12.798,8.0
145.694,-12.627,11.976,3.0
145.548,-12.58,11.161,7.0
146.385,-12.67,15.364,14.0
145.342,-12.543,14.447,9.0
144.85,-12.466,13.593,13.0
146.038,-12.532,12.88,7.0
145.816,-12.478,12.054,12.0
145.675,-12.433,11.237,9.0
146.551,-12.523,15.449,12.0
145.271,-12.378,14.504,17.0
144.901,-12.31,13.662,5.0
145.259,-12.304,12.875,12.0
146.437,-12.368,12.168,10.0
145.907,-12.288,11.317,14.0
147.878,-12.471,15.649,11.0
145.297,-12.214,14.567,19.0
144.894,-12.143,13.72,12.0
145.463,-12.155,12.95,10.0
146.39,-12.198,12.219,9.0
146.676,-12.185,11.432,13.0
147.439,-12.264,15.659,13.0
146.084,-12.113,14.7,11.0
144.754,-11.966,13.758,13.0
145.266,-11.971,12.983,18.0
146.233,-12.015,12.258,12.0
146.786,-12.024,11.49,18.0
147.145,-12.066,15.678,15.0
146.674,-11.988,14.807,12.0
0.0,0.0,0.0,0.0
145.386,-11.809,13.04,14.0
146.086,-11.828,12.29,11.0
146.857,-11.854,11.539,13.0
146.592,-11.844,15.663,12.0
0.0,0.0,0.0,0.0
145.652,-11.691,13.932,14.0
145.389,-11.632,13.08,16.0
145.879,-11.634,12.312,13.0
147.147,-11.696,11.601,4.0
149.118,-11.865,15.971,7.0
148.297,-11.759,15.051,5.0
145.852,-11.527,13.987,14.0
146.095,-11.507,13.179,12.0
145.599,-11.432,12.321,17.0
147.539,-11.545,11.664,11.0
148.974,-11.669,15.988,4.0
148.349,-11.581,15.087,4.0
145.787,-11.34,14.01,16.0
147.853,-11.461,13.366,15.0
145.642,-11.253,12.351,19.0
147.736,-11.377,11.705,10.0
147.484,-11.365,15.854,3.0
145.765,-11.192,14.85,13.0
146.346,-11.196,14.087,17.0
118.86,-9.061,10.763,7.0
145.705,-11.07,12.379,10.0
148.172,-11.22,11.76,6.0
148.869,-11.28,16.022,11.0
145.546,-10.988,14.845,7.0
147.352,-11.084,14.201,7.0
118.962,-8.916,10.785,10.0
119.095,-8.896,10.129,9.0
150.215,-11.182,11.936,7.0
148.561,-11.064,16.002,4.0
148.983,-11.054,15.207,15.0
147.318,-10.89,14.208,15.0
119.283,-8.785,10.822,13.0
119.088,-8.74,10.135,11.0
118.763,-8.685,9.442,4.0
148.539,-10.866,16.007,14.0
146.071,-10.646,14.916,7.0
146.689,-10.65,14.152,19.0
119.265,-8.626,10.822,14.0
119.211,-8.591,10.148,9.0
118.983,-8.543,9.461,6.0
148.446,-10.662,15.996,15.0
147.075,-10.522,15.018,7.0
146.623,-10.45,14.144,16.0
118.9,-8.441,10.787,11.0
118.942,-8.412,10.121,16.0
119.206,-8.398,9.475,5.0
148.689,-10.477,16.017,13.0
146.298,-10.269,14.931,15.0
146.327,-10.23,14.107,10.0
116.844,-8.137,10.593,12.0
118.755,-8.238,10.097,18.0
118.254,-8.173,9.389,4.0
89.361,-6.175,9.618,2.0
146.271,-10.068,14.914,5.0
90.414,-6.198,8.707,11.0
116.866,-7.98,10.583,17.0
119.173,-8.105,10.12,9.0
118.171,-8.006,9.369,9.0
89.454,-6.06,9.617,4.0
112.949,-7.621,11.501,17.0
90.586,-6.087,8.71,21.0
90.875,-6.081,8.215,13.0
89.161,-5.942,7.557,13.0
117.592,-7.806,9.304,13.0
89.64,-5.948,9.621,9.0
112.949,-7.464,11.481,15.0
90.921,-5.983,8.726,27.0
117.594,-7.707,10.607,13.0
87.9,-5.736,7.432,15.0
117.399,-7.63,9.264,15.0
90.064,-5.85,9.647,29.0
90.865,-5.877,9.215,14.0
90.934,-5.855,8.706,17.0
94.533,-6.062,8.504,7.0
87.767,-5.604,7.399,15.0
117.45,-7.468,9.238,11.0
90.158,-5.73,9.632,14.0
90.946,-5.754,9.198,8.0
90.835,-5.721,8.671,21.0
89.246,-5.596,8.004,11.0
87.127,-5.44,7.319,23.0
93.863,-5.836,7.355,4.0
89.955,-5.589,9.583,21.0
91.151,-5.639,9.191,4.0
88.438,-5.446,8.414,13.0
88.329,-5.415,7.892,15.0
87.464,-5.338,7.319,23.0
93.655,-5.692,7.306,15.0
89.967,-5.462,9.552,8.0
87.223,-5.27,8.763,15.0
88.668,-5.333,8.403,11.0
88.458,-5.297,7.87,26.0
87.666,-5.226,7.303,10.0
93.852,-5.57,7.285,8.0
87.307,-5.176,9.235,13.0
86.953,-5.131,8.701,21.0
91.115,-5.351,8.598,9.0
88.522,-5.176,7.839,23.0
87.44,-5.089,7.246,16.0
92.806,-5.376,7.164,20.0
86.898,-5.028,9.154,22.0
87.157,-5.019,8.682,28.0
87.497,-5.014,8.217,19.0
88.545,-5.051,7.801,27.0
87.566,-4.973,7.216,18.0
89.921,-5.083,6.899,7.0
86.987,-4.909,9.121,22.0
87.609,-4.921,8.685,16.0
87.789,-4.908,8.201,15.0
92.942,-5.171,8.142,20.0
88.026,-4.873,7.21,17.0
87.437,-4.818,6.664,4.0
87.44,-4.81,9.123,25.0
87.689,-4.8,8.645,13.0
88.255,-4.807,8.197,25.0
88.917,-4.82,7.74,15.0
88.391,-4.768,7.19,23.0
98.535,-5.29,7.455,4.0
87.079,-4.665,9.035,14.0
87.467,-4.663,8.573,12.0
87.161,-4.623,8.043,16.0
88.823,-4.688,7.68,21.0
88.483,-4.648,7.145,23.0
87.152,-4.555,6.541,12.0
86.978,-4.535,8.971,7.0
85.135,-4.417,8.291,13.0
87.232,-4.502,7.995,18.0
88.597,-4.55,7.604,16.0
87.973,-4.495,7.047,24.0
87.686,-4.457,6.524,12.0
83.932,-4.257,8.601,10.0
85.306,-4.303,8.251,30.0
88.931,-4.463,8.091,11.0
88.379,-4.413,7.526,27.0
88.569,-4.399,7.035,13.0
88.454,-4.372,6.52,21.0
84.143,-4.148,8.564,13.0
85.367,-4.186,8.197,17.0
86.711,-4.229,7.827,25.0
88.283,-4.283,7.454,22.0
88.771,-4.284,6.987,20.0
88.415,-4.246,6.454,25.0
83.363,-3.991,8.422,19.0
87.287,-4.157,8.316,6.0
86.823,-4.112,7.773,18.0
92.982,-4.38,7.78,7.0
87.145,-4.084,6.792,15.0
87.891,-4.096,6.347,20.0
84.956,-3.947,8.516,23.0
84.982,-3.926,8.029,11.0
86.867,-3.992,7.707,30.0
89.131,-4.074,7.386,18.0
87.027,-3.956,6.712,13.0
87.964,-3.977,6.281,25.0
84.756,-3.819,8.426,19.0
84.275,-3.776,7.892,8.0
86.931,-3.874,7.64,27.0
87.179,-3.863,7.151,6.0
89.234,-3.931,6.808,15.0
87.903,-3.852,6.202,16.0
83.839,-3.66,8.262,28.0
84.706,-3.675,7.858,14.0
88.135,-3.802,7.668,4.0
87.623,-3.759,7.109,16.0
88.86,-3.791,6.7,21.0
94.824,-4.022,6.605,21.0
81.716,-3.452,7.977,5.0
84.208,-3.535,7.733,16.0
98.371,-4.106,8.466,5.0
87.752,-3.641,7.038,27.0
88.404,-3.648,6.581,23.0
88.343,-3.624,6.069,17.0
81.882,-3.344,7.915,10.0
82.64,-3.355,7.509,9.0
88.189,-3.559,7.505,12.0
88.275,-3.541,6.994,14.0
88.267,-3.52,6.485,29.0
87.869,-3.483,5.95,23.0
82.383,-3.251,7.881,29.0
87.345,-3.425,7.849,9.0
91.776,-3.577,7.717,8.0
87.944,-3.406,6.878,25.0
87.973,-3.388,6.374,25.0
87.846,-3.363,5.86,10.0
66.321,-2.526,6.275,13.0
87.146,-3.298,7.74,8.0
85.474,-3.215,7.098,14.0
87.94,-3.287,6.786,17.0
87.649,-3.256,6.257,24.0
98.498,-3.637,6.466,20.0
66.361,-2.438,6.207,27.0
79.137,-2.888,6.943,5.0
85.5,-3.1,7.007,20.0
87.229,-3.143,6.636,33.0
87.614,-3.137,6.159,30.0
98.04,-3.489,6.326,15.0
66.404,-2.349,6.137,19.0
86.59,-3.042,7.499,15.0
85.618,-2.989,6.919,22.0
87.508,-3.035,6.557,20.0
98.623,-3.398,6.82,14.0
98.095,-3.358,6.217,19.0
67.439,-2.295,6.153,16.0
86.592,-2.926,7.398,23.0
85.441,-2.868,6.804,15.0
87.737,-2.925,6.469,27.0
87.577,-2.901,5.951,20.0
98.421,-3.239,6.121,16.0
67.485,-2.207,6.076,21.0
76.94,-2.498,6.48,10.0
87.815,-2.832,6.887,6.0
87.598,-2.805,6.353,16.0
93.758,-2.982,6.257,14.0
98.747,-3.121,6.02,12.0
67.148,-2.107,5.962,21.0
85.545,-2.665,7.097,15.0
87.844,-2.717,6.778,9.0
87.532,-2.688,6.237,12.0
97.917,-2.987,6.411,14.0
99.449,-3.012,5.936,15.0
66.464,-1.998,5.814,38.0
80.366,-2.399,6.563,5.0
87.433,-2.591,6.631,10.0
95.754,-2.817,6.698,9.0
96.731,-2.826,6.206,16.0
97.36,-2.824,5.683,11.0
66.697,-1.919,5.746,35.0
80.395,-2.296,6.458,10.0
87.447,-2.48,6.516,11.0
88.381,-2.489,6.064,19.0
96.588,-2.7,6.069,11.0
96.978,-2.691,5.531,17.0
76.953,-2.118,6.525,17.0
87.5,-2.39,6.91,12.0
76.857,-2.084,5.623,16.0
76.529,-2.059,5.146,22.0
88.117,-2.353,5.415,22.0
96.84,-2.567,5.39,17.0
76.915,-2.021,6.414,13.0
87.426,-2.279,6.781,6.0
76.875,-1.989,5.516,14.0
76.589,-1.966,5.043,16.0
88.228,-2.248,5.298,24.0
96.748,-2.447,5.249,16.0
81.087,-2.032,6.646,19.0
87.654,-2.179,6.675,12.0
76.626,-1.89,5.388,11.0
96.246,-2.356,6.199,18.0
96.927,-2.354,5.681,12.0
96.786,-2.332,5.111,42.0
76.616,-1.828,6.168,11.0
76.875,-1.819,5.74,20.0
76.582,-1.798,5.273,17.0
96.519,-2.248,6.075,16.0
96.749,-2.236,5.527,19.0
96.829,-2.219,4.971,26.0
76.814,-1.742,6.069,21.0
89.695,-2.017,6.562,13.0
96.599,-2.155,6.505,18.0
96.713,-2.139,5.94,19.0
99.216,-2.176,5.517,15.0
96.881,-2.107,4.825,6.0
77.133,-1.659,5.974,34.0
76.523,-1.632,5.481,23.0
76.287,-1.613,5.019,29.0
106.24,-2.227,6.36,10.0
99.192,-2.062,5.363,10.0
190.265,-3.922,9.181,21.0
76.592,-1.561,5.812,28.0
76.211,-1.54,5.339,18.0
75.841,-1.518,4.871,29.0
171.427,-3.402,9.993,11.0
190.122,-3.741,9.978,19.0
190.139,-3.71,8.876,21.0
76.781,-1.479,5.704,27.0
75.53,-1.441,5.169,32.0
75.725,-1.432,4.741,24.0
99.153,-1.858,5.62,7.0
0.0,0.0,0.0,0.0
0.0,0.0,0.0,0.0
76.478,-1.389,5.555,32.0
75.807,-1.365,5.064,33.0
98.737,-1.761,6.019,13.0
99.257,-1.754,5.462,19.0
191.119,-3.347,9.408,18.0
193.625,-3.359,8.404,14.0
75.961,-1.299,5.391,39.0
76.363,-1.294,4.973,12.0
98.828,-1.659,5.861,29.0
99.42,-1.653,5.306,5.0
194.143,-3.197,9.229,8.0
193.69,-3.159,8.083,7.0
75.922,-1.221,5.261,29.0
90.832,-1.446,5.763,20.0
98.961,-1.559,5.7,17.0
193.412,-3.017,9.993,23.0
193.236,-2.984,8.856,8.0
171.709,-2.626,6.872,8.0
90.251,-1.36,6.097,28.0
90.716,-1.352,5.598,26.0
98.789,-1.458,5.519,9.0
193.632,-2.829,9.67,23.0
193.179,-2.794,8.522,22.0
171.439,-2.455,6.565,12.0
90.32,-1.272,5.944,11.0
90.596,-1.263,5.433,16.0
90.689,-1.25,4.909,14.0
192.992,-2.634,9.301,18.0
193.522,-2.613,8.197,18.0
171.239,-2.288,6.256,3.0
106.098,-1.394,6.794,11.0
90.496,-1.175,5.265,28.0
90.581,-1.164,4.741,37.0
90.667,-1.152,4.208,25.0
90.686,-1.14,3.679,27.0
90.68,-1.127,3.15,26.0
90.41,-1.104,5.626,23.0
90.511,-1.093,5.104,36.0
90.618,-1.082,4.579,49.0
90.638,-1.07,4.042,44.0
90.618,-1.057,3.513,53.0
90.622,-1.045,2.984,32.0
90.452,-1.023,5.462,24.0
90.565,-1.012,4.938,37.0
90.599,-1.001,4.412,45.0
90.615,-0.989,3.874,55.0
90.611,-0.977,3.345,52.0
90.373,-0.963,2.81,8.0
90.519,-0.946,5.299,23.0
90.575,-0.935,4.772,27.0
90.635,-0.924,4.244,39.0
90.613,-0.912,3.705,47.0
90.58,-0.9,3.174,46.0
83.225,-0.817,2.431,2.0
90.648,-0.871,5.134,11.0
90.68,-0.861,4.606,7.0
90.698,-0.85,4.076,7.0
90.651,-0.838,3.535,30.0
90.579,-0.827,3.004,31.0
82.706,-0.745,2.26,1.0
193.744,-1.708,10.606,17.0
193.538,-1.682,9.46,19.0
193.975,-1.664,8.349,21.0
90.715,-0.767,3.364,8.0
90.417,-0.754,2.824,7.0
0.0,0.0,0.0,0.0
193.853,-1.558,10.238,24.0
193.475,-1.533,9.083,23.0
194.474,-1.519,7.991,7.0
120.839,-0.93,4.245,2.0
82.589,-0.627,2.42,6.0
0.0,0.0,0.0,0.0
193.698,-1.413,9.849,13.0
193.935,-1.395,8.728,13.0
0.0,0.0,0.0,0.0
104.449,-0.729,3.467,7.0
81.308,-0.559,2.223,2.0
0.0,0.0,0.0,0.0
193.926,-1.279,9.48,6.0
194.447,-1.262,8.369,21.0
0.0,0.0,0.0,0.0
90.297,-0.568,2.822,5.0
0.0,0.0,0.0,0.0
0.0,0.0,0.0,0.0
179.085,-1.061,8.404,5.0
179.106,-1.044,7.356,6.0
108.591,-0.623,3.824,2.0
82.533,-0.465,2.416,2.0
0.0,0.0,0.0,0.0
43.586,-0.237,0.766,0.0
179.021,-0.948,8.045,36.0
175.913,-0.915,6.873,18.0
104.585,-0.534,3.473,7.0
80.313,-0.403,2.189,1.0
0.0,0.0,0.0,0.0
0.0,0.0,0.0,0.0
179.012,-0.839,7.68,27.0
176.005,-0.809,6.518,5.0
83.206,-0.375,2.594,4.0
0.0,0.0,0.0,0.0
0.0,0.0,0.0,0.0
0.0,0.0,0.0,0.0
178.998,-0.736,7.314,16.0
108.462,-0.437,3.796,6.0
79.721,-0.315,2.323,2.0
57.571,-0.223,1.335,1.0
0.0,0.0,0.0,0.0
0.0,0.0,0.0,0.0
174.862,-0.626,6.785,17.0
104.684,-0.366,3.449,1.0
79.494,-0.272,2.153,2.0
0.0,0.0,0.0,0.0
0.0,0.0,0.0,0.0
33.226,-0.106,0.313,1.0
108.927,-0.335,4.001,6.0
83.083,-0.25,2.566,6.0
0.0,0.0,0.0,0.0
47.889,-0.137,0.912,0.0
36.811,-0.103,0.486,0.0
31.493,-0.086,0.231,0.0
105.568,-0.275,3.657,4.0
79.266,-0.201,2.281,4.0
0.0,0.0,0.0,0.0
43.399,-0.105,0.736,0.0
35.785,-0.084,0.397,0.0
28.877,-0.066,0.152,2.0
83.335,-0.182,2.712,2.0
78.605,-0.167,2.098,5.0
0.0,0.0,0.0,0.0
39.837,-0.08,0.592,0.0
33.175,-0.064,0.299,0.0
28.735,-0.054,0.091,5.0
82.836,-0.148,2.522,6.0
0.0,0.0,0.0,0.0
0.0,0.0,0.0,0.0
0.0,0.0,0.0,0.0
31.098,-0.049,0.215,0.0
27.624,-0.042,0.029,0.0
78.559,-0.113,2.226,3.0
0.0,0.0,0.0,0.0
41.906,-0.056,0.696,0.0
34.265,-0.044,0.365,0.0
29.049,-0.036,0.14,1.0
26.121,-0.031,-0.026,0.0
78.431,-0.088,2.056,2.0
0.0,0.0,0.0,0.0
39.263,-0.04,0.569,0.0
32.955,-0.032,0.281,0.0
28.521,-0.027,0.076,1.0
25.071,-0.022,-0.079,0.0
0.0,0.0,0.0,0.0
0.0,0.0,0.0,0.0
36.6,-0.027,0.453,0.0
30.452,-0.022,0.195,0.0
27.185,-0.018,0.015,0.0
23.835,-0.015,-0.126,1.0
0.0,0.0,0.0,0.0
0.0,0.0,0.0,0.0
33.348,-0.017,0.34,0.0
28.758,-0.014,0.122,0.0
25.852,-0.012,-0.041,0.0
22.869,-0.009,-0.169,0.0
0.0,0.0,0.0,0.0
0.0,0.0,0.0,0.0
0.0,0.0,0.0,0.0
28.069,-0.008,0.059,0.0
24.74,-0.006,-0.092,0.0
21.329,-0.005,-0.204,4.0
0.0,0.0,0.0,0.0
35.703,-0.006,0.421,0.0
30.463,-0.005,0.181,0.0
26.642,-0.004,0.0,0.0
23.666,-0.003,-0.139,1.0
20.536,-0.002,-0.241,0.0
0.0,0.0,0.0,0.0
33.247,-0.002,0.32,1.0
28.694,-0.001,0.108,1.0
25.441,0.0,-0.055,0.0
22.174,0.0,-0.178,0.0
19.282,0.0,-0.267,0.0
37.139,0.0,0.496,0.0
31.063,0.0,0.233,0.0
27.659,0.0,0.045,0.0
24.155,0.001,-0.104,0.0
21.144,0.001,-0.214,3.0
18.233,0.001,-0.291,0.0
0.0,0.0,0.0,0.0
28.766,0.002,0.154,0.0
26.285,0.002,-0.012,0.0
23.427,0.001,-0.15,0.0
19.856,0.001,-0.243,0.0
17.498,0.001,-0.317,0.0
33.179,0.002,0.301,0.0
28.575,0.002,0.092,1.0
25.303,0.002,-0.066,0.0
21.771,0.001,-0.186,1.0
18.753,0.001,-0.27,0.0
16.882,0.001,-0.342,0.0
30.73,0.002,0.213,0.0
27.252,0.001,0.029,0.0
23.849,0.001,-0.114,0.0
20.987,0.001,-0.225,2.0
18.042,0.0,-0.299,0.0
16.413,0.0,-0.368,0.0
28.832,0.0,0.138,0.0
25.976,0.0,-0.027,0.0
23.045,0.0,-0.159,0.0
19.573,0.0,-0.251,0.0
17.29,0.0,-0.323,0.0
15.844,0.0,-0.389,0.0
28.241,-0.002,0.075,1.0
25.113,-0.002,-0.08,0.0
21.456,-0.002,-0.194,2.0
18.541,-0.002,-0.278,0.0
16.694,-0.002,-0.348,0.0
15.317,-0.002,-0.409,0.0
26.88,-0.005,0.014,0.0
23.69,-0.005,-0.126,1.0
20.811,-0.005,-0.232,0.0
17.784,-0.004,-0.304,0.0
16.207,-0.004,-0.372,0.0
14.852,-0.004,-0.428,0.0
25.731,-0.009,-0.041,0.0
22.417,-0.009,-0.166,0.0
19.348,-0.008,-0.257,0.0
17.107,-0.007,-0.329,0.0
15.703,-0.007,-0.394,0.0
14.275,-0.007,-0.442,0.0
24.514,-0.014,-0.091,0.0
21.199,-0.012,-0.203,3.0
18.403,-0.011,-0.283,0.0
16.599,-0.011,-0.355,0.0
15.14,-0.01,-0.412,0.0
13.915,-0.01,-0.46,0.0
23.545,-0.019,-0.136,1.0
20.262,-0.017,-0.236,0.0
17.607,-0.015,-0.308,0.0
16.123,-0.014,-0.378,0.0
14.643,-0.014,-0.429,0.0
13.59,-0.013,-0.478,0.0
22.076,-0.024,-0.175,0.0
19.063,-0.021,-0.262,0.0
16.943,-0.019,-0.333,0.0
15.559,-0.018,-0.398,0.0
14.212,-0.017,-0.447,0.0
13.206,-0.017,-0.492,0.0
21.072,-0.029,-0.211,2.0
18.226,-0.026,-0.289,0.0
16.506,-0.024,-0.358,0.0
15.043,-0.023,-0.416,0.0
13.819,-0.022,-0.463,0.0
12.859,-0.021,-0.506,0.0
19.942,-0.035,-0.241,0.0
17.456,-0.031,-0.313,0.0
16.013,-0.029,-0.381,0.0
14.527,-0.027,-0.432,0.0
13.484,-0.026,-0.48,0.0
12.557,-0.025,-0.521,0.0
18.712,-0.04,-0.265,0.0
16.818,-0.037,-0.336,0.0
15.561,-0.035,-0.402,0.0
14.08,-0.032,-0.448,0.0
13.13,-0.031,-0.495,0.0
12.327,-0.03,-0.537,0.0
17.993,-0.046,-0.292,0.0
16.338,-0.043,-0.361,0.0
14.966,-0.04,-0.418,0.0
13.718,-0.037,-0.465,0.0
12.843,-0.036,-0.51,0.0
11.963,-0.034,-0.545,0.0
17.313,-0.052,-0.316,0.0
15.866,-0.049,-0.383,0.0
14.486,-0.045,-0.434,0.0
13.387,-0.043,-0.481,0.0
12.525,-0.041,-0.523,0.0
11.728,-0.039,-0.558,0.0
16.757,-0.058,-0.34,0.0
15.395,-0.055,-0.402,0.0
14.04,-0.051,-0.449,0.0
13.016,-0.048,-0.494,0.0
12.292,-0.046,-0.538,0.0
11.446,-0.044,-0.568,0.0
16.314,-0.065,-0.364,0.0
14.87,-0.061,-0.419,0.0
13.827,-0.058,-0.47,0.0
12.767,-0.054,-0.51,0.0
11.934,-0.052,-0.547,0.0
11.227,-0.049,-0.58,0.0
15.799,-0.072,-0.384,0.0
14.423,-0.067,-0.435,0.0
13.364,-0.063,-0.481,0.0
12.503,-0.06,-0.525,0.0
11.681,-0.057,-0.559,0.0
10.969,-0.055,-0.589,0.0
15.364,-0.079,-0.404,0.0
14.025,-0.074,-0.451,0.0
12.961,-0.069,-0.492,0.0
12.228,-0.066,-0.537,0.0
11.427,-0.063,-0.569,0.0
10.83,-0.061,-0.603,0.0
14.792,-0.086,-0.418,0.0
13.698,-0.081,-0.467,0.0
12.801,-0.077,-0.511,0.0
11.909,-0.072,-0.546,0.0
11.204,-0.069,-0.58,0.0
10.487,-0.066,-0.604,0.0
14.435,-0.093,-0.436,0.0
13.275,-0.087,-0.479,0.0
12.455,-0.083,-0.522,0.0
11.594,-0.078,-0.555,0.0
10.971,-0.075,-0.589,0.0
10.374,-0.072,-0.618,0.0
14.035,-0.1,-0.451,0.0
12.954,-0.094,-0.492,0.0
12.228,-0.09,-0.536,0.0
11.449,-0.085,-0.57,0.0
10.789,-0.082,-0.6,0.0
10.128,-0.078,-0.623,0.0
13.669,-0.108,-0.465,0.0
12.778,-0.102,-0.51,0.0
11.93,-0.097,-0.546,0.0
11.223,-0.092,-0.58,0.0
10.524,-0.087,-0.605,0.0
9.94,-0.084,-0.63,0.0
13.337,-0.115,-0.479,0.0
12.484,-0.109,-0.521,0.0
11.658,-0.103,-0.555,0.0
11.027,-0.099,-0.59,0.0
10.349,-0.094,-0.614,0.0
9.801,-0.09,-0.639,0.0
13.043,-0.123,-0.493,0.0
12.214,-0.117,-0.533,0.0
11.485,-0.111,-0.568,0.0
10.728,-0.105,-0.594,0.0
10.145,-0.1,-0.621,0.0
9.521,-0.095,-0.639,0.0
12.742,-0.131,-0.505,0.0
11.927,-0.124,-0.542,0.0
11.253,-0.118,-0.577,0.0
10.603,-0.112,-0.607,0.0
9.988,-0.107,-0.63,0.0
0.0,0.0,0.0,0.0
12.515,-0.139,-0.518,0.0
11.728,-0.132,-0.554,0.0
11.014,-0.125,-0.584,0.0
10.357,-0.119,-0.611,0.0
9.77,-0.113,-0.634,0.0
9.263,-0.109,-0.655,0.0
12.253,-0.147,-0.529,0.0
11.467,-0.139,-0.562,0.0
10.859,-0.133,-0.595,0.0
10.21,-0.126,-0.621,0.0
0.0,0.0,0.0,0.0
0.0,0.0,0.0,0.0
12.029,-0.155,-0.541,0.0
11.309,-0.147,-0.574,0.0
10.564,-0.139,-0.598,0.0
0.0,0.0,0.0,0.0
0.0,0.0,0.0,0.0
8.977,-0.122,-0.666,0.0
11.791,-0.163,-0.55,0.0
11.13,-0.155,-0.584,0.0
10.421,-0.147,-0.607,0.0
0.0,0.0,0.0,0.0
0.0,0.0,0.0,0.0
0.0,0.0,0.0,0.0
11.528,-0.17,-0.557,0.0
10.887,-0.163,-0.59,0.0
10.208,-0.154,-0.612,0.0
0.0,0.0,0.0,0.0
0.0,0.0,0.0,0.0
8.683,-0.135,-0.674,0.0
11.364,-0.179,-0.568,0.0
10.674,-0.17,-0.596,0.0
10.027,-0.161,-0.618,0.0
0.0,0.0,0.0,0.0
0.0,0.0,0.0,0.0
8.641,-0.143,-0.685,0.0
11.155,-0.187,-0.576,0.0
10.432,-0.177,-0.599,0.0
9.955,-0.17,-0.63,0.0
0.0,0.0,0.0,0.0
0.0,0.0,0.0,0.0
8.529,-0.15,-0.69,0.0
10.899,-0.194,-0.58,0.0
10.364,-0.186,-0.612,0.0
9.892,-0.179,-0.642,0.0
0.0,0.0,0.0,0.0
0.0,0.0,0.0,0.0
8.422,-0.157,-0.695,0.0
10.838,-0.205,-0.594,0.0
10.191,-0.194,-0.618,0.0
0.0,0.0,0.0,0.0
0.0,0.0,0.0,0.0
8.761,-0.171,-0.685,0.0
8.37,-0.165,-0.703,0.0
10.633,-0.212,-0.599,0.0
0.0,0.0,0.0,0.0
0.0,0.0,0.0,0.0
0.0,0.0,0.0,0.0
8.605,-0.178,-0.686,0.0
8.26,-0.172,-0.707,0.0
10.496,-0.221,-0.607,0.0
9.93,-0.211,-0.632,0.0
0.0,0.0,0.0,0.0
0.0,0.0,0.0,0.0
8.5,-0.185,-0.69,0.0
8.118,-0.178,-0.706,0.0
10.332,-0.23,-0.613,0.0
0.0,0.0,0.0,0.0
9.402,-0.212,-0.667,0.0
0.0,0.0,0.0,0.0
0.0,0.0,0.0,0.0
8.018,-0.185,-0.709,0.0
10.208,-0.239,-0.62,0.0
0.0,0.0,0.0,0.0
0.0,0.0,0.0,0.0
0.0,0.0,0.0,0.0
0.0,0.0,0.0,0.0
0.0,0.0,0.0,0.0
0.0,0.0,0.0,0.0
9.568,-0.237,-0.65,0.0
0.0,0.0,0.0,0.0
8.566,-0.215,-0.682,0.0
8.23,-0.208,-0.703,0.0
0.0,0.0,0.0,0.0
9.927,-0.256,-0.63,0.0
0.0,0.0,0.0,0.0
0.0,0.0,0.0,0.0
8.494,-0.223,-0.688,0.0
8.11,-0.215,-0.704,0.0
0.0,0.0,0.0,0.0
0.0,0.0,0.0,0.0
9.199,-0.25,-0.649,0.0
0.0,0.0,0.0,0.0
0.0,0.0,0.0,0.0
0.0,0.0,0.0,0.0
0.0,0.0,0.0,0.0
9.66,-0.272,-0.638,0.0
9.232,-0.262,-0.663,0.0
0.0,0.0,0.0,0.0
0.0,0.0,0.0,0.0
0.0,0.0,0.0,0.0
0.0,0.0,0.0,0.0
0.0,0.0,0.0,0.0
9.011,-0.267,-0.659,0.0
0.0,0.0,0.0,0.0
0.0,0.0,0.0,0.0
0.0,0.0,0.0,0.0
0.0,0.0,0.0,0.0
0.0,0.0,0.0,0.0
9.036,-0.279,-0.671,0.0
0.0,0.0,0.0,0.0
0.0,0.0,0.0,0.0
0.0,0.0,0.0,0.0
0.0,0.0,0.0,0.0
9.274,-0.296,-0.646,0.0
0.0,0.0,0.0,0.0
0.0,0.0,0.0,0.0
0.0,0.0,0.0,0.0
0.0,0.0,0.0,0.0
0.0,0.0,0.0,0.0
9.214,-0.306,-0.653,0.0
8.808,-0.295,-0.674,0.0
0.0,0.0,0.0,0.0
0.0,0.0,0.0,0.0
0.0,0.0,0.0,0.0
0.0,0.0,0.0,0.0
9.109,-0.315,-0.655,0.0
8.663,-0.301,-0.673,0.0
0.0,0.0,0.0,0.0
0.0,0.0,0.0,0.0
0.0,0.0,0.0,0.0
7.322,-0.261,-0.739,0.0
0.0,0.0,0.0,0.0
8.698,-0.314,-0.684,0.0
8.246,-0.299,-0.696,0.0
0.0,0.0,0.0,0.0
0.0,0.0,0.0,0.0
7.278,-0.269,-0.741,0.0
9.001,-0.334,-0.665,0.0
8.594,-0.321,-0.685,0.0
8.16,-0.307,-0.697,0.0
0.0,0.0,0.0,0.0
0.0,0.0,0.0,0.0
7.245,-0.277,-0.745,0.0
8.885,-0.342,-0.665,0.0
0.0,0.0,0.0,0.0
8.156,-0.318,-0.704,0.0
0.0,0.0,0.0,0.0
0.0,0.0,0.0,0.0
7.179,-0.285,-0.745,0.0
8.741,-0.348,-0.663,0.0
0.0,0.0,0.0,0.0
8.031,-0.324,-0.701,0.0
0.0,0.0,0.0,0.0
0.0,0.0,0.0,0.0
7.133,-0.292,-0.747,0.0
8.74,-0.36,-0.67,0.0
0.0,0.0,0.0,0.0
0.0,0.0,0.0,0.0
0.0,0.0,0.0,0.0
0.0,0.0,0.0,0.0
7.086,-0.3,-0.748,0.0
8.672,-0.369,-0.672,0.0
0.0,0.0,0.0,0.0
0.0,0.0,0.0,0.0
0.0,0.0,0.0,0.0
0.0,0.0,0.0,0.0
7.069,-0.309,-0.752,0.0
8.595,-0.377,-0.673,0.0
0.0,0.0,0.0,0.0
0.0,0.0,0.0,0.0
0.0,0.0,0.0,0.0
7.29,-0.327,-0.739,0.0
7.007,-0.316,-0.751,0.0
8.599,-0.389,-0.68,0.0
8.264,-0.376,-0.7,0.0
0.0,0.0,0.0,0.0
0.0,0.0,0.0,0.0
7.251,-0.335,-0.74,0.0
6.978,-0.325,-0.753,0.0
8.524,-0.398,-0.68,0.0
8.165,-0.383,-0.698,0.0
0.0,0.0,0.0,0.0
0.0,0.0,0.0,0.0
7.225,-0.344,-0.743,0.0
6.953,-0.333,-0.754,0.0
0.0,0.0,0.0,0.0
0.0,0.0,0.0,0.0
0.0,0.0,0.0,0.0
0.0,0.0,0.0,0.0
7.168,-0.351,-0.741,0.0
6.916,-0.341,-0.755,0.0
0.0,0.0,0.0,0.0
8.089,-0.402,-0.702,0.0
0.0,0.0,0.0,0.0
0.0,0.0,0.0,0.0
7.149,-0.36,-0.743,0.0
6.884,-0.349,-0.755,0.0
0.0,0.0,0.0,0.0
8.097,-0.413,-0.707,0.0
0.0,0.0,0.0,0.0
0.0,0.0,0.0,0.0
7.089,-0.367,-0.741,0.0
6.891,-0.359,-0.76,0.0
8.366,-0.436,-0.687,0.0
8.018,-0.42,-0.704,0.0
0.0,0.0,0.0,0.0
