X,Y,Z,Reflectivity
0.0,0.0,0.0,0.0
0.0,0.0,0.0,0.0
0.0,0.0,0.0,0.0
7.242,0.338,-0.752,0.0
0.0,0.0,0.0,0.0
0.0,0.0,0.0,0.0
0.0,0.0,0.0,0.0
0.0,0.0,0.0,0.0
0.0,0.0,0.0,0.0
7.217,0.328,-0.745,0.0
0.0,0.0,0.0,0.0
0.0,0.0,0.0,0.0
8.216,0.367,-0.707,0.0
0.0,0.0,0.0,0.0
0.0,0.0,0.0,0.0
0.0,0.0,0.0,0.0
0.0,0.0,0.0,0.0
0.0,0.0,0.0,0.0
8.226,0.357,-0.702,0.0
0.0,0.0,0.0,0.0
0.0,0.0,0.0,0.0
7.32,0.313,-0.747,0.0
0.0,0.0,0.0,0.0
0.0,0.0,0.0,0.0
8.341,0.351,-0.706,0.0
0.0,0.0,0.0,0.0
0.0,0.0,0.0,0.0
7.385,0.306,-0.748,0.0
7.112,0.293,-0.76,0.0
0.0,0.0,0.0,0.0
8.34,0.339,-0.7,0.0
0.0,0.0,0.0,0.0
0.0,0.0,0.0,0.0
7.409,0.297,-0.745,0.0
7.064,0.282,-0.749,0.0
0.0,0.0,0.0,0.0
8.467,0.333,-0.705,0.0
0.0,0.0,0.0,0.0
0.0,0.0,0.0,0.0
7.398,0.287,-0.738,0.0
7.168,0.276,-0.754,0.0
0.0,0.0,0.0,0.0
0.0,0.0,0.0,0.0
0.0,0.0,0.0,0.0
0.0,0.0,0.0,0.0
7.483,0.28,-0.74,0.0
7.196,0.268,-0.751,0.0
6.949,0.257,-0.764,0.0
0.0,0.0,0.0,0.0
0.0,0.0,0.0,0.0
0.0,0.0,0.0,0.0
0.0,0.0,0.0,0.0
7.21,0.259,-0.746,0.0
0.0,0.0,0.0,0.0
8.625,0.306,-0.696,0.0
8.234,0.29,-0.709,0.0
0.0,0.0,0.0,0.0
0.0,0.0,0.0,0.0
7.295,0.252,-0.748,0.0
7.017,0.241,-0.758,0.0
0.0,0.0,0.0,0.0
8.298,0.282,-0.707,0.0
0.0,0.0,0.0,0.0
0.0,0.0,0.0,0.0
7.353,0.245,-0.747,0.0
7.101,0.235,-0.76,0.0
0.0,0.0,0.0,0.0
0.0,0.0,0.0,0.0
0.0,0.0,0.0,0.0
0.0,0.0,0.0,0.0
7.381,0.236,-0.743,0.0
7.12,0.227,-0.755,0.0
0.0,0.0,0.0,0.0
0.0,0.0,0.0,0.0
0.0,0.0,0.0,0.0
0.0,0.0,0.0,0.0
7.473,0.23,-0.744,0.0
7.161,0.219,-0.752,0.0
8.867,0.269,-0.68,0.0
8.567,0.258,-0.703,0.0
8.175,0.245,-0.715,0.0
0.0,0.0,0.0,0.0
7.501,0.221,-0.739,0.0
7.24,0.212,-0.752,0.0
9.009,0.262,-0.681,0.0
8.618,0.249,-0.698,0.0
8.246,0.236,-0.712,0.0
0.0,0.0,0.0,0.0
0.0,0.0,0.0,0.0
7.31,0.205,-0.751,0.0
9.059,0.253,-0.674,0.0
0.0,0.0,0.0,0.0
8.301,0.228,-0.708,0.0
0.0,0.0,0.0,0.0
0.0,0.0,0.0,0.0
7.349,0.197,-0.746,0.0
0.0,0.0,0.0,0.0
0.0,0.0,0.0,0.0
8.336,0.219,-0.7,0.0
0.0,0.0,0.0,0.0
0.0,0.0,0.0,0.0
7.401,0.19,-0.743,0.0
0.0,0.0,0.0,0.0
8.877,0.224,-0.687,0.0
0.0,0.0,0.0,0.0
0.0,0.0,0.0,0.0
0.0,0.0,0.0,0.0
0.0,0.0,0.0,0.0
0.0,0.0,0.0,0.0
8.826,0.212,-0.672,0.0
0.0,0.0,0.0,0.0
0.0,0.0,0.0,0.0
0.0,0.0,0.0,0.0
0.0,0.0,0.0,0.0
0.0,0.0,0.0,0.0
9.055,0.207,-0.678,0.0
0.0,0.0,0.0,0.0
8.261,0.186,-0.708,0.0
0.0,0.0,0.0,0.0
0.0,0.0,0.0,0.0
0.0,0.0,0.0,0.0
0.0,0.0,0.0,0.0
0.0,0.0,0.0,0.0
0.0,0.0,0.0,0.0
0.0,0.0,0.0,0.0
0.0,0.0,0.0,0.0
9.728,0.203,-0.65,0.0
0.0,0.0,0.0,0.0
0.0,0.0,0.0,0.0
0.0,0.0,0.0,0.0
0.0,0.0,0.0,0.0
0.0,0.0,0.0,0.0
9.865,0.195,-0.645,0.0
0.0,0.0,0.0,0.0
0.0,0.0,0.0,0.0
0.0,0.0,0.0,0.0
8.175,0.155,-0.71,0.0
0.0,0.0,0.0,0.0
0.0,0.0,0.0,0.0
9.52,0.176,-0.659,0.0
0.0,0.0,0.0,0.0
0.0,0.0,0.0,0.0
8.24,0.147,-0.703,0.0
8.02,0.142,-0.728,0.0
10.089,0.178,-0.63,0.0
9.621,0.167,-0.652,0.0
9.118,0.157,-0.667,0.0
0.0,0.0,0.0,0.0
0.0,0.0,0.0,0.0
8.099,0.135,-0.722,0.0
10.236,0.17,-0.624,0.0
0.0,0.0,0.0,0.0
0.0,0.0,0.0,0.0
0.0,0.0,0.0,0.0
0.0,0.0,0.0,0.0
8.18,0.128,-0.717,0.0
10.405,0.162,-0.618,0.0
0.0,0.0,0.0,0.0
0.0,0.0,0.0,0.0
0.0,0.0,0.0,0.0
0.0,0.0,0.0,0.0
8.269,0.121,-0.712,0.0
10.582,0.154,-0.612,0.0
0.0,0.0,0.0,0.0
0.0,0.0,0.0,0.0
0.0,0.0,0.0,0.0
0.0,0.0,0.0,0.0
8.357,0.114,-0.706,0.0
10.697,0.145,-0.602,0.0
10.213,0.137,-0.628,0.0
9.797,0.13,-0.654,0.0
0.0,0.0,0.0,0.0
8.822,0.114,-0.684,0.0
8.465,0.108,-0.701,0.0
10.913,0.138,-0.596,0.0
10.377,0.13,-0.622,0.0
9.921,0.122,-0.646,0.0
0.0,0.0,0.0,0.0
0.0,0.0,0.0,0.0
8.573,0.101,-0.695,0.0
11.124,0.131,-0.589,0.0
10.546,0.122,-0.614,0.0
0.0,0.0,0.0,0.0
0.0,0.0,0.0,0.0
0.0,0.0,0.0,0.0
8.633,0.094,-0.686,0.0
11.296,0.123,-0.579,0.0
10.729,0.115,-0.606,0.0
0.0,0.0,0.0,0.0
0.0,0.0,0.0,0.0
0.0,0.0,0.0,0.0
0.0,0.0,0.0,0.0
11.559,0.116,-0.573,0.0
10.883,0.107,-0.596,0.0
10.389,0.101,-0.624,0.0
0.0,0.0,0.0,0.0
0.0,0.0,0.0,0.0
8.965,0.082,-0.681,0.0
11.777,0.108,-0.563,0.0
11.134,0.1,-0.591,0.0
10.513,0.093,-0.613,0.0
0.0,0.0,0.0,0.0
0.0,0.0,0.0,0.0
9.117,0.076,-0.676,0.0
11.962,0.1,-0.55,0.0
11.299,0.093,-0.579,0.0
10.72,0.086,-0.605,0.0
10.206,0.081,-0.631,0.0
0.0,0.0,0.0,0.0
0.0,0.0,0.0,0.0
12.307,0.094,-0.544,0.0
11.606,0.086,-0.574,0.0
10.949,0.08,-0.598,0.0
10.39,0.074,-0.623,0.0
9.813,0.069,-0.64,0.0
9.428,0.065,-0.664,0.0
12.441,0.085,-0.527,0.0
11.812,0.079,-0.562,0.0
11.145,0.073,-0.588,0.0
10.545,0.068,-0.613,0.0
10.09,0.063,-0.639,0.0
0.0,0.0,0.0,0.0
12.838,0.079,-0.52,0.0
12.026,0.072,-0.55,0.0
11.348,0.067,-0.578,0.0
10.778,0.062,-0.606,0.0
10.215,0.057,-0.628,0.0
9.761,0.053,-0.651,0.0
13.051,0.071,-0.504,0.0
12.329,0.066,-0.54,0.0
11.634,0.061,-0.57,0.0
10.97,0.056,-0.596,0.0
10.442,0.052,-0.622,0.0
0.0,0.0,0.0,0.0
13.412,0.065,-0.492,0.0
12.561,0.059,-0.526,0.0
11.881,0.054,-0.56,0.0
11.153,0.05,-0.585,0.0
10.543,0.046,-0.608,0.0
10.103,0.042,-0.635,0.0
13.724,0.058,-0.478,0.0
12.859,0.053,-0.514,0.0
12.152,0.048,-0.549,0.0
11.441,0.044,-0.578,0.0
10.849,0.04,-0.604,0.0
10.311,0.037,-0.628,0.0
14.04,0.051,-0.461,0.0
13.203,0.046,-0.502,0.0
12.438,0.042,-0.537,0.0
11.731,0.039,-0.569,0.0
11.073,0.035,-0.595,0.0
10.486,0.032,-0.618,0.0
14.446,0.044,-0.446,0.0
13.499,0.04,-0.487,0.0
12.698,0.036,-0.524,0.0
11.955,0.033,-0.556,0.0
11.34,0.03,-0.586,0.0
10.713,0.027,-0.61,0.0
14.786,0.038,-0.427,0.0
13.844,0.034,-0.471,0.0
13.016,0.031,-0.511,0.0
12.303,0.028,-0.548,0.0
11.592,0.025,-0.576,0.0
10.959,0.023,-0.602,0.0
15.448,0.032,-0.415,0.0
14.216,0.028,-0.456,0.0
13.301,0.025,-0.495,0.0
12.444,0.022,-0.529,0.0
11.828,0.02,-0.564,0.0
11.157,0.018,-0.59,0.0
15.934,0.026,-0.396,0.0
14.649,0.023,-0.44,0.0
13.671,0.02,-0.481,0.0
12.777,0.018,-0.517,0.0
12.044,0.016,-0.55,0.0
11.451,0.014,-0.582,0.0
16.39,0.02,-0.374,0.0
15.122,0.017,-0.423,0.0
14.032,0.015,-0.465,0.0
13.162,0.013,-0.506,0.0
12.387,0.011,-0.54,0.0
11.704,0.01,-0.571,0.0
16.841,0.015,-0.35,0.0
15.667,0.012,-0.406,0.0
14.371,0.01,-0.447,0.0
13.479,0.009,-0.49,0.0
12.637,0.007,-0.525,0.0
11.942,0.006,-0.558,0.0
17.43,0.009,-0.326,0.0
16.136,0.007,-0.385,0.0
14.906,0.006,-0.432,0.0
13.832,0.005,-0.474,0.0
13.05,0.003,-0.515,0.0
12.299,0.002,-0.549,0.0
18.238,0.004,-0.303,0.0
16.645,0.003,-0.363,0.0
15.484,0.002,-0.417,0.0
14.222,0.001,-0.458,0.0
13.329,0.0,-0.498,0.0
12.558,0.0,-0.534,0.0
19.173,0.0,-0.279,0.0
17.159,-0.001,-0.338,0.0
15.939,-0.001,-0.396,0.0
14.631,-0.002,-0.44,0.0
13.695,-0.002,-0.483,0.0
12.881,-0.003,-0.521,0.0
20.268,-0.004,-0.252,0.0
17.915,-0.005,-0.315,0.0
16.495,-0.005,-0.375,0.0
15.19,-0.005,-0.425,0.0
14.075,-0.005,-0.466,0.0
13.187,-0.005,-0.505,0.0
21.21,-0.009,-0.219,3.0
18.523,-0.008,-0.287,0.0
16.914,-0.008,-0.349,0.0
15.725,-0.008,-0.407,0.0
14.502,-0.008,-0.45,0.0
13.575,-0.008,-0.491,0.0
22.347,-0.012,-0.184,0.0
19.833,-0.012,-0.265,0.0
17.577,-0.011,-0.325,0.0
16.184,-0.01,-0.384,0.0
14.94,-0.01,-0.432,0.0
13.897,-0.01,-0.473,0.0
23.668,-0.016,-0.144,1.0
20.986,-0.015,-0.236,1.0
18.319,-0.013,-0.3,0.0
16.699,-0.012,-0.361,0.0
15.523,-0.012,-0.415,0.0
14.3,-0.011,-0.457,0.0
24.99,-0.019,-0.099,0.0
21.702,-0.017,-0.198,0.0
19.316,-0.015,-0.275,0.0
17.264,-0.014,-0.337,0.0
16.052,-0.013,-0.395,0.0
14.814,-0.012,-0.441,0.0
25.971,-0.021,-0.048,0.0
23.455,-0.019,-0.164,0.0
20.593,-0.017,-0.25,0.0
18.088,-0.015,-0.314,0.0
16.517,-0.014,-0.372,0.0
15.273,-0.013,-0.423,0.0
27.252,-0.022,0.007,0.0
24.305,-0.02,-0.118,0.0
21.366,-0.017,-0.213,2.0
18.758,-0.015,-0.286,0.0
17.042,-0.014,-0.347,0.0
15.831,-0.013,-0.404,0.0
28.667,-0.022,0.068,2.0
25.694,-0.02,-0.07,0.0
23.107,-0.018,-0.181,0.0
20.091,-0.015,-0.263,0.0
17.741,-0.013,-0.323,0.0
16.35,-0.012,-0.382,0.0
29.546,-0.021,0.134,1.0
26.667,-0.018,-0.015,0.0
23.883,-0.016,-0.136,0.0
21.103,-0.014,-0.231,2.0
18.424,-0.012,-0.296,0.0
16.856,-0.01,-0.357,0.0
31.154,-0.019,0.209,0.0
28.406,-0.016,0.044,1.0
25.281,-0.014,-0.089,0.0
22.104,-0.012,-0.194,0.0
19.626,-0.01,-0.273,0.0
17.454,-0.008,-0.333,0.0
33.273,-0.015,0.294,0.0
28.762,-0.012,0.107,0.0
26.302,-0.01,-0.037,0.0
23.644,-0.009,-0.157,1.0
20.955,-0.007,-0.247,1.0
18.293,-0.005,-0.31,0.0
0.0,0.0,0.0,0.0
30.482,-0.007,0.178,0.0
27.518,-0.006,0.019,0.0
24.672,-0.004,-0.111,0.0
21.626,-0.003,-0.208,1.0
19.212,-0.002,-0.284,0.0
0.0,0.0,0.0,0.0
33.234,0.0,0.265,0.0
28.701,0.0,0.081,1.0
25.936,0.001,-0.062,0.0
23.446,0.002,-0.176,0.0
20.447,0.002,-0.259,0.0
41.712,0.007,0.636,0.0
0.0,0.0,0.0,0.0
30.276,0.008,0.15,0.0
26.929,0.009,-0.007,0.0
24.065,0.009,-0.13,0.0
21.291,0.009,-0.225,4.0
0.0,0.0,0.0,0.0
36.788,0.019,0.45,0.0
0.0,0.0,0.0,0.0
28.496,0.018,0.052,1.0
25.462,0.018,-0.084,0.0
22.496,0.017,-0.19,0.0
0.0,0.0,0.0,0.0
0.0,0.0,0.0,0.0
33.218,0.031,0.306,0.0
28.768,0.028,0.114,0.0
26.476,0.028,-0.031,0.0
23.757,0.026,-0.15,1.0
0.0,0.0,0.0,0.0
0.0,0.0,0.0,0.0
36.054,0.047,0.408,0.0
31.009,0.043,0.188,0.0
28.078,0.041,0.026,0.0
25.052,0.038,-0.105,0.0
0.0,0.0,0.0,0.0
0.0,0.0,0.0,0.0
38.117,0.066,0.512,0.0
0.0,0.0,0.0,0.0
28.742,0.054,0.087,1.0
26.121,0.051,-0.055,0.0
76.504,0.155,1.976,4.0
0.0,0.0,0.0,0.0
41.738,0.091,0.647,0.0
0.0,0.0,0.0,0.0
30.372,0.071,0.155,0.0
27.234,0.066,-0.001,0.0
77.82,0.195,2.173,1.0
0.0,0.0,0.0,0.0
0.0,0.0,0.0,0.0
37.294,0.103,0.46,0.0
31.824,0.091,0.228,0.0
28.676,0.085,0.058,3.0
82.981,0.25,2.489,7.0
76.001,0.236,1.888,3.0
0.0,0.0,0.0,0.0
0.0,0.0,0.0,0.0
0.0,0.0,0.0,0.0
28.841,0.101,0.118,0.0
83.179,0.297,2.668,15.0
75.804,0.278,2.039,2.0
51.957,0.196,1.129,0.0
0.0,0.0,0.0,0.0
35.837,0.143,0.405,0.0
31.628,0.129,0.195,0.0
83.284,0.346,2.844,13.0
76.89,0.328,2.228,3.0
0.0,0.0,0.0,0.0
0.0,0.0,0.0,0.0
0.0,0.0,0.0,0.0
0.0,0.0,0.0,0.0
78.129,0.374,2.828,5.0
78.078,0.383,2.423,23.0
75.155,0.377,1.943,2.0
0.0,0.0,0.0,0.0
41.84,0.22,0.644,0.0
35.526,0.191,0.364,0.0
79.393,0.432,3.035,5.0
78.131,0.435,2.582,20.0
75.838,0.431,2.113,4.0
0.0,0.0,0.0,0.0
0.0,0.0,0.0,0.0
37.154,0.225,0.454,0.0
79.377,0.487,3.193,7.0
78.237,0.489,2.741,13.0
78.145,0.499,2.334,7.0
0.0,0.0,0.0,0.0
51.443,0.342,0.999,0.0
0.0,0.0,0.0,0.0
79.376,0.545,3.353,10.0
79.372,0.555,2.94,4.0
78.158,0.557,2.49,28.0
75.056,0.545,1.994,4.0
0.0,0.0,0.0,0.0
43.031,0.324,0.697,0.0
79.371,0.605,3.511,10.0
0.0,0.0,0.0,0.0
78.111,0.617,2.642,12.0
76.028,0.611,2.169,5.0
0.0,0.0,0.0,0.0
0.0,0.0,0.0,0.0
79.377,0.668,3.666,6.0
79.4,0.679,3.253,8.0
78.079,0.679,2.792,12.0
58.096,0.514,1.77,1.0
57.924,0.521,1.463,1.0
55.031,0.503,1.104,0.0
79.348,0.732,3.816,5.0
79.402,0.745,3.405,10.0
79.413,0.757,2.992,8.0
57.926,0.561,1.875,2.0
57.834,0.569,1.571,2.0
0.0,0.0,0.0,0.0
92.146,0.929,4.607,6.0
109.173,1.117,4.889,7.0
108.241,1.125,4.282,17.0
57.286,0.604,1.962,0.0
57.292,0.613,1.664,1.0
57.415,0.624,1.368,0.0
91.831,1.007,4.764,13.0
92.042,1.023,4.293,14.0
108.971,1.229,4.514,10.0
0.0,0.0,0.0,0.0
56.913,0.66,1.758,0.0
56.855,0.669,1.46,1.0
90.795,1.079,4.879,12.0
92.12,1.11,4.469,11.0
109.054,1.332,4.721,19.0
0.0,0.0,0.0,0.0
56.549,0.71,1.852,0.0
56.463,0.718,1.554,0.0
76.606,0.983,4.259,27.0
76.642,0.996,3.858,12.0
92.445,1.218,4.171,8.0
108.764,1.452,4.328,2.0
56.345,0.762,1.948,0.0
56.101,0.768,1.646,0.0
76.521,1.057,4.393,26.0
76.571,1.071,3.995,22.0
76.599,1.085,3.595,32.0
76.592,1.099,3.187,5.0
0.0,0.0,0.0,0.0
0.0,0.0,0.0,0.0
76.534,1.135,4.532,20.0
76.547,1.149,4.132,28.0
76.546,1.163,3.73,41.0
76.535,1.176,3.32,21.0
55.676,0.866,2.123,3.0
0.0,0.0,0.0,0.0
76.607,1.215,4.672,20.0
76.562,1.228,4.266,24.0
76.557,1.243,3.864,31.0
76.556,1.257,3.455,41.0
55.752,0.926,2.223,0.0
55.316,0.929,1.916,0.0
83.897,1.42,5.263,17.0
84.966,1.455,4.883,11.0
89.073,1.542,4.649,7.0
90.96,1.591,4.26,10.0
0.0,0.0,0.0,0.0
55.234,0.987,2.006,0.0
83.74,1.509,5.395,10.0
84.129,1.531,4.975,20.0
85.435,1.571,4.602,10.0
91.032,1.692,4.416,17.0
0.0,0.0,0.0,0.0
0.0,0.0,0.0,0.0
82.838,1.584,5.475,13.0
83.854,1.62,5.099,23.0
84.369,1.646,4.684,15.0
85.466,1.685,4.286,5.0
88.626,1.765,3.978,4.0
55.659,1.119,2.205,0.0
82.643,1.675,5.598,25.0
83.718,1.713,5.228,19.0
84.325,1.743,4.821,16.0
85.541,1.785,4.43,6.0
88.581,1.867,4.12,27.0
0.0,0.0,0.0,0.0
76.995,1.651,5.341,14.0
83.185,1.8,5.329,24.0
84.057,1.836,4.94,23.0
83.192,1.835,4.441,25.0
88.856,1.978,4.274,22.0
0.0,0.0,0.0,0.0
77.097,1.745,5.47,14.0
82.369,1.881,5.407,41.0
82.271,1.896,4.964,37.0
82.701,1.922,4.543,34.0
85.638,2.009,4.251,6.0
56.184,1.329,2.492,0.0
82.683,1.971,5.993,25.0
82.286,1.978,5.527,36.0
82.248,1.995,5.088,32.0
82.41,2.016,4.653,37.0
83.745,2.067,4.284,23.0
85.537,2.129,3.923,8.0
82.701,2.073,6.121,24.0
82.401,2.083,5.659,32.0
81.919,2.088,5.19,37.0
82.19,2.113,4.763,32.0
82.807,2.146,4.358,31.0
84.968,2.22,4.02,10.0
74.593,1.963,5.631,19.0
82.336,2.184,5.775,29.0
82.068,2.195,5.319,26.0
81.728,2.204,4.854,34.0
82.113,2.232,4.44,31.0
83.065,2.275,4.049,19.0
65.01,1.794,5.001,16.0
82.446,2.292,5.902,18.0
82.177,2.303,5.443,28.0
81.442,2.3,4.952,42.0
81.796,2.327,4.537,34.0
82.415,2.363,4.133,12.0
62.062,1.793,4.861,20.0
74.336,2.163,5.425,30.0
82.128,2.408,5.554,34.0
81.478,2.407,5.067,42.0
81.719,2.433,4.646,37.0
82.055,2.46,4.228,17.0
62.15,1.877,4.954,6.0
66.084,2.01,4.913,26.0
82.157,2.517,5.668,28.0
81.795,2.524,5.197,30.0
81.53,2.534,4.744,41.0
81.866,2.563,4.327,32.0
62.143,1.959,5.037,10.0
65.198,2.07,4.934,11.0
66.132,2.115,4.65,49.0
66.03,2.126,4.282,22.0
81.565,2.644,4.852,33.0
81.876,2.672,4.432,31.0
64.069,2.106,5.276,23.0
65.095,2.155,5.009,16.0
81.405,2.713,5.828,28.0
66.092,2.218,4.37,29.0
81.707,2.76,4.964,32.0
82.001,2.788,4.542,27.0
73.23,2.508,6.122,11.0
76.106,2.624,5.953,36.0
77.397,2.685,5.637,14.0
81.817,2.856,5.51,12.0
81.544,2.866,5.054,22.0
81.881,2.896,4.636,26.0
55.954,1.994,4.747,8.0
0.0,0.0,0.0,0.0
65.243,2.355,4.831,22.0
81.707,2.967,5.602,28.0
65.761,2.403,4.155,29.0
81.508,2.997,4.711,26.0
56.072,2.076,4.823,19.0
56.202,2.094,4.531,21.0
65.336,2.449,4.915,15.0
65.325,2.463,4.554,57.0
65.454,2.483,4.21,14.0
65.539,2.501,3.863,20.0
56.112,2.157,4.891,25.0
55.973,2.164,4.576,21.0
65.482,2.546,4.999,8.0
77.752,3.041,5.507,16.0
65.368,2.572,4.277,32.0
65.446,2.59,3.929,23.0
56.743,2.262,5.009,31.0
56.156,2.25,4.652,30.0
66.463,2.679,5.145,27.0
77.938,3.159,5.604,9.0
81.642,3.329,5.43,22.0
65.423,2.682,3.997,20.0
56.761,2.344,5.071,30.0
55.233,2.293,4.634,24.0
66.533,2.777,5.22,16.0
66.339,2.784,4.839,8.0
66.106,2.789,4.464,11.0
65.455,2.777,4.065,22.0
54.08,2.31,4.886,18.0
55.237,2.372,4.69,29.0
58.328,2.518,4.635,8.0
66.12,2.87,4.888,33.0
66.039,2.881,4.524,34.0
65.443,2.871,4.129,29.0
54.036,2.387,4.935,28.0
55.249,2.453,4.744,17.0
58.235,2.598,4.684,29.0
65.969,2.958,4.939,25.0
65.913,2.97,4.577,27.0
65.322,2.959,4.181,27.0
53.691,2.449,4.954,20.0
49.217,2.256,4.272,25.0
58.239,2.683,4.737,32.0
65.805,3.046,4.987,36.0
65.922,3.067,4.637,20.0
65.199,3.048,4.232,22.0
53.455,2.517,4.98,18.0
49.203,2.328,4.314,21.0
58.012,2.757,4.77,31.0
58.22,2.78,4.462,16.0
80.365,3.856,5.722,26.0
65.096,3.138,4.28,28.0
49.731,2.414,4.675,23.0
49.265,2.403,4.361,23.0
58.178,2.85,4.832,23.0
58.121,2.86,4.503,26.0
80.253,3.968,5.779,12.0
80.971,4.022,5.39,13.0
49.739,2.488,4.716,27.0
49.348,2.479,4.408,34.0
58.534,2.954,4.908,22.0
58.179,2.949,4.553,25.0
64.504,3.284,4.696,13.0
80.854,4.135,5.443,17.0
49.661,2.557,4.747,15.0
49.464,2.558,4.456,23.0
58.552,3.04,4.953,27.0
58.291,3.04,4.605,15.0
64.7,3.389,4.757,34.0
80.618,4.242,5.486,18.0
49.728,2.634,4.789,22.0
49.58,2.637,4.502,8.0
58.54,3.127,4.994,19.0
58.556,3.141,4.667,20.0
58.304,3.14,4.327,28.0
68.051,3.68,4.677,18.0
49.753,2.709,4.826,33.0
49.459,2.704,4.524,23.0
65.577,3.599,5.637,9.0
58.52,3.225,4.703,37.0
58.271,3.224,4.362,40.0
67.98,3.777,4.716,22.0
49.682,2.779,4.851,21.0
49.568,2.783,4.565,17.0
49.164,2.771,4.257,21.0
58.512,3.311,4.738,25.0
58.3,3.311,4.399,24.0
58.402,3.33,4.086,34.0
49.754,2.857,4.887,19.0
57.343,3.304,5.315,15.0
49.212,2.846,4.289,23.0
80.362,4.665,6.551,37.0
58.334,3.398,4.434,24.0
58.319,3.41,4.112,22.0
56.804,3.345,5.61,13.0
57.63,3.406,5.372,31.0
57.837,3.43,5.071,18.0
80.725,4.804,6.623,37.0
67.698,4.043,5.181,8.0
58.294,3.494,4.139,51.0
56.816,3.428,5.64,10.0
52.296,3.166,4.901,10.0
57.722,3.507,5.089,22.0
58.079,3.541,4.793,49.0
58.187,3.56,4.48,36.0
58.273,3.578,4.165,47.0
51.862,3.206,5.173,17.0
55.048,3.414,5.184,6.0
0.0,0.0,0.0,0.0
58.087,3.627,4.819,23.0
58.217,3.647,4.507,31.0
58.279,3.664,4.19,25.0
51.737,3.274,5.181,20.0
52.253,3.318,4.942,13.0
0.0,0.0,0.0,0.0
57.885,3.699,4.825,12.0
58.249,3.734,4.533,15.0
58.427,3.758,4.222,21.0
51.608,3.342,5.188,9.0
63.046,4.095,5.986,6.0
58.007,3.78,5.184,13.0
57.889,3.784,4.846,10.0
58.108,3.81,4.541,30.0
61.474,4.044,4.464,12.0
47.981,3.177,4.839,12.0
66.351,4.407,6.321,6.0
0.0,0.0,0.0,0.0
58.131,3.884,4.884,27.0
58.039,3.89,4.553,31.0
61.407,4.128,4.476,23.0
47.998,3.248,4.855,17.0
65.101,4.418,6.22,13.0
59.245,4.032,5.33,9.0
58.2,3.972,4.905,16.0
58.236,3.987,4.583,28.0
61.391,4.215,4.49,20.0
48.036,3.32,4.87,27.0
64.797,4.491,6.207,8.0
59.106,4.108,5.331,8.0
58.698,4.091,4.96,23.0
58.149,4.064,4.589,38.0
61.273,4.294,4.495,28.0
48.108,3.394,4.887,29.0
64.007,4.527,6.143,7.0
51.876,3.679,4.688,25.0
58.72,4.175,4.972,33.0
58.111,4.143,4.596,31.0
61.129,4.371,4.494,34.0
63.473,4.568,6.458,21.0
59.522,4.295,5.721,14.0
51.851,3.75,4.693,4.0
58.554,4.246,4.965,33.0
58.102,4.223,4.602,31.0
61.036,4.448,4.494,31.0
59.725,4.381,6.083,12.0
43.092,3.169,4.146,14.0
58.822,4.336,5.33,13.0
57.993,4.285,4.923,28.0
61.583,4.562,4.883,9.0
60.809,4.516,4.482,24.0
51.79,3.871,5.279,9.0
43.153,3.233,4.155,17.0
49.312,3.703,4.471,22.0
61.131,4.601,5.192,23.0
61.839,4.665,4.906,30.0
60.882,4.605,4.489,29.0
49.721,3.784,5.069,23.0
43.201,3.295,4.16,29.0
51.905,3.968,4.706,10.0
51.898,3.976,4.408,34.0
60.771,4.667,4.821,27.0
60.702,4.673,4.475,30.0
43.239,3.35,4.407,21.0
49.196,3.82,4.736,4.0
48.919,3.806,4.434,24.0
51.886,4.046,4.405,48.0
60.259,4.709,4.777,34.0
60.155,4.712,4.432,34.0
34.036,2.682,3.467,17.0
42.766,3.377,4.114,20.0
48.893,3.869,4.428,13.0
51.893,4.115,4.402,36.0
60.086,4.776,4.759,29.0
59.736,4.758,4.395,31.0
33.996,2.724,3.459,23.0
42.788,3.436,4.112,28.0
60.289,4.851,5.453,19.0
59.332,4.783,5.026,9.0
59.578,4.813,4.71,12.0
59.548,4.82,4.373,30.0
43.099,3.51,4.38,8.0
42.83,3.495,4.109,28.0
60.364,4.935,5.45,19.0
59.763,4.895,5.052,34.0
51.938,4.262,4.098,23.0
51.978,4.274,3.808,11.0
43.03,3.559,4.365,10.0
42.883,3.554,4.106,21.0
51.464,4.272,4.637,5.0
59.816,4.975,5.045,33.0
51.875,4.323,4.082,33.0
51.903,4.334,3.791,32.0
43.028,3.614,4.355,13.0
42.932,3.612,4.101,25.0
51.606,4.35,4.637,9.0
59.696,5.04,5.02,16.0
51.834,4.384,4.066,43.0
51.875,4.395,3.776,20.0
42.992,3.664,4.34,32.0
42.953,3.667,4.091,31.0
51.456,4.4,4.609,15.0
51.675,4.425,4.331,23.0
51.822,4.446,4.05,14.0
51.855,4.456,3.76,38.0
42.877,3.706,4.315,34.0
51.427,4.452,4.883,14.0
51.499,4.466,4.597,18.0
51.668,4.487,4.314,26.0
51.809,4.507,4.032,11.0
51.854,4.519,3.742,31.0
42.957,3.765,4.308,28.0
51.34,4.506,4.856,25.0
51.598,4.536,4.587,34.0
59.229,5.215,4.923,11.0
42.915,3.784,3.324,24.0
51.874,4.582,3.724,33.0
42.814,3.803,4.277,33.0
51.476,4.578,4.849,25.0
43.519,3.876,3.852,17.0
43.1,3.844,3.565,24.0
42.921,3.834,3.307,27.0
51.916,4.645,3.706,19.0
42.825,3.853,4.26,34.0
43.564,3.925,4.085,6.0
43.522,3.926,3.833,13.0
43.137,3.897,3.549,17.0
42.957,3.886,3.29,26.0
59.279,5.371,4.205,33.0
42.923,3.91,4.25,29.0
43.538,3.971,4.062,30.0
52.934,4.834,4.637,7.0
51.882,4.744,4.244,16.0
59.343,5.434,4.517,16.0
59.11,5.42,4.164,34.0
43.455,4.006,4.281,22.0
43.486,4.013,4.035,27.0
43.334,4.004,3.774,13.0
51.891,4.801,4.218,39.0
59.349,5.498,4.487,28.0
58.769,5.452,4.109,27.0
43.679,4.073,4.279,15.0
43.454,4.057,4.009,17.0
43.314,4.048,3.748,16.0
51.819,4.849,4.184,45.0
59.001,5.528,4.428,32.0
58.851,5.521,4.081,28.0
50.85,4.795,4.953,9.0
43.433,4.1,3.982,16.0
43.395,4.101,3.73,13.0
51.882,4.909,4.158,30.0
58.988,5.587,4.392,32.0
58.745,5.57,4.04,27.0
43.607,4.156,4.221,30.0
43.377,4.138,3.95,17.0
52.187,4.984,4.454,9.0
59.203,5.66,4.708,7.0
58.73,5.621,4.336,30.0
58.573,5.612,3.991,25.0
43.557,4.193,4.188,29.0
52.06,5.017,4.707,25.0
43.425,4.189,3.677,23.0
59.282,5.724,4.676,25.0
58.637,5.668,4.29,32.0
58.597,5.67,3.953,27.0
43.506,4.23,4.153,20.0
51.992,5.06,4.665,10.0
51.828,5.048,4.353,9.0
59.305,5.782,4.636,27.0
58.542,5.713,4.242,26.0
58.453,5.71,3.902,32.0
43.429,4.262,4.115,37.0
59.66,5.86,5.31,19.0
51.795,5.092,4.313,18.0
59.234,5.828,4.587,33.0
58.436,5.755,4.192,27.0
58.441,5.76,3.859,30.0
43.429,4.3,4.082,39.0
59.526,5.899,5.253,14.0
51.755,5.133,4.27,22.0
59.049,5.861,4.528,31.0
58.621,5.823,4.16,32.0
58.255,5.793,3.801,25.0
43.247,4.319,4.031,39.0
43.235,4.321,3.781,30.0
51.758,5.176,4.23,15.0
58.818,5.887,4.464,33.0
58.486,5.858,4.105,32.0
58.052,5.82,3.742,32.0
43.188,4.348,3.991,31.0
51.876,5.226,4.495,6.0
58.984,5.946,4.772,28.0
58.91,5.943,4.423,31.0
58.59,5.915,4.064,32.0
57.786,5.838,3.678,28.0
43.166,4.379,3.953,31.0
51.847,5.263,4.449,6.0
58.426,5.934,4.678,32.0
59.412,6.038,4.41,34.0
58.331,5.932,3.996,30.0
57.887,5.892,3.635,32.0
43.123,4.407,3.911,35.0
42.891,4.385,3.643,17.0
58.394,5.973,4.625,31.0
0.0,0.0,0.0,0.0
58.103,5.951,3.929,31.0
57.79,5.923,3.577,29.0
43.118,4.437,3.872,39.0
42.874,4.413,3.603,15.0
58.4,6.015,4.572,32.0
58.809,6.06,4.26,25.0
57.938,5.973,3.865,26.0
57.662,5.949,3.517,25.0
43.115,4.465,3.831,30.0
42.783,4.432,3.555,15.0
58.452,6.059,4.521,33.0
58.81,6.098,4.205,33.0
57.726,5.989,3.796,29.0
57.741,5.994,3.467,30.0
43.098,4.49,3.788,30.0
58.207,6.067,4.781,10.0
58.666,6.117,4.481,33.0
58.674,6.12,4.139,33.0
57.778,6.029,3.744,25.0
57.982,6.054,3.425,32.0
43.009,4.506,3.738,30.0
58.116,6.091,4.716,22.0
58.849,6.17,4.437,23.0
58.314,6.116,4.055,30.0
57.768,6.061,3.686,29.0
58.125,6.101,3.375,27.0
42.96,4.525,3.69,30.0
58.201,6.131,4.664,32.0
53.85,5.675,4.005,6.0
58.061,6.12,3.979,29.0
57.782,6.093,3.628,26.0
58.08,6.127,3.314,29.0
42.923,4.542,3.643,28.0
58.165,6.157,4.601,15.0
59.205,6.268,4.342,15.0
57.826,6.124,3.903,32.0
57.794,6.122,3.569,27.0
58.245,6.172,3.263,32.0
42.888,4.559,3.594,34.0
53.63,5.702,4.185,27.0
58.977,6.271,4.263,27.0
57.685,6.135,3.832,29.0
57.977,6.167,3.519,30.0
58.385,6.212,3.208,31.0
54.069,5.77,4.473,11.0
53.577,5.718,4.123,27.0
58.601,6.255,4.172,33.0
57.712,6.161,3.772,32.0
58.087,6.202,3.463,29.0
58.345,6.231,3.143,32.0
53.95,5.778,4.405,25.0
53.576,5.738,4.064,27.0
58.147,6.228,4.077,32.0
57.686,6.179,3.707,29.0
58.113,6.226,3.4,27.0
58.535,6.272,3.089,32.0
53.394,5.737,4.3,17.0
53.655,5.764,4.011,27.0
58.061,6.238,4.006,27.0
57.716,6.201,3.644,30.0
58.137,6.247,3.336,28.0
58.607,6.299,3.027,28.0
53.241,5.736,4.227,21.0
59.009,6.357,4.344,11.0
57.989,6.247,3.935,27.0
57.879,6.235,3.588,32.0
58.071,6.256,3.266,30.0
58.518,6.305,2.955,32.0
53.312,5.757,4.17,25.0
58.909,6.361,4.268,24.0
57.939,6.256,3.864,28.0
57.982,6.26,3.527,32.0
58.106,6.273,3.2,29.0
58.24,6.288,2.874,32.0
53.475,5.786,4.12,26.0
58.7,6.351,4.184,33.0
57.741,6.246,3.783,29.0
58.07,6.281,3.464,28.0
58.199,6.295,3.137,31.0
58.368,6.313,2.811,32.0
53.553,5.804,4.062,27.0
58.049,6.29,4.068,32.0
57.647,6.245,3.708,31.0
58.102,6.293,3.397,28.0
58.426,6.327,3.08,32.0
58.667,6.353,2.756,31.0
53.604,5.816,4.002,11.0
57.858,6.275,3.986,28.0
57.715,6.259,3.643,31.0
58.006,6.289,3.321,32.0
58.448,6.336,3.011,32.0
58.642,6.356,2.684,32.0
58.959,6.402,4.33,16.0
57.803,6.274,3.912,26.0
57.844,6.276,3.581,31.0
58.047,6.297,3.253,32.0
58.12,6.303,2.923,31.0
58.492,6.343,2.606,28.0
58.852,6.392,4.249,17.0
57.731,6.268,3.835,32.0
57.967,6.291,3.516,32.0
58.253,6.32,3.193,32.0
58.152,6.308,2.853,31.0
58.45,6.339,2.533,27.0
58.233,6.324,4.132,33.0
57.566,6.249,3.753,28.0
58.057,6.3,3.45,32.0
58.339,6.328,3.125,32.0
58.524,6.346,2.799,32.0
58.507,6.343,2.462,31.0
57.878,6.282,4.035,24.0
57.624,6.252,3.685,31.0
58.064,6.297,3.378,32.0
58.468,6.338,3.059,33.0
58.682,6.359,2.732,32.0
58.883,6.379,2.404,33.0
57.908,6.28,3.963,28.0
57.804,6.265,3.622,32.0
57.995,6.283,3.3,32.0
58.405,6.325,2.982,33.0
58.559,6.339,2.653,32.0
59.134,6.399,2.339,26.0
57.94,6.275,3.891,25.0
57.99,6.277,3.56,30.0
58.092,6.284,3.231,32.0
58.156,6.288,2.894,32.0
58.523,6.325,2.577,32.0
59.143,6.389,2.264,26.0
57.793,6.248,3.807,28.0
58.046,6.272,3.489,29.0
58.203,6.285,3.163,32.0
58.437,6.306,2.834,33.0
58.69,6.331,2.508,32.0
59.117,6.374,2.187,25.0
57.731,6.228,3.729,25.0
58.118,6.265,3.418,32.0
58.515,6.304,3.104,32.0
58.556,6.305,2.763,31.0
59.071,6.357,2.449,33.0
59.171,6.364,2.113,28.0
57.759,6.215,3.655,27.0
58.133,6.25,3.344,32.0
58.614,6.297,3.034,30.0
58.564,6.288,2.689,28.0
59.302,6.364,2.381,21.0
59.156,6.344,2.035,25.0
57.86,6.206,3.586,29.0
58.086,6.226,3.265,32.0
58.609,6.277,2.957,26.0
58.516,6.263,2.609,33.0
59.326,6.345,2.305,25.0
59.14,6.321,1.958,26.0
58.04,6.204,3.521,25.0
58.306,6.227,3.201,32.0
58.73,6.267,2.886,27.0
58.387,6.226,2.528,27.0
59.314,6.321,2.227,29.0
59.218,6.306,1.884,27.0
58.109,6.187,3.449,27.0
58.647,6.239,3.143,25.0
58.612,6.23,2.804,30.0
58.522,6.215,2.458,33.0
59.223,6.285,2.146,27.0
59.606,6.321,1.819,33.0
58.089,6.158,3.372,26.0
58.68,6.215,3.068,29.0
58.578,6.199,2.726,23.0
58.515,6.187,2.381,23.0
59.152,6.249,2.067,25.0
59.795,6.312,1.747,10.0
58.126,6.133,3.298,33.0
58.667,6.183,2.991,26.0
58.621,6.173,2.652,32.0
59.227,6.231,2.333,25.0
59.212,6.224,1.992,28.0
59.8,6.28,1.67,14.0
58.16,6.104,3.224,33.0
58.597,6.143,2.911,27.0
58.497,6.127,2.569,28.0
59.329,6.208,2.259,14.0
59.463,6.216,1.923,20.0
59.614,6.226,1.586,25.0
58.175,6.071,3.148,33.0
58.463,6.094,2.828,31.0
58.619,6.104,2.498,28.0
59.169,6.155,2.177,25.0
59.743,6.209,1.854,30.0
59.296,6.156,1.501,4.0
58.334,6.05,3.081,33.0
58.71,6.081,2.763,33.0
59.161,6.121,2.445,33.0
59.216,6.121,2.1,27.0
59.837,6.178,1.78,30.0
51.711,5.334,1.242,2.0
58.567,6.034,3.017,33.0
58.947,6.065,2.698,19.0
59.23,6.087,2.371,26.0
59.262,6.084,2.026,33.0
59.847,6.137,1.703,31.0
51.531,5.279,1.172,6.0
58.487,5.983,2.938,31.0
59.191,6.047,2.632,33.0
59.158,6.036,2.292,28.0
59.508,6.065,1.958,34.0
59.875,6.095,1.628,25.0
51.425,5.229,1.103,2.0
58.725,5.962,2.874,33.0
59.463,6.029,2.569,29.0
59.242,5.998,2.22,25.0
59.772,6.044,1.891,34.0
59.909,6.051,1.552,6.0
46.559,4.697,0.94,3.0
58.938,5.935,2.809,21.0
59.135,5.947,2.479,27.0
59.333,5.958,2.147,33.0
59.603,5.978,1.81,34.0
52.918,5.3,1.304,1.0
46.311,4.633,0.876,5.0
59.485,5.939,2.76,34.0
59.098,5.891,2.403,28.0
59.804,5.953,2.088,30.0
60.278,5.992,1.754,10.0
51.676,5.13,1.208,4.0
46.165,4.577,0.815,8.0
59.47,5.884,2.684,21.0
59.018,5.83,2.325,29.0
59.864,5.904,2.015,34.0
60.344,5.943,1.68,5.0
51.455,5.06,1.137,6.0
46.265,4.544,0.758,5.0
59.463,5.826,2.608,26.0
59.001,5.772,2.25,25.0
60.316,5.891,1.955,20.0
60.908,5.94,1.619,6.0
51.262,4.991,1.07,1.0
46.382,4.51,0.703,7.0
59.585,5.779,2.54,29.0
61.241,5.931,2.26,6.0
62.886,6.08,1.961,15.0
58.735,5.669,1.49,2.0
47.015,4.531,0.924,3.0
46.668,4.491,0.651,2.0
59.393,5.7,2.46,32.0
60.96,5.841,2.176,31.0
62.684,5.995,1.879,26.0
52.083,4.973,1.258,10.0
46.912,4.472,0.865,5.0
40.601,3.864,0.517,0.0
59.661,5.662,2.399,34.0
60.405,5.723,2.084,30.0
62.66,5.926,1.803,8.0
51.709,4.881,1.187,9.0
47.004,4.429,0.81,6.0
40.636,3.823,0.468,0.0
60.13,5.64,2.345,23.0
60.438,5.657,2.012,25.0
62.11,5.804,1.712,7.0
51.348,4.789,1.118,5.0
47.272,4.402,0.759,3.0
0.0,0.0,0.0,0.0
61.318,5.681,2.32,30.0
61.577,5.693,1.977,26.0
52.183,4.816,1.378,9.0
51.254,4.721,1.055,0.0
47.482,4.365,0.707,3.0
34.277,3.146,0.315,0.0
61.526,5.627,2.255,37.0
62.216,5.678,1.925,20.0
52.067,4.742,1.314,15.0
47.887,4.353,0.93,3.0
47.71,4.328,0.655,0.0
33.575,3.04,0.27,0.0
62.213,5.613,2.208,15.0
52.157,4.696,1.554,23.0
51.927,4.665,1.251,12.0
47.962,4.3,0.878,4.0
40.599,3.633,0.511,0.0
32.515,2.903,0.224,0.0
52.137,4.638,1.792,37.0
52.111,4.625,1.494,24.0
51.617,4.571,1.186,7.0
48.403,4.277,0.831,9.0
0.0,0.0,0.0,0.0
31.317,2.756,0.181,0.0
52.122,4.568,1.733,68.0
52.08,4.554,1.435,21.0
51.398,4.484,1.124,5.0
48.405,4.214,0.778,16.0
0.0,0.0,0.0,0.0
30.659,2.657,0.144,0.0
52.135,4.5,1.677,40.0
52.135,4.489,1.38,16.0
50.226,4.314,1.044,4.0
48.826,4.184,0.732,1.0
34.627,2.961,0.322,0.0
29.062,2.479,0.105,0.0
52.208,4.434,1.623,17.0
52.176,4.42,1.325,12.0
49.261,4.163,0.971,4.0
0.0,0.0,0.0,0.0
34.184,2.875,0.282,0.0
28.537,2.394,0.073,0.0
47.78,3.99,1.435,2.0
47.67,3.97,1.161,9.0
49.375,4.102,0.922,7.0
0.0,0.0,0.0,0.0
32.656,2.699,0.235,0.0
27.392,2.259,0.042,0.0
47.562,3.903,1.379,1.0
47.612,3.896,1.111,11.0
48.012,3.919,0.847,1.0
38.486,3.133,0.457,0.0
31.385,2.548,0.195,0.0
27.021,2.188,0.014,1.0
47.604,3.836,1.333,2.0
47.519,3.818,1.061,12.0
47.999,3.846,0.799,4.0
36.079,2.883,0.392,1.0
30.058,2.395,0.156,1.0
26.394,2.097,-0.011,0.0
47.511,3.756,1.284,13.0
47.488,3.743,1.014,1.0
48.075,3.779,0.754,3.0
35.269,2.764,0.349,1.0
29.698,2.321,0.126,1.0
25.807,2.011,-0.036,0.0
47.426,3.677,1.236,14.0
47.438,3.666,0.968,2.0
0.0,0.0,0.0,0.0
33.939,2.607,0.304,0.0
29.237,2.239,0.097,1.0
25.314,1.933,-0.059,0.0
47.401,3.599,1.191,12.0
47.438,3.591,0.924,1.0
0.0,0.0,0.0,0.0
33.022,2.484,0.266,0.0
28.021,2.101,0.067,1.0
24.695,1.846,-0.08,1.0
47.393,3.522,1.148,1.0
51.416,3.809,0.955,1.0
0.0,0.0,0.0,0.0
32.076,2.36,0.229,0.0
27.647,2.028,0.041,1.0
24.198,1.769,-0.1,2.0
47.424,3.446,1.107,0.0
51.826,3.753,0.917,1.0
37.583,2.712,0.452,0.0
31.06,2.234,0.195,0.0
26.862,1.926,0.017,0.0
23.99,1.714,-0.119,2.0
47.329,3.36,1.064,1.0
49.652,3.512,0.836,0.0
37.51,2.643,0.42,0.0
30.402,2.135,0.165,0.0
26.478,1.853,-0.005,0.0
23.811,1.66,-0.138,1.0
47.295,3.276,1.024,3.0
0.0,0.0,0.0,0.0
47.29,3.251,0.49,1.0
29.35,2.01,0.136,0.0
26.086,1.78,-0.025,0.0
23.017,1.565,-0.152,0.0
47.295,3.193,0.986,3.0
45.547,3.064,0.693,0.0
33.917,2.273,0.325,0.0
28.968,1.933,0.111,1.0
25.655,1.706,-0.045,0.0
22.683,1.502,-0.167,0.0
47.295,3.11,0.95,2.0
0.0,0.0,0.0,0.0
33.454,2.182,0.295,0.0
28.596,1.858,0.088,0.0
25.248,1.633,-0.063,0.0
22.274,1.435,-0.181,0.0
52.173,3.338,1.01,1.0
0.0,0.0,0.0,0.0
32.729,2.076,0.265,0.0
28.206,1.782,0.067,0.0
24.943,1.569,-0.08,0.0
21.971,1.376,-0.194,0.0
53.666,3.336,1.001,2.0
47.285,2.926,0.616,0.0
32.099,1.977,0.238,1.0
27.67,1.697,0.046,0.0
24.542,1.498,-0.096,0.0
21.551,1.31,-0.205,2.0
47.676,2.875,0.857,0.0
37.979,2.28,0.469,0.0
31.198,1.864,0.21,0.0
27.269,1.622,0.028,0.0
24.325,1.44,-0.111,0.0
21.488,1.266,-0.219,2.0
47.897,2.799,0.83,11.0
0.0,0.0,0.0,0.0
30.435,1.761,0.186,1.0
26.776,1.542,0.01,0.0
24.021,1.376,-0.125,0.0
21.278,1.213,-0.23,2.0
48.327,2.733,0.807,3.0
0.0,0.0,0.0,0.0
30.368,1.699,0.167,0.0
26.478,1.474,-0.005,0.0
23.279,1.289,-0.135,0.0
20.897,1.151,-0.238,0.0
48.905,2.671,0.788,1.0
35.079,1.906,0.369,0.0
29.763,1.608,0.146,0.0
26.154,1.406,-0.019,0.0
23.112,1.235,-0.147,0.0
20.356,1.082,-0.243,0.0
42.673,2.248,0.665,0.0
34.074,1.785,0.34,0.0
29.234,1.523,0.128,0.0
25.875,1.34,-0.033,1.0
22.695,1.168,-0.156,0.0
19.991,1.024,-0.249,0.0
0.0,0.0,0.0,0.0
33.908,1.709,0.321,1.0
29.006,1.454,0.112,0.0
25.66,1.278,-0.046,0.0
22.663,1.122,-0.167,1.0
19.785,0.974,-0.256,0.0
0.0,0.0,0.0,0.0
32.977,1.597,0.297,1.0
28.647,1.379,0.098,0.0
25.442,1.217,-0.057,0.0
22.367,1.063,-0.175,1.0
19.398,0.916,-0.259,0.0
0.0,0.0,0.0,0.0
32.516,1.511,0.279,1.0
28.435,1.313,0.085,0.0
25.277,1.159,-0.067,0.0
22.187,1.01,-0.182,1.0
19.445,0.88,-0.268,0.0
38.505,1.724,0.529,0.0
32.579,1.448,0.266,1.0
28.257,1.247,0.073,0.0
25.023,1.096,-0.076,1.0
21.933,0.954,-0.189,1.0
19.341,0.836,-0.274,0.0
38.451,1.644,0.514,0.0
32.355,1.373,0.252,1.0
27.992,1.179,0.063,0.0
24.696,1.033,-0.084,1.0
21.773,0.904,-0.195,1.0
18.977,0.781,-0.275,0.0
38.034,1.549,0.496,0.0
31.83,1.286,0.238,0.0
27.669,1.109,0.053,0.0
24.573,0.977,-0.091,1.0
21.861,0.862,-0.202,1.0
18.898,0.739,-0.28,0.0
37.955,1.468,0.483,0.0
31.615,1.212,0.227,0.0
27.632,1.05,0.045,0.0
24.461,0.922,-0.098,1.0
21.601,0.807,-0.206,1.0
18.847,0.698,-0.284,0.0
36.462,1.334,0.454,0.0
31.203,1.132,0.216,0.0
27.343,0.982,0.037,0.0
24.396,0.869,-0.103,1.0
21.532,0.76,-0.211,1.0
18.682,0.653,-0.286,0.0
36.521,1.26,0.447,0.0
31.022,1.06,0.208,0.0
27.136,0.918,0.031,0.0
24.396,0.818,-0.109,1.0
21.555,0.715,-0.215,1.0
18.59,0.611,-0.288,0.0
36.354,1.179,0.438,0.0
28.995,0.931,0.189,0.0
27.12,0.862,0.026,0.0
24.348,0.766,-0.112,0.0
21.527,0.67,-0.218,0.0
18.451,0.568,-0.289,0.0
35.53,1.078,0.422,1.0
29.047,0.871,0.185,1.0
27.055,0.803,0.023,0.0
23.981,0.704,-0.114,0.0
21.398,0.621,-0.22,1.0
18.458,0.529,-0.291,0.0
35.684,1.007,0.42,0.0
29.015,0.809,0.181,1.0
27.112,0.747,0.02,0.0
23.827,0.648,-0.116,1.0
21.361,0.574,-0.221,0.0
18.436,0.489,-0.293,0.0
35.696,0.932,0.417,0.0
28.99,0.747,0.179,1.0
27.001,0.686,0.018,0.0
23.997,0.602,-0.118,0.0
21.333,0.528,-0.222,0.0
18.393,0.449,-0.293,0.0
35.777,0.858,0.417,0.0
30.949,0.732,0.19,0.0
26.99,0.629,0.017,0.0
23.988,0.551,-0.118,0.0
21.324,0.483,-0.222,0.0
18.353,0.409,-0.292,0.0
35.368,0.773,0.412,0.0
30.712,0.661,0.189,0.0
27.022,0.572,0.017,0.0
24.08,0.502,-0.118,0.0
21.321,0.437,-0.222,0.0
18.367,0.37,-0.292,0.0
0.0,0.0,0.0,0.0
28.914,0.561,0.179,0.0
27.08,0.516,0.019,0.0
24.144,0.451,-0.117,0.0
21.263,0.39,-0.22,0.0
18.397,0.331,-0.291,0.0
35.53,0.626,0.418,0.0
0.0,0.0,0.0,0.0
27.002,0.457,0.021,0.0
24.114,0.4,-0.115,0.0
21.139,0.343,-0.217,0.0
18.475,0.294,-0.291,0.0
0.0,0.0,0.0,0.0
28.924,0.438,0.185,0.0
27.258,0.403,0.025,0.0
24.19,0.349,-0.112,0.0
21.567,0.304,-0.218,1.0
18.511,0.255,-0.289,0.0
36.318,0.485,0.436,0.0
28.979,0.377,0.189,0.0
27.365,0.346,0.029,0.0
24.432,0.301,-0.109,0.0
21.707,0.259,-0.216,1.0
18.657,0.217,-0.288,0.0
36.066,0.405,0.44,0.0
30.954,0.337,0.208,0.0
27.534,0.29,0.035,0.0
24.62,0.251,-0.105,0.0
21.696,0.213,-0.211,3.0
18.69,0.177,-0.284,0.0
0.0,0.0,0.0,0.0
31.071,0.272,0.216,0.0
27.639,0.232,0.041,0.0
24.717,0.199,-0.1,0.0
21.778,0.168,-0.207,3.0
18.866,0.139,-0.282,0.0
36.529,0.255,0.463,0.0
31.441,0.208,0.227,0.0
27.791,0.174,0.049,0.0
24.883,0.147,-0.093,0.0
21.798,0.121,-0.2,4.0
18.949,0.098,-0.277,0.0
37.384,0.181,0.485,0.0
31.605,0.142,0.238,0.0
28.367,0.117,0.059,1.0
25.062,0.094,-0.086,0.0
21.823,0.074,-0.194,2.0
18.953,0.058,-0.271,0.0
37.299,0.101,0.496,0.0
0.0,0.0,0.0,0.0
28.585,0.057,0.069,1.0
25.198,0.042,-0.078,0.0
21.968,0.028,-0.187,0.0
19.342,0.018,-0.27,0.0
0.0,0.0,0.0,0.0
33.168,0.008,0.274,0.0
28.568,-0.002,0.08,1.0
25.399,-0.011,-0.068,0.0
22.14,-0.017,-0.18,0.0
19.517,-0.022,-0.264,0.0
38.366,-0.057,0.541,0.0
33.162,-0.061,0.287,0.0
28.757,-0.062,0.093,6.0
25.603,-0.065,-0.058,0.0
22.871,-0.066,-0.176,0.0
19.613,-0.063,-0.257,0.0
39.196,-0.141,0.57,0.0
33.025,-0.13,0.301,1.0
28.773,-0.123,0.106,7.0
25.722,-0.119,-0.046,0.0
22.984,-0.114,-0.166,0.0
19.955,-0.106,-0.252,0.0
0.0,0.0,0.0,0.0
33.027,-0.198,0.317,0.0
28.778,-0.183,0.12,6.0
26.017,-0.174,-0.034,0.0
23.182,-0.163,-0.155,0.0
20.222,-0.15,-0.245,0.0
0.0,0.0,0.0,0.0
33.301,-0.269,0.337,0.0
28.802,-0.243,0.136,3.0
26.317,-0.231,-0.02,0.0
23.774,-0.217,-0.147,0.0
20.416,-0.193,-0.236,0.0
0.0,0.0,0.0,0.0
33.816,-0.343,0.361,0.0
29.668,-0.312,0.157,0.0
26.745,-0.29,-0.005,0.0
23.962,-0.268,-0.134,0.0
20.863,-0.241,-0.229,0.0
0.0,0.0,0.0,0.0
34.291,-0.419,0.387,0.0
30.538,-0.383,0.179,0.0
27.206,-0.351,0.01,0.0
24.059,-0.318,-0.12,0.0
21.349,-0.29,-0.221,0.0
43.491,-0.605,0.752,0.0
34.92,-0.498,0.416,0.0
31.343,-0.458,0.204,0.0
27.543,-0.412,0.028,0.0
24.18,-0.37,-0.104,0.0
21.819,-0.342,-0.212,0.0
0.0,0.0,0.0,0.0
0.0,0.0,0.0,0.0
31.617,-0.526,0.227,0.0
28.009,-0.476,0.048,0.0
24.759,-0.429,-0.09,0.0
22.152,-0.392,-0.2,0.0
0.0,0.0,0.0,0.0
38.064,-0.697,0.505,0.0
32.817,-0.612,0.259,0.0
28.603,-0.543,0.069,4.0
25.035,-0.484,-0.073,0.0
22.456,-0.442,-0.186,0.0
0.0,0.0,0.0,0.0
37.996,-0.772,0.532,0.0
33.051,-0.683,0.286,1.0
28.695,-0.602,0.091,7.0
25.867,-0.552,-0.056,0.0
22.997,-0.499,-0.173,0.0
0.0,0.0,0.0,0.0
0.0,0.0,0.0,0.0
33.493,-0.758,0.315,1.0
28.715,-0.66,0.114,8.0
26.137,-0.609,-0.036,0.0
23.384,-0.553,-0.157,0.0
0.0,0.0,0.0,0.0
0.0,0.0,0.0,0.0
33.375,-0.821,0.341,0.0
28.746,-0.717,0.137,3.0
26.574,-0.672,-0.015,0.0
23.476,-0.601,-0.139,0.0
0.0,0.0,0.0,0.0
0.0,0.0,0.0,0.0
34.406,-0.913,0.381,0.0
28.669,-0.77,0.161,0.0
27.188,-0.74,0.007,0.0
23.82,-0.656,-0.12,0.0
0.0,0.0,0.0,0.0
0.0,0.0,0.0,0.0
0.0,0.0,0.0,0.0
0.0,0.0,0.0,0.0
27.73,-0.808,0.032,0.0
0.0,0.0,0.0,0.0
0.0,0.0,0.0,0.0
0.0,0.0,0.0,0.0
37.122,-1.127,0.477,0.0
31.507,-0.968,0.233,0.0
28.294,-0.878,0.059,1.0
25.398,-0.797,-0.082,0.0
0.0,0.0,0.0,0.0
0.0,0.0,0.0,0.0
37.705,-1.216,0.52,0.0
32.308,-1.052,0.27,0.0
28.608,-0.942,0.086,1.0
25.998,-0.864,-0.059,0.0
0.0,0.0,0.0,0.0
0.0,0.0,0.0,0.0
38.672,-1.32,0.571,0.0
0.0,0.0,0.0,0.0
28.653,-0.996,0.115,0.0
26.17,-0.918,-0.034,0.0
0.0,0.0,0.0,0.0
51.324,-1.829,1.082,0.0
0.0,0.0,0.0,0.0
34.064,-1.236,0.352,0.0
28.701,-1.05,0.144,2.0
27.01,-0.997,-0.008,0.0
0.0,0.0,0.0,0.0
0.0,0.0,0.0,0.0
0.0,0.0,0.0,0.0
35.823,-1.364,0.407,0.0
30.973,-1.188,0.187,0.0
27.571,-1.067,0.02,0.0
0.0,0.0,0.0,0.0
0.0,0.0,0.0,0.0
0.0,0.0,0.0,0.0
36.618,-1.459,0.454,0.0
31.366,-1.26,0.223,0.0
28.476,-1.152,0.051,3.0
0.0,0.0,0.0,0.0
0.0,0.0,0.0,0.0
0.0,0.0,0.0,0.0
0.0,0.0,0.0,0.0
32.489,-1.361,0.266,0.0
28.588,-1.207,0.083,8.0
0.0,0.0,0.0,0.0
0.0,0.0,0.0,0.0
0.0,0.0,0.0,0.0
39.14,-1.696,0.572,0.0
33.464,-1.46,0.312,0.0
28.638,-1.258,0.115,3.0
0.0,0.0,0.0,0.0
0.0,0.0,0.0,0.0
0.0,0.0,0.0,0.0
0.0,0.0,0.0,0.0
34.695,-1.571,0.363,0.0
30.409,-1.387,0.157,0.0
94.324,-4.32,3.105,1.0
0.0,0.0,0.0,0.0
0.0,0.0,0.0,0.0
0.0,0.0,0.0,0.0
35.891,-1.686,0.417,0.0
30.852,-1.458,0.196,0.0
95.71,-4.541,3.264,1.0
0.0,0.0,0.0,0.0
0.0,0.0,0.0,0.0
0.0,0.0,0.0,0.0
0.0,0.0,0.0,0.0
31.653,-1.547,0.239,0.0
109.437,-5.372,3.865,3.0
0.0,0.0,0.0,0.0
0.0,0.0,0.0,0.0
0.0,0.0,0.0,0.0
38.347,-1.924,0.539,0.0
33.383,-1.685,0.293,0.0
109.402,-5.542,3.997,152.0
0.0,0.0,0.0,0.0
0.0,0.0,0.0,0.0
0.0,0.0,0.0,0.0
34.69,-1.795,0.53,0.0
34.041,-1.771,0.341,0.0
109.328,-5.708,4.13,36.0
34.344,-1.802,1.115,0.0
34.23,-1.805,0.931,1.0
34.244,-1.815,0.747,1.0
34.496,-1.838,0.57,1.0
34.764,-1.861,0.392,0.0
0.0,0.0,0.0,0.0
34.157,-1.844,1.153,2.0
34.177,-1.854,0.974,30.0
34.129,-1.86,0.789,1.0
34.161,-1.871,0.609,0.0
34.652,-1.907,0.436,0.0
0.0,0.0,0.0,0.0
34.108,-1.892,1.196,2.0
34.185,-1.905,1.018,162.0
34.049,-1.906,0.831,2.0
34.079,-1.917,0.652,0.0
34.666,-1.959,0.481,1.0
0.0,0.0,0.0,0.0
34.146,-1.944,1.242,1.0
34.131,-1.951,1.061,157.0
34.039,-1.954,0.876,4.0
0.0,0.0,0.0,0.0
34.556,-2.001,0.525,2.0
0.0,0.0,0.0,0.0
34.078,-1.988,1.285,3.0
34.047,-1.994,1.105,22.0
34.0,-2.0,0.921,5.0
33.85,-1.999,0.739,0.0
34.238,-2.031,0.567,3.0
34.794,-2.07,1.543,0.0
34.039,-2.033,1.33,3.0
33.978,-2.037,1.149,4.0
33.992,-2.046,0.967,9.0
33.974,-2.053,0.788,0.0
34.031,-2.064,0.61,1.0
34.794,-2.116,1.591,0.0
34.125,-2.083,1.38,0.0
33.98,-2.082,1.195,4.0
33.957,-2.089,1.013,99.0
33.933,-2.095,0.833,5.0
33.946,-2.103,0.655,0.0
34.869,-2.167,1.642,0.0
34.308,-2.139,1.435,0.0
33.99,-2.127,1.243,4.0
33.952,-2.132,1.059,150.0
33.932,-2.138,0.881,12.0
34.014,-2.151,0.704,0.0
34.822,-2.208,1.689,0.0
34.368,-2.186,1.486,0.0
33.949,-2.167,1.289,9.0
33.906,-2.171,1.106,24.0
33.928,-2.18,0.928,22.0
33.967,-2.19,0.751,0.0
0.0,0.0,0.0,0.0
34.554,-2.24,1.543,0.0
33.931,-2.207,1.336,10.0
33.899,-2.212,1.153,11.0
33.911,-2.22,0.976,38.0
33.889,-2.225,0.797,2.0
157.087,-10.342,8.068,13.0
34.781,-2.297,1.603,0.0
33.999,-2.252,1.388,1.0
33.929,-2.254,1.204,5.0
33.893,-2.258,1.024,41.0
33.885,-2.265,0.846,12.0
156.938,-10.514,8.287,33.0
34.66,-2.328,1.648,0.0
34.203,-2.304,1.445,0.0
33.912,-2.291,1.252,7.0
33.868,-2.294,1.072,48.0
33.885,-2.302,0.895,30.0
189.132,-12.885,10.265,20.0
0.0,0.0,0.0,0.0
34.467,-2.36,1.508,0.0
33.88,-2.326,1.3,32.0
33.861,-2.331,1.122,40.0
33.876,-2.338,0.944,53.0
189.289,-13.099,10.549,18.0
0.0,0.0,0.0,0.0
0.0,0.0,0.0,0.0
33.876,-2.361,1.349,13.0
33.86,-2.366,1.171,8.0
33.879,-2.373,0.994,67.0
189.468,-13.305,10.837,14.0
0.0,0.0,0.0,0.0
34.561,-2.438,1.613,0.0
34.072,-2.409,1.408,0.0
33.894,-2.402,1.222,6.0
33.857,-2.406,1.044,67.0
0.0,0.0,0.0,0.0
0.0,0.0,0.0,0.0
34.853,-2.493,1.678,0.0
0.0,0.0,0.0,0.0
33.866,-2.433,1.272,38.0
33.855,-2.438,1.094,73.0
189.516,-13.681,11.407,8.0
189.769,-13.727,10.422,15.0
35.001,-2.536,1.738,0.0
0.0,0.0,0.0,0.0
33.856,-2.464,1.322,42.0
33.832,-2.467,1.144,25.0
154.582,-11.3,9.537,11.0
189.828,-13.903,10.711,17.0
0.0,0.0,0.0,0.0
0.0,0.0,0.0,0.0
33.884,-2.496,1.374,3.0
33.873,-2.5,1.196,7.0
154.622,-11.438,9.773,4.0
190.303,-14.103,11.025,9.0
193.248,-14.347,10.18,6.0
34.655,-2.577,1.64,0.0
34.158,-2.545,1.437,0.0
33.843,-2.526,1.246,34.0
156.062,-11.674,10.1,6.0
0.0,0.0,0.0,0.0
193.252,-14.504,10.472,9.0
34.839,-2.618,1.701,0.0
0.0,0.0,0.0,0.0
33.848,-2.552,1.297,69.0
156.064,-11.797,10.336,8.0
0.0,0.0,0.0,0.0
190.362,-14.432,10.603,6.0
35.02,-2.659,1.763,0.0
0.0,0.0,0.0,0.0
33.833,-2.576,1.347,20.0
155.232,-11.851,10.517,8.0
208.644,-15.95,13.037,18.0
190.621,-14.593,10.906,5.0
193.908,-14.863,10.054,5.0
34.553,-2.652,1.609,0.0
34.044,-2.617,1.407,0.0
155.317,-11.967,10.759,12.0
208.647,-16.096,13.353,7.0
0.0,0.0,0.0,0.0
193.824,-14.988,10.344,14.0
34.834,-2.697,1.676,0.0
0.0,0.0,0.0,0.0
149.41,-11.612,10.579,5.0
151.381,-11.779,9.921,5.0
209.139,-16.289,12.606,9.0
193.799,-15.112,10.641,15.0
35.129,-2.742,1.744,0.0
0.0,0.0,0.0,0.0
148.745,-11.652,10.759,11.0
150.968,-11.837,10.123,12.0
208.58,-16.371,12.888,21.0
193.902,-15.235,10.941,7.0
200.249,-15.75,10.245,17.0
0.0,0.0,0.0,0.0
152.068,-12.0,11.231,4.0
148.587,-11.736,10.19,11.0
208.472,-16.479,13.198,16.0
195.426,-15.462,11.324,7.0
200.285,-15.861,10.552,7.0
34.768,-2.756,1.648,0.0
145.257,-11.542,10.951,14.0
148.759,-11.828,10.43,5.0
208.587,-16.597,13.525,10.0
209.312,-16.668,12.449,8.0
200.26,-15.961,10.855,18.0
34.958,-2.788,1.711,0.0
146.848,-11.74,11.297,8.0
146.593,-11.727,10.501,4.0
149.239,-11.945,9.904,12.0
208.65,-16.712,12.725,19.0
200.299,-16.055,11.161,10.0
200.307,-16.067,10.109,6.0
146.757,-11.8,11.513,14.0
146.562,-11.79,10.725,5.0
148.829,-11.977,10.104,10.0
208.531,-16.792,13.035,20.0
200.288,-16.138,11.465,7.0
200.269,-16.144,10.409,63.0
145.44,-11.752,11.631,10.0
145.435,-11.757,10.86,7.0
149.972,-12.127,10.407,13.0
208.483,-16.866,13.344,17.0
209.325,-16.942,12.295,8.0
200.233,-16.214,10.708,20.0
145.737,-11.829,11.874,16.0
146.854,-11.923,11.186,13.0
149.974,-12.18,10.631,15.0
149.212,-12.12,9.775,10.0
208.979,-16.981,12.588,10.0
200.167,-16.272,11.001,24.0
146.119,-11.907,12.125,10.0
146.857,-11.969,11.408,20.0
147.457,-12.019,10.673,11.0
147.964,-12.063,9.913,9.0
208.574,-17.008,12.874,21.0
200.177,-16.328,11.298,15.0
146.146,-11.949,12.346,13.0
146.86,-12.008,11.626,15.0
145.315,-11.881,10.735,11.0
147.422,-12.054,10.096,13.0
208.397,-17.043,13.169,13.0
200.098,-16.367,11.589,6.0
145.947,-11.966,12.544,19.0
145.568,-11.934,11.738,11.0
145.448,-11.924,10.956,10.0
147.506,-12.091,10.316,17.0
149.246,-12.234,9.647,10.0
209.292,-17.158,12.423,9.0
145.731,-11.976,12.739,17.0
145.945,-11.99,11.983,16.0
146.704,-12.051,11.266,15.0
147.618,-12.125,10.539,13.0
149.757,-12.298,9.898,5.0
208.695,-17.138,12.691,14.0
145.613,-11.987,12.942,15.0
146.348,-12.044,12.229,11.0
146.635,-12.065,11.474,13.0
145.158,-11.939,10.574,9.0
148.058,-12.175,10.001,12.0
208.489,-17.142,12.98,17.0
145.223,-11.97,13.119,14.0
146.157,-12.041,12.426,12.0
145.12,-11.951,11.565,11.0
145.319,-11.964,10.795,17.0
147.649,-12.152,10.185,14.0
149.302,-12.284,9.508,9.0
145.134,-11.971,13.318,13.0
145.8,-12.02,12.602,15.0
145.582,-11.995,11.809,15.0
146.038,-12.027,11.056,13.0
147.536,-12.145,10.386,16.0
149.341,-12.289,9.722,13.0
83.141,0.196,5.372,30.0
83.213,0.199,4.888,21.0
83.209,0.202,4.4,25.0
83.236,0.205,3.907,40.0
83.246,0.207,3.421,40.0
83.227,0.21,2.935,17.0
83.191,0.224,5.21,28.0
83.237,0.226,4.725,26.0
83.23,0.229,4.237,28.0
83.244,0.231,3.742,46.0
83.252,0.233,3.255,39.0
83.226,0.236,2.768,18.0
83.195,0.248,5.043,35.0
83.218,0.25,4.556,28.0
83.243,0.253,4.07,40.0
83.249,0.255,3.574,49.0
83.255,0.257,3.087,38.0
83.096,0.258,2.597,12.0
83.191,0.27,4.874,31.0
83.217,0.272,4.388,31.0
83.246,0.273,3.902,41.0
83.274,0.275,3.407,43.0
83.275,0.276,2.92,14.0
78.082,0.261,2.282,1.0
83.219,0.289,4.707,28.0
83.238,0.29,4.219,29.0
83.248,0.291,3.731,38.0
83.284,0.293,3.236,47.0
78.088,0.276,2.577,13.0
75.586,0.268,2.053,2.0
83.23,0.305,4.535,27.0
83.235,0.306,4.048,45.0
83.293,0.307,3.561,49.0
83.302,0.307,3.067,30.0
83.001,0.307,2.569,5.0
75.46,0.279,1.895,0.0
83.236,0.318,4.363,29.0
83.237,0.318,3.876,40.0
83.296,0.319,3.389,45.0
83.284,0.319,2.893,14.0
76.725,0.294,2.216,1.0
0.0,0.0,0.0,0.0
83.24,0.327,4.19,32.0
83.282,0.328,3.705,40.0
83.3,0.327,3.217,42.0
78.074,0.306,2.55,26.0
75.402,0.296,2.022,3.0
0.0,0.0,0.0,0.0
83.265,0.334,4.018,36.0
83.304,0.334,3.532,41.0
83.348,0.333,3.045,21.0
77.591,0.31,2.372,6.0
0.0,0.0,0.0,0.0
0.0,0.0,0.0,0.0
83.282,0.338,3.843,33.0
83.316,0.337,3.356,38.0
83.271,0.336,2.868,12.0
75.728,0.304,2.157,3.0
0.0,0.0,0.0,0.0
0.0,0.0,0.0,0.0
83.295,0.338,3.67,36.0
83.323,0.337,3.182,36.0
78.079,0.314,2.523,23.0
75.254,0.301,1.985,2.0
0.0,0.0,0.0,0.0
39.65,0.157,0.581,0.0
83.305,0.335,3.493,38.0
83.322,0.334,3.006,12.0
76.881,0.306,2.323,3.0
0.0,0.0,0.0,0.0
0.0,0.0,0.0,0.0
0.0,0.0,0.0,0.0
83.309,0.33,3.319,41.0
83.281,0.327,2.829,11.0
75.59,0.295,2.125,3.0
0.0,0.0,0.0,0.0
41.757,0.16,0.681,0.0
34.464,0.131,0.361,0.0
83.305,0.321,3.143,39.0
78.079,0.298,2.487,11.0
75.445,0.285,1.962,2.0
0.0,0.0,0.0,0.0
37.82,0.14,0.537,0.0
0.0,0.0,0.0,0.0
83.28,0.308,2.964,14.0
82.755,0.303,2.461,2.0
0.0,0.0,0.0,0.0
0.0,0.0,0.0,0.0
35.998,0.127,0.435,0.0
30.354,0.106,0.189,0.0
78.053,0.274,2.614,11.0
75.722,0.263,2.092,3.0
0.0,0.0,0.0,0.0
41.579,0.14,0.658,0.0
0.0,0.0,0.0,0.0
28.799,0.095,0.119,1.0
83.066,0.274,2.605,9.0
75.81,0.246,1.933,0.0
0.0,0.0,0.0,0.0
37.592,0.118,0.514,0.0
32.258,0.1,0.252,0.0
28.191,0.085,0.055,1.0
76.687,0.232,2.24,1.0
0.0,0.0,0.0,0.0
0.0,0.0,0.0,0.0
35.731,0.102,0.413,0.0
30.189,0.085,0.172,0.0
26.716,0.073,-0.003,0.0
76.078,0.208,2.061,4.0
0.0,0.0,0.0,0.0
0.0,0.0,0.0,0.0
0.0,0.0,0.0,0.0
28.743,0.071,0.102,3.0
25.44,0.061,-0.058,0.0
76.019,0.182,1.897,0.0
0.0,0.0,0.0,0.0
37.278,0.084,0.494,0.0
31.548,0.069,0.23,0.0
27.59,0.059,0.04,0.0
24.238,0.05,-0.106,0.0
0.0,0.0,0.0,0.0
41.918,0.082,0.713,0.0
0.0,0.0,0.0,0.0
28.963,0.052,0.151,0.0
26.436,0.046,-0.016,0.0
23.328,0.039,-0.151,1.0
0.0,0.0,0.0,0.0
39.038,0.06,0.582,0.0
0.0,0.0,0.0,0.0
28.681,0.039,0.089,2.0
25.307,0.033,-0.068,0.0
21.87,0.027,-0.187,1.0
0.0,0.0,0.0,0.0
0.0,0.0,0.0,0.0
30.833,0.031,0.214,0.0
27.322,0.025,0.027,0.0
23.952,0.02,-0.115,1.0
21.017,0.016,-0.224,2.0
0.0,0.0,0.0,0.0
33.289,0.02,0.356,0.0
28.798,0.014,0.139,0.0
26.072,0.011,-0.028,0.0
23.183,0.007,-0.16,0.0
19.758,0.004,-0.252,0.0
0.0,0.0,0.0,0.0
33.183,0.002,0.285,0.0
28.377,0.0,0.078,1.0
25.021,-0.002,-0.079,0.0
21.558,-0.004,-0.194,1.0
18.565,-0.005,-0.275,0.0
0.0,0.0,0.0,0.0
30.366,-0.014,0.198,0.0
27.075,-0.015,0.019,0.0
23.759,-0.016,-0.124,1.0
20.894,-0.016,-0.231,1.0
17.975,-0.015,-0.304,0.0
33.272,-0.032,0.343,0.0
28.789,-0.031,0.129,1.0
25.93,-0.03,-0.035,0.0
22.742,-0.029,-0.165,0.0
19.594,-0.027,-0.257,0.0
17.216,-0.025,-0.326,0.0
31.531,-0.05,0.261,0.0
28.497,-0.048,0.069,1.0
24.919,-0.045,-0.084,0.0
21.37,-0.041,-0.2,1.0
18.42,-0.037,-0.279,0.0
16.684,-0.035,-0.351,0.0
28.93,-0.065,0.18,0.0
26.764,-0.063,0.01,0.0
23.757,-0.059,-0.129,0.0
20.356,-0.053,-0.232,0.0
17.743,-0.048,-0.305,0.0
16.191,-0.046,-0.374,0.0
28.791,-0.085,0.12,6.0
25.783,-0.079,-0.042,0.0
22.524,-0.072,-0.168,0.0
19.322,-0.064,-0.259,0.0
17.158,-0.059,-0.33,0.0
15.721,-0.056,-0.394,0.0
27.971,-0.103,0.061,1.0
24.533,-0.093,-0.089,0.0
21.39,-0.084,-0.203,0.0
18.335,-0.074,-0.283,0.0
16.629,-0.069,-0.353,0.0
15.258,-0.066,-0.414,0.0
26.542,-0.119,0.004,0.0
23.584,-0.108,-0.133,0.0
20.299,-0.096,-0.233,0.0
17.636,-0.085,-0.307,0.0
16.139,-0.08,-0.375,0.0
14.754,-0.075,-0.429,0.0
9.405,0.667,-0.661,0.0
0.0,0.0,0.0,0.0
0.0,0.0,0.0,0.0
0.0,0.0,0.0,0.0
0.0,0.0,0.0,0.0
0.0,0.0,0.0,0.0
9.287,0.658,-0.666,0.0
0.0,0.0,0.0,0.0
0.0,0.0,0.0,0.0
0.0,0.0,0.0,0.0
0.0,0.0,0.0,0.0
7.441,0.528,-0.75,0.0
9.196,0.65,-0.673,0.0
0.0,0.0,0.0,0.0
0.0,0.0,0.0,0.0
0.0,0.0,0.0,0.0
0.0,0.0,0.0,0.0
7.36,0.521,-0.753,0.0
9.069,0.64,-0.676,0.0
0.0,0.0,0.0,0.0
0.0,0.0,0.0,0.0
0.0,0.0,0.0,0.0
0.0,0.0,0.0,0.0
7.29,0.515,-0.756,0.0
9.006,0.634,-0.684,0.0
0.0,0.0,0.0,0.0
0.0,0.0,0.0,0.0
0.0,0.0,0.0,0.0
0.0,0.0,0.0,0.0
7.191,0.506,-0.755,0.0
8.889,0.624,-0.687,0.0
0.0,0.0,0.0,0.0
0.0,0.0,0.0,0.0
0.0,0.0,0.0,0.0
7.448,0.523,-0.749,0.0
7.151,0.502,-0.761,0.0
0.0,0.0,0.0,0.0
0.0,0.0,0.0,0.0
0.0,0.0,0.0,0.0
0.0,0.0,0.0,0.0
7.389,0.516,-0.753,0.0
7.039,0.492,-0.758,0.0
0.0,0.0,0.0,0.0
0.0,0.0,0.0,0.0
0.0,0.0,0.0,0.0
0.0,0.0,0.0,0.0
7.314,0.509,-0.755,0.0
7.023,0.488,-0.766,0.0
0.0,0.0,0.0,0.0
0.0,0.0,0.0,0.0
