X,Y,Z,Reflectivity
143.855,-14.049,10.566,11.0
177.349,-17.293,12.066,10.0
143.279,-13.997,13.791,15.0
144.722,-14.111,13.14,8.0
144.74,-14.088,12.353,14.0
142.619,-13.856,11.382,11.0
143.821,-13.949,10.697,8.0
177.578,-17.195,12.243,15.0
143.353,-13.906,13.929,11.0
144.617,-14.001,13.263,3.0
145.151,-14.026,12.521,4.0
145.265,-14.012,11.723,7.0
142.825,-13.751,10.75,3.0
143.532,-13.794,10.023,10.0
143.557,-13.822,14.078,12.0
144.301,-13.866,13.361,11.0
147.591,-14.155,12.858,6.0
145.19,-13.898,11.843,11.0
148.121,-14.152,11.274,7.0
143.522,-13.686,10.145,10.0
143.912,-13.748,14.236,10.0
144.361,-13.762,13.489,10.0
146.465,-13.935,12.884,5.0
145.357,-13.8,11.979,8.0
143.844,-13.63,11.07,8.0
153.851,-14.549,11.002,3.0
145.262,-13.763,14.489,14.0
144.47,-13.657,13.619,5.0
147.272,-13.892,13.076,4.0
145.923,-13.735,12.143,5.0
143.889,-13.517,11.187,9.0
0.0,0.0,0.0,0.0
145.182,-13.635,14.597,21.0
145.814,-13.663,13.86,5.0
146.876,-13.732,13.155,3.0
0.0,0.0,0.0,0.0
145.479,-13.543,11.422,10.0
146.165,-13.578,10.677,3.0
145.694,-13.558,14.759,12.0
145.877,-13.545,13.974,9.0
145.508,-13.479,13.14,5.0
146.446,-13.535,12.406,5.0
145.417,-13.41,11.523,3.0
146.262,-13.458,10.79,8.0
145.955,-13.453,14.892,17.0
145.768,-13.403,14.07,14.0
145.052,-13.307,13.201,17.0
146.66,-13.423,12.527,9.0
144.794,-13.222,11.573,14.0
146.323,-13.331,10.894,7.0
145.443,-13.274,14.939,14.0
146.386,-13.326,14.228,6.0
145.12,-13.178,13.306,9.0
146.986,-13.315,12.653,5.0
144.789,-13.086,11.668,14.0
0.0,0.0,0.0,0.0
145.863,-13.173,15.078,15.0
146.476,-13.196,14.331,14.0
147.498,-13.254,13.617,3.0
151.713,-13.597,13.156,3.0
144.605,-12.929,11.744,16.0
144.983,-12.932,10.977,13.0
145.597,-13.008,15.14,15.0
146.215,-13.028,14.395,13.0
146.633,-13.032,13.625,8.0
145.969,-12.938,12.744,6.0
144.481,-12.774,11.819,20.0
144.749,-12.765,11.045,10.0
145.332,-12.837,15.197,18.0
146.012,-12.861,14.46,13.0
146.514,-12.87,13.699,7.0
145.771,-12.771,12.809,13.0
144.657,-12.641,11.913,6.0
146.203,-12.743,11.235,3.0
146.515,-12.79,15.401,6.0
147.739,-12.861,14.71,3.0
145.315,-12.614,13.663,3.0
145.822,-12.623,12.889,11.0
145.572,-12.567,12.063,11.0
145.595,-12.535,11.262,2.0
146.461,-12.627,15.47,15.0
145.342,-12.493,14.545,16.0
144.917,-12.422,13.698,14.0
145.158,-12.407,12.901,10.0
145.805,-12.428,12.153,9.0
145.771,-12.391,11.345,2.0
0.0,0.0,0.0,0.0
145.251,-12.326,14.603,18.0
144.953,-12.264,13.767,6.0
145.211,-12.249,12.973,11.0
146.325,-12.309,12.261,15.0
146.016,-12.248,11.427,14.0
147.677,-12.403,15.734,8.0
145.696,-12.199,14.71,11.0
144.767,-12.084,13.811,12.0
145.334,-12.095,13.043,13.0
146.141,-12.126,12.305,9.0
146.583,-12.127,11.53,16.0
147.212,-12.196,15.741,12.0
146.622,-12.108,14.859,16.0
144.549,-11.899,13.845,3.0
145.154,-11.911,13.08,16.0
146.144,-11.957,12.357,9.0
146.708,-11.967,11.591,14.0
146.808,-11.99,15.75,10.0
148.063,-12.053,15.057,4.0
145.806,-11.831,14.014,12.0
145.293,-11.753,13.139,12.0
146.122,-11.782,12.402,10.0
145.391,-11.687,11.533,4.0
149.047,-11.993,16.037,6.0
148.284,-11.892,15.124,5.0
145.666,-11.644,14.044,16.0
145.611,-11.601,13.211,12.0
145.858,-11.585,12.42,13.0
145.544,-11.523,11.585,7.0
0.0,0.0,0.0,0.0
145.913,-11.525,14.921,5.0
145.667,-11.466,14.08,16.0
148.482,-11.649,13.508,3.0
145.612,-11.386,12.434,18.0
88.49,-6.896,7.064,24.0
151.077,-11.785,16.33,5.0
145.666,-11.324,14.928,11.0
146.05,-11.314,14.149,7.0
147.618,-11.398,13.459,9.0
145.615,-11.205,12.462,19.0
88.501,-6.788,7.081,5.0
148.916,-11.43,16.124,9.0
0.0,0.0,0.0,0.0
148.983,-11.353,14.459,3.0
119.004,-9.037,10.87,9.0
119.203,-9.022,10.221,5.0
88.246,-6.656,7.073,2.0
148.643,-11.219,16.117,11.0
148.97,-11.202,15.313,13.0
147.273,-11.035,14.311,10.0
119.12,-8.893,10.894,4.0
119.255,-8.872,10.239,13.0
88.321,-6.547,7.089,8.0
148.433,-11.01,16.108,13.0
146.06,-10.793,15.027,7.0
91.119,-6.708,8.861,9.0
119.615,-8.774,10.949,13.0
119.178,-8.71,10.24,9.0
88.391,-6.437,7.1,13.0
148.652,-10.831,16.14,13.0
0.0,0.0,0.0,0.0
91.283,-6.602,8.881,7.0
119.039,-8.576,10.9,8.0
118.999,-8.542,10.228,17.0
88.379,-6.321,7.1,15.0
148.757,-10.642,16.153,14.0
146.388,-10.431,15.069,15.0
91.406,-6.489,8.893,12.0
117.068,-8.278,10.718,14.0
118.87,-8.374,10.215,18.0
88.478,-6.211,7.106,17.0
149.022,-10.462,16.177,5.0
146.452,-10.241,15.069,6.0
91.439,-6.368,8.892,6.0
117.186,-8.13,10.723,11.0
117.793,-8.142,10.115,13.0
88.515,-6.094,7.103,6.0
150.68,-10.374,16.347,14.0
93.208,-6.392,9.583,14.0
91.586,-6.256,8.898,21.0
91.666,-6.236,8.379,6.0
117.004,-7.929,10.035,7.0
88.571,-5.978,7.098,8.0
113.481,-7.66,12.297,7.0
93.288,-6.27,9.579,16.0
93.601,-6.266,9.082,13.0
91.603,-6.107,8.36,8.0
88.481,-5.876,7.576,5.0
88.735,-5.869,7.097,7.0
91.243,-6.033,9.872,25.0
93.48,-6.154,9.584,15.0
91.411,-5.992,8.853,16.0
94.964,-6.2,8.649,7.0
88.617,-5.761,7.57,13.0
88.817,-5.75,7.086,22.0
91.242,-5.905,9.853,27.0
87.159,-5.617,8.916,9.0
91.263,-5.856,8.818,27.0
88.291,-5.641,8.021,13.0
88.62,-5.639,7.549,20.0
113.657,-7.203,9.041,10.0
93.857,-5.944,10.112,14.0
87.169,-5.496,8.895,14.0
91.26,-5.729,8.794,30.0
88.642,-5.541,8.029,29.0
90.279,-5.619,7.666,14.0
88.791,-5.503,7.037,14.0
87.114,-5.395,9.36,23.0
87.383,-5.387,8.89,24.0
91.286,-5.604,8.767,12.0
88.779,-5.426,8.014,24.0
90.322,-5.497,7.64,13.0
88.58,-5.367,6.991,20.0
87.215,-5.279,9.341,20.0
87.494,-5.272,8.871,21.0
87.507,-5.249,8.374,23.0
88.824,-5.303,7.985,28.0
93.178,-5.538,7.848,14.0
88.61,-5.244,6.96,21.0
87.6,-5.178,9.348,15.0
87.512,-5.149,8.839,16.0
87.828,-5.143,8.37,21.0
89.149,-5.196,7.978,21.0
93.157,-5.405,7.807,21.0
88.952,-5.138,6.95,22.0
87.681,-5.057,9.319,18.0
87.617,-5.029,8.811,17.0
88.06,-5.032,8.352,16.0
93.32,-5.307,8.309,11.0
92.958,-5.261,7.748,10.0
89.138,-5.021,6.923,26.0
87.138,-4.902,9.219,15.0
87.59,-4.903,8.766,25.0
86.85,-4.839,8.195,15.0
92.997,-5.157,8.234,17.0
88.991,-4.91,7.373,20.0
89.325,-4.905,6.892,20.0
82.499,-4.523,8.686,12.0
88.186,-4.811,8.78,23.0
86.987,-4.722,8.162,22.0
89.244,-4.821,7.854,24.0
88.56,-4.76,7.288,25.0
0.0,0.0,0.0,0.0
82.512,-4.406,8.641,28.0
88.405,-4.697,8.75,11.0
87.051,-4.602,8.118,11.0
88.909,-4.677,7.773,15.0
88.606,-4.637,7.24,24.0
87.871,-4.576,6.679,17.0
83.156,-4.321,8.658,12.0
83.227,-4.302,8.187,9.0
85.298,-4.388,7.901,14.0
87.12,-4.459,7.562,20.0
89.3,-4.547,7.241,16.0
88.117,-4.464,6.642,25.0
81.965,-4.143,8.48,21.0
84.913,-4.269,8.297,21.0
87.404,-4.372,8.038,12.0
87.166,-4.338,7.508,14.0
0.0,0.0,0.0,0.0
88.123,-4.341,6.582,5.0
82.024,-4.029,8.429,20.0
85.306,-4.167,8.275,20.0
88.72,-4.312,8.096,11.0
87.274,-4.219,7.454,14.0
88.039,-4.233,7.015,19.0
89.498,-4.28,6.62,20.0
82.613,-3.939,8.428,28.0
79.491,-3.77,7.651,12.0
0.0,0.0,0.0,0.0
87.199,-4.091,7.382,17.0
88.227,-4.118,6.963,24.0
89.375,-4.149,6.542,23.0
82.542,-3.819,8.356,15.0
85.207,-3.921,8.134,11.0
87.253,-3.993,7.827,27.0
90.425,-4.115,7.583,15.0
88.103,-3.988,6.883,27.0
89.313,-4.021,6.465,11.0
79.666,-3.574,7.999,10.0
78.874,-3.519,7.464,20.0
87.221,-3.869,7.751,30.0
91.197,-4.023,7.57,11.0
0.0,0.0,0.0,0.0
87.597,-3.821,6.266,16.0
79.514,-3.455,7.914,17.0
78.917,-3.409,7.398,9.0
87.151,-3.743,7.669,16.0
88.565,-3.782,7.274,17.0
88.82,-3.771,6.785,23.0
88.461,-3.736,6.249,19.0
79.364,-3.338,7.827,27.0
84.735,-3.542,7.866,5.0
84.189,-3.498,7.329,10.0
88.088,-3.638,7.153,24.0
87.698,-3.602,6.616,28.0
88.261,-3.604,6.152,25.0
79.108,-3.216,7.726,27.0
82.366,-3.329,7.568,11.0
87.393,-3.51,7.524,11.0
87.801,-3.505,7.044,22.0
87.645,-3.479,6.527,19.0
89.821,-3.544,6.172,10.0
78.898,-3.098,7.626,18.0
79.194,-3.091,7.197,18.0
79.571,-3.086,6.771,23.0
85.52,-3.297,6.774,10.0
88.277,-3.383,6.483,14.0
97.279,-3.704,6.585,7.0
79.158,-3.0,7.569,16.0
79.863,-3.008,7.174,12.0
79.642,-2.98,6.693,9.0
85.432,-3.177,6.678,13.0
87.951,-3.251,6.368,21.0
94.238,-3.462,6.28,13.0
79.136,-2.892,7.482,24.0
79.824,-2.898,7.085,29.0
79.602,-2.872,6.604,14.0
85.393,-3.061,6.582,14.0
87.873,-3.13,6.265,13.0
94.954,-3.36,6.222,12.0
82.197,-2.892,7.679,8.0
79.55,-2.781,6.97,17.0
79.736,-2.769,6.524,23.0
87.964,-3.035,6.68,11.0
96.063,-3.293,6.74,13.0
95.046,-3.237,6.12,19.0
67.31,-2.278,6.21,17.0
79.801,-2.683,6.899,26.0
85.561,-2.858,6.901,14.0
95.985,-3.185,7.176,15.0
87.594,-2.887,6.043,21.0
97.936,-3.207,6.191,9.0
79.876,-2.598,7.273,15.0
80.094,-2.587,6.828,22.0
80.876,-2.594,6.425,11.0
87.605,-2.791,6.443,6.0
96.073,-3.041,6.51,13.0
97.112,-3.053,6.021,13.0
67.392,-2.104,6.053,9.0
91.194,-2.827,7.662,8.0
80.601,-2.482,6.304,25.0
95.865,-2.932,6.932,9.0
88.21,-2.679,5.868,14.0
99.252,-2.994,6.029,14.0
80.737,-2.418,7.15,13.0
80.453,-2.392,6.657,18.0
97.479,-2.877,7.499,18.0
88.224,-2.586,6.266,14.0
88.034,-2.562,5.742,14.0
97.378,-2.813,5.789,8.0
67.032,-1.921,5.847,6.0
80.514,-2.29,6.554,29.0
86.385,-2.44,6.53,13.0
88.264,-2.474,6.151,17.0
88.035,-2.45,5.625,13.0
88.1,-2.434,5.119,9.0
76.581,-2.098,6.575,13.0
81.054,-2.204,6.488,10.0
76.233,-2.058,5.659,29.0
97.293,-2.607,6.647,23.0
98.801,-2.628,6.178,10.0
87.878,-2.319,4.986,20.0
76.616,-2.004,6.472,26.0
76.306,-1.981,6.001,8.0
87.226,-2.247,6.353,11.0
96.726,-2.473,6.473,16.0
98.971,-2.511,6.051,10.0
96.721,-2.435,5.352,26.0
80.879,-2.017,6.717,10.0
76.396,-1.891,5.9,30.0
87.04,-2.137,6.215,27.0
96.044,-2.34,6.29,15.0
96.945,-2.343,5.786,20.0
96.774,-2.321,5.216,36.0
76.514,-1.818,6.244,12.0
76.394,-1.8,5.788,34.0
96.865,-2.264,6.776,11.0
96.54,-2.238,6.181,8.0
96.756,-2.225,5.632,37.0
96.828,-2.209,5.075,23.0
76.459,-1.726,6.124,26.0
76.431,-1.711,5.676,8.0
86.484,-1.921,5.92,27.0
96.679,-2.13,6.046,17.0
99.172,-2.166,5.625,14.0
128.455,-2.784,6.541,13.0
76.557,-1.64,6.016,27.0
75.645,-1.607,5.502,36.0
86.612,-1.825,5.795,11.0
98.765,-2.062,6.024,19.0
99.257,-2.056,5.477,20.0
190.321,-3.908,9.396,20.0
76.306,-1.549,5.877,18.0
75.781,-1.524,5.394,25.0
76.016,-1.515,4.967,17.0
98.814,-1.953,5.87,24.0
190.035,-3.722,10.183,19.0
190.365,-3.697,9.097,19.0
76.162,-1.461,5.743,24.0
76.212,-1.448,5.301,13.0
105.767,-1.992,6.741,16.0
98.787,-1.843,5.71,29.0
190.306,-3.521,9.893,15.0
190.344,-3.491,8.791,7.0
75.894,-1.373,5.599,18.0
75.974,-1.362,5.161,7.0
105.787,-1.879,6.569,11.0
99.02,-1.743,5.563,19.0
191.274,-3.336,9.631,17.0
126.099,-2.179,5.616,11.0
75.425,-1.285,5.44,18.0
75.84,-1.28,5.026,8.0
98.732,-1.651,5.967,5.0
99.34,-1.644,5.415,17.0
191.347,-3.139,9.316,5.0
193.808,-3.148,8.307,6.0
75.545,-1.209,5.32,27.0
75.752,-1.2,4.891,11.0
98.67,-1.547,5.795,3.0
193.303,-3.003,10.206,11.0
193.875,-2.983,9.109,15.0
0.0,0.0,0.0,0.0
75.333,-1.13,5.175,28.0
90.544,-1.344,5.69,21.0
98.699,-1.451,5.628,8.0
193.539,-2.815,9.886,21.0
193.207,-2.783,8.743,14.0
0.0,0.0,0.0,0.0
75.285,-1.056,5.041,24.0
90.522,-1.256,5.531,18.0
90.63,-1.245,5.008,14.0
90.725,-1.232,4.475,5.0
193.262,-2.598,8.405,18.0
171.455,-2.281,6.458,4.0
106.127,-1.387,6.917,9.0
90.498,-1.17,5.369,22.0
90.585,-1.158,4.844,33.0
90.654,-1.147,4.311,34.0
90.688,-1.135,3.783,33.0
90.657,-1.122,3.253,30.0
90.533,-1.1,5.737,24.0
90.511,-1.088,5.207,30.0
90.594,-1.076,4.682,41.0
90.628,-1.065,4.145,38.0
90.63,-1.053,3.618,55.0
90.603,-1.04,3.088,38.0
90.462,-1.02,5.568,23.0
90.538,-1.008,5.043,33.0
90.593,-0.997,4.517,43.0
90.603,-0.985,3.978,52.0
90.605,-0.974,3.449,52.0
90.499,-0.961,2.918,18.0
90.495,-0.942,5.402,17.0
90.566,-0.931,4.876,28.0
90.643,-0.92,4.351,38.0
90.631,-0.909,3.812,44.0
90.619,-0.898,3.282,49.0
90.099,-0.882,2.739,3.0
90.639,-0.869,5.242,9.0
90.679,-0.858,4.713,8.0
90.629,-0.846,4.181,4.0
90.663,-0.836,3.643,25.0
90.614,-0.825,3.112,31.0
82.75,-0.743,2.359,3.0
179.744,-1.579,10.053,5.0
193.217,-1.675,9.676,23.0
193.818,-1.658,8.574,23.0
90.663,-0.765,3.472,4.0
90.57,-0.754,2.938,15.0
0.0,0.0,0.0,0.0
193.736,-1.554,10.466,22.0
193.635,-1.531,9.325,23.0
193.957,-1.513,8.208,16.0
0.0,0.0,0.0,0.0
82.941,-0.629,2.532,5.0
0.0,0.0,0.0,0.0
193.804,-1.413,10.094,19.0
193.363,-1.389,8.939,21.0
0.0,0.0,0.0,0.0
104.885,-0.731,3.611,5.0
81.444,-0.559,2.328,2.0
0.0,0.0,0.0,0.0
193.798,-1.277,9.714,6.0
194.316,-1.26,8.6,21.0
0.0,0.0,0.0,0.0
90.357,-0.568,2.932,4.0
80.908,-0.5,2.153,0.0
0.0,0.0,0.0,0.0
193.978,-1.148,9.335,8.0
179.048,-1.042,7.567,8.0
0.0,0.0,0.0,0.0
82.86,-0.466,2.524,5.0
0.0,0.0,0.0,0.0
0.0,0.0,0.0,0.0
179.031,-0.945,8.257,30.0
175.819,-0.912,7.077,6.0
104.571,-0.532,3.596,4.0
80.44,-0.402,2.288,1.0
0.0,0.0,0.0,0.0
0.0,0.0,0.0,0.0
179.065,-0.837,7.894,27.0
175.947,-0.808,6.728,10.0
104.307,-0.47,3.377,3.0
79.905,-0.353,2.111,1.0
0.0,0.0,0.0,0.0
38.381,-0.163,0.565,0.0
179.033,-0.736,7.531,14.0
108.868,-0.438,3.94,5.0
82.96,-0.327,2.517,5.0
0.0,0.0,0.0,0.0
0.0,0.0,0.0,0.0
0.0,0.0,0.0,0.0
0.0,0.0,0.0,0.0
104.604,-0.367,3.572,2.0
79.404,-0.272,2.247,3.0
57.694,-0.193,1.288,0.0
0.0,0.0,0.0,0.0
0.0,0.0,0.0,0.0
174.951,-0.538,6.634,4.0
83.302,-0.25,2.672,5.0
0.0,0.0,0.0,0.0
0.0,0.0,0.0,0.0
0.0,0.0,0.0,0.0
33.217,-0.091,0.284,0.0
108.663,-0.285,3.896,9.0
82.841,-0.212,2.486,4.0
0.0,0.0,0.0,0.0
0.0,0.0,0.0,0.0
36.239,-0.085,0.447,0.0
30.727,-0.07,0.199,0.0
105.574,-0.232,3.565,3.0
78.771,-0.168,2.197,4.0
0.0,0.0,0.0,0.0
0.0,0.0,0.0,0.0
33.354,-0.065,0.341,0.0
28.801,-0.055,0.126,4.0
83.062,-0.15,2.63,5.0
78.67,-0.138,2.03,3.0
0.0,0.0,0.0,0.0
38.065,-0.062,0.532,0.0
31.746,-0.05,0.258,0.0
28.507,-0.044,0.064,1.0
82.68,-0.12,2.442,2.0
0.0,0.0,0.0,0.0
0.0,0.0,0.0,0.0
0.0,0.0,0.0,0.0
30.325,-0.038,0.182,0.0
26.711,-0.032,0.004,0.0
78.366,-0.089,2.149,4.0
0.0,0.0,0.0,0.0
40.514,-0.042,0.636,0.0
33.17,-0.033,0.323,0.0
28.732,-0.027,0.111,1.0
25.745,-0.024,-0.05,0.0
0.0,0.0,0.0,0.0
0.0,0.0,0.0,0.0
37.27,-0.029,0.506,0.0
31.426,-0.023,0.239,0.0
27.833,-0.019,0.049,0.0
24.503,-0.016,-0.1,0.0
0.0,0.0,0.0,0.0
42.702,-0.025,0.739,0.0
35.205,-0.019,0.403,0.0
30.183,-0.015,0.166,0.0
26.36,-0.013,-0.009,0.0
23.571,-0.011,-0.146,1.0
0.0,0.0,0.0,0.0
38.376,-0.015,0.582,0.0
33.171,-0.012,0.309,0.0
28.615,-0.009,0.095,1.0
25.437,-0.008,-0.063,0.0
22.013,-0.006,-0.183,0.0
0.0,0.0,0.0,0.0
36.629,-0.008,0.476,0.0
30.938,-0.006,0.221,0.0
27.228,-0.005,0.032,0.0
23.906,-0.004,-0.111,0.0
21.053,-0.003,-0.221,3.0
42.19,-0.005,0.705,0.0
0.0,0.0,0.0,0.0
28.748,-0.002,0.143,0.0
26.143,-0.001,-0.024,0.0
23.15,-0.001,-0.157,0.0
19.799,0.0,-0.25,0.0
0.0,0.0,0.0,0.0
33.178,0.0,0.29,0.0
28.528,0.0,0.082,1.0
25.047,0.0,-0.077,0.0
21.598,0.0,-0.192,1.0
18.759,0.0,-0.277,0.0
0.0,0.0,0.0,0.0
30.56,0.0,0.201,0.0
26.883,0.0,0.019,0.0
23.747,0.0,-0.124,1.0
20.882,0.0,-0.231,1.0
17.953,0.0,-0.304,0.0
33.259,0.001,0.342,0.0
28.77,0.001,0.127,1.0
25.871,0.0,-0.036,0.0
22.652,0.0,-0.167,0.0
19.385,0.0,-0.256,0.0
17.174,0.0,-0.328,0.0
0.0,0.0,0.0,0.0
28.024,0.0,0.064,0.0
24.732,0.0,-0.088,0.0
21.321,0.0,-0.203,3.0
18.507,0.0,-0.284,0.0
16.661,0.0,-0.353,0.0
30.281,-0.001,0.181,0.0
26.624,-0.001,0.003,0.0
23.603,-0.001,-0.134,1.0
20.437,-0.001,-0.238,0.0
17.666,-0.001,-0.309,0.0
16.126,-0.001,-0.377,0.0
28.706,-0.003,0.111,1.0
25.542,-0.003,-0.05,0.0
22.099,-0.003,-0.173,0.0
19.099,-0.003,-0.263,0.0
17.054,-0.003,-0.335,0.0
15.605,-0.003,-0.398,0.0
27.587,-0.007,0.047,0.0
24.15,-0.007,-0.099,0.0
21.106,-0.006,-0.21,3.0
18.246,-0.006,-0.291,0.0
16.532,-0.005,-0.36,0.0
15.017,-0.005,-0.415,0.0
26.235,-0.011,-0.011,0.0
23.416,-0.011,-0.147,0.0
19.913,-0.009,-0.242,0.0
17.44,-0.009,-0.316,0.0
16.017,-0.008,-0.384,0.0
14.568,-0.008,-0.434,0.0
25.293,-0.016,-0.065,0.0
21.662,-0.014,-0.182,1.0
18.808,-0.013,-0.268,0.0
16.811,-0.012,-0.34,0.0
15.496,-0.012,-0.404,0.0
14.155,-0.011,-0.452,0.0
23.804,-0.021,-0.111,1.0
20.958,-0.019,-0.221,1.0
18.067,-0.017,-0.296,0.0
16.366,-0.016,-0.365,0.0
14.833,-0.015,-0.418,0.0
13.814,-0.015,-0.47,0.0
22.867,-0.027,-0.155,0.0
19.604,-0.024,-0.248,0.0
17.275,-0.021,-0.319,0.0
15.831,-0.02,-0.387,0.0
14.467,-0.019,-0.438,0.0
13.411,-0.018,-0.485,0.0
21.424,-0.032,-0.191,1.0
18.575,-0.028,-0.274,0.0
16.73,-0.026,-0.344,0.0
15.178,-0.024,-0.403,0.0
14.04,-0.023,-0.455,0.0
13.025,-0.022,-0.498,0.0
20.552,-0.038,-0.226,0.0
17.87,-0.034,-0.301,0.0
16.214,-0.031,-0.368,0.0
14.743,-0.029,-0.422,0.0
13.689,-0.028,-0.472,0.0
12.803,-0.027,-0.516,0.0
19.241,-0.043,-0.251,0.0
17.167,-0.039,-0.325,0.0
15.719,-0.037,-0.389,0.0
14.287,-0.034,-0.439,0.0
13.327,-0.033,-0.487,0.0
12.4,-0.031,-0.526,0.0
18.441,-0.049,-0.279,0.0
16.649,-0.045,-0.349,0.0
15.12,-0.042,-0.406,0.0
13.933,-0.039,-0.457,0.0
12.883,-0.037,-0.498,0.0
12.103,-0.036,-0.539,0.0
17.675,-0.055,-0.304,0.0
16.128,-0.051,-0.371,0.0
14.743,-0.048,-0.426,0.0
13.603,-0.045,-0.474,0.0
12.617,-0.043,-0.513,0.0
11.853,-0.041,-0.552,0.0
17.048,-0.062,-0.328,0.0
15.67,-0.058,-0.393,0.0
14.249,-0.053,-0.441,0.0
13.212,-0.05,-0.487,0.0
12.387,-0.048,-0.529,0.0
11.554,-0.046,-0.561,0.0
16.575,-0.069,-0.352,0.0
15.04,-0.063,-0.407,0.0
13.915,-0.06,-0.458,0.0
12.936,-0.056,-0.503,0.0
12.012,-0.053,-0.537,0.0
11.313,-0.051,-0.572,0.0
16.087,-0.076,-0.374,0.0
14.593,-0.07,-0.424,0.0
13.555,-0.066,-0.474,0.0
12.628,-0.062,-0.516,0.0
11.859,-0.06,-0.554,0.0
11.073,-0.057,-0.582,0.0
15.641,-0.083,-0.395,0.0
14.194,-0.076,-0.441,0.0
13.12,-0.072,-0.484,0.0
12.357,-0.069,-0.529,0.0
11.543,-0.065,-0.562,0.0
10.876,-0.062,-0.593,0.0
15.037,-0.089,-0.409,0.0
13.837,-0.083,-0.457,0.0
12.809,-0.078,-0.498,0.0
12.068,-0.075,-0.541,0.0
11.337,-0.071,-0.574,0.0
10.588,-0.068,-0.598,0.0
14.638,-0.097,-0.426,0.0
13.472,-0.09,-0.471,0.0
12.585,-0.085,-0.514,0.0
11.709,-0.081,-0.547,0.0
11.038,-0.077,-0.581,0.0
10.387,-0.074,-0.607,0.0
14.277,-0.104,-0.443,0.0
13.167,-0.097,-0.486,0.0
12.304,-0.092,-0.526,0.0
11.552,-0.088,-0.562,0.0
10.854,-0.084,-0.592,0.0
10.211,-0.08,-0.617,0.0
13.912,-0.112,-0.459,0.0
12.858,-0.105,-0.499,0.0
12.111,-0.1,-0.54,0.0
11.273,-0.094,-0.57,0.0
10.575,-0.089,-0.597,0.0
9.999,-0.086,-0.623,0.0
13.529,-0.119,-0.471,0.0
12.583,-0.112,-0.512,0.0
11.867,-0.107,-0.552,0.0
11.077,-0.101,-0.581,0.0
10.377,-0.096,-0.605,0.0
9.889,-0.092,-0.634,0.0
13.268,-0.127,-0.487,0.0
12.346,-0.12,-0.525,0.0
11.598,-0.114,-0.561,0.0
10.894,-0.108,-0.591,0.0
10.193,-0.102,-0.613,0.0
9.69,-0.099,-0.639,0.0
12.89,-0.134,-0.496,0.0
12.139,-0.128,-0.538,0.0
11.324,-0.121,-0.568,0.0
10.622,-0.114,-0.596,0.0
10.066,-0.11,-0.624,0.0
9.578,-0.105,-0.649,0.0
12.673,-0.143,-0.511,0.0
11.868,-0.135,-0.547,0.0
11.13,-0.128,-0.578,0.0
10.371,-0.121,-0.601,0.0
9.853,-0.116,-0.628,0.0
9.353,-0.111,-0.651,0.0
12.389,-0.15,-0.521,0.0
11.601,-0.142,-0.556,0.0
10.941,-0.136,-0.588,0.0
10.255,-0.128,-0.612,0.0
9.744,-0.123,-0.638,0.0
9.179,-0.117,-0.655,0.0
12.078,-0.157,-0.529,0.0
11.421,-0.15,-0.567,0.0
10.739,-0.143,-0.596,0.0
10.075,-0.136,-0.619,0.0
9.551,-0.13,-0.642,0.0
9.079,-0.125,-0.664,0.0
11.914,-0.166,-0.542,0.0
11.204,-0.158,-0.575,0.0
10.535,-0.15,-0.602,0.0
9.94,-0.143,-0.627,0.0
9.444,-0.137,-0.651,0.0
8.866,-0.13,-0.663,0.0
11.686,-0.174,-0.552,0.0
11.022,-0.166,-0.585,0.0
10.358,-0.158,-0.61,0.0
9.78,-0.15,-0.634,0.0
9.269,-0.144,-0.655,0.0
8.797,-0.138,-0.673,0.0
11.442,-0.182,-0.559,0.0
10.771,-0.173,-0.589,0.0
10.169,-0.165,-0.616,0.0
0.0,0.0,0.0,0.0
0.0,0.0,0.0,0.0
8.677,-0.145,-0.678,0.0
11.326,-0.192,-0.572,0.0
10.633,-0.182,-0.599,0.0
9.989,-0.172,-0.621,0.0
9.513,-0.166,-0.648,0.0
8.988,-0.158,-0.665,0.0
8.553,-0.152,-0.683,0.0
11.023,-0.198,-0.575,0.0
10.438,-0.19,-0.605,0.0
9.856,-0.181,-0.629,0.0
9.366,-0.173,-0.653,0.0
0.0,0.0,0.0,0.0
8.475,-0.159,-0.69,0.0
10.872,-0.207,-0.584,0.0
10.294,-0.198,-0.613,0.0
9.681,-0.188,-0.633,0.0
0.0,0.0,0.0,0.0
0.0,0.0,0.0,0.0
8.379,-0.167,-0.695,0.0
10.647,-0.215,-0.588,0.0
10.106,-0.205,-0.617,0.0
0.0,0.0,0.0,0.0
9.088,-0.188,-0.662,0.0
8.662,-0.181,-0.681,0.0
8.249,-0.173,-0.697,0.0
10.496,-0.223,-0.596,0.0
9.937,-0.213,-0.622,0.0
9.382,-0.203,-0.641,0.0
0.0,0.0,0.0,0.0
8.576,-0.188,-0.687,0.0
8.172,-0.181,-0.702,0.0
10.337,-0.232,-0.602,0.0
9.841,-0.222,-0.63,0.0
9.423,-0.215,-0.658,0.0
0.0,0.0,0.0,0.0
8.432,-0.195,-0.688,0.0
8.085,-0.189,-0.707,0.0
10.213,-0.241,-0.61,0.0
9.646,-0.229,-0.632,0.0
9.176,-0.22,-0.654,0.0
0.0,0.0,0.0,0.0
8.349,-0.203,-0.693,0.0
8.083,-0.198,-0.718,0.0
10.068,-0.249,-0.615,0.0
0.0,0.0,0.0,0.0
0.0,0.0,0.0,0.0
0.0,0.0,0.0,0.0
8.28,-0.211,-0.699,0.0
7.927,-0.204,-0.715,0.0
9.966,-0.259,-0.622,0.0
9.48,-0.248,-0.647,0.0
9.02,-0.238,-0.668,0.0
8.523,-0.226,-0.681,0.0
8.218,-0.22,-0.705,0.0
0.0,0.0,0.0,0.0
9.852,-0.268,-0.628,0.0
9.361,-0.256,-0.651,0.0
0.0,0.0,0.0,0.0
0.0,0.0,0.0,0.0
8.098,-0.226,-0.705,0.0
7.802,-0.22,-0.725,0.0
9.748,-0.277,-0.634,0.0
9.242,-0.264,-0.655,0.0
8.729,-0.251,-0.669,0.0
0.0,0.0,0.0,0.0
0.0,0.0,0.0,0.0
7.686,-0.226,-0.724,0.0
0.0,0.0,0.0,0.0
9.191,-0.274,-0.663,0.0
8.597,-0.258,-0.67,0.0
0.0,0.0,0.0,0.0
0.0,0.0,0.0,0.0
7.633,-0.234,-0.728,0.0
9.415,-0.291,-0.636,0.0
9.007,-0.28,-0.66,0.0
8.657,-0.271,-0.685,0.0
0.0,0.0,0.0,0.0
0.0,0.0,0.0,0.0
0.0,0.0,0.0,0.0
9.384,-0.302,-0.645,0.0
0.0,0.0,0.0,0.0
8.557,-0.279,-0.687,0.0
0.0,0.0,0.0,0.0
0.0,0.0,0.0,0.0
0.0,0.0,0.0,0.0
9.28,-0.311,-0.648,0.0
8.812,-0.297,-0.666,0.0
0.0,0.0,0.0,0.0
0.0,0.0,0.0,0.0
0.0,0.0,0.0,0.0
0.0,0.0,0.0,0.0
9.244,-0.322,-0.656,0.0
0.0,0.0,0.0,0.0
0.0,0.0,0.0,0.0
0.0,0.0,0.0,0.0
0.0,0.0,0.0,0.0
0.0,0.0,0.0,0.0
9.098,-0.329,-0.655,0.0
8.689,-0.316,-0.675,0.0
0.0,0.0,0.0,0.0
0.0,0.0,0.0,0.0
0.0,0.0,0.0,0.0
7.304,-0.272,-0.737,0.0
9.027,-0.338,-0.659,0.0
8.619,-0.325,-0.678,0.0
8.227,-0.312,-0.695,0.0
0.0,0.0,0.0,0.0
0.0,0.0,0.0,0.0
7.258,-0.28,-0.74,0.0
8.987,-0.349,-0.665,0.0
8.559,-0.334,-0.682,0.0
8.149,-0.32,-0.696,0.0
0.0,0.0,0.0,0.0
0.0,0.0,0.0,0.0
7.269,-0.29,-0.748,0.0
8.896,-0.357,-0.666,0.0
8.532,-0.344,-0.688,0.0
8.136,-0.33,-0.703,0.0
0.0,0.0,0.0,0.0
0.0,0.0,0.0,0.0
7.202,-0.297,-0.747,0.0
8.81,-0.366,-0.667,0.0
0.0,0.0,0.0,0.0
8.019,-0.336,-0.699,0.0
0.0,0.0,0.0,0.0
0.0,0.0,0.0,0.0
7.134,-0.304,-0.746,0.0
8.78,-0.376,-0.672,0.0
0.0,0.0,0.0,0.0
8.045,-0.349,-0.708,0.0
0.0,0.0,0.0,0.0
0.0,0.0,0.0,0.0
7.078,-0.312,-0.746,0.0
8.663,-0.383,-0.67,0.0
0.0,0.0,0.0,0.0
0.0,0.0,0.0,0.0
0.0,0.0,0.0,0.0
7.317,-0.331,-0.735,0.0
7.063,-0.321,-0.75,0.0
8.645,-0.394,-0.676,0.0
8.224,-0.377,-0.69,0.0
0.0,0.0,0.0,0.0
0.0,0.0,0.0,0.0
7.304,-0.34,-0.739,0.0
7.013,-0.328,-0.75,0.0
8.618,-0.405,-0.68,0.0
0.0,0.0,0.0,0.0
0.0,0.0,0.0,0.0
0.0,0.0,0.0,0.0
7.25,-0.348,-0.739,0.0
6.989,-0.337,-0.752,0.0
8.479,-0.41,-0.674,0.0
8.201,-0.399,-0.699,0.0
7.815,-0.382,-0.711,0.0
0.0,0.0,0.0,0.0
7.241,-0.358,-0.742,0.0
6.964,-0.346,-0.754,0.0
8.508,-0.423,-0.682,0.0
8.105,-0.405,-0.696,0.0
7.794,-0.392,-0.714,0.0
0.0,0.0,0.0,0.0
7.211,-0.366,-0.744,0.0
6.924,-0.353,-0.754,0.0
8.453,-0.432,-0.682,0.0
8.104,-0.416,-0.7,0.0
0.0,0.0,0.0,0.0
0.0,0.0,0.0,0.0
7.184,-0.375,-0.745,0.0
6.903,-0.362,-0.755,0.0
8.449,-0.444,-0.687,0.0
8.079,-0.426,-0.703,0.0
0.0,0.0,0.0,0.0
0.0,0.0,0.0,0.0
7.156,-0.383,-0.746,0.0
6.888,-0.371,-0.757,0.0
8.353,-0.45,-0.683,0.0
8.061,-0.437,-0.705,0.0
0.0,0.0,0.0,0.0
0.0,0.0,0.0,0.0
7.133,-0.392,-0.747,0.0
6.866,-0.379,-0.758,0.0
8.321,-0.46,-0.684,0.0
8.046,-0.447,-0.707,0.0
0.0,0.0,0.0,0.0
0.0,0.0,0.0,0.0
7.126,-0.401,-0.749,0.0
6.824,-0.386,-0.756,0.0
8.278,-0.469,-0.684,0.0
7.978,-0.454,-0.704,0.0
0.0,0.0,0.0,0.0
7.327,-0.421,-0.731,0.0
7.077,-0.408,-0.746,0.0
6.824,-0.396,-0.759,0.0
8.285,-0.481,-0.688,0.0
7.992,-0.466,-0.708,0.0
0.0,0.0,0.0,0.0
7.332,-0.431,-0.734,0.0
7.059,-0.417,-0.747,0.0
6.784,-0.403,-0.756,0.0
8.275,-0.492,-0.689,0.0
7.873,-0.47,-0.7,0.0
0.0,0.0,0.0,0.0
7.312,-0.44,-0.734,0.0
7.047,-0.426,-0.748,0.0
6.814,-0.414,-0.762,0.0
8.22,-0.5,-0.687,0.0
0.0,0.0,0.0,0.0
0.0,0.0,0.0,0.0
7.287,-0.449,-0.733,0.0
7.001,-0.433,-0.744,0.0
6.783,-0.421,-0.76,0.0
8.228,-0.511,-0.689,0.0
7.974,-0.498,-0.713,0.0
0.0,0.0,0.0,0.0
7.298,-0.459,-0.736,0.0
7.01,-0.443,-0.747,0.0
6.765,-0.429,-0.759,0.0
8.22,-0.522,-0.69,0.0
7.933,-0.506,-0.711,0.0
0.0,0.0,0.0,0.0
7.274,-0.467,-0.735,0.0
7.018,-0.453,-0.749,0.0
6.765,-0.438,-0.76,0.0
8.226,-0.533,-0.692,0.0
7.925,-0.516,-0.711,0.0
0.0,0.0,0.0,0.0
7.278,-0.477,-0.736,0.0
7.012,-0.462,-0.749,0.0
6.759,-0.447,-0.76,0.0
8.186,-0.541,-0.689,0.0
7.92,-0.526,-0.711,0.0
0.0,0.0,0.0,0.0
7.273,-0.487,-0.736,0.0
6.997,-0.47,-0.748,0.0
6.787,-0.458,-0.764,0.0
8.189,-0.552,-0.69,0.0
7.865,-0.532,-0.707,0.0
0.0,0.0,0.0,0.0
7.263,-0.495,-0.735,0.0
0.0,0.0,0.0,0.0
6.769,-0.465,-0.762,0.0
8.228,-0.566,-0.693,0.0
0.0,0.0,0.0,0.0
0.0,0.0,0.0,0.0
7.255,-0.504,-0.734,0.0
0.0,0.0,0.0,0.0
6.759,-0.473,-0.76,0.0
8.231,-0.576,-0.693,0.0
7.921,-0.557,-0.712,0.0
0.0,0.0,0.0,0.0
7.253,-0.513,-0.734,0.0
7.018,-0.498,-0.749,0.0
6.769,-0.483,-0.761,0.0
8.198,-0.584,-0.69,0.0
7.863,-0.562,-0.706,0.0
0.0,0.0,0.0,0.0
7.257,-0.523,-0.733,0.0
7.004,-0.506,-0.747,0.0
6.769,-0.491,-0.76,0.0
8.227,-0.597,-0.691,0.0
7.938,-0.578,-0.711,0.0
0.0,0.0,0.0,0.0
7.264,-0.532,-0.733,0.0
7.017,-0.516,-0.748,0.0
6.781,-0.5,-0.761,0.0
8.259,-0.609,-0.693,0.0
7.916,-0.586,-0.708,0.0
0.0,0.0,0.0,0.0
7.286,-0.543,-0.734,0.0
6.993,-0.523,-0.744,0.0
6.793,-0.51,-0.761,0.0
8.238,-0.618,-0.689,0.0
7.96,-0.599,-0.71,0.0
0.0,0.0,0.0,0.0
7.308,-0.553,-0.735,0.0
6.995,-0.531,-0.742,0.0
6.816,-0.52,-0.761,0.0
8.293,-0.632,-0.692,0.0
7.961,-0.608,-0.708,0.0
0.0,0.0,0.0,0.0
0.0,0.0,0.0,0.0
7.045,-0.544,-0.746,0.0
6.795,-0.526,-0.757,0.0
8.275,-0.64,-0.688,0.0
7.979,-0.619,-0.708,0.0
0.0,0.0,0.0,0.0
0.0,0.0,0.0,0.0
0.0,0.0,0.0,0.0
6.821,-0.536,-0.758,0.0
8.328,-0.654,-0.69,0.0
7.935,-0.625,-0.701,0.0
0.0,0.0,0.0,0.0
0.0,0.0,0.0,0.0
7.08,-0.563,-0.744,0.0
6.821,-0.544,-0.755,0.0
8.299,-0.661,-0.684,0.0
7.962,-0.636,-0.7,0.0
0.0,0.0,0.0,0.0
0.0,0.0,0.0,0.0
7.069,-0.57,-0.74,0.0
6.856,-0.554,-0.756,0.0
8.368,-0.676,-0.686,0.0
8.029,-0.65,-0.703,0.0
0.0,0.0,0.0,0.0
0.0,0.0,0.0,0.0
7.148,-0.584,-0.746,0.0
6.852,-0.561,-0.753,0.0
8.399,-0.687,-0.685,0.0
8.05,-0.66,-0.701,0.0
0.0,0.0,0.0,0.0
0.0,0.0,0.0,0.0
7.163,-0.593,-0.744,0.0
6.88,-0.571,-0.753,0.0
8.411,-0.697,-0.682,0.0
8.058,-0.67,-0.698,0.0
0.0,0.0,0.0,0.0
7.393,-0.618,-0.723,0.0
7.172,-0.601,-0.741,0.0
6.884,-0.579,-0.749,0.0
8.412,-0.706,-0.678,0.0
8.054,-0.678,-0.693,0.0
0.0,0.0,0.0,0.0
0.0,0.0,0.0,0.0
7.229,-0.613,-0.743,0.0
6.964,-0.592,-0.754,0.0
8.464,-0.719,-0.677,0.0
8.138,-0.693,-0.696,0.0
0.0,0.0,0.0,0.0
0.0,0.0,0.0,0.0
7.252,-0.622,-0.741,0.0
6.971,-0.6,-0.751,0.0
8.495,-0.73,-0.675,0.0
8.173,-0.704,-0.694,0.0
7.879,-0.68,-0.712,0.0
0.0,0.0,0.0,0.0
7.27,-0.631,-0.738,0.0
7.007,-0.61,-0.75,0.0
8.558,-0.743,-0.674,0.0
8.22,-0.716,-0.693,0.0
7.906,-0.69,-0.71,0.0
0.0,0.0,0.0,0.0
7.264,-0.637,-0.733,0.0
7.037,-0.619,-0.749,0.0
8.574,-0.753,-0.67,0.0
8.278,-0.728,-0.692,0.0
7.984,-0.704,-0.711,0.0
0.0,0.0,0.0,0.0
0.0,0.0,0.0,0.0
7.052,-0.626,-0.745,0.0
8.669,-0.769,-0.671,0.0
8.27,-0.735,-0.685,0.0
7.953,-0.708,-0.703,0.0
0.0,0.0,0.0,0.0
0.0,0.0,0.0,0.0
7.085,-0.635,-0.744,0.0
8.662,-0.775,-0.664,0.0
8.372,-0.751,-0.688,0.0
7.968,-0.716,-0.698,0.0
0.0,0.0,0.0,0.0
0.0,0.0,0.0,0.0
7.149,-0.647,-0.745,0.0
8.76,-0.791,-0.665,0.0
8.405,-0.761,-0.684,0.0
8.025,-0.728,-0.697,0.0
0.0,0.0,0.0,0.0
0.0,0.0,0.0,0.0
7.163,-0.654,-0.74,0.0
8.855,-0.807,-0.665,0.0
8.473,-0.774,-0.682,0.0
8.039,-0.736,-0.691,0.0
0.0,0.0,0.0,0.0
0.0,0.0,0.0,0.0
7.244,-0.667,-0.742,0.0
8.889,-0.817,-0.66,0.0
8.478,-0.781,-0.676,0.0
8.152,-0.752,-0.694,0.0
0.0,0.0,0.0,0.0
0.0,0.0,0.0,0.0
7.274,-0.675,-0.739,0.0
8.919,-0.826,-0.654,0.0
8.573,-0.796,-0.676,0.0
8.21,-0.763,-0.692,0.0
0.0,0.0,0.0,0.0
0.0,0.0,0.0,0.0
7.274,-0.68,-0.733,0.0
9.01,-0.841,-0.653,0.0
8.634,-0.807,-0.673,0.0
8.328,-0.78,-0.694,0.0
7.932,-0.744,-0.705,0.0
0.0,0.0,0.0,0.0
0.0,0.0,0.0,0.0
9.182,-0.863,-0.657,0.0
8.719,-0.821,-0.671,0.0
8.315,-0.784,-0.685,0.0
7.985,-0.754,-0.702,0.0
0.0,0.0,0.0,0.0
0.0,0.0,0.0,0.0
9.199,-0.87,-0.649,0.0
8.74,-0.828,-0.664,0.0
8.402,-0.797,-0.684,0.0
8.082,-0.768,-0.703,0.0
0.0,0.0,0.0,0.0
0.0,0.0,0.0,0.0
9.288,-0.884,-0.647,0.0
8.839,-0.843,-0.663,0.0
8.481,-0.81,-0.682,0.0
8.13,-0.777,-0.699,0.0
7.829,-0.75,-0.715,0.0
0.0,0.0,0.0,0.0
9.36,-0.896,-0.642,0.0
8.873,-0.851,-0.657,0.0
8.498,-0.816,-0.675,0.0
8.124,-0.781,-0.69,0.0
7.909,-0.761,-0.714,0.0
0.0,0.0,0.0,0.0
9.456,-0.91,-0.639,0.0
0.0,0.0,0.0,0.0
8.596,-0.829,-0.673,0.0
8.273,-0.799,-0.694,0.0
7.945,-0.769,-0.709,0.0
0.0,0.0,0.0,0.0
9.521,-0.921,-0.633,0.0
9.157,-0.887,-0.658,0.0
8.697,-0.843,-0.672,0.0
8.306,-0.806,-0.687,0.0
7.975,-0.775,-0.703,0.0
0.0,0.0,0.0,0.0
9.6,-0.933,-0.628,0.0
9.211,-0.896,-0.652,0.0
8.744,-0.851,-0.666,0.0
8.43,-0.822,-0.688,0.0
8.059,-0.787,-0.701,0.0
7.733,-0.756,-0.715,0.0
9.653,-0.942,-0.62,0.0
9.305,-0.909,-0.648,0.0
8.84,-0.864,-0.663,0.0
8.46,-0.828,-0.681,0.0
8.127,-0.796,-0.698,0.0
7.861,-0.771,-0.718,0.0
9.855,-0.965,-0.622,0.0
9.282,-0.909,-0.636,0.0
8.944,-0.877,-0.661,0.0
8.515,-0.836,-0.676,0.0
8.22,-0.808,-0.696,0.0
7.899,-0.777,-0.712,0.0
9.939,-0.976,-0.616,0.0
9.413,-0.925,-0.634,0.0
0.0,0.0,0.0,0.0
8.676,-0.854,-0.678,0.0
8.315,-0.82,-0.695,0.0
7.962,-0.786,-0.708,0.0
10.016,-0.986,-0.609,0.0
9.557,-0.942,-0.632,0.0
9.155,-0.903,-0.654,0.0
8.686,-0.857,-0.668,0.0
8.357,-0.826,-0.688,0.0
8.007,-0.792,-0.702,0.0
10.1,-0.997,-0.602,0.0
9.663,-0.954,-0.628,0.0
9.217,-0.911,-0.648,0.0
8.816,-0.872,-0.668,0.0
8.397,-0.831,-0.681,0.0
8.091,-0.802,-0.7,0.0
10.285,-1.017,-0.6,0.0
9.773,-0.967,-0.623,0.0
9.333,-0.924,-0.644,0.0
0.0,0.0,0.0,0.0
8.464,-0.839,-0.676,0.0
8.162,-0.81,-0.696,0.0
10.494,-1.039,-0.6,0.0
9.873,-0.978,-0.617,0.0
9.39,-0.931,-0.637,0.0
0.0,0.0,0.0,0.0
8.604,-0.854,-0.676,0.0
8.29,-0.823,-0.696,0.0
10.553,-1.046,-0.59,0.0
9.988,-0.99,-0.611,0.0
0.0,0.0,0.0,0.0
0.0,0.0,0.0,0.0
8.731,-0.867,-0.675,0.0
8.339,-0.829,-0.69,0.0
10.804,-1.072,-0.59,0.0
0.0,0.0,0.0,0.0
9.615,-0.954,-0.628,0.0
9.277,-0.921,-0.656,0.0
8.775,-0.872,-0.667,0.0
8.379,-0.833,-0.682,0.0
10.905,-1.082,-0.582,0.0
10.308,-1.023,-0.605,0.0
9.774,-0.97,-0.625,0.0
9.307,-0.924,-0.646,0.0
8.845,-0.878,-0.661,0.0
8.508,-0.845,-0.681,0.0
11.069,-1.098,-0.576,0.0
10.394,-1.031,-0.596,0.0
9.899,-0.982,-0.62,0.0
9.408,-0.933,-0.641,0.0
0.0,0.0,0.0,0.0
8.552,-0.849,-0.674,0.0
11.22,-1.112,-0.569,0.0
10.531,-1.044,-0.59,0.0
10.139,-1.005,-0.622,0.0
0.0,0.0,0.0,0.0
0.0,0.0,0.0,0.0
8.675,-0.86,-0.672,0.0
11.408,-1.129,-0.563,0.0
10.709,-1.06,-0.586,0.0
10.211,-1.01,-0.613,0.0
0.0,0.0,0.0,0.0
9.269,-0.917,-0.656,0.0
8.77,-0.868,-0.667,0.0
11.58,-1.144,-0.557,0.0
10.896,-1.076,-0.582,0.0
10.177,-1.005,-0.597,0.0
9.771,-0.965,-0.626,0.0
9.291,-0.918,-0.645,0.0
8.903,-0.879,-0.665,0.0
11.79,-1.163,-0.551,0.0
11.087,-1.093,-0.577,0.0
10.523,-1.037,-0.603,0.0
9.858,-0.971,-0.619,0.0
9.485,-0.935,-0.646,0.0
8.982,-0.885,-0.659,0.0
11.889,-1.169,-0.54,0.0
11.243,-1.105,-0.57,0.0
10.581,-1.04,-0.592,0.0
10.002,-0.983,-0.614,0.0
9.598,-0.943,-0.64,0.0
9.109,-0.895,-0.656,0.0
12.029,-1.18,-0.53,0.0
11.426,-1.12,-0.564,0.0
0.0,0.0,0.0,0.0
10.154,-0.995,-0.61,0.0
9.734,-0.953,-0.636,0.0
9.25,-0.905,-0.654,0.0
12.364,-1.208,-0.528,0.0
11.628,-1.136,-0.558,0.0
10.923,-1.066,-0.582,0.0
10.265,-1.002,-0.602,0.0
9.843,-0.96,-0.63,0.0
9.375,-0.914,-0.65,0.0
12.482,-1.215,-0.516,0.0
11.781,-1.146,-0.549,0.0
11.111,-1.08,-0.577,0.0
0.0,0.0,0.0,0.0
9.95,-0.966,-0.623,0.0
9.476,-0.92,-0.644,0.0
12.72,-1.233,-0.508,0.0
11.942,-1.157,-0.54,0.0
11.22,-1.086,-0.567,0.0
10.622,-1.027,-0.594,0.0
10.098,-0.976,-0.618,0.0
9.598,-0.927,-0.639,0.0
12.921,-1.246,-0.498,0.0
12.123,-1.168,-0.532,0.0
11.519,-1.109,-0.566,0.0
10.778,-1.037,-0.588,0.0
10.205,-0.981,-0.611,0.0
9.687,-0.931,-0.631,0.0
13.165,-1.263,-0.49,0.0
12.28,-1.177,-0.522,0.0
11.648,-1.115,-0.556,0.0
10.916,-1.044,-0.58,0.0
10.258,-0.98,-0.6,0.0
9.811,-0.937,-0.626,0.0
13.349,-1.273,-0.478,0.0
12.501,-1.191,-0.514,0.0
11.766,-1.12,-0.546,0.0
11.099,-1.055,-0.575,0.0
0.0,0.0,0.0,0.0
9.932,-0.942,-0.62,0.0
13.587,-1.287,-0.468,0.0
12.737,-1.206,-0.506,0.0
11.904,-1.125,-0.536,0.0
11.321,-1.069,-0.571,0.0
10.729,-1.012,-0.598,0.0
10.12,-0.954,-0.617,0.0
13.863,-1.305,-0.459,0.0
12.973,-1.219,-0.498,0.0
12.211,-1.146,-0.533,0.0
11.466,-1.075,-0.562,0.0
10.877,-1.018,-0.591,0.0
10.178,-0.952,-0.607,0.0
14.14,-1.321,-0.448,0.0
13.202,-1.231,-0.488,0.0
12.334,-1.149,-0.521,0.0
11.658,-1.084,-0.555,0.0
10.996,-1.022,-0.582,0.0
10.336,-0.959,-0.602,0.0
14.395,-1.334,-0.437,0.0
13.454,-1.245,-0.479,0.0
12.534,-1.158,-0.513,0.0
11.817,-1.09,-0.547,0.0
11.145,-1.027,-0.575,0.0
10.52,-0.968,-0.598,0.0
14.751,-1.355,-0.427,0.0
13.699,-1.257,-0.469,0.0
12.794,-1.172,-0.506,0.0
11.935,-1.091,-0.536,0.0
11.333,-1.035,-0.569,0.0
10.767,-0.982,-0.597,0.0
14.987,-1.365,-0.414,0.0
13.956,-1.269,-0.459,0.0
12.958,-1.176,-0.494,0.0
12.213,-1.106,-0.532,0.0
11.547,-1.044,-0.564,0.0
10.864,-0.981,-0.588,0.0
15.343,-1.384,-0.403,0.0
14.147,-1.273,-0.446,0.0
13.235,-1.189,-0.487,0.0
12.359,-1.109,-0.521,0.0
11.709,-1.048,-0.556,0.0
11.04,-0.987,-0.583,0.0
15.603,-1.393,-0.389,0.0
14.421,-1.285,-0.435,0.0
13.492,-1.2,-0.479,0.0
12.61,-1.119,-0.515,0.0
11.842,-1.049,-0.546,0.0
11.221,-0.992,-0.577,0.0
16.022,-1.415,-0.378,0.0
14.675,-1.293,-0.423,0.0
13.705,-1.206,-0.468,0.0
12.803,-1.124,-0.506,0.0
12.029,-1.054,-0.539,0.0
11.386,-0.995,-0.57,0.0
16.482,-1.439,-0.367,0.0
14.962,-1.304,-0.412,0.0
13.939,-1.212,-0.457,0.0
13.039,-1.131,-0.498,0.0
12.279,-1.063,-0.534,0.0
11.561,-0.999,-0.564,0.0
16.873,-1.456,-0.353,0.0
15.375,-1.324,-0.403,0.0
14.147,-1.215,-0.445,0.0
13.251,-1.136,-0.489,0.0
12.457,-1.065,-0.525,0.0
11.731,-1.001,-0.557,0.0
17.164,-1.463,-0.337,0.0
15.641,-1.33,-0.39,0.0
14.478,-1.228,-0.437,0.0
13.507,-1.143,-0.481,0.0
12.664,-1.069,-0.518,0.0
11.873,-1.0,-0.548,0.0
17.541,-1.475,-0.322,0.0
16.055,-1.347,-0.379,0.0
14.745,-1.234,-0.426,0.0
13.692,-1.143,-0.47,0.0
12.855,-1.07,-0.509,0.0
12.006,-0.997,-0.539,0.0
17.954,-1.489,-0.306,0.0
16.451,-1.361,-0.368,0.0
14.985,-1.236,-0.414,0.0
13.954,-1.148,-0.461,0.0
12.99,-1.066,-0.498,0.0
12.256,-1.003,-0.535,0.0
18.471,-1.51,-0.292,0.0
16.727,-1.364,-0.353,0.0
15.259,-1.24,-0.403,0.0
14.172,-1.149,-0.45,0.0
13.26,-1.072,-0.492,0.0
12.405,-1.0,-0.526,0.0
19.051,-1.534,-0.277,0.0
17.135,-1.375,-0.34,0.0
15.648,-1.252,-0.393,0.0
14.348,-1.145,-0.438,0.0
13.47,-1.072,-0.483,0.0
12.61,-1.0,-0.519,0.0
19.727,-1.563,-0.263,0.0
17.492,-1.382,-0.326,0.0
15.968,-1.257,-0.382,0.0
14.717,-1.155,-0.431,0.0
13.631,-1.067,-0.472,0.0
12.822,-1.0,-0.512,0.0
20.613,-1.606,-0.25,0.0
17.882,-1.389,-0.311,0.0
16.312,-1.263,-0.371,0.0
14.923,-1.151,-0.419,0.0
13.913,-1.07,-0.465,0.0
13.038,-1.0,-0.505,0.0
33.891,-2.595,-0.371,2.0
18.355,-1.401,-0.298,0.0
16.728,-1.272,-0.36,0.0
15.279,-1.158,-0.411,0.0
14.101,-1.065,-0.454,0.0
13.201,-0.994,-0.496,0.0
33.89,-2.548,-0.331,4.0
18.871,-1.414,-0.284,0.0
16.945,-1.265,-0.345,0.0
15.431,-1.148,-0.398,0.0
14.271,-1.058,-0.443,0.0
13.399,-0.99,-0.487,0.0
33.891,-2.5,-0.291,1.0
19.323,-1.42,-0.268,0.0
17.335,-1.269,-0.333,0.0
15.709,-1.146,-0.386,0.0
14.58,-1.06,-0.436,0.0
13.568,-0.982,-0.478,0.0
33.912,-2.452,-0.253,1.0
20.012,-1.441,-0.255,0.0
17.766,-1.274,-0.321,0.0
16.078,-1.149,-0.377,0.0
14.843,-1.056,-0.427,0.0
13.784,-0.977,-0.47,0.0
23.433,-1.659,-0.148,0.0
20.354,-1.435,-0.237,0.0
18.045,-1.267,-0.306,0.0
16.484,-1.152,-0.369,0.0
15.037,-1.047,-0.416,0.0
13.949,-0.967,-0.46,0.0
23.846,-1.651,-0.125,0.0
20.961,-1.445,-0.221,0.0
18.53,-1.272,-0.294,0.0
16.741,-1.144,-0.356,0.0
15.257,-1.039,-0.406,0.0
14.202,-0.963,-0.453,0.0
24.471,-1.656,-0.102,0.0
22.103,-1.49,-0.21,0.0
18.928,-1.27,-0.28,0.0
17.077,-1.14,-0.345,0.0
15.684,-1.043,-0.401,0.0
14.414,-0.954,-0.445,0.0
25.469,-1.683,-0.08,0.0
22.468,-1.478,-0.19,0.0
19.458,-1.274,-0.268,0.0
17.376,-1.132,-0.333,0.0
15.85,-1.028,-0.389,0.0
14.668,-0.947,-0.438,0.0
25.832,-1.665,-0.054,0.0
23.015,-1.476,-0.171,0.0
19.894,-1.27,-0.254,0.0
17.701,-1.124,-0.322,0.0
16.053,-1.015,-0.378,0.0
14.898,-0.937,-0.43,0.0
26.155,-1.642,-0.029,0.0
23.502,-1.468,-0.151,0.0
20.462,-1.272,-0.241,0.0
17.972,-1.111,-0.309,0.0
16.394,-1.009,-0.37,0.0
15.06,-0.922,-0.42,0.0
27.086,-1.655,-0.004,0.0
23.937,-1.455,-0.131,0.0
21.093,-1.275,-0.228,0.0
18.388,-1.106,-0.299,0.0
16.76,-1.002,-0.362,0.0
15.257,-0.908,-0.411,0.0
28.237,-1.676,0.022,1.0
24.191,-1.428,-0.11,0.0
21.793,-1.279,-0.215,0.0
18.776,-1.096,-0.288,0.0
16.983,-0.986,-0.351,0.0
15.491,-0.895,-0.403,0.0
28.441,-1.638,0.048,5.0
34.192,-1.958,-0.124,1.0
22.246,-1.267,-0.199,0.0
19.119,-1.082,-0.276,0.0
17.261,-0.972,-0.341,0.0
15.793,-0.884,-0.397,0.0
28.517,-1.592,0.073,7.0
34.247,-1.901,-0.094,8.0
34.239,-1.889,-0.278,2.0
34.243,-1.878,-0.464,0.0
17.506,-0.954,-0.331,0.0
15.89,-0.861,-0.386,0.0
28.557,-1.543,0.098,7.0
25.964,-1.394,-0.049,0.0
23.065,-1.23,-0.167,1.0
19.928,-1.056,-0.253,0.0
17.799,-0.937,-0.322,0.0
16.224,-0.849,-0.38,0.0
28.588,-1.492,0.121,0.0
26.281,-1.363,-0.029,0.0
23.534,-1.212,-0.152,1.0
20.527,-1.051,-0.244,0.0
18.053,-0.918,-0.312,0.0
16.457,-0.831,-0.373,0.0
30.277,-1.525,0.152,0.0
27.437,-1.372,-0.008,1.0
23.734,-1.179,-0.135,1.0
21.347,-1.053,-0.238,0.0
18.198,-0.891,-0.3,0.0
16.636,-0.809,-0.364,0.0
30.591,-1.483,0.177,0.0
27.541,-1.326,0.011,5.0
23.849,-1.14,-0.117,0.0
21.445,-1.018,-0.223,1.0
18.681,-0.88,-0.295,0.0
16.809,-0.786,-0.355,0.0
31.21,-1.454,0.203,0.0
27.688,-1.28,0.032,0.0
24.403,-1.12,-0.103,0.0
21.576,-0.983,-0.209,1.0
19.015,-0.86,-0.287,0.0
17.045,-0.765,-0.349,0.0
0.0,0.0,0.0,0.0
28.531,-1.265,0.052,4.0
25.669,-1.129,-0.09,0.0
22.286,-0.972,-0.201,1.0
19.212,-0.831,-0.277,0.0
17.189,-0.738,-0.34,0.0
32.159,-1.374,0.254,0.0
28.565,-1.21,0.071,7.0
25.81,-1.085,-0.074,1.0
22.495,-0.937,-0.188,2.0
19.455,-0.804,-0.267,0.0
17.33,-0.71,-0.332,0.0
32.77,-1.336,0.279,0.0
28.616,-1.156,0.089,8.0
25.739,-1.031,-0.058,0.0
22.952,-0.911,-0.177,1.0
19.743,-0.776,-0.259,0.0
17.588,-0.685,-0.326,0.0
33.272,-1.29,0.304,0.0
28.658,-1.101,0.107,7.0
25.821,-0.982,-0.043,0.0
22.962,-0.865,-0.164,1.0
20.448,-0.763,-0.257,0.0
17.811,-0.658,-0.32,0.0
33.208,-1.221,0.322,0.0
28.656,-1.043,0.123,3.0
26.444,-0.953,-0.029,0.0
23.614,-0.842,-0.156,0.0
20.846,-0.736,-0.25,0.0
18.007,-0.629,-0.314,0.0
0.0,0.0,0.0,0.0
28.687,-0.986,0.138,0.0
26.706,-0.908,-0.015,0.0
23.569,-0.793,-0.143,0.0
20.939,-0.697,-0.241,2.0
18.218,-0.6,-0.308,0.0
0.0,0.0,0.0,0.0
29.974,-0.969,0.159,0.0
27.201,-0.87,-0.002,0.0
23.754,-0.751,-0.133,0.0
21.02,-0.656,-0.232,2.0
18.301,-0.565,-0.301,0.0
34.858,-1.068,0.39,0.0
30.308,-0.917,0.175,0.0
27.522,-0.823,0.009,0.0
24.068,-0.711,-0.124,0.0
21.084,-0.615,-0.223,2.0
18.445,-0.532,-0.295,0.0
0.0,0.0,0.0,0.0
31.056,-0.876,0.192,0.0
27.601,-0.768,0.02,0.0
24.152,-0.663,-0.115,0.0
21.087,-0.572,-0.215,0.0
18.569,-0.497,-0.29,0.0
36.281,-0.961,0.435,0.0
31.448,-0.821,0.206,0.0
28.088,-0.723,0.031,1.0
24.59,-0.624,-0.108,0.0
22.087,-0.553,-0.217,0.0
18.842,-0.465,-0.288,0.0
35.857,-0.875,0.443,0.0
31.202,-0.75,0.215,0.0
28.39,-0.672,0.041,1.0
24.8,-0.578,-0.1,0.0
22.013,-0.505,-0.209,0.0
18.945,-0.428,-0.283,0.0
37.079,-0.827,0.47,0.0
31.689,-0.695,0.229,0.0
28.492,-0.615,0.05,3.0
24.664,-0.523,-0.092,2.0
22.156,-0.462,-0.204,0.0
19.152,-0.392,-0.281,0.0
36.956,-0.747,0.479,0.0
32.786,-0.65,0.246,0.0
28.597,-0.557,0.058,4.0
25.125,-0.48,-0.088,0.0
22.244,-0.417,-0.199,0.0
19.214,-0.353,-0.277,0.0
37.516,-0.679,0.495,0.0
32.973,-0.584,0.255,0.0
28.414,-0.493,0.064,1.0
25.193,-0.428,-0.082,0.0
22.332,-0.371,-0.195,0.0
19.274,-0.313,-0.273,0.0
37.281,-0.596,0.5,0.0
32.6,-0.509,0.259,0.0
28.548,-0.435,0.07,1.0
25.222,-0.375,-0.078,0.0
22.397,-0.325,-0.191,0.0
19.31,-0.273,-0.271,0.0
37.63,-0.521,0.511,0.0
32.562,-0.439,0.264,1.0
28.54,-0.374,0.075,1.0
25.23,-0.321,-0.074,0.0
22.784,-0.282,-0.191,1.0
19.444,-0.233,-0.27,0.0
37.725,-0.441,0.517,0.0
32.481,-0.367,0.267,1.0
28.588,-0.313,0.078,1.0
25.424,-0.269,-0.071,0.0
22.604,-0.231,-0.187,1.0
19.481,-0.192,-0.268,0.0
38.283,-0.365,0.529,0.0
32.514,-0.298,0.27,1.0
28.706,-0.252,0.081,6.0
25.447,-0.214,-0.069,0.0
22.494,-0.181,-0.185,0.0
19.514,-0.15,-0.267,0.0
38.056,-0.28,0.528,0.0
32.605,-0.228,0.273,1.0
28.737,-0.19,0.083,7.0
25.408,-0.159,-0.068,0.0
22.606,-0.133,-0.185,0.0
19.54,-0.108,-0.267,0.0
0.0,0.0,0.0,0.0
32.988,-0.16,0.277,1.0
28.737,-0.128,0.083,7.0
25.427,-0.105,-0.068,0.0
22.698,-0.085,-0.186,0.0
19.534,-0.066,-0.267,0.0
38.103,-0.117,0.528,0.0
33.161,-0.089,0.277,0.0
28.735,-0.067,0.082,6.0
25.584,-0.051,-0.07,0.0
22.461,-0.036,-0.185,0.0
19.524,-0.024,-0.268,0.0
0.0,0.0,0.0,0.0
33.113,-0.019,0.275,0.0
28.661,-0.006,0.08,1.0
25.447,0.003,-0.071,0.0
22.468,0.011,-0.187,0.0
19.515,0.016,-0.27,0.0
0.0,0.0,0.0,0.0
0.0,0.0,0.0,0.0
28.716,0.055,0.077,4.0
25.403,0.058,-0.074,0.0
22.401,0.059,-0.189,0.0
19.507,0.058,-0.272,0.0
38.86,0.13,0.528,0.0
31.732,0.117,0.256,0.0
28.631,0.116,0.073,1.0
25.336,0.112,-0.077,0.0
22.358,0.106,-0.192,1.0
19.309,0.099,-0.272,0.0
37.425,0.206,0.502,0.0
32.026,0.187,0.253,0.0
28.576,0.177,0.067,1.0
25.255,0.165,-0.082,0.0
22.219,0.153,-0.195,2.0
19.24,0.14,-0.275,0.0
37.237,0.284,0.492,0.0
32.115,0.256,0.247,0.0
28.711,0.239,0.061,3.0
25.117,0.218,-0.087,0.0
22.094,0.2,-0.199,3.0
19.068,0.179,-0.277,0.0
37.199,0.363,0.483,0.0
31.324,0.317,0.233,0.0
28.598,0.299,0.054,1.0
24.989,0.27,-0.093,0.0
21.964,0.245,-0.203,1.0
18.977,0.218,-0.281,0.0
37.25,0.443,0.473,0.0
31.743,0.388,0.227,0.0
28.153,0.353,0.045,0.0
24.598,0.317,-0.099,0.0
21.765,0.288,-0.208,1.0
18.872,0.256,-0.285,0.0
37.394,0.523,0.463,0.0
0.0,0.0,0.0,0.0
27.581,0.404,0.035,0.0
24.592,0.369,-0.107,0.0
21.862,0.336,-0.216,0.0
18.71,0.293,-0.289,0.0
36.276,0.584,0.437,0.0
31.224,0.512,0.202,0.0
27.339,0.458,0.025,0.0
24.359,0.416,-0.115,0.0
21.683,0.377,-0.223,0.0
18.453,0.328,-0.292,0.0
35.606,0.647,0.415,0.0
31.21,0.577,0.19,0.0
27.167,0.512,0.014,0.0
24.157,0.463,-0.123,0.0
21.392,0.417,-0.228,0.0
18.357,0.364,-0.298,0.0
35.437,0.718,0.398,0.0
30.631,0.631,0.173,0.0
26.835,0.561,0.002,0.0
23.85,0.507,-0.132,0.0
21.046,0.454,-0.234,0.0
18.269,0.401,-0.305,0.0
35.008,0.782,0.377,0.0
28.922,0.656,0.15,0.0
26.598,0.612,-0.009,0.0
23.557,0.55,-0.142,0.0
20.558,0.486,-0.239,0.0
18.081,0.434,-0.311,0.0
34.236,0.836,0.352,0.0
28.956,0.716,0.136,4.0
26.41,0.662,-0.023,0.0
23.519,0.597,-0.154,1.0
20.363,0.524,-0.247,0.0
17.967,0.468,-0.318,0.0
34.18,0.905,0.333,0.0
28.934,0.775,0.12,6.0
26.15,0.709,-0.037,0.0
23.143,0.635,-0.164,1.0
19.999,0.555,-0.253,0.0
17.772,0.499,-0.325,0.0
33.641,0.958,0.309,1.0
28.9,0.832,0.104,5.0
25.738,0.75,-0.051,0.0
22.889,0.674,-0.175,0.0
19.943,0.593,-0.264,0.0
17.512,0.527,-0.33,0.0
32.931,1.005,0.283,0.0
28.855,0.89,0.086,3.0
25.35,0.789,-0.065,0.0
22.422,0.705,-0.186,0.0
19.53,0.621,-0.271,0.0
17.286,0.554,-0.337,0.0
32.538,1.058,0.259,0.0
28.399,0.932,0.067,1.0
24.915,0.825,-0.08,0.0
21.931,0.733,-0.196,0.0
19.17,0.647,-0.279,0.0
17.054,0.581,-0.343,0.0
0.0,0.0,0.0,0.0
27.777,0.967,0.046,0.0
24.526,0.862,-0.096,1.0
21.754,0.771,-0.209,0.0
19.029,0.68,-0.29,0.0
16.957,0.611,-0.353,0.0
30.996,1.131,0.204,0.0
27.285,1.003,0.026,0.0
24.284,0.901,-0.112,1.0
21.383,0.8,-0.221,1.0
18.527,0.698,-0.295,0.0
16.802,0.638,-0.362,0.0
30.911,1.188,0.181,0.0
26.875,1.041,0.006,0.0
23.93,0.934,-0.128,0.0
20.875,0.821,-0.231,0.0
18.147,0.719,-0.303,0.0
16.653,0.664,-0.372,0.0
28.981,1.169,0.147,0.0
26.465,1.076,-0.013,0.0
23.368,0.957,-0.143,1.0
20.408,0.841,-0.242,0.0
17.938,0.745,-0.314,0.0
16.466,0.689,-0.381,0.0
28.934,1.223,0.124,0.0
25.984,1.105,-0.034,0.0
23.162,0.992,-0.161,1.0
19.89,0.858,-0.252,0.0
17.756,0.771,-0.325,0.0
16.162,0.706,-0.387,0.0
28.767,1.27,0.099,0.0
25.593,1.137,-0.055,0.0
22.569,1.009,-0.176,1.0
19.703,0.887,-0.266,0.0
17.434,0.79,-0.334,0.0
15.964,0.728,-0.396,0.0
28.319,1.303,0.073,0.0
25.2,1.167,-0.076,0.0
22.011,1.025,-0.191,1.0
19.126,0.896,-0.275,0.0
17.137,0.808,-0.343,0.0
15.763,0.747,-0.405,0.0
27.665,1.323,0.047,0.0
24.585,1.183,-0.096,0.0
21.674,1.049,-0.207,2.0
18.794,0.915,-0.287,0.0
16.911,0.828,-0.354,0.0
15.597,0.768,-0.415,0.0
27.05,1.343,0.021,1.0
24.014,1.199,-0.116,0.0
21.391,1.074,-0.224,2.0
18.296,0.923,-0.297,0.0
16.719,0.848,-0.366,0.0
15.341,0.782,-0.423,0.0
26.473,1.362,-0.004,0.0
23.3,1.205,-0.135,0.0
20.713,1.077,-0.237,0.0
18.103,0.946,-0.311,0.0
16.467,0.865,-0.376,0.0
15.069,0.795,-0.43,0.0
25.978,1.382,-0.029,0.0
22.909,1.225,-0.155,0.0
20.019,1.075,-0.249,0.0
17.849,0.964,-0.325,0.0
16.157,0.877,-0.385,0.0
14.858,0.81,-0.439,0.0
25.512,1.401,-0.054,0.0
22.266,1.229,-0.173,0.0
19.505,1.081,-0.262,0.0
17.307,0.964,-0.333,0.0
15.933,0.891,-0.396,0.0
14.658,0.824,-0.448,0.0
24.898,1.41,-0.079,0.0
21.834,1.242,-0.193,2.0
19.215,1.098,-0.278,0.0
17.051,0.978,-0.345,0.0
15.767,0.909,-0.409,0.0
14.482,0.838,-0.458,0.0
24.409,1.423,-0.103,0.0
21.549,1.261,-0.213,2.0
18.695,1.099,-0.291,0.0
16.799,0.992,-0.358,0.0
15.462,0.916,-0.418,0.0
14.236,0.847,-0.465,0.0
23.779,1.425,-0.126,0.0
21.121,1.27,-0.232,1.0
18.344,1.108,-0.305,0.0
16.567,1.005,-0.371,0.0
15.171,0.924,-0.426,0.0
14.073,0.86,-0.475,0.0
23.105,1.422,-0.148,0.0
20.391,1.259,-0.246,0.0
17.91,1.11,-0.318,0.0
16.274,1.013,-0.383,0.0
14.917,0.932,-0.436,0.0
13.842,0.868,-0.483,0.0
22.613,1.427,-0.171,0.0
19.794,1.253,-0.262,0.0
17.451,1.109,-0.33,0.0
15.976,1.019,-0.394,0.0
14.75,0.944,-0.448,0.0
13.637,0.876,-0.492,0.0
22.005,1.422,-0.191,0.0
19.258,1.249,-0.277,0.0
17.149,1.116,-0.344,0.0
15.744,1.028,-0.407,0.0
14.503,0.95,-0.457,0.0
13.446,0.884,-0.501,0.0
21.448,1.418,-0.211,0.0
18.661,1.238,-0.29,0.0
16.805,1.118,-0.357,0.0
15.436,1.031,-0.417,0.0
14.284,0.957,-0.467,0.0
13.246,0.89,-0.509,0.0
20.789,1.405,-0.23,0.0
18.25,1.237,-0.305,0.0
16.576,1.127,-0.372,0.0
15.116,1.031,-0.427,0.0
14.053,0.962,-0.477,0.0
13.036,0.895,-0.517,0.0
20.275,1.399,-0.249,0.0
17.916,1.24,-0.322,0.0
16.207,1.125,-0.383,0.0
14.885,1.037,-0.438,0.0
13.792,0.963,-0.485,0.0
12.848,0.9,-0.525,0.0
19.516,1.374,-0.263,0.0
17.429,1.23,-0.334,0.0
15.894,1.125,-0.396,0.0
14.699,1.044,-0.451,0.0
13.621,0.97,-0.496,0.0
12.615,0.901,-0.531,0.0
19.022,1.365,-0.28,0.0
17.092,1.23,-0.35,0.0
15.693,1.132,-0.41,0.0
14.328,1.037,-0.458,0.0
13.432,0.975,-0.506,0.0
12.453,0.906,-0.54,0.0
18.514,1.353,-0.297,0.0
16.751,1.227,-0.364,0.0
15.323,1.126,-0.421,0.0
14.07,1.037,-0.468,0.0
13.152,0.971,-0.513,0.0
12.354,0.915,-0.552,0.0
18.048,1.342,-0.313,0.0
16.391,1.222,-0.377,0.0
15.091,1.128,-0.434,0.0
13.859,1.039,-0.479,0.0
12.937,0.972,-0.521,0.0
12.135,0.914,-0.558,0.0
17.684,1.337,-0.329,0.0
16.157,1.225,-0.393,0.0
14.799,1.124,-0.445,0.0
13.622,1.038,-0.489,0.0
12.7,0.97,-0.528,0.0
11.953,0.915,-0.566,0.0
17.178,1.32,-0.343,0.0
15.799,1.216,-0.406,0.0
14.452,1.115,-0.454,0.0
13.43,1.039,-0.5,0.0
12.519,0.971,-0.538,0.0
11.767,0.915,-0.573,0.0
16.823,1.312,-0.358,0.0
15.364,1.201,-0.415,0.0
14.211,1.113,-0.465,0.0
13.118,1.03,-0.506,0.0
12.403,0.976,-0.549,0.0
11.594,0.915,-0.58,0.0
16.524,1.307,-0.374,0.0
15.154,1.202,-0.43,0.0
13.979,1.111,-0.476,0.0
12.937,1.03,-0.516,0.0
12.203,0.974,-0.557,0.0
11.397,0.912,-0.586,0.0
16.153,1.296,-0.388,0.0
14.856,1.194,-0.442,0.0
13.684,1.102,-0.485,0.0
12.769,1.03,-0.527,0.0
12.038,0.974,-0.566,0.0
11.26,0.912,-0.594,0.0
15.845,1.288,-0.402,0.0
14.537,1.184,-0.452,0.0
13.445,1.097,-0.495,0.0
12.54,1.025,-0.535,0.0
11.778,0.965,-0.57,0.0
11.072,0.909,-0.6,0.0
15.566,1.281,-0.417,0.0
14.293,1.178,-0.465,0.0
13.279,1.096,-0.508,0.0
12.385,1.025,-0.546,0.0
11.586,0.96,-0.577,0.0
10.922,0.907,-0.607,0.0
15.209,1.266,-0.429,0.0
14.008,1.168,-0.475,0.0
13.051,1.09,-0.517,0.0
12.209,1.022,-0.555,0.0
11.436,0.959,-0.586,0.0
10.735,0.902,-0.612,0.0
14.851,1.25,-0.439,0.0
13.744,1.158,-0.485,0.0
12.774,1.079,-0.524,0.0
11.962,1.012,-0.561,0.0
11.241,0.952,-0.592,0.0
10.618,0.901,-0.62,0.0
14.589,1.241,-0.452,0.0
13.517,1.151,-0.496,0.0
12.563,1.072,-0.533,0.0
11.775,1.006,-0.569,0.0
11.09,0.949,-0.599,0.0
10.492,0.9,-0.628,0.0
14.252,1.224,-0.462,0.0
13.354,1.148,-0.509,0.0
12.426,1.07,-0.545,0.0
11.578,0.999,-0.576,0.0
10.917,0.943,-0.606,0.0
10.295,0.891,-0.631,0.0
13.994,1.213,-0.473,0.0
13.023,1.13,-0.515,0.0
12.197,1.06,-0.553,0.0
11.439,0.996,-0.585,0.0
10.788,0.94,-0.614,0.0
10.178,0.889,-0.638,0.0
13.701,1.198,-0.483,0.0
12.79,1.119,-0.524,0.0
12.044,1.056,-0.563,0.0
11.279,0.99,-0.593,0.0
10.656,0.937,-0.622,0.0
10.041,0.884,-0.644,0.0
13.538,1.193,-0.496,0.0
12.607,1.112,-0.535,0.0
11.807,1.043,-0.568,0.0
11.099,0.982,-0.599,0.0
10.485,0.929,-0.626,0.0
9.869,0.875,-0.647,0.0
13.278,1.179,-0.506,0.0
12.444,1.106,-0.545,0.0
11.613,1.033,-0.576,0.0
10.95,0.976,-0.607,0.0
10.321,0.921,-0.632,0.0
9.759,0.872,-0.653,0.0
13.095,1.17,-0.517,0.0
12.219,1.093,-0.553,0.0
11.441,1.025,-0.583,0.0
10.745,0.964,-0.611,0.0
10.177,0.914,-0.637,0.0
9.63,0.866,-0.659,0.0
12.796,1.151,-0.524,0.0
12.021,1.082,-0.561,0.0
11.271,1.016,-0.591,0.0
10.677,0.963,-0.622,0.0
10.059,0.909,-0.644,0.0
9.515,0.861,-0.664,0.0
