X,Y,Z,Reflectivity
46.54,5.22,1.129,3.0
45.346,5.081,0.84,9.0
41.753,4.673,0.531,0.0
33.165,3.708,0.232,0.0
0.0,0.0,0.0,0.0
60.416,6.732,1.742,35.0
46.422,5.166,1.073,9.0
44.808,4.981,0.779,6.0
41.795,4.641,0.484,0.0
31.933,3.542,0.187,0.0
27.113,3.004,0.004,0.0
60.171,6.65,1.668,20.0
46.242,5.104,1.017,10.0
44.716,4.93,0.728,4.0
38.116,4.197,0.399,0.0
29.395,3.233,0.14,1.0
26.145,2.872,-0.024,1.0
59.245,6.492,1.577,16.0
45.986,5.032,0.96,14.0
44.725,4.888,0.679,3.0
35.201,3.842,0.33,0.0
29.33,3.197,0.107,4.0
25.923,2.823,-0.052,1.0
58.879,6.393,1.502,1.0
45.677,4.953,0.905,11.0
44.711,4.841,0.63,3.0
35.151,3.801,0.291,0.0
29.221,3.156,0.075,2.0
24.716,2.666,-0.076,0.0
51.602,5.55,1.261,2.0
45.416,4.877,0.851,10.0
42.429,4.55,0.553,1.0
33.756,3.615,0.243,0.0
28.273,3.024,0.043,0.0
24.3,2.595,-0.101,1.0
51.542,5.488,1.205,6.0
45.15,4.8,0.798,8.0
41.967,4.455,0.502,0.0
32.032,3.395,0.197,1.0
27.275,2.887,0.013,0.0
23.974,2.534,-0.124,0.0
51.473,5.423,1.15,6.0
45.034,4.737,0.749,4.0
38.953,4.091,0.426,0.0
31.609,3.315,0.162,0.0
26.273,2.751,-0.014,1.0
23.435,2.45,-0.146,0.0
46.488,4.845,0.991,3.0
45.138,4.696,0.705,8.0
35.45,3.682,0.352,0.0
29.255,3.034,0.121,0.0
25.984,2.691,-0.04,1.0
22.188,2.294,-0.16,0.0
46.245,4.764,0.939,4.0
45.372,4.666,0.664,4.0
34.792,3.572,0.311,0.0
29.153,2.988,0.092,1.0
25.423,2.602,-0.064,1.0
22.005,2.248,-0.18,3.0
46.114,4.694,0.892,5.0
45.671,4.641,0.624,1.0
34.187,3.468,0.272,0.0
28.869,2.924,0.063,0.0
24.757,2.503,-0.086,0.0
21.746,2.195,-0.199,4.0
46.022,4.627,0.846,6.0
39.919,4.006,0.507,0.0
32.184,3.224,0.226,0.0
27.762,2.776,0.034,0.0
24.301,2.426,-0.107,0.0
21.487,2.141,-0.217,4.0
46.121,4.577,0.805,8.0
39.687,3.93,0.467,0.0
31.947,3.158,0.194,0.0
26.786,2.643,0.008,0.0
23.924,2.356,-0.128,0.0
21.19,2.083,-0.233,2.0
46.309,4.533,0.765,5.0
0.0,0.0,0.0,0.0
29.318,2.859,0.152,2.0
26.108,2.541,-0.014,1.0
23.181,2.252,-0.144,0.0
20.806,2.017,-0.247,0.0
46.607,4.499,0.729,6.0
35.626,3.432,0.356,0.0
29.276,2.814,0.126,4.0
25.77,2.472,-0.037,1.0
22.536,2.158,-0.16,1.0
20.134,1.924,-0.257,0.0
46.871,4.458,0.693,3.0
35.301,3.35,0.322,0.0
29.248,2.77,0.101,5.0
25.394,2.4,-0.058,0.0
22.216,2.095,-0.177,4.0
19.568,1.842,-0.266,0.0
47.124,4.414,0.657,1.0
34.26,3.202,0.283,0.0
29.092,2.713,0.076,2.0
24.79,2.306,-0.077,0.0
21.85,2.029,-0.192,4.0
19.233,1.782,-0.277,0.0
0.0,0.0,0.0,0.0
33.239,3.057,0.248,1.0
28.13,2.581,0.051,0.0
24.516,2.244,-0.096,0.0
21.703,1.982,-0.207,3.0
18.912,1.724,-0.288,0.0
40.746,3.695,0.503,1.0
32.154,2.908,0.215,0.0
27.18,2.453,0.028,0.0
24.193,2.178,-0.113,0.0
21.431,1.925,-0.221,1.0
18.635,1.67,-0.298,0.0
0.0,0.0,0.0,0.0
31.41,2.793,0.186,0.0
26.439,2.345,0.007,1.0
23.228,2.055,-0.126,0.0
20.99,1.853,-0.232,0.0
18.43,1.623,-0.308,0.0
35.707,3.126,0.387,0.0
30.77,2.687,0.16,0.0
26.302,2.291,-0.011,1.0
22.994,1.997,-0.141,0.0
20.578,1.783,-0.243,0.0
18.123,1.567,-0.316,0.0
35.717,3.07,0.362,0.0
30.385,2.605,0.137,1.0
25.884,2.213,-0.029,0.0
22.772,1.941,-0.156,1.0
20.212,1.719,-0.252,0.0
17.89,1.517,-0.324,0.0
34.073,2.873,0.323,0.0
29.402,2.472,0.113,1.0
25.594,2.146,-0.045,0.0
22.593,1.889,-0.169,1.0
19.732,1.645,-0.259,0.0
17.664,1.469,-0.331,0.0
33.353,2.756,0.294,0.0
29.193,2.405,0.093,1.0
25.169,2.068,-0.06,0.0
22.361,1.832,-0.182,1.0
19.486,1.592,-0.268,0.0
17.463,1.423,-0.338,0.0
33.176,2.686,0.272,0.0
28.202,2.276,0.073,1.0
24.666,1.984,-0.074,0.0
22.019,1.766,-0.192,0.0
19.301,1.544,-0.277,0.0
17.245,1.375,-0.344,0.0
32.623,2.585,0.248,0.0
27.628,2.182,0.055,0.0
24.268,1.911,-0.087,1.0
21.709,1.704,-0.202,0.0
19.028,1.489,-0.284,0.0
17.071,1.331,-0.35,0.0
32.054,2.483,0.226,0.0
27.5,2.123,0.04,1.0
24.126,1.857,-0.099,2.0
21.475,1.648,-0.211,0.0
18.728,1.432,-0.289,0.0
16.953,1.292,-0.357,0.0
31.388,2.376,0.205,0.0
27.061,2.041,0.025,1.0
24.054,1.808,-0.111,3.0
21.291,1.595,-0.22,0.0
18.437,1.377,-0.294,0.0
16.814,1.251,-0.362,0.0
31.136,2.301,0.189,1.0
26.77,1.971,0.012,0.0
23.924,1.756,-0.122,3.0
20.97,1.534,-0.226,0.0
18.471,1.346,-0.303,0.0
16.685,1.211,-0.367,0.0
29.92,2.157,0.168,1.0
26.495,1.902,0.0,0.0
23.794,1.702,-0.132,1.0
20.678,1.474,-0.232,0.0
18.349,1.303,-0.309,0.0
16.594,1.174,-0.372,0.0
30.057,2.111,0.156,0.0
26.235,1.836,-0.01,0.0
23.674,1.65,-0.141,0.0
20.461,1.421,-0.238,0.0
18.065,1.25,-0.311,0.0
16.567,1.142,-0.378,0.0
29.365,2.009,0.141,0.0
26.061,1.776,-0.019,0.0
23.198,1.574,-0.146,0.0
20.29,1.371,-0.243,0.0
17.946,1.208,-0.315,0.0
16.354,1.096,-0.379,0.0
29.166,1.94,0.13,1.0
25.909,1.716,-0.028,0.0
22.941,1.513,-0.153,0.0
20.136,1.322,-0.248,0.0
17.849,1.167,-0.319,0.0
16.249,1.058,-0.381,0.0
29.223,1.888,0.121,0.0
25.678,1.652,-0.035,0.0
22.821,1.462,-0.159,0.0
19.962,1.273,-0.252,0.0
17.687,1.123,-0.321,0.0
16.142,1.021,-0.383,0.0
28.939,1.815,0.112,1.0
25.59,1.597,-0.042,0.0
22.745,1.413,-0.164,0.0
19.796,1.224,-0.255,0.0
17.703,1.09,-0.326,0.0
16.063,0.985,-0.385,0.0
28.764,1.748,0.105,0.0
25.486,1.542,-0.048,0.0
22.633,1.363,-0.168,0.0
19.617,1.176,-0.257,0.0
17.48,1.042,-0.326,0.0
16.047,0.953,-0.388,0.0
28.729,1.691,0.099,0.0
25.415,1.488,-0.053,0.0
22.35,1.302,-0.171,0.0
19.451,1.127,-0.258,0.0
17.458,1.007,-0.329,0.0
15.971,0.916,-0.389,0.0
28.546,1.623,0.093,0.0
25.357,1.434,-0.057,0.0
22.153,1.246,-0.172,0.0
19.832,1.11,-0.266,0.0
17.344,0.966,-0.329,0.0
15.94,0.883,-0.391,0.0
28.456,1.562,0.089,0.0
25.333,1.383,-0.06,0.0
22.113,1.2,-0.175,1.0
19.552,1.056,-0.265,0.0
17.363,0.932,-0.331,0.0
15.971,0.853,-0.393,0.0
28.281,1.496,0.086,0.0
25.334,1.332,-0.062,1.0
22.14,1.158,-0.177,1.0
19.555,1.017,-0.266,0.0
17.298,0.894,-0.331,0.0
15.989,0.822,-0.394,0.0
28.304,1.441,0.084,0.0
25.314,1.281,-0.064,0.0
22.136,1.113,-0.178,1.0
19.446,0.972,-0.265,0.0
17.293,0.859,-0.332,0.0
15.956,0.788,-0.394,0.0
28.338,1.385,0.084,0.0
25.284,1.228,-0.064,0.0
22.189,1.071,-0.178,1.0
19.423,0.931,-0.265,0.0
17.29,0.824,-0.331,0.0
15.921,0.754,-0.393,0.0
28.416,1.332,0.085,0.0
25.293,1.178,-0.063,0.0
22.306,1.032,-0.179,1.0
19.583,0.9,-0.267,0.0
17.283,0.788,-0.33,0.0
15.906,0.721,-0.392,0.0
28.437,1.275,0.086,0.0
25.273,1.125,-0.062,0.0
22.331,0.987,-0.177,0.0
19.614,0.861,-0.265,0.0
17.295,0.754,-0.329,0.0
15.952,0.69,-0.391,0.0
28.53,1.221,0.089,1.0
25.348,1.077,-0.059,0.0
22.266,0.939,-0.174,0.0
19.55,0.818,-0.262,0.0
17.389,0.722,-0.329,0.0
15.989,0.659,-0.39,0.0
28.711,1.17,0.093,1.0
25.372,1.026,-0.056,0.0
22.313,0.895,-0.171,0.0
19.608,0.78,-0.26,0.0
17.459,0.689,-0.327,0.0
16.05,0.629,-0.389,0.0
28.772,1.113,0.098,1.0
25.779,0.989,-0.052,6.0
22.373,0.851,-0.168,0.0
19.619,0.74,-0.257,0.0
17.546,0.656,-0.326,0.0
16.047,0.595,-0.386,0.0
28.783,1.055,0.104,1.0
25.767,0.936,-0.047,1.0
22.63,0.815,-0.165,0.0
19.801,0.706,-0.255,0.0
17.564,0.621,-0.322,0.0
16.12,0.565,-0.384,0.0
28.843,0.998,0.112,1.0
25.909,0.888,-0.04,0.0
22.89,0.777,-0.161,0.0
19.873,0.668,-0.25,0.0
17.724,0.59,-0.32,0.0
16.17,0.533,-0.38,0.0
28.924,0.941,0.12,6.0
26.008,0.838,-0.033,0.0
23.044,0.735,-0.155,0.0
20.055,0.633,-0.246,0.0
17.817,0.556,-0.316,0.0
16.237,0.502,-0.377,0.0
28.963,0.882,0.13,5.0
26.252,0.791,-0.025,0.0
23.307,0.694,-0.149,1.0
20.26,0.597,-0.242,0.0
17.941,0.523,-0.312,0.0
16.356,0.471,-0.374,0.0
28.963,0.822,0.14,5.0
26.419,0.741,-0.015,0.0
23.545,0.653,-0.142,1.0
20.33,0.557,-0.235,0.0
18.086,0.49,-0.308,1.0
16.486,0.441,-0.37,0.0
28.968,0.763,0.152,3.0
26.473,0.688,-0.005,0.0
23.778,0.61,-0.133,1.0
20.554,0.521,-0.229,0.0
18.215,0.456,-0.302,0.0
16.574,0.409,-0.365,0.0
29.041,0.704,0.165,0.0
26.767,0.64,0.006,0.0
23.977,0.566,-0.124,0.0
21.273,0.495,-0.227,1.0
18.413,0.422,-0.297,0.0
16.67,0.377,-0.359,0.0
30.882,0.685,0.19,0.0
26.973,0.59,0.019,0.0
24.229,0.522,-0.113,0.0
21.592,0.458,-0.22,0.0
18.524,0.387,-0.289,0.0
16.756,0.344,-0.353,0.0
31.101,0.627,0.207,0.0
27.483,0.544,0.034,0.0
24.695,0.481,-0.102,0.0
21.792,0.417,-0.211,0.0
18.72,0.352,-0.282,0.0
16.936,0.313,-0.347,0.0
0.0,0.0,0.0,0.0
27.725,0.492,0.05,0.0
24.832,0.433,-0.089,0.0
22.033,0.377,-0.2,0.0
18.952,0.318,-0.275,0.0
17.067,0.281,-0.34,0.0
31.906,0.512,0.248,0.0
28.654,0.451,0.068,1.0
25.243,0.388,-0.075,0.0
22.21,0.334,-0.188,0.0
19.231,0.283,-0.267,0.0
17.211,0.247,-0.332,0.0
32.159,0.45,0.271,0.0
28.783,0.393,0.087,4.0
25.546,0.341,-0.06,0.0
22.486,0.293,-0.176,0.0
19.551,0.248,-0.259,0.0
17.41,0.215,-0.324,0.0
32.757,0.392,0.297,0.0
28.833,0.336,0.106,7.0
25.964,0.294,-0.044,0.0
23.031,0.253,-0.165,0.0
20.121,0.214,-0.252,0.0
17.68,0.182,-0.317,0.0
34.144,0.339,0.334,0.0
28.848,0.277,0.127,5.0
26.275,0.244,-0.025,0.0
23.477,0.21,-0.151,0.0
20.542,0.177,-0.243,0.0
17.888,0.148,-0.308,0.0
33.927,0.27,0.356,0.0
28.894,0.22,0.148,1.0
26.707,0.194,-0.006,0.0
23.789,0.165,-0.135,0.0
20.867,0.138,-0.231,1.0
18.217,0.114,-0.299,0.0
0.0,0.0,0.0,0.0
30.074,0.168,0.178,0.0
27.136,0.143,0.014,0.0
24.072,0.119,-0.118,0.0
21.214,0.098,-0.218,4.0
18.52,0.079,-0.29,0.0
0.0,0.0,0.0,0.0
30.652,0.111,0.206,0.0
27.528,0.09,0.037,0.0
24.653,0.073,-0.101,0.0
21.609,0.056,-0.204,4.0
18.91,0.043,-0.28,0.0
36.473,0.072,0.471,0.0
31.427,0.052,0.237,0.0
28.446,0.037,0.062,1.0
25.266,0.025,-0.081,0.0
22.073,0.014,-0.189,0.0
19.276,0.006,-0.268,0.0
37.906,0.0,0.523,0.0
33.156,-0.009,0.28,0.0
28.712,-0.017,0.088,3.0
25.574,-0.024,-0.06,0.0
22.925,-0.029,-0.176,0.0
19.841,-0.031,-0.258,0.0
40.262,-0.077,0.592,0.0
33.27,-0.074,0.311,1.0
28.795,-0.073,0.115,7.0
26.052,-0.075,-0.037,0.0
23.313,-0.074,-0.157,0.0
20.379,-0.071,-0.246,0.0
40.695,-0.155,0.636,0.0
33.362,-0.138,0.343,0.0
28.852,-0.128,0.143,3.0
26.594,-0.127,-0.012,0.0
23.788,-0.121,-0.138,0.0
20.928,-0.113,-0.233,0.0
0.0,0.0,0.0,0.0
35.416,-0.214,0.399,0.0
31.209,-0.198,0.185,0.0
27.267,-0.182,0.013,0.0
24.31,-0.17,-0.117,0.0
21.597,-0.158,-0.219,0.0
43.313,-0.329,0.762,0.0
0.0,0.0,0.0,0.0
31.574,-0.26,0.219,1.0
27.777,-0.238,0.042,1.0
25.001,-0.222,-0.094,0.0
22.238,-0.204,-0.202,0.0
0.0,0.0,0.0,0.0
37.56,-0.368,0.5,0.0
32.403,-0.328,0.259,1.0
28.547,-0.298,0.073,1.0
25.466,-0.274,-0.069,0.0
22.761,-0.252,-0.182,1.0
0.0,0.0,0.0,0.0
0.0,0.0,0.0,0.0
33.043,-0.395,0.3,1.0
28.694,-0.352,0.105,0.0
26.165,-0.329,-0.042,0.0
23.257,-0.299,-0.161,1.0
0.0,0.0,0.0,0.0
0.0,0.0,0.0,0.0
33.944,-0.468,0.346,1.0
28.821,-0.406,0.138,0.0
26.568,-0.383,-0.013,0.0
23.681,-0.348,-0.137,1.0
0.0,0.0,0.0,0.0
0.0,0.0,0.0,0.0
34.453,-0.537,0.391,0.0
31.022,-0.493,0.184,0.0
27.423,-0.444,0.017,0.0
24.342,-0.402,-0.113,0.0
0.0,0.0,0.0,0.0
0.0,0.0,0.0,0.0
36.262,-0.63,0.453,0.0
31.654,-0.559,0.225,0.0
28.47,-0.511,0.051,2.0
25.195,-0.46,-0.087,0.0
0.0,0.0,0.0,0.0
0.0,0.0,0.0,0.0
38.413,-0.735,0.526,0.0
32.994,-0.641,0.274,1.0
28.684,-0.566,0.087,7.0
25.797,-0.516,-0.057,0.0
0.0,0.0,0.0,0.0
0.0,0.0,0.0,0.0
39.572,-0.826,0.591,0.0
33.534,-0.709,0.32,1.0
28.735,-0.616,0.123,4.0
26.507,-0.576,-0.026,0.0
0.0,0.0,0.0,0.0
0.0,0.0,0.0,0.0
0.0,0.0,0.0,0.0
0.0,0.0,0.0,0.0
28.781,-0.666,0.16,0.0
27.363,-0.641,0.007,0.0
0.0,0.0,0.0,0.0
0.0,0.0,0.0,0.0
0.0,0.0,0.0,0.0
36.321,-0.892,0.44,0.0
31.276,-0.777,0.214,0.0
28.445,-0.714,0.045,1.0
0.0,0.0,0.0,0.0
0.0,0.0,0.0,0.0
0.0,0.0,0.0,0.0
0.0,0.0,0.0,0.0
32.491,-0.86,0.265,0.0
28.642,-0.766,0.083,2.0
93.275,-2.516,2.86,1.0
0.0,0.0,0.0,0.0
0.0,0.0,0.0,0.0
0.0,0.0,0.0,0.0
33.295,-0.934,0.316,0.0
28.626,-0.811,0.121,0.0
92.596,-2.646,2.964,3.0
0.0,0.0,0.0,0.0
0.0,0.0,0.0,0.0
0.0,0.0,0.0,0.0
34.752,-1.03,0.378,0.0
30.555,-0.914,0.171,0.0
92.251,-2.781,3.081,14.0
0.0,0.0,0.0,0.0
0.0,0.0,0.0,0.0
0.0,0.0,0.0,0.0
0.0,0.0,0.0,0.0
31.512,-0.991,0.221,0.0
92.192,-2.921,3.207,41.0
0.0,0.0,0.0,0.0
0.0,0.0,0.0,0.0
0.0,0.0,0.0,0.0
38.556,-1.262,0.527,0.0
32.474,-1.071,0.274,0.0
92.244,-3.064,3.341,151.0
92.94,-3.109,2.878,2.0
0.0,0.0,0.0,0.0
0.0,0.0,0.0,0.0
0.0,0.0,0.0,0.0
33.781,-1.164,0.333,0.0
92.23,-3.199,3.473,163.0
92.325,-3.224,2.991,3.0
0.0,0.0,0.0,0.0
51.448,-1.822,1.122,0.0
0.0,0.0,0.0,0.0
0.0,0.0,0.0,0.0
92.229,-3.331,3.607,151.0
92.15,-3.35,3.12,31.0
0.0,0.0,0.0,0.0
0.0,0.0,0.0,0.0
0.0,0.0,0.0,0.0
37.438,-1.397,0.479,0.0
92.217,-3.461,3.743,25.0
92.112,-3.479,3.256,80.0
0.0,0.0,0.0,0.0
0.0,0.0,0.0,0.0
0.0,0.0,0.0,0.0
38.979,-1.509,0.557,0.0
0.0,0.0,0.0,0.0
92.143,-3.606,3.396,80.0
92.851,-3.655,2.935,1.0
0.0,0.0,0.0,0.0
0.0,0.0,0.0,0.0
0.0,0.0,0.0,0.0
0.0,0.0,0.0,0.0
92.198,-3.733,3.538,13.0
92.274,-3.755,3.057,8.0
0.0,0.0,0.0,0.0
0.0,0.0,0.0,0.0
0.0,0.0,0.0,0.0
120.264,-5.0,5.431,16.0
92.37,-3.86,3.687,7.0
92.224,-3.873,3.198,168.0
0.0,0.0,0.0,0.0
0.0,0.0,0.0,0.0
0.0,0.0,0.0,0.0
120.26,-5.153,5.617,24.0
0.0,0.0,0.0,0.0
92.235,-3.991,3.344,148.0
0.0,0.0,0.0,0.0
0.0,0.0,0.0,0.0
0.0,0.0,0.0,0.0
194.462,-8.577,9.393,19.0
0.0,0.0,0.0,0.0
92.831,-4.131,3.511,4.0
0.0,0.0,0.0,0.0
0.0,0.0,0.0,0.0
0.0,0.0,0.0,0.0
164.337,-7.445,8.197,27.0
0.0,0.0,0.0,0.0
94.172,-4.303,3.713,4.0
94.251,-4.325,3.213,4.0
0.0,0.0,0.0,0.0
0.0,0.0,0.0,0.0
164.321,-7.636,8.46,15.0
164.4,-7.671,7.605,9.0
0.0,0.0,0.0,0.0
95.171,-4.477,3.398,2.0
0.0,0.0,0.0,0.0
0.0,0.0,0.0,0.0
112.399,-5.351,5.969,11.0
194.577,-9.3,9.317,9.0
0.0,0.0,0.0,0.0
0.0,0.0,0.0,0.0
0.0,0.0,0.0,0.0
0.0,0.0,0.0,0.0
112.487,-5.478,6.156,13.0
189.475,-9.258,9.378,9.0
0.0,0.0,0.0,0.0
0.0,0.0,0.0,0.0
109.451,-5.406,3.692,7.0
0.0,0.0,0.0,0.0
112.318,-5.588,6.33,17.0
189.404,-9.454,9.684,20.0
189.543,-9.49,8.699,6.0
0.0,0.0,0.0,0.0
109.404,-5.515,3.87,155.0
0.0,0.0,0.0,0.0
112.521,-5.712,6.527,9.0
112.725,-5.74,5.948,6.0
195.287,-9.972,9.284,6.0
0.0,0.0,0.0,0.0
109.364,-5.62,4.048,58.0
0.0,0.0,0.0,0.0
112.217,-5.805,6.693,18.0
119.499,-6.2,6.503,15.0
189.216,-9.846,9.31,16.0
0.0,0.0,0.0,0.0
0.0,0.0,0.0,0.0
109.358,-5.739,3.659,150.0
112.097,-5.904,6.873,20.0
119.394,-6.305,6.695,17.0
189.105,-10.013,9.618,14.0
188.501,-10.009,8.585,6.0
0.0,0.0,0.0,0.0
109.324,-5.835,3.84,20.0
111.545,-5.976,7.026,6.0
119.774,-6.433,6.919,7.0
122.652,-6.602,6.443,13.0
189.158,-10.208,8.934,4.0
0.0,0.0,0.0,0.0
34.335,-1.862,1.263,0.0
91.97,-5.005,5.948,30.0
112.0,-6.109,6.657,8.0
122.859,-6.717,6.661,13.0
188.805,-10.345,9.232,15.0
0.0,0.0,0.0,0.0
34.324,-1.889,1.32,0.0
91.512,-5.054,6.071,17.0
91.998,-5.092,5.622,16.0
122.805,-6.812,6.862,9.0
189.102,-10.51,9.561,20.0
0.0,0.0,0.0,0.0
0.0,0.0,0.0,0.0
89.399,-5.008,6.082,11.0
91.43,-5.13,5.741,13.0
111.882,-6.29,6.44,3.0
122.821,-6.919,6.416,18.0
0.0,0.0,0.0,0.0
0.0,0.0,0.0,0.0
89.313,-5.068,6.227,13.0
91.008,-5.174,5.868,21.0
92.007,-5.238,5.451,7.0
122.548,-6.99,6.607,13.0
188.721,-10.782,9.19,20.0
0.0,0.0,0.0,0.0
89.086,-5.117,6.359,12.0
91.595,-5.268,6.059,20.0
91.926,-5.296,5.6,5.0
188.943,-10.903,10.505,19.0
122.845,-7.1,6.188,9.0
0.0,0.0,0.0,0.0
90.072,-5.231,6.581,14.0
91.317,-5.31,6.194,8.0
91.384,-5.322,5.72,16.0
0.0,0.0,0.0,0.0
122.703,-7.167,6.385,10.0
188.378,-11.018,8.818,4.0
0.0,0.0,0.0,0.0
88.698,-5.211,6.164,23.0
91.38,-5.375,5.873,23.0
111.856,-6.589,6.593,8.0
188.047,-11.089,10.1,12.0
188.683,-11.142,9.148,11.0
92.939,-5.507,7.103,14.0
88.898,-5.273,6.328,11.0
91.415,-5.427,6.027,21.0
91.87,-5.461,5.567,12.0
120.851,-7.192,6.692,8.0
122.749,-7.312,6.156,7.0
87.871,-5.252,6.862,15.0
94.368,-5.646,6.875,14.0
91.313,-5.468,6.174,6.0
91.693,-5.496,5.71,12.0
188.657,-11.319,10.76,13.0
123.206,-7.398,6.384,8.0
113.492,-6.838,9.055,9.0
92.673,-5.588,6.907,11.0
88.71,-5.353,6.146,8.0
91.555,-5.529,5.854,25.0
120.975,-7.312,7.103,5.0
187.78,-11.36,10.043,14.0
87.869,-5.333,7.158,13.0
0.0,0.0,0.0,0.0
88.709,-5.391,6.293,13.0
91.42,-5.56,5.997,11.0
91.741,-5.582,5.538,5.0
188.168,-11.458,10.375,16.0
88.293,-5.395,7.34,29.0
94.306,-5.765,7.344,9.0
94.293,-5.766,6.846,7.0
111.607,-6.829,7.506,5.0
122.089,-7.474,7.572,10.0
120.995,-7.41,6.871,16.0
87.938,-5.404,7.456,26.0
113.427,-6.973,9.02,10.0
92.601,-5.694,6.877,5.0
88.534,-5.446,6.101,11.0
91.663,-5.641,5.835,14.0
120.758,-7.434,7.054,6.0
88.056,-5.439,7.611,16.0
87.69,-5.417,7.117,23.0
92.605,-5.722,7.029,11.0
88.35,-5.46,6.233,15.0
121.981,-7.54,7.966,7.0
121.019,-7.483,7.268,5.0
94.753,-5.879,8.347,5.0
87.842,-5.45,7.275,23.0
117.552,-7.294,9.117,17.0
111.419,-6.914,8.043,6.0
88.698,-5.505,5.937,5.0
91.383,-5.672,5.638,16.0
93.179,-5.802,8.362,6.0
87.496,-5.448,7.39,18.0
113.748,-7.082,9.008,7.0
118.031,-7.349,8.713,9.0
88.518,-5.511,6.069,15.0
91.737,-5.711,5.808,8.0
90.646,-5.662,8.281,14.0
88.089,-5.502,7.582,14.0
87.643,-5.472,7.081,24.0
94.37,-5.891,7.118,14.0
88.294,-5.51,6.194,14.0
122.091,-7.619,7.923,11.0
90.674,-5.677,8.429,26.0
94.764,-5.931,8.307,9.0
87.515,-5.475,7.21,29.0
94.353,-5.901,7.265,10.0
91.446,-5.717,6.56,3.0
121.41,-7.589,8.07,4.0
90.755,-5.692,8.581,25.0
93.237,-5.845,8.322,10.0
87.285,-5.468,7.328,18.0
117.541,-7.361,9.237,9.0
111.502,-6.98,8.174,7.0
88.535,-5.539,6.024,9.0
90.833,-5.703,8.731,16.0
90.631,-5.686,8.23,9.0
87.755,-5.502,7.504,13.0
87.611,-5.49,7.02,14.0
94.4,-5.912,7.066,12.0
88.306,-5.527,6.144,14.0
91.044,-5.718,8.892,12.0
90.673,-5.691,8.375,23.0
94.792,-5.944,8.253,9.0
87.575,-5.487,7.153,31.0
94.381,-5.91,7.21,13.0
88.31,-5.527,6.28,4.0
86.768,-5.448,8.609,14.0
90.734,-5.692,8.52,24.0
0.0,0.0,0.0,0.0
87.351,-5.47,7.268,24.0
117.565,-7.356,9.16,15.0
111.483,-6.97,8.097,6.0
86.797,-5.445,8.745,11.0
90.814,-5.69,8.667,21.0
93.28,-5.839,8.407,6.0
87.335,-5.462,7.398,17.0
87.652,-5.477,6.96,10.0
117.848,-7.357,8.734,7.0
90.715,-5.682,9.277,16.0
90.995,-5.692,8.82,13.0
90.644,-5.664,8.305,21.0
0.0,0.0,0.0,0.0
87.639,-5.465,7.09,34.0
94.388,-5.879,7.135,10.0
90.637,-5.664,9.404,19.0
86.861,-5.421,8.549,12.0
90.686,-5.652,8.442,29.0
94.74,-5.899,8.305,7.0
87.724,-5.455,7.224,27.0
117.571,-7.303,9.06,14.0
90.187,-5.62,9.489,21.0
86.742,-5.398,8.663,16.0
90.738,-5.639,8.578,26.0
93.158,-5.781,8.301,9.0
88.094,-5.46,7.381,21.0
117.619,-7.282,9.23,7.0
90.113,-5.596,9.612,24.0
90.71,-5.624,9.19,15.0
87.134,-5.395,8.362,16.0
91.401,-5.651,8.275,19.0
87.965,-5.431,7.495,24.0
87.745,-5.41,7.011,8.0
89.688,-5.547,9.694,21.0
90.71,-5.601,9.319,18.0
87.045,-5.366,8.476,14.0
91.034,-5.603,8.369,20.0
88.253,-5.424,7.642,19.0
87.959,-5.397,7.149,18.0
89.742,-5.524,9.825,32.0
86.683,-5.327,9.024,13.0
86.947,-5.333,8.586,16.0
90.742,-5.557,8.466,26.0
88.492,-5.41,7.783,13.0
88.195,-5.383,7.287,22.0
89.93,-5.506,9.969,29.0
86.62,-5.294,9.136,20.0
86.954,-5.305,8.705,17.0
90.772,-5.527,8.591,11.0
88.536,-5.382,7.905,9.0
88.136,-5.348,7.399,22.0
89.901,-5.471,10.086,18.0
86.528,-5.256,9.242,14.0
87.016,-5.275,8.826,22.0
86.871,-5.256,8.336,15.0
93.159,-5.626,8.441,8.0
88.395,-5.328,7.537,26.0
89.372,-5.403,10.145,28.0
90.415,-5.455,9.776,20.0
86.881,-5.23,8.926,29.0
86.996,-5.226,8.462,25.0
91.044,-5.459,8.368,11.0
88.568,-5.299,7.666,26.0
89.154,-5.35,10.237,30.0
90.813,-5.438,9.937,14.0
86.821,-5.188,9.031,22.0
87.316,-5.205,8.604,29.0
90.81,-5.402,8.461,7.0
88.674,-5.263,7.787,25.0
88.208,-5.252,10.24,18.0
90.521,-5.377,10.019,15.0
90.957,-5.39,9.575,5.0
87.291,-5.161,8.71,23.0
87.489,-5.161,8.26,17.0
88.307,-5.197,7.862,18.0
87.682,-5.176,10.287,29.0
90.064,-5.304,10.078,13.0
90.994,-5.344,9.69,16.0
87.24,-5.112,8.81,27.0
87.273,-5.101,8.343,25.0
87.363,-5.095,7.881,16.0
87.585,-5.123,10.38,28.0
89.061,-5.195,10.071,7.0
90.94,-5.291,9.791,13.0
87.166,-5.059,8.905,14.0
87.313,-5.055,8.448,24.0
87.58,-5.058,8.002,23.0
87.434,-5.063,10.465,30.0
89.049,-5.143,10.174,9.0
93.118,-5.364,10.133,16.0
87.465,-5.024,9.035,14.0
87.591,-5.018,8.575,13.0
87.615,-5.007,8.104,30.0
87.334,-5.005,10.551,20.0
87.233,-4.985,10.064,14.0
93.226,-5.312,10.249,13.0
90.992,-5.171,9.5,11.0
87.136,-4.938,8.625,24.0
87.689,-4.955,8.206,26.0
87.552,-4.961,10.674,23.0
86.593,-4.893,10.084,16.0
87.069,-4.905,9.666,22.0
91.056,-5.114,9.604,15.0
87.028,-4.874,8.708,27.0
87.768,-4.901,8.307,19.0
87.41,-4.894,10.75,18.0
86.697,-4.839,10.189,14.0
86.764,-4.828,9.724,22.0
91.165,-5.057,9.712,16.0
86.993,-4.812,8.795,20.0
87.501,-4.825,8.372,20.0
87.03,-4.811,10.795,12.0
89.416,-4.928,10.601,6.0
86.551,-4.754,9.789,11.0
91.183,-4.992,9.806,12.0
86.904,-4.744,8.873,10.0
87.45,-4.758,8.453,12.0
86.686,-4.73,10.838,8.0
86.908,-4.726,10.389,26.0
81.503,-4.417,9.297,16.0
82.236,-4.442,8.923,14.0
92.85,-4.999,9.569,12.0
84.812,-4.551,8.279,18.0
86.411,-4.649,10.886,20.0
86.683,-4.647,10.445,25.0
81.504,-4.354,9.374,14.0
82.305,-4.381,9.008,9.0
92.876,-4.928,9.658,12.0
84.861,-4.488,8.362,13.0
86.365,-4.577,10.961,25.0
86.493,-4.567,10.502,29.0
86.925,-4.575,10.077,20.0
86.68,-4.545,9.565,12.0
84.78,-4.43,8.892,14.0
88.003,-4.582,8.749,8.0
86.505,-4.514,11.056,31.0
86.644,-4.504,10.596,30.0
86.509,-4.481,10.104,14.0
87.291,-4.504,9.708,9.0
91.029,-4.681,9.624,5.0
83.591,-4.283,8.381,19.0
86.471,-4.439,11.125,25.0
86.727,-4.434,10.68,29.0
86.273,-4.395,10.148,22.0
82.016,-4.162,9.188,18.0
81.638,-4.127,8.698,12.0
83.749,-4.219,8.464,29.0
85.927,-4.337,11.124,27.0
85.925,-4.319,10.649,17.0
86.657,-4.339,10.261,15.0
82.082,-4.093,9.26,24.0
81.762,-4.061,8.774,14.0
83.843,-4.148,8.538,27.0
85.959,-4.262,11.195,27.0
85.384,-4.215,10.648,30.0
0.0,0.0,0.0,0.0
82.069,-4.019,9.319,13.0
81.958,-3.997,8.856,26.0
83.933,-4.076,8.609,18.0
86.129,-4.19,11.28,29.0
85.94,-4.164,10.778,26.0
87.748,-4.232,10.52,5.0
82.008,-3.939,9.37,11.0
82.005,-3.923,8.918,27.0
82.24,-3.918,8.491,7.0
86.307,-4.117,11.364,22.0
85.998,-4.084,10.845,19.0
86.084,-4.07,10.379,21.0
81.346,-3.83,9.349,17.0
82.117,-3.849,8.984,25.0
82.147,-3.834,8.534,24.0
86.377,-4.037,11.429,15.0
86.522,-4.025,10.966,20.0
85.444,-3.957,10.355,18.0
81.496,-3.757,9.417,26.0
82.2,-3.773,9.043,15.0
82.337,-3.763,8.604,25.0
86.143,-3.941,11.45,27.0
85.903,-3.911,10.94,27.0
85.428,-3.871,10.404,20.0
81.522,-3.677,9.467,17.0
80.95,-3.634,8.952,5.0
82.817,-3.701,8.701,17.0
86.053,-3.85,11.487,20.0
85.94,-3.825,10.992,8.0
83.889,-3.717,10.262,11.0
81.674,-3.602,9.528,21.0
81.408,-3.572,9.046,14.0
83.192,-3.633,8.783,21.0
86.008,-3.76,11.525,23.0
82.31,-3.58,10.569,15.0
85.331,-3.693,10.481,20.0
81.721,-3.52,9.574,26.0
81.469,-3.491,9.092,15.0
81.522,-3.477,8.645,26.0
85.988,-3.67,11.564,26.0
86.149,-3.658,11.102,12.0
85.39,-3.607,10.527,10.0
81.878,-3.441,9.629,25.0
64.93,-2.715,7.274,8.0
81.413,-3.387,8.669,21.0
85.978,-3.577,11.6,31.0
82.661,-3.422,10.688,11.0
80.326,-3.308,9.936,14.0
81.629,-3.343,9.633,17.0
64.933,-2.646,7.3,9.0
81.424,-3.3,8.702,27.0
85.917,-3.483,11.625,21.0
83.639,-3.372,10.846,12.0
80.455,-3.225,9.982,23.0
81.028,-3.232,9.591,22.0
64.955,-2.576,7.326,30.0
79.534,-3.138,8.527,9.0
86.232,-3.4,11.697,1.0
0.0,0.0,0.0,0.0
80.7,-3.147,10.039,19.0
80.828,-3.135,9.593,29.0
64.986,-2.506,7.349,25.0
79.628,-3.054,8.561,10.0
81.99,-3.144,11.146,11.0
80.843,-3.081,10.534,24.0
81.165,-3.075,10.119,15.0
81.266,-3.061,9.667,19.0
65.049,-2.436,7.374,25.0
64.988,-2.42,7.003,35.0
80.338,-2.99,10.942,20.0
80.857,-2.992,10.555,28.0
81.137,-2.983,10.135,25.0
81.339,-2.974,9.694,13.0
65.005,-2.362,7.383,19.0
64.501,-2.329,6.965,39.0
80.266,-2.897,10.948,30.0
81.179,-2.911,10.614,18.0
77.191,-2.751,9.657,10.0
81.213,-2.877,9.694,10.0
64.975,-2.287,7.391,21.0
64.27,-2.249,6.95,32.0
80.129,-2.8,10.943,28.0
81.838,-2.842,10.712,19.0
77.238,-2.665,9.673,11.0
77.003,-2.64,9.202,16.0
65.066,-2.217,7.409,12.0
64.304,-2.177,6.961,27.0
79.435,-2.685,10.857,22.0
81.681,-2.742,10.7,17.0
81.203,-2.709,10.178,12.0
81.393,-2.698,9.733,14.0
79.201,-2.607,9.025,18.0
64.482,-2.11,6.985,34.0
79.408,-2.592,10.858,26.0
80.08,-2.596,10.495,10.0
81.402,-2.621,10.207,11.0
64.823,-2.073,7.755,11.0
79.297,-2.52,9.039,18.0
64.516,-2.036,6.991,32.0
81.44,-2.565,11.138,11.0
77.614,-2.426,10.173,9.0
76.817,-2.384,9.633,22.0
64.836,-1.999,7.756,11.0
65.233,-1.997,7.435,28.0
64.532,-1.962,6.991,29.0
81.619,-2.474,11.16,27.0
77.143,-2.321,10.109,11.0
76.885,-2.297,9.638,32.0
64.891,-1.925,7.76,7.0
65.349,-1.924,7.444,31.0
64.654,-1.89,7.001,34.0
81.24,-2.367,11.103,11.0
76.95,-2.225,10.077,27.0
77.365,-2.22,9.692,26.0
77.343,-2.203,9.241,34.0
65.345,-1.847,7.437,26.0
64.713,-1.816,7.0,32.0
79.341,-2.218,10.834,19.0
77.002,-2.136,10.075,25.0
77.517,-2.134,9.7,28.0
77.272,-2.11,9.222,25.0
65.24,-1.768,7.416,25.0
64.714,-1.74,6.99,31.0
79.553,-2.13,10.85,32.0
76.517,-2.033,9.998,23.0
82.02,-2.161,10.249,8.0
0.0,0.0,0.0,0.0
75.887,-1.967,8.611,16.0
64.677,-1.663,6.973,37.0
79.561,-2.035,10.834,16.0
76.248,-1.934,9.946,11.0
82.228,-2.07,10.256,9.0
77.484,-1.935,9.215,34.0
65.079,-1.611,7.369,16.0
64.498,-1.584,6.938,25.0
64.805,-1.582,8.808,17.0
76.911,-1.861,10.012,21.0
73.69,-1.768,9.171,17.0
0.0,0.0,0.0,0.0
65.218,-1.538,7.367,18.0
64.415,-1.506,6.91,31.0
64.388,-1.495,8.731,41.0
77.131,-1.775,10.017,11.0
73.659,-1.68,9.144,37.0
73.726,-1.666,8.723,19.0
65.391,-1.464,7.364,23.0
64.428,-1.43,6.889,29.0
64.39,-1.418,8.709,33.0
64.134,-1.4,8.306,7.0
73.842,-1.597,9.14,22.0
73.747,-1.58,8.699,17.0
65.321,-1.386,7.332,40.0
64.388,-1.353,6.86,28.0
64.676,-1.348,8.722,41.0
73.842,-1.525,9.533,13.0
74.096,-1.515,9.141,14.0
64.986,-1.316,7.638,21.0
65.057,-1.303,7.274,30.0
64.54,-1.28,6.848,15.0
64.247,-1.262,8.635,25.0
73.9,-1.438,9.507,30.0
74.242,-1.429,9.125,12.0
74.468,-1.419,8.717,24.0
64.929,-1.225,7.229,26.0
58.732,-1.096,6.204,18.0
64.053,-1.183,8.578,23.0
63.677,-1.164,8.16,24.0
73.93,-1.337,9.049,13.0
74.264,-1.328,8.656,2.0
64.9,-1.149,7.193,32.0
58.761,-1.029,6.176,25.0
64.024,-1.108,8.54,24.0
58.695,-1.005,7.49,22.0
59.744,-1.011,7.28,31.0
73.388,-1.228,8.513,10.0
64.965,-1.075,7.163,8.0
58.781,-0.961,6.145,25.0
64.192,-1.036,8.525,26.0
58.738,-0.937,7.461,22.0
59.873,-0.945,7.26,28.0
68.17,-1.062,7.867,18.0
57.352,-0.883,6.289,23.0
58.865,-0.896,6.118,24.0
12.291,-1.077,-0.524,0.0
11.484,-1.009,-0.554,0.0
10.84,-0.956,-0.583,0.0
0.0,0.0,0.0,0.0
9.715,-0.863,-0.632,0.0
9.295,-0.829,-0.656,0.0
12.281,-1.094,-0.522,0.0
11.504,-1.029,-0.553,0.0
10.877,-0.976,-0.583,0.0
0.0,0.0,0.0,0.0
0.0,0.0,0.0,0.0
9.267,-0.84,-0.653,0.0
12.236,-1.109,-0.519,0.0
11.545,-1.05,-0.553,0.0
10.854,-0.99,-0.58,0.0
0.0,0.0,0.0,0.0
0.0,0.0,0.0,0.0
9.335,-0.86,-0.656,0.0
12.314,-1.134,-0.519,0.0
11.603,-1.072,-0.554,0.0
10.907,-1.011,-0.581,0.0
0.0,0.0,0.0,0.0
0.0,0.0,0.0,0.0
9.288,-0.869,-0.65,0.0
12.266,-1.148,-0.514,0.0
11.572,-1.086,-0.549,0.0
10.931,-1.029,-0.579,0.0
0.0,0.0,0.0,0.0
0.0,0.0,0.0,0.0
9.307,-0.885,-0.649,0.0
12.327,-1.171,-0.514,0.0
11.621,-1.107,-0.548,0.0
10.937,-1.045,-0.577,0.0
0.0,0.0,0.0,0.0
0.0,0.0,0.0,0.0
9.247,-0.892,-0.642,0.0
12.406,-1.196,-0.513,0.0
11.642,-1.125,-0.546,0.0
10.958,-1.062,-0.574,0.0
10.384,-1.01,-0.603,0.0
0.0,0.0,0.0,0.0
9.317,-0.912,-0.644,0.0
12.378,-1.21,-0.508,0.0
11.699,-1.147,-0.544,0.0
10.929,-1.075,-0.569,0.0
0.0,0.0,0.0,0.0
0.0,0.0,0.0,0.0
9.462,-0.939,-0.65,0.0
12.519,-1.241,-0.509,0.0
11.722,-1.165,-0.541,0.0
11.141,-1.111,-0.575,0.0
10.522,-1.052,-0.602,0.0
9.863,-0.989,-0.619,0.0
0.0,0.0,0.0,0.0
12.571,-1.263,-0.506,0.0
11.809,-1.19,-0.54,0.0
11.119,-1.123,-0.569,0.0
10.45,-1.059,-0.594,0.0
9.968,-1.013,-0.621,0.0
9.461,-0.964,-0.642,0.0
12.574,-1.28,-0.5,0.0
11.828,-1.207,-0.535,0.0
11.153,-1.141,-0.566,0.0
10.432,-1.07,-0.588,0.0
9.92,-1.021,-0.613,0.0
0.0,0.0,0.0,0.0
12.681,-1.307,-0.498,0.0
11.879,-1.228,-0.532,0.0
11.276,-1.168,-0.567,0.0
10.508,-1.092,-0.587,0.0
0.0,0.0,0.0,0.0
0.0,0.0,0.0,0.0
12.869,-1.343,-0.499,0.0
11.96,-1.251,-0.529,0.0
11.251,-1.18,-0.559,0.0
0.0,0.0,0.0,0.0
10.107,-1.065,-0.614,0.0
9.637,-1.018,-0.639,0.0
12.951,-1.367,-0.495,0.0
12.113,-1.282,-0.529,0.0
11.362,-1.205,-0.558,0.0
10.653,-1.133,-0.583,0.0
10.109,-1.077,-0.609,0.0
9.624,-1.028,-0.632,0.0
13.026,-1.39,-0.49,0.0
12.184,-1.304,-0.525,0.0
11.457,-1.229,-0.556,0.0
10.762,-1.157,-0.582,0.0
10.151,-1.094,-0.605,0.0
9.666,-1.044,-0.629,0.0
13.083,-1.412,-0.484,0.0
12.234,-1.323,-0.519,0.0
11.582,-1.255,-0.555,0.0
10.827,-1.176,-0.579,0.0
10.34,-1.126,-0.61,0.0
9.686,-1.057,-0.624,0.0
22.238,-2.752,-0.098,4.0
22.109,-2.735,-0.215,3.0
19.071,-2.358,-0.288,0.0
16.964,-2.097,-0.348,0.0
15.577,-1.924,-0.403,0.0
14.258,-1.761,-0.445,0.0
22.218,-2.743,-0.072,9.0
22.234,-2.744,-0.191,3.0
19.532,-2.409,-0.272,0.0
17.387,-2.144,-0.337,0.0
15.776,-1.944,-0.39,0.0
14.509,-1.787,-0.436,0.0
22.234,-2.738,-0.046,11.0
22.213,-2.734,-0.165,5.0
19.976,-2.457,-0.255,0.0
17.709,-2.177,-0.322,0.0
16.151,-1.984,-0.38,0.0
14.782,-1.815,-0.427,0.0
22.208,-2.727,-0.021,11.0
22.2,-2.724,-0.139,8.0
22.211,-2.723,-0.258,0.0
18.164,-2.226,-0.31,0.0
16.526,-2.024,-0.37,0.0
15.039,-1.841,-0.417,0.0
22.205,-2.717,0.004,13.0
22.208,-2.715,-0.114,14.0
22.178,-2.71,-0.232,1.0
18.613,-2.272,-0.296,0.0
16.881,-2.06,-0.359,0.0
15.277,-1.862,-0.406,0.0
22.186,-2.705,0.029,15.0
22.209,-2.705,-0.088,18.0
22.195,-2.701,-0.207,2.0
19.317,-2.349,-0.285,0.0
17.137,-2.082,-0.345,0.0
15.67,-1.902,-0.399,0.0
22.174,-2.692,0.055,17.0
22.202,-2.693,-0.063,19.0
22.156,-2.685,-0.181,5.0
19.653,-2.379,-0.268,0.0
17.557,-2.124,-0.333,0.0
15.914,-1.923,-0.387,0.0
22.167,-2.679,0.08,19.0
22.196,-2.68,-0.038,19.0
22.173,-2.674,-0.156,5.0
20.0,-2.409,-0.25,0.0
17.874,-2.151,-0.319,0.0
16.305,-1.961,-0.378,0.0
22.154,-2.664,0.105,20.0
22.197,-2.666,-0.013,18.0
22.384,-2.686,-0.133,14.0
22.17,-2.657,-0.252,1.0
18.365,-2.199,-0.307,0.0
16.558,-1.98,-0.366,0.0
22.145,-2.649,0.129,20.0
22.178,-2.649,0.011,18.0
22.427,-2.676,-0.108,24.0
22.355,-2.664,-0.23,6.0
18.965,-2.258,-0.296,0.0
16.975,-2.019,-0.356,0.0
22.139,-2.633,0.154,20.0
22.185,-2.635,0.035,16.0
22.438,-2.661,-0.084,12.0
22.374,-2.651,-0.205,9.0
19.326,-2.287,-0.281,0.0
17.228,-2.036,-0.343,0.0
22.123,-2.615,0.177,20.0
22.179,-2.618,0.059,16.0
22.42,-2.642,-0.059,11.0
22.394,-2.636,-0.181,5.0
19.807,-2.328,-0.266,0.0
17.647,-2.072,-0.332,0.0
22.132,-2.599,0.202,19.0
22.177,-2.6,0.083,14.0
26.21,-3.068,-0.041,1.0
22.528,-2.634,-0.158,3.0
20.225,-2.361,-0.25,0.0
17.906,-2.087,-0.318,0.0
22.138,-2.581,0.225,16.0
22.186,-2.583,0.107,9.0
26.246,-3.051,-0.013,3.0
22.569,-2.619,-0.134,8.0
21.033,-2.437,-0.238,0.0
18.428,-2.132,-0.307,0.0
22.156,-2.564,0.249,18.0
26.862,-3.104,0.158,4.0
26.337,-3.038,0.014,3.0
22.592,-2.602,-0.111,4.0
22.188,-2.551,-0.228,1.0
18.908,-2.171,-0.295,0.0
22.159,-2.544,0.272,7.0
27.168,-3.114,0.188,4.0
26.437,-3.025,0.041,3.0
23.321,-2.664,-0.09,1.0
22.351,-2.549,-0.206,4.0
19.344,-2.202,-0.282,0.0
31.742,-3.614,0.423,0.0
27.842,-3.164,0.221,1.0
23.6,-2.677,0.061,11.0
23.606,-2.673,-0.067,20.0
22.386,-2.531,-0.184,3.0
23.605,-2.664,-0.321,0.0
34.39,-3.882,0.492,0.0
29.027,-3.27,0.26,1.0
23.624,-2.656,0.084,47.0
23.63,-2.652,-0.044,152.0
23.255,-2.605,-0.168,5.0
23.61,-2.64,-0.297,18.0
0.0,0.0,0.0,0.0
29.579,-3.302,0.294,8.0
23.632,-2.633,0.107,15.0
23.579,-2.622,-0.021,168.0
23.577,-2.616,-0.148,31.0
23.626,-2.617,-0.275,27.0
0.0,0.0,0.0,0.0
29.426,-3.253,0.32,8.0
27.322,-3.014,0.151,2.0
23.585,-2.596,0.001,160.0
23.598,-2.593,-0.125,35.0
23.613,-2.589,-0.252,0.0
37.578,-4.122,0.647,0.0
29.55,-3.234,0.35,0.0
27.589,-3.013,0.178,3.0
23.614,-2.573,0.022,18.0
23.642,-2.571,-0.103,4.0
22.269,-2.416,-0.217,3.0
37.039,-4.02,0.672,1.0
37.431,-4.053,0.477,0.0
27.891,-3.013,0.206,1.0
27.492,-2.963,0.052,5.0
25.45,-2.737,-0.088,0.0
22.314,-2.395,-0.197,4.0
36.503,-3.918,0.695,12.0
37.437,-4.009,0.511,0.0
28.272,-3.02,0.233,0.0
27.818,-2.965,0.077,3.0
25.996,-2.764,-0.067,1.0
22.357,-2.372,-0.178,2.0
34.884,-3.702,0.695,0.0
34.438,-3.645,0.5,0.0
34.539,-3.647,0.315,0.0
29.221,-3.078,0.106,8.0
25.902,-2.722,-0.045,0.0
23.171,-2.429,-0.165,0.0
34.25,-3.591,0.712,0.0
34.33,-3.59,0.528,0.0
34.393,-3.587,0.343,0.0
30.153,-3.137,0.135,8.0
27.294,-2.833,-0.024,1.0
23.523,-2.435,-0.148,0.0
34.075,-3.529,0.736,1.0
34.187,-3.531,0.554,2.0
34.525,-3.556,0.373,0.0
30.794,-3.164,0.163,0.0
34.02,-3.486,-0.002,2.0
34.007,-3.475,-0.186,1.0
33.956,-3.471,0.761,2.0
34.034,-3.469,0.579,0.0
34.466,-3.503,0.4,0.0
31.562,-3.199,0.193,0.0
34.016,-3.438,0.024,2.0
33.988,-3.426,-0.159,5.0
33.887,-3.417,0.786,2.0
33.942,-3.413,0.604,0.0
34.428,-3.451,0.426,0.0
31.769,-3.176,0.219,2.0
28.668,-2.858,0.042,0.0
33.984,-3.378,-0.133,1.0
33.887,-3.369,0.812,3.0
33.8,-3.35,0.627,0.0
34.582,-3.418,0.454,2.0
32.481,-3.2,0.248,0.0
28.782,-2.828,0.064,0.0
25.549,-2.503,-0.081,0.0
33.84,-3.315,0.836,5.0
33.838,-3.305,0.652,0.0
34.616,-3.37,0.479,5.0
0.0,0.0,0.0,0.0
29.059,-2.812,0.085,1.0
25.811,-2.49,-0.064,0.0
33.821,-3.263,0.859,7.0
33.827,-3.253,0.676,0.0
34.589,-3.316,0.503,3.0
33.664,-3.217,0.304,0.0
29.578,-2.817,0.106,0.0
26.072,-2.476,-0.046,0.0
33.813,-3.211,0.882,18.0
33.788,-3.198,0.697,0.0
34.216,-3.228,0.521,1.0
33.958,-3.193,0.329,0.0
29.885,-2.801,0.127,0.0
26.584,-2.483,-0.03,0.0
33.813,-3.159,0.903,27.0
33.811,-3.148,0.72,124.0
34.065,-3.16,0.54,2.0
0.0,0.0,0.0,0.0
30.371,-2.799,0.148,0.0
27.14,-2.493,-0.014,0.0
33.804,-3.105,0.924,45.0
33.812,-3.095,0.74,9.0
34.008,-3.102,0.559,1.0
0.0,0.0,0.0,0.0
30.729,-2.783,0.168,0.0
27.479,-2.48,0.001,0.0
33.807,-3.05,0.944,78.0
33.812,-3.04,0.76,0.0
33.923,-3.039,0.577,0.0
35.71,-3.187,0.41,0.0
31.202,-2.775,0.188,0.0
27.626,-2.448,0.016,0.0
33.81,-2.995,0.962,110.0
33.806,-2.984,0.778,1.0
33.813,-2.973,0.594,1.0
0.0,0.0,0.0,0.0
31.428,-2.743,0.206,0.0
27.981,-2.433,0.031,0.0
33.804,-2.939,0.979,138.0
33.801,-2.927,0.795,4.0
33.772,-2.914,0.61,2.0
34.505,-2.966,0.431,0.0
31.818,-2.724,0.224,0.0
28.416,-2.423,0.045,0.0
33.808,-2.883,0.996,145.0
33.814,-2.872,0.811,46.0
33.796,-2.859,0.626,44.0
34.392,-2.898,0.446,1.0
32.397,-2.719,0.243,1.0
33.863,-2.831,0.069,2.0
33.812,-2.825,1.011,150.0
33.84,-2.816,0.827,151.0
33.823,-2.803,0.642,152.0
34.385,-2.838,0.461,1.0
32.659,-2.684,0.259,0.0
33.886,-2.774,0.084,1.0
33.815,-2.767,1.025,146.0
33.83,-2.756,0.84,73.0
33.82,-2.744,0.655,151.0
34.364,-2.776,0.474,3.0
0.0,0.0,0.0,0.0
29.071,-2.328,0.083,0.0
33.813,-2.707,1.038,138.0
33.805,-2.694,0.852,43.0
33.832,-2.685,0.668,155.0
34.339,-2.713,0.486,4.0
32.81,-2.581,0.285,0.0
33.897,-2.655,0.109,0.0
33.828,-2.648,1.05,127.0
33.809,-2.634,0.864,35.0
33.836,-2.624,0.679,156.0
34.319,-2.65,0.497,4.0
33.507,-2.575,0.302,0.0
33.933,-2.596,0.12,0.0
33.833,-2.587,1.061,112.0
33.832,-2.575,0.875,44.0
33.852,-2.564,0.69,157.0
34.303,-2.586,0.507,6.0
35.381,-2.655,0.329,0.0
33.913,-2.533,0.129,0.0
33.839,-2.525,1.07,99.0
33.84,-2.513,0.884,42.0
33.862,-2.502,0.699,158.0
34.3,-2.523,0.516,5.0
35.32,-2.585,0.337,0.0
29.662,-2.161,0.12,0.0
33.85,-2.463,1.079,83.0
33.839,-2.451,0.892,41.0
33.868,-2.44,0.707,160.0
34.26,-2.456,0.523,4.0
35.256,-2.515,0.344,1.0
29.794,-2.115,0.127,0.0
33.864,-2.401,1.086,70.0
33.852,-2.388,0.899,39.0
33.878,-2.378,0.713,55.0
34.274,-2.393,0.529,2.0
34.597,-2.404,0.344,2.0
29.986,-2.072,0.133,0.0
33.865,-2.338,1.091,54.0
33.864,-2.325,0.905,32.0
33.822,-2.31,0.717,0.0
34.301,-2.33,0.535,2.0
34.189,-2.31,0.345,1.0
29.932,-2.012,0.137,0.0
33.89,-2.274,1.097,40.0
33.904,-2.263,0.91,25.0
0.0,0.0,0.0,0.0
34.345,-2.267,0.539,1.0
33.812,-2.22,0.344,0.0
30.147,-1.969,0.141,0.0
33.917,-2.211,1.1,37.0
33.929,-2.2,0.913,18.0
33.933,-2.187,0.726,0.0
34.292,-2.198,0.541,2.0
35.389,-2.255,0.363,0.0
30.219,-1.915,0.143,0.0
33.943,-2.148,1.103,25.0
33.966,-2.137,0.916,10.0
33.902,-2.12,0.727,0.0
34.352,-2.136,0.543,4.0
35.239,-2.178,0.362,0.0
28.612,-1.758,0.136,1.0
33.97,-2.084,1.104,6.0
33.998,-2.072,0.917,7.0
33.929,-2.055,0.727,0.0
34.408,-2.072,0.544,6.0
34.877,-2.088,0.358,2.0
0.0,0.0,0.0,0.0
34.066,-2.023,1.107,22.0
34.041,-2.009,0.917,5.0
0.0,0.0,0.0,0.0
34.313,-1.999,0.541,1.0
34.6,-2.003,0.354,0.0
0.0,0.0,0.0,0.0
34.147,-1.96,1.107,152.0
34.096,-1.944,0.916,3.0
0.0,0.0,0.0,0.0
34.43,-1.938,0.54,1.0
34.614,-1.935,0.351,0.0
28.633,-1.59,0.131,1.0
34.17,-1.893,1.104,173.0
34.14,-1.879,0.914,2.0
34.094,-1.863,0.723,0.0
34.558,-1.876,0.537,1.0
34.661,-1.869,0.347,0.0
28.595,-1.531,0.127,0.0
34.253,-1.829,1.102,1.0
34.375,-1.823,0.915,0.0
34.532,-1.818,0.727,0.0
0.0,0.0,0.0,0.0
33.829,-1.757,0.333,0.0
28.581,-1.474,0.122,0.0
0.0,0.0,0.0,0.0
0.0,0.0,0.0,0.0
0.0,0.0,0.0,0.0
0.0,0.0,0.0,0.0
33.919,-1.693,0.327,0.0
28.619,-1.418,0.116,0.0
0.0,0.0,0.0,0.0
0.0,0.0,0.0,0.0
0.0,0.0,0.0,0.0
0.0,0.0,0.0,0.0
33.5,-1.605,0.314,0.0
28.6,-1.36,0.109,0.0
95.292,-4.517,3.003,1.0
0.0,0.0,0.0,0.0
0.0,0.0,0.0,0.0
39.117,-1.81,0.574,0.0
33.406,-1.534,0.304,0.0
28.569,-1.302,0.101,1.0
0.0,0.0,0.0,0.0
0.0,0.0,0.0,0.0
0.0,0.0,0.0,0.0
0.0,0.0,0.0,0.0
33.232,-1.46,0.292,0.0
28.599,-1.245,0.092,6.0
0.0,0.0,0.0,0.0
0.0,0.0,0.0,0.0
0.0,0.0,0.0,0.0
38.896,-1.645,0.545,0.0
0.0,0.0,0.0,0.0
28.592,-1.188,0.081,6.0
0.0,0.0,0.0,0.0
0.0,0.0,0.0,0.0
0.0,0.0,0.0,0.0
0.0,0.0,0.0,0.0
32.414,-1.293,0.26,0.0
28.598,-1.131,0.07,6.0
0.0,0.0,0.0,0.0
0.0,0.0,0.0,0.0
0.0,0.0,0.0,0.0
0.0,0.0,0.0,0.0
32.363,-1.225,0.246,0.0
28.555,-1.071,0.057,5.0
0.0,0.0,0.0,0.0
0.0,0.0,0.0,0.0
0.0,0.0,0.0,0.0
37.011,-1.341,0.471,0.0
31.47,-1.128,0.224,0.0
28.344,-1.006,0.043,1.0
0.0,0.0,0.0,0.0
0.0,0.0,0.0,0.0
0.0,0.0,0.0,0.0
0.0,0.0,0.0,0.0
31.287,-1.059,0.207,0.0
27.775,-0.93,0.028,0.0
0.0,0.0,0.0,0.0
0.0,0.0,0.0,0.0
0.0,0.0,0.0,0.0
35.944,-1.157,0.419,0.0
31.089,-0.99,0.188,0.0
27.471,-0.865,0.012,0.0
0.0,0.0,0.0,0.0
0.0,0.0,0.0,0.0
43.128,-1.317,0.725,0.0
0.0,0.0,0.0,0.0
30.482,-0.909,0.166,0.0
26.978,-0.795,-0.003,0.0
0.0,0.0,0.0,0.0
0.0,0.0,0.0,0.0
0.0,0.0,0.0,0.0
34.182,-0.963,0.357,0.0
28.799,-0.801,0.139,1.0
26.609,-0.731,-0.02,0.0
0.0,0.0,0.0,0.0
0.0,0.0,0.0,0.0
0.0,0.0,0.0,0.0
33.323,-0.873,0.327,0.0
28.72,-0.742,0.12,5.0
26.195,-0.668,-0.037,0.0
0.0,0.0,0.0,0.0
0.0,0.0,0.0,0.0
0.0,0.0,0.0,0.0
33.336,-0.806,0.303,1.0
28.705,-0.685,0.099,10.0
25.906,-0.609,-0.055,0.0
0.0,0.0,0.0,0.0
0.0,0.0,0.0,0.0
0.0,0.0,0.0,0.0
33.113,-0.735,0.277,1.0
28.673,-0.627,0.078,7.0
25.025,-0.539,-0.072,0.0
0.0,0.0,0.0,0.0
0.0,0.0,0.0,0.0
0.0,0.0,0.0,0.0
32.357,-0.655,0.246,1.0
28.576,-0.568,0.056,4.0
24.92,-0.488,-0.091,0.0
59.444,-1.147,1.417,0.0
0.0,0.0,0.0,0.0
37.536,-0.698,0.47,0.0
31.526,-0.576,0.214,0.0
27.74,-0.497,0.031,0.0
24.749,-0.435,-0.111,0.0
0.0,0.0,0.0,0.0
0.0,0.0,0.0,0.0
0.0,0.0,0.0,0.0
0.0,0.0,0.0,0.0
27.188,-0.434,0.008,0.0
23.771,-0.372,-0.127,0.0
0.0,0.0,0.0,0.0
0.0,0.0,0.0,0.0
34.058,-0.501,0.369,0.0
28.724,-0.413,0.145,0.0
26.649,-0.374,-0.015,0.0
23.336,-0.32,-0.145,1.0
0.0,0.0,0.0,0.0
0.0,0.0,0.0,0.0
33.826,-0.432,0.335,1.0
28.707,-0.357,0.119,0.0
26.171,-0.317,-0.039,0.0
23.086,-0.272,-0.165,1.0
0.0,0.0,0.0,0.0
0.0,0.0,0.0,0.0
32.766,-0.356,0.294,1.0
28.705,-0.302,0.092,1.0
25.536,-0.261,-0.062,0.0
22.586,-0.223,-0.183,0.0
0.0,0.0,0.0,0.0
0.0,0.0,0.0,0.0
32.256,-0.288,0.257,1.0
28.596,-0.247,0.063,4.0
25.064,-0.208,-0.086,0.0
22.145,-0.176,-0.202,0.0
0.0,0.0,0.0,0.0
37.318,-0.274,0.471,0.0
31.525,-0.222,0.219,1.0
27.727,-0.186,0.033,0.0
24.516,-0.157,-0.11,0.0
21.756,-0.132,-0.221,1.0
0.0,0.0,0.0,0.0
35.78,-0.196,0.415,0.0
30.697,-0.158,0.181,0.0
26.807,-0.13,0.003,0.0
23.961,-0.108,-0.132,0.0
20.807,-0.087,-0.233,0.0
40.765,-0.159,0.66,0.0
33.194,-0.119,0.348,0.0
28.862,-0.095,0.139,3.0
26.355,-0.078,-0.025,0.0
23.554,-0.063,-0.156,0.0
20.202,-0.047,-0.249,0.0
40.394,-0.083,0.609,0.0
33.239,-0.058,0.312,0.0
28.768,-0.042,0.106,1.0
25.736,-0.029,-0.053,0.0
22.853,-0.019,-0.177,0.0
19.636,-0.01,-0.264,0.0
0.0,0.0,0.0,0.0
33.153,0.002,0.273,0.0
28.585,0.01,0.072,1.0
25.136,0.017,-0.081,0.0
21.883,0.021,-0.195,1.0
18.962,0.024,-0.277,0.0
0.0,0.0,0.0,0.0
31.603,0.059,0.223,0.0
27.734,0.06,0.038,0.0
24.5,0.06,-0.108,0.0
21.327,0.059,-0.216,4.0
18.494,0.056,-0.292,0.0
35.904,0.12,0.415,0.0
30.14,0.109,0.177,0.0
27.033,0.106,0.004,0.0
23.807,0.1,-0.134,0.0
20.835,0.094,-0.236,1.0
18.048,0.086,-0.307,0.0
33.883,0.173,0.35,0.0
28.886,0.156,0.133,0.0
26.284,0.149,-0.028,0.0
22.97,0.137,-0.157,0.0
20.135,0.126,-0.253,0.0
17.587,0.115,-0.321,0.0
33.128,0.227,0.3,0.0
28.797,0.205,0.096,5.0
25.67,0.19,-0.06,0.0
22.348,0.172,-0.182,2.0
19.333,0.154,-0.268,0.0
17.155,0.142,-0.336,0.0
32.241,0.277,0.25,0.0
28.532,0.253,0.058,1.0
24.895,0.228,-0.091,0.0
21.881,0.206,-0.207,3.0
18.779,0.182,-0.285,0.0
16.826,0.168,-0.352,0.0
28.992,0.298,0.186,0.0
27.238,0.288,0.019,0.0
24.006,0.26,-0.12,0.0
21.082,0.234,-0.228,0.0
18.234,0.208,-0.301,0.0
16.49,0.192,-0.367,0.0
28.904,0.346,0.146,3.0
26.335,0.322,-0.017,0.0
23.484,0.294,-0.149,0.0
20.194,0.258,-0.245,0.0
17.726,0.231,-0.317,0.0
16.185,0.215,-0.382,0.0
28.845,0.392,0.106,4.0
25.777,0.357,-0.052,0.0
22.656,0.32,-0.175,0.0
19.578,0.282,-0.265,0.0
17.214,0.252,-0.332,0.0
15.798,0.235,-0.395,0.0
28.518,0.433,0.065,1.0
24.977,0.386,-0.085,0.0
22.034,0.346,-0.201,0.0
18.807,0.3,-0.281,0.0
16.874,0.274,-0.349,0.0
15.517,0.256,-0.41,0.0
27.085,0.455,0.023,0.0
24.025,0.409,-0.116,0.0
21.088,0.364,-0.222,0.0
18.27,0.32,-0.299,0.0
16.519,0.294,-0.365,0.0
15.228,0.275,-0.424,0.0
26.419,0.484,-0.014,0.0
23.379,0.434,-0.147,0.0
20.222,0.381,-0.243,0.0
17.706,0.338,-0.316,0.0
16.142,0.312,-0.381,0.0
14.821,0.29,-0.434,0.0
25.516,0.507,-0.051,0.0
22.445,0.451,-0.174,0.0
19.586,0.398,-0.264,0.0
17.213,0.354,-0.333,0.0
15.792,0.329,-0.396,0.0
14.461,0.305,-0.445,0.0
24.772,0.529,-0.087,0.0
21.82,0.471,-0.202,0.0
18.731,0.409,-0.281,0.0
16.806,0.371,-0.35,0.0
15.421,0.344,-0.41,0.0
14.113,0.318,-0.456,0.0
23.898,0.545,-0.12,0.0
20.862,0.481,-0.225,0.0
18.193,0.423,-0.3,0.0
16.51,0.388,-0.369,0.0
15.075,0.358,-0.423,0.0
13.914,0.333,-0.471,0.0
23.239,0.563,-0.153,0.0
20.074,0.491,-0.247,0.0
17.633,0.435,-0.318,0.0
16.023,0.399,-0.383,0.0
14.769,0.371,-0.438,0.0
13.631,0.346,-0.482,0.0
22.237,0.57,-0.18,0.0
19.221,0.496,-0.266,0.0
17.085,0.445,-0.335,0.0
15.64,0.411,-0.398,0.0
14.382,0.381,-0.449,0.0
13.349,0.357,-0.493,0.0
21.631,0.584,-0.21,0.0
18.491,0.503,-0.285,0.0
16.719,0.459,-0.354,0.0
15.294,0.423,-0.414,0.0
14.081,0.392,-0.462,0.0
13.087,0.368,-0.505,0.0
20.387,0.577,-0.23,1.0
18.011,0.514,-0.307,0.0
16.322,0.469,-0.372,0.0
14.842,0.43,-0.425,0.0
13.823,0.403,-0.475,0.0
12.857,0.378,-0.516,0.0
19.666,0.582,-0.254,0.0
17.297,0.516,-0.323,0.0
15.904,0.477,-0.388,0.0
14.6,0.441,-0.442,0.0
13.493,0.411,-0.486,0.0
12.626,0.387,-0.528,0.0
18.949,0.585,-0.275,0.0
16.964,0.527,-0.344,0.0
15.568,0.487,-0.405,0.0
14.232,0.448,-0.454,0.0
13.252,0.42,-0.499,0.0
12.445,0.397,-0.54,0.0
18.207,0.585,-0.295,0.0
16.526,0.534,-0.362,0.0
15.079,0.49,-0.417,0.0
13.962,0.456,-0.468,0.0
12.944,0.426,-0.509,0.0
12.142,0.402,-0.547,0.0
17.651,0.588,-0.315,0.0
16.088,0.539,-0.38,0.0
14.731,0.496,-0.432,0.0
13.622,0.461,-0.48,0.0
12.758,0.435,-0.523,0.0
11.911,0.408,-0.557,0.0
17.088,0.589,-0.333,0.0
15.702,0.544,-0.397,0.0
14.452,0.503,-0.449,0.0
13.343,0.467,-0.493,0.0
12.484,0.439,-0.533,0.0
11.722,0.415,-0.568,0.0
16.647,0.592,-0.353,0.0
15.388,0.55,-0.415,0.0
14.044,0.505,-0.46,0.0
13.074,0.472,-0.505,0.0
12.305,0.447,-0.546,0.0
11.507,0.42,-0.577,0.0
16.22,0.595,-0.372,0.0
14.889,0.548,-0.427,0.0
13.778,0.51,-0.475,0.0
12.807,0.476,-0.516,0.0
12.026,0.449,-0.554,0.0
11.324,0.425,-0.588,0.0
15.826,0.597,-0.39,0.0
14.564,0.551,-0.443,0.0
13.463,0.512,-0.487,0.0
12.578,0.481,-0.529,0.0
11.812,0.453,-0.565,0.0
11.128,0.429,-0.597,0.0
15.53,0.601,-0.409,0.0
14.209,0.552,-0.456,0.0
13.167,0.514,-0.499,0.0
12.357,0.484,-0.541,0.0
11.572,0.456,-0.573,0.0
10.871,0.43,-0.602,0.0
15.095,0.599,-0.424,0.0
13.871,0.553,-0.47,0.0
12.934,0.517,-0.513,0.0
12.097,0.486,-0.551,0.0
11.335,0.457,-0.581,0.0
10.574,0.428,-0.604,0.0
14.633,0.594,-0.436,0.0
13.554,0.552,-0.482,0.0
12.634,0.517,-0.523,0.0
11.889,0.488,-0.562,0.0
11.085,0.457,-0.588,0.0
10.5,0.435,-0.618,0.0
14.256,0.591,-0.45,0.0
13.249,0.552,-0.495,0.0
12.39,0.518,-0.534,0.0
11.625,0.488,-0.57,0.0
10.944,0.461,-0.6,0.0
10.341,0.437,-0.627,0.0
14.025,0.594,-0.467,0.0
13.022,0.553,-0.509,0.0
12.212,0.521,-0.548,0.0
11.437,0.489,-0.58,0.0
10.736,0.461,-0.607,0.0
10.156,0.438,-0.633,0.0
13.562,0.585,-0.476,0.0
12.725,0.551,-0.52,0.0
11.97,0.52,-0.558,0.0
11.192,0.488,-0.588,0.0
10.527,0.46,-0.614,0.0
10.04,0.44,-0.644,0.0
13.343,0.586,-0.492,0.0
12.468,0.549,-0.531,0.0
11.731,0.518,-0.568,0.0
10.996,0.488,-0.597,0.0
10.375,0.461,-0.624,0.0
9.846,0.439,-0.649,0.0
13.075,0.584,-0.505,0.0
12.262,0.549,-0.544,0.0
11.448,0.514,-0.574,0.0
10.736,0.484,-0.602,0.0
10.272,0.464,-0.636,0.0
9.697,0.439,-0.656,0.0
12.768,0.579,-0.515,0.0
12.006,0.546,-0.554,0.0
11.263,0.514,-0.585,0.0
10.612,0.485,-0.614,0.0
10.088,0.463,-0.642,0.0
9.537,0.439,-0.662,0.0
12.54,0.577,-0.528,0.0
11.818,0.545,-0.566,0.0
11.058,0.511,-0.594,0.0
10.455,0.485,-0.623,0.0
0.0,0.0,0.0,0.0
0.0,0.0,0.0,0.0
12.341,0.575,-0.542,0.0
11.533,0.539,-0.573,0.0
10.767,0.504,-0.597,0.0
10.246,0.481,-0.629,0.0
9.668,0.455,-0.65,0.0
0.0,0.0,0.0,0.0
12.071,0.57,-0.552,0.0
11.308,0.535,-0.582,0.0
10.641,0.504,-0.609,0.0
0.0,0.0,0.0,0.0
0.0,0.0,0.0,0.0
0.0,0.0,0.0,0.0
11.837,0.565,-0.562,0.0
11.076,0.53,-0.59,0.0
10.462,0.501,-0.618,0.0
0.0,0.0,0.0,0.0
0.0,0.0,0.0,0.0
0.0,0.0,0.0,0.0
11.579,0.558,-0.57,0.0
10.834,0.523,-0.596,0.0
10.304,0.499,-0.627,0.0
0.0,0.0,0.0,0.0
0.0,0.0,0.0,0.0
8.75,0.426,-0.686,0.0
11.349,0.552,-0.579,0.0
10.625,0.518,-0.603,0.0
0.0,0.0,0.0,0.0
0.0,0.0,0.0,0.0
0.0,0.0,0.0,0.0
8.647,0.425,-0.693,0.0
11.192,0.549,-0.59,0.0
10.462,0.514,-0.612,0.0
0.0,0.0,0.0,0.0
0.0,0.0,0.0,0.0
0.0,0.0,0.0,0.0
8.555,0.423,-0.7,0.0
10.913,0.539,-0.595,0.0
10.298,0.51,-0.621,0.0
0.0,0.0,0.0,0.0
0.0,0.0,0.0,0.0
0.0,0.0,0.0,0.0
8.455,0.421,-0.707,0.0
10.659,0.53,-0.599,0.0
10.144,0.505,-0.629,0.0
0.0,0.0,0.0,0.0
0.0,0.0,0.0,0.0
0.0,0.0,0.0,0.0
0.0,0.0,0.0,0.0
10.552,0.528,-0.611,0.0
10.036,0.503,-0.64,0.0
0.0,0.0,0.0,0.0
0.0,0.0,0.0,0.0
8.582,0.432,-0.697,0.0
0.0,0.0,0.0,0.0
10.397,0.523,-0.62,0.0
9.833,0.495,-0.643,0.0
0.0,0.0,0.0,0.0
0.0,0.0,0.0,0.0
0.0,0.0,0.0,0.0
0.0,0.0,0.0,0.0
10.238,0.517,-0.628,0.0
0.0,0.0,0.0,0.0
0.0,0.0,0.0,0.0
0.0,0.0,0.0,0.0
0.0,0.0,0.0,0.0
0.0,0.0,0.0,0.0
0.0,0.0,0.0,0.0
0.0,0.0,0.0,0.0
0.0,0.0,0.0,0.0
0.0,0.0,0.0,0.0
0.0,0.0,0.0,0.0
0.0,0.0,0.0,0.0
0.0,0.0,0.0,0.0
0.0,0.0,0.0,0.0
0.0,0.0,0.0,0.0
0.0,0.0,0.0,0.0
0.0,0.0,0.0,0.0
0.0,0.0,0.0,0.0
0.0,0.0,0.0,0.0
0.0,0.0,0.0,0.0
0.0,0.0,0.0,0.0
0.0,0.0,0.0,0.0
0.0,0.0,0.0,0.0
0.0,0.0,0.0,0.0
0.0,0.0,0.0,0.0
0.0,0.0,0.0,0.0
0.0,0.0,0.0,0.0
0.0,0.0,0.0,0.0
0.0,0.0,0.0,0.0
0.0,0.0,0.0,0.0
0.0,0.0,0.0,0.0
0.0,0.0,0.0,0.0
0.0,0.0,0.0,0.0
0.0,0.0,0.0,0.0
0.0,0.0,0.0,0.0
7.526,0.384,-0.744,0.0
0.0,0.0,0.0,0.0
0.0,0.0,0.0,0.0
0.0,0.0,0.0,0.0
0.0,0.0,0.0,0.0
0.0,0.0,0.0,0.0
7.448,0.379,-0.748,0.0
0.0,0.0,0.0,0.0
0.0,0.0,0.0,0.0
0.0,0.0,0.0,0.0
0.0,0.0,0.0,0.0
0.0,0.0,0.0,0.0
7.338,0.373,-0.749,0.0
0.0,0.0,0.0,0.0
0.0,0.0,0.0,0.0
0.0,0.0,0.0,0.0
0.0,0.0,0.0,0.0
0.0,0.0,0.0,0.0
7.247,0.367,-0.751,0.0
0.0,0.0,0.0,0.0
0.0,0.0,0.0,0.0
0.0,0.0,0.0,0.0
0.0,0.0,0.0,0.0
7.469,0.377,-0.742,0.0
7.157,0.361,-0.753,0.0
0.0,0.0,0.0,0.0
0.0,0.0,0.0,0.0
0.0,0.0,0.0,0.0
0.0,0.0,0.0,0.0
7.448,0.374,-0.752,0.0
7.093,0.357,-0.757,0.0
0.0,0.0,0.0,0.0
0.0,0.0,0.0,0.0
0.0,0.0,0.0,0.0
0.0,0.0,0.0,0.0
7.305,0.365,-0.748,0.0
0.0,0.0,0.0,0.0
0.0,0.0,0.0,0.0
0.0,0.0,0.0,0.0
0.0,0.0,0.0,0.0
0.0,0.0,0.0,0.0
7.212,0.359,-0.749,0.0
0.0,0.0,0.0,0.0
0.0,0.0,0.0,0.0
0.0,0.0,0.0,0.0
0.0,0.0,0.0,0.0
7.468,0.369,-0.743,0.0
7.161,0.354,-0.754,0.0
0.0,0.0,0.0,0.0
0.0,0.0,0.0,0.0
0.0,0.0,0.0,0.0
0.0,0.0,0.0,0.0
7.427,0.364,-0.75,0.0
0.0,0.0,0.0,0.0
0.0,0.0,0.0,0.0
0.0,0.0,0.0,0.0
0.0,0.0,0.0,0.0
0.0,0.0,0.0,0.0
7.278,0.354,-0.745,0.0
0.0,0.0,0.0,0.0
0.0,0.0,0.0,0.0
0.0,0.0,0.0,0.0
0.0,0.0,0.0,0.0
0.0,0.0,0.0,0.0
7.265,0.35,-0.754,0.0
0.0,0.0,0.0,0.0
0.0,0.0,0.0,0.0
0.0,0.0,0.0,0.0
0.0,0.0,0.0,0.0
7.468,0.357,-0.741,0.0
0.0,0.0,0.0,0.0
0.0,0.0,0.0,0.0
0.0,0.0,0.0,0.0
0.0,0.0,0.0,0.0
0.0,0.0,0.0,0.0
7.431,0.351,-0.747,0.0
0.0,0.0,0.0,0.0
0.0,0.0,0.0,0.0
0.0,0.0,0.0,0.0
0.0,0.0,0.0,0.0
0.0,0.0,0.0,0.0
7.3,0.341,-0.743,0.0
0.0,0.0,0.0,0.0
0.0,0.0,0.0,0.0
0.0,0.0,0.0,0.0
0.0,0.0,0.0,0.0
0.0,0.0,0.0,0.0
7.263,0.336,-0.748,0.0
0.0,0.0,0.0,0.0
0.0,0.0,0.0,0.0
0.0,0.0,0.0,0.0
0.0,0.0,0.0,0.0
7.482,0.342,-0.737,0.0
7.188,0.328,-0.75,0.0
0.0,0.0,0.0,0.0
0.0,0.0,0.0,0.0
0.0,0.0,0.0,0.0
0.0,0.0,0.0,0.0
7.43,0.335,-0.741,0.0
7.116,0.32,-0.75,0.0
0.0,0.0,0.0,0.0
0.0,0.0,0.0,0.0
0.0,0.0,0.0,0.0
0.0,0.0,0.0,0.0
7.411,0.329,-0.747,0.0
0.0,0.0,0.0,0.0
0.0,0.0,0.0,0.0
0.0,0.0,0.0,0.0
0.0,0.0,0.0,0.0
0.0,0.0,0.0,0.0
7.289,0.319,-0.743,0.0
0.0,0.0,0.0,0.0
0.0,0.0,0.0,0.0
0.0,0.0,0.0,0.0
0.0,0.0,0.0,0.0
0.0,0.0,0.0,0.0
7.277,0.313,-0.75,0.0
0.0,0.0,0.0,0.0
0.0,0.0,0.0,0.0
0.0,0.0,0.0,0.0
0.0,0.0,0.0,0.0
7.518,0.319,-0.74,0.0
7.212,0.305,-0.751,0.0
0.0,0.0,0.0,0.0
0.0,0.0,0.0,0.0
0.0,0.0,0.0,0.0
0.0,0.0,0.0,0.0
7.437,0.31,-0.739,0.0
7.198,0.299,-0.757,0.0
0.0,0.0,0.0,0.0
0.0,0.0,0.0,0.0
0.0,0.0,0.0,0.0
0.0,0.0,0.0,0.0
7.375,0.301,-0.74,0.0
7.113,0.29,-0.755,0.0
0.0,0.0,0.0,0.0
0.0,0.0,0.0,0.0
0.0,0.0,0.0,0.0
0.0,0.0,0.0,0.0
7.35,0.294,-0.745,0.0
0.0,0.0,0.0,0.0
6.823,0.272,-0.77,0.0
0.0,0.0,0.0,0.0
0.0,0.0,0.0,0.0
0.0,0.0,0.0,0.0
7.297,0.286,-0.746,0.0
0.0,0.0,0.0,0.0
0.0,0.0,0.0,0.0
