X,Y,Z,Reflectivity
59.862,-0.446,6.827,32.0
57.34,-0.417,6.222,31.0
57.088,-0.405,5.885,31.0
67.927,-0.469,6.635,14.0
57.21,-0.395,7.213,32.0
59.612,-0.4,7.19,9.0
59.657,-0.39,6.87,32.0
57.335,-0.363,6.284,30.0
57.38,-0.354,5.977,30.0
56.703,-0.339,5.599,23.0
57.673,-0.344,7.334,33.0
57.263,-0.33,6.968,22.0
59.667,-0.332,6.935,29.0
57.386,-0.309,6.35,22.0
57.386,-0.298,6.038,30.0
56.753,-0.284,5.663,25.0
58.228,-0.29,7.465,28.0
57.256,-0.275,7.026,31.0
59.673,-0.275,6.996,13.0
66.472,-0.295,7.422,11.0
57.446,-0.244,6.101,30.0
56.953,-0.231,5.739,30.0
58.409,-0.234,7.546,27.0
57.228,-0.219,7.078,31.0
57.272,-0.208,6.77,11.0
59.824,-0.206,6.738,7.0
57.445,-0.187,6.156,23.0
56.842,-0.174,5.781,26.0
58.491,-0.177,7.612,24.0
57.417,-0.162,7.156,31.0
57.27,-0.15,6.823,23.0
56.412,-0.137,6.406,18.0
57.512,-0.129,6.216,30.0
56.85,-0.116,5.834,27.0
58.575,-0.116,7.677,22.0
48.996,-0.088,6.151,20.0
57.304,-0.092,6.878,31.0
59.924,-0.084,6.857,20.0
57.54,-0.07,6.269,27.0
56.832,-0.058,5.881,24.0
51.724,-0.05,6.824,7.0
58.319,-0.045,7.372,10.0
57.406,-0.033,6.939,30.0
59.798,-0.023,6.894,9.0
56.646,-0.01,6.219,29.0
56.979,0.0,5.943,23.0
51.323,0.004,6.814,15.0
49.033,0.014,6.238,16.0
57.474,0.027,6.994,24.0
57.332,0.038,6.655,18.0
56.465,0.049,6.244,29.0
57.169,0.061,6.008,31.0
51.242,0.058,6.843,7.0
62.758,0.084,8.032,19.0
57.327,0.088,7.02,17.0
57.396,0.099,6.706,25.0
56.511,0.109,6.291,24.0
57.364,0.122,6.07,31.0
48.507,0.108,6.514,17.0
49.125,0.119,6.323,3.0
57.594,0.15,7.094,31.0
57.526,0.161,6.761,29.0
56.581,0.17,6.338,28.0
56.919,0.183,6.062,31.0
48.535,0.16,6.551,26.0
48.632,0.17,6.293,6.0
58.313,0.216,7.222,32.0
57.497,0.224,6.796,27.0
56.641,0.232,6.382,27.0
56.835,0.244,6.09,30.0
48.544,0.214,6.583,22.0
51.478,0.237,6.694,5.0
58.384,0.281,7.268,12.0
57.565,0.288,6.841,15.0
56.934,0.297,6.45,20.0
57.018,0.309,6.145,31.0
51.561,0.285,7.024,15.0
48.738,0.28,6.368,23.0
48.968,0.291,6.125,23.0
60.355,0.37,7.207,24.0
56.884,0.36,6.477,30.0
56.951,0.372,6.17,30.0
51.592,0.344,7.057,28.0
48.688,0.334,6.388,22.0
48.613,0.343,6.107,22.0
59.997,0.435,7.196,35.0
48.882,0.364,5.591,13.0
56.807,0.434,6.183,26.0
51.629,0.402,7.089,25.0
48.695,0.389,6.413,22.0
48.39,0.396,6.103,22.0
59.318,0.497,7.144,33.0
57.691,0.495,6.627,13.0
56.999,0.5,6.231,15.0
51.868,0.463,7.146,13.0
48.874,0.446,6.459,31.0
48.39,0.451,6.124,22.0
49.3,0.469,5.959,20.0
57.776,0.561,6.661,11.0
57.119,0.566,6.268,31.0
49.429,0.498,6.831,20.0
49.143,0.504,6.515,23.0
48.527,0.508,6.161,27.0
59.168,0.63,7.175,19.0
52.628,0.57,6.088,6.0
57.05,0.63,6.282,16.0
49.455,0.555,6.853,20.0
47.343,0.54,6.294,22.0
48.545,0.563,6.181,22.0
49.318,0.582,5.998,22.0
48.868,0.586,5.67,22.0
57.071,0.695,6.303,31.0
51.75,0.641,7.188,8.0
47.38,0.595,6.314,15.0
48.62,0.62,6.206,26.0
49.303,0.639,6.011,21.0
48.747,0.641,5.67,24.0
49.926,0.665,5.528,12.0
51.736,0.7,7.201,22.0
47.481,0.652,6.34,21.0
49.005,0.681,6.268,23.0
48.935,0.69,5.979,29.0
48.754,0.697,5.683,31.0
56.667,0.82,6.288,9.0
51.655,0.759,7.202,5.0
47.586,0.708,6.365,22.0
49.6,0.748,6.354,24.0
48.927,0.746,5.988,35.0
48.745,0.752,5.692,19.0
50.15,0.784,5.575,36.0
51.537,0.817,7.195,22.0
47.844,0.767,6.408,22.0
0.0,0.0,0.0,0.0
48.911,0.803,5.994,39.0
48.841,0.81,5.71,20.0
50.186,0.842,5.586,20.0
51.622,0.879,7.214,26.0
47.788,0.822,6.407,22.0
49.016,0.851,6.294,23.0
48.885,0.859,5.996,31.0
50.023,0.887,5.854,24.0
50.23,0.9,5.596,26.0
54.021,0.982,7.555,5.0
47.735,0.876,6.404,22.0
0.0,0.0,0.0,0.0
48.952,0.916,6.008,23.0
0.0,0.0,0.0,0.0
50.235,0.958,5.599,33.0
52.235,1.01,7.307,20.0
47.902,0.934,6.428,22.0
51.091,1.006,6.566,4.0
48.906,0.971,6.004,30.0
0.0,0.0,0.0,0.0
50.138,1.013,5.589,36.0
53.985,1.106,7.552,10.0
0.0,0.0,0.0,0.0
45.79,0.954,5.884,17.0
49.097,1.031,6.026,32.0
50.296,1.065,5.889,27.0
50.067,1.069,5.579,24.0
53.967,1.167,7.547,6.0
47.888,1.043,6.424,4.0
45.802,1.006,5.883,19.0
49.135,1.088,6.027,5.0
50.349,1.124,5.891,17.0
49.946,1.123,5.561,24.0
50.373,1.147,7.04,5.0
47.707,1.094,6.394,21.0
45.815,1.059,5.88,16.0
45.355,1.056,5.558,26.0
50.379,1.182,5.888,13.0
49.737,1.175,5.532,22.0
50.359,1.204,7.031,12.0
47.654,1.147,6.38,10.0
45.719,1.108,5.86,20.0
45.307,1.105,5.545,19.0
50.337,1.237,5.875,19.0
49.758,1.231,5.525,24.0
50.437,1.263,7.032,7.0
47.453,1.196,6.344,8.0
45.406,1.152,5.811,19.0
45.296,1.156,5.534,18.0
45.743,1.175,5.329,28.0
49.736,1.285,5.512,22.0
57.104,1.494,7.948,6.0
47.646,1.253,6.359,22.0
45.285,1.198,5.785,25.0
45.398,1.209,5.535,30.0
45.538,1.22,5.293,27.0
45.832,1.235,5.067,6.0
47.276,1.289,6.567,6.0
47.579,1.305,6.336,15.0
45.224,1.247,5.763,20.0
45.367,1.258,5.518,26.0
45.503,1.269,5.275,31.0
46.163,1.295,5.089,15.0
47.529,1.348,6.587,20.0
44.193,1.26,5.87,19.0
44.033,1.263,5.597,18.0
45.37,1.308,5.502,31.0
45.624,1.322,5.273,18.0
48.829,1.422,5.366,6.0
43.854,1.292,6.061,30.0
44.192,1.308,5.854,32.0
44.174,1.314,5.598,18.0
45.396,1.357,5.488,31.0
45.606,1.37,5.253,17.0
48.541,1.465,5.315,4.0
43.911,1.34,6.051,38.0
44.145,1.354,5.829,18.0
43.976,1.355,5.554,15.0
45.464,1.407,5.477,20.0
45.745,1.423,5.249,16.0
48.534,1.517,5.292,30.0
44.023,1.39,6.046,24.0
43.832,1.39,5.767,26.0
0.0,0.0,0.0,0.0
45.488,1.456,5.458,34.0
45.715,1.469,5.223,16.0
46.16,1.49,5.011,17.0
44.264,1.444,6.056,19.0
43.78,1.435,5.738,34.0
45.769,1.505,5.735,20.0
45.477,1.502,5.432,23.0
45.827,1.52,5.212,28.0
46.253,1.54,4.996,33.0
43.961,1.48,5.991,35.0
43.764,1.479,5.711,38.0
45.56,1.545,5.683,20.0
45.68,1.555,5.431,20.0
45.806,1.565,5.183,19.0
50.12,1.72,5.385,17.0
45.808,2.184,5.529,28.0
48.153,2.298,5.531,14.0
56.754,2.711,6.189,30.0
50.535,2.416,5.212,29.0
49.637,2.375,4.832,18.0
49.428,2.368,4.526,31.0
45.799,2.21,5.471,39.0
48.143,2.325,5.47,26.0
50.606,2.446,5.455,24.0
56.299,2.723,5.736,12.0
49.717,2.407,4.777,19.0
49.328,2.391,4.455,27.0
45.895,2.239,5.424,24.0
47.913,2.34,5.382,22.0
0.0,0.0,0.0,0.0
49.663,2.428,4.996,14.0
49.665,2.43,4.709,26.0
49.273,2.413,4.386,36.0
48.124,2.373,5.624,8.0
47.872,2.361,5.315,22.0
0.0,0.0,0.0,0.0
49.665,2.453,4.931,20.0
49.534,2.448,4.631,28.0
49.292,2.438,4.323,25.0
47.778,2.378,5.519,23.0
50.595,2.52,5.549,5.0
50.208,2.502,5.214,24.0
49.725,2.479,4.87,35.0
49.479,2.468,4.559,27.0
63.232,3.155,5.46,10.0
47.465,2.384,5.418,21.0
49.16,2.47,5.325,23.0
50.203,2.523,5.145,24.0
49.73,2.5,4.802,27.0
49.377,2.483,4.482,32.0
58.559,2.946,4.976,15.0
47.886,2.425,5.399,23.0
48.863,2.475,5.224,22.0
49.649,2.515,5.019,18.0
49.614,2.513,4.722,23.0
49.334,2.5,4.409,25.0
65.749,3.333,5.496,14.0
48.337,2.465,5.381,28.0
49.229,2.511,5.193,23.0
49.671,2.534,4.951,20.0
49.645,2.533,4.654,23.0
49.252,2.513,4.332,16.0
65.732,3.355,5.401,18.0
48.613,2.495,5.342,21.0
49.648,2.548,5.166,24.0
49.785,2.555,4.89,10.0
49.565,2.544,4.575,22.0
58.557,3.006,5.065,18.0
58.402,2.999,4.713,13.0
48.763,2.518,5.286,23.0
49.857,2.573,5.114,23.0
49.653,2.563,4.803,7.0
49.564,2.558,4.501,20.0
58.555,3.022,4.978,24.0
58.286,3.008,4.618,25.0
48.997,2.542,5.239,20.0
49.756,2.581,5.029,20.0
49.631,2.574,4.727,18.0
58.5,3.033,5.226,19.0
65.65,3.404,5.483,16.0
58.223,3.018,4.525,35.0
49.129,2.56,5.177,30.0
49.901,2.599,4.967,13.0
49.575,2.581,4.646,20.0
58.54,3.048,5.139,27.0
58.475,3.043,4.794,5.0
58.243,3.031,4.438,16.0
49.533,2.59,5.143,24.0
49.851,2.606,4.886,18.0
49.594,2.591,4.571,13.0
58.539,3.057,5.05,32.0
58.392,3.048,4.698,12.0
64.722,3.378,4.832,26.0
49.785,2.611,5.091,23.0
49.662,2.602,4.789,23.0
49.477,2.591,4.483,5.0
58.528,3.064,4.956,33.0
58.231,3.047,4.593,22.0
64.593,3.379,4.72,21.0
49.924,2.623,5.026,24.0
49.597,2.604,4.704,19.0
58.564,3.073,5.213,8.0
58.531,3.069,4.863,24.0
58.239,3.052,4.5,41.0
80.71,4.228,5.77,33.0
49.968,2.628,4.95,24.0
49.557,2.605,4.62,12.0
58.541,3.075,5.117,22.0
66.435,3.487,5.414,10.0
58.262,3.056,4.409,12.0
80.651,4.228,5.636,29.0
49.76,2.619,4.848,18.0
74.994,3.944,6.87,11.0
58.525,3.075,5.02,38.0
58.298,3.06,4.655,9.0
64.712,3.395,4.792,29.0
68.085,3.569,4.647,15.0
49.632,2.611,4.754,20.0
48.981,2.574,4.406,12.0
58.526,3.074,4.925,36.0
58.233,3.055,4.555,32.0
80.784,4.236,5.851,18.0
80.561,4.22,5.367,23.0
49.597,2.607,4.669,13.0
58.549,3.074,5.17,17.0
58.556,3.071,4.829,14.0
58.24,3.051,4.458,25.0
80.645,4.222,5.705,39.0
80.808,4.226,5.248,33.0
49.587,2.601,4.584,7.0
58.543,3.068,5.071,30.0
58.405,3.057,4.719,10.0
64.712,3.384,4.845,22.0
80.598,4.21,5.567,29.0
81.361,4.246,5.148,25.0
49.539,2.592,4.497,6.0
58.536,3.059,4.972,31.0
58.23,3.04,4.607,26.0
64.509,3.363,4.722,19.0
80.6,4.197,5.432,27.0
82.323,4.283,5.071,22.0
58.56,3.054,5.216,19.0
58.546,3.049,4.873,8.0
58.232,3.028,4.508,32.0
80.434,4.178,5.75,35.0
80.7,4.187,5.302,30.0
80.938,4.193,4.848,20.0
58.562,3.041,5.116,25.0
58.425,3.03,4.764,12.0
64.775,3.354,4.904,17.0
80.578,4.166,5.624,38.0
81.353,4.201,5.205,29.0
80.956,4.175,4.711,33.0
58.568,3.027,5.015,21.0
58.304,3.008,4.652,28.0
64.461,3.321,4.769,28.0
80.84,4.158,5.503,24.0
81.824,4.202,5.095,22.0
80.963,4.152,4.572,33.0
65.694,3.375,5.511,24.0
58.195,2.985,4.543,29.0
64.88,3.322,4.687,9.0
67.963,3.474,4.508,20.0
81.637,4.166,4.941,18.0
80.84,4.119,4.425,38.0
65.801,3.358,5.405,13.0
64.165,3.268,4.897,17.0
80.348,4.086,5.665,30.0
81.457,4.134,5.261,22.0
81.346,4.121,4.783,32.0
81.16,4.105,4.302,40.0
58.25,2.95,4.683,13.0
64.412,3.256,4.803,16.0
80.61,4.067,5.543,22.0
81.606,4.11,5.13,22.0
81.293,4.086,4.639,33.0
81.351,4.082,4.172,29.0
58.171,2.922,4.576,21.0
64.773,3.246,4.718,21.0
81.271,4.065,5.447,11.0
81.557,4.071,4.984,31.0
81.492,4.06,4.507,29.0
81.068,4.031,4.014,19.0
64.134,3.191,4.93,13.0
64.989,3.226,4.618,33.0
81.631,4.043,5.325,14.0
81.462,4.027,4.834,36.0
81.548,4.022,4.366,32.0
80.749,3.974,3.855,0.0
80.395,3.959,6.038,14.0
65.024,3.195,4.505,30.0
81.456,3.993,5.171,33.0
81.464,3.984,4.69,29.0
81.192,3.962,4.205,36.0
0.0,0.0,0.0,0.0
75.944,3.698,5.569,9.0
65.067,3.16,4.394,39.0
81.482,3.948,5.029,42.0
81.508,3.94,4.549,25.0
80.859,3.899,4.045,31.0
0.0,0.0,0.0,0.0
80.382,3.867,5.753,29.0
65.104,3.123,4.281,29.0
81.456,3.898,4.883,39.0
81.251,3.878,4.392,31.0
80.711,3.843,3.895,5.0
0.0,0.0,0.0,0.0
80.755,3.834,5.637,36.0
81.403,3.854,5.208,31.0
81.38,3.842,4.735,34.0
81.076,3.818,4.24,42.0
0.0,0.0,0.0,0.0
0.0,0.0,0.0,0.0
65.884,3.083,4.482,13.0
81.444,3.801,5.069,41.0
81.275,3.782,4.587,34.0
80.981,3.758,4.093,36.0
48.977,2.266,2.192,0.0
48.185,2.223,1.878,1.0
65.443,3.017,4.338,40.0
81.564,3.748,4.934,29.0
81.313,3.726,4.447,38.0
80.953,3.698,3.951,10.0
48.746,2.22,2.097,7.0
47.867,2.174,1.783,3.0
65.311,2.962,4.216,23.0
81.332,3.677,4.778,12.0
81.255,3.661,4.302,35.0
49.163,2.208,2.313,1.0
48.605,2.176,2.005,8.0
47.799,2.133,1.696,4.0
65.428,2.915,4.107,27.0
65.553,2.911,3.734,22.0
81.208,3.594,4.156,33.0
0.0,0.0,0.0,0.0
48.514,2.132,1.916,2.0
47.839,2.096,1.613,3.0
65.46,2.862,3.994,27.0
65.551,2.855,3.619,33.0
65.606,2.847,3.242,21.0
0.0,0.0,0.0,0.0
48.469,2.089,1.83,2.0
48.212,2.071,1.542,5.0
65.472,2.806,3.88,27.0
65.561,2.799,3.506,43.0
65.579,2.788,3.127,16.0
48.698,2.063,2.035,9.0
48.431,2.044,1.744,2.0
48.315,2.031,1.461,11.0
65.5,2.747,3.768,31.0
65.543,2.738,3.391,58.0
50.43,2.099,2.318,0.0
48.638,2.016,1.949,14.0
48.576,2.005,1.666,3.0
48.514,1.994,1.384,4.0
65.533,2.687,3.657,60.0
65.557,2.676,3.278,59.0
0.0,0.0,0.0,0.0
49.004,1.983,1.878,1.0
48.771,1.966,1.588,3.0
48.885,1.962,1.31,2.0
65.571,2.623,3.546,36.0
65.602,2.613,3.168,38.0
0.0,0.0,0.0,0.0
49.226,1.943,1.803,1.0
49.047,1.927,1.513,2.0
49.178,1.924,1.233,2.0
81.172,3.164,4.249,26.0
65.632,2.545,3.056,7.0
50.184,1.937,2.046,1.0
49.422,1.899,1.725,3.0
49.45,1.891,1.44,2.0
49.587,1.887,1.158,0.0
81.293,3.081,4.116,32.0
81.168,3.061,3.641,4.0
50.133,1.881,1.959,1.0
49.692,1.855,1.65,3.0
49.765,1.849,1.365,2.0
50.408,1.864,1.093,0.0
81.24,2.99,3.977,32.0
56.221,2.058,2.427,1.0
50.316,1.832,1.881,2.0
50.072,1.813,1.578,2.0
50.14,1.806,1.291,1.0
50.704,1.817,1.014,1.0
81.352,2.901,3.844,32.0
0.0,0.0,0.0,0.0
50.447,1.779,1.801,3.0
50.34,1.765,1.502,3.0
50.512,1.761,1.216,1.0
48.45,1.679,0.887,3.0
81.358,2.806,3.709,6.0
51.025,1.749,2.031,0.0
50.726,1.728,1.727,3.0
50.824,1.721,1.432,0.0
0.0,0.0,0.0,0.0
0.0,0.0,0.0,0.0
0.0,0.0,0.0,0.0
0.0,0.0,0.0,0.0
51.163,1.679,1.656,9.0
54.065,1.764,1.434,83.0
54.957,1.781,1.141,0.0
0.0,0.0,0.0,0.0
0.0,0.0,0.0,0.0
0.0,0.0,0.0,0.0
54.151,1.71,1.665,2.0
54.225,1.7,1.35,6.0
55.212,1.72,1.057,1.0
37.929,1.173,0.508,0.0
0.0,0.0,0.0,0.0
0.0,0.0,0.0,0.0
54.112,1.639,1.577,8.0
54.293,1.632,1.264,0.0
45.748,1.365,0.802,1.0
35.445,1.05,0.418,0.0
0.0,0.0,0.0,0.0
54.146,1.58,1.803,0.0
54.073,1.566,1.489,16.0
56.073,1.611,1.216,5.0
0.0,0.0,0.0,0.0
33.962,0.96,0.346,0.0
0.0,0.0,0.0,0.0
54.211,1.508,1.719,1.0
54.079,1.492,1.404,2.0
56.461,1.544,1.135,3.0
38.743,1.051,0.556,0.0
32.683,0.879,0.281,0.0
0.0,0.0,0.0,0.0
54.064,1.429,1.63,2.0
54.231,1.42,1.323,1.0
0.0,0.0,0.0,0.0
36.738,0.945,0.471,0.0
31.457,0.802,0.222,0.0
54.377,1.373,1.868,1.0
54.08,1.352,1.547,1.0
57.564,1.426,1.316,1.0
47.718,1.17,0.812,0.0
0.0,0.0,0.0,0.0
29.011,0.697,0.16,0.0
54.391,1.294,1.785,6.0
54.273,1.277,1.469,1.0
57.815,1.346,1.233,6.0
40.871,0.942,0.633,0.0
0.0,0.0,0.0,0.0
28.836,0.651,0.116,1.0
54.256,1.21,1.7,0.0
0.0,0.0,0.0,0.0
0.0,0.0,0.0,0.0
37.381,0.806,0.524,0.0
32.266,0.688,0.267,0.0
28.715,0.605,0.073,1.0
54.414,1.131,1.624,0.0
0.0,0.0,0.0,0.0
0.0,0.0,0.0,0.0
36.723,0.736,0.461,0.0
31.199,0.617,0.212,0.0
27.364,0.534,0.029,0.0
0.0,0.0,0.0,0.0
0.0,0.0,0.0,0.0
0.0,0.0,0.0,0.0
34.866,0.645,0.387,0.0
28.953,0.528,0.155,0.0
26.478,0.476,-0.008,0.0
54.907,0.971,1.481,1.0
0.0,0.0,0.0,0.0
0.0,0.0,0.0,0.0
34.187,0.578,0.331,1.0
28.805,0.479,0.114,1.0
25.819,0.423,-0.045,0.0
55.481,0.893,1.418,0.0
0.0,0.0,0.0,0.0
0.0,0.0,0.0,0.0
32.379,0.495,0.268,0.0
28.69,0.431,0.074,1.0
25.066,0.37,-0.078,0.0
0.0,0.0,0.0,0.0
0.0,0.0,0.0,0.0
36.089,0.502,0.459,0.0
0.0,0.0,0.0,0.0
27.425,0.366,0.032,0.0
24.272,0.318,-0.109,0.0
57.581,0.737,1.314,1.0
0.0,0.0,0.0,0.0
35.503,0.435,0.404,0.0
28.929,0.346,0.161,4.0
26.581,0.311,-0.003,0.0
23.522,0.268,-0.137,0.0
0.0,0.0,0.0,0.0
0.0,0.0,0.0,0.0
0.0,0.0,0.0,0.0
28.836,0.297,0.123,5.0
26.007,0.26,-0.037,0.0
22.614,0.22,-0.161,0.0
0.0,0.0,0.0,0.0
38.845,0.355,0.562,0.0
32.7,0.289,0.287,0.0
28.727,0.246,0.085,4.0
25.253,0.209,-0.068,0.0
22.245,0.178,-0.187,3.0
0.0,0.0,0.0,0.0
36.746,0.272,0.486,0.0
0.0,0.0,0.0,0.0
27.566,0.188,0.047,0.0
24.672,0.161,-0.098,0.0
21.52,0.134,-0.208,3.0
0.0,0.0,0.0,0.0
35.999,0.203,0.431,0.0
0.0,0.0,0.0,0.0
26.999,0.137,0.013,0.0
23.71,0.113,-0.123,0.0
21.0,0.094,-0.228,2.0
41.645,0.174,0.686,0.0
0.0,0.0,0.0,0.0
28.854,0.103,0.147,0.0
26.312,0.086,-0.018,0.0
23.284,0.07,-0.148,1.0
20.232,0.054,-0.244,0.0
0.0,0.0,0.0,0.0
0.0,0.0,0.0,0.0
28.735,0.052,0.113,1.0
25.644,0.038,-0.047,0.0
22.408,0.026,-0.169,0.0
19.537,0.017,-0.258,0.0
0.0,0.0,0.0,0.0
33.122,0.009,0.281,0.0
28.461,0.0,0.079,1.0
25.161,-0.007,-0.075,0.0
21.765,-0.013,-0.188,1.0
18.948,-0.017,-0.272,0.0
0.0,0.0,0.0,0.0
31.445,-0.048,0.231,0.0
27.795,-0.051,0.047,0.0
24.246,-0.052,-0.099,0.0
21.291,-0.053,-0.208,0.0
18.398,-0.051,-0.284,0.0
36.014,-0.112,0.43,0.0
28.876,-0.099,0.181,0.0
27.139,-0.101,0.016,0.0
23.917,-0.097,-0.123,0.0
20.836,-0.091,-0.226,0.0
18.047,-0.084,-0.298,0.0
0.0,0.0,0.0,0.0
28.827,-0.152,0.151,4.0
26.461,-0.148,-0.011,0.0
23.162,-0.137,-0.143,0.0
20.208,-0.126,-0.24,0.0
17.679,-0.116,-0.31,0.0
32.769,-0.225,0.324,0.0
28.769,-0.206,0.121,7.0
25.75,-0.193,-0.037,0.0
22.66,-0.177,-0.163,0.0
19.621,-0.16,-0.252,0.0
17.36,-0.147,-0.322,0.0
32.437,-0.284,0.289,2.0
28.682,-0.261,0.093,5.0
25.289,-0.238,-0.061,0.0
22.349,-0.218,-0.182,1.0
19.162,-0.193,-0.265,0.0
17.03,-0.177,-0.332,0.0
32.089,-0.343,0.255,1.0
28.222,-0.311,0.064,1.0
24.944,-0.283,-0.083,0.0
21.883,-0.256,-0.199,0.0
18.813,-0.226,-0.278,0.0
16.809,-0.207,-0.343,0.0
31.02,-0.392,0.218,0.0
27.587,-0.358,0.038,0.0
24.403,-0.325,-0.104,0.0
21.313,-0.29,-0.213,0.0
18.354,-0.256,-0.287,0.0
16.655,-0.238,-0.355,0.0
0.0,0.0,0.0,0.0
27.026,-0.403,0.013,0.0
23.73,-0.362,-0.121,1.0
20.739,-0.324,-0.225,0.0
18.107,-0.289,-0.299,0.0
16.457,-0.268,-0.365,0.0
28.709,-0.476,0.152,0.0
26.465,-0.447,-0.008,0.0
23.584,-0.406,-0.14,0.0
19.992,-0.351,-0.234,0.0
17.816,-0.319,-0.309,0.0
16.231,-0.296,-0.373,0.0
28.727,-0.532,0.129,5.0
26.205,-0.494,-0.029,0.0
23.029,-0.442,-0.155,0.0
19.695,-0.385,-0.246,0.0
17.462,-0.347,-0.316,0.0
16.066,-0.325,-0.382,0.0
28.681,-0.589,0.107,6.0
25.455,-0.531,-0.048,0.0
22.628,-0.48,-0.17,0.0
19.434,-0.419,-0.257,0.0
17.204,-0.376,-0.325,0.0
15.927,-0.354,-0.39,0.0
28.628,-0.644,0.086,5.0
25.336,-0.579,-0.066,0.0
22.154,-0.514,-0.182,0.0
19.186,-0.451,-0.268,0.0
17.05,-0.407,-0.334,0.0
15.689,-0.38,-0.395,0.0
28.436,-0.696,0.065,2.0
24.861,-0.617,-0.082,0.0
22.134,-0.557,-0.197,0.0
18.789,-0.48,-0.275,0.0
16.858,-0.436,-0.341,0.0
15.631,-0.41,-0.404,0.0
27.728,-0.734,0.046,0.0
23.77,-0.638,-0.094,0.0
21.073,-0.573,-0.201,1.0
18.384,-0.506,-0.281,0.0
16.724,-0.466,-0.349,0.0
15.294,-0.432,-0.405,0.0
27.423,-0.781,0.028,0.0
23.679,-0.683,-0.108,0.0
21.039,-0.614,-0.214,1.0
18.194,-0.537,-0.289,0.0
16.594,-0.496,-0.356,0.0
15.151,-0.458,-0.41,0.0
27.162,-0.829,0.012,0.0
23.683,-0.731,-0.121,0.0
20.978,-0.654,-0.225,1.0
18.032,-0.569,-0.296,0.0
16.499,-0.527,-0.364,0.0
15.036,-0.485,-0.416,0.0
26.712,-0.868,-0.001,0.0
23.534,-0.774,-0.133,0.0
20.884,-0.694,-0.235,0.0
17.894,-0.601,-0.303,0.0
16.361,-0.555,-0.369,0.0
14.855,-0.509,-0.418,0.0
0.0,0.0,0.0,0.0
23.094,-0.806,-0.142,0.0
20.295,-0.716,-0.239,0.0
17.73,-0.631,-0.309,0.0
16.15,-0.581,-0.372,0.0
14.793,-0.538,-0.424,0.0
25.979,-0.95,-0.027,0.0
22.991,-0.849,-0.152,0.0
19.762,-0.737,-0.241,0.0
17.581,-0.662,-0.315,0.0
16.053,-0.61,-0.377,0.0
14.694,-0.564,-0.427,0.0
0.0,0.0,0.0,0.0
22.832,-0.889,-0.161,1.0
19.558,-0.769,-0.247,0.0
17.375,-0.689,-0.318,0.0
15.997,-0.64,-0.382,0.0
14.657,-0.592,-0.432,0.0
25.826,-1.049,-0.048,1.0
22.585,-0.925,-0.168,2.0
19.445,-0.803,-0.253,0.0
17.303,-0.721,-0.323,0.0
15.937,-0.67,-0.387,0.0
14.569,-0.618,-0.435,0.0
25.821,-1.1,-0.057,1.0
22.367,-0.961,-0.174,1.0
19.313,-0.837,-0.258,0.0
17.264,-0.754,-0.328,0.0
15.79,-0.696,-0.388,0.0
14.493,-0.644,-0.437,0.0
25.825,-1.153,-0.065,0.0
22.41,-1.008,-0.181,1.0
19.186,-0.87,-0.262,0.0
17.175,-0.785,-0.332,0.0
15.755,-0.726,-0.392,0.0
14.398,-0.669,-0.439,0.0
25.143,-1.173,-0.07,0.0
22.217,-1.044,-0.185,0.0
19.099,-0.905,-0.266,0.0
17.095,-0.816,-0.335,0.0
15.685,-0.755,-0.394,0.0
14.364,-0.696,-0.441,0.0
25.01,-1.217,-0.076,0.0
22.1,-1.083,-0.19,1.0
19.021,-0.939,-0.269,0.0
17.039,-0.848,-0.337,0.0
15.622,-0.783,-0.396,0.0
14.306,-0.722,-0.442,0.0
24.989,-1.266,-0.08,0.0
22.162,-1.131,-0.194,1.0
18.968,-0.975,-0.272,0.0
16.983,-0.879,-0.339,0.0
15.627,-0.814,-0.399,0.0
14.242,-0.747,-0.443,0.0
0.0,0.0,0.0,0.0
22.106,-1.172,-0.197,0.0
18.879,-1.008,-0.273,0.0
16.964,-0.912,-0.341,0.0
15.576,-0.843,-0.4,0.0
14.209,-0.774,-0.443,0.0
34.235,-1.871,-0.12,6.0
34.234,-1.883,-0.309,1.0
34.206,-1.894,-0.499,1.0
16.959,-0.945,-0.343,0.0
34.265,-1.922,-0.883,0.0
14.209,-0.802,-0.445,0.0
34.18,-1.935,-0.123,1.0
22.009,-1.254,-0.201,0.0
18.909,-1.084,-0.277,0.0
16.926,-0.977,-0.343,0.0
15.389,-0.894,-0.397,0.0
14.17,-0.828,-0.444,0.0
24.317,-1.424,-0.088,0.0
21.92,-1.292,-0.201,0.0
18.852,-1.118,-0.277,0.0
16.896,-1.008,-0.343,0.0
15.435,-0.927,-0.399,0.0
14.188,-0.857,-0.445,0.0
24.292,-1.47,-0.088,0.0
21.954,-1.337,-0.201,0.0
18.789,-1.151,-0.276,0.0
16.97,-1.045,-0.344,0.0
15.495,-0.96,-0.4,0.0
14.221,-0.887,-0.446,0.0
24.752,-1.546,-0.089,0.0
21.426,-1.346,-0.195,2.0
18.693,-1.181,-0.273,0.0
16.946,-1.077,-0.343,0.0
15.525,-0.992,-0.4,0.0
14.181,-0.912,-0.444,0.0
0.0,0.0,0.0,0.0
21.976,-1.423,-0.198,0.0
18.821,-1.225,-0.274,0.0
16.953,-1.11,-0.342,0.0
15.599,-1.027,-0.4,0.0
14.205,-0.941,-0.443,0.0
24.813,-1.646,-0.085,0.0
22.168,-1.478,-0.198,0.0
18.849,-1.263,-0.272,0.0
16.973,-1.144,-0.34,0.0
15.527,-1.052,-0.396,0.0
14.266,-0.972,-0.443,0.0
25.249,-1.723,-0.082,0.0
22.137,-1.518,-0.194,0.0
18.992,-1.309,-0.271,0.0
17.032,-1.18,-0.338,0.0
15.61,-1.087,-0.396,0.0
14.272,-0.999,-0.441,0.0
33.894,-2.376,-0.105,6.0
33.895,-2.388,-0.291,1.0
19.088,-1.352,-0.269,0.0
17.025,-1.212,-0.335,0.0
15.66,-1.12,-0.394,0.0
14.338,-1.031,-0.44,0.0
33.922,-2.441,-0.098,22.0
33.909,-2.453,-0.284,3.0
19.199,-1.395,-0.266,0.0
17.176,-1.254,-0.334,0.0
15.672,-1.15,-0.391,0.0
14.391,-1.061,-0.437,0.0
33.905,-2.503,-0.089,27.0
33.893,-2.514,-0.274,14.0
19.367,-1.443,-0.263,0.0
17.203,-1.288,-0.329,0.0
15.687,-1.18,-0.386,0.0
14.488,-1.095,-0.436,0.0
33.895,-2.564,-0.079,5.0
33.894,-2.576,-0.264,6.0
19.374,-1.479,-0.257,0.0
17.353,-1.331,-0.327,0.0
15.761,-1.214,-0.383,0.0
14.57,-1.128,-0.434,0.0
33.887,-2.625,-0.068,2.0
33.878,-2.636,-0.253,8.0
19.689,-1.539,-0.255,0.0
17.448,-1.369,-0.323,0.0
15.876,-1.252,-0.381,0.0
14.636,-1.159,-0.431,0.0
33.893,-2.686,-0.055,0.0
33.864,-2.696,-0.24,19.0
19.761,-1.58,-0.248,0.0
17.563,-1.41,-0.318,0.0
15.842,-1.277,-0.374,0.0
14.727,-1.192,-0.428,0.0
33.884,-2.745,-0.042,1.0
33.853,-2.754,-0.227,5.0
20.368,-1.664,-0.247,0.0
17.661,-1.449,-0.313,0.0
16.129,-1.328,-0.374,0.0
14.807,-1.225,-0.424,0.0
33.867,-2.803,-0.027,0.0
33.859,-2.813,-0.212,4.0
33.848,-2.824,-0.396,1.0
17.794,-1.49,-0.307,0.0
16.249,-1.366,-0.369,0.0
15.011,-1.267,-0.423,0.0
26.482,-2.237,-0.009,0.0
23.363,-1.981,-0.135,1.0
20.787,-1.769,-0.233,1.0
17.93,-1.532,-0.301,0.0
16.574,-1.422,-0.368,0.0
14.912,-1.284,-0.413,0.0
27.142,-2.338,0.003,0.0
23.482,-2.03,-0.124,0.0
20.903,-1.814,-0.224,1.0
18.139,-1.58,-0.295,0.0
16.657,-1.456,-0.362,0.0
15.13,-1.328,-0.411,0.0
27.56,-2.42,0.018,0.0
23.63,-2.082,-0.112,0.0
21.095,-1.866,-0.215,1.0
18.319,-1.626,-0.288,0.0
16.76,-1.493,-0.355,0.0
15.288,-1.367,-0.407,0.0
27.786,-2.485,0.034,0.0
23.67,-2.124,-0.099,0.0
21.502,-1.936,-0.207,1.0
18.699,-1.69,-0.283,0.0
16.907,-1.533,-0.348,0.0
15.407,-1.402,-0.401,0.0
28.319,-2.578,0.051,0.0
24.958,-2.28,-0.089,0.0
21.911,-2.008,-0.198,1.0
19.117,-1.758,-0.278,0.0
17.12,-1.58,-0.342,0.0
15.548,-1.439,-0.395,0.0
28.541,-2.643,0.069,0.0
25.306,-2.351,-0.075,0.0
22.366,-2.084,-0.188,1.0
19.351,-1.809,-0.269,0.0
17.257,-1.619,-0.334,0.0
15.746,-1.482,-0.39,0.0
28.773,-2.709,0.088,0.0
25.589,-2.416,-0.059,0.0
22.637,-2.144,-0.175,1.0
19.542,-1.857,-0.259,0.0
17.498,-1.668,-0.326,0.0
15.866,-1.517,-0.382,0.0
29.107,-2.784,0.109,1.0
25.829,-2.478,-0.042,0.0
22.951,-2.208,-0.162,1.0
19.872,-1.918,-0.249,0.0
17.66,-1.71,-0.317,0.0
16.157,-1.569,-0.378,0.0
29.914,-2.905,0.133,1.0
26.368,-2.568,-0.024,0.0
23.192,-2.266,-0.147,2.0
20.254,-1.984,-0.24,0.0
17.861,-1.755,-0.308,0.0
16.439,-1.62,-0.372,0.0
30.484,-3.005,0.159,1.0
26.571,-2.626,-0.004,0.0
23.63,-2.342,-0.132,0.0
33.991,-3.379,-0.377,1.0
33.999,-3.39,-0.561,0.0
16.613,-1.661,-0.364,0.0
30.926,-3.092,0.184,2.0
34.017,-3.41,0.02,1.0
34.005,-3.418,-0.163,6.0
33.962,-3.424,-0.35,2.0
33.987,-3.436,-0.534,1.0
16.772,-1.7,-0.354,0.0
31.719,-3.215,0.215,0.0
34.05,-3.461,0.046,2.0
34.03,-3.468,-0.136,1.0
21.917,-2.239,-0.208,0.0
19.049,-1.951,-0.284,0.0
17.036,-1.75,-0.345,0.0
31.651,-3.251,0.24,0.0
28.064,-2.89,0.061,1.0
25.385,-2.62,-0.081,0.0
22.374,-2.315,-0.194,0.0
19.4,-2.013,-0.273,0.0
17.297,-1.799,-0.336,0.0
32.282,-3.358,0.272,0.0
28.916,-3.016,0.088,14.0
25.55,-2.671,-0.059,0.0
22.38,-2.345,-0.174,1.0
19.656,-2.065,-0.259,0.0
17.515,-1.845,-0.325,0.0
0.0,0.0,0.0,0.0
28.48,-3.007,0.112,3.0
26.6,-2.815,-0.038,1.0
22.492,-2.385,-0.155,0.0
20.089,-2.136,-0.247,0.0
17.771,-1.894,-0.314,0.0
34.704,-3.698,0.354,0.0
27.604,-2.948,0.133,5.0
26.929,-2.882,-0.014,6.0
23.594,-2.531,-0.142,4.0
20.617,-2.217,-0.235,0.0
18.102,-1.951,-0.303,0.0
29.611,-3.191,0.329,1.0
27.483,-2.968,0.158,5.0
27.216,-2.945,0.01,3.0
23.583,-2.558,-0.12,13.0
21.936,-2.384,-0.229,0.0
18.642,-2.031,-0.295,0.0
29.494,-3.213,0.356,1.0
27.533,-3.005,0.184,4.0
23.639,-2.585,0.031,155.0
23.615,-2.588,-0.097,39.0
22.293,-2.448,-0.212,3.0
23.63,-2.601,-0.351,0.0
29.329,-3.228,0.382,0.0
27.986,-3.086,0.214,6.0
23.582,-2.605,0.054,165.0
23.616,-2.614,-0.075,98.0
22.357,-2.48,-0.191,4.0
23.624,-2.626,-0.328,1.0
31.683,-3.521,0.444,1.0
28.053,-3.123,0.242,2.0
23.636,-2.637,0.077,153.0
23.617,-2.639,-0.051,150.0
22.483,-2.517,-0.169,2.0
23.626,-2.651,-0.305,2.0
34.453,-3.865,0.517,0.0
29.19,-3.28,0.281,2.0
23.642,-2.661,0.101,2.0
23.612,-2.663,-0.027,150.0
22.633,-2.557,-0.148,3.0
23.577,-2.668,-0.281,0.0
42.989,-4.865,0.689,0.0
0.0,0.0,0.0,0.0
26.768,-3.04,0.142,6.0
23.594,-2.684,-0.003,5.0
22.595,-2.575,-0.124,6.0
21.511,-2.455,-0.233,0.0
22.508,-2.569,0.384,0.0
22.143,-2.531,0.259,4.0
26.976,-3.089,0.171,6.0
26.375,-3.025,0.023,3.0
22.589,-2.595,-0.101,4.0
22.259,-2.561,-0.218,3.0
22.417,-2.579,0.406,11.0
22.137,-2.551,0.282,14.0
22.171,-2.558,0.163,10.0
26.29,-3.038,0.05,6.0
22.576,-2.613,-0.077,3.0
22.375,-2.594,-0.196,3.0
22.191,-2.573,0.425,13.0
22.127,-2.569,0.305,17.0
22.142,-2.574,0.187,17.0
26.267,-3.058,0.079,3.0
26.186,-3.053,-0.061,2.0
22.433,-2.62,-0.172,3.0
22.164,-2.588,0.449,14.0
22.123,-2.586,0.329,18.0
22.131,-2.591,0.211,17.0
22.168,-2.598,0.09,16.0
22.432,-2.633,-0.028,13.0
22.484,-2.643,-0.148,8.0
22.158,-2.605,0.473,15.0
22.111,-2.602,0.353,19.0
22.117,-2.606,0.235,16.0
22.143,-2.612,0.114,17.0
22.276,-2.631,-0.003,13.0
22.449,-2.655,-0.123,12.0
22.157,-2.621,0.497,13.0
22.114,-2.619,0.378,20.0
22.1,-2.62,0.259,18.0
22.121,-2.626,0.139,18.0
22.18,-2.636,0.021,17.0
22.401,-2.665,-0.098,26.0
22.155,-2.636,0.521,10.0
22.112,-2.634,0.402,20.0
22.115,-2.637,0.284,19.0
22.126,-2.641,0.164,14.0
22.165,-2.649,0.045,19.0
22.283,-2.666,-0.072,15.0
22.139,-2.649,0.546,18.0
22.117,-2.649,0.427,20.0
22.119,-2.652,0.309,18.0
22.144,-2.657,0.189,12.0
22.164,-2.662,0.07,20.0
22.19,-2.668,-0.047,18.0
22.127,-2.661,0.571,18.0
22.125,-2.663,0.453,16.0
22.124,-2.665,0.334,15.0
22.356,-2.696,0.216,11.0
22.153,-2.674,0.095,16.0
22.179,-2.679,-0.022,20.0
22.128,-2.674,0.596,18.0
22.127,-2.676,0.478,14.0
22.126,-2.678,0.359,13.0
22.481,-2.723,0.243,7.0
22.168,-2.687,0.121,9.0
22.181,-2.691,0.003,19.0
22.096,-2.682,0.621,17.0
22.144,-2.689,0.504,14.0
22.126,-2.689,0.385,14.0
22.312,-2.713,0.267,0.0
26.62,-3.24,0.176,1.0
22.182,-2.702,0.028,15.0
21.997,-2.68,0.644,14.0
22.151,-2.7,0.53,17.0
22.142,-2.701,0.411,13.0
32.841,-4.009,0.431,0.0
26.139,-3.193,0.203,1.0
25.785,-3.152,0.063,1.0
22.006,-2.691,0.669,12.0
22.148,-2.709,0.555,18.0
22.136,-2.709,0.437,13.0
34.177,-4.186,0.488,0.0
28.645,-3.51,0.256,1.0
25.909,-3.177,0.093,6.0
22.101,-2.711,0.698,11.0
22.148,-2.718,0.581,16.0
22.151,-2.719,0.463,10.0
22.111,-2.716,0.342,0.0
29.367,-3.609,0.297,0.0
26.151,-3.215,0.125,7.0
22.179,-2.728,0.727,17.0
22.163,-2.727,0.607,16.0
22.162,-2.727,0.489,3.0
22.179,-2.731,0.368,0.0
30.95,-3.812,0.349,0.0
26.252,-3.235,0.156,6.0
22.246,-2.742,0.755,23.0
22.178,-2.735,0.634,11.0
22.175,-2.735,0.515,1.0
22.183,-2.737,0.395,2.0
33.206,-4.099,0.413,0.0
26.105,-3.223,0.185,4.0
22.249,-2.748,0.781,22.0
22.196,-2.742,0.66,10.0
22.183,-2.741,0.541,2.0
22.182,-2.742,0.42,3.0
33.605,-4.155,0.457,0.0
26.036,-3.22,0.215,1.0
22.206,-2.748,0.805,20.0
22.224,-2.75,0.687,14.0
22.173,-2.744,0.567,3.0
22.178,-2.745,0.446,3.0
0.0,0.0,0.0,0.0
28.955,-3.585,0.273,0.0
22.178,-2.747,0.83,19.0
22.247,-2.756,0.714,20.0
22.175,-2.747,0.593,3.0
22.204,-2.751,0.473,0.0
36.762,-4.555,0.586,0.0
30.257,-3.75,0.321,1.0
22.174,-2.749,0.856,16.0
22.282,-2.762,0.741,23.0
22.187,-2.75,0.619,1.0
0.0,0.0,0.0,0.0
39.269,-4.868,0.673,0.0
31.446,-3.899,0.37,0.0
22.177,-2.751,0.882,18.0
22.282,-2.764,0.767,23.0
22.22,-2.755,0.646,3.0
22.215,-2.754,0.524,0.0
22.209,-2.754,0.406,0.0
32.966,-4.087,0.426,1.0
22.166,-2.75,0.907,19.0
22.248,-2.759,0.791,19.0
22.234,-2.757,0.672,10.0
22.191,-2.751,0.549,0.0
22.18,-2.749,0.431,1.0
33.791,-4.188,0.475,0.0
22.152,-2.747,0.932,16.0
22.187,-2.751,0.815,18.0
22.244,-2.757,0.697,17.0
22.174,-2.748,0.574,2.0
22.185,-2.748,0.456,2.0
35.088,-4.346,0.534,0.0
22.119,-2.742,0.956,12.0
22.168,-2.747,0.839,16.0
22.257,-2.757,0.723,22.0
22.193,-2.748,0.6,4.0
22.175,-2.744,0.481,0.0
37.006,-4.579,0.605,0.0
22.073,-2.733,0.979,9.0
22.142,-2.74,0.864,13.0
22.289,-2.757,0.749,24.0
22.184,-2.743,0.625,5.0
22.184,-2.742,0.506,0.0
22.158,-2.738,0.387,0.0
22.034,-2.724,1.002,8.0
22.107,-2.732,0.887,11.0
22.252,-2.748,0.773,20.0
22.176,-2.738,0.649,10.0
22.17,-2.735,0.53,4.0
22.18,-2.736,0.412,8.0
22.021,-2.718,1.026,9.0
22.039,-2.719,0.909,8.0
22.141,-2.729,0.794,12.0
22.172,-2.732,0.674,13.0
22.157,-2.728,0.555,13.0
22.154,-2.726,0.436,12.0
22.019,-2.712,1.051,9.0
22.013,-2.709,0.932,8.0
22.026,-2.709,0.814,8.0
22.127,-2.72,0.697,12.0
22.157,-2.722,0.579,16.0
22.153,-2.719,0.46,11.0
22.013,-2.705,1.075,10.0
22.003,-2.701,0.956,8.0
22.0,-2.699,0.837,8.0
22.005,-2.697,0.717,15.0
22.147,-2.713,0.603,17.0
22.169,-2.714,0.484,11.0
22.019,-2.698,1.099,9.0
21.999,-2.693,0.979,9.0
21.992,-2.689,0.861,8.0
21.977,-2.685,0.74,24.0
22.057,-2.693,0.624,12.0
22.155,-2.703,0.508,17.0
22.016,-2.688,1.122,9.0
21.998,-2.684,1.003,10.0
21.994,-2.68,0.884,9.0
21.969,-2.675,0.763,23.0
21.967,-2.672,0.644,19.0
22.14,-2.691,0.531,18.0
22.024,-2.68,1.146,10.0
22.006,-2.675,1.026,9.0
21.997,-2.671,0.907,10.0
21.98,-2.666,0.786,13.0
21.991,-2.665,0.668,26.0
22.136,-2.68,0.554,18.0
22.032,-2.67,1.169,9.0
22.002,-2.663,1.049,8.0
21.999,-2.66,0.93,9.0
21.992,-2.656,0.809,9.0
21.994,-2.653,0.691,26.0
22.135,-2.668,0.576,17.0
22.036,-2.659,1.192,8.0
22.02,-2.653,1.072,7.0
22.016,-2.65,0.953,7.0
22.002,-2.645,0.832,7.0
21.995,-2.641,0.713,18.0
22.12,-2.653,0.598,18.0
22.042,-2.647,1.215,5.0
22.041,-2.643,1.096,6.0
22.034,-2.639,0.976,6.0
22.039,-2.636,0.855,9.0
22.119,-2.642,0.739,13.0
22.15,-2.643,0.62,16.0
22.089,-2.639,1.239,2.0
22.066,-2.632,1.118,12.0
22.097,-2.632,1.001,14.0
22.136,-2.633,0.881,15.0
22.165,-2.633,0.762,12.0
22.175,-2.631,0.643,15.0
22.138,-2.63,1.263,12.0
22.1,-2.622,1.141,15.0
22.143,-2.623,1.024,16.0
22.146,-2.619,0.902,15.0
22.182,-2.62,0.783,12.0
22.201,-2.619,0.664,14.0
22.135,-2.614,1.284,19.0
22.132,-2.609,1.164,20.0
22.146,-2.607,1.045,17.0
22.149,-2.604,0.923,15.0
22.17,-2.602,0.804,13.0
22.226,-2.605,0.686,16.0
22.16,-2.6,1.306,10.0
22.139,-2.594,1.185,21.0
22.146,-2.59,1.065,18.0
22.151,-2.587,0.943,14.0
22.178,-2.586,0.824,12.0
22.258,-2.591,0.706,18.0
22.239,-2.592,1.33,10.0
22.14,-2.576,1.204,18.0
22.145,-2.572,1.085,17.0
22.173,-2.571,0.963,11.0
22.194,-2.57,0.844,12.0
22.301,-2.578,0.727,12.0
22.285,-2.579,1.353,3.0
22.174,-2.562,1.225,8.0
22.156,-2.555,1.104,13.0
22.185,-2.554,0.983,10.0
22.226,-2.554,0.864,11.0
22.306,-2.559,0.746,2.0
22.253,-2.556,1.37,0.0
22.306,-2.557,1.252,3.0
22.214,-2.542,1.126,7.0
22.243,-2.541,1.004,7.0
22.304,-2.543,0.886,5.0
98.578,-11.223,3.381,4.0
22.25,-2.536,1.388,3.0
151.236,-17.205,8.611,5.0
22.306,-2.532,1.148,2.0
22.302,-2.527,1.025,0.0
22.226,-2.514,0.9,0.0
145.276,-16.403,5.099,3.0
22.255,-2.515,1.406,5.0
159.526,-17.996,9.21,5.0
158.716,-17.869,8.298,18.0
164.148,-18.444,7.672,10.0
153.749,-17.242,6.349,5.0
145.357,-16.271,5.211,4.0
22.265,-2.495,1.424,1.0
159.454,-17.83,9.328,17.0
158.91,-17.732,8.429,17.0
159.256,-17.734,7.563,6.0
153.713,-17.083,6.461,7.0
145.56,-16.144,5.328,2.0
174.497,-19.375,11.291,8.0
159.728,-17.696,9.462,15.0
159.143,-17.594,8.556,18.0
159.482,-17.593,7.69,13.0
0.0,0.0,0.0,0.0
153.854,-16.902,5.74,2.0
174.495,-19.191,11.414,25.0
160.074,-17.564,9.596,13.0
159.198,-17.43,8.671,16.0
159.605,-17.435,7.805,22.0
153.945,-16.781,6.689,5.0
36.561,-3.977,1.388,1.0
174.482,-19.001,11.531,18.0
160.11,-17.394,9.704,10.0
159.368,-17.275,8.785,17.0
159.617,-17.262,7.91,22.0
155.702,-16.8,6.865,5.0
36.442,-3.923,1.408,1.0
174.492,-18.809,11.643,23.0
159.879,-17.192,9.792,17.0
159.467,-17.106,8.892,19.0
159.686,-17.088,8.014,18.0
159.83,-17.064,7.147,10.0
36.663,-3.905,1.438,3.0
174.681,-18.628,11.763,12.0
159.758,-16.993,9.881,14.0
159.207,-16.893,8.974,16.0
159.44,-16.876,8.097,9.0
159.892,-16.884,7.242,14.0
155.289,-16.358,6.186,5.0
174.965,-18.45,11.886,19.0
161.113,-16.946,10.058,7.0
158.366,-16.614,9.016,16.0
159.191,-16.658,8.174,20.0
160.01,-16.702,7.338,19.0
0.0,0.0,0.0,0.0
175.305,-18.271,12.005,12.0
0.0,0.0,0.0,0.0
158.629,-16.445,9.118,6.0
159.198,-16.462,8.258,17.0
159.541,-16.456,7.401,12.0
35.45,-3.647,1.45,0.0
143.368,-14.764,9.892,20.0
160.261,-16.459,10.175,8.0
160.109,-16.398,9.283,17.0
158.799,-16.219,8.318,16.0
36.188,-3.686,1.696,0.0
34.92,-3.547,1.445,1.0
143.564,-14.6,9.976,20.0
176.266,-17.874,11.276,16.0
160.182,-16.196,9.363,12.0
158.968,-16.03,8.399,23.0
35.635,-3.583,1.687,1.0
34.681,-3.478,1.451,0.0
143.742,-14.43,10.053,20.0
176.769,-17.695,11.385,8.0
160.037,-15.973,9.424,18.0
158.883,-15.813,8.464,17.0
35.069,-3.48,1.674,1.0
34.466,-3.411,1.456,0.0
143.563,-14.221,10.1,12.0
150.074,-14.82,9.727,16.0
160.32,-15.786,9.504,16.0
158.999,-15.609,8.532,17.0
34.921,-3.418,1.681,0.0
34.352,-3.352,1.464,1.0
177.425,-17.332,12.548,9.0
149.249,-14.533,9.728,12.0
160.168,-15.548,9.554,15.0
158.961,-15.384,8.587,14.0
35.008,-3.377,1.698,0.0
34.348,-3.304,1.476,4.0
143.689,-13.834,10.211,4.0
189.927,-18.228,12.444,9.0
149.542,-14.308,8.969,27.0
149.998,-14.308,8.151,16.0
0.0,0.0,0.0,0.0
34.291,-3.25,1.484,0.0
146.059,-13.857,10.423,4.0
151.455,-14.321,9.969,11.0
170.104,-16.034,10.251,10.0
149.933,-14.086,8.189,23.0
0.0,0.0,0.0,0.0
34.325,-3.205,1.495,0.0
153.626,-14.354,11.004,3.0
151.461,-14.105,10.007,8.0
149.55,-13.882,9.05,25.0
150.383,-13.912,8.25,14.0
0.0,0.0,0.0,0.0
0.0,0.0,0.0,0.0
147.212,-13.538,10.579,8.0
0.0,0.0,0.0,0.0
149.994,-13.7,9.11,18.0
186.296,-16.957,10.261,29.0
0.0,0.0,0.0,0.0
0.0,0.0,0.0,0.0
145.78,-13.19,10.503,11.0
146.949,-13.248,9.768,5.0
149.138,-13.399,9.083,3.0
209.169,-18.729,11.556,150.0
0.0,0.0,0.0,0.0
0.0,0.0,0.0,0.0
144.718,-12.876,10.449,15.0
145.875,-12.931,9.718,3.0
148.996,-13.16,9.095,9.0
194.655,-17.133,10.778,44.0
0.0,0.0,0.0,0.0
34.261,-2.994,1.516,0.0
146.232,-12.787,10.573,4.0
147.077,-12.813,9.814,3.0
148.893,-12.923,9.104,9.0
151.89,-13.136,8.424,39.0
151.957,-13.093,7.581,4.0
0.0,0.0,0.0,0.0
146.846,-12.612,10.628,3.0
146.998,-12.578,9.816,5.0
151.936,-12.953,9.298,19.0
151.938,-12.904,8.434,65.0
151.972,-12.858,7.589,7.0
0.0,0.0,0.0,0.0
145.324,-12.254,10.523,12.0
148.225,-12.451,9.902,12.0
208.908,-17.48,12.787,15.0
200.168,-16.684,11.115,24.0
0.0,0.0,0.0,0.0
34.351,-2.841,1.524,0.0
147.423,-12.198,10.673,5.0
148.118,-12.206,9.893,8.0
208.716,-17.131,12.771,20.0
200.179,-16.367,11.108,23.0
34.987,-2.849,1.746,0.0
34.367,-2.788,1.523,0.0
146.726,-11.904,10.615,7.0
149.197,-12.054,9.957,14.0
208.808,-16.804,12.764,18.0
194.989,-15.628,10.807,7.0
0.0,0.0,0.0,0.0
34.416,-2.736,1.522,0.0
148.559,-11.811,10.734,5.0
150.98,-11.954,10.06,20.0
208.737,-16.458,12.739,19.0
193.6,-15.203,10.709,18.0
0.0,0.0,0.0,0.0
0.0,0.0,0.0,0.0
150.84,-11.747,10.879,8.0
151.446,-11.743,10.071,4.0
193.429,-14.936,11.775,9.0
193.4,-14.87,10.669,14.0
34.955,-2.676,1.732,0.0
0.0,0.0,0.0,0.0
155.074,-11.82,11.157,5.0
155.727,-11.817,10.328,10.0
190.765,-14.412,11.578,9.0
190.077,-14.3,10.448,16.0
34.967,-2.619,1.725,0.0
0.0,0.0,0.0,0.0
122.096,-9.104,8.758,3.0
154.126,-11.44,10.186,13.0
189.531,-14.008,11.46,16.0
189.965,-13.977,10.398,12.0
34.87,-2.554,1.712,0.0
34.359,-2.506,1.494,0.0
122.021,-8.894,8.721,9.0
148.974,-10.808,9.807,11.0
188.804,-13.635,11.364,7.0
189.764,-13.643,10.333,5.0
35.045,-2.508,1.711,0.0
34.235,-2.439,1.479,0.0
122.462,-8.72,8.715,14.0
122.109,-8.653,8.001,15.0
188.734,-13.312,11.301,19.0
189.18,-13.28,10.242,14.0
34.815,-2.433,1.688,0.0
34.303,-2.386,1.47,0.0
122.476,-8.512,8.675,9.0
122.49,-8.472,7.983,15.0
92.242,-6.35,5.49,7.0
156.811,-10.744,8.433,8.0
0.0,0.0,0.0,0.0
34.165,-2.319,1.452,0.0
122.128,-8.281,8.602,6.0
122.18,-8.244,7.915,14.0
188.94,-12.688,11.171,8.0
156.984,-10.488,8.378,12.0
34.825,-2.315,1.662,0.0
34.23,-2.265,1.44,0.0
119.304,-7.888,8.353,7.0
121.833,-8.014,7.84,12.0
120.598,-7.894,7.078,9.0
0.0,0.0,0.0,0.0
34.869,-2.26,1.648,0.0
34.258,-2.209,1.426,0.0
119.789,-7.714,8.331,10.0
89.607,-5.74,5.723,12.0
120.786,-7.699,7.031,13.0
188.409,-11.948,9.882,13.0
34.858,-2.199,1.631,0.0
34.231,-2.149,1.408,0.0
118.046,-7.4,8.15,6.0
122.094,-7.613,7.736,12.0
92.827,-5.758,5.356,5.0
187.457,-11.57,9.734,23.0
0.0,0.0,0.0,0.0
34.249,-2.092,1.39,0.0
89.552,-5.46,6.134,9.0
121.935,-7.394,7.658,17.0
120.72,-7.279,6.896,15.0
187.826,-11.265,9.644,11.0
0.0,0.0,0.0,0.0
34.297,-2.035,1.372,0.0
89.39,-5.295,6.069,9.0
92.8,-5.466,5.772,8.0
120.765,-7.075,6.826,7.0
188.451,-10.98,9.562,20.0
0.0,0.0,0.0,0.0
34.149,-1.967,1.345,0.0
87.954,-5.058,5.916,15.0
92.726,-5.302,5.708,10.0
120.79,-6.867,6.748,6.0
188.965,-10.682,9.463,22.0
0.0,0.0,0.0,0.0
34.438,-1.925,1.333,2.0
90.018,-5.02,5.993,10.0
120.348,-6.672,7.325,9.0
123.009,-6.781,6.786,19.0
188.985,-10.358,9.333,21.0
0.0,0.0,0.0,0.0
109.32,-5.923,4.156,30.0
92.783,-5.014,6.11,19.0
112.029,-6.019,6.738,19.0
112.121,-5.989,6.104,5.0
189.332,-10.055,9.213,5.0
0.0,0.0,0.0,0.0
109.357,-5.741,4.078,40.0
92.754,-4.857,6.038,13.0
112.259,-5.842,6.667,19.0
112.138,-5.8,6.021,8.0
195.242,-10.038,9.35,5.0
0.0,0.0,0.0,0.0
109.391,-5.556,3.992,150.0
108.872,-5.512,7.0,17.0
98.696,-4.966,5.782,10.0
119.316,-5.967,6.309,3.0
194.03,-9.643,9.134,8.0
0.0,0.0,0.0,0.0
96.24,-4.723,3.433,3.0
90.983,-4.451,5.773,6.0
112.551,-5.47,6.497,10.0
164.391,-7.938,8.552,12.0
0.0,0.0,0.0,0.0
0.0,0.0,0.0,0.0
94.537,-4.478,3.289,1.0
0.0,0.0,0.0,0.0
108.598,-5.092,6.173,17.0
164.288,-7.654,8.399,39.0
164.39,-7.609,7.449,8.0
93.497,-4.298,3.702,5.0
0.0,0.0,0.0,0.0
91.224,-4.151,5.623,19.0
90.587,-4.095,5.066,9.0
112.312,-5.043,5.638,4.0
0.0,0.0,0.0,0.0
92.461,-4.095,3.575,6.0
92.358,-4.064,3.043,7.0
90.088,-3.947,5.467,20.0
111.833,-4.865,6.146,8.0
120.198,-5.194,5.917,25.0
93.033,-3.992,4.038,4.0
92.19,-3.928,3.473,39.0
92.358,-3.909,2.953,1.0
98.25,-4.14,5.864,21.0
98.369,-4.114,5.306,8.0
113.507,-4.713,5.472,7.0
0.0,0.0,0.0,0.0
92.158,-3.772,3.378,159.0
0.0,0.0,0.0,0.0
99.004,-4.004,5.805,17.0
113.633,-4.562,6.011,10.0
194.83,-7.764,9.188,17.0
92.247,-3.648,3.812,10.0
92.109,-3.617,3.278,63.0
0.0,0.0,0.0,0.0
99.667,-3.864,5.736,24.0
113.364,-4.362,5.873,28.0
113.393,-4.331,5.225,25.0
92.173,-3.493,3.708,35.0
92.114,-3.465,3.178,53.0
0.0,0.0,0.0,0.0
113.202,-4.203,6.389,21.0
113.409,-4.178,5.749,21.0
113.563,-4.15,5.104,2.0
92.215,-3.343,3.606,150.0
92.136,-3.315,3.074,18.0
0.0,0.0,0.0,0.0
124.003,-4.401,6.856,7.0
190.583,-6.708,9.44,14.0
0.0,0.0,0.0,0.0
92.233,-3.195,3.5,166.0
92.688,-3.184,2.984,5.0
0.0,0.0,0.0,0.0
190.199,-6.441,10.289,16.0
190.513,-6.397,9.21,18.0
0.0,0.0,0.0,0.0
92.245,-3.046,3.389,158.0
92.926,-3.043,2.88,3.0
0.0,0.0,0.0,0.0
97.337,-3.14,5.146,22.0
190.135,-6.082,8.959,12.0
92.305,-2.926,3.817,6.0
92.203,-2.898,3.273,47.0
95.857,-2.987,2.853,1.0
0.0,0.0,0.0,0.0
189.441,-5.809,9.777,21.0
189.876,-5.769,8.704,14.0
92.313,-2.78,3.701,17.0
92.285,-2.754,3.158,141.0
0.0,0.0,0.0,0.0
0.0,0.0,0.0,0.0
189.61,-5.514,9.539,19.0
190.313,-5.483,8.477,21.0
92.396,-2.638,3.584,11.0
92.347,-2.611,3.04,14.0
0.0,0.0,0.0,0.0
52.445,-1.455,1.122,0.0
189.563,-5.217,9.285,21.0
190.13,-5.181,8.214,18.0
92.422,-2.494,3.46,21.0
92.801,-2.479,2.929,2.0
0.0,0.0,0.0,0.0
0.0,0.0,0.0,0.0
171.706,-4.459,8.173,22.0
171.635,-4.411,7.177,29.0
166.067,-4.224,5.987,70.0
93.782,-2.361,2.831,2.0
0.0,0.0,0.0,0.0
0.0,0.0,0.0,0.0
171.672,-4.195,7.93,16.0
128.436,-3.106,5.191,13.0
128.204,-3.068,4.441,7.0
92.548,-2.191,2.663,1.0
0.0,0.0,0.0,0.0
0.0,0.0,0.0,0.0
96.89,-2.223,4.337,36.0
128.414,-2.913,5.006,32.0
96.911,-2.174,3.219,3.0
0.0,0.0,0.0,0.0
0.0,0.0,0.0,0.0
0.0,0.0,0.0,0.0
96.878,-2.08,4.196,44.0
96.952,-2.058,3.638,48.0
96.805,-2.03,3.074,6.0
0.0,0.0,0.0,0.0
0.0,0.0,0.0,0.0
38.71,-0.783,0.555,0.0
96.944,-1.94,4.054,14.0
96.952,-1.917,3.493,46.0
89.956,-1.756,2.721,1.0
0.0,0.0,0.0,0.0
0.0,0.0,0.0,0.0
0.0,0.0,0.0,0.0
0.0,0.0,0.0,0.0
96.978,-1.778,3.346,27.0
88.374,-1.599,2.538,1.0
0.0,0.0,0.0,0.0
0.0,0.0,0.0,0.0
34.57,-0.601,0.389,0.0
0.0,0.0,0.0,0.0
96.932,-1.64,3.192,13.0
0.0,0.0,0.0,0.0
0.0,0.0,0.0,0.0
0.0,0.0,0.0,0.0
33.946,-0.543,0.329,1.0
171.646,-2.705,6.373,13.0
89.783,-1.394,2.813,3.0
64.002,-0.979,1.634,0.0
47.655,-0.718,0.937,0.0
0.0,0.0,0.0,0.0
32.457,-0.474,0.262,0.0
0.0,0.0,0.0,0.0
86.222,-1.221,2.562,1.0
0.0,0.0,0.0,0.0
0.0,0.0,0.0,0.0
36.323,-0.49,0.444,0.0
31.02,-0.411,0.2,0.0
90.792,-1.184,3.074,4.0
85.002,-1.09,2.386,1.0
57.338,-0.722,1.276,0.0
0.0,0.0,0.0,0.0
33.864,-0.412,0.358,0.0
28.772,-0.343,0.137,0.0
90.534,-1.061,2.913,19.0
0.0,0.0,0.0,0.0
0.0,0.0,0.0,0.0
0.0,0.0,0.0,0.0
32.624,-0.354,0.289,1.0
28.643,-0.305,0.088,1.0
89.927,-0.939,2.741,1.0
0.0,0.0,0.0,0.0
0.0,0.0,0.0,0.0
36.723,-0.36,0.476,0.0
31.782,-0.305,0.228,1.0
27.757,-0.261,0.038,1.0
82.81,-0.76,2.381,4.0
0.0,0.0,0.0,0.0
42.719,-0.375,0.733,0.0
0.0,0.0,0.0,0.0
28.823,-0.241,0.157,1.0
26.732,-0.218,-0.009,0.0
81.933,-0.652,2.214,1.0
0.0,0.0,0.0,0.0
0.0,0.0,0.0,0.0
32.874,-0.241,0.312,0.0
28.772,-0.205,0.106,7.0
25.91,-0.18,-0.054,0.0
0.0,0.0,0.0,0.0
0.0,0.0,0.0,0.0
0.0,0.0,0.0,0.0
31.702,-0.195,0.244,1.0
28.508,-0.17,0.054,1.0
24.734,-0.143,-0.096,0.0
0.0,0.0,0.0,0.0
0.0,0.0,0.0,0.0
0.0,0.0,0.0,0.0
28.875,-0.144,0.17,0.0
26.942,-0.129,0.002,0.0
23.847,-0.11,-0.135,0.0
0.0,0.0,0.0,0.0
0.0,0.0,0.0,0.0
33.315,-0.135,0.332,0.0
28.793,-0.111,0.117,7.0
25.875,-0.095,-0.045,0.0
22.863,-0.08,-0.172,0.0
0.0,0.0,0.0,0.0
38.091,-0.119,0.53,0.0
33.085,-0.097,0.269,0.0
28.554,-0.079,0.063,2.0
25.032,-0.064,-0.09,0.0
21.607,-0.052,-0.203,0.0
43.369,-0.097,0.776,0.0
0.0,0.0,0.0,0.0
30.407,-0.057,0.191,0.0
26.943,-0.046,0.009,0.0
23.832,-0.036,-0.129,1.0
20.901,-0.028,-0.235,1.0
0.0,0.0,0.0,0.0
33.278,-0.034,0.339,0.0
28.782,-0.024,0.126,0.0
25.914,-0.017,-0.039,0.0
23.086,-0.012,-0.169,0.0
19.782,-0.007,-0.259,0.0
0.0,0.0,0.0,0.0
33.063,0.0,0.275,0.0
28.524,0.004,0.071,1.0
25.022,0.007,-0.085,0.0
21.596,0.01,-0.199,2.0
18.602,0.011,-0.279,0.0
35.992,0.028,0.44,0.0
30.564,0.029,0.196,0.0
27.13,0.03,0.015,0.0
23.802,0.03,-0.126,1.0
20.894,0.029,-0.232,1.0
18.018,0.028,-0.305,0.0
34.027,0.059,0.349,0.0
28.821,0.054,0.128,1.0
25.996,0.053,-0.035,0.0
23.019,0.05,-0.167,0.0
19.626,0.046,-0.257,0.0
17.304,0.043,-0.327,0.0
32.118,0.085,0.267,0.0
28.569,0.08,0.071,1.0
24.953,0.073,-0.082,0.0
21.648,0.067,-0.199,3.0
18.674,0.06,-0.281,0.0
16.79,0.057,-0.35,0.0
30.29,0.107,0.192,0.0
27.048,0.099,0.014,0.0
23.713,0.09,-0.125,0.0
20.867,0.082,-0.233,0.0
17.933,0.073,-0.305,0.0
16.33,0.069,-0.373,0.0
28.818,0.126,0.127,0.0
25.921,0.117,-0.036,0.0
22.716,0.105,-0.164,1.0
19.522,0.093,-0.256,0.0
17.249,0.085,-0.327,0.0
15.842,0.08,-0.393,0.0
28.217,0.146,0.068,0.0
24.935,0.132,-0.084,0.0
21.742,0.118,-0.2,3.0
18.646,0.104,-0.282,0.0
16.73,0.095,-0.351,0.0
15.447,0.09,-0.414,0.0
26.914,0.16,0.011,0.0
23.772,0.144,-0.128,0.0
20.767,0.128,-0.233,0.0
17.866,0.113,-0.306,0.0
16.308,0.105,-0.374,0.0
14.862,0.097,-0.428,0.0
25.866,0.173,-0.041,0.0
22.441,0.152,-0.166,1.0
19.449,0.134,-0.257,0.0
17.198,0.121,-0.329,0.0
15.781,0.113,-0.394,0.0
14.421,0.105,-0.444,0.0
24.791,0.183,-0.089,0.0
21.728,0.163,-0.204,2.0
18.594,0.141,-0.283,0.0
16.703,0.129,-0.353,0.0
15.283,0.12,-0.412,0.0
14.037,0.111,-0.461,0.0
23.577,0.189,-0.132,0.0
20.507,0.167,-0.234,0.0
17.756,0.146,-0.306,0.0
16.175,0.135,-0.375,0.0
14.857,0.126,-0.431,0.0
13.706,0.117,-0.478,0.0
22.281,0.193,-0.17,2.0
19.292,0.169,-0.26,0.0
17.068,0.151,-0.329,0.0
15.685,0.141,-0.396,0.0
14.332,0.13,-0.445,0.0
13.389,0.123,-0.494,0.0
21.49,0.198,-0.208,2.0
18.34,0.171,-0.285,0.0
16.623,0.157,-0.355,0.0
15.285,0.146,-0.417,0.0
13.959,0.134,-0.462,0.0
12.933,0.126,-0.504,0.0
20.211,0.198,-0.237,0.0
17.636,0.174,-0.31,0.0
16.106,0.161,-0.377,0.0
14.666,0.148,-0.43,0.0
13.612,0.138,-0.479,0.0
12.694,0.13,-0.521,0.0
19.206,0.198,-0.265,0.0
16.947,0.176,-0.332,0.0
15.627,0.164,-0.397,0.0
14.229,0.15,-0.446,0.0
13.261,0.141,-0.494,0.0
12.396,0.133,-0.534,0.0
18.347,0.198,-0.29,0.0
16.543,0.18,-0.358,0.0
15.119,0.165,-0.416,0.0
13.891,0.153,-0.464,0.0
12.915,0.143,-0.507,0.0
12.131,0.136,-0.547,0.0
17.512,0.196,-0.313,0.0
15.998,0.18,-0.379,0.0
14.658,0.166,-0.433,0.0
13.575,0.155,-0.482,0.0
12.642,0.146,-0.522,0.0
11.844,0.137,-0.559,0.0
16.872,0.196,-0.336,0.0
15.548,0.181,-0.401,0.0
14.171,0.166,-0.448,0.0
13.179,0.156,-0.495,0.0
12.347,0.147,-0.536,0.0
11.559,0.138,-0.569,0.0
16.409,0.196,-0.361,0.0
15.151,0.182,-0.422,0.0
13.863,0.168,-0.466,0.0
12.833,0.156,-0.508,0.0
11.983,0.146,-0.544,0.0
11.333,0.139,-0.581,0.0
15.933,0.195,-0.383,0.0
14.594,0.18,-0.436,0.0
13.48,0.167,-0.481,0.0
12.571,0.157,-0.523,0.0
11.767,0.147,-0.559,0.0
11.082,0.139,-0.591,0.0
15.554,0.195,-0.405,0.0
14.167,0.179,-0.452,0.0
13.175,0.167,-0.497,0.0
12.286,0.156,-0.537,0.0
11.551,0.148,-0.572,0.0
10.818,0.139,-0.599,0.0
14.865,0.19,-0.418,0.0
13.805,0.177,-0.469,0.0
12.85,0.166,-0.511,0.0
11.957,0.155,-0.547,0.0
11.254,0.146,-0.58,0.0
10.599,0.138,-0.609,0.0
14.52,0.189,-0.438,0.0
13.417,0.175,-0.483,0.0
12.527,0.164,-0.524,0.0
11.74,0.154,-0.561,0.0
11.044,0.146,-0.592,0.0
10.376,0.137,-0.617,0.0
14.064,0.185,-0.453,0.0
13.055,0.172,-0.496,0.0
12.281,0.163,-0.539,0.0
11.459,0.152,-0.571,0.0
10.777,0.144,-0.6,0.0
10.251,0.137,-0.631,0.0
13.689,0.182,-0.468,0.0
12.821,0.171,-0.513,0.0
11.916,0.159,-0.547,0.0
11.222,0.15,-0.582,0.0
10.593,0.142,-0.611,0.0
0.0,0.0,0.0,0.0
13.365,0.179,-0.484,0.0
12.53,0.168,-0.527,0.0
11.71,0.157,-0.561,0.0
10.958,0.148,-0.59,0.0
10.343,0.14,-0.618,0.0
9.737,0.132,-0.638,0.0
13.052,0.175,-0.499,0.0
12.187,0.164,-0.537,0.0
11.427,0.154,-0.57,0.0
10.713,0.145,-0.598,0.0
10.083,0.136,-0.622,0.0
0.0,0.0,0.0,0.0
12.728,0.171,-0.512,0.0
11.935,0.161,-0.55,0.0
11.238,0.151,-0.584,0.0
10.465,0.141,-0.605,0.0
0.0,0.0,0.0,0.0
0.0,0.0,0.0,0.0
12.456,0.167,-0.526,0.0
11.641,0.156,-0.559,0.0
10.944,0.147,-0.59,0.0
10.283,0.138,-0.615,0.0
0.0,0.0,0.0,0.0
0.0,0.0,0.0,0.0
12.208,0.163,-0.539,0.0
11.412,0.152,-0.571,0.0
10.686,0.143,-0.597,0.0
0.0,0.0,0.0,0.0
0.0,0.0,0.0,0.0
9.089,0.122,-0.668,0.0
11.935,0.158,-0.551,0.0
11.182,0.148,-0.581,0.0
10.465,0.139,-0.605,0.0
0.0,0.0,0.0,0.0
0.0,0.0,0.0,0.0
0.0,0.0,0.0,0.0
11.647,0.153,-0.56,0.0
11.056,0.145,-0.596,0.0
10.405,0.136,-0.622,0.0
0.0,0.0,0.0,0.0
0.0,0.0,0.0,0.0
8.831,0.116,-0.684,0.0
11.393,0.147,-0.569,0.0
10.67,0.138,-0.596,0.0
10.18,0.132,-0.628,0.0
0.0,0.0,0.0,0.0
0.0,0.0,0.0,0.0
8.626,0.111,-0.684,0.0
11.154,0.142,-0.579,0.0
10.533,0.134,-0.608,0.0
0.0,0.0,0.0,0.0
0.0,0.0,0.0,0.0
9.023,0.114,-0.68,0.0
8.546,0.108,-0.694,0.0
10.948,0.137,-0.589,0.0
10.304,0.128,-0.615,0.0
9.826,0.122,-0.643,0.0
0.0,0.0,0.0,0.0
0.0,0.0,0.0,0.0
8.356,0.103,-0.695,0.0
10.732,0.131,-0.597,0.0
0.0,0.0,0.0,0.0
0.0,0.0,0.0,0.0
0.0,0.0,0.0,0.0
0.0,0.0,0.0,0.0
8.264,0.1,-0.703,0.0
10.516,0.125,-0.605,0.0
0.0,0.0,0.0,0.0
0.0,0.0,0.0,0.0
0.0,0.0,0.0,0.0
0.0,0.0,0.0,0.0
8.177,0.096,-0.71,0.0
10.341,0.119,-0.614,0.0
9.777,0.112,-0.638,0.0
0.0,0.0,0.0,0.0
0.0,0.0,0.0,0.0
0.0,0.0,0.0,0.0
8.108,0.092,-0.719,0.0
10.153,0.113,-0.621,0.0
0.0,0.0,0.0,0.0
0.0,0.0,0.0,0.0
0.0,0.0,0.0,0.0
0.0,0.0,0.0,0.0
8.02,0.088,-0.726,0.0
0.0,0.0,0.0,0.0
0.0,0.0,0.0,0.0
0.0,0.0,0.0,0.0
0.0,0.0,0.0,0.0
8.187,0.086,-0.708,0.0
0.0,0.0,0.0,0.0
9.778,0.1,-0.633,0.0
0.0,0.0,0.0,0.0
0.0,0.0,0.0,0.0
0.0,0.0,0.0,0.0
8.054,0.081,-0.71,0.0
7.701,0.077,-0.724,0.0
0.0,0.0,0.0,0.0
0.0,0.0,0.0,0.0
0.0,0.0,0.0,0.0
0.0,0.0,0.0,0.0
7.97,0.076,-0.717,0.0
0.0,0.0,0.0,0.0
0.0,0.0,0.0,0.0
0.0,0.0,0.0,0.0
0.0,0.0,0.0,0.0
0.0,0.0,0.0,0.0
0.0,0.0,0.0,0.0
0.0,0.0,0.0,0.0
0.0,0.0,0.0,0.0
0.0,0.0,0.0,0.0
8.491,0.073,-0.693,0.0
0.0,0.0,0.0,0.0
0.0,0.0,0.0,0.0
7.462,0.062,-0.74,0.0
0.0,0.0,0.0,0.0
0.0,0.0,0.0,0.0
0.0,0.0,0.0,0.0
0.0,0.0,0.0,0.0
7.713,0.06,-0.733,0.0
7.363,0.057,-0.743,0.0
9.092,0.068,-0.666,0.0
0.0,0.0,0.0,0.0
8.304,0.061,-0.705,0.0
0.0,0.0,0.0,0.0
0.0,0.0,0.0,0.0
7.294,0.052,-0.748,0.0
8.948,0.061,-0.669,0.0
0.0,0.0,0.0,0.0
0.0,0.0,0.0,0.0
0.0,0.0,0.0,0.0
0.0,0.0,0.0,0.0
7.2,0.046,-0.75,0.0
0.0,0.0,0.0,0.0
0.0,0.0,0.0,0.0
8.086,0.048,-0.712,0.0
0.0,0.0,0.0,0.0
7.386,0.043,-0.737,0.0
7.1,0.041,-0.75,0.0
0.0,0.0,0.0,0.0
8.265,0.044,-0.692,0.0
0.0,0.0,0.0,0.0
7.684,0.04,-0.734,0.0
7.364,0.037,-0.746,0.0
7.027,0.035,-0.753,0.0
0.0,0.0,0.0,0.0
8.276,0.038,-0.706,0.0
0.0,0.0,0.0,0.0
0.0,0.0,0.0,0.0
7.274,0.031,-0.748,0.0
6.973,0.029,-0.758,0.0
0.0,0.0,0.0,0.0
8.14,0.031,-0.706,0.0
0.0,0.0,0.0,0.0
0.0,0.0,0.0,0.0
7.177,0.025,-0.749,0.0
6.884,0.024,-0.759,0.0
8.464,0.027,-0.697,0.0
8.138,0.025,-0.718,0.0
7.711,0.023,-0.725,0.0
7.374,0.021,-0.737,0.0
