X,Y,Z,Reflectivity
16.59,0.723,-0.373,0.0
29.374,1.294,0.144,0.0
26.376,1.169,-0.018,0.0
23.277,1.039,-0.147,1.0
20.269,0.91,-0.244,0.0
17.926,0.81,-0.317,0.0
16.336,0.743,-0.381,0.0
29.073,1.336,0.119,0.0
25.844,1.195,-0.039,0.0
23.055,1.072,-0.164,2.0
19.916,0.932,-0.256,0.0
17.687,0.832,-0.327,0.0
16.13,0.764,-0.389,0.0
28.716,1.373,0.094,0.0
25.395,1.221,-0.059,0.0
22.456,1.086,-0.179,1.0
19.596,0.953,-0.268,0.0
17.328,0.848,-0.335,0.0
15.927,0.784,-0.398,0.0
28.158,1.398,0.068,1.0
25.028,1.249,-0.08,0.0
21.9,1.099,-0.193,2.0
19.085,0.963,-0.278,0.0
17.112,0.868,-0.346,0.0
15.801,0.806,-0.409,0.0
27.452,1.412,0.042,0.0
24.668,1.276,-0.101,0.0
21.618,1.124,-0.21,3.0
18.711,0.978,-0.289,0.0
16.847,0.885,-0.356,0.0
15.61,0.824,-0.418,0.0
26.902,1.432,0.016,0.0
23.882,1.277,-0.119,0.0
21.357,1.148,-0.228,3.0
18.346,0.991,-0.301,0.0
16.688,0.906,-0.368,0.0
15.349,0.837,-0.425,0.0
26.367,1.45,-0.008,0.0
23.375,1.291,-0.139,0.0
20.962,1.163,-0.243,0.0
18.135,1.011,-0.315,0.0
16.494,0.924,-0.38,0.0
15.139,0.852,-0.434,0.0
25.84,1.465,-0.033,1.0
22.968,1.308,-0.159,0.0
20.026,1.146,-0.252,0.0
17.695,1.017,-0.325,0.0
16.13,0.931,-0.387,0.0
14.887,0.863,-0.442,0.0
25.433,1.486,-0.058,1.0
22.35,1.311,-0.177,0.0
19.47,1.147,-0.265,0.0
17.314,1.024,-0.335,0.0
15.914,0.945,-0.398,0.0
14.715,0.878,-0.452,0.0
24.777,1.489,-0.082,0.0
21.734,1.311,-0.195,1.0
19.066,1.155,-0.279,0.0
16.988,1.033,-0.347,0.0
15.762,0.963,-0.411,0.0
14.378,0.882,-0.457,0.0
24.341,1.503,-0.106,0.0
21.335,1.322,-0.214,1.0
18.647,1.16,-0.293,0.0
16.805,1.05,-0.361,0.0
15.492,0.972,-0.421,0.0
14.167,0.892,-0.465,0.0
23.667,1.499,-0.129,0.0
21.032,1.337,-0.234,0.0
18.284,1.167,-0.307,0.0
16.562,1.061,-0.374,0.0
15.117,0.972,-0.427,0.0
14.07,0.908,-0.477,0.0
23.184,1.505,-0.152,0.0
20.301,1.322,-0.248,0.0
17.788,1.163,-0.318,0.0
16.223,1.064,-0.384,0.0
15.05,0.991,-0.442,0.0
13.816,0.913,-0.484,0.0
22.503,1.496,-0.173,0.0
19.661,1.311,-0.263,0.0
17.389,1.163,-0.331,0.0
15.915,1.068,-0.395,0.0
14.682,0.989,-0.448,0.0
13.6,0.919,-0.492,0.0
10.234,0.201,-0.623,0.0
9.738,0.189,-0.645,0.0
9.254,0.178,-0.662,0.0
0.0,0.0,0.0,0.0
0.0,0.0,0.0,0.0
0.0,0.0,0.0,0.0
10.377,0.192,-0.617,0.0
9.991,0.183,-0.647,0.0
9.476,0.172,-0.663,0.0
9.02,0.162,-0.68,0.0
0.0,0.0,0.0,0.0
8.281,0.146,-0.713,0.0
10.562,0.185,-0.611,0.0
9.961,0.172,-0.629,0.0
9.536,0.163,-0.653,0.0
9.116,0.154,-0.674,0.0
0.0,0.0,0.0,0.0
8.353,0.138,-0.706,0.0
10.708,0.176,-0.603,0.0
10.215,0.166,-0.629,0.0
9.67,0.156,-0.647,0.0
0.0,0.0,0.0,0.0
8.81,0.138,-0.684,0.0
8.529,0.132,-0.707,0.0
10.85,0.168,-0.594,0.0
10.393,0.159,-0.624,0.0
0.0,0.0,0.0,0.0
0.0,0.0,0.0,0.0
8.923,0.131,-0.678,0.0
8.563,0.124,-0.696,0.0
11.101,0.16,-0.589,0.0
10.475,0.15,-0.611,0.0
0.0,0.0,0.0,0.0
0.0,0.0,0.0,0.0
0.0,0.0,0.0,0.0
0.0,0.0,0.0,0.0
11.239,0.152,-0.578,0.0
10.684,0.142,-0.606,0.0
10.135,0.133,-0.628,0.0
9.7,0.126,-0.653,0.0
9.161,0.117,-0.665,0.0
8.856,0.112,-0.69,0.0
11.517,0.145,-0.573,0.0
10.833,0.134,-0.596,0.0
10.298,0.126,-0.62,0.0
9.834,0.119,-0.645,0.0
9.287,0.11,-0.658,0.0
8.9,0.104,-0.678,0.0
11.719,0.137,-0.563,0.0
11.06,0.127,-0.589,0.0
10.502,0.119,-0.615,0.0
10.002,0.112,-0.639,0.0
0.0,0.0,0.0,0.0
9.067,0.098,-0.675,0.0
11.914,0.129,-0.551,0.0
11.273,0.12,-0.581,0.0
10.655,0.111,-0.605,0.0
10.138,0.104,-0.63,0.0
9.71,0.098,-0.654,0.0
9.199,0.092,-0.668,0.0
12.241,0.122,-0.545,0.0
11.501,0.113,-0.572,0.0
10.831,0.104,-0.595,0.0
10.314,0.098,-0.622,0.0
9.842,0.092,-0.645,0.0
0.0,0.0,0.0,0.0
12.42,0.113,-0.531,0.0
11.767,0.106,-0.564,0.0
11.095,0.098,-0.59,0.0
10.436,0.09,-0.611,0.0
9.99,0.085,-0.637,0.0
0.0,0.0,0.0,0.0
12.657,0.106,-0.517,0.0
11.957,0.098,-0.551,0.0
11.256,0.09,-0.578,0.0
10.674,0.084,-0.605,0.0
10.185,0.079,-0.63,0.0
9.695,0.074,-0.651,0.0
12.95,0.098,-0.505,0.0
12.289,0.091,-0.544,0.0
11.539,0.084,-0.571,0.0
10.923,0.078,-0.598,0.0
10.34,0.072,-0.62,0.0
9.854,0.068,-0.643,0.0
13.261,0.091,-0.493,0.0
12.511,0.084,-0.53,0.0
11.807,0.078,-0.562,0.0
11.112,0.072,-0.588,0.0
10.504,0.066,-0.61,0.0
10.04,0.062,-0.636,0.0
13.6,0.084,-0.48,0.0
12.768,0.077,-0.517,0.0
12.061,0.071,-0.551,0.0
11.272,0.065,-0.575,0.0
10.719,0.06,-0.602,0.0
10.267,0.057,-0.63,0.0
13.938,0.077,-0.465,0.0
13.057,0.07,-0.503,0.0
12.347,0.065,-0.54,0.0
11.554,0.059,-0.566,0.0
11.024,0.055,-0.598,0.0
10.42,0.051,-0.619,0.0
14.28,0.07,-0.448,0.0
13.376,0.064,-0.489,0.0
12.584,0.058,-0.526,0.0
11.888,0.054,-0.559,0.0
11.219,0.049,-0.586,0.0
10.634,0.045,-0.611,0.0
14.748,0.063,-0.434,0.0
13.732,0.057,-0.475,0.0
12.835,0.052,-0.511,0.0
12.152,0.048,-0.548,0.0
11.475,0.044,-0.577,0.0
10.816,0.04,-0.6,0.0
15.219,0.057,-0.418,0.0
14.071,0.051,-0.459,0.0
13.175,0.046,-0.498,0.0
12.421,0.042,-0.535,0.0
11.726,0.039,-0.566,0.0
11.071,0.035,-0.592,0.0
15.744,0.05,-0.401,0.0
14.489,0.045,-0.444,0.0
13.549,0.04,-0.485,0.0
12.639,0.036,-0.519,0.0
11.928,0.033,-0.552,0.0
11.335,0.031,-0.583,0.0
16.23,0.044,-0.381,0.0
14.968,0.039,-0.428,0.0
13.88,0.035,-0.469,0.0
13.001,0.031,-0.508,0.0
12.289,0.029,-0.544,0.0
11.547,0.026,-0.57,0.0
16.712,0.038,-0.358,0.0
15.519,0.033,-0.412,0.0
14.307,0.03,-0.454,0.0
13.375,0.026,-0.495,0.0
12.571,0.024,-0.53,0.0
11.89,0.021,-0.563,0.0
17.247,0.031,-0.333,0.0
15.991,0.028,-0.392,0.0
14.718,0.024,-0.436,0.0
13.671,0.021,-0.477,0.0
12.83,0.019,-0.514,0.0
12.175,0.017,-0.551,0.0
17.942,0.026,-0.31,0.0
16.535,0.022,-0.371,0.0
15.262,0.02,-0.421,0.0
14.031,0.017,-0.461,0.0
13.183,0.015,-0.501,0.0
12.409,0.013,-0.536,0.0
18.729,0.02,-0.284,0.0
16.996,0.017,-0.346,0.0
15.809,0.015,-0.403,0.0
14.462,0.013,-0.445,0.0
13.581,0.011,-0.488,0.0
12.685,0.009,-0.521,0.0
19.853,0.015,-0.26,0.0
17.552,0.012,-0.32,0.0
16.271,0.01,-0.381,0.0
15.014,0.009,-0.43,0.0
13.909,0.007,-0.471,0.0
13.018,0.006,-0.508,0.0
21.041,0.01,-0.232,2.0
18.375,0.008,-0.297,0.0
16.764,0.006,-0.357,0.0
15.568,0.005,-0.413,0.0
14.292,0.004,-0.453,0.0
13.42,0.003,-0.495,0.0
21.884,0.005,-0.195,0.0
19.369,0.004,-0.272,0.0
17.339,0.003,-0.333,0.0
16.026,0.002,-0.392,0.0
14.769,0.001,-0.437,0.0
13.821,0.0,-0.48,0.0
23.424,0.001,-0.159,1.0
20.778,0.0,-0.248,0.0
18.146,0.0,-0.31,0.0
16.584,0.0,-0.37,0.0
15.339,-0.001,-0.421,0.0
14.139,-0.001,-0.461,0.0
24.257,-0.002,-0.113,0.0
21.444,-0.002,-0.21,2.0
18.886,-0.003,-0.282,0.0
17.086,-0.003,-0.345,0.0
15.87,-0.003,-0.402,0.0
14.575,-0.003,-0.444,0.0
25.707,-0.005,-0.064,0.0
23.003,-0.005,-0.176,0.0
20.13,-0.005,-0.257,0.0
17.73,-0.005,-0.319,0.0
16.41,-0.005,-0.38,0.0
15.089,-0.005,-0.427,0.0
57.723,5.98,3.442,26.0
58.314,6.036,3.142,32.0
58.527,6.052,2.816,32.0
59.093,6.104,2.498,27.0
58.959,6.086,2.154,24.0
60.005,6.188,1.848,28.0
57.917,5.969,3.377,27.0
58.698,6.043,3.085,33.0
58.789,6.047,2.751,26.0
58.987,6.061,2.415,26.0
59.21,6.078,2.085,33.0
59.674,6.12,1.76,21.0
57.917,5.936,3.3,25.0
58.754,6.015,3.01,27.0
59.081,6.042,2.687,33.0
58.945,6.022,2.336,26.0
59.664,6.089,2.023,30.0
59.673,6.084,1.681,30.0
58.169,5.925,3.238,33.0
58.883,5.991,2.939,23.0
59.538,6.051,2.629,33.0
58.897,5.979,2.257,28.0
59.954,6.08,1.953,21.0
59.889,6.067,1.608,19.0
58.578,5.928,3.183,29.0
58.817,5.945,2.858,30.0
59.378,5.995,2.545,26.0
58.937,5.944,2.182,26.0
60.133,6.057,1.881,18.0
60.031,6.04,1.534,2.0
58.78,5.907,3.118,34.0
59.033,5.925,2.791,23.0
59.29,5.943,2.463,22.0
60.231,6.03,2.151,15.0
60.28,6.027,1.806,27.0
52.831,5.277,1.281,1.0
58.909,5.875,3.047,30.0
60.123,5.988,2.765,12.0
59.285,5.897,2.386,29.0
60.277,5.988,2.074,23.0
60.357,5.988,1.731,19.0
51.564,5.11,1.183,5.0
58.97,5.834,2.974,22.0
60.175,5.945,2.689,34.0
59.716,5.892,2.326,34.0
60.178,5.929,1.992,13.0
60.593,5.962,1.659,13.0
51.432,5.055,1.114,3.0
59.703,5.857,2.933,17.0
59.832,5.861,2.597,34.0
59.355,5.806,2.235,21.0
60.348,5.895,1.921,16.0
60.325,5.885,1.575,7.0
46.918,4.571,0.956,1.0
0.0,0.0,0.0,0.0
59.899,5.814,2.523,30.0
61.135,5.925,2.224,35.0
63.129,6.11,1.93,20.0
52.861,5.108,1.313,0.0
46.924,4.529,0.897,3.0
60.221,5.799,2.805,19.0
60.161,5.783,2.457,20.0
60.872,5.842,2.137,23.0
62.864,6.025,1.841,22.0
51.975,4.973,1.224,12.0
46.856,4.477,0.836,7.0
60.158,5.734,2.726,25.0
60.456,5.753,2.392,32.0
60.368,5.735,2.043,24.0
62.765,5.953,1.76,9.0
51.592,4.886,1.151,9.0
46.961,4.44,0.779,5.0
60.113,5.669,2.648,27.0
60.813,5.725,2.33,14.0
61.079,5.74,1.99,26.0
61.989,5.816,1.66,6.0
50.559,4.735,1.065,3.0
47.171,4.411,0.724,3.0
60.597,5.651,2.593,26.0
61.076,5.684,2.264,22.0
61.992,5.759,1.943,12.0
52.172,4.838,1.332,7.0
48.036,4.447,0.952,2.0
47.367,4.378,0.668,1.0
60.54,5.578,2.516,25.0
61.141,5.623,2.191,16.0
62.135,5.704,1.871,10.0
52.006,4.765,1.264,10.0
47.721,4.365,0.888,4.0
41.072,3.75,0.529,0.0
60.86,5.539,2.456,24.0
62.408,5.668,2.161,33.0
52.182,4.731,1.509,18.0
51.703,4.678,1.194,6.0
47.813,4.318,0.832,4.0
0.0,0.0,0.0,0.0
146.147,-12.428,12.682,9.0
0.0,0.0,0.0,0.0
145.506,-12.369,11.08,5.0
146.405,-12.442,10.356,7.0
148.365,-12.607,9.709,13.0
151.936,-12.91,9.137,10.0
146.224,-12.453,12.897,12.0
145.777,-12.411,12.08,13.0
145.537,-12.386,11.286,10.0
152.143,-12.945,10.975,11.0
145.975,-12.417,9.756,4.0
148.986,-12.67,9.168,6.0
146.742,-12.509,13.149,3.0
145.739,-12.418,12.283,11.0
145.355,-12.38,11.476,15.0
146.812,-12.499,10.796,4.0
146.061,-12.432,9.964,12.0
148.793,-12.659,9.361,14.0
146.873,-12.526,13.366,8.0
153.777,-13.108,13.175,5.0
145.103,-12.362,11.659,11.0
145.528,-12.393,10.904,11.0
146.217,-12.445,10.179,14.0
148.395,-12.625,9.542,17.0
146.874,-12.527,13.571,11.0
146.14,-12.455,12.722,10.0
145.538,-12.396,11.893,4.0
154.515,-13.154,11.789,4.0
152.237,-12.951,10.806,6.0
148.367,-12.617,9.74,10.0
146.551,-12.492,13.742,4.0
0.0,0.0,0.0,0.0
145.853,-12.414,12.119,14.0
145.505,-12.376,11.298,12.0
152.223,-12.94,11.008,12.0
146.018,-12.403,9.783,2.0
145.604,-12.399,13.85,13.0
146.841,-12.494,13.182,4.0
145.796,-12.394,12.308,9.0
145.387,-12.35,11.481,15.0
146.781,-12.46,10.809,4.0
146.024,-12.386,9.975,10.0
145.611,-12.381,14.045,20.0
146.94,-12.483,13.384,3.0
153.825,-13.054,13.189,5.0
145.156,-12.308,11.655,12.0
145.593,-12.335,10.912,8.0
146.104,-12.368,10.171,15.0
145.583,-12.353,14.235,19.0
144.842,-12.278,13.384,8.0
146.243,-12.383,12.729,8.0
145.412,-12.301,11.864,9.0
145.849,-12.327,11.119,4.0
146.249,-12.351,10.368,7.0
145.486,-12.315,14.411,19.0
144.849,-12.248,13.569,14.0
146.614,-12.383,12.948,3.0
145.93,-12.311,12.09,10.0
145.945,-12.3,11.311,11.0
145.317,-12.235,10.485,3.0
145.235,-12.257,14.572,13.0
144.817,-12.207,13.749,10.0
145.046,-12.212,12.992,10.0
146.375,-12.308,12.312,11.0
145.482,-12.22,11.456,13.0
145.43,-12.202,10.675,9.0
145.218,-12.214,14.752,11.0
145.904,-12.255,14.035,8.0
145.047,-12.168,13.171,12.0
146.055,-12.237,12.464,11.0
145.264,-12.154,11.618,11.0
145.452,-12.155,10.854,15.0
146.598,-12.281,15.074,7.0
145.716,-12.19,14.196,14.0
145.005,-12.113,13.345,13.0
145.445,-12.133,12.588,14.0
145.256,-12.101,11.792,3.0
145.466,-12.103,11.029,13.0
147.388,-12.292,15.332,7.0
145.617,-12.126,14.361,12.0
145.035,-12.059,13.521,13.0
145.338,-12.068,12.751,13.0
146.478,-12.145,12.063,8.0
145.945,-12.084,11.235,11.0
147.451,-12.238,15.513,11.0
145.638,-12.068,14.534,12.0
144.926,-11.989,13.68,11.0
145.56,-12.024,12.938,14.0
146.327,-12.069,12.219,12.0
146.647,-12.076,11.458,12.0
147.494,-12.174,15.688,12.0
145.894,-12.022,14.727,18.0
144.927,-11.923,13.845,4.0
145.339,-11.936,13.084,18.0
146.162,-11.985,12.37,11.0
146.841,-12.021,11.637,7.0
147.574,-12.11,15.862,4.0
146.589,-12.007,14.961,14.0
144.805,-11.84,13.994,3.0
145.27,-11.858,13.238,18.0
145.944,-11.892,12.51,17.0
146.265,-11.897,11.751,21.0
148.835,-12.136,16.161,11.0
146.765,-11.944,15.138,14.0
148.777,-12.085,14.539,4.0
145.019,-11.758,13.371,19.0
145.761,-11.797,12.651,12.0
145.866,-11.784,11.873,11.0
148.317,-12.01,16.264,14.0
146.544,-11.844,15.271,15.0
147.052,-11.861,14.524,3.0
145.026,-11.675,13.523,11.0
145.471,-11.688,12.776,13.0
145.817,-11.695,12.017,10.0
148.339,-11.924,16.42,13.0
146.56,-11.757,15.423,11.0
0.0,0.0,0.0,0.0
0.0,0.0,0.0,0.0
145.416,-11.593,12.919,15.0
146.144,-11.629,12.191,13.0
148.638,-11.855,16.603,13.0
146.33,-11.645,15.546,4.0
148.3,-11.777,14.945,5.0
145.664,-11.543,13.872,16.0
145.431,-11.5,13.06,14.0
145.942,-11.517,12.315,15.0
148.641,-11.757,16.746,13.0
148.683,-11.732,15.939,12.0
148.499,-11.693,15.107,6.0
145.809,-11.456,14.023,18.0
145.855,-11.434,13.235,19.0
145.902,-11.414,12.446,12.0
151.325,-11.866,17.189,5.0
148.23,-11.594,16.027,9.0
148.106,-11.558,15.203,14.0
145.739,-11.347,14.149,20.0
146.22,-11.358,13.399,11.0
145.779,-11.299,12.566,14.0
0.0,0.0,0.0,0.0
150.889,-11.691,16.45,4.0
148.169,-11.454,15.341,14.0
145.708,-11.236,14.275,21.0
118.995,-9.154,11.008,7.0
145.714,-11.184,12.687,11.0
0.0,0.0,0.0,0.0
148.601,-11.4,16.329,8.0
148.028,-11.327,15.454,13.0
145.578,-11.112,14.386,25.0
146.467,-11.152,13.674,4.0
119.32,-9.063,10.488,9.0
0.0,0.0,0.0,0.0
148.676,-11.287,16.46,12.0
148.072,-11.213,15.579,14.0
145.49,-10.989,14.495,19.0
147.416,-11.105,13.881,11.0
119.247,-8.96,10.577,10.0
148.336,-11.138,16.541,17.0
148.523,-11.121,15.745,7.0
145.53,-10.869,14.613,11.0
147.047,-10.953,13.959,5.0
119.151,-8.852,10.659,11.0
90.626,-6.746,10.675,3.0
148.374,-11.013,16.658,14.0
148.617,-11.0,15.866,5.0
0.0,0.0,0.0,0.0
147.201,-10.835,14.082,14.0
119.217,-8.752,10.752,9.0
90.701,-6.672,10.75,17.0
148.445,-10.887,16.773,4.0
148.316,-10.846,15.94,16.0
91.67,-6.685,9.337,12.0
146.738,-10.671,14.139,15.0
119.446,-8.662,10.853,16.0
90.569,-6.579,10.796,9.0
148.394,-10.748,16.868,12.0
148.387,-10.714,16.048,16.0
148.34,-10.679,15.209,6.0
91.023,-6.533,8.831,4.0
119.091,-8.523,10.9,11.0
89.972,-6.45,10.785,8.0
91.083,-6.51,10.412,16.0
148.661,-10.593,16.172,10.0
91.063,-6.468,9.394,13.0
91.136,-6.455,8.898,15.0
117.024,-8.265,10.781,8.0
89.991,-6.365,10.842,26.0
90.838,-6.404,10.44,20.0
148.591,-10.443,16.253,14.0
91.046,-6.38,9.444,12.0
91.196,-6.37,8.957,8.0
117.399,-8.175,10.883,14.0
83.09,-0.043,5.748,24.0
96.388,-0.044,6.104,9.0
151.022,-0.06,8.677,33.0
151.068,-0.051,7.779,7.0
201.838,-0.056,9.212,14.0
0.0,0.0,0.0,0.0
83.028,-0.002,5.581,30.0
91.452,0.001,5.611,9.0
151.053,0.011,8.385,41.0
201.272,0.026,9.973,24.0
201.867,0.036,8.822,9.0
83.347,0.019,3.155,20.0
87.297,0.036,5.697,11.0
96.881,0.045,5.754,14.0
151.118,0.078,8.092,39.0
201.671,0.113,9.598,22.0
83.314,0.05,3.478,10.0
83.262,0.054,2.989,26.0
87.104,0.072,5.512,8.0
151.043,0.131,8.673,20.0
151.056,0.138,7.787,8.0
83.321,0.08,3.8,13.0
83.297,0.083,3.311,31.0
78.096,0.081,2.647,18.0
83.347,0.101,5.108,7.0
151.069,0.188,8.373,28.0
83.268,0.107,4.126,12.0
83.283,0.11,3.632,38.0
83.263,0.113,3.143,34.0
83.186,0.116,2.653,13.0
83.261,0.129,4.933,14.0
83.281,0.132,4.447,13.0
83.307,0.135,3.96,32.0
83.276,0.138,3.462,35.0
83.246,0.14,2.973,23.0
78.166,0.134,2.334,7.0
83.256,0.155,4.764,16.0
83.234,0.158,4.273,21.0
83.254,0.16,3.786,41.0
83.251,0.162,3.291,43.0
78.079,0.154,2.63,12.0
76.666,0.153,2.133,3.0
83.273,0.178,4.594,20.0
83.227,0.18,4.102,38.0
83.24,0.182,3.615,44.0
83.244,0.184,3.12,40.0
83.091,0.185,2.628,13.0
76.201,0.172,1.964,3.0
83.219,0.198,4.418,25.0
83.255,0.2,3.93,44.0
83.257,0.201,3.444,39.0
83.244,0.202,2.947,12.0
78.11,0.191,2.307,7.0
0.0,0.0,0.0,0.0
83.235,0.215,4.245,30.0
83.247,0.216,3.757,42.0
83.261,0.217,3.269,45.0
83.191,0.218,2.771,20.0
76.196,0.2,2.093,3.0
0.0,0.0,0.0,0.0
83.223,0.228,4.072,40.0
83.266,0.229,3.586,48.0
83.242,0.23,3.096,39.0
83.074,0.23,2.594,10.0
76.003,0.211,1.93,2.0
0.0,0.0,0.0,0.0
83.234,0.239,3.897,41.0
83.245,0.239,3.409,47.0
83.228,0.239,2.921,12.0
78.04,0.224,2.273,3.0
0.0,0.0,0.0,0.0
0.0,0.0,0.0,0.0
83.252,0.246,3.72,43.0
83.257,0.246,3.233,49.0
83.177,0.246,2.742,16.0
75.95,0.224,2.052,4.0
0.0,0.0,0.0,0.0
39.842,0.117,0.61,0.0
83.259,0.251,3.548,42.0
83.261,0.25,3.06,27.0
83.044,0.248,2.565,8.0
76.069,0.227,1.896,0.0
0.0,0.0,0.0,0.0
36.961,0.109,0.488,0.0
83.258,0.252,3.371,41.0
83.221,0.25,2.88,13.0
0.0,0.0,0.0,0.0
0.0,0.0,0.0,0.0
42.154,0.125,0.714,0.0
35.501,0.104,0.393,0.0
83.261,0.25,3.193,45.0
83.147,0.248,2.7,15.0
75.963,0.225,2.022,3.0
0.0,0.0,0.0,0.0
39.941,0.116,0.591,0.0
32.86,0.095,0.294,0.0
16.541,-1.841,-0.362,0.0
14.981,-1.666,-0.408,0.0
13.954,-1.55,-0.454,0.0
12.997,-1.443,-0.493,0.0
12.254,-1.359,-0.53,0.0
11.562,-1.282,-0.562,0.0
16.912,-1.873,-0.349,0.0
15.46,-1.711,-0.401,0.0
14.252,-1.576,-0.446,0.0
13.246,-1.463,-0.486,0.0
12.384,-1.367,-0.52,0.0
11.697,-1.29,-0.554,0.0
17.266,-1.903,-0.335,0.0
15.761,-1.735,-0.39,0.0
14.477,-1.592,-0.435,0.0
13.439,-1.476,-0.476,0.0
11.841,-1.298,-0.546,0.0
17.666,-1.936,-0.321,0.0
16.099,-1.762,-0.378,0.0
14.69,-1.606,-0.423,0.0
13.694,-1.496,-0.468,0.0
12.704,-1.386,-0.502,0.0
11.963,-1.304,-0.537,0.0
18.119,-1.974,-0.307,0.0
16.52,-1.797,-0.367,0.0
15.047,-1.635,-0.414,0.0
13.865,-1.505,-0.457,0.0
12.913,-1.4,-0.494,0.0
12.208,-1.322,-0.532,0.0
18.754,-2.03,-0.294,0.0
16.824,-1.818,-0.353,0.0
15.376,-1.659,-0.405,0.0
14.117,-1.522,-0.448,0.0
13.028,-1.403,-0.483,0.0
12.308,-1.323,-0.522,0.0
19.286,-2.073,-0.279,0.0
17.175,-1.843,-0.34,0.0
15.499,-1.661,-0.389,0.0
14.456,-1.547,-0.441,0.0
13.32,-1.423,-0.477,0.0
12.48,-1.332,-0.514,0.0
19.733,-2.105,-0.262,0.0
17.588,-1.873,-0.327,0.0
15.863,-1.687,-0.379,0.0
14.663,-1.557,-0.43,0.0
13.683,-1.451,-0.474,0.0
12.703,-1.345,-0.507,0.0
20.151,-2.133,-0.243,0.0
17.917,-1.893,-0.311,0.0
16.39,-1.729,-0.372,0.0
14.971,-1.577,-0.421,0.0
13.833,-1.455,-0.462,0.0
12.973,-1.362,-0.503,0.0
21.3,-2.236,-0.231,0.0
18.606,-1.95,-0.301,0.0
16.716,-1.748,-0.359,0.0
15.184,-1.586,-0.408,0.0
14.122,-1.472,-0.455,0.0
13.054,-1.359,-0.49,0.0
21.744,-2.262,-0.21,0.0
19.113,-1.985,-0.286,0.0
17.022,-1.765,-0.346,0.0
15.462,-1.6,-0.398,0.0
14.322,-1.479,-0.445,0.0
13.243,-1.366,-0.482,0.0
22.444,-2.314,-0.191,0.0
19.521,-2.008,-0.27,0.0
17.42,-1.789,-0.333,0.0
15.844,-1.624,-0.389,0.0
14.626,-1.496,-0.437,0.0
13.551,-1.384,-0.477,0.0
22.908,-2.339,-0.168,0.0
34.03,-3.467,-0.431,0.0
17.756,-1.805,-0.319,0.0
16.084,-1.632,-0.376,0.0
14.812,-1.5,-0.426,0.0
13.807,-1.395,-0.47,0.0
34.001,-3.435,-0.211,1.0
33.988,-3.427,-0.392,4.0
34.062,-3.427,-0.574,1.0
16.556,-1.662,-0.369,0.0
15.06,-1.509,-0.415,0.0
13.988,-1.398,-0.46,0.0
33.993,-3.397,-0.172,3.0
33.995,-3.39,-0.353,1.0
18.954,-1.886,-0.298,0.0
16.792,-1.667,-0.355,0.0
15.384,-1.524,-0.407,0.0
14.191,-1.403,-0.451,0.0
33.946,-3.354,-0.134,0.0
22.334,-2.201,-0.207,0.0
19.296,-1.898,-0.282,0.0
17.163,-1.684,-0.344,0.0
15.601,-1.527,-0.396,0.0
14.395,-1.406,-0.442,0.0
25.452,-2.485,-0.073,0.0
22.566,-2.198,-0.185,2.0
19.663,-1.911,-0.266,0.0
17.509,-1.697,-0.332,0.0
15.857,-1.534,-0.385,0.0
14.704,-1.419,-0.436,0.0
26.055,-2.513,-0.047,0.0
23.046,-2.217,-0.164,1.0
20.19,-1.937,-0.251,0.0
17.802,-1.704,-0.319,0.0
16.264,-1.553,-0.378,0.0
14.756,-1.406,-0.422,0.0
26.558,-2.528,-0.019,0.0
23.453,-2.227,-0.142,1.0
21.094,-1.998,-0.24,0.0
18.14,-1.713,-0.306,0.0
16.632,-1.567,-0.369,0.0
15.075,-1.417,-0.415,0.0
27.329,-2.567,0.008,0.0
23.681,-2.218,-0.119,0.0
21.291,-1.989,-0.221,1.0
18.743,-1.746,-0.296,0.0
16.891,-1.569,-0.357,0.0
15.43,-1.429,-0.409,0.0
27.964,-2.59,0.036,0.0
24.695,-2.28,-0.099,0.0
22.029,-2.028,-0.206,0.0
19.248,-1.767,-0.285,0.0
17.122,-1.568,-0.345,0.0
15.66,-1.43,-0.399,0.0
28.523,-2.602,0.066,0.0
25.507,-2.32,-0.077,0.0
22.606,-2.05,-0.189,0.0
19.538,-1.767,-0.27,0.0
15.797,-1.42,-0.387,0.0
29.217,-2.625,0.096,0.0
25.874,-2.317,-0.053,0.0
23.065,-2.059,-0.17,1.0
20.275,-1.804,-0.26,0.0
17.677,-1.568,-0.322,0.0
16.132,-1.427,-0.38,0.0
29.647,-2.621,0.126,0.0
26.427,-2.328,-0.028,0.0
23.331,-2.049,-0.15,1.0
20.798,-1.821,-0.247,1.0
18.047,-1.575,-0.311,0.0
16.482,-1.434,-0.372,0.0
30.095,-2.616,0.156,0.0
27.25,-2.361,-0.004,0.0
23.561,-2.034,-0.13,0.0
20.978,-1.805,-0.23,1.0
18.517,-1.588,-0.302,0.0
16.775,-1.434,-0.364,0.0
30.691,-2.622,0.187,0.0
27.471,-2.338,0.02,0.0
33.872,-2.874,-0.156,1.0
33.838,-2.861,-0.341,2.0
18.879,-1.59,-0.291,0.0
16.924,-1.421,-0.352,0.0
31.569,-2.649,0.22,0.0
33.855,-2.83,0.054,1.0
33.836,-2.818,-0.127,2.0
33.839,-2.808,-0.312,10.0
19.248,-1.591,-0.28,0.0
17.215,-1.418,-0.343,0.0
32.11,-2.643,0.251,0.0
33.873,-2.778,0.083,1.0
33.859,-2.766,-0.098,0.0
33.847,-2.755,-0.283,6.0
19.634,-1.592,-0.269,0.0
17.555,-1.418,-0.335,0.0
32.987,-2.662,0.286,0.0
33.854,-2.722,0.111,0.0
33.871,-2.712,-0.07,0.0
33.869,-2.701,-0.256,5.0
19.954,-1.585,-0.258,0.0
17.733,-1.403,-0.324,0.0
34.144,-2.699,0.323,0.0
29.596,-2.33,0.121,0.0
33.877,-2.656,-0.043,1.0
33.856,-2.644,-0.228,4.0
20.788,-1.616,-0.252,0.0
17.947,-1.39,-0.314,0.0
34.563,-2.674,0.354,0.0
30.067,-2.317,0.146,0.0
33.863,-2.598,-0.017,2.0
33.876,-2.588,-0.203,8.0
33.874,-2.577,-0.385,4.0
18.335,-1.389,-0.307,0.0
35.671,-2.699,0.392,0.0
30.483,-2.297,0.171,0.0
33.898,-2.543,0.007,3.0
33.885,-2.531,-0.178,13.0
33.89,-2.52,-0.361,8.0
18.614,-1.378,-0.298,0.0
7.458,0.432,-0.741,0.0
7.102,0.411,-0.747,0.0
0.0,0.0,0.0,0.0
0.0,0.0,0.0,0.0
0.0,0.0,0.0,0.0
0.0,0.0,0.0,0.0
7.42,0.423,-0.742,0.0
7.122,0.405,-0.753,0.0
0.0,0.0,0.0,0.0
0.0,0.0,0.0,0.0
0.0,0.0,0.0,0.0
0.0,0.0,0.0,0.0
7.406,0.414,-0.744,0.0
0.0,0.0,0.0,0.0
0.0,0.0,0.0,0.0
0.0,0.0,0.0,0.0
0.0,0.0,0.0,0.0
0.0,0.0,0.0,0.0
7.399,0.406,-0.747,0.0
0.0,0.0,0.0,0.0
0.0,0.0,0.0,0.0
0.0,0.0,0.0,0.0
0.0,0.0,0.0,0.0
0.0,0.0,0.0,0.0
7.346,0.396,-0.745,0.0
0.0,0.0,0.0,0.0
0.0,0.0,0.0,0.0
0.0,0.0,0.0,0.0
0.0,0.0,0.0,0.0
0.0,0.0,0.0,0.0
7.318,0.386,-0.745,0.0
0.0,0.0,0.0,0.0
0.0,0.0,0.0,0.0
0.0,0.0,0.0,0.0
0.0,0.0,0.0,0.0
0.0,0.0,0.0,0.0
7.308,0.378,-0.746,0.0
0.0,0.0,0.0,0.0
0.0,0.0,0.0,0.0
0.0,0.0,0.0,0.0
0.0,0.0,0.0,0.0
0.0,0.0,0.0,0.0
7.329,0.371,-0.75,0.0
0.0,0.0,0.0,0.0
0.0,0.0,0.0,0.0
0.0,0.0,0.0,0.0
0.0,0.0,0.0,0.0
0.0,0.0,0.0,0.0
7.293,0.361,-0.748,0.0
0.0,0.0,0.0,0.0
0.0,0.0,0.0,0.0
0.0,0.0,0.0,0.0
0.0,0.0,0.0,0.0
0.0,0.0,0.0,0.0
7.271,0.351,-0.748,0.0
0.0,0.0,0.0,0.0
0.0,0.0,0.0,0.0
0.0,0.0,0.0,0.0
0.0,0.0,0.0,0.0
0.0,0.0,0.0,0.0
7.267,0.343,-0.748,0.0
0.0,0.0,0.0,0.0
0.0,0.0,0.0,0.0
0.0,0.0,0.0,0.0
0.0,0.0,0.0,0.0
0.0,0.0,0.0,0.0
7.242,0.333,-0.747,0.0
0.0,0.0,0.0,0.0
0.0,0.0,0.0,0.0
0.0,0.0,0.0,0.0
0.0,0.0,0.0,0.0
0.0,0.0,0.0,0.0
7.24,0.325,-0.747,0.0
0.0,0.0,0.0,0.0
0.0,0.0,0.0,0.0
0.0,0.0,0.0,0.0
0.0,0.0,0.0,0.0
0.0,0.0,0.0,0.0
7.217,0.315,-0.745,0.0
0.0,0.0,0.0,0.0
0.0,0.0,0.0,0.0
0.0,0.0,0.0,0.0
0.0,0.0,0.0,0.0
0.0,0.0,0.0,0.0
7.228,0.307,-0.746,0.0
0.0,0.0,0.0,0.0
0.0,0.0,0.0,0.0
0.0,0.0,0.0,0.0
0.0,0.0,0.0,0.0
0.0,0.0,0.0,0.0
7.232,0.299,-0.746,0.0
0.0,0.0,0.0,0.0
0.0,0.0,0.0,0.0
0.0,0.0,0.0,0.0
0.0,0.0,0.0,0.0
0.0,0.0,0.0,0.0
7.208,0.289,-0.742,0.0
0.0,0.0,0.0,0.0
6.753,0.268,-0.771,0.0
0.0,0.0,0.0,0.0
0.0,0.0,0.0,0.0
0.0,0.0,0.0,0.0
7.267,0.283,-0.747,0.0
0.0,0.0,0.0,0.0
0.0,0.0,0.0,0.0
0.0,0.0,0.0,0.0
0.0,0.0,0.0,0.0
0.0,0.0,0.0,0.0
7.269,0.274,-0.746,0.0
0.0,0.0,0.0,0.0
0.0,0.0,0.0,0.0
0.0,0.0,0.0,0.0
0.0,0.0,0.0,0.0
0.0,0.0,0.0,0.0
7.262,0.265,-0.743,0.0
0.0,0.0,0.0,0.0
0.0,0.0,0.0,0.0
0.0,0.0,0.0,0.0
0.0,0.0,0.0,0.0
0.0,0.0,0.0,0.0
7.279,0.256,-0.743,0.0
0.0,0.0,0.0,0.0
0.0,0.0,0.0,0.0
0.0,0.0,0.0,0.0
0.0,0.0,0.0,0.0
0.0,0.0,0.0,0.0
7.315,0.249,-0.744,0.0
0.0,0.0,0.0,0.0
0.0,0.0,0.0,0.0
0.0,0.0,0.0,0.0
0.0,0.0,0.0,0.0
0.0,0.0,0.0,0.0
7.339,0.241,-0.744,0.0
0.0,0.0,0.0,0.0
0.0,0.0,0.0,0.0
0.0,0.0,0.0,0.0
0.0,0.0,0.0,0.0
0.0,0.0,0.0,0.0
7.337,0.232,-0.741,0.0
7.12,0.223,-0.758,0.0
0.0,0.0,0.0,0.0
0.0,0.0,0.0,0.0
0.0,0.0,0.0,0.0
0.0,0.0,0.0,0.0
7.379,0.224,-0.741,0.0
7.069,0.213,-0.749,0.0
0.0,0.0,0.0,0.0
0.0,0.0,0.0,0.0
0.0,0.0,0.0,0.0
0.0,0.0,0.0,0.0
7.387,0.215,-0.738,0.0
7.151,0.207,-0.754,0.0
0.0,0.0,0.0,0.0
0.0,0.0,0.0,0.0
0.0,0.0,0.0,0.0
0.0,0.0,0.0,0.0
7.401,0.207,-0.736,0.0
7.165,0.199,-0.752,0.0
0.0,0.0,0.0,0.0
0.0,0.0,0.0,0.0
0.0,0.0,0.0,0.0
0.0,0.0,0.0,0.0
7.447,0.199,-0.736,0.0
7.199,0.191,-0.751,0.0
0.0,0.0,0.0,0.0
0.0,0.0,0.0,0.0
0.0,0.0,0.0,0.0
0.0,0.0,0.0,0.0
0.0,0.0,0.0,0.0
7.227,0.183,-0.749,0.0
0.0,0.0,0.0,0.0
0.0,0.0,0.0,0.0
0.0,0.0,0.0,0.0
0.0,0.0,0.0,0.0
0.0,0.0,0.0,0.0
7.243,0.175,-0.745,0.0
0.0,0.0,0.0,0.0
0.0,0.0,0.0,0.0
0.0,0.0,0.0,0.0
0.0,0.0,0.0,0.0
0.0,0.0,0.0,0.0
7.316,0.168,-0.747,0.0
0.0,0.0,0.0,0.0
0.0,0.0,0.0,0.0
0.0,0.0,0.0,0.0
0.0,0.0,0.0,0.0
0.0,0.0,0.0,0.0
7.313,0.159,-0.741,0.0
0.0,0.0,0.0,0.0
0.0,0.0,0.0,0.0
0.0,0.0,0.0,0.0
0.0,0.0,0.0,0.0
0.0,0.0,0.0,0.0
7.383,0.152,-0.742,0.0
7.115,0.145,-0.754,0.0
0.0,0.0,0.0,0.0
0.0,0.0,0.0,0.0
0.0,0.0,0.0,0.0
0.0,0.0,0.0,0.0
7.395,0.144,-0.737,0.0
7.215,0.139,-0.758,0.0
0.0,0.0,0.0,0.0
0.0,0.0,0.0,0.0
0.0,0.0,0.0,0.0
7.789,0.144,-0.726,0.0
0.0,0.0,0.0,0.0
7.145,0.129,-0.744,0.0
0.0,0.0,0.0,0.0
0.0,0.0,0.0,0.0
0.0,0.0,0.0,0.0
0.0,0.0,0.0,0.0
0.0,0.0,0.0,0.0
7.244,0.123,-0.747,0.0
0.0,0.0,0.0,0.0
0.0,0.0,0.0,0.0
0.0,0.0,0.0,0.0
0.0,0.0,0.0,0.0
0.0,0.0,0.0,0.0
7.316,0.116,-0.748,0.0
0.0,0.0,0.0,0.0
0.0,0.0,0.0,0.0
0.0,0.0,0.0,0.0
0.0,0.0,0.0,0.0
0.0,0.0,0.0,0.0
7.361,0.108,-0.744,0.0
0.0,0.0,0.0,0.0
0.0,0.0,0.0,0.0
0.0,0.0,0.0,0.0
0.0,0.0,0.0,0.0
0.0,0.0,0.0,0.0
7.42,0.101,-0.742,0.0
0.0,0.0,0.0,0.0
0.0,0.0,0.0,0.0
0.0,0.0,0.0,0.0
8.09,0.105,-0.712,0.0
0.0,0.0,0.0,0.0
0.0,0.0,0.0,0.0
7.213,0.089,-0.753,0.0
0.0,0.0,0.0,0.0
0.0,0.0,0.0,0.0
8.193,0.098,-0.712,0.0
0.0,0.0,0.0,0.0
0.0,0.0,0.0,0.0
7.205,0.082,-0.743,0.0
0.0,0.0,0.0,0.0
0.0,0.0,0.0,0.0
0.0,0.0,0.0,0.0
0.0,0.0,0.0,0.0
0.0,0.0,0.0,0.0
7.305,0.075,-0.745,0.0
0.0,0.0,0.0,0.0
0.0,0.0,0.0,0.0
8.319,0.082,-0.703,0.0
0.0,0.0,0.0,0.0
0.0,0.0,0.0,0.0
7.399,0.069,-0.745,0.0
7.122,0.065,-0.756,0.0
0.0,0.0,0.0,0.0
0.0,0.0,0.0,0.0
0.0,0.0,0.0,0.0
0.0,0.0,0.0,0.0
7.363,0.061,-0.732,0.0
7.159,0.058,-0.75,0.0
6.956,0.055,-0.766,0.0
0.0,0.0,0.0,0.0
0.0,0.0,0.0,0.0
0.0,0.0,0.0,0.0
0.0,0.0,0.0,0.0
7.241,0.052,-0.749,0.0
6.974,0.049,-0.759,0.0
8.595,0.06,-0.692,0.0
8.201,0.056,-0.704,0.0
0.0,0.0,0.0,0.0
0.0,0.0,0.0,0.0
7.346,0.046,-0.75,0.0
7.054,0.043,-0.758,0.0
8.687,0.052,-0.687,0.0
8.318,0.049,-0.702,0.0
0.0,0.0,0.0,0.0
0.0,0.0,0.0,0.0
7.391,0.039,-0.743,0.0
7.147,0.037,-0.757,0.0
8.765,0.045,-0.681,0.0
8.464,0.042,-0.703,0.0
0.0,0.0,0.0,0.0
0.0,0.0,0.0,0.0
0.0,0.0,0.0,0.0
7.173,0.03,-0.749,0.0
8.866,0.038,-0.676,0.0
8.478,0.035,-0.691,0.0
8.14,0.032,-0.707,0.0
0.0,0.0,0.0,0.0
0.0,0.0,0.0,0.0
7.272,0.025,-0.749,0.0
0.0,0.0,0.0,0.0
8.597,0.028,-0.688,0.0
0.0,0.0,0.0,0.0
0.0,0.0,0.0,0.0
7.66,0.021,-0.736,0.0
7.346,0.019,-0.745,0.0
9.171,0.024,-0.671,0.0
8.777,0.021,-0.689,0.0
8.291,0.019,-0.695,0.0
0.0,0.0,0.0,0.0
7.743,0.015,-0.732,0.0
7.403,0.013,-0.739,0.0
9.255,0.016,-0.663,0.0
8.875,0.014,-0.683,0.0
0.0,0.0,0.0,0.0
0.0,0.0,0.0,0.0
0.0,0.0,0.0,0.0
7.499,0.007,-0.737,0.0
9.391,0.009,-0.658,0.0
0.0,0.0,0.0,0.0
0.0,0.0,0.0,0.0
0.0,0.0,0.0,0.0
0.0,0.0,0.0,0.0
7.598,0.002,-0.734,0.0
9.471,0.002,-0.648,0.0
0.0,0.0,0.0,0.0
0.0,0.0,0.0,0.0
0.0,0.0,0.0,0.0
8.067,-0.002,-0.723,0.0
7.693,-0.003,-0.731,0.0
9.704,-0.004,-0.648,0.0
9.278,-0.005,-0.668,0.0
0.0,0.0,0.0,0.0
0.0,0.0,0.0,0.0
8.129,-0.008,-0.715,0.0
7.765,-0.008,-0.724,0.0
9.794,-0.01,-0.638,0.0
9.349,-0.011,-0.658,0.0
8.953,-0.012,-0.677,0.0
8.614,-0.013,-0.698,0.0
0.0,0.0,0.0,0.0
7.943,-0.014,-0.727,0.0
9.963,-0.017,-0.632,0.0
9.381,-0.017,-0.644,0.0
9.079,-0.018,-0.671,0.0
0.0,0.0,0.0,0.0
0.0,0.0,0.0,0.0
8.023,-0.019,-0.721,0.0
10.167,-0.024,-0.627,0.0
9.657,-0.024,-0.646,0.0
9.173,-0.024,-0.662,0.0
0.0,0.0,0.0,0.0
0.0,0.0,0.0,0.0
8.104,-0.024,-0.713,0.0
10.303,-0.03,-0.617,0.0
9.813,-0.03,-0.639,0.0
9.365,-0.03,-0.659,0.0
8.831,-0.029,-0.669,0.0
8.584,-0.029,-0.695,0.0
8.242,-0.029,-0.711,0.0
10.464,-0.036,-0.608,0.0
9.981,-0.036,-0.632,0.0
9.491,-0.035,-0.651,0.0
9.085,-0.035,-0.672,0.0
0.0,0.0,0.0,0.0
8.276,-0.034,-0.699,0.0
10.653,-0.043,-0.6,0.0
10.122,-0.042,-0.623,0.0
9.696,-0.041,-0.647,0.0
0.0,0.0,0.0,0.0
0.0,0.0,0.0,0.0
8.484,-0.039,-0.701,0.0
10.881,-0.049,-0.593,0.0
10.325,-0.048,-0.616,0.0
9.89,-0.047,-0.642,0.0
9.355,-0.045,-0.657,0.0
8.939,-0.044,-0.675,0.0
8.584,-0.043,-0.693,0.0
11.097,-0.055,-0.584,0.0
10.506,-0.053,-0.608,0.0
10.058,-0.052,-0.634,0.0
9.532,-0.05,-0.652,0.0
0.0,0.0,0.0,0.0
0.0,0.0,0.0,0.0
11.367,-0.061,-0.577,0.0
10.728,-0.059,-0.6,0.0
10.215,-0.057,-0.625,0.0
9.692,-0.055,-0.644,0.0
0.0,0.0,0.0,0.0
0.0,0.0,0.0,0.0
11.593,-0.067,-0.566,0.0
10.917,-0.064,-0.59,0.0
10.391,-0.062,-0.616,0.0
9.932,-0.06,-0.641,0.0
9.503,-0.058,-0.663,0.0
8.951,-0.056,-0.671,0.0
11.823,-0.073,-0.555,0.0
11.208,-0.07,-0.584,0.0
10.493,-0.066,-0.601,0.0
10.088,-0.064,-0.632,0.0
9.571,-0.062,-0.649,0.0
9.081,-0.059,-0.663,0.0
12.076,-0.078,-0.543,0.0
11.445,-0.075,-0.574,0.0
10.73,-0.071,-0.594,0.0
10.324,-0.069,-0.627,0.0
9.795,-0.066,-0.645,0.0
9.28,-0.063,-0.66,0.0
12.387,-0.084,-0.533,0.0
11.627,-0.079,-0.561,0.0
11.075,-0.076,-0.592,0.0
10.423,-0.073,-0.612,0.0
9.987,-0.07,-0.638,0.0
9.544,-0.068,-0.659,0.0
12.671,-0.089,-0.52,0.0
11.934,-0.085,-0.552,0.0
11.265,-0.08,-0.579,0.0
10.669,-0.077,-0.605,0.0
10.128,-0.074,-0.627,0.0
9.647,-0.071,-0.648,0.0
12.93,-0.094,-0.505,0.0
12.27,-0.089,-0.543,0.0
11.559,-0.085,-0.572,0.0
10.909,-0.081,-0.597,0.0
10.364,-0.077,-0.621,0.0
9.848,-0.074,-0.641,0.0
13.272,-0.098,-0.492,0.0
12.436,-0.093,-0.526,0.0
11.797,-0.089,-0.56,0.0
11.141,-0.084,-0.587,0.0
10.559,-0.08,-0.612,0.0
10.027,-0.077,-0.633,0.0
13.653,-0.103,-0.479,0.0
12.703,-0.097,-0.511,0.0
12.049,-0.092,-0.547,0.0
11.43,-0.088,-0.579,0.0
10.748,-0.083,-0.601,0.0
10.277,-0.08,-0.628,0.0
13.993,-0.107,-0.463,0.0
13.068,-0.101,-0.499,0.0
12.331,-0.095,-0.535,0.0
11.608,-0.09,-0.565,0.0
11.033,-0.086,-0.594,0.0
10.471,-0.082,-0.618,0.0
14.396,-0.111,-0.447,0.0
13.415,-0.104,-0.485,0.0
12.558,-0.098,-0.519,0.0
11.929,-0.093,-0.556,0.0
11.229,-0.088,-0.582,0.0
10.714,-0.084,-0.61,0.0
14.768,-0.115,-0.428,0.0
13.826,-0.108,-0.472,0.0
12.863,-0.1,-0.506,0.0
12.229,-0.096,-0.545,0.0
11.557,-0.091,-0.575,0.0
10.894,-0.085,-0.598,0.0
15.452,-0.12,-0.416,0.0
14.233,-0.111,-0.457,0.0
13.331,-0.104,-0.496,0.0
12.413,-0.097,-0.527,0.0
11.804,-0.092,-0.563,0.0
11.154,-0.087,-0.589,0.0
15.913,-0.123,-0.395,0.0
14.583,-0.113,-0.438,0.0
13.638,-0.105,-0.48,0.0
12.865,-0.099,-0.52,0.0
12.05,-0.093,-0.549,0.0
11.447,-0.088,-0.581,0.0
16.382,-0.125,-0.373,0.0
15.18,-0.116,-0.424,0.0
14.026,-0.107,-0.464,0.0
13.166,-0.1,-0.504,0.0
12.392,-0.094,-0.539,0.0
11.627,-0.088,-0.566,0.0
16.851,-0.127,-0.349,0.0
15.682,-0.118,-0.405,0.0
14.468,-0.108,-0.448,0.0
13.458,-0.101,-0.488,0.0
12.568,-0.094,-0.52,0.0
11.96,-0.089,-0.557,0.0
17.485,-0.129,-0.325,0.0
16.146,-0.119,-0.383,0.0
14.845,-0.109,-0.429,0.0
13.806,-0.101,-0.471,0.0
13.026,-0.095,-0.512,0.0
12.276,-0.089,-0.546,0.0
18.245,-0.131,-0.301,0.0
16.675,-0.119,-0.361,0.0
15.523,-0.11,-0.416,0.0
14.277,-0.101,-0.458,0.0
13.288,-0.094,-0.494,0.0
12.525,-0.088,-0.531,0.0
19.18,-0.133,-0.276,0.0
17.158,-0.118,-0.336,0.0
15.956,-0.109,-0.394,0.0
14.723,-0.1,-0.441,0.0
13.723,-0.093,-0.482,0.0
12.838,-0.087,-0.517,0.0
20.281,-0.135,-0.25,0.0
17.918,-0.119,-0.313,0.0
16.451,-0.108,-0.372,0.0
15.174,-0.099,-0.423,0.0
14.036,-0.091,-0.463,0.0
13.138,-0.085,-0.501,0.0
21.695,-0.138,-0.222,0.0
18.606,-0.117,-0.286,0.0
16.989,-0.106,-0.348,0.0
15.755,-0.098,-0.406,0.0
14.513,-0.089,-0.449,0.0
13.559,-0.083,-0.489,0.0
22.589,-0.135,-0.184,0.0
19.684,-0.117,-0.261,0.0
17.623,-0.104,-0.325,0.0
16.195,-0.094,-0.383,0.0
14.915,-0.086,-0.43,0.0
13.902,-0.079,-0.472,0.0
23.737,-0.133,-0.143,0.0
21.075,-0.117,-0.236,0.0
18.391,-0.101,-0.3,0.0
16.798,-0.091,-0.362,0.0
15.533,-0.083,-0.415,0.0
14.325,-0.076,-0.456,0.0
24.724,-0.128,-0.098,0.0
21.943,-0.112,-0.2,1.0
19.358,-0.098,-0.276,0.0
17.306,-0.086,-0.337,0.0
16.003,-0.078,-0.394,0.0
14.774,-0.071,-0.44,0.0
25.83,-0.122,-0.048,0.0
23.19,-0.108,-0.162,0.0
20.443,-0.093,-0.248,0.0
18.027,-0.081,-0.313,0.0
16.556,-0.073,-0.373,0.0
15.331,-0.066,-0.425,0.0
27.004,-0.114,0.005,0.0
24.368,-0.101,-0.12,0.0
21.701,-0.088,-0.218,1.0
18.9,-0.075,-0.289,0.0
17.057,-0.066,-0.349,0.0
15.814,-0.06,-0.405,0.0
28.684,-0.106,0.065,5.0
25.58,-0.092,-0.073,0.0
22.889,-0.08,-0.183,0.0
19.81,-0.067,-0.262,0.0
17.732,-0.059,-0.326,0.0
16.323,-0.052,-0.384,0.0
28.851,-0.09,0.125,5.0
26.608,-0.08,-0.02,0.0
23.824,-0.069,-0.141,1.0
20.97,-0.059,-0.234,0.0
18.432,-0.05,-0.301,0.0
16.801,-0.044,-0.361,0.0
31.047,-0.078,0.199,0.0
28.129,-0.067,0.035,1.0
24.977,-0.057,-0.097,0.0
22.033,-0.048,-0.201,0.0
19.413,-0.04,-0.277,0.0
17.334,-0.034,-0.337,0.0
33.208,-0.062,0.28,0.0
28.792,-0.05,0.094,6.0
25.944,-0.042,-0.048,0.0
23.323,-0.035,-0.166,0.0
20.553,-0.029,-0.252,0.0
18.13,-0.023,-0.316,0.0
0.0,0.0,0.0,0.0
30.189,-0.032,0.16,1.0
27.287,-0.025,0.004,0.0
24.224,-0.02,-0.123,0.0
21.357,-0.015,-0.218,2.0
18.848,-0.011,-0.29,0.0
37.161,-0.017,0.464,0.0
30.327,-0.01,0.222,0.0
28.544,-0.006,0.062,1.0
25.524,-0.002,-0.078,0.0
22.737,0.0,-0.187,0.0
19.868,0.002,-0.266,0.0
0.0,0.0,0.0,0.0
33.231,0.013,0.31,0.0
29.012,0.015,0.121,0.0
26.562,0.017,-0.028,0.0
23.679,0.019,-0.148,1.0
21.051,0.019,-0.24,3.0
42.235,0.044,0.696,0.0
36.202,0.043,0.41,0.0
30.569,0.041,0.189,0.0
27.796,0.041,0.025,0.0
24.975,0.04,-0.106,0.0
21.792,0.038,-0.205,1.0
0.0,0.0,0.0,0.0
38.737,0.078,0.516,0.0
0.0,0.0,0.0,0.0
28.738,0.066,0.082,2.0
25.999,0.064,-0.059,0.0
23.257,0.06,-0.173,1.0
0.0,0.0,0.0,0.0
41.76,0.12,0.637,0.0
0.0,0.0,0.0,0.0
29.766,0.095,0.143,0.0
26.927,0.09,-0.009,0.0
24.228,0.084,-0.134,0.0
0.0,0.0,0.0,0.0
0.0,0.0,0.0,0.0
0.0,0.0,0.0,0.0
31.542,0.129,0.212,0.0
28.417,0.12,0.044,1.0
25.383,0.112,-0.091,0.0
0.0,0.0,0.0,0.0
0.0,0.0,0.0,0.0
39.999,0.195,0.558,0.0
0.0,0.0,0.0,0.0
28.843,0.15,0.101,0.0
26.42,0.142,-0.044,0.0
75.102,0.414,1.972,3.0
0.0,0.0,0.0,0.0
0.0,0.0,0.0,0.0
34.607,0.208,0.366,0.0
29.961,0.185,0.161,0.0
27.341,0.173,0.005,0.0
75.917,0.494,2.138,4.0
0.0,0.0,0.0,0.0
0.0,0.0,0.0,0.0
37.322,0.262,0.465,0.0
32.603,0.234,0.237,0.0
28.688,0.211,0.059,1.0
78.159,0.588,2.347,10.0
0.0,0.0,0.0,0.0
0.0,0.0,0.0,0.0
40.579,0.327,0.582,0.0
33.838,0.279,0.309,0.0
28.877,0.243,0.113,3.0
78.133,0.671,2.493,12.0
57.871,0.507,1.544,0.0
0.0,0.0,0.0,0.0
41.65,0.38,0.674,0.0
35.864,0.334,0.393,0.0
30.793,0.292,0.177,0.0
57.918,0.559,1.953,2.0
57.777,0.569,1.647,2.0
57.666,0.579,1.343,0.0
0.0,0.0,0.0,0.0
37.664,0.392,0.481,0.0
32.429,0.344,0.245,0.0
57.241,0.617,2.034,0.0
57.096,0.626,1.73,0.0
57.311,0.639,1.438,1.0
0.0,0.0,0.0,0.0
0.0,0.0,0.0,0.0
33.915,0.398,0.316,0.0
0.0,0.0,0.0,0.0
56.746,0.687,1.82,0.0
56.651,0.697,1.521,0.0
57.569,0.72,1.24,1.0
0.0,0.0,0.0,0.0
36.298,0.468,0.402,0.0
0.0,0.0,0.0,0.0
56.208,0.747,1.903,0.0
0.0,0.0,0.0,0.0
57.608,0.788,1.341,0.0
0.0,0.0,0.0,0.0
0.0,0.0,0.0,0.0
0.0,0.0,0.0,0.0
0.0,0.0,0.0,0.0
55.69,0.818,1.69,0.0
55.858,0.832,1.396,1.0
0.0,0.0,0.0,0.0
40.712,0.624,0.592,0.0
76.504,1.187,3.255,2.0
55.649,0.875,2.075,2.0
0.0,0.0,0.0,0.0
55.367,0.894,1.479,0.0
0.0,0.0,0.0,0.0
0.0,0.0,0.0,0.0
76.558,1.285,3.387,8.0
0.0,0.0,0.0,0.0
54.955,0.945,1.853,1.0
54.871,0.955,1.556,1.0
54.831,0.967,1.268,2.0
0.0,0.0,0.0,0.0
0.0,0.0,0.0,0.0
0.0,0.0,0.0,0.0
0.0,0.0,0.0,0.0
0.0,0.0,0.0,0.0
54.574,1.033,1.351,0.0
0.0,0.0,0.0,0.0
90.952,1.761,4.321,15.0
0.0,0.0,0.0,0.0
0.0,0.0,0.0,0.0
54.522,1.092,1.723,0.0
54.332,1.099,1.431,0.0
54.651,1.118,1.152,1.0
88.557,1.831,4.348,16.0
56.1,1.173,2.458,0.0
0.0,0.0,0.0,0.0
54.505,1.164,1.808,15.0
0.0,0.0,0.0,0.0
54.485,1.188,1.233,0.0
85.57,1.885,4.335,9.0
89.037,1.982,4.04,2.0
0.0,0.0,0.0,0.0
0.0,0.0,0.0,0.0
54.237,1.244,1.596,1.0
54.197,1.256,1.309,0.0
83.189,1.948,4.343,11.0
88.914,2.102,4.17,16.0
0.0,0.0,0.0,0.0
0.0,0.0,0.0,0.0
54.413,1.324,1.684,11.0
54.023,1.327,1.386,0.0
82.646,2.05,4.439,25.0
85.023,2.129,4.116,8.0
56.116,1.419,2.419,0.0
0.0,0.0,0.0,0.0
54.292,1.398,1.76,3.0
54.094,1.406,1.468,1.0
81.97,2.151,4.525,36.0
83.033,2.198,4.141,31.0
85.6,2.287,3.816,1.0
0.0,0.0,0.0,0.0
0.0,0.0,0.0,0.0
54.048,1.482,1.544,5.0
81.782,2.264,4.631,29.0
82.719,2.309,4.244,20.0
85.563,2.409,3.935,11.0
57.774,1.64,2.344,0.0
0.0,0.0,0.0,0.0
54.117,1.562,1.621,4.0
81.607,2.378,4.736,33.0
82.223,2.416,4.334,22.0
84.156,2.492,3.987,13.0
0.0,0.0,0.0,0.0
0.0,0.0,0.0,0.0
54.149,1.643,1.696,1.0
81.443,2.493,4.837,30.0
81.95,2.529,4.431,13.0
82.081,2.552,3.999,15.0
0.0,0.0,0.0,0.0
0.0,0.0,0.0,0.0
54.308,1.728,1.773,0.0
81.605,2.621,4.956,30.0
81.826,2.648,4.532,32.0
81.214,2.647,4.065,26.0
81.505,2.676,3.635,8.0
0.0,0.0,0.0,0.0
50.94,1.698,1.729,2.0
81.746,2.749,5.07,25.0
81.829,2.771,4.637,35.0
81.448,2.778,4.18,30.0
81.559,2.802,3.742,20.0
0.0,0.0,0.0,0.0
50.579,1.763,1.78,3.0
65.82,2.313,4.166,20.0
81.775,2.894,4.736,31.0
81.48,2.903,4.283,38.0
81.157,2.912,3.823,29.0
56.157,2.029,2.344,1.0
50.253,1.828,1.829,2.0
65.805,2.415,4.245,22.0
81.358,3.006,4.812,25.0
81.219,3.02,4.368,36.0
81.159,3.039,3.922,33.0
56.206,2.118,2.414,0.0
49.92,1.894,1.877,2.0
65.369,2.5,4.294,32.0
65.471,2.52,3.949,22.0
65.62,2.542,3.605,16.0
65.607,2.558,3.246,17.0
65.619,2.575,2.894,19.0
48.907,1.932,1.895,2.0
81.635,3.252,5.458,23.0
65.422,2.622,4.021,23.0
65.51,2.642,3.674,32.0
65.548,2.66,3.317,57.0
65.588,2.678,2.966,8.0
48.655,1.999,1.939,14.0
81.699,3.384,5.553,16.0
65.463,2.728,4.096,17.0
65.47,2.745,3.744,29.0
65.531,2.763,3.387,52.0
65.613,2.784,3.038,8.0
48.738,2.08,1.994,5.0
66.07,2.843,4.562,34.0
65.503,2.834,4.168,25.0
65.475,2.849,3.813,28.0
65.608,2.871,3.46,21.0
80.832,3.558,3.827,7.0
48.801,2.16,2.047,2.0
80.589,3.596,5.647,14.0
65.425,2.936,4.23,31.0
65.609,2.96,3.886,12.0
81.143,3.68,4.36,32.0
80.967,3.692,3.913,20.0
48.88,2.242,2.099,1.0
65.898,3.046,4.682,34.0
65.407,3.039,4.293,33.0
81.455,3.806,4.904,35.0
81.171,3.812,4.439,29.0
80.906,3.82,3.987,31.0
0.0,0.0,0.0,0.0
80.38,3.845,5.787,31.0
65.07,3.128,4.331,39.0
81.515,3.939,4.983,35.0
81.396,3.954,4.527,20.0
80.831,3.947,4.057,34.0
0.0,0.0,0.0,0.0
77.673,3.841,5.663,8.0
80.807,4.016,5.452,13.0
81.567,4.074,5.059,21.0
81.177,4.074,4.585,30.0
81.194,4.095,4.146,34.0
0.0,0.0,0.0,0.0
64.366,3.288,4.748,15.0
80.684,4.141,5.513,34.0
81.395,4.197,5.118,27.0
80.818,4.188,4.633,38.0
81.091,4.223,4.208,33.0
0.0,0.0,0.0,0.0
64.887,3.421,4.841,12.0
80.561,4.266,5.57,36.0
80.789,4.299,5.145,13.0
80.368,4.295,4.672,31.0
81.138,4.357,4.275,30.0
80.949,4.367,3.825,3.0
58.295,3.169,4.395,46.0
80.576,4.4,5.633,35.0
80.455,4.412,5.185,31.0
80.551,4.436,4.744,34.0
80.748,4.467,4.314,32.0
81.092,4.507,3.891,10.0
58.301,3.264,4.438,24.0
58.447,3.287,4.129,27.0
80.396,4.54,5.24,31.0
80.645,4.573,4.807,17.0
80.609,4.591,4.365,25.0
81.178,4.643,3.952,18.0
58.368,3.364,4.484,22.0
58.326,3.375,4.161,26.0
58.471,3.398,3.85,34.0
58.558,3.416,3.53,25.0
58.606,3.434,3.212,28.0
58.68,3.453,2.896,26.0
80.411,4.766,6.231,17.0
58.269,3.468,4.195,29.0
58.415,3.49,3.885,48.0
58.525,3.511,3.565,49.0
58.593,3.529,3.248,53.0
58.645,3.547,2.93,58.0
58.196,3.546,4.546,24.0
58.244,3.562,4.228,35.0
58.421,3.587,3.92,32.0
58.531,3.608,3.6,40.0
58.618,3.627,3.284,51.0
58.68,3.645,2.966,25.0
58.147,3.639,4.575,25.0
58.244,3.659,4.262,41.0
58.523,3.689,3.96,24.0
58.655,3.712,3.641,7.0
80.848,5.135,4.573,23.0
80.882,5.156,4.131,26.0
67.225,4.317,5.326,17.0
58.327,3.759,4.298,25.0
68.184,4.409,4.649,24.0
80.781,5.243,5.055,33.0
80.186,5.223,4.576,20.0
80.942,5.291,4.174,25.0
58.2,3.832,4.639,23.0
58.522,3.867,4.341,9.0
61.728,4.093,4.238,9.0
80.541,5.359,5.077,36.0
78.677,5.253,4.526,6.0
78.483,5.259,4.083,11.0
58.49,3.947,4.688,33.0
61.624,4.172,4.598,8.0
60.712,4.125,4.194,10.0
80.504,5.488,5.109,17.0
78.544,5.372,4.551,35.0
78.578,5.393,4.119,19.0
58.538,4.046,4.716,30.0
61.667,4.275,4.626,15.0
60.806,4.229,4.224,25.0
60.747,4.239,3.878,16.0
77.62,5.434,4.526,27.0
78.961,5.546,4.168,10.0
58.572,4.142,4.74,7.0
61.238,4.344,4.615,32.0
60.606,4.312,4.231,24.0
60.676,4.33,3.893,19.0
77.653,5.56,4.553,13.0
79.212,5.689,4.207,6.0
58.097,4.201,4.72,20.0
61.188,4.438,4.63,35.0
60.514,4.402,4.243,29.0
60.697,4.428,3.913,27.0
61.74,4.518,3.637,7.0
77.976,5.724,4.163,12.0
58.048,4.29,4.732,14.0
61.017,4.521,4.633,35.0
60.263,4.479,4.241,34.0
60.82,4.534,3.936,27.0
60.895,4.553,3.603,26.0
77.236,5.791,4.141,8.0
61.34,4.631,5.014,25.0
60.796,4.602,4.631,33.0
59.894,4.546,4.228,34.0
61.067,4.648,3.965,32.0
60.692,4.633,3.603,34.0
77.089,5.902,4.149,28.0
60.95,4.697,4.994,30.0
60.0,4.635,4.581,34.0
59.639,4.62,4.221,33.0
60.723,4.717,3.953,27.0
60.508,4.713,3.602,14.0
77.089,6.021,4.161,10.0
60.758,4.777,4.987,13.0
59.781,4.712,4.573,34.0
59.57,4.708,4.224,30.0
60.548,4.797,3.949,35.0
0.0,0.0,0.0,0.0
62.387,4.969,3.374,13.0
51.964,4.166,4.271,34.0
59.935,4.817,4.591,34.0
59.676,4.808,4.237,28.0
59.56,4.811,3.89,29.0
0.0,0.0,0.0,0.0
62.181,5.047,3.367,20.0
51.946,4.244,4.273,41.0
51.996,4.258,3.986,14.0
59.555,4.888,4.231,24.0
52.0,4.279,3.398,10.0
52.05,4.294,3.111,18.0
52.058,4.305,2.821,17.0
59.402,4.944,4.888,23.0
51.871,4.327,3.977,39.0
51.879,4.337,3.686,25.0
51.916,4.351,3.393,43.0
51.975,4.366,3.106,44.0
52.005,4.379,2.817,43.0
51.735,4.383,4.256,38.0
51.821,4.4,3.972,38.0
51.86,4.413,3.683,24.0
51.894,4.426,3.389,47.0
51.96,4.442,3.103,56.0
51.997,4.455,2.814,46.0
51.739,4.461,4.253,29.0
51.806,4.476,3.967,27.0
51.863,4.49,3.68,45.0
51.9,4.503,3.386,32.0
51.997,4.521,3.101,39.0
52.045,4.535,2.812,39.0
59.217,5.192,4.862,17.0
43.13,3.79,3.298,17.0
51.88,4.568,3.675,28.0
51.951,4.583,3.383,25.0
58.568,5.178,3.485,10.0
58.825,5.212,3.17,21.0
59.106,5.269,4.844,14.0
43.013,3.841,3.283,23.0
51.931,4.647,3.671,23.0
59.102,5.299,3.839,33.0
58.599,5.265,3.477,21.0
59.198,5.33,3.18,33.0
43.305,3.922,3.541,17.0
43.064,3.908,3.278,33.0
59.609,5.419,4.202,30.0
59.045,5.378,3.823,33.0
58.555,5.343,3.462,31.0
59.383,5.43,3.178,29.0
51.823,4.766,4.227,11.0
43.076,3.968,3.27,20.0
58.849,5.431,4.135,33.0
59.189,5.473,3.819,33.0
58.575,5.426,3.449,32.0
59.277,5.501,3.157,27.0
51.855,4.84,4.216,41.0
59.361,5.551,4.49,30.0
58.554,5.484,4.098,32.0
59.004,5.536,3.791,33.0
58.097,5.461,3.405,25.0
59.32,5.586,3.142,22.0
51.838,4.909,4.199,45.0
59.036,5.6,4.448,33.0
58.572,5.565,4.082,31.0
58.805,5.596,3.759,33.0
58.026,5.532,3.382,24.0
59.294,5.662,3.122,27.0
51.843,4.979,4.182,31.0
58.759,5.651,4.407,33.0
58.775,5.662,4.075,33.0
58.707,5.664,3.732,33.0
58.23,5.627,3.373,31.0
59.076,5.718,3.089,27.0
59.258,5.767,4.758,6.0
58.797,5.73,4.387,31.0
58.431,5.703,4.029,29.0
58.474,5.716,3.695,30.0
58.058,5.685,3.34,29.0
58.801,5.767,3.05,33.0
59.283,5.845,4.736,19.0
58.704,5.796,4.356,33.0
58.444,5.779,4.005,32.0
58.315,5.774,3.66,28.0
58.017,5.753,3.313,27.0
58.859,5.846,3.028,33.0
59.373,5.927,4.717,25.0
58.891,5.887,4.343,28.0
58.254,5.832,3.966,32.0
58.178,5.832,3.624,32.0
58.058,5.828,3.288,31.0
58.907,5.922,3.003,29.0
58.562,5.917,4.624,34.0
58.883,5.957,4.314,24.0
58.145,5.89,3.93,27.0
57.958,5.879,3.582,32.0
57.891,5.88,3.249,27.0
58.732,5.974,2.964,28.0
58.275,5.957,4.571,33.0
59.202,6.06,4.306,31.0
58.126,5.957,3.897,32.0
57.889,5.94,3.547,32.0
58.125,5.972,3.232,31.0
58.639,6.033,2.928,25.0
58.534,6.052,4.559,34.0
58.788,6.085,4.244,25.0
57.945,6.004,3.853,29.0
57.663,5.983,3.5,29.0
57.988,6.024,3.191,30.0
58.431,6.077,2.884,29.0
58.467,6.111,4.519,34.0
58.821,6.154,4.211,26.0
57.752,6.048,3.806,31.0
57.784,6.059,3.474,31.0
57.921,6.081,3.151,27.0
58.404,6.139,2.847,28.0
58.741,6.203,4.504,16.0
58.871,6.223,4.178,28.0
57.643,6.099,3.763,27.0
57.817,6.124,3.439,32.0
58.05,6.156,3.122,31.0
58.526,6.214,2.815,27.0
58.733,6.265,4.465,7.0
58.553,6.251,4.117,33.0
57.624,6.158,3.723,25.0
58.053,6.21,3.414,31.0
58.138,6.225,3.089,31.0
58.601,6.282,2.779,27.0
0.0,0.0,0.0,0.0
58.36,6.289,4.064,32.0
57.733,6.228,3.69,12.0
58.105,6.274,3.376,27.0
58.349,6.307,3.059,32.0
58.498,6.329,2.734,26.0
53.033,5.763,3.958,5.0
57.839,6.29,3.986,24.0
54.388,5.92,3.437,25.0
58.157,6.336,3.337,32.0
58.417,6.371,3.019,32.0
58.638,6.401,2.697,32.0
53.252,5.838,3.934,17.0
57.8,6.341,3.939,15.0
54.508,5.985,3.403,18.0
57.661,6.337,3.265,32.0
58.493,6.433,2.979,32.0
58.759,6.469,2.658,33.0
58.642,6.482,4.287,14.0
53.983,5.971,3.638,19.0
55.149,6.105,3.401,28.0
57.448,6.364,3.209,25.0
58.015,6.433,2.909,27.0
58.559,6.499,2.603,26.0
58.688,6.538,4.244,15.0
53.963,6.016,3.593,28.0
55.329,6.173,3.367,18.0
57.703,6.442,3.176,32.0
58.18,6.501,2.87,31.0
58.634,6.557,2.557,32.0
58.713,6.591,4.197,20.0
53.953,6.06,3.547,26.0
57.504,6.463,3.451,6.0
57.863,6.508,3.136,32.0
57.926,6.52,2.808,25.0
58.588,6.599,2.507,28.0
54.2,6.128,3.827,8.0
54.254,6.137,3.52,28.0
57.761,6.538,3.417,8.0
57.878,6.555,3.087,26.0
57.973,6.57,2.761,6.0
58.558,6.641,2.454,30.0
54.475,6.2,3.799,27.0
54.188,6.171,3.468,24.0
57.732,6.577,3.365,9.0
58.015,6.614,3.042,32.0
55.617,6.345,2.599,7.0
58.915,6.725,2.417,22.0
46.532,5.33,3.203,11.0
46.458,5.323,2.931,15.0
46.466,5.327,2.666,16.0
57.886,6.64,2.983,13.0
58.241,6.685,2.668,7.0
59.115,6.789,2.37,24.0
46.475,5.355,3.155,14.0
46.411,5.35,2.884,34.0
46.424,5.354,2.619,18.0
46.475,5.362,2.351,20.0
46.484,5.366,2.086,17.0
46.446,5.365,1.818,24.0
46.439,5.381,3.109,35.0
46.395,5.377,2.84,38.0
46.405,5.38,2.574,35.0
46.433,5.386,2.305,40.0
46.437,5.389,2.039,42.0
46.407,5.389,1.772,30.0
46.419,5.406,3.062,49.0
46.379,5.403,2.793,50.0
46.376,5.404,2.527,36.0
46.407,5.41,2.258,47.0
46.41,5.413,1.992,46.0
46.384,5.412,1.726,37.0
46.398,5.429,3.014,57.0
46.366,5.427,2.746,52.0
46.376,5.43,2.48,47.0
46.405,5.435,2.211,49.0
46.394,5.436,1.945,46.0
46.358,5.434,1.678,39.0
46.394,5.453,2.967,55.0
46.377,5.452,2.699,52.0
46.379,5.454,2.433,51.0
46.383,5.456,2.162,48.0
46.372,5.457,1.895,41.0
46.349,5.456,1.629,45.0
46.384,5.474,2.918,57.0
46.372,5.473,2.65,56.0
46.385,5.476,2.385,54.0
46.374,5.476,2.113,47.0
46.356,5.475,1.847,35.0
46.349,5.477,1.581,43.0
46.385,5.494,2.869,52.0
46.386,5.495,2.602,56.0
46.393,5.496,2.336,57.0
46.372,5.495,2.064,48.0
46.329,5.491,1.797,34.0
46.355,5.496,1.532,41.0
46.381,5.511,2.819,47.0
46.385,5.512,2.552,53.0
46.397,5.514,2.286,55.0
46.377,5.513,2.014,49.0
46.339,5.509,1.747,36.0
46.357,5.513,1.482,44.0
46.395,5.529,2.769,45.0
46.392,5.529,2.502,52.0
46.388,5.528,2.235,49.0
46.375,5.528,1.964,45.0
46.366,5.527,1.698,39.0
46.359,5.528,1.432,42.0
46.407,5.544,2.719,43.0
46.401,5.543,2.451,48.0
46.373,5.54,2.184,39.0
46.371,5.54,1.913,40.0
46.37,5.541,1.647,45.0
46.352,5.539,1.38,36.0
46.397,5.555,2.666,37.0
46.4,5.554,2.399,44.0
46.388,5.553,2.133,38.0
46.364,5.55,1.861,35.0
46.374,5.552,1.595,48.0
46.367,5.551,1.329,31.0
46.406,5.565,2.615,38.0
46.402,5.564,2.348,39.0
46.386,5.562,2.08,39.0
46.361,5.559,1.808,33.0
46.365,5.56,1.542,42.0
46.356,5.559,1.275,29.0
46.422,5.575,2.562,34.0
46.396,5.571,2.293,35.0
46.395,5.57,2.026,36.0
46.357,5.565,1.754,35.0
46.358,5.565,1.489,33.0
46.364,5.566,1.223,26.0
46.428,5.581,2.509,32.0
46.402,5.577,2.24,32.0
46.39,5.574,1.973,31.0
46.372,5.572,1.701,38.0
46.367,5.571,1.436,33.0
46.351,5.569,1.169,24.0
46.428,5.584,2.454,26.0
46.401,5.58,2.186,32.0
46.376,5.576,1.918,29.0
46.367,5.573,1.647,37.0
46.371,5.574,1.381,27.0
46.331,5.568,1.114,15.0
46.429,5.585,2.4,25.0
46.392,5.579,2.132,32.0
46.377,5.576,1.864,30.0
46.358,5.573,1.593,35.0
46.371,5.574,1.327,24.0
46.27,5.561,1.058,11.0
46.418,5.583,2.345,29.0
46.396,5.579,2.077,33.0
46.373,5.574,1.809,31.0
46.37,5.573,1.538,33.0
46.373,5.572,1.273,26.0
46.126,5.542,1.001,11.0
46.411,5.579,2.29,33.0
46.4,5.576,2.022,33.0
46.371,5.57,1.754,35.0
46.357,5.567,1.482,32.0
46.365,5.567,1.217,28.0
45.828,5.501,0.94,11.0
46.395,5.572,2.233,37.0
46.38,5.568,1.966,36.0
46.363,5.564,1.699,41.0
46.357,5.562,1.427,34.0
46.35,5.559,1.161,25.0
45.59,5.467,0.881,10.0
46.392,5.564,2.177,39.0
46.37,5.559,1.91,39.0
46.367,5.556,1.643,46.0
46.369,5.555,1.372,32.0
46.332,5.548,1.106,18.0
45.199,5.411,0.819,4.0
46.387,5.554,2.121,41.0
46.363,5.548,1.854,33.0
46.364,5.546,1.587,49.0
46.358,5.543,1.317,31.0
46.255,5.529,1.048,11.0
44.23,5.285,0.749,3.0
46.379,5.542,2.065,50.0
46.356,5.536,1.798,32.0
46.355,5.533,1.531,51.0
46.354,5.53,1.261,31.0
46.03,5.489,0.989,10.0
44.161,5.265,0.695,5.0
46.389,5.529,2.01,50.0
46.343,5.52,1.742,37.0
46.354,5.519,1.476,45.0
46.33,5.513,1.205,31.0
45.758,5.442,0.928,9.0
44.125,5.246,0.642,4.0
46.377,5.512,1.954,47.0
46.347,5.505,1.686,45.0
46.343,5.501,1.42,38.0
46.328,5.496,1.149,22.0
45.532,5.399,0.868,8.0
43.779,5.189,0.584,2.0
46.372,5.493,1.897,40.0
46.352,5.487,1.63,46.0
46.329,5.481,1.364,35.0
46.309,5.475,1.093,20.0
44.67,5.279,0.798,3.0
40.748,4.813,0.495,0.0
46.361,5.471,1.841,36.0
46.353,5.467,1.575,45.0
46.327,5.46,1.309,34.0
46.218,5.443,1.036,15.0
44.284,5.213,0.738,4.0
40.695,4.788,0.446,0.0
46.361,5.449,1.786,33.0
46.37,5.446,1.52,41.0
46.341,5.439,1.254,30.0
45.939,5.388,0.975,9.0
44.267,5.188,0.686,6.0
0.0,0.0,0.0,0.0
46.381,5.427,1.732,37.0
46.385,5.423,1.466,35.0
46.366,5.417,1.199,28.0
45.663,5.331,0.914,11.0
44.23,5.16,0.632,3.0
