X,Y,Z,Reflectivity
147.256,-13.295,12.94,17.0
144.432,-13.005,11.876,11.0
145.334,-13.05,11.147,15.0
145.91,-13.067,10.386,11.0
146.172,-13.107,14.533,16.0
146.914,-13.134,13.789,6.0
145.641,-12.982,12.861,11.0
144.319,-12.828,11.929,18.0
145.008,-12.854,11.182,15.0
146.199,-12.924,10.466,9.0
90.696,-6.087,9.141,12.0
91.022,-6.082,8.656,28.0
93.195,-6.201,8.333,4.0
118.555,-7.855,9.916,20.0
117.723,-7.766,9.18,16.0
121.6,-7.989,8.796,7.0
90.856,-5.965,9.129,25.0
91.013,-5.95,8.626,25.0
89.003,-5.793,7.93,10.0
87.102,-5.644,7.257,24.0
117.569,-7.586,9.129,10.0
119.203,-7.658,8.581,11.0
91.009,-5.842,9.112,18.0
90.696,-5.796,8.564,21.0
87.918,-5.593,7.801,17.0
87.406,-5.535,7.249,19.0
117.502,-7.409,9.08,19.0
111.481,-7.0,7.982,9.0
88.402,-5.544,8.817,11.0
90.771,-5.666,8.534,18.0
88.115,-5.477,7.782,23.0
87.611,-5.421,7.231,13.0
117.652,-7.246,9.042,21.0
91.32,-5.6,6.5,12.0
88.4,-5.415,8.778,28.0
91.243,-5.563,8.538,18.0
87.99,-5.34,7.732,20.0
87.584,-5.291,7.188,6.0
93.547,-5.624,7.146,8.0
90.988,-5.446,6.434,12.0
88.331,-5.28,8.727,17.0
91.574,-5.448,8.525,9.0
87.864,-5.203,7.677,18.0
87.606,-5.164,7.146,12.0
117.337,-6.885,8.904,5.0
88.946,-5.194,6.244,17.0
90.963,-5.304,8.94,7.0
88.588,-5.14,8.2,18.0
92.605,-5.348,8.042,22.0
87.805,-5.046,7.115,13.0
92.15,-5.271,6.942,4.0
89.002,-5.067,6.199,16.0
87.186,-4.955,8.52,10.0
88.59,-5.009,8.149,29.0
92.77,-5.221,8.003,20.0
88.075,-4.932,7.085,15.0
93.923,-5.234,7.02,5.0
89.094,-4.941,6.152,14.0
87.534,-4.845,8.5,29.0
88.696,-4.884,8.104,16.0
92.734,-5.08,7.942,11.0
88.211,-4.808,7.04,22.0
89.934,-4.878,6.664,16.0
89.147,-4.811,6.098,11.0
87.695,-4.723,8.458,14.0
88.932,-4.766,8.066,9.0
88.461,-4.716,7.517,16.0
88.109,-4.674,6.973,16.0
87.555,-4.621,6.429,7.0
89.326,-4.69,6.049,14.0
85.262,-4.467,8.163,14.0
89.036,-4.64,8.013,15.0
88.422,-4.583,7.45,15.0
87.999,-4.538,6.902,14.0
87.753,-4.503,6.38,23.0
91.365,-4.664,6.12,12.0
86.674,-4.411,8.234,19.0
86.753,-4.392,7.742,15.0
88.22,-4.443,7.366,23.0
90.806,-4.549,7.053,15.0
88.138,-4.392,6.341,15.0
90.917,-4.506,6.02,23.0
86.858,-4.293,8.184,23.0
88.514,-4.351,7.83,12.0
88.472,-4.325,7.317,20.0
88.397,-4.298,6.794,13.0
87.534,-4.232,6.226,21.0
90.703,-4.363,5.932,11.0
86.931,-4.168,8.117,14.0
87.113,-4.153,7.632,12.0
89.065,-4.223,7.291,17.0
87.57,-4.129,6.656,15.0
87.718,-4.113,6.164,13.0
90.112,-4.202,5.816,15.0
86.891,-4.039,8.038,22.0
86.935,-4.017,7.54,13.0
87.315,-4.012,7.07,9.0
88.647,-4.05,6.658,16.0
87.946,-3.994,6.1,18.0
94.247,-4.256,5.998,16.0
87.009,-3.916,7.968,26.0
92.89,-4.155,7.971,2.0
87.594,-3.896,7.011,15.0
89.32,-3.95,6.626,17.0
98.378,-4.325,6.732,6.0
94.278,-4.122,5.911,13.0
10.106,-0.936,-0.613,0.0
0.0,0.0,0.0,0.0
0.0,0.0,0.0,0.0
8.761,-0.813,-0.672,0.0
8.37,-0.777,-0.687,0.0
8.097,-0.752,-0.708,0.0
0.0,0.0,0.0,0.0
0.0,0.0,0.0,0.0
0.0,0.0,0.0,0.0
0.0,0.0,0.0,0.0
8.46,-0.785,-0.683,0.0
8.164,-0.758,-0.703,0.0
0.0,0.0,0.0,0.0
0.0,0.0,0.0,0.0
0.0,0.0,0.0,0.0
0.0,0.0,0.0,0.0
8.581,-0.796,-0.681,0.0
8.233,-0.764,-0.697,0.0
10.581,-0.98,-0.599,0.0
10.033,-0.929,-0.621,0.0
0.0,0.0,0.0,0.0
0.0,0.0,0.0,0.0
8.649,-0.802,-0.675,0.0
8.317,-0.771,-0.693,0.0
10.728,-0.993,-0.593,0.0
0.0,0.0,0.0,0.0
0.0,0.0,0.0,0.0
0.0,0.0,0.0,0.0
8.804,-0.815,-0.675,0.0
8.402,-0.778,-0.689,0.0
10.865,-1.004,-0.586,0.0
0.0,0.0,0.0,0.0
0.0,0.0,0.0,0.0
0.0,0.0,0.0,0.0
8.855,-0.818,-0.666,0.0
8.513,-0.787,-0.686,0.0
11.027,-1.017,-0.579,0.0
0.0,0.0,0.0,0.0
0.0,0.0,0.0,0.0
0.0,0.0,0.0,0.0
0.0,0.0,0.0,0.0
8.616,-0.794,-0.682,0.0
11.153,-1.026,-0.57,0.0
10.636,-0.978,-0.6,0.0
10.081,-0.927,-0.622,0.0
0.0,0.0,0.0,0.0
0.0,0.0,0.0,0.0
8.694,-0.799,-0.676,0.0
11.351,-1.041,-0.565,0.0
10.753,-0.986,-0.592,0.0
0.0,0.0,0.0,0.0
0.0,0.0,0.0,0.0
0.0,0.0,0.0,0.0
8.839,-0.809,-0.675,0.0
11.524,-1.053,-0.557,0.0
10.835,-0.99,-0.581,0.0
0.0,0.0,0.0,0.0
0.0,0.0,0.0,0.0
0.0,0.0,0.0,0.0
8.901,-0.812,-0.667,0.0
11.725,-1.068,-0.55,0.0
11.047,-1.005,-0.576,0.0
0.0,0.0,0.0,0.0
9.973,-0.907,-0.627,0.0
0.0,0.0,0.0,0.0
8.966,-0.814,-0.658,0.0
11.883,-1.077,-0.54,0.0
11.279,-1.022,-0.572,0.0
10.649,-0.964,-0.597,0.0
0.0,0.0,0.0,0.0
0.0,0.0,0.0,0.0
0.0,0.0,0.0,0.0
12.065,-1.088,-0.532,0.0
11.412,-1.029,-0.563,0.0
10.787,-0.972,-0.589,0.0
0.0,0.0,0.0,0.0
0.0,0.0,0.0,0.0
9.291,-0.835,-0.656,0.0
12.277,-1.102,-0.523,0.0
11.652,-1.045,-0.558,0.0
10.899,-0.976,-0.58,0.0
0.0,0.0,0.0,0.0
9.889,-0.884,-0.631,0.0
9.36,-0.836,-0.647,0.0
12.469,-1.112,-0.514,0.0
11.816,-1.053,-0.549,0.0
11.097,-0.988,-0.574,0.0
10.521,-0.936,-0.601,0.0
9.972,-0.886,-0.622,0.0
9.517,-0.845,-0.644,0.0
12.769,-1.132,-0.508,0.0
11.962,-1.059,-0.539,0.0
11.298,-0.999,-0.568,0.0
10.628,-0.939,-0.592,0.0
10.13,-0.894,-0.618,0.0
0.0,0.0,0.0,0.0
13.009,-1.145,-0.499,0.0
12.192,-1.071,-0.531,0.0
11.489,-1.008,-0.561,0.0
10.846,-0.951,-0.588,0.0
10.324,-0.904,-0.614,0.0
0.0,0.0,0.0,0.0
13.183,-1.151,-0.486,0.0
12.386,-1.08,-0.522,0.0
11.677,-1.017,-0.554,0.0
11.051,-0.961,-0.583,0.0
10.453,-0.908,-0.607,0.0
9.885,-0.858,-0.626,0.0
13.438,-1.164,-0.477,0.0
12.507,-1.082,-0.509,0.0
11.863,-1.025,-0.546,0.0
11.188,-0.965,-0.575,0.0
10.624,-0.915,-0.602,0.0
0.0,0.0,0.0,0.0
13.723,-1.178,-0.467,0.0
12.876,-1.104,-0.506,0.0
12.068,-1.033,-0.538,0.0
11.374,-0.972,-0.568,0.0
10.823,-0.924,-0.598,0.0
10.095,-0.86,-0.611,0.0
13.985,-1.19,-0.456,0.0
13.052,-1.109,-0.494,0.0
12.313,-1.044,-0.531,0.0
11.554,-0.978,-0.561,0.0
10.995,-0.929,-0.591,0.0
10.349,-0.873,-0.611,0.0
14.195,-1.196,-0.443,0.0
13.352,-1.123,-0.487,0.0
12.435,-1.044,-0.519,0.0
11.713,-0.981,-0.552,0.0
11.099,-0.928,-0.581,0.0
10.456,-0.873,-0.603,0.0
14.51,-1.209,-0.432,0.0
13.524,-1.125,-0.474,0.0
12.555,-1.042,-0.506,0.0
11.901,-0.986,-0.544,0.0
11.221,-0.928,-0.572,0.0
10.655,-0.88,-0.599,0.0
14.824,-1.222,-0.421,0.0
13.832,-1.138,-0.465,0.0
12.894,-1.058,-0.501,0.0
12.122,-0.993,-0.537,0.0
11.438,-0.935,-0.567,0.0
10.805,-0.882,-0.592,0.0
15.109,-1.231,-0.407,0.0
14.082,-1.144,-0.454,0.0
13.154,-1.067,-0.493,0.0
12.302,-0.995,-0.527,0.0
11.644,-0.94,-0.56,0.0
10.983,-0.885,-0.587,0.0
15.421,-1.241,-0.395,0.0
14.371,-1.153,-0.443,0.0
13.409,-1.074,-0.484,0.0
12.497,-0.998,-0.518,0.0
11.853,-0.945,-0.554,0.0
11.142,-0.886,-0.58,0.0
15.825,-1.257,-0.383,0.0
14.563,-1.154,-0.429,0.0
13.602,-1.075,-0.473,0.0
12.797,-1.009,-0.513,0.0
11.936,-0.939,-0.542,0.0
11.294,-0.886,-0.572,0.0
16.327,-1.279,-0.373,0.0
14.855,-1.16,-0.418,0.0
13.861,-1.08,-0.463,0.0
12.884,-1.001,-0.499,0.0
12.223,-0.947,-0.538,0.0
11.502,-0.889,-0.567,0.0
16.682,-1.288,-0.358,0.0
15.284,-1.177,-0.409,0.0
14.119,-1.084,-0.452,0.0
13.171,-1.008,-0.493,0.0
12.343,-0.942,-0.527,0.0
11.691,-0.89,-0.561,0.0
17.068,-1.298,-0.344,0.0
15.579,-1.181,-0.396,0.0
14.418,-1.09,-0.443,0.0
13.425,-1.012,-0.484,0.0
12.463,-0.937,-0.515,0.0
11.859,-0.889,-0.553,0.0
17.459,-1.306,-0.329,0.0
15.83,-1.181,-0.382,0.0
14.681,-1.092,-0.431,0.0
13.618,-1.01,-0.473,0.0
12.743,-0.942,-0.51,0.0
11.965,-0.882,-0.542,0.0
17.839,-1.312,-0.312,0.0
16.311,-1.196,-0.372,0.0
14.989,-1.096,-0.421,0.0
13.874,-1.011,-0.464,0.0
12.97,-0.942,-0.502,0.0
12.245,-0.887,-0.539,0.0
0.0,0.0,0.0,0.0
31.476,-0.469,0.208,0.0
27.872,-0.406,0.032,0.0
24.74,-0.351,-0.107,0.0
21.946,-0.303,-0.215,1.0
18.917,-0.255,-0.288,0.0
0.0,0.0,0.0,0.0
31.992,-0.41,0.222,0.0
28.137,-0.35,0.042,0.0
24.956,-0.301,-0.1,0.0
22.085,-0.259,-0.209,0.0
19.077,-0.217,-0.284,0.0
0.0,0.0,0.0,0.0
31.902,-0.341,0.232,1.0
28.356,-0.292,0.051,1.0
25.079,-0.25,-0.093,0.0
22.324,-0.214,-0.204,0.0
19.185,-0.177,-0.28,0.0
0.0,0.0,0.0,0.0
31.995,-0.273,0.241,2.0
28.627,-0.234,0.06,4.0
25.182,-0.197,-0.087,0.0
22.198,-0.165,-0.197,1.0
19.482,-0.138,-0.28,0.0
37.731,-0.256,0.5,0.0
32.015,-0.205,0.249,1.0
28.711,-0.174,0.066,6.0
25.278,-0.144,-0.081,0.0
22.17,-0.118,-0.192,0.0
19.423,-0.096,-0.275,0.0
0.0,0.0,0.0,0.0
32.977,-0.141,0.263,1.0
28.737,-0.112,0.072,6.0
25.419,-0.09,-0.077,0.0
22.487,-0.072,-0.191,0.0
19.439,-0.055,-0.271,0.0
38.369,-0.096,0.523,0.0
33.064,-0.07,0.269,0.0
28.725,-0.051,0.077,5.0
25.549,-0.036,-0.073,0.0
22.407,-0.024,-0.187,0.0
19.632,-0.013,-0.271,0.0
0.0,0.0,0.0,0.0
33.161,0.0,0.274,0.0
28.702,0.01,0.08,2.0
25.644,0.018,-0.071,0.0
22.506,0.024,-0.185,0.0
19.557,0.028,-0.268,0.0
39.007,0.07,0.541,0.0
0.0,0.0,0.0,0.0
28.719,0.071,0.083,3.0
25.609,0.073,-0.069,0.0
22.651,0.073,-0.185,1.0
19.787,0.07,-0.27,0.0
0.0,0.0,0.0,0.0
32.991,0.141,0.278,0.0
28.695,0.133,0.084,1.0
25.713,0.128,-0.068,0.0
22.422,0.12,-0.182,1.0
19.623,0.111,-0.267,0.0
38.289,0.232,0.534,0.0
0.0,0.0,0.0,0.0
28.766,0.195,0.084,2.0
25.637,0.183,-0.067,0.0
22.469,0.168,-0.183,1.0
19.603,0.153,-0.267,0.0
38.729,0.318,0.539,0.0
32.864,0.281,0.277,0.0
28.792,0.256,0.084,5.0
25.673,0.238,-0.068,0.0
22.254,0.214,-0.182,0.0
19.637,0.195,-0.269,0.0
38.515,0.399,0.534,0.0
32.658,0.35,0.273,0.0
28.811,0.318,0.082,6.0
25.589,0.292,-0.07,0.0
22.466,0.264,-0.185,0.0
19.548,0.236,-0.269,0.0
0.0,0.0,0.0,0.0
32.598,0.419,0.269,0.0
28.817,0.38,0.079,4.0
25.547,0.345,-0.073,0.0
22.537,0.313,-0.189,0.0
19.574,0.278,-0.272,0.0
40.439,0.591,0.552,0.0
32.502,0.487,0.264,0.0
28.77,0.441,0.075,2.0
25.394,0.398,-0.076,0.0
22.337,0.357,-0.19,0.0
19.443,0.318,-0.273,0.0
37.748,0.633,0.509,0.0
32.398,0.554,0.258,0.0
28.718,0.501,0.07,1.0
25.317,0.45,-0.08,0.0
22.23,0.403,-0.193,0.0
19.477,0.36,-0.277,0.0
37.532,0.709,0.499,0.0
32.631,0.627,0.253,0.0
28.626,0.56,0.063,0.0
25.102,0.5,-0.085,0.0
22.169,0.448,-0.198,0.0
19.256,0.396,-0.279,0.0
37.262,0.783,0.486,0.0
32.122,0.685,0.241,0.0
28.254,0.612,0.055,0.0
25.037,0.551,-0.091,0.0
22.053,0.492,-0.203,1.0
19.059,0.432,-0.281,0.0
36.918,0.853,0.472,0.0
31.838,0.746,0.23,0.0
28.15,0.669,0.047,0.0
24.804,0.598,-0.098,0.0
21.926,0.536,-0.208,0.0
18.914,0.468,-0.285,0.0
36.326,0.916,0.453,0.0
31.665,0.809,0.219,0.0
27.799,0.719,0.037,0.0
24.402,0.639,-0.104,0.0
21.748,0.577,-0.214,0.0
18.768,0.504,-0.289,0.0
36.12,0.986,0.438,0.0
31.076,0.858,0.204,0.0
27.359,0.765,0.027,0.0
24.455,0.691,-0.113,0.0
21.592,0.618,-0.22,1.0
18.513,0.535,-0.292,0.0
35.635,1.047,0.418,0.0
29.074,0.863,0.179,0.0
27.245,0.817,0.016,0.0
24.237,0.735,-0.122,0.0
21.442,0.657,-0.227,0.0
18.387,0.57,-0.297,0.0
35.364,1.111,0.4,0.0
29.034,0.922,0.167,1.0
27.026,0.867,0.004,0.0
24.157,0.782,-0.132,0.0
21.267,0.696,-0.235,1.0
18.256,0.603,-0.303,0.0
34.74,1.164,0.377,1.0
30.728,1.039,0.162,0.0
26.703,0.911,-0.007,0.0
23.758,0.818,-0.141,0.0
20.731,0.721,-0.239,0.0
18.039,0.632,-0.309,0.0
34.411,1.223,0.357,0.0
28.982,1.039,0.139,0.0
25.927,0.937,-0.02,3.0
23.445,0.855,-0.151,0.0
20.565,0.756,-0.247,0.0
17.988,0.667,-0.317,0.0
33.971,1.275,0.334,0.0
28.965,1.097,0.123,1.0
25.852,0.987,-0.034,5.0
23.173,0.891,-0.162,0.0
20.078,0.779,-0.253,0.0
17.763,0.694,-0.323,0.0
33.437,1.323,0.31,1.0
28.91,1.152,0.106,1.0
25.913,1.041,-0.049,0.0
22.939,0.928,-0.174,0.0
19.85,0.809,-0.261,0.0
17.597,0.723,-0.33,0.0
32.957,1.369,0.286,1.0
28.765,1.203,0.089,1.0
25.44,1.072,-0.063,0.0
22.281,0.946,-0.182,0.0
19.63,0.839,-0.271,0.0
17.295,0.744,-0.335,0.0
32.564,1.417,0.262,1.0
28.355,1.242,0.069,0.0
25.132,1.108,-0.078,0.0
21.982,0.976,-0.194,1.0
19.322,0.864,-0.279,0.0
17.138,0.771,-0.343,0.0
32.043,1.456,0.237,1.0
27.871,1.275,0.05,0.0
24.79,1.141,-0.094,0.0
21.747,1.007,-0.207,1.0
18.91,0.881,-0.286,0.0
16.946,0.795,-0.351,0.0
31.646,1.499,0.212,1.0
27.404,1.306,0.03,0.0
24.432,1.171,-0.11,0.0
21.541,1.039,-0.22,2.0
18.607,0.903,-0.295,0.0
16.792,0.82,-0.36,0.0
30.814,1.518,0.184,1.0
27.018,1.339,0.01,0.0
24.026,1.197,-0.126,0.0
21.281,1.066,-0.233,1.0
18.252,0.92,-0.303,0.0
16.653,0.844,-0.37,0.0
30.136,1.541,0.157,1.0
26.467,1.361,-0.01,0.0
23.418,1.211,-0.14,0.0
20.742,1.078,-0.243,0.0
18.083,0.945,-0.314,1.0
16.477,0.865,-0.379,0.0
29.62,1.57,0.131,0.0
26.066,1.388,-0.03,0.0
23.157,1.24,-0.157,0.0
20.167,1.085,-0.252,0.0
17.933,0.97,-0.326,0.0
16.18,0.879,-0.385,0.0
28.942,1.587,0.105,0.0
25.701,1.416,-0.051,0.0
22.455,1.243,-0.171,0.0
19.756,1.099,-0.264,0.0
17.478,0.977,-0.332,0.0
16.008,0.899,-0.394,0.0
28.482,1.613,0.079,0.0
25.136,1.43,-0.071,0.0
21.962,1.255,-0.186,1.0
19.309,1.108,-0.274,0.0
17.187,0.991,-0.341,0.0
15.835,0.918,-0.404,0.0
27.768,1.622,0.053,0.0
24.784,1.454,-0.092,0.0
21.649,1.275,-0.203,2.0
18.899,1.118,-0.286,0.0
16.989,1.01,-0.353,0.0
15.704,0.938,-0.415,0.0
27.146,1.633,0.027,0.0
24.307,1.468,-0.112,0.0
21.371,1.296,-0.219,3.0
18.516,1.128,-0.297,0.0
16.754,1.024,-0.363,0.0
15.464,0.95,-0.423,0.0
26.635,1.648,0.001,0.0
23.748,1.475,-0.132,0.0
20.981,1.308,-0.235,0.0
18.346,1.148,-0.311,0.0
16.624,1.045,-0.376,0.0
15.285,0.965,-0.432,0.0
26.133,1.661,-0.022,0.0
23.163,1.477,-0.151,0.0
20.319,1.301,-0.248,0.0
17.886,1.15,-0.321,0.0
16.308,1.052,-0.385,0.0
15.091,0.978,-0.442,0.0
25.581,1.668,-0.048,0.0
22.635,1.481,-0.17,0.0
19.845,1.303,-0.261,0.0
17.497,1.153,-0.331,0.0
16.027,1.06,-0.394,0.0
14.799,0.983,-0.448,0.0
24.932,1.667,-0.071,0.0
22.065,1.48,-0.188,0.0
19.269,1.297,-0.273,0.0
17.216,1.162,-0.344,0.0
15.833,1.073,-0.406,0.0
14.57,0.991,-0.456,0.0
24.266,1.66,-0.095,1.0
21.6,1.483,-0.207,0.0
18.771,1.293,-0.286,0.0
16.939,1.171,-0.356,0.0
15.627,1.084,-0.417,0.0
14.35,0.998,-0.464,0.0
23.995,1.679,-0.119,3.0
21.153,1.485,-0.225,0.0
18.451,1.3,-0.301,0.0
16.694,1.18,-0.369,0.0
15.361,1.089,-0.427,0.0
14.121,1.004,-0.472,0.0
23.711,1.696,-0.143,1.0
20.604,1.478,-0.242,0.0
18.103,1.302,-0.315,0.0
16.413,1.185,-0.381,0.0
15.15,1.097,-0.437,0.0
13.933,1.012,-0.482,0.0
22.774,1.663,-0.163,0.0
20.045,1.468,-0.257,0.0
17.706,1.301,-0.328,0.0
16.042,1.182,-0.39,0.0
14.917,1.102,-0.448,0.0
13.717,1.017,-0.49,0.0
22.182,1.652,-0.184,0.0
19.294,1.441,-0.27,0.0
17.293,1.295,-0.34,0.0
15.86,1.191,-0.404,0.0
14.63,1.102,-0.456,0.0
13.56,1.024,-0.5,0.0
21.558,1.637,-0.204,0.0
18.861,1.436,-0.286,0.0
16.966,1.295,-0.354,0.0
15.581,1.193,-0.415,0.0
14.322,1.099,-0.463,0.0
13.379,1.03,-0.509,0.0
21.049,1.627,-0.224,0.0
18.423,1.428,-0.301,0.0
16.691,1.297,-0.367,0.0
15.259,1.189,-0.424,0.0
14.043,1.097,-0.471,0.0
13.156,1.03,-0.516,0.0
20.484,1.611,-0.242,0.0
17.994,1.419,-0.315,0.0
16.436,1.299,-0.381,0.0
15.057,1.193,-0.437,0.0
13.897,1.104,-0.483,0.0
12.93,1.03,-0.523,0.0
19.697,1.575,-0.256,0.0
17.626,1.413,-0.33,0.0
16.107,1.294,-0.393,0.0
14.747,1.188,-0.446,0.0
13.661,1.103,-0.491,0.0
12.758,1.032,-0.531,0.0
19.323,1.57,-0.275,0.0
17.258,1.405,-0.344,0.0
15.828,1.292,-0.406,0.0
14.51,1.187,-0.456,0.0
13.489,1.106,-0.501,0.0
12.582,1.034,-0.539,0.0
18.666,1.539,-0.289,0.0
16.931,1.399,-0.358,0.0
15.577,1.29,-0.419,0.0
14.204,1.179,-0.464,0.0
13.331,1.109,-0.512,0.0
12.436,1.037,-0.549,0.0
18.291,1.53,-0.306,0.0
16.628,1.394,-0.373,0.0
15.316,1.286,-0.431,0.0
14.011,1.179,-0.476,0.0
13.047,1.101,-0.518,0.0
12.271,1.037,-0.557,0.0
17.879,1.516,-0.322,0.0
16.286,1.384,-0.386,0.0
15.0,1.277,-0.441,0.0
13.775,1.175,-0.485,0.0
12.823,1.096,-0.525,0.0
12.114,1.038,-0.565,0.0
17.432,1.498,-0.336,0.0
15.9,1.369,-0.397,0.0
14.709,1.268,-0.452,0.0
13.556,1.171,-0.495,0.0
12.702,1.1,-0.537,0.0
11.939,1.036,-0.573,0.0
17.037,1.482,-0.35,0.0
15.712,1.369,-0.413,0.0
14.37,1.255,-0.46,0.0
13.399,1.172,-0.507,0.0
12.494,1.095,-0.544,0.0
11.763,1.033,-0.58,0.0
16.696,1.47,-0.365,0.0
15.362,1.355,-0.424,0.0
14.118,1.247,-0.47,0.0
13.212,1.169,-0.517,0.0
12.324,1.092,-0.553,0.0
11.545,1.025,-0.584,0.0
16.368,1.457,-0.38,0.0
15.057,1.343,-0.435,0.0
13.892,1.241,-0.481,0.0
12.921,1.156,-0.523,0.0
12.185,1.092,-0.563,0.0
11.374,1.021,-0.591,0.0
16.01,1.441,-0.393,0.0
14.786,1.332,-0.447,0.0
13.645,1.231,-0.491,0.0
12.688,1.147,-0.531,0.0
11.953,1.082,-0.569,0.0
11.222,1.018,-0.598,0.0
15.769,1.433,-0.408,0.0
14.54,1.323,-0.459,0.0
13.404,1.222,-0.5,0.0
12.537,1.145,-0.541,0.0
11.756,1.075,-0.575,0.0
11.073,1.014,-0.605,0.0
15.493,1.422,-0.422,0.0
14.207,1.305,-0.468,0.0
13.253,1.22,-0.513,0.0
12.409,1.144,-0.553,0.0
11.637,1.074,-0.585,0.0
10.924,1.01,-0.612,0.0
15.193,1.407,-0.434,0.0
13.945,1.293,-0.479,0.0
13.033,1.21,-0.522,0.0
12.185,1.133,-0.559,0.0
11.443,1.065,-0.591,0.0
10.764,1.003,-0.618,0.0
14.866,1.388,-0.445,0.0
13.7,1.281,-0.489,0.0
12.773,1.196,-0.529,0.0
11.932,1.118,-0.564,0.0
11.257,1.056,-0.597,0.0
10.659,1.002,-0.626,0.0
14.552,1.369,-0.455,0.0
13.49,1.271,-0.5,0.0
12.583,1.187,-0.538,0.0
11.788,1.113,-0.573,0.0
11.092,1.049,-0.603,0.0
10.499,0.994,-0.631,0.0
14.213,1.347,-0.464,0.0
13.226,1.255,-0.508,0.0
12.432,1.181,-0.549,0.0
11.6,1.103,-0.58,0.0
10.922,1.04,-0.609,0.0
10.359,0.988,-0.637,0.0
13.994,1.336,-0.476,0.0
13.014,1.243,-0.518,0.0
12.207,1.168,-0.556,0.0
11.451,1.096,-0.588,0.0
10.766,1.032,-0.615,0.0
10.208,0.98,-0.642,0.0
13.725,1.318,-0.486,0.0
12.806,1.231,-0.527,0.0
12.048,1.159,-0.565,0.0
11.265,1.085,-0.594,0.0
10.677,1.03,-0.625,0.0
10.049,0.97,-0.646,0.0
13.534,1.307,-0.498,0.0
12.594,1.218,-0.536,0.0
11.817,1.144,-0.57,0.0
11.13,1.078,-0.602,0.0
10.522,1.02,-0.63,0.0
9.924,0.964,-0.652,0.0
13.315,1.293,-0.508,0.0
12.46,1.211,-0.547,0.0
11.629,1.131,-0.577,0.0
10.955,1.067,-0.608,0.0
10.385,1.012,-0.636,0.0
9.792,0.955,-0.656,0.0
13.094,1.278,-0.518,0.0
12.215,1.193,-0.553,0.0
11.451,1.119,-0.584,0.0
10.852,1.062,-0.617,0.0
10.271,1.006,-0.643,0.0
9.653,0.946,-0.66,0.0
12.767,1.251,-0.522,0.0
12.109,1.188,-0.565,0.0
11.274,1.107,-0.591,0.0
10.67,1.048,-0.621,0.0
10.075,0.991,-0.645,0.0
9.564,0.941,-0.667,0.0
12.606,1.24,-0.532,0.0
11.899,1.172,-0.571,0.0
11.147,1.098,-0.599,0.0
10.53,1.038,-0.628,0.0
9.992,0.986,-0.653,0.0
9.44,0.932,-0.671,0.0
12.495,1.234,-0.545,0.0
11.684,1.154,-0.577,0.0
10.965,1.084,-0.604,0.0
10.384,1.027,-0.633,0.0
9.833,0.974,-0.656,0.0
9.334,0.925,-0.677,0.0
12.253,1.213,-0.551,0.0
11.472,1.137,-0.582,0.0
10.85,1.076,-0.613,0.0
10.247,1.017,-0.639,0.0
9.69,0.962,-0.66,0.0
9.27,0.921,-0.685,0.0
12.06,1.197,-0.558,0.0
11.344,1.127,-0.591,0.0
10.711,1.064,-0.619,0.0
10.113,1.006,-0.644,0.0
9.568,0.952,-0.665,0.0
0.0,0.0,0.0,0.0
11.91,1.185,-0.567,0.0
11.207,1.115,-0.598,0.0
10.575,1.053,-0.626,0.0
9.995,0.996,-0.65,0.0
9.472,0.944,-0.67,0.0
0.0,0.0,0.0,0.0
11.695,1.165,-0.573,0.0
11.003,1.097,-0.602,0.0
10.417,1.039,-0.63,0.0
9.843,0.982,-0.653,0.0
9.415,0.94,-0.679,0.0
0.0,0.0,0.0,0.0
11.528,1.15,-0.58,0.0
10.867,1.084,-0.609,0.0
10.311,1.029,-0.637,0.0
9.686,0.967,-0.655,0.0
9.306,0.93,-0.683,0.0
8.769,0.877,-0.695,0.0
11.4,1.138,-0.588,0.0
10.761,1.074,-0.617,0.0
10.162,1.015,-0.641,0.0
9.609,0.96,-0.663,0.0
0.0,0.0,0.0,0.0
0.0,0.0,0.0,0.0
11.276,1.126,-0.596,0.0
10.645,1.063,-0.624,0.0
10.002,0.999,-0.644,0.0
9.446,0.944,-0.664,0.0
0.0,0.0,0.0,0.0
8.646,0.865,-0.707,0.0
11.074,1.105,-0.6,0.0
10.483,1.047,-0.628,0.0
9.92,0.991,-0.651,0.0
9.426,0.942,-0.674,0.0
0.0,0.0,0.0,0.0
8.552,0.855,-0.71,0.0
10.956,1.093,-0.607,0.0
10.328,1.03,-0.632,0.0
9.715,0.97,-0.65,0.0
0.0,0.0,0.0,0.0
0.0,0.0,0.0,0.0
8.435,0.842,-0.711,0.0
10.823,1.079,-0.613,0.0
10.251,1.022,-0.64,0.0
9.682,0.965,-0.66,0.0
0.0,0.0,0.0,0.0
0.0,0.0,0.0,0.0
8.362,0.834,-0.716,0.0
10.712,1.066,-0.62,0.0
10.065,1.002,-0.641,0.0
9.568,0.952,-0.664,0.0
0.0,0.0,0.0,0.0
0.0,0.0,0.0,0.0
8.305,0.827,-0.721,0.0
10.577,1.051,-0.625,0.0
9.903,0.984,-0.642,0.0
9.479,0.942,-0.669,0.0
0.0,0.0,0.0,0.0
8.528,0.847,-0.701,0.0
8.21,0.816,-0.723,0.0
10.414,1.032,-0.628,0.0
9.833,0.974,-0.649,0.0
9.332,0.925,-0.67,0.0
0.0,0.0,0.0,0.0
8.524,0.845,-0.711,0.0
8.17,0.81,-0.729,0.0
10.351,1.023,-0.636,0.0
9.731,0.961,-0.654,0.0
0.0,0.0,0.0,0.0
0.0,0.0,0.0,0.0
8.414,0.831,-0.712,0.0
8.078,0.798,-0.73,0.0
10.149,1.0,-0.636,0.0
9.64,0.949,-0.659,0.0
0.0,0.0,0.0,0.0
8.682,0.855,-0.694,0.0
8.319,0.819,-0.713,0.0
0.0,0.0,0.0,0.0
10.094,0.991,-0.643,0.0
9.565,0.939,-0.665,0.0
0.0,0.0,0.0,0.0
0.0,0.0,0.0,0.0
8.321,0.816,-0.723,0.0
0.0,0.0,0.0,0.0
9.952,0.973,-0.646,0.0
9.467,0.925,-0.668,0.0
0.0,0.0,0.0,0.0
0.0,0.0,0.0,0.0
8.194,0.8,-0.721,0.0
0.0,0.0,0.0,0.0
9.842,0.958,-0.649,0.0
9.383,0.913,-0.673,0.0
8.827,0.859,-0.684,0.0
8.53,0.829,-0.71,0.0
8.145,0.792,-0.725,0.0
0.0,0.0,0.0,0.0
9.743,0.944,-0.653,0.0
9.297,0.9,-0.676,0.0
8.815,0.853,-0.692,0.0
8.399,0.813,-0.709,0.0
8.132,0.786,-0.733,0.0
0.0,0.0,0.0,0.0
9.672,0.932,-0.658,0.0
9.098,0.876,-0.671,0.0
8.724,0.84,-0.694,0.0
8.362,0.805,-0.714,0.0
0.0,0.0,0.0,0.0
7.667,0.737,-0.743,0.0
9.564,0.916,-0.66,0.0
0.0,0.0,0.0,0.0
8.719,0.834,-0.702,0.0
8.261,0.79,-0.714,0.0
0.0,0.0,0.0,0.0
7.623,0.729,-0.746,0.0
9.471,0.902,-0.663,0.0
0.0,0.0,0.0,0.0
8.651,0.823,-0.705,0.0
8.284,0.787,-0.724,0.0
0.0,0.0,0.0,0.0
7.585,0.72,-0.75,0.0
9.445,0.893,-0.671,0.0
0.0,0.0,0.0,0.0
8.553,0.808,-0.705,0.0
8.191,0.773,-0.723,0.0
0.0,0.0,0.0,0.0
7.496,0.707,-0.748,0.0
9.332,0.876,-0.671,0.0
8.895,0.835,-0.691,0.0
8.501,0.797,-0.709,0.0
0.0,0.0,0.0,0.0
0.0,0.0,0.0,0.0
7.448,0.697,-0.75,0.0
9.254,0.863,-0.674,0.0
8.762,0.816,-0.688,0.0
0.0,0.0,0.0,0.0
8.106,0.754,-0.73,0.0
0.0,0.0,0.0,0.0
7.398,0.687,-0.752,0.0
9.172,0.848,-0.676,0.0
8.741,0.808,-0.694,0.0
8.324,0.769,-0.709,0.0
0.0,0.0,0.0,0.0
0.0,0.0,0.0,0.0
7.372,0.679,-0.755,0.0
0.0,0.0,0.0,0.0
8.689,0.796,-0.697,0.0
8.267,0.757,-0.711,0.0
0.0,0.0,0.0,0.0
0.0,0.0,0.0,0.0
7.304,0.667,-0.755,0.0
9.063,0.824,-0.683,0.0
8.633,0.784,-0.7,0.0
8.281,0.751,-0.718,0.0
0.0,0.0,0.0,0.0
7.551,0.684,-0.743,0.0
7.267,0.658,-0.756,0.0
8.958,0.807,-0.682,0.0
8.676,0.781,-0.71,0.0
8.207,0.738,-0.718,0.0
0.0,0.0,0.0,0.0
7.56,0.678,-0.749,0.0
7.23,0.648,-0.758,0.0
8.911,0.795,-0.685,0.0
8.545,0.762,-0.705,0.0
8.162,0.727,-0.72,0.0
0.0,0.0,0.0,0.0
7.507,0.667,-0.749,0.0
7.217,0.641,-0.762,0.0
8.817,0.779,-0.683,0.0
8.454,0.746,-0.704,0.0
8.169,0.72,-0.727,0.0
0.0,0.0,0.0,0.0
7.443,0.654,-0.748,0.0
0.0,0.0,0.0,0.0
8.816,0.77,-0.689,0.0
8.481,0.74,-0.712,0.0
0.0,0.0,0.0,0.0
0.0,0.0,0.0,0.0
7.403,0.644,-0.749,0.0
7.098,0.617,-0.759,0.0
8.733,0.755,-0.688,0.0
8.412,0.726,-0.711,0.0
0.0,0.0,0.0,0.0
0.0,0.0,0.0,0.0
7.392,0.636,-0.752,0.0
7.084,0.609,-0.761,0.0
8.761,0.749,-0.696,0.0
8.333,0.711,-0.709,0.0
0.0,0.0,0.0,0.0
0.0,0.0,0.0,0.0
7.373,0.627,-0.755,0.0
7.078,0.601,-0.765,0.0
8.68,0.733,-0.694,0.0
8.314,0.701,-0.712,0.0
0.0,0.0,0.0,0.0
0.0,0.0,0.0,0.0
7.329,0.615,-0.754,0.0
7.04,0.59,-0.765,0.0
8.639,0.721,-0.695,0.0
8.292,0.691,-0.715,0.0
0.0,0.0,0.0,0.0
0.0,0.0,0.0,0.0
7.332,0.608,-0.758,0.0
0.0,0.0,0.0,0.0
8.624,0.71,-0.698,0.0
8.24,0.677,-0.714,0.0
0.0,0.0,0.0,0.0
0.0,0.0,0.0,0.0
7.323,0.599,-0.76,0.0
6.943,0.567,-0.761,0.0
8.631,0.701,-0.703,0.0
0.0,0.0,0.0,0.0
0.0,0.0,0.0,0.0
0.0,0.0,0.0,0.0
7.238,0.584,-0.755,0.0
0.0,0.0,0.0,0.0
8.529,0.683,-0.698,0.0
0.0,0.0,0.0,0.0
0.0,0.0,0.0,0.0
0.0,0.0,0.0,0.0
0.0,0.0,0.0,0.0
0.0,0.0,0.0,0.0
8.509,0.672,-0.699,0.0
0.0,0.0,0.0,0.0
0.0,0.0,0.0,0.0
0.0,0.0,0.0,0.0
0.0,0.0,0.0,0.0
0.0,0.0,0.0,0.0
8.509,0.662,-0.702,0.0
0.0,0.0,0.0,0.0
0.0,0.0,0.0,0.0
7.48,0.579,-0.745,0.0
0.0,0.0,0.0,0.0
0.0,0.0,0.0,0.0
8.505,0.652,-0.704,0.0
0.0,0.0,0.0,0.0
0.0,0.0,0.0,0.0
7.427,0.566,-0.742,0.0
7.192,0.547,-0.759,0.0
0.0,0.0,0.0,0.0
8.424,0.636,-0.7,0.0
0.0,0.0,0.0,0.0
0.0,0.0,0.0,0.0
7.435,0.558,-0.744,0.0
7.151,0.535,-0.756,0.0
0.0,0.0,0.0,0.0
0.0,0.0,0.0,0.0
0.0,0.0,0.0,0.0
0.0,0.0,0.0,0.0
7.421,0.547,-0.744,0.0
0.0,0.0,0.0,0.0
0.0,0.0,0.0,0.0
8.439,0.616,-0.704,0.0
0.0,0.0,0.0,0.0
0.0,0.0,0.0,0.0
7.447,0.54,-0.748,0.0
0.0,0.0,0.0,0.0
0.0,0.0,0.0,0.0
0.0,0.0,0.0,0.0
0.0,0.0,0.0,0.0
0.0,0.0,0.0,0.0
7.438,0.53,-0.748,0.0
0.0,0.0,0.0,0.0
0.0,0.0,0.0,0.0
0.0,0.0,0.0,0.0
0.0,0.0,0.0,0.0
0.0,0.0,0.0,0.0
7.414,0.519,-0.746,0.0
7.141,0.498,-0.758,0.0
0.0,0.0,0.0,0.0
0.0,0.0,0.0,0.0
0.0,0.0,0.0,0.0
0.0,0.0,0.0,0.0
7.404,0.508,-0.745,0.0
7.142,0.489,-0.759,0.0
0.0,0.0,0.0,0.0
0.0,0.0,0.0,0.0
0.0,0.0,0.0,0.0
0.0,0.0,0.0,0.0
7.403,0.498,-0.744,0.0
7.092,0.476,-0.753,0.0
0.0,0.0,0.0,0.0
0.0,0.0,0.0,0.0
0.0,0.0,0.0,0.0
0.0,0.0,0.0,0.0
7.42,0.49,-0.745,0.0
7.154,0.471,-0.759,0.0
0.0,0.0,0.0,0.0
0.0,0.0,0.0,0.0
0.0,0.0,0.0,0.0
0.0,0.0,0.0,0.0
7.398,0.478,-0.742,0.0
7.162,0.462,-0.759,0.0
0.0,0.0,0.0,0.0
0.0,0.0,0.0,0.0
0.0,0.0,0.0,0.0
0.0,0.0,0.0,0.0
7.429,0.47,-0.744,0.0
7.111,0.449,-0.752,0.0
0.0,0.0,0.0,0.0
0.0,0.0,0.0,0.0
0.0,0.0,0.0,0.0
0.0,0.0,0.0,0.0
7.431,0.46,-0.743,0.0
7.155,0.442,-0.755,0.0
0.0,0.0,0.0,0.0
0.0,0.0,0.0,0.0
0.0,0.0,0.0,0.0
0.0,0.0,0.0,0.0
7.467,0.452,-0.745,0.0
7.151,0.432,-0.753,0.0
0.0,0.0,0.0,0.0
0.0,0.0,0.0,0.0
0.0,0.0,0.0,0.0
0.0,0.0,0.0,0.0
7.467,0.442,-0.742,0.0
7.179,0.424,-0.754,0.0
0.0,0.0,0.0,0.0
0.0,0.0,0.0,0.0
0.0,0.0,0.0,0.0
0.0,0.0,0.0,0.0
7.467,0.432,-0.74,0.0
7.175,0.414,-0.751,0.0
0.0,0.0,0.0,0.0
0.0,0.0,0.0,0.0
0.0,0.0,0.0,0.0
0.0,0.0,0.0,0.0
0.0,0.0,0.0,0.0
7.266,0.408,-0.757,0.0
0.0,0.0,0.0,0.0
0.0,0.0,0.0,0.0
0.0,0.0,0.0,0.0
0.0,0.0,0.0,0.0
0.0,0.0,0.0,0.0
7.234,0.397,-0.751,0.0
0.0,0.0,0.0,0.0
0.0,0.0,0.0,0.0
0.0,0.0,0.0,0.0
0.0,0.0,0.0,0.0
0.0,0.0,0.0,0.0
7.299,0.39,-0.754,0.0
0.0,0.0,0.0,0.0
0.0,0.0,0.0,0.0
0.0,0.0,0.0,0.0
0.0,0.0,0.0,0.0
0.0,0.0,0.0,0.0
7.304,0.38,-0.751,0.0
7.038,0.365,-0.763,0.0
0.0,0.0,0.0,0.0
0.0,0.0,0.0,0.0
0.0,0.0,0.0,0.0
0.0,0.0,0.0,0.0
7.345,0.372,-0.751,0.0
0.0,0.0,0.0,0.0
0.0,0.0,0.0,0.0
0.0,0.0,0.0,0.0
0.0,0.0,0.0,0.0
0.0,0.0,0.0,0.0
7.404,0.365,-0.752,0.0
7.128,0.35,-0.764,0.0
0.0,0.0,0.0,0.0
0.0,0.0,0.0,0.0
0.0,0.0,0.0,0.0
0.0,0.0,0.0,0.0
7.427,0.355,-0.75,0.0
7.144,0.34,-0.761,0.0
0.0,0.0,0.0,0.0
0.0,0.0,0.0,0.0
0.0,0.0,0.0,0.0
0.0,0.0,0.0,0.0
7.443,0.346,-0.746,0.0
7.158,0.331,-0.757,0.0
8.867,0.407,-0.687,0.0
0.0,0.0,0.0,0.0
0.0,0.0,0.0,0.0
0.0,0.0,0.0,0.0
7.457,0.336,-0.742,0.0
7.203,0.323,-0.756,0.0
8.896,0.396,-0.682,0.0
0.0,0.0,0.0,0.0
0.0,0.0,0.0,0.0
0.0,0.0,0.0,0.0
7.504,0.328,-0.74,0.0
7.248,0.315,-0.755,0.0
8.936,0.386,-0.678,0.0
8.573,0.368,-0.697,0.0
0.0,0.0,0.0,0.0
0.0,0.0,0.0,0.0
7.301,0.307,-0.754,0.0
8.987,0.376,-0.674,0.0
8.657,0.36,-0.696,0.0
8.226,0.34,-0.707,0.0
0.0,0.0,0.0,0.0
0.0,0.0,0.0,0.0
7.33,0.298,-0.751,0.0
0.0,0.0,0.0,0.0
0.0,0.0,0.0,0.0
8.333,0.333,-0.708,0.0
0.0,0.0,0.0,0.0
0.0,0.0,0.0,0.0
7.395,0.291,-0.75,0.0
0.0,0.0,0.0,0.0
0.0,0.0,0.0,0.0
0.0,0.0,0.0,0.0
0.0,0.0,0.0,0.0
0.0,0.0,0.0,0.0
7.437,0.282,-0.748,0.0
9.219,0.348,-0.666,0.0
0.0,0.0,0.0,0.0
0.0,0.0,0.0,0.0
0.0,0.0,0.0,0.0
0.0,0.0,0.0,0.0
7.481,0.274,-0.744,0.0
0.0,0.0,0.0,0.0
0.0,0.0,0.0,0.0
0.0,0.0,0.0,0.0
0.0,0.0,0.0,0.0
0.0,0.0,0.0,0.0
0.0,0.0,0.0,0.0
0.0,0.0,0.0,0.0
0.0,0.0,0.0,0.0
0.0,0.0,0.0,0.0
0.0,0.0,0.0,0.0
0.0,0.0,0.0,0.0
0.0,0.0,0.0,0.0
9.548,0.322,-0.659,0.0
0.0,0.0,0.0,0.0
0.0,0.0,0.0,0.0
0.0,0.0,0.0,0.0
0.0,0.0,0.0,0.0
0.0,0.0,0.0,0.0
9.68,0.314,-0.658,0.0
0.0,0.0,0.0,0.0
0.0,0.0,0.0,0.0
0.0,0.0,0.0,0.0
0.0,0.0,0.0,0.0
7.791,0.244,-0.74,0.0
9.654,0.301,-0.644,0.0
0.0,0.0,0.0,0.0
0.0,0.0,0.0,0.0
0.0,0.0,0.0,0.0
0.0,0.0,0.0,0.0
0.0,0.0,0.0,0.0
9.783,0.292,-0.641,0.0
0.0,0.0,0.0,0.0
0.0,0.0,0.0,0.0
0.0,0.0,0.0,0.0
0.0,0.0,0.0,0.0
7.892,0.228,-0.73,0.0
9.972,0.286,-0.641,0.0
9.465,0.269,-0.659,0.0
8.991,0.254,-0.674,0.0
0.0,0.0,0.0,0.0
8.263,0.23,-0.709,0.0
0.0,0.0,0.0,0.0
10.108,0.277,-0.637,0.0
9.624,0.262,-0.658,0.0
0.0,0.0,0.0,0.0
0.0,0.0,0.0,0.0
0.0,0.0,0.0,0.0
0.0,0.0,0.0,0.0
10.206,0.267,-0.629,0.0
9.679,0.251,-0.648,0.0
0.0,0.0,0.0,0.0
0.0,0.0,0.0,0.0
0.0,0.0,0.0,0.0
8.144,0.205,-0.721,0.0
10.303,0.257,-0.621,0.0
9.885,0.245,-0.649,0.0
0.0,0.0,0.0,0.0
0.0,0.0,0.0,0.0
8.577,0.207,-0.701,0.0
8.221,0.197,-0.716,0.0
10.54,0.251,-0.621,0.0
9.972,0.235,-0.64,0.0
0.0,0.0,0.0,0.0
9.069,0.21,-0.68,0.0
8.674,0.199,-0.697,0.0
8.284,0.189,-0.71,0.0
10.562,0.239,-0.607,0.0
10.126,0.227,-0.636,0.0
0.0,0.0,0.0,0.0
0.0,0.0,0.0,0.0
0.0,0.0,0.0,0.0
8.391,0.181,-0.706,0.0
10.771,0.232,-0.603,0.0
10.21,0.217,-0.626,0.0
9.734,0.205,-0.648,0.0
0.0,0.0,0.0,0.0
0.0,0.0,0.0,0.0
8.524,0.175,-0.705,0.0
10.951,0.223,-0.597,0.0
10.36,0.209,-0.619,0.0
9.93,0.199,-0.646,0.0
0.0,0.0,0.0,0.0
8.98,0.176,-0.681,0.0
0.0,0.0,0.0,0.0
11.13,0.215,-0.589,0.0
10.467,0.2,-0.609,0.0
10.091,0.191,-0.641,0.0
0.0,0.0,0.0,0.0
0.0,0.0,0.0,0.0
0.0,0.0,0.0,0.0
11.324,0.206,-0.582,0.0
10.743,0.194,-0.609,0.0
10.139,0.181,-0.628,0.0
9.719,0.171,-0.654,0.0
0.0,0.0,0.0,0.0
0.0,0.0,0.0,0.0
11.519,0.198,-0.573,0.0
10.871,0.185,-0.598,0.0
10.344,0.174,-0.624,0.0
9.804,0.163,-0.644,0.0
0.0,0.0,0.0,0.0
8.904,0.145,-0.679,0.0
11.711,0.189,-0.564,0.0
11.071,0.177,-0.591,0.0
10.447,0.165,-0.613,0.0
0.0,0.0,0.0,0.0
0.0,0.0,0.0,0.0
0.0,0.0,0.0,0.0
11.926,0.181,-0.554,0.0
11.258,0.168,-0.582,0.0
10.654,0.157,-0.607,0.0
10.117,0.148,-0.631,0.0
0.0,0.0,0.0,0.0
0.0,0.0,0.0,0.0
12.179,0.172,-0.545,0.0
11.506,0.161,-0.575,0.0
10.82,0.149,-0.598,0.0
10.31,0.141,-0.625,0.0
9.816,0.132,-0.646,0.0
0.0,0.0,0.0,0.0
12.407,0.164,-0.534,0.0
11.736,0.153,-0.566,0.0
11.03,0.142,-0.59,0.0
10.453,0.133,-0.615,0.0
0.0,0.0,0.0,0.0
0.0,0.0,0.0,0.0
12.71,0.156,-0.524,0.0
11.93,0.145,-0.555,0.0
11.282,0.135,-0.584,0.0
10.633,0.125,-0.607,0.0
10.14,0.118,-0.632,0.0
9.698,0.111,-0.655,0.0
12.952,0.148,-0.511,0.0
12.226,0.138,-0.547,0.0
11.482,0.127,-0.573,0.0
10.866,0.119,-0.6,0.0
10.352,0.111,-0.626,0.0
9.801,0.104,-0.644,0.0
13.215,0.139,-0.498,0.0
12.459,0.129,-0.534,0.0
11.74,0.12,-0.565,0.0
11.086,0.112,-0.592,0.0
10.489,0.104,-0.615,0.0
0.0,0.0,0.0,0.0
13.535,0.132,-0.485,0.0
12.742,0.122,-0.523,0.0
11.953,0.113,-0.553,0.0
11.29,0.105,-0.582,0.0
10.762,0.098,-0.611,0.0
10.136,0.091,-0.629,0.0
13.891,0.124,-0.472,0.0
13.037,0.114,-0.511,0.0
12.314,0.106,-0.547,0.0
11.51,0.098,-0.572,0.0
10.935,0.091,-0.601,0.0
10.331,0.085,-0.621,0.0
14.181,0.116,-0.455,0.0
13.301,0.107,-0.496,0.0
12.49,0.098,-0.531,0.0
11.816,0.091,-0.565,0.0
11.184,0.085,-0.593,0.0
10.564,0.079,-0.615,0.0
14.596,0.108,-0.441,0.0
13.589,0.099,-0.481,0.0
12.785,0.091,-0.519,0.0
12.001,0.084,-0.551,0.0
11.348,0.078,-0.58,0.0
10.793,0.073,-0.608,0.0
15.029,0.101,-0.425,0.0
13.943,0.092,-0.467,0.0
13.101,0.085,-0.507,0.0
12.332,0.078,-0.542,0.0
11.656,0.072,-0.573,0.0
11.008,0.067,-0.598,0.0
15.576,0.094,-0.41,0.0
14.333,0.085,-0.452,0.0
13.431,0.078,-0.493,0.0
12.593,0.071,-0.529,0.0
11.875,0.066,-0.56,0.0
11.219,0.061,-0.588,0.0
16.004,0.087,-0.39,0.0
14.709,0.078,-0.435,0.0
13.75,0.071,-0.477,0.0
12.905,0.065,-0.516,0.0
12.205,0.06,-0.552,0.0
11.452,0.055,-0.577,0.0
16.474,0.079,-0.369,0.0
15.281,0.072,-0.421,0.0
14.011,0.064,-0.458,0.0
13.163,0.059,-0.5,0.0
12.447,0.054,-0.537,0.0
11.758,0.05,-0.569,0.0
16.933,0.072,-0.345,0.0
15.72,0.065,-0.401,0.0
14.443,0.058,-0.443,0.0
13.509,0.053,-0.486,0.0
12.74,0.049,-0.524,0.0
11.995,0.044,-0.556,0.0
17.467,0.065,-0.32,0.0
16.197,0.058,-0.381,0.0
14.907,0.052,-0.428,0.0
13.799,0.047,-0.469,0.0
13.02,0.043,-0.509,0.0
12.322,0.04,-0.546,0.0
18.271,0.059,-0.298,0.0
16.715,0.052,-0.359,0.0
15.507,0.047,-0.413,0.0
14.219,0.042,-0.454,0.0
13.378,0.038,-0.496,0.0
12.552,0.034,-0.53,0.0
19.167,0.052,-0.273,0.0
17.23,0.046,-0.334,0.0
15.976,0.041,-0.392,0.0
14.73,0.036,-0.439,0.0
13.692,0.033,-0.479,0.0
12.9,0.03,-0.518,0.0
20.521,0.047,-0.25,0.0
17.945,0.04,-0.311,0.0
16.477,0.035,-0.37,0.0
15.179,0.031,-0.421,0.0
14.111,0.028,-0.464,0.0
13.231,0.025,-0.504,0.0
21.338,0.041,-0.215,4.0
18.658,0.034,-0.284,0.0
16.96,0.03,-0.346,0.0
15.74,0.026,-0.403,0.0
14.515,0.023,-0.447,0.0
13.571,0.021,-0.488,0.0
22.662,0.035,-0.181,0.0
19.865,0.029,-0.261,0.0
17.586,0.025,-0.322,0.0
16.264,0.022,-0.383,0.0
15.021,0.019,-0.431,0.0
13.894,0.017,-0.471,0.0
23.72,0.029,-0.14,1.0
21.05,0.024,-0.232,3.0
18.447,0.02,-0.299,0.0
16.72,0.017,-0.358,0.0
15.596,0.015,-0.415,0.0
14.313,0.013,-0.454,0.0
25.074,0.024,-0.095,0.0
21.965,0.019,-0.196,0.0
19.361,0.016,-0.273,0.0
17.298,0.013,-0.334,0.0
16.051,0.012,-0.393,0.0
14.871,0.01,-0.44,0.0
26.079,0.018,-0.043,0.0
23.475,0.015,-0.16,1.0
20.817,0.012,-0.249,0.0
18.037,0.01,-0.31,0.0
16.571,0.008,-0.37,0.0
15.33,0.007,-0.421,0.0
27.292,0.013,0.012,0.0
24.497,0.011,-0.114,0.0
21.488,0.009,-0.211,2.0
18.958,0.007,-0.285,0.0
17.059,0.006,-0.345,0.0
15.88,0.005,-0.403,0.0
28.638,0.009,0.074,1.0
25.758,0.007,-0.065,0.0
23.209,0.006,-0.178,0.0
19.993,0.004,-0.258,0.0
17.819,0.003,-0.322,0.0
16.431,0.002,-0.381,0.0
30.161,0.005,0.142,0.0
26.694,0.004,-0.011,0.0
23.921,0.003,-0.132,0.0
21.144,0.002,-0.228,3.0
18.551,0.001,-0.295,0.0
16.879,0.001,-0.355,0.0
31.071,0.002,0.213,0.0
28.321,0.001,0.049,1.0
25.235,0.001,-0.085,0.0
22.172,0.0,-0.191,0.0
19.682,0.0,-0.271,0.0
17.489,0.0,-0.331,0.0
33.249,0.0,0.3,0.0
28.769,0.0,0.111,0.0
26.351,0.0,-0.033,0.0
23.676,0.0,-0.154,1.0
20.967,0.0,-0.244,2.0
18.226,0.0,-0.306,0.0
35.74,0.0,0.399,0.0
30.665,0.0,0.185,0.0
27.657,0.0,0.024,0.0
24.825,0.0,-0.108,0.0
21.734,0.0,-0.206,0.0
19.239,0.0,-0.281,0.0
37.62,0.0,0.5,0.0
33.14,0.0,0.27,0.0
28.735,0.0,0.086,1.0
25.931,0.0,-0.057,0.0
23.451,0.0,-0.172,0.0
20.496,0.0,-0.256,0.0
41.728,0.002,0.644,0.0
0.0,0.0,0.0,0.0
30.258,0.002,0.155,0.0
27.125,0.002,-0.002,0.0
24.182,0.002,-0.126,0.0
21.351,0.002,-0.221,3.0
0.0,0.0,0.0,0.0
0.0,0.0,0.0,0.0
31.487,0.005,0.23,0.0
28.512,0.005,0.058,1.0
25.52,0.005,-0.078,0.0
22.911,0.005,-0.188,0.0
0.0,0.0,0.0,0.0
40.668,0.011,0.593,0.0
33.358,0.01,0.315,0.0
30.185,0.01,0.127,0.0
26.6,0.009,-0.024,0.0
23.775,0.009,-0.144,0.0
0.0,0.0,0.0,0.0
42.341,0.019,0.708,0.0
0.0,0.0,0.0,0.0
31.311,0.016,0.199,0.0
28.228,0.015,0.034,1.0
25.138,0.015,-0.098,0.0
0.0,0.0,0.0,0.0
0.0,0.0,0.0,0.0
0.0,0.0,0.0,0.0
33.162,0.024,0.281,0.0
28.732,0.022,0.095,1.0
26.214,0.021,-0.047,0.0
77.373,0.065,2.023,3.0
0.0,0.0,0.0,0.0
0.0,0.0,0.0,0.0
35.66,0.035,0.378,0.0
30.453,0.032,0.166,0.0
27.579,0.03,0.008,0.0
0.0,0.0,0.0,0.0
0.0,0.0,0.0,0.0
0.0,0.0,0.0,0.0
0.0,0.0,0.0,0.0
0.0,0.0,0.0,0.0
28.674,0.04,0.069,2.0
78.095,0.112,2.374,8.0
76.707,0.114,1.937,3.0
0.0,0.0,0.0,0.0
0.0,0.0,0.0,0.0
33.489,0.056,0.323,0.0
30.058,0.052,0.135,0.0
78.069,0.138,2.537,13.0
76.872,0.142,2.101,2.0
0.0,0.0,0.0,0.0
0.0,0.0,0.0,0.0
36.573,0.075,0.429,0.0
31.502,0.067,0.208,0.0
78.036,0.168,2.7,13.0
78.123,0.174,2.3,7.0
76.154,0.176,1.848,1.0
0.0,0.0,0.0,0.0
0.0,0.0,0.0,0.0
33.832,0.086,0.294,0.0
83.247,0.214,3.054,38.0
83.159,0.221,2.621,14.0
76.301,0.209,2.011,5.0
0.0,0.0,0.0,0.0
42.013,0.122,0.669,0.0
0.0,0.0,0.0,0.0
83.245,0.252,3.226,37.0
83.196,0.259,2.794,12.0
78.12,0.25,2.22,4.0
0.0,0.0,0.0,0.0
0.0,0.0,0.0,0.0
37.514,0.131,0.481,0.0
83.265,0.293,3.4,44.0
83.292,0.301,2.969,22.0
83.066,0.308,2.531,9.0
75.695,0.288,1.907,2.0
0.0,0.0,0.0,0.0
41.628,0.167,0.619,0.0
83.273,0.337,3.571,39.0
83.301,0.345,3.14,47.0
78.063,0.332,2.538,13.0
75.568,0.329,2.058,3.0
0.0,0.0,0.0,0.0
0.0,0.0,0.0,0.0
83.284,0.384,3.74,26.0
83.347,0.393,3.311,11.0
78.056,0.377,2.696,8.0
76.892,0.379,2.249,4.0
73.866,0.372,1.778,0.0
0.0,0.0,0.0,0.0
79.319,0.412,3.721,7.0
79.356,0.421,3.311,11.0
79.349,0.431,2.899,15.0
78.069,0.433,2.439,28.0
75.226,0.426,1.962,3.0
0.0,0.0,0.0,0.0
79.342,0.462,3.88,9.0
79.34,0.472,3.469,11.0
79.312,0.481,3.056,2.0
78.147,0.484,2.597,23.0
75.845,0.479,2.127,4.0
0.0,0.0,0.0,0.0
79.339,0.515,4.039,10.0
79.363,0.525,3.627,10.0
79.327,0.535,3.213,9.0
78.103,0.537,2.75,8.0
78.186,0.548,2.348,12.0
75.039,0.536,1.864,0.0
79.307,0.571,4.194,7.0
79.331,0.581,3.782,6.0
79.367,0.592,3.371,6.0
78.091,0.593,2.902,9.0
78.12,0.603,2.497,25.0
75.107,0.591,2.011,5.0
79.372,0.629,4.352,7.0
79.37,0.639,3.937,8.0
79.341,0.65,3.523,8.0
0.0,0.0,0.0,0.0
78.108,0.662,2.647,25.0
76.129,0.657,2.184,2.0
79.339,0.689,4.502,6.0
79.354,0.7,4.088,9.0
79.395,0.712,3.677,6.0
79.358,0.723,3.253,10.0
79.382,0.735,2.84,4.0
57.949,0.545,1.772,0.0
79.363,0.752,4.655,3.0
79.314,0.764,4.238,8.0
79.356,0.776,3.825,5.0
79.352,0.788,3.402,4.0
108.042,1.089,4.07,13.0
57.647,0.59,1.871,0.0
90.183,0.929,5.458,13.0
90.755,0.949,5.019,10.0
89.687,0.951,4.49,9.0
109.087,1.174,4.879,14.0
108.194,1.182,4.275,16.0
57.251,0.634,1.963,0.0
76.607,0.855,4.778,16.0
88.392,1.0,5.05,12.0
91.59,1.051,4.753,13.0
109.043,1.268,5.076,8.0
108.941,1.285,4.503,10.0
0.0,0.0,0.0,0.0
76.43,0.92,4.908,28.0
76.496,0.934,4.51,48.0
76.709,0.949,4.12,7.0
92.002,1.154,4.452,13.0
109.056,1.386,4.706,19.0
0.0,0.0,0.0,0.0
76.318,0.989,5.038,36.0
76.474,1.004,4.647,30.0
76.587,1.019,4.251,32.0
76.62,1.032,3.843,19.0
76.619,1.045,3.441,7.0
0.0,0.0,0.0,0.0
76.262,1.061,5.17,28.0
76.558,1.077,4.787,15.0
76.511,1.09,4.382,26.0
76.534,1.104,3.974,25.0
76.581,1.118,3.573,35.0
76.535,1.131,3.17,3.0
76.871,1.143,5.346,21.0
76.644,1.153,4.925,17.0
76.539,1.166,4.515,21.0
76.546,1.179,4.104,31.0
76.55,1.193,3.703,38.0
76.533,1.207,3.3,10.0
77.266,1.227,5.505,15.0
89.007,1.429,5.871,12.0
76.639,1.244,4.651,11.0
76.586,1.257,4.236,18.0
76.553,1.271,3.832,24.0
76.563,1.285,3.429,22.0
83.372,1.409,6.081,14.0
76.712,1.311,5.19,7.0
83.957,1.45,5.236,15.0
84.968,1.483,4.842,14.0
89.098,1.572,4.607,7.0
90.988,1.623,4.226,8.0
83.448,1.498,6.225,13.0
76.707,1.391,5.316,24.0
83.753,1.535,5.36,11.0
84.176,1.559,4.934,18.0
85.484,1.6,4.56,10.0
90.985,1.72,4.373,21.0
76.886,1.463,5.86,10.0
76.73,1.475,5.442,26.0
0.0,0.0,0.0,0.0
83.833,1.644,5.049,28.0
0.0,0.0,0.0,0.0
90.996,1.819,4.518,7.0
76.924,1.548,5.985,21.0
83.527,1.697,6.055,23.0
82.592,1.694,5.549,29.0
83.901,1.738,5.183,20.0
84.323,1.763,4.763,17.0
85.529,1.806,4.379,10.0
62.861,1.336,4.989,25.0
83.444,1.79,6.179,33.0
82.544,1.787,5.674,15.0
83.388,1.822,5.281,33.0
84.087,1.854,4.878,20.0
83.329,1.855,4.393,21.0
62.866,1.408,5.086,17.0
83.334,1.884,6.297,21.0
82.436,1.88,5.79,27.0
82.332,1.894,5.337,36.0
82.24,1.909,4.895,27.0
82.751,1.939,4.486,22.0
62.964,1.485,5.189,15.0
76.991,1.831,5.934,13.0
82.431,1.978,5.914,30.0
82.059,1.985,5.44,37.0
82.252,2.007,5.016,37.0
82.514,2.031,4.594,34.0
62.937,1.559,5.279,8.0
64.558,1.613,5.069,31.0
82.399,2.076,6.03,24.0
82.179,2.087,5.567,35.0
82.285,2.107,5.135,30.0
82.251,2.124,4.695,35.0
63.039,1.638,5.377,16.0
64.653,1.694,5.168,32.0
82.469,2.178,6.151,27.0
82.295,2.19,5.69,38.0
81.725,2.193,5.214,34.0
82.191,2.223,4.805,35.0
63.066,1.717,5.467,22.0
64.626,1.773,5.255,32.0
62.142,1.717,4.719,6.0
82.38,2.294,5.807,33.0
81.926,2.299,5.337,22.0
81.628,2.309,4.881,35.0
63.248,1.8,5.567,9.0
62.36,1.788,5.154,13.0
62.167,1.796,4.804,14.0
82.475,2.4,5.922,15.0
82.082,2.406,5.455,29.0
81.442,2.405,4.975,28.0
57.836,1.719,5.166,11.0
62.289,1.865,5.228,28.0
62.228,1.876,4.888,14.0
74.278,2.255,5.428,24.0
82.108,2.51,5.559,35.0
81.395,2.506,5.075,24.0
56.219,1.743,5.093,4.0
62.893,1.963,5.358,19.0
62.617,1.968,4.998,35.0
66.074,2.091,4.911,35.0
66.134,2.107,4.559,22.0
66.028,2.119,4.198,12.0
50.15,1.62,4.605,21.0
72.925,2.372,6.303,15.0
63.98,2.095,5.185,22.0
65.104,2.146,4.919,21.0
66.141,2.195,4.64,17.0
65.967,2.203,4.273,22.0
50.221,1.689,4.673,21.0
66.719,2.259,5.846,5.0
64.099,2.184,5.27,17.0
65.164,2.234,4.999,13.0
81.373,2.808,5.804,24.0
81.701,2.838,5.387,16.0
50.159,1.754,4.725,23.0
51.829,1.824,4.602,19.0
64.174,2.273,5.35,11.0
75.938,2.706,5.912,17.0
81.275,2.914,5.889,14.0
81.641,2.945,5.475,24.0
49.946,1.814,4.762,22.0
66.793,2.441,6.004,15.0
66.732,2.453,5.637,10.0
0.0,0.0,0.0,0.0
65.279,2.429,4.8,27.0
65.383,2.447,4.454,21.0
50.074,1.886,4.827,26.0
51.569,1.954,4.69,15.0
56.097,2.138,4.798,22.0
66.656,2.556,5.332,40.0
65.442,2.523,4.881,10.0
65.358,2.534,4.52,23.0
50.29,1.964,4.9,31.0
51.557,2.024,4.743,17.0
55.883,2.206,4.836,27.0
63.138,2.506,5.114,19.0
78.359,3.128,5.921,2.0
81.593,3.275,5.723,12.0
50.298,2.033,4.951,34.0
51.479,2.091,4.785,25.0
55.981,2.287,4.899,25.0
58.159,2.389,4.767,19.0
66.573,2.749,5.094,22.0
77.962,3.237,5.542,23.0
50.445,2.108,5.013,21.0
51.544,2.166,4.841,6.0
56.569,2.389,5.003,14.0
49.38,2.096,4.092,25.0
66.519,2.838,5.151,27.0
66.11,2.836,4.76,33.0
50.379,2.176,5.052,30.0
49.572,2.152,4.7,18.0
54.122,2.361,4.835,11.0
58.187,2.551,4.874,23.0
58.199,2.564,4.557,8.0
66.136,2.929,4.819,20.0
50.665,2.259,5.125,25.0
49.659,2.225,4.75,19.0
54.096,2.435,4.878,27.0
58.193,2.633,4.923,8.0
58.32,2.652,4.615,17.0
65.863,3.01,4.853,34.0
50.503,2.323,5.151,32.0
49.744,2.299,4.799,19.0
49.754,2.311,4.527,24.0
49.461,2.308,4.224,32.0
58.223,2.73,4.654,31.0
80.231,3.779,5.975,10.0
50.621,2.401,5.202,25.0
49.81,2.372,4.844,24.0
49.724,2.379,4.562,26.0
49.506,2.38,4.265,22.0
58.016,2.801,4.68,52.0
75.867,3.68,5.705,10.0
50.47,2.465,5.224,34.0
49.779,2.442,4.877,22.0
49.797,2.454,4.605,23.0
49.588,2.454,4.308,5.0
65.768,3.269,5.352,12.0
64.127,3.201,4.867,12.0
50.473,2.537,5.259,32.0
49.867,2.517,4.92,23.0
49.759,2.522,4.635,20.0
58.437,2.974,5.115,11.0
65.75,3.361,5.393,9.0
58.199,2.987,4.454,22.0
49.604,2.564,5.201,26.0
49.871,2.588,4.953,23.0
49.862,2.598,4.676,23.0
49.674,2.599,4.379,23.0
49.24,2.587,4.069,29.0
58.245,3.072,4.493,32.0
48.538,2.579,5.118,23.0
49.461,2.637,4.941,24.0
49.815,2.667,4.701,20.0
49.681,2.67,4.408,11.0
49.413,2.666,4.112,22.0
58.364,3.161,4.535,14.0
48.128,2.625,5.102,24.0
49.102,2.687,4.932,23.0
49.92,2.742,4.738,20.0
65.318,3.602,5.831,20.0
49.491,2.739,4.144,22.0
58.466,3.248,4.573,18.0
48.156,2.694,5.13,23.0
49.524,2.78,5.0,23.0
56.917,3.207,5.43,27.0
65.338,3.695,5.865,19.0
66.5,3.776,5.6,14.0
58.475,3.332,4.601,25.0
47.653,2.734,5.099,28.0
53.727,3.093,5.45,8.0
57.248,3.307,5.488,18.0
52.231,3.028,4.711,14.0
66.534,3.871,5.633,26.0
80.568,4.705,6.375,22.0
44.796,2.633,4.812,19.0
48.337,2.851,4.923,22.0
57.526,3.404,5.538,31.0
57.775,3.431,5.235,21.0
57.947,3.452,4.928,12.0
80.572,4.817,6.406,27.0
44.712,2.691,4.82,29.0
48.355,2.92,4.943,22.0
51.964,3.148,5.022,14.0
57.55,3.497,5.235,18.0
57.966,3.535,4.95,38.0
58.14,3.557,4.642,50.0
44.783,2.758,4.843,7.0
48.952,3.024,5.02,23.0
51.865,3.215,5.029,19.0
57.42,3.57,5.241,12.0
58.114,3.624,4.98,18.0
58.088,3.634,4.655,22.0
34.084,2.147,3.696,28.0
49.262,3.112,5.065,26.0
51.708,3.277,5.028,24.0
59.717,3.796,5.467,16.0
58.127,3.706,4.997,22.0
67.533,4.319,5.429,17.0
34.147,2.198,3.711,28.0
49.23,3.178,5.074,10.0
51.65,3.345,5.034,14.0
63.114,4.099,5.792,11.0
59.422,3.87,5.121,11.0
58.012,3.789,4.676,15.0
34.214,2.25,3.725,28.0
48.95,3.228,5.055,8.0
54.913,3.632,5.362,6.0
63.048,4.181,5.797,25.0
59.338,3.946,5.124,13.0
58.291,3.888,4.708,31.0
34.226,2.298,3.732,31.0
48.69,3.278,5.036,14.0
48.271,3.258,4.721,11.0
63.03,4.266,5.804,23.0
59.253,4.021,5.125,10.0
58.526,3.983,4.735,30.0
34.202,2.343,3.733,29.0
34.57,2.374,3.579,5.0
48.3,3.325,4.728,16.0
63.036,4.351,5.81,3.0
0.0,0.0,0.0,0.0
58.615,4.067,4.746,24.0
34.207,2.389,3.736,24.0
34.383,2.407,3.562,19.0
48.279,3.388,4.729,27.0
51.95,3.654,4.791,20.0
58.8,4.147,5.093,19.0
58.697,4.15,4.755,10.0
34.278,2.439,3.745,32.0
48.364,3.449,5.011,16.0
48.297,3.453,4.731,20.0
59.146,4.238,5.455,9.0
58.77,4.221,5.09,31.0
58.136,4.186,4.709,9.0
34.323,2.488,3.749,36.0
48.36,3.513,5.009,18.0
59.609,4.34,5.838,13.0
49.729,3.629,4.585,21.0
58.617,4.287,5.074,21.0
58.073,4.257,4.701,48.0
34.347,2.534,3.75,32.0
48.41,3.579,5.011,22.0
59.593,4.415,5.832,18.0
58.757,4.363,5.412,7.0
51.91,3.863,4.489,18.0
61.324,4.575,4.958,21.0
34.387,2.581,3.751,34.0
48.336,3.635,4.998,22.0
51.825,3.906,5.065,9.0
49.466,3.736,4.55,23.0
51.922,3.93,4.483,11.0
61.472,4.663,4.962,25.0
34.348,2.621,3.742,38.0
48.363,3.698,4.994,8.0
42.943,3.29,4.191,15.0
49.174,3.775,4.515,23.0
51.886,3.991,4.472,34.0
60.923,4.697,4.906,27.0
34.329,2.663,3.733,25.0
49.542,3.85,5.106,6.0
49.303,3.839,4.801,20.0
48.892,3.814,4.479,19.0
51.874,4.055,4.459,23.0
60.847,4.766,4.887,30.0
34.261,2.7,3.718,31.0
43.023,3.396,4.424,17.0
53.624,4.24,5.21,23.0
49.25,3.902,4.5,11.0
51.909,4.12,4.449,20.0
60.312,4.796,4.829,30.0
34.322,2.746,3.715,41.0
42.726,3.424,4.381,4.0
48.99,3.933,4.745,6.0
60.322,4.851,5.494,11.0
59.483,4.792,5.081,17.0
51.994,4.196,4.147,19.0
34.288,2.783,3.7,18.0
33.923,2.758,3.468,29.0
48.883,3.981,4.719,20.0
60.298,4.919,5.472,12.0
59.693,4.878,5.079,25.0
51.943,4.252,4.125,20.0
49.14,4.046,5.287,8.0
33.909,2.796,3.454,28.0
42.55,3.514,4.092,12.0
53.436,4.421,4.83,7.0
59.784,4.954,5.064,31.0
51.904,4.307,4.103,36.0
43.101,3.598,4.62,3.0
33.877,2.832,3.438,26.0
42.579,3.564,4.078,3.0
51.548,4.322,4.638,19.0
59.771,5.019,5.039,26.0
51.843,4.36,4.077,40.0
34.119,2.886,3.642,33.0
42.759,3.622,4.32,14.0
51.383,4.358,4.899,15.0
51.417,4.368,4.603,17.0
59.666,5.075,5.003,7.0
51.818,4.414,4.051,43.0
34.103,2.922,3.624,32.0
42.795,3.671,4.304,8.0
51.52,4.425,4.887,16.0
51.477,4.427,4.584,8.0
51.682,4.451,4.308,30.0
51.808,4.468,4.024,39.0
34.102,2.958,3.607,33.0
42.768,3.714,4.279,29.0
51.444,4.473,4.853,22.0
51.628,4.494,4.571,39.0
59.18,5.159,4.902,15.0
51.804,4.522,3.996,17.0
42.904,3.766,4.515,5.0
42.707,3.752,4.249,29.0
51.384,4.521,4.818,25.0
51.635,4.548,4.542,22.0
59.228,5.223,4.872,27.0
51.855,4.579,3.97,15.0
42.852,3.804,4.484,9.0
42.646,3.79,4.218,29.0
51.5,4.582,4.799,22.0
59.418,5.293,5.191,22.0
42.894,3.825,3.502,14.0
51.883,4.632,3.941,16.0
42.902,3.851,4.462,12.0
42.628,3.83,4.189,27.0
51.539,4.635,4.77,16.0
43.34,3.902,3.759,13.0
51.84,4.672,4.2,17.0
51.918,4.685,3.91,16.0
34.049,3.088,3.519,35.0
42.698,3.876,4.168,23.0
53.675,4.878,4.932,3.0
43.338,3.942,3.73,16.0
51.826,4.719,4.164,11.0
59.59,5.432,4.448,26.0
34.024,3.117,3.493,28.0
42.671,3.912,4.136,26.0
43.462,3.989,3.963,16.0
43.003,3.95,3.671,18.0
42.774,3.933,3.406,26.0
59.434,5.471,4.394,28.0
42.803,3.959,4.363,6.0
51.499,4.768,4.954,13.0
43.42,4.023,3.927,27.0
42.923,3.981,3.632,21.0
42.732,3.966,3.371,14.0
59.283,5.508,4.338,33.0
42.883,4.004,4.338,9.0
43.469,4.061,4.148,13.0
43.397,4.058,3.892,31.0
43.006,4.024,3.605,17.0
42.741,4.003,3.339,11.0
58.936,5.524,4.267,33.0
43.628,4.109,4.379,11.0
43.452,4.095,4.112,29.0
59.358,5.597,5.276,8.0
59.282,5.594,4.923,8.0
59.231,5.594,4.579,16.0
58.801,5.559,4.209,26.0
50.671,4.812,5.045,21.0
43.343,4.118,4.065,14.0
43.189,4.106,3.802,17.0
51.83,4.931,4.26,25.0
59.038,5.621,4.515,27.0
58.529,5.577,4.141,25.0
50.769,4.859,5.01,10.0
43.369,4.153,4.031,15.0
52.502,5.031,4.577,23.0
51.822,4.968,4.215,45.0
58.922,5.653,4.455,31.0
58.553,5.622,4.092,28.0
43.572,4.201,4.262,17.0
43.352,4.182,3.99,17.0
52.205,5.039,4.505,26.0
51.825,5.005,4.169,24.0
58.733,5.676,4.387,32.0
58.479,5.655,4.034,24.0
43.555,4.229,4.22,17.0
51.992,5.051,4.737,15.0
43.31,4.209,3.697,13.0
59.322,5.768,4.717,19.0
58.63,5.704,4.325,27.0
58.559,5.701,3.984,26.0
43.402,4.242,4.164,26.0
59.983,5.865,5.409,11.0
51.818,5.069,4.373,7.0
59.309,5.804,4.659,27.0
58.63,5.741,4.269,28.0
58.504,5.732,3.924,32.0
43.339,4.262,4.115,28.0
43.427,4.272,3.873,8.0
51.798,5.098,4.321,19.0
59.207,5.829,4.593,33.0
58.518,5.764,4.203,24.0
58.424,5.757,3.861,29.0
43.313,4.284,4.07,28.0
43.383,4.292,3.826,33.0
51.771,5.124,4.267,23.0
59.007,5.842,4.518,27.0
58.7,5.813,4.157,32.0
58.303,5.776,3.795,27.0
43.368,4.312,4.03,31.0
43.33,4.309,3.777,24.0
51.752,5.148,4.212,14.0
58.989,5.87,4.456,26.0
58.582,5.831,4.089,32.0
58.259,5.801,3.731,29.0
43.448,4.342,3.992,31.0
43.272,4.324,3.726,17.0
59.314,5.929,4.765,18.0
59.022,5.901,4.395,25.0
58.266,5.827,4.004,29.0
58.14,5.816,3.663,29.0
51.865,5.206,4.709,15.0
51.824,5.202,4.406,23.0
58.931,5.916,4.671,33.0
59.12,5.936,4.339,20.0
58.25,5.85,3.94,31.0
58.201,5.847,3.603,27.0
51.85,5.225,4.65,35.0
51.723,5.213,4.34,25.0
58.522,5.898,4.573,32.0
58.92,5.939,4.259,24.0
58.096,5.857,3.865,31.0
58.208,5.87,3.538,25.0
51.836,5.243,4.591,41.0
51.714,5.231,4.281,19.0
58.573,5.924,4.511,32.0
58.893,5.957,4.19,28.0
57.831,5.851,3.782,30.0
58.056,5.874,3.463,26.0
51.857,5.262,4.532,50.0
58.631,5.949,4.786,16.0
59.085,5.995,4.482,33.0
58.593,5.945,4.101,33.0
57.706,5.855,3.708,26.0
58.042,5.89,3.396,25.0
51.829,5.274,4.47,41.0
58.534,5.955,4.71,27.0
59.394,6.042,4.437,33.0
58.343,5.935,4.016,31.0
57.937,5.894,3.655,31.0
58.038,5.904,3.328,27.0
51.654,5.268,4.394,24.0
58.381,5.954,4.628,32.0
59.417,6.058,4.367,33.0
58.1,5.923,3.93,32.0
57.964,5.91,3.587,28.0
58.035,5.917,3.258,27.0
51.667,5.28,4.333,17.0
58.565,5.984,4.572,33.0
58.968,6.024,4.263,24.0
57.914,5.915,3.848,30.0
57.813,5.904,3.508,29.0
58.025,5.926,3.188,31.0
51.882,5.31,4.287,11.0
58.986,6.036,4.533,29.0
58.687,6.003,4.171,32.0
57.832,5.915,3.771,32.0
57.862,5.917,3.44,28.0
58.076,5.938,3.119,28.0
58.588,6.003,4.768,21.0
59.194,6.063,4.475,25.0
58.396,5.98,4.078,31.0
57.955,5.933,3.707,32.0
58.01,5.937,3.377,31.0
58.431,5.98,3.065,33.0
58.378,5.986,4.678,27.0
59.699,6.119,4.438,34.0
58.221,5.965,3.993,32.0
57.869,5.927,3.628,32.0
58.024,5.941,3.304,30.0
58.676,6.007,3.004,31.0
58.541,6.004,4.616,33.0
59.145,6.063,4.322,33.0
57.997,5.943,3.903,32.0
57.765,5.917,3.548,32.0
58.023,5.942,3.231,28.0
58.519,5.991,2.921,30.0
58.829,6.032,4.563,33.0
58.778,6.024,4.22,26.0
57.888,5.93,3.822,32.0
57.771,5.916,3.476,29.0
58.024,5.939,3.157,29.0
58.596,5.996,2.851,27.0
59.14,6.06,4.511,27.0
58.507,5.992,4.126,32.0
57.897,5.927,3.748,32.0
57.968,5.931,3.413,32.0
58.224,5.955,3.093,32.0
58.814,6.013,2.787,22.0
59.51,6.092,4.463,35.0
58.321,5.967,4.037,29.0
57.997,5.93,3.679,32.0
58.038,5.931,3.342,32.0
58.69,5.995,3.042,32.0
