X,Y,Z,Reflectivity
81.359,6.54,3.169,26.0
59.93,4.813,3.978,34.0
59.281,4.752,3.592,14.0
62.478,5.0,3.425,16.0
79.157,6.324,3.876,10.0
81.86,6.53,3.537,28.0
48.871,3.892,1.831,7.0
59.794,4.756,3.879,35.0
62.16,4.936,3.674,21.0
62.403,4.946,3.328,17.0
81.6,6.456,3.874,34.0
81.727,6.456,3.41,31.0
47.832,3.772,1.721,2.0
59.424,4.679,3.766,19.0
77.245,6.071,4.45,22.0
62.264,4.885,3.228,8.0
81.818,6.407,3.764,36.0
48.941,3.826,1.97,9.0
47.677,3.721,1.645,6.0
60.54,4.717,3.747,36.0
77.329,6.013,4.341,31.0
81.513,6.326,4.106,22.0
81.837,6.339,3.643,34.0
48.901,3.78,1.896,10.0
47.656,3.677,1.574,10.0
60.687,4.675,3.667,25.0
77.419,5.951,4.232,29.0
81.56,6.256,3.988,15.0
81.648,6.25,3.515,17.0
48.38,3.696,1.804,1.0
47.643,3.633,1.503,40.0
61.064,4.647,3.599,36.0
77.334,5.872,4.112,32.0
81.419,6.169,3.861,32.0
81.565,6.167,3.391,8.0
47.745,3.603,1.711,2.0
47.334,3.564,1.424,12.0
61.483,4.62,3.533,15.0
77.312,5.795,3.998,13.0
81.213,6.074,3.733,35.0
0.0,0.0,0.0,0.0
47.517,3.539,1.633,6.0
47.309,3.515,1.355,16.0
77.442,5.74,4.337,34.0
80.942,5.985,4.067,37.0
81.332,6.0,3.62,11.0
0.0,0.0,0.0,0.0
47.42,3.482,1.561,12.0
47.308,3.466,1.286,22.0
77.401,5.656,4.223,27.0
80.838,5.892,3.946,31.0
0.0,0.0,0.0,0.0
48.051,3.485,1.788,1.0
47.297,3.422,1.489,15.0
47.308,3.415,1.218,15.0
77.864,5.604,4.136,13.0
80.838,5.803,3.829,28.0
0.0,0.0,0.0,0.0
47.662,3.404,1.705,3.0
47.26,3.367,1.42,24.0
47.281,3.36,1.15,150.0
77.955,5.523,4.029,10.0
0.0,0.0,0.0,0.0
0.0,0.0,0.0,0.0
47.468,3.335,1.631,7.0
47.256,3.312,1.353,150.0
47.267,3.304,1.083,15.0
78.031,5.436,3.922,11.0
0.0,0.0,0.0,0.0
48.302,3.346,1.873,0.0
47.32,3.269,1.559,14.0
47.257,3.255,1.286,163.0
47.291,3.249,1.016,3.0
80.812,5.531,3.948,20.0
0.0,0.0,0.0,0.0
47.911,3.26,1.791,1.0
47.23,3.204,1.49,18.0
47.251,3.197,1.221,161.0
47.295,3.19,0.951,3.0
80.889,5.436,3.839,5.0
0.0,0.0,0.0,0.0
47.626,3.18,1.714,4.0
47.189,3.142,1.424,32.0
47.233,3.135,1.155,156.0
50.926,3.371,0.955,1.0
0.0,0.0,0.0,0.0
0.0,0.0,0.0,0.0
47.444,3.107,1.644,8.0
47.222,3.083,1.361,150.0
47.23,3.074,1.091,13.0
51.115,3.317,0.89,0.0
0.0,0.0,0.0,0.0
0.0,0.0,0.0,0.0
47.3,3.035,1.575,13.0
47.227,3.02,1.299,157.0
47.302,3.015,1.03,4.0
47.672,3.029,0.766,0.0
0.0,0.0,0.0,0.0
47.862,3.017,1.805,1.0
47.222,2.966,1.511,17.0
47.217,2.955,1.236,169.0
47.254,2.948,0.967,4.0
43.393,2.698,0.641,1.0
0.0,0.0,0.0,0.0
47.598,2.934,1.733,4.0
47.19,2.898,1.449,44.0
47.207,2.889,1.175,152.0
53.667,3.272,1.029,3.0
38.952,2.366,0.525,0.0
0.0,0.0,0.0,0.0
47.444,2.856,1.665,8.0
47.224,2.832,1.388,150.0
47.286,2.825,1.116,1.0
47.762,2.843,0.855,0.0
0.0,0.0,0.0,0.0
48.253,2.845,1.908,0.0
47.302,2.778,1.601,13.0
47.22,2.762,1.328,33.0
47.219,2.75,1.054,4.0
47.953,2.782,0.797,13.0
0.0,0.0,0.0,0.0
47.921,2.753,1.835,1.0
47.252,2.703,1.54,15.0
47.247,2.692,1.27,26.0
47.221,2.679,0.996,5.0
48.214,2.724,0.742,1.0
33.993,1.913,0.33,0.0
47.689,2.667,1.767,3.0
47.25,2.631,1.481,13.0
47.28,2.621,1.213,20.0
47.369,2.614,0.941,1.0
0.0,0.0,0.0,0.0
32.735,1.791,0.278,0.0
47.445,2.579,1.701,7.0
47.276,2.558,1.425,17.0
47.293,2.547,1.157,9.0
0.0,0.0,0.0,0.0
38.449,2.052,0.499,0.0
31.611,1.679,0.231,1.0
47.517,2.508,1.647,14.0
47.323,2.485,1.371,19.0
47.299,2.472,1.101,3.0
49.347,2.566,0.864,3.0
0.0,0.0,0.0,0.0
30.839,1.588,0.189,1.0
47.606,2.434,1.595,157.0
47.359,2.409,1.317,19.0
47.246,2.391,1.045,0.0
49.807,2.508,0.814,0.0
36.05,1.806,0.384,0.0
29.72,1.481,0.148,0.0
47.404,2.344,1.533,8.0
47.384,2.331,1.264,18.0
0.0,0.0,0.0,0.0
41.655,2.027,0.634,0.0
33.752,1.634,0.322,1.0
28.893,1.391,0.111,0.0
47.435,2.266,1.482,8.0
47.424,2.252,1.212,16.0
47.615,2.248,0.947,1.0
40.613,1.907,0.573,0.0
32.471,1.516,0.274,1.0
28.248,1.311,0.078,1.0
47.489,2.186,1.432,13.0
47.487,2.173,1.162,10.0
47.799,2.174,0.899,0.0
38.087,1.722,0.497,0.0
32.053,1.441,0.236,0.0
27.613,1.234,0.047,0.0
47.863,2.12,1.393,0.0
0.0,0.0,0.0,0.0
47.755,2.089,0.848,0.0
0.0,0.0,0.0,0.0
30.768,1.329,0.195,0.0
27.081,1.162,0.018,0.0
48.377,2.058,1.358,5.0
48.248,2.038,1.081,0.0
0.0,0.0,0.0,0.0
35.1,1.463,0.386,0.0
29.018,1.201,0.154,0.0
26.421,1.086,-0.008,0.0
48.734,1.985,1.319,2.0
0.0,0.0,0.0,0.0
0.0,0.0,0.0,0.0
33.716,1.345,0.337,0.0
28.958,1.146,0.126,1.0
25.916,1.019,-0.033,2.0
49.283,1.918,1.287,2.0
50.549,1.953,1.034,1.0
0.0,0.0,0.0,0.0
33.405,1.271,0.302,1.0
28.847,1.089,0.098,1.0
25.759,0.965,-0.057,5.0
49.864,1.849,1.255,1.0
50.712,1.866,0.99,2.0
38.23,1.395,0.53,0.0
32.351,1.171,0.263,0.0
28.328,1.017,0.07,1.0
24.791,0.883,-0.077,0.0
50.571,1.781,1.227,1.0
48.469,1.693,0.903,2.0
37.616,1.302,0.488,0.0
31.36,1.077,0.227,0.0
27.654,0.941,0.044,0.0
24.433,0.824,-0.098,1.0
0.0,0.0,0.0,0.0
0.0,0.0,0.0,0.0
0.0,0.0,0.0,0.0
29.025,0.941,0.185,0.0
27.096,0.87,0.02,0.0
24.22,0.77,-0.118,0.0
54.649,1.716,1.232,0.0
45.906,1.427,0.776,0.0
35.234,1.084,0.397,1.0
28.997,0.884,0.16,4.0
26.657,0.804,-0.002,0.0
23.496,0.702,-0.134,1.0
55.887,1.648,1.214,4.0
0.0,0.0,0.0,0.0
34.022,0.982,0.356,0.0
28.958,0.827,0.137,7.0
26.288,0.742,-0.023,0.0
23.326,0.651,-0.151,1.0
56.484,1.555,1.183,6.0
0.0,0.0,0.0,0.0
34.066,0.916,0.33,0.0
28.889,0.768,0.115,6.0
25.917,0.681,-0.042,0.0
22.899,0.595,-0.165,0.0
57.162,1.462,1.155,2.0
0.0,0.0,0.0,0.0
32.691,0.815,0.293,0.0
28.797,0.709,0.094,1.0
25.535,0.621,-0.06,0.0
22.306,0.535,-0.177,0.0
47.796,1.128,0.931,0.0
37.221,0.866,0.516,0.0
32.407,0.743,0.267,0.0
28.54,0.645,0.072,0.0
25.109,0.56,-0.076,0.0
22.098,0.485,-0.191,0.0
47.86,1.032,0.9,0.0
37.191,0.79,0.49,0.0
31.749,0.664,0.241,0.0
27.655,0.569,0.052,0.0
24.751,0.501,-0.091,0.0
21.87,0.436,-0.203,1.0
0.0,0.0,0.0,0.0
37.175,0.714,0.466,0.0
31.291,0.591,0.217,0.0
27.405,0.508,0.034,0.0
24.439,0.445,-0.106,0.0
21.703,0.388,-0.215,0.0
0.0,0.0,0.0,0.0
35.785,0.615,0.427,0.0
31.069,0.523,0.197,0.0
26.856,0.443,0.017,0.0
24.054,0.389,-0.118,0.0
20.621,0.327,-0.217,0.0
0.0,0.0,0.0,0.0
0.0,0.0,0.0,0.0
28.906,0.427,0.167,1.0
26.751,0.387,0.002,0.0
23.949,0.338,-0.131,1.0
20.77,0.286,-0.229,0.0
0.0,0.0,0.0,0.0
0.0,0.0,0.0,0.0
28.897,0.368,0.151,3.0
26.424,0.327,-0.011,0.0
23.516,0.284,-0.141,0.0
20.375,0.239,-0.235,0.0
0.0,0.0,0.0,0.0
34.243,0.377,0.354,0.0
28.865,0.308,0.137,4.0
26.283,0.272,-0.023,0.0
23.37,0.233,-0.151,0.0
20.27,0.196,-0.244,0.0
39.73,0.368,0.614,0.0
33.468,0.299,0.33,0.0
28.841,0.248,0.124,5.0
26.1,0.215,-0.035,0.0
22.712,0.179,-0.157,0.0
20.045,0.151,-0.25,0.0
0.0,0.0,0.0,0.0
33.456,0.229,0.316,0.0
28.744,0.186,0.111,1.0
25.831,0.158,-0.046,0.0
22.638,0.131,-0.166,0.0
19.809,0.108,-0.255,0.0
39.112,0.198,0.571,0.0
32.917,0.155,0.298,0.0
28.692,0.125,0.1,1.0
25.578,0.103,-0.055,0.0
22.57,0.083,-0.174,0.0
19.44,0.064,-0.258,0.0
0.0,0.0,0.0,0.0
32.109,0.084,0.279,0.0
28.697,0.065,0.09,4.0
25.489,0.049,-0.063,0.0
22.219,0.034,-0.179,0.0
19.413,0.023,-0.264,0.0
38.133,0.033,0.531,0.0
33.248,0.016,0.278,0.0
28.497,0.004,0.08,1.0
25.373,-0.005,-0.071,0.0
22.006,-0.012,-0.184,0.0
19.307,-0.017,-0.268,0.0
37.447,-0.046,0.51,0.0
31.552,-0.05,0.255,0.0
28.63,-0.056,0.073,3.0
25.149,-0.058,-0.077,0.0
22.009,-0.059,-0.19,0.0
19.127,-0.058,-0.271,0.0
37.232,-0.126,0.498,0.0
31.701,-0.118,0.248,1.0
28.546,-0.117,0.066,2.0
24.839,-0.11,-0.082,0.0
21.936,-0.105,-0.194,1.0
19.009,-0.098,-0.273,0.0
36.795,-0.203,0.484,0.0
31.631,-0.186,0.241,1.0
28.379,-0.177,0.059,1.0
24.798,-0.164,-0.087,0.0
22.052,-0.154,-0.199,1.0
19.017,-0.139,-0.277,0.0
36.871,-0.283,0.479,0.0
31.701,-0.254,0.236,1.0
28.099,-0.236,0.054,1.0
24.577,-0.215,-0.09,0.0
22.042,-0.201,-0.202,0.0
18.855,-0.179,-0.277,0.0
0.0,0.0,0.0,0.0
31.467,-0.32,0.23,1.0
27.885,-0.293,0.05,0.0
24.607,-0.268,-0.093,0.0
21.892,-0.246,-0.204,0.0
18.818,-0.218,-0.279,0.0
0.0,0.0,0.0,0.0
31.575,-0.388,0.228,0.0
27.859,-0.352,0.048,0.0
24.849,-0.324,-0.096,0.0
21.941,-0.294,-0.206,1.0
18.649,-0.256,-0.278,0.0
36.514,-0.514,0.463,0.0
31.32,-0.452,0.224,0.0
27.776,-0.411,0.046,0.0
24.728,-0.375,-0.097,0.0
21.917,-0.34,-0.206,0.0
18.717,-0.297,-0.279,0.0
36.219,-0.587,0.458,0.0
31.316,-0.519,0.224,0.0
27.816,-0.471,0.046,0.0
24.597,-0.426,-0.097,0.0
21.886,-0.387,-0.206,0.0
18.679,-0.337,-0.279,0.0
36.23,-0.665,0.459,0.0
31.32,-0.586,0.224,0.0
28.171,-0.538,0.047,1.0
24.706,-0.481,-0.096,0.0
21.912,-0.434,-0.206,0.0
18.657,-0.377,-0.278,0.0
0.0,0.0,0.0,0.0
31.378,-0.654,0.226,0.0
28.006,-0.594,0.048,1.0
24.763,-0.534,-0.095,0.0
21.993,-0.482,-0.205,0.0
18.747,-0.418,-0.277,0.0
36.455,-0.824,0.466,0.0
31.441,-0.722,0.23,0.0
28.227,-0.658,0.051,1.0
24.906,-0.59,-0.093,0.0
22.113,-0.532,-0.204,0.0
18.883,-0.462,-0.277,0.0
0.0,0.0,0.0,0.0
31.493,-0.79,0.234,0.0
28.343,-0.722,0.055,1.0
25.114,-0.649,-0.09,0.0
22.03,-0.577,-0.2,0.0
19.047,-0.506,-0.277,0.0
0.0,0.0,0.0,0.0
31.611,-0.86,0.24,0.0
28.191,-0.777,0.06,1.0
25.171,-0.703,-0.086,0.0
21.93,-0.62,-0.195,1.0
19.101,-0.548,-0.274,0.0
37.478,-1.084,0.497,0.0
31.82,-0.932,0.248,0.0
28.327,-0.84,0.066,1.0
25.257,-0.758,-0.081,0.0
22.139,-0.672,-0.192,0.0
19.199,-0.59,-0.271,0.0
37.56,-1.165,0.507,0.0
31.75,-0.996,0.255,0.0
28.479,-0.904,0.073,1.0
25.095,-0.806,-0.074,0.0
22.253,-0.723,-0.187,0.0
19.346,-0.635,-0.268,0.0
38.369,-1.27,0.529,0.0
31.921,-1.068,0.265,0.0
28.571,-0.967,0.082,2.0
25.46,-0.87,-0.068,0.0
22.457,-0.776,-0.182,1.0
19.372,-0.677,-0.262,0.0
0.0,0.0,0.0,0.0
32.269,-1.147,0.279,0.0
28.607,-1.027,0.091,6.0
25.683,-0.931,-0.06,0.0
22.693,-0.831,-0.176,0.0
19.472,-0.72,-0.257,0.0
39.069,-1.455,0.564,0.0
32.587,-1.225,0.293,0.0
28.624,-1.086,0.101,7.0
25.717,-0.986,-0.051,0.0
22.921,-0.887,-0.17,1.0
19.571,-0.764,-0.251,0.0
39.204,-1.54,0.581,0.0
32.89,-1.304,0.308,0.0
28.632,-1.145,0.112,8.0
25.886,-1.045,-0.041,1.0
23.034,-0.938,-0.161,1.0
19.629,-0.807,-0.244,0.0
39.104,-1.615,0.595,0.0
33.714,-1.405,0.33,0.0
28.623,-1.203,0.125,4.0
26.047,-1.104,-0.03,3.0
23.374,-0.999,-0.153,1.0
20.457,-0.882,-0.245,0.0
40.354,-1.749,0.632,0.0
33.973,-1.484,0.348,0.0
28.641,-1.262,0.138,2.0
26.184,-1.163,-0.017,1.0
23.528,-1.054,-0.143,2.0
20.962,-0.946,-0.241,0.0
0.0,0.0,0.0,0.0
34.417,-1.572,0.369,0.0
30.535,-1.405,0.162,0.0
26.965,-1.251,-0.004,1.0
23.703,-1.108,-0.132,1.0
21.099,-0.994,-0.232,0.0
0.0,0.0,0.0,0.0
34.897,-1.663,0.393,0.0
30.638,-1.471,0.179,0.0
27.479,-1.329,0.009,5.0
23.781,-1.158,-0.12,1.0
21.654,-1.063,-0.226,0.0
0.0,0.0,0.0,0.0
36.137,-1.793,0.427,0.0
30.856,-1.541,0.198,0.0
27.648,-1.391,0.025,5.0
23.809,-1.206,-0.106,0.0
21.954,-1.12,-0.217,0.0
44.081,-2.256,0.785,1.0
0.0,0.0,0.0,0.0
31.456,-1.632,0.22,0.0
28.038,-1.465,0.042,2.0
34.197,-1.798,-0.132,0.0
22.166,-1.173,-0.205,0.0
34.409,-1.827,0.634,2.0
34.736,-1.856,0.453,0.0
32.117,-1.727,0.245,1.0
28.469,-1.541,0.061,7.0
34.261,-1.866,-0.11,8.0
34.233,-1.877,-0.295,3.0
34.19,-1.88,0.652,0.0
34.723,-1.922,0.475,0.0
32.286,-1.798,0.268,0.0
28.497,-1.596,0.08,7.0
34.233,-1.93,-0.087,1.0
22.618,-1.283,-0.179,0.0
34.074,-1.938,0.674,0.0
34.667,-1.983,0.498,0.0
32.668,-1.88,0.294,0.0
28.541,-1.652,0.1,7.0
25.946,-1.511,-0.048,0.0
23.008,-1.348,-0.166,0.0
33.914,-1.991,0.695,0.0
34.862,-2.058,0.526,9.0
33.671,-1.999,0.327,0.0
28.56,-1.705,0.121,4.0
26.121,-1.569,-0.029,0.0
23.399,-1.413,-0.152,0.0
34.009,-2.059,0.722,0.0
34.545,-2.103,0.548,6.0
34.955,-2.14,0.367,0.0
28.63,-1.762,0.143,1.0
26.844,-1.661,-0.009,0.0
23.652,-1.471,-0.135,0.0
33.922,-2.115,0.747,0.0
34.198,-2.143,0.569,3.0
35.464,-2.234,0.4,0.0
30.541,-1.934,0.177,0.0
27.65,-1.76,0.012,0.0
23.967,-1.534,-0.117,0.0
33.901,-2.174,0.774,0.0
33.955,-2.188,0.592,0.0
0.0,0.0,0.0,0.0
31.07,-2.022,0.206,0.0
27.903,-1.825,0.035,1.0
24.675,-1.622,-0.1,0.0
33.883,-2.231,0.802,0.0
33.977,-2.248,0.621,1.0
37.792,-2.513,0.489,0.0
0.0,0.0,0.0,0.0
28.324,-1.902,0.06,0.0
25.513,-1.721,-0.082,0.0
33.885,-2.29,0.831,4.0
33.915,-2.303,0.65,0.0
34.569,-2.358,0.477,1.0
32.224,-2.208,0.269,0.0
28.991,-1.996,0.087,0.0
25.855,-1.788,-0.06,3.0
33.867,-2.346,0.861,15.0
33.917,-2.36,0.68,68.0
34.41,-2.405,0.506,3.0
0.0,0.0,0.0,0.0
33.97,-2.395,0.133,0.0
33.914,-2.402,-0.048,1.0
33.851,-2.401,0.891,31.0
33.869,-2.412,0.71,159.0
34.252,-2.449,0.535,4.0
35.132,-2.523,0.358,1.0
29.792,-2.149,0.144,0.0
33.939,-2.459,-0.016,2.0
33.85,-2.455,0.923,54.0
33.877,-2.467,0.743,155.0
34.081,-2.492,0.565,3.0
35.79,-2.628,0.399,1.0
30.3,-2.234,0.176,1.0
33.917,-2.511,0.016,4.0
33.852,-2.51,0.956,103.0
33.865,-2.52,0.776,163.0
33.935,-2.535,0.596,6.0
37.528,-2.815,0.455,1.0
31.351,-2.361,0.213,0.0
33.889,-2.562,0.05,2.0
33.845,-2.562,0.99,138.0
33.868,-2.573,0.81,158.0
33.828,-2.58,0.628,38.0
38.403,-2.94,0.504,1.0
0.0,0.0,0.0,0.0
33.897,-2.614,0.084,2.0
33.834,-2.613,1.024,134.0
33.86,-2.624,0.844,150.0
33.847,-2.632,0.663,154.0
34.388,-2.684,0.487,3.0
33.036,-2.587,0.292,0.0
33.934,-2.668,0.119,0.0
33.82,-2.662,1.059,131.0
33.793,-2.669,0.878,39.0
33.835,-2.681,0.698,156.0
34.233,-2.722,0.521,5.0
34.994,-2.792,0.346,0.0
29.818,-2.388,0.136,0.0
33.809,-2.71,1.094,143.0
33.817,-2.72,0.914,80.0
33.83,-2.73,0.735,158.0
34.012,-2.754,0.554,4.0
35.802,-2.908,0.393,0.0
30.524,-2.488,0.172,0.0
33.814,-2.759,1.132,79.0
33.818,-2.768,0.952,150.0
33.825,-2.778,0.772,157.0
33.879,-2.791,0.59,2.0
37.352,-3.086,0.451,0.0
31.691,-2.627,0.214,0.0
33.797,-2.805,1.169,18.0
33.812,-2.814,0.989,150.0
33.835,-2.825,0.81,154.0
33.78,-2.829,0.625,43.0
34.382,-2.888,0.454,1.0
32.655,-2.751,0.257,1.0
33.821,-2.853,1.208,11.0
33.805,-2.859,1.027,121.0
33.78,-2.865,0.847,28.0
33.759,-2.872,0.663,1.0
34.324,-2.928,0.492,4.0
0.0,0.0,0.0,0.0
33.818,-2.897,1.246,36.0
33.797,-2.903,1.066,117.0
33.797,-2.91,0.886,54.0
33.8,-2.919,0.703,4.0
34.144,-2.957,0.529,4.0
0.0,0.0,0.0,0.0
33.812,-2.939,1.286,70.0
33.792,-2.945,1.105,83.0
33.788,-2.953,0.926,83.0
33.749,-2.957,0.742,0.0
33.952,-2.983,0.566,0.0
0.0,0.0,0.0,0.0
33.807,-2.98,1.326,49.0
33.776,-2.985,1.145,26.0
33.797,-2.995,0.966,92.0
33.769,-3.0,0.783,2.0
33.793,-3.01,0.604,0.0
34.414,-3.073,0.433,0.0
33.827,-3.023,1.367,4.0
33.807,-3.029,1.187,7.0
33.803,-3.035,1.007,68.0
33.779,-3.04,0.824,13.0
0.0,0.0,0.0,0.0
34.372,-3.109,0.474,4.0
34.047,-3.082,1.418,0.0
33.824,-3.069,1.229,10.0
33.796,-3.073,1.048,54.0
33.783,-3.079,0.865,30.0
33.811,-3.089,0.687,12.0
34.24,-3.135,0.514,3.0
34.156,-3.131,1.465,0.0
33.823,-3.106,1.271,25.0
33.784,-3.109,1.09,39.0
33.802,-3.117,0.907,30.0
33.816,-3.126,0.729,150.0
34.057,-3.155,0.553,1.0
34.321,-3.182,1.514,0.0
33.826,-3.143,1.313,14.0
33.791,-3.146,1.132,15.0
33.802,-3.153,0.95,25.0
33.816,-3.161,0.771,5.0
33.893,-3.175,0.593,0.0
34.5,-3.235,1.566,0.0
33.951,-3.189,1.36,1.0
33.826,-3.184,1.176,5.0
33.804,-3.188,0.992,19.0
33.79,-3.192,0.813,7.0
33.789,-3.199,0.634,0.0
34.69,-3.287,1.618,0.0
34.126,-3.24,1.411,0.0
33.862,-3.22,1.22,4.0
33.831,-3.223,1.037,8.0
33.826,-3.229,0.857,9.0
33.828,-3.235,0.678,0.0
34.79,-3.33,1.668,0.0
34.325,-3.291,1.464,2.0
33.849,-3.251,1.263,5.0
33.887,-3.26,1.082,11.0
33.841,-3.261,0.901,10.0
0.0,0.0,0.0,0.0
0.0,0.0,0.0,0.0
34.383,-3.328,1.51,1.0
33.888,-3.285,1.309,2.0
33.844,-3.286,1.124,6.0
33.842,-3.291,0.945,10.0
33.808,-3.293,0.765,2.0
0.0,0.0,0.0,0.0
34.592,-3.377,1.564,0.0
34.175,-3.341,1.364,0.0
33.854,-3.315,1.168,3.0
33.922,-3.326,0.991,150.0
33.877,-3.327,0.81,4.0
159.549,-15.69,8.272,11.0
34.867,-3.433,1.622,1.0
34.354,-3.387,1.416,0.0
33.89,-3.345,1.213,1.0
33.935,-3.354,1.036,155.0
33.888,-3.355,0.855,4.0
158.849,-15.744,8.443,16.0
35.238,-3.496,1.685,2.0
34.62,-3.439,1.472,1.0
33.901,-3.372,1.259,1.0
33.952,-3.382,1.081,153.0
33.912,-3.382,0.9,4.0
158.785,-15.856,8.652,15.0
35.702,-3.569,1.755,2.0
34.987,-3.501,1.534,0.0
34.118,-3.418,1.312,0.0
33.919,-3.402,1.124,4.0
33.943,-3.409,0.946,103.0
160.232,-16.111,8.942,12.0
159.14,-16.017,8.036,17.0
35.434,-3.57,1.601,0.0
34.555,-3.485,1.375,0.0
33.944,-3.427,1.17,1.0
33.934,-3.43,0.991,176.0
160.116,-16.205,9.15,15.0
158.999,-16.106,8.242,14.0
36.097,-3.659,1.679,0.0
34.936,-3.545,1.436,1.0
34.011,-3.455,1.218,0.0
33.966,-3.453,1.037,152.0
160.206,-16.31,9.369,14.0
158.859,-16.186,8.444,16.0
159.048,-16.218,7.612,16.0
35.481,-3.621,1.506,0.0
34.107,-3.484,1.267,0.0
33.95,-3.471,1.081,4.0
160.422,-16.422,9.595,16.0
158.756,-16.263,8.652,15.0
159.278,-16.329,7.835,15.0
36.287,-3.722,1.588,0.0
34.897,-3.583,1.343,0.0
34.022,-3.496,1.128,0.0
160.46,-16.51,9.812,13.0
158.506,-16.317,8.849,11.0
159.382,-16.418,8.05,17.0
160.045,-16.498,7.218,6.0
35.292,-3.64,1.405,1.0
34.116,-3.521,1.177,0.0
160.299,-16.569,10.015,5.0
158.495,-16.391,9.06,13.0
159.199,-16.471,8.254,18.0
159.772,-16.54,7.418,18.0
36.398,-3.77,1.497,0.0
34.25,-3.549,1.227,1.0
175.381,-18.202,11.191,11.0
159.753,-16.587,9.346,10.0
158.926,-16.508,8.451,17.0
159.605,-16.585,7.623,19.0
155.369,-16.154,6.594,3.0
35.008,-3.641,1.3,1.0
175.349,-18.265,11.422,21.0
160.008,-16.672,9.569,17.0
158.588,-16.53,8.641,16.0
159.084,-16.587,7.808,20.0
0.0,0.0,0.0,0.0
35.6,-3.715,1.369,3.0
175.187,-18.307,11.645,20.0
160.063,-16.73,9.787,6.0
158.516,-16.573,8.847,16.0
159.208,-16.65,8.022,16.0
159.952,-16.732,7.211,14.0
36.488,-3.818,1.451,0.0
175.111,-18.349,11.869,19.0
161.007,-16.874,10.055,5.0
158.39,-16.602,9.046,12.0
159.33,-16.703,8.236,16.0
159.884,-16.765,7.415,20.0
155.268,-16.285,6.375,6.0
175.012,-18.382,12.091,7.0
175.086,-18.39,11.163,6.0
160.138,-16.821,9.357,6.0
158.891,-16.692,8.422,18.0
159.698,-16.779,7.616,19.0
155.308,-16.32,6.582,4.0
142.423,-14.988,10.029,22.0
175.03,-18.418,11.392,18.0
160.085,-16.845,9.564,11.0
158.94,-16.725,8.633,14.0
159.165,-16.748,7.8,18.0
0.0,0.0,0.0,0.0
142.703,-15.04,10.235,20.0
174.932,-18.434,11.612,23.0
159.944,-16.852,9.765,11.0
158.84,-16.734,8.835,14.0
159.266,-16.778,8.009,13.0
159.892,-16.844,7.191,13.0
143.145,-15.102,10.452,19.0
174.88,-18.446,11.835,20.0
159.757,-16.847,9.957,6.0
158.669,-16.728,9.028,5.0
159.484,-16.812,8.225,16.0
159.834,-16.847,7.392,18.0
143.203,-15.118,10.64,18.0
142.463,-15.034,9.824,11.0
159.732,-16.852,10.159,4.0
0.0,0.0,0.0,0.0
159.185,-16.784,8.41,16.0
159.713,-16.837,7.587,17.0
143.033,-15.103,10.808,16.0
142.47,-15.038,10.001,20.0
174.933,-18.455,11.346,16.0
160.29,-16.904,9.524,14.0
159.069,-16.77,8.603,16.0
159.286,-16.789,7.764,15.0
143.156,-15.112,10.998,11.0
142.692,-15.056,10.196,19.0
174.922,-18.448,11.563,22.0
159.943,-16.86,9.702,9.0
158.729,-16.724,8.782,10.0
159.255,-16.773,7.96,14.0
143.972,-15.189,11.24,4.0
142.998,-15.077,10.397,16.0
174.945,-18.434,11.782,19.0
159.831,-16.832,9.892,6.0
158.526,-16.686,8.964,13.0
159.378,-16.769,8.16,16.0
142.662,-15.034,11.315,14.0
143.176,-15.078,10.585,16.0
175.019,-18.42,12.0,12.0
160.21,-16.85,10.109,4.0
158.512,-16.661,9.154,4.0
158.972,-16.7,8.331,17.0
142.592,-15.004,11.48,17.0
143.059,-15.042,10.749,11.0
142.424,-14.964,9.937,17.0
175.078,-18.382,11.257,15.0
160.153,-16.802,9.441,13.0
158.722,-16.642,8.506,15.0
142.695,-14.987,11.659,20.0
142.947,-15.0,10.91,9.0
142.506,-14.941,10.111,20.0
175.18,-18.353,11.469,23.0
160.076,-16.757,9.622,15.0
158.542,-16.585,8.679,15.0
142.877,-14.972,11.84,12.0
142.445,-14.912,11.036,4.0
142.784,-14.934,10.295,17.0
175.231,-18.311,11.675,25.0
160.231,-16.729,9.816,4.0
158.436,-16.527,8.858,18.0
143.058,-14.95,12.021,5.0
142.413,-14.867,11.198,14.0
143.088,-14.922,10.482,17.0
175.251,-18.259,11.876,15.0
161.907,-16.852,10.102,4.0
158.459,-16.478,9.038,11.0
143.241,-14.921,12.201,15.0
142.417,-14.819,11.36,20.0
143.019,-14.866,10.637,19.0
143.133,-14.861,9.86,22.0
175.475,-18.2,11.145,13.0
160.139,-16.593,9.311,6.0
142.982,-14.842,12.338,20.0
142.399,-14.764,11.517,19.0
142.963,-14.803,10.793,13.0
143.279,-14.82,10.028,17.0
175.638,-18.147,11.347,18.0
160.378,-16.552,9.498,15.0
143.066,-14.792,12.502,7.0
142.585,-14.723,11.688,21.0
151.695,-15.643,11.615,3.0
143.812,-14.813,10.219,13.0
175.793,-18.085,11.544,21.0
160.505,-16.493,9.676,14.0
144.392,-14.864,12.772,11.0
142.952,-14.696,11.869,17.0
148.095,-15.204,11.494,3.0
143.667,-14.729,10.361,7.0
175.928,-18.013,11.738,16.0
160.402,-16.403,9.838,14.0
142.508,-14.6,12.754,10.0
142.643,-14.591,11.994,15.0
143.158,-14.623,11.262,9.0
142.807,-14.566,10.447,11.0
143.462,-14.614,9.718,13.0
160.242,-16.3,9.992,11.0
142.492,-14.522,12.9,11.0
142.527,-14.503,12.127,16.0
143.224,-14.552,11.41,19.0
142.635,-14.471,10.574,14.0
143.669,-14.554,9.875,18.0
176.332,-17.838,11.167,11.0
143.733,-14.567,13.154,7.0
142.86,-14.455,12.297,16.0
143.089,-14.455,11.538,21.0
147.328,-14.86,11.065,5.0
143.73,-14.475,10.017,21.0
176.492,-17.749,11.344,14.0
142.75,-14.381,13.2,11.0
142.925,-14.374,12.438,12.0
142.885,-14.346,11.658,11.0
147.098,-14.744,11.188,7.0
143.646,-14.375,10.146,15.0
149.977,-14.986,9.78,10.0
142.854,-14.3,13.344,16.0
142.913,-14.28,12.571,5.0
144.667,-14.43,11.936,11.0
146.77,-14.614,11.296,4.0
143.61,-14.275,10.273,13.0
143.899,-14.279,9.515,12.0
143.423,-14.257,13.53,13.0
144.36,-14.324,12.829,13.0
144.821,-14.343,12.08,16.0
145.382,-14.373,11.32,11.0
142.92,-14.105,10.35,17.0
143.731,-14.159,9.63,5.0
143.534,-14.166,13.666,13.0
144.533,-14.237,12.969,16.0
144.721,-14.227,12.197,14.0
145.204,-14.249,11.43,9.0
142.479,-13.955,10.44,4.0
150.511,-14.715,10.21,6.0
143.417,-14.045,13.778,14.0
144.949,-14.167,13.13,17.0
144.759,-14.121,12.321,10.0
142.554,-13.877,11.341,11.0
147.384,-14.319,10.922,5.0
143.507,-13.917,9.852,13.0
143.312,-13.921,13.886,14.0
144.619,-14.018,13.22,3.0
142.676,-13.801,12.261,5.0
145.232,-14.019,11.672,14.0
151.815,-14.624,11.372,5.0
143.5,-13.796,9.967,10.0
143.263,-13.797,13.995,13.0
144.371,-13.873,13.311,10.0
147.64,-14.158,12.8,4.0
145.18,-13.891,11.779,5.0
147.701,-14.104,11.175,8.0
151.427,-14.43,10.63,20.0
143.432,-13.691,14.119,16.0
144.555,-13.766,13.435,4.0
146.619,-13.932,12.821,8.0
0.0,0.0,0.0,0.0
145.507,-13.766,11.115,11.0
145.974,-13.78,10.352,11.0
145.067,-13.717,14.386,9.0
148.133,-13.975,13.873,5.0
146.719,-13.809,12.934,14.0
154.68,-14.524,12.772,3.0
145.459,-13.627,11.213,19.0
146.036,-13.651,10.457,3.0
145.194,-13.595,14.498,18.0
148.123,-13.835,13.974,4.0
146.876,-13.685,13.048,11.0
147.07,-13.67,12.241,3.0
145.368,-13.481,11.3,12.0
146.312,-13.537,10.573,8.0
145.415,-13.476,14.616,12.0
145.978,-13.494,13.866,10.0
145.512,-13.416,13.021,9.0
145.003,-13.337,12.161,11.0
144.718,-13.279,11.341,15.0
146.325,-13.394,10.664,9.0
146.344,-13.417,14.801,16.0
145.931,-13.345,13.951,11.0
145.166,-13.241,13.076,18.0
146.599,-13.338,12.381,8.0
144.682,-13.132,11.422,19.0
145.156,-13.141,10.663,9.0
145.664,-13.207,14.816,17.0
146.733,-13.27,14.111,14.0
145.19,-13.094,13.161,14.0
147.302,-13.251,12.523,13.0
144.445,-12.961,11.483,21.0
144.74,-12.953,10.711,18.0
145.914,-13.077,14.921,19.0
146.442,-13.089,14.162,12.0
145.538,-12.973,13.269,15.0
148.47,-13.198,12.7,9.0
144.443,-12.806,11.558,18.0
144.456,-12.773,10.763,13.0
145.708,-12.903,14.975,12.0
146.155,-12.906,14.208,10.0
0.0,0.0,0.0,0.0
145.593,-12.783,12.526,3.0
144.848,-12.683,11.661,10.0
145.84,-12.736,10.935,6.0
145.628,-12.735,15.035,15.0
145.466,-12.683,14.209,13.0
0.0,0.0,0.0,0.0
151.653,-13.146,13.115,4.0
144.837,-12.521,11.723,7.0
145.608,-12.551,10.981,7.0
146.026,-12.605,15.139,17.0
145.432,-12.516,14.268,14.0
146.963,-12.61,13.601,5.0
146.149,-12.503,12.699,11.0
145.44,-12.406,11.831,3.0
154.552,-13.145,11.716,5.0
145.807,-12.417,15.175,14.0
145.537,-12.356,14.334,17.0
144.904,-12.265,13.464,12.0
145.226,-12.255,12.672,11.0
154.187,-12.972,12.598,5.0
145.797,-12.231,11.104,13.0
146.645,-12.316,15.313,7.0
145.545,-12.184,14.386,13.0
145.063,-12.106,13.528,12.0
145.475,-12.103,12.742,14.0
145.886,-12.1,11.967,14.0
146.679,-12.129,11.218,9.0
147.062,-12.173,15.403,15.0
147.215,-12.147,14.596,3.0
144.973,-11.923,13.564,14.0
145.608,-11.938,12.796,17.0
145.883,-11.923,12.008,12.0
146.916,-11.969,11.277,14.0
146.96,-11.984,15.433,14.0
146.803,-11.931,14.594,10.0
145.087,-11.753,13.611,5.0
145.451,-11.743,12.82,12.0
146.059,-11.755,12.058,14.0
146.779,-11.775,11.301,7.0
146.554,-11.768,15.424,12.0
145.823,-11.669,14.53,15.0
144.978,-11.562,13.633,13.0
145.891,-11.597,12.888,20.0
145.098,-11.495,12.009,15.0
147.274,-11.63,11.367,10.0
146.414,-11.571,15.437,12.0
148.566,-11.7,14.829,4.0
145.218,-11.396,13.681,5.0
0.0,0.0,0.0,0.0
145.301,-11.325,12.048,12.0
147.476,-11.457,11.405,15.0
148.354,-11.534,15.664,3.0
145.74,-11.292,14.567,14.0
146.316,-11.296,13.804,11.0
147.298,-11.332,13.055,10.0
147.237,-11.289,12.225,12.0
147.331,-11.256,11.411,11.0
149.185,-11.405,15.768,9.0
145.556,-11.088,14.563,19.0
146.835,-11.144,13.865,4.0
118.98,-8.998,10.555,8.0
119.483,-9.004,9.93,6.0
148.337,-11.138,11.498,6.0
148.351,-11.144,15.69,15.0
145.727,-10.907,14.589,5.0
147.169,-10.973,13.905,5.0
119.022,-8.843,10.563,10.0
146.407,-10.837,12.173,5.0
87.705,-6.468,6.801,5.0
150.784,-11.126,15.949,5.0
146.193,-10.745,14.637,9.0
146.716,-10.742,13.863,17.0
119.176,-8.694,10.577,18.0
119.346,-8.673,9.921,11.0
87.735,-6.353,6.802,14.0
90.607,-6.563,9.581,9.0
146.183,-10.547,14.632,11.0
146.847,-10.553,13.87,12.0
119.238,-8.537,10.578,13.0
119.229,-8.505,9.905,10.0
87.961,-6.25,6.813,12.0
148.485,-10.552,15.693,12.0
89.973,-6.369,8.999,15.0
146.614,-10.338,13.836,12.0
118.245,-8.304,10.479,4.0
119.138,-8.335,9.887,18.0
88.094,-6.139,6.815,12.0
148.409,-10.342,15.669,10.0
90.315,-6.268,9.023,17.0
146.605,-10.134,13.816,10.0
117.133,-8.064,10.364,15.0
119.379,-8.186,9.89,7.0
88.109,-6.019,6.803,15.0
90.258,-6.164,9.514,6.0
90.564,-6.16,9.033,20.0
118.256,-8.01,11.125,8.0
117.158,-7.904,10.346,23.0
119.082,-8.0,9.844,13.0
88.168,-5.899,6.791,14.0
90.32,-6.042,9.503,16.0
90.798,-6.048,9.038,27.0
117.918,-7.822,11.068,18.0
87.836,-5.802,7.738,15.0
119.094,-7.835,9.817,12.0
88.285,-5.785,6.78,17.0
90.63,-5.936,9.514,16.0
90.818,-5.922,9.017,15.0
117.829,-7.651,11.03,7.0
87.941,-5.686,7.724,28.0
113.732,-7.323,9.346,14.0
88.212,-5.656,6.75,17.0
90.838,-5.821,9.51,23.0
90.477,-5.772,8.956,21.0
117.825,-7.484,10.994,12.0
88.292,-5.583,7.728,30.0
113.793,-7.166,9.314,18.0
88.164,-5.528,6.718,18.0
90.983,-5.701,9.495,14.0
90.593,-5.65,8.937,20.0
90.953,-5.648,8.456,5.0
88.37,-5.463,7.704,23.0
113.747,-7.001,9.27,11.0
87.985,-5.392,6.673,20.0
97.655,-5.98,10.155,11.0
88.297,-5.382,8.677,14.0
88.472,-5.367,8.191,11.0
88.878,-5.367,7.713,17.0
93.448,-5.618,7.579,16.0
88.025,-5.268,6.64,22.0
86.774,-5.188,8.987,17.0
93.367,-5.555,9.136,5.0
88.54,-5.244,8.158,18.0
117.523,-6.928,10.148,9.0
93.447,-5.483,7.537,7.0
88.666,-5.179,6.648,29.0
87.013,-5.076,8.972,20.0
93.447,-5.425,9.1,14.0
88.671,-5.123,8.128,26.0
117.378,-6.751,10.078,7.0
93.656,-5.361,7.508,12.0
88.65,-5.051,6.603,10.0
87.344,-4.969,8.961,17.0
87.54,-4.956,8.48,31.0
88.678,-4.996,8.083,35.0
92.337,-5.177,7.879,6.0
89.687,-5.005,7.143,13.0
92.426,-5.134,6.835,6.0
87.334,-4.842,8.912,19.0
87.693,-4.837,8.445,23.0
88.611,-4.864,8.027,11.0
88.263,-4.821,7.482,25.0
89.276,-4.852,7.058,22.0
87.922,-4.756,6.451,6.0
87.136,-4.704,8.84,10.0
85.559,-4.595,8.188,10.0
89.064,-4.76,8.013,10.0
88.528,-4.707,7.45,24.0
89.191,-4.718,6.996,26.0
88.37,-4.652,6.427,13.0
84.857,-4.456,8.553,16.0
85.527,-4.47,8.13,15.0
89.079,-4.631,7.957,12.0
88.275,-4.566,7.37,26.0
88.948,-4.577,6.918,20.0
88.23,-4.518,6.358,15.0
85.015,-4.342,8.511,30.0
86.886,-4.414,8.2,17.0
87.019,-4.398,7.712,12.0
88.38,-4.444,7.317,22.0
88.742,-4.439,6.84,19.0
88.502,-4.405,6.315,16.0
85.28,-4.234,8.476,20.0
87.387,-4.315,8.182,23.0
87.093,-4.276,7.655,20.0
89.361,-4.365,7.332,23.0
88.571,-4.304,6.759,16.0
89.201,-4.312,6.298,16.0
85.348,-4.114,8.417,16.0
87.192,-4.18,8.096,10.0
87.195,-4.156,7.596,14.0
89.1,-4.224,7.24,12.0
88.232,-4.16,6.663,12.0
89.066,-4.177,6.216,25.0
85.22,-3.983,8.335,17.0
87.18,-4.053,8.024,14.0
87.136,-4.029,7.518,18.0
88.901,-4.088,7.151,11.0
88.693,-4.056,6.625,18.0
89.197,-4.057,6.152,27.0
79.273,-3.593,7.686,22.0
87.161,-3.928,7.947,19.0
90.006,-4.033,7.688,2.0
88.471,-3.942,7.039,16.0
89.289,-3.956,6.591,16.0
90.552,-3.99,6.165,26.0
79.233,-3.477,7.61,20.0
87.169,-3.804,7.869,29.0
93.606,-4.062,7.91,9.0
88.32,-3.811,6.946,15.0
88.936,-3.815,6.484,17.0
94.898,-4.047,6.373,8.0
79.177,-3.363,7.53,25.0
87.227,-3.683,7.792,18.0
88.684,-3.723,7.41,5.0
88.389,-3.689,6.867,16.0
88.578,-3.675,6.373,17.0
88.323,-3.643,5.846,22.0
79.296,-3.257,7.464,23.0
79.419,-3.241,7.016,7.0
79.838,-3.239,6.592,12.0
88.278,-3.56,6.77,20.0
88.432,-3.545,6.274,11.0
88.185,-3.515,5.749,27.0
79.103,-3.138,7.365,13.0
87.38,-3.444,7.629,13.0
87.966,-3.447,7.173,19.0
87.854,-3.421,6.647,23.0
87.958,-3.404,6.147,17.0
0.0,0.0,0.0,0.0
66.44,-2.543,6.115,18.0
80.071,-3.046,6.906,8.0
87.644,-3.313,7.052,20.0
87.888,-3.302,6.555,31.0
88.247,-3.294,6.073,23.0
89.796,-3.332,5.663,27.0
66.474,-2.453,6.045,21.0
79.89,-2.929,6.802,31.0
79.824,-2.908,6.334,13.0
87.837,-3.179,6.453,8.0
90.212,-3.244,6.106,11.0
97.825,-3.496,6.058,13.0
79.925,-2.84,7.177,12.0
79.994,-2.824,6.719,12.0
85.826,-3.011,6.712,17.0
87.863,-3.062,6.354,19.0
94.435,-3.27,6.283,13.0
94.762,-3.26,5.758,16.0
79.938,-2.733,7.082,30.0
79.959,-2.714,6.62,32.0
87.835,-2.962,6.763,15.0
87.976,-2.947,6.255,12.0
94.291,-3.137,6.16,21.0
99.073,-3.275,5.901,13.0
80.015,-2.627,6.991,11.0
80.397,-2.622,6.557,9.0
96.004,-3.109,7.274,6.0
96.158,-3.092,6.718,15.0
110.937,-3.543,7.108,3.0
99.284,-3.15,5.788,18.0
80.348,-2.531,6.918,13.0
85.842,-2.685,6.892,13.0
77.02,-2.392,5.736,14.0
87.792,-2.707,6.02,6.0
97.094,-2.973,6.097,22.0
97.289,-2.958,5.546,9.0
83.271,-2.514,7.06,15.0
80.754,-2.42,6.377,24.0
87.706,-2.609,6.417,17.0
76.697,-2.265,5.158,10.0
99.676,-2.923,6.127,7.0
96.929,-2.822,5.397,25.0
76.684,-2.215,6.399,19.0
81.8,-2.346,6.35,6.0
97.321,-2.771,6.988,14.0
76.729,-2.168,5.057,11.0
96.872,-2.718,5.823,15.0
99.239,-2.763,5.391,11.0
76.709,-2.118,6.294,16.0
76.971,-2.109,5.868,27.0
97.99,-2.666,6.901,11.0
88.017,-2.377,5.68,21.0
96.668,-2.592,5.678,38.0
171.368,-4.56,9.072,25.0
81.31,-2.145,6.559,26.0
77.043,-2.016,5.765,8.0
76.689,-1.992,5.293,21.0
88.305,-2.275,5.573,17.0
96.746,-2.473,5.544,18.0
96.896,-2.459,4.991,13.0
76.978,-1.935,6.097,11.0
87.209,-2.175,6.4,27.0
76.784,-1.9,5.187,9.0
88.342,-2.169,5.446,15.0
96.685,-2.354,5.4,21.0
96.793,-2.339,4.845,35.0
77.084,-1.845,5.991,31.0
76.502,-1.816,5.501,14.0
96.441,-2.27,6.372,10.0
96.685,-2.257,5.816,36.0
96.783,-2.241,5.261,16.0
96.808,-2.224,4.701,47.0
89.291,-2.03,6.805,9.0
75.577,-1.704,5.319,26.0
75.609,-1.69,4.881,19.0
96.696,-2.144,5.67,8.0
128.393,-2.823,6.782,15.0
96.855,-2.112,4.553,31.0
89.202,-1.923,6.659,6.0
75.621,-1.617,5.204,14.0
76.005,-1.611,4.788,8.0
99.192,-2.085,5.661,15.0
190.3,-3.966,9.755,20.0
189.8,-3.922,8.626,13.0
77.026,-1.573,5.629,29.0
75.781,-1.534,5.095,37.0
98.812,-1.982,6.067,28.0
99.245,-1.974,5.507,16.0
190.247,-3.751,9.45,22.0
190.257,-3.718,8.344,6.0
75.896,-1.465,5.422,32.0
75.85,-1.451,4.977,27.0
98.787,-1.873,5.906,25.0
191.205,-3.592,10.298,8.0
190.489,-3.545,9.15,8.0
0.0,0.0,0.0,0.0
75.831,-1.381,5.293,31.0
77.206,-1.392,4.938,10.0
98.82,-1.765,5.745,28.0
191.189,-3.384,9.98,17.0
0.0,0.0,0.0,0.0
171.58,-2.977,6.956,4.0
76.039,-1.302,5.178,19.0
90.761,-1.539,5.652,14.0
98.991,-1.662,5.586,24.0
191.085,-3.178,9.648,19.0
192.946,-3.178,8.621,17.0
171.41,-2.795,6.66,6.0
86.657,-1.394,5.754,10.0
106.082,-1.689,6.425,10.0
99.206,-1.564,5.429,12.0
193.705,-3.022,9.449,21.0
193.336,-2.987,8.305,12.0
171.677,-2.626,6.378,18.0
90.303,-1.36,5.839,31.0
90.635,-1.351,5.33,12.0
193.292,-2.851,10.238,23.0
193.426,-2.824,9.1,18.0
193.924,-2.802,7.992,6.0
171.412,-2.451,6.066,3.0
90.368,-1.272,5.684,35.0
90.655,-1.262,5.172,12.0
90.638,-1.248,4.641,7.0
193.071,-2.63,8.74,20.0
174.285,-2.349,6.874,5.0
0.0,0.0,0.0,0.0
90.448,-1.186,5.526,23.0
90.582,-1.175,5.005,32.0
90.668,-1.162,4.48,32.0
90.694,-1.15,3.942,23.0
90.706,-1.137,3.413,20.0
90.577,-1.121,2.879,14.0
90.478,-1.101,5.362,25.0
90.578,-1.09,4.838,36.0
90.636,-1.078,4.311,40.0
90.629,-1.065,3.773,58.0
90.63,-1.053,3.244,50.0
89.967,-1.033,2.697,1.0
90.516,-1.021,5.199,34.0
90.597,-1.009,4.672,43.0
90.594,-0.996,4.142,49.0
90.593,-0.984,3.603,57.0
90.575,-0.972,3.073,37.0
83.541,-0.886,2.349,1.0
90.567,-0.941,5.03,31.0
90.63,-0.93,4.503,34.0
90.633,-0.918,3.974,42.0
90.598,-0.906,3.433,55.0
90.474,-0.893,2.9,19.0
0.0,0.0,0.0,0.0
90.608,-0.865,4.859,10.0
90.678,-0.854,4.333,9.0
90.672,-0.843,3.803,19.0
90.625,-0.831,3.262,36.0
83.305,-0.754,2.512,1.0
0.0,0.0,0.0,0.0
193.267,-1.69,9.999,22.0
193.685,-1.67,8.885,23.0
180.602,-1.536,7.229,5.0
90.67,-0.76,3.089,17.0
82.288,-0.68,2.324,2.0
0.0,0.0,0.0,0.0
193.634,-1.543,9.644,21.0
194.01,-1.524,8.527,17.0
0.0,0.0,0.0,0.0
90.502,-0.69,2.911,12.0
0.0,0.0,0.0,0.0
0.0,0.0,0.0,0.0
193.913,-1.402,9.279,21.0
128.453,-0.914,5.395,24.0
0.0,0.0,0.0,0.0
82.863,-0.572,2.502,7.0
0.0,0.0,0.0,0.0
0.0,0.0,0.0,0.0
128.212,-0.835,5.881,9.0
128.35,-0.822,5.135,37.0
104.683,-0.66,3.577,7.0
81.069,-0.503,2.288,4.0
0.0,0.0,0.0,0.0
0.0,0.0,0.0,0.0
128.243,-0.749,5.628,34.0
128.345,-0.736,4.88,34.0
90.253,-0.509,2.904,3.0
78.839,-0.437,2.068,0.0
0.0,0.0,0.0,0.0
0.0,0.0,0.0,0.0
128.263,-0.667,5.373,51.0
128.6,-0.656,4.632,12.0
82.516,-0.413,2.49,7.0
63.797,-0.314,1.545,1.0
0.0,0.0,0.0,0.0
36.361,-0.172,0.455,0.0
128.363,-0.589,5.117,14.0
104.577,-0.47,3.555,5.0
80.199,-0.353,2.256,4.0
57.517,-0.248,1.276,0.0
41.346,-0.175,0.675,0.0
33.546,-0.139,0.352,0.0
0.0,0.0,0.0,0.0
83.342,-0.327,2.663,2.0
0.0,0.0,0.0,0.0
0.0,0.0,0.0,0.0
0.0,0.0,0.0,0.0
33.043,-0.119,0.278,1.0
108.755,-0.377,3.887,9.0
82.791,-0.281,2.474,4.0
0.0,0.0,0.0,0.0
43.572,-0.141,0.787,0.0
35.827,-0.113,0.438,0.0
30.757,-0.095,0.196,0.0
105.513,-0.313,3.554,3.0
79.119,-0.229,2.201,3.0
0.0,0.0,0.0,0.0
40.813,-0.112,0.654,0.0
33.233,-0.089,0.338,0.0
28.826,-0.075,0.125,6.0
83.183,-0.208,2.63,5.0
78.736,-0.192,2.029,1.0
0.0,0.0,0.0,0.0
0.0,0.0,0.0,0.0
31.514,-0.07,0.255,0.0
28.616,-0.062,0.064,2.0
79.295,-0.164,2.341,3.0
0.0,0.0,0.0,0.0
43.338,-0.084,0.772,0.0
0.0,0.0,0.0,0.0
30.317,-0.055,0.182,1.0
26.783,-0.047,0.004,0.0
78.672,-0.132,2.16,10.0
0.0,0.0,0.0,0.0
39.958,-0.062,0.628,0.0
33.279,-0.05,0.325,0.0
28.765,-0.041,0.112,2.0
25.741,-0.036,-0.049,0.0
78.534,-0.103,1.989,1.0
0.0,0.0,0.0,0.0
37.6,-0.045,0.512,0.0
31.493,-0.036,0.241,0.0
28.074,-0.031,0.05,0.0
24.565,-0.026,-0.099,0.0
0.0,0.0,0.0,0.0
0.0,0.0,0.0,0.0
0.0,0.0,0.0,0.0
30.181,-0.025,0.167,0.0
26.65,-0.021,-0.007,0.0
23.55,-0.018,-0.144,1.0
0.0,0.0,0.0,0.0
0.0,0.0,0.0,0.0
33.108,-0.02,0.311,0.0
28.633,-0.016,0.098,1.0
25.568,-0.014,-0.061,0.0
22.049,-0.011,-0.182,0.0
0.0,0.0,0.0,0.0
0.0,0.0,0.0,0.0
30.896,-0.012,0.224,0.0
27.498,-0.009,0.035,0.0
24.046,-0.007,-0.109,0.0
21.104,-0.006,-0.219,3.0
42.329,-0.01,0.711,0.0
34.308,-0.007,0.375,0.0
28.916,-0.005,0.147,0.0
26.227,-0.004,-0.022,0.0
23.336,-0.002,-0.157,0.0
19.854,-0.001,-0.249,0.0
38.579,-0.002,0.565,0.0
33.084,-0.001,0.291,0.0
28.504,0.0,0.083,1.0
25.19,0.0,-0.075,0.0
21.653,0.0,-0.192,1.0
18.636,0.0,-0.274,0.0
35.846,0.002,0.448,0.0
30.566,0.002,0.203,0.0
27.136,0.002,0.021,0.0
23.741,0.003,-0.122,0.0
20.943,0.003,-0.23,1.0
17.996,0.002,-0.303,0.0
33.301,0.005,0.345,0.0
28.764,0.005,0.129,1.0
25.992,0.005,-0.035,0.0
22.764,0.004,-0.166,0.0
19.559,0.004,-0.257,0.0
17.23,0.004,-0.327,0.0
33.016,0.007,0.27,0.0
28.09,0.006,0.065,1.0
24.905,0.006,-0.087,0.0
21.343,0.005,-0.202,4.0
18.456,0.004,-0.282,0.0
16.657,0.004,-0.352,0.0
30.2,0.007,0.183,0.0
26.819,0.007,0.005,0.0
23.607,0.006,-0.133,1.0
20.596,0.005,-0.239,0.0
17.682,0.004,-0.308,0.0
16.161,0.004,-0.377,0.0
28.734,0.007,0.112,1.0
25.607,0.006,-0.049,0.0
22.18,0.005,-0.173,0.0
19.16,0.004,-0.263,0.0
17.068,0.004,-0.335,0.0
15.64,0.003,-0.398,0.0
27.49,0.005,0.048,1.0
24.174,0.004,-0.099,0.0
21.153,0.003,-0.21,3.0
18.238,0.003,-0.29,0.0
16.557,0.002,-0.36,0.0
15.124,0.002,-0.417,0.0
26.319,0.002,-0.009,0.0
23.421,0.002,-0.146,0.0
20.128,0.001,-0.243,0.0
17.435,0.001,-0.315,0.0
15.975,0.0,-0.382,0.0
14.588,0.0,-0.434,0.0
25.313,0.0,-0.063,0.0
21.835,0.0,-0.182,1.0
18.87,0.0,-0.268,0.0
16.854,-0.001,-0.34,0.0
15.424,-0.001,-0.402,0.0
14.081,-0.001,-0.449,0.0
23.854,-0.004,-0.111,0.0
20.99,-0.004,-0.22,2.0
18.081,-0.004,-0.296,0.0
16.415,-0.004,-0.366,0.0
14.884,-0.004,-0.419,0.0
13.794,-0.004,-0.469,0.0
23.153,-0.008,-0.157,0.0
19.692,-0.008,-0.249,0.0
17.31,-0.007,-0.32,0.0
15.857,-0.007,-0.387,0.0
14.455,-0.007,-0.438,0.0
13.339,-0.007,-0.482,0.0
21.462,-0.013,-0.191,3.0
18.624,-0.012,-0.275,0.0
16.707,-0.011,-0.344,0.0
15.283,-0.01,-0.406,0.0
14.036,-0.01,-0.455,0.0
13.066,-0.01,-0.5,0.0
20.762,-0.018,-0.229,0.0
17.896,-0.016,-0.302,0.0
16.235,-0.015,-0.369,0.0
13.938,-0.014,-0.399,0.0
13.675,-0.014,-0.472,0.0
12.714,-0.013,-0.513,0.0
19.46,-0.023,-0.255,0.0
17.148,-0.021,-0.325,0.0
15.757,-0.02,-0.391,0.0
14.303,-0.019,-0.44,0.0
13.34,-0.018,-0.488,0.0
12.462,-0.017,-0.529,0.0
18.378,-0.028,-0.279,0.0
16.66,-0.026,-0.35,0.0
15.021,-0.024,-0.404,0.0
13.894,-0.023,-0.456,0.0
12.919,-0.022,-0.5,0.0
12.084,-0.021,-0.538,0.0
17.671,-0.034,-0.305,0.0
16.133,-0.032,-0.373,0.0
13.933,-0.028,-0.403,0.0
13.557,-0.028,-0.473,0.0
12.608,-0.027,-0.514,0.0
11.839,-0.026,-0.552,0.0
17.031,-0.039,-0.329,0.0
15.65,-0.037,-0.393,0.0
14.219,-0.035,-0.441,0.0
13.316,-0.033,-0.492,0.0
12.348,-0.031,-0.529,0.0
11.536,-0.03,-0.561,0.0
16.57,-0.046,-0.354,0.0
14.99,-0.042,-0.408,0.0
13.923,-0.04,-0.46,0.0
12.861,-0.038,-0.502,0.0
12.129,-0.037,-0.544,0.0
11.336,-0.035,-0.575,0.0
16.014,-0.052,-0.375,0.0
14.6,-0.049,-0.427,0.0
13.523,-0.046,-0.474,0.0
12.564,-0.044,-0.516,0.0
11.832,-0.042,-0.555,0.0
11.038,-0.04,-0.582,0.0
15.56,-0.059,-0.395,0.0
14.197,-0.055,-0.444,0.0
13.189,-0.052,-0.489,0.0
12.341,-0.049,-0.531,0.0
11.574,-0.047,-0.566,0.0
10.886,-0.045,-0.596,0.0
14.974,-0.065,-0.41,0.0
13.848,-0.061,-0.46,0.0
12.847,-0.058,-0.502,0.0
11.96,-0.055,-0.538,0.0
11.343,-0.053,-0.577,0.0
10.666,-0.05,-0.605,0.0
14.624,-0.072,-0.429,0.0
13.551,-0.068,-0.477,0.0
12.542,-0.064,-0.515,0.0
11.788,-0.061,-0.554,0.0
11.112,-0.058,-0.587,0.0
10.375,-0.055,-0.609,0.0
14.18,-0.079,-0.444,0.0
13.276,-0.075,-0.493,0.0
12.37,-0.071,-0.532,0.0
11.505,-0.067,-0.563,0.0
10.88,-0.064,-0.596,0.0
10.251,-0.062,-0.622,0.0
13.804,-0.086,-0.459,0.0
12.923,-0.082,-0.505,0.0
12.013,-0.077,-0.54,0.0
11.32,-0.074,-0.576,0.0
10.623,-0.07,-0.602,0.0
10.159,-0.068,-0.636,0.0
13.509,-0.093,-0.475,0.0
12.563,-0.088,-0.515,0.0
11.721,-0.083,-0.549,0.0
11.107,-0.08,-0.586,0.0
10.418,-0.076,-0.611,0.0
9.866,-0.073,-0.636,0.0
13.211,-0.101,-0.489,0.0
12.337,-0.095,-0.529,0.0
11.526,-0.09,-0.561,0.0
10.872,-0.086,-0.594,0.0
10.172,-0.082,-0.615,0.0
9.805,-0.08,-0.651,0.0
12.865,-0.108,-0.5,0.0
12.086,-0.103,-0.54,0.0
11.306,-0.097,-0.572,0.0
10.584,-0.092,-0.598,0.0
10.138,-0.089,-0.632,0.0
0.0,0.0,0.0,0.0
12.559,-0.115,-0.512,0.0
11.782,-0.109,-0.549,0.0
11.093,-0.104,-0.581,0.0
10.414,-0.099,-0.608,0.0
9.92,-0.095,-0.637,0.0
9.351,-0.091,-0.655,0.0
12.355,-0.123,-0.526,0.0
11.586,-0.117,-0.561,0.0
10.922,-0.112,-0.592,0.0
10.313,-0.107,-0.62,0.0
0.0,0.0,0.0,0.0
9.222,-0.098,-0.663,0.0
12.04,-0.13,-0.534,0.0
11.297,-0.124,-0.567,0.0
10.636,-0.118,-0.595,0.0
10.03,-0.112,-0.621,0.0
0.0,0.0,0.0,0.0
9.062,-0.104,-0.667,0.0
11.902,-0.139,-0.549,0.0
11.115,-0.131,-0.577,0.0
10.505,-0.126,-0.607,0.0
9.874,-0.119,-0.629,0.0
0.0,0.0,0.0,0.0
0.0,0.0,0.0,0.0
11.623,-0.146,-0.556,0.0
10.921,-0.139,-0.586,0.0
10.281,-0.132,-0.611,0.0
9.821,-0.128,-0.642,0.0
9.246,-0.121,-0.659,0.0
0.0,0.0,0.0,0.0
11.414,-0.154,-0.565,0.0
10.734,-0.147,-0.594,0.0
10.173,-0.14,-0.622,0.0
0.0,0.0,0.0,0.0
0.0,0.0,0.0,0.0
8.685,-0.124,-0.684,0.0
11.205,-0.162,-0.574,0.0
10.494,-0.153,-0.598,0.0
0.0,0.0,0.0,0.0
0.0,0.0,0.0,0.0
0.0,0.0,0.0,0.0
8.603,-0.131,-0.692,0.0
11.037,-0.171,-0.583,0.0
10.438,-0.163,-0.612,0.0
9.83,-0.155,-0.634,0.0
0.0,0.0,0.0,0.0
0.0,0.0,0.0,0.0
8.481,-0.137,-0.696,0.0
10.829,-0.178,-0.59,0.0
10.292,-0.171,-0.62,0.0
0.0,0.0,0.0,0.0
0.0,0.0,0.0,0.0
0.0,0.0,0.0,0.0
8.359,-0.144,-0.699,0.0
10.673,-0.187,-0.598,0.0
0.0,0.0,0.0,0.0
0.0,0.0,0.0,0.0
0.0,0.0,0.0,0.0
8.594,-0.156,-0.682,0.0
8.266,-0.151,-0.705,0.0
10.452,-0.194,-0.602,0.0
9.865,-0.185,-0.625,0.0
0.0,0.0,0.0,0.0
0.0,0.0,0.0,0.0
8.558,-0.164,-0.693,0.0
8.15,-0.158,-0.707,0.0
10.255,-0.201,-0.606,0.0
0.0,0.0,0.0,0.0
0.0,0.0,0.0,0.0
0.0,0.0,0.0,0.0
0.0,0.0,0.0,0.0
8.036,-0.164,-0.709,0.0
10.135,-0.21,-0.614,0.0
0.0,0.0,0.0,0.0
0.0,0.0,0.0,0.0
8.653,-0.184,-0.676,0.0
8.31,-0.178,-0.697,0.0
7.943,-0.171,-0.713,0.0
10.078,-0.22,-0.625,0.0
0.0,0.0,0.0,0.0
0.0,0.0,0.0,0.0
0.0,0.0,0.0,0.0
8.243,-0.186,-0.704,0.0
0.0,0.0,0.0,0.0
9.907,-0.228,-0.628,0.0
0.0,0.0,0.0,0.0
0.0,0.0,0.0,0.0
0.0,0.0,0.0,0.0
8.147,-0.193,-0.707,0.0
0.0,0.0,0.0,0.0
9.816,-0.237,-0.636,0.0
9.261,-0.225,-0.654,0.0
0.0,0.0,0.0,0.0
0.0,0.0,0.0,0.0
8.037,-0.2,-0.708,0.0
0.0,0.0,0.0,0.0
9.605,-0.243,-0.635,0.0
9.135,-0.233,-0.657,0.0
0.0,0.0,0.0,0.0
8.267,-0.214,-0.691,0.0
0.0,0.0,0.0,0.0
0.0,0.0,0.0,0.0
9.568,-0.254,-0.645,0.0
9.062,-0.242,-0.663,0.0
8.629,-0.232,-0.682,0.0
8.26,-0.224,-0.701,0.0
0.0,0.0,0.0,0.0
0.0,0.0,0.0,0.0
0.0,0.0,0.0,0.0
8.905,-0.249,-0.663,0.0
0.0,0.0,0.0,0.0
0.0,0.0,0.0,0.0
0.0,0.0,0.0,0.0
0.0,0.0,0.0,0.0
9.281,-0.269,-0.649,0.0
0.0,0.0,0.0,0.0
0.0,0.0,0.0,0.0
0.0,0.0,0.0,0.0
0.0,0.0,0.0,0.0
0.0,0.0,0.0,0.0
9.209,-0.278,-0.654,0.0
0.0,0.0,0.0,0.0
0.0,0.0,0.0,0.0
0.0,0.0,0.0,0.0
0.0,0.0,0.0,0.0
0.0,0.0,0.0,0.0
9.117,-0.287,-0.658,0.0
8.619,-0.273,-0.672,0.0
0.0,0.0,0.0,0.0
0.0,0.0,0.0,0.0
0.0,0.0,0.0,0.0
7.31,-0.238,-0.74,0.0
0.0,0.0,0.0,0.0
0.0,0.0,0.0,0.0
0.0,0.0,0.0,0.0
0.0,0.0,0.0,0.0
0.0,0.0,0.0,0.0
7.274,-0.246,-0.744,0.0
0.0,0.0,0.0,0.0
0.0,0.0,0.0,0.0
0.0,0.0,0.0,0.0
0.0,0.0,0.0,0.0
0.0,0.0,0.0,0.0
7.205,-0.253,-0.745,0.0
0.0,0.0,0.0,0.0
0.0,0.0,0.0,0.0
0.0,0.0,0.0,0.0
0.0,0.0,0.0,0.0
0.0,0.0,0.0,0.0
7.165,-0.261,-0.748,0.0
8.776,-0.322,-0.67,0.0
0.0,0.0,0.0,0.0
0.0,0.0,0.0,0.0
0.0,0.0,0.0,0.0
0.0,0.0,0.0,0.0
7.116,-0.269,-0.749,0.0
8.728,-0.332,-0.675,0.0
8.296,-0.317,-0.689,0.0
0.0,0.0,0.0,0.0
0.0,0.0,0.0,0.0
0.0,0.0,0.0,0.0
7.053,-0.276,-0.749,0.0
8.724,-0.343,-0.682,0.0
8.273,-0.327,-0.694,0.0
0.0,0.0,0.0,0.0
0.0,0.0,0.0,0.0
7.33,-0.295,-0.743,0.0
7.012,-0.284,-0.751,0.0
8.579,-0.349,-0.678,0.0
8.237,-0.337,-0.698,0.0
0.0,0.0,0.0,0.0
0.0,0.0,0.0,0.0
7.268,-0.302,-0.742,0.0
6.996,-0.293,-0.755,0.0
8.537,-0.359,-0.682,0.0
0.0,0.0,0.0,0.0
0.0,0.0,0.0,0.0
0.0,0.0,0.0,0.0
7.228,-0.311,-0.744,0.0
6.949,-0.3,-0.755,0.0
0.0,0.0,0.0,0.0
8.1,-0.353,-0.699,0.0
0.0,0.0,0.0,0.0
0.0,0.0,0.0,0.0
7.182,-0.318,-0.745,0.0
6.875,-0.306,-0.752,0.0
0.0,0.0,0.0,0.0
0.0,0.0,0.0,0.0
0.0,0.0,0.0,0.0
0.0,0.0,0.0,0.0
7.159,-0.327,-0.747,0.0
6.854,-0.315,-0.755,0.0
0.0,0.0,0.0,0.0
8.046,-0.373,-0.706,0.0
0.0,0.0,0.0,0.0
0.0,0.0,0.0,0.0
7.134,-0.336,-0.749,0.0
6.84,-0.324,-0.758,0.0
0.0,0.0,0.0,0.0
0.0,0.0,0.0,0.0
0.0,0.0,0.0,0.0
0.0,0.0,0.0,0.0
7.096,-0.344,-0.75,0.0
6.82,-0.332,-0.76,0.0
8.303,-0.405,-0.691,0.0
7.94,-0.389,-0.706,0.0
0.0,0.0,0.0,0.0
0.0,0.0,0.0,0.0
7.039,-0.351,-0.748,0.0
6.832,-0.342,-0.765,0.0
8.26,-0.414,-0.692,0.0
7.891,-0.398,-0.706,0.0
0.0,0.0,0.0,0.0
0.0,0.0,0.0,0.0
7.022,-0.359,-0.749,0.0
6.801,-0.35,-0.765,0.0
8.279,-0.427,-0.698,0.0
0.0,0.0,0.0,0.0
0.0,0.0,0.0,0.0
7.269,-0.38,-0.738,0.0
7.003,-0.368,-0.751,0.0
6.754,-0.357,-0.763,0.0
8.196,-0.434,-0.695,0.0
7.971,-0.424,-0.721,0.0
0.0,0.0,0.0,0.0
7.243,-0.389,-0.738,0.0
6.97,-0.376,-0.75,0.0
6.75,-0.366,-0.765,0.0
8.168,-0.443,-0.696,0.0
7.811,-0.426,-0.709,0.0
0.0,0.0,0.0,0.0
7.233,-0.398,-0.74,0.0
6.956,-0.385,-0.751,0.0
6.74,-0.374,-0.767,0.0
8.178,-0.455,-0.699,0.0
7.843,-0.438,-0.715,0.0
0.0,0.0,0.0,0.0
7.189,-0.405,-0.738,0.0
0.0,0.0,0.0,0.0
6.73,-0.383,-0.768,0.0
8.144,-0.464,-0.699,0.0
0.0,0.0,0.0,0.0
0.0,0.0,0.0,0.0
7.181,-0.415,-0.739,0.0
0.0,0.0,0.0,0.0
6.665,-0.388,-0.762,0.0
8.122,-0.474,-0.7,0.0
0.0,0.0,0.0,0.0
0.0,0.0,0.0,0.0
7.169,-0.424,-0.74,0.0
6.924,-0.411,-0.754,0.0
6.678,-0.398,-0.765,0.0
8.128,-0.485,-0.702,0.0
0.0,0.0,0.0,0.0
0.0,0.0,0.0,0.0
7.185,-0.434,-0.743,0.0
6.874,-0.417,-0.75,0.0
6.679,-0.407,-0.767,0.0
8.105,-0.494,-0.702,0.0
0.0,0.0,0.0,0.0
0.0,0.0,0.0,0.0
7.185,-0.444,-0.744,0.0
0.0,0.0,0.0,0.0
6.643,-0.414,-0.764,0.0
8.103,-0.505,-0.703,0.0
0.0,0.0,0.0,0.0
0.0,0.0,0.0,0.0
7.167,-0.452,-0.743,0.0
0.0,0.0,0.0,0.0
6.675,-0.425,-0.768,0.0
8.076,-0.514,-0.701,0.0
0.0,0.0,0.0,0.0
0.0,0.0,0.0,0.0
7.156,-0.461,-0.743,0.0
0.0,0.0,0.0,0.0
6.673,-0.433,-0.768,0.0
8.053,-0.523,-0.699,0.0
0.0,0.0,0.0,0.0
0.0,0.0,0.0,0.0
7.172,-0.471,-0.745,0.0
0.0,0.0,0.0,0.0
6.634,-0.439,-0.764,0.0
8.072,-0.534,-0.701,0.0
0.0,0.0,0.0,0.0
0.0,0.0,0.0,0.0
0.0,0.0,0.0,0.0
6.875,-0.462,-0.753,0.0
6.642,-0.448,-0.765,0.0
8.053,-0.543,-0.699,0.0
0.0,0.0,0.0,0.0
0.0,0.0,0.0,0.0
7.161,-0.489,-0.743,0.0
0.0,0.0,0.0,0.0
6.67,-0.459,-0.767,0.0
8.129,-0.559,-0.705,0.0
0.0,0.0,0.0,0.0
0.0,0.0,0.0,0.0
7.14,-0.496,-0.74,0.0
0.0,0.0,0.0,0.0
6.68,-0.468,-0.768,0.0
8.126,-0.569,-0.704,0.0
0.0,0.0,0.0,0.0
0.0,0.0,0.0,0.0
7.141,-0.505,-0.739,0.0
0.0,0.0,0.0,0.0
6.665,-0.475,-0.765,0.0
8.052,-0.573,-0.696,0.0
0.0,0.0,0.0,0.0
0.0,0.0,0.0,0.0
7.197,-0.518,-0.744,0.0
0.0,0.0,0.0,0.0
6.675,-0.484,-0.765,0.0
8.091,-0.586,-0.698,0.0
0.0,0.0,0.0,0.0
0.0,0.0,0.0,0.0
7.185,-0.525,-0.741,0.0
0.0,0.0,0.0,0.0
6.723,-0.495,-0.769,0.0
8.143,-0.599,-0.701,0.0
0.0,0.0,0.0,0.0
0.0,0.0,0.0,0.0
7.192,-0.534,-0.74,0.0
0.0,0.0,0.0,0.0
6.721,-0.503,-0.767,0.0
8.166,-0.61,-0.7,0.0
0.0,0.0,0.0,0.0
0.0,0.0,0.0,0.0
7.218,-0.545,-0.74,0.0
0.0,0.0,0.0,0.0
6.694,-0.508,-0.761,0.0
8.147,-0.618,-0.696,0.0
0.0,0.0,0.0,0.0
0.0,0.0,0.0,0.0
7.211,-0.552,-0.737,0.0
0.0,0.0,0.0,0.0
6.725,-0.519,-0.762,0.0
8.175,-0.629,-0.695,0.0
7.872,-0.608,-0.713,0.0
0.0,0.0,0.0,0.0
7.225,-0.562,-0.736,0.0
0.0,0.0,0.0,0.0
6.748,-0.528,-0.762,0.0
8.181,-0.639,-0.693,0.0
7.919,-0.62,-0.714,0.0
0.0,0.0,0.0,0.0
7.252,-0.572,-0.735,0.0
0.0,0.0,0.0,0.0
6.778,-0.538,-0.763,0.0
8.231,-0.652,-0.693,0.0
7.919,-0.629,-0.711,0.0
0.0,0.0,0.0,0.0
7.255,-0.58,-0.732,0.0
7.018,-0.562,-0.747,0.0
6.8,-0.546,-0.762,0.0
8.218,-0.659,-0.688,0.0
7.949,-0.64,-0.709,0.0
0.0,0.0,0.0,0.0
0.0,0.0,0.0,0.0
6.994,-0.568,-0.741,0.0
6.806,-0.554,-0.759,0.0
8.3,-0.675,-0.691,0.0
7.957,-0.648,-0.706,0.0
0.0,0.0,0.0,0.0
0.0,0.0,0.0,0.0
0.0,0.0,0.0,0.0
6.82,-0.562,-0.757,0.0
8.304,-0.683,-0.686,0.0
7.996,-0.66,-0.705,0.0
0.0,0.0,0.0,0.0
0.0,0.0,0.0,0.0
7.065,-0.588,-0.74,0.0
6.838,-0.57,-0.754,0.0
8.377,-0.698,-0.687,0.0
7.951,-0.664,-0.696,0.0
0.0,0.0,0.0,0.0
0.0,0.0,0.0,0.0
7.132,-0.6,-0.743,0.0
6.881,-0.58,-0.755,0.0
8.405,-0.708,-0.684,0.0
8.032,-0.678,-0.698,0.0
0.0,0.0,0.0,0.0
0.0,0.0,0.0,0.0
7.186,-0.611,-0.744,0.0
6.911,-0.589,-0.753,0.0
8.426,-0.717,-0.68,0.0
8.089,-0.69,-0.697,0.0
0.0,0.0,0.0,0.0
0.0,0.0,0.0,0.0
7.217,-0.62,-0.742,0.0
6.955,-0.599,-0.753,0.0
8.489,-0.73,-0.679,0.0
8.173,-0.705,-0.699,0.0
0.0,0.0,0.0,0.0
0.0,0.0,0.0,0.0
7.259,-0.63,-0.741,0.0
6.966,-0.606,-0.749,0.0
8.556,-0.743,-0.678,0.0
8.213,-0.715,-0.696,0.0
0.0,0.0,0.0,0.0
0.0,0.0,0.0,0.0
7.285,-0.638,-0.738,0.0
7.003,-0.615,-0.748,0.0
8.595,-0.754,-0.675,0.0
8.247,-0.725,-0.692,0.0
7.948,-0.7,-0.711,0.0
0.0,0.0,0.0,0.0
0.0,0.0,0.0,0.0
7.095,-0.629,-0.752,0.0
8.641,-0.765,-0.671,0.0
8.316,-0.737,-0.691,0.0
7.964,-0.708,-0.705,0.0
0.0,0.0,0.0,0.0
0.0,0.0,0.0,0.0
7.068,-0.632,-0.743,0.0
8.669,-0.774,-0.666,0.0
8.355,-0.747,-0.687,0.0
8.031,-0.72,-0.704,0.0
0.0,0.0,0.0,0.0
0.0,0.0,0.0,0.0
7.107,-0.641,-0.74,0.0
8.775,-0.79,-0.666,0.0
8.395,-0.757,-0.683,0.0
8.028,-0.725,-0.697,0.0
0.0,0.0,0.0,0.0
0.0,0.0,0.0,0.0
7.182,-0.652,-0.742,0.0
8.9,-0.807,-0.668,0.0
8.452,-0.768,-0.68,0.0
8.133,-0.74,-0.698,0.0
0.0,0.0,0.0,0.0
0.0,0.0,0.0,0.0
7.238,-0.662,-0.741,0.0
0.0,0.0,0.0,0.0
8.517,-0.779,-0.677,0.0
8.178,-0.749,-0.694,0.0
0.0,0.0,0.0,0.0
0.0,0.0,0.0,0.0
7.272,-0.67,-0.737,0.0
0.0,0.0,0.0,0.0
8.58,-0.79,-0.674,0.0
8.256,-0.762,-0.693,0.0
7.922,-0.732,-0.709,0.0
0.0,0.0,0.0,0.0
0.0,0.0,0.0,0.0
0.0,0.0,0.0,0.0
8.659,-0.802,-0.671,0.0
8.334,-0.773,-0.691,0.0
7.94,-0.738,-0.702,0.0
0.0,0.0,0.0,0.0
0.0,0.0,0.0,0.0
0.0,0.0,0.0,0.0
8.764,-0.817,-0.67,0.0
8.369,-0.781,-0.685,0.0
8.059,-0.753,-0.704,0.0
0.0,0.0,0.0,0.0
0.0,0.0,0.0,0.0
0.0,0.0,0.0,0.0
8.801,-0.825,-0.664,0.0
8.432,-0.791,-0.681,0.0
8.035,-0.755,-0.694,0.0
0.0,0.0,0.0,0.0
0.0,0.0,0.0,0.0
0.0,0.0,0.0,0.0
0.0,0.0,0.0,0.0
8.49,-0.8,-0.677,0.0
8.15,-0.769,-0.695,0.0
0.0,0.0,0.0,0.0
0.0,0.0,0.0,0.0
9.457,-0.894,-0.642,0.0
0.0,0.0,0.0,0.0
8.568,-0.811,-0.674,0.0
8.205,-0.778,-0.69,0.0
7.92,-0.752,-0.709,0.0
0.0,0.0,0.0,0.0
0.0,0.0,0.0,0.0
0.0,0.0,0.0,0.0
8.65,-0.822,-0.67,0.0
8.295,-0.79,-0.688,0.0
8.035,-0.766,-0.71,0.0
0.0,0.0,0.0,0.0
0.0,0.0,0.0,0.0
0.0,0.0,0.0,0.0
8.724,-0.832,-0.666,0.0
8.361,-0.799,-0.684,0.0
8.077,-0.772,-0.704,0.0
0.0,0.0,0.0,0.0
0.0,0.0,0.0,0.0
0.0,0.0,0.0,0.0
