X,Y,Z,Reflectivity
9.202,-0.185,-0.675,0.0
11.979,-0.239,-0.543,0.0
11.381,-0.227,-0.575,0.0
10.777,-0.216,-0.6,0.0
10.194,-0.204,-0.622,0.0
9.795,-0.196,-0.648,0.0
9.271,-0.186,-0.662,0.0
12.355,-0.246,-0.536,0.0
11.615,-0.231,-0.564,0.0
11.025,-0.219,-0.592,0.0
10.426,-0.207,-0.615,0.0
9.955,-0.198,-0.639,0.0
9.497,-0.189,-0.659,0.0
12.528,-0.247,-0.519,0.0
11.879,-0.234,-0.553,0.0
11.233,-0.222,-0.581,0.0
10.621,-0.209,-0.606,0.0
10.128,-0.2,-0.63,0.0
9.625,-0.19,-0.649,0.0
12.903,-0.252,-0.509,0.0
12.203,-0.239,-0.544,0.0
11.461,-0.224,-0.571,0.0
10.943,-0.214,-0.603,0.0
10.345,-0.202,-0.623,0.0
9.804,-0.191,-0.642,0.0
13.234,-0.256,-0.496,0.0
12.392,-0.239,-0.528,0.0
11.733,-0.227,-0.561,0.0
11.097,-0.214,-0.589,0.0
10.509,-0.202,-0.612,0.0
10.049,-0.193,-0.638,0.0
13.572,-0.259,-0.482,0.0
12.71,-0.242,-0.517,0.0
11.947,-0.227,-0.548,0.0
11.317,-0.215,-0.578,0.0
10.76,-0.204,-0.605,0.0
10.215,-0.193,-0.628,0.0
13.882,-0.261,-0.465,0.0
12.98,-0.244,-0.502,0.0
12.29,-0.23,-0.539,0.0
11.572,-0.216,-0.568,0.0
10.955,-0.204,-0.594,0.0
10.401,-0.194,-0.618,0.0
14.344,-0.265,-0.452,0.0
13.283,-0.245,-0.487,0.0
12.589,-0.231,-0.526,0.0
11.8,-0.216,-0.556,0.0
11.195,-0.205,-0.585,0.0
10.629,-0.194,-0.61,0.0
14.723,-0.266,-0.434,0.0
13.783,-0.249,-0.478,0.0
12.822,-0.231,-0.51,0.0
12.164,-0.218,-0.548,0.0
11.435,-0.204,-0.574,0.0
10.912,-0.194,-0.605,0.0
15.14,-0.268,-0.416,0.0
14.057,-0.248,-0.459,0.0
13.108,-0.23,-0.496,0.0
12.435,-0.218,-0.536,0.0
11.727,-0.205,-0.566,0.0
11.072,-0.192,-0.591,0.0
15.741,-0.271,-0.402,0.0
14.534,-0.25,-0.446,0.0
13.473,-0.23,-0.482,0.0
12.648,-0.215,-0.519,0.0
11.961,-0.203,-0.553,0.0
11.345,-0.192,-0.583,0.0
16.209,-0.271,-0.381,0.0
14.935,-0.249,-0.428,0.0
13.869,-0.23,-0.469,0.0
12.936,-0.214,-0.505,0.0
12.285,-0.202,-0.543,0.0
11.561,-0.189,-0.571,0.0
16.681,-0.27,-0.358,0.0
15.507,-0.25,-0.413,0.0
14.29,-0.229,-0.454,0.0
13.342,-0.213,-0.494,0.0
12.578,-0.2,-0.531,0.0
11.83,-0.187,-0.561,0.0
17.212,-0.269,-0.335,0.0
15.97,-0.249,-0.393,0.0
14.664,-0.227,-0.437,0.0
13.673,-0.21,-0.479,0.0
12.831,-0.196,-0.516,0.0
12.128,-0.184,-0.55,0.0
17.888,-0.269,-0.313,0.0
16.437,-0.246,-0.372,0.0
15.095,-0.224,-0.419,0.0
13.982,-0.206,-0.462,0.0
13.116,-0.192,-0.501,0.0
12.411,-0.181,-0.538,0.0
18.58,-0.268,-0.288,0.0
16.897,-0.242,-0.349,0.0
15.711,-0.223,-0.405,0.0
14.447,-0.204,-0.449,0.0
13.438,-0.188,-0.487,0.0
12.587,-0.175,-0.521,0.0
19.494,-0.267,-0.263,0.0
17.523,-0.238,-0.327,0.0
16.169,-0.218,-0.385,0.0
14.822,-0.198,-0.431,0.0
13.872,-0.184,-0.475,0.0
12.896,-0.17,-0.508,0.0
20.582,-0.268,-0.237,0.0
18.178,-0.234,-0.303,0.0
16.628,-0.212,-0.363,0.0
15.388,-0.195,-0.417,0.0
14.247,-0.178,-0.46,0.0
13.267,-0.165,-0.497,0.0
22.023,-0.27,-0.21,0.0
19.049,-0.231,-0.28,0.0
17.161,-0.206,-0.341,0.0
15.942,-0.189,-0.401,0.0
14.61,-0.172,-0.443,0.0
13.63,-0.158,-0.484,0.0
22.962,-0.263,-0.174,1.0
20.006,-0.226,-0.255,0.0
17.82,-0.199,-0.319,0.0
16.384,-0.181,-0.38,0.0
14.923,-0.163,-0.423,0.0
13.988,-0.151,-0.469,0.0
24.063,-0.256,-0.136,0.0
21.27,-0.223,-0.23,0.0
18.539,-0.192,-0.296,0.0
16.797,-0.172,-0.357,0.0
15.605,-0.157,-0.412,0.0
14.394,-0.143,-0.455,0.0
24.851,-0.243,-0.092,0.0
22.412,-0.216,-0.199,1.0
19.343,-0.183,-0.271,0.0
17.356,-0.162,-0.335,0.0
16.049,-0.147,-0.393,0.0
14.738,-0.133,-0.437,0.0
26.053,-0.231,-0.046,0.0
23.385,-0.204,-0.162,0.0
20.387,-0.175,-0.247,0.0
18.08,-0.152,-0.314,0.0
16.529,-0.136,-0.373,0.0
15.254,-0.124,-0.423,0.0
27.239,-0.216,0.003,0.0
24.17,-0.188,-0.121,0.0
21.804,-0.166,-0.222,0.0
18.675,-0.139,-0.289,0.0
16.988,-0.124,-0.351,0.0
15.798,-0.113,-0.408,0.0
28.638,-0.199,0.058,4.0
25.131,-0.171,-0.079,0.0
22.516,-0.149,-0.187,0.0
19.625,-0.127,-0.266,0.0
17.593,-0.111,-0.33,0.0
16.206,-0.099,-0.388,0.0
28.826,-0.172,0.112,8.0
26.308,-0.153,-0.033,0.0
23.556,-0.132,-0.152,0.0
20.848,-0.114,-0.244,0.0
18.25,-0.096,-0.308,0.0
16.658,-0.085,-0.368,0.0
30.805,-0.152,0.178,1.0
27.632,-0.131,0.017,0.0
24.563,-0.112,-0.112,0.0
21.808,-0.096,-0.215,1.0
19.076,-0.08,-0.286,0.0
17.166,-0.069,-0.347,0.0
0.0,0.0,0.0,0.0
28.732,-0.105,0.071,6.0
25.763,-0.089,-0.069,0.0
22.937,-0.075,-0.183,0.0
20.062,-0.062,-0.264,0.0
17.69,-0.052,-0.325,0.0
33.296,-0.091,0.316,1.0
28.839,-0.073,0.124,4.0
26.61,-0.062,-0.023,0.0
23.801,-0.051,-0.146,0.0
21.015,-0.041,-0.238,0.0
18.006,-0.032,-0.298,0.0
36.306,-0.058,0.411,0.0
31.117,-0.043,0.191,0.0
27.856,-0.033,0.026,0.0
24.843,-0.025,-0.108,0.0
21.746,-0.017,-0.207,1.0
19.172,-0.012,-0.282,0.0
38.069,-0.016,0.5,0.0
33.107,-0.007,0.263,0.0
28.686,0.0,0.078,1.0
25.757,0.004,-0.066,0.0
23.272,0.008,-0.18,0.0
20.126,0.011,-0.261,0.0
40.191,0.031,0.6,0.0
33.418,0.032,0.324,0.0
28.844,0.034,0.13,0.0
26.83,0.037,-0.021,0.0
23.875,0.038,-0.143,1.0
21.132,0.038,-0.237,4.0
0.0,0.0,0.0,0.0
35.535,0.079,0.408,0.0
31.421,0.076,0.197,0.0
28.114,0.074,0.026,0.0
24.952,0.071,-0.106,0.0
21.893,0.067,-0.207,2.0
0.0,0.0,0.0,0.0
37.689,0.131,0.498,0.0
0.0,0.0,0.0,0.0
28.691,0.112,0.076,1.0
25.757,0.106,-0.065,0.0
23.023,0.1,-0.178,1.0
0.0,0.0,0.0,0.0
41.766,0.2,0.623,0.0
0.0,0.0,0.0,0.0
28.934,0.151,0.126,0.0
26.806,0.146,-0.022,0.0
23.833,0.135,-0.144,0.0
0.0,0.0,0.0,0.0
0.0,0.0,0.0,0.0
36.223,0.229,0.412,0.0
0.0,0.0,0.0,0.0
27.663,0.187,0.022,0.0
24.972,0.175,-0.11,0.0
0.0,0.0,0.0,0.0
0.0,0.0,0.0,0.0
37.901,0.292,0.494,1.0
32.6,0.258,0.25,0.0
28.79,0.235,0.07,5.0
25.744,0.216,-0.071,0.0
57.937,0.5,1.456,0.0
0.0,0.0,0.0,0.0
41.722,0.379,0.612,0.0
33.851,0.316,0.315,0.0
28.868,0.276,0.118,3.0
26.606,0.261,-0.03,0.0
57.676,0.58,1.544,0.0
0.0,0.0,0.0,0.0
0.0,0.0,0.0,0.0
35.525,0.382,0.388,0.0
28.906,0.318,0.165,0.0
27.488,0.309,0.012,0.0
56.788,0.653,1.611,0.0
57.418,0.674,1.328,1.0
0.0,0.0,0.0,0.0
37.247,0.455,0.466,0.0
32.228,0.401,0.234,0.0
28.751,0.365,0.058,4.0
56.423,0.731,1.69,0.0
56.554,0.746,1.395,0.0
0.0,0.0,0.0,0.0
40.659,0.556,0.571,0.0
33.975,0.473,0.299,0.0
28.886,0.409,0.102,5.0
55.673,0.804,1.752,0.0
55.724,0.818,1.46,1.0
0.0,0.0,0.0,0.0
0.0,0.0,0.0,0.0
34.552,0.533,0.356,0.0
29.042,0.455,0.146,0.0
55.245,0.88,1.821,0.0
55.185,0.894,1.528,1.0
55.084,0.906,1.235,0.0
0.0,0.0,0.0,0.0
36.153,0.613,0.425,0.0
31.508,0.542,0.204,0.0
0.0,0.0,0.0,0.0
54.655,0.969,1.593,0.0
54.506,0.98,1.301,0.0
0.0,0.0,0.0,0.0
0.0,0.0,0.0,0.0
32.711,0.613,0.259,0.0
0.0,0.0,0.0,0.0
0.0,0.0,0.0,0.0
54.381,1.062,1.376,1.0
54.381,1.076,1.082,0.0
40.314,0.808,0.589,0.0
34.032,0.691,0.317,1.0
0.0,0.0,0.0,0.0
54.491,1.136,1.742,3.0
54.298,1.146,1.449,0.0
54.627,1.167,1.163,1.0
0.0,0.0,0.0,0.0
0.0,0.0,0.0,0.0
0.0,0.0,0.0,0.0
54.471,1.222,1.816,10.0
54.148,1.229,1.518,0.0
54.433,1.25,1.232,0.0
47.712,1.108,0.826,1.0
36.782,0.863,0.442,0.0
0.0,0.0,0.0,0.0
0.0,0.0,0.0,0.0
54.083,1.314,1.588,1.0
54.184,1.331,1.297,1.0
0.0,0.0,0.0,0.0
0.0,0.0,0.0,0.0
0.0,0.0,0.0,0.0
0.0,0.0,0.0,0.0
54.252,1.407,1.662,3.0
53.929,1.413,1.36,1.0
56.668,1.5,1.128,5.0
0.0,0.0,0.0,0.0
0.0,0.0,0.0,0.0
0.0,0.0,0.0,0.0
54.168,1.495,1.728,1.0
54.032,1.505,1.431,6.0
56.285,1.583,1.19,2.0
45.981,1.305,0.728,0.0
0.0,0.0,0.0,0.0
0.0,0.0,0.0,0.0
54.339,1.59,1.8,0.0
54.058,1.596,1.497,4.0
54.333,1.619,1.215,1.0
46.111,1.386,0.785,0.0
83.86,2.549,3.774,4.0
0.0,0.0,0.0,0.0
0.0,0.0,0.0,0.0
54.058,1.687,1.561,6.0
54.258,1.708,1.277,5.0
54.888,1.743,0.999,2.0
81.084,2.603,3.744,13.0
0.0,0.0,0.0,0.0
0.0,0.0,0.0,0.0
51.138,1.683,1.536,5.0
50.986,1.693,1.259,0.0
50.785,1.7,0.982,0.0
81.099,2.743,3.838,28.0
0.0,0.0,0.0,0.0
50.693,1.742,1.855,3.0
50.473,1.748,1.572,3.0
50.455,1.762,1.301,2.0
50.532,1.778,1.033,0.0
81.255,2.888,3.934,30.0
56.069,2.008,2.413,0.0
50.438,1.819,1.9,3.0
49.978,1.817,1.609,2.0
49.937,1.828,1.339,2.0
50.192,1.851,1.077,0.0
81.292,3.028,4.021,26.0
81.241,3.049,3.582,4.0
50.102,1.894,1.939,1.0
49.421,1.881,1.642,3.0
49.316,1.891,1.374,2.0
49.249,1.902,1.107,0.0
65.626,2.56,3.313,16.0
65.628,2.577,2.959,27.0
48.799,1.929,1.937,3.0
48.906,1.947,1.673,2.0
48.73,1.953,1.405,3.0
48.748,1.967,1.143,2.0
65.547,2.671,3.373,64.0
65.557,2.689,3.02,19.0
48.668,2.01,1.979,14.0
48.554,2.018,1.708,3.0
48.314,2.021,1.439,11.0
48.352,2.036,1.18,2.0
65.563,2.787,3.436,50.0
65.576,2.805,3.082,8.0
48.805,2.101,2.03,0.0
48.233,2.089,1.74,2.0
48.031,2.093,1.474,3.0
0.0,0.0,0.0,0.0
81.328,3.601,4.335,32.0
81.085,3.612,3.883,10.0
48.758,2.185,2.071,8.0
48.044,2.166,1.776,2.0
47.565,2.157,1.501,11.0
47.466,2.165,1.242,15.0
81.288,3.743,4.403,33.0
80.912,3.746,3.944,22.0
0.0,0.0,0.0,0.0
48.057,2.251,1.816,2.0
47.496,2.238,1.538,11.0
47.413,2.247,1.279,0.0
81.418,3.894,4.478,26.0
80.843,3.888,4.007,32.0
0.0,0.0,0.0,0.0
48.184,2.342,1.86,1.0
47.657,2.33,1.581,62.0
47.426,2.332,1.317,8.0
81.503,4.044,4.546,31.0
81.146,4.048,4.085,31.0
0.0,0.0,0.0,0.0
0.0,0.0,0.0,0.0
47.6,2.414,1.616,174.0
47.363,2.414,1.351,16.0
80.967,4.163,4.577,32.0
81.337,4.203,4.155,23.0
0.0,0.0,0.0,0.0
0.0,0.0,0.0,0.0
47.508,2.493,1.646,9.0
47.304,2.495,1.382,16.0
80.798,4.3,4.625,32.0
81.073,4.337,4.199,41.0
0.0,0.0,0.0,0.0
0.0,0.0,0.0,0.0
47.511,2.579,1.679,5.0
47.263,2.578,1.413,11.0
80.456,4.426,4.659,29.0
80.798,4.466,4.237,36.0
81.01,4.498,3.805,1.0
0.0,0.0,0.0,0.0
47.691,2.673,1.715,3.0
47.23,2.66,1.441,13.0
58.739,3.336,3.438,5.0
80.696,4.603,4.281,26.0
81.03,4.644,3.855,5.0
0.0,0.0,0.0,0.0
47.827,2.766,1.748,2.0
47.238,2.744,1.468,19.0
58.59,3.432,3.463,34.0
58.624,3.449,3.144,30.0
58.676,3.468,2.825,24.0
0.0,0.0,0.0,0.0
47.958,2.859,1.779,1.0
47.257,2.83,1.495,15.0
58.569,3.536,3.493,57.0
58.617,3.553,3.174,58.0
58.661,3.571,2.855,46.0
0.0,0.0,0.0,0.0
47.989,2.946,1.805,0.0
47.279,2.914,1.519,12.0
58.574,3.64,3.523,25.0
58.687,3.662,3.207,18.0
58.719,3.678,2.886,22.0
0.0,0.0,0.0,0.0
48.238,3.047,1.837,0.0
47.317,3.001,1.542,11.0
80.825,5.166,4.898,33.0
80.902,5.191,4.458,23.0
80.899,5.211,4.012,29.0
0.0,0.0,0.0,0.0
0.0,0.0,0.0,0.0
47.39,3.089,1.564,8.0
80.454,5.285,4.909,30.0
81.333,5.363,4.515,7.0
80.959,5.359,4.048,39.0
0.0,0.0,0.0,0.0
0.0,0.0,0.0,0.0
47.425,3.175,1.583,9.0
80.314,5.418,4.931,31.0
77.786,5.267,4.346,40.0
80.912,5.499,4.075,25.0
0.0,0.0,0.0,0.0
0.0,0.0,0.0,0.0
47.478,3.262,1.601,7.0
77.835,5.388,4.805,21.0
77.878,5.41,4.377,34.0
80.202,5.59,4.065,10.0
0.0,0.0,0.0,0.0
0.0,0.0,0.0,0.0
47.545,3.349,1.618,6.0
60.637,4.303,3.761,24.0
78.353,5.578,4.426,27.0
80.444,5.747,4.099,10.0
81.259,5.825,3.684,8.0
0.0,0.0,0.0,0.0
47.606,3.436,1.632,5.0
60.779,4.419,3.786,23.0
77.897,5.682,4.42,13.0
80.042,5.858,4.098,25.0
81.243,5.966,3.701,25.0
0.0,0.0,0.0,0.0
47.664,3.523,1.645,3.0
60.829,4.528,3.802,36.0
61.438,4.588,3.499,17.0
77.241,5.786,3.97,15.0
81.288,6.108,3.719,32.0
48.842,3.682,1.964,3.0
47.683,3.606,1.653,4.0
60.855,4.635,3.814,29.0
77.572,5.926,4.43,22.0
77.195,5.915,3.98,26.0
81.738,6.282,3.752,33.0
81.568,6.288,3.292,16.0
47.733,3.691,1.662,4.0
61.064,4.755,3.835,36.0
77.793,6.075,4.453,9.0
62.373,4.885,3.223,12.0
81.607,6.411,3.755,35.0
81.556,6.425,3.3,30.0
47.802,3.777,1.669,4.0
60.751,4.834,3.821,36.0
62.078,4.953,3.558,6.0
62.445,4.996,3.231,17.0
81.604,6.548,3.761,26.0
81.537,6.561,3.304,26.0
62.794,5.068,2.195,8.0
59.783,4.857,3.763,29.0
52.099,4.244,2.989,8.0
62.036,5.067,3.212,26.0
62.517,5.121,2.883,16.0
62.881,5.165,2.55,17.0
62.649,5.16,2.191,23.0
52.005,4.312,3.274,21.0
52.013,4.323,2.984,24.0
52.063,4.338,2.696,38.0
52.114,4.354,2.403,23.0
52.174,4.37,2.115,26.0
52.189,4.383,1.824,23.0
51.961,4.392,3.27,59.0
51.976,4.405,2.98,49.0
52.043,4.422,2.693,60.0
52.064,4.435,2.398,53.0
52.092,4.448,2.109,57.0
52.115,4.462,1.818,49.0
51.96,4.477,3.266,60.0
52.016,4.492,2.979,38.0
52.051,4.507,2.689,31.0
52.08,4.52,2.394,52.0
52.094,4.532,2.104,57.0
52.095,4.544,1.813,50.0
51.999,4.564,3.263,34.0
52.104,4.584,2.978,16.0
59.989,5.29,3.093,33.0
52.16,4.61,2.391,15.0
52.136,4.619,2.098,24.0
52.129,4.63,1.807,36.0
59.539,5.321,3.728,35.0
58.644,5.252,3.343,26.0
60.102,5.395,3.088,33.0
60.89,5.478,2.782,24.0
60.945,5.495,2.443,25.0
62.237,5.625,2.146,34.0
59.396,5.401,3.709,34.0
58.786,5.356,3.34,31.0
60.212,5.498,3.083,32.0
60.736,5.557,2.762,26.0
60.634,5.561,2.418,27.0
60.877,5.596,2.086,35.0
58.604,5.419,3.646,33.0
58.13,5.386,3.289,27.0
60.089,5.58,3.062,34.0
60.682,5.647,2.745,25.0
60.146,5.608,2.384,29.0
60.656,5.668,2.063,24.0
58.596,5.509,3.63,33.0
58.423,5.503,3.29,31.0
59.249,5.591,3.003,23.0
60.336,5.705,2.713,34.0
59.703,5.657,2.349,33.0
60.645,5.758,2.046,17.0
58.57,5.593,3.611,33.0
58.661,5.612,3.286,34.0
59.501,5.704,2.998,29.0
60.857,5.845,2.717,23.0
59.336,5.71,2.315,32.0
60.424,5.827,2.018,14.0
58.233,5.648,3.571,31.0
58.276,5.662,3.245,32.0
59.134,5.756,2.959,29.0
60.129,5.863,2.664,34.0
59.145,5.778,2.287,27.0
59.868,5.86,1.978,20.0
58.273,5.736,3.552,29.0
58.173,5.735,3.217,32.0
59.037,5.831,2.932,28.0
59.526,5.889,2.614,24.0
59.132,5.861,2.264,23.0
60.09,5.967,1.962,25.0
58.348,5.826,3.533,31.0
58.144,5.814,3.192,32.0
58.952,5.905,2.903,28.0
59.488,5.969,2.588,24.0
59.247,5.955,2.243,32.0
60.04,6.045,1.935,20.0
58.178,5.889,3.497,28.0
58.301,5.911,3.174,33.0
58.862,5.978,2.872,28.0
59.49,6.052,2.56,27.0
59.089,6.021,2.209,29.0
59.401,6.063,1.886,33.0
57.838,5.935,3.449,30.0
57.959,5.956,3.128,32.0
58.53,6.024,2.827,32.0
59.445,6.128,2.529,34.0
59.254,6.117,2.186,24.0
59.403,6.143,1.856,27.0
57.778,6.005,3.416,33.0
57.999,6.037,3.1,29.0
58.438,6.092,2.793,29.0
58.546,6.112,2.461,31.0
59.349,6.205,2.158,16.0
59.633,6.245,1.832,21.0
57.949,6.099,3.395,33.0
58.127,6.125,3.075,32.0
58.5,6.174,2.763,31.0
58.401,6.172,2.422,27.0
59.34,6.28,2.125,26.0
59.391,6.295,1.791,27.0
58.095,6.187,3.371,26.0
58.659,6.255,3.07,27.0
58.574,6.254,2.734,30.0
58.866,6.294,2.408,34.0
59.282,6.348,2.088,26.0
59.55,6.385,1.761,33.0
58.146,6.264,3.339,31.0
58.585,6.319,3.031,32.0
58.691,6.339,2.703,32.0
58.819,6.361,2.369,34.0
59.195,6.411,2.048,26.0
59.734,6.478,1.729,26.0
57.972,6.316,3.292,33.0
58.471,6.378,2.987,32.0
58.719,6.413,2.666,32.0
58.791,6.429,2.329,33.0
59.196,6.481,2.009,25.0
59.878,6.565,1.693,13.0
57.899,6.377,3.248,33.0
57.905,6.384,2.919,28.0
58.708,6.48,2.626,31.0
58.823,6.501,2.29,13.0
63.717,7.05,2.119,15.0
60.322,6.684,1.663,34.0
57.478,6.396,3.185,29.0
58.18,6.48,2.892,32.0
58.871,6.565,2.591,33.0
59.474,6.639,2.274,34.0
59.454,6.645,1.934,20.0
60.218,6.738,1.618,34.0
57.773,6.492,3.159,32.0
57.785,6.5,2.83,15.0
59.048,6.648,2.556,33.0
59.612,6.719,2.235,34.0
59.382,6.701,1.888,20.0
59.863,6.763,1.563,20.0
57.881,6.566,3.121,26.0
57.916,6.576,2.792,8.0
59.132,6.72,2.514,23.0
59.561,6.776,2.187,12.0
59.392,6.764,1.843,19.0
46.431,5.294,1.177,15.0
57.857,6.622,3.075,14.0
57.894,6.633,2.745,19.0
59.115,6.779,2.467,16.0
46.506,5.338,1.671,6.0
46.443,5.336,1.404,26.0
46.4,5.337,1.139,21.0
46.454,5.363,2.431,33.0
46.482,5.371,2.167,20.0
46.442,5.37,1.9,39.0
46.403,5.371,1.629,23.0
46.392,5.375,1.365,31.0
46.35,5.375,1.1,20.0
46.437,5.405,2.392,52.0
46.408,5.406,2.125,49.0
46.397,5.409,1.859,36.0
46.375,5.41,1.59,39.0
46.345,5.412,1.324,34.0
46.295,5.411,1.059,17.0
46.411,5.444,2.351,53.0
46.383,5.445,2.084,45.0
46.362,5.446,1.818,34.0
46.351,5.449,1.548,44.0
46.338,5.452,1.284,34.0
46.222,5.444,1.017,14.0
46.391,5.482,2.309,59.0
46.384,5.485,2.043,49.0
46.336,5.483,1.776,39.0
46.359,5.49,1.508,47.0
46.347,5.493,1.243,35.0
46.003,5.457,0.971,9.0
46.391,5.52,2.267,54.0
46.379,5.522,2.001,50.0
46.36,5.523,1.735,37.0
46.346,5.526,1.465,48.0
46.347,5.53,1.201,33.0
45.784,5.467,0.925,10.0
46.397,5.558,2.224,39.0
46.385,5.559,1.958,37.0
46.38,5.562,1.692,39.0
46.369,5.565,1.422,31.0
46.358,5.567,1.157,19.0
45.55,5.474,0.877,11.0
46.419,5.595,2.181,17.0
46.398,5.595,1.914,16.0
46.405,5.599,1.649,20.0
46.417,5.604,1.38,11.0
46.37,5.602,1.113,12.0
45.398,5.488,0.831,6.0
46.462,5.632,2.139,6.0
46.461,5.635,1.873,10.0
54.625,6.628,1.89,14.0
58.838,7.144,1.692,23.0
46.366,5.633,1.069,12.0
44.195,5.373,0.766,3.0
58.887,7.178,2.653,18.0
58.63,7.15,2.305,16.0
54.722,6.676,1.838,6.0
58.839,7.182,1.634,27.0
46.228,5.646,1.019,11.0
44.038,5.382,0.719,5.0
58.896,7.215,2.594,9.0
58.666,7.19,2.248,7.0
54.631,6.698,1.78,12.0
58.464,7.171,1.565,25.0
45.941,5.638,0.967,12.0
43.971,5.399,0.674,6.0
53.644,6.603,2.308,24.0
54.349,6.691,2.027,29.0
58.924,7.257,1.86,6.0
56.666,6.982,1.459,10.0
45.695,5.633,0.915,12.0
43.924,5.418,0.628,4.0
53.655,6.632,2.253,26.0
54.429,6.73,1.973,28.0
54.645,6.759,1.668,11.0
55.276,6.84,1.365,5.0
45.486,5.631,0.863,9.0
43.838,5.429,0.58,1.0
53.723,6.667,2.199,27.0
54.374,6.749,1.914,28.0
54.7,6.792,1.611,9.0
52.887,6.569,1.25,2.0
44.729,5.558,0.801,3.0
42.076,5.23,0.513,1.0
53.625,6.678,2.138,27.0
54.351,6.77,1.855,27.0
54.771,6.824,1.555,20.0
46.339,5.775,1.046,3.0
43.954,5.48,0.74,3.0
41.86,5.221,0.465,0.0
53.593,6.696,2.079,24.0
54.317,6.787,1.795,23.0
58.397,7.298,1.596,10.0
46.106,5.764,0.991,6.0
43.898,5.489,0.691,7.0
39.478,4.938,0.396,0.0
53.75,6.734,2.026,28.0
54.368,6.812,1.738,21.0
0.0,0.0,0.0,0.0
45.782,5.739,0.933,10.0
43.855,5.498,0.643,5.0
35.843,4.495,0.32,0.0
53.924,6.772,1.973,27.0
54.457,6.84,1.68,21.0
55.538,6.976,1.395,3.0
45.573,5.726,0.879,8.0
43.643,5.484,0.592,3.0
35.716,4.489,0.28,0.0
53.945,6.789,1.915,28.0
54.544,6.865,1.623,27.0
52.774,6.642,1.267,1.0
0.0,0.0,0.0,0.0
42.002,5.288,0.523,1.0
33.283,4.191,0.224,0.0
53.93,6.799,1.853,28.0
54.586,6.881,1.563,20.0
46.589,5.873,1.067,1.0
43.888,5.533,0.749,6.0
41.689,5.257,0.472,0.0
32.483,4.096,0.181,0.0
54.193,6.841,1.801,29.0
58.255,7.353,1.602,8.0
46.156,5.826,1.004,3.0
43.847,5.535,0.698,8.0
39.093,4.935,0.398,0.0
29.483,3.722,0.131,1.0
54.302,6.861,1.743,25.0
57.81,7.304,1.524,4.0
45.801,5.786,0.945,8.0
43.815,5.535,0.648,8.0
35.8,4.523,0.324,0.0
29.431,3.718,0.098,4.0
54.426,6.881,1.685,24.0
55.311,6.992,1.395,4.0
45.561,5.759,0.888,8.0
43.618,5.513,0.596,3.0
35.565,4.495,0.282,0.0
29.324,3.706,0.064,7.0
54.582,6.902,1.628,22.0
52.623,6.653,1.268,1.0
44.834,5.667,0.823,3.0
42.0,5.309,0.526,1.0
0.0,0.0,0.0,0.0
28.591,3.614,0.029,3.0
54.591,6.902,1.566,17.0
46.487,5.876,1.066,0.0
43.9,5.548,0.755,4.0
41.731,5.273,0.475,0.0
32.556,4.113,0.183,0.0
27.84,3.517,-0.002,1.0
58.16,7.349,1.601,8.0
46.152,5.83,1.006,3.0
43.867,5.54,0.705,7.0
39.128,4.941,0.4,0.0
29.492,3.724,0.132,1.0
26.463,3.341,-0.032,1.0
55.648,7.025,1.468,4.0
45.791,5.779,0.945,9.0
43.831,5.531,0.653,6.0
35.854,4.523,0.325,0.0
29.434,3.712,0.098,5.0
26.059,3.286,-0.062,1.0
55.502,6.998,1.4,2.0
45.563,5.743,0.888,7.0
43.51,5.482,0.599,3.0
35.628,4.488,0.282,0.0
29.285,3.688,0.064,8.0
25.27,3.182,-0.089,0.0
52.636,6.626,1.267,0.0
44.644,5.618,0.819,2.0
41.967,5.279,0.529,1.0
33.59,4.224,0.228,0.0
28.635,3.6,0.03,2.0
23.899,3.004,-0.111,1.0
46.536,5.846,1.067,2.0
43.924,5.516,0.756,4.0
41.641,5.227,0.478,0.0
31.838,3.995,0.179,0.0
27.803,3.488,-0.002,0.0
23.719,2.975,-0.137,2.0
46.108,5.779,1.005,5.0
43.873,5.496,0.705,7.0
39.443,4.939,0.407,0.0
29.477,3.69,0.132,1.0
26.286,3.289,-0.031,1.0
23.043,2.882,-0.159,1.0
45.786,5.723,0.946,10.0
43.89,5.483,0.655,5.0
0.0,0.0,0.0,0.0
29.414,3.671,0.099,5.0
26.013,3.245,-0.061,1.0
22.465,2.802,-0.181,0.0
45.528,5.672,0.889,7.0
0.0,0.0,0.0,0.0
36.056,4.488,0.29,0.0
29.249,3.639,0.065,3.0
24.704,3.072,-0.086,0.0
21.74,2.702,-0.2,0.0
45.116,5.601,0.829,3.0
42.06,5.219,0.532,1.0
33.423,4.145,0.232,0.0
28.582,3.543,0.032,1.0
24.007,2.974,-0.11,2.0
21.093,2.612,-0.218,0.0
43.98,5.439,0.76,4.0
39.819,4.921,0.46,0.0
32.413,4.004,0.189,0.0
27.315,3.372,0.0,0.0
23.782,2.934,-0.135,3.0
20.84,2.57,-0.238,0.0
43.995,5.418,0.711,6.0
39.82,4.9,0.415,0.0
31.551,3.88,0.148,0.0
26.272,3.229,-0.028,1.0
23.215,2.852,-0.158,1.0
20.299,2.492,-0.254,0.0
43.964,5.389,0.662,5.0
36.271,4.442,0.339,0.0
29.447,3.604,0.106,1.0
26.056,3.187,-0.057,1.0
22.513,2.752,-0.178,0.0
19.759,2.414,-0.269,0.0
43.873,5.35,0.613,2.0
0.0,0.0,0.0,0.0
29.231,3.559,0.074,1.0
24.631,2.997,-0.08,0.0
21.752,2.645,-0.195,0.0
19.388,2.356,-0.285,0.0
42.388,5.141,0.547,0.0
33.523,4.063,0.241,0.0
28.78,3.485,0.042,0.0
24.08,2.914,-0.104,1.0
21.384,2.586,-0.215,0.0
18.998,2.296,-0.299,0.0
40.358,4.867,0.478,0.0
32.464,3.911,0.198,1.0
27.515,3.312,0.011,0.0
23.766,2.859,-0.128,2.0
20.785,2.498,-0.231,0.0
18.468,2.218,-0.31,0.0
0.0,0.0,0.0,0.0
31.754,3.802,0.161,0.0
26.357,3.153,-0.016,1.0
23.295,2.784,-0.15,1.0
20.502,2.448,-0.249,0.0
18.195,2.171,-0.325,0.0
36.723,4.372,0.358,0.0
29.358,3.491,0.118,0.0
26.05,3.095,-0.043,1.0
22.759,2.702,-0.17,0.0
20.072,2.381,-0.264,0.0
17.72,2.1,-0.334,0.0
35.111,4.15,0.306,0.0
29.288,3.458,0.088,1.0
25.472,3.005,-0.068,1.0
22.008,2.594,-0.186,0.0
19.585,2.306,-0.278,0.0
17.442,2.052,-0.347,0.0
33.59,3.941,0.259,0.0
29.035,3.403,0.058,1.0
24.378,2.854,-0.09,0.0
21.366,2.499,-0.202,0.0
19.177,2.241,-0.291,0.0
17.23,2.012,-0.36,0.0
32.606,3.796,0.219,1.0
28.18,3.277,0.029,0.0
24.027,2.791,-0.112,1.0
21.037,2.441,-0.22,0.0
18.725,2.171,-0.302,0.0
16.977,1.966,-0.371,0.0
31.979,3.692,0.184,1.0
27.003,3.114,0.001,0.0
23.646,2.724,-0.133,1.0
20.697,2.381,-0.236,0.0
18.421,2.117,-0.315,0.0
16.728,1.921,-0.381,0.0
29.411,3.366,0.141,2.0
26.257,3.001,-0.023,1.0
23.349,2.666,-0.153,0.0
20.302,2.315,-0.251,0.0
17.938,2.043,-0.324,0.0
16.46,1.873,-0.391,0.0
29.349,3.328,0.113,5.0
25.999,2.945,-0.046,1.0
22.093,2.499,-0.165,0.0
19.847,2.243,-0.263,0.0
17.665,1.994,-0.335,0.0
16.163,1.822,-0.398,0.0
29.303,3.292,0.087,4.0
25.161,2.823,-0.068,0.0
21.634,2.424,-0.181,0.0
19.599,2.193,-0.278,0.0
17.44,1.949,-0.346,0.0
16.014,1.787,-0.409,0.0
29.137,3.24,0.061,1.0
24.317,2.701,-0.087,1.0
21.406,2.374,-0.198,2.0
19.147,2.121,-0.288,0.0
17.219,1.905,-0.357,0.0
15.771,1.742,-0.416,0.0
28.11,3.094,0.034,1.0
24.104,2.649,-0.107,2.0
21.322,2.34,-0.216,2.0
18.709,2.05,-0.297,0.0
16.928,1.853,-0.365,0.0
15.585,1.703,-0.425,0.0
27.105,2.951,0.01,0.0
23.945,2.603,-0.126,1.0
21.122,2.293,-0.231,0.0
18.465,2.001,-0.309,0.0
16.778,1.816,-0.376,0.0
15.436,1.668,-0.433,0.0
26.32,2.833,-0.011,1.0
23.373,2.512,-0.142,0.0
20.507,2.201,-0.241,0.0
18.17,1.947,-0.318,0.0
16.518,1.767,-0.383,0.0
15.2,1.624,-0.439,0.0
26.01,2.767,-0.031,1.0
22.618,2.402,-0.155,0.0
20.275,2.15,-0.254,0.0
17.799,1.884,-0.326,0.0
16.273,1.72,-0.39,0.0
14.999,1.583,-0.445,0.0
25.845,2.715,-0.051,1.0
21.998,2.307,-0.168,1.0
19.671,2.06,-0.261,0.0
17.539,1.834,-0.334,0.0
16.031,1.673,-0.396,0.0
14.842,1.547,-0.451,0.0
25.022,2.596,-0.068,0.0
21.852,2.263,-0.183,4.0
19.518,2.017,-0.273,0.0
17.372,1.792,-0.343,0.0
15.975,1.645,-0.406,0.0
14.679,1.509,-0.457,0.0
24.621,2.52,-0.084,0.0
21.673,2.214,-0.197,4.0
19.067,1.944,-0.281,0.0
17.134,1.744,-0.351,0.0
15.774,1.603,-0.412,0.0
14.558,1.477,-0.463,0.0
24.255,2.448,-0.099,0.0
21.427,2.159,-0.209,4.0
18.865,1.897,-0.29,0.0
17.077,1.714,-0.361,0.0
15.628,1.566,-0.419,0.0
14.33,1.433,-0.465,0.0
24.044,2.393,-0.114,0.0
21.3,2.115,-0.221,3.0
18.661,1.85,-0.299,0.0
16.85,1.667,-0.367,0.0
15.504,1.531,-0.425,0.0
14.23,1.402,-0.471,0.0
23.607,2.314,-0.127,0.0
21.145,2.069,-0.233,1.0
18.379,1.794,-0.306,0.0
16.654,1.623,-0.373,0.0
15.345,1.492,-0.43,0.0
14.12,1.37,-0.476,0.0
23.107,2.231,-0.138,0.0
20.871,2.01,-0.242,0.0
18.145,1.744,-0.313,0.0
16.501,1.583,-0.379,0.0
15.17,1.452,-0.434,0.0
13.979,1.335,-0.479,0.0
22.688,2.155,-0.148,0.0
20.322,1.926,-0.247,0.0
17.907,1.693,-0.319,0.0
16.305,1.538,-0.384,0.0
15.047,1.417,-0.439,0.0
13.877,1.304,-0.483,0.0
22.521,2.104,-0.159,1.0
20.129,1.876,-0.255,0.0
17.718,1.648,-0.324,0.0
16.167,1.5,-0.389,0.0
14.94,1.383,-0.443,0.0
13.802,1.275,-0.487,0.0
22.264,2.045,-0.168,2.0
19.618,1.797,-0.259,0.0
17.587,1.607,-0.331,0.0
16.086,1.467,-0.394,0.0
14.798,1.346,-0.446,0.0
13.738,1.247,-0.491,0.0
22.149,1.999,-0.178,3.0
19.481,1.754,-0.266,0.0
17.558,1.576,-0.338,0.0
15.939,1.428,-0.398,0.0
14.758,1.318,-0.451,0.0
13.634,1.215,-0.494,0.0
22.042,1.953,-0.186,2.0
19.392,1.714,-0.273,0.0
17.362,1.53,-0.341,0.0
15.852,1.394,-0.402,0.0
14.61,1.281,-0.453,0.0
13.546,1.185,-0.496,0.0
21.901,1.904,-0.194,2.0
19.143,1.66,-0.277,0.0
17.199,1.487,-0.345,0.0
15.793,1.362,-0.407,0.0
14.595,1.255,-0.458,0.0
13.477,1.156,-0.498,0.0
21.704,1.85,-0.2,1.0
19.019,1.616,-0.282,0.0
17.084,1.448,-0.349,0.0
15.674,1.325,-0.409,0.0
14.44,1.217,-0.458,0.0
13.405,1.127,-0.5,0.0
21.557,1.801,-0.206,0.0
18.855,1.57,-0.285,0.0
16.984,1.41,-0.352,0.0
15.641,1.295,-0.413,0.0
14.436,1.192,-0.462,0.0
13.402,1.103,-0.504,0.0
21.427,1.752,-0.211,0.0
18.701,1.525,-0.288,0.0
16.924,1.376,-0.355,0.0
15.61,1.265,-0.417,0.0
14.306,1.156,-0.462,0.0
13.324,1.074,-0.504,0.0
21.306,1.706,-0.215,0.0
18.708,1.493,-0.293,0.0
16.849,1.34,-0.358,0.0
15.504,1.229,-0.418,0.0
14.239,1.126,-0.463,0.0
13.32,1.05,-0.507,0.0
21.256,1.664,-0.219,0.0
18.524,1.445,-0.294,0.0
16.798,1.306,-0.36,0.0
15.46,1.199,-0.419,0.0
14.3,1.105,-0.468,0.0
13.268,1.022,-0.508,0.0
21.11,1.615,-0.222,0.0
18.509,1.411,-0.297,0.0
16.754,1.273,-0.362,0.0
15.411,1.167,-0.421,0.0
14.141,1.067,-0.465,0.0
13.253,0.997,-0.509,0.0
21.041,1.571,-0.224,0.0
18.383,1.368,-0.298,0.0
16.758,1.243,-0.365,0.0
15.31,1.131,-0.42,0.0
14.149,1.042,-0.467,0.0
13.204,0.969,-0.509,0.0
20.912,1.524,-0.225,0.0
18.46,1.34,-0.301,0.0
16.729,1.21,-0.366,0.0
15.23,1.097,-0.419,0.0
14.12,1.014,-0.467,0.0
13.201,0.944,-0.51,0.0
20.871,1.481,-0.226,0.0
18.467,1.306,-0.302,0.0
16.636,1.172,-0.365,0.0
15.264,1.071,-0.421,0.0
14.161,0.99,-0.469,0.0
13.176,0.918,-0.509,0.0
20.745,1.433,-0.225,0.0
18.292,1.259,-0.3,0.0
16.628,1.14,-0.365,0.0
15.321,1.046,-0.422,0.0
14.13,0.961,-0.468,0.0
13.161,0.892,-0.509,0.0
20.738,1.395,-0.225,0.0
18.416,1.233,-0.302,0.0
16.669,1.112,-0.365,0.0
15.233,1.012,-0.42,0.0
14.195,0.939,-0.47,0.0
13.226,0.871,-0.511,0.0
20.759,1.357,-0.225,0.0
18.301,1.191,-0.299,0.0
16.698,1.082,-0.365,0.0
15.317,0.988,-0.421,0.0
14.123,0.907,-0.466,0.0
13.179,0.843,-0.508,0.0
21.097,1.338,-0.227,1.0
18.434,1.164,-0.3,0.0
16.639,1.046,-0.362,0.0
15.299,0.957,-0.419,0.0
14.118,0.879,-0.465,0.0
13.194,0.818,-0.507,0.0
21.194,1.303,-0.225,2.0
18.342,1.123,-0.296,0.0
16.739,1.02,-0.362,0.0
15.337,0.93,-0.418,0.0
14.182,0.856,-0.465,0.0
13.203,0.793,-0.505,0.0
21.372,1.273,-0.224,1.0
18.48,1.096,-0.295,0.0
16.735,0.987,-0.359,0.0
15.408,0.904,-0.417,0.0
14.184,0.829,-0.462,0.0
13.267,0.771,-0.505,0.0
21.403,1.234,-0.22,3.0
18.527,1.062,-0.292,0.0
16.76,0.956,-0.356,0.0
15.497,0.88,-0.416,0.0
14.197,0.802,-0.459,0.0
13.235,0.744,-0.501,0.0
21.45,1.194,-0.215,3.0
18.49,1.024,-0.287,0.0
16.826,0.927,-0.353,0.0
15.519,0.851,-0.413,0.0
14.239,0.776,-0.457,0.0
13.339,0.723,-0.501,0.0
21.544,1.158,-0.21,2.0
18.491,0.988,-0.282,0.0
16.898,0.898,-0.35,0.0
15.583,0.824,-0.41,0.0
14.304,0.752,-0.455,0.0
13.346,0.698,-0.497,0.0
21.667,1.122,-0.205,2.0
18.724,0.964,-0.279,0.0
16.951,0.868,-0.346,0.0
15.619,0.795,-0.406,0.0
14.404,0.729,-0.453,0.0
13.423,0.675,-0.496,0.0
21.764,1.085,-0.198,2.0
18.918,0.937,-0.275,0.0
17.027,0.838,-0.341,0.0
15.719,0.769,-0.402,0.0
14.523,0.706,-0.451,0.0
13.48,0.652,-0.492,0.0
21.864,1.046,-0.19,1.0
19.137,0.91,-0.271,0.0
17.175,0.812,-0.337,0.0
15.867,0.745,-0.399,0.0
14.606,0.681,-0.447,0.0
13.562,0.629,-0.489,0.0
22.138,1.016,-0.183,1.0
19.348,0.882,-0.265,0.0
17.182,0.778,-0.329,0.0
15.905,0.715,-0.393,0.0
14.752,0.659,-0.445,0.0
13.661,0.606,-0.487,0.0
22.267,0.978,-0.174,0.0
19.677,0.858,-0.26,0.0
17.378,0.752,-0.325,0.0
16.007,0.688,-0.388,0.0
14.769,0.631,-0.438,0.0
13.737,0.582,-0.482,0.0
22.826,0.957,-0.166,0.0
19.781,0.824,-0.252,0.0
17.67,0.73,-0.321,0.0
16.111,0.661,-0.382,0.0
14.869,0.605,-0.433,0.0
13.83,0.559,-0.478,0.0
23.069,0.922,-0.155,0.0
19.961,0.792,-0.243,0.0
17.852,0.703,-0.314,0.0
16.28,0.636,-0.376,0.0
14.932,0.579,-0.426,0.0
13.938,0.536,-0.474,0.0
23.455,0.892,-0.144,0.0
20.592,0.776,-0.238,0.0
18.012,0.673,-0.306,0.0
16.451,0.61,-0.37,0.0
15.288,0.562,-0.427,0.0
13.953,0.509,-0.465,0.0
23.813,0.859,-0.132,0.0
20.767,0.742,-0.227,0.0
18.164,0.644,-0.297,0.0
16.636,0.584,-0.364,0.0
15.379,0.535,-0.419,0.0
14.117,0.487,-0.461,0.0
24.259,0.827,-0.118,1.0
21.386,0.723,-0.22,1.0
18.432,0.617,-0.289,0.0
16.797,0.557,-0.356,0.0
15.536,0.51,-0.413,0.0
14.281,0.465,-0.457,0.0
24.348,0.783,-0.101,0.0
21.671,0.69,-0.207,0.0
18.792,0.592,-0.281,0.0
16.955,0.529,-0.347,0.0
15.679,0.485,-0.405,0.0
14.423,0.441,-0.451,0.0
24.924,0.753,-0.085,0.0
21.996,0.657,-0.194,0.0
19.12,0.566,-0.271,0.0
17.155,0.502,-0.338,0.0
15.815,0.458,-0.397,0.0
14.584,0.418,-0.444,0.0
25.23,0.713,-0.067,0.0
22.415,0.626,-0.18,0.0
19.627,0.542,-0.263,0.0
17.369,0.474,-0.328,0.0
16.002,0.432,-0.388,0.0
14.771,0.394,-0.438,0.0
25.761,0.678,-0.047,0.0
22.975,0.598,-0.165,0.0
19.982,0.514,-0.251,0.0
17.651,0.448,-0.319,0.0
16.299,0.409,-0.382,0.0
14.883,0.369,-0.429,0.0
26.251,0.64,-0.025,0.0
23.411,0.564,-0.148,0.0
20.356,0.484,-0.238,0.0
18.012,0.423,-0.309,0.0
16.452,0.381,-0.371,0.0
15.043,0.344,-0.42,0.0
26.629,0.599,-0.002,0.0
23.755,0.527,-0.129,0.0
21.011,0.459,-0.227,0.0
18.236,0.393,-0.297,0.0
16.663,0.354,-0.36,0.0
15.499,0.325,-0.418,0.0
27.178,0.559,0.022,0.0
24.406,0.495,-0.11,0.0
21.74,0.434,-0.214,0.0
18.682,0.367,-0.286,0.0
16.852,0.326,-0.348,0.0
15.677,0.298,-0.408,0.0
27.722,0.518,0.049,0.0
24.902,0.458,-0.088,0.0
22.04,0.398,-0.196,0.0
19.031,0.338,-0.273,0.0
17.125,0.299,-0.337,0.0
15.878,0.272,-0.397,0.0
28.651,0.481,0.079,1.0
25.429,0.419,-0.064,0.0
22.535,0.365,-0.177,0.0
19.841,0.315,-0.264,0.0
17.392,0.271,-0.324,0.0
16.085,0.245,-0.386,0.0
28.858,0.431,0.11,5.0
25.973,0.38,-0.039,0.0
23.281,0.333,-0.159,0.0
20.114,0.282,-0.246,0.0
17.907,0.245,-0.315,0.0
16.366,0.219,-0.375,0.0
28.898,0.378,0.141,4.0
26.684,0.341,-0.011,0.0
23.672,0.295,-0.136,0.0
20.714,0.252,-0.231,0.0
18.267,0.216,-0.301,0.0
16.623,0.192,-0.362,0.0
28.939,0.325,0.173,0.0
27.25,0.298,0.018,0.0
24.2,0.257,-0.112,0.0
21.684,0.224,-0.218,2.0
18.742,0.188,-0.288,0.0
16.869,0.164,-0.348,0.0
31.448,0.296,0.224,0.0
28.405,0.259,0.051,1.0
25.126,0.222,-0.087,0.0
22.156,0.189,-0.197,4.0
19.096,0.157,-0.271,0.0
17.231,0.137,-0.336,0.0
32.486,0.248,0.269,0.0
28.698,0.211,0.085,1.0
25.618,0.181,-0.059,0.0
22.526,0.152,-0.174,0.0
19.837,0.128,-0.258,0.0
17.542,0.108,-0.321,0.0
0.0,0.0,0.0,0.0
28.858,0.161,0.121,0.0
26.291,0.139,-0.028,0.0
23.207,0.116,-0.15,0.0
20.758,0.097,-0.244,0.0
18.033,0.079,-0.308,0.0
35.043,0.144,0.376,0.0
30.279,0.115,0.164,0.0
26.971,0.095,0.003,0.0
23.997,0.078,-0.125,0.0
21.204,0.062,-0.223,4.0
18.506,0.049,-0.292,0.0
36.061,0.086,0.432,0.0
31.23,0.065,0.209,0.0
27.772,0.05,0.039,0.0
24.562,0.037,-0.097,0.0
21.676,0.027,-0.2,1.0
19.093,0.018,-0.277,0.0
37.445,0.025,0.497,0.0
33.157,0.012,0.265,0.0
28.627,0.002,0.078,1.0
25.537,-0.004,-0.067,0.0
22.713,-0.01,-0.18,0.0
19.727,-0.014,-0.26,0.0
39.774,-0.04,0.581,0.0
33.253,-0.042,0.31,0.0
28.82,-0.045,0.117,6.0
26.197,-0.048,-0.034,0.0
23.567,-0.05,-0.155,0.0
20.436,-0.048,-0.242,0.0
40.782,-0.108,0.65,0.0
34.396,-0.101,0.367,0.0
28.931,-0.093,0.156,1.0
27.207,-0.095,0.001,0.0
24.062,-0.09,-0.125,0.0
21.465,-0.086,-0.224,1.0
0.0,0.0,0.0,0.0
0.0,0.0,0.0,0.0
31.226,-0.151,0.212,1.0
28.196,-0.144,0.041,1.0
24.843,-0.134,-0.094,0.0
22.036,-0.125,-0.199,1.0
0.0,0.0,0.0,0.0
37.718,-0.234,0.508,0.0
32.324,-0.209,0.266,1.0
28.71,-0.193,0.082,6.0
25.714,-0.18,-0.061,0.0
22.787,-0.165,-0.173,0.0
0.0,0.0,0.0,0.0
39.771,-0.31,0.593,0.0
33.253,-0.267,0.321,0.0
28.787,-0.239,0.124,4.0
26.418,-0.226,-0.024,0.0
23.798,-0.21,-0.147,0.0
0.0,0.0,0.0,0.0
41.689,-0.389,0.683,0.0
0.0,0.0,0.0,0.0
30.897,-0.304,0.178,1.0
27.646,-0.279,0.015,0.0
24.275,-0.251,-0.113,0.0
0.0,0.0,0.0,0.0
0.0,0.0,0.0,0.0
0.0,0.0,0.0,0.0
32.049,-0.365,0.234,1.0
28.453,-0.331,0.058,1.0
25.224,-0.3,-0.079,0.0
64.108,-0.778,1.58,0.0
0.0,0.0,0.0,0.0
0.0,0.0,0.0,0.0
32.954,-0.424,0.291,1.0
28.685,-0.376,0.103,0.0
26.204,-0.35,-0.042,0.0
0.0,0.0,0.0,0.0
0.0,0.0,0.0,0.0
40.554,-0.572,0.637,0.0
34.148,-0.49,0.354,1.0
0.0,0.0,0.0,0.0
27.099,-0.402,-0.002,0.0
86.491,-1.303,2.399,1.0
0.0,0.0,0.0,0.0
0.0,0.0,0.0,0.0
36.008,-0.568,0.43,0.0
31.404,-0.503,0.211,1.0
28.091,-0.457,0.042,0.0
87.997,-1.45,2.579,2.0
0.0,0.0,0.0,0.0
0.0,0.0,0.0,0.0
38.472,-0.661,0.521,0.0
33.244,-0.579,0.277,2.0
28.646,-0.506,0.089,1.0
89.565,-1.602,2.77,2.0
0.0,0.0,0.0,0.0
0.0,0.0,0.0,0.0
41.408,-0.768,0.628,0.0
33.867,-0.636,0.337,1.0
28.79,-0.547,0.136,2.0
96.908,-1.864,3.154,15.0
0.0,0.0,0.0,0.0
0.0,0.0,0.0,0.0
43.186,-0.859,0.725,1.0
35.153,-0.707,0.407,0.0
31.192,-0.634,0.198,0.0
0.0,0.0,0.0,0.0
91.248,-1.895,2.643,1.0
0.0,0.0,0.0,0.0
0.0,0.0,0.0,0.0
37.959,-0.812,0.502,0.0
32.843,-0.71,0.263,1.0
128.339,-2.804,4.601,23.0
96.756,-2.134,2.964,1.0
0.0,0.0,0.0,0.0
0.0,0.0,0.0,0.0
0.0,0.0,0.0,0.0
33.844,-0.775,0.329,1.0
128.392,-2.967,4.819,26.0
96.867,-2.259,3.132,5.0
0.0,0.0,0.0,0.0
0.0,0.0,0.0,0.0
0.0,0.0,0.0,0.0
35.351,-0.853,0.403,0.0
171.627,-4.178,6.734,25.0
0.0,0.0,0.0,0.0
0.0,0.0,0.0,0.0
0.0,0.0,0.0,0.0
0.0,0.0,0.0,0.0
38.018,-0.962,0.498,0.0
0.0,0.0,0.0,0.0
92.461,-2.377,3.305,169.0
0.0,0.0,0.0,0.0
0.0,0.0,0.0,0.0
0.0,0.0,0.0,0.0
0.0,0.0,0.0,0.0
190.178,-5.074,8.116,12.0
92.417,-2.483,3.464,17.0
92.382,-2.498,2.981,3.0
0.0,0.0,0.0,0.0
0.0,0.0,0.0,0.0
0.0,0.0,0.0,0.0
190.122,-5.284,8.443,13.0
92.377,-2.583,3.62,12.0
92.326,-2.598,3.139,180.0
0.0,0.0,0.0,0.0
0.0,0.0,0.0,0.0
47.284,-1.355,0.866,0.0
189.728,-5.478,8.758,19.0
92.322,-2.68,3.781,6.0
92.266,-2.695,3.3,78.0
0.0,0.0,0.0,0.0
0.0,0.0,0.0,0.0
0.0,0.0,0.0,0.0
189.786,-5.678,9.098,21.0
0.0,0.0,0.0,0.0
92.252,-2.789,3.462,37.0
92.333,-2.807,2.977,6.0
0.0,0.0,0.0,0.0
0.0,0.0,0.0,0.0
189.875,-5.875,9.444,18.0
190.831,-5.933,8.498,5.0
92.259,-2.883,3.629,37.0
92.179,-2.895,3.138,38.0
0.0,0.0,0.0,0.0
0.0,0.0,0.0,0.0
190.275,-6.073,9.807,18.0
190.477,-6.108,8.828,15.0
92.245,-2.971,3.795,7.0
92.251,-2.984,3.306,151.0
92.86,-3.018,2.847,5.0
0.0,0.0,0.0,0.0
131.022,-4.303,6.988,12.0
190.655,-6.289,9.176,21.0
0.0,0.0,0.0,0.0
92.239,-3.068,3.471,165.0
92.33,-3.084,2.996,11.0
0.0,0.0,0.0,0.0
131.857,-4.448,7.268,10.0
190.386,-6.446,9.502,17.0
189.985,-6.458,8.496,6.0
92.207,-3.146,3.635,43.0
92.151,-3.156,3.155,45.0
0.0,0.0,0.0,0.0
131.162,-4.536,7.466,13.0
123.569,-4.288,6.39,7.0
190.122,-6.622,8.845,20.0
92.284,-3.226,3.805,9.0
92.232,-3.235,3.324,151.0
92.881,-3.269,2.865,1.0
98.208,-3.476,5.769,17.0
113.386,-4.027,6.071,9.0
113.463,-4.044,5.486,11.0
0.0,0.0,0.0,0.0
92.224,-3.308,3.492,161.0
92.2,-3.318,3.014,13.0
98.036,-3.547,5.938,15.0
99.304,-3.604,5.499,21.0
113.365,-4.125,5.687,23.0
113.441,-4.141,5.09,13.0
92.192,-3.375,3.658,42.0
92.112,-3.382,3.178,47.0
98.783,-3.647,6.164,18.0
99.283,-3.675,5.679,17.0
113.291,-4.206,5.892,32.0
113.384,-4.221,5.298,31.0
92.254,-3.443,3.831,2.0
92.156,-3.449,3.349,47.0
98.93,-3.722,6.356,14.0
98.905,-3.731,5.84,20.0
113.323,-4.284,6.101,18.0
113.389,-4.298,5.505,17.0
93.208,-3.542,4.042,1.0
92.161,-3.51,3.518,44.0
88.055,-3.371,5.819,25.0
89.595,-3.438,5.455,13.0
113.572,-4.368,6.324,7.0
113.577,-4.377,5.723,6.0
0.0,0.0,0.0,0.0
92.205,-3.57,3.689,16.0
88.184,-3.43,5.99,29.0
89.616,-3.493,5.621,24.0
98.598,-3.851,5.671,18.0
113.635,-4.446,5.932,9.0
194.85,-7.64,9.162,16.0
0.0,0.0,0.0,0.0
88.63,-3.499,6.183,16.0
0.0,0.0,0.0,0.0
98.714,-3.911,5.859,12.0
98.039,-3.891,5.299,10.0
113.547,-4.514,5.547,6.0
93.267,-3.715,4.073,1.0
88.386,-3.538,6.329,19.0
88.429,-3.545,5.871,19.0
89.413,-3.59,5.471,16.0
89.523,-3.599,5.003,22.0
113.523,-4.572,5.753,7.0
0.0,0.0,0.0,0.0
87.657,-3.552,6.438,24.0
88.521,-3.592,6.039,16.0
89.451,-3.635,5.637,17.0
89.557,-3.643,5.169,13.0
98.068,-3.995,5.149,10.0
194.88,-7.95,9.22,8.0
88.537,-3.629,6.665,23.0
88.345,-3.624,6.189,16.0
89.033,-3.657,5.773,13.0
89.338,-3.673,5.319,14.0
89.54,-3.685,4.865,27.0
113.496,-4.677,5.576,10.0
88.229,-3.653,6.804,16.0
87.819,-3.639,6.313,13.0
89.376,-3.707,5.959,13.0
97.502,-4.047,5.982,14.0
89.517,-3.719,5.027,24.0
120.212,-5.0,6.125,14.0
88.13,-3.682,6.957,25.0
88.823,-3.713,6.546,16.0
95.001,-3.974,6.505,11.0
97.737,-4.091,6.172,17.0
89.433,-3.746,5.182,16.0
89.655,-3.758,4.729,17.0
88.463,-3.725,7.142,23.0
89.029,-3.751,6.722,18.0
87.831,-3.702,6.172,14.0
95.227,-4.016,6.186,17.0
97.839,-4.128,5.845,10.0
89.584,-3.782,4.886,8.0
91.795,-3.893,7.577,4.0
88.055,-3.735,6.808,15.0
88.792,-3.768,6.401,20.0
94.953,-4.03,6.339,12.0
97.877,-4.155,6.023,14.0
89.431,-3.798,5.038,11.0
93.978,-4.01,7.927,5.0
88.137,-3.76,6.972,20.0
89.049,-3.8,6.577,22.0
95.003,-4.054,6.512,16.0
91.245,-3.895,5.778,11.0
89.46,-3.818,5.198,13.0
87.252,-3.741,7.514,25.0
88.468,-3.793,7.154,9.0
89.182,-3.823,6.744,16.0
88.639,-3.8,6.231,13.0
91.268,-3.911,5.939,16.0
91.271,-3.911,5.463,17.0
87.199,-3.754,7.664,28.0
93.877,-4.041,7.758,5.0
88.035,-3.788,6.814,16.0
88.899,-3.824,6.406,19.0
91.31,-3.927,6.102,15.0
91.216,-3.921,5.62,18.0
87.346,-3.772,7.831,11.0
88.024,-3.8,7.429,9.0
88.172,-3.805,6.979,12.0
89.109,-3.843,6.576,23.0
94.915,-4.092,6.508,7.0
91.223,-3.931,5.779,21.0
84.397,-3.652,7.715,12.0
87.238,-3.773,7.515,26.0
91.89,-3.972,7.433,12.0
89.163,-3.852,6.736,24.0
88.819,-3.834,6.244,11.0
91.249,-3.937,5.938,21.0
84.413,-3.658,7.864,9.0
87.218,-3.776,7.665,29.0
93.961,-4.065,7.763,6.0
87.948,-3.801,6.796,16.0
88.954,-3.842,6.407,18.0
91.316,-3.941,6.098,14.0
82.424,-3.573,7.82,12.0
87.37,-3.784,7.828,10.0
88.024,-3.808,7.422,12.0
88.171,-3.811,6.962,11.0
89.1,-3.847,6.567,23.0
94.862,-4.091,6.495,9.0
82.105,-3.557,7.929,11.0
84.421,-3.653,7.706,11.0
87.201,-3.769,7.501,26.0
91.932,-3.968,7.415,10.0
89.211,-3.847,6.726,23.0
88.806,-3.826,6.228,7.0
81.876,-3.542,8.045,17.0
84.224,-3.639,7.83,11.0
87.21,-3.763,7.647,33.0
93.915,-4.046,7.731,4.0
87.986,-3.786,6.779,14.0
88.887,-3.82,6.381,16.0
84.156,-3.632,8.409,14.0
82.341,-3.548,7.791,14.0
87.343,-3.758,7.803,11.0
93.923,-4.035,7.886,7.0
88.149,-3.781,6.936,18.0
89.075,-3.816,6.539,22.0
79.109,-3.403,8.034,14.0
82.472,-3.542,7.938,15.0
84.175,-3.609,7.657,10.0
87.244,-3.734,7.466,22.0
88.444,-3.779,7.102,17.0
89.151,-3.803,6.689,18.0
79.13,-3.39,8.165,9.0
82.003,-3.506,8.026,18.0
82.444,-3.519,7.632,16.0
87.193,-3.714,7.602,29.0
88.605,-3.767,7.256,8.0
88.236,-3.745,6.76,15.0
81.311,-3.466,8.521,20.0
82.061,-3.49,8.162,14.0
82.317,-3.494,7.751,25.0
87.267,-3.697,7.745,11.0
93.963,-3.972,7.842,7.0
88.13,-3.718,6.89,21.0
81.419,-3.449,8.66,29.0
79.083,-3.343,7.99,12.0
82.349,-3.473,7.883,30.0
0.0,0.0,0.0,0.0
87.335,-3.668,7.424,18.0
88.338,-3.702,7.042,20.0
0.0,0.0,0.0,0.0
79.161,-3.324,8.121,22.0
82.516,-3.455,8.026,31.0
82.376,-3.441,7.567,18.0
87.146,-3.632,7.543,12.0
88.392,-3.676,7.182,19.0
80.1,-3.345,8.768,12.0
79.34,-3.304,8.262,10.0
82.154,-3.412,8.117,29.0
82.377,-3.413,7.692,29.0
84.398,-3.488,7.431,10.0
88.446,-3.646,7.319,22.0
80.616,-3.337,8.947,14.0
81.393,-3.359,8.597,26.0
82.065,-3.378,8.23,12.0
82.444,-3.384,7.821,29.0
84.04,-3.441,7.525,17.0
88.371,-3.607,7.443,8.0
80.919,-3.317,9.1,14.0
79.554,-3.252,8.52,13.0
78.976,-3.218,8.036,19.0
82.041,-3.334,7.901,19.0
82.117,-3.328,7.47,11.0
84.064,-3.396,7.2,8.0
64.903,-2.633,7.393,20.0
79.741,-3.225,8.655,18.0
64.441,-2.598,6.65,18.0
81.742,-3.285,7.989,24.0
82.163,-3.292,7.592,20.0
84.177,-3.362,7.33,7.0
81.154,-3.254,9.36,14.0
80.145,-3.203,8.813,16.0
64.476,-2.568,6.744,14.0
81.705,-3.243,8.101,21.0
82.247,-3.254,7.715,19.0
84.273,-3.323,7.455,4.0
81.316,-3.22,9.493,19.0
64.978,-2.563,7.236,21.0
79.589,-3.129,8.435,10.0
82.032,-3.214,8.246,12.0
66.151,-2.583,6.295,8.0
81.959,-3.189,7.36,16.0
81.462,-3.181,9.622,20.0
64.95,-2.528,7.321,24.0
80.03,-3.102,8.59,15.0
64.388,-2.487,6.559,22.0
66.11,-2.544,6.379,18.0
82.092,-3.148,7.482,27.0
81.478,-3.135,9.733,28.0
65.002,-2.492,7.414,21.0
79.364,-3.031,8.623,19.0
64.211,-2.443,6.625,38.0
78.689,-2.982,7.696,9.0
82.218,-3.104,7.6,8.0
81.439,-3.085,9.835,27.0
81.485,-3.074,9.399,12.0
64.511,-2.424,7.093,18.0
63.896,-2.392,6.674,30.0
78.639,-2.932,7.791,24.0
66.147,-2.455,6.198,16.0
81.512,-3.036,9.948,32.0
81.442,-3.021,9.497,22.0
64.241,-2.373,7.144,30.0
63.909,-2.351,6.755,29.0
64.743,-2.371,6.494,20.0
66.238,-2.416,6.288,23.0
81.609,-2.987,10.059,15.0
81.507,-2.97,9.604,28.0
64.37,-2.335,7.236,38.0
64.023,-2.312,6.844,29.0
64.622,-2.323,6.559,32.0
66.218,-2.37,6.365,16.0
79.73,-2.863,9.924,8.0
76.904,-2.749,9.153,12.0
64.062,-2.279,7.277,17.0
64.443,-2.282,6.965,40.0
64.301,-2.266,6.601,38.0
64.637,-2.267,6.287,10.0
79.777,-2.808,10.023,16.0
77.07,-2.698,9.263,29.0
78.723,-2.744,9.033,7.0
64.381,-2.232,7.032,36.0
64.107,-2.212,6.655,31.0
64.918,-2.229,6.388,35.0
79.979,-2.754,10.139,30.0
77.17,-2.644,9.362,28.0
78.819,-2.686,9.133,10.0
64.427,-2.185,7.109,34.0
64.275,-2.168,6.743,34.0
64.706,-2.172,6.438,30.0
80.096,-2.696,10.243,30.0
77.346,-2.589,9.468,32.0
80.886,-2.693,9.46,9.0
64.234,-2.127,7.156,31.0
64.429,-2.122,6.828,34.0
64.804,-2.124,6.515,28.0
80.191,-2.635,10.34,29.0
77.415,-2.529,9.558,21.0
64.917,-2.109,7.66,10.0
64.243,-2.076,7.223,21.0
64.524,-2.074,6.903,27.0
64.775,-2.069,6.579,33.0
80.203,-2.568,10.423,21.0
77.045,-2.454,9.59,11.0
64.855,-2.053,7.717,24.0
64.647,-2.035,7.332,8.0
64.598,-2.022,6.974,34.0
64.662,-2.011,6.629,32.0
79.631,-2.483,10.426,13.0
76.594,-2.374,9.607,26.0
64.824,-1.997,7.775,10.0
65.121,-1.994,7.448,20.0
64.555,-1.965,7.03,28.0
64.661,-1.956,6.689,39.0
79.837,-2.419,10.528,15.0
76.463,-2.302,9.662,28.0
76.665,-2.294,9.266,22.0
65.184,-1.938,7.514,24.0
64.691,-1.911,7.103,27.0
64.56,-1.895,6.736,29.0
79.447,-2.336,10.548,29.0
76.449,-2.233,9.728,28.0
77.158,-2.24,9.393,11.0
65.049,-1.876,7.555,30.0
64.685,-1.853,7.158,36.0
64.665,-1.84,6.802,26.0
79.658,-2.269,10.644,15.0
76.774,-2.172,9.834,21.0
77.394,-2.175,9.487,20.0
77.231,-2.156,9.033,25.0
64.659,-1.792,7.208,33.0
64.732,-1.782,6.861,30.0
79.202,-2.183,10.647,18.0
77.078,-2.109,9.935,23.0
77.371,-2.102,9.545,21.0
77.337,-2.086,9.106,27.0
64.779,-1.735,7.271,32.0
64.663,-1.719,6.903,26.0
79.192,-2.108,10.707,26.0
76.558,-2.021,9.926,23.0
77.686,-2.035,9.642,5.0
77.59,-2.018,9.194,18.0
64.83,-1.673,7.324,8.0
64.638,-1.656,6.947,31.0
79.078,-2.026,10.749,27.0
76.167,-1.936,9.931,12.0
78.959,-1.991,9.857,6.0
77.265,-1.933,9.21,15.0
75.716,-1.88,8.607,10.0
64.537,-1.59,6.981,25.0
79.24,-1.951,10.826,17.0
63.917,-1.56,8.377,32.0
76.933,-1.863,9.656,27.0
76.022,-1.826,9.112,16.0
75.783,-1.805,8.664,22.0
64.761,-1.53,7.047,28.0
76.08,-1.796,10.444,20.0
63.938,-1.496,8.42,26.0
76.891,-1.784,9.698,24.0
75.923,-1.746,9.147,21.0
65.096,-1.484,7.482,9.0
65.229,-1.474,7.136,15.0
63.997,-1.445,8.823,10.0
64.135,-1.435,8.484,34.0
73.407,-1.627,9.301,8.0
76.065,-1.671,9.207,22.0
65.044,-1.416,7.512,21.0
65.074,-1.403,7.155,20.0
64.044,-1.379,8.865,6.0
64.115,-1.367,8.516,31.0
73.414,-1.551,9.342,20.0
75.765,-1.585,9.211,16.0
64.999,-1.346,7.541,20.0
65.042,-1.335,7.185,24.0
76.878,-1.573,10.681,8.0
64.187,-1.301,8.558,38.0
73.454,-1.474,9.383,28.0
73.61,-1.462,8.985,13.0
75.196,-1.478,8.76,11.0
65.001,-1.265,7.211,27.0
65.089,-1.263,9.074,15.0
64.701,-1.242,8.656,40.0
73.798,-1.401,9.46,13.0
73.698,-1.385,9.028,27.0
73.763,-1.371,8.624,9.0
64.936,-1.193,7.231,27.0
64.878,-1.189,9.071,35.0
64.17,-1.162,8.611,30.0
73.993,-1.325,9.515,18.0
73.971,-1.309,9.09,23.0
73.739,-1.29,8.65,16.0
64.984,-1.124,7.261,26.0
65.032,-1.12,9.117,36.0
64.251,-1.093,8.646,34.0
58.6,-0.985,7.556,27.0
59.457,-0.987,7.327,17.0
73.85,-1.211,8.688,18.0
64.976,-1.053,7.281,30.0
65.013,-1.048,9.136,20.0
64.249,-1.022,8.666,28.0
64.026,-1.005,8.276,19.0
57.934,-0.898,7.157,19.0
66.606,-1.018,7.855,14.0
65.197,-0.984,7.325,22.0
64.206,-0.963,9.041,26.0
57.616,-0.852,7.787,12.0
58.67,-0.856,7.599,19.0
57.934,-0.833,7.172,31.0
67.003,-0.95,7.919,24.0
65.304,-0.913,7.353,20.0
64.308,-0.892,9.07,12.0
57.624,-0.787,7.802,25.0
58.712,-0.791,7.617,15.0
57.963,-0.768,7.188,29.0
66.551,-0.869,7.879,8.0
63.853,-0.821,7.202,17.0
64.304,-0.819,9.082,28.0
57.56,-0.722,7.803,31.0
58.68,-0.724,7.623,21.0
58.018,-0.704,7.204,32.0
59.626,-0.712,7.068,13.0
63.89,-0.749,7.215,9.0
62.971,-0.73,8.903,8.0
57.638,-0.657,7.822,31.0
64.1,-0.717,8.335,13.0
58.09,-0.639,7.22,31.0
59.691,-0.645,7.082,15.0
59.594,-0.632,6.736,25.0
62.914,-0.659,8.9,20.0
57.701,-0.593,7.835,32.0
58.202,-0.586,7.573,26.0
0.0,0.0,0.0,0.0
59.633,-0.577,7.079,16.0
59.653,-0.566,6.746,27.0
62.99,-0.588,8.914,19.0
57.852,-0.528,7.858,32.0
57.984,-0.518,7.546,32.0
56.963,-0.497,7.085,26.0
62.978,-0.537,7.477,16.0
59.669,-0.498,6.748,25.0
51.297,-0.419,7.259,13.0
58.125,-0.464,7.894,32.0
58.062,-0.452,7.556,32.0
57.001,-0.433,7.088,28.0
63.208,-0.468,7.503,24.0
65.097,-0.469,7.359,10.0
51.318,-0.361,7.26,22.0
57.924,-0.396,7.864,28.0
58.175,-0.386,7.567,32.0
57.145,-0.369,7.102,31.0
59.68,-0.374,7.079,17.0
65.143,-0.396,7.359,11.0
58.539,-0.345,8.276,10.0
57.923,-0.33,7.858,25.0
58.158,-0.32,7.558,32.0
56.994,-0.303,7.077,31.0
59.642,-0.306,7.067,33.0
63.316,-0.313,7.144,21.0
51.373,-0.243,7.256,21.0
57.978,-0.264,7.857,17.0
58.228,-0.254,7.558,32.0
56.982,-0.239,7.066,30.0
59.527,-0.238,7.044,26.0
63.287,-0.241,7.13,11.0
51.386,-0.185,7.248,21.0
52.079,-0.178,7.047,18.0
58.221,-0.188,7.546,32.0
56.988,-0.173,7.055,24.0
59.429,-0.17,7.019,8.0
63.259,-0.169,7.113,21.0
51.516,-0.127,7.254,17.0
51.625,-0.117,6.973,26.0
58.248,-0.122,7.535,27.0
57.048,-0.109,7.048,27.0
59.663,-0.103,7.031,25.0
59.727,-0.092,6.699,6.0
51.526,-0.068,7.241,21.0
51.263,-0.059,6.91,25.0
48.833,-0.047,6.302,15.0
57.11,-0.044,7.038,31.0
57.264,-0.034,6.731,16.0
56.604,-0.024,6.331,10.0
51.718,-0.009,7.251,23.0
51.385,0.0,6.909,25.0
48.865,0.008,6.29,19.0
57.598,0.019,7.078,32.0
59.609,0.031,6.985,7.0
59.09,0.041,6.588,11.0
51.859,0.048,7.251,27.0
51.297,0.057,6.877,34.0
48.927,0.063,6.278,21.0
57.78,0.084,7.077,32.0
57.257,0.093,6.686,21.0
56.439,0.101,6.269,20.0
48.216,0.099,6.721,18.0
51.433,0.114,6.873,25.0
49.009,0.117,6.268,15.0
57.265,0.147,6.989,31.0
57.337,0.157,6.67,23.0
56.377,0.163,6.237,24.0
48.231,0.152,6.701,20.0
51.407,0.171,6.846,26.0
49.044,0.171,6.249,16.0
57.633,0.21,7.006,27.0
57.309,0.219,6.639,20.0
56.386,0.224,6.21,25.0
48.314,0.205,6.688,17.0
48.413,0.214,6.422,13.0
58.499,0.268,7.423,10.0
57.892,0.274,7.007,10.0
56.921,0.279,6.563,30.0
56.381,0.286,6.178,24.0
48.354,0.258,6.666,26.0
48.435,0.266,6.398,15.0
58.432,0.33,7.381,9.0
60.205,0.35,7.252,24.0
56.933,0.34,6.531,31.0
56.549,0.347,6.164,30.0
48.626,0.311,6.674,23.0
51.807,0.34,6.811,7.0
58.326,0.392,7.332,9.0
60.325,0.415,7.229,20.0
56.784,0.399,6.479,30.0
56.887,0.408,6.165,25.0
48.445,0.362,6.618,19.0
51.788,0.394,6.775,22.0
58.336,0.454,7.295,20.0
60.21,0.477,7.176,35.0
56.749,0.458,6.437,31.0
57.174,0.47,6.158,31.0
48.701,0.415,6.62,23.0
48.378,0.419,6.295,22.0
58.327,0.514,7.252,22.0
62.662,0.562,7.424,20.0
57.043,0.52,6.43,30.0
57.257,0.53,6.125,31.0
48.614,0.465,6.572,25.0
48.26,0.468,6.244,22.0
58.242,0.573,7.198,15.0
60.433,0.604,7.114,14.0
52.63,0.533,5.892,21.0
57.45,0.59,6.102,12.0
48.969,0.517,6.581,23.0
48.439,0.519,6.229,22.0
58.904,0.639,7.234,19.0
48.536,0.533,5.675,9.0
52.609,0.585,5.848,14.0
50.397,0.568,5.312,15.0
48.907,0.566,6.533,23.0
48.405,0.567,6.184,27.0
49.202,0.583,6.001,21.0
48.66,0.583,5.649,22.0
52.588,0.637,5.801,18.0
57.53,0.705,6.016,13.0
47.337,0.595,6.282,27.0
48.423,0.615,6.145,30.0
62.831,0.806,7.608,12.0
48.89,0.634,5.632,21.0
57.16,0.748,6.255,24.0
50.176,0.663,5.202,27.0
47.367,0.641,6.243,14.0
48.506,0.662,6.11,22.0
49.066,0.677,5.896,23.0
52.644,0.733,6.016,20.0
57.24,0.804,6.21,13.0
50.168,0.711,5.154,10.0
47.408,0.687,6.203,12.0
49.02,0.716,6.128,23.0
48.861,0.72,5.825,28.0
50.289,0.747,5.698,15.0
50.334,0.754,5.412,23.0
55.035,0.831,5.6,6.0
0.0,0.0,0.0,0.0
48.997,0.761,6.076,26.0
48.76,0.763,5.763,21.0
50.215,0.792,5.639,24.0
50.327,0.799,5.361,23.0
55.12,0.882,5.553,10.0
0.0,0.0,0.0,0.0
48.874,0.803,6.01,40.0
48.802,0.808,5.718,26.0
50.064,0.834,5.57,26.0
50.275,0.843,5.302,26.0
49.443,0.835,4.929,14.0
49.046,0.844,6.265,23.0
48.879,0.846,5.959,37.0
50.381,0.878,5.848,23.0
50.132,0.878,5.523,24.0
57.605,1.015,6.013,7.0
55.134,0.978,5.436,9.0
49.034,0.886,6.209,23.0
48.599,0.883,5.87,25.0
50.232,0.918,5.775,33.0
50.295,0.924,5.484,15.0
55.069,1.017,5.686,6.0
57.25,1.063,5.58,2.0
48.998,0.927,6.147,22.0
48.727,0.926,5.829,32.0
50.166,0.958,5.709,28.0
50.362,0.966,5.434,24.0
55.166,1.064,5.632,12.0
60.972,1.182,5.873,9.0
48.931,0.964,6.082,33.0
48.749,0.965,5.774,21.0
50.139,0.997,5.646,26.0
50.059,1.001,5.341,24.0
49.286,0.989,4.973,23.0
57.779,1.165,5.496,18.0
48.868,1.002,6.014,35.0
50.206,1.033,5.885,28.0
50.101,1.035,5.581,27.0
49.947,1.036,5.268,24.0
55.492,1.156,5.531,8.0
57.628,1.206,5.41,27.0
48.793,1.037,5.943,36.0
50.269,1.073,5.829,26.0
49.747,1.065,5.478,23.0
49.969,1.074,5.207,24.0
61.001,1.316,6.003,20.0
57.145,1.238,5.292,31.0
48.736,1.071,5.873,35.0
50.117,1.105,5.746,24.0
