X,Y,Z,Reflectivity
0.0,0.0,0.0,0.0
0.0,0.0,0.0,0.0
0.0,0.0,0.0,0.0
7.393,0.428,-0.752,0.0
9.203,0.529,-0.675,0.0
0.0,0.0,0.0,0.0
0.0,0.0,0.0,0.0
0.0,0.0,0.0,0.0
0.0,0.0,0.0,0.0
7.437,0.419,-0.752,0.0
9.208,0.516,-0.671,0.0
0.0,0.0,0.0,0.0
0.0,0.0,0.0,0.0
0.0,0.0,0.0,0.0
0.0,0.0,0.0,0.0
7.431,0.408,-0.747,0.0
0.0,0.0,0.0,0.0
0.0,0.0,0.0,0.0
0.0,0.0,0.0,0.0
0.0,0.0,0.0,0.0
0.0,0.0,0.0,0.0
7.424,0.397,-0.742,0.0
0.0,0.0,0.0,0.0
0.0,0.0,0.0,0.0
0.0,0.0,0.0,0.0
0.0,0.0,0.0,0.0
0.0,0.0,0.0,0.0
7.485,0.389,-0.743,0.0
9.296,0.48,-0.66,0.0
0.0,0.0,0.0,0.0
0.0,0.0,0.0,0.0
0.0,0.0,0.0,0.0
0.0,0.0,0.0,0.0
0.0,0.0,0.0,0.0
9.404,0.472,-0.661,0.0
0.0,0.0,0.0,0.0
0.0,0.0,0.0,0.0
0.0,0.0,0.0,0.0
0.0,0.0,0.0,0.0
0.0,0.0,0.0,0.0
0.0,0.0,0.0,0.0
0.0,0.0,0.0,0.0
0.0,0.0,0.0,0.0
0.0,0.0,0.0,0.0
0.0,0.0,0.0,0.0
9.617,0.455,-0.661,0.0
0.0,0.0,0.0,0.0
0.0,0.0,0.0,0.0
0.0,0.0,0.0,0.0
0.0,0.0,0.0,0.0
0.0,0.0,0.0,0.0
9.556,0.439,-0.649,0.0
0.0,0.0,0.0,0.0
0.0,0.0,0.0,0.0
0.0,0.0,0.0,0.0
0.0,0.0,0.0,0.0
0.0,0.0,0.0,0.0
9.752,0.434,-0.653,0.0
0.0,0.0,0.0,0.0
0.0,0.0,0.0,0.0
0.0,0.0,0.0,0.0
0.0,0.0,0.0,0.0
0.0,0.0,0.0,0.0
9.804,0.422,-0.648,0.0
0.0,0.0,0.0,0.0
0.0,0.0,0.0,0.0
0.0,0.0,0.0,0.0
0.0,0.0,0.0,0.0
0.0,0.0,0.0,0.0
9.837,0.41,-0.64,0.0
0.0,0.0,0.0,0.0
8.963,0.369,-0.681,0.0
0.0,0.0,0.0,0.0
0.0,0.0,0.0,0.0
0.0,0.0,0.0,0.0
9.963,0.401,-0.639,0.0
0.0,0.0,0.0,0.0
0.0,0.0,0.0,0.0
0.0,0.0,0.0,0.0
8.309,0.327,-0.713,0.0
0.0,0.0,0.0,0.0
10.104,0.392,-0.637,0.0
0.0,0.0,0.0,0.0
0.0,0.0,0.0,0.0
0.0,0.0,0.0,0.0
0.0,0.0,0.0,0.0
8.031,0.303,-0.724,0.0
10.213,0.382,-0.633,0.0
9.741,0.362,-0.656,0.0
0.0,0.0,0.0,0.0
0.0,0.0,0.0,0.0
0.0,0.0,0.0,0.0
8.103,0.294,-0.722,0.0
10.307,0.372,-0.627,0.0
9.819,0.352,-0.65,0.0
0.0,0.0,0.0,0.0
0.0,0.0,0.0,0.0
8.557,0.301,-0.706,0.0
8.174,0.286,-0.718,0.0
10.386,0.361,-0.62,0.0
9.868,0.34,-0.642,0.0
0.0,0.0,0.0,0.0
0.0,0.0,0.0,0.0
0.0,0.0,0.0,0.0
8.225,0.276,-0.713,0.0
10.497,0.35,-0.613,0.0
10.038,0.333,-0.64,0.0
0.0,0.0,0.0,0.0
0.0,0.0,0.0,0.0
0.0,0.0,0.0,0.0
8.348,0.269,-0.713,0.0
10.656,0.341,-0.61,0.0
10.112,0.322,-0.633,0.0
9.648,0.305,-0.655,0.0
0.0,0.0,0.0,0.0
0.0,0.0,0.0,0.0
8.344,0.258,-0.702,0.0
10.715,0.329,-0.599,0.0
10.237,0.312,-0.627,0.0
0.0,0.0,0.0,0.0
0.0,0.0,0.0,0.0
0.0,0.0,0.0,0.0
8.45,0.25,-0.7,0.0
10.978,0.323,-0.599,0.0
10.344,0.302,-0.62,0.0
9.943,0.288,-0.649,0.0
9.413,0.271,-0.666,0.0
0.0,0.0,0.0,0.0
8.615,0.244,-0.701,0.0
11.142,0.314,-0.593,0.0
10.522,0.294,-0.616,0.0
10.051,0.279,-0.642,0.0
0.0,0.0,0.0,0.0
9.046,0.247,-0.676,0.0
0.0,0.0,0.0,0.0
11.272,0.303,-0.585,0.0
10.623,0.283,-0.607,0.0
10.189,0.27,-0.637,0.0
0.0,0.0,0.0,0.0
0.0,0.0,0.0,0.0
8.763,0.226,-0.689,0.0
11.429,0.293,-0.576,0.0
10.869,0.276,-0.606,0.0
10.273,0.259,-0.627,0.0
9.752,0.244,-0.648,0.0
0.0,0.0,0.0,0.0
8.88,0.218,-0.685,0.0
11.662,0.285,-0.571,0.0
10.932,0.265,-0.593,0.0
10.465,0.251,-0.623,0.0
9.914,0.236,-0.644,0.0
0.0,0.0,0.0,0.0
9.025,0.211,-0.682,0.0
11.857,0.275,-0.563,0.0
11.204,0.258,-0.591,0.0
10.556,0.241,-0.613,0.0
10.09,0.228,-0.64,0.0
0.0,0.0,0.0,0.0
9.061,0.201,-0.671,0.0
12.01,0.265,-0.552,0.0
11.35,0.248,-0.581,0.0
10.756,0.233,-0.608,0.0
10.145,0.217,-0.628,0.0
9.652,0.205,-0.649,0.0
9.23,0.194,-0.669,0.0
12.278,0.257,-0.545,0.0
11.531,0.239,-0.573,0.0
10.899,0.223,-0.599,0.0
10.325,0.21,-0.623,0.0
9.818,0.197,-0.644,0.0
9.363,0.186,-0.664,0.0
12.459,0.246,-0.533,0.0
11.732,0.23,-0.564,0.0
11.09,0.215,-0.591,0.0
10.461,0.201,-0.614,0.0
10.008,0.19,-0.64,0.0
9.465,0.178,-0.656,0.0
12.683,0.237,-0.522,0.0
11.941,0.221,-0.554,0.0
11.218,0.205,-0.58,0.0
10.675,0.193,-0.609,0.0
10.158,0.182,-0.633,0.0
9.759,0.173,-0.66,0.0
12.928,0.227,-0.51,0.0
12.217,0.212,-0.546,0.0
11.504,0.198,-0.575,0.0
10.879,0.185,-0.602,0.0
10.317,0.173,-0.626,0.0
9.795,0.163,-0.646,0.0
13.218,0.218,-0.5,0.0
12.431,0.203,-0.535,0.0
11.731,0.189,-0.567,0.0
11.061,0.176,-0.594,0.0
10.496,0.166,-0.618,0.0
10.014,0.156,-0.643,0.0
13.483,0.209,-0.487,0.0
12.721,0.195,-0.526,0.0
11.929,0.18,-0.555,0.0
11.241,0.168,-0.584,0.0
10.615,0.157,-0.607,0.0
10.152,0.148,-0.634,0.0
13.868,0.201,-0.476,0.0
12.934,0.185,-0.512,0.0
12.234,0.173,-0.548,0.0
11.459,0.16,-0.575,0.0
10.89,0.15,-0.603,0.0
10.284,0.14,-0.624,0.0
14.113,0.191,-0.46,0.0
13.219,0.176,-0.5,0.0
12.419,0.163,-0.534,0.0
11.705,0.152,-0.566,0.0
11.089,0.142,-0.594,0.0
10.482,0.132,-0.617,0.0
14.507,0.182,-0.446,0.0
13.477,0.167,-0.485,0.0
12.71,0.155,-0.524,0.0
11.961,0.144,-0.556,0.0
11.32,0.134,-0.586,0.0
10.715,0.125,-0.611,0.0
14.862,0.173,-0.43,0.0
13.831,0.159,-0.472,0.0
12.951,0.146,-0.51,0.0
12.224,0.136,-0.546,0.0
11.538,0.127,-0.576,0.0
10.906,0.118,-0.601,0.0
15.337,0.165,-0.415,0.0
14.199,0.15,-0.458,0.0
13.287,0.139,-0.498,0.0
12.425,0.128,-0.532,0.0
11.749,0.119,-0.564,0.0
11.162,0.111,-0.594,0.0
15.787,0.156,-0.398,0.0
14.545,0.142,-0.442,0.0
13.628,0.131,-0.485,0.0
12.73,0.12,-0.521,0.0
11.985,0.111,-0.553,0.0
11.366,0.104,-0.584,0.0
16.215,0.147,-0.378,0.0
14.929,0.133,-0.426,0.0
13.911,0.122,-0.469,0.0
13.041,0.113,-0.509,0.0
12.344,0.105,-0.546,0.0
11.597,0.097,-0.573,0.0
16.695,0.138,-0.358,0.0
15.403,0.125,-0.41,0.0
14.272,0.114,-0.454,0.0
13.283,0.104,-0.493,0.0
12.522,0.097,-0.53,0.0
11.849,0.09,-0.563,0.0
17.153,0.129,-0.335,0.0
15.905,0.118,-0.393,0.0
14.705,0.107,-0.439,0.0
13.689,0.097,-0.481,0.0
12.774,0.089,-0.515,0.0
12.127,0.083,-0.552,0.0
17.838,0.121,-0.313,0.0
16.432,0.109,-0.373,0.0
15.167,0.099,-0.423,0.0
14.041,0.09,-0.466,0.0
13.083,0.082,-0.502,0.0
12.426,0.076,-0.541,0.0
18.602,0.113,-0.289,0.0
16.85,0.101,-0.349,0.0
15.666,0.092,-0.406,0.0
14.417,0.083,-0.45,0.0
13.548,0.076,-0.493,0.0
12.637,0.069,-0.525,0.0
19.612,0.107,-0.266,0.0
17.401,0.092,-0.326,0.0
16.122,0.084,-0.386,0.0
14.901,0.076,-0.435,0.0
13.892,0.069,-0.477,0.0
12.98,0.063,-0.513,0.0
20.823,0.1,-0.241,0.0
18.119,0.085,-0.303,0.0
16.6,0.076,-0.363,0.0
15.371,0.069,-0.418,0.0
14.189,0.062,-0.459,0.0
13.215,0.056,-0.496,0.0
21.61,0.091,-0.206,4.0
18.967,0.078,-0.279,0.0
17.086,0.068,-0.339,0.0
15.807,0.062,-0.397,0.0
14.626,0.055,-0.443,0.0
13.617,0.05,-0.483,0.0
23.068,0.084,-0.173,1.0
20.032,0.071,-0.254,0.0
17.762,0.061,-0.316,0.0
16.387,0.055,-0.378,0.0
15.11,0.049,-0.427,0.0
14.027,0.044,-0.468,0.0
23.98,0.075,-0.13,0.0
21.216,0.064,-0.224,4.0
18.527,0.054,-0.292,0.0
16.838,0.048,-0.353,0.0
15.62,0.043,-0.409,0.0
14.407,0.038,-0.451,0.0
25.138,0.066,-0.084,0.0
22.12,0.056,-0.189,0.0
19.623,0.048,-0.268,0.0
17.381,0.041,-0.329,0.0
16.131,0.037,-0.389,0.0
14.962,0.033,-0.438,0.0
26.256,0.057,-0.034,0.0
23.541,0.049,-0.151,1.0
20.924,0.042,-0.242,1.0
18.232,0.035,-0.307,0.0
16.647,0.031,-0.366,0.0
15.384,0.027,-0.418,0.0
27.441,0.048,0.022,0.0
24.675,0.042,-0.106,0.0
21.622,0.035,-0.204,1.0
19.067,0.029,-0.281,0.0
17.197,0.025,-0.342,0.0
15.934,0.022,-0.399,0.0
28.709,0.04,0.083,2.0
25.894,0.034,-0.057,0.0
23.297,0.029,-0.172,0.0
20.239,0.024,-0.255,0.0
17.844,0.02,-0.317,0.0
16.458,0.017,-0.377,0.0
30.044,0.031,0.15,0.0
26.933,0.026,-0.003,0.0
23.998,0.022,-0.126,0.0
21.207,0.018,-0.223,4.0
18.581,0.015,-0.291,0.0
16.947,0.013,-0.352,0.0
31.828,0.023,0.227,0.0
28.441,0.019,0.056,1.0
25.367,0.016,-0.079,0.0
22.314,0.013,-0.187,0.0
19.737,0.01,-0.267,0.0
17.562,0.008,-0.328,0.0
33.276,0.015,0.308,0.0
28.876,0.012,0.119,0.0
26.535,0.01,-0.026,0.0
23.688,0.007,-0.148,1.0
21.005,0.006,-0.239,2.0
18.388,0.004,-0.304,0.0
0.0,0.0,0.0,0.0
30.77,0.005,0.192,0.0
27.858,0.004,0.03,0.0
24.91,0.003,-0.102,0.0
21.877,0.002,-0.203,0.0
19.349,0.001,-0.279,0.0
0.0,0.0,0.0,0.0
33.106,0.0,0.278,0.0
28.738,0.0,0.093,1.0
26.03,-0.001,-0.051,0.0
23.535,-0.001,-0.167,0.0
20.69,-0.002,-0.254,0.0
0.0,0.0,0.0,0.0
35.03,-0.005,0.369,0.0
30.174,-0.005,0.163,0.0
27.382,-0.005,0.004,0.0
24.317,-0.005,-0.121,0.0
21.385,-0.004,-0.216,2.0
0.0,0.0,0.0,0.0
37.7,-0.01,0.478,0.0
32.932,-0.009,0.248,0.0
28.592,-0.008,0.066,1.0
25.67,-0.007,-0.072,0.0
23.155,-0.007,-0.184,0.0
0.0,0.0,0.0,0.0
40.269,-0.014,0.598,0.0
33.657,-0.012,0.327,0.0
30.152,-0.01,0.134,0.0
26.743,-0.009,-0.017,0.0
23.861,-0.008,-0.138,1.0
0.0,0.0,0.0,0.0
0.0,0.0,0.0,0.0
36.304,-0.014,0.43,0.0
31.147,-0.012,0.206,0.0
28.348,-0.01,0.041,1.0
25.228,-0.009,-0.092,0.0
0.0,0.0,0.0,0.0
0.0,0.0,0.0,0.0
0.0,0.0,0.0,0.0
33.231,-0.012,0.29,0.0
28.806,-0.01,0.103,0.0
26.272,-0.009,-0.04,0.0
78.104,-0.029,2.065,3.0
0.0,0.0,0.0,0.0
42.626,-0.014,0.688,0.0
35.868,-0.011,0.391,0.0
30.821,-0.009,0.177,0.0
27.736,-0.008,0.017,0.0
82.671,-0.026,2.362,2.0
0.0,0.0,0.0,0.0
0.0,0.0,0.0,0.0
37.861,-0.009,0.493,0.0
33.058,-0.007,0.26,0.0
28.686,-0.005,0.078,1.0
83.174,-0.017,2.554,9.0
77.93,-0.014,1.991,3.0
0.0,0.0,0.0,0.0
41.315,-0.005,0.626,0.0
34.376,-0.003,0.344,0.0
30.182,-0.001,0.147,0.0
83.311,-0.006,2.735,15.0
77.932,-0.003,2.158,3.0
0.0,0.0,0.0,0.0
0.0,0.0,0.0,0.0
0.0,0.0,0.0,0.0
0.0,0.0,0.0,0.0
83.319,0.008,2.914,15.0
82.935,0.011,2.473,6.0
0.0,0.0,0.0,0.0
0.0,0.0,0.0,0.0
0.0,0.0,0.0,0.0
33.334,0.01,0.303,0.0
83.392,0.026,3.094,3.0
83.277,0.03,2.659,18.0
77.631,0.032,2.078,3.0
0.0,0.0,0.0,0.0
0.0,0.0,0.0,0.0
36.15,0.02,0.405,0.0
83.261,0.046,3.263,2.0
83.289,0.051,2.833,23.0
82.742,0.055,2.388,3.0
0.0,0.0,0.0,0.0
0.0,0.0,0.0,0.0
38.11,0.032,0.507,0.0
83.298,0.07,3.439,1.0
83.315,0.075,3.01,26.0
83.171,0.081,2.574,8.0
77.156,0.08,1.983,3.0
0.0,0.0,0.0,0.0
41.588,0.049,0.64,0.0
83.314,0.097,3.615,7.0
83.309,0.103,3.183,34.0
78.044,0.102,2.58,12.0
77.624,0.107,2.158,4.0
0.0,0.0,0.0,0.0
0.0,0.0,0.0,0.0
83.309,0.127,3.786,13.0
83.298,0.133,3.354,33.0
83.265,0.139,2.921,30.0
78.105,0.137,2.329,9.0
76.54,0.14,1.887,1.0
0.0,0.0,0.0,0.0
83.3,0.16,3.957,23.0
83.291,0.166,3.525,40.0
83.253,0.173,3.093,40.0
83.187,0.181,2.652,19.0
76.717,0.173,2.049,3.0
0.0,0.0,0.0,0.0
83.255,0.195,4.127,25.0
83.262,0.203,3.695,47.0
83.255,0.211,3.264,41.0
78.03,0.205,2.648,17.0
78.064,0.212,2.246,6.0
0.0,0.0,0.0,0.0
83.23,0.234,4.296,24.0
83.26,0.242,3.865,45.0
83.259,0.251,3.433,42.0
83.25,0.259,2.993,34.0
83.128,0.267,2.559,13.0
75.983,0.251,1.945,3.0
83.231,0.276,4.464,26.0
83.251,0.284,4.032,43.0
83.262,0.293,3.601,41.0
83.275,0.302,3.161,49.0
83.214,0.311,2.727,14.0
75.984,0.292,2.096,0.0
83.203,0.321,4.63,30.0
83.223,0.33,4.198,25.0
83.256,0.339,3.766,41.0
83.281,0.348,3.327,45.0
83.321,0.358,2.896,14.0
77.826,0.343,2.301,6.0
83.193,0.368,4.793,25.0
83.238,0.377,4.362,33.0
83.29,0.387,3.932,27.0
83.295,0.397,3.491,13.0
79.396,0.388,2.916,7.0
78.087,0.391,2.463,25.0
83.172,0.418,4.956,18.0
79.312,0.408,4.314,6.0
79.345,0.418,3.901,10.0
79.359,0.428,3.481,10.0
79.4,0.438,3.071,5.0
78.115,0.441,2.616,14.0
79.337,0.45,4.883,8.0
79.366,0.46,4.471,8.0
79.312,0.469,4.054,10.0
79.342,0.48,3.635,11.0
79.37,0.49,3.222,9.0
0.0,0.0,0.0,0.0
79.35,0.502,5.035,4.0
79.301,0.513,4.618,4.0
79.297,0.523,4.205,10.0
79.361,0.535,3.787,5.0
79.372,0.545,3.374,11.0
79.427,0.557,2.962,3.0
76.406,0.537,4.995,10.0
79.377,0.569,4.774,3.0
79.348,0.581,4.358,9.0
79.348,0.591,3.935,10.0
79.37,0.603,3.522,11.0
0.0,0.0,0.0,0.0
76.691,0.596,5.158,27.0
76.831,0.608,4.765,3.0
79.399,0.64,4.508,5.0
79.309,0.65,4.08,8.0
79.35,0.663,3.668,7.0
79.369,0.674,3.255,8.0
76.79,0.655,5.306,17.0
76.609,0.665,4.892,6.0
79.366,0.701,4.651,2.0
79.323,0.712,4.226,7.0
79.357,0.724,3.813,6.0
79.373,0.737,3.397,11.0
62.914,0.587,4.462,9.0
76.687,0.726,5.035,21.0
76.753,0.739,4.637,8.0
79.351,0.776,4.37,10.0
79.376,0.789,3.956,3.0
109.166,1.103,4.871,5.0
75.996,0.771,5.527,16.0
76.272,0.786,5.146,19.0
76.637,0.802,4.767,9.0
88.388,0.939,5.025,16.0
91.008,0.981,4.696,14.0
109.067,1.194,5.056,8.0
63.381,0.697,4.721,25.0
76.136,0.85,5.271,21.0
76.484,0.866,4.893,22.0
76.565,0.88,4.487,25.0
90.856,1.059,4.848,16.0
91.774,1.085,4.415,15.0
88.769,1.055,6.768,6.0
83.145,1.002,5.901,6.0
76.316,0.933,5.014,28.0
76.464,0.948,4.614,46.0
76.64,0.963,4.223,27.0
89.48,1.14,4.459,6.0
58.928,0.754,4.596,20.0
63.216,0.82,4.596,25.0
76.209,1.002,5.138,33.0
76.482,1.019,4.746,25.0
76.539,1.033,4.346,28.0
76.606,1.047,3.946,19.0
59.007,0.811,4.701,27.0
63.218,0.88,4.703,6.0
76.33,1.076,5.275,25.0
76.584,1.094,4.881,23.0
76.506,1.106,4.471,22.0
76.571,1.121,4.072,26.0
58.991,0.868,4.799,27.0
76.23,1.136,5.797,41.0
63.109,0.951,4.465,8.0
76.661,1.169,5.01,20.0
76.57,1.182,4.6,21.0
76.568,1.196,4.196,33.0
59.067,0.928,4.902,20.0
76.204,1.211,5.919,18.0
77.321,1.243,5.595,9.0
76.709,1.247,5.137,10.0
88.732,1.459,5.472,7.0
76.61,1.274,4.32,15.0
62.623,1.048,5.297,21.0
83.151,1.407,6.592,12.0
83.416,1.427,6.17,27.0
76.675,1.326,5.256,21.0
83.816,1.465,5.301,9.0
84.932,1.501,4.922,16.0
58.969,1.048,5.081,18.0
63.003,1.132,5.093,7.0
83.648,1.519,6.317,9.0
76.703,1.408,5.377,32.0
89.29,1.657,5.785,7.0
84.081,1.576,5.001,20.0
62.07,1.17,5.444,8.0
73.448,1.399,6.049,12.0
76.886,1.479,5.922,11.0
76.769,1.491,5.497,27.0
82.723,1.623,5.482,8.0
83.969,1.664,5.12,17.0
59.088,1.178,5.271,16.0
63.748,1.284,5.346,29.0
62.818,1.277,4.932,13.0
83.58,1.716,6.108,31.0
82.528,1.71,5.592,26.0
83.265,1.742,5.197,23.0
0.0,0.0,0.0,0.0
63.877,1.357,5.449,12.0
62.751,1.345,5.017,16.0
83.412,1.805,6.215,31.0
82.517,1.803,5.708,13.0
83.134,1.833,5.307,26.0
56.02,1.242,5.158,23.0
65.212,1.459,5.654,5.0
62.897,1.42,5.116,23.0
83.344,1.898,6.326,15.0
82.52,1.896,5.823,26.0
82.385,1.91,5.373,35.0
50.136,1.17,4.686,21.0
0.0,0.0,0.0,0.0
62.933,1.493,5.206,13.0
76.979,1.842,5.947,11.0
82.431,1.99,5.927,28.0
82.06,1.998,5.462,31.0
49.899,1.223,4.732,21.0
55.813,1.379,4.992,22.0
62.974,1.569,5.294,10.0
64.613,1.623,5.078,35.0
82.427,2.087,6.036,26.0
82.193,2.099,5.579,33.0
49.963,1.284,4.803,23.0
55.927,1.449,5.075,27.0
63.034,1.645,5.381,20.0
64.605,1.7,5.161,40.0
82.596,2.191,6.155,27.0
82.287,2.201,5.691,31.0
50.226,1.352,4.894,24.0
56.037,1.52,5.157,29.0
63.055,1.723,5.462,19.0
64.641,1.78,5.245,38.0
82.7,2.295,6.266,12.0
82.361,2.303,5.797,29.0
51.013,1.436,5.034,25.0
56.124,1.591,5.234,21.0
63.37,1.81,5.567,21.0
65.009,1.87,5.354,17.0
62.191,1.802,4.786,11.0
82.491,2.408,5.905,15.0
50.565,1.486,5.05,25.0
51.342,1.519,4.849,21.0
62.558,1.865,5.57,7.0
62.314,1.87,5.205,28.0
62.144,1.879,4.855,18.0
74.36,2.263,5.409,14.0
50.524,1.548,5.104,21.0
50.657,1.563,4.843,24.0
57.91,1.799,5.223,17.0
62.457,1.953,5.287,32.0
62.462,1.967,4.95,21.0
66.1,2.096,4.882,31.0
50.405,1.609,5.15,13.0
50.262,1.615,4.862,20.0
50.081,1.62,4.572,13.0
72.825,2.371,6.246,8.0
64.037,2.098,5.145,15.0
65.101,2.148,4.879,14.0
57.767,1.919,5.965,10.0
50.24,1.679,4.913,20.0
50.276,1.691,4.644,22.0
73.048,2.473,6.342,10.0
64.104,2.184,5.218,22.0
65.172,2.234,4.951,20.0
55.27,1.907,5.764,23.0
50.18,1.742,4.959,24.0
49.884,1.743,4.658,23.0
66.745,2.347,5.862,27.0
64.142,2.269,5.285,22.0
75.92,2.702,5.843,12.0
48.682,1.744,5.126,19.0
50.237,1.81,5.014,32.0
49.991,1.812,4.717,23.0
51.853,1.89,4.605,24.0
56.108,2.058,4.677,22.0
75.972,2.803,5.919,10.0
48.586,1.805,5.162,38.0
48.32,1.805,4.869,15.0
50.061,1.881,4.77,23.0
53.943,2.038,4.84,15.0
56.097,2.131,4.728,28.0
66.67,2.548,5.255,23.0
49.099,1.89,5.262,24.0
50.245,1.944,5.109,7.0
0.0,0.0,0.0,0.0
51.592,2.018,4.675,14.0
55.972,2.201,4.766,28.0
66.669,2.637,5.313,13.0
49.708,1.98,5.371,7.0
0.0,0.0,0.0,0.0
50.698,2.04,4.92,24.0
51.534,2.085,4.713,23.0
49.274,2.004,4.237,19.0
66.584,2.723,5.361,6.0
45.432,1.871,4.946,15.0
50.733,2.099,5.244,15.0
50.132,2.086,4.906,19.0
51.517,2.154,4.753,25.0
49.282,2.071,4.277,21.0
58.346,2.464,4.744,9.0
45.408,1.931,4.979,18.0
51.385,2.196,5.351,25.0
50.395,2.165,4.97,24.0
51.608,2.228,4.801,12.0
49.374,2.142,4.321,20.0
58.177,2.535,4.773,17.0
46.045,2.02,5.083,31.0
50.868,2.242,5.334,25.0
50.816,2.25,5.048,24.0
49.674,2.21,4.655,18.0
49.492,2.212,4.366,20.0
58.181,2.613,4.813,26.0
48.356,2.187,5.371,7.0
56.402,2.563,5.953,7.0
50.508,2.306,5.051,11.0
49.811,2.284,4.702,23.0
49.508,2.28,4.4,34.0
58.205,2.693,4.853,23.0
48.332,2.252,5.4,30.0
56.326,2.636,5.98,7.0
56.493,2.655,5.685,12.0
49.816,2.351,4.733,23.0
49.58,2.35,4.437,30.0
57.959,2.759,4.867,33.0
48.31,2.316,5.427,31.0
48.432,2.332,5.171,19.0
50.344,2.434,5.096,24.0
49.847,2.42,4.765,16.0
49.669,2.422,4.473,17.0
57.977,2.839,4.901,17.0
48.267,2.38,5.448,24.0
0.0,0.0,0.0,0.0
50.223,2.496,5.111,24.0
49.975,2.494,4.804,8.0
53.448,2.678,4.842,8.0
49.166,2.474,4.182,12.0
49.989,2.533,5.669,18.0
50.377,2.563,5.432,7.0
49.38,2.522,5.05,23.0
49.968,2.561,4.827,15.0
49.698,2.558,4.526,35.0
49.379,2.552,4.224,23.0
49.974,2.601,5.691,5.0
48.026,2.508,5.201,23.0
49.013,2.57,5.035,22.0
49.875,2.625,4.84,33.0
49.708,2.625,4.548,12.0
49.305,2.614,4.238,35.0
43.643,2.33,4.988,23.0
48.191,2.582,5.239,23.0
49.093,2.64,5.063,23.0
51.917,2.803,5.06,10.0
65.307,3.538,6.001,22.0
49.493,2.691,4.273,18.0
47.502,2.601,5.448,13.0
48.193,2.648,5.257,28.0
0.0,0.0,0.0,0.0
52.033,2.879,5.089,12.0
66.462,3.69,6.131,17.0
49.513,2.759,4.292,23.0
47.247,2.652,5.434,6.0
48.103,2.708,5.263,23.0
44.585,2.519,4.629,12.0
56.869,3.224,5.58,9.0
65.281,3.713,6.041,9.0
75.794,4.326,6.593,10.0
43.673,2.51,5.036,35.0
45.779,2.639,5.021,32.0
44.551,2.577,4.637,11.0
48.737,2.828,4.795,18.0
57.42,3.343,5.329,20.0
80.951,4.728,7.061,8.0
43.648,2.567,5.044,32.0
44.931,2.65,4.939,19.0
44.645,2.642,4.657,18.0
48.704,2.891,4.803,18.0
57.715,3.437,5.368,15.0
57.826,3.454,5.056,34.0
43.757,2.632,5.065,31.0
45.006,2.715,4.956,19.0
48.206,2.916,5.037,4.0
51.895,3.149,5.126,7.0
52.298,3.183,4.873,14.0
57.771,3.526,5.061,26.0
43.799,2.692,5.076,25.0
44.799,2.761,4.94,8.0
48.466,2.996,5.071,22.0
51.836,3.213,5.128,21.0
52.201,3.245,4.871,6.0
0.0,0.0,0.0,0.0
45.172,2.835,5.241,20.0
44.794,2.819,4.944,7.0
49.243,3.108,5.157,9.0
51.702,3.272,5.119,25.0
59.822,3.797,5.587,15.0
58.099,3.697,5.1,12.0
45.03,2.885,5.227,8.0
34.182,2.195,3.774,33.0
48.67,3.134,5.1,16.0
51.606,3.332,5.111,20.0
63.182,4.091,5.902,16.0
58.083,3.77,5.1,11.0
34.471,2.253,4.002,17.0
34.238,2.243,3.781,26.0
34.137,2.242,3.577,25.0
60.086,3.956,5.951,8.0
63.1,4.165,5.894,21.0
59.31,3.925,5.207,30.0
34.516,2.299,4.007,23.0
34.257,2.287,3.782,28.0
48.683,3.259,5.1,15.0
54.86,3.68,5.431,19.0
63.026,4.239,5.884,10.0
59.294,3.998,5.202,25.0
34.54,2.344,4.007,27.0
34.23,2.328,3.777,28.0
34.158,2.329,3.575,6.0
48.321,3.302,4.78,17.0
52.019,3.563,4.852,3.0
59.221,4.067,5.19,10.0
34.517,2.385,4.001,26.0
34.204,2.369,3.77,23.0
34.376,2.386,3.594,11.0
48.292,3.359,4.771,22.0
52.001,3.626,4.843,19.0
51.879,3.625,4.539,8.0
34.364,2.417,3.977,33.0
34.262,2.414,3.771,19.0
34.415,2.43,3.592,23.0
48.305,3.419,4.763,30.0
51.957,3.685,4.83,12.0
58.809,4.181,5.135,21.0
34.366,2.459,3.971,37.0
34.284,2.457,3.766,37.0
48.388,3.475,5.041,7.0
48.285,3.475,4.751,21.0
59.155,4.266,5.486,22.0
58.785,4.249,5.119,30.0
34.412,2.503,3.968,24.0
34.3,2.5,3.759,34.0
48.322,3.528,5.021,22.0
59.609,4.361,5.85,20.0
49.723,3.645,4.598,23.0
51.893,3.811,4.505,13.0
34.392,2.542,3.956,39.0
34.32,2.541,3.751,29.0
48.418,3.592,5.017,21.0
59.613,4.43,5.833,15.0
58.812,4.379,5.421,10.0
51.896,3.871,4.489,20.0
34.413,2.583,3.947,32.0
34.369,2.584,3.746,34.0
48.351,3.642,4.994,22.0
51.828,3.911,5.053,5.0
49.532,3.744,4.548,23.0
51.905,3.93,4.472,15.0
34.406,2.621,3.934,34.0
34.33,2.62,3.729,32.0
48.423,3.701,4.983,10.0
49.439,3.785,4.801,9.0
49.285,3.78,4.506,25.0
51.902,3.988,4.451,36.0
34.257,2.648,3.903,32.0
34.336,2.658,3.715,23.0
49.487,3.837,5.072,10.0
49.3,3.829,4.767,17.0
49.085,3.819,4.466,22.0
51.875,4.042,4.426,43.0
34.167,2.678,3.877,33.0
34.275,2.69,3.693,29.0
49.254,3.872,5.025,7.0
49.539,3.9,4.767,23.0
49.562,3.908,4.487,23.0
51.893,4.098,4.403,42.0
34.19,2.716,3.863,24.0
34.267,2.725,3.675,29.0
42.935,3.42,4.359,17.0
48.892,3.9,4.68,15.0
60.465,4.83,5.444,14.0
51.922,4.154,4.379,23.0
34.13,2.746,3.838,30.0
34.244,2.759,3.655,31.0
34.008,2.744,3.435,18.0
48.862,3.947,4.651,19.0
60.34,4.882,5.399,27.0
51.949,4.209,4.352,18.0
34.245,2.79,3.832,32.0
34.027,2.776,3.612,25.0
42.648,3.484,4.283,6.0
48.832,3.994,4.619,17.0
60.415,4.948,5.37,22.0
59.885,4.911,4.982,11.0
34.352,2.832,3.823,35.0
33.976,2.805,3.586,27.0
42.588,3.52,4.25,15.0
51.498,4.261,4.84,16.0
59.996,4.971,5.296,27.0
59.691,4.952,4.928,18.0
34.093,2.843,3.772,20.0
34.007,2.839,3.567,29.0
42.598,3.56,4.224,12.0
51.485,4.308,4.805,13.0
59.949,5.022,5.252,33.0
59.415,4.984,4.866,12.0
33.95,2.863,3.733,32.0
33.945,2.865,3.537,22.0
42.665,3.605,4.201,24.0
51.606,4.365,4.781,23.0
59.459,5.035,5.168,25.0
51.764,4.389,4.203,40.0
34.007,2.898,3.715,33.0
33.928,2.895,3.511,28.0
42.812,3.656,4.184,19.0
51.499,4.402,4.733,25.0
59.525,5.093,5.13,31.0
51.773,4.434,4.166,47.0
34.05,2.931,3.694,34.0
33.994,2.929,3.492,31.0
42.833,3.694,4.154,16.0
51.386,4.436,4.683,24.0
51.657,4.463,4.412,19.0
51.786,4.479,4.127,37.0
41.853,3.638,4.508,6.0
42.777,3.721,4.361,10.0
42.879,3.733,4.124,19.0
51.513,4.489,4.654,28.0
51.647,4.504,4.37,35.0
51.798,4.522,4.086,30.0
34.138,2.995,3.648,31.0
42.829,3.76,4.33,27.0
51.311,4.508,4.893,21.0
51.572,4.534,4.616,39.0
59.203,5.21,4.959,26.0
51.809,4.562,4.043,15.0
42.922,3.798,4.55,4.0
42.711,3.782,4.282,20.0
51.411,4.555,4.858,25.0
51.498,4.567,4.564,4.0
59.208,5.254,4.908,24.0
51.857,4.605,4.002,20.0
42.912,3.829,4.511,8.0
42.668,3.809,4.239,32.0
51.512,4.601,4.821,17.0
59.44,5.313,5.216,22.0
42.871,3.834,3.515,17.0
51.873,4.643,3.956,15.0
43.007,3.867,4.482,5.0
42.648,3.836,4.198,25.0
51.562,4.641,4.779,15.0
59.239,5.334,5.144,9.0
51.811,4.669,4.201,13.0
51.922,4.682,3.912,16.0
34.039,3.083,3.515,33.0
51.309,4.649,5.002,8.0
59.717,5.414,5.477,8.0
43.287,3.926,3.717,13.0
51.828,4.703,4.152,37.0
59.786,5.429,4.447,23.0
34.037,3.104,3.481,30.0
59.664,5.443,5.757,15.0
43.402,3.961,3.938,14.0
42.963,3.923,3.646,17.0
51.838,4.735,4.102,33.0
59.52,5.44,4.368,28.0
42.695,3.919,4.324,12.0
53.722,4.932,5.13,12.0
43.372,3.983,3.891,15.0
42.864,3.938,3.594,25.0
52.258,4.803,4.082,8.0
59.461,5.468,4.303,29.0
42.695,3.942,4.279,37.0
43.442,4.012,4.103,17.0
43.242,3.994,3.834,9.0
42.805,3.955,3.545,22.0
59.337,5.486,4.572,10.0
59.034,5.46,4.21,33.0
42.688,3.963,4.233,39.0
43.438,4.034,4.056,32.0
59.296,5.507,5.194,8.0
42.828,3.979,3.501,22.0
59.416,5.522,4.514,27.0
58.809,5.467,4.131,33.0
42.712,3.985,4.189,31.0
43.384,4.048,4.004,30.0
43.049,4.018,3.724,17.0
42.691,3.985,3.442,32.0
59.184,5.526,4.432,33.0
58.885,5.5,4.072,33.0
43.208,4.05,4.19,18.0
43.39,4.067,3.956,30.0
43.098,4.041,3.68,27.0
42.694,4.003,3.395,15.0
58.937,5.528,4.347,32.0
58.827,5.518,4.001,31.0
43.472,4.092,4.165,21.0
43.339,4.08,3.901,18.0
43.051,4.053,3.626,14.0
52.518,4.944,4.116,8.0
58.971,5.553,4.282,32.0
58.78,5.536,3.93,29.0
43.415,4.102,4.108,31.0
43.233,4.084,3.841,7.0
51.777,4.892,4.301,6.0
59.208,5.594,4.571,19.0
58.779,5.554,4.2,26.0
58.951,5.571,3.873,32.0
43.365,4.111,4.053,15.0
59.182,5.61,5.188,11.0
51.84,4.913,4.245,8.0
59.092,5.6,4.492,31.0
58.694,5.563,4.124,26.0
58.971,5.589,3.804,27.0
43.322,4.118,3.997,12.0
59.198,5.626,5.119,7.0
42.711,4.059,3.446,17.0
58.813,5.589,4.4,33.0
58.738,5.581,4.057,31.0
58.873,5.594,3.727,28.0
43.311,4.127,3.943,9.0
52.081,4.961,4.439,26.0
52.393,4.991,4.163,8.0
58.702,5.59,4.32,30.0
58.685,5.588,3.981,32.0
58.721,5.592,3.645,33.0
43.236,4.128,3.882,25.0
52.345,4.996,4.397,26.0
59.223,5.651,4.633,21.0
58.594,5.59,4.239,29.0
58.731,5.602,3.911,32.0
58.386,5.569,3.552,30.0
52.538,5.023,4.651,6.0
51.905,4.961,4.294,19.0
59.186,5.656,4.554,31.0
58.53,5.591,4.16,30.0
58.86,5.622,3.844,32.0
58.251,5.563,3.469,26.0
52.391,5.015,4.57,27.0
51.845,4.96,4.222,8.0
58.93,5.636,4.459,33.0
58.602,5.603,4.09,33.0
58.859,5.626,3.768,32.0
58.195,5.561,3.391,24.0
52.371,5.016,4.5,27.0
42.69,4.087,3.421,8.0
58.746,5.621,4.369,28.0
58.61,5.607,4.014,32.0
58.613,5.605,3.677,32.0
58.257,5.569,3.319,30.0
52.327,5.012,4.427,27.0
59.245,5.672,4.67,23.0
58.687,5.616,4.286,27.0
58.641,5.609,3.939,33.0
58.352,5.58,3.583,31.0
58.632,5.604,3.263,33.0
51.938,4.973,4.326,22.0
59.246,5.67,4.591,30.0
58.562,5.602,4.2,27.0
58.779,5.62,3.871,33.0
58.267,5.568,3.501,29.0
59.074,5.644,3.209,33.0
51.822,4.959,4.246,8.0
59.026,5.644,4.496,33.0
58.591,5.6,4.124,32.0
58.929,5.629,3.802,31.0
58.216,5.558,3.42,31.0
59.19,5.649,3.137,28.0
42.693,4.08,3.441,12.0
58.788,5.615,4.398,32.0
58.764,5.609,4.056,33.0
58.793,5.608,3.713,33.0
58.33,5.561,3.348,31.0
59.305,5.651,3.063,24.0
59.206,5.649,4.69,12.0
58.685,5.595,4.31,33.0
58.66,5.589,3.969,31.0
58.636,5.583,3.623,33.0
58.738,5.589,3.291,33.0
59.313,5.641,2.982,15.0
59.192,5.636,4.608,19.0
58.575,5.572,4.221,29.0
58.866,5.596,3.902,33.0
58.374,5.545,3.526,31.0
59.234,5.623,3.237,33.0
0.0,0.0,0.0,0.0
59.065,5.609,4.515,29.0
58.693,5.568,4.148,25.0
58.984,5.592,3.828,30.0
58.265,5.519,3.44,28.0
59.339,5.617,3.161,29.0
60.637,5.736,2.881,24.0
59.088,5.593,4.436,34.0
58.76,5.557,4.071,28.0
58.898,5.566,3.741,30.0
58.245,5.499,3.357,29.0
59.368,5.601,3.08,30.0
60.519,5.705,2.791,22.0
59.032,5.568,4.349,34.0
58.747,5.536,3.988,33.0
58.652,5.522,3.643,32.0
58.838,5.535,3.31,33.0
59.462,5.588,3.003,22.0
60.323,5.665,2.699,31.0
58.926,5.535,4.258,32.0
58.965,5.533,3.92,33.0
58.605,5.494,3.558,32.0
59.44,5.567,3.26,34.0
60.371,5.649,2.963,34.0
60.233,5.632,2.61,32.0
58.881,5.506,4.171,34.0
59.224,5.532,3.853,30.0
58.261,5.436,3.454,32.0
59.409,5.537,3.173,34.0
60.349,5.62,2.876,29.0
60.219,5.603,2.524,27.0
59.0,5.489,4.095,34.0
59.384,5.518,3.779,30.0
58.288,5.411,3.373,28.0
59.69,5.535,3.105,34.0
60.774,5.629,2.811,25.0
60.426,5.592,2.448,30.0
59.133,5.471,4.021,34.0
58.829,5.436,3.661,33.0
58.306,5.382,3.292,32.0
60.428,5.571,3.058,35.0
60.463,5.568,2.712,34.0
60.829,5.596,2.379,24.0
59.052,5.431,3.932,26.0
58.469,5.37,3.556,29.0
58.551,5.371,3.224,32.0
60.416,5.535,2.973,33.0
60.43,5.531,2.626,34.0
61.073,5.583,2.303,24.0
59.117,5.401,3.853,31.0
58.294,5.319,3.464,32.0
59.185,5.393,3.175,33.0
60.462,5.502,2.89,15.0
60.639,5.511,2.549,25.0
62.084,5.637,2.254,34.0
59.35,5.384,3.784,30.0
58.404,5.29,3.387,32.0
59.067,5.343,3.085,33.0
60.931,5.505,2.826,20.0
60.985,5.502,2.478,19.0
62.256,5.61,2.172,15.0
59.852,5.388,3.732,35.0
58.649,5.272,3.318,32.0
60.216,5.405,3.06,34.0
61.657,5.526,2.772,24.0
52.167,4.669,2.046,12.0
52.159,4.662,1.746,29.0
59.999,5.357,3.655,35.0
59.122,5.27,3.261,33.0
60.497,5.384,2.989,24.0
52.129,4.633,2.271,23.0
52.108,4.624,1.97,41.0
52.134,4.62,1.672,44.0
60.142,5.323,3.579,16.0
52.141,4.607,2.802,9.0
52.11,4.597,2.501,21.0
52.093,4.588,2.196,45.0
52.091,4.581,1.897,45.0
52.111,4.575,1.598,53.0
52.055,4.563,3.023,36.0
52.076,4.557,2.725,34.0
52.079,4.55,2.426,47.0
52.089,4.543,2.122,60.0
52.103,4.538,1.824,56.0
52.101,4.53,1.525,44.0
52.022,4.515,2.95,48.0
52.052,4.51,2.652,37.0
52.058,4.503,2.353,59.0
52.083,4.497,2.05,64.0
52.131,4.494,1.752,43.0
52.112,4.485,1.453,20.0
52.014,4.468,2.877,50.0
52.05,4.463,2.579,47.0
52.079,4.457,2.282,60.0
52.114,4.452,1.979,45.0
52.174,4.449,1.682,24.0
52.169,4.441,1.383,14.0
52.025,4.419,2.805,53.0
52.049,4.412,2.508,43.0
52.124,4.411,2.212,33.0
52.154,4.405,1.909,25.0
52.243,4.404,1.613,18.0
52.187,4.391,1.312,12.0
52.056,4.37,2.736,47.0
52.129,4.367,2.44,24.0
52.194,4.364,2.143,19.0
62.545,5.22,2.204,7.0
47.742,3.977,1.409,3.0
47.685,3.964,1.135,9.0
52.118,4.322,2.668,15.0
62.469,5.169,2.839,10.0
62.503,5.161,2.483,8.0
62.455,5.147,2.116,7.0
47.67,3.92,1.342,1.0
47.613,3.908,1.069,11.0
62.323,5.101,3.107,8.0
81.612,6.665,3.6,15.0
81.278,6.624,3.12,25.0
47.822,3.888,1.557,8.0
47.63,3.865,1.277,1.0
47.535,3.849,1.003,6.0
81.727,6.598,3.964,9.0
82.038,6.607,3.509,19.0
81.179,6.525,3.008,8.0
47.574,3.815,1.485,7.0
47.551,3.804,1.213,13.0
0.0,0.0,0.0,0.0
81.609,6.494,3.851,30.0
81.582,6.477,3.383,31.0
47.784,3.785,1.707,3.0
47.482,3.752,1.42,7.0
47.471,3.742,1.148,16.0
47.688,3.751,0.881,2.0
81.93,6.421,3.757,38.0
48.932,3.825,1.964,13.0
47.659,3.717,1.64,5.0
47.42,3.689,1.356,13.0
47.472,3.685,1.086,4.0
47.942,3.712,0.823,2.0
81.821,6.312,3.647,31.0
48.766,3.753,1.895,4.0
47.724,3.663,1.582,150.0
47.383,3.628,1.295,16.0
47.338,3.615,1.023,1.0
0.0,0.0,0.0,0.0
81.676,6.198,3.537,19.0
48.276,3.654,1.814,1.0
47.38,3.576,1.509,7.0
47.359,3.565,1.234,19.0
47.375,3.556,0.964,3.0
46.803,3.505,0.685,0.0
49.003,3.654,2.059,2.0
47.868,3.559,1.738,2.0
47.291,3.506,1.447,18.0
47.322,3.499,1.173,6.0
47.447,3.499,0.905,1.0
0.0,0.0,0.0,0.0
0.0,0.0,0.0,0.0
47.628,3.477,1.67,5.0
47.271,3.441,1.388,22.0
47.347,3.436,1.116,0.0
51.816,3.75,0.926,2.0
37.315,2.693,0.454,0.0
0.0,0.0,0.0,0.0
47.437,3.398,1.606,10.0
47.256,3.374,1.33,103.0
47.292,3.367,1.057,1.0
52.075,3.696,0.867,1.0
37.428,2.649,0.41,0.0
48.323,3.404,1.854,0.0
47.331,3.323,1.546,14.0
47.266,3.308,1.275,169.0
47.296,3.3,1.001,3.0
45.688,3.178,0.707,0.0
47.358,3.283,0.463,0.0
47.867,3.301,1.779,1.0
47.239,3.247,1.487,18.0
47.252,3.238,1.218,172.0
47.294,3.23,0.945,2.0
0.0,0.0,0.0,0.0
34.023,2.308,0.293,0.0
47.588,3.211,1.714,4.0
47.206,3.175,1.431,30.0
47.252,3.167,1.164,162.0
50.942,3.402,0.96,1.0
0.0,0.0,0.0,0.0
32.284,2.141,0.241,0.0
47.447,3.129,1.654,7.0
47.224,3.103,1.377,150.0
47.221,3.092,1.109,94.0
51.001,3.327,0.903,1.0
37.075,2.41,0.445,1.0
31.267,2.025,0.198,0.0
47.317,3.046,1.596,11.0
47.224,3.029,1.324,159.0
47.264,3.02,1.057,4.0
47.64,3.033,0.79,0.0
36.658,2.324,0.4,1.0
29.841,1.885,0.156,0.0
47.255,2.968,1.542,14.0
47.21,2.953,1.273,173.0
47.254,2.944,1.006,5.0
43.277,2.686,0.671,1.0
34.3,2.12,0.337,0.0
29.284,1.803,0.122,1.0
47.203,2.887,1.49,34.0
47.218,2.877,1.223,135.0
47.293,2.869,0.956,3.0
0.0,0.0,0.0,0.0
33.448,2.012,0.293,0.0
28.521,1.709,0.089,0.0
47.187,2.808,1.44,56.0
47.278,2.802,1.175,3.0
47.388,2.797,0.909,0.0
0.0,0.0,0.0,0.0
32.163,1.881,0.249,0.0
27.78,1.618,0.058,1.0
47.211,2.731,1.393,33.0
47.258,2.721,1.127,2.0
48.176,2.762,0.876,1.0
0.0,0.0,0.0,0.0
31.002,1.761,0.209,0.0
27.223,1.539,0.03,0.0
47.257,2.652,1.347,32.0
47.251,2.639,1.08,3.0
48.641,2.704,0.836,5.0
0.0,0.0,0.0,0.0
30.558,1.683,0.176,1.0
26.713,1.464,0.003,0.0
47.292,2.573,1.303,34.0
47.24,2.557,1.034,4.0
48.894,2.633,0.794,3.0
35.112,1.882,0.368,0.0
29.814,1.59,0.144,0.0
26.195,1.39,-0.02,0.0
47.313,2.491,1.259,28.0
47.344,2.479,0.993,3.0
45.596,2.375,0.698,1.0
33.734,1.747,0.322,0.0
28.995,1.494,0.113,0.0
25.695,1.317,-0.043,0.0
47.338,2.407,1.217,20.0
47.44,2.399,0.952,0.0
0.0,0.0,0.0,0.0
32.686,1.635,0.283,1.0
28.429,1.414,0.086,0.0
25.265,1.249,-0.065,0.0
47.378,2.323,1.177,18.0
50.417,2.458,0.968,2.0
38.483,1.865,0.522,0.0
32.14,1.548,0.251,1.0
27.954,1.339,0.061,0.0
24.791,1.18,-0.085,0.0
47.429,2.238,1.138,14.0
47.84,2.244,0.878,1.0
37.434,1.745,0.476,0.0
31.734,1.47,0.221,0.0
27.391,1.261,0.037,0.0
24.459,1.119,-0.104,0.0
47.586,2.157,1.103,2.0
47.798,2.152,0.838,0.0
36.805,1.647,0.438,0.0
30.75,1.367,0.19,0.0
27.032,1.194,0.015,0.0
23.632,1.037,-0.119,0.0
0.0,0.0,0.0,0.0
0.0,0.0,0.0,0.0
0.0,0.0,0.0,0.0
30.592,1.302,0.165,0.0
26.466,1.118,-0.005,0.0
23.474,0.985,-0.136,1.0
0.0,0.0,0.0,0.0
0.0,0.0,0.0,0.0
33.912,1.388,0.352,0.0
28.964,1.176,0.135,0.0
26.176,1.055,-0.024,0.0
23.248,0.93,-0.152,0.0
0.0,0.0,0.0,0.0
0.0,0.0,0.0,0.0
33.495,1.306,0.324,1.0
28.86,1.117,0.114,1.0
25.816,0.991,-0.042,7.0
22.608,0.861,-0.163,0.0
50.723,1.91,1.026,3.0
40.21,1.501,0.587,0.0
33.249,1.231,0.299,1.0
28.639,1.051,0.094,1.0
25.598,0.932,-0.058,1.0
22.425,0.809,-0.177,0.0
50.692,1.808,0.991,1.0
0.0,0.0,0.0,0.0
32.421,1.136,0.271,0.0
28.314,0.983,0.075,0.0
24.879,0.856,-0.073,0.0
22.072,0.753,-0.188,0.0
50.69,1.707,0.96,0.0
38.193,1.274,0.509,0.0
31.766,1.049,0.246,0.0
27.906,0.913,0.057,0.0
24.682,0.799,-0.087,0.0
21.785,0.699,-0.199,0.0
0.0,0.0,0.0,0.0
37.262,1.167,0.475,0.0
31.367,0.972,0.224,0.0
27.453,0.842,0.04,0.0
24.462,0.742,-0.1,0.0
21.65,0.65,-0.21,0.0
0.0,0.0,0.0,0.0
35.825,1.049,0.437,0.0
29.046,0.841,0.192,0.0
27.113,0.776,0.025,0.0
24.087,0.682,-0.112,0.0
21.418,0.599,-0.219,0.0
0.0,0.0,0.0,0.0
35.856,0.976,0.418,1.0
28.989,0.78,0.177,1.0
26.865,0.713,0.011,0.0
23.833,0.625,-0.122,1.0
21.105,0.547,-0.226,0.0
0.0,0.0,0.0,0.0
35.619,0.896,0.399,0.0
28.977,0.72,0.163,2.0
26.582,0.651,-0.001,0.0
23.674,0.573,-0.132,0.0
20.642,0.492,-0.23,0.0
0.0,0.0,0.0,0.0
34.498,0.797,0.371,0.0
28.862,0.657,0.15,0.0
26.388,0.592,-0.012,0.0
23.463,0.518,-0.141,0.0
20.417,0.444,-0.236,0.0
0.0,0.0,0.0,0.0
34.164,0.718,0.353,0.0
28.912,0.597,0.138,1.0
26.222,0.533,-0.022,0.0
23.332,0.466,-0.15,0.0
20.249,0.398,-0.242,0.0
40.351,0.777,0.627,0.0
33.963,0.642,0.339,0.0
28.812,0.535,0.127,1.0
26.063,0.475,-0.031,0.0
23.257,0.416,-0.157,0.0
20.09,0.352,-0.247,0.0
0.0,0.0,0.0,0.0
34.146,0.573,0.329,0.0
28.799,0.474,0.118,1.0
25.881,0.417,-0.04,0.0
23.122,0.364,-0.164,0.0
19.977,0.308,-0.252,0.0
40.489,0.608,0.603,1.0
33.949,0.498,0.317,0.0
28.843,0.413,0.109,6.0
25.822,0.361,-0.047,0.0
22.884,0.312,-0.168,0.0
19.796,0.263,-0.255,0.0
38.935,0.502,0.569,0.0
32.686,0.41,0.297,0.0
28.832,0.351,0.102,6.0
25.685,0.304,-0.053,0.0
22.286,0.256,-0.169,0.0
19.669,0.219,-0.258,0.0
38.281,0.412,0.551,0.0
32.751,0.341,0.29,0.0
28.785,0.29,0.095,5.0
25.597,0.248,-0.058,0.0
22.345,0.209,-0.174,1.0
19.449,0.175,-0.259,0.0
0.0,0.0,0.0,0.0
32.611,0.27,0.283,0.0
28.75,0.228,0.09,4.0
25.477,0.193,-0.063,0.0
22.324,0.162,-0.178,1.0
19.413,0.134,-0.262,0.0
0.0,0.0,0.0,0.0
0.0,0.0,0.0,0.0
28.675,0.167,0.086,1.0
25.429,0.139,-0.066,0.0
22.308,0.114,-0.181,1.0
19.418,0.092,-0.265,0.0
37.571,0.164,0.523,0.0
32.042,0.129,0.269,0.0
28.634,0.105,0.083,2.0
25.277,0.084,-0.068,0.0
22.086,0.066,-0.181,0.0
19.308,0.05,-0.265,0.0
0.0,0.0,0.0,0.0
0.0,0.0,0.0,0.0
28.618,0.044,0.081,1.0
25.275,0.03,-0.07,0.0
22.09,0.018,-0.182,0.0
19.338,0.009,-0.266,0.0
37.888,0.005,0.523,0.0
0.0,0.0,0.0,0.0
28.574,-0.016,0.08,1.0
25.308,-0.023,-0.07,0.0
22.056,-0.028,-0.183,0.0
19.207,-0.031,-0.265,0.0
0.0,0.0,0.0,0.0
33.205,-0.078,0.275,0.0
28.679,-0.078,0.08,5.0
25.346,-0.078,-0.07,0.0
22.128,-0.076,-0.183,0.0
19.311,-0.073,-0.266,0.0
0.0,0.0,0.0,0.0
31.894,-0.144,0.266,1.0
28.694,-0.14,0.081,6.0
25.284,-0.133,-0.069,0.0
22.235,-0.124,-0.182,0.0
19.349,-0.115,-0.265,0.0
38.176,-0.241,0.53,0.0
32.15,-0.214,0.27,1.0
28.7,-0.201,0.084,5.0
25.267,-0.186,-0.066,0.0
22.411,-0.173,-0.182,1.0
19.298,-0.156,-0.262,0.0
0.0,0.0,0.0,0.0
32.391,-0.285,0.276,1.0
28.699,-0.263,0.087,3.0
25.408,-0.242,-0.064,0.0
22.605,-0.223,-0.18,0.0
19.415,-0.198,-0.261,0.0
0.0,0.0,0.0,0.0
32.584,-0.356,0.282,2.0
28.595,-0.323,0.091,1.0
25.406,-0.296,-0.06,0.0
22.861,-0.275,-0.179,1.0
19.428,-0.24,-0.258,0.0
0.0,0.0,0.0,0.0
32.673,-0.427,0.289,1.0
28.642,-0.385,0.097,1.0
25.492,-0.351,-0.055,0.0
22.828,-0.323,-0.174,0.0
19.606,-0.284,-0.256,0.0
0.0,0.0,0.0,0.0
32.735,-0.497,0.297,0.0
28.628,-0.445,0.103,1.0
25.63,-0.407,-0.049,0.0
22.912,-0.373,-0.169,0.0
19.697,-0.328,-0.252,0.0
38.585,-0.654,0.571,0.0
33.349,-0.577,0.311,2.0
28.654,-0.506,0.111,1.0
25.837,-0.466,-0.042,0.0
23.079,-0.424,-0.164,0.0
19.781,-0.371,-0.248,0.0
0.0,0.0,0.0,0.0
33.324,-0.647,0.321,2.0
28.725,-0.568,0.12,6.0
26.027,-0.525,-0.035,0.0
23.161,-0.475,-0.157,0.0
19.948,-0.417,-0.244,0.0
0.0,0.0,0.0,0.0
33.514,-0.721,0.334,1.0
28.732,-0.628,0.13,6.0
26.22,-0.583,-0.026,0.0
23.488,-0.531,-0.151,0.0
20.136,-0.462,-0.239,0.0
40.196,-0.934,0.634,0.0
33.385,-0.788,0.345,0.0
28.748,-0.689,0.141,4.0
26.439,-0.643,-0.016,0.0
23.425,-0.578,-0.141,0.0
20.586,-0.516,-0.236,0.0
0.0,0.0,0.0,0.0
0.0,0.0,0.0,0.0
28.727,-0.748,0.152,1.0
26.678,-0.704,-0.005,0.0
23.585,-0.631,-0.132,0.0
20.973,-0.569,-0.231,1.0
0.0,0.0,0.0,0.0
34.902,-0.968,0.39,0.0
0.0,0.0,0.0,0.0
26.999,-0.768,0.006,0.0
23.821,-0.686,-0.123,0.0
21.05,-0.614,-0.222,1.0
0.0,0.0,0.0,0.0
0.0,0.0,0.0,0.0
30.694,-0.925,0.191,0.0
27.445,-0.837,0.02,0.0
0.0,0.0,0.0,0.0
21.074,-0.658,-0.212,2.0
0.0,0.0,0.0,0.0
35.883,-1.142,0.436,0.0
31.017,-0.997,0.209,0.0
27.705,-0.901,0.034,0.0
24.7,-0.812,-0.102,0.0
21.589,-0.718,-0.206,3.0
0.0,0.0,0.0,0.0
36.993,-1.252,0.47,0.0
31.447,-1.076,0.23,0.0
28.1,-0.971,0.051,0.0
24.7,-0.862,-0.088,0.0
22.142,-0.781,-0.198,1.0
0.0,0.0,0.0,0.0
37.209,-1.335,0.495,0.0
32.464,-1.176,0.256,1.0
28.534,-1.044,0.069,5.0
25.478,-0.941,-0.075,0.0
22.492,-0.839,-0.188,0.0
0.0,0.0,0.0,0.0
37.823,-1.432,0.526,0.0
32.453,-1.24,0.277,0.0
28.607,-1.103,0.087,7.0
25.617,-0.997,-0.06,0.0
22.674,-0.89,-0.175,2.0
0.0,0.0,0.0,0.0
0.0,0.0,0.0,0.0
32.788,-1.318,0.301,0.0
28.613,-1.16,0.106,7.0
25.909,-1.059,-0.043,2.0
23.028,-0.949,-0.162,1.0
0.0,0.0,0.0,0.0
0.0,0.0,0.0,0.0
34.025,-1.433,0.336,0.0
28.638,-1.216,0.126,4.0
26.103,-1.118,-0.025,2.0
23.53,-1.015,-0.149,1.0
0.0,0.0,0.0,0.0
0.0,0.0,0.0,0.0
34.455,-1.518,0.365,0.0
28.658,-1.272,0.146,0.0
26.584,-1.189,-0.006,1.0
23.705,-1.069,-0.133,1.0
0.0,0.0,0.0,0.0
0.0,0.0,0.0,0.0
0.0,0.0,0.0,0.0
30.676,-1.42,0.18,0.0
27.451,-1.28,0.014,4.0
23.812,-1.119,-0.115,0.0
0.0,0.0,0.0,0.0
0.0,0.0,0.0,0.0
36.061,-1.725,0.437,0.0
30.97,-1.492,0.206,0.0
27.755,-1.347,0.036,7.0
24.626,-1.203,-0.099,0.0
0.0,0.0,0.0,0.0
0.0,0.0,0.0,0.0
36.873,-1.833,0.477,0.0
31.408,-1.572,0.235,0.0
28.119,-1.417,0.06,5.0
25.19,-1.278,-0.08,0.0
0.0,0.0,0.0,0.0
0.0,0.0,0.0,0.0
38.054,-1.962,0.525,0.0
0.0,0.0,0.0,0.0
28.428,-1.484,0.085,2.0
25.739,-1.352,-0.06,0.0
34.249,-1.806,0.869,1.0
34.248,-1.817,0.686,0.0
34.674,-1.851,0.509,0.0
32.501,-1.745,0.3,0.0
28.573,-1.543,0.111,5.0
34.249,-1.861,-0.049,4.0
34.142,-1.861,0.897,2.0
0.0,0.0,0.0,0.0
34.529,-1.904,0.538,1.0
34.43,-1.91,0.349,0.0
28.609,-1.596,0.137,1.0
34.238,-1.921,-0.018,0.0
34.082,-1.918,0.927,3.0
0.0,0.0,0.0,0.0
34.316,-1.953,0.567,1.0
34.695,-1.986,0.384,0.0
30.466,-1.753,0.175,6.0
27.611,-1.598,0.011,0.0
34.033,-1.974,0.958,5.0
34.052,-1.986,0.777,0.0
34.14,-2.002,0.597,1.0
34.906,-2.057,0.42,5.0
31.061,-1.841,0.208,6.0
28.365,-1.69,0.039,3.0
34.006,-2.031,0.991,8.0
33.972,-2.039,0.808,1.0
33.993,-2.051,0.628,0.0
34.839,-2.112,0.454,0.0
31.933,-1.946,0.246,5.0
28.489,-1.745,0.068,6.0
33.962,-2.085,1.024,57.0
33.95,-2.094,0.842,5.0
34.014,-2.109,0.663,0.0
34.752,-2.165,0.488,2.0
32.341,-2.024,0.282,1.0
28.443,-1.789,0.097,0.0
33.961,-2.141,1.059,150.0
33.929,-2.149,0.877,10.0
34.015,-2.164,0.698,0.0
34.527,-2.207,0.522,4.0
33.304,-2.139,0.326,0.0
29.888,-1.929,0.133,0.0
33.931,-2.194,1.094,77.0
33.913,-2.203,0.913,20.0
33.825,-2.207,0.731,0.0
34.257,-2.245,0.554,1.0
34.241,-2.254,0.372,0.0
30.367,-2.008,0.169,0.0
33.894,-2.245,1.129,31.0
33.898,-2.255,0.949,35.0
33.866,-2.263,0.768,0.0
33.966,-2.279,0.586,1.0
36.892,-2.486,0.441,0.0
31.518,-2.133,0.21,0.0
33.882,-2.297,1.166,17.0
33.884,-2.307,0.986,53.0
33.9,-2.317,0.807,1.0
33.855,-2.323,0.622,0.0
34.515,-2.378,0.451,0.0
32.178,-2.226,0.25,0.0
33.889,-2.348,1.205,5.0
33.876,-2.357,1.024,57.0
33.893,-2.367,0.845,53.0
33.874,-2.375,0.661,152.0
34.418,-2.423,0.49,2.0
33.757,-2.386,0.301,0.0
33.874,-2.398,1.244,6.0
33.865,-2.406,1.063,69.0
33.847,-2.414,0.883,31.0
33.867,-2.424,0.7,157.0
34.281,-2.463,0.527,4.0
35.508,-2.561,0.358,0.0
33.86,-2.446,1.283,38.0
33.857,-2.455,1.103,78.0
33.865,-2.464,0.923,58.0
33.874,-2.473,0.741,155.0
34.049,-2.495,0.564,3.0
36.156,-2.659,0.407,1.0
33.847,-2.493,1.323,56.0
33.832,-2.5,1.143,44.0
33.845,-2.51,0.964,107.0
33.869,-2.52,0.781,161.0
33.896,-2.53,0.602,6.0
37.873,-2.837,0.473,1.0
33.848,-2.539,1.364,20.0
33.83,-2.546,1.184,8.0
33.838,-2.555,1.005,117.0
33.873,-2.566,0.823,153.0
33.855,-2.573,0.643,150.0
34.386,-2.622,0.472,1.0
34.023,-2.599,1.413,0.0
33.851,-2.593,1.226,10.0
33.815,-2.598,1.046,109.0
33.805,-2.606,0.863,33.0
33.838,-2.616,0.685,155.0
34.264,-2.658,0.512,5.0
34.093,-2.648,1.458,0.0
33.836,-2.636,1.268,45.0
33.801,-2.641,1.088,119.0
33.83,-2.651,0.907,71.0
33.847,-2.66,0.728,154.0
34.071,-2.686,0.552,4.0
34.287,-2.707,1.51,0.0
33.827,-2.678,1.31,81.0
33.809,-2.684,1.131,58.0
33.818,-2.692,0.949,150.0
33.844,-2.701,0.77,154.0
33.866,-2.711,0.592,2.0
0.0,0.0,0.0,0.0
33.804,-2.717,1.353,24.0
33.803,-2.724,1.174,10.0
33.809,-2.732,0.992,150.0
33.845,-2.742,0.814,151.0
33.821,-2.747,0.635,150.0
34.5,-2.807,1.609,0.0
33.929,-2.768,1.403,0.0
33.832,-2.766,1.22,18.0
33.795,-2.77,1.036,132.0
33.777,-2.776,0.857,49.0
33.814,-2.786,0.679,153.0
34.6,-2.855,1.659,0.0
0.0,0.0,0.0,0.0
33.823,-2.803,1.263,95.0
33.793,-2.808,1.08,147.0
33.796,-2.814,0.902,81.0
33.821,-2.823,0.724,151.0
0.0,0.0,0.0,0.0
0.0,0.0,0.0,0.0
33.813,-2.839,1.307,78.0
33.767,-2.842,1.124,55.0
33.804,-2.851,0.947,150.0
33.802,-2.857,0.768,19.0
152.005,-12.871,7.691,30.0
0.0,0.0,0.0,0.0
33.788,-2.872,1.352,18.0
33.779,-2.878,1.17,9.0
33.79,-2.885,0.991,131.0
33.797,-2.892,0.813,15.0
151.976,-13.024,7.895,150.0
34.537,-2.965,1.611,0.0
34.034,-2.928,1.408,0.0
33.818,-2.915,1.217,10.0
33.787,-2.918,1.037,108.0
33.789,-2.924,0.859,44.0
151.976,-13.175,8.101,140.0
34.681,-3.011,1.665,0.0
34.198,-2.975,1.461,0.0
33.782,-2.944,1.261,51.0
33.785,-2.95,1.083,95.0
33.799,-2.957,0.905,74.0
199.232,-17.458,10.892,32.0
0.0,0.0,0.0,0.0
34.124,-3.0,1.504,0.0
33.784,-2.975,1.307,51.0
33.786,-2.98,1.129,31.0
33.798,-2.987,0.951,96.0
209.186,-18.518,11.724,150.0
186.634,-16.546,9.472,15.0
34.541,-3.067,1.57,0.0
33.846,-3.01,1.356,5.0
33.803,-3.011,1.176,7.0
33.794,-3.015,0.997,74.0
209.157,-18.694,12.009,150.0
169.754,-15.193,8.85,13.0
34.671,-3.107,1.624,0.0
34.061,-3.057,1.412,0.0
33.824,-3.041,1.223,17.0
33.793,-3.043,1.044,66.0
186.545,-16.825,10.974,24.0
169.861,-15.341,9.092,6.0
34.823,-3.149,1.679,0.0
0.0,0.0,0.0,0.0
33.807,-3.066,1.27,39.0
33.781,-3.068,1.091,50.0
150.447,-13.686,9.059,18.0
162.292,-14.781,8.914,5.0
0.0,0.0,0.0,0.0
0.0,0.0,0.0,0.0
33.82,-3.092,1.317,18.0
33.803,-3.094,1.138,14.0
149.488,-13.705,9.209,20.0
150.429,-13.808,8.471,14.0
169.489,-15.576,8.648,7.0
34.535,-3.177,1.576,0.0
33.935,-3.125,1.369,0.0
33.816,-3.118,1.186,6.0
149.532,-13.813,9.422,8.0
150.299,-13.898,8.675,21.0
169.295,-15.67,8.875,11.0
34.592,-3.205,1.626,0.0
34.16,-3.168,1.426,0.0
33.823,-3.141,1.233,7.0
189.915,-17.665,12.235,10.0
149.552,-13.923,8.841,30.0
150.182,-13.994,8.084,20.0
34.86,-3.251,1.688,0.0
34.195,-3.192,1.475,0.0
33.827,-3.161,1.281,17.0
151.492,-14.181,9.972,13.0
169.939,-15.921,10.284,6.0
149.844,-14.05,8.275,30.0
0.0,0.0,0.0,0.0
34.347,-3.226,1.53,0.0
33.886,-3.185,1.33,3.0
151.409,-14.258,10.18,19.0
199.156,-18.765,12.333,7.0
149.694,-14.115,8.477,28.0
150.207,-14.175,7.695,24.0
34.56,-3.263,1.587,0.0
34.1,-3.222,1.386,0.0
151.443,-14.336,10.393,11.0
194.48,-18.421,12.313,6.0
149.615,-14.18,8.682,24.0
150.172,-14.243,7.903,28.0
34.651,-3.288,1.64,0.0
34.269,-3.254,1.441,1.0
151.441,-14.407,10.606,18.0
149.376,-14.218,9.667,4.0
149.544,-14.24,8.886,30.0
150.184,-14.309,8.112,5.0
0.0,0.0,0.0,0.0
34.367,-3.278,1.493,5.0
151.473,-14.473,10.819,21.0
185.03,-17.687,12.234,7.0
149.535,-14.3,9.094,25.0
160.411,-15.345,8.889,13.0
0.0,0.0,0.0,0.0
34.424,-3.296,1.543,1.0
143.708,-13.784,10.465,13.0
177.907,-17.07,12.01,6.0
149.469,-14.346,9.295,24.0
160.399,-15.401,9.109,11.0
158.804,-15.252,8.178,6.0
34.555,-3.32,1.596,0.0
143.688,-13.831,10.663,6.0
143.545,-13.82,9.889,13.0
149.376,-14.383,9.499,17.0
160.186,-15.428,9.32,15.0
158.901,-15.309,8.402,16.0
34.698,-3.343,1.65,0.0
142.488,-13.756,10.772,8.0
143.442,-13.849,10.081,12.0
149.454,-14.431,9.708,9.0
160.128,-15.463,9.536,13.0
159.026,-15.359,8.627,14.0
0.0,0.0,0.0,0.0
151.888,-14.7,11.691,4.0
177.623,-17.19,12.728,8.0
177.649,-17.192,11.785,15.0
160.5,-15.534,9.777,6.0
160.296,-15.515,8.914,12.0
0.0,0.0,0.0,0.0
146.063,-14.165,11.444,6.0
143.727,-13.937,10.495,12.0
177.626,-17.223,12.025,7.0
149.516,-14.496,9.312,6.0
160.333,-15.543,9.135,15.0
158.706,-15.386,8.199,12.0
145.37,-14.12,11.588,7.0
147.497,-14.323,10.97,5.0
143.41,-13.924,9.901,13.0
149.34,-14.497,9.501,16.0
160.142,-15.543,9.338,14.0
158.735,-15.405,8.412,16.0
145.177,-14.117,11.767,6.0
142.525,-13.854,10.792,11.0
143.556,-13.95,10.104,13.0
149.164,-14.491,9.689,10.0
160.215,-15.562,9.555,15.0
159.033,-15.444,8.639,12.0
144.965,-14.104,11.944,15.0
0.0,0.0,0.0,0.0
143.764,-13.977,10.308,14.0
177.607,-17.26,11.772,10.0
160.504,-15.594,9.782,12.0
160.157,-15.556,8.909,13.0
144.883,-14.099,12.128,18.0
145.364,-14.139,11.389,5.0
143.772,-13.978,10.497,10.0
177.587,-17.258,12.0,9.0
149.736,-14.545,9.32,3.0
160.275,-15.563,9.123,15.0
144.818,-14.09,12.312,14.0
145.277,-14.126,11.573,7.0
147.454,-14.329,10.957,4.0
143.371,-13.925,9.872,12.0
149.36,-14.498,9.489,15.0
160.113,-15.536,9.318,12.0
148.735,-14.461,12.834,7.0
142.559,-13.85,11.537,5.0
142.479,-13.834,10.766,11.0
143.486,-13.923,10.061,10.0
149.347,-14.482,9.675,10.0
160.179,-15.524,9.521,14.0
142.63,-13.851,12.488,10.0
144.971,-14.067,11.915,14.0
151.744,-14.713,11.659,3.0
177.635,-17.212,12.679,8.0
177.712,-17.207,11.735,11.0
160.361,-15.517,9.731,5.0
142.639,-13.83,12.668,5.0
144.89,-14.037,12.088,16.0
145.777,-14.11,11.381,14.0
143.768,-13.904,10.439,13.0
177.705,-17.173,11.953,14.0
149.51,-14.438,9.256,17.0
145.022,-14.032,13.06,4.0
144.816,-13.999,12.262,11.0
145.376,-14.04,11.528,15.0
143.634,-13.858,10.606,4.0
143.439,-13.828,9.822,10.0
149.376,-14.389,9.429,21.0
148.752,-14.357,13.576,3.0
0.0,0.0,0.0,0.0
145.138,-13.98,11.683,15.0
147.624,-14.206,11.076,5.0
143.488,-13.793,9.997,12.0
149.374,-14.347,9.606,12.0
144.459,-13.904,13.356,13.0
0.0,0.0,0.0,0.0
145.291,-13.952,11.867,10.0
146.38,-14.042,11.153,4.0
151.419,-14.509,10.725,11.0
189.91,-18.18,12.431,6.0
144.338,-13.846,13.514,13.0
146.322,-14.018,12.909,5.0
145.391,-13.912,12.044,8.0
145.567,-13.913,11.26,14.0
151.462,-14.46,10.902,12.0
185.149,-17.656,12.332,4.0
0.0,0.0,0.0,0.0
146.756,-14.006,13.116,6.0
145.14,-13.834,12.188,10.0
145.311,-13.833,11.404,16.0
143.676,-13.66,10.503,10.0
147.057,-13.966,9.958,9.0
145.564,-13.851,13.961,9.0
147.262,-13.993,13.327,10.0
145.207,-13.779,12.357,5.0
145.561,-13.794,11.587,6.0
143.669,-13.597,10.662,10.0
147.19,-13.912,10.131,7.0
145.508,-13.782,14.116,13.0
146.8,-13.883,13.447,5.0
152.353,-14.387,13.13,5.0
146.037,-13.772,11.781,5.0
143.721,-13.534,10.818,8.0
153.466,-14.433,10.725,3.0
145.344,-13.698,14.256,17.0
0.0,0.0,0.0,0.0
146.638,-13.776,12.792,9.0
154.765,-14.517,12.648,4.0
145.42,-13.62,11.099,7.0
153.372,-14.345,10.877,9.0
145.287,-13.617,14.402,18.0
148.179,-13.864,13.884,9.0
146.854,-13.719,12.962,13.0
147.273,-13.735,12.186,4.0
145.47,-13.546,11.25,18.0
146.151,-13.589,10.513,9.0
145.273,-13.535,14.55,17.0
145.953,-13.574,13.823,5.0
146.894,-13.639,13.113,4.0
145.192,-13.457,12.159,5.0
145.143,-13.431,11.368,11.0
146.197,-13.506,10.66,10.0
145.787,-13.496,14.746,11.0
145.681,-13.461,13.942,15.0
145.491,-13.419,13.132,6.0
144.951,-13.346,12.28,13.0
144.663,-13.297,11.471,15.0
146.317,-13.425,10.811,7.0
145.685,-13.394,14.877,17.0
145.573,-13.358,14.071,15.0
144.959,-13.277,13.222,14.0
144.882,-13.244,12.413,4.0
144.734,-13.206,11.614,19.0
146.019,-13.3,10.924,12.0
145.41,-13.272,14.985,14.0
145.712,-13.272,14.221,13.0
144.959,-13.177,13.356,4.0
146.913,-13.33,12.72,4.0
144.815,-13.113,11.752,10.0
145.097,-13.114,10.987,16.0
145.507,-13.177,15.129,20.0
146.228,-13.214,14.404,17.0
147.057,-13.261,13.682,13.0
147.232,-13.25,12.88,11.0
144.487,-12.977,11.853,14.0
145.403,-13.034,11.137,14.0
145.58,-13.076,15.264,18.0
146.109,-13.095,14.518,13.0
0.0,0.0,0.0,0.0
145.638,-12.997,12.864,11.0
144.279,-12.848,11.957,14.0
144.961,-12.882,11.225,17.0
145.482,-12.954,15.377,19.0
146.038,-12.974,14.634,15.0
145.72,-12.916,13.804,11.0
145.651,-12.882,12.985,19.0
144.258,-12.731,12.073,8.0
144.783,-12.75,11.328,16.0
145.47,-12.834,15.494,12.0
145.811,-12.834,14.729,16.0
145.828,-12.804,13.932,14.0
145.737,-12.768,13.108,11.0
145.214,-12.694,12.267,11.0
144.976,-12.645,11.455,17.0
145.843,-12.743,15.649,11.0
145.717,-12.702,14.832,14.0
145.415,-12.646,14.001,18.0
146.487,-12.709,13.285,3.0
145.876,-12.626,12.431,3.0
145.039,-12.525,11.566,15.0
146.072,-12.637,15.78,7.0
145.791,-12.58,14.946,10.0
145.472,-12.523,14.112,17.0
144.873,-12.439,13.244,4.0
146.282,-12.531,12.569,4.0
145.227,-12.411,11.683,6.0
148.481,-12.711,16.145,9.0
145.742,-12.444,15.042,18.0
145.665,-12.404,14.232,19.0
144.901,-12.309,13.344,13.0
145.507,-12.329,12.601,10.0
154.276,-13.04,12.514,5.0
148.47,-12.571,16.244,3.0
0.0,0.0,0.0,0.0
145.488,-12.252,14.31,16.0
144.956,-12.175,13.443,13.0
145.575,-12.197,12.699,13.0
145.797,-12.184,11.917,12.0
146.931,-12.299,16.168,10.0
147.432,-12.307,15.406,10.0
0.0,0.0,0.0,0.0
144.987,-12.037,13.534,11.0
145.673,-12.061,12.795,12.0
145.996,-12.056,12.02,12.0
148.795,-12.308,16.461,15.0
146.956,-12.121,15.442,14.0
146.896,-12.082,14.623,12.0
144.85,-11.88,13.603,12.0
145.491,-11.901,12.859,19.0
145.99,-11.908,12.1,8.0
148.819,-12.158,16.547,12.0
146.98,-11.973,15.525,14.0
146.757,-11.919,14.689,10.0
146.592,-11.873,13.844,11.0
145.383,-11.741,12.927,13.0
146.12,-11.768,12.186,16.0
148.831,-12.004,16.625,13.0
146.652,-11.792,15.565,11.0
