X,Y,Z,Reflectivity
61.365,4.168,4.392,19.0
61.491,4.19,4.06,6.0
80.042,5.474,4.844,28.0
77.855,5.342,4.274,37.0
80.894,5.57,3.995,18.0
0.0,0.0,0.0,0.0
60.755,4.228,4.371,29.0
60.773,4.243,4.036,21.0
77.774,5.449,4.735,22.0
77.89,5.476,4.304,23.0
80.81,5.701,4.019,18.0
0.0,0.0,0.0,0.0
60.904,4.342,4.403,36.0
60.691,4.34,4.051,22.0
77.772,5.579,4.761,22.0
77.765,5.597,4.322,33.0
80.738,5.83,4.04,46.0
49.254,3.568,2.193,1.0
60.595,4.421,4.399,25.0
60.682,4.441,4.068,29.0
61.315,4.501,3.771,20.0
77.5,5.707,4.329,26.0
81.074,5.988,4.079,35.0
81.266,6.022,3.639,25.0
60.565,4.519,4.413,26.0
60.264,4.51,4.056,26.0
60.747,4.56,3.75,35.0
77.316,5.821,4.337,35.0
81.333,6.141,4.111,19.0
81.516,6.174,3.669,28.0
60.688,4.629,4.434,30.0
59.778,4.572,4.035,32.0
60.521,4.642,3.749,30.0
77.513,5.962,4.363,27.0
81.505,6.287,4.135,12.0
81.846,6.332,3.698,30.0
60.144,4.685,4.405,36.0
59.671,4.66,4.038,34.0
60.645,4.75,3.766,35.0
77.273,6.069,4.361,20.0
81.528,6.421,4.148,12.0
81.618,6.447,3.7,33.0
59.685,4.746,4.38,35.0
59.583,4.751,4.039,34.0
60.582,4.844,3.769,25.0
62.514,5.011,3.535,7.0
62.096,4.991,3.166,10.0
81.604,6.577,3.706,27.0
59.288,4.811,4.356,27.0
59.823,4.866,4.061,34.0
59.826,4.879,3.727,34.0
52.073,4.258,2.948,16.0
61.955,5.079,3.163,13.0
81.75,6.72,3.718,19.0
51.935,4.297,3.818,15.0
51.931,4.307,3.527,38.0
51.983,4.322,3.24,31.0
52.001,4.334,2.946,24.0
52.051,4.349,2.658,47.0
52.1,4.364,2.37,29.0
51.88,4.374,3.815,34.0
51.888,4.385,3.525,25.0
51.947,4.401,3.238,57.0
51.975,4.413,2.944,47.0
52.038,4.429,2.656,62.0
52.067,4.442,2.368,57.0
51.85,4.452,3.811,35.0
51.856,4.463,3.521,30.0
51.945,4.48,3.236,62.0
52.019,4.497,2.944,44.0
52.054,4.511,2.654,36.0
52.082,4.524,2.365,50.0
51.86,4.533,3.809,30.0
51.904,4.547,3.52,25.0
51.998,4.565,3.235,33.0
52.09,4.583,2.943,19.0
52.135,4.597,2.654,4.0
52.154,4.609,2.363,16.0
51.897,4.614,3.806,19.0
51.97,4.631,3.519,12.0
60.004,5.358,3.725,33.0
59.873,5.357,3.376,31.0
60.321,5.409,3.062,22.0
61.037,5.486,2.757,26.0
59.841,5.411,4.379,11.0
59.615,5.4,4.027,34.0
59.751,5.423,3.7,34.0
58.738,5.342,3.301,33.0
60.149,5.482,3.043,25.0
60.636,5.538,2.728,25.0
59.159,5.436,4.319,34.0
58.722,5.405,3.955,33.0
58.67,5.411,3.622,33.0
58.721,5.427,3.289,34.0
60.541,5.606,3.05,34.0
60.58,5.621,2.712,34.0
59.158,5.522,4.305,35.0
58.973,5.515,3.959,31.0
58.462,5.477,3.595,32.0
58.669,5.507,3.271,34.0
60.425,5.683,3.029,31.0
60.261,5.678,2.682,29.0
58.764,5.569,4.261,34.0
58.827,5.585,3.933,33.0
58.354,5.55,3.572,32.0
59.146,5.636,3.281,33.0
59.937,5.721,2.988,33.0
60.271,5.764,2.665,25.0
58.536,5.63,4.226,28.0
58.674,5.653,3.905,33.0
58.244,5.621,3.547,30.0
59.091,5.712,3.259,33.0
59.472,5.759,2.945,30.0
60.558,5.876,2.658,34.0
58.501,5.707,4.205,27.0
58.425,5.709,3.868,31.0
58.388,5.715,3.535,32.0
59.046,5.79,3.236,33.0
59.221,5.817,2.911,26.0
59.656,5.87,2.597,34.0
58.405,5.778,4.175,29.0
58.278,5.774,3.836,30.0
58.415,5.797,3.515,32.0
58.774,5.842,3.198,33.0
59.102,5.884,2.882,27.0
59.448,5.928,2.564,21.0
58.522,5.867,4.16,33.0
58.179,5.842,3.805,32.0
58.233,5.856,3.479,32.0
58.451,5.886,3.155,33.0
58.941,5.945,2.848,26.0
59.219,5.983,2.528,27.0
58.835,5.975,4.156,34.0
57.793,5.877,3.754,32.0
58.094,5.916,3.444,32.0
58.547,5.971,3.133,33.0
58.777,6.003,2.813,30.0
59.12,6.048,2.496,24.0
58.504,6.016,4.104,31.0
57.623,5.933,3.715,31.0
57.864,5.966,3.402,30.0
58.711,6.062,3.113,33.0
58.763,6.076,2.783,25.0
59.104,6.121,2.465,24.0
58.315,6.069,4.06,33.0
57.586,6.0,3.683,31.0
57.951,6.046,3.377,27.0
58.368,6.098,3.064,33.0
58.757,6.147,2.752,31.0
59.249,6.207,2.439,21.0
58.071,6.114,4.011,24.0
57.736,6.086,3.66,28.0
57.909,6.112,3.342,32.0
58.311,6.162,3.028,32.0
58.768,6.219,2.718,25.0
59.133,6.265,2.4,33.0
57.912,6.166,3.967,32.0
57.714,6.151,3.624,30.0
57.959,6.185,3.31,29.0
58.522,6.252,3.004,31.0
58.429,6.25,2.667,28.0
58.94,6.313,2.357,33.0
57.803,6.22,3.924,33.0
57.785,6.224,3.594,32.0
57.981,6.253,3.275,29.0
58.569,6.323,2.97,31.0
58.297,6.301,2.625,24.0
58.993,6.385,2.321,33.0
57.922,6.298,3.894,26.0
57.936,6.305,3.565,32.0
58.058,6.325,3.242,32.0
58.527,6.383,2.929,29.0
58.314,6.367,2.587,30.0
59.1,6.46,2.286,22.0
57.599,6.324,3.833,28.0
57.828,6.355,3.519,10.0
58.025,6.383,3.2,32.0
58.35,6.426,2.88,33.0
58.386,6.437,2.549,30.0
59.168,6.53,2.247,23.0
57.515,6.375,3.787,7.0
54.598,6.057,3.283,15.0
57.912,6.431,3.152,32.0
58.505,6.503,2.845,33.0
58.393,6.497,2.507,28.0
59.1,6.582,2.202,22.0
54.013,6.041,3.517,25.0
54.833,6.138,3.257,20.0
57.894,6.486,3.109,28.0
58.519,6.562,2.803,33.0
58.429,6.558,2.465,29.0
59.201,6.652,2.161,24.0
53.999,6.091,3.475,26.0
57.36,6.476,3.363,10.0
57.97,6.55,3.068,30.0
57.95,6.554,2.73,32.0
58.829,6.659,2.437,32.0
59.173,6.705,2.113,14.0
54.011,6.144,3.432,26.0
57.547,6.55,3.328,14.0
57.876,6.593,3.016,25.0
58.104,6.624,2.691,13.0
59.106,6.744,2.401,10.0
63.729,7.278,2.224,17.0
46.465,5.327,2.914,14.0
46.463,5.33,2.648,16.0
46.483,5.336,2.384,9.0
59.364,6.82,2.7,19.0
59.064,6.791,2.349,24.0
46.455,5.346,1.583,31.0
46.419,5.361,2.872,38.0
46.416,5.364,2.607,22.0
46.447,5.371,2.343,32.0
46.453,5.376,2.073,32.0
46.429,5.377,1.807,35.0
46.403,5.378,1.541,32.0
46.385,5.395,2.83,48.0
46.381,5.398,2.564,36.0
46.419,5.405,2.301,49.0
46.411,5.408,2.03,50.0
46.384,5.408,1.765,36.0
46.367,5.411,1.499,38.0
46.379,5.43,2.788,52.0
46.361,5.431,2.521,45.0
46.392,5.438,2.258,49.0
46.38,5.44,1.987,48.0
46.349,5.44,1.721,37.0
46.361,5.445,1.456,41.0
46.369,5.463,2.745,51.0
46.384,5.468,2.48,37.0
46.393,5.472,2.215,51.0
46.373,5.472,1.944,48.0
46.335,5.471,1.677,46.0
46.348,5.476,1.413,41.0
46.393,5.498,2.703,49.0
46.38,5.499,2.436,55.0
46.38,5.502,2.171,46.0
46.357,5.502,1.899,41.0
46.361,5.506,1.634,44.0
46.339,5.506,1.369,35.0
46.398,5.529,2.658,44.0
46.396,5.531,2.392,55.0
46.383,5.532,2.125,41.0
46.36,5.532,1.854,31.0
46.363,5.535,1.589,46.0
46.353,5.537,1.324,34.0
46.409,5.559,2.613,40.0
46.409,5.561,2.347,37.0
46.393,5.561,2.08,37.0
46.364,5.56,1.809,33.0
46.368,5.563,1.543,38.0
46.374,5.567,1.278,28.0
46.436,5.589,2.568,17.0
46.422,5.588,2.301,18.0
46.408,5.589,2.033,28.0
46.375,5.587,1.762,32.0
46.386,5.591,1.497,19.0
46.398,5.595,1.232,14.0
46.471,5.617,2.522,6.0
46.463,5.618,2.255,11.0
46.431,5.615,1.987,20.0
46.398,5.613,1.715,18.0
58.818,7.119,1.838,8.0
46.424,5.621,1.184,11.0
54.952,6.669,2.925,30.0
54.395,6.603,2.583,17.0
46.464,5.641,1.94,10.0
54.562,6.627,1.96,17.0
58.802,7.144,1.775,14.0
46.44,5.644,1.136,13.0
54.425,6.629,2.84,29.0
54.53,6.643,2.533,14.0
58.603,7.14,2.386,14.0
54.543,6.647,1.902,27.0
58.83,7.172,1.714,25.0
46.43,5.662,1.086,10.0
54.213,6.624,2.771,26.0
58.896,7.197,2.672,7.0
58.613,7.164,2.323,14.0
54.603,6.675,1.845,13.0
58.826,7.193,1.65,23.0
46.289,5.662,1.033,9.0
54.35,6.66,2.718,29.0
58.873,7.215,2.607,9.0
58.647,7.188,2.26,17.0
59.057,7.239,1.931,10.0
58.629,7.188,1.581,24.0
46.001,5.641,0.977,10.0
54.92,6.747,2.687,26.0
53.682,6.595,2.318,16.0
54.469,6.692,2.039,17.0
54.602,6.709,1.725,13.0
57.334,7.046,1.483,9.0
45.734,5.621,0.921,14.0
59.028,7.266,2.823,12.0
53.712,6.612,2.26,25.0
54.609,6.723,1.983,28.0
58.806,7.24,1.792,16.0
55.868,6.879,1.383,4.0
45.512,5.605,0.866,10.0
58.981,7.273,2.754,10.0
53.753,6.628,2.201,27.0
54.611,6.734,1.923,24.0
58.75,7.244,1.725,12.0
53.147,6.554,1.257,1.0
44.815,5.527,0.803,3.0
58.901,7.273,2.684,13.0
53.771,6.639,2.141,27.0
54.452,6.723,1.856,28.0
58.726,7.25,1.658,17.0
46.262,5.712,1.041,4.0
43.983,5.431,0.737,4.0
58.869,7.276,2.616,10.0
53.848,6.655,2.083,27.0
54.364,6.718,1.791,21.0
58.379,7.213,1.582,33.0
46.027,5.687,0.983,8.0
43.959,5.432,0.687,6.0
53.718,6.644,2.324,23.0
54.247,6.708,2.036,29.0
54.444,6.731,1.73,5.0
55.959,6.918,1.452,5.0
45.722,5.652,0.924,11.0
43.947,5.432,0.636,5.0
53.687,6.641,2.261,26.0
54.585,6.751,1.985,28.0
58.811,7.272,1.801,9.0
55.608,6.875,1.379,3.0
45.528,5.628,0.867,9.0
43.896,5.426,0.584,0.0
53.693,6.641,2.199,23.0
54.564,6.747,1.921,28.0
58.791,7.268,1.732,13.0
51.304,6.341,1.212,1.0
44.67,5.52,0.799,3.0
42.051,5.196,0.512,1.0
53.772,6.647,2.14,23.0
54.425,6.726,1.853,28.0
58.729,7.256,1.663,16.0
46.196,5.706,1.038,5.0
44.018,5.436,0.737,4.0
39.768,4.911,0.438,0.0
53.903,6.658,2.082,28.0
54.361,6.712,1.788,14.0
58.48,7.218,1.588,32.0
45.989,5.675,0.98,11.0
43.953,5.423,0.685,6.0
39.704,4.897,0.391,0.0
54.293,6.697,2.034,29.0
58.917,7.265,1.869,6.0
0.0,0.0,0.0,0.0
45.69,5.63,0.92,13.0
43.928,5.412,0.633,3.0
0.0,0.0,0.0,0.0
54.628,6.727,1.983,24.0
58.813,7.24,1.796,14.0
55.74,6.859,1.382,3.0
45.48,5.594,0.862,12.0
43.841,5.391,0.58,0.0
0.0,0.0,0.0,0.0
54.636,6.715,1.918,23.0
58.777,7.22,1.726,18.0
46.445,5.703,1.097,3.0
44.365,5.445,0.789,3.0
41.983,5.151,0.506,0.0
32.849,4.029,0.207,0.0
59.15,7.252,2.007,8.0
58.826,7.209,1.657,24.0
46.272,5.667,1.039,10.0
44.011,5.388,0.731,4.0
40.266,4.927,0.438,0.0
32.045,3.92,0.165,0.0
58.876,7.198,1.929,6.0
58.549,7.154,1.582,28.0
45.91,5.607,0.977,12.0
44.011,5.372,0.68,6.0
0.0,0.0,0.0,0.0
29.417,3.588,0.117,0.0
58.785,7.164,1.857,13.0
46.456,5.658,1.201,9.0
45.675,5.56,0.919,14.0
43.989,5.352,0.628,3.0
35.584,4.327,0.304,0.0
29.332,3.565,0.083,1.0
58.799,7.141,1.79,17.0
46.413,5.633,1.146,13.0
45.447,5.512,0.862,8.0
42.755,5.183,0.562,0.0
33.802,4.095,0.25,0.0
29.127,3.527,0.049,1.0
46.413,5.614,1.359,9.0
46.316,5.599,1.09,13.0
44.426,5.367,0.791,3.0
0.0,0.0,0.0,0.0
32.593,3.932,0.204,0.0
27.822,3.355,0.014,0.0
46.375,5.585,1.304,17.0
46.181,5.558,1.034,12.0
44.111,5.305,0.735,4.0
40.361,4.851,0.437,0.0
31.921,3.834,0.163,1.0
26.516,3.183,-0.016,0.0
46.364,5.558,1.25,32.0
45.888,5.496,0.975,10.0
44.142,5.283,0.685,5.0
36.808,4.402,0.356,0.0
29.374,3.51,0.116,0.0
26.085,3.115,-0.045,1.0
46.355,5.528,1.197,32.0
45.662,5.44,0.917,12.0
44.068,5.246,0.633,3.0
36.623,4.357,0.313,0.0
29.299,3.483,0.083,1.0
25.554,3.035,-0.073,0.0
46.326,5.494,1.144,22.0
45.486,5.389,0.863,5.0
43.201,5.114,0.572,1.0
33.206,3.927,0.246,0.0
29.15,3.445,0.049,1.0
24.336,2.874,-0.097,1.0
46.301,5.458,1.091,18.0
44.494,5.24,0.794,3.0
40.774,4.797,0.494,0.0
32.486,3.819,0.205,1.0
27.712,3.255,0.016,0.0
23.909,2.806,-0.122,1.0
46.177,5.409,1.037,13.0
44.325,5.186,0.742,5.0
40.597,4.745,0.447,0.0
32.056,3.744,0.167,1.0
26.467,3.088,-0.013,0.0
23.512,2.741,-0.146,1.0
45.9,5.339,0.98,9.0
44.304,5.148,0.693,5.0
37.124,4.31,0.368,0.0
29.34,3.403,0.12,1.0
26.089,3.023,-0.041,1.0
22.797,2.639,-0.166,0.0
45.668,5.275,0.926,10.0
44.284,5.109,0.645,4.0
35.656,4.109,0.315,0.0
29.338,3.377,0.089,5.0
25.722,2.958,-0.068,0.0
22.136,2.543,-0.185,0.0
45.485,5.213,0.873,10.0
43.148,4.939,0.582,2.0
33.73,3.857,0.262,0.0
29.167,3.332,0.057,1.0
24.392,2.783,-0.09,0.0
21.539,2.455,-0.203,0.0
44.977,5.114,0.817,3.0
43.383,4.927,0.54,0.0
33.278,3.775,0.224,2.0
27.923,3.164,0.026,0.0
24.013,2.718,-0.114,1.0
21.264,2.404,-0.222,1.0
44.59,5.027,0.763,4.0
39.696,4.47,0.453,0.0
32.024,3.601,0.183,1.0
26.759,3.006,-0.002,0.0
23.777,2.668,-0.137,1.0
21.025,2.356,-0.241,0.0
44.589,4.982,0.718,4.0
37.929,4.232,0.395,0.0
29.392,3.275,0.138,3.0
26.153,2.911,-0.028,1.0
23.114,2.57,-0.156,0.0
20.37,2.262,-0.254,0.0
44.611,4.938,0.674,4.0
34.696,3.836,0.326,0.0
29.329,3.238,0.108,4.0
25.911,2.857,-0.053,1.0
22.043,2.427,-0.171,0.0
19.859,2.184,-0.267,0.0
44.594,4.888,0.63,2.0
34.751,3.804,0.293,0.0
29.204,3.192,0.08,5.0
24.864,2.714,-0.075,0.0
21.655,2.361,-0.189,2.0
19.302,2.102,-0.278,0.0
44.618,4.841,0.587,0.0
33.348,3.612,0.249,1.0
29.033,3.141,0.052,1.0
24.259,2.62,-0.097,2.0
21.467,2.315,-0.208,3.0
19.02,2.049,-0.292,0.0
42.283,4.538,0.516,0.0
32.161,3.446,0.21,1.0
27.572,2.95,0.023,0.0
24.074,2.572,-0.118,1.0
21.283,2.27,-0.226,1.0
18.538,1.975,-0.302,0.0
38.376,4.073,0.433,0.0
31.797,3.369,0.178,1.0
26.478,2.801,-0.001,0.0
23.589,2.491,-0.138,0.0
20.989,2.213,-0.242,0.0
18.298,1.927,-0.315,0.0
38.752,4.064,0.402,0.0
29.355,3.073,0.138,0.0
26.085,2.726,-0.025,1.0
22.842,2.383,-0.154,0.0
20.5,2.136,-0.254,0.0
17.942,1.866,-0.324,0.0
34.715,3.596,0.33,0.0
29.265,3.026,0.112,1.0
25.856,2.669,-0.047,1.0
22.11,2.278,-0.168,1.0
19.706,2.027,-0.261,0.0
17.628,1.811,-0.334,0.0
34.258,3.503,0.296,0.0
29.123,2.973,0.087,1.0
25.178,2.566,-0.067,0.0
21.958,2.233,-0.185,4.0
19.401,1.97,-0.274,0.0
17.406,1.764,-0.344,0.0
33.19,3.349,0.259,0.0
28.645,2.885,0.061,0.0
24.615,2.474,-0.086,0.0
21.657,2.173,-0.201,4.0
19.234,1.926,-0.287,0.0
17.221,1.722,-0.354,0.0
32.35,3.219,0.227,0.0
27.69,2.75,0.037,0.0
24.212,2.4,-0.104,0.0
21.442,2.121,-0.215,4.0
18.756,1.852,-0.294,0.0
16.999,1.675,-0.363,0.0
31.93,3.132,0.199,0.0
27.037,2.647,0.016,0.0
23.856,2.331,-0.121,0.0
21.297,2.076,-0.23,3.0
18.473,1.797,-0.304,0.0
16.8,1.632,-0.371,0.0
29.328,2.834,0.161,1.0
26.25,2.531,-0.004,1.0
23.508,2.262,-0.136,0.0
20.857,2.003,-0.241,0.0
18.273,1.751,-0.314,0.0
16.519,1.58,-0.377,0.0
29.318,2.79,0.14,5.0
25.993,2.468,-0.022,1.0
22.751,2.155,-0.148,0.0
20.283,1.917,-0.248,0.0
17.99,1.697,-0.322,0.0
16.379,1.542,-0.386,0.0
29.233,2.737,0.119,5.0
25.798,2.41,-0.04,1.0
22.521,2.099,-0.162,1.0
19.888,1.849,-0.257,0.0
17.698,1.642,-0.329,0.0
16.133,1.494,-0.39,0.0
29.172,2.686,0.099,4.0
25.355,2.329,-0.056,1.0
22.194,2.034,-0.174,2.0
19.479,1.781,-0.264,0.0
17.532,1.599,-0.337,0.0
16.012,1.457,-0.398,0.0
28.956,2.621,0.08,1.0
24.928,2.25,-0.07,0.0
22.032,1.984,-0.186,3.0
19.268,1.731,-0.273,0.0
17.366,1.557,-0.344,0.0
15.91,1.423,-0.405,0.0
28.045,2.493,0.061,0.0
24.647,2.185,-0.084,0.0
21.869,1.934,-0.198,1.0
19.108,1.685,-0.282,0.0
17.144,1.508,-0.35,0.0
15.731,1.381,-0.409,0.0
27.358,2.387,0.044,0.0
24.37,2.12,-0.097,0.0
21.625,1.876,-0.208,1.0
18.908,1.637,-0.29,0.0
16.978,1.466,-0.356,0.0
15.63,1.346,-0.415,0.0
26.993,2.31,0.029,1.0
23.943,2.043,-0.108,0.0
21.475,1.827,-0.218,0.0
18.639,1.582,-0.295,0.0
16.895,1.43,-0.363,0.0
15.531,1.311,-0.421,0.0
26.819,2.25,0.015,1.0
23.932,2.002,-0.12,1.0
21.174,1.766,-0.225,0.0
18.417,1.532,-0.301,0.0
16.722,1.387,-0.367,0.0
15.397,1.273,-0.424,0.0
26.538,2.181,0.002,1.0
23.745,1.945,-0.13,1.0
20.897,1.706,-0.232,0.0
18.344,1.494,-0.308,0.0
16.644,1.351,-0.373,0.0
15.249,1.234,-0.427,0.0
26.149,2.102,-0.008,0.0
23.371,1.873,-0.138,0.0
20.559,1.643,-0.237,0.0
18.106,1.442,-0.312,0.0
16.506,1.311,-0.377,0.0
15.158,1.2,-0.431,0.0
26.014,2.046,-0.019,0.0
23.122,1.813,-0.146,0.0
20.395,1.594,-0.243,0.0
18.004,1.403,-0.317,0.0
16.391,1.273,-0.38,0.0
14.947,1.157,-0.43,0.0
25.74,1.979,-0.028,0.0
22.924,1.756,-0.153,0.0
20.309,1.551,-0.249,0.0
17.892,1.362,-0.321,0.0
16.282,1.235,-0.383,0.0
14.997,1.134,-0.437,0.0
25.562,1.919,-0.037,0.0
22.864,1.71,-0.16,0.0
20.156,1.502,-0.254,0.0
17.72,1.316,-0.324,0.0
16.202,1.199,-0.387,0.0
14.884,1.098,-0.438,0.0
25.409,1.86,-0.044,0.0
22.717,1.657,-0.166,0.0
19.781,1.438,-0.255,0.0
17.585,1.273,-0.326,0.0
16.131,1.164,-0.389,0.0
14.797,1.064,-0.439,0.0
25.31,1.806,-0.051,0.0
22.471,1.598,-0.17,0.0
19.679,1.394,-0.258,0.0
17.488,1.234,-0.329,0.0
16.071,1.13,-0.392,0.0
14.773,1.035,-0.442,0.0
25.32,1.76,-0.056,0.0
22.389,1.55,-0.174,0.0
19.642,1.355,-0.262,0.0
17.424,1.197,-0.331,0.0
15.948,1.091,-0.392,0.0
14.71,1.003,-0.443,0.0
25.122,1.699,-0.061,0.0
22.329,1.503,-0.178,0.0
19.556,1.312,-0.265,0.0
17.336,1.158,-0.333,0.0
16.004,1.064,-0.396,0.0
14.689,0.973,-0.445,0.0
25.014,1.644,-0.064,0.0
22.233,1.454,-0.181,0.0
19.474,1.269,-0.266,0.0
17.315,1.123,-0.334,0.0
15.893,1.026,-0.395,0.0
14.671,0.943,-0.446,0.0
25.0,1.595,-0.067,0.0
22.195,1.41,-0.183,0.0
19.273,1.219,-0.265,0.0
17.293,1.089,-0.336,0.0
15.915,0.998,-0.397,0.0
14.707,0.917,-0.448,0.0
25.032,1.549,-0.069,1.0
22.03,1.357,-0.183,0.0
19.23,1.179,-0.266,0.0
17.202,1.049,-0.335,0.0
15.861,0.963,-0.397,0.0
14.575,0.881,-0.445,0.0
24.951,1.496,-0.07,0.0
21.854,1.303,-0.182,0.0
19.232,1.141,-0.267,0.0
17.23,1.017,-0.336,0.0
15.87,0.933,-0.397,0.0
14.643,0.857,-0.447,0.0
24.947,1.446,-0.07,0.0
21.899,1.263,-0.183,1.0
19.38,1.112,-0.269,0.0
17.211,0.982,-0.335,0.0
15.912,0.904,-0.398,0.0
14.612,0.826,-0.446,0.0
25.044,1.403,-0.07,0.0
21.993,1.225,-0.183,2.0
19.313,1.07,-0.267,0.0
17.185,0.947,-0.334,0.0
15.905,0.872,-0.397,0.0
14.597,0.796,-0.445,0.0
25.114,1.357,-0.068,0.0
22.004,1.182,-0.181,1.0
19.423,1.037,-0.267,0.0
17.173,0.912,-0.332,0.0
15.949,0.842,-0.396,0.0
14.59,0.766,-0.443,0.0
25.275,1.315,-0.066,1.0
22.086,1.142,-0.179,1.0
19.539,1.004,-0.266,0.0
17.274,0.883,-0.332,0.0
15.937,0.81,-0.394,0.0
14.575,0.736,-0.44,0.0
25.274,1.264,-0.062,0.0
22.162,1.102,-0.176,1.0
19.522,0.965,-0.262,0.0
17.309,0.85,-0.329,0.0
15.928,0.777,-0.391,0.0
14.704,0.713,-0.441,0.0
25.305,1.215,-0.058,0.0
22.375,1.067,-0.174,1.0
19.585,0.928,-0.259,0.0
17.421,0.82,-0.328,0.0
15.989,0.748,-0.389,0.0
14.743,0.685,-0.439,0.0
25.481,1.173,-0.052,0.0
22.588,1.032,-0.17,1.0
19.785,0.898,-0.257,0.0
17.516,0.79,-0.325,0.0
16.065,0.72,-0.387,0.0
14.767,0.657,-0.436,0.0
25.607,1.127,-0.046,0.0
22.868,0.999,-0.166,0.0
19.861,0.862,-0.253,0.0
17.662,0.761,-0.323,0.0
16.107,0.689,-0.383,0.0
14.834,0.63,-0.434,0.0
25.858,1.086,-0.038,0.0
21.029,0.876,-0.146,0.0
19.895,0.823,-0.247,0.0
17.773,0.73,-0.32,0.0
16.144,0.657,-0.378,0.0
14.949,0.604,-0.432,0.0
25.957,1.037,-0.03,0.0
23.108,0.916,-0.153,0.0
20.002,0.786,-0.241,0.0
17.788,0.694,-0.313,0.0
16.336,0.632,-0.377,0.0
15.025,0.577,-0.429,0.0
25.855,0.98,-0.02,9.0
23.345,0.877,-0.145,0.0
20.344,0.758,-0.237,0.0
17.973,0.664,-0.309,0.0
16.412,0.601,-0.372,0.0
15.241,0.554,-0.428,0.0
26.397,0.947,-0.009,0.0
23.566,0.838,-0.136,0.0
20.725,0.73,-0.233,0.0
18.076,0.631,-0.303,0.0
16.508,0.571,-0.367,0.0
15.175,0.52,-0.42,0.0
26.636,0.902,0.002,1.0
23.941,0.803,-0.128,0.0
21.138,0.702,-0.227,0.0
18.209,0.599,-0.297,0.0
16.603,0.541,-0.361,0.0
15.27,0.493,-0.415,0.0
26.796,0.853,0.015,0.0
24.068,0.759,-0.116,0.0
21.436,0.669,-0.22,0.0
18.366,0.567,-0.29,0.0
16.769,0.513,-0.356,0.0
15.465,0.468,-0.412,0.0
27.217,0.812,0.03,0.0
24.235,0.715,-0.104,0.0
21.641,0.632,-0.21,0.0
18.728,0.54,-0.285,0.0
16.934,0.483,-0.349,0.0
15.638,0.441,-0.408,0.0
27.453,0.763,0.046,0.0
24.647,0.677,-0.092,0.0
21.852,0.593,-0.199,0.0
19.067,0.511,-0.279,0.0
17.035,0.451,-0.341,0.0
15.709,0.411,-0.4,0.0
28.545,0.736,0.065,1.0
25.11,0.639,-0.078,0.0
22.128,0.556,-0.188,0.0
19.482,0.484,-0.273,0.0
17.227,0.422,-0.334,0.0
15.886,0.384,-0.394,0.0
28.772,0.685,0.084,2.0
25.372,0.596,-0.062,0.0
22.461,0.52,-0.176,0.0
19.633,0.448,-0.262,0.0
17.424,0.392,-0.327,0.0
16.125,0.358,-0.389,0.0
28.819,0.629,0.104,4.0
25.781,0.554,-0.045,0.0
22.914,0.485,-0.164,0.0
19.804,0.413,-0.25,0.0
17.734,0.364,-0.32,0.0
16.235,0.328,-0.38,0.0
28.836,0.571,0.124,1.0
26.169,0.51,-0.027,0.0
23.429,0.449,-0.15,0.0
20.193,0.38,-0.24,0.0
17.95,0.332,-0.31,0.0
16.464,0.299,-0.373,0.0
28.896,0.515,0.147,0.0
26.537,0.464,-0.007,0.0
23.753,0.408,-0.134,0.0
20.53,0.346,-0.228,0.0
18.216,0.301,-0.3,0.0
16.608,0.269,-0.363,0.0
28.925,0.458,0.17,1.0
26.981,0.419,0.013,0.0
24.184,0.368,-0.117,0.0
21.332,0.317,-0.22,0.0
18.515,0.27,-0.29,0.0
16.777,0.239,-0.353,0.0
31.643,0.44,0.212,0.0
27.484,0.373,0.036,0.0
24.684,0.327,-0.099,0.0
21.83,0.282,-0.207,1.0
18.9,0.238,-0.28,0.0
16.982,0.209,-0.343,0.0
31.81,0.38,0.241,0.0
28.546,0.332,0.063,1.0
25.255,0.286,-0.079,0.0
22.092,0.243,-0.189,2.0
19.202,0.205,-0.267,0.0
17.23,0.178,-0.332,0.0
32.556,0.326,0.275,0.0
28.727,0.278,0.089,7.0
25.78,0.241,-0.057,0.0
22.43,0.203,-0.172,1.0
19.853,0.173,-0.258,0.0
17.531,0.147,-0.322,0.0
33.475,0.27,0.314,0.0
28.827,0.224,0.117,3.0
26.126,0.195,-0.033,0.0
23.234,0.166,-0.156,0.0
20.468,0.139,-0.246,0.0
17.96,0.117,-0.312,0.0
34.271,0.212,0.355,0.0
28.944,0.17,0.145,0.0
26.676,0.148,-0.007,0.0
23.626,0.124,-0.135,0.0
20.988,0.103,-0.232,2.0
18.269,0.084,-0.299,0.0
35.746,0.152,0.406,0.0
30.245,0.119,0.183,0.0
27.229,0.099,0.019,0.0
24.247,0.081,-0.114,0.0
21.349,0.064,-0.214,4.0
18.659,0.05,-0.286,0.0
36.184,0.087,0.449,0.0
30.959,0.064,0.219,0.0
28.252,0.05,0.049,1.0
25.03,0.036,-0.091,0.0
21.826,0.025,-0.195,1.0
19.211,0.016,-0.274,0.0
37.76,0.02,0.509,0.0
33.158,0.008,0.27,0.0
28.591,-0.001,0.081,1.0
25.525,-0.009,-0.065,0.0
22.758,-0.015,-0.179,0.0
19.761,-0.019,-0.26,0.0
38.088,-0.049,0.555,0.0
33.187,-0.052,0.307,1.0
28.813,-0.054,0.114,6.0
26.008,-0.057,-0.037,0.0
23.451,-0.058,-0.158,0.0
20.355,-0.057,-0.245,0.0
0.0,0.0,0.0,0.0
0.0,0.0,0.0,0.0
28.853,-0.106,0.147,2.0
26.859,-0.107,-0.008,0.0
23.902,-0.102,-0.134,0.0
21.232,-0.097,-0.231,0.0
0.0,0.0,0.0,0.0
0.0,0.0,0.0,0.0
31.167,-0.171,0.195,1.0
27.51,-0.159,0.023,0.0
24.464,-0.149,-0.108,0.0
21.952,-0.14,-0.213,1.0
0.0,0.0,0.0,0.0
0.0,0.0,0.0,0.0
31.787,-0.231,0.237,2.0
28.567,-0.215,0.059,4.0
25.173,-0.197,-0.08,0.0
22.391,-0.182,-0.19,1.0
0.0,0.0,0.0,0.0
0.0,0.0,0.0,0.0
32.686,-0.294,0.284,1.0
28.733,-0.266,0.095,4.0
25.909,-0.248,-0.051,0.0
22.972,-0.226,-0.166,0.0
0.0,0.0,0.0,0.0
0.0,0.0,0.0,0.0
33.649,-0.36,0.335,1.0
28.808,-0.317,0.132,0.0
26.504,-0.299,-0.018,0.0
23.366,-0.27,-0.139,0.0
0.0,0.0,0.0,0.0
0.0,0.0,0.0,0.0
34.485,-0.428,0.388,0.0
30.766,-0.39,0.18,0.0
27.236,-0.353,0.016,0.0
24.409,-0.324,-0.113,0.0
0.0,0.0,0.0,0.0
0.0,0.0,0.0,0.0
36.429,-0.513,0.458,0.0
31.715,-0.456,0.228,0.0
28.299,-0.415,0.055,1.0
25.201,-0.376,-0.083,0.0
63.72,-0.968,1.559,0.0
0.0,0.0,0.0,0.0
0.0,0.0,0.0,0.0
33.207,-0.532,0.284,1.0
28.604,-0.466,0.094,1.0
25.96,-0.43,-0.05,0.0
0.0,0.0,0.0,0.0
0.0,0.0,0.0,0.0
0.0,0.0,0.0,0.0
33.852,-0.597,0.337,2.0
28.77,-0.515,0.135,0.0
26.714,-0.486,-0.014,0.0
0.0,0.0,0.0,0.0
0.0,0.0,0.0,0.0
42.106,-0.799,0.704,0.0
34.867,-0.671,0.396,0.0
30.684,-0.599,0.187,0.0
27.605,-0.546,0.023,0.0
0.0,0.0,0.0,0.0
0.0,0.0,0.0,0.0
0.0,0.0,0.0,0.0
0.0,0.0,0.0,0.0
32.285,-0.681,0.244,1.0
28.605,-0.611,0.066,5.0
91.871,-1.983,2.766,1.0
0.0,0.0,0.0,0.0
0.0,0.0,0.0,0.0
0.0,0.0,0.0,0.0
33.382,-0.755,0.301,1.0
28.729,-0.657,0.108,9.0
96.866,-2.239,3.059,4.0
0.0,0.0,0.0,0.0
0.0,0.0,0.0,0.0
0.0,0.0,0.0,0.0
0.0,0.0,0.0,0.0
28.801,-0.702,0.152,1.0
96.878,-2.384,3.204,2.0
0.0,0.0,0.0,0.0
0.0,0.0,0.0,0.0
0.0,0.0,0.0,0.0
36.701,-0.939,0.441,0.0
31.394,-0.811,0.213,0.0
92.424,-2.411,3.198,171.0
0.0,0.0,0.0,0.0
0.0,0.0,0.0,0.0
0.0,0.0,0.0,0.0
0.0,0.0,0.0,0.0
32.582,-0.889,0.272,0.0
92.339,-2.54,3.337,183.0
92.994,-2.58,2.873,2.0
0.0,0.0,0.0,0.0
0.0,0.0,0.0,0.0
0.0,0.0,0.0,0.0
34.264,-0.983,0.339,0.0
92.311,-2.667,3.479,32.0
92.456,-2.693,3.001,10.0
0.0,0.0,0.0,0.0
0.0,0.0,0.0,0.0
0.0,0.0,0.0,0.0
34.849,-1.047,0.399,0.0
92.261,-2.793,3.624,26.0
92.211,-2.811,3.139,30.0
0.0,0.0,0.0,0.0
0.0,0.0,0.0,0.0
0.0,0.0,0.0,0.0
37.674,-1.182,0.492,0.0
92.236,-2.914,3.769,15.0
92.237,-2.935,3.288,150.0
92.959,-2.978,2.828,2.0
0.0,0.0,0.0,0.0
0.0,0.0,0.0,0.0
0.0,0.0,0.0,0.0
0.0,0.0,0.0,0.0
92.249,-3.053,3.436,171.0
92.89,-3.094,2.975,5.0
0.0,0.0,0.0,0.0
0.0,0.0,0.0,0.0
0.0,0.0,0.0,0.0
93.27,-3.184,4.112,1.0
92.236,-3.168,3.586,151.0
92.169,-3.184,3.102,29.0
0.0,0.0,0.0,0.0
0.0,0.0,0.0,0.0
0.0,0.0,0.0,0.0
190.207,-6.724,8.697,6.0
92.198,-3.277,3.734,26.0
92.174,-3.295,3.252,136.0
0.0,0.0,0.0,0.0
0.0,0.0,0.0,0.0
0.0,0.0,0.0,0.0
113.406,-4.143,5.372,28.0
0.0,0.0,0.0,0.0
92.182,-3.403,3.406,80.0
92.641,-3.438,2.931,2.0
0.0,0.0,0.0,0.0
0.0,0.0,0.0,0.0
113.41,-4.275,5.564,19.0
0.0,0.0,0.0,0.0
92.174,-3.507,3.56,52.0
92.101,-3.521,3.068,18.0
0.0,0.0,0.0,0.0
0.0,0.0,0.0,0.0
113.615,-4.408,5.764,6.0
0.0,0.0,0.0,0.0
92.176,-3.608,3.715,150.0
92.138,-3.623,3.224,150.0
0.0,0.0,0.0,0.0
0.0,0.0,0.0,0.0
122.809,-4.897,6.439,11.0
194.797,-7.801,9.199,16.0
0.0,0.0,0.0,0.0
92.155,-3.72,3.381,152.0
92.546,-3.752,2.914,3.0
0.0,0.0,0.0,0.0
98.106,-4.013,5.31,18.0
113.495,-4.661,5.552,10.0
93.316,-3.847,4.079,3.0
92.261,-3.818,3.543,13.0
92.226,-3.832,3.062,9.0
0.0,0.0,0.0,0.0
98.563,-4.131,5.505,15.0
120.231,-5.057,6.088,14.0
120.246,-5.076,5.462,29.0
92.434,-3.915,3.707,4.0
92.239,-3.921,3.219,166.0
0.0,0.0,0.0,0.0
89.782,-3.848,5.168,11.0
120.234,-5.17,6.293,21.0
120.273,-5.19,5.669,13.0
0.0,0.0,0.0,0.0
92.242,-4.006,3.378,51.0
0.0,0.0,0.0,0.0
89.695,-3.927,5.318,17.0
111.824,-4.91,6.046,9.0
122.86,-5.412,6.003,17.0
0.0,0.0,0.0,0.0
92.768,-4.111,3.558,3.0
92.665,-4.12,3.073,3.0
90.672,-4.05,5.533,18.0
89.783,-4.021,5.01,16.0
164.331,-7.381,8.316,11.0
164.517,-7.411,7.452,5.0
93.39,-4.218,3.743,3.0
93.473,-4.234,3.261,4.0
90.676,-4.126,5.692,12.0
89.745,-4.094,5.165,8.0
111.642,-5.106,5.843,17.0
164.316,-7.536,7.728,38.0
0.0,0.0,0.0,0.0
94.236,-4.344,3.452,3.0
91.121,-4.219,5.879,14.0
98.362,-4.566,5.834,7.0
112.407,-5.231,6.08,11.0
164.332,-7.664,8.015,13.0
0.0,0.0,0.0,0.0
95.029,-4.453,3.646,1.0
91.333,-4.298,6.052,18.0
108.915,-5.137,6.648,16.0
122.391,-5.784,6.831,9.0
189.678,-8.985,9.579,9.0
0.0,0.0,0.0,0.0
0.0,0.0,0.0,0.0
91.396,-4.367,6.216,15.0
91.919,-4.401,5.771,9.0
98.366,-4.718,5.662,14.0
112.034,-5.385,5.854,8.0
194.381,-9.363,9.147,12.0
0.0,0.0,0.0,0.0
91.337,-4.426,6.372,13.0
91.915,-4.462,5.932,16.0
112.523,-5.473,6.675,9.0
112.387,-5.476,6.071,8.0
189.708,-9.26,9.261,5.0
0.0,0.0,0.0,0.0
88.055,-4.324,6.299,18.0
92.223,-4.535,6.115,16.0
91.869,-4.525,5.613,17.0
112.385,-5.545,6.268,10.0
189.538,-9.368,9.586,19.0
0.0,0.0,0.0,0.0
88.632,-4.405,6.497,20.0
92.165,-4.588,6.273,22.0
91.884,-4.58,5.775,7.0
112.026,-5.592,6.445,14.0
112.631,-5.63,5.894,7.0
0.0,0.0,0.0,0.0
88.776,-4.463,6.664,13.0
87.96,-4.426,6.143,14.0
108.6,-5.472,7.017,15.0
111.982,-5.65,6.641,9.0
112.636,-5.691,6.092,6.0
189.232,-9.571,9.249,4.0
88.607,-4.5,6.808,22.0
87.989,-4.473,6.3,27.0
91.923,-4.678,6.102,12.0
111.884,-5.701,6.832,12.0
122.865,-6.266,6.861,9.0
189.284,-9.665,9.585,19.0
88.925,-4.559,6.989,27.0
88.175,-4.524,6.468,18.0
91.859,-4.717,6.257,8.0
108.623,-5.583,6.82,9.0
112.175,-5.77,6.458,11.0
112.707,-5.803,5.901,3.0
88.899,-4.596,7.142,17.0
88.56,-4.581,6.649,16.0
88.842,-4.599,6.206,14.0
108.585,-5.625,7.006,7.0
112.17,-5.816,6.652,17.0
119.137,-6.181,6.443,12.0
88.62,-4.616,7.272,23.0
88.704,-4.623,6.814,16.0
87.949,-4.585,6.295,18.0
89.71,-4.68,5.943,24.0
112.119,-5.853,6.843,14.0
119.298,-6.232,6.657,11.0
88.676,-4.649,7.431,20.0
89.163,-4.677,7.005,21.0
88.241,-4.631,6.47,16.0
89.823,-4.716,6.106,16.0
92.408,-4.853,5.798,11.0
112.203,-5.895,6.454,11.0
88.85,-4.687,7.599,26.0
88.628,-4.675,7.115,29.0
88.407,-4.665,6.632,13.0
87.858,-4.637,6.123,13.0
92.429,-4.88,5.957,13.0
112.116,-5.92,6.641,14.0
88.955,-4.716,7.761,21.0
88.614,-4.698,7.265,25.0
88.715,-4.704,6.807,14.0
87.859,-4.658,6.272,23.0
89.746,-4.759,5.936,14.0
112.079,-5.944,6.826,8.0
89.291,-4.754,7.942,16.0
88.799,-4.727,7.431,15.0
88.821,-4.727,6.965,19.0
88.239,-4.696,6.448,11.0
89.907,-4.785,6.099,14.0
92.419,-4.919,5.785,15.0
89.311,-4.772,8.096,16.0
88.871,-4.747,7.587,22.0
88.565,-4.729,7.095,26.0
88.262,-4.712,6.597,4.0
87.824,-4.687,6.104,15.0
92.313,-4.926,5.933,14.0
87.281,-4.676,8.058,15.0
89.107,-4.771,7.756,23.0
88.635,-4.744,7.248,27.0
0.0,0.0,0.0,0.0
87.852,-4.698,6.251,24.0
89.687,-4.795,5.911,11.0
86.977,-4.668,8.175,14.0
89.312,-4.791,7.922,17.0
88.862,-4.764,7.413,14.0
88.549,-4.745,6.912,21.0
88.152,-4.721,6.418,9.0
89.972,-4.817,6.078,15.0
86.936,-4.671,8.314,11.0
89.321,-4.796,8.07,14.0
88.93,-4.772,7.566,24.0
88.573,-4.749,7.059,24.0
90.454,-4.847,6.733,7.0
87.806,-4.702,6.074,14.0
88.274,-4.746,8.587,23.0
87.326,-4.69,8.032,12.0
89.08,-4.781,7.722,25.0
88.606,-4.751,7.205,27.0
90.09,-4.827,6.85,9.0
87.811,-4.701,6.216,24.0
88.28,-4.744,8.73,23.0
86.994,-4.67,8.142,15.0
89.32,-4.791,7.886,19.0
88.72,-4.754,7.355,17.0
88.697,-4.748,6.886,16.0
88.081,-4.711,6.373,12.0
88.106,-4.73,8.853,21.0
86.991,-4.664,8.28,10.0
89.352,-4.786,8.03,19.0
88.88,-4.756,7.508,18.0
88.642,-4.737,7.019,22.0
88.444,-4.722,6.537,4.0
82.438,-4.418,8.413,19.0
88.049,-4.712,8.517,19.0
87.535,-4.679,8.004,10.0
88.89,-4.746,7.647,22.0
88.572,-4.723,7.152,30.0
88.441,-4.709,6.674,9.0
82.481,-4.408,8.547,21.0
88.4,-4.718,8.69,19.0
87.235,-4.65,8.113,13.0
89.092,-4.741,7.803,17.0
88.638,-4.711,7.294,21.0
89.011,-4.725,6.854,16.0
82.185,-4.379,8.644,13.0
88.069,-4.684,8.793,19.0
84.733,-4.5,8.01,14.0
89.326,-4.737,7.96,10.0
88.719,-4.698,7.436,23.0
89.021,-4.706,6.99,25.0
81.85,-4.343,8.733,27.0
88.035,-4.663,8.924,10.0
87.708,-4.638,8.422,14.0
89.317,-4.715,8.092,8.0
88.907,-4.686,7.583,21.0
88.677,-4.666,7.094,26.0
81.83,-4.321,8.853,26.0
82.534,-4.35,8.489,15.0
88.167,-4.639,8.598,19.0
85.183,-4.473,7.844,9.0
88.931,-4.662,7.715,11.0
88.619,-4.638,7.217,24.0
90.144,-4.734,9.885,16.0
82.499,-4.324,8.605,13.0
88.522,-4.631,8.761,14.0
84.864,-4.431,7.937,18.0
89.294,-4.653,7.876,7.0
88.638,-4.61,7.346,14.0
90.033,-4.7,10.003,19.0
82.433,-4.293,8.716,12.0
88.212,-4.585,8.856,11.0
84.828,-4.4,8.054,15.0
89.257,-4.62,7.998,16.0
88.682,-4.581,7.474,20.0
90.028,-4.667,10.13,11.0
82.145,-4.248,8.802,21.0
81.773,-4.219,8.324,9.0
83.154,-4.281,8.011,16.0
89.128,-4.578,8.11,6.0
88.77,-4.55,7.604,14.0
85.879,-4.417,9.782,12.0
82.127,-4.214,8.914,17.0
88.79,-4.545,9.161,12.0
83.444,-4.261,8.154,16.0
85.324,-4.347,7.881,19.0
87.046,-4.425,7.574,14.0
86.266,-4.4,9.945,10.0
90.446,-4.601,9.939,15.0
82.586,-4.191,8.631,24.0
83.699,-4.237,8.29,11.0
85.045,-4.293,7.968,20.0
86.977,-4.38,7.684,25.0
86.395,-4.366,10.076,20.0
89.799,-4.526,9.988,6.0
82.344,-4.138,8.715,15.0
81.853,-4.103,8.215,29.0
84.979,-4.248,8.073,20.0
86.889,-4.332,7.789,17.0
86.455,-4.326,10.195,24.0
81.706,-4.076,9.194,9.0
81.409,-4.05,8.722,17.0
81.939,-4.065,8.328,24.0
83.244,-4.118,8.014,16.0
86.99,-4.291,7.908,13.0
86.566,-4.285,10.319,23.0
82.357,-4.064,9.372,16.0
81.133,-3.992,8.794,28.0
82.044,-4.025,8.442,28.0
83.288,-4.074,8.122,24.0
85.393,-4.164,7.868,8.0
86.699,-4.242,10.443,26.0
86.377,-4.213,9.936,13.0
81.362,-3.955,8.919,34.0
82.169,-3.983,8.555,23.0
83.193,-4.02,8.213,21.0
85.37,-4.112,7.969,11.0
86.845,-4.196,10.566,29.0
86.811,-4.181,10.09,22.0
81.527,-3.914,9.034,25.0
82.169,-3.932,8.652,28.0
82.848,-3.952,8.276,20.0
79.672,-3.788,7.53,11.0
86.481,-4.124,10.623,19.0
86.854,-4.128,10.197,9.0
81.679,-3.869,9.146,26.0
82.069,-3.874,8.736,15.0
82.579,-3.885,8.343,20.0
79.491,-3.728,7.602,31.0
86.333,-4.059,10.704,26.0
85.903,-4.025,10.183,11.0
81.77,-3.818,9.248,29.0
81.377,-3.786,8.753,12.0
82.353,-3.818,8.412,27.0
79.531,-3.674,7.694,33.0
86.508,-4.009,10.821,23.0
85.999,-3.97,10.288,10.0
80.885,-3.72,9.235,20.0
81.341,-3.728,8.837,21.0
81.514,-3.722,8.413,20.0
79.807,-3.63,7.805,10.0
86.65,-3.953,10.932,29.0
82.26,-3.738,9.928,13.0
80.468,-3.642,9.273,24.0
81.386,-3.668,8.927,24.0
81.86,-3.676,8.534,40.0
79.874,-3.574,7.894,22.0
86.324,-3.872,10.981,22.0
82.289,-3.676,10.017,18.0
80.417,-3.579,9.349,27.0
81.404,-3.608,9.011,20.0
81.869,-3.614,8.617,21.0
79.936,-3.516,7.979,17.0
79.841,-3.519,10.236,14.0
82.341,-3.615,10.104,12.0
80.543,-3.521,9.442,23.0
81.425,-3.545,9.092,16.0
82.039,-3.557,8.713,26.0
84.395,-3.644,8.504,10.0
79.95,-3.46,10.326,34.0
85.372,-3.679,10.557,9.0
81.308,-3.488,9.608,19.0
81.188,-3.468,9.141,14.0
81.848,-3.482,8.768,16.0
79.903,-3.385,8.124,11.0
80.231,-3.407,10.435,26.0
80.918,-3.42,10.079,21.0
81.154,-3.415,9.663,22.0
77.685,-3.254,8.816,11.0
64.657,-2.696,6.983,19.0
79.664,-3.308,8.169,17.0
80.55,-3.351,10.548,27.0
80.268,-3.323,10.069,22.0
80.897,-3.333,9.703,27.0
77.692,-3.187,8.883,29.0
64.64,-2.639,7.037,24.0
79.698,-3.238,8.24,26.0
80.633,-3.283,10.628,25.0
80.095,-3.246,10.114,28.0
76.818,-3.097,9.277,10.0
77.813,-3.123,8.96,30.0
64.705,-2.584,7.096,14.0
79.964,-3.178,8.331,26.0
80.694,-3.212,10.701,27.0
80.045,-3.171,10.171,27.0
76.85,-3.029,9.341,24.0
77.877,-3.054,9.028,27.0
79.066,-3.086,8.731,10.0
79.369,-3.082,8.329,24.0
80.894,-3.147,10.788,19.0
80.133,-3.101,10.242,22.0
76.847,-2.958,9.397,16.0
77.876,-2.981,9.085,14.0
78.738,-2.999,8.752,21.0
64.501,-2.445,6.815,22.0
75.902,-2.88,10.177,9.0
80.15,-3.024,10.302,26.0
77.073,-2.893,9.479,10.0
77.759,-2.903,9.125,27.0
78.991,-2.933,8.834,19.0
64.552,-2.384,6.864,33.0
75.883,-2.806,10.227,23.0
79.907,-2.938,10.324,27.0
80.429,-2.941,9.945,22.0
77.535,-2.819,9.149,32.0
79.019,-2.857,8.888,14.0
64.665,-2.326,6.916,32.0
75.968,-2.735,10.286,24.0
79.596,-2.848,10.333,23.0
0.0,0.0,0.0,0.0
76.898,-2.72,9.121,29.0
78.741,-2.77,8.903,10.0
64.703,-2.263,6.958,18.0
76.056,-2.661,10.343,18.0
79.8,-2.775,10.406,13.0
76.943,-2.66,9.605,23.0
76.927,-2.643,9.168,30.0
78.203,-2.671,8.886,13.0
63.829,-2.167,6.9,7.0
76.124,-2.586,10.394,13.0
76.156,-2.571,9.973,16.0
76.886,-2.579,9.639,19.0
77.032,-2.568,9.221,29.0
64.715,-2.144,7.387,14.0
77.582,-2.555,8.425,6.0
79.815,-2.627,10.939,8.0
75.672,-2.475,9.947,23.0
76.461,-2.485,9.623,25.0
77.831,-2.513,9.354,28.0
64.763,-2.078,7.423,22.0
80.348,-2.562,8.763,9.0
21.71,-0.455,-0.203,0.0
18.387,-0.391,-0.278,0.0
16.611,-0.357,-0.346,0.0
15.217,-0.331,-0.406,0.0
13.981,-0.308,-0.454,0.0
12.916,-0.288,-0.493,0.0
20.497,-0.463,-0.219,0.0
18.014,-0.412,-0.296,0.0
16.413,-0.38,-0.364,0.0
14.832,-0.347,-0.416,0.0
13.741,-0.325,-0.464,0.0
12.762,-0.306,-0.505,0.0
19.786,-0.479,-0.238,0.0
17.503,-0.429,-0.311,0.0
16.05,-0.397,-0.377,0.0
14.589,-0.365,-0.428,0.0
13.471,-0.341,-0.472,0.0
12.535,-0.321,-0.512,0.0
19.313,-0.499,-0.257,0.0
17.087,-0.447,-0.325,0.0
15.753,-0.416,-0.39,0.0
14.355,-0.383,-0.439,0.0
13.312,-0.359,-0.484,0.0
12.361,-0.337,-0.52,0.0
18.672,-0.514,-0.271,0.0
16.808,-0.467,-0.341,0.0
15.376,-0.432,-0.4,0.0
14.05,-0.399,-0.447,0.0
13.09,-0.375,-0.492,0.0
12.221,-0.354,-0.529,0.0
18.165,-0.53,-0.286,0.0
16.521,-0.487,-0.355,0.0
15.059,-0.448,-0.409,0.0
13.858,-0.417,-0.457,0.0
12.859,-0.39,-0.498,0.0
12.026,-0.369,-0.535,0.0
17.776,-0.549,-0.3,0.0
16.227,-0.506,-0.367,0.0
14.826,-0.466,-0.42,0.0
13.653,-0.433,-0.466,0.0
12.667,-0.406,-0.505,0.0
11.885,-0.384,-0.542,0.0
17.458,-0.569,-0.315,0.0
15.894,-0.523,-0.377,0.0
14.563,-0.483,-0.429,0.0
13.435,-0.45,-0.474,0.0
12.507,-0.422,-0.513,0.0
11.784,-0.401,-0.551,0.0
17.115,-0.587,-0.328,0.0
15.666,-0.542,-0.389,0.0
14.339,-0.5,-0.438,0.0
13.217,-0.465,-0.481,0.0
12.384,-0.44,-0.521,0.0
11.624,-0.416,-0.556,0.0
16.818,-0.606,-0.34,0.0
15.437,-0.561,-0.4,0.0
14.111,-0.517,-0.446,0.0
13.032,-0.481,-0.488,0.0
12.256,-0.456,-0.528,0.0
11.502,-0.432,-0.562,0.0
16.51,-0.624,-0.35,0.0
15.042,-0.573,-0.405,0.0
13.848,-0.532,-0.452,0.0
12.821,-0.496,-0.493,0.0
12.111,-0.472,-0.535,0.0
11.378,-0.447,-0.567,0.0
16.329,-0.646,-0.363,0.0
14.847,-0.592,-0.414,0.0
13.758,-0.552,-0.462,0.0
12.74,-0.516,-0.502,0.0
11.945,-0.487,-0.539,0.0
11.264,-0.463,-0.573,0.0
16.026,-0.662,-0.371,0.0
14.693,-0.612,-0.424,0.0
13.601,-0.57,-0.47,0.0
12.494,-0.528,-0.504,0.0
11.824,-0.503,-0.544,0.0
11.161,-0.479,-0.578,0.0
15.811,-0.681,-0.381,0.0
14.496,-0.629,-0.431,0.0
13.414,-0.586,-0.475,0.0
12.409,-0.546,-0.512,0.0
11.728,-0.52,-0.551,0.0
11.013,-0.492,-0.58,0.0
15.611,-0.7,-0.389,0.0
14.274,-0.645,-0.437,0.0
13.243,-0.603,-0.481,0.0
12.327,-0.565,-0.519,0.0
11.604,-0.535,-0.555,0.0
10.9,-0.506,-0.583,0.0
15.33,-0.715,-0.395,0.0
14.116,-0.663,-0.444,0.0
13.109,-0.62,-0.487,0.0
12.252,-0.583,-0.526,0.0
11.512,-0.552,-0.559,0.0
10.84,-0.523,-0.588,0.0
15.125,-0.733,-0.402,0.0
13.964,-0.681,-0.45,0.0
12.971,-0.636,-0.492,0.0
12.15,-0.6,-0.531,0.0
11.413,-0.567,-0.563,0.0
10.787,-0.54,-0.594,0.0
14.915,-0.749,-0.407,0.0
13.76,-0.695,-0.454,0.0
12.832,-0.652,-0.496,0.0
12.046,-0.616,-0.535,0.0
11.31,-0.582,-0.566,0.0
10.703,-0.555,-0.597,0.0
14.844,-0.772,-0.416,0.0
13.696,-0.717,-0.461,0.0
12.77,-0.672,-0.502,0.0
11.94,-0.633,-0.539,0.0
11.255,-0.6,-0.572,0.0
10.589,-0.568,-0.598,0.0
14.702,-0.791,-0.422,0.0
13.6,-0.736,-0.467,0.0
12.706,-0.692,-0.508,0.0
11.811,-0.647,-0.54,0.0
11.198,-0.617,-0.576,0.0
10.507,-0.582,-0.6,0.0
14.579,-0.81,-0.427,0.0
13.478,-0.753,-0.471,0.0
12.545,-0.705,-0.509,0.0
11.791,-0.667,-0.547,0.0
11.057,-0.629,-0.575,0.0
10.481,-0.6,-0.605,0.0
14.472,-0.83,-0.433,0.0
13.405,-0.774,-0.476,0.0
12.44,-0.722,-0.512,0.0
11.705,-0.683,-0.55,0.0
11.071,-0.65,-0.582,0.0
10.386,-0.613,-0.605,0.0
14.28,-0.845,-0.435,0.0
13.297,-0.791,-0.48,0.0
12.381,-0.741,-0.517,0.0
11.609,-0.698,-0.551,0.0
10.911,-0.66,-0.58,0.0
10.357,-0.63,-0.609,0.0
14.178,-0.864,-0.439,0.0
13.19,-0.808,-0.482,0.0
12.363,-0.762,-0.522,0.0
11.582,-0.717,-0.555,0.0
10.924,-0.68,-0.586,0.0
10.302,-0.645,-0.61,0.0
14.106,-0.885,-0.443,0.0
13.063,-0.824,-0.484,0.0
12.23,-0.775,-0.522,0.0
11.521,-0.734,-0.558,0.0
10.916,-0.699,-0.59,0.0
10.282,-0.662,-0.614,0.0
14.031,-0.905,-0.447,0.0
12.962,-0.84,-0.485,0.0
12.169,-0.793,-0.524,0.0
11.437,-0.749,-0.558,0.0
10.82,-0.712,-0.589,0.0
10.218,-0.676,-0.614,0.0
13.974,-0.926,-0.45,0.0
12.917,-0.86,-0.489,0.0
12.188,-0.816,-0.53,0.0
11.472,-0.772,-0.564,0.0
10.779,-0.729,-0.591,0.0
10.207,-0.693,-0.617,0.0
13.9,-0.945,-0.453,0.0
12.92,-0.883,-0.493,0.0
12.007,-0.825,-0.526,0.0
11.328,-0.782,-0.561,0.0
10.723,-0.744,-0.591,0.0
10.149,-0.707,-0.617,0.0
13.811,-0.963,-0.454,0.0
12.872,-0.902,-0.495,0.0
11.976,-0.843,-0.528,0.0
11.31,-0.8,-0.563,0.0
10.692,-0.76,-0.592,0.0
9.983,-0.713,-0.609,0.0
13.768,-0.985,-0.456,0.0
12.864,-0.924,-0.498,0.0
11.937,-0.861,-0.529,0.0
11.286,-0.818,-0.565,0.0
10.714,-0.781,-0.596,0.0
10.092,-0.739,-0.618,0.0
13.737,-1.006,-0.458,0.0
12.778,-0.94,-0.498,0.0
11.834,-0.875,-0.527,0.0
11.206,-0.832,-0.563,0.0
10.618,-0.792,-0.593,0.0
10.093,-0.756,-0.62,0.0
13.703,-1.027,-0.46,0.0
12.759,-0.961,-0.499,0.0
11.831,-0.895,-0.529,0.0
11.249,-0.855,-0.567,0.0
10.531,-0.804,-0.59,0.0
10.1,-0.774,-0.622,0.0
13.624,-1.045,-0.459,0.0
12.778,-0.984,-0.502,0.0
11.895,-0.92,-0.533,0.0
11.224,-0.872,-0.567,0.0
10.655,-0.831,-0.598,0.0
10.029,-0.786,-0.619,0.0
13.597,-1.066,-0.459,0.0
12.69,-0.999,-0.499,0.0
11.822,-0.935,-0.531,0.0
11.235,-0.892,-0.569,0.0
10.577,-0.843,-0.594,0.0
9.991,-0.8,-0.617,0.0
13.644,-1.093,-0.462,0.0
12.687,-1.02,-0.5,0.0
11.865,-0.958,-0.534,0.0
11.209,-0.909,-0.568,0.0
10.585,-0.862,-0.595,0.0
9.988,-0.817,-0.618,0.0
13.627,-1.114,-0.462,0.0
12.611,-1.035,-0.497,0.0
11.875,-0.979,-0.534,0.0
11.195,-0.926,-0.567,0.0
10.529,-0.875,-0.592,0.0
10.057,-0.839,-0.622,0.0
13.668,-1.14,-0.463,0.0
12.738,-1.067,-0.502,0.0
11.865,-0.998,-0.534,0.0
11.201,-0.945,-0.567,0.0
10.622,-0.9,-0.597,0.0
9.896,-0.842,-0.611,0.0
13.636,-1.16,-0.461,0.0
12.76,-1.09,-0.502,0.0
11.894,-1.019,-0.534,0.0
11.196,-0.963,-0.566,0.0
10.516,-0.908,-0.59,0.0
0.0,0.0,0.0,0.0
13.67,-1.185,-0.461,0.0
12.817,-1.115,-0.503,0.0
11.901,-1.039,-0.533,0.0
11.182,-0.98,-0.564,0.0
10.556,-0.929,-0.591,0.0
9.975,-0.881,-0.614,0.0
13.707,-1.21,-0.46,0.0
12.795,-1.133,-0.5,0.0
11.899,-1.058,-0.531,0.0
11.224,-1.001,-0.564,0.0
10.625,-0.951,-0.593,0.0
10.112,-0.909,-0.621,0.0
13.684,-1.23,-0.457,0.0
12.815,-1.155,-0.499,0.0
11.913,-1.078,-0.53,0.0
11.264,-1.023,-0.564,0.0
10.657,-0.971,-0.593,0.0
10.09,-0.923,-0.618,0.0
13.771,-1.259,-0.457,0.0
12.798,-1.174,-0.495,0.0
11.915,-1.096,-0.527,0.0
11.263,-1.04,-0.562,0.0
10.719,-0.993,-0.594,0.0
10.106,-0.94,-0.616,0.0
13.847,-1.287,-0.456,0.0
12.837,-1.197,-0.494,0.0
11.972,-1.12,-0.527,0.0
11.288,-1.06,-0.56,0.0
10.725,-1.01,-0.591,0.0
10.103,-0.955,-0.613,0.0
13.836,-1.307,-0.452,0.0
12.848,-1.218,-0.491,0.0
12.064,-1.147,-0.527,0.0
11.4,-1.087,-0.562,0.0
10.705,-1.024,-0.587,0.0
10.151,-0.975,-0.613,0.0
13.936,-1.337,-0.451,0.0
13.013,-1.253,-0.493,0.0
12.126,-1.171,-0.526,0.0
11.376,-1.102,-0.557,0.0
10.791,-1.049,-0.588,0.0
10.164,-0.991,-0.61,0.0
14.015,-1.365,-0.448,0.0
12.972,-1.268,-0.486,0.0
12.151,-1.191,-0.522,0.0
11.462,-1.127,-0.557,0.0
10.784,-1.063,-0.584,0.0
10.236,-1.013,-0.61,0.0
14.084,-1.392,-0.445,0.0
13.011,-1.29,-0.483,0.0
12.282,-1.221,-0.523,0.0
11.478,-1.145,-0.553,0.0
10.884,-1.089,-0.584,0.0
10.269,-1.03,-0.608,0.0
14.137,-1.418,-0.441,0.0
13.188,-1.326,-0.484,0.0
12.324,-1.243,-0.52,0.0
11.563,-1.169,-0.552,0.0
10.983,-1.114,-0.585,0.0
10.344,-1.052,-0.608,0.0
14.274,-1.451,-0.439,0.0
13.234,-1.349,-0.479,0.0
12.345,-1.262,-0.515,0.0
11.625,-1.192,-0.55,0.0
10.963,-1.127,-0.578,0.0
10.351,-1.067,-0.603,0.0
14.318,-1.475,-0.433,0.0
13.279,-1.372,-0.474,0.0
12.423,-1.287,-0.512,0.0
11.624,-1.207,-0.544,0.0
11.017,-1.147,-0.576,0.0
10.377,-1.084,-0.599,0.0
14.475,-1.511,-0.43,0.0
13.491,-1.411,-0.475,0.0
12.535,-1.315,-0.509,0.0
11.719,-1.232,-0.542,0.0
11.059,-1.166,-0.572,0.0
10.452,-1.105,-0.598,0.0
14.541,-1.536,-0.424,0.0
13.53,-1.433,-0.468,0.0
12.587,-1.336,-0.504,0.0
11.817,-1.258,-0.539,0.0
11.115,-1.186,-0.568,0.0
10.543,-1.128,-0.597,0.0
14.649,-1.566,-0.418,0.0
13.646,-1.462,-0.464,0.0
12.625,-1.356,-0.498,0.0
11.921,-1.284,-0.537,0.0
11.212,-1.21,-0.566,0.0
10.63,-1.15,-0.595,0.0
14.804,-1.601,-0.413,0.0
13.742,-1.489,-0.459,0.0
12.815,-1.392,-0.498,0.0
11.958,-1.302,-0.531,0.0
11.294,-1.233,-0.563,0.0
10.67,-1.167,-0.59,0.0
14.951,-1.634,-0.408,0.0
13.868,-1.519,-0.454,0.0
12.85,-1.411,-0.491,0.0
12.076,-1.329,-0.528,0.0
11.41,-1.259,-0.561,0.0
10.713,-1.185,-0.585,0.0
15.134,-1.672,-0.403,0.0
14.041,-1.555,-0.45,0.0
13.005,-1.443,-0.487,0.0
12.186,-1.355,-0.524,0.0
11.475,-1.279,-0.556,0.0
10.833,-1.21,-0.584,0.0
15.393,-1.718,-0.399,0.0
14.12,-1.579,-0.442,0.0
13.151,-1.474,-0.483,0.0
12.313,-1.383,-0.521,0.0
11.57,-1.302,-0.552,0.0
10.89,-1.228,-0.579,0.0
15.573,-1.755,-0.392,0.0
14.274,-1.611,-0.437,0.0
13.207,-1.494,-0.476,0.0
12.396,-1.405,-0.515,0.0
11.667,-1.325,-0.548,0.0
10.952,-1.247,-0.574,0.0
15.771,-1.793,-0.385,0.0
14.41,-1.642,-0.43,0.0
13.41,-1.531,-0.473,0.0
12.583,-1.439,-0.513,0.0
11.77,-1.349,-0.544,0.0
11.092,-1.274,-0.573,0.0
15.955,-1.831,-0.377,0.0
14.7,-1.69,-0.427,0.0
13.589,-1.565,-0.468,0.0
12.678,-1.463,-0.507,0.0
11.881,-1.373,-0.539,0.0
11.249,-1.303,-0.572,0.0
16.187,-1.873,-0.369,0.0
14.982,-1.737,-0.423,0.0
13.699,-1.591,-0.461,0.0
12.79,-1.488,-0.501,0.0
11.957,-1.393,-0.533,0.0
11.319,-1.321,-0.566,0.0
16.456,-1.919,-0.362,0.0
15.054,-1.759,-0.412,1.0
13.875,-1.624,-0.455,0.0
12.923,-1.515,-0.495,0.0
12.161,-1.428,-0.532,0.0
11.392,-1.34,-0.56,0.0
16.68,-1.961,-0.352,0.0
15.182,-1.787,-0.402,0.0
13.991,-1.65,-0.447,0.0
13.006,-1.536,-0.487,0.0
12.241,-1.448,-0.524,0.0
11.56,-1.37,-0.558,0.0
16.983,-2.011,-0.343,0.0
15.37,-1.823,-0.394,0.0
14.223,-1.689,-0.441,0.0
13.116,-1.56,-0.479,0.0
12.356,-1.472,-0.518,0.0
11.626,-1.387,-0.551,0.0
17.19,-2.05,-0.332,0.0
15.609,-1.864,-0.386,0.0
14.425,-1.725,-0.434,0.0
13.342,-1.597,-0.475,0.0
12.458,-1.494,-0.511,0.0
11.754,-1.412,-0.546,0.0
17.542,-2.105,-0.322,0.0
15.95,-1.917,-0.379,0.0
14.669,-1.765,-0.428,0.0
13.567,-1.635,-0.47,0.0
12.673,-1.529,-0.508,0.0
11.856,-1.433,-0.539,0.0
17.848,-2.155,-0.311,0.0
16.164,-1.954,-0.369,0.0
14.846,-1.797,-0.419,0.0
13.664,-1.656,-0.46,0.0
12.834,-1.558,-0.502,0.0
11.969,-1.455,-0.532,0.0
18.146,-2.204,-0.299,0.0
16.521,-2.009,-0.361,0.0
15.03,-1.83,-0.409,0.0
13.897,-1.694,-0.455,0.0
12.941,-1.579,-0.493,0.0
12.164,-1.486,-0.529,0.0
18.846,-2.301,-0.291,0.0
16.858,-2.061,-0.351,0.0
15.23,-1.864,-0.399,0.0
14.081,-1.725,-0.446,0.0
13.118,-1.609,-0.486,0.0
12.294,-1.51,-0.522,0.0
19.206,-2.357,-0.278,0.0
17.123,-2.104,-0.339,0.0
15.589,-1.917,-0.393,0.0
14.31,-1.762,-0.439,0.0
13.317,-1.641,-0.48,0.0
12.434,-1.534,-0.515,0.0
19.618,-2.419,-0.263,0.0
17.563,-2.167,-0.33,0.0
15.813,-1.953,-0.382,0.0
14.551,-1.799,-0.431,0.0
13.475,-1.668,-0.472,0.0
12.635,-1.565,-0.511,0.0
20.284,-2.511,-0.251,0.0
17.783,-2.204,-0.316,0.0
16.059,-1.992,-0.372,0.0
14.797,-1.837,-0.423,0.0
13.629,-1.693,-0.463,0.0
12.71,-1.581,-0.5,0.0
20.77,-2.582,-0.236,1.0
18.121,-2.254,-0.303,0.0
16.498,-2.054,-0.364,0.0
15.023,-1.872,-0.414,0.0
13.873,-1.73,-0.457,0.0
12.875,-1.607,-0.493,0.0
21.723,-2.709,-0.223,4.0
18.74,-2.339,-0.293,0.0
16.824,-2.101,-0.353,0.0
15.266,-1.908,-0.404,0.0
14.095,-1.763,-0.449,0.0
13.089,-1.639,-0.487,0.0
22.245,-2.783,-0.205,5.0
19.301,-2.416,-0.281,0.0
17.067,-2.138,-0.34,0.0
15.586,-1.954,-0.396,0.0
14.372,-1.803,-0.442,0.0
13.347,-1.675,-0.482,0.0
22.45,-2.817,-0.182,4.0
19.631,-2.464,-0.264,0.0
17.538,-2.203,-0.33,0.0
15.847,-1.991,-0.385,0.0
14.625,-1.839,-0.434,0.0
13.504,-1.699,-0.473,0.0
22.705,-2.855,-0.159,3.0
20.458,-2.574,-0.253,0.0
17.804,-2.241,-0.316,0.0
16.142,-2.033,-0.374,0.0
14.813,-1.866,-0.423,0.0
13.724,-1.73,-0.466,0.0
23.552,-2.968,-0.139,1.0
20.762,-2.617,-0.234,1.0
18.169,-2.291,-0.302,0.0
16.469,-2.078,-0.364,0.0
15.061,-1.901,-0.413,0.0
13.891,-1.754,-0.456,0.0
24.323,-3.07,-0.117,1.0
22.053,-2.784,-0.224,1.0
18.804,-2.375,-0.291,0.0
16.837,-2.127,-0.353,0.0
15.381,-1.944,-0.405,0.0
14.161,-1.79,-0.449,0.0
25.417,-3.212,-0.093,5.0
22.406,-2.832,-0.202,4.0
19.335,-2.445,-0.278,0.0
17.132,-2.167,-0.34,0.0
15.737,-1.991,-0.396,0.0
14.425,-1.825,-0.441,0.0
25.467,-3.222,-0.065,11.0
22.529,-2.85,-0.177,4.0
19.752,-2.499,-0.261,0.0
17.555,-2.222,-0.328,0.0
15.875,-2.009,-0.382,0.0
14.68,-1.859,-0.431,0.0
25.455,-3.222,-0.035,12.0
23.12,-2.926,-0.156,5.0
20.598,-2.607,-0.249,0.0
17.9,-2.266,-0.314,0.0
16.299,-2.064,-0.373,0.0
14.93,-1.891,-0.422,0.0
25.458,-3.223,-0.006,13.0
23.651,-2.994,-0.133,1.0
20.864,-2.641,-0.229,0.0
18.358,-2.324,-0.301,0.0
16.633,-2.105,-0.362,0.0
15.13,-1.915,-0.41,0.0
25.467,-3.223,0.022,12.0
25.181,-3.187,-0.112,1.0
22.32,-2.824,-0.218,4.0
19.045,-2.41,-0.29,0.0
17.022,-2.154,-0.351,0.0
15.521,-1.964,-0.403,0.0
25.468,-3.222,0.051,10.0
25.46,-3.22,-0.084,6.0
22.441,-2.838,-0.194,5.0
19.434,-2.457,-0.274,0.0
17.298,-2.187,-0.337,0.0
15.827,-2.001,-0.393,0.0
25.526,-3.226,0.081,6.0
25.477,-3.219,-0.055,11.0
22.738,-2.872,-0.171,4.0
20.059,-2.533,-0.26,0.0
17.759,-2.242,-0.325,0.0
16.046,-2.026,-0.38,0.0
25.751,-3.25,0.111,3.0
25.483,-3.215,-0.026,11.0
23.354,-2.946,-0.149,2.0
20.685,-2.608,-0.245,1.0
18.069,-2.278,-0.31,0.0
16.448,-2.073,-0.37,0.0
26.241,-3.307,0.142,1.0
25.505,-3.212,0.002,11.0
24.248,-3.053,-0.127,1.0
21.247,-2.674,-0.227,1.0
18.696,-2.352,-0.3,0.0
16.784,-2.111,-0.359,0.0
26.834,-3.375,0.176,1.0
25.529,-3.209,0.031,11.0
25.365,-3.186,-0.104,5.0
22.365,-2.808,-0.213,4.0
19.265,-2.418,-0.287,0.0
17.114,-2.147,-0.347,0.0
27.676,-3.472,0.213,1.0
25.56,-3.204,0.06,10.0
25.547,-3.201,-0.076,8.0
22.362,-2.8,-0.188,4.0
19.685,-2.464,-0.271,0.0
17.442,-2.182,-0.334,0.0
26.178,-3.275,0.232,0.0
25.686,-3.211,0.09,7.0
25.579,-3.196,-0.047,11.0
22.409,-2.798,-0.163,1.0
20.542,-2.563,-0.26,0.0
17.8,-2.22,-0.32,0.0
29.13,-3.633,0.29,0.0
25.97,-3.236,0.12,4.0
25.596,-3.187,-0.018,11.0
22.247,-2.768,-0.137,2.0
20.812,-2.588,-0.24,1.0
18.244,-2.267,-0.308,0.0
30.662,-3.81,0.34,0.0
26.228,-3.256,0.15,6.0
25.639,-3.181,0.01,11.0
22.229,-2.755,-0.112,3.0
22.019,-2.727,-0.229,4.0
18.949,-2.345,-0.298,0.0
31.668,-3.92,0.387,0.0
26.243,-3.245,0.18,6.0
25.669,-3.171,0.038,10.0
22.227,-2.744,-0.087,10.0
22.19,-2.737,-0.206,2.0
19.291,-2.377,-0.282,0.0
33.06,-4.074,0.44,1.0
27.855,-3.429,0.221,0.0
25.727,-3.164,0.067,10.0
22.205,-2.728,-0.063,13.0
22.199,-2.725,-0.182,4.0
19.686,-2.414,-0.267,0.0
33.899,-4.158,0.488,0.0
28.674,-3.513,0.259,0.0
25.943,-3.175,0.095,3.0
22.189,-2.713,-0.039,16.0
22.183,-2.709,-0.157,9.0
20.216,-2.466,-0.252,0.0
22.157,-2.704,0.343,9.0
22.467,-2.738,0.227,0.0
22.171,-2.699,0.105,5.0
22.177,-2.697,-0.015,19.0
22.19,-2.695,-0.134,11.0
22.125,-2.685,-0.252,0.0
22.142,-2.687,0.366,16.0
22.46,-2.723,0.251,11.0
22.166,-2.683,0.129,12.0
22.16,-2.679,0.008,19.0
22.211,-2.683,-0.111,13.0
22.162,-2.673,-0.229,1.0
22.127,-2.67,0.389,19.0
22.143,-2.668,0.271,13.0
22.143,-2.665,0.152,14.0
22.155,-2.662,0.031,21.0
22.283,-2.674,-0.088,15.0
22.196,-2.661,-0.206,5.0
22.125,-2.653,0.412,21.0
22.109,-2.647,0.293,20.0
22.118,-2.645,0.175,13.0
22.154,-2.645,0.054,19.0
22.335,-2.663,-0.065,20.0
22.233,-2.647,-0.184,9.0
22.126,-2.635,0.435,20.0
22.107,-2.629,0.316,21.0
22.12,-2.627,0.197,19.0
22.151,-2.626,0.076,17.0
22.377,-2.649,-0.042,12.0
22.416,-2.65,-0.163,8.0
22.146,-2.619,0.458,17.0
22.11,-2.611,0.338,19.0
22.121,-2.608,0.22,16.0
22.148,-2.607,0.099,16.0
22.516,-2.646,-0.02,4.0
22.557,-2.647,-0.141,9.0
22.168,-2.602,0.48,13.0
22.133,-2.594,0.36,17.0
22.131,-2.589,0.241,17.0
22.157,-2.588,0.12,15.0
26.223,-3.058,0.001,3.0
22.573,-2.628,-0.12,10.0
22.323,-2.6,0.506,11.0
22.152,-2.575,0.382,14.0
22.117,-2.567,0.262,16.0
22.168,-2.568,0.142,11.0
26.292,-3.041,0.027,4.0
22.587,-2.608,-0.098,3.0
22.462,-2.595,0.53,8.0
22.428,-2.586,0.408,6.0
22.143,-2.548,0.284,10.0
22.151,-2.544,0.163,1.0
26.411,-3.028,0.052,5.0
25.671,-2.938,-0.087,0.0
98.526,-11.283,2.419,2.0
0.0,0.0,0.0,0.0
31.818,-3.629,0.438,0.0
28.278,-3.219,0.234,1.0
26.513,-3.012,0.076,3.0
23.613,-2.678,-0.058,17.0
0.0,0.0,0.0,0.0
0.0,0.0,0.0,0.0
34.745,-3.926,0.51,0.0
29.218,-3.294,0.268,1.0
23.618,-2.658,0.089,14.0
23.621,-2.653,-0.037,153.0
0.0,0.0,0.0,0.0
0.0,0.0,0.0,0.0
0.0,0.0,0.0,0.0
29.587,-3.303,0.298,8.0
23.629,-2.632,0.11,13.0
23.591,-2.623,-0.016,177.0
