X,Y,Z,Reflectivity
9.939,0.831,-0.648,0.0
9.385,0.785,-0.666,0.0
8.949,0.749,-0.688,0.0
8.571,0.718,-0.709,0.0
8.114,0.68,-0.718,0.0
10.332,0.864,-0.629,0.0
9.785,0.819,-0.652,0.0
9.308,0.78,-0.674,0.0
8.806,0.738,-0.69,0.0
8.485,0.711,-0.714,0.0
8.071,0.677,-0.726,0.0
10.217,0.855,-0.637,0.0
9.644,0.808,-0.657,0.0
9.136,0.766,-0.675,0.0
8.686,0.728,-0.693,0.0
8.383,0.703,-0.717,0.0
0.0,0.0,0.0,0.0
10.059,0.843,-0.641,0.0
9.565,0.801,-0.665,0.0
9.017,0.756,-0.679,0.0
8.572,0.719,-0.696,0.0
8.24,0.691,-0.716,0.0
0.0,0.0,0.0,0.0
9.919,0.831,-0.646,0.0
9.366,0.785,-0.664,0.0
8.909,0.747,-0.683,0.0
0.0,0.0,0.0,0.0
8.182,0.686,-0.722,0.0
0.0,0.0,0.0,0.0
9.765,0.817,-0.649,0.0
9.271,0.776,-0.67,0.0
8.78,0.735,-0.685,0.0
0.0,0.0,0.0,0.0
8.059,0.675,-0.723,0.0
0.0,0.0,0.0,0.0
9.697,0.811,-0.657,0.0
9.129,0.763,-0.672,0.0
8.766,0.733,-0.695,0.0
0.0,0.0,0.0,0.0
0.0,0.0,0.0,0.0
0.0,0.0,0.0,0.0
9.507,0.794,-0.657,0.0
9.069,0.757,-0.679,0.0
8.65,0.722,-0.698,0.0
0.0,0.0,0.0,0.0
0.0,0.0,0.0,0.0
7.622,0.637,-0.748,0.0
9.439,0.786,-0.665,0.0
8.974,0.748,-0.684,0.0
8.541,0.712,-0.7,0.0
0.0,0.0,0.0,0.0
0.0,0.0,0.0,0.0
0.0,0.0,0.0,0.0
9.285,0.771,-0.666,0.0
8.891,0.739,-0.689,0.0
8.479,0.704,-0.706,0.0
0.0,0.0,0.0,0.0
0.0,0.0,0.0,0.0
7.432,0.618,-0.749,0.0
9.2,0.762,-0.671,0.0
8.755,0.725,-0.689,0.0
8.382,0.694,-0.708,0.0
0.0,0.0,0.0,0.0
0.0,0.0,0.0,0.0
7.386,0.612,-0.753,0.0
9.08,0.749,-0.674,0.0
8.672,0.716,-0.694,0.0
0.0,0.0,0.0,0.0
0.0,0.0,0.0,0.0
0.0,0.0,0.0,0.0
7.349,0.606,-0.759,0.0
76.678,1.032,3.605,11.0
108.998,1.487,4.554,5.0
0.0,0.0,0.0,0.0
55.902,0.784,1.745,0.0
56.011,0.796,1.456,0.0
0.0,0.0,0.0,0.0
76.567,1.114,3.737,30.0
76.579,1.128,3.336,29.0
0.0,0.0,0.0,0.0
55.512,0.839,1.831,0.0
0.0,0.0,0.0,0.0
0.0,0.0,0.0,0.0
76.544,1.197,3.869,32.0
76.545,1.211,3.466,35.0
55.619,0.891,2.227,0.0
55.259,0.896,1.917,2.0
55.272,0.907,1.628,0.0
54.966,0.913,1.331,1.0
76.618,1.285,4.005,16.0
76.585,1.3,3.601,23.0
0.0,0.0,0.0,0.0
0.0,0.0,0.0,0.0
55.151,0.969,1.719,1.0
54.935,0.976,1.424,1.0
85.278,1.53,4.604,14.0
90.991,1.65,4.433,18.0
0.0,0.0,0.0,0.0
0.0,0.0,0.0,0.0
0.0,0.0,0.0,0.0
0.0,0.0,0.0,0.0
85.145,1.628,4.738,17.0
85.396,1.651,4.303,6.0
90.599,1.77,4.088,4.0
0.0,0.0,0.0,0.0
0.0,0.0,0.0,0.0
54.295,1.094,1.587,1.0
84.094,1.71,4.818,20.0
85.293,1.752,4.436,20.0
89.042,1.847,4.162,10.0
0.0,0.0,0.0,0.0
0.0,0.0,0.0,0.0
54.455,1.164,1.679,7.0
84.097,1.814,4.954,24.0
85.119,1.854,4.564,10.0
88.519,1.946,4.279,18.0
0.0,0.0,0.0,0.0
0.0,0.0,0.0,0.0
54.461,1.232,1.763,15.0
83.942,1.915,5.076,20.0
82.547,1.901,4.556,21.0
88.579,2.059,4.419,9.0
88.785,2.083,3.951,1.0
0.0,0.0,0.0,0.0
54.319,1.299,1.844,1.0
82.151,1.981,5.098,34.0
82.365,2.004,4.673,31.0
83.641,2.054,4.303,18.0
88.707,2.197,4.085,15.0
0.0,0.0,0.0,0.0
0.0,0.0,0.0,0.0
82.954,2.11,5.274,19.0
82.206,2.109,4.79,36.0
82.998,2.148,4.397,18.0
84.414,2.203,4.014,9.0
0.0,0.0,0.0,0.0
0.0,0.0,0.0,0.0
81.924,2.193,5.332,18.0
82.272,2.22,4.916,26.0
82.322,2.24,4.482,32.0
82.865,2.273,4.063,24.0
0.0,0.0,0.0,0.0
0.0,0.0,0.0,0.0
81.739,2.298,5.438,30.0
81.545,2.311,4.99,37.0
81.858,2.338,4.573,35.0
82.914,2.387,4.183,15.0
83.556,2.424,3.771,2.0
0.0,0.0,0.0,0.0
81.871,2.413,5.563,32.0
81.532,2.422,5.104,35.0
81.659,2.445,4.677,40.0
82.218,2.48,4.263,17.0
82.347,2.504,3.832,7.0
0.0,0.0,0.0,0.0
82.034,2.534,5.688,28.0
81.583,2.539,5.221,28.0
81.545,2.556,4.783,30.0
81.899,2.586,4.358,17.0
82.242,2.616,3.938,25.0
0.0,0.0,0.0,0.0
66.128,2.136,4.676,53.0
66.01,2.147,4.314,22.0
81.359,2.666,4.881,39.0
81.708,2.696,4.457,29.0
81.214,2.699,3.997,21.0
81.682,2.734,3.584,1.0
81.6,2.752,5.876,29.0
66.083,2.244,4.404,9.0
81.529,2.788,4.998,36.0
81.843,2.817,4.569,32.0
81.246,2.815,4.101,30.0
81.581,2.846,3.683,13.0
81.272,2.857,5.956,24.0
81.714,2.891,5.549,26.0
65.807,2.344,4.116,13.0
81.58,2.925,4.656,35.0
81.348,2.936,4.207,33.0
81.067,2.946,3.759,25.0
65.252,2.389,4.862,22.0
81.705,3.011,5.649,16.0
65.76,2.439,4.193,22.0
81.368,3.036,4.742,26.0
81.282,3.052,4.301,33.0
81.268,3.071,3.865,29.0
65.465,2.493,4.956,13.0
65.309,2.502,4.593,36.0
65.373,2.52,4.245,47.0
65.486,2.54,3.894,24.0
65.629,2.561,3.549,17.0
65.615,2.576,3.196,24.0
77.689,3.074,5.973,6.0
81.039,3.225,5.792,19.0
81.529,3.264,5.388,28.0
65.425,2.635,3.965,22.0
65.533,2.655,3.618,39.0
65.555,2.672,3.267,60.0
66.562,2.734,5.192,28.0
77.405,3.197,5.62,10.0
81.693,3.394,5.49,21.0
65.416,2.733,4.036,22.0
65.483,2.752,3.687,27.0
65.562,2.771,3.338,52.0
66.554,2.835,5.265,7.0
66.127,2.832,4.872,30.0
66.05,2.843,4.509,36.0
65.428,2.832,4.106,33.0
65.485,2.85,3.755,32.0
65.63,2.873,3.41,15.0
58.202,2.566,4.664,15.0
66.181,2.934,4.945,23.0
66.04,2.944,4.576,12.0
65.38,2.93,4.169,30.0
65.591,2.955,3.828,12.0
81.147,3.676,4.298,33.0
58.226,2.658,4.725,25.0
65.821,3.02,4.984,29.0
65.903,3.039,4.632,41.0
65.263,3.025,4.226,25.0
81.327,3.789,4.826,40.0
81.114,3.799,4.375,31.0
58.196,2.746,4.779,36.0
58.239,2.761,4.465,11.0
80.364,3.83,5.725,31.0
65.077,3.117,4.275,33.0
81.441,3.921,4.908,33.0
81.292,3.933,4.458,26.0
58.01,2.827,4.817,24.0
58.129,2.847,4.51,32.0
80.211,3.947,5.786,33.0
65.071,3.217,4.333,8.0
81.454,4.046,4.981,28.0
81.363,4.061,4.533,29.0
58.58,2.945,4.916,20.0
58.188,2.939,4.565,26.0
64.512,3.274,4.709,14.0
80.708,4.115,5.443,37.0
81.599,4.179,5.059,16.0
80.891,4.163,4.574,33.0
58.563,3.035,4.963,21.0
66.395,3.457,5.264,12.0
64.621,3.38,4.77,24.0
80.52,4.23,5.495,36.0
80.538,4.25,5.057,14.0
80.453,4.265,4.614,32.0
58.569,3.127,5.011,26.0
58.552,3.14,4.688,18.0
58.314,3.141,4.349,30.0
80.531,4.357,5.558,36.0
80.47,4.372,5.114,34.0
80.584,4.397,4.681,31.0
65.634,3.608,5.664,15.0
58.526,3.231,4.73,42.0
58.277,3.23,4.39,32.0
80.471,4.479,5.612,34.0
80.44,4.496,5.17,34.0
80.682,4.528,4.744,31.0
49.119,2.776,4.273,14.0
58.533,3.321,4.771,17.0
58.312,3.322,4.432,24.0
58.37,3.338,4.11,32.0
58.528,3.362,3.801,20.0
58.645,3.382,3.487,24.0
49.055,2.849,4.3,25.0
80.495,4.693,6.613,22.0
58.372,3.416,4.475,16.0
58.287,3.424,4.141,30.0
58.45,3.448,3.832,47.0
58.556,3.468,3.518,26.0
49.385,2.945,4.36,26.0
80.756,4.834,6.684,23.0
80.472,4.836,6.217,21.0
58.276,3.515,4.176,45.0
58.41,3.536,3.864,46.0
58.544,3.558,3.551,49.0
57.665,3.529,5.125,22.0
58.064,3.566,4.839,40.0
58.178,3.586,4.528,54.0
58.245,3.604,4.205,43.0
58.486,3.631,3.901,26.0
58.566,3.65,3.584,27.0
57.717,3.622,5.16,8.0
58.087,3.658,4.872,23.0
58.196,3.678,4.558,18.0
58.285,3.696,4.238,27.0
80.711,5.137,5.424,11.0
80.873,5.165,4.989,30.0
0.0,0.0,0.0,0.0
57.948,3.74,4.888,14.0
58.271,3.773,4.592,26.0
58.447,3.798,4.277,19.0
80.839,5.27,5.47,31.0
80.767,5.284,5.019,13.0
60.859,4.01,5.498,7.0
57.933,3.829,4.912,12.0
58.12,3.854,4.606,29.0
61.413,4.085,4.52,6.0
61.535,4.106,4.189,10.0
68.03,4.555,4.255,9.0
60.77,4.097,5.515,24.0
66.801,4.517,5.691,9.0
58.352,3.958,4.647,32.0
61.25,4.167,4.531,21.0
61.563,4.201,4.213,5.0
78.125,5.349,4.914,11.0
60.731,4.186,5.533,16.0
81.003,5.6,6.929,15.0
58.413,4.05,4.671,32.0
61.392,4.27,4.562,22.0
60.472,4.219,4.159,22.0
78.249,5.476,4.948,19.0
51.92,3.658,4.746,13.0
58.775,4.153,5.045,26.0
58.223,4.126,4.674,11.0
61.265,4.354,4.571,33.0
60.336,4.3,4.166,27.0
78.01,5.577,4.954,33.0
59.197,4.261,5.428,9.0
58.751,4.24,5.059,36.0
58.095,4.204,4.679,30.0
60.922,4.421,4.56,35.0
60.372,4.394,4.183,30.0
60.592,4.423,3.862,22.0
58.811,4.322,5.406,27.0
51.897,3.823,4.48,16.0
58.079,4.291,4.69,20.0
60.907,4.512,4.572,35.0
60.384,4.486,4.197,34.0
60.433,4.502,3.863,27.0
58.802,4.409,5.416,31.0
51.915,3.903,4.491,22.0
61.526,4.637,4.979,12.0
60.709,4.588,4.567,31.0
60.351,4.572,4.204,34.0
60.892,4.626,3.902,35.0
51.874,3.967,4.786,37.0
51.895,3.978,4.497,26.0
60.912,4.681,4.937,30.0
60.64,4.671,4.569,25.0
59.937,4.628,4.182,34.0
60.393,4.676,3.877,34.0
49.672,3.87,4.588,18.0
51.856,4.05,4.498,24.0
60.634,4.747,4.919,35.0
60.507,4.748,4.564,28.0
59.459,4.678,4.153,29.0
60.708,4.788,3.901,35.0
49.662,3.941,4.59,16.0
51.925,4.13,4.507,6.0
51.981,4.145,4.22,13.0
59.971,4.793,4.526,34.0
59.263,4.747,4.141,28.0
60.087,4.825,3.863,34.0
49.628,4.01,4.587,9.0
59.979,4.856,5.207,31.0
51.962,4.217,4.219,45.0
60.003,4.88,4.528,35.0
59.341,4.837,4.146,32.0
59.691,4.877,3.836,33.0
51.672,4.249,4.775,9.0
59.643,4.914,5.175,34.0
51.911,4.286,4.212,25.0
51.889,4.294,3.914,21.0
51.933,4.306,3.625,20.0
51.97,4.319,3.337,21.0
49.213,4.115,4.544,28.0
59.372,4.974,5.148,32.0
51.786,4.348,4.198,12.0
51.859,4.363,3.907,45.0
51.877,4.374,3.617,31.0
51.932,4.388,3.329,42.0
49.056,4.17,4.525,19.0
59.559,5.073,5.158,34.0
51.756,4.417,4.189,42.0
51.813,4.43,3.897,16.0
51.858,4.443,3.609,32.0
51.919,4.458,3.321,53.0
49.018,4.234,4.514,19.0
51.67,4.471,4.466,8.0
51.762,4.487,4.182,5.0
51.82,4.5,3.889,25.0
51.871,4.513,3.601,28.0
51.947,4.529,3.314,45.0
51.492,4.516,4.732,15.0
51.661,4.539,4.455,12.0
43.21,3.803,3.482,17.0
51.864,4.573,3.882,9.0
51.903,4.585,3.592,22.0
52.006,4.603,3.306,17.0
51.488,4.584,4.72,14.0
43.582,3.887,3.748,17.0
43.266,3.865,3.476,30.0
51.896,4.644,3.871,12.0
51.937,4.656,3.581,11.0
59.48,5.342,3.766,34.0
43.688,3.946,3.993,31.0
43.532,3.938,3.732,16.0
51.823,4.696,4.149,35.0
59.887,5.436,4.45,18.0
59.506,5.411,4.086,32.0
59.552,5.424,3.753,34.0
43.556,3.99,3.968,25.0
52.854,4.849,4.515,14.0
51.826,4.762,4.133,42.0
59.437,5.47,4.398,32.0
58.782,5.419,4.017,32.0
59.451,5.489,3.727,33.0
59.685,5.543,5.417,14.0
43.41,4.037,3.693,17.0
51.877,4.831,4.119,32.0
59.304,5.531,4.366,34.0
58.949,5.507,4.006,31.0
58.718,5.494,3.659,32.0
43.517,4.094,3.933,16.0
59.253,5.582,5.018,10.0
52.117,4.917,4.117,26.0
58.825,5.558,4.307,33.0
58.842,5.568,3.975,32.0
58.403,5.536,3.615,25.0
52.002,4.956,4.677,5.0
52.411,5.001,4.416,13.0
59.077,5.645,4.641,17.0
58.818,5.628,4.281,33.0
58.833,5.638,3.948,32.0
58.321,5.597,3.583,26.0
51.916,5.008,4.646,11.0
43.559,4.207,3.65,31.0
59.095,5.715,4.615,29.0
58.426,5.658,4.225,30.0
58.731,5.695,3.913,32.0
58.198,5.651,3.548,30.0
59.329,5.791,5.28,11.0
43.516,4.252,3.624,16.0
58.899,5.763,4.57,33.0
58.406,5.722,4.193,31.0
58.751,5.763,3.884,32.0
58.199,5.717,3.518,32.0
43.383,4.283,3.838,23.0
51.789,5.119,4.285,23.0
59.039,5.842,4.549,33.0
58.254,5.772,4.151,26.0
58.471,5.8,3.833,32.0
58.216,5.782,3.486,25.0
43.337,4.326,3.809,21.0
51.727,5.169,4.25,18.0
58.786,5.881,4.495,33.0
58.446,5.853,4.13,33.0
58.212,5.836,3.783,31.0
58.2,5.842,3.451,32.0
43.175,4.355,3.768,35.0
42.955,4.337,3.504,11.0
58.782,5.941,4.459,28.0
58.36,5.905,4.088,33.0
58.171,5.893,3.743,31.0
57.863,5.868,3.394,27.0
43.213,4.403,3.744,33.0
58.391,5.956,4.725,9.0
59.192,6.043,4.451,33.0
58.123,5.94,4.034,27.0
57.789,5.912,3.681,31.0
57.898,5.929,3.359,26.0
43.197,4.444,3.713,39.0
58.196,5.993,4.67,9.0
59.692,6.152,4.449,34.0
58.082,5.992,3.991,32.0
57.84,5.973,3.645,31.0
57.986,5.994,3.324,29.0
43.177,4.483,3.681,34.0
58.155,6.044,4.625,20.0
58.791,6.115,4.34,24.0
57.914,6.03,3.938,32.0
57.673,6.01,3.592,28.0
57.898,6.039,3.277,28.0
43.139,4.52,3.646,29.0
54.08,5.67,4.261,20.0
58.749,6.165,4.292,28.0
57.775,6.068,3.885,32.0
57.701,6.065,3.551,26.0
57.784,6.079,3.227,26.0
43.068,4.55,3.608,16.0
53.632,5.67,4.184,27.0
58.935,6.235,4.261,17.0
57.64,6.103,3.832,31.0
57.741,6.119,3.509,25.0
57.929,6.144,3.19,32.0
43.011,4.581,3.568,21.0
53.547,5.706,4.136,27.0
58.774,6.267,4.202,33.0
57.591,6.146,3.782,25.0
57.818,6.175,3.467,30.0
58.112,6.211,3.153,32.0
58.559,6.284,4.81,8.0
53.463,5.741,4.084,27.0
58.148,6.248,4.108,30.0
57.647,6.198,3.737,32.0
57.947,6.234,3.426,30.0
58.35,6.283,3.116,32.0
53.846,5.82,4.376,29.0
53.605,5.797,4.049,27.0
58.026,6.279,4.05,31.0
57.615,6.238,3.686,25.0
57.926,6.276,3.375,27.0
58.49,6.341,3.073,32.0
53.179,5.787,4.276,24.0
53.749,5.852,4.013,28.0
57.928,6.31,3.993,26.0
54.382,5.927,3.431,18.0
57.943,6.319,3.324,29.0
58.476,6.381,3.02,31.0
53.202,5.827,4.229,24.0
0.0,0.0,0.0,0.0
57.862,6.342,3.936,28.0
54.394,5.965,3.382,17.0
57.864,6.349,3.267,31.0
58.428,6.415,2.964,32.0
53.215,5.863,4.181,28.0
53.408,5.886,3.889,14.0
57.611,6.352,3.864,18.0
54.516,6.013,3.339,18.0
57.884,6.388,3.214,31.0
58.439,6.453,2.91,26.0
53.15,5.888,4.125,25.0
58.63,6.498,4.213,5.0
54.006,5.987,3.571,18.0
57.722,6.402,3.479,6.0
58.1,6.447,3.169,31.0
58.476,6.492,2.855,32.0
53.139,5.918,4.072,24.0
58.479,6.514,4.145,17.0
54.011,6.018,3.518,26.0
57.864,6.45,3.431,6.0
58.057,6.474,3.11,31.0
58.554,6.532,2.802,25.0
53.041,5.936,4.012,21.0
57.794,6.469,4.038,8.0
54.015,6.047,3.464,27.0
55.496,6.215,3.234,11.0
57.918,6.488,3.044,27.0
58.626,6.57,2.746,31.0
53.121,5.971,3.963,23.0
53.985,6.069,3.717,17.0
54.153,6.089,3.417,28.0
57.321,6.447,3.282,25.0
57.906,6.515,2.983,30.0
58.495,6.583,2.679,30.0
53.05,5.987,3.903,24.0
54.036,6.099,3.664,25.0
54.533,6.156,3.385,12.0
57.471,6.489,3.231,32.0
57.793,6.527,2.917,29.0
58.451,6.603,2.616,32.0
53.067,6.011,3.847,25.0
53.997,6.116,3.604,27.0
57.278,6.489,3.493,10.0
57.667,6.534,3.18,32.0
57.787,6.549,2.855,22.0
58.376,6.617,2.549,28.0
53.14,6.038,3.795,22.0
53.952,6.131,3.542,24.0
46.438,5.277,2.781,11.0
57.841,6.574,3.126,26.0
55.594,6.32,2.686,9.0
58.4,6.64,2.487,29.0
53.839,6.135,3.785,28.0
54.007,6.154,3.486,17.0
46.45,5.293,2.731,13.0
57.914,6.6,3.066,29.0
57.827,6.591,2.73,15.0
58.586,6.678,2.43,27.0
54.16,6.187,3.747,21.0
46.512,5.313,2.95,7.0
57.36,6.552,3.308,11.0
57.833,6.606,2.997,27.0
58.136,6.641,2.679,30.0
59.038,6.745,2.383,20.0
54.139,6.198,3.685,13.0
46.457,5.318,2.894,15.0
57.348,6.564,3.242,11.0
57.689,6.603,2.924,27.0
58.623,6.71,2.634,32.0
59.393,6.799,2.328,21.0
54.068,6.2,3.616,5.0
46.441,5.325,2.839,20.0
57.604,6.604,3.19,12.0
57.725,6.617,2.859,24.0
58.527,6.709,2.563,32.0
59.475,6.818,2.263,24.0
46.491,5.338,3.056,11.0
46.418,5.329,2.784,29.0
46.486,5.336,2.52,8.0
57.804,6.634,2.796,10.0
58.605,6.725,2.498,26.0
59.393,6.816,2.191,17.0
46.484,5.342,3.0,15.0
46.433,5.335,2.73,22.0
46.498,5.341,2.466,12.0
57.865,6.646,2.73,10.0
59.016,6.778,2.446,19.0
46.484,5.338,1.66,4.0
46.459,5.342,2.944,21.0
46.434,5.338,2.674,18.0
46.502,5.344,2.411,11.0
58.286,6.697,2.681,20.0
59.232,6.805,2.384,29.0
46.482,5.339,1.604,14.0
46.447,5.342,2.887,17.0
46.466,5.342,2.62,16.0
57.756,6.638,2.925,13.0
58.607,6.734,2.625,33.0
59.328,6.816,2.317,30.0
46.477,5.338,1.549,27.0
46.436,5.339,2.83,25.0
46.48,5.342,2.565,14.0
57.764,6.637,2.856,12.0
58.585,6.729,2.554,33.0
59.344,6.815,2.246,21.0
46.472,5.335,1.492,17.0
46.433,5.335,2.774,31.0
46.508,5.342,2.51,9.0
57.828,6.639,2.788,8.0
58.662,6.732,2.485,22.0
59.351,6.809,2.173,16.0
59.273,6.799,1.831,7.0
46.451,5.332,2.718,16.0
57.829,6.634,3.051,11.0
57.918,6.642,2.722,17.0
59.043,6.768,2.43,17.0
63.682,7.297,2.255,13.0
46.47,5.324,1.379,14.0
46.482,5.328,2.662,11.0
57.739,6.614,2.974,28.0
58.451,6.693,2.675,33.0
59.195,6.775,2.362,16.0
59.367,6.792,2.029,8.0
46.459,5.313,1.321,15.0
57.482,6.576,3.221,24.0
57.648,6.591,2.899,21.0
58.586,6.695,2.609,32.0
59.624,6.811,2.306,26.0
59.343,6.775,1.955,20.0
46.484,5.305,1.265,10.0
57.768,6.594,3.166,26.0
55.629,6.346,2.728,7.0
58.403,6.658,2.528,30.0
59.347,6.763,2.222,32.0
59.324,6.757,1.881,21.0
46.459,5.289,1.207,7.0
57.896,6.591,3.1,23.0
57.851,6.582,2.766,12.0
58.524,6.654,2.461,32.0
59.144,6.721,2.142,18.0
59.272,6.732,1.806,18.0
46.466,5.274,1.149,7.0
57.875,6.569,3.027,28.0
58.23,6.604,2.711,33.0
58.884,6.674,2.403,33.0
59.478,6.737,2.079,21.0
0.0,0.0,0.0,0.0
46.429,5.253,1.091,7.0
57.806,6.538,2.952,26.0
58.469,6.608,2.648,32.0
59.245,6.691,2.343,33.0
59.522,6.717,2.006,24.0
60.548,6.829,1.694,34.0
46.254,5.214,1.028,8.0
58.293,6.567,2.902,34.0
58.372,6.571,2.571,32.0
59.16,6.654,2.266,25.0
59.301,6.666,1.925,24.0
59.97,6.736,1.602,22.0
45.985,5.162,0.965,9.0
58.671,6.582,2.848,28.0
58.36,6.541,2.498,30.0
59.051,6.613,2.188,25.0
59.221,6.626,1.848,24.0
46.528,5.203,1.185,2.0
45.677,5.104,0.902,10.0
58.474,6.528,2.765,28.0
58.988,6.579,2.45,33.0
59.126,6.589,2.116,24.0
59.205,6.592,1.774,8.0
46.554,5.179,1.127,7.0
45.352,5.042,0.839,12.0
58.299,6.475,2.683,31.0
59.293,6.579,2.389,26.0
59.151,6.557,2.044,27.0
59.942,6.639,1.721,12.0
46.438,5.139,1.067,10.0
44.857,4.96,0.774,6.0
58.335,6.442,2.613,31.0
59.104,6.521,2.308,25.0
59.098,6.514,1.968,25.0
59.833,6.588,1.644,12.0
46.245,5.087,1.006,10.0
44.707,4.914,0.716,4.0
58.737,6.448,2.558,22.0
59.067,6.477,2.234,28.0
58.995,6.462,1.892,23.0
59.522,6.513,1.562,11.0
45.939,5.022,0.942,13.0
44.726,4.885,0.662,3.0
58.591,6.389,2.479,28.0
59.164,6.445,2.164,30.0
59.385,6.462,1.831,33.0
56.395,6.13,1.41,2.0
45.61,4.952,0.88,11.0
44.699,4.849,0.606,2.0
59.057,6.396,2.427,34.0
59.119,6.395,2.09,30.0
59.583,6.438,1.765,33.0
51.489,5.557,1.225,3.0
45.342,4.888,0.819,10.0
42.265,4.552,0.522,0.0
59.316,6.376,2.365,25.0
59.071,6.342,2.017,27.0
60.267,6.462,1.713,26.0
51.447,5.51,1.162,6.0
44.968,4.811,0.758,4.0
38.636,4.129,0.431,0.0
59.198,6.314,2.289,24.0
59.324,6.319,1.954,24.0
60.116,6.395,1.636,23.0
46.393,4.929,0.992,5.0
44.941,4.769,0.704,5.0
38.282,4.058,0.381,0.0
59.102,6.251,2.215,24.0
59.309,6.264,1.883,21.0
59.3,6.255,1.543,13.0
46.0,4.846,0.93,13.0
44.998,4.735,0.652,4.0
34.66,3.642,0.304,0.0
59.222,6.208,2.149,24.0
59.594,6.238,1.822,33.0
59.135,6.182,1.469,1.0
45.633,4.764,0.869,13.0
45.125,4.705,0.601,3.0
34.364,3.578,0.261,1.0
59.47,6.177,2.089,34.0
59.663,6.187,1.754,34.0
51.716,5.355,1.225,4.0
45.418,4.697,0.811,4.0
42.899,4.43,0.521,0.0
32.189,3.32,0.208,0.0
59.87,6.158,2.034,35.0
59.715,6.132,1.688,34.0
51.474,5.278,1.16,5.0
45.459,4.655,0.761,5.0
39.344,4.022,0.434,0.0
31.567,3.223,0.168,0.0
60.069,6.115,1.972,22.0
59.9,6.088,1.624,21.0
51.376,5.213,1.099,1.0
45.633,4.623,0.711,5.0
0.0,0.0,0.0,0.0
29.272,2.956,0.122,0.0
60.186,6.06,1.907,22.0
61.015,6.133,1.585,1.0
46.707,4.687,0.947,3.0
45.941,4.603,0.665,12.0
34.57,3.458,0.303,0.0
29.18,2.914,0.089,1.0
60.266,5.999,1.843,17.0
53.061,5.273,1.32,1.0
46.492,4.612,0.891,3.0
46.03,4.558,0.615,2.0
32.786,3.241,0.251,0.0
28.803,2.843,0.056,1.0
60.454,5.946,1.782,8.0
51.812,5.087,1.232,4.0
46.501,4.557,0.84,8.0
40.42,3.954,0.496,0.0
32.085,3.133,0.211,0.0
27.396,2.671,0.024,0.0
0.0,0.0,0.0,0.0
51.515,4.994,1.169,7.0
46.537,4.503,0.791,4.0
40.308,3.893,0.452,0.0
29.363,2.831,0.162,1.0
26.269,2.528,-0.004,1.0
61.94,5.939,1.694,5.0
51.272,4.906,1.11,4.0
46.795,4.469,0.747,6.0
0.0,0.0,0.0,0.0
29.308,2.788,0.131,5.0
25.95,2.464,-0.031,1.0
62.004,5.865,1.631,2.0
48.566,4.584,1.001,2.0
47.051,4.432,0.702,3.0
0.0,0.0,0.0,0.0
29.227,2.742,0.101,5.0
25.597,2.397,-0.056,1.0
52.156,4.864,1.319,8.0
47.827,4.451,0.938,3.0
47.287,4.391,0.658,1.0
34.004,3.151,0.277,0.0
29.077,2.689,0.071,2.0
24.883,2.296,-0.079,0.0
52.002,4.778,1.264,10.0
47.642,4.368,0.887,4.0
41.03,3.753,0.531,0.0
32.649,2.98,0.234,0.0
27.722,2.525,0.041,0.0
24.376,2.216,-0.101,0.0
51.715,4.679,1.207,8.0
47.841,4.318,0.845,5.0
0.0,0.0,0.0,0.0
31.955,2.871,0.198,0.0
26.826,2.405,0.014,1.0
23.845,2.133,-0.122,0.0
51.435,4.579,1.151,9.0
48.359,4.295,0.808,11.0
0.0,0.0,0.0,0.0
31.113,2.75,0.164,0.0
26.278,2.318,-0.01,2.0
23.045,2.028,-0.139,0.0
51.339,4.495,1.101,3.0
48.423,4.229,0.765,17.0
35.455,3.088,0.359,0.0
29.181,2.535,0.127,0.0
25.838,2.24,-0.033,1.0
22.76,1.968,-0.158,1.0
49.582,4.266,1.019,3.0
48.76,4.184,0.726,0.0
34.056,2.915,0.314,0.0
29.028,2.478,0.1,0.0
25.411,2.164,-0.055,0.0
22.514,1.913,-0.176,2.0
49.271,4.163,0.97,5.0
42.539,3.584,0.597,0.0
33.749,2.836,0.282,0.0
28.372,2.378,0.074,0.0
24.921,2.083,-0.075,0.0
22.148,1.846,-0.192,1.0
49.339,4.091,0.93,5.0
0.0,0.0,0.0,0.0
32.508,2.68,0.245,0.0
27.408,2.254,0.049,1.0
24.269,1.99,-0.093,1.0
21.68,1.773,-0.206,0.0
47.972,3.9,0.865,2.0
0.0,0.0,0.0,0.0
31.294,2.529,0.21,0.0
27.209,2.193,0.026,1.0
24.063,1.934,-0.112,2.0
21.338,1.71,-0.219,0.0
48.025,3.826,0.828,5.0
37.121,2.948,0.43,0.0
30.976,2.453,0.184,1.0
26.547,2.096,0.005,0.0
23.938,1.884,-0.13,2.0
20.978,1.646,-0.232,0.0
47.99,3.744,0.79,3.0
35.475,2.758,0.384,0.0
30.004,2.325,0.156,1.0
26.147,2.02,-0.013,0.0
23.449,1.806,-0.144,0.0
20.577,1.58,-0.242,0.0
0.0,0.0,0.0,0.0
35.561,2.705,0.359,0.0
29.656,2.248,0.132,1.0
25.77,1.947,-0.032,0.0
23.011,1.733,-0.158,0.0
20.319,1.525,-0.254,0.0
0.0,0.0,0.0,0.0
33.378,2.481,0.314,0.0
28.924,2.142,0.109,1.0
25.414,1.876,-0.049,0.0
22.647,1.666,-0.171,0.0
19.78,1.45,-0.26,0.0
0.0,0.0,0.0,0.0
33.151,2.405,0.29,0.0
28.72,2.076,0.089,1.0
25.101,1.808,-0.065,0.0
22.27,1.599,-0.182,0.0
19.367,1.385,-0.267,0.0
0.0,0.0,0.0,0.0
32.23,2.281,0.261,0.0
28.208,1.989,0.07,1.0
24.602,1.729,-0.078,1.0
21.964,1.537,-0.193,0.0
19.142,1.335,-0.276,0.0
0.0,0.0,0.0,0.0
32.011,2.208,0.24,0.0
27.664,1.901,0.052,0.0
24.319,1.665,-0.092,1.0
21.689,1.479,-0.204,0.0
18.953,1.287,-0.284,0.0
47.319,3.19,0.594,0.0
31.267,2.099,0.217,0.0
27.239,1.821,0.036,0.0
24.213,1.613,-0.105,1.0
21.501,1.426,-0.214,0.0
18.575,1.227,-0.289,0.0
37.023,2.427,0.444,1.0
30.972,2.022,0.198,0.0
26.949,1.752,0.021,0.0
23.982,1.553,-0.117,0.0
21.238,1.369,-0.222,1.0
18.523,1.189,-0.297,0.0
36.726,2.339,0.422,1.0
30.086,1.908,0.177,0.0
26.682,1.684,0.008,0.0
23.711,1.49,-0.127,0.0
21.088,1.319,-0.231,1.0
18.344,1.143,-0.303,0.0
47.231,2.919,0.52,1.0
29.948,1.842,0.162,1.0
26.39,1.616,-0.004,0.0
23.339,1.422,-0.136,0.0
20.911,1.269,-0.238,0.0
18.235,1.101,-0.31,0.0
34.771,2.082,0.368,0.0
29.732,1.772,0.148,0.0
26.168,1.552,-0.015,0.0
23.071,1.362,-0.144,0.0
20.525,1.205,-0.243,0.0
18.081,1.057,-0.314,0.0
0.0,0.0,0.0,0.0
29.505,1.701,0.135,0.0
25.979,1.49,-0.025,0.0
23.001,1.313,-0.152,0.0
20.284,1.152,-0.247,0.0
17.997,1.017,-0.32,0.0
33.946,1.901,0.332,0.0
29.088,1.621,0.123,0.0
25.817,1.431,-0.034,0.0
22.887,1.261,-0.16,0.0
20.038,1.099,-0.251,0.0
17.777,0.969,-0.322,0.0
33.526,1.811,0.317,0.0
28.873,1.551,0.112,0.0
25.696,1.373,-0.042,0.0
22.419,1.191,-0.164,0.0
19.85,1.049,-0.255,0.0
17.686,0.929,-0.326,0.0
33.429,1.739,0.306,0.0
28.764,1.488,0.103,0.0
25.493,1.311,-0.049,0.0
22.445,1.148,-0.17,1.0
19.75,1.004,-0.259,0.0
17.538,0.886,-0.328,0.0
32.784,1.64,0.291,0.0
28.666,1.426,0.096,0.0
25.37,1.254,-0.055,0.0
22.364,1.099,-0.175,1.0
19.681,0.961,-0.263,0.0
17.336,0.841,-0.328,0.0
32.453,1.559,0.281,1.0
28.462,1.359,0.089,0.0
25.355,1.203,-0.061,0.0
22.229,1.047,-0.179,1.0
19.454,0.91,-0.264,0.0
17.314,0.805,-0.331,0.0
32.571,1.498,0.276,0.0
28.432,1.299,0.083,0.0
25.2,1.144,-0.065,0.0
22.164,0.999,-0.182,0.0
19.489,0.873,-0.268,0.0
17.247,0.767,-0.332,0.0
32.569,1.433,0.271,1.0
28.337,1.238,0.079,0.0
25.122,1.089,-0.068,0.0
21.972,0.946,-0.183,1.0
19.388,0.828,-0.269,0.0
17.211,0.73,-0.334,0.0
32.574,1.366,0.267,1.0
28.221,1.174,0.075,0.0
24.98,1.031,-0.07,0.0
21.976,0.9,-0.185,0.0
19.464,0.791,-0.272,0.0
17.174,0.693,-0.335,0.0
32.454,1.294,0.264,0.0
28.394,1.123,0.074,0.0
25.178,0.988,-0.073,1.0
22.047,0.858,-0.187,1.0
19.357,0.747,-0.271,0.0
17.163,0.657,-0.335,0.0
32.459,1.226,0.262,1.0
28.329,1.061,0.073,0.0
25.308,0.94,-0.074,1.0
22.101,0.814,-0.188,1.0
19.477,0.711,-0.273,0.0
17.224,0.623,-0.336,0.0
32.142,1.148,0.259,0.0
28.141,0.996,0.072,0.0
24.939,0.874,-0.072,0.0
22.053,0.766,-0.188,0.0
19.209,0.661,-0.269,0.0
17.194,0.586,-0.335,0.0
32.156,1.082,0.261,0.0
28.521,0.95,0.074,1.0
25.019,0.825,-0.072,0.0
22.14,0.723,-0.187,0.0
19.171,0.62,-0.267,0.0
17.169,0.549,-0.334,0.0
32.335,1.021,0.264,0.0
28.583,0.892,0.077,1.0
25.148,0.777,-0.07,0.0
22.129,0.677,-0.185,0.0
19.299,0.584,-0.267,0.0
17.207,0.515,-0.333,0.0
32.276,0.951,0.267,0.0
28.699,0.836,0.08,1.0
25.205,0.726,-0.067,0.0
22.235,0.633,-0.183,0.0
19.663,0.553,-0.27,0.0
17.251,0.479,-0.331,0.0
32.57,0.891,0.274,0.0
28.843,0.779,0.085,2.0
25.32,0.675,-0.063,0.0
22.336,0.588,-0.18,0.0
19.42,0.505,-0.263,0.0
17.292,0.444,-0.329,0.0
32.838,0.829,0.283,0.0
28.781,0.718,0.09,1.0
25.452,0.626,-0.059,0.0
22.407,0.543,-0.176,0.0
19.746,0.472,-0.263,0.0
17.374,0.41,-0.327,0.0
32.806,0.76,0.29,0.0
28.722,0.655,0.097,1.0
25.624,0.576,-0.053,0.0
22.55,0.499,-0.172,0.0
19.828,0.432,-0.26,0.0
17.5,0.376,-0.325,0.0
33.231,0.7,0.302,0.0
28.771,0.596,0.104,1.0
25.727,0.525,-0.046,0.0
22.738,0.456,-0.167,0.0
19.939,0.393,-0.255,0.0
17.513,0.339,-0.32,0.0
33.776,0.641,0.317,0.0
28.802,0.537,0.113,1.0
25.939,0.474,-0.039,0.0
23.015,0.413,-0.162,0.0
20.085,0.354,-0.251,0.0
17.666,0.305,-0.317,0.0
33.677,0.568,0.327,1.0
28.838,0.476,0.123,1.0
26.143,0.423,-0.03,0.0
23.29,0.369,-0.156,0.0
20.222,0.313,-0.245,0.0
17.887,0.271,-0.314,0.0
34.1,0.503,0.344,0.0
28.892,0.416,0.134,6.0
26.308,0.37,-0.02,0.0
23.498,0.323,-0.148,0.0
20.348,0.272,-0.239,0.0
17.934,0.234,-0.308,0.0
34.206,0.434,0.359,0.0
28.909,0.357,0.146,4.0
26.546,0.319,-0.009,0.0
23.543,0.275,-0.138,0.0
20.653,0.234,-0.233,0.0
18.175,0.199,-0.304,0.0
0.0,0.0,0.0,0.0
28.886,0.296,0.159,1.0
26.83,0.266,0.002,0.0
23.878,0.229,-0.129,0.0
20.936,0.193,-0.227,0.0
18.288,0.163,-0.297,0.0
35.498,0.303,0.405,0.0
28.961,0.237,0.174,0.0
27.18,0.213,0.016,0.0
24.17,0.181,-0.119,0.0
21.152,0.151,-0.218,2.0
18.509,0.126,-0.291,0.0
35.896,0.231,0.428,0.0
31.305,0.191,0.204,0.0
27.422,0.158,0.03,0.0
24.447,0.132,-0.107,0.0
21.416,0.109,-0.209,4.0
18.785,0.089,-0.285,0.0
0.0,0.0,0.0,0.0
31.243,0.126,0.221,0.0
27.849,0.103,0.046,0.0
24.71,0.083,-0.094,0.0
21.704,0.066,-0.2,3.0
18.904,0.05,-0.276,0.0
37.044,0.086,0.484,0.0
31.745,0.063,0.244,0.0
28.471,0.047,0.065,1.0
25.201,0.032,-0.08,0.0
22.009,0.021,-0.189,0.0
19.254,0.011,-0.269,0.0
0.0,0.0,0.0,0.0
33.058,-0.002,0.275,0.0
28.654,-0.012,0.084,1.0
25.54,-0.019,-0.064,0.0
22.328,-0.024,-0.177,0.0
19.577,-0.028,-0.26,0.0
39.206,-0.07,0.564,0.0
33.142,-0.07,0.298,1.0
28.78,-0.071,0.104,7.0
25.821,-0.072,-0.047,0.0
22.972,-0.072,-0.166,0.0
19.948,-0.069,-0.251,0.0
39.866,-0.151,0.601,0.0
33.216,-0.137,0.322,1.0
28.808,-0.128,0.124,6.0
26.092,-0.125,-0.029,0.0
23.381,-0.12,-0.152,0.0
20.337,-0.111,-0.241,0.0
0.0,0.0,0.0,0.0
0.0,0.0,0.0,0.0
28.823,-0.186,0.146,2.0
26.511,-0.18,-0.01,0.0
23.972,-0.171,-0.138,0.0
20.768,-0.155,-0.231,0.0
0.0,0.0,0.0,0.0
0.0,0.0,0.0,0.0
30.657,-0.259,0.179,0.0
27.368,-0.241,0.01,0.0
24.123,-0.22,-0.119,0.0
21.365,-0.202,-0.22,0.0
0.0,0.0,0.0,0.0
36.245,-0.366,0.435,0.0
31.298,-0.327,0.208,0.0
27.625,-0.297,0.033,0.0
24.45,-0.272,-0.101,0.0
21.838,-0.25,-0.207,0.0
0.0,0.0,0.0,0.0
0.0,0.0,0.0,0.0
32.035,-0.397,0.24,0.0
28.247,-0.36,0.058,0.0
25.068,-0.328,-0.082,0.0
22.298,-0.299,-0.192,1.0
47.642,-0.653,0.91,0.0
0.0,0.0,0.0,0.0
32.537,-0.467,0.273,0.0
28.545,-0.419,0.084,1.0
25.547,-0.383,-0.06,0.0
22.846,-0.351,-0.176,0.0
47.671,-0.746,0.953,0.0
0.0,0.0,0.0,0.0
33.62,-0.548,0.313,2.0
28.662,-0.476,0.111,0.0
26.107,-0.442,-0.037,0.0
23.271,-0.402,-0.158,0.0
0.0,0.0,0.0,0.0
0.0,0.0,0.0,0.0
33.843,-0.615,0.347,1.0
28.744,-0.532,0.138,2.0
26.486,-0.499,-0.013,0.0
23.805,-0.456,-0.138,0.0
0.0,0.0,0.0,0.0
41.943,-0.828,0.694,0.0
34.779,-0.698,0.39,0.0
28.781,-0.587,0.167,0.0
27.308,-0.565,0.013,0.0
24.101,-0.507,-0.116,0.0
0.0,0.0,0.0,0.0
0.0,0.0,0.0,0.0
0.0,0.0,0.0,0.0
31.087,-0.692,0.212,0.0
28.202,-0.637,0.042,1.0
24.933,-0.571,-0.094,0.0
0.0,0.0,0.0,0.0
0.0,0.0,0.0,0.0
37.831,-0.9,0.502,0.0
32.386,-0.781,0.255,0.0
28.624,-0.699,0.073,6.0
25.686,-0.635,-0.07,0.0
0.0,0.0,0.0,0.0
0.0,0.0,0.0,0.0
0.0,0.0,0.0,0.0
33.016,-0.856,0.295,1.0
28.657,-0.752,0.104,5.0
26.094,-0.693,-0.043,0.0
0.0,0.0,0.0,0.0
0.0,0.0,0.0,0.0
40.633,-1.113,0.628,0.0
34.238,-0.949,0.344,0.0
28.681,-0.803,0.136,0.0
26.53,-0.751,-0.014,0.0
0.0,0.0,0.0,0.0
0.0,0.0,0.0,0.0
0.0,0.0,0.0,0.0
35.005,-1.032,0.391,0.0
30.741,-0.916,0.181,0.0
27.436,-0.825,0.016,0.0
0.0,0.0,0.0,0.0
0.0,0.0,0.0,0.0
0.0,0.0,0.0,0.0
36.462,-1.139,0.45,0.0
31.352,-0.988,0.221,0.0
28.313,-0.901,0.05,1.0
0.0,0.0,0.0,0.0
0.0,0.0,0.0,0.0
0.0,0.0,0.0,0.0
39.057,-1.287,0.529,0.0
32.224,-1.072,0.266,0.0
28.566,-0.958,0.085,2.0
92.992,-3.142,2.858,1.0
0.0,0.0,0.0,0.0
0.0,0.0,0.0,0.0
39.125,-1.355,0.577,0.0
33.705,-1.177,0.319,0.0
28.659,-1.009,0.12,1.0
93.025,-3.298,2.973,1.0
0.0,0.0,0.0,0.0
0.0,0.0,0.0,0.0
0.0,0.0,0.0,0.0
34.797,-1.273,0.373,0.0
28.73,-1.059,0.156,0.0
92.177,-3.419,3.06,14.0
0.0,0.0,0.0,0.0
0.0,0.0,0.0,0.0
0.0,0.0,0.0,0.0
0.0,0.0,0.0,0.0
31.529,-1.214,0.212,0.0
92.116,-3.565,3.177,38.0
0.0,0.0,0.0,0.0
0.0,0.0,0.0,0.0
0.0,0.0,0.0,0.0
0.0,0.0,0.0,0.0
32.328,-1.296,0.259,0.0
92.149,-3.713,3.298,154.0
0.0,0.0,0.0,0.0
0.0,0.0,0.0,0.0
0.0,0.0,0.0,0.0
39.28,-1.626,0.574,0.0
33.736,-1.405,0.315,0.0
92.208,-3.859,3.423,162.0
92.889,-3.913,2.959,1.0
0.0,0.0,0.0,0.0
0.0,0.0,0.0,0.0
0.0,0.0,0.0,0.0
34.481,-1.489,0.369,0.0
92.436,-4.01,3.556,8.0
92.474,-4.036,3.071,5.0
0.0,0.0,0.0,0.0
0.0,0.0,0.0,0.0
0.0,0.0,0.0,0.0
0.0,0.0,0.0,0.0
93.373,-4.189,3.72,5.0
93.363,-4.212,3.228,2.0
0.0,0.0,0.0,0.0
0.0,0.0,0.0,0.0
47.326,-2.171,0.885,0.0
38.176,-1.761,0.513,0.0
95.033,-4.402,3.918,1.0
94.79,-4.414,3.409,2.0
0.0,0.0,0.0,0.0
0.0,0.0,0.0,0.0
0.0,0.0,0.0,0.0
0.0,0.0,0.0,0.0
0.0,0.0,0.0,0.0
0.0,0.0,0.0,0.0
0.0,0.0,0.0,0.0
0.0,0.0,0.0,0.0
0.0,0.0,0.0,0.0
0.0,0.0,0.0,0.0
0.0,0.0,0.0,0.0
0.0,0.0,0.0,0.0
109.413,-5.426,3.671,10.0
0.0,0.0,0.0,0.0
0.0,0.0,0.0,0.0
0.0,0.0,0.0,0.0
0.0,0.0,0.0,0.0
0.0,0.0,0.0,0.0
109.402,-5.571,3.829,165.0
0.0,0.0,0.0,0.0
0.0,0.0,0.0,0.0
34.589,-1.785,0.663,0.0
189.03,-9.791,8.88,6.0
0.0,0.0,0.0,0.0
109.344,-5.71,3.987,152.0
34.24,-1.795,1.065,1.0
34.239,-1.803,0.886,1.0
34.288,-1.813,0.707,0.0
189.074,-10.035,9.161,9.0
0.0,0.0,0.0,0.0
109.323,-5.849,4.149,7.0
34.185,-1.835,1.114,22.0
34.156,-1.841,0.935,2.0
34.189,-1.851,0.757,1.0
189.024,-10.267,9.441,16.0
0.0,0.0,0.0,0.0
0.0,0.0,0.0,0.0
34.144,-1.875,1.164,2.0
34.194,-1.885,0.987,152.0
34.115,-1.888,0.806,2.0
189.252,-10.506,9.736,15.0
188.525,-10.504,8.71,5.0
0.0,0.0,0.0,0.0
34.117,-1.914,1.215,1.0
34.153,-1.923,1.037,156.0
34.053,-1.924,0.856,3.0
119.6,-6.781,6.337,3.0
188.615,-10.728,9.003,14.0
0.0,0.0,0.0,0.0
34.082,-1.951,1.266,2.0
34.114,-1.959,1.089,150.0
34.053,-1.962,0.908,4.0
122.834,-7.102,6.696,19.0
188.639,-10.94,9.294,15.0
0.0,0.0,0.0,0.0
34.054,-1.987,1.317,2.0
34.043,-1.992,1.138,8.0
34.017,-1.997,0.959,5.0
120.937,-7.124,6.778,13.0
188.324,-11.125,9.568,15.0
0.0,0.0,0.0,0.0
34.29,-2.037,1.379,0.0
34.017,-2.027,1.19,3.0
33.995,-2.032,1.011,17.0
120.709,-7.237,6.953,6.0
122.931,-7.389,6.435,11.0
188.393,-11.356,8.876,6.0
34.352,-2.076,1.435,0.0
34.021,-2.062,1.243,3.0
33.974,-2.065,1.064,8.0
92.272,-5.625,5.459,8.0
188.1,-11.498,10.144,10.0
189.353,-11.603,9.218,8.0
34.434,-2.115,1.492,0.0
33.984,-2.093,1.295,7.0
33.946,-2.096,1.116,8.0
92.006,-5.699,5.59,16.0
0.0,0.0,0.0,0.0
189.301,-11.783,9.517,7.0
34.545,-2.155,1.552,0.0
34.015,-2.127,1.35,3.0
33.945,-2.128,1.17,6.0
121.894,-7.665,7.599,12.0
121.152,-7.634,6.917,8.0
188.654,-11.914,9.78,6.0
34.808,-2.203,1.618,0.0
34.218,-2.17,1.412,0.0
33.984,-2.16,1.225,4.0
121.901,-7.774,7.793,15.0
92.327,-5.899,5.417,8.0
0.0,0.0,0.0,0.0
34.938,-2.241,1.68,0.0
34.341,-2.207,1.471,0.0
33.933,-2.186,1.277,12.0
121.697,-7.864,7.974,15.0
91.743,-5.939,5.529,10.0
91.506,-5.935,5.036,15.0
0.0,0.0,0.0,0.0
0.0,0.0,0.0,0.0
33.933,-2.213,1.331,8.0
122.15,-7.992,8.199,9.0
121.484,-7.962,7.517,8.0
91.359,-5.998,5.173,5.0
157.075,-10.33,8.055,14.0
0.0,0.0,0.0,0.0
34.133,-2.252,1.393,0.0
119.785,-7.929,8.232,8.0
89.436,-5.929,5.676,15.0
121.403,-8.062,7.068,3.0
156.821,-10.43,8.294,16.0
34.8,-2.318,1.658,0.0
34.251,-2.285,1.453,0.0
147.356,-9.862,10.365,9.0
122.073,-8.18,7.945,16.0
156.377,-10.495,9.357,13.0
156.801,-10.539,8.543,35.0
35.215,-2.37,1.734,0.0
34.603,-2.332,1.523,0.0
119.421,-8.074,8.591,7.0
121.952,-8.254,8.132,17.0
122.019,-8.27,7.496,10.0
156.697,-10.635,8.788,11.0
157.06,-10.675,7.986,3.0
0.0,0.0,0.0,0.0
119.641,-8.165,8.799,9.0
122.093,-8.342,8.338,20.0
122.155,-8.355,7.7,13.0
189.064,-12.948,10.907,15.0
189.785,-13.013,9.955,8.0
34.717,-2.383,1.639,0.0
119.119,-8.2,8.953,7.0
122.311,-8.429,8.55,16.0
122.05,-8.42,7.889,11.0
189.059,-13.055,11.211,17.0
189.289,-13.086,10.231,12.0
0.0,0.0,0.0,0.0
88.648,-6.153,6.805,11.0
122.111,-8.483,8.732,8.0
122.012,-8.483,8.084,14.0
122.131,-8.499,7.438,5.0
189.225,-13.181,10.532,19.0
0.0,0.0,0.0,0.0
88.612,-6.195,6.945,18.0
121.898,-8.529,8.913,8.0
122.382,-8.57,8.305,16.0
154.354,-10.818,9.647,8.0
189.753,-13.308,10.862,8.0
191.821,-13.465,9.976,4.0
88.394,-6.222,7.069,15.0
119.395,-8.409,8.918,4.0
122.458,-8.631,8.503,18.0
122.257,-8.621,7.833,9.0
189.196,-13.351,11.129,5.0
189.4,-13.376,10.147,8.0
88.161,-6.243,7.19,15.0
88.558,-6.274,6.754,9.0
0.0,0.0,0.0,0.0
121.995,-8.651,8.009,14.0
188.808,-13.398,11.402,15.0
189.532,-13.457,10.451,13.0
87.989,-6.264,7.315,10.0
88.539,-6.306,6.893,26.0
121.788,-8.678,8.839,9.0
121.928,-8.69,8.196,16.0
155.155,-11.064,9.612,13.0
189.896,-13.548,10.768,14.0
119.056,-8.518,10.086,7.0
88.527,-6.334,7.032,18.0
121.957,-8.729,9.044,6.0
122.466,-8.768,8.423,12.0
122.383,-8.764,7.773,5.0
190.047,-13.615,11.07,4.0
119.202,-8.563,10.283,11.0
88.192,-6.336,7.142,10.0
119.44,-8.583,9.041,9.0
122.23,-8.785,8.595,14.0
122.076,-8.774,7.942,14.0
189.204,-13.603,11.313,7.0
119.114,-8.588,10.462,13.0
88.04,-6.347,7.266,15.0
88.509,-6.381,6.836,9.0
121.909,-8.79,8.761,9.0
122.347,-8.821,8.147,10.0
155.0,-11.176,9.506,8.0
119.278,-8.625,10.661,16.0
87.998,-6.362,7.398,6.0
88.51,-6.399,6.972,13.0
122.257,-8.838,8.973,6.0
122.617,-8.862,8.353,14.0
154.932,-11.198,9.739,5.0
119.361,-8.652,10.851,13.0
119.277,-8.644,10.21,9.0
88.412,-6.405,7.1,8.0
119.372,-8.646,8.943,8.0
122.826,-8.895,8.553,9.0
122.38,-8.862,7.877,7.0
119.36,-8.667,11.033,7.0
119.11,-8.646,10.378,10.0
88.07,-6.391,7.206,8.0
88.544,-6.422,6.767,5.0
121.978,-8.845,8.677,7.0
122.084,-8.851,8.041,6.0
146.863,-10.677,13.796,11.0
119.111,-8.656,10.555,15.0
88.02,-6.393,7.333,9.0
88.524,-6.427,6.897,14.0
122.04,-8.857,8.863,9.0
122.608,-8.895,8.256,11.0
91.562,-6.661,8.739,13.0
119.399,-8.682,10.761,14.0
119.273,-8.666,10.116,7.0
88.459,-6.424,7.024,17.0
122.216,-8.87,9.056,6.0
122.665,-8.899,8.441,9.0
91.585,-6.664,8.876,7.0
119.44,-8.683,10.939,10.0
119.164,-8.657,10.28,12.0
88.203,-6.404,7.132,6.0
119.3,-8.656,9.014,8.0
147.456,-10.692,10.36,6.0
146.549,-10.657,14.418,12.0
146.746,-10.663,13.654,9.0
119.046,-8.642,10.442,13.0
88.012,-6.384,7.243,11.0
88.525,-6.417,6.816,10.0
121.881,-8.829,8.737,7.0
146.393,-10.634,14.614,15.0
146.895,-10.661,13.88,13.0
119.215,-8.644,10.628,15.0
88.013,-6.376,7.369,8.0
88.516,-6.406,6.941,14.0
122.141,-8.833,8.929,6.0
147.314,-10.683,14.915,7.0
91.555,-6.633,8.78,8.0
119.282,-8.633,10.802,13.0
119.179,-8.616,10.145,6.0
88.48,-6.391,7.06,11.0
119.466,-8.621,8.898,8.0
147.373,-10.666,15.128,13.0
146.794,-10.611,14.281,9.0
145.63,-10.515,13.39,8.0
119.183,-8.596,10.309,10.0
88.104,-6.347,7.152,11.0
119.425,-8.595,9.058,8.0
148.17,-10.694,15.414,9.0
146.545,-10.563,14.458,11.0
145.881,-10.502,13.613,7.0
119.099,-8.563,10.465,19.0
88.002,-6.32,7.263,15.0
88.529,-6.35,6.835,20.0
148.238,-10.663,15.624,5.0
146.426,-10.519,14.646,9.0
91.609,-6.572,8.672,10.0
119.377,-8.551,10.65,13.0
87.941,-6.292,7.375,7.0
88.532,-6.326,6.953,21.0
148.392,-10.634,15.839,13.0
91.386,-6.538,9.262,5.0
91.64,-6.547,8.797,19.0
119.091,-8.496,10.782,18.0
118.928,-8.472,10.13,15.0
88.319,-6.283,7.051,12.0
148.549,-10.598,16.05,12.0
146.385,-10.427,15.029,15.0
91.681,-6.52,8.919,10.0
118.751,-8.432,10.904,9.0
118.897,-8.43,10.28,14.0
88.196,-6.243,7.154,14.0
148.787,-10.563,16.267,13.0
146.29,-10.367,15.206,17.0
91.584,-6.479,9.027,5.0
118.45,-8.365,11.027,8.0
118.756,-8.374,10.417,6.0
119.374,-8.404,9.833,12.0
148.704,-10.498,16.447,8.0
146.213,-10.304,15.381,13.0
91.585,-6.442,9.141,17.0
118.51,-8.321,11.178,9.0
117.613,-8.245,10.46,13.0
119.286,-8.348,9.97,15.0
148.542,-10.424,16.61,8.0
146.168,-10.237,15.555,7.0
91.476,-6.394,9.24,16.0
91.736,-6.4,8.763,18.0
117.219,-8.164,10.566,14.0
88.259,-6.135,7.481,6.0
90.897,-6.336,10.274,11.0
0.0,0.0,0.0,0.0
91.525,-6.355,9.354,4.0
91.738,-6.356,8.871,11.0
117.167,-8.103,10.699,12.0
88.268,-6.093,7.584,19.0
90.575,-6.269,10.343,20.0
150.566,-10.399,16.377,13.0
112.85,-7.778,11.663,3.0
91.574,-6.298,8.96,4.0
117.872,-8.09,10.896,12.0
88.27,-6.046,7.684,7.0
90.149,-6.191,10.398,28.0
150.532,-10.315,16.545,14.0
148.213,-10.135,15.485,11.0
91.704,-6.256,9.075,15.0
91.846,-6.253,8.593,10.0
117.248,-7.965,10.337,20.0
90.173,-6.142,10.501,32.0
150.63,-10.234,16.723,9.0
147.348,-9.988,15.559,3.0
91.631,-6.197,9.169,20.0
91.774,-6.194,8.686,7.0
117.256,-7.895,10.464,17.0
90.365,-6.1,10.621,27.0
91.056,-6.132,10.207,2.0
113.497,-7.624,12.104,9.0
91.562,-6.137,9.258,12.0
93.945,-6.281,8.989,11.0
117.347,-7.827,10.595,5.0
90.55,-6.055,10.738,25.0
91.164,-6.081,10.314,10.0
113.495,-7.551,12.222,8.0
93.57,-6.209,9.558,10.0
93.934,-6.218,9.085,18.0
118.72,-7.84,10.839,7.0
90.42,-5.986,10.815,19.0
90.974,-6.006,10.385,13.0
93.255,-6.141,10.135,10.0
113.289,-7.441,11.684,10.0
91.849,-6.017,8.973,10.0
94.995,-6.207,8.765,8.0
90.248,-5.912,10.883,21.0
90.993,-5.943,10.475,16.0
91.154,-5.938,9.995,18.0
97.958,-6.364,10.197,14.0
87.388,-5.662,8.62,14.0
93.468,-6.04,8.711,6.0
89.913,-5.823,10.929,19.0
90.572,-5.849,10.512,15.0
91.034,-5.863,10.067,22.0
97.927,-6.289,10.284,19.0
87.242,-5.587,8.685,14.0
91.414,-5.838,8.603,14.0
89.632,-5.738,10.976,30.0
90.178,-5.755,10.547,17.0
90.9,-5.784,10.133,29.0
86.878,-5.512,9.2,14.0
87.491,-5.534,8.787,22.0
91.37,-5.763,8.678,18.0
89.671,-5.668,11.06,30.0
89.665,-5.651,10.565,17.0
91.009,-5.718,10.223,31.0
86.818,-5.438,9.268,27.0
87.468,-5.463,8.858,18.0
91.444,-5.694,8.761,13.0
89.816,-5.605,11.153,17.0
89.613,-5.574,10.634,32.0
91.152,-5.653,10.314,15.0
87.001,-5.376,9.359,13.0
87.437,-5.387,8.926,28.0
87.379,-5.367,8.442,15.0
90.076,-5.544,11.258,11.0
89.753,-5.507,10.721,23.0
91.333,-5.585,10.407,15.0
93.69,-5.71,10.15,19.0
87.399,-5.31,8.988,22.0
87.502,-5.3,8.519,25.0
91.843,-5.573,11.548,8.0
89.903,-5.437,10.807,24.0
90.411,-5.449,10.369,15.0
93.692,-5.628,10.22,26.0
87.307,-5.227,9.043,9.0
87.716,-5.234,8.604,14.0
89.281,-5.338,11.291,3.0
90.02,-5.363,10.885,16.0
90.14,-5.35,10.402,23.0
93.772,-5.547,10.294,29.0
87.698,-5.171,9.143,14.0
87.544,-5.143,8.646,16.0
89.646,-5.276,11.399,9.0
90.258,-5.293,10.975,13.0
90.018,-5.259,10.448,17.0
93.757,-5.459,10.354,16.0
91.784,-5.325,9.629,10.0
87.403,-5.053,8.689,21.0
89.152,-5.162,11.394,13.0
89.912,-5.187,10.991,14.0
89.732,-5.157,10.471,17.0
91.612,-5.246,10.173,20.0
91.812,-5.238,9.688,10.0
87.327,-4.965,8.733,27.0
88.931,-5.063,11.419,23.0
87.567,-4.967,10.756,18.0
89.497,-5.056,10.496,20.0
90.049,-5.068,10.052,9.0
81.542,-4.572,8.651,21.0
87.529,-4.889,8.803,19.0
86.912,-4.862,11.208,12.0
87.582,-4.879,10.807,29.0
89.966,-4.993,10.6,15.0
90.104,-4.982,10.106,12.0
81.632,-4.495,8.703,26.0
82.256,-4.513,8.314,12.0
86.956,-4.776,11.259,11.0
87.538,-4.789,10.846,22.0
90.15,-4.911,10.667,8.0
90.164,-4.892,10.157,18.0
81.719,-4.416,8.752,28.0
82.293,-4.43,8.358,12.0
89.093,-4.801,11.579,14.0
87.281,-4.683,10.855,22.0
86.894,-4.643,10.322,10.0
90.096,-4.794,10.191,15.0
81.807,-4.336,8.798,26.0
82.367,-4.347,8.401,13.0
92.862,-4.905,12.11,8.0
90.34,-4.751,11.275,6.0
86.463,-4.527,10.307,22.0
90.084,-4.697,10.226,9.0
81.984,-4.257,8.85,20.0
82.572,-4.269,8.455,6.0
86.34,-4.467,11.293,11.0
87.328,-4.499,10.932,11.0
86.512,-4.437,10.345,25.0
85.657,-4.373,9.755,13.0
82.079,-4.173,8.89,13.0
82.96,-4.2,8.523,17.0
86.292,-4.372,11.316,25.0
86.796,-4.377,10.895,25.0
86.743,-4.354,10.401,26.0
85.571,-4.277,9.772,14.0
82.086,-4.084,8.916,16.0
82.134,-4.069,8.463,23.0
86.186,-4.271,11.329,29.0
86.772,-4.28,10.917,29.0
87.099,-4.276,10.469,23.0
85.56,-4.182,9.795,10.0
81.86,-3.982,8.913,11.0
82.027,-3.971,8.474,24.0
86.077,-4.169,11.337,29.0
86.717,-4.179,10.932,31.0
86.126,-4.132,10.372,18.0
86.954,-4.151,9.975,14.0
81.513,-3.874,8.894,26.0
82.086,-3.883,8.497,28.0
86.056,-4.07,11.352,28.0
86.7,-4.079,10.948,22.0
86.203,-4.036,10.399,17.0
86.81,-4.044,9.975,19.0
81.451,-3.776,8.902,30.0
82.372,-3.801,8.541,27.0
86.263,-3.979,11.395,27.0
86.696,-3.979,10.961,31.0
82.353,-3.761,9.947,6.0
80.585,-3.661,9.272,21.0
81.536,-3.687,8.923,32.0
82.549,-3.713,8.571,26.0
86.441,-3.888,11.429,13.0
0.0,0.0,0.0,0.0
82.403,-3.667,9.962,18.0
80.436,-3.562,9.262,16.0
81.325,-3.583,8.907,24.0
82.132,-3.6,8.534,14.0
86.052,-3.769,11.384,13.0
85.263,-3.713,10.796,25.0
82.115,-3.558,9.932,20.0
80.786,-3.483,9.307,8.0
81.313,-3.486,8.91,25.0
82.013,-3.499,8.525,12.0
85.984,-3.664,11.378,11.0
80.479,-3.41,10.192,12.0
81.109,-3.418,9.812,23.0
77.753,-3.258,8.958,31.0
81.732,-3.407,8.955,13.0
80.018,-3.318,8.317,10.0
85.755,-3.551,11.346,13.0
80.523,-3.316,10.196,30.0
81.112,-3.322,9.81,31.0
77.836,-3.169,8.965,33.0
80.451,-3.258,8.811,19.0
79.62,-3.207,8.271,23.0
80.664,-3.242,10.668,34.0
80.75,-3.228,10.219,19.0
81.799,-3.252,9.887,8.0
77.851,-3.077,8.96,36.0
79.248,-3.114,8.673,14.0
79.455,-3.105,8.246,27.0
80.478,-3.138,10.635,18.0
80.514,-3.121,10.18,21.0
76.936,-2.964,9.29,8.0
77.82,-2.98,8.947,23.0
79.06,-3.01,8.641,13.0
79.416,-3.007,8.231,24.0
80.58,-3.043,10.636,16.0
80.213,-3.011,10.129,25.0
77.09,-2.877,9.295,18.0
77.823,-2.886,8.933,26.0
64.509,-2.379,7.039,7.0
65.192,-2.39,6.744,25.0
80.502,-2.943,10.61,20.0
80.225,-2.914,10.114,29.0
77.702,-2.805,9.353,15.0
80.955,-2.905,9.275,11.0
64.744,-2.308,7.05,24.0
64.674,-2.292,6.675,40.0
80.395,-2.841,10.576,12.0
77.494,-2.72,9.75,22.0
77.856,-2.716,9.351,21.0
80.54,-2.791,9.206,16.0
64.344,-2.216,6.988,24.0
64.405,-2.204,6.629,23.0
75.973,-2.591,9.972,26.0
77.522,-2.627,9.73,31.0
77.671,-2.614,9.305,13.0
77.36,-2.586,8.818,22.0
64.158,-2.131,6.948,29.0
64.185,-2.119,6.585,35.0
75.878,-2.494,9.934,24.0
77.361,-2.526,9.683,41.0
77.167,-2.502,9.217,26.0
77.15,-2.486,8.766,40.0
64.312,-2.058,6.941,38.0
63.976,-2.033,6.54,33.0
76.008,-2.405,9.921,9.0
76.192,-2.394,9.507,24.0
77.982,-2.433,9.283,19.0
77.553,-2.403,8.78,14.0
64.19,-1.975,6.901,39.0
64.08,-1.958,6.524,28.0
76.934,-2.34,10.009,32.0
76.284,-2.303,9.485,24.0
79.607,-2.387,9.441,8.0
77.739,-2.314,8.766,7.0
64.156,-1.896,6.868,38.0
64.18,-1.884,6.504,30.0
76.369,-2.228,9.899,27.0
76.49,-2.216,9.474,20.0
76.252,-2.194,9.006,12.0
75.799,-2.165,8.51,13.0
64.104,-1.817,6.83,26.0
64.398,-1.812,6.494,30.0
76.307,-2.135,9.851,30.0
77.145,-2.141,9.514,13.0
76.224,-2.101,8.962,19.0
64.814,-1.772,7.241,15.0
64.282,-1.744,6.814,30.0
64.382,-1.734,6.456,25.0
76.688,-2.052,9.856,36.0
77.216,-2.05,9.479,17.0
76.135,-2.005,8.907,14.0
64.642,-1.69,7.184,15.0
64.465,-1.672,6.795,29.0
64.341,-1.656,6.413,23.0
75.917,-1.939,9.71,23.0
74.126,-1.878,9.053,21.0
75.994,-1.91,8.843,13.0
64.566,-1.61,7.135,23.0
64.492,-1.595,6.756,34.0
64.34,-1.578,6.372,31.0
75.887,-1.847,9.656,9.0
74.098,-1.788,9.0,31.0
76.046,-1.82,8.798,9.0
64.594,-1.533,7.095,40.0
64.361,-1.515,6.699,23.0
64.402,-1.504,6.334,27.0
74.042,-1.714,9.37,22.0
74.073,-1.7,8.945,36.0
74.23,-1.688,8.535,16.0
65.267,-1.472,7.121,34.0
64.258,-1.436,6.642,29.0
64.254,-1.425,6.272,28.0
74.105,-1.627,9.322,25.0
74.185,-1.614,8.902,33.0
64.75,-1.397,7.396,15.0
64.867,-1.387,7.028,10.0
64.121,-1.358,6.578,31.0
63.881,-1.341,6.186,28.0
74.152,-1.541,9.269,19.0
74.409,-1.532,8.869,28.0
64.757,-1.321,7.344,20.0
64.745,-1.309,6.963,23.0
64.145,-1.284,6.528,34.0
63.865,-1.267,6.133,25.0
74.037,-1.453,9.193,27.0
74.014,-1.438,8.76,26.0
74.258,-1.429,8.36,19.0
65.031,-1.24,6.938,40.0
64.341,-1.214,6.494,36.0
63.867,-1.194,6.078,21.0
74.232,-1.372,9.152,29.0
67.25,-1.229,7.901,16.0
64.783,-1.172,7.235,29.0
65.078,-1.166,6.885,40.0
64.228,-1.14,6.425,29.0
63.8,-1.12,6.014,28.0
74.243,-1.286,9.085,28.0
67.302,-1.154,7.844,21.0
58.591,-0.994,6.489,16.0
64.788,-1.088,6.794,35.0
64.232,-1.067,6.365,31.0
63.555,-1.045,5.932,29.0
74.504,-1.207,9.045,16.0
0.0,0.0,0.0,0.0
58.656,-0.929,6.44,25.0
64.502,-1.011,6.701,21.0
64.233,-0.995,6.301,8.0
63.508,-0.974,5.864,31.0
66.111,-0.997,7.959,15.0
57.155,-0.852,6.548,6.0
58.636,-0.864,6.377,24.0
64.444,-0.939,6.628,27.0
58.426,-0.841,5.672,18.0
63.646,-0.905,5.811,28.0
66.116,-0.923,7.89,8.0
67.432,-0.931,7.654,9.0
58.728,-0.801,6.324,22.0
64.356,-0.867,6.551,22.0
58.486,-0.778,5.614,16.0
64.089,-0.843,5.782,30.0
66.113,-0.852,7.818,11.0
57.281,-0.729,6.439,26.0
58.829,-0.739,6.271,29.0
64.27,-0.797,6.471,31.0
58.516,-0.717,5.553,26.0
64.019,-0.774,5.705,24.0
73.584,-0.869,8.617,26.0
57.262,-0.667,6.372,28.0
58.873,-0.677,6.208,29.0
64.331,-0.73,6.403,9.0
63.973,-0.716,5.996,14.0
63.889,-0.705,5.619,22.0
64.241,-0.691,7.447,16.0
57.267,-0.607,6.305,22.0
58.836,-0.615,6.135,32.0
58.618,-0.604,5.765,19.0
63.921,-0.649,5.917,29.0
63.787,-0.639,5.535,21.0
59.46,-0.579,6.821,27.0
57.381,-0.55,6.248,27.0
58.9,-0.556,6.07,26.0
58.724,-0.546,5.704,27.0
64.042,-0.586,5.85,17.0
73.784,-0.665,6.312,24.0
59.439,-0.519,6.745,20.0
57.229,-0.491,6.16,28.0
58.926,-0.497,5.999,25.0
58.693,-0.487,5.627,18.0
73.793,-0.602,6.646,14.0
74.699,-0.599,6.294,10.0
57.386,-0.444,6.437,17.0
57.435,-0.436,6.107,19.0
58.865,-0.439,5.915,15.0
58.789,-0.43,5.559,15.0
73.837,-0.53,6.553,12.0
74.96,-0.528,6.218,21.0
57.031,-0.386,6.321,21.0
0.0,0.0,0.0,0.0
64.908,-0.422,6.436,3.0
56.902,-0.362,5.305,14.0
64.663,-0.403,5.652,24.0
62.642,-0.382,5.113,8.0
57.033,-0.332,6.244,25.0
58.876,-0.335,6.101,16.0
56.89,-0.316,5.563,19.0
64.829,-0.352,5.955,14.0
64.6,-0.343,5.558,15.0
62.552,-0.324,5.019,19.0
57.087,-0.28,6.17,25.0
58.504,-0.279,5.98,14.0
56.959,-0.265,5.489,27.0
64.673,-0.292,5.849,28.0
64.6,-0.284,5.467,26.0
62.654,-0.268,4.938,28.0
57.092,-0.228,6.087,32.0
56.579,-0.219,5.701,17.0
56.999,-0.214,5.411,23.0
64.675,-0.235,5.755,24.0
62.882,-0.221,5.23,22.0
62.544,-0.213,4.838,21.0
56.705,-0.177,5.962,26.0
58.566,-0.176,5.815,25.0
57.06,-0.165,5.332,15.0
64.563,-0.18,5.65,24.0
62.75,-0.168,5.126,17.0
62.552,-0.16,4.747,8.0
56.755,-0.13,5.883,31.0
58.515,-0.127,5.723,20.0
64.819,-0.134,5.96,12.0
62.907,-0.123,5.411,17.0
62.577,-0.116,5.018,21.0
83.858,-0.146,6.236,6.0
56.89,-0.083,5.81,32.0
57.247,-0.078,5.511,30.0
64.795,-0.082,5.858,14.0
62.83,-0.072,5.307,11.0
62.693,-0.066,4.93,32.0
97.053,-0.093,7.068,15.0
56.689,-0.039,5.7,27.0
57.307,-0.033,5.426,31.0
59.25,-0.028,5.264,16.0
59.128,-0.022,4.901,17.0
62.727,-0.018,4.834,30.0
63.401,-0.012,4.517,10.0
56.918,0.004,5.632,21.0
57.561,0.009,5.359,32.0
59.222,0.015,5.167,22.0
62.8,0.022,5.106,28.0
63.106,0.028,4.762,7.0
63.414,0.034,4.416,30.0
57.261,0.046,5.573,25.0
58.564,0.052,5.357,34.0
59.214,0.058,5.069,23.0
62.804,0.067,5.003,29.0
63.66,0.074,4.7,17.0
63.394,0.079,4.311,28.0
57.382,0.086,5.489,27.0
59.132,0.094,5.31,32.0
59.128,0.099,4.964,14.0
62.84,0.11,4.902,35.0
63.526,0.117,4.585,25.0
83.142,0.16,5.516,17.0
57.725,0.126,5.425,32.0
59.187,0.134,5.214,31.0
63.255,0.148,5.202,23.0
62.988,0.152,4.806,9.0
63.535,0.159,4.477,27.0
83.147,0.214,5.374,25.0
58.055,0.164,5.356,31.0
59.276,0.172,5.121,17.0
63.055,0.187,5.077,27.0
63.542,0.194,4.739,20.0
63.506,0.198,4.366,15.0
83.133,0.265,5.23,23.0
58.907,0.202,5.332,10.0
63.206,0.222,5.35,30.0
62.933,0.225,4.958,28.0
63.553,0.231,4.629,10.0
79.415,0.295,5.32,32.0
83.18,0.314,5.088,26.0
63.503,0.255,5.635,20.0
63.256,0.258,5.242,30.0
63.365,0.262,4.88,38.0
63.432,0.267,4.508,23.0
79.432,0.339,5.18,43.0
83.169,0.36,4.938,19.0
63.281,0.289,5.502,25.0
63.161,0.292,5.12,27.0
63.58,0.298,4.782,30.0
76.953,0.365,5.33,10.0
79.431,0.381,5.037,30.0
79.312,0.385,4.567,4.0
63.14,0.321,5.374,31.0
63.121,0.324,5.001,37.0
63.37,0.329,4.65,26.0
63.017,0.33,4.248,25.0
79.305,0.42,4.884,7.0
79.312,0.424,4.421,10.0
63.36,0.352,5.275,28.0
63.325,0.356,4.901,29.0
63.278,0.358,4.526,27.0
62.975,0.359,4.13,20.0
79.303,0.456,4.737,4.0
79.312,0.46,4.275,10.0
63.428,0.381,5.162,24.0
63.331,0.384,4.782,27.0
63.133,0.385,4.397,23.0
79.288,0.487,5.051,3.0
79.324,0.49,4.59,5.0
79.347,0.494,4.128,9.0
63.289,0.407,5.032,24.0
63.281,0.409,4.66,30.0
63.002,0.409,4.27,22.0
79.261,0.518,4.9,3.0
79.314,0.522,4.439,7.0
79.318,0.524,3.976,9.0
63.427,0.432,4.921,24.0
63.259,0.433,4.537,30.0
62.97,0.433,4.147,4.0
79.296,0.547,4.75,3.0
79.383,0.55,4.292,6.0
79.35,0.553,3.826,6.0
63.548,0.455,4.807,30.0
63.083,0.453,4.402,31.0
79.227,0.571,5.064,2.0
79.295,0.574,4.596,4.0
79.339,0.576,4.134,8.0
79.355,0.578,3.672,9.0
63.355,0.473,4.669,18.0
63.004,0.471,4.274,20.0
79.344,0.595,4.917,2.0
79.337,0.597,4.444,8.0
79.355,0.599,3.981,8.0
79.351,0.6,3.517,8.0
63.22,0.489,4.535,13.0
76.446,0.592,5.036,2.0
79.283,0.616,4.757,1.0
79.329,0.617,4.288,7.0
79.329,0.618,3.824,6.0
79.397,0.62,3.363,7.0
63.082,0.503,4.4,19.0
76.726,0.612,4.901,3.0
79.288,0.634,4.601,4.0
79.347,0.635,4.132,8.0
79.392,0.636,3.671,7.0
79.37,0.636,3.205,5.0
63.079,0.515,4.274,18.0
76.714,0.627,4.748,3.0
79.326,0.648,4.445,7.0
79.323,0.649,3.973,7.0
79.385,0.65,3.511,7.0
79.439,0.65,3.049,6.0
76.563,0.638,5.033,8.0
79.348,0.661,4.752,2.0
