X,Y,Z,Reflectivity
11.707,1.359,-0.575,0.0
11.048,1.282,-0.607,0.0
10.494,1.217,-0.637,0.0
9.937,1.152,-0.66,0.0
13.282,1.535,-0.513,0.0
12.426,1.435,-0.551,0.0
11.676,1.348,-0.585,0.0
10.931,1.261,-0.611,0.0
10.405,1.2,-0.641,0.0
9.737,1.122,-0.656,0.0
13.049,1.499,-0.517,0.0
12.26,1.407,-0.555,0.0
11.513,1.321,-0.587,0.0
10.87,1.246,-0.618,0.0
10.255,1.175,-0.642,0.0
9.69,1.11,-0.662,0.0
12.905,1.473,-0.523,0.0
12.166,1.388,-0.562,0.0
11.373,1.297,-0.591,0.0
10.784,1.229,-0.623,0.0
10.167,1.158,-0.645,0.0
9.646,1.098,-0.668,0.0
12.796,1.451,-0.53,0.0
12.038,1.364,-0.567,0.0
11.254,1.274,-0.594,0.0
10.691,1.21,-0.627,0.0
10.071,1.139,-0.648,0.0
9.554,1.08,-0.67,0.0
12.718,1.432,-0.537,0.0
11.898,1.339,-0.571,0.0
11.129,1.251,-0.597,0.0
10.574,1.188,-0.629,0.0
10.036,1.127,-0.654,0.0
9.519,1.068,-0.675,0.0
12.558,1.404,-0.541,0.0
11.805,1.319,-0.576,0.0
11.064,1.235,-0.603,0.0
10.438,1.164,-0.629,0.0
9.96,1.11,-0.658,0.0
9.413,1.048,-0.675,0.0
12.474,1.384,-0.547,0.0
11.662,1.293,-0.578,0.0
11.002,1.218,-0.608,0.0
10.405,1.151,-0.636,0.0
9.815,1.085,-0.656,0.0
9.338,1.032,-0.677,0.0
12.379,1.362,-0.553,0.0
11.532,1.268,-0.581,0.0
10.902,1.197,-0.611,0.0
10.281,1.128,-0.636,0.0
9.819,1.077,-0.663,0.0
9.262,1.015,-0.679,0.0
12.228,1.334,-0.555,0.0
11.46,1.249,-0.586,0.0
10.874,1.184,-0.618,0.0
10.288,1.119,-0.644,0.0
9.667,1.051,-0.66,0.0
9.179,0.997,-0.679,0.0
12.117,1.31,-0.559,0.0
11.398,1.231,-0.59,0.0
10.752,1.16,-0.618,0.0
10.103,1.089,-0.639,0.0
9.609,1.035,-0.663,0.0
9.162,0.986,-0.685,0.0
12.055,1.291,-0.564,0.0
11.31,1.21,-0.594,0.0
10.687,1.142,-0.622,0.0
10.029,1.071,-0.642,0.0
9.563,1.02,-0.666,0.0
0.0,0.0,0.0,0.0
11.967,1.269,-0.568,0.0
11.221,1.189,-0.597,0.0
10.635,1.125,-0.626,0.0
10.014,1.058,-0.647,0.0
9.493,1.002,-0.668,0.0
9.039,0.953,-0.687,0.0
11.846,1.244,-0.57,0.0
11.125,1.167,-0.598,0.0
10.548,1.105,-0.627,0.0
9.953,1.041,-0.649,0.0
9.486,0.991,-0.673,0.0
8.96,0.935,-0.687,0.0
11.78,1.224,-0.574,0.0
11.054,1.147,-0.601,0.0
10.455,1.083,-0.628,0.0
9.863,1.021,-0.649,0.0
9.42,0.974,-0.674,0.0
8.888,0.918,-0.686,0.0
11.63,1.195,-0.573,0.0
10.985,1.127,-0.603,0.0
10.42,1.068,-0.631,0.0
9.814,1.004,-0.651,0.0
9.407,0.961,-0.678,0.0
0.0,0.0,0.0,0.0
11.586,1.177,-0.577,0.0
10.954,1.111,-0.607,0.0
10.412,1.055,-0.636,0.0
9.755,0.987,-0.653,0.0
9.301,0.939,-0.675,0.0
8.842,0.892,-0.692,0.0
11.522,1.156,-0.579,0.0
10.886,1.091,-0.609,0.0
10.36,1.037,-0.638,0.0
9.76,0.975,-0.658,0.0
9.288,0.927,-0.679,0.0
8.842,0.881,-0.696,0.0
11.48,1.138,-0.583,0.0
10.85,1.074,-0.612,0.0
10.273,1.015,-0.638,0.0
9.637,0.951,-0.654,0.0
9.283,0.915,-0.682,0.0
8.788,0.865,-0.696,0.0
11.448,1.121,-0.586,0.0
10.822,1.058,-0.615,0.0
10.174,0.993,-0.636,0.0
9.669,0.942,-0.66,0.0
9.278,0.902,-0.686,0.0
8.776,0.852,-0.698,0.0
11.385,1.1,-0.587,0.0
10.764,1.038,-0.616,0.0
10.135,0.976,-0.637,0.0
9.63,0.926,-0.661,0.0
0.0,0.0,0.0,0.0
8.768,0.84,-0.701,0.0
11.329,1.08,-0.588,0.0
10.738,1.021,-0.618,0.0
10.115,0.96,-0.639,0.0
9.617,0.912,-0.663,0.0
0.0,0.0,0.0,0.0
8.7,0.822,-0.698,0.0
11.316,1.063,-0.591,0.0
10.725,1.006,-0.621,0.0
10.037,0.94,-0.637,0.0
9.554,0.893,-0.662,0.0
0.0,0.0,0.0,0.0
8.662,0.807,-0.698,0.0
11.279,1.044,-0.592,0.0
10.613,0.981,-0.617,0.0
10.051,0.927,-0.641,0.0
9.578,0.882,-0.666,0.0
9.044,0.831,-0.68,0.0
8.685,0.797,-0.702,0.0
11.258,1.027,-0.594,0.0
10.615,0.966,-0.62,0.0
10.022,0.911,-0.641,0.0
9.55,0.866,-0.666,0.0
9.119,0.825,-0.687,0.0
8.726,0.788,-0.707,0.0
11.22,1.008,-0.594,0.0
10.613,0.951,-0.621,0.0
10.046,0.899,-0.645,0.0
9.499,0.848,-0.664,0.0
9.054,0.807,-0.684,0.0
8.655,0.77,-0.702,0.0
11.179,0.988,-0.594,0.0
10.576,0.933,-0.621,0.0
10.002,0.88,-0.643,0.0
9.456,0.831,-0.662,0.0
9.051,0.793,-0.685,0.0
8.683,0.759,-0.706,0.0
11.198,0.974,-0.596,0.0
10.573,0.917,-0.622,0.0
9.956,0.862,-0.642,0.0
9.487,0.819,-0.666,0.0
9.021,0.777,-0.684,0.0
8.585,0.738,-0.699,0.0
11.173,0.955,-0.596,0.0
10.549,0.9,-0.621,0.0
9.987,0.85,-0.644,0.0
9.517,0.808,-0.668,0.0
9.054,0.767,-0.686,0.0
8.618,0.728,-0.702,0.0
11.165,0.938,-0.596,0.0
10.499,0.88,-0.619,0.0
10.048,0.84,-0.649,0.0
9.454,0.788,-0.664,0.0
9.04,0.752,-0.686,0.0
8.62,0.716,-0.702,0.0
11.106,0.916,-0.593,0.0
10.505,0.864,-0.619,0.0
10.055,0.825,-0.649,0.0
9.508,0.778,-0.668,0.0
9.047,0.739,-0.686,0.0
8.675,0.707,-0.706,0.0
11.158,0.904,-0.595,0.0
10.545,0.852,-0.621,0.0
10.017,0.807,-0.646,0.0
9.481,0.762,-0.665,0.0
9.014,0.722,-0.683,0.0
8.663,0.693,-0.705,0.0
11.159,0.886,-0.594,0.0
10.534,0.834,-0.62,0.0
10.026,0.792,-0.646,0.0
9.511,0.749,-0.666,0.0
9.045,0.711,-0.684,0.0
8.646,0.678,-0.702,0.0
11.195,0.872,-0.595,0.0
10.503,0.816,-0.616,0.0
10.044,0.778,-0.645,0.0
9.501,0.734,-0.664,0.0
9.036,0.696,-0.682,0.0
8.656,0.665,-0.702,0.0
11.192,0.854,-0.593,0.0
10.615,0.808,-0.621,0.0
10.035,0.761,-0.643,0.0
9.542,0.722,-0.665,0.0
9.068,0.684,-0.683,0.0
8.636,0.65,-0.698,0.0
11.211,0.838,-0.592,0.0
10.583,0.789,-0.617,0.0
10.064,0.748,-0.643,0.0
9.557,0.708,-0.664,0.0
9.062,0.669,-0.68,0.0
8.694,0.64,-0.701,0.0
11.275,0.825,-0.592,0.0
10.553,0.77,-0.613,0.0
10.112,0.735,-0.643,0.0
9.574,0.694,-0.663,0.0
9.104,0.658,-0.681,0.0
8.712,0.628,-0.7,0.0
11.274,0.807,-0.589,0.0
10.635,0.759,-0.614,0.0
10.064,0.716,-0.637,0.0
9.611,0.681,-0.663,0.0
9.11,0.644,-0.679,0.0
8.693,0.612,-0.696,0.0
11.3,0.791,-0.587,0.0
10.639,0.742,-0.611,0.0
10.173,0.707,-0.64,0.0
9.599,0.665,-0.658,0.0
9.174,0.634,-0.68,0.0
8.751,0.602,-0.697,0.0
11.389,0.779,-0.587,0.0
10.767,0.733,-0.614,0.0
10.093,0.685,-0.631,0.0
9.61,0.65,-0.655,0.0
9.192,0.62,-0.678,0.0
8.74,0.587,-0.693,0.0
11.423,0.762,-0.584,0.0
10.757,0.715,-0.609,0.0
10.219,0.677,-0.635,0.0
9.654,0.637,-0.654,0.0
9.215,0.606,-0.675,0.0
8.795,0.577,-0.693,0.0
11.479,0.748,-0.582,0.0
10.755,0.698,-0.604,0.0
10.299,0.666,-0.635,0.0
0.0,0.0,0.0,0.0
9.18,0.589,-0.668,0.0
8.863,0.567,-0.694,0.0
11.529,0.732,-0.578,0.0
0.0,0.0,0.0,0.0
0.0,0.0,0.0,0.0
0.0,0.0,0.0,0.0
9.308,0.582,-0.673,0.0
8.851,0.551,-0.688,0.0
11.608,0.718,-0.576,0.0
10.971,0.676,-0.605,0.0
10.457,0.642,-0.634,0.0
0.0,0.0,0.0,0.0
9.398,0.572,-0.674,0.0
8.886,0.539,-0.686,0.0
11.642,0.701,-0.571,0.0
11.0,0.66,-0.6,0.0
10.438,0.624,-0.626,0.0
0.0,0.0,0.0,0.0
9.366,0.555,-0.666,0.0
8.939,0.528,-0.684,0.0
11.743,0.688,-0.569,0.0
11.055,0.645,-0.596,0.0
10.467,0.608,-0.622,0.0
9.957,0.576,-0.647,0.0
9.455,0.545,-0.666,0.0
0.0,0.0,0.0,0.0
11.794,0.672,-0.564,0.0
11.216,0.636,-0.597,0.0
10.569,0.597,-0.62,0.0
0.0,0.0,0.0,0.0
9.479,0.531,-0.661,0.0
9.058,0.505,-0.681,0.0
11.931,0.66,-0.562,0.0
11.23,0.618,-0.59,0.0
10.604,0.581,-0.615,0.0
0.0,0.0,0.0,0.0
9.571,0.52,-0.66,0.0
9.097,0.492,-0.677,0.0
12.021,0.645,-0.557,0.0
11.322,0.605,-0.586,0.0
10.644,0.566,-0.609,0.0
10.122,0.536,-0.635,0.0
0.0,0.0,0.0,0.0
9.166,0.481,-0.675,0.0
12.114,0.63,-0.552,0.0
11.366,0.589,-0.579,0.0
10.758,0.554,-0.607,0.0
10.209,0.524,-0.632,0.0
9.67,0.494,-0.652,0.0
0.0,0.0,0.0,0.0
12.26,0.618,-0.548,0.0
11.537,0.579,-0.579,0.0
10.91,0.544,-0.606,0.0
10.264,0.51,-0.627,0.0
9.753,0.482,-0.649,0.0
9.353,0.46,-0.673,0.0
12.379,0.604,-0.543,0.0
11.675,0.567,-0.575,0.0
10.968,0.53,-0.6,0.0
10.314,0.495,-0.621,0.0
9.834,0.47,-0.645,0.0
9.421,0.448,-0.669,0.0
12.434,0.587,-0.534,0.0
11.736,0.551,-0.567,0.0
11.095,0.518,-0.596,0.0
10.484,0.487,-0.621,0.0
9.943,0.459,-0.643,0.0
9.485,0.436,-0.665,0.0
12.591,0.574,-0.529,0.0
11.889,0.539,-0.563,0.0
11.192,0.504,-0.591,0.0
10.528,0.472,-0.614,0.0
10.073,0.449,-0.642,0.0
9.627,0.426,-0.665,0.0
12.717,0.559,-0.521,0.0
12.012,0.525,-0.557,0.0
11.311,0.491,-0.586,0.0
10.605,0.458,-0.607,0.0
10.145,0.435,-0.636,0.0
9.634,0.411,-0.656,0.0
12.879,0.545,-0.515,0.0
12.118,0.51,-0.549,0.0
11.466,0.48,-0.581,0.0
10.805,0.449,-0.607,0.0
10.229,0.423,-0.63,0.0
9.732,0.4,-0.652,0.0
12.983,0.529,-0.505,0.0
12.324,0.499,-0.545,0.0
11.552,0.465,-0.573,0.0
10.897,0.436,-0.6,0.0
10.352,0.411,-0.626,0.0
9.853,0.389,-0.649,0.0
13.271,0.52,-0.501,0.0
12.452,0.484,-0.537,0.0
11.754,0.454,-0.57,0.0
11.078,0.425,-0.598,0.0
10.454,0.399,-0.62,0.0
9.937,0.377,-0.643,0.0
13.36,0.502,-0.489,0.0
12.567,0.469,-0.528,0.0
11.884,0.441,-0.563,0.0
11.164,0.411,-0.589,0.0
10.605,0.388,-0.617,0.0
10.02,0.364,-0.637,0.0
13.619,0.491,-0.483,0.0
12.793,0.458,-0.522,0.0
12.023,0.427,-0.555,0.0
11.266,0.398,-0.581,0.0
10.711,0.375,-0.61,0.0
10.166,0.354,-0.633,0.0
13.821,0.477,-0.473,0.0
12.967,0.444,-0.513,0.0
12.221,0.416,-0.549,0.0
11.436,0.386,-0.576,0.0
10.849,0.364,-0.604,0.0
10.27,0.342,-0.627,0.0
14.051,0.463,-0.463,0.0
13.091,0.429,-0.501,0.0
12.427,0.404,-0.542,0.0
11.6,0.374,-0.569,0.0
10.97,0.351,-0.597,0.0
10.422,0.331,-0.622,0.0
14.277,0.449,-0.452,0.0
13.368,0.417,-0.494,0.0
12.551,0.389,-0.531,0.0
11.811,0.363,-0.564,0.0
11.202,0.342,-0.594,0.0
10.526,0.318,-0.615,0.0
14.521,0.436,-0.441,0.0
13.571,0.404,-0.484,0.0
12.77,0.377,-0.523,0.0
11.966,0.35,-0.555,0.0
11.324,0.329,-0.586,0.0
10.701,0.308,-0.61,0.0
14.864,0.424,-0.431,0.0
13.856,0.392,-0.475,0.0
12.975,0.364,-0.513,0.0
12.27,0.341,-0.552,0.0
11.474,0.316,-0.577,0.0
10.911,0.298,-0.607,0.0
15.201,0.411,-0.419,0.0
14.05,0.377,-0.462,0.0
13.084,0.348,-0.499,0.0
12.438,0.328,-0.542,0.0
11.667,0.305,-0.57,0.0
11.011,0.285,-0.597,0.0
15.616,0.4,-0.408,0.0
14.303,0.363,-0.45,0.0
13.34,0.336,-0.49,0.0
12.607,0.314,-0.531,0.0
11.871,0.293,-0.563,0.0
11.191,0.274,-0.59,0.0
15.889,0.385,-0.392,0.0
14.621,0.351,-0.438,0.0
13.681,0.325,-0.482,0.0
12.757,0.3,-0.518,0.0
12.058,0.281,-0.554,0.0
11.39,0.263,-0.583,0.0
16.23,0.371,-0.376,0.0
14.997,0.339,-0.427,0.0
13.853,0.31,-0.467,0.0
13.003,0.288,-0.509,0.0
12.321,0.27,-0.547,0.0
11.57,0.251,-0.575,0.0
16.617,0.357,-0.36,0.0
15.447,0.328,-0.416,0.0
14.208,0.298,-0.457,0.0
13.215,0.275,-0.497,0.0
12.444,0.256,-0.533,0.0
11.745,0.239,-0.565,0.0
16.961,0.341,-0.341,0.0
15.728,0.313,-0.399,0.0
14.496,0.285,-0.444,0.0
13.423,0.261,-0.483,0.0
12.743,0.245,-0.526,0.0
11.987,0.228,-0.558,0.0
17.458,0.328,-0.323,0.0
16.124,0.299,-0.383,0.0
14.891,0.273,-0.432,0.0
13.827,0.251,-0.475,0.0
12.925,0.231,-0.512,0.0
12.245,0.216,-0.549,0.0
18.086,0.316,-0.305,0.0
16.509,0.285,-0.365,0.0
15.365,0.262,-0.42,0.0
14.131,0.238,-0.462,0.0
13.248,0.22,-0.503,0.0
12.427,0.204,-0.537,0.0
18.63,0.302,-0.284,0.0
16.906,0.27,-0.346,0.0
15.678,0.247,-0.403,0.0
14.353,0.223,-0.446,0.0
13.481,0.207,-0.489,0.0
12.683,0.192,-0.527,0.0
19.636,0.294,-0.266,0.0
17.304,0.255,-0.325,0.0
16.068,0.234,-0.386,0.0
14.808,0.212,-0.435,0.0
13.867,0.196,-0.48,0.0
12.879,0.179,-0.513,0.0
20.377,0.28,-0.242,0.0
18.058,0.244,-0.308,0.0
16.526,0.22,-0.368,0.0
15.217,0.2,-0.42,0.0
14.059,0.182,-0.462,0.0
13.21,0.168,-0.503,0.0
21.666,0.272,-0.219,1.0
18.657,0.23,-0.286,0.0
16.9,0.205,-0.347,0.0
15.622,0.186,-0.404,0.0
14.424,0.169,-0.448,0.0
13.518,0.156,-0.491,0.0
22.187,0.252,-0.185,2.0
19.408,0.217,-0.263,0.0
17.439,0.191,-0.327,0.0
16.057,0.173,-0.387,0.0
14.822,0.157,-0.434,0.0
13.795,0.143,-0.476,0.0
23.397,0.239,-0.154,0.0
20.601,0.207,-0.242,0.0
18.11,0.178,-0.308,0.0
16.53,0.16,-0.369,0.0
15.308,0.145,-0.421,0.0
14.142,0.131,-0.463,0.0
24.113,0.22,-0.115,0.0
21.667,0.194,-0.216,1.0
18.838,0.165,-0.286,0.0
16.961,0.145,-0.347,0.0
15.761,0.132,-0.405,0.0
14.485,0.119,-0.447,0.0
25.303,0.203,-0.074,0.0
22.378,0.176,-0.182,1.0
19.648,0.151,-0.262,0.0
17.517,0.131,-0.326,0.0
16.2,0.118,-0.385,0.0
14.96,0.107,-0.434,0.0
26.386,0.184,-0.028,0.0
23.557,0.16,-0.147,0.0
20.791,0.138,-0.238,0.0
18.309,0.118,-0.306,0.0
16.657,0.104,-0.365,0.0
15.448,0.094,-0.419,0.0
27.418,0.163,0.022,0.0
24.766,0.143,-0.108,0.0
21.764,0.122,-0.207,3.0
19.021,0.103,-0.282,0.0
17.101,0.09,-0.342,0.0
15.84,0.081,-0.399,0.0
28.606,0.142,0.077,1.0
25.698,0.123,-0.063,0.0
22.924,0.106,-0.175,1.0
19.895,0.089,-0.257,0.0
17.747,0.076,-0.321,0.0
16.331,0.068,-0.38,0.0
28.83,0.115,0.134,0.0
26.813,0.103,-0.014,0.0
23.717,0.087,-0.135,0.0
21.099,0.074,-0.232,3.0
18.431,0.062,-0.298,0.0
16.775,0.054,-0.358,0.0
31.527,0.097,0.206,0.0
28.237,0.083,0.039,1.0
25.039,0.07,-0.094,0.0
21.93,0.058,-0.198,1.0
19.198,0.048,-0.273,0.0
17.32,0.04,-0.336,0.0
32.19,0.071,0.274,0.0
28.714,0.059,0.096,1.0
26.148,0.05,-0.047,0.0
23.359,0.041,-0.165,1.0
20.663,0.033,-0.253,0.0
18.06,0.026,-0.314,0.0
0.0,0.0,0.0,0.0
0.0,0.0,0.0,0.0
27.164,0.029,0.004,0.0
24.015,0.022,-0.122,0.0
21.303,0.016,-0.218,3.0
18.65,0.012,-0.287,0.0
36.376,0.019,0.454,0.0
32.136,0.012,0.235,0.0
28.494,0.007,0.061,1.0
25.453,0.003,-0.079,0.0
22.513,0.0,-0.186,0.0
19.857,-0.002,-0.266,0.0
40.101,-0.01,0.581,0.0
33.327,-0.012,0.31,0.0
28.82,-0.014,0.119,0.0
26.486,-0.016,-0.029,0.0
23.659,-0.018,-0.148,0.0
21.012,-0.018,-0.24,1.0
42.961,-0.043,0.709,0.0
0.0,0.0,0.0,0.0
30.964,-0.038,0.191,0.0
27.825,-0.038,0.025,0.0
24.859,-0.036,-0.105,0.0
21.882,-0.034,-0.206,0.0
0.0,0.0,0.0,0.0
38.225,-0.07,0.51,0.0
33.19,-0.064,0.272,0.0
28.767,-0.059,0.084,7.0
25.857,-0.056,-0.057,0.0
23.255,-0.053,-0.171,0.0
0.0,0.0,0.0,0.0
0.0,0.0,0.0,0.0
0.0,0.0,0.0,0.0
28.873,-0.078,0.144,1.0
27.326,-0.077,-0.004,0.0
24.102,-0.07,-0.128,0.0
57.628,-0.176,1.303,1.0
0.0,0.0,0.0,0.0
36.578,-0.118,0.449,0.0
31.586,-0.105,0.222,1.0
28.678,-0.098,0.054,5.0
25.439,-0.09,-0.082,0.0
0.0,0.0,0.0,0.0
0.0,0.0,0.0,0.0
0.0,0.0,0.0,0.0
33.178,-0.13,0.301,1.0
28.822,-0.116,0.113,5.0
26.459,-0.108,-0.031,0.0
80.261,-0.339,2.145,1.0
0.0,0.0,0.0,0.0
0.0,0.0,0.0,0.0
36.329,-0.163,0.405,0.0
31.001,-0.141,0.186,1.0
27.937,-0.129,0.023,0.0
82.518,-0.393,2.377,2.0
64.06,-0.31,1.515,0.0
0.0,0.0,0.0,0.0
37.982,-0.189,0.502,0.0
32.535,-0.165,0.263,1.0
28.787,-0.148,0.084,7.0
90.304,-0.475,2.787,4.0
0.0,0.0,0.0,0.0
0.0,0.0,0.0,0.0
41.503,-0.227,0.635,0.0
34.392,-0.19,0.349,0.0
28.83,-0.161,0.144,1.0
104.643,-0.598,3.447,7.0
81.282,-0.47,2.259,1.0
0.0,0.0,0.0,0.0
0.0,0.0,0.0,0.0
0.0,0.0,0.0,0.0
31.718,-0.191,0.225,1.0
0.0,0.0,0.0,0.0
82.967,-0.514,2.478,5.0
0.0,0.0,0.0,0.0
0.0,0.0,0.0,0.0
38.69,-0.246,0.554,0.0
33.223,-0.213,0.304,0.0
0.0,0.0,0.0,0.0
90.56,-0.595,2.894,10.0
81.855,-0.542,2.193,1.0
0.0,0.0,0.0,0.0
0.0,0.0,0.0,0.0
0.0,0.0,0.0,0.0
0.0,0.0,0.0,0.0
104.959,-0.726,3.572,2.0
82.586,-0.575,2.386,5.0
0.0,0.0,0.0,0.0
46.866,-0.329,0.866,0.0
37.87,-0.268,0.505,0.0
194.338,-1.396,8.02,8.0
0.0,0.0,0.0,0.0
90.47,-0.656,2.801,10.0
0.0,0.0,0.0,0.0
0.0,0.0,0.0,0.0
0.0,0.0,0.0,0.0
193.878,-1.446,8.41,23.0
180.518,-1.351,6.897,8.0
90.662,-0.681,2.998,15.0
82.459,-0.621,2.293,1.0
0.0,0.0,0.0,0.0
46.985,-0.356,0.822,0.0
193.631,-1.489,8.806,22.0
0.0,0.0,0.0,0.0
90.698,-0.701,3.189,12.0
83.209,-0.644,2.488,4.0
0.0,0.0,0.0,0.0
0.0,0.0,0.0,0.0
193.55,-1.527,9.209,17.0
193.996,-1.533,8.226,19.0
90.7,-0.717,3.379,9.0
90.543,-0.717,2.896,17.0
82.468,-0.654,2.212,1.0
0.0,0.0,0.0,0.0
193.141,-1.554,9.59,23.0
193.781,-1.56,8.618,19.0
90.71,-0.731,3.566,4.0
90.648,-0.73,3.088,21.0
82.894,-0.668,2.395,3.0
0.0,0.0,0.0,0.0
193.315,-1.579,10.002,14.0
193.526,-1.579,9.01,9.0
90.722,-0.74,3.756,3.0
90.651,-0.739,3.275,22.0
90.529,-0.737,2.803,13.0
0.0,0.0,0.0,0.0
193.86,-1.599,10.432,19.0
193.249,-1.591,9.397,24.0
194.068,-1.597,8.433,14.0
90.647,-0.745,3.462,13.0
90.61,-0.743,2.993,24.0
82.796,-0.678,2.308,3.0
179.801,-1.491,10.044,7.0
193.005,-1.597,9.784,22.0
193.651,-1.599,8.813,22.0
90.687,-0.747,3.649,7.0
90.657,-0.745,3.18,26.0
90.399,-0.741,2.705,3.0
127.162,-1.055,7.365,8.0
194.015,-1.605,10.234,21.0
193.181,-1.593,9.188,16.0
194.011,-1.595,8.204,16.0
90.686,-0.743,3.367,17.0
90.571,-0.739,2.894,21.0
105.869,-0.875,6.347,11.0
179.726,-1.479,9.844,6.0
193.108,-1.584,9.576,23.0
193.762,-1.583,8.588,18.0
90.791,-0.739,3.554,5.0
90.658,-0.734,3.08,22.0
105.859,-0.868,6.562,14.0
179.289,-1.463,10.186,11.0
193.368,-1.57,9.981,17.0
193.399,-1.563,8.963,20.0
194.078,-1.56,7.992,12.0
90.735,-0.725,3.268,16.0
90.536,-0.732,5.797,9.0
127.139,-1.023,7.481,20.0
193.853,-1.551,10.403,15.0
193.375,-1.537,9.354,23.0
193.857,-1.532,8.375,20.0
90.702,-0.712,3.448,2.0
90.581,-0.72,5.984,12.0
105.844,-0.836,6.443,17.0
179.725,-1.409,10.007,15.0
193.175,-1.504,9.736,23.0
193.57,-1.497,8.752,21.0
0.0,0.0,0.0,0.0
75.993,-0.59,5.173,22.0
105.811,-0.815,6.652,7.0
127.215,-0.973,7.338,14.0
193.912,-1.471,10.156,21.0
193.706,-1.457,9.142,22.0
193.981,-1.447,8.151,19.0
76.019,-0.573,5.326,21.0
96.44,-0.721,6.254,9.0
127.251,-0.943,7.589,9.0
193.696,-1.423,10.527,12.0
193.407,-1.408,9.506,20.0
193.733,-1.397,8.515,22.0
75.996,-0.554,5.473,14.0
75.869,-0.548,5.068,10.0
106.097,-0.759,6.536,12.0
179.351,-1.269,10.096,11.0
193.674,-1.357,9.895,21.0
193.434,-1.34,8.876,19.0
76.17,-0.534,5.634,26.0
75.856,-0.525,5.215,19.0
105.787,-0.724,6.722,10.0
127.245,-0.861,7.409,6.0
193.805,-1.296,10.278,20.0
193.766,-1.28,9.268,18.0
76.367,-0.51,5.797,18.0
75.921,-0.5,5.367,22.0
75.933,-0.494,4.972,5.0
99.247,-0.637,5.972,8.0
179.267,-1.135,9.852,17.0
194.098,-1.212,9.656,6.0
62.642,-0.396,4.876,22.0
76.065,-0.473,5.523,24.0
75.803,-0.465,5.108,11.0
99.031,-0.598,6.146,21.0
127.255,-0.757,7.233,9.0
193.955,-1.135,10.015,22.0
62.704,-0.371,5.0,25.0
82.391,-0.48,6.138,15.0
75.837,-0.434,5.253,27.0
96.183,-0.542,6.149,14.0
106.241,-0.587,6.237,5.0
179.262,-0.972,9.591,24.0
62.787,-0.345,5.125,24.0
62.74,-0.338,4.792,9.0
76.08,-0.402,5.411,23.0
96.225,-0.499,6.331,13.0
99.252,-0.504,6.01,17.0
179.339,-0.891,9.925,6.0
64.656,-0.325,5.397,17.0
62.742,-0.309,4.908,30.0
82.695,-0.397,6.034,14.0
75.898,-0.356,5.133,8.0
96.268,-0.441,6.009,17.0
106.17,-0.474,6.073,8.0
64.586,-0.292,5.511,26.0
62.728,-0.276,5.022,25.0
76.381,-0.328,5.714,14.0
76.062,-0.318,5.282,10.0
96.303,-0.391,6.184,15.0
106.167,-0.418,6.263,21.0
64.572,-0.258,5.626,24.0
62.619,-0.243,5.126,22.0
76.434,-0.287,5.854,12.0
63.247,-0.229,4.505,20.0
87.448,-0.307,5.771,16.0
106.148,-0.36,6.449,14.0
64.722,-0.222,5.755,18.0
62.884,-0.208,5.26,4.0
62.707,-0.199,4.915,13.0
63.373,-0.193,4.627,20.0
87.397,-0.255,5.923,12.0
96.155,-0.268,6.013,10.0
57.244,-0.162,5.192,25.0
64.406,-0.174,5.501,15.0
62.353,-0.16,4.997,27.0
76.378,-0.186,5.711,14.0
63.329,-0.145,4.402,13.0
87.469,-0.19,5.62,25.0
57.31,-0.126,5.297,27.0
64.526,-0.134,5.622,22.0
62.404,-0.121,5.107,22.0
76.446,-0.137,5.846,10.0
63.393,-0.105,4.513,34.0
87.291,-0.132,5.755,16.0
57.32,-0.089,5.396,22.0
67.293,-0.095,5.978,11.0
62.708,-0.079,5.238,35.0
62.459,-0.07,4.881,18.0
63.433,-0.063,4.622,32.0
82.956,-0.069,5.607,27.0
56.885,-0.049,5.45,29.0
57.535,-0.041,5.207,31.0
62.753,-0.035,5.346,28.0
59.292,-0.025,4.731,22.0
63.537,-0.017,4.735,24.0
63.487,-0.008,4.396,5.0
56.843,-0.008,5.54,29.0
57.419,0.0,5.291,31.0
62.955,0.009,5.467,9.0
59.31,0.017,4.83,23.0
63.01,0.029,4.798,37.0
63.526,0.039,4.501,19.0
56.837,0.033,5.632,28.0
57.375,0.043,5.38,31.0
58.625,0.053,5.185,33.0
59.337,0.063,4.927,27.0
62.66,0.077,4.87,36.0
63.557,0.087,4.603,14.0
56.849,0.077,5.723,25.0
57.199,0.087,5.453,31.0
58.126,0.098,5.232,32.0
59.34,0.11,5.02,24.0
62.555,0.126,4.959,27.0
63.644,0.139,4.709,19.0
56.929,0.124,5.821,27.0
56.969,0.133,5.521,30.0
57.308,0.144,5.247,31.0
59.307,0.158,5.108,30.0
62.756,0.178,5.072,22.0
63.537,0.191,4.798,38.0
56.97,0.171,5.912,23.0
56.949,0.181,5.605,31.0
56.581,0.189,5.267,30.0
59.117,0.208,5.181,32.0
62.932,0.232,5.18,25.0
62.999,0.242,4.85,37.0
57.158,0.221,6.017,24.0
57.229,0.231,5.717,30.0
56.911,0.239,5.381,31.0
59.036,0.258,5.26,29.0
63.215,0.288,5.296,32.0
62.884,0.297,4.933,24.0
56.935,0.27,6.077,32.0
57.059,0.281,5.784,31.0
57.286,0.292,5.5,31.0
56.696,0.299,5.133,11.0
63.051,0.344,5.372,27.0
63.058,0.355,5.035,9.0
56.442,0.319,6.105,29.0
57.204,0.334,5.88,31.0
57.319,0.345,5.584,31.0
56.686,0.352,5.212,30.0
58.726,0.375,5.085,12.0
57.086,0.374,4.638,23.0
56.363,0.372,6.175,14.0
57.251,0.388,5.964,23.0
57.831,0.402,5.713,31.0
56.634,0.404,5.285,30.0
58.745,0.43,5.166,23.0
57.344,0.431,4.736,24.0
56.594,0.427,6.277,9.0
57.321,0.443,6.049,30.0
58.429,0.463,5.85,32.0
56.909,0.462,5.386,31.0
56.997,0.473,5.089,8.0
57.368,0.487,4.814,28.0
56.665,0.484,6.36,24.0
57.183,0.499,6.109,17.0
57.261,0.51,5.808,23.0
57.3,0.521,5.497,31.0
57.341,0.533,5.192,31.0
57.389,0.544,4.889,27.0
57.148,0.545,6.488,29.0
56.899,0.553,6.151,31.0
57.302,0.568,5.885,31.0
57.549,0.582,5.593,32.0
56.581,0.583,5.194,29.0
57.374,0.602,4.958,19.0
52.674,0.556,6.046,5.0
56.967,0.613,6.229,31.0
57.325,0.628,5.958,27.0
57.794,0.644,5.687,29.0
56.649,0.642,5.269,29.0
57.369,0.661,5.026,16.0
52.953,0.615,6.141,15.0
52.603,0.62,5.814,20.0
57.46,0.689,6.039,25.0
57.896,0.706,5.765,30.0
56.954,0.705,5.363,30.0
57.189,0.718,5.076,18.0
48.591,0.615,5.691,11.0
52.666,0.677,5.882,21.0
57.341,0.748,6.092,30.0
49.89,0.661,5.025,20.0
57.259,0.77,5.456,30.0
56.739,0.774,5.099,20.0
48.469,0.666,5.731,15.0
52.691,0.734,5.943,14.0
57.245,0.809,6.145,31.0
50.019,0.716,5.092,20.0
57.351,0.833,5.526,23.0
57.187,0.842,5.201,31.0
49.029,0.727,5.851,20.0
56.25,0.846,6.405,9.0
57.233,0.872,6.204,25.0
50.085,0.773,5.151,25.0
57.321,0.896,5.584,10.0
56.925,0.901,5.236,29.0
48.854,0.779,5.881,21.0
48.678,0.786,5.593,6.0
50.045,0.818,5.476,23.0
50.205,0.831,5.214,18.0
55.262,0.925,5.438,10.0
57.21,0.969,5.318,23.0
48.884,0.834,5.933,42.0
52.713,0.91,6.108,6.0
49.999,0.873,5.52,23.0
50.268,0.888,5.269,27.0
55.058,0.983,5.471,12.0
57.509,1.039,5.401,26.0
48.867,0.89,5.978,40.0
0.0,0.0,0.0,0.0
50.098,0.932,5.578,23.0
50.222,0.945,5.311,19.0
55.11,1.048,5.527,27.0
57.801,1.111,5.481,13.0
48.925,0.948,6.03,35.0
49.474,0.968,5.825,25.0
50.189,0.992,5.633,29.0
57.66,1.152,6.149,7.0
55.076,1.111,5.572,26.0
49.434,1.007,4.73,5.0
48.878,1.003,6.066,30.0
48.801,1.011,5.787,21.0
50.153,1.05,5.671,24.0
50.275,1.062,5.403,24.0
55.074,1.175,5.617,17.0
61.819,1.331,5.966,18.0
49.249,1.069,6.153,18.0
48.677,1.067,5.812,22.0
50.215,1.11,5.719,24.0
49.837,1.112,5.397,24.0
49.827,1.122,5.121,20.0
49.242,1.118,4.791,14.0
49.298,1.129,6.198,26.0
48.713,1.125,5.854,26.0
50.12,1.168,5.746,33.0
49.705,1.167,5.419,31.0
49.94,1.184,5.17,16.0
49.341,1.179,4.837,21.0
45.618,1.099,5.769,20.0
50.26,1.221,6.077,24.0
50.22,1.23,5.794,18.0
49.67,1.226,5.451,29.0
49.638,1.236,5.174,17.0
49.325,1.238,4.869,24.0
45.553,1.153,5.792,22.0
45.111,1.15,5.485,12.0
50.295,1.292,5.836,7.0
49.721,1.288,5.489,32.0
49.567,1.293,5.198,19.0
49.352,1.298,4.904,24.0
45.578,1.209,5.825,20.0
45.164,1.207,5.52,22.0
45.181,1.216,5.271,19.0
49.734,1.348,5.522,6.0
50.233,1.371,5.299,25.0
49.424,1.36,4.941,12.0
45.478,1.261,5.839,20.0
45.167,1.262,5.547,21.0
45.165,1.27,5.296,24.0
45.698,1.294,5.1,20.0
49.328,1.406,5.231,24.0
0.0,0.0,0.0,0.0
45.423,1.314,5.857,34.0
45.31,1.32,5.589,16.0
45.161,1.324,5.319,37.0
45.64,1.347,5.117,18.0
48.861,1.452,5.207,23.0
55.14,1.65,5.571,7.0
45.427,1.371,5.881,38.0
45.279,1.374,5.608,32.0
45.192,1.38,5.345,32.0
45.494,1.398,5.123,20.0
48.571,1.503,5.199,20.0
55.707,1.735,5.654,5.0
45.322,1.423,5.888,27.0
45.165,1.427,5.615,24.0
45.244,1.438,5.372,37.0
45.609,1.458,5.156,35.0
48.413,1.557,5.203,6.0
51.012,1.651,5.199,17.0
43.89,1.432,5.721,18.0
45.187,1.483,5.636,20.0
45.288,1.495,5.395,17.0
45.575,1.513,5.17,28.0
48.471,1.618,5.228,17.0
57.604,1.935,5.892,7.0
43.615,1.477,5.701,18.0
45.533,1.55,5.696,26.0
45.351,1.553,5.419,35.0
45.623,1.571,5.191,30.0
48.554,1.681,5.253,15.0
51.042,1.777,5.238,7.0
43.64,1.532,5.719,29.0
45.379,1.601,5.691,20.0
45.354,1.609,5.433,36.0
45.732,1.63,5.217,28.0
50.772,1.819,5.508,24.0
61.792,2.226,6.359,18.0
43.698,1.587,5.738,39.0
0.0,0.0,0.0,0.0
45.347,1.664,5.444,36.0
45.871,1.691,5.244,29.0
50.023,1.854,5.439,6.0
56.38,2.1,5.815,12.0
43.618,1.638,5.738,34.0
45.301,1.709,5.703,33.0
45.441,1.723,5.465,29.0
45.869,1.747,5.254,38.0
45.273,1.732,4.931,7.0
50.594,1.945,5.228,14.0
43.442,1.684,5.723,36.0
0.0,0.0,0.0,0.0
45.452,1.778,5.474,31.0
45.804,1.8,5.254,20.0
45.322,1.789,4.944,21.0
50.484,2.001,5.224,16.0
43.424,1.736,5.726,28.0
45.473,1.825,5.739,32.0
45.675,1.842,5.506,20.0
45.628,1.847,5.239,26.0
45.283,1.841,4.944,30.0
50.225,2.052,5.202,23.0
43.422,1.788,5.73,31.0
0.0,0.0,0.0,0.0
45.761,1.9,5.52,34.0
45.567,1.9,5.235,28.0
45.406,1.901,4.961,28.0
56.249,2.364,5.829,10.0
43.458,1.842,5.737,32.0
44.086,1.875,5.569,29.0
45.722,1.952,5.517,27.0
45.629,1.956,5.243,35.0
45.444,1.957,4.966,16.0
49.783,2.152,5.159,23.0
43.448,1.893,5.735,31.0
44.183,1.932,5.581,31.0
45.739,2.008,5.518,24.0
45.585,2.009,5.237,34.0
48.349,2.138,5.282,33.0
49.99,2.22,5.179,24.0
43.541,1.949,5.746,34.0
44.921,2.018,5.672,21.0
45.539,2.053,5.492,22.0
45.568,2.062,5.232,31.0
48.666,2.21,5.312,22.0
50.466,2.3,5.224,22.0
43.685,2.007,5.761,34.0
44.318,2.042,5.592,32.0
45.736,2.115,5.511,20.0
45.553,2.114,5.225,37.0
48.622,2.264,5.302,14.0
50.575,2.362,5.229,24.0
43.983,2.071,5.794,35.0
44.349,2.095,5.589,36.0
45.801,2.171,5.511,19.0
45.534,2.165,5.216,34.0
51.573,2.461,5.615,20.0
50.462,2.416,5.209,27.0
44.359,2.14,5.836,34.0
44.374,2.147,5.584,35.0
45.742,2.22,5.495,28.0
48.163,2.345,5.507,13.0
50.649,2.474,5.504,24.0
50.535,2.476,5.205,23.0
44.417,2.193,5.833,34.0
44.535,2.205,5.594,19.0
45.799,2.275,5.491,35.0
50.935,2.537,5.812,5.0
50.565,2.527,5.482,21.0
50.407,2.526,5.179,18.0
44.43,2.244,5.823,35.0
48.028,2.432,6.019,7.0
45.744,2.322,5.472,32.0
47.455,2.417,5.401,21.0
50.176,2.562,5.425,24.0
49.98,2.559,5.12,24.0
44.419,2.292,5.807,39.0
47.649,2.465,5.956,21.0
45.784,2.375,5.461,10.0
47.462,2.469,5.386,21.0
48.811,2.546,5.261,18.0
49.882,2.609,5.093,27.0
44.453,2.343,5.795,35.0
0.0,0.0,0.0,0.0
43.51,2.304,5.174,17.0
47.406,2.517,5.361,31.0
48.971,2.607,5.259,22.0
49.868,2.661,5.072,23.0
44.562,2.396,5.792,34.0
46.317,2.497,5.753,20.0
43.516,2.351,5.156,19.0
47.756,2.587,5.38,22.0
48.984,2.659,5.24,19.0
49.847,2.713,5.048,13.0
44.54,2.442,5.769,38.0
45.921,2.523,5.684,8.0
43.628,2.403,5.149,14.0
47.916,2.645,5.377,22.0
53.292,2.948,5.675,11.0
49.307,2.734,4.97,23.0
0.0,0.0,0.0,0.0
43.691,2.446,5.386,21.0
47.174,2.646,5.544,11.0
50.857,2.859,5.681,5.0
53.802,3.031,5.702,18.0
49.133,2.774,4.927,23.0
42.901,2.44,5.513,15.0
43.615,2.485,5.353,32.0
47.214,2.696,5.523,16.0
47.692,2.729,5.301,20.0
48.261,2.766,5.088,12.0
48.855,2.806,4.872,22.0
42.865,2.48,5.483,38.0
43.615,2.528,5.328,28.0
46.708,2.712,5.437,20.0
47.557,2.767,5.258,15.0
48.214,2.81,5.055,24.0
57.564,3.362,5.706,6.0
42.876,2.522,5.458,31.0
43.678,2.573,5.309,30.0
46.202,2.726,5.35,20.0
45.689,2.701,5.023,30.0
48.211,2.856,5.024,28.0
56.792,3.371,5.593,8.0
42.878,2.563,5.43,32.0
43.608,2.61,5.271,32.0
44.924,2.694,5.171,19.0
45.64,2.741,4.987,15.0
48.744,2.933,5.046,24.0
52.002,3.134,5.086,5.0
42.894,2.603,5.402,32.0
43.59,2.649,5.238,26.0
45.374,2.762,5.191,20.0
44.702,2.725,4.852,17.0
49.33,3.012,5.072,22.0
52.164,3.191,5.064,10.0
42.714,2.63,5.348,24.0
43.706,2.695,5.22,22.0
45.452,2.807,5.166,20.0
44.586,2.757,4.807,25.0
49.314,3.054,5.033,6.0
52.148,3.235,5.023,19.0
42.542,2.656,5.294,28.0
33.953,2.123,4.029,14.0
44.833,2.807,5.061,31.0
44.577,2.795,4.771,28.0
49.279,3.094,4.99,7.0
52.058,3.273,4.973,14.0
42.676,2.7,5.276,18.0
33.953,2.151,4.001,24.0
44.912,2.849,5.033,23.0
44.5,2.826,4.726,19.0
51.704,3.288,5.193,21.0
52.074,3.316,4.932,7.0
42.364,2.715,5.201,24.0
44.984,2.886,5.262,16.0
44.747,2.874,4.976,38.0
49.184,3.163,5.181,13.0
51.634,3.325,5.142,21.0
63.163,4.072,5.928,16.0
42.314,2.745,5.157,19.0
44.884,2.914,5.211,19.0
44.735,2.908,4.935,19.0
49.015,3.19,5.119,10.0
51.728,3.37,5.105,17.0
63.095,4.115,5.864,19.0
42.373,2.78,5.126,9.0
45.383,2.981,5.226,20.0
49.111,3.229,5.372,23.0
60.055,3.952,6.217,6.0
48.38,3.187,4.729,15.0
63.025,4.156,5.799,10.0
42.398,2.813,5.088,5.0
0.0,0.0,0.0,0.0
49.321,3.277,5.348,10.0
64.988,4.322,6.665,11.0
48.326,3.217,4.677,20.0
61.081,4.07,5.561,9.0
33.951,2.276,4.041,25.0
46.963,3.15,5.317,15.0
47.145,3.165,5.065,6.0
54.824,3.683,5.567,8.0
48.308,3.248,4.627,7.0
59.281,3.99,5.337,9.0
33.726,2.283,3.979,23.0
33.583,2.274,3.768,5.0
54.235,3.676,5.77,5.0
48.397,3.283,4.864,15.0
51.967,3.528,4.923,4.0
59.262,4.026,5.273,20.0
33.521,2.29,3.92,21.0
49.213,3.363,5.469,7.0
54.347,3.716,5.725,20.0
48.414,3.313,4.815,18.0
63.004,4.314,5.903,7.0
59.247,4.06,5.209,12.0
33.544,2.311,3.886,22.0
47.135,3.249,5.186,9.0
54.59,3.765,5.69,5.0
48.45,3.343,4.765,34.0
63.036,4.353,5.835,3.0
0.0,0.0,0.0,0.0
33.595,2.333,3.854,25.0
47.101,3.273,5.129,13.0
48.405,3.365,4.991,18.0
48.471,3.371,4.712,15.0
61.072,4.25,5.584,4.0
58.753,4.091,5.033,6.0
33.618,2.353,3.817,20.0
51.897,3.633,5.592,14.0
48.365,3.387,4.931,26.0
66.808,4.681,6.417,12.0
51.858,3.635,4.682,15.0
58.695,4.116,4.96,24.0
49.184,3.466,5.527,6.0
51.919,3.66,5.532,10.0
48.342,3.409,4.87,28.0
58.867,4.152,5.584,5.0
51.854,3.658,4.619,23.0
58.673,4.141,4.888,26.0
33.881,2.403,3.765,22.0
49.737,3.528,5.239,23.0
48.339,3.43,4.811,16.0
51.91,3.684,4.86,6.0
58.801,4.174,5.166,18.0
58.701,4.168,4.818,15.0
33.869,2.416,3.722,27.0
49.019,3.497,5.102,24.0
64.644,4.613,6.353,10.0
59.257,4.229,5.474,8.0
58.772,4.195,5.09,32.0
60.966,4.353,4.927,8.0
33.866,2.429,3.679,20.0
48.405,3.471,4.976,24.0
64.415,4.62,6.248,18.0
51.858,3.719,4.724,16.0
58.735,4.214,5.011,28.0
58.108,4.169,4.622,32.0
49.438,3.563,5.306,16.0
48.39,3.486,4.912,32.0
59.462,4.284,5.691,13.0
51.814,3.733,4.654,18.0
58.732,4.232,4.936,29.0
58.117,4.188,4.548,20.0
48.399,3.502,5.131,20.0
48.422,3.503,4.852,22.0
59.405,4.297,5.607,28.0
58.788,4.252,5.203,19.0
58.356,4.221,4.827,10.0
61.423,4.443,4.725,13.0
48.429,3.517,5.069,22.0
64.457,4.68,6.372,8.0
59.032,4.285,5.493,20.0
58.775,4.266,5.122,33.0
58.095,4.216,4.727,27.0
61.313,4.449,4.635,26.0
48.49,3.532,5.009,18.0
59.598,4.339,5.811,20.0
58.851,4.284,5.396,18.0
58.507,4.258,5.02,33.0
58.092,4.227,4.648,40.0
61.174,4.45,4.541,34.0
48.506,3.542,4.944,19.0
59.543,4.346,5.722,33.0
58.803,4.29,5.31,16.0
58.057,4.235,4.9,26.0
58.108,4.237,4.568,15.0
60.813,4.434,4.43,22.0
48.532,3.551,4.878,19.0
59.208,4.33,5.607,33.0
51.838,3.789,4.608,21.0
58.041,4.241,4.817,31.0
61.38,4.484,4.739,20.0
60.793,4.439,4.343,24.0
59.619,4.368,5.907,15.0
58.843,4.309,5.488,25.0
58.721,4.298,5.136,19.0
58.069,4.248,4.737,47.0
61.247,4.479,4.642,22.0
60.652,4.433,4.247,24.0
59.59,4.369,5.819,25.0
58.814,4.31,5.401,30.0
58.195,4.262,5.006,32.0
58.082,4.251,4.654,32.0
61.078,4.468,4.54,31.0
60.598,4.432,4.155,27.0
59.541,4.367,5.727,26.0
58.833,4.312,5.317,26.0
58.016,4.249,4.906,28.0
58.068,4.251,4.568,7.0
60.805,4.448,4.431,25.0
60.746,4.442,4.076,23.0
59.147,4.337,5.602,34.0
51.858,3.799,4.61,24.0
58.041,4.249,4.823,32.0
61.305,4.485,4.732,17.0
60.759,4.442,4.339,25.0
60.672,4.433,3.982,31.0
58.825,4.31,5.483,23.0
58.675,4.295,5.128,23.0
58.057,4.246,4.737,42.0
61.227,4.475,4.634,25.0
60.639,4.429,4.239,27.0
60.62,4.424,3.888,35.0
58.811,4.302,5.393,27.0
58.246,4.257,5.002,32.0
58.092,4.242,4.652,31.0
61.094,4.457,4.532,35.0
60.594,4.418,4.145,27.0
60.863,4.434,3.812,26.0
58.823,4.294,5.304,11.0
58.064,4.235,4.898,25.0
58.128,4.235,4.567,13.0
60.831,4.428,4.42,28.0
60.648,4.411,4.056,11.0
77.598,5.64,4.742,15.0
58.809,4.282,5.213,14.0
58.087,4.225,4.811,23.0
61.336,4.457,4.724,19.0
60.728,4.408,4.32,27.0
61.075,4.429,3.991,12.0
77.7,5.63,4.629,19.0
58.783,4.267,5.119,37.0
58.104,4.212,4.722,29.0
61.33,4.441,4.628,28.0
60.681,4.389,4.222,27.0
60.769,4.392,3.877,20.0
61.694,4.454,3.579,9.0
58.74,4.247,5.024,28.0
58.123,4.198,4.633,33.0
61.202,4.415,4.524,32.0
60.639,4.369,4.125,30.0
60.975,4.388,3.795,26.0
77.963,5.605,4.402,16.0
58.718,4.227,4.93,21.0
58.136,4.179,4.544,12.0
61.158,4.392,4.425,35.0
61.007,4.375,4.055,22.0
77.839,5.576,4.724,22.0
77.733,5.562,4.27,25.0
60.991,4.368,5.026,7.0
61.498,4.399,4.71,21.0
60.847,4.347,4.308,28.0
60.769,4.335,3.945,23.0
77.757,5.54,4.598,35.0
77.716,5.531,4.147,21.0
58.14,4.141,4.698,16.0
61.26,4.357,4.595,35.0
60.642,4.307,4.197,29.0
60.662,4.302,3.841,13.0
78.172,5.537,4.498,30.0
77.892,5.509,4.032,10.0
58.129,4.114,4.605,27.0
61.207,4.325,4.493,35.0
60.707,4.283,4.105,26.0
60.668,4.274,3.745,17.0
77.916,5.481,4.36,23.0
80.835,5.68,4.056,11.0
58.126,4.085,4.511,8.0
61.37,4.306,4.406,22.0
60.797,4.26,4.013,16.0
77.774,5.44,4.677,32.0
77.905,5.441,4.235,20.0
80.815,5.637,3.927,27.0
61.627,4.299,4.684,12.0
60.908,4.241,4.277,31.0
60.9,4.234,3.924,8.0
77.855,5.404,4.558,35.0
78.63,5.448,4.15,11.0
80.816,5.591,3.799,7.0
61.636,4.264,4.586,16.0
60.608,4.185,4.158,30.0
77.941,5.373,4.897,12.0
77.807,5.354,4.431,41.0
80.874,5.556,4.138,29.0
0.0,0.0,0.0,0.0
61.487,4.215,4.476,19.0
60.55,4.144,4.058,12.0
77.733,5.31,4.759,9.0
77.958,5.315,4.315,43.0
80.864,5.504,4.01,28.0
0.0,0.0,0.0,0.0
61.128,4.151,4.352,18.0
80.537,5.457,5.268,22.0
77.955,5.272,4.649,19.0
78.682,5.311,4.228,30.0
80.834,5.446,3.878,15.0
0.0,0.0,0.0,0.0
60.554,4.069,4.215,16.0
80.641,5.408,5.146,35.0
77.9,5.213,4.52,20.0
81.121,5.417,4.23,15.0
0.0,0.0,0.0,0.0
0.0,0.0,0.0,0.0
60.534,4.022,4.115,14.0
80.607,5.344,5.013,26.0
79.939,5.289,4.51,12.0
80.948,5.344,4.092,33.0
0.0,0.0,0.0,0.0
0.0,0.0,0.0,0.0
80.73,5.301,5.36,32.0
80.833,5.295,4.9,27.0
81.064,5.299,4.446,20.0
80.901,5.276,3.962,26.0
0.0,0.0,0.0,0.0
47.922,3.112,1.795,1.0
80.74,5.235,5.232,38.0
80.844,5.229,4.771,32.0
80.862,5.217,4.306,26.0
80.863,5.205,3.831,3.0
0.0,0.0,0.0,0.0
47.608,3.051,1.708,4.0
80.851,5.172,5.111,28.0
80.878,5.161,4.646,24.0
80.878,5.148,4.179,29.0
0.0,0.0,0.0,0.0
0.0,0.0,0.0,0.0
47.387,2.994,1.625,9.0
58.621,3.696,3.612,12.0
58.662,3.689,3.276,8.0
58.692,3.681,2.939,26.0
0.0,0.0,0.0,0.0
48.105,3.002,1.85,0.0
47.267,2.942,1.546,13.0
58.575,3.638,3.517,56.0
58.655,3.632,3.183,43.0
58.665,3.624,2.846,22.0
0.0,0.0,0.0,0.0
47.72,2.931,1.761,3.0
47.195,2.892,1.47,35.0
58.574,3.58,3.425,56.0
58.632,3.573,3.091,61.0
0.0,0.0,0.0,0.0
0.0,0.0,0.0,0.0
47.488,2.869,1.679,6.0
47.199,2.844,1.397,64.0
58.602,3.521,3.336,58.0
58.654,3.513,3.0,59.0
0.0,0.0,0.0,0.0
0.0,0.0,0.0,0.0
47.316,2.809,1.599,11.0
47.213,2.795,1.324,34.0
58.611,3.458,3.245,27.0
58.702,3.453,2.912,20.0
0.0,0.0,0.0,0.0
47.876,2.799,1.819,1.0
47.257,2.754,1.524,16.0
47.231,2.744,1.252,23.0
58.713,3.399,3.16,22.0
81.0,4.674,3.894,3.0
0.0,0.0,0.0,0.0
47.616,2.73,1.736,4.0
47.207,2.697,1.45,18.0
47.234,2.69,1.179,5.0
81.008,4.596,4.236,29.0
0.0,0.0,0.0,0.0
0.0,0.0,0.0,0.0
47.404,2.662,1.656,7.0
47.251,2.644,1.38,20.0
47.277,2.637,1.109,1.0
81.054,4.503,4.116,29.0
0.0,0.0,0.0,0.0
48.244,2.66,1.894,0.0
47.387,2.604,1.584,8.0
47.273,2.588,1.308,32.0
47.224,2.576,1.036,4.0
81.048,4.402,3.992,12.0
0.0,0.0,0.0,0.0
47.864,2.58,1.808,2.0
47.308,2.54,1.511,10.0
47.282,2.53,1.238,34.0
47.31,2.521,0.968,3.0
0.0,0.0,0.0,0.0
0.0,0.0,0.0,0.0
47.497,2.5,1.724,7.0
47.319,2.481,1.442,15.0
47.296,2.47,1.17,20.0
47.456,2.469,0.902,0.0
0.0,0.0,0.0,0.0
0.0,0.0,0.0,0.0
47.586,2.443,1.658,156.0
47.358,2.421,1.374,17.0
47.315,2.409,1.102,8.0
49.712,2.521,0.873,4.0
0.0,0.0,0.0,0.0
48.199,2.42,1.886,1.0
47.57,2.378,1.588,93.0
47.393,2.359,1.306,17.0
47.315,2.344,1.033,1.0
0.0,0.0,0.0,0.0
0.0,0.0,0.0,0.0
47.706,2.33,1.798,4.0
47.41,2.304,1.515,6.0
47.406,2.294,1.239,16.0
47.642,2.294,0.972,0.0
0.0,0.0,0.0,0.0
0.0,0.0,0.0,0.0
47.677,2.26,1.729,77.0
47.418,2.237,1.449,14.0
47.421,2.226,1.172,18.0
47.815,2.234,0.909,0.0
0.0,0.0,0.0,0.0
0.0,0.0,0.0,0.0
47.632,2.189,1.661,9.0
47.488,2.172,1.385,13.0
47.492,2.161,1.108,3.0
47.772,2.162,0.842,1.0
36.043,1.623,0.429,0.0
48.414,2.166,1.899,5.0
47.725,2.123,1.599,4.0
47.689,2.11,1.325,0.0
47.682,2.099,1.048,0.0
42.895,1.877,0.697,0.0
34.415,1.498,0.363,0.0
48.417,2.093,1.834,2.0
48.192,2.071,1.55,5.0
48.266,2.063,1.277,1.0
48.21,2.049,0.995,0.0
0.0,0.0,0.0,0.0
33.19,1.394,0.306,1.0
48.645,2.029,1.778,3.0
48.502,2.01,1.496,3.0
48.591,2.002,1.221,2.0
0.0,0.0,0.0,0.0
37.286,1.517,0.508,0.0
32.346,1.308,0.256,1.0
48.97,1.965,1.725,2.0
48.942,1.951,1.445,2.0
49.03,1.942,1.168,1.0
49.313,1.941,0.889,0.0
37.911,1.483,0.467,0.0
31.067,1.207,0.206,0.0
49.417,1.904,1.678,2.0
49.522,1.895,1.399,2.0
50.347,1.914,1.135,0.0
0.0,0.0,0.0,0.0
0.0,0.0,0.0,0.0
28.997,1.08,0.155,0.0
49.899,1.841,1.632,2.0
49.991,1.832,1.35,2.0
50.588,1.84,1.077,0.0
0.0,0.0,0.0,0.0
33.868,1.214,0.332,0.0
28.899,1.028,0.119,1.0
50.407,1.776,1.585,2.0
50.602,1.769,1.303,1.0
50.98,1.768,1.022,0.0
0.0,0.0,0.0,0.0
33.173,1.133,0.284,1.0
28.678,0.971,0.082,1.0
51.046,1.712,1.543,1.0
0.0,0.0,0.0,0.0
0.0,0.0,0.0,0.0
37.354,1.222,0.488,0.0
31.486,1.021,0.232,0.0
27.518,0.885,0.046,0.0
54.113,1.721,1.571,21.0
54.369,1.714,1.269,1.0
0.0,0.0,0.0,0.0
35.574,1.102,0.423,0.0
29.005,0.89,0.18,1.0
26.919,0.819,0.014,0.0
54.162,1.629,1.51,5.0
55.975,1.667,1.243,0.0
42.415,1.251,0.7,0.0
34.431,1.006,0.37,1.0
28.982,0.839,0.147,6.0
26.401,0.756,-0.015,0.0
54.07,1.53,1.447,5.0
56.319,1.578,1.187,7.0
0.0,0.0,0.0,0.0
33.677,0.924,0.324,0.0
28.901,0.784,0.114,6.0
25.821,0.693,-0.044,0.0
54.135,1.434,1.389,1.0
56.836,1.489,1.135,1.0
0.0,0.0,0.0,0.0
32.621,0.836,0.278,0.0
28.813,0.73,0.082,2.0
25.32,0.634,-0.07,0.0
54.431,1.343,1.338,1.0
47.559,1.159,0.899,2.0
36.455,0.878,0.483,0.0
31.693,0.754,0.237,0.0
27.444,0.644,0.049,0.0
24.664,0.572,-0.094,0.0
54.675,1.248,1.287,0.0
47.798,1.076,0.854,0.0
36.666,0.815,0.447,1.0
30.831,0.676,0.198,0.0
27.072,0.585,0.021,0.0
24.027,0.512,-0.117,0.0
54.684,1.146,1.232,1.0
0.0,0.0,0.0,0.0
34.385,0.699,0.385,0.0
28.908,0.579,0.157,0.0
26.587,0.524,-0.005,0.0
23.521,0.457,-0.137,0.0
0.0,0.0,0.0,0.0
0.0,0.0,0.0,0.0
34.015,0.627,0.348,1.0
28.837,0.523,0.129,1.0
26.063,0.465,-0.03,0.0
23.178,0.406,-0.157,0.0
0.0,0.0,0.0,0.0
39.249,0.661,0.586,0.0
33.197,0.549,0.308,0.0
28.777,0.467,0.102,2.0
25.544,0.407,-0.053,0.0
22.613,0.353,-0.174,0.0
48.517,0.74,0.955,0.0
40.471,0.604,0.568,0.0
32.318,0.472,0.271,0.0
28.622,0.409,0.076,1.0
25.039,0.35,-0.074,0.0
21.986,0.3,-0.189,0.0
46.756,0.622,0.879,0.0
0.0,0.0,0.0,0.0
0.0,0.0,0.0,0.0
27.732,0.342,0.049,0.0
24.694,0.297,-0.094,0.0
21.842,0.256,-0.206,2.0
0.0,0.0,0.0,0.0
36.088,0.398,0.444,0.0
29.082,0.311,0.194,0.0
27.377,0.284,0.026,0.0
24.047,0.242,-0.112,0.0
21.26,0.207,-0.218,1.0
41.747,0.392,0.716,0.0
35.242,0.319,0.406,0.0
28.899,0.252,0.17,1.0
26.76,0.225,0.004,0.0
23.723,0.191,-0.129,0.0
20.815,0.161,-0.23,0.0
43.236,0.319,0.707,0.0
34.813,0.245,0.373,0.0
28.853,0.194,0.147,0.0
26.488,0.169,-0.016,0.0
23.292,0.141,-0.145,0.0
20.254,0.116,-0.24,0.0
39.628,0.213,0.618,0.0
0.0,0.0,0.0,0.0
28.802,0.135,0.126,0.0
25.872,0.113,-0.034,0.0
23.146,0.093,-0.16,1.0
19.849,0.073,-0.249,0.0
39.234,0.131,0.584,0.0
32.282,0.097,0.299,0.0
28.729,0.077,0.105,3.0
25.61,0.059,-0.052,0.0
22.514,0.045,-0.172,0.0
19.511,0.032,-0.258,0.0
37.783,0.049,0.537,0.0
33.001,0.032,0.284,0.0
28.562,0.018,0.086,1.0
25.331,0.007,-0.068,0.0
22.07,0.0,-0.183,0.0
19.222,-0.007,-0.267,0.0
37.298,-0.026,0.507,0.0
31.504,-0.032,0.251,0.0
28.506,-0.039,0.067,1.0
25.031,-0.043,-0.083,0.0
21.858,-0.046,-0.195,0.0
18.889,-0.046,-0.274,0.0
0.0,0.0,0.0,0.0
31.429,-0.098,0.231,1.0
27.745,-0.096,0.049,1.0
24.665,-0.094,-0.096,0.0
21.722,-0.09,-0.206,1.0
18.595,-0.083,-0.28,0.0
35.662,-0.172,0.442,0.0
31.136,-0.162,0.212,1.0
27.497,-0.152,0.033,0.0
24.321,-0.143,-0.108,0.0
21.566,-0.134,-0.216,0.0
18.438,-0.121,-0.288,0.0
0.0,0.0,0.0,0.0
31.048,-0.226,0.195,0.0
27.023,-0.206,0.018,0.0
24.048,-0.192,-0.119,0.0
20.994,-0.175,-0.221,0.0
18.211,-0.158,-0.294,0.0
34.732,-0.313,0.395,0.0
28.849,-0.271,0.167,1.0
26.989,-0.263,0.005,0.0
23.897,-0.241,-0.13,0.0
20.667,-0.215,-0.228,0.0
18.097,-0.195,-0.3,0.0
33.863,-0.376,0.369,0.0
28.801,-0.33,0.153,0.0
26.642,-0.315,-0.006,0.0
23.242,-0.283,-0.137,1.0
20.36,-0.255,-0.233,0.0
17.916,-0.231,-0.305,0.0
33.766,-0.446,0.354,1.0
28.745,-0.389,0.141,0.0
26.519,-0.369,-0.017,0.0
23.345,-0.333,-0.147,1.0
20.185,-0.295,-0.239,0.0
17.735,-0.266,-0.309,0.0
33.961,-0.52,0.343,1.0
28.704,-0.449,0.13,0.0
26.337,-0.422,-0.026,0.0
23.202,-0.38,-0.155,0.0
19.948,-0.334,-0.244,0.0
17.632,-0.301,-0.313,0.0
33.454,-0.582,0.326,2.0
28.694,-0.509,0.12,1.0
25.903,-0.469,-0.035,0.0
22.912,-0.423,-0.16,0.0
19.75,-0.372,-0.248,0.0
17.521,-0.337,-0.317,0.0
33.154,-0.647,0.313,2.0
28.695,-0.57,0.111,7.0
25.927,-0.524,-0.042,0.0
22.788,-0.469,-0.166,0.0
19.641,-0.412,-0.252,0.0
17.408,-0.371,-0.32,0.0
33.151,-0.716,0.304,2.0
28.699,-0.631,0.104,7.0
25.589,-0.572,-0.048,0.0
22.568,-0.512,-0.17,0.0
19.56,-0.451,-0.256,0.0
17.342,-0.407,-0.323,0.0
33.028,-0.784,0.295,1.0
28.648,-0.69,0.097,7.0
25.523,-0.624,-0.054,0.0
22.463,-0.558,-0.174,0.0
19.399,-0.489,-0.258,0.0
17.291,-0.442,-0.326,0.0
32.793,-0.848,0.286,0.0
28.618,-0.75,0.091,5.0
0.0,0.0,0.0,0.0
22.527,-0.607,-0.179,0.0
19.319,-0.528,-0.26,0.0
17.208,-0.476,-0.327,0.0
32.208,-0.901,0.276,0.0
28.52,-0.808,0.087,1.0
25.279,-0.726,-0.062,0.0
22.343,-0.649,-0.18,0.0
19.329,-0.569,-0.263,0.0
17.222,-0.513,-0.329,0.0
31.834,-0.957,0.269,0.0
28.485,-0.867,0.083,1.0
25.503,-0.785,-0.065,0.0
22.357,-0.696,-0.183,0.0
19.325,-0.609,-0.265,0.0
17.125,-0.546,-0.329,0.0
31.963,-1.028,0.268,0.0
28.496,-0.927,0.081,1.0
25.323,-0.833,-0.066,0.0
22.202,-0.738,-0.183,1.0
19.27,-0.648,-0.265,0.0
17.187,-0.584,-0.331,0.0
31.987,-1.095,0.266,0.0
28.488,-0.986,0.08,1.0
0.0,0.0,0.0,0.0
22.334,-0.789,-0.185,1.0
19.245,-0.687,-0.265,0.0
17.156,-0.619,-0.331,0.0
32.563,-1.183,0.271,1.0
28.576,-1.048,0.08,6.0
25.31,-0.938,-0.067,0.0
22.339,-0.836,-0.184,0.0
19.289,-0.729,-0.265,0.0
17.174,-0.656,-0.331,0.0
31.966,-1.227,0.267,0.0
28.557,-1.107,0.081,5.0
25.425,-0.994,-0.066,0.0
22.368,-0.883,-0.184,2.0
19.199,-0.765,-0.263,0.0
17.223,-0.693,-0.331,0.0
31.995,-1.294,0.269,0.0
28.564,-1.166,0.084,6.0
25.8,-1.063,-0.065,1.0
22.449,-0.933,-0.182,2.0
19.278,-0.808,-0.262,0.0
17.25,-0.73,-0.33,0.0
32.162,-1.367,0.274,0.0
28.552,-1.224,0.087,7.0
25.801,-1.116,-0.062,1.0
22.468,-0.98,-0.18,1.0
19.324,-0.85,-0.261,0.0
17.308,-0.768,-0.328,0.0
32.455,-1.445,0.281,0.0
28.484,-1.279,0.091,2.0
25.958,-1.175,-0.059,0.0
22.577,-1.03,-0.177,1.0
19.34,-0.89,-0.258,0.0
17.359,-0.805,-0.326,0.0
32.383,-1.508,0.286,0.0
28.475,-1.336,0.096,1.0
25.802,-1.22,-0.054,0.0
22.729,-1.083,-0.174,1.0
19.348,-0.929,-0.254,0.0
17.4,-0.842,-0.323,0.0
32.46,-1.577,0.294,0.0
28.5,-1.395,0.102,2.0
25.822,-1.273,-0.048,0.0
22.818,-1.134,-0.169,1.0
19.591,-0.98,-0.252,0.0
17.472,-0.881,-0.321,0.0
32.987,-1.669,0.307,0.0
28.511,-1.453,0.11,1.0
25.923,-1.331,-0.041,0.0
22.827,-1.18,-0.163,1.0
19.633,-1.022,-0.248,0.0
17.553,-0.92,-0.317,0.0
33.077,-1.74,0.318,0.0
28.54,-1.512,0.118,4.0
34.203,-1.824,-0.044,0.0
23.086,-1.239,-0.158,1.0
34.229,-1.85,-0.421,1.0
17.712,-0.964,-0.314,0.0
34.271,-1.871,0.34,0.0
28.599,-1.571,0.128,5.0
34.251,-1.894,-0.033,3.0
23.411,-1.303,-0.152,1.0
34.206,-1.916,-0.409,1.0
17.854,-1.007,-0.311,0.0
33.657,-1.903,0.346,0.0
28.621,-1.628,0.138,4.0
34.169,-1.956,-0.02,0.0
23.414,-1.349,-0.143,0.0
20.428,-1.184,-0.236,0.0
17.922,-1.045,-0.305,0.0
34.764,-2.033,0.371,1.0
0.0,0.0,0.0,0.0
0.0,0.0,0.0,0.0
23.628,-1.407,-0.135,0.0
20.698,-1.24,-0.231,0.0
18.061,-1.089,-0.3,0.0
35.506,-2.145,0.395,0.0
30.65,-1.863,0.174,1.0
27.355,-1.672,0.006,0.0
23.796,-1.463,-0.125,0.0
20.977,-1.297,-0.224,0.0
18.342,-1.141,-0.296,0.0
35.709,-2.225,0.413,0.0
30.916,-1.937,0.19,1.0
27.52,-1.734,0.02,0.0
23.856,-1.511,-0.114,0.0
21.534,-1.372,-0.22,0.0
18.447,-1.182,-0.288,0.0
36.016,-2.312,0.435,0.0
30.902,-1.994,0.205,0.0
27.761,-1.801,0.034,1.0
24.354,-1.589,-0.104,0.0
21.608,-1.417,-0.209,0.0
18.656,-1.23,-0.282,0.0
37.703,-2.491,0.475,1.0
31.788,-2.111,0.228,0.0
28.124,-1.877,0.049,0.0
24.847,-1.667,-0.093,0.0
22.222,-1.498,-0.203,0.0
18.939,-1.284,-0.276,0.0
34.694,-2.356,0.457,0.0
31.637,-2.159,0.245,0.0
28.347,-1.944,0.066,0.0
25.628,-1.766,-0.081,0.0
22.283,-1.544,-0.191,0.0
19.185,-1.336,-0.268,0.0
34.501,-2.405,0.475,0.0
32.398,-2.27,0.271,0.0
33.918,-2.388,0.1,2.0
33.904,-2.398,-0.086,5.0
33.916,-2.411,-0.269,1.0
19.532,-1.395,-0.261,0.0
34.459,-2.464,0.496,2.0
33.753,-2.425,0.303,0.0
33.922,-2.448,0.121,1.0
33.9,-2.458,-0.064,2.0
33.913,-2.47,-0.248,0.0
19.941,-1.459,-0.253,0.0
34.372,-2.518,0.517,4.0
34.405,-2.532,0.332,0.0
33.909,-2.507,0.144,0.0
33.885,-2.516,-0.041,5.0
33.896,-2.528,-0.225,6.0
33.908,-2.54,-0.408,1.0
34.238,-2.568,0.539,5.0
34.178,-2.574,0.353,0.0
0.0,0.0,0.0,0.0
33.881,-2.574,-0.018,2.0
33.876,-2.585,-0.2,6.0
33.882,-2.597,-0.383,2.0
34.09,-2.615,0.561,4.0
35.117,-2.705,0.389,0.0
30.345,-2.347,0.172,0.0
33.872,-2.631,0.006,1.0
33.863,-2.641,-0.175,5.0
33.881,-2.654,-0.358,2.0
33.963,-2.663,0.584,4.0
36.492,-2.872,0.431,0.0
0.0,0.0,0.0,0.0
33.872,-2.687,0.032,0.0
33.87,-2.698,-0.149,5.0
33.862,-2.708,-0.332,3.0
33.869,-2.711,0.609,2.0
37.079,-2.98,0.467,0.0
31.537,-2.544,0.228,0.0
33.865,-2.742,0.059,1.0
33.87,-2.753,-0.122,2.0
33.856,-2.763,-0.304,5.0
33.797,-2.76,0.635,54.0
34.424,-2.822,0.462,0.0
32.347,-2.661,0.26,0.0
33.85,-2.796,0.087,2.0
33.862,-2.807,-0.094,1.0
33.846,-2.816,-0.276,7.0
33.813,-2.816,0.664,151.0
34.375,-2.872,0.49,3.0
32.955,-2.763,0.293,1.0
29.077,-2.447,0.099,0.0
25.864,-2.184,-0.05,0.0
23.072,-1.956,-0.168,1.0
33.792,-2.866,0.692,4.0
34.257,-2.915,0.518,5.0
0.0,0.0,0.0,0.0
29.558,-2.532,0.126,0.0
26.284,-2.26,-0.028,0.0
23.221,-2.004,-0.149,1.0
33.777,-2.916,0.722,1.0
34.131,-2.957,0.546,3.0
0.0,0.0,0.0,0.0
30.245,-2.638,0.157,0.0
27.289,-2.388,-0.004,0.0
23.467,-2.06,-0.129,0.0
33.877,-2.976,0.755,0.0
33.926,-2.99,0.574,0.0
0.0,0.0,0.0,0.0
31.145,-2.762,0.19,0.0
27.725,-2.466,0.021,0.0
24.146,-2.155,-0.111,0.0
33.784,-3.017,0.785,1.0
33.82,-3.029,0.604,0.0
34.413,-3.092,0.431,0.0
31.709,-2.857,0.224,0.0
28.319,-2.56,0.048,0.0
25.101,-2.276,-0.091,0.0
33.811,-3.068,0.818,16.0
33.737,-3.069,0.635,0.0
34.429,-3.142,0.464,2.0
0.0,0.0,0.0,0.0
28.876,-2.65,0.077,0.0
25.606,-2.357,-0.068,0.0
33.797,-3.113,0.85,20.0
33.764,-3.118,0.669,0.0
34.393,-3.186,0.498,4.0
0.0,0.0,0.0,0.0
29.504,-2.748,0.108,0.0
26.005,-2.429,-0.043,0.0
33.801,-3.159,0.885,22.0
33.805,-3.168,0.704,1.0
34.249,-3.218,0.53,2.0
33.806,-3.185,0.339,0.0
30.068,-2.84,0.141,0.0
26.771,-2.536,-0.017,0.0
33.824,-3.206,0.92,20.0
33.745,-3.206,0.738,0.0
33.946,-3.233,0.561,0.0
35.835,-3.422,0.397,0.0
30.913,-2.96,0.177,0.0
27.844,-2.673,0.011,0.0
33.839,-3.25,0.956,16.0
33.826,-3.257,0.775,1.0
33.925,-3.275,0.596,0.0
34.564,-3.345,0.42,0.0
31.249,-3.032,0.213,0.0
28.26,-2.748,0.041,1.0
33.863,-3.295,0.994,14.0
33.848,-3.301,0.812,4.0
33.978,-3.322,0.634,0.0
34.591,-3.389,0.457,2.0
32.274,-3.17,0.254,0.0
28.915,-2.847,0.073,0.0
33.916,-3.341,1.032,154.0
33.886,-3.345,0.849,4.0
0.0,0.0,0.0,0.0
34.252,-3.396,0.49,0.0
33.82,-3.361,0.304,0.0
29.564,-2.945,0.108,0.0
33.931,-3.382,1.07,169.0
33.894,-3.385,0.888,3.0
33.921,-3.395,0.708,0.0
34.137,-3.424,0.526,1.0
34.357,-3.454,0.347,0.0
30.226,-3.045,0.144,0.0
33.945,-3.421,1.108,39.0
33.92,-3.426,0.927,3.0
33.961,-3.437,0.747,1.0
34.047,-3.452,0.564,1.0
34.357,-3.491,0.385,0.0
31.105,-3.167,0.183,0.0
33.947,-3.458,1.147,1.0
33.941,-3.464,0.966,23.0
33.983,-3.475,0.786,1.0
34.074,-3.491,0.603,1.0
34.461,-3.538,0.426,0.0
31.375,-3.227,0.221,1.0
34.046,-3.504,1.19,0.0
33.96,-3.502,1.006,1.0
33.992,-3.511,0.826,0.0
34.07,-3.525,0.642,0.0
34.463,-3.572,0.467,0.0
32.699,-3.396,0.269,0.0
34.284,-3.563,1.238,1.0
34.053,-3.545,1.048,0.0
34.127,-3.558,0.869,0.0
34.213,-3.573,0.685,0.0
34.359,-3.595,0.505,0.0
34.462,-3.612,0.323,0.0
35.14,-3.685,1.31,1.0
34.243,-3.597,1.094,0.0
34.275,-3.605,0.913,0.0
34.378,-3.622,0.729,1.0
34.592,-3.651,0.549,0.0
34.714,-3.67,0.367,0.0
36.568,-3.868,1.407,1.0
34.556,-3.661,1.145,0.0
34.952,-3.708,0.972,1.0
35.037,-3.723,0.785,3.0
35.855,-3.816,0.612,1.0
29.498,-3.144,0.347,0.0
36.472,-3.89,1.447,2.0
35.624,-3.805,1.224,0.0
35.398,-3.786,1.028,0.0
36.086,-3.865,0.852,0.0
36.606,-3.926,0.669,9.0
37.381,-4.015,0.486,0.0
36.547,-3.928,1.495,1.0
0.0,0.0,0.0,0.0
36.0,-3.879,1.089,1.0
36.405,-3.928,0.904,0.0
36.916,-3.989,0.721,1.0
37.458,-4.053,0.532,0.0
154.151,-16.69,6.497,9.0
0.0,0.0,0.0,0.0
36.8,-3.994,1.158,0.0
36.818,-4.001,0.96,0.0
37.191,-4.046,0.772,1.0
37.362,-4.07,0.577,1.0
154.028,-16.792,6.682,3.0
36.556,-3.989,1.391,0.0
37.243,-4.069,1.219,0.0
37.211,-4.07,1.016,0.0
37.758,-4.134,0.83,0.0
37.772,-4.141,0.63,0.0
155.417,-17.051,6.935,9.0
153.709,-16.88,6.039,4.0
0.0,0.0,0.0,0.0
37.909,-4.171,1.082,2.0
37.953,-4.18,0.881,0.0
0.0,0.0,0.0,0.0
155.384,-17.149,7.127,8.0
153.552,-16.962,6.227,13.0
145.551,-16.092,5.127,3.0
0.0,0.0,0.0,0.0
0.0,0.0,0.0,0.0
0.0,0.0,0.0,0.0
164.399,-18.243,7.747,4.0
153.684,-17.067,6.422,11.0
145.44,-16.164,5.304,5.0
0.0,0.0,0.0,0.0
0.0,0.0,0.0,0.0
0.0,0.0,0.0,0.0
164.425,-18.337,7.952,3.0
153.834,-17.168,6.62,5.0
153.808,-17.177,5.8,4.0
0.0,0.0,0.0,0.0
0.0,0.0,0.0,0.0
0.0,0.0,0.0,0.0
162.31,-18.184,8.053,3.0
153.608,-17.22,6.803,3.0
153.684,-17.239,5.986,6.0
118.933,-13.349,3.988,2.0
0.0,0.0,0.0,0.0
0.0,0.0,0.0,0.0
0.0,0.0,0.0,0.0
