X,Y,Z,Reflectivity
15.061,-1.548,-0.404,0.0
13.97,-1.44,-0.451,0.0
13.005,-1.344,-0.493,0.0
12.184,-1.263,-0.528,0.0
11.449,-1.19,-0.559,0.0
16.676,-1.732,-0.347,0.0
15.241,-1.587,-0.401,0.0
14.055,-1.467,-0.446,0.0
13.066,-1.368,-0.488,0.0
12.264,-1.287,-0.525,0.0
11.562,-1.217,-0.558,0.0
16.884,-1.776,-0.342,0.0
15.377,-1.622,-0.395,0.0
14.133,-1.494,-0.44,0.0
13.18,-1.397,-0.484,0.0
12.365,-1.314,-0.521,0.0
11.602,-1.237,-0.553,0.0
17.166,-1.828,-0.337,0.0
15.574,-1.663,-0.391,0.0
14.306,-1.531,-0.437,0.0
13.272,-1.424,-0.479,0.0
12.412,-1.335,-0.515,0.0
11.677,-1.259,-0.549,0.0
17.237,-1.858,-0.327,0.0
15.592,-1.685,-0.381,0.0
14.415,-1.561,-0.431,0.0
13.463,-1.462,-0.477,0.0
12.569,-1.368,-0.514,0.0
11.791,-1.286,-0.546,0.0
17.484,-1.906,-0.32,0.0
15.869,-1.734,-0.377,0.0
14.51,-1.589,-0.423,0.0
13.578,-1.491,-0.471,0.0
12.643,-1.391,-0.508,0.0
11.882,-1.311,-0.542,0.0
17.74,-1.956,-0.312,0.0
16.117,-1.781,-0.371,0.0
14.679,-1.625,-0.418,0.0
13.63,-1.512,-0.464,0.0
12.676,-1.41,-0.5,0.0
11.939,-1.331,-0.536,0.0
23.607,-2.63,-0.399,1.0
16.29,-1.819,-0.363,0.0
14.894,-1.666,-0.413,0.0
13.801,-1.547,-0.459,0.0
12.844,-1.443,-0.497,0.0
12.07,-1.359,-0.533,0.0
23.671,-2.664,-0.382,0.0
16.502,-1.861,-0.356,0.0
15.073,-1.703,-0.407,0.0
13.921,-1.576,-0.452,0.0
12.931,-1.467,-0.49,0.0
12.186,-1.386,-0.528,0.0
18.657,-2.12,-0.286,0.0
16.831,-1.916,-0.349,0.0
15.337,-1.75,-0.402,0.0
14.109,-1.613,-0.447,0.0
13.084,-1.499,-0.486,0.0
12.299,-1.412,-0.523,0.0
19.048,-2.185,-0.277,0.0
17.02,-1.956,-0.339,0.0
15.461,-1.78,-0.392,0.0
14.289,-1.648,-0.441,0.0
13.182,-1.524,-0.478,0.0
12.442,-1.441,-0.519,0.0
19.409,-2.246,-0.266,0.0
17.353,-2.012,-0.331,0.0
15.783,-1.833,-0.387,0.0
14.454,-1.682,-0.434,0.0
13.523,-1.576,-0.479,0.0
12.562,-1.467,-0.513,0.0
19.808,-2.312,-0.254,0.0
17.594,-2.057,-0.321,0.0
15.998,-1.874,-0.378,0.0
14.592,-1.712,-0.425,0.0
13.594,-1.598,-0.47,0.0
12.662,-1.491,-0.506,0.0
20.211,-2.378,-0.241,0.0
17.849,-2.104,-0.31,0.0
16.238,-1.917,-0.369,0.0
14.811,-1.751,-0.418,0.0
13.72,-1.625,-0.462,0.0
12.787,-1.517,-0.499,0.0
22.357,-2.651,-0.247,1.0
18.189,-2.16,-0.299,0.0
16.477,-1.96,-0.36,0.0
15.042,-1.792,-0.411,0.0
13.888,-1.657,-0.454,0.0
12.975,-1.551,-0.495,0.0
22.296,-2.663,-0.225,4.0
18.762,-2.244,-0.291,0.0
16.833,-2.016,-0.352,0.0
15.273,-1.832,-0.403,0.0
14.044,-1.687,-0.446,0.0
13.131,-1.58,-0.488,0.0
22.168,-2.666,-0.203,2.0
19.188,-2.311,-0.279,0.0
17.068,-2.058,-0.34,0.0
15.462,-1.867,-0.393,0.0
14.243,-1.722,-0.439,0.0
13.308,-1.612,-0.482,0.0
22.145,-2.681,-0.181,3.0
19.579,-2.373,-0.266,0.0
17.45,-2.118,-0.331,0.0
15.794,-1.919,-0.386,0.0
14.54,-1.769,-0.434,0.0
13.463,-1.641,-0.474,0.0
22.176,-2.701,-0.16,7.0
19.914,-2.428,-0.251,0.0
17.75,-2.167,-0.319,0.0
16.048,-1.962,-0.376,0.0
14.719,-1.802,-0.424,0.0
13.537,-1.659,-0.463,0.0
22.198,-2.719,-0.138,9.0
22.193,-2.721,-0.257,0.0
18.02,-2.212,-0.306,0.0
16.286,-2.002,-0.366,0.0
14.948,-1.839,-0.416,0.0
13.911,-1.714,-0.462,0.0
22.217,-2.736,-0.115,8.0
21.937,-2.704,-0.232,1.0
18.525,-2.286,-0.295,0.0
16.767,-2.071,-0.359,0.0
15.209,-1.881,-0.407,0.0
14.082,-1.744,-0.453,0.0
22.248,-2.753,-0.092,3.0
22.102,-2.738,-0.21,5.0
19.059,-2.363,-0.284,0.0
16.967,-2.106,-0.346,0.0
15.54,-1.931,-0.4,0.0
14.246,-1.772,-0.443,0.0
25.58,-3.18,-0.079,5.0
22.226,-2.766,-0.188,5.0
19.499,-2.428,-0.27,0.0
17.324,-2.16,-0.334,0.0
15.757,-1.966,-0.389,0.0
14.476,-1.808,-0.435,0.0
25.583,-3.194,-0.052,11.0
22.42,-2.801,-0.166,3.0
20.183,-2.524,-0.258,0.0
17.71,-2.216,-0.323,0.0
16.013,-2.006,-0.378,0.0
14.693,-1.842,-0.426,0.0
25.548,-3.202,-0.025,12.0
23.278,-2.92,-0.147,0.0
20.723,-2.601,-0.242,1.0
18.019,-2.263,-0.309,0.0
16.334,-2.053,-0.368,0.0
14.963,-1.882,-0.417,0.0
25.508,-3.208,0.002,12.0
24.125,-3.036,-0.126,1.0
21.156,-2.664,-0.224,0.0
18.469,-2.327,-0.297,0.0
16.702,-2.106,-0.358,0.0
15.272,-1.927,-0.409,0.0
25.488,-3.215,0.03,11.0
25.28,-3.191,-0.104,3.0
22.386,-2.827,-0.212,4.0
19.251,-2.433,-0.288,0.0
17.028,-2.153,-0.346,0.0
15.642,-1.979,-0.401,0.0
22.101,0.391,-0.185,0.0
19.159,0.343,-0.271,0.0
16.966,0.307,-0.338,0.0
15.612,0.285,-0.403,0.0
14.322,0.264,-0.453,0.0
13.3,0.248,-0.497,0.0
21.254,0.4,-0.216,0.0
18.22,0.346,-0.291,0.0
16.548,0.317,-0.36,0.0
15.053,0.291,-0.416,0.0
13.932,0.272,-0.466,0.0
12.945,0.255,-0.508,0.0
19.968,0.397,-0.239,0.0
17.658,0.354,-0.314,0.0
16.102,0.326,-0.379,0.0
14.68,0.299,-0.433,0.0
13.595,0.279,-0.479,0.0
12.693,0.263,-0.521,0.0
19.269,0.402,-0.266,0.0
17.036,0.359,-0.334,0.0
15.708,0.333,-0.399,0.0
14.384,0.308,-0.45,0.0
13.301,0.287,-0.493,0.0
12.43,0.27,-0.533,0.0
18.39,0.402,-0.287,0.0
16.576,0.365,-0.355,0.0
15.252,0.338,-0.415,0.0
13.968,0.312,-0.462,0.0
13.013,0.293,-0.506,0.0
12.145,0.275,-0.543,0.0
17.715,0.404,-0.309,0.0
16.124,0.37,-0.375,0.0
14.8,0.342,-0.43,0.0
13.664,0.318,-0.477,0.0
12.695,0.298,-0.517,0.0
11.919,0.281,-0.555,0.0
17.074,0.405,-0.33,0.0
15.686,0.374,-0.394,0.0
14.408,0.346,-0.445,0.0
13.366,0.323,-0.492,0.0
12.497,0.304,-0.532,0.0
11.704,0.286,-0.566,0.0
16.647,0.409,-0.352,0.0
15.354,0.38,-0.414,0.0
14.03,0.349,-0.459,0.0
13.038,0.326,-0.504,0.0
12.231,0.308,-0.544,0.0
11.443,0.29,-0.575,0.0
16.232,0.413,-0.374,0.0
14.817,0.379,-0.427,0.0
13.714,0.353,-0.475,0.0
12.807,0.331,-0.519,0.0
11.919,0.31,-0.552,0.0
11.238,0.294,-0.586,0.0
15.751,0.413,-0.392,0.0
14.306,0.377,-0.439,0.0
13.415,0.355,-0.49,0.0
12.484,0.333,-0.529,0.0
11.731,0.314,-0.566,0.0
10.976,0.295,-0.593,0.0
15.356,0.414,-0.411,0.0
13.981,0.379,-0.456,0.0
13.084,0.357,-0.503,0.0
12.266,0.336,-0.544,0.0
11.47,0.316,-0.575,0.0
10.73,0.297,-0.601,0.0
14.79,0.41,-0.425,0.0
13.761,0.383,-0.475,0.0
12.798,0.358,-0.516,0.0
11.915,0.335,-0.551,0.0
11.249,0.318,-0.585,0.0
10.533,0.299,-0.61,0.0
14.428,0.41,-0.442,0.0
13.343,0.381,-0.486,0.0
12.503,0.358,-0.528,0.0
11.708,0.337,-0.563,0.0
11.013,0.318,-0.594,0.0
10.354,0.3,-0.619,0.0
14.051,0.408,-0.457,0.0
13.053,0.381,-0.5,0.0
12.31,0.361,-0.543,0.0
11.407,0.335,-0.571,0.0
10.774,0.318,-0.602,0.0
10.166,0.301,-0.627,0.0
13.758,0.408,-0.473,0.0
12.809,0.381,-0.515,0.0
11.918,0.356,-0.549,0.0
11.235,0.337,-0.583,0.0
10.553,0.318,-0.609,0.0
10.032,0.303,-0.638,0.0
13.411,0.405,-0.487,0.0
12.496,0.379,-0.526,0.0
11.743,0.357,-0.563,0.0
11.001,0.336,-0.592,0.0
10.361,0.318,-0.618,0.0
9.854,0.303,-0.645,0.0
13.119,0.403,-0.501,0.0
12.352,0.381,-0.543,0.0
11.449,0.354,-0.57,0.0
10.781,0.335,-0.601,0.0
10.231,0.319,-0.63,0.0
9.679,0.303,-0.652,0.0
12.811,0.4,-0.513,0.0
11.967,0.375,-0.549,0.0
11.258,0.354,-0.582,0.0
10.538,0.332,-0.607,0.0
9.977,0.315,-0.633,0.0
9.519,0.302,-0.659,0.0
12.52,0.397,-0.526,0.0
11.757,0.374,-0.562,0.0
11.048,0.352,-0.592,0.0
10.328,0.33,-0.615,0.0
9.866,0.316,-0.645,0.0
0.0,0.0,0.0,0.0
12.345,0.396,-0.541,0.0
11.515,0.37,-0.572,0.0
10.782,0.348,-0.598,0.0
10.156,0.328,-0.624,0.0
0.0,0.0,0.0,0.0
9.12,0.296,-0.666,0.0
12.006,0.39,-0.549,0.0
11.256,0.366,-0.58,0.0
10.574,0.345,-0.607,0.0
9.974,0.326,-0.631,0.0
9.514,0.312,-0.658,0.0
0.0,0.0,0.0,0.0
11.762,0.386,-0.56,0.0
11.071,0.364,-0.592,0.0
10.381,0.342,-0.615,0.0
9.876,0.326,-0.644,0.0
0.0,0.0,0.0,0.0
8.85,0.293,-0.68,0.0
11.494,0.38,-0.569,0.0
10.799,0.358,-0.597,0.0
10.2,0.339,-0.623,0.0
0.0,0.0,0.0,0.0
0.0,0.0,0.0,0.0
0.0,0.0,0.0,0.0
11.262,0.375,-0.578,0.0
10.615,0.354,-0.607,0.0
10.052,0.336,-0.633,0.0
0.0,0.0,0.0,0.0
0.0,0.0,0.0,0.0
0.0,0.0,0.0,0.0
11.054,0.371,-0.588,0.0
10.41,0.35,-0.614,0.0
9.946,0.335,-0.645,0.0
0.0,0.0,0.0,0.0
0.0,0.0,0.0,0.0
8.487,0.287,-0.7,0.0
10.787,0.363,-0.594,0.0
10.193,0.344,-0.62,0.0
9.667,0.327,-0.645,0.0
0.0,0.0,0.0,0.0
0.0,0.0,0.0,0.0
8.34,0.283,-0.703,0.0
10.646,0.36,-0.606,0.0
10.039,0.34,-0.629,0.0
9.517,0.323,-0.652,0.0
0.0,0.0,0.0,0.0
0.0,0.0,0.0,0.0
8.322,0.283,-0.717,0.0
10.437,0.354,-0.613,0.0
9.922,0.337,-0.64,0.0
0.0,0.0,0.0,0.0
0.0,0.0,0.0,0.0
0.0,0.0,0.0,0.0
8.115,0.277,-0.714,0.0
10.253,0.348,-0.621,0.0
9.739,0.331,-0.646,0.0
0.0,0.0,0.0,0.0
0.0,0.0,0.0,0.0
0.0,0.0,0.0,0.0
0.0,0.0,0.0,0.0
10.119,0.344,-0.63,0.0
0.0,0.0,0.0,0.0
0.0,0.0,0.0,0.0
0.0,0.0,0.0,0.0
0.0,0.0,0.0,0.0
0.0,0.0,0.0,0.0
9.926,0.337,-0.636,0.0
9.396,0.319,-0.657,0.0
0.0,0.0,0.0,0.0
0.0,0.0,0.0,0.0
0.0,0.0,0.0,0.0
7.806,0.266,-0.729,0.0
9.702,0.329,-0.639,0.0
0.0,0.0,0.0,0.0
0.0,0.0,0.0,0.0
0.0,0.0,0.0,0.0
0.0,0.0,0.0,0.0
7.72,0.262,-0.734,0.0
9.518,0.322,-0.643,0.0
0.0,0.0,0.0,0.0
0.0,0.0,0.0,0.0
0.0,0.0,0.0,0.0
0.0,0.0,0.0,0.0
0.0,0.0,0.0,0.0
9.476,0.319,-0.657,0.0
0.0,0.0,0.0,0.0
0.0,0.0,0.0,0.0
0.0,0.0,0.0,0.0
7.837,0.264,-0.727,0.0
7.524,0.253,-0.741,0.0
0.0,0.0,0.0,0.0
0.0,0.0,0.0,0.0
0.0,0.0,0.0,0.0
0.0,0.0,0.0,0.0
7.811,0.261,-0.737,0.0
7.425,0.249,-0.744,0.0
0.0,0.0,0.0,0.0
0.0,0.0,0.0,0.0
0.0,0.0,0.0,0.0
0.0,0.0,0.0,0.0
0.0,0.0,0.0,0.0
7.309,0.243,-0.745,0.0
0.0,0.0,0.0,0.0
0.0,0.0,0.0,0.0
0.0,0.0,0.0,0.0
0.0,0.0,0.0,0.0
0.0,0.0,0.0,0.0
7.267,0.239,-0.753,0.0
0.0,0.0,0.0,0.0
0.0,0.0,0.0,0.0
0.0,0.0,0.0,0.0
0.0,0.0,0.0,0.0
7.435,0.243,-0.739,0.0
7.157,0.234,-0.753,0.0
0.0,0.0,0.0,0.0
0.0,0.0,0.0,0.0
0.0,0.0,0.0,0.0
0.0,0.0,0.0,0.0
7.387,0.239,-0.746,0.0
7.066,0.228,-0.755,0.0
8.711,0.279,-0.689,0.0
8.311,0.266,-0.706,0.0
0.0,0.0,0.0,0.0
0.0,0.0,0.0,0.0
7.278,0.232,-0.746,0.0
0.0,0.0,0.0,0.0
8.55,0.27,-0.69,0.0
0.0,0.0,0.0,0.0
0.0,0.0,0.0,0.0
0.0,0.0,0.0,0.0
7.178,0.226,-0.747,0.0
0.0,0.0,0.0,0.0
0.0,0.0,0.0,0.0
0.0,0.0,0.0,0.0
0.0,0.0,0.0,0.0
7.37,0.229,-0.736,0.0
7.144,0.222,-0.755,0.0
0.0,0.0,0.0,0.0
8.41,0.258,-0.704,0.0
0.0,0.0,0.0,0.0
0.0,0.0,0.0,0.0
7.35,0.225,-0.745,0.0
7.027,0.215,-0.753,0.0
0.0,0.0,0.0,0.0
8.261,0.25,-0.704,0.0
0.0,0.0,0.0,0.0
0.0,0.0,0.0,0.0
7.229,0.217,-0.743,0.0
0.0,0.0,0.0,0.0
0.0,0.0,0.0,0.0
8.201,0.244,-0.711,0.0
0.0,0.0,0.0,0.0
0.0,0.0,0.0,0.0
7.176,0.212,-0.748,0.0
0.0,0.0,0.0,0.0
0.0,0.0,0.0,0.0
0.0,0.0,0.0,0.0
0.0,0.0,0.0,0.0
7.399,0.215,-0.738,0.0
0.0,0.0,0.0,0.0
0.0,0.0,0.0,0.0
0.0,0.0,0.0,0.0
0.0,0.0,0.0,0.0
0.0,0.0,0.0,0.0
7.346,0.209,-0.743,0.0
0.0,0.0,0.0,0.0
0.0,0.0,0.0,0.0
0.0,0.0,0.0,0.0
0.0,0.0,0.0,0.0
0.0,0.0,0.0,0.0
7.263,0.202,-0.744,0.0
0.0,0.0,0.0,0.0
0.0,0.0,0.0,0.0
0.0,0.0,0.0,0.0
0.0,0.0,0.0,0.0
0.0,0.0,0.0,0.0
7.199,0.195,-0.747,0.0
0.0,0.0,0.0,0.0
0.0,0.0,0.0,0.0
0.0,0.0,0.0,0.0
0.0,0.0,0.0,0.0
7.397,0.196,-0.734,0.0
7.141,0.189,-0.75,0.0
0.0,0.0,0.0,0.0
0.0,0.0,0.0,0.0
0.0,0.0,0.0,0.0
0.0,0.0,0.0,0.0
7.378,0.19,-0.741,0.0
0.0,0.0,0.0,0.0
0.0,0.0,0.0,0.0
0.0,0.0,0.0,0.0
0.0,0.0,0.0,0.0
0.0,0.0,0.0,0.0
7.337,0.184,-0.746,0.0
0.0,0.0,0.0,0.0
0.0,0.0,0.0,0.0
0.0,0.0,0.0,0.0
0.0,0.0,0.0,0.0
0.0,0.0,0.0,0.0
7.26,0.176,-0.747,0.0
0.0,0.0,0.0,0.0
0.0,0.0,0.0,0.0
0.0,0.0,0.0,0.0
0.0,0.0,0.0,0.0
0.0,0.0,0.0,0.0
7.214,0.169,-0.751,0.0
0.0,0.0,0.0,0.0
0.0,0.0,0.0,0.0
0.0,0.0,0.0,0.0
0.0,0.0,0.0,0.0
7.411,0.169,-0.736,0.0
7.183,0.163,-0.755,0.0
0.0,0.0,0.0,0.0
0.0,0.0,0.0,0.0
0.0,0.0,0.0,0.0
0.0,0.0,0.0,0.0
7.385,0.162,-0.742,0.0
7.072,0.154,-0.751,0.0
0.0,0.0,0.0,0.0
0.0,0.0,0.0,0.0
0.0,0.0,0.0,0.0
0.0,0.0,0.0,0.0
7.29,0.154,-0.74,0.0
0.0,0.0,0.0,0.0
0.0,0.0,0.0,0.0
0.0,0.0,0.0,0.0
0.0,0.0,0.0,0.0
0.0,0.0,0.0,0.0
7.265,0.147,-0.744,0.0
0.0,0.0,0.0,0.0
0.0,0.0,0.0,0.0
0.0,0.0,0.0,0.0
0.0,0.0,0.0,0.0
0.0,0.0,0.0,0.0
7.188,0.139,-0.743,0.0
0.0,0.0,0.0,0.0
0.0,0.0,0.0,0.0
0.0,0.0,0.0,0.0
0.0,0.0,0.0,0.0
0.0,0.0,0.0,0.0
7.158,0.131,-0.747,0.0
0.0,0.0,0.0,0.0
0.0,0.0,0.0,0.0
0.0,0.0,0.0,0.0
0.0,0.0,0.0,0.0
0.0,0.0,0.0,0.0
7.121,0.124,-0.749,0.0
0.0,0.0,0.0,0.0
0.0,0.0,0.0,0.0
0.0,0.0,0.0,0.0
0.0,0.0,0.0,0.0
0.0,0.0,0.0,0.0
7.092,0.117,-0.752,0.0
0.0,0.0,0.0,0.0
0.0,0.0,0.0,0.0
0.0,0.0,0.0,0.0
0.0,0.0,0.0,0.0
0.0,0.0,0.0,0.0
7.036,0.109,-0.751,0.0
0.0,0.0,0.0,0.0
0.0,0.0,0.0,0.0
0.0,0.0,0.0,0.0
0.0,0.0,0.0,0.0
0.0,0.0,0.0,0.0
7.033,0.102,-0.756,0.0
0.0,0.0,0.0,0.0
0.0,0.0,0.0,0.0
0.0,0.0,0.0,0.0
0.0,0.0,0.0,0.0
0.0,0.0,0.0,0.0
50.484,1.755,1.78,3.0
50.302,1.763,1.502,2.0
50.182,1.775,1.228,1.0
50.695,1.808,0.961,1.0
40.304,1.45,0.546,0.0
33.35,1.209,0.272,1.0
50.012,1.835,1.801,2.0
49.719,1.839,1.522,2.0
49.606,1.849,1.25,3.0
50.634,1.903,0.997,2.0
0.0,0.0,0.0,0.0
33.614,1.284,0.298,0.0
49.496,1.912,1.818,2.0
49.029,1.908,1.535,2.0
49.077,1.924,1.271,2.0
0.0,0.0,0.0,0.0
42.761,1.703,0.64,0.0
33.986,1.364,0.324,0.0
48.953,1.986,1.831,2.0
48.559,1.985,1.553,3.0
48.435,1.994,1.286,4.0
48.539,2.013,1.02,0.0
0.0,0.0,0.0,0.0
35.086,1.476,0.357,0.0
48.642,2.068,1.85,2.0
48.07,2.058,1.567,3.0
47.967,2.068,1.303,1.0
0.0,0.0,0.0,0.0
47.604,2.081,0.771,0.0
36.433,1.603,0.392,0.0
48.472,2.156,1.873,7.0
47.668,2.134,1.583,8.0
47.52,2.141,1.319,11.0
47.474,2.153,1.054,3.0
47.805,2.183,0.802,1.0
0.0,0.0,0.0,0.0
48.249,2.24,1.891,0.0
47.654,2.226,1.608,21.0
47.418,2.23,1.342,1.0
47.402,2.243,1.078,16.0
50.442,2.402,0.873,1.0
37.942,1.818,0.45,0.0
0.0,0.0,0.0,0.0
47.697,2.322,1.634,144.0
47.398,2.321,1.365,1.0
47.333,2.332,1.1,19.0
49.938,2.475,0.888,2.0
39.864,1.987,0.492,0.0
0.0,0.0,0.0,0.0
47.601,2.41,1.653,171.0
47.359,2.412,1.386,18.0
47.297,2.422,1.121,20.0
47.361,2.439,0.863,0.0
0.0,0.0,0.0,0.0
0.0,0.0,0.0,0.0
47.473,2.496,1.669,7.0
47.292,2.499,1.404,15.0
47.279,2.513,1.14,16.0
47.34,2.529,0.883,0.0
0.0,0.0,0.0,0.0
0.0,0.0,0.0,0.0
47.519,2.591,1.689,4.0
47.244,2.589,1.42,15.0
47.238,2.601,1.157,12.0
47.308,2.619,0.899,1.0
41.978,2.336,0.568,0.0
0.0,0.0,0.0,0.0
47.622,2.687,1.71,4.0
47.211,2.678,1.436,20.0
47.245,2.693,1.172,10.0
47.281,2.708,0.914,2.0
42.2,2.43,0.584,0.0
0.0,0.0,0.0,0.0
47.664,2.782,1.726,3.0
47.191,2.768,1.449,36.0
47.236,2.784,1.186,13.0
47.277,2.8,0.928,3.0
47.631,2.834,0.673,1.0
0.0,0.0,0.0,0.0
47.77,2.881,1.743,3.0
47.212,2.86,1.462,23.0
47.216,2.873,1.198,161.0
47.249,2.888,0.939,4.0
43.31,2.66,0.623,0.0
0.0,0.0,0.0,0.0
47.798,2.974,1.755,2.0
47.211,2.95,1.473,18.0
47.222,2.963,1.208,164.0
47.247,2.978,0.949,4.0
45.528,2.883,0.663,0.0
0.0,0.0,0.0,0.0
47.838,3.067,1.765,1.0
47.228,3.041,1.482,16.0
47.23,3.054,1.217,164.0
47.266,3.07,0.957,4.0
46.262,3.018,0.682,0.0
0.0,0.0,0.0,0.0
47.895,3.162,1.775,1.0
47.251,3.132,1.489,11.0
47.236,3.143,1.223,167.0
47.3,3.161,0.964,3.0
0.0,0.0,0.0,0.0
0.0,0.0,0.0,0.0
47.962,3.256,1.783,1.0
47.297,3.224,1.496,15.0
47.26,3.233,1.229,167.0
47.293,3.248,0.968,3.0
45.855,3.162,0.685,0.0
0.0,0.0,0.0,0.0
48.125,3.357,1.792,0.0
47.311,3.313,1.5,14.0
47.27,3.322,1.232,164.0
47.3,3.337,0.971,3.0
0.0,0.0,0.0,0.0
0.0,0.0,0.0,0.0
48.241,3.455,1.798,1.0
47.339,3.403,1.502,13.0
47.31,3.413,1.234,21.0
47.328,3.427,0.972,3.0
46.905,3.408,0.703,0.0
49.072,3.593,2.102,1.0
48.233,3.543,1.798,1.0
47.389,3.494,1.503,8.0
47.337,3.501,1.233,21.0
47.383,3.517,0.972,2.0
46.656,3.476,0.698,0.0
81.738,6.134,3.498,21.0
48.403,3.644,1.802,1.0
47.562,3.593,1.506,9.0
47.388,3.592,1.232,18.0
47.374,3.603,0.968,1.0
0.0,0.0,0.0,0.0
81.866,6.292,3.498,27.0
48.801,3.762,1.813,7.0
47.51,3.674,1.5,3.0
47.465,3.683,1.23,16.0
47.41,3.69,0.964,2.0
48.06,3.753,0.71,2.0
81.794,6.433,3.485,33.0
48.871,3.855,1.809,9.0
47.698,3.774,1.5,10.0
47.541,3.773,1.225,13.0
47.548,3.785,0.96,2.0
47.865,3.823,0.7,3.0
81.998,6.595,3.481,18.0
81.21,6.549,2.994,18.0
47.626,3.852,1.49,4.0
47.623,3.863,1.219,1.0
47.622,3.874,0.953,2.0
49.144,4.01,0.71,11.0
62.541,5.139,2.644,11.0
62.593,5.158,2.296,16.0
47.806,3.95,1.486,2.0
47.69,3.952,1.211,6.0
49.708,4.131,0.985,3.0
49.276,4.106,0.701,0.0
52.155,4.376,2.193,32.0
52.162,4.388,1.901,25.0
52.2,4.403,1.61,21.0
52.152,4.411,1.312,13.0
49.309,4.182,0.965,3.0
48.879,4.157,0.683,0.0
52.093,4.46,2.176,69.0
52.112,4.473,1.885,60.0
52.125,4.485,1.594,49.0
52.091,4.494,1.296,18.0
48.801,4.222,0.941,3.0
48.377,4.196,0.662,1.0
52.105,4.548,2.161,52.0
52.099,4.559,1.869,46.0
52.13,4.573,1.578,48.0
52.066,4.579,1.279,16.0
48.397,4.267,0.918,3.0
48.27,4.267,0.645,0.0
52.168,4.641,2.147,8.0
52.155,4.65,1.854,25.0
52.157,4.662,1.561,22.0
52.033,4.662,1.26,16.0
47.987,4.31,0.893,4.0
41.449,3.732,0.539,0.0
60.664,5.495,2.474,25.0
62.062,5.635,2.183,36.0
62.281,5.668,1.841,18.0
52.022,4.745,1.239,13.0
47.664,4.358,0.868,4.0
43.4,3.978,0.547,0.0
60.54,5.583,2.445,26.0
60.715,5.611,2.11,35.0
66.125,6.125,1.927,5.0
52.013,4.828,1.218,13.0
47.357,4.407,0.842,4.0
40.871,3.812,0.497,0.0
23.608,2.958,-0.136,2.0
20.401,2.555,-0.234,0.0
18.295,2.29,-0.315,0.0
16.68,2.087,-0.384,0.0
15.318,1.916,-0.441,0.0
14.041,1.756,-0.484,0.0
22.913,2.861,-0.157,1.0
20.14,2.514,-0.253,0.0
18.038,2.25,-0.33,0.0
16.252,2.027,-0.392,0.0
15.083,1.88,-0.45,0.0
13.846,1.725,-0.492,0.0
22.463,2.794,-0.178,0.0
19.689,2.448,-0.268,0.0
17.638,2.192,-0.341,0.0
16.059,1.995,-0.404,0.0
14.879,1.847,-0.459,0.0
13.677,1.697,-0.501,0.0
21.77,2.696,-0.195,0.0
19.313,2.391,-0.283,0.0
17.364,2.148,-0.354,0.0
15.761,1.949,-0.413,0.0
14.565,1.8,-0.465,0.0
13.505,1.669,-0.509,0.0
21.095,2.601,-0.21,0.0
18.88,2.326,-0.296,0.0
17.034,2.098,-0.365,0.0
15.637,1.925,-0.426,0.0
14.294,1.758,-0.471,0.0
13.284,1.633,-0.514,0.0
20.735,2.544,-0.228,0.0
18.441,2.261,-0.308,0.0
16.799,2.058,-0.377,0.0
15.404,1.886,-0.435,0.0
14.152,1.732,-0.481,0.0
13.179,1.612,-0.523,0.0
20.363,2.485,-0.244,0.0
18.168,2.215,-0.322,0.0
16.568,2.019,-0.388,0.0
15.109,1.84,-0.442,0.0
13.938,1.696,-0.487,0.0
12.985,1.58,-0.528,0.0
19.923,2.417,-0.259,0.0
17.797,2.158,-0.332,0.0
16.239,1.967,-0.396,0.0
14.875,1.801,-0.449,0.0
13.76,1.665,-0.494,0.0
12.836,1.552,-0.534,0.0
19.456,2.346,-0.271,0.0
17.502,2.109,-0.344,0.0
16.001,1.927,-0.406,0.0
14.699,1.768,-0.458,0.0
13.569,1.631,-0.5,0.0
12.688,1.525,-0.54,0.0
19.228,2.304,-0.286,0.0
17.144,2.052,-0.353,0.0
15.793,1.889,-0.415,0.0
14.445,1.726,-0.464,0.0
13.442,1.605,-0.508,0.0
12.563,1.499,-0.547,0.0
18.709,2.226,-0.296,0.0
16.939,2.014,-0.364,0.0
15.575,1.85,-0.424,0.0
14.342,1.702,-0.473,0.0
13.29,1.576,-0.515,0.0
12.498,1.481,-0.555,0.0
18.405,2.174,-0.307,0.0
16.765,1.978,-0.376,0.0
15.395,1.815,-0.432,0.0
14.118,1.663,-0.479,0.0
13.136,1.546,-0.52,0.0
12.359,1.454,-0.56,0.0
18.122,2.124,-0.319,0.0
16.5,1.932,-0.384,0.0
15.204,1.779,-0.44,0.0
13.948,1.63,-0.485,0.0
12.966,1.514,-0.525,0.0
12.203,1.424,-0.563,0.0
17.793,2.069,-0.328,0.0
16.226,1.885,-0.391,0.0
15.019,1.743,-0.448,0.0
13.742,1.593,-0.489,0.0
12.894,1.494,-0.533,0.0
12.092,1.399,-0.569,0.0
17.527,2.021,-0.338,0.0
16.034,1.847,-0.4,0.0
14.765,1.699,-0.452,0.0
13.632,1.567,-0.497,0.0
12.692,1.457,-0.535,0.0
12.0,1.377,-0.574,0.0
17.326,1.98,-0.348,0.0
15.876,1.812,-0.409,0.0
14.604,1.665,-0.459,0.0
13.464,1.534,-0.501,0.0
12.588,1.432,-0.54,0.0
11.902,1.353,-0.579,0.0
17.098,1.936,-0.357,0.0
15.753,1.781,-0.418,0.0
14.433,1.63,-0.465,0.0
13.367,1.508,-0.508,0.0
12.511,1.41,-0.547,0.0
11.756,1.323,-0.581,0.0
16.856,1.89,-0.364,0.0
15.509,1.737,-0.423,0.0
14.277,1.597,-0.471,0.0
13.243,1.479,-0.513,0.0
12.465,1.391,-0.554,0.0
11.637,1.297,-0.583,0.0
16.659,1.849,-0.372,0.0
15.338,1.7,-0.43,0.0
14.08,1.559,-0.475,0.0
13.164,1.455,-0.52,0.0
12.376,1.367,-0.559,0.0
11.495,1.268,-0.585,0.0
16.43,1.804,-0.379,0.0
15.171,1.664,-0.436,0.0
13.986,1.532,-0.481,0.0
13.001,1.422,-0.522,0.0
12.181,1.331,-0.559,0.0
11.437,1.248,-0.589,0.0
16.278,1.768,-0.386,0.0
15.06,1.634,-0.442,0.0
13.781,1.493,-0.483,0.0
12.945,1.4,-0.528,0.0
12.131,1.311,-0.564,0.0
11.394,1.229,-0.595,0.0
16.103,1.729,-0.392,0.0
14.873,1.595,-0.447,0.0
13.695,1.466,-0.489,0.0
12.758,1.364,-0.529,0.0
12.06,1.288,-0.568,0.0
11.307,1.206,-0.597,0.0
15.965,1.694,-0.399,0.0
14.75,1.563,-0.452,0.0
13.617,1.441,-0.494,0.0
12.679,1.339,-0.533,0.0
12.0,1.266,-0.573,0.0
11.235,1.184,-0.6,0.0
15.882,1.665,-0.406,0.0
14.61,1.529,-0.456,0.0
13.511,1.412,-0.498,0.0
12.59,1.313,-0.537,0.0
11.853,1.235,-0.572,0.0
11.179,1.163,-0.603,0.0
15.75,1.63,-0.411,0.0
14.501,1.498,-0.461,0.0
13.413,1.384,-0.502,0.0
12.55,1.292,-0.542,0.0
11.816,1.215,-0.577,0.0
11.073,1.137,-0.603,0.0
15.652,1.599,-0.417,0.0
14.347,1.463,-0.463,0.0
13.345,1.358,-0.506,0.0
12.475,1.268,-0.545,0.0
11.743,1.191,-0.579,0.0
11.024,1.116,-0.606,0.0
15.555,1.567,-0.422,0.0
14.273,1.435,-0.467,0.0
13.299,1.335,-0.51,0.0
12.407,1.243,-0.547,0.0
11.597,1.16,-0.577,0.0
10.971,1.096,-0.608,0.0
15.363,1.526,-0.423,0.0
14.166,1.404,-0.47,0.0
13.207,1.307,-0.513,0.0
12.398,1.224,-0.553,0.0
11.593,1.143,-0.582,0.0
10.915,1.074,-0.61,0.0
15.307,1.498,-0.428,0.0
14.087,1.376,-0.473,0.0
13.128,1.28,-0.515,0.0
12.305,1.197,-0.553,0.0
11.568,1.123,-0.585,0.0
10.909,1.057,-0.614,0.0
15.187,1.464,-0.431,0.0
14.036,1.35,-0.477,0.0
13.136,1.261,-0.52,0.0
12.2,1.169,-0.553,0.0
11.493,1.099,-0.586,0.0
10.852,1.036,-0.614,0.0
15.067,1.43,-0.433,0.0
13.91,1.317,-0.477,0.0
13.038,1.232,-0.521,0.0
12.22,1.152,-0.558,0.0
11.48,1.08,-0.589,0.0
10.859,1.02,-0.618,0.0
15.019,1.402,-0.436,0.0
13.844,1.29,-0.479,0.0
12.976,1.206,-0.522,0.0
12.142,1.126,-0.558,0.0
11.417,1.057,-0.589,0.0
10.76,0.994,-0.615,0.0
14.914,1.369,-0.437,0.0
13.832,1.267,-0.483,0.0
12.882,1.178,-0.522,0.0
12.133,1.107,-0.561,0.0
11.392,1.037,-0.59,0.0
10.747,0.976,-0.617,0.0
14.873,1.343,-0.439,0.0
13.758,1.239,-0.483,0.0
12.822,1.152,-0.522,0.0
12.098,1.084,-0.562,0.0
11.372,1.017,-0.592,0.0
10.717,0.956,-0.618,0.0
14.823,1.314,-0.441,0.0
13.741,1.215,-0.486,0.0
12.8,1.129,-0.524,0.0
12.073,1.062,-0.563,0.0
11.357,0.997,-0.593,0.0
10.695,0.937,-0.618,0.0
14.771,1.285,-0.442,0.0
13.717,1.191,-0.487,0.0
12.815,1.109,-0.526,0.0
12.079,1.043,-0.565,0.0
11.318,0.975,-0.593,0.0
10.623,0.913,-0.616,0.0
14.724,1.257,-0.442,0.0
13.611,1.159,-0.485,0.0
12.794,1.087,-0.527,0.0
12.044,1.02,-0.565,0.0
11.3,0.955,-0.593,0.0
10.652,0.898,-0.618,0.0
14.701,1.231,-0.443,0.0
13.603,1.136,-0.486,0.0
12.748,1.061,-0.526,0.0
11.993,0.996,-0.563,0.0
11.311,0.937,-0.594,0.0
10.671,0.881,-0.62,0.0
14.6,1.198,-0.441,0.0
13.612,1.113,-0.486,0.0
12.707,1.036,-0.525,0.0
12.041,0.979,-0.566,0.0
11.317,0.918,-0.595,0.0
10.674,0.863,-0.62,0.0
14.716,1.182,-0.444,0.0
13.607,1.09,-0.486,0.0
12.761,1.019,-0.527,0.0
12.033,0.958,-0.565,0.0
11.269,0.895,-0.592,0.0
10.702,0.847,-0.622,0.0
14.714,1.157,-0.444,0.0
13.619,1.067,-0.486,0.0
12.75,0.996,-0.526,0.0
12.009,0.935,-0.563,0.0
11.245,0.873,-0.59,0.0
10.689,0.828,-0.62,0.0
14.694,1.13,-0.442,0.0
13.636,1.045,-0.486,0.0
12.743,0.973,-0.525,0.0
12.022,0.915,-0.563,0.0
11.322,0.859,-0.593,0.0
10.671,0.807,-0.618,0.0
14.809,1.113,-0.444,0.0
13.663,1.023,-0.485,0.0
12.73,0.95,-0.523,0.0
12.06,0.897,-0.563,0.0
11.305,0.838,-0.59,0.0
10.732,0.793,-0.62,0.0
14.747,1.082,-0.44,0.0
13.701,1.002,-0.484,0.0
12.74,0.929,-0.521,0.0
12.067,0.877,-0.561,0.0
11.264,0.815,-0.586,0.0
10.669,0.77,-0.614,0.0
14.782,1.059,-0.438,0.0
13.726,0.98,-0.482,0.0
12.803,0.911,-0.521,0.0
12.079,0.856,-0.559,0.0
11.377,0.804,-0.59,0.0
10.829,0.762,-0.621,0.0
14.842,1.037,-0.436,0.0
13.749,0.957,-0.48,0.0
12.878,0.893,-0.521,0.0
12.121,0.838,-0.558,0.0
11.329,0.78,-0.584,0.0
10.763,0.739,-0.615,0.0
14.95,1.018,-0.436,0.0
13.787,0.936,-0.478,0.0
12.796,0.865,-0.514,0.0
12.115,0.816,-0.554,0.0
11.384,0.764,-0.584,0.0
10.77,0.72,-0.612,0.0
15.047,0.998,-0.434,0.0
13.86,0.915,-0.476,0.0
12.915,0.85,-0.514,0.0
12.142,0.796,-0.552,0.0
11.477,0.749,-0.585,0.0
10.79,0.702,-0.609,0.0
15.024,0.969,-0.428,0.0
13.909,0.894,-0.472,0.0
12.941,0.828,-0.511,0.0
12.248,0.781,-0.552,0.0
11.533,0.732,-0.583,0.0
10.797,0.682,-0.605,0.0
15.159,0.951,-0.426,0.0
14.074,0.879,-0.473,0.0
13.07,0.813,-0.51,0.0
12.304,0.762,-0.549,0.0
11.559,0.712,-0.58,0.0
10.939,0.671,-0.609,0.0
15.225,0.927,-0.421,0.0
14.037,0.851,-0.465,0.0
13.154,0.794,-0.508,0.0
12.365,0.743,-0.546,0.0
11.619,0.695,-0.577,0.0
11.018,0.656,-0.608,0.0
15.383,0.909,-0.418,0.0
14.103,0.829,-0.461,0.0
13.226,0.774,-0.504,0.0
12.425,0.724,-0.543,0.0
11.678,0.677,-0.574,0.0
11.09,0.64,-0.606,0.0
15.499,0.888,-0.414,0.0
14.314,0.816,-0.46,0.0
13.244,0.751,-0.498,0.0
12.474,0.704,-0.538,0.0
11.702,0.657,-0.569,0.0
11.095,0.62,-0.6,0.0
15.661,0.868,-0.409,0.0
14.307,0.789,-0.452,0.0
13.342,0.732,-0.494,0.0
12.563,0.686,-0.535,0.0
11.803,0.641,-0.567,0.0
11.136,0.602,-0.596,0.0
15.729,0.843,-0.402,0.0
14.445,0.771,-0.448,0.0
13.562,0.72,-0.494,0.0
12.622,0.667,-0.53,0.0
11.884,0.624,-0.564,0.0
11.214,0.586,-0.593,0.0
15.9,0.824,-0.396,0.0
14.56,0.75,-0.442,0.0
13.599,0.697,-0.487,0.0
12.703,0.648,-0.525,0.0
12.002,0.608,-0.561,0.0
11.292,0.569,-0.589,0.0
15.94,0.797,-0.386,0.0
14.748,0.733,-0.437,0.0
13.685,0.676,-0.48,0.0
12.789,0.628,-0.519,0.0
12.071,0.59,-0.556,0.0
11.318,0.55,-0.583,0.0
16.105,0.776,-0.379,0.0
14.88,0.712,-0.431,0.0
13.803,0.657,-0.474,0.0
12.904,0.611,-0.515,0.0
12.168,0.573,-0.551,0.0
11.448,0.535,-0.581,0.0
16.359,0.758,-0.373,0.0
15.026,0.692,-0.423,0.0
13.905,0.637,-0.467,0.0
12.991,0.591,-0.508,0.0
12.279,0.555,-0.547,0.0
11.565,0.52,-0.578,0.0
16.596,0.739,-0.365,0.0
15.257,0.675,-0.418,0.0
14.152,0.622,-0.464,0.0
13.158,0.575,-0.504,0.0
12.416,0.539,-0.543,0.0
11.667,0.504,-0.573,0.0
16.757,0.716,-0.355,0.0
15.533,0.66,-0.412,0.0
14.243,0.601,-0.455,0.0
13.269,0.556,-0.497,0.0
12.508,0.52,-0.536,0.0
11.81,0.488,-0.57,0.0
16.984,0.695,-0.344,0.0
15.697,0.638,-0.403,0.0
14.449,0.583,-0.449,0.0
13.458,0.539,-0.492,0.0
12.637,0.503,-0.53,0.0
11.919,0.471,-0.564,0.0
17.188,0.673,-0.333,0.0
15.832,0.615,-0.392,0.0
14.641,0.565,-0.441,0.0
13.615,0.521,-0.485,0.0
12.762,0.485,-0.523,0.0
12.003,0.453,-0.557,0.0
17.488,0.653,-0.322,0.0
16.033,0.594,-0.381,0.0
14.825,0.545,-0.432,0.0
13.785,0.503,-0.477,0.0
12.938,0.468,-0.518,0.0
12.12,0.435,-0.55,0.0
17.89,0.636,-0.312,0.0
16.323,0.576,-0.372,0.0
15.105,0.528,-0.425,0.0
13.926,0.483,-0.468,0.0
13.073,0.45,-0.51,0.0
12.394,0.423,-0.55,0.0
18.231,0.616,-0.299,0.0
16.599,0.556,-0.361,0.0
15.321,0.509,-0.415,0.0
14.126,0.465,-0.46,0.0
13.245,0.433,-0.502,0.0
12.44,0.403,-0.539,0.0
18.536,0.594,-0.284,0.0
16.885,0.536,-0.349,0.0
15.649,0.492,-0.408,0.0
14.301,0.446,-0.45,0.0
13.401,0.414,-0.494,0.0
12.599,0.386,-0.532,0.0
19.1,0.578,-0.272,0.0
17.159,0.515,-0.336,0.0
15.822,0.47,-0.394,0.0
14.627,0.431,-0.444,0.0
13.652,0.398,-0.487,0.0
12.749,0.368,-0.523,0.0
19.817,0.566,-0.26,0.0
17.48,0.494,-0.322,0.0
16.067,0.45,-0.382,0.0
14.862,0.412,-0.434,0.0
13.861,0.38,-0.479,0.0
12.89,0.35,-0.514,0.0
20.188,0.542,-0.241,0.0
17.962,0.477,-0.31,0.0
16.419,0.431,-0.371,0.0
15.168,0.394,-0.425,0.0
14.039,0.361,-0.468,0.0
13.128,0.334,-0.508,0.0
21.039,0.529,-0.226,0.0
18.315,0.456,-0.294,0.0
16.69,0.411,-0.357,0.0
15.437,0.376,-0.414,0.0
14.24,0.343,-0.458,0.0
13.28,0.316,-0.497,0.0
21.755,0.511,-0.207,1.0
18.84,0.437,-0.279,0.0
16.988,0.39,-0.342,0.0
15.692,0.356,-0.401,0.0
14.449,0.324,-0.446,0.0
13.454,0.298,-0.487,0.0
22.223,0.485,-0.183,0.0
19.587,0.422,-0.266,0.0
17.398,0.37,-0.328,0.0
16.002,0.336,-0.388,0.0
14.718,0.305,-0.435,0.0
13.769,0.282,-0.48,0.0
23.106,0.466,-0.16,0.0
20.169,0.401,-0.247,0.0
17.864,0.351,-0.313,0.0
16.353,0.317,-0.375,0.0
15.055,0.287,-0.425,0.0
14.011,0.264,-0.47,0.0
23.681,0.439,-0.132,0.0
20.647,0.377,-0.225,0.0
18.331,0.33,-0.297,0.0
16.63,0.295,-0.359,0.0
15.47,0.27,-0.416,0.0
14.265,0.245,-0.459,0.0
24.495,0.415,-0.104,0.0
21.909,0.365,-0.208,0.0
18.817,0.308,-0.278,0.0
17.021,0.274,-0.343,0.0
15.751,0.25,-0.401,0.0
14.494,0.226,-0.445,0.0
25.287,0.388,-0.071,0.0
22.469,0.339,-0.182,0.0
19.675,0.291,-0.263,0.0
17.379,0.253,-0.325,0.0
16.097,0.23,-0.386,0.0
14.844,0.208,-0.435,0.0
26.084,0.359,-0.036,0.0
23.319,0.315,-0.155,0.0
20.39,0.27,-0.243,0.0
17.965,0.233,-0.31,0.0
16.45,0.21,-0.371,0.0
15.234,0.19,-0.424,0.0
26.891,0.329,0.001,0.0
23.834,0.285,-0.124,0.0
21.571,0.253,-0.225,1.0
18.533,0.213,-0.293,0.0
16.813,0.189,-0.354,0.0
15.574,0.171,-0.41,0.0
28.012,0.3,0.043,0.0
25.019,0.262,-0.092,0.0
22.048,0.225,-0.197,3.0
19.099,0.19,-0.273,0.0
17.192,0.167,-0.336,0.0
15.886,0.15,-0.394,0.0
28.777,0.265,0.088,5.0
25.799,0.231,-0.056,0.0
22.666,0.198,-0.168,0.0
19.952,0.169,-0.254,0.0
17.665,0.145,-0.318,0.0
16.328,0.13,-0.379,0.0
28.887,0.223,0.133,3.0
26.544,0.199,-0.016,0.0
23.634,0.171,-0.138,0.0
20.902,0.146,-0.233,1.0
18.358,0.124,-0.301,0.0
16.679,0.109,-0.361,0.0
31.345,0.197,0.194,0.0
27.58,0.166,0.027,0.0
24.728,0.144,-0.105,0.0
21.694,0.121,-0.208,3.0
19.05,0.101,-0.282,0.0
17.066,0.087,-0.342,0.0
0.0,0.0,0.0,0.0
28.57,0.132,0.074,1.0
25.571,0.112,-0.067,0.0
22.638,0.094,-0.18,0.0
19.904,0.078,-0.263,0.0
17.55,0.065,-0.323,0.0
33.846,0.118,0.319,0.0
28.805,0.094,0.121,1.0
26.464,0.08,-0.026,0.0
23.447,0.065,-0.148,1.0
20.941,0.054,-0.242,2.0
18.189,0.042,-0.305,0.0
35.104,0.074,0.389,0.0
30.372,0.057,0.178,0.0
27.296,0.046,0.017,0.0
24.307,0.035,-0.113,0.0
21.436,0.026,-0.212,3.0
18.79,0.019,-0.284,0.0
0.0,0.0,0.0,0.0
31.795,0.018,0.24,0.0
28.499,0.01,0.066,1.0
25.391,0.003,-0.075,0.0
22.633,-0.001,-0.185,0.0
19.722,-0.005,-0.264,0.0
39.777,-0.02,0.576,0.0
33.41,-0.024,0.31,0.0
28.827,-0.027,0.117,3.0
26.345,-0.03,-0.032,0.0
23.575,-0.032,-0.151,0.0
20.678,-0.032,-0.24,0.0
0.0,0.0,0.0,0.0
35.208,-0.07,0.388,0.0
30.38,-0.067,0.176,0.0
27.405,-0.066,0.014,0.0
24.385,-0.064,-0.114,0.0
21.676,-0.061,-0.214,0.0
0.0,0.0,0.0,0.0
37.351,-0.121,0.477,0.0
31.731,-0.109,0.24,0.0
28.675,-0.105,0.065,5.0
25.357,-0.098,-0.073,0.0
22.797,-0.092,-0.185,0.0
0.0,0.0,0.0,0.0
38.563,-0.172,0.561,0.0
33.197,-0.154,0.31,0.0
28.822,-0.139,0.116,7.0
26.488,-0.133,-0.03,0.0
23.486,-0.123,-0.148,0.0
0.0,0.0,0.0,0.0
0.0,0.0,0.0,0.0
35.152,-0.205,0.392,0.0
31.101,-0.187,0.182,1.0
27.633,-0.171,0.018,0.0
24.685,-0.158,-0.111,0.0
0.0,0.0,0.0,0.0
0.0,0.0,0.0,0.0
0.0,0.0,0.0,0.0
32.022,-0.229,0.246,2.0
28.699,-0.211,0.072,6.0
25.715,-0.194,-0.068,0.0
0.0,0.0,0.0,0.0
0.0,0.0,0.0,0.0
39.696,-0.321,0.589,0.0
33.41,-0.276,0.319,0.0
28.84,-0.243,0.125,3.0
26.723,-0.23,-0.021,0.0
0.0,0.0,0.0,0.0
0.0,0.0,0.0,0.0
0.0,0.0,0.0,0.0
35.725,-0.333,0.407,0.0
31.089,-0.295,0.192,1.0
27.877,-0.269,0.028,0.0
83.595,-0.824,2.417,1.0
0.0,0.0,0.0,0.0
0.0,0.0,0.0,0.0
0.0,0.0,0.0,0.0
32.559,-0.342,0.262,1.0
28.681,-0.306,0.083,1.0
90.347,-0.982,2.78,7.0
0.0,0.0,0.0,0.0
0.0,0.0,0.0,0.0
40.313,-0.457,0.61,0.0
33.901,-0.39,0.338,0.0
29.004,-0.338,0.139,0.0
90.77,-1.076,2.966,11.0
84.897,-1.02,2.335,1.0
0.0,0.0,0.0,0.0
0.0,0.0,0.0,0.0
36.049,-0.449,0.428,0.0
31.545,-0.398,0.211,0.0
0.0,0.0,0.0,0.0
85.952,-1.112,2.527,1.0
63.913,-0.837,1.548,1.0
47.448,-0.628,0.899,0.0
0.0,0.0,0.0,0.0
33.417,-0.452,0.287,1.0
171.269,-2.346,6.248,15.0
89.883,-1.244,2.814,3.0
0.0,0.0,0.0,0.0
0.0,0.0,0.0,0.0
0.0,0.0,0.0,0.0
34.386,-0.495,0.361,0.0
171.728,-2.502,6.595,18.0
0.0,0.0,0.0,0.0
86.859,-1.289,2.438,1.0
0.0,0.0,0.0,0.0
0.0,0.0,0.0,0.0
36.723,-0.559,0.457,0.0
126.15,-1.944,5.09,18.0
0.0,0.0,0.0,0.0
89.653,-1.403,2.689,3.0
0.0,0.0,0.0,0.0
48.138,-0.765,0.941,0.0
0.0,0.0,0.0,0.0
126.096,-2.043,5.332,27.0
0.0,0.0,0.0,0.0
96.883,-1.593,3.095,12.0
0.0,0.0,0.0,0.0
0.0,0.0,0.0,0.0
0.0,0.0,0.0,0.0
126.027,-2.138,5.576,12.0
126.101,-2.154,4.926,24.0
96.99,-1.667,3.288,18.0
88.691,-1.534,2.539,1.0
0.0,0.0,0.0,0.0
0.0,0.0,0.0,0.0
125.98,-2.23,5.822,3.0
126.074,-2.243,5.173,47.0
96.988,-1.736,3.479,21.0
96.743,-1.742,2.961,2.0
0.0,0.0,0.0,0.0
0.0,0.0,0.0,0.0
190.421,-3.501,9.179,18.0
126.114,-2.331,5.426,33.0
96.961,-1.801,3.669,25.0
96.903,-1.809,3.157,22.0
0.0,0.0,0.0,0.0
0.0,0.0,0.0,0.0
190.318,-3.622,9.546,22.0
190.038,-3.634,8.548,12.0
96.941,-1.861,3.858,30.0
96.94,-1.87,3.348,35.0
90.016,-1.744,2.643,1.0
0.0,0.0,0.0,0.0
190.131,-3.733,9.909,19.0
189.978,-3.744,8.916,19.0
96.899,-1.918,4.047,28.0
96.944,-1.927,3.539,43.0
96.798,-1.932,3.034,8.0
0.0,0.0,0.0,0.0
99.261,-2.005,5.37,14.0
190.283,-3.859,9.311,23.0
96.899,-1.972,4.241,31.0
96.92,-1.98,3.732,52.0
96.946,-1.987,3.231,3.0
0.0,0.0,0.0,0.0
99.119,-2.056,5.561,19.0
128.426,-2.673,6.54,14.0
96.867,-2.022,4.43,33.0
96.894,-2.029,3.922,44.0
128.393,-2.697,4.533,3.0
0.0,0.0,0.0,0.0
128.49,-2.728,7.462,9.0
128.392,-2.734,6.79,14.0
96.85,-2.067,4.621,40.0
96.881,-2.074,4.111,42.0
128.465,-2.758,4.789,13.0
96.77,-2.082,3.106,5.0
96.689,-2.097,5.806,26.0
96.869,-2.106,5.315,10.0
96.834,-2.11,4.812,28.0
96.884,-2.115,4.302,46.0
128.426,-2.811,5.04,29.0
128.282,-2.814,4.373,9.0
96.608,-2.135,5.993,18.0
96.752,-2.142,5.501,25.0
96.797,-2.148,5.001,26.0
96.831,-2.153,4.493,49.0
128.395,-2.859,5.292,27.0
128.389,-2.865,4.628,29.0
96.632,-2.172,6.186,7.0
96.716,-2.177,5.688,41.0
96.796,-2.182,5.192,21.0
96.802,-2.186,4.681,52.0
96.938,-2.192,4.186,15.0
128.388,-2.908,4.88,37.0
96.625,-2.204,6.375,10.0
96.646,-2.207,5.874,28.0
96.757,-2.212,5.378,36.0
96.783,-2.216,4.869,40.0
96.875,-2.22,4.373,17.0
128.451,-2.947,5.133,28.0
75.647,-1.748,5.14,10.0
96.479,-2.232,6.055,21.0
96.734,-2.239,5.569,30.0
96.769,-2.242,5.059,37.0
96.843,-2.245,4.562,26.0
128.466,-2.981,5.388,20.0
75.63,-1.768,5.289,12.0
96.155,-2.248,6.224,20.0
96.916,-2.267,5.77,19.0
96.71,-2.264,5.246,37.0
96.827,-2.267,4.749,32.0
171.686,-4.022,7.532,7.0
87.004,-2.052,6.253,14.0
95.9,-2.262,6.393,19.0
96.855,-2.285,5.953,19.0
96.692,-2.282,5.432,28.0
96.786,-2.284,4.936,36.0
96.854,-2.286,4.437,6.0
87.202,-2.073,6.436,12.0
75.687,-1.799,5.194,15.0
96.355,-2.289,6.109,20.0
96.868,-2.301,5.629,18.0
96.773,-2.298,5.121,40.0
96.858,-2.3,4.623,17.0
76.01,-1.817,5.757,18.0
86.986,-2.078,6.135,16.0
96.041,-2.294,6.274,21.0
97.069,-2.317,5.827,21.0
96.729,-2.308,5.305,32.0
96.825,-2.309,4.807,25.0
87.382,-2.098,6.788,17.0
87.065,-2.089,6.308,16.0
95.825,-2.296,6.444,21.0
96.841,-2.319,5.999,14.0
96.741,-2.315,5.49,18.0
96.801,-2.314,4.99,30.0
75.864,-1.826,6.038,12.0
76.018,-1.827,5.654,18.0
75.662,-1.817,5.232,13.0
96.261,-2.31,6.147,17.0
96.987,-2.324,5.687,16.0
96.792,-2.317,5.174,33.0
75.933,-1.83,6.189,11.0
76.033,-1.829,5.8,12.0
86.993,-2.09,6.181,20.0
95.927,-2.302,6.306,21.0
97.063,-2.325,5.874,19.0
96.713,-2.314,5.351,28.0
67.05,-1.614,5.59,12.0
87.369,-2.1,6.828,16.0
87.158,-2.091,6.356,15.0
95.802,-2.295,6.478,15.0
96.575,-2.31,6.026,15.0
96.798,-2.311,5.537,17.0
67.061,-1.611,5.718,24.0
75.918,-1.82,6.076,20.0
76.015,-1.819,5.686,18.0
75.675,-1.807,5.258,16.0
96.204,-2.293,6.182,20.0
97.006,-2.307,5.729,22.0
67.067,-1.605,5.844,16.0
87.279,-2.084,7.147,8.0
87.563,-2.086,6.712,11.0
87.004,-2.068,6.206,16.0
95.91,-2.274,6.34,24.0
96.938,-2.293,5.902,22.0
67.034,-1.596,5.965,7.0
67.068,-1.592,5.616,8.0
75.881,-1.797,5.955,9.0
87.163,-2.059,6.375,13.0
75.671,-1.783,5.139,9.0
96.439,-2.265,6.046,24.0
65.67,-1.552,5.963,12.0
67.064,-1.581,5.737,20.0
75.895,-1.784,6.093,21.0
76.041,-1.782,5.699,10.0
75.645,-1.767,5.273,10.0
96.211,-2.241,6.203,15.0
65.735,-1.54,6.087,27.0
67.062,-1.566,5.858,17.0
87.34,-2.034,7.169,5.0
87.793,-2.037,6.736,12.0
87.038,-2.013,6.222,12.0
86.249,-1.989,5.715,8.0
65.815,-1.526,6.213,29.0
67.08,-1.55,5.979,26.0
85.469,-1.968,7.168,15.0
75.927,-1.742,5.96,22.0
76.126,-1.74,5.577,7.0
75.694,-1.724,5.148,23.0
63.957,-1.466,6.149,14.0
0.0,0.0,0.0,0.0
67.048,-1.525,5.739,16.0
75.943,-1.72,6.094,25.0
76.101,-1.717,5.707,25.0
75.71,-1.701,5.28,20.0
63.997,-1.447,6.265,32.0
63.459,-1.429,5.878,15.0
67.05,-1.502,5.856,30.0
87.422,-1.951,7.167,10.0
76.125,-1.692,5.84,23.0
89.716,-1.985,6.412,14.0
64.044,-1.425,6.381,29.0
63.378,-1.404,5.979,23.0
67.094,-1.48,5.975,33.0
85.537,-1.878,7.156,8.0
76.152,-1.664,5.97,14.0
76.167,-1.657,5.57,6.0
64.525,-1.411,6.538,41.0
63.776,-1.388,6.123,38.0
67.07,-1.453,6.084,21.0
85.246,-1.837,7.275,12.0
76.113,-1.632,6.094,31.0
76.162,-1.625,5.696,20.0
64.626,-1.387,6.656,32.0
64.018,-1.367,6.253,30.0
63.427,-1.347,5.858,19.0
65.707,-1.388,5.714,9.0
76.214,-1.601,6.226,28.0
76.14,-1.591,5.818,21.0
64.394,-1.353,6.737,36.0
63.968,-1.337,6.352,32.0
63.438,-1.318,5.963,27.0
67.171,-1.387,5.95,7.0
76.126,-1.563,6.341,11.0
76.211,-1.556,5.946,27.0
64.384,-1.322,6.841,30.0
64.237,-1.31,6.483,22.0
63.548,-1.288,6.075,38.0
67.101,-1.352,6.052,22.0
76.231,-1.527,6.472,9.0
76.316,-1.518,6.076,24.0
64.663,-1.293,6.974,30.0
64.43,-1.281,6.605,29.0
63.878,-1.261,6.209,36.0
67.107,-1.316,6.158,6.0
65.736,-1.28,5.684,14.0
76.373,-1.478,6.199,22.0
64.977,-1.264,7.11,23.0
64.434,-1.244,6.706,26.0
64.009,-1.228,6.32,28.0
63.526,-1.21,5.927,27.0
65.785,-1.244,5.788,16.0
76.3,-1.433,6.308,28.0
64.93,-1.226,7.204,28.0
64.403,-1.207,6.8,8.0
64.241,-1.194,6.44,33.0
63.537,-1.173,6.024,35.0
65.558,-1.2,5.866,15.0
76.018,-1.382,6.398,17.0
65.042,-1.189,7.313,31.0
58.813,-1.065,6.298,26.0
64.469,-1.159,6.558,22.0
63.697,-1.136,6.133,35.0
65.547,-1.159,5.961,14.0
75.789,-1.329,6.489,11.0
65.582,-1.156,7.471,21.0
65.146,-1.138,7.072,18.0
58.84,-1.019,6.072,22.0
64.191,-1.102,6.274,34.0
63.622,-1.083,5.878,21.0
65.461,-1.104,5.699,24.0
75.897,-1.286,8.756,7.0
64.96,-1.091,7.145,29.0
58.826,-0.979,6.154,28.0
64.313,-1.06,6.376,34.0
63.746,-1.04,5.979,11.0
65.484,-1.059,5.792,25.0
73.678,-1.197,8.604,9.0
65.032,-1.046,7.244,30.0
58.858,-0.937,6.239,15.0
64.352,-1.014,6.47,25.0
58.654,-0.915,5.583,26.0
0.0,0.0,0.0,0.0
68.007,-1.054,8.036,8.0
65.177,-1.0,7.349,25.0
65.322,-0.992,7.014,19.0
58.902,-0.884,6.002,17.0
64.133,-0.952,6.19,21.0
64.026,-0.941,5.836,20.0
74.051,-1.093,8.849,7.0
65.018,-0.948,7.417,15.0
57.212,-0.825,6.218,22.0
58.951,-0.84,6.083,29.0
64.11,-0.903,6.27,26.0
64.046,-0.892,5.92,8.0
59.493,-0.831,7.187,18.0
68.016,-0.938,7.847,5.0
57.213,-0.779,6.291,21.0
58.957,-0.793,6.159,27.0
64.118,-0.852,6.353,10.0
58.713,-0.77,5.501,23.0
59.524,-0.783,7.266,29.0
64.291,-0.835,7.499,17.0
57.19,-0.733,6.361,20.0
0.0,0.0,0.0,0.0
58.957,-0.734,5.914,26.0
58.754,-0.722,5.577,21.0
0.0,0.0,0.0,0.0
64.316,-0.781,7.58,7.0
63.782,-0.763,7.171,13.0
57.229,-0.675,6.118,31.0
59.017,-0.686,5.99,30.0
63.807,-0.73,6.132,11.0
57.919,-0.664,7.209,22.0
64.105,-0.723,7.63,14.0
59.515,-0.661,6.76,27.0
57.205,-0.625,6.181,30.0
59.078,-0.635,6.064,29.0
63.794,-0.674,6.202,17.0
58.007,-0.614,7.287,29.0
59.583,-0.62,7.16,17.0
59.546,-0.609,6.831,26.0
57.303,-0.575,6.256,31.0
59.212,-0.583,6.144,15.0
59.013,-0.57,5.804,19.0
57.774,-0.559,7.323,33.0
0.0,0.0,0.0,0.0
59.61,-0.555,6.904,23.0
57.299,-0.523,6.318,15.0
57.346,-0.512,6.011,25.0
59.054,-0.517,5.87,24.0
57.171,-0.5,7.307,32.0
0.0,0.0,0.0,0.0
59.636,-0.499,6.97,16.0
63.863,-0.523,7.108,14.0
57.272,-0.459,6.063,30.0
59.182,-0.463,5.943,24.0
57.505,-0.449,7.409,33.0
56.889,-0.433,7.018,19.0
63.346,-0.47,7.468,11.0
63.884,-0.461,7.175,23.0
57.167,-0.402,6.109,30.0
59.163,-0.405,6.001,20.0
58.02,-0.396,7.534,33.0
56.944,-0.378,7.081,28.0
59.681,-0.384,7.094,12.0
0.0,0.0,0.0,0.0
57.17,-0.346,6.164,28.0
57.106,-0.335,5.846,14.0
58.284,-0.34,7.624,20.0
57.16,-0.323,7.162,31.0
59.008,-0.322,7.069,34.0
63.514,-0.334,7.254,20.0
57.2,-0.29,6.22,27.0
57.435,-0.28,5.931,29.0
58.375,-0.282,7.689,18.0
56.954,-0.264,7.187,31.0
0.0,0.0,0.0,0.0
59.324,-0.252,6.828,23.0
57.217,-0.232,6.271,30.0
57.403,-0.222,5.978,19.0
51.882,-0.197,6.878,16.0
57.075,-0.206,7.251,31.0
57.023,-0.195,6.93,21.0
59.318,-0.191,6.877,26.0
57.232,-0.173,6.32,23.0
57.586,-0.163,6.044,26.0
51.554,-0.143,6.878,26.0
58.128,-0.149,7.432,28.0
57.077,-0.135,6.983,27.0
59.397,-0.129,6.933,24.0
63.198,-0.126,7.029,15.0
57.41,-0.102,6.07,31.0
51.4,-0.088,6.897,26.0
58.247,-0.088,7.493,22.0
56.997,-0.075,7.016,31.0
63.488,-0.071,7.458,10.0
57.494,-0.053,6.437,3.0
57.377,-0.042,6.109,22.0
51.43,-0.033,6.939,26.0
58.35,-0.026,7.548,18.0
57.016,-0.014,7.059,23.0
57.175,-0.004,6.757,14.0
59.725,0.007,6.728,7.0
57.365,0.018,6.146,29.0
51.307,0.021,6.958,26.0
58.44,0.036,7.6,28.0
57.083,0.046,7.106,16.0
57.174,0.058,6.794,31.0
56.248,0.068,6.373,17.0
57.315,0.081,6.178,31.0
51.67,0.078,7.041,26.0
58.645,0.1,7.664,17.0
49.01,0.094,6.132,22.0
57.174,0.12,6.83,31.0
59.866,0.138,6.82,12.0
57.003,0.142,6.179,32.0
48.213,0.126,6.598,14.0
62.713,0.176,8.233,19.0
48.999,0.148,6.159,20.0
57.183,0.183,6.864,30.0
59.957,0.203,6.864,11.0
56.545,0.203,6.16,30.0
48.226,0.18,6.627,25.0
55.721,0.219,7.345,3.0
58.497,0.241,7.384,13.0
57.407,0.248,6.921,21.0
57.309,0.259,6.591,26.0
56.34,0.265,6.167,23.0
48.949,0.237,6.751,23.0
48.389,0.244,6.403,16.0
58.452,0.307,7.408,7.0
0.0,0.0,0.0,0.0
57.365,0.324,6.624,28.0
56.364,0.328,6.196,20.0
51.892,0.31,7.181,13.0
48.428,0.299,6.43,21.0
58.594,0.373,7.452,10.0
0.0,0.0,0.0,0.0
57.449,0.388,6.659,21.0
56.556,0.393,6.24,13.0
51.791,0.368,7.189,27.0
48.496,0.354,6.459,22.0
49.058,0.368,6.258,16.0
58.602,0.45,7.142,25.0
57.504,0.454,6.687,19.0
56.649,0.458,6.272,8.0
52.019,0.429,7.24,23.0
48.558,0.41,6.485,30.0
48.873,0.423,6.252,15.0
58.611,0.518,7.163,33.0
48.729,0.44,5.683,7.0
52.622,0.485,5.843,19.0
49.341,0.465,6.883,15.0
48.546,0.466,6.499,22.0
48.48,0.475,6.217,23.0
58.547,0.585,7.173,32.0
48.759,0.496,5.701,10.0
52.684,0.546,5.865,22.0
49.343,0.521,6.897,27.0
49.185,0.528,6.597,23.0
48.698,0.533,6.258,23.0
58.71,0.653,7.208,16.0
57.608,0.652,6.749,6.0
52.604,0.606,5.869,22.0
49.36,0.578,6.911,15.0
49.123,0.584,6.6,23.0
48.781,0.589,6.279,22.0
49.242,0.604,6.056,23.0
52.97,0.66,6.216,9.0
52.669,0.666,5.886,22.0
49.398,0.635,6.926,17.0
49.422,0.645,6.649,5.0
48.099,0.637,6.199,23.0
49.052,0.659,6.04,23.0
48.52,0.661,5.702,19.0
52.702,0.727,5.897,12.0
52.128,0.732,7.316,26.0
0.0,0.0,0.0,0.0
48.097,0.692,6.205,24.0
48.987,0.714,6.038,23.0
48.788,0.72,5.738,22.0
56.261,0.84,6.301,21.0
51.596,0.783,7.246,32.0
48.015,0.737,6.47,22.0
48.839,0.759,6.304,23.0
48.964,0.77,6.038,27.0
48.759,0.775,5.738,34.0
50.245,0.809,5.63,18.0
51.749,0.845,7.269,27.0
48.113,0.794,6.485,22.0
47.354,0.79,6.114,18.0
48.861,0.824,6.026,27.0
48.797,0.832,5.743,22.0
50.195,0.865,5.624,19.0
51.882,0.907,7.288,26.0
47.97,0.846,6.465,29.0
47.41,0.845,6.12,17.0
48.871,0.88,6.026,31.0
48.981,0.89,5.763,22.0
50.166,0.921,5.619,28.0
51.607,0.961,7.247,31.0
47.904,0.9,6.453,28.0
0.0,0.0,0.0,0.0
48.906,0.936,6.027,32.0
49.492,0.956,5.819,24.0
50.231,0.979,5.622,28.0
51.94,1.026,7.288,26.0
47.974,0.956,6.458,22.0
47.69,0.958,6.148,20.0
48.698,0.987,5.996,23.0
0.0,0.0,0.0,0.0
50.162,1.034,5.607,30.0
52.008,1.087,7.29,16.0
47.865,1.008,6.436,32.0
45.47,0.965,5.854,13.0
48.931,1.047,6.016,25.0
49.505,1.067,5.806,25.0
50.062,1.087,5.587,37.0
52.206,1.149,7.308,9.0
47.94,1.063,6.436,10.0
45.469,1.016,5.845,9.0
48.98,1.102,6.012,23.0
50.272,1.14,5.885,28.0
49.947,1.14,5.563,33.0
47.952,1.109,6.701,7.0
47.891,1.116,6.418,15.0
45.446,1.066,5.83,18.0
49.348,1.165,6.044,23.0
50.475,1.2,5.895,24.0
49.769,1.191,5.53,29.0
50.511,1.225,7.045,9.0
47.64,1.162,6.371,11.0
45.521,1.118,5.827,16.0
50.268,1.243,6.142,24.0
45.438,1.13,5.293,19.0
49.684,1.243,5.505,27.0
47.205,1.196,6.568,5.0
51.717,1.319,6.899,7.0
45.54,1.168,5.813,22.0
45.118,1.164,5.497,18.0
45.443,1.18,5.277,17.0
49.718,1.298,5.491,24.0
43.546,1.151,6.043,23.0
0.0,0.0,0.0,0.0
45.498,1.216,5.791,19.0
45.143,1.213,5.482,19.0
45.455,1.229,5.26,19.0
49.621,1.349,5.46,12.0
43.553,1.198,6.025,33.0
0.0,0.0,0.0,0.0
45.072,1.253,5.717,24.0
45.104,1.26,5.458,25.0
45.504,1.278,5.246,19.0
45.952,1.297,5.035,10.0
43.685,1.248,6.023,23.0
46.663,1.339,6.165,21.0
45.104,1.3,5.7,22.0
45.154,1.308,5.442,19.0
45.473,1.324,5.22,18.0
49.113,1.437,5.358,23.0
47.347,1.402,6.504,10.0
46.06,1.37,6.061,21.0
45.117,1.348,5.678,20.0
45.134,1.355,5.416,30.0
45.343,1.367,5.181,42.0
45.954,1.392,4.988,15.0
43.746,1.34,5.985,34.0
47.586,1.464,6.236,3.0
45.157,1.395,5.657,19.0
45.177,1.402,5.395,37.0
45.455,1.417,5.168,25.0
46.017,1.44,4.968,14.0
47.81,1.513,6.512,5.0
45.304,1.44,5.909,28.0
45.072,1.438,5.619,26.0
45.252,1.45,5.376,31.0
45.625,1.468,5.159,32.0
48.418,1.564,5.197,16.0
47.723,1.559,6.47,13.0
43.781,1.435,5.682,26.0
45.399,1.493,5.63,19.0
45.304,1.496,5.353,19.0
45.755,1.517,5.143,21.0
48.668,1.62,5.191,22.0
43.911,1.477,5.923,19.0
43.637,1.473,5.633,20.0
45.61,1.545,5.624,26.0
47.476,1.614,5.576,7.0
45.961,1.567,5.134,23.0
51.104,1.749,5.415,5.0
43.892,1.519,5.888,30.0
43.624,1.514,5.599,18.0
45.425,1.582,5.568,22.0
45.633,1.594,5.326,21.0
46.082,1.615,5.113,37.0
55.309,1.945,5.819,14.0
43.769,1.555,5.838,31.0
43.725,1.558,5.579,23.0
45.321,1.62,5.52,23.0
45.654,1.636,5.293,27.0
46.007,1.654,5.069,13.0
61.562,2.221,6.429,15.0
43.764,1.595,5.802,37.0
44.097,1.611,5.59,18.0
45.299,1.66,5.481,36.0
45.772,1.682,5.269,23.0
50.023,1.843,5.47,13.0
56.379,2.084,5.841,8.0
43.642,1.629,5.749,36.0
45.307,1.695,5.705,30.0
45.44,1.705,5.459,27.0
45.904,1.726,5.245,34.0
45.33,1.709,4.918,16.0
50.614,1.914,5.2,19.0
43.509,1.661,5.693,38.0
45.271,1.733,5.661,19.0
45.746,1.755,5.455,18.0
48.599,1.87,5.509,6.0
48.423,1.867,5.21,6.0
50.266,1.943,5.118,16.0
43.886,1.713,5.701,25.0
45.385,1.775,5.633,31.0
45.798,1.795,5.418,19.0
45.431,1.785,5.107,24.0
61.914,2.439,6.603,28.0
50.121,1.979,5.056,20.0
44.662,1.779,5.759,20.0
45.44,1.814,5.595,39.0
45.631,1.826,5.354,33.0
45.303,1.816,5.049,32.0
0.0,0.0,0.0,0.0
50.197,2.021,5.015,34.0
44.753,1.818,5.726,22.0
45.705,1.861,5.582,20.0
45.692,1.863,5.315,18.0
45.299,1.851,5.003,26.0
49.936,2.045,5.226,23.0
50.26,2.062,4.97,29.0
44.064,1.824,5.592,14.0
45.767,1.898,5.542,34.0
45.603,1.895,5.257,23.0
45.373,1.888,4.962,21.0
56.154,2.342,5.817,6.0
50.231,2.098,4.913,29.0
0.0,0.0,0.0,0.0
45.751,1.931,5.489,23.0
45.548,1.925,5.201,38.0
48.225,2.042,5.222,12.0
50.221,2.13,5.147,18.0
51.23,2.176,4.955,25.0
44.911,1.924,5.6,26.0
45.763,1.963,5.44,22.0
45.569,1.958,5.152,35.0
48.635,2.093,5.211,23.0
50.289,2.168,5.098,20.0
51.21,2.21,4.895,19.0
45.601,1.985,5.634,27.0
45.604,1.987,5.369,30.0
45.54,1.987,5.096,29.0
49.48,2.162,5.245,27.0
50.32,2.202,5.042,21.0
49.655,2.176,4.689,18.0
45.584,2.014,5.578,28.0
45.609,2.017,5.315,33.0
48.283,2.138,5.345,27.0
49.582,2.198,5.196,23.0
50.636,2.247,5.014,24.0
49.55,2.202,4.62,15.0
45.589,2.042,5.523,29.0
45.526,2.041,5.249,34.0
48.83,2.192,5.347,24.0
50.398,2.265,5.22,24.0
50.327,2.264,4.921,24.0
0.0,0.0,0.0,0.0
45.711,2.074,5.48,25.0
45.527,2.068,5.193,23.0
51.489,2.341,5.573,5.0
50.397,2.294,5.156,24.0
49.676,2.263,4.794,15.0
55.333,2.523,5.021,21.0
45.647,2.097,5.413,29.0
48.261,2.219,5.442,5.0
51.074,2.35,5.462,25.0
50.709,2.335,5.122,25.0
0.0,0.0,0.0,0.0
55.246,2.549,4.941,24.0
45.642,2.12,5.353,37.0
48.263,2.244,5.379,23.0
50.808,2.364,5.366,24.0
53.881,2.509,5.372,7.0
49.631,2.312,4.66,28.0
55.226,2.575,4.866,9.0
45.599,2.141,5.286,40.0
51.588,2.423,5.679,11.0
50.562,2.376,5.272,24.0
0.0,0.0,0.0,0.0
55.47,2.61,5.134,7.0
49.174,2.315,4.266,21.0
45.492,2.157,5.211,27.0
56.396,2.675,6.131,7.0
50.443,2.393,5.19,28.0
49.695,2.359,4.819,17.0
55.475,2.635,5.057,17.0
49.235,2.339,4.203,22.0
48.228,2.306,5.457,26.0
51.016,2.44,5.475,24.0
50.435,2.413,5.118,19.0
49.626,2.376,4.743,21.0
55.312,2.649,4.965,9.0
57.974,2.777,4.868,13.0
51.601,2.488,5.765,4.0
50.548,2.437,5.352,24.0
53.925,2.601,5.395,6.0
49.678,2.396,4.677,23.0
49.358,2.382,4.36,20.0
57.996,2.799,4.786,41.0
50.859,2.47,5.607,23.0
50.62,2.458,5.286,24.0
53.818,2.613,5.305,10.0
49.845,2.421,4.619,22.0
49.366,2.398,4.288,22.0
58.034,2.82,4.704,44.0
50.629,2.474,5.507,21.0
50.651,2.475,5.213,24.0
49.742,2.43,4.83,19.0
49.638,2.425,4.526,27.0
49.282,2.408,4.207,20.0
58.061,2.837,4.62,32.0
0.0,0.0,0.0,0.0
53.906,2.649,5.467,5.0
49.711,2.442,4.752,23.0
49.514,2.432,4.44,20.0
58.342,2.866,4.892,17.0
58.113,2.855,4.536,26.0
0.0,0.0,0.0,0.0
49.735,2.455,4.968,4.0
49.728,2.455,4.677,23.0
49.417,2.439,4.354,23.0
65.751,3.244,5.412,13.0
64.187,3.166,4.911,10.0
50.453,2.502,5.255,28.0
49.861,2.471,4.903,16.0
49.683,2.461,4.595,31.0
49.364,2.445,4.273,23.0
65.813,3.259,5.315,8.0
64.239,3.18,4.815,6.0
50.484,2.511,5.178,11.0
49.787,2.476,4.816,23.0
49.582,2.464,4.508,25.0
49.308,2.449,4.191,19.0
58.154,2.888,4.605,16.0
64.7,3.211,4.749,8.0
49.799,2.483,5.029,9.0
49.738,2.479,4.733,23.0
49.491,2.465,4.421,31.0
58.563,2.915,4.885,18.0
58.166,2.894,4.513,16.0
64.975,3.232,4.665,24.0
49.747,2.485,4.944,16.0
49.667,2.48,4.645,24.0
49.401,2.464,4.333,28.0
65.755,3.278,5.378,10.0
64.164,3.196,4.875,13.0
64.999,3.237,4.561,29.0
49.774,2.489,4.865,21.0
49.644,2.48,4.562,22.0
49.372,2.465,4.25,23.0
58.21,2.904,4.666,13.0
64.544,3.217,4.799,14.0
81.056,4.038,5.556,13.0
49.742,2.487,4.78,27.0
49.542,2.475,4.472,28.0
58.596,2.925,4.946,9.0
58.123,2.899,4.563,22.0
64.847,3.231,4.714,21.0
81.246,4.045,5.435,11.0
49.691,2.483,4.692,22.0
49.433,2.468,4.378,33.0
58.554,2.92,4.845,15.0
64.166,3.197,4.93,13.0
64.997,3.235,4.615,36.0
81.514,4.054,5.316,13.0
49.689,2.479,4.607,25.0
49.359,2.46,4.289,21.0
58.295,2.902,4.725,7.0
64.271,3.196,4.829,8.0
65.008,3.229,4.507,27.0
81.432,4.041,5.173,24.0
49.59,2.469,4.514,30.0
49.313,2.452,4.201,17.0
58.107,2.885,4.611,14.0
80.29,3.982,5.896,11.0
65.043,3.222,4.399,9.0
81.525,4.034,5.041,29.0
49.479,2.455,4.419,32.0
58.539,2.901,4.886,17.0
58.171,2.878,4.516,17.0
64.976,3.211,4.66,18.0
81.608,4.028,5.379,13.0
81.489,4.018,4.898,35.0
49.399,2.442,4.326,26.0
65.739,3.244,5.374,10.0
64.184,3.163,4.873,6.0
65.008,3.199,4.551,24.0
81.435,4.002,5.228,32.0
