X,Y,Z,Reflectivity
0.0,0.0,0.0,0.0
0.0,0.0,0.0,0.0
0.0,0.0,0.0,0.0
0.0,0.0,0.0,0.0
0.0,0.0,0.0,0.0
0.0,0.0,0.0,0.0
0.0,0.0,0.0,0.0
0.0,0.0,0.0,0.0
0.0,0.0,0.0,0.0
0.0,0.0,0.0,0.0
0.0,0.0,0.0,0.0
0.0,0.0,0.0,0.0
0.0,0.0,0.0,0.0
0.0,0.0,0.0,0.0
0.0,0.0,0.0,0.0
0.0,0.0,0.0,0.0
0.0,0.0,0.0,0.0
0.0,0.0,0.0,0.0
0.0,0.0,0.0,0.0
0.0,0.0,0.0,0.0
0.0,0.0,0.0,0.0
0.0,0.0,0.0,0.0
0.0,0.0,0.0,0.0
0.0,0.0,0.0,0.0
0.0,0.0,0.0,0.0
0.0,0.0,0.0,0.0
0.0,0.0,0.0,0.0
0.0,0.0,0.0,0.0
0.0,0.0,0.0,0.0
0.0,0.0,0.0,0.0
0.0,0.0,0.0,0.0
0.0,0.0,0.0,0.0
0.0,0.0,0.0,0.0
0.0,0.0,0.0,0.0
0.0,0.0,0.0,0.0
0.0,0.0,0.0,0.0
0.0,0.0,0.0,0.0
6.946,-0.119,-0.757,0.0
0.0,0.0,0.0,0.0
0.0,0.0,0.0,0.0
0.0,0.0,0.0,0.0
0.0,0.0,0.0,0.0
0.0,0.0,0.0,0.0
0.0,0.0,0.0,0.0
0.0,0.0,0.0,0.0
0.0,0.0,0.0,0.0
0.0,0.0,0.0,0.0
0.0,0.0,0.0,0.0
0.0,0.0,0.0,0.0
7.009,-0.134,-0.754,0.0
0.0,0.0,0.0,0.0
0.0,0.0,0.0,0.0
0.0,0.0,0.0,0.0
0.0,0.0,0.0,0.0
0.0,0.0,0.0,0.0
7.016,-0.141,-0.75,0.0
0.0,0.0,0.0,0.0
0.0,0.0,0.0,0.0
0.0,0.0,0.0,0.0
0.0,0.0,0.0,0.0
0.0,0.0,0.0,0.0
7.079,-0.149,-0.751,0.0
0.0,0.0,0.0,0.0
0.0,0.0,0.0,0.0
0.0,0.0,0.0,0.0
0.0,0.0,0.0,0.0
0.0,0.0,0.0,0.0
7.107,-0.156,-0.748,0.0
0.0,0.0,0.0,0.0
0.0,0.0,0.0,0.0
0.0,0.0,0.0,0.0
0.0,0.0,0.0,0.0
0.0,0.0,0.0,0.0
7.16,-0.164,-0.747,0.0
0.0,0.0,0.0,0.0
0.0,0.0,0.0,0.0
0.0,0.0,0.0,0.0
0.0,0.0,0.0,0.0
0.0,0.0,0.0,0.0
7.21,-0.172,-0.746,0.0
0.0,0.0,0.0,0.0
0.0,0.0,0.0,0.0
0.0,0.0,0.0,0.0
0.0,0.0,0.0,0.0
0.0,0.0,0.0,0.0
7.263,-0.18,-0.745,0.0
0.0,0.0,0.0,0.0
0.0,0.0,0.0,0.0
0.0,0.0,0.0,0.0
0.0,0.0,0.0,0.0
0.0,0.0,0.0,0.0
7.269,-0.186,-0.738,0.0
0.0,0.0,0.0,0.0
0.0,0.0,0.0,0.0
0.0,0.0,0.0,0.0
0.0,0.0,0.0,0.0
0.0,0.0,0.0,0.0
7.339,-0.194,-0.738,0.0
7.102,-0.189,-0.753,0.0
0.0,0.0,0.0,0.0
0.0,0.0,0.0,0.0
0.0,0.0,0.0,0.0
0.0,0.0,0.0,0.0
0.0,0.0,0.0,0.0
7.117,-0.195,-0.747,0.0
0.0,0.0,0.0,0.0
0.0,0.0,0.0,0.0
0.0,0.0,0.0,0.0
0.0,0.0,0.0,0.0
0.0,0.0,0.0,0.0
7.203,-0.203,-0.748,0.0
0.0,0.0,0.0,0.0
0.0,0.0,0.0,0.0
0.0,0.0,0.0,0.0
0.0,0.0,0.0,0.0
0.0,0.0,0.0,0.0
7.25,-0.21,-0.744,0.0
0.0,0.0,0.0,0.0
0.0,0.0,0.0,0.0
0.0,0.0,0.0,0.0
0.0,0.0,0.0,0.0
0.0,0.0,0.0,0.0
7.304,-0.217,-0.741,0.0
0.0,0.0,0.0,0.0
0.0,0.0,0.0,0.0
0.0,0.0,0.0,0.0
0.0,0.0,0.0,0.0
0.0,0.0,0.0,0.0
0.0,0.0,0.0,0.0
7.096,-0.217,-0.75,0.0
0.0,0.0,0.0,0.0
0.0,0.0,0.0,0.0
0.0,0.0,0.0,0.0
0.0,0.0,0.0,0.0
0.0,0.0,0.0,0.0
7.155,-0.223,-0.747,0.0
0.0,0.0,0.0,0.0
0.0,0.0,0.0,0.0
6.372,-0.202,-0.769,0.0
0.0,0.0,0.0,0.0
0.0,0.0,0.0,0.0
7.25,-0.231,-0.747,0.0
0.0,0.0,0.0,0.0
6.71,-0.216,-0.765,0.0
0.0,0.0,0.0,0.0
0.0,0.0,0.0,0.0
0.0,0.0,0.0,0.0
7.305,-0.237,-0.743,0.0
0.0,0.0,0.0,0.0
6.815,-0.223,-0.767,0.0
0.0,0.0,0.0,0.0
7.99,-0.262,-0.717,0.0
0.0,0.0,0.0,0.0
0.0,0.0,0.0,0.0
0.0,0.0,0.0,0.0
0.0,0.0,0.0,0.0
6.592,-0.221,-0.769,0.0
8.011,-0.267,-0.708,0.0
0.0,0.0,0.0,0.0
0.0,0.0,0.0,0.0
7.139,-0.241,-0.746,0.0
0.0,0.0,0.0,0.0
6.693,-0.228,-0.771,0.0
8.125,-0.275,-0.706,0.0
0.0,0.0,0.0,0.0
0.0,0.0,0.0,0.0
7.246,-0.248,-0.747,0.0
6.959,-0.239,-0.754,0.0
6.759,-0.233,-0.769,0.0
0.0,0.0,0.0,0.0
0.0,0.0,0.0,0.0
0.0,0.0,0.0,0.0
7.303,-0.254,-0.742,0.0
0.0,0.0,0.0,0.0
6.821,-0.239,-0.766,0.0
0.0,0.0,0.0,0.0
0.0,0.0,0.0,0.0
0.0,0.0,0.0,0.0
0.0,0.0,0.0,0.0
7.128,-0.252,-0.751,0.0
6.866,-0.243,-0.761,0.0
0.0,0.0,0.0,0.0
0.0,0.0,0.0,0.0
0.0,0.0,0.0,0.0
0.0,0.0,0.0,0.0
7.2,-0.257,-0.748,0.0
6.916,-0.248,-0.756,0.0
0.0,0.0,0.0,0.0
0.0,0.0,0.0,0.0
0.0,0.0,0.0,0.0
0.0,0.0,0.0,0.0
7.278,-0.263,-0.745,0.0
7.009,-0.254,-0.755,0.0
8.627,-0.311,-0.686,0.0
0.0,0.0,0.0,0.0
7.991,-0.29,-0.72,0.0
0.0,0.0,0.0,0.0
0.0,0.0,0.0,0.0
7.118,-0.26,-0.755,0.0
8.676,-0.316,-0.676,0.0
0.0,0.0,0.0,0.0
0.0,0.0,0.0,0.0
0.0,0.0,0.0,0.0
0.0,0.0,0.0,0.0
7.195,-0.265,-0.752,0.0
8.917,-0.327,-0.681,0.0
0.0,0.0,0.0,0.0
8.176,-0.301,-0.71,0.0
0.0,0.0,0.0,0.0
0.0,0.0,0.0,0.0
7.252,-0.269,-0.746,0.0
0.0,0.0,0.0,0.0
8.597,-0.318,-0.688,0.0
8.26,-0.306,-0.704,0.0
0.0,0.0,0.0,0.0
0.0,0.0,0.0,0.0
7.366,-0.275,-0.746,0.0
9.061,-0.337,-0.662,0.0
8.657,-0.322,-0.678,0.0
8.324,-0.31,-0.696,0.0
0.0,0.0,0.0,0.0
0.0,0.0,0.0,0.0
0.0,0.0,0.0,0.0
0.0,0.0,0.0,0.0
0.0,0.0,0.0,0.0
0.0,0.0,0.0,0.0
0.0,0.0,0.0,0.0
0.0,0.0,0.0,0.0
0.0,0.0,0.0,0.0
9.4,-0.352,-0.655,0.0
0.0,0.0,0.0,0.0
8.565,-0.322,-0.687,0.0
0.0,0.0,0.0,0.0
0.0,0.0,0.0,0.0
0.0,0.0,0.0,0.0
9.549,-0.359,-0.65,0.0
9.06,-0.341,-0.664,0.0
8.673,-0.327,-0.681,0.0
0.0,0.0,0.0,0.0
0.0,0.0,0.0,0.0
7.748,-0.293,-0.731,0.0
9.626,-0.363,-0.638,0.0
0.0,0.0,0.0,0.0
0.0,0.0,0.0,0.0
0.0,0.0,0.0,0.0
0.0,0.0,0.0,0.0
0.0,0.0,0.0,0.0
0.0,0.0,0.0,0.0
0.0,0.0,0.0,0.0
0.0,0.0,0.0,0.0
0.0,0.0,0.0,0.0
8.245,-0.312,-0.706,0.0
0.0,0.0,0.0,0.0
10.039,-0.378,-0.63,0.0
9.531,-0.359,-0.648,0.0
9.086,-0.343,-0.666,0.0
0.0,0.0,0.0,0.0
0.0,0.0,0.0,0.0
8.004,-0.303,-0.713,0.0
10.16,-0.382,-0.62,0.0
0.0,0.0,0.0,0.0
0.0,0.0,0.0,0.0
0.0,0.0,0.0,0.0
0.0,0.0,0.0,0.0
8.143,-0.307,-0.71,0.0
10.323,-0.388,-0.611,0.0
0.0,0.0,0.0,0.0
0.0,0.0,0.0,0.0
8.959,-0.337,-0.672,0.0
8.582,-0.323,-0.688,0.0
8.25,-0.31,-0.705,0.0
10.55,-0.395,-0.606,0.0
10.075,-0.377,-0.631,0.0
9.605,-0.359,-0.652,0.0
0.0,0.0,0.0,0.0
8.733,-0.327,-0.685,0.0
8.374,-0.313,-0.7,0.0
10.777,-0.401,-0.6,0.0
10.202,-0.38,-0.621,0.0
9.686,-0.361,-0.64,0.0
0.0,0.0,0.0,0.0
0.0,0.0,0.0,0.0
8.478,-0.316,-0.694,0.0
10.958,-0.406,-0.59,0.0
10.393,-0.385,-0.613,0.0
0.0,0.0,0.0,0.0
0.0,0.0,0.0,0.0
9.024,-0.334,-0.674,0.0
8.596,-0.318,-0.687,0.0
11.263,-0.414,-0.585,0.0
10.572,-0.389,-0.604,0.0
10.064,-0.37,-0.627,0.0
9.555,-0.351,-0.646,0.0
0.0,0.0,0.0,0.0
8.777,-0.322,-0.685,0.0
11.445,-0.418,-0.573,0.0
10.84,-0.395,-0.599,0.0
10.26,-0.374,-0.621,0.0
0.0,0.0,0.0,0.0
0.0,0.0,0.0,0.0
0.0,0.0,0.0,0.0
11.625,-0.421,-0.561,0.0
11.064,-0.4,-0.591,0.0
10.479,-0.378,-0.614,0.0
0.0,0.0,0.0,0.0
0.0,0.0,0.0,0.0
0.0,0.0,0.0,0.0
11.884,-0.426,-0.551,0.0
11.254,-0.402,-0.581,0.0
10.651,-0.38,-0.605,0.0
10.088,-0.36,-0.626,0.0
0.0,0.0,0.0,0.0
9.22,-0.328,-0.668,0.0
12.181,-0.431,-0.542,0.0
11.502,-0.407,-0.572,0.0
10.867,-0.384,-0.597,0.0
10.289,-0.363,-0.619,0.0
0.0,0.0,0.0,0.0
9.346,-0.328,-0.66,0.0
12.414,-0.434,-0.53,0.0
11.724,-0.409,-0.561,0.0
11.097,-0.386,-0.588,0.0
10.568,-0.367,-0.616,0.0
10.024,-0.348,-0.637,0.0
9.493,-0.329,-0.652,0.0
12.663,-0.436,-0.516,0.0
11.953,-0.411,-0.55,0.0
11.303,-0.388,-0.578,0.0
10.67,-0.365,-0.602,0.0
10.161,-0.347,-0.626,0.0
9.715,-0.331,-0.649,0.0
13.049,-0.443,-0.508,0.0
12.229,-0.414,-0.539,0.0
11.519,-0.389,-0.567,0.0
10.795,-0.364,-0.589,0.0
10.278,-0.345,-0.614,0.0
9.848,-0.33,-0.64,0.0
13.272,-0.443,-0.492,0.0
12.494,-0.416,-0.527,0.0
11.805,-0.392,-0.559,0.0
11.148,-0.369,-0.587,0.0
10.597,-0.35,-0.613,0.0
10.127,-0.333,-0.639,0.0
13.585,-0.445,-0.478,0.0
12.794,-0.418,-0.516,0.0
12.02,-0.391,-0.547,0.0
11.338,-0.368,-0.576,0.0
10.761,-0.348,-0.602,0.0
10.264,-0.331,-0.628,0.0
13.89,-0.446,-0.462,0.0
13.066,-0.418,-0.502,0.0
12.29,-0.392,-0.536,0.0
11.582,-0.368,-0.567,0.0
11.007,-0.349,-0.596,0.0
10.41,-0.329,-0.617,0.0
14.286,-0.449,-0.449,0.0
13.42,-0.42,-0.491,0.0
12.517,-0.39,-0.523,0.0
11.833,-0.368,-0.557,0.0
11.166,-0.346,-0.583,0.0
10.642,-0.328,-0.611,0.0
14.705,-0.451,-0.435,0.0
13.626,-0.416,-0.473,0.0
12.823,-0.39,-0.512,0.0
12.062,-0.366,-0.545,0.0
11.473,-0.346,-0.578,0.0
10.904,-0.328,-0.606,0.0
14.977,-0.448,-0.415,0.0
14.008,-0.417,-0.46,0.0
13.155,-0.39,-0.5,0.0
12.323,-0.364,-0.534,0.0
11.747,-0.345,-0.57,0.0
11.063,-0.324,-0.594,0.0
15.744,-0.458,-0.407,0.0
14.417,-0.418,-0.447,0.0
13.456,-0.388,-0.487,0.0
12.626,-0.362,-0.524,0.0
11.881,-0.339,-0.554,0.0
11.312,-0.322,-0.587,0.0
16.075,-0.454,-0.386,0.0
14.78,-0.416,-0.431,0.0
13.787,-0.386,-0.474,0.0
12.892,-0.359,-0.511,0.0
12.177,-0.337,-0.546,0.0
11.486,-0.317,-0.575,0.0
16.552,-0.453,-0.367,0.0
15.185,-0.413,-0.415,0.0
14.123,-0.382,-0.459,0.0
13.196,-0.355,-0.499,0.0
12.423,-0.333,-0.534,0.0
11.766,-0.313,-0.567,0.0
16.949,-0.448,-0.345,0.0
15.671,-0.412,-0.4,0.0
14.407,-0.377,-0.442,0.0
13.523,-0.352,-0.487,0.0
12.673,-0.328,-0.522,0.0
11.933,-0.307,-0.553,0.0
17.495,-0.446,-0.324,0.0
16.141,-0.409,-0.383,0.0
14.861,-0.374,-0.429,0.0
13.857,-0.347,-0.473,0.0
12.934,-0.322,-0.509,0.0
12.24,-0.302,-0.545,0.0
18.167,-0.445,-0.304,0.0
16.566,-0.403,-0.363,0.0
15.301,-0.37,-0.414,0.0
14.168,-0.34,-0.459,0.0
13.168,-0.314,-0.495,0.0
12.432,-0.294,-0.532,0.0
19.078,-0.448,-0.285,0.0
17.008,-0.397,-0.342,0.0
15.751,-0.364,-0.398,0.0
14.545,-0.334,-0.445,0.0
13.573,-0.309,-0.486,0.0
12.762,-0.289,-0.523,0.0
19.695,-0.441,-0.259,0.0
17.556,-0.39,-0.322,0.0
16.227,-0.358,-0.381,0.0
14.842,-0.325,-0.427,0.0
13.805,-0.3,-0.469,0.0
12.966,-0.279,-0.508,0.0
20.726,-0.442,-0.236,0.0
18.227,-0.385,-0.302,0.0
16.659,-0.349,-0.362,0.0
15.331,-0.318,-0.414,0.0
14.265,-0.293,-0.46,0.0
13.366,-0.272,-0.5,0.0
22.007,-0.444,-0.211,0.0
19.048,-0.381,-0.282,0.0
17.096,-0.338,-0.342,0.0
15.848,-0.311,-0.401,0.0
14.583,-0.283,-0.444,0.0
13.609,-0.261,-0.486,0.0
22.812,-0.434,-0.179,0.0
19.753,-0.371,-0.258,0.0
17.648,-0.328,-0.322,0.0
16.233,-0.299,-0.382,0.0
14.949,-0.272,-0.43,0.0
13.899,-0.25,-0.472,0.0
23.712,-0.422,-0.145,0.0
20.827,-0.366,-0.236,0.0
18.211,-0.316,-0.301,0.0
16.626,-0.285,-0.363,0.0
15.421,-0.262,-0.417,0.0
14.233,-0.238,-0.459,0.0
24.773,-0.41,-0.109,0.0
21.978,-0.359,-0.211,0.0
18.975,-0.306,-0.281,0.0
17.084,-0.272,-0.344,0.0
15.851,-0.249,-0.401,0.0
14.598,-0.226,-0.446,0.0
25.465,-0.389,-0.069,0.0
22.994,-0.346,-0.182,0.0
19.641,-0.291,-0.258,0.0
17.646,-0.258,-0.325,0.0
16.242,-0.234,-0.384,0.0
14.951,-0.212,-0.431,0.0
26.434,-0.369,-0.027,0.0
23.416,-0.322,-0.146,1.0
20.63,-0.279,-0.236,0.0
18.198,-0.242,-0.305,0.0
16.614,-0.217,-0.365,0.0
15.449,-0.198,-0.42,0.0
27.453,-0.347,0.016,0.0
24.785,-0.307,-0.114,0.0
21.949,-0.267,-0.215,0.0
18.936,-0.226,-0.286,0.0
17.011,-0.199,-0.346,0.0
15.827,-0.181,-0.404,0.0
28.483,-0.32,0.064,1.0
25.371,-0.279,-0.075,0.0
22.799,-0.246,-0.186,0.0
19.704,-0.207,-0.266,0.0
17.518,-0.18,-0.328,0.0
16.218,-0.163,-0.388,0.0
28.793,-0.283,0.111,3.0
26.407,-0.253,-0.035,0.0
23.726,-0.221,-0.155,0.0
20.5,-0.186,-0.243,0.0
18.13,-0.16,-0.31,0.0
16.602,-0.143,-0.371,0.0
28.849,-0.242,0.158,0.0
27.393,-0.223,0.006,0.0
24.226,-0.191,-0.12,0.0
21.702,-0.166,-0.223,0.0
18.783,-0.139,-0.292,0.0
16.98,-0.121,-0.352,0.0
31.648,-0.219,0.223,1.0
28.586,-0.19,0.051,3.0
25.092,-0.161,-0.086,0.0
22.279,-0.137,-0.195,0.0
19.377,-0.115,-0.271,0.0
17.396,-0.098,-0.334,0.0
33.05,-0.179,0.284,0.0
28.796,-0.149,0.096,7.0
26.346,-0.129,-0.049,0.0
23.211,-0.108,-0.167,0.0
20.331,-0.089,-0.253,0.0
18.014,-0.074,-0.319,0.0
33.908,-0.132,0.343,0.0
28.853,-0.105,0.14,2.0
27.053,-0.091,-0.01,0.0
23.903,-0.074,-0.136,0.0
21.202,-0.061,-0.232,0.0
18.465,-0.048,-0.299,0.0
36.321,-0.085,0.421,0.0
31.345,-0.065,0.199,1.0
28.069,-0.051,0.031,1.0
24.948,-0.039,-0.106,0.0
21.751,-0.028,-0.206,0.0
19.215,-0.02,-0.283,0.0
0.0,0.0,0.0,0.0
33.112,-0.017,0.259,0.0
28.604,-0.007,0.073,1.0
25.671,0.0,-0.071,0.0
22.987,0.006,-0.185,0.0
19.85,0.01,-0.264,0.0
0.0,0.0,0.0,0.0
33.759,0.036,0.311,0.0
28.814,0.038,0.114,0.0
26.436,0.042,-0.036,0.0
23.55,0.044,-0.156,1.0
20.911,0.044,-0.249,1.0
41.923,0.102,0.667,0.0
35.277,0.095,0.375,0.0
30.323,0.09,0.163,0.0
27.168,0.088,0.0,0.0
24.367,0.085,-0.128,0.0
21.307,0.08,-0.224,4.0
0.0,0.0,0.0,0.0
36.749,0.159,0.441,0.0
31.489,0.145,0.211,0.0
28.018,0.137,0.037,1.0
25.171,0.13,-0.098,0.0
22.236,0.121,-0.204,2.0
0.0,0.0,0.0,0.0
38.745,0.233,0.517,0.0
32.685,0.205,0.263,0.0
28.731,0.188,0.076,1.0
25.881,0.177,-0.067,0.0
22.668,0.161,-0.178,0.0
0.0,0.0,0.0,0.0
0.0,0.0,0.0,0.0
33.895,0.271,0.318,0.0
28.875,0.239,0.115,4.0
26.55,0.227,-0.034,0.0
23.561,0.208,-0.155,0.0
0.0,0.0,0.0,0.0
0.0,0.0,0.0,0.0
35.745,0.347,0.38,0.0
28.899,0.289,0.151,0.0
27.207,0.28,0.0,0.0
24.381,0.258,-0.13,0.0
57.665,0.628,1.298,0.0
0.0,0.0,0.0,0.0
36.23,0.415,0.431,0.0
31.663,0.372,0.206,0.0
28.297,0.341,0.033,1.0
25.069,0.309,-0.102,0.0
57.487,0.728,1.365,2.0
0.0,0.0,0.0,0.0
38.215,0.505,0.501,0.0
32.388,0.438,0.249,0.0
28.816,0.398,0.069,4.0
25.627,0.361,-0.074,0.0
55.762,0.805,1.391,0.0
0.0,0.0,0.0,0.0
40.512,0.608,0.579,0.0
33.876,0.518,0.3,0.0
28.864,0.45,0.102,4.0
26.233,0.416,-0.046,0.0
55.185,0.895,1.44,0.0
54.843,0.906,1.139,0.0
0.0,0.0,0.0,0.0
34.498,0.59,0.345,0.0
28.897,0.502,0.135,0.0
26.785,0.473,-0.016,0.0
54.529,0.983,1.484,0.0
54.74,1.003,1.198,0.0
0.0,0.0,0.0,0.0
35.899,0.678,0.399,0.0
31.139,0.598,0.18,0.0
27.315,0.532,0.012,0.0
54.319,1.078,1.538,1.0
54.53,1.098,1.252,0.0
0.0,0.0,0.0,0.0
37.284,0.773,0.454,0.0
31.775,0.668,0.217,0.0
28.504,0.608,0.043,1.0
54.248,1.176,1.593,0.0
54.179,1.191,1.301,0.0
47.816,1.065,0.893,1.0
0.0,0.0,0.0,0.0
32.901,0.752,0.259,0.0
28.834,0.668,0.073,3.0
54.274,1.278,1.649,1.0
54.165,1.291,1.356,0.0
57.523,1.389,1.132,4.0
40.018,0.978,0.569,0.0
33.994,0.841,0.301,0.0
28.917,0.724,0.101,5.0
54.21,1.378,1.701,1.0
54.067,1.391,1.407,0.0
56.767,1.477,1.173,5.0
0.0,0.0,0.0,0.0
34.579,0.92,0.34,1.0
28.975,0.78,0.129,4.0
54.224,1.48,1.753,3.0
54.076,1.492,1.458,5.0
56.429,1.574,1.218,0.0
0.0,0.0,0.0,0.0
35.524,1.012,0.381,0.0
29.021,0.835,0.156,1.0
54.285,1.584,1.804,0.0
54.065,1.594,1.506,4.0
54.348,1.619,1.222,0.0
45.988,1.383,0.782,0.0
37.413,1.137,0.435,0.0
31.413,0.964,0.196,0.0
0.0,0.0,0.0,0.0
54.093,1.698,1.554,16.0
54.332,1.722,1.268,4.0
48.004,1.535,0.857,0.0
37.695,1.217,0.47,0.0
32.284,1.052,0.229,0.0
51.036,1.684,1.784,2.0
50.954,1.697,1.507,1.0
0.0,0.0,0.0,0.0
50.662,1.717,0.946,0.0
0.0,0.0,0.0,0.0
32.844,1.133,0.259,0.0
50.501,1.764,1.806,3.0
50.301,1.772,1.527,3.0
50.169,1.782,1.252,1.0
50.686,1.816,0.986,1.0
40.56,1.465,0.57,0.0
33.503,1.221,0.29,0.0
49.998,1.843,1.826,2.0
49.652,1.845,1.545,3.0
49.589,1.858,1.275,3.0
50.578,1.91,1.021,2.0
0.0,0.0,0.0,0.0
33.909,1.301,0.318,0.0
49.482,1.92,1.843,2.0
49.002,1.916,1.56,2.0
49.03,1.932,1.295,2.0
49.231,1.954,1.029,0.0
0.0,0.0,0.0,0.0
35.421,1.427,0.356,0.0
48.882,1.991,1.854,2.0
48.575,1.992,1.579,3.0
48.421,2.0,1.311,5.0
48.409,2.014,1.043,0.0
46.429,1.945,0.749,0.0
36.313,1.532,0.389,0.0
48.659,2.075,1.877,2.0
48.048,2.063,1.592,2.0
47.966,2.074,1.329,2.0
0.0,0.0,0.0,0.0
47.747,2.092,0.799,0.0
36.521,1.611,0.413,0.0
48.49,2.162,1.9,9.0
47.685,2.139,1.609,8.0
47.525,2.146,1.345,12.0
47.475,2.158,1.08,9.0
47.807,2.187,0.828,1.0
37.333,1.72,0.443,0.0
0.0,0.0,0.0,0.0
47.68,2.232,1.635,43.0
47.412,2.233,1.368,2.0
47.383,2.247,1.104,19.0
50.442,2.407,0.901,1.0
0.0,0.0,0.0,0.0
0.0,0.0,0.0,0.0
47.698,2.326,1.661,150.0
47.345,2.323,1.391,1.0
47.334,2.337,1.127,20.0
47.67,2.367,0.875,0.0
0.0,0.0,0.0,0.0
0.0,0.0,0.0,0.0
47.605,2.415,1.681,156.0
47.357,2.416,1.413,14.0
47.308,2.427,1.149,25.0
47.333,2.442,0.891,1.0
39.68,2.059,0.53,0.0
0.0,0.0,0.0,0.0
47.508,2.502,1.699,6.0
47.294,2.504,1.432,12.0
47.273,2.517,1.168,25.0
47.356,2.535,0.911,1.0
0.0,0.0,0.0,0.0
0.0,0.0,0.0,0.0
47.663,2.602,1.723,3.0
47.25,2.593,1.449,13.0
47.262,2.607,1.186,21.0
47.268,2.621,0.927,3.0
41.997,2.341,0.594,0.0
0.0,0.0,0.0,0.0
47.718,2.698,1.743,3.0
47.233,2.683,1.465,17.0
47.252,2.698,1.202,19.0
47.258,2.712,0.943,4.0
47.83,2.758,0.692,2.0
0.0,0.0,0.0,0.0
47.803,2.795,1.761,2.0
47.206,2.773,1.48,20.0
47.227,2.788,1.216,20.0
47.269,2.803,0.957,6.0
47.653,2.84,0.703,3.0
0.0,0.0,0.0,0.0
47.877,2.891,1.777,2.0
47.236,2.865,1.493,16.0
47.217,2.877,1.228,165.0
47.245,2.892,0.969,6.0
43.394,2.669,0.652,0.0
0.0,0.0,0.0,0.0
47.951,2.988,1.792,1.0
47.243,2.956,1.505,14.0
47.224,2.967,1.239,164.0
47.265,2.983,0.98,4.0
47.76,3.027,0.727,0.0
0.0,0.0,0.0,0.0
47.929,3.076,1.801,1.0
47.266,3.046,1.514,14.0
47.228,3.056,1.248,163.0
47.297,3.074,0.989,4.0
47.863,3.124,0.737,0.0
0.0,0.0,0.0,0.0
48.187,3.183,1.818,0.0
47.314,3.138,1.523,9.0
47.243,3.146,1.255,165.0
47.272,3.16,0.995,3.0
50.979,3.423,0.792,3.0
0.0,0.0,0.0,0.0
48.344,3.284,1.83,0.0
47.325,3.228,1.529,13.0
47.259,3.235,1.261,164.0
47.347,3.254,1.001,3.0
50.922,3.513,0.796,0.0
0.0,0.0,0.0,0.0
48.325,3.373,1.833,0.0
47.356,3.318,1.534,12.0
47.279,3.325,1.265,161.0
47.351,3.342,1.004,2.0
52.057,3.688,0.816,0.0
0.0,0.0,0.0,0.0
48.311,3.461,1.835,0.0
47.399,3.409,1.537,11.0
47.293,3.413,1.267,24.0
47.355,3.431,1.006,1.0
51.628,3.753,0.81,0.0
49.122,3.598,2.139,2.0
48.357,3.554,1.837,0.0
47.437,3.499,1.538,8.0
47.326,3.503,1.267,19.0
47.359,3.517,1.005,1.0
51.167,3.813,0.802,1.0
81.811,6.142,3.56,19.0
48.47,3.651,1.839,0.0
47.605,3.597,1.542,11.0
47.371,3.591,1.266,16.0
47.423,3.607,1.004,0.0
47.875,3.654,0.748,0.0
81.876,6.294,3.558,30.0
48.904,3.771,1.852,13.0
47.576,3.68,1.537,2.0
47.468,3.684,1.265,17.0
47.434,3.693,1.0,1.0
48.016,3.75,0.745,4.0
81.909,6.444,3.551,30.0
48.897,3.859,1.847,16.0
47.853,3.787,1.541,20.0
47.569,3.777,1.262,12.0
47.528,3.785,0.996,7.0
47.966,3.832,0.738,4.0
81.868,6.587,3.538,19.0
81.297,6.56,3.059,28.0
47.805,3.869,1.532,5.0
47.682,3.87,1.257,0.0
47.594,3.875,0.989,6.0
49.134,4.012,0.748,25.0
62.711,5.155,2.699,7.0
62.531,5.155,2.341,10.0
62.601,5.175,1.994,6.0
47.685,3.953,1.248,4.0
51.263,4.262,1.055,5.0
49.223,4.105,0.738,3.0
52.14,4.377,2.233,36.0
52.165,4.391,1.942,26.0
52.2,4.405,1.651,24.0
52.159,4.414,1.353,17.0
0.0,0.0,0.0,0.0
48.836,4.157,0.721,1.0
52.087,4.463,2.217,72.0
52.099,4.475,1.926,65.0
52.127,4.489,1.635,57.0
52.106,4.499,1.337,24.0
49.129,4.253,0.986,2.0
48.426,4.203,0.701,7.0
52.098,4.551,2.202,52.0
52.09,4.561,1.91,45.0
52.132,4.576,1.619,56.0
52.069,4.582,1.32,19.0
48.747,4.3,0.963,1.0
48.266,4.269,0.683,3.0
52.191,4.645,2.19,5.0
52.137,4.651,1.895,24.0
52.188,4.666,1.604,21.0
52.051,4.666,1.302,19.0
48.204,4.332,0.936,2.0
47.699,4.297,0.658,1.0
60.622,5.495,2.522,24.0
61.893,5.623,2.227,36.0
62.167,5.661,1.888,18.0
52.098,4.755,1.284,16.0
47.923,4.384,0.912,3.0
47.364,4.344,0.636,1.0
60.441,5.576,2.491,33.0
60.834,5.625,2.164,35.0
0.0,0.0,0.0,0.0
52.134,4.842,1.264,10.0
47.655,4.436,0.887,4.0
47.104,4.395,0.612,0.0
60.088,5.64,2.45,35.0
61.019,5.739,2.145,19.0
62.466,5.888,1.844,14.0
52.096,4.921,1.239,6.0
46.987,4.448,0.853,3.0
40.733,3.865,0.511,0.0
59.658,5.693,2.405,35.0
60.541,5.788,2.1,26.0
62.715,6.009,1.822,12.0
52.006,4.993,1.212,6.0
46.692,4.492,0.825,4.0
40.383,3.893,0.487,0.0
59.174,5.738,2.357,31.0
60.519,5.879,2.069,17.0
60.462,5.884,1.726,10.0
51.619,5.034,1.177,5.0
46.384,4.532,0.796,8.0
39.665,3.883,0.457,0.0
59.055,5.814,2.321,28.0
59.834,5.901,2.014,34.0
60.352,5.964,1.691,8.0
51.47,5.096,1.146,6.0
46.05,4.568,0.765,13.0
39.64,3.94,0.436,0.0
59.061,5.902,2.289,28.0
60.05,6.011,1.987,34.0
59.888,6.006,1.643,22.0
51.393,5.163,1.115,4.0
45.691,4.599,0.733,6.0
39.378,3.971,0.409,0.0
59.098,5.99,2.255,23.0
59.772,6.069,1.942,34.0
59.839,6.087,1.606,29.0
51.338,5.231,1.083,1.0
45.404,4.635,0.701,4.0
0.0,0.0,0.0,0.0
59.281,6.093,2.225,27.0
59.384,6.113,1.893,33.0
59.435,6.129,1.558,26.0
46.399,4.792,0.949,4.0
45.158,4.672,0.668,8.0
36.624,3.796,0.335,0.0
59.215,6.168,2.184,24.0
59.605,6.218,1.861,11.0
59.443,6.211,1.518,8.0
45.987,4.812,0.91,15.0
45.061,4.724,0.636,4.0
0.0,0.0,0.0,0.0
59.228,6.249,2.144,21.0
59.414,6.278,1.814,25.0
58.863,6.229,1.464,1.0
45.676,4.841,0.872,14.0
44.901,4.767,0.603,2.0
34.226,3.639,0.266,0.0
59.327,6.338,2.106,24.0
59.606,6.376,1.777,33.0
51.53,5.52,1.244,1.0
45.469,4.878,0.836,13.0
44.659,4.798,0.567,1.0
33.523,3.607,0.236,0.0
59.212,6.4,2.058,22.0
59.818,6.474,1.739,29.0
53.162,5.762,1.244,1.0
45.173,4.903,0.796,7.0
42.217,4.589,0.505,1.0
32.571,3.546,0.204,0.0
59.204,6.473,2.013,22.0
59.828,6.55,1.694,16.0
46.4,5.086,1.05,6.0
44.818,4.919,0.755,6.0
41.641,4.577,0.465,0.0
31.929,3.515,0.175,1.0
63.754,7.047,2.117,12.0
60.499,6.696,1.665,31.0
46.238,5.124,1.01,12.0
44.642,4.953,0.717,5.0
37.946,4.216,0.393,0.0
29.451,3.277,0.138,1.0
59.456,6.642,1.926,16.0
59.993,6.71,1.602,22.0
46.003,5.151,0.966,8.0
44.512,4.99,0.678,5.0
37.707,4.233,0.359,0.0
29.381,3.303,0.113,3.0
59.387,6.702,1.873,21.0
58.773,6.64,1.52,7.0
45.727,5.172,0.922,11.0
44.382,5.025,0.638,5.0
35.474,4.022,0.308,0.0
29.356,3.332,0.088,6.0
59.481,6.777,1.825,20.0
46.43,5.296,1.16,18.0
45.588,5.205,0.88,11.0
43.769,5.003,0.59,3.0
34.724,3.974,0.271,1.0
29.286,3.356,0.062,4.0
46.422,5.338,1.383,29.0
46.379,5.338,1.117,16.0
45.418,5.233,0.835,6.0
42.958,4.955,0.541,1.0
33.421,3.859,0.231,1.0
28.979,3.35,0.035,1.0
46.386,5.381,1.339,31.0
46.336,5.38,1.074,19.0
44.586,5.182,0.779,3.0
40.652,4.729,0.475,1.0
32.505,3.786,0.194,1.0
27.447,3.2,0.007,0.0
46.365,5.424,1.296,32.0
46.169,5.406,1.027,13.0
44.291,5.191,0.732,4.0
40.759,4.781,0.437,0.0
32.088,3.768,0.161,1.0
26.741,3.143,-0.017,0.0
46.352,5.466,1.251,35.0
45.992,5.428,0.979,9.0
44.191,5.22,0.688,5.0
37.151,4.392,0.362,0.0
31.57,3.736,0.128,0.0
26.213,3.105,-0.042,1.0
46.351,5.507,1.206,34.0
45.739,5.439,0.929,11.0
44.113,5.25,0.644,5.0
36.74,4.376,0.323,0.0
29.333,3.497,0.09,1.0
25.933,3.094,-0.068,1.0
46.353,5.547,1.16,26.0
45.552,5.455,0.88,11.0
44.076,5.282,0.599,1.0
35.516,4.26,0.276,0.0
29.215,3.507,0.06,1.0
24.788,2.978,-0.09,0.0
46.338,5.583,1.113,15.0
45.14,5.442,0.826,5.0
42.67,5.148,0.536,0.0
33.306,4.021,0.225,0.0
28.676,3.465,0.03,1.0
24.127,2.918,-0.112,2.0
46.296,5.613,1.065,11.0
44.147,5.355,0.763,3.0
42.178,5.12,0.487,0.0
32.634,3.964,0.187,0.0
27.601,3.355,0.0,0.0
23.832,2.9,-0.135,3.0
46.145,5.627,1.013,10.0
44.02,5.372,0.714,5.0
0.0,0.0,0.0,0.0
31.928,3.901,0.15,0.0
26.443,3.233,-0.026,1.0
23.373,2.86,-0.157,1.0
45.806,5.617,0.957,15.0
43.976,5.395,0.668,5.0
36.473,4.477,0.345,0.0
29.394,3.611,0.107,0.0
26.075,3.205,-0.054,1.0
22.658,2.787,-0.176,0.0
45.614,5.622,0.905,11.0
43.886,5.412,0.619,3.0
36.072,4.451,0.302,0.0
29.287,3.615,0.075,1.0
25.641,3.167,-0.081,1.0
22.091,2.731,-0.196,0.0
45.36,5.618,0.851,5.0
42.128,5.219,0.549,1.0
33.841,4.195,0.247,0.0
28.883,3.582,0.042,1.0
24.162,2.998,-0.102,1.0
21.543,2.675,-0.214,0.0
44.033,5.477,0.777,3.0
42.019,5.228,0.501,1.0
0.0,0.0,0.0,0.0
28.222,3.515,0.011,1.0
23.852,2.972,-0.127,2.0
20.814,2.595,-0.23,0.0
43.912,5.483,0.727,6.0
39.593,4.946,0.429,0.0
31.583,3.947,0.161,0.0
26.686,3.336,-0.018,0.0
23.47,2.935,-0.151,2.0
20.505,2.566,-0.249,0.0
43.874,5.498,0.678,6.0
39.253,4.921,0.382,0.0
29.454,3.694,0.117,3.0
26.094,3.274,-0.047,1.0
22.662,2.844,-0.171,0.0
20.022,2.514,-0.266,0.0
43.813,5.508,0.628,4.0
35.772,4.498,0.308,0.0
29.393,3.697,0.084,6.0
25.735,3.238,-0.075,0.0
22.374,2.816,-0.193,0.0
19.499,2.456,-0.28,0.0
42.163,5.316,0.558,1.0
35.484,4.474,0.266,0.0
29.138,3.675,0.051,7.0
24.295,3.065,-0.098,0.0
21.491,2.712,-0.21,0.0
19.232,2.428,-0.298,0.0
41.755,5.277,0.505,1.0
0.0,0.0,0.0,0.0
28.087,3.551,0.017,2.0
23.784,3.008,-0.123,1.0
20.973,2.653,-0.229,0.0
18.611,2.355,-0.309,0.0
39.195,4.964,0.43,0.0
31.61,4.004,0.165,1.0
27.343,3.464,-0.013,1.0
23.455,2.972,-0.148,1.0
20.519,2.601,-0.247,0.0
18.263,2.315,-0.324,0.0
38.962,4.943,0.383,0.0
29.486,3.741,0.121,3.0
26.193,3.323,-0.042,1.0
22.617,2.87,-0.168,1.0
19.998,2.538,-0.263,0.0
17.913,2.274,-0.339,0.0
35.724,4.538,0.31,0.0
29.407,3.736,0.087,7.0
25.836,3.282,-0.071,0.0
22.307,2.834,-0.192,0.0
19.52,2.481,-0.279,0.0
17.594,2.236,-0.353,0.0
35.622,4.529,0.269,0.0
29.141,3.705,0.053,4.0
24.656,3.135,-0.096,0.0
21.343,2.714,-0.207,0.0
19.256,2.449,-0.297,0.0
17.218,2.19,-0.365,0.0
32.922,4.188,0.211,0.0
28.048,3.568,0.018,1.0
23.769,3.024,-0.12,1.0
20.959,2.666,-0.228,0.0
18.567,2.362,-0.308,0.0
16.928,2.154,-0.378,0.0
31.54,4.013,0.166,1.0
27.197,3.46,-0.012,1.0
23.431,2.981,-0.145,1.0
20.407,2.596,-0.245,0.0
18.317,2.331,-0.325,0.0
16.748,2.131,-0.393,0.0
29.483,3.751,0.121,5.0
26.179,3.33,-0.042,1.0
22.61,2.876,-0.166,1.0
19.81,2.52,-0.261,0.0
18.004,2.29,-0.34,0.0
16.352,2.08,-0.403,0.0
29.428,3.742,0.088,6.0
25.83,3.284,-0.07,0.0
22.286,2.833,-0.188,0.0
19.44,2.471,-0.278,0.0
17.527,2.228,-0.351,0.0
15.97,2.03,-0.411,0.0
29.136,3.702,0.054,5.0
24.57,3.121,-0.094,0.0
21.321,2.708,-0.204,0.0
19.184,2.436,-0.296,0.0
17.232,2.188,-0.365,0.0
15.762,2.001,-0.424,0.0
27.82,3.53,0.02,2.0
23.784,3.017,-0.118,1.0
20.91,2.652,-0.224,0.0
18.573,2.355,-0.307,0.0
16.959,2.15,-0.378,0.0
15.479,1.963,-0.434,0.0
27.328,3.462,-0.01,1.0
23.475,2.973,-0.143,1.0
20.515,2.598,-0.243,0.0
18.202,2.304,-0.322,0.0
16.693,2.113,-0.391,0.0
15.301,1.936,-0.446,0.0
26.168,3.308,-0.039,1.0
22.614,2.858,-0.163,1.0
20.094,2.539,-0.26,0.0
17.908,2.262,-0.336,0.0
16.337,2.063,-0.4,0.0
14.957,1.889,-0.452,0.0
25.723,3.245,-0.067,1.0
22.37,2.821,-0.186,0.0
19.544,2.463,-0.275,0.0
17.576,2.215,-0.349,0.0
16.043,2.021,-0.411,0.0
14.656,1.846,-0.459,0.0
24.25,3.05,-0.09,0.0
21.544,2.709,-0.203,0.0
19.221,2.416,-0.291,0.0
17.229,2.165,-0.362,0.0
15.736,1.977,-0.42,0.0
14.505,1.822,-0.47,0.0
23.831,2.988,-0.114,2.0
20.971,2.628,-0.22,0.0
18.696,2.342,-0.304,0.0
16.902,2.117,-0.373,0.0
15.496,1.94,-0.431,0.0
14.28,1.787,-0.479,0.0
23.552,2.943,-0.138,2.0
20.547,2.566,-0.238,0.0
18.34,2.29,-0.317,0.0
16.678,2.081,-0.386,0.0
15.328,1.912,-0.442,0.0
14.02,1.748,-0.485,0.0
22.803,2.839,-0.158,1.0
20.198,2.513,-0.256,0.0
17.955,2.233,-0.33,0.0
16.409,2.04,-0.397,0.0
15.087,1.875,-0.451,0.0
13.865,1.722,-0.494,0.0
22.507,2.79,-0.179,0.0
19.571,2.425,-0.268,0.0
17.636,2.184,-0.342,0.0
16.036,1.985,-0.405,0.0
14.86,1.838,-0.46,0.0
13.67,1.69,-0.501,0.0
21.733,2.682,-0.196,0.0
19.292,2.379,-0.284,0.0
17.343,2.137,-0.354,0.0
15.844,1.951,-0.416,0.0
14.653,1.804,-0.469,0.0
13.446,1.655,-0.507,0.0
21.048,2.584,-0.211,0.0
18.832,2.31,-0.296,0.0
17.05,2.091,-0.366,0.0
15.599,1.912,-0.425,0.0
14.289,1.75,-0.472,0.0
13.305,1.629,-0.515,0.0
20.703,2.528,-0.228,0.0
18.45,2.251,-0.309,0.0
16.806,2.05,-0.377,0.0
15.395,1.876,-0.435,0.0
14.15,1.723,-0.481,0.0
13.161,1.602,-0.523,0.0
20.457,2.484,-0.246,0.0
18.161,2.203,-0.322,0.0
16.506,2.001,-0.387,0.0
15.129,1.833,-0.443,0.0
13.958,1.69,-0.488,0.0
13.049,1.579,-0.531,0.0
19.922,2.404,-0.259,0.0
17.817,2.148,-0.333,0.0
16.215,1.954,-0.396,0.0
14.975,1.803,-0.452,0.0
13.781,1.658,-0.495,0.0
12.84,1.544,-0.535,0.0
19.565,2.346,-0.273,0.0
17.517,2.098,-0.344,0.0
15.94,1.908,-0.404,0.0
14.679,1.756,-0.457,0.0
13.572,1.622,-0.5,0.0
12.717,1.519,-0.542,0.0
19.281,2.296,-0.287,0.0
17.229,2.049,-0.354,0.0
15.781,1.876,-0.415,0.0
14.451,1.716,-0.464,0.0
13.408,1.591,-0.507,0.0
12.561,1.489,-0.546,0.0
18.833,2.226,-0.297,0.0
17.029,2.011,-0.366,0.0
15.59,1.839,-0.424,0.0
14.373,1.694,-0.474,0.0
13.352,1.573,-0.516,0.0
12.475,1.468,-0.554,0.0
18.481,2.168,-0.308,0.0
16.783,1.967,-0.375,0.0
15.371,1.799,-0.431,0.0
14.068,1.645,-0.476,0.0
13.109,1.532,-0.518,0.0
12.41,1.449,-0.562,0.0
18.143,2.111,-0.318,0.0
16.612,1.931,-0.385,0.0
15.173,1.762,-0.439,0.0
13.899,1.612,-0.482,0.0
13.046,1.512,-0.527,0.0
12.209,1.414,-0.563,0.0
17.841,2.058,-0.327,0.0
16.309,1.88,-0.392,0.0
15.006,1.728,-0.446,0.0
13.775,1.584,-0.489,0.0
12.882,1.48,-0.531,0.0
12.126,1.392,-0.569,0.0
17.551,2.007,-0.336,0.0
16.041,1.832,-0.399,0.0
14.777,1.686,-0.451,0.0
13.656,1.556,-0.496,0.0
12.767,1.453,-0.536,0.0
12.006,1.365,-0.573,0.0
17.356,1.966,-0.346,0.0
15.967,1.807,-0.409,0.0
14.683,1.659,-0.46,0.0
13.476,1.521,-0.5,0.0
12.61,1.422,-0.54,0.0
11.848,1.335,-0.575,0.0
17.174,1.927,-0.356,0.0
15.716,1.761,-0.415,0.0
14.605,1.634,-0.468,0.0
13.383,1.496,-0.507,0.0
12.571,1.403,-0.547,0.0
11.721,1.307,-0.577,0.0
16.985,1.886,-0.364,0.0
15.535,1.723,-0.421,0.0
14.304,1.584,-0.469,0.0
13.255,1.466,-0.511,0.0
12.468,1.377,-0.552,0.0
11.624,1.283,-0.581,0.0
16.799,1.846,-0.372,0.0
15.425,1.692,-0.429,0.0
14.158,1.551,-0.474,0.0
13.13,1.437,-0.516,0.0
12.339,1.348,-0.555,0.0
11.588,1.265,-0.587,0.0
16.519,1.795,-0.377,0.0
15.151,1.644,-0.432,0.0
14.077,1.525,-0.481,0.0
13.011,1.408,-0.52,0.0
12.225,1.321,-0.558,0.0
11.482,1.239,-0.589,0.0
16.347,1.756,-0.384,0.0
15.051,1.614,-0.439,0.0
13.879,1.486,-0.483,0.0
12.941,1.384,-0.525,0.0
12.167,1.299,-0.563,0.0
11.412,1.217,-0.593,0.0
16.175,1.717,-0.39,0.0
14.911,1.58,-0.444,0.0
13.731,1.453,-0.486,0.0
12.858,1.359,-0.53,0.0
12.085,1.275,-0.566,0.0
11.337,1.195,-0.595,0.0
16.031,1.681,-0.396,0.0
14.761,1.545,-0.448,0.0
13.651,1.427,-0.491,0.0
12.767,1.332,-0.533,0.0
11.963,1.246,-0.567,0.0
11.282,1.173,-0.599,0.0
15.915,1.647,-0.402,0.0
14.619,1.51,-0.452,0.0
13.601,1.403,-0.497,0.0
12.621,1.3,-0.534,0.0
11.959,1.229,-0.574,0.0
11.221,1.152,-0.602,0.0
15.834,1.617,-0.408,0.0
14.552,1.483,-0.457,0.0
13.526,1.377,-0.501,0.0
12.596,1.28,-0.539,0.0
11.853,1.202,-0.574,0.0
11.108,1.125,-0.601,0.0
15.691,1.581,-0.412,0.0
14.447,1.452,-0.461,0.0
13.38,1.343,-0.502,0.0
12.582,1.26,-0.545,0.0
11.774,1.177,-0.576,0.0
11.063,1.104,-0.604,0.0
15.615,1.55,-0.417,0.0
14.342,1.421,-0.464,0.0
13.324,1.318,-0.506,0.0
12.513,1.235,-0.547,0.0
11.697,1.153,-0.578,0.0
11.017,1.084,-0.606,0.0
15.482,1.515,-0.42,0.0
14.217,1.388,-0.466,0.0
13.227,1.289,-0.508,0.0
12.364,1.203,-0.546,0.0
11.606,1.127,-0.578,0.0
10.968,1.063,-0.608,0.0
15.402,1.484,-0.424,0.0
14.168,1.362,-0.47,0.0
13.156,1.262,-0.51,0.0
12.387,1.186,-0.551,0.0
11.588,1.108,-0.581,0.0
10.891,1.039,-0.607,0.0
15.289,1.45,-0.426,0.0
14.095,1.334,-0.472,0.0
13.171,1.244,-0.515,0.0
12.321,1.161,-0.552,0.0
11.554,1.087,-0.583,0.0
10.892,1.023,-0.611,0.0
15.209,1.42,-0.429,0.0
14.031,1.307,-0.474,0.0
13.11,1.218,-0.517,0.0
12.232,1.134,-0.552,0.0
11.529,1.067,-0.585,0.0
10.865,1.003,-0.612,0.0
15.094,1.385,-0.43,0.0
13.985,1.281,-0.477,0.0
13.041,1.191,-0.517,0.0
12.207,1.113,-0.554,0.0
11.498,1.046,-0.587,0.0
10.818,0.982,-0.613,0.0
15.05,1.357,-0.432,0.0
13.889,1.25,-0.477,0.0
12.997,1.167,-0.519,0.0
12.196,1.092,-0.556,0.0
11.486,1.027,-0.588,0.0
10.8,0.963,-0.614,0.0
15.007,1.33,-0.434,0.0
13.902,1.229,-0.48,0.0
12.956,1.142,-0.52,0.0
12.219,1.075,-0.56,0.0
11.427,1.003,-0.587,0.0
10.786,0.944,-0.615,0.0
14.902,1.296,-0.434,0.0
13.81,1.198,-0.479,0.0
12.908,1.117,-0.52,0.0
12.176,1.051,-0.56,0.0
11.414,0.983,-0.588,0.0
10.759,0.924,-0.615,0.0
14.865,1.269,-0.435,0.0
13.808,1.175,-0.481,0.0
12.885,1.094,-0.52,0.0
12.157,1.029,-0.56,0.0
11.405,0.963,-0.589,0.0
10.746,0.905,-0.615,0.0
14.909,1.248,-0.437,0.0
13.79,1.151,-0.481,0.0
12.908,1.074,-0.522,0.0
12.127,1.007,-0.56,0.0
11.37,0.941,-0.588,0.0
10.767,0.889,-0.617,0.0
14.829,1.216,-0.436,0.0
13.776,1.126,-0.481,0.0
12.892,1.051,-0.522,0.0
12.121,0.986,-0.56,0.0
11.418,0.926,-0.591,0.0
10.747,0.869,-0.616,0.0
14.913,1.198,-0.438,0.0
13.812,1.106,-0.483,0.0
12.886,1.029,-0.522,0.0
12.141,0.967,-0.561,0.0
11.34,0.9,-0.587,0.0
10.758,0.852,-0.616,0.0
14.88,1.17,-0.437,0.0
13.802,1.082,-0.482,0.0
12.869,1.006,-0.521,0.0
12.115,0.944,-0.559,0.0
11.354,0.882,-0.587,0.0
10.76,0.833,-0.616,0.0
14.861,1.142,-0.436,0.0
13.776,1.056,-0.48,0.0
12.853,0.982,-0.519,0.0
12.115,0.922,-0.558,0.0
11.413,0.866,-0.589,0.0
10.738,0.812,-0.614,0.0
14.94,1.123,-0.436,0.0
13.826,1.035,-0.48,0.0
12.86,0.96,-0.518,0.0
12.152,0.904,-0.558,0.0
11.388,0.844,-0.586,0.0
10.772,0.796,-0.614,0.0
14.986,1.099,-0.436,0.0
13.829,1.011,-0.478,0.0
12.856,0.937,-0.516,0.0
12.097,0.878,-0.553,0.0
11.358,0.822,-0.583,0.0
10.81,0.78,-0.614,0.0
14.968,1.072,-0.432,0.0
13.916,0.993,-0.479,0.0
12.956,0.921,-0.517,0.0
12.178,0.863,-0.555,0.0
11.406,0.805,-0.583,0.0
10.795,0.759,-0.611,0.0
15.004,1.048,-0.43,0.0
13.917,0.968,-0.476,0.0
12.984,0.9,-0.515,0.0
12.214,0.843,-0.553,0.0
11.429,0.786,-0.581,0.0
10.797,0.74,-0.609,0.0
15.134,1.03,-0.43,0.0
13.949,0.945,-0.473,0.0
12.934,0.873,-0.51,0.0
12.242,0.823,-0.551,0.0
11.517,0.772,-0.582,0.0
10.829,0.723,-0.607,0.0
15.118,1.001,-0.425,0.0
14.02,0.925,-0.471,0.0
13.076,0.859,-0.511,0.0
12.318,0.806,-0.551,0.0
11.547,0.753,-0.58,0.0
10.958,0.712,-0.611,0.0
15.261,0.983,-0.424,0.0
14.011,0.899,-0.466,0.0
13.079,0.836,-0.507,0.0
12.382,0.788,-0.549,0.0
11.622,0.737,-0.579,0.0
10.934,0.69,-0.605,0.0
15.279,0.957,-0.418,0.0
14.103,0.879,-0.463,0.0
13.185,0.818,-0.505,0.0
12.391,0.766,-0.544,0.0
11.665,0.718,-0.576,0.0
10.968,0.672,-0.602,0.0
15.375,0.935,-0.414,0.0
14.213,0.86,-0.461,0.0
13.248,0.798,-0.502,0.0
12.438,0.746,-0.541,0.0
11.699,0.699,-0.573,0.0
11.042,0.657,-0.601,0.0
15.576,0.919,-0.412,0.0
14.316,0.84,-0.457,0.0
13.303,0.777,-0.498,0.0
12.511,0.728,-0.538,0.0
11.753,0.68,-0.569,0.0
11.147,0.642,-0.601,0.0
15.665,0.895,-0.407,0.0
14.418,0.82,-0.453,0.0
13.345,0.755,-0.492,0.0
12.582,0.709,-0.534,0.0
11.808,0.662,-0.566,0.0
11.181,0.624,-0.597,0.0
15.768,0.872,-0.401,0.0
14.474,0.797,-0.447,0.0
13.525,0.741,-0.491,0.0
12.682,0.691,-0.531,0.0
11.92,0.646,-0.564,0.0
11.266,0.608,-0.595,0.0
15.924,0.852,-0.396,0.0
14.698,0.782,-0.445,0.0
13.635,0.722,-0.487,0.0
12.717,0.669,-0.525,0.0
12.007,0.629,-0.561,0.0
11.32,0.59,-0.591,0.0
16.016,0.827,-0.388,0.0
14.761,0.758,-0.438,0.0
13.695,0.7,-0.48,0.0
12.82,0.651,-0.521,0.0
12.096,0.611,-0.557,0.0
11.36,0.571,-0.585,0.0
16.175,0.806,-0.381,0.0
14.787,0.732,-0.428,0.0
13.848,0.682,-0.476,0.0
12.866,0.63,-0.514,0.0
12.148,0.592,-0.551,0.0
11.422,0.553,-0.58,0.0
16.438,0.789,-0.375,0.0
14.913,0.711,-0.421,0.0
14.003,0.664,-0.472,0.0
13.092,0.617,-0.513,0.0
12.285,0.576,-0.548,0.0
11.529,0.537,-0.577,0.0
16.59,0.766,-0.366,0.0
15.246,0.699,-0.419,0.0
14.118,0.644,-0.465,0.0
13.129,0.595,-0.505,0.0
12.376,0.557,-0.543,0.0
11.67,0.522,-0.575,0.0
16.718,0.741,-0.356,0.0
15.292,0.674,-0.408,0.0
14.178,0.62,-0.455,0.0
13.143,0.572,-0.494,0.0
12.467,0.539,-0.536,0.0
11.78,0.506,-0.571,0.0
16.931,0.72,-0.347,0.0
15.64,0.661,-0.405,0.0
14.427,0.605,-0.451,0.0
13.443,0.56,-0.494,0.0
12.633,0.523,-0.533,0.0
11.871,0.488,-0.565,0.0
17.112,0.697,-0.336,0.0
15.78,0.638,-0.395,0.0
14.593,0.586,-0.444,0.0
13.503,0.539,-0.485,0.0
12.71,0.503,-0.525,0.0
12.005,0.472,-0.56,0.0
17.379,0.677,-0.325,0.0
16.013,0.619,-0.386,0.0
14.768,0.567,-0.435,0.0
13.72,0.523,-0.48,0.0
12.875,0.487,-0.52,0.0
12.135,0.455,-0.555,0.0
17.877,0.664,-0.318,0.0
16.245,0.599,-0.376,0.0
14.968,0.547,-0.427,0.0
13.879,0.504,-0.472,0.0
12.982,0.467,-0.511,0.0
12.264,0.438,-0.549,0.0
18.016,0.637,-0.303,0.0
16.548,0.58,-0.367,0.0
15.231,0.53,-0.419,0.0
14.051,0.485,-0.464,0.0
13.143,0.45,-0.504,0.0
12.44,0.422,-0.544,0.0
18.362,0.617,-0.29,0.0
16.738,0.557,-0.354,0.0
15.436,0.51,-0.409,0.0
14.233,0.466,-0.455,0.0
13.326,0.432,-0.497,0.0
12.539,0.403,-0.535,0.0
18.883,0.601,-0.278,0.0
17.043,0.537,-0.342,0.0
15.693,0.49,-0.399,0.0
14.491,0.449,-0.447,0.0
13.46,0.413,-0.488,0.0
12.682,0.386,-0.527,0.0
19.445,0.585,-0.265,0.0
17.321,0.516,-0.329,0.0
15.931,0.47,-0.387,0.0
14.697,0.43,-0.437,0.0
13.699,0.397,-0.481,0.0
12.832,0.368,-0.519,0.0
19.887,0.564,-0.249,1.0
17.711,0.497,-0.316,0.0
16.255,0.451,-0.377,0.0
14.874,0.409,-0.426,0.0
13.923,0.379,-0.473,0.0
12.949,0.349,-0.509,0.0
20.486,0.545,-0.233,0.0
18.131,0.477,-0.302,0.0
16.566,0.432,-0.365,0.0
15.314,0.395,-0.42,0.0
14.063,0.359,-0.461,0.0
13.174,0.332,-0.502,0.0
21.524,0.536,-0.219,1.0
18.547,0.457,-0.287,0.0
16.841,0.41,-0.35,0.0
15.567,0.375,-0.408,0.0
14.436,0.344,-0.455,0.0
13.413,0.316,-0.494,0.0
21.916,0.509,-0.196,1.0
19.187,0.44,-0.273,0.0
17.158,0.389,-0.335,0.0
15.865,0.355,-0.396,0.0
14.598,0.323,-0.442,0.0
13.663,0.299,-0.486,0.0
22.6,0.488,-0.174,0.0
19.792,0.422,-0.257,0.0
17.616,0.37,-0.322,0.0
16.184,0.336,-0.384,0.0
14.942,0.306,-0.433,0.0
13.884,0.281,-0.476,0.0
23.369,0.466,-0.15,0.0
20.382,0.401,-0.238,0.0
18.081,0.35,-0.307,0.0
16.498,0.315,-0.369,0.0
15.234,0.287,-0.422,0.0
14.061,0.261,-0.464,0.0
24.03,0.44,-0.122,0.0
21.301,0.384,-0.221,0.0
18.525,0.329,-0.29,0.0
16.791,0.294,-0.353,0.0
15.571,0.268,-0.41,0.0
14.358,0.243,-0.454,0.0
24.829,0.414,-0.092,0.0
22.068,0.362,-0.198,0.0
18.996,0.307,-0.271,0.0
17.128,0.272,-0.336,0.0
15.902,0.248,-0.396,0.0
14.552,0.224,-0.44,0.0
25.607,0.387,-0.059,0.0
22.928,0.34,-0.174,0.0
19.898,0.29,-0.256,0.0
17.577,0.251,-0.321,0.0
16.237,0.228,-0.382,0.0
14.987,0.206,-0.431,0.0
26.403,0.357,-0.023,0.0
23.542,0.312,-0.145,0.0
20.533,0.267,-0.235,0.0
18.171,0.231,-0.305,0.0
16.564,0.207,-0.365,0.0
15.34,0.187,-0.419,0.0
27.084,0.324,0.014,0.0
24.273,0.284,-0.114,0.0
21.761,0.249,-0.216,2.0
18.74,0.21,-0.287,0.0
16.887,0.185,-0.347,0.0
15.72,0.168,-0.406,0.0
28.586,0.298,0.058,1.0
25.256,0.257,-0.08,0.0
22.207,0.22,-0.187,2.0
19.362,0.187,-0.267,0.0
17.396,0.164,-0.331,0.0
16.034,0.147,-0.39,0.0
28.841,0.257,0.102,5.0
26.038,0.226,-0.043,0.0
23.016,0.194,-0.159,0.0
20.137,0.165,-0.247,0.0
17.852,0.141,-0.313,0.0
16.394,0.126,-0.373,0.0
28.928,0.216,0.147,1.0
26.803,0.193,-0.004,0.0
23.961,0.167,-0.129,0.0
21.099,0.142,-0.226,1.0
18.478,0.119,-0.295,0.0
16.782,0.104,-0.355,0.0
31.381,0.188,0.209,0.0
27.725,0.159,0.039,0.0
24.957,0.137,-0.094,0.0
21.975,0.116,-0.2,2.0
19.226,0.096,-0.276,0.0
17.162,0.082,-0.336,0.0
32.183,0.146,0.266,0.0
28.688,0.124,0.087,1.0
25.842,0.106,-0.056,0.0
23.081,0.089,-0.173,1.0
20.021,0.072,-0.255,0.0
17.748,0.06,-0.319,0.0
0.0,0.0,0.0,0.0
28.839,0.084,0.135,0.0
26.662,0.072,-0.014,0.0
23.723,0.058,-0.139,1.0
21.02,0.047,-0.233,3.0
18.401,0.037,-0.3,0.0
0.0,0.0,0.0,0.0
30.822,0.048,0.195,0.0
27.675,0.036,0.031,0.0
24.73,0.027,-0.103,0.0
21.654,0.019,-0.203,1.0
19.103,0.012,-0.279,0.0
37.483,0.016,0.496,0.0
0.0,0.0,0.0,0.0
28.6,0.0,0.08,1.0
25.666,-0.005,-0.064,0.0
23.074,-0.01,-0.178,0.0
19.976,-0.012,-0.258,0.0
39.465,-0.034,0.589,0.0
33.258,-0.035,0.323,0.0
28.847,-0.037,0.129,3.0
26.683,-0.04,-0.021,0.0
23.838,-0.04,-0.143,0.0
20.825,-0.04,-0.233,0.0
43.362,-0.093,0.722,0.0
0.0,0.0,0.0,0.0
31.244,-0.08,0.194,0.0
27.562,-0.076,0.025,0.0
24.949,-0.074,-0.106,0.0
21.932,-0.07,-0.207,0.0
47.662,-0.162,0.876,0.0
37.64,-0.135,0.496,0.0
32.648,-0.124,0.261,1.0
28.707,-0.115,0.077,6.0
25.737,-0.108,-0.064,0.0
23.013,-0.101,-0.177,0.0
0.0,0.0,0.0,0.0
0.0,0.0,0.0,0.0
33.165,-0.166,0.323,0.0
28.829,-0.15,0.128,5.0
26.646,-0.144,-0.019,0.0
23.954,-0.134,-0.142,0.0
0.0,0.0,0.0,0.0
0.0,0.0,0.0,0.0
0.0,0.0,0.0,0.0
31.419,-0.2,0.196,1.0
27.958,-0.183,0.029,1.0
24.792,-0.168,-0.102,0.0
0.0,0.0,0.0,0.0
46.891,-0.335,0.869,0.0
37.685,-0.277,0.503,0.0
32.372,-0.244,0.261,1.0
28.71,-0.221,0.082,6.0
25.95,-0.205,-0.059,0.0
0.0,0.0,0.0,0.0
0.0,0.0,0.0,0.0
39.895,-0.337,0.605,0.0
33.83,-0.292,0.334,0.0
28.818,-0.254,0.135,1.0
27.029,-0.243,-0.012,0.0
0.0,0.0,0.0,0.0
0.0,0.0,0.0,0.0
44.296,-0.422,0.754,0.0
36.598,-0.355,0.429,0.0
31.225,-0.308,0.204,1.0
28.046,-0.282,0.038,1.0
84.105,-0.862,2.461,1.0
0.0,0.0,0.0,0.0
0.0,0.0,0.0,0.0
38.949,-0.419,0.53,0.0
32.734,-0.358,0.276,1.0
28.703,-0.318,0.093,1.0
90.451,-1.02,2.815,13.0
0.0,0.0,0.0,0.0
0.0,0.0,0.0,0.0
0.0,0.0,0.0,0.0
33.935,-0.404,0.35,0.0
30.387,-0.367,0.156,0.0
90.839,-1.114,2.999,4.0
85.341,-1.06,2.375,1.0
58.186,-0.732,1.318,0.0
0.0,0.0,0.0,0.0
36.472,-0.47,0.445,0.0
31.961,-0.416,0.224,0.0
121.503,-1.606,4.241,1.0
89.773,-1.201,2.669,2.0
64.374,-0.87,1.58,0.0
47.315,-0.646,0.911,0.0
0.0,0.0,0.0,0.0
33.63,-0.469,0.3,1.0
171.574,-2.426,6.316,18.0
96.68,-1.38,3.058,3.0
0.0,0.0,0.0,0.0
0.0,0.0,0.0,0.0
0.0,0.0,0.0,0.0
34.692,-0.515,0.376,0.0
171.592,-2.577,6.645,16.0
0.0,0.0,0.0,0.0
87.218,-1.333,2.475,1.0
0.0,0.0,0.0,0.0
0.0,0.0,0.0,0.0
0.0,0.0,0.0,0.0
168.393,-2.67,6.844,6.0
0.0,0.0,0.0,0.0
89.804,-1.447,2.72,3.0
0.0,0.0,0.0,0.0
0.0,0.0,0.0,0.0
0.0,0.0,0.0,0.0
193.742,-3.227,8.245,16.0
0.0,0.0,0.0,0.0
96.91,-1.637,3.12,14.0
0.0,0.0,0.0,0.0
0.0,0.0,0.0,0.0
0.0,0.0,0.0,0.0
0.0,0.0,0.0,0.0
0.0,0.0,0.0,0.0
96.96,-1.711,3.31,24.0
88.901,-1.579,2.567,2.0
0.0,0.0,0.0,0.0
0.0,0.0,0.0,0.0
190.379,-3.457,8.843,17.0
0.0,0.0,0.0,0.0
96.952,-1.78,3.499,28.0
96.524,-1.783,2.974,3.0
0.0,0.0,0.0,0.0
0.0,0.0,0.0,0.0
190.376,-3.589,9.213,22.0
0.0,0.0,0.0,0.0
96.929,-1.846,3.687,38.0
96.93,-1.856,3.177,21.0
0.0,0.0,0.0,0.0
0.0,0.0,0.0,0.0
190.39,-3.714,9.588,22.0
189.887,-3.722,8.581,20.0
96.929,-1.909,3.878,39.0
96.964,-1.918,3.369,32.0
90.567,-1.8,2.68,2.0
0.0,0.0,0.0,0.0
190.083,-3.828,9.949,16.0
189.985,-3.841,8.961,21.0
96.895,-1.967,4.069,39.0
96.965,-1.976,3.561,39.0
96.839,-1.981,3.056,5.0
0.0,0.0,0.0,0.0
128.341,-2.659,6.97,8.0
96.814,-2.012,4.755,2.0
96.881,-2.021,4.258,41.0
96.939,-2.03,3.749,35.0
0.0,0.0,0.0,0.0
0.0,0.0,0.0,0.0
99.201,-2.109,5.583,14.0
96.887,-2.065,4.95,9.0
96.842,-2.071,4.447,50.0
96.92,-2.08,3.94,28.0
128.453,-2.765,4.558,18.0
96.617,-2.086,2.93,1.0
96.748,-2.105,5.636,20.0
96.864,-2.114,5.141,16.0
96.826,-2.118,4.638,51.0
96.873,-2.125,4.129,25.0
128.418,-2.825,4.809,30.0
96.796,-2.134,3.125,3.0
96.692,-2.149,5.824,35.0
87.937,-1.959,4.84,13.0
96.798,-2.161,4.826,35.0
96.882,-2.168,4.32,33.0
128.419,-2.881,5.063,35.0
128.262,-2.884,4.394,9.0
96.577,-2.187,6.006,18.0
87.998,-1.997,5.016,15.0
96.781,-2.2,5.014,29.0
96.826,-2.205,4.506,29.0
128.412,-2.931,5.312,28.0
128.424,-2.936,4.649,27.0
96.363,-2.219,6.181,13.0
96.731,-2.232,5.704,17.0
87.916,-2.032,4.729,22.0
96.822,-2.241,4.697,34.0
128.453,-2.979,5.568,14.0
128.44,-2.982,4.904,22.0
76.661,-1.793,5.07,10.0
96.823,-2.267,5.902,15.0
88.054,-2.064,4.911,19.0
96.789,-2.272,4.886,36.0
96.891,-2.277,4.389,4.0
171.608,-4.037,6.887,8.0
76.637,-1.816,5.219,23.0
96.467,-2.288,6.068,17.0
88.125,-2.091,5.085,19.0
96.773,-2.299,5.073,39.0
96.907,-2.303,4.577,12.0
171.673,-4.085,7.22,20.0
87.046,-2.085,6.095,14.0
87.969,-2.109,5.703,6.0
88.13,-2.114,5.256,24.0
96.725,-2.321,5.256,26.0
96.85,-2.325,4.761,20.0
171.682,-4.125,7.551,24.0
76.858,-1.859,5.531,10.0
76.579,-1.852,5.113,25.0
88.062,-2.131,5.422,22.0
88.143,-2.134,4.961,15.0
96.816,-2.344,4.948,20.0
171.664,-4.157,7.883,31.0
87.29,-2.128,6.452,14.0
76.663,-1.869,5.267,25.0
88.067,-2.147,5.593,13.0
88.14,-2.148,5.131,15.0
96.762,-2.358,5.13,24.0
171.667,-4.183,8.212,24.0
87.689,-2.151,6.651,22.0
76.911,-1.886,5.432,18.0
87.911,-2.155,5.751,11.0
88.087,-2.158,5.296,28.0
96.739,-2.369,5.314,20.0
96.856,-2.371,4.817,11.0
76.641,-1.889,5.959,15.0
76.881,-1.894,5.577,17.0
76.601,-1.885,5.158,26.0
88.058,-2.166,5.462,22.0
88.16,-2.167,5.011,14.0
96.848,-2.378,5.002,17.0
81.317,-2.01,6.479,13.0
87.533,-2.162,6.518,19.0
76.753,-1.894,5.315,22.0
88.007,-2.169,5.626,18.0
88.134,-2.17,5.177,18.0
96.784,-2.38,5.182,27.0
81.289,-2.013,6.632,19.0
87.598,-2.165,6.689,12.0
76.92,-1.899,5.473,30.0
76.588,-1.888,5.042,20.0
88.064,-2.169,5.34,29.0
96.733,-2.379,5.363,16.0
67.362,-1.667,5.625,11.0
76.635,-1.894,5.998,14.0
76.836,-1.896,5.613,10.0
76.614,-1.887,5.189,26.0
88.067,-2.166,5.505,21.0
88.15,-2.164,5.052,11.0
76.903,-1.9,6.567,12.0
81.3,-2.005,6.516,14.0
87.599,-2.156,6.562,22.0
76.81,-1.887,5.345,20.0
88.017,-2.159,5.666,14.0
88.147,-2.157,5.214,24.0
67.031,-1.651,5.848,8.0
81.254,-1.997,6.663,14.0
76.654,-1.88,5.884,8.0
76.901,-1.881,5.492,18.0
76.583,-1.87,5.07,20.0
88.082,-2.146,5.372,27.0
66.626,-1.633,5.935,43.0
67.314,-1.646,5.642,17.0
76.665,-1.87,6.025,12.0
76.85,-1.87,5.628,8.0
76.639,-1.86,5.213,27.0
88.071,-2.132,5.53,10.0
65.831,-1.603,5.984,29.0
67.365,-1.636,5.769,16.0
81.145,-1.965,6.524,12.0
87.6,-2.116,6.576,17.0
87.066,-2.097,6.079,15.0
87.957,-2.112,5.682,6.0
65.966,-1.594,6.117,30.0
80.359,-1.936,7.028,15.0
81.155,-1.948,6.671,12.0
81.429,-1.949,6.257,9.0
76.883,-1.835,5.505,16.0
76.638,-1.823,5.086,19.0
66.107,-1.582,6.247,25.0
0.0,0.0,0.0,0.0
67.312,-1.6,5.652,18.0
76.664,-1.816,6.026,9.0
76.861,-1.814,5.639,21.0
76.669,-1.804,5.222,26.0
63.844,-1.511,6.146,25.0
65.846,-1.553,5.991,29.0
80.294,-1.886,6.882,10.0
81.123,-1.898,6.518,13.0
76.877,-1.792,5.773,9.0
76.73,-1.782,5.36,15.0
63.939,-1.494,6.266,33.0
65.917,-1.534,6.112,33.0
80.364,-1.863,7.027,11.0
67.338,-1.554,5.527,8.0
76.669,-1.762,5.889,19.0
76.878,-1.76,5.502,25.0
64.244,-1.479,6.407,40.0
65.947,-1.512,6.228,27.0
73.052,-1.667,6.513,12.0
67.371,-1.53,5.645,30.0
76.683,-1.735,6.02,20.0
76.981,-1.734,5.639,20.0
64.713,-1.466,6.563,32.0
63.794,-1.438,6.132,22.0
66.896,-1.501,6.077,42.0
67.324,-1.503,5.752,23.0
76.457,-1.699,6.13,25.0
76.928,-1.702,5.763,23.0
64.539,-1.436,6.654,39.0
63.837,-1.413,6.243,36.0
66.431,-1.463,6.145,42.0
67.316,-1.474,5.864,20.0
76.405,-1.665,6.252,16.0
76.931,-1.668,5.888,22.0
64.261,-1.401,6.732,28.0
63.994,-1.388,6.363,34.0
66.033,-1.423,6.216,30.0
67.344,-1.444,5.976,31.0
80.792,-1.723,6.741,9.0
76.672,-1.627,5.992,34.0
64.28,-1.371,6.838,26.0
64.368,-1.364,6.505,33.0
66.28,-1.397,6.345,15.0
67.241,-1.409,6.073,27.0
65.803,-1.37,5.595,7.0
76.422,-1.582,6.094,31.0
64.642,-1.346,6.98,41.0
64.515,-1.334,6.622,34.0
63.831,-1.312,6.212,21.0
67.28,-1.375,6.183,7.0
65.854,-1.336,5.702,23.0
76.433,-1.541,6.213,31.0
65.009,-1.318,7.122,26.0
64.419,-1.297,6.712,32.0
63.945,-1.279,6.322,30.0
63.399,-1.259,5.924,16.0
65.844,-1.299,5.802,7.0
76.598,-1.502,6.342,32.0
65.04,-1.281,7.224,28.0
64.47,-1.261,6.816,20.0
64.099,-1.245,6.434,35.0
63.413,-1.222,6.021,33.0
0.0,0.0,0.0,0.0
76.622,-1.456,6.46,12.0
65.138,-1.244,7.334,32.0
58.726,-1.113,6.296,14.0
64.326,-1.209,6.553,30.0
63.7,-1.188,6.143,39.0
65.535,-1.213,5.97,16.0
65.833,-1.208,5.647,24.0
65.571,-1.21,7.479,42.0
64.925,-1.189,7.057,15.0
58.891,-1.069,6.085,21.0
63.993,-1.152,6.264,35.0
63.481,-1.134,5.874,23.0
65.423,-1.158,5.704,28.0
73.242,-1.303,8.459,12.0
64.938,-1.145,7.151,28.0
58.796,-1.028,6.159,23.0
64.107,-1.11,6.365,37.0
63.369,-1.088,5.953,28.0
65.536,-1.115,5.806,29.0
68.203,-1.166,7.974,15.0
64.974,-1.1,7.246,30.0
58.807,-0.987,6.241,22.0
64.348,-1.07,6.478,26.0
63.455,-1.045,6.047,28.0
65.551,-1.069,5.896,32.0
66.772,-1.094,7.897,16.0
65.079,-1.055,7.346,29.0
65.288,-1.048,7.017,13.0
58.823,-0.935,6.0,24.0
63.831,-1.003,6.168,33.0
65.565,-1.02,5.985,15.0
59.981,-0.937,7.175,13.0
65.034,-1.005,7.428,8.0
57.4,-0.878,6.245,27.0
58.89,-0.89,6.085,30.0
64.169,-0.96,6.285,33.0
58.471,-0.865,5.413,19.0
57.962,-0.86,7.009,17.0
68.077,-0.999,7.864,7.0
57.392,-0.832,6.319,17.0
0.0,0.0,0.0,0.0
64.153,-0.909,6.364,15.0
58.555,-0.819,5.494,22.0
58.011,-0.815,7.088,26.0
64.321,-0.892,7.51,13.0
57.367,-0.786,6.387,9.0
0.0,0.0,0.0,0.0
58.952,-0.787,5.92,28.0
58.628,-0.773,5.572,19.0
58.11,-0.768,7.171,26.0
59.982,-0.782,7.076,10.0
63.871,-0.822,7.188,12.0
57.437,-0.729,6.146,30.0
58.927,-0.737,5.988,31.0
64.027,-0.79,6.16,28.0
58.066,-0.719,7.235,33.0
59.985,-0.731,7.147,21.0
63.955,-0.768,7.272,38.0
57.367,-0.679,6.206,31.0
58.906,-0.686,6.053,32.0
63.962,-0.734,6.227,26.0
57.118,-0.657,7.182,22.0
58.177,-0.658,6.998,20.0
63.517,-0.707,7.295,39.0
57.437,-0.629,6.278,18.0
57.463,-0.619,5.969,16.0
59.073,-0.625,5.816,15.0
57.178,-0.606,7.254,27.0
58.306,-0.607,7.078,27.0
63.023,-0.644,7.307,28.0
59.909,-0.601,6.614,14.0
57.507,-0.567,6.036,30.0
59.045,-0.571,5.876,24.0
57.369,-0.555,7.34,32.0
57.923,-0.549,7.093,32.0
63.073,-0.586,7.38,9.0
59.888,-0.545,6.674,31.0
57.483,-0.513,6.093,26.0
59.07,-0.516,5.94,24.0
57.783,-0.504,7.453,31.0
57.397,-0.49,7.088,31.0
59.948,-0.501,7.075,18.0
59.891,-0.489,6.735,28.0
57.399,-0.457,6.141,30.0
56.759,-0.442,5.764,16.0
58.03,-0.451,7.542,33.0
57.447,-0.435,7.15,31.0
58.892,-0.435,7.007,28.0
59.861,-0.431,6.788,22.0
57.436,-0.403,6.199,30.0
59.3,-0.404,6.077,11.0
58.38,-0.396,7.643,33.0
57.243,-0.377,7.179,31.0
0.0,0.0,0.0,0.0
59.792,-0.372,6.836,33.0
57.444,-0.346,6.252,30.0
57.559,-0.336,5.951,26.0
58.556,-0.339,7.719,24.0
57.449,-0.321,7.256,32.0
57.488,-0.311,6.944,22.0
59.636,-0.311,6.87,32.0
57.507,-0.289,6.31,22.0
57.511,-0.277,5.996,27.0
58.7,-0.28,7.79,17.0
58.076,-0.266,7.386,32.0
57.515,-0.252,6.997,31.0
59.651,-0.25,6.922,29.0
57.547,-0.229,6.362,18.0
57.572,-0.218,6.049,25.0
51.892,-0.194,6.929,16.0
58.319,-0.206,7.464,32.0
57.262,-0.191,7.013,30.0
59.751,-0.188,6.982,18.0
56.525,-0.166,6.294,14.0
57.539,-0.158,6.091,22.0
51.962,-0.139,6.979,22.0
58.392,-0.145,7.519,27.0
57.258,-0.131,7.056,31.0
59.815,-0.126,7.034,21.0
56.496,-0.107,6.332,25.0
57.547,-0.097,6.134,16.0
51.987,-0.084,7.021,26.0
58.493,-0.083,7.574,9.0
57.543,-0.07,7.132,31.0
57.439,-0.059,6.795,19.0
56.522,-0.048,6.375,22.0
57.518,-0.037,6.17,31.0
51.934,-0.028,7.049,26.0
48.803,-0.017,6.353,14.0
58.263,-0.009,7.261,32.0
57.397,0.001,6.828,26.0
59.988,0.013,6.805,8.0
57.153,0.023,6.168,32.0
51.479,0.027,7.021,26.0
48.995,0.035,6.409,3.0
58.401,0.053,7.314,21.0
57.349,0.064,6.858,31.0
59.997,0.079,6.843,20.0
57.106,0.086,6.197,32.0
51.385,0.083,7.039,24.0
51.486,0.094,6.765,13.0
58.449,0.118,7.355,15.0
57.342,0.127,6.891,31.0
57.349,0.139,6.573,22.0
56.621,0.148,6.176,30.0
51.362,0.141,7.065,8.0
51.51,0.151,6.797,10.0
58.542,0.183,7.398,15.0
58.207,0.194,7.025,28.0
57.406,0.202,6.61,25.0
56.543,0.211,6.197,29.0
48.314,0.187,6.67,27.0
48.476,0.197,6.421,10.0
58.543,0.249,7.427,20.0
0.0,0.0,0.0,0.0
57.614,0.268,6.661,21.0
56.603,0.275,6.23,23.0
51.806,0.259,7.177,12.0
48.441,0.252,6.439,25.0
49.064,0.265,6.247,22.0
59.116,0.33,7.19,35.0
57.606,0.333,6.685,28.0
56.671,0.338,6.262,17.0
48.631,0.299,6.758,23.0
48.763,0.308,6.502,20.0
49.083,0.321,6.269,21.0
58.598,0.394,7.15,21.0
60.452,0.419,7.039,6.0
56.7,0.403,6.286,18.0
