X,Y,Z,Reflectivity
26.34,-0.445,-0.022,0.0
23.239,-0.401,-0.151,0.0
19.84,-0.348,-0.243,0.0
17.568,-0.314,-0.314,0.0
16.112,-0.294,-0.379,0.0
28.685,-0.531,0.113,6.0
25.628,-0.483,-0.043,0.0
22.668,-0.435,-0.166,0.0
19.519,-0.381,-0.255,0.0
17.267,-0.343,-0.323,0.0
15.896,-0.321,-0.387,0.0
28.618,-0.586,0.089,5.0
24.766,-0.516,-0.062,0.0
22.31,-0.472,-0.182,0.0
19.239,-0.414,-0.267,0.0
17.076,-0.373,-0.333,0.0
15.769,-0.35,-0.397,0.0
28.447,-0.639,0.066,1.0
25.019,-0.57,-0.082,0.0
22.031,-0.51,-0.196,0.0
18.843,-0.443,-0.276,0.0
16.848,-0.401,-0.342,0.0
15.557,-0.376,-0.403,0.0
27.72,-0.678,0.044,0.0
24.33,-0.603,-0.098,0.0
21.825,-0.549,-0.21,0.0
18.471,-0.471,-0.284,0.0
16.665,-0.43,-0.35,0.0
15.357,-0.402,-0.409,0.0
27.355,-0.723,0.024,0.0
23.808,-0.638,-0.112,0.0
20.96,-0.568,-0.216,1.0
18.151,-0.498,-0.291,0.0
16.526,-0.46,-0.358,0.0
15.099,-0.425,-0.412,0.0
26.841,-0.763,0.006,0.0
23.514,-0.677,-0.126,0.0
20.888,-0.608,-0.229,0.0
17.969,-0.53,-0.3,0.0
16.411,-0.489,-0.366,0.0
14.925,-0.45,-0.417,0.0
26.477,-0.806,-0.01,0.0
23.379,-0.719,-0.14,0.0
20.601,-0.641,-0.239,0.0
17.755,-0.559,-0.307,0.0
16.248,-0.517,-0.373,0.0
14.806,-0.476,-0.423,0.0
26.117,-0.847,-0.025,0.0
23.335,-0.765,-0.153,0.0
19.784,-0.655,-0.241,0.0
17.536,-0.587,-0.314,0.0
16.074,-0.544,-0.378,0.0
14.713,-0.503,-0.428,0.0
25.716,-0.886,-0.039,0.0
22.514,-0.783,-0.16,0.0
19.557,-0.687,-0.249,0.0
17.332,-0.615,-0.319,0.0
15.912,-0.571,-0.382,0.0
14.619,-0.53,-0.433,0.0
25.491,-0.929,-0.052,0.0
22.54,-0.83,-0.172,0.0
19.414,-0.722,-0.257,0.0
17.2,-0.645,-0.326,0.0
15.789,-0.598,-0.387,0.0
14.504,-0.555,-0.437,0.0
25.471,-0.98,-0.064,0.0
22.335,-0.867,-0.181,1.0
19.31,-0.756,-0.264,0.0
17.089,-0.675,-0.331,0.0
15.713,-0.627,-0.392,0.0
14.428,-0.581,-0.441,0.0
25.647,-1.038,-0.075,0.0
22.179,-0.905,-0.189,2.0
19.132,-0.788,-0.27,0.0
16.972,-0.705,-0.336,0.0
15.646,-0.655,-0.397,0.0
14.286,-0.603,-0.443,0.0
0.0,0.0,0.0,0.0
21.692,-0.928,-0.193,1.0
18.918,-0.816,-0.274,0.0
16.9,-0.735,-0.341,0.0
15.475,-0.679,-0.399,0.0
14.236,-0.63,-0.446,0.0
24.039,-1.068,-0.089,0.0
21.343,-0.956,-0.198,1.0
18.823,-0.85,-0.279,0.0
16.811,-0.765,-0.345,0.0
15.439,-0.709,-0.403,0.0
14.153,-0.655,-0.448,0.0
23.842,-1.108,-0.096,0.0
21.492,-1.006,-0.206,1.0
18.733,-0.884,-0.284,0.0
16.716,-0.795,-0.348,0.0
15.4,-0.738,-0.406,0.0
14.05,-0.678,-0.449,0.0
23.798,-1.153,-0.102,0.0
21.616,-1.055,-0.213,1.0
18.493,-0.909,-0.285,0.0
16.654,-0.825,-0.351,0.0
15.31,-0.764,-0.408,0.0
14.036,-0.705,-0.452,0.0
23.758,-1.198,-0.108,1.0
21.366,-1.085,-0.216,0.0
18.36,-0.939,-0.287,0.0
16.622,-0.856,-0.354,0.0
15.185,-0.788,-0.408,0.0
13.992,-0.731,-0.454,0.0
23.69,-1.242,-0.112,1.0
21.087,-1.113,-0.217,0.0
18.26,-0.97,-0.289,0.0
16.547,-0.885,-0.356,0.0
15.081,-0.813,-0.408,0.0
13.987,-0.759,-0.456,0.0
34.27,-1.865,-0.168,3.0
34.241,-1.876,-0.358,3.0
34.221,-1.887,-0.548,2.0
16.482,-0.915,-0.357,0.0
34.236,-1.913,-0.932,0.0
13.894,-0.781,-0.455,0.0
23.713,-1.337,-0.119,1.0
34.174,-1.939,-0.361,0.0
18.15,-1.036,-0.292,0.0
16.474,-0.947,-0.358,0.0
14.997,-0.867,-0.409,0.0
13.889,-0.808,-0.456,0.0
23.912,-1.395,-0.122,0.0
20.727,-1.217,-0.221,0.0
18.125,-1.071,-0.293,0.0
16.473,-0.979,-0.36,0.0
15.095,-0.903,-0.413,0.0
13.912,-0.837,-0.458,0.0
23.816,-1.436,-0.123,0.0
20.758,-1.259,-0.222,0.0
18.11,-1.105,-0.294,0.0
16.518,-1.014,-0.361,0.0
14.973,-0.924,-0.41,0.0
13.878,-0.862,-0.457,0.0
23.677,-1.473,-0.123,0.0
20.467,-1.281,-0.219,0.0
18.098,-1.139,-0.294,0.0
16.409,-1.039,-0.359,0.0
15.012,-0.956,-0.411,0.0
13.918,-0.891,-0.458,0.0
23.762,-1.525,-0.122,0.0
20.517,-1.324,-0.219,0.0
18.192,-1.18,-0.295,0.0
16.417,-1.071,-0.358,0.0
15.082,-0.989,-0.412,0.0
13.921,-0.918,-0.457,0.0
23.828,-1.574,-0.121,0.0
20.793,-1.381,-0.22,0.0
18.186,-1.215,-0.293,0.0
16.462,-1.105,-0.358,0.0
15.025,-1.015,-0.409,0.0
13.934,-0.946,-0.456,0.0
23.811,-1.619,-0.119,0.0
20.906,-1.429,-0.219,0.0
18.2,-1.25,-0.291,0.0
16.532,-1.141,-0.357,0.0
15.104,-1.048,-0.41,0.0
14.001,-0.977,-0.457,0.0
33.905,-2.369,-0.165,0.0
33.938,-2.383,-0.352,0.0
18.266,-1.289,-0.289,0.0
16.578,-1.176,-0.356,0.0
15.022,-1.071,-0.405,0.0
14.042,-1.006,-0.456,0.0
33.899,-2.431,-0.159,8.0
33.91,-2.444,-0.345,5.0
18.447,-1.336,-0.289,0.0
16.647,-1.211,-0.354,0.0
15.208,-1.112,-0.407,0.0
14.034,-1.031,-0.453,0.0
33.903,-2.494,-0.151,21.0
33.907,-2.506,-0.338,14.0
18.561,-1.378,-0.287,0.0
16.745,-1.249,-0.352,0.0
15.316,-1.148,-0.406,0.0
14.088,-1.061,-0.451,0.0
33.891,-2.555,-0.143,22.0
33.885,-2.567,-0.329,7.0
18.584,-1.414,-0.282,0.0
16.832,-1.287,-0.35,0.0
15.336,-1.178,-0.403,0.0
14.134,-1.09,-0.449,0.0
33.884,-2.616,-0.133,17.0
33.869,-2.627,-0.319,4.0
18.731,-1.459,-0.279,0.0
16.894,-1.322,-0.346,0.0
15.452,-1.214,-0.401,0.0
14.198,-1.121,-0.446,0.0
33.871,-2.676,-0.122,8.0
33.856,-2.687,-0.308,4.0
18.939,-1.509,-0.276,0.0
17.002,-1.361,-0.342,0.0
15.45,-1.242,-0.396,0.0
14.234,-1.149,-0.442,0.0
33.861,-2.735,-0.11,5.0
33.86,-2.746,-0.296,4.0
19.016,-1.548,-0.27,0.0
17.11,-1.399,-0.338,0.0
15.573,-1.279,-0.393,0.0
14.347,-1.183,-0.44,0.0
33.86,-2.794,-0.097,2.0
33.859,-2.805,-0.282,10.0
19.179,-1.595,-0.265,0.0
17.255,-1.441,-0.334,0.0
15.654,-1.313,-0.389,0.0
14.41,-1.213,-0.436,0.0
33.808,-2.848,-0.083,0.0
33.827,-2.86,-0.268,1.0
19.405,-1.647,-0.259,0.0
17.328,-1.477,-0.328,0.0
15.721,-1.345,-0.383,0.0
14.469,-1.243,-0.432,0.0
25.644,-2.203,-0.051,0.0
22.933,-1.978,-0.17,0.0
19.736,-1.708,-0.254,0.0
17.501,-1.521,-0.323,0.0
15.854,-1.383,-0.379,0.0
14.631,-1.281,-0.429,0.0
25.727,-2.253,-0.039,0.0
23.047,-2.026,-0.16,1.0
20.302,-1.791,-0.252,0.0
17.617,-1.56,-0.316,0.0
15.939,-1.417,-0.373,0.0
14.758,-1.317,-0.426,0.0
26.173,-2.336,-0.025,0.0
23.14,-2.072,-0.148,1.0
20.741,-1.864,-0.246,0.0
17.707,-1.597,-0.308,0.0
16.16,-1.463,-0.369,0.0
14.898,-1.353,-0.421,0.0
26.604,-2.417,-0.011,0.0
23.389,-2.132,-0.137,1.0
20.777,-1.9,-0.235,0.0
17.934,-1.646,-0.302,0.0
16.433,-1.514,-0.366,0.0
15.019,-1.388,-0.416,0.0
27.207,-2.515,0.004,0.0
23.56,-2.185,-0.124,0.0
20.915,-1.946,-0.224,1.0
18.29,-1.707,-0.297,0.0
16.586,-1.553,-0.359,0.0
15.107,-1.42,-0.409,0.0
27.38,-2.573,0.02,0.0
23.749,-2.239,-0.11,0.0
21.39,-2.023,-0.216,0.0
18.531,-1.758,-0.289,0.0
16.783,-1.598,-0.353,0.0
15.343,-1.465,-0.406,0.0
28.106,-2.684,0.039,1.0
0.0,0.0,0.0,0.0
22.025,-2.117,-0.207,0.0
18.964,-1.828,-0.283,0.0
16.939,-1.638,-0.345,0.0
15.535,-1.507,-0.401,0.0
28.256,-2.741,0.058,1.0
25.184,-2.45,-0.084,0.0
22.475,-2.193,-0.196,1.0
19.273,-1.886,-0.275,0.0
17.2,-1.688,-0.338,0.0
15.634,-1.539,-0.392,0.0
28.656,-2.821,0.079,0.0
33.997,-3.357,-0.089,0.0
22.572,-2.235,-0.181,0.0
19.485,-1.935,-0.264,0.0
17.408,-1.734,-0.33,0.0
15.814,-1.58,-0.385,0.0
29.095,-2.906,0.102,0.0
34.01,-3.407,-0.064,0.0
22.833,-2.293,-0.166,0.0
33.972,-3.422,-0.435,1.0
17.635,-1.781,-0.321,0.0
16.082,-1.629,-0.38,0.0
29.489,-2.987,0.126,1.0
26.374,-2.678,-0.029,0.0
23.141,-2.356,-0.151,0.0
33.933,-3.465,-0.408,0.0
17.887,-1.831,-0.312,0.0
16.348,-1.678,-0.373,0.0
29.92,-3.071,0.151,1.0
27.32,-2.811,-0.009,1.0
23.57,-2.431,-0.135,0.0
20.731,-2.144,-0.233,0.0
18.173,-1.884,-0.302,0.0
16.562,-1.722,-0.365,0.0
30.672,-3.189,0.18,8.0
27.593,-2.876,0.012,0.0
24.315,-2.54,-0.119,0.0
21.326,-2.234,-0.222,0.0
18.612,-1.954,-0.294,0.0
16.767,-1.765,-0.355,0.0
31.468,-3.312,0.211,1.0
28.056,-2.96,0.036,1.0
24.019,-2.54,-0.098,0.0
22.208,-2.354,-0.212,3.0
19.086,-2.028,-0.285,0.0
17.08,-1.82,-0.347,0.0
28.041,-2.987,0.212,2.0
27.615,-2.948,0.06,4.0
25.359,-2.714,-0.081,0.0
22.304,-2.392,-0.193,4.0
19.437,-2.089,-0.273,0.0
17.257,-1.859,-0.336,0.0
28.589,-3.08,0.241,0.0
27.378,-2.956,0.084,4.0
23.663,-2.56,-0.054,0.0
22.419,-2.431,-0.174,3.0
19.852,-2.158,-0.261,0.0
17.557,-1.913,-0.326,0.0
29.33,-3.195,0.274,2.0
27.189,-2.967,0.108,2.0
23.639,-2.585,-0.033,151.0
23.362,-2.56,-0.16,5.0
23.625,-2.595,-0.289,8.0
17.931,-1.974,-0.316,0.0
29.262,-3.221,0.301,11.0
23.636,-2.606,0.116,8.0
23.576,-2.605,-0.01,167.0
23.572,-2.61,-0.14,29.0
23.631,-2.622,-0.267,52.0
23.627,-2.627,-0.394,3.0
29.679,-3.299,0.333,8.0
23.644,-2.633,0.138,3.0
23.585,-2.632,0.011,187.0
23.596,-2.638,-0.117,46.0
23.254,-2.605,-0.24,9.0
23.645,-2.654,-0.371,0.0
0.0,0.0,0.0,0.0
27.503,-3.092,0.188,6.0
23.632,-2.661,0.034,153.0
23.456,-2.647,-0.093,24.0
22.327,-2.524,-0.209,3.0
19.249,-2.18,-0.283,0.0
31.785,-3.6,0.419,2.0
27.556,-3.126,0.216,2.0
26.474,-3.008,0.065,3.0
23.604,-2.687,-0.07,1.0
22.386,-2.553,-0.187,4.0
19.64,-2.244,-0.269,0.0
22.169,-2.532,0.315,1.0
22.159,-2.535,0.196,3.0
26.393,-3.025,0.091,13.0
26.285,-3.017,-0.052,2.0
22.491,-2.586,-0.165,2.0
20.001,-2.304,-0.254,0.0
22.161,-2.552,0.337,13.0
22.143,-2.554,0.218,14.0
26.415,-3.052,0.119,9.0
26.292,-3.042,-0.025,2.0
22.571,-2.616,-0.142,4.0
20.571,-2.388,-0.24,0.0
22.15,-2.571,0.36,16.0
22.134,-2.573,0.241,16.0
22.164,-2.58,0.123,14.0
26.227,-3.058,0.002,2.0
22.57,-2.635,-0.118,10.0
22.143,-2.589,-0.234,0.0
22.14,-2.589,0.384,18.0
22.116,-2.589,0.264,19.0
22.138,-2.596,0.146,17.0
22.431,-2.634,0.026,9.0
22.543,-2.651,-0.094,12.0
22.374,-2.635,-0.213,4.0
22.132,-2.606,0.407,20.0
22.106,-2.606,0.288,20.0
22.121,-2.611,0.17,18.0
22.171,-2.621,0.049,17.0
22.412,-2.653,-0.069,12.0
22.307,-2.644,-0.188,9.0
22.132,-2.623,0.431,20.0
22.108,-2.623,0.312,21.0
22.119,-2.628,0.194,17.0
22.148,-2.634,0.074,19.0
22.261,-2.651,-0.044,16.0
22.242,-2.652,-0.163,8.0
22.128,-2.639,0.455,20.0
22.117,-2.64,0.337,21.0
22.128,-2.644,0.219,13.0
22.13,-2.648,0.098,20.0
22.183,-2.657,-0.02,17.0
22.316,-2.676,-0.139,7.0
22.143,-2.656,0.48,17.0
22.125,-2.656,0.361,19.0
22.245,-2.673,0.244,14.0
22.145,-2.664,0.123,17.0
22.169,-2.67,0.004,19.0
22.22,-2.679,-0.114,13.0
22.149,-2.67,0.505,13.0
22.124,-2.67,0.386,17.0
22.286,-2.692,0.27,13.0
22.223,-2.687,0.148,11.0
22.167,-2.683,0.029,18.0
22.209,-2.691,-0.089,18.0
22.148,-2.683,0.53,18.0
22.119,-2.682,0.411,16.0
22.347,-2.712,0.296,11.0
22.494,-2.732,0.175,9.0
22.174,-2.696,0.054,13.0
22.202,-2.702,-0.063,19.0
22.143,-2.695,0.555,20.0
22.134,-2.696,0.437,14.0
22.349,-2.724,0.322,5.0
22.475,-2.742,0.201,0.0
25.944,-3.167,0.093,2.0
22.19,-2.711,-0.038,16.0
22.153,-2.707,0.581,21.0
22.141,-2.708,0.462,12.0
22.175,-2.713,0.344,1.0
29.254,-3.582,0.295,0.0
26.126,-3.202,0.123,7.0
22.215,-2.724,-0.013,9.0
22.173,-2.72,0.607,18.0
22.224,-2.728,0.489,6.0
22.183,-2.724,0.37,1.0
30.852,-3.791,0.346,0.0
26.197,-3.221,0.154,6.0
25.701,-3.162,0.013,9.0
22.178,-2.729,0.633,13.0
22.174,-2.73,0.514,2.0
22.173,-2.732,0.395,2.0
32.054,-3.951,0.397,0.0
26.152,-3.225,0.184,4.0
25.676,-3.169,0.043,12.0
22.188,-2.739,0.658,9.0
22.169,-2.738,0.539,1.0
22.192,-2.742,0.421,3.0
33.503,-4.141,0.454,1.0
26.009,-3.216,0.213,1.0
25.691,-3.179,0.073,9.0
22.236,-2.752,0.686,13.0
22.174,-2.745,0.565,1.0
22.175,-2.746,0.447,1.0
34.211,-4.238,0.503,0.0
28.892,-3.581,0.271,0.0
25.903,-3.212,0.104,6.0
22.279,-2.763,0.713,20.0
22.141,-2.747,0.59,0.0
22.098,-2.742,0.471,0.0
36.003,-4.469,0.572,0.0
30.384,-3.773,0.32,1.0
26.241,-3.26,0.136,4.0
22.297,-2.771,0.74,24.0
22.219,-2.761,0.618,0.0
0.0,0.0,0.0,0.0
39.19,-4.873,0.667,0.0
31.37,-3.901,0.367,0.0
26.296,-3.271,0.167,3.0
22.29,-2.774,0.765,27.0
22.288,-2.774,0.646,0.0
0.0,0.0,0.0,0.0
0.0,0.0,0.0,0.0
33.045,-4.114,0.424,1.0
26.12,-3.252,0.196,3.0
22.271,-2.774,0.791,19.0
22.338,-2.783,0.674,3.0
0.0,0.0,0.0,0.0
44.43,-5.535,0.86,0.0
33.747,-4.205,0.473,0.0
26.07,-3.248,0.226,1.0
22.218,-2.77,0.815,13.0
22.335,-2.784,0.699,11.0
0.0,0.0,0.0,0.0
0.0,0.0,0.0,0.0
35.372,-4.409,0.537,0.0
29.263,-3.647,0.287,0.0
22.184,-2.766,0.839,13.0
22.31,-2.781,0.725,19.0
0.0,0.0,0.0,0.0
0.0,0.0,0.0,0.0
37.016,-4.613,0.604,0.0
30.729,-3.83,0.337,0.0
22.181,-2.766,0.865,14.0
22.295,-2.779,0.75,24.0
0.0,0.0,0.0,0.0
0.0,0.0,0.0,0.0
39.106,-4.872,0.683,0.0
31.978,-3.984,0.387,0.0
22.18,-2.764,0.89,17.0
22.284,-2.777,0.775,22.0
22.32,-2.78,0.656,1.0
0.0,0.0,0.0,0.0
39.321,-4.895,0.732,0.0
33.415,-4.159,0.443,1.0
22.176,-2.762,0.916,17.0
22.236,-2.768,0.799,14.0
22.312,-2.776,0.682,7.0
22.138,-2.754,0.555,0.0
44.476,-5.531,0.878,0.0
34.023,-4.23,0.49,0.0
22.171,-2.758,0.941,18.0
22.186,-2.758,0.822,14.0
22.296,-2.771,0.707,17.0
22.175,-2.754,0.581,0.0
22.163,-2.752,0.462,0.0
35.819,-4.446,0.555,0.0
22.174,-2.754,0.965,17.0
22.177,-2.753,0.846,15.0
22.282,-2.764,0.731,22.0
22.178,-2.75,0.606,1.0
22.259,-2.759,0.489,0.0
39.212,-4.857,0.652,0.0
22.103,-2.74,0.987,11.0
22.168,-2.746,0.871,17.0
22.291,-2.76,0.756,24.0
22.186,-2.745,0.631,4.0
22.183,-2.743,0.512,0.0
22.195,-2.743,0.393,1.0
22.04,-2.726,1.009,9.0
22.124,-2.734,0.893,13.0
22.25,-2.748,0.779,22.0
22.182,-2.737,0.655,10.0
22.168,-2.734,0.536,6.0
22.163,-2.732,0.417,10.0
22.012,-2.715,1.032,9.0
22.037,-2.716,0.914,8.0
22.139,-2.726,0.799,13.0
22.18,-2.729,0.679,13.0
22.159,-2.725,0.56,15.0
22.148,-2.721,0.441,12.0
22.013,-2.707,1.055,9.0
22.006,-2.704,0.936,8.0
22.006,-2.701,0.818,7.0
22.093,-2.71,0.7,11.0
22.147,-2.714,0.583,18.0
22.153,-2.712,0.464,12.0
22.015,-2.698,1.079,10.0
21.994,-2.693,0.959,9.0
21.981,-2.689,0.841,8.0
21.984,-2.686,0.72,20.0
22.127,-2.701,0.605,16.0
22.155,-2.702,0.487,13.0
22.003,-2.687,1.101,10.0
22.007,-2.684,0.983,9.0
21.987,-2.679,0.863,9.0
22.002,-2.678,0.743,30.0
22.021,-2.677,0.625,14.0
22.153,-2.691,0.51,17.0
22.015,-2.677,1.125,10.0
22.001,-2.672,1.005,9.0
21.993,-2.668,0.886,9.0
21.967,-2.662,0.764,23.0
21.975,-2.66,0.646,20.0
22.132,-2.676,0.532,18.0
22.014,-2.665,1.147,10.0
22.006,-2.66,1.028,9.0
21.993,-2.656,0.908,9.0
21.981,-2.651,0.787,12.0
21.983,-2.648,0.668,22.0
22.128,-2.663,0.554,18.0
22.027,-2.653,1.169,9.0
22.021,-2.649,1.05,7.0
22.006,-2.644,0.93,7.0
22.007,-2.64,0.809,7.0
21.988,-2.635,0.69,16.0
22.132,-2.649,0.575,18.0
22.044,-2.641,1.192,7.0
22.038,-2.637,1.073,6.0
22.039,-2.633,0.953,7.0
22.094,-2.636,0.834,10.0
22.151,-2.639,0.717,14.0
22.14,-2.635,0.597,17.0
22.077,-2.63,1.215,3.0
22.09,-2.628,1.096,13.0
22.125,-2.628,0.978,14.0
22.147,-2.627,0.857,16.0
22.197,-2.629,0.739,16.0
22.172,-2.623,0.618,16.0
22.135,-2.621,1.238,7.0
22.127,-2.616,1.118,19.0
22.145,-2.614,0.999,16.0
22.148,-2.611,0.877,16.0
22.213,-2.614,0.759,13.0
22.189,-2.608,0.639,14.0
22.14,-2.605,1.259,18.0
22.138,-2.6,1.139,20.0
22.14,-2.596,1.019,16.0
22.155,-2.594,0.897,15.0
22.202,-2.596,0.779,13.0
22.267,-2.599,0.661,14.0
22.151,-2.589,1.279,13.0
22.138,-2.583,1.158,21.0
22.148,-2.579,1.039,15.0
22.167,-2.577,0.917,12.0
22.203,-2.577,0.798,14.0
22.33,-2.588,0.682,11.0
22.23,-2.579,1.303,9.0
22.146,-2.565,1.178,17.0
22.161,-2.562,1.058,13.0
22.194,-2.561,0.937,11.0
22.223,-2.56,0.818,10.0
22.396,-2.576,0.703,1.0
22.323,-2.57,1.327,2.0
22.188,-2.55,1.199,7.0
22.175,-2.543,1.078,11.0
22.228,-2.545,0.957,9.0
22.279,-2.546,0.838,5.0
0.0,0.0,0.0,0.0
159.839,-18.258,9.64,10.0
22.31,-2.543,1.223,2.0
22.281,-2.535,1.101,4.0
22.29,-2.531,0.978,2.0
22.327,-2.53,0.858,0.0
0.0,0.0,0.0,0.0
160.178,-18.143,9.787,11.0
160.224,-18.112,8.916,6.0
22.34,-2.52,1.121,0.0
0.0,0.0,0.0,0.0
153.821,-17.284,6.03,5.0
118.798,-13.324,4.012,3.0
174.538,-19.598,10.796,7.0
159.112,-17.827,8.975,14.0
158.61,-17.734,8.08,17.0
160.362,-17.893,7.277,4.0
153.639,-17.108,6.137,13.0
145.521,-16.171,5.021,2.0
159.958,-17.797,10.012,12.0
159.248,-17.678,9.097,21.0
158.903,-17.601,8.209,17.0
0.0,0.0,0.0,0.0
153.702,-16.951,6.248,3.0
145.559,-16.021,5.125,4.0
159.976,-17.626,10.126,14.0
159.474,-17.531,9.221,16.0
159.178,-17.46,8.334,18.0
160.213,-17.534,7.497,14.0
154.064,-16.823,6.368,11.0
145.733,-15.88,5.228,3.0
159.984,-17.45,10.236,8.0
160.008,-17.412,9.36,15.0
159.057,-17.268,8.433,17.0
159.922,-17.323,7.588,15.0
154.269,-16.673,6.476,9.0
36.624,-3.949,1.337,0.0
174.542,-18.843,11.278,23.0
160.023,-17.232,9.462,14.0
159.067,-17.087,8.534,19.0
159.97,-17.144,7.691,14.0
154.576,-16.526,6.586,10.0
35.661,-3.804,1.324,2.0
174.549,-18.64,11.385,18.0
159.97,-17.039,9.556,12.0
159.192,-16.913,8.636,18.0
159.705,-16.923,7.773,16.0
0.0,0.0,0.0,0.0
35.818,-3.777,1.351,1.0
175.01,-18.476,11.518,20.0
160.268,-16.876,9.667,17.0
158.529,-16.649,8.691,16.0
159.04,-16.659,7.831,17.0
0.0,0.0,0.0,0.0
35.373,-3.686,1.354,1.0
175.396,-18.299,11.641,24.0
160.229,-16.671,9.752,15.0
158.457,-16.442,8.773,16.0
159.418,-16.497,7.934,19.0
36.436,-3.761,1.613,0.0
34.887,-3.592,1.353,0.0
175.795,-18.118,11.756,17.0
160.556,-16.501,9.854,14.0
158.536,-16.248,8.857,9.0
158.935,-16.244,7.989,15.0
35.544,-3.623,1.591,0.0
34.622,-3.519,1.359,0.0
176.175,-17.927,11.868,8.0
160.299,-16.264,9.914,10.0
160.291,-16.217,9.029,16.0
159.049,-16.046,8.069,19.0
35.249,-3.546,1.594,0.0
34.329,-3.444,1.363,0.0
143.849,-14.447,9.755,18.0
0.0,0.0,0.0,0.0
160.107,-15.985,9.088,18.0
159.215,-15.85,8.143,18.0
34.817,-3.456,1.589,2.0
34.249,-3.39,1.374,0.0
143.6,-14.228,9.797,6.0
150.114,-14.829,9.41,5.0
160.111,-15.768,9.152,19.0
159.016,-15.614,8.195,5.0
34.716,-3.398,1.598,0.0
34.207,-3.339,1.385,0.0
143.478,-14.018,9.842,11.0
149.456,-14.557,9.424,9.0
160.312,-15.567,9.221,15.0
158.795,-15.372,8.242,14.0
34.617,-3.341,1.605,0.0
34.141,-3.285,1.394,0.0
143.535,-13.823,9.893,9.0
149.359,-14.336,9.468,15.0
149.562,-14.312,8.651,13.0
150.192,-14.326,7.841,27.0
34.599,-3.29,1.615,0.0
34.117,-3.234,1.404,1.0
147.098,-13.954,10.184,9.0
194.464,-18.388,12.382,9.0
149.533,-14.092,8.694,30.0
150.175,-14.108,7.883,24.0
34.725,-3.251,1.63,0.0
34.106,-3.184,1.413,0.0
145.904,-13.629,10.14,3.0
151.48,-14.102,9.686,14.0
150.192,-13.936,8.769,23.0
169.417,-15.667,8.935,13.0
34.716,-3.2,1.638,0.0
34.102,-3.133,1.42,0.0
145.796,-13.404,10.164,10.0
148.823,-13.634,9.547,11.0
186.281,-17.009,10.916,25.0
169.879,-15.459,8.993,11.0
34.689,-3.146,1.644,0.0
34.036,-3.076,1.424,0.0
148.345,-13.416,10.37,5.0
185.215,-16.69,11.916,7.0
209.116,-18.778,12.291,9.0
186.507,-16.689,9.906,19.0
34.797,-3.103,1.654,0.0
34.083,-3.028,1.431,0.0
146.107,-12.989,10.236,13.0
150.205,-13.304,9.686,11.0
199.189,-17.58,11.734,9.0
190.054,-16.715,10.12,79.0
34.836,-3.052,1.661,0.0
34.185,-2.985,1.44,0.0
146.227,-12.773,10.26,12.0
148.33,-12.909,9.58,6.0
209.188,-18.139,12.343,14.0
151.971,-13.13,8.104,150.0
34.664,-2.984,1.655,0.0
0.0,0.0,0.0,0.0
146.059,-12.53,10.259,11.0
146.946,-12.557,9.499,12.0
151.97,-12.938,8.977,17.0
151.972,-12.888,8.113,150.0
34.756,-2.936,1.661,0.0
34.305,-2.887,1.449,0.0
146.479,-12.332,10.294,14.0
149.758,-12.558,9.686,22.0
209.233,-17.476,12.362,18.0
151.964,-12.645,8.113,16.0
34.922,-2.894,1.669,0.0
34.185,-2.822,1.444,0.0
147.659,-12.194,10.374,17.0
149.289,-12.28,9.653,9.0
209.361,-17.154,12.365,7.0
200.18,-16.336,10.682,25.0
34.932,-2.839,1.669,0.0
34.121,-2.762,1.44,0.0
0.0,0.0,0.0,0.0
208.546,-16.814,13.472,15.0
0.0,0.0,0.0,0.0
200.209,-16.014,10.67,13.0
0.0,0.0,0.0,0.0
34.144,-2.709,1.437,0.0
148.604,-11.789,10.42,14.0
208.54,-16.474,13.451,11.0
0.0,0.0,0.0,0.0
194.123,-15.205,10.324,13.0
34.747,-2.71,1.653,0.0
34.071,-2.646,1.43,0.0
155.302,-12.062,10.868,5.0
195.315,-15.103,12.57,6.0
0.0,0.0,0.0,0.0
193.517,-14.836,10.263,13.0
34.83,-2.659,1.651,0.0
34.039,-2.588,1.424,0.0
149.318,-11.347,10.424,9.0
154.489,-11.688,9.915,4.0
0.0,0.0,0.0,0.0
0.0,0.0,0.0,0.0
34.728,-2.593,1.64,0.0
34.016,-2.529,1.415,0.0
122.903,-9.134,8.552,3.0
154.498,-11.43,9.882,10.0
189.553,-13.96,11.057,11.0
0.0,0.0,0.0,0.0
34.751,-2.536,1.632,0.0
34.1,-2.478,1.411,0.0
122.742,-8.914,8.51,8.0
0.0,0.0,0.0,0.0
189.916,-13.667,11.027,9.0
191.938,-13.748,10.044,5.0
34.777,-2.479,1.624,0.0
34.105,-2.42,1.401,0.0
122.61,-8.696,8.465,9.0
154.525,-10.905,9.796,7.0
189.262,-13.295,10.929,16.0
0.0,0.0,0.0,0.0
0.0,0.0,0.0,0.0
34.045,-2.358,1.387,1.0
122.564,-8.484,8.419,10.0
92.437,-6.367,5.828,4.0
156.642,-10.739,8.991,10.0
156.924,-10.706,8.105,12.0
0.0,0.0,0.0,0.0
33.962,-2.295,1.371,2.0
121.802,-8.223,8.32,15.0
92.433,-6.209,5.792,10.0
189.061,-12.636,10.777,16.0
157.048,-10.444,8.049,14.0
0.0,0.0,0.0,0.0
33.958,-2.236,1.357,4.0
89.443,-5.884,6.072,13.0
89.788,-5.876,5.587,12.0
156.94,-10.22,8.877,16.0
0.0,0.0,0.0,0.0
34.594,-2.23,1.562,0.0
33.974,-2.179,1.342,5.0
89.568,-5.737,6.038,9.0
92.345,-5.884,5.702,15.0
189.099,-11.985,10.606,11.0
189.226,-11.93,9.522,4.0
34.613,-2.171,1.546,0.0
33.973,-2.12,1.325,5.0
89.674,-5.587,6.0,6.0
122.505,-7.592,7.501,10.0
188.234,-11.606,10.46,22.0
188.955,-11.588,9.41,8.0
34.656,-2.114,1.529,0.0
34.019,-2.064,1.309,4.0
92.018,-5.574,6.106,12.0
120.974,-7.287,7.34,9.0
188.188,-11.273,10.35,19.0
188.578,-11.234,9.283,17.0
0.0,0.0,0.0,0.0
34.074,-2.008,1.291,3.0
89.477,-5.265,5.884,11.0
112.038,-6.555,6.732,10.0
123.431,-7.182,6.715,9.0
188.686,-10.919,9.174,19.0
0.0,0.0,0.0,0.0
34.149,-1.954,1.273,2.0
92.297,-5.272,6.013,16.0
112.019,-6.362,6.66,19.0
121.104,-6.838,6.511,6.0
188.806,-10.602,9.06,20.0
0.0,0.0,0.0,0.0
34.2,-1.899,1.253,0.0
90.264,-4.999,5.82,10.0
112.017,-6.168,6.584,11.0
122.972,-6.733,6.527,9.0
188.952,-10.284,8.936,6.0
0.0,0.0,0.0,0.0
109.332,-5.883,3.929,150.0
92.825,-4.982,5.919,14.0
112.137,-5.982,6.511,16.0
188.957,-10.019,9.894,20.0
189.073,-9.967,8.806,6.0
0.0,0.0,0.0,0.0
109.37,-5.697,3.85,154.0
108.936,-5.657,6.863,8.0
112.405,-5.801,6.441,15.0
189.356,-9.713,9.77,21.0
0.0,0.0,0.0,0.0
0.0,0.0,0.0,0.0
109.409,-5.511,3.766,45.0
108.78,-5.463,6.768,8.0
112.324,-5.604,6.347,7.0
189.511,-9.395,9.626,20.0
0.0,0.0,0.0,0.0
0.0,0.0,0.0,0.0
0.0,0.0,0.0,0.0
109.207,-5.296,6.703,7.0
112.406,-5.415,6.257,9.0
189.778,-9.082,9.48,7.0
0.0,0.0,0.0,0.0
94.593,-4.468,3.636,3.0
94.43,-4.432,3.092,1.0
98.565,-4.609,5.963,5.0
112.056,-5.205,6.138,6.0
164.324,-7.583,8.063,28.0
0.0,0.0,0.0,0.0
92.883,-4.229,3.487,4.0
92.738,-4.195,2.954,1.0
95.195,-4.289,5.672,18.0
112.61,-5.039,6.065,20.0
194.505,-8.646,9.366,19.0
0.0,0.0,0.0,0.0
92.224,-4.042,3.377,150.0
0.0,0.0,0.0,0.0
90.158,-3.908,5.286,22.0
111.869,-4.814,5.918,11.0
120.241,-5.139,5.674,40.0
92.496,-3.926,3.826,11.0
92.178,-3.884,3.285,170.0
0.0,0.0,0.0,0.0
90.272,-3.761,5.204,25.0
113.531,-4.694,5.893,7.0
194.747,-7.996,8.993,5.0
92.225,-3.759,3.722,14.0
92.153,-3.728,3.192,150.0
87.988,-3.534,2.544,1.0
113.617,-4.542,6.433,18.0
113.562,-4.506,5.778,7.0
93.356,-3.677,4.215,1.0
92.162,-3.603,3.624,50.0
92.123,-3.574,3.095,87.0
0.0,0.0,0.0,0.0
113.244,-4.337,6.291,28.0
113.371,-4.309,5.647,31.0
113.475,-4.28,5.002,2.0
92.17,-3.45,3.525,150.0
92.351,-3.43,3.002,6.0
0.0,0.0,0.0,0.0
113.336,-4.152,6.17,23.0
113.513,-4.126,5.528,7.0
93.315,-3.365,4.008,2.0
92.213,-3.299,3.423,162.0
92.909,-3.297,2.916,1.0
0.0,0.0,0.0,0.0
190.086,-6.652,10.133,19.0
190.507,-6.613,9.06,16.0
92.237,-3.175,3.857,4.0
92.228,-3.148,3.317,151.0
93.043,-3.15,2.813,1.0
0.0,0.0,0.0,0.0
190.258,-6.348,9.918,20.0
190.427,-6.298,8.831,10.0
92.236,-3.025,3.747,21.0
92.184,-2.997,3.206,48.0
0.0,0.0,0.0,0.0
0.0,0.0,0.0,0.0
189.909,-6.026,9.666,11.0
190.669,-5.995,8.608,7.0
92.285,-2.875,3.635,31.0
92.19,-2.846,3.091,19.0
0.0,0.0,0.0,0.0
53.404,-1.619,1.177,0.0
189.82,-5.714,9.422,21.0
0.0,0.0,0.0,0.0
92.311,-2.728,3.52,29.0
92.452,-2.706,2.983,4.0
0.0,0.0,0.0,0.0
0.0,0.0,0.0,0.0
189.485,-5.402,9.161,19.0
190.181,-5.368,8.098,9.0
92.373,-2.581,3.4,151.0
93.128,-2.578,2.884,1.0
0.0,0.0,0.0,0.0
0.0,0.0,0.0,0.0
189.598,-5.105,8.914,21.0
170.422,-4.543,7.03,8.0
92.455,-2.44,3.281,151.0
94.464,-2.467,2.798,1.0
0.0,0.0,0.0,0.0
0.0,0.0,0.0,0.0
171.684,-4.354,7.838,40.0
171.532,-4.305,6.841,32.0
128.305,-3.187,4.378,2.0
0.0,0.0,0.0,0.0
0.0,0.0,0.0,0.0
0.0,0.0,0.0,0.0
128.447,-3.06,5.685,14.0
128.418,-3.025,4.942,36.0
96.888,-2.257,3.169,8.0
0.0,0.0,0.0,0.0
0.0,0.0,0.0,0.0
0.0,0.0,0.0,0.0
96.911,-2.161,4.151,40.0
128.416,-2.83,4.758,8.0
96.761,-2.107,3.026,5.0
0.0,0.0,0.0,0.0
0.0,0.0,0.0,0.0
0.0,0.0,0.0,0.0
96.906,-2.016,4.01,41.0
96.974,-1.992,3.452,35.0
90.059,-1.828,2.685,2.0
0.0,0.0,0.0,0.0
0.0,0.0,0.0,0.0
36.431,-0.712,0.452,0.0
96.995,-1.875,3.87,13.0
96.934,-1.849,3.307,33.0
88.888,-1.673,2.517,2.0
0.0,0.0,0.0,0.0
41.872,-0.767,0.697,0.0
34.127,-0.617,0.372,0.0
0.0,0.0,0.0,0.0
96.882,-1.707,3.156,15.0
0.0,0.0,0.0,0.0
0.0,0.0,0.0,0.0
0.0,0.0,0.0,0.0
33.751,-0.562,0.315,2.0
0.0,0.0,0.0,0.0
89.782,-1.452,2.784,4.0
63.949,-1.019,1.613,0.0
47.813,-0.751,0.925,0.0
38.482,-0.595,0.522,0.0
32.337,-0.492,0.251,0.0
7.174,-0.332,-0.745,0.0
6.894,-0.321,-0.753,0.0
6.666,-0.312,-0.765,0.0
0.0,0.0,0.0,0.0
0.0,0.0,0.0,0.0
0.0,0.0,0.0,0.0
7.187,-0.34,-0.741,0.0
6.922,-0.329,-0.752,0.0
6.669,-0.318,-0.761,0.0
0.0,0.0,0.0,0.0
0.0,0.0,0.0,0.0
0.0,0.0,0.0,0.0
7.232,-0.349,-0.741,0.0
6.97,-0.337,-0.752,0.0
6.719,-0.326,-0.762,0.0
0.0,0.0,0.0,0.0
0.0,0.0,0.0,0.0
0.0,0.0,0.0,0.0
7.267,-0.357,-0.739,0.0
6.997,-0.345,-0.75,0.0
6.785,-0.336,-0.764,0.0
0.0,0.0,0.0,0.0
0.0,0.0,0.0,0.0
0.0,0.0,0.0,0.0
7.31,-0.365,-0.738,0.0
7.059,-0.354,-0.751,0.0
6.818,-0.343,-0.763,0.0
0.0,0.0,0.0,0.0
0.0,0.0,0.0,0.0
0.0,0.0,0.0,0.0
0.0,0.0,0.0,0.0
7.091,-0.362,-0.748,0.0
6.823,-0.349,-0.758,0.0
6.535,-0.336,-0.762,0.0
0.0,0.0,0.0,0.0
0.0,0.0,0.0,0.0
0.0,0.0,0.0,0.0
7.095,-0.368,-0.743,0.0
6.874,-0.358,-0.757,0.0
0.0,0.0,0.0,0.0
15.206,-0.797,-1.844,0.0
0.0,0.0,0.0,0.0
0.0,0.0,0.0,0.0
7.195,-0.379,-0.747,0.0
6.893,-0.364,-0.753,0.0
0.0,0.0,0.0,0.0
0.0,0.0,0.0,0.0
0.0,0.0,0.0,0.0
0.0,0.0,0.0,0.0
7.251,-0.387,-0.746,0.0
6.929,-0.371,-0.75,0.0
0.0,0.0,0.0,0.0
0.0,0.0,0.0,0.0
0.0,0.0,0.0,0.0
0.0,0.0,0.0,0.0
7.268,-0.394,-0.74,0.0
0.0,0.0,0.0,0.0
6.762,-0.369,-0.763,0.0
0.0,0.0,0.0,0.0
0.0,0.0,0.0,0.0
0.0,0.0,0.0,0.0
7.295,-0.4,-0.736,0.0
0.0,0.0,0.0,0.0
6.774,-0.374,-0.757,0.0
6.586,-0.365,-0.772,0.0
0.0,0.0,0.0,0.0
0.0,0.0,0.0,0.0
0.0,0.0,0.0,0.0
0.0,0.0,0.0,0.0
6.832,-0.382,-0.757,0.0
6.61,-0.37,-0.768,0.0
6.356,-0.357,-0.773,0.0
0.0,0.0,0.0,0.0
0.0,0.0,0.0,0.0
7.169,-0.404,-0.746,0.0
0.0,0.0,0.0,0.0
6.658,-0.377,-0.766,0.0
0.0,0.0,0.0,0.0
0.0,0.0,0.0,0.0
0.0,0.0,0.0,0.0
7.234,-0.412,-0.745,0.0
0.0,0.0,0.0,0.0
6.74,-0.386,-0.768,0.0
6.503,-0.373,-0.776,0.0
0.0,0.0,0.0,0.0
0.0,0.0,0.0,0.0
7.253,-0.417,-0.738,0.0
0.0,0.0,0.0,0.0
6.823,-0.395,-0.769,0.0
6.554,-0.38,-0.774,0.0
7.888,-0.456,-0.709,0.0
0.0,0.0,0.0,0.0
7.323,-0.426,-0.737,0.0
0.0,0.0,0.0,0.0
6.824,-0.398,-0.761,0.0
6.565,-0.384,-0.768,0.0
32.084,3.385,0.199,1.0
27.188,2.872,0.014,0.0
24.034,2.543,-0.124,0.0
21.238,2.25,-0.232,1.0
18.514,1.964,-0.308,0.0
16.889,1.795,-0.377,0.0
31.714,3.382,0.164,0.0
26.401,2.819,-0.013,1.0
23.451,2.507,-0.145,0.0
20.592,2.204,-0.247,0.0
18.203,1.951,-0.322,0.0
16.65,1.788,-0.39,0.0
29.346,3.161,0.121,3.0
26.069,2.811,-0.04,2.0
22.504,2.43,-0.163,0.0
20.254,2.19,-0.264,0.0
17.795,1.926,-0.334,0.0
16.293,1.766,-0.399,0.0
29.262,3.182,0.09,5.0
25.589,2.786,-0.067,0.0
21.812,2.377,-0.181,0.0
19.498,2.128,-0.275,0.0
17.56,1.919,-0.348,0.0
15.996,1.75,-0.408,0.0
28.943,3.176,0.057,3.0
24.295,2.669,-0.09,1.0
21.433,2.357,-0.201,2.0
19.19,2.113,-0.292,0.0
17.215,1.898,-0.36,0.0
15.776,1.741,-0.42,0.0
27.647,3.06,0.024,0.0
24.052,2.665,-0.115,2.0
21.314,2.364,-0.224,2.0
18.583,2.063,-0.303,0.0
16.975,1.887,-0.374,0.0
15.535,1.729,-0.431,0.0
26.506,2.958,-0.005,0.0
23.684,2.645,-0.14,1.0
20.804,2.326,-0.242,0.0
18.253,2.043,-0.318,0.0
16.658,1.867,-0.386,0.0
15.282,1.714,-0.441,0.0
26.121,2.937,-0.034,1.0
22.843,2.571,-0.161,0.0
20.19,2.275,-0.257,0.0
17.802,2.008,-0.33,0.0
16.312,1.841,-0.396,0.0
15.074,1.704,-0.452,0.0
25.745,2.916,-0.063,1.0
22.052,2.5,-0.18,0.0
19.675,2.232,-0.273,0.0
17.516,1.989,-0.345,0.0
16.025,1.822,-0.407,0.0
14.79,1.683,-0.461,0.0
24.36,2.778,-0.088,1.0
21.643,2.47,-0.202,0.0
19.195,2.193,-0.289,0.0
17.232,1.97,-0.36,0.0
15.755,1.803,-0.419,0.0
14.564,1.669,-0.47,0.0
23.964,2.751,-0.114,1.0
21.104,2.424,-0.221,0.0
18.618,2.14,-0.302,0.0
16.923,1.947,-0.372,0.0
15.499,1.785,-0.43,0.0
14.288,1.647,-0.478,0.0
23.517,2.716,-0.139,1.0
20.579,2.378,-0.239,0.0
18.337,2.12,-0.319,0.0
16.628,1.924,-0.386,0.0
15.289,1.771,-0.442,0.0
14.028,1.626,-0.486,0.0
22.731,2.639,-0.161,0.0
20.016,2.326,-0.256,0.0
17.898,2.081,-0.332,0.0
16.184,1.883,-0.394,0.0
15.019,1.749,-0.452,0.0
13.82,1.611,-0.495,0.0
22.106,2.58,-0.183,0.0
19.697,2.3,-0.276,0.0
17.469,2.041,-0.345,0.0
16.006,1.872,-0.409,0.0
14.768,1.728,-0.462,0.0
13.612,1.594,-0.504,0.0
21.692,2.544,-0.205,0.0
19.035,2.233,-0.289,0.0
17.199,2.019,-0.36,0.0
15.761,1.852,-0.422,0.0
14.525,1.707,-0.472,0.0
13.442,1.581,-0.514,0.0
20.891,2.46,-0.222,0.0
18.514,2.181,-0.303,0.0
16.936,1.997,-0.375,0.0
15.51,1.83,-0.433,0.0
14.317,1.69,-0.482,0.0
13.215,1.561,-0.521,0.0
13.139,0.521,-0.507,0.0
12.391,0.489,-0.545,0.0
11.613,0.455,-0.573,0.0
0.0,0.0,0.0,0.0
10.38,0.401,-0.625,0.0
9.891,0.38,-0.648,0.0
13.29,0.507,-0.498,0.0
12.48,0.472,-0.534,0.0
11.791,0.443,-0.568,0.0
11.113,0.415,-0.596,0.0
10.465,0.388,-0.617,0.0
10.037,0.37,-0.646,0.0
13.457,0.492,-0.488,0.0
12.618,0.458,-0.525,0.0
11.941,0.431,-0.561,0.0
11.172,0.4,-0.586,0.0
10.643,0.378,-0.615,0.0
10.091,0.356,-0.637,0.0
13.682,0.479,-0.48,0.0
12.823,0.446,-0.518,0.0
12.037,0.416,-0.551,0.0
11.338,0.389,-0.581,0.0
10.767,0.366,-0.609,0.0
10.232,0.346,-0.633,0.0
13.932,0.467,-0.471,0.0
12.985,0.432,-0.509,0.0
12.335,0.407,-0.549,0.0
11.519,0.377,-0.575,0.0
10.889,0.354,-0.602,0.0
10.3,0.332,-0.624,0.0
14.134,0.452,-0.46,0.0
13.218,0.42,-0.5,0.0
12.458,0.393,-0.538,0.0
11.682,0.365,-0.568,0.0
11.123,0.345,-0.6,0.0
10.474,0.322,-0.621,0.0
14.421,0.44,-0.45,0.0
13.428,0.406,-0.491,0.0
12.625,0.379,-0.529,0.0
11.848,0.353,-0.56,0.0
11.204,0.331,-0.59,0.0
10.597,0.311,-0.614,0.0
14.709,0.427,-0.439,0.0
13.661,0.394,-0.481,0.0
12.822,0.366,-0.519,0.0
12.067,0.342,-0.554,0.0
11.391,0.32,-0.583,0.0
10.74,0.299,-0.607,0.0
14.935,0.412,-0.426,0.0
13.898,0.38,-0.47,0.0
12.972,0.352,-0.507,0.0
12.338,0.331,-0.549,0.0
11.496,0.306,-0.573,0.0
10.944,0.289,-0.603,0.0
15.482,0.405,-0.419,0.0
14.141,0.367,-0.458,0.0
13.248,0.34,-0.499,0.0
12.488,0.318,-0.538,0.0
11.735,0.296,-0.567,0.0
11.085,0.277,-0.595,0.0
15.685,0.388,-0.402,0.0
14.515,0.356,-0.449,0.0
13.524,0.328,-0.49,0.0
12.66,0.304,-0.526,0.0
11.914,0.284,-0.558,0.0
11.266,0.266,-0.588,0.0
16.037,0.375,-0.387,0.0
14.792,0.342,-0.435,0.0
13.794,0.316,-0.478,0.0
12.916,0.293,-0.518,0.0
12.161,0.273,-0.552,0.0
11.401,0.253,-0.577,0.0
16.428,0.361,-0.372,0.0
15.115,0.329,-0.422,0.0
14.037,0.302,-0.466,0.0
13.115,0.279,-0.506,0.0
12.386,0.261,-0.543,0.0
11.671,0.243,-0.573,0.0
16.754,0.346,-0.353,0.0
15.593,0.318,-0.411,0.0
14.283,0.288,-0.451,0.0
13.357,0.267,-0.494,0.0
12.594,0.249,-0.532,0.0
11.882,0.232,-0.564,0.0
17.12,0.331,-0.334,0.0
15.893,0.303,-0.393,0.0
14.717,0.278,-0.441,0.0
13.683,0.255,-0.484,0.0
12.815,0.236,-0.521,0.0
12.095,0.22,-0.555,0.0
17.697,0.319,-0.316,0.0
16.364,0.291,-0.378,0.0
15.05,0.264,-0.427,0.0
13.884,0.241,-0.468,0.0
13.062,0.224,-0.509,0.0
12.368,0.209,-0.547,0.0
18.311,0.306,-0.297,0.0
16.655,0.275,-0.358,0.0
15.52,0.253,-0.415,0.0
14.276,0.23,-0.458,0.0
13.351,0.212,-0.498,0.0
12.524,0.196,-0.533,0.0
18.817,0.291,-0.274,0.0
17.063,0.26,-0.338,0.0
15.85,0.239,-0.397,0.0
14.651,0.217,-0.445,0.0
13.612,0.199,-0.485,0.0
12.784,0.184,-0.522,0.0
19.973,0.285,-0.257,0.0
17.679,0.248,-0.32,0.0
16.263,0.225,-0.38,0.0
14.99,0.204,-0.43,0.0
13.927,0.187,-0.472,0.0
13.047,0.173,-0.511,0.0
20.71,0.27,-0.231,0.0
18.336,0.236,-0.3,0.0
16.657,0.211,-0.36,0.0
15.466,0.193,-0.416,0.0
14.231,0.174,-0.457,0.0
13.344,0.161,-0.499,0.0
21.874,0.26,-0.206,2.0
19.01,0.222,-0.278,0.0
17.102,0.196,-0.339,0.0
15.821,0.179,-0.398,0.0
14.653,0.163,-0.445,0.0
13.632,0.149,-0.485,0.0
22.358,0.24,-0.171,0.0
20.029,0.211,-0.257,0.0
17.714,0.183,-0.32,0.0
16.269,0.165,-0.38,0.0
14.972,0.149,-0.428,0.0
13.938,0.136,-0.471,0.0
23.745,0.229,-0.138,0.0
20.955,0.198,-0.231,0.0
18.391,0.17,-0.299,0.0
16.699,0.151,-0.36,0.0
15.468,0.137,-0.414,0.0
14.279,0.124,-0.456,0.0
24.822,0.212,-0.099,0.0
22.052,0.184,-0.203,3.0
19.167,0.157,-0.276,0.0
17.192,0.138,-0.339,0.0
15.918,0.125,-0.397,0.0
14.697,0.112,-0.443,0.0
25.744,0.193,-0.056,0.0
22.7,0.166,-0.168,0.0
20.143,0.144,-0.253,0.0
17.756,0.124,-0.318,0.0
16.426,0.112,-0.379,0.0
15.054,0.099,-0.425,0.0
26.851,0.174,-0.009,0.0
23.698,0.149,-0.131,0.0
21.114,0.13,-0.226,2.0
18.486,0.11,-0.296,0.0
16.801,0.097,-0.356,0.0
15.646,0.088,-0.413,0.0
27.807,0.153,0.042,0.0
25.053,0.133,-0.091,0.0
22.084,0.114,-0.195,2.0
19.274,0.096,-0.272,0.0
17.285,0.083,-0.334,0.0
16.032,0.075,-0.393,0.0
28.758,0.13,0.098,1.0
25.932,0.113,-0.045,0.0
23.179,0.097,-0.16,1.0
20.493,0.083,-0.25,0.0
18.043,0.07,-0.313,0.0
16.493,0.061,-0.372,0.0
30.298,0.109,0.162,0.0
27.118,0.093,0.004,0.0
24.332,0.08,-0.121,0.0
21.298,0.067,-0.219,4.0
18.795,0.056,-0.29,0.0
16.964,0.048,-0.35,0.0
31.643,0.085,0.231,0.0
28.657,0.073,0.061,4.0
25.347,0.061,-0.076,0.0
22.308,0.05,-0.185,0.0
19.675,0.041,-0.265,0.0
17.527,0.034,-0.327,0.0
0.0,0.0,0.0,0.0
28.774,0.048,0.118,0.0
26.484,0.041,-0.027,0.0
23.664,0.033,-0.149,1.0
20.987,0.026,-0.241,2.0
18.299,0.02,-0.305,0.0
35.971,0.036,0.404,0.0
30.646,0.027,0.186,0.0
27.617,0.02,0.024,0.0
24.812,0.015,-0.108,0.0
21.64,0.01,-0.206,1.0
19.194,0.006,-0.282,0.0
0.0,0.0,0.0,0.0
33.088,0.003,0.267,0.0
28.687,0.0,0.083,1.0
25.829,-0.003,-0.061,0.0
23.292,-0.006,-0.175,0.0
20.295,-0.008,-0.257,0.0
40.863,-0.021,0.622,0.0
33.987,-0.022,0.342,0.0
30.091,-0.023,0.147,0.0
26.848,-0.024,-0.009,0.0
23.93,-0.024,-0.131,0.0
21.223,-0.024,-0.226,2.0
43.332,-0.054,0.747,0.0
36.613,-0.05,0.443,0.0
31.469,-0.047,0.218,0.0
28.572,-0.045,0.047,2.0
25.252,-0.043,-0.088,0.0
22.578,-0.041,-0.195,0.0
0.0,0.0,0.0,0.0
39.736,-0.081,0.561,0.0
33.268,-0.072,0.298,1.0
28.798,-0.065,0.107,6.0
26.362,-0.062,-0.037,0.0
23.661,-0.058,-0.155,1.0
0.0,0.0,0.0,0.0
42.885,-0.116,0.694,0.0
35.957,-0.101,0.396,0.0
30.872,-0.089,0.178,0.0
27.634,-0.083,0.017,0.0
24.825,-0.077,-0.112,0.0
57.71,-0.186,1.349,0.0
0.0,0.0,0.0,0.0
37.621,-0.128,0.492,0.0
32.879,-0.115,0.257,1.0
28.755,-0.103,0.077,6.0
25.684,-0.094,-0.063,0.0
0.0,0.0,0.0,0.0
0.0,0.0,0.0,0.0
41.522,-0.165,0.629,0.0
33.315,-0.135,0.33,0.0
28.86,-0.12,0.137,2.0
27.114,-0.115,-0.01,0.0
80.401,-0.35,2.214,3.0
0.0,0.0,0.0,0.0
0.0,0.0,0.0,0.0
36.414,-0.167,0.437,0.0
31.507,-0.147,0.216,1.0
28.611,-0.136,0.048,3.0
82.689,-0.403,2.451,5.0
0.0,0.0,0.0,0.0
0.0,0.0,0.0,0.0
0.0,0.0,0.0,0.0
33.31,-0.171,0.297,0.0
28.815,-0.15,0.109,6.0
104.439,-0.558,3.315,4.0
80.997,-0.438,2.151,1.0
0.0,0.0,0.0,0.0
0.0,0.0,0.0,0.0
35.133,-0.197,0.387,0.0
31.281,-0.177,0.184,1.0
104.861,-0.606,3.548,5.0
82.629,-0.482,2.369,4.0
0.0,0.0,0.0,0.0
0.0,0.0,0.0,0.0
0.0,0.0,0.0,0.0
32.483,-0.197,0.259,1.0
0.0,0.0,0.0,0.0
90.434,-0.563,2.781,6.0
0.0,0.0,0.0,0.0
0.0,0.0,0.0,0.0
0.0,0.0,0.0,0.0
34.319,-0.22,0.345,0.0
0.0,0.0,0.0,0.0
104.619,-0.688,3.437,7.0
81.83,-0.542,2.267,4.0
0.0,0.0,0.0,0.0
0.0,0.0,0.0,0.0
0.0,0.0,0.0,0.0
194.611,-1.334,7.803,4.0
0.0,0.0,0.0,0.0
82.986,-0.574,2.472,5.0
0.0,0.0,0.0,0.0
0.0,0.0,0.0,0.0
0.0,0.0,0.0,0.0
193.85,-1.383,8.182,17.0
0.0,0.0,0.0,0.0
90.554,-0.651,2.89,15.0
82.007,-0.592,2.185,2.0
0.0,0.0,0.0,0.0
0.0,0.0,0.0,0.0
193.749,-1.43,8.583,23.0
180.683,-1.337,7.071,6.0
90.716,-0.673,3.083,8.0
82.678,-0.615,2.376,4.0
0.0,0.0,0.0,0.0
46.738,-0.349,0.861,0.0
193.478,-1.468,8.979,22.0
193.903,-1.474,7.995,9.0
90.694,-0.69,3.272,5.0
90.42,-0.69,2.788,10.0
0.0,0.0,0.0,0.0
0.0,0.0,0.0,0.0
193.642,-1.501,9.392,23.0
193.829,-1.505,8.4,23.0
90.683,-0.704,3.462,2.0
90.65,-0.704,2.983,20.0
82.403,-0.641,2.288,3.0
0.0,0.0,0.0,0.0
193.077,-1.523,9.768,22.0
193.48,-1.526,8.786,22.0
0.0,0.0,0.0,0.0
90.696,-0.715,3.174,16.0
90.267,-0.711,2.694,3.0
0.0,0.0,0.0,0.0
193.874,-1.547,10.211,20.0
193.457,-1.542,9.19,21.0
194.058,-1.545,8.216,22.0
90.716,-0.721,3.363,12.0
90.6,-0.719,2.892,20.0
82.401,-0.653,2.206,1.0
179.744,-1.443,9.842,9.0
193.216,-1.549,9.58,24.0
193.747,-1.55,8.606,22.0
90.781,-0.724,3.553,3.0
90.659,-0.722,3.081,21.0
83.006,-0.659,2.393,3.0
179.374,-1.444,10.193,15.0
193.487,-1.552,9.993,17.0
193.446,-1.547,8.992,20.0
194.109,-1.549,7.999,10.0
90.709,-0.721,3.27,15.0
90.504,-0.717,2.795,12.0
105.833,-0.849,6.231,12.0
193.81,-1.55,10.409,20.0
193.444,-1.54,9.388,22.0
193.743,-1.537,8.382,20.0
90.713,-0.717,3.455,4.0
90.647,-0.713,2.983,19.0
105.821,-0.842,6.448,22.0
179.67,-1.424,10.018,20.0
193.188,-1.524,9.772,28.0
193.56,-1.519,8.767,24.0
194.049,-1.515,7.787,5.0
90.718,-0.705,3.172,10.0
105.648,-0.831,6.654,16.0
179.126,-1.401,10.354,8.0
193.88,-1.508,10.199,21.0
193.6,-1.497,9.164,21.0
193.962,-1.491,8.178,21.0
90.789,-0.693,3.357,1.0
97.827,-0.756,6.36,8.0
105.811,-0.812,6.329,21.0
193.665,-1.476,10.579,9.0
193.319,-1.464,9.54,26.0
193.628,-1.456,8.554,23.0
180.605,-1.349,7.043,6.0
96.536,-0.729,6.472,14.0
105.808,-0.793,6.542,20.0
179.284,-1.334,10.154,17.0
193.609,-1.428,9.94,23.0
193.43,-1.416,8.929,22.0
194.063,-1.408,7.955,7.0
90.602,-0.665,6.255,10.0
105.615,-0.768,6.741,15.0
105.891,-0.764,6.208,10.0
193.791,-1.386,10.335,22.0
193.736,-1.372,9.326,20.0
193.961,-1.36,8.332,18.0
88.156,-0.626,6.26,15.0
97.142,-0.683,6.393,14.0
105.843,-0.736,6.413,22.0
179.646,-1.237,9.934,9.0
193.601,-1.319,9.702,11.0
193.615,-1.304,8.695,21.0
82.451,-0.562,6.018,15.0
96.438,-0.65,6.536,14.0
105.663,-0.704,6.61,21.0
179.125,-1.178,10.256,9.0
193.778,-1.259,10.088,22.0
193.725,-1.244,9.079,16.0
76.552,-0.497,5.737,22.0
96.439,-0.618,6.723,14.0
105.754,-0.669,6.821,17.0
127.615,-0.797,7.554,8.0
193.615,-1.191,10.452,19.0
193.717,-1.175,9.451,7.0
76.578,-0.47,5.887,19.0
87.857,-0.532,6.295,11.0
96.485,-0.575,6.408,8.0
105.806,-0.621,6.466,13.0
179.081,-1.035,10.01,27.0
193.995,-1.102,9.833,11.0
62.573,-0.36,4.93,19.0
76.492,-0.433,5.626,12.0
96.493,-0.536,6.593,18.0
105.612,-0.576,6.654,19.0
127.406,-0.683,7.362,6.0
179.251,-0.943,9.425,24.0
62.49,-0.333,5.042,29.0
76.527,-0.4,5.773,27.0
96.588,-0.495,6.78,10.0
99.104,-0.497,6.428,11.0
106.207,-0.522,6.334,3.0
193.923,-0.933,10.554,14.0
62.436,-0.304,5.153,28.0
67.784,-0.323,5.239,7.0
82.721,-0.385,5.96,11.0
96.409,-0.438,6.431,13.0
105.961,-0.469,6.515,10.0
0.0,0.0,0.0,0.0
62.56,-0.274,5.279,12.0
67.767,-0.289,5.362,11.0
76.397,-0.317,5.644,17.0
96.405,-0.389,6.606,12.0
96.439,-0.378,6.103,22.0
106.26,-0.405,6.169,6.0
64.445,-0.249,5.554,21.0
62.522,-0.234,5.059,28.0
84.285,-0.305,6.378,5.0
82.846,-0.29,5.826,25.0
96.523,-0.325,6.283,14.0
106.207,-0.344,6.357,19.0
64.625,-0.213,5.688,31.0
62.576,-0.199,5.177,8.0
67.77,-0.206,5.251,21.0
82.751,-0.241,5.968,22.0
96.347,-0.269,6.442,15.0
106.05,-0.283,6.535,9.0
57.215,-0.154,5.138,16.0
62.843,-0.162,5.311,29.0
62.494,-0.153,4.952,22.0
63.078,-0.145,4.66,22.0
82.834,-0.18,5.684,25.0
96.509,-0.197,6.116,18.0
57.296,-0.119,5.246,26.0
62.828,-0.122,5.42,14.0
59.154,-0.107,4.79,21.0
63.199,-0.106,4.778,12.0
83.074,-0.127,5.843,27.0
96.396,-0.134,6.273,23.0
57.596,-0.082,5.372,32.0
63.159,-0.081,5.557,27.0
59.126,-0.068,4.888,18.0
76.907,-0.077,5.945,17.0
63.195,-0.055,4.551,27.0
82.984,-0.059,5.539,21.0
57.446,-0.043,5.455,32.0
57.856,-0.035,5.186,32.0
59.209,-0.027,4.994,23.0
76.869,-0.023,6.07,16.0
63.275,-0.01,4.662,29.0
83.177,-0.001,5.69,14.0
57.017,-0.001,5.509,29.0
57.528,0.006,5.253,31.0
59.246,0.015,5.096,21.0
62.558,0.026,5.043,32.0
63.398,0.036,4.775,23.0
96.734,0.07,6.775,6.0
56.915,0.04,5.592,22.0
57.181,0.049,5.314,32.0
59.039,0.059,5.172,33.0
62.648,0.072,5.149,11.0
63.237,0.083,4.863,6.0
63.329,0.093,4.534,20.0
56.986,0.083,5.689,25.0
56.823,0.091,5.369,30.0
58.466,0.103,5.214,33.0
62.89,0.121,5.267,16.0
62.786,0.132,4.925,17.0
63.423,0.143,4.639,19.0
57.222,0.129,5.803,32.0
56.921,0.138,5.468,23.0
57.483,0.149,5.216,33.0
59.264,0.163,5.056,20.0
62.756,0.183,5.019,34.0
63.461,0.195,4.739,14.0
57.154,0.176,5.884,27.0
57.154,0.186,5.579,29.0
56.807,0.194,5.241,30.0
62.998,0.226,5.469,27.0
62.863,0.235,5.123,28.0
63.498,0.249,4.837,27.0
57.253,0.225,5.98,24.0
57.413,0.235,5.689,31.0
56.687,0.242,5.314,28.0
58.821,0.261,5.194,14.0
63.141,0.292,5.239,20.0
63.07,0.302,4.897,25.0
57.371,0.276,6.077,20.0
57.418,0.286,5.774,31.0
56.868,0.293,5.413,30.0
0.0,0.0,0.0,0.0
63.037,0.347,5.32,20.0
63.103,0.358,4.989,32.0
57.326,0.327,6.154,32.0
57.232,0.337,5.837,25.0
57.255,0.347,5.531,31.0
56.776,0.354,5.175,30.0
63.092,0.405,5.413,21.0
57.091,0.377,4.592,17.0
57.013,0.378,6.201,32.0
57.332,0.39,5.926,30.0
57.613,0.403,5.646,22.0
56.633,0.407,5.24,30.0
58.608,0.431,5.108,24.0
63.379,0.478,5.185,10.0
56.794,0.43,6.255,18.0
57.391,0.446,6.011,25.0
58.593,0.466,5.821,33.0
56.623,0.461,5.315,30.0
58.039,0.483,5.136,33.0
57.186,0.487,4.754,25.0
52.375,0.449,5.839,16.0
57.491,0.503,6.098,22.0
58.283,0.521,5.868,33.0
57.007,0.52,5.425,31.0
57.064,0.531,5.124,31.0
57.31,0.545,4.839,26.0
52.397,0.502,5.909,14.0
57.571,0.562,6.181,28.0
57.66,0.573,5.878,31.0
57.642,0.584,5.56,32.0
57.063,0.589,5.196,31.0
57.293,0.602,4.909,23.0
52.512,0.556,5.987,21.0
57.467,0.619,6.24,30.0
57.409,0.628,5.923,8.0
57.774,0.644,5.642,26.0
56.771,0.643,5.238,30.0
57.332,0.661,4.981,11.0
52.549,0.61,6.056,6.0
57.148,0.674,6.275,17.0
57.556,0.69,6.007,8.0
57.9,0.706,5.724,32.0
56.797,0.703,5.307,25.0
0.0,0.0,0.0,0.0
48.714,0.616,5.671,18.0
56.689,0.729,6.291,31.0
57.401,0.749,6.057,16.0
50.06,0.663,5.006,11.0
57.037,0.766,5.394,30.0
58.46,0.797,5.213,32.0
48.969,0.673,5.756,23.0
56.36,0.785,6.318,30.0
57.475,0.813,6.13,13.0
50.125,0.718,5.068,21.0
57.239,0.831,5.477,24.0
57.771,0.851,5.214,31.0
48.901,0.726,5.802,28.0
56.235,0.845,6.365,16.0
50.362,0.767,5.426,24.0
50.19,0.775,5.128,22.0
57.379,0.896,5.551,14.0
57.362,0.908,5.238,26.0
48.869,0.779,5.85,38.0
52.84,0.854,6.036,6.0
50.016,0.817,5.44,22.0
50.207,0.83,5.182,21.0
49.6,0.83,4.849,11.0
57.441,0.973,5.303,26.0
48.928,0.836,5.907,41.0
52.572,0.908,6.059,4.0
50.092,0.875,5.498,23.0
50.197,0.886,5.23,12.0
55.046,0.983,5.435,7.0
57.591,1.04,5.372,25.0
48.694,0.887,5.926,24.0
50.106,0.922,5.822,24.0
50.27,0.935,5.566,24.0
50.173,0.944,5.275,17.0
55.044,1.046,5.486,16.0
57.783,1.11,5.444,19.0
48.865,0.946,5.992,35.0
48.874,0.956,5.724,17.0
50.169,0.991,5.6,30.0
50.118,1.001,5.315,21.0
55.226,1.114,5.554,28.0
61.032,1.244,5.804,7.0
49.213,1.011,6.079,24.0
49.41,1.024,5.831,25.0
50.167,1.05,5.644,30.0
49.996,1.057,5.345,20.0
55.164,1.177,5.595,26.0
61.42,1.323,5.893,30.0
49.345,1.072,6.137,9.0
48.804,1.07,5.8,15.0
50.167,1.11,5.685,24.0
49.876,1.113,5.373,24.0
54.965,1.238,5.619,12.0
62.299,1.417,6.027,15.0
45.382,1.04,5.68,24.0
50.129,1.159,5.997,6.0
50.113,1.168,5.718,7.0
49.717,1.169,5.394,20.0
55.091,1.307,5.674,8.0
49.22,1.177,4.799,12.0
45.48,1.097,5.728,20.0
45.262,1.101,5.449,23.0
45.671,1.119,5.245,18.0
49.723,1.228,5.431,23.0
49.533,1.233,5.137,32.0
49.36,1.239,4.847,17.0
45.336,1.147,5.741,20.0
45.296,1.155,5.485,19.0
45.704,1.175,5.28,24.0
49.691,1.288,5.461,23.0
49.523,1.293,5.169,20.0
50.041,1.317,4.947,26.0
45.223,1.2,5.757,33.0
45.372,1.212,5.523,30.0
45.57,1.226,5.295,16.0
49.078,1.331,5.425,5.0
49.455,1.351,5.193,23.0
50.772,1.397,5.051,30.0
45.202,1.254,5.782,25.0
45.37,1.268,5.551,22.0
45.468,1.279,5.31,36.0
46.132,1.307,5.127,22.0
48.956,1.397,5.169,23.0
50.944,1.464,5.098,19.0
45.331,1.314,5.825,21.0
45.46,1.326,5.588,27.0
45.511,1.336,5.34,36.0
49.12,1.452,5.486,10.0
48.481,1.442,5.145,29.0
51.073,1.53,5.137,15.0
43.907,1.326,5.665,21.0
45.708,1.389,5.642,20.0
45.525,1.392,5.365,32.0
45.736,1.408,5.13,23.0
48.51,1.502,5.172,10.0
50.824,1.584,5.137,24.0
43.686,1.373,5.658,26.0
45.522,1.439,5.64,19.0
47.605,1.515,5.632,7.0
45.752,1.464,5.153,20.0
48.532,1.562,5.196,7.0
51.068,1.654,5.184,15.0
43.678,1.426,5.676,27.0
45.634,1.499,5.673,21.0
45.47,1.502,5.398,15.0
45.807,1.522,5.178,27.0
48.918,1.635,5.257,7.0
57.795,1.942,5.889,15.0
43.699,1.481,5.695,33.0
45.439,1.548,5.667,20.0
45.541,1.56,5.424,19.0
45.746,1.576,5.188,20.0
50.099,1.735,5.402,15.0
61.6,2.146,6.298,15.0
43.686,1.534,5.708,36.0
45.346,1.6,5.67,26.0
45.662,1.621,5.453,33.0
45.618,1.627,5.187,20.0
46.161,1.655,4.991,7.0
56.311,2.03,5.774,16.0
43.557,1.583,5.704,41.0
45.38,1.658,5.687,33.0
45.704,1.677,5.471,20.0
45.963,1.696,5.239,20.0
45.448,1.685,4.926,13.0
56.301,2.099,5.788,6.0
43.567,1.637,5.716,24.0
0.0,0.0,0.0,0.0
45.736,1.735,5.485,20.0
45.805,1.746,5.231,31.0
45.377,1.738,4.928,16.0
48.48,1.865,4.994,13.0
43.534,1.689,5.721,33.0
44.82,1.747,5.636,21.0
45.986,1.8,5.524,20.0
45.848,1.803,5.245,25.0
45.423,1.795,4.941,12.0
48.245,1.915,4.977,17.0
43.592,1.745,5.735,31.0
44.166,1.775,5.561,18.0
45.874,1.852,5.517,25.0
45.634,1.85,5.226,33.0
49.787,2.027,5.422,17.0
48.261,1.973,4.985,19.0
43.554,1.795,5.735,26.0
44.147,1.827,5.563,15.0
45.845,1.906,5.517,23.0
45.592,1.903,5.225,38.0
48.383,2.028,5.273,12.0
0.0,0.0,0.0,0.0
43.741,1.856,5.762,32.0
0.0,0.0,0.0,0.0
45.915,1.964,5.528,20.0
45.595,1.957,5.227,36.0
48.248,2.079,5.26,8.0
56.373,2.439,5.828,7.0
43.712,1.907,5.759,33.0
45.558,1.995,5.744,26.0
45.799,2.013,5.515,37.0
45.566,2.01,5.224,29.0
49.007,2.17,5.342,20.0
50.948,2.265,5.266,25.0
44.029,1.973,5.8,19.0
44.947,2.021,5.665,21.0
45.834,2.068,5.517,24.0
45.488,2.06,5.213,27.0
49.171,2.235,5.357,22.0
50.581,2.307,5.225,24.0
44.374,2.04,5.842,29.0
44.31,2.044,5.581,33.0
45.84,2.122,5.513,15.0
48.253,2.242,5.525,6.0
51.667,2.409,5.623,9.0
50.574,2.366,5.219,21.0
44.389,2.093,5.839,30.0
44.537,2.106,5.604,19.0
45.794,2.174,5.502,22.0
48.204,2.295,5.513,10.0
56.828,2.715,6.177,30.0
50.578,2.424,5.212,27.0
44.429,2.146,5.837,20.0
44.91,2.176,5.644,20.0
45.787,2.226,5.493,38.0
48.454,2.363,5.532,22.0
50.637,2.477,5.494,21.0
50.498,2.478,5.193,36.0
44.436,2.197,5.829,20.0
48.071,2.384,6.03,4.0
45.784,2.277,5.482,20.0
47.72,2.381,5.438,22.0
50.613,2.533,5.48,5.0
50.426,2.532,5.173,31.0
44.406,2.246,5.813,11.0
47.917,2.431,5.998,9.0
45.836,2.331,5.476,3.0
47.344,2.415,5.382,21.0
48.832,2.498,5.273,22.0
50.146,2.573,5.131,24.0
32.956,1.704,4.304,25.0
47.462,2.46,5.927,30.0
43.519,2.261,5.186,18.0
47.33,2.466,5.365,23.0
49.366,2.58,5.315,23.0
49.839,2.611,5.083,23.0
32.984,1.741,4.297,29.0
0.0,0.0,0.0,0.0
43.593,2.313,5.179,24.0
47.66,2.535,5.385,23.0
0.0,0.0,0.0,0.0
49.834,2.665,5.064,23.0
32.992,1.777,4.285,38.0
0.0,0.0,0.0,0.0
43.65,2.363,5.169,12.0
47.854,2.597,5.388,23.0
53.203,2.894,5.687,4.0
49.416,2.695,5.001,23.0
44.493,2.444,5.759,12.0
43.751,2.409,5.412,18.0
43.635,2.408,5.147,12.0
48.461,2.681,5.434,22.0
48.455,2.686,5.157,9.0
49.106,2.729,4.947,23.0
45.87,2.568,5.916,13.0
43.683,2.451,5.382,32.0
43.581,2.45,5.12,15.0
47.761,2.691,5.332,22.0
48.158,2.719,5.102,7.0
49.108,2.779,4.922,23.0
43.473,2.478,5.584,18.0
43.8,2.502,5.374,18.0
47.022,2.691,5.499,14.0
45.789,2.626,5.088,32.0
44.814,2.575,4.723,16.0
56.927,3.278,5.675,12.0
42.905,2.488,5.487,8.0
43.717,2.541,5.339,24.0
45.961,2.676,5.349,8.0
45.726,2.667,5.055,16.0
48.238,2.819,5.056,4.0
56.801,3.327,5.629,14.0
42.907,2.531,5.461,8.0
43.6,2.576,5.298,32.0
43.69,2.586,5.058,14.0
34.184,2.027,3.757,22.0
48.193,2.863,5.021,5.0
56.701,3.375,5.584,11.0
33.087,1.983,4.19,22.0
43.702,2.624,5.283,31.0
46.095,2.771,5.307,20.0
34.166,2.058,3.733,30.0
49.33,2.976,5.108,8.0
56.846,3.436,5.561,5.0
33.12,2.016,4.172,15.0
43.742,2.667,5.257,30.0
34.642,2.115,3.964,29.0
34.167,2.089,3.709,19.0
49.298,3.019,5.07,8.0
51.977,3.188,5.048,21.0
33.094,2.044,4.145,25.0
0.0,0.0,0.0,0.0
34.479,2.136,3.92,28.0
34.273,2.126,3.696,28.0
49.243,3.059,5.028,12.0
52.004,3.236,5.011,20.0
42.76,2.678,5.323,11.0
45.71,2.867,5.426,20.0
34.495,2.166,3.895,28.0
34.19,2.15,3.66,25.0
51.75,3.259,5.244,13.0
52.151,3.29,4.985,17.0
42.487,2.697,5.255,17.0
45.225,2.874,5.332,7.0
34.398,2.189,3.857,28.0
48.76,3.107,5.182,19.0
51.808,3.305,5.208,17.0
54.956,3.511,5.209,24.0
42.328,2.721,5.2,7.0
45.104,2.904,5.28,19.0
34.289,2.21,3.816,29.0
48.838,3.151,5.149,23.0
51.65,3.337,5.148,17.0
62.986,4.074,5.916,13.0
42.29,2.753,5.158,4.0
34.615,2.255,4.022,18.0
34.277,2.236,3.785,31.0
48.781,3.186,5.099,16.0
51.701,3.38,5.107,20.0
62.927,4.119,5.855,23.0
34.538,2.274,4.182,32.0
34.599,2.281,3.988,24.0
34.233,2.258,3.748,33.0
64.695,4.273,6.704,8.0
51.815,3.426,5.071,10.0
62.891,4.163,5.793,20.0
34.467,2.295,4.14,29.0
34.404,2.293,3.933,27.0
34.229,2.283,3.715,21.0
64.556,4.31,6.628,8.0
51.941,3.471,5.033,5.0
60.973,4.079,5.558,11.0
34.475,2.32,4.107,32.0
34.358,2.313,3.894,34.0
34.358,2.315,3.696,24.0
47.982,3.237,4.878,15.0
65.203,4.402,6.254,14.0
59.258,4.004,5.343,9.0
34.427,2.34,4.067,24.0
34.333,2.335,3.857,23.0
34.418,2.342,3.667,23.0
54.889,3.738,5.525,7.0
52.005,3.544,4.935,3.0
59.243,4.041,5.281,17.0
34.485,2.365,4.038,29.0
34.451,2.364,3.834,30.0
34.422,2.364,3.631,27.0
47.898,3.291,4.771,7.0
52.005,3.576,4.881,9.0
59.199,4.073,5.215,8.0
34.433,2.382,3.995,30.0
34.317,2.376,3.782,33.0
34.482,2.389,3.6,21.0
64.813,4.492,6.385,15.0
51.971,3.604,4.82,5.0
0.0,0.0,0.0,0.0
34.385,2.399,3.95,33.0
34.282,2.393,3.739,30.0
