X,Y,Z,Reflectivity
51.974,4.163,4.219,22.0
60.03,4.817,4.535,33.0
34.313,2.771,3.559,7.0
43.01,3.479,4.217,33.0
49.395,4.003,4.563,23.0
59.386,4.822,5.144,25.0
51.951,4.227,4.207,42.0
59.811,4.877,4.506,11.0
34.304,2.813,3.551,31.0
42.992,3.532,4.206,32.0
49.503,4.075,4.562,10.0
59.55,4.91,5.145,34.0
51.909,4.288,4.191,22.0
51.909,4.296,3.898,16.0
34.285,2.854,3.54,23.0
43.003,3.586,4.196,35.0
51.685,4.317,4.75,8.0
59.642,4.991,5.137,34.0
51.811,4.343,4.169,16.0
51.868,4.355,3.881,43.0
43.131,3.643,4.441,15.0
42.885,3.628,4.172,31.0
51.495,4.364,4.717,23.0
59.452,5.046,5.103,30.0
51.784,4.403,4.151,50.0
51.848,4.416,3.863,32.0
43.104,3.693,4.424,6.0
42.837,3.675,4.153,28.0
51.417,4.418,4.692,21.0
59.495,5.121,5.085,19.0
51.774,4.464,4.132,38.0
51.818,4.475,3.842,48.0
34.221,2.972,3.5,40.0
42.846,3.727,4.137,30.0
51.494,4.486,4.679,25.0
51.634,4.504,4.394,41.0
43.137,3.769,3.426,23.0
51.845,4.536,3.824,30.0
34.142,3.004,3.478,31.0
42.843,3.775,4.119,38.0
51.455,4.54,4.654,25.0
59.098,5.222,5.003,27.0
43.059,3.81,3.401,17.0
51.881,4.598,3.804,19.0
34.118,3.04,3.46,30.0
42.845,3.823,4.1,33.0
0.0,0.0,0.0,0.0
43.541,3.895,3.666,11.0
43.004,3.853,3.376,25.0
51.941,4.66,3.783,18.0
43.06,3.884,4.346,14.0
42.852,3.87,4.08,10.0
43.623,3.945,3.904,13.0
59.078,5.349,4.945,7.0
43.015,3.9,3.355,32.0
59.517,5.404,4.305,34.0
51.492,4.7,5.17,11.0
53.677,4.906,5.082,15.0
43.615,3.991,3.88,18.0
43.302,3.967,3.601,15.0
43.015,3.946,3.332,17.0
59.251,5.442,4.253,34.0
43.692,4.034,4.362,6.0
43.588,4.029,4.102,14.0
43.525,4.027,3.848,16.0
52.113,4.827,4.304,20.0
52.387,4.859,4.028,5.0
58.882,5.468,4.192,33.0
43.761,4.085,4.343,27.0
43.553,4.069,4.072,28.0
43.449,4.064,3.814,18.0
51.84,4.854,4.249,26.0
59.174,5.547,4.513,27.0
58.746,5.513,4.146,32.0
51.124,4.822,5.041,19.0
43.444,4.101,4.035,18.0
43.358,4.097,3.778,12.0
51.824,4.902,4.215,45.0
59.092,5.596,4.469,32.0
58.764,5.571,4.109,25.0
50.725,4.832,4.968,8.0
43.498,4.147,4.01,18.0
52.361,4.998,4.527,26.0
51.844,4.953,4.181,40.0
58.774,5.621,4.404,31.0
58.778,5.627,4.069,33.0
43.694,4.203,4.248,15.0
43.478,4.186,3.978,24.0
52.493,5.057,4.502,17.0
59.274,5.716,4.738,7.0
58.803,5.676,4.364,29.0
58.547,5.656,4.012,23.0
43.68,4.24,4.215,30.0
51.954,5.047,4.715,12.0
43.488,4.228,3.697,27.0
59.303,5.771,4.696,20.0
58.67,5.714,4.31,30.0
58.531,5.706,3.966,28.0
43.563,4.266,4.17,29.0
43.529,4.266,3.916,16.0
43.434,4.259,3.659,16.0
59.294,5.819,4.649,30.0
58.604,5.756,4.26,27.0
58.519,5.753,3.919,32.0
43.449,4.29,4.124,38.0
43.578,4.305,3.886,12.0
51.798,5.121,4.321,18.0
59.057,5.843,4.583,31.0
58.475,5.79,4.203,25.0
58.327,5.78,3.858,29.0
43.442,4.323,4.087,38.0
43.404,4.322,3.834,12.0
51.743,5.156,4.274,23.0
59.096,5.893,4.536,31.0
58.631,5.85,4.164,32.0
58.242,5.815,3.804,29.0
43.246,4.336,4.032,36.0
51.896,5.207,4.539,5.0
59.099,5.932,4.83,7.0
58.755,5.901,4.459,33.0
58.379,5.867,4.095,32.0
57.95,5.828,3.734,32.0
43.202,4.362,3.989,31.0
43.24,4.369,3.743,30.0
58.759,5.94,4.749,33.0
58.935,5.96,4.419,27.0
58.485,5.918,4.05,32.0
57.749,5.848,3.668,28.0
43.16,4.387,3.945,28.0
51.787,5.267,4.435,9.0
58.362,5.938,4.663,32.0
59.305,6.037,4.392,33.0
58.301,5.938,3.983,28.0
57.887,5.899,3.623,32.0
43.115,4.41,3.9,33.0
42.988,4.398,3.641,17.0
58.408,5.979,4.611,32.0
59.612,6.105,4.357,36.0
58.066,5.949,3.911,31.0
57.805,5.926,3.562,31.0
43.121,4.436,3.858,34.0
51.888,5.34,4.344,8.0
58.498,6.022,4.561,33.0
58.782,6.054,4.239,30.0
57.91,5.966,3.844,27.0
57.666,5.944,3.497,28.0
43.139,4.462,3.817,32.0
58.343,6.037,4.826,12.0
58.659,6.071,4.514,33.0
58.6,6.067,4.167,33.0
57.746,5.98,3.775,28.0
57.744,5.983,3.443,31.0
57.913,6.166,3.962,30.0
57.78,6.148,3.619,32.0
58.128,6.182,3.305,32.0
58.679,6.237,2.993,31.0
58.462,6.21,2.646,30.0
59.197,6.286,2.339,33.0
57.688,6.13,3.871,26.0
57.874,6.145,3.549,28.0
58.368,6.194,3.243,32.0
58.557,6.21,2.911,28.0
58.361,6.186,2.566,29.0
59.346,6.287,2.268,32.0
57.687,6.114,3.795,26.0
57.982,6.141,3.48,32.0
58.553,6.197,3.177,28.0
58.449,6.182,2.83,31.0
58.4,6.174,2.491,24.0
59.311,6.266,2.19,20.0
57.746,6.103,3.723,27.0
58.154,6.141,3.414,30.0
58.639,6.188,3.105,26.0
58.519,6.17,2.756,29.0
58.646,6.18,2.425,26.0
59.24,6.239,2.109,20.0
57.779,6.086,3.649,24.0
58.06,6.11,3.332,31.0
58.636,6.166,3.027,29.0
58.673,6.165,2.685,32.0
59.157,6.212,2.368,32.0
59.167,6.208,2.029,24.0
57.813,6.066,3.575,26.0
58.097,6.091,3.258,32.0
58.435,6.121,2.94,31.0
58.582,6.131,2.604,27.0
59.306,6.202,2.296,26.0
59.417,6.209,1.959,19.0
57.781,6.037,3.496,30.0
58.044,6.059,3.178,29.0
58.355,6.086,2.86,28.0
58.555,6.101,2.527,27.0
59.229,6.166,2.215,25.0
59.486,6.189,1.883,26.0
57.949,6.026,3.43,29.0
58.133,6.039,3.106,30.0
58.605,6.083,2.794,32.0
58.91,6.109,2.464,33.0
59.178,6.131,2.135,23.0
59.769,6.187,1.814,32.0
58.034,6.004,3.358,28.0
58.395,6.035,3.043,32.0
58.812,6.072,2.726,30.0
59.21,6.107,2.399,26.0
59.286,6.109,2.062,27.0
59.859,6.163,1.738,26.0
58.011,5.968,3.281,25.0
58.485,6.01,2.971,32.0
58.905,6.047,2.653,33.0
59.102,6.06,2.316,27.0
59.252,6.07,1.982,30.0
59.857,6.126,1.659,25.0
58.001,5.931,3.203,28.0
58.764,6.001,2.907,30.0
59.384,6.058,2.596,28.0
59.087,6.021,2.238,30.0
59.732,6.08,1.92,33.0
59.843,6.085,1.58,22.0
58.099,5.902,3.132,33.0
58.868,5.972,2.834,29.0
59.171,5.996,2.51,29.0
59.072,5.979,2.16,30.0
59.679,6.034,1.84,33.0
56.407,5.697,1.416,1.0
58.723,5.923,3.088,34.0
59.095,5.952,2.768,24.0
59.1,5.946,2.429,25.0
59.344,5.963,2.093,34.0
59.638,5.986,1.761,25.0
51.7,5.183,1.23,3.0
58.947,5.901,3.023,28.0
59.463,5.945,2.708,33.0
59.043,5.895,2.35,30.0
60.028,5.986,2.039,34.0
59.957,5.972,1.692,7.0
51.494,5.122,1.159,6.0
59.041,5.863,2.951,24.0
59.564,5.907,2.635,22.0
58.98,5.841,2.271,25.0
60.055,5.939,1.962,26.0
60.339,5.96,1.626,5.0
51.348,5.066,1.09,2.0
59.163,5.825,2.881,22.0
59.382,5.838,2.551,27.0
59.186,5.81,2.203,19.0
60.272,5.909,1.892,19.0
58.666,5.744,1.505,4.0
46.738,4.57,0.932,3.0
146.099,-12.051,11.228,16.0
146.746,-12.111,10.502,5.0
150.017,-12.388,9.942,10.0
208.643,-17.238,12.707,12.0
200.136,-16.546,11.132,30.0
0.0,0.0,0.0,0.0
146.377,-12.136,11.466,12.0
145.272,-12.049,10.611,13.0
148.103,-12.288,10.034,12.0
149.594,-12.418,9.331,5.0
0.0,0.0,0.0,0.0
151.965,-12.628,7.875,53.0
145.065,-12.082,11.578,9.0
145.255,-12.1,10.825,19.0
146.188,-12.183,10.121,14.0
149.561,-12.468,9.548,23.0
209.225,-17.45,12.254,17.0
151.975,-12.679,8.099,150.0
154.119,-12.888,12.531,6.0
145.637,-12.182,11.068,15.0
146.582,-12.262,10.364,13.0
149.983,-12.55,9.797,14.0
209.227,-17.513,12.561,10.0
151.978,-12.724,8.321,79.0
146.201,-12.269,12.102,6.0
145.921,-12.247,11.304,12.0
145.328,-12.199,10.488,12.0
148.262,-12.446,9.9,11.0
150.129,-12.605,9.231,3.0
209.227,-17.571,11.759,5.0
146.547,-12.334,12.345,12.0
145.26,-12.226,11.466,14.0
145.365,-12.235,10.702,14.0
145.993,-12.289,9.961,7.0
149.696,-12.6,9.423,19.0
151.911,-12.788,8.76,4.0
146.178,-12.335,12.53,4.0
145.199,-12.25,11.674,8.0
145.687,-12.289,10.94,11.0
146.095,-12.323,10.18,15.0
150.013,-12.653,9.659,9.0
152.0,-12.821,8.984,11.0
146.305,-12.369,12.752,10.0
154.476,-13.057,12.643,6.0
146.08,-12.345,11.178,5.0
0.0,0.0,0.0,0.0
148.296,-12.527,9.761,11.0
151.926,-12.833,9.197,12.0
146.61,-12.414,12.989,3.0
145.889,-12.347,12.149,9.0
145.429,-12.304,11.338,12.0
145.346,-12.294,10.545,12.0
209.546,-17.721,14.09,6.0
151.874,-12.84,9.407,4.0
145.027,-12.29,13.056,11.0
0.0,0.0,0.0,0.0
145.183,-12.294,11.522,11.0
145.509,-12.315,10.761,16.0
146.081,-12.36,10.026,12.0
149.068,-12.608,9.442,11.0
144.736,-12.27,13.234,4.0
146.207,-12.388,12.589,12.0
154.278,-13.066,12.46,3.0
145.632,-12.328,10.973,9.0
146.094,-12.36,10.231,11.0
148.237,-12.536,9.594,3.0
144.785,-12.275,13.439,8.0
146.299,-12.394,12.797,9.0
145.926,-12.354,11.988,5.0
146.209,-12.371,11.217,7.0
145.311,-12.289,10.375,6.0
148.265,-12.53,9.799,9.0
144.839,-12.271,13.644,8.0
145.09,-12.283,12.892,10.0
146.039,-12.355,12.197,10.0
145.393,-12.291,11.352,13.0
145.347,-12.279,10.573,16.0
209.637,-17.7,14.136,5.0
145.757,-12.336,13.928,7.0
144.942,-12.257,13.073,12.0
0.0,0.0,0.0,0.0
145.175,-12.256,11.527,12.0
145.455,-12.27,10.774,12.0
146.058,-12.312,10.042,12.0
145.689,-12.31,14.116,16.0
144.934,-12.235,13.266,12.0
146.034,-12.316,12.585,7.0
145.145,-12.231,11.717,7.0
145.664,-12.263,10.98,13.0
146.199,-12.298,10.242,11.0
145.43,-12.264,14.283,17.0
144.809,-12.199,13.445,17.0
145.226,-12.22,12.706,10.0
154.161,-12.959,12.646,9.0
145.873,-12.251,11.186,13.0
145.358,-12.196,10.371,3.0
145.292,-12.22,14.459,20.0
144.757,-12.162,13.626,12.0
145.122,-12.179,12.882,17.0
146.395,-12.271,12.196,14.0
145.922,-12.219,11.375,14.0
145.287,-12.153,10.55,13.0
145.496,-12.201,14.663,14.0
149.215,-12.495,14.237,4.0
145.044,-12.133,13.057,14.0
146.218,-12.216,12.364,16.0
145.18,-12.114,11.499,9.0
145.22,-12.105,10.725,15.0
146.184,-12.215,14.917,22.0
145.634,-12.153,14.076,11.0
144.974,-12.082,13.232,13.0
145.806,-12.134,12.511,13.0
145.142,-12.064,11.674,8.0
145.492,-12.078,10.923,13.0
146.97,-12.231,15.177,17.0
147.087,-12.223,14.396,4.0
145.011,-12.034,13.411,16.0
145.461,-12.053,12.656,14.0
145.88,-12.071,11.91,11.0
146.021,-12.068,11.137,15.0
147.176,-12.192,15.377,16.0
147.209,-12.176,14.585,5.0
144.873,-11.966,13.57,11.0
145.675,-12.014,12.846,14.0
146.367,-12.053,12.119,10.0
146.757,-12.068,11.364,14.0
147.066,-12.123,15.539,17.0
146.508,-12.057,14.687,17.0
144.768,-11.894,13.73,9.0
145.415,-11.929,12.991,16.0
146.046,-11.961,12.261,13.0
146.835,-12.009,11.537,14.0
146.964,-12.049,15.695,9.0
146.496,-11.99,14.851,14.0
148.28,-12.114,14.231,5.0
145.125,-11.836,13.129,18.0
145.927,-11.882,12.415,13.0
145.905,-11.861,11.628,21.0
148.209,-12.077,15.997,13.0
146.648,-11.928,15.033,11.0
148.765,-12.079,14.442,4.0
144.99,-11.751,13.276,20.0
145.714,-11.79,12.554,11.0
145.505,-11.753,11.752,13.0
148.016,-11.983,16.138,14.0
146.626,-11.849,15.188,15.0
148.739,-11.996,14.601,5.0
144.91,-11.666,13.424,12.0
145.416,-11.685,12.684,13.0
145.811,-11.696,11.932,14.0
148.282,-11.922,16.325,14.0
146.483,-11.754,15.328,14.0
149.192,-11.947,14.802,3.0
146.03,-11.67,13.681,2.0
145.431,-11.6,12.837,19.0
146.104,-11.633,12.106,16.0
148.286,-11.833,16.48,14.0
146.477,-11.665,15.479,7.0
145.556,-11.567,14.59,3.0
145.736,-11.557,13.801,10.0
145.367,-11.506,12.976,15.0
145.957,-11.529,12.238,17.0
148.173,-11.731,16.615,12.0
148.288,-11.713,15.819,4.0
148.502,-11.704,15.032,8.0
145.846,-11.47,13.955,21.0
145.448,-11.414,13.127,16.0
145.863,-11.423,12.373,13.0
0.0,0.0,0.0,0.0
148.184,-11.607,15.95,3.0
148.231,-11.582,15.146,9.0
145.661,-11.356,14.075,20.0
146.135,-11.369,13.325,13.0
145.852,-11.322,12.507,14.0
0.0,0.0,0.0,0.0
152.172,-11.809,16.523,3.0
148.051,-11.463,15.265,13.0
145.692,-11.254,14.211,20.0
146.296,-11.275,13.473,7.0
145.723,-11.205,12.627,13.0
0.0,0.0,0.0,0.0
149.998,-11.531,16.42,9.0
0.0,0.0,0.0,0.0
145.616,-11.14,14.33,24.0
146.308,-11.166,13.6,4.0
119.366,-9.089,10.445,9.0
0.0,0.0,0.0,0.0
148.477,-11.3,16.381,8.0
148.686,-11.287,15.588,5.0
145.541,-11.02,14.447,14.0
147.31,-11.126,13.817,5.0
119.193,-8.98,10.53,11.0
0.0,0.0,0.0,0.0
148.357,-11.171,16.491,18.0
148.303,-11.137,15.671,11.0
145.434,-10.893,14.555,13.0
147.062,-10.986,13.913,8.0
119.142,-8.879,10.62,15.0
90.675,-6.752,10.151,5.0
150.313,-11.163,16.0,3.0
148.849,-11.025,15.011,11.0
147.193,-10.872,14.038,10.0
119.171,-8.78,10.712,7.0
90.746,-6.679,10.227,18.0
148.193,-10.878,15.884,14.0
147.447,-10.793,14.978,14.0
91.4,-6.672,8.782,11.0
119.506,-8.7,10.828,14.0
90.831,-6.606,10.301,17.0
148.063,-10.737,15.975,15.0
147.574,-10.67,15.094,11.0
91.499,-6.596,8.856,13.0
119.282,-8.574,10.89,11.0
89.533,-6.448,10.711,6.0
90.512,-6.499,10.327,16.0
148.268,-10.612,16.098,15.0
91.342,-6.519,9.403,7.0
91.47,-6.509,8.912,24.0
118.888,-8.437,10.93,13.0
89.628,-6.371,10.781,6.0
90.28,-6.397,10.358,26.0
91.002,-6.428,9.937,5.0
93.696,-6.598,9.704,11.0
91.568,-6.429,8.978,10.0
117.094,-8.197,10.836,7.0
89.791,-6.296,10.855,3.0
90.129,-6.299,10.395,26.0
90.957,-6.337,9.985,10.0
93.941,-6.524,9.784,12.0
94.269,-6.527,9.297,7.0
91.746,-6.332,8.542,11.0
89.814,-6.209,10.909,4.0
89.918,-6.195,10.421,18.0
90.914,-6.243,10.031,13.0
94.089,-6.44,9.85,17.0
91.689,-6.256,9.091,22.0
91.69,-6.235,8.585,29.0
89.913,-6.103,10.467,30.0
89.77,-6.073,9.951,13.0
94.094,-6.344,9.898,6.0
91.556,-6.153,9.123,18.0
91.703,-6.142,8.631,13.0
90.45,-6.067,11.078,1.0
90.132,-6.024,10.536,32.0
89.848,-5.985,10.002,25.0
90.959,-6.038,9.61,9.0
91.612,-6.061,9.171,15.0
91.244,-6.017,8.628,14.0
90.441,-5.971,11.117,2.0
90.175,-5.932,10.58,13.0
89.977,-5.898,10.055,34.0
91.143,-5.954,9.668,28.0
87.357,-5.686,8.781,16.0
91.295,-5.922,8.67,12.0
88.943,-5.776,10.969,1.0
89.871,-5.815,10.58,25.0
90.305,-5.822,10.126,19.0
91.185,-5.858,9.707,37.0
87.348,-5.591,8.812,19.0
91.358,-5.828,8.708,15.0
89.12,-5.69,11.023,6.0
89.882,-5.718,10.613,32.0
90.391,-5.728,10.167,30.0
87.112,-5.5,9.303,17.0
87.427,-5.5,8.848,24.0
87.724,-5.499,8.39,19.0
89.077,-5.588,11.046,14.0
90.277,-5.642,10.688,17.0
90.564,-5.639,10.214,25.0
87.036,-5.398,9.32,29.0
87.617,-5.414,8.893,26.0
87.871,-5.41,8.428,30.0
89.037,-5.485,11.066,7.0
89.728,-5.505,10.647,13.0
91.268,-5.577,10.317,18.0
87.275,-5.313,9.367,13.0
87.617,-5.313,8.914,15.0
87.917,-5.311,8.454,31.0
89.224,-5.393,11.11,3.0
89.531,-5.39,10.643,14.0
90.88,-5.448,10.293,15.0
91.658,-5.473,9.857,32.0
87.529,-5.205,8.923,18.0
88.006,-5.214,8.479,28.0
87.168,-5.166,10.871,28.0
87.949,-5.19,10.472,12.0
82.602,-4.854,9.37,21.0
94.014,-5.503,10.126,7.0
87.263,-5.087,8.91,30.0
87.918,-5.103,8.485,19.0
87.185,-5.062,10.886,28.0
87.915,-5.083,10.48,16.0
82.583,-4.755,9.379,11.0
91.659,-5.255,9.884,14.0
87.274,-4.983,8.921,29.0
87.841,-4.995,8.486,31.0
87.343,-4.966,10.914,29.0
90.018,-5.097,10.739,15.0
82.7,-4.662,9.399,23.0
82.388,-4.624,8.89,14.0
84.414,-4.717,8.634,10.0
88.024,-4.899,8.509,15.0
87.597,-4.874,10.951,22.0
86.646,-4.8,10.341,26.0
82.684,-4.56,9.4,24.0
82.456,-4.527,8.9,13.0
84.438,-4.616,8.638,10.0
87.996,-4.789,8.508,10.0
87.463,-4.758,10.935,16.0
86.81,-4.702,10.36,29.0
0.0,0.0,0.0,0.0
82.618,-4.435,8.917,21.0
84.154,-4.496,8.608,13.0
85.187,-4.532,8.234,7.0
87.062,-4.63,10.882,26.0
86.942,-4.602,10.372,27.0
81.663,-4.302,9.279,22.0
82.595,-4.331,8.91,27.0
84.154,-4.393,8.602,14.0
85.372,-4.437,8.245,11.0
80.94,-4.203,10.11,17.0
87.087,-4.501,10.382,19.0
81.706,-4.202,9.277,20.0
82.837,-4.24,8.927,22.0
82.65,-4.211,8.44,4.0
85.684,-4.346,8.265,9.0
80.955,-4.101,10.102,26.0
86.148,-4.344,10.259,32.0
81.823,-4.107,9.278,25.0
83.763,-4.184,9.015,18.0
79.793,-3.967,8.135,7.0
79.197,-3.919,7.627,23.0
80.975,-4.002,10.091,20.0
86.087,-4.233,10.236,11.0
81.833,-4.005,9.264,29.0
82.409,-4.012,8.853,18.0
79.93,-3.873,8.133,27.0
79.211,-3.819,7.612,23.0
81.119,-3.906,10.091,16.0
81.963,-3.926,9.728,19.0
81.873,-3.903,9.25,19.0
81.993,-3.888,8.789,25.0
79.867,-3.769,8.108,16.0
79.305,-3.724,7.601,22.0
81.276,-3.81,10.089,9.0
81.864,-3.818,9.694,20.0
82.917,-3.848,9.345,9.0
79.87,-3.687,8.539,12.0
79.704,-3.66,8.068,35.0
79.471,-3.631,7.593,11.0
82.644,-3.768,10.234,17.0
81.484,-3.696,9.623,24.0
81.068,-3.659,9.111,8.0
80.068,-3.594,8.534,11.0
79.642,-3.557,8.035,23.0
79.257,-3.521,7.547,29.0
82.085,-3.638,10.136,18.0
81.503,-3.594,9.597,28.0
82.043,-3.598,9.191,18.0
80.173,-3.497,8.515,11.0
79.543,-3.451,7.995,23.0
79.336,-3.424,7.524,29.0
81.961,-3.528,10.088,23.0
81.549,-3.491,9.57,23.0
65.122,-2.773,7.269,19.0
80.058,-3.39,8.47,11.0
79.592,-3.352,7.967,18.0
79.435,-3.328,7.499,25.0
81.822,-3.418,10.035,18.0
78.136,-3.245,9.134,11.0
65.155,-2.691,7.243,19.0
79.83,-3.279,8.409,21.0
79.445,-3.245,7.914,14.0
66.314,-2.693,6.229,8.0
77.367,-3.132,9.451,12.0
78.117,-3.144,9.093,28.0
65.212,-2.609,7.217,22.0
64.028,-2.548,6.712,16.0
79.414,-3.142,7.871,16.0
82.255,-3.236,7.683,9.0
77.455,-3.035,9.42,21.0
78.03,-3.04,9.04,27.0
64.253,-2.488,7.075,28.0
63.996,-2.464,6.673,32.0
79.767,-3.054,7.861,11.0
66.379,-2.526,6.162,18.0
77.66,-2.944,9.4,17.0
77.985,-2.939,8.99,16.0
64.327,-2.41,7.045,28.0
64.097,-2.387,6.646,28.0
82.002,-3.035,8.032,7.0
80.26,-2.954,7.402,9.0
77.837,-2.852,9.373,10.0
81.048,-2.951,9.292,17.0
64.44,-2.332,7.016,31.0
64.175,-2.307,6.612,32.0
0.0,0.0,0.0,0.0
67.3,-2.391,6.163,14.0
77.358,-2.736,9.263,25.0
79.242,-2.783,9.03,13.0
64.521,-2.251,6.981,31.0
64.469,-2.236,6.598,38.0
64.667,-2.228,6.247,31.0
67.353,-2.306,6.12,24.0
64.948,-2.212,7.73,8.0
77.739,-2.631,8.803,29.0
64.81,-2.18,6.965,30.0
64.789,-2.165,6.583,37.0
64.704,-2.148,6.203,23.0
67.273,-2.22,6.063,20.0
65.088,-2.135,7.698,17.0
65.321,-2.128,7.347,17.0
64.892,-2.1,6.924,40.0
64.9,-2.087,6.544,30.0
64.654,-2.065,6.147,12.0
66.637,-2.115,5.953,12.0
65.122,-2.054,7.649,12.0
65.099,-2.039,7.269,40.0
64.925,-2.02,6.874,34.0
64.762,-2.002,6.477,33.0
74.252,-2.279,6.998,10.0
66.296,-2.021,5.868,41.0
65.177,-1.974,7.6,18.0
64.819,-1.95,7.182,21.0
64.767,-1.934,6.802,35.0
64.433,-1.91,6.388,40.0
66.431,-1.956,6.203,38.0
66.397,-1.942,5.818,26.0
74.873,-2.175,8.664,29.0
64.826,-1.869,7.125,30.0
64.723,-1.853,6.739,39.0
63.975,-1.819,6.285,39.0
66.125,-1.866,6.115,40.0
66.489,-1.863,5.765,18.0
75.1,-2.089,8.619,22.0
64.819,-1.789,7.063,36.0
64.74,-1.774,6.679,40.0
64.021,-1.742,6.228,25.0
65.954,-1.781,6.035,30.0
74.109,-1.987,6.355,21.0
76.34,-2.03,8.687,10.0
64.793,-1.71,6.997,37.0
64.58,-1.692,6.6,34.0
63.948,-1.663,6.158,21.0
66.06,-1.705,5.98,37.0
67.183,-1.721,5.694,23.0
73.913,-1.876,8.336,14.0
64.428,-1.623,6.891,32.0
64.784,-1.619,6.554,32.0
63.65,-1.578,6.063,20.0
74.136,-1.825,6.634,19.0
67.215,-1.642,5.627,20.0
65.359,-1.582,7.302,24.0
64.32,-1.544,6.811,33.0
64.343,-1.532,6.441,37.0
63.494,-1.5,5.981,26.0
67.216,-1.575,5.942,30.0
74.767,-1.739,6.178,9.0
65.311,-1.503,7.224,27.0
64.36,-1.469,6.745,35.0
64.102,-1.452,6.345,37.0
63.486,-1.426,5.91,28.0
67.223,-1.498,5.868,26.0
74.646,-1.65,6.086,10.0
65.137,-1.424,7.131,24.0
64.52,-1.398,6.687,34.0
63.99,-1.376,6.261,38.0
67.935,-1.448,6.246,17.0
74.193,-1.568,6.391,51.0
74.643,-1.564,5.998,28.0
64.986,-1.346,7.037,34.0
64.615,-1.326,6.62,39.0
63.718,-1.296,6.158,30.0
65.641,-1.324,5.956,8.0
74.538,-1.491,6.331,32.0
0.0,0.0,0.0,0.0
64.87,-1.27,6.945,11.0
64.539,-1.252,6.533,39.0
63.696,-1.225,6.077,30.0
65.701,-1.251,5.88,24.0
66.059,-1.247,5.529,21.0
76.081,-1.424,5.926,28.0
58.938,-1.088,6.235,17.0
64.436,-1.178,6.441,32.0
63.778,-1.155,6.003,23.0
65.61,-1.177,5.787,40.0
66.013,-1.174,5.44,27.0
76.524,-1.348,5.863,25.0
58.87,-1.022,6.151,29.0
64.266,-1.105,6.339,33.0
64.191,-1.093,5.958,15.0
65.505,-1.104,5.692,21.0
74.154,-1.238,6.012,10.0
76.46,-1.265,5.756,32.0
64.543,-1.051,6.657,10.0
64.253,-1.036,6.252,12.0
64.027,-1.022,5.856,29.0
65.394,-1.033,5.593,35.0
76.431,-1.196,6.094,33.0
76.419,-1.183,5.649,28.0
64.35,-0.98,6.548,22.0
58.625,-0.883,5.622,24.0
63.798,-0.951,5.747,21.0
65.683,-0.969,5.527,41.0
76.59,-1.119,6.0,25.0
76.263,-1.103,5.532,31.0
64.141,-0.911,6.436,19.0
58.694,-0.825,5.547,24.0
66.199,-0.92,5.87,25.0
66.29,-0.911,5.484,25.0
76.504,-1.041,5.885,29.0
75.93,-1.021,5.4,29.0
63.953,-0.844,6.325,29.0
58.67,-0.765,5.459,26.0
66.832,-0.862,5.829,38.0
76.486,-0.976,6.217,10.0
76.357,-0.964,5.762,21.0
75.937,-0.948,5.29,26.0
63.837,-0.78,6.219,13.0
58.747,-0.709,5.379,9.0
73.739,-0.88,6.322,22.0
76.778,-0.905,6.126,15.0
76.193,-0.888,5.636,28.0
91.324,-1.052,6.224,15.0
58.745,-0.661,5.634,22.0
66.651,-0.741,6.002,30.0
76.3,-0.838,6.424,24.0
76.639,-0.831,5.998,20.0
76.077,-0.815,5.511,23.0
91.337,-0.967,6.086,29.0
58.81,-0.607,5.549,25.0
73.877,-0.753,6.538,20.0
76.641,-0.771,6.334,25.0
76.506,-0.759,5.868,14.0
86.495,-0.847,6.131,10.0
90.497,-0.875,5.889,21.0
58.814,-0.554,5.456,19.0
76.503,-0.71,6.648,15.0
76.871,-0.703,6.231,9.0
76.349,-0.689,5.734,15.0
90.598,-0.807,6.277,21.0
90.567,-0.795,5.749,10.0
58.786,-0.501,5.358,8.0
76.39,-0.642,6.515,20.0
76.644,-0.635,6.088,10.0
82.476,-0.673,6.062,13.0
96.515,-0.777,6.531,15.0
105.964,-0.84,6.552,9.0
64.728,-0.496,5.793,14.0
62.512,-0.472,5.228,27.0
76.565,-0.57,5.955,11.0
87.92,-0.643,6.316,10.0
96.608,-0.696,6.376,15.0
106.101,-0.753,6.385,2.0
64.705,-0.443,5.682,13.0
62.466,-0.42,5.119,20.0
76.467,-0.506,5.819,21.0
96.452,-0.628,6.766,12.0
96.368,-0.616,6.199,13.0
178.788,-1.126,10.459,10.0
64.71,-0.391,5.572,26.0
67.767,-0.402,5.437,11.0
76.514,-0.446,5.692,11.0
96.368,-0.552,6.596,13.0
96.407,-0.542,6.037,14.0
179.15,-0.991,10.175,5.0
62.476,-0.33,5.271,18.0
67.772,-0.351,5.321,10.0
82.725,-0.419,6.01,13.0
96.291,-0.479,6.423,15.0
106.239,-0.518,6.466,15.0
194.203,-0.928,10.687,20.0
62.395,-0.283,5.154,28.0
76.425,-0.339,5.865,8.0
82.84,-0.36,5.871,16.0
96.289,-0.409,6.252,28.0
106.193,-0.441,6.275,16.0
194.446,-0.791,10.357,20.0
67.752,-0.259,5.475,6.0
76.365,-0.285,5.723,18.0
96.41,-0.351,6.661,8.0
96.384,-0.343,6.085,24.0
179.443,-0.623,10.281,9.0
179.183,-0.605,9.221,24.0
76.882,-0.242,6.072,16.0
82.795,-0.254,6.054,24.0
96.296,-0.287,6.477,16.0
96.348,-0.279,5.908,18.0
179.058,-0.503,9.932,16.0
194.276,-0.53,9.641,16.0
76.855,-0.192,5.929,11.0
82.815,-0.201,5.903,28.0
96.327,-0.225,6.301,23.0
96.225,-0.217,5.722,8.0
202.057,-0.442,10.836,14.0
201.754,-0.425,9.641,8.0
63.121,-0.119,4.751,14.0
82.903,-0.15,5.755,26.0
96.58,-0.168,6.138,18.0
178.72,-0.298,10.294,12.0
201.873,-0.321,10.448,21.0
201.883,-0.306,9.269,20.0
63.025,-0.082,4.625,21.0
82.96,-0.102,5.601,16.0
96.358,-0.112,5.941,16.0
151.064,-0.166,8.415,33.0
201.287,-0.207,10.034,22.0
202.756,-0.195,8.926,5.0
63.027,-0.048,4.505,4.0
87.583,-0.061,5.747,9.0
91.627,-0.057,5.475,15.0
151.063,-0.085,8.127,33.0
201.629,-0.102,9.669,23.0
202.751,-0.09,8.537,5.0
83.215,-0.02,5.788,12.0
96.585,-0.018,6.151,18.0
151.026,-0.019,8.734,32.0
151.042,-0.01,7.834,13.0
201.844,-0.002,9.288,22.0
83.331,0.003,3.348,1.0
83.044,0.019,5.613,31.0
91.463,0.026,5.645,13.0
151.081,0.051,8.44,38.0
201.186,0.079,10.04,21.0
83.48,0.037,3.678,1.0
83.32,0.041,3.184,24.0
83.076,0.056,5.451,24.0
91.227,0.066,5.451,12.0
151.113,0.117,8.145,34.0
201.715,0.166,9.67,9.0
83.311,0.072,3.507,24.0
83.259,0.076,3.019,33.0
83.228,0.09,5.297,8.0
151.054,0.17,8.729,18.0
83.356,0.097,4.327,8.0
83.304,0.101,3.828,27.0
83.306,0.104,3.341,30.0
78.081,0.101,2.676,21.0
83.35,0.122,5.137,15.0
83.349,0.125,4.648,7.0
83.279,0.128,4.157,18.0
83.292,0.131,3.661,43.0
83.187,0.136,2.683,18.0
83.22,0.15,4.961,18.0
83.257,0.152,4.475,15.0
83.252,0.155,3.987,40.0
83.246,0.157,3.492,42.0
83.234,0.16,3.004,27.0
78.131,0.153,2.362,7.0
83.217,0.175,4.791,21.0
83.223,0.177,4.304,23.0
83.264,0.179,3.819,48.0
83.236,0.181,3.321,41.0
78.092,0.172,2.659,15.0
76.544,0.171,2.158,3.0
83.259,0.197,4.623,25.0
83.248,0.199,4.134,42.0
83.243,0.201,3.645,43.0
83.231,0.202,3.15,44.0
83.144,0.204,2.659,15.0
76.122,0.188,1.99,5.0
83.223,0.216,4.45,25.0
83.249,0.218,3.963,47.0
83.259,0.219,3.476,44.0
83.231,0.22,2.978,18.0
78.159,0.208,2.339,6.0
65.41,0.175,1.575,0.0
83.241,0.233,4.278,28.0
83.235,0.233,3.79,46.0
83.25,0.234,3.302,42.0
83.199,0.235,2.804,16.0
76.072,0.216,2.119,3.0
0.0,0.0,0.0,0.0
83.239,0.245,4.103,40.0
83.265,0.246,3.617,44.0
83.244,0.247,3.128,43.0
83.113,0.246,2.628,12.0
75.925,0.226,1.956,3.0
0.0,0.0,0.0,0.0
83.239,0.255,3.93,42.0
83.253,0.256,3.443,43.0
83.241,0.256,2.954,15.0
78.084,0.24,2.306,4.0
0.0,0.0,0.0,0.0
0.0,0.0,0.0,0.0
83.254,0.262,3.756,42.0
83.268,0.262,3.267,48.0
83.191,0.262,2.778,16.0
75.857,0.238,2.081,3.0
0.0,0.0,0.0,0.0
0.0,0.0,0.0,0.0
83.253,0.266,3.58,42.0
83.27,0.265,3.092,35.0
83.031,0.264,2.597,10.0
75.883,0.24,1.922,1.0
0.0,0.0,0.0,0.0
37.426,0.117,0.509,0.0
83.249,0.267,3.404,39.0
83.221,0.265,2.915,11.0
78.09,0.248,2.278,2.0
0.0,0.0,0.0,0.0
0.0,0.0,0.0,0.0
0.0,0.0,0.0,0.0
83.275,0.264,3.23,45.0
83.156,0.262,2.738,14.0
75.931,0.238,2.055,3.0
0.0,0.0,0.0,0.0
41.477,0.128,0.632,0.0
33.701,0.103,0.317,0.0
83.256,0.259,3.052,22.0
82.942,0.256,2.554,6.0
76.08,0.232,1.897,0.0
0.0,0.0,0.0,0.0
37.184,0.111,0.488,0.0
31.558,0.094,0.23,0.0
83.206,0.25,2.874,14.0
76.33,0.227,2.188,1.0
0.0,0.0,0.0,0.0
42.206,0.122,0.711,0.0
34.839,0.1,0.383,0.0
28.942,0.082,0.148,0.0
83.156,0.238,2.694,14.0
76.025,0.214,2.017,3.0
0.0,0.0,0.0,0.0
0.0,0.0,0.0,0.0
0.0,0.0,0.0,0.0
28.682,0.076,0.086,2.0
78.121,0.209,2.364,7.0
0.0,0.0,0.0,0.0
0.0,0.0,0.0,0.0
0.0,0.0,0.0,0.0
31.552,0.079,0.212,0.0
27.297,0.067,0.024,0.0
76.354,0.187,2.148,3.0
0.0,0.0,0.0,0.0
42.006,0.099,0.69,0.0
34.308,0.079,0.359,0.0
28.823,0.065,0.133,1.0
26.152,0.058,-0.032,0.0
76.133,0.167,1.98,4.0
0.0,0.0,0.0,0.0
0.0,0.0,0.0,0.0
31.65,0.064,0.264,0.0
28.633,0.057,0.071,4.0
25.08,0.048,-0.083,0.0
0.0,0.0,0.0,0.0
0.0,0.0,0.0,0.0
36.117,0.064,0.439,0.0
30.488,0.053,0.19,0.0
27.01,0.045,0.01,0.0
23.701,0.038,-0.129,1.0
56.159,0.088,1.221,0.0
41.486,0.062,0.66,0.0
0.0,0.0,0.0,0.0
28.781,0.039,0.118,1.0
25.805,0.034,-0.044,0.0
22.681,0.028,-0.172,0.0
0.0,0.0,0.0,0.0
0.0,0.0,0.0,0.0
0.0,0.0,0.0,0.0
28.061,0.028,0.055,0.0
24.537,0.023,-0.094,0.0
21.292,0.018,-0.206,4.0
0.0,0.0,0.0,0.0
0.0,0.0,0.0,0.0
30.2,0.019,0.176,0.0
26.599,0.015,-0.002,0.0
23.554,0.011,-0.14,1.0
20.52,0.008,-0.242,0.0
39.796,0.014,0.614,0.0
33.221,0.009,0.319,0.0
28.68,0.006,0.107,1.0
25.453,0.003,-0.055,0.0
22.282,0.001,-0.178,0.0
19.171,0.0,-0.266,0.0
36.763,-0.004,0.491,0.0
30.959,-0.006,0.232,0.0
27.631,-0.007,0.045,0.0
24.102,-0.008,-0.103,0.0
21.128,-0.009,-0.214,3.0
18.309,-0.009,-0.292,0.0
0.0,0.0,0.0,0.0
29.993,-0.021,0.162,0.0
26.373,-0.021,-0.011,0.0
23.374,-0.02,-0.148,0.0
20.038,-0.019,-0.244,0.0
17.49,-0.018,-0.316,0.0
33.127,-0.039,0.303,0.0
28.704,-0.036,0.095,3.0
25.301,-0.034,-0.063,0.0
21.801,-0.031,-0.184,0.0
18.698,-0.029,-0.267,0.0
16.913,-0.028,-0.34,0.0
31.193,-0.055,0.221,0.0
27.477,-0.051,0.034,0.0
24.039,-0.047,-0.109,0.0
20.958,-0.043,-0.22,0.0
18.201,-0.039,-0.297,0.0
16.435,-0.037,-0.365,0.0
28.849,-0.069,0.146,5.0
26.172,-0.065,-0.02,0.0
23.116,-0.06,-0.152,0.0
19.866,-0.053,-0.249,0.0
17.418,-0.049,-0.32,0.0
15.935,-0.046,-0.386,0.0
28.658,-0.087,0.086,4.0
25.129,-0.079,-0.07,0.0
21.952,-0.071,-0.19,0.0
18.587,-0.062,-0.271,0.0
16.829,-0.058,-0.344,0.0
15.495,-0.055,-0.407,0.0
27.305,-0.102,0.026,0.0
23.95,-0.092,-0.116,0.0
20.795,-0.082,-0.222,0.0
18.046,-0.073,-0.3,0.0
16.396,-0.069,-0.368,0.0
14.874,-0.064,-0.421,0.0
25.86,-0.115,-0.026,0.0
22.993,-0.105,-0.157,0.0
19.581,-0.092,-0.248,0.0
17.216,-0.083,-0.32,0.0
15.882,-0.078,-0.388,0.0
14.461,-0.073,-0.438,0.0
24.867,-0.13,-0.074,0.0
21.877,-0.117,-0.193,1.0
18.613,-0.102,-0.273,0.0
16.785,-0.094,-0.346,0.0
15.429,-0.088,-0.408,0.0
14.118,-0.082,-0.456,0.0
24.027,-0.144,-0.119,0.0
20.693,-0.127,-0.223,0.0
18.008,-0.113,-0.299,0.0
16.258,-0.104,-0.367,0.0
14.871,-0.097,-0.423,0.0
13.744,-0.091,-0.471,0.0
22.702,-0.155,-0.157,0.0
19.391,-0.135,-0.247,0.0
17.315,-0.123,-0.322,0.0
15.841,-0.115,-0.388,0.0
14.331,-0.106,-0.435,0.0
13.383,-0.1,-0.484,0.0
21.977,-0.169,-0.195,0.0
18.52,-0.145,-0.272,0.0
16.731,-0.133,-0.343,0.0
15.422,-0.125,-0.408,0.0
14.08,-0.116,-0.454,0.0
12.983,-0.109,-0.495,0.0
20.599,-0.177,-0.222,0.0
17.887,-0.156,-0.297,0.0
16.305,-0.145,-0.366,0.0
14.829,-0.134,-0.421,0.0
13.711,-0.126,-0.469,0.0
12.75,-0.119,-0.511,0.0
19.589,-0.186,-0.249,0.0
17.318,-0.167,-0.32,0.0
15.844,-0.156,-0.386,0.0
14.437,-0.144,-0.437,0.0
13.384,-0.135,-0.483,0.0
12.511,-0.129,-0.525,0.0
18.632,-0.195,-0.272,0.0
16.742,-0.178,-0.341,0.0
15.399,-0.166,-0.404,0.0
14.031,-0.154,-0.451,0.0
12.967,-0.144,-0.492,0.0
12.307,-0.139,-0.539,0.0
17.994,-0.207,-0.296,0.0
16.388,-0.191,-0.365,0.0
14.75,-0.174,-0.414,0.0
13.707,-0.164,-0.466,0.0
12.785,-0.155,-0.509,0.0
11.961,-0.147,-0.546,0.0
17.362,-0.217,-0.317,0.0
15.913,-0.201,-0.383,0.0
14.468,-0.185,-0.432,0.0
13.436,-0.174,-0.481,0.0
12.484,-0.164,-0.52,0.0
11.713,-0.156,-0.556,0.0
16.796,-0.227,-0.337,0.0
15.464,-0.212,-0.4,0.0
14.125,-0.196,-0.448,0.0
13.112,-0.184,-0.493,0.0
12.306,-0.175,-0.535,0.0
11.437,-0.164,-0.564,0.0
16.439,-0.24,-0.359,0.0
14.893,-0.22,-0.412,0.0
13.778,-0.206,-0.461,0.0
12.822,-0.194,-0.505,0.0
11.988,-0.183,-0.542,0.0
11.303,-0.175,-0.577,0.0
15.978,-0.251,-0.377,0.0
14.552,-0.231,-0.428,0.0
13.513,-0.217,-0.476,0.0
12.522,-0.203,-0.515,0.0
11.763,-0.193,-0.552,0.0
10.971,-0.182,-0.579,0.0
15.624,-0.263,-0.396,0.0
14.205,-0.242,-0.442,0.0
13.111,-0.225,-0.484,0.0
12.294,-0.214,-0.527,0.0
11.544,-0.203,-0.562,0.0
10.837,-0.192,-0.591,0.0
14.949,-0.269,-0.404,0.0
13.894,-0.253,-0.456,0.0
12.945,-0.238,-0.5,0.0
12.02,-0.223,-0.535,0.0
11.358,-0.213,-0.572,0.0
10.675,-0.202,-0.6,0.0
14.711,-0.282,-0.422,0.0
13.647,-0.264,-0.47,0.0
12.632,-0.247,-0.509,0.0
11.861,-0.234,-0.548,0.0
11.124,-0.222,-0.579,0.0
10.503,-0.212,-0.608,0.0
14.329,-0.292,-0.434,0.0
13.336,-0.274,-0.482,0.0
12.426,-0.258,-0.521,0.0
11.7,-0.245,-0.56,0.0
10.847,-0.23,-0.582,0.0
10.268,-0.219,-0.61,0.0
14.055,-0.304,-0.449,0.0
13.106,-0.286,-0.494,0.0
12.24,-0.269,-0.533,0.0
11.421,-0.254,-0.564,0.0
10.696,-0.24,-0.591,0.0
10.122,-0.229,-0.618,0.0
13.811,-0.316,-0.463,0.0
12.853,-0.297,-0.505,0.0
11.991,-0.279,-0.541,0.0
11.247,-0.264,-0.573,0.0
10.548,-0.25,-0.599,0.0
9.977,-0.238,-0.625,0.0
13.518,-0.326,-0.474,0.0
12.523,-0.305,-0.511,0.0
11.83,-0.291,-0.552,0.0
11.071,-0.274,-0.582,0.0
10.393,-0.26,-0.606,0.0
9.919,-0.25,-0.636,0.0
13.184,-0.335,-0.482,0.0
12.351,-0.317,-0.523,0.0
11.556,-0.299,-0.556,0.0
10.797,-0.282,-0.583,0.0
10.249,-0.269,-0.613,0.0
9.687,-0.257,-0.636,0.0
13.023,-0.348,-0.495,0.0
12.131,-0.327,-0.531,0.0
11.39,-0.31,-0.565,0.0
10.609,-0.291,-0.589,0.0
10.065,-0.278,-0.617,0.0
9.62,-0.268,-0.645,0.0
12.764,-0.358,-0.504,0.0
11.877,-0.336,-0.537,0.0
11.295,-0.322,-0.576,0.0
10.496,-0.302,-0.597,0.0
10.027,-0.29,-0.629,0.0
9.362,-0.273,-0.641,0.0
9.734,-0.753,-0.632,0.0
0.0,0.0,0.0,0.0
0.0,0.0,0.0,0.0
8.343,-0.653,-0.683,0.0
8.103,-0.636,-0.709,0.0
0.0,0.0,0.0,0.0
9.695,-0.764,-0.63,0.0
0.0,0.0,0.0,0.0
8.768,-0.696,-0.668,0.0
8.373,-0.667,-0.686,0.0
8.019,-0.641,-0.702,0.0
0.0,0.0,0.0,0.0
9.691,-0.777,-0.63,0.0
9.22,-0.742,-0.651,0.0
0.0,0.0,0.0,0.0
8.361,-0.678,-0.685,0.0
8.059,-0.656,-0.706,0.0
0.0,0.0,0.0,0.0
9.729,-0.794,-0.633,0.0
0.0,0.0,0.0,0.0
8.747,-0.719,-0.666,0.0
8.356,-0.689,-0.684,0.0
8.011,-0.663,-0.701,0.0
0.0,0.0,0.0,0.0
9.771,-0.811,-0.635,0.0
0.0,0.0,0.0,0.0
8.779,-0.734,-0.668,0.0
8.394,-0.704,-0.687,0.0
8.038,-0.677,-0.703,0.0
0.0,0.0,0.0,0.0
0.0,0.0,0.0,0.0
0.0,0.0,0.0,0.0
8.758,-0.744,-0.665,0.0
8.383,-0.715,-0.685,0.0
8.06,-0.689,-0.703,0.0
0.0,0.0,0.0,0.0
0.0,0.0,0.0,0.0
0.0,0.0,0.0,0.0
0.0,0.0,0.0,0.0
8.382,-0.726,-0.683,0.0
8.096,-0.703,-0.705,0.0
7.706,-0.672,-0.714,0.0
9.717,-0.846,-0.627,0.0
9.226,-0.806,-0.646,0.0
8.69,-0.762,-0.657,0.0
8.43,-0.741,-0.685,0.0
8.068,-0.711,-0.701,0.0
0.0,0.0,0.0,0.0
9.797,-0.866,-0.63,0.0
0.0,0.0,0.0,0.0
0.0,0.0,0.0,0.0
8.375,-0.747,-0.679,0.0
8.091,-0.724,-0.701,0.0
7.758,-0.696,-0.715,0.0
9.754,-0.875,-0.624,0.0
0.0,0.0,0.0,0.0
8.878,-0.801,-0.667,0.0
8.385,-0.759,-0.677,0.0
8.103,-0.735,-0.7,0.0
0.0,0.0,0.0,0.0
9.831,-0.894,-0.626,0.0
0.0,0.0,0.0,0.0
0.0,0.0,0.0,0.0
8.498,-0.78,-0.684,0.0
8.128,-0.748,-0.699,0.0
7.835,-0.723,-0.717,0.0
0.0,0.0,0.0,0.0
0.0,0.0,0.0,0.0
0.0,0.0,0.0,0.0
8.446,-0.785,-0.676,0.0
8.165,-0.761,-0.699,0.0
7.857,-0.735,-0.716,0.0
0.0,0.0,0.0,0.0
0.0,0.0,0.0,0.0
0.0,0.0,0.0,0.0
8.484,-0.799,-0.676,0.0
8.221,-0.776,-0.7,0.0
7.85,-0.743,-0.712,0.0
0.0,0.0,0.0,0.0
9.533,-0.904,-0.649,0.0
8.918,-0.848,-0.656,0.0
8.498,-0.81,-0.673,0.0
8.192,-0.783,-0.694,0.0
7.887,-0.756,-0.712,0.0
0.0,0.0,0.0,0.0
0.0,0.0,0.0,0.0
0.0,0.0,0.0,0.0
8.576,-0.828,-0.675,0.0
8.228,-0.796,-0.693,0.0
7.923,-0.769,-0.711,0.0
0.0,0.0,0.0,0.0
9.508,-0.924,-0.638,0.0
0.0,0.0,0.0,0.0
8.651,-0.845,-0.677,0.0
8.291,-0.812,-0.694,0.0
7.942,-0.779,-0.709,0.0
0.0,0.0,0.0,0.0
0.0,0.0,0.0,0.0
0.0,0.0,0.0,0.0
8.677,-0.857,-0.674,0.0
8.303,-0.822,-0.691,0.0
7.996,-0.793,-0.709,0.0
10.107,-1.002,-0.612,0.0
0.0,0.0,0.0,0.0
0.0,0.0,0.0,0.0
8.699,-0.868,-0.671,0.0
8.32,-0.832,-0.687,0.0
7.997,-0.802,-0.705,0.0
10.123,-1.014,-0.607,0.0
9.719,-0.976,-0.636,0.0
0.0,0.0,0.0,0.0
8.733,-0.881,-0.668,0.0
8.406,-0.85,-0.689,0.0
8.015,-0.812,-0.701,0.0
10.24,-1.036,-0.607,0.0
0.0,0.0,0.0,0.0
0.0,0.0,0.0,0.0
8.709,-0.887,-0.66,0.0
8.439,-0.861,-0.686,0.0
8.064,-0.825,-0.7,0.0
10.311,-1.053,-0.605,0.0
0.0,0.0,0.0,0.0
9.276,-0.952,-0.645,0.0
0.0,0.0,0.0,0.0
8.437,-0.869,-0.68,0.0
8.11,-0.837,-0.698,0.0
10.289,-1.061,-0.596,0.0
0.0,0.0,0.0,0.0
0.0,0.0,0.0,0.0
0.0,0.0,0.0,0.0
8.536,-0.887,-0.682,0.0
8.148,-0.849,-0.696,0.0
10.414,-1.084,-0.596,0.0
0.0,0.0,0.0,0.0
0.0,0.0,0.0,0.0
0.0,0.0,0.0,0.0
8.54,-0.896,-0.676,0.0
8.205,-0.862,-0.694,0.0
10.527,-1.105,-0.594,0.0
0.0,0.0,0.0,0.0
0.0,0.0,0.0,0.0
0.0,0.0,0.0,0.0
8.632,-0.913,-0.676,0.0
8.255,-0.875,-0.692,0.0
10.592,-1.12,-0.589,0.0
10.0,-1.06,-0.611,0.0
9.622,-1.021,-0.64,0.0
0.0,0.0,0.0,0.0
8.638,-0.92,-0.67,0.0
8.304,-0.886,-0.689,0.0
10.71,-1.142,-0.587,0.0
10.203,-1.089,-0.615,0.0
9.607,-1.028,-0.631,0.0
0.0,0.0,0.0,0.0
8.698,-0.934,-0.667,0.0
8.368,-0.9,-0.687,0.0
10.777,-1.157,-0.582,0.0
10.177,-1.094,-0.604,0.0
0.0,0.0,0.0,0.0
0.0,0.0,0.0,0.0
8.791,-0.95,-0.666,0.0
8.429,-0.913,-0.685,0.0
10.852,-1.173,-0.576,0.0
10.27,-1.112,-0.601,0.0
0.0,0.0,0.0,0.0
0.0,0.0,0.0,0.0
8.858,-0.964,-0.664,0.0
8.503,-0.926,-0.683,0.0
10.998,-1.197,-0.574,0.0
10.377,-1.131,-0.598,0.0
0.0,0.0,0.0,0.0
0.0,0.0,0.0,0.0
8.891,-0.973,-0.658,0.0
8.564,-0.939,-0.68,0.0
11.1,-1.215,-0.569,0.0
10.444,-1.145,-0.592,0.0
0.0,0.0,0.0,0.0
0.0,0.0,0.0,0.0
9.053,-0.997,-0.661,0.0
8.577,-0.946,-0.673,0.0
11.225,-1.236,-0.565,0.0
10.572,-1.165,-0.589,0.0
10.108,-1.116,-0.618,0.0
0.0,0.0,0.0,0.0
9.146,-1.012,-0.659,0.0
8.657,-0.959,-0.671,0.0
11.396,-1.261,-0.562,0.0
10.762,-1.193,-0.589,0.0
10.143,-1.125,-0.61,0.0
0.0,0.0,0.0,0.0
0.0,0.0,0.0,0.0
8.753,-0.975,-0.669,0.0
11.499,-1.279,-0.556,0.0
10.829,-1.206,-0.582,0.0
10.219,-1.139,-0.604,0.0
0.0,0.0,0.0,0.0
0.0,0.0,0.0,0.0
8.801,-0.984,-0.664,0.0
11.624,-1.299,-0.55,0.0
11.004,-1.231,-0.58,0.0
10.386,-1.163,-0.603,0.0
0.0,0.0,0.0,0.0
0.0,0.0,0.0,0.0
8.888,-0.998,-0.661,0.0
11.749,-1.318,-0.544,0.0
11.157,-1.253,-0.576,0.0
10.468,-1.177,-0.597,0.0
0.0,0.0,0.0,0.0
0.0,0.0,0.0,0.0
9.002,-1.015,-0.66,0.0
11.891,-1.339,-0.538,0.0
11.142,-1.256,-0.563,0.0
10.512,-1.186,-0.588,0.0
9.988,-1.128,-0.614,0.0
0.0,0.0,0.0,0.0
9.057,-1.024,-0.654,0.0
12.034,-1.359,-0.531,0.0
11.347,-1.283,-0.562,0.0
10.725,-1.213,-0.588,0.0
10.211,-1.156,-0.616,0.0
0.0,0.0,0.0,0.0
9.129,-1.036,-0.649,0.0
12.206,-1.383,-0.525,0.0
11.5,-1.304,-0.556,0.0
10.965,-1.244,-0.59,0.0
10.287,-1.168,-0.609,0.0
0.0,0.0,0.0,0.0
9.292,-1.057,-0.65,0.0
12.324,-1.4,-0.516,0.0
11.677,-1.327,-0.552,0.0
11.036,-1.255,-0.581,0.0
10.384,-1.182,-0.603,0.0
9.787,-1.115,-0.621,0.0
0.0,0.0,0.0,0.0
12.553,-1.429,-0.512,0.0
11.744,-1.337,-0.542,0.0
11.016,-1.255,-0.567,0.0
10.542,-1.202,-0.6,0.0
9.924,-1.132,-0.618,0.0
9.539,-1.089,-0.646,0.0
12.656,-1.443,-0.501,0.0
11.919,-1.36,-0.536,0.0
11.283,-1.288,-0.568,0.0
0.0,0.0,0.0,0.0
10.099,-1.154,-0.617,0.0
0.0,0.0,0.0,0.0
12.844,-1.467,-0.494,0.0
12.116,-1.384,-0.531,0.0
11.358,-1.298,-0.558,0.0
10.78,-1.232,-0.589,0.0
10.229,-1.17,-0.613,0.0
9.685,-1.108,-0.633,0.0
13.098,-1.497,-0.488,0.0
12.292,-1.405,-0.524,0.0
11.582,-1.324,-0.555,0.0
10.911,-1.248,-0.583,0.0
10.301,-1.179,-0.605,0.0
9.852,-1.128,-0.632,0.0
13.312,-1.522,-0.48,0.0
12.396,-1.418,-0.513,0.0
11.704,-1.339,-0.547,0.0
10.994,-1.258,-0.574,0.0
10.439,-1.195,-0.601,0.0
9.985,-1.143,-0.628,0.0
13.466,-1.54,-0.47,0.0
12.677,-1.45,-0.51,0.0
11.903,-1.362,-0.542,0.0
11.181,-1.279,-0.57,0.0
10.572,-1.21,-0.596,0.0
10.055,-1.151,-0.621,0.0
13.759,-1.573,-0.464,0.0
12.754,-1.458,-0.498,0.0
12.044,-1.377,-0.534,0.0
11.311,-1.293,-0.563,0.0
10.708,-1.225,-0.59,0.0
10.188,-1.165,-0.616,0.0
13.987,-1.598,-0.454,0.0
13.03,-1.489,-0.492,0.0
12.232,-1.398,-0.528,0.0
11.493,-1.313,-0.558,0.0
10.913,-1.247,-0.588,0.0
10.221,-1.168,-0.606,0.0
14.185,-1.619,-0.443,0.0
13.222,-1.509,-0.484,0.0
12.324,-1.407,-0.516,0.0
11.679,-1.333,-0.553,0.0
10.95,-1.25,-0.577,0.0
10.414,-1.188,-0.604,0.0
14.389,-1.64,-0.432,0.0
13.39,-1.526,-0.473,0.0
12.574,-1.433,-0.511,0.0
11.853,-1.35,-0.546,0.0
11.124,-1.267,-0.572,0.0
10.478,-1.193,-0.595,0.0
14.74,-1.677,-0.424,0.0
13.737,-1.563,-0.468,0.0
12.764,-1.451,-0.503,0.0
11.941,-1.358,-0.536,0.0
11.323,-1.287,-0.568,0.0
10.64,-1.209,-0.591,0.0
14.92,-1.694,-0.411,0.0
13.904,-1.578,-0.457,0.0
12.986,-1.473,-0.496,0.0
12.14,-1.377,-0.53,0.0
11.483,-1.302,-0.562,0.0
10.856,-1.23,-0.589,0.0
15.346,-1.738,-0.404,0.0
14.163,-1.603,-0.448,0.0
13.163,-1.489,-0.486,0.0
12.323,-1.393,-0.522,0.0
11.639,-1.316,-0.555,0.0
10.991,-1.242,-0.583,0.0
15.655,-1.767,-0.392,0.0
14.349,-1.619,-0.436,0.0
13.316,-1.502,-0.475,0.0
12.549,-1.414,-0.516,0.0
11.804,-1.33,-0.548,0.0
11.148,-1.255,-0.577,0.0
15.953,-1.795,-0.38,0.0
14.63,-1.645,-0.426,0.0
13.635,-1.532,-0.47,0.0
12.663,-1.422,-0.505,0.0
12.0,-1.347,-0.542,0.0
11.291,-1.266,-0.571,0.0
16.338,-1.831,-0.369,0.0
14.877,-1.666,-0.415,0.0
13.852,-1.55,-0.46,0.0
12.918,-1.445,-0.499,0.0
12.112,-1.354,-0.532,0.0
11.384,-1.271,-0.561,0.0
16.718,-1.866,-0.357,0.0
15.274,-1.703,-0.407,0.0
14.071,-1.568,-0.45,0.0
13.133,-1.462,-0.491,0.0
12.35,-1.374,-0.527,0.0
11.66,-1.296,-0.56,0.0
17.059,-1.895,-0.343,0.0
15.546,-1.725,-0.395,0.0
14.327,-1.588,-0.44,0.0
13.296,-1.473,-0.481,0.0
12.436,-1.376,-0.515,0.0
11.75,-1.299,-0.55,0.0
17.504,-1.934,-0.33,0.0
15.943,-1.76,-0.385,0.0
14.547,-1.604,-0.429,0.0
13.59,-1.497,-0.474,0.0
12.626,-1.39,-0.508,0.0
11.913,-1.31,-0.543,0.0
17.864,-1.963,-0.315,0.0
16.352,-1.795,-0.375,0.0
14.886,-1.632,-0.42,0.0
13.784,-1.51,-0.464,0.0
12.896,-1.411,-0.502,0.0
12.098,-1.322,-0.536,0.0
18.27,-1.995,-0.299,0.0
16.632,-1.814,-0.361,0.0
15.185,-1.654,-0.41,0.0
13.971,-1.521,-0.453,0.0
13.108,-1.425,-0.495,0.0
12.259,-1.331,-0.528,0.0
18.923,-2.053,-0.287,0.0
17.001,-1.842,-0.348,0.0
15.514,-1.679,-0.4,0.0
14.283,-1.544,-0.446,0.0
13.359,-1.442,-0.488,0.0
12.422,-1.339,-0.52,0.0
19.448,-2.096,-0.271,0.0
17.369,-1.869,-0.334,0.0
15.686,-1.686,-0.385,0.0
14.402,-1.546,-0.432,0.0
13.538,-1.451,-0.478,0.0
12.667,-1.356,-0.514,0.0
19.866,-2.125,-0.253,0.0
17.686,-1.889,-0.319,0.0
16.181,-1.726,-0.378,0.0
14.724,-1.568,-0.423,0.0
13.747,-1.462,-0.469,0.0
12.801,-1.359,-0.504,0.0
20.42,-2.167,-0.235,0.0
18.135,-1.922,-0.305,0.0
16.517,-1.747,-0.366,0.0
15.064,-1.591,-0.415,0.0
13.989,-1.475,-0.46,0.0
13.03,-1.372,-0.498,0.0
21.803,-2.295,-0.225,0.0
18.78,-1.973,-0.294,0.0
16.883,-1.771,-0.354,0.0
15.391,-1.612,-0.406,0.0
14.184,-1.483,-0.45,0.0
13.211,-1.379,-0.489,0.0
22.274,-2.324,-0.204,0.0
19.361,-2.016,-0.28,0.0
17.144,-1.782,-0.339,0.0
15.577,-1.617,-0.393,0.0
14.423,-1.494,-0.44,0.0
13.477,-1.394,-0.483,0.0
22.602,-2.336,-0.18,0.0
19.686,-2.031,-0.262,0.0
17.623,-1.815,-0.328,0.0
15.942,-1.638,-0.383,0.0
14.645,-1.503,-0.43,0.0
13.668,-1.4,-0.474,0.0
23.076,-2.362,-0.157,0.0
33.975,-3.471,-0.413,0.0
17.941,-1.829,-0.313,0.0
16.443,-1.673,-0.377,0.0
14.934,-1.517,-0.421,0.0
13.894,-1.408,-0.466,0.0
33.987,-3.444,-0.193,2.0
33.995,-3.437,-0.374,2.0
33.957,-3.426,-0.555,1.0
16.702,-1.681,-0.363,0.0
15.201,-1.527,-0.412,0.0
14.089,-1.413,-0.457,0.0
33.991,-3.407,-0.155,4.0
33.981,-3.399,-0.336,0.0
19.142,-1.91,-0.291,0.0
16.958,-1.688,-0.35,0.0
15.516,-1.541,-0.403,0.0
14.309,-1.419,-0.448,0.0
33.983,-3.368,-0.118,0.0
22.49,-2.224,-0.197,0.0
19.456,-1.919,-0.275,0.0
17.301,-1.703,-0.338,0.0
15.707,-1.542,-0.391,0.0
14.526,-1.423,-0.439,0.0
25.776,-2.524,-0.061,0.0
22.753,-2.223,-0.175,3.0
19.796,-1.929,-0.258,0.0
17.641,-1.715,-0.326,0.0
16.058,-1.558,-0.382,0.0
14.789,-1.431,-0.431,0.0
26.396,-2.553,-0.034,0.0
23.245,-2.242,-0.154,1.0
20.299,-1.953,-0.243,0.0
17.935,-1.722,-0.312,0.0
16.449,-1.575,-0.374,0.0
15.017,-1.434,-0.422,0.0
27.002,-2.578,-0.006,0.0
23.58,-2.245,-0.131,0.0
21.221,-2.015,-0.231,0.0
18.383,-1.741,-0.3,0.0
16.723,-1.58,-0.363,0.0
15.298,-1.441,-0.414,0.0
27.889,-2.627,0.021,0.0
24.465,-2.298,-0.111,0.0
21.734,-2.036,-0.215,1.0
18.906,-1.766,-0.29,0.0
17.02,-1.585,-0.352,0.0
15.593,-1.449,-0.406,0.0
28.414,-2.638,0.051,0.0
25.112,-2.325,-0.088,0.0
22.31,-2.06,-0.198,1.0
19.388,-1.785,-0.277,0.0
17.325,-1.59,-0.341,0.0
15.752,-1.442,-0.394,0.0
28.874,-2.642,0.081,0.0
25.699,-2.344,-0.065,0.0
22.751,-2.069,-0.179,1.0
19.675,-1.784,-0.262,0.0
17.592,-1.59,-0.328,0.0
15.958,-1.438,-0.383,0.0
29.405,-2.649,0.111,0.0
26.145,-2.347,-0.04,0.0
23.167,-2.074,-0.16,1.0
20.696,-1.847,-0.256,0.0
17.907,-1.593,-0.317,0.0
16.36,-1.451,-0.377,0.0
30.077,-2.666,0.142,0.0
0.0,0.0,0.0,0.0
23.42,-2.062,-0.14,0.0
20.881,-1.833,-0.238,1.0
18.278,-1.599,-0.307,0.0
16.646,-1.452,-0.368,0.0
30.592,-2.667,0.173,0.0
27.317,-2.373,0.008,0.0
23.917,-2.071,-0.121,0.0
21.193,-1.828,-0.223,1.0
18.696,-1.608,-0.296,0.0
16.861,-1.445,-0.358,0.0
31.347,-2.685,0.206,0.0
27.745,-2.368,0.033,0.0
33.777,-2.873,-0.14,0.0
21.831,-1.85,-0.21,1.0
19.057,-1.61,-0.285,0.0
17.1,-1.439,-0.348,0.0
32.024,-2.694,0.238,0.0
33.861,-2.838,0.07,2.0
33.864,-2.828,-0.111,2.0
33.862,-2.817,-0.296,6.0
19.432,-1.611,-0.274,0.0
17.374,-1.435,-0.339,0.0
32.69,-2.698,0.271,0.0
33.831,-2.782,0.098,1.0
33.812,-2.77,-0.083,0.0
33.856,-2.763,-0.268,5.0
19.86,-1.615,-0.264,0.0
17.595,-1.425,-0.328,0.0
33.198,-2.687,0.302,0.0
33.92,-2.735,0.126,0.0
33.862,-2.72,-0.055,0.0
33.863,-2.709,-0.241,8.0
20.356,-1.622,-0.254,0.0
17.775,-1.411,-0.318,0.0
0.0,0.0,0.0,0.0
29.873,-2.36,0.134,0.0
33.901,-2.667,-0.029,1.0
33.887,-2.656,-0.215,5.0
20.834,-1.626,-0.244,1.0
18.143,-1.41,-0.31,0.0
0.0,0.0,0.0,0.0
30.323,-2.345,0.16,0.0
33.881,-2.609,-0.003,2.0
33.872,-2.598,-0.189,13.0
33.896,-2.588,-0.372,3.0
18.459,-1.403,-0.302,0.0
0.0,0.0,0.0,0.0
31.087,-2.351,0.187,0.0
33.885,-2.551,0.021,3.0
33.873,-2.539,-0.165,31.0
33.888,-2.529,-0.348,7.0
18.636,-1.384,-0.291,0.0
36.857,-2.735,0.446,1.0
31.273,-2.31,0.21,0.0
33.922,-2.495,0.044,3.0
33.902,-2.482,-0.141,8.0
33.91,-2.472,-0.325,3.0
19.051,-1.382,-0.285,0.0
36.902,-2.675,0.472,0.0
31.627,-2.281,0.233,0.0
33.898,-2.433,0.067,4.0
33.901,-2.422,-0.119,8.0
33.929,-2.413,-0.302,1.0
19.248,-1.362,-0.275,0.0
34.485,-2.438,0.463,0.0
32.347,-2.275,0.259,0.0
33.865,-2.37,0.088,0.0
25.808,-1.797,-0.074,2.0
22.614,-1.568,-0.187,0.0
19.539,-1.348,-0.268,0.0
34.526,-2.378,0.485,2.0
33.747,-2.313,0.291,1.0
29.093,-1.984,0.093,0.0
25.73,-1.746,-0.059,0.0
23.004,-1.553,-0.177,0.0
19.865,-1.334,-0.26,0.0
34.516,-2.314,0.505,4.0
33.463,-2.232,0.308,2.0
0.0,0.0,0.0,0.0
25.924,-1.711,-0.044,0.0
23.281,-1.528,-0.166,0.0
20.216,-1.32,-0.254,0.0
34.499,-2.249,0.523,3.0
33.43,-2.167,0.326,0.0
30.198,-1.947,0.131,0.0
0.0,0.0,0.0,0.0
23.573,-1.503,-0.155,0.0
20.456,-1.297,-0.246,0.0
34.392,-2.177,0.54,5.0
34.629,-2.179,0.355,0.0
30.207,-1.891,0.146,0.0
26.881,-1.673,-0.018,0.0
23.695,-1.466,-0.145,0.0
20.87,-1.284,-0.241,0.0
34.32,-2.108,0.555,3.0
0.0,0.0,0.0,0.0
30.605,-1.857,0.162,2.0
27.198,-1.641,-0.005,0.0
24.039,-1.442,-0.136,0.0
21.12,-1.259,-0.234,0.0
34.214,-2.036,0.569,2.0
34.789,-2.057,0.389,3.0
30.566,-1.796,0.175,7.0
27.547,-1.609,0.005,0.0
23.783,-1.38,-0.124,0.0
21.422,-1.236,-0.228,0.0
34.232,-1.97,0.583,1.0
34.731,-1.986,0.402,0.0
30.473,-1.731,0.187,1.0
28.092,-1.586,0.017,1.0
34.232,-1.92,-0.165,4.0
34.238,-1.908,-0.352,2.0
34.277,-1.905,0.597,1.0
34.722,-1.917,0.415,0.0
31.413,-1.723,0.204,0.0
28.273,-1.54,0.027,3.0
34.236,-1.852,-0.153,1.0
22.02,-1.183,-0.218,0.0
34.432,-1.845,0.611,2.0
34.918,-1.858,0.43,0.0
31.833,-1.682,0.218,0.0
28.014,-1.47,0.036,4.0
24.943,-1.3,-0.103,0.0
22.176,-1.148,-0.213,1.0
44.065,-2.274,0.796,0.0
37.026,-1.897,0.467,0.0
31.308,-1.592,0.223,0.0
28.005,-1.414,0.044,7.0
25.074,-1.257,-0.097,0.0
22.183,-1.104,-0.207,1.0
0.0,0.0,0.0,0.0
0.0,0.0,0.0,0.0
0.0,0.0,0.0,0.0
28.279,-1.371,0.052,7.0
25.268,-1.215,-0.091,0.0
22.283,-1.063,-0.202,0.0
0.0,0.0,0.0,0.0
37.142,-1.753,0.486,0.0
31.943,-1.495,0.243,0.0
28.495,-1.323,0.058,2.0
25.695,-1.184,-0.087,0.0
22.442,-1.025,-0.199,1.0
0.0,0.0,0.0,0.0
37.342,-1.685,0.496,0.0
32.035,-1.433,0.25,0.0
28.543,-1.266,0.063,7.0
25.781,-1.134,-0.083,1.0
22.373,-0.976,-0.195,1.0
0.0,0.0,0.0,0.0
38.081,-1.64,0.512,0.0
32.282,-1.378,0.257,0.0
28.569,-1.209,0.068,7.0
25.787,-1.082,-0.08,2.0
22.452,-0.933,-0.193,2.0
0.0,0.0,0.0,0.0
37.889,-1.554,0.514,0.0
32.451,-1.319,0.262,0.0
28.592,-1.151,0.07,7.0
25.661,-1.024,-0.077,0.0
22.566,-0.892,-0.192,1.0
0.0,0.0,0.0,0.0
38.97,-1.518,0.532,0.0
32.332,-1.247,0.263,0.0
28.596,-1.092,0.072,6.0
25.503,-0.965,-0.075,0.0
22.562,-0.845,-0.19,0.0
0.0,0.0,0.0,0.0
38.668,-1.426,0.529,0.0
32.333,-1.18,0.264,0.0
28.566,-1.032,0.073,5.0
25.552,-0.914,-0.074,0.0
22.448,-0.794,-0.189,1.0
0.0,0.0,0.0,0.0
38.096,-1.325,0.522,0.0
0.0,0.0,0.0,0.0
28.548,-0.972,0.073,2.0
25.582,-0.861,-0.075,0.0
22.301,-0.742,-0.188,0.0
0.0,0.0,0.0,0.0
0.0,0.0,0.0,0.0
32.493,-1.05,0.264,0.0
28.553,-0.912,0.072,1.0
25.345,-0.801,-0.075,0.0
22.381,-0.699,-0.19,0.0
0.0,0.0,0.0,0.0
0.0,0.0,0.0,0.0
0.0,0.0,0.0,0.0
28.527,-0.852,0.069,1.0
25.579,-0.754,-0.078,0.0
22.434,-0.654,-0.192,0.0
0.0,0.0,0.0,0.0
37.834,-1.079,0.51,0.0
32.216,-0.907,0.256,0.0
28.557,-0.793,0.066,2.0
25.357,-0.695,-0.081,0.0
22.393,-0.605,-0.195,1.0
0.0,0.0,0.0,0.0
37.638,-0.994,0.502,0.0
32.745,-0.852,0.255,1.0
28.581,-0.733,0.062,5.0
25.336,-0.641,-0.085,0.0
22.333,-0.556,-0.198,0.0
0.0,0.0,0.0,0.0
37.733,-0.916,0.496,0.0
32.271,-0.771,0.245,0.0
28.574,-0.672,0.056,4.0
25.438,-0.589,-0.09,0.0
22.196,-0.506,-0.202,0.0
0.0,0.0,0.0,0.0
37.481,-0.831,0.485,0.0
32.227,-0.703,0.238,1.0
28.482,-0.611,0.049,2.0
24.698,-0.521,-0.093,3.0
22.155,-0.459,-0.207,0.0
0.0,0.0,0.0,0.0
0.0,0.0,0.0,0.0
0.0,0.0,0.0,0.0
28.33,-0.547,0.041,1.0
24.813,-0.47,-0.101,0.0
22.011,-0.41,-0.212,0.0
0.0,0.0,0.0,0.0
36.532,-0.656,0.452,0.0
0.0,0.0,0.0,0.0
27.8,-0.479,0.032,0.0
24.643,-0.415,-0.108,0.0
21.888,-0.361,-0.217,0.0
0.0,0.0,0.0,0.0
36.356,-0.576,0.438,0.0
0.0,0.0,0.0,0.0
27.61,-0.417,0.022,0.0
24.537,-0.362,-0.116,0.0
21.743,-0.313,-0.224,0.0
0.0,0.0,0.0,0.0
35.806,-0.492,0.418,0.0
0.0,0.0,0.0,0.0
27.487,-0.358,0.011,0.0
24.389,-0.309,-0.125,0.0
21.177,-0.26,-0.226,0.0
0.0,0.0,0.0,0.0
0.0,0.0,0.0,0.0
31.021,-0.349,0.176,0.0
27.125,-0.296,0.0,0.0
24.104,-0.255,-0.134,0.0
21.039,-0.215,-0.234,0.0
41.739,-0.413,0.684,0.0
0.0,0.0,0.0,0.0
28.887,-0.265,0.151,1.0
26.789,-0.237,-0.011,0.0
23.971,-0.203,-0.144,1.0
20.675,-0.168,-0.239,0.0
41.332,-0.324,0.658,0.0
0.0,0.0,0.0,0.0
28.817,-0.205,0.137,3.0
26.569,-0.18,-0.024,0.0
23.462,-0.15,-0.152,0.0
20.381,-0.124,-0.246,0.0
0.0,0.0,0.0,0.0
33.243,-0.179,0.326,0.0
28.814,-0.145,0.121,5.0
26.263,-0.123,-0.038,0.0
23.185,-0.101,-0.163,0.0
20.169,-0.08,-0.255,0.0
39.571,-0.145,0.588,0.0
33.248,-0.11,0.308,1.0
28.788,-0.085,0.105,7.0
25.882,-0.068,-0.052,0.0
23.078,-0.052,-0.176,0.0
19.943,-0.038,-0.263,0.0
40.076,-0.064,0.572,0.0
33.096,-0.041,0.287,0.0
28.685,-0.026,0.088,1.0
25.512,-0.014,-0.067,0.0
22.479,-0.005,-0.185,0.0
19.498,0.002,-0.27,0.0
38.059,0.017,0.519,0.0
32.093,0.026,0.257,0.0
28.632,0.032,0.069,1.0
25.16,0.037,-0.082,0.0
21.955,0.04,-0.195,1.0
19.104,0.041,-0.277,0.0
37.287,0.093,0.484,0.0
31.718,0.09,0.233,0.0
28.215,0.09,0.049,1.0
24.904,0.088,-0.098,0.0
21.704,0.083,-0.207,4.0
18.806,0.079,-0.285,0.0
0.0,0.0,0.0,0.0
31.574,0.154,0.21,0.0
27.598,0.144,0.029,0.0
24.59,0.136,-0.114,0.0
21.444,0.126,-0.22,2.0
18.55,0.115,-0.295,0.0
35.752,0.235,0.413,0.0
28.879,0.199,0.171,0.0
27.03,0.195,0.008,0.0
23.9,0.18,-0.129,0.0
21.083,0.166,-0.232,0.0
18.292,0.15,-0.304,0.0
35.272,0.302,0.38,0.0
28.905,0.257,0.149,2.0
26.693,0.246,-0.012,0.0
23.519,0.224,-0.145,0.0
20.654,0.204,-0.244,0.0
17.975,0.183,-0.313,0.0
33.861,0.358,0.338,0.0
28.892,0.314,0.125,6.0
26.27,0.294,-0.033,0.0
23.259,0.268,-0.163,0.0
20.157,0.239,-0.254,0.0
17.696,0.215,-0.323,0.0
0.0,0.0,0.0,0.0
28.854,0.371,0.101,6.0
25.79,0.34,-0.054,0.0
22.711,0.306,-0.178,0.0
19.726,0.272,-0.266,0.0
17.337,0.245,-0.331,0.0
32.501,0.471,0.269,0.0
28.755,0.426,0.076,1.0
25.344,0.383,-0.075,0.0
22.2,0.343,-0.193,0.0
19.191,0.302,-0.276,0.0
17.102,0.275,-0.342,0.0
31.881,0.524,0.235,0.0
27.872,0.467,0.048,0.0
24.863,0.424,-0.097,0.0
21.916,0.38,-0.211,0.0
18.745,0.331,-0.286,0.0
16.847,0.303,-0.352,0.0
29.103,0.534,0.188,0.0
27.234,0.508,0.022,0.0
24.229,0.46,-0.117,0.0
21.429,0.413,-0.227,0.0
18.345,0.359,-0.298,0.0
16.62,0.33,-0.364,0.0
29.032,0.588,0.159,0.0
26.79,0.551,-0.004,0.0
23.646,0.493,-0.137,0.0
20.539,0.435,-0.237,0.0
18.049,0.387,-0.311,0.0
16.405,0.357,-0.375,0.0
