X,Y,Z,Reflectivity
24.317,0.392,-0.109,0.0
21.335,0.337,-0.213,0.0
18.554,0.287,-0.285,0.0
16.864,0.255,-0.35,0.0
31.808,0.47,0.222,0.0
27.557,0.398,0.044,0.0
24.617,0.348,-0.092,0.0
21.843,0.302,-0.201,1.0
18.887,0.254,-0.275,0.0
17.025,0.224,-0.34,0.0
32.17,0.411,0.25,0.0
28.684,0.357,0.069,2.0
25.262,0.306,-0.074,0.0
22.06,0.26,-0.185,1.0
19.211,0.221,-0.265,0.0
17.245,0.192,-0.33,0.0
32.731,0.354,0.281,0.0
28.796,0.302,0.093,5.0
25.787,0.261,-0.054,0.0
22.45,0.221,-0.17,1.0
19.864,0.189,-0.257,0.0
17.582,0.161,-0.322,0.0
33.498,0.296,0.316,0.0
28.849,0.245,0.118,5.0
26.201,0.214,-0.033,0.0
23.261,0.183,-0.156,0.0
20.499,0.155,-0.247,0.0
17.921,0.129,-0.312,0.0
0.0,0.0,0.0,0.0
28.974,0.19,0.144,0.0
26.763,0.167,-0.009,0.0
23.49,0.139,-0.136,0.0
20.935,0.117,-0.233,1.0
18.207,0.096,-0.3,0.0
0.0,0.0,0.0,0.0
30.198,0.139,0.178,0.0
27.249,0.117,0.015,0.0
24.302,0.097,-0.118,0.0
21.318,0.078,-0.217,4.0
18.659,0.062,-0.29,0.0
36.136,0.109,0.441,0.0
0.0,0.0,0.0,0.0
28.007,0.067,0.043,1.0
24.735,0.051,-0.096,0.0
21.681,0.038,-0.2,1.0
18.935,0.027,-0.275,0.0
0.0,0.0,0.0,0.0
33.12,0.026,0.26,0.0
28.485,0.014,0.072,1.0
25.444,0.004,-0.073,0.0
22.417,-0.002,-0.184,0.0
19.562,-0.008,-0.265,0.0
39.739,-0.029,0.565,0.0
33.177,-0.035,0.295,0.0
28.787,-0.039,0.102,7.0
25.827,-0.043,-0.047,0.0
23.26,-0.046,-0.166,0.0
20.123,-0.046,-0.251,0.0
0.0,0.0,0.0,0.0
33.217,-0.097,0.33,0.0
28.853,-0.093,0.133,6.0
26.514,-0.094,-0.02,0.0
23.811,-0.091,-0.145,0.0
20.723,-0.086,-0.236,0.0
0.0,0.0,0.0,0.0
35.031,-0.167,0.387,0.0
28.86,-0.147,0.165,0.0
27.251,-0.147,0.008,0.0
24.406,-0.139,-0.121,0.0
21.619,-0.129,-0.222,0.0
44.186,-0.278,0.772,0.0
0.0,0.0,0.0,0.0
31.525,-0.217,0.216,1.0
28.243,-0.203,0.041,1.0
24.869,-0.187,-0.095,0.0
22.197,-0.173,-0.203,1.0
0.0,0.0,0.0,0.0
37.639,-0.316,0.501,0.0
32.301,-0.281,0.259,1.0
28.657,-0.258,0.075,4.0
25.437,-0.236,-0.068,0.0
22.647,-0.217,-0.18,0.0
0.0,0.0,0.0,0.0
0.0,0.0,0.0,0.0
32.878,-0.344,0.302,1.0
28.683,-0.308,0.109,1.0
26.183,-0.29,-0.038,0.0
23.175,-0.263,-0.156,1.0
0.0,0.0,0.0,0.0
0.0,0.0,0.0,0.0
33.961,-0.415,0.354,0.0
29.198,-0.365,0.147,0.0
26.784,-0.343,-0.006,0.0
23.722,-0.311,-0.13,0.0
0.0,0.0,0.0,0.0
0.0,0.0,0.0,0.0
35.973,-0.502,0.42,0.0
31.023,-0.443,0.195,0.0
27.75,-0.404,0.028,0.0
24.763,-0.367,-0.105,0.0
0.0,0.0,0.0,0.0
0.0,0.0,0.0,0.0
0.0,0.0,0.0,0.0
31.647,-0.505,0.24,0.0
28.454,-0.463,0.066,1.0
25.244,-0.417,-0.074,0.0
0.0,0.0,0.0,0.0
48.487,-0.828,0.947,0.0
0.0,0.0,0.0,0.0
33.285,-0.587,0.296,2.0
28.688,-0.514,0.104,2.0
26.16,-0.476,-0.042,0.0
0.0,0.0,0.0,0.0
0.0,0.0,0.0,0.0
41.755,-0.794,0.651,0.0
34.079,-0.657,0.348,1.0
28.76,-0.563,0.143,1.0
26.958,-0.535,-0.007,0.0
80.262,-1.615,2.207,1.0
0.0,0.0,0.0,0.0
0.0,0.0,0.0,0.0
35.22,-0.736,0.408,0.0
30.982,-0.657,0.196,0.0
27.804,-0.597,0.03,0.0
0.0,0.0,0.0,0.0
0.0,0.0,0.0,0.0
0.0,0.0,0.0,0.0
37.49,-0.844,0.486,0.0
32.133,-0.732,0.248,1.0
28.647,-0.66,0.07,5.0
93.126,-2.17,2.818,1.0
0.0,0.0,0.0,0.0
0.0,0.0,0.0,0.0
0.0,0.0,0.0,0.0
33.174,-0.807,0.303,1.0
28.709,-0.706,0.111,5.0
96.8,-2.404,3.066,4.0
0.0,0.0,0.0,0.0
0.0,0.0,0.0,0.0
0.0,0.0,0.0,0.0
34.641,-0.896,0.366,0.0
28.764,-0.752,0.153,0.0
92.384,-2.436,3.06,34.0
0.0,0.0,0.0,0.0
0.0,0.0,0.0,0.0
0.0,0.0,0.0,0.0
31.446,-0.869,0.214,0.0
92.302,-2.571,3.193,174.0
0.0,0.0,0.0,0.0
0.0,0.0,0.0,0.0
47.318,-1.353,0.887,0.0
37.867,-1.092,0.512,0.0
32.372,-0.942,0.268,0.0
92.28,-2.705,3.329,64.0
0.0,0.0,0.0,0.0
0.0,0.0,0.0,0.0
0.0,0.0,0.0,0.0
0.0,0.0,0.0,0.0
0.0,0.0,0.0,0.0
92.261,-2.836,3.468,46.0
92.544,-2.866,2.993,6.0
0.0,0.0,0.0,0.0
0.0,0.0,0.0,0.0
0.0,0.0,0.0,0.0
35.559,-1.135,0.402,0.0
92.29,-2.966,3.61,150.0
92.168,-2.984,3.123,26.0
0.0,0.0,0.0,0.0
0.0,0.0,0.0,0.0
0.0,0.0,0.0,0.0
37.45,-1.246,0.482,0.0
92.203,-3.088,3.75,18.0
92.21,-3.11,3.268,150.0
0.0,0.0,0.0,0.0
0.0,0.0,0.0,0.0
0.0,0.0,0.0,0.0
39.128,-1.354,0.565,0.0
0.0,0.0,0.0,0.0
92.225,-3.232,3.413,167.0
92.859,-3.275,2.952,1.0
0.0,0.0,0.0,0.0
51.378,-1.834,1.091,0.0
0.0,0.0,0.0,0.0
93.289,-3.371,4.09,1.0
92.232,-3.351,3.561,151.0
92.15,-3.368,3.077,19.0
0.0,0.0,0.0,0.0
0.0,0.0,0.0,0.0
0.0,0.0,0.0,0.0
113.428,-4.241,5.155,19.0
92.195,-3.466,3.708,28.0
92.111,-3.481,3.224,130.0
0.0,0.0,0.0,0.0
0.0,0.0,0.0,0.0
0.0,0.0,0.0,0.0
195.127,-7.535,9.185,8.0
92.254,-3.581,3.862,3.0
92.136,-3.595,3.375,66.0
92.892,-3.642,2.908,1.0
0.0,0.0,0.0,0.0
0.0,0.0,0.0,0.0
113.468,-4.517,5.528,4.0
0.0,0.0,0.0,0.0
92.179,-3.704,3.528,22.0
92.304,-3.727,3.042,10.0
0.0,0.0,0.0,0.0
0.0,0.0,0.0,0.0
113.492,-4.648,5.716,11.0
120.254,-4.948,5.429,9.0
92.289,-3.813,3.685,12.0
92.195,-3.827,3.192,152.0
0.0,0.0,0.0,0.0
0.0,0.0,0.0,0.0
120.225,-5.058,6.255,15.0
120.225,-5.08,5.628,33.0
92.778,-3.936,3.859,3.0
92.221,-3.929,3.346,165.0
92.847,-3.972,2.886,1.0
0.0,0.0,0.0,0.0
111.938,-4.831,6.012,12.0
120.297,-5.211,5.834,9.0
0.0,0.0,0.0,0.0
92.487,-4.038,3.511,5.0
92.511,-4.054,3.03,4.0
0.0,0.0,0.0,0.0
111.949,-4.947,6.201,17.0
111.688,-4.954,5.604,16.0
0.0,0.0,0.0,0.0
93.234,-4.165,3.697,4.0
92.887,-4.165,3.2,1.0
0.0,0.0,0.0,0.0
98.119,-4.434,5.602,8.0
164.3,-7.45,8.524,22.0
164.315,-7.476,7.668,30.0
0.0,0.0,0.0,0.0
93.924,-4.302,3.395,3.0
0.0,0.0,0.0,0.0
98.278,-4.536,5.78,11.0
112.224,-5.197,6.015,17.0
164.32,-7.631,7.949,21.0
0.0,0.0,0.0,0.0
94.801,-4.431,3.589,2.0
95.276,-4.466,3.112,4.0
90.538,-4.262,5.479,5.0
122.565,-5.787,6.777,12.0
189.667,-8.981,9.499,12.0
0.0,0.0,0.0,0.0
0.0,0.0,0.0,0.0
96.117,-4.591,3.304,1.0
92.881,-4.455,5.782,11.0
98.262,-4.725,5.603,14.0
164.339,-7.924,8.514,13.0
194.407,-9.399,9.04,5.0
0.0,0.0,0.0,0.0
109.659,-5.33,3.959,1.0
91.202,-4.451,5.834,16.0
112.36,-5.497,6.602,19.0
112.637,-5.525,6.031,9.0
194.406,-9.557,9.375,8.0
0.0,0.0,0.0,0.0
0.0,0.0,0.0,0.0
91.108,-4.519,5.986,10.0
91.478,-4.548,5.533,7.0
112.479,-5.605,6.217,11.0
119.257,-5.956,5.958,9.0
0.0,0.0,0.0,0.0
0.0,0.0,0.0,0.0
89.365,-4.501,6.026,18.0
91.478,-4.616,5.69,12.0
119.221,-6.028,6.793,9.0
189.556,-9.606,9.794,6.0
0.0,0.0,0.0,0.0
0.0,0.0,0.0,0.0
87.656,-4.477,6.062,16.0
108.938,-5.574,6.964,8.0
112.255,-5.755,6.591,14.0
119.202,-6.122,6.364,8.0
189.25,-9.737,9.119,5.0
0.0,0.0,0.0,0.0
87.606,-4.534,6.211,15.0
89.384,-4.634,5.87,16.0
112.142,-5.822,6.777,17.0
119.293,-6.204,6.575,10.0
189.105,-9.853,9.438,19.0
188.919,-9.859,8.443,7.0
98.416,-5.156,7.147,11.0
89.179,-4.679,6.01,16.0
111.971,-5.884,6.962,18.0
119.398,-6.282,6.787,17.0
189.094,-9.966,9.764,13.0
188.505,-9.951,8.753,4.0
98.47,-5.218,7.324,12.0
0.0,0.0,0.0,0.0
89.384,-4.748,5.711,7.0
112.113,-5.963,6.566,12.0
122.92,-6.547,6.558,5.0
189.088,-10.085,9.103,9.0
90.096,-4.822,6.854,8.0
87.863,-4.708,6.223,12.0
92.12,-4.942,6.042,9.0
112.038,-6.017,6.752,14.0
119.453,-6.424,6.576,15.0
189.129,-10.181,9.424,19.0
88.181,-4.765,6.859,20.0
90.119,-4.874,6.538,6.0
89.423,-4.842,6.02,20.0
92.016,-4.986,5.704,7.0
122.632,-6.653,6.962,7.0
122.807,-6.669,6.332,13.0
87.897,-4.792,6.991,15.0
90.086,-4.915,6.693,11.0
91.729,-5.009,6.335,8.0
92.042,-5.029,5.865,25.0
91.942,-5.028,5.378,13.0
122.815,-6.723,6.543,18.0
80.129,-2.612,11.031,30.0
79.93,-2.588,10.554,9.0
81.898,-2.634,10.353,13.0
77.601,-2.479,9.366,20.0
65.179,-2.069,7.502,6.0
64.682,-2.039,7.084,32.0
80.12,-2.522,11.054,28.0
79.999,-2.501,10.585,22.0
81.46,-2.53,10.32,14.0
76.929,-2.371,9.306,25.0
65.192,-1.996,7.521,15.0
64.76,-1.969,7.109,30.0
80.816,-2.454,11.169,11.0
79.669,-2.401,10.561,13.0
73.976,-2.214,9.389,10.0
76.846,-2.283,9.313,32.0
65.185,-1.923,7.534,24.0
64.727,-1.896,7.118,29.0
76.785,-2.244,10.628,14.0
79.611,-2.309,10.568,33.0
74.041,-2.132,9.411,22.0
76.235,-2.178,9.252,23.0
75.414,-2.139,8.728,7.0
64.709,-1.822,7.126,29.0
76.58,-2.15,10.611,21.0
79.82,-2.224,10.607,26.0
74.096,-2.048,9.428,26.0
74.022,-2.031,8.993,11.0
75.476,-2.055,8.744,26.0
64.815,-1.751,7.145,30.0
75.547,-2.036,10.476,24.0
79.834,-2.134,10.617,12.0
74.23,-1.968,9.451,28.0
74.06,-1.948,9.003,33.0
75.554,-1.971,8.759,33.0
64.798,-1.677,7.148,28.0
75.623,-1.951,10.491,31.0
64.423,-1.648,8.571,10.0
74.118,-1.881,9.44,21.0
74.111,-1.865,9.012,27.0
75.377,-1.881,8.741,36.0
65.156,-1.612,7.188,36.0
75.844,-1.87,10.522,25.0
64.712,-1.581,8.61,40.0
74.014,-1.793,9.427,13.0
74.247,-1.783,9.028,20.0
74.901,-1.783,8.684,16.0
65.282,-1.541,7.2,27.0
76.193,-1.79,10.568,12.0
64.327,-1.497,8.555,28.0
74.207,-1.712,9.448,16.0
74.327,-1.699,9.033,43.0
65.182,-1.477,7.553,5.0
65.251,-1.464,7.192,23.0
64.992,-1.451,9.009,8.0
64.76,-1.432,8.607,40.0
64.184,-1.406,8.165,17.0
74.467,-1.617,9.043,27.0
65.151,-1.401,7.542,14.0
65.146,-1.388,7.173,26.0
64.94,-1.375,8.994,42.0
64.922,-1.361,8.621,40.0
74.134,-1.539,9.421,24.0
74.476,-1.53,9.033,32.0
65.117,-1.325,7.528,15.0
65.077,-1.311,7.155,27.0
65.404,-1.308,9.047,32.0
64.226,-1.271,8.516,29.0
74.186,-1.453,9.413,27.0
75.607,-1.465,9.155,35.0
74.155,-1.423,8.558,15.0
65.022,-1.234,7.135,12.0
57.882,-1.089,7.994,16.0
64.164,-1.195,8.493,32.0
58.889,-1.085,7.458,14.0
74.531,-1.357,9.007,17.0
68.324,-1.231,7.868,13.0
64.996,-1.158,7.115,19.0
57.832,-1.021,7.971,28.0
64.273,-1.122,8.49,31.0
58.763,-1.014,7.426,33.0
66.935,-1.141,8.069,7.0
68.366,-1.152,7.853,11.0
57.345,-0.955,6.26,19.0
57.893,-0.954,7.961,29.0
64.251,-1.046,8.466,26.0
58.702,-0.944,7.399,33.0
59.981,-0.953,7.211,18.0
68.284,-1.072,7.819,8.0
57.42,-0.89,6.248,22.0
57.925,-0.887,7.945,28.0
62.515,-0.945,8.215,14.0
58.548,-0.873,7.357,33.0
0.0,0.0,0.0,0.0
64.076,-0.932,7.312,38.0
57.44,-0.823,6.228,22.0
58.0,-0.82,7.931,30.0
62.455,-0.871,8.181,9.0
58.396,-0.803,7.313,32.0
59.983,-0.813,7.162,24.0
64.088,-0.857,7.286,38.0
57.427,-0.757,6.201,26.0
58.014,-0.752,7.906,33.0
57.886,-0.74,7.555,21.0
57.626,-0.725,7.19,30.0
0.0,0.0,0.0,0.0
64.279,-0.786,7.276,15.0
57.404,-0.691,6.17,28.0
58.231,-0.688,7.907,32.0
57.973,-0.675,7.537,32.0
57.478,-0.658,7.142,31.0
60.041,-0.677,7.109,27.0
59.887,-0.664,6.748,25.0
57.441,-0.626,6.144,26.0
58.374,-0.623,7.894,28.0
57.923,-0.608,7.499,32.0
57.452,-0.592,7.106,29.0
59.986,-0.607,7.069,23.0
59.932,-0.596,6.719,26.0
57.472,-0.562,6.114,25.0
58.302,-0.556,7.85,27.0
57.742,-0.541,7.441,31.0
57.395,-0.527,7.065,23.0
63.372,-0.571,7.429,13.0
59.912,-0.529,6.68,21.0
57.438,-0.497,6.075,35.0
58.328,-0.491,7.816,24.0
57.973,-0.478,7.433,32.0
57.239,-0.462,7.008,31.0
63.445,-0.5,7.396,26.0
57.399,-0.443,6.361,10.0
57.443,-0.433,6.037,38.0
58.641,-0.428,7.818,14.0
57.719,-0.411,7.36,33.0
57.299,-0.399,6.976,29.0
59.762,-0.405,6.925,27.0
57.458,-0.38,6.327,25.0
57.078,-0.367,5.958,31.0
58.787,-0.364,7.794,23.0
57.974,-0.348,7.35,32.0
57.399,-0.336,6.945,19.0
59.671,-0.34,6.87,24.0
57.537,-0.317,6.293,22.0
56.916,-0.305,5.898,31.0
58.671,-0.299,7.734,32.0
58.168,-0.287,7.33,32.0
57.531,-0.274,6.916,31.0
59.801,-0.275,6.838,16.0
57.532,-0.256,6.247,24.0
56.703,-0.243,5.831,26.0
58.574,-0.235,7.673,27.0
57.802,-0.223,7.236,32.0
57.302,-0.212,6.842,24.0
56.556,-0.2,6.42,28.0
57.551,-0.195,6.201,28.0
56.81,-0.183,5.794,27.0
58.524,-0.173,7.616,20.0
57.431,-0.161,7.14,29.0
57.452,-0.152,6.81,17.0
56.535,-0.141,6.368,11.0
57.603,-0.135,6.156,24.0
56.812,-0.124,5.744,21.0
58.479,-0.112,7.558,27.0
57.578,-0.102,7.107,31.0
57.486,-0.093,6.762,17.0
56.621,-0.083,6.326,9.0
57.357,-0.075,6.077,30.0
56.885,-0.066,5.699,24.0
58.357,-0.051,7.487,21.0
58.06,-0.042,7.111,33.0
59.85,-0.035,6.983,9.0
56.551,-0.025,6.265,30.0
57.146,-0.017,6.0,28.0
56.922,-0.009,5.649,24.0
58.41,0.006,7.437,7.0
57.472,0.014,6.983,25.0
60.049,0.024,6.947,8.0
56.914,0.03,6.248,31.0
57.13,0.039,5.941,24.0
56.999,0.046,5.599,25.0
58.49,0.064,7.387,24.0
57.401,0.071,6.915,30.0
56.786,0.078,6.51,22.0
57.204,0.087,6.22,32.0
57.168,0.095,5.886,27.0
57.17,0.102,5.556,31.0
58.374,0.122,7.31,20.0
57.609,0.128,6.878,23.0
52.552,0.124,5.968,10.0
56.86,0.142,6.121,31.0
57.152,0.15,5.821,30.0
56.589,0.156,5.437,27.0
55.113,0.825,5.589,10.0
56.84,0.854,5.431,30.0
59.019,0.89,5.294,3.0
59.062,0.893,4.947,17.0
76.199,1.156,5.937,31.0
77.252,1.175,5.569,20.0
49.514,0.766,4.937,9.0
57.055,0.885,5.355,17.0
59.011,0.918,5.193,22.0
59.035,0.921,4.844,20.0
77.278,1.208,5.89,7.0
76.949,1.207,5.417,18.0
57.169,0.911,5.603,12.0
51.06,0.815,4.705,18.0
59.049,0.946,5.095,17.0
76.127,1.221,6.116,10.0
83.382,1.34,6.213,20.0
76.717,1.236,5.27,22.0
57.197,0.935,5.508,21.0
57.504,0.943,5.2,16.0
62.662,1.029,5.299,32.0
83.262,1.37,6.546,14.0
83.368,1.374,6.068,21.0
89.094,1.471,5.966,15.0
57.369,0.961,5.423,23.0
58.674,0.984,5.202,33.0
73.465,1.235,6.084,17.0
63.153,1.063,4.854,7.0
88.369,1.489,6.277,14.0
88.98,1.502,5.801,11.0
57.325,0.981,5.316,11.0
59.019,1.011,5.127,28.0
73.444,1.26,5.95,9.0
83.418,1.433,6.261,27.0
76.714,1.319,5.31,17.0
83.826,1.442,5.314,12.0
57.397,1.001,5.218,22.0
62.594,1.092,5.324,29.0
63.155,1.103,5.001,8.0
88.46,1.546,6.48,13.0
89.335,1.563,6.022,11.0
84.223,1.475,5.188,15.0
0.0,0.0,0.0,0.0
73.482,1.303,6.116,19.0
63.156,1.12,4.887,21.0
76.693,1.362,5.478,17.0
89.101,1.582,5.845,9.0
84.544,1.502,5.053,21.0
59.011,1.06,5.149,26.0
73.359,1.319,5.971,18.0
83.831,1.507,6.332,11.0
76.674,1.378,5.336,17.0
83.83,1.508,5.346,18.0
84.595,1.522,4.901,17.0
62.598,1.138,5.347,20.0
63.154,1.148,5.023,17.0
88.457,1.608,6.519,11.0
89.233,1.622,6.046,9.0
84.128,1.529,5.208,21.0
84.883,1.543,4.76,17.0
73.215,1.344,6.116,17.0
63.136,1.159,4.904,17.0
76.71,1.407,5.508,22.0
83.767,1.536,5.517,9.0
84.138,1.542,5.051,21.0
85.262,1.562,4.621,9.0
73.309,1.356,5.984,22.0
84.23,1.557,6.381,13.0
76.729,1.418,5.364,16.0
83.85,1.548,5.363,17.0
84.237,1.554,4.895,25.0
85.464,1.575,4.469,8.0
63.155,1.175,5.033,14.0
76.784,1.427,5.67,12.0
82.735,1.536,5.625,15.0
84.121,1.56,5.219,21.0
84.856,1.573,4.769,18.0
91.101,1.686,4.589,13.0
63.13,1.178,4.91,17.0
76.723,1.43,5.519,26.0
83.81,1.56,5.537,10.0
84.057,1.563,5.054,21.0
85.357,1.585,4.634,11.0
91.024,1.688,4.41,24.0
76.844,1.436,5.828,11.0
76.723,1.432,5.369,13.0
83.805,1.561,5.372,19.0
84.227,1.567,4.899,28.0
85.494,1.588,4.473,10.0
90.875,1.685,4.225,12.0
76.82,1.435,5.676,19.0
82.723,1.542,5.627,14.0
84.135,1.566,5.23,21.0
84.91,1.577,4.772,16.0
91.115,1.69,4.589,13.0
0.0,0.0,0.0,0.0
76.723,1.429,5.516,27.0
83.787,1.557,5.532,11.0
84.074,1.56,5.06,21.0
85.341,1.58,4.629,9.0
90.973,1.68,4.402,18.0
0.0,0.0,0.0,0.0
76.735,1.423,5.365,11.0
83.871,1.551,5.372,16.0
84.275,1.555,4.905,22.0
85.457,1.572,4.465,6.0
90.86,1.668,4.217,9.0
0.0,0.0,0.0,0.0
82.73,1.523,5.618,10.0
84.164,1.545,5.222,18.0
84.862,1.553,4.769,18.0
91.07,1.663,4.577,18.0
0.0,0.0,0.0,0.0
0.0,0.0,0.0,0.0
83.718,1.527,5.518,10.0
84.208,1.531,5.057,17.0
89.061,1.614,4.828,8.0
90.986,1.644,4.391,19.0
0.0,0.0,0.0,0.0
0.0,0.0,0.0,0.0
83.804,1.511,5.356,18.0
84.625,1.521,4.913,16.0
89.032,1.595,4.648,5.0
90.971,1.624,4.209,6.0
0.0,0.0,0.0,0.0
0.0,0.0,0.0,0.0
84.32,1.5,5.22,15.0
84.918,1.505,4.76,13.0
91.016,1.607,4.57,12.0
0.0,0.0,0.0,0.0
0.0,0.0,0.0,0.0
55.038,0.961,1.794,1.0
84.795,1.485,5.079,19.0
89.066,1.553,4.815,21.0
90.941,1.579,4.385,9.0
0.0,0.0,0.0,0.0
55.341,0.953,2.016,0.0
54.975,0.943,1.683,1.0
84.969,1.46,4.919,6.0
76.693,1.312,3.991,7.0
76.574,1.304,3.536,11.0
0.0,0.0,0.0,0.0
54.937,0.927,1.891,2.0
55.03,0.924,1.573,1.0
76.689,1.29,4.283,11.0
76.58,1.282,3.829,19.0
0.0,0.0,0.0,0.0
55.7,0.923,2.129,0.0
55.12,0.909,1.786,1.0
55.101,0.904,1.464,1.0
76.596,1.258,4.124,18.0
76.533,1.25,3.673,36.0
0.0,0.0,0.0,0.0
55.309,0.893,2.003,0.0
55.047,0.885,1.673,0.0
0.0,0.0,0.0,0.0
76.545,1.223,3.967,29.0
76.534,1.216,3.519,35.0
55.659,0.879,2.234,2.0
55.306,0.868,1.892,0.0
55.276,0.863,1.569,0.0
0.0,0.0,0.0,0.0
76.532,1.187,3.812,36.0
76.521,1.179,3.364,7.0
55.737,0.853,2.126,1.0
0.0,0.0,0.0,0.0
55.682,0.841,1.468,0.0
0.0,0.0,0.0,0.0
76.566,1.148,3.66,36.0
0.0,0.0,0.0,0.0
55.663,0.823,2.011,0.0
55.601,0.816,1.68,0.0
0.0,0.0,0.0,0.0
0.0,0.0,0.0,0.0
76.594,1.106,3.508,35.0
0.0,0.0,0.0,0.0
55.868,0.794,1.905,0.0
55.844,0.788,1.574,0.0
0.0,0.0,0.0,0.0
0.0,0.0,0.0,0.0
76.648,1.061,3.355,10.0
0.0,0.0,0.0,0.0
56.15,0.765,1.803,0.0
56.068,0.757,1.468,1.0
0.0,0.0,0.0,0.0
0.0,0.0,0.0,0.0
108.916,1.44,4.55,6.0
56.323,0.738,2.024,1.0
56.138,0.729,1.69,0.0
57.494,0.739,1.389,2.0
46.81,0.596,0.858,1.0
36.47,0.46,0.456,0.0
0.0,0.0,0.0,0.0
56.601,0.703,1.92,0.0
56.544,0.695,1.588,0.0
57.557,0.701,1.276,1.0
0.0,0.0,0.0,0.0
33.979,0.405,0.357,0.0
57.226,0.677,2.161,0.0
56.763,0.665,1.813,0.0
57.247,0.663,1.495,1.0
0.0,0.0,0.0,0.0
0.0,0.0,0.0,0.0
32.06,0.359,0.274,0.0
57.054,0.634,2.042,0.0
57.083,0.626,1.71,0.0
0.0,0.0,0.0,0.0
0.0,0.0,0.0,0.0
36.118,0.381,0.447,0.0
28.946,0.302,0.19,0.0
57.352,0.592,1.939,0.0
57.447,0.585,1.608,0.0
0.0,0.0,0.0,0.0
41.322,0.409,0.67,0.0
0.0,0.0,0.0,0.0
28.858,0.277,0.132,4.0
57.752,0.549,1.838,1.0
57.879,0.541,1.505,2.0
0.0,0.0,0.0,0.0
39.281,0.356,0.56,0.0
32.71,0.292,0.276,0.0
28.737,0.252,0.075,3.0
58.051,0.502,1.734,1.0
0.0,0.0,0.0,0.0
0.0,0.0,0.0,0.0
36.256,0.297,0.446,0.0
29.073,0.233,0.188,0.0
27.02,0.213,0.018,0.0
74.859,0.581,2.09,3.0
0.0,0.0,0.0,0.0
0.0,0.0,0.0,0.0
34.08,0.248,0.353,0.0
28.879,0.206,0.131,2.0
26.113,0.182,-0.032,0.0
75.011,0.513,1.95,0.0
0.0,0.0,0.0,0.0
0.0,0.0,0.0,0.0
0.0,0.0,0.0,0.0
28.463,0.176,0.075,1.0
25.156,0.152,-0.079,0.0
0.0,0.0,0.0,0.0
0.0,0.0,0.0,0.0
36.497,0.203,0.455,0.0
31.333,0.169,0.205,0.0
27.192,0.142,0.02,0.0
23.867,0.12,-0.12,0.0
0.0,0.0,0.0,0.0
41.696,0.197,0.683,0.0
33.711,0.153,0.356,0.0
28.77,0.126,0.134,0.0
26.208,0.11,-0.029,0.0
23.038,0.093,-0.159,1.0
0.0,0.0,0.0,0.0
39.504,0.146,0.573,0.0
32.566,0.114,0.283,0.0
28.62,0.096,0.08,1.0
25.149,0.079,-0.075,0.0
21.744,0.065,-0.191,2.0
0.0,0.0,0.0,0.0
36.582,0.096,0.462,0.0
31.463,0.077,0.214,0.0
27.168,0.061,0.024,0.0
23.975,0.049,-0.117,1.0
20.978,0.039,-0.224,2.0
41.805,0.071,0.693,0.0
0.0,0.0,0.0,0.0
28.739,0.038,0.142,0.0
26.165,0.03,-0.024,0.0
23.212,0.022,-0.156,0.0
19.755,0.015,-0.247,0.0
0.0,0.0,0.0,0.0
33.049,0.013,0.295,0.0
28.526,0.005,0.089,1.0
25.166,0.0,-0.069,0.0
21.736,-0.003,-0.186,0.0
18.751,-0.006,-0.269,0.0
36.485,-0.02,0.472,0.0
31.085,-0.023,0.222,0.0
27.449,-0.026,0.036,0.0
24.008,-0.027,-0.109,0.0
21.105,-0.028,-0.218,1.0
18.238,-0.028,-0.294,0.0
0.0,0.0,0.0,0.0
28.853,-0.056,0.154,4.0
26.515,-0.057,-0.011,0.0
23.36,-0.054,-0.147,0.0
20.022,-0.051,-0.243,0.0
17.507,-0.048,-0.313,0.0
33.2,-0.098,0.311,1.0
28.738,-0.091,0.103,6.0
25.367,-0.085,-0.055,0.0
22.052,-0.079,-0.178,0.0
19.083,-0.072,-0.265,0.0
16.994,-0.068,-0.334,0.0
31.433,-0.132,0.239,1.0
27.81,-0.123,0.051,0.0
24.458,-0.113,-0.096,0.0
21.631,-0.105,-0.213,1.0
18.397,-0.093,-0.287,0.0
16.655,-0.087,-0.356,0.0
28.859,-0.158,0.17,2.0
26.617,-0.152,0.002,0.0
23.473,-0.139,-0.133,0.0
20.223,-0.124,-0.233,0.0
17.734,-0.113,-0.307,0.0
16.157,-0.106,-0.373,0.0
28.773,-0.195,0.121,6.0
25.747,-0.181,-0.04,0.0
22.562,-0.163,-0.166,0.0
19.299,-0.144,-0.255,0.0
17.17,-0.132,-0.326,0.0
15.817,-0.125,-0.392,0.0
28.381,-0.231,0.071,1.0
24.822,-0.207,-0.08,0.0
21.889,-0.188,-0.197,0.0
18.629,-0.164,-0.278,0.0
16.707,-0.151,-0.346,0.0
15.4,-0.142,-0.408,0.0
27.311,-0.259,0.024,0.0
24.084,-0.234,-0.118,0.0
20.643,-0.206,-0.22,0.0
18.0,-0.183,-0.298,0.0
16.385,-0.171,-0.366,0.0
14.728,-0.157,-0.414,0.0
26.181,-0.285,-0.019,0.0
22.996,-0.256,-0.149,0.0
19.834,-0.225,-0.244,0.0
17.347,-0.201,-0.315,0.0
16.014,-0.189,-0.383,0.0
14.549,-0.175,-0.432,0.0
25.225,-0.311,-0.059,0.0
22.247,-0.279,-0.18,0.0
19.092,-0.244,-0.265,0.0
16.921,-0.22,-0.334,0.0
15.544,-0.206,-0.397,0.0
14.271,-0.193,-0.447,0.0
24.447,-0.336,-0.095,0.0
21.549,-0.302,-0.208,0.0
18.334,-0.261,-0.283,0.0
16.605,-0.24,-0.354,0.0
15.178,-0.224,-0.411,0.0
13.971,-0.209,-0.459,0.0
23.612,-0.359,-0.128,2.0
20.368,-0.315,-0.228,0.0
17.782,-0.279,-0.301,0.0
16.245,-0.259,-0.371,0.0
14.797,-0.24,-0.423,0.0
13.666,-0.225,-0.47,0.0
22.837,-0.381,-0.158,0.0
19.596,-0.332,-0.248,0.0
17.271,-0.297,-0.319,0.0
15.853,-0.277,-0.385,0.0
14.497,-0.257,-0.436,0.0
13.395,-0.241,-0.48,0.0
22.089,-0.402,-0.185,0.0
18.993,-0.351,-0.269,0.0
16.924,-0.317,-0.337,0.0
15.437,-0.293,-0.398,0.0
14.21,-0.273,-0.448,0.0
13.167,-0.257,-0.491,0.0
21.218,-0.419,-0.209,0.0
18.277,-0.366,-0.285,0.0
16.52,-0.335,-0.353,0.0
15.01,-0.308,-0.409,0.0
13.898,-0.289,-0.458,0.0
12.96,-0.273,-0.502,0.0
19.929,-0.425,-0.224,0.0
17.815,-0.384,-0.303,0.0
16.184,-0.353,-0.368,0.0
14.7,-0.325,-0.421,0.0
13.622,-0.305,-0.468,0.0
12.766,-0.289,-0.512,0.0
19.529,-0.447,-0.247,0.0
17.316,-0.401,-0.318,0.0
15.835,-0.371,-0.382,0.0
14.482,-0.343,-0.434,0.0
13.395,-0.321,-0.479,0.0
12.515,-0.303,-0.519,0.0
18.917,-0.463,-0.264,0.0
16.943,-0.419,-0.334,0.0
15.5,-0.388,-0.395,0.0
14.159,-0.358,-0.443,0.0
13.146,-0.336,-0.487,0.0
12.392,-0.32,-0.531,0.0
18.286,-0.477,-0.279,0.0
16.601,-0.437,-0.349,0.0
15.127,-0.403,-0.405,0.0
13.907,-0.374,-0.453,0.0
13.009,-0.353,-0.499,0.0
12.205,-0.335,-0.538,0.0
17.894,-0.496,-0.296,0.0
16.319,-0.456,-0.364,0.0
14.821,-0.419,-0.415,0.0
13.74,-0.392,-0.465,0.0
12.771,-0.368,-0.506,0.0
11.932,-0.347,-0.541,0.0
17.445,-0.512,-0.31,0.0
15.957,-0.473,-0.375,0.0
14.599,-0.436,-0.427,0.0
13.444,-0.406,-0.472,0.0
12.574,-0.383,-0.513,0.0
11.832,-0.364,-0.551,0.0
17.115,-0.53,-0.325,0.0
15.742,-0.492,-0.389,0.0
14.322,-0.452,-0.436,0.0
13.324,-0.424,-0.483,0.0
12.393,-0.398,-0.521,0.0
11.662,-0.378,-0.557,0.0
16.79,-0.548,-0.339,0.0
15.33,-0.505,-0.397,0.0
14.116,-0.469,-0.446,0.0
13.083,-0.439,-0.49,0.0
12.334,-0.417,-0.532,0.0
11.52,-0.393,-0.563,0.0
16.53,-0.568,-0.352,0.0
14.998,-0.52,-0.405,0.0
13.814,-0.483,-0.452,0.0
12.89,-0.454,-0.497,0.0
12.088,-0.429,-0.535,0.0
11.41,-0.409,-0.571,0.0
16.204,-0.584,-0.363,0.0
14.775,-0.537,-0.415,0.0
13.755,-0.504,-0.465,0.0
12.782,-0.472,-0.507,0.0
11.944,-0.445,-0.542,0.0
11.252,-0.422,-0.575,0.0
15.969,-0.603,-0.375,0.0
14.58,-0.555,-0.425,0.0
13.513,-0.518,-0.471,0.0
12.6,-0.487,-0.513,0.0
11.813,-0.46,-0.548,0.0
11.169,-0.439,-0.582,0.0
15.758,-0.622,-0.386,0.0
14.413,-0.573,-0.435,0.0
13.308,-0.533,-0.478,0.0
12.433,-0.502,-0.518,0.0
11.738,-0.478,-0.557,0.0
10.993,-0.451,-0.584,0.0
15.477,-0.638,-0.394,0.0
14.093,-0.585,-0.439,0.0
13.102,-0.548,-0.483,0.0
12.339,-0.52,-0.526,0.0
11.619,-0.493,-0.562,0.0
10.847,-0.463,-0.587,0.0
15.141,-0.65,-0.4,0.0
13.935,-0.602,-0.447,0.0
12.993,-0.566,-0.491,0.0
12.209,-0.535,-0.532,0.0
11.464,-0.506,-0.565,0.0
10.779,-0.479,-0.593,0.0
14.979,-0.669,-0.409,0.0
13.769,-0.619,-0.454,0.0
12.862,-0.582,-0.497,0.0
12.04,-0.549,-0.535,0.0
11.36,-0.522,-0.57,0.0
10.707,-0.495,-0.598,0.0
14.744,-0.684,-0.415,0.0
13.6,-0.635,-0.46,0.0
12.762,-0.6,-0.505,0.0
11.9,-0.564,-0.539,0.0
11.294,-0.538,-0.576,0.0
10.56,-0.507,-0.599,0.0
14.635,-0.705,-0.424,0.0
13.522,-0.656,-0.469,0.0
12.683,-0.619,-0.512,0.0
11.825,-0.581,-0.546,0.0
11.103,-0.549,-0.576,0.0
10.44,-0.52,-0.601,0.0
14.376,-0.718,-0.428,0.0
13.374,-0.672,-0.474,0.0
12.444,-0.629,-0.512,0.0
11.717,-0.596,-0.55,0.0
11.045,-0.566,-0.581,0.0
10.421,-0.537,-0.607,0.0
14.227,-0.736,-0.434,0.0
13.282,-0.691,-0.481,0.0
12.38,-0.648,-0.518,0.0
11.635,-0.613,-0.554,0.0
10.998,-0.583,-0.586,0.0
10.335,-0.551,-0.61,0.0
14.09,-0.753,-0.44,0.0
13.157,-0.708,-0.485,0.0
12.346,-0.668,-0.525,0.0
11.562,-0.629,-0.559,0.0
10.897,-0.597,-0.589,0.0
10.29,-0.567,-0.614,0.0
13.949,-0.771,-0.445,0.0
12.984,-0.722,-0.488,0.0
12.256,-0.685,-0.53,0.0
11.469,-0.645,-0.562,0.0
10.838,-0.613,-0.592,0.0
10.2,-0.58,-0.615,0.0
13.856,-0.79,-0.451,0.0
12.981,-0.745,-0.496,0.0
12.088,-0.697,-0.53,0.0
11.343,-0.658,-0.563,0.0
10.761,-0.628,-0.595,0.0
10.155,-0.596,-0.619,0.0
13.752,-0.809,-0.455,0.0
12.812,-0.758,-0.497,0.0
12.039,-0.716,-0.535,0.0
11.296,-0.675,-0.567,0.0
10.649,-0.64,-0.595,0.0
10.098,-0.61,-0.621,0.0
13.658,-0.827,-0.46,0.0
12.814,-0.78,-0.504,0.0
11.891,-0.728,-0.534,0.0
11.253,-0.692,-0.57,0.0
10.549,-0.653,-0.594,0.0
10.068,-0.626,-0.624,0.0
13.626,-0.849,-0.465,0.0
12.674,-0.794,-0.504,0.0
11.834,-0.746,-0.538,0.0
11.176,-0.708,-0.572,0.0
10.523,-0.67,-0.598,0.0
0.0,0.0,0.0,0.0
13.584,-0.871,-0.47,0.0
12.584,-0.811,-0.506,0.0
11.836,-0.766,-0.543,0.0
11.097,-0.722,-0.573,0.0
10.473,-0.685,-0.6,0.0
9.959,-0.655,-0.627,0.0
13.431,-0.884,-0.471,0.0
12.535,-0.83,-0.51,0.0
11.806,-0.785,-0.546,0.0
11.089,-0.741,-0.577,0.0
10.428,-0.701,-0.601,0.0
9.908,-0.669,-0.627,0.0
13.392,-0.905,-0.474,0.0
12.451,-0.846,-0.511,0.0
11.795,-0.805,-0.55,0.0
11.078,-0.76,-0.58,0.0
10.475,-0.722,-0.608,0.0
9.857,-0.683,-0.627,0.0
13.359,-0.926,-0.478,0.0
12.431,-0.866,-0.514,0.0
11.721,-0.82,-0.551,0.0
11.015,-0.775,-0.581,0.0
10.38,-0.733,-0.605,0.0
0.0,0.0,0.0,0.0
13.281,-0.944,-0.479,0.0
12.44,-0.888,-0.518,0.0
11.634,-0.834,-0.55,0.0
11.034,-0.795,-0.585,0.0
10.255,-0.742,-0.601,0.0
9.818,-0.714,-0.631,0.0
13.21,-0.961,-0.48,0.0
12.358,-0.903,-0.518,0.0
11.632,-0.854,-0.553,0.0
11.009,-0.812,-0.586,0.0
10.353,-0.767,-0.609,0.0
9.806,-0.73,-0.632,0.0
13.155,-0.98,-0.48,0.0
12.347,-0.924,-0.52,0.0
11.589,-0.871,-0.553,0.0
10.945,-0.826,-0.585,0.0
0.0,0.0,0.0,0.0
0.0,0.0,0.0,0.0
13.161,-1.002,-0.483,0.0
12.373,-0.946,-0.523,0.0
11.627,-0.893,-0.557,0.0
10.789,-0.832,-0.578,0.0
0.0,0.0,0.0,0.0
9.789,-0.762,-0.634,0.0
13.185,-1.027,-0.486,0.0
12.275,-0.96,-0.521,0.0
11.538,-0.906,-0.554,0.0
10.873,-0.857,-0.584,0.0
10.249,-0.811,-0.608,0.0
0.0,0.0,0.0,0.0
13.141,-1.045,-0.485,0.0
12.318,-0.983,-0.524,0.0
11.527,-0.924,-0.554,0.0
10.887,-0.876,-0.585,0.0
10.212,-0.825,-0.606,0.0
9.749,-0.791,-0.633,0.0
13.11,-1.064,-0.485,0.0
12.217,-0.995,-0.52,0.0
11.533,-0.944,-0.555,0.0
10.927,-0.897,-0.588,0.0
0.0,0.0,0.0,0.0
9.799,-0.811,-0.637,0.0
13.128,-1.087,-0.486,0.0
12.265,-1.02,-0.522,0.0
11.517,-0.961,-0.554,0.0
10.83,-0.907,-0.583,0.0
0.0,0.0,0.0,0.0
0.0,0.0,0.0,0.0
13.165,-1.112,-0.487,0.0
12.273,-1.04,-0.522,0.0
11.54,-0.982,-0.555,0.0
10.864,-0.928,-0.584,0.0
0.0,0.0,0.0,0.0
0.0,0.0,0.0,0.0
13.153,-1.132,-0.486,0.0
12.274,-1.06,-0.521,0.0
11.527,-0.999,-0.553,0.0
10.869,-0.946,-0.583,0.0
0.0,0.0,0.0,0.0
9.717,-0.852,-0.63,0.0
13.167,-1.154,-0.485,0.0
12.333,-1.085,-0.522,0.0
11.556,-1.02,-0.554,0.0
10.999,-0.974,-0.589,0.0
0.0,0.0,0.0,0.0
9.725,-0.868,-0.629,0.0
13.191,-1.177,-0.484,0.0
12.317,-1.103,-0.52,0.0
11.629,-1.045,-0.555,0.0
10.928,-0.985,-0.584,0.0
0.0,0.0,0.0,0.0
9.778,-0.888,-0.631,0.0
13.194,-1.198,-0.481,0.0
12.302,-1.12,-0.517,0.0
11.587,-1.059,-0.551,0.0
11.013,-1.01,-0.586,0.0
0.0,0.0,0.0,0.0
0.0,0.0,0.0,0.0
13.241,-1.222,-0.48,0.0
12.373,-1.146,-0.517,0.0
11.636,-1.081,-0.551,0.0
10.917,-1.018,-0.578,0.0
0.0,0.0,0.0,0.0
9.858,-0.925,-0.631,0.0
13.278,-1.245,-0.478,0.0
12.426,-1.169,-0.516,0.0
11.691,-1.104,-0.55,0.0
10.981,-1.04,-0.579,0.0
0.0,0.0,0.0,0.0
9.857,-0.94,-0.629,0.0
13.32,-1.269,-0.476,0.0
12.479,-1.193,-0.515,0.0
11.692,-1.121,-0.547,0.0
11.04,-1.062,-0.578,0.0
0.0,0.0,0.0,0.0
0.0,0.0,0.0,0.0
13.386,-1.295,-0.474,0.0
12.614,-1.224,-0.516,0.0
11.718,-1.141,-0.544,0.0
10.924,-1.066,-0.568,0.0
0.0,0.0,0.0,0.0
0.0,0.0,0.0,0.0
13.424,-1.318,-0.47,0.0
12.552,-1.236,-0.509,0.0
11.781,-1.163,-0.542,0.0
11.049,-1.094,-0.571,0.0
0.0,0.0,0.0,0.0
9.951,-0.992,-0.624,0.0
13.542,-1.349,-0.469,0.0
12.621,-1.26,-0.507,0.0
11.811,-1.183,-0.539,0.0
11.161,-1.121,-0.572,0.0
0.0,0.0,0.0,0.0
0.0,0.0,0.0,0.0
13.626,-1.376,-0.466,0.0
12.628,-1.279,-0.501,0.0
11.889,-1.207,-0.537,0.0
11.29,-1.15,-0.573,0.0
0.0,0.0,0.0,0.0
9.933,-1.017,-0.614,0.0
13.695,-1.401,-0.462,0.0
12.799,-1.313,-0.502,0.0
11.967,-1.231,-0.535,0.0
11.209,-1.156,-0.564,0.0
0.0,0.0,0.0,0.0
9.971,-1.034,-0.611,0.0
13.77,-1.427,-0.458,0.0
12.941,-1.344,-0.501,0.0
12.013,-1.251,-0.531,0.0
11.342,-1.185,-0.565,0.0
10.68,-1.118,-0.59,0.0
10.088,-1.059,-0.613,0.0
13.895,-1.458,-0.454,0.0
12.961,-1.363,-0.495,0.0
12.145,-1.281,-0.53,0.0
11.407,-1.206,-0.561,0.0
10.667,-1.131,-0.584,0.0
10.184,-1.082,-0.613,0.0
13.99,-1.485,-0.45,0.0
12.98,-1.381,-0.488,0.0
12.122,-1.293,-0.522,0.0
11.522,-1.232,-0.561,0.0
0.0,0.0,0.0,0.0
10.285,-1.105,-0.613,0.0
14.153,-1.52,-0.446,0.0
13.047,-1.404,-0.483,0.0
12.223,-1.319,-0.519,0.0
11.564,-1.251,-0.555,0.0
10.966,-1.189,-0.587,0.0
10.301,-1.119,-0.607,0.0
14.223,-1.544,-0.44,0.0
13.104,-1.426,-0.477,0.0
12.36,-1.348,-0.517,0.0
11.601,-1.268,-0.55,0.0
11.06,-1.212,-0.584,0.0
10.361,-1.138,-0.604,0.0
14.373,-1.578,-0.435,0.0
13.282,-1.461,-0.474,0.0
12.419,-1.369,-0.511,0.0
11.698,-1.292,-0.546,0.0
11.115,-1.231,-0.58,0.0
10.432,-1.158,-0.601,0.0
14.487,-1.606,-0.428,0.0
13.452,-1.494,-0.471,0.0
12.55,-1.397,-0.508,0.0
11.805,-1.317,-0.543,0.0
11.101,-1.241,-0.571,0.0
10.509,-1.178,-0.598,0.0
14.672,-1.643,-0.423,0.0
13.558,-1.521,-0.465,0.0
12.704,-1.428,-0.505,0.0
11.917,-1.342,-0.539,0.0
11.196,-1.264,-0.568,0.0
10.544,-1.193,-0.592,0.0
14.748,-1.667,-0.415,0.0
13.645,-1.545,-0.458,0.0
12.81,-1.453,-0.499,0.0
12.003,-1.364,-0.534,0.0
11.294,-1.286,-0.564,0.0
10.632,-1.213,-0.589,0.0
14.99,-1.709,-0.41,0.0
13.907,-1.589,-0.456,0.0
12.92,-1.478,-0.493,0.0
12.092,-1.386,-0.529,0.0
11.418,-1.312,-0.561,0.0
10.761,-1.239,-0.588,0.0
15.144,-1.742,-0.402,0.0
13.971,-1.61,-0.446,0.0
13.009,-1.501,-0.486,0.0
12.214,-1.412,-0.524,0.0
11.506,-1.333,-0.556,0.0
10.84,-1.258,-0.583,0.0
15.179,-1.76,-0.39,0.0
14.174,-1.646,-0.441,0.0
13.166,-1.532,-0.481,0.0
12.346,-1.439,-0.519,0.0
11.653,-1.36,-0.553,0.0
10.969,-1.283,-0.58,0.0
15.63,-1.826,-0.389,0.0
14.252,-1.668,-0.431,0.0
13.283,-1.557,-0.474,0.0
12.505,-1.468,-0.515,0.0
11.793,-1.387,-0.55,0.0
11.082,-1.306,-0.577,0.0
15.936,-1.876,-0.382,0.0
14.607,-1.722,-0.429,0.0
13.502,-1.594,-0.47,0.0
12.609,-1.491,-0.508,0.0
11.865,-1.405,-0.542,0.0
11.117,-1.319,-0.568,0.0
16.233,-1.924,-0.375,0.0
14.771,-1.753,-0.421,0.0
13.685,-1.627,-0.464,0.0
12.754,-1.519,-0.502,0.0
11.993,-1.43,-0.537,0.0
11.258,-1.345,-0.565,0.0
16.434,-1.961,-0.364,0.0
15.018,-1.795,-0.414,0.0
13.821,-1.654,-0.455,0.0
12.857,-1.541,-0.494,0.0
12.16,-1.459,-0.533,0.0
11.41,-1.371,-0.562,0.0
16.687,-2.004,-0.354,0.0
15.269,-1.836,-0.406,0.0
14.026,-1.688,-0.449,0.0
12.984,-1.565,-0.487,0.0
12.265,-1.48,-0.526,0.0
11.527,-1.393,-0.557,0.0
17.035,-2.057,-0.345,0.0
15.467,-1.87,-0.397,0.0
14.298,-1.731,-0.444,0.0
13.125,-1.591,-0.479,0.0
12.433,-1.509,-0.521,0.0
11.652,-1.416,-0.551,0.0
17.262,-2.096,-0.333,0.0
15.798,-1.92,-0.39,0.0
14.413,-1.754,-0.433,0.0
13.304,-1.621,-0.473,0.0
12.539,-1.53,-0.513,0.0
11.842,-1.446,-0.548,0.0
17.612,-2.149,-0.322,0.0
16.048,-1.961,-0.38,0.0
14.689,-1.796,-0.426,0.0
13.603,-1.665,-0.47,0.0
12.701,-1.557,-0.507,0.0
11.939,-1.465,-0.541,0.0
17.917,-2.197,-0.309,0.0
16.299,-2.0,-0.369,0.0
14.862,-1.826,-0.416,0.0
13.769,-1.693,-0.461,0.0
12.84,-1.581,-0.499,0.0
11.964,-1.474,-0.53,0.0
18.299,-2.253,-0.297,0.0
16.672,-2.055,-0.36,0.0
15.031,-1.854,-0.405,0.0
13.916,-1.718,-0.452,0.0
12.964,-1.602,-0.491,0.0
12.254,-1.516,-0.53,0.0
18.985,-2.347,-0.288,0.0
16.934,-2.095,-0.348,0.0
15.412,-1.908,-0.4,0.0
14.179,-1.757,-0.445,0.0
13.119,-1.627,-0.483,0.0
12.427,-1.543,-0.524,0.0
19.371,-2.403,-0.274,0.0
17.191,-2.134,-0.335,0.0
15.706,-1.951,-0.391,0.0
14.407,-1.791,-0.437,0.0
13.316,-1.657,-0.475,0.0
12.532,-1.561,-0.515,0.0
19.94,-2.482,-0.261,0.0
17.566,-2.188,-0.323,0.0
16.009,-1.995,-0.381,0.0
14.704,-1.834,-0.43,0.0
13.585,-1.695,-0.47,0.0
12.656,-1.58,-0.506,0.0
20.59,-2.57,-0.246,0.0
17.899,-2.235,-0.31,0.0
16.385,-2.047,-0.372,0.0
14.863,-1.858,-0.418,0.0
13.801,-1.726,-0.462,0.0
12.813,-1.604,-0.498,0.0
20.905,-2.615,-0.227,1.0
18.413,-2.305,-0.299,0.0
16.721,-2.094,-0.361,0.0
15.183,-1.902,-0.411,0.0
13.987,-1.754,-0.453,0.0
12.939,-1.623,-0.489,0.0
22.183,-2.781,-0.216,4.0
19.102,-2.396,-0.289,0.0
16.99,-2.132,-0.348,0.0
15.512,-1.947,-0.402,0.0
14.29,-1.795,-0.447,0.0
13.275,-1.668,-0.486,0.0
22.423,-2.816,-0.194,6.0
19.433,-2.441,-0.272,0.0
17.361,-2.182,-0.336,0.0
15.746,-1.979,-0.391,0.0
14.392,-1.81,-0.434,0.0
13.43,-1.69,-0.477,0.0
22.558,-2.837,-0.169,3.0
20.149,-2.534,-0.259,0.0
17.692,-2.226,-0.322,0.0
15.983,-2.011,-0.378,0.0
14.725,-1.854,-0.427,0.0
13.607,-1.713,-0.468,0.0
23.167,-2.916,-0.147,1.0
20.699,-2.606,-0.243,1.0
18.014,-2.268,-0.308,0.0
16.452,-2.072,-0.371,0.0
14.985,-1.887,-0.418,0.0
13.884,-1.749,-0.462,0.0
24.092,-3.034,-0.126,1.0
21.094,-2.657,-0.223,1.0
18.549,-2.336,-0.296,0.0
16.793,-2.115,-0.359,0.0
15.243,-1.921,-0.407,0.0
14.139,-1.782,-0.454,0.0
25.297,-3.187,-0.103,3.0
22.364,-2.817,-0.211,4.0
19.262,-2.426,-0.285,0.0
17.015,-2.143,-0.344,0.0
15.568,-1.961,-0.398,0.0
14.353,-1.808,-0.444,0.0
25.501,-3.212,-0.075,7.0
22.462,-2.829,-0.186,4.0
19.664,-2.476,-0.268,0.0
17.517,-2.206,-0.334,0.0
15.896,-2.002,-0.389,0.0
14.595,-1.838,-0.435,0.0
25.519,-3.212,-0.046,12.0
22.7,-2.857,-0.162,3.0
20.533,-2.584,-0.257,0.0
17.797,-2.239,-0.319,0.0
16.252,-2.045,-0.379,0.0
14.839,-1.867,-0.425,0.0
25.523,-3.21,-0.017,12.0
23.8,-2.993,-0.143,1.0
20.79,-2.613,-0.236,1.0
18.158,-2.282,-0.305,0.0
16.546,-2.079,-0.366,0.0
15.074,-1.894,-0.414,0.0
25.535,-3.208,0.012,13.0
24.394,-3.063,-0.118,1.0
22.119,-2.777,-0.225,2.0
18.718,-2.349,-0.293,0.0
16.907,-2.121,-0.355,0.0
15.424,-1.935,-0.406,0.0
25.545,-3.203,0.042,12.0
25.49,-3.195,-0.094,5.0
22.362,-2.802,-0.202,4.0
19.328,-2.421,-0.28,0.0
17.284,-2.164,-0.343,0.0
15.674,-1.962,-0.395,0.0
25.608,-3.205,0.071,11.0
25.566,-3.198,-0.065,10.0
22.378,-2.798,-0.176,4.0
19.899,-2.487,-0.265,0.0
17.66,-2.206,-0.33,0.0
15.919,-1.988,-0.383,0.0
25.758,-3.216,0.101,6.0
25.594,-3.193,-0.035,12.0
22.373,-2.79,-0.15,1.0
20.686,-2.578,-0.252,1.0
17.989,-2.241,-0.315,0.0
16.447,-2.048,-0.376,0.0
26.108,-3.251,0.132,3.0
25.611,-3.186,-0.006,11.0
22.241,-2.765,-0.124,1.0
21.248,-2.64,-0.234,3.0
18.538,-2.302,-0.304,0.0
16.751,-2.079,-0.364,0.0
26.255,-3.258,0.163,6.0
25.645,-3.18,0.022,11.0
22.243,-2.756,-0.099,3.0
22.062,-2.732,-0.218,4.0
19.129,-2.367,-0.292,0.0
17.033,-2.106,-0.351,0.0
26.177,-3.237,0.193,5.0
25.676,-3.172,0.052,11.0
22.222,-2.743,-0.074,9.0
22.211,-2.74,-0.194,3.0
19.484,-2.402,-0.275,0.0
17.397,-2.143,-0.339,0.0
28.171,-3.47,0.239,1.0
25.751,-3.169,0.081,7.0
22.206,-2.73,-0.049,11.0
22.21,-2.728,-0.17,5.0
19.93,-2.446,-0.259,0.0
17.731,-2.174,-0.325,0.0
28.935,-3.549,0.278,0.0
26.03,-3.189,0.11,6.0
22.2,-2.717,-0.024,15.0
22.181,-2.712,-0.145,10.0
22.237,-2.717,-0.264,0.0
18.028,-2.2,-0.311,0.0
29.856,-3.645,0.32,1.0
26.48,-3.229,0.142,1.0
22.196,-2.704,0.0,18.0
22.2,-2.701,-0.121,13.0
22.185,-2.697,-0.239,0.0
18.71,-2.272,-0.302,0.0
22.414,-2.722,0.265,4.0
22.181,-2.691,0.143,8.0
22.169,-2.686,0.024,18.0
22.208,-2.688,-0.096,17.0
22.153,-2.678,-0.215,2.0
19.211,-2.32,-0.289,0.0
22.148,-2.675,0.285,13.0
22.165,-2.674,0.166,13.0
22.169,-2.671,0.048,21.0
22.201,-2.671,-0.072,14.0
22.125,-2.659,-0.191,5.0
19.607,-2.354,-0.274,0.0
22.125,-2.657,0.309,20.0
22.127,-2.653,0.19,11.0
22.147,-2.652,0.071,20.0
22.226,-2.658,-0.049,14.0
22.237,-2.656,-0.168,7.0
19.999,-2.386,-0.258,0.0
22.125,-2.64,0.332,21.0
22.114,-2.635,0.213,18.0
22.146,-2.635,0.095,19.0
22.252,-2.644,-0.026,12.0
22.414,-2.659,-0.146,10.0
22.44,-2.659,-0.266,0.0
22.125,-2.622,0.355,21.0
22.115,-2.617,0.236,16.0
22.145,-2.617,0.118,18.0
22.328,-2.634,-0.002,12.0
22.557,-2.658,-0.124,13.0
22.256,-2.618,-0.241,0.0
22.135,-2.605,0.378,20.0
22.124,-2.599,0.259,19.0
22.145,-2.598,0.14,17.0
22.607,-2.647,0.02,4.0
22.567,-2.639,-0.1,10.0
22.339,-2.608,-0.22,3.0
22.159,-2.588,0.401,15.0
22.122,-2.579,0.281,18.0
22.151,-2.578,0.163,16.0
26.252,-3.051,0.049,9.0
22.562,-2.618,-0.078,2.0
22.382,-2.593,-0.198,3.0
22.321,-2.586,0.426,13.0
22.135,-2.56,0.304,14.0
22.155,-2.558,0.185,11.0
26.353,-3.038,0.075,16.0
26.244,-3.02,-0.065,1.0
22.465,-2.58,-0.176,2.0
22.492,-2.584,0.451,2.0
22.246,-2.551,0.327,1.0
22.184,-2.539,0.207,1.0
26.483,-3.026,0.102,10.0
23.613,-2.693,-0.035,2.0
22.595,-2.572,-0.155,3.0
0.0,0.0,0.0,0.0
35.976,-4.09,0.563,0.0
0.0,0.0,0.0,0.0
26.815,-3.036,0.128,6.0
23.619,-2.669,-0.013,152.0
22.952,-2.589,-0.136,5.0
0.0,0.0,0.0,0.0
0.0,0.0,0.0,0.0
0.0,0.0,0.0,0.0
27.517,-3.086,0.157,1.0
23.588,-2.64,0.008,189.0
23.58,-2.634,-0.119,65.0
0.0,0.0,0.0,0.0
0.0,0.0,0.0,0.0
30.008,-3.339,0.363,2.0
27.73,-3.079,0.184,6.0
23.591,-2.614,0.029,179.0
23.604,-2.61,-0.097,82.0
0.0,0.0,0.0,0.0
0.0,0.0,0.0,0.0
39.904,-4.395,0.519,0.0
28.285,-3.109,0.212,5.0
23.633,-2.592,0.05,150.0
23.622,-2.585,-0.077,14.0
37.212,-4.074,0.918,0.0
37.311,-4.075,0.719,2.0
37.409,-4.076,0.519,0.0
29.056,-3.159,0.243,1.0
27.359,-2.967,0.081,5.0
26.415,-2.859,-0.063,3.0
36.338,-3.934,0.927,0.0
36.65,-3.958,0.737,1.0
37.262,-4.015,0.548,0.0
29.45,-3.165,0.271,0.0
27.6,-2.959,0.105,5.0
26.633,-2.849,-0.041,5.0
35.012,-3.747,0.922,1.0
35.085,-3.745,0.735,8.0
34.945,-3.721,0.543,0.0
34.637,-3.679,0.347,0.0
28.09,-2.976,0.13,1.0
26.791,-2.832,-0.02,0.0
34.257,-3.622,0.93,0.0
34.363,-3.624,0.747,1.0
34.337,-3.612,0.56,0.0
34.419,-3.611,0.372,0.0
30.797,-3.223,0.166,4.0
27.48,-2.869,0.0,0.0
34.065,-3.558,0.951,0.0
34.07,-3.548,0.767,0.0
34.181,-3.55,0.584,1.0
34.471,-3.571,0.398,0.0
31.127,-3.216,0.191,2.0
27.623,-2.846,0.02,1.0
33.942,-3.499,0.973,6.0
33.984,-3.493,0.79,2.0
34.009,-3.486,0.606,0.0
34.356,-3.512,0.422,0.0
31.823,-3.244,0.219,0.0
34.051,-3.462,0.05,1.0
33.929,-3.45,0.997,176.0
33.933,-3.441,0.813,2.0
34.09,-3.446,0.632,0.0
34.411,-3.469,0.448,0.0
32.053,-3.222,0.243,1.0
28.94,-2.901,0.062,0.0
33.905,-3.4,1.02,177.0
33.895,-3.389,0.835,3.0
0.0,0.0,0.0,0.0
34.362,-3.415,0.47,1.0
32.362,-3.207,0.267,0.0
29.512,-2.916,0.083,0.0
33.925,-3.352,1.043,156.0
33.858,-3.336,0.857,5.0
0.0,0.0,0.0,0.0
34.556,-3.383,0.495,4.0
33.66,-3.286,0.299,0.0
29.675,-2.888,0.103,1.0
33.901,-3.3,1.063,12.0
33.841,-3.283,0.877,9.0
33.673,-3.257,0.69,0.0
34.537,-3.33,0.516,2.0
33.978,-3.265,0.323,0.0
29.921,-2.866,0.122,0.0
33.872,-3.245,1.083,4.0
33.825,-3.23,0.898,18.0
33.757,-3.213,0.712,0.0
34.038,-3.229,0.529,1.0
34.467,-3.259,0.348,0.0
30.134,-2.84,0.14,0.0
33.807,-3.187,1.1,23.0
33.815,-3.176,0.916,24.0
33.787,-3.163,0.731,26.0
34.039,-3.176,0.548,2.0
0.0,0.0,0.0,0.0
30.551,-2.831,0.159,0.0
33.795,-3.132,1.119,27.0
33.804,-3.122,0.934,39.0
33.807,-3.111,0.75,93.0
33.926,-3.111,0.564,1.0
36.32,-3.319,0.405,0.0
31.001,-2.823,0.177,0.0
33.796,-3.078,1.136,26.0
33.808,-3.067,0.951,59.0
33.794,-3.055,0.766,1.0
33.892,-3.052,0.58,0.0
0.0,0.0,0.0,0.0
31.592,-2.825,0.196,0.0
33.792,-3.021,1.152,18.0
33.804,-3.011,0.967,93.0
33.821,-3.001,0.783,2.0
33.851,-2.993,0.595,0.0
37.598,-3.312,0.455,0.0
31.643,-2.777,0.21,0.0
33.781,-2.965,1.166,9.0
33.813,-2.956,0.982,121.0
33.788,-2.942,0.796,4.0
33.776,-2.93,0.608,3.0
34.504,-2.981,0.432,0.0
31.683,-2.728,0.223,0.0
33.819,-2.911,1.181,8.0
33.801,-2.898,0.995,139.0
33.796,-2.886,0.81,11.0
33.767,-2.872,0.621,2.0
34.417,-2.916,0.444,1.0
32.673,-2.757,0.242,1.0
33.828,-2.854,1.194,14.0
33.808,-2.841,1.007,140.0
33.829,-2.831,0.822,151.0
33.819,-2.818,0.634,150.0
34.422,-2.857,0.456,2.0
32.271,-2.668,0.251,0.0
33.818,-2.795,1.205,27.0
33.805,-2.782,1.019,140.0
33.821,-2.772,0.833,140.0
33.817,-2.76,0.644,151.0
34.394,-2.795,0.466,1.0
32.54,-2.634,0.262,0.0
33.822,-2.736,1.215,7.0
33.817,-2.724,1.029,137.0
33.826,-2.713,0.843,77.0
33.834,-2.702,0.654,152.0
34.37,-2.733,0.475,3.0
0.0,0.0,0.0,0.0
33.842,-2.678,1.225,16.0
33.82,-2.664,1.038,120.0
33.806,-2.651,0.851,45.0
33.834,-2.642,0.663,154.0
34.357,-2.671,0.484,4.0
33.527,-2.594,0.288,0.0
33.843,-2.618,1.233,20.0
33.819,-2.603,1.045,107.0
33.815,-2.591,0.859,35.0
33.843,-2.582,0.67,154.0
34.377,-2.61,0.491,3.0
33.258,-2.514,0.292,0.0
33.852,-2.557,1.239,18.0
33.837,-2.544,1.052,92.0
33.81,-2.53,0.865,30.0
33.862,-2.522,0.676,155.0
34.374,-2.548,0.497,5.0
32.905,-2.428,0.294,0.0
33.862,-2.497,1.245,16.0
33.852,-2.484,1.057,83.0
33.821,-2.469,0.87,30.0
33.862,-2.46,0.681,155.0
34.383,-2.486,0.501,4.0
34.0,-2.446,0.308,1.0
33.876,-2.435,1.249,16.0
33.868,-2.422,1.062,70.0
33.843,-2.408,0.874,28.0
33.874,-2.398,0.684,155.0
34.355,-2.42,0.504,3.0
34.466,-2.416,0.316,1.0
33.888,-2.373,1.253,8.0
33.873,-2.36,1.064,54.0
33.865,-2.347,0.877,26.0
33.925,-2.339,0.687,0.0
34.486,-2.366,0.508,3.0
34.049,-2.323,0.313,2.0
33.909,-2.311,1.255,8.0
33.889,-2.297,1.066,45.0
33.889,-2.285,0.879,21.0
33.82,-2.268,0.686,0.0
34.494,-2.301,0.509,4.0
33.422,-2.218,0.308,1.0
33.934,-2.248,1.256,7.0
33.924,-2.236,1.067,104.0
33.908,-2.222,0.879,16.0
33.985,-2.214,0.689,0.0
34.518,-2.237,0.508,4.0
33.075,-2.132,0.304,1.0
33.971,-2.186,1.256,5.0
33.934,-2.171,1.066,142.0
33.936,-2.158,0.878,11.0
33.78,-2.137,0.683,0.0
34.656,-2.18,0.509,6.0
32.556,-2.036,0.297,0.0
34.013,-2.123,1.255,4.0
33.956,-2.107,1.064,24.0
33.968,-2.095,0.876,8.0
33.902,-2.079,0.682,0.0
34.737,-2.118,0.507,6.0
33.79,-2.048,0.305,0.0
34.032,-2.058,1.252,3.0
34.028,-2.046,1.063,6.0
34.008,-2.032,0.873,5.0
34.06,-2.022,0.681,0.0
34.693,-2.048,0.501,3.0
33.598,-1.971,0.299,0.0
34.102,-1.996,1.249,2.0
34.126,-1.985,1.061,152.0
34.05,-1.968,0.868,3.0
34.13,-1.96,0.677,0.0
34.639,-1.977,0.494,1.0
33.257,-1.886,0.29,0.0
34.136,-1.931,1.244,1.0
34.141,-1.919,1.054,185.0
34.114,-1.905,0.863,2.0
34.281,-1.902,0.673,0.0
34.603,-1.908,0.486,0.0
32.419,-1.776,0.275,0.0
34.264,-1.872,1.241,0.0
34.204,-1.856,1.048,150.0
34.233,-1.844,0.858,1.0
34.426,-1.843,0.667,1.0
34.772,-1.849,0.48,0.0
0.0,0.0,0.0,0.0
109.371,-5.76,3.933,160.0
34.507,-1.805,1.048,0.0
0.0,0.0,0.0,0.0
0.0,0.0,0.0,0.0
38.26,-1.959,0.517,0.0
32.428,-1.649,0.257,0.0
109.395,-5.544,3.901,150.0
0.0,0.0,0.0,0.0
0.0,0.0,0.0,0.0
0.0,0.0,0.0,0.0
37.9,-1.865,0.5,0.0
32.073,-1.566,0.244,0.0
96.175,-4.681,3.395,1.0
0.0,0.0,0.0,0.0
0.0,0.0,0.0,0.0
0.0,0.0,0.0,0.0
37.963,-1.793,0.487,0.0
31.899,-1.495,0.23,0.0
94.083,-4.393,3.285,4.0
0.0,0.0,0.0,0.0
0.0,0.0,0.0,0.0
0.0,0.0,0.0,0.0
37.073,-1.677,0.46,0.0
31.496,-1.413,0.214,0.0
27.713,0.382,0.051,0.0
24.711,0.347,-0.096,0.0
21.62,0.308,-0.208,0.0
18.497,0.268,-0.286,0.0
16.728,0.247,-0.354,0.0
15.418,0.231,-0.415,0.0
26.782,0.409,0.008,0.0
23.904,0.371,-0.129,0.0
20.524,0.323,-0.228,0.0
18.002,0.288,-0.306,0.0
16.389,0.266,-0.372,0.0
14.958,0.246,-0.426,0.0
26.057,0.436,-0.031,0.0
23.253,0.395,-0.161,0.0
20.002,0.344,-0.254,0.0
17.425,0.304,-0.323,0.0
16.015,0.283,-0.389,0.0
14.594,0.261,-0.438,0.0
25.205,0.458,-0.07,0.0
22.072,0.406,-0.188,0.0
18.818,0.35,-0.268,0.0
16.97,0.32,-0.341,0.0
15.692,0.299,-0.406,0.0
14.323,0.276,-0.453,0.0
24.307,0.475,-0.105,0.0
21.539,0.426,-0.217,0.0
18.263,0.365,-0.289,0.0
16.587,0.335,-0.36,0.0
0.0,0.0,0.0,0.0
13.986,0.289,-0.464,0.0
23.474,0.491,-0.14,0.0
20.295,0.429,-0.237,0.0
17.812,0.38,-0.311,0.0
16.202,0.35,-0.378,0.0
14.799,0.322,-0.43,0.0
13.742,0.302,-0.479,0.0
22.491,0.5,-0.17,0.0
19.556,0.439,-0.261,0.0
17.263,0.391,-0.329,0.0
15.819,0.362,-0.394,0.0
14.49,0.334,-0.445,0.0
13.47,0.314,-0.491,0.0
21.714,0.511,-0.2,0.0
18.638,0.442,-0.279,0.0
16.821,0.403,-0.348,0.0
15.433,0.373,-0.41,0.0
14.215,0.346,-0.46,0.0
13.136,0.323,-0.501,0.0
20.71,0.513,-0.225,0.0
18.104,0.452,-0.301,0.0
16.421,0.414,-0.368,0.0
14.91,0.379,-0.421,0.0
13.862,0.355,-0.472,0.0
12.924,0.334,-0.514,0.0
19.847,0.517,-0.249,0.0
17.489,0.459,-0.321,0.0
15.995,0.423,-0.385,0.0
14.609,0.389,-0.438,0.0
13.558,0.364,-0.485,0.0
12.672,0.343,-0.526,0.0
18.987,0.517,-0.271,0.0
16.99,0.466,-0.34,0.0
15.667,0.433,-0.404,0.0
14.28,0.397,-0.452,0.0
13.274,0.372,-0.497,0.0
12.479,0.352,-0.539,0.0
18.263,0.519,-0.292,0.0
16.551,0.473,-0.36,0.0
15.103,0.434,-0.416,0.0
13.987,0.405,-0.467,0.0
12.971,0.378,-0.508,0.0
12.291,0.361,-0.552,0.0
17.736,0.524,-0.314,0.0
16.111,0.479,-0.378,0.0
14.789,0.442,-0.433,0.0
13.623,0.41,-0.478,0.0
12.786,0.387,-0.523,0.0
11.961,0.364,-0.558,0.0
17.123,0.524,-0.333,0.0
15.728,0.484,-0.397,0.0
14.432,0.447,-0.447,0.0
13.336,0.415,-0.492,0.0
12.522,0.392,-0.534,0.0
11.723,0.369,-0.568,0.0
16.658,0.527,-0.353,0.0
15.376,0.489,-0.415,0.0
14.043,0.449,-0.46,0.0
13.058,0.42,-0.504,0.0
12.338,0.399,-0.548,0.0
11.475,0.373,-0.576,0.0
16.21,0.53,-0.372,0.0
14.891,0.489,-0.428,0.0
13.728,0.453,-0.474,0.0
12.836,0.426,-0.518,0.0
12.035,0.401,-0.556,0.0
11.272,0.378,-0.586,0.0
15.814,0.532,-0.391,0.0
14.582,0.493,-0.445,0.0
13.464,0.457,-0.488,0.0
12.495,0.426,-0.527,0.0
11.808,0.405,-0.566,0.0
11.053,0.381,-0.594,0.0
15.481,0.535,-0.41,0.0
14.097,0.49,-0.455,0.0
13.096,0.457,-0.498,0.0
12.351,0.433,-0.543,0.0
11.582,0.408,-0.576,0.0
10.821,0.383,-0.601,0.0
14.975,0.531,-0.424,0.0
13.86,0.494,-0.472,0.0
12.859,0.46,-0.513,0.0
12.036,0.433,-0.551,0.0
11.272,0.407,-0.581,0.0
10.612,0.385,-0.609,0.0
14.649,0.532,-0.441,0.0
13.5,0.493,-0.484,0.0
12.599,0.462,-0.525,0.0
11.82,0.435,-0.562,0.0
11.137,0.411,-0.594,0.0
10.481,0.389,-0.62,0.0
14.177,0.527,-0.452,0.0
13.197,0.492,-0.497,0.0
12.383,0.464,-0.538,0.0
11.569,0.435,-0.571,0.0
10.933,0.412,-0.603,0.0
10.252,0.388,-0.625,0.0
13.906,0.528,-0.469,0.0
12.883,0.491,-0.509,0.0
12.065,0.461,-0.546,0.0
11.36,0.436,-0.581,0.0
10.707,0.412,-0.61,0.0
10.143,0.392,-0.637,0.0
13.54,0.524,-0.481,0.0
12.686,0.492,-0.524,0.0
11.861,0.462,-0.558,0.0
11.151,0.436,-0.591,0.0
10.478,0.411,-0.616,0.0
9.923,0.39,-0.641,0.0
13.235,0.521,-0.494,0.0
12.417,0.491,-0.535,0.0
11.603,0.46,-0.567,0.0
10.909,0.434,-0.598,0.0
10.307,0.411,-0.625,0.0
0.0,0.0,0.0,0.0
12.951,0.519,-0.506,0.0
12.209,0.49,-0.548,0.0
11.4,0.459,-0.578,0.0
10.707,0.433,-0.606,0.0
10.164,0.412,-0.634,0.0
0.0,0.0,0.0,0.0
12.726,0.518,-0.521,0.0
11.908,0.486,-0.556,0.0
11.158,0.456,-0.586,0.0
10.546,0.432,-0.616,0.0
9.98,0.41,-0.641,0.0
0.0,0.0,0.0,0.0
12.483,0.515,-0.533,0.0
11.659,0.482,-0.565,0.0
10.978,0.455,-0.596,0.0
10.3,0.428,-0.62,0.0
9.803,0.409,-0.647,0.0
9.346,0.391,-0.671,0.0
12.207,0.51,-0.543,0.0
11.434,0.479,-0.575,0.0
10.824,0.455,-0.607,0.0
10.173,0.428,-0.631,0.0
9.669,0.408,-0.656,0.0
0.0,0.0,0.0,0.0
11.986,0.507,-0.555,0.0
11.211,0.475,-0.584,0.0
10.518,0.447,-0.609,0.0
0.0,0.0,0.0,0.0
9.473,0.404,-0.66,0.0
9.096,0.389,-0.687,0.0
11.71,0.501,-0.564,0.0
11.028,0.472,-0.595,0.0
10.382,0.446,-0.62,0.0
0.0,0.0,0.0,0.0
0.0,0.0,0.0,0.0
8.789,0.38,-0.679,0.0
11.46,0.495,-0.573,0.0
10.781,0.466,-0.601,0.0
10.204,0.442,-0.628,0.0
0.0,0.0,0.0,0.0
0.0,0.0,0.0,0.0
8.729,0.381,-0.691,0.0
11.232,0.489,-0.581,0.0
10.607,0.463,-0.61,0.0
0.0,0.0,0.0,0.0
0.0,0.0,0.0,0.0
0.0,0.0,0.0,0.0
8.612,0.379,-0.697,0.0
11.079,0.486,-0.593,0.0
10.434,0.459,-0.619,0.0
0.0,0.0,0.0,0.0
0.0,0.0,0.0,0.0
0.0,0.0,0.0,0.0
8.494,0.376,-0.702,0.0
10.817,0.478,-0.598,0.0
10.281,0.455,-0.628,0.0
9.796,0.434,-0.655,0.0
0.0,0.0,0.0,0.0
0.0,0.0,0.0,0.0
8.397,0.374,-0.709,0.0
10.646,0.473,-0.607,0.0
10.086,0.449,-0.634,0.0
0.0,0.0,0.0,0.0
0.0,0.0,0.0,0.0
8.648,0.387,-0.695,0.0
8.225,0.368,-0.709,0.0
10.422,0.465,-0.613,0.0
0.0,0.0,0.0,0.0
9.373,0.42,-0.66,0.0
0.0,0.0,0.0,0.0
0.0,0.0,0.0,0.0
0.0,0.0,0.0,0.0
10.285,0.461,-0.623,0.0
0.0,0.0,0.0,0.0
0.0,0.0,0.0,0.0
0.0,0.0,0.0,0.0
0.0,0.0,0.0,0.0
0.0,0.0,0.0,0.0
10.079,0.453,-0.628,0.0
9.648,0.434,-0.657,0.0
0.0,0.0,0.0,0.0
0.0,0.0,0.0,0.0
0.0,0.0,0.0,0.0
0.0,0.0,0.0,0.0
0.0,0.0,0.0,0.0
0.0,0.0,0.0,0.0
0.0,0.0,0.0,0.0
0.0,0.0,0.0,0.0
0.0,0.0,0.0,0.0
9.799,0.442,-0.644,0.0
0.0,0.0,0.0,0.0
8.876,0.401,-0.686,0.0
0.0,0.0,0.0,0.0
0.0,0.0,0.0,0.0
9.639,0.435,-0.65,0.0
0.0,0.0,0.0,0.0
0.0,0.0,0.0,0.0
0.0,0.0,0.0,0.0
0.0,0.0,0.0,0.0
0.0,0.0,0.0,0.0
9.485,0.428,-0.655,0.0
0.0,0.0,0.0,0.0
0.0,0.0,0.0,0.0
0.0,0.0,0.0,0.0
0.0,0.0,0.0,0.0
0.0,0.0,0.0,0.0
0.0,0.0,0.0,0.0
0.0,0.0,0.0,0.0
0.0,0.0,0.0,0.0
0.0,0.0,0.0,0.0
7.453,0.337,-0.745,0.0
0.0,0.0,0.0,0.0
0.0,0.0,0.0,0.0
0.0,0.0,0.0,0.0
0.0,0.0,0.0,0.0
0.0,0.0,0.0,0.0
7.39,0.333,-0.751,0.0
0.0,0.0,0.0,0.0
0.0,0.0,0.0,0.0
0.0,0.0,0.0,0.0
0.0,0.0,0.0,0.0
0.0,0.0,0.0,0.0
7.246,0.325,-0.748,0.0
0.0,0.0,0.0,0.0
0.0,0.0,0.0,0.0
0.0,0.0,0.0,0.0
0.0,0.0,0.0,0.0
7.466,0.333,-0.739,0.0
7.183,0.321,-0.753,0.0
8.859,0.393,-0.684,0.0
0.0,0.0,0.0,0.0
0.0,0.0,0.0,0.0
7.438,0.33,-0.748,0.0
7.125,0.316,-0.758,0.0
0.0,0.0,0.0,0.0
0.0,0.0,0.0,0.0
0.0,0.0,0.0,0.0
0.0,0.0,0.0,0.0
7.292,0.322,-0.745,0.0
7.082,0.313,-0.764,0.0
8.66,0.38,-0.695,0.0
8.207,0.36,-0.706,0.0
0.0,0.0,0.0,0.0
0.0,0.0,0.0,0.0
7.27,0.319,-0.753,0.0
0.0,0.0,0.0,0.0
0.0,0.0,0.0,0.0
0.0,0.0,0.0,0.0
0.0,0.0,0.0,0.0
7.415,0.322,-0.736,0.0
7.152,0.311,-0.752,0.0
0.0,0.0,0.0,0.0
0.0,0.0,0.0,0.0
0.0,0.0,0.0,0.0
7.414,0.32,-0.747,0.0
7.143,0.308,-0.762,0.0
0.0,0.0,0.0,0.0
8.3,0.355,-0.703,0.0
0.0,0.0,0.0,0.0
0.0,0.0,0.0,0.0
0.0,0.0,0.0,0.0
0.0,0.0,0.0,0.0
0.0,0.0,0.0,0.0
8.227,0.348,-0.709,0.0
0.0,0.0,0.0,0.0
0.0,0.0,0.0,0.0
7.241,0.306,-0.75,0.0
0.0,0.0,0.0,0.0
0.0,0.0,0.0,0.0
0.0,0.0,0.0,0.0
0.0,0.0,0.0,0.0
7.486,0.313,-0.742,0.0
7.151,0.299,-0.751,0.0
0.0,0.0,0.0,0.0
0.0,0.0,0.0,0.0
0.0,0.0,0.0,0.0
0.0,0.0,0.0,0.0
7.43,0.307,-0.746,0.0
0.0,0.0,0.0,0.0
0.0,0.0,0.0,0.0
0.0,0.0,0.0,0.0
0.0,0.0,0.0,0.0
0.0,0.0,0.0,0.0
7.346,0.299,-0.748,0.0
0.0,0.0,0.0,0.0
