X,Y,Z,Reflectivity
65.886,3.049,4.685,40.0
65.541,3.048,4.304,33.0
81.486,3.809,4.91,34.0
49.417,2.326,4.372,24.0
58.103,2.749,4.823,28.0
58.221,2.767,4.516,22.0
80.31,3.836,5.784,33.0
65.077,3.123,4.332,30.0
81.441,3.927,4.979,32.0
49.489,2.403,4.423,34.0
57.979,2.829,4.864,23.0
58.076,2.847,4.555,32.0
80.162,3.948,5.842,35.0
65.031,3.218,4.384,18.0
81.48,4.05,5.05,21.0
49.634,2.484,4.477,19.0
58.517,2.942,4.958,9.0
58.192,2.939,4.612,16.0
64.35,3.264,4.742,18.0
80.87,4.122,5.517,37.0
81.446,4.17,5.113,20.0
49.673,2.561,4.521,13.0
49.118,2.543,4.2,13.0
66.383,3.452,5.313,15.0
64.816,3.385,4.825,12.0
80.568,4.226,5.558,39.0
81.477,4.292,5.176,14.0
49.608,2.632,4.552,35.0
58.55,3.119,5.051,8.0
58.554,3.132,4.729,23.0
58.29,3.13,4.382,38.0
80.495,4.342,5.611,35.0
80.536,4.363,5.174,26.0
65.33,3.564,6.041,14.0
49.291,2.7,4.287,25.0
58.532,3.219,4.769,43.0
58.272,3.218,4.421,32.0
80.52,4.464,5.668,26.0
80.431,4.477,5.22,31.0
66.462,3.726,6.191,15.0
49.354,2.777,4.325,19.0
58.534,3.307,4.807,14.0
58.342,3.31,4.465,24.0
58.372,3.325,4.146,32.0
58.53,3.347,3.836,15.0
57.305,3.3,5.375,20.0
49.421,2.857,4.362,18.0
80.342,4.662,6.648,20.0
58.416,3.402,4.506,18.0
58.293,3.408,4.176,29.0
58.441,3.43,3.866,41.0
57.674,3.409,5.443,49.0
57.823,3.43,5.138,20.0
80.682,4.804,6.723,19.0
80.41,4.805,6.248,28.0
58.261,3.495,4.206,27.0
58.406,3.516,3.895,51.0
63.225,3.833,6.002,12.0
57.638,3.506,5.152,23.0
58.021,3.542,4.865,43.0
58.164,3.563,4.55,39.0
58.241,3.581,4.234,40.0
58.437,3.605,3.926,26.0
52.049,3.233,4.967,14.0
52.395,3.265,4.709,8.0
58.106,3.634,4.9,23.0
58.141,3.648,4.575,31.0
58.233,3.667,4.261,43.0
58.492,3.695,3.957,20.0
51.982,3.307,4.984,17.0
59.596,3.804,5.383,8.0
58.012,3.715,4.918,7.0
80.549,5.174,6.374,9.0
58.343,3.761,4.293,26.0
80.775,5.224,5.498,27.0
54.955,3.578,5.292,14.0
61.086,3.99,5.543,6.0
66.815,4.378,5.691,6.0
58.073,3.817,4.618,25.0
58.54,3.86,4.33,13.0
80.828,5.348,5.532,20.0
54.991,3.663,5.316,7.0
61.09,4.081,5.565,18.0
66.834,4.479,5.717,9.0
58.265,3.916,4.653,32.0
61.638,4.156,4.581,17.0
60.459,4.09,4.158,13.0
48.179,3.28,4.673,17.0
61.005,4.166,5.577,14.0
80.951,5.545,6.949,21.0
58.532,4.021,4.693,30.0
61.701,4.251,4.604,16.0
60.496,4.181,4.178,24.0
48.259,3.357,4.695,6.0
51.896,3.62,4.758,9.0
58.858,4.118,5.068,8.0
58.498,4.104,4.705,32.0
61.532,4.329,4.606,23.0
60.782,4.289,4.213,27.0
64.304,4.568,6.271,9.0
51.946,3.7,4.775,20.0
58.771,4.197,5.074,32.0
58.212,4.168,4.695,6.0
61.125,4.39,4.589,35.0
60.652,4.367,4.216,25.0
59.621,4.322,5.826,5.0
58.853,4.277,5.421,18.0
58.711,4.278,5.079,33.0
58.072,4.243,4.693,44.0
61.036,4.472,4.592,29.0
60.576,4.45,4.22,28.0
59.603,4.407,5.834,27.0
58.789,4.357,5.424,18.0
51.894,3.856,4.497,19.0
61.361,4.571,4.967,19.0
60.98,4.555,4.596,30.0
60.582,4.536,4.228,28.0
49.687,3.745,4.868,4.0
49.65,3.751,4.586,23.0
51.891,3.93,4.501,18.0
61.676,4.682,4.999,22.0
60.65,4.616,4.576,34.0
59.801,4.563,4.177,32.0
42.988,3.301,4.215,16.0
49.637,3.82,4.587,23.0
51.869,4.001,4.502,22.0
60.847,4.705,4.934,26.0
60.585,4.696,4.573,33.0
59.514,4.623,4.159,28.0
43.033,3.365,4.22,30.0
51.799,4.058,4.788,5.0
51.866,4.073,4.503,17.0
60.851,4.789,4.935,23.0
60.053,4.737,4.533,33.0
59.384,4.696,4.149,27.0
43.107,3.43,4.227,16.0
49.318,3.932,4.557,20.0
60.281,4.817,5.231,17.0
51.972,4.162,4.213,18.0
60.003,4.816,4.526,33.0
59.436,4.781,4.15,25.0
42.751,3.46,4.189,15.0
49.146,3.985,4.538,32.0
59.776,4.857,5.183,34.0
51.938,4.229,4.206,40.0
59.709,4.872,4.499,7.0
59.456,4.862,4.146,27.0
42.694,3.513,4.18,27.0
49.043,4.043,4.524,20.0
59.404,4.907,5.144,33.0
51.902,4.296,4.196,23.0
51.893,4.304,3.903,21.0
51.906,4.314,3.612,19.0
42.566,3.559,4.161,18.0
48.811,4.089,4.495,11.0
59.517,4.995,5.144,33.0
51.77,4.353,4.177,17.0
51.86,4.369,3.892,44.0
51.88,4.379,3.602,33.0
42.644,3.621,4.161,26.0
51.466,4.378,4.73,11.0
59.464,5.068,5.128,29.0
51.765,4.419,4.166,50.0
51.831,4.433,3.879,35.0
51.853,4.444,3.589,34.0
42.805,3.69,4.167,18.0
51.426,4.441,4.714,25.0
51.656,4.469,4.442,17.0
51.761,4.486,4.153,23.0
51.837,4.5,3.867,46.0
51.871,4.512,3.577,26.0
42.878,3.751,4.162,20.0
51.484,4.512,4.705,24.0
51.656,4.534,4.428,18.0
51.815,4.556,4.143,21.0
51.851,4.566,3.853,19.0
51.902,4.579,3.564,31.0
42.939,3.81,4.155,20.0
51.481,4.575,4.689,17.0
59.154,5.266,5.052,26.0
51.834,4.622,4.127,8.0
51.88,4.634,3.837,18.0
51.978,4.65,3.551,9.0
51.59,4.641,4.974,13.0
51.546,4.644,4.677,11.0
59.054,5.329,5.022,20.0
51.816,4.682,4.108,27.0
59.879,5.42,4.408,13.0
59.844,5.426,4.066,26.0
59.723,5.445,5.736,16.0
59.645,5.445,5.388,9.0
43.243,3.953,3.66,18.0
42.904,3.928,3.384,17.0
59.464,5.452,4.353,31.0
59.05,5.423,3.988,33.0
53.708,4.959,5.135,9.0
43.566,4.028,3.917,14.0
43.011,3.982,3.622,19.0
42.802,3.968,3.357,20.0
59.278,5.503,4.313,33.0
58.732,5.461,3.94,28.0
43.525,4.068,4.141,10.0
43.54,4.075,3.894,15.0
59.289,5.556,4.965,9.0
42.824,4.018,3.338,28.0
59.063,5.55,4.269,33.0
58.992,5.551,3.929,33.0
43.478,4.113,4.115,30.0
43.408,4.111,3.861,17.0
59.293,5.622,4.936,7.0
59.169,5.617,4.582,14.0
58.484,5.56,4.197,32.0
58.857,5.603,3.889,33.0
43.4,4.152,4.085,26.0
51.959,4.977,4.593,10.0
51.849,4.972,4.287,25.0
59.082,5.672,4.543,33.0
58.518,5.625,4.167,29.0
58.888,5.668,3.858,30.0
43.489,4.207,4.068,18.0
51.773,5.014,4.547,12.0
51.805,5.022,4.254,27.0
58.86,5.712,4.492,28.0
58.484,5.683,4.13,32.0
58.757,5.716,3.815,32.0
43.396,4.243,4.033,27.0
59.342,5.807,5.175,19.0
51.811,5.076,4.222,25.0
58.717,5.758,4.445,33.0
58.44,5.737,4.09,28.0
58.577,5.758,3.766,27.0
51.91,5.127,4.791,5.0
43.49,4.299,3.765,16.0
59.349,5.872,4.798,8.0
58.703,5.814,4.405,33.0
58.462,5.796,4.054,27.0
58.346,5.791,3.713,25.0
43.467,4.334,3.983,29.0
43.429,4.334,3.73,35.0
59.32,5.926,4.755,21.0
58.822,5.882,4.373,27.0
58.487,5.855,4.014,32.0
58.255,5.837,3.667,28.0
51.851,5.219,4.714,8.0
43.384,4.37,3.695,20.0
58.772,5.926,4.669,33.0
58.596,5.913,4.314,25.0
58.203,5.879,3.953,28.0
58.172,5.882,3.618,28.0
51.855,5.267,4.675,12.0
51.689,5.254,4.363,25.0
58.252,5.926,4.583,32.0
58.681,5.974,4.276,33.0
58.133,5.924,3.903,31.0
58.151,5.931,3.573,26.0
51.846,5.311,4.634,5.0
51.641,5.293,4.319,21.0
58.647,6.016,4.569,33.0
58.8,6.036,4.239,26.0
57.7,5.928,3.829,30.0
57.84,5.947,3.508,28.0
43.172,4.458,3.824,22.0
58.261,6.02,4.826,9.0
58.575,6.056,4.516,33.0
58.655,6.068,4.181,33.0
57.592,5.963,3.775,29.0
57.821,5.991,3.46,31.0
43.079,4.482,3.78,18.0
58.306,6.07,4.781,32.0
58.744,6.119,4.48,28.0
58.374,6.085,4.111,32.0
57.713,6.02,3.734,25.0
57.935,6.047,3.418,30.0
42.956,4.501,3.732,30.0
58.243,6.106,4.726,15.0
58.856,6.174,4.438,32.0
58.089,6.098,4.04,32.0
57.718,6.062,3.684,30.0
57.967,6.093,3.368,28.0
42.936,4.53,3.692,21.0
54.051,5.706,4.337,18.0
58.919,6.223,4.389,17.0
57.839,6.111,3.971,32.0
57.742,6.105,3.634,27.0
57.935,6.129,3.315,26.0
42.974,4.563,3.656,13.0
53.864,5.722,4.272,27.0
59.214,6.293,4.357,26.0
57.614,6.126,3.903,31.0
57.648,6.132,3.575,28.0
57.96,6.169,3.262,28.0
58.46,6.245,4.919,9.0
53.727,5.741,4.211,27.0
58.964,6.303,4.283,12.0
57.5,6.149,3.84,28.0
57.762,6.18,3.527,31.0
58.04,6.213,3.212,32.0
54.076,5.809,4.497,29.0
53.72,5.772,4.158,27.0
58.54,6.292,4.195,32.0
57.641,6.198,3.794,30.0
58.073,6.247,3.489,31.0
58.239,6.267,3.166,32.0
53.301,5.755,4.38,28.0
53.943,5.826,4.122,28.0
58.174,6.285,4.111,32.0
57.595,6.224,3.733,29.0
58.083,6.279,3.431,31.0
58.343,6.31,3.113,32.0
53.292,5.782,4.324,26.0
54.154,5.876,4.083,17.0
58.045,6.3,4.042,31.0
57.672,6.261,3.679,10.0
58.088,6.308,3.373,31.0
58.465,6.352,3.059,26.0
53.319,5.81,4.272,27.0
54.352,5.923,4.041,10.0
57.931,6.315,3.974,31.0
57.894,6.312,3.633,8.0
58.002,6.326,3.306,31.0
58.459,6.377,2.998,31.0
53.433,5.846,4.223,28.0
58.786,6.432,4.308,16.0
57.898,6.336,3.91,29.0
57.899,6.337,3.572,12.0
58.052,6.355,3.248,31.0
58.441,6.399,2.934,27.0
53.415,5.865,4.164,28.0
58.704,6.446,4.238,23.0
57.664,6.333,3.831,25.0
57.947,6.364,3.511,14.0
58.188,6.392,3.191,31.0
58.4,6.416,2.868,26.0
53.14,5.854,4.084,27.0
57.889,6.376,4.116,26.0
54.282,5.979,3.547,20.0
55.008,6.059,3.273,16.0
58.305,6.424,3.134,31.0
58.476,6.443,2.808,30.0
53.064,5.861,4.02,24.0
57.688,6.372,4.037,25.0
54.356,6.003,3.491,25.0
57.797,6.384,3.374,17.0
58.112,6.419,3.059,30.0
58.504,6.463,2.743,28.0
52.944,5.862,3.95,21.0
57.571,6.374,3.964,24.0
54.633,6.048,3.447,23.0
57.833,6.402,3.311,32.0
58.348,6.459,3.004,32.0
58.302,6.454,2.668,21.0
53.185,5.9,3.907,18.0
57.54,6.383,3.895,19.0
54.615,6.057,3.383,18.0
57.956,6.428,3.25,32.0
58.503,6.488,2.945,32.0
58.269,6.462,2.599,23.0
53.235,5.915,3.849,13.0
53.948,5.994,3.589,15.0
54.755,6.082,3.328,23.0
58.023,6.444,3.186,32.0
58.467,6.493,2.874,29.0
58.29,6.474,2.531,25.0
58.004,6.453,4.124,10.0
54.013,6.008,3.529,24.0
54.81,6.095,3.266,13.0
58.101,6.46,3.122,32.0
58.607,6.515,2.812,32.0
58.487,6.502,2.47,25.0
57.719,6.427,4.035,18.0
54.077,6.019,3.469,26.0
57.62,6.412,3.364,25.0
58.192,6.474,3.057,33.0
58.502,6.508,2.737,32.0
59.1,6.574,2.426,29.0
57.55,6.411,3.954,16.0
54.273,6.043,3.415,16.0
57.72,6.426,3.3,32.0
58.445,6.504,2.999,33.0
58.216,6.478,2.653,23.0
59.176,6.583,2.357,24.0
57.485,6.404,3.879,8.0
55.024,6.127,3.395,13.0
57.904,6.445,3.239,32.0
58.479,6.507,2.929,33.0
58.257,6.481,2.583,27.0
59.054,6.568,2.28,24.0
54.02,6.015,3.578,19.0
54.933,6.114,3.322,29.0
58.062,6.46,3.177,32.0
58.503,6.507,2.859,31.0
58.315,6.484,2.515,27.0
58.998,6.558,2.206,27.0
54.024,6.011,3.511,22.0
57.732,6.42,3.42,10.0
58.086,6.457,3.106,32.0
58.678,6.52,2.794,33.0
58.669,6.516,2.457,32.0
59.019,6.553,2.133,24.0
54.425,6.048,3.47,29.0
57.752,6.415,3.349,29.0
58.289,6.471,3.044,32.0
58.388,6.479,2.708,28.0
59.117,6.557,2.402,26.0
59.08,6.551,2.061,22.0
54.665,6.065,3.416,19.0
57.924,6.423,3.286,32.0
58.506,6.484,2.982,32.0
58.314,6.46,2.631,26.0
59.023,6.535,2.324,25.0
59.036,6.534,1.986,21.0
54.69,6.056,3.348,22.0
58.045,6.423,3.219,32.0
58.425,6.461,2.904,26.0
58.341,6.448,2.559,23.0
58.995,6.518,2.248,27.0
58.983,6.513,1.909,20.0
55.124,6.089,3.305,25.0
58.188,6.423,3.153,28.0
58.459,6.449,2.831,31.0
59.189,6.525,2.521,26.0
59.033,6.505,2.175,27.0
59.13,6.512,1.839,21.0
57.749,6.361,3.388,20.0
58.357,6.423,3.088,29.0
58.515,6.436,2.759,32.0
59.125,6.499,2.443,33.0
59.102,6.492,2.102,25.0
59.332,6.514,1.77,12.0
57.867,6.353,3.321,32.0
58.462,6.413,3.019,28.0
58.432,6.405,2.681,28.0
59.159,6.48,2.368,29.0
59.008,6.459,2.024,24.0
59.759,6.538,1.707,28.0
58.086,6.353,3.259,30.0
58.406,6.383,2.942,30.0
58.558,6.394,2.612,30.0
59.141,6.453,2.292,29.0
58.952,6.428,1.947,23.0
59.917,6.529,1.635,23.0
58.144,6.333,3.188,33.0
58.394,6.355,2.865,32.0
58.505,6.362,2.534,27.0
59.179,6.43,2.218,30.0
59.525,6.463,1.889,33.0
59.787,6.486,1.555,11.0
58.434,6.336,3.129,33.0
58.425,6.329,2.792,28.0
58.716,6.355,2.469,33.0
59.074,6.388,2.139,25.0
59.387,6.417,1.809,29.0
58.821,6.351,1.455,0.0
58.325,6.292,3.048,31.0
58.557,6.311,2.724,32.0
59.208,6.376,2.414,28.0
59.168,6.365,2.067,27.0
59.735,6.421,1.744,22.0
51.581,5.54,1.21,4.0
58.206,6.246,2.968,26.0
58.642,6.286,2.653,27.0
59.176,6.336,2.337,28.0
59.18,6.331,1.991,28.0
60.504,6.467,1.689,34.0
51.397,5.488,1.141,5.0
58.466,6.237,2.906,33.0
58.782,6.263,2.585,21.0
58.999,6.28,2.255,31.0
59.198,6.295,1.917,29.0
60.078,6.382,1.601,20.0
46.34,4.918,0.97,7.0
58.83,6.236,2.85,26.0
59.101,6.257,2.524,29.0
59.143,6.255,2.186,24.0
59.34,6.268,1.847,29.0
59.229,6.251,1.503,5.0
45.865,4.835,0.901,14.0
58.739,6.183,2.77,23.0
59.025,6.206,2.445,27.0
59.335,6.231,2.117,33.0
59.617,6.253,1.779,23.0
51.639,5.411,1.245,2.0
45.508,4.763,0.837,12.0
58.763,6.14,2.697,20.0
58.908,6.147,2.366,32.0
59.668,6.219,2.054,29.0
59.421,6.186,1.699,31.0
51.565,5.362,1.179,7.0
45.242,4.699,0.775,9.0
59.22,6.14,2.643,20.0
58.84,6.092,2.289,26.0
59.837,6.188,1.985,33.0
59.541,6.149,1.628,26.0
51.468,5.309,1.112,3.0
45.313,4.669,0.72,5.0
59.187,6.086,2.568,25.0
59.36,6.095,2.236,19.0
59.818,6.134,1.91,18.0
59.568,6.1,1.555,23.0
46.344,4.74,0.944,5.0
45.468,4.645,0.666,3.0
59.052,6.019,2.489,31.0
0.0,0.0,0.0,0.0
59.898,6.088,1.839,24.0
57.849,5.871,1.439,1.0
46.223,4.686,0.885,5.0
45.688,4.625,0.614,1.0
58.978,5.956,2.415,25.0
60.387,6.09,2.126,30.0
59.96,6.038,1.768,18.0
51.854,5.214,1.227,4.0
46.023,4.621,0.826,8.0
39.656,3.976,0.485,0.0
59.135,5.914,2.349,24.0
60.14,6.005,2.046,26.0
60.218,6.004,1.703,5.0
51.427,5.12,1.155,5.0
46.043,4.577,0.772,11.0
39.64,3.935,0.438,0.0
59.455,5.886,2.291,29.0
60.114,5.941,1.973,17.0
61.164,6.035,1.657,7.0
51.302,5.054,1.091,2.0
46.224,4.547,0.72,5.0
0.0,0.0,0.0,0.0
59.375,5.815,2.218,9.0
60.425,5.908,1.912,13.0
59.009,5.76,1.53,1.0
46.829,4.563,0.942,1.0
46.259,4.5,0.667,4.0
35.432,3.442,0.308,0.0
61.209,5.927,2.215,31.0
63.043,6.094,1.922,25.0
52.685,5.084,1.305,2.0
46.874,4.516,0.889,5.0
46.647,4.486,0.619,0.0
33.033,3.172,0.249,0.0
60.382,5.778,2.116,17.0
62.623,5.981,1.836,15.0
51.924,4.95,1.227,11.0
46.86,4.46,0.835,6.0
40.707,3.867,0.493,0.0
31.935,3.028,0.204,0.0
60.296,5.698,2.043,25.0
62.568,5.901,1.763,11.0
51.557,4.853,1.159,6.0
47.064,4.422,0.785,5.0
38.917,3.65,0.427,0.0
29.32,2.745,0.155,1.0
60.218,5.617,1.973,11.0
61.943,5.766,1.677,5.0
51.305,4.766,1.096,2.0
47.367,4.392,0.737,3.0
35.705,3.304,0.353,0.0
29.242,2.701,0.122,4.0
62.098,5.713,1.966,16.0
52.158,4.789,1.354,16.0
48.229,4.419,0.978,1.0
47.581,4.351,0.689,1.0
34.221,3.123,0.3,0.0
29.118,2.652,0.09,2.0
52.225,4.737,1.597,8.0
52.021,4.708,1.295,13.0
47.975,4.332,0.92,4.0
41.519,3.741,0.556,0.0
32.54,2.926,0.251,0.0
28.312,2.541,0.057,1.0
52.126,4.659,1.539,28.0
51.901,4.627,1.237,10.0
48.15,4.284,0.873,6.0
41.679,3.7,0.515,0.0
31.966,2.831,0.213,1.0
27.137,2.398,0.027,0.0
52.109,4.585,1.484,20.0
51.567,4.526,1.175,6.0
48.48,4.245,0.829,21.0
0.0,0.0,0.0,0.0
31.012,2.703,0.175,0.0
26.606,2.314,0.0,1.0
52.112,4.511,1.431,21.0
51.352,4.435,1.118,5.0
48.736,4.199,0.785,4.0
36.184,3.11,0.373,0.0
30.482,2.613,0.141,1.0
26.116,2.234,-0.026,1.0
52.17,4.441,1.38,12.0
0.0,0.0,0.0,0.0
49.086,4.157,0.741,1.0
36.135,3.053,0.337,0.0
29.385,2.476,0.107,1.0
25.427,2.137,-0.05,1.0
52.231,4.369,1.331,3.0
49.428,4.123,0.979,4.0
47.215,3.928,0.667,3.0
0.0,0.0,0.0,0.0
28.575,2.365,0.077,0.0
24.97,2.061,-0.073,0.0
47.66,3.915,1.169,7.0
47.987,3.931,0.906,0.0
0.0,0.0,0.0,0.0
32.424,2.641,0.241,0.0
27.445,2.23,0.049,1.0
24.26,1.966,-0.093,1.0
47.537,3.832,1.123,12.0
47.88,3.848,0.86,3.0
0.0,0.0,0.0,0.0
31.377,2.507,0.205,1.0
27.131,2.161,0.023,1.0
24.065,1.912,-0.114,2.0
47.461,3.749,1.078,7.0
47.988,3.779,0.818,4.0
36.916,2.899,0.421,0.0
30.504,2.388,0.172,1.0
26.536,2.071,0.0,0.0
23.865,1.858,-0.135,1.0
47.364,3.665,1.034,1.0
47.84,3.69,0.774,0.0
36.841,2.833,0.388,0.0
26.062,1.992,-0.022,0.0
23.185,1.767,-0.15,0.0
47.365,3.587,0.995,2.0
0.0,0.0,0.0,0.0
35.622,2.68,0.345,0.0
29.023,2.177,0.115,0.0
25.581,1.913,-0.043,0.0
22.776,1.697,-0.166,0.0
47.359,3.507,0.956,2.0
0.0,0.0,0.0,0.0
35.49,2.611,0.316,0.0
28.437,2.085,0.089,1.0
25.123,1.836,-0.062,0.0
22.307,1.624,-0.181,0.0
47.441,3.432,0.92,1.0
40.743,2.937,0.56,0.0
32.639,2.345,0.265,0.0
28.124,2.013,0.067,0.0
24.594,1.754,-0.079,0.0
21.926,1.559,-0.194,0.0
52.31,3.694,0.975,1.0
38.169,2.685,0.496,0.0
31.888,2.235,0.235,1.0
27.51,1.921,0.045,0.0
24.216,1.685,-0.096,1.0
21.584,1.496,-0.207,0.0
50.947,3.508,0.912,4.0
37.835,2.595,0.464,0.0
31.313,2.14,0.208,0.0
27.04,1.84,0.024,0.0
24.113,1.635,-0.113,2.0
21.287,1.438,-0.219,0.0
50.944,3.417,0.876,1.0
47.232,3.155,0.547,1.0
30.362,2.02,0.181,0.0
26.547,1.759,0.006,0.0
23.847,1.574,-0.128,0.0
20.707,1.361,-0.227,0.0
46.231,3.017,0.764,0.0
36.652,2.381,0.4,1.0
29.796,1.928,0.157,1.0
26.348,1.698,-0.01,0.0
23.326,1.497,-0.14,0.0
20.64,1.319,-0.24,0.0
43.472,2.756,0.691,0.0
36.606,2.311,0.376,0.0
29.562,1.858,0.138,1.0
25.892,1.621,-0.026,1.0
22.981,1.432,-0.152,0.0
20.303,1.26,-0.248,0.0
43.367,2.669,0.663,0.0
0.0,0.0,0.0,0.0
29.042,1.771,0.118,1.0
25.669,1.558,-0.041,0.0
22.76,1.375,-0.164,0.0
19.496,1.172,-0.25,0.0
43.603,2.602,0.642,0.0
33.432,1.985,0.305,0.0
28.702,1.696,0.101,0.0
25.457,1.497,-0.055,0.0
22.404,1.311,-0.173,0.0
19.413,1.131,-0.259,0.0
42.008,2.427,0.596,0.0
32.627,1.876,0.28,0.0
28.467,1.628,0.085,0.0
25.138,1.431,-0.067,0.0
22.032,1.248,-0.182,1.0
19.368,1.091,-0.268,0.0
0.0,0.0,0.0,0.0
32.312,1.795,0.261,0.0
28.113,1.554,0.07,0.0
24.896,1.368,-0.078,0.0
21.83,1.194,-0.191,2.0
19.31,1.05,-0.276,0.0
38.135,2.056,0.504,1.0
31.766,1.703,0.242,1.0
27.783,1.481,0.057,0.0
24.798,1.315,-0.089,0.0
21.77,1.148,-0.2,2.0
18.907,0.992,-0.279,0.0
37.388,1.943,0.478,0.0
31.38,1.621,0.226,0.0
27.465,1.41,0.045,0.0
24.519,1.252,-0.098,0.0
21.592,1.096,-0.207,2.0
18.663,0.942,-0.283,0.0
36.829,1.841,0.456,0.0
31.514,1.565,0.215,1.0
27.267,1.346,0.034,0.0
24.324,1.193,-0.107,0.0
21.519,1.049,-0.214,1.0
18.524,0.898,-0.288,0.0
0.0,0.0,0.0,0.0
31.033,1.479,0.2,0.0
27.047,1.28,0.024,0.0
23.958,1.127,-0.114,0.0
21.345,0.998,-0.22,1.0
18.397,0.854,-0.292,0.0
36.342,1.671,0.425,0.0
30.649,1.399,0.188,0.0
26.84,1.217,0.015,0.0
23.602,1.063,-0.119,1.0
21.265,0.951,-0.226,1.0
18.303,0.813,-0.296,0.0
35.565,1.563,0.405,0.0
30.587,1.334,0.179,0.0
26.827,1.162,0.008,0.0
23.537,1.012,-0.125,1.0
21.12,0.901,-0.23,0.0
18.133,0.768,-0.298,0.0
36.153,1.515,0.403,0.0
29.008,1.207,0.162,0.0
26.704,1.102,0.001,0.0
23.543,0.964,-0.131,1.0
20.777,0.844,-0.231,0.0
18.056,0.728,-0.301,0.0
35.315,1.407,0.386,0.0
29.034,1.147,0.156,0.0
26.11,1.024,-0.003,1.0
23.581,0.917,-0.136,1.0
20.814,0.803,-0.235,0.0
18.023,0.689,-0.303,0.0
34.456,1.301,0.37,0.0
28.945,1.084,0.15,0.0
25.923,0.962,-0.008,3.0
23.437,0.862,-0.139,0.0
20.429,0.745,-0.234,0.0
18.004,0.651,-0.306,0.0
34.444,1.229,0.365,0.0
28.891,1.021,0.146,0.0
26.424,0.926,-0.012,0.0
23.418,0.813,-0.142,0.0
20.354,0.7,-0.236,0.0
17.996,0.613,-0.308,0.0
34.439,1.157,0.361,1.0
28.949,0.963,0.143,2.0
26.461,0.872,-0.014,0.0
23.227,0.758,-0.143,0.0
20.359,0.657,-0.237,0.0
17.913,0.573,-0.308,0.0
34.548,1.089,0.359,1.0
28.958,0.903,0.141,5.0
26.435,0.816,-0.016,0.0
23.278,0.71,-0.144,1.0
20.349,0.614,-0.238,0.0
17.953,0.536,-0.309,0.0
33.822,0.995,0.351,1.0
28.967,0.842,0.141,7.0
26.425,0.759,-0.016,0.0
23.405,0.665,-0.146,1.0
20.271,0.569,-0.238,0.0
17.939,0.498,-0.309,0.0
34.293,0.936,0.356,0.0
28.949,0.781,0.141,5.0
26.337,0.701,-0.016,0.0
23.557,0.619,-0.146,1.0
20.351,0.528,-0.238,0.0
17.931,0.459,-0.308,0.0
34.119,0.859,0.355,0.0
28.942,0.719,0.142,3.0
26.352,0.646,-0.014,0.0
23.387,0.565,-0.143,0.0
20.328,0.484,-0.236,0.0
18.027,0.423,-0.308,0.0
34.255,0.79,0.359,0.0
28.892,0.656,0.144,0.0
26.39,0.59,-0.012,0.0
23.478,0.517,-0.142,0.0
20.339,0.441,-0.234,0.0
17.998,0.384,-0.306,0.0
34.154,0.714,0.362,0.0
28.931,0.595,0.148,0.0
26.647,0.539,-0.009,0.0
23.528,0.468,-0.139,0.0
20.341,0.398,-0.231,0.0
18.116,0.348,-0.305,0.0
34.283,0.644,0.369,0.0
28.929,0.534,0.153,0.0
26.494,0.479,-0.004,0.0
23.643,0.42,-0.135,0.0
20.47,0.357,-0.229,0.0
18.108,0.31,-0.302,0.0
34.63,0.578,0.379,1.0
28.89,0.472,0.158,0.0
26.727,0.427,0.0,0.0
23.797,0.372,-0.131,0.0
20.764,0.318,-0.228,0.0
18.243,0.273,-0.3,0.0
34.364,0.501,0.384,0.0
28.932,0.411,0.165,1.0
26.94,0.373,0.007,0.0
23.976,0.324,-0.126,1.0
21.272,0.28,-0.228,0.0
18.299,0.235,-0.296,0.0
34.913,0.435,0.4,0.0
28.977,0.351,0.174,1.0
27.064,0.318,0.015,0.0
23.969,0.273,-0.119,0.0
21.316,0.236,-0.222,1.0
18.399,0.197,-0.292,0.0
35.531,0.367,0.418,0.0
28.891,0.288,0.182,0.0
27.203,0.262,0.023,0.0
24.15,0.224,-0.112,0.0
21.517,0.192,-0.217,1.0
18.601,0.159,-0.289,0.0
36.122,0.296,0.437,0.0
31.1,0.244,0.207,0.0
27.433,0.206,0.033,0.0
24.489,0.175,-0.105,0.0
21.629,0.147,-0.21,2.0
18.711,0.121,-0.284,0.0
36.522,0.222,0.456,0.0
31.559,0.181,0.222,0.0
27.706,0.149,0.045,0.0
24.762,0.124,-0.096,0.0
21.676,0.101,-0.202,4.0
18.857,0.081,-0.278,0.0
36.701,0.146,0.473,0.0
31.771,0.115,0.237,0.0
28.445,0.093,0.058,1.0
24.956,0.073,-0.086,0.0
21.84,0.056,-0.194,1.0
19.003,0.042,-0.271,0.0
36.921,0.069,0.493,0.0
31.781,0.048,0.252,0.0
28.468,0.033,0.071,1.0
25.332,0.021,-0.075,0.0
22.162,0.011,-0.186,0.0
19.343,0.003,-0.267,0.0
0.0,0.0,0.0,0.0
31.89,-0.017,0.269,0.0
28.717,-0.025,0.086,4.0
25.439,-0.031,-0.063,0.0
22.517,-0.035,-0.177,0.0
19.537,-0.037,-0.259,0.0
39.409,-0.089,0.566,0.0
33.098,-0.086,0.296,1.0
28.78,-0.085,0.102,7.0
25.609,-0.084,-0.049,0.0
22.931,-0.083,-0.168,0.0
19.643,-0.078,-0.25,0.0
0.0,0.0,0.0,0.0
33.154,-0.155,0.316,1.0
28.792,-0.144,0.119,7.0
26.048,-0.14,-0.035,0.0
23.069,-0.131,-0.155,0.0
20.002,-0.121,-0.243,0.0
0.0,0.0,0.0,0.0
0.0,0.0,0.0,0.0
28.802,-0.204,0.136,4.0
26.368,-0.196,-0.019,0.0
23.715,-0.184,-0.145,0.0
20.51,-0.166,-0.236,0.0
41.935,-0.353,0.678,0.0
0.0,0.0,0.0,0.0
28.825,-0.263,0.155,1.0
26.787,-0.253,-0.002,0.0
23.951,-0.235,-0.13,0.0
20.939,-0.213,-0.227,0.0
0.0,0.0,0.0,0.0
34.659,-0.374,0.397,0.0
30.74,-0.343,0.187,0.0
27.289,-0.313,0.016,0.0
24.291,-0.287,-0.116,0.0
21.424,-0.261,-0.217,0.0
0.0,0.0,0.0,0.0
0.0,0.0,0.0,0.0
31.299,-0.412,0.212,0.0
27.712,-0.375,0.036,0.0
24.706,-0.342,-0.099,0.0
21.94,-0.311,-0.206,1.0
45.1,-0.654,0.825,0.0
0.0,0.0,0.0,0.0
31.492,-0.478,0.237,0.0
28.165,-0.437,0.058,0.0
25.152,-0.399,-0.082,0.0
22.224,-0.36,-0.192,0.0
47.836,-0.788,0.911,0.0
0.0,0.0,0.0,0.0
33.028,-0.567,0.275,1.0
28.587,-0.5,0.082,1.0
25.478,-0.454,-0.063,0.0
22.659,-0.411,-0.177,0.0
0.0,0.0,0.0,0.0
0.0,0.0,0.0,0.0
33.207,-0.635,0.303,2.0
28.704,-0.558,0.105,6.0
25.748,-0.509,-0.042,0.0
23.074,-0.464,-0.161,0.0
0.0,0.0,0.0,0.0
0.0,0.0,0.0,0.0
33.641,-0.708,0.336,1.0
28.737,-0.615,0.13,4.0
26.402,-0.574,-0.02,0.0
23.627,-0.522,-0.144,0.0
0.0,0.0,0.0,0.0
0.0,0.0,0.0,0.0
0.0,0.0,0.0,0.0
28.717,-0.67,0.156,1.0
27.106,-0.641,0.002,0.0
23.975,-0.575,-0.125,1.0
0.0,0.0,0.0,0.0
0.0,0.0,0.0,0.0
0.0,0.0,0.0,0.0
31.094,-0.784,0.197,0.0
27.56,-0.704,0.028,0.0
0.0,0.0,0.0,0.0
0.0,0.0,0.0,0.0
0.0,0.0,0.0,0.0
0.0,0.0,0.0,0.0
31.785,-0.862,0.232,0.0
28.32,-0.777,0.056,1.0
0.0,0.0,0.0,0.0
0.0,0.0,0.0,0.0
0.0,0.0,0.0,0.0
38.258,-1.095,0.524,0.0
32.41,-0.938,0.268,0.0
28.523,-0.835,0.084,1.0
25.611,-0.758,-0.06,0.0
0.0,0.0,0.0,0.0
0.0,0.0,0.0,0.0
0.0,0.0,0.0,0.0
33.032,-1.017,0.307,0.0
28.641,-0.891,0.113,0.0
26.223,-0.824,-0.035,0.0
0.0,0.0,0.0,0.0
0.0,0.0,0.0,0.0
0.0,0.0,0.0,0.0
0.0,0.0,0.0,0.0
30.3,-0.998,0.152,0.0
26.796,-0.891,-0.007,0.0
0.0,0.0,0.0,0.0
0.0,0.0,0.0,0.0
0.0,0.0,0.0,0.0
0.0,0.0,0.0,0.0
30.805,-1.07,0.188,0.0
27.486,-0.963,0.022,0.0
0.0,0.0,0.0,0.0
0.0,0.0,0.0,0.0
0.0,0.0,0.0,0.0
36.314,-1.313,0.454,0.0
32.203,-1.175,0.232,1.0
28.525,-1.049,0.054,3.0
0.0,0.0,0.0,0.0
0.0,0.0,0.0,0.0
0.0,0.0,0.0,0.0
39.273,-1.489,0.535,0.0
32.323,-1.235,0.269,0.0
28.605,-1.102,0.087,6.0
0.0,0.0,0.0,0.0
0.0,0.0,0.0,0.0
0.0,0.0,0.0,0.0
39.309,-1.558,0.581,0.0
33.342,-1.331,0.317,0.0
28.659,-1.153,0.121,5.0
92.514,-3.741,2.957,4.0
0.0,0.0,0.0,0.0
0.0,0.0,0.0,0.0
0.0,0.0,0.0,0.0
34.367,-1.429,0.367,0.0
28.656,-1.2,0.154,0.0
92.26,-3.883,3.058,4.0
0.0,0.0,0.0,0.0
0.0,0.0,0.0,0.0
0.0,0.0,0.0,0.0
36.085,-1.56,0.429,0.0
31.256,-1.361,0.207,0.0
92.476,-4.046,3.179,7.0
0.0,0.0,0.0,0.0
0.0,0.0,0.0,0.0
0.0,0.0,0.0,0.0
37.651,-1.69,0.494,0.0
31.87,-1.439,0.25,0.0
93.492,-4.241,3.331,6.0
0.0,0.0,0.0,0.0
0.0,0.0,0.0,0.0
0.0,0.0,0.0,0.0
0.0,0.0,0.0,0.0
33.2,-1.552,0.303,0.0
95.017,-4.46,3.506,2.0
0.0,0.0,0.0,0.0
0.0,0.0,0.0,0.0
0.0,0.0,0.0,0.0
0.0,0.0,0.0,0.0
35.009,-1.691,0.365,0.0
0.0,0.0,0.0,0.0
0.0,0.0,0.0,0.0
0.0,0.0,0.0,0.0
0.0,0.0,0.0,0.0
0.0,0.0,0.0,0.0
36.479,-1.817,0.428,0.0
0.0,0.0,0.0,0.0
109.426,-5.5,3.746,151.0
0.0,0.0,0.0,0.0
0.0,0.0,0.0,0.0
43.782,-2.234,0.802,0.0
38.167,-1.958,0.498,0.0
0.0,0.0,0.0,0.0
109.369,-5.658,3.89,174.0
34.382,-1.787,1.041,0.0
34.308,-1.791,0.855,0.0
34.398,-1.805,0.676,1.0
34.686,-1.829,0.499,0.0
0.0,0.0,0.0,0.0
109.347,-5.813,4.036,34.0
34.197,-1.826,1.082,132.0
34.177,-1.834,0.898,2.0
34.098,-1.838,0.717,0.0
34.482,-1.867,0.544,1.0
0.0,0.0,0.0,0.0
34.363,-1.875,1.316,0.0
34.192,-1.874,1.129,150.0
34.097,-1.877,0.943,3.0
34.13,-1.887,0.765,1.0
34.255,-1.902,0.588,1.0
0.0,0.0,0.0,0.0
34.293,-1.918,1.361,0.0
34.063,-1.913,1.172,2.0
34.124,-1.924,0.992,26.0
34.023,-1.927,0.81,2.0
34.068,-1.937,0.632,0.0
188.411,-10.746,8.734,4.0
0.0,0.0,0.0,0.0
34.08,-1.958,1.221,2.0
34.089,-1.967,1.039,38.0
34.032,-1.972,0.858,4.0
0.0,0.0,0.0,0.0
188.527,-10.998,9.009,9.0
34.685,-2.031,1.474,0.0
34.035,-2.0,1.268,3.0
34.031,-2.007,1.086,13.0
34.007,-2.013,0.906,5.0
33.985,-2.02,0.728,0.0
188.828,-11.255,9.297,8.0
34.699,-2.075,1.525,0.0
33.996,-2.04,1.316,4.0
33.972,-2.046,1.133,4.0
33.994,-2.054,0.955,8.0
33.982,-2.061,0.777,0.0
189.068,-11.5,9.582,5.0
34.746,-2.12,1.578,0.0
34.019,-2.082,1.366,1.0
33.961,-2.086,1.182,5.0
33.97,-2.093,1.004,150.0
33.954,-2.099,0.826,4.0
188.775,-11.708,9.844,5.0
34.798,-2.164,1.631,0.0
34.295,-2.14,1.428,0.0
33.982,-2.127,1.233,4.0
33.954,-2.132,1.054,150.0
33.934,-2.137,0.875,12.0
188.562,-11.911,10.112,19.0
35.005,-2.217,1.693,0.0
34.302,-2.179,1.479,0.0
33.94,-2.162,1.282,9.0
33.906,-2.167,1.102,23.0
33.931,-2.175,0.926,20.0
156.999,-10.091,8.656,7.0
0.0,0.0,0.0,0.0
34.37,-2.221,1.533,0.0
33.936,-2.199,1.333,10.0
33.904,-2.203,1.153,8.0
33.931,-2.211,0.977,94.0
121.197,-7.921,6.865,9.0
157.073,-10.291,8.071,10.0
0.0,0.0,0.0,0.0
34.037,-2.242,1.388,1.0
33.927,-2.24,1.205,5.0
33.9,-2.244,1.027,36.0
188.982,-12.546,10.991,12.0
156.868,-10.438,8.298,16.0
34.882,-2.326,1.662,0.0
34.183,-2.285,1.446,0.0
33.9,-2.272,1.256,12.0
33.883,-2.277,1.078,44.0
156.521,-10.546,9.342,12.0
156.814,-10.59,8.536,15.0
0.0,0.0,0.0,0.0
34.554,-2.344,1.514,0.0
33.895,-2.304,1.308,29.0
33.867,-2.308,1.129,28.0
91.737,-6.268,5.616,7.0
189.277,-12.96,10.592,18.0
0.0,0.0,0.0,0.0
34.454,-2.369,1.563,0.0
33.918,-2.337,1.36,6.0
33.878,-2.339,1.181,6.0
91.746,-6.352,5.758,9.0
91.489,-6.347,5.261,12.0
0.0,0.0,0.0,0.0
34.857,-2.427,1.634,0.0
34.103,-2.379,1.42,0.0
33.901,-2.37,1.234,7.0
122.234,-8.57,7.86,13.0
91.496,-6.425,5.402,10.0
189.468,-13.331,10.192,11.0
34.948,-2.463,1.693,0.0
0.0,0.0,0.0,0.0
33.87,-2.396,1.286,41.0
121.872,-8.645,8.027,13.0
188.827,-13.417,11.445,15.0
189.787,-13.506,10.505,12.0
0.0,0.0,0.0,0.0
0.0,0.0,0.0,0.0
33.866,-2.423,1.339,21.0
122.574,-8.792,8.266,13.0
154.937,-11.129,9.633,11.0
189.958,-13.666,10.813,13.0
0.0,0.0,0.0,0.0
34.62,-2.498,1.603,0.0
34.112,-2.465,1.401,0.0
147.83,-10.713,10.201,10.0
122.112,-8.862,7.784,5.0
189.613,-13.778,11.09,9.0
190.672,-13.876,10.132,5.0
34.815,-2.537,1.667,0.0
34.265,-2.501,1.461,0.0
147.475,-10.792,10.408,5.0
154.172,-11.295,10.068,8.0
189.527,-13.903,11.381,9.0
189.78,-13.94,10.381,14.0
0.0,0.0,0.0,0.0
34.341,-2.529,1.518,0.0
147.691,-10.904,10.655,4.0
122.615,-9.063,8.199,5.0
154.736,-11.449,9.532,4.0
190.007,-14.076,10.688,17.0
0.0,0.0,0.0,0.0
34.57,-2.567,1.581,0.0
122.255,-9.101,9.009,2.0
155.251,-11.569,10.623,5.0
156.3,-11.658,9.871,3.0
190.24,-14.204,10.996,6.0
193.73,-14.481,10.181,5.0
34.761,-2.601,1.644,0.0
88.478,-6.637,6.658,7.0
155.688,-11.689,10.898,5.0
154.345,-11.598,9.992,5.0
190.373,-14.319,11.302,5.0
193.412,-14.56,10.465,6.0
34.832,-2.624,1.702,0.0
88.446,-6.682,6.794,9.0
155.116,-11.726,11.097,11.0
155.9,-11.794,10.33,5.0
0.0,0.0,0.0,0.0
190.39,-14.425,10.593,8.0
35.219,-2.67,1.774,0.0
88.334,-6.716,6.922,6.0
0.0,0.0,0.0,0.0
155.103,-11.806,10.518,13.0
208.577,-15.887,13.029,8.0
190.336,-14.508,10.887,11.0
193.641,-14.771,10.057,5.0
147.718,-11.295,11.806,3.0
122.123,-9.343,9.114,3.0
155.183,-11.879,10.764,6.0
0.0,0.0,0.0,0.0
0.0,0.0,0.0,0.0
193.55,-14.84,10.35,12.0
145.508,-11.185,11.855,12.0
88.393,-6.796,6.734,12.0
149.054,-11.466,10.567,3.0
208.589,-16.051,13.666,6.0
0.0,0.0,0.0,0.0
193.427,-14.899,10.635,17.0
145.47,-11.232,12.072,17.0
88.393,-6.827,6.868,13.0
150.94,-11.66,10.929,4.0
151.361,-11.696,10.145,5.0
208.582,-16.124,12.881,24.0
193.653,-14.976,10.941,14.0
145.543,-11.283,12.3,18.0
88.384,-6.853,7.001,5.0
147.239,-11.418,10.887,3.0
155.269,-12.043,10.644,14.0
208.667,-16.187,13.203,22.0
194.598,-15.1,11.289,6.0
145.635,-11.33,12.531,16.0
145.642,-11.331,11.759,4.0
146.495,-11.397,11.053,5.0
149.488,-11.631,10.472,7.0
208.68,-16.239,13.516,10.0
145.982,-11.39,12.781,4.0
145.52,-11.353,11.967,12.0
145.544,-11.354,11.198,9.0
149.434,-11.656,10.693,5.0
151.041,-11.781,10.009,12.0
208.646,-16.275,12.726,25.0
146.266,-11.438,13.024,9.0
145.664,-11.389,12.197,12.0
147.298,-11.515,11.552,5.0
150.963,-11.799,11.024,6.0
155.294,-12.136,10.518,8.0
208.562,-16.296,13.023,19.0
145.836,-11.425,13.2,10.0
145.727,-11.413,12.416,13.0
145.628,-11.402,11.635,7.0
148.766,-11.645,11.083,5.0
149.243,-11.678,10.328,5.0
208.663,-16.325,13.337,9.0
146.447,-11.488,13.473,8.0
145.783,-11.431,12.637,11.0
145.656,-11.417,11.852,14.0
145.432,-11.393,11.049,7.0
149.316,-11.694,10.553,11.0
151.262,-11.843,9.889,10.0
146.378,-11.491,13.682,3.0
146.113,-11.462,12.88,5.0
145.593,-11.416,12.059,6.0
145.765,-11.424,11.284,2.0
151.035,-11.832,10.892,4.0
150.945,-11.819,10.085,12.0
146.185,-11.477,13.876,9.0
145.755,-11.436,13.058,11.0
145.692,-11.424,12.277,11.0
147.452,-11.555,11.627,4.0
148.779,-11.651,10.941,11.0
155.342,-12.16,10.599,5.0
145.88,-11.448,14.056,17.0
146.37,-11.478,13.32,8.0
145.726,-11.419,12.485,12.0
145.567,-11.4,11.681,11.0
146.433,-11.458,10.973,9.0
149.327,-11.677,10.398,8.0
145.732,-11.427,14.247,22.0
146.627,-11.486,13.55,5.0
145.9,-11.419,12.705,5.0
145.586,-11.386,11.886,12.0
145.467,-11.368,11.102,8.0
149.374,-11.665,10.607,10.0
145.784,-11.414,14.456,20.0
146.244,-11.438,13.719,11.0
146.218,-11.426,12.934,8.0
145.492,-11.358,12.078,11.0
88.313,-6.888,6.861,3.0
150.854,-11.757,10.918,11.0
145.711,-11.387,14.647,19.0
146.21,-11.413,13.914,13.0
147.966,-11.537,13.29,3.0
145.543,-11.336,12.28,15.0
88.345,-6.875,6.982,4.0
150.939,-11.734,11.127,3.0
145.71,-11.357,14.845,17.0
145.76,-11.347,14.069,15.0
148.145,-11.521,13.502,8.0
145.618,-11.31,12.479,17.0
145.588,-11.296,11.698,3.0
146.649,-11.367,11.002,8.0
148.103,-11.51,15.284,10.0
145.694,-11.307,14.254,19.0
147.986,-11.471,13.683,3.0
145.687,-11.28,12.674,15.0
145.487,-11.249,11.879,13.0
88.371,-6.825,6.743,12.0
148.235,-11.479,15.49,12.0
145.662,-11.264,14.437,16.0
146.323,-11.3,13.716,5.0
119.188,-9.191,10.521,9.0
145.347,-11.194,12.053,16.0
88.36,-6.797,6.854,21.0
149.129,-11.502,15.774,11.0
145.622,-11.214,14.618,18.0
146.439,-11.26,13.913,10.0
119.072,-9.143,10.66,8.0
145.385,-11.148,12.236,14.0
88.367,-6.766,6.964,6.0
148.934,-11.435,15.938,12.0
145.598,-11.16,14.797,12.0
146.528,-11.214,14.102,12.0
147.429,-11.265,13.381,7.0
145.657,-11.113,12.438,14.0
153.989,-11.732,12.323,3.0
148.867,-11.37,16.116,8.0
148.339,-11.312,15.257,3.0
149.176,-11.356,14.538,5.0
145.72,-11.075,13.402,7.0
145.66,-11.052,12.613,9.0
147.877,-11.204,12.01,2.0
148.767,-11.3,16.283,14.0
148.701,-11.275,15.471,7.0
146.07,-11.056,14.407,3.0
145.558,-10.997,13.557,12.0
119.292,-8.997,10.469,14.0
148.517,-11.183,12.235,3.0
89.655,-5.698,11.202,15.0
90.3,-5.719,10.78,16.0
90.422,-5.706,10.293,26.0
91.295,-5.742,9.877,25.0
87.379,-5.477,8.97,14.0
88.97,-5.558,8.643,12.0
89.649,-5.609,11.253,30.0
89.595,-5.585,10.747,20.0
90.702,-5.634,10.376,23.0
91.346,-5.655,9.933,15.0
87.363,-5.388,9.016,12.0
88.956,-5.468,8.689,25.0
89.623,-5.517,11.298,14.0
89.522,-5.49,10.785,26.0
90.95,-5.557,10.451,16.0
91.326,-5.561,9.977,7.0
87.188,-5.29,9.041,14.0
89.07,-5.385,8.743,27.0
89.854,-5.44,11.371,4.0
89.503,-5.398,10.826,17.0
90.553,-5.44,10.448,21.0
87.093,-5.213,9.555,18.0
87.14,-5.196,9.076,21.0
0.0,0.0,0.0,0.0
87.151,-5.184,11.068,1.0
87.767,-5.2,10.655,10.0
90.548,-5.343,10.487,14.0
87.096,-5.121,9.593,13.0
87.543,-5.128,9.155,17.0
87.81,-5.124,8.695,14.0
87.027,-5.083,11.088,30.0
87.807,-5.109,10.695,25.0
87.237,-5.055,10.138,8.0
81.91,-4.728,9.053,22.0
87.604,-5.037,9.194,17.0
87.832,-5.03,8.73,22.0
87.046,-4.989,11.123,27.0
87.751,-5.009,10.72,22.0
87.123,-4.953,10.155,23.0
81.953,-4.64,9.086,23.0
82.615,-4.659,8.698,9.0
88.034,-4.946,8.778,21.0
87.149,-4.898,11.164,22.0
90.209,-5.049,11.049,6.0
86.659,-4.831,10.127,23.0
82.052,-4.555,9.121,20.0
82.659,-4.57,8.726,23.0
84.155,-4.634,8.415,8.0
87.337,-4.812,11.212,21.0
87.845,-4.82,10.782,16.0
86.807,-4.742,10.167,24.0
82.116,-4.467,9.149,21.0
82.694,-4.479,8.75,22.0
83.469,-4.502,8.366,19.0
87.137,-4.701,11.207,13.0
90.107,-4.84,11.081,15.0
86.923,-4.648,10.2,23.0
82.256,-4.38,9.181,19.0
82.757,-4.387,8.774,11.0
83.518,-4.408,8.387,18.0
86.701,-4.577,11.167,9.0
86.955,-4.57,10.709,28.0
87.148,-4.559,10.241,20.0
82.314,-4.286,9.202,11.0
82.972,-4.301,8.81,15.0
83.583,-4.314,8.406,12.0
86.885,-4.485,11.204,19.0
86.947,-4.467,10.72,35.0
87.274,-4.463,10.267,19.0
82.388,-4.194,9.22,12.0
82.366,-4.173,8.755,28.0
84.075,-4.241,8.464,8.0
86.5,-4.362,11.163,17.0
86.489,-4.341,10.671,28.0
86.025,-4.296,10.128,15.0
81.38,-4.046,9.113,11.0
82.265,-4.071,8.75,25.0
82.443,-4.061,8.305,4.0
86.538,-4.26,11.173,27.0
86.598,-4.242,10.689,29.0
82.71,-4.033,9.74,20.0
81.484,-3.953,9.128,36.0
82.352,-3.977,8.76,24.0
82.322,-3.957,8.294,12.0
86.391,-4.148,11.155,28.0
86.706,-4.143,10.702,30.0
82.673,-3.931,9.736,11.0
81.352,-3.849,9.111,28.0
82.64,-3.89,8.789,34.0
82.924,-3.884,8.352,16.0
86.281,-4.038,11.137,29.0
85.222,-3.967,10.516,10.0
85.854,-3.977,10.106,13.0
81.488,-3.755,9.122,27.0
82.376,-3.778,8.756,34.0
84.566,-3.858,8.511,20.0
86.294,-3.933,11.132,31.0
80.402,-3.645,9.913,10.0
80.929,-3.65,9.518,12.0
81.437,-3.653,9.108,27.0
81.845,-3.652,8.69,23.0
79.488,-3.53,7.99,12.0
86.252,-3.824,11.115,39.0
80.45,-3.548,9.908,14.0
81.002,-3.553,9.515,10.0
81.61,-3.56,9.114,23.0
81.44,-3.534,8.634,28.0
79.547,-3.434,7.983,9.0
86.615,-3.733,11.146,18.0
81.009,-3.472,9.963,17.0
80.947,-3.451,9.493,28.0
82.292,-3.489,9.174,16.0
79.598,-3.356,8.422,13.0
79.35,-3.328,7.947,30.0
85.78,-3.59,11.02,17.0
81.745,-3.401,10.034,30.0
64.669,-2.676,7.569,8.0
80.793,-3.324,8.988,17.0
0.0,0.0,0.0,0.0
79.331,-3.23,7.924,26.0
80.836,-3.282,10.363,9.0
81.295,-3.281,9.957,27.0
64.698,-2.597,7.554,11.0
80.794,-3.224,8.965,20.0
79.765,-3.165,8.397,13.0
79.216,-3.126,7.889,27.0
80.799,-3.179,10.333,26.0
81.258,-3.178,9.926,33.0
64.821,-2.52,7.547,7.0
79.01,-3.053,8.74,9.0
79.576,-3.057,8.349,9.0
66.029,-2.523,6.552,23.0
80.994,-3.085,10.329,14.0
81.589,-3.088,9.936,10.0
77.456,-2.914,8.989,14.0
78.881,-2.95,8.696,21.0
64.012,-2.38,6.691,16.0
65.623,-2.426,6.486,26.0
79.821,-2.94,10.147,24.0
81.962,-3.001,9.948,13.0
64.78,-2.357,7.491,17.0
64.456,-2.33,7.078,12.0
64.195,-2.307,6.683,20.0
65.702,-2.348,6.465,26.0
79.76,-2.839,10.103,26.0
76.736,-2.714,9.279,30.0
64.728,-2.274,7.455,18.0
64.459,-2.251,7.048,29.0
64.244,-2.23,6.657,14.0
65.671,-2.265,6.431,25.0
77.286,-2.654,9.752,13.0
76.844,-2.622,9.253,33.0
64.565,-2.189,7.403,19.0
63.765,-2.147,6.94,31.0
64.525,-2.159,6.653,27.0
65.672,-2.184,6.396,29.0
76.794,-2.542,9.647,23.0
77.008,-2.531,9.231,28.0
63.826,-2.085,7.283,26.0
63.577,-2.062,6.883,24.0
64.447,-2.077,6.608,29.0
65.843,-2.108,6.375,28.0
76.979,-2.452,9.625,28.0
64.823,-2.05,7.732,12.0
63.922,-2.008,7.256,25.0
63.601,-1.984,6.847,36.0
64.346,-1.994,6.558,30.0
65.894,-2.028,6.339,25.0
0.0,0.0,0.0,0.0
64.898,-1.972,7.698,19.0
64.08,-1.933,7.232,39.0
64.079,-1.92,6.856,35.0
64.339,-1.914,6.515,30.0
66.105,-1.953,6.315,27.0
73.998,-2.172,9.155,25.0
64.911,-1.892,7.656,25.0
64.289,-1.861,7.211,31.0
64.319,-1.848,6.837,31.0
64.359,-1.836,6.472,20.0
66.254,-1.876,6.283,33.0
74.031,-2.083,9.106,28.0
76.278,-2.13,8.941,23.0
64.461,-1.786,7.183,28.0
64.315,-1.77,6.789,35.0
65.648,-1.793,6.552,40.0
66.449,-1.801,6.251,41.0
74.255,-1.998,9.076,14.0
76.141,-2.034,8.865,15.0
64.559,-1.711,7.144,30.0
64.181,-1.688,6.725,28.0
65.369,-1.706,6.473,38.0
66.219,-1.716,6.177,28.0
74.042,-1.903,8.99,8.0
74.022,-1.887,8.558,9.0
64.571,-1.633,7.091,34.0
64.051,-1.608,6.658,28.0
66.208,-1.649,6.501,41.0
66.155,-1.635,6.115,29.0
74.056,-1.815,8.928,14.0
75.975,-1.846,8.719,14.0
64.417,-1.553,7.019,31.0
63.962,-1.529,6.593,29.0
66.077,-1.566,6.43,32.0
65.971,-1.552,6.04,27.0
74.271,-1.731,8.887,23.0
74.582,-1.723,8.491,12.0
64.274,-1.472,6.945,34.0
64.04,-1.455,6.543,32.0
66.075,-1.489,6.369,29.0
65.823,-1.471,5.966,28.0
74.482,-1.648,8.842,11.0
65.026,-1.426,7.341,25.0
64.203,-1.396,6.876,28.0
64.098,-1.381,6.487,39.0
66.262,-1.416,6.324,41.0
67.051,-1.421,6.012,21.0
74.581,-1.562,8.78,13.0
64.96,-1.349,7.27,26.0
63.968,-1.317,6.787,39.0
63.848,-1.302,6.398,17.0
66.432,-1.343,6.273,11.0
67.198,-1.347,5.958,24.0
64.944,-1.286,7.579,16.0
64.656,-1.268,7.169,40.0
63.711,-1.238,6.694,16.0
66.168,-1.274,6.561,15.0
67.039,-1.278,6.26,30.0
67.26,-1.271,5.892,21.0
73.656,-1.374,8.516,23.0
64.734,-1.196,7.107,40.0
63.478,-1.161,6.601,12.0
66.336,-1.202,6.507,16.0
67.246,-1.208,6.206,10.0
65.589,-1.167,5.675,30.0
65.378,-1.147,7.487,42.0
64.547,-1.121,7.015,36.0
58.446,-1.004,6.013,16.0
63.954,-1.088,6.201,22.0
65.271,-1.1,5.951,25.0
65.733,-1.096,5.613,22.0
64.927,-1.067,7.361,31.0
64.409,-1.047,6.926,30.0
58.467,-0.941,5.946,27.0
64.016,-1.019,6.132,6.0
65.29,-1.029,5.876,30.0
65.864,-1.027,5.547,13.0
64.935,-0.996,7.284,20.0
64.315,-0.976,6.839,19.0
58.533,-0.878,5.883,19.0
65.42,-0.971,6.188,19.0
65.245,-0.958,5.794,29.0
74.342,-1.08,6.171,21.0
65.406,-0.933,7.256,12.0
58.487,-0.825,6.147,23.0
63.592,-0.886,6.313,8.0
65.304,-0.9,6.096,19.0
65.159,-0.888,5.704,29.0
73.987,-0.996,6.049,10.0
57.19,-0.755,6.271,15.0
58.604,-0.764,6.084,28.0
63.574,-0.82,6.229,34.0
58.253,-0.742,5.363,21.0
65.228,-0.821,5.627,25.0
66.442,-0.826,5.346,25.0
57.232,-0.696,6.2,23.0
58.564,-0.704,6.003,27.0
63.731,-0.757,6.161,20.0
58.211,-0.682,5.282,30.0
66.383,-0.769,5.639,41.0
66.489,-0.761,5.262,28.0
57.263,-0.64,6.127,27.0
58.678,-0.646,5.936,31.0
63.644,-0.692,6.067,17.0
58.23,-0.625,5.205,20.0
66.47,-0.704,5.556,21.0
76.48,-0.799,5.949,16.0
57.393,-0.584,6.062,24.0
58.796,-0.59,5.865,28.0
0.0,0.0,0.0,0.0
66.615,-0.65,5.862,22.0
66.456,-0.639,5.461,9.0
76.499,-0.725,5.842,17.0
0.0,0.0,0.0,0.0
58.765,-0.533,5.779,22.0
57.066,-0.51,5.278,25.0
74.001,-0.651,6.406,11.0
66.531,-0.577,5.372,3.0
76.427,-0.653,5.728,23.0
58.833,-0.487,6.044,26.0
58.789,-0.478,5.696,7.0
57.343,-0.459,5.22,31.0
64.573,-0.509,5.495,16.0
62.656,-0.486,4.967,19.0
76.355,-0.582,5.609,11.0
56.643,-0.416,5.734,25.0
57.044,-0.412,5.441,7.0
57.112,-0.405,5.113,14.0
64.604,-0.45,5.401,17.0
62.601,-0.428,4.869,9.0
82.561,-0.555,5.94,4.0
56.613,-0.365,5.644,21.0
57.094,-0.361,5.358,22.0
64.595,-0.401,5.685,14.0
62.672,-0.382,5.143,6.0
76.496,-0.457,5.831,27.0
87.642,-0.513,6.172,12.0
56.708,-0.317,5.565,24.0
57.117,-0.313,5.271,27.0
64.503,-0.345,5.576,26.0
62.581,-0.328,5.037,24.0
76.409,-0.392,5.705,10.0
87.89,-0.441,6.051,13.0
58.761,-0.279,5.673,13.0
0.0,0.0,0.0,0.0
64.751,-0.293,5.493,16.0
62.698,-0.277,4.947,25.0
82.724,-0.356,6.044,19.0
96.217,-0.405,6.47,12.0
64.759,-0.255,6.147,8.0
64.501,-0.247,5.745,19.0
62.673,-0.233,5.215,8.0
62.705,-0.227,4.845,9.0
82.817,-0.291,5.917,29.0
96.247,-0.329,6.316,15.0
57.277,-0.181,5.342,21.0
64.495,-0.197,5.637,9.0
62.701,-0.185,5.114,24.0
63.065,-0.18,4.769,11.0
82.798,-0.229,5.778,26.0
96.539,-0.257,6.175,15.0
57.193,-0.138,5.239,25.0
62.243,-0.144,5.336,15.0
62.739,-0.139,5.011,13.0
63.022,-0.133,4.659,13.0
82.873,-0.168,5.643,19.0
96.367,-0.187,6.0,12.0
57.971,-0.097,5.211,23.0
62.493,-0.099,5.251,28.0
76.932,-0.115,6.013,19.0
83.606,-0.118,6.037,17.0
87.635,-0.116,5.817,16.0
106.055,-0.131,6.421,6.0
57.856,-0.057,5.099,19.0
62.465,-0.056,5.14,12.0
63.251,-0.051,4.833,25.0
83.55,-0.061,5.887,9.0
87.639,-0.057,5.663,12.0
91.58,-0.052,5.383,15.0
62.399,-0.02,5.388,16.0
59.055,-0.013,4.753,20.0
63.252,-0.01,4.72,32.0
83.067,-0.007,5.705,19.0
96.379,0.0,6.056,16.0
151.077,0.01,8.61,31.0
59.217,0.018,5.007,18.0
77.027,0.029,6.061,11.0
63.312,0.028,4.61,18.0
83.038,0.044,5.553,31.0
91.434,0.055,5.58,16.0
151.101,0.102,8.34,36.0
59.143,0.053,4.893,24.0
63.414,0.061,4.875,22.0
83.675,0.086,5.942,6.0
83.082,0.091,5.407,33.0
83.307,0.097,4.934,5.0
83.379,0.103,4.452,7.0
59.098,0.087,4.781,6.0
63.393,0.097,4.757,22.0
79.231,0.126,5.481,14.0
83.208,0.138,5.261,28.0
83.255,0.143,4.778,12.0
83.266,0.147,4.292,18.0
63.287,0.126,5.003,38.0
63.358,0.13,4.637,6.0
83.346,0.176,5.612,11.0
83.231,0.18,5.108,26.0
83.237,0.185,4.622,22.0
83.243,0.19,4.137,29.0
63.449,0.158,4.897,25.0
76.938,0.196,5.486,7.0
83.149,0.215,5.442,24.0
83.194,0.22,4.95,28.0
83.215,0.224,4.464,25.0
83.252,0.229,3.981,41.0
63.444,0.187,4.776,19.0
91.264,0.274,6.334,9.0
83.136,0.254,5.282,23.0
83.203,0.257,4.791,31.0
83.217,0.262,4.305,28.0
83.244,0.266,3.82,36.0
76.92,0.261,5.64,8.0
79.409,0.272,5.356,51.0
83.156,0.289,5.122,31.0
83.208,0.293,4.629,27.0
83.221,0.296,4.143,33.0
83.255,0.3,3.658,35.0
76.934,0.291,5.489,21.0
79.426,0.304,5.202,59.0
83.158,0.321,4.958,24.0
83.223,0.324,4.466,28.0
83.253,0.328,3.98,33.0
83.305,0.331,3.497,36.0
76.965,0.319,5.341,6.0
83.155,0.348,5.282,14.0
83.191,0.351,4.796,24.0
83.227,0.353,4.303,30.0
83.283,0.356,3.819,18.0
83.304,0.359,3.334,11.0
79.427,0.355,5.354,73.0
83.168,0.374,5.118,23.0
83.225,0.377,4.633,7.0
83.239,0.379,4.139,5.0
79.32,0.363,3.48,7.0
79.385,0.365,3.019,14.0
79.447,0.378,5.197,87.0
83.184,0.398,4.953,7.0
79.292,0.381,4.256,8.0
79.323,0.383,3.786,6.0
79.385,0.385,3.324,10.0
0.0,0.0,0.0,0.0
79.368,0.397,5.032,13.0
79.33,0.399,4.564,7.0
79.296,0.4,4.097,10.0
79.334,0.401,3.626,9.0
79.337,0.403,3.163,5.0
78.125,0.397,2.658,14.0
79.329,0.415,4.868,7.0
79.276,0.415,4.401,10.0
79.331,0.416,3.939,10.0
79.368,0.417,3.468,12.0
79.379,0.418,3.004,11.0
78.093,0.412,2.498,24.0
79.329,0.429,4.707,5.0
79.334,0.429,4.241,9.0
79.282,0.43,3.775,7.0
79.345,0.43,3.305,10.0
78.066,0.423,2.796,6.0
77.933,0.423,2.335,1.0
79.356,0.44,4.546,9.0
79.333,0.44,4.079,10.0
79.337,0.44,3.613,11.0
79.362,0.44,3.143,2.0
78.146,0.433,2.638,21.0
75.569,0.419,2.109,3.0
79.32,0.449,4.381,11.0
79.346,0.448,3.916,8.0
79.343,0.448,3.45,11.0
79.35,0.447,2.978,14.0
78.131,0.44,2.476,15.0
74.948,0.421,1.936,0.0
79.305,0.454,4.213,9.0
79.337,0.453,3.75,10.0
79.362,0.452,3.286,9.0
78.169,0.445,2.771,14.0
76.15,0.432,2.253,1.0
0.0,0.0,0.0,0.0
79.357,0.456,4.05,10.0
79.36,0.455,3.585,12.0
77.882,0.445,3.062,3.0
78.135,0.446,2.607,27.0
75.35,0.428,2.073,4.0
0.0,0.0,0.0,0.0
79.344,0.456,3.884,7.0
79.365,0.454,3.42,12.0
79.287,0.452,2.952,14.0
78.146,0.443,2.444,9.0
0.0,0.0,0.0,0.0
0.0,0.0,0.0,0.0
79.366,0.452,3.719,10.0
79.356,0.45,3.254,6.0
78.114,0.441,2.745,13.0
75.889,0.426,2.215,3.0
0.0,0.0,0.0,0.0
0.0,0.0,0.0,0.0
79.365,0.445,3.553,12.0
79.389,0.443,3.089,5.0
78.111,0.434,2.581,25.0
75.089,0.414,2.035,3.0
0.0,0.0,0.0,0.0
0.0,0.0,0.0,0.0
79.366,0.436,3.386,11.0
0.0,0.0,0.0,0.0
78.079,0.423,2.416,7.0
0.0,0.0,0.0,0.0
0.0,0.0,0.0,0.0
36.838,0.195,0.49,0.0
79.277,0.423,3.215,4.0
78.105,0.413,2.709,13.0
75.945,0.398,2.19,4.0
0.0,0.0,0.0,0.0
0.0,0.0,0.0,0.0
0.0,0.0,0.0,0.0
79.374,0.408,3.052,11.0
78.079,0.397,2.545,27.0
74.934,0.378,2.003,2.0
0.0,0.0,0.0,0.0
39.055,0.193,0.583,0.0
33.153,0.162,0.301,0.0
0.0,0.0,0.0,0.0
77.006,0.373,2.347,5.0
0.0,0.0,0.0,0.0
0.0,0.0,0.0,0.0
0.0,0.0,0.0,0.0
31.305,0.145,0.219,0.0
78.095,0.361,2.673,9.0
75.784,0.346,2.15,4.0
0.0,0.0,0.0,0.0
41.681,0.185,0.69,0.0
34.479,0.151,0.37,0.0
28.843,0.125,0.14,0.0
78.07,0.337,2.507,19.0
75.31,0.32,1.978,1.0
0.0,0.0,0.0,0.0
39.617,0.163,0.573,0.0
32.267,0.131,0.278,0.0
28.474,0.113,0.078,1.0
76.957,0.305,2.31,2.0
0.0,0.0,0.0,0.0
0.0,0.0,0.0,0.0
0.0,0.0,0.0,0.0
30.371,0.112,0.197,0.0
27.143,0.098,0.017,0.0
75.643,0.271,2.11,2.0
0.0,0.0,0.0,0.0
41.718,0.143,0.675,0.0
33.885,0.114,0.347,0.0
28.779,0.094,0.127,1.0
25.974,0.083,-0.037,0.0
76.06,0.24,1.962,0.0
0.0,0.0,0.0,0.0
0.0,0.0,0.0,0.0
0.0,0.0,0.0,0.0
28.443,0.08,0.065,1.0
24.787,0.068,-0.087,0.0
0.0,0.0,0.0,0.0
0.0,0.0,0.0,0.0
35.388,0.089,0.425,0.0
30.245,0.074,0.183,0.0
26.805,0.063,0.006,0.0
23.513,0.053,-0.132,1.0
0.0,0.0,0.0,0.0
41.455,0.087,0.654,0.0
33.838,0.068,0.335,0.0
28.745,0.055,0.114,4.0
25.718,0.047,-0.048,0.0
22.399,0.039,-0.172,0.0
0.0,0.0,0.0,0.0
0.0,0.0,0.0,0.0
0.0,0.0,0.0,0.0
27.864,0.038,0.052,0.0
24.46,0.031,-0.096,0.0
21.265,0.025,-0.208,4.0
42.328,0.046,0.738,0.0
0.0,0.0,0.0,0.0
30.139,0.026,0.173,0.0
26.544,0.02,-0.004,0.0
23.522,0.016,-0.141,1.0
20.161,0.011,-0.239,0.0
40.095,0.019,0.616,0.0
33.159,0.012,0.316,0.0
28.71,0.007,0.106,1.0
25.449,0.004,-0.056,0.0
22.151,0.001,-0.178,0.0
19.127,0.0,-0.265,0.0
36.963,-0.005,0.493,0.0
31.218,-0.008,0.234,0.0
27.601,-0.01,0.046,0.0
24.137,-0.011,-0.102,0.0
21.157,-0.012,-0.213,3.0
18.315,-0.012,-0.291,0.0
34.901,-0.028,0.395,0.0
29.549,-0.027,0.162,0.0
26.298,-0.027,-0.008,0.0
23.297,-0.027,-0.146,0.0
19.933,-0.025,-0.241,0.0
17.491,-0.024,-0.313,0.0
33.093,-0.05,0.308,0.0
28.724,-0.047,0.099,6.0
25.371,-0.045,-0.06,0.0
21.959,-0.041,-0.182,0.0
18.958,-0.038,-0.268,0.0
16.94,-0.036,-0.338,0.0
31.301,-0.071,0.228,1.0
27.547,-0.066,0.04,0.0
24.005,-0.06,-0.104,0.0
20.915,-0.055,-0.215,0.0
18.19,-0.05,-0.293,0.0
16.485,-0.048,-0.362,0.0
28.849,-0.088,0.152,4.0
26.234,-0.083,-0.013,0.0
23.374,-0.077,-0.148,0.0
19.859,-0.068,-0.244,0.0
17.457,-0.062,-0.316,0.0
15.997,-0.059,-0.383,0.0
28.68,-0.111,0.095,6.0
25.235,-0.101,-0.063,0.0
21.992,-0.091,-0.183,0.0
18.921,-0.081,-0.27,0.0
16.897,-0.074,-0.339,0.0
15.526,-0.071,-0.402,0.0
27.276,-0.129,0.036,0.0
24.131,-0.117,-0.107,0.0
21.082,-0.105,-0.217,0.0
18.169,-0.093,-0.295,0.0
16.476,-0.087,-0.363,0.0
15.007,-0.081,-0.418,0.0
26.254,-0.147,-0.015,0.0
23.081,-0.133,-0.148,0.0
19.88,-0.117,-0.243,0.0
17.387,-0.105,-0.315,0.0
15.967,-0.099,-0.383,0.0
14.548,-0.092,-0.434,0.0
25.073,-0.163,-0.063,0.0
22.08,-0.147,-0.184,1.0
18.978,-0.129,-0.268,0.0
16.85,-0.117,-0.338,0.0
15.532,-0.11,-0.402,0.0
14.125,-0.103,-0.448,0.0
24.188,-0.181,-0.107,0.0
20.926,-0.159,-0.214,0.0
18.122,-0.141,-0.291,0.0
16.422,-0.13,-0.361,0.0
14.948,-0.121,-0.416,0.0
13.817,-0.114,-0.465,0.0
22.999,-0.194,-0.145,0.0
19.699,-0.169,-0.239,0.0
17.434,-0.153,-0.313,0.0
16.002,-0.143,-0.382,0.0
14.662,-0.133,-0.435,0.0
13.442,-0.124,-0.477,0.0
22.283,-0.211,-0.182,0.0
18.913,-0.182,-0.264,0.0
16.888,-0.165,-0.334,0.0
15.577,-0.155,-0.401,0.0
14.113,-0.143,-0.445,0.0
13.156,-0.135,-0.492,0.0
21.007,-0.22,-0.21,0.0
18.192,-0.194,-0.288,0.0
16.533,-0.179,-0.357,0.0
15.07,-0.166,-0.415,0.0
13.806,-0.154,-0.461,0.0
12.835,-0.146,-0.503,0.0
19.893,-0.23,-0.235,0.0
17.521,-0.205,-0.309,0.0
16.046,-0.191,-0.376,0.0
14.572,-0.176,-0.428,0.0
13.476,-0.165,-0.474,0.0
12.596,-0.157,-0.516,0.0
19.062,-0.241,-0.259,0.0
17.007,-0.218,-0.33,0.0
15.623,-0.203,-0.394,0.0
14.241,-0.188,-0.443,0.0
13.222,-0.177,-0.489,0.0
12.375,-0.168,-0.53,0.0
18.276,-0.252,-0.281,0.0
16.586,-0.232,-0.351,0.0
15.167,-0.215,-0.409,0.0
13.805,-0.198,-0.454,0.0
12.923,-0.188,-0.5,0.0
12.039,-0.177,-0.536,0.0
17.686,-0.264,-0.303,0.0
16.164,-0.245,-0.37,0.0
14.654,-0.224,-0.421,0.0
13.565,-0.21,-0.47,0.0
12.627,-0.198,-0.511,0.0
11.839,-0.188,-0.548,0.0
17.09,-0.276,-0.322,0.0
15.721,-0.257,-0.387,0.0
14.415,-0.238,-0.439,0.0
13.262,-0.221,-0.482,0.0
12.443,-0.21,-0.524,0.0
11.645,-0.199,-0.559,0.0
16.642,-0.288,-0.341,0.0
15.287,-0.268,-0.402,0.0
13.984,-0.248,-0.449,0.0
12.975,-0.232,-0.493,0.0
12.191,-0.221,-0.534,0.0
11.43,-0.209,-0.567,0.0
16.299,-0.302,-0.361,0.0
14.824,-0.278,-0.414,0.0
13.722,-0.26,-0.463,0.0
12.769,-0.245,-0.506,0.0
11.92,-0.231,-0.542,0.0
11.225,-0.22,-0.576,0.0
15.903,-0.315,-0.378,0.0
14.5,-0.29,-0.429,0.0
13.34,-0.27,-0.472,0.0
12.531,-0.256,-0.517,0.0
11.776,-0.243,-0.554,0.0
11.032,-0.23,-0.583,0.0
15.536,-0.328,-0.394,0.0
14.173,-0.302,-0.442,0.0
13.153,-0.283,-0.486,0.0
12.322,-0.268,-0.528,0.0
11.526,-0.253,-0.561,0.0
10.847,-0.24,-0.591,0.0
15.1,-0.338,-0.407,0.0
13.886,-0.314,-0.455,0.0
12.874,-0.294,-0.496,0.0
12.028,-0.277,-0.534,0.0
11.321,-0.264,-0.569,0.0
10.658,-0.25,-0.597,0.0
14.673,-0.348,-0.418,0.0
13.609,-0.326,-0.466,0.0
12.697,-0.307,-0.509,0.0
11.835,-0.289,-0.544,0.0
11.174,-0.275,-0.578,0.0
10.416,-0.259,-0.599,0.0
14.387,-0.361,-0.432,0.0
13.327,-0.337,-0.477,0.0
12.448,-0.318,-0.517,0.0
11.654,-0.3,-0.553,0.0
10.985,-0.286,-0.585,0.0
10.29,-0.27,-0.608,0.0
14.094,-0.373,-0.444,0.0
13.063,-0.349,-0.487,0.0
12.237,-0.33,-0.527,0.0
11.452,-0.311,-0.56,0.0
10.77,-0.295,-0.589,0.0
10.146,-0.28,-0.614,0.0
13.839,-0.386,-0.455,0.0
12.871,-0.361,-0.498,0.0
12.002,-0.34,-0.534,0.0
11.281,-0.322,-0.568,0.0
10.61,-0.306,-0.596,0.0
10.04,-0.291,-0.622,0.0
13.571,-0.397,-0.466,0.0
12.664,-0.374,-0.508,0.0
11.853,-0.353,-0.544,0.0
11.096,-0.333,-0.574,0.0
10.455,-0.316,-0.602,0.0
9.946,-0.303,-0.63,0.0
13.378,-0.411,-0.477,0.0
12.429,-0.385,-0.515,0.0
11.678,-0.364,-0.551,0.0
