X,Y,Z,Reflectivity
51.928,3.575,4.613,8.0
58.633,4.047,4.881,22.0
58.124,4.024,4.514,26.0
54.359,3.788,5.758,15.0
48.43,3.383,4.857,4.0
48.338,3.385,4.576,31.0
51.824,3.639,4.61,25.0
58.672,4.131,4.891,28.0
58.128,4.103,4.521,25.0
49.785,3.537,5.278,20.0
48.411,3.448,4.86,18.0
48.313,3.45,4.578,17.0
51.818,3.709,4.614,15.0
58.721,4.214,4.899,27.0
58.115,4.181,4.524,19.0
51.871,3.756,5.503,5.0
48.334,3.508,4.855,25.0
59.432,4.324,5.635,33.0
51.844,3.781,4.618,20.0
58.029,4.243,4.844,28.0
64.426,4.722,5.017,3.0
0.0,0.0,0.0,0.0
48.352,3.574,4.857,35.0
63.774,4.726,6.047,10.0
60.499,4.493,5.389,7.0
61.225,4.557,5.11,10.0
61.19,4.566,4.763,22.0
48.503,3.642,5.145,22.0
48.49,3.649,4.869,22.0
49.674,3.746,4.707,1.0
51.892,3.922,4.62,6.0
61.464,4.656,5.127,25.0
60.586,4.601,4.713,35.0
48.566,3.711,5.148,23.0
49.756,3.81,4.993,13.0
49.679,3.812,4.704,21.0
51.864,3.988,4.613,32.0
61.218,4.718,5.1,9.0
60.52,4.674,4.702,35.0
48.524,3.771,5.138,30.0
53.599,4.174,5.372,7.0
49.62,3.871,4.692,15.0
51.868,4.055,4.606,37.0
51.926,4.068,4.319,34.0
60.079,4.716,4.659,26.0
49.107,3.879,5.192,24.0
43.031,3.406,4.305,15.0
51.46,4.08,4.858,5.0
60.672,4.82,5.378,26.0
51.923,4.134,4.309,43.0
60.182,4.801,4.655,34.0
49.831,4.0,5.259,25.0
43.036,3.46,4.297,32.0
49.245,3.967,4.638,23.0
60.566,4.888,5.355,13.0
51.936,4.199,4.298,41.0
59.828,4.846,4.614,24.0
49.294,4.017,5.191,8.0
43.012,3.511,4.284,30.0
49.062,4.012,4.609,23.0
59.307,4.859,5.229,11.0
51.928,4.262,4.284,22.0
51.944,4.272,3.992,16.0
50.056,4.141,5.257,9.0
42.827,3.548,4.254,27.0
49.428,4.103,4.628,23.0
59.329,4.933,5.213,30.0
59.661,4.969,4.904,20.0
51.871,4.328,3.97,42.0
43.137,3.621,4.516,23.0
42.632,3.583,4.22,32.0
48.766,4.106,4.55,16.0
59.65,5.03,5.221,34.0
51.747,4.37,4.236,24.0
51.845,4.386,3.951,36.0
43.156,3.672,4.503,33.0
42.634,3.634,4.205,24.0
51.521,4.398,4.788,14.0
59.386,5.077,5.175,27.0
51.729,4.43,4.214,45.0
51.806,4.444,3.927,38.0
42.976,3.707,4.466,34.0
42.641,3.684,4.188,21.0
51.482,4.454,4.763,25.0
51.661,4.476,4.48,18.0
51.773,4.492,4.196,18.0
51.821,4.504,3.906,39.0
42.985,3.756,4.448,20.0
42.796,3.745,4.184,28.0
51.528,4.515,4.744,26.0
51.657,4.532,4.457,27.0
51.829,4.554,4.176,16.0
51.865,4.563,3.886,15.0
42.781,3.785,4.407,29.0
42.809,3.792,4.165,24.0
51.498,4.568,4.716,25.0
59.204,5.258,5.079,33.0
51.819,4.609,4.15,23.0
51.885,4.621,3.861,19.0
42.888,3.84,4.396,33.0
42.671,3.826,4.129,28.0
51.564,4.628,4.695,13.0
59.062,5.307,5.036,24.0
51.822,4.663,4.123,30.0
51.952,4.681,3.838,12.0
42.893,3.885,4.373,34.0
42.689,3.871,4.107,11.0
43.418,3.942,3.929,17.0
59.243,5.385,5.017,7.0
51.83,4.716,4.094,43.0
59.213,5.396,4.34,33.0
42.909,3.93,4.349,26.0
53.726,4.926,5.137,7.0
43.433,3.986,3.904,14.0
52.841,4.856,4.443,9.0
51.948,4.779,4.072,25.0
59.009,5.435,4.289,34.0
42.781,3.961,4.309,34.0
43.43,4.025,4.125,23.0
59.491,5.518,5.31,8.0
42.915,3.985,3.581,25.0
42.797,3.978,3.327,12.0
58.632,5.457,4.224,28.0
42.777,4.001,4.28,31.0
43.428,4.066,4.096,31.0
59.394,5.565,5.262,14.0
42.886,4.022,3.55,26.0
59.176,5.556,4.56,18.0
58.63,5.511,4.183,29.0
42.8,4.042,4.253,26.0
43.371,4.099,4.061,17.0
59.242,5.605,5.207,11.0
42.819,4.055,3.514,22.0
58.813,5.575,4.49,32.0
58.69,5.569,4.146,28.0
42.753,4.076,4.217,20.0
43.384,4.139,4.03,17.0
43.243,4.129,3.768,16.0
51.826,4.953,4.214,15.0
58.827,5.627,4.447,32.0
58.66,5.616,4.1,31.0
43.29,4.164,4.237,19.0
52.588,5.062,4.844,26.0
43.332,4.174,3.743,15.0
51.828,4.997,4.174,21.0
58.593,5.653,4.384,28.0
58.524,5.652,4.045,27.0
43.606,4.23,4.233,24.0
51.978,5.046,4.746,10.0
43.36,4.212,3.71,24.0
59.27,5.762,4.726,7.0
58.558,5.697,4.334,27.0
58.513,5.698,3.996,25.0
43.507,4.255,4.187,25.0
51.992,5.088,4.705,13.0
59.289,5.806,5.024,10.0
59.237,5.804,4.674,28.0
58.516,5.738,4.282,26.0
58.454,5.736,3.943,30.0
43.435,4.281,4.143,34.0
43.507,4.289,3.9,11.0
51.823,5.113,4.347,12.0
59.165,5.84,4.617,31.0
58.292,5.758,4.215,27.0
58.302,5.763,3.882,27.0
43.404,4.308,4.101,32.0
43.488,4.318,3.859,9.0
51.764,5.143,4.296,22.0
58.954,5.86,4.548,28.0
58.22,5.791,4.157,28.0
58.25,5.798,3.826,27.0
43.387,4.336,4.06,27.0
58.885,5.887,5.171,8.0
51.719,5.173,4.244,18.0
58.829,5.887,4.484,33.0
58.218,5.829,4.104,29.0
58.236,5.834,3.771,32.0
43.363,4.361,4.017,24.0
51.871,5.219,4.506,25.0
59.008,5.939,4.787,22.0
58.799,5.921,4.426,22.0
58.205,5.864,4.046,26.0
57.964,5.842,3.698,31.0
43.326,4.383,3.971,25.0
51.853,5.248,4.454,42.0
58.539,5.927,4.691,33.0
58.812,5.957,4.368,33.0
58.162,5.893,3.986,30.0
58.004,5.88,3.643,31.0
51.832,5.274,4.698,6.0
51.699,5.261,4.388,25.0
58.258,5.93,4.61,32.0
58.868,5.994,4.313,25.0
57.891,5.898,3.909,31.0
57.892,5.9,3.577,29.0
51.851,5.303,4.647,11.0
51.665,5.285,4.332,20.0
58.617,5.997,4.577,32.0
58.857,6.023,4.251,28.0
57.755,5.913,3.84,31.0
57.756,5.915,3.508,27.0
43.206,4.44,3.826,31.0
51.848,5.328,4.293,19.0
58.954,6.06,4.541,33.0
58.627,6.027,4.173,33.0
57.682,5.931,3.774,30.0
57.815,5.947,3.451,31.0
43.183,4.456,3.778,36.0
58.252,6.012,4.76,20.0
59.265,6.117,4.501,30.0
58.381,6.027,4.092,32.0
57.63,5.951,3.708,26.0
57.941,5.984,3.396,28.0
51.528,5.338,4.451,12.0
58.151,6.024,4.688,28.0
59.241,6.138,4.434,25.0
58.169,6.028,4.013,32.0
57.657,5.975,3.646,28.0
57.963,6.008,3.334,24.0
51.54,5.358,4.395,6.0
58.181,6.048,4.626,32.0
58.828,6.115,4.338,23.0
57.916,6.021,3.931,32.0
57.746,6.004,3.587,28.0
57.959,6.027,3.268,24.0
58.176,6.066,4.894,21.0
58.239,6.072,4.564,32.0
58.748,6.125,4.265,30.0
57.729,6.019,3.852,32.0
57.739,6.021,3.521,31.0
57.982,6.047,3.203,26.0
58.182,6.083,4.827,26.0
58.62,6.128,4.525,33.0
58.635,6.129,4.188,32.0
57.659,6.027,3.781,30.0
57.906,6.052,3.464,31.0
58.117,6.075,3.142,26.0
58.101,6.088,4.753,29.0
58.808,6.161,4.471,33.0
58.309,6.108,4.096,32.0
57.761,6.05,3.72,32.0
57.986,6.073,3.401,26.0
58.338,6.11,3.086,30.0
58.119,6.101,4.685,29.0
58.923,6.184,4.41,27.0
58.052,6.092,4.01,31.0
57.799,6.064,3.652,30.0
58.0,6.085,3.332,31.0
58.32,6.118,3.016,28.0
58.18,6.116,4.62,25.0
58.983,6.198,4.343,16.0
57.746,6.067,3.919,31.0
57.776,6.069,3.582,28.0
57.991,6.091,3.262,31.0
58.232,6.116,2.941,25.0
58.42,6.147,4.568,33.0
58.96,6.202,4.269,15.0
57.606,6.058,3.839,30.0
57.815,6.078,3.514,29.0
57.99,6.095,3.191,29.0
58.335,6.131,2.875,27.0
58.684,6.179,4.515,32.0
58.545,6.162,4.166,33.0
57.691,6.07,3.773,30.0
58.005,6.101,3.453,32.0
58.248,6.125,3.132,32.0
58.629,6.164,2.816,24.0
58.82,6.194,4.452,23.0
58.18,6.124,4.068,24.0
57.778,6.079,3.706,31.0
58.014,6.102,3.382,32.0
58.452,6.146,3.07,31.0
58.736,6.174,2.748,22.0
59.151,6.227,4.402,15.0
57.918,6.095,3.976,32.0
57.767,6.076,3.632,25.0
58.024,6.1,3.308,32.0
58.278,6.125,2.987,29.0
58.656,6.163,2.67,26.0
47.811,3.807,1.549,18.0
47.529,3.774,1.27,12.0
47.533,3.764,0.999,0.0
47.986,3.789,0.731,2.0
35.227,2.775,0.337,0.0
29.568,2.322,0.115,1.0
47.468,3.71,1.487,7.0
47.439,3.696,1.217,16.0
47.465,3.688,0.947,2.0
0.0,0.0,0.0,0.0
33.118,2.559,0.282,0.0
28.288,2.179,0.08,1.0
47.377,3.631,1.435,8.0
47.403,3.622,1.166,12.0
47.466,3.616,0.898,1.0
0.0,0.0,0.0,0.0
32.483,2.46,0.243,0.0
27.748,2.095,0.05,1.0
47.322,3.554,1.385,15.0
0.0,0.0,0.0,0.0
51.272,3.826,0.918,2.0
37.729,2.807,0.457,0.0
31.623,2.345,0.204,0.0
27.184,2.01,0.021,0.0
47.314,3.479,1.337,18.0
47.454,3.477,1.072,1.0
51.648,3.773,0.874,2.0
36.427,2.652,0.406,1.0
30.362,2.203,0.166,1.0
26.486,1.916,-0.004,0.0
47.286,3.4,1.29,42.0
47.315,3.391,1.023,2.0
0.0,0.0,0.0,0.0
35.74,2.544,0.364,0.0
29.469,2.091,0.133,0.0
25.907,1.832,-0.029,0.0
47.269,3.322,1.245,165.0
47.299,3.312,0.978,3.0
45.376,3.167,0.681,0.0
33.649,2.34,0.311,0.0
28.871,2.0,0.104,1.0
25.428,1.756,-0.051,0.0
47.252,3.242,1.201,162.0
47.277,3.232,0.934,1.0
0.0,0.0,0.0,0.0
32.864,2.23,0.274,0.0
28.454,1.923,0.077,1.0
24.896,1.677,-0.073,0.0
47.244,3.161,1.158,155.0
50.898,3.392,0.96,2.0
38.717,2.571,0.512,0.0
32.499,2.149,0.243,0.0
27.639,1.821,0.05,0.0
24.605,1.615,-0.093,1.0
47.212,3.078,1.117,150.0
51.118,3.319,0.921,0.0
37.147,2.402,0.459,0.0
31.122,2.004,0.206,0.0
27.1,1.738,0.027,0.0
24.184,1.546,-0.112,0.0
47.308,3.002,1.08,3.0
53.219,3.363,0.915,0.0
47.244,2.973,0.545,1.0
30.182,1.891,0.175,0.0
26.691,1.665,0.004,0.0
23.745,1.475,-0.129,0.0
47.265,2.915,1.041,6.0
47.558,2.92,0.779,0.0
47.224,2.886,0.508,1.0
29.952,1.823,0.15,1.0
26.266,1.591,-0.016,0.0
23.176,1.398,-0.144,0.0
47.241,2.828,1.004,5.0
47.696,2.843,0.745,4.0
0.0,0.0,0.0,0.0
29.236,1.726,0.124,0.0
25.82,1.518,-0.034,0.0
22.941,1.342,-0.16,0.0
47.263,2.744,0.969,3.0
42.22,2.439,0.628,0.0
33.341,1.917,0.309,0.0
28.857,1.651,0.102,0.0
25.505,1.452,-0.052,0.0
22.249,1.261,-0.171,0.0
47.317,2.659,0.937,1.0
42.361,2.369,0.601,0.0
33.118,1.842,0.283,0.0
28.363,1.57,0.08,0.0
25.151,1.385,-0.069,0.0
21.982,1.205,-0.184,1.0
47.244,2.567,0.903,0.0
38.251,2.067,0.516,0.0
32.337,1.738,0.255,0.0
27.894,1.492,0.061,0.0
24.86,1.322,-0.085,0.0
21.804,1.154,-0.196,2.0
36.7,0.725,0.469,0.0
31.528,0.612,0.229,0.0
27.681,0.528,0.048,0.0
24.688,0.462,-0.094,0.0
21.857,0.402,-0.204,0.0
18.846,0.34,-0.28,0.0
36.363,0.642,0.463,0.0
31.224,0.54,0.226,0.0
27.608,0.468,0.047,0.0
24.678,0.409,-0.095,0.0
21.963,0.357,-0.205,0.0
18.792,0.299,-0.279,0.0
36.421,0.564,0.464,0.0
31.288,0.474,0.226,0.0
27.545,0.408,0.047,0.0
24.677,0.357,-0.095,0.0
21.745,0.307,-0.203,1.0
18.919,0.26,-0.28,0.0
36.603,0.489,0.467,0.0
31.439,0.41,0.228,0.0
27.828,0.353,0.049,0.0
24.824,0.306,-0.094,0.0
21.869,0.262,-0.203,2.0
18.883,0.219,-0.279,0.0
0.0,0.0,0.0,0.0
31.365,0.341,0.23,0.0
28.074,0.295,0.052,0.0
24.87,0.253,-0.092,0.0
21.958,0.215,-0.202,4.0
18.942,0.179,-0.278,0.0
36.426,0.33,0.471,0.0
31.794,0.277,0.237,0.0
28.32,0.237,0.056,1.0
24.85,0.199,-0.089,0.0
21.993,0.169,-0.199,3.0
19.0,0.139,-0.276,0.0
36.7,0.254,0.48,0.0
0.0,0.0,0.0,0.0
28.198,0.175,0.06,1.0
25.124,0.147,-0.086,0.0
21.969,0.121,-0.195,2.0
19.065,0.098,-0.274,0.0
0.0,0.0,0.0,0.0
31.696,0.14,0.247,0.0
28.403,0.116,0.066,1.0
25.096,0.093,-0.081,0.0
21.93,0.074,-0.19,1.0
19.176,0.058,-0.271,0.0
0.0,0.0,0.0,0.0
0.0,0.0,0.0,0.0
28.59,0.055,0.073,1.0
25.298,0.04,-0.075,0.0
22.038,0.027,-0.186,0.0
19.34,0.017,-0.268,0.0
37.576,0.02,0.516,0.0
32.97,0.006,0.273,0.0
28.521,-0.004,0.08,1.0
25.346,-0.013,-0.068,0.0
22.129,-0.019,-0.18,0.0
19.432,-0.023,-0.264,0.0
0.0,0.0,0.0,0.0
32.505,-0.063,0.279,1.0
28.735,-0.066,0.09,6.0
25.485,-0.067,-0.061,0.0
22.694,-0.068,-0.178,0.0
19.539,-0.065,-0.259,0.0
38.026,-0.14,0.546,0.0
32.889,-0.133,0.293,1.0
28.756,-0.126,0.099,6.0
25.805,-0.122,-0.053,0.0
22.892,-0.117,-0.171,0.0
19.634,-0.107,-0.253,0.0
0.0,0.0,0.0,0.0
32.703,-0.202,0.303,1.0
28.752,-0.188,0.11,7.0
25.801,-0.177,-0.043,0.0
22.885,-0.165,-0.162,0.0
19.95,-0.151,-0.25,0.0
39.867,-0.315,0.603,0.0
32.849,-0.271,0.318,1.0
28.756,-0.248,0.122,4.0
26.055,-0.234,-0.032,0.0
23.092,-0.215,-0.154,0.0
20.105,-0.195,-0.243,0.0
0.0,0.0,0.0,0.0
33.55,-0.348,0.34,0.0
28.799,-0.309,0.136,0.0
26.368,-0.292,-0.02,0.0
23.218,-0.266,-0.144,0.0
20.362,-0.24,-0.236,0.0
0.0,0.0,0.0,0.0
33.937,-0.423,0.36,0.0
0.0,0.0,0.0,0.0
26.619,-0.351,-0.007,0.0
23.54,-0.318,-0.134,0.0
20.81,-0.289,-0.231,0.0
43.436,-0.617,0.719,0.0
34.397,-0.501,0.383,0.0
30.146,-0.449,0.173,0.0
26.841,-0.41,0.006,0.0
23.867,-0.373,-0.123,0.0
21.077,-0.337,-0.222,0.0
0.0,0.0,0.0,0.0
0.0,0.0,0.0,0.0
31.145,-0.528,0.196,0.0
27.317,-0.473,0.022,0.0
24.432,-0.432,-0.112,0.0
21.626,-0.39,-0.216,0.0
0.0,0.0,0.0,0.0
0.0,0.0,0.0,0.0
31.417,-0.597,0.216,0.0
27.926,-0.541,0.039,0.0
24.632,-0.486,-0.098,1.0
22.022,-0.442,-0.206,0.0
0.0,0.0,0.0,0.0
0.0,0.0,0.0,0.0
31.584,-0.665,0.238,0.0
28.483,-0.61,0.058,2.0
25.094,-0.546,-0.083,0.0
22.213,-0.491,-0.193,0.0
0.0,0.0,0.0,0.0
0.0,0.0,0.0,0.0
32.374,-0.747,0.265,0.0
28.621,-0.671,0.077,6.0
25.59,-0.609,-0.067,0.0
22.55,-0.544,-0.181,0.0
0.0,0.0,0.0,0.0
0.0,0.0,0.0,0.0
33.005,-0.829,0.294,1.0
28.644,-0.729,0.098,7.0
25.891,-0.668,-0.05,0.0
23.017,-0.602,-0.168,0.0
0.0,0.0,0.0,0.0
0.0,0.0,0.0,0.0
33.344,-0.903,0.321,0.0
28.597,-0.785,0.119,0.0
26.2,-0.728,-0.031,0.0
23.288,-0.655,-0.152,0.0
0.0,0.0,0.0,0.0
0.0,0.0,0.0,0.0
34.2,-0.994,0.356,0.0
28.624,-0.842,0.141,0.0
26.917,-0.801,-0.011,0.0
23.543,-0.708,-0.135,0.0
0.0,0.0,0.0,0.0
0.0,0.0,0.0,0.0
34.947,-1.084,0.392,0.0
30.477,-0.956,0.175,0.0
27.161,-0.861,0.01,0.0
24.023,-0.77,-0.118,0.0
0.0,0.0,0.0,0.0
0.0,0.0,0.0,0.0
36.043,-1.188,0.434,0.0
30.787,-1.025,0.203,0.0
27.875,-0.937,0.034,0.0
24.731,-0.84,-0.101,0.0
0.0,0.0,0.0,0.0
0.0,0.0,0.0,0.0
0.0,0.0,0.0,0.0
31.385,-1.104,0.234,0.0
28.531,-1.013,0.06,4.0
0.0,0.0,0.0,0.0
0.0,0.0,0.0,0.0
0.0,0.0,0.0,0.0
0.0,0.0,0.0,0.0
32.272,-1.195,0.269,0.0
28.602,-1.069,0.086,7.0
25.851,-0.975,-0.059,0.0
0.0,0.0,0.0,0.0
0.0,0.0,0.0,0.0
39.235,-1.513,0.577,0.0
32.69,-1.271,0.303,0.0
28.645,-1.123,0.112,7.0
25.8,-1.02,-0.035,0.0
0.0,0.0,0.0,0.0
0.0,0.0,0.0,0.0
0.0,0.0,0.0,0.0
34.068,-1.387,0.348,0.0
28.673,-1.176,0.14,2.0
26.197,-1.083,-0.011,0.0
0.0,0.0,0.0,0.0
0.0,0.0,0.0,0.0
0.0,0.0,0.0,0.0
34.998,-1.488,0.392,0.0
30.633,-1.312,0.18,0.0
27.496,-1.186,0.015,0.0
0.0,0.0,0.0,0.0
0.0,0.0,0.0,0.0
0.0,0.0,0.0,0.0
36.426,-1.613,0.445,0.0
31.193,-1.391,0.215,0.0
28.361,-1.274,0.045,1.0
0.0,0.0,0.0,0.0
0.0,0.0,0.0,0.0
0.0,0.0,0.0,0.0
0.0,0.0,0.0,0.0
32.23,-1.494,0.257,0.0
28.476,-1.329,0.075,1.0
0.0,0.0,0.0,0.0
0.0,0.0,0.0,0.0
0.0,0.0,0.0,0.0
38.342,-1.832,0.55,0.0
32.935,-1.583,0.298,0.0
28.584,-1.383,0.107,1.0
0.0,0.0,0.0,0.0
0.0,0.0,0.0,0.0
0.0,0.0,0.0,0.0
0.0,0.0,0.0,0.0
0.0,0.0,0.0,0.0
30.486,-1.527,0.148,0.0
0.0,0.0,0.0,0.0
0.0,0.0,0.0,0.0
0.0,0.0,0.0,0.0
44.098,-2.255,0.731,1.0
35.693,-1.836,0.403,0.0
30.674,-1.587,0.183,0.0
109.367,-5.678,3.691,150.0
34.332,-1.792,0.976,0.0
34.282,-1.8,0.793,0.0
34.445,-1.818,0.611,2.0
34.634,-1.838,0.431,0.0
32.192,-1.718,0.23,1.0
34.243,-1.833,1.195,0.0
34.217,-1.841,1.013,155.0
34.16,-1.848,0.83,2.0
34.255,-1.863,0.648,0.0
34.653,-1.894,0.472,0.0
32.335,-1.777,0.269,0.0
34.231,-1.887,1.235,1.0
34.139,-1.891,1.051,182.0
34.114,-1.899,0.87,3.0
0.0,0.0,0.0,0.0
34.649,-1.948,0.513,0.0
34.183,-1.931,0.326,0.0
34.137,-1.935,1.273,1.0
34.127,-1.943,1.092,158.0
34.066,-1.949,0.91,4.0
0.0,0.0,0.0,0.0
34.32,-1.983,0.551,1.0
34.761,-2.018,0.374,0.0
34.05,-1.982,1.312,2.0
34.056,-1.991,1.132,14.0
34.015,-1.998,0.951,6.0
34.19,-2.017,0.772,0.0
34.121,-2.022,0.59,2.0
35.08,-2.088,0.421,2.0
34.069,-2.033,1.355,1.0
34.0,-2.038,1.173,4.0
34.0,-2.047,0.993,9.0
33.975,-2.054,0.81,1.0
33.991,-2.064,0.63,0.0
34.837,-2.124,0.463,1.0
34.233,-2.093,1.406,0.0
34.023,-2.088,1.217,3.0
33.968,-2.094,1.036,150.0
33.942,-2.101,0.853,7.0
34.004,-2.113,0.675,0.0
34.683,-2.164,0.505,4.0
34.312,-2.147,1.454,1.0
33.975,-2.134,1.26,5.0
33.926,-2.139,1.079,97.0
33.931,-2.147,0.896,14.0
34.01,-2.161,0.719,0.0
34.287,-2.187,0.544,2.0
34.486,-2.205,1.506,0.0
33.937,-2.178,1.303,12.0
33.907,-2.184,1.123,23.0
33.903,-2.192,0.94,26.0
33.953,-2.203,0.763,0.0
34.006,-2.215,0.585,0.0
0.0,0.0,0.0,0.0
33.931,-2.223,1.347,9.0
33.897,-2.229,1.167,9.0
33.897,-2.236,0.986,37.0
33.878,-2.243,0.807,2.0
33.932,-2.255,0.629,0.0
34.685,-2.31,1.607,0.0
34.029,-2.273,1.397,1.0
33.925,-2.274,1.214,4.0
33.876,-2.278,1.03,43.0
33.875,-2.286,0.852,14.0
33.963,-2.299,0.676,0.0
34.782,-2.36,1.659,0.0
34.176,-2.326,1.45,0.0
33.915,-2.316,1.26,10.0
33.846,-2.319,1.076,51.0
33.872,-2.328,0.898,34.0
33.864,-2.335,0.72,2.0
0.0,0.0,0.0,0.0
0.0,0.0,0.0,0.0
33.875,-2.354,1.305,39.0
33.853,-2.36,1.123,44.0
33.883,-2.369,0.945,57.0
33.885,-2.377,0.767,154.0
0.0,0.0,0.0,0.0
0.0,0.0,0.0,0.0
33.861,-2.393,1.352,16.0
33.855,-2.4,1.17,10.0
33.872,-2.408,0.993,74.0
33.886,-2.416,0.816,152.0
0.0,0.0,0.0,0.0
0.0,0.0,0.0,0.0
33.966,-2.44,1.404,0.0
33.867,-2.439,1.219,9.0
33.848,-2.444,1.04,78.0
33.837,-2.451,0.862,28.0
0.0,0.0,0.0,0.0
34.836,-2.534,1.673,0.0
34.271,-2.499,1.466,0.0
33.84,-2.474,1.266,32.0
33.838,-2.48,1.087,81.0
33.855,-2.488,0.91,60.0
190.179,-14.007,10.413,8.0
0.0,0.0,0.0,0.0
0.0,0.0,0.0,0.0
33.833,-2.509,1.314,54.0
33.809,-2.513,1.135,38.0
33.836,-2.522,0.959,113.0
190.229,-14.208,10.689,12.0
0.0,0.0,0.0,0.0
0.0,0.0,0.0,0.0
33.858,-2.545,1.363,8.0
33.847,-2.55,1.185,7.0
33.842,-2.555,1.007,104.0
190.276,-14.399,10.964,12.0
193.54,-14.677,10.133,9.0
0.0,0.0,0.0,0.0
34.013,-2.59,1.419,0.0
33.841,-2.582,1.234,18.0
33.81,-2.585,1.055,107.0
193.811,-14.851,11.45,4.0
193.772,-14.878,10.428,15.0
34.829,-2.679,1.69,0.0
34.079,-2.626,1.471,0.0
33.835,-2.613,1.283,66.0
33.814,-2.616,1.104,82.0
209.081,-16.212,12.659,8.0
193.52,-15.033,10.698,18.0
35.025,-2.725,1.751,0.0
34.56,-2.694,1.543,0.0
33.824,-2.642,1.332,38.0
33.806,-2.645,1.154,18.0
208.646,-16.36,12.94,24.0
0.0,0.0,0.0,0.0
200.379,-15.766,10.317,10.0
0.0,0.0,0.0,0.0
33.907,-2.676,1.385,1.0
33.816,-2.674,1.204,24.0
208.66,-16.534,13.25,14.0
195.256,-15.496,11.37,6.0
200.254,-15.918,10.604,18.0
34.815,-2.772,1.657,0.0
0.0,0.0,0.0,0.0
33.845,-2.703,1.255,57.0
208.485,-16.686,13.547,16.0
209.398,-16.781,12.503,9.0
200.264,-16.073,10.903,50.0
34.819,-2.798,1.709,0.0
34.287,-2.76,1.502,0.0
33.812,-2.726,1.304,74.0
149.278,-12.061,9.926,9.0
208.672,-16.879,12.774,19.0
200.137,-16.21,11.195,21.0
0.0,0.0,0.0,0.0
34.484,-2.8,1.562,0.0
33.809,-2.749,1.354,9.0
149.988,-12.221,10.194,13.0
208.632,-17.02,13.079,18.0
200.197,-16.351,11.495,18.0
200.216,-16.373,10.423,25.0
0.0,0.0,0.0,0.0
34.116,-2.796,1.417,0.0
147.308,-12.101,10.234,10.0
149.209,-12.271,9.579,9.0
209.208,-17.221,12.326,12.0
200.158,-16.495,10.716,29.0
34.736,-2.865,1.676,0.0
0.0,0.0,0.0,0.0
146.79,-12.149,10.417,10.0
149.943,-12.422,9.849,15.0
209.167,-17.342,12.634,10.0
151.962,-12.612,8.361,11.0
0.0,0.0,0.0,0.0
0.0,0.0,0.0,0.0
146.652,-12.221,10.625,5.0
148.19,-12.359,9.954,15.0
208.539,-17.406,12.906,15.0
209.354,-17.489,11.83,6.0
151.988,-12.708,7.788,88.0
0.0,0.0,0.0,0.0
145.351,-12.189,10.747,15.0
154.486,-12.965,10.606,5.0
149.694,-12.572,9.487,23.0
151.977,-12.773,8.815,4.0
151.98,-12.783,8.015,150.0
34.579,-2.91,1.641,0.0
145.533,-12.276,10.978,9.0
146.114,-12.331,10.248,13.0
148.272,-12.521,9.616,4.0
151.934,-12.839,9.035,14.0
151.959,-12.848,8.236,150.0
34.882,-2.951,1.707,0.0
146.06,-12.385,11.235,9.0
152.267,-12.917,10.907,10.0
146.861,-12.465,9.742,5.0
151.919,-12.9,9.259,9.0
151.962,-12.911,8.46,35.0
151.977,-12.918,7.659,51.0
145.503,-12.395,11.407,12.0
146.866,-12.516,10.735,3.0
146.146,-12.46,9.909,4.0
148.903,-12.699,9.293,12.0
209.188,-17.848,11.952,8.0
151.967,-12.972,7.88,150.0
145.306,-12.43,11.605,17.0
145.627,-12.461,10.857,6.0
146.092,-12.504,10.119,14.0
148.39,-12.703,9.477,13.0
209.156,-17.911,12.254,18.0
151.961,-13.018,8.102,150.0
145.28,-12.474,11.816,6.0
145.504,-12.493,11.062,6.0
146.195,-12.555,10.338,9.0
147.073,-12.633,9.607,9.0
209.128,-17.966,12.555,14.0
151.986,-13.06,8.32,102.0
145.794,-12.555,12.067,8.0
145.499,-12.531,11.269,12.0
146.714,-12.636,10.585,10.0
147.036,-12.665,9.815,13.0
149.007,-12.835,9.157,13.0
209.202,-18.023,11.752,15.0
145.643,-12.576,12.266,12.0
145.253,-12.54,11.46,15.0
146.821,-12.675,10.805,3.0
146.81,-12.674,10.011,14.0
148.665,-12.834,9.349,19.0
209.311,-18.069,12.058,10.0
0.0,0.0,0.0,0.0
145.157,-12.556,11.66,14.0
145.602,-12.593,10.922,9.0
146.185,-12.642,10.174,14.0
148.258,-12.82,9.533,8.0
185.398,-16.029,10.942,21.0
151.564,-13.134,13.199,4.0
144.925,-12.556,11.847,3.0
145.96,-12.642,11.156,9.0
146.631,-12.696,10.413,15.0
147.212,-12.744,9.674,4.0
185.393,-16.047,11.201,18.0
145.755,-12.645,12.899,12.0
145.631,-12.629,12.111,9.0
145.162,-12.583,11.299,11.0
146.364,-12.684,10.599,10.0
146.983,-12.733,9.863,7.0
148.861,-12.892,9.198,18.0
145.761,-12.653,13.101,7.0
145.541,-12.627,12.304,10.0
145.153,-12.588,11.498,18.0
144.785,-12.551,10.682,4.0
146.055,-12.655,9.999,14.0
148.509,-12.863,9.379,14.0
147.013,-12.763,13.416,4.0
0.0,0.0,0.0,0.0
144.945,-12.568,11.678,14.0
145.4,-12.6,10.926,11.0
146.122,-12.656,10.204,10.0
148.38,-12.845,9.573,5.0
149.98,-13.015,13.891,2.0
145.939,-12.655,12.736,9.0
144.701,-12.539,11.856,3.0
146.084,-12.651,11.174,9.0
146.611,-12.688,10.433,14.0
147.035,-12.719,9.68,9.0
0.0,0.0,0.0,0.0
145.825,-12.633,12.919,11.0
145.642,-12.608,12.124,11.0
145.358,-12.573,11.309,9.0
146.54,-12.667,10.62,8.0
147.031,-12.701,9.872,10.0
145.555,-12.602,13.868,15.0
146.984,-12.715,13.217,3.0
145.751,-12.597,12.326,7.0
145.194,-12.538,11.489,15.0
145.44,-12.55,10.731,2.0
146.299,-12.614,10.014,10.0
145.555,-12.58,14.06,19.0
0.0,0.0,0.0,0.0
0.0,0.0,0.0,0.0
145.051,-12.5,11.663,14.0
145.509,-12.528,10.922,9.0
146.154,-12.571,10.192,12.0
145.527,-12.548,14.245,17.0
144.798,-12.472,13.394,13.0
146.037,-12.565,12.725,12.0
145.558,-12.511,11.889,4.0
145.515,-12.494,11.107,4.0
0.0,0.0,0.0,0.0
145.359,-12.497,14.414,18.0
144.869,-12.44,13.586,16.0
145.647,-12.494,12.876,5.0
145.739,-12.487,12.087,12.0
145.482,-12.451,11.286,9.0
152.235,-13.015,10.996,3.0
145.21,-12.444,14.581,16.0
145.105,-12.419,13.789,15.0
145.035,-12.396,13.003,11.0
145.922,-12.457,12.283,5.0
145.469,-12.404,11.464,12.0
145.473,-12.389,10.685,4.0
145.125,-12.389,14.751,16.0
145.819,-12.432,14.034,13.0
145.018,-12.348,13.174,12.0
146.307,-12.44,12.491,4.0
145.412,-12.348,11.634,9.0
145.486,-12.339,10.858,13.0
145.466,-12.366,14.96,11.0
145.726,-12.37,14.199,18.0
144.963,-12.287,13.344,13.0
145.354,-12.303,12.581,12.0
145.222,-12.274,11.79,10.0
145.82,-12.309,11.054,12.0
146.573,-12.401,15.247,11.0
145.596,-12.299,14.358,14.0
144.959,-12.226,13.511,13.0
145.289,-12.235,12.744,15.0
154.079,-12.957,12.684,4.0
145.844,-12.247,11.222,15.0
147.607,-12.424,15.524,7.0
145.661,-12.24,14.528,13.0
144.878,-12.154,13.667,15.0
145.544,-12.191,12.929,12.0
146.37,-12.241,12.213,14.0
146.171,-12.205,11.409,14.0
147.642,-12.357,15.693,7.0
145.726,-12.176,14.697,11.0
144.683,-12.067,13.808,14.0
145.215,-12.091,13.059,14.0
146.253,-12.157,12.363,12.0
146.572,-12.165,11.598,17.0
146.627,-12.197,15.744,10.0
146.704,-12.182,14.954,12.0
144.573,-11.983,13.952,14.0
144.981,-11.996,13.19,19.0
145.975,-12.057,12.491,12.0
145.316,-11.98,11.652,5.0
149.104,-12.321,16.168,4.0
146.79,-12.106,15.119,15.0
144.652,-11.908,14.112,5.0
144.878,-11.903,13.334,14.0
145.8,-11.957,12.628,13.0
145.542,-11.914,11.819,14.0
148.733,-12.203,16.282,11.0
146.706,-12.013,15.259,11.0
145.778,-11.913,14.37,9.0
144.83,-11.812,13.475,13.0
145.503,-11.843,12.75,11.0
145.593,-11.83,11.967,12.0
148.387,-12.082,16.393,14.0
146.493,-11.903,15.384,13.0
145.699,-11.813,14.507,17.0
144.956,-11.728,13.63,12.0
145.428,-11.744,12.883,17.0
146.121,-11.777,12.151,13.0
148.67,-12.008,16.569,12.0
146.534,-11.81,15.529,5.0
148.181,-11.917,14.895,3.0
145.034,-11.637,13.774,15.0
145.562,-11.654,13.033,17.0
145.62,-11.636,12.247,14.0
148.847,-11.921,16.728,14.0
149.043,-11.908,15.935,5.0
145.855,-11.627,14.796,5.0
145.711,-11.589,13.971,15.0
146.364,-11.614,13.238,4.0
145.913,-11.554,12.402,12.0
148.695,-11.801,16.846,10.0
148.347,-11.745,15.993,5.0
145.737,-11.511,14.914,12.0
145.589,-11.472,14.088,20.0
146.503,-11.517,13.377,10.0
145.727,-11.431,12.512,13.0
151.243,-11.89,17.265,5.0
150.939,-11.835,16.403,8.0
148.305,-11.601,15.302,9.0
145.708,-11.371,14.221,13.0
147.989,-11.52,13.636,5.0
145.65,-11.312,12.626,19.0
0.0,0.0,0.0,0.0
150.722,-11.7,16.503,5.0
148.063,-11.466,15.398,12.0
145.84,-11.265,14.353,13.0
119.112,-9.176,11.071,6.0
145.55,-11.187,12.733,13.0
0.0,0.0,0.0,0.0
148.66,-11.418,16.396,4.0
148.018,-11.338,15.511,16.0
145.929,-11.15,14.475,10.0
147.552,-11.245,13.828,4.0
119.285,-9.067,10.527,10.0
0.0,0.0,0.0,0.0
148.811,-11.303,16.526,11.0
148.278,-11.231,15.65,13.0
146.079,-11.033,14.6,11.0
147.32,-11.099,13.915,9.0
119.226,-8.959,10.607,8.0
148.327,-11.134,16.58,15.0
150.757,-11.284,16.02,5.0
0.0,0.0,0.0,0.0
146.737,-10.923,13.962,12.0
119.193,-8.849,10.687,12.0
148.554,-11.017,16.706,13.0
148.581,-10.988,15.887,12.0
146.157,-10.776,14.808,12.0
146.831,-10.795,14.068,13.0
119.328,-8.748,10.777,8.0
90.278,-6.61,10.212,2.0
148.267,-10.824,15.95,14.0
91.019,-6.626,9.278,14.0
90.504,-6.568,8.727,5.0
119.504,-8.647,10.866,13.0
90.43,-6.534,10.283,12.0
148.713,-10.713,16.087,14.0
146.382,-10.512,15.01,13.0
90.771,-6.499,8.806,7.0
119.144,-8.506,10.901,16.0
90.316,-6.437,10.322,6.0
148.706,-10.565,16.169,8.0
146.231,-10.356,15.075,15.0
90.751,-6.407,8.854,9.0
117.058,-8.239,10.774,7.0
89.857,-6.312,10.317,16.0
90.091,-6.309,9.843,10.0
147.546,-10.299,15.286,7.0
90.681,-6.307,8.893,15.0
117.222,-8.129,10.848,11.0
89.452,-6.191,10.314,26.0
90.221,-6.223,9.901,24.0
148.127,-10.185,15.416,9.0
90.825,-6.223,8.949,28.0
91.175,-6.227,8.479,8.0
89.358,-6.089,10.344,25.0
90.183,-6.124,9.937,14.0
147.116,-9.956,15.376,5.0
90.935,-6.134,8.998,22.0
91.162,-6.129,8.515,32.0
89.921,-6.052,10.949,12.0
89.318,-5.99,10.375,29.0
89.418,-5.976,9.887,16.0
97.906,-6.52,10.27,11.0
90.954,-6.036,9.035,29.0
91.229,-6.033,8.555,12.0
90.0,-5.958,10.992,9.0
89.554,-5.907,10.436,28.0
89.481,-5.88,9.927,28.0
97.89,-6.41,10.302,15.0
91.253,-5.954,9.096,15.0
90.85,-5.907,8.55,21.0
90.412,-5.884,11.072,8.0
89.829,-5.824,10.497,24.0
89.666,-5.791,9.976,33.0
97.906,-6.3,10.334,16.0
91.367,-5.859,9.134,26.0
90.829,-5.803,8.574,20.0
12.808,-0.332,-0.504,0.0
11.963,-0.313,-0.54,0.0
11.255,-0.297,-0.573,0.0
10.549,-0.28,-0.599,0.0
9.925,-0.266,-0.622,0.0
0.0,0.0,0.0,0.0
12.543,-0.342,-0.512,0.0
11.775,-0.323,-0.549,0.0
11.115,-0.308,-0.582,0.0
10.389,-0.29,-0.605,0.0
9.872,-0.277,-0.633,0.0
9.336,-0.265,-0.652,0.0
12.369,-0.353,-0.522,0.0
11.592,-0.334,-0.557,0.0
10.805,-0.314,-0.581,0.0
10.223,-0.299,-0.61,0.0
0.0,0.0,0.0,0.0
9.173,-0.272,-0.654,0.0
12.187,-0.365,-0.532,0.0
11.433,-0.345,-0.565,0.0
10.76,-0.327,-0.594,0.0
10.191,-0.312,-0.622,0.0
9.541,-0.294,-0.638,0.0
9.053,-0.281,-0.658,0.0
11.928,-0.373,-0.537,0.0
11.224,-0.354,-0.57,0.0
10.556,-0.335,-0.597,0.0
10.008,-0.32,-0.625,0.0
9.445,-0.304,-0.644,0.0
9.013,-0.292,-0.667,0.0
11.796,-0.385,-0.546,0.0
11.063,-0.364,-0.576,0.0
10.363,-0.343,-0.6,0.0
0.0,0.0,0.0,0.0
9.328,-0.313,-0.648,0.0
8.884,-0.301,-0.669,0.0
11.631,-0.396,-0.554,0.0
10.877,-0.373,-0.58,0.0
10.265,-0.354,-0.607,0.0
9.613,-0.334,-0.625,0.0
9.234,-0.323,-0.654,0.0
8.788,-0.31,-0.673,0.0
11.491,-0.408,-0.561,0.0
10.82,-0.387,-0.591,0.0
10.14,-0.365,-0.612,0.0
0.0,0.0,0.0,0.0
9.147,-0.334,-0.659,0.0
8.683,-0.319,-0.676,0.0
11.325,-0.418,-0.567,0.0
10.702,-0.398,-0.597,0.0
10.075,-0.377,-0.62,0.0
9.593,-0.361,-0.647,0.0
9.002,-0.341,-0.659,0.0
8.653,-0.33,-0.684,0.0
11.121,-0.427,-0.57,0.0
10.569,-0.408,-0.602,0.0
10.0,-0.389,-0.627,0.0
9.466,-0.37,-0.649,0.0
8.953,-0.352,-0.666,0.0
8.537,-0.338,-0.684,0.0
11.033,-0.439,-0.578,0.0
10.354,-0.415,-0.602,0.0
9.835,-0.396,-0.628,0.0
0.0,0.0,0.0,0.0
8.837,-0.361,-0.667,0.0
8.512,-0.35,-0.692,0.0
10.852,-0.448,-0.58,0.0
10.265,-0.426,-0.608,0.0
9.706,-0.406,-0.63,0.0
9.242,-0.388,-0.654,0.0
8.747,-0.37,-0.67,0.0
8.39,-0.357,-0.691,0.0
10.77,-0.46,-0.587,0.0
10.19,-0.438,-0.614,0.0
9.656,-0.418,-0.637,0.0
9.155,-0.398,-0.657,0.0
8.696,-0.381,-0.675,0.0
8.274,-0.364,-0.69,0.0
10.618,-0.47,-0.589,0.0
10.055,-0.447,-0.616,0.0
0.0,0.0,0.0,0.0
9.044,-0.407,-0.659,0.0
8.605,-0.39,-0.676,0.0
8.283,-0.377,-0.699,0.0
10.555,-0.483,-0.596,0.0
9.968,-0.458,-0.62,0.0
9.452,-0.437,-0.642,0.0
0.0,0.0,0.0,0.0
8.558,-0.4,-0.681,0.0
8.208,-0.386,-0.7,0.0
10.427,-0.492,-0.598,0.0
9.906,-0.471,-0.625,0.0
9.354,-0.447,-0.644,0.0
0.0,0.0,0.0,0.0
8.437,-0.408,-0.679,0.0
8.135,-0.395,-0.701,0.0
9.76,-0.919,-0.629,0.0
9.308,-0.879,-0.651,0.0
0.0,0.0,0.0,0.0
8.392,-0.797,-0.68,0.0
8.076,-0.769,-0.699,0.0
0.0,0.0,0.0,0.0
0.0,0.0,0.0,0.0
9.324,-0.891,-0.648,0.0
8.84,-0.847,-0.663,0.0
8.434,-0.81,-0.68,0.0
8.147,-0.784,-0.702,0.0
7.752,-0.748,-0.71,0.0
9.79,-0.944,-0.621,0.0
0.0,0.0,0.0,0.0
8.907,-0.863,-0.663,0.0
8.476,-0.823,-0.678,0.0
8.173,-0.796,-0.699,0.0
7.829,-0.764,-0.713,0.0
0.0,0.0,0.0,0.0
0.0,0.0,0.0,0.0
8.914,-0.873,-0.659,0.0
8.494,-0.834,-0.675,0.0
8.196,-0.807,-0.697,0.0
7.837,-0.774,-0.709,0.0
9.871,-0.973,-0.615,0.0
0.0,0.0,0.0,0.0
0.0,0.0,0.0,0.0
8.575,-0.851,-0.676,0.0
8.235,-0.819,-0.695,0.0
7.934,-0.791,-0.713,0.0
10.04,-1.0,-0.619,0.0
0.0,0.0,0.0,0.0
8.966,-0.897,-0.651,0.0
8.618,-0.864,-0.674,0.0
8.246,-0.829,-0.691,0.0
7.929,-0.799,-0.707,0.0
10.136,-1.02,-0.619,0.0
0.0,0.0,0.0,0.0
0.0,0.0,0.0,0.0
8.686,-0.879,-0.674,0.0
8.295,-0.842,-0.689,0.0
7.98,-0.811,-0.707,0.0
0.0,0.0,0.0,0.0
9.579,-0.975,-0.63,0.0
0.0,0.0,0.0,0.0
8.718,-0.891,-0.67,0.0
8.37,-0.857,-0.689,0.0
7.978,-0.819,-0.701,0.0
0.0,0.0,0.0,0.0
0.0,0.0,0.0,0.0
9.149,-0.941,-0.645,0.0
8.743,-0.901,-0.665,0.0
8.387,-0.866,-0.684,0.0
8.058,-0.834,-0.702,0.0
0.0,0.0,0.0,0.0
0.0,0.0,0.0,0.0
0.0,0.0,0.0,0.0
8.833,-0.918,-0.666,0.0
8.418,-0.877,-0.68,0.0
8.029,-0.838,-0.693,0.0
10.349,-1.079,-0.601,0.0
9.784,-1.022,-0.622,0.0
0.0,0.0,0.0,0.0
8.899,-0.933,-0.663,0.0
8.509,-0.893,-0.681,0.0
8.147,-0.857,-0.696,0.0
10.474,-1.1,-0.6,0.0
0.0,0.0,0.0,0.0
0.0,0.0,0.0,0.0
0.0,0.0,0.0,0.0
8.558,-0.905,-0.677,0.0
8.209,-0.87,-0.695,0.0
10.476,-1.109,-0.591,0.0
0.0,0.0,0.0,0.0
9.536,-1.013,-0.642,0.0
0.0,0.0,0.0,0.0
8.611,-0.918,-0.674,0.0
8.234,-0.879,-0.69,0.0
10.571,-1.127,-0.588,0.0
10.025,-1.07,-0.612,0.0
9.6,-1.026,-0.638,0.0
0.0,0.0,0.0,0.0
8.654,-0.928,-0.67,0.0
8.313,-0.893,-0.689,0.0
10.719,-1.15,-0.586,0.0
0.0,0.0,0.0,0.0
9.623,-1.036,-0.63,0.0
0.0,0.0,0.0,0.0
8.772,-0.947,-0.671,0.0
8.39,-0.907,-0.687,0.0
10.809,-1.167,-0.581,0.0
10.201,-1.103,-0.604,0.0
0.0,0.0,0.0,0.0
0.0,0.0,0.0,0.0
8.815,-0.957,-0.666,0.0
8.433,-0.917,-0.683,0.0
10.875,-1.181,-0.574,0.0
10.376,-1.128,-0.604,0.0
0.0,0.0,0.0,0.0
0.0,0.0,0.0,0.0
8.88,-0.969,-0.662,0.0
8.53,-0.933,-0.682,0.0
10.977,-1.199,-0.569,0.0
10.47,-1.145,-0.599,0.0
9.932,-1.087,-0.622,0.0
0.0,0.0,0.0,0.0
8.988,-0.986,-0.661,0.0
8.556,-0.94,-0.676,0.0
11.172,-1.226,-0.568,0.0
10.473,-1.15,-0.589,0.0
9.96,-1.095,-0.614,0.0
0.0,0.0,0.0,0.0
0.0,0.0,0.0,0.0
8.647,-0.955,-0.674,0.0
11.279,-1.243,-0.562,0.0
10.631,-1.173,-0.587,0.0
10.083,-1.114,-0.611,0.0
0.0,0.0,0.0,0.0
9.169,-1.015,-0.656,0.0
8.71,-0.966,-0.67,0.0
11.431,-1.265,-0.558,0.0
10.712,-1.187,-0.581,0.0
10.247,-1.137,-0.61,0.0
0.0,0.0,0.0,0.0
0.0,0.0,0.0,0.0
8.792,-0.978,-0.667,0.0
11.585,-1.288,-0.553,0.0
10.911,-1.214,-0.58,0.0
10.299,-1.147,-0.603,0.0
0.0,0.0,0.0,0.0
0.0,0.0,0.0,0.0
8.891,-0.993,-0.665,0.0
11.705,-1.305,-0.546,0.0
11.093,-1.238,-0.577,0.0
10.4,-1.162,-0.597,0.0
0.0,0.0,0.0,0.0
0.0,0.0,0.0,0.0
8.944,-1.002,-0.659,0.0
11.821,-1.322,-0.539,0.0
11.19,-1.253,-0.57,0.0
10.564,-1.183,-0.595,0.0
0.0,0.0,0.0,0.0
0.0,0.0,0.0,0.0
9.08,-1.02,-0.659,0.0
11.978,-1.344,-0.533,0.0
11.337,-1.272,-0.565,0.0
10.73,-1.205,-0.592,0.0
10.084,-1.133,-0.612,0.0
0.0,0.0,0.0,0.0
9.114,-1.026,-0.651,0.0
12.188,-1.37,-0.528,0.0
11.431,-1.286,-0.557,0.0
10.874,-1.224,-0.588,0.0
10.23,-1.152,-0.609,0.0
0.0,0.0,0.0,0.0
0.0,0.0,0.0,0.0
12.301,-1.385,-0.519,0.0
11.592,-1.306,-0.551,0.0
10.903,-1.229,-0.577,0.0
0.0,0.0,0.0,0.0
0.0,0.0,0.0,0.0
9.356,-1.057,-0.646,0.0
12.44,-1.403,-0.51,0.0
11.702,-1.321,-0.543,0.0
11.099,-1.253,-0.574,0.0
10.473,-1.183,-0.599,0.0
9.883,-1.117,-0.618,0.0
0.0,0.0,0.0,0.0
12.688,-1.433,-0.505,0.0
11.888,-1.343,-0.537,0.0
11.267,-1.273,-0.569,0.0
10.587,-1.197,-0.593,0.0
9.987,-1.129,-0.613,0.0
0.0,0.0,0.0,0.0
12.834,-1.45,-0.496,0.0
12.126,-1.371,-0.533,0.0
11.339,-1.282,-0.559,0.0
0.0,0.0,0.0,0.0
10.22,-1.156,-0.615,0.0
0.0,0.0,0.0,0.0
13.128,-1.484,-0.492,0.0
12.244,-1.384,-0.524,0.0
11.528,-1.304,-0.555,0.0
10.955,-1.239,-0.587,0.0
10.26,-1.161,-0.604,0.0
0.0,0.0,0.0,0.0
13.235,-1.496,-0.48,0.0
12.451,-1.408,-0.518,0.0
11.7,-1.323,-0.549,0.0
10.996,-1.243,-0.576,0.0
10.454,-1.182,-0.603,0.0
0.0,0.0,0.0,0.0
19.059,-2.019,-0.287,0.0
17.028,-1.801,-0.346,0.0
15.492,-1.636,-0.398,0.0
14.249,-1.502,-0.443,0.0
13.234,-1.394,-0.482,0.0
12.435,-1.308,-0.519,0.0
19.503,-2.05,-0.27,0.0
17.317,-1.817,-0.331,0.0
15.763,-1.651,-0.385,0.0
14.548,-1.522,-0.434,0.0
13.581,-1.418,-0.478,0.0
12.695,-1.324,-0.514,0.0
19.997,-2.084,-0.252,0.0
17.56,-1.827,-0.315,0.0
16.193,-1.682,-0.376,0.0
14.824,-1.537,-0.425,0.0
13.774,-1.426,-0.468,0.0
12.852,-1.328,-0.505,0.0
20.739,-2.142,-0.236,0.0
18.109,-1.867,-0.303,0.0
16.611,-1.71,-0.366,0.0
15.085,-1.55,-0.414,0.0
13.98,-1.434,-0.458,0.0
13.041,-1.335,-0.497,0.0
21.462,-2.197,-0.219,0.0
18.861,-1.927,-0.293,0.0
16.847,-1.718,-0.351,0.0
15.348,-1.562,-0.403,0.0
14.169,-1.44,-0.447,0.0
13.248,-1.344,-0.489,0.0
22.281,-2.259,-0.202,0.0
19.391,-1.962,-0.278,0.0
17.256,-1.742,-0.339,0.0
15.687,-1.581,-0.394,0.0
14.417,-1.45,-0.438,0.0
13.451,-1.35,-0.481,0.0
22.575,-2.265,-0.178,0.0
19.726,-1.975,-0.26,0.0
17.6,-1.758,-0.326,0.0
15.975,-1.593,-0.382,0.0
14.722,-1.465,-0.431,0.0
13.67,-1.357,-0.473,0.0
23.32,-2.314,-0.157,1.0
20.421,-2.022,-0.246,0.0
17.898,-1.768,-0.311,0.0
16.37,-1.614,-0.373,0.0
14.897,-1.466,-0.419,0.0
13.878,-1.362,-0.464,0.0
23.44,-2.3,-0.131,0.0
20.975,-2.053,-0.229,0.0
18.333,-1.791,-0.298,0.0
16.687,-1.626,-0.361,0.0
15.248,-1.483,-0.412,0.0
14.076,-1.366,-0.455,0.0
24.38,-2.364,-0.109,0.0
21.959,-2.124,-0.215,0.0
19.006,-1.834,-0.287,0.0
17.013,-1.638,-0.35,0.0
15.557,-1.494,-0.403,0.0
14.285,-1.369,-0.446,0.0
25.407,-2.433,-0.086,0.0
22.408,-2.14,-0.195,1.0
19.454,-1.853,-0.273,0.0
17.304,-1.644,-0.337,0.0
15.776,-1.495,-0.391,0.0
14.501,-1.371,-0.437,0.0
25.656,-2.425,-0.058,0.0
22.797,-2.149,-0.174,1.0
19.874,-1.868,-0.257,0.0
17.612,-1.651,-0.324,0.0
16.019,-1.498,-0.38,0.0
14.725,-1.374,-0.428,0.0
26.368,-2.458,-0.032,0.0
23.256,-2.162,-0.152,1.0
20.68,-1.917,-0.245,0.0
17.946,-1.659,-0.31,0.0
16.427,-1.515,-0.372,0.0
14.942,-1.374,-0.418,0.0
27.225,-2.502,-0.004,0.0
23.564,-2.159,-0.129,0.0
21.016,-1.92,-0.228,1.0
18.406,-1.677,-0.299,0.0
16.742,-1.521,-0.362,0.0
15.275,-1.384,-0.412,0.0
27.558,-2.495,0.023,0.0
0.0,0.0,0.0,0.0
21.598,-1.944,-0.212,1.0
19.009,-1.706,-0.29,0.0
16.966,-1.518,-0.349,0.0
15.475,-1.38,-0.402,0.0
28.337,-2.526,0.052,0.0
25.279,-2.247,-0.088,0.0
22.233,-1.97,-0.196,1.0
19.462,-1.719,-0.278,0.0
17.248,-1.519,-0.338,0.0
15.69,-1.377,-0.392,0.0
28.98,-2.543,0.081,0.0
25.652,-2.243,-0.064,0.0
22.895,-1.995,-0.18,1.0
19.688,-1.71,-0.262,0.0
17.599,-1.524,-0.328,0.0
15.955,-1.377,-0.383,0.0
29.167,-2.516,0.11,0.0
26.214,-2.254,-0.041,0.0
23.197,-1.988,-0.16,2.0
20.655,-1.764,-0.255,0.0
17.817,-1.516,-0.316,0.0
16.25,-1.378,-0.375,0.0
30.109,-2.552,0.141,0.0
33.926,-2.866,-0.021,0.0
33.84,-2.849,-0.203,2.0
33.833,-2.838,-0.388,2.0
18.055,-1.509,-0.303,0.0
16.618,-1.384,-0.368,0.0
30.415,-2.532,0.17,0.0
33.885,-2.811,0.008,0.0
33.849,-2.798,-0.173,4.0
33.839,-2.786,-0.358,4.0
18.655,-1.53,-0.297,0.0
16.815,-1.374,-0.358,0.0
31.243,-2.552,0.203,0.0
33.869,-2.756,0.038,1.0
33.842,-2.743,-0.143,3.0
33.851,-2.733,-0.328,2.0
18.973,-1.526,-0.286,0.0
17.077,-1.369,-0.349,0.0
31.819,-2.548,0.233,0.0
33.842,-2.7,0.066,1.0
33.875,-2.692,-0.115,3.0
33.887,-2.682,-0.3,3.0
19.585,-1.544,-0.278,0.0
17.283,-1.357,-0.339,0.0
32.369,-2.539,0.264,0.0
33.888,-2.647,0.094,1.0
33.889,-2.637,-0.087,1.0
33.868,-2.625,-0.272,4.0
19.785,-1.527,-0.265,0.0
17.595,-1.352,-0.331,0.0
32.974,-2.532,0.295,0.0
33.911,-2.593,0.121,0.0
33.877,-2.579,-0.06,2.0
33.891,-2.57,-0.246,6.0
20.447,-1.544,-0.258,0.0
17.783,-1.337,-0.32,0.0
35.518,-2.667,0.346,0.0
33.955,-2.539,0.148,0.0
33.902,-2.524,-0.035,5.0
33.875,-2.511,-0.22,3.0
33.882,-2.5,-0.403,2.0
17.954,-1.319,-0.31,0.0
35.696,-2.619,0.374,0.0
30.488,-2.227,0.155,0.0
33.888,-2.464,-0.009,2.0
33.897,-2.453,-0.196,6.0
33.917,-2.444,-0.379,3.0
18.364,-1.317,-0.304,0.0
35.627,-2.552,0.398,2.0
30.545,-2.177,0.177,0.0
33.898,-2.405,0.013,2.0
33.868,-2.391,-0.172,2.0
21.363,-1.501,-0.224,0.0
18.641,-1.304,-0.296,0.0
35.576,-2.485,0.422,0.0
31.428,-2.184,0.203,0.0
28.069,-1.941,0.03,0.0
24.78,-1.705,-0.109,0.0
22.069,-1.511,-0.216,0.0
18.906,-1.288,-0.288,0.0
0.0,0.0,0.0,0.0
31.71,-2.146,0.225,0.0
28.253,-1.903,0.048,0.0
25.079,-1.68,-0.095,0.0
22.236,-1.482,-0.204,0.0
19.188,-1.272,-0.28,0.0
37.719,-2.498,0.495,0.0
32.62,-2.148,0.252,1.0
28.364,-1.858,0.065,1.0
25.496,-1.661,-0.081,0.0
22.428,-1.454,-0.193,0.0
19.413,-1.251,-0.272,0.0
34.71,-2.234,0.476,1.0
32.319,-2.069,0.268,2.0
28.504,-1.814,0.082,1.0
25.554,-1.618,-0.067,0.0
22.849,-1.439,-0.184,0.0
19.7,-1.233,-0.265,0.0
34.759,-2.172,0.496,4.0
32.269,-2.005,0.285,1.0
28.508,-1.761,0.097,7.0
25.79,-1.584,-0.053,0.0
23.077,-1.409,-0.173,0.0
19.771,-1.2,-0.255,0.0
34.763,-2.106,0.514,6.0
0.0,0.0,0.0,0.0
28.554,-1.71,0.112,4.0
26.171,-1.558,-0.041,0.0
23.279,-1.377,-0.163,0.0
20.218,-1.189,-0.251,0.0
34.541,-2.027,0.527,2.0
34.673,-2.022,0.341,0.0
28.608,-1.658,0.125,4.0
34.177,-1.968,-0.038,0.0
23.635,-1.353,-0.155,1.0
34.206,-1.946,-0.41,0.0
34.445,-1.955,0.541,1.0
34.684,-1.956,0.356,0.0
0.0,0.0,0.0,0.0
34.214,-1.905,-0.023,2.0
34.231,-1.893,-0.21,4.0
34.247,-1.883,-0.396,2.0
34.472,-1.889,0.556,1.0
34.669,-1.887,0.37,0.0
28.742,-1.554,0.15,0.0
27.338,-1.469,-0.008,0.0
23.671,-1.263,-0.136,1.0
21.147,-1.121,-0.236,0.0
34.65,-1.831,0.572,1.0
0.0,0.0,0.0,0.0
30.731,-1.601,0.172,0.0
27.548,-1.425,0.001,1.0
23.732,-1.219,-0.128,0.0
21.353,-1.09,-0.231,0.0
0.0,0.0,0.0,0.0
35.891,-1.812,0.409,0.0
30.474,-1.528,0.18,0.0
27.631,-1.375,0.01,7.0
23.81,-1.176,-0.121,0.0
21.643,-1.061,-0.228,0.0
0.0,0.0,0.0,0.0
36.151,-1.753,0.422,0.0
30.751,-1.48,0.191,0.0
27.595,-1.318,0.018,6.0
23.788,-1.127,-0.114,0.0
21.403,-1.006,-0.219,2.0
0.0,0.0,0.0,0.0
0.0,0.0,0.0,0.0
31.167,-1.437,0.202,0.0
27.657,-1.265,0.025,0.0
24.054,-1.091,-0.109,0.0
21.364,-0.962,-0.213,1.0
0.0,0.0,0.0,0.0
36.048,-1.603,0.439,0.0
31.371,-1.383,0.21,0.0
28.389,-1.241,0.032,1.0
24.441,-1.059,-0.105,0.0
21.649,-0.931,-0.212,1.0
0.0,0.0,0.0,0.0
36.905,-1.565,0.457,0.0
31.354,-1.318,0.216,0.0
28.411,-1.184,0.037,2.0
25.392,-1.048,-0.105,0.0
22.033,-0.901,-0.212,2.0
0.0,0.0,0.0,0.0
35.964,-1.451,0.451,0.0
31.446,-1.257,0.221,0.0
28.468,-1.127,0.041,2.0
24.83,-0.974,-0.099,0.0
21.945,-0.852,-0.208,1.0
0.0,0.0,0.0,0.0
0.0,0.0,0.0,0.0
31.581,-1.196,0.226,0.0
28.443,-1.067,0.044,2.0
24.714,-0.918,-0.096,0.0
22.052,-0.811,-0.207,0.0
0.0,0.0,0.0,0.0
0.0,0.0,0.0,0.0
31.579,-1.131,0.229,0.0
28.346,-1.004,0.046,1.0
24.99,-0.876,-0.096,0.0
22.141,-0.768,-0.206,1.0
0.0,0.0,0.0,0.0
0.0,0.0,0.0,0.0
31.314,-1.055,0.228,0.0
28.269,-0.942,0.047,1.0
24.984,-0.824,-0.095,0.0
21.437,-0.699,-0.199,0.0
0.0,0.0,0.0,0.0
0.0,0.0,0.0,0.0
31.719,-1.003,0.231,0.0
28.258,-0.883,0.047,1.0
24.964,-0.771,-0.095,0.0
0.0,0.0,0.0,0.0
0.0,0.0,0.0,0.0
0.0,0.0,0.0,0.0
31.507,-0.93,0.228,0.0
28.184,-0.821,0.046,1.0
24.773,-0.713,-0.096,0.0
21.999,-0.625,-0.206,1.0
0.0,0.0,0.0,0.0
0.0,0.0,0.0,0.0
31.476,-0.863,0.226,0.0
28.387,-0.768,0.044,1.0
24.802,-0.662,-0.098,0.0
22.122,-0.582,-0.209,1.0
0.0,0.0,0.0,0.0
0.0,0.0,0.0,0.0
31.497,-0.798,0.222,0.0
28.283,-0.706,0.04,1.0
24.797,-0.61,-0.101,0.0
21.928,-0.531,-0.21,0.0
0.0,0.0,0.0,0.0
0.0,0.0,0.0,0.0
31.267,-0.726,0.216,0.0
28.22,-0.645,0.036,1.0
24.819,-0.558,-0.105,0.0
21.956,-0.485,-0.214,0.0
0.0,0.0,0.0,0.0
0.0,0.0,0.0,0.0
31.301,-0.66,0.21,0.0
27.89,-0.578,0.03,0.0
24.662,-0.502,-0.109,0.0
21.914,-0.438,-0.218,0.0
0.0,0.0,0.0,0.0
0.0,0.0,0.0,0.0
0.0,0.0,0.0,0.0
27.729,-0.516,0.024,0.0
24.484,-0.447,-0.114,0.0
21.571,-0.386,-0.22,0.0
0.0,0.0,0.0,0.0
35.819,-0.618,0.423,0.0
31.111,-0.525,0.194,0.0
27.484,-0.454,0.016,0.0
23.963,-0.387,-0.118,0.0
21.636,-0.341,-0.227,0.0
0.0,0.0,0.0,0.0
0.0,0.0,0.0,0.0
31.029,-0.458,0.184,0.0
27.205,-0.391,0.008,0.0
24.09,-0.338,-0.126,0.0
21.196,-0.289,-0.229,0.0
0.0,0.0,0.0,0.0
34.694,-0.45,0.387,0.0
30.336,-0.383,0.17,0.0
26.784,-0.328,-0.001,0.0
24.062,-0.286,-0.135,0.0
20.882,-0.241,-0.233,0.0
0.0,0.0,0.0,0.0
34.101,-0.37,0.368,0.0
28.827,-0.302,0.15,0.0
26.784,-0.272,-0.011,0.0
23.906,-0.234,-0.143,0.0
20.746,-0.195,-0.24,0.0
41.908,-0.382,0.669,0.0
33.896,-0.297,0.352,0.0
28.814,-0.241,0.138,3.0
26.437,-0.212,-0.022,0.0
23.7,-0.181,-0.152,0.0
20.442,-0.149,-0.245,0.0
0.0,0.0,0.0,0.0
33.602,-0.223,0.334,0.0
28.802,-0.181,0.126,6.0
26.234,-0.156,-0.034,0.0
23.264,-0.13,-0.16,0.0
20.178,-0.106,-0.251,0.0
0.0,0.0,0.0,0.0
33.188,-0.151,0.314,1.0
28.818,-0.121,0.112,7.0
25.89,-0.099,-0.046,0.0
23.121,-0.081,-0.17,0.0
20.031,-0.063,-0.259,0.0
0.0,0.0,0.0,0.0
33.129,-0.081,0.296,0.0
28.774,-0.061,0.096,6.0
25.729,-0.045,-0.059,0.0
22.935,-0.032,-0.181,0.0
19.712,-0.021,-0.266,0.0
0.0,0.0,0.0,0.0
33.135,-0.013,0.278,0.0
28.665,0.0,0.08,1.0
25.475,0.007,-0.073,0.0
22.173,0.014,-0.188,0.0
19.361,0.018,-0.272,0.0
38.147,0.05,0.511,0.0
31.061,0.052,0.242,0.0
28.571,0.058,0.062,2.0
25.219,0.059,-0.088,0.0
21.83,0.059,-0.198,1.0
19.106,0.058,-0.28,0.0
37.456,0.127,0.478,0.0
31.559,0.118,0.226,0.0
27.94,0.114,0.043,0.0
24.879,0.11,-0.102,0.0
21.651,0.103,-0.21,4.0
18.78,0.096,-0.288,0.0
36.687,0.2,0.444,0.0
30.841,0.179,0.2,0.0
27.358,0.168,0.024,0.0
24.617,0.159,-0.118,0.0
21.327,0.145,-0.222,1.0
18.435,0.131,-0.295,0.0
0.0,0.0,0.0,0.0
28.894,0.226,0.168,0.0
27.08,0.221,0.005,0.0
23.839,0.202,-0.131,0.0
20.994,0.185,-0.233,1.0
18.232,0.167,-0.305,0.0
35.202,0.335,0.376,0.0
28.92,0.285,0.146,2.0
26.572,0.27,-0.014,0.0
23.558,0.247,-0.147,0.0
20.452,0.221,-0.243,0.0
17.95,0.2,-0.314,0.0
33.669,0.388,0.334,0.0
28.861,0.342,0.124,5.0
26.103,0.317,-0.034,0.0
23.157,0.289,-0.163,0.0
20.175,0.258,-0.255,0.0
17.687,0.232,-0.323,0.0
33.036,0.447,0.302,0.0
28.853,0.399,0.101,5.0
25.845,0.366,-0.054,0.0
22.776,0.33,-0.178,0.0
19.766,0.293,-0.266,0.0
17.341,0.262,-0.331,0.0
32.277,0.5,0.268,0.0
28.713,0.454,0.076,1.0
25.278,0.407,-0.074,1.0
22.107,0.363,-0.192,0.0
19.344,0.324,-0.277,0.0
17.094,0.291,-0.341,0.0
31.924,0.557,0.237,0.0
27.81,0.493,0.05,0.0
24.87,0.449,-0.095,0.0
21.838,0.401,-0.209,0.0
18.831,0.352,-0.286,0.0
16.878,0.321,-0.352,0.0
31.039,0.601,0.203,0.0
27.256,0.536,0.024,0.0
24.303,0.486,-0.115,0.0
21.545,0.437,-0.225,0.0
18.381,0.379,-0.296,0.0
16.634,0.348,-0.362,0.0
29.036,0.618,0.163,0.0
26.77,0.578,0.0,0.0
23.743,0.52,-0.134,0.0
20.814,0.462,-0.237,0.0
18.107,0.408,-0.309,0.0
16.423,0.375,-0.373,0.0
28.929,0.671,0.134,1.0
26.291,0.618,-0.026,0.0
23.321,0.555,-0.155,0.0
20.138,0.485,-0.249,0.0
17.751,0.433,-0.32,0.0
16.215,0.4,-0.384,0.0
28.881,0.724,0.106,4.0
25.716,0.652,-0.051,0.0
22.843,0.586,-0.174,0.0
19.722,0.512,-0.264,0.0
17.351,0.455,-0.33,0.0
15.97,0.424,-0.394,0.0
28.772,0.774,0.076,1.0
25.178,0.685,-0.075,0.0
22.054,0.606,-0.191,0.0
19.366,0.538,-0.279,0.0
17.079,0.479,-0.343,0.0
15.691,0.445,-0.404,0.0
27.596,0.793,0.044,0.0
24.698,0.717,-0.1,0.0
21.674,0.635,-0.21,0.0
18.616,0.55,-0.288,0.0
16.826,0.503,-0.356,0.0
15.413,0.465,-0.413,0.0
26.98,0.824,0.014,0.0
23.96,0.739,-0.123,0.0
21.07,0.655,-0.228,0.0
18.22,0.572,-0.302,0.0
16.579,0.525,-0.369,0.0
14.99,0.479,-0.418,0.0
26.469,0.856,-0.015,0.0
23.238,0.758,-0.145,0.0
20.323,0.668,-0.242,0.0
17.851,0.592,-0.316,0.0
16.25,0.543,-0.38,0.0
14.875,0.501,-0.432,0.0
25.847,0.881,-0.044,0.0
22.603,0.776,-0.167,0.0
19.787,0.685,-0.258,0.0
17.404,0.607,-0.328,0.0
15.992,0.563,-0.392,0.0
14.663,0.52,-0.443,0.0
25.288,0.906,-0.073,1.0
22.105,0.797,-0.189,1.0
19.419,0.705,-0.276,0.0
17.034,0.623,-0.341,0.0
15.688,0.578,-0.403,0.0
14.358,0.533,-0.451,0.0
24.429,0.916,-0.099,1.0
21.585,0.815,-0.21,0.0
18.487,0.703,-0.285,0.0
16.731,0.64,-0.355,0.0
15.47,0.596,-0.416,0.0
14.234,0.553,-0.464,0.0
23.75,0.93,-0.125,0.0
20.94,0.825,-0.23,0.0
18.069,0.717,-0.301,0.0
16.515,0.659,-0.371,0.0
15.15,0.609,-0.426,0.0
13.993,0.566,-0.473,0.0
23.255,0.949,-0.151,0.0
20.013,0.821,-0.244,0.0
17.748,0.733,-0.317,0.0
16.142,0.67,-0.382,0.0
14.716,0.615,-0.432,0.0
13.756,0.578,-0.483,0.0
22.267,0.944,-0.173,0.0
19.752,0.842,-0.266,0.0
17.229,0.739,-0.33,0.0
15.879,0.685,-0.396,0.0
14.692,0.637,-0.45,0.0
13.509,0.589,-0.491,0.0
21.742,0.955,-0.196,1.0
18.951,0.837,-0.279,0.0
16.979,0.754,-0.347,0.0
15.549,0.694,-0.408,0.0
14.214,0.638,-0.454,0.0
13.287,0.6,-0.5,0.0
21.273,0.967,-0.22,0.0
18.355,0.839,-0.294,0.0
16.685,0.767,-0.363,0.0
15.172,0.701,-0.418,0.0
13.981,0.649,-0.465,0.0
13.056,0.609,-0.509,0.0
20.245,0.951,-0.236,0.0
17.973,0.849,-0.312,0.0
16.307,0.774,-0.376,0.0
14.851,0.708,-0.429,0.0
13.828,0.663,-0.479,0.0
12.886,0.621,-0.52,0.0
19.781,0.959,-0.258,0.0
17.374,0.846,-0.325,0.0
15.935,0.78,-0.39,0.0
14.68,0.722,-0.444,0.0
13.633,0.673,-0.491,0.0
12.661,0.628,-0.528,0.0
19.054,0.951,-0.274,0.0
17.024,0.854,-0.342,0.0
15.686,0.79,-0.405,0.0
14.254,0.721,-0.451,0.0
13.346,0.678,-0.499,0.0
12.458,0.636,-0.537,0.0
18.321,0.94,-0.289,0.0
16.674,0.859,-0.359,0.0
15.308,0.792,-0.417,0.0
13.996,0.727,-0.463,0.0
13.158,0.687,-0.51,0.0
12.339,0.646,-0.549,0.0
18.01,0.949,-0.31,1.0
16.31,0.863,-0.374,0.0
14.831,0.788,-0.425,0.0
13.829,0.737,-0.476,0.0
12.773,0.684,-0.513,0.0
12.116,0.651,-0.556,0.0
17.457,0.943,-0.325,0.0
15.928,0.864,-0.388,0.0
14.751,0.803,-0.444,0.0
13.585,0.742,-0.488,0.0
12.706,0.697,-0.529,0.0
11.866,0.653,-0.562,0.0
16.976,0.939,-0.341,0.0
15.728,0.873,-0.406,0.0
14.337,0.799,-0.452,0.0
13.314,0.745,-0.497,0.0
12.493,0.701,-0.538,0.0
11.712,0.66,-0.572,0.0
16.645,0.942,-0.358,0.0
15.33,0.871,-0.418,0.0
14.0,0.798,-0.462,0.0
13.244,0.757,-0.514,0.0
12.366,0.709,-0.551,0.0
11.551,0.665,-0.581,0.0
16.269,0.94,-0.374,0.0
14.919,0.865,-0.429,0.0
13.853,0.806,-0.477,0.0
12.777,0.746,-0.515,0.0
12.088,0.708,-0.557,0.0
11.369,0.668,-0.589,0.0
15.911,0.939,-0.39,0.0
14.662,0.868,-0.443,0.0
13.581,0.806,-0.488,0.0
12.609,0.751,-0.527,0.0
11.892,0.71,-0.565,0.0
11.135,0.667,-0.593,0.0
15.617,0.939,-0.406,0.0
14.287,0.862,-0.453,0.0
13.328,0.806,-0.499,0.0
12.464,0.756,-0.54,0.0
11.703,0.712,-0.574,0.0
10.976,0.67,-0.602,0.0
15.227,0.933,-0.419,0.0
14.056,0.864,-0.467,0.0
13.018,0.802,-0.508,0.0
12.298,0.76,-0.551,0.0
11.479,0.711,-0.581,0.0
0.0,0.0,0.0,0.0
14.886,0.928,-0.432,0.0
13.743,0.859,-0.478,0.0
12.769,0.8,-0.517,0.0
11.97,0.752,-0.555,0.0
11.296,0.712,-0.589,0.0
10.648,0.673,-0.616,0.0
14.604,0.925,-0.446,0.0
13.528,0.859,-0.491,0.0
12.585,0.802,-0.529,0.0
11.773,0.752,-0.564,0.0
11.159,0.715,-0.599,0.0
10.502,0.674,-0.624,0.0
14.229,0.916,-0.457,0.0
13.287,0.857,-0.503,0.0
12.429,0.804,-0.542,0.0
11.614,0.753,-0.574,0.0
10.967,0.713,-0.606,0.0
10.345,0.674,-0.631,0.0
13.951,0.911,-0.47,0.0
13.004,0.851,-0.513,0.0
12.123,0.795,-0.547,0.0
11.39,0.749,-0.581,0.0
10.766,0.71,-0.611,0.0
10.248,0.677,-0.641,0.0
13.719,0.908,-0.483,0.0
12.752,0.846,-0.523,0.0
11.968,0.796,-0.559,0.0
11.236,0.749,-0.591,0.0
10.59,0.708,-0.618,0.0
9.972,0.668,-0.64,0.0
13.426,0.901,-0.494,0.0
12.522,0.842,-0.533,0.0
11.789,0.794,-0.569,0.0
11.002,0.743,-0.596,0.0
10.416,0.705,-0.624,0.0
9.823,0.666,-0.646,0.0
13.149,0.893,-0.505,0.0
12.348,0.84,-0.545,0.0
11.595,0.791,-0.578,0.0
10.787,0.737,-0.601,0.0
10.273,0.703,-0.632,0.0
9.749,0.669,-0.656,0.0
12.928,0.888,-0.516,0.0
12.131,0.835,-0.554,0.0
11.332,0.781,-0.583,0.0
10.698,0.739,-0.613,0.0
10.129,0.701,-0.639,0.0
9.579,0.664,-0.66,0.0
12.649,0.878,-0.525,0.0
11.865,0.825,-0.561,0.0
11.15,0.777,-0.591,0.0
10.484,0.732,-0.617,0.0
10.054,0.703,-0.65,0.0
9.429,0.661,-0.664,0.0
12.502,0.877,-0.538,0.0
11.7,0.822,-0.571,0.0
10.987,0.773,-0.6,0.0
10.33,0.728,-0.625,0.0
9.812,0.693,-0.65,0.0
9.325,0.66,-0.672,0.0
12.217,0.865,-0.545,0.0
11.449,0.812,-0.577,0.0
10.913,0.775,-0.613,0.0
10.238,0.728,-0.635,0.0
9.723,0.693,-0.659,0.0
9.204,0.657,-0.677,0.0
12.045,0.86,-0.556,0.0
11.312,0.809,-0.588,0.0
10.617,0.76,-0.613,0.0
10.075,0.723,-0.641,0.0
9.537,0.685,-0.662,0.0
9.055,0.652,-0.681,0.0
11.825,0.851,-0.565,0.0
11.115,0.801,-0.595,0.0
10.47,0.756,-0.621,0.0
9.884,0.714,-0.644,0.0
9.398,0.68,-0.667,0.0
8.916,0.646,-0.684,0.0
11.639,0.844,-0.574,0.0
10.927,0.793,-0.602,0.0
10.302,0.749,-0.627,0.0
9.788,0.712,-0.653,0.0
9.272,0.676,-0.673,0.0
8.803,0.643,-0.69,0.0
11.407,0.832,-0.581,0.0
10.774,0.787,-0.61,0.0
10.228,0.748,-0.639,0.0
9.583,0.702,-0.655,0.0
9.118,0.669,-0.676,0.0
8.684,0.638,-0.694,0.0
11.259,0.826,-0.59,0.0
10.608,0.78,-0.617,0.0
10.076,0.741,-0.645,0.0
9.487,0.699,-0.663,0.0
9.018,0.665,-0.682,0.0
8.664,0.64,-0.706,0.0
11.055,0.816,-0.597,0.0
10.47,0.774,-0.626,0.0
9.909,0.733,-0.649,0.0
9.379,0.695,-0.67,0.0
8.931,0.662,-0.69,0.0
8.525,0.633,-0.708,0.0
10.891,0.808,-0.605,0.0
10.283,0.763,-0.63,0.0
9.719,0.722,-0.652,0.0
9.235,0.687,-0.674,0.0
8.801,0.655,-0.693,0.0
8.415,0.627,-0.712,0.0
10.701,0.797,-0.611,0.0
10.114,0.754,-0.636,0.0
9.604,0.717,-0.659,0.0
9.191,0.686,-0.685,0.0
8.697,0.65,-0.698,0.0
8.325,0.623,-0.717,0.0
10.538,0.788,-0.618,0.0
9.951,0.744,-0.641,0.0
9.502,0.711,-0.667,0.0
8.962,0.672,-0.681,0.0
8.54,0.641,-0.699,0.0
0.0,0.0,0.0,0.0
10.352,0.776,-0.622,0.0
9.797,0.735,-0.645,0.0
9.314,0.699,-0.667,0.0
0.0,0.0,0.0,0.0
