X,Y,Z,Reflectivity
59.145,6.806,2.318,20.0
46.47,5.344,1.55,31.0
46.412,5.335,1.282,34.0
46.095,5.296,1.009,10.0
55.567,6.383,2.747,4.0
59.319,6.809,2.592,14.0
59.163,6.786,2.246,10.0
46.474,5.327,1.492,3.0
46.436,5.32,1.225,23.0
45.836,5.248,0.946,8.0
58.582,6.705,2.825,14.0
59.17,6.767,2.513,13.0
63.747,7.285,2.341,10.0
59.57,6.803,1.839,13.0
46.426,5.299,1.167,14.0
45.57,5.198,0.885,10.0
58.557,6.675,2.751,18.0
59.261,6.75,2.443,8.0
63.782,7.26,2.263,15.0
59.928,6.816,1.777,21.0
46.441,5.278,1.111,12.0
45.308,5.147,0.824,5.0
59.03,6.7,2.7,31.0
59.497,6.747,2.38,15.0
59.817,6.778,2.049,13.0
60.676,6.87,1.724,35.0
46.352,5.244,1.051,9.0
44.61,5.044,0.756,4.0
59.197,6.687,2.634,25.0
59.765,6.745,2.317,34.0
59.427,6.701,1.962,21.0
60.018,6.762,1.632,35.0
46.059,5.185,0.988,9.0
44.529,5.009,0.701,4.0
59.147,6.647,2.56,28.0
59.308,6.658,2.227,20.0
59.327,6.654,1.887,21.0
59.008,6.613,1.532,7.0
45.76,5.124,0.926,11.0
44.488,4.977,0.645,4.0
58.863,6.577,2.475,34.0
59.211,6.609,2.15,23.0
59.333,6.616,1.814,17.0
46.529,5.183,1.15,5.0
45.516,5.066,0.865,11.0
44.252,4.922,0.588,2.0
59.072,6.56,2.412,32.0
59.344,6.583,2.082,25.0
59.394,6.582,1.744,9.0
46.476,5.145,1.093,11.0
45.022,4.98,0.802,7.0
41.736,4.612,0.504,0.0
59.227,6.535,2.347,20.0
59.222,6.527,2.007,13.0
59.99,6.605,1.69,24.0
46.32,5.094,1.034,8.0
44.738,4.915,0.743,4.0
38.252,4.198,0.416,0.0
59.165,6.482,2.273,27.0
59.168,6.475,1.933,13.0
59.742,6.53,1.61,30.0
46.094,5.033,0.974,13.0
44.743,4.88,0.689,3.0
38.243,4.167,0.37,0.0
59.115,6.428,2.199,25.0
59.157,6.425,1.862,26.0
0.0,0.0,0.0,0.0
45.762,4.959,0.912,14.0
44.729,4.841,0.636,4.0
35.184,3.804,0.299,0.0
59.156,6.383,2.131,24.0
59.693,6.432,1.809,30.0
51.515,5.544,1.267,1.0
45.481,4.888,0.853,12.0
44.688,4.798,0.583,1.0
33.857,3.631,0.248,0.0
59.259,6.34,2.066,27.0
59.824,6.392,1.743,23.0
51.475,5.493,1.205,5.0
45.148,4.812,0.795,7.0
42.298,4.502,0.503,0.0
32.155,3.419,0.198,0.0
59.121,6.27,1.992,25.0
60.398,6.396,1.69,16.0
51.484,5.445,1.145,5.0
45.007,4.753,0.74,4.0
38.776,4.09,0.416,0.0
31.775,3.347,0.159,0.0
59.408,6.242,1.934,19.0
59.595,6.252,1.599,24.0
46.429,4.864,0.98,4.0
45.059,4.714,0.69,9.0
35.606,3.72,0.342,0.0
29.289,3.056,0.114,0.0
59.674,6.209,1.875,24.0
59.343,6.165,1.526,5.0
46.193,4.792,0.924,5.0
45.223,4.685,0.642,4.0
34.565,3.575,0.293,0.0
29.171,3.013,0.081,1.0
59.871,6.166,1.814,28.0
52.105,5.357,1.281,1.0
45.933,4.715,0.868,4.0
45.415,4.655,0.594,0.0
33.132,3.391,0.244,0.0
28.5,2.913,0.048,0.0
59.78,6.091,1.746,30.0
51.563,5.245,1.212,4.0
45.732,4.644,0.814,6.0
39.513,4.006,0.474,0.0
31.905,3.23,0.201,1.0
27.287,2.758,0.016,0.0
59.977,6.042,1.687,20.0
51.422,5.171,1.153,5.0
45.866,4.604,0.767,9.0
39.693,3.978,0.434,0.0
31.539,3.156,0.165,0.0
26.332,2.631,-0.011,1.0
0.0,0.0,0.0,0.0
51.273,5.095,1.095,1.0
46.082,4.571,0.722,8.0
35.951,3.56,0.355,0.0
29.291,2.896,0.122,4.0
25.891,2.555,-0.038,1.0
58.192,5.722,1.514,4.0
46.73,4.586,0.949,3.0
46.277,4.534,0.677,4.0
35.012,3.424,0.309,1.0
29.233,2.853,0.092,4.0
25.383,2.473,-0.064,0.0
52.782,5.123,1.318,1.0
46.834,4.537,0.903,3.0
46.598,4.505,0.634,1.0
33.612,3.243,0.262,0.0
28.972,2.791,0.061,1.0
24.713,2.376,-0.087,0.0
51.991,4.978,1.246,12.0
46.887,4.481,0.857,8.0
40.39,3.852,0.509,0.0
32.333,3.077,0.22,1.0
27.745,2.636,0.031,0.0
24.196,2.294,-0.109,0.0
51.628,4.875,1.187,9.0
47.028,4.431,0.814,5.0
38.914,3.659,0.452,0.0
29.309,2.75,0.171,0.0
26.348,2.467,0.004,0.0
23.75,2.219,-0.13,0.0
51.397,4.782,1.132,5.0
47.327,4.394,0.774,3.0
28.652,2.654,0.306,0.0
29.263,2.705,0.143,3.0
26.027,2.401,-0.019,1.0
22.938,2.112,-0.147,0.0
51.167,4.689,1.079,2.0
47.611,4.353,0.734,3.0
35.831,3.268,0.349,0.0
29.237,2.661,0.116,2.0
25.824,2.345,-0.043,2.0
22.563,2.045,-0.165,1.0
48.253,4.352,0.973,2.0
47.859,4.307,0.694,1.0
34.054,3.057,0.301,0.0
29.048,2.602,0.089,1.0
25.221,2.254,-0.065,0.0
22.181,1.978,-0.182,3.0
48.286,4.284,0.931,3.0
41.58,3.68,0.566,0.0
33.537,2.961,0.267,0.0
28.211,2.484,0.062,1.0
24.694,2.17,-0.085,0.0
21.905,1.92,-0.199,2.0
48.513,4.23,0.893,8.0
0.0,0.0,0.0,0.0
32.578,2.826,0.231,0.0
27.327,2.365,0.037,0.0
24.319,2.099,-0.104,0.0
21.516,1.853,-0.214,1.0
48.846,4.184,0.859,5.0
0.0,0.0,0.0,0.0
31.518,2.685,0.197,0.0
26.866,2.283,0.014,1.0
23.852,2.022,-0.122,0.0
21.278,1.799,-0.229,0.0
49.201,4.137,0.825,8.0
36.363,3.049,0.404,0.0
30.336,2.537,0.166,0.0
26.387,2.2,-0.007,0.0
23.589,1.962,-0.139,0.0
20.711,1.718,-0.239,0.0
49.16,4.055,0.786,49.0
35.968,2.958,0.372,1.0
29.856,2.448,0.14,2.0
25.996,2.126,-0.026,0.0
22.92,1.869,-0.152,0.0
20.324,1.653,-0.25,0.0
45.569,3.683,0.694,2.0
35.531,2.864,0.341,1.0
29.598,2.378,0.117,2.0
25.514,2.045,-0.045,0.0
22.672,1.811,-0.168,1.0
19.631,1.564,-0.256,0.0
0.0,0.0,0.0,0.0
35.001,2.763,0.31,0.0
28.811,2.267,0.093,1.0
25.17,1.975,-0.062,0.0
22.383,1.751,-0.181,0.0
19.503,1.521,-0.268,0.0
0.0,0.0,0.0,0.0
33.0,2.549,0.27,0.0
28.012,2.156,0.071,1.0
24.592,1.887,-0.077,0.0
21.926,1.677,-0.192,0.0
19.173,1.462,-0.276,0.0
0.0,0.0,0.0,0.0
32.358,2.443,0.243,0.0
27.754,2.088,0.052,1.0
24.223,1.817,-0.092,1.0
21.614,1.615,-0.203,0.0
19.075,1.421,-0.287,0.0
0.0,0.0,0.0,0.0
31.844,2.348,0.219,0.0
27.42,2.015,0.035,1.0
24.105,1.765,-0.107,3.0
21.421,1.563,-0.215,0.0
18.699,1.36,-0.292,0.0
37.306,2.694,0.444,0.0
31.123,2.239,0.195,0.0
26.797,1.921,0.018,0.0
23.972,1.712,-0.12,2.0
21.15,1.505,-0.225,0.0
18.603,1.319,-0.302,0.0
37.5,2.641,0.425,1.0
30.537,2.142,0.175,0.0
26.564,1.856,0.003,0.0
23.859,1.661,-0.133,1.0
20.732,1.438,-0.231,0.0
18.289,1.263,-0.307,0.0
47.324,3.246,0.51,1.0
30.118,2.057,0.156,0.0
26.267,1.787,-0.01,0.0
23.54,1.595,-0.143,0.0
20.514,1.385,-0.24,0.0
18.14,1.22,-0.313,0.0
36.057,2.406,0.371,0.0
29.325,1.949,0.137,1.0
26.101,1.727,-0.023,0.0
23.043,1.519,-0.152,0.0
20.174,1.324,-0.246,0.0
17.901,1.17,-0.318,0.0
33.691,2.185,0.33,0.0
29.2,1.885,0.123,1.0
25.695,1.652,-0.035,0.0
22.813,1.46,-0.161,0.0
20.001,1.275,-0.252,0.0
17.728,1.125,-0.323,0.0
33.794,2.127,0.316,0.0
28.849,1.808,0.109,0.0
25.574,1.595,-0.045,0.0
22.654,1.406,-0.169,0.0
19.726,1.219,-0.257,0.0
17.628,1.085,-0.328,0.0
33.125,2.021,0.297,0.0
28.62,1.738,0.097,0.0
25.408,1.535,-0.055,0.0
22.284,1.34,-0.175,0.0
19.404,1.161,-0.26,0.0
17.409,1.037,-0.331,0.0
32.811,1.938,0.282,0.0
28.31,1.664,0.085,0.0
25.235,1.476,-0.064,0.0
21.955,1.277,-0.18,1.0
19.445,1.126,-0.268,0.0
17.312,0.997,-0.335,0.0
32.714,1.868,0.27,0.0
28.152,1.599,0.075,0.0
25.079,1.417,-0.071,0.0
21.911,1.232,-0.187,2.0
19.206,1.074,-0.27,0.0
17.164,0.955,-0.337,0.0
32.296,1.781,0.257,0.0
27.859,1.528,0.066,0.0
24.991,1.363,-0.078,0.0
21.836,1.184,-0.192,3.0
19.278,1.04,-0.277,0.0
17.092,0.917,-0.34,0.0
31.976,1.699,0.246,1.0
27.895,1.474,0.059,0.0
24.943,1.31,-0.084,0.0
21.792,1.138,-0.197,3.0
19.072,0.991,-0.278,0.0
17.085,0.882,-0.344,0.0
31.688,1.621,0.236,1.0
27.832,1.415,0.053,0.0
24.722,1.249,-0.089,0.0
21.73,1.091,-0.201,2.0
18.854,0.941,-0.279,0.0
17.036,0.845,-0.346,0.0
31.706,1.558,0.231,1.0
27.662,1.351,0.048,0.0
24.622,1.195,-0.093,0.0
21.684,1.045,-0.204,2.0
18.938,0.907,-0.283,0.0
16.915,0.805,-0.346,0.0
31.778,1.498,0.226,1.0
27.582,1.291,0.044,0.0
24.626,1.145,-0.096,0.0
21.637,0.999,-0.207,1.0
18.81,0.863,-0.284,0.0
16.942,0.772,-0.349,0.0
31.234,1.408,0.219,1.0
27.459,1.229,0.04,0.0
24.556,1.091,-0.099,0.0
21.504,0.949,-0.207,2.0
18.712,0.82,-0.284,0.0
16.936,0.737,-0.35,0.0
31.067,1.337,0.215,0.0
27.484,1.174,0.039,1.0
24.444,1.036,-0.1,1.0
21.596,0.909,-0.209,1.0
18.684,0.781,-0.284,0.0
16.906,0.701,-0.35,0.0
31.059,1.274,0.214,0.0
27.504,1.119,0.038,0.0
24.451,0.987,-0.1,1.0
21.627,0.866,-0.21,1.0
18.633,0.74,-0.284,0.0
16.865,0.664,-0.35,0.0
31.038,1.209,0.214,0.0
27.364,1.057,0.038,1.0
24.409,0.935,-0.1,1.0
21.504,0.817,-0.209,1.0
18.722,0.705,-0.285,0.0
16.896,0.631,-0.35,0.0
31.145,1.148,0.215,0.0
27.399,1.001,0.039,0.0
24.503,0.888,-0.099,1.0
21.53,0.773,-0.208,1.0
18.84,0.671,-0.285,0.0
16.93,0.597,-0.349,0.0
31.152,1.084,0.218,0.0
27.444,0.946,0.041,0.0
24.447,0.835,-0.097,1.0
21.591,0.73,-0.206,1.0
18.857,0.632,-0.284,0.0
16.965,0.563,-0.348,0.0
31.236,1.022,0.222,0.0
27.509,0.891,0.044,0.0
24.619,0.789,-0.095,0.0
21.691,0.688,-0.204,1.0
18.741,0.589,-0.279,0.0
16.962,0.527,-0.346,0.0
31.418,0.963,0.228,0.0
27.642,0.838,0.049,0.0
24.75,0.742,-0.091,0.0
21.747,0.645,-0.201,0.0
18.962,0.556,-0.279,0.0
16.987,0.492,-0.343,0.0
31.437,0.897,0.234,0.0
27.861,0.786,0.054,0.0
24.961,0.696,-0.087,0.0
21.786,0.6,-0.197,0.0
19.008,0.518,-0.276,0.0
17.055,0.459,-0.341,0.0
31.793,0.841,0.243,0.0
28.547,0.746,0.062,0.0
25.019,0.645,-0.081,0.0
21.984,0.56,-0.194,0.0
19.112,0.48,-0.273,0.0
17.07,0.423,-0.337,0.0
31.971,0.779,0.253,0.0
28.664,0.689,0.07,0.0
25.191,0.597,-0.075,0.0
22.053,0.515,-0.188,0.0
19.255,0.443,-0.269,0.0
17.195,0.39,-0.334,0.0
32.571,0.725,0.267,0.0
28.726,0.63,0.079,1.0
25.357,0.548,-0.067,0.0
22.282,0.474,-0.183,0.0
19.505,0.408,-0.266,0.0
17.293,0.356,-0.33,0.0
32.591,0.658,0.279,0.0
28.648,0.569,0.089,1.0
25.465,0.497,-0.059,0.0
22.416,0.43,-0.176,0.0
19.808,0.373,-0.263,0.0
17.375,0.322,-0.326,0.0
33.06,0.599,0.295,0.0
28.785,0.511,0.1,1.0
25.699,0.448,-0.049,0.0
22.937,0.392,-0.171,0.0
19.964,0.334,-0.257,0.0
17.491,0.287,-0.321,0.0
33.481,0.536,0.312,0.0
28.858,0.453,0.112,5.0
25.935,0.398,-0.039,0.0
23.053,0.346,-0.162,0.0
20.097,0.295,-0.25,0.0
17.719,0.254,-0.317,0.0
33.73,0.47,0.33,0.0
28.868,0.393,0.126,6.0
26.248,0.348,-0.027,0.0
23.382,0.302,-0.153,0.0
20.299,0.255,-0.243,0.0
17.889,0.219,-0.311,0.0
33.987,0.403,0.349,0.0
28.897,0.333,0.14,6.0
26.517,0.296,-0.014,0.0
23.529,0.255,-0.142,0.0
20.667,0.217,-0.237,0.0
18.098,0.184,-0.305,0.0
34.5,0.337,0.372,0.0
28.9,0.272,0.155,2.0
26.863,0.244,0.0,0.0
23.802,0.208,-0.131,0.0
21.012,0.177,-0.229,1.0
18.262,0.147,-0.298,0.0
35.367,0.272,0.402,0.0
28.887,0.212,0.172,0.0
27.226,0.191,0.015,0.0
24.12,0.161,-0.119,0.0
21.199,0.134,-0.219,2.0
18.553,0.111,-0.292,0.0
36.472,0.206,0.436,0.0
30.982,0.165,0.203,0.0
27.549,0.137,0.032,0.0
24.506,0.113,-0.106,0.0
21.419,0.092,-0.208,4.0
18.788,0.074,-0.284,0.0
37.022,0.133,0.466,0.0
31.615,0.103,0.227,0.0
28.498,0.083,0.051,1.0
24.903,0.065,-0.091,0.0
21.706,0.049,-0.196,1.0
19.065,0.036,-0.275,0.0
37.38,0.058,0.495,0.0
33.099,0.04,0.26,0.0
28.54,0.025,0.071,1.0
25.218,0.014,-0.075,0.0
22.021,0.004,-0.184,0.0
19.484,-0.002,-0.267,0.0
0.0,0.0,0.0,0.0
33.065,-0.026,0.284,0.0
28.754,-0.032,0.092,6.0
25.622,-0.037,-0.058,0.0
23.045,-0.041,-0.175,0.0
19.824,-0.042,-0.257,0.0
39.969,-0.098,0.587,0.0
33.237,-0.093,0.31,1.0
28.81,-0.09,0.114,7.0
26.0,-0.09,-0.038,0.0
23.172,-0.088,-0.159,0.0
20.144,-0.083,-0.246,0.0
0.0,0.0,0.0,0.0
33.396,-0.16,0.337,0.0
28.834,-0.148,0.137,5.0
26.602,-0.145,-0.018,0.0
23.657,-0.137,-0.143,0.0
20.503,-0.125,-0.234,0.0
0.0,0.0,0.0,0.0
35.097,-0.238,0.383,0.0
28.857,-0.205,0.16,1.0
26.921,-0.2,0.003,0.0
24.095,-0.187,-0.126,0.0
21.01,-0.17,-0.222,0.0
0.0,0.0,0.0,0.0
0.0,0.0,0.0,0.0
31.378,-0.284,0.201,0.0
27.552,-0.259,0.027,0.0
24.45,-0.238,-0.106,0.0
21.71,-0.219,-0.21,0.0
0.0,0.0,0.0,0.0
0.0,0.0,0.0,0.0
32.051,-0.353,0.234,1.0
28.241,-0.321,0.053,1.0
25.159,-0.294,-0.087,0.0
22.262,-0.267,-0.195,0.0
0.0,0.0,0.0,0.0
0.0,0.0,0.0,0.0
32.521,-0.422,0.268,1.0
28.582,-0.38,0.08,1.0
25.512,-0.348,-0.064,0.0
22.918,-0.32,-0.179,0.0
47.777,-0.68,0.949,0.0
0.0,0.0,0.0,0.0
33.141,-0.493,0.305,1.0
28.696,-0.436,0.108,0.0
26.103,-0.405,-0.04,0.0
23.386,-0.37,-0.161,0.0
0.0,0.0,0.0,0.0
0.0,0.0,0.0,0.0
33.801,-0.566,0.344,2.0
28.688,-0.49,0.136,0.0
26.4,-0.459,-0.015,0.0
23.807,-0.421,-0.14,0.0
0.0,0.0,0.0,0.0
0.0,0.0,0.0,0.0
34.338,-0.638,0.383,0.0
28.769,-0.544,0.165,0.0
27.383,-0.526,0.012,0.0
24.494,-0.479,-0.119,0.0
0.0,0.0,0.0,0.0
43.257,-0.871,0.759,0.0
0.0,0.0,0.0,0.0
31.253,-0.649,0.213,0.0
28.269,-0.596,0.042,1.0
24.945,-0.534,-0.094,0.0
0.0,0.0,0.0,0.0
0.0,0.0,0.0,0.0
38.015,-0.846,0.505,0.0
32.26,-0.728,0.254,0.0
28.636,-0.655,0.074,6.0
25.597,-0.594,-0.069,0.0
0.0,0.0,0.0,0.0
0.0,0.0,0.0,0.0
0.0,0.0,0.0,0.0
33.129,-0.807,0.298,1.0
28.69,-0.708,0.106,6.0
26.22,-0.655,-0.041,0.0
0.0,0.0,0.0,0.0
0.0,0.0,0.0,0.0
0.0,0.0,0.0,0.0
33.905,-0.886,0.343,0.0
28.752,-0.76,0.139,2.0
26.685,-0.714,-0.011,0.0
0.0,0.0,0.0,0.0
0.0,0.0,0.0,0.0
0.0,0.0,0.0,0.0
35.327,-0.986,0.399,0.0
30.852,-0.87,0.185,0.0
27.654,-0.788,0.02,0.0
0.0,0.0,0.0,0.0
0.0,0.0,0.0,0.0
0.0,0.0,0.0,0.0
36.846,-1.091,0.461,0.0
31.617,-0.946,0.228,0.0
28.363,-0.857,0.055,1.0
0.0,0.0,0.0,0.0
0.0,0.0,0.0,0.0
0.0,0.0,0.0,0.0
0.0,0.0,0.0,0.0
32.489,-1.027,0.275,0.0
28.598,-0.912,0.091,2.0
92.848,-2.984,2.873,3.0
0.0,0.0,0.0,0.0
0.0,0.0,0.0,0.0
39.564,-1.305,0.593,0.0
33.882,-1.127,0.329,0.0
28.652,-0.962,0.127,0.0
92.806,-3.135,2.988,4.0
0.0,0.0,0.0,0.0
0.0,0.0,0.0,0.0
0.0,0.0,0.0,0.0
0.0,0.0,0.0,0.0
30.587,-1.076,0.175,0.0
92.145,-3.263,3.086,16.0
0.0,0.0,0.0,0.0
0.0,0.0,0.0,0.0
0.0,0.0,0.0,0.0
0.0,0.0,0.0,0.0
31.9,-1.173,0.224,0.0
92.122,-3.409,3.206,50.0
0.0,0.0,0.0,0.0
0.0,0.0,0.0,0.0
0.0,0.0,0.0,0.0
38.892,-1.482,0.53,0.0
32.52,-1.248,0.272,0.0
92.133,-3.556,3.331,56.0
92.695,-3.601,2.862,1.0
0.0,0.0,0.0,0.0
0.0,0.0,0.0,0.0
0.0,0.0,0.0,0.0
33.771,-1.348,0.329,0.0
92.159,-3.698,3.458,138.0
92.428,-3.733,2.981,4.0
0.0,0.0,0.0,0.0
0.0,0.0,0.0,0.0
0.0,0.0,0.0,0.0
34.699,-1.437,0.386,0.0
92.269,-3.841,3.589,12.0
92.211,-3.862,3.101,13.0
0.0,0.0,0.0,0.0
0.0,0.0,0.0,0.0
0.0,0.0,0.0,0.0
37.642,-1.614,0.47,0.0
92.689,-3.993,3.734,2.0
92.234,-3.996,3.23,80.0
0.0,0.0,0.0,0.0
0.0,0.0,0.0,0.0
0.0,0.0,0.0,0.0
38.43,-1.703,0.535,0.0
0.0,0.0,0.0,0.0
92.871,-4.158,3.387,4.0
0.0,0.0,0.0,0.0
0.0,0.0,0.0,0.0
0.0,0.0,0.0,0.0
0.0,0.0,0.0,0.0
0.0,0.0,0.0,0.0
94.362,-4.355,3.576,4.0
95.302,-4.421,3.111,1.0
0.0,0.0,0.0,0.0
0.0,0.0,0.0,0.0
0.0,0.0,0.0,0.0
0.0,0.0,0.0,0.0
0.0,0.0,0.0,0.0
0.0,0.0,0.0,0.0
0.0,0.0,0.0,0.0
0.0,0.0,0.0,0.0
0.0,0.0,0.0,0.0
0.0,0.0,0.0,0.0
0.0,0.0,0.0,0.0
109.424,-5.367,3.894,5.0
0.0,0.0,0.0,0.0
0.0,0.0,0.0,0.0
0.0,0.0,0.0,0.0
0.0,0.0,0.0,0.0
0.0,0.0,0.0,0.0
109.395,-5.506,4.058,144.0
0.0,0.0,0.0,0.0
0.0,0.0,0.0,0.0
0.0,0.0,0.0,0.0
189.231,-9.682,9.288,6.0
0.0,0.0,0.0,0.0
0.0,0.0,0.0,0.0
109.382,-5.664,3.639,150.0
34.414,-1.789,0.964,0.0
240.912,-12.578,5.495,45.0
189.075,-9.908,9.572,20.0
188.694,-9.923,8.562,7.0
0.0,0.0,0.0,0.0
109.337,-5.794,3.806,84.0
34.184,-1.818,1.011,29.0
34.236,-1.828,0.834,2.0
123.075,-6.595,6.421,11.0
188.848,-10.156,8.864,5.0
0.0,0.0,0.0,0.0
34.248,-1.854,1.245,0.0
34.168,-1.857,1.063,221.0
34.166,-1.864,0.885,2.0
188.935,-10.344,10.154,19.0
188.947,-10.377,9.163,15.0
0.0,0.0,0.0,0.0
34.233,-1.893,1.298,0.0
34.166,-1.895,1.117,150.0
34.111,-1.898,0.937,3.0
121.121,-6.764,6.697,13.0
189.027,-10.588,9.462,21.0
0.0,0.0,0.0,0.0
34.304,-1.934,1.355,0.0
34.128,-1.936,0.99,20.0
120.908,-6.881,6.877,14.0
188.826,-10.779,9.749,9.0
188.241,-10.775,8.732,6.0
0.0,0.0,0.0,0.0
34.084,-1.962,1.221,2.0
34.096,-1.969,1.043,45.0
112.071,-6.493,6.549,9.0
188.603,-10.955,10.032,17.0
188.761,-10.994,9.051,10.0
0.0,0.0,0.0,0.0
34.058,-1.994,1.273,3.0
34.064,-2.0,1.096,18.0
112.007,-6.598,6.722,7.0
188.283,-11.12,10.313,16.0
188.635,-11.17,9.345,18.0
0.0,0.0,0.0,0.0
34.034,-2.026,1.327,2.0
34.011,-2.029,1.148,4.0
122.387,-7.327,7.542,8.0
120.627,-7.237,6.801,7.0
187.637,-11.286,9.597,14.0
0.0,0.0,0.0,0.0
34.24,-2.069,1.389,0.0
33.998,-2.059,1.202,4.0
92.258,-5.607,5.834,6.0
92.84,-5.655,5.384,8.0
187.77,-11.464,9.908,22.0
188.022,-11.503,8.917,4.0
34.359,-2.107,1.45,0.0
34.003,-2.089,1.257,4.0
122.201,-7.532,7.926,9.0
92.588,-5.719,5.52,9.0
188.362,-11.659,10.242,18.0
189.386,-11.745,9.286,10.0
34.506,-2.144,1.511,0.0
33.977,-2.116,1.311,7.0
89.642,-5.6,5.959,6.0
92.28,-5.776,5.65,15.0
189.04,-11.854,10.586,15.0
0.0,0.0,0.0,0.0
34.688,-2.183,1.576,0.0
34.086,-2.149,1.37,1.0
89.583,-5.667,6.1,9.0
121.961,-7.729,7.665,11.0
120.992,-7.68,6.971,9.0
188.606,-11.993,9.861,8.0
34.79,-2.216,1.636,0.0
34.299,-2.188,1.434,0.0
120.016,-7.681,8.368,9.0
121.911,-7.815,7.861,15.0
120.666,-7.748,7.148,9.0
188.979,-12.152,10.186,8.0
0.0,0.0,0.0,0.0
34.354,-2.216,1.492,0.0
119.598,-7.74,8.535,12.0
121.817,-7.893,8.054,15.0
92.366,-5.994,5.623,9.0
156.997,-10.203,8.718,27.0
0.0,0.0,0.0,0.0
34.516,-2.249,1.555,0.0
122.044,-7.978,8.908,7.0
89.54,-5.861,6.065,14.0
89.836,-5.887,5.614,13.0
92.282,-6.055,5.275,8.0
157.081,-10.322,8.156,21.0
34.852,-2.292,1.627,0.0
88.347,-5.83,6.593,4.0
119.325,-7.883,8.277,8.0
89.774,-5.937,5.756,9.0
188.997,-12.513,11.109,11.0
156.999,-10.407,8.406,5.0
34.837,-2.312,1.683,0.0
88.539,-5.894,6.752,19.0
147.243,-9.81,10.455,4.0
122.264,-8.154,8.04,16.0
92.365,-6.167,5.58,14.0
156.833,-10.482,8.652,10.0
35.369,-2.366,1.766,0.0
88.56,-5.942,6.899,22.0
119.576,-8.031,8.685,6.0
121.809,-8.188,8.207,19.0
121.912,-8.201,7.563,7.0
92.248,-6.211,5.238,13.0
156.95,-10.578,8.091,16.0
88.573,-5.987,7.044,15.0
119.764,-8.102,8.894,4.0
122.033,-8.262,8.422,19.0
122.012,-8.265,7.768,12.0
156.553,-10.614,9.144,17.0
156.822,-10.639,8.338,9.0
88.336,-6.011,7.168,19.0
118.736,-8.084,9.01,7.0
122.221,-8.326,8.631,10.0
122.113,-8.324,7.971,16.0
156.517,-10.675,9.394,7.0
189.257,-12.917,10.368,13.0
119.479,-8.179,9.889,8.0
118.645,-8.124,9.195,13.0
119.534,-8.189,8.633,9.0
122.087,-8.368,8.164,18.0
92.385,-6.335,5.692,4.0
189.152,-12.978,10.662,10.0
88.603,-6.097,7.475,8.0
88.496,-6.092,6.999,9.0
121.9,-8.394,9.0,6.0
122.452,-8.434,8.382,11.0
148.447,-10.229,9.382,4.0
189.183,-13.041,10.964,19.0
88.583,-6.124,7.615,25.0
88.37,-6.11,7.13,15.0
119.195,-8.244,8.988,16.0
122.439,-8.469,8.576,13.0
122.215,-8.455,7.918,13.0
188.889,-13.072,11.246,13.0
88.591,-6.149,7.757,7.0
88.278,-6.127,7.263,12.0
118.752,-8.243,9.142,15.0
119.476,-8.294,8.557,6.0
122.182,-8.482,8.106,13.0
188.952,-13.12,11.544,4.0
117.393,-8.176,10.464,13.0
119.257,-8.305,10.0,13.0
88.699,-6.176,6.968,14.0
121.791,-8.48,8.913,3.0
122.534,-8.532,8.321,13.0
154.415,-10.751,9.674,7.0
118.693,-8.289,10.765,6.0
88.554,-6.183,7.564,27.0
88.37,-6.169,7.08,14.0
119.279,-8.325,8.914,14.0
122.51,-8.549,8.509,14.0
122.288,-8.533,7.85,9.0
116.94,-8.185,10.788,7.0
88.593,-6.198,7.703,12.0
88.222,-6.17,7.203,18.0
119.101,-8.327,9.083,18.0
122.212,-8.542,8.675,7.0
122.182,-8.538,8.029,14.0
118.444,-8.303,11.107,11.0
118.533,-8.304,10.487,5.0
119.265,-8.352,9.92,11.0
88.671,-6.207,6.896,16.0
121.836,-8.525,8.832,6.0
122.421,-8.563,8.228,12.0
91.331,-6.408,8.704,14.0
118.725,-8.324,10.683,9.0
88.541,-6.204,7.498,16.0
88.604,-6.206,7.025,13.0
119.549,-8.37,8.845,9.0
122.584,-8.577,8.423,14.0
91.353,-6.411,8.844,12.0
118.804,-8.332,10.869,8.0
88.56,-6.207,7.631,22.0
88.238,-6.18,7.127,15.0
119.205,-8.344,8.996,16.0
122.522,-8.571,8.598,13.0
91.136,-6.394,8.958,9.0
118.473,-8.306,11.014,9.0
88.502,-6.2,7.756,4.0
88.225,-6.176,7.254,13.0
88.696,-6.204,6.823,8.0
121.895,-8.521,8.732,6.0
91.159,-6.391,9.095,19.0
91.363,-6.399,8.627,7.0
118.434,-8.288,10.553,4.0
88.509,-6.188,7.408,8.0
88.699,-6.196,6.953,19.0
119.812,-8.362,8.757,8.0
91.198,-6.384,9.232,10.0
91.333,-6.387,8.758,18.0
117.058,-8.178,10.6,6.0
88.546,-6.18,7.538,28.0
88.427,-6.166,7.057,13.0
119.346,-8.314,8.891,11.0
93.481,-6.531,9.596,15.0
91.355,-6.376,8.889,9.0
116.978,-8.154,10.757,12.0
88.58,-6.168,7.665,15.0
88.267,-6.14,7.167,15.0
118.933,-8.265,9.026,19.0
93.617,-6.524,9.741,4.0
91.192,-6.347,9.001,18.0
117.232,-8.15,10.945,11.0
117.293,-8.144,10.312,14.0
88.315,-6.125,7.293,7.0
118.676,-8.22,9.169,13.0
148.417,-10.311,15.65,13.0
91.158,-6.325,9.122,22.0
91.386,-6.331,8.656,12.0
117.227,-8.112,10.464,11.0
88.589,-6.121,7.435,8.0
88.536,-6.11,6.96,8.0
148.503,-10.28,15.86,15.0
93.471,-6.46,9.48,6.0
91.434,-6.31,8.784,12.0
117.127,-8.072,10.612,13.0
88.627,-6.098,7.557,22.0
88.36,-6.072,7.062,20.0
148.723,-10.252,16.081,18.0
93.597,-6.441,9.617,15.0
93.967,-6.456,9.15,6.0
117.101,-8.033,10.764,14.0
88.714,-6.077,7.68,26.0
88.311,-6.04,7.174,16.0
148.534,-10.188,16.257,13.0
93.842,-6.426,9.765,10.0
91.305,-6.242,9.01,19.0
117.198,-7.998,10.926,4.0
88.621,-6.038,7.786,11.0
119.306,-8.116,9.844,5.0
90.814,-6.195,10.057,12.0
147.602,-10.052,15.549,12.0
91.367,-6.211,9.133,22.0
118.397,-8.034,11.188,4.0
117.14,-7.934,10.44,9.0
88.856,-6.009,7.443,9.0
90.846,-6.161,10.176,18.0
147.666,-9.994,15.742,4.0
91.481,-6.18,9.259,12.0
91.507,-6.17,8.76,26.0
117.027,-7.877,10.574,14.0
88.796,-5.965,7.547,20.0
90.035,-6.065,10.197,21.0
150.384,-10.11,16.219,5.0
93.788,-6.293,9.608,18.0
91.537,-6.129,8.875,16.0
91.6,-6.122,8.387,22.0
88.649,-5.913,7.641,21.0
89.974,-6.018,10.3,34.0
113.28,-7.56,12.354,12.0
112.872,-7.516,11.699,9.0
91.437,-6.076,8.974,17.0
91.622,-6.076,8.498,28.0
88.537,-5.859,7.737,31.0
90.081,-5.978,10.419,29.0
150.461,-9.962,16.586,5.0
113.034,-7.468,11.847,11.0
91.449,-6.028,9.081,16.0
91.615,-6.026,8.603,18.0
88.614,-5.816,7.844,25.0
90.309,-5.944,10.548,19.0
90.995,-5.974,10.134,9.0
97.72,-6.4,10.353,11.0
87.389,-5.711,8.776,14.0
91.43,-5.961,8.688,17.0
88.699,-5.769,7.95,13.0
89.805,-5.857,10.591,16.0
90.831,-5.91,10.217,13.0
91.018,-5.907,9.744,16.0
87.178,-5.643,8.851,12.0
91.321,-5.897,8.777,26.0
116.947,-7.535,10.608,11.0
89.494,-5.781,10.651,23.0
90.579,-5.836,10.287,19.0
90.904,-5.843,9.828,15.0
87.179,-5.589,8.942,17.0
87.265,-5.58,8.478,10.0
93.743,-5.98,8.6,8.0
89.695,-5.736,10.768,15.0
90.634,-5.781,10.386,23.0
90.771,-5.774,9.907,14.0
87.377,-5.543,9.052,15.0
87.189,-5.517,8.559,24.0
93.731,-5.916,8.693,9.0
89.751,-5.679,10.867,21.0
90.51,-5.711,10.463,26.0
90.914,-5.72,10.014,10.0
87.245,-5.475,9.124,25.0
87.447,-5.472,8.67,29.0
87.644,-5.469,8.214,16.0
89.816,-5.619,10.963,22.0
90.602,-5.651,10.563,19.0
90.964,-5.657,10.107,23.0
87.195,-5.407,9.203,27.0
87.627,-5.419,8.771,29.0
87.746,-5.411,8.306,25.0
89.943,-5.56,11.063,20.0
89.943,-5.543,10.57,17.0
91.048,-5.594,10.2,17.0
87.234,-5.344,9.287,12.0
87.678,-5.356,8.856,14.0
87.856,-5.351,8.395,33.0
90.052,-5.497,11.158,13.0
89.769,-5.463,10.629,20.0
91.215,-5.533,10.3,12.0
93.751,-5.669,10.064,20.0
87.642,-5.284,8.929,19.0
87.968,-5.287,8.482,30.0
89.781,-5.408,11.204,10.0
89.7,-5.386,10.699,23.0
90.656,-5.426,10.315,13.0
93.79,-5.595,10.147,9.0
87.453,-5.201,8.983,18.0
88.02,-5.219,8.56,21.0
89.474,-5.316,11.24,13.0
90.006,-5.329,10.81,6.0
90.888,-5.364,10.416,18.0
91.603,-5.389,9.984,16.0
87.519,-5.13,9.06,29.0
87.69,-5.125,8.597,20.0
87.161,-5.104,11.019,20.0
87.999,-5.135,10.638,23.0
89.966,-5.232,10.379,13.0
91.654,-5.312,10.06,19.0
87.523,-5.055,9.126,13.0
87.645,-5.045,8.658,22.0
87.073,-5.022,11.074,15.0
87.896,-5.051,10.692,26.0
89.669,-5.135,10.411,17.0
82.256,-4.694,9.089,19.0
91.66,-5.213,9.623,14.0
87.739,-4.973,8.729,28.0
89.718,-5.094,11.474,11.0
87.751,-4.963,10.736,24.0
86.973,-4.902,10.159,12.0
82.213,-4.617,9.14,15.0
91.792,-5.135,9.7,23.0
88.187,-4.916,8.834,20.0
89.838,-5.017,11.55,14.0
87.45,-4.864,10.758,14.0
86.576,-4.798,10.17,19.0
82.303,-4.544,9.204,29.0
82.886,-4.559,8.812,13.0
88.186,-4.832,8.89,21.0
90.135,-4.946,11.646,14.0
87.587,-4.788,10.83,12.0
86.642,-4.718,10.232,33.0
82.371,-4.468,9.262,25.0
82.939,-4.482,8.867,10.0
88.133,-4.745,8.936,22.0
93.052,-5.016,12.078,9.0
87.781,-4.714,10.905,14.0
86.792,-4.642,10.299,29.0
82.465,-4.392,9.32,20.0
82.936,-4.4,8.914,15.0
88.096,-4.655,8.981,23.0
93.193,-4.93,12.149,12.0
86.976,-4.582,10.853,16.0
86.96,-4.562,10.366,32.0
87.059,-4.549,9.885,11.0
82.951,-4.316,8.959,13.0
88.877,-4.607,9.106,13.0
86.247,-4.475,11.287,13.0
86.917,-4.491,10.889,30.0
87.197,-4.486,10.438,26.0
81.441,-4.171,9.287,10.0
82.794,-4.223,8.981,29.0
82.318,-4.181,8.473,5.0
86.304,-4.388,11.335,17.0
86.974,-4.403,10.936,26.0
87.088,-4.389,10.464,27.0
81.932,-4.111,9.379,19.0
82.58,-4.126,8.994,30.0
79.663,-3.963,8.234,20.0
86.301,-4.296,11.372,14.0
87.018,-4.312,10.979,22.0
86.463,-4.266,10.424,24.0
81.94,-4.024,9.413,30.0
82.654,-4.041,9.034,32.0
79.652,-3.878,8.263,17.0
92.923,-4.526,12.28,6.0
86.573,-4.197,10.955,17.0
86.463,-4.172,10.456,12.0
81.996,-3.938,9.449,25.0
82.766,-3.956,9.076,23.0
79.504,-3.783,8.275,19.0
92.936,-4.424,12.314,12.0
86.592,-4.103,10.986,14.0
80.866,-3.812,9.806,25.0
82.09,-3.852,9.485,21.0
82.747,-3.866,9.098,19.0
79.545,-3.698,8.303,24.0
89.28,-4.151,11.856,11.0
85.706,-3.966,10.898,18.0
81.0,-3.729,9.844,26.0
81.995,-3.756,9.497,36.0
82.63,-3.767,9.108,16.0
79.657,-3.614,8.335,13.0
86.55,-3.927,11.515,16.0
85.817,-3.874,10.933,26.0
81.018,-3.638,9.865,28.0
81.749,-3.653,9.487,23.0
82.713,-3.677,9.135,10.0
79.677,-3.525,8.353,29.0
86.112,-3.809,11.474,28.0
86.118,-3.789,10.988,26.0
81.449,-3.565,9.933,14.0
81.211,-3.536,9.439,34.0
80.486,-3.487,8.902,14.0
79.801,-3.439,8.379,28.0
86.151,-3.711,11.493,29.0
86.334,-3.699,11.029,10.0
85.76,-3.655,10.471,12.0
81.116,-3.439,9.438,31.0
65.359,-2.756,7.237,16.0
64.137,-2.69,6.742,16.0
86.251,-3.615,11.516,15.0
85.603,-3.568,10.944,13.0
81.725,-3.388,9.986,26.0
77.575,-3.198,9.034,25.0
64.582,-2.648,7.156,11.0
64.236,-2.621,6.757,23.0
86.282,-3.515,11.526,28.0
77.157,-3.126,9.869,12.0
81.679,-3.29,9.985,23.0
77.587,-3.108,9.038,31.0
64.474,-2.569,7.147,28.0
64.332,-2.549,6.769,25.0
86.131,-3.407,11.508,11.0
77.113,-3.034,9.864,34.0
78.214,-3.058,9.562,12.0
77.669,-3.019,9.047,20.0
64.506,-2.494,7.15,24.0
64.445,-2.477,6.78,29.0
80.455,-3.088,10.747,22.0
77.188,-2.944,9.872,26.0
84.432,-3.202,10.318,9.0
77.748,-2.931,9.053,14.0
64.583,-2.42,7.154,23.0
64.486,-2.403,6.78,31.0
0.0,0.0,0.0,0.0
77.376,-2.859,9.89,22.0
81.684,-3.0,9.975,9.0
80.531,-2.939,9.369,24.0
64.555,-2.342,7.145,13.0
64.632,-2.331,6.788,32.0
79.797,-2.871,10.645,23.0
79.878,-2.857,10.199,17.0
77.804,-2.765,9.491,12.0
80.615,-2.846,9.368,15.0
65.173,-2.286,7.204,28.0
64.731,-2.257,6.789,29.0
77.948,-2.71,10.385,12.0
77.391,-2.674,9.869,19.0
77.274,-2.652,9.413,19.0
65.284,-2.226,7.574,35.0
64.952,-2.201,7.167,16.0
64.775,-2.18,6.78,30.0
77.977,-2.616,10.372,15.0
77.45,-2.581,9.859,22.0
77.214,-2.557,9.388,29.0
65.298,-2.147,7.56,26.0
65.012,-2.124,7.158,20.0
65.094,-2.113,6.797,29.0
80.231,-2.594,10.652,20.0
77.308,-2.483,9.821,34.0
77.182,-2.463,9.363,23.0
65.314,-2.07,7.544,25.0
65.022,-2.047,7.14,37.0
65.029,-2.033,6.772,37.0
80.187,-2.496,10.622,26.0
76.918,-2.377,9.747,15.0
74.3,-2.282,8.99,10.0
65.354,-1.992,7.528,17.0
64.909,-1.965,7.106,30.0
64.864,-1.95,6.733,29.0
79.842,-2.389,10.548,7.0
77.47,-2.301,9.79,19.0
74.276,-2.191,8.96,16.0
0.0,0.0,0.0,0.0
65.121,-1.892,7.105,31.0
64.805,-1.87,6.702,35.0
64.569,-1.854,8.505,26.0
76.986,-2.194,9.698,12.0
74.495,-2.107,8.956,11.0
74.43,-2.09,8.515,12.0
64.933,-1.81,7.057,35.0
64.831,-1.794,6.677,36.0
64.573,-1.776,8.477,21.0
74.442,-2.031,9.344,14.0
76.315,-2.067,9.14,13.0
74.857,-2.012,8.53,31.0
64.857,-1.729,7.019,34.0
64.816,-1.716,6.645,30.0
64.54,-1.697,8.441,31.0
74.318,-1.939,9.292,31.0
74.584,-1.931,8.896,6.0
74.793,-1.921,8.485,10.0
64.747,-1.65,6.974,39.0
64.921,-1.642,6.622,23.0
64.653,-1.624,8.422,33.0
74.418,-1.854,9.265,29.0
74.465,-1.839,8.842,39.0
65.457,-1.603,7.389,18.0
64.615,-1.57,6.924,32.0
64.922,-1.564,6.586,22.0
64.475,-1.541,8.361,27.0
74.651,-1.769,9.25,27.0
65.251,-1.533,7.709,14.0
65.427,-1.524,7.347,11.0
64.624,-1.493,6.886,31.0
64.758,-1.484,6.53,39.0
64.528,-1.466,8.328,30.0
64.022,-1.441,7.893,16.0
65.259,-1.457,7.669,16.0
65.54,-1.45,7.318,24.0
64.608,-1.416,6.843,33.0
64.367,-1.399,6.448,26.0
64.604,-1.391,8.295,33.0
64.039,-1.366,7.852,13.0
74.676,-1.579,8.725,19.0
65.246,-1.367,7.24,30.0
64.58,-1.34,6.795,28.0
64.311,-1.323,6.398,26.0
65.219,-1.328,8.327,42.0
64.208,-1.294,7.826,14.0
63.48,-1.267,7.37,16.0
65.124,-1.288,7.179,30.0
64.715,-1.267,6.761,39.0
64.405,-1.249,6.36,24.0
58.946,-1.13,7.481,10.0
64.129,-1.217,7.767,24.0
63.444,-1.192,7.317,8.0
65.037,-1.21,7.119,29.0
64.662,-1.191,6.705,33.0
64.362,-1.174,6.304,27.0
58.777,-1.058,7.413,34.0
63.851,-1.138,7.682,17.0
63.492,-1.12,7.271,23.0
65.305,-1.141,7.095,29.0
64.639,-1.117,6.65,30.0
64.268,-1.098,6.242,25.0
58.379,-0.984,7.312,33.0
63.91,-1.066,7.634,7.0
64.2,-1.059,7.297,40.0
65.331,-1.066,7.041,18.0
64.509,-1.041,6.58,32.0
64.109,-1.023,6.171,28.0
58.229,-0.915,7.242,24.0
63.861,-0.993,7.571,8.0
58.361,-0.897,6.581,21.0
58.517,-0.889,6.254,10.0
64.348,-0.966,6.505,38.0
63.936,-0.949,6.095,24.0
58.206,-0.849,7.184,27.0
73.41,-1.059,8.634,8.0
57.866,-0.825,6.47,32.0
64.879,-0.914,6.872,11.0
64.298,-0.894,6.439,32.0
64.122,-0.881,6.052,15.0
58.303,-0.787,7.139,29.0
63.615,-0.847,7.42,22.0
64.334,-0.846,7.13,8.0
58.638,-0.761,6.153,33.0
63.935,-0.82,6.34,15.0
66.131,-0.837,6.176,27.0
58.435,-0.724,7.097,20.0
63.741,-0.779,7.37,33.0
57.353,-0.692,6.298,30.0
64.614,-0.77,6.714,9.0
58.413,-0.686,5.732,23.0
0.0,0.0,0.0,0.0
60.067,-0.68,7.232,32.0
64.106,-0.716,7.344,20.0
57.405,-0.631,6.242,31.0
58.782,-0.637,6.045,17.0
58.483,-0.625,5.676,24.0
67.748,-0.714,6.184,30.0
60.025,-0.616,7.16,28.0
60.011,-0.606,6.808,22.0
57.426,-0.571,6.181,31.0
58.743,-0.576,5.976,7.0
0.0,0.0,0.0,0.0
67.195,-0.638,6.058,35.0
59.97,-0.554,7.085,21.0
59.979,-0.544,6.737,27.0
57.419,-0.512,6.115,31.0
66.483,-0.583,6.687,27.0
57.002,-0.491,5.402,22.0
64.766,-0.549,5.764,21.0
63.603,-0.522,7.44,23.0
57.424,-0.463,6.382,14.0
57.412,-0.454,6.046,30.0
56.69,-0.439,5.634,4.0
57.053,-0.434,5.339,25.0
64.681,-0.483,5.678,21.0
59.88,-0.431,6.931,25.0
57.439,-0.405,6.313,27.0
0.0,0.0,0.0,0.0
65.153,-0.441,6.395,5.0
57.109,-0.378,5.274,30.0
64.726,-0.419,5.602,25.0
59.829,-0.372,6.849,25.0
57.46,-0.349,6.242,24.0
57.06,-0.338,5.866,31.0
56.823,-0.329,5.505,6.0
64.844,-0.367,5.905,9.0
64.567,-0.356,5.505,17.0
59.881,-0.314,6.777,8.0
57.459,-0.293,6.167,31.0
57.028,-0.283,5.788,31.0
0.0,0.0,0.0,0.0
64.779,-0.305,5.815,25.0
62.375,-0.286,5.237,21.0
57.51,-0.248,6.433,15.0
57.482,-0.24,6.093,31.0
56.748,-0.23,5.684,25.0
57.247,-0.224,5.395,24.0
64.678,-0.245,5.719,31.0
62.583,-0.23,5.17,15.0
57.543,-0.195,6.356,18.0
57.066,-0.186,5.97,31.0
56.743,-0.178,5.605,22.0
57.273,-0.173,5.318,29.0
62.89,-0.182,5.474,8.0
62.503,-0.174,5.077,22.0
57.579,-0.144,6.28,25.0
57.121,-0.136,5.895,30.0
56.886,-0.128,5.539,27.0
57.343,-0.122,5.243,26.0
62.731,-0.127,5.37,29.0
62.5,-0.119,4.988,12.0
57.546,-0.094,6.193,25.0
57.111,-0.086,5.812,31.0
57.149,-0.08,5.482,16.0
57.631,-0.074,5.186,6.0
59.124,-0.07,4.976,20.0
76.892,-0.082,6.025,29.0
57.218,-0.044,6.073,32.0
56.881,-0.038,5.704,28.0
57.386,-0.032,5.419,26.0
58.963,-0.027,5.218,29.0
62.492,-0.022,5.167,10.0
76.874,-0.02,5.909,20.0
57.092,0.001,5.973,23.0
56.916,0.007,5.621,30.0
57.598,0.013,5.352,31.0
59.188,0.019,5.148,22.0
62.53,0.027,5.074,28.0
63.328,0.034,4.771,25.0
57.091,0.046,5.884,25.0
57.121,0.052,5.553,31.0
57.908,0.058,5.291,31.0
59.155,0.065,5.053,23.0
62.78,0.075,4.997,28.0
63.336,0.082,4.673,24.0
57.122,0.089,5.798,22.0
56.859,0.094,5.438,31.0
58.618,0.103,5.264,33.0
62.723,0.115,5.26,30.0
63.387,0.122,4.946,19.0
63.327,0.128,4.573,7.0
57.083,0.13,5.704,32.0
56.583,0.134,5.322,27.0
59.175,0.146,5.219,20.0
62.73,0.16,5.16,31.0
63.441,0.167,4.848,20.0
76.952,0.209,5.432,10.0
57.131,0.171,5.615,26.0
57.152,0.176,5.281,32.0
62.997,0.199,5.452,22.0
62.775,0.203,5.061,36.0
63.473,0.21,4.747,24.0
87.104,0.295,6.007,12.0
57.171,0.209,5.524,32.0
57.963,0.216,5.26,19.0
63.2,0.241,5.365,37.0
77.093,0.3,6.087,12.0
90.82,0.36,6.64,12.0
79.424,0.321,5.344,62.0
56.803,0.244,5.392,29.0
58.661,0.257,5.224,23.0
63.001,0.28,5.241,27.0
63.496,0.286,4.905,28.0
62.824,0.288,4.487,15.0
79.444,0.37,5.211,113.0
56.821,0.279,5.296,31.0
63.139,0.314,5.515,26.0
62.786,0.317,5.116,30.0
63.533,0.324,4.798,38.0
62.704,0.324,4.37,16.0
79.339,0.416,5.067,14.0
58.769,0.322,5.375,15.0
58.308,0.323,4.99,27.0
63.138,0.354,5.034,36.0
63.098,0.357,4.656,28.0
79.325,0.455,5.39,5.0
79.316,0.459,4.927,4.0
58.12,0.35,5.213,16.0
63.241,0.385,5.302,17.0
63.216,0.388,4.929,34.0
62.786,0.389,4.522,25.0
76.458,0.478,5.061,14.0
79.3,0.5,4.786,3.0
58.372,0.382,5.131,28.0
63.098,0.416,5.176,23.0
63.126,0.42,4.808,25.0
62.726,0.42,4.404,25.0
76.483,0.516,4.924,6.0
79.305,0.539,4.644,3.0
58.152,0.408,5.005,33.0
63.184,0.446,5.068,31.0
63.023,0.448,4.686,22.0
76.733,0.549,5.249,26.0
79.342,0.571,4.963,2.0
79.304,0.575,4.498,7.0
56.932,0.425,4.795,22.0
63.279,0.475,4.958,26.0
62.902,0.475,4.56,30.0
76.642,0.581,5.1,30.0
76.807,0.586,4.662,4.0
79.343,0.608,4.354,8.0
63.107,0.497,5.197,15.0
63.261,0.501,4.839,32.0
62.747,0.499,4.432,18.0
76.595,0.611,4.954,11.0
79.326,0.636,4.668,2.0
79.336,0.639,4.205,6.0
62.805,0.518,5.055,38.0
63.086,0.523,4.707,32.0
76.763,0.638,5.277,19.0
76.717,0.64,4.818,5.0
79.344,0.664,4.519,6.0
79.382,0.667,4.058,8.0
63.295,0.544,4.973,20.0
62.861,0.542,4.569,32.0
76.69,0.663,5.126,18.0
76.713,0.665,4.671,9.0
79.353,0.69,4.367,6.0
79.322,0.691,3.902,7.0
63.287,0.563,4.851,17.0
62.788,0.56,4.443,7.0
76.639,0.685,4.974,11.0
79.266,0.71,4.673,3.0
79.347,0.712,4.214,9.0
79.362,0.714,3.752,6.0
63.108,0.579,4.713,8.0
76.612,0.704,5.273,21.0
79.427,0.731,5.001,4.0
79.318,0.73,4.522,9.0
79.379,0.733,4.062,11.0
79.365,0.733,3.597,11.0
62.89,0.592,4.573,23.0
76.688,0.722,5.126,22.0
76.727,0.723,4.68,5.0
79.331,0.748,4.367,10.0
79.315,0.749,3.902,5.0
79.333,0.749,3.44,4.0
76.101,0.731,5.384,26.0
76.655,0.737,4.973,17.0
89.953,0.865,5.308,14.0
79.313,0.763,4.209,5.0
79.325,0.763,3.746,2.0
108.437,1.042,4.488,6.0
76.29,0.745,5.246,24.0
79.486,0.776,5.0,36.0
88.388,0.863,5.041,7.0
89.681,0.875,4.58,7.0
109.216,1.066,4.94,6.0
108.126,1.054,4.259,16.0
76.591,0.757,5.112,18.0
90.076,0.89,5.485,12.0
90.82,0.897,4.997,11.0
92.091,0.908,4.519,11.0
109.042,1.075,4.715,6.0
107.893,1.062,4.035,5.0
76.64,0.764,4.962,16.0
0.0,0.0,0.0,0.0
90.704,0.902,4.81,14.0
109.081,1.083,5.135,6.0
108.384,1.075,4.469,11.0
57.571,0.57,2.037,0.0
79.513,0.797,4.987,9.0
88.388,0.884,5.025,13.0
89.658,0.895,4.573,6.0
109.101,1.087,4.916,9.0
108.037,1.075,4.237,19.0
57.495,0.571,1.919,0.0
90.06,0.904,5.466,14.0
90.841,0.91,4.981,12.0
92.179,0.921,4.514,12.0
109.034,1.086,4.691,8.0
107.99,1.073,4.014,2.0
57.664,0.571,1.807,0.0
88.552,0.886,5.193,7.0
90.566,0.903,4.781,15.0
109.122,1.086,5.121,6.0
108.3,1.074,4.439,13.0
0.0,0.0,0.0,0.0
57.683,0.569,1.69,1.0
88.415,0.879,5.005,10.0
92.197,0.913,4.679,6.0
109.138,1.077,4.897,8.0
108.013,1.063,4.206,16.0
57.725,0.565,1.91,0.0
57.733,0.563,1.573,0.0
90.882,0.894,4.957,11.0
92.066,0.902,4.482,6.0
108.946,1.063,4.665,3.0
0.0,0.0,0.0,0.0
57.696,0.558,1.79,2.0
57.622,0.555,1.451,0.0
90.568,0.878,4.752,8.0
79.344,0.766,3.699,3.0
108.235,1.04,4.413,8.0
58.04,0.555,2.021,0.0
57.78,0.55,1.674,3.0
57.477,0.544,1.33,0.0
79.399,0.755,4.002,5.0
79.406,0.752,3.538,8.0
79.424,0.748,3.073,5.0
58.004,0.543,1.898,1.0
57.891,0.539,1.556,2.0
0.0,0.0,0.0,0.0
79.39,0.738,3.835,5.0
79.388,0.734,3.37,10.0
79.424,0.729,2.907,3.0
57.817,0.528,1.772,1.0
57.78,0.524,1.433,1.0
0.0,0.0,0.0,0.0
79.356,0.717,3.668,10.0
79.369,0.713,3.204,12.0
78.078,0.696,2.695,3.0
57.931,0.513,1.654,2.0
0.0,0.0,0.0,0.0
0.0,0.0,0.0,0.0
79.378,0.694,3.503,10.0
79.368,0.689,3.038,5.0
78.124,0.673,2.534,3.0
57.916,0.495,1.534,1.0
0.0,0.0,0.0,0.0
40.167,0.337,0.594,0.0
79.405,0.668,3.339,8.0
78.076,0.651,2.827,26.0
79.501,0.658,2.413,2.0
0.0,0.0,0.0,0.0
0.0,0.0,0.0,0.0
0.0,0.0,0.0,0.0
79.34,0.638,3.17,5.0
78.122,0.622,2.665,16.0
75.397,0.595,2.132,6.0
0.0,0.0,0.0,0.0
0.0,0.0,0.0,0.0
33.958,0.26,0.361,0.0
78.058,0.596,2.958,11.0
78.138,0.59,2.504,17.0
74.734,0.558,1.957,1.0
0.0,0.0,0.0,0.0
38.638,0.282,0.556,0.0
32.772,0.236,0.28,0.0
78.033,0.561,2.795,13.0
78.16,0.555,2.342,2.0
0.0,0.0,0.0,0.0
0.0,0.0,0.0,0.0
36.392,0.248,0.449,0.0
28.973,0.195,0.188,0.0
78.183,0.524,2.639,25.0
75.167,0.497,2.099,4.0
0.0,0.0,0.0,0.0
43.523,0.279,0.702,0.0
34.132,0.216,0.352,0.0
28.838,0.18,0.129,0.0
78.15,0.484,2.478,9.0
73.77,0.449,1.906,0.0
0.0,0.0,0.0,0.0
38.812,0.228,0.546,0.0
31.778,0.184,0.261,0.0
28.299,0.161,0.067,1.0
75.906,0.427,2.249,4.0
0.0,0.0,0.0,0.0
0.0,0.0,0.0,0.0
0.0,0.0,0.0,0.0
30.906,0.161,0.191,0.0
27.01,0.138,0.009,0.0
75.289,0.378,2.076,3.0
0.0,0.0,0.0,0.0
0.0,0.0,0.0,0.0
0.0,0.0,0.0,0.0
28.754,0.132,0.118,1.0
25.684,0.115,-0.043,0.0
0.0,0.0,0.0,0.0
0.0,0.0,0.0,0.0
37.772,0.157,0.523,0.0
31.397,0.127,0.248,0.0
28.005,0.11,0.058,0.0
24.695,0.094,-0.092,0.0
0.0,0.0,0.0,0.0
0.0,0.0,0.0,0.0
35.815,0.125,0.423,0.0
30.262,0.102,0.178,0.0
26.87,0.087,0.001,0.0
23.367,0.073,-0.134,1.0
0.0,0.0,0.0,0.0
41.56,0.12,0.649,0.0
0.0,0.0,0.0,0.0
28.733,0.076,0.111,2.0
25.636,0.064,-0.05,0.0
22.293,0.053,-0.174,0.0
0.0,0.0,0.0,0.0
37.072,0.08,0.505,0.0
31.477,0.063,0.245,0.0
28.167,0.053,0.052,1.0
24.392,0.043,-0.096,0.0
21.251,0.034,-0.208,4.0
41.912,0.063,0.731,0.0
0.0,0.0,0.0,0.0
28.897,0.035,0.167,0.0
26.651,0.029,-0.003,0.0
23.564,0.023,-0.14,1.0
20.351,0.017,-0.24,0.0
40.308,0.028,0.623,0.0
33.228,0.018,0.32,1.0
28.728,0.012,0.109,1.0
25.599,0.007,-0.054,0.0
22.081,0.003,-0.175,0.0
19.263,0.0,-0.265,0.0
37.26,-0.005,0.501,0.0
31.165,-0.009,0.238,0.0
27.749,-0.012,0.05,0.0
24.172,-0.014,-0.099,0.0
21.169,-0.015,-0.21,3.0
18.389,-0.016,-0.289,0.0
0.0,0.0,0.0,0.0
29.971,-0.035,0.169,1.0
26.502,-0.035,-0.003,0.0
23.48,-0.034,-0.142,0.0
20.088,-0.032,-0.239,0.0
17.614,-0.031,-0.312,0.0
33.206,-0.064,0.317,1.0
28.768,-0.06,0.107,6.0
25.469,-0.057,-0.053,0.0
22.099,-0.053,-0.176,0.0
19.136,-0.049,-0.264,0.0
17.017,-0.046,-0.334,0.0
31.399,-0.091,0.239,1.0
27.698,-0.084,0.05,0.0
24.292,-0.078,-0.097,0.0
21.063,-0.071,-0.209,0.0
18.326,-0.064,-0.288,0.0
16.554,-0.061,-0.357,0.0
28.876,-0.112,0.164,3.0
26.533,-0.107,-0.003,0.0
23.412,-0.098,-0.139,0.0
19.777,-0.086,-0.234,0.0
17.605,-0.08,-0.311,0.0
16.073,-0.075,-0.377,0.0
28.754,-0.141,0.109,5.0
25.274,-0.128,-0.05,0.0
22.135,-0.116,-0.173,0.0
19.074,-0.103,-0.262,0.0
17.068,-0.095,-0.334,0.0
15.626,-0.09,-0.396,0.0
27.789,-0.165,0.053,0.0
24.47,-0.15,-0.095,0.0
21.59,-0.136,-0.209,0.0
18.285,-0.118,-0.285,0.0
16.564,-0.11,-0.355,0.0
15.209,-0.104,-0.414,0.0
26.544,-0.187,0.001,0.0
23.553,-0.17,-0.135,0.0
19.934,-0.147,-0.23,0.0
17.644,-0.133,-0.308,0.0
16.108,-0.125,-0.374,0.0
14.759,-0.117,-0.429,0.0
25.37,-0.206,-0.044,0.0
22.427,-0.186,-0.169,0.0
19.364,-0.164,-0.258,0.0
17.026,-0.148,-0.328,0.0
15.794,-0.14,-0.396,0.0
14.394,-0.13,-0.444,0.0
24.382,-0.226,-0.086,0.0
21.443,-0.202,-0.2,0.0
18.457,-0.178,-0.279,0.0
16.608,-0.163,-0.349,0.0
15.322,-0.153,-0.411,0.0
13.963,-0.142,-0.456,0.0
23.758,-0.247,-0.125,0.0
20.33,-0.216,-0.225,0.0
17.862,-0.193,-0.302,0.0
16.129,-0.177,-0.368,0.0
14.671,-0.164,-0.419,0.0
13.688,-0.156,-0.471,0.0
22.852,-0.265,-0.161,1.0
19.485,-0.23,-0.25,0.0
17.222,-0.207,-0.321,0.0
15.855,-0.193,-0.389,0.0
14.393,-0.178,-0.436,0.0
13.421,-0.169,-0.485,0.0
21.864,-0.28,-0.191,0.0
18.724,-0.244,-0.272,0.0
16.753,-0.221,-0.341,0.0
15.391,-0.207,-0.404,0.0
14.067,-0.192,-0.451,0.0
13.086,-0.181,-0.496,0.0
20.61,-0.29,-0.215,0.0
18.058,-0.258,-0.293,0.0
16.445,-0.238,-0.363,0.0
14.853,-0.218,-0.415,0.0
13.845,-0.206,-0.467,0.0
12.826,-0.194,-0.507,0.0
19.761,-0.303,-0.24,0.0
17.465,-0.272,-0.313,0.0
16.025,-0.253,-0.38,0.0
14.62,-0.234,-0.433,0.0
13.433,-0.217,-0.476,0.0
12.583,-0.207,-0.519,0.0
19.117,-0.318,-0.263,0.0
16.957,-0.286,-0.332,0.0
15.621,-0.267,-0.396,0.0
14.286,-0.247,-0.446,0.0
13.171,-0.231,-0.488,0.0
12.344,-0.219,-0.529,0.0
18.317,-0.329,-0.282,0.0
16.588,-0.302,-0.351,0.0
15.129,-0.278,-0.408,0.0
13.87,-0.258,-0.456,0.0
12.94,-0.244,-0.5,0.0
12.173,-0.232,-0.541,0.0
17.765,-0.344,-0.302,0.0
16.18,-0.317,-0.369,0.0
14.761,-0.292,-0.422,0.0
13.577,-0.272,-0.468,0.0
12.656,-0.256,-0.509,0.0
11.917,-0.244,-0.549,0.0
17.262,-0.357,-0.32,0.0
15.816,-0.331,-0.385,0.0
14.448,-0.306,-0.435,0.0
13.376,-0.286,-0.481,0.0
12.478,-0.27,-0.521,0.0
11.693,-0.256,-0.556,0.0
16.781,-0.371,-0.337,0.0
15.461,-0.345,-0.399,0.0
14.139,-0.319,-0.447,0.0
13.024,-0.297,-0.488,0.0
12.31,-0.284,-0.533,0.0
11.529,-0.268,-0.566,0.0
16.485,-0.388,-0.355,0.0
14.955,-0.355,-0.409,0.0
13.792,-0.331,-0.456,0.0
12.896,-0.312,-0.503,0.0
12.043,-0.295,-0.539,0.0
11.344,-0.28,-0.574,0.0
16.138,-0.403,-0.371,0.0
14.701,-0.37,-0.423,0.0
13.581,-0.346,-0.469,0.0
12.654,-0.325,-0.512,0.0
11.894,-0.309,-0.55,0.0
11.193,-0.293,-0.582,0.0
15.775,-0.417,-0.386,0.0
14.386,-0.384,-0.435,0.0
13.357,-0.36,-0.481,0.0
12.382,-0.337,-0.518,0.0
11.676,-0.32,-0.556,0.0
10.978,-0.304,-0.587,0.0
15.391,-0.43,-0.398,0.0
14.092,-0.397,-0.446,0.0
13.126,-0.373,-0.491,0.0
12.251,-0.351,-0.53,0.0
11.508,-0.333,-0.564,0.0
10.71,-0.313,-0.587,0.0
14.984,-0.441,-0.408,0.0
13.818,-0.41,-0.456,0.0
12.917,-0.387,-0.5,0.0
12.034,-0.363,-0.537,0.0
11.353,-0.346,-0.572,0.0
10.701,-0.328,-0.601,0.0
14.748,-0.456,-0.421,0.0
13.598,-0.424,-0.466,0.0
12.63,-0.397,-0.506,0.0
11.897,-0.377,-0.546,0.0
11.182,-0.357,-0.578,0.0
10.494,-0.338,-0.603,0.0
14.466,-0.469,-0.431,0.0
13.395,-0.438,-0.476,0.0
12.48,-0.412,-0.516,0.0
11.69,-0.389,-0.552,0.0
10.986,-0.368,-0.582,0.0
10.337,-0.349,-0.607,0.0
14.177,-0.482,-0.441,0.0
13.201,-0.452,-0.486,0.0
12.33,-0.426,-0.525,0.0
11.585,-0.403,-0.561,0.0
10.872,-0.381,-0.589,0.0
10.253,-0.362,-0.615,0.0
13.938,-0.496,-0.45,0.0
12.925,-0.463,-0.492,0.0
12.238,-0.442,-0.536,0.0
11.426,-0.416,-0.567,0.0
10.773,-0.395,-0.597,0.0
10.206,-0.377,-0.624,0.0
13.752,-0.511,-0.46,0.0
12.778,-0.478,-0.501,0.0
11.984,-0.452,-0.539,0.0
11.272,-0.428,-0.573,0.0
10.597,-0.405,-0.599,0.0
9.997,-0.385,-0.623,0.0
13.521,-0.524,-0.468,0.0
12.654,-0.494,-0.511,0.0
11.855,-0.466,-0.546,0.0
11.168,-0.442,-0.58,0.0
10.468,-0.417,-0.604,0.0
9.906,-0.398,-0.628,0.0
13.326,-0.538,-0.476,0.0
12.462,-0.506,-0.517,0.0
11.74,-0.48,-0.554,0.0
10.972,-0.452,-0.582,0.0
10.344,-0.429,-0.608,0.0
9.802,-0.409,-0.632,0.0
13.141,-0.551,-0.483,0.0
12.312,-0.52,-0.523,0.0
11.608,-0.494,-0.56,0.0
10.888,-0.466,-0.589,0.0
10.241,-0.441,-0.613,0.0
9.75,-0.423,-0.639,0.0
13.001,-0.566,-0.492,0.0
12.23,-0.536,-0.532,0.0
11.459,-0.506,-0.565,0.0
10.682,-0.475,-0.589,0.0
10.165,-0.455,-0.618,0.0
9.595,-0.432,-0.639,0.0
12.845,-0.581,-0.499,0.0
12.023,-0.547,-0.535,0.0
11.341,-0.519,-0.57,0.0
10.679,-0.492,-0.599,0.0
10.062,-0.467,-0.622,0.0
9.596,-0.448,-0.648,0.0
12.684,-0.594,-0.504,0.0
11.95,-0.563,-0.543,0.0
11.203,-0.531,-0.573,0.0
10.55,-0.503,-0.601,0.0
0.0,0.0,0.0,0.0
9.464,-0.457,-0.648,0.0
12.583,-0.61,-0.512,0.0
11.857,-0.579,-0.55,0.0
11.073,-0.543,-0.577,0.0
10.399,-0.514,-0.602,0.0
9.892,-0.492,-0.629,0.0
9.338,-0.467,-0.648,0.0
12.434,-0.624,-0.516,0.0
11.675,-0.589,-0.551,0.0
10.984,-0.557,-0.581,0.0
10.357,-0.529,-0.608,0.0
0.0,0.0,0.0,0.0
9.288,-0.48,-0.652,0.0
12.303,-0.637,-0.521,0.0
11.532,-0.601,-0.554,0.0
10.913,-0.572,-0.587,0.0
10.224,-0.539,-0.609,0.0
9.701,-0.514,-0.633,0.0
9.183,-0.49,-0.652,0.0
12.253,-0.655,-0.529,0.0
11.538,-0.62,-0.563,0.0
10.779,-0.583,-0.588,0.0
10.142,-0.551,-0.612,0.0
9.674,-0.529,-0.639,0.0
9.16,-0.504,-0.657,0.0
12.062,-0.665,-0.529,0.0
11.355,-0.629,-0.563,0.0
10.744,-0.599,-0.594,0.0
10.09,-0.565,-0.616,0.0
9.606,-0.541,-0.641,0.0
9.099,-0.515,-0.659,0.0
12.001,-0.681,-0.535,0.0
11.289,-0.644,-0.567,0.0
10.605,-0.609,-0.593,0.0
10.009,-0.577,-0.618,0.0
9.528,-0.553,-0.643,0.0
0.0,0.0,0.0,0.0
11.892,-0.695,-0.538,0.0
11.219,-0.659,-0.571,0.0
10.649,-0.629,-0.603,0.0
0.0,0.0,0.0,0.0
9.45,-0.564,-0.643,0.0
0.0,0.0,0.0,0.0
11.836,-0.712,-0.543,0.0
11.1,-0.671,-0.572,0.0
10.46,-0.635,-0.598,0.0
0.0,0.0,0.0,0.0
0.0,0.0,0.0,0.0
0.0,0.0,0.0,0.0
11.752,-0.726,-0.546,0.0
11.07,-0.687,-0.577,0.0
10.418,-0.65,-0.602,0.0
0.0,0.0,0.0,0.0
0.0,0.0,0.0,0.0
0.0,0.0,0.0,0.0
11.657,-0.74,-0.548,0.0
11.036,-0.704,-0.581,0.0
10.333,-0.662,-0.603,0.0
0.0,0.0,0.0,0.0
9.374,-0.607,-0.654,0.0
8.75,-0.569,-0.66,0.0
11.63,-0.757,-0.552,0.0
10.929,-0.715,-0.581,0.0
10.394,-0.683,-0.611,0.0
9.749,-0.644,-0.629,0.0
0.0,0.0,0.0,0.0
8.865,-0.591,-0.673,0.0
11.594,-0.774,-0.556,0.0
10.893,-0.731,-0.584,0.0
10.31,-0.695,-0.611,0.0
9.65,-0.653,-0.627,0.0
0.0,0.0,0.0,0.0
8.731,-0.597,-0.666,0.0
11.515,-0.788,-0.557,0.0
10.899,-0.749,-0.588,0.0
10.29,-0.71,-0.614,0.0
0.0,0.0,0.0,0.0
9.288,-0.647,-0.66,0.0
8.758,-0.613,-0.672,0.0
11.467,-0.803,-0.559,0.0
10.796,-0.76,-0.587,0.0
10.209,-0.722,-0.613,0.0
0.0,0.0,0.0,0.0
9.173,-0.654,-0.655,0.0
8.747,-0.627,-0.674,0.0
11.456,-0.821,-0.562,0.0
10.793,-0.777,-0.59,0.0
0.0,0.0,0.0,0.0
0.0,0.0,0.0,0.0
0.0,0.0,0.0,0.0
8.724,-0.639,-0.675,0.0
11.37,-0.834,-0.561,0.0
10.691,-0.787,-0.588,0.0
0.0,0.0,0.0,0.0
9.633,-0.715,-0.639,0.0
0.0,0.0,0.0,0.0
8.7,-0.652,-0.675,0.0
11.351,-0.851,-0.563,0.0
10.719,-0.807,-0.592,0.0
0.0,0.0,0.0,0.0
0.0,0.0,0.0,0.0
0.0,0.0,0.0,0.0
8.609,-0.659,-0.67,0.0
11.344,-0.868,-0.565,0.0
10.526,-0.809,-0.583,0.0
0.0,0.0,0.0,0.0
0.0,0.0,0.0,0.0
0.0,0.0,0.0,0.0
8.622,-0.673,-0.672,0.0
11.268,-0.88,-0.563,0.0
10.602,-0.832,-0.589,0.0
0.0,0.0,0.0,0.0
9.61,-0.76,-0.643,0.0
0.0,0.0,0.0,0.0
8.624,-0.687,-0.674,0.0
11.344,-0.904,-0.568,0.0
10.567,-0.845,-0.588,0.0
0.0,0.0,0.0,0.0
9.578,-0.772,-0.641,0.0
0.0,0.0,0.0,0.0
8.598,-0.699,-0.672,0.0
11.244,-0.914,-0.564,0.0
0.0,0.0,0.0,0.0
0.0,0.0,0.0,0.0
0.0,0.0,0.0,0.0
0.0,0.0,0.0,0.0
8.586,-0.711,-0.672,0.0
11.313,-0.937,-0.568,0.0
0.0,0.0,0.0,0.0
0.0,0.0,0.0,0.0
0.0,0.0,0.0,0.0
0.0,0.0,0.0,0.0
8.639,-0.729,-0.676,0.0
11.274,-0.951,-0.566,0.0
0.0,0.0,0.0,0.0
0.0,0.0,0.0,0.0
0.0,0.0,0.0,0.0
0.0,0.0,0.0,0.0
8.656,-0.744,-0.677,0.0
11.254,-0.967,-0.564,0.0
0.0,0.0,0.0,0.0
0.0,0.0,0.0,0.0
0.0,0.0,0.0,0.0
0.0,0.0,0.0,0.0
8.593,-0.751,-0.671,0.0
11.304,-0.988,-0.566,0.0
0.0,0.0,0.0,0.0
0.0,0.0,0.0,0.0
0.0,0.0,0.0,0.0
0.0,0.0,0.0,0.0
8.626,-0.767,-0.673,0.0
11.304,-1.004,-0.564,0.0
0.0,0.0,0.0,0.0
0.0,0.0,0.0,0.0
0.0,0.0,0.0,0.0
0.0,0.0,0.0,0.0
8.648,-0.781,-0.673,0.0
11.321,-1.022,-0.564,0.0
0.0,0.0,0.0,0.0
0.0,0.0,0.0,0.0
0.0,0.0,0.0,0.0
0.0,0.0,0.0,0.0
8.651,-0.794,-0.672,0.0
11.312,-1.037,-0.561,0.0
0.0,0.0,0.0,0.0
0.0,0.0,0.0,0.0
0.0,0.0,0.0,0.0
0.0,0.0,0.0,0.0
8.665,-0.807,-0.671,0.0
11.414,-1.063,-0.563,0.0
10.695,-0.999,-0.587,0.0
10.19,-0.955,-0.616,0.0
0.0,0.0,0.0,0.0
0.0,0.0,0.0,0.0
8.692,-0.822,-0.671,0.0
11.428,-1.08,-0.561,0.0
10.796,-1.023,-0.589,0.0
10.216,-0.971,-0.614,0.0
0.0,0.0,0.0,0.0
0.0,0.0,0.0,0.0
8.728,-0.837,-0.671,0.0
11.432,-1.096,-0.557,0.0
10.76,-1.034,-0.584,0.0
10.223,-0.986,-0.611,0.0
0.0,0.0,0.0,0.0
9.159,-0.888,-0.65,0.0
8.777,-0.854,-0.671,0.0
11.504,-1.118,-0.557,0.0
0.0,0.0,0.0,0.0
0.0,0.0,0.0,0.0
0.0,0.0,0.0,0.0
0.0,0.0,0.0,0.0
8.808,-0.868,-0.671,0.0
11.503,-1.133,-0.552,0.0
10.903,-1.077,-0.584,0.0
10.343,-1.024,-0.61,0.0
0.0,0.0,0.0,0.0
9.237,-0.92,-0.648,0.0
8.855,-0.884,-0.67,0.0
11.588,-1.156,-0.551,0.0
11.012,-1.102,-0.585,0.0
0.0,0.0,0.0,0.0
0.0,0.0,0.0,0.0
9.364,-0.944,-0.653,0.0
8.856,-0.896,-0.666,0.0
11.629,-1.175,-0.548,0.0
10.997,-1.114,-0.579,0.0
0.0,0.0,0.0,0.0
0.0,0.0,0.0,0.0
9.309,-0.95,-0.644,0.0
8.888,-0.91,-0.664,0.0
11.682,-1.195,-0.545,0.0
0.0,0.0,0.0,0.0
0.0,0.0,0.0,0.0
0.0,0.0,0.0,0.0
0.0,0.0,0.0,0.0
8.874,-0.919,-0.659,0.0
11.748,-1.215,-0.542,0.0
11.139,-1.155,-0.575,0.0
10.456,-1.087,-0.597,0.0
0.0,0.0,0.0,0.0
0.0,0.0,0.0,0.0
9.02,-0.945,-0.664,0.0
11.821,-1.236,-0.538,0.0
11.141,-1.168,-0.568,0.0
10.512,-1.105,-0.594,0.0
0.0,0.0,0.0,0.0
0.0,0.0,0.0,0.0
0.0,0.0,0.0,0.0
11.928,-1.261,-0.536,0.0
11.225,-1.19,-0.566,0.0
10.555,-1.121,-0.59,0.0
0.0,0.0,0.0,0.0
0.0,0.0,0.0,0.0
9.13,-0.977,-0.661,0.0
12.026,-1.285,-0.533,0.0
11.367,-1.217,-0.566,0.0
10.654,-1.143,-0.589,0.0
10.004,-1.076,-0.609,0.0
0.0,0.0,0.0,0.0
0.0,0.0,0.0,0.0
12.118,-1.308,-0.529,0.0
11.426,-1.235,-0.561,0.0
10.733,-1.163,-0.586,0.0
10.11,-1.098,-0.608,0.0
9.702,-1.056,-0.637,0.0
9.137,-0.997,-0.65,0.0
12.227,-1.332,-0.526,0.0
11.509,-1.256,-0.558,0.0
10.795,-1.181,-0.582,0.0
0.0,0.0,0.0,0.0
0.0,0.0,0.0,0.0
9.249,-1.018,-0.651,0.0
12.315,-1.354,-0.521,0.0
11.587,-1.276,-0.553,0.0
11.069,-1.221,-0.589,0.0
0.0,0.0,0.0,0.0
9.785,-1.084,-0.628,0.0
0.0,0.0,0.0,0.0
12.438,-1.379,-0.517,0.0
11.704,-1.3,-0.55,0.0
11.03,-1.228,-0.578,0.0
0.0,0.0,0.0,0.0
0.0,0.0,0.0,0.0
9.386,-1.051,-0.646,0.0
12.496,-1.397,-0.509,0.0
11.77,-1.318,-0.544,0.0
11.107,-1.246,-0.573,0.0
0.0,0.0,0.0,0.0
0.0,0.0,0.0,0.0
9.433,-1.064,-0.642,0.0
12.664,-1.427,-0.506,0.0
11.888,-1.342,-0.539,0.0
11.176,-1.264,-0.568,0.0
0.0,0.0,0.0,0.0
10.018,-1.137,-0.619,0.0
0.0,0.0,0.0,0.0
12.723,-1.445,-0.498,0.0
11.977,-1.362,-0.533,0.0
11.271,-1.284,-0.563,0.0
10.588,-1.208,-0.588,0.0
10.099,-1.154,-0.615,0.0
9.543,-1.093,-0.633,0.0
12.864,-1.471,-0.492,0.0
12.142,-1.391,-0.53,0.0
11.407,-1.309,-0.56,0.0
10.688,-1.228,-0.584,0.0
10.212,-1.175,-0.613,0.0
9.645,-1.112,-0.631,0.0
13.022,-1.5,-0.487,0.0
12.242,-1.412,-0.524,0.0
11.55,-1.334,-0.557,0.0
0.0,0.0,0.0,0.0
10.216,-1.183,-0.604,0.0
9.739,-1.13,-0.629,0.0
13.159,-1.525,-0.48,0.0
12.367,-1.435,-0.518,0.0
