X,Y,Z,Reflectivity
58.161,-0.307,7.799,7.0
56.446,-0.289,7.245,17.0
57.004,-0.281,6.985,31.0
59.468,-0.282,6.948,31.0
56.994,-0.26,6.334,20.0
63.271,-0.274,8.825,28.0
58.194,-0.242,7.782,8.0
56.669,-0.225,7.253,11.0
56.86,-0.216,6.946,22.0
59.319,-0.214,6.908,28.0
57.039,-0.196,6.317,27.0
51.838,-0.166,7.21,4.0
58.189,-0.176,7.758,7.0
56.669,-0.162,7.23,15.0
57.334,-0.154,6.98,32.0
59.334,-0.149,6.885,27.0
57.069,-0.134,6.296,25.0
51.72,-0.108,7.171,22.0
58.06,-0.112,7.715,16.0
56.604,-0.1,7.196,22.0
56.927,-0.09,6.905,27.0
63.352,-0.09,7.321,29.0
57.16,-0.071,6.279,26.0
51.793,-0.051,7.156,31.0
62.147,-0.051,8.228,8.0
0.0,0.0,0.0,0.0
56.869,-0.027,6.869,28.0
59.645,-0.019,6.862,21.0
57.244,-0.008,6.259,27.0
51.681,0.005,7.112,26.0
58.218,0.016,7.676,22.0
56.857,0.025,7.169,6.0
57.008,0.035,6.854,31.0
59.715,0.046,6.837,29.0
57.252,0.054,6.227,28.0
51.071,0.062,6.999,25.0
58.267,0.079,7.648,28.0
0.0,0.0,0.0,0.0
57.025,0.096,6.822,30.0
59.731,0.111,6.803,16.0
57.261,0.115,6.193,29.0
51.155,0.117,6.978,25.0
58.666,0.144,7.663,6.0
57.632,0.15,7.195,23.0
57.043,0.158,6.787,27.0
59.779,0.176,6.769,6.0
57.163,0.176,6.145,31.0
51.044,0.171,6.929,31.0
48.967,0.172,6.363,14.0
57.883,0.213,7.187,32.0
57.055,0.218,6.749,28.0
56.207,0.224,6.326,17.0
57.089,0.236,6.098,25.0
51.166,0.226,6.909,15.0
48.967,0.224,6.328,4.0
0.0,0.0,0.0,0.0
57.141,0.278,6.718,25.0
56.304,0.283,6.296,19.0
56.977,0.294,6.044,26.0
51.275,0.28,6.885,9.0
49.013,0.275,6.296,17.0
58.049,0.335,7.121,32.0
57.176,0.338,6.678,25.0
56.304,0.341,6.251,29.0
56.995,0.354,6.001,31.0
48.387,0.314,6.458,21.0
49.006,0.326,6.256,22.0
58.273,0.396,7.101,20.0
57.307,0.397,6.646,7.0
56.266,0.398,6.201,25.0
57.009,0.412,5.954,29.0
49.181,0.369,6.522,24.0
48.949,0.375,6.207,14.0
58.834,0.459,7.119,33.0
48.843,0.387,5.622,12.0
56.234,0.454,6.148,25.0
49.97,0.41,5.176,18.0
51.487,0.439,6.782,13.0
58.412,0.505,7.354,22.0
52.879,0.464,6.351,14.0
52.328,0.467,5.976,17.0
56.352,0.51,6.111,20.0
57.129,0.524,5.866,16.0
48.547,0.46,6.35,23.0
58.176,0.559,7.271,21.0
52.79,0.515,6.291,26.0
56.606,0.559,6.412,15.0
56.9,0.569,6.116,30.0
57.619,0.584,5.862,31.0
48.111,0.502,6.246,24.0
58.085,0.614,7.203,19.0
52.489,0.561,6.204,22.0
56.767,0.614,6.375,19.0
50.385,0.551,5.366,15.0
57.935,0.641,5.836,23.0
48.23,0.549,6.213,23.0
58.312,0.67,7.172,9.0
52.433,0.61,6.144,11.0
56.769,0.667,6.317,21.0
50.282,0.597,5.304,23.0
57.86,0.694,5.769,26.0
48.247,0.593,6.164,21.0
49.202,0.611,5.999,23.0
48.879,0.612,5.675,22.0
56.756,0.718,6.255,12.0
50.205,0.641,5.242,23.0
57.611,0.742,5.682,16.0
48.398,0.639,6.13,20.0
52.466,0.698,6.339,18.0
52.758,0.708,6.068,6.0
56.894,0.77,6.207,18.0
50.168,0.685,5.182,5.0
57.289,0.788,5.587,14.0
48.805,0.687,6.126,23.0
49.026,0.696,5.868,23.0
52.838,0.755,6.016,18.0
50.332,0.725,5.433,19.0
63.219,0.917,6.458,12.0
57.133,0.835,5.505,31.0
48.909,0.73,6.081,25.0
48.726,0.732,5.775,34.0
50.062,0.758,5.641,31.0
50.257,0.765,5.366,24.0
63.078,0.967,6.369,16.0
56.8,0.877,5.406,25.0
48.86,0.77,6.016,32.0
48.641,0.771,5.706,20.0
50.069,0.799,5.581,23.0
50.177,0.805,5.296,24.0
49.177,0.793,4.905,22.0
56.93,0.924,5.349,27.0
48.896,0.809,5.96,31.0
0.0,0.0,0.0,0.0
50.245,0.841,5.538,22.0
54.878,0.923,5.724,13.0
60.839,1.029,5.993,15.0
57.321,0.975,5.314,28.0
48.838,0.846,5.891,29.0
50.165,0.873,5.758,25.0
50.138,0.877,5.462,24.0
54.923,0.966,5.658,24.0
57.216,1.011,5.562,9.0
57.29,1.017,5.237,26.0
48.911,0.884,5.835,23.0
50.142,0.91,5.689,24.0
57.594,1.05,6.199,8.0
55.023,1.008,5.596,16.0
0.0,0.0,0.0,0.0
57.282,1.058,5.16,17.0
50.073,0.941,5.906,28.0
50.114,0.946,5.618,24.0
50.081,0.949,5.322,15.0
54.984,1.046,5.516,7.0
57.632,1.101,5.447,26.0
57.217,1.097,5.076,7.0
50.246,0.979,5.857,21.0
50.182,0.981,5.556,24.0
54.884,1.077,5.756,8.0
56.91,1.12,5.631,17.0
57.436,1.135,5.349,30.0
62.24,1.235,5.435,18.0
50.261,1.012,5.788,25.0
49.98,1.01,5.463,23.0
54.884,1.112,5.679,17.0
60.892,1.239,5.939,7.0
57.302,1.169,5.256,30.0
63.985,1.309,5.497,7.0
50.111,1.041,5.698,28.0
57.66,1.201,6.219,8.0
49.458,1.033,5.045,23.0
57.731,1.209,5.547,13.0
56.675,1.191,5.115,30.0
63.707,1.343,5.38,20.0
49.82,1.065,5.591,29.0
49.716,1.065,5.288,16.0
49.264,1.058,4.952,23.0
57.622,1.241,5.451,25.0
55.963,1.208,4.968,24.0
63.235,1.369,5.245,19.0
49.715,1.091,5.504,27.0
54.976,1.209,5.764,6.0
60.916,1.342,6.031,14.0
57.305,1.266,5.334,31.0
55.849,1.236,4.873,28.0
63.145,1.401,5.143,23.0
49.755,1.118,5.432,24.0
49.52,1.115,5.117,23.0
60.951,1.375,5.942,13.0
56.327,1.273,5.156,28.0
55.995,1.268,4.8,6.0
63.141,1.433,5.046,14.0
49.713,1.143,5.35,16.0
49.325,1.136,5.019,23.0
63.039,1.453,6.046,15.0
56.186,1.298,5.055,26.0
63.13,1.46,5.313,16.0
76.941,1.784,6.027,8.0
49.486,1.161,5.246,21.0
49.248,1.157,4.932,16.0
57.276,1.347,5.401,19.0
55.959,1.318,4.944,30.0
77.222,1.822,6.373,8.0
83.347,1.97,6.394,16.0
49.522,1.183,5.169,26.0
61.976,1.483,6.106,20.0
56.697,1.358,5.254,30.0
55.961,1.342,4.853,30.0
77.179,1.853,6.244,12.0
83.176,2.0,6.246,36.0
49.405,1.201,5.075,28.0
61.556,1.497,5.963,21.0
56.324,1.371,5.126,8.0
63.333,1.544,5.388,29.0
64.539,1.574,5.114,22.0
82.651,2.019,6.07,36.0
49.279,1.216,4.98,13.0
57.35,1.416,5.459,18.0
56.07,1.385,5.009,16.0
65.132,1.611,5.432,13.0
76.884,1.903,5.963,11.0
82.191,2.036,5.896,34.0
50.363,1.26,5.003,11.0
57.128,1.43,5.341,31.0
55.916,1.4,4.9,29.0
64.738,1.622,5.288,9.0
62.49,1.566,4.74,7.0
82.202,2.062,5.757,32.0
50.372,1.275,4.917,19.0
56.793,1.438,5.212,31.0
55.91,1.416,4.803,22.0
64.692,1.639,5.173,22.0
82.389,2.088,6.107,17.0
82.089,2.081,5.608,34.0
57.517,1.471,5.514,14.0
50.785,1.299,4.571,20.0
63.118,1.614,5.313,11.0
76.888,1.966,6.016,7.0
82.241,2.104,5.955,34.0
82.493,2.11,5.493,22.0
57.39,1.481,5.402,20.0
55.942,1.443,4.937,19.0
64.749,1.67,5.335,28.0
62.489,1.612,4.778,20.0
82.237,2.121,5.808,36.0
83.021,2.141,5.38,23.0
50.679,1.317,4.678,9.0
55.924,1.454,4.835,25.0
64.462,1.675,5.195,23.0
62.541,1.624,4.669,12.0
81.994,2.128,5.643,32.0
82.253,2.134,5.181,30.0
50.786,1.328,4.595,21.0
64.889,1.696,5.491,27.0
0.0,0.0,0.0,0.0
82.2,2.146,5.988,29.0
81.857,2.136,5.485,17.0
82.215,2.144,5.03,27.0
55.977,1.47,4.963,15.0
64.725,1.699,5.36,27.0
62.484,1.639,4.809,20.0
82.196,2.154,5.837,40.0
0.0,0.0,0.0,0.0
82.098,2.149,4.872,32.0
55.952,1.474,4.857,17.0
64.683,1.702,5.237,20.0
62.579,1.646,4.7,15.0
81.947,2.153,5.668,33.0
82.289,2.159,5.212,32.0
82.113,2.153,4.724,30.0
0.0,0.0,0.0,0.0
0.0,0.0,0.0,0.0
82.201,2.164,6.021,28.0
81.807,2.15,5.506,23.0
82.198,2.159,5.053,27.0
82.348,2.16,4.583,24.0
64.814,1.71,5.385,27.0
62.452,1.646,4.823,21.0
82.211,2.163,5.868,35.0
82.167,2.159,5.376,17.0
82.104,2.155,4.894,30.0
83.119,2.178,4.47,20.0
64.682,1.704,5.251,26.0
62.585,1.646,4.714,17.0
81.989,2.153,5.696,34.0
82.248,2.157,5.226,34.0
82.141,2.151,4.739,34.0
83.388,2.18,4.326,16.0
0.0,0.0,0.0,0.0
82.196,2.156,6.035,22.0
81.82,2.142,5.529,23.0
82.204,2.148,5.068,28.0
82.356,2.148,4.597,30.0
83.988,2.187,4.199,14.0
62.475,1.634,4.834,17.0
82.224,2.146,5.88,36.0
82.763,2.156,5.436,16.0
82.131,2.135,4.906,31.0
83.063,2.155,4.477,22.0
84.429,2.186,4.058,6.0
62.525,1.626,4.717,17.0
82.093,2.13,5.713,37.0
82.341,2.131,5.248,27.0
82.205,2.123,4.752,38.0
83.608,2.154,4.345,18.0
88.755,2.282,4.097,5.0
82.275,2.123,6.047,31.0
82.105,2.114,5.556,23.0
82.175,2.11,5.08,30.0
82.281,2.107,4.598,21.0
83.973,2.146,4.204,14.0
0.0,0.0,0.0,0.0
82.23,2.103,5.885,37.0
83.165,2.121,5.467,20.0
82.151,2.09,4.92,35.0
83.273,2.112,4.493,23.0
88.834,2.247,4.276,6.0
0.0,0.0,0.0,0.0
82.16,2.079,5.722,32.0
82.196,2.073,5.243,32.0
82.232,2.068,4.766,36.0
83.811,2.102,4.36,23.0
88.87,2.222,4.104,7.0
0.0,0.0,0.0,0.0
82.184,2.054,5.563,22.0
82.071,2.044,5.075,35.0
82.384,2.045,4.613,22.0
84.971,2.103,4.255,16.0
0.0,0.0,0.0,0.0
0.0,0.0,0.0,0.0
82.951,2.044,5.453,24.0
82.118,2.016,4.918,35.0
83.366,2.04,4.507,29.0
88.789,2.165,4.273,10.0
0.0,0.0,0.0,0.0
0.0,0.0,0.0,0.0
82.299,1.996,5.249,40.0
82.378,1.99,4.773,29.0
83.65,2.013,4.358,17.0
88.643,2.126,4.093,6.0
0.0,0.0,0.0,0.0
54.417,1.295,1.878,1.0
82.225,1.958,5.083,23.0
83.114,1.972,4.652,28.0
85.528,2.021,4.288,13.0
0.0,0.0,0.0,0.0
0.0,0.0,0.0,0.0
54.37,1.269,1.771,1.0
0.0,0.0,0.0,0.0
83.422,1.94,4.506,25.0
88.794,2.055,4.278,16.0
0.0,0.0,0.0,0.0
0.0,0.0,0.0,0.0
54.227,1.239,1.66,0.0
82.691,1.889,4.787,18.0
83.685,1.902,4.356,5.0
88.671,2.007,4.098,7.0
0.0,0.0,0.0,0.0
54.45,1.22,1.877,4.0
54.147,1.207,1.551,0.0
83.126,1.853,4.649,18.0
88.593,1.965,4.437,18.0
56.009,1.236,2.478,0.0
0.0,0.0,0.0,0.0
54.496,1.19,1.771,137.0
54.241,1.179,1.448,0.0
85.108,1.847,4.592,15.0
88.837,1.918,4.276,16.0
0.0,0.0,0.0,0.0
0.0,0.0,0.0,0.0
54.152,1.15,1.655,0.0
54.177,1.144,1.341,0.0
85.356,1.799,4.439,12.0
88.937,1.864,4.107,3.0
0.0,0.0,0.0,0.0
54.365,1.126,1.871,1.0
54.349,1.119,1.555,0.0
54.664,1.119,1.246,1.0
88.85,1.814,4.446,15.0
56.038,1.137,2.477,0.0
0.0,0.0,0.0,0.0
0.0,0.0,0.0,0.0
54.361,1.082,1.448,1.0
54.6,1.079,1.137,0.0
90.83,1.791,4.368,15.0
0.0,0.0,0.0,0.0
0.0,0.0,0.0,0.0
0.0,0.0,0.0,0.0
54.37,1.043,1.343,0.0
0.0,0.0,0.0,0.0
90.77,1.723,4.19,4.0
0.0,0.0,0.0,0.0
0.0,0.0,0.0,0.0
0.0,0.0,0.0,0.0
54.692,1.008,1.246,0.0
0.0,0.0,0.0,0.0
0.0,0.0,0.0,0.0
0.0,0.0,0.0,0.0
54.933,0.984,1.79,0.0
54.75,0.973,1.46,0.0
0.0,0.0,0.0,0.0
0.0,0.0,0.0,0.0
0.0,0.0,0.0,0.0
0.0,0.0,0.0,0.0
54.929,0.939,1.684,0.0
54.917,0.93,1.359,2.0
0.0,0.0,0.0,0.0
0.0,0.0,0.0,0.0
55.615,0.919,2.245,1.0
55.274,0.905,1.91,0.0
55.155,0.895,1.585,0.0
58.602,0.942,1.338,0.0
43.576,0.693,0.741,0.0
34.746,0.547,0.389,0.0
55.683,0.871,2.141,2.0
0.0,0.0,0.0,0.0
55.438,0.85,1.488,0.0
0.0,0.0,0.0,0.0
40.558,0.609,0.613,1.0
0.0,0.0,0.0,0.0
0.0,0.0,0.0,0.0
55.88,0.813,1.718,0.0
0.0,0.0,0.0,0.0
48.342,0.688,0.92,0.0
37.711,0.53,0.499,0.0
31.976,0.444,0.238,0.0
0.0,0.0,0.0,0.0
56.174,0.764,1.622,0.0
57.592,0.773,1.329,1.0
0.0,0.0,0.0,0.0
35.676,0.467,0.405,0.0
28.912,0.373,0.16,2.0
56.43,0.721,1.852,1.0
56.64,0.713,1.53,1.0
0.0,0.0,0.0,0.0
0.0,0.0,0.0,0.0
33.182,0.4,0.315,0.0
28.82,0.343,0.107,5.0
56.827,0.667,1.76,0.0
57.387,0.664,1.444,0.0
0.0,0.0,0.0,0.0
37.201,0.417,0.501,0.0
0.0,0.0,0.0,0.0
27.864,0.302,0.052,0.0
57.274,0.612,1.668,1.0
0.0,0.0,0.0,0.0
0.0,0.0,0.0,0.0
0.0,0.0,0.0,0.0
28.963,0.288,0.169,1.0
26.648,0.26,0.001,0.0
57.901,0.555,1.581,3.0
0.0,0.0,0.0,0.0
41.576,0.382,0.652,0.0
0.0,0.0,0.0,0.0
28.832,0.254,0.115,6.0
25.753,0.222,-0.045,0.0
0.0,0.0,0.0,0.0
0.0,0.0,0.0,0.0
0.0,0.0,0.0,0.0
32.016,0.251,0.256,0.0
28.387,0.217,0.062,1.0
24.943,0.186,-0.089,0.0
0.0,0.0,0.0,0.0
43.512,0.308,0.779,0.0
36.081,0.248,0.437,0.0
29.023,0.194,0.18,0.0
26.858,0.174,0.011,0.0
23.61,0.148,-0.126,0.0
0.0,0.0,0.0,0.0
0.0,0.0,0.0,0.0
0.0,0.0,0.0,0.0
28.754,0.157,0.128,1.0
26.004,0.137,-0.034,0.0
22.749,0.115,-0.162,1.0
0.0,0.0,0.0,0.0
0.0,0.0,0.0,0.0
32.079,0.142,0.275,0.0
28.408,0.12,0.077,1.0
25.039,0.1,-0.076,0.0
21.814,0.083,-0.193,2.0
0.0,0.0,0.0,0.0
36.273,0.123,0.459,0.0
30.318,0.096,0.208,0.0
27.059,0.08,0.027,0.0
23.987,0.065,-0.114,0.0
21.063,0.053,-0.222,3.0
41.523,0.096,0.695,0.0
0.0,0.0,0.0,0.0
28.845,0.054,0.149,0.0
26.298,0.043,-0.018,0.0
23.361,0.033,-0.151,1.0
19.907,0.024,-0.244,0.0
39.223,0.039,0.59,0.0
33.143,0.025,0.307,0.0
28.631,0.015,0.1,1.0
25.373,0.008,-0.06,0.0
22.22,0.002,-0.181,0.0
19.015,-0.002,-0.264,0.0
37.068,-0.013,0.496,0.0
31.408,-0.017,0.239,0.0
27.738,-0.022,0.05,0.0
24.344,-0.025,-0.098,0.0
21.204,-0.027,-0.208,2.0
18.37,-0.027,-0.286,0.0
36.181,-0.062,0.424,0.0
29.05,-0.057,0.173,1.0
26.664,-0.058,0.005,0.0
23.609,-0.057,-0.133,0.0
20.342,-0.054,-0.232,0.0
17.795,-0.051,-0.306,0.0
33.226,-0.103,0.336,1.0
28.801,-0.096,0.125,7.0
25.666,-0.092,-0.035,0.0
22.893,-0.087,-0.166,0.0
19.308,-0.078,-0.251,0.0
17.244,-0.074,-0.324,0.0
32.012,-0.146,0.273,1.0
28.626,-0.137,0.079,4.0
24.97,-0.126,-0.075,0.0
21.906,-0.116,-0.194,2.0
18.698,-0.103,-0.273,0.0
16.854,-0.097,-0.343,0.0
31.182,-0.188,0.217,1.0
27.409,-0.172,0.032,0.0
24.189,-0.157,-0.11,0.0
20.86,-0.141,-0.217,0.0
18.194,-0.127,-0.294,0.0
16.458,-0.119,-0.361,0.0
28.815,-0.217,0.156,4.0
26.246,-0.204,-0.009,0.0
23.202,-0.186,-0.141,0.0
19.924,-0.165,-0.238,0.0
17.599,-0.15,-0.311,0.0
16.132,-0.141,-0.378,0.0
28.734,-0.259,0.112,5.0
25.471,-0.236,-0.047,0.0
22.59,-0.216,-0.172,1.0
19.245,-0.188,-0.259,0.0
17.143,-0.172,-0.329,0.0
15.719,-0.162,-0.392,0.0
28.052,-0.296,0.068,0.0
24.854,-0.269,-0.082,0.0
21.81,-0.242,-0.198,0.0
18.527,-0.21,-0.276,0.0
16.741,-0.194,-0.346,0.0
15.416,-0.183,-0.407,0.0
27.026,-0.328,0.025,0.0
23.847,-0.296,-0.114,0.0
20.815,-0.264,-0.219,0.0
18.049,-0.233,-0.295,0.0
16.412,-0.217,-0.363,0.0
14.941,-0.201,-0.416,0.0
26.273,-0.361,-0.012,0.0
23.292,-0.326,-0.144,1.0
19.955,-0.285,-0.238,0.0
17.54,-0.255,-0.312,0.0
16.06,-0.238,-0.378,0.0
14.638,-0.221,-0.429,0.0
25.434,-0.39,-0.047,0.0
22.399,-0.35,-0.17,0.0
19.286,-0.306,-0.257,0.0
17.089,-0.276,-0.328,0.0
15.774,-0.259,-0.393,0.0
14.401,-0.241,-0.441,0.0
24.777,-0.421,-0.08,0.0
21.897,-0.378,-0.196,0.0
18.524,-0.325,-0.272,0.0
16.773,-0.299,-0.344,0.0
15.405,-0.279,-0.405,0.0
14.124,-0.26,-0.452,0.0
23.928,-0.446,-0.109,0.0
20.826,-0.394,-0.214,0.0
18.214,-0.349,-0.292,0.0
16.483,-0.321,-0.36,0.0
14.916,-0.295,-0.411,0.0
13.845,-0.277,-0.461,0.0
23.483,-0.477,-0.137,0.0
20.066,-0.413,-0.232,0.0
17.68,-0.369,-0.306,0.0
16.122,-0.341,-0.373,0.0
14.717,-0.316,-0.425,0.0
13.627,-0.296,-0.471,0.0
22.652,-0.498,-0.161,0.0
19.475,-0.434,-0.25,0.0
17.233,-0.389,-0.32,0.0
15.855,-0.362,-0.387,0.0
14.475,-0.335,-0.436,0.0
13.412,-0.314,-0.481,0.0
22.157,-0.525,-0.185,0.0
18.929,-0.454,-0.266,0.0
16.913,-0.41,-0.334,0.0
15.546,-0.382,-0.398,0.0
14.243,-0.354,-0.446,0.0
13.203,-0.332,-0.489,0.0
21.4,-0.544,-0.204,0.0
18.349,-0.471,-0.279,0.0
16.664,-0.433,-0.349,0.0
15.163,-0.399,-0.406,0.0
13.961,-0.371,-0.453,0.0
12.985,-0.349,-0.496,0.0
20.853,-0.566,-0.223,2.0
18.055,-0.495,-0.296,0.0
16.397,-0.454,-0.362,0.0
14.879,-0.417,-0.415,0.0
13.766,-0.39,-0.463,0.0
12.802,-0.366,-0.504,0.0
19.808,-0.572,-0.234,0.0
17.626,-0.514,-0.309,0.0
16.092,-0.474,-0.373,0.0
14.648,-0.436,-0.425,0.0
13.587,-0.409,-0.472,0.0
12.55,-0.381,-0.508,0.0
19.386,-0.594,-0.25,0.0
17.233,-0.533,-0.32,0.0
15.827,-0.494,-0.384,0.0
14.45,-0.456,-0.435,0.0
13.386,-0.426,-0.479,0.0
12.445,-0.4,-0.516,0.0
19.036,-0.617,-0.265,0.0
16.945,-0.554,-0.332,0.0
15.633,-0.516,-0.396,0.0
14.184,-0.472,-0.441,0.0
13.278,-0.447,-0.489,0.0
12.365,-0.42,-0.526,0.0
18.475,-0.631,-0.276,0.0
16.67,-0.575,-0.344,0.0
15.275,-0.531,-0.402,0.0
14.05,-0.493,-0.451,0.0
12.969,-0.459,-0.49,0.0
12.198,-0.436,-0.531,0.0
18.148,-0.653,-0.289,0.0
16.458,-0.597,-0.355,0.0
15.02,-0.55,-0.41,0.0
13.825,-0.51,-0.457,0.0
12.856,-0.479,-0.498,0.0
12.057,-0.453,-0.536,0.0
17.841,-0.674,-0.301,0.0
16.232,-0.619,-0.366,0.0
14.789,-0.568,-0.417,0.0
13.673,-0.53,-0.465,0.0
12.778,-0.499,-0.507,0.0
11.903,-0.469,-0.54,0.0
17.499,-0.693,-0.311,0.0
15.952,-0.637,-0.374,0.0
14.646,-0.589,-0.426,0.0
13.54,-0.549,-0.473,0.0
12.635,-0.517,-0.513,0.0
11.785,-0.486,-0.545,0.0
17.244,-0.714,-0.321,0.0
15.807,-0.66,-0.384,0.0
14.433,-0.607,-0.432,0.0
13.382,-0.567,-0.478,0.0
12.502,-0.534,-0.518,0.0
11.671,-0.502,-0.55,0.0
17.017,-0.736,-0.331,0.0
15.589,-0.679,-0.391,0.0
14.249,-0.625,-0.438,0.0
13.209,-0.584,-0.483,0.0
12.363,-0.551,-0.522,0.0
11.534,-0.518,-0.553,0.0
16.8,-0.757,-0.34,0.0
15.4,-0.699,-0.398,0.0
14.098,-0.645,-0.445,0.0
13.07,-0.602,-0.488,0.0
12.311,-0.571,-0.529,0.0
11.492,-0.537,-0.559,0.0
16.628,-0.78,-0.349,0.0
15.177,-0.717,-0.404,0.0
13.944,-0.663,-0.45,0.0
13.012,-0.623,-0.495,0.0
12.181,-0.587,-0.532,0.0
11.432,-0.555,-0.565,0.0
16.372,-0.798,-0.355,0.0
14.96,-0.734,-0.409,0.0
13.794,-0.681,-0.455,0.0
12.918,-0.642,-0.5,0.0
12.009,-0.601,-0.533,0.0
11.311,-0.57,-0.566,0.0
16.296,-0.824,-0.364,0.0
14.801,-0.754,-0.414,0.0
13.68,-0.701,-0.46,0.0
12.783,-0.659,-0.503,0.0
11.915,-0.619,-0.537,0.0
11.237,-0.587,-0.57,0.0
16.074,-0.843,-0.369,0.0
14.695,-0.775,-0.42,0.0
13.614,-0.723,-0.466,0.0
12.721,-0.68,-0.509,0.0
11.861,-0.638,-0.541,0.0
11.163,-0.604,-0.573,0.0
15.942,-0.865,-0.375,0.0
14.623,-0.799,-0.427,0.0
13.58,-0.746,-0.473,0.0
12.515,-0.692,-0.508,0.0
11.809,-0.657,-0.546,0.0
11.087,-0.621,-0.575,0.0
15.753,-0.884,-0.38,0.0
14.531,-0.82,-0.432,0.0
13.463,-0.765,-0.476,0.0
12.397,-0.708,-0.509,0.0
11.719,-0.674,-0.548,0.0
11.026,-0.638,-0.578,0.0
15.661,-0.908,-0.385,0.0
14.281,-0.833,-0.432,0.0
13.377,-0.785,-0.48,0.0
12.406,-0.732,-0.516,0.0
11.639,-0.691,-0.55,0.0
11.007,-0.657,-0.582,0.0
15.635,-0.935,-0.392,0.0
14.262,-0.858,-0.438,0.0
13.236,-0.801,-0.481,0.0
12.356,-0.752,-0.519,0.0
11.623,-0.711,-0.554,0.0
10.977,-0.675,-0.585,0.0
15.426,-0.951,-0.393,0.0
14.176,-0.878,-0.441,0.0
13.204,-0.823,-0.485,0.0
12.333,-0.773,-0.523,0.0
11.557,-0.728,-0.555,0.0
10.909,-0.691,-0.586,0.0
15.326,-0.972,-0.396,0.0
14.082,-0.898,-0.443,0.0
13.095,-0.84,-0.486,0.0
12.242,-0.789,-0.524,0.0
11.548,-0.749,-0.559,0.0
10.857,-0.708,-0.587,0.0
15.141,-0.988,-0.397,0.0
13.997,-0.918,-0.445,0.0
13.072,-0.862,-0.489,0.0
12.214,-0.81,-0.527,0.0
11.457,-0.764,-0.558,0.0
10.858,-0.727,-0.59,0.0
15.025,-1.008,-0.398,0.0
14.006,-0.945,-0.45,0.0
13.004,-0.882,-0.49,0.0
12.179,-0.83,-0.529,0.0
11.381,-0.779,-0.558,0.0
10.775,-0.742,-0.589,0.0
15.043,-1.037,-0.403,0.0
13.958,-0.967,-0.452,0.0
12.883,-0.897,-0.489,0.0
12.136,-0.849,-0.53,0.0
11.413,-0.802,-0.562,0.0
10.796,-0.763,-0.592,0.0
14.936,-1.056,-0.403,0.0
13.897,-0.988,-0.453,0.0
12.997,-0.928,-0.496,0.0
12.074,-0.866,-0.53,0.0
11.361,-0.819,-0.562,0.0
10.753,-0.779,-0.592,0.0
15.015,-1.089,-0.408,0.0
13.903,-1.013,-0.456,0.0
12.939,-0.947,-0.496,0.0
12.004,-0.883,-0.529,0.0
11.271,-0.833,-0.559,0.0
10.684,-0.793,-0.59,0.0
14.915,-1.108,-0.408,0.0
13.881,-1.036,-0.457,0.0
12.881,-0.966,-0.496,0.0
12.014,-0.905,-0.53,0.0
11.316,-0.856,-0.563,0.0
10.709,-0.814,-0.593,0.0
14.85,-1.129,-0.407,0.0
13.835,-1.057,-0.456,0.0
12.835,-0.985,-0.495,0.0
11.995,-0.925,-0.531,0.0
11.334,-0.878,-0.565,0.0
10.731,-0.835,-0.594,0.0
14.831,-1.154,-0.408,0.0
13.798,-1.078,-0.456,0.0
12.843,-1.008,-0.496,0.0
12.001,-0.946,-0.531,0.0
11.34,-0.898,-0.565,0.0
10.713,-0.852,-0.594,0.0
14.904,-1.186,-0.41,0.0
13.805,-1.103,-0.457,0.0
12.766,-1.024,-0.493,0.0
11.965,-0.964,-0.53,0.0
11.233,-0.909,-0.56,0.0
10.707,-0.87,-0.593,0.0
14.91,-1.212,-0.41,0.0
13.801,-1.126,-0.456,0.0
12.794,-1.048,-0.494,0.0
11.979,-0.985,-0.53,0.0
11.271,-0.931,-0.561,0.0
10.762,-0.893,-0.596,0.0
14.861,-1.233,-0.408,0.0
13.895,-1.157,-0.458,0.0
12.835,-1.073,-0.495,0.0
11.999,-1.007,-0.53,0.0
11.219,-0.946,-0.558,0.0
10.648,-0.901,-0.589,0.0
14.893,-1.26,-0.407,0.0
13.893,-1.18,-0.457,0.0
12.902,-1.1,-0.496,0.0
11.963,-1.024,-0.527,0.0
11.277,-0.969,-0.56,0.0
10.735,-0.926,-0.592,0.0
14.892,-1.285,-0.405,0.0
13.895,-1.203,-0.455,0.0
12.886,-1.12,-0.493,0.0
12.034,-1.05,-0.529,0.0
11.362,-0.995,-0.562,0.0
10.707,-0.942,-0.589,0.0
14.985,-1.318,-0.405,0.0
13.929,-1.229,-0.454,0.0
12.901,-1.143,-0.492,0.0
12.078,-1.074,-0.528,0.0
11.39,-1.016,-0.561,0.0
10.749,-0.963,-0.589,0.0
14.983,-1.342,-0.402,0.0
13.914,-1.25,-0.45,0.0
13.073,-1.179,-0.495,0.0
12.2,-1.104,-0.531,0.0
11.337,-1.03,-0.556,0.0
10.766,-0.981,-0.587,0.0
15.208,-1.386,-0.405,0.0
14.018,-1.282,-0.45,0.0
13.04,-1.197,-0.491,0.0
12.111,-1.115,-0.524,0.0
11.451,-1.058,-0.558,0.0
10.768,-0.999,-0.585,0.0
15.189,-1.408,-0.4,0.0
14.043,-1.307,-0.447,0.0
13.056,-1.219,-0.487,0.0
12.246,-1.147,-0.526,0.0
11.482,-1.079,-0.556,0.0
10.846,-1.023,-0.586,0.0
15.307,-1.443,-0.398,0.0
14.096,-1.333,-0.444,0.0
13.12,-1.245,-0.485,0.0
12.285,-1.17,-0.523,0.0
11.534,-1.102,-0.555,0.0
10.847,-1.04,-0.582,0.0
15.434,-1.479,-0.396,0.0
14.199,-1.365,-0.442,0.0
13.199,-1.273,-0.484,0.0
12.293,-1.189,-0.519,0.0
11.603,-1.126,-0.554,0.0
10.911,-1.062,-0.581,0.0
15.45,-1.504,-0.39,0.0
14.205,-1.386,-0.437,0.0
13.23,-1.295,-0.479,0.0
12.339,-1.212,-0.516,0.0
11.587,-1.141,-0.548,0.0
10.951,-1.082,-0.579,0.0
15.554,-1.536,-0.387,0.0
14.335,-1.42,-0.435,0.0
13.405,-1.332,-0.48,0.0
12.384,-1.234,-0.513,0.0
11.679,-1.167,-0.548,0.0
10.938,-1.096,-0.573,0.0
15.679,-1.571,-0.382,0.0
14.41,-1.448,-0.43,0.0
13.383,-1.349,-0.473,0.0
12.437,-1.257,-0.509,0.0
11.756,-1.192,-0.546,0.0
11.032,-1.121,-0.573,0.0
15.84,-1.609,-0.379,0.0
14.515,-1.479,-0.426,0.0
13.512,-1.381,-0.471,0.0
12.542,-1.285,-0.507,0.0
11.811,-1.214,-0.542,0.0
11.123,-1.146,-0.572,0.0
15.972,-1.645,-0.374,0.0
14.648,-1.513,-0.423,0.0
13.599,-1.408,-0.467,0.0
12.678,-1.316,-0.506,0.0
11.856,-1.234,-0.538,0.0
11.152,-1.164,-0.567,0.0
16.262,-1.697,-0.371,0.0
14.684,-1.536,-0.415,0.0
13.729,-1.44,-0.463,0.0
12.844,-1.351,-0.505,0.0
11.983,-1.264,-0.537,0.0
11.25,-1.19,-0.565,0.0
16.349,-1.728,-0.364,0.0
14.869,-1.575,-0.412,0.0
13.823,-1.468,-0.458,0.0
12.772,-1.36,-0.494,0.0
12.063,-1.288,-0.533,0.0
11.32,-1.211,-0.562,0.0
16.544,-1.769,-0.358,0.0
14.977,-1.606,-0.406,0.0
13.896,-1.493,-0.452,0.0
12.869,-1.386,-0.49,0.0
12.099,-1.307,-0.527,0.0
11.363,-1.23,-0.557,0.0
16.699,-1.807,-0.351,0.0
15.178,-1.646,-0.401,0.0
14.061,-1.529,-0.448,0.0
12.952,-1.411,-0.485,0.0
12.294,-1.343,-0.527,0.0
11.495,-1.259,-0.556,0.0
16.927,-1.852,-0.344,0.0
15.382,-1.687,-0.396,0.0
14.201,-1.561,-0.443,0.0
13.149,-1.449,-0.483,0.0
12.337,-1.362,-0.52,0.0
11.61,-1.285,-0.553,0.0
17.102,-1.892,-0.336,0.0
15.592,-1.728,-0.39,0.0
14.288,-1.587,-0.436,0.0
13.178,-1.467,-0.475,0.0
12.336,-1.377,-0.511,0.0
11.654,-1.303,-0.547,0.0
17.35,-1.939,-0.328,0.0
15.807,-1.77,-0.384,0.0
14.483,-1.626,-0.431,0.0
13.453,-1.513,-0.475,0.0
12.499,-1.409,-0.509,0.0
11.823,-1.336,-0.546,0.0
17.641,-1.991,-0.32,0.0
15.941,-1.803,-0.375,0.0
14.618,-1.657,-0.424,0.0
13.637,-1.549,-0.471,0.0
12.651,-1.44,-0.505,0.0
11.878,-1.355,-0.539,0.0
17.873,-2.037,-0.31,0.0
16.201,-1.85,-0.369,0.0
14.825,-1.696,-0.418,0.0
13.783,-1.58,-0.465,0.0
12.712,-1.46,-0.498,0.0
11.979,-1.379,-0.534,0.0
18.039,-2.075,-0.298,0.0
16.479,-1.899,-0.362,0.0
15.035,-1.735,-0.411,1.0
13.881,-1.605,-0.456,0.0
12.974,-1.503,-0.497,0.0
12.111,-1.406,-0.53,0.0
18.687,-2.168,-0.294,0.0
16.724,-1.944,-0.353,0.0
15.061,-1.753,-0.399,1.0
14.034,-1.637,-0.45,0.0
13.078,-1.528,-0.49,0.0
12.24,-1.433,-0.525,0.0
18.944,-2.216,-0.281,0.0
16.984,-1.99,-0.344,0.0
15.417,-1.81,-0.396,0.0
14.131,-1.661,-0.44,0.0
13.301,-1.567,-0.486,0.0
12.383,-1.461,-0.52,0.0
19.283,-2.274,-0.269,0.0
17.217,-2.033,-0.333,0.0
15.73,-1.861,-0.389,0.0
14.337,-1.699,-0.434,0.0
13.377,-1.587,-0.477,0.0
12.496,-1.485,-0.513,0.0
19.744,-2.346,-0.258,0.0
17.576,-2.091,-0.324,0.0
15.954,-1.901,-0.381,0.0
14.631,-1.746,-0.429,0.0
13.549,-1.619,-0.471,0.0
12.585,-1.507,-0.505,0.0
20.103,-2.405,-0.244,0.0
17.894,-2.144,-0.314,0.0
16.239,-1.948,-0.372,0.0
14.803,-1.779,-0.421,0.0
13.721,-1.651,-0.464,0.0
12.753,-1.537,-0.5,0.0
22.163,-2.67,-0.248,0.0
18.142,-2.188,-0.301,0.0
16.526,-1.996,-0.363,0.0
14.967,-1.81,-0.411,0.0
13.92,-1.686,-0.457,0.0
12.972,-1.573,-0.496,0.0
22.116,-2.681,-0.226,0.0
18.687,-2.268,-0.292,0.0
16.846,-2.047,-0.354,0.0
15.236,-1.854,-0.404,0.0
14.088,-1.716,-0.449,0.0
12.999,-1.586,-0.484,0.0
22.184,-2.705,-0.205,2.0
19.161,-2.339,-0.28,0.0
17.08,-2.088,-0.342,0.0
15.572,-1.906,-0.397,0.0
14.344,-1.758,-0.443,0.0
13.294,-1.631,-0.482,0.0
22.215,-2.724,-0.183,2.0
19.477,-2.391,-0.265,0.0
17.389,-2.137,-0.33,0.0
15.727,-1.935,-0.385,0.0
14.468,-1.782,-0.432,0.0
13.503,-1.665,-0.476,0.0
22.241,-2.741,-0.161,5.0
20.022,-2.47,-0.252,0.0
17.759,-2.193,-0.319,0.0
15.98,-1.976,-0.375,0.0
14.77,-1.828,-0.426,0.0
13.651,-1.692,-0.467,0.0
22.251,-2.756,-0.138,4.0
20.728,-2.57,-0.239,1.0
18.074,-2.243,-0.306,0.0
16.429,-2.04,-0.368,0.0
14.891,-1.851,-0.414,0.0
13.87,-1.726,-0.46,0.0
22.285,-2.772,-0.115,0.0
21.662,-2.697,-0.228,4.0
18.508,-2.306,-0.294,0.0
16.731,-2.087,-0.357,0.0
15.123,-1.888,-0.404,0.0
14.084,-1.76,-0.452,0.0
25.265,-3.156,-0.103,1.0
22.188,-2.773,-0.21,4.0
19.206,-2.403,-0.285,0.0
16.974,-2.125,-0.344,0.0
15.578,-1.952,-0.4,0.0
14.219,-1.783,-0.441,0.0
25.525,-3.2,-0.077,7.0
22.44,-2.815,-0.188,4.0
19.566,-2.456,-0.269,0.0
17.307,-2.174,-0.332,0.0
15.83,-1.99,-0.389,0.0
14.523,-1.827,-0.435,0.0
25.519,-3.21,-0.05,12.0
22.647,-2.85,-0.165,4.0
20.203,-2.544,-0.256,0.0
17.736,-2.235,-0.321,0.0
16.135,-2.034,-0.379,0.0
14.718,-1.857,-0.425,0.0
25.493,-3.216,-0.021,12.0
23.404,-2.954,-0.145,3.0
20.707,-2.615,-0.239,1.0
18.168,-2.295,-0.309,0.0
16.474,-2.083,-0.369,0.0
14.955,-1.892,-0.415,0.0
25.47,-3.221,0.006,13.0
24.088,-3.048,-0.123,0.0
0.0,0.0,0.0,0.0
18.605,-2.356,-0.296,0.0
16.781,-2.126,-0.357,0.0
15.349,-1.946,-0.409,0.0
25.447,-3.225,0.034,11.0
25.346,-3.213,-0.101,3.0
22.378,-2.838,-0.209,4.0
19.197,-2.436,-0.284,0.0
17.031,-2.162,-0.343,0.0
15.672,-1.99,-0.4,0.0
25.45,-3.231,0.062,10.0
25.425,-3.229,-0.073,8.0
22.487,-2.857,-0.185,4.0
19.596,-2.49,-0.268,0.0
17.511,-2.226,-0.333,0.0
15.849,-2.016,-0.386,0.0
25.559,-3.25,0.092,5.0
25.415,-3.232,-0.044,12.0
22.957,-2.92,-0.163,5.0
20.459,-2.603,-0.257,0.0
17.85,-2.272,-0.32,0.0
16.216,-2.064,-0.377,0.0
25.951,-3.303,0.122,2.0
25.411,-3.235,-0.016,13.0
23.493,-2.991,-0.14,1.0
20.725,-2.639,-0.237,1.0
18.294,-2.33,-0.307,0.0
16.522,-2.105,-0.366,0.0
26.508,-3.377,0.155,1.0
25.395,-3.235,0.013,11.0
24.651,-3.14,-0.119,1.0
22.173,-2.825,-0.228,1.0
18.792,-2.394,-0.294,0.0
16.893,-2.153,-0.354,0.0
27.238,-3.471,0.19,1.0
25.391,-3.235,0.041,11.0
25.384,-3.234,-0.094,5.0
22.439,-2.859,-0.205,4.0
19.355,-2.466,-0.28,0.0
17.195,-2.191,-0.341,0.0
27.735,-3.534,0.226,1.0
25.432,-3.24,0.071,7.0
25.401,-3.236,-0.064,11.0
22.555,-2.873,-0.18,4.0
19.815,-2.524,-0.264,0.0
17.639,-2.247,-0.33,0.0
28.42,-3.62,0.263,0.0
25.679,-3.27,0.101,4.0
25.405,-3.235,-0.036,12.0
23.099,-2.941,-0.158,4.0
20.666,-2.631,-0.252,0.0
18.012,-2.293,-0.316,0.0
29.564,-3.763,0.308,0.0
26.151,-3.327,0.132,1.0
25.416,-3.233,-0.007,13.0
23.752,-3.021,-0.136,1.0
20.884,-2.655,-0.231,0.0
18.477,-2.349,-0.303,0.0
30.811,-3.917,0.356,0.0
26.784,-3.404,0.166,1.0
25.421,-3.23,0.021,10.0
25.22,-3.203,-0.115,1.0
22.342,-2.837,-0.222,4.0
19.13,-2.428,-0.293,0.0
31.966,-4.058,0.405,0.0
27.497,-3.489,0.201,1.0
25.445,-3.227,0.05,10.0
25.419,-3.223,-0.088,6.0
22.455,-2.846,-0.198,6.0
19.454,-2.465,-0.275,0.0
33.525,-4.248,0.463,0.0
28.108,-3.56,0.237,1.0
25.54,-3.233,0.079,6.0
25.464,-3.222,-0.059,11.0
22.727,-2.874,-0.175,4.0
20.137,-2.546,-0.263,0.0
34.375,-4.346,0.513,0.0
28.807,-3.64,0.276,0.0
25.783,-3.256,0.109,2.0
25.474,-3.215,-0.031,11.0
23.374,-2.948,-0.153,2.0
20.755,-2.617,-0.247,1.0
35.575,-4.486,0.571,0.0
30.124,-3.796,0.322,1.0
26.274,-3.309,0.14,1.0
25.513,-3.211,-0.002,11.0
24.22,-3.046,-0.132,1.0
20.945,-2.633,-0.226,0.0
37.268,-4.686,0.64,0.0
31.155,-3.914,0.368,1.0
26.616,-3.341,0.172,1.0
25.528,-3.202,0.025,11.0
25.32,-3.174,-0.11,3.0
22.289,-2.792,-0.216,5.0
39.386,-4.936,0.719,2.0
32.331,-4.048,0.417,0.0
0.0,0.0,0.0,0.0
25.571,-3.196,0.053,12.0
25.566,-3.193,-0.083,6.0
22.265,-2.779,-0.192,7.0
39.512,-4.933,0.764,0.0
33.612,-4.192,0.47,0.0
26.1,-3.252,0.225,1.0
25.673,-3.196,0.081,6.0
25.614,-3.186,-0.056,11.0
22.287,-2.77,-0.167,3.0
22.206,-2.761,0.454,0.0
35.484,-4.407,0.535,0.0
29.016,-3.6,0.282,0.0
26.003,-3.223,0.11,6.0
25.659,-3.178,-0.028,9.0
22.22,-2.749,-0.143,6.0
22.188,-2.746,0.477,1.0
36.036,-4.456,0.582,0.0
30.256,-3.737,0.326,0.0
26.229,-3.236,0.14,6.0
25.714,-3.169,0.0,3.0
22.208,-2.734,-0.12,10.0
22.172,-2.731,0.5,3.0
22.165,-2.727,0.381,3.0
31.484,-3.869,0.372,0.0
26.17,-3.212,0.166,5.0
25.753,-3.158,0.025,1.0
22.209,-2.72,-0.097,17.0
22.165,-2.716,0.523,16.0
22.147,-2.71,0.404,13.0
22.415,-2.74,0.288,0.0
26.36,-3.218,0.195,1.0
22.177,-2.704,0.044,12.0
22.204,-2.704,-0.073,19.0
22.14,-2.698,0.545,18.0
22.129,-2.693,0.426,15.0
22.195,-2.697,0.308,12.0
22.416,-2.72,0.189,10.0
22.159,-2.686,0.067,17.0
22.192,-2.687,-0.051,19.0
22.141,-2.682,0.568,18.0
22.123,-2.676,0.449,16.0
22.112,-2.67,0.33,14.0
22.271,-2.686,0.21,12.0
22.153,-2.668,0.09,18.0
22.182,-2.668,-0.029,18.0
22.135,-2.664,0.59,18.0
22.126,-2.659,0.471,16.0
22.119,-2.654,0.352,18.0
22.109,-2.649,0.23,14.0
22.138,-2.649,0.111,19.0
22.183,-2.65,-0.007,17.0
22.136,-2.646,0.612,17.0
22.134,-2.641,0.493,13.0
22.119,-2.636,0.373,20.0
22.098,-2.629,0.252,18.0
22.13,-2.629,0.133,18.0
22.192,-2.632,0.014,16.0
22.176,-2.632,0.635,16.0
22.16,-2.625,0.515,12.0
22.116,-2.616,0.394,19.0
22.096,-2.609,0.273,19.0
22.132,-2.609,0.154,17.0
22.209,-2.614,0.035,12.0
22.195,-2.614,0.656,14.0
22.153,-2.604,0.536,11.0
22.135,-2.598,0.416,14.0
22.112,-2.59,0.294,18.0
22.135,-2.589,0.175,18.0
26.246,-3.065,0.066,7.0
22.244,-2.599,0.678,16.0
22.199,-2.589,0.557,8.0
22.197,-2.584,0.438,11.0
22.128,-2.571,0.314,15.0
22.138,-2.567,0.195,14.0
26.36,-3.052,0.09,14.0
22.344,-2.588,0.702,12.0
22.429,-2.593,0.583,4.0
22.469,-2.593,0.463,6.0
22.181,-2.555,0.335,4.0
22.166,-2.548,0.215,8.0
26.564,-3.048,0.115,11.0
22.32,-2.563,0.721,0.0
98.535,-11.292,2.652,15.0
0.0,0.0,0.0,0.0
0.0,0.0,0.0,0.0
0.0,0.0,0.0,0.0
27.001,-3.069,0.14,6.0
0.0,0.0,0.0,0.0
0.0,0.0,0.0,0.0
0.0,0.0,0.0,0.0
0.0,0.0,0.0,0.0
0.0,0.0,0.0,0.0
27.471,-3.092,0.166,3.0
118.772,-13.38,4.043,2.0
0.0,0.0,0.0,0.0
0.0,0.0,0.0,0.0
0.0,0.0,0.0,0.0
0.0,0.0,0.0,0.0
27.703,-3.087,0.19,5.0
0.0,0.0,0.0,0.0
0.0,0.0,0.0,0.0
0.0,0.0,0.0,0.0
0.0,0.0,0.0,0.0
39.632,-4.379,0.518,0.0
28.408,-3.132,0.218,7.0
145.46,-16.048,5.186,3.0
37.342,-4.11,1.128,0.0
37.39,-4.105,0.927,0.0
37.411,-4.098,0.721,1.0
37.458,-4.093,0.519,1.0
29.196,-3.183,0.246,1.0
145.747,-15.902,5.309,4.0
36.634,-3.987,1.135,0.0
36.461,-3.958,0.932,0.0
36.771,-3.982,0.737,1.0
37.364,-4.037,0.546,0.0
29.502,-3.18,0.271,1.0
36.864,-3.976,1.369,0.0
35.793,-3.85,1.135,1.0
35.477,-3.807,0.932,1.0
35.155,-3.763,0.729,1.0
37.287,-3.981,0.571,0.0
0.0,0.0,0.0,0.0
36.442,-3.883,1.38,0.0
34.457,-3.662,1.117,0.0
34.313,-3.637,0.926,0.0
34.387,-3.635,0.737,1.0
34.387,-3.626,0.551,2.0
34.481,-3.627,0.365,0.0
35.866,-3.775,1.382,1.0
34.219,-3.592,1.133,0.0
34.133,-3.573,0.944,0.0
34.083,-3.558,0.753,0.0
34.271,-3.568,0.571,1.0
34.363,-3.568,0.386,0.0
35.272,-3.664,1.383,1.0
34.037,-3.526,1.149,0.0
33.959,-3.508,0.961,2.0
33.987,-3.501,0.773,2.0
34.048,-3.497,0.589,1.0
34.469,-3.531,0.409,0.0
34.777,-3.565,1.385,0.0
33.96,-3.47,1.167,1.0
33.969,-3.461,0.982,162.0
33.913,-3.446,0.792,2.0
33.925,-3.437,0.608,0.0
34.449,-3.48,0.429,0.0
34.668,-3.504,1.401,0.0
33.914,-3.417,1.186,1.0
33.901,-3.406,1.0,177.0
33.899,-3.395,0.811,3.0
33.911,-3.386,0.627,0.0
34.405,-3.426,0.448,0.0
34.44,-3.431,1.411,0.0
33.931,-3.37,1.205,2.0
33.925,-3.359,1.019,156.0
33.848,-3.341,0.829,5.0
33.825,-3.328,0.643,0.0
34.612,-3.395,0.47,5.0
34.335,-3.369,1.426,0.0
33.898,-3.316,1.222,3.0
33.9,-3.305,1.036,12.0
33.833,-3.288,0.846,7.0
33.787,-3.273,0.66,0.0
34.635,-3.345,0.487,4.0
34.297,-3.313,1.441,2.0
33.853,-3.26,1.237,3.0
33.837,-3.247,1.051,7.0
33.807,-3.234,0.862,11.0
33.717,-3.214,0.675,0.0
34.459,-3.275,0.501,2.0
34.218,-3.253,1.454,1.0
33.855,-3.207,1.253,9.0
33.798,-3.191,1.065,23.0
33.801,-3.18,0.877,22.0
33.799,-3.17,0.691,8.0
34.2,-3.197,0.512,2.0
34.202,-3.197,1.468,0.0
33.814,-3.15,1.265,20.0
33.779,-3.136,1.079,38.0
33.789,-3.126,0.89,31.0
33.812,-3.117,0.706,150.0
34.151,-3.138,0.525,2.0
34.415,-3.163,1.49,0.0
33.796,-3.094,1.278,39.0
33.787,-3.082,1.092,51.0
33.773,-3.07,0.903,47.0
33.761,-3.058,0.717,0.0
34.049,-3.073,0.536,2.0
0.0,0.0,0.0,0.0
33.802,-3.04,1.29,54.0
33.782,-3.027,1.103,55.0
33.81,-3.018,0.915,76.0
33.798,-3.006,0.729,0.0
33.968,-3.01,0.546,0.0
34.537,-3.06,1.52,0.0
33.825,-2.986,1.302,63.0
33.783,-2.971,1.114,55.0
33.794,-2.961,0.925,105.0
33.757,-2.946,0.739,0.0
33.984,-2.955,0.557,2.0
34.235,-2.977,1.516,0.0
33.819,-2.929,1.312,69.0
33.758,-2.912,1.123,50.0
33.793,-2.903,0.934,135.0
33.804,-2.893,0.749,4.0
33.963,-2.896,0.565,2.0
0.0,0.0,0.0,0.0
33.807,-2.87,1.319,58.0
33.777,-2.856,1.132,46.0
33.805,-2.847,0.943,150.0
33.821,-2.837,0.757,155.0
33.904,-2.832,0.572,2.0
34.361,-2.87,1.538,0.0
33.804,-2.812,1.326,52.0
33.789,-2.8,1.139,51.0
33.811,-2.79,0.95,150.0
33.838,-2.78,0.764,154.0
33.899,-2.774,0.578,2.0
0.0,0.0,0.0,0.0
33.806,-2.754,1.332,47.0
33.792,-2.741,1.145,30.0
33.813,-2.731,0.955,150.0
33.839,-2.722,0.769,154.0
33.866,-2.712,0.582,2.0
0.0,0.0,0.0,0.0
33.812,-2.695,1.337,42.0
33.806,-2.682,1.15,26.0
33.821,-2.672,0.96,150.0
33.859,-2.663,0.773,154.0
33.901,-2.655,0.587,4.0
0.0,0.0,0.0,0.0
33.806,-2.634,1.34,33.0
33.8,-2.622,1.153,20.0
33.824,-2.611,0.963,137.0
33.861,-2.602,0.776,156.0
33.878,-2.592,0.589,7.0
0.0,0.0,0.0,0.0
33.823,-2.575,1.343,29.0
33.815,-2.562,1.155,21.0
33.837,-2.552,0.965,119.0
33.868,-2.542,0.778,162.0
33.929,-2.535,0.591,2.0
0.0,0.0,0.0,0.0
33.84,-2.514,1.344,27.0
33.824,-2.501,1.156,18.0
33.848,-2.491,0.965,100.0
33.878,-2.482,0.778,153.0
33.933,-2.474,0.591,2.0
34.472,-2.511,1.561,0.0
33.848,-2.454,1.344,24.0
33.854,-2.442,1.156,19.0
33.864,-2.431,0.965,80.0
33.889,-2.421,0.777,155.0
33.964,-2.414,0.59,1.0
7.138,0.146,-0.747,0.0
0.0,0.0,0.0,0.0
0.0,0.0,0.0,0.0
0.0,0.0,0.0,0.0
0.0,0.0,0.0,0.0
0.0,0.0,0.0,0.0
7.076,0.138,-0.746,0.0
0.0,0.0,0.0,0.0
0.0,0.0,0.0,0.0
0.0,0.0,0.0,0.0
0.0,0.0,0.0,0.0
0.0,0.0,0.0,0.0
7.068,0.131,-0.751,0.0
0.0,0.0,0.0,0.0
0.0,0.0,0.0,0.0
0.0,0.0,0.0,0.0
0.0,0.0,0.0,0.0
0.0,0.0,0.0,0.0
7.024,0.124,-0.752,0.0
0.0,0.0,0.0,0.0
0.0,0.0,0.0,0.0
0.0,0.0,0.0,0.0
0.0,0.0,0.0,0.0
0.0,0.0,0.0,0.0
7.008,0.116,-0.755,0.0
0.0,0.0,0.0,0.0
0.0,0.0,0.0,0.0
0.0,0.0,0.0,0.0
0.0,0.0,0.0,0.0
0.0,0.0,0.0,0.0
0.0,0.0,0.0,0.0
0.0,0.0,0.0,0.0
0.0,0.0,0.0,0.0
0.0,0.0,0.0,0.0
0.0,0.0,0.0,0.0
0.0,0.0,0.0,0.0
6.932,0.101,-0.756,0.0
0.0,0.0,0.0,0.0
0.0,0.0,0.0,0.0
0.0,0.0,0.0,0.0
0.0,0.0,0.0,0.0
0.0,0.0,0.0,0.0
0.0,0.0,0.0,0.0
0.0,0.0,0.0,0.0
0.0,0.0,0.0,0.0
0.0,0.0,0.0,0.0
0.0,0.0,0.0,0.0
0.0,0.0,0.0,0.0
0.0,0.0,0.0,0.0
0.0,0.0,0.0,0.0
0.0,0.0,0.0,0.0
0.0,0.0,0.0,0.0
0.0,0.0,0.0,0.0
0.0,0.0,0.0,0.0
0.0,0.0,0.0,0.0
0.0,0.0,0.0,0.0
0.0,0.0,0.0,0.0
0.0,0.0,0.0,0.0
0.0,0.0,0.0,0.0
0.0,0.0,0.0,0.0
0.0,0.0,0.0,0.0
0.0,0.0,0.0,0.0
0.0,0.0,0.0,0.0
0.0,0.0,0.0,0.0
0.0,0.0,0.0,0.0
0.0,0.0,0.0,0.0
0.0,0.0,0.0,0.0
0.0,0.0,0.0,0.0
0.0,0.0,0.0,0.0
0.0,0.0,0.0,0.0
0.0,0.0,0.0,0.0
0.0,0.0,0.0,0.0
0.0,0.0,0.0,0.0
0.0,0.0,0.0,0.0
0.0,0.0,0.0,0.0
0.0,0.0,0.0,0.0
0.0,0.0,0.0,0.0
0.0,0.0,0.0,0.0
0.0,0.0,0.0,0.0
0.0,0.0,0.0,0.0
0.0,0.0,0.0,0.0
0.0,0.0,0.0,0.0
0.0,0.0,0.0,0.0
0.0,0.0,0.0,0.0
0.0,0.0,0.0,0.0
0.0,0.0,0.0,0.0
0.0,0.0,0.0,0.0
0.0,0.0,0.0,0.0
0.0,0.0,0.0,0.0
0.0,0.0,0.0,0.0
0.0,0.0,0.0,0.0
0.0,0.0,0.0,0.0
0.0,0.0,0.0,0.0
0.0,0.0,0.0,0.0
0.0,0.0,0.0,0.0
0.0,0.0,0.0,0.0
0.0,0.0,0.0,0.0
47.988,2.763,1.806,1.0
47.256,2.733,1.519,13.0
47.234,2.746,1.254,30.0
47.272,2.761,0.996,6.0
47.752,2.803,0.744,11.0
0.0,0.0,0.0,0.0
48.136,2.863,1.827,1.0
47.279,2.824,1.534,15.0
47.21,2.833,1.268,51.0
47.255,2.85,1.009,6.0
47.541,2.88,0.754,1.0
0.0,0.0,0.0,0.0
47.962,2.944,1.834,0.0
47.315,2.917,1.548,14.0
47.219,2.924,1.28,162.0
47.279,2.94,1.022,4.0
53.077,3.316,0.855,0.0
0.0,0.0,0.0,0.0
0.0,0.0,0.0,0.0
47.328,3.007,1.56,11.0
47.228,3.014,1.291,157.0
47.31,3.032,1.033,3.0
51.224,3.297,0.836,0.0
0.0,0.0,0.0,0.0
0.0,0.0,0.0,0.0
47.377,3.1,1.57,8.0
47.239,3.104,1.3,156.0
47.277,3.119,1.04,2.0
50.959,3.375,0.841,2.0
0.0,0.0,0.0,0.0
0.0,0.0,0.0,0.0
47.4,3.19,1.578,10.0
47.253,3.192,1.307,155.0
47.25,3.204,1.046,3.0
50.973,3.47,0.848,4.0
0.0,0.0,0.0,0.0
0.0,0.0,0.0,0.0
47.421,3.279,1.585,9.0
47.265,3.28,1.313,152.0
47.273,3.294,1.052,16.0
52.222,3.652,0.873,1.0
0.0,0.0,0.0,0.0
0.0,0.0,0.0,0.0
47.472,3.37,1.59,8.0
47.258,3.367,1.316,28.0
47.367,3.388,1.057,0.0
51.808,3.719,0.869,2.0
49.189,3.558,2.195,2.0
0.0,0.0,0.0,0.0
47.508,3.461,1.593,7.0
47.29,3.457,1.318,19.0
47.434,3.479,1.059,0.0
51.409,3.784,0.863,3.0
81.317,6.031,3.63,20.0
0.0,0.0,0.0,0.0
47.531,3.549,1.593,7.0
47.341,3.546,1.319,15.0
0.0,0.0,0.0,0.0
49.127,3.705,0.824,0.0
81.602,6.2,3.64,30.0
48.81,3.72,1.906,3.0
47.683,3.646,1.597,33.0
47.396,3.636,1.319,14.0
47.453,3.652,1.056,3.0
47.946,3.702,0.801,2.0
82.063,6.382,3.656,29.0
48.92,3.816,1.906,15.0
47.753,3.737,1.595,18.0
47.505,3.729,1.318,13.0
47.466,3.738,1.052,11.0
47.964,3.789,0.796,3.0
81.701,6.499,3.632,23.0
81.331,6.489,3.161,21.0
47.897,3.833,1.594,162.0
47.566,3.818,1.313,0.0
47.56,3.829,1.048,14.0
48.014,3.877,0.791,2.0
81.613,6.637,3.616,26.0
81.139,6.616,3.142,24.0
62.658,5.124,2.076,2.0
47.609,3.905,1.307,2.0
47.663,3.921,1.042,12.0
49.285,4.066,0.803,15.0
52.163,4.333,2.301,14.0
52.201,4.348,2.011,18.0
52.25,4.363,1.721,13.0
52.225,4.373,1.423,14.0
51.473,4.323,1.115,7.0
49.044,4.13,0.789,5.0
52.089,4.416,2.287,48.0
52.112,4.43,1.996,45.0
52.151,4.445,1.706,35.0
52.109,4.453,1.408,19.0
51.407,4.406,1.101,7.0
48.598,4.176,0.769,5.0
17.01,0.743,-0.342,0.0
15.713,0.682,-0.401,0.0
14.432,0.622,-0.446,0.0
13.475,0.577,-0.491,0.0
12.563,0.535,-0.526,0.0
11.914,0.504,-0.563,0.0
17.165,0.718,-0.331,0.0
15.925,0.662,-0.393,0.0
14.72,0.608,-0.443,0.0
13.57,0.556,-0.483,0.0
12.729,0.518,-0.522,0.0
11.99,0.485,-0.556,0.0
17.452,0.699,-0.322,0.0
16.109,0.64,-0.384,0.0
14.857,0.586,-0.434,0.0
13.829,0.542,-0.48,0.0
12.892,0.501,-0.517,0.0
12.146,0.469,-0.552,0.0
17.87,0.683,-0.314,0.0
16.288,0.618,-0.373,0.0
15.068,0.567,-0.426,0.0
13.935,0.521,-0.471,0.0
12.966,0.481,-0.508,0.0
12.263,0.451,-0.546,0.0
18.074,0.658,-0.3,0.0
16.596,0.6,-0.365,0.0
15.371,0.551,-0.42,0.0
14.118,0.502,-0.463,0.0
13.153,0.464,-0.502,0.0
12.398,0.434,-0.54,0.0
18.482,0.64,-0.289,0.0
16.788,0.577,-0.352,0.0
15.544,0.529,-0.41,0.0
14.343,0.484,-0.456,0.0
13.316,0.446,-0.495,0.0
12.483,0.415,-0.531,0.0
19.015,0.625,-0.278,0.0
17.05,0.556,-0.341,0.0
15.77,0.509,-0.399,0.0
14.536,0.465,-0.448,0.0
13.522,0.429,-0.489,0.0
12.667,0.398,-0.526,0.0
19.497,0.606,-0.265,0.0
17.26,0.532,-0.326,0.0
15.983,0.488,-0.388,0.0
14.734,0.446,-0.438,0.0
13.743,0.412,-0.482,0.0
12.831,0.381,-0.519,0.0
20.049,0.588,-0.25,0.0
17.758,0.516,-0.317,0.0
16.294,0.469,-0.378,0.0
14.976,0.427,-0.428,0.0
13.867,0.391,-0.471,0.0
12.998,0.363,-0.511,0.0
20.518,0.567,-0.233,0.0
18.157,0.496,-0.303,0.0
16.568,0.448,-0.365,0.0
15.336,0.41,-0.421,0.0
14.101,0.373,-0.462,0.0
13.142,0.345,-0.501,0.0
21.436,0.555,-0.219,0.0
18.581,0.476,-0.289,0.0
16.846,0.427,-0.352,0.0
15.574,0.39,-0.409,0.0
14.354,0.356,-0.454,0.0
13.353,0.327,-0.493,0.0
21.9,0.53,-0.198,0.0
19.018,0.454,-0.273,0.0
17.106,0.404,-0.336,0.0
15.869,0.37,-0.398,0.0
14.637,0.337,-0.445,0.0
13.595,0.31,-0.485,0.0
22.475,0.505,-0.175,0.0
19.763,0.439,-0.259,0.0
17.465,0.383,-0.322,0.0
16.156,0.35,-0.385,0.0
14.85,0.317,-0.432,0.0
13.816,0.291,-0.476,0.0
23.286,0.484,-0.152,0.0
20.259,0.416,-0.24,0.0
17.924,0.363,-0.307,0.0
16.445,0.328,-0.371,0.0
15.22,0.3,-0.424,0.0
14.02,0.272,-0.465,0.0
23.887,0.457,-0.125,0.0
21.297,0.402,-0.224,0.0
18.458,0.343,-0.292,0.0
16.73,0.306,-0.355,0.0
15.551,0.281,-0.412,0.0
14.307,0.254,-0.455,0.0
24.644,0.431,-0.097,0.0
21.947,0.378,-0.202,0.0
19.155,0.325,-0.278,0.0
17.01,0.284,-0.338,0.0
15.864,0.26,-0.399,0.0
14.597,0.236,-0.444,0.0
25.401,0.403,-0.065,0.0
22.664,0.354,-0.177,0.0
19.847,0.304,-0.26,0.0
17.458,0.263,-0.323,0.0
16.214,0.24,-0.386,0.0
14.811,0.215,-0.43,0.0
26.142,0.373,-0.03,0.0
23.408,0.328,-0.151,0.0
20.38,0.28,-0.238,0.0
18.063,0.243,-0.308,0.0
16.532,0.219,-0.37,0.0
15.279,0.198,-0.422,0.0
26.927,0.342,0.006,0.0
24.074,0.299,-0.12,0.0
21.605,0.262,-0.222,1.0
18.635,0.222,-0.291,0.0
16.844,0.196,-0.352,0.0
15.614,0.177,-0.408,0.0
28.229,0.314,0.048,1.0
25.04,0.271,-0.088,0.0
22.061,0.234,-0.194,2.0
19.093,0.197,-0.27,0.0
17.221,0.173,-0.334,0.0
15.944,0.157,-0.393,0.0
28.787,0.276,0.092,6.0
25.715,0.24,-0.052,0.0
22.716,0.206,-0.166,0.0
20.002,0.176,-0.253,0.0
17.671,0.151,-0.316,0.0
16.356,0.136,-0.379,0.0
28.88,0.233,0.136,3.0
26.526,0.207,-0.014,0.0
23.699,0.179,-0.136,0.0
20.936,0.153,-0.233,1.0
18.289,0.129,-0.299,0.0
16.698,0.114,-0.361,0.0
30.617,0.201,0.191,0.0
27.481,0.174,0.027,0.0
24.84,0.151,-0.105,0.0
21.804,0.127,-0.208,3.0
18.939,0.106,-0.28,0.0
17.074,0.091,-0.342,0.0
0.0,0.0,0.0,0.0
28.574,0.139,0.074,1.0
25.442,0.118,-0.067,0.0
22.62,0.099,-0.18,1.0
19.842,0.082,-0.261,0.0
17.534,0.068,-0.323,0.0
33.511,0.123,0.316,0.0
28.814,0.098,0.121,1.0
26.366,0.084,-0.026,0.0
23.454,0.069,-0.148,1.0
20.862,0.057,-0.241,1.0
18.182,0.045,-0.305,0.0
35.763,0.081,0.395,0.0
30.25,0.061,0.176,0.0
27.252,0.049,0.016,0.0
24.277,0.038,-0.114,0.0
21.399,0.028,-0.212,4.0
18.778,0.02,-0.284,0.0
0.0,0.0,0.0,0.0
0.0,0.0,0.0,0.0
28.39,0.012,0.064,1.0
25.357,0.005,-0.077,0.0
22.568,0.0,-0.186,0.0
19.655,-0.004,-0.264,0.0
39.726,-0.018,0.572,0.0
33.22,-0.023,0.305,0.0
28.802,-0.026,0.114,3.0
26.314,-0.03,-0.035,0.0
23.473,-0.032,-0.153,0.0
20.586,-0.032,-0.241,0.0
41.97,-0.076,0.676,0.0
35.019,-0.071,0.382,0.0
29.578,-0.066,0.168,1.0
27.315,-0.067,0.01,0.0
24.279,-0.064,-0.117,0.0
21.61,-0.062,-0.216,0.0
0.0,0.0,0.0,0.0
37.26,-0.123,0.47,0.0
31.674,-0.111,0.235,1.0
28.637,-0.106,0.06,4.0
25.198,-0.099,-0.077,0.0
22.607,-0.094,-0.187,0.0
0.0,0.0,0.0,0.0
0.0,0.0,0.0,0.0
33.21,-0.158,0.305,0.0
28.805,-0.143,0.112,6.0
26.197,-0.135,-0.034,0.0
23.553,-0.127,-0.153,0.0
0.0,0.0,0.0,0.0
0.0,0.0,0.0,0.0
35.072,-0.21,0.384,0.0
30.977,-0.192,0.175,0.0
27.419,-0.175,0.012,0.0
24.534,-0.161,-0.116,0.0
0.0,0.0,0.0,0.0
0.0,0.0,0.0,0.0
36.578,-0.262,0.465,0.0
31.868,-0.234,0.236,2.0
28.642,-0.216,0.064,5.0
25.331,-0.196,-0.075,0.0
0.0,0.0,0.0,0.0
0.0,0.0,0.0,0.0
39.965,-0.332,0.58,0.0
33.148,-0.281,0.305,1.0
28.795,-0.25,0.116,5.0
26.391,-0.234,-0.03,0.0
0.0,0.0,0.0,0.0
0.0,0.0,0.0,0.0
0.0,0.0,0.0,0.0
0.0,0.0,0.0,0.0
30.945,-0.303,0.182,1.0
27.496,-0.274,0.019,0.0
83.771,-0.852,2.393,2.0
0.0,0.0,0.0,0.0
0.0,0.0,0.0,0.0
37.797,-0.404,0.487,0.0
32.436,-0.352,0.25,1.0
28.567,-0.315,0.072,1.0
90.247,-1.013,2.745,5.0
0.0,0.0,0.0,0.0
0.0,0.0,0.0,0.0
0.0,0.0,0.0,0.0
33.744,-0.401,0.323,1.0
28.755,-0.347,0.126,0.0
90.836,-1.113,2.931,4.0
0.0,0.0,0.0,0.0
0.0,0.0,0.0,0.0
0.0,0.0,0.0,0.0
0.0,0.0,0.0,0.0
31.23,-0.407,0.195,0.0
0.0,0.0,0.0,0.0
86.117,-1.154,2.493,1.0
0.0,0.0,0.0,0.0
47.567,-0.652,0.88,0.0
38.187,-0.529,0.509,0.0
32.661,-0.458,0.266,1.0
0.0,0.0,0.0,0.0
90.037,-1.293,2.78,3.0
0.0,0.0,0.0,0.0
0.0,0.0,0.0,0.0
0.0,0.0,0.0,0.0
34.091,-0.509,0.343,1.0
171.776,-2.598,6.518,12.0
96.848,-1.479,3.174,4.0
0.0,0.0,0.0,0.0
0.0,0.0,0.0,0.0
43.801,-0.687,0.751,0.0
0.0,0.0,0.0,0.0
171.382,-2.744,6.831,3.0
97.091,-1.567,3.366,1.0
0.0,0.0,0.0,0.0
0.0,0.0,0.0,0.0
48.146,-0.796,0.917,0.0
38.462,-0.641,0.534,0.0
126.73,-2.136,5.294,9.0
0.0,0.0,0.0,0.0
96.707,-1.655,3.039,8.0
0.0,0.0,0.0,0.0
0.0,0.0,0.0,0.0
41.761,-0.73,0.661,0.0
193.625,-3.423,8.468,6.0
96.933,-1.725,3.737,2.0
96.934,-1.736,3.236,25.0
89.054,-1.606,2.503,1.0
0.0,0.0,0.0,0.0
0.0,0.0,0.0,0.0
190.097,-3.507,8.682,15.0
96.906,-1.798,3.924,3.0
96.959,-1.811,3.425,38.0
90.155,-1.694,2.71,1.0
0.0,0.0,0.0,0.0
0.0,0.0,0.0,0.0
190.282,-3.652,9.064,18.0
96.96,-1.87,4.117,6.0
96.927,-1.88,3.613,44.0
96.836,-1.889,3.1,14.0
0.0,0.0,0.0,0.0
0.0,0.0,0.0,0.0
190.339,-3.785,9.438,22.0
96.902,-1.937,4.304,10.0
96.924,-1.946,3.802,46.0
96.977,-1.957,3.294,11.0
90.752,-1.84,2.613,1.0
0.0,0.0,0.0,0.0
128.476,-2.639,6.622,7.0
96.911,-2.0,4.493,15.0
96.898,-2.008,3.992,46.0
97.01,-2.019,3.485,9.0
96.756,-2.022,2.976,4.0
0.0,0.0,0.0,0.0
64.826,-1.342,7.255,11.0
64.776,-1.332,6.903,36.0
64.152,-1.31,6.493,31.0
63.978,-1.297,6.128,25.0
63.451,-1.278,5.74,17.0
76.034,-1.52,6.473,23.0
64.782,-1.302,7.348,8.0
64.865,-1.294,7.009,24.0
64.196,-1.271,6.593,33.0
64.243,-1.262,6.248,39.0
73.278,-1.43,6.735,13.0
76.235,-1.476,6.6,11.0
64.746,-1.26,7.438,12.0
64.834,-1.252,7.099,33.0
64.411,-1.234,6.706,27.0
64.512,-1.226,6.365,40.0
63.844,-1.204,5.958,8.0
63.489,-1.188,5.586,20.0
73.972,-1.39,8.602,16.0
64.848,-1.209,7.192,31.0
64.849,-1.199,6.844,40.0
64.345,-1.179,6.438,31.0
63.93,-1.162,6.054,27.0
63.469,-1.144,5.672,27.0
73.848,-1.337,8.69,26.0
65.055,-1.167,7.305,16.0
65.035,-1.156,6.952,12.0
64.353,-1.135,6.526,28.0
64.056,-1.12,6.152,22.0
63.553,-1.1,5.764,24.0
73.913,-1.285,8.798,33.0
74.213,-1.278,8.433,11.0
58.622,-1.0,6.345,9.0
64.393,-1.088,6.616,29.0
64.148,-1.073,6.246,30.0
63.645,-1.054,5.856,26.0
74.012,-1.23,8.909,25.0
74.252,-1.222,8.535,25.0
58.599,-0.955,6.419,19.0
64.762,-1.044,6.738,38.0
64.323,-1.027,6.346,28.0
63.93,-1.01,5.964,17.0
59.309,-0.94,7.214,13.0
74.187,-1.163,8.622,32.0
58.561,-0.908,6.489,14.0
58.618,-0.9,6.172,16.0
64.373,-0.977,6.431,28.0
64.176,-0.963,6.066,31.0
58.929,-0.887,7.242,35.0
66.266,-0.986,7.784,15.0
64.918,-0.954,7.273,12.0
58.634,-0.852,6.246,27.0
64.379,-0.925,6.51,24.0
64.201,-0.91,6.146,31.0
58.438,-0.831,7.253,26.0
73.967,-1.039,8.777,15.0
57.121,-0.792,6.468,19.0
58.693,-0.803,6.321,25.0
58.742,-0.794,6.009,11.0
58.3,-0.777,5.649,17.0
58.315,-0.779,7.306,33.0
59.417,-0.784,7.12,22.0
73.085,-0.951,8.359,15.0
0.0,0.0,0.0,0.0
58.794,-0.744,6.081,29.0
64.227,-0.801,6.295,11.0
58.46,-0.73,7.39,25.0
57.693,-0.711,6.977,21.0
73.013,-0.886,8.433,12.0
57.286,-0.684,6.299,12.0
58.758,-0.692,6.141,26.0
64.353,-0.746,6.377,13.0
58.5,-0.678,7.459,22.0
57.762,-0.66,7.049,28.0
64.66,-0.726,7.538,11.0
57.247,-0.632,6.355,26.0
0.0,0.0,0.0,0.0
66.677,-0.712,6.677,6.0
58.436,-0.624,7.513,16.0
57.836,-0.607,7.118,31.0
64.673,-0.667,7.606,14.0
57.23,-0.579,6.413,21.0
57.325,-0.569,6.11,11.0
58.822,-0.573,5.95,20.0
58.3,-0.568,7.555,32.0
58.022,-0.554,7.199,30.0
64.571,-0.605,7.658,6.0
59.523,-0.546,6.728,32.0
57.339,-0.515,6.168,30.0
58.885,-0.518,6.014,23.0
57.61,-0.506,7.521,24.0
58.379,-0.502,7.301,32.0
58.313,-0.489,6.972,17.0
59.582,-0.488,6.791,27.0
57.163,-0.458,6.203,30.0
58.987,-0.461,6.079,27.0
51.875,0.503,7.287,26.0
48.507,0.479,6.539,30.0
48.144,0.484,6.218,22.0
58.227,0.597,7.186,23.0
52.621,0.549,6.199,26.0
56.675,0.603,6.358,28.0
51.925,0.563,7.302,9.0
49.172,0.542,6.637,24.0
48.329,0.542,6.249,22.0
58.159,0.663,7.186,29.0
52.447,0.608,6.185,20.0
56.892,0.67,6.39,31.0
49.284,0.59,6.937,28.0
48.559,0.591,6.559,23.0
48.243,0.596,6.243,22.0
49.243,0.618,6.089,25.0
48.443,0.617,5.717,17.0
49.864,0.644,5.605,18.0
49.312,0.648,6.945,19.0
48.533,0.647,6.559,24.0
47.729,0.644,6.18,22.0
49.182,0.673,6.084,14.0
48.826,0.677,5.765,22.0
52.891,0.743,5.947,11.0
49.327,0.705,6.948,17.0
48.175,0.697,6.512,16.0
48.111,0.705,6.23,24.0
49.02,0.727,6.065,23.0
48.744,0.732,5.755,32.0
50.09,0.761,5.631,32.0
51.866,0.801,7.305,5.0
48.074,0.751,6.497,22.0
47.597,0.752,6.161,21.0
48.928,0.782,6.051,27.0
48.693,0.786,5.746,21.0
50.091,0.818,5.628,20.0
51.791,0.859,7.291,16.0
48.076,0.806,6.493,22.0
47.415,0.803,6.134,21.0
48.857,0.836,6.038,35.0
48.798,0.843,5.754,22.0
50.176,0.875,5.633,22.0
49.122,0.87,6.91,18.0
47.983,0.858,6.475,30.0
0.0,0.0,0.0,0.0
48.817,0.89,6.026,37.0
49.606,0.913,5.842,24.0
50.135,0.931,5.621,27.0
51.528,0.971,7.24,22.0
47.946,0.912,6.462,29.0
0.0,0.0,0.0,0.0
48.856,0.945,6.022,36.0
49.992,0.975,5.878,23.0
50.134,0.987,5.611,23.0
52.031,1.039,7.3,19.0
47.949,0.965,6.452,18.0
48.979,0.994,6.311,5.0
48.821,0.999,6.007,23.0
0.0,0.0,0.0,0.0
50.072,1.041,5.592,29.0
54.183,1.142,7.588,8.0
47.986,1.019,6.445,26.0
45.649,0.977,5.87,18.0
48.775,1.052,5.988,32.0
50.085,1.088,5.864,23.0
49.745,1.089,5.541,32.0
52.347,1.161,7.315,27.0
48.22,1.078,6.461,22.0
45.678,1.028,5.859,19.0
45.251,1.026,5.541,16.0
45.641,1.041,5.329,24.0
49.734,1.143,5.524,29.0
51.943,1.209,7.241,19.0
47.764,1.119,6.384,22.0
45.675,1.077,5.843,17.0
45.279,1.075,5.528,22.0
50.326,1.202,5.857,6.0
49.655,1.194,5.496,14.0
51.91,1.265,7.216,12.0
47.625,1.167,6.346,12.0
45.632,1.125,5.819,20.0
45.276,1.123,5.509,19.0
50.235,1.253,5.826,9.0
49.671,1.247,5.477,18.0
50.329,1.28,6.974,6.0
51.062,1.306,6.782,8.0
45.202,1.163,5.744,23.0
45.223,1.17,5.482,19.0
45.637,1.187,5.272,22.0
49.531,1.295,5.439,21.0
43.883,1.162,6.06,11.0
47.644,1.269,6.305,23.0
45.154,1.209,5.715,28.0
45.298,1.219,5.469,20.0
45.625,1.234,5.247,18.0
49.247,1.339,5.382,13.0
47.621,1.311,6.551,8.0
47.618,1.317,6.276,29.0
45.129,1.254,5.688,19.0
45.255,1.264,5.44,26.0
45.49,1.277,5.207,37.0
49.39,1.393,5.371,11.0
43.923,1.254,6.018,26.0
45.537,1.306,5.976,15.0
45.307,1.306,5.684,19.0
45.306,1.311,5.419,32.0
45.543,1.325,5.186,30.0
49.104,1.435,5.311,16.0
43.974,1.3,5.998,19.0
45.499,1.351,5.943,18.0
44.793,1.335,5.592,20.0
45.377,1.359,5.399,36.0
45.658,1.373,5.17,16.0
48.492,1.464,5.214,16.0
43.925,1.342,5.962,15.0
43.766,1.342,5.687,18.0
45.182,1.392,5.611,19.0
45.408,1.404,5.373,26.0
45.689,1.419,5.143,28.0
48.711,1.519,5.204,16.0
43.953,1.386,5.935,24.0
43.691,1.383,5.647,19.0
45.427,1.443,5.609,19.0
47.731,1.521,5.613,12.0
48.674,1.558,5.444,8.0
