X,Y,Z,Reflectivity
63.727,7.219,2.113,8.0
60.291,6.838,1.65,35.0
46.163,5.242,1.0,10.0
44.455,5.054,0.711,4.0
59.114,6.747,2.587,17.0
59.307,6.775,2.256,13.0
46.486,5.316,1.504,5.0
46.416,5.314,1.233,24.0
45.918,5.263,0.958,9.0
44.386,5.093,0.673,5.0
46.483,5.354,1.995,12.0
46.455,5.356,1.729,23.0
46.426,5.358,1.464,30.0
46.385,5.358,1.193,20.0
45.743,5.289,0.917,10.0
44.312,5.13,0.636,5.0
46.43,5.395,1.954,46.0
46.398,5.396,1.688,33.0
46.371,5.398,1.422,34.0
46.342,5.399,1.153,25.0
45.596,5.318,0.874,8.0
44.006,5.138,0.593,2.0
46.396,5.436,1.913,43.0
46.353,5.435,1.646,45.0
46.342,5.439,1.381,35.0
46.333,5.442,1.112,23.0
45.364,5.334,0.83,5.0
42.751,5.031,0.539,0.0
46.362,5.475,1.87,37.0
46.354,5.478,1.604,43.0
46.339,5.481,1.339,35.0
46.281,5.479,1.069,18.0
44.432,5.265,0.773,3.0
42.569,5.049,0.498,0.0
46.347,5.515,1.826,34.0
46.352,5.519,1.562,53.0
46.361,5.524,1.298,31.0
46.202,5.51,1.025,12.0
44.151,5.27,0.727,4.0
40.494,4.838,0.436,0.0
46.386,5.558,1.785,38.0
46.367,5.56,1.519,36.0
46.379,5.565,1.255,24.0
45.994,5.523,0.977,11.0
44.103,5.3,0.685,6.0
37.773,4.543,0.371,0.0
46.396,5.597,1.741,29.0
46.412,5.602,1.477,17.0
46.4,5.605,1.211,12.0
45.765,5.532,0.928,14.0
44.04,5.327,0.642,4.0
36.142,4.375,0.32,0.0
54.427,6.607,1.99,13.0
58.798,7.142,1.814,17.0
46.439,5.644,1.167,13.0
45.62,5.548,0.881,15.0
43.956,5.35,0.597,2.0
35.974,4.382,0.283,0.0
54.56,6.663,1.941,18.0
58.834,7.188,1.757,11.0
46.474,5.681,1.122,6.0
45.34,5.546,0.83,8.0
42.189,5.164,0.531,0.0
33.604,4.116,0.231,0.0
54.529,6.696,1.885,23.0
58.764,7.22,1.695,11.0
46.346,5.697,1.071,3.0
44.083,5.422,0.763,3.0
42.081,5.179,0.487,0.0
32.845,4.045,0.192,0.0
54.423,6.718,1.826,19.0
54.696,6.754,1.522,14.0
46.214,5.709,1.021,5.0
43.948,5.432,0.715,6.0
39.744,4.915,0.419,0.0
31.732,3.927,0.153,0.0
54.274,6.731,1.764,19.0
0.0,0.0,0.0,0.0
45.981,5.707,0.968,9.0
43.911,5.453,0.669,6.0
37.122,4.612,0.353,0.0
29.453,3.661,0.111,2.0
54.365,6.772,1.71,16.0
55.94,6.971,1.439,5.0
45.687,5.695,0.914,10.0
43.882,5.472,0.622,3.0
35.959,4.486,0.304,0.0
29.409,3.671,0.08,5.0
54.491,6.815,1.657,22.0
55.507,6.944,1.37,2.0
45.477,5.691,0.861,5.0
42.102,5.271,0.553,1.0
34.244,4.289,0.254,0.0
29.129,3.65,0.048,8.0
54.473,6.837,1.598,19.0
52.933,6.646,1.249,0.0
44.075,5.535,0.787,3.0
41.808,5.252,0.503,1.0
33.064,4.155,0.208,0.0
28.422,3.574,0.016,1.0
54.507,6.864,1.54,13.0
46.461,5.852,1.045,3.0
43.902,5.531,0.737,7.0
39.482,4.976,0.432,0.0
32.298,4.072,0.168,0.0
27.124,3.421,-0.013,0.0
58.163,7.346,1.579,14.0
46.02,5.813,0.985,5.0
43.844,5.539,0.687,8.0
39.153,4.948,0.385,0.0
29.502,3.729,0.121,2.0
26.244,3.319,-0.042,1.0
55.695,7.052,1.451,5.0
45.71,5.788,0.928,10.0
43.838,5.552,0.639,7.0
35.731,4.526,0.312,0.0
29.418,3.728,0.088,6.0
25.945,3.289,-0.07,1.0
53.852,6.833,1.341,2.0
45.481,5.771,0.872,6.0
42.072,5.34,0.566,1.0
35.557,4.513,0.271,0.0
29.269,3.716,0.055,7.0
24.855,3.156,-0.095,0.0
52.387,6.659,1.247,0.0
44.13,5.61,0.797,3.0
41.575,5.285,0.512,2.0
33.136,4.213,0.215,0.0
28.312,3.6,0.021,1.0
23.846,3.033,-0.118,1.0
50.209,6.391,1.139,0.0
43.859,5.583,0.743,5.0
41.261,5.252,0.462,1.0
31.611,4.024,0.169,1.0
27.483,3.499,-0.009,1.0
23.524,2.996,-0.143,2.0
46.064,5.87,0.992,6.0
43.827,5.584,0.693,9.0
39.121,4.985,0.394,0.0
29.488,3.758,0.125,4.0
26.288,3.35,-0.039,1.0
22.81,2.907,-0.164,1.0
45.766,5.836,0.934,12.0
43.777,5.582,0.642,6.0
35.684,4.55,0.319,0.0
29.457,3.756,0.091,8.0
25.95,3.309,-0.068,1.0
22.43,2.86,-0.187,1.0
45.467,5.799,0.876,7.0
43.765,5.582,0.592,1.0
35.51,4.528,0.277,0.0
29.267,3.732,0.058,8.0
24.946,3.181,-0.093,0.0
21.835,2.785,-0.207,0.0
44.257,5.645,0.802,3.0
41.545,5.298,0.515,2.0
33.018,4.21,0.22,0.0
28.511,3.635,0.023,1.0
23.796,3.034,-0.116,1.0
21.122,2.693,-0.224,0.0
43.857,5.591,0.746,6.0
41.276,5.261,0.465,1.0
31.795,4.052,0.176,1.0
27.338,3.484,-0.007,0.0
23.543,3.0,-0.141,2.0
20.666,2.633,-0.243,0.0
43.827,5.583,0.695,8.0
39.066,4.976,0.396,0.0
29.471,3.753,0.129,3.0
26.257,3.343,-0.037,1.0
22.861,2.91,-0.163,1.0
20.263,2.579,-0.261,0.0
43.811,5.575,0.645,6.0
35.572,4.525,0.32,0.0
29.447,3.745,0.096,7.0
25.884,3.291,-0.066,1.0
22.382,2.845,-0.185,1.0
19.595,2.491,-0.274,0.0
42.187,5.36,0.573,1.0
35.617,4.524,0.28,0.0
29.279,3.718,0.062,6.0
24.864,3.156,-0.091,0.0
21.755,2.761,-0.205,0.0
19.309,2.45,-0.292,0.0
41.757,5.295,0.52,1.0
33.376,4.231,0.225,0.0
28.363,3.594,0.028,2.0
23.834,3.019,-0.115,1.0
21.167,2.681,-0.223,0.0
18.834,2.385,-0.306,0.0
41.579,5.261,0.472,0.0
32.177,4.069,0.18,0.0
27.473,3.473,-0.003,1.0
23.59,2.981,-0.14,2.0
20.744,2.621,-0.242,0.0
18.393,2.323,-0.32,0.0
39.154,4.941,0.399,0.0
29.44,3.713,0.131,1.0
26.242,3.309,-0.032,1.0
22.854,2.88,-0.161,1.0
20.382,2.568,-0.26,0.0
18.026,2.27,-0.334,0.0
35.757,4.498,0.325,0.0
29.423,3.7,0.099,5.0
25.85,3.249,-0.06,1.0
22.43,2.818,-0.183,0.0
19.665,2.47,-0.273,0.0
17.672,2.219,-0.347,0.0
34.379,4.31,0.275,0.0
29.243,3.665,0.066,8.0
24.818,3.108,-0.085,0.0
21.677,2.714,-0.201,0.0
19.291,2.414,-0.289,0.0
17.342,2.169,-0.359,0.0
33.306,4.16,0.229,0.0
28.508,3.559,0.033,1.0
23.957,2.989,-0.109,2.0
21.312,2.658,-0.221,0.0
18.756,2.338,-0.301,0.0
17.015,2.12,-0.371,0.0
31.964,3.976,0.185,0.0
27.232,3.385,0.002,0.0
23.67,2.941,-0.133,3.0
20.659,2.565,-0.236,0.0
18.404,2.284,-0.316,0.0
16.804,2.085,-0.384,0.0
29.495,3.652,0.139,1.0
26.274,3.251,-0.025,1.0
23.138,2.861,-0.155,1.0
20.335,2.513,-0.254,0.0
18.026,2.227,-0.328,0.0
16.508,2.038,-0.395,0.0
29.395,3.622,0.108,0.0
26.015,3.204,-0.052,1.0
22.542,2.774,-0.174,0.0
19.726,2.426,-0.267,0.0
17.699,2.175,-0.341,0.0
16.151,1.984,-0.404,0.0
29.26,3.586,0.076,1.0
24.631,3.017,-0.076,0.0
21.858,2.675,-0.192,0.0
19.415,2.375,-0.283,0.0
17.412,2.128,-0.354,0.0
15.838,1.935,-0.412,0.0
28.763,3.506,0.046,1.0
24.166,2.943,-0.099,2.0
21.266,2.588,-0.208,0.0
19.049,2.316,-0.297,0.0
17.139,2.083,-0.365,0.0
15.687,1.905,-0.424,0.0
27.446,3.325,0.016,0.0
23.835,2.885,-0.121,3.0
20.821,2.518,-0.225,0.0
18.508,2.237,-0.307,0.0
16.898,2.041,-0.377,0.0
15.52,1.873,-0.435,0.0
26.342,3.171,-0.01,0.0
23.335,2.806,-0.142,1.0
20.513,2.465,-0.242,0.0
18.182,2.183,-0.32,0.0
16.725,2.006,-0.39,0.0
15.299,1.834,-0.444,0.0
26.075,3.117,-0.036,1.0
22.907,2.736,-0.162,0.0
20.308,2.423,-0.259,0.0
17.86,2.129,-0.332,0.0
16.237,1.934,-0.394,0.0
15.019,1.788,-0.45,0.0
25.735,3.054,-0.06,1.0
22.123,2.623,-0.178,0.0
19.744,2.339,-0.271,0.0
17.561,2.078,-0.343,0.0
16.061,1.899,-0.405,0.0
14.73,1.74,-0.456,0.0
24.457,2.88,-0.08,0.0
21.787,2.563,-0.196,0.0
19.392,2.279,-0.284,0.0
17.309,2.032,-0.354,0.0
15.882,1.863,-0.416,0.0
14.54,1.704,-0.464,0.0
24.105,2.816,-0.101,1.0
21.241,2.479,-0.21,0.0
18.864,2.199,-0.294,0.0
17.026,1.983,-0.364,0.0
15.652,1.821,-0.424,0.0
14.325,1.665,-0.47,0.0
23.724,2.748,-0.121,1.0
20.867,2.414,-0.225,0.0
18.514,2.14,-0.305,0.0
16.84,1.944,-0.375,0.0
15.443,1.781,-0.432,0.0
14.209,1.637,-0.479,0.0
23.495,2.698,-0.141,1.0
20.559,2.357,-0.24,0.0
18.251,2.09,-0.317,0.0
16.587,1.898,-0.384,0.0
15.266,1.744,-0.44,0.0
14.004,1.599,-0.484,0.0
22.712,2.583,-0.156,0.0
20.193,2.294,-0.253,0.0
17.92,2.033,-0.327,0.0
16.225,1.839,-0.39,0.0
15.085,1.708,-0.448,0.0
13.836,1.565,-0.49,0.0
22.11,2.49,-0.17,0.0
19.787,2.226,-0.264,0.0
17.606,1.978,-0.335,0.0
16.068,1.803,-0.399,0.0
14.868,1.666,-0.454,0.0
13.653,1.528,-0.494,0.0
21.556,2.403,-0.183,1.0
19.477,2.169,-0.276,0.0
17.435,1.939,-0.346,0.0
15.941,1.77,-0.409,0.0
14.624,1.622,-0.458,0.0
13.598,1.506,-0.503,0.0
21.432,2.364,-0.199,3.0
19.275,2.123,-0.288,0.0
17.187,1.891,-0.354,0.0
15.76,1.731,-0.416,0.0
14.454,1.586,-0.464,0.0
13.442,1.473,-0.508,0.0
21.344,2.329,-0.214,2.0
18.734,2.041,-0.294,0.0
17.028,1.852,-0.364,0.0
15.516,1.685,-0.421,0.0
14.313,1.552,-0.47,0.0
13.291,1.44,-0.512,0.0
21.122,2.278,-0.228,0.0
18.474,1.989,-0.304,0.0
16.803,1.807,-0.371,0.0
15.423,1.656,-0.43,0.0
14.195,1.522,-0.476,0.0
13.226,1.416,-0.519,0.0
20.69,2.205,-0.237,0.0
18.265,1.943,-0.313,0.0
16.628,1.766,-0.379,0.0
15.202,1.612,-0.434,0.0
14.045,1.487,-0.481,0.0
13.051,1.38,-0.52,0.0
20.218,2.128,-0.245,0.0
18.043,1.896,-0.321,0.0
16.335,1.714,-0.383,0.0
15.072,1.579,-0.44,0.0
13.902,1.454,-0.485,0.0
12.997,1.357,-0.527,0.0
19.798,2.057,-0.253,0.0
17.792,1.845,-0.328,0.0
16.182,1.676,-0.39,0.0
14.911,1.541,-0.445,0.0
13.76,1.42,-0.489,0.0
12.902,1.329,-0.531,0.0
19.555,2.005,-0.262,0.0
17.539,1.795,-0.334,0.0
16.041,1.639,-0.396,0.0
14.814,1.511,-0.451,0.0
13.639,1.388,-0.492,0.0
12.755,1.296,-0.533,0.0
19.443,1.966,-0.272,0.0
17.425,1.759,-0.342,0.0
15.889,1.601,-0.402,0.0
14.675,1.476,-0.455,0.0
13.528,1.358,-0.496,0.0
12.679,1.27,-0.536,0.0
19.203,1.914,-0.279,0.0
17.26,1.717,-0.348,0.0
15.862,1.575,-0.409,0.0
14.507,1.437,-0.458,0.0
13.457,1.331,-0.5,0.0
12.607,1.245,-0.54,0.0
19.025,1.868,-0.287,0.0
17.125,1.678,-0.354,0.0
15.732,1.539,-0.414,0.0
14.374,1.403,-0.461,0.0
13.404,1.306,-0.505,0.0
12.555,1.221,-0.544,0.0
18.743,1.812,-0.291,0.0
17.012,1.641,-0.36,0.0
15.591,1.501,-0.418,0.0
14.331,1.377,-0.466,0.0
13.284,1.274,-0.507,0.0
12.489,1.195,-0.547,0.0
18.558,1.766,-0.297,0.0
16.868,1.602,-0.365,0.0
15.472,1.466,-0.421,0.0
14.237,1.346,-0.469,0.0
13.279,1.253,-0.512,0.0
12.432,1.17,-0.55,0.0
18.445,1.726,-0.303,0.0
16.669,1.557,-0.367,0.0
15.337,1.429,-0.424,0.0
14.094,1.31,-0.47,0.0
13.166,1.221,-0.513,0.0
12.381,1.146,-0.552,0.0
18.264,1.681,-0.307,0.0
16.585,1.523,-0.372,0.0
15.288,1.4,-0.429,0.0
14.03,1.282,-0.473,0.0
13.117,1.196,-0.516,0.0
12.313,1.12,-0.554,0.0
18.169,1.643,-0.312,0.0
16.482,1.487,-0.375,0.0
15.136,1.362,-0.429,0.0
13.926,1.25,-0.475,0.0
13.058,1.169,-0.518,0.0
12.254,1.095,-0.555,0.0
18.052,1.603,-0.316,0.0
16.325,1.446,-0.377,0.0
15.142,1.338,-0.434,0.0
13.903,1.225,-0.478,0.0
13.001,1.143,-0.52,0.0
12.194,1.069,-0.556,0.0
17.921,1.561,-0.318,0.0
16.27,1.414,-0.38,0.0
15.129,1.311,-0.438,0.0
13.878,1.2,-0.481,0.0
12.92,1.114,-0.52,0.0
12.206,1.05,-0.559,0.0
17.86,1.526,-0.322,0.0
16.223,1.382,-0.383,0.0
15.031,1.277,-0.439,0.0
13.823,1.171,-0.482,0.0
12.897,1.09,-0.522,0.0
12.179,1.027,-0.561,0.0
17.746,1.486,-0.323,0.0
16.176,1.351,-0.385,0.0
14.913,1.242,-0.438,0.0
13.742,1.141,-0.482,0.0
12.904,1.069,-0.524,0.0
12.162,1.004,-0.562,0.0
17.666,1.449,-0.325,0.0
16.155,1.321,-0.387,0.0
14.892,1.214,-0.44,0.0
13.704,1.114,-0.483,0.0
12.84,1.041,-0.524,0.0
12.095,0.978,-0.561,0.0
17.698,1.421,-0.328,0.0
16.145,1.292,-0.389,0.0
14.829,1.183,-0.44,0.0
13.67,1.087,-0.483,0.0
12.846,1.019,-0.525,0.0
12.107,0.957,-0.563,0.0
17.611,1.383,-0.328,0.0
16.108,1.261,-0.39,0.0
14.807,1.155,-0.441,0.0
13.627,1.06,-0.482,0.0
12.841,0.995,-0.526,0.0
12.086,0.934,-0.563,0.0
17.541,1.346,-0.328,0.0
16.061,1.228,-0.389,0.0
14.783,1.127,-0.44,0.0
13.675,1.039,-0.485,0.0
12.802,0.97,-0.525,0.0
12.061,0.91,-0.562,0.0
17.5,1.312,-0.327,0.0
16.064,1.2,-0.39,0.0
14.834,1.104,-0.442,0.0
13.701,1.016,-0.486,0.0
12.831,0.949,-0.526,0.0
12.09,0.891,-0.563,0.0
17.485,1.279,-0.327,0.0
16.068,1.171,-0.389,0.0
14.831,1.077,-0.441,0.0
13.672,0.989,-0.484,0.0
12.776,0.921,-0.523,0.0
12.076,0.868,-0.562,0.0
17.507,1.249,-0.326,0.0
16.06,1.141,-0.388,0.0
14.832,1.05,-0.441,0.0
13.708,0.967,-0.484,0.0
12.842,0.903,-0.525,0.0
12.106,0.848,-0.562,0.0
17.523,1.218,-0.325,0.0
16.095,1.114,-0.387,0.0
14.808,1.021,-0.438,0.0
13.706,0.941,-0.483,0.0
12.854,0.879,-0.524,0.0
12.115,0.826,-0.561,0.0
17.529,1.185,-0.323,0.0
16.091,1.084,-0.385,0.0
14.875,0.998,-0.438,0.0
13.77,0.92,-0.483,0.0
12.909,0.859,-0.524,0.0
12.135,0.805,-0.56,0.0
17.658,1.161,-0.322,0.0
16.176,1.06,-0.384,0.0
14.844,0.968,-0.434,0.0
13.722,0.891,-0.479,0.0
12.876,0.833,-0.52,0.0
12.111,0.78,-0.556,0.0
17.732,1.133,-0.32,0.0
16.165,1.029,-0.38,0.0
14.941,0.947,-0.434,0.0
13.844,0.873,-0.479,0.0
12.923,0.812,-0.519,0.0
12.155,0.76,-0.555,0.0
17.836,1.106,-0.317,0.0
16.233,1.002,-0.378,0.0
14.969,0.92,-0.431,0.0
13.822,0.846,-0.475,0.0
12.9,0.786,-0.514,0.0
12.221,0.741,-0.554,0.0
17.993,1.082,-0.315,0.0
16.384,0.981,-0.376,0.0
15.108,0.9,-0.43,0.0
13.902,0.824,-0.473,0.0
13.055,0.771,-0.516,0.0
12.288,0.722,-0.553,0.0
18.112,1.055,-0.311,0.0
16.505,0.957,-0.374,0.0
15.18,0.876,-0.427,0.0
13.95,0.801,-0.47,0.0
13.124,0.75,-0.514,0.0
12.329,0.701,-0.551,0.0
18.205,1.026,-0.305,1.0
16.539,0.927,-0.368,0.0
15.273,0.852,-0.423,0.0
14.031,0.778,-0.467,0.0
13.155,0.726,-0.51,0.0
12.389,0.681,-0.548,0.0
18.19,0.991,-0.298,0.0
16.633,0.901,-0.363,0.0
15.322,0.826,-0.418,0.0
14.127,0.757,-0.464,0.0
13.205,0.704,-0.506,0.0
12.391,0.657,-0.543,0.0
18.296,0.962,-0.291,0.0
16.746,0.875,-0.358,0.0
15.421,0.802,-0.414,0.0
14.215,0.735,-0.46,0.0
13.267,0.682,-0.502,0.0
12.509,0.639,-0.542,0.0
18.465,0.935,-0.285,0.0
16.871,0.85,-0.352,0.0
15.609,0.781,-0.411,0.0
14.309,0.712,-0.456,0.0
13.361,0.661,-0.499,0.0
12.497,0.615,-0.535,0.0
18.805,0.916,-0.28,0.0
16.979,0.822,-0.345,0.0
15.748,0.758,-0.406,0.0
14.31,0.685,-0.448,0.0
13.469,0.64,-0.495,0.0
12.625,0.597,-0.533,0.0
19.056,0.892,-0.273,0.0
17.143,0.797,-0.339,0.0
15.868,0.734,-0.4,0.0
14.706,0.676,-0.452,0.0
13.574,0.62,-0.491,0.0
12.625,0.573,-0.525,0.0
19.422,0.872,-0.267,0.0
17.251,0.77,-0.33,0.0
15.972,0.708,-0.393,0.0
14.671,0.646,-0.442,0.0
13.674,0.598,-0.486,0.0
12.792,0.556,-0.524,0.0
19.689,0.847,-0.258,0.0
17.519,0.748,-0.324,0.0
16.102,0.683,-0.385,0.0
14.784,0.623,-0.435,0.0
13.77,0.576,-0.48,0.0
12.876,0.535,-0.519,0.0
19.965,0.82,-0.247,0.0
17.812,0.727,-0.317,0.0
16.245,0.658,-0.377,0.0
14.903,0.599,-0.428,0.0
13.914,0.555,-0.475,0.0
12.922,0.512,-0.511,0.0
20.269,0.794,-0.236,0.0
18.016,0.701,-0.308,0.0
16.53,0.638,-0.371,0.0
15.095,0.578,-0.422,0.0
14.047,0.534,-0.469,0.0
13.128,0.495,-0.509,0.0
20.87,0.779,-0.228,0.0
18.173,0.672,-0.296,0.0
16.689,0.613,-0.362,0.0
15.408,0.561,-0.419,0.0
14.065,0.508,-0.458,0.0
13.169,0.472,-0.5,0.0
21.429,0.759,-0.216,1.0
18.524,0.651,-0.287,0.0
16.798,0.585,-0.351,0.0
15.62,0.539,-0.412,0.0
14.327,0.491,-0.455,0.0
13.364,0.454,-0.496,0.0
21.695,0.728,-0.201,1.0
19.03,0.633,-0.279,0.0
17.051,0.562,-0.341,0.0
15.704,0.513,-0.401,0.0
14.49,0.469,-0.447,0.0
13.531,0.434,-0.491,0.0
22.071,0.699,-0.185,0.0
19.456,0.61,-0.268,0.0
17.26,0.536,-0.33,0.0
15.937,0.49,-0.392,0.0
14.667,0.447,-0.44,0.0
13.703,0.414,-0.484,0.0
22.739,0.678,-0.17,0.0
20.006,0.59,-0.257,0.0
17.585,0.514,-0.32,0.0
16.175,0.468,-0.383,0.0
14.97,0.428,-0.434,0.0
13.898,0.394,-0.478,0.0
23.377,0.653,-0.152,1.0
20.205,0.559,-0.24,0.0
17.981,0.492,-0.31,0.0
16.491,0.446,-0.374,0.0
15.21,0.407,-0.426,0.0
13.994,0.37,-0.467,0.0
23.761,0.62,-0.131,1.0
20.872,0.539,-0.227,0.0
18.326,0.467,-0.297,0.0
16.644,0.42,-0.361,0.0
15.453,0.385,-0.418,0.0
14.166,0.349,-0.459,0.0
24.25,0.589,-0.109,0.0
21.634,0.519,-0.213,0.0
18.681,0.443,-0.284,0.0
16.873,0.395,-0.348,0.0
15.721,0.363,-0.408,0.0
14.425,0.329,-0.452,0.0
24.951,0.56,-0.086,0.0
22.044,0.489,-0.194,0.0
19.252,0.421,-0.272,0.0
17.138,0.37,-0.335,0.0
15.869,0.338,-0.395,0.0
14.593,0.306,-0.441,0.0
25.443,0.526,-0.06,0.0
22.514,0.459,-0.173,0.0
19.816,0.398,-0.258,0.0
17.541,0.347,-0.323,0.0
16.138,0.315,-0.384,0.0
14.911,0.286,-0.434,0.0
26.124,0.494,-0.032,0.0
23.335,0.434,-0.153,0.0
20.241,0.37,-0.24,0.0
18.012,0.324,-0.311,0.0
16.461,0.292,-0.372,0.0
15.23,0.266,-0.425,0.0
26.699,0.457,-0.002,0.0
23.882,0.402,-0.129,0.0
20.816,0.344,-0.223,0.0
18.4,0.299,-0.296,0.0
16.734,0.267,-0.359,0.0
15.53,0.244,-0.415,0.0
27.374,0.421,0.03,0.0
24.589,0.371,-0.103,0.0
21.786,0.322,-0.207,0.0
18.83,0.273,-0.28,0.0
17.017,0.242,-0.344,0.0
15.785,0.22,-0.403,0.0
28.61,0.39,0.066,1.0
25.348,0.339,-0.075,0.0
22.226,0.291,-0.183,0.0
19.55,0.25,-0.267,0.0
17.388,0.217,-0.329,0.0
16.049,0.196,-0.389,0.0
28.853,0.343,0.104,6.0
25.992,0.302,-0.043,0.0
23.193,0.263,-0.161,0.0
20.213,0.223,-0.249,0.0
17.849,0.192,-0.314,0.0
16.389,0.172,-0.375,0.0
28.915,0.295,0.142,3.0
26.631,0.264,-0.009,0.0
23.786,0.229,-0.134,0.0
20.956,0.196,-0.231,0.0
18.363,0.167,-0.299,0.0
16.667,0.146,-0.36,0.0
28.877,0.246,0.18,0.0
27.386,0.226,0.026,0.0
24.653,0.196,-0.106,0.0
21.795,0.168,-0.211,2.0
18.953,0.141,-0.283,0.0
16.98,0.121,-0.344,0.0
32.111,0.221,0.244,0.0
28.478,0.188,0.065,1.0
25.383,0.161,-0.074,0.0
22.347,0.136,-0.186,1.0
19.607,0.113,-0.266,0.0
17.406,0.096,-0.328,0.0
32.905,0.173,0.295,0.0
28.754,0.143,0.106,1.0
26.031,0.123,-0.04,0.0
23.178,0.103,-0.16,1.0
20.678,0.086,-0.252,0.0
17.89,0.07,-0.312,0.0
34.912,0.127,0.363,0.0
30.187,0.102,0.154,0.0
26.984,0.084,-0.003,0.0
23.917,0.068,-0.131,0.0
21.152,0.055,-0.227,3.0
18.413,0.043,-0.294,0.0
35.872,0.074,0.424,0.0
0.0,0.0,0.0,0.0
27.87,0.042,0.037,0.0
24.847,0.031,-0.099,0.0
21.73,0.022,-0.201,1.0
19.046,0.014,-0.276,0.0
37.187,0.018,0.495,0.0
33.132,0.007,0.267,0.0
28.668,0.0,0.081,1.0
25.645,-0.006,-0.064,0.0
22.775,-0.011,-0.177,0.0
19.921,-0.015,-0.259,0.0
39.906,-0.041,0.592,0.0
33.292,-0.043,0.319,0.0
28.822,-0.044,0.125,5.0
26.407,-0.047,-0.026,0.0
23.729,-0.048,-0.148,0.0
20.709,-0.047,-0.237,0.0
43.158,-0.109,0.705,0.0
0.0,0.0,0.0,0.0
31.0,-0.094,0.182,0.0
27.41,-0.09,0.014,0.0
24.478,-0.086,-0.114,0.0
21.748,-0.082,-0.216,1.0
0.0,0.0,0.0,0.0
36.692,-0.156,0.465,0.0
31.6,-0.142,0.235,1.0
28.671,-0.136,0.06,4.0
25.293,-0.126,-0.078,0.0
22.465,-0.117,-0.187,0.0
0.0,0.0,0.0,0.0
38.736,-0.221,0.552,0.0
32.79,-0.195,0.296,0.0
28.783,-0.178,0.107,6.0
26.293,-0.169,-0.039,0.0
23.283,-0.155,-0.157,0.0
0.0,0.0,0.0,0.0
0.0,0.0,0.0,0.0
0.0,0.0,0.0,0.0
28.824,-0.219,0.153,0.0
27.39,-0.214,0.003,0.0
24.174,-0.195,-0.123,1.0
0.0,0.0,0.0,0.0
0.0,0.0,0.0,0.0
36.719,-0.321,0.451,0.0
31.826,-0.285,0.221,1.0
28.223,-0.26,0.049,1.0
25.122,-0.236,-0.087,0.0
0.0,0.0,0.0,0.0
0.0,0.0,0.0,0.0
0.0,0.0,0.0,0.0
32.673,-0.337,0.281,1.0
28.712,-0.302,0.097,1.0
26.204,-0.282,-0.047,0.0
0.0,0.0,0.0,0.0
0.0,0.0,0.0,0.0
0.0,0.0,0.0,0.0
33.956,-0.395,0.349,0.0
30.46,-0.361,0.155,0.0
27.267,-0.329,-0.002,0.0
85.326,-1.049,2.366,1.0
0.0,0.0,0.0,0.0
0.0,0.0,0.0,0.0
36.288,-0.469,0.436,0.0
31.727,-0.417,0.216,0.0
28.391,-0.379,0.045,1.0
86.361,-1.172,2.544,1.0
0.0,0.0,0.0,0.0
47.638,-0.666,0.907,0.0
38.535,-0.546,0.529,0.0
0.0,0.0,0.0,0.0
28.739,-0.419,0.096,1.0
89.834,-1.331,2.803,3.0
0.0,0.0,0.0,0.0
0.0,0.0,0.0,0.0
0.0,0.0,0.0,0.0
34.112,-0.532,0.351,1.0
30.653,-0.484,0.156,0.0
96.965,-1.553,3.194,14.0
87.841,-1.424,2.437,1.0
0.0,0.0,0.0,0.0
0.0,0.0,0.0,0.0
0.0,0.0,0.0,0.0
31.352,-0.532,0.215,0.0
97.022,-1.668,3.368,19.0
89.078,-1.548,2.629,3.0
0.0,0.0,0.0,0.0
48.42,-0.859,0.921,0.0
0.0,0.0,0.0,0.0
33.366,-0.604,0.288,2.0
96.958,-1.776,3.538,32.0
96.693,-1.79,3.028,6.0
0.0,0.0,0.0,0.0
0.0,0.0,0.0,0.0
41.607,-0.792,0.65,0.0
34.158,-0.657,0.357,1.0
96.928,-1.884,3.714,47.0
96.926,-1.901,3.21,18.0
80.207,-1.586,2.239,0.0
0.0,0.0,0.0,0.0
43.245,-0.87,0.754,0.0
0.0,0.0,0.0,0.0
96.914,-1.986,3.887,49.0
96.983,-2.004,3.387,1.0
91.189,-1.899,2.71,1.0
0.0,0.0,0.0,0.0
0.0,0.0,0.0,0.0
0.0,0.0,0.0,0.0
96.911,-2.085,4.063,32.0
128.405,-2.784,4.717,24.0
96.798,-2.114,3.054,5.0
0.0,0.0,0.0,0.0
0.0,0.0,0.0,0.0
42.787,-0.954,0.68,0.0
96.934,-2.182,4.242,16.0
128.426,-2.911,4.954,38.0
0.0,0.0,0.0,0.0
0.0,0.0,0.0,0.0
0.0,0.0,0.0,0.0
0.0,0.0,0.0,0.0
171.719,-4.031,7.834,12.0
171.565,-4.054,6.938,18.0
128.372,-3.051,4.526,14.0
93.436,-2.234,2.801,2.0
0.0,0.0,0.0,0.0
0.0,0.0,0.0,0.0
171.681,-4.189,8.155,34.0
171.673,-4.213,7.263,34.0
166.044,-4.098,6.165,120.0
96.82,-2.402,3.082,5.0
0.0,0.0,0.0,0.0
0.0,0.0,0.0,0.0
171.719,-4.342,8.477,25.0
171.704,-4.363,7.586,13.0
0.0,0.0,0.0,0.0
92.463,-2.374,3.117,151.0
0.0,0.0,0.0,0.0
0.0,0.0,0.0,0.0
171.703,-4.487,8.801,9.0
189.682,-4.98,8.738,20.0
170.563,-4.498,6.971,13.0
92.396,-2.448,3.289,192.0
92.967,-2.475,2.829,1.0
0.0,0.0,0.0,0.0
88.109,-2.373,4.681,9.0
189.606,-5.129,9.091,21.0
190.068,-5.162,8.125,20.0
92.379,-2.52,3.462,13.0
92.414,-2.532,2.985,5.0
0.0,0.0,0.0,0.0
96.986,-2.686,5.335,14.0
189.619,-5.273,9.451,21.0
190.078,-5.307,8.487,17.0
92.41,-2.589,3.637,13.0
92.318,-2.596,3.155,173.0
93.127,-2.63,2.702,1.0
97.038,-2.758,5.521,16.0
189.502,-5.405,9.8,20.0
189.709,-5.431,8.831,20.0
0.0,0.0,0.0,0.0
92.275,-2.66,3.33,150.0
92.634,-2.68,2.864,2.0
97.523,-2.84,5.736,13.0
97.005,-2.834,5.202,16.0
189.982,-5.566,9.203,20.0
93.486,-2.748,4.035,1.0
92.3,-2.722,3.506,28.0
92.273,-2.729,3.027,15.0
99.441,-2.96,6.038,17.0
97.192,-2.901,5.396,16.0
189.582,-5.674,9.54,19.0
190.767,-5.726,8.591,5.0
92.275,-2.778,3.678,17.0
92.227,-2.783,3.199,38.0
98.192,-2.982,6.147,23.0
131.249,-3.997,7.536,12.0
97.279,-2.97,5.081,13.0
189.957,-5.813,8.916,21.0
0.0,0.0,0.0,0.0
92.278,-2.838,3.376,42.0
95.799,-2.964,6.179,12.0
111.154,-3.447,6.593,8.0
97.288,-3.024,5.265,15.0
189.965,-5.916,9.276,20.0
93.419,-2.916,4.078,1.0
92.25,-2.886,3.549,54.0
87.644,-2.758,5.819,11.0
98.907,-3.119,6.054,11.0
131.185,-4.145,7.349,8.0
190.424,-6.029,9.66,16.0
190.456,-6.04,8.674,6.0
92.289,-2.932,3.725,14.0
95.852,-3.064,6.548,5.0
98.348,-3.149,6.207,5.0
99.359,-3.186,5.754,15.0
97.457,-3.131,5.128,5.0
190.164,-6.12,9.021,15.0
0.0,0.0,0.0,0.0
95.643,-3.1,6.716,7.0
96.067,-3.118,6.245,13.0
99.062,-3.22,5.926,22.0
189.905,-6.181,10.354,6.0
190.098,-6.197,9.378,6.0
190.63,-6.223,8.417,6.0
87.94,-2.886,6.342,23.0
97.988,-3.22,6.557,10.0
98.415,-3.238,6.073,22.0
99.328,-3.271,5.602,8.0
190.401,-6.278,9.752,8.0
190.434,-6.287,8.766,18.0
87.995,-2.921,6.512,21.0
87.807,-2.917,6.041,11.0
98.176,-3.265,6.243,19.0
99.239,-3.303,5.785,25.0
190.201,-6.338,10.099,19.0
190.679,-6.358,9.135,17.0
87.936,-2.948,6.673,14.0
87.836,-2.946,6.207,14.0
98.175,-3.295,6.426,17.0
98.819,-3.319,5.944,17.0
124.008,-4.169,6.816,17.0
190.397,-6.404,9.474,11.0
85.818,-2.902,6.673,20.0
87.927,-2.975,6.379,22.0
98.774,-3.343,6.65,6.0
98.352,-3.33,6.1,21.0
123.769,-4.192,7.032,8.0
190.195,-6.444,9.817,16.0
85.866,-2.925,6.836,11.0
87.978,-2.997,6.544,19.0
87.733,-2.989,6.068,25.0
98.171,-3.346,6.268,15.0
99.327,-3.386,5.826,16.0
190.177,-6.484,10.167,13.0
80.901,-2.773,6.591,21.0
87.951,-3.015,6.705,13.0
87.838,-3.01,6.238,21.0
96.195,-3.296,6.32,9.0
98.098,-3.362,5.934,20.0
123.872,-4.244,6.849,19.0
80.696,-2.78,6.724,18.0
85.837,-2.956,6.703,24.0
87.963,-3.028,6.408,31.0
95.717,-3.294,6.464,14.0
98.151,-3.377,6.118,18.0
123.775,-4.258,7.071,12.0
83.568,-2.89,7.117,10.0
85.928,-2.97,6.867,7.0
88.024,-3.041,6.575,18.0
87.735,-3.029,6.086,29.0
96.267,-3.322,6.176,10.0
99.095,-3.418,5.841,16.0
80.464,-2.79,7.001,27.0
80.867,-2.802,6.612,19.0
85.827,-2.972,6.568,9.0
87.88,-3.04,6.256,24.0
96.143,-3.324,6.341,17.0
98.113,-3.389,5.959,25.0
80.402,-2.792,7.14,15.0
80.679,-2.799,6.741,10.0
85.867,-2.976,6.723,21.0
88.022,-3.048,6.424,30.0
95.684,-3.311,6.481,12.0
98.077,-3.389,6.131,16.0
67.121,-2.332,6.081,40.0
80.459,-2.792,6.866,13.0
81.252,-2.816,6.506,13.0
88.037,-3.047,6.58,17.0
87.753,-3.035,6.099,29.0
96.237,-3.323,6.186,12.0
66.482,-2.308,6.14,26.0
80.447,-2.789,7.008,28.0
80.834,-2.799,6.616,21.0
85.826,-2.967,6.566,9.0
87.883,-3.034,6.263,23.0
96.118,-3.314,6.348,13.0
66.465,-2.303,6.258,6.0
67.414,-2.332,5.991,12.0
80.715,-2.788,6.749,11.0
85.858,-2.961,6.719,23.0
87.988,-3.03,6.425,25.0
87.746,-3.016,5.948,10.0
64.734,-2.237,6.207,24.0
67.099,-2.314,6.081,39.0
80.512,-2.771,6.872,12.0
81.377,-2.796,6.51,11.0
88.019,-3.019,6.579,18.0
87.749,-3.004,6.098,27.0
64.803,-2.23,6.326,26.0
66.451,-2.282,6.136,27.0
80.46,-2.757,7.006,20.0
80.761,-2.761,6.599,30.0
87.889,-3.0,6.719,11.0
87.875,-2.993,6.257,21.0
65.018,-2.226,6.459,27.0
66.458,-2.27,6.25,8.0
67.463,-2.299,5.988,13.0
80.68,-2.743,6.728,17.0
85.835,-2.912,6.706,25.0
87.972,-2.978,6.411,24.0
64.873,-2.207,6.554,41.0
64.768,-2.197,6.2,21.0
67.272,-2.277,6.084,26.0
80.769,-2.727,6.87,16.0
81.23,-2.735,6.481,11.0
87.997,-2.956,6.558,19.0
64.664,-2.183,6.641,39.0
64.839,-2.183,6.314,33.0
66.421,-2.23,6.117,19.0
80.767,-2.705,7.003,14.0
80.842,-2.701,6.583,26.0
87.856,-2.927,6.691,6.0
64.76,-2.167,6.757,40.0
64.953,-2.168,6.433,29.0
66.469,-2.212,6.231,14.0
67.443,-2.238,5.958,5.0
80.743,-2.672,6.706,26.0
85.962,-2.836,6.685,14.0
64.72,-2.145,6.859,27.0
64.921,-2.145,6.535,33.0
64.808,-2.135,6.18,25.0
67.431,-2.214,6.065,21.0
80.75,-2.643,6.836,26.0
85.917,-2.804,6.819,22.0
64.733,-2.122,6.964,27.0
64.759,-2.116,6.622,40.0
64.998,-2.117,6.3,27.0
66.995,-2.174,6.131,11.0
67.475,-2.183,5.817,12.0
81.242,-2.62,6.574,12.0
64.869,-2.101,7.08,30.0
64.893,-2.094,6.736,37.0
64.89,-2.086,6.391,29.0
66.389,-2.127,6.178,19.0
67.454,-2.153,5.919,24.0
81.025,-2.577,6.681,20.0
65.012,-2.077,7.197,26.0
65.048,-2.071,6.853,34.0
64.958,-2.06,6.497,26.0
0.0,0.0,0.0,0.0
67.446,-2.123,6.021,32.0
80.824,-2.535,6.786,21.0
65.394,-2.059,7.338,28.0
64.884,-2.035,6.933,38.0
64.843,-2.025,6.581,34.0
64.857,-2.018,6.23,22.0
67.329,-2.087,6.109,21.0
66.604,-2.056,5.688,20.0
65.327,-2.025,7.426,16.0
64.855,-2.002,7.025,35.0
64.762,-1.99,6.668,37.0
64.827,-1.984,6.321,37.0
74.299,-2.264,6.849,12.0
66.534,-2.019,5.779,29.0
65.275,-1.989,7.515,22.0
64.997,-1.972,7.134,40.0
64.948,-1.961,6.781,35.0
64.595,-1.941,6.391,35.0
66.489,-1.99,6.223,17.0
66.253,-1.974,5.848,26.0
74.822,-2.238,8.72,15.0
65.522,-1.951,7.284,35.0
64.993,-1.926,6.876,40.0
64.563,-1.903,6.478,34.0
66.445,-1.95,6.311,33.0
65.772,-1.921,5.896,26.0
76.533,-2.244,9.027,6.0
74.78,-2.181,8.418,13.0
65.027,-1.887,6.97,39.0
64.675,-1.867,6.578,31.0
66.254,-1.903,6.384,9.0
65.78,-1.88,5.986,27.0
74.781,-2.146,8.923,25.0
74.738,-2.133,8.514,33.0
64.99,-1.845,7.053,29.0
64.727,-1.827,6.67,37.0
63.961,-1.796,6.248,31.0
66.2,-1.849,6.112,26.0
74.796,-2.097,9.024,25.0
74.799,-2.085,8.62,29.0
64.991,-1.801,7.139,32.0
64.781,-1.786,6.76,34.0
64.248,-1.76,6.359,38.0
66.219,-1.804,6.199,28.0
74.711,-2.044,9.111,36.0
74.829,-2.034,8.721,24.0
65.35,-1.766,7.262,40.0
64.881,-1.743,6.853,40.0
64.478,-1.722,6.463,31.0
0.0,0.0,0.0,0.0
74.417,-1.983,9.169,32.0
74.544,-1.973,8.78,30.0
0.0,0.0,0.0,0.0
64.669,-1.691,6.91,37.0
64.698,-1.681,6.563,27.0
63.98,-1.652,6.146,23.0
74.508,-1.93,9.271,31.0
74.426,-1.915,8.856,26.0
75.882,-1.94,8.617,41.0
65.046,-1.652,7.027,37.0
64.653,-1.631,6.636,21.0
63.994,-1.603,6.223,29.0
64.569,-1.623,8.111,16.0
74.531,-1.861,8.956,32.0
76.139,-1.888,8.736,12.0
65.373,-1.609,7.139,28.0
64.504,-1.577,6.695,30.0
64.004,-1.553,6.297,29.0
64.506,-1.57,8.177,30.0
74.495,-1.8,9.037,27.0
74.884,-1.796,8.676,28.0
65.403,-1.557,7.215,27.0
64.367,-1.522,6.752,25.0
64.348,-1.51,6.402,33.0
64.418,-1.515,8.238,28.0
74.64,-1.743,9.137,29.0
74.854,-1.734,8.755,30.0
65.505,-1.505,7.297,28.0
64.512,-1.472,6.836,36.0
64.846,-1.468,6.52,40.0
64.443,-1.462,8.31,24.0
74.672,-1.68,9.22,21.0
65.207,-1.455,7.695,22.0
65.425,-1.448,7.357,35.0
65.044,-1.428,6.96,39.0
64.684,-1.408,6.571,29.0
64.489,-1.406,8.383,25.0
64.795,-1.401,8.067,13.0
75.117,-1.611,8.941,11.0
65.623,-1.396,7.445,28.0
65.126,-1.373,7.034,30.0
64.562,-1.349,6.622,29.0
64.563,-1.351,8.457,22.0
64.964,-1.347,8.152,21.0
74.845,-1.537,8.982,24.0
73.787,-1.502,8.443,8.0
65.134,-1.314,7.097,28.0
64.546,-1.29,6.681,23.0
62.623,-1.253,8.263,25.0
65.318,-1.295,8.258,39.0
73.934,-1.452,8.941,22.0
63.33,-1.231,7.305,6.0
65.075,-1.253,7.151,27.0
64.691,-1.234,6.755,23.0
62.691,-1.196,8.329,21.0
65.134,-1.23,8.294,33.0
64.087,-1.198,7.808,25.0
63.358,-1.172,7.365,25.0
65.223,-1.194,7.224,20.0
58.891,-1.067,6.201,14.0
62.759,-1.138,8.393,7.0
58.78,-1.054,7.536,23.0
64.118,-1.138,7.866,14.0
63.311,-1.112,7.412,13.0
65.025,-1.128,7.256,39.0
58.786,-1.009,6.238,21.0
65.02,-1.115,8.749,9.0
62.695,-1.064,8.089,13.0
0.0,0.0,0.0,0.0
73.358,-1.216,8.648,7.0
64.642,-1.059,7.265,39.0
58.803,-0.951,6.286,19.0
57.895,-0.936,7.836,6.0
62.793,-1.003,8.151,25.0
58.412,-0.921,7.259,33.0
64.269,-1.001,7.625,18.0
64.384,-0.99,7.284,39.0
57.463,-0.872,6.185,13.0
57.872,-0.878,7.876,23.0
62.84,-0.94,8.203,12.0
58.121,-0.858,7.265,26.0
63.939,-0.931,7.632,23.0
63.991,-0.919,7.285,40.0
57.493,-0.815,6.229,20.0
57.835,-0.817,7.912,31.0
62.873,-0.876,8.251,18.0
58.172,-0.799,7.311,28.0
59.929,-0.811,7.193,29.0
63.678,-0.85,7.291,36.0
57.429,-0.755,6.259,21.0
57.871,-0.758,7.955,27.0
62.834,-0.811,8.287,12.0
58.329,-0.741,7.368,33.0
0.0,0.0,0.0,0.0
63.536,-0.782,7.315,29.0
57.417,-0.695,6.293,22.0
57.887,-0.698,7.992,31.0
58.125,-0.689,7.701,22.0
57.102,-0.664,7.247,14.0
0.0,0.0,0.0,0.0
63.608,-0.715,7.36,32.0
57.464,-0.634,6.331,11.0
58.063,-0.637,8.05,26.0
58.242,-0.627,7.749,30.0
57.232,-0.605,7.295,31.0
0.0,0.0,0.0,0.0
63.677,-0.648,7.402,26.0
59.874,-0.598,6.628,9.0
58.248,-0.577,8.106,27.0
58.361,-0.566,7.795,30.0
57.372,-0.545,7.342,31.0
59.657,-0.554,7.296,7.0
63.643,-0.579,7.429,23.0
59.861,-0.532,6.655,16.0
58.378,-0.514,8.152,24.0
58.431,-0.502,7.832,31.0
57.651,-0.484,7.405,28.0
57.169,-0.468,7.017,19.0
63.689,-0.509,7.463,25.0
63.288,-0.493,7.064,6.0
58.464,-0.45,8.19,9.0
58.418,-0.437,7.855,26.0
57.704,-0.421,7.435,31.0
57.071,-0.405,7.028,24.0
63.703,-0.44,7.49,13.0
57.23,-0.384,6.41,6.0
63.76,-0.42,8.956,17.0
58.547,-0.373,7.895,8.0
58.05,-0.359,7.501,32.0
57.083,-0.342,7.051,29.0
59.853,-0.346,7.058,33.0
65.414,-0.366,7.349,16.0
59.206,-0.324,8.337,7.0
58.569,-0.308,7.917,9.0
58.326,-0.295,7.556,29.0
57.08,-0.278,7.068,30.0
57.312,-0.268,6.776,20.0
66.442,-0.297,7.484,21.0
51.345,-0.223,7.245,20.0
58.649,-0.243,7.944,14.0
58.436,-0.23,7.586,32.0
57.259,-0.215,7.105,31.0
57.226,-0.203,6.78,17.0
59.85,-0.201,6.756,10.0
58.971,-0.19,8.336,15.0
51.32,-0.155,6.964,25.0
58.458,-0.165,7.602,29.0
57.184,-0.151,7.109,27.0
57.325,-0.14,6.804,19.0
59.929,-0.134,6.778,10.0
51.484,-0.108,7.287,21.0
51.306,-0.097,6.972,25.0
58.523,-0.099,7.622,22.0
57.18,-0.086,7.118,10.0
57.305,-0.076,6.811,25.0
56.383,-0.063,6.385,18.0
51.486,-0.049,7.296,16.0
51.259,-0.039,6.973,9.0
58.508,-0.033,7.628,14.0
49.083,-0.018,6.117,21.0
57.391,-0.011,6.829,30.0
56.483,0.0,6.403,22.0
51.594,0.009,7.317,18.0
48.437,0.018,6.594,16.0
63.003,0.035,8.219,8.0
49.138,0.037,6.127,31.0
57.314,0.054,6.824,30.0
56.501,0.064,6.409,20.0
51.744,0.068,7.341,19.0
48.423,0.073,6.594,17.0
62.981,0.108,8.219,26.0
49.122,0.093,6.127,19.0
57.332,0.118,6.827,30.0
56.579,0.128,6.419,20.0
51.707,0.127,7.336,33.0
48.518,0.128,6.607,33.0
48.544,0.137,6.335,9.0
58.252,0.176,7.265,15.0
57.517,0.185,6.848,25.0
56.795,0.193,6.442,30.0
51.942,0.187,7.368,27.0
48.83,0.185,6.648,23.0
51.466,0.204,6.714,7.0
58.287,0.242,7.266,23.0
57.501,0.25,6.843,22.0
56.635,0.256,6.42,14.0
51.967,0.247,7.367,26.0
51.562,0.254,7.015,13.0
48.551,0.248,6.329,22.0
58.426,0.309,7.278,16.0
60.388,0.33,7.18,12.0
56.843,0.321,6.436,18.0
51.907,0.305,7.352,26.0
51.542,0.312,7.005,13.0
48.996,0.305,6.38,23.0
48.426,0.311,6.025,18.0
60.409,0.398,7.173,17.0
56.795,0.385,6.422,18.0
51.948,0.364,7.348,23.0
51.781,0.372,7.028,7.0
48.696,0.359,6.331,21.0
58.308,0.44,7.243,22.0
60.149,0.464,7.129,34.0
52.405,0.414,5.914,16.0
51.91,0.423,7.331,6.0
49.903,0.415,6.762,17.0
49.051,0.417,6.366,23.0
58.586,0.508,7.263,17.0
62.959,0.556,7.447,10.0
52.453,0.472,5.906,20.0
49.413,0.458,6.966,16.0
49.365,0.465,6.675,23.0
48.869,0.469,6.328,23.0
58.576,0.572,7.245,33.0
60.475,0.601,7.135,25.0
52.41,0.53,5.885,19.0
49.412,0.513,6.95,16.0
49.423,0.521,6.667,21.0
48.781,0.523,6.301,27.0
59.062,0.643,7.285,33.0
48.527,0.536,5.709,18.0
56.852,0.637,6.364,16.0
49.445,0.568,6.936,16.0
47.377,0.552,6.374,11.0
48.901,0.577,6.298,23.0
49.329,0.59,6.066,20.0
48.685,0.591,5.708,14.0
49.953,0.614,5.572,19.0
51.826,0.651,7.25,15.0
47.433,0.604,6.362,19.0
48.688,0.628,6.25,22.0
49.226,0.643,6.032,23.0
48.82,0.645,5.703,23.0
56.492,0.756,6.277,27.0
51.714,0.707,7.21,16.0
0.0,0.0,0.0,0.0
49.37,0.69,6.315,23.0
48.913,0.692,5.97,31.0
48.765,0.697,5.673,22.0
50.085,0.723,5.541,18.0
49.223,0.725,6.838,20.0
47.628,0.709,6.342,22.0
49.336,0.742,6.285,23.0
48.939,0.744,5.948,39.0
48.709,0.748,5.641,12.0
50.127,0.777,5.519,24.0
48.035,0.759,6.647,19.0
47.636,0.76,6.316,22.0
49.173,0.792,6.237,23.0
48.942,0.795,5.921,30.0
0.0,0.0,0.0,0.0
50.341,0.833,5.513,29.0
51.789,0.874,7.136,8.0
47.453,0.807,6.264,21.0
49.092,0.842,6.197,23.0
48.743,0.843,5.867,23.0
50.301,0.877,5.766,26.0
50.358,0.885,5.484,27.0
48.009,0.859,6.585,18.0
47.467,0.856,6.235,26.0
49.045,0.891,6.159,23.0
48.73,0.893,5.834,22.0
50.22,0.927,5.724,32.0
57.769,1.074,6.253,8.0
48.03,0.908,6.555,19.0
0.0,0.0,0.0,0.0
49.031,0.941,6.124,26.0
48.767,0.942,5.805,24.0
50.219,0.977,5.689,27.0
50.117,0.982,5.39,24.0
47.951,0.954,6.51,20.0
45.843,0.919,5.958,19.0
49.235,0.993,6.114,23.0
0.0,0.0,0.0,0.0
50.185,1.025,5.648,26.0
50.04,1.029,5.344,15.0
47.898,1.0,6.466,31.0
45.851,0.963,5.923,17.0
49.163,1.039,6.067,23.0
50.276,1.069,5.909,27.0
50.063,1.071,5.595,24.0
57.72,1.243,6.119,15.0
47.816,1.046,6.416,8.0
45.861,1.008,5.887,20.0
45.321,1.001,5.556,14.0
50.342,1.119,5.875,22.0
49.848,1.114,5.53,31.0
57.58,1.294,6.057,11.0
47.75,1.089,6.367,22.0
45.776,1.049,5.838,19.0
45.307,1.044,5.515,28.0
50.41,1.167,5.84,8.0
49.733,1.157,5.474,23.0
49.585,1.16,5.173,19.0
0.0,0.0,0.0,0.0
45.409,1.082,5.751,19.0
45.28,1.084,5.472,23.0
45.737,1.1,5.257,16.0
49.699,1.201,5.426,17.0
49.556,1.204,5.124,28.0
45.885,1.13,6.035,16.0
45.547,1.127,5.725,20.0
45.315,1.126,5.433,16.0
45.754,1.142,5.216,16.0
49.718,1.246,5.381,19.0
49.421,1.244,5.063,31.0
0.0,0.0,0.0,0.0
45.404,1.163,5.663,19.0
45.354,1.167,5.393,21.0
45.725,1.181,5.168,16.0
49.697,1.289,5.329,23.0
49.438,1.288,5.016,13.0
45.615,1.203,5.908,20.0
45.535,1.206,5.633,29.0
45.414,1.207,5.354,21.0
49.775,1.328,5.574,12.0
49.12,1.316,5.216,22.0
50.703,1.363,5.092,31.0
45.212,1.231,5.808,18.0
45.41,1.24,5.569,26.0
45.52,1.248,5.318,42.0
45.914,1.263,5.093,20.0
49.269,1.36,5.179,23.0
50.801,1.407,5.047,24.0
45.204,1.267,5.757,18.0
45.435,1.278,5.522,25.0
45.56,1.285,5.272,19.0
46.214,1.308,5.075,19.0
50.628,1.437,5.267,24.0
50.651,1.442,4.976,24.0
44.164,1.272,5.575,19.0
45.38,1.311,5.464,35.0
45.741,1.326,5.241,16.0
46.187,1.342,5.019,14.0
50.92,1.484,5.239,17.0
49.931,1.459,4.849,23.0
0.0,0.0,0.0,0.0
45.544,1.35,5.431,34.0
45.74,1.36,5.188,16.0
48.477,1.445,5.212,19.0
51.025,1.525,5.19,21.0
49.896,1.495,4.786,21.0
45.615,1.382,5.651,31.0
45.545,1.383,5.376,19.0
45.771,1.394,5.136,29.0
48.448,1.479,5.15,19.0
50.557,1.546,5.081,24.0
53.836,1.651,5.099,11.0
45.507,1.411,5.581,30.0
47.596,1.479,5.56,13.0
48.605,1.513,5.394,8.0
48.751,1.522,5.122,22.0
50.514,1.58,5.013,24.0
53.796,1.687,5.027,19.0
45.522,1.442,5.525,33.0
45.751,1.452,5.286,14.0
48.679,1.548,5.34,6.0
51.04,1.626,5.297,12.0
50.238,1.604,4.922,23.0
53.782,1.721,4.957,20.0
45.515,1.472,5.464,32.0
45.757,1.482,5.226,20.0
46.161,1.497,5.003,19.0
51.002,1.658,5.225,12.0
50.469,1.643,4.878,24.0
56.133,1.831,5.1,9.0
47.425,1.563,5.629,12.0
45.939,1.516,5.185,20.0
48.722,1.61,5.215,4.0
50.351,1.666,5.091,15.0
50.801,1.684,4.841,24.0
56.062,1.862,5.018,36.0
45.775,1.535,5.371,12.0
46.0,1.544,5.128,19.0
55.213,1.856,5.833,14.0
50.304,1.694,5.016,22.0
53.835,1.815,5.056,20.0
56.039,1.892,4.937,18.0
45.758,1.56,5.304,27.0
46.146,1.574,5.08,20.0
55.194,1.885,5.754,12.0
50.229,1.718,4.938,19.0
53.796,1.842,4.976,21.0
73.415,2.517,6.365,10.0
45.432,1.572,5.202,35.0
50.066,1.734,5.439,6.0
61.586,2.135,6.332,13.0
50.134,1.74,4.857,20.0
56.056,1.947,5.105,10.0
66.764,2.322,5.693,3.0
45.406,1.593,5.132,20.0
49.991,1.755,5.358,15.0
50.261,1.766,5.094,18.0
50.011,1.759,4.772,24.0
55.881,1.967,5.007,28.0
55.968,1.972,4.691,20.0
46.073,1.637,5.139,21.0
55.449,1.971,5.861,5.0
50.16,1.785,5.009,25.0
50.278,1.79,4.722,24.0
66.741,2.378,5.88,23.0
56.024,1.998,4.61,21.0
46.158,1.659,5.077,19.0
61.549,2.214,6.411,17.0
50.084,1.802,4.924,28.0
50.171,1.806,4.635,20.0
66.727,2.403,5.777,21.0
56.262,2.028,4.544,19.0
48.55,1.764,5.266,8.0
50.366,1.831,5.168,13.0
49.933,1.816,4.832,26.0
49.98,1.818,4.54,7.0
56.056,2.04,4.766,27.0
56.286,2.049,4.458,13.0
48.432,1.776,5.177,15.0
50.238,1.843,5.076,24.0
49.977,1.833,4.758,23.0
51.457,1.888,4.594,20.0
55.952,2.054,4.669,29.0
65.479,2.404,5.084,5.0
56.378,2.085,5.937,6.0
50.058,1.852,4.978,23.0
50.069,1.852,4.686,19.0
56.17,2.078,4.924,16.0
56.152,2.077,4.595,29.0
65.331,2.417,4.967,11.0
50.6,1.885,5.245,15.0
49.945,1.861,4.885,23.0
50.012,1.863,4.599,18.0
56.075,2.088,4.824,23.0
56.283,2.097,4.514,20.0
65.279,2.432,4.857,25.0
50.364,1.889,5.138,25.0
49.84,1.868,4.793,23.0
55.486,2.08,5.011,8.0
55.965,2.097,4.723,30.0
63.096,2.364,4.957,3.0
65.303,2.446,4.752,31.0
50.109,1.889,5.028,34.0
49.806,1.877,4.706,23.0
73.26,2.76,6.495,8.0
55.96,2.107,4.63,30.0
65.422,2.463,5.032,7.0
65.315,2.458,4.644,58.0
49.938,1.89,4.928,33.0
49.917,1.889,4.634,22.0
56.087,2.121,4.879,18.0
56.13,2.121,4.55,22.0
65.355,2.469,4.918,18.0
65.33,2.467,4.536,54.0
49.847,1.893,4.835,20.0
55.398,2.103,5.049,17.0
56.013,2.124,4.778,29.0
63.084,2.391,5.006,6.0
65.308,2.474,4.803,23.0
65.354,2.474,4.427,35.0
49.793,1.895,4.744,21.0
55.484,2.11,4.962,12.0
55.945,2.126,4.676,27.0
75.538,2.869,5.866,23.0
65.316,2.478,4.692,34.0
65.377,2.479,4.317,25.0
49.885,1.901,4.666,22.0
56.242,2.142,4.932,11.0
55.998,2.13,4.583,29.0
65.417,2.486,4.966,19.0
65.327,2.481,4.58,55.0
65.442,2.483,4.207,20.0
55.39,2.111,5.084,11.0
56.045,2.134,4.816,24.0
63.103,2.4,5.054,7.0
65.319,2.482,4.845,21.0
65.339,2.48,4.465,53.0
65.449,2.482,4.092,23.0
55.437,2.112,4.99,16.0
55.992,2.13,4.712,29.0
75.493,2.868,5.913,24.0
65.301,2.478,4.727,32.0
65.381,2.478,4.353,31.0
65.483,2.479,3.979,23.0
81.776,2.574,4.791,32.0
81.923,2.568,4.323,32.0
81.225,2.535,3.815,18.0
0.0,0.0,0.0,0.0
0.0,0.0,0.0,0.0
54.094,1.666,1.593,4.0
81.914,2.518,4.647,24.0
81.632,2.497,4.156,40.0
0.0,0.0,0.0,0.0
0.0,0.0,0.0,0.0
54.137,1.633,1.807,0.0
54.154,1.626,1.495,7.0
82.814,2.48,4.543,13.0
81.923,2.441,4.018,14.0
0.0,0.0,0.0,0.0
0.0,0.0,0.0,0.0
54.142,1.589,1.707,1.0
54.097,1.58,1.392,10.0
82.385,2.4,4.367,13.0
84.039,2.434,3.966,11.0
57.758,1.664,2.39,0.0
0.0,0.0,0.0,0.0
54.071,1.541,1.605,2.0
54.122,1.534,1.293,1.0
82.919,2.344,4.242,13.0
0.0,0.0,0.0,0.0
0.0,0.0,0.0,0.0
54.214,1.506,1.824,1.0
54.078,1.494,1.506,5.0
56.475,1.551,1.246,3.0
84.472,2.312,4.167,16.0
0.0,0.0,0.0,0.0
0.0,0.0,0.0,0.0
54.162,1.456,1.724,20.0
54.091,1.445,1.408,1.0
56.682,1.505,1.148,4.0
85.275,2.254,4.051,9.0
0.0,0.0,0.0,0.0
0.0,0.0,0.0,0.0
54.067,1.401,1.622,2.0
54.406,1.401,1.318,0.0
0.0,0.0,0.0,0.0
56.137,1.429,2.564,0.0
0.0,0.0,0.0,0.0
54.341,1.364,1.852,1.0
54.205,1.351,1.528,1.0
57.499,1.423,1.288,3.0
0.0,0.0,0.0,0.0
0.0,0.0,0.0,0.0
0.0,0.0,0.0,0.0
54.425,1.31,1.756,19.0
54.102,1.293,1.427,1.0
57.739,1.369,1.189,4.0
0.0,0.0,0.0,0.0
0.0,0.0,0.0,0.0
0.0,0.0,0.0,0.0
54.236,1.248,1.652,0.0
54.312,1.24,1.336,1.0
47.844,1.083,0.899,2.0
36.929,0.829,0.48,0.0
0.0,0.0,0.0,0.0
54.51,1.204,1.878,49.0
54.4,1.192,1.56,0.0
54.601,1.186,1.244,1.0
0.0,0.0,0.0,0.0
35.167,0.75,0.394,0.0
0.0,0.0,0.0,0.0
54.436,1.142,1.78,2.0
54.235,1.127,1.459,0.0
54.759,1.127,1.152,1.0
40.247,0.82,0.613,0.0
33.721,0.681,0.319,1.0
0.0,0.0,0.0,0.0
0.0,0.0,0.0,0.0
54.465,1.068,1.37,0.0
0.0,0.0,0.0,0.0
37.424,0.719,0.505,0.0
31.756,0.603,0.245,0.0
0.0,0.0,0.0,0.0
0.0,0.0,0.0,0.0
54.763,1.008,1.282,0.0
0.0,0.0,0.0,0.0
35.723,0.643,0.42,0.0
30.872,0.549,0.184,0.0
55.101,0.969,1.832,1.0
54.959,0.955,1.51,2.0
54.857,0.941,1.19,0.0
0.0,0.0,0.0,0.0
34.327,0.575,0.345,1.0
28.857,0.477,0.123,1.0
55.11,0.9,1.739,0.0
55.293,0.891,1.425,0.0
0.0,0.0,0.0,0.0
0.0,0.0,0.0,0.0
32.175,0.498,0.269,0.0
28.666,0.437,0.074,1.0
55.692,0.838,1.664,0.0
0.0,0.0,0.0,0.0
0.0,0.0,0.0,0.0
35.894,0.516,0.447,0.0
28.913,0.409,0.193,0.0
27.171,0.379,0.025,0.0
56.007,0.768,1.579,0.0
57.528,0.776,1.29,0.0
0.0,0.0,0.0,0.0
34.971,0.456,0.377,0.0
28.892,0.37,0.145,4.0
26.301,0.331,-0.019,0.0
57.064,0.705,1.515,0.0
0.0,0.0,0.0,0.0
0.0,0.0,0.0,0.0
33.224,0.388,0.304,0.0
28.807,0.329,0.097,5.0
25.556,0.286,-0.06,0.0
57.566,0.632,1.435,0.0
0.0,0.0,0.0,0.0
0.0,0.0,0.0,0.0
31.634,0.325,0.239,0.0
27.845,0.28,0.05,0.0
24.642,0.242,-0.097,0.0
57.795,0.553,1.348,0.0
0.0,0.0,0.0,0.0
35.867,0.326,0.424,0.0
28.913,0.256,0.172,1.0
26.799,0.23,0.005,0.0
23.7,0.198,-0.131,0.0
0.0,0.0,0.0,0.0
0.0,0.0,0.0,0.0
33.351,0.254,0.341,0.0
28.856,0.213,0.126,3.0
26.044,0.186,-0.035,0.0
22.552,0.155,-0.16,0.0
0.0,0.0,0.0,0.0
37.713,0.241,0.544,0.0
32.211,0.198,0.28,0.0
28.501,0.168,0.081,1.0
25.161,0.142,-0.073,0.0
22.014,0.118,-0.19,3.0
0.0,0.0,0.0,0.0
37.026,0.181,0.478,0.0
31.281,0.145,0.224,0.0
27.458,0.12,0.036,0.0
24.336,0.1,-0.107,0.0
21.211,0.082,-0.215,3.0
41.894,0.151,0.719,0.0
35.328,0.118,0.403,0.0
29.946,0.093,0.17,0.0
26.586,0.075,-0.004,0.0
23.431,0.06,-0.138,1.0
20.591,0.048,-0.239,0.0
0.0,0.0,0.0,0.0
0.0,0.0,0.0,0.0
28.774,0.044,0.12,1.0
25.852,0.032,-0.042,0.0
22.598,0.022,-0.166,0.0
19.534,0.014,-0.256,0.0
0.0,0.0,0.0,0.0
33.141,0.006,0.281,0.0
28.381,-0.001,0.078,1.0
25.066,-0.008,-0.077,0.0
21.611,-0.013,-0.19,1.0
18.559,-0.016,-0.27,0.0
0.0,0.0,0.0,0.0
31.066,-0.043,0.22,0.0
27.59,-0.046,0.037,0.0
24.134,-0.046,-0.108,0.0
21.01,-0.046,-0.214,0.0
18.282,-0.045,-0.291,0.0
0.0,0.0,0.0,0.0
28.856,-0.087,0.163,2.0
26.661,-0.088,-0.001,0.0
23.582,-0.085,-0.138,0.0
20.381,-0.079,-0.236,0.0
17.768,-0.074,-0.308,0.0
33.149,-0.147,0.332,1.0
28.793,-0.135,0.124,7.0
25.768,-0.128,-0.036,0.0
22.79,-0.12,-0.165,0.0
19.578,-0.108,-0.254,0.0
17.345,-0.101,-0.324,0.0
31.985,-0.195,0.278,1.0
28.667,-0.183,0.085,5.0
25.047,-0.167,-0.068,0.0
22.085,-0.153,-0.189,1.0
18.966,-0.137,-0.271,0.0
16.92,-0.127,-0.338,0.0
31.482,-0.245,0.233,1.0
27.591,-0.223,0.046,0.0
24.26,-0.203,-0.097,0.0
21.342,-0.185,-0.21,0.0
18.445,-0.165,-0.287,0.0
16.616,-0.154,-0.354,0.0
28.891,-0.275,0.177,1.0
27.055,-0.265,0.011,0.0
23.924,-0.242,-0.126,0.0
20.49,-0.213,-0.227,0.0
17.936,-0.191,-0.301,0.0
16.354,-0.179,-0.368,0.0
28.771,-0.324,0.14,0.0
26.304,-0.304,-0.021,0.0
23.073,-0.273,-0.15,1.0
19.877,-0.242,-0.245,0.0
17.527,-0.218,-0.316,0.0
16.062,-0.205,-0.381,0.0
28.617,-0.373,0.105,1.0
25.432,-0.339,-0.051,0.0
22.464,-0.306,-0.173,0.0
19.26,-0.268,-0.26,0.0
17.14,-0.244,-0.33,0.0
15.761,-0.229,-0.393,0.0
28.321,-0.42,0.07,1.0
24.957,-0.377,-0.08,0.0
21.966,-0.339,-0.195,0.0
18.644,-0.293,-0.274,0.0
16.807,-0.27,-0.343,0.0
15.396,-0.252,-0.402,0.0
27.348,-0.455,0.036,0.0
24.179,-0.409,-0.105,0.0
21.272,-0.367,-0.213,0.0
18.218,-0.32,-0.288,0.0
16.551,-0.295,-0.356,0.0
15.035,-0.273,-0.409,0.0
26.622,-0.491,0.006,0.0
23.662,-0.443,-0.129,0.0
20.446,-0.39,-0.228,0.0
17.899,-0.346,-0.303,0.0
16.289,-0.32,-0.368,0.0
14.873,-0.297,-0.421,0.0
25.984,-0.527,-0.021,0.0
23.178,-0.477,-0.151,0.0
19.772,-0.413,-0.241,0.0
17.48,-0.37,-0.314,0.0
16.02,-0.345,-0.379,0.0
14.663,-0.32,-0.431,0.0
25.521,-0.565,-0.048,0.0
22.338,-0.501,-0.169,0.0
19.426,-0.442,-0.257,0.0
17.157,-0.396,-0.326,0.0
15.822,-0.37,-0.391,0.0
14.47,-0.343,-0.44,0.0
24.549,-0.589,-0.071,0.0
22.111,-0.538,-0.189,0.0
18.982,-0.467,-0.27,0.0
16.866,-0.421,-0.337,0.0
15.575,-0.394,-0.4,0.0
14.233,-0.364,-0.446,0.0
0.0,0.0,0.0,0.0
21.086,-0.552,-0.201,0.0
18.365,-0.487,-0.279,0.0
16.667,-0.447,-0.349,0.0
15.31,-0.416,-0.408,0.0
13.968,-0.384,-0.451,0.0
23.736,-0.659,-0.113,0.0
20.992,-0.589,-0.219,2.0
18.147,-0.515,-0.292,0.0
16.476,-0.473,-0.361,0.0
15.019,-0.436,-0.414,0.0
13.876,-0.408,-0.461,0.0
23.375,-0.693,-0.132,0.0
20.727,-0.621,-0.235,0.0
17.772,-0.539,-0.302,0.0
16.284,-0.499,-0.371,0.0
14.845,-0.46,-0.422,0.0
13.729,-0.43,-0.468,0.0
23.2,-0.732,-0.151,0.0
19.713,-0.628,-0.24,0.0
17.577,-0.566,-0.314,0.0
15.99,-0.52,-0.377,0.0
14.648,-0.481,-0.429,0.0
13.606,-0.451,-0.475,0.0
22.273,-0.744,-0.163,0.0
19.416,-0.656,-0.252,0.0
17.262,-0.589,-0.322,0.0
15.786,-0.544,-0.385,0.0
14.5,-0.504,-0.436,0.0
13.418,-0.471,-0.479,0.0
22.218,-0.785,-0.18,1.0
19.202,-0.685,-0.264,0.0
17.046,-0.614,-0.331,0.0
15.585,-0.567,-0.392,0.0
14.359,-0.527,-0.442,0.0
13.309,-0.493,-0.485,0.0
21.296,-0.794,-0.188,1.0
18.885,-0.71,-0.274,0.0
16.906,-0.641,-0.34,0.0
15.491,-0.593,-0.401,0.0
14.172,-0.547,-0.447,0.0
13.194,-0.514,-0.491,0.0
21.156,-0.829,-0.202,2.0
18.552,-0.733,-0.282,0.0
16.681,-0.665,-0.348,0.0
15.142,-0.609,-0.402,0.0
13.993,-0.568,-0.451,0.0
13.022,-0.533,-0.493,0.0
20.984,-0.863,-0.214,2.0
18.141,-0.752,-0.288,0.0
16.502,-0.69,-0.355,0.0
15.11,-0.637,-0.411,0.0
13.907,-0.591,-0.457,0.0
12.95,-0.555,-0.499,0.0
20.93,-0.901,-0.227,1.0
18.029,-0.783,-0.297,0.0
16.426,-0.719,-0.363,0.0
14.882,-0.656,-0.414,0.0
13.828,-0.615,-0.463,0.0
12.857,-0.576,-0.503,0.0
20.433,-0.92,-0.234,0.0
17.774,-0.806,-0.303,0.0
16.223,-0.741,-0.368,0.0
14.757,-0.68,-0.419,0.0
13.693,-0.635,-0.466,0.0
12.77,-0.597,-0.507,0.0
19.806,-0.93,-0.237,0.0
17.647,-0.834,-0.31,0.0
16.106,-0.767,-0.374,0.0
14.645,-0.703,-0.424,0.0
13.61,-0.658,-0.47,0.0
12.74,-0.621,-0.512,0.0
19.492,-0.953,-0.243,0.0
17.505,-0.862,-0.317,0.0
15.924,-0.79,-0.378,0.0
14.527,-0.725,-0.427,0.0
13.549,-0.681,-0.475,0.0
12.66,-0.641,-0.515,0.0
19.382,-0.985,-0.251,0.0
17.356,-0.888,-0.322,0.0
15.817,-0.815,-0.382,0.0
14.492,-0.752,-0.433,0.0
13.445,-0.702,-0.477,0.0
12.528,-0.659,-0.515,0.0
19.139,-1.01,-0.256,0.0
17.232,-0.915,-0.327,0.0
15.865,-0.848,-0.39,0.0
14.396,-0.774,-0.436,0.0
13.408,-0.726,-0.481,0.0
12.47,-0.68,-0.518,0.0
18.956,-1.036,-0.261,0.0
17.117,-0.941,-0.331,0.0
15.735,-0.871,-0.393,0.0
14.275,-0.796,-0.438,0.0
13.339,-0.748,-0.484,0.0
12.379,-0.699,-0.518,0.0
18.943,-1.072,-0.268,0.0
17.005,-0.968,-0.335,0.0
15.541,-0.89,-0.393,0.0
14.21,-0.819,-0.44,0.0
13.269,-0.77,-0.486,0.0
12.402,-0.724,-0.523,0.0
18.824,-1.101,-0.272,0.0
16.956,-0.998,-0.339,0.0
15.371,-0.91,-0.393,0.0
14.148,-0.842,-0.443,0.0
13.161,-0.788,-0.485,0.0
12.391,-0.747,-0.526,0.0
18.69,-1.129,-0.275,0.0
16.906,-1.027,-0.343,0.0
15.29,-0.934,-0.395,0.0
14.13,-0.868,-0.446,0.0
13.124,-0.811,-0.487,0.0
12.4,-0.771,-0.53,0.0
18.552,-1.155,-0.277,0.0
16.74,-1.048,-0.343,0.0
15.388,-0.969,-0.401,0.0
14.107,-0.894,-0.448,0.0
13.103,-0.835,-0.489,0.0
12.333,-0.79,-0.529,0.0
18.511,-1.188,-0.28,0.0
16.732,-1.08,-0.346,0.0
15.304,-0.993,-0.402,0.0
14.011,-0.914,-0.447,0.0
13.153,-0.863,-0.493,0.0
12.308,-0.812,-0.53,0.0
18.566,-1.226,-0.284,0.0
16.731,-1.111,-0.349,0.0
15.162,-1.012,-0.4,0.0
13.992,-0.939,-0.449,0.0
13.093,-0.883,-0.493,0.0
12.258,-0.831,-0.529,0.0
18.447,-1.253,-0.284,0.0
16.712,-1.141,-0.35,0.0
15.154,-1.039,-0.401,0.0
13.987,-0.964,-0.45,0.0
13.083,-0.907,-0.493,0.0
12.213,-0.851,-0.529,0.0
18.433,-1.286,-0.285,0.0
16.646,-1.167,-0.35,0.0
15.162,-1.068,-0.403,0.0
13.987,-0.99,-0.451,0.0
13.088,-0.931,-0.494,0.0
12.231,-0.875,-0.53,0.0
18.453,-1.321,-0.286,0.0
16.715,-1.203,-0.352,0.0
15.113,-1.093,-0.402,0.0
13.992,-1.017,-0.451,0.0
13.082,-0.955,-0.494,0.0
12.203,-0.895,-0.529,0.0
18.388,-1.35,-0.285,0.0
16.668,-1.23,-0.351,0.0
15.152,-1.123,-0.403,0.0
13.995,-1.042,-0.451,0.0
13.095,-0.98,-0.494,0.0
12.255,-0.921,-0.531,0.0
18.43,-1.387,-0.285,0.0
16.723,-1.264,-0.351,0.0
15.191,-1.153,-0.403,0.0
14.002,-1.068,-0.45,0.0
13.092,-1.003,-0.493,0.0
12.195,-0.939,-0.527,0.0
18.524,-1.427,-0.285,0.0
16.783,-1.299,-0.351,0.0
15.17,-1.179,-0.401,0.0
13.962,-1.09,-0.448,0.0
13.107,-1.028,-0.493,0.0
12.24,-0.964,-0.528,0.0
18.588,-1.465,-0.284,0.0
16.778,-1.328,-0.349,0.0
15.264,-1.213,-0.401,0.0
14.069,-1.123,-0.449,0.0
13.177,-1.057,-0.493,0.0
12.228,-0.985,-0.526,0.0
18.583,-1.497,-0.281,0.0
16.845,-1.363,-0.347,0.0
15.348,-1.247,-0.401,0.0
14.068,-1.148,-0.447,0.0
13.117,-1.075,-0.489,0.0
12.206,-1.004,-0.522,0.0
18.799,-1.548,-0.28,0.0
16.873,-1.395,-0.345,0.0
15.431,-1.281,-0.4,0.0
14.134,-1.178,-0.446,0.0
13.125,-1.098,-0.486,0.0
12.291,-1.033,-0.523,0.0
18.89,-1.588,-0.278,0.0
16.927,-1.428,-0.342,0.0
15.373,-1.302,-0.395,0.0
14.154,-1.204,-0.443,0.0
13.163,-1.124,-0.484,0.0
12.33,-1.057,-0.522,0.0
19.027,-1.632,-0.275,0.0
17.025,-1.466,-0.339,0.0
15.457,-1.336,-0.393,0.0
14.21,-1.233,-0.441,0.0
13.297,-1.158,-0.486,0.0
12.417,-1.085,-0.522,0.0
19.104,-1.67,-0.27,0.0
17.106,-1.501,-0.336,0.0
15.57,-1.371,-0.391,0.0
14.305,-1.265,-0.439,0.0
13.305,-1.181,-0.482,0.0
12.392,-1.104,-0.517,0.0
19.256,-1.716,-0.266,0.0
17.206,-1.539,-0.332,0.0
15.64,-1.404,-0.387,0.0
14.361,-1.294,-0.436,0.0
13.402,-1.212,-0.48,0.0
12.494,-1.134,-0.516,0.0
19.402,-1.761,-0.26,0.0
17.344,-1.58,-0.328,0.0
15.777,-1.442,-0.385,0.0
14.415,-1.322,-0.432,0.0
13.483,-1.241,-0.478,0.0
12.563,-1.16,-0.514,0.0
19.559,-1.807,-0.255,0.0
17.459,-1.618,-0.323,0.0
15.722,-1.462,-0.377,0.0
14.519,-1.355,-0.429,0.0
13.534,-1.267,-0.474,0.0
12.614,-1.185,-0.511,0.0
19.754,-1.856,-0.248,0.0
17.566,-1.656,-0.317,0.0
15.955,-1.509,-0.375,0.0
14.669,-1.392,-0.427,0.0
13.607,-1.295,-0.47,0.0
12.69,-1.212,-0.508,0.0
20.027,-1.913,-0.243,0.0
17.728,-1.698,-0.311,0.0
16.122,-1.55,-0.371,0.0
14.747,-1.422,-0.422,0.0
13.693,-1.325,-0.466,0.0
12.769,-1.239,-0.505,0.0
