X,Y,Z,Reflectivity
59.116,6.777,2.485,11.0
59.139,6.786,2.143,7.0
46.459,5.336,1.418,29.0
46.397,5.335,1.152,23.0
46.452,5.361,2.445,33.0
46.493,5.37,2.182,20.0
46.448,5.37,1.914,41.0
46.419,5.371,1.644,20.0
46.394,5.374,1.379,31.0
46.367,5.376,1.114,17.0
46.433,5.403,2.405,49.0
46.411,5.405,2.139,49.0
46.414,5.409,1.874,37.0
46.369,5.409,1.603,36.0
46.361,5.413,1.338,32.0
46.307,5.412,1.073,18.0
46.411,5.443,2.364,53.0
46.392,5.444,2.098,46.0
46.351,5.444,1.832,31.0
46.34,5.447,1.562,45.0
46.338,5.451,1.298,35.0
46.255,5.446,1.032,12.0
46.394,5.481,2.323,58.0
46.385,5.483,2.057,50.0
46.34,5.482,1.791,37.0
46.362,5.488,1.522,45.0
46.351,5.491,1.257,34.0
46.092,5.465,0.987,10.0
46.39,5.518,2.281,55.0
46.383,5.521,2.015,49.0
46.35,5.521,1.749,35.0
46.355,5.525,1.479,48.0
46.353,5.529,1.215,32.0
45.847,5.473,0.94,10.0
46.405,5.557,2.239,40.0
46.395,5.559,1.972,40.0
46.375,5.56,1.707,37.0
46.359,5.562,1.436,32.0
46.364,5.566,1.171,19.0
45.642,5.484,0.892,12.0
46.415,5.593,2.195,18.0
46.405,5.595,1.929,20.0
46.399,5.597,1.662,21.0
46.413,5.602,1.393,11.0
46.382,5.602,1.127,13.0
45.473,5.496,0.845,9.0
46.444,5.629,2.151,6.0
46.463,5.634,1.886,10.0
54.633,6.628,1.905,6.0
58.91,7.151,1.711,15.0
46.398,5.636,1.082,12.0
44.538,5.413,0.784,3.0
58.84,7.171,2.667,8.0
58.682,7.155,2.324,9.0
54.705,6.673,1.853,13.0
59.199,7.225,1.66,31.0
46.294,5.653,1.033,10.0
44.046,5.382,0.731,4.0
58.804,7.203,2.606,17.0
58.619,7.183,2.262,12.0
58.804,7.208,1.933,6.0
58.665,7.194,1.586,18.0
46.043,5.649,0.981,9.0
43.99,5.401,0.686,5.0
58.72,7.226,2.543,19.0
54.587,6.719,2.051,24.0
58.726,7.232,1.87,22.0
56.828,7.001,1.478,9.0
45.773,5.642,0.929,11.0
43.969,5.422,0.64,5.0
58.575,7.239,2.476,15.0
54.432,6.729,1.988,28.0
58.698,7.259,1.808,16.0
55.452,6.86,1.385,5.0
45.549,5.637,0.876,10.0
43.85,5.429,0.593,2.0
58.556,7.265,2.413,8.0
54.226,6.729,1.924,25.0
54.66,6.785,1.626,15.0
53.005,6.582,1.269,2.0
45.245,5.62,0.823,4.0
42.1,5.232,0.525,1.0
53.635,6.677,2.155,22.0
54.206,6.75,1.866,27.0
54.695,6.813,1.569,13.0
46.387,5.779,1.06,2.0
44.028,5.487,0.754,3.0
41.96,5.232,0.478,1.0
53.734,6.711,2.1,27.0
54.177,6.767,1.807,25.0
58.505,7.31,1.615,15.0
46.22,5.776,1.006,6.0
43.891,5.487,0.705,6.0
39.534,4.944,0.408,0.0
53.868,6.747,2.047,28.0
54.15,6.783,1.747,19.0
0.0,0.0,0.0,0.0
45.898,5.751,0.95,9.0
43.873,5.499,0.657,6.0
39.168,4.91,0.362,0.0
54.022,6.782,1.994,28.0
54.342,6.823,1.694,20.0
55.567,6.977,1.413,4.0
45.621,5.729,0.894,9.0
43.807,5.503,0.607,3.0
35.332,4.439,0.287,0.0
54.116,6.808,1.937,27.0
54.469,6.853,1.637,20.0
55.574,6.992,1.352,1.0
45.326,5.703,0.838,3.0
42.054,5.293,0.536,1.0
33.689,4.241,0.236,0.0
54.155,6.824,1.878,24.0
54.491,6.867,1.576,18.0
52.435,6.608,1.216,1.0
43.922,5.535,0.762,4.0
41.908,5.282,0.486,1.0
32.893,4.147,0.193,0.0
54.21,6.84,1.818,29.0
58.34,7.361,1.621,16.0
46.324,5.845,1.022,3.0
43.865,5.535,0.711,7.0
39.174,4.943,0.41,0.0
31.848,4.019,0.151,0.0
54.26,6.853,1.758,22.0
58.014,7.326,1.547,11.0
45.856,5.791,0.959,7.0
43.85,5.537,0.661,8.0
38.945,4.918,0.364,0.0
29.447,3.719,0.106,3.0
54.372,6.871,1.699,13.0
55.6,7.025,1.419,4.0
45.665,5.769,0.903,8.0
43.792,5.533,0.61,3.0
35.713,4.512,0.293,0.0
29.364,3.71,0.072,6.0
58.627,7.41,1.765,6.0
52.596,6.647,1.282,2.0
45.311,5.725,0.844,4.0
41.997,5.306,0.537,1.0
33.823,4.273,0.238,0.0
28.995,3.663,0.038,5.0
58.487,7.391,1.694,12.0
52.396,6.62,1.216,0.0
43.96,5.553,0.768,3.0
41.652,5.261,0.485,1.0
32.657,4.124,0.192,0.0
28.207,3.562,0.004,1.0
58.312,7.365,1.621,18.0
46.235,5.838,1.02,3.0
43.868,5.538,0.716,7.0
39.262,4.956,0.412,0.0
29.477,3.72,0.14,0.0
26.533,3.348,-0.025,0.0
58.063,7.327,1.548,7.0
45.875,5.787,0.96,7.0
43.831,5.528,0.665,7.0
0.0,0.0,0.0,0.0
29.443,3.712,0.105,4.0
26.116,3.292,-0.055,1.0
55.543,7.0,1.416,4.0
45.618,5.747,0.901,8.0
43.715,5.506,0.612,3.0
35.572,4.479,0.291,0.0
29.346,3.694,0.071,7.0
25.537,3.214,-0.083,0.0
53.044,6.674,1.29,1.0
45.206,5.685,0.841,3.0
41.994,5.279,0.54,1.0
33.821,4.251,0.237,1.0
28.839,3.624,0.037,3.0
24.0,3.015,-0.106,1.0
46.543,5.844,1.079,1.0
43.947,5.516,0.767,4.0
41.83,5.248,0.49,1.0
32.501,4.076,0.191,0.0
28.121,3.526,0.004,1.0
23.746,2.976,-0.132,2.0
46.229,5.79,1.019,5.0
43.897,5.496,0.716,6.0
39.656,4.963,0.419,0.0
31.496,3.94,0.149,0.0
26.462,3.309,-0.025,0.0
23.264,2.908,-0.156,1.0
45.837,5.725,0.958,10.0
43.899,5.48,0.666,6.0
0.0,0.0,0.0,0.0
29.452,3.673,0.106,4.0
26.057,3.249,-0.055,1.0
22.539,2.809,-0.176,1.0
45.579,5.675,0.901,9.0
43.858,5.458,0.615,2.0
35.991,4.476,0.299,0.0
29.303,3.643,0.072,3.0
25.361,3.151,-0.082,0.0
21.96,2.728,-0.196,0.0
45.234,5.612,0.843,4.0
42.166,5.228,0.544,1.0
0.0,0.0,0.0,0.0
28.787,3.565,0.039,1.0
24.107,2.984,-0.105,1.0
21.348,2.642,-0.215,0.0
44.027,5.441,0.771,4.0
42.09,5.198,0.496,0.0
32.629,4.027,0.198,0.0
27.56,3.4,0.006,0.0
23.823,2.937,-0.13,3.0
20.819,2.566,-0.233,0.0
43.981,5.412,0.722,5.0
39.959,4.913,0.427,0.0
31.701,3.896,0.157,0.0
26.378,3.239,-0.022,1.0
23.314,2.862,-0.153,1.0
20.314,2.492,-0.249,0.0
44.009,5.39,0.674,5.0
36.514,4.469,0.35,0.0
29.445,3.601,0.114,0.0
26.063,3.185,-0.05,1.0
22.624,2.763,-0.173,0.0
19.925,2.432,-0.266,0.0
43.947,5.355,0.625,3.0
34.303,4.177,0.292,0.0
29.308,3.566,0.082,1.0
25.562,3.108,-0.077,0.0
21.972,2.67,-0.192,0.0
19.459,2.363,-0.281,0.0
42.443,5.144,0.558,0.0
33.215,4.022,0.247,0.0
29.006,3.51,0.05,1.0
24.159,2.921,-0.098,1.0
21.372,2.582,-0.209,0.0
19.091,2.305,-0.296,0.0
40.411,4.87,0.489,0.0
32.613,3.926,0.208,1.0
27.7,3.332,0.018,0.0
23.846,2.866,-0.122,2.0
20.946,2.516,-0.227,0.0
18.463,2.216,-0.306,0.0
40.407,4.838,0.446,0.0
31.844,3.809,0.169,1.0
26.631,3.183,-0.01,0.0
23.394,2.794,-0.145,1.0
20.547,2.452,-0.244,0.0
18.239,2.175,-0.321,0.0
39.011,4.64,0.39,0.0
29.411,3.495,0.126,0.0
26.12,3.101,-0.037,1.0
22.936,2.72,-0.165,0.0
20.175,2.391,-0.261,0.0
17.866,2.116,-0.333,0.0
36.883,4.356,0.331,0.0
29.313,3.458,0.095,1.0
25.844,3.046,-0.062,1.0
22.142,2.607,-0.182,0.0
19.729,2.321,-0.275,0.0
17.496,2.057,-0.343,0.0
34.502,4.045,0.275,0.0
29.148,3.413,0.066,1.0
24.401,2.854,-0.083,0.0
21.73,2.539,-0.2,0.0
19.178,2.239,-0.286,0.0
17.278,2.015,-0.356,0.0
32.72,3.805,0.228,1.0
28.471,3.307,0.036,0.0
24.089,2.795,-0.106,1.0
21.246,2.463,-0.217,0.0
18.766,2.173,-0.298,0.0
17.049,1.972,-0.368,0.0
32.037,3.695,0.192,1.0
27.305,3.145,0.008,0.0
23.753,2.733,-0.127,1.0
20.6,2.368,-0.23,0.0
18.518,2.126,-0.312,0.0
16.826,1.93,-0.379,0.0
29.414,3.363,0.148,1.0
26.276,3.0,-0.016,1.0
23.454,2.675,-0.148,0.0
20.423,2.327,-0.247,0.0
18.155,2.066,-0.323,0.0
16.53,1.879,-0.388,0.0
29.373,3.328,0.121,4.0
26.022,2.944,-0.04,1.0
22.63,2.557,-0.164,0.0
19.994,2.257,-0.26,0.0
17.759,2.002,-0.332,0.0
16.223,1.827,-0.396,0.0
29.335,3.292,0.094,5.0
25.532,2.861,-0.062,0.0
21.824,2.442,-0.177,0.0
19.594,2.19,-0.273,0.0
17.539,1.958,-0.344,0.0
15.961,1.78,-0.404,0.0
29.201,3.244,0.068,2.0
24.361,2.703,-0.081,1.0
21.462,2.378,-0.193,2.0
19.371,2.143,-0.286,0.0
17.264,1.907,-0.353,0.0
15.827,1.746,-0.414,0.0
28.397,3.121,0.041,1.0
24.193,2.655,-0.101,2.0
21.391,2.344,-0.211,2.0
18.772,2.054,-0.294,0.0
17.017,1.86,-0.363,0.0
15.617,1.705,-0.422,0.0
27.183,2.955,0.016,0.0
24.017,2.607,-0.121,1.0
21.191,2.297,-0.227,0.0
18.45,1.997,-0.304,0.0
16.834,1.819,-0.373,0.0
15.404,1.663,-0.429,0.0
26.398,2.837,-0.005,1.0
23.365,2.507,-0.137,0.0
20.73,2.221,-0.239,0.0
18.236,1.951,-0.315,0.0
16.576,1.771,-0.381,0.0
15.241,1.626,-0.436,0.0
26.059,2.768,-0.025,1.0
22.69,2.406,-0.15,0.0
20.097,2.128,-0.247,0.0
17.887,1.891,-0.323,0.0
16.423,1.733,-0.39,0.0
15.063,1.587,-0.443,0.0
25.865,2.714,-0.045,1.0
22.12,2.317,-0.163,0.0
19.779,2.068,-0.258,0.0
17.68,1.846,-0.333,0.0
16.148,1.683,-0.395,0.0
14.894,1.55,-0.449,0.0
25.427,2.634,-0.063,0.0
21.906,2.265,-0.178,3.0
19.423,2.005,-0.268,0.0
17.413,1.794,-0.34,0.0
16.031,1.649,-0.404,0.0
14.679,1.507,-0.453,0.0
24.717,2.526,-0.078,0.0
21.78,2.222,-0.192,4.0
19.29,1.964,-0.279,0.0
17.207,1.749,-0.348,0.0
15.831,1.606,-0.41,0.0
14.575,1.476,-0.46,0.0
24.351,2.454,-0.094,0.0
21.526,2.165,-0.205,4.0
18.947,1.902,-0.287,0.0
17.052,1.709,-0.356,0.0
15.742,1.574,-0.418,0.0
14.4,1.438,-0.464,0.0
24.094,2.394,-0.109,0.0
21.371,2.119,-0.217,3.0
18.659,1.846,-0.295,0.0
16.858,1.665,-0.363,0.0
15.551,1.533,-0.423,0.0
14.23,1.4,-0.467,0.0
23.796,2.329,-0.122,0.0
21.272,2.077,-0.229,3.0
18.432,1.796,-0.303,0.0
16.704,1.625,-0.37,0.0
15.379,1.493,-0.428,0.0
14.139,1.37,-0.473,0.0
23.416,2.257,-0.134,0.0
20.952,2.015,-0.238,0.0
18.215,1.748,-0.31,0.0
16.587,1.588,-0.377,0.0
15.26,1.458,-0.433,0.0
14.014,1.336,-0.477,0.0
22.83,2.165,-0.144,0.0
20.624,1.951,-0.246,0.0
17.955,1.695,-0.315,0.0
16.404,1.545,-0.382,0.0
15.072,1.417,-0.436,0.0
13.943,1.308,-0.482,0.0
22.598,2.108,-0.154,1.0
20.172,1.877,-0.251,0.0
17.822,1.655,-0.322,0.0
16.22,1.502,-0.386,0.0
14.903,1.377,-0.438,0.0
13.839,1.276,-0.485,0.0
22.421,2.056,-0.164,1.0
19.678,1.8,-0.255,0.0
17.663,1.611,-0.328,0.0
16.132,1.468,-0.392,0.0
14.849,1.348,-0.444,0.0
13.767,1.247,-0.489,0.0
22.25,2.004,-0.173,2.0
19.457,1.748,-0.261,0.0
17.579,1.575,-0.334,0.0
15.993,1.43,-0.395,0.0
14.77,1.317,-0.448,0.0
13.633,1.213,-0.49,0.0
22.119,1.955,-0.182,2.0
19.472,1.717,-0.269,0.0
17.418,1.532,-0.339,0.0
15.92,1.396,-0.4,0.0
14.699,1.286,-0.452,0.0
13.555,1.183,-0.493,0.0
22.022,1.91,-0.19,1.0
19.233,1.664,-0.273,0.0
17.284,1.491,-0.343,0.0
15.874,1.366,-0.405,0.0
14.535,1.247,-0.453,0.0
13.536,1.158,-0.497,0.0
21.845,1.857,-0.196,1.0
19.191,1.627,-0.28,0.0
17.185,1.453,-0.347,0.0
15.756,1.329,-0.408,0.0
14.494,1.219,-0.456,0.0
13.475,1.13,-0.499,0.0
21.7,1.808,-0.202,0.0
18.807,1.562,-0.28,0.0
17.076,1.414,-0.35,0.0
15.726,1.299,-0.412,0.0
14.378,1.184,-0.457,0.0
13.424,1.102,-0.502,0.0
21.559,1.759,-0.207,0.0
18.818,1.531,-0.286,0.0
16.982,1.377,-0.353,0.0
15.642,1.264,-0.414,0.0
14.412,1.162,-0.462,0.0
13.38,1.075,-0.504,0.0
21.401,1.708,-0.211,0.0
18.727,1.49,-0.289,0.0
16.897,1.34,-0.355,0.0
15.474,1.224,-0.413,0.0
14.302,1.127,-0.462,0.0
13.37,1.051,-0.506,0.0
21.343,1.666,-0.215,0.0
18.531,1.442,-0.29,0.0
16.826,1.305,-0.357,0.0
15.469,1.195,-0.416,0.0
14.248,1.097,-0.463,0.0
13.291,1.02,-0.506,0.0
21.202,1.616,-0.218,0.0
18.475,1.404,-0.293,0.0
16.792,1.271,-0.359,0.0
15.442,1.165,-0.418,0.0
14.195,1.068,-0.463,0.0
13.254,0.994,-0.506,0.0
21.171,1.575,-0.221,0.0
18.434,1.367,-0.295,0.0
16.794,1.241,-0.362,0.0
15.352,1.13,-0.417,0.0
14.179,1.04,-0.464,0.0
13.303,0.972,-0.51,0.0
21.064,1.529,-0.222,0.0
18.498,1.337,-0.297,0.0
16.732,1.205,-0.362,0.0
15.39,1.105,-0.42,0.0
14.15,1.012,-0.465,0.0
13.249,0.944,-0.509,0.0
21.007,1.485,-0.223,0.0
18.542,1.306,-0.299,0.0
16.708,1.172,-0.362,0.0
15.314,1.07,-0.419,0.0
14.195,0.988,-0.467,0.0
13.163,0.913,-0.506,0.0
20.962,1.443,-0.223,0.0
18.436,1.264,-0.298,0.0
16.692,1.14,-0.362,0.0
15.318,1.042,-0.419,0.0
14.162,0.96,-0.466,0.0
13.246,0.894,-0.509,0.0
20.947,1.403,-0.223,0.0
18.411,1.228,-0.297,0.0
16.729,1.111,-0.363,0.0
15.321,1.013,-0.419,0.0
14.181,0.934,-0.466,0.0
13.205,0.866,-0.507,0.0
21.031,1.368,-0.223,0.0
18.35,1.189,-0.296,0.0
16.748,1.08,-0.362,0.0
15.296,0.982,-0.417,0.0
14.172,0.906,-0.465,0.0
13.18,0.839,-0.505,0.0
21.156,1.336,-0.222,0.0
18.489,1.162,-0.296,0.0
16.723,1.046,-0.36,0.0
15.326,0.955,-0.416,0.0
14.182,0.879,-0.463,0.0
13.279,0.82,-0.507,0.0
21.254,1.301,-0.221,3.0
18.45,1.124,-0.293,0.0
16.773,1.017,-0.359,0.0
15.419,0.931,-0.417,0.0
14.164,0.851,-0.461,0.0
13.218,0.79,-0.503,0.0
21.432,1.27,-0.219,1.0
18.522,1.092,-0.291,0.0
16.792,0.985,-0.357,0.0
15.575,0.91,-0.418,0.0
14.196,0.825,-0.459,0.0
13.257,0.767,-0.502,0.0
21.505,1.233,-0.216,3.0
18.48,1.054,-0.287,0.0
16.806,0.954,-0.353,0.0
15.614,0.881,-0.416,0.0
14.244,0.8,-0.457,0.0
13.285,0.742,-0.5,0.0
21.505,1.191,-0.211,3.0
18.566,1.022,-0.284,0.0
16.938,0.928,-0.352,0.0
15.626,0.851,-0.412,0.0
14.285,0.774,-0.455,0.0
13.345,0.719,-0.498,0.0
21.634,1.156,-0.206,2.0
18.681,0.992,-0.28,0.0
16.933,0.894,-0.347,0.0
15.63,0.821,-0.407,0.0
14.249,0.744,-0.449,0.0
13.417,0.697,-0.497,0.0
21.711,1.117,-0.2,2.0
18.844,0.964,-0.276,0.0
17.017,0.866,-0.343,0.0
15.739,0.796,-0.405,0.0
14.418,0.725,-0.45,0.0
13.471,0.673,-0.494,0.0
21.864,1.082,-0.193,2.0
18.943,0.932,-0.271,0.0
17.111,0.836,-0.338,0.0
15.755,0.765,-0.399,0.0
14.554,0.703,-0.448,0.0
13.544,0.65,-0.491,0.0
21.921,1.042,-0.185,1.0
19.169,0.905,-0.266,0.0
17.205,0.807,-0.333,0.0
15.855,0.739,-0.395,0.0
14.612,0.676,-0.444,0.0
13.555,0.623,-0.486,0.0
22.227,1.012,-0.178,1.0
19.535,0.883,-0.263,0.0
17.336,0.779,-0.328,0.0
15.954,0.712,-0.39,0.0
14.727,0.653,-0.441,0.0
13.673,0.602,-0.484,0.0
22.523,0.981,-0.17,0.0
19.706,0.852,-0.256,0.0
17.521,0.752,-0.323,0.0
16.03,0.683,-0.384,0.0
14.755,0.625,-0.434,0.0
13.804,0.58,-0.481,0.0
22.955,0.954,-0.161,0.0
19.98,0.825,-0.249,0.0
17.764,0.728,-0.318,0.0
16.263,0.661,-0.381,0.0
14.92,0.602,-0.431,0.0
13.827,0.554,-0.474,0.0
23.181,0.918,-0.15,0.0
20.257,0.796,-0.241,0.0
17.907,0.698,-0.31,0.0
16.339,0.632,-0.373,0.0
15.046,0.578,-0.426,0.0
13.944,0.531,-0.47,0.0
23.413,0.882,-0.138,0.0
20.662,0.772,-0.234,0.0
18.055,0.669,-0.302,0.0
16.49,0.606,-0.367,0.0
15.252,0.556,-0.422,0.0
13.973,0.505,-0.462,0.0
23.917,0.854,-0.126,0.0
21.272,0.753,-0.227,0.0
18.309,0.642,-0.294,0.0
16.683,0.58,-0.36,0.0
15.375,0.53,-0.415,0.0
14.132,0.483,-0.458,0.0
24.295,0.82,-0.112,1.0
21.518,0.719,-0.215,1.0
18.575,0.615,-0.286,0.0
16.838,0.553,-0.352,0.0
15.563,0.506,-0.41,0.0
14.218,0.458,-0.451,0.0
24.564,0.781,-0.096,0.0
21.704,0.684,-0.202,0.0
18.933,0.59,-0.278,0.0
16.997,0.525,-0.343,0.0
15.704,0.48,-0.402,0.0
14.486,0.438,-0.449,0.0
25.091,0.749,-0.079,0.0
22.094,0.653,-0.189,0.0
19.239,0.562,-0.268,0.0
17.205,0.498,-0.334,0.0
15.878,0.454,-0.394,0.0
14.651,0.415,-0.443,0.0
25.391,0.709,-0.06,0.0
22.552,0.622,-0.175,0.0
19.75,0.539,-0.26,0.0
17.432,0.47,-0.325,0.0
15.971,0.426,-0.383,0.0
14.8,0.39,-0.435,0.0
25.923,0.673,-0.04,0.0
23.182,0.595,-0.161,0.0
20.273,0.514,-0.249,0.0
17.777,0.445,-0.316,0.0
16.311,0.403,-0.378,0.0
14.932,0.365,-0.426,0.0
26.332,0.633,-0.019,0.0
23.506,0.558,-0.143,0.0
20.534,0.481,-0.235,0.0
18.081,0.418,-0.306,0.0
16.486,0.376,-0.367,0.0
15.285,0.344,-0.423,0.0
26.837,0.594,0.004,0.0
23.927,0.522,-0.124,0.0
21.393,0.46,-0.225,0.0
18.349,0.389,-0.294,0.0
16.702,0.349,-0.357,0.0
15.442,0.318,-0.413,0.0
27.214,0.551,0.029,0.0
24.455,0.488,-0.104,0.0
21.851,0.429,-0.21,0.0
18.704,0.361,-0.282,0.0
16.937,0.322,-0.345,0.0
15.66,0.293,-0.403,0.0
27.892,0.512,0.057,0.0
25.106,0.453,-0.082,0.0
22.118,0.392,-0.191,0.0
19.071,0.332,-0.268,0.0
17.166,0.294,-0.333,0.0
15.916,0.268,-0.394,0.0
28.71,0.473,0.087,1.0
25.599,0.414,-0.058,0.0
22.837,0.362,-0.174,0.0
19.624,0.305,-0.256,0.0
17.516,0.267,-0.322,0.0
16.179,0.242,-0.384,0.0
28.872,0.422,0.117,5.0
26.022,0.372,-0.032,0.0
23.41,0.328,-0.154,0.0
20.262,0.278,-0.243,0.0
17.976,0.241,-0.311,0.0
16.468,0.215,-0.373,0.0
28.91,0.369,0.148,3.0
26.555,0.331,-0.004,0.0
23.805,0.289,-0.131,0.0
21.15,0.251,-0.231,0.0
18.36,0.212,-0.298,0.0
16.704,0.188,-0.36,0.0
28.964,0.317,0.18,0.0
27.418,0.291,0.025,0.0
24.419,0.252,-0.107,0.0
21.759,0.218,-0.213,3.0
18.843,0.183,-0.285,0.0
16.938,0.16,-0.346,0.0
30.989,0.283,0.228,0.0
28.555,0.252,0.058,1.0
25.123,0.214,-0.081,0.0
22.267,0.183,-0.192,2.0
19.125,0.152,-0.267,0.0
17.268,0.132,-0.333,0.0
32.424,0.238,0.277,0.0
28.667,0.202,0.092,1.0
25.793,0.174,-0.053,0.0
22.649,0.146,-0.169,0.0
19.864,0.122,-0.253,0.0
17.61,0.103,-0.318,0.0
33.985,0.188,0.331,0.0
28.826,0.152,0.128,0.0
26.497,0.132,-0.022,0.0
23.358,0.109,-0.145,0.0
20.858,0.091,-0.24,0.0
18.141,0.074,-0.305,0.0
0.0,0.0,0.0,0.0
30.277,0.106,0.172,0.0
27.079,0.087,0.01,0.0
24.041,0.07,-0.12,0.0
21.308,0.056,-0.219,4.0
18.59,0.043,-0.289,0.0
36.468,0.075,0.446,0.0
31.119,0.055,0.216,0.0
28.138,0.041,0.047,1.0
24.999,0.03,-0.092,0.0
21.882,0.019,-0.196,0.0
19.215,0.012,-0.274,0.0
0.0,0.0,0.0,0.0
31.828,0.002,0.262,0.0
28.681,-0.006,0.085,1.0
25.688,-0.013,-0.061,0.0
23.094,-0.018,-0.177,0.0
19.793,-0.021,-0.256,0.0
0.0,0.0,0.0,0.0
33.178,-0.054,0.318,0.0
28.832,-0.055,0.125,5.0
26.322,-0.058,-0.027,0.0
23.737,-0.058,-0.149,1.0
20.683,-0.057,-0.239,0.0
0.0,0.0,0.0,0.0
35.438,-0.116,0.388,0.0
29.033,-0.104,0.165,0.0
27.256,-0.105,0.008,0.0
24.214,-0.099,-0.119,0.0
21.746,-0.095,-0.221,1.0
0.0,0.0,0.0,0.0
36.646,-0.181,0.453,0.0
31.541,-0.164,0.223,1.0
28.368,-0.156,0.049,1.0
24.946,-0.143,-0.087,0.0
22.177,-0.134,-0.194,0.0
0.0,0.0,0.0,0.0
0.0,0.0,0.0,0.0
32.438,-0.222,0.276,1.0
28.744,-0.204,0.09,7.0
25.767,-0.19,-0.053,0.0
23.016,-0.176,-0.168,0.0
0.0,0.0,0.0,0.0
39.71,-0.324,0.604,0.0
33.702,-0.283,0.335,0.0
28.832,-0.25,0.133,3.0
26.886,-0.24,-0.017,0.0
24.016,-0.221,-0.141,0.0
0.0,0.0,0.0,0.0
0.0,0.0,0.0,0.0
0.0,0.0,0.0,0.0
30.908,-0.316,0.188,0.0
27.69,-0.29,0.023,0.0
24.451,-0.262,-0.107,0.0
0.0,0.0,0.0,0.0
0.0,0.0,0.0,0.0
0.0,0.0,0.0,0.0
32.098,-0.376,0.243,1.0
28.522,-0.342,0.066,1.0
25.191,-0.308,-0.072,0.0
64.002,-0.799,1.595,1.0
0.0,0.0,0.0,0.0
0.0,0.0,0.0,0.0
33.233,-0.44,0.303,1.0
28.734,-0.387,0.111,0.0
26.287,-0.361,-0.035,0.0
0.0,0.0,0.0,0.0
0.0,0.0,0.0,0.0
0.0,0.0,0.0,0.0
34.199,-0.502,0.364,0.0
30.418,-0.454,0.165,0.0
27.375,-0.416,0.006,0.0
87.563,-1.351,2.454,1.0
0.0,0.0,0.0,0.0
0.0,0.0,0.0,0.0
36.123,-0.583,0.442,0.0
31.45,-0.515,0.221,0.0
28.276,-0.47,0.05,1.0
88.319,-1.488,2.616,1.0
0.0,0.0,0.0,0.0
0.0,0.0,0.0,0.0
0.0,0.0,0.0,0.0
33.315,-0.592,0.287,2.0
28.692,-0.517,0.097,3.0
96.657,-1.763,3.017,4.0
0.0,0.0,0.0,0.0
0.0,0.0,0.0,0.0
41.388,-0.783,0.639,0.0
34.111,-0.653,0.349,1.0
28.797,-0.558,0.144,1.0
96.908,-1.898,3.182,16.0
80.156,-1.588,2.214,1.0
0.0,0.0,0.0,0.0
43.462,-0.88,0.742,0.0
0.0,0.0,0.0,0.0
31.283,-0.647,0.208,0.0
0.0,0.0,0.0,0.0
91.535,-1.934,2.679,1.0
0.0,0.0,0.0,0.0
0.0,0.0,0.0,0.0
38.096,-0.829,0.515,0.0
33.045,-0.726,0.274,1.0
128.37,-2.851,4.64,30.0
96.823,-2.17,2.995,1.0
0.0,0.0,0.0,0.0
0.0,0.0,0.0,0.0
40.175,-0.925,0.61,0.0
33.586,-0.78,0.335,0.0
128.425,-3.013,4.857,15.0
96.907,-2.292,3.159,5.0
0.0,0.0,0.0,0.0
0.0,0.0,0.0,0.0
43.958,-1.066,0.742,0.0
0.0,0.0,0.0,0.0
123.037,-3.037,4.862,15.0
92.475,-2.301,3.173,14.0
94.466,-2.368,2.749,1.0
0.0,0.0,0.0,0.0
0.0,0.0,0.0,0.0
0.0,0.0,0.0,0.0
122.945,-3.18,5.069,38.0
92.422,-2.409,3.329,180.0
93.046,-2.443,2.868,1.0
0.0,0.0,0.0,0.0
0.0,0.0,0.0,0.0
0.0,0.0,0.0,0.0
120.433,-3.256,5.176,24.0
92.4,-2.514,3.489,12.0
92.386,-2.531,3.009,7.0
0.0,0.0,0.0,0.0
0.0,0.0,0.0,0.0
0.0,0.0,0.0,0.0
120.329,-3.388,5.382,22.0
92.379,-2.617,3.651,12.0
92.301,-2.631,3.168,159.0
0.0,0.0,0.0,0.0
0.0,0.0,0.0,0.0
0.0,0.0,0.0,0.0
189.907,-5.552,8.828,8.0
92.339,-2.715,3.812,4.0
92.266,-2.729,3.33,43.0
0.0,0.0,0.0,0.0
0.0,0.0,0.0,0.0
0.0,0.0,0.0,0.0
189.89,-5.751,9.165,22.0
0.0,0.0,0.0,0.0
92.269,-2.824,3.493,35.0
92.255,-2.838,3.004,8.0
0.0,0.0,0.0,0.0
0.0,0.0,0.0,0.0
97.135,-3.04,4.861,4.0
190.754,-5.999,8.555,6.0
92.234,-2.915,3.657,34.0
92.179,-2.927,3.166,43.0
0.0,0.0,0.0,0.0
0.0,0.0,0.0,0.0
190.192,-6.138,9.862,14.0
190.437,-6.172,8.883,20.0
92.178,-3.001,3.821,4.0
92.246,-3.017,3.335,152.0
92.888,-3.052,2.877,5.0
0.0,0.0,0.0,0.0
190.244,-6.316,10.204,17.0
191.042,-6.367,9.252,9.0
0.0,0.0,0.0,0.0
92.247,-3.101,3.501,160.0
92.198,-3.112,3.021,14.0
0.0,0.0,0.0,0.0
99.298,-3.385,5.506,14.0
190.276,-6.513,9.563,21.0
190.179,-6.533,8.568,12.0
92.214,-3.18,3.667,35.0
92.165,-3.19,3.186,52.0
0.0,0.0,0.0,0.0
97.864,-3.419,5.604,9.0
123.254,-4.322,6.416,7.0
190.069,-6.687,8.905,19.0
92.22,-3.256,3.832,3.0
92.22,-3.267,3.353,155.0
92.83,-3.3,2.894,1.0
110.492,-3.95,6.527,6.0
99.262,-3.561,5.348,21.0
113.446,-4.082,5.521,20.0
0.0,0.0,0.0,0.0
92.219,-3.34,3.522,152.0
92.157,-3.347,3.041,17.0
98.85,-3.61,6.019,10.0
99.206,-3.634,5.524,16.0
113.389,-4.165,5.723,24.0
113.419,-4.179,5.125,21.0
92.188,-3.407,3.687,29.0
92.134,-3.414,3.208,51.0
98.836,-3.682,6.198,15.0
113.185,-4.229,6.509,14.0
113.296,-4.243,5.925,31.0
113.408,-4.259,5.33,24.0
0.0,0.0,0.0,0.0
92.164,-3.479,3.376,46.0
90.128,-3.42,5.817,9.0
98.638,-3.753,5.854,23.0
113.352,-4.324,6.137,15.0
113.436,-4.338,5.542,10.0
93.058,-3.566,4.063,1.0
92.178,-3.541,3.546,41.0
97.105,-3.75,6.447,14.0
98.715,-3.82,6.039,15.0
98.487,-3.819,5.513,14.0
113.613,-4.416,5.758,7.0
0.0,0.0,0.0,0.0
92.209,-3.599,3.716,13.0
96.973,-3.804,6.616,7.0
89.886,-3.533,5.665,25.0
98.53,-3.88,5.696,18.0
113.653,-4.485,5.968,8.0
194.722,-7.699,9.214,10.0
0.0,0.0,0.0,0.0
88.255,-3.513,6.183,24.0
88.412,-3.526,5.733,17.0
89.981,-3.595,5.367,12.0
113.569,-4.544,6.171,7.0
113.425,-4.546,5.575,7.0
93.324,-3.747,4.102,1.0
88.415,-3.567,6.356,32.0
88.126,-3.56,5.876,27.0
89.862,-3.636,5.523,22.0
98.39,-3.987,5.524,20.0
113.452,-4.604,5.781,6.0
194.851,-7.918,8.916,8.0
87.962,-3.592,6.483,21.0
88.283,-3.61,6.046,22.0
89.684,-3.672,5.675,19.0
98.469,-4.036,5.708,5.0
113.59,-4.662,5.995,10.0
120.295,-4.944,5.724,7.0
87.984,-3.633,6.647,20.0
88.401,-3.655,6.218,19.0
88.082,-3.645,5.736,14.0
89.709,-3.716,5.366,15.0
90.07,-3.735,4.919,8.0
113.508,-4.713,5.61,7.0
88.323,-3.684,6.835,21.0
88.477,-3.694,6.385,17.0
88.265,-3.688,5.909,20.0
89.783,-3.755,5.534,9.0
89.993,-3.766,5.078,23.0
120.194,-5.035,6.158,15.0
88.158,-3.711,6.983,20.0
88.006,-3.707,6.511,16.0
88.49,-3.729,6.084,11.0
96.967,-4.089,6.152,7.0
89.92,-3.794,5.236,17.0
90.149,-3.806,4.779,5.0
88.248,-3.744,7.148,20.0
88.858,-3.77,6.733,21.0
88.342,-3.75,6.233,17.0
94.937,-4.032,6.193,19.0
89.727,-3.813,5.385,15.0
90.07,-3.829,4.937,28.0
88.668,-3.787,7.344,11.0
89.068,-3.805,6.91,19.0
87.771,-3.751,6.351,18.0
94.963,-4.059,6.365,20.0
97.25,-4.158,6.011,15.0
89.948,-3.846,5.09,21.0
93.934,-4.036,7.947,9.0
88.235,-3.791,7.003,16.0
0.0,0.0,0.0,0.0
95.126,-4.088,6.546,17.0
94.976,-4.081,6.04,17.0
89.84,-3.861,5.245,15.0
90.468,-3.906,7.818,6.0
88.239,-3.809,7.163,11.0
89.24,-3.852,6.776,16.0
88.103,-3.802,6.219,14.0
94.92,-4.096,6.205,20.0
97.462,-4.206,5.863,13.0
87.24,-3.782,7.695,11.0
93.915,-4.069,7.79,3.0
89.148,-3.862,6.928,18.0
88.403,-3.828,6.398,17.0
94.958,-4.112,6.376,14.0
97.423,-4.216,6.032,11.0
87.192,-3.791,7.844,19.0
94.023,-4.086,7.964,4.0
88.159,-3.829,7.005,20.0
89.103,-3.868,6.604,15.0
95.179,-4.13,6.555,10.0
94.909,-4.116,6.04,22.0
87.329,-3.805,8.009,21.0
92.849,-4.043,8.026,2.0
91.92,-3.999,7.462,9.0
89.257,-3.881,6.768,17.0
88.408,-3.841,6.241,14.0
94.959,-4.123,6.206,19.0
84.312,-3.677,7.878,11.0
87.224,-3.801,7.691,14.0
91.205,-3.971,7.562,7.0
89.117,-3.877,6.912,17.0
88.527,-3.849,6.402,16.0
94.988,-4.126,6.371,12.0
82.351,-3.593,7.838,12.0
87.211,-3.801,7.839,21.0
90.634,-3.946,7.67,6.0
88.137,-3.833,6.986,17.0
89.111,-3.872,6.594,15.0
95.205,-4.132,6.546,11.0
79.025,-3.445,7.655,7.0
87.313,-3.802,7.997,19.0
92.808,-4.037,8.011,3.0
88.199,-3.832,7.14,11.0
89.253,-3.872,6.756,17.0
88.258,-3.825,6.216,14.0
79.206,-3.448,7.805,14.0
84.355,-3.667,7.866,11.0
87.265,-3.788,7.678,10.0
91.792,-3.979,7.582,6.0
89.136,-3.859,6.893,19.0
87.765,-3.795,6.326,17.0
79.46,-3.451,7.963,30.0
82.319,-3.569,7.814,13.0
87.21,-3.775,7.817,15.0
93.854,-4.056,7.909,6.0
88.257,-3.809,6.971,16.0
0.0,0.0,0.0,0.0
79.505,-3.44,8.1,31.0
82.205,-3.551,7.939,9.0
87.306,-3.765,7.969,10.0
90.428,-3.893,7.766,5.0
88.253,-3.793,7.113,14.0
89.129,-3.825,6.714,18.0
79.712,-3.435,8.25,24.0
79.252,-3.408,7.782,9.0
82.747,-3.552,7.686,13.0
94.399,-4.044,8.258,8.0
88.622,-3.79,7.284,11.0
89.03,-3.801,6.848,22.0
79.802,-3.421,8.385,13.0
79.575,-3.405,7.938,21.0
82.527,-3.524,7.795,8.0
93.844,-3.998,8.356,12.0
93.522,-3.977,7.833,12.0
88.272,-3.746,6.927,17.0
79.863,-3.403,8.519,10.0
79.457,-3.378,8.052,31.0
79.077,-3.355,7.592,30.0
87.581,-3.707,7.935,12.0
93.453,-3.947,7.971,8.0
88.15,-3.715,7.052,21.0
81.367,-3.443,8.804,31.0
79.536,-3.358,8.181,16.0
79.097,-3.331,7.715,28.0
79.16,-3.326,7.293,18.0
79.492,-3.332,6.902,5.0
88.342,-3.694,7.202,18.0
80.325,-3.373,8.814,11.0
79.847,-3.343,8.335,12.0
79.206,-3.309,7.846,27.0
79.195,-3.3,7.415,10.0
93.816,-3.899,8.286,12.0
88.499,-3.669,7.347,18.0
64.441,-2.682,7.168,15.0
80.069,-3.323,8.479,11.0
79.175,-3.277,7.962,24.0
78.867,-3.255,7.502,11.0
88.099,-3.626,7.911,6.0
88.448,-3.631,7.472,16.0
64.433,-2.656,7.262,14.0
80.268,-3.299,8.618,16.0
79.34,-3.251,8.093,27.0
78.931,-3.225,7.621,28.0
79.205,-3.226,7.226,5.0
79.579,-3.233,6.837,18.0
64.427,-2.627,7.356,5.0
80.12,-3.257,8.717,23.0
79.732,-3.231,8.248,15.0
79.011,-3.193,7.742,31.0
79.234,-3.191,7.341,15.0
79.572,-3.195,6.948,21.0
77.244,-3.114,8.928,21.0
79.613,-3.198,8.774,15.0
79.963,-3.202,8.383,10.0
79.245,-3.163,7.876,17.0
79.304,-3.155,7.457,17.0
79.911,-3.169,7.088,9.0
77.399,-3.081,9.054,22.0
64.541,-2.56,7.202,21.0
79.867,-3.157,8.483,19.0
79.351,-3.126,7.994,22.0
65.688,-2.579,6.266,9.0
79.983,-3.129,7.201,12.0
77.57,-3.046,9.179,29.0
64.476,-2.523,7.282,25.0
79.498,-3.099,8.55,28.0
79.704,-3.096,8.135,12.0
65.749,-2.545,6.358,15.0
82.389,-3.177,7.525,11.0
77.682,-3.007,9.295,30.0
64.505,-2.488,7.369,6.0
79.386,-3.049,8.64,29.0
79.708,-3.05,8.239,15.0
79.278,-3.022,7.768,23.0
79.943,-3.036,7.404,8.0
77.733,-2.962,9.401,13.0
77.42,-2.938,8.944,19.0
64.507,-2.438,7.104,10.0
79.347,-2.987,8.302,13.0
79.33,-2.975,7.873,26.0
66.278,-2.475,6.221,12.0
81.707,-3.062,9.985,16.0
77.587,-2.896,9.06,29.0
64.624,-2.401,7.197,25.0
64.801,-2.397,6.86,24.0
63.985,-2.358,6.428,13.0
65.801,-2.414,6.257,27.0
76.745,-2.825,9.473,11.0
77.657,-2.845,9.164,29.0
64.618,-2.357,7.275,23.0
64.694,-2.349,6.927,30.0
64.008,-2.315,6.508,29.0
65.819,-2.369,6.337,12.0
77.985,-2.817,9.719,20.0
77.55,-2.788,9.243,25.0
78.963,-2.826,8.983,17.0
64.125,-2.284,6.941,29.0
64.087,-2.272,6.59,26.0
65.875,-2.324,6.418,12.0
78.127,-2.765,9.828,19.0
76.946,-2.711,9.26,31.0
78.963,-2.768,9.073,15.0
64.146,-2.238,7.015,17.0
64.139,-2.227,6.667,38.0
79.465,-2.746,7.831,13.0
80.36,-2.784,10.2,17.0
76.937,-2.652,9.345,35.0
77.029,-2.642,8.936,8.0
64.47,-2.199,7.123,27.0
63.772,-2.165,6.699,38.0
64.296,-2.171,6.405,11.0
80.305,-2.72,10.28,30.0
77.046,-2.596,9.441,25.0
76.999,-2.58,9.016,12.0
77.738,-2.591,8.671,13.0
63.785,-2.115,6.767,38.0
64.253,-2.119,6.468,27.0
80.143,-2.65,10.343,14.0
77.142,-2.536,9.534,24.0
77.14,-2.522,9.112,16.0
77.778,-2.529,8.755,21.0
63.783,-2.062,6.832,31.0
64.108,-2.061,6.518,39.0
80.127,-2.582,10.423,8.0
77.125,-2.471,9.609,25.0
77.458,-2.467,9.226,16.0
77.595,-2.458,8.81,26.0
63.893,-2.012,6.906,27.0
63.671,-1.994,6.535,31.0
75.762,-2.377,9.929,11.0
76.541,-2.387,9.61,23.0
77.417,-2.4,9.295,23.0
64.739,-1.994,7.412,20.0
63.931,-1.958,6.969,32.0
63.799,-1.942,6.607,29.0
76.961,-2.348,10.157,40.0
76.426,-2.317,9.665,27.0
77.876,-2.346,9.421,12.0
64.654,-1.935,7.46,26.0
64.043,-1.904,7.039,29.0
64.048,-1.893,6.69,33.0
76.614,-2.268,10.18,26.0
76.13,-2.238,9.696,27.0
74.033,-2.162,9.021,11.0
64.664,-1.876,7.517,19.0
64.379,-1.856,7.131,26.0
64.316,-1.841,6.772,26.0
76.86,-2.204,10.278,34.0
76.158,-2.17,9.763,27.0
74.196,-2.098,9.102,9.0
76.284,-2.142,8.931,24.0
64.739,-1.806,7.223,23.0
64.317,-1.782,6.824,23.0
76.632,-2.125,10.31,33.0
76.107,-2.096,9.818,29.0
74.278,-2.031,9.171,16.0
76.261,-2.07,8.988,27.0
64.736,-1.744,7.273,11.0
64.501,-1.725,6.893,28.0
76.03,-2.035,10.288,20.0
74.199,-1.971,9.628,14.0
74.215,-1.957,9.219,28.0
74.167,-1.941,8.796,8.0
75.97,-1.973,8.591,23.0
64.407,-1.66,6.929,23.0
75.719,-1.953,10.3,26.0
74.257,-1.9,9.688,27.0
74.206,-1.883,9.27,29.0
76.697,-1.932,9.149,13.0
74.098,-1.852,8.429,19.0
64.411,-1.597,6.973,28.0
75.771,-1.879,10.358,28.0
74.371,-1.829,9.753,28.0
74.184,-1.809,9.316,29.0
74.167,-1.794,8.895,12.0
74.296,-1.783,8.5,32.0
64.97,-1.545,7.074,36.0
75.775,-1.802,10.407,20.0
74.345,-1.753,9.796,14.0
63.81,-1.492,8.052,19.0
74.092,-1.717,8.931,25.0
74.393,-1.709,8.555,14.0
65.009,-1.481,7.117,16.0
73.534,-1.673,10.143,25.0
64.642,-1.457,8.555,13.0
63.851,-1.426,8.094,25.0
74.124,-1.641,8.977,25.0
64.743,-1.42,7.481,11.0
64.862,-1.41,7.136,29.0
72.968,-1.584,10.105,20.0
63.933,-1.374,8.496,21.0
63.988,-1.363,8.146,29.0
74.1,-1.563,9.013,32.0
64.649,-1.35,7.504,22.0
64.856,-1.341,7.168,27.0
72.868,-1.504,10.128,29.0
63.957,-1.307,8.53,24.0
64.077,-1.297,8.188,33.0
74.236,-1.488,9.064,33.0
64.587,-1.281,7.526,6.0
64.817,-1.272,7.193,28.0
73.015,-1.429,10.181,23.0
64.125,-1.242,8.581,24.0
64.193,-1.231,8.231,29.0
74.467,-1.412,9.124,32.0
74.383,-1.396,8.699,29.0
64.8,-1.203,7.218,30.0
73.508,-1.359,10.28,30.0
64.169,-1.173,8.613,28.0
64.23,-1.161,8.261,31.0
63.821,-1.14,7.845,11.0
59.67,-1.054,7.001,12.0
64.876,-1.133,7.25,35.0
73.144,-1.272,10.257,14.0
64.268,-1.104,8.65,31.0
64.078,-1.088,8.264,31.0
58.439,-0.98,7.203,23.0
59.664,-0.989,7.02,20.0
64.895,-1.062,7.274,30.0
72.68,-1.183,10.215,22.0
64.279,-1.034,8.671,26.0
64.037,-1.016,8.278,28.0
58.508,-0.917,7.229,26.0
59.702,-0.923,7.042,29.0
64.887,-0.991,7.291,29.0
72.702,-1.103,10.238,14.0
64.42,-0.964,8.707,12.0
64.136,-0.946,8.307,32.0
58.354,-0.85,7.224,33.0
0.0,0.0,0.0,0.0
65.13,-0.922,7.333,33.0
72.746,-1.023,10.26,34.0
57.497,-0.796,7.784,25.0
62.236,-0.849,8.074,23.0
58.308,-0.783,7.23,33.0
0.0,0.0,0.0,0.0
63.823,-0.832,7.198,21.0
72.848,-0.941,10.288,14.0
57.606,-0.732,7.809,29.0
62.312,-0.778,8.095,19.0
58.346,-0.717,7.244,33.0
0.0,0.0,0.0,0.0
57.297,-0.682,6.47,16.0
63.162,-0.743,8.929,39.0
57.666,-0.666,7.825,30.0
62.429,-0.709,8.117,10.0
58.262,-0.65,7.24,32.0
0.0,0.0,0.0,0.0
63.681,-0.686,7.197,16.0
63.025,-0.67,8.915,31.0
57.696,-0.602,7.833,32.0
57.956,-0.593,7.54,32.0
58.491,-0.587,7.272,33.0
0.0,0.0,0.0,0.0
57.206,-0.552,6.468,25.0
63.099,-0.6,8.928,31.0
57.83,-0.539,7.853,32.0
58.04,-0.528,7.552,32.0
57.852,-0.515,7.194,32.0
59.789,-0.521,7.097,24.0
57.207,-0.488,6.468,29.0
63.073,-0.527,8.924,28.0
57.967,-0.473,7.871,32.0
58.188,-0.463,7.57,29.0
57.643,-0.447,7.166,30.0
59.775,-0.452,7.093,25.0
57.325,-0.423,6.478,22.0
63.132,-0.455,8.929,39.0
57.995,-0.406,7.871,32.0
58.314,-0.398,7.582,26.0
57.583,-0.382,7.154,29.0
59.686,-0.384,7.077,30.0
57.277,-0.358,6.468,26.0
63.041,-0.383,8.909,40.0
58.091,-0.341,7.878,27.0
58.429,-0.333,7.59,24.0
57.644,-0.317,7.155,30.0
58.725,-0.312,6.956,32.0
59.64,-0.305,6.726,9.0
63.162,-0.311,8.917,39.0
58.216,-0.276,7.886,26.0
58.398,-0.266,7.577,29.0
57.854,-0.252,7.171,32.0
59.158,-0.248,6.997,33.0
56.729,-0.227,6.388,16.0
58.852,-0.223,8.297,14.0
51.421,-0.185,6.955,18.0
58.369,-0.199,7.561,30.0
58.135,-0.187,7.193,32.0
58.838,-0.179,6.945,33.0
56.795,-0.162,6.382,20.0
50.879,-0.135,7.161,15.0
51.421,-0.127,6.942,19.0
56.379,-0.128,7.289,13.0
58.329,-0.122,7.202,26.0
58.998,-0.112,6.948,33.0
56.834,-0.098,6.371,23.0
50.8,-0.076,7.135,21.0
51.489,-0.068,6.936,25.0
56.369,-0.064,7.27,9.0
0.0,0.0,0.0,0.0
59.038,-0.045,6.934,32.0
56.922,-0.034,6.362,23.0
50.898,-0.019,7.132,19.0
58.428,-0.012,7.851,6.0
56.401,0.0,7.255,12.0
56.822,0.008,6.978,21.0
59.5,0.019,6.967,33.0
57.036,0.028,6.354,22.0
50.917,0.038,7.115,17.0
51.513,0.047,6.902,21.0
56.516,0.061,7.247,7.0
0.0,0.0,0.0,0.0
59.587,0.086,6.953,27.0
57.111,0.092,6.338,23.0
50.987,0.094,7.103,6.0
50.963,0.104,6.806,12.0
56.526,0.124,7.224,17.0
56.776,0.134,6.924,26.0
59.776,0.152,6.948,23.0
57.094,0.155,6.31,21.0
48.252,0.143,6.699,17.0
50.899,0.159,6.773,20.0
49.065,0.162,6.246,15.0
56.882,0.197,6.909,27.0
59.931,0.218,6.936,25.0
57.143,0.217,6.287,18.0
49.066,0.2,6.786,23.0
48.436,0.205,6.419,27.0
56.61,0.249,7.176,11.0
56.873,0.26,6.877,29.0
60.134,0.285,6.927,11.0
57.132,0.279,6.254,23.0
48.396,0.249,6.666,16.0
50.967,0.271,6.726,7.0
49.083,0.269,6.194,23.0
56.924,0.321,6.85,29.0
56.645,0.328,6.492,19.0
57.096,0.34,6.216,18.0
51.309,0.32,7.036,12.0
48.979,0.313,6.433,23.0
48.707,0.319,6.116,11.0
57.042,0.382,6.829,12.0
56.237,0.385,6.409,14.0
56.867,0.398,6.155,20.0
51.283,0.374,6.999,8.0
48.346,0.36,6.318,22.0
56.866,0.433,7.103,16.0
52.472,0.407,6.246,21.0
56.151,0.444,6.361,19.0
56.637,0.456,6.091,30.0
49.203,0.41,6.681,25.0
48.642,0.413,6.322,22.0
0.0,0.0,0.0,0.0
52.499,0.461,6.212,13.0
56.171,0.501,6.323,14.0
56.862,0.516,6.075,21.0
49.511,0.464,6.686,24.0
48.68,0.464,6.291,22.0
58.397,0.565,7.209,13.0
52.329,0.514,6.152,5.0
56.085,0.558,6.27,8.0
50.449,0.509,5.351,7.0
48.923,0.508,6.568,24.0
48.643,0.512,6.248,23.0
58.744,0.627,7.205,19.0
48.541,0.525,5.668,15.0
56.235,0.616,6.242,14.0
50.424,0.559,5.307,16.0
49.14,0.561,6.556,24.0
48.542,0.56,6.194,27.0
49.275,0.575,6.002,23.0
48.763,0.576,5.652,23.0
56.415,0.673,6.214,23.0
50.305,0.607,5.251,15.0
48.92,0.606,6.484,20.0
48.454,0.607,6.14,22.0
49.188,0.622,5.948,15.0
48.856,0.624,5.62,21.0
56.594,0.73,6.184,11.0
50.258,0.655,5.202,18.0
47.049,0.628,6.193,13.0
48.673,0.656,6.123,22.0
48.933,0.665,5.872,22.0
52.151,0.715,5.951,26.0
57.282,0.794,6.205,20.0
50.224,0.702,5.151,12.0
47.107,0.673,6.156,18.0
48.945,0.705,6.111,23.0
48.848,0.71,5.815,22.0
52.491,0.769,5.939,7.0
50.331,0.744,5.403,20.0
62.77,0.935,6.377,24.0
49.15,0.748,6.373,5.0
49.001,0.752,6.068,27.0
48.877,0.756,5.768,24.0
50.141,0.781,5.622,24.0
50.341,0.79,5.353,26.0
57.269,0.905,5.759,9.0
49.073,0.791,6.312,23.0
48.897,0.794,6.004,33.0
52.613,0.86,6.155,7.0
50.293,0.827,5.586,24.0
50.437,0.836,5.31,20.0
60.899,1.016,6.06,9.0
48.984,0.832,6.248,23.0
48.852,0.836,5.947,37.0
50.268,0.865,5.826,23.0
50.302,0.871,5.533,29.0
50.075,0.873,5.218,15.0
49.496,0.867,4.872,11.0
49.022,0.875,6.199,23.0
48.631,0.873,5.865,22.0
50.207,0.907,5.763,24.0
57.22,1.039,6.229,12.0
57.378,1.047,5.914,11.0
49.58,0.911,4.823,11.0
48.985,0.915,6.137,22.0
48.697,0.915,5.817,22.0
50.213,0.949,5.705,24.0
50.147,0.952,5.401,24.0
55.258,1.055,5.631,13.0
57.723,1.107,5.548,6.0
48.926,0.955,6.071,29.0
48.711,0.955,5.759,18.0
50.091,0.987,5.631,23.0
50.101,0.991,5.335,24.0
49.093,0.975,4.943,15.0
57.582,1.15,5.465,21.0
48.989,0.994,6.018,17.0
0.0,0.0,0.0,0.0
50.109,1.026,5.571,24.0
54.782,1.126,5.766,10.0
60.961,1.258,6.062,8.0
57.445,1.19,5.38,29.0
48.773,1.026,5.929,10.0
50.281,1.062,5.819,9.0
49.955,1.059,5.49,24.0
54.843,1.168,5.702,22.0
61.027,1.304,5.991,28.0
57.046,1.224,5.27,19.0
48.74,1.061,5.863,5.0
50.013,1.092,5.724,11.0
49.757,1.091,5.404,25.0
55.063,1.211,5.654,8.0
61.115,1.349,5.92,22.0
57.499,1.273,5.237,20.0
50.311,1.131,5.985,21.0
49.861,1.124,5.639,23.0
49.688,1.123,5.33,19.0
49.344,1.119,5.0,23.0
62.149,1.414,5.937,14.0
57.862,1.32,5.192,13.0
50.374,1.165,5.923,12.0
49.685,1.153,5.552,26.0
49.647,1.155,5.257,14.0
49.142,1.146,4.913,20.0
57.109,1.336,5.377,19.0
58.025,1.361,5.127,8.0
45.804,1.089,5.322,13.0
49.609,1.183,5.474,19.0
49.641,1.186,5.188,15.0
0.0,0.0,0.0,0.0
0.0,0.0,0.0,0.0
0.0,0.0,0.0,0.0
45.791,1.117,5.255,16.0
49.64,1.213,5.406,15.0
49.382,1.21,5.089,28.0
50.339,1.236,4.889,11.0
50.741,1.248,4.633,15.0
63.329,1.562,5.415,35.0
45.82,1.144,5.191,16.0
49.541,1.239,5.322,19.0
49.301,1.236,5.008,21.0
56.033,1.407,5.36,6.0
50.79,1.278,4.563,22.0
63.121,1.592,5.303,17.0
49.675,1.267,5.553,9.0
49.48,1.265,5.241,19.0
49.266,1.261,4.931,22.0
50.738,1.301,4.777,15.0
63.157,1.623,5.579,22.0
64.783,1.667,5.347,22.0
49.629,1.292,5.473,14.0
49.398,1.288,5.158,26.0
50.527,1.319,4.98,22.0
55.722,1.457,5.162,12.0
63.078,1.652,5.476,21.0
64.832,1.7,5.252,32.0
49.614,1.315,5.395,20.0
49.405,1.311,5.083,23.0
50.606,1.345,4.91,16.0
55.723,1.483,5.076,20.0
62.973,1.678,5.37,6.0
64.18,1.712,5.1,26.0
50.36,1.357,5.397,25.0
0.0,0.0,0.0,0.0
50.738,1.371,4.844,22.0
63.003,1.704,5.64,15.0
64.841,1.755,5.427,8.0
62.366,1.69,4.858,15.0
50.151,1.372,5.295,25.0
50.632,1.387,5.048,24.0
50.741,1.391,4.763,14.0
63.184,1.734,5.556,29.0
0.0,0.0,0.0,0.0
62.379,1.714,4.759,26.0
0.0,0.0,0.0,0.0
49.911,1.385,4.896,23.0
55.766,1.55,5.144,28.0
63.715,1.771,5.499,23.0
62.973,1.752,5.069,23.0
62.485,1.74,4.666,17.0
50.681,1.424,5.184,25.0
49.731,1.398,4.795,16.0
55.734,1.567,5.049,13.0
62.486,1.758,5.29,22.0
62.492,1.758,4.926,13.0
82.445,2.322,6.019,29.0
49.913,1.418,5.022,24.0
55.973,1.59,5.304,6.0
63.06,1.792,5.607,30.0
62.454,1.775,5.182,26.0
62.34,1.773,4.809,28.0
82.277,2.34,5.868,27.0
49.604,1.423,4.906,22.0
55.741,1.599,5.186,22.0
63.02,1.808,5.496,13.0
62.388,1.789,5.069,26.0
62.368,1.789,4.705,15.0
82.108,2.356,5.716,29.0
49.563,1.433,4.816,15.0
55.679,1.61,5.084,17.0
62.489,1.807,5.34,19.0
62.429,1.805,4.965,23.0
82.717,2.391,6.096,27.0
82.131,2.374,5.576,24.0
56.009,1.631,5.345,21.0
62.658,1.824,5.612,27.0
62.415,1.817,5.225,26.0
62.364,1.815,4.851,30.0
82.411,2.397,5.93,23.0
82.042,2.386,5.427,21.0
55.777,1.634,5.225,25.0
62.624,1.833,5.499,17.0
62.362,1.825,5.112,28.0
62.318,1.822,4.738,16.0
82.134,2.401,5.765,29.0
81.666,2.386,5.259,30.0
55.68,1.638,5.117,20.0
62.603,1.841,5.387,18.0
62.405,1.833,5.005,23.0
82.794,2.431,6.148,26.0
82.056,2.407,5.616,31.0
81.402,2.387,5.097,26.0
57.961,1.71,5.222,6.0
62.392,1.839,5.256,25.0
62.414,1.839,4.894,24.0
82.547,2.43,5.982,29.0
82.047,2.413,5.467,21.0
81.398,2.391,4.949,28.0
62.62,1.851,5.527,17.0
62.364,1.842,5.14,28.0
62.352,1.839,4.774,14.0
82.124,2.42,5.801,29.0
81.681,2.405,5.293,31.0
81.537,2.398,4.81,30.0
62.673,1.853,5.417,23.0
62.41,1.844,5.029,23.0
82.758,2.442,6.185,20.0
82.053,2.417,5.645,32.0
81.404,2.396,5.127,28.0
81.72,2.402,4.671,26.0
62.403,1.844,5.278,23.0
62.447,1.843,4.916,24.0
82.616,2.435,6.022,28.0
82.027,2.413,5.493,22.0
81.404,2.392,4.976,27.0
81.965,2.405,4.533,15.0
62.375,1.839,5.16,25.0
62.34,1.835,4.792,20.0
82.156,2.415,5.836,28.0
81.694,2.397,5.319,28.0
81.521,2.388,4.832,31.0
82.38,2.41,4.402,15.0
62.392,1.833,5.044,22.0
82.741,2.427,6.205,21.0
82.087,2.403,5.676,32.0
81.474,2.381,5.15,28.0
81.725,2.384,4.69,34.0
82.512,2.403,4.255,11.0
62.441,1.826,4.929,24.0
82.619,2.412,6.04,25.0
82.083,2.391,5.521,25.0
81.391,2.365,4.992,28.0
81.946,2.378,4.549,23.0
82.771,2.397,4.112,10.0
62.335,1.811,4.804,25.0
82.226,2.384,5.855,25.0
81.86,2.369,5.351,32.0
81.475,2.352,4.843,35.0
82.314,2.371,4.412,23.0
85.596,2.46,4.091,12.0
82.772,2.387,6.22,17.0
82.103,2.362,5.689,30.0
81.624,2.343,5.179,28.0
81.76,2.34,4.703,34.0
82.883,2.368,4.285,14.0
85.249,2.429,3.91,4.0
82.429,2.356,6.036,28.0
82.069,2.34,5.529,26.0
81.499,2.317,5.015,36.0
81.831,2.32,4.551,27.0
82.866,2.344,4.126,11.0
0.0,0.0,0.0,0.0
82.226,2.325,5.864,30.0
82.027,2.313,5.37,22.0
81.627,2.295,4.867,36.0
82.251,2.306,4.417,20.0
85.16,2.381,4.077,12.0
0.0,0.0,0.0,0.0
82.179,2.296,5.701,31.0
81.653,2.274,5.187,32.0
81.862,2.273,4.722,29.0
82.967,2.296,4.294,21.0
85.352,2.355,3.92,4.0
57.873,1.592,2.322,0.0
81.971,2.259,5.527,27.0
81.622,2.241,5.026,38.0
81.978,2.244,4.57,27.0
82.862,2.261,4.128,15.0
0.0,0.0,0.0,0.0
0.0,0.0,0.0,0.0
81.859,2.221,5.361,14.0
81.902,2.215,4.886,29.0
82.401,2.22,4.435,24.0
84.796,2.277,4.061,13.0
57.917,1.549,2.436,0.0
0.0,0.0,0.0,0.0
81.676,2.179,5.19,32.0
81.861,2.175,4.724,34.0
83.312,2.205,4.322,15.0
85.369,2.251,3.922,2.0
0.0,0.0,0.0,0.0
54.085,1.415,1.855,0.0
81.873,2.143,5.042,24.0
82.208,2.143,4.583,23.0
84.186,2.186,4.203,14.0
0.0,0.0,0.0,0.0
0.0,0.0,0.0,0.0
54.292,1.392,1.757,2.0
82.263,2.109,4.907,26.0
82.792,2.113,4.456,30.0
88.95,2.26,4.268,10.0
0.0,0.0,0.0,0.0
0.0,0.0,0.0,0.0
54.088,1.356,1.646,1.0
82.373,2.064,4.754,27.0
83.744,2.089,4.345,21.0
88.833,2.205,4.092,4.0
0.0,0.0,0.0,0.0
54.363,1.337,1.865,0.0
54.141,1.325,1.543,1.0
82.854,2.025,4.621,27.0
85.333,2.075,4.262,15.0
0.0,0.0,0.0,0.0
0.0,0.0,0.0,0.0
54.398,1.303,1.762,20.0
54.175,1.291,1.44,0.0
83.347,1.982,4.487,26.0
88.852,2.102,4.266,10.0
0.0,0.0,0.0,0.0
0.0,0.0,0.0,0.0
54.207,1.262,1.651,0.0
54.398,1.259,1.341,0.0
83.306,1.924,4.324,8.0
88.644,2.035,4.085,5.0
0.0,0.0,0.0,0.0
54.429,1.235,1.869,7.0
54.206,1.223,1.546,0.0
57.988,1.301,1.318,1.0
88.895,1.988,4.443,16.0
0.0,0.0,0.0,0.0
0.0,0.0,0.0,0.0
54.48,1.196,1.767,82.0
54.357,1.185,1.447,0.0
58.003,1.257,1.207,1.0
88.561,1.913,4.257,25.0
0.0,0.0,0.0,0.0
0.0,0.0,0.0,0.0
54.156,1.146,1.653,0.0
0.0,0.0,0.0,0.0
0.0,0.0,0.0,0.0
88.726,1.844,4.095,4.0
0.0,0.0,0.0,0.0
54.528,1.117,1.883,0.0
54.32,1.105,1.554,0.0
54.488,1.1,1.243,0.0
0.0,0.0,0.0,0.0
0.0,0.0,0.0,0.0
0.0,0.0,0.0,0.0
0.0,0.0,0.0,0.0
54.391,1.059,1.452,1.0
54.766,1.058,1.144,0.0
0.0,0.0,0.0,0.0
0.0,0.0,0.0,0.0
0.0,0.0,0.0,0.0
0.0,0.0,0.0,0.0
54.533,1.013,1.354,0.0
0.0,0.0,0.0,0.0
37.445,0.683,0.494,0.0
0.0,0.0,0.0,0.0
0.0,0.0,0.0,0.0
54.784,0.975,1.58,0.0
54.726,0.965,1.255,1.0
0.0,0.0,0.0,0.0
0.0,0.0,0.0,0.0
0.0,0.0,0.0,0.0
55.144,0.938,1.808,2.0
55.11,0.928,1.487,1.0
0.0,0.0,0.0,0.0
0.0,0.0,0.0,0.0
33.341,0.544,0.316,0.0
55.439,0.897,2.036,1.0
55.408,0.887,1.713,0.0
0.0,0.0,0.0,0.0
0.0,0.0,0.0,0.0
37.337,0.578,0.501,0.0
31.761,0.486,0.242,0.0
0.0,0.0,0.0,0.0
0.0,0.0,0.0,0.0
61.075,0.904,1.421,0.0
0.0,0.0,0.0,0.0
35.118,0.507,0.406,0.0
28.929,0.412,0.167,1.0
55.852,0.787,1.845,0.0
56.154,0.781,1.53,1.0
0.0,0.0,0.0,0.0
40.798,0.552,0.634,0.0
33.548,0.448,0.327,0.0
28.846,0.379,0.114,5.0
56.374,0.733,1.76,0.0
57.355,0.734,1.458,1.0
0.0,0.0,0.0,0.0
37.758,0.468,0.518,0.0
31.873,0.39,0.253,0.0
28.42,0.342,0.061,1.0
0.0,0.0,0.0,0.0
57.507,0.671,1.359,1.0
0.0,0.0,0.0,0.0
0.0,0.0,0.0,0.0
28.926,0.32,0.177,1.0
26.741,0.291,0.009,0.0
57.411,0.614,1.586,1.0
0.0,0.0,0.0,0.0
40.641,0.418,0.652,0.0
0.0,0.0,0.0,0.0
28.853,0.285,0.126,6.0
25.946,0.251,-0.036,0.0
57.854,0.549,1.496,1.0
0.0,0.0,0.0,0.0
0.0,0.0,0.0,0.0
32.457,0.288,0.273,0.0
28.649,0.248,0.075,2.0
25.048,0.212,-0.078,0.0
0.0,0.0,0.0,0.0
0.0,0.0,0.0,0.0
0.0,0.0,0.0,0.0
0.0,0.0,0.0,0.0
27.22,0.202,0.024,0.0
23.961,0.173,-0.117,0.0
0.0,0.0,0.0,0.0
43.434,0.295,0.721,0.0
34.337,0.226,0.372,0.0
28.813,0.183,0.142,0.0
26.207,0.161,-0.021,0.0
23.123,0.137,-0.152,0.0
0.0,0.0,0.0,0.0
38.429,0.211,0.572,0.0
32.743,0.172,0.298,0.0
28.596,0.144,0.092,1.0
25.364,0.122,-0.064,0.0
22.161,0.102,-0.183,1.0
0.0,0.0,0.0,0.0
37.455,0.155,0.494,0.0
31.187,0.122,0.232,0.0
27.542,0.102,0.043,0.0
24.297,0.084,-0.102,0.0
21.288,0.069,-0.212,4.0
41.844,0.126,0.725,0.0
35.504,0.099,0.41,0.0
29.935,0.076,0.172,0.0
26.582,0.061,-0.002,0.0
23.499,0.049,-0.137,1.0
20.571,0.038,-0.239,0.0
0.0,0.0,0.0,0.0
32.572,0.046,0.323,0.0
28.727,0.033,0.119,1.0
25.697,0.024,-0.044,0.0
22.837,0.015,-0.171,0.0
19.335,0.009,-0.256,0.0
37.756,0.008,0.53,0.0
31.746,0.0,0.263,0.0
28.225,-0.007,0.071,1.0
24.671,-0.012,-0.082,0.0
21.437,-0.015,-0.195,1.0
18.576,-0.018,-0.276,0.0
36.207,-0.044,0.451,0.0
30.553,-0.044,0.204,1.0
27.189,-0.046,0.025,0.0
23.797,-0.046,-0.117,0.0
20.84,-0.045,-0.222,0.0
18.113,-0.044,-0.298,0.0
0.0,0.0,0.0,0.0
28.839,-0.084,0.148,5.0
26.153,-0.083,-0.016,0.0
23.255,-0.079,-0.15,0.0
19.832,-0.073,-0.242,0.0
17.488,-0.068,-0.314,0.0
32.991,-0.138,0.308,1.0
28.718,-0.127,0.103,6.0
25.305,-0.118,-0.054,0.0
22.131,-0.109,-0.177,0.0
19.197,-0.099,-0.264,0.0
17.05,-0.093,-0.332,0.0
31.452,-0.179,0.247,1.0
28.126,-0.167,0.059,1.0
24.605,-0.152,-0.089,0.0
21.749,-0.14,-0.206,0.0
18.364,-0.123,-0.28,0.0
16.695,-0.116,-0.35,0.0
28.898,-0.209,0.184,0.0
27.012,-0.202,0.016,0.0
23.928,-0.185,-0.122,0.0
20.694,-0.166,-0.227,0.0
17.952,-0.149,-0.3,0.0
16.371,-0.14,-0.368,0.0
28.79,-0.254,0.141,4.0
0.0,0.0,0.0,0.0
22.952,-0.214,-0.151,0.0
19.737,-0.19,-0.245,0.0
17.444,-0.172,-0.317,0.0
15.979,-0.162,-0.382,0.0
28.556,-0.297,0.099,1.0
25.212,-0.269,-0.057,0.0
22.462,-0.246,-0.18,0.0
18.998,-0.213,-0.263,0.0
17.022,-0.196,-0.333,0.0
15.754,-0.185,-0.399,0.0
27.907,-0.336,0.057,0.0
24.548,-0.302,-0.09,0.0
21.72,-0.273,-0.204,0.0
18.442,-0.237,-0.281,0.0
16.675,-0.219,-0.35,0.0
15.384,-0.206,-0.411,0.0
26.947,-0.369,0.018,0.0
23.747,-0.331,-0.119,0.0
20.66,-0.294,-0.222,0.0
17.947,-0.26,-0.297,0.0
16.388,-0.242,-0.366,0.0
14.961,-0.225,-0.419,0.0
26.08,-0.4,-0.016,0.0
23.46,-0.366,-0.149,0.0
19.857,-0.315,-0.239,0.0
17.554,-0.284,-0.314,0.0
16.078,-0.265,-0.38,0.0
14.655,-0.245,-0.43,0.0
25.293,-0.43,-0.048,0.0
22.434,-0.388,-0.171,0.0
19.312,-0.339,-0.258,0.0
17.093,-0.305,-0.328,0.0
15.748,-0.286,-0.392,0.0
14.389,-0.265,-0.441,0.0
24.882,-0.465,-0.079,0.0
21.988,-0.417,-0.195,0.0
18.667,-0.36,-0.273,0.0
16.793,-0.328,-0.343,0.0
15.39,-0.305,-0.402,0.0
14.136,-0.285,-0.45,0.0
24.495,-0.5,-0.107,3.0
21.158,-0.438,-0.214,0.0
18.274,-0.383,-0.289,0.0
16.514,-0.351,-0.357,0.0
14.946,-0.322,-0.409,0.0
13.818,-0.302,-0.457,0.0
23.612,-0.523,-0.132,0.0
19.869,-0.446,-0.224,0.0
17.887,-0.406,-0.304,0.0
16.206,-0.373,-0.37,0.0
14.739,-0.344,-0.421,0.0
13.672,-0.323,-0.468,0.0
23.08,-0.551,-0.156,0.0
19.632,-0.475,-0.245,0.0
17.345,-0.424,-0.315,0.0
15.944,-0.395,-0.382,0.0
14.539,-0.365,-0.432,0.0
13.453,-0.342,-0.476,0.0
22.377,-0.574,-0.176,0.0
19.194,-0.498,-0.261,0.0
17.049,-0.447,-0.329,0.0
15.618,-0.414,-0.392,0.0
14.29,-0.384,-0.44,0.0
13.311,-0.362,-0.486,0.0
21.183,-0.581,-0.19,1.0
18.556,-0.514,-0.272,0.0
16.815,-0.471,-0.342,0.0
15.249,-0.432,-0.399,0.0
14.044,-0.402,-0.448,0.0
13.109,-0.379,-0.493,0.0
21.015,-0.613,-0.211,1.0
18.142,-0.535,-0.285,0.0
16.506,-0.492,-0.353,0.0
14.97,-0.451,-0.407,0.0
13.895,-0.423,-0.457,0.0
12.935,-0.398,-0.5,0.0
20.909,-0.648,-0.231,0.0
17.872,-0.559,-0.299,0.0
16.212,-0.513,-0.364,0.0
14.777,-0.472,-0.417,0.0
13.717,-0.442,-0.465,0.0
12.748,-0.415,-0.505,0.0
19.655,-0.645,-0.236,0.0
17.482,-0.579,-0.31,0.0
16.093,-0.538,-0.377,0.0
14.637,-0.494,-0.427,0.0
13.541,-0.461,-0.472,0.0
12.648,-0.435,-0.513,0.0
19.378,-0.671,-0.252,0.0
17.243,-0.602,-0.322,0.0
15.784,-0.556,-0.384,0.0
14.44,-0.514,-0.435,0.0
13.421,-0.482,-0.481,0.0
12.485,-0.452,-0.518,0.0
19.009,-0.693,-0.264,0.0
16.973,-0.624,-0.332,0.0
15.592,-0.578,-0.394,0.0
14.281,-0.535,-0.443,0.0
13.201,-0.498,-0.485,0.0
12.355,-0.471,-0.524,0.0
18.587,-0.712,-0.274,0.0
16.812,-0.649,-0.344,0.0
15.266,-0.594,-0.398,0.0
14.046,-0.552,-0.448,0.0
13.085,-0.518,-0.491,0.0
12.248,-0.489,-0.53,0.0
18.204,-0.731,-0.284,0.0
16.524,-0.669,-0.351,0.0
15.022,-0.613,-0.405,0.0
13.912,-0.572,-0.455,0.0
12.956,-0.537,-0.497,0.0
12.078,-0.505,-0.532,0.0
17.998,-0.756,-0.295,0.0
16.355,-0.692,-0.361,0.0
14.853,-0.634,-0.412,0.0
13.749,-0.591,-0.46,0.0
12.874,-0.558,-0.504,0.0
12.012,-0.525,-0.538,0.0
17.724,-0.778,-0.304,0.0
16.169,-0.715,-0.369,0.0
14.744,-0.657,-0.42,0.0
13.657,-0.613,-0.467,0.0
12.69,-0.574,-0.506,0.0
11.932,-0.543,-0.544,0.0
17.445,-0.798,-0.312,0.0
15.987,-0.736,-0.376,0.0
14.567,-0.676,-0.425,0.0
13.503,-0.631,-0.472,0.0
12.68,-0.597,-0.515,0.0
11.856,-0.562,-0.548,0.0
17.296,-0.823,-0.321,0.0
15.798,-0.757,-0.382,0.0
14.491,-0.7,-0.433,0.0
13.382,-0.65,-0.476,0.0
12.485,-0.611,-0.515,0.0
11.754,-0.579,-0.551,0.0
17.124,-0.847,-0.329,0.0
15.679,-0.781,-0.389,0.0
14.341,-0.719,-0.437,0.0
13.304,-0.672,-0.482,0.0
12.368,-0.628,-0.518,0.0
11.653,-0.596,-0.554,0.0
16.948,-0.87,-0.335,0.0
15.517,-0.802,-0.394,0.0
14.176,-0.737,-0.44,0.0
13.129,-0.687,-0.483,0.0
12.345,-0.651,-0.524,0.0
11.642,-0.617,-0.56,0.0
16.795,-0.894,-0.342,0.0
15.346,-0.822,-0.399,0.0
14.099,-0.76,-0.446,0.0
13.059,-0.708,-0.488,0.0
12.311,-0.672,-0.529,0.0
11.506,-0.632,-0.56,0.0
16.654,-0.917,-0.348,0.0
34.234,-1.897,-0.908,0.0
14.007,-0.781,-0.45,0.0
13.071,-0.733,-0.495,0.0
12.206,-0.689,-0.531,0.0
11.491,-0.653,-0.564,0.0
16.574,-0.944,-0.354,0.0
15.077,-0.864,-0.407,0.0
13.876,-0.799,-0.452,0.0
12.981,-0.753,-0.497,0.0
12.165,-0.71,-0.535,0.0
11.359,-0.666,-0.563,0.0
16.382,-0.963,-0.357,0.0
14.922,-0.882,-0.409,0.0
13.791,-0.82,-0.455,0.0
12.822,-0.767,-0.497,0.0
12.054,-0.725,-0.535,0.0
11.326,-0.686,-0.566,0.0
16.226,-0.984,-0.36,0.0
14.905,-0.909,-0.414,0.0
13.699,-0.84,-0.458,0.0
12.824,-0.791,-0.502,0.0
11.964,-0.742,-0.535,0.0
11.268,-0.703,-0.567,0.0
16.15,-1.01,-0.364,0.0
14.72,-0.925,-0.414,0.0
13.692,-0.865,-0.462,0.0
12.773,-0.812,-0.504,0.0
11.951,-0.764,-0.539,0.0
11.226,-0.721,-0.569,0.0
16.164,-1.04,-0.37,0.0
14.675,-0.95,-0.418,0.0
13.658,-0.889,-0.465,0.0
12.668,-0.829,-0.504,0.0
11.941,-0.785,-0.542,0.0
11.202,-0.741,-0.571,0.0
15.926,-1.054,-0.369,0.0
14.693,-0.978,-0.422,0.0
13.59,-0.909,-0.467,0.0
12.662,-0.851,-0.507,0.0
11.897,-0.804,-0.543,0.0
11.17,-0.759,-0.572,0.0
15.963,-1.086,-0.373,0.0
14.634,-1.0,-0.424,0.0
13.576,-0.933,-0.469,0.0
12.629,-0.872,-0.508,0.0
11.828,-0.821,-0.542,0.0
11.139,-0.777,-0.573,0.0
15.85,-1.107,-0.374,0.0
14.583,-1.023,-0.425,0.0
13.506,-0.952,-0.469,0.0
12.574,-0.891,-0.508,0.0
11.849,-0.844,-0.545,0.0
11.103,-0.795,-0.573,0.0
15.927,-1.141,-0.378,0.0
14.626,-1.053,-0.429,0.0
13.446,-0.972,-0.469,0.0
12.467,-0.906,-0.506,0.0
11.808,-0.862,-0.545,0.0
11.098,-0.814,-0.574,0.0
15.766,-1.158,-0.376,0.0
14.532,-1.072,-0.428,0.0
13.489,-1.0,-0.472,0.0
12.559,-0.935,-0.511,0.0
11.827,-0.885,-0.547,0.0
11.097,-0.834,-0.575,0.0
15.775,-1.186,-0.378,0.0
14.492,-1.095,-0.428,0.0
13.442,-1.02,-0.471,0.0
12.48,-0.951,-0.508,0.0
11.781,-0.902,-0.546,0.0
11.109,-0.855,-0.576,0.0
15.73,-1.211,-0.377,0.0
