X,Y,Z,Reflectivity
145.473,-11.709,12.787,14.0
145.885,-11.735,12.047,7.0
146.655,-11.791,11.316,10.0
146.62,-11.784,10.534,4.0
149.129,-11.979,9.926,14.0
144.703,-11.653,13.698,11.0
145.23,-11.688,12.973,15.0
146.092,-11.75,12.27,10.0
146.803,-11.799,11.533,11.0
146.436,-11.762,10.726,2.0
148.603,-11.93,10.097,14.0
144.638,-11.642,13.895,8.0
145.092,-11.668,13.164,19.0
145.767,-11.714,12.447,4.0
145.431,-11.679,11.627,19.0
145.266,-11.656,10.842,12.0
151.012,-12.11,10.468,5.0
149.104,-11.988,14.53,4.0
144.885,-11.638,13.344,15.0
145.578,-11.684,12.628,9.0
145.577,-11.674,11.837,14.0
145.18,-11.632,11.031,7.0
151.061,-12.094,10.675,8.0
148.712,-11.937,14.695,5.0
144.796,-11.612,13.531,6.0
145.371,-11.646,12.808,14.0
146.027,-11.688,12.07,12.0
146.841,-11.743,11.355,13.0
146.449,-11.7,10.546,8.0
148.051,-11.859,14.83,3.0
144.572,-11.568,13.705,9.0
145.245,-11.609,12.991,13.0
146.133,-11.667,12.274,13.0
146.982,-11.723,11.561,4.0
145.434,-11.59,10.663,3.0
147.89,-11.815,15.01,7.0
144.531,-11.533,13.891,11.0
144.819,-11.543,13.143,14.0
146.058,-11.627,12.458,5.0
145.579,-11.577,11.638,14.0
145.209,-11.536,10.832,9.0
146.689,-11.683,15.077,7.0
145.828,-11.6,14.203,5.0
144.863,-11.508,13.332,15.0
145.667,-11.558,12.61,12.0
145.595,-11.537,11.826,13.0
145.308,-11.501,11.026,3.0
146.381,-11.616,15.233,13.0
145.772,-11.551,14.384,16.0
144.946,-11.471,13.522,11.0
145.707,-11.515,12.797,21.0
145.706,-11.5,12.015,9.0
147.237,-11.606,11.354,9.0
146.302,-11.561,15.408,12.0
145.61,-11.49,14.548,10.0
145.37,-11.454,13.742,17.0
145.808,-11.472,12.984,18.0
145.804,-11.455,12.202,12.0
147.254,-11.553,11.534,8.0
148.461,-11.678,15.818,4.0
148.583,-11.67,15.028,13.0
145.889,-11.439,13.968,16.0
145.953,-11.428,13.173,5.0
145.781,-11.396,12.375,13.0
147.422,-11.508,11.722,6.0
148.327,-11.608,15.981,5.0
148.334,-11.589,15.18,9.0
145.753,-11.368,14.128,16.0
146.144,-11.379,13.364,13.0
145.833,-11.338,12.549,9.0
145.177,-11.268,11.714,13.0
0.0,0.0,0.0,0.0
147.607,-11.465,15.279,9.0
145.738,-11.301,14.297,13.0
146.384,-11.329,13.556,10.0
119.312,-9.219,10.405,8.0
88.117,-6.797,7.21,4.0
150.804,-11.662,16.6,5.0
147.457,-11.381,15.432,15.0
145.827,-11.235,14.471,14.0
0.0,0.0,0.0,0.0
119.163,-9.147,10.525,8.0
88.131,-6.754,7.308,11.0
0.0,0.0,0.0,0.0
147.273,-11.291,15.575,5.0
145.776,-11.154,14.626,16.0
145.957,-11.147,13.84,17.0
147.232,-11.222,13.164,12.0
145.764,-11.09,12.247,17.0
0.0,0.0,0.0,0.0
148.791,-11.325,15.897,9.0
145.742,-11.069,14.781,13.0
146.249,-11.085,14.023,13.0
119.067,-9.007,10.772,8.0
145.622,-10.993,12.389,11.0
0.0,0.0,0.0,0.0
148.626,-11.224,16.036,8.0
147.789,-11.137,15.141,14.0
91.257,-6.862,8.844,18.0
147.367,-11.057,13.484,10.0
119.312,-8.935,10.27,13.0
90.737,-6.811,10.378,7.0
148.384,-11.113,16.161,12.0
148.331,-11.083,15.347,11.0
91.284,-6.806,8.938,7.0
147.128,-10.946,13.607,11.0
119.313,-8.857,10.388,13.0
90.068,-6.703,10.39,4.0
148.071,-10.992,16.272,16.0
148.574,-11.004,15.516,10.0
0.0,0.0,0.0,0.0
146.6,-10.807,13.7,12.0
119.063,-8.757,10.48,12.0
89.879,-6.626,10.456,14.0
91.313,-6.715,10.123,9.0
148.705,-10.91,15.671,5.0
146.208,-10.699,14.597,8.0
146.659,-10.708,13.842,13.0
119.227,-8.684,10.605,15.0
89.898,-6.563,10.542,23.0
90.778,-6.61,10.146,18.0
148.317,-10.773,15.766,14.0
147.463,-10.683,14.855,7.0
91.535,-6.615,8.721,11.0
119.395,-8.609,10.725,15.0
89.85,-6.492,10.616,28.0
90.223,-6.502,10.164,22.0
148.13,-10.648,15.875,15.0
91.819,-6.582,9.329,12.0
91.55,-6.546,8.801,20.0
119.026,-8.49,10.793,14.0
89.917,-6.427,10.701,13.0
90.385,-6.442,10.259,25.0
148.503,-10.557,16.04,17.0
91.371,-6.477,9.359,3.0
91.577,-6.474,8.88,16.0
118.84,-8.379,10.874,6.0
90.376,-6.386,10.83,15.0
90.494,-6.376,10.346,20.0
148.531,-10.435,16.165,10.0
93.572,-6.556,9.66,15.0
91.559,-6.397,8.95,4.0
117.176,-8.164,10.814,12.0
90.621,-6.326,10.932,14.0
90.291,-6.285,10.394,19.0
90.388,-6.273,9.907,9.0
93.65,-6.481,9.739,18.0
91.568,-6.32,9.019,13.0
118.572,-8.159,11.031,4.0
89.301,-6.157,10.84,7.0
90.381,-6.213,10.47,26.0
90.116,-6.175,9.943,13.0
93.876,-6.414,9.831,14.0
91.634,-6.242,9.092,25.0
91.812,-6.235,8.607,18.0
89.221,-6.072,10.893,6.0
90.117,-6.113,10.504,22.0
90.174,-6.097,10.012,17.0
93.998,-6.336,9.909,7.0
91.553,-6.152,9.147,22.0
91.742,-6.147,8.661,18.0
89.343,-5.997,10.969,4.0
89.75,-6.005,10.521,21.0
90.979,-6.066,10.162,20.0
91.123,-6.057,9.664,15.0
91.913,-6.09,9.241,11.0
91.402,-6.038,8.687,21.0
89.291,-5.908,11.019,1.0
89.787,-5.922,10.581,25.0
90.684,-5.961,10.184,19.0
91.164,-5.973,9.724,33.0
87.182,-5.694,8.817,12.0
91.362,-5.948,8.737,24.0
89.326,-5.823,11.077,13.0
89.596,-5.821,10.611,23.0
90.509,-5.861,10.216,26.0
91.188,-5.885,9.778,25.0
87.178,-5.607,8.866,23.0
91.456,-5.863,8.796,13.0
89.334,-5.736,11.127,23.0
89.652,-5.736,10.666,29.0
89.431,-5.702,10.142,16.0
86.933,-5.522,9.368,12.0
87.463,-5.538,8.94,15.0
91.432,-5.769,8.84,13.0
89.465,-5.653,11.189,25.0
89.867,-5.657,10.737,24.0
89.553,-5.617,10.201,27.0
86.858,-5.428,9.402,21.0
87.535,-5.452,8.989,26.0
87.622,-5.439,8.512,16.0
89.454,-5.56,11.229,26.0
89.995,-5.572,10.794,22.0
89.765,-5.538,10.265,22.0
87.038,-5.349,9.46,10.0
87.504,-5.358,9.024,20.0
87.811,-5.358,8.569,25.0
89.011,-5.437,11.212,22.0
89.567,-5.45,10.78,18.0
89.831,-5.445,10.31,26.0
91.727,-5.539,10.006,8.0
87.612,-5.271,9.07,14.0
87.949,-5.271,8.616,17.0
88.783,-5.327,11.217,26.0
89.367,-5.34,10.79,18.0
82.393,-4.904,9.487,13.0
91.6,-5.431,10.026,17.0
87.754,-5.184,9.116,26.0
87.646,-5.157,8.617,21.0
88.976,-5.24,11.273,27.0
87.678,-5.142,10.616,20.0
82.479,-4.818,9.524,15.0
91.522,-5.326,10.046,16.0
87.771,-5.087,9.145,14.0
87.643,-5.06,8.643,26.0
88.92,-5.138,11.292,21.0
87.64,-5.043,10.636,23.0
82.526,-4.729,9.552,11.0
94.033,-5.366,10.348,7.0
91.896,-5.223,9.599,14.0
87.851,-4.974,8.686,18.0
88.899,-5.035,11.313,14.0
87.427,-4.931,10.632,34.0
89.938,-5.051,10.432,13.0
90.068,-5.036,9.933,16.0
0.0,0.0,0.0,0.0
88.287,-4.896,8.748,13.0
92.857,-5.152,11.836,5.0
87.777,-4.849,10.693,18.0
87.177,-4.794,10.129,23.0
90.066,-4.933,9.949,15.0
82.405,-4.493,8.641,9.0
88.317,-4.795,8.767,9.0
93.125,-5.058,11.886,11.0
90.269,-4.881,11.011,5.0
86.49,-4.655,10.062,21.0
90.118,-4.828,9.968,16.0
82.451,-4.399,8.657,12.0
84.64,-4.496,8.412,11.0
86.465,-4.593,11.046,13.0
87.283,-4.615,10.657,17.0
86.307,-4.543,10.05,22.0
83.058,-4.353,9.195,9.0
91.001,-4.747,9.563,9.0
84.336,-4.38,8.389,20.0
86.492,-4.492,11.056,15.0
87.022,-4.497,10.631,17.0
82.251,-4.232,9.583,13.0
82.768,-4.239,9.167,21.0
89.003,-4.537,9.357,7.0
79.828,-4.051,7.943,15.0
86.494,-4.388,11.059,13.0
87.012,-4.393,10.631,12.0
82.291,-4.135,9.589,17.0
82.804,-4.14,9.172,20.0
83.586,-4.161,8.787,9.0
79.592,-3.943,7.919,18.0
86.631,-4.289,11.076,18.0
81.04,-3.992,9.9,24.0
82.255,-4.032,9.582,13.0
83.052,-4.051,9.197,17.0
82.607,-4.01,8.681,18.0
79.613,-3.847,7.917,16.0
86.414,-4.172,11.043,23.0
81.166,-3.898,9.91,30.0
82.18,-3.927,9.568,23.0
82.952,-3.945,9.179,25.0
82.71,-3.914,8.684,16.0
79.541,-3.746,7.902,24.0
86.914,-4.088,11.098,22.0
81.174,-3.799,9.902,30.0
82.02,-3.819,9.539,18.0
82.736,-3.833,9.144,22.0
82.07,-3.782,8.606,11.0
79.561,-3.648,7.893,14.0
85.526,-3.916,10.908,9.0
81.316,-3.704,9.906,17.0
81.037,-3.672,9.411,26.0
82.603,-3.724,9.115,25.0
79.977,-3.587,8.372,12.0
79.363,-3.541,7.859,23.0
34.084,-2.52,0.552,4.0
36.017,-2.651,0.388,1.0
30.579,-2.24,0.163,0.0
33.894,-2.471,-0.005,2.0
33.903,-2.46,-0.189,7.0
33.912,-2.449,-0.372,4.0
34.037,-2.455,0.571,3.0
35.742,-2.566,0.406,2.0
30.752,-2.197,0.182,0.0
33.894,-2.409,0.013,2.0
33.918,-2.4,-0.17,5.0
21.43,-1.509,-0.223,0.0
33.987,-2.39,0.589,2.0
35.628,-2.492,0.424,0.0
31.507,-2.193,0.203,0.0
27.853,-1.929,0.026,0.0
24.766,-1.706,-0.111,0.0
21.949,-1.505,-0.217,0.0
33.956,-2.325,0.605,1.0
37.363,-2.545,0.463,0.0
31.463,-2.132,0.219,0.0
28.183,-1.9,0.04,0.0
24.876,-1.668,-0.099,0.0
22.228,-1.483,-0.209,0.0
33.993,-2.264,0.622,0.0
37.654,-2.495,0.484,1.0
32.602,-2.148,0.242,1.0
28.265,-1.852,0.053,1.0
25.511,-1.663,-0.09,0.0
22.397,-1.452,-0.201,0.0
33.955,-2.198,0.637,0.0
34.743,-2.236,0.462,0.0
32.111,-2.055,0.252,2.0
28.438,-1.81,0.065,1.0
25.718,-1.627,-0.08,0.0
22.467,-1.413,-0.192,0.0
33.927,-2.131,0.65,0.0
34.813,-2.174,0.477,2.0
32.052,-1.99,0.264,2.0
28.489,-1.758,0.077,13.0
25.636,-1.573,-0.07,0.0
22.722,-1.386,-0.186,0.0
34.021,-2.071,0.665,0.0
34.877,-2.11,0.491,5.0
31.905,-1.919,0.275,0.0
28.517,-1.705,0.087,7.0
25.786,-1.532,-0.061,0.0
22.885,-1.352,-0.179,0.0
34.088,-2.009,0.677,0.0
34.648,-2.029,0.499,1.0
33.161,-1.93,0.297,0.0
28.573,-1.652,0.096,8.0
34.2,-1.966,-0.071,1.0
23.293,-1.33,-0.175,0.0
0.0,0.0,0.0,0.0
34.559,-1.957,0.508,0.0
33.47,-1.883,0.309,0.0
28.576,-1.597,0.104,6.0
34.231,-1.901,-0.061,6.0
34.235,-1.889,-0.248,3.0
0.0,0.0,0.0,0.0
34.607,-1.892,0.518,0.0
32.583,-1.769,0.309,0.0
28.575,-1.541,0.112,4.0
26.422,-1.415,-0.041,0.0
23.34,-1.241,-0.164,1.0
34.429,-1.826,0.712,1.0
34.648,-1.825,0.526,0.0
33.786,-1.767,0.328,0.0
28.602,-1.485,0.118,0.0
26.261,-1.354,-0.035,0.0
23.467,-1.201,-0.16,1.0
0.0,0.0,0.0,0.0
0.0,0.0,0.0,0.0
0.0,0.0,0.0,0.0
28.506,-1.422,0.123,0.0
26.996,-1.337,-0.031,0.0
23.542,-1.157,-0.156,1.0
0.0,0.0,0.0,0.0
0.0,0.0,0.0,0.0
34.339,-1.657,0.344,0.0
28.626,-1.371,0.127,0.0
26.749,-1.271,-0.027,1.0
23.492,-1.108,-0.153,1.0
0.0,0.0,0.0,0.0
0.0,0.0,0.0,0.0
34.404,-1.59,0.349,0.0
28.627,-1.313,0.13,0.0
26.321,-1.197,-0.024,1.0
23.613,-1.065,-0.152,2.0
0.0,0.0,0.0,0.0
0.0,0.0,0.0,0.0
34.066,-1.505,0.348,0.0
28.656,-1.256,0.132,2.0
26.252,-1.14,-0.023,1.0
23.573,-1.015,-0.15,1.0
7.129,0.235,-0.75,0.0
0.0,0.0,0.0,0.0
0.0,0.0,0.0,0.0
0.0,0.0,0.0,0.0
0.0,0.0,0.0,0.0
0.0,0.0,0.0,0.0
7.147,0.227,-0.75,0.0
0.0,0.0,0.0,0.0
0.0,0.0,0.0,0.0
0.0,0.0,0.0,0.0
0.0,0.0,0.0,0.0
0.0,0.0,0.0,0.0
7.175,0.22,-0.751,0.0
0.0,0.0,0.0,0.0
0.0,0.0,0.0,0.0
0.0,0.0,0.0,0.0
0.0,0.0,0.0,0.0
0.0,0.0,0.0,0.0
7.171,0.211,-0.749,0.0
0.0,0.0,0.0,0.0
0.0,0.0,0.0,0.0
0.0,0.0,0.0,0.0
0.0,0.0,0.0,0.0
0.0,0.0,0.0,0.0
7.194,0.203,-0.748,0.0
0.0,0.0,0.0,0.0
0.0,0.0,0.0,0.0
0.0,0.0,0.0,0.0
0.0,0.0,0.0,0.0
0.0,0.0,0.0,0.0
7.253,0.196,-0.751,0.0
0.0,0.0,0.0,0.0
0.0,0.0,0.0,0.0
0.0,0.0,0.0,0.0
0.0,0.0,0.0,0.0
0.0,0.0,0.0,0.0
7.237,0.187,-0.746,0.0
0.0,0.0,0.0,0.0
0.0,0.0,0.0,0.0
0.0,0.0,0.0,0.0
0.0,0.0,0.0,0.0
0.0,0.0,0.0,0.0
7.283,0.179,-0.748,0.0
0.0,0.0,0.0,0.0
0.0,0.0,0.0,0.0
0.0,0.0,0.0,0.0
0.0,0.0,0.0,0.0
0.0,0.0,0.0,0.0
7.289,0.171,-0.744,0.0
0.0,0.0,0.0,0.0
0.0,0.0,0.0,0.0
0.0,0.0,0.0,0.0
0.0,0.0,0.0,0.0
0.0,0.0,0.0,0.0
7.315,0.163,-0.743,0.0
7.087,0.156,-0.759,0.0
0.0,0.0,0.0,0.0
0.0,0.0,0.0,0.0
0.0,0.0,0.0,0.0
0.0,0.0,0.0,0.0
7.341,0.155,-0.741,0.0
7.084,0.148,-0.754,0.0
0.0,0.0,0.0,0.0
0.0,0.0,0.0,0.0
0.0,0.0,0.0,0.0
7.403,0.147,-0.742,0.0
7.092,0.14,-0.75,0.0
0.0,0.0,0.0,0.0
0.0,0.0,0.0,0.0
0.0,0.0,0.0,0.0
0.0,0.0,0.0,0.0
7.451,0.14,-0.741,0.0
7.153,0.132,-0.751,0.0
0.0,0.0,0.0,0.0
0.0,0.0,0.0,0.0
0.0,0.0,0.0,0.0
0.0,0.0,0.0,0.0
7.442,0.131,-0.734,0.0
7.177,0.125,-0.748,0.0
0.0,0.0,0.0,0.0
0.0,0.0,0.0,0.0
0.0,0.0,0.0,0.0
0.0,0.0,0.0,0.0
0.0,0.0,0.0,0.0
7.224,0.117,-0.747,0.0
0.0,0.0,0.0,0.0
0.0,0.0,0.0,0.0
0.0,0.0,0.0,0.0
0.0,0.0,0.0,0.0
0.0,0.0,0.0,0.0
7.296,0.11,-0.748,0.0
0.0,0.0,0.0,0.0
0.0,0.0,0.0,0.0
0.0,0.0,0.0,0.0
0.0,0.0,0.0,0.0
0.0,0.0,0.0,0.0
7.305,0.102,-0.742,0.0
7.083,0.098,-0.758,0.0
0.0,0.0,0.0,0.0
0.0,0.0,0.0,0.0
0.0,0.0,0.0,0.0
0.0,0.0,0.0,0.0
7.394,0.095,-0.744,0.0
0.0,0.0,0.0,0.0
0.0,0.0,0.0,0.0
0.0,0.0,0.0,0.0
0.0,0.0,0.0,0.0
0.0,0.0,0.0,0.0
7.42,0.088,-0.739,0.0
7.133,0.083,-0.75,0.0
0.0,0.0,0.0,0.0
0.0,0.0,0.0,0.0
0.0,0.0,0.0,0.0
0.0,0.0,0.0,0.0
0.0,0.0,0.0,0.0
7.226,0.076,-0.752,0.0
0.0,0.0,0.0,0.0
0.0,0.0,0.0,0.0
0.0,0.0,0.0,0.0
0.0,0.0,0.0,0.0
0.0,0.0,0.0,0.0
7.253,0.069,-0.747,0.0
0.0,0.0,0.0,0.0
0.0,0.0,0.0,0.0
0.0,0.0,0.0,0.0
0.0,0.0,0.0,0.0
0.0,0.0,0.0,0.0
7.322,0.062,-0.746,0.0
0.0,0.0,0.0,0.0
0.0,0.0,0.0,0.0
0.0,0.0,0.0,0.0
8.023,0.063,-0.721,0.0
0.0,0.0,0.0,0.0
7.36,0.055,-0.741,0.0
0.0,0.0,0.0,0.0
0.0,0.0,0.0,0.0
0.0,0.0,0.0,0.0
8.036,0.055,-0.713,0.0
7.734,0.051,-0.728,0.0
7.426,0.048,-0.739,0.0
0.0,0.0,0.0,0.0
6.867,0.042,-0.758,0.0
0.0,0.0,0.0,0.0
8.174,0.048,-0.715,0.0
0.0,0.0,0.0,0.0
0.0,0.0,0.0,0.0
7.195,0.038,-0.746,0.0
6.944,0.035,-0.758,0.0
0.0,0.0,0.0,0.0
0.0,0.0,0.0,0.0
0.0,0.0,0.0,0.0
0.0,0.0,0.0,0.0
7.293,0.031,-0.747,0.0
6.992,0.029,-0.754,0.0
6.822,0.027,-0.772,0.0
8.294,0.033,-0.704,0.0
7.965,0.03,-0.719,0.0
7.691,0.027,-0.736,0.0
7.324,0.025,-0.741,0.0
7.09,0.023,-0.755,0.0
6.874,0.021,-0.769,0.0
0.0,0.0,0.0,0.0
0.0,0.0,0.0,0.0
7.749,0.021,-0.731,0.0
0.0,0.0,0.0,0.0
7.173,0.017,-0.754,0.0
6.879,0.015,-0.76,0.0
0.0,0.0,0.0,0.0
8.108,0.016,-0.71,0.0
0.0,0.0,0.0,0.0
0.0,0.0,0.0,0.0
7.221,0.01,-0.749,0.0
6.995,0.009,-0.763,0.0
0.0,0.0,0.0,0.0
0.0,0.0,0.0,0.0
0.0,0.0,0.0,0.0
0.0,0.0,0.0,0.0
7.33,0.004,-0.75,0.0
7.037,0.003,-0.757,0.0
8.619,0.004,-0.684,0.0
0.0,0.0,0.0,0.0
7.968,0.001,-0.717,0.0
0.0,0.0,0.0,0.0
7.385,-0.001,-0.744,0.0
7.119,-0.002,-0.756,0.0
0.0,0.0,0.0,0.0
0.0,0.0,0.0,0.0
8.07,-0.005,-0.714,0.0
0.0,0.0,0.0,0.0
0.0,0.0,0.0,0.0
7.191,-0.008,-0.752,0.0
0.0,0.0,0.0,0.0
0.0,0.0,0.0,0.0
0.0,0.0,0.0,0.0
0.0,0.0,0.0,0.0
0.0,0.0,0.0,0.0
7.29,-0.013,-0.751,0.0
8.957,-0.016,-0.67,0.0
0.0,0.0,0.0,0.0
0.0,0.0,0.0,0.0
0.0,0.0,0.0,0.0
0.0,0.0,0.0,0.0
7.355,-0.019,-0.746,0.0
0.0,0.0,0.0,0.0
0.0,0.0,0.0,0.0
8.344,-0.024,-0.699,0.0
0.0,0.0,0.0,0.0
7.786,-0.025,-0.736,0.0
0.0,0.0,0.0,0.0
0.0,0.0,0.0,0.0
0.0,0.0,0.0,0.0
0.0,0.0,0.0,0.0
0.0,0.0,0.0,0.0
0.0,0.0,0.0,0.0
0.0,0.0,0.0,0.0
9.378,-0.037,-0.657,0.0
0.0,0.0,0.0,0.0
8.584,-0.036,-0.692,0.0
0.0,0.0,0.0,0.0
0.0,0.0,0.0,0.0
0.0,0.0,0.0,0.0
9.516,-0.044,-0.651,0.0
0.0,0.0,0.0,0.0
0.0,0.0,0.0,0.0
0.0,0.0,0.0,0.0
8.05,-0.041,-0.721,0.0
7.746,-0.041,-0.735,0.0
9.637,-0.05,-0.643,0.0
0.0,0.0,0.0,0.0
0.0,0.0,0.0,0.0
0.0,0.0,0.0,0.0
8.093,-0.046,-0.711,0.0
7.819,-0.046,-0.728,0.0
9.799,-0.057,-0.637,0.0
0.0,0.0,0.0,0.0
0.0,0.0,0.0,0.0
0.0,0.0,0.0,0.0
0.0,0.0,0.0,0.0
7.941,-0.051,-0.726,0.0
10.054,-0.064,-0.636,0.0
9.498,-0.061,-0.65,0.0
9.05,-0.06,-0.667,0.0
0.0,0.0,0.0,0.0
0.0,0.0,0.0,0.0
8.017,-0.056,-0.718,0.0
10.231,-0.07,-0.629,0.0
9.717,-0.068,-0.648,0.0
0.0,0.0,0.0,0.0
0.0,0.0,0.0,0.0
8.496,-0.062,-0.701,0.0
8.154,-0.061,-0.716,0.0
10.381,-0.076,-0.619,0.0
0.0,0.0,0.0,0.0
0.0,0.0,0.0,0.0
0.0,0.0,0.0,0.0
0.0,0.0,0.0,0.0
8.261,-0.065,-0.71,0.0
10.381,-0.081,-0.6,0.0
0.0,0.0,0.0,0.0
0.0,0.0,0.0,0.0
0.0,0.0,0.0,0.0
0.0,0.0,0.0,0.0
8.368,-0.07,-0.704,0.0
10.772,-0.089,-0.603,0.0
10.209,-0.085,-0.625,0.0
9.723,-0.082,-0.646,0.0
0.0,0.0,0.0,0.0
0.0,0.0,0.0,0.0
8.54,-0.074,-0.702,0.0
11.005,-0.095,-0.596,0.0
10.446,-0.091,-0.62,0.0
0.0,0.0,0.0,0.0
0.0,0.0,0.0,0.0
0.0,0.0,0.0,0.0
8.576,-0.078,-0.689,0.0
11.218,-0.101,-0.586,0.0
10.552,-0.096,-0.606,0.0
0.0,0.0,0.0,0.0
0.0,0.0,0.0,0.0
0.0,0.0,0.0,0.0
8.783,-0.082,-0.689,0.0
11.44,-0.106,-0.576,0.0
10.763,-0.101,-0.598,0.0
10.277,-0.097,-0.625,0.0
0.0,0.0,0.0,0.0
9.263,-0.089,-0.661,0.0
0.0,0.0,0.0,0.0
11.672,-0.112,-0.566,0.0
11.02,-0.106,-0.591,0.0
10.507,-0.102,-0.619,0.0
0.0,0.0,0.0,0.0
0.0,0.0,0.0,0.0
0.0,0.0,0.0,0.0
11.887,-0.117,-0.553,0.0
11.251,-0.111,-0.582,0.0
10.624,-0.106,-0.605,0.0
10.114,-0.101,-0.629,0.0
0.0,0.0,0.0,0.0
0.0,0.0,0.0,0.0
12.221,-0.122,-0.545,0.0
11.482,-0.116,-0.572,0.0
10.91,-0.11,-0.6,0.0
10.298,-0.105,-0.62,0.0
9.861,-0.101,-0.645,0.0
9.335,-0.096,-0.66,0.0
12.431,-0.127,-0.53,0.0
11.732,-0.12,-0.561,0.0
11.182,-0.115,-0.592,0.0
10.498,-0.108,-0.612,0.0
10.007,-0.104,-0.635,0.0
0.0,0.0,0.0,0.0
12.68,-0.131,-0.515,0.0
11.986,-0.124,-0.549,0.0
11.36,-0.118,-0.579,0.0
10.745,-0.112,-0.605,0.0
10.213,-0.107,-0.628,0.0
0.0,0.0,0.0,0.0
13.091,-0.136,-0.506,0.0
12.292,-0.128,-0.539,0.0
11.59,-0.122,-0.568,0.0
10.963,-0.115,-0.595,0.0
10.406,-0.11,-0.619,0.0
9.94,-0.105,-0.643,0.0
13.393,-0.14,-0.491,0.0
12.559,-0.132,-0.525,0.0
11.889,-0.125,-0.559,0.0
11.227,-0.119,-0.587,0.0
10.611,-0.112,-0.609,0.0
10.124,-0.107,-0.634,0.0
13.808,-0.145,-0.478,0.0
12.786,-0.135,-0.509,0.0
12.136,-0.128,-0.546,0.0
11.435,-0.121,-0.574,0.0
10.867,-0.115,-0.602,0.0
10.32,-0.109,-0.625,0.0
14.086,-0.148,-0.459,0.0
13.236,-0.139,-0.5,0.0
12.49,-0.131,-0.536,0.0
11.687,-0.123,-0.563,0.0
11.138,-0.117,-0.594,0.0
10.525,-0.111,-0.616,0.0
14.512,-0.152,-0.443,0.0
13.527,-0.141,-0.483,0.0
12.702,-0.133,-0.519,0.0
11.95,-0.125,-0.551,0.0
11.382,-0.119,-0.584,0.0
10.807,-0.113,-0.61,0.0
15.037,-0.156,-0.429,0.0
13.911,-0.144,-0.468,0.0
13.085,-0.135,-0.508,0.0
12.327,-0.127,-0.543,0.0
11.565,-0.119,-0.57,0.0
10.948,-0.113,-0.596,0.0
15.567,-0.159,-0.412,0.0
14.301,-0.146,-0.452,0.0
13.388,-0.137,-0.492,0.0
12.579,-0.128,-0.529,0.0
11.867,-0.121,-0.56,0.0
11.243,-0.114,-0.589,0.0
16.005,-0.161,-0.391,0.0
14.724,-0.148,-0.435,0.0
13.751,-0.138,-0.477,0.0
12.892,-0.129,-0.515,0.0
12.19,-0.122,-0.55,0.0
11.454,-0.114,-0.576,0.0
16.538,-0.163,-0.37,0.0
15.379,-0.151,-0.423,0.0
14.104,-0.138,-0.461,0.0
13.219,-0.129,-0.501,0.0
12.46,-0.121,-0.537,0.0
11.737,-0.114,-0.566,0.0
16.97,-0.163,-0.344,0.0
15.828,-0.152,-0.402,0.0
14.581,-0.139,-0.446,0.0
13.56,-0.129,-0.486,0.0
12.687,-0.12,-0.52,0.0
12.011,-0.113,-0.554,0.0
17.614,-0.164,-0.321,0.0
16.265,-0.151,-0.38,0.0
15.137,-0.14,-0.431,0.0
13.919,-0.128,-0.47,0.0
13.071,-0.12,-0.508,0.0
12.331,-0.112,-0.543,0.0
18.406,-0.166,-0.297,0.0
16.751,-0.15,-0.356,0.0
15.663,-0.139,-0.414,0.0
14.382,-0.127,-0.455,0.0
13.445,-0.118,-0.495,0.0
12.639,-0.111,-0.531,0.0
19.355,-0.167,-0.272,0.0
17.342,-0.149,-0.333,0.0
16.032,-0.137,-0.39,0.0
14.691,-0.125,-0.435,0.0
13.801,-0.116,-0.48,0.0
12.916,-0.108,-0.515,0.0
20.424,-0.168,-0.245,0.0
18.058,-0.148,-0.309,0.0
16.549,-0.134,-0.369,0.0
15.215,-0.123,-0.419,0.0
14.213,-0.114,-0.464,0.0
13.263,-0.105,-0.502,0.0
21.884,-0.171,-0.216,0.0
18.946,-0.147,-0.285,0.0
17.074,-0.131,-0.345,0.0
15.843,-0.12,-0.403,0.0
14.569,-0.11,-0.446,0.0
13.62,-0.102,-0.487,0.0
22.629,-0.166,-0.177,0.0
19.886,-0.144,-0.258,0.0
17.688,-0.127,-0.321,0.0
16.31,-0.116,-0.382,0.0
15.035,-0.106,-0.429,0.0
13.994,-0.097,-0.472,0.0
24.112,-0.165,-0.139,0.0
21.09,-0.142,-0.231,0.0
18.433,-0.123,-0.296,0.0
16.782,-0.11,-0.358,0.0
15.643,-0.102,-0.414,0.0
14.363,-0.092,-0.455,0.0
24.954,-0.157,-0.093,0.0
22.142,-0.137,-0.196,1.0
19.401,-0.118,-0.272,0.0
17.348,-0.104,-0.335,0.0
16.072,-0.095,-0.393,0.0
14.815,-0.086,-0.439,0.0
26.247,-0.15,-0.044,0.0
23.202,-0.13,-0.159,0.0
20.375,-0.112,-0.244,0.0
18.097,-0.098,-0.312,0.0
16.623,-0.088,-0.372,0.0
15.423,-0.08,-0.425,0.0
27.424,-0.139,0.009,0.0
24.405,-0.122,-0.117,0.0
21.813,-0.106,-0.217,2.0
18.911,-0.09,-0.287,0.0
17.081,-0.08,-0.348,0.0
15.803,-0.072,-0.403,0.0
28.698,-0.127,0.068,5.0
25.519,-0.11,-0.07,0.0
22.879,-0.096,-0.181,0.0
19.985,-0.082,-0.263,0.0
17.704,-0.07,-0.324,0.0
16.362,-0.063,-0.384,0.0
28.86,-0.107,0.127,4.0
26.911,-0.097,-0.019,0.0
23.905,-0.083,-0.141,0.0
21.079,-0.071,-0.235,0.0
18.442,-0.06,-0.3,0.0
16.792,-0.052,-0.36,0.0
31.446,-0.094,0.202,1.0
28.246,-0.081,0.036,1.0
25.2,-0.069,-0.098,0.0
22.01,-0.058,-0.201,0.0
19.377,-0.048,-0.277,0.0
17.375,-0.041,-0.338,0.0
33.184,-0.074,0.28,0.0
28.801,-0.06,0.094,7.0
26.05,-0.051,-0.049,0.0
23.353,-0.043,-0.167,0.0
20.54,-0.035,-0.253,0.0
18.077,-0.028,-0.316,0.0
0.0,0.0,0.0,0.0
30.361,-0.039,0.159,0.0
27.232,-0.031,0.002,0.0
24.231,-0.025,-0.125,0.0
21.306,-0.018,-0.22,2.0
18.676,-0.014,-0.289,0.0
0.0,0.0,0.0,0.0
0.0,0.0,0.0,0.0
28.574,-0.009,0.058,1.0
25.484,-0.004,-0.082,0.0
22.523,0.0,-0.188,0.0
19.765,0.002,-0.268,0.0
0.0,0.0,0.0,0.0
33.24,0.013,0.305,0.0
28.83,0.016,0.115,0.0
26.453,0.018,-0.033,0.0
23.694,0.02,-0.152,1.0
20.997,0.021,-0.244,2.0
0.0,0.0,0.0,0.0
0.0,0.0,0.0,0.0
30.71,0.045,0.182,0.0
27.771,0.045,0.018,0.0
24.692,0.044,-0.111,0.0
21.729,0.042,-0.21,2.0
0.0,0.0,0.0,0.0
38.118,0.086,0.497,0.0
31.986,0.077,0.251,0.0
28.717,0.074,0.074,3.0
25.818,0.071,-0.067,0.0
23.192,0.067,-0.18,1.0
0.0,0.0,0.0,0.0
41.683,0.135,0.624,0.0
35.101,0.119,0.343,0.0
28.902,0.103,0.129,0.0
26.948,0.101,-0.018,0.0
24.054,0.094,-0.141,0.0
0.0,0.0,0.0,0.0
0.0,0.0,0.0,0.0
36.46,0.161,0.424,0.0
31.352,0.144,0.199,0.0
28.157,0.134,0.033,0.0
25.106,0.124,-0.101,0.0
0.0,0.0,0.0,0.0
0.0,0.0,0.0,0.0
0.0,0.0,0.0,0.0
0.0,0.0,0.0,0.0
28.774,0.167,0.087,1.0
26.112,0.157,-0.056,0.0
74.886,0.463,1.93,3.0
0.0,0.0,0.0,0.0
43.478,0.285,0.668,0.0
0.0,0.0,0.0,0.0
28.902,0.2,0.14,0.0
27.08,0.192,-0.008,0.0
75.67,0.551,2.089,5.0
0.0,0.0,0.0,0.0
0.0,0.0,0.0,0.0
0.0,0.0,0.0,0.0
31.181,0.251,0.208,0.0
28.69,0.236,0.042,2.0
79.42,0.669,2.338,2.0
0.0,0.0,0.0,0.0
0.0,0.0,0.0,0.0
0.0,0.0,0.0,0.0
33.035,0.304,0.28,0.0
28.848,0.271,0.094,5.0
57.892,0.555,1.808,0.0
57.848,0.566,1.505,1.0
0.0,0.0,0.0,0.0
41.458,0.422,0.641,0.0
34.699,0.36,0.356,0.0
28.956,0.307,0.146,1.0
57.275,0.618,1.891,0.0
57.11,0.627,1.587,0.0
57.556,0.644,1.298,0.0
47.114,0.537,0.812,0.0
36.711,0.426,0.44,0.0
32.04,0.378,0.217,0.0
56.876,0.682,1.977,0.0
56.583,0.69,1.67,0.0
57.387,0.712,1.393,1.0
0.0,0.0,0.0,0.0
39.218,0.503,0.538,0.0
33.528,0.437,0.284,0.0
56.28,0.746,2.053,0.0
56.076,0.755,1.751,0.0
56.102,0.767,1.458,2.0
0.0,0.0,0.0,0.0
0.0,0.0,0.0,0.0
0.0,0.0,0.0,0.0
0.0,0.0,0.0,0.0
0.0,0.0,0.0,0.0
0.0,0.0,0.0,0.0
0.0,0.0,0.0,0.0
0.0,0.0,0.0,0.0
36.856,0.576,0.437,0.0
55.656,0.881,2.217,1.0
55.305,0.888,1.913,2.0
55.224,0.899,1.62,0.0
55.055,0.908,1.32,0.0
0.0,0.0,0.0,0.0
0.0,0.0,0.0,0.0
0.0,0.0,0.0,0.0
0.0,0.0,0.0,0.0
55.098,0.97,1.705,0.0
54.808,0.977,1.403,0.0
0.0,0.0,0.0,0.0
0.0,0.0,0.0,0.0
0.0,0.0,0.0,0.0
0.0,0.0,0.0,0.0
0.0,0.0,0.0,0.0
54.265,1.041,1.474,0.0
54.658,1.061,1.197,0.0
0.0,0.0,0.0,0.0
0.0,0.0,0.0,0.0
0.0,0.0,0.0,0.0
0.0,0.0,0.0,0.0
54.586,1.122,1.567,0.0
54.367,1.131,1.275,0.0
0.0,0.0,0.0,0.0
88.588,1.885,4.092,13.0
0.0,0.0,0.0,0.0
0.0,0.0,0.0,0.0
54.388,1.195,1.645,3.0
54.128,1.203,1.351,0.0
57.921,1.3,1.14,3.0
88.923,2.019,4.242,12.0
0.0,0.0,0.0,0.0
0.0,0.0,0.0,0.0
54.336,1.272,1.725,1.0
54.17,1.282,1.434,1.0
57.755,1.38,1.223,7.0
85.436,2.064,4.204,8.0
56.19,1.37,2.466,0.0
0.0,0.0,0.0,0.0
54.317,1.351,1.804,1.0
54.178,1.36,1.512,1.0
54.599,1.384,1.235,0.0
83.612,2.142,4.235,18.0
85.39,2.208,3.872,3.0
0.0,0.0,0.0,0.0
0.0,0.0,0.0,0.0
54.101,1.439,1.587,3.0
54.127,1.452,1.301,1.0
82.695,2.242,4.306,21.0
85.859,2.349,4.015,15.0
57.821,1.595,2.396,0.0
0.0,0.0,0.0,0.0
54.127,1.52,1.663,1.0
54.066,1.532,1.374,9.0
82.105,2.349,4.388,30.0
82.734,2.387,3.981,13.0
0.0,0.0,0.0,0.0
0.0,0.0,0.0,0.0
54.162,1.602,1.736,1.0
54.158,1.615,1.448,6.0
81.935,2.467,4.489,16.0
81.554,2.476,4.033,43.0
81.208,2.485,3.582,1.0
0.0,0.0,0.0,0.0
54.398,1.692,1.815,0.0
54.083,1.696,1.517,12.0
81.928,2.594,4.596,33.0
81.72,2.607,4.148,34.0
81.172,2.609,3.687,12.0
0.0,0.0,0.0,0.0
51.234,1.673,1.775,0.0
51.214,1.685,1.501,5.0
81.681,2.712,4.686,32.0
82.02,2.744,4.267,16.0
81.27,2.74,3.794,31.0
0.0,0.0,0.0,0.0
50.776,1.737,1.822,2.0
50.506,1.74,1.543,4.0
81.78,2.843,4.793,36.0
81.709,2.861,4.351,34.0
81.407,2.871,3.899,29.0
56.057,1.991,2.379,1.0
50.471,1.805,1.872,3.0
50.128,1.805,1.59,2.0
81.639,2.966,4.882,26.0
81.377,2.977,4.43,30.0
81.284,2.994,3.988,34.0
81.27,3.014,3.544,3.0
50.181,1.874,1.919,1.0
49.589,1.864,1.631,3.0
65.462,2.483,3.991,26.0
81.34,3.106,4.522,28.0
81.226,3.122,4.079,35.0
65.659,2.54,2.938,7.0
49.894,1.943,1.965,1.0
49.17,1.927,1.673,2.0
65.406,2.586,4.061,26.0
65.523,2.607,3.716,36.0
65.563,2.626,3.366,40.0
65.568,2.642,3.006,28.0
48.708,1.975,1.971,6.0
48.758,1.99,1.712,3.0
65.445,2.694,4.135,12.0
65.454,2.711,3.783,25.0
65.54,2.731,3.435,65.0
65.55,2.748,3.076,32.0
48.709,2.055,2.024,5.0
48.486,2.058,1.753,2.0
65.691,2.811,4.22,10.0
65.455,2.818,3.851,31.0
65.577,2.84,3.504,34.0
65.649,2.86,3.148,7.0
0.0,0.0,0.0,0.0
48.415,2.134,1.8,3.0
65.735,2.922,4.29,39.0
65.532,2.93,3.922,19.0
81.353,3.657,4.429,33.0
80.983,3.661,3.963,26.0
48.852,2.221,2.127,8.0
48.207,2.204,1.838,1.0
65.669,3.027,4.349,42.0
81.518,3.778,4.957,36.0
81.294,3.789,4.504,36.0
80.914,3.791,4.036,36.0
0.0,0.0,0.0,0.0
48.46,2.296,1.893,0.0
65.09,3.109,4.372,19.0
81.42,3.91,5.028,41.0
81.464,3.932,4.588,30.0
81.165,3.939,4.123,35.0
0.0,0.0,0.0,0.0
0.0,0.0,0.0,0.0
65.03,3.215,4.427,21.0
81.535,4.052,5.107,25.0
81.436,4.067,4.659,39.0
81.282,4.08,4.2,38.0
0.0,0.0,0.0,0.0
0.0,0.0,0.0,0.0
80.653,4.123,5.56,38.0
81.421,4.182,5.168,27.0
80.876,4.175,4.694,33.0
80.8,4.192,4.242,47.0
80.935,4.219,3.809,1.0
0.0,0.0,0.0,0.0
68.003,3.59,4.743,11.0
80.587,4.275,5.18,17.0
80.662,4.299,4.746,29.0
80.664,4.319,4.298,39.0
81.121,4.364,3.881,10.0
0.0,0.0,0.0,0.0
67.84,3.695,4.783,15.0
80.564,4.408,5.241,34.0
81.02,4.453,4.827,10.0
80.649,4.453,4.357,41.0
81.052,4.496,3.938,24.0
0.0,0.0,0.0,0.0
58.41,3.279,4.161,26.0
80.462,4.538,5.292,32.0
80.829,4.578,4.873,12.0
80.719,4.592,4.418,34.0
81.026,4.63,3.993,29.0
0.0,0.0,0.0,0.0
58.323,3.373,4.195,26.0
58.463,3.395,3.885,33.0
58.555,3.415,3.57,29.0
58.599,3.432,3.246,29.0
58.671,3.451,2.929,32.0
0.0,0.0,0.0,0.0
58.264,3.468,4.229,22.0
58.406,3.49,3.918,49.0
58.515,3.511,3.604,53.0
58.591,3.53,3.282,54.0
58.641,3.548,2.964,67.0
0.0,0.0,0.0,0.0
58.24,3.565,4.262,43.0
58.418,3.59,3.954,33.0
58.535,3.611,3.64,42.0
58.609,3.63,3.317,49.0
58.694,3.649,3.0,24.0
0.0,0.0,0.0,0.0
58.249,3.663,4.296,47.0
58.514,3.694,3.993,20.0
80.878,5.125,5.074,13.0
80.848,5.142,4.62,27.0
78.854,5.035,4.072,13.0
80.957,5.189,3.737,0.0
58.328,3.766,4.332,23.0
80.847,5.239,5.558,33.0
80.659,5.245,5.101,38.0
78.076,5.096,4.5,9.0
78.803,5.162,4.108,39.0
80.907,5.319,3.773,7.0
58.469,3.873,4.37,10.0
80.749,5.366,5.59,16.0
78.39,5.228,4.993,26.0
78.038,5.223,4.533,26.0
78.235,5.255,4.114,46.0
80.794,5.447,3.803,11.0
61.658,4.186,4.635,24.0
60.853,4.145,4.238,31.0
78.184,5.344,5.013,25.0
77.936,5.346,4.559,37.0
77.956,5.366,4.13,29.0
80.824,5.582,3.837,23.0
61.51,4.279,4.648,18.0
60.941,4.253,4.268,35.0
60.623,4.244,3.91,15.0
77.751,5.462,4.577,30.0
77.8,5.483,4.15,30.0
80.77,5.711,3.863,35.0
61.322,4.367,4.656,27.0
60.918,4.352,4.287,35.0
60.556,4.34,3.926,16.0
61.383,4.412,3.633,17.0
77.593,5.596,4.164,37.0
80.905,5.854,3.894,30.0
61.163,4.456,4.663,27.0
60.69,4.435,4.289,26.0
60.432,4.429,3.935,35.0
60.709,4.464,3.611,12.0
77.346,5.704,4.172,39.0
81.05,5.996,3.923,31.0
61.079,4.55,4.672,36.0
60.648,4.531,4.302,30.0
60.168,4.508,3.934,34.0
60.77,4.567,3.629,27.0
77.542,5.845,4.201,27.0
81.458,6.159,3.961,25.0
60.218,4.584,4.62,35.0
60.516,4.619,4.305,29.0
59.596,4.562,3.908,33.0
60.762,4.664,3.641,33.0
77.354,5.956,4.206,14.0
81.572,6.298,3.982,22.0
60.21,4.68,4.63,35.0
59.953,4.673,4.276,34.0
59.657,4.662,3.922,33.0
60.913,4.774,3.66,27.0
62.314,4.897,3.397,24.0
79.104,6.234,3.874,11.0
60.109,4.769,4.631,35.0
59.372,4.722,4.243,31.0
59.895,4.776,3.945,26.0
60.039,4.8,3.614,25.0
62.368,4.999,3.407,15.0
79.068,6.355,3.88,25.0
59.864,4.843,4.618,29.0
59.302,4.81,4.243,32.0
59.917,4.872,3.952,34.0
59.839,4.878,3.606,34.0
52.156,4.263,2.853,12.0
62.244,5.101,3.058,17.0
51.915,4.283,4.008,23.0
51.944,4.295,3.719,14.0
51.948,4.305,3.429,23.0
52.0,4.32,3.136,38.0
52.04,4.334,2.848,24.0
52.061,4.347,2.559,48.0
51.859,4.358,4.004,45.0
51.876,4.369,3.715,25.0
51.895,4.381,3.426,46.0
51.965,4.397,3.134,55.0
51.98,4.409,2.844,54.0
52.046,4.425,2.557,58.0
51.821,4.434,4.0,36.0
51.861,4.447,3.712,39.0
51.884,4.459,3.423,46.0
51.964,4.476,3.131,55.0
52.02,4.491,2.844,47.0
52.054,4.504,2.555,43.0
51.854,4.515,3.999,6.0
51.871,4.526,3.709,43.0
51.913,4.539,3.421,36.0
52.015,4.558,3.131,31.0
52.092,4.575,2.843,20.0
52.123,4.588,2.553,16.0
51.861,4.593,3.994,10.0
51.893,4.605,3.705,22.0
52.012,4.625,3.421,12.0
59.577,5.309,3.578,35.0
58.953,5.265,3.21,32.0
60.438,5.409,2.952,27.0
42.948,3.867,3.302,29.0
51.976,4.689,3.703,10.0
59.376,5.367,3.896,33.0
58.602,5.307,3.51,33.0
58.821,5.338,3.193,33.0
60.403,5.493,2.94,34.0
42.974,3.931,3.296,30.0
59.118,5.418,4.201,34.0
59.033,5.421,3.862,33.0
58.379,5.37,3.485,33.0
58.857,5.425,3.182,34.0
60.219,5.562,2.918,27.0
59.342,5.513,4.538,14.0
58.833,5.475,4.167,33.0
59.197,5.519,3.859,33.0
58.251,5.441,3.463,32.0
59.422,5.561,3.198,31.0
60.429,5.666,2.913,34.0
59.191,5.582,4.511,34.0
58.781,5.552,4.148,22.0
59.009,5.584,3.831,33.0
58.251,5.522,3.447,32.0
59.233,5.626,3.171,31.0
60.63,5.769,2.905,29.0
58.973,5.643,4.477,31.0
58.492,5.606,4.11,30.0
58.846,5.649,3.802,33.0
58.298,5.606,3.432,32.0
59.165,5.7,3.149,26.0
59.32,5.725,2.823,6.0
58.781,5.705,4.443,31.0
58.391,5.676,4.083,29.0
58.365,5.682,3.751,31.0
58.23,5.678,3.407,32.0
58.794,5.743,3.108,32.0
59.237,5.796,2.797,16.0
59.088,5.813,4.444,26.0
58.341,5.749,4.057,31.0
58.336,5.757,3.726,28.0
58.16,5.748,3.38,32.0
58.781,5.819,3.084,32.0
59.387,5.889,2.781,32.0
58.929,5.875,4.408,25.0
58.307,5.821,4.031,32.0
58.106,5.81,3.687,32.0
58.13,5.821,3.354,29.0
58.857,5.902,3.063,31.0
58.983,5.924,2.736,25.0
58.994,5.957,4.386,22.0
58.344,5.899,4.007,32.0
57.784,5.85,3.64,31.0
58.026,5.883,3.321,32.0
58.807,5.972,3.033,27.0
58.878,5.988,2.703,26.0
59.784,6.111,4.416,36.0
58.2,5.957,3.969,32.0
57.79,5.923,3.612,31.0
58.018,5.954,3.292,28.0
58.387,6.0,2.982,32.0
58.829,6.054,2.672,21.0
58.874,6.09,4.318,21.0
57.986,6.005,3.923,32.0
57.768,5.99,3.581,28.0
57.982,6.02,3.259,29.0
58.488,6.08,2.956,32.0
58.818,6.123,2.64,19.0
59.308,6.204,4.318,19.0
57.686,6.042,3.872,31.0
57.769,6.057,3.549,27.0
58.116,6.101,3.234,32.0
58.627,6.163,2.93,27.0
58.51,6.159,2.592,32.0
59.029,6.243,4.263,22.0
57.668,6.106,3.837,28.0
57.902,6.137,3.523,32.0
58.375,6.195,3.214,33.0
58.69,6.236,2.897,30.0
58.3,6.202,2.548,26.0
58.759,6.281,4.208,34.0
57.743,6.178,3.806,30.0
58.063,6.219,3.496,28.0
58.174,6.238,3.166,32.0
58.525,6.283,2.853,31.0
58.586,6.297,2.522,30.0
58.52,6.319,4.153,34.0
57.759,6.242,3.77,32.0
58.095,6.285,3.46,30.0
58.223,6.306,3.131,32.0
58.303,6.321,2.803,32.0
58.436,6.343,2.478,27.0
58.038,6.328,4.079,23.0
57.487,6.274,3.712,25.0
57.898,6.325,3.409,28.0
58.184,6.362,3.088,32.0
58.638,6.419,2.778,32.0
58.45,6.405,2.437,28.0
57.856,6.367,4.026,16.0
54.203,5.97,3.461,26.0
57.513,6.34,3.345,14.0
58.175,6.42,3.046,32.0
58.728,6.487,2.74,32.0
58.535,6.472,2.398,30.0
57.842,6.422,3.982,19.0
54.131,6.015,3.417,28.0
57.421,6.386,3.297,31.0
58.046,6.461,2.995,29.0
58.299,6.495,2.677,32.0
58.913,6.571,2.369,33.0
57.551,6.445,3.917,21.0
54.338,6.09,3.388,28.0
57.43,6.441,3.252,31.0
57.95,6.505,2.945,28.0
58.494,6.572,2.638,32.0
59.47,6.688,2.344,34.0
53.967,6.093,3.63,24.0
54.668,6.176,3.364,29.0
57.7,6.523,3.221,31.0
57.971,6.559,2.9,10.0
59.086,6.691,2.618,26.0
59.744,6.771,2.307,18.0
53.995,6.143,3.588,24.0
46.47,5.29,2.822,15.0
57.842,6.589,3.181,27.0
55.479,6.325,2.729,14.0
59.106,6.743,2.57,22.0
59.487,6.792,2.247,12.0
46.492,5.328,3.049,9.0
46.442,5.325,2.78,31.0
46.514,5.337,2.519,11.0
46.53,5.343,2.248,4.0
59.339,6.819,2.528,20.0
59.158,6.803,2.183,12.0
46.457,5.361,3.007,30.0
46.395,5.357,2.737,39.0
46.44,5.365,2.473,34.0
46.479,5.373,2.205,26.0
46.45,5.373,1.938,42.0
46.427,5.374,1.672,25.0
46.412,5.391,2.962,40.0
46.386,5.39,2.694,48.0
46.42,5.397,2.43,45.0
46.414,5.4,2.16,48.0
46.408,5.402,1.894,40.0
46.386,5.403,1.628,35.0
46.386,5.421,2.917,52.0
46.381,5.422,2.651,57.0
46.408,5.428,2.387,54.0
46.392,5.429,2.116,44.0
46.38,5.431,1.85,36.0
46.357,5.431,1.585,42.0
46.376,5.45,2.874,52.0
46.38,5.453,2.607,47.0
46.399,5.458,2.343,52.0
46.378,5.458,2.072,47.0
46.361,5.459,1.805,36.0
46.354,5.461,1.54,47.0
46.383,5.481,2.829,47.0
46.392,5.483,2.563,48.0
46.377,5.484,2.297,57.0
46.378,5.487,2.026,49.0
46.337,5.484,1.759,41.0
46.351,5.489,1.494,45.0
46.385,5.508,2.783,45.0
46.385,5.51,2.516,53.0
46.387,5.512,2.25,54.0
46.373,5.513,1.979,49.0
46.358,5.513,1.713,38.0
46.349,5.515,1.448,45.0
46.404,5.536,2.737,45.0
46.392,5.536,2.47,50.0
46.376,5.535,2.203,42.0
46.37,5.537,1.932,41.0
46.364,5.538,1.667,42.0
46.35,5.539,1.401,40.0
46.418,5.561,2.691,38.0
46.405,5.56,2.424,40.0
46.388,5.56,2.156,37.0
46.373,5.56,1.885,38.0
46.371,5.561,1.619,42.0
46.367,5.563,1.354,31.0
46.438,5.585,2.643,16.0
46.417,5.583,2.375,21.0
46.398,5.582,2.109,31.0
46.382,5.581,1.837,27.0
46.379,5.583,1.571,27.0
46.38,5.585,1.305,15.0
46.469,5.607,2.596,12.0
46.433,5.604,2.326,14.0
46.418,5.603,2.06,20.0
46.374,5.599,1.787,19.0
46.399,5.603,1.522,17.0
46.415,5.607,1.257,11.0
54.835,6.637,3.004,10.0
46.474,5.626,2.279,7.0
46.436,5.622,2.01,20.0
46.409,5.62,1.738,15.0
58.802,7.122,1.866,8.0
46.423,5.624,1.207,12.0
54.65,6.633,2.934,30.0
58.967,7.157,2.827,7.0
46.444,5.638,1.96,14.0
54.411,6.606,1.978,7.0
58.805,7.14,1.8,15.0
46.433,5.639,1.155,13.0
54.261,6.601,2.853,29.0
58.998,7.178,2.762,19.0
53.852,6.552,2.213,11.0
54.501,6.631,1.921,22.0
58.796,7.155,1.735,24.0
46.43,5.651,1.104,12.0
54.137,6.599,2.786,23.0
58.944,7.184,2.695,21.0
53.887,6.568,2.153,18.0
54.64,6.66,1.865,10.0
58.919,7.182,1.673,31.0
46.331,5.649,1.05,10.0
54.391,6.64,2.737,29.0
58.875,7.187,2.624,17.0
58.642,7.158,2.278,8.0
54.539,6.658,1.799,16.0
58.899,7.19,1.606,32.0
46.118,5.63,0.993,10.0
54.607,6.675,2.686,29.0
58.764,7.182,2.552,15.0
54.673,6.681,2.061,19.0
54.515,6.662,1.737,15.0
0.0,0.0,0.0,0.0
45.747,5.59,0.933,15.0
59.03,7.221,2.836,22.0
58.636,7.172,2.48,9.0
54.538,6.67,1.993,22.0
58.834,7.194,1.807,13.0
46.516,5.688,1.161,3.0
45.611,5.577,0.877,16.0
58.997,7.22,2.766,24.0
58.575,7.167,2.409,13.0
54.539,6.672,1.93,20.0
58.823,7.195,1.738,13.0
46.459,5.682,1.106,9.0
45.206,5.529,0.817,5.0
58.973,7.218,2.695,18.0
58.569,7.167,2.339,17.0
54.63,6.683,1.869,16.0
58.993,7.216,1.673,26.0
46.321,5.665,1.048,10.0
44.052,5.387,0.744,4.0
58.894,7.206,2.623,15.0
58.612,7.169,2.273,7.0
54.588,6.675,1.804,17.0
58.873,7.198,1.602,33.0
46.066,5.631,0.988,11.0
44.028,5.381,0.692,6.0
58.724,7.18,2.546,15.0
54.646,6.679,2.056,21.0
54.507,6.66,1.737,15.0
0.0,0.0,0.0,0.0
45.702,5.581,0.927,16.0
44.009,5.374,0.641,4.0
58.615,7.159,2.472,8.0
54.52,6.656,1.985,18.0
58.82,7.179,1.805,14.0
46.462,5.669,1.154,11.0
45.581,5.56,0.871,18.0
43.96,5.361,0.588,1.0
53.824,6.565,2.206,17.0
54.578,6.653,1.924,19.0
58.804,7.166,1.735,25.0
46.405,5.653,1.098,12.0
44.814,5.457,0.803,3.0
42.337,5.154,0.516,0.0
53.889,6.56,2.145,7.0
63.606,7.739,2.167,9.0
58.979,7.173,1.67,27.0
46.236,5.621,1.038,13.0
44.095,5.359,0.738,4.0
40.088,4.87,0.441,0.0
46.447,5.642,1.793,9.0
58.841,7.143,1.934,7.0
46.462,5.638,1.26,8.0
45.997,5.579,0.979,12.0
44.07,5.343,0.685,6.0
36.939,4.477,0.363,0.0
46.417,5.623,1.737,16.0
46.418,5.62,1.47,11.0
46.399,5.615,1.203,13.0
45.641,5.52,0.917,13.0
44.035,5.324,0.632,4.0
36.287,4.385,0.313,0.0
46.405,5.605,1.681,27.0
46.405,5.601,1.415,14.0
46.359,5.593,1.148,17.0
45.399,5.474,0.859,10.0
43.827,5.282,0.577,0.0
33.964,4.091,0.253,0.0
46.382,5.583,1.625,33.0
46.379,5.579,1.359,26.0
46.307,5.567,1.091,16.0
44.491,5.345,0.789,3.0
40.512,4.865,0.486,0.0
32.756,3.931,0.206,0.0
46.373,5.561,1.571,47.0
46.365,5.556,1.304,33.0
46.178,5.53,1.034,11.0
44.141,5.282,0.731,5.0
40.497,4.843,0.438,0.0
31.781,3.799,0.162,1.0
46.366,5.537,1.515,51.0
46.354,5.531,1.25,33.0
45.931,5.477,0.974,10.0
44.155,5.261,0.68,5.0
36.801,4.382,0.355,0.0
29.387,3.497,0.116,0.0
46.358,5.51,1.461,44.0
46.343,5.504,1.195,30.0
45.686,5.422,0.916,10.0
44.081,5.228,0.627,3.0
36.771,4.358,0.313,0.0
29.301,3.47,0.081,2.0
46.357,5.483,1.407,41.0
46.322,5.474,1.141,26.0
45.441,5.366,0.859,5.0
42.87,5.058,0.56,1.0
33.104,3.903,0.243,0.0
29.136,3.433,0.047,1.0
46.349,5.453,1.354,37.0
46.299,5.442,1.087,17.0
44.536,5.23,0.791,3.0
40.78,4.785,0.486,1.0
32.532,3.814,0.202,1.0
27.574,3.231,0.013,0.0
46.37,5.423,1.302,33.0
46.194,5.397,1.032,12.0
44.3,5.172,0.736,5.0
40.654,4.742,0.439,0.0
32.123,3.744,0.163,1.0
26.439,3.079,-0.016,0.0
46.391,5.392,1.249,29.0
45.887,5.328,0.973,9.0
44.31,5.14,0.686,6.0
37.129,4.303,0.359,0.0
29.373,3.401,0.116,2.0
26.109,3.021,-0.046,1.0
46.413,5.359,1.197,28.0
45.64,5.264,0.916,10.0
44.298,5.104,0.635,3.0
35.468,4.082,0.302,0.0
29.315,3.371,0.082,5.0
25.526,2.933,-0.073,1.0
46.421,5.322,1.145,16.0
45.456,5.205,0.862,10.0
43.041,4.923,0.57,2.0
33.921,3.876,0.252,0.0
29.142,3.327,0.049,1.0
24.264,2.767,-0.096,1.0
46.397,5.279,1.093,10.0
44.767,5.088,0.799,3.0
43.326,4.918,0.526,0.0
32.281,3.66,0.204,0.0
27.624,3.129,0.017,0.0
23.906,2.705,-0.121,2.0
46.2,5.214,1.038,9.0
44.584,5.026,0.747,4.0
39.597,4.459,0.438,0.0
29.429,3.31,0.154,0.0
26.48,2.975,-0.012,1.0
23.656,2.655,-0.145,1.0
45.994,5.148,0.985,9.0
44.577,4.983,0.7,4.0
37.672,4.206,0.376,0.0
29.378,3.276,0.123,5.0
26.106,2.908,-0.039,2.0
22.623,2.517,-0.163,0.0
45.75,5.075,0.931,12.0
44.6,4.941,0.653,4.0
0.0,0.0,0.0,0.0
29.318,3.24,0.092,5.0
25.755,2.843,-0.065,1.0
21.782,2.401,-0.179,0.0
45.562,5.007,0.879,12.0
44.512,4.885,0.605,1.0
34.006,3.727,0.268,0.0
29.01,3.175,0.06,3.0
24.304,2.657,-0.087,1.0
21.523,2.35,-0.2,3.0
45.218,4.921,0.826,8.0
42.306,4.597,0.532,0.0
32.623,3.54,0.224,0.0
27.74,3.006,0.03,0.0
24.171,2.616,-0.111,2.0
21.368,2.309,-0.22,2.0
44.958,4.842,0.776,4.0
38.354,4.125,0.444,0.0
32.017,3.438,0.188,0.0
26.833,2.877,0.002,0.0
23.891,2.558,-0.133,0.0
20.977,2.243,-0.237,0.0
44.944,4.789,0.732,4.0
38.419,4.088,0.407,0.0
31.604,3.357,0.155,0.0
26.135,2.772,-0.022,1.0
23.072,2.444,-0.151,0.0
20.409,2.159,-0.25,0.0
44.996,4.742,0.69,4.0
0.0,0.0,0.0,0.0
29.274,3.075,0.116,0.0
25.936,2.72,-0.047,1.0
22.117,2.316,-0.166,0.0
19.753,2.065,-0.26,0.0
45.128,4.7,0.649,6.0
34.794,3.618,0.303,0.0
29.162,3.027,0.088,1.0
25.184,2.61,-0.069,0.0
21.92,2.268,-0.184,3.0
19.502,2.015,-0.275,0.0
45.381,4.669,0.611,0.0
33.53,3.444,0.261,0.0
28.789,2.952,0.06,0.0
24.58,2.516,-0.09,0.0
21.674,2.215,-0.202,4.0
19.053,1.943,-0.286,0.0
41.193,4.184,0.517,0.0
32.532,3.299,0.224,1.0
27.688,2.802,0.033,0.0
24.135,2.438,-0.109,0.0
21.317,2.15,-0.217,3.0
18.737,1.887,-0.297,0.0
39.562,3.966,0.463,0.0
31.881,3.19,0.192,0.0
26.792,2.676,0.009,0.0
23.511,2.344,-0.127,0.0
21.143,2.104,-0.234,1.0
18.416,1.829,-0.308,0.0
36.328,3.592,0.394,0.0
29.304,2.892,0.152,2.0
26.108,2.571,-0.012,1.0
22.967,2.258,-0.143,0.0
20.76,2.037,-0.247,0.0
18.185,1.781,-0.319,0.0
35.751,3.484,0.358,0.0
29.307,2.851,0.128,5.0
25.912,2.515,-0.033,1.0
22.467,2.177,-0.158,1.0
20.439,1.976,-0.259,0.0
17.834,1.721,-0.327,0.0
35.447,3.404,0.327,0.0
29.234,2.802,0.105,5.0
25.45,2.434,-0.052,1.0
22.229,2.121,-0.173,4.0
19.662,1.872,-0.265,0.0
17.576,1.67,-0.336,0.0
34.245,3.238,0.29,0.0
29.118,2.747,0.082,3.0
24.965,2.35,-0.07,0.0
21.863,2.053,-0.187,4.0
19.38,1.816,-0.275,0.0
17.368,1.625,-0.345,0.0
33.354,3.104,0.258,1.0
28.656,2.66,0.059,1.0
24.597,2.278,-0.087,0.0
21.707,2.006,-0.201,4.0
19.127,1.764,-0.285,0.0
17.231,1.585,-0.355,0.0
32.489,2.974,0.228,0.0
27.425,2.504,0.038,0.0
24.32,2.215,-0.103,0.0
21.531,1.956,-0.215,1.0
18.745,1.699,-0.293,0.0
16.998,1.537,-0.361,0.0
32.031,2.881,0.203,0.0
26.762,2.401,0.019,1.0
24.006,2.148,-0.118,0.0
21.253,1.897,-0.226,0.0
18.53,1.65,-0.302,0.0
16.794,1.492,-0.368,0.0
31.282,2.763,0.178,0.0
26.394,2.326,0.001,1.0
23.163,2.036,-0.129,0.0
20.936,1.835,-0.236,0.0
18.29,1.599,-0.309,0.0
16.649,1.452,-0.375,0.0
30.293,2.626,0.153,0.0
26.252,2.27,-0.014,1.0
22.994,1.983,-0.142,1.0
20.271,1.743,-0.241,0.0
18.072,1.55,-0.317,0.0
16.435,1.406,-0.38,0.0
29.616,2.519,0.132,1.0
25.81,2.189,-0.029,0.0
22.815,1.929,-0.154,1.0
20.144,1.699,-0.251,0.0
17.878,1.504,-0.323,0.0
16.282,1.366,-0.386,0.0
29.332,2.445,0.114,1.0
25.57,2.125,-0.043,0.0
22.654,1.877,-0.165,1.0
19.717,1.629,-0.256,0.0
17.668,1.456,-0.329,0.0
16.149,1.327,-0.392,0.0
29.239,2.388,0.099,1.0
25.324,2.062,-0.056,0.0
22.514,1.827,-0.176,1.0
19.471,1.576,-0.263,0.0
17.509,1.413,-0.335,0.0
16.038,1.29,-0.397,0.0
28.459,2.275,0.082,1.0
24.953,1.988,-0.067,0.0
22.272,1.769,-0.185,1.0
19.329,1.53,-0.271,0.0
17.385,1.372,-0.341,0.0
15.967,1.256,-0.402,0.0
27.917,2.182,0.067,1.0
24.446,1.904,-0.077,0.0
21.896,1.7,-0.192,0.0
19.191,1.485,-0.277,0.0
17.164,1.324,-0.344,0.0
15.83,1.217,-0.406,0.0
27.722,2.117,0.055,1.0
24.266,1.847,-0.087,1.0
21.713,1.647,-0.199,0.0
19.127,1.446,-0.284,0.0
17.097,1.288,-0.35,0.0
15.706,1.179,-0.409,0.0
27.548,2.054,0.044,1.0
24.173,1.796,-0.096,2.0
21.559,1.596,-0.206,0.0
18.941,1.397,-0.288,0.0
16.995,1.249,-0.354,0.0
15.682,1.149,-0.414,0.0
27.205,1.978,0.033,0.0
24.074,1.744,-0.104,3.0
21.456,1.549,-0.212,0.0
18.698,1.345,-0.291,0.0
16.91,1.212,-0.358,0.0
15.637,1.116,-0.418,0.0
26.951,1.91,0.024,0.0
24.046,1.698,-0.111,3.0
21.339,1.501,-0.218,0.0
18.59,1.302,-0.295,0.0
16.777,1.171,-0.36,0.0
15.544,1.081,-0.42,0.0
26.822,1.851,0.017,0.0
24.023,1.651,-0.118,2.0
21.222,1.453,-0.222,0.0
18.533,1.264,-0.299,0.0
16.757,1.138,-0.364,0.0
15.439,1.044,-0.421,0.0
26.726,1.794,0.01,0.0
24.005,1.605,-0.124,0.0
20.865,1.389,-0.224,0.0
18.4,1.22,-0.301,0.0
16.65,1.099,-0.365,0.0
15.275,1.004,-0.42,0.0
26.61,1.735,0.004,0.0
23.679,1.537,-0.127,0.0
20.945,1.354,-0.229,0.0
18.341,1.18,-0.304,0.0
16.687,1.069,-0.369,0.0
15.258,0.974,-0.422,0.0
26.438,1.673,0.0,0.0
23.632,1.489,-0.131,0.0
21.01,1.317,-0.233,0.0
18.264,1.14,-0.306,0.0
16.646,1.034,-0.371,0.0
15.244,0.943,-0.424,0.0
26.42,1.62,-0.004,1.0
23.502,1.435,-0.133,0.0
20.967,1.274,-0.235,0.0
18.27,1.105,-0.308,0.0
16.561,0.997,-0.371,0.0
15.264,0.914,-0.427,0.0
26.319,1.563,-0.006,0.0
23.314,1.378,-0.135,0.0
20.907,1.229,-0.236,0.0
18.198,1.065,-0.308,0.0
16.538,0.963,-0.372,0.0
15.224,0.882,-0.426,0.0
26.286,1.509,-0.008,0.0
23.297,1.33,-0.136,0.0
20.898,1.187,-0.237,0.0
18.162,1.026,-0.309,0.0
16.514,0.928,-0.372,0.0
15.269,0.854,-0.428,0.0
26.329,1.459,-0.009,0.0
23.251,1.281,-0.136,0.0
21.049,1.154,-0.239,0.0
18.111,0.987,-0.308,0.0
16.476,0.893,-0.371,0.0
15.107,0.814,-0.424,0.0
26.377,1.409,-0.009,0.0
23.282,1.236,-0.136,0.0
20.845,1.1,-0.237,0.0
18.115,0.951,-0.307,0.0
16.502,0.862,-0.371,0.0
15.226,0.79,-0.426,0.0
26.393,1.357,-0.007,1.0
23.322,1.192,-0.135,0.0
21.005,1.067,-0.237,0.0
18.126,0.915,-0.306,0.0
16.534,0.83,-0.371,0.0
15.212,0.759,-0.425,0.0
26.528,1.311,-0.005,1.0
23.161,1.137,-0.132,0.0
20.706,1.01,-0.232,0.0
18.144,0.88,-0.305,0.0
16.531,0.796,-0.369,0.0
15.269,0.731,-0.424,0.0
26.472,1.254,-0.002,0.0
23.231,1.093,-0.129,1.0
20.736,0.97,-0.229,0.0
18.1,0.841,-0.301,0.0
16.597,0.766,-0.368,0.0
15.359,0.704,-0.425,0.0
26.612,1.207,0.001,0.0
23.458,1.057,-0.127,1.0
21.154,0.946,-0.23,1.0
18.192,0.808,-0.3,0.0
16.619,0.733,-0.365,0.0
15.285,0.669,-0.42,0.0
26.693,1.156,0.007,0.0
23.58,1.014,-0.123,1.0
21.374,0.913,-0.228,0.0
18.311,0.776,-0.298,0.0
16.669,0.701,-0.362,0.0
15.448,0.645,-0.42,0.0
26.973,1.114,0.013,0.0
23.986,0.982,-0.119,1.0
21.355,0.868,-0.223,0.0
18.35,0.74,-0.293,0.0
16.777,0.671,-0.36,0.0
15.514,0.616,-0.418,0.0
27.118,1.064,0.021,1.0
24.167,0.941,-0.113,1.0
21.369,0.825,-0.216,1.0
18.501,0.708,-0.29,0.0
16.775,0.637,-0.355,0.0
15.615,0.588,-0.416,0.0
27.264,1.014,0.029,0.0
24.382,0.899,-0.106,1.0
21.563,0.788,-0.211,1.0
18.716,0.678,-0.287,0.0
16.858,0.606,-0.351,0.0
15.627,0.556,-0.411,0.0
27.466,0.966,0.039,0.0
24.477,0.853,-0.098,1.0
21.646,0.747,-0.204,1.0
18.875,0.645,-0.283,0.0
16.944,0.574,-0.346,0.0
15.7,0.527,-0.406,0.0
27.642,0.915,0.05,0.0
24.708,0.81,-0.089,1.0
21.801,0.708,-0.197,1.0
19.052,0.613,-0.278,0.0
17.069,0.543,-0.342,0.0
15.815,0.498,-0.403,0.0
28.256,0.878,0.064,0.0
25.046,0.77,-0.079,0.0
22.039,0.67,-0.189,0.0
19.248,0.579,-0.272,0.0
17.2,0.512,-0.336,0.0
15.856,0.467,-0.396,0.0
28.738,0.834,0.078,1.0
25.242,0.724,-0.067,0.0
22.262,0.632,-0.18,0.0
19.581,0.549,-0.267,0.0
17.371,0.481,-0.331,0.0
15.946,0.437,-0.39,0.0
28.87,0.778,0.093,4.0
25.524,0.68,-0.055,0.0
22.657,0.596,-0.171,0.0
19.734,0.512,-0.258,0.0
17.529,0.45,-0.324,0.0
16.08,0.407,-0.385,0.0
28.884,0.72,0.109,3.0
25.942,0.638,-0.042,0.0
23.015,0.558,-0.161,0.0
19.953,0.477,-0.25,0.0
17.745,0.419,-0.318,0.0
16.245,0.378,-0.379,0.0
28.84,0.66,0.126,1.0
26.199,0.59,-0.026,0.0
23.369,0.519,-0.15,0.0
20.264,0.444,-0.242,0.0
17.936,0.387,-0.311,0.0
16.407,0.348,-0.373,0.0
28.955,0.603,0.144,0.0
26.566,0.545,-0.01,0.0
23.594,0.476,-0.136,0.0
20.481,0.406,-0.231,0.0
18.217,0.356,-0.304,0.0
16.584,0.318,-0.366,0.0
28.952,0.545,0.164,0.0
26.866,0.497,0.007,0.0
24.05,0.437,-0.123,0.0
20.797,0.371,-0.22,0.0
18.391,0.322,-0.294,0.0
16.721,0.287,-0.357,0.0
31.206,0.524,0.198,0.0
27.271,0.449,0.026,0.0
24.389,0.393,-0.107,0.0
21.677,0.343,-0.214,0.0
18.598,0.288,-0.284,0.0
16.874,0.256,-0.348,0.0
31.765,0.47,0.225,0.0
27.8,0.402,0.047,0.0
24.63,0.348,-0.09,0.0
21.818,0.301,-0.199,1.0
19.008,0.256,-0.276,0.0
17.082,0.225,-0.339,0.0
32.274,0.413,0.253,0.0
28.73,0.358,0.071,2.0
25.367,0.308,-0.073,0.0
22.035,0.261,-0.184,1.0
19.355,0.223,-0.265,0.0
17.298,0.194,-0.33,0.0
32.94,0.357,0.285,0.0
28.796,0.303,0.094,5.0
25.81,0.263,-0.053,0.0
22.458,0.222,-0.169,0.0
19.964,0.19,-0.257,0.0
17.579,0.162,-0.321,0.0
0.0,0.0,0.0,0.0
28.857,0.246,0.119,5.0
26.225,0.215,-0.032,0.0
23.19,0.183,-0.154,0.0
20.5,0.155,-0.246,0.0
17.935,0.13,-0.311,0.0
34.214,0.236,0.354,0.0
28.82,0.19,0.144,0.0
26.795,0.168,-0.008,0.0
23.623,0.14,-0.136,0.0
20.967,0.118,-0.233,1.0
18.199,0.096,-0.3,0.0
35.792,0.178,0.403,0.0
30.221,0.141,0.179,0.0
27.199,0.118,0.016,0.0
24.307,0.098,-0.118,0.0
21.322,0.079,-0.217,4.0
18.556,0.063,-0.288,0.0
36.229,0.111,0.442,0.0
31.535,0.086,0.216,0.0
28.185,0.068,0.043,1.0
24.779,0.052,-0.096,0.0
21.658,0.038,-0.2,1.0
19.051,0.027,-0.277,0.0
37.855,0.043,0.499,0.0
0.0,0.0,0.0,0.0
28.474,0.014,0.072,1.0
25.401,0.005,-0.073,0.0
22.177,-0.002,-0.182,0.0
19.684,-0.008,-0.266,0.0
39.575,-0.029,0.562,0.0
33.128,-0.035,0.294,1.0
28.793,-0.039,0.102,7.0
25.849,-0.043,-0.048,0.0
23.182,-0.046,-0.166,0.0
20.152,-0.046,-0.252,0.0
39.765,-0.104,0.606,0.0
33.256,-0.097,0.33,0.0
28.841,-0.093,0.133,6.0
26.453,-0.094,-0.021,0.0
23.727,-0.091,-0.145,0.0
20.734,-0.086,-0.237,0.0
0.0,0.0,0.0,0.0
0.0,0.0,0.0,0.0
28.863,-0.147,0.164,0.0
27.248,-0.147,0.007,0.0
24.358,-0.139,-0.122,0.0
21.509,-0.129,-0.222,0.0
43.827,-0.276,0.764,0.0
36.083,-0.238,0.437,0.0
31.577,-0.218,0.215,1.0
28.248,-0.204,0.039,1.0
24.786,-0.186,-0.096,0.0
22.174,-0.173,-0.203,1.0
0.0,0.0,0.0,0.0
0.0,0.0,0.0,0.0
32.234,-0.281,0.256,1.0
28.664,-0.259,0.073,3.0
25.407,-0.237,-0.069,0.0
22.659,-0.218,-0.181,0.0
0.0,0.0,0.0,0.0
0.0,0.0,0.0,0.0
32.942,-0.346,0.301,1.0
28.725,-0.31,0.107,1.0
26.167,-0.291,-0.04,0.0
23.13,-0.264,-0.157,1.0
0.0,0.0,0.0,0.0
0.0,0.0,0.0,0.0
33.95,-0.417,0.351,0.0
28.819,-0.362,0.143,0.0
26.794,-0.345,-0.008,0.0
23.629,-0.311,-0.132,0.0
0.0,0.0,0.0,0.0
43.6,-0.599,0.736,0.0
35.812,-0.502,0.415,0.0
30.928,-0.443,0.192,0.0
27.659,-0.404,0.026,0.0
24.63,-0.367,-0.106,0.0
0.0,0.0,0.0,0.0
0.0,0.0,0.0,0.0
0.0,0.0,0.0,0.0
31.854,-0.51,0.238,0.0
28.386,-0.463,0.062,1.0
25.165,-0.418,-0.076,0.0
0.0,0.0,0.0,0.0
0.0,0.0,0.0,0.0
0.0,0.0,0.0,0.0
33.301,-0.59,0.292,2.0
28.694,-0.516,0.1,3.0
26.136,-0.478,-0.045,0.0
0.0,0.0,0.0,0.0
0.0,0.0,0.0,0.0
41.793,-0.797,0.647,0.0
34.017,-0.659,0.344,1.0
28.777,-0.565,0.139,2.0
26.856,-0.535,-0.011,0.0
80.104,-1.616,2.191,0.0
0.0,0.0,0.0,0.0
0.0,0.0,0.0,0.0
34.898,-0.732,0.4,0.0
31.09,-0.661,0.192,0.0
27.705,-0.597,0.026,0.0
0.0,0.0,0.0,0.0
0.0,0.0,0.0,0.0
0.0,0.0,0.0,0.0
37.832,-0.855,0.485,0.0
31.969,-0.73,0.242,0.0
28.616,-0.662,0.066,4.0
93.279,-2.18,2.808,1.0
0.0,0.0,0.0,0.0
0.0,0.0,0.0,0.0
0.0,0.0,0.0,0.0
33.121,-0.808,0.297,1.0
28.698,-0.708,0.107,6.0
96.747,-2.411,3.048,4.0
0.0,0.0,0.0,0.0
0.0,0.0,0.0,0.0
0.0,0.0,0.0,0.0
0.0,0.0,0.0,0.0
28.801,-0.755,0.148,1.0
92.397,-2.445,3.045,22.0
0.0,0.0,0.0,0.0
0.0,0.0,0.0,0.0
0.0,0.0,0.0,0.0
0.0,0.0,0.0,0.0
31.479,-0.873,0.208,0.0
92.321,-2.581,3.177,168.0
0.0,0.0,0.0,0.0
0.0,0.0,0.0,0.0
47.343,-1.36,0.88,0.0
37.563,-1.088,0.502,0.0
32.334,-0.944,0.262,0.0
92.254,-2.716,3.313,48.0
0.0,0.0,0.0,0.0
0.0,0.0,0.0,0.0
0.0,0.0,0.0,0.0
39.777,-1.21,0.591,0.0
0.0,0.0,0.0,0.0
92.262,-2.849,3.452,50.0
92.562,-2.88,2.978,4.0
0.0,0.0,0.0,0.0
0.0,0.0,0.0,0.0
0.0,0.0,0.0,0.0
35.387,-1.134,0.394,0.0
92.275,-2.978,3.592,151.0
92.175,-2.997,3.106,22.0
0.0,0.0,0.0,0.0
0.0,0.0,0.0,0.0
0.0,0.0,0.0,0.0
37.284,-1.247,0.473,0.0
92.199,-3.103,3.733,22.0
92.191,-3.123,3.25,86.0
0.0,0.0,0.0,0.0
0.0,0.0,0.0,0.0
0.0,0.0,0.0,0.0
0.0,0.0,0.0,0.0
92.228,-3.226,3.876,1.0
92.222,-3.246,3.394,161.0
92.58,-3.279,2.924,1.0
0.0,0.0,0.0,0.0
0.0,0.0,0.0,0.0
0.0,0.0,0.0,0.0
0.0,0.0,0.0,0.0
92.211,-3.364,3.538,150.0
92.169,-3.383,3.056,16.0
0.0,0.0,0.0,0.0
0.0,0.0,0.0,0.0
0.0,0.0,0.0,0.0
113.399,-4.257,5.126,16.0
92.183,-3.479,3.684,34.0
92.115,-3.496,3.2,101.0
0.0,0.0,0.0,0.0
0.0,0.0,0.0,0.0
0.0,0.0,0.0,0.0
195.015,-7.563,9.13,5.0
92.25,-3.595,3.837,5.0
92.15,-3.61,3.351,126.0
0.0,0.0,0.0,0.0
0.0,0.0,0.0,0.0
0.0,0.0,0.0,0.0
113.47,-4.536,5.496,6.0
0.0,0.0,0.0,0.0
92.178,-3.719,3.502,19.0
92.387,-3.746,3.018,7.0
