X,Y,Z,Reflectivity
59.523,5.089,5.068,11.0
51.813,4.426,4.111,43.0
51.861,4.426,3.815,29.0
51.869,4.424,3.511,33.0
51.948,4.427,3.217,60.0
51.987,4.428,2.92,49.0
51.72,4.411,4.329,33.0
51.827,4.416,4.038,36.0
51.871,4.416,3.742,19.0
51.879,4.413,3.436,37.0
51.956,4.416,3.142,56.0
51.993,4.416,2.845,49.0
51.754,4.401,4.256,42.0
51.836,4.404,3.963,40.0
51.858,4.401,3.665,25.0
51.921,4.402,3.364,38.0
51.972,4.403,3.068,50.0
52.028,4.404,2.772,52.0
51.805,4.39,4.185,38.0
51.854,4.39,3.889,33.0
51.872,4.387,3.59,26.0
51.944,4.388,3.29,47.0
51.985,4.388,2.992,40.0
52.042,4.389,2.696,49.0
51.846,4.376,4.112,41.0
51.875,4.373,3.814,27.0
51.881,4.369,3.514,48.0
51.969,4.372,3.215,49.0
51.995,4.37,2.916,32.0
52.062,4.371,2.62,49.0
51.868,4.358,4.037,44.0
51.88,4.354,3.737,25.0
51.91,4.351,3.439,42.0
51.969,4.352,3.138,40.0
52.056,4.354,2.843,35.0
52.084,4.352,2.544,30.0
51.881,4.337,3.961,49.0
51.896,4.333,3.661,23.0
51.964,4.333,3.366,25.0
52.003,4.331,3.063,23.0
52.068,4.332,2.766,22.0
52.151,4.334,2.47,13.0
51.908,4.314,3.884,19.0
51.926,4.31,3.585,33.0
52.007,4.311,3.29,17.0
52.025,4.308,2.986,17.0
52.115,4.31,2.69,15.0
62.338,5.149,2.86,21.0
52.007,4.296,3.814,12.0
51.961,4.286,3.51,15.0
52.053,4.288,3.216,6.0
52.091,4.286,2.913,13.0
62.147,5.106,3.117,23.0
81.639,6.7,3.625,16.0
59.452,4.878,4.272,24.0
60.056,4.92,3.968,34.0
59.902,4.9,3.612,34.0
62.127,5.076,3.381,19.0
79.294,6.47,3.86,15.0
62.79,5.116,2.695,12.0
59.352,4.834,4.176,24.0
59.427,4.833,3.837,28.0
60.037,4.875,3.531,20.0
62.161,5.04,3.291,24.0
81.648,6.611,3.852,12.0
62.977,5.092,2.608,6.0
59.655,4.82,4.107,31.0
59.26,4.781,3.737,27.0
62.465,5.031,3.579,6.0
62.372,5.016,3.209,36.0
81.63,6.555,3.729,32.0
81.435,6.53,3.253,20.0
59.723,4.785,4.023,22.0
60.412,4.831,3.72,27.0
62.361,4.98,3.48,16.0
79.175,6.312,3.955,29.0
81.814,6.512,3.616,24.0
48.886,3.885,1.879,12.0
59.659,4.736,3.929,34.0
61.856,4.902,3.717,24.0
62.279,4.927,3.384,26.0
81.605,6.445,3.956,30.0
81.804,6.449,3.494,32.0
48.842,3.845,1.806,5.0
59.544,4.681,3.833,13.0
62.099,4.874,3.64,10.0
62.186,4.871,3.287,8.0
81.646,6.384,3.837,38.0
81.608,6.371,3.366,21.0
47.736,3.72,1.695,4.0
60.847,4.735,3.827,36.0
77.25,6.0,4.414,27.0
81.48,6.316,4.187,28.0
81.869,6.334,3.727,30.0
48.944,3.78,1.947,6.0
47.657,3.674,1.622,9.0
60.642,4.667,3.725,26.0
77.487,5.952,4.313,22.0
81.49,6.246,4.067,11.0
81.69,6.25,3.599,26.0
48.709,3.719,1.866,2.0
47.659,3.632,1.552,56.0
60.99,4.639,3.656,36.0
77.428,5.877,4.196,29.0
81.433,6.168,3.944,29.0
81.643,6.171,3.477,15.0
48.171,3.634,1.775,1.0
47.359,3.565,1.473,11.0
61.339,4.608,3.587,9.0
77.299,5.794,4.075,28.0
81.288,6.08,3.818,30.0
48.93,3.652,2.012,1.0
47.71,3.553,1.688,3.0
47.298,3.515,1.402,16.0
77.656,5.758,4.427,23.0
77.313,5.719,3.962,13.0
81.229,5.995,3.697,23.0
0.0,0.0,0.0,0.0
47.497,3.49,1.611,8.0
47.292,3.467,1.333,21.0
77.465,5.665,4.304,36.0
80.897,5.901,4.03,28.0
49.166,3.578,2.166,1.0
48.433,3.516,1.851,0.0
47.367,3.431,1.539,13.0
47.29,3.417,1.265,22.0
77.706,5.6,4.206,29.0
80.766,5.806,3.908,34.0
0.0,0.0,0.0,0.0
47.838,3.422,1.76,2.0
47.282,3.374,1.469,19.0
47.281,3.366,1.198,150.0
77.803,5.522,4.1,22.0
80.834,5.722,3.796,9.0
0.0,0.0,0.0,0.0
47.597,3.352,1.684,4.0
47.238,3.318,1.401,28.0
47.269,3.311,1.131,153.0
78.061,5.452,4.003,9.0
0.0,0.0,0.0,0.0
0.0,0.0,0.0,0.0
47.422,3.285,1.611,10.0
47.265,3.265,1.335,153.0
47.305,3.259,1.065,1.0
78.108,5.363,3.896,10.0
0.0,0.0,0.0,0.0
48.191,3.289,1.851,0.0
47.284,3.218,1.54,13.0
47.246,3.207,1.269,165.0
47.287,3.201,0.999,4.0
80.791,5.449,3.917,18.0
0.0,0.0,0.0,0.0
47.758,3.201,1.768,2.0
47.209,3.155,1.472,18.0
47.237,3.148,1.203,161.0
47.309,3.143,0.934,2.0
80.836,5.35,3.808,1.0
0.0,0.0,0.0,0.0
47.554,3.127,1.695,5.0
47.191,3.094,1.407,36.0
47.242,3.088,1.139,153.0
51.062,3.328,0.94,1.0
0.0,0.0,0.0,0.0
0.0,0.0,0.0,0.0
47.387,3.055,1.625,9.0
47.232,3.035,1.345,153.0
47.321,3.031,1.077,2.0
52.164,3.331,0.889,3.0
0.0,0.0,0.0,0.0
48.083,3.045,1.86,0.0
47.282,2.985,1.558,13.0
47.221,2.971,1.281,163.0
47.237,2.962,1.012,5.0
47.292,2.956,0.744,0.0
0.0,0.0,0.0,0.0
47.838,2.964,1.787,2.0
47.204,2.915,1.494,25.0
47.215,2.905,1.22,167.0
47.307,2.901,0.952,3.0
43.452,2.655,0.626,0.0
0.0,0.0,0.0,0.0
47.537,2.879,1.714,5.0
47.183,2.847,1.431,63.0
47.204,2.838,1.158,3.0
54.226,3.248,1.021,0.0
39.1,2.333,0.513,0.0
0.0,0.0,0.0,0.0
47.4,2.802,1.648,10.0
47.211,2.78,1.371,40.0
47.216,2.769,1.098,1.0
47.875,2.797,0.84,7.0
37.082,2.158,0.439,0.0
48.146,2.786,1.887,0.0
47.325,2.727,1.584,13.0
47.235,2.71,1.312,32.0
47.237,2.699,1.038,8.0
48.074,2.737,0.783,5.0
35.07,1.988,0.371,0.0
47.847,2.696,1.815,2.0
47.257,2.651,1.523,14.0
47.26,2.64,1.253,31.0
47.298,2.631,0.98,3.0
44.563,2.468,0.67,0.0
33.948,1.872,0.317,0.0
47.592,2.608,1.747,4.0
47.268,2.578,1.465,13.0
47.288,2.567,1.196,19.0
47.356,2.56,0.924,0.0
0.0,0.0,0.0,0.0
32.744,1.754,0.266,0.0
47.522,2.529,1.687,14.0
47.314,2.506,1.41,18.0
47.306,2.493,1.14,10.0
49.295,2.586,0.903,3.0
37.884,1.978,0.478,0.0
31.313,1.627,0.217,1.0
47.581,2.456,1.633,150.0
47.365,2.432,1.355,20.0
47.323,2.418,1.085,4.0
49.663,2.525,0.852,3.0
36.512,1.847,0.419,0.0
30.529,1.537,0.176,0.0
47.499,2.374,1.575,17.0
47.389,2.357,1.302,18.0
47.345,2.342,1.032,1.0
0.0,0.0,0.0,0.0
34.224,1.675,0.353,0.0
29.569,1.44,0.138,0.0
47.414,2.291,1.519,8.0
47.434,2.279,1.25,16.0
47.561,2.273,0.983,0.0
43.632,2.074,0.65,0.0
33.406,1.579,0.308,0.0
28.791,1.353,0.102,0.0
47.476,2.214,1.468,13.0
47.451,2.2,1.198,18.0
47.715,2.199,0.934,0.0
0.0,0.0,0.0,0.0
32.469,1.479,0.264,1.0
28.199,1.277,0.069,0.0
47.605,2.138,1.421,4.0
47.654,2.126,1.152,0.0
47.734,2.117,0.883,0.0
0.0,0.0,0.0,0.0
31.476,1.379,0.223,1.0
27.379,1.192,0.039,0.0
48.208,2.081,1.388,2.0
0.0,0.0,0.0,0.0
47.935,2.042,0.838,0.0
36.674,1.553,0.43,0.0
30.892,1.299,0.187,0.0
26.795,1.119,0.01,0.0
48.5,2.008,1.348,3.0
49.094,2.018,1.086,0.0
0.0,0.0,0.0,0.0
0.0,0.0,0.0,0.0
29.006,1.168,0.146,0.0
26.309,1.052,-0.015,0.0
49.127,1.945,1.316,2.0
50.061,1.967,1.058,0.0
0.0,0.0,0.0,0.0
33.484,1.297,0.325,0.0
28.911,1.111,0.118,1.0
25.817,0.985,-0.04,10.0
49.619,1.874,1.282,2.0
50.709,1.9,1.023,3.0
0.0,0.0,0.0,0.0
33.0,1.218,0.29,1.0
28.614,1.047,0.089,1.0
25.51,0.927,-0.063,1.0
50.32,1.808,1.253,0.0
50.646,1.805,0.975,1.0
38.978,1.377,0.53,0.0
31.992,1.121,0.251,0.0
28.101,0.976,0.062,0.0
24.605,0.848,-0.083,1.0
0.0,0.0,0.0,0.0
0.0,0.0,0.0,0.0
36.342,1.217,0.462,0.0
31.36,1.04,0.219,0.0
27.316,0.898,0.037,0.0
24.488,0.798,-0.104,0.0
54.548,1.756,1.262,0.0
46.39,1.478,0.812,0.0
35.499,1.121,0.421,0.0
29.024,0.908,0.178,1.0
26.938,0.835,0.013,0.0
23.736,0.728,-0.121,0.0
0.0,0.0,0.0,0.0
45.515,1.363,0.758,0.0
35.232,1.044,0.388,0.0
28.994,0.851,0.153,5.0
26.666,0.774,-0.008,0.0
23.446,0.674,-0.139,1.0
56.34,1.596,1.211,6.0
0.0,0.0,0.0,0.0
0.0,0.0,0.0,0.0
28.927,0.792,0.13,6.0
26.147,0.708,-0.029,0.0
23.27,0.622,-0.156,0.0
56.813,1.497,1.176,4.0
0.0,0.0,0.0,0.0
33.539,0.862,0.317,1.0
28.885,0.734,0.108,5.0
25.746,0.646,-0.048,0.0
22.601,0.56,-0.169,0.0
57.443,1.4,1.146,0.0
0.0,0.0,0.0,0.0
32.77,0.778,0.286,0.0
28.833,0.675,0.087,3.0
25.312,0.584,-0.065,0.0
22.241,0.506,-0.182,0.0
47.796,1.07,0.92,0.0
37.134,0.819,0.506,0.0
32.16,0.699,0.258,0.0
28.598,0.612,0.066,1.0
24.871,0.524,-0.081,0.0
21.99,0.456,-0.195,1.0
0.0,0.0,0.0,0.0
36.962,0.741,0.479,0.0
31.257,0.616,0.23,0.0
27.458,0.532,0.045,0.0
24.62,0.468,-0.097,0.0
21.761,0.407,-0.207,0.0
0.0,0.0,0.0,0.0
0.0,0.0,0.0,0.0
0.0,0.0,0.0,0.0
27.157,0.471,0.027,0.0
24.235,0.412,-0.11,0.0
21.379,0.356,-0.217,0.0
43.337,0.706,0.75,0.0
35.77,0.57,0.419,0.0
28.928,0.452,0.177,0.0
26.839,0.41,0.011,0.0
23.969,0.358,-0.123,0.0
21.001,0.306,-0.225,0.0
42.925,0.611,0.718,0.0
35.148,0.488,0.392,0.0
28.904,0.392,0.16,3.0
26.63,0.352,-0.003,0.0
23.627,0.304,-0.134,0.0
20.549,0.257,-0.232,0.0
41.045,0.499,0.665,0.0
34.216,0.405,0.363,0.0
28.904,0.332,0.145,6.0
26.425,0.295,-0.016,0.0
23.377,0.253,-0.145,0.0
20.307,0.212,-0.239,0.0
0.0,0.0,0.0,0.0
34.177,0.334,0.346,0.0
28.874,0.271,0.131,5.0
26.122,0.236,-0.029,0.0
22.984,0.2,-0.153,0.0
20.152,0.169,-0.247,0.0
0.0,0.0,0.0,0.0
33.449,0.256,0.323,0.0
28.84,0.211,0.118,1.0
25.801,0.18,-0.04,0.0
22.65,0.15,-0.161,0.0
19.95,0.125,-0.253,0.0
39.122,0.231,0.579,0.0
33.202,0.185,0.307,0.0
28.729,0.15,0.105,1.0
25.655,0.125,-0.05,0.0
22.691,0.103,-0.171,1.0
19.695,0.082,-0.258,0.0
39.084,0.149,0.563,0.0
32.662,0.113,0.289,0.0
28.714,0.089,0.094,3.0
25.466,0.07,-0.06,0.0
22.312,0.053,-0.176,0.0
19.335,0.039,-0.26,0.0
37.362,0.063,0.525,0.0
33.054,0.044,0.281,0.0
28.624,0.028,0.084,1.0
25.359,0.016,-0.068,0.0
22.194,0.006,-0.183,0.0
19.171,-0.001,-0.264,0.0
37.933,-0.015,0.521,0.0
31.677,-0.024,0.259,0.0
28.664,-0.031,0.076,3.0
25.094,-0.037,-0.075,0.0
22.073,-0.04,-0.188,0.0
19.105,-0.041,-0.269,0.0
37.74,-0.096,0.508,0.0
31.648,-0.091,0.25,0.0
28.54,-0.093,0.067,3.0
25.062,-0.09,-0.081,0.0
21.96,-0.087,-0.193,0.0
18.977,-0.082,-0.272,0.0
36.74,-0.172,0.485,0.0
31.584,-0.159,0.242,1.0
28.506,-0.153,0.061,1.0
24.834,-0.142,-0.086,0.0
21.989,-0.134,-0.198,1.0
18.919,-0.122,-0.275,0.0
36.894,-0.251,0.48,0.0
31.683,-0.227,0.236,1.0
28.29,-0.213,0.055,1.0
24.736,-0.195,-0.091,0.0
22.071,-0.182,-0.203,0.0
18.801,-0.162,-0.277,0.0
36.568,-0.327,0.469,0.0
31.596,-0.294,0.231,1.0
27.749,-0.268,0.049,0.0
24.524,-0.246,-0.093,0.0
21.849,-0.227,-0.204,0.0
18.807,-0.202,-0.279,0.0
0.0,0.0,0.0,0.0
31.581,-0.362,0.226,0.0
27.896,-0.33,0.046,0.0
24.754,-0.302,-0.097,0.0
21.846,-0.274,-0.206,0.0
18.654,-0.241,-0.279,0.0
0.0,0.0,0.0,0.0
31.238,-0.425,0.221,0.0
27.916,-0.389,0.044,0.0
24.634,-0.353,-0.099,0.0
21.852,-0.321,-0.208,0.0
18.52,-0.279,-0.278,0.0
36.228,-0.557,0.454,0.0
31.19,-0.491,0.219,0.0
27.793,-0.448,0.042,0.0
24.542,-0.404,-0.099,0.0
21.836,-0.368,-0.209,0.0
18.523,-0.319,-0.279,0.0
35.903,-0.629,0.45,0.0
31.401,-0.562,0.22,0.0
27.866,-0.509,0.042,0.0
24.626,-0.458,-0.1,0.0
21.796,-0.414,-0.208,0.0
18.658,-0.361,-0.281,0.0
36.201,-0.711,0.454,0.0
31.398,-0.628,0.221,0.0
27.926,-0.569,0.043,0.0
24.597,-0.51,-0.099,1.0
21.916,-0.463,-0.208,0.0
18.693,-0.402,-0.28,0.0
36.45,-0.794,0.459,0.0
31.27,-0.692,0.222,0.0
27.853,-0.627,0.045,0.0
24.626,-0.564,-0.097,0.0
21.95,-0.51,-0.207,0.0
18.827,-0.445,-0.281,0.0
35.909,-0.859,0.456,0.0
31.305,-0.759,0.226,0.0
28.171,-0.694,0.048,1.0
0.0,0.0,0.0,0.0
22.02,-0.558,-0.205,0.0
18.812,-0.484,-0.278,0.0
36.563,-0.951,0.469,0.0
31.42,-0.829,0.231,0.0
28.058,-0.75,0.052,0.0
0.0,0.0,0.0,0.0
21.618,-0.594,-0.198,1.0
19.019,-0.53,-0.278,0.0
37.621,-1.058,0.489,0.0
31.483,-0.897,0.237,0.0
28.308,-0.817,0.058,1.0
0.0,0.0,0.0,0.0
21.743,-0.643,-0.195,0.0
19.174,-0.575,-0.276,0.0
36.339,-1.099,0.479,0.0
32.055,-0.98,0.248,0.0
28.29,-0.876,0.064,1.0
25.038,-0.784,-0.082,0.0
21.73,-0.688,-0.19,0.0
19.231,-0.617,-0.273,0.0
37.056,-1.198,0.498,0.0
31.83,-1.04,0.254,0.0
28.491,-0.942,0.072,1.0
25.234,-0.843,-0.076,0.0
22.236,-0.751,-0.188,1.0
19.275,-0.658,-0.268,0.0
38.183,-1.313,0.524,0.0
31.941,-1.11,0.264,0.0
28.532,-1.002,0.08,3.0
25.233,-0.895,-0.068,0.0
22.306,-0.8,-0.182,0.0
19.35,-0.701,-0.263,0.0
0.0,0.0,0.0,0.0
32.536,-1.199,0.279,1.0
28.619,-1.065,0.09,7.0
25.638,-0.963,-0.061,0.0
22.629,-0.859,-0.177,0.0
19.51,-0.747,-0.259,0.0
39.023,-1.504,0.561,0.0
32.578,-1.267,0.291,0.0
28.618,-1.124,0.1,7.0
25.743,-1.02,-0.052,0.0
22.78,-0.911,-0.17,2.0
19.565,-0.79,-0.252,0.0
0.0,0.0,0.0,0.0
33.521,-1.372,0.313,0.0
28.609,-1.181,0.111,7.0
25.92,-1.079,-0.041,3.0
23.035,-0.968,-0.162,1.0
19.697,-0.834,-0.246,0.0
39.14,-1.666,0.595,0.0
33.704,-1.447,0.329,0.0
28.612,-1.238,0.124,4.0
26.075,-1.138,-0.03,3.0
23.257,-1.023,-0.153,1.0
20.524,-0.911,-0.247,0.0
0.0,0.0,0.0,0.0
34.088,-1.531,0.348,0.0
28.537,-1.292,0.137,0.0
26.396,-1.205,-0.018,1.0
23.504,-1.081,-0.144,1.0
20.955,-0.972,-0.242,0.0
0.0,0.0,0.0,0.0
34.186,-1.604,0.366,0.0
30.396,-1.437,0.161,0.0
27.152,-1.293,-0.005,1.0
23.68,-1.137,-0.132,1.0
21.261,-1.028,-0.234,0.0
0.0,0.0,0.0,0.0
0.0,0.0,0.0,0.0
30.516,-1.503,0.178,0.0
27.504,-1.364,0.009,3.0
23.765,-1.187,-0.12,1.0
21.227,-1.068,-0.222,0.0
43.958,-2.219,0.757,0.0
36.09,-1.835,0.427,0.0
31.168,-1.595,0.2,0.0
27.723,-1.428,0.025,2.0
24.013,-1.246,-0.107,0.0
21.89,-1.143,-0.216,0.0
34.603,-1.813,0.617,1.0
34.835,-1.837,0.432,0.0
31.781,-1.687,0.223,0.0
28.26,-1.51,0.043,5.0
34.252,-1.843,-0.132,3.0
22.239,-1.204,-0.206,0.0
34.258,-1.86,0.632,0.0
34.717,-1.897,0.453,0.0
31.61,-1.738,0.241,0.0
28.49,-1.577,0.061,6.0
34.233,-1.906,-0.11,5.0
22.392,-1.255,-0.193,0.0
34.104,-1.916,0.651,0.0
34.707,-1.962,0.476,0.0
32.229,-1.833,0.268,0.0
28.506,-1.631,0.08,8.0
34.177,-1.967,-0.087,0.0
22.687,-1.313,-0.18,0.0
34.046,-1.976,0.674,0.0
34.726,-2.027,0.5,4.0
0.0,0.0,0.0,0.0
28.536,-1.685,0.101,6.0
25.701,-1.526,-0.047,0.0
22.988,-1.373,-0.166,0.0
33.994,-2.036,0.697,0.0
34.719,-2.09,0.525,6.0
32.296,-1.955,0.315,0.0
28.525,-1.736,0.121,5.0
26.047,-1.594,-0.028,0.0
23.478,-1.445,-0.152,0.0
33.973,-2.096,0.722,0.0
34.478,-2.138,0.547,5.0
34.053,-2.123,0.358,0.0
30.228,-1.894,0.152,0.0
26.912,-1.696,-0.008,0.0
23.792,-1.507,-0.135,0.0
33.985,-2.157,0.749,0.0
34.214,-2.183,0.57,1.0
0.0,0.0,0.0,0.0
30.359,-1.956,0.177,0.0
27.559,-1.785,0.012,0.0
23.976,-1.561,-0.117,0.0
33.82,-2.206,0.773,0.0
33.964,-2.226,0.594,1.0
37.717,-2.485,0.457,0.0
0.0,0.0,0.0,0.0
28.03,-1.865,0.036,0.0
24.526,-1.64,-0.099,0.0
33.871,-2.269,0.803,0.0
33.948,-2.285,0.622,1.0
34.653,-2.343,0.45,0.0
0.0,0.0,0.0,0.0
28.519,-1.946,0.061,0.0
25.761,-1.766,-0.082,0.0
33.857,-2.325,0.832,4.0
33.83,-2.334,0.65,0.0
34.483,-2.389,0.477,1.0
32.099,-2.234,0.269,0.0
33.911,-2.371,0.103,1.0
33.936,-2.384,-0.078,3.0
33.881,-2.384,0.863,72.0
33.873,-2.394,0.681,156.0
34.397,-2.441,0.508,3.0
33.977,-2.422,0.316,2.0
29.552,-2.115,0.117,0.0
33.929,-2.439,-0.046,2.0
33.846,-2.437,0.893,36.0
33.863,-2.448,0.712,157.0
34.261,-2.487,0.537,5.0
35.079,-2.558,0.359,0.0
30.147,-2.207,0.148,1.0
33.937,-2.495,-0.014,3.0
33.834,-2.491,0.925,69.0
33.843,-2.501,0.744,166.0
34.051,-2.526,0.567,4.0
35.552,-2.648,0.398,2.0
30.7,-2.296,0.18,0.0
33.9,-2.546,0.018,2.0
33.843,-2.545,0.958,120.0
33.867,-2.556,0.778,155.0
33.896,-2.568,0.597,8.0
37.928,-2.885,0.462,0.0
31.553,-2.409,0.216,0.0
33.886,-2.597,0.051,2.0
33.843,-2.597,0.992,149.0
33.86,-2.607,0.811,155.0
33.81,-2.613,0.63,43.0
34.412,-2.669,0.454,0.0
32.353,-2.519,0.254,0.0
33.878,-2.647,0.086,2.0
33.824,-2.646,1.026,133.0
33.877,-2.66,0.847,150.0
33.84,-2.666,0.665,154.0
34.388,-2.719,0.489,3.0
0.0,0.0,0.0,0.0
33.899,-2.699,0.121,0.0
33.813,-2.696,1.061,142.0
33.798,-2.704,0.88,44.0
33.823,-2.714,0.701,152.0
34.196,-2.754,0.523,5.0
33.701,-2.723,0.336,0.0
30.154,-2.445,0.14,0.0
33.802,-2.744,1.097,143.0
33.819,-2.754,0.917,84.0
33.828,-2.764,0.737,156.0
34.001,-2.786,0.556,3.0
0.0,0.0,0.0,0.0
30.785,-2.539,0.176,0.0
33.807,-2.792,1.134,152.0
33.823,-2.802,0.954,150.0
33.826,-2.811,0.774,157.0
33.815,-2.819,0.591,3.0
37.294,-3.118,0.453,0.0
31.7,-2.659,0.217,0.0
33.791,-2.837,1.171,16.0
33.804,-2.847,0.992,146.0
33.804,-2.855,0.812,20.0
33.783,-2.862,0.628,1.0
34.42,-2.925,0.457,1.0
32.18,-2.743,0.257,0.0
33.822,-2.885,1.211,7.0
33.805,-2.892,1.03,114.0
33.79,-2.899,0.85,31.0
33.787,-2.906,0.667,9.0
34.314,-2.96,0.495,4.0
33.911,-2.934,0.309,0.0
33.804,-2.928,1.249,30.0
33.786,-2.934,1.069,106.0
33.792,-2.942,0.889,54.0
33.759,-2.948,0.706,0.0
34.074,-2.983,0.531,2.0
35.538,-3.12,0.366,0.0
33.827,-2.973,1.29,64.0
33.8,-2.978,1.109,72.0
33.801,-2.985,0.929,81.0
33.77,-2.99,0.745,0.0
33.957,-3.015,0.569,1.0
35.996,-3.204,0.413,0.0
33.814,-3.013,1.329,36.0
33.777,-3.017,1.149,22.0
33.795,-3.026,0.97,77.0
33.759,-3.03,0.786,3.0
33.825,-3.043,0.608,0.0
34.411,-3.104,0.435,0.0
33.885,-3.059,1.373,2.0
33.816,-3.06,1.19,7.0
33.796,-3.065,1.01,51.0
33.781,-3.071,0.827,21.0
33.862,-3.086,0.65,0.0
34.365,-3.139,0.477,4.0
34.082,-3.116,1.423,0.0
33.825,-3.1,1.232,9.0
33.79,-3.103,1.052,44.0
33.786,-3.11,0.869,26.0
33.834,-3.121,0.691,150.0
34.179,-3.16,0.517,3.0
34.202,-3.166,1.47,0.0
33.827,-3.137,1.275,20.0
33.795,-3.14,1.094,29.0
33.797,-3.147,0.911,25.0
33.8,-3.154,0.732,8.0
33.943,-3.174,0.555,1.0
34.433,-3.223,1.523,0.0
33.825,-3.172,1.317,9.0
33.803,-3.176,1.137,9.0
33.807,-3.183,0.954,19.0
33.814,-3.19,0.775,2.0
33.828,-3.198,0.596,0.0
34.454,-3.261,1.568,0.0
34.0,-3.223,1.367,0.0
33.848,-3.215,1.181,4.0
33.817,-3.218,0.997,18.0
33.804,-3.223,0.818,6.0
33.836,-3.232,0.639,0.0
34.649,-3.313,1.621,0.0
34.156,-3.271,1.417,0.0
33.859,-3.249,1.225,2.0
33.868,-3.255,1.042,11.0
33.833,-3.257,0.861,7.0
33.876,-3.267,0.683,0.0
34.766,-3.357,1.671,0.0
34.354,-3.322,1.469,1.0
33.87,-3.28,1.268,5.0
33.898,-3.289,1.086,10.0
33.842,-3.288,0.905,7.0
33.82,-3.292,0.725,0.0
35.06,-3.416,1.73,0.0
34.46,-3.363,1.518,0.0
33.906,-3.314,1.313,1.0
33.849,-3.313,1.128,5.0
33.853,-3.319,0.949,7.0
33.838,-3.322,0.77,2.0
0.0,0.0,0.0,0.0
34.762,-3.422,1.576,1.0
34.258,-3.377,1.372,0.0
33.855,-3.342,1.173,2.0
33.937,-3.355,0.996,153.0
33.897,-3.356,0.815,4.0
159.014,-15.762,8.265,17.0
35.095,-3.482,1.637,1.0
34.496,-3.427,1.426,0.0
33.92,-3.375,1.219,2.0
33.899,-3.377,1.039,176.0
33.889,-3.381,0.86,4.0
158.871,-15.869,8.467,17.0
35.669,-3.567,1.711,2.0
34.803,-3.484,1.485,0.0
33.917,-3.399,1.264,1.0
33.963,-3.408,1.086,152.0
33.903,-3.407,0.905,4.0
158.98,-15.995,8.683,15.0
35.954,-3.621,1.773,0.0
35.072,-3.536,1.543,0.0
34.13,-3.445,1.317,0.0
33.892,-3.424,1.128,2.0
33.97,-3.436,0.951,152.0
158.63,-16.067,8.876,5.0
159.009,-16.119,8.052,17.0
35.71,-3.623,1.618,0.0
34.859,-3.541,1.391,0.0
33.944,-3.451,1.175,1.0
33.961,-3.456,0.996,150.0
160.037,-16.31,9.167,12.0
159.108,-16.229,8.268,16.0
36.24,-3.699,1.69,0.0
35.268,-3.603,1.455,0.0
34.06,-3.483,1.224,0.0
33.95,-3.475,1.04,44.0
160.339,-16.435,9.398,13.0
159.033,-16.313,8.475,16.0
159.297,-16.353,7.644,19.0
35.718,-3.669,1.52,0.0
34.266,-3.523,1.277,0.0
34.005,-3.499,1.087,0.0
160.28,-16.516,9.607,16.0
158.625,-16.355,8.666,15.0
159.283,-16.435,7.854,17.0
36.378,-3.756,1.596,0.0
35.202,-3.637,1.358,2.0
34.101,-3.526,1.135,0.0
159.981,-16.565,9.801,9.0
158.388,-16.408,8.861,17.0
159.124,-16.494,8.057,18.0
160.018,-16.597,7.235,12.0
35.595,-3.694,1.42,0.0
34.224,-3.554,1.184,1.0
0.0,0.0,0.0,0.0
158.504,-16.491,9.078,13.0
159.033,-16.553,8.263,17.0
159.907,-16.653,7.441,18.0
36.717,-3.825,1.513,0.0
34.43,-3.589,1.237,0.0
175.403,-18.311,11.21,5.0
159.961,-16.704,9.373,8.0
158.89,-16.599,8.463,16.0
159.705,-16.69,7.642,18.0
155.538,-16.263,6.617,4.0
35.452,-3.708,1.32,1.0
175.184,-18.352,11.425,16.0
160.0,-16.764,9.584,15.0
158.673,-16.631,8.659,15.0
159.06,-16.677,7.819,19.0
0.0,0.0,0.0,0.0
35.782,-3.754,1.379,1.0
175.06,-18.394,11.65,23.0
0.0,0.0,0.0,0.0
158.555,-16.666,8.863,12.0
159.329,-16.75,8.044,14.0
159.873,-16.812,7.221,14.0
155.308,-16.338,6.19,4.0
174.963,-18.432,11.876,16.0
159.757,-16.83,9.993,7.0
158.598,-16.71,9.076,5.0
159.43,-16.8,8.259,16.0
159.74,-16.836,7.426,17.0
155.047,-16.345,6.385,12.0
142.496,-15.044,9.862,11.0
175.008,-18.475,11.178,5.0
160.087,-16.901,9.371,8.0
159.177,-16.806,8.453,18.0
159.844,-16.876,7.639,16.0
154.857,-16.352,6.578,3.0
142.586,-15.079,10.053,20.0
174.912,-18.496,11.398,17.0
160.251,-16.944,9.588,10.0
159.202,-16.832,8.659,17.0
159.568,-16.871,7.83,16.0
0.0,0.0,0.0,0.0
142.907,-15.132,10.26,20.0
174.776,-18.503,11.614,19.0
159.879,-16.922,9.77,13.0
159.319,-16.861,8.869,17.0
159.944,-16.926,8.052,12.0
159.841,-16.913,7.198,14.0
143.14,-15.17,10.46,19.0
174.805,-18.521,11.837,16.0
159.726,-16.917,9.964,10.0
159.264,-16.865,9.07,10.0
159.422,-16.879,8.227,13.0
159.739,-16.91,7.393,15.0
143.232,-15.186,10.648,16.0
142.537,-15.106,9.834,12.0
174.799,-18.52,11.125,6.0
160.006,-16.947,9.312,6.0
159.125,-16.848,8.413,16.0
159.785,-16.914,7.595,16.0
143.011,-15.163,10.812,18.0
142.569,-15.109,10.015,20.0
174.831,-18.52,11.346,16.0
160.006,-16.942,9.512,8.0
159.188,-16.85,8.614,18.0
159.689,-16.897,7.79,14.0
143.185,-15.174,11.006,14.0
142.87,-15.133,10.215,20.0
174.827,-18.508,11.563,21.0
159.964,-16.926,9.706,12.0
159.263,-16.845,8.813,14.0
159.651,-16.879,7.982,9.0
143.77,-15.224,11.227,8.0
143.017,-15.135,10.4,17.0
174.842,-18.491,11.778,20.0
159.95,-16.907,9.9,10.0
0.0,0.0,0.0,0.0
159.61,-16.852,8.175,11.0
142.548,-15.077,11.305,9.0
143.196,-15.133,10.587,19.0
142.414,-15.041,9.763,10.0
159.915,-16.877,10.09,6.0
0.0,0.0,0.0,0.0
159.199,-16.781,8.341,14.0
142.655,-15.062,11.484,15.0
143.036,-15.091,10.744,14.0
142.484,-15.021,9.937,19.0
175.091,-18.444,11.255,7.0
160.093,-16.851,9.434,13.0
158.859,-16.71,8.51,15.0
142.6,-15.026,11.647,15.0
143.174,-15.073,10.923,11.0
142.466,-14.985,10.103,19.0
175.01,-18.393,11.453,19.0
160.181,-16.821,9.624,15.0
158.729,-16.655,8.686,14.0
142.798,-15.009,11.831,13.0
147.531,-15.491,11.428,3.0
142.555,-14.955,10.273,17.0
175.123,-18.355,11.66,23.0
0.0,0.0,0.0,0.0
158.488,-16.583,8.85,15.0
142.89,-14.976,12.0,6.0
142.375,-14.906,11.187,9.0
142.957,-14.952,10.463,15.0
175.224,-18.307,11.864,19.0
161.567,-16.865,10.069,4.0
158.402,-16.519,9.021,12.0
143.073,-14.947,12.175,10.0
142.403,-14.858,11.35,20.0
143.029,-14.907,10.629,18.0
143.124,-14.9,9.85,12.0
175.453,-18.248,11.13,14.0
158.577,-16.475,9.207,3.0
142.948,-14.878,12.324,19.0
142.335,-14.795,11.501,17.0
142.978,-14.844,10.781,16.0
142.744,-14.802,9.979,19.0
175.544,-18.182,11.326,19.0
160.137,-16.568,9.471,16.0
142.938,-14.816,12.477,9.0
142.47,-14.746,11.667,21.0
142.873,-14.77,10.926,5.0
143.617,-14.828,10.193,11.0
175.706,-18.118,11.522,19.0
160.362,-16.517,9.651,15.0
144.45,-14.906,12.761,10.0
142.839,-14.717,11.846,19.0
152.467,-15.688,11.819,3.0
143.778,-14.774,10.353,7.0
175.896,-18.05,11.716,17.0
160.529,-16.452,9.827,14.0
142.443,-14.625,12.734,10.0
142.615,-14.621,11.974,14.0
143.182,-14.657,11.246,10.0
151.033,-15.438,11.03,6.0
143.452,-14.642,9.701,13.0
160.236,-16.333,9.971,13.0
143.852,-14.691,13.005,10.0
142.466,-14.525,12.106,14.0
143.145,-14.572,11.386,17.0
142.729,-14.508,10.565,12.0
143.539,-14.568,9.848,18.0
176.201,-17.857,11.136,13.0
144.097,-14.631,13.168,4.0
142.697,-14.464,12.264,17.0
143.081,-14.479,11.519,18.0
147.223,-14.875,11.039,5.0
143.73,-14.499,9.998,22.0
176.448,-17.772,11.319,18.0
142.755,-14.404,13.183,8.0
142.811,-14.385,12.411,12.0
142.782,-14.358,11.63,11.0
147.006,-14.757,11.162,10.0
143.604,-14.391,10.124,20.0
176.72,-17.683,11.5,9.0
142.746,-14.309,13.315,13.0
142.796,-14.287,12.541,9.0
144.701,-14.452,11.92,7.0
0.0,0.0,0.0,0.0
143.616,-14.293,10.254,13.0
143.871,-14.294,9.492,12.0
143.214,-14.254,13.489,13.0
144.282,-14.334,12.8,14.0
144.737,-14.351,12.052,14.0
145.434,-14.393,11.303,14.0
143.378,-14.164,10.363,13.0
143.887,-14.19,9.617,3.0
143.486,-14.174,13.64,13.0
144.567,-14.254,12.951,19.0
144.757,-14.244,12.177,16.0
145.178,-14.258,11.406,14.0
142.619,-13.979,10.429,9.0
150.535,-14.727,10.189,11.0
143.319,-14.047,13.745,17.0
144.882,-14.171,13.101,15.0
144.714,-14.124,12.295,10.0
145.365,-14.16,11.54,8.0
147.452,-14.335,10.902,6.0
143.369,-13.911,9.819,9.0
143.275,-13.926,13.857,14.0
144.464,-14.011,13.18,6.0
148.967,-14.418,12.773,3.0
145.122,-14.016,11.635,14.0
142.449,-13.73,10.642,4.0
143.553,-13.809,9.941,12.0
143.216,-13.8,13.961,14.0
144.451,-13.887,13.289,12.0
147.618,-14.16,12.771,5.0
153.981,-14.738,12.462,4.0
146.262,-13.969,11.037,7.0
151.412,-14.431,10.599,16.0
143.844,-13.733,14.13,15.0
144.441,-13.758,13.394,15.0
146.48,-13.92,12.779,7.0
0.0,0.0,0.0,0.0
145.454,-13.761,11.08,12.0
145.955,-13.779,10.319,10.0
0.0,0.0,0.0,0.0
144.389,-13.62,13.492,7.0
146.699,-13.806,12.899,10.0
145.499,-13.661,11.98,3.0
145.453,-13.625,11.178,19.0
153.394,-14.337,10.948,5.0
145.202,-13.593,14.466,15.0
148.301,-13.85,13.955,4.0
146.782,-13.674,13.003,10.0
147.199,-13.68,12.216,4.0
145.441,-13.486,11.27,12.0
146.277,-13.533,10.531,8.0
0.0,0.0,0.0,0.0
145.769,-13.471,13.809,10.0
145.486,-13.411,12.979,10.0
145.059,-13.338,12.127,11.0
144.723,-13.275,11.302,14.0
146.358,-13.392,10.627,11.0
146.098,-13.389,14.735,17.0
0.0,0.0,0.0,0.0
145.042,-13.224,13.024,19.0
146.371,-13.311,12.321,11.0
144.704,-13.126,11.384,19.0
145.134,-13.132,10.619,10.0
145.964,-13.227,14.805,18.0
146.733,-13.258,14.07,15.0
145.079,-13.074,13.109,14.0
147.358,-13.244,12.486,10.0
144.355,-12.94,11.435,18.0
144.732,-12.941,10.667,17.0
145.817,-13.055,14.868,14.0
146.421,-13.073,14.118,14.0
145.527,-12.957,13.225,16.0
148.526,-13.189,12.66,5.0
144.527,-12.799,11.521,16.0
144.449,-12.758,10.718,10.0
145.63,-12.879,14.922,20.0
145.899,-12.865,14.139,12.0
148.5,-13.057,13.567,3.0
153.095,-13.423,13.123,3.0
144.748,-12.656,11.607,11.0
145.92,-12.723,10.895,7.0
145.663,-12.717,14.992,15.0
145.203,-12.641,14.135,13.0
148.241,-12.867,13.608,4.0
151.652,-13.125,13.064,6.0
144.709,-12.488,11.664,6.0
145.574,-12.528,10.929,10.0
145.833,-12.566,15.07,17.0
145.386,-12.489,14.213,22.0
146.823,-12.575,13.536,11.0
146.193,-12.484,12.65,9.0
145.658,-12.4,11.797,3.0
145.73,-12.372,10.995,7.0
145.602,-12.375,15.1,11.0
145.496,-12.327,14.277,15.0
144.821,-12.232,13.404,15.0
145.299,-12.235,12.625,11.0
154.136,-12.94,12.537,6.0
145.717,-12.198,11.043,14.0
146.909,-12.311,15.285,14.0
146.976,-12.278,14.471,5.0
144.983,-12.073,13.465,14.0
145.491,-12.078,12.686,16.0
145.946,-12.078,11.914,15.0
146.566,-12.091,11.152,13.0
146.821,-12.126,15.319,14.0
147.355,-12.131,14.549,8.0
144.967,-11.895,13.504,14.0
145.676,-11.915,12.742,17.0
145.801,-11.887,11.941,11.0
146.876,-11.936,11.213,8.0
146.635,-11.928,15.338,9.0
148.404,-12.031,14.691,5.0
144.91,-11.71,13.533,11.0
145.377,-11.707,12.751,13.0
145.79,-11.704,11.973,13.0
146.824,-11.748,11.24,4.0
146.483,-11.732,15.352,11.0
145.685,-11.627,14.451,13.0
145.077,-11.539,13.578,10.0
145.664,-11.547,12.802,19.0
145.144,-11.467,11.947,9.0
147.165,-11.589,11.292,8.0
146.257,-11.528,15.353,11.0
148.192,-11.639,14.723,6.0
145.182,-11.361,13.61,12.0
118.962,-9.278,10.473,7.0
88.178,-6.853,7.269,9.0
147.485,-11.425,11.336,10.0
147.425,-11.427,15.495,12.0
145.776,-11.259,14.502,15.0
146.288,-11.259,13.73,5.0
119.101,-9.134,10.498,10.0
88.164,-6.738,7.277,11.0
147.249,-11.214,11.332,12.0
148.463,-11.314,15.617,4.0
145.531,-11.049,14.488,17.0
147.525,-11.159,13.858,5.0
119.312,-8.993,10.524,13.0
119.632,-8.986,9.881,6.0
147.352,-11.028,11.346,4.0
148.242,-11.1,15.6,14.0
145.614,-10.862,14.502,8.0
146.962,-10.923,13.807,12.0
119.094,-8.819,10.507,13.0
119.621,-8.825,9.882,6.0
119.139,-8.758,9.175,5.0
148.685,-10.933,15.647,11.0
146.118,-10.703,14.551,14.0
146.592,-10.696,13.771,14.0
119.085,-8.656,10.505,15.0
87.945,-6.369,7.263,14.0
88.545,-6.388,6.815,10.0
148.37,-10.706,15.607,13.0
91.544,-6.58,9.111,6.0
118.468,-8.481,11.122,9.0
88.519,-6.312,7.802,27.0
119.379,-8.479,9.85,10.0
88.643,-6.272,6.816,5.0
93.729,-6.633,9.851,5.0
91.483,-6.447,9.097,10.0
118.479,-8.317,11.111,11.0
88.635,-6.198,7.802,29.0
93.998,-6.548,7.745,9.0
118.879,-8.249,9.126,10.0
93.936,-6.517,9.86,15.0
91.625,-6.33,9.098,16.0
91.764,-6.313,8.593,23.0
88.654,-6.076,7.791,27.0
94.043,-6.419,7.733,12.0
88.55,-6.02,6.782,25.0
94.069,-6.394,9.858,15.0
91.768,-6.211,9.096,14.0
91.748,-6.184,8.573,7.0
88.82,-5.963,7.788,20.0
93.987,-6.284,7.71,12.0
88.648,-5.902,6.772,24.0
92.797,-6.176,9.704,3.0
91.691,-6.076,9.068,19.0
118.67,-7.83,11.062,9.0
88.966,-5.846,7.779,40.0
88.74,-5.806,7.257,17.0
88.322,-5.755,6.724,21.0
86.95,-5.664,9.07,14.0
87.244,-5.658,8.604,15.0
88.981,-5.745,8.27,4.0
88.86,-5.712,7.745,21.0
88.754,-5.681,7.233,10.0
88.281,-5.627,6.694,29.0
87.298,-5.56,9.079,14.0
87.325,-5.537,8.584,18.0
87.639,-5.532,8.116,7.0
89.864,-5.649,7.802,16.0
88.669,-5.549,7.196,12.0
88.969,-5.544,6.716,17.0
87.527,-5.45,9.073,24.0
87.711,-5.435,8.591,16.0
89.017,-5.491,8.212,30.0
93.923,-5.768,8.12,16.0
88.697,-5.424,7.165,22.0
88.928,-5.415,6.679,27.0
87.548,-5.325,9.039,16.0
88.01,-5.328,8.584,27.0
89.003,-5.363,8.173,25.0
94.009,-5.639,8.088,17.0
88.966,-5.312,7.149,13.0
0.0,0.0,0.0,0.0
87.397,-5.187,8.985,22.0
87.827,-5.189,8.527,20.0
88.98,-5.233,8.131,20.0
89.25,-5.224,7.638,27.0
88.908,-5.179,7.103,29.0
90.621,-5.257,6.724,6.0
87.264,-5.054,8.93,30.0
87.727,-5.056,8.474,25.0
89.526,-5.136,8.136,9.0
89.211,-5.093,7.589,30.0
88.992,-5.057,7.064,23.0
98.754,-5.585,7.277,6.0
88.181,-4.979,8.976,14.0
87.03,-4.889,8.36,19.0
89.476,-5.002,8.083,6.0
89.019,-4.953,7.524,24.0
89.387,-4.949,7.045,22.0
88.546,-4.879,6.475,6.0
88.386,-4.862,8.946,9.0
87.071,-4.765,8.313,23.0
89.464,-4.872,8.03,20.0
88.754,-4.81,7.449,13.0
89.16,-4.808,6.974,25.0
88.552,-4.752,6.422,25.0
84.618,-4.531,8.513,11.0
85.612,-4.561,8.121,13.0
88.976,-4.716,7.93,14.0
90.077,-4.75,7.503,12.0
0.0,0.0,0.0,0.0
88.753,-4.634,6.379,16.0
84.637,-4.409,8.458,22.0
85.559,-4.433,8.059,12.0
87.19,-4.495,7.712,17.0
89.781,-4.604,7.417,21.0
88.606,-4.52,6.814,15.0
89.498,-4.543,6.371,15.0
79.867,-4.044,7.925,16.0
87.971,-4.431,8.223,19.0
87.245,-4.37,7.654,11.0
89.217,-4.446,7.306,21.0
88.345,-4.38,6.729,27.0
89.227,-4.4,6.285,20.0
79.276,-3.899,7.807,28.0
91.468,-4.474,8.48,4.0
87.359,-4.249,7.597,26.0
89.137,-4.313,7.231,19.0
89.583,-4.312,6.754,18.0
89.21,-4.271,6.215,22.0
79.302,-3.785,7.747,27.0
82.493,-3.916,7.583,13.0
87.226,-4.117,7.515,18.0
88.546,-4.157,7.111,14.0
89.367,-4.173,6.665,12.0
89.652,-4.164,6.173,17.0
79.349,-3.673,7.684,11.0
87.562,-4.031,7.975,11.0
80.171,-3.67,6.84,12.0
88.274,-4.019,7.016,19.0
89.392,-4.046,6.591,12.0
91.269,-4.109,6.206,13.0
79.267,-3.555,7.607,27.0
79.603,-3.549,7.18,11.0
80.24,-3.558,6.775,9.0
88.212,-3.889,6.931,11.0
88.847,-3.894,6.47,17.0
97.957,-4.269,6.571,15.0
79.3,-3.443,7.537,19.0
79.971,-3.451,7.138,17.0
80.135,-3.438,6.69,10.0
88.499,-3.775,6.871,17.0
88.474,-3.752,6.359,20.0
88.334,-3.725,5.842,27.0
79.427,-3.335,7.472,26.0
80.105,-3.344,7.073,30.0
80.103,-3.323,6.61,11.0
87.82,-3.622,6.731,17.0
88.906,-3.645,6.303,16.0
88.23,-3.597,5.748,27.0
66.374,-2.693,6.177,8.0
80.203,-3.235,7.001,11.0
87.99,-3.527,7.172,15.0
87.804,-3.498,6.641,25.0
88.306,-3.497,6.169,22.0
94.416,-3.716,6.054,5.0
80.26,-3.144,7.385,7.0
80.19,-3.122,6.915,29.0
87.521,-3.386,7.04,11.0
0.0,0.0,0.0,0.0
88.27,-3.372,6.073,12.0
94.421,-3.585,5.952,22.0
80.241,-3.032,7.296,12.0
80.475,-3.021,6.851,17.0
80.966,-3.019,6.424,11.0
88.058,-3.264,6.469,13.0
94.464,-3.48,6.395,9.0
95.052,-3.479,5.887,15.0
80.395,-2.926,7.219,16.0
80.56,-2.913,6.767,22.0
85.858,-3.084,6.715,25.0
87.962,-3.14,6.362,29.0
96.077,-3.408,6.395,11.0
98.138,-3.459,5.966,22.0
80.386,-2.816,7.125,21.0
80.748,-2.81,6.689,31.0
87.841,-3.037,6.767,11.0
87.963,-3.021,6.258,11.0
98.174,-3.35,6.419,20.0
99.155,-3.362,5.911,18.0
80.786,-2.722,7.063,14.0
81.216,-2.718,6.63,11.0
96.421,-3.204,7.312,9.0
87.708,-2.896,6.134,14.0
95.957,-3.146,6.157,10.0
99.237,-3.233,5.794,13.0
80.776,-2.613,6.962,7.0
81.332,-2.613,6.537,15.0
77.24,-2.463,5.759,14.0
87.579,-2.775,6.015,16.0
98.245,-3.091,6.179,17.0
131.034,-4.095,7.484,19.0
80.94,-2.511,6.872,17.0
86.041,-2.651,6.805,23.0
87.857,-2.687,6.438,12.0
88.336,-2.683,5.951,27.0
99.301,-2.995,6.116,7.0
97.067,-2.907,5.418,22.0
81.338,-2.418,6.799,11.0
86.229,-2.545,6.706,17.0
76.455,-2.24,5.501,13.0
88.027,-2.56,5.814,29.0
88.237,-2.547,5.317,19.0
88.039,-2.524,4.796,14.0
76.976,-2.19,6.329,21.0
77.164,-2.178,5.896,17.0
76.033,-2.13,5.367,32.0
88.089,-2.449,5.698,7.0
88.257,-2.436,5.197,11.0
171.392,-4.696,9.101,19.0
80.976,-2.2,6.545,16.0
77.233,-2.082,5.792,14.0
76.252,-2.04,5.276,11.0
98.874,-2.626,6.257,15.0
96.733,-2.55,5.562,24.0
99.48,-2.602,5.143,7.0
87.286,-2.263,6.93,16.0
87.338,-2.246,6.425,12.0
75.938,-1.938,5.145,9.0
97.104,-2.458,6.005,10.0
96.712,-2.43,5.42,31.0
96.849,-2.414,4.865,18.0
75.499,-1.864,5.883,24.0
76.224,-1.867,5.496,20.0
75.853,-1.843,5.027,29.0
96.938,-2.337,5.852,22.0
96.769,-2.314,5.28,37.0
96.813,-2.297,4.721,36.0
75.519,-1.774,5.771,12.0
75.885,-1.768,5.357,34.0
76.169,-1.759,4.933,12.0
96.729,-2.216,5.693,38.0
96.82,-2.201,5.137,21.0
96.842,-2.183,4.576,49.0
0.0,0.0,0.0,0.0
75.959,-1.679,5.245,33.0
96.796,-2.121,6.12,14.0
99.247,-2.157,5.688,19.0
128.421,-2.767,6.613,17.0
96.903,-2.071,4.428,26.0
76.58,-1.619,5.615,20.0
76.079,-1.594,5.134,34.0
98.81,-2.053,6.093,15.0
99.268,-2.045,5.534,20.0
190.363,-3.887,9.504,21.0
190.333,-3.853,8.399,8.0
76.123,-1.523,5.46,34.0
97.168,-1.926,6.402,15.0
99.081,-1.946,5.949,16.0
190.02,-3.701,10.288,16.0
190.415,-3.675,9.201,19.0
194.2,-3.714,8.254,5.0
76.164,-1.439,5.339,33.0
105.994,-1.983,6.81,7.0
99.075,-1.837,5.788,16.0
190.587,-3.501,10.006,6.0
190.37,-3.466,8.887,10.0
196.002,-3.535,8.009,4.0
76.215,-1.357,5.216,16.0
106.003,-1.869,6.635,8.0
99.264,-1.733,5.633,28.0
191.296,-3.309,9.725,16.0
193.402,-3.313,8.704,8.0
171.294,-2.906,6.712,6.0
98.555,-1.649,6.577,15.0
98.821,-1.637,6.016,15.0
99.496,-1.632,5.477,18.0
193.78,-3.148,9.519,8.0
193.127,-3.107,8.362,10.0
171.707,-2.734,6.436,14.0
98.87,-1.552,6.427,13.0
98.913,-1.537,5.852,15.0
193.376,-2.975,10.314,14.0
193.702,-2.949,9.181,14.0
193.838,-2.923,8.062,5.0
171.287,-2.556,6.126,10.0
90.415,-1.328,5.72,29.0
90.723,-1.319,5.209,7.0
193.545,-2.783,9.981,23.0
192.977,-2.746,8.809,17.0
0.0,0.0,0.0,0.0
0.0,0.0,0.0,0.0
90.472,-1.241,5.563,25.0
90.599,-1.228,5.041,17.0
90.715,-1.217,4.517,12.0
193.227,-2.565,8.478,22.0
171.252,-2.249,6.516,6.0
90.709,-1.178,2.924,6.0
90.447,-1.155,5.4,22.0
90.573,-1.143,4.877,39.0
90.647,-1.131,4.352,41.0
90.676,-1.118,3.815,47.0
90.659,-1.106,3.285,39.0
89.984,-1.085,2.736,4.0
90.506,-1.072,5.236,38.0
90.601,-1.059,4.711,42.0
90.596,-1.047,4.182,41.0
90.611,-1.035,3.644,64.0
90.604,-1.022,3.116,44.0
83.916,-0.936,2.397,1.0
90.564,-0.991,5.071,34.0
90.6,-0.979,4.542,41.0
90.618,-0.967,4.014,49.0
90.583,-0.954,3.474,58.0
90.542,-0.942,2.944,20.0
0.0,0.0,0.0,0.0
90.57,-0.913,4.902,27.0
90.657,-0.901,4.374,38.0
90.645,-0.89,3.844,38.0
90.594,-0.878,3.305,49.0
90.148,-0.862,2.762,5.0
0.0,0.0,0.0,0.0
90.584,-0.837,4.728,2.0
193.665,-1.767,8.98,17.0
90.694,-0.816,3.674,12.0
90.611,-0.804,3.133,28.0
82.692,-0.724,2.376,2.0
0.0,0.0,0.0,0.0
193.335,-1.632,9.72,26.0
193.843,-1.614,8.614,22.0
180.559,-1.483,6.968,8.0
90.574,-0.733,2.956,16.0
82.098,-0.655,2.2,1.0
0.0,0.0,0.0,0.0
193.733,-1.488,9.367,21.0
193.93,-1.468,8.243,15.0
121.152,-0.903,4.44,2.0
82.914,-0.609,2.545,5.0
0.0,0.0,0.0,0.0
0.0,0.0,0.0,0.0
193.575,-1.345,8.98,21.0
0.0,0.0,0.0,0.0
104.711,-0.705,3.632,3.0
81.41,-0.539,2.339,3.0
0.0,0.0,0.0,0.0
0.0,0.0,0.0,0.0
194.511,-1.214,8.636,13.0
0.0,0.0,0.0,0.0
104.348,-0.63,3.411,7.0
80.844,-0.48,2.162,1.0
0.0,0.0,0.0,0.0
0.0,0.0,0.0,0.0
179.033,-0.998,7.588,23.0
0.0,0.0,0.0,0.0
83.027,-0.446,2.547,4.0
63.861,-0.337,1.578,0.0
0.0,0.0,0.0,0.0
0.0,0.0,0.0,0.0
178.926,-0.884,7.223,16.0
105.127,-0.509,3.627,5.0
80.435,-0.382,2.305,4.0
0.0,0.0,0.0,0.0
43.145,-0.197,0.727,0.0
34.889,-0.156,0.384,0.0
175.714,-0.764,6.738,5.0
96.501,-0.411,3.136,5.0
79.918,-0.333,2.129,2.0
0.0,0.0,0.0,0.0
39.8,-0.159,0.59,0.0
33.213,-0.13,0.298,1.0
108.887,-0.411,3.952,7.0
82.853,-0.306,2.521,6.0
0.0,0.0,0.0,0.0
0.0,0.0,0.0,0.0
36.732,-0.126,0.469,0.0
31.276,-0.105,0.216,1.0
105.471,-0.342,3.608,2.0
79.339,-0.251,2.25,3.0
0.0,0.0,0.0,0.0
41.758,-0.126,0.69,0.0
0.0,0.0,0.0,0.0
28.838,-0.082,0.139,4.0
83.274,-0.229,2.675,5.0
78.838,-0.211,2.071,1.0
50.23,-0.131,1.026,0.0
39.884,-0.101,0.577,0.0
33.213,-0.082,0.286,0.0
28.728,-0.069,0.079,5.0
82.84,-0.19,2.489,4.0
0.0,0.0,0.0,0.0
0.0,0.0,0.0,0.0
0.0,0.0,0.0,0.0
30.853,-0.062,0.201,0.0
27.389,-0.054,0.018,0.0
12.972,-0.101,-0.5,0.0
12.106,-0.096,-0.537,0.0
11.358,-0.091,-0.57,0.0
10.682,-0.087,-0.6,0.0
0.0,0.0,0.0,0.0
0.0,0.0,0.0,0.0
12.59,-0.108,-0.508,0.0
11.838,-0.103,-0.547,0.0
11.128,-0.098,-0.579,0.0
10.446,-0.093,-0.605,0.0
0.0,0.0,0.0,0.0
9.312,-0.085,-0.649,0.0
12.422,-0.116,-0.524,0.0
11.636,-0.11,-0.559,0.0
10.949,-0.105,-0.589,0.0
10.275,-0.1,-0.614,0.0
0.0,0.0,0.0,0.0
9.239,-0.092,-0.661,0.0
12.167,-0.124,-0.535,0.0
11.396,-0.118,-0.568,0.0
10.683,-0.111,-0.594,0.0
10.099,-0.107,-0.622,0.0
0.0,0.0,0.0,0.0
9.104,-0.098,-0.667,0.0
11.915,-0.132,-0.545,0.0
11.155,-0.125,-0.575,0.0
10.49,-0.118,-0.602,0.0
0.0,0.0,0.0,0.0
0.0,0.0,0.0,0.0
8.963,-0.105,-0.672,0.0
11.711,-0.14,-0.556,0.0
10.986,-0.132,-0.586,0.0
10.382,-0.127,-0.614,0.0
0.0,0.0,0.0,0.0
0.0,0.0,0.0,0.0
0.0,0.0,0.0,0.0
11.425,-0.147,-0.562,0.0
10.782,-0.14,-0.593,0.0
0.0,0.0,0.0,0.0
0.0,0.0,0.0,0.0
9.136,-0.122,-0.663,0.0
8.67,-0.117,-0.68,0.0
11.233,-0.155,-0.571,0.0
10.6,-0.147,-0.601,0.0
0.0,0.0,0.0,0.0
0.0,0.0,0.0,0.0
0.0,0.0,0.0,0.0
8.614,-0.125,-0.69,0.0
11.043,-0.163,-0.58,0.0
10.381,-0.154,-0.606,0.0
9.934,-0.149,-0.637,0.0
0.0,0.0,0.0,0.0
0.0,0.0,0.0,0.0
8.462,-0.131,-0.692,0.0
10.82,-0.17,-0.586,0.0
10.226,-0.162,-0.613,0.0
0.0,0.0,0.0,0.0
0.0,0.0,0.0,0.0
0.0,0.0,0.0,0.0
8.315,-0.137,-0.694,0.0
10.676,-0.179,-0.595,0.0
10.127,-0.171,-0.623,0.0
0.0,0.0,0.0,0.0
0.0,0.0,0.0,0.0
8.618,-0.15,-0.682,0.0
8.228,-0.144,-0.699,0.0
10.56,-0.188,-0.605,0.0
9.945,-0.178,-0.628,0.0
0.0,0.0,0.0,0.0
0.0,0.0,0.0,0.0
8.559,-0.158,-0.691,0.0
8.155,-0.152,-0.706,0.0
10.305,-0.194,-0.606,0.0
9.839,-0.187,-0.636,0.0
0.0,0.0,0.0,0.0
0.0,0.0,0.0,0.0
0.0,0.0,0.0,0.0
8.076,-0.159,-0.711,0.0
10.137,-0.202,-0.612,0.0
9.589,-0.193,-0.634,0.0
9.205,-0.187,-0.662,0.0
0.0,0.0,0.0,0.0
8.348,-0.172,-0.699,0.0
8.008,-0.166,-0.717,0.0
10.068,-0.212,-0.622,0.0
0.0,0.0,0.0,0.0
9.051,-0.194,-0.664,0.0
0.0,0.0,0.0,0.0
8.294,-0.18,-0.706,0.0
0.0,0.0,0.0,0.0
0.0,0.0,0.0,0.0
9.383,-0.21,-0.648,0.0
0.0,0.0,0.0,0.0
0.0,0.0,0.0,0.0
8.164,-0.187,-0.707,0.0
0.0,0.0,0.0,0.0
9.757,-0.228,-0.631,0.0
9.286,-0.218,-0.654,0.0
8.764,-0.208,-0.668,0.0
0.0,0.0,0.0,0.0
8.065,-0.194,-0.709,0.0
0.0,0.0,0.0,0.0
0.0,0.0,0.0,0.0
0.0,0.0,0.0,0.0
0.0,0.0,0.0,0.0
0.0,0.0,0.0,0.0
0.0,0.0,0.0,0.0
0.0,0.0,0.0,0.0
9.55,-0.245,-0.643,0.0
9.058,-0.234,-0.662,0.0
8.613,-0.225,-0.679,0.0
8.26,-0.217,-0.7,0.0
0.0,0.0,0.0,0.0
0.0,0.0,0.0,0.0
9.39,-0.253,-0.644,0.0
0.0,0.0,0.0,0.0
8.507,-0.232,-0.682,0.0
0.0,0.0,0.0,0.0
0.0,0.0,0.0,0.0
0.0,0.0,0.0,0.0
9.293,-0.261,-0.649,0.0
8.892,-0.252,-0.672,0.0
8.479,-0.242,-0.69,0.0
0.0,0.0,0.0,0.0
0.0,0.0,0.0,0.0
0.0,0.0,0.0,0.0
9.278,-0.273,-0.659,0.0
0.0,0.0,0.0,0.0
0.0,0.0,0.0,0.0
0.0,0.0,0.0,0.0
0.0,0.0,0.0,0.0
0.0,0.0,0.0,0.0
9.103,-0.279,-0.657,0.0
8.729,-0.269,-0.681,0.0
0.0,0.0,0.0,0.0
0.0,0.0,0.0,0.0
0.0,0.0,0.0,0.0
7.297,-0.231,-0.739,0.0
9.038,-0.288,-0.663,0.0
8.6,-0.276,-0.68,0.0
0.0,0.0,0.0,0.0
0.0,0.0,0.0,0.0
0.0,0.0,0.0,0.0
7.243,-0.239,-0.741,0.0
0.0,0.0,0.0,0.0
0.0,0.0,0.0,0.0
0.0,0.0,0.0,0.0
0.0,0.0,0.0,0.0
0.0,0.0,0.0,0.0
7.227,-0.247,-0.747,0.0
0.0,0.0,0.0,0.0
0.0,0.0,0.0,0.0
0.0,0.0,0.0,0.0
0.0,0.0,0.0,0.0
0.0,0.0,0.0,0.0
7.153,-0.254,-0.747,0.0
0.0,0.0,0.0,0.0
0.0,0.0,0.0,0.0
0.0,0.0,0.0,0.0
0.0,0.0,0.0,0.0
0.0,0.0,0.0,0.0
7.124,-0.263,-0.751,0.0
8.704,-0.323,-0.673,0.0
8.358,-0.312,-0.695,0.0
0.0,0.0,0.0,0.0
0.0,0.0,0.0,0.0
0.0,0.0,0.0,0.0
7.055,-0.269,-0.75,0.0
8.653,-0.332,-0.677,0.0
8.263,-0.319,-0.694,0.0
7.972,-0.31,-0.716,0.0
0.0,0.0,0.0,0.0
7.293,-0.287,-0.74,0.0
6.994,-0.277,-0.75,0.0
8.626,-0.343,-0.683,0.0
8.245,-0.329,-0.7,0.0
0.0,0.0,0.0,0.0
0.0,0.0,0.0,0.0
7.259,-0.295,-0.742,0.0
6.953,-0.284,-0.751,0.0
8.524,-0.35,-0.682,0.0
8.181,-0.338,-0.701,0.0
0.0,0.0,0.0,0.0
0.0,0.0,0.0,0.0
7.231,-0.304,-0.745,0.0
6.903,-0.292,-0.751,0.0
8.499,-0.36,-0.686,0.0
8.137,-0.347,-0.704,0.0
0.0,0.0,0.0,0.0
0.0,0.0,0.0,0.0
7.197,-0.312,-0.747,0.0
6.904,-0.301,-0.757,0.0
0.0,0.0,0.0,0.0
32.803,-0.029,0.271,0.0
28.667,-0.014,0.079,1.0
25.623,-0.004,-0.071,0.0
22.487,0.004,-0.186,0.0
19.649,0.01,-0.271,0.0
0.0,0.0,0.0,0.0
32.893,0.042,0.272,0.0
28.742,0.047,0.08,6.0
25.539,0.051,-0.071,0.0
22.592,0.053,-0.187,0.0
19.583,0.053,-0.27,0.0
0.0,0.0,0.0,0.0
0.0,0.0,0.0,0.0
28.675,0.108,0.078,1.0
25.553,0.106,-0.073,0.0
22.473,0.101,-0.188,1.0
19.587,0.095,-0.271,0.0
37.555,0.197,0.514,0.0
0.0,0.0,0.0,0.0
28.703,0.171,0.076,1.0
25.492,0.161,-0.075,0.0
22.398,0.149,-0.189,2.0
19.379,0.136,-0.27,0.0
38.483,0.285,0.523,0.0
0.0,0.0,0.0,0.0
28.764,0.233,0.073,4.0
25.495,0.216,-0.078,0.0
22.252,0.196,-0.191,2.0
19.439,0.178,-0.274,0.0
38.93,0.372,0.524,0.0
32.552,0.322,0.258,0.0
28.771,0.294,0.069,4.0
25.284,0.268,-0.081,0.0
22.07,0.241,-0.193,1.0
19.222,0.217,-0.274,0.0
0.0,0.0,0.0,0.0
32.405,0.39,0.251,0.0
28.731,0.355,0.063,2.0
25.179,0.32,-0.086,0.0
22.122,0.289,-0.198,0.0
19.192,0.258,-0.278,0.0
37.901,0.524,0.495,0.0
32.065,0.454,0.241,0.0
28.604,0.415,0.057,1.0
25.153,0.373,-0.091,0.0
22.147,0.336,-0.203,0.0
19.069,0.296,-0.28,0.0
38.122,0.608,0.488,0.0
31.977,0.52,0.232,0.0
28.049,0.466,0.048,0.0
24.925,0.423,-0.097,0.0
21.97,0.38,-0.207,0.0
18.912,0.333,-0.283,0.0
37.212,0.672,0.466,0.0
31.925,0.588,0.222,0.0
27.775,0.52,0.039,0.0
24.749,0.472,-0.104,0.0
21.818,0.424,-0.213,1.0
18.815,0.371,-0.288,0.0
36.798,0.743,0.449,0.0
31.283,0.642,0.208,0.0
27.438,0.572,0.03,0.0
24.534,0.519,-0.111,0.0
21.71,0.467,-0.219,0.0
18.76,0.41,-0.294,0.0
36.582,0.815,0.433,1.0
31.067,0.703,0.195,0.0
27.158,0.623,0.019,0.0
24.253,0.565,-0.119,0.0
21.549,0.509,-0.226,0.0
18.494,0.443,-0.297,0.0
36.061,0.88,0.412,0.0
29.032,0.718,0.17,0.0
26.87,0.673,0.008,0.0
23.874,0.606,-0.128,1.0
21.389,0.55,-0.233,0.0
18.348,0.478,-0.302,0.0
35.38,0.937,0.389,1.0
28.996,0.777,0.157,1.0
26.796,0.727,-0.003,0.0
23.663,0.649,-0.137,1.0
20.734,0.576,-0.236,0.0
18.124,0.509,-0.307,0.0
34.666,0.989,0.365,1.0
29.002,0.837,0.144,4.0
26.657,0.777,-0.016,0.0
23.346,0.688,-0.146,1.0
20.48,0.61,-0.243,0.0
18.022,0.543,-0.314,0.0
34.501,1.055,0.346,1.0
28.975,0.896,0.129,5.0
26.445,0.825,-0.029,0.0
23.076,0.727,-0.157,0.0
20.186,0.643,-0.25,0.0
17.866,0.575,-0.321,0.0
33.715,1.1,0.32,1.0
28.926,0.952,0.113,1.0
26.097,0.867,-0.043,0.0
22.86,0.767,-0.168,0.0
20.001,0.677,-0.259,0.0
17.631,0.602,-0.327,0.0
33.506,1.16,0.299,0.0
28.791,1.006,0.096,1.0
25.703,0.906,-0.058,0.0
22.511,0.8,-0.179,0.0
19.644,0.704,-0.266,1.0
17.433,0.63,-0.334,0.0
32.981,1.207,0.274,1.0
28.669,1.058,0.078,1.0
25.708,0.957,-0.073,4.0
22.181,0.833,-0.19,1.0
19.495,0.738,-0.276,0.0
17.262,0.659,-0.341,0.0
32.432,1.252,0.249,0.0
28.185,1.097,0.058,1.0
24.694,0.968,-0.087,0.0
21.885,0.865,-0.202,1.0
19.153,0.762,-0.284,0.0
17.071,0.685,-0.349,0.0
31.575,1.281,0.221,0.0
27.607,1.128,0.038,0.0
24.498,1.008,-0.103,1.0
21.638,0.897,-0.214,2.0
18.69,0.781,-0.29,0.0
16.907,0.711,-0.357,0.0
30.742,1.307,0.193,0.0
27.088,1.16,0.018,0.0
24.122,1.04,-0.119,0.0
21.401,0.929,-0.228,2.0
18.446,0.806,-0.3,0.0
16.706,0.735,-0.366,0.0
30.258,1.345,0.168,0.0
26.721,1.195,-0.001,1.0
23.378,1.052,-0.133,1.0
20.709,0.938,-0.236,0.0
18.133,0.827,-0.309,0.0
16.589,0.761,-0.376,0.0
29.621,1.373,0.141,0.0
26.337,1.228,-0.022,0.0
23.175,1.087,-0.149,2.0
20.176,0.952,-0.246,0.0
17.954,0.853,-0.32,0.0
16.367,0.782,-0.384,0.0
29.167,1.406,0.115,0.0
25.921,1.257,-0.042,0.0
22.747,1.11,-0.165,0.0
19.89,0.976,-0.259,0.0
17.711,0.874,-0.33,0.0
16.144,0.801,-0.392,0.0
28.608,1.432,0.09,0.0
25.497,1.284,-0.063,0.0
22.181,1.123,-0.18,1.0
19.54,0.994,-0.271,0.0
17.313,0.886,-0.337,0.0
15.952,0.821,-0.401,0.0
28.124,1.459,0.064,0.0
24.989,1.303,-0.084,0.0
21.859,1.146,-0.196,2.0
19.148,1.009,-0.282,0.0
17.065,0.904,-0.348,0.0
15.794,0.841,-0.411,0.0
27.4,1.471,0.038,0.0
24.565,1.325,-0.104,0.0
21.585,1.17,-0.213,3.0
18.648,1.016,-0.291,0.0
16.902,0.925,-0.36,0.0
15.592,0.858,-0.42,0.0
26.946,1.494,0.012,0.0
23.98,1.336,-0.124,0.0
21.323,1.193,-0.231,2.0
18.347,1.032,-0.304,0.0
16.663,0.941,-0.37,0.0
15.401,0.874,-0.429,0.0
26.339,1.506,-0.012,0.0
23.27,1.337,-0.142,0.0
20.611,1.189,-0.243,0.0
18.099,1.049,-0.317,0.0
16.506,0.961,-0.383,0.0
15.07,0.881,-0.435,0.0
25.81,1.521,-0.037,0.0
22.946,1.357,-0.163,0.0
20.13,1.196,-0.257,0.0
17.639,1.052,-0.327,0.0
16.159,0.968,-0.391,0.0
14.919,0.897,-0.445,0.0
25.304,1.533,-0.062,0.0
22.431,1.364,-0.181,0.0
19.454,1.188,-0.268,0.0
17.309,1.061,-0.338,0.0
15.888,0.978,-0.4,0.0
14.705,0.909,-0.454,0.0
9.74,0.246,-0.641,0.0
0.0,0.0,0.0,0.0
0.0,0.0,0.0,0.0
0.0,0.0,0.0,0.0
8.176,0.199,-0.714,0.0
0.0,0.0,0.0,0.0
9.938,0.239,-0.641,0.0
0.0,0.0,0.0,0.0
9.022,0.213,-0.678,0.0
0.0,0.0,0.0,0.0
8.203,0.19,-0.705,0.0
7.992,0.184,-0.73,0.0
10.042,0.23,-0.633,0.0
0.0,0.0,0.0,0.0
9.085,0.204,-0.67,0.0
0.0,0.0,0.0,0.0
8.418,0.185,-0.712,0.0
8.044,0.176,-0.723,0.0
10.151,0.22,-0.626,0.0
0.0,0.0,0.0,0.0
0.0,0.0,0.0,0.0
0.0,0.0,0.0,0.0
8.479,0.177,-0.704,0.0
8.142,0.169,-0.72,0.0
10.359,0.213,-0.624,0.0
0.0,0.0,0.0,0.0
0.0,0.0,0.0,0.0
0.0,0.0,0.0,0.0
8.475,0.168,-0.691,0.0
8.225,0.161,-0.715,0.0
10.519,0.205,-0.618,0.0
0.0,0.0,0.0,0.0
0.0,0.0,0.0,0.0
0.0,0.0,0.0,0.0
0.0,0.0,0.0,0.0
8.296,0.154,-0.708,0.0
10.608,0.195,-0.607,0.0
10.114,0.184,-0.632,0.0
9.567,0.172,-0.648,0.0
0.0,0.0,0.0,0.0
0.0,0.0,0.0,0.0
8.387,0.146,-0.703,0.0
10.758,0.187,-0.598,0.0
10.278,0.176,-0.626,0.0
9.72,0.165,-0.644,0.0
0.0,0.0,0.0,0.0
8.954,0.149,-0.689,0.0
8.541,0.14,-0.702,0.0
11.03,0.18,-0.596,0.0
10.429,0.168,-0.619,0.0
9.82,0.157,-0.634,0.0
0.0,0.0,0.0,0.0
8.95,0.139,-0.674,0.0
8.578,0.132,-0.691,0.0
11.228,0.172,-0.588,0.0
10.545,0.16,-0.608,0.0
0.0,0.0,0.0,0.0
9.602,0.142,-0.656,0.0
0.0,0.0,0.0,0.0
0.0,0.0,0.0,0.0
11.376,0.163,-0.578,0.0
10.791,0.153,-0.605,0.0
10.258,0.143,-0.629,0.0
0.0,0.0,0.0,0.0
0.0,0.0,0.0,0.0
8.841,0.119,-0.683,0.0
11.574,0.155,-0.568,0.0
10.979,0.145,-0.597,0.0
10.376,0.135,-0.618,0.0
0.0,0.0,0.0,0.0
0.0,0.0,0.0,0.0
8.969,0.112,-0.677,0.0
11.829,0.147,-0.561,0.0
11.134,0.137,-0.586,0.0
10.545,0.128,-0.61,0.0
0.0,0.0,0.0,0.0
0.0,0.0,0.0,0.0
9.105,0.106,-0.672,0.0
12.028,0.139,-0.549,0.0
11.398,0.13,-0.58,0.0
10.786,0.121,-0.605,0.0
10.186,0.113,-0.626,0.0
9.79,0.107,-0.653,0.0
9.287,0.1,-0.669,0.0
12.343,0.132,-0.542,0.0
11.661,0.123,-0.573,0.0
10.972,0.114,-0.597,0.0
10.381,0.106,-0.62,0.0
9.906,0.1,-0.643,0.0
0.0,0.0,0.0,0.0
12.573,0.124,-0.53,0.0
11.834,0.115,-0.56,0.0
11.184,0.107,-0.588,0.0
10.566,0.099,-0.612,0.0
10.123,0.094,-0.639,0.0
0.0,0.0,0.0,0.0
76.611,0.873,4.428,12.0
90.937,1.051,4.781,12.0
92.064,1.079,4.359,12.0
108.979,1.294,4.58,14.0
0.0,0.0,0.0,0.0
56.699,0.692,1.79,0.0
76.471,0.94,4.562,44.0
76.672,0.955,4.172,15.0
89.324,1.128,4.392,11.0
109.061,1.396,4.782,13.0
0.0,0.0,0.0,0.0
56.333,0.74,1.88,1.0
76.487,1.013,4.702,25.0
76.558,1.027,4.305,29.0
76.59,1.04,3.906,21.0
76.612,1.054,3.497,16.0
57.61,0.802,2.327,0.0
0.0,0.0,0.0,0.0
76.583,1.088,4.845,20.0
76.492,1.1,4.437,27.0
76.566,1.114,4.039,24.0
76.573,1.128,3.631,34.0
76.549,1.141,3.229,10.0
55.671,0.84,2.056,0.0
76.676,1.166,4.987,19.0
76.55,1.177,4.576,20.0
76.555,1.191,4.174,31.0
76.536,1.205,3.762,41.0
76.552,1.219,3.361,22.0
55.667,0.896,2.152,2.0
89.101,1.446,5.949,11.0
83.894,1.377,5.16,12.0
76.584,1.27,4.307,15.0
76.594,1.285,3.897,20.0
76.592,1.3,3.494,27.0
0.0,0.0,0.0,0.0
76.712,1.325,5.254,14.0
83.767,1.462,5.295,14.0
84.41,1.49,4.89,18.0
85.456,1.525,4.492,10.0
90.992,1.641,4.304,15.0
0.0,0.0,0.0,0.0
76.705,1.407,5.382,28.0
83.714,1.552,5.431,12.0
83.98,1.574,5.005,23.0
85.367,1.616,4.628,10.0
88.797,1.698,4.346,8.0
0.0,0.0,0.0,0.0
76.795,1.494,5.514,22.0
82.846,1.628,5.511,19.0
83.701,1.661,5.125,20.0
84.355,1.691,4.711,19.0
85.492,1.731,4.322,4.0
88.729,1.814,4.018,9.0
83.524,1.72,6.134,32.0
82.63,1.717,5.63,18.0
83.384,1.75,5.24,25.0
84.158,1.783,4.833,20.0
85.22,1.822,4.444,6.0
88.661,1.914,4.156,18.0
83.506,1.815,6.264,22.0
82.479,1.81,5.75,12.0
82.463,1.826,5.311,30.0
82.435,1.842,4.864,9.0
82.813,1.867,4.446,19.0
85.564,1.947,4.142,11.0
74.783,1.713,5.725,10.0
82.699,1.912,5.892,18.0
82.204,1.917,5.42,32.0
82.247,1.935,4.977,39.0
82.598,1.96,4.56,33.0
83.796,2.006,4.182,8.0
64.712,1.559,5.053,12.0
82.791,2.013,6.022,22.0
82.365,2.019,5.553,31.0
82.023,2.027,5.085,33.0
82.327,2.052,4.666,40.0
83.554,2.101,4.292,17.0
64.622,1.636,5.141,23.0
74.5,1.901,5.528,9.0
82.339,2.119,5.671,32.0
82.103,2.13,5.209,19.0
82.144,2.148,4.774,37.0
82.593,2.177,4.361,30.0
64.527,1.713,5.226,41.0
74.547,1.995,5.639,28.0
82.49,2.225,5.799,25.0
82.075,2.231,5.324,28.0
81.567,2.235,4.856,38.0
81.968,2.264,4.444,33.0
69.147,1.923,5.699,10.0
65.03,1.822,5.011,10.0
74.258,2.097,5.325,11.0
82.131,2.338,5.442,29.0
81.468,2.337,4.964,36.0
81.764,2.363,4.545,36.0
62.529,1.82,5.24,9.0
62.016,1.818,4.864,7.0
82.884,2.448,6.057,13.0
82.17,2.445,5.556,33.0
81.633,2.447,5.083,32.0
81.724,2.468,4.652,32.0
62.284,1.893,5.303,24.0
64.165,1.965,5.118,10.0
66.096,2.038,4.917,39.0
82.203,2.553,5.666,21.0
81.829,2.559,5.201,19.0
81.601,2.571,4.751,38.0
62.293,1.976,5.385,21.0
62.139,1.984,5.037,17.0
65.065,2.092,4.923,12.0
66.118,2.14,4.641,44.0
66.013,2.152,4.28,21.0
81.53,2.676,4.848,31.0
56.005,1.85,4.911,21.0
