X,Y,Z,Reflectivity
44.991,1.852,5.811,22.0
45.681,1.887,5.64,19.0
45.748,1.896,5.383,22.0
45.425,1.89,5.086,39.0
48.298,2.017,5.134,19.0
43.792,1.845,5.895,26.0
48.207,2.038,6.214,4.0
45.702,1.938,5.63,26.0
45.684,1.944,5.362,24.0
45.459,1.941,5.077,35.0
48.343,2.072,5.124,20.0
43.982,1.901,5.907,32.0
44.451,1.927,5.716,19.0
45.661,1.986,5.61,19.0
45.648,1.992,5.343,32.0
45.569,1.995,5.074,19.0
49.511,2.175,5.231,15.0
44.277,1.961,5.931,30.0
44.382,1.972,5.691,30.0
45.669,2.035,5.594,23.0
45.655,2.041,5.327,27.0
48.221,2.162,5.351,8.0
49.485,2.226,5.21,20.0
44.462,2.017,5.939,32.0
44.356,2.017,5.67,36.0
45.69,2.085,5.578,16.0
45.641,2.089,5.306,32.0
48.242,2.214,5.333,23.0
49.812,2.293,5.223,23.0
44.511,2.066,5.926,36.0
44.375,2.065,5.652,39.0
46.035,2.148,5.599,13.0
45.626,2.135,5.283,35.0
48.727,2.287,5.364,23.0
49.942,2.351,5.213,25.0
44.466,2.11,5.898,29.0
44.351,2.11,5.627,35.0
45.905,2.189,5.56,18.0
45.63,2.182,5.261,34.0
49.142,2.356,5.385,22.0
50.521,2.429,5.247,25.0
44.467,2.155,5.874,32.0
44.442,2.159,5.615,20.0
45.831,2.232,5.526,29.0
48.693,2.378,5.587,23.0
0.0,0.0,0.0,0.0
50.475,2.477,5.214,35.0
44.446,2.199,5.846,35.0
43.632,2.163,5.487,18.0
45.834,2.278,5.5,28.0
49.033,2.442,5.598,24.0
50.65,2.529,5.492,24.0
50.39,2.522,5.175,30.0
44.443,2.242,5.818,38.0
43.404,2.194,5.431,13.0
45.781,2.319,5.465,31.0
47.53,2.414,5.396,22.0
50.554,2.573,5.449,24.0
50.291,2.565,5.133,24.0
44.113,2.267,5.746,33.0
47.647,2.454,5.931,9.0
45.806,2.364,5.438,35.0
47.506,2.457,5.361,22.0
0.0,0.0,0.0,0.0
50.072,2.6,5.077,24.0
43.888,2.296,5.686,20.0
43.892,2.301,5.432,18.0
45.802,2.406,5.405,32.0
47.413,2.495,5.317,21.0
48.796,2.573,5.192,22.0
49.993,2.641,5.033,19.0
43.474,2.314,5.6,24.0
0.0,0.0,0.0,0.0
45.787,2.446,5.369,20.0
47.702,2.553,5.314,22.0
49.051,2.63,5.182,22.0
50.053,2.689,5.001,25.0
43.432,2.351,5.561,28.0
45.897,2.488,5.61,16.0
45.764,2.485,5.33,9.0
47.942,2.607,5.302,22.0
53.634,2.923,5.623,11.0
50.021,2.73,4.957,18.0
43.474,2.39,5.53,29.0
45.83,2.524,5.565,16.0
47.407,2.614,5.482,21.0
47.853,2.643,5.253,14.0
0.0,0.0,0.0,0.0
51.937,2.877,5.104,9.0
43.488,2.427,5.495,27.0
45.907,2.565,5.535,19.0
47.331,2.649,5.433,21.0
47.69,2.673,5.194,12.0
53.875,3.024,5.557,11.0
51.917,2.918,5.057,11.0
43.475,2.461,5.455,26.0
45.818,2.597,5.483,29.0
44.868,2.547,5.109,14.0
47.702,2.711,5.152,5.0
49.255,2.803,5.036,16.0
56.931,3.244,5.494,12.0
43.491,2.496,5.416,24.0
45.797,2.631,5.438,30.0
44.854,2.58,5.066,19.0
47.817,2.753,5.119,13.0
48.792,2.813,4.943,20.0
57.299,3.308,5.474,27.0
45.944,2.671,5.677,10.0
45.78,2.663,5.391,20.0
44.57,2.596,4.99,19.0
48.271,2.815,5.121,22.0
48.896,2.854,4.905,22.0
57.587,3.366,5.446,32.0
45.747,2.691,5.607,21.0
45.697,2.691,5.335,20.0
44.494,2.622,4.937,29.0
48.255,2.848,5.07,22.0
48.829,2.885,4.849,22.0
57.653,3.409,5.393,43.0
45.717,2.721,5.556,26.0
45.297,2.698,5.242,20.0
44.512,2.654,4.893,18.0
48.179,2.875,5.012,27.0
56.82,3.394,5.583,12.0
57.558,3.442,5.324,30.0
45.506,2.738,5.481,21.0
44.833,2.7,5.14,19.0
44.847,2.703,4.881,12.0
48.607,2.931,5.004,24.0
52.057,3.142,5.059,7.0
57.545,3.477,5.26,14.0
0.0,0.0,0.0,0.0
45.35,2.758,5.149,20.0
48.155,2.931,5.188,22.0
51.718,3.151,5.267,5.0
63.214,3.854,6.072,18.0
57.616,3.516,5.202,8.0
0.0,0.0,0.0,0.0
44.616,2.74,5.015,10.0
48.255,2.965,5.144,22.0
51.723,3.18,5.208,7.0
52.298,3.218,4.964,14.0
57.731,3.555,5.146,6.0
45.048,2.79,5.272,22.0
34.405,2.132,3.826,23.0
48.74,3.022,5.137,23.0
51.83,3.215,5.157,17.0
52.341,3.248,4.906,14.0
59.561,3.699,5.239,9.0
44.803,2.798,5.19,27.0
34.085,2.13,3.749,21.0
49.275,3.08,5.134,19.0
51.752,3.236,5.087,23.0
52.353,3.275,4.844,21.0
58.059,3.634,5.037,21.0
44.915,2.827,5.148,13.0
34.109,2.147,3.71,29.0
49.281,3.104,5.075,29.0
51.849,3.266,5.034,25.0
52.376,3.301,4.782,10.0
58.081,3.662,4.967,26.0
34.349,2.177,3.893,28.0
34.116,2.163,3.669,11.0
51.783,3.284,5.267,8.0
52.052,3.302,4.987,20.0
0.0,0.0,0.0,0.0
58.011,3.682,4.888,24.0
34.182,2.181,3.83,34.0
0.0,0.0,0.0,0.0
51.8,3.306,5.202,22.0
52.279,3.337,4.942,11.0
58.075,3.707,5.154,14.0
57.889,3.697,4.803,15.0
34.113,2.189,3.778,26.0
49.096,3.151,5.152,17.0
51.679,3.317,5.123,25.0
54.987,3.529,5.126,3.0
58.347,3.745,5.102,20.0
67.391,4.327,5.503,13.0
34.143,2.202,3.736,30.0
51.588,3.328,5.345,8.0
51.843,3.344,5.07,25.0
57.496,3.709,5.283,4.0
58.242,3.757,5.014,6.0
58.17,3.753,4.672,18.0
34.248,2.22,3.701,33.0
65.866,4.269,6.734,7.0
54.921,3.559,5.296,16.0
58.022,3.76,5.252,8.0
57.826,3.747,4.899,8.0
58.311,3.778,4.603,27.0
34.126,2.221,3.64,30.0
51.576,3.356,5.201,8.0
54.952,3.575,5.222,28.0
58.064,3.777,5.175,19.0
57.802,3.76,4.816,14.0
58.305,3.792,4.521,27.0
48.874,3.192,5.144,19.0
51.588,3.368,5.129,20.0
63.047,4.115,5.902,18.0
59.16,3.861,5.188,30.0
57.982,3.783,4.749,8.0
58.258,3.801,4.435,24.0
48.934,3.205,5.08,11.0
51.684,3.384,5.064,10.0
63.038,4.126,5.81,22.0
66.872,4.375,5.769,7.0
58.021,3.795,4.669,19.0
58.436,3.821,4.364,16.0
60.022,3.94,6.143,7.0
54.92,3.604,5.3,20.0
58.031,3.806,5.263,5.0
57.799,3.789,4.901,9.0
58.098,3.807,4.59,27.0
80.596,5.28,5.902,13.0
60.053,3.949,6.057,10.0
54.965,3.612,5.224,25.0
58.021,3.811,5.177,8.0
57.948,3.804,4.828,16.0
58.131,3.814,4.507,25.0
80.64,5.29,5.785,28.0
51.629,3.398,5.13,18.0
63.029,4.146,5.896,19.0
59.288,3.898,5.201,29.0
58.031,3.813,4.748,13.0
58.283,3.827,4.431,22.0
80.832,5.306,5.677,21.0
54.953,3.618,5.376,7.0
63.052,4.149,5.801,17.0
66.835,4.395,5.761,8.0
58.042,3.814,4.66,27.0
58.526,3.843,4.36,13.0
80.884,5.309,5.558,12.0
54.923,3.616,5.289,19.0
80.602,5.302,7.294,9.0
57.915,3.807,4.904,13.0
58.105,3.816,4.577,28.0
80.607,5.291,5.882,24.0
80.873,5.305,5.433,14.0
54.958,3.615,5.207,19.0
0.0,0.0,0.0,0.0
57.963,3.806,4.817,14.0
58.141,3.814,4.489,26.0
80.691,5.29,5.763,32.0
80.818,5.295,5.304,32.0
63.025,4.14,5.872,21.0
59.392,3.898,5.188,17.0
57.993,3.802,4.729,13.0
58.349,3.822,4.414,20.0
80.855,5.291,5.648,30.0
80.638,5.272,5.166,31.0
80.583,5.282,7.38,12.0
66.924,4.382,5.74,8.0
58.099,3.8,4.646,28.0
58.505,3.823,4.333,16.0
80.816,5.276,5.517,22.0
80.832,5.272,5.05,34.0
58.016,3.793,5.221,17.0
57.772,3.772,4.863,14.0
58.251,3.799,4.565,29.0
80.661,5.255,5.845,20.0
80.872,5.263,5.393,30.0
80.687,5.246,4.914,41.0
0.0,0.0,0.0,0.0
67.271,4.377,5.555,12.0
58.255,3.786,4.472,26.0
80.867,5.249,5.731,36.0
80.7,5.232,5.251,34.0
80.674,5.225,4.784,37.0
59.438,3.856,5.158,5.0
58.159,3.769,4.709,21.0
58.299,3.773,4.383,24.0
80.848,5.225,5.601,36.0
80.762,5.213,5.127,34.0
80.881,5.215,4.666,29.0
57.927,3.741,4.933,14.0
58.272,3.757,4.623,21.0
58.384,3.759,4.293,27.0
80.722,5.191,5.46,36.0
80.88,5.194,5.002,37.0
80.913,5.191,4.537,20.0
57.908,3.719,4.837,13.0
58.283,3.738,4.529,16.0
58.419,3.741,4.2,22.0
80.684,5.159,5.325,37.0
80.799,5.16,4.865,32.0
81.05,5.168,4.413,26.0
58.002,3.702,4.749,6.0
58.252,3.713,4.431,30.0
58.45,3.719,4.107,20.0
80.773,5.132,5.2,20.0
80.79,5.126,4.734,22.0
80.921,5.127,4.274,22.0
58.071,3.682,4.659,16.0
58.261,3.688,4.336,32.0
58.504,3.697,4.015,23.0
58.649,3.7,3.679,15.0
58.654,3.694,3.339,11.0
58.723,3.693,3.004,12.0
58.213,3.663,4.574,25.0
58.283,3.661,4.241,32.0
58.513,3.669,3.918,26.0
58.559,3.666,3.577,23.0
58.678,3.667,3.244,21.0
58.671,3.66,2.905,23.0
58.217,3.634,4.478,49.0
58.314,3.633,4.148,29.0
58.508,3.638,3.822,27.0
58.564,3.635,3.481,55.0
58.648,3.633,3.147,41.0
58.657,3.627,2.808,13.0
58.223,3.601,4.382,45.0
58.381,3.604,4.055,32.0
58.52,3.605,3.726,44.0
58.568,3.601,3.384,61.0
58.644,3.599,3.05,57.0
0.0,0.0,0.0,0.0
58.253,3.568,4.287,41.0
58.411,3.57,3.96,32.0
58.524,3.57,3.629,49.0
58.6,3.567,3.289,59.0
58.644,3.562,2.952,62.0
0.0,0.0,0.0,0.0
58.299,3.533,4.195,52.0
58.442,3.535,3.866,36.0
58.55,3.533,3.534,58.0
58.604,3.529,3.192,53.0
58.654,3.524,2.856,23.0
0.0,0.0,0.0,0.0
58.339,3.496,4.1,60.0
58.465,3.495,3.77,48.0
58.567,3.493,3.437,55.0
58.63,3.489,3.096,41.0
0.0,0.0,0.0,0.0
0.0,0.0,0.0,0.0
58.393,3.456,4.006,28.0
58.506,3.455,3.676,28.0
58.586,3.451,3.341,32.0
58.672,3.448,3.002,29.0
0.0,0.0,0.0,0.0
0.0,0.0,0.0,0.0
58.466,3.416,3.915,45.0
58.576,3.414,3.583,27.0
58.644,3.409,3.248,28.0
81.059,4.7,4.013,13.0
0.0,0.0,0.0,0.0
48.018,2.771,1.823,1.0
58.532,3.372,3.822,19.0
58.67,3.371,3.491,23.0
80.665,4.622,4.334,23.0
81.054,4.633,3.878,1.0
0.0,0.0,0.0,0.0
47.608,2.707,1.729,4.0
80.403,4.564,5.117,31.0
80.643,4.565,4.666,35.0
80.991,4.571,4.217,39.0
0.0,0.0,0.0,0.0
0.0,0.0,0.0,0.0
47.423,2.655,1.644,6.0
80.544,4.5,4.993,7.0
80.492,4.483,4.524,39.0
81.062,4.502,4.087,32.0
0.0,0.0,0.0,0.0
48.096,2.655,1.865,1.0
47.375,2.608,1.564,7.0
80.699,4.433,4.869,12.0
80.658,4.417,4.4,39.0
81.168,4.431,3.959,9.0
0.0,0.0,0.0,0.0
47.814,2.594,1.776,3.0
47.296,2.558,1.484,9.0
80.555,4.346,4.728,36.0
80.993,4.355,4.286,41.0
0.0,0.0,0.0,0.0
0.0,0.0,0.0,0.0
47.509,2.53,1.687,12.0
47.287,2.511,1.408,16.0
80.789,4.278,4.612,34.0
81.2,4.284,4.166,33.0
0.0,0.0,0.0,0.0
48.189,2.526,1.912,0.0
47.554,2.484,1.613,9.0
47.329,2.464,1.333,19.0
80.77,4.192,4.481,35.0
81.076,4.192,4.029,19.0
0.0,0.0,0.0,0.0
48.016,2.465,1.828,2.0
47.402,2.425,1.532,12.0
47.341,2.413,1.258,17.0
81.105,4.121,4.369,38.0
81.194,4.11,3.906,1.0
0.0,0.0,0.0,0.0
47.573,2.39,1.736,13.0
47.395,2.373,1.457,11.0
47.348,2.362,1.183,18.0
81.416,4.046,4.257,30.0
0.0,0.0,0.0,0.0
0.0,0.0,0.0,0.0
47.663,2.341,1.664,112.0
47.407,2.319,1.382,1.0
47.38,2.308,1.109,13.0
80.881,3.925,4.101,34.0
0.0,0.0,0.0,0.0
48.184,2.319,1.889,1.0
47.55,2.279,1.585,17.0
47.411,2.263,1.308,1.0
47.419,2.254,1.036,1.0
80.792,3.824,3.971,10.0
0.0,0.0,0.0,0.0
47.77,2.242,1.798,3.0
47.456,2.217,1.509,16.0
47.458,2.208,1.236,14.0
47.657,2.208,0.968,0.0
49.154,2.266,2.34,4.0
48.665,2.233,2.037,0.0
47.741,2.181,1.724,5.0
47.526,2.161,1.438,12.0
47.532,2.151,1.165,6.0
47.794,2.153,0.898,0.0
49.01,2.197,2.258,1.0
48.517,2.164,1.956,6.0
47.757,2.12,1.652,5.0
47.706,2.108,1.371,0.0
47.646,2.095,1.096,0.0
47.8,2.092,0.825,0.0
0.0,0.0,0.0,0.0
48.494,2.1,1.882,1.0
48.124,2.073,1.591,4.0
48.209,2.066,1.313,1.0
48.172,2.054,1.035,0.0
0.0,0.0,0.0,0.0
48.747,2.055,2.099,3.0
48.646,2.041,1.815,3.0
48.389,2.019,1.528,4.0
48.489,2.012,1.248,4.0
0.0,0.0,0.0,0.0
0.0,0.0,0.0,0.0
48.684,1.985,2.023,7.0
48.846,1.981,1.75,2.0
48.782,1.967,1.468,2.0
48.817,1.958,1.185,2.0
0.0,0.0,0.0,0.0
37.925,1.504,0.486,0.0
49.748,1.959,1.996,2.0
49.186,1.926,1.691,2.0
49.297,1.919,1.412,1.0
0.0,0.0,0.0,0.0
0.0,0.0,0.0,0.0
35.781,1.368,0.407,0.0
49.941,1.895,1.932,1.0
49.6,1.87,1.634,3.0
49.705,1.862,1.353,2.0
50.532,1.881,1.081,1.0
0.0,0.0,0.0,0.0
33.873,1.245,0.337,0.0
50.276,1.833,1.873,2.0
50.124,1.815,1.58,2.0
50.142,1.803,1.293,1.0
50.701,1.811,1.012,1.0
0.0,0.0,0.0,0.0
32.872,1.158,0.28,0.0
50.532,1.765,1.811,3.0
50.543,1.753,1.522,1.0
50.438,1.737,1.23,0.0
48.366,1.654,0.898,0.0
37.274,1.265,0.479,0.0
31.096,1.048,0.222,0.0
51.009,1.703,1.758,3.0
54.079,1.792,1.554,12.0
0.0,0.0,0.0,0.0
0.0,0.0,0.0,0.0
35.241,1.141,0.405,0.0
29.024,0.932,0.168,2.0
54.13,1.722,1.792,1.0
54.18,1.711,1.484,15.0
55.288,1.731,1.199,3.0
0.0,0.0,0.0,0.0
34.541,1.064,0.351,0.0
28.944,0.884,0.129,5.0
54.149,1.637,1.721,1.0
54.221,1.624,1.413,11.0
55.696,1.654,1.134,5.0
40.326,1.187,0.587,0.0
33.518,0.977,0.296,1.0
28.826,0.833,0.09,3.0
54.102,1.546,1.648,2.0
54.151,1.533,1.341,2.0
47.84,1.341,0.911,0.0
0.0,0.0,0.0,0.0
31.917,0.878,0.241,0.0
27.502,0.749,0.051,0.0
54.06,1.455,1.578,4.0
54.459,1.452,1.279,1.0
0.0,0.0,0.0,0.0
36.11,0.942,0.432,1.0
29.047,0.75,0.182,0.0
26.877,0.687,0.016,0.0
54.217,1.369,1.515,1.0
57.455,1.435,1.278,4.0
0.0,0.0,0.0,0.0
34.972,0.853,0.375,0.0
28.949,0.698,0.146,1.0
26.38,0.629,-0.016,0.0
54.211,1.275,1.447,1.0
57.877,1.345,1.216,4.0
0.0,0.0,0.0,0.0
0.0,0.0,0.0,0.0
28.859,0.646,0.11,1.0
25.722,0.568,-0.047,0.0
54.289,1.182,1.384,0.0
0.0,0.0,0.0,0.0
37.511,0.795,0.529,0.0
32.363,0.677,0.27,0.0
28.456,0.587,0.075,1.0
25.126,0.511,-0.076,0.0
54.608,1.093,1.328,0.0
0.0,0.0,0.0,0.0
36.962,0.718,0.479,0.0
31.584,0.605,0.226,0.0
27.517,0.519,0.041,0.0
24.542,0.455,-0.102,0.0
54.667,0.996,1.267,0.0
0.0,0.0,0.0,0.0
35.506,0.626,0.419,0.0
28.9,0.501,0.174,0.0
26.924,0.459,0.01,0.0
23.816,0.399,-0.126,1.0
58.657,0.962,1.294,0.0
0.0,0.0,0.0,0.0
34.483,0.545,0.369,0.0
28.871,0.447,0.142,4.0
26.295,0.4,-0.019,0.0
23.337,0.348,-0.149,0.0
0.0,0.0,0.0,0.0
40.579,0.578,0.621,0.0
33.539,0.468,0.323,0.0
28.842,0.394,0.111,6.0
25.848,0.345,-0.046,0.0
22.814,0.298,-0.17,0.0
0.0,0.0,0.0,0.0
38.134,0.473,0.544,0.0
0.0,0.0,0.0,0.0
28.74,0.339,0.081,4.0
25.226,0.289,-0.071,0.0
22.072,0.246,-0.187,2.0
0.0,0.0,0.0,0.0
37.043,0.39,0.49,0.0
31.584,0.322,0.239,0.0
27.855,0.275,0.05,1.0
24.644,0.235,-0.094,0.0
21.835,0.202,-0.207,3.0
0.0,0.0,0.0,0.0
0.0,0.0,0.0,0.0
29.023,0.24,0.191,0.0
27.21,0.217,0.022,0.0
24.227,0.185,-0.116,0.0
21.058,0.154,-0.22,1.0
43.546,0.305,0.738,1.0
35.532,0.237,0.401,0.0
28.819,0.183,0.162,0.0
26.751,0.161,-0.002,0.0
23.51,0.134,-0.135,0.0
20.657,0.111,-0.235,0.0
41.506,0.21,0.665,0.0
0.0,0.0,0.0,0.0
28.778,0.127,0.136,0.0
26.147,0.107,-0.026,0.0
23.149,0.087,-0.154,1.0
19.982,0.068,-0.245,0.0
39.844,0.124,0.603,0.0
0.0,0.0,0.0,0.0
28.71,0.07,0.11,3.0
25.753,0.054,-0.048,0.0
22.864,0.041,-0.172,0.0
19.431,0.028,-0.255,0.0
0.0,0.0,0.0,0.0
33.094,0.027,0.286,0.0
28.517,0.013,0.085,1.0
25.323,0.004,-0.068,0.0
21.995,-0.003,-0.183,0.0
19.042,-0.009,-0.266,0.0
0.0,0.0,0.0,0.0
31.472,-0.036,0.246,0.0
28.366,-0.042,0.062,1.0
24.983,-0.045,-0.088,0.0
21.771,-0.047,-0.199,0.0
18.648,-0.046,-0.275,0.0
36.384,-0.103,0.461,0.0
31.298,-0.098,0.22,0.0
27.544,-0.096,0.039,0.0
24.353,-0.093,-0.104,0.0
21.608,-0.09,-0.214,0.0
18.406,-0.083,-0.286,0.0
35.949,-0.174,0.428,0.0
30.844,-0.16,0.194,0.0
27.13,-0.149,0.018,0.0
24.149,-0.141,-0.121,0.0
20.944,-0.13,-0.223,0.0
18.182,-0.119,-0.296,0.0
0.0,0.0,0.0,0.0
28.849,-0.208,0.161,2.0
26.723,-0.202,0.0,0.0
23.815,-0.188,-0.136,0.0
20.505,-0.169,-0.233,0.0
17.904,-0.154,-0.304,0.0
33.675,-0.3,0.354,0.0
28.779,-0.266,0.141,4.0
26.335,-0.253,-0.018,0.0
23.049,-0.229,-0.147,0.0
20.092,-0.207,-0.241,0.0
17.707,-0.188,-0.312,0.0
32.999,-0.361,0.326,1.0
28.677,-0.323,0.122,1.0
26.0,-0.302,-0.034,0.0
23.061,-0.276,-0.162,1.0
19.862,-0.245,-0.251,0.0
17.507,-0.222,-0.319,0.0
32.94,-0.428,0.305,1.0
28.647,-0.382,0.105,1.0
25.548,-0.349,-0.049,0.0
22.696,-0.318,-0.173,0.0
19.459,-0.28,-0.257,0.0
17.254,-0.254,-0.324,0.0
32.644,-0.491,0.284,0.0
28.521,-0.438,0.088,1.0
25.401,-0.4,-0.062,0.0
22.283,-0.358,-0.182,0.0
19.289,-0.317,-0.265,0.0
17.152,-0.288,-0.332,0.0
32.991,-0.564,0.269,0.0
28.313,-0.494,0.073,0.0
24.873,-0.443,-0.074,0.0
22.116,-0.401,-0.192,0.0
19.106,-0.353,-0.272,0.0
17.013,-0.321,-0.338,0.0
0.0,0.0,0.0,0.0
28.314,-0.553,0.059,1.0
24.676,-0.491,-0.086,1.0
21.972,-0.445,-0.201,0.0
18.581,-0.383,-0.274,0.0
16.852,-0.353,-0.342,0.0
31.192,-0.662,0.225,0.0
27.63,-0.596,0.045,0.0
24.547,-0.539,-0.096,0.0
21.751,-0.485,-0.209,0.0
18.459,-0.418,-0.28,0.0
16.753,-0.386,-0.348,0.0
31.224,-0.728,0.212,0.0
27.536,-0.652,0.033,0.0
24.003,-0.577,-0.104,0.0
21.621,-0.527,-0.216,0.0
18.399,-0.455,-0.286,0.0
16.655,-0.418,-0.352,0.0
28.731,-0.729,0.184,0.0
27.284,-0.702,0.023,0.0
23.858,-0.623,-0.112,0.0
20.952,-0.554,-0.217,1.0
18.278,-0.49,-0.291,0.0
16.548,-0.45,-0.356,0.0
28.904,-0.794,0.175,0.0
27.137,-0.755,0.014,0.0
23.715,-0.668,-0.119,0.0
21.01,-0.6,-0.225,1.0
18.119,-0.524,-0.294,0.0
16.519,-0.484,-0.36,0.0
28.664,-0.847,0.165,0.0
27.107,-0.811,0.005,0.0
23.502,-0.711,-0.125,0.0
20.91,-0.641,-0.23,0.0
18.106,-0.561,-0.299,0.0
16.414,-0.515,-0.363,0.0
28.759,-0.91,0.158,0.0
26.786,-0.857,-0.001,0.0
23.558,-0.762,-0.131,0.0
20.933,-0.685,-0.235,1.0
18.035,-0.597,-0.303,0.0
16.368,-0.548,-0.365,0.0
28.635,-0.965,0.15,0.0
26.493,-0.903,-0.007,0.0
23.447,-0.807,-0.136,0.0
20.825,-0.725,-0.238,0.0
17.921,-0.63,-0.304,0.0
16.356,-0.581,-0.368,0.0
28.657,-1.025,0.145,3.0
26.529,-0.959,-0.012,0.0
23.013,-0.84,-0.138,0.0
20.711,-0.764,-0.241,0.0
17.899,-0.666,-0.307,0.0
16.28,-0.612,-0.369,0.0
28.669,-1.085,0.141,5.0
26.719,-1.021,-0.016,0.0
23.215,-0.895,-0.142,1.0
20.499,-0.798,-0.241,0.0
17.848,-0.701,-0.308,0.0
16.267,-0.645,-0.371,0.0
28.666,-1.144,0.137,6.0
25.925,-1.044,-0.018,0.0
23.255,-0.945,-0.145,1.0
20.259,-0.831,-0.24,0.0
17.808,-0.737,-0.31,0.0
16.19,-0.676,-0.371,0.0
28.641,-1.202,0.135,5.0
26.019,-1.101,-0.02,2.0
23.378,-0.998,-0.147,1.0
20.187,-0.87,-0.24,0.0
17.823,-0.774,-0.311,0.0
16.245,-0.712,-0.373,0.0
28.627,-1.26,0.134,3.0
26.115,-1.159,-0.021,3.0
23.295,-1.042,-0.147,1.0
20.147,-0.909,-0.241,0.0
17.816,-0.81,-0.311,0.0
16.193,-0.742,-0.372,0.0
28.569,-1.315,0.133,0.0
26.345,-1.223,-0.021,1.0
23.214,-1.085,-0.147,1.0
19.92,-0.939,-0.237,0.0
17.798,-0.846,-0.31,0.0
16.191,-0.776,-0.371,0.0
28.605,-1.375,0.135,1.0
26.646,-1.291,-0.02,0.0
23.267,-1.135,-0.146,1.0
19.955,-0.981,-0.237,0.0
17.756,-0.879,-0.309,0.0
16.293,-0.813,-0.373,0.0
28.566,-1.43,0.136,0.0
26.392,-1.331,-0.018,0.0
23.445,-1.191,-0.145,1.0
20.102,-1.028,-0.237,0.0
17.855,-0.92,-0.309,0.0
16.236,-0.843,-0.37,0.0
28.624,-1.491,0.14,0.0
26.368,-1.383,-0.015,0.0
23.447,-1.238,-0.142,1.0
34.141,-1.816,-0.398,0.0
17.883,-0.958,-0.307,0.0
16.299,-0.879,-0.369,0.0
28.597,-1.547,0.144,3.0
34.251,-1.865,-0.015,2.0
34.25,-1.878,-0.202,4.0
34.236,-1.89,-0.394,4.0
17.922,-0.996,-0.304,0.0
16.426,-0.919,-0.369,0.0
28.589,-1.603,0.149,2.0
34.255,-1.933,-0.008,0.0
23.677,-1.344,-0.135,1.0
20.49,-1.171,-0.231,0.0
17.963,-1.033,-0.301,0.0
16.522,-0.956,-0.368,0.0
0.0,0.0,0.0,0.0
26.972,-1.575,0.0,0.0
23.859,-1.402,-0.131,0.0
20.648,-1.22,-0.228,0.0
18.066,-1.074,-0.299,0.0
16.505,-0.988,-0.363,0.0
30.572,-1.834,0.174,1.0
27.249,-1.644,0.006,0.0
23.839,-1.447,-0.124,0.0
20.884,-1.275,-0.225,0.0
18.215,-1.119,-0.296,0.0
16.61,-1.026,-0.361,0.0
30.426,-1.885,0.182,1.0
27.303,-1.701,0.014,0.0
23.83,-1.493,-0.117,0.0
21.33,-1.344,-0.224,0.0
18.302,-1.16,-0.292,0.0
16.623,-1.059,-0.356,0.0
30.555,-1.951,0.193,0.0
27.781,-1.784,0.024,0.0
24.103,-1.556,-0.11,0.0
21.392,-1.389,-0.217,0.0
18.507,-1.208,-0.288,0.0
16.758,-1.1,-0.353,0.0
30.882,-2.031,0.206,0.0
27.792,-1.838,0.034,0.0
24.387,-1.621,-0.102,0.0
21.735,-1.452,-0.212,0.0
18.615,-1.251,-0.283,0.0
16.906,-1.142,-0.349,0.0
31.075,-2.102,0.22,0.0
27.723,-1.885,0.045,0.0
0.0,0.0,0.0,0.0
21.819,-1.499,-0.204,0.0
18.821,-1.3,-0.278,0.0
16.993,-1.18,-0.344,0.0
31.799,-2.212,0.239,0.0
33.929,-2.371,0.07,1.0
33.926,-2.382,-0.113,5.0
33.917,-2.394,-0.302,1.0
19.028,-1.35,-0.273,0.0
17.082,-1.218,-0.338,0.0
31.791,-2.269,0.253,0.0
33.91,-2.432,0.086,4.0
33.908,-2.444,-0.097,8.0
33.924,-2.456,-0.285,2.0
19.221,-1.398,-0.266,0.0
17.25,-1.261,-0.332,0.0
32.21,-2.358,0.273,0.0
33.907,-2.493,0.103,4.0
33.9,-2.504,-0.08,10.0
33.889,-2.515,-0.267,15.0
19.616,-1.463,-0.261,0.0
17.459,-1.308,-0.327,0.0
0.0,0.0,0.0,0.0
33.846,-2.549,0.121,1.0
33.871,-2.563,-0.061,2.0
33.863,-2.573,-0.249,6.0
19.853,-1.515,-0.253,0.0
17.644,-1.353,-0.321,0.0
33.261,-2.552,0.318,0.0
33.929,-2.615,0.141,0.0
33.912,-2.625,-0.042,1.0
33.866,-2.632,-0.229,6.0
33.853,-2.643,-0.413,0.0
17.841,-1.399,-0.314,0.0
34.105,-2.677,0.347,0.0
29.91,-2.357,0.142,0.0
33.892,-2.682,-0.021,1.0
33.863,-2.691,-0.208,15.0
20.772,-1.657,-0.24,1.0
17.946,-1.438,-0.305,0.0
0.0,0.0,0.0,0.0
30.421,-2.449,0.164,0.0
33.852,-2.737,0.0,1.0
33.858,-2.749,-0.186,8.0
33.859,-2.76,-0.369,3.0
18.286,-1.496,-0.298,0.0
35.617,-2.917,0.408,0.0
30.63,-2.518,0.185,0.0
33.815,-2.791,0.022,1.0
33.821,-2.802,-0.163,6.0
33.861,-2.817,-0.346,5.0
18.634,-1.556,-0.291,0.0
0.0,0.0,0.0,0.0
31.169,-2.614,0.21,0.0
33.875,-2.852,0.046,0.0
33.837,-2.859,-0.14,0.0
21.64,-1.835,-0.206,0.0
18.914,-1.61,-0.282,0.0
34.445,-2.935,0.444,0.0
31.65,-2.706,0.237,0.0
28.491,-2.445,0.059,0.0
25.251,-2.175,-0.085,0.0
22.088,-1.909,-0.194,0.0
19.294,-1.674,-0.273,0.0
34.368,-2.983,0.468,1.0
32.221,-2.806,0.265,0.0
28.926,-2.528,0.082,0.0
25.568,-2.242,-0.067,0.0
22.651,-1.993,-0.181,0.0
19.576,-1.729,-0.262,0.0
34.354,-3.036,0.495,2.0
33.293,-2.952,0.3,0.0
29.193,-2.597,0.106,0.0
25.935,-2.315,-0.047,0.0
23.032,-2.063,-0.166,1.0
19.894,-1.788,-0.251,0.0
90.608,-0.914,3.289,47.0
90.124,-0.893,2.746,2.0
0.0,0.0,0.0,0.0
0.0,0.0,0.0,0.0
0.0,0.0,0.0,0.0
31.726,-0.293,0.224,1.0
90.606,-0.819,3.12,28.0
82.763,-0.734,2.369,3.0
0.0,0.0,0.0,0.0
42.828,-0.365,0.722,0.0
35.202,-0.294,0.388,0.0
28.856,-0.237,0.15,2.0
90.553,-0.726,2.948,15.0
81.879,-0.643,2.188,1.0
0.0,0.0,0.0,0.0
0.0,0.0,0.0,0.0
32.732,-0.241,0.299,1.0
28.737,-0.207,0.095,6.0
82.908,-0.583,2.542,6.0
0.0,0.0,0.0,0.0
0.0,0.0,0.0,0.0
36.442,-0.239,0.476,0.0
31.497,-0.202,0.228,1.0
27.87,-0.174,0.039,0.0
81.015,-0.492,2.328,3.0
0.0,0.0,0.0,0.0
0.0,0.0,0.0,0.0
0.0,0.0,0.0,0.0
28.88,-0.158,0.154,2.0
26.573,-0.142,-0.012,0.0
78.951,-0.408,2.119,0.0
0.0,0.0,0.0,0.0
0.0,0.0,0.0,0.0
33.096,-0.156,0.305,1.0
28.758,-0.132,0.097,6.0
25.468,-0.113,-0.062,0.0
0.0,0.0,0.0,0.0
0.0,0.0,0.0,0.0
37.439,-0.149,0.494,0.0
31.473,-0.121,0.228,1.0
27.672,-0.103,0.039,1.0
24.271,-0.087,-0.106,0.0
57.56,-0.197,1.317,0.0
43.353,-0.143,0.74,0.0
0.0,0.0,0.0,0.0
28.872,-0.087,0.153,2.0
26.558,-0.076,-0.014,0.0
23.53,-0.065,-0.149,0.0
0.0,0.0,0.0,0.0
0.0,0.0,0.0,0.0
33.177,-0.078,0.307,0.0
28.755,-0.064,0.095,6.0
25.413,-0.053,-0.063,0.0
22.121,-0.043,-0.184,0.0
0.0,0.0,0.0,0.0
37.33,-0.063,0.488,0.0
31.302,-0.049,0.226,0.0
27.645,-0.04,0.036,0.0
24.18,-0.032,-0.109,0.0
21.132,-0.025,-0.219,2.0
0.0,0.0,0.0,0.0
0.0,0.0,0.0,0.0
29.61,-0.024,0.154,0.0
26.348,-0.019,-0.018,0.0
23.518,-0.014,-0.154,0.0
19.961,-0.009,-0.247,0.0
0.0,0.0,0.0,0.0
33.17,-0.008,0.299,0.0
28.604,-0.003,0.091,1.0
25.365,0.0,-0.069,0.0
21.975,0.001,-0.188,0.0
18.832,0.003,-0.271,0.0
0.0,0.0,0.0,0.0
30.911,0.012,0.215,0.0
27.464,0.014,0.031,0.0
23.976,0.015,-0.114,0.0
21.078,0.015,-0.224,3.0
18.131,0.015,-0.298,0.0
34.422,0.032,0.371,0.0
28.854,0.03,0.142,0.0
26.294,0.03,-0.023,0.0
23.259,0.029,-0.159,0.0
19.864,0.027,-0.252,0.0
17.41,0.025,-0.322,0.0
0.0,0.0,0.0,0.0
28.657,0.047,0.081,5.0
25.19,0.044,-0.075,0.0
21.728,0.04,-0.194,3.0
18.778,0.036,-0.277,0.0
16.8,0.034,-0.346,0.0
30.474,0.065,0.201,0.0
27.138,0.06,0.02,0.0
23.828,0.055,-0.121,0.0
20.928,0.05,-0.23,1.0
17.957,0.045,-0.302,0.0
16.329,0.042,-0.37,0.0
28.8,0.076,0.13,1.0
25.878,0.071,-0.034,0.0
22.949,0.065,-0.164,1.0
19.542,0.057,-0.256,0.0
17.22,0.052,-0.326,0.0
15.763,0.049,-0.391,0.0
28.355,0.089,0.068,1.0
24.918,0.081,-0.085,0.0
21.511,0.071,-0.198,4.0
18.538,0.063,-0.281,0.0
16.698,0.058,-0.351,0.0
15.288,0.054,-0.41,0.0
26.802,0.097,0.009,0.0
23.48,0.086,-0.128,0.0
20.776,0.078,-0.235,0.0
17.758,0.068,-0.306,0.0
16.218,0.063,-0.375,0.0
14.856,0.059,-0.43,0.0
25.708,0.103,-0.044,0.0
22.494,0.092,-0.17,1.0
19.391,0.081,-0.26,0.0
17.09,0.072,-0.331,0.0
15.717,0.068,-0.396,0.0
14.305,0.063,-0.444,0.0
24.67,0.109,-0.094,0.0
21.263,0.095,-0.205,3.0
18.398,0.083,-0.285,0.0
16.552,0.076,-0.355,0.0
15.159,0.071,-0.414,0.0
13.899,0.066,-0.461,0.0
23.153,0.11,-0.137,0.0
20.09,0.097,-0.236,0.0
17.605,0.086,-0.31,0.0
16.065,0.079,-0.379,0.0
14.699,0.073,-0.432,0.0
13.601,0.069,-0.48,0.0
22.274,0.113,-0.179,2.0
19.074,0.098,-0.265,0.0
16.959,0.088,-0.334,0.0
15.611,0.082,-0.401,0.0
14.222,0.075,-0.448,0.0
13.237,0.071,-0.495,0.0
21.001,0.112,-0.213,1.0
18.19,0.098,-0.291,0.0
16.455,0.089,-0.359,0.0
15.051,0.082,-0.418,0.0
13.884,0.077,-0.467,0.0
12.879,0.072,-0.508,0.0
19.951,0.111,-0.244,0.0
17.381,0.097,-0.314,0.0
15.952,0.09,-0.382,0.0
14.604,0.083,-0.436,0.0
13.494,0.077,-0.482,0.0
12.613,0.073,-0.525,0.0
18.759,0.108,-0.269,0.0
16.82,0.097,-0.339,0.0
15.48,0.09,-0.403,0.0
14.136,0.083,-0.452,0.0
13.157,0.078,-0.497,0.0
12.328,0.073,-0.538,0.0
18.021,0.107,-0.296,0.0
16.355,0.097,-0.364,0.0
14.927,0.089,-0.42,0.0
13.803,0.083,-0.47,0.0
12.759,0.077,-0.509,0.0
11.939,0.072,-0.546,0.0
17.242,0.104,-0.319,0.0
15.803,0.096,-0.385,0.0
14.433,0.088,-0.436,0.0
13.426,0.082,-0.485,0.0
12.455,0.076,-0.523,0.0
11.744,0.072,-0.562,0.0
16.667,0.102,-0.343,0.0
15.303,0.094,-0.405,0.0
14.079,0.087,-0.455,0.0
13.107,0.081,-0.501,0.0
12.267,0.076,-0.541,0.0
11.46,0.071,-0.573,0.0
16.26,0.1,-0.369,0.0
14.884,0.092,-0.425,0.0
13.724,0.085,-0.472,0.0
12.684,0.079,-0.511,0.0
11.926,0.074,-0.551,0.0
11.195,0.07,-0.582,0.0
15.745,0.097,-0.39,0.0
14.365,0.089,-0.439,0.0
13.374,0.083,-0.487,0.0
12.407,0.077,-0.526,0.0
11.705,0.073,-0.565,0.0
10.984,0.068,-0.594,0.0
15.152,0.093,-0.406,0.0
13.995,0.086,-0.457,0.0
13.039,0.08,-0.502,0.0
12.143,0.075,-0.54,0.0
11.396,0.07,-0.573,0.0
10.677,0.066,-0.6,0.0
14.954,-0.945,-0.414,0.0
13.95,-0.879,-0.459,0.0
13.052,-0.819,-0.498,0.0
12.378,-0.775,-0.538,0.0
11.599,-0.724,-0.565,0.0
10.978,-0.683,-0.593,0.0
15.245,-0.946,-0.399,0.0
14.228,-0.88,-0.447,0.0
13.34,-0.822,-0.489,0.0
12.485,-0.767,-0.524,0.0
11.816,-0.724,-0.558,0.0
11.136,-0.68,-0.584,0.0
15.801,-0.963,-0.39,0.0
14.562,-0.884,-0.436,0.0
13.596,-0.823,-0.478,0.0
12.758,-0.769,-0.517,0.0
11.928,-0.717,-0.546,0.0
11.344,-0.68,-0.579,0.0
16.133,-0.964,-0.374,0.0
14.893,-0.887,-0.424,0.0
13.821,-0.82,-0.465,0.0
12.935,-0.765,-0.505,0.0
12.223,-0.72,-0.541,0.0
11.558,-0.678,-0.573,0.0
16.62,-0.973,-0.361,0.0
15.192,-0.886,-0.41,0.0
14.046,-0.816,-0.453,0.0
13.183,-0.763,-0.496,0.0
12.418,-0.716,-0.532,0.0
11.75,-0.675,-0.565,0.0
17.025,-0.975,-0.346,0.0
15.586,-0.889,-0.398,0.0
14.426,-0.82,-0.444,0.0
13.477,-0.763,-0.487,0.0
12.585,-0.709,-0.521,0.0
11.872,-0.667,-0.554,0.0
17.429,-0.976,-0.329,0.0
15.898,-0.886,-0.384,0.0
14.727,-0.818,-0.433,0.0
13.632,-0.754,-0.473,0.0
12.83,-0.706,-0.513,0.0
12.062,-0.661,-0.546,0.0
17.88,-0.977,-0.312,0.0
16.377,-0.891,-0.372,0.0
14.944,-0.81,-0.418,0.0
13.884,-0.749,-0.463,0.0
13.124,-0.705,-0.506,0.0
12.298,-0.657,-0.539,0.0
18.395,-0.98,-0.296,0.0
16.786,-0.891,-0.358,0.0
15.322,-0.809,-0.407,0.0
14.168,-0.745,-0.452,0.0
13.247,-0.693,-0.493,0.0
12.46,-0.649,-0.529,0.0
18.957,-0.984,-0.279,0.0
17.15,-0.886,-0.342,0.0
15.747,-0.809,-0.397,0.0
14.43,-0.738,-0.441,0.0
13.517,-0.688,-0.485,0.0
12.678,-0.642,-0.521,0.0
19.455,-0.982,-0.26,0.0
17.517,-0.88,-0.326,0.0
16.072,-0.803,-0.384,0.0
14.757,-0.734,-0.431,0.0
13.706,-0.678,-0.473,0.0
12.975,-0.638,-0.516,0.0
20.03,-0.982,-0.241,0.0
17.996,-0.877,-0.311,0.0
16.435,-0.797,-0.37,0.0
14.926,-0.72,-0.416,0.0
13.962,-0.669,-0.463,0.0
13.103,-0.625,-0.504,0.0
21.375,-1.015,-0.228,0.0
18.553,-0.876,-0.296,0.0
16.728,-0.786,-0.355,0.0
15.332,-0.716,-0.408,0.0
14.216,-0.66,-0.453,0.0
13.305,-0.614,-0.494,0.0
21.67,-0.996,-0.204,1.0
19.066,-0.871,-0.28,0.0
17.167,-0.78,-0.342,0.0
15.734,-0.71,-0.398,0.0
14.569,-0.654,-0.446,0.0
13.543,-0.604,-0.486,0.0
22.613,-1.004,-0.183,1.0
19.439,-0.857,-0.26,0.0
17.527,-0.768,-0.327,0.0
16.062,-0.7,-0.386,0.0
14.747,-0.638,-0.432,0.0
13.748,-0.591,-0.476,0.0
23.316,-0.998,-0.16,1.0
20.683,-0.879,-0.251,0.0
17.98,-0.759,-0.313,0.0
16.398,-0.687,-0.374,0.0
15.091,-0.628,-0.424,0.0
13.96,-0.577,-0.466,0.0
19.529,2.008,-0.266,0.0
17.484,1.8,-0.338,0.0
16.04,1.653,-0.402,0.0
14.728,1.52,-0.455,0.0
13.604,1.406,-0.498,0.0
12.709,1.315,-0.538,0.0
19.234,1.995,-0.286,0.0
17.177,1.783,-0.353,0.0
15.806,1.643,-0.415,0.0
14.455,1.504,-0.464,0.0
13.436,1.4,-0.508,0.0
12.598,1.314,-0.549,0.0
18.514,1.935,-0.297,0.0
16.942,1.773,-0.369,0.0
15.522,1.626,-0.427,0.0
14.207,1.49,-0.474,0.0
13.232,1.39,-0.517,0.0
12.401,1.304,-0.556,0.0
18.171,1.914,-0.315,0.0
16.58,1.748,-0.382,0.0
15.199,1.604,-0.437,0.0
14.017,1.481,-0.485,0.0
13.045,1.38,-0.526,0.0
12.206,1.293,-0.562,0.0
17.692,1.877,-0.328,0.0
16.176,1.717,-0.393,0.0
14.932,1.587,-0.448,0.0
13.707,1.458,-0.491,0.0
12.843,1.368,-0.534,0.0
12.066,1.287,-0.571,0.0
17.341,1.852,-0.344,0.0
15.902,1.7,-0.406,0.0
14.582,1.56,-0.456,0.0
13.491,1.445,-0.501,0.0
12.602,1.351,-0.54,0.0
11.881,1.275,-0.577,0.0
17.043,1.831,-0.359,0.0
15.697,1.688,-0.421,0.0
14.376,1.547,-0.467,0.0
13.34,1.437,-0.512,0.0
12.497,1.348,-0.551,0.0
11.653,1.258,-0.581,0.0
16.734,1.808,-0.374,0.0
15.305,1.655,-0.429,0.0
14.131,1.529,-0.477,0.0
13.121,1.421,-0.52,0.0
12.355,1.34,-0.561,0.0
11.511,1.249,-0.588,0.0
16.368,1.778,-0.386,0.0
15.096,1.641,-0.443,0.0
13.827,1.504,-0.485,0.0
12.881,1.403,-0.527,0.0
12.094,1.318,-0.564,0.0
11.352,1.238,-0.595,0.0
16.093,1.757,-0.4,0.0
14.812,1.618,-0.453,0.0
13.661,1.493,-0.496,0.0
12.733,1.393,-0.537,0.0
12.028,1.317,-0.576,0.0
11.231,1.231,-0.603,0.0
15.797,1.732,-0.413,0.0
14.564,1.598,-0.464,0.0
13.397,1.471,-0.504,0.0
12.517,1.375,-0.544,0.0
11.742,1.291,-0.578,0.0
11.054,1.216,-0.607,0.0
15.527,1.709,-0.425,0.0
14.23,1.567,-0.471,0.0
13.194,1.454,-0.513,0.0
12.435,1.371,-0.556,0.0
11.588,1.279,-0.585,0.0
10.928,1.207,-0.614,0.0
15.217,1.681,-0.436,0.0
14.03,1.551,-0.483,0.0
13.027,1.441,-0.523,0.0
12.201,1.35,-0.561,0.0
11.448,1.268,-0.592,0.0
10.844,1.202,-0.624,0.0
14.956,1.657,-0.448,0.0
13.766,1.526,-0.491,0.0
12.857,1.426,-0.532,0.0
11.996,1.331,-0.567,0.0
11.241,1.248,-0.596,0.0
10.688,1.188,-0.628,0.0
14.651,1.628,-0.457,0.0
13.526,1.504,-0.5,0.0
12.669,1.409,-0.541,0.0
11.898,1.324,-0.577,0.0
11.127,1.239,-0.604,0.0
10.518,1.172,-0.631,0.0
14.327,1.596,-0.465,0.0
13.321,1.484,-0.509,0.0
12.537,1.397,-0.551,0.0
11.632,1.297,-0.579,0.0
11.027,1.23,-0.612,0.0
10.384,1.159,-0.636,0.0
14.109,1.574,-0.476,0.0
13.145,1.467,-0.519,0.0
12.283,1.372,-0.555,0.0
11.519,1.287,-0.588,0.0
10.899,1.218,-0.619,0.0
10.29,1.151,-0.644,0.0
13.865,1.549,-0.485,0.0
12.939,1.446,-0.526,0.0
12.204,1.364,-0.567,0.0
11.341,1.269,-0.593,0.0
10.786,1.207,-0.626,0.0
10.139,1.135,-0.647,0.0
13.633,1.525,-0.494,0.0
12.733,1.425,-0.534,0.0
12.018,1.345,-0.573,0.0
11.177,1.251,-0.598,0.0
10.618,1.189,-0.63,0.0
10.054,1.127,-0.654,0.0
13.448,1.505,-0.503,0.0
12.611,1.412,-0.544,0.0
11.813,1.323,-0.578,0.0
11.079,1.241,-0.607,0.0
10.469,1.173,-0.634,0.0
9.865,1.106,-0.654,0.0
13.294,1.488,-0.514,0.0
12.42,1.391,-0.551,0.0
11.61,1.3,-0.582,0.0
10.948,1.226,-0.613,0.0
10.343,1.159,-0.639,0.0
9.791,1.097,-0.661,0.0
13.054,1.461,-0.52,0.0
12.221,1.368,-0.557,0.0
11.447,1.282,-0.588,0.0
10.85,1.215,-0.621,0.0
10.192,1.142,-0.642,0.0
9.66,1.082,-0.664,0.0
12.891,1.442,-0.529,0.0
12.091,1.353,-0.566,0.0
11.277,1.262,-0.592,0.0
10.729,1.201,-0.626,0.0
10.091,1.129,-0.647,0.0
9.577,1.072,-0.67,0.0
12.682,1.417,-0.536,0.0
11.963,1.337,-0.574,0.0
11.119,1.243,-0.597,0.0
10.553,1.18,-0.629,0.0
10.012,1.119,-0.654,0.0
9.435,1.055,-0.671,0.0
12.526,1.398,-0.544,0.0
11.764,1.313,-0.578,0.0
11.046,1.233,-0.606,0.0
10.463,1.168,-0.635,0.0
9.896,1.105,-0.658,0.0
9.382,1.047,-0.678,0.0
12.419,1.384,-0.553,0.0
11.634,1.296,-0.585,0.0
10.924,1.217,-0.612,0.0
10.305,1.148,-0.638,0.0
9.734,1.085,-0.658,0.0
9.322,1.039,-0.684,0.0
12.222,1.359,-0.559,0.0
11.429,1.271,-0.588,0.0
10.825,1.203,-0.619,0.0
10.288,1.144,-0.648,0.0
9.673,1.075,-0.665,0.0
9.256,1.029,-0.69,0.0
12.096,1.342,-0.566,0.0
11.3,1.253,-0.594,0.0
10.702,1.186,-0.624,0.0
10.08,1.117,-0.647,0.0
9.528,1.056,-0.666,0.0
0.0,0.0,0.0,0.0
11.945,1.321,-0.573,0.0
11.164,1.234,-0.599,0.0
10.548,1.166,-0.627,0.0
10.051,1.111,-0.656,0.0
9.472,1.047,-0.673,0.0
0.0,0.0,0.0,0.0
11.741,1.294,-0.576,0.0
11.033,1.216,-0.604,0.0
10.429,1.149,-0.631,0.0
9.826,1.082,-0.652,0.0
9.358,1.03,-0.675,0.0
8.889,0.979,-0.692,0.0
11.612,1.275,-0.582,0.0
10.943,1.201,-0.611,0.0
10.299,1.13,-0.634,0.0
9.703,1.065,-0.654,0.0
9.338,1.024,-0.683,0.0
8.819,0.967,-0.696,0.0
11.438,1.251,-0.585,0.0
10.831,1.184,-0.616,0.0
10.259,1.121,-0.642,0.0
9.629,1.052,-0.659,0.0
9.211,1.006,-0.683,0.0
8.755,0.956,-0.7,0.0
11.328,1.233,-0.591,0.0
10.741,1.169,-0.622,0.0
10.11,1.1,-0.643,0.0
9.547,1.038,-0.663,0.0
0.0,0.0,0.0,0.0
8.677,0.943,-0.703,0.0
11.179,1.211,-0.594,0.0
10.621,1.15,-0.626,0.0
9.992,1.081,-0.646,0.0
9.449,1.022,-0.666,0.0
0.0,0.0,0.0,0.0
8.596,0.929,-0.705,0.0
11.084,1.194,-0.6,0.0
10.502,1.131,-0.629,0.0
9.862,1.062,-0.647,0.0
9.441,1.016,-0.674,0.0
8.884,0.956,-0.686,0.0
8.58,0.923,-0.711,0.0
10.981,1.177,-0.605,0.0
10.399,1.114,-0.632,0.0
9.768,1.046,-0.65,0.0
9.294,0.994,-0.673,0.0
8.867,0.948,-0.693,0.0
8.468,0.905,-0.71,0.0
10.899,1.161,-0.611,0.0
10.315,1.098,-0.637,0.0
9.758,1.038,-0.658,0.0
0.0,0.0,0.0,0.0
8.857,0.941,-0.7,0.0
8.452,0.898,-0.717,0.0
10.802,1.143,-0.615,0.0
10.183,1.077,-0.638,0.0
9.665,1.021,-0.661,0.0
0.0,0.0,0.0,0.0
8.889,0.938,-0.71,0.0
8.373,0.883,-0.717,0.0
10.733,1.128,-0.62,0.0
10.142,1.065,-0.644,0.0
9.544,1.002,-0.661,0.0
0.0,0.0,0.0,0.0
0.0,0.0,0.0,0.0
8.348,0.874,-0.722,0.0
10.624,1.109,-0.623,0.0
10.014,1.044,-0.644,0.0
9.455,0.985,-0.662,0.0
0.0,0.0,0.0,0.0
0.0,0.0,0.0,0.0
8.258,0.859,-0.722,0.0
10.555,1.093,-0.628,0.0
9.943,1.029,-0.648,0.0
9.512,0.983,-0.674,0.0
0.0,0.0,0.0,0.0
8.518,0.879,-0.702,0.0
8.205,0.846,-0.724,0.0
10.475,1.076,-0.631,0.0
9.91,1.017,-0.654,0.0
9.361,0.96,-0.671,0.0
0.0,0.0,0.0,0.0
8.522,0.872,-0.709,0.0
8.136,0.832,-0.724,0.0
10.361,1.055,-0.632,0.0
9.799,0.997,-0.654,0.0
9.311,0.946,-0.674,0.0
0.0,0.0,0.0,0.0
8.498,0.862,-0.713,0.0
8.127,0.824,-0.729,0.0
10.307,1.04,-0.636,0.0
9.733,0.981,-0.656,0.0
0.0,0.0,0.0,0.0
0.0,0.0,0.0,0.0
8.393,0.844,-0.711,0.0
8.035,0.807,-0.726,0.0
10.193,1.019,-0.636,0.0
9.667,0.965,-0.659,0.0
0.0,0.0,0.0,0.0
0.0,0.0,0.0,0.0
8.363,0.833,-0.714,0.0
0.0,0.0,0.0,0.0
10.102,1.0,-0.637,0.0
9.632,0.953,-0.663,0.0
0.0,0.0,0.0,0.0
8.643,0.853,-0.694,0.0
8.343,0.823,-0.718,0.0
0.0,0.0,0.0,0.0
10.131,0.993,-0.646,0.0
9.528,0.933,-0.661,0.0
0.0,0.0,0.0,0.0
0.0,0.0,0.0,0.0
8.305,0.81,-0.719,0.0
0.0,0.0,0.0,0.0
10.014,0.971,-0.644,0.0
9.521,0.922,-0.667,0.0
0.0,0.0,0.0,0.0
0.0,0.0,0.0,0.0
8.301,0.801,-0.724,0.0
0.0,0.0,0.0,0.0
9.936,0.953,-0.645,0.0
9.452,0.905,-0.667,0.0
0.0,0.0,0.0,0.0
0.0,0.0,0.0,0.0
8.219,0.784,-0.721,0.0
9.914,0.94,-0.648,0.0
9.412,0.891,-0.669,0.0
0.0,0.0,0.0,0.0
8.621,0.814,-0.712,0.0
8.231,0.776,-0.726,0.0
0.0,0.0,0.0,0.0
9.907,0.928,-0.653,0.0
9.338,0.874,-0.668,0.0
0.0,0.0,0.0,0.0
8.535,0.796,-0.709,0.0
8.148,0.759,-0.723,0.0
0.0,0.0,0.0,0.0
9.833,0.91,-0.653,0.0
9.324,0.862,-0.672,0.0
8.884,0.82,-0.69,0.0
0.0,0.0,0.0,0.0
8.14,0.749,-0.726,0.0
0.0,0.0,0.0,0.0
9.745,0.89,-0.651,0.0
9.308,0.849,-0.674,0.0
8.876,0.808,-0.693,0.0
0.0,0.0,0.0,0.0
8.142,0.739,-0.729,0.0
0.0,0.0,0.0,0.0
9.755,0.88,-0.655,0.0
9.307,0.838,-0.678,0.0
8.763,0.788,-0.688,0.0
8.385,0.752,-0.706,0.0
8.09,0.725,-0.727,0.0
0.0,0.0,0.0,0.0
9.704,0.863,-0.655,0.0
9.245,0.821,-0.676,0.0
8.767,0.777,-0.691,0.0
0.0,0.0,0.0,0.0
8.079,0.714,-0.729,0.0
0.0,0.0,0.0,0.0
9.659,0.847,-0.655,0.0
9.266,0.811,-0.68,0.0
8.775,0.767,-0.694,0.0
8.356,0.729,-0.709,0.0
0.0,0.0,0.0,0.0
0.0,0.0,0.0,0.0
9.677,0.836,-0.659,0.0
9.204,0.794,-0.678,0.0
8.809,0.758,-0.699,0.0
0.0,0.0,0.0,0.0
0.0,0.0,0.0,0.0
7.695,0.659,-0.742,0.0
9.664,0.823,-0.66,0.0
9.19,0.781,-0.679,0.0
0.0,0.0,0.0,0.0
0.0,0.0,0.0,0.0
0.0,0.0,0.0,0.0
7.676,0.647,-0.742,0.0
9.652,0.809,-0.661,0.0
9.108,0.762,-0.675,0.0
0.0,0.0,0.0,0.0
0.0,0.0,0.0,0.0
0.0,0.0,0.0,0.0
0.0,0.0,0.0,0.0
9.615,0.793,-0.66,0.0
9.114,0.75,-0.676,0.0
0.0,0.0,0.0,0.0
0.0,0.0,0.0,0.0
0.0,0.0,0.0,0.0
7.715,0.63,-0.747,0.0
9.631,0.781,-0.662,0.0
9.134,0.739,-0.679,0.0
8.711,0.704,-0.696,0.0
0.0,0.0,0.0,0.0
0.0,0.0,0.0,0.0
7.688,0.617,-0.745,0.0
9.604,0.766,-0.66,0.0
9.153,0.728,-0.681,0.0
8.672,0.688,-0.693,0.0
0.0,0.0,0.0,0.0
0.0,0.0,0.0,0.0
7.698,0.607,-0.746,0.0
9.62,0.754,-0.662,0.0
9.123,0.713,-0.678,0.0
8.668,0.676,-0.693,0.0
0.0,0.0,0.0,0.0
0.0,0.0,0.0,0.0
7.679,0.595,-0.744,0.0
9.59,0.738,-0.659,0.0
9.104,0.699,-0.677,0.0
0.0,0.0,0.0,0.0
0.0,0.0,0.0,0.0
0.0,0.0,0.0,0.0
7.636,0.58,-0.74,0.0
9.58,0.724,-0.658,0.0
9.118,0.687,-0.677,0.0
8.744,0.657,-0.698,0.0
0.0,0.0,0.0,0.0
0.0,0.0,0.0,0.0
9.64,0.714,-0.661,0.0
9.149,0.676,-0.678,0.0
8.783,0.647,-0.7,0.0
0.0,0.0,0.0,0.0
0.0,0.0,0.0,0.0
9.614,0.698,-0.658,0.0
9.178,0.665,-0.679,0.0
8.714,0.629,-0.693,0.0
0.0,0.0,0.0,0.0
0.0,0.0,0.0,0.0
9.62,0.685,-0.656,0.0
9.221,0.655,-0.68,0.0
0.0,0.0,0.0,0.0
0.0,0.0,0.0,0.0
0.0,0.0,0.0,0.0
9.601,0.67,-0.653,0.0
9.258,0.644,-0.681,0.0
0.0,0.0,0.0,0.0
0.0,0.0,0.0,0.0
0.0,0.0,0.0,0.0
9.657,0.659,-0.654,0.0
9.184,0.625,-0.673,0.0
0.0,0.0,0.0,0.0
0.0,0.0,0.0,0.0
0.0,0.0,0.0,0.0
9.697,0.647,-0.653,0.0
0.0,0.0,0.0,0.0
0.0,0.0,0.0,0.0
0.0,0.0,0.0,0.0
0.0,0.0,0.0,0.0
9.728,0.635,-0.652,0.0
0.0,0.0,0.0,0.0
0.0,0.0,0.0,0.0
0.0,0.0,0.0,0.0
0.0,0.0,0.0,0.0
9.789,0.624,-0.652,0.0
0.0,0.0,0.0,0.0
0.0,0.0,0.0,0.0
0.0,0.0,0.0,0.0
0.0,0.0,0.0,0.0
9.783,0.609,-0.647,0.0
0.0,0.0,0.0,0.0
0.0,0.0,0.0,0.0
0.0,0.0,0.0,0.0
0.0,0.0,0.0,0.0
0.0,0.0,0.0,0.0
9.834,0.598,-0.646,0.0
9.355,0.566,-0.666,0.0
0.0,0.0,0.0,0.0
0.0,0.0,0.0,0.0
0.0,0.0,0.0,0.0
0.0,0.0,0.0,0.0
9.947,0.589,-0.648,0.0
9.433,0.557,-0.666,0.0
0.0,0.0,0.0,0.0
0.0,0.0,0.0,0.0
0.0,0.0,0.0,0.0
0.0,0.0,0.0,0.0
9.954,0.575,-0.642,0.0
0.0,0.0,0.0,0.0
0.0,0.0,0.0,0.0
0.0,0.0,0.0,0.0
0.0,0.0,0.0,0.0
0.0,0.0,0.0,0.0
10.0,0.562,-0.639,0.0
0.0,0.0,0.0,0.0
0.0,0.0,0.0,0.0
0.0,0.0,0.0,0.0
0.0,0.0,0.0,0.0
0.0,0.0,0.0,0.0
0.0,0.0,0.0,0.0
0.0,0.0,0.0,0.0
0.0,0.0,0.0,0.0
0.0,0.0,0.0,0.0
0.0,0.0,0.0,0.0
0.0,0.0,0.0,0.0
10.194,0.542,-0.637,0.0
0.0,0.0,0.0,0.0
0.0,0.0,0.0,0.0
0.0,0.0,0.0,0.0
0.0,0.0,0.0,0.0
0.0,0.0,0.0,0.0
10.226,0.529,-0.632,0.0
0.0,0.0,0.0,0.0
0.0,0.0,0.0,0.0
0.0,0.0,0.0,0.0
8.42,0.427,-0.705,0.0
0.0,0.0,0.0,0.0
10.327,0.518,-0.63,0.0
0.0,0.0,0.0,0.0
0.0,0.0,0.0,0.0
0.0,0.0,0.0,0.0
0.0,0.0,0.0,0.0
0.0,0.0,0.0,0.0
10.358,0.504,-0.623,0.0
0.0,0.0,0.0,0.0
0.0,0.0,0.0,0.0
0.0,0.0,0.0,0.0
8.596,0.41,-0.705,0.0
8.188,0.389,-0.716,0.0
10.416,0.492,-0.617,0.0
0.0,0.0,0.0,0.0
0.0,0.0,0.0,0.0
0.0,0.0,0.0,0.0
0.0,0.0,0.0,0.0
8.232,0.379,-0.712,0.0
10.56,0.483,-0.616,0.0
0.0,0.0,0.0,0.0
0.0,0.0,0.0,0.0
0.0,0.0,0.0,0.0
8.68,0.389,-0.696,0.0
8.302,0.37,-0.71,0.0
10.643,0.471,-0.611,0.0
10.098,0.444,-0.634,0.0
0.0,0.0,0.0,0.0
0.0,0.0,0.0,0.0
8.754,0.379,-0.693,0.0
8.382,0.361,-0.709,0.0
10.656,0.456,-0.601,0.0
10.215,0.434,-0.631,0.0
0.0,0.0,0.0,0.0
0.0,0.0,0.0,0.0
0.0,0.0,0.0,0.0
8.436,0.351,-0.705,0.0
10.801,0.446,-0.598,0.0
10.309,0.423,-0.626,0.0
0.0,0.0,0.0,0.0
0.0,0.0,0.0,0.0
0.0,0.0,0.0,0.0
8.511,0.341,-0.702,0.0
10.978,0.437,-0.596,0.0
10.468,0.415,-0.624,0.0
9.928,0.391,-0.645,0.0
0.0,0.0,0.0,0.0
0.0,0.0,0.0,0.0
8.608,0.333,-0.7,0.0
11.161,0.429,-0.593,0.0
10.49,0.4,-0.614,0.0
10.061,0.382,-0.643,0.0
9.573,0.361,-0.664,0.0
0.0,0.0,0.0,0.0
8.696,0.324,-0.697,0.0
11.194,0.414,-0.582,0.0
10.618,0.39,-0.609,0.0
10.216,0.373,-0.641,0.0
0.0,0.0,0.0,0.0
0.0,0.0,0.0,0.0
8.738,0.313,-0.69,0.0
11.41,0.406,-0.58,0.0
10.709,0.378,-0.601,0.0
10.213,0.358,-0.628,0.0
0.0,0.0,0.0,0.0
0.0,0.0,0.0,0.0
0.0,0.0,0.0,0.0
11.51,0.393,-0.57,0.0
10.947,0.371,-0.601,0.0
10.354,0.349,-0.624,0.0
9.868,0.33,-0.648,0.0
9.425,0.313,-0.67,0.0
8.899,0.294,-0.68,0.0
11.731,0.384,-0.566,0.0
11.09,0.361,-0.595,0.0
10.504,0.339,-0.619,0.0
10.001,0.321,-0.644,0.0
0.0,0.0,0.0,0.0
9.054,0.286,-0.68,0.0
11.876,0.373,-0.558,0.0
11.255,0.351,-0.588,0.0
10.623,0.329,-0.612,0.0
10.114,0.311,-0.638,0.0
9.598,0.293,-0.657,0.0
9.134,0.276,-0.674,0.0
12.107,0.364,-0.552,0.0
11.359,0.339,-0.578,0.0
10.702,0.317,-0.602,0.0
10.202,0.3,-0.629,0.0
0.0,0.0,0.0,0.0
0.0,0.0,0.0,0.0
12.328,0.354,-0.545,0.0
11.578,0.33,-0.574,0.0
10.938,0.309,-0.6,0.0
10.302,0.289,-0.621,0.0
9.864,0.274,-0.647,0.0
9.39,0.259,-0.666,0.0
12.485,0.342,-0.535,0.0
11.722,0.318,-0.564,0.0
11.042,0.298,-0.59,0.0
10.476,0.28,-0.616,0.0
9.96,0.264,-0.639,0.0
0.0,0.0,0.0,0.0
12.661,0.33,-0.523,0.0
11.942,0.309,-0.557,0.0
11.251,0.289,-0.585,0.0
10.634,0.27,-0.61,0.0
10.117,0.255,-0.634,0.0
9.721,0.243,-0.661,0.0
12.92,0.321,-0.515,0.0
12.16,0.299,-0.549,0.0
11.468,0.279,-0.578,0.0
10.95,0.265,-0.611,0.0
10.288,0.246,-0.629,0.0
9.779,0.232,-0.65,0.0
13.15,0.31,-0.504,0.0
12.45,0.291,-0.543,0.0
11.621,0.269,-0.568,0.0
10.985,0.252,-0.597,0.0
10.428,0.237,-0.622,0.0
9.899,0.223,-0.642,0.0
13.391,0.299,-0.493,0.0
12.59,0.278,-0.53,0.0
11.834,0.259,-0.56,0.0
11.163,0.242,-0.589,0.0
10.604,0.228,-0.615,0.0
10.067,0.214,-0.637,0.0
13.642,0.288,-0.48,0.0
12.841,0.269,-0.52,0.0
12.04,0.249,-0.551,0.0
11.335,0.232,-0.58,0.0
10.773,0.219,-0.608,0.0
10.205,0.205,-0.63,0.0
13.913,0.277,-0.468,0.0
13.046,0.257,-0.507,0.0
12.353,0.241,-0.545,0.0
11.598,0.224,-0.574,0.0
10.972,0.21,-0.601,0.0
10.367,0.196,-0.622,0.0
14.271,0.268,-0.456,0.0
13.385,0.249,-0.498,0.0
12.505,0.23,-0.531,0.0
11.812,0.215,-0.565,0.0
11.14,0.2,-0.591,0.0
10.586,0.188,-0.618,0.0
14.581,0.257,-0.442,0.0
13.647,0.238,-0.485,0.0
12.804,0.221,-0.522,0.0
11.961,0.204,-0.552,0.0
11.324,0.191,-0.582,0.0
10.722,0.179,-0.607,0.0
14.943,0.247,-0.427,0.0
13.912,0.227,-0.47,0.0
13.065,0.211,-0.51,0.0
12.307,0.196,-0.546,0.0
11.585,0.183,-0.575,0.0
10.937,0.17,-0.6,0.0
15.384,0.238,-0.413,0.0
14.208,0.217,-0.456,0.0
13.321,0.201,-0.497,0.0
12.472,0.186,-0.532,0.0
11.817,0.174,-0.566,0.0
11.177,0.162,-0.594,0.0
15.784,0.227,-0.396,0.0
14.644,0.208,-0.444,0.0
13.599,0.191,-0.483,0.0
12.712,0.176,-0.52,0.0
12.006,0.164,-0.554,0.0
11.362,0.153,-0.583,0.0
16.218,0.217,-0.378,0.0
14.955,0.197,-0.427,0.0
13.914,0.181,-0.47,0.0
13.052,0.167,-0.51,0.0
12.32,0.156,-0.546,0.0
11.637,0.145,-0.576,0.0
16.678,0.206,-0.358,0.0
15.488,0.189,-0.413,0.0
14.266,0.171,-0.455,0.0
13.334,0.158,-0.496,0.0
12.574,0.147,-0.533,0.0
11.845,0.136,-0.564,0.0
17.103,0.195,-0.336,0.0
15.912,0.178,-0.395,0.0
14.647,0.162,-0.44,0.0
13.668,0.149,-0.483,0.0
12.813,0.137,-0.52,0.0
12.11,0.128,-0.554,0.0
17.733,0.185,-0.315,0.0
16.353,0.168,-0.376,0.0
15.123,0.153,-0.426,0.0
13.974,0.139,-0.468,0.0
13.148,0.129,-0.509,0.0
12.371,0.119,-0.543,0.0
18.442,0.176,-0.293,0.0
16.729,0.157,-0.353,0.0
15.569,0.143,-0.409,0.0
14.32,0.13,-0.452,0.0
13.458,0.12,-0.495,0.0
12.68,0.111,-0.532,0.0
19.275,0.167,-0.27,0.0
17.332,0.147,-0.332,0.0
15.947,0.133,-0.389,0.0
14.762,0.121,-0.438,0.0
13.776,0.111,-0.48,0.0
12.922,0.102,-0.517,0.0
20.413,0.159,-0.246,0.0
17.939,0.137,-0.309,0.0
16.468,0.124,-0.369,0.0
15.195,0.112,-0.421,0.0
14.115,0.102,-0.464,0.0
13.242,0.094,-0.504,0.0
21.379,0.149,-0.216,2.0
18.712,0.128,-0.286,0.0
16.96,0.114,-0.347,0.0
15.716,0.103,-0.405,0.0
14.452,0.093,-0.447,0.0
13.562,0.085,-0.49,0.0
22.424,0.139,-0.182,2.0
19.665,0.119,-0.262,0.0
17.489,0.104,-0.323,0.0
16.197,0.094,-0.385,0.0
14.956,0.085,-0.433,0.0
13.929,0.077,-0.475,0.0
23.28,0.127,-0.143,0.0
20.892,0.111,-0.236,1.0
18.283,0.095,-0.301,0.0
16.662,0.084,-0.362,0.0
15.422,0.076,-0.415,0.0
14.266,0.069,-0.458,0.0
24.698,0.117,-0.102,0.0
21.855,0.101,-0.203,3.0
19.086,0.086,-0.276,0.0
17.165,0.075,-0.339,0.0
15.907,0.067,-0.396,0.0
14.697,0.061,-0.442,0.0
25.791,0.105,-0.054,0.0
23.122,0.091,-0.168,1.0
20.232,0.077,-0.252,0.0
17.86,0.066,-0.316,0.0
16.413,0.059,-0.375,0.0
15.226,0.053,-0.427,0.0
26.966,0.092,-0.002,0.0
24.142,0.079,-0.126,0.0
21.315,0.068,-0.221,4.0
18.599,0.057,-0.291,0.0
16.906,0.05,-0.352,0.0
15.657,0.045,-0.407,0.0
28.565,0.08,0.055,2.0
25.343,0.068,-0.08,0.0
22.415,0.058,-0.187,0.0
19.487,0.048,-0.265,0.0
17.496,0.042,-0.328,0.0
16.173,0.037,-0.386,0.0
28.748,0.063,0.116,0.0
26.509,0.056,-0.029,0.0
23.67,0.048,-0.148,1.0
20.971,0.04,-0.241,2.0
18.284,0.033,-0.305,0.0
16.689,0.029,-0.364,0.0
30.669,0.051,0.187,0.0
27.631,0.044,0.026,0.0
24.874,0.037,-0.104,0.0
21.768,0.03,-0.205,1.0
19.278,0.025,-0.281,0.0
17.238,0.021,-0.34,0.0
33.082,0.039,0.271,0.0
28.73,0.031,0.087,1.0
25.96,0.026,-0.054,0.0
23.273,0.021,-0.171,0.0
20.498,0.017,-0.256,0.0
18.017,0.013,-0.318,0.0
0.0,0.0,0.0,0.0
30.251,0.019,0.155,0.0
27.185,0.015,0.0,0.0
24.04,0.011,-0.125,0.0
21.293,0.008,-0.221,4.0
18.728,0.006,-0.291,0.0
37.211,0.01,0.462,0.0
31.52,0.006,0.228,0.0
28.43,0.003,0.059,1.0
25.582,0.001,-0.08,0.0
22.678,0.0,-0.187,0.0
19.752,-0.001,-0.265,0.0
0.0,0.0,0.0,0.0
33.554,-0.006,0.315,0.0
28.86,-0.007,0.122,0.0
26.472,-0.008,-0.026,0.0
23.735,-0.008,-0.145,1.0
21.07,-0.008,-0.237,2.0
42.602,-0.02,0.71,0.0
0.0,0.0,0.0,0.0
31.171,-0.018,0.199,0.0
27.965,-0.018,0.031,0.0
25.104,-0.017,-0.1,0.0
22.034,-0.016,-0.201,0.0
0.0,0.0,0.0,0.0
39.741,-0.034,0.542,0.0
33.182,-0.029,0.282,0.0
28.773,-0.027,0.093,4.0
26.152,-0.025,-0.049,0.0
23.559,-0.024,-0.165,0.0
0.0,0.0,0.0,0.0
41.396,-0.046,0.653,0.0
35.433,-0.041,0.376,0.0
30.322,-0.036,0.163,0.0
27.374,-0.034,0.007,0.0
24.549,-0.031,-0.119,0.0
0.0,0.0,0.0,0.0
0.0,0.0,0.0,0.0
37.348,-0.052,0.476,0.0
31.723,-0.045,0.238,0.0
28.754,-0.042,0.068,5.0
25.826,-0.038,-0.07,0.0
78.597,-0.121,1.981,3.0
0.0,0.0,0.0,0.0
0.0,0.0,0.0,0.0
33.426,-0.054,0.323,0.0
28.854,-0.047,0.13,2.0
26.955,-0.044,-0.016,0.0
78.972,-0.136,2.16,4.0
0.0,0.0,0.0,0.0
0.0,0.0,0.0,0.0
36.399,-0.064,0.43,0.0
31.432,-0.056,0.21,0.0
28.574,-0.051,0.043,2.0
82.833,-0.153,2.443,4.0
0.0,0.0,0.0,0.0
0.0,0.0,0.0,0.0
39.8,-0.075,0.555,0.0
33.237,-0.062,0.293,0.0
28.821,-0.054,0.106,5.0
83.295,-0.162,2.636,4.0
78.875,-0.154,2.089,3.0
0.0,0.0,0.0,0.0
42.961,-0.084,0.691,0.0
36.184,-0.07,0.396,0.0
31.184,-0.061,0.181,0.0
105.4,-0.212,3.56,4.0
79.34,-0.159,2.272,2.0
0.0,0.0,0.0,0.0
0.0,0.0,0.0,0.0
37.425,-0.074,0.49,0.0
33.097,-0.065,0.262,0.0
128.662,-0.261,4.619,14.0
83.227,-0.168,2.56,6.0
79.004,-0.158,2.023,1.0
0.0,0.0,0.0,0.0
0.0,0.0,0.0,0.0
34.738,-0.068,0.349,0.0
128.583,-0.259,4.889,30.0
105.467,-0.21,3.467,6.0
79.158,-0.156,2.195,4.0
0.0,0.0,0.0,0.0
0.0,0.0,0.0,0.0
36.518,-0.069,0.445,0.0
128.544,-0.252,5.164,36.0
108.645,-0.21,3.802,8.0
82.944,-0.158,2.475,5.0
78.693,-0.148,1.935,1.0
0.0,0.0,0.0,0.0
39.89,-0.072,0.57,0.0
128.6,-0.24,5.436,14.0
128.675,-0.236,4.773,18.0
83.412,-0.15,2.664,3.0
78.868,-0.139,2.104,5.0
0.0,0.0,0.0,0.0
43.195,-0.073,0.708,0.0
195.443,-0.34,8.672,4.0
128.59,-0.219,5.043,15.0
108.386,-0.179,3.691,7.0
82.697,-0.133,2.381,3.0
0.0,0.0,0.0,0.0
0.0,0.0,0.0,0.0
201.926,-0.317,9.385,9.0
128.575,-0.196,5.312,4.0
108.81,-0.161,3.934,6.0
83.19,-0.119,2.571,4.0
78.655,-0.108,2.024,8.0
0.0,0.0,0.0,0.0
202.123,-0.276,9.818,5.0
0.0,0.0,0.0,0.0
0.0,0.0,0.0,0.0
105.779,-0.127,3.486,2.0
79.02,-0.09,2.196,1.0
0.0,0.0,0.0,0.0
201.617,-0.228,10.213,15.0
201.904,-0.216,9.18,10.0
0.0,0.0,0.0,0.0
108.651,-0.103,3.806,12.0
82.978,-0.073,2.478,8.0
78.602,-0.064,1.942,4.0
151.102,-0.129,7.966,14.0
201.766,-0.158,9.589,21.0
202.796,-0.145,8.59,7.0
108.986,-0.07,4.042,1.0
83.349,-0.048,2.66,7.0
78.195,-0.039,2.09,4.0
151.063,-0.081,8.273,32.0
201.254,-0.094,9.978,23.0
202.389,-0.079,8.985,8.0
0.0,0.0,0.0,0.0
83.361,-0.02,2.83,11.0
82.758,-0.013,2.382,5.0
151.035,-0.028,8.581,33.0
151.083,-0.016,7.799,21.0
201.739,-0.006,9.367,22.0
202.813,0.01,8.345,5.0
83.359,0.011,2.998,5.0
83.213,0.018,2.562,13.0
91.445,0.017,5.381,15.0
151.048,0.042,8.101,43.0
201.408,0.074,9.758,22.0
202.257,0.091,8.729,9.0
83.364,0.045,3.164,8.0
83.287,0.053,2.731,23.0
91.581,0.056,5.572,9.0
151.047,0.106,8.403,39.0
201.156,0.161,10.147,10.0
201.766,0.18,9.109,17.0
83.351,0.082,3.329,11.0
83.276,0.09,2.894,28.0
91.513,0.097,5.747,7.0
151.05,0.175,8.701,26.0
151.075,0.19,7.916,33.0
201.545,0.275,9.492,10.0
83.305,0.121,3.49,27.0
83.281,0.13,3.058,31.0
83.097,0.129,5.383,33.0
91.605,0.152,5.457,7.0
151.07,0.266,8.213,26.0
83.238,0.155,4.084,16.0
83.279,0.165,3.654,38.0
83.277,0.174,3.22,33.0
83.189,0.173,5.554,16.0
83.292,0.182,5.126,26.0
83.243,0.191,4.687,14.0
83.248,0.201,4.246,24.0
83.271,0.21,3.814,45.0
83.26,0.22,3.381,36.0
79.266,0.209,5.446,14.0
83.128,0.229,5.276,31.0
83.202,0.239,4.846,23.0
83.229,0.249,4.406,28.0
83.255,0.259,3.973,43.0
83.258,0.269,3.54,39.0
76.947,0.248,5.434,12.0
79.43,0.266,5.193,30.0
83.194,0.289,5.003,37.0
83.214,0.299,4.562,31.0
83.236,0.31,4.128,29.0
83.246,0.321,3.695,35.0
62.801,0.242,4.553,5.0
79.427,0.316,5.342,46.0
83.137,0.341,5.156,25.0
83.19,0.352,4.715,27.0
83.226,0.363,4.283,31.0
83.27,0.375,3.85,30.0
63.533,0.286,4.724,30.0
62.785,0.291,4.339,30.0
79.436,0.379,5.073,74.0
83.188,0.408,4.869,18.0
83.237,0.42,4.435,4.0
79.347,0.411,3.814,8.0
63.603,0.33,4.847,33.0
62.888,0.335,4.462,24.0
79.416,0.434,5.217,36.0
79.297,0.445,4.786,8.0
79.302,0.456,4.371,10.0
79.296,0.467,3.956,10.0
63.3,0.374,4.939,27.0
63.119,0.382,4.592,28.0
62.754,0.389,4.236,3.0
79.264,0.503,4.927,3.0
79.319,0.515,4.514,6.0
79.357,0.527,4.1,9.0
63.149,0.421,5.04,25.0
63.183,0.43,4.709,29.0
62.804,0.436,4.351,26.0
79.322,0.563,5.069,3.0
79.339,0.575,4.653,2.0
79.334,0.588,4.236,7.0
63.326,0.47,5.165,36.0
63.514,0.482,4.845,32.0
62.933,0.487,4.468,36.0
76.641,0.605,5.031,25.0
76.8,0.619,4.638,4.0
79.335,0.651,4.374,9.0
0.0,0.0,0.0,0.0
63.232,0.531,4.933,27.0
63.15,0.54,4.593,20.0
76.761,0.669,5.17,21.0
76.721,0.681,4.763,3.0
79.355,0.717,4.509,6.0
57.048,0.518,4.85,25.0
62.85,0.581,5.01,37.0
63.356,0.596,4.715,3.0
76.263,0.73,5.266,15.0
76.633,0.747,4.887,11.0
90.041,0.892,5.267,9.0
57.188,0.568,4.958,24.0
