X,Y,Z,Reflectivity
14.159,-0.583,-0.451,0.0
13.301,-0.545,-0.494,0.0
12.52,-0.51,-0.531,0.0
11.807,-0.479,-0.562,0.0
17.06,-0.689,-0.338,0.0
15.78,-0.634,-0.395,0.0
14.523,-0.58,-0.439,0.0
13.55,-0.538,-0.482,0.0
12.763,-0.505,-0.521,0.0
11.963,-0.471,-0.55,0.0
17.58,-0.688,-0.32,0.0
16.215,-0.631,-0.38,0.0
14.865,-0.575,-0.426,0.0
13.791,-0.531,-0.468,0.0
12.995,-0.498,-0.509,0.0
12.246,-0.466,-0.544,0.0
18.175,-0.688,-0.302,0.0
16.597,-0.625,-0.362,0.0
15.271,-0.572,-0.413,0.0
14.111,-0.525,-0.457,0.0
13.237,-0.49,-0.498,0.0
12.437,-0.457,-0.533,0.0
18.912,-0.692,-0.285,0.0
16.986,-0.617,-0.344,0.0
15.725,-0.568,-0.401,0.0
14.436,-0.518,-0.445,0.0
13.503,-0.481,-0.487,0.0
12.651,-0.448,-0.522,0.0
19.376,-0.683,-0.262,0.0
17.411,-0.609,-0.326,0.0
16.019,-0.557,-0.384,0.0
14.725,-0.509,-0.431,0.0
13.775,-0.472,-0.475,0.0
12.931,-0.441,-0.514,0.0
20.873,-0.707,-0.25,0.0
18.047,-0.607,-0.311,0.0
16.513,-0.551,-0.37,0.0
15.022,-0.498,-0.417,0.0
14.056,-0.463,-0.464,0.0
13.102,-0.428,-0.501,0.0
21.049,-0.683,-0.22,2.0
18.595,-0.599,-0.292,0.0
16.832,-0.538,-0.352,0.0
15.518,-0.492,-0.408,0.0
14.336,-0.451,-0.452,0.0
13.387,-0.418,-0.492,0.0
22.191,-0.689,-0.199,0.0
19.354,-0.596,-0.275,0.0
17.245,-0.527,-0.335,0.0
15.888,-0.481,-0.394,0.0
14.642,-0.44,-0.44,0.0
13.63,-0.406,-0.481,0.0
22.966,-0.679,-0.172,0.0
19.961,-0.585,-0.254,0.0
17.752,-0.515,-0.319,0.0
16.309,-0.47,-0.38,0.0
14.879,-0.424,-0.425,0.0
13.89,-0.393,-0.47,0.0
23.442,-0.658,-0.142,0.0
20.999,-0.584,-0.237,2.0
18.28,-0.503,-0.302,0.0
16.661,-0.454,-0.365,0.0
15.305,-0.413,-0.415,0.0
14.219,-0.38,-0.461,0.0
0.0,0.0,0.0,0.0
21.889,-0.575,-0.216,0.0
18.884,-0.491,-0.285,0.0
17.015,-0.438,-0.348,0.0
15.753,-0.401,-0.405,0.0
14.479,-0.365,-0.448,0.0
25.262,-0.631,-0.081,0.0
22.526,-0.556,-0.19,0.0
19.475,-0.475,-0.267,0.0
17.396,-0.42,-0.332,0.0
16.109,-0.385,-0.392,0.0
14.739,-0.348,-0.436,0.0
25.968,-0.607,-0.047,0.0
23.289,-0.538,-0.165,0.0
20.247,-0.462,-0.25,0.0
17.971,-0.405,-0.318,0.0
16.424,-0.365,-0.377,0.0
15.043,-0.33,-0.425,0.0
26.67,-0.58,-0.012,0.0
23.933,-0.514,-0.137,0.0
21.084,-0.446,-0.232,0.0
18.39,-0.384,-0.301,0.0
16.691,-0.344,-0.361,0.0
15.436,-0.314,-0.415,0.0
27.711,-0.557,0.023,0.0
24.698,-0.489,-0.108,0.0
22.123,-0.431,-0.214,0.0
19.034,-0.366,-0.286,0.0
17.032,-0.322,-0.346,0.0
15.776,-0.294,-0.403,0.0
28.481,-0.524,0.061,1.0
25.406,-0.46,-0.078,0.0
22.645,-0.403,-0.189,0.0
19.534,-0.342,-0.268,0.0
17.408,-0.3,-0.331,0.0
16.078,-0.272,-0.391,0.0
28.688,-0.479,0.099,0.0
26.16,-0.429,-0.047,0.0
23.473,-0.378,-0.166,1.0
20.09,-0.317,-0.25,0.0
17.934,-0.278,-0.318,0.0
16.458,-0.25,-0.379,0.0
28.9,-0.432,0.135,0.0
26.715,-0.391,-0.015,0.0
23.837,-0.342,-0.139,0.0
21.003,-0.295,-0.236,0.0
18.294,-0.252,-0.302,0.0
16.719,-0.225,-0.365,0.0
30.823,-0.407,0.182,0.0
27.509,-0.355,0.017,0.0
24.622,-0.31,-0.114,0.0
21.857,-0.269,-0.219,0.0
18.857,-0.226,-0.289,0.0
16.979,-0.199,-0.35,0.0
32.103,-0.367,0.228,1.0
28.406,-0.316,0.051,1.0
25.127,-0.272,-0.087,0.0
22.456,-0.236,-0.199,0.0
19.178,-0.196,-0.272,0.0
17.346,-0.172,-0.338,0.0
32.609,-0.314,0.269,1.0
28.737,-0.268,0.085,6.0
0.0,0.0,0.0,0.0
22.819,-0.199,-0.176,0.0
19.815,-0.166,-0.258,0.0
17.706,-0.143,-0.325,0.0
33.148,-0.259,0.312,0.0
28.804,-0.216,0.118,5.0
26.307,-0.189,-0.031,0.0
23.481,-0.161,-0.155,0.0
20.536,-0.134,-0.245,0.0
18.137,-0.113,-0.312,0.0
34.198,-0.204,0.359,0.0
28.9,-0.163,0.15,1.0
26.918,-0.143,-0.003,0.0
24.023,-0.12,-0.132,0.0
21.469,-0.101,-0.233,1.0
18.416,-0.081,-0.297,0.0
36.087,-0.148,0.418,0.0
31.426,-0.118,0.196,1.0
27.754,-0.096,0.026,1.0
24.791,-0.078,-0.111,0.0
21.87,-0.062,-0.214,0.0
18.833,-0.047,-0.285,0.0
36.602,-0.081,0.461,0.0
31.723,-0.06,0.231,0.0
28.619,-0.045,0.056,3.0
25.316,-0.031,-0.087,0.0
22.202,-0.021,-0.195,0.0
19.536,-0.012,-0.276,0.0
0.0,0.0,0.0,0.0
33.134,0.0,0.275,0.0
28.69,0.009,0.084,1.0
25.883,0.017,-0.064,0.0
23.174,0.022,-0.181,0.0
20.044,0.025,-0.263,0.0
0.0,0.0,0.0,0.0
33.917,0.065,0.314,0.0
28.816,0.065,0.113,1.0
26.304,0.068,-0.04,0.0
23.314,0.067,-0.16,1.0
20.722,0.067,-0.253,0.0
41.66,0.148,0.647,0.0
35.235,0.136,0.359,0.0
30.148,0.126,0.145,0.0
26.861,0.121,-0.016,0.0
23.903,0.115,-0.142,0.0
21.072,0.108,-0.238,2.0
0.0,0.0,0.0,0.0
35.867,0.208,0.397,0.0
30.631,0.188,0.175,0.0
27.277,0.176,0.007,0.0
24.491,0.166,-0.124,0.0
21.631,0.153,-0.226,2.0
0.0,0.0,0.0,0.0
0.0,0.0,0.0,0.0
0.0,0.0,0.0,0.0
28.061,0.236,0.031,1.0
24.893,0.217,-0.105,0.0
22.053,0.2,-0.212,3.0
0.0,0.0,0.0,0.0
37.03,0.361,0.472,0.0
32.077,0.323,0.237,0.0
28.678,0.298,0.055,2.0
25.393,0.272,-0.087,0.0
22.16,0.245,-0.195,1.0
0.0,0.0,0.0,0.0
38.533,0.452,0.522,0.0
32.832,0.396,0.268,0.0
28.802,0.357,0.077,5.0
25.729,0.327,-0.068,0.0
22.892,0.299,-0.184,0.0
0.0,0.0,0.0,0.0
40.402,0.556,0.578,0.0
33.979,0.479,0.303,0.0
28.868,0.416,0.099,6.0
26.104,0.384,-0.05,0.0
23.239,0.35,-0.17,0.0
0.0,0.0,0.0,0.0
0.0,0.0,0.0,0.0
34.282,0.551,0.33,0.0
28.88,0.474,0.119,0.0
26.457,0.443,-0.032,0.0
23.636,0.403,-0.157,0.0
0.0,0.0,0.0,0.0
0.0,0.0,0.0,0.0
34.529,0.625,0.356,0.0
28.985,0.534,0.139,0.0
26.712,0.501,-0.015,0.0
23.901,0.456,-0.143,0.0
54.672,1.065,1.19,0.0
0.0,0.0,0.0,0.0
35.425,0.713,0.388,0.0
31.079,0.636,0.169,0.0
27.057,0.562,0.001,0.0
24.232,0.511,-0.13,0.0
58.129,1.251,1.3,1.0
47.797,1.044,0.81,0.0
36.786,0.815,0.424,0.0
31.092,0.699,0.187,0.0
27.184,0.62,0.016,0.0
24.54,0.568,-0.117,0.0
54.551,1.285,1.252,1.0
47.468,1.134,0.832,3.0
36.603,0.886,0.443,0.0
31.419,0.771,0.207,0.0
28.059,0.697,0.032,0.0
24.899,0.627,-0.105,0.0
54.387,1.392,1.277,0.0
47.484,1.231,0.857,0.0
37.479,0.983,0.473,0.0
31.996,0.85,0.227,0.0
28.612,0.769,0.048,1.0
25.142,0.684,-0.094,0.0
54.132,1.496,1.298,2.0
0.0,0.0,0.0,0.0
37.735,1.067,0.495,0.0
32.438,0.927,0.246,0.0
28.717,0.83,0.061,2.0
25.301,0.74,-0.083,0.0
54.201,1.609,1.325,9.0
55.484,1.665,1.055,3.0
0.0,0.0,0.0,0.0
32.844,1.007,0.263,0.0
28.864,0.894,0.074,3.0
25.506,0.798,-0.072,0.0
54.263,1.724,1.35,5.0
50.939,1.635,0.99,0.0
0.0,0.0,0.0,0.0
33.315,1.09,0.281,1.0
28.838,0.953,0.086,1.0
25.794,0.861,-0.063,0.0
50.633,1.713,1.28,0.0
50.801,1.734,1.007,0.0
40.36,1.391,0.579,0.0
33.757,1.173,0.297,0.0
28.879,1.013,0.096,1.0
25.947,0.919,-0.054,0.0
50.052,1.796,1.283,2.0
50.723,1.836,1.022,1.0
0.0,0.0,0.0,0.0
33.86,1.247,0.309,1.0
28.948,1.076,0.106,1.0
25.829,0.968,-0.046,8.0
49.408,1.875,1.281,3.0
50.402,1.929,1.031,0.0
41.991,1.62,0.63,0.0
33.742,1.312,0.318,0.0
28.97,1.136,0.114,1.0
26.209,1.036,-0.039,0.0
48.84,1.954,1.28,2.0
49.274,1.987,1.021,0.0
0.0,0.0,0.0,0.0
34.377,1.408,0.332,0.0
28.956,1.195,0.121,0.0
26.293,1.093,-0.033,0.0
48.345,2.034,1.279,2.0
0.0,0.0,0.0,0.0
42.147,1.799,0.652,1.0
34.416,1.48,0.34,0.0
29.027,1.257,0.127,0.0
26.421,1.152,-0.028,0.0
47.589,2.099,1.268,0.0
47.751,2.121,1.01,0.0
47.583,2.128,0.745,0.0
0.0,0.0,0.0,0.0
30.003,1.36,0.137,0.0
26.577,1.213,-0.024,1.0
47.439,2.189,1.271,9.0
47.486,2.205,1.011,1.0
47.755,2.233,0.754,0.0
0.0,0.0,0.0,0.0
30.054,1.423,0.141,0.0
26.555,1.266,-0.021,0.0
47.426,2.285,1.276,10.0
47.371,2.296,1.014,2.0
50.149,2.445,0.797,1.0
35.211,1.728,0.362,0.0
30.036,1.483,0.143,0.0
26.591,1.321,-0.019,0.0
47.367,2.377,1.279,16.0
47.216,2.384,1.014,0.0
49.609,2.52,0.792,1.0
0.0,0.0,0.0,0.0
30.239,1.554,0.146,0.0
26.532,1.372,-0.017,1.0
47.32,2.47,1.279,25.0
47.294,2.483,1.018,3.0
48.983,2.586,0.784,2.0
0.0,0.0,0.0,0.0
30.421,1.624,0.147,1.0
26.476,1.422,-0.017,0.0
47.291,2.564,1.279,36.0
47.223,2.574,1.016,5.0
48.668,2.667,0.778,4.0
36.506,2.011,0.378,0.0
30.29,1.678,0.146,1.0
26.587,1.481,-0.018,0.0
47.247,2.657,1.276,37.0
47.278,2.672,1.015,8.0
48.024,2.727,0.765,5.0
35.947,2.052,0.37,0.0
30.151,1.73,0.144,1.0
26.494,1.528,-0.02,0.0
47.232,2.749,1.272,32.0
47.248,2.763,1.011,5.0
47.688,2.803,0.756,10.0
35.702,2.108,0.364,0.0
29.97,1.779,0.14,1.0
26.542,1.583,-0.022,0.0
47.212,2.84,1.267,95.0
47.239,2.855,1.005,6.0
47.412,2.879,0.746,1.0
47.231,2.882,0.476,2.0
29.853,1.83,0.135,1.0
26.293,1.619,-0.026,1.0
47.221,2.934,1.26,164.0
47.248,2.948,0.998,5.0
46.832,2.935,0.729,0.0
36.462,2.295,0.362,1.0
29.7,1.878,0.129,0.0
26.229,1.666,-0.03,0.0
47.235,3.026,1.252,164.0
47.24,3.039,0.989,5.0
46.122,2.979,0.709,0.0
36.23,2.351,0.352,0.0
29.474,1.92,0.122,0.0
26.113,1.709,-0.036,0.0
47.24,3.117,1.241,160.0
47.275,3.132,0.979,4.0
46.248,3.077,0.701,0.0
47.275,3.157,0.448,0.0
29.286,1.964,0.114,0.0
25.967,1.749,-0.042,0.0
47.255,3.209,1.23,167.0
47.317,3.225,0.967,3.0
0.0,0.0,0.0,0.0
35.076,2.41,0.323,0.0
29.083,2.006,0.105,1.0
25.795,1.786,-0.05,0.0
47.272,3.299,1.216,163.0
47.323,3.315,0.954,3.0
45.252,3.181,0.659,0.0
34.132,2.408,0.303,0.0
28.915,2.048,0.095,1.0
25.67,1.825,-0.058,0.0
47.315,3.39,1.202,13.0
47.326,3.403,0.938,2.0
45.027,3.249,0.641,0.0
34.943,2.531,0.298,0.0
28.617,2.08,0.084,1.0
25.344,1.849,-0.066,0.0
47.356,3.481,1.186,10.0
47.375,3.494,0.921,2.0
0.0,0.0,0.0,0.0
33.742,2.506,0.275,0.0
28.476,2.122,0.073,1.0
25.184,1.883,-0.076,0.0
47.394,3.57,1.168,12.0
47.406,3.583,0.902,1.0
0.0,0.0,0.0,0.0
32.689,2.487,0.253,0.0
28.054,2.141,0.06,1.0
24.92,1.908,-0.085,0.0
47.43,3.658,1.148,14.0
47.608,3.684,0.885,2.0
43.392,3.368,0.564,0.0
32.745,2.549,0.238,0.0
27.873,2.177,0.047,1.0
24.4,1.912,-0.095,1.0
47.503,3.748,1.128,14.0
47.809,3.783,0.867,1.0
0.0,0.0,0.0,0.0
32.305,2.572,0.22,1.0
27.605,2.205,0.033,1.0
24.272,1.944,-0.106,1.0
47.571,3.837,1.105,12.0
47.942,3.878,0.845,1.0
0.0,0.0,0.0,0.0
31.975,2.601,0.201,0.0
27.207,2.22,0.018,1.0
24.124,1.974,-0.118,2.0
47.67,3.927,1.082,11.0
49.306,4.073,0.842,9.0
0.0,0.0,0.0,0.0
31.418,2.61,0.18,0.0
26.963,2.246,0.003,1.0
23.927,1.999,-0.131,1.0
51.492,4.33,1.14,8.0
49.012,4.133,0.809,4.0
0.0,0.0,0.0,0.0
30.756,2.607,0.159,1.0
26.614,2.262,-0.012,1.0
23.439,1.998,-0.142,0.0
51.318,4.401,1.105,6.0
48.567,4.176,0.773,4.0
0.0,0.0,0.0,0.0
29.281,2.53,0.133,0.0
26.174,2.268,-0.028,1.0
22.918,1.991,-0.153,0.0
51.318,4.485,1.073,3.0
48.291,4.231,0.737,14.0
35.414,3.11,0.341,0.0
29.161,2.568,0.113,0.0
25.997,2.295,-0.044,1.0
22.757,2.014,-0.167,1.0
48.819,4.345,0.989,1.0
47.904,4.274,0.7,2.0
0.0,0.0,0.0,0.0
29.163,2.614,0.094,1.0
25.613,2.301,-0.061,1.0
22.405,2.018,-0.18,2.0
48.032,4.35,0.94,3.0
47.582,4.32,0.662,0.0
34.154,3.108,0.282,0.0
29.137,2.657,0.073,3.0
25.148,2.299,-0.078,1.0
22.072,2.022,-0.192,4.0
47.647,4.389,0.898,4.0
41.177,3.802,0.544,0.0
33.684,3.117,0.254,1.0
28.884,2.678,0.052,1.0
24.653,2.291,-0.094,0.0
21.746,2.026,-0.206,4.0
47.126,4.413,0.854,4.0
40.771,3.825,0.508,0.0
32.69,3.074,0.222,0.0
27.711,2.611,0.029,0.0
24.385,2.303,-0.112,0.0
21.524,2.037,-0.22,4.0
46.796,4.451,0.812,8.0
40.356,3.846,0.471,0.0
32.02,3.058,0.193,0.0
27.08,2.591,0.007,0.0
23.996,2.301,-0.129,0.0
21.315,2.048,-0.235,4.0
46.478,4.488,0.769,5.0
0.0,0.0,0.0,0.0
29.351,2.846,0.153,1.0
26.314,2.556,-0.014,1.0
23.487,2.286,-0.145,0.0
21.046,2.052,-0.249,0.0
46.211,4.528,0.726,7.0
36.926,3.625,0.371,1.0
29.309,2.883,0.128,3.0
25.965,2.559,-0.036,1.0
22.52,2.223,-0.158,0.0
20.58,2.036,-0.262,0.0
45.971,4.569,0.683,13.0
0.0,0.0,0.0,0.0
29.258,2.918,0.102,1.0
25.713,2.569,-0.057,1.0
22.178,2.22,-0.175,1.0
19.632,1.969,-0.267,0.0
45.692,4.603,0.638,2.0
34.426,3.473,0.286,0.0
29.109,2.942,0.076,1.0
25.061,2.537,-0.078,0.0
21.926,2.224,-0.193,4.0
19.557,1.987,-0.283,0.0
45.439,4.637,0.594,0.0
33.446,3.418,0.247,0.0
28.667,2.934,0.049,0.0
24.554,2.518,-0.099,0.0
21.62,2.22,-0.21,4.0
19.158,1.971,-0.295,0.0
42.705,4.412,0.519,0.0
32.2,3.331,0.208,0.0
27.651,2.865,0.022,0.0
24.096,2.501,-0.12,0.0
21.304,2.215,-0.227,2.0
18.712,1.948,-0.306,0.0
38.894,4.066,0.436,0.0
31.91,3.341,0.176,1.0
26.697,2.799,-0.004,0.0
23.649,2.483,-0.14,0.0
21.012,2.21,-0.244,0.0
18.339,1.932,-0.317,0.0
38.558,4.077,0.395,0.0
29.358,3.108,0.133,0.0
26.189,2.777,-0.029,1.0
22.999,2.442,-0.159,0.0
20.393,2.169,-0.257,0.0
17.977,1.915,-0.329,0.0
0.0,0.0,0.0,0.0
29.316,3.138,0.104,2.0
25.895,2.775,-0.055,1.0
22.035,2.365,-0.174,0.0
19.723,2.12,-0.268,0.0
17.671,1.902,-0.341,0.0
0.0,0.0,0.0,0.0
29.229,3.161,0.074,4.0
24.813,2.687,-0.077,0.0
21.625,2.345,-0.193,1.0
19.406,2.107,-0.284,0.0
17.402,1.892,-0.353,0.0
32.943,3.593,0.238,0.0
28.507,3.113,0.043,3.0
24.211,2.647,-0.1,1.0
21.399,2.343,-0.213,3.0
19.025,2.085,-0.298,0.0
17.081,1.875,-0.365,0.0
32.108,3.535,0.198,1.0
27.33,3.013,0.013,0.0
23.996,2.648,-0.125,1.0
21.245,2.348,-0.234,1.0
18.488,2.045,-0.309,0.0
16.884,1.87,-0.378,0.0
29.42,3.269,0.15,1.0
26.359,2.932,-0.015,1.0
23.596,2.627,-0.148,0.0
20.582,2.294,-0.248,0.0
18.245,2.036,-0.324,0.0
16.568,1.851,-0.389,0.0
29.382,3.292,0.119,4.0
26.067,2.924,-0.042,1.0
22.473,2.523,-0.165,0.0
19.954,2.243,-0.262,0.0
17.804,2.004,-0.336,0.0
16.245,1.83,-0.399,0.0
29.327,3.313,0.087,5.0
25.502,2.883,-0.069,0.0
21.913,2.48,-0.185,0.0
19.5,2.209,-0.278,0.0
17.483,1.983,-0.349,0.0
16.014,1.818,-0.411,0.0
29.158,3.319,0.054,1.0
24.314,2.77,-0.093,1.0
21.562,2.459,-0.206,0.0
19.111,2.181,-0.293,0.0
17.206,1.966,-0.362,0.0
15.703,1.796,-0.421,0.0
27.615,3.166,0.02,0.0
23.95,2.748,-0.118,1.0
20.975,2.409,-0.223,0.0
18.642,2.143,-0.307,0.0
16.921,1.947,-0.376,0.0
15.462,1.781,-0.431,0.0
26.554,3.065,-0.009,1.0
23.531,2.718,-0.143,1.0
20.621,2.384,-0.243,0.0
18.269,2.114,-0.322,0.0
16.663,1.93,-0.389,0.0
15.255,1.768,-0.443,0.0
26.097,3.031,-0.039,1.0
22.878,2.659,-0.165,0.0
20.045,2.332,-0.259,0.0
17.844,2.077,-0.335,0.0
16.27,1.896,-0.398,0.0
15.022,1.752,-0.454,0.0
25.62,2.993,-0.067,0.0
22.152,2.59,-0.185,0.0
19.621,2.296,-0.276,0.0
17.473,2.046,-0.348,0.0
16.039,1.88,-0.411,0.0
14.693,1.723,-0.461,0.0
24.29,2.853,-0.092,1.0
21.533,2.531,-0.205,0.0
19.178,2.256,-0.292,0.0
17.151,2.019,-0.361,0.0
15.755,1.856,-0.422,0.0
14.473,1.706,-0.471,0.0
23.857,2.817,-0.118,1.0
20.871,2.466,-0.223,0.0
18.642,2.204,-0.306,0.0
16.898,1.999,-0.376,0.0
15.495,1.834,-0.433,0.0
14.263,1.69,-0.48,0.0
23.375,2.773,-0.143,1.0
20.516,2.435,-0.243,0.0
18.271,2.17,-0.321,0.0
16.551,1.967,-0.387,0.0
15.194,1.807,-0.443,0.0
14.008,1.667,-0.488,0.0
22.701,2.704,-0.166,0.0
20.032,2.387,-0.261,0.0
17.846,2.128,-0.335,0.0
16.209,1.934,-0.398,0.0
14.972,1.788,-0.454,0.0
13.729,1.64,-0.495,0.0
22.101,2.643,-0.187,0.0
19.41,2.322,-0.276,0.0
17.462,2.09,-0.348,0.0
15.926,1.908,-0.41,0.0
14.671,1.758,-0.462,0.0
13.544,1.624,-0.505,0.0
21.403,2.569,-0.207,0.0
19.037,2.286,-0.293,0.0
17.116,2.056,-0.362,0.0
15.682,1.884,-0.423,0.0
14.379,1.729,-0.47,0.0
13.361,1.607,-0.514,0.0
20.766,2.5,-0.226,0.0
18.551,2.234,-0.308,0.0
16.874,2.033,-0.377,0.0
15.453,1.862,-0.435,0.0
14.208,1.713,-0.482,0.0
13.185,1.591,-0.523,0.0
20.401,2.462,-0.246,0.0
18.16,2.193,-0.323,0.0
16.603,2.005,-0.39,0.0
15.208,1.838,-0.446,0.0
13.913,1.682,-0.488,0.0
13.009,1.573,-0.531,0.0
19.764,2.391,-0.261,0.0
17.76,2.149,-0.337,0.0
16.219,1.963,-0.4,0.0
14.907,1.805,-0.455,0.0
13.73,1.663,-0.498,0.0
12.797,1.551,-0.538,0.0
19.434,2.355,-0.28,0.0
17.342,2.102,-0.349,0.0
15.867,1.924,-0.411,0.0
14.609,1.772,-0.463,0.0
13.51,1.639,-0.506,0.0
12.617,1.532,-0.545,0.0
18.901,2.294,-0.295,0.0
17.091,2.075,-0.364,0.0
15.638,1.899,-0.423,0.0
14.35,1.743,-0.472,0.0
13.336,1.621,-0.515,0.0
12.485,1.518,-0.554,0.0
18.44,2.241,-0.31,0.0
16.795,2.041,-0.378,0.0
15.404,1.873,-0.435,0.0
14.077,1.712,-0.48,0.0
13.146,1.599,-0.524,0.0
12.342,1.502,-0.563,0.0
18.071,2.198,-0.325,0.0
16.506,2.008,-0.391,0.0
15.054,1.831,-0.443,0.0
13.839,1.684,-0.488,0.0
12.968,1.578,-0.532,0.0
12.203,1.485,-0.571,0.0
17.643,2.146,-0.338,0.0
16.034,1.951,-0.399,0.0
14.906,1.814,-0.456,0.0
13.652,1.661,-0.498,0.0
12.706,1.547,-0.536,0.0
11.979,1.458,-0.574,0.0
17.32,2.107,-0.352,0.0
15.853,1.929,-0.413,0.0
14.491,1.763,-0.46,0.0
13.446,1.636,-0.506,0.0
12.612,1.535,-0.547,0.0
11.749,1.43,-0.577,0.0
17.045,2.073,-0.366,0.0
15.637,1.902,-0.425,0.0
14.403,1.752,-0.474,0.0
13.307,1.618,-0.516,0.0
12.445,1.514,-0.554,0.0
11.675,1.42,-0.587,0.0
16.786,2.04,-0.379,0.0
15.398,1.871,-0.436,0.0
14.152,1.719,-0.482,0.0
13.095,1.591,-0.523,0.0
12.31,1.496,-0.562,0.0
11.525,1.401,-0.592,0.0
16.449,1.996,-0.391,0.0
15.12,1.835,-0.446,0.0
13.827,1.678,-0.487,0.0
12.9,1.565,-0.53,0.0
12.175,1.477,-0.57,0.0
11.405,1.384,-0.599,0.0
16.069,1.947,-0.4,0.0
14.774,1.79,-0.452,0.0
13.641,1.653,-0.496,0.0
12.739,1.543,-0.537,0.0
12.051,1.46,-0.578,0.0
11.234,1.361,-0.603,0.0
15.814,1.913,-0.411,0.0
14.555,1.76,-0.462,0.0
13.472,1.629,-0.505,0.0
12.608,1.524,-0.546,0.0
11.758,1.421,-0.577,0.0
11.107,1.343,-0.608,0.0
15.592,1.882,-0.423,0.0
14.295,1.725,-0.469,0.0
13.301,1.604,-0.513,0.0
12.481,1.505,-0.554,0.0
11.637,1.403,-0.583,0.0
11.004,1.327,-0.615,0.0
15.409,1.855,-0.434,0.0
14.121,1.699,-0.479,0.0
13.12,1.578,-0.52,0.0
12.328,1.483,-0.561,0.0
11.514,1.385,-0.59,0.0
10.895,1.31,-0.621,0.0
15.093,1.811,-0.442,0.0
13.895,1.667,-0.486,0.0
12.921,1.55,-0.526,0.0
12.145,1.456,-0.565,0.0
11.393,1.366,-0.596,0.0
10.797,1.294,-0.627,0.0
14.915,1.784,-0.452,0.0
13.664,1.634,-0.493,0.0
12.777,1.527,-0.534,0.0
12.074,1.442,-0.575,0.0
11.29,1.349,-0.602,0.0
10.642,1.271,-0.629,0.0
14.63,1.743,-0.459,0.0
13.512,1.609,-0.501,0.0
12.584,1.498,-0.539,0.0
11.882,1.414,-0.578,0.0
11.144,1.326,-0.606,0.0
10.559,1.256,-0.635,0.0
14.427,1.712,-0.467,0.0
13.379,1.587,-0.51,0.0
12.52,1.484,-0.549,0.0
11.702,1.387,-0.581,0.0
11.016,1.305,-0.61,0.0
10.452,1.238,-0.639,0.0
14.205,1.678,-0.475,0.0
13.203,1.559,-0.517,0.0
12.443,1.468,-0.558,0.0
11.565,1.364,-0.586,0.0
10.961,1.292,-0.618,0.0
10.376,1.223,-0.645,0.0
13.936,1.638,-0.479,0.0
12.99,1.526,-0.521,0.0
12.253,1.439,-0.562,0.0
11.396,1.337,-0.589,0.0
10.871,1.275,-0.624,0.0
10.236,1.2,-0.646,0.0
13.802,1.614,-0.488,0.0
12.848,1.501,-0.528,0.0
12.124,1.416,-0.567,0.0
11.309,1.32,-0.595,0.0
10.769,1.256,-0.628,0.0
10.114,1.179,-0.648,0.0
13.617,1.583,-0.494,0.0
12.703,1.476,-0.534,0.0
11.983,1.391,-0.572,0.0
11.23,1.303,-0.601,0.0
10.64,1.234,-0.631,0.0
10.087,1.169,-0.656,0.0
13.468,1.556,-0.501,0.0
12.583,1.453,-0.54,0.0
11.78,1.359,-0.573,0.0
11.12,1.282,-0.606,0.0
10.507,1.211,-0.632,0.0
9.895,1.14,-0.652,0.0
13.323,1.53,-0.508,0.0
12.511,1.435,-0.548,0.0
11.712,1.343,-0.58,0.0
11.012,1.261,-0.61,0.0
10.441,1.195,-0.638,0.0
9.868,1.129,-0.659,0.0
13.122,1.496,-0.512,0.0
12.453,1.419,-0.557,0.0
11.543,1.314,-0.582,0.0
10.934,1.244,-0.615,0.0
10.324,1.174,-0.64,0.0
9.79,1.112,-0.663,0.0
13.021,1.474,-0.519,0.0
12.228,1.383,-0.557,0.0
11.428,1.291,-0.586,0.0
10.846,1.225,-0.619,0.0
10.246,1.156,-0.643,0.0
9.696,1.093,-0.664,0.0
12.939,1.453,-0.526,0.0
12.124,1.361,-0.562,0.0
11.393,1.277,-0.593,0.0
10.749,1.204,-0.622,0.0
10.169,1.138,-0.647,0.0
9.623,1.076,-0.667,0.0
12.815,1.428,-0.531,0.0
12.045,1.341,-0.568,0.0
11.269,1.253,-0.596,0.0
10.671,1.186,-0.626,0.0
10.067,1.118,-0.648,0.0
9.549,1.059,-0.669,0.0
12.679,1.401,-0.536,0.0
11.904,1.314,-0.571,0.0
11.19,1.234,-0.6,0.0
10.596,1.167,-0.63,0.0
10.028,1.104,-0.653,0.0
9.479,1.042,-0.672,0.0
12.554,1.375,-0.54,0.0
11.8,1.291,-0.574,0.0
11.064,1.209,-0.601,0.0
10.459,1.142,-0.629,0.0
9.921,1.082,-0.653,0.0
9.418,1.026,-0.674,0.0
12.494,1.356,-0.546,0.0
11.637,1.261,-0.575,0.0
11.026,1.194,-0.607,0.0
10.368,1.121,-0.631,0.0
9.851,1.064,-0.656,0.0
9.348,1.009,-0.675,0.0
12.437,1.337,-0.552,0.0
11.582,1.243,-0.58,0.0
10.96,1.175,-0.611,0.0
10.34,1.107,-0.636,0.0
9.773,1.046,-0.657,0.0
9.361,1.001,-0.683,0.0
12.277,1.306,-0.553,0.0
11.532,1.226,-0.585,0.0
10.862,1.153,-0.612,0.0
10.309,1.093,-0.641,0.0
9.74,1.032,-0.661,0.0
9.232,0.977,-0.679,0.0
12.22,1.287,-0.558,0.0
11.443,1.204,-0.587,0.0
10.831,1.138,-0.617,0.0
10.258,1.076,-0.644,0.0
9.684,1.015,-0.663,0.0
9.197,0.963,-0.682,0.0
12.131,1.264,-0.561,0.0
11.351,1.181,-0.589,0.0
10.761,1.118,-0.619,0.0
10.18,1.056,-0.645,0.0
9.611,0.996,-0.663,0.0
9.2,0.952,-0.687,0.0
12.082,1.244,-0.565,0.0
11.303,1.163,-0.593,0.0
10.691,1.098,-0.621,0.0
10.1,1.036,-0.645,0.0
9.584,0.982,-0.667,0.0
0.0,0.0,0.0,0.0
11.997,1.221,-0.567,0.0
11.248,1.143,-0.596,0.0
10.64,1.08,-0.624,0.0
10.019,1.016,-0.645,0.0
9.526,0.964,-0.667,0.0
9.066,0.916,-0.687,0.0
11.921,1.199,-0.569,0.0
11.164,1.121,-0.596,0.0
10.632,1.066,-0.628,0.0
9.999,1.001,-0.648,0.0
9.53,0.953,-0.672,0.0
0.0,0.0,0.0,0.0
11.803,1.172,-0.569,0.0
11.12,1.102,-0.599,0.0
10.538,1.043,-0.627,0.0
9.926,0.981,-0.648,0.0
9.394,0.927,-0.666,0.0
0.0,0.0,0.0,0.0
11.758,1.152,-0.572,0.0
11.082,1.084,-0.601,0.0
10.494,1.025,-0.629,0.0
9.884,0.964,-0.649,0.0
9.409,0.916,-0.671,0.0
8.99,0.874,-0.692,0.0
11.75,1.136,-0.576,0.0
10.993,1.061,-0.601,0.0
10.449,1.007,-0.63,0.0
9.863,0.949,-0.651,0.0
9.415,0.904,-0.675,0.0
8.917,0.855,-0.69,0.0
11.671,1.113,-0.576,0.0
10.99,1.046,-0.604,0.0
10.455,0.993,-0.634,0.0
9.862,0.935,-0.654,0.0
9.328,0.883,-0.672,0.0
8.943,0.845,-0.694,0.0
11.599,1.09,-0.576,0.0
10.94,1.026,-0.605,0.0
10.396,0.973,-0.633,0.0
9.792,0.915,-0.653,0.0
9.337,0.871,-0.675,0.0
8.888,0.828,-0.693,0.0
11.599,1.074,-0.579,0.0
10.924,1.01,-0.607,0.0
10.382,0.958,-0.635,0.0
9.761,0.899,-0.653,0.0
9.282,0.853,-0.673,0.0
8.843,0.811,-0.691,0.0
11.566,1.055,-0.58,0.0
10.9,0.992,-0.608,0.0
10.276,0.933,-0.631,0.0
9.756,0.884,-0.655,0.0
9.265,0.838,-0.674,0.0
8.851,0.799,-0.694,0.0
11.561,1.038,-0.582,0.0
10.856,0.972,-0.607,0.0
10.34,0.924,-0.636,0.0
9.731,0.868,-0.655,0.0
9.227,0.821,-0.673,0.0
8.81,0.782,-0.692,0.0
11.468,1.012,-0.579,0.0
10.854,0.956,-0.609,0.0
10.276,0.903,-0.634,0.0
9.715,0.852,-0.655,0.0
9.223,0.807,-0.673,0.0
8.825,0.771,-0.694,0.0
11.468,0.996,-0.58,0.0
10.841,0.939,-0.609,0.0
10.305,0.891,-0.637,0.0
9.69,0.835,-0.654,0.0
9.251,0.796,-0.676,0.0
8.789,0.754,-0.692,0.0
11.466,0.978,-0.581,0.0
10.835,0.922,-0.609,0.0
10.27,0.872,-0.635,0.0
9.702,0.822,-0.655,0.0
9.234,0.78,-0.675,0.0
8.819,0.743,-0.695,0.0
11.48,0.962,-0.582,0.0
10.838,0.906,-0.61,0.0
10.264,0.856,-0.635,0.0
9.657,0.803,-0.652,0.0
9.223,0.765,-0.675,0.0
8.797,0.728,-0.693,0.0
11.475,0.944,-0.582,0.0
10.809,0.887,-0.608,0.0
10.28,0.841,-0.636,0.0
9.689,0.791,-0.654,0.0
9.221,0.751,-0.674,0.0
8.841,0.718,-0.696,0.0
11.482,0.927,-0.581,0.0
10.838,0.872,-0.609,0.0
10.337,0.83,-0.639,0.0
9.755,0.781,-0.658,0.0
9.299,0.743,-0.679,0.0
8.815,0.702,-0.693,0.0
11.5,0.91,-0.581,0.0
10.853,0.857,-0.609,0.0
10.268,0.808,-0.633,0.0
9.66,0.758,-0.65,0.0
9.286,0.727,-0.677,0.0
8.854,0.691,-0.695,0.0
11.483,0.891,-0.579,0.0
10.852,0.839,-0.607,0.0
10.302,0.795,-0.634,0.0
9.738,0.749,-0.654,0.0
9.248,0.709,-0.673,0.0
8.834,0.676,-0.692,0.0
11.531,0.876,-0.579,0.0
10.867,0.823,-0.606,0.0
10.308,0.779,-0.632,0.0
9.73,0.733,-0.652,0.0
9.293,0.698,-0.674,0.0
8.849,0.663,-0.691,0.0
11.592,0.862,-0.58,0.0
10.899,0.808,-0.605,0.0
10.31,0.762,-0.63,0.0
0.0,0.0,0.0,0.0
9.305,0.684,-0.673,0.0
8.891,0.651,-0.692,0.0
11.6,0.844,-0.577,0.0
10.929,0.793,-0.604,0.0
10.347,0.748,-0.629,0.0
0.0,0.0,0.0,0.0
9.367,0.673,-0.674,0.0
8.882,0.636,-0.689,0.0
11.628,0.827,-0.575,0.0
10.969,0.778,-0.603,0.0
10.412,0.736,-0.63,0.0
0.0,0.0,0.0,0.0
9.365,0.658,-0.671,0.0
8.97,0.628,-0.693,0.0
11.617,0.808,-0.57,0.0
10.959,0.759,-0.599,0.0
10.418,0.719,-0.627,0.0
0.0,0.0,0.0,0.0
9.424,0.646,-0.672,0.0
8.958,0.612,-0.688,0.0
11.677,0.793,-0.569,0.0
11.048,0.747,-0.599,0.0
10.444,0.704,-0.624,0.0
0.0,0.0,0.0,0.0
9.468,0.634,-0.671,0.0
8.956,0.597,-0.684,0.0
11.78,0.78,-0.569,0.0
11.113,0.734,-0.598,0.0
10.493,0.69,-0.622,0.0
0.0,0.0,0.0,0.0
9.435,0.616,-0.665,0.0
9.037,0.588,-0.686,0.0
11.813,0.763,-0.565,0.0
11.171,0.719,-0.596,0.0
10.507,0.674,-0.618,0.0
10.039,0.641,-0.647,0.0
9.49,0.604,-0.664,0.0
9.077,0.576,-0.685,0.0
11.9,0.749,-0.563,0.0
11.23,0.704,-0.593,0.0
10.569,0.66,-0.616,0.0
10.018,0.623,-0.64,0.0
9.56,0.592,-0.663,0.0
9.072,0.56,-0.679,0.0
11.937,0.732,-0.558,0.0
11.275,0.688,-0.589,0.0
0.0,0.0,0.0,0.0
0.0,0.0,0.0,0.0
9.621,0.58,-0.662,0.0
9.168,0.551,-0.681,0.0
12.01,0.716,-0.555,0.0
11.324,0.673,-0.585,0.0
10.724,0.634,-0.613,0.0
10.211,0.601,-0.64,0.0
0.0,0.0,0.0,0.0
9.215,0.538,-0.679,0.0
12.117,0.703,-0.552,0.0
11.371,0.656,-0.58,0.0
10.693,0.615,-0.604,0.0
0.0,0.0,0.0,0.0
0.0,0.0,0.0,0.0
9.212,0.523,-0.672,0.0
12.227,0.689,-0.549,0.0
11.494,0.644,-0.579,0.0
10.86,0.606,-0.606,0.0
10.252,0.57,-0.629,0.0
9.807,0.542,-0.655,0.0
9.269,0.51,-0.67,0.0
12.29,0.672,-0.543,0.0
11.557,0.629,-0.573,0.0
11.003,0.596,-0.606,0.0
10.381,0.56,-0.629,0.0
0.0,0.0,0.0,0.0
0.0,0.0,0.0,0.0
12.408,0.658,-0.539,0.0
11.659,0.615,-0.569,0.0
10.997,0.577,-0.597,0.0
10.425,0.545,-0.624,0.0
9.925,0.516,-0.648,0.0
9.418,0.487,-0.666,0.0
12.496,0.641,-0.532,0.0
11.814,0.603,-0.567,0.0
11.098,0.564,-0.593,0.0
10.467,0.529,-0.617,0.0
0.0,0.0,0.0,0.0
9.479,0.474,-0.662,0.0
12.607,0.626,-0.526,0.0
11.862,0.586,-0.559,0.0
11.233,0.552,-0.591,0.0
10.538,0.515,-0.612,0.0
0.0,0.0,0.0,0.0
9.563,0.463,-0.66,0.0
12.798,0.615,-0.523,0.0
12.017,0.574,-0.556,0.0
11.321,0.538,-0.585,0.0
10.699,0.506,-0.612,0.0
10.225,0.481,-0.64,0.0
9.707,0.454,-0.661,0.0
12.895,0.598,-0.515,0.0
12.2,0.563,-0.553,0.0
11.35,0.52,-0.576,0.0
10.763,0.491,-0.605,0.0
10.275,0.466,-0.634,0.0
9.785,0.441,-0.656,0.0
13.043,0.584,-0.509,0.0
12.29,0.547,-0.545,0.0
11.538,0.51,-0.574,0.0
10.962,0.482,-0.606,0.0
10.335,0.452,-0.627,0.0
9.832,0.427,-0.65,0.0
13.201,0.569,-0.502,0.0
12.45,0.534,-0.54,0.0
11.702,0.498,-0.57,0.0
11.038,0.467,-0.599,0.0
10.463,0.44,-0.624,0.0
9.942,0.416,-0.646,0.0
13.401,0.556,-0.495,0.0
12.571,0.518,-0.532,0.0
11.823,0.484,-0.564,0.0
11.106,0.452,-0.591,0.0
10.544,0.427,-0.617,0.0
10.069,0.405,-0.644,0.0
13.574,0.541,-0.487,0.0
12.731,0.505,-0.525,0.0
11.937,0.47,-0.556,0.0
11.264,0.441,-0.587,0.0
10.653,0.414,-0.612,0.0
10.146,0.392,-0.637,0.0
13.771,0.527,-0.478,0.0
12.898,0.491,-0.517,0.0
12.115,0.458,-0.551,0.0
11.388,0.427,-0.58,0.0
10.774,0.402,-0.606,0.0
10.233,0.379,-0.631,0.0
13.915,0.511,-0.467,0.0
13.053,0.476,-0.508,0.0
12.371,0.448,-0.548,0.0
11.53,0.414,-0.573,0.0
10.996,0.392,-0.606,0.0
10.339,0.366,-0.625,0.0
14.173,0.498,-0.459,0.0
13.177,0.459,-0.497,0.0
12.444,0.431,-0.536,0.0
11.783,0.405,-0.572,0.0
11.049,0.377,-0.595,0.0
10.435,0.353,-0.618,0.0
14.403,0.484,-0.449,0.0
13.372,0.445,-0.488,0.0
12.635,0.418,-0.528,0.0
11.812,0.388,-0.558,0.0
11.253,0.366,-0.592,0.0
10.576,0.342,-0.613,0.0
14.707,0.471,-0.44,0.0
13.705,0.436,-0.483,0.0
12.842,0.405,-0.521,0.0
12.047,0.377,-0.554,0.0
11.399,0.354,-0.585,0.0
10.716,0.33,-0.607,0.0
14.888,0.454,-0.426,0.0
13.878,0.42,-0.47,0.0
12.984,0.39,-0.509,0.0
12.253,0.365,-0.547,0.0
11.515,0.34,-0.575,0.0
10.909,0.319,-0.603,0.0
15.284,0.443,-0.416,0.0
14.091,0.405,-0.459,0.0
13.188,0.376,-0.499,0.0
12.458,0.352,-0.539,0.0
11.702,0.328,-0.568,0.0
11.1,0.308,-0.598,0.0
15.615,0.43,-0.404,0.0
14.375,0.392,-0.448,0.0
13.472,0.364,-0.491,0.0
12.652,0.339,-0.53,0.0
11.904,0.316,-0.562,0.0
11.226,0.295,-0.589,0.0
15.868,0.413,-0.388,0.0
14.701,0.379,-0.437,0.0
13.758,0.352,-0.482,0.0
12.864,0.326,-0.52,0.0
12.089,0.303,-0.553,0.0
11.398,0.283,-0.582,0.0
16.327,0.402,-0.376,0.0
15.002,0.365,-0.425,0.0
13.925,0.336,-0.468,0.0
13.055,0.312,-0.509,0.0
12.344,0.292,-0.547,0.0
11.598,0.272,-0.575,0.0
16.637,0.386,-0.359,0.0
15.47,0.355,-0.415,0.0
14.173,0.322,-0.455,0.0
13.258,0.298,-0.497,0.0
12.519,0.278,-0.535,0.0
11.796,0.259,-0.567,0.0
16.992,0.37,-0.341,0.0
15.767,0.339,-0.399,0.0
14.542,0.31,-0.445,0.0
13.503,0.284,-0.486,0.0
12.714,0.265,-0.524,0.0
11.969,0.247,-0.557,0.0
17.534,0.357,-0.324,0.0
16.109,0.325,-0.383,0.0
15.078,0.3,-0.438,0.0
13.832,0.272,-0.476,0.0
12.95,0.252,-0.514,0.0
12.228,0.235,-0.549,0.0
18.123,0.344,-0.307,0.0
16.528,0.31,-0.367,0.0
15.34,0.284,-0.421,0.0
14.062,0.257,-0.461,0.0
13.165,0.238,-0.501,0.0
12.41,0.222,-0.537,0.0
18.536,0.327,-0.284,0.0
16.913,0.295,-0.348,0.0
15.664,0.269,-0.404,0.0
14.434,0.245,-0.45,0.0
13.484,0.226,-0.491,0.0
12.644,0.209,-0.527,0.0
19.468,0.318,-0.267,0.0
17.304,0.279,-0.328,0.0
16.011,0.254,-0.387,0.0
14.801,0.232,-0.437,0.0
13.806,0.213,-0.48,0.0
12.869,0.196,-0.515,0.0
20.237,0.305,-0.244,0.0
17.988,0.267,-0.311,0.0
16.471,0.241,-0.371,0.0
15.051,0.217,-0.419,0.0
14.058,0.199,-0.465,0.0
13.186,0.184,-0.505,0.0
21.53,0.297,-0.223,1.0
18.556,0.252,-0.289,0.0
16.847,0.225,-0.351,0.0
15.668,0.206,-0.409,0.0
14.363,0.186,-0.45,0.0
13.437,0.171,-0.492,0.0
21.994,0.276,-0.19,1.0
19.335,0.239,-0.268,0.0
17.317,0.21,-0.331,0.0
15.992,0.191,-0.39,0.0
14.731,0.173,-0.437,0.0
13.764,0.159,-0.48,0.0
23.242,0.264,-0.161,0.0
20.342,0.227,-0.246,0.0
17.965,0.197,-0.312,0.0
16.446,0.177,-0.373,0.0
15.196,0.16,-0.424,0.0
14.06,0.145,-0.466,0.0
23.896,0.243,-0.123,0.0
21.464,0.214,-0.222,2.0
18.652,0.182,-0.291,0.0
16.852,0.161,-0.352,0.0
15.669,0.147,-0.409,0.0
14.48,0.133,-0.453,0.0
25.11,0.226,-0.084,0.0
22.288,0.197,-0.191,3.0
19.545,0.169,-0.269,0.0
17.356,0.146,-0.331,0.0
16.042,0.132,-0.39,0.0
14.853,0.12,-0.438,0.0
26.146,0.207,-0.041,0.0
23.323,0.18,-0.158,0.0
20.531,0.154,-0.246,0.0
18.055,0.132,-0.312,0.0
16.491,0.118,-0.37,0.0
15.348,0.107,-0.425,0.0
27.087,0.185,0.006,0.0
24.272,0.161,-0.12,0.0
21.485,0.138,-0.217,2.0
18.635,0.117,-0.288,0.0
16.949,0.103,-0.35,0.0
15.72,0.093,-0.406,0.0
28.358,0.163,0.059,1.0
25.353,0.141,-0.078,0.0
22.459,0.121,-0.186,1.0
19.577,0.102,-0.265,0.0
17.471,0.088,-0.328,0.0
16.16,0.079,-0.387,0.0
28.823,0.136,0.114,0.0
26.244,0.12,-0.031,0.0
23.301,0.102,-0.149,0.0
20.847,0.088,-0.243,0.0
18.197,0.073,-0.307,0.0
16.603,0.064,-0.366,0.0
30.336,0.113,0.178,0.0
27.377,0.097,0.019,0.0
24.508,0.083,-0.109,0.0
21.594,0.07,-0.211,4.0
18.955,0.058,-0.283,0.0
17.075,0.049,-0.343,0.0
31.682,0.087,0.247,0.0
28.688,0.074,0.075,4.0
25.604,0.062,-0.065,0.0
23.036,0.052,-0.18,0.0
20.083,0.042,-0.261,0.0
17.69,0.035,-0.321,0.0
34.005,0.062,0.331,0.0
28.919,0.048,0.131,0.0
26.68,0.04,-0.016,0.0
23.757,0.032,-0.139,1.0
21.064,0.025,-0.232,3.0
18.404,0.019,-0.298,0.0
36.115,0.033,0.422,0.0
0.0,0.0,0.0,0.0
27.796,0.017,0.037,0.0
25.065,0.012,-0.098,0.0
21.978,0.007,-0.2,0.0
19.347,0.004,-0.276,0.0
0.0,0.0,0.0,0.0
33.104,-0.002,0.28,0.0
28.708,-0.006,0.095,1.0
25.969,-0.008,-0.051,0.0
23.462,-0.011,-0.167,1.0
20.502,-0.012,-0.251,0.0
41.364,-0.031,0.646,0.0
35.025,-0.031,0.366,0.0
30.075,-0.03,0.158,1.0
26.883,-0.03,0.0,0.0
24.116,-0.03,-0.124,0.0
21.382,-0.03,-0.22,1.0
0.0,0.0,0.0,0.0
36.428,-0.06,0.453,0.0
31.482,-0.056,0.229,0.0
28.661,-0.055,0.057,3.0
25.399,-0.051,-0.08,0.0
22.628,-0.049,-0.188,0.0
47.959,-0.11,0.939,0.0
39.717,-0.096,0.573,0.0
33.281,-0.084,0.308,1.0
28.828,-0.076,0.115,6.0
26.444,-0.073,-0.03,0.0
23.743,-0.068,-0.149,0.0
57.583,-0.174,1.244,1.0
43.338,-0.136,0.713,0.0
35.856,-0.116,0.405,0.0
30.917,-0.104,0.186,0.0
27.679,-0.096,0.024,0.0
24.991,-0.089,-0.106,0.0
0.0,0.0,0.0,0.0
0.0,0.0,0.0,0.0
37.96,-0.149,0.506,0.0
32.863,-0.132,0.265,1.0
28.758,-0.119,0.083,6.0
25.884,-0.109,-0.057,0.0
0.0,0.0,0.0,0.0
0.0,0.0,0.0,0.0
39.712,-0.181,0.611,0.0
34.054,-0.159,0.345,0.0
28.857,-0.137,0.143,1.0
27.154,-0.132,-0.004,0.0
80.708,-0.403,2.241,2.0
0.0,0.0,0.0,0.0
0.0,0.0,0.0,0.0
36.859,-0.194,0.449,0.0
31.673,-0.169,0.223,1.0
28.681,-0.156,0.054,4.0
82.85,-0.461,2.469,5.0
0.0,0.0,0.0,0.0
0.0,0.0,0.0,0.0
0.0,0.0,0.0,0.0
33.19,-0.196,0.302,0.0
28.812,-0.172,0.113,5.0
90.456,-0.553,2.884,7.0
81.405,-0.504,2.176,1.0
0.0,0.0,0.0,0.0
42.943,-0.272,0.701,0.0
36.274,-0.233,0.405,0.0
31.454,-0.204,0.19,1.0
104.914,-0.695,3.563,3.0
82.531,-0.553,2.378,5.0
0.0,0.0,0.0,0.0
0.0,0.0,0.0,0.0
0.0,0.0,0.0,0.0
32.546,-0.227,0.264,1.0
0.0,0.0,0.0,0.0
90.428,-0.648,2.794,7.0
0.0,0.0,0.0,0.0
0.0,0.0,0.0,0.0
41.765,-0.307,0.64,0.0
34.649,-0.256,0.353,0.0
180.598,-1.36,6.885,7.0
90.645,-0.687,2.987,18.0
82.362,-0.629,2.289,1.0
0.0,0.0,0.0,0.0
47.002,-0.364,0.818,0.0
36.446,-0.284,0.446,0.0
90.771,-0.719,3.649,1.0
90.692,-0.723,3.179,19.0
83.151,-0.666,2.485,2.0
0.0,0.0,0.0,0.0
0.0,0.0,0.0,0.0
39.724,-0.324,0.57,0.0
90.709,-0.75,3.836,3.0
90.662,-0.754,3.367,24.0
90.552,-0.757,2.897,21.0
82.848,-0.696,2.215,1.0
0.0,0.0,0.0,0.0
0.0,0.0,0.0,0.0
90.648,-0.779,4.024,4.0
90.634,-0.782,3.556,25.0
90.602,-0.785,3.088,35.0
83.09,-0.722,2.395,3.0
0.0,0.0,0.0,0.0
0.0,0.0,0.0,0.0
90.691,-0.804,4.215,15.0
90.65,-0.807,3.745,28.0
90.615,-0.808,3.276,43.0
90.404,-0.809,2.793,13.0
0.0,0.0,0.0,0.0
0.0,0.0,0.0,0.0
90.653,-0.826,4.4,24.0
90.648,-0.828,3.934,34.0
90.624,-0.829,3.465,49.0
90.57,-0.83,2.985,32.0
83.284,-0.765,2.316,1.0
0.0,0.0,0.0,0.0
90.613,-0.844,4.588,23.0
90.635,-0.845,4.121,36.0
90.628,-0.846,3.652,46.0
90.599,-0.847,3.175,50.0
90.055,-0.842,2.691,5.0
0.0,0.0,0.0,0.0
90.589,-0.858,4.773,25.0
90.657,-0.859,4.308,41.0
90.62,-0.859,3.839,43.0
90.601,-0.86,3.361,57.0
90.534,-0.859,2.89,23.0
0.0,0.0,0.0,0.0
90.572,-0.87,4.96,29.0
90.622,-0.87,4.493,27.0
90.644,-0.87,4.027,40.0
90.615,-0.869,3.549,54.0
90.601,-0.869,3.081,39.0
83.547,-0.8,2.41,1.0
90.557,-0.877,5.146,26.0
90.596,-0.877,4.68,27.0
90.618,-0.876,4.211,37.0
90.614,-0.875,3.734,44.0
90.62,-0.874,3.266,52.0
90.438,-0.871,2.792,13.0
90.485,-0.881,5.326,17.0
90.569,-0.881,4.863,30.0
90.616,-0.879,4.395,35.0
90.618,-0.878,3.917,46.0
90.601,-0.875,3.448,53.0
90.587,-0.873,2.981,27.0
90.489,-0.882,5.511,21.0
90.569,-0.881,5.046,30.0
90.62,-0.879,4.58,30.0
90.626,-0.877,4.102,36.0
90.627,-0.874,3.632,48.0
90.615,-0.872,3.164,42.0
90.482,-0.88,5.694,29.0
90.538,-0.878,5.228,19.0
90.557,-0.875,4.761,25.0
90.625,-0.872,4.287,36.0
90.618,-0.869,3.817,42.0
90.605,-0.866,3.348,50.0
98.871,-0.955,6.423,7.0
90.533,-0.871,5.411,16.0
90.585,-0.868,4.943,29.0
90.62,-0.865,4.467,29.0
90.636,-0.861,3.998,35.0
90.616,-0.857,3.528,45.0
76.179,-0.728,5.101,13.0
90.492,-0.861,5.59,25.0
90.577,-0.858,5.125,20.0
90.586,-0.853,4.646,23.0
90.653,-0.85,4.18,36.0
90.642,-0.845,3.71,35.0
76.202,-0.718,5.255,27.0
90.514,-0.848,5.772,21.0
90.578,-0.844,5.306,15.0
90.566,-0.839,4.827,19.0
90.674,-0.835,4.362,28.0
90.635,-0.829,3.89,29.0
76.334,-0.706,5.417,26.0
90.582,-0.832,5.955,13.0
90.536,-0.826,5.482,18.0
90.633,-0.821,5.006,13.0
90.685,-0.817,4.538,11.0
90.664,-0.811,4.068,12.0
76.498,-0.692,5.578,28.0
76.198,-0.683,5.159,12.0
90.466,-0.805,5.655,21.0
90.685,-0.801,5.188,7.0
90.654,-0.795,4.715,4.0
90.678,-0.789,4.244,4.0
76.533,-0.673,5.731,14.0
76.248,-0.665,5.312,13.0
90.537,-0.782,5.837,23.0
105.78,-0.906,6.26,14.0
193.778,-1.645,10.457,16.0
193.276,-1.627,9.425,18.0
62.916,-0.535,4.835,20.0
76.358,-0.643,5.47,9.0
90.575,-0.755,6.015,26.0
105.789,-0.873,6.464,22.0
179.443,-1.468,10.03,16.0
193.224,-1.564,9.797,19.0
76.717,-0.627,6.044,10.0
76.515,-0.619,5.629,28.0
88.152,-0.706,6.024,24.0
105.682,-0.837,6.66,9.0
126.797,-0.992,7.33,9.0
193.853,-1.5,10.196,23.0
64.832,-0.507,5.232,3.0
62.915,-0.486,4.748,11.0
86.566,-0.661,6.08,13.0
97.108,-0.732,6.303,15.0
105.885,-0.788,6.32,12.0
193.734,-1.424,10.555,11.0
64.79,-0.481,5.351,18.0
62.897,-0.461,4.865,26.0
86.572,-0.626,6.243,10.0
96.529,-0.688,6.445,16.0
105.875,-0.744,6.517,19.0
179.242,-1.241,10.095,14.0
64.729,-0.453,5.466,13.0
62.895,-0.434,4.98,16.0
76.586,-0.52,5.663,19.0
96.37,-0.644,6.611,21.0
105.649,-0.695,6.695,13.0
126.774,-0.82,7.374,7.0
64.72,-0.423,5.585,18.0
62.42,-0.401,5.058,24.0
63.029,-0.398,4.776,20.0
86.475,-0.536,6.09,9.0
96.532,-0.588,6.293,13.0
106.226,-0.635,6.37,5.0
64.833,-0.392,5.712,8.0
62.377,-0.37,5.167,18.0
63.024,-0.366,4.889,28.0
82.594,-0.47,5.966,12.0
96.469,-0.538,6.461,13.0
96.365,-0.526,5.949,8.0
0.0,0.0,0.0,0.0
64.724,-0.349,5.478,25.0
62.822,-0.331,4.986,32.0
76.506,-0.393,5.662,17.0
96.477,-0.484,6.634,18.0
96.415,-0.472,6.124,24.0
57.198,-0.283,5.244,18.0
64.722,-0.312,5.592,24.0
62.431,-0.293,5.065,29.0
63.075,-0.288,4.778,10.0
82.847,-0.367,5.84,7.0
96.535,-0.416,6.298,8.0
57.314,-0.25,5.355,22.0
64.705,-0.274,5.703,21.0
62.554,-0.256,5.183,24.0
63.059,-0.249,4.886,17.0
82.744,-0.316,5.975,10.0
96.433,-0.356,6.457,19.0
64.834,-0.242,6.169,10.0
64.771,-0.233,5.819,12.0
0.0,0.0,0.0,0.0
62.613,-0.208,4.957,37.0
76.466,-0.244,5.65,20.0
63.337,-0.192,4.346,5.0
58.914,-0.182,5.704,8.0
57.278,-0.168,5.241,27.0
64.803,-0.181,5.587,7.0
62.533,-0.166,5.053,25.0
97.234,-0.244,7.344,7.0
63.406,-0.149,4.454,34.0
56.775,-0.136,5.591,23.0
57.355,-0.129,5.343,31.0
67.476,-0.142,5.928,11.0
62.613,-0.122,5.162,31.0
62.486,-0.113,4.821,8.0
63.431,-0.105,4.559,16.0
56.856,-0.096,5.691,27.0
57.126,-0.087,5.414,23.0
57.919,-0.08,5.182,32.0
62.735,-0.077,5.274,30.0
62.535,-0.067,4.925,7.0
97.093,-0.09,7.132,10.0
57.084,-0.054,5.806,32.0
57.02,-0.044,5.495,27.0
57.606,-0.036,5.245,31.0
62.756,-0.029,5.374,24.0
59.274,-0.018,4.76,21.0
76.866,-0.011,5.766,9.0
56.984,-0.009,5.885,25.0
56.946,0.0,5.577,30.0
57.482,0.008,5.322,31.0
58.314,0.017,5.083,16.0
59.315,0.027,4.855,23.0
76.889,0.049,5.885,16.0
57.062,0.035,5.98,25.0
56.936,0.044,5.663,28.0
57.403,0.054,5.402,28.0
58.097,0.064,5.151,32.0
59.36,0.076,4.947,20.0
62.801,0.091,4.9,22.0
57.422,0.083,6.104,31.0
57.059,0.092,5.76,23.0
57.266,0.102,5.474,31.0
58.034,0.113,5.231,32.0
59.343,0.125,5.032,26.0
62.824,0.144,4.993,27.0
57.311,0.131,6.176,32.0
57.06,0.14,5.843,24.0
57.04,0.151,5.535,24.0
57.246,0.161,5.242,34.0
59.286,0.177,5.112,30.0
62.952,0.198,5.092,23.0
56.684,0.18,6.19,31.0
57.165,0.191,5.935,29.0
57.227,0.201,5.634,26.0
56.605,0.21,5.263,30.0
58.901,0.228,5.161,16.0
57.137,0.231,4.701,14.0
56.439,0.23,6.242,26.0
57.136,0.243,6.011,31.0
57.487,0.254,5.739,31.0
56.684,0.261,5.348,30.0
58.642,0.28,5.218,27.0
63.224,0.314,5.287,26.0
56.611,0.283,6.337,8.0
57.038,0.295,6.077,31.0
57.245,0.306,5.791,28.0
56.954,0.315,5.448,31.0
58.768,0.335,5.306,10.0
63.021,0.372,5.352,25.0
56.844,0.338,6.439,15.0
57.039,0.349,6.152,31.0
57.234,0.361,5.863,27.0
57.355,0.372,5.561,30.0
56.74,0.379,5.196,30.0
63.048,0.432,5.435,11.0
57.129,0.394,6.545,27.0
56.802,0.403,6.199,20.0
57.343,0.417,5.948,20.0
58.076,0.434,5.705,32.0
56.656,0.434,5.259,29.0
0.0,0.0,0.0,0.0
57.591,0.455,6.669,17.0
56.748,0.459,6.264,6.0
50.143,0.415,5.263,18.0
58.507,0.495,5.818,33.0
56.807,0.492,5.342,30.0
57.347,0.507,5.084,14.0
62.666,0.559,7.333,7.0
56.881,0.518,6.347,12.0
50.253,0.467,5.335,24.0
58.416,0.555,5.878,34.0
57.251,0.555,5.451,25.0
56.968,0.562,5.117,31.0
60.48,0.602,7.148,16.0
52.52,0.532,5.921,10.0
50.324,0.52,5.4,24.0
57.842,0.609,5.886,32.0
58.192,0.624,5.606,32.0
57.059,0.623,5.189,31.0
48.485,0.533,5.786,7.0
52.623,0.59,5.992,7.0
57.217,0.652,6.203,9.0
57.496,0.666,5.915,29.0
57.803,0.681,5.633,28.0
56.766,0.68,5.224,30.0
49.107,0.594,5.914,5.0
52.575,0.645,6.044,14.0
50.328,0.627,5.511,21.0
57.622,0.73,5.989,19.0
57.798,0.743,5.693,21.0
56.817,0.741,5.288,22.0
49.207,0.648,5.977,22.0
48.883,0.653,5.67,20.0
50.283,0.681,5.557,24.0
57.507,0.79,6.035,22.0
63.047,0.879,6.273,21.0
56.995,0.806,5.361,29.0
48.985,0.698,5.999,23.0
48.656,0.703,5.692,18.0
50.36,0.738,5.615,24.0
57.424,0.853,6.083,21.0
57.286,0.862,5.756,7.0
57.174,0.872,5.433,23.0
48.957,0.753,6.043,34.0
48.803,0.76,5.756,18.0
50.24,0.792,5.649,24.0
57.457,0.918,6.141,8.0
57.054,0.923,5.785,5.0
57.242,0.937,5.492,12.0
48.866,0.806,6.077,20.0
48.892,0.817,5.811,22.0
50.354,0.851,5.708,24.0
57.523,0.983,6.199,8.0
55.043,0.953,5.63,21.0
57.094,0.999,5.527,7.0
48.951,0.864,6.131,26.0
49.055,0.875,5.872,23.0
50.143,0.905,5.727,29.0
50.02,0.912,5.433,19.0
54.985,1.014,5.67,25.0
57.117,1.065,5.577,9.0
49.038,0.922,6.182,23.0
48.74,0.926,5.875,22.0
50.279,0.965,5.783,23.0
57.828,1.122,6.327,14.0
57.686,1.131,5.995,5.0
60.989,1.207,6.004,11.0
49.15,0.981,6.235,23.0
48.634,0.981,5.901,22.0
50.282,1.024,5.822,21.0
49.689,1.022,5.475,20.0
55.019,1.142,5.759,6.0
61.006,1.279,6.05,7.0
45.621,0.965,5.822,13.0
48.778,1.041,5.954,24.0
50.175,1.081,5.847,24.0
49.696,1.08,5.511,28.0
55.11,1.209,5.808,7.0
49.285,1.091,4.923,23.0
45.619,1.019,5.854,22.0
48.932,1.103,6.007,23.0
50.326,1.144,5.899,24.0
49.686,1.14,5.544,23.0
48.737,1.128,5.169,22.0
49.273,1.15,4.954,18.0
45.615,1.073,5.883,31.0
45.236,1.073,5.583,11.0
50.313,1.204,5.929,17.0
49.716,1.199,5.578,23.0
48.915,1.189,5.218,22.0
49.346,1.21,4.992,25.0
45.638,1.129,5.914,18.0
45.414,1.132,5.632,24.0
45.104,1.133,5.343,14.0
45.497,1.152,5.132,19.0
48.885,1.248,5.243,22.0
49.524,1.273,5.038,23.0
47.309,1.227,6.158,22.0
45.367,1.186,5.651,20.0
45.13,1.189,5.37,21.0
45.493,1.207,5.156,18.0
48.877,1.306,5.268,22.0
50.629,1.363,5.177,24.0
47.632,1.293,6.225,21.0
45.451,1.242,5.685,20.0
45.175,1.244,5.398,22.0
45.535,1.263,5.183,25.0
48.95,1.367,5.3,22.0
48.847,1.374,5.017,13.0
47.596,1.351,6.243,11.0
45.138,1.289,5.667,19.0
45.237,1.3,5.427,30.0
45.379,1.314,5.186,33.0
48.865,1.424,5.312,9.0
50.911,1.493,5.252,7.0
44.117,1.305,5.805,17.0
44.487,1.325,5.604,20.0
45.303,1.357,5.453,19.0
45.364,1.368,5.202,30.0
48.796,1.48,5.324,10.0
50.967,1.555,5.277,12.0
44.104,1.358,5.82,26.0
43.948,1.361,5.553,28.0
45.29,1.411,5.468,33.0
45.398,1.423,5.222,19.0
45.788,1.444,5.011,20.0
51.073,1.62,5.305,27.0
44.054,1.41,5.828,22.0
43.715,1.407,5.537,19.0
45.395,1.47,5.495,22.0
45.44,1.48,5.241,26.0
48.753,1.597,5.351,7.0
51.106,1.683,5.324,11.0
48.181,1.6,6.388,8.0
43.704,1.46,5.548,26.0
45.509,1.528,5.521,31.0
47.531,1.605,5.495,8.0
46.065,1.564,5.067,19.0
48.64,1.66,5.079,18.0
43.999,1.514,5.845,30.0
43.725,1.513,5.561,38.0
45.381,1.579,5.516,25.0
45.676,1.597,5.291,22.0
46.06,1.619,5.077,17.0
48.709,1.721,5.096,24.0
44.049,1.569,5.86,23.0
43.738,1.566,5.571,37.0
45.264,1.629,5.51,33.0
45.709,1.653,5.302,30.0
46.046,1.674,5.082,34.0
48.523,1.772,5.084,38.0
43.803,1.613,5.834,28.0
43.579,1.613,5.557,35.0
45.328,1.686,5.524,32.0
45.696,1.707,5.307,35.0
45.724,1.717,5.053,29.0
48.744,1.839,5.113,22.0
43.816,1.667,5.84,30.0
43.636,1.667,5.569,23.0
45.367,1.741,5.533,35.0
45.754,1.764,5.317,24.0
45.477,1.761,5.029,19.0
49.1,1.91,5.153,23.0
43.73,1.716,5.831,23.0
43.588,1.718,5.565,35.0
45.498,1.801,5.551,38.0
45.607,1.812,5.302,31.0
45.277,1.808,5.008,15.0
49.639,1.99,5.211,4.0
43.655,1.765,5.822,34.0
43.682,1.773,5.577,18.0
45.966,1.873,5.608,20.0
45.721,1.871,5.314,18.0
45.254,1.859,5.004,28.0
63.236,2.608,6.637,7.0
43.81,1.822,5.841,30.0
43.705,1.825,5.578,18.0
45.79,1.92,5.584,21.0
45.596,1.919,5.297,31.0
45.37,1.917,5.015,34.0
51.548,2.187,5.406,11.0
43.817,1.874,5.838,32.0
45.706,1.962,5.829,5.0
45.876,1.977,5.59,20.0
45.626,1.974,5.296,21.0
45.369,1.97,5.009,28.0
56.276,2.453,5.896,11.0
43.878,1.928,5.841,29.0
43.802,1.932,5.581,18.0
45.812,2.027,5.576,20.0
45.584,2.024,5.285,31.0
45.94,2.047,5.065,20.0
51.349,2.296,5.371,25.0
44.068,1.987,5.859,38.0
44.369,2.007,5.645,28.0
45.593,2.069,5.541,29.0
45.645,2.078,5.283,27.0
51.717,2.363,5.692,6.0
51.083,2.342,5.333,24.0
44.314,2.049,5.882,31.0
44.393,2.059,5.638,37.0
0.0,0.0,0.0,0.0
45.585,2.128,5.265,36.0
51.701,2.421,5.678,6.0
50.573,2.376,5.267,22.0
44.562,2.111,5.903,35.0
44.421,2.11,5.63,34.0
45.873,2.186,5.551,16.0
45.577,2.178,5.251,36.0
57.106,2.737,6.255,30.0
50.479,2.427,5.242,30.0
44.488,2.156,5.879,32.0
44.624,2.168,5.642,19.0
45.792,2.232,5.527,29.0
48.208,2.356,5.539,18.0
50.621,2.481,5.528,9.0
50.369,2.476,5.214,24.0
44.433,2.202,5.857,24.0
44.418,2.207,5.6,19.0
45.824,2.283,5.514,20.0
47.592,2.377,5.45,21.0
48.47,2.428,5.275,19.0
49.817,2.502,5.138,25.0
44.489,2.252,5.846,31.0
48.109,2.442,6.045,18.0
45.811,2.331,5.494,10.0
47.561,2.426,5.427,21.0
48.739,2.493,5.284,19.0
49.777,2.552,5.113,24.0
44.477,2.298,5.826,38.0
47.764,2.474,5.981,22.0
43.533,2.26,5.201,17.0
47.432,2.47,5.391,30.0
0.0,0.0,0.0,0.0
50.056,2.619,5.118,17.0
44.499,2.346,5.806,36.0
0.0,0.0,0.0,0.0
43.568,2.307,5.184,19.0
47.453,2.519,5.37,30.0
0.0,0.0,0.0,0.0
49.902,2.661,5.077,23.0
44.606,2.397,5.797,30.0
0.0,0.0,0.0,0.0
43.656,2.356,5.171,17.0
48.141,2.603,5.422,22.0
47.589,2.58,5.087,13.0
49.231,2.674,4.982,23.0
44.538,2.437,5.763,32.0
43.794,2.402,5.414,15.0
43.621,2.397,5.142,25.0
48.57,2.674,5.442,22.0
55.986,3.089,5.952,9.0
49.172,2.718,4.947,23.0
44.636,2.486,5.749,19.0
43.723,2.439,5.379,33.0
43.584,2.436,5.111,24.0
47.965,2.687,5.344,22.0
53.261,2.989,5.629,5.0
57.605,3.239,5.759,9.0
42.247,2.393,5.414,21.0
43.791,2.485,5.358,18.0
47.183,2.682,5.502,4.0
47.643,2.713,5.277,29.0
48.193,2.749,5.061,21.0
48.697,2.784,4.835,7.0
42.247,2.432,5.384,31.0
43.404,2.503,5.281,18.0
43.708,2.525,5.066,15.0
0.0,0.0,0.0,0.0
48.419,2.807,5.05,22.0
0.0,0.0,0.0,0.0
42.235,2.47,5.352,31.0
43.335,2.538,5.241,24.0
45.83,2.688,5.278,7.0
47.761,2.806,5.22,13.0
48.712,2.867,5.045,23.0
57.015,3.361,5.578,31.0
42.187,2.504,5.313,28.0
43.448,2.583,5.22,23.0
45.797,2.726,5.238,20.0
44.816,2.672,4.863,19.0
49.456,2.953,5.083,15.0
56.993,3.409,5.53,13.0
42.295,2.546,5.292,22.0
43.339,2.613,5.172,18.0
45.241,2.731,5.138,19.0
44.696,2.702,4.814,31.0
51.678,3.129,5.268,18.0
63.258,3.835,6.086,14.0
42.322,2.583,5.26,27.0
42.594,2.602,5.047,17.0
45.056,2.757,5.078,19.0
44.679,2.737,4.773,29.0
51.674,3.17,5.223,15.0
63.215,3.883,6.027,24.0
42.318,2.617,5.222,29.0
42.37,2.622,4.983,24.0
44.925,2.784,5.023,19.0
44.701,2.773,4.736,16.0
51.776,3.216,5.187,8.0
55.006,3.421,5.195,8.0
42.674,2.671,5.226,32.0
42.407,2.657,4.948,7.0
44.904,2.816,4.979,31.0
44.693,2.806,4.693,9.0
51.746,3.253,5.136,23.0
52.392,3.297,4.899,14.0
42.812,2.71,5.203,32.0
34.314,2.174,3.971,24.0
44.82,2.843,4.927,19.0
51.518,3.272,5.36,8.0
51.679,3.285,5.079,30.0
52.369,3.332,4.846,20.0
42.987,2.752,5.181,23.0
34.3,2.198,3.935,31.0
47.102,3.021,5.131,4.0
51.538,3.308,5.311,7.0
51.895,3.334,5.049,25.0
59.689,3.838,5.463,7.0
42.471,2.748,5.075,16.0
33.989,2.2,3.864,24.0
47.118,3.053,5.084,16.0
51.637,3.348,5.268,4.0
52.158,3.385,5.02,18.0
80.591,5.235,7.293,19.0
42.383,2.769,5.02,12.0
33.812,2.211,3.808,26.0
0.0,0.0,0.0,0.0
51.617,3.379,5.211,7.0
63.137,4.137,6.009,5.0
58.059,3.808,5.191,17.0
34.298,2.262,4.024,29.0
33.826,2.232,3.772,23.0
49.118,3.242,5.193,6.0
51.596,3.409,5.151,19.0
63.081,4.17,5.934,16.0
59.07,3.907,5.216,33.0
34.247,2.278,3.98,27.0
33.94,2.259,3.747,32.0
64.509,4.295,6.748,7.0
51.578,3.436,5.091,15.0
63.026,4.201,5.857,25.0
59.331,3.957,5.172,16.0
34.015,2.281,3.914,22.0
33.873,2.272,3.7,28.0
64.472,4.327,6.669,9.0
48.252,3.24,4.707,19.0
63.026,4.234,5.784,21.0
80.946,5.44,6.962,11.0
33.963,2.294,3.867,25.0
47.147,3.186,5.095,11.0
54.81,3.705,5.605,13.0
48.238,3.262,4.648,19.0
60.99,4.126,5.524,5.0
58.142,3.935,4.931,20.0
33.976,2.311,3.827,31.0
54.236,3.691,5.794,14.0
54.811,3.731,5.537,11.0
48.231,3.283,4.588,6.0
59.249,4.035,5.294,18.0
58.423,3.98,4.883,26.0
33.904,2.321,3.777,31.0
54.386,3.724,5.743,20.0
48.344,3.311,4.824,13.0
52.02,3.563,4.884,4.0
59.245,4.059,5.22,13.0
58.586,4.015,4.823,23.0
33.858,2.331,3.729,30.0
54.581,3.758,5.694,7.0
48.27,3.324,4.755,22.0
63.002,4.339,5.835,5.0
0.0,0.0,0.0,0.0
58.582,4.037,4.748,26.0
47.128,3.262,5.129,8.0
54.59,3.778,5.624,16.0
48.239,3.339,4.689,24.0
61.011,4.223,5.571,2.0
60.788,4.208,5.199,6.0
58.313,4.037,4.651,32.0
54.217,3.77,5.829,13.0
54.579,3.794,5.551,14.0
48.2,3.351,4.622,16.0
59.105,4.109,5.319,6.0
58.665,4.078,4.941,24.0
58.126,4.041,4.559,36.0
54.414,3.799,5.777,14.0
48.284,3.37,4.846,22.0
51.999,3.629,4.917,20.0
51.879,3.62,4.599,12.0
58.639,4.092,4.859,25.0
58.137,4.056,4.481,8.0
54.489,3.817,5.711,9.0
48.294,3.382,4.78,22.0
51.979,3.64,4.843,17.0
58.964,4.128,5.145,5.0
58.642,4.105,4.778,22.0
61.652,4.315,4.667,15.0
48.349,3.397,4.999,17.0
48.229,3.387,4.706,20.0
51.922,3.646,4.765,10.0
58.721,4.122,5.043,19.0
58.253,4.088,4.665,31.0
61.543,4.318,4.573,23.0
48.364,3.406,4.932,14.0
64.877,4.567,6.239,12.0
51.822,3.646,4.682,21.0
58.67,4.127,4.955,29.0
58.131,4.088,4.573,31.0
61.374,4.315,4.473,23.0
48.329,3.409,4.859,19.0
51.961,3.664,4.922,4.0
51.845,3.654,4.61,21.0
58.652,4.132,4.869,26.0
58.148,4.095,4.49,8.0
61.332,4.318,4.382,26.0
48.314,3.412,4.787,16.0
51.954,3.667,4.846,20.0
58.773,4.146,5.141,13.0
58.667,4.137,4.785,16.0
61.597,4.341,4.667,16.0
61.034,4.3,4.272,35.0
48.225,3.408,4.707,9.0
51.918,3.666,4.766,16.0
58.747,4.147,5.052,26.0
58.165,4.103,4.658,25.0
61.485,4.335,4.569,34.0
60.777,4.283,4.164,32.0
64.829,4.582,6.231,14.0
51.847,3.661,4.682,23.0
58.692,4.142,4.959,31.0
58.123,4.099,4.568,31.0
61.288,4.32,4.462,30.0
60.999,4.297,4.088,18.0
51.976,3.671,4.917,6.0
51.86,3.66,4.605,21.0
58.667,4.137,4.868,27.0
61.524,4.336,4.742,6.0
61.296,4.316,4.369,28.0
61.12,4.301,4.004,16.0
51.956,3.666,4.836,19.0
58.804,4.145,5.131,14.0
58.629,4.129,4.776,19.0
61.605,4.335,4.655,18.0
61.068,4.294,4.261,35.0
60.774,4.27,3.889,14.0
51.898,3.655,4.751,12.0
58.716,4.131,5.033,25.0
58.165,4.088,4.648,32.0
61.507,4.319,4.552,32.0
60.763,4.264,4.146,29.0
60.74,4.259,3.794,8.0
51.838,3.642,4.665,20.0
58.675,4.118,4.939,29.0
58.129,4.076,4.556,32.0
61.417,4.302,4.451,22.0
60.701,4.248,4.048,13.0
77.866,5.444,4.744,24.0
51.861,3.633,4.586,10.0
58.645,4.103,4.845,26.0
61.601,4.306,4.732,8.0
