X,Y,Z,Reflectivity
9.487,-0.013,-0.655,0.0
0.0,0.0,0.0,0.0
8.672,-0.015,-0.69,0.0
0.0,0.0,0.0,0.0
7.953,-0.016,-0.718,0.0
7.684,-0.016,-0.735,0.0
9.65,-0.02,-0.65,0.0
9.134,-0.02,-0.664,0.0
8.757,-0.021,-0.682,0.0
0.0,0.0,0.0,0.0
8.072,-0.021,-0.715,0.0
7.736,-0.021,-0.726,0.0
9.725,-0.027,-0.639,0.0
9.299,-0.027,-0.66,0.0
0.0,0.0,0.0,0.0
0.0,0.0,0.0,0.0
8.182,-0.027,-0.711,0.0
7.848,-0.027,-0.723,0.0
9.971,-0.034,-0.638,0.0
9.475,-0.033,-0.656,0.0
0.0,0.0,0.0,0.0
0.0,0.0,0.0,0.0
0.0,0.0,0.0,0.0
7.993,-0.032,-0.723,0.0
10.118,-0.04,-0.63,0.0
9.604,-0.039,-0.648,0.0
0.0,0.0,0.0,0.0
8.727,-0.038,-0.681,0.0
0.0,0.0,0.0,0.0
8.091,-0.037,-0.717,0.0
10.323,-0.047,-0.624,0.0
9.76,-0.045,-0.641,0.0
9.325,-0.044,-0.662,0.0
0.0,0.0,0.0,0.0
0.0,0.0,0.0,0.0
8.181,-0.042,-0.71,0.0
10.432,-0.053,-0.612,0.0
9.867,-0.051,-0.631,0.0
9.454,-0.05,-0.654,0.0
0.0,0.0,0.0,0.0
8.627,-0.047,-0.688,0.0
8.275,-0.046,-0.703,0.0
10.657,-0.059,-0.606,0.0
10.117,-0.057,-0.628,0.0
9.602,-0.055,-0.646,0.0
0.0,0.0,0.0,0.0
8.793,-0.052,-0.685,0.0
8.488,-0.052,-0.706,0.0
10.851,-0.065,-0.597,0.0
10.261,-0.063,-0.618,0.0
9.826,-0.061,-0.643,0.0
0.0,0.0,0.0,0.0
0.0,0.0,0.0,0.0
8.558,-0.056,-0.696,0.0
11.029,-0.071,-0.587,0.0
10.457,-0.068,-0.611,0.0
9.955,-0.066,-0.633,0.0
9.525,-0.064,-0.657,0.0
0.0,0.0,0.0,0.0
8.632,-0.06,-0.686,0.0
11.273,-0.077,-0.579,0.0
10.648,-0.074,-0.602,0.0
10.227,-0.072,-0.631,0.0
9.651,-0.069,-0.647,0.0
0.0,0.0,0.0,0.0
8.737,-0.063,-0.677,0.0
11.538,-0.083,-0.57,0.0
10.889,-0.079,-0.595,0.0
10.331,-0.076,-0.618,0.0
0.0,0.0,0.0,0.0
0.0,0.0,0.0,0.0
8.917,-0.068,-0.674,0.0
11.725,-0.088,-0.557,0.0
11.104,-0.084,-0.585,0.0
10.538,-0.081,-0.61,0.0
0.0,0.0,0.0,0.0
9.584,-0.075,-0.656,0.0
9.082,-0.072,-0.669,0.0
12.025,-0.094,-0.548,0.0
11.383,-0.09,-0.578,0.0
10.821,-0.086,-0.606,0.0
10.272,-0.082,-0.629,0.0
9.723,-0.079,-0.646,0.0
9.321,-0.076,-0.668,0.0
12.314,-0.099,-0.537,0.0
11.589,-0.094,-0.566,0.0
11.027,-0.09,-0.596,0.0
10.394,-0.086,-0.616,0.0
0.0,0.0,0.0,0.0
9.465,-0.079,-0.66,0.0
12.502,-0.104,-0.521,0.0
11.835,-0.099,-0.554,0.0
11.192,-0.094,-0.582,0.0
10.554,-0.089,-0.605,0.0
10.059,-0.086,-0.629,0.0
9.592,-0.082,-0.649,0.0
12.847,-0.109,-0.51,0.0
12.13,-0.103,-0.544,0.0
11.425,-0.098,-0.571,0.0
10.911,-0.094,-0.603,0.0
10.329,-0.089,-0.625,0.0
9.851,-0.086,-0.647,0.0
13.12,-0.113,-0.494,0.0
12.402,-0.107,-0.531,0.0
11.716,-0.102,-0.563,0.0
11.063,-0.097,-0.59,0.0
10.526,-0.092,-0.616,0.0
9.96,-0.088,-0.634,0.0
13.483,-0.118,-0.481,0.0
12.685,-0.111,-0.518,0.0
11.98,-0.105,-0.551,0.0
11.322,-0.1,-0.581,0.0
10.71,-0.095,-0.605,0.0
10.27,-0.091,-0.633,0.0
13.873,-0.122,-0.467,0.0
12.927,-0.114,-0.502,0.0
12.251,-0.108,-0.539,0.0
11.571,-0.103,-0.57,0.0
10.959,-0.098,-0.596,0.0
10.391,-0.093,-0.619,0.0
14.351,-0.127,-0.453,0.0
13.336,-0.118,-0.49,0.0
12.447,-0.11,-0.522,0.0
11.786,-0.105,-0.556,0.0
11.276,-0.1,-0.59,0.0
10.607,-0.095,-0.61,0.0
14.711,-0.13,-0.435,0.0
13.681,-0.121,-0.475,0.0
12.867,-0.114,-0.513,0.0
12.086,-0.107,-0.545,0.0
11.441,-0.101,-0.575,0.0
10.836,-0.096,-0.601,0.0
15.244,-0.134,-0.419,0.0
14.049,-0.123,-0.459,0.0
13.164,-0.116,-0.498,0.0
12.402,-0.109,-0.534,0.0
11.723,-0.103,-0.566,0.0
11.1,-0.098,-0.593,0.0
15.772,-0.137,-0.401,0.0
14.479,-0.126,-0.443,0.0
13.492,-0.117,-0.482,0.0
12.693,-0.11,-0.52,0.0
12.026,-0.104,-0.555,0.0
11.328,-0.098,-0.581,0.0
16.285,-0.14,-0.38,0.0
14.876,-0.128,-0.424,0.0
13.868,-0.119,-0.467,0.0
13.02,-0.111,-0.506,0.0
12.33,-0.105,-0.543,0.0
11.586,-0.099,-0.57,0.0
16.726,-0.141,-0.356,0.0
15.583,-0.131,-0.412,0.0
14.304,-0.12,-0.452,0.0
13.348,-0.112,-0.492,0.0
12.56,-0.105,-0.527,0.0
11.903,-0.099,-0.561,0.0
17.316,-0.143,-0.332,0.0
16.048,-0.132,-0.391,0.0
14.667,-0.12,-0.432,0.0
13.765,-0.112,-0.478,0.0
12.863,-0.105,-0.513,0.0
12.181,-0.099,-0.549,0.0
17.988,-0.144,-0.308,0.0
16.544,-0.132,-0.368,0.0
15.388,-0.122,-0.422,0.0
14.121,-0.112,-0.461,0.0
13.212,-0.104,-0.499,0.0
12.406,-0.097,-0.533,0.0
18.949,-0.147,-0.284,0.0
17.059,-0.131,-0.344,0.0
15.867,-0.121,-0.401,0.0
14.515,-0.11,-0.443,0.0
13.57,-0.103,-0.485,0.0
12.766,-0.096,-0.522,0.0
19.87,-0.147,-0.257,0.0
17.659,-0.13,-0.319,0.0
16.321,-0.12,-0.379,0.0
15.059,-0.11,-0.429,0.0
13.943,-0.101,-0.469,0.0
13.03,-0.093,-0.505,0.0
21.209,-0.15,-0.23,0.0
18.429,-0.129,-0.294,0.0
16.79,-0.117,-0.355,0.0
15.573,-0.108,-0.411,0.0
14.362,-0.098,-0.453,0.0
13.394,-0.091,-0.491,0.0
22.205,-0.149,-0.194,1.0
19.372,-0.128,-0.269,0.0
17.405,-0.114,-0.331,0.0
16.075,-0.104,-0.39,0.0
14.774,-0.095,-0.435,0.0
13.81,-0.088,-0.478,0.0
23.263,-0.146,-0.155,0.0
20.715,-0.128,-0.245,0.0
18.156,-0.111,-0.308,0.0
16.58,-0.1,-0.368,0.0
15.389,-0.092,-0.421,0.0
14.238,-0.084,-0.463,0.0
24.494,-0.142,-0.112,0.0
21.934,-0.125,-0.213,1.0
19.116,-0.108,-0.284,0.0
17.128,-0.095,-0.345,0.0
15.882,-0.087,-0.401,0.0
14.631,-0.079,-0.445,0.0
25.749,-0.137,-0.065,0.0
22.998,-0.12,-0.176,0.0
19.894,-0.102,-0.254,0.0
17.779,-0.09,-0.321,0.0
16.384,-0.081,-0.38,0.0
15.126,-0.074,-0.429,0.0
26.806,-0.128,-0.011,0.0
23.996,-0.112,-0.134,0.0
21.586,-0.099,-0.231,0.0
18.453,-0.083,-0.295,0.0
16.866,-0.074,-0.356,0.0
15.639,-0.067,-0.411,0.0
28.488,-0.119,0.045,2.0
25.042,-0.103,-0.088,0.0
22.506,-0.09,-0.195,0.0
19.393,-0.076,-0.27,0.0
17.397,-0.066,-0.332,0.0
16.12,-0.059,-0.391,0.0
28.821,-0.103,0.105,7.0
26.258,-0.091,-0.039,0.0
23.589,-0.08,-0.156,0.0
20.653,-0.067,-0.246,0.0
18.18,-0.057,-0.31,0.0
16.617,-0.051,-0.369,0.0
30.296,-0.089,0.173,1.0
27.45,-0.077,0.015,0.0
24.31,-0.066,-0.111,0.0
21.792,-0.057,-0.214,0.0
18.903,-0.047,-0.283,0.0
17.166,-0.041,-0.346,0.0
32.061,-0.072,0.248,1.0
28.748,-0.061,0.074,7.0
25.602,-0.051,-0.065,0.0
23.037,-0.044,-0.18,0.0
20.074,-0.036,-0.261,0.0
17.849,-0.029,-0.324,0.0
33.417,-0.051,0.326,0.0
28.868,-0.041,0.132,1.0
26.756,-0.034,-0.014,0.0
23.926,-0.028,-0.139,1.0
21.162,-0.022,-0.232,2.0
18.475,-0.017,-0.298,0.0
36.409,-0.028,0.428,0.0
31.125,-0.02,0.205,0.0
28.145,-0.014,0.04,1.0
25.104,-0.01,-0.095,0.0
22.169,-0.005,-0.198,0.0
19.536,-0.002,-0.276,0.0
38.333,0.0,0.528,0.0
33.176,0.004,0.286,0.0
28.76,0.008,0.099,0.0
26.224,0.01,-0.047,0.0
23.504,0.012,-0.164,1.0
20.858,0.014,-0.253,0.0
42.185,0.035,0.666,0.0
35.85,0.035,0.38,0.0
30.355,0.033,0.165,0.0
27.177,0.034,0.004,0.0
24.268,0.034,-0.121,0.0
21.52,0.033,-0.219,3.0
0.0,0.0,0.0,0.0
0.0,0.0,0.0,0.0
0.0,0.0,0.0,0.0
28.65,0.061,0.06,3.0
25.595,0.058,-0.077,0.0
23.037,0.056,-0.189,0.0
0.0,0.0,0.0,0.0
39.81,0.109,0.579,0.0
0.0,0.0,0.0,0.0
28.885,0.088,0.118,0.0
26.734,0.086,-0.029,0.0
23.548,0.079,-0.147,0.0
0.0,0.0,0.0,0.0
0.0,0.0,0.0,0.0
36.173,0.139,0.409,0.0
0.0,0.0,0.0,0.0
27.748,0.116,0.023,0.0
24.841,0.107,-0.107,0.0
0.0,0.0,0.0,0.0
0.0,0.0,0.0,0.0
38.725,0.187,0.512,0.0
32.237,0.161,0.256,0.0
28.651,0.148,0.078,1.0
25.916,0.138,-0.063,0.0
74.969,0.411,1.912,1.0
0.0,0.0,0.0,0.0
0.0,0.0,0.0,0.0
0.0,0.0,0.0,0.0
28.815,0.178,0.133,0.0
26.999,0.171,-0.014,0.0
75.651,0.493,2.072,5.0
0.0,0.0,0.0,0.0
43.445,0.298,0.738,0.0
37.007,0.26,0.432,0.0
31.596,0.228,0.205,0.0
28.136,0.208,0.036,1.0
76.45,0.579,2.236,2.0
0.0,0.0,0.0,0.0
0.0,0.0,0.0,0.0
0.0,0.0,0.0,0.0
0.0,0.0,0.0,0.0
28.826,0.245,0.09,5.0
78.124,0.678,2.431,3.0
57.838,0.513,1.498,1.0
0.0,0.0,0.0,0.0
41.615,0.384,0.64,0.0
0.0,0.0,0.0,0.0
28.962,0.278,0.144,1.0
57.88,0.567,1.906,1.0
57.754,0.577,1.6,0.0
0.0,0.0,0.0,0.0
0.0,0.0,0.0,0.0
36.808,0.389,0.44,0.0
32.035,0.345,0.216,0.0
57.267,0.626,1.988,0.0
57.008,0.635,1.681,0.0
57.462,0.651,1.394,0.0
0.0,0.0,0.0,0.0
39.943,0.468,0.548,0.0
33.454,0.399,0.284,0.0
0.0,0.0,0.0,0.0
56.653,0.697,1.77,0.0
56.496,0.707,1.47,1.0
57.498,0.731,1.189,0.0
0.0,0.0,0.0,0.0
34.954,0.459,0.358,0.0
0.0,0.0,0.0,0.0
0.0,0.0,0.0,0.0
0.0,0.0,0.0,0.0
0.0,0.0,0.0,0.0
0.0,0.0,0.0,0.0
0.0,0.0,0.0,0.0
0.0,0.0,0.0,0.0
0.0,0.0,0.0,0.0
55.548,0.832,1.636,0.0
55.81,0.848,1.346,0.0
0.0,0.0,0.0,0.0
0.0,0.0,0.0,0.0
0.0,0.0,0.0,0.0
55.767,0.894,2.029,0.0
55.338,0.899,1.722,0.0
55.038,0.906,1.419,1.0
0.0,0.0,0.0,0.0
0.0,0.0,0.0,0.0
0.0,0.0,0.0,0.0
0.0,0.0,0.0,0.0
54.978,0.964,1.802,3.0
54.786,0.973,1.502,1.0
54.646,0.983,1.212,0.0
0.0,0.0,0.0,0.0
90.832,1.674,4.083,2.0
0.0,0.0,0.0,0.0
0.0,0.0,0.0,0.0
0.0,0.0,0.0,0.0
0.0,0.0,0.0,0.0
0.0,0.0,0.0,0.0
89.358,1.766,4.159,13.0
0.0,0.0,0.0,0.0
0.0,0.0,0.0,0.0
54.34,1.11,1.664,0.0
54.139,1.118,1.372,0.0
54.696,1.143,1.098,1.0
88.562,1.871,4.261,22.0
0.0,0.0,0.0,0.0
0.0,0.0,0.0,0.0
54.5,1.189,1.753,150.0
54.172,1.194,1.457,0.0
58.043,1.293,1.256,3.0
88.851,2.001,4.413,12.0
56.072,1.275,2.488,0.0
0.0,0.0,0.0,0.0
54.388,1.262,1.833,0.0
54.215,1.271,1.541,1.0
54.366,1.287,1.258,1.0
83.518,1.998,4.274,21.0
88.949,2.149,4.082,11.0
0.0,0.0,0.0,0.0
0.0,0.0,0.0,0.0
54.156,1.346,1.619,1.0
54.152,1.359,1.333,0.0
83.311,2.112,4.387,24.0
85.885,2.198,4.067,4.0
0.0,0.0,0.0,0.0
0.0,0.0,0.0,0.0
54.194,1.426,1.699,3.0
54.086,1.436,1.41,1.0
82.212,2.205,4.45,31.0
0.0,0.0,0.0,0.0
56.174,1.533,2.443,0.0
0.0,0.0,0.0,0.0
54.243,1.506,1.777,0.0
54.059,1.514,1.485,5.0
81.809,2.313,4.542,29.0
82.867,2.364,4.161,13.0
84.386,2.427,3.788,1.0
0.0,0.0,0.0,0.0
0.0,0.0,0.0,0.0
54.101,1.596,1.561,4.0
81.743,2.434,4.651,33.0
82.085,2.464,4.234,23.0
82.205,2.487,3.802,7.0
0.0,0.0,0.0,0.0
0.0,0.0,0.0,0.0
54.177,1.679,1.635,1.0
81.711,2.555,4.759,38.0
81.646,2.573,4.319,32.0
81.55,2.59,3.879,17.0
0.0,0.0,0.0,0.0
0.0,0.0,0.0,0.0
51.198,1.664,1.611,5.0
81.478,2.671,4.851,30.0
81.776,2.7,4.432,31.0
81.019,2.696,3.957,20.0
56.055,1.878,2.433,0.0
51.031,1.722,1.942,0.0
50.639,1.722,1.657,3.0
81.675,2.802,4.966,30.0
81.957,2.832,4.544,22.0
81.172,2.825,4.066,26.0
81.481,2.856,3.637,8.0
50.754,1.791,1.994,1.0
50.296,1.787,1.707,2.0
65.775,2.358,4.08,9.0
81.287,2.935,4.607,37.0
81.25,2.954,4.169,29.0
81.134,2.97,3.72,26.0
50.787,1.871,2.056,1.0
49.863,1.85,1.752,2.0
65.708,2.459,4.154,22.0
81.333,3.064,4.706,27.0
81.134,3.076,4.258,31.0
80.975,3.091,3.807,27.0
50.727,1.949,2.113,1.0
49.501,1.914,1.796,2.0
65.38,2.55,4.209,60.0
65.489,2.57,3.864,29.0
65.577,2.59,3.516,29.0
65.601,2.608,3.158,39.0
0.0,0.0,0.0,0.0
49.11,1.976,1.837,1.0
46.451,5.594,2.602,15.0
46.428,5.591,2.334,17.0
46.393,5.587,2.066,29.0
46.364,5.584,1.793,28.0
46.377,5.586,1.528,24.0
46.4,5.59,1.263,15.0
46.452,5.605,2.55,13.0
46.442,5.604,2.282,15.0
46.407,5.599,2.014,24.0
46.394,5.598,1.743,27.0
46.401,5.599,1.477,18.0
46.392,5.599,1.211,13.0
46.477,5.617,2.499,9.0
46.436,5.612,2.23,14.0
46.423,5.61,1.962,19.0
46.393,5.606,1.69,19.0
46.408,5.608,1.424,12.0
46.392,5.606,1.158,12.0
54.856,6.638,2.886,8.0
46.441,5.619,2.177,13.0
46.45,5.62,1.91,17.0
46.404,5.614,1.637,14.0
46.457,5.62,1.372,6.0
46.377,5.611,1.104,12.0
54.813,6.639,2.821,11.0
46.439,5.623,2.123,14.0
46.427,5.621,1.855,15.0
46.411,5.619,1.583,9.0
46.431,5.621,1.318,7.0
46.27,5.601,1.047,11.0
54.849,6.646,2.759,8.0
46.427,5.624,2.068,17.0
46.41,5.621,1.8,14.0
46.427,5.622,1.53,9.0
46.449,5.625,1.264,9.0
46.086,5.58,0.99,12.0
46.47,5.631,2.283,5.0
46.442,5.626,2.015,20.0
46.395,5.619,1.746,14.0
58.716,7.11,1.867,8.0
46.427,5.621,1.21,11.0
45.796,5.545,0.931,12.0
46.44,5.626,2.227,7.0
46.43,5.623,1.96,18.0
46.41,5.619,1.692,15.0
58.751,7.112,1.799,8.0
46.391,5.614,1.154,12.0
45.545,5.511,0.872,10.0
46.443,5.623,2.172,12.0
46.42,5.618,1.904,17.0
46.427,5.617,1.637,14.0
46.415,5.614,1.365,9.0
46.344,5.604,1.098,14.0
44.935,5.433,0.806,4.0
46.438,5.616,2.116,16.0
46.416,5.611,1.849,16.0
46.398,5.607,1.582,16.0
46.394,5.605,1.311,13.0
46.257,5.587,1.042,14.0
44.112,5.326,0.74,4.0
46.432,5.608,2.061,25.0
46.388,5.6,1.793,21.0
46.376,5.596,1.526,20.0
46.385,5.595,1.255,16.0
46.024,5.55,0.982,10.0
44.096,5.316,0.688,5.0
46.423,5.596,2.005,28.0
46.386,5.589,1.737,34.0
46.369,5.585,1.471,21.0
46.356,5.581,1.199,19.0
45.716,5.502,0.921,13.0
44.055,5.3,0.635,4.0
46.397,5.581,1.949,32.0
46.372,5.575,1.681,39.0
46.357,5.57,1.415,32.0
46.342,5.566,1.144,19.0
45.502,5.463,0.862,10.0
43.889,5.267,0.58,1.0
46.377,5.564,1.892,36.0
46.373,5.56,1.626,44.0
46.362,5.556,1.359,31.0
46.319,5.548,1.087,17.0
44.637,5.344,0.792,3.0
42.528,5.09,0.51,0.0
46.361,5.545,1.835,33.0
46.361,5.542,1.569,50.0
46.365,5.539,1.303,30.0
46.166,5.512,1.028,13.0
44.178,5.272,0.73,5.0
40.259,4.802,0.435,0.0
46.351,5.525,1.779,35.0
46.361,5.523,1.514,46.0
46.346,5.517,1.247,32.0
45.895,5.46,0.967,9.0
44.132,5.248,0.676,5.0
38.96,4.63,0.374,0.0
46.349,5.504,1.723,44.0
46.349,5.5,1.458,42.0
46.339,5.495,1.191,29.0
45.656,5.411,0.907,11.0
44.12,5.225,0.624,3.0
35.414,4.192,0.298,0.0
46.359,5.482,1.669,47.0
46.349,5.477,1.403,39.0
46.341,5.472,1.137,28.0
45.427,5.36,0.85,5.0
42.988,5.069,0.557,1.0
32.878,3.875,0.238,0.0
46.352,5.456,1.613,45.0
46.342,5.45,1.348,34.0
46.309,5.443,1.081,18.0
44.457,5.221,0.779,3.0
40.677,4.774,0.479,0.0
32.434,3.804,0.197,1.0
46.37,5.431,1.56,39.0
46.362,5.425,1.294,29.0
46.178,5.4,1.024,11.0
44.29,5.175,0.724,5.0
40.712,4.753,0.432,0.0
32.051,3.739,0.157,1.0
46.384,5.403,1.506,38.0
46.375,5.397,1.239,23.0
45.871,5.334,0.964,8.0
44.294,5.146,0.672,5.0
37.01,4.297,0.349,0.0
29.386,3.409,0.109,1.0
46.423,5.376,1.453,29.0
46.387,5.367,1.186,20.0
45.658,5.278,0.905,10.0
44.149,5.099,0.619,3.0
35.466,4.092,0.294,0.0
29.306,3.379,0.075,4.0
46.448,5.346,1.401,23.0
46.388,5.333,1.133,20.0
45.404,5.215,0.849,6.0
42.536,4.881,0.548,2.0
33.176,3.804,0.237,0.0
29.128,3.337,0.042,1.0
46.478,5.314,1.348,10.0
46.348,5.293,1.079,11.0
44.768,5.107,0.786,3.0
41.263,4.703,0.484,1.0
32.36,3.685,0.195,1.0
27.36,3.112,0.008,0.0
60.35,6.851,1.683,36.0
46.18,5.237,1.023,10.0
44.494,5.04,0.731,4.0
37.667,4.262,0.4,0.0
29.425,3.326,0.144,1.0
26.328,2.973,-0.021,1.0
59.579,6.712,1.594,18.0
45.874,5.162,0.965,9.0
44.547,5.007,0.682,4.0
37.686,4.231,0.358,0.0
29.389,3.296,0.111,6.0
26.045,2.918,-0.049,1.0
46.538,5.202,1.194,4.0
45.663,5.098,0.91,9.0
44.491,4.961,0.633,3.0
34.239,3.813,0.288,0.0
29.301,3.259,0.079,5.0
25.036,2.782,-0.075,0.0
46.501,5.154,1.142,8.0
45.378,5.023,0.855,11.0
44.303,4.898,0.582,1.0
33.083,3.653,0.242,0.0
28.79,3.175,0.046,1.0
24.214,2.667,-0.099,1.0
46.435,5.1,1.09,3.0
44.989,4.935,0.799,6.0
41.954,4.596,0.506,0.0
32.105,3.513,0.2,1.0
27.462,3.001,0.014,0.0
24.039,2.624,-0.123,2.0
46.343,5.043,1.039,5.0
44.828,4.871,0.749,4.0
0.0,0.0,0.0,0.0
29.347,3.18,0.152,0.0
26.343,2.851,-0.013,1.0
23.507,2.541,-0.145,0.0
46.227,4.981,0.987,7.0
44.85,4.826,0.703,3.0
0.0,0.0,0.0,0.0
29.357,3.15,0.122,1.0
26.076,2.794,-0.039,1.0
22.582,2.417,-0.163,0.0
45.97,4.903,0.935,15.0
44.932,4.785,0.658,3.0
35.408,3.765,0.317,0.0
29.215,3.102,0.091,1.0
25.688,2.724,-0.065,1.0
21.863,2.315,-0.18,1.0
45.625,4.814,0.882,12.0
45.021,4.743,0.614,2.0
33.438,3.517,0.265,1.0
28.944,3.039,0.062,0.0
24.658,2.585,-0.087,0.0
21.669,2.269,-0.2,4.0
45.4,4.736,0.833,12.0
42.749,4.452,0.541,0.0
32.508,3.38,0.226,0.0
27.818,2.888,0.032,0.0
24.075,2.495,-0.108,0.0
21.345,2.209,-0.217,3.0
45.384,4.679,0.788,5.0
39.101,4.024,0.456,0.0
31.958,3.284,0.191,1.0
26.727,2.741,0.005,0.0
23.68,2.425,-0.129,0.0
21.067,2.154,-0.234,1.0
45.568,4.641,0.749,4.0
39.166,3.982,0.42,0.0
31.319,3.178,0.158,0.0
26.143,2.648,-0.018,1.0
23.104,2.336,-0.147,0.0
20.666,2.086,-0.249,0.0
45.809,4.606,0.71,6.0
35.626,3.575,0.35,0.0
29.24,2.929,0.121,0.0
25.864,2.586,-0.041,1.0
22.328,2.228,-0.163,0.0
19.892,1.982,-0.258,0.0
46.065,4.571,0.673,5.0
35.903,3.556,0.32,0.0
29.248,2.891,0.095,4.0
25.326,2.498,-0.063,1.0
22.027,2.169,-0.18,4.0
19.563,1.923,-0.27,0.0
46.245,4.525,0.635,1.0
0.0,0.0,0.0,0.0
29.073,2.833,0.069,1.0
24.785,2.411,-0.083,0.0
21.677,2.104,-0.196,4.0
19.24,1.864,-0.282,0.0
40.53,3.909,0.522,0.0
32.316,3.11,0.233,0.0
27.793,2.669,0.043,0.0
24.199,2.319,-0.101,0.0
21.489,2.056,-0.212,4.0
18.905,1.805,-0.293,0.0
40.523,3.85,0.488,0.0
31.805,3.015,0.203,1.0
27.176,2.571,0.02,0.0
23.877,2.254,-0.119,0.0
21.341,2.01,-0.228,3.0
18.48,1.737,-0.302,0.0
0.0,0.0,0.0,0.0
29.321,2.736,0.164,1.0
26.161,2.436,-0.001,1.0
23.142,2.15,-0.134,0.0
20.974,1.944,-0.24,0.0
18.245,1.688,-0.312,0.0
0.0,0.0,0.0,0.0
29.281,2.688,0.141,3.0
25.945,2.376,-0.021,1.0
22.903,2.093,-0.15,1.0
20.476,1.867,-0.25,0.0
17.89,1.627,-0.319,0.0
34.812,3.15,0.338,0.0
29.181,2.634,0.119,1.0
25.865,2.329,-0.04,1.0
22.562,2.027,-0.164,2.0
19.934,1.786,-0.257,0.0
17.73,1.585,-0.329,0.0
34.003,3.023,0.306,0.0
29.021,2.574,0.097,1.0
25.259,2.234,-0.057,0.0
22.322,1.97,-0.178,2.0
19.704,1.734,-0.268,0.0
17.493,1.536,-0.337,0.0
33.683,2.941,0.28,0.0
28.704,2.499,0.077,0.0
24.877,2.161,-0.073,0.0
22.049,1.91,-0.191,2.0
19.365,1.673,-0.277,0.0
17.328,1.494,-0.345,0.0
32.511,2.786,0.249,0.0
27.893,2.383,0.057,0.0
24.394,2.079,-0.087,0.0
21.754,1.849,-0.202,1.0
19.042,1.614,-0.284,0.0
17.127,1.448,-0.352,0.0
31.886,2.68,0.224,1.0
27.286,2.286,0.038,0.0
24.075,2.011,-0.101,1.0
21.493,1.79,-0.213,0.0
18.771,1.56,-0.291,0.0
16.957,1.405,-0.359,0.0
31.255,2.573,0.201,1.0
27.095,2.224,0.022,1.0
23.995,1.964,-0.114,1.0
21.122,1.724,-0.221,0.0
18.484,1.504,-0.297,0.0
16.767,1.361,-0.364,0.0
30.536,2.462,0.18,1.0
26.744,2.15,0.007,0.0
23.83,1.91,-0.127,1.0
20.795,1.661,-0.229,0.0
18.348,1.462,-0.305,0.0
16.695,1.326,-0.371,0.0
30.014,2.368,0.161,1.0
26.258,2.066,-0.006,0.0
23.577,1.849,-0.137,1.0
20.506,1.603,-0.237,0.0
18.177,1.416,-0.312,0.0
16.45,1.278,-0.374,0.0
29.712,2.292,0.144,1.0
26.036,2.001,-0.019,0.0
23.163,1.775,-0.146,1.0
20.309,1.551,-0.244,0.0
18.081,1.376,-0.319,0.0
16.465,1.249,-0.382,0.0
29.13,2.195,0.128,0.0
25.713,1.931,-0.03,0.0
22.968,1.719,-0.156,0.0
20.045,1.495,-0.25,0.0
17.898,1.33,-0.323,0.0
16.252,1.204,-0.384,0.0
28.7,2.111,0.113,0.0
25.569,1.874,-0.041,0.0
22.746,1.661,-0.164,0.0
19.866,1.445,-0.256,0.0
17.574,1.274,-0.325,0.0
16.129,1.165,-0.388,0.0
28.655,2.055,0.102,1.0
25.381,1.814,-0.051,0.0
22.462,1.599,-0.17,0.0
19.647,1.393,-0.261,0.0
17.496,1.236,-0.33,0.0
15.984,1.125,-0.39,0.0
28.491,1.99,0.091,1.0
25.333,1.763,-0.06,0.0
22.295,1.546,-0.177,0.0
19.569,1.351,-0.266,0.0
17.434,1.199,-0.334,0.0
15.969,1.094,-0.395,0.0
28.377,1.929,0.081,1.0
25.1,1.699,-0.067,0.0
22.201,1.497,-0.183,0.0
19.402,1.303,-0.27,0.0
17.277,1.156,-0.337,0.0
15.845,1.055,-0.397,0.0
28.027,1.852,0.072,0.0
24.924,1.64,-0.074,0.0
22.046,1.444,-0.188,0.0
19.245,1.256,-0.273,0.0
17.166,1.115,-0.339,0.0
15.783,1.021,-0.4,0.0
27.799,1.784,0.064,0.0
24.778,1.583,-0.08,0.0
21.938,1.395,-0.192,0.0
19.04,1.206,-0.275,0.0
17.1,1.078,-0.342,0.0
15.831,0.994,-0.404,0.0
27.629,1.72,0.058,0.0
24.695,1.53,-0.085,0.0
21.684,1.337,-0.195,1.0
18.971,1.165,-0.277,0.0
17.059,1.043,-0.344,0.0
15.779,0.96,-0.406,0.0
27.559,1.662,0.053,1.0
24.641,1.479,-0.089,0.0
21.621,1.291,-0.198,1.0
19.052,1.132,-0.282,0.0
17.004,1.006,-0.346,0.0
15.793,0.93,-0.409,0.0
27.557,1.608,0.049,1.0
24.599,1.428,-0.092,0.0
21.651,1.25,-0.201,3.0
18.877,1.085,-0.282,0.0
17.0,0.972,-0.348,0.0
15.714,0.894,-0.409,0.0
27.426,1.546,0.045,0.0
24.513,1.374,-0.094,0.0
21.672,1.209,-0.203,4.0
18.76,1.041,-0.282,0.0
16.983,0.937,-0.349,0.0
15.732,0.863,-0.41,0.0
27.219,1.48,0.043,0.0
24.617,1.331,-0.096,0.0
21.653,1.164,-0.204,2.0
18.699,1.0,-0.282,0.0
16.96,0.902,-0.349,0.0
15.633,0.827,-0.408,0.0
27.361,1.433,0.042,1.0
24.624,1.282,-0.097,0.0
21.668,1.121,-0.205,2.0
18.694,0.962,-0.282,0.0
16.918,0.865,-0.348,0.0
15.643,0.795,-0.408,0.0
27.381,1.379,0.042,1.0
24.491,1.226,-0.096,0.0
21.663,1.077,-0.205,2.0
18.698,0.924,-0.281,0.0
16.955,0.833,-0.349,0.0
15.706,0.767,-0.41,0.0
27.422,1.325,0.044,0.0
24.628,1.182,-0.096,0.0
21.684,1.034,-0.203,1.0
18.831,0.892,-0.282,0.0
16.952,0.798,-0.347,0.0
15.641,0.731,-0.407,0.0
27.44,1.27,0.046,1.0
24.619,1.132,-0.093,0.0
21.733,0.992,-0.202,1.0
18.753,0.85,-0.279,0.0
16.975,0.764,-0.346,0.0
15.671,0.701,-0.406,0.0
27.456,1.215,0.049,0.0
24.664,1.083,-0.09,0.0
21.669,0.945,-0.199,1.0
18.715,0.81,-0.276,0.0
17.05,0.733,-0.345,0.0
15.687,0.669,-0.404,0.0
27.609,1.165,0.054,1.0
24.584,1.03,-0.086,1.0
21.803,0.906,-0.196,1.0
19.074,0.787,-0.278,0.0
17.074,0.699,-0.342,0.0
15.754,0.64,-0.402,0.0
27.766,1.115,0.059,0.0
24.617,0.98,-0.081,1.0
21.961,0.868,-0.193,1.0
19.164,0.751,-0.275,0.0
17.116,0.665,-0.339,0.0
15.753,0.607,-0.399,0.0
28.001,1.066,0.066,1.0
25.079,0.947,-0.077,1.0
22.086,0.827,-0.189,0.0
19.437,0.722,-0.274,0.0
17.16,0.632,-0.336,0.0
15.829,0.578,-0.396,0.0
28.189,1.016,0.074,1.0
24.968,0.892,-0.07,0.0
22.259,0.788,-0.184,0.0
19.369,0.679,-0.268,0.0
17.285,0.6,-0.333,0.0
15.875,0.546,-0.393,0.0
28.515,0.968,0.084,1.0
25.23,0.849,-0.062,0.0
22.428,0.747,-0.178,0.0
19.541,0.645,-0.263,0.0
17.368,0.568,-0.329,0.0
15.975,0.517,-0.39,0.0
28.813,0.92,0.095,3.0
25.463,0.804,-0.054,0.0
22.783,0.712,-0.172,0.0
19.822,0.613,-0.26,0.0
17.498,0.536,-0.325,0.0
16.028,0.486,-0.385,0.0
28.88,0.863,0.106,4.0
25.661,0.758,-0.044,0.0
22.97,0.671,-0.165,0.0
19.942,0.577,-0.253,0.0
17.627,0.504,-0.32,0.0
16.139,0.456,-0.381,0.0
28.905,0.805,0.119,5.0
26.021,0.716,-0.034,0.0
23.267,0.632,-0.157,1.0
20.027,0.537,-0.246,0.0
17.835,0.473,-0.316,0.0
16.341,0.428,-0.378,0.0
28.925,0.745,0.132,5.0
26.26,0.668,-0.022,0.0
23.372,0.587,-0.146,0.0
20.301,0.503,-0.239,0.0
18.036,0.441,-0.31,0.0
16.444,0.396,-0.372,0.0
28.888,0.685,0.146,1.0
26.548,0.621,-0.008,0.0
23.564,0.543,-0.135,0.0
20.614,0.468,-0.232,0.0
18.139,0.406,-0.302,0.0
16.538,0.365,-0.365,0.0
29.064,0.629,0.163,0.0
26.817,0.572,0.005,0.0
23.827,0.5,-0.124,0.0
21.18,0.437,-0.226,0.0
18.286,0.372,-0.294,0.0
16.66,0.333,-0.358,0.0
29.103,0.57,0.18,0.0
27.028,0.521,0.021,0.0
24.302,0.46,-0.112,0.0
21.69,0.404,-0.219,0.0
18.447,0.337,-0.286,0.0
16.825,0.302,-0.352,0.0
30.975,0.545,0.21,0.0
27.551,0.476,0.038,0.0
24.618,0.417,-0.098,0.0
21.884,0.363,-0.207,0.0
18.511,0.301,-0.275,0.0
16.96,0.27,-0.344,0.0
31.456,0.489,0.234,0.0
28.088,0.428,0.057,0.0
25.029,0.373,-0.083,0.0
22.115,0.322,-0.195,0.0
19.043,0.271,-0.27,0.0
17.111,0.237,-0.335,0.0
31.942,0.432,0.26,0.0
28.738,0.379,0.079,3.0
25.387,0.326,-0.066,0.0
22.232,0.279,-0.18,0.0
19.673,0.24,-0.265,0.0
17.378,0.206,-0.328,0.0
32.787,0.377,0.29,0.0
28.818,0.323,0.1,5.0
25.935,0.282,-0.049,0.0
22.783,0.24,-0.167,0.0
19.925,0.203,-0.254,0.0
17.638,0.174,-0.319,0.0
33.335,0.317,0.32,0.0
28.857,0.265,0.122,5.0
26.22,0.232,-0.029,0.0
23.227,0.198,-0.153,0.0
20.459,0.168,-0.244,0.0
17.9,0.141,-0.31,0.0
0.0,0.0,0.0,0.0
28.819,0.207,0.145,0.0
26.699,0.183,-0.008,0.0
23.47,0.153,-0.135,0.0
20.808,0.129,-0.231,1.0
18.256,0.107,-0.301,0.0
35.731,0.197,0.402,0.0
29.914,0.155,0.176,0.0
27.094,0.132,0.014,0.0
24.085,0.109,-0.118,0.0
21.284,0.09,-0.218,4.0
18.471,0.072,-0.288,0.0
36.516,0.13,0.442,0.0
0.0,0.0,0.0,0.0
27.386,0.08,0.038,1.0
24.559,0.063,-0.098,0.0
21.642,0.049,-0.202,2.0
18.802,0.036,-0.276,0.0
36.845,0.059,0.48,0.0
31.748,0.041,0.243,0.0
28.377,0.027,0.066,1.0
25.227,0.015,-0.078,0.0
22.199,0.006,-0.187,0.0
19.121,0.0,-0.263,0.0
0.0,0.0,0.0,0.0
33.17,-0.021,0.286,0.0
28.758,-0.028,0.094,6.0
25.667,-0.033,-0.055,0.0
23.061,-0.037,-0.172,0.0
19.947,-0.038,-0.255,0.0
39.695,-0.089,0.593,0.0
33.194,-0.085,0.318,1.0
28.81,-0.083,0.123,6.0
26.321,-0.084,-0.03,0.0
23.479,-0.083,-0.152,0.0
20.483,-0.078,-0.241,0.0
0.0,0.0,0.0,0.0
34.706,-0.154,0.368,0.0
28.858,-0.137,0.152,2.0
26.852,-0.136,-0.003,0.0
24.094,-0.13,-0.131,0.0
21.245,-0.121,-0.229,0.0
0.0,0.0,0.0,0.0
225.639,-1.431,2.629,87.0
31.244,-0.207,0.197,1.0
27.48,-0.191,0.025,0.0
24.371,-0.177,-0.107,0.0
21.978,-0.167,-0.213,0.0
44.763,-0.353,0.807,0.0
0.0,0.0,0.0,0.0
31.87,-0.271,0.236,1.0
28.383,-0.25,0.056,2.0
25.108,-0.229,-0.083,0.0
22.486,-0.212,-0.193,0.0
0.0,0.0,0.0,0.0
0.0,0.0,0.0,0.0
32.507,-0.336,0.277,2.0
28.633,-0.305,0.089,1.0
25.761,-0.282,-0.056,0.0
23.025,-0.259,-0.172,1.0
0.0,0.0,0.0,0.0
0.0,0.0,0.0,0.0
33.631,-0.409,0.325,1.0
28.701,-0.358,0.122,0.0
26.34,-0.337,-0.026,0.0
23.338,-0.305,-0.147,1.0
0.0,0.0,0.0,0.0
0.0,0.0,0.0,0.0
34.095,-0.476,0.369,0.0
28.667,-0.409,0.156,0.0
27.126,-0.395,0.004,0.0
23.902,-0.355,-0.122,0.0
0.0,0.0,0.0,0.0
0.0,0.0,0.0,0.0
0.0,0.0,0.0,0.0
31.076,-0.498,0.207,0.0
27.834,-0.455,0.038,0.0
24.971,-0.415,-0.097,0.0
0.0,0.0,0.0,0.0
0.0,0.0,0.0,0.0
37.966,-0.664,0.504,0.0
32.403,-0.576,0.255,1.0
28.612,-0.517,0.074,4.0
25.442,-0.467,-0.068,0.0
0.0,0.0,0.0,0.0
48.87,-0.923,0.968,0.0
0.0,0.0,0.0,0.0
33.191,-0.646,0.303,2.0
28.725,-0.567,0.111,5.0
26.12,-0.523,-0.036,0.0
0.0,0.0,0.0,0.0
0.0,0.0,0.0,0.0
0.0,0.0,0.0,0.0
34.204,-0.723,0.356,1.0
28.788,-0.617,0.148,1.0
27.136,-0.59,-0.002,0.0
0.0,0.0,0.0,0.0
0.0,0.0,0.0,0.0
42.883,-0.966,0.734,0.0
0.0,0.0,0.0,0.0
31.11,-0.718,0.201,0.0
27.969,-0.654,0.034,1.0
0.0,0.0,0.0,0.0
0.0,0.0,0.0,0.0
0.0,0.0,0.0,0.0
37.475,-0.917,0.491,0.0
32.83,-0.812,0.257,0.0
28.615,-0.715,0.073,7.0
94.46,-2.385,2.867,1.0
0.0,0.0,0.0,0.0
0.0,0.0,0.0,0.0
0.0,0.0,0.0,0.0
33.271,-0.875,0.305,0.0
28.684,-0.762,0.112,4.0
93.073,-2.496,2.952,1.0
0.0,0.0,0.0,0.0
0.0,0.0,0.0,0.0
41.033,-1.133,0.65,0.0
34.323,-0.957,0.363,0.0
28.723,-0.808,0.153,0.0
92.277,-2.618,3.056,15.0
0.0,0.0,0.0,0.0
0.0,0.0,0.0,0.0
0.0,0.0,0.0,0.0
36.177,-1.064,0.434,0.0
31.221,-0.926,0.21,0.0
92.232,-2.758,3.185,38.0
0.0,0.0,0.0,0.0
0.0,0.0,0.0,0.0
0.0,0.0,0.0,0.0
37.696,-1.166,0.507,0.0
32.399,-1.01,0.265,0.0
92.235,-2.896,3.318,150.0
93.031,-2.944,2.859,2.0
0.0,0.0,0.0,0.0
0.0,0.0,0.0,0.0
0.0,0.0,0.0,0.0
33.728,-1.101,0.326,0.0
92.254,-3.032,3.455,160.0
92.751,-3.071,2.988,7.0
0.0,0.0,0.0,0.0
0.0,0.0,0.0,0.0
0.0,0.0,0.0,0.0
35.407,-1.207,0.395,0.0
92.248,-3.165,3.593,151.0
92.167,-3.184,3.107,24.0
0.0,0.0,0.0,0.0
0.0,0.0,0.0,0.0
0.0,0.0,0.0,0.0
0.0,0.0,0.0,0.0
92.202,-3.294,3.732,30.0
92.143,-3.312,3.246,65.0
61.727,-2.233,1.852,1.0
0.0,0.0,0.0,0.0
0.0,0.0,0.0,0.0
39.091,-1.442,0.555,0.0
92.341,-3.425,3.88,1.0
104.26,-3.891,3.834,110.0
92.89,-3.486,2.929,1.0
0.0,0.0,0.0,0.0
0.0,0.0,0.0,0.0
40.866,-1.561,0.644,0.0
0.0,0.0,0.0,0.0
92.162,-3.561,3.532,46.0
92.166,-3.581,3.05,11.0
0.0,0.0,0.0,0.0
0.0,0.0,0.0,0.0
0.0,0.0,0.0,0.0
0.0,0.0,0.0,0.0
92.244,-3.682,3.678,14.0
92.178,-3.698,3.193,153.0
93.406,-3.768,2.738,1.0
0.0,0.0,0.0,0.0
0.0,0.0,0.0,0.0
120.256,-4.927,5.616,7.0
92.467,-3.807,3.834,9.0
92.182,-3.815,3.341,173.0
109.876,-4.569,3.396,1.0
0.0,0.0,0.0,0.0
0.0,0.0,0.0,0.0
120.212,-5.071,5.804,37.0
93.163,-3.948,4.01,2.0
92.23,-3.926,3.487,19.0
92.402,-3.952,3.003,3.0
0.0,0.0,0.0,0.0
0.0,0.0,0.0,0.0
120.288,-5.216,6.0,8.0
0.0,0.0,0.0,0.0
92.727,-4.057,3.657,2.0
92.474,-4.063,3.154,5.0
0.0,0.0,0.0,0.0
0.0,0.0,0.0,0.0
164.391,-7.319,8.468,11.0
164.486,-7.353,7.612,4.0
0.0,0.0,0.0,0.0
93.305,-4.206,3.335,4.0
0.0,0.0,0.0,0.0
0.0,0.0,0.0,0.0
111.923,-5.107,5.948,19.0
164.328,-7.528,7.875,37.0
0.0,0.0,0.0,0.0
94.257,-4.351,3.523,4.0
95.129,-4.409,3.06,1.0
0.0,0.0,0.0,0.0
111.975,-5.231,6.135,10.0
0.0,0.0,0.0,0.0
0.0,0.0,0.0,0.0
0.0,0.0,0.0,0.0
95.444,-4.523,3.228,2.0
0.0,0.0,0.0,0.0
97.936,-4.677,5.53,6.0
189.54,-9.082,9.711,7.0
0.0,0.0,0.0,0.0
0.0,0.0,0.0,0.0
109.473,-5.298,3.883,2.0
0.0,0.0,0.0,0.0
90.987,-4.435,5.288,13.0
112.615,-5.506,5.956,11.0
194.415,-9.534,9.265,9.0
0.0,0.0,0.0,0.0
109.386,-5.399,4.061,2.0
0.0,0.0,0.0,0.0
91.962,-4.57,5.497,9.0
164.15,-8.182,8.954,6.0
189.317,-9.462,9.339,15.0
0.0,0.0,0.0,0.0
0.0,0.0,0.0,0.0
109.415,-5.518,3.676,151.0
111.694,-5.653,6.864,14.0
123.033,-6.244,6.919,5.0
189.427,-9.641,9.665,21.0
0.0,0.0,0.0,0.0
0.0,0.0,0.0,0.0
109.382,-5.612,3.86,153.0
108.644,-5.596,6.863,12.0
112.138,-5.79,6.497,16.0
188.895,-9.777,9.958,15.0
189.237,-9.819,8.969,4.0
0.0,0.0,0.0,0.0
109.349,-5.702,4.042,89.0
92.478,-4.84,5.997,20.0
112.101,-5.881,6.684,14.0
118.978,-6.255,6.473,12.0
189.175,-9.97,9.285,16.0
0.0,0.0,0.0,0.0
109.293,-5.787,4.226,3.0
89.945,-4.781,5.987,14.0
92.365,-4.919,5.665,12.0
119.271,-6.365,6.694,18.0
119.151,-6.373,6.052,7.0
188.873,-10.122,8.608,5.0
0.0,0.0,0.0,0.0
0.0,0.0,0.0,0.0
92.479,-4.994,5.829,16.0
119.53,-6.467,6.911,7.0
119.777,-6.494,6.288,9.0
188.899,-10.262,8.931,5.0
0.0,0.0,0.0,0.0
88.173,-4.816,6.17,23.0
89.97,-4.923,5.825,15.0
92.424,-5.065,5.5,8.0
119.51,-6.561,6.477,16.0
188.914,-10.391,9.252,19.0
0.0,0.0,0.0,0.0
88.283,-4.881,6.328,12.0
90.54,-5.014,6.016,11.0
92.467,-5.129,5.661,11.0
119.411,-6.635,6.674,11.0
189.066,-10.52,9.582,17.0
0.0,0.0,0.0,0.0
88.497,-4.95,6.495,5.0
88.072,-4.932,6.003,23.0
92.533,-5.19,5.822,23.0
122.616,-6.887,7.061,10.0
119.622,-6.727,6.265,2.0
188.663,-10.626,8.898,18.0
94.294,-5.33,7.081,7.0
88.231,-4.994,6.164,14.0
92.021,-5.214,5.947,13.0
111.871,-6.347,6.634,7.0
122.682,-6.969,6.634,7.0
188.73,-10.733,9.22,22.0
89.021,-5.081,6.837,16.0
88.301,-5.045,6.318,14.0
0.0,0.0,0.0,0.0
92.28,-5.283,5.628,16.0
122.571,-7.026,6.835,5.0
188.478,-10.816,9.525,17.0
89.057,-5.128,6.991,22.0
112.573,-6.488,8.246,12.0
87.934,-5.073,5.98,14.0
92.194,-5.323,5.777,28.0
121.013,-6.994,6.95,7.0
122.774,-7.103,6.411,11.0
89.078,-5.17,7.142,15.0
89.337,-5.19,6.694,16.0
91.944,-5.344,6.407,6.0
91.663,-5.332,5.898,13.0
92.311,-5.374,5.457,9.0
120.768,-7.037,6.508,11.0
89.096,-5.209,7.295,21.0
89.147,-5.215,6.83,26.0
88.209,-5.164,6.295,13.0
0.0,0.0,0.0,0.0
92.34,-5.412,5.613,14.0
120.726,-7.081,6.707,11.0
92.632,-5.451,7.739,11.0
88.641,-5.219,6.939,18.0
112.575,-6.631,8.222,8.0
87.867,-5.178,5.947,13.0
92.288,-5.441,5.763,19.0
120.69,-7.12,6.904,13.0
92.694,-5.486,7.899,13.0
88.835,-5.26,7.103,16.0
89.102,-5.277,6.656,13.0
88.165,-5.224,6.114,4.0
91.688,-5.434,5.878,16.0
92.293,-5.472,5.433,7.0
92.938,-5.53,8.074,13.0
88.838,-5.286,7.251,25.0
88.835,-5.287,6.782,25.0
92.065,-5.48,6.536,14.0
91.574,-5.451,6.021,6.0
92.444,-5.504,5.594,9.0
88.99,-5.317,7.879,12.0
88.908,-5.313,7.403,8.0
88.552,-5.291,6.906,23.0
92.053,-5.5,6.686,6.0
89.601,-5.354,6.037,11.0
92.442,-5.524,5.743,15.0
88.978,-5.336,8.024,29.0
113.459,-6.802,9.632,8.0
88.637,-5.314,7.057,25.0
88.905,-5.329,6.602,12.0
89.685,-5.376,6.188,5.0
91.823,-5.503,5.854,14.0
89.0,-5.353,8.171,24.0
113.548,-6.828,9.825,5.0
88.779,-5.336,7.213,31.0
88.881,-5.341,6.743,28.0
91.997,-5.528,6.496,16.0
91.53,-5.499,5.983,9.0
88.479,-5.333,8.266,15.0
89.192,-5.374,7.861,10.0
113.121,-6.814,9.372,10.0
88.63,-5.336,6.867,25.0
92.082,-5.542,6.649,9.0
89.611,-5.392,5.999,9.0
87.763,-5.298,8.34,26.0
88.959,-5.368,7.982,26.0
113.459,-6.843,9.581,12.0
88.589,-5.339,7.003,30.0
88.963,-5.359,6.564,12.0
89.6,-5.395,6.14,6.0
87.954,-5.315,8.498,29.0
89.014,-5.375,8.128,28.0
89.907,-5.425,7.734,6.0
88.711,-5.349,7.152,32.0
88.922,-5.359,6.701,26.0
91.957,-5.538,6.445,16.0
87.717,-5.302,8.613,20.0
88.85,-5.365,8.253,19.0
89.695,-5.412,7.856,11.0
88.785,-5.353,7.298,16.0
88.704,-5.344,6.823,23.0
92.051,-5.541,6.594,14.0
87.557,-5.289,8.735,29.0
87.769,-5.297,8.289,19.0
88.956,-5.363,7.929,20.0
113.216,-6.82,9.479,13.0
88.557,-5.33,6.946,26.0
88.814,-5.341,6.496,4.0
87.663,-5.29,8.878,15.0
87.875,-5.297,8.433,34.0
88.991,-5.358,8.066,28.0
113.524,-6.828,9.676,11.0
88.716,-5.331,7.093,29.0
88.937,-5.338,6.64,17.0
87.572,-5.275,9.002,16.0
87.901,-5.288,8.568,25.0
88.92,-5.342,8.194,17.0
93.101,-5.588,8.075,7.0
88.807,-5.323,7.231,26.0
88.851,-5.321,6.763,27.0
87.376,-5.25,9.111,20.0
87.695,-5.262,8.677,18.0
87.912,-5.268,8.23,20.0
88.924,-5.322,7.844,9.0
88.906,-5.313,7.369,8.0
88.575,-5.287,6.873,24.0
87.314,-5.23,9.234,12.0
87.635,-5.241,8.8,18.0
87.855,-5.247,8.353,35.0
88.929,-5.304,7.972,27.0
92.61,-5.516,7.81,7.0
88.665,-5.273,7.007,17.0
91.602,-5.467,9.82,23.0
87.593,-5.219,8.921,17.0
87.955,-5.232,8.489,31.0
88.971,-5.284,8.104,30.0
92.843,-5.506,7.962,11.0
88.991,-5.27,7.158,20.0
91.604,-5.443,9.951,19.0
87.548,-5.193,9.042,22.0
88.028,-5.211,8.621,16.0
88.744,-5.246,8.208,21.0
93.031,-5.491,8.108,12.0
89.035,-5.245,7.286,19.0
93.663,-5.537,10.307,9.0
87.71,-5.175,9.181,12.0
87.824,-5.172,8.722,14.0
88.16,-5.183,8.276,19.0
89.148,-5.232,7.893,10.0
89.039,-5.217,7.408,16.0
91.368,-5.37,10.181,17.0
87.683,-5.144,9.299,11.0
87.569,-5.127,8.817,18.0
88.004,-5.142,8.381,29.0
88.831,-5.18,7.986,18.0
89.153,-5.19,7.538,22.0
91.214,-5.327,10.289,20.0
91.717,-5.345,9.851,10.0
87.279,-5.075,8.906,26.0
87.83,-5.098,8.482,20.0
88.522,-5.126,8.075,28.0
89.258,-5.159,7.664,22.0
82.378,-4.777,9.401,12.0
91.66,-5.303,9.967,18.0
87.327,-5.042,9.026,26.0
87.621,-5.047,8.576,23.0
88.524,-5.088,8.19,25.0
93.112,-5.341,8.116,12.0
82.368,-4.739,9.508,24.0
91.621,-5.26,10.081,11.0
87.678,-5.022,9.174,18.0
87.598,-5.005,8.686,25.0
88.659,-5.054,8.315,14.0
93.623,-5.325,8.279,12.0
82.377,-4.701,9.613,11.0
91.688,-5.218,10.205,4.0
91.811,-5.212,9.723,13.0
87.492,-4.956,8.785,26.0
86.905,-4.911,8.259,18.0
93.429,-5.266,8.377,12.0
89.828,-5.079,10.595,6.0
82.568,-4.656,9.291,10.0
91.711,-5.159,9.824,14.0
87.448,-4.907,8.886,21.0
87.012,-4.869,8.373,27.0
93.397,-5.214,8.485,5.0
86.581,-4.848,10.316,23.0
82.462,-4.605,9.377,13.0
91.766,-5.11,9.939,7.0
92.822,-5.155,9.542,11.0
87.753,-4.861,8.547,23.0
87.662,-4.843,8.066,13.0
86.633,-4.801,10.424,20.0
82.499,-4.558,9.478,19.0
92.987,-5.123,10.179,14.0
92.784,-5.098,9.645,27.0
88.372,-4.842,8.709,22.0
87.427,-4.777,8.145,29.0
86.902,-4.762,10.557,11.0
86.609,-4.731,10.05,12.0
92.672,-5.048,10.25,18.0
92.799,-5.04,9.751,11.0
84.268,-4.563,8.398,12.0
87.1,-4.703,8.21,20.0
87.152,-4.719,10.685,25.0
86.727,-4.681,10.16,28.0
90.087,-4.848,10.062,9.0
82.349,-4.418,8.742,22.0
84.132,-4.499,8.476,13.0
87.095,-4.644,8.303,10.0
87.07,-4.656,10.768,32.0
86.918,-4.632,10.275,29.0
82.637,-4.39,9.317,17.0
82.351,-4.361,8.829,21.0
83.84,-4.426,8.533,9.0
84.951,-4.47,8.186,22.0
86.799,-4.58,10.825,19.0
86.975,-4.574,10.371,23.0
82.675,-4.333,9.407,11.0
82.605,-4.314,8.941,21.0
88.945,-4.631,9.143,17.0
84.9,-4.405,8.266,20.0
86.914,-4.522,10.927,29.0
87.193,-4.52,10.484,28.0
85.675,-4.427,9.833,9.0
82.51,-4.248,9.01,15.0
0.0,0.0,0.0,0.0
84.468,-4.319,8.305,25.0
87.265,-4.473,11.056,25.0
87.188,-4.453,10.568,31.0
82.094,-4.178,9.501,14.0
82.672,-4.192,9.107,24.0
0.0,0.0,0.0,0.0
84.315,-4.245,8.368,30.0
87.138,-4.398,11.121,25.0
87.054,-4.377,10.631,32.0
82.18,-4.117,9.585,21.0
82.198,-4.103,9.128,23.0
90.6,-4.506,9.566,10.0
84.157,-4.17,8.426,18.0
86.645,-4.303,11.135,23.0
86.873,-4.298,10.685,24.0
82.156,-4.048,9.654,10.0
81.369,-3.994,9.106,12.0
83.668,-4.091,8.906,15.0
79.483,-3.872,8.026,10.0
86.48,-4.221,11.188,27.0
86.893,-4.224,10.762,15.0
85.968,-4.163,10.174,12.0
81.533,-3.932,9.192,21.0
82.85,-3.98,8.886,22.0
79.538,-3.805,8.096,18.0
86.409,-4.142,11.25,21.0
80.894,-3.862,10.085,23.0
82.291,-3.912,9.805,15.0
81.656,-3.866,9.271,26.0
82.404,-3.885,8.904,23.0
79.536,-3.734,8.158,9.0
86.313,-4.06,11.305,28.0
80.813,-3.785,10.137,26.0
82.172,-3.832,9.853,13.0
81.674,-3.793,9.334,28.0
82.335,-3.808,8.957,31.0
79.668,-3.668,8.229,10.0
86.131,-3.972,11.345,30.0
80.961,-3.717,10.214,14.0
81.376,-3.72,9.816,13.0
81.83,-3.724,9.41,26.0
82.282,-3.729,9.009,36.0
83.238,-3.755,8.656,8.0
86.259,-3.897,11.421,26.0
81.887,-3.683,10.387,17.0
81.128,-3.631,9.842,31.0
81.678,-3.639,9.448,21.0
82.45,-3.657,9.082,23.0
83.782,-3.698,8.767,11.0
86.383,-3.818,11.495,26.0
82.671,-3.637,10.541,15.0
81.172,-3.553,9.899,24.0
80.954,-3.528,9.415,27.0
82.115,-3.562,9.096,9.0
79.813,-3.446,8.4,8.0
86.598,-3.743,11.576,15.0
81.894,-3.522,10.491,15.0
85.999,-3.682,10.538,10.0
80.908,-3.447,9.457,29.0
0.0,0.0,0.0,0.0
79.932,-3.372,8.458,9.0
80.578,-3.402,10.818,7.0
81.218,-3.412,10.45,26.0
81.767,-3.417,10.065,11.0
81.108,-3.373,9.524,14.0
64.446,-2.667,7.21,16.0
80.098,-3.299,8.517,16.0
80.557,-3.32,10.857,28.0
81.199,-3.329,10.489,29.0
81.794,-3.335,10.11,17.0
77.452,-3.142,9.133,16.0
64.48,-2.602,7.245,23.0
79.616,-3.196,8.505,21.0
80.498,-3.233,10.888,22.0
81.305,-3.247,10.542,26.0
81.822,-3.25,10.151,14.0
77.589,-3.066,9.185,28.0
64.553,-2.537,7.282,23.0
79.475,-3.107,8.525,29.0
80.123,-3.134,10.872,9.0
81.339,-3.163,10.581,26.0
81.965,-3.17,10.203,7.0
77.675,-2.988,9.227,21.0
64.644,-2.473,7.319,20.0
79.438,-3.022,8.552,24.0
76.064,-2.894,10.352,20.0
81.317,-3.076,10.609,20.0
76.803,-2.887,9.59,11.0
77.71,-2.905,9.26,24.0
78.991,-2.936,8.972,17.0
79.587,-2.942,8.596,15.0
76.111,-2.813,10.385,30.0
0.0,0.0,0.0,0.0
76.74,-2.802,9.607,15.0
77.542,-2.815,9.265,29.0
78.967,-2.85,8.993,13.0
64.165,-2.302,6.95,24.0
76.207,-2.733,10.421,25.0
80.087,-2.855,10.5,15.0
76.98,-2.726,9.659,18.0
77.099,-2.715,9.233,36.0
78.994,-2.764,9.018,19.0
64.066,-2.228,6.956,38.0
76.286,-2.651,10.452,21.0
80.324,-2.773,10.551,20.0
77.109,-2.645,9.694,20.0
77.141,-2.629,9.257,30.0
78.215,-2.649,8.947,25.0
63.966,-2.153,6.959,29.0
76.303,-2.565,10.47,21.0
75.614,-2.525,9.948,11.0
77.016,-2.555,9.698,16.0
77.249,-2.547,9.284,35.0
77.904,-2.551,8.925,29.0
64.001,-2.083,6.974,26.0
76.446,-2.483,10.503,12.0
75.71,-2.443,9.973,24.0
77.104,-2.471,9.721,15.0
77.483,-2.466,9.324,23.0
77.597,-2.454,8.9,21.0
64.128,-2.014,6.996,29.0
76.312,-2.392,10.494,26.0
75.955,-2.364,10.014,25.0
77.031,-2.38,9.72,30.0
77.309,-2.372,9.31,23.0
64.809,-1.975,7.439,18.0
64.168,-1.942,7.005,23.0
76.27,-2.303,10.494,23.0
76.874,-2.304,10.14,23.0
76.343,-2.271,9.637,24.0
74.086,-2.188,8.926,16.0
64.821,-1.901,7.444,24.0
64.247,-1.871,7.016,30.0
76.136,-2.21,10.478,20.0
76.851,-2.214,10.139,25.0
76.346,-2.183,9.639,26.0
74.081,-2.102,8.926,32.0
64.999,-1.831,7.464,14.0
64.483,-1.803,7.041,25.0
75.908,-2.115,10.445,18.0
76.253,-2.108,10.058,29.0
74.461,-2.043,9.398,9.0
74.16,-2.019,8.932,28.0
74.079,-2.001,8.503,10.0
64.419,-1.726,7.031,28.0
75.715,-2.021,10.413,29.0
76.216,-2.017,10.048,12.0
74.401,-1.954,9.385,25.0
74.304,-1.936,8.943,15.0
74.065,-1.914,8.494,25.0
64.507,-1.653,7.034,28.0
75.777,-1.933,10.414,28.0
74.27,-1.879,9.782,16.0
74.366,-1.865,9.371,28.0
74.363,-1.85,8.94,23.0
74.126,-1.828,8.491,33.0
64.57,-1.579,7.031,24.0
75.71,-1.841,10.392,27.0
74.372,-1.793,9.783,18.0
74.101,-1.771,9.325,20.0
74.14,-1.756,8.9,22.0
74.247,-1.744,8.491,23.0
64.289,-1.496,6.988,16.0
73.488,-1.7,10.072,14.0
64.798,-1.486,8.51,25.0
63.812,-1.45,8.016,23.0
74.068,-1.668,8.874,31.0
64.852,-1.446,7.401,16.0
64.528,-1.426,6.998,38.0
73.53,-1.614,10.059,36.0
63.803,-1.387,8.362,24.0
74.391,-1.602,9.325,12.0
74.075,-1.58,8.855,30.0
64.819,-1.37,7.379,25.0
64.385,-1.347,6.964,39.0
73.276,-1.522,10.003,24.0
63.83,-1.313,8.346,32.0
74.393,-1.515,9.302,15.0
74.401,-1.5,8.87,13.0
64.983,-1.297,7.376,16.0
58.753,-1.161,6.335,9.0
73.196,-1.434,9.966,11.0
63.993,-1.24,8.345,37.0
74.484,-1.429,9.286,33.0
74.558,-1.416,8.861,26.0
64.968,-1.221,7.351,33.0
64.845,-1.206,6.967,31.0
64.167,-1.181,8.711,25.0
64.259,-1.17,8.354,27.0
74.561,-1.343,9.266,19.0
74.182,-1.321,8.786,18.0
64.91,-1.143,7.317,32.0
64.821,-1.129,6.937,40.0
64.249,-1.107,8.694,26.0
64.082,-1.092,8.303,28.0
58.569,-0.986,7.251,26.0
59.668,-0.993,7.04,14.0
64.981,-1.069,7.294,39.0
64.879,-1.056,6.913,25.0
64.27,-1.033,8.666,12.0
63.984,-1.016,8.259,34.0
58.48,-0.917,7.212,32.0
59.7,-0.925,7.013,26.0
65.42,-1.0,7.31,24.0
58.824,-0.889,6.237,12.0
57.514,-0.857,7.725,24.0
64.092,-0.943,8.238,28.0
58.19,-0.846,7.144,32.0
59.68,-0.856,6.978,20.0
57.179,-0.809,6.358,24.0
64.634,-0.904,6.817,30.0
57.604,-0.793,7.703,25.0
64.07,-0.87,8.198,28.0
58.041,-0.777,7.092,30.0
59.796,-0.789,6.956,17.0
57.271,-0.746,6.333,22.0
64.321,-0.826,6.745,22.0
57.731,-0.729,7.685,29.0
58.644,-0.729,7.467,14.0
58.056,-0.711,7.057,32.0
63.235,-0.764,7.316,13.0
57.322,-0.682,6.303,27.0
64.226,-0.752,6.694,17.0
57.807,-0.664,7.656,27.0
58.441,-0.661,7.402,32.0
58.105,-0.647,7.024,32.0
63.21,-0.692,7.27,26.0
57.247,-0.617,6.255,28.0
64.312,-0.681,6.658,8.0
57.955,-0.6,7.635,31.0
57.588,-0.586,7.252,23.0
0.0,0.0,0.0,0.0
63.664,-0.626,7.276,39.0
57.337,-0.555,6.223,30.0
64.34,-0.611,6.614,13.0
58.096,-0.537,7.609,30.0
57.506,-0.521,7.198,30.0
59.793,-0.532,7.139,28.0
59.803,-0.522,6.789,18.0
57.385,-0.492,6.184,30.0
64.331,-0.541,6.562,8.0
58.216,-0.474,7.579,26.0
57.608,-0.46,7.165,29.0
59.826,-0.467,7.094,23.0
59.835,-0.457,6.744,16.0
57.356,-0.429,6.134,30.0
59.058,-0.432,5.976,33.0
58.293,-0.411,7.54,19.0
57.674,-0.398,7.125,29.0
59.786,-0.403,7.039,29.0
56.843,-0.373,6.358,24.0
57.361,-0.368,6.085,30.0
58.699,-0.367,5.889,29.0
56.548,-0.338,7.264,22.0
57.988,-0.338,7.112,32.0
59.653,-0.338,6.97,34.0
56.89,-0.313,6.311,28.0
57.458,-0.307,6.042,30.0
58.671,-0.304,5.832,26.0
56.602,-0.278,7.218,24.0
58.501,-0.278,7.119,23.0
59.542,-0.274,6.9,22.0
56.926,-0.253,6.262,26.0
57.45,-0.247,5.987,30.0
58.754,-0.244,5.785,32.0
56.771,-0.22,7.184,20.0
58.388,-0.217,7.049,30.0
59.525,-0.213,6.84,8.0
56.95,-0.195,6.209,24.0
57.346,-0.188,5.92,30.0
58.869,-0.184,5.737,30.0
56.894,-0.162,7.142,18.0
58.224,-0.156,6.969,31.0
57.018,-0.145,6.493,18.0
64.731,-0.155,6.99,10.0
56.655,-0.128,5.79,27.0
58.988,-0.124,5.688,14.0
56.715,-0.103,7.059,14.0
58.871,-0.099,6.984,34.0
56.999,-0.088,6.43,28.0
65.622,-0.092,7.015,10.0
56.957,-0.071,5.759,17.0
57.169,-0.063,5.45,26.0
57.164,-0.047,7.051,27.0
59.325,-0.041,6.972,33.0
57.102,-0.031,6.378,29.0
0.0,0.0,0.0,0.0
56.792,-0.016,5.679,20.0
57.216,-0.008,5.39,25.0
57.231,0.008,6.994,32.0
59.549,0.016,6.93,34.0
57.201,0.023,6.323,28.0
56.658,0.03,5.928,25.0
56.935,0.038,5.627,22.0
57.356,0.045,5.337,31.0
57.148,0.062,6.917,20.0
59.744,0.073,6.882,7.0
57.167,0.076,6.252,26.0
56.737,0.083,5.869,28.0
57.195,0.091,5.585,24.0
57.919,0.099,5.32,31.0
59.586,0.119,7.14,6.0
66.104,0.141,7.534,14.0
59.047,0.134,6.386,6.0
56.547,0.134,5.781,30.0
57.318,0.143,5.527,25.0
58.021,0.151,5.259,28.0
59.621,0.173,7.069,11.0
57.257,0.173,6.455,22.0
59.017,0.185,6.309,20.0
56.769,0.184,5.733,31.0
57.453,0.194,5.468,29.0
58.683,0.204,5.245,32.0
59.984,0.227,7.036,13.0
56.64,0.221,6.313,30.0
56.702,0.227,5.988,27.0
56.849,0.234,5.667,31.0
57.674,0.244,5.414,30.0
63.222,0.274,5.568,13.0
56.227,0.261,6.52,18.0
57.067,0.271,6.284,30.0
56.613,0.275,5.904,27.0
56.486,0.28,5.556,22.0
57.806,0.293,5.349,31.0
63.076,0.327,5.471,25.0
56.22,0.307,6.443,16.0
57.133,0.318,6.214,20.0
56.742,0.322,5.84,30.0
56.773,0.328,5.506,31.0
58.014,0.341,5.29,31.0
63.139,0.377,5.391,32.0
56.25,0.353,6.369,21.0
57.002,0.362,6.121,26.0
57.069,0.369,5.794,31.0
56.705,0.372,5.421,30.0
58.461,0.389,5.249,32.0
63.398,0.428,5.325,24.0
56.228,0.396,6.287,30.0
57.003,0.406,6.04,27.0
57.31,0.414,5.737,32.0
57.053,0.417,5.373,31.0
58.667,0.434,5.184,25.0
63.651,0.477,5.254,13.0
56.347,0.439,6.218,28.0
57.065,0.449,5.963,24.0
56.607,0.451,5.584,25.0
57.849,0.466,5.363,32.0
56.932,0.463,4.947,14.0
62.808,0.516,5.092,29.0
56.866,0.484,6.19,32.0
57.122,0.491,5.883,22.0
56.617,0.492,5.5,27.0
57.96,0.508,5.286,33.0
57.049,0.504,4.871,25.0
62.709,0.56,4.989,32.0
57.232,0.527,6.142,13.0
57.755,0.536,5.859,32.0
56.512,0.529,5.402,27.0
57.305,0.541,5.138,24.0
57.055,0.543,4.783,22.0
63.019,0.605,4.917,25.0
57.256,0.566,6.055,10.0
57.854,0.575,5.779,23.0
57.297,0.574,5.388,31.0
57.212,0.577,5.04,23.0
62.785,0.638,5.165,14.0
63.47,0.65,4.851,7.0
57.235,0.602,5.96,11.0
57.113,0.605,5.613,32.0
57.52,0.613,5.316,31.0
57.175,0.613,4.945,25.0
62.788,0.677,5.063,36.0
90.626,0.984,6.781,11.0
57.61,0.641,5.906,11.0
56.581,0.633,5.468,30.0
57.339,0.645,5.206,20.0
57.101,0.646,4.845,9.0
62.891,0.716,4.969,19.0
63.422,0.725,4.642,13.0
57.884,0.677,5.838,15.0
56.521,0.665,5.369,24.0
57.277,0.677,5.105,14.0
62.602,0.743,5.208,26.0
88.36,1.054,6.835,9.0
63.39,0.759,4.535,24.0
57.736,0.707,5.727,27.0
57.183,0.703,5.337,31.0
62.849,0.776,5.497,25.0
62.605,0.776,5.103,29.0
82.657,1.028,6.256,29.0
63.307,0.791,4.423,27.0
56.786,0.724,5.536,31.0
57.616,0.737,5.278,32.0
62.735,0.806,5.381,27.0
63.251,0.815,5.049,32.0
82.687,1.069,6.117,9.0
76.221,0.989,5.195,23.0
56.622,0.749,5.422,31.0
61.489,0.816,5.527,13.0
62.678,0.834,5.267,29.0
63.349,0.846,4.947,6.0
76.296,1.021,5.512,26.0
76.392,1.025,5.074,22.0
56.679,0.775,5.328,22.0
59.014,0.809,5.201,18.0
62.673,0.861,5.156,32.0
76.33,1.051,5.825,13.0
76.376,1.054,5.382,20.0
76.601,1.061,4.952,19.0
57.87,0.815,5.336,33.0
59.078,0.833,5.1,12.0
63.291,0.895,5.094,31.0
76.263,1.08,5.685,46.0
76.473,1.085,5.254,18.0
76.593,1.09,4.816,22.0
58.578,0.846,5.296,33.0
59.029,0.854,4.991,27.0
76.219,1.105,5.998,19.0
76.838,1.116,5.589,21.0
76.625,1.114,5.127,20.0
76.529,1.115,4.674,19.0
58.797,0.87,5.209,33.0
59.041,0.874,4.884,23.0
76.229,1.13,5.859,35.0
77.046,1.144,5.464,13.0
76.645,1.139,4.987,17.0
76.536,1.139,4.534,23.0
58.972,0.89,5.115,30.0
59.03,0.892,4.774,8.0
77.27,1.168,5.797,23.0
76.671,1.16,5.297,25.0
76.635,1.16,4.847,20.0
76.543,1.16,4.394,21.0
59.027,0.907,5.011,31.0
76.172,1.171,6.02,27.0
77.278,1.188,5.654,17.0
76.672,1.179,5.153,11.0
76.596,1.179,4.7,19.0
76.562,1.179,4.252,32.0
59.044,0.92,4.901,26.0
58.945,0.919,4.547,7.0
77.18,1.204,5.502,13.0
88.989,1.388,5.814,13.0
76.561,1.194,4.554,18.0
76.548,1.194,4.106,24.0
59.032,0.932,4.787,19.0
83.407,1.316,6.274,5.0
76.729,1.211,5.322,26.0
76.661,1.21,4.862,8.0
76.558,1.208,4.408,20.0
76.546,1.207,3.961,24.0
58.998,0.94,4.67,13.0
83.342,1.328,6.109,23.0
89.029,1.418,6.005,11.0
76.648,1.22,4.713,10.0
76.551,1.218,4.26,22.0
76.56,1.218,3.813,30.0
59.006,0.948,4.556,21.0
77.15,1.238,5.505,10.0
88.971,1.427,5.827,18.0
76.602,1.227,4.562,16.0
76.58,1.226,4.113,20.0
76.543,1.224,3.664,35.0
58.985,0.952,4.44,7.0
76.706,1.237,5.324,24.0
84.669,1.364,5.381,9.0
76.56,1.232,4.411,19.0
76.556,1.23,3.963,26.0
76.549,1.228,3.515,31.0
83.353,1.349,6.11,27.0
89.101,1.441,6.009,13.0
84.906,1.37,5.23,9.0
76.556,1.233,4.26,19.0
76.553,1.232,3.814,30.0
76.54,1.229,3.367,3.0
76.951,1.246,5.49,9.0
89.069,1.44,5.834,15.0
76.605,1.236,4.568,12.0
76.567,1.233,4.11,19.0
76.542,1.23,3.661,34.0
0.0,0.0,0.0,0.0
76.712,1.24,5.321,22.0
84.671,1.365,5.377,9.0
76.564,1.232,4.415,18.0
76.542,1.229,3.958,28.0
76.555,1.227,3.513,36.0
55.632,0.889,2.228,1.0
89.073,1.433,6.003,14.0
76.665,1.231,4.717,8.0
76.551,1.226,4.262,22.0
76.54,1.222,3.806,33.0
76.553,1.219,3.359,3.0
55.625,0.884,2.117,1.0
88.986,1.422,5.819,18.0
76.571,1.221,4.559,17.0
76.565,1.217,4.11,22.0
76.526,1.213,3.654,41.0
0.0,0.0,0.0,0.0
55.423,0.873,1.999,0.0
76.65,1.215,4.86,8.0
76.55,1.209,4.404,20.0
76.528,1.204,3.955,26.0
76.546,1.2,3.501,38.0
55.652,0.87,2.22,2.0
55.204,0.86,1.881,0.0
76.596,1.199,4.701,16.0
76.566,1.195,4.252,31.0
76.534,1.19,3.802,38.0
76.541,1.185,3.348,6.0
55.653,0.859,2.11,2.0
55.36,0.851,1.776,0.0
76.547,1.182,4.546,22.0
76.56,1.177,4.098,25.0
76.533,1.172,3.649,29.0
0.0,0.0,0.0,0.0
0.0,0.0,0.0,0.0
55.425,0.838,1.666,0.0
76.532,1.161,4.389,25.0
76.531,1.156,3.94,28.0
76.55,1.151,3.494,41.0
55.702,0.834,2.211,0.0
0.0,0.0,0.0,0.0
0.0,0.0,0.0,0.0
76.551,1.139,4.233,28.0
76.548,1.133,3.784,31.0
76.546,1.127,3.337,13.0
0.0,0.0,0.0,0.0
55.548,0.81,1.767,0.0
55.79,0.809,1.449,0.0
14.234,-1.621,-0.438,0.0
13.188,-1.504,-0.477,0.0
12.387,-1.415,-0.516,0.0
11.633,-1.332,-0.549,0.0
10.949,-1.256,-0.576,0.0
10.36,-1.19,-0.601,0.0
14.376,-1.65,-0.431,0.0
13.395,-1.54,-0.474,0.0
12.529,-1.443,-0.511,0.0
11.721,-1.353,-0.543,0.0
11.1,-1.283,-0.575,0.0
10.468,-1.213,-0.599,0.0
14.679,-1.699,-0.428,0.0
13.473,-1.562,-0.466,0.0
12.625,-1.466,-0.505,0.0
11.84,-1.377,-0.539,0.0
11.163,-1.3,-0.569,0.0
10.535,-1.229,-0.594,0.0
14.965,-1.745,-0.423,0.0
13.767,-1.608,-0.464,0.0
12.716,-1.487,-0.497,0.0
11.981,-1.404,-0.535,0.0
11.322,-1.329,-0.567,0.0
10.624,-1.249,-0.589,0.0
14.974,-1.758,-0.411,0.0
13.877,-1.632,-0.455,0.0
12.868,-1.516,-0.492,0.0
12.128,-1.431,-0.53,0.0
11.392,-1.346,-0.56,0.0
10.71,-1.267,-0.584,0.0
15.184,-1.795,-0.403,0.0
14.027,-1.661,-0.448,0.0
13.091,-1.552,-0.489,0.0
12.274,-1.457,-0.526,0.0
11.525,-1.37,-0.556,0.0
10.883,-1.296,-0.584,0.0
15.352,-1.826,-0.393,0.0
14.156,-1.686,-0.439,0.0
13.17,-1.571,-0.479,0.0
12.33,-1.473,-0.517,0.0
11.645,-1.393,-0.551,0.0
10.93,-1.309,-0.576,0.0
15.572,-1.864,-0.384,0.0
14.399,-1.725,-0.433,0.0
13.391,-1.607,-0.475,0.0
12.477,-1.499,-0.511,0.0
11.796,-1.419,-0.547,0.0
11.006,-1.326,-0.57,0.0
15.986,-1.924,-0.379,0.0
14.677,-1.768,-0.427,0.0
13.573,-1.637,-0.468,0.0
12.643,-1.527,-0.505,0.0
11.9,-1.439,-0.54,0.0
11.131,-1.348,-0.565,0.0
16.228,-1.963,-0.368,0.0
14.822,-1.795,-0.416,0.0
13.748,-1.667,-0.46,0.0
12.846,-1.559,-0.501,0.0
12.039,-1.463,-0.534,0.0
11.319,-1.377,-0.563,0.0
16.52,-2.008,-0.359,0.0
15.074,-1.834,-0.408,0.0
13.951,-1.699,-0.453,0.0
12.905,-1.573,-0.49,0.0
12.248,-1.495,-0.531,0.0
11.342,-1.386,-0.553,0.0
16.875,-2.06,-0.349,0.0
15.321,-1.872,-0.399,0.0
14.141,-1.73,-0.445,0.0
13.11,-1.605,-0.484,0.0
12.35,-1.514,-0.523,0.0
11.59,-1.422,-0.553,0.0
17.138,-2.101,-0.337,0.0
15.59,-1.913,-0.39,0.0
14.376,-1.765,-0.437,0.0
13.297,-1.634,-0.477,0.0
12.504,-1.538,-0.516,0.0
11.724,-1.444,-0.547,0.0
17.513,-2.155,-0.326,0.0
15.867,-1.954,-0.381,0.0
14.629,-1.803,-0.429,0.0
13.531,-1.669,-0.471,0.0
12.642,-1.561,-0.508,0.0
11.844,-1.463,-0.54,0.0
17.809,-2.199,-0.312,0.0
