X,Y,Z,Reflectivity
12.187,-0.406,-0.537,0.0
11.562,-0.383,-0.57,0.0
10.912,-0.36,-0.594,0.0
15.414,-0.506,-0.41,0.0
14.255,-0.466,-0.453,0.0
13.339,-0.434,-0.493,0.0
12.425,-0.402,-0.525,0.0
11.773,-0.38,-0.559,0.0
11.118,-0.357,-0.585,0.0
15.836,-0.506,-0.393,0.0
14.64,-0.465,-0.439,0.0
13.633,-0.431,-0.48,0.0
12.728,-0.401,-0.515,0.0
12.004,-0.376,-0.548,0.0
11.353,-0.354,-0.578,0.0
16.304,-0.505,-0.375,0.0
14.872,-0.458,-0.419,0.0
13.941,-0.428,-0.466,0.0
13.004,-0.397,-0.503,0.0
12.278,-0.373,-0.539,0.0
11.549,-0.349,-0.567,0.0
16.725,-0.502,-0.355,0.0
15.503,-0.463,-0.41,0.0
14.312,-0.425,-0.452,0.0
13.381,-0.395,-0.494,0.0
12.486,-0.366,-0.525,0.0
11.808,-0.345,-0.558,0.0
17.2,-0.499,-0.335,0.0
15.927,-0.459,-0.392,0.0
14.586,-0.418,-0.435,0.0
13.66,-0.389,-0.48,0.0
12.842,-0.363,-0.518,0.0
12.067,-0.339,-0.549,0.0
17.886,-0.5,-0.316,0.0
16.393,-0.455,-0.375,0.0
15.084,-0.416,-0.423,0.0
13.935,-0.382,-0.465,0.0
13.062,-0.356,-0.504,0.0
12.333,-0.333,-0.54,0.0
18.391,-0.494,-0.293,0.0
16.808,-0.448,-0.355,0.0
15.612,-0.413,-0.411,0.0
14.34,-0.377,-0.453,0.0
13.374,-0.349,-0.492,0.0
12.526,-0.325,-0.526,0.0
19.252,-0.495,-0.273,0.0
17.25,-0.44,-0.334,0.0
15.938,-0.404,-0.392,0.0
14.598,-0.367,-0.436,0.0
13.715,-0.342,-0.481,0.0
12.802,-0.317,-0.515,0.0
19.758,-0.485,-0.246,0.0
17.906,-0.436,-0.316,0.0
16.422,-0.397,-0.375,0.0
15.158,-0.363,-0.426,0.0
14.006,-0.333,-0.467,0.0
13.059,-0.308,-0.503,0.0
21.165,-0.494,-0.227,0.0
18.446,-0.427,-0.294,0.0
16.744,-0.384,-0.354,0.0
15.486,-0.352,-0.409,0.0
14.343,-0.323,-0.454,0.0
13.407,-0.299,-0.494,0.0
22.193,-0.491,-0.201,0.0
19.256,-0.422,-0.274,0.0
17.287,-0.375,-0.336,0.0
15.959,-0.343,-0.395,0.0
14.704,-0.313,-0.44,0.0
13.713,-0.289,-0.482,0.0
23.079,-0.481,-0.17,0.0
20.036,-0.413,-0.252,0.0
17.848,-0.365,-0.317,0.0
16.348,-0.33,-0.377,0.0
15.044,-0.301,-0.426,0.0
13.973,-0.276,-0.468,0.0
23.905,-0.468,-0.136,0.0
21.126,-0.408,-0.23,0.0
18.426,-0.352,-0.297,0.0
16.726,-0.316,-0.358,0.0
15.513,-0.289,-0.413,0.0
14.331,-0.264,-0.457,0.0
24.621,-0.448,-0.099,0.0
22.119,-0.398,-0.205,0.0
19.191,-0.341,-0.278,0.0
17.173,-0.301,-0.34,0.0
15.886,-0.275,-0.397,0.0
14.654,-0.25,-0.443,0.0
25.682,-0.433,-0.062,0.0
23.025,-0.383,-0.176,0.0
19.882,-0.326,-0.256,0.0
17.742,-0.287,-0.323,0.0
16.337,-0.26,-0.382,0.0
15.029,-0.236,-0.43,0.0
26.512,-0.41,-0.022,0.0
23.635,-0.36,-0.143,1.0
20.929,-0.314,-0.236,0.0
18.196,-0.268,-0.302,0.0
16.698,-0.242,-0.365,0.0
15.466,-0.221,-0.419,0.0
27.483,-0.386,0.019,0.0
24.529,-0.339,-0.11,0.0
21.983,-0.298,-0.214,1.0
18.985,-0.253,-0.286,0.0
17.027,-0.223,-0.345,0.0
15.881,-0.204,-0.405,0.0
28.463,-0.359,0.064,1.0
25.352,-0.313,-0.074,0.0
22.838,-0.276,-0.187,1.0
19.714,-0.233,-0.266,0.0
17.524,-0.203,-0.328,0.0
16.211,-0.184,-0.389,0.0
28.777,-0.32,0.109,0.0
26.155,-0.284,-0.037,0.0
23.564,-0.249,-0.156,0.0
20.579,-0.213,-0.247,0.0
18.145,-0.183,-0.312,0.0
16.523,-0.162,-0.371,0.0
28.888,-0.277,0.154,0.0
27.386,-0.255,0.002,0.0
24.219,-0.219,-0.124,0.0
21.537,-0.189,-0.226,0.0
18.632,-0.159,-0.293,0.0
16.873,-0.14,-0.354,0.0
31.564,-0.254,0.215,1.0
28.522,-0.221,0.044,2.0
24.979,-0.187,-0.091,0.0
22.215,-0.161,-0.2,1.0
19.313,-0.135,-0.275,0.0
17.319,-0.116,-0.338,0.0
32.622,-0.211,0.27,1.0
28.763,-0.178,0.087,7.0
25.884,-0.153,-0.057,0.0
22.964,-0.13,-0.174,0.0
20.084,-0.108,-0.257,0.0
17.851,-0.091,-0.323,0.0
33.294,-0.162,0.323,0.0
28.828,-0.132,0.128,3.0
26.534,-0.114,-0.021,0.0
23.832,-0.096,-0.146,0.0
20.916,-0.078,-0.238,0.0
18.329,-0.064,-0.305,0.0
0.0,0.0,0.0,0.0
30.908,-0.091,0.181,0.0
27.549,-0.073,0.016,0.0
24.495,-0.058,-0.116,0.0
21.601,-0.046,-0.216,0.0
18.746,-0.034,-0.287,0.0
37.427,-0.059,0.468,0.0
31.442,-0.04,0.227,0.0
28.608,-0.028,0.056,1.0
25.428,-0.018,-0.086,0.0
22.313,-0.01,-0.193,0.0
19.562,-0.003,-0.273,0.0
0.0,0.0,0.0,0.0
33.231,0.012,0.285,0.0
28.709,0.018,0.094,1.0
25.901,0.024,-0.053,0.0
23.388,0.028,-0.172,1.0
20.564,0.03,-0.259,0.0
41.694,0.074,0.632,0.0
34.003,0.07,0.336,0.0
28.854,0.067,0.132,0.0
26.688,0.07,-0.02,0.0
23.732,0.069,-0.143,0.0
21.105,0.067,-0.239,3.0
41.868,0.147,0.689,0.0
35.799,0.136,0.4,0.0
30.626,0.125,0.18,0.0
27.458,0.12,0.013,0.0
24.679,0.115,-0.118,0.0
21.695,0.107,-0.218,4.0
0.0,0.0,0.0,0.0
37.285,0.207,0.464,0.0
31.878,0.186,0.227,0.0
28.441,0.174,0.049,1.0
25.179,0.161,-0.089,0.0
22.325,0.149,-0.197,2.0
0.0,0.0,0.0,0.0
38.772,0.283,0.529,0.0
32.945,0.25,0.275,0.0
28.808,0.227,0.084,6.0
25.935,0.212,-0.061,0.0
22.773,0.193,-0.174,0.0
0.0,0.0,0.0,0.0
41.529,0.377,0.616,0.0
34.238,0.321,0.326,0.0
28.885,0.279,0.118,4.0
26.435,0.263,-0.031,0.0
23.59,0.242,-0.153,0.0
55.128,0.584,1.175,0.0
0.0,0.0,0.0,0.0
35.568,0.398,0.38,0.0
28.941,0.332,0.152,1.0
27.2,0.321,-0.001,0.0
24.173,0.292,-0.129,0.0
57.571,0.715,1.293,2.0
46.716,0.594,0.8,0.0
36.325,0.472,0.428,0.0
30.665,0.408,0.195,0.0
27.807,0.378,0.028,0.0
24.774,0.344,-0.106,0.0
0.0,0.0,0.0,0.0
48.337,0.704,0.88,0.0
37.66,0.56,0.485,0.0
32.237,0.489,0.24,0.0
28.734,0.444,0.06,2.0
25.435,0.401,-0.081,0.0
55.1,0.888,1.356,0.0
0.0,0.0,0.0,0.0
0.0,0.0,0.0,0.0
33.477,0.57,0.284,0.0
28.818,0.499,0.09,1.0
26.037,0.459,-0.056,0.0
54.53,0.981,1.399,0.0
0.0,0.0,0.0,0.0
0.0,0.0,0.0,0.0
34.265,0.648,0.326,1.0
28.911,0.555,0.12,0.0
26.537,0.518,-0.031,0.0
54.302,1.08,1.447,1.0
54.675,1.104,1.164,1.0
0.0,0.0,0.0,0.0
35.352,0.735,0.37,0.0
30.929,0.653,0.158,0.0
26.812,0.574,-0.006,0.0
54.235,1.182,1.497,0.0
58.009,1.281,1.29,1.0
47.824,1.071,0.807,1.0
36.617,0.83,0.417,1.0
31.085,0.715,0.188,0.0
27.387,0.638,0.018,0.0
54.103,1.282,1.543,1.0
54.455,1.306,1.26,1.0
47.669,1.158,0.847,3.0
36.466,0.896,0.448,0.0
31.873,0.793,0.221,0.0
28.681,0.723,0.045,1.0
54.176,1.387,1.593,2.0
54.252,1.405,1.303,0.0
0.0,0.0,0.0,0.0
0.0,0.0,0.0,0.0
32.628,0.874,0.254,0.0
28.806,0.781,0.069,4.0
54.13,1.489,1.637,1.0
54.077,1.504,1.344,3.0
56.179,1.58,1.094,3.0
0.0,0.0,0.0,0.0
33.651,0.966,0.289,1.0
28.919,0.839,0.093,4.0
54.16,1.595,1.682,1.0
54.204,1.612,1.391,12.0
55.475,1.667,1.124,4.0
0.0,0.0,0.0,0.0
34.644,1.063,0.325,0.0
28.963,0.897,0.115,5.0
54.13,1.699,1.723,1.0
54.081,1.714,1.429,76.0
51.081,1.635,1.074,0.0
0.0,0.0,0.0,0.0
34.789,1.135,0.352,1.0
28.989,0.955,0.137,0.0
50.975,1.701,1.66,2.0
0.0,0.0,0.0,0.0
50.611,1.719,1.101,0.0
48.432,1.66,0.786,1.0
36.368,1.257,0.394,0.0
30.891,1.077,0.167,0.0
14.265,0.898,-0.455,0.0
13.318,0.835,-0.498,0.0
12.471,0.778,-0.535,0.0
11.726,0.729,-0.568,0.0
11.123,0.688,-0.6,0.0
10.485,0.646,-0.623,0.0
14.35,0.878,-0.451,0.0
13.422,0.817,-0.496,0.0
12.504,0.758,-0.53,0.0
11.801,0.712,-0.566,0.0
11.152,0.67,-0.596,0.0
10.543,0.631,-0.621,0.0
14.501,0.861,-0.449,0.0
13.414,0.793,-0.488,0.0
12.568,0.739,-0.526,0.0
11.818,0.692,-0.561,0.0
11.229,0.655,-0.594,0.0
10.589,0.615,-0.618,0.0
14.694,0.846,-0.447,0.0
13.613,0.78,-0.488,0.0
12.673,0.723,-0.524,0.0
11.95,0.679,-0.56,0.0
11.254,0.636,-0.589,0.0
10.585,0.595,-0.612,0.0
14.71,0.821,-0.439,0.0
13.729,0.762,-0.484,0.0
12.761,0.705,-0.52,0.0
12.045,0.662,-0.557,0.0
11.317,0.619,-0.585,0.0
10.674,0.581,-0.61,0.0
14.883,0.804,-0.434,0.0
13.818,0.742,-0.478,0.0
12.865,0.688,-0.515,0.0
12.155,0.646,-0.554,0.0
11.418,0.604,-0.583,0.0
10.749,0.566,-0.607,0.0
15.053,0.786,-0.429,0.0
13.868,0.72,-0.471,0.0
13.004,0.672,-0.512,0.0
12.208,0.627,-0.548,0.0
11.456,0.585,-0.577,0.0
10.843,0.551,-0.605,0.0
15.255,0.769,-0.424,0.0
14.051,0.704,-0.467,0.0
13.076,0.652,-0.505,0.0
12.324,0.611,-0.544,0.0
11.604,0.572,-0.576,0.0
10.871,0.533,-0.598,0.0
15.398,0.749,-0.416,0.0
14.148,0.684,-0.459,0.0
13.201,0.634,-0.5,0.0
12.384,0.592,-0.537,0.0
11.675,0.555,-0.57,0.0
10.931,0.517,-0.593,0.0
15.534,0.728,-0.408,0.0
14.268,0.664,-0.452,0.0
13.409,0.621,-0.497,0.0
12.463,0.573,-0.531,0.0
11.767,0.538,-0.565,0.0
11.08,0.504,-0.592,0.0
15.738,0.709,-0.4,0.0
14.727,0.66,-0.454,0.0
13.493,0.601,-0.489,0.0
12.633,0.559,-0.527,0.0
11.921,0.524,-0.562,0.0
11.222,0.49,-0.59,0.0
15.926,0.689,-0.391,0.0
14.642,0.63,-0.438,0.0
13.644,0.583,-0.482,0.0
12.792,0.543,-0.522,0.0
12.009,0.506,-0.555,0.0
11.277,0.473,-0.582,0.0
16.15,0.67,-0.382,0.0
14.908,0.615,-0.433,0.0
13.846,0.567,-0.476,0.0
12.852,0.523,-0.513,0.0
12.114,0.489,-0.549,0.0
11.459,0.46,-0.581,0.0
16.401,0.652,-0.372,0.0
15.109,0.597,-0.424,0.0
13.991,0.548,-0.468,0.0
13.058,0.508,-0.508,0.0
12.327,0.476,-0.546,0.0
11.543,0.443,-0.574,0.0
16.623,0.632,-0.361,0.0
15.375,0.58,-0.416,0.0
14.126,0.529,-0.458,0.0
13.251,0.493,-0.502,0.0
12.434,0.459,-0.538,0.0
11.71,0.429,-0.57,0.0
16.842,0.61,-0.348,0.0
15.61,0.561,-0.406,0.0
14.409,0.514,-0.452,0.0
13.396,0.474,-0.494,0.0
12.562,0.441,-0.53,0.0
11.851,0.413,-0.564,0.0
17.08,0.589,-0.335,0.0
15.882,0.544,-0.396,0.0
14.644,0.497,-0.444,0.0
13.669,0.46,-0.489,0.0
12.77,0.427,-0.525,0.0
11.968,0.397,-0.556,0.0
17.478,0.573,-0.323,0.0
16.09,0.523,-0.384,0.0
14.79,0.477,-0.432,0.0
13.781,0.441,-0.477,0.0
12.854,0.407,-0.514,0.0
12.193,0.383,-0.553,0.0
17.872,0.556,-0.311,0.0
16.426,0.506,-0.373,0.0
15.136,0.462,-0.424,0.0
13.962,0.422,-0.467,0.0
13.087,0.392,-0.508,0.0
12.341,0.367,-0.545,0.0
18.251,0.537,-0.296,0.0
16.7,0.486,-0.359,0.0
15.492,0.447,-0.416,0.0
14.183,0.405,-0.458,0.0
13.29,0.376,-0.5,0.0
12.488,0.35,-0.536,0.0
18.687,0.518,-0.28,0.0
16.949,0.465,-0.344,0.0
15.702,0.427,-0.402,0.0
14.494,0.39,-0.45,0.0
13.518,0.36,-0.492,0.0
12.601,0.332,-0.525,0.0
19.276,0.503,-0.265,0.0
17.262,0.446,-0.329,0.0
15.94,0.407,-0.389,0.0
14.697,0.371,-0.438,0.0
13.711,0.343,-0.481,0.0
12.833,0.318,-0.519,0.0
19.995,0.489,-0.25,0.0
17.784,0.43,-0.316,0.0
16.313,0.39,-0.377,0.0
15.043,0.356,-0.429,0.0
13.905,0.325,-0.47,0.0
13.053,0.302,-0.511,0.0
20.726,0.473,-0.232,0.0
18.256,0.412,-0.301,0.0
16.576,0.37,-0.361,0.0
15.39,0.339,-0.418,0.0
14.196,0.309,-0.461,0.0
13.257,0.285,-0.501,0.0
21.669,0.46,-0.213,0.0
18.705,0.392,-0.283,0.0
16.903,0.35,-0.345,0.0
15.718,0.321,-0.406,0.0
14.442,0.291,-0.449,0.0
13.518,0.269,-0.492,0.0
22.129,0.434,-0.187,0.0
19.514,0.378,-0.268,0.0
17.317,0.331,-0.33,0.0
15.979,0.301,-0.39,0.0
14.75,0.274,-0.438,0.0
13.753,0.252,-0.481,0.0
23.119,0.418,-0.163,0.0
20.137,0.359,-0.248,0.0
17.839,0.313,-0.314,0.0
16.379,0.283,-0.376,0.0
14.96,0.255,-0.423,0.0
13.994,0.235,-0.47,0.0
23.811,0.394,-0.134,0.0
20.665,0.337,-0.225,0.0
18.402,0.295,-0.298,0.0
16.667,0.263,-0.359,0.0
15.481,0.24,-0.415,0.0
14.335,0.219,-0.46,0.0
24.565,0.369,-0.102,0.0
21.745,0.321,-0.205,0.0
18.969,0.276,-0.279,0.0
16.986,0.243,-0.341,0.0
15.819,0.222,-0.4,0.0
14.558,0.201,-0.445,0.0
25.333,0.343,-0.068,0.0
22.583,0.3,-0.179,0.0
19.653,0.256,-0.259,0.0
17.468,0.223,-0.324,0.0
16.155,0.203,-0.384,0.0
14.855,0.183,-0.431,0.0
26.255,0.316,-0.029,0.0
23.461,0.277,-0.15,0.0
20.495,0.237,-0.238,0.0
18.114,0.205,-0.308,0.0
16.555,0.183,-0.368,0.0
15.329,0.166,-0.421,0.0
27.074,0.287,0.011,0.0
24.189,0.251,-0.117,0.0
21.628,0.219,-0.218,3.0
18.681,0.185,-0.288,0.0
16.884,0.163,-0.349,0.0
15.68,0.148,-0.406,0.0
22.025,-2.696,0.759,18.0
22.111,-2.707,0.643,12.0
22.141,-2.712,0.526,14.0
22.145,-2.713,0.405,12.0
32.755,-4.016,0.424,0.0
26.088,-3.2,0.198,1.0
22.081,-2.709,0.786,12.0
22.133,-2.716,0.669,11.0
22.146,-2.719,0.551,15.0
22.146,-2.719,0.431,12.0
33.888,-4.163,0.479,0.0
28.586,-3.513,0.251,1.0
22.085,-2.715,0.812,10.0
22.184,-2.728,0.697,13.0
22.154,-2.725,0.578,13.0
22.147,-2.725,0.457,9.0
35.856,-4.413,0.549,0.0
29.168,-3.591,0.291,0.0
22.101,-2.722,0.839,10.0
22.239,-2.739,0.725,20.0
22.164,-2.73,0.604,13.0
22.173,-2.732,0.483,2.0
22.177,-2.733,0.365,0.0
30.944,-3.814,0.344,0.0
22.113,-2.727,0.865,11.0
22.275,-2.747,0.752,24.0
22.174,-2.734,0.63,10.0
22.145,-2.731,0.509,1.0
22.193,-2.737,0.391,1.0
32.116,-3.962,0.395,0.0
22.125,-2.731,0.892,12.0
22.246,-2.746,0.777,23.0
22.192,-2.739,0.657,10.0
22.16,-2.735,0.535,3.0
22.18,-2.737,0.417,5.0
33.658,-4.154,0.453,0.0
22.106,-2.73,0.917,11.0
22.182,-2.739,0.801,20.0
22.205,-2.741,0.683,13.0
22.172,-2.737,0.561,7.0
22.172,-2.737,0.442,7.0
0.0,0.0,0.0,0.0
22.09,-2.729,0.942,10.0
22.148,-2.735,0.826,14.0
22.231,-2.745,0.71,19.0
22.168,-2.736,0.587,10.0
22.159,-2.735,0.468,3.0
0.0,0.0,0.0,0.0
22.055,-2.723,0.966,9.0
22.133,-2.732,0.851,12.0
22.27,-2.748,0.737,23.0
22.169,-2.735,0.612,10.0
22.197,-2.738,0.494,0.0
22.155,-2.732,0.375,0.0
22.021,-2.718,0.99,8.0
22.106,-2.727,0.875,11.0
22.271,-2.746,0.762,23.0
22.17,-2.733,0.637,11.0
22.167,-2.732,0.519,3.0
22.175,-2.732,0.4,5.0
22.024,-2.716,1.015,8.0
22.053,-2.718,0.898,8.0
22.192,-2.734,0.785,15.0
22.175,-2.73,0.663,12.0
22.151,-2.726,0.543,12.0
22.16,-2.726,0.425,11.0
22.017,-2.711,1.04,8.0
22.013,-2.709,0.921,8.0
22.073,-2.715,0.805,10.0
22.16,-2.724,0.687,12.0
22.148,-2.721,0.568,16.0
22.157,-2.721,0.45,12.0
22.014,-2.706,1.064,9.0
22.009,-2.704,0.946,8.0
22.01,-2.702,0.828,7.0
22.09,-2.71,0.71,12.0
22.147,-2.716,0.593,18.0
22.178,-2.718,0.475,11.0
22.008,-2.7,1.088,9.0
22.004,-2.697,0.97,9.0
21.997,-2.694,0.851,8.0
22.0,-2.693,0.731,17.0
22.125,-2.707,0.616,14.0
22.156,-2.709,0.498,15.0
22.014,-2.694,1.113,9.0
21.991,-2.689,0.994,9.0
21.994,-2.687,0.875,8.0
21.975,-2.683,0.754,22.0
21.996,-2.683,0.637,12.0
22.141,-2.699,0.522,18.0
22.022,-2.687,1.137,9.0
21.996,-2.682,1.017,9.0
21.979,-2.677,0.898,9.0
21.968,-2.674,0.777,16.0
21.971,-2.672,0.659,21.0
22.13,-2.689,0.545,17.0
14.698,0.176,-0.425,0.0
13.594,0.164,-0.473,0.0
12.692,0.153,-0.515,0.0
11.862,0.144,-0.552,0.0
11.151,0.136,-0.584,0.0
10.523,0.129,-0.613,0.0
14.308,0.174,-0.443,0.0
13.264,0.162,-0.488,0.0
12.388,0.152,-0.528,0.0
11.595,0.142,-0.563,0.0
10.885,0.134,-0.592,0.0
10.285,0.127,-0.62,0.0
13.927,0.171,-0.459,0.0
12.986,0.16,-0.504,0.0
12.087,0.149,-0.54,0.0
11.297,0.14,-0.572,0.0
10.735,0.133,-0.606,0.0
10.033,0.125,-0.625,0.0
13.553,0.167,-0.475,0.0
12.643,0.156,-0.516,0.0
11.815,0.147,-0.551,0.0
11.066,0.138,-0.582,0.0
10.409,0.13,-0.609,0.0
9.829,0.123,-0.632,0.0
13.212,0.164,-0.489,0.0
12.334,0.153,-0.528,0.0
11.575,0.144,-0.564,0.0
10.884,0.136,-0.595,0.0
10.26,0.128,-0.621,0.0
9.745,0.122,-0.647,0.0
12.867,0.159,-0.502,0.0
12.038,0.149,-0.54,0.0
11.285,0.14,-0.572,0.0
10.619,0.132,-0.601,0.0
10.043,0.125,-0.628,0.0
9.557,0.119,-0.653,0.0
12.589,0.155,-0.516,0.0
11.779,0.146,-0.552,0.0
11.088,0.137,-0.584,0.0
10.449,0.129,-0.612,0.0
9.808,0.122,-0.632,0.0
9.383,0.116,-0.66,0.0
12.326,0.151,-0.529,0.0
11.584,0.142,-0.565,0.0
10.89,0.134,-0.595,0.0
10.252,0.126,-0.621,0.0
9.683,0.119,-0.643,0.0
9.177,0.113,-0.663,0.0
11.996,0.146,-0.539,0.0
11.295,0.137,-0.573,0.0
10.716,0.13,-0.607,0.0
0.0,0.0,0.0,0.0
9.604,0.117,-0.657,0.0
9.083,0.111,-0.674,0.0
11.747,0.141,-0.551,0.0
11.054,0.133,-0.583,0.0
10.438,0.125,-0.611,0.0
0.0,0.0,0.0,0.0
9.337,0.112,-0.657,0.0
8.94,0.107,-0.681,0.0
11.548,0.137,-0.564,0.0
10.832,0.128,-0.592,0.0
10.202,0.12,-0.617,0.0
9.664,0.114,-0.642,0.0
0.0,0.0,0.0,0.0
0.0,0.0,0.0,0.0
11.304,0.131,-0.574,0.0
10.599,0.123,-0.6,0.0
0.0,0.0,0.0,0.0
0.0,0.0,0.0,0.0
8.965,0.103,-0.665,0.0
8.65,0.1,-0.693,0.0
11.062,0.126,-0.582,0.0
10.448,0.118,-0.611,0.0
9.892,0.112,-0.636,0.0
0.0,0.0,0.0,0.0
0.0,0.0,0.0,0.0
8.466,0.095,-0.694,0.0
10.859,0.12,-0.592,0.0
10.222,0.113,-0.617,0.0
0.0,0.0,0.0,0.0
0.0,0.0,0.0,0.0
0.0,0.0,0.0,0.0
8.325,0.091,-0.698,0.0
10.647,0.114,-0.6,0.0
10.073,0.108,-0.627,0.0
0.0,0.0,0.0,0.0
0.0,0.0,0.0,0.0
0.0,0.0,0.0,0.0
8.215,0.087,-0.704,0.0
10.458,0.108,-0.609,0.0
9.837,0.102,-0.63,0.0
0.0,0.0,0.0,0.0
0.0,0.0,0.0,0.0
0.0,0.0,0.0,0.0
8.102,0.082,-0.709,0.0
13.6,-0.765,-0.475,0.0
12.749,-0.715,-0.512,0.0
11.932,-0.668,-0.542,0.0
11.245,-0.628,-0.57,0.0
10.703,-0.596,-0.599,0.0
10.181,-0.565,-0.623,0.0
13.87,-0.768,-0.462,0.0
12.983,-0.716,-0.5,0.0
12.24,-0.673,-0.535,0.0
11.515,-0.632,-0.565,0.0
10.897,-0.596,-0.592,0.0
10.305,-0.562,-0.613,0.0
14.21,-0.773,-0.45,0.0
13.285,-0.72,-0.49,0.0
12.443,-0.673,-0.524,0.0
11.784,-0.635,-0.559,0.0
11.097,-0.596,-0.584,0.0
10.532,-0.564,-0.61,0.0
14.544,-0.776,-0.437,0.0
13.591,-0.723,-0.479,0.0
12.721,-0.675,-0.515,0.0
11.882,-0.628,-0.544,0.0
11.247,-0.593,-0.574,0.0
10.684,-0.561,-0.601,0.0
14.788,-0.774,-0.421,0.0
13.86,-0.723,-0.466,0.0
12.937,-0.673,-0.503,0.0
12.181,-0.631,-0.538,0.0
11.439,-0.591,-0.565,0.0
10.892,-0.56,-0.595,0.0
15.283,-0.784,-0.41,0.0
14.15,-0.723,-0.453,0.0
13.249,-0.674,-0.494,0.0
12.333,-0.625,-0.525,0.0
11.75,-0.594,-0.562,0.0
11.048,-0.556,-0.586,0.0
15.766,-0.791,-0.398,0.0
14.506,-0.725,-0.442,0.0
13.525,-0.673,-0.482,0.0
12.741,-0.632,-0.522,0.0
11.921,-0.589,-0.551,0.0
11.267,-0.554,-0.58,0.0
16.133,-0.791,-0.382,0.0
14.801,-0.722,-0.427,0.0
13.801,-0.671,-0.47,0.0
12.923,-0.626,-0.509,0.0
12.168,-0.587,-0.543,0.0
11.426,-0.549,-0.57,0.0
16.498,-0.789,-0.364,0.0
15.152,-0.721,-0.414,0.0
14.022,-0.665,-0.456,0.0
13.107,-0.619,-0.496,0.0
12.365,-0.581,-0.533,0.0
11.619,-0.543,-0.561,0.0
16.912,-0.788,-0.347,0.0
15.637,-0.725,-0.403,0.0
14.433,-0.666,-0.447,0.0
13.386,-0.615,-0.486,0.0
12.581,-0.575,-0.523,0.0
11.824,-0.538,-0.553,0.0
17.406,-0.789,-0.33,0.0
15.963,-0.72,-0.386,0.0
14.754,-0.662,-0.434,0.0
13.704,-0.612,-0.476,0.0
12.888,-0.573,-0.516,0.0
12.068,-0.534,-0.546,0.0
17.925,-0.789,-0.313,0.0
16.37,-0.717,-0.371,0.0
14.934,-0.651,-0.417,0.0
13.962,-0.605,-0.464,0.0
13.085,-0.564,-0.504,0.0
12.276,-0.527,-0.537,0.0
18.434,-0.787,-0.294,0.0
16.799,-0.713,-0.356,0.0
15.459,-0.653,-0.409,0.0
14.229,-0.598,-0.452,0.0
13.328,-0.557,-0.493,0.0
12.495,-0.519,-0.528,0.0
19.117,-0.79,-0.277,0.0
17.137,-0.704,-0.338,0.0
15.846,-0.647,-0.395,0.0
14.559,-0.591,-0.441,0.0
13.547,-0.547,-0.481,0.0
12.707,-0.51,-0.518,0.0
19.551,-0.781,-0.254,0.0
17.602,-0.699,-0.321,0.0
16.216,-0.64,-0.381,0.0
14.841,-0.582,-0.428,0.0
13.815,-0.538,-0.471,0.0
12.907,-0.5,-0.508,0.0
20.922,-0.806,-0.242,1.0
18.159,-0.695,-0.305,0.0
16.534,-0.628,-0.365,0.0
15.199,-0.574,-0.417,0.0
14.085,-0.528,-0.46,0.0
13.209,-0.492,-0.501,0.0
13.435,1.568,-0.501,0.0
12.563,1.466,-0.54,0.0
11.808,1.377,-0.576,0.0
11.077,1.292,-0.605,0.0
10.533,1.228,-0.635,0.0
9.949,1.16,-0.657,0.0
13.31,1.548,-0.51,0.0
12.486,1.452,-0.55,0.0
11.635,1.352,-0.579,0.0
10.97,1.274,-0.61,0.0
10.401,1.208,-0.638,0.0
9.865,1.146,-0.662,0.0
13.068,1.514,-0.515,0.0
12.31,1.425,-0.555,0.0
11.552,1.337,-0.587,0.0
10.907,1.262,-0.618,0.0
10.311,1.193,-0.643,0.0
9.708,1.123,-0.662,0.0
12.934,1.492,-0.522,0.0
12.164,1.402,-0.561,0.0
11.405,1.314,-0.591,0.0
10.751,1.238,-0.62,0.0
10.137,1.167,-0.643,0.0
9.602,1.105,-0.664,0.0
12.793,1.468,-0.53,0.0
12.053,1.383,-0.568,0.0
11.278,1.293,-0.596,0.0
10.64,1.22,-0.624,0.0
10.031,1.149,-0.646,0.0
9.553,1.094,-0.67,0.0
12.617,1.441,-0.535,0.0
11.914,1.36,-0.573,0.0
11.152,1.272,-0.6,0.0
10.542,1.202,-0.629,0.0
9.972,1.136,-0.652,0.0
9.469,1.079,-0.673,0.0
12.513,1.421,-0.542,0.0
11.74,1.332,-0.576,0.0
11.044,1.253,-0.605,0.0
10.441,1.184,-0.632,0.0
9.872,1.119,-0.654,0.0
9.442,1.07,-0.68,0.0
12.425,1.403,-0.55,0.0
11.602,1.309,-0.579,0.0
10.991,1.239,-0.612,0.0
10.336,1.165,-0.636,0.0
9.734,1.096,-0.654,0.0
9.308,1.048,-0.679,0.0
12.299,1.38,-0.555,0.0
11.487,1.288,-0.584,0.0
10.897,1.221,-0.616,0.0
10.214,1.144,-0.637,0.0
9.731,1.089,-0.663,0.0
9.264,1.036,-0.684,0.0
12.156,1.355,-0.559,0.0
11.421,1.272,-0.591,0.0
10.784,1.2,-0.619,0.0
10.123,1.126,-0.64,0.0
9.641,1.072,-0.665,0.0
9.192,1.021,-0.687,0.0
12.086,1.337,-0.566,0.0
11.272,1.246,-0.593,0.0
10.698,1.182,-0.624,0.0
10.094,1.114,-0.647,0.0
9.562,1.055,-0.668,0.0
9.134,1.007,-0.69,0.0
11.909,1.308,-0.568,0.0
11.186,1.228,-0.597,0.0
10.608,1.163,-0.627,0.0
9.975,1.093,-0.648,0.0
9.485,1.038,-0.67,0.0
0.0,0.0,0.0,0.0
11.803,1.286,-0.573,0.0
11.1,1.208,-0.602,0.0
10.501,1.142,-0.629,0.0
9.936,1.08,-0.653,0.0
9.461,1.027,-0.676,0.0
8.876,0.963,-0.685,0.0
11.683,1.263,-0.576,0.0
11.007,1.188,-0.605,0.0
10.46,1.128,-0.635,0.0
9.827,1.059,-0.653,0.0
9.327,1.004,-0.673,0.0
8.885,0.956,-0.692,0.0
11.553,1.238,-0.578,0.0
10.958,1.173,-0.61,0.0
10.335,1.105,-0.634,0.0
9.729,1.039,-0.654,0.0
9.263,0.989,-0.675,0.0
8.844,0.943,-0.695,0.0
11.485,1.219,-0.582,0.0
10.853,1.151,-0.612,0.0
10.221,1.083,-0.635,0.0
9.702,1.027,-0.659,0.0
9.243,0.977,-0.68,0.0
8.828,0.933,-0.7,0.0
56.687,0.585,6.097,30.0
57.364,0.602,5.861,16.0
56.906,0.608,5.508,31.0
57.381,0.624,5.24,32.0
57.138,0.632,4.911,21.0
62.927,0.708,5.071,32.0
56.83,0.644,6.189,31.0
50.16,0.577,5.192,23.0
57.677,0.675,5.659,29.0
57.012,0.678,5.282,32.0
63.034,0.761,5.501,22.0
62.755,0.77,5.139,26.0
56.734,0.701,6.254,23.0
50.292,0.63,5.272,24.0
57.792,0.736,5.746,21.0
56.632,0.732,5.319,28.0
58.998,0.773,5.224,7.0
58.97,0.784,4.904,17.0
52.887,0.709,5.897,9.0
50.262,0.683,5.332,20.0
49.872,0.687,5.021,7.0
56.786,0.793,5.405,28.0
0.0,0.0,0.0,0.0
58.941,0.847,4.974,29.0
52.834,0.763,5.957,17.0
57.149,0.837,6.132,14.0
50.177,0.745,5.112,9.0
57.129,0.859,5.506,22.0
57.57,0.877,5.238,7.0
58.97,0.91,5.046,24.0
52.725,0.819,6.007,5.0
50.209,0.79,5.447,24.0
55.096,0.877,5.678,9.0
57.326,0.925,5.592,15.0
57.197,0.934,5.269,30.0
59.007,0.975,5.118,21.0
52.764,0.878,6.072,4.0
50.107,0.844,5.494,24.0
54.963,0.936,5.727,11.0
49.242,0.849,4.859,23.0
57.292,0.999,5.342,30.0
58.958,1.04,5.179,23.0
48.743,0.866,5.665,14.0
50.218,0.902,5.562,24.0
57.532,1.045,6.058,7.0
55.027,1.01,5.489,11.0
57.512,1.067,5.425,24.0
57.291,1.075,5.093,12.0
49.767,0.94,5.837,25.0
50.175,0.957,5.61,24.0
50.062,0.965,5.324,23.0
55.036,1.072,5.547,11.0
57.747,1.137,5.506,9.0
57.223,1.138,5.145,16.0
48.762,0.977,5.769,19.0
50.123,1.014,5.655,31.0
50.059,1.023,5.374,23.0
54.994,1.135,5.599,14.0
61.854,1.29,5.96,17.0
57.002,1.2,5.182,30.0
48.703,1.033,5.811,22.0
50.203,1.075,5.714,24.0
49.847,1.077,5.4,23.0
54.955,1.198,5.647,10.0
56.866,1.252,5.533,9.0
56.732,1.26,5.21,31.0
48.629,1.088,5.847,9.0
50.141,1.132,5.754,24.0
49.762,1.133,5.437,23.0
49.459,1.136,5.127,23.0
62.518,1.449,6.14,8.0
56.72,1.327,5.26,30.0
45.234,1.065,5.48,34.0
50.249,1.194,5.811,5.0
49.698,1.191,5.474,21.0
49.519,1.196,5.177,25.0
49.406,1.204,4.894,9.0
57.167,1.404,5.351,18.0
45.257,1.12,5.521,36.0
50.279,1.255,5.857,10.0
49.742,1.251,5.52,34.0
49.506,1.255,5.216,20.0
54.899,1.403,5.483,28.0
49.872,1.285,4.708,23.0
45.299,1.176,5.563,16.0
45.492,1.19,5.335,28.0
49.754,1.311,5.561,13.0
49.171,1.305,5.219,23.0
50.708,1.357,5.104,24.0
49.755,1.341,4.735,21.0
45.538,1.237,5.627,20.0
45.376,1.242,5.356,33.0
45.81,1.263,5.154,20.0
48.899,1.358,5.227,24.0
50.758,1.42,5.146,24.0
49.813,1.403,4.776,24.0
44.388,2.137,5.757,27.0
45.336,2.19,5.622,20.0
45.762,2.218,5.416,31.0
48.317,2.351,5.439,34.0
50.779,2.478,5.43,24.0
56.387,2.762,5.712,15.0
44.4,2.191,5.756,34.0
45.991,2.277,5.701,20.0
45.82,2.275,5.419,20.0
47.742,2.378,5.371,22.0
50.381,2.518,5.383,23.0
56.456,2.831,5.714,8.0
44.415,2.244,5.754,38.0
45.931,2.328,5.688,19.0
45.772,2.327,5.408,14.0
47.617,2.428,5.351,22.0
50.255,2.571,5.363,23.0
49.862,2.558,5.04,22.0
44.477,2.3,5.755,34.0
0.0,0.0,0.0,0.0
45.771,2.38,5.401,12.0
47.537,2.48,5.334,21.0
50.435,2.638,5.374,23.0
49.82,2.614,5.027,23.0
44.499,2.352,5.75,35.0
43.486,2.305,5.37,30.0
45.774,2.433,5.392,16.0
47.466,2.53,5.317,21.0
49.94,2.669,5.31,23.0
49.616,2.66,4.995,23.0
44.544,2.406,5.745,41.0
43.469,2.354,5.358,18.0
45.743,2.483,5.377,12.0
47.975,2.611,5.362,23.0
48.8,2.663,5.176,13.0
49.588,2.714,4.979,23.0
44.549,2.456,5.733,34.0
43.603,2.41,5.362,28.0
47.506,2.632,5.57,10.0
47.979,2.665,5.348,22.0
48.845,2.72,5.166,20.0
49.464,2.761,4.951,23.0
45.858,2.579,5.887,5.0
43.568,2.456,5.343,21.0
47.23,2.669,5.522,20.0
47.623,2.697,5.292,22.0
48.766,2.769,5.141,14.0
49.307,2.807,4.918,21.0
43.12,2.472,5.519,18.0
43.554,2.503,5.325,32.0
47.096,2.712,5.489,21.0
47.642,2.75,5.275,27.0
53.724,3.108,5.643,13.0
49.33,2.861,4.901,15.0
43.156,2.521,5.506,18.0
43.561,2.55,5.308,26.0
50.993,2.991,5.921,5.0
47.677,2.803,5.259,16.0
48.371,2.85,5.059,16.0
49.107,2.9,4.857,23.0
43.317,2.576,5.507,20.0
43.644,2.6,5.298,33.0
45.331,2.706,5.243,20.0
47.799,2.86,5.25,13.0
48.19,2.889,5.018,21.0
48.899,2.938,4.813,22.0
43.062,2.605,5.453,19.0
43.698,2.649,5.282,23.0
45.348,2.754,5.222,20.0
44.573,2.712,4.873,28.0
48.155,2.935,4.989,24.0
48.795,2.98,4.777,18.0
42.597,2.62,5.372,18.0
45.602,2.809,5.488,20.0
45.159,2.787,5.175,19.0
44.521,2.753,4.842,22.0
48.726,3.019,5.021,23.0
51.982,3.226,5.06,10.0
43.451,2.715,5.454,20.0
45.479,2.846,5.447,20.0
44.923,2.816,5.122,19.0
44.558,2.798,4.82,19.0
49.295,3.101,5.051,30.0
51.91,3.272,5.022,25.0
0.0,0.0,0.0,0.0
45.577,2.896,5.43,16.0
45.069,2.868,5.11,19.0
44.615,2.844,4.798,10.0
49.347,3.151,5.024,25.0
52.019,3.327,4.999,21.0
42.302,2.723,5.256,24.0
45.017,2.902,5.334,6.0
44.788,2.892,5.048,28.0
47.225,3.054,5.047,11.0
49.34,3.195,4.991,15.0
55.003,3.568,5.249,15.0
142.923,-15.79,10.996,9.0
143.276,-15.813,10.246,15.0
174.449,-19.232,11.537,29.0
159.906,-17.611,9.696,15.0
159.21,-17.517,8.797,16.0
159.416,-17.522,7.953,19.0
144.659,-15.926,11.284,5.0
143.346,-15.763,10.407,17.0
174.433,-19.159,11.723,19.0
159.925,-17.546,9.869,15.0
159.355,-17.464,8.975,15.0
159.405,-17.452,8.121,18.0
0.0,0.0,0.0,0.0
143.329,-15.697,10.557,14.0
174.412,-19.079,11.903,9.0
159.882,-17.467,10.033,12.0
159.594,-17.416,9.155,15.0
159.336,-17.369,8.28,16.0
141.515,-15.451,11.337,3.0
142.883,-15.579,10.672,11.0
143.004,-15.572,9.906,11.0
160.143,-17.415,10.213,6.0
159.961,-17.375,9.337,12.0
158.954,-17.245,8.421,15.0
141.478,-15.373,11.478,7.0
143.075,-15.525,10.831,19.0
142.939,-15.489,10.045,13.0
174.541,-18.888,11.304,27.0
160.042,-17.296,9.5,11.0
159.232,-17.186,8.593,19.0
0.0,0.0,0.0,0.0
143.188,-15.456,10.981,14.0
143.087,-15.422,10.198,19.0
174.548,-18.787,11.475,39.0
159.946,-17.191,9.65,16.0
159.463,-17.116,8.759,19.0
143.141,-15.388,11.895,12.0
143.935,-15.449,11.177,14.0
143.071,-15.332,10.333,18.0
174.53,-18.674,11.643,25.0
159.825,-17.075,9.796,14.0
159.365,-17.003,8.904,16.0
143.179,-15.3,12.033,6.0
143.949,-15.357,11.315,19.0
143.161,-15.248,10.474,17.0
174.635,-18.571,11.81,19.0
159.733,-16.96,9.936,11.0
0.0,0.0,0.0,0.0
143.626,-15.251,12.203,5.0
143.78,-15.24,11.432,9.0
143.12,-15.144,10.601,15.0
174.89,-18.475,11.986,11.0
159.748,-16.847,10.081,3.0
158.469,-16.687,9.139,4.0
0.0,0.0,0.0,0.0
142.618,-15.013,11.467,12.0
143.134,-15.041,10.727,12.0
142.397,-14.937,9.883,13.0
175.269,-18.355,11.21,18.0
159.885,-16.717,9.356,11.0
142.948,-14.969,12.396,18.0
142.418,-14.886,11.57,19.0
142.984,-14.917,10.836,13.0
142.704,-14.86,10.023,15.0
175.481,-18.242,11.368,21.0
160.106,-16.614,9.502,15.0
142.967,-14.859,12.515,13.0
142.544,-14.786,11.698,22.0
142.944,-14.798,10.95,4.0
142.44,-14.718,10.12,13.0
175.664,-18.116,11.523,20.0
160.533,-16.525,9.657,16.0
142.954,-14.739,12.63,4.0
142.775,-14.69,11.832,19.0
148.122,-15.209,11.465,7.0
143.855,-14.742,10.333,3.0
176.013,-18.002,11.683,19.0
160.323,-16.365,9.769,7.0
144.277,-14.75,12.86,5.0
142.663,-14.554,11.932,15.0
143.275,-14.586,11.198,3.0
143.753,-14.604,10.435,3.0
149.732,-15.18,10.051,9.0
160.089,-16.197,9.873,5.0
144.234,-14.616,12.963,13.0
144.357,-14.596,12.181,11.0
143.149,-14.443,11.293,13.0
142.809,-14.377,10.469,18.0
143.862,-14.453,9.759,12.0
176.638,-17.708,11.018,8.0
144.216,-14.48,13.063,14.0
144.294,-14.454,12.277,16.0
143.012,-14.293,11.382,12.0
142.662,-14.227,10.556,14.0
143.978,-14.327,9.865,12.0
150.147,-14.909,9.467,4.0
144.351,-14.356,13.172,16.0
144.721,-14.358,12.409,14.0
142.594,-14.114,11.442,9.0
142.542,-14.076,10.641,14.0
177.165,-17.455,12.254,12.0
149.972,-14.742,9.551,15.0
144.459,-14.221,13.276,13.0
144.757,-14.215,12.505,7.0
142.609,-13.971,11.533,14.0
142.466,-13.923,10.725,13.0
177.498,-17.305,12.387,7.0
149.219,-14.516,9.594,14.0
144.424,-14.069,13.362,8.0
148.583,-14.438,12.925,5.0
145.067,-14.06,11.819,12.0
142.465,-13.775,10.807,11.0
143.415,-13.833,10.09,10.0
149.574,-14.393,9.702,4.0
144.433,-13.917,13.444,14.0
147.478,-14.174,12.912,11.0
145.098,-13.909,11.902,9.0
147.86,-14.137,11.298,4.0
151.479,-14.448,10.739,7.0
185.154,-17.615,12.111,7.0
144.286,-13.745,13.509,3.0
147.542,-14.017,12.996,3.0
154.753,-14.663,12.776,4.0
0.0,0.0,0.0,0.0
153.434,-14.463,10.957,5.0
151.505,-14.246,9.984,20.0
148.177,-13.952,13.946,7.0
147.155,-13.817,13.034,11.0
146.042,-13.674,12.127,5.0
145.545,-13.591,11.266,12.0
146.152,-13.612,10.505,4.0
0.0,0.0,0.0,0.0
147.687,-13.738,13.968,7.0
147.024,-13.637,13.089,5.0
146.674,-13.565,12.245,14.0
145.609,-13.43,11.334,7.0
146.498,-13.476,10.593,3.0
208.186,-19.098,13.903,7.0
146.151,-13.421,13.887,9.0
145.539,-13.327,13.018,13.0
146.545,-13.379,12.294,12.0
144.772,-13.18,11.329,10.0
146.117,-13.264,10.625,12.0
148.489,-13.442,9.976,6.0
146.821,-13.307,14.006,13.0
145.664,-13.162,13.084,7.0
147.307,-13.27,12.414,8.0
145.052,-13.029,11.403,17.0
145.785,-13.057,10.652,16.0
147.14,-13.14,9.936,12.0
146.502,-13.098,14.028,7.0
145.571,-12.975,13.126,19.0
144.192,-12.814,12.199,12.0
144.86,-12.833,11.435,19.0
145.067,-12.813,10.646,10.0
145.906,-12.85,9.898,3.0
145.847,-12.856,14.011,15.0
145.724,-12.805,13.185,5.0
145.332,-12.732,12.338,11.0
145.144,-12.675,11.5,17.0
144.847,-12.611,10.671,10.0
145.828,-12.659,9.933,18.0
145.517,-12.643,14.018,19.0
0.0,0.0,0.0,0.0
145.919,-12.599,12.424,4.0
145.316,-12.505,11.549,20.0
145.025,-12.441,10.719,4.0
146.015,-12.488,9.979,9.0
145.721,-12.473,14.071,13.0
145.022,-12.373,13.191,12.0
146.477,-12.457,12.504,4.0
145.343,-12.319,11.58,17.0
145.418,-12.285,10.777,14.0
154.328,-12.997,10.578,5.0
145.767,-12.286,14.102,4.0
145.143,-12.191,13.228,14.0
146.1,-12.23,12.498,15.0
146.466,-12.219,11.695,14.0
145.332,-12.085,10.794,11.0
0.0,0.0,0.0,0.0
144.586,-11.995,14.009,12.0
145.043,-11.991,13.24,20.0
145.937,-12.023,12.503,15.0
145.4,-11.937,11.628,8.0
146.792,-12.011,10.92,4.0
149.96,-12.23,10.318,12.0
146.018,-11.917,14.164,4.0
145.062,-11.796,13.256,14.0
147.707,-11.968,12.668,3.0
145.38,-11.739,11.638,11.0
150.122,-12.08,11.178,3.0
148.517,-11.91,10.229,12.0
145.834,-11.701,14.155,14.0
145.116,-11.601,13.27,4.0
145.854,-11.619,12.517,13.0
145.552,-11.553,11.659,6.0
146.536,-11.589,10.918,12.0
155.228,-12.234,10.696,3.0
145.727,-11.491,14.148,17.0
148.367,-11.655,13.569,3.0
145.665,-11.4,12.502,19.0
147.746,-11.521,11.835,11.0
146.656,-11.394,10.925,4.0
155.321,-12.023,10.701,4.0
146.291,-11.329,14.201,10.0
119.054,-9.184,10.885,8.0
145.714,-11.197,12.501,19.0
88.214,-6.753,7.062,12.0
151.587,-11.562,11.286,7.0
152.302,-11.573,10.484,5.0
147.533,-11.214,14.311,6.0
119.106,-9.017,10.882,8.0
119.265,-8.994,10.223,9.0
88.356,-6.637,7.067,15.0
122.101,-9.138,9.078,8.0
122.618,-9.141,8.429,8.0
91.439,-6.817,8.861,12.0
119.154,-8.849,10.872,4.0
119.235,-8.82,10.207,9.0
88.46,-6.519,7.064,17.0
122.32,-8.98,9.078,10.0
122.594,-8.966,8.41,9.0
91.578,-6.698,8.86,12.0
119.306,-8.691,10.868,14.0
120.881,-8.77,10.328,6.0
88.461,-6.391,7.049,14.0
121.84,-8.769,9.023,5.0
122.28,-8.767,8.366,14.0
91.652,-6.569,8.85,17.0
119.064,-8.498,10.823,6.0
119.0,-8.459,10.143,15.0
88.408,-6.258,7.026,16.0
122.014,-8.604,9.008,6.0
122.407,-8.597,8.348,14.0
91.701,-6.438,8.834,18.0
117.354,-8.205,10.639,13.0
88.274,-6.146,7.502,13.0
88.464,-6.133,7.008,15.0
119.548,-8.254,8.795,7.0
121.934,-8.385,8.283,19.0
91.711,-6.303,8.809,5.0
117.22,-8.021,10.593,16.0
88.3,-6.016,7.479,16.0
88.528,-6.007,6.987,14.0
122.221,-8.257,8.955,8.0
119.888,-8.067,8.107,7.0
91.898,-6.179,8.798,7.0
117.277,-7.851,10.56,6.0
88.459,-5.895,7.463,6.0
88.517,-5.874,6.957,15.0
119.49,-7.895,8.714,6.0
121.966,-8.024,8.204,11.0
91.9,-6.041,8.765,16.0
93.156,-6.095,8.354,11.0
88.666,-5.776,7.446,11.0
88.482,-5.739,6.92,14.0
119.498,-7.716,8.668,10.0
89.327,-5.742,5.973,4.0
91.407,-5.87,8.68,16.0
88.475,-5.656,7.897,16.0
88.705,-5.645,7.413,14.0
88.329,-5.596,6.87,28.0
91.685,-5.782,6.611,9.0
111.586,-7.007,7.413,6.0
91.392,-5.732,8.637,21.0
88.732,-5.539,7.879,20.0
93.104,-5.785,7.737,9.0
88.626,-5.481,6.851,20.0
111.472,-6.863,7.984,10.0
111.646,-6.842,7.363,6.0
87.617,-5.363,8.237,19.0
88.863,-5.414,7.846,22.0
113.086,-6.856,9.341,10.0
88.837,-5.361,6.822,31.0
91.935,-5.521,6.537,12.0
91.829,-5.489,6.007,15.0
87.834,-5.242,8.21,27.0
89.278,-5.303,7.834,17.0
93.213,-5.509,7.647,16.0
88.884,-5.228,6.776,20.0
88.105,-5.157,6.215,5.0
91.929,-5.356,5.962,21.0
88.269,-5.135,8.2,26.0
93.191,-5.395,8.123,18.0
88.817,-5.116,7.234,16.0
94.375,-5.41,7.139,15.0
88.133,-5.028,6.164,7.0
91.355,-5.186,5.87,21.0
88.514,-5.015,8.167,22.0
93.018,-5.243,8.05,17.0
89.049,-4.995,7.196,18.0
88.425,-4.934,6.632,6.0
88.016,-4.888,6.099,21.0
91.742,-5.069,5.834,15.0
87.39,-4.818,8.005,11.0
89.184,-4.892,7.658,28.0
88.759,-4.843,7.112,24.0
88.533,-4.806,6.579,12.0
88.016,-4.753,6.037,14.0
92.604,-4.976,5.824,7.0
89.444,-4.796,8.129,13.0
88.856,-4.737,7.565,24.0
88.921,-4.716,7.061,30.0
88.619,-4.676,6.521,18.0
88.154,-4.628,5.982,8.0
117.253,-6.124,7.288,6.0
89.271,-4.65,8.046,19.0
88.687,-4.595,7.483,14.0
89.125,-4.593,7.008,12.0
89.493,-4.586,6.516,15.0
88.123,-4.492,5.911,18.0
111.613,-5.659,6.849,11.0
86.934,-4.395,7.765,24.0
90.074,-4.529,7.528,16.0
87.614,-4.381,6.819,13.0
89.15,-4.433,6.417,18.0
108.392,-5.361,7.181,15.0
92.097,-4.53,5.575,14.0
87.0,-4.267,7.698,15.0
89.346,-4.358,7.391,25.0
87.883,-4.263,6.765,7.0
89.078,-4.297,6.337,18.0
92.071,-4.417,6.021,24.0
94.847,-4.524,5.659,5.0
87.112,-4.141,7.631,26.0
87.814,-4.15,7.186,13.0
87.897,-4.131,6.687,14.0
89.193,-4.168,6.264,29.0
94.945,-4.411,6.123,12.0
89.488,-4.135,5.258,14.0
86.986,-4.004,7.539,23.0
88.214,-4.036,7.137,12.0
89.461,-4.069,6.722,15.0
90.884,-4.111,6.297,17.0
90.869,-4.086,5.773,18.0
89.573,-4.004,5.178,24.0
90.551,-4.033,7.76,10.0
88.141,-3.901,7.044,19.0
88.928,-3.913,6.595,15.0
91.172,-3.989,6.228,12.0
89.449,-3.891,5.596,16.0
91.016,-3.936,5.172,12.0
88.557,-3.813,7.5,5.0
88.09,-3.77,6.951,19.0
88.506,-3.764,6.473,15.0
88.37,-3.735,5.946,18.0
89.649,-3.767,5.516,23.0
120.428,-5.03,6.718,7.0
88.367,-3.674,7.391,9.0
88.567,-3.66,6.896,19.0
88.391,-3.63,6.372,16.0
88.761,-3.622,5.877,14.0
98.938,-4.013,5.983,24.0
99.506,-4.011,5.444,15.0
79.847,-3.203,6.591,18.0
87.94,-3.506,6.751,26.0
88.156,-3.492,6.258,29.0
89.826,-3.535,5.849,15.0
98.27,-3.843,5.834,18.0
113.347,-4.406,6.077,15.0
87.872,-3.398,7.155,15.0
87.633,-3.366,6.629,28.0
87.856,-3.353,6.137,11.0
98.07,-3.719,6.275,15.0
99.083,-3.732,5.767,16.0
113.316,-4.241,5.945,30.0
79.804,-2.971,6.405,11.0
87.852,-3.249,6.541,14.0
98.648,-3.623,6.775,17.0
94.434,-3.446,5.931,13.0
99.126,-3.593,5.653,18.0
190.282,-6.852,9.755,16.0
79.839,-2.858,6.311,17.0
87.911,-3.126,6.44,25.0
94.444,-3.335,6.371,19.0
98.343,-3.448,6.055,8.0
99.169,-3.453,5.534,9.0
190.328,-6.585,9.523,18.0
87.826,-3.019,6.832,10.0
87.934,-3.001,6.33,13.0
95.331,-3.231,6.311,14.0
94.711,-3.187,5.712,13.0
190.207,-6.357,10.372,14.0
190.176,-6.311,9.272,14.0
91.72,-3.024,7.015,12.0
87.712,-2.87,6.2,10.0
96.04,-3.121,6.232,7.0
98.839,-3.189,5.832,8.0
189.79,-6.08,10.103,18.0
190.083,-6.045,9.019,20.0
96.069,-3.034,7.221,13.0
95.524,-2.994,6.625,10.0
97.195,-3.024,6.178,21.0
100.156,-3.094,5.776,20.0
189.405,-5.808,9.827,18.0
189.902,-5.782,8.757,18.0
87.601,-2.647,6.466,13.0
97.607,-2.928,6.637,8.0
97.074,-2.889,6.038,8.0
97.032,-2.867,5.463,20.0
189.61,-5.559,9.578,24.0
190.146,-5.533,8.504,14.0
88.317,-2.55,6.395,11.0
88.033,-2.523,5.863,18.0
96.967,-2.757,5.896,12.0
96.893,-2.734,5.32,11.0
189.469,-5.304,9.305,22.0
190.014,-5.279,8.234,18.0
87.999,-2.425,6.247,16.0
87.943,-2.405,5.732,11.0
96.666,-2.622,5.739,31.0
99.011,-2.664,5.293,30.0
189.484,-5.057,9.033,19.0
124.105,-3.285,5.197,31.0
97.231,-2.552,6.759,15.0
87.885,-2.288,5.599,16.0
96.715,-2.496,5.599,11.0
96.843,-2.48,5.034,5.0
123.964,-3.149,5.725,10.0
124.075,-3.126,5.012,49.0
95.829,-2.392,6.518,28.0
97.016,-2.402,6.036,10.0
87.854,-2.156,4.954,20.0
96.802,-2.357,4.887,30.0
124.137,-2.996,5.546,5.0
128.389,-3.074,4.994,22.0
86.582,-2.053,5.758,17.0
96.681,-2.272,5.867,38.0
96.763,-2.255,5.309,25.0
96.814,-2.237,4.74,50.0
96.928,-2.22,4.183,24.0
128.386,-2.914,4.796,28.0
86.689,-1.948,5.629,21.0
96.768,-2.155,5.72,14.0
128.35,-2.833,6.841,12.0
96.874,-2.119,4.59,32.0
96.904,-2.1,4.028,47.0
96.999,-2.084,3.469,9.0
97.126,-2.064,6.152,12.0
99.216,-2.088,5.705,16.0
190.246,-3.969,9.833,20.0
189.831,-3.923,8.688,20.0
96.932,-1.985,3.874,44.0
96.95,-1.967,3.312,27.0
98.746,-1.98,6.092,30.0
99.28,-1.972,5.548,16.0
190.377,-3.747,9.53,22.0
0.0,0.0,0.0,0.0
96.974,-1.871,3.715,22.0
96.861,-1.851,3.149,17.0
98.777,-1.865,5.93,22.0
190.212,-3.555,10.309,7.0
190.419,-3.524,9.213,17.0
126.571,-2.319,5.374,6.0
97.06,-1.761,3.556,6.0
89.7,-1.611,2.766,4.0
98.842,-1.754,5.768,36.0
191.465,-3.362,10.056,9.0
0.0,0.0,0.0,0.0
126.605,-2.178,5.162,31.0
96.989,-1.651,3.389,3.0
87.738,-1.478,2.556,1.0
98.977,-1.645,5.606,23.0
191.387,-3.147,9.722,14.0
126.511,-2.058,5.689,29.0
126.502,-2.035,4.937,3.0
97.022,-1.544,3.222,2.0
86.255,-1.358,2.364,0.0
99.3,-1.542,5.45,5.0
193.548,-2.973,9.494,21.0
126.519,-1.921,5.467,37.0
171.623,-2.577,6.398,12.0
89.8,-1.333,2.825,1.0
63.876,-0.937,1.637,0.0
193.384,-2.797,10.269,19.0
193.375,-2.764,9.138,18.0
126.494,-1.787,5.24,10.0
0.0,0.0,0.0,0.0
86.403,-1.192,2.564,1.0
0.0,0.0,0.0,0.0
90.636,-1.217,4.649,15.0
193.068,-2.561,8.777,18.0
0.0,0.0,0.0,0.0
90.747,-1.175,3.057,4.0
85.089,-1.088,2.37,1.0
57.483,-0.725,1.266,0.0
90.644,-1.126,4.484,39.0
90.671,-1.111,3.955,44.0
90.669,-1.098,3.427,39.0
90.52,-1.082,2.884,15.0
0.0,0.0,0.0,0.0
0.0,0.0,0.0,0.0
90.584,-1.037,4.313,37.0
90.622,-1.024,3.786,55.0
90.6,-1.01,3.257,49.0
84.076,-0.925,2.523,0.0
0.0,0.0,0.0,0.0
0.0,0.0,0.0,0.0
90.619,-0.952,4.146,41.0
90.613,-0.938,3.616,55.0
90.586,-0.925,3.086,32.0
83.123,-0.837,2.337,1.0
0.0,0.0,0.0,0.0
42.558,-0.416,0.7,0.0
90.648,-0.869,3.974,24.0
90.636,-0.856,3.443,39.0
90.497,-0.842,2.91,18.0
0.0,0.0,0.0,0.0
0.0,0.0,0.0,0.0
39.789,-0.353,0.579,0.0
193.999,-1.689,8.133,8.0
90.722,-0.777,3.273,16.0
83.002,-0.7,2.509,3.0
0.0,0.0,0.0,0.0
0.0,0.0,0.0,0.0
36.749,-0.295,0.464,0.0
180.484,-1.418,7.217,4.0
90.721,-0.7,3.097,6.0
81.854,-0.621,2.316,3.0
0.0,0.0,0.0,0.0
0.0,0.0,0.0,0.0
0.0,0.0,0.0,0.0
0.0,0.0,0.0,0.0
90.437,-0.625,2.91,7.0
0.0,0.0,0.0,0.0
0.0,0.0,0.0,0.0
38.523,-0.252,0.561,0.0
32.69,-0.209,0.285,1.0
0.0,0.0,0.0,0.0
82.855,-0.508,2.503,5.0
0.0,0.0,0.0,0.0
0.0,0.0,0.0,0.0
0.0,0.0,0.0,0.0
31.218,-0.177,0.21,1.0
104.631,-0.576,3.564,8.0
80.57,-0.434,2.273,2.0
0.0,0.0,0.0,0.0
41.158,-0.212,0.675,0.0
33.56,-0.169,0.355,0.0
28.841,-0.142,0.136,4.0
90.325,-0.432,2.895,2.0
0.0,0.0,0.0,0.0
0.0,0.0,0.0,0.0
38.624,-0.172,0.555,0.0
0.0,0.0,0.0,0.0
28.68,-0.121,0.077,6.0
82.818,-0.34,2.485,3.0
0.0,0.0,0.0,0.0
0.0,0.0,0.0,0.0
0.0,0.0,0.0,0.0
31.078,-0.114,0.202,0.0
27.311,-0.098,0.018,0.0
79.498,-0.274,2.223,3.0
0.0,0.0,0.0,0.0
0.0,0.0,0.0,0.0
33.332,-0.105,0.344,0.0
28.808,-0.088,0.129,5.0
25.931,-0.077,-0.035,0.0
0.0,0.0,0.0,0.0
0.0,0.0,0.0,0.0
38.056,-0.101,0.54,0.0
31.746,-0.081,0.262,0.0
28.626,-0.07,0.069,3.0
24.998,-0.059,-0.085,0.0
0.0,0.0,0.0,0.0
43.595,-0.094,0.783,0.0
36.211,-0.075,0.439,0.0
30.278,-0.06,0.187,0.0
26.797,-0.051,0.008,0.0
23.815,-0.043,-0.131,0.0
0.0,0.0,0.0,0.0
40.814,-0.066,0.648,0.0
33.278,-0.051,0.334,0.0
28.77,-0.042,0.117,2.0
25.766,-0.035,-0.045,0.0
22.582,-0.029,-0.171,0.0
0.0,0.0,0.0,0.0
37.399,-0.042,0.516,0.0
31.65,-0.033,0.251,0.0
28.084,-0.027,0.056,0.0
24.696,-0.022,-0.094,0.0
21.337,-0.017,-0.206,4.0
42.648,-0.032,0.749,0.0
0.0,0.0,0.0,0.0
30.217,-0.018,0.177,0.0
26.621,-0.014,-0.002,0.0
23.623,-0.011,-0.14,1.0
20.514,-0.008,-0.241,0.0
39.859,-0.012,0.616,0.0
33.16,-0.008,0.319,0.0
28.709,-0.005,0.108,1.0
25.548,-0.003,-0.055,0.0
22.189,-0.001,-0.178,0.0
19.243,0.0,-0.267,0.0
37.407,0.002,0.499,0.0
31.119,0.004,0.233,0.0
27.66,0.005,0.045,0.0
24.16,0.006,-0.104,0.0
21.148,0.006,-0.215,4.0
18.334,0.006,-0.293,0.0
34.569,0.014,0.388,0.0
30.188,0.014,0.162,0.0
26.339,0.014,-0.012,0.0
23.346,0.013,-0.149,1.0
20.064,0.013,-0.246,0.0
17.473,0.012,-0.316,0.0
32.507,0.024,0.296,0.0
28.661,0.022,0.093,1.0
25.304,0.021,-0.065,0.0
21.864,0.019,-0.186,1.0
18.923,0.018,-0.272,0.0
16.905,0.016,-0.342,0.0
30.709,0.031,0.214,0.0
27.269,0.029,0.031,0.0
24.009,0.026,-0.113,1.0
20.974,0.024,-0.223,2.0
18.088,0.021,-0.298,0.0
16.373,0.02,-0.366,0.0
28.829,0.036,0.139,0.0
26.056,0.034,-0.025,0.0
23.206,0.031,-0.158,0.0
19.68,0.027,-0.252,0.0
17.305,0.024,-0.322,0.0
15.903,0.023,-0.389,0.0
28.467,0.042,0.077,1.0
24.951,0.037,-0.077,0.0
21.583,0.033,-0.193,2.0
18.688,0.029,-0.279,0.0
16.728,0.027,-0.347,0.0
15.464,0.025,-0.412,0.0
26.95,0.044,0.016,0.0
23.655,0.039,-0.124,1.0
20.809,0.035,-0.231,0.0
17.877,0.031,-0.305,0.0
16.268,0.028,-0.373,0.0
14.778,0.026,-0.425,0.0
25.609,0.045,-0.039,0.0
22.5,0.04,-0.166,0.0
19.282,0.035,-0.255,0.0
17.124,0.031,-0.329,0.0
15.728,0.029,-0.394,0.0
14.445,0.027,-0.447,0.0
24.383,0.045,-0.09,0.0
21.296,0.04,-0.203,4.0
18.403,0.035,-0.283,0.0
16.581,0.032,-0.354,0.0
15.177,0.029,-0.413,0.0
13.899,0.027,-0.46,0.0
23.374,0.045,-0.137,1.0
20.169,0.039,-0.236,0.0
17.627,0.034,-0.309,0.0
16.126,0.032,-0.379,0.0
14.723,0.029,-0.432,0.0
13.589,0.027,-0.478,0.0
21.977,0.043,-0.175,1.0
19.053,0.037,-0.263,0.0
16.975,0.033,-0.334,0.0
15.597,0.031,-0.399,0.0
14.305,0.028,-0.45,0.0
13.197,0.026,-0.493,0.0
21.103,0.041,-0.213,3.0
18.177,0.035,-0.289,0.0
16.48,0.032,-0.359,0.0
15.035,0.029,-0.417,0.0
13.824,0.027,-0.465,0.0
12.919,0.025,-0.51,0.0
19.874,0.037,-0.242,0.0
17.418,0.032,-0.314,0.0
16.002,0.03,-0.383,0.0
14.536,0.027,-0.434,0.0
13.432,0.025,-0.48,0.0
12.546,0.023,-0.522,0.0
18.836,0.033,-0.269,0.0
16.848,0.03,-0.339,0.0
15.518,0.027,-0.403,0.0
14.123,0.025,-0.451,0.0
13.101,0.023,-0.495,0.0
12.262,0.021,-0.536,0.0
18.031,0.03,-0.296,0.0
16.361,0.027,-0.364,0.0
15.015,0.024,-0.422,0.0
13.749,0.022,-0.468,0.0
12.767,0.02,-0.509,0.0
11.93,0.019,-0.546,0.0
17.23,0.025,-0.318,0.0
15.867,0.023,-0.386,0.0
14.439,0.021,-0.436,0.0
13.342,0.019,-0.482,0.0
12.5,0.017,-0.525,0.0
11.678,0.016,-0.559,0.0
16.679,0.021,-0.343,0.0
15.3,0.019,-0.404,0.0
14.084,0.017,-0.454,0.0
13.053,0.016,-0.499,0.0
12.183,0.014,-0.537,0.0
11.37,0.013,-0.568,0.0
16.255,0.017,-0.368,0.0
14.837,0.015,-0.422,0.0
13.671,0.013,-0.469,0.0
12.723,0.012,-0.512,0.0
11.867,0.011,-0.547,0.0
11.158,0.01,-0.58,0.0
15.76,0.012,-0.389,0.0
14.458,0.01,-0.441,0.0
13.335,0.009,-0.485,0.0
12.438,0.008,-0.526,0.0
11.603,0.007,-0.559,0.0
10.928,0.006,-0.591,0.0
15.208,0.007,-0.406,0.0
14.028,0.006,-0.457,0.0
12.937,0.005,-0.497,0.0
12.159,0.004,-0.539,0.0
11.337,0.003,-0.569,0.0
10.701,0.002,-0.6,0.0
14.803,0.001,-0.426,0.0
13.643,0.001,-0.472,0.0
12.717,0.0,-0.514,0.0
11.835,0.0,-0.549,0.0
11.123,0.0,-0.581,0.0
10.521,-0.001,-0.611,0.0
14.338,-0.003,-0.441,0.0
13.276,-0.004,-0.486,0.0
12.405,-0.004,-0.527,0.0
11.558,-0.004,-0.56,0.0
10.87,-0.004,-0.59,0.0
10.298,-0.005,-0.619,0.0
13.955,-0.009,-0.457,0.0
12.919,-0.009,-0.499,0.0
12.033,-0.009,-0.535,0.0
11.297,-0.009,-0.569,0.0
10.672,-0.009,-0.601,0.0
10.067,-0.009,-0.625,0.0
13.583,-0.015,-0.472,0.0
12.689,-0.015,-0.515,0.0
11.788,-0.014,-0.547,0.0
11.061,-0.014,-0.579,0.0
10.432,-0.014,-0.608,0.0
9.864,-0.014,-0.632,0.0
13.276,-0.021,-0.487,0.0
12.356,-0.02,-0.526,0.0
11.57,-0.02,-0.56,0.0
10.877,-0.019,-0.591,0.0
10.306,-0.019,-0.62,0.0
9.683,-0.018,-0.64,0.0
12.931,-0.027,-0.5,0.0
12.068,-0.026,-0.537,0.0
11.286,-0.025,-0.568,0.0
10.66,-0.025,-0.6,0.0
10.09,-0.024,-0.627,0.0
9.584,-0.023,-0.652,0.0
12.585,-0.033,-0.511,0.0
11.832,-0.032,-0.549,0.0
11.08,-0.031,-0.579,0.0
10.402,-0.03,-0.605,0.0
9.83,-0.029,-0.63,0.0
9.366,-0.028,-0.655,0.0
12.371,-0.04,-0.526,0.0
11.604,-0.039,-0.561,0.0
10.904,-0.037,-0.591,0.0
10.275,-0.036,-0.618,0.0
9.703,-0.035,-0.64,0.0
9.145,-0.033,-0.657,0.0
12.03,-0.047,-0.534,0.0
11.316,-0.045,-0.568,0.0
10.667,-0.043,-0.598,0.0
10.03,-0.041,-0.622,0.0
9.53,-0.04,-0.646,0.0
9.095,-0.039,-0.67,0.0
11.823,-0.053,-0.546,0.0
11.102,-0.051,-0.578,0.0
10.416,-0.049,-0.603,0.0
0.0,0.0,0.0,0.0
9.4,-0.046,-0.655,0.0
0.0,0.0,0.0,0.0
11.576,-0.06,-0.556,0.0
10.949,-0.058,-0.59,0.0
10.27,-0.055,-0.613,0.0
9.72,-0.053,-0.638,0.0
0.0,0.0,0.0,0.0
0.0,0.0,0.0,0.0
11.338,-0.067,-0.565,0.0
10.726,-0.064,-0.597,0.0
10.119,-0.062,-0.622,0.0
9.574,-0.059,-0.646,0.0
0.0,0.0,0.0,0.0
0.0,0.0,0.0,0.0
11.171,-0.074,-0.577,0.0
10.487,-0.071,-0.602,0.0
9.971,-0.068,-0.631,0.0
9.447,-0.066,-0.654,0.0
0.0,0.0,0.0,0.0
8.55,-0.061,-0.692,0.0
10.973,-0.081,-0.585,0.0
10.312,-0.078,-0.61,0.0
9.763,-0.075,-0.635,0.0
0.0,0.0,0.0,0.0
0.0,0.0,0.0,0.0
8.36,-0.067,-0.691,0.0
10.759,-0.089,-0.593,0.0
10.226,-0.085,-0.623,0.0
9.665,-0.082,-0.645,0.0
0.0,0.0,0.0,0.0
8.63,-0.075,-0.678,0.0
8.308,-0.073,-0.701,0.0
10.525,-0.095,-0.598,0.0
0.0,0.0,0.0,0.0
0.0,0.0,0.0,0.0
0.0,0.0,0.0,0.0
0.0,0.0,0.0,0.0
8.209,-0.079,-0.706,0.0
10.429,-0.103,-0.609,0.0
9.84,-0.099,-0.632,0.0
9.317,-0.095,-0.653,0.0
0.0,0.0,0.0,0.0
8.444,-0.088,-0.691,0.0
8.089,-0.085,-0.709,0.0
10.232,-0.11,-0.614,0.0
0.0,0.0,0.0,0.0
0.0,0.0,0.0,0.0
0.0,0.0,0.0,0.0
0.0,0.0,0.0,0.0
8.008,-0.091,-0.715,0.0
9.976,-0.117,-0.615,0.0
0.0,0.0,0.0,0.0
9.039,-0.108,-0.663,0.0
0.0,0.0,0.0,0.0
8.263,-0.101,-0.703,0.0
0.0,0.0,0.0,0.0
9.978,-0.126,-0.631,0.0
0.0,0.0,0.0,0.0
0.0,0.0,0.0,0.0
0.0,0.0,0.0,0.0
8.169,-0.108,-0.708,0.0
0.0,0.0,0.0,0.0
9.8,-0.133,-0.635,0.0
9.327,-0.128,-0.658,0.0
0.0,0.0,0.0,0.0
0.0,0.0,0.0,0.0
0.0,0.0,0.0,0.0
0.0,0.0,0.0,0.0
9.666,-0.141,-0.641,0.0
9.128,-0.134,-0.658,0.0
8.645,-0.129,-0.674,0.0
8.298,-0.125,-0.696,0.0
7.96,-0.121,-0.714,0.0
0.0,0.0,0.0,0.0
0.0,0.0,0.0,0.0
0.0,0.0,0.0,0.0
8.582,-0.137,-0.681,0.0
8.229,-0.132,-0.702,0.0
7.943,-0.129,-0.724,0.0
0.0,0.0,0.0,0.0
9.361,-0.156,-0.648,0.0
0.0,0.0,0.0,0.0
8.482,-0.144,-0.686,0.0
0.0,0.0,0.0,0.0
7.831,-0.135,-0.725,0.0
0.0,0.0,0.0,0.0
0.0,0.0,0.0,0.0
0.0,0.0,0.0,0.0
8.432,-0.152,-0.693,0.0
0.0,0.0,0.0,0.0
0.0,0.0,0.0,0.0
7.384,-0.137,-0.737,0.0
9.094,-0.171,-0.655,0.0
0.0,0.0,0.0,0.0
0.0,0.0,0.0,0.0
0.0,0.0,0.0,0.0
0.0,0.0,0.0,0.0
7.356,-0.144,-0.744,0.0
9.037,-0.18,-0.663,0.0
8.591,-0.172,-0.68,0.0
0.0,0.0,0.0,0.0
0.0,0.0,0.0,0.0
0.0,0.0,0.0,0.0
7.275,-0.151,-0.746,0.0
8.988,-0.189,-0.671,0.0
8.509,-0.18,-0.684,0.0
0.0,0.0,0.0,0.0
0.0,0.0,0.0,0.0
0.0,0.0,0.0,0.0
7.192,-0.157,-0.746,0.0
8.911,-0.197,-0.676,0.0
0.0,0.0,0.0,0.0
0.0,0.0,0.0,0.0
0.0,0.0,0.0,0.0
0.0,0.0,0.0,0.0
7.118,-0.164,-0.747,0.0
8.705,-0.203,-0.671,0.0
0.0,0.0,0.0,0.0
0.0,0.0,0.0,0.0
7.633,-0.182,-0.722,0.0
7.32,-0.176,-0.735,0.0
7.064,-0.171,-0.75,0.0
8.656,-0.212,-0.677,0.0
8.315,-0.205,-0.699,0.0
0.0,0.0,0.0,0.0
7.646,-0.191,-0.732,0.0
7.29,-0.184,-0.74,0.0
7.001,-0.178,-0.752,0.0
8.598,-0.22,-0.683,0.0
8.224,-0.212,-0.7,0.0
0.0,0.0,0.0,0.0
0.0,0.0,0.0,0.0
7.238,-0.191,-0.743,0.0
6.961,-0.185,-0.755,0.0
8.502,-0.228,-0.684,0.0
8.133,-0.22,-0.702,0.0
0.0,0.0,0.0,0.0
0.0,0.0,0.0,0.0
7.185,-0.198,-0.745,0.0
0.0,0.0,0.0,0.0
8.434,-0.236,-0.688,0.0
0.0,0.0,0.0,0.0
0.0,0.0,0.0,0.0
0.0,0.0,0.0,0.0
7.143,-0.206,-0.748,0.0
6.847,-0.199,-0.757,0.0
0.0,0.0,0.0,0.0
0.0,0.0,0.0,0.0
0.0,0.0,0.0,0.0
0.0,0.0,0.0,0.0
7.102,-0.214,-0.751,0.0
6.803,-0.206,-0.759,0.0
8.256,-0.252,-0.69,0.0
0.0,0.0,0.0,0.0
0.0,0.0,0.0,0.0
7.303,-0.227,-0.737,0.0
7.031,-0.22,-0.75,0.0
6.779,-0.214,-0.763,0.0
8.246,-0.262,-0.697,0.0
0.0,0.0,0.0,0.0
7.6,-0.245,-0.73,0.0
7.265,-0.235,-0.74,0.0
6.985,-0.228,-0.752,0.0
6.74,-0.221,-0.765,0.0
8.179,-0.27,-0.698,0.0
0.0,0.0,0.0,0.0
7.519,-0.252,-0.728,0.0
7.258,-0.244,-0.746,0.0
6.947,-0.236,-0.754,0.0
6.686,-0.228,-0.764,0.0
8.102,-0.278,-0.699,0.0
0.0,0.0,0.0,0.0
7.482,-0.26,-0.731,0.0
7.192,-0.251,-0.745,0.0
0.0,0.0,0.0,0.0
6.639,-0.235,-0.765,0.0
8.102,-0.288,-0.705,0.0
0.0,0.0,0.0,0.0
0.0,0.0,0.0,0.0
7.133,-0.259,-0.745,0.0
6.836,-0.249,-0.753,0.0
6.601,-0.242,-0.765,0.0
8.034,-0.296,-0.705,0.0
0.0,0.0,0.0,0.0
0.0,0.0,0.0,0.0
0.0,0.0,0.0,0.0
6.843,-0.259,-0.759,0.0
6.598,-0.251,-0.77,0.0
7.996,-0.305,-0.708,0.0
0.0,0.0,0.0,0.0
0.0,0.0,0.0,0.0
0.0,0.0,0.0,0.0
6.862,-0.268,-0.766,0.0
6.54,-0.257,-0.768,0.0
0.0,0.0,0.0,0.0
0.0,0.0,0.0,0.0
7.265,-0.29,-0.731,0.0
0.0,0.0,0.0,0.0
6.8,-0.275,-0.763,0.0
6.545,-0.266,-0.772,0.0
0.0,0.0,0.0,0.0
0.0,0.0,0.0,0.0
7.262,-0.299,-0.735,0.0
0.0,0.0,0.0,0.0
6.774,-0.282,-0.764,0.0
6.491,-0.272,-0.77,0.0
0.0,0.0,0.0,0.0
0.0,0.0,0.0,0.0
7.262,-0.309,-0.739,0.0
0.0,0.0,0.0,0.0
6.761,-0.291,-0.767,0.0
6.486,-0.28,-0.773,0.0
0.0,0.0,0.0,0.0
0.0,0.0,0.0,0.0
7.226,-0.317,-0.74,0.0
0.0,0.0,0.0,0.0
6.736,-0.298,-0.767,0.0
6.459,-0.288,-0.773,0.0
0.0,0.0,0.0,0.0
7.508,-0.337,-0.729,0.0
7.236,-0.327,-0.744,0.0
0.0,0.0,0.0,0.0
6.703,-0.306,-0.767,0.0
0.0,0.0,0.0,0.0
0.0,0.0,0.0,0.0
7.47,-0.345,-0.729,0.0
7.222,-0.335,-0.746,0.0
0.0,0.0,0.0,0.0
6.636,-0.311,-0.762,0.0
0.0,0.0,0.0,0.0
