X,Y,Z,Reflectivity
25.004,-0.166,-0.088,0.0
0.0,0.0,0.0,0.0
47.184,-0.331,0.904,0.0
0.0,0.0,0.0,0.0
32.757,-0.241,0.285,1.0
28.764,-0.216,0.101,6.0
26.031,-0.2,-0.043,0.0
0.0,0.0,0.0,0.0
0.0,0.0,0.0,0.0
0.0,0.0,0.0,0.0
33.924,-0.284,0.358,0.0
28.883,-0.247,0.155,0.0
27.387,-0.239,0.005,0.0
83.141,-0.741,2.336,2.0
0.0,0.0,0.0,0.0
0.0,0.0,0.0,0.0
37.439,-0.352,0.466,0.0
32.043,-0.306,0.233,1.0
28.459,-0.276,0.059,1.0
89.825,-0.889,2.693,1.0
0.0,0.0,0.0,0.0
0.0,0.0,0.0,0.0
38.977,-0.404,0.559,0.0
33.217,-0.349,0.304,1.0
28.836,-0.307,0.115,0.0
90.576,-0.983,2.889,20.0
0.0,0.0,0.0,0.0
0.0,0.0,0.0,0.0
0.0,0.0,0.0,0.0
0.0,0.0,0.0,0.0
31.199,-0.361,0.185,0.0
90.734,-1.068,3.068,19.0
85.041,-1.013,2.435,1.0
0.0,0.0,0.0,0.0
0.0,0.0,0.0,0.0
38.172,-0.47,0.497,0.0
32.487,-0.405,0.255,1.0
171.354,-2.169,6.127,3.0
89.802,-1.148,2.746,3.0
0.0,0.0,0.0,0.0
0.0,0.0,0.0,0.0
39.11,-0.516,0.585,0.0
33.861,-0.451,0.331,1.0
171.434,-2.314,6.462,14.0
96.513,-1.315,3.139,2.0
0.0,0.0,0.0,0.0
0.0,0.0,0.0,0.0
43.486,-0.609,0.736,0.0
36.198,-0.511,0.426,0.0
126.204,-1.805,5.004,16.0
0.0,0.0,0.0,0.0
87.011,-1.266,2.551,1.0
64.099,-0.94,1.542,0.0
47.645,-0.705,0.901,0.0
38.278,-0.57,0.525,0.0
126.237,-1.904,5.256,11.0
171.79,-2.611,6.264,6.0
96.723,-1.48,3.026,3.0
0.0,0.0,0.0,0.0
0.0,0.0,0.0,0.0
39.486,-0.618,0.62,0.0
126.252,-1.996,5.505,25.0
126.278,-2.011,4.854,6.0
97.034,-1.555,3.228,7.0
87.854,-1.417,2.459,1.0
0.0,0.0,0.0,0.0
0.0,0.0,0.0,0.0
0.0,0.0,0.0,0.0
126.214,-2.096,5.099,40.0
96.969,-1.62,3.417,2.0
89.707,-1.508,2.689,4.0
0.0,0.0,0.0,0.0
48.519,-0.824,0.953,0.0
190.824,-3.277,9.078,8.0
126.188,-2.178,5.349,41.0
0.0,0.0,0.0,0.0
96.84,-1.689,3.095,15.0
0.0,0.0,0.0,0.0
0.0,0.0,0.0,0.0
190.58,-3.389,9.441,13.0
126.251,-2.256,5.602,12.0
126.303,-2.267,4.951,14.0
96.953,-1.748,3.291,34.0
89.296,-1.618,2.57,1.0
0.0,0.0,0.0,0.0
190.299,-3.495,9.809,19.0
190.134,-3.507,8.816,20.0
126.288,-2.339,5.204,18.0
96.945,-1.803,3.483,39.0
96.669,-1.804,2.974,4.0
0.0,0.0,0.0,0.0
190.041,-3.594,10.175,15.0
190.377,-3.612,9.206,21.0
0.0,0.0,0.0,0.0
96.937,-1.852,3.675,39.0
96.948,-1.859,3.174,20.0
0.0,0.0,0.0,0.0
99.265,-1.926,5.51,19.0
190.4,-3.707,9.585,22.0
189.912,-3.709,8.577,18.0
96.933,-1.898,3.866,38.0
96.961,-1.905,3.367,29.0
90.468,-1.783,2.674,1.0
99.103,-1.969,5.697,14.0
190.116,-3.787,9.946,18.0
189.999,-3.796,8.956,21.0
96.915,-1.941,4.058,37.0
96.955,-1.946,3.558,39.0
96.856,-1.95,3.055,8.0
98.918,-2.008,5.884,11.0
99.284,-2.019,5.391,9.0
190.308,-3.88,9.35,21.0
96.872,-1.979,4.249,30.0
96.928,-1.985,3.75,48.0
96.996,-1.99,3.252,3.0
0.0,0.0,0.0,0.0
99.213,-2.056,5.586,18.0
128.434,-2.665,6.566,10.0
96.869,-2.014,4.442,26.0
96.895,-2.018,3.943,44.0
97.027,-2.025,3.448,6.0
96.97,-2.04,6.157,13.0
107.105,-2.255,6.245,7.0
128.323,-2.706,6.816,14.0
96.829,-2.045,4.633,18.0
96.877,-2.049,4.135,43.0
96.988,-2.054,3.638,15.0
86.599,-1.848,5.67,18.0
96.697,-2.066,5.831,13.0
99.419,-2.126,5.479,9.0
96.854,-2.073,4.826,17.0
96.874,-2.076,4.325,47.0
96.952,-2.08,3.828,22.0
86.503,-1.869,5.835,28.0
96.669,-2.09,6.019,19.0
96.816,-2.095,5.527,15.0
96.816,-2.096,5.016,15.0
96.843,-2.098,4.515,45.0
96.934,-2.101,4.018,29.0
86.55,-1.89,6.01,11.0
86.711,-1.894,5.569,15.0
96.717,-2.113,5.711,30.0
96.897,-2.118,5.21,15.0
96.834,-2.117,4.704,41.0
96.88,-2.118,4.205,36.0
89.68,-1.975,6.403,16.0
86.541,-1.906,5.728,28.0
96.678,-2.129,5.897,27.0
96.804,-2.132,5.393,21.0
96.824,-2.133,4.892,25.0
96.852,-2.132,4.391,42.0
89.674,-1.989,6.578,19.0
86.511,-1.918,5.896,17.0
96.648,-2.142,6.085,14.0
96.738,-2.143,5.579,25.0
96.835,-2.144,5.081,22.0
96.825,-2.143,4.578,45.0
76.353,-1.702,5.749,23.0
87.017,-1.938,6.099,13.0
86.651,-1.928,5.621,19.0
96.68,-2.15,5.759,40.0
96.807,-2.152,5.265,21.0
96.811,-2.15,4.763,34.0
76.394,-1.708,5.899,26.0
89.734,-2.005,6.462,16.0
86.509,-1.931,5.779,20.0
96.637,-2.154,5.943,18.0
96.748,-2.154,5.448,25.0
96.815,-2.154,4.947,25.0
76.435,-1.712,6.049,31.0
76.338,-1.707,5.643,14.0
86.614,-1.934,5.95,14.0
96.617,-2.155,6.125,10.0
96.75,-2.155,5.63,31.0
96.836,-2.154,5.133,19.0
76.434,-1.712,6.195,22.0
76.377,-1.707,5.791,29.0
87.066,-1.943,6.147,14.0
86.603,-1.929,5.654,25.0
96.677,-2.15,5.808,36.0
96.804,-2.149,5.312,21.0
80.724,-1.804,6.694,18.0
76.443,-1.705,5.94,26.0
89.723,-1.997,6.504,24.0
86.502,-1.922,5.81,25.0
96.619,-2.142,5.985,17.0
96.747,-2.141,5.489,21.0
85.514,-1.904,7.252,11.0
76.442,-1.699,6.082,32.0
76.355,-1.692,5.675,15.0
86.578,-1.915,5.974,13.0
86.672,-1.913,5.527,11.0
96.755,-2.13,5.665,28.0
76.778,-1.701,6.653,22.0
76.424,-1.689,6.221,18.0
76.405,-1.684,5.818,22.0
89.69,-1.972,6.353,13.0
86.564,-1.898,5.68,27.0
96.699,-2.114,5.839,27.0
76.836,-1.691,6.799,3.0
80.732,-1.772,6.72,9.0
76.412,-1.671,5.959,26.0
89.585,-1.954,6.509,11.0
86.482,-1.88,5.832,28.0
96.707,-2.096,6.015,21.0
73.069,-1.594,6.599,17.0
67.415,-1.466,5.734,17.0
76.508,-1.658,6.105,30.0
89.094,-1.924,6.634,11.0
86.54,-1.863,5.991,14.0
86.667,-1.859,5.547,13.0
0.0,0.0,0.0,0.0
67.361,-1.449,5.851,20.0
76.432,-1.638,6.238,22.0
76.433,-1.632,5.828,28.0
75.573,-1.608,5.366,24.0
86.554,-1.834,5.693,18.0
65.785,-1.403,6.177,22.0
72.987,-1.55,6.47,11.0
76.796,-1.625,6.403,7.0
76.432,-1.61,5.963,28.0
75.363,-1.581,5.484,18.0
86.493,-1.808,5.84,15.0
63.693,-1.339,6.093,17.0
67.322,-1.409,6.086,9.0
67.386,-1.405,5.736,11.0
76.521,-1.588,6.103,27.0
76.027,-1.57,5.664,18.0
86.554,-1.78,5.994,15.0
63.749,-1.319,6.21,25.0
67.273,-1.385,6.198,23.0
0.0,0.0,0.0,0.0
76.48,-1.56,6.232,31.0
76.287,-1.548,5.814,9.0
75.629,-1.528,5.367,24.0
63.993,-1.301,6.345,32.0
63.674,-1.287,5.976,10.0
65.762,-1.322,5.824,22.0
76.249,-1.525,6.344,21.0
76.647,-1.526,5.973,11.0
75.54,-1.495,5.489,27.0
64.33,-1.281,6.488,33.0
63.703,-1.262,6.086,28.0
67.347,-1.327,6.077,30.0
67.447,-1.321,5.724,9.0
76.668,-1.493,6.102,14.0
75.911,-1.47,5.641,29.0
64.104,-1.249,6.572,29.0
63.717,-1.234,6.194,29.0
67.328,-1.296,6.188,21.0
73.291,-1.402,6.34,15.0
76.265,-1.45,6.195,23.0
76.134,-1.439,5.783,27.0
64.146,-1.219,6.682,27.0
63.885,-1.207,6.315,31.0
63.259,-1.187,5.916,6.0
65.585,-1.223,5.78,10.0
76.096,-1.41,6.303,24.0
76.322,-1.404,5.919,24.0
64.26,-1.189,6.797,29.0
64.262,-1.181,6.456,37.0
63.61,-1.161,6.052,12.0
65.481,-1.187,5.876,15.0
76.331,-1.373,6.445,22.0
76.287,-1.363,6.038,17.0
58.76,-1.056,6.31,9.0
64.312,-1.146,6.564,24.0
63.77,-1.128,6.168,30.0
63.332,-1.113,5.783,29.0
73.902,-1.288,6.355,11.0
66.568,-1.151,5.372,27.0
58.658,-1.02,6.391,7.0
64.27,-1.109,6.659,30.0
63.886,-1.093,6.278,33.0
63.372,-1.076,5.884,29.0
65.219,-1.098,5.709,32.0
66.541,-1.112,5.472,14.0
58.647,-0.984,6.48,14.0
64.382,-1.072,6.769,29.0
64.123,-1.058,6.4,29.0
63.472,-1.038,5.989,37.0
65.289,-1.059,5.813,25.0
73.894,-1.188,6.187,6.0
64.774,-1.047,7.255,24.0
58.74,-0.94,6.265,20.0
64.309,-1.02,6.514,30.0
63.659,-1.0,6.102,13.0
63.348,-0.986,5.734,14.0
65.171,-1.004,5.553,10.0
64.822,-1.004,7.358,20.0
58.7,-0.9,6.347,24.0
64.292,-0.976,6.607,21.0
58.526,-0.879,5.696,25.0
63.437,-0.943,5.834,32.0
65.194,-0.96,5.648,15.0
65.21,-0.965,7.495,36.0
65.025,-0.952,7.125,9.0
58.773,-0.851,6.123,26.0
64.28,-0.921,6.346,25.0
63.463,-0.899,5.926,23.0
66.311,-0.929,5.837,11.0
65.486,-0.921,7.62,19.0
57.269,-0.797,6.355,26.0
58.813,-0.809,6.209,30.0
64.259,-0.874,6.432,27.0
58.498,-0.786,5.542,16.0
64.042,-0.85,5.725,10.0
73.664,-0.982,8.671,33.0
57.266,-0.754,6.432,17.0
58.806,-0.764,6.288,27.0
64.327,-0.825,6.526,13.0
58.572,-0.742,5.627,24.0
64.032,-0.801,5.809,19.0
73.535,-0.923,8.755,19.0
57.269,-0.709,6.508,9.0
57.345,-0.701,6.208,11.0
58.907,-0.71,6.053,33.0
64.081,-0.761,6.24,7.0
64.01,-0.749,5.89,11.0
0.0,0.0,0.0,0.0
64.057,-0.741,7.364,12.0
57.296,-0.653,6.276,31.0
58.894,-0.661,6.127,28.0
64.149,-0.709,6.329,9.0
58.622,-0.638,5.468,25.0
57.814,-0.63,7.033,18.0
59.376,-0.637,6.901,13.0
57.271,-0.604,6.346,30.0
0.0,0.0,0.0,0.0
59.102,-0.603,5.904,20.0
58.613,-0.588,5.539,22.0
57.86,-0.582,7.11,26.0
64.581,-0.638,7.584,9.0
65.113,-0.631,7.294,8.0
57.388,-0.546,6.111,28.0
59.02,-0.551,5.966,26.0
58.783,-0.539,5.624,22.0
57.991,-0.532,7.195,30.0
64.436,-0.58,7.643,16.0
59.309,-0.523,6.713,14.0
57.329,-0.495,6.171,31.0
59.02,-0.499,6.034,29.0
63.913,-0.53,6.189,14.0
57.122,-0.473,7.153,32.0
64.48,-0.522,7.723,22.0
59.428,-0.471,6.793,26.0
57.078,-0.441,6.209,31.0
0.0,0.0,0.0,0.0
59.109,-0.435,5.789,2.0
56.755,-0.418,7.17,21.0
64.192,-0.46,7.759,11.0
59.475,-0.415,6.864,22.0
57.055,-0.388,6.268,23.0
57.429,-0.38,5.997,17.0
59.061,-0.379,5.847,12.0
56.781,-0.364,7.235,25.0
57.509,-0.358,7.013,27.0
59.49,-0.359,6.928,27.0
57.097,-0.334,6.332,23.0
57.306,-0.324,6.044,30.0
58.825,-0.322,5.884,31.0
57.3,-0.312,7.36,33.0
57.054,-0.3,7.015,31.0
59.313,-0.301,6.968,30.0
57.099,-0.279,6.39,22.0
57.162,-0.268,6.085,30.0
58.83,-0.265,5.943,32.0
58.12,-0.259,7.523,33.0
56.846,-0.243,7.046,27.0
59.271,-0.242,7.021,33.0
63.756,-0.248,7.197,9.0
57.147,-0.212,6.138,25.0
56.53,-0.198,5.763,24.0
58.313,-0.202,7.604,19.0
56.806,-0.186,7.094,27.0
59.252,-0.182,7.074,33.0
63.384,-0.183,7.213,13.0
57.206,-0.154,6.197,16.0
56.632,-0.141,5.825,27.0
58.297,-0.142,7.655,24.0
56.839,-0.128,7.149,18.0
57.177,-0.118,6.877,18.0
62.95,-0.117,7.219,30.0
57.242,-0.095,6.25,29.0
57.08,-0.084,5.92,31.0
58.042,-0.082,7.671,13.0
48.896,-0.06,6.192,17.0
57.132,-0.058,6.919,27.0
62.905,-0.052,7.266,31.0
57.328,-0.036,6.307,29.0
57.337,-0.025,5.994,32.0
58.138,-0.021,7.732,8.0
58.326,-0.009,7.434,26.0
56.946,0.001,6.943,29.0
59.576,0.013,6.929,29.0
57.222,0.023,6.341,28.0
57.99,0.035,6.107,32.0
58.248,0.04,7.791,7.0
57.99,0.052,7.436,21.0
57.039,0.062,6.998,24.0
59.534,0.077,6.969,13.0
56.215,0.083,6.27,24.0
57.222,0.096,6.068,27.0
48.361,0.086,6.505,24.0
58.305,0.114,7.518,32.0
49.071,0.106,6.055,25.0
57.094,0.134,6.723,21.0
56.254,0.144,6.314,15.0
57.257,0.158,6.111,31.0
51.013,0.145,6.896,5.0
62.392,0.19,8.087,10.0
49.088,0.159,6.09,16.0
57.126,0.197,6.765,26.0
56.57,0.206,6.386,13.0
56.834,0.218,6.102,31.0
48.56,0.192,6.596,22.0
48.505,0.201,6.318,22.0
58.262,0.253,7.264,10.0
57.319,0.261,6.823,31.0
52.253,0.248,5.93,15.0
56.404,0.278,6.09,28.0
51.202,0.26,6.986,23.0
48.652,0.256,6.366,22.0
49.109,0.268,6.152,19.0
57.434,0.325,6.869,30.0
57.272,0.335,6.532,16.0
56.296,0.34,6.109,25.0
51.227,0.317,7.017,28.0
48.628,0.31,6.389,22.0
48.272,0.318,6.073,18.0
60.185,0.408,7.23,15.0
57.317,0.399,6.567,19.0
56.369,0.404,6.146,29.0
51.357,0.376,7.061,25.0
48.595,0.365,6.409,23.0
48.409,0.373,6.114,22.0
0.0,0.0,0.0,0.0
48.841,0.395,5.619,8.0
56.521,0.468,6.188,26.0
51.386,0.435,7.089,15.0
48.829,0.423,6.462,22.0
48.781,0.431,6.182,22.0
58.802,0.532,7.118,28.0
52.405,0.484,6.051,5.0
56.514,0.533,6.211,31.0
49.36,0.474,6.83,27.0
49.087,0.481,6.516,23.0
48.986,0.49,6.228,23.0
58.58,0.596,7.114,9.0
52.44,0.545,6.075,23.0
56.78,0.601,6.262,27.0
49.389,0.531,6.852,28.0
49.259,0.539,6.557,23.0
48.754,0.543,6.216,29.0
58.751,0.665,7.155,8.0
52.562,0.605,6.107,8.0
56.811,0.665,6.283,25.0
49.387,0.587,6.868,24.0
49.314,0.596,6.58,23.0
48.726,0.599,6.227,26.0
49.215,0.614,6.008,23.0
52.39,0.663,6.102,9.0
56.843,0.731,6.303,16.0
51.54,0.673,7.182,13.0
48.58,0.643,6.495,24.0
47.794,0.642,6.12,22.0
49.192,0.67,6.017,15.0
48.954,0.676,5.714,22.0
49.839,0.697,5.538,9.0
51.524,0.732,7.191,16.0
48.432,0.698,6.486,23.0
47.493,0.693,6.092,21.0
48.947,0.723,5.998,26.0
48.844,0.731,5.71,29.0
50.258,0.761,5.594,22.0
51.655,0.794,7.219,24.0
48.022,0.747,6.439,35.0
47.425,0.746,6.091,21.0
48.981,0.78,6.009,30.0
48.799,0.786,5.712,25.0
50.167,0.817,5.591,30.0
51.688,0.854,7.231,19.0
48.1,0.803,6.455,27.0
47.45,0.802,6.1,31.0
48.906,0.835,6.006,22.0
48.844,0.843,5.723,38.0
50.178,0.875,5.597,21.0
51.656,0.913,7.231,27.0
48.029,0.858,6.45,29.0
47.881,0.864,6.159,22.0
48.941,0.891,6.013,34.0
49.183,0.905,5.765,23.0
50.297,0.934,5.613,25.0
51.659,0.973,7.233,22.0
47.995,0.912,6.447,22.0
0.0,0.0,0.0,0.0
48.969,0.948,6.017,23.0
48.832,0.955,5.725,18.0
50.173,0.99,5.599,25.0
52.012,1.039,7.282,17.0
47.996,0.967,6.447,22.0
45.751,0.931,5.885,20.0
49.074,1.007,6.029,25.0
0.0,0.0,0.0,0.0
50.121,1.045,5.591,34.0
52.138,1.102,7.297,13.0
47.974,1.022,6.441,16.0
45.761,0.983,5.883,17.0
49.232,1.066,6.045,26.0
45.689,0.997,5.351,11.0
50.038,1.101,5.577,28.0
52.148,1.162,7.293,16.0
47.993,1.077,6.438,10.0
45.793,1.036,5.882,20.0
45.309,1.032,5.558,22.0
45.657,1.048,5.341,31.0
49.887,1.154,5.554,26.0
51.855,1.215,7.245,31.0
47.853,1.128,6.412,5.0
45.759,1.087,5.87,19.0
45.338,1.084,5.554,32.0
50.325,1.211,5.879,15.0
49.755,1.206,5.53,11.0
50.394,1.236,7.031,9.0
50.624,1.25,6.773,22.0
45.678,1.136,5.851,20.0
45.328,1.134,5.543,25.0
50.313,1.267,5.866,14.0
49.774,1.262,5.521,30.0
44.007,1.129,6.129,12.0
51.049,1.318,6.818,25.0
45.344,1.177,5.796,19.0
45.325,1.184,5.531,18.0
45.594,1.198,5.304,31.0
45.776,1.21,5.065,9.0
44.011,1.178,6.118,14.0
47.678,1.283,6.354,13.0
45.276,1.225,5.774,23.0
45.397,1.236,5.526,21.0
45.471,1.245,5.275,47.0
46.099,1.269,5.086,20.0
47.164,1.314,6.54,3.0
47.753,1.337,6.348,6.0
44.677,1.258,5.683,20.0
45.379,1.284,5.508,30.0
45.461,1.294,5.258,24.0
46.128,1.32,5.073,14.0
43.886,1.269,6.069,34.0
44.186,1.285,5.857,17.0
43.962,1.284,5.575,28.0
45.369,1.332,5.489,28.0
45.571,1.345,5.253,20.0
46.063,1.366,5.047,24.0
43.986,1.319,6.065,39.0
44.136,1.33,5.831,18.0
44.021,1.333,5.563,18.0
45.442,1.382,5.478,20.0
45.576,1.393,5.233,19.0
46.083,1.415,5.029,16.0
44.089,1.369,6.059,25.0
43.904,1.369,5.78,33.0
44.008,1.378,5.541,16.0
45.465,1.43,5.459,14.0
45.722,1.445,5.228,16.0
46.202,1.467,5.019,18.0
44.305,1.422,6.066,19.0
43.767,1.411,5.739,30.0
0.0,0.0,0.0,0.0
45.471,1.478,5.435,39.0
45.72,1.492,5.203,23.0
48.93,1.604,5.289,5.0
43.972,1.456,5.996,34.0
43.767,1.455,5.715,32.0
0.0,0.0,0.0,0.0
45.459,1.523,5.408,27.0
45.816,1.542,5.188,28.0
48.913,1.653,5.258,14.0
43.856,1.497,5.953,29.0
43.737,1.499,5.684,36.0
45.312,1.558,5.628,27.0
45.596,1.574,5.396,14.0
46.038,1.595,5.184,17.0
55.277,1.922,5.908,12.0
43.642,1.533,5.896,27.0
43.712,1.541,5.653,39.0
45.359,1.604,5.604,33.0
45.77,1.624,5.387,26.0
46.077,1.641,5.158,28.0
48.537,1.734,5.155,18.0
43.441,1.568,5.839,32.0
43.857,1.588,5.641,34.0
45.333,1.647,5.569,34.0
45.752,1.668,5.353,33.0
46.001,1.682,5.118,20.0
48.468,1.778,5.114,19.0
43.475,1.61,5.812,32.0
44.184,1.642,5.651,21.0
45.408,1.692,5.545,37.0
45.781,1.711,5.322,26.0
48.64,1.824,5.375,7.0
48.558,1.826,5.087,22.0
43.54,1.654,5.787,33.0
44.118,1.68,5.609,35.0
45.519,1.738,5.524,36.0
45.998,1.761,5.311,30.0
45.458,1.746,4.987,19.0
48.215,1.857,5.013,24.0
43.677,1.698,5.771,27.0
44.432,1.732,5.613,19.0
45.673,1.785,5.505,20.0
45.846,1.796,5.257,28.0
45.415,1.784,4.946,13.0
48.174,1.898,4.969,15.0
44.044,1.751,5.782,19.0
44.923,1.791,5.636,21.0
45.816,1.831,5.483,24.0
45.552,1.825,5.184,26.0
0.0,0.0,0.0,0.0
50.301,2.025,5.145,18.0
44.228,1.797,5.766,19.0
0.0,0.0,0.0,0.0
0.0,0.0,0.0,0.0
45.465,1.86,5.132,35.0
49.514,2.03,5.304,19.0
50.226,2.064,5.091,32.0
44.869,1.861,5.808,21.0
45.674,1.898,5.646,20.0
45.716,1.903,5.387,25.0
45.461,1.897,5.089,35.0
56.325,2.355,5.98,4.0
50.346,2.11,5.055,24.0
0.0,0.0,0.0,0.0
45.862,1.943,5.625,20.0
45.692,1.939,5.339,26.0
45.447,1.932,5.043,26.0
56.243,2.396,5.916,16.0
50.37,2.15,5.008,11.0
45.626,1.965,5.816,19.0
45.817,1.976,5.574,20.0
45.633,1.972,5.286,24.0
48.522,2.101,5.335,13.0
56.258,2.44,5.861,14.0
0.0,0.0,0.0,0.0
45.256,1.983,5.722,26.0
45.729,2.006,5.515,35.0
45.577,2.003,5.232,29.0
48.381,2.13,5.269,19.0
50.38,2.222,5.195,22.0
51.447,2.273,5.008,4.0
45.24,2.015,5.67,20.0
45.812,2.044,5.476,25.0
45.751,2.044,5.203,20.0
56.379,2.523,6.078,10.0
50.338,2.256,5.136,28.0
49.536,2.223,4.768,16.0
45.422,2.054,5.643,20.0
45.665,2.069,5.407,30.0
48.38,2.194,5.448,5.0
56.403,2.562,6.018,12.0
50.706,2.307,5.116,24.0
49.455,2.253,4.705,14.0
0.0,0.0,0.0,0.0
45.675,2.099,5.355,34.0
48.363,2.226,5.389,28.0
50.855,2.343,5.367,25.0
50.713,2.34,5.058,24.0
53.41,2.467,5.019,7.0
45.946,2.139,5.6,16.0
45.632,2.126,5.296,35.0
48.281,2.252,5.323,19.0
50.604,2.363,5.28,24.0
49.602,2.319,4.888,7.0
53.791,2.517,4.99,28.0
45.828,2.161,5.531,29.0
45.592,2.152,5.236,22.0
51.542,2.435,5.619,15.0
50.438,2.385,5.201,28.0
49.604,2.348,4.828,20.0
53.875,2.553,4.932,26.0
45.783,2.185,5.468,28.0
48.3,2.307,5.487,19.0
51.246,2.45,5.523,25.0
50.431,2.413,5.137,16.0
49.549,2.373,4.76,20.0
49.265,2.361,4.447,19.0
45.8,2.211,5.41,25.0
48.248,2.331,5.418,22.0
50.549,2.443,5.382,21.0
56.141,2.716,5.645,5.0
49.728,2.407,4.712,21.0
49.272,2.387,4.384,22.0
48.214,2.352,5.632,11.0
48.281,2.356,5.358,4.0
50.485,2.465,5.309,25.0
53.998,2.638,5.359,6.0
49.661,2.428,4.64,23.0
49.199,2.407,4.313,21.0
48.186,2.373,5.564,19.0
50.6,2.493,5.548,20.0
50.491,2.489,5.242,24.0
49.681,2.45,4.864,21.0
49.452,2.44,4.555,22.0
49.209,2.43,4.248,14.0
48.012,2.385,5.479,23.0
50.535,2.512,5.472,23.0
56.316,2.8,5.77,6.0
49.68,2.471,4.796,21.0
49.364,2.456,4.479,29.0
58.549,2.915,4.973,8.0
47.611,2.385,5.366,22.0
50.516,2.531,5.399,24.0
49.652,2.488,5.018,12.0
49.645,2.489,4.723,23.0
49.279,2.471,4.402,32.0
58.569,2.938,4.893,20.0
48.106,2.427,5.354,22.0
50.361,2.541,5.311,24.0
49.664,2.507,4.948,21.0
49.511,2.499,4.64,23.0
49.258,2.487,4.33,34.0
65.756,3.321,5.4,11.0
48.405,2.459,5.317,26.0
49.513,2.515,5.15,23.0
49.722,2.526,4.882,26.0
49.489,2.514,4.566,22.0
63.267,3.214,5.47,9.0
66.183,3.363,5.339,13.0
48.393,2.472,5.245,14.0
49.765,2.542,5.103,22.0
49.758,2.541,4.812,19.0
49.377,2.522,4.483,29.0
58.56,2.991,4.977,12.0
58.21,2.973,4.61,20.0
0.0,0.0,0.0,0.0
49.703,2.551,5.022,23.0
49.605,2.546,4.723,22.0
49.32,2.531,4.404,27.0
65.7,3.371,5.485,20.0
58.202,2.986,4.522,23.0
48.884,2.521,5.151,16.0
49.649,2.559,4.941,23.0
49.554,2.554,4.643,20.0
49.283,2.539,4.326,23.0
65.719,3.385,5.387,13.0
58.232,2.999,4.436,9.0
49.389,2.556,5.128,24.0
51.66,2.672,5.062,4.0
49.487,2.559,4.561,18.0
58.547,3.026,5.049,17.0
66.366,3.429,5.338,8.0
64.462,3.329,4.811,20.0
49.79,2.584,5.091,24.0
49.637,2.574,4.786,18.0
49.38,2.56,4.473,26.0
58.537,3.033,4.956,22.0
58.228,3.016,4.592,30.0
64.512,3.34,4.714,23.0
49.657,2.582,4.999,20.0
49.597,2.578,4.703,20.0
49.302,2.56,4.388,20.0
65.633,3.407,5.453,28.0
58.23,3.021,4.5,30.0
80.83,4.191,5.777,25.0
49.704,2.588,4.923,13.0
49.555,2.578,4.619,13.0
58.539,3.044,5.115,21.0
58.413,3.035,4.759,6.0
64.908,3.37,4.911,10.0
80.628,4.185,5.633,36.0
51.705,2.694,5.037,7.0
49.437,2.573,4.528,23.0
58.541,3.044,5.021,24.0
58.281,3.029,4.653,14.0
64.505,3.35,4.775,22.0
80.549,4.18,5.497,32.0
49.62,2.585,4.753,18.0
49.336,2.567,4.437,23.0
65.688,3.415,5.525,10.0
58.228,3.024,4.554,32.0
64.606,3.353,4.677,14.0
80.542,4.176,5.364,30.0
49.587,2.58,4.667,14.0
58.549,3.043,5.169,13.0
65.621,3.407,5.411,14.0
58.219,3.02,4.455,16.0
80.728,4.183,5.71,35.0
81.035,4.196,5.262,35.0
49.462,2.569,4.573,15.0
58.563,3.038,5.073,21.0
58.476,3.03,4.725,10.0
64.482,3.337,4.829,23.0
80.608,4.168,5.57,34.0
81.444,4.207,5.156,24.0
49.371,2.558,4.482,30.0
58.557,3.03,4.975,24.0
58.245,3.01,4.61,32.0
64.524,3.331,4.725,30.0
80.597,4.155,5.433,33.0
81.329,4.188,5.012,16.0
49.301,2.545,4.392,28.0
65.662,3.386,5.466,25.0
58.213,2.998,4.507,25.0
80.791,4.155,5.778,26.0
80.83,4.152,5.311,32.0
80.937,4.152,4.849,32.0
49.265,2.533,4.304,15.0
66.164,3.397,5.394,11.0
64.195,3.291,4.861,17.0
80.767,4.135,5.638,32.0
81.363,4.159,5.207,30.0
80.973,4.134,4.714,33.0
63.306,3.239,5.423,8.0
58.197,2.973,4.645,18.0
64.424,3.286,4.768,12.0
80.805,4.115,5.502,35.0
81.542,4.146,5.08,20.0
80.776,4.102,4.565,35.0
58.56,2.979,4.915,18.0
58.183,2.955,4.544,22.0
64.881,3.29,4.69,13.0
80.941,4.097,5.372,18.0
81.511,4.119,4.937,26.0
81.01,4.087,4.438,37.0
65.861,3.328,5.414,12.0
64.094,3.233,4.895,14.0
64.993,3.273,4.586,11.0
81.417,4.092,5.263,17.0
81.285,4.078,4.783,38.0
81.27,4.071,4.312,32.0
58.209,2.92,4.683,11.0
64.544,3.231,4.817,16.0
80.919,4.043,5.568,14.0
81.52,4.066,5.128,22.0
81.395,4.051,4.648,31.0
80.825,4.015,4.148,32.0
58.14,2.892,4.575,17.0
64.903,3.222,4.73,10.0
81.355,4.03,5.456,9.0
81.475,4.028,4.983,33.0
81.42,4.017,4.508,19.0
80.938,3.985,4.012,25.0
58.257,2.871,4.481,12.0
64.998,3.196,4.622,13.0
81.412,3.994,5.317,24.0
81.369,3.983,4.834,41.0
81.037,3.959,4.344,35.0
80.875,3.943,3.867,1.0
80.331,3.918,6.039,18.0
65.048,3.166,4.511,18.0
81.405,3.953,5.173,34.0
81.308,3.938,4.687,36.0
80.757,3.903,4.187,34.0
0.0,0.0,0.0,0.0
80.239,3.87,5.89,35.0
65.084,3.131,4.399,30.0
81.431,3.908,5.03,33.0
81.308,3.893,4.544,26.0
80.801,3.859,4.047,29.0
0.0,0.0,0.0,0.0
80.34,3.829,5.755,31.0
65.122,3.095,4.287,28.0
81.371,3.857,4.883,36.0
81.075,3.834,4.388,31.0
80.872,3.814,3.908,5.0
0.0,0.0,0.0,0.0
80.315,3.777,5.612,20.0
81.333,3.814,5.21,23.0
81.208,3.798,4.73,35.0
80.998,3.777,4.24,36.0
48.943,2.276,2.278,0.0
0.0,0.0,0.0,0.0
65.911,3.055,4.488,30.0
81.629,3.773,5.083,19.0
81.172,3.741,4.584,34.0
80.9,3.718,4.092,33.0
48.919,2.241,2.191,5.0
48.272,2.206,1.883,1.0
65.552,2.993,4.347,42.0
81.294,3.7,4.919,12.0
81.252,3.686,4.445,34.0
80.982,3.662,3.952,11.0
48.743,2.198,2.097,7.0
47.996,2.157,1.787,2.0
65.337,2.933,4.216,24.0
65.559,2.934,3.851,16.0
81.181,3.621,4.298,33.0
0.0,0.0,0.0,0.0
48.616,2.155,2.006,3.0
47.888,2.116,1.698,3.0
65.424,2.886,4.107,31.0
65.54,2.881,3.734,31.0
81.141,3.555,4.153,14.0
0.0,0.0,0.0,0.0
48.576,2.113,1.919,1.0
47.958,2.08,1.618,2.0
65.444,2.833,3.994,25.0
65.549,2.827,3.62,40.0
65.574,2.818,3.242,34.0
0.0,0.0,0.0,0.0
48.526,2.07,1.832,2.0
48.207,2.049,1.541,7.0
65.452,2.777,3.879,23.0
65.561,2.77,3.505,44.0
65.557,2.759,3.126,23.0
48.673,2.041,2.035,11.0
48.54,2.028,1.749,3.0
48.372,2.013,1.463,4.0
65.49,2.719,3.768,32.0
65.547,2.71,3.391,58.0
65.591,2.701,3.013,3.0
48.651,1.996,1.949,10.0
48.708,1.99,1.67,3.0
48.627,1.979,1.386,2.0
65.544,2.659,3.656,45.0
65.562,2.649,3.278,40.0
0.0,0.0,0.0,0.0
49.239,1.973,1.888,1.0
48.9,1.951,1.592,2.0
48.993,1.946,1.312,2.0
65.591,2.596,3.546,24.0
65.631,2.587,3.169,31.0
0.0,0.0,0.0,0.0
49.319,1.927,1.806,1.0
49.168,1.912,1.517,2.0
49.23,1.906,1.234,2.0
81.123,3.13,4.247,29.0
81.08,3.113,3.776,20.0
50.365,1.924,2.054,1.0
49.509,1.882,1.728,3.0
49.58,1.877,1.444,2.0
49.635,1.87,1.16,0.0
81.221,3.047,4.113,30.0
81.167,3.03,3.641,2.0
50.336,1.87,1.967,1.0
49.838,1.842,1.655,2.0
49.908,1.836,1.37,2.0
50.445,1.846,1.094,0.0
81.153,2.956,3.972,30.0
56.087,2.032,2.421,1.0
50.381,1.816,1.884,2.0
50.162,1.798,1.581,2.0
50.251,1.792,1.294,1.0
50.693,1.798,1.014,0.0
81.061,2.861,3.832,17.0
0.0,0.0,0.0,0.0
50.547,1.764,1.805,3.0
50.476,1.752,1.507,2.0
50.629,1.748,1.22,0.0
48.458,1.663,0.888,2.0
81.625,2.785,3.722,5.0
0.0,0.0,0.0,0.0
50.901,1.716,1.733,2.0
53.924,1.807,1.52,0.0
0.0,0.0,0.0,0.0
45.4,1.503,0.757,0.0
0.0,0.0,0.0,0.0
0.0,0.0,0.0,0.0
51.243,1.665,1.66,3.0
54.094,1.746,1.435,150.0
54.868,1.761,1.14,4.0
0.0,0.0,0.0,0.0
0.0,0.0,0.0,0.0
0.0,0.0,0.0,0.0
54.159,1.692,1.666,2.0
54.227,1.683,1.351,9.0
55.35,1.706,1.06,1.0
37.891,1.16,0.507,0.0
0.0,0.0,0.0,0.0
0.0,0.0,0.0,0.0
54.074,1.62,1.576,4.0
54.358,1.617,1.266,1.0
0.0,0.0,0.0,0.0
35.435,1.038,0.417,0.0
0.0,0.0,0.0,0.0
54.025,1.559,1.798,0.0
54.086,1.548,1.489,36.0
56.217,1.597,1.219,5.0
46.1,1.3,0.734,0.0
33.712,0.943,0.343,0.0
0.0,0.0,0.0,0.0
54.155,1.49,1.717,3.0
54.057,1.475,1.403,1.0
56.526,1.53,1.137,3.0
38.595,1.035,0.554,0.0
32.555,0.866,0.28,0.0
0.0,0.0,0.0,0.0
54.166,1.416,1.633,2.0
54.394,1.409,1.327,1.0
47.578,1.221,0.883,0.0
36.481,0.928,0.467,0.0
31.427,0.792,0.222,0.0
54.372,1.357,1.868,2.0
54.22,1.34,1.551,0.0
57.835,1.416,1.322,2.0
46.925,1.138,0.799,1.0
35.806,0.86,0.404,0.0
29.015,0.69,0.16,0.0
54.382,1.279,1.785,1.0
54.255,1.263,1.469,1.0
57.869,1.333,1.235,5.0
0.0,0.0,0.0,0.0
33.707,0.76,0.329,0.0
28.834,0.643,0.116,1.0
54.324,1.198,1.702,1.0
54.197,1.181,1.386,0.0
0.0,0.0,0.0,0.0
0.0,0.0,0.0,0.0
32.502,0.684,0.268,0.0
28.547,0.594,0.072,1.0
54.374,1.117,1.622,0.0
54.464,1.105,1.312,0.0
0.0,0.0,0.0,0.0
36.821,0.728,0.461,0.0
31.082,0.607,0.211,0.0
27.151,0.523,0.028,0.0
0.0,0.0,0.0,0.0
0.0,0.0,0.0,0.0
0.0,0.0,0.0,0.0
35.071,0.639,0.388,0.0
28.927,0.519,0.154,0.0
26.461,0.468,-0.01,0.0
54.997,0.958,1.48,2.0
0.0,0.0,0.0,0.0
0.0,0.0,0.0,0.0
34.045,0.566,0.327,0.0
28.803,0.471,0.112,1.0
25.738,0.414,-0.046,0.0
55.438,0.877,1.413,0.0
0.0,0.0,0.0,0.0
38.05,0.581,0.534,0.0
0.0,0.0,0.0,0.0
28.47,0.42,0.07,1.0
24.968,0.361,-0.08,0.0
0.0,0.0,0.0,0.0
0.0,0.0,0.0,0.0
35.721,0.487,0.451,0.0
31.04,0.415,0.211,0.0
27.341,0.358,0.03,0.0
24.111,0.309,-0.111,0.0
57.645,0.721,1.309,1.0
0.0,0.0,0.0,0.0
35.061,0.419,0.395,0.0
28.914,0.337,0.157,4.0
26.475,0.301,-0.007,0.0
23.447,0.261,-0.14,0.0
55.119,0.596,1.178,0.0
41.063,0.432,0.642,0.0
33.816,0.347,0.336,0.0
28.829,0.288,0.119,5.0
25.899,0.251,-0.041,0.0
22.448,0.211,-0.163,0.0
0.0,0.0,0.0,0.0
38.787,0.342,0.556,0.0
32.087,0.274,0.277,0.0
28.702,0.237,0.081,4.0
25.144,0.2,-0.072,0.0
22.15,0.17,-0.189,3.0
0.0,0.0,0.0,0.0
36.852,0.262,0.482,0.0
30.695,0.209,0.226,0.0
27.562,0.18,0.043,0.0
24.391,0.152,-0.1,0.0
21.385,0.127,-0.21,3.0
0.0,0.0,0.0,0.0
0.0,0.0,0.0,0.0
30.069,0.152,0.184,0.0
26.666,0.127,0.009,0.0
23.64,0.106,-0.126,0.0
20.883,0.087,-0.23,1.0
41.397,0.162,0.676,0.0
34.064,0.123,0.362,0.0
28.835,0.095,0.142,0.0
26.207,0.079,-0.022,0.0
23.138,0.062,-0.151,1.0
19.985,0.048,-0.244,0.0
38.739,0.081,0.586,0.0
0.0,0.0,0.0,0.0
28.713,0.043,0.108,1.0
25.614,0.03,-0.051,0.0
22.424,0.02,-0.173,0.0
19.404,0.011,-0.26,0.0
0.0,0.0,0.0,0.0
33.044,0.0,0.274,0.0
28.377,-0.008,0.074,1.0
24.965,-0.014,-0.078,0.0
21.56,-0.019,-0.191,1.0
18.734,-0.022,-0.272,0.0
36.026,-0.055,0.463,0.0
31.213,-0.057,0.224,0.0
27.594,-0.059,0.041,0.0
24.026,-0.059,-0.102,0.0
21.135,-0.058,-0.21,0.0
18.407,-0.056,-0.288,0.0
35.574,-0.12,0.419,0.0
29.024,-0.107,0.176,1.0
26.703,-0.107,0.01,0.0
23.79,-0.103,-0.127,0.0
20.592,-0.095,-0.227,0.0
18.006,-0.089,-0.301,0.0
33.217,-0.174,0.356,0.0
28.827,-0.16,0.145,6.0
26.455,-0.156,-0.016,0.0
23.071,-0.143,-0.147,0.0
19.992,-0.13,-0.241,0.0
17.622,-0.12,-0.312,0.0
32.789,-0.233,0.318,1.0
28.754,-0.214,0.115,7.0
25.633,-0.199,-0.042,0.0
22.636,-0.183,-0.167,0.0
19.447,-0.163,-0.254,0.0
17.364,-0.151,-0.325,0.0
32.308,-0.291,0.281,1.0
28.605,-0.267,0.087,3.0
25.163,-0.243,-0.065,0.0
22.247,-0.222,-0.186,0.0
19.062,-0.196,-0.267,0.0
16.993,-0.181,-0.335,0.0
31.877,-0.348,0.247,1.0
27.9,-0.314,0.058,0.0
24.725,-0.286,-0.088,0.0
21.624,-0.257,-0.201,0.0
18.672,-0.228,-0.279,0.0
16.774,-0.211,-0.346,0.0
30.604,-0.393,0.209,0.0
27.225,-0.359,0.032,0.0
24.149,-0.326,-0.107,0.0
21.188,-0.293,-0.216,0.0
18.208,-0.258,-0.289,0.0
16.589,-0.241,-0.357,0.0
30.16,-0.446,0.179,0.0
26.663,-0.403,0.008,0.0
23.674,-0.366,-0.126,1.0
20.439,-0.323,-0.226,0.0
18.045,-0.291,-0.302,0.0
16.37,-0.269,-0.366,0.0
28.777,-0.482,0.147,0.0
26.173,-0.447,-0.014,0.0
23.32,-0.406,-0.144,0.0
19.891,-0.353,-0.237,0.0
17.669,-0.32,-0.31,0.0
16.155,-0.298,-0.375,0.0
28.718,-0.537,0.123,5.0
25.887,-0.493,-0.034,0.0
22.922,-0.444,-0.16,0.0
19.592,-0.386,-0.249,0.0
17.416,-0.349,-0.319,0.0
15.974,-0.326,-0.383,0.0
28.666,-0.593,0.101,6.0
25.244,-0.531,-0.053,0.0
22.403,-0.479,-0.173,0.0
19.292,-0.419,-0.26,0.0
17.195,-0.379,-0.328,0.0
15.788,-0.354,-0.391,0.0
28.544,-0.647,0.079,3.0
25.085,-0.577,-0.071,0.0
22.155,-0.517,-0.187,0.0
18.994,-0.45,-0.269,0.0
16.969,-0.408,-0.336,0.0
15.618,-0.381,-0.398,0.0
28.263,-0.697,0.058,1.0
24.462,-0.612,-0.086,0.0
21.959,-0.556,-0.201,0.0
18.619,-0.478,-0.277,0.0
16.838,-0.438,-0.345,0.0
15.367,-0.405,-0.401,0.0
27.403,-0.731,0.038,0.0
0.0,0.0,0.0,0.0
21.019,-0.575,-0.206,2.0
18.319,-0.507,-0.284,0.0
16.686,-0.468,-0.353,0.0
15.251,-0.433,-0.408,0.0
27.137,-0.777,0.021,0.0
23.714,-0.688,-0.114,0.0
20.993,-0.616,-0.219,1.0
18.122,-0.538,-0.292,0.0
16.507,-0.496,-0.359,0.0
15.058,-0.458,-0.412,0.0
27.072,-0.83,0.005,0.0
23.513,-0.729,-0.127,0.0
20.923,-0.656,-0.23,1.0
17.992,-0.57,-0.3,0.0
16.417,-0.526,-0.366,0.0
14.908,-0.483,-0.416,0.0
26.36,-0.861,-0.009,0.0
23.363,-0.771,-0.139,0.0
20.816,-0.694,-0.24,0.0
17.764,-0.599,-0.306,0.0
16.23,-0.553,-0.371,0.0
14.836,-0.511,-0.422,0.0
25.908,-0.899,-0.022,0.0
22.866,-0.801,-0.147,0.0
19.977,-0.707,-0.24,0.0
17.599,-0.629,-0.312,0.0
16.056,-0.58,-0.375,0.0
14.718,-0.537,-0.426,0.0
25.953,-0.953,-0.034,0.0
22.925,-0.85,-0.158,1.0
19.568,-0.733,-0.245,0.0
17.417,-0.658,-0.317,0.0
15.949,-0.609,-0.379,0.0
14.66,-0.565,-0.431,0.0
25.617,-0.993,-0.045,0.0
22.667,-0.887,-0.167,1.0
19.406,-0.766,-0.251,0.0
17.289,-0.689,-0.322,0.0
15.884,-0.639,-0.385,0.0
14.523,-0.589,-0.433,0.0
25.73,-1.049,-0.056,1.0
22.455,-0.924,-0.174,2.0
19.296,-0.8,-0.257,0.0
17.276,-0.723,-0.328,0.0
15.811,-0.667,-0.389,0.0
14.474,-0.616,-0.437,0.0
25.68,-1.099,-0.065,1.0
22.312,-0.963,-0.181,1.0
19.158,-0.834,-0.262,0.0
17.133,-0.751,-0.331,0.0
15.717,-0.695,-0.392,0.0
14.347,-0.64,-0.438,0.0
25.188,-1.129,-0.072,0.0
22.076,-0.997,-0.186,0.0
19.07,-0.868,-0.267,0.0
17.018,-0.781,-0.334,0.0
15.623,-0.723,-0.394,0.0
14.325,-0.668,-0.441,0.0
24.598,-1.152,-0.077,0.0
22.01,-1.039,-0.191,1.0
18.985,-0.903,-0.27,0.0
17.004,-0.815,-0.339,0.0
15.533,-0.75,-0.396,0.0
14.254,-0.694,-0.443,0.0
24.836,-1.213,-0.084,0.0
21.937,-1.079,-0.196,1.0
18.885,-0.936,-0.273,0.0
16.879,-0.842,-0.34,0.0
15.525,-0.781,-0.399,0.0
14.246,-0.722,-0.445,0.0
23.842,-1.212,-0.085,0.0
22.092,-1.131,-0.202,1.0
18.811,-0.97,-0.276,0.0
16.89,-0.877,-0.343,0.0
15.482,-0.81,-0.401,0.0
14.195,-0.748,-0.446,0.0
24.001,-1.268,-0.09,0.0
21.869,-1.163,-0.203,0.0
18.794,-1.007,-0.279,0.0
16.867,-0.91,-0.345,0.0
34.082,-1.851,-0.888,0.0
14.166,-0.775,-0.447,0.0
34.257,-1.879,-0.133,6.0
34.203,-1.888,-0.322,1.0
18.67,-1.037,-0.279,0.0
16.806,-0.94,-0.346,0.0
34.18,-1.924,-0.894,0.0
14.133,-0.801,-0.448,0.0
34.179,-1.942,-0.135,0.0
21.506,-1.229,-0.204,0.0
18.693,-1.075,-0.281,0.0
16.755,-0.97,-0.346,0.0
15.287,-0.89,-0.4,0.0
14.07,-0.825,-0.446,0.0
24.136,-1.418,-0.097,0.0
21.708,-1.283,-0.207,0.0
18.639,-1.109,-0.281,0.0
16.636,-0.996,-0.344,0.0
15.334,-0.923,-0.402,0.0
14.125,-0.856,-0.448,0.0
24.229,-1.471,-0.097,0.0
21.712,-1.326,-0.207,0.0
18.606,-1.143,-0.28,0.0
16.724,-1.034,-0.346,0.0
15.339,-0.954,-0.402,0.0
14.107,-0.882,-0.448,0.0
24.332,-1.525,-0.097,0.0
21.585,-1.36,-0.205,0.0
18.58,-1.178,-0.279,0.0
16.749,-1.068,-0.346,0.0
15.267,-0.979,-0.399,0.0
14.119,-0.91,-0.447,0.0
24.335,-1.572,-0.095,0.0
21.654,-1.406,-0.204,0.0
18.663,-1.219,-0.279,0.0
16.771,-1.101,-0.345,0.0
15.258,-1.007,-0.398,0.0
14.136,-0.938,-0.447,0.0
24.51,-1.629,-0.094,0.0
21.645,-1.447,-0.202,0.0
18.677,-1.255,-0.277,0.0
16.815,-1.136,-0.344,0.0
15.332,-1.041,-0.398,0.0
14.149,-0.966,-0.445,0.0
24.318,-1.663,-0.09,0.0
21.845,-1.502,-0.201,0.0
18.789,-1.298,-0.276,0.0
16.84,-1.169,-0.342,0.0
15.425,-1.077,-0.398,0.0
14.237,-0.999,-0.445,0.0
33.92,-2.383,-0.119,7.0
33.927,-2.396,-0.305,1.0
18.89,-1.34,-0.274,0.0
16.943,-1.208,-0.34,0.0
15.459,-1.108,-0.395,0.0
14.197,-1.022,-0.441,0.0
33.907,-2.445,-0.112,8.0
33.924,-2.458,-0.298,1.0
19.008,-1.384,-0.271,0.0
17.037,-1.246,-0.338,0.0
15.53,-1.142,-0.394,0.0
14.276,-1.055,-0.44,0.0
33.9,-2.507,-0.104,19.0
33.902,-2.518,-0.289,7.0
19.089,-1.425,-0.268,0.0
17.062,-1.279,-0.334,0.0
15.559,-1.172,-0.39,0.0
14.271,-1.08,-0.436,0.0
33.895,-2.568,-0.094,6.0
33.898,-2.58,-0.28,2.0
19.173,-1.466,-0.263,0.0
17.171,-1.319,-0.331,0.0
15.655,-1.208,-0.388,0.0
14.373,-1.114,-0.435,0.0
33.875,-2.628,-0.083,3.0
33.868,-2.639,-0.268,2.0
19.657,-1.539,-0.263,0.0
17.23,-1.355,-0.327,0.0
15.798,-1.248,-0.386,0.0
14.425,-1.144,-0.431,0.0
33.877,-2.689,-0.071,2.0
33.878,-2.701,-0.256,3.0
19.748,-1.581,-0.257,0.0
17.437,-1.402,-0.324,0.0
15.694,-1.267,-0.377,0.0
14.564,-1.181,-0.43,0.0
33.859,-2.748,-0.057,0.0
33.857,-2.759,-0.242,4.0
19.766,-1.617,-0.249,0.0
17.566,-1.443,-0.319,0.0
15.855,-1.308,-0.375,0.0
14.641,-1.212,-0.426,0.0
33.852,-2.805,-0.043,0.0
33.848,-2.816,-0.228,5.0
20.336,-1.698,-0.248,0.0
17.725,-1.486,-0.314,0.0
16.074,-1.353,-0.373,0.0
14.705,-1.243,-0.421,0.0
26.153,-2.212,-0.021,0.0
23.211,-1.97,-0.146,1.0
20.665,-1.761,-0.242,0.0
17.811,-1.524,-0.308,0.0
16.27,-1.397,-0.37,0.0
14.838,-1.28,-0.418,0.0
26.7,-2.303,-0.009,0.0
23.32,-2.019,-0.135,1.0
20.804,-1.808,-0.233,1.0
17.885,-1.56,-0.3,0.0
16.339,-1.43,-0.363,0.0
14.831,-1.303,-0.41,0.0
27.193,-2.391,0.004,0.0
23.466,-2.07,-0.123,0.0
20.886,-1.85,-0.223,2.0
18.286,-1.625,-0.297,0.0
16.606,-1.481,-0.36,0.0
15.104,-1.352,-0.409,0.0
27.474,-2.461,0.02,0.0
23.64,-2.125,-0.111,0.0
21.231,-1.915,-0.215,1.0
18.488,-1.674,-0.289,0.0
16.808,-1.527,-0.354,0.0
15.254,-1.391,-0.404,0.0
27.524,-2.51,0.036,0.0
24.599,-2.251,-0.101,0.0
21.638,-1.986,-0.206,1.0
18.813,-1.733,-0.283,0.0
16.942,-1.566,-0.347,0.0
15.414,-1.429,-0.399,0.0
28.179,-2.614,0.054,0.0
25.02,-2.328,-0.087,0.0
22.189,-2.071,-0.197,1.0
19.166,-1.795,-0.276,0.0
17.132,-1.61,-0.34,0.0
15.586,-1.469,-0.394,0.0
28.614,-2.698,0.074,0.0
25.437,-2.406,-0.071,0.0
22.458,-2.131,-0.185,1.0
19.45,-1.852,-0.267,0.0
17.383,-1.66,-0.333,0.0
15.758,-1.51,-0.387,0.0
28.944,-2.774,0.094,2.0
25.598,-2.46,-0.054,0.0
22.736,-2.192,-0.171,1.0
19.621,-1.897,-0.256,0.0
17.523,-1.7,-0.324,0.0
15.896,-1.547,-0.38,0.0
29.837,-2.903,0.118,0.0
26.072,-2.544,-0.037,0.0
23.082,-2.259,-0.157,2.0
20.006,-1.964,-0.247,0.0
17.725,-1.745,-0.314,0.0
16.196,-1.599,-0.375,0.0
30.16,-2.978,0.142,0.0
33.936,-3.361,-0.023,0.0
23.511,-2.335,-0.143,0.0
33.994,-3.386,-0.394,1.0
17.957,-1.794,-0.305,0.0
16.471,-1.65,-0.369,0.0
30.836,-3.089,0.169,2.0
34.03,-3.419,0.002,2.0
34.0,-3.425,-0.18,3.0
33.998,-3.434,-0.367,1.0
33.968,-3.441,-0.551,1.0
16.671,-1.693,-0.36,0.0
31.151,-3.164,0.195,0.0
34.015,-3.464,0.029,2.0
34.021,-3.474,-0.153,1.0
21.478,-2.199,-0.215,0.0
18.827,-1.932,-0.29,0.0
16.889,-1.738,-0.351,0.0
31.19,-3.21,0.221,1.0
27.687,-2.856,0.047,1.0
25.114,-2.597,-0.092,0.0
22.017,-2.283,-0.202,0.0
19.152,-1.991,-0.279,0.0
17.094,-1.782,-0.341,0.0
31.901,-3.324,0.252,0.0
28.892,-3.018,0.073,8.0
25.473,-2.667,-0.072,0.0
22.314,-2.342,-0.185,3.0
19.548,-2.057,-0.268,0.0
17.346,-1.83,-0.331,0.0
33.171,-3.5,0.291,0.0
28.069,-2.968,0.095,3.0
26.072,-2.763,-0.051,1.0
22.366,-2.376,-0.166,2.0
19.865,-2.115,-0.255,0.0
17.657,-1.885,-0.321,0.0
29.348,-3.133,0.284,0.0
27.584,-2.951,0.119,5.0
26.717,-2.864,-0.028,4.0
23.53,-2.528,-0.154,4.0
20.28,-2.184,-0.242,0.0
17.905,-1.933,-0.31,0.0
29.994,-3.238,0.318,3.0
27.378,-2.961,0.143,3.0
26.951,-2.922,-0.004,1.0
23.538,-2.557,-0.132,24.0
21.018,-2.288,-0.231,0.0
18.282,-1.995,-0.299,0.0
29.498,-3.219,0.34,2.0
27.38,-2.994,0.169,5.0
23.617,-2.587,0.018,158.0
23.601,-2.591,-0.11,46.0
0.0,0.0,0.0,0.0
23.644,-2.607,-0.364,1.0
29.342,-3.235,0.367,2.0
27.81,-3.072,0.198,5.0
23.589,-2.611,0.041,181.0
23.601,-2.617,-0.087,95.0
22.328,-2.481,-0.202,4.0
23.64,-2.632,-0.341,0.0
31.643,-3.523,0.427,2.0
27.778,-3.098,0.225,3.0
23.614,-2.639,0.064,158.0
23.609,-2.643,-0.064,75.0
22.384,-2.511,-0.18,3.0
23.621,-2.654,-0.317,0.0
34.335,-3.858,0.497,0.0
28.851,-3.247,0.262,1.0
23.631,-2.665,0.088,4.0
23.624,-2.668,-0.04,37.0
22.566,-2.554,-0.16,3.0
20.192,-2.289,-0.251,0.0
35.643,-4.041,0.552,0.0
29.388,-3.337,0.297,0.0
26.576,-3.023,0.126,6.0
23.611,-2.69,-0.016,2.0
22.599,-2.579,-0.137,5.0
20.733,-2.37,-0.236,0.0
22.298,-2.549,0.368,0.0
22.179,-2.539,0.247,7.0
26.88,-3.083,0.155,6.0
26.342,-3.026,0.008,2.0
22.583,-2.598,-0.113,6.0
22.039,-2.54,-0.228,1.0
22.299,-2.57,0.391,11.0
22.138,-2.555,0.27,16.0
22.177,-2.563,0.151,11.0
26.285,-3.043,0.036,5.0
22.576,-2.617,-0.089,3.0
22.348,-2.595,-0.208,3.0
22.17,-2.574,0.413,14.0
22.122,-2.572,0.293,17.0
22.131,-2.577,0.175,16.0
26.232,-3.059,0.064,2.0
22.531,-2.631,-0.065,2.0
22.398,-2.619,-0.184,4.0
22.15,-2.59,0.436,15.0
22.113,-2.589,0.317,18.0
22.114,-2.593,0.199,18.0
22.168,-2.603,0.078,16.0
22.391,-2.633,-0.04,16.0
22.423,-2.64,-0.16,8.0
22.144,-2.607,0.461,16.0
22.116,-2.607,0.342,19.0
22.12,-2.611,0.223,17.0
22.143,-2.617,0.103,17.0
22.25,-2.633,-0.015,11.0
22.402,-2.654,-0.135,12.0
22.145,-2.624,0.485,16.0
22.114,-2.623,0.366,20.0
22.105,-2.625,0.248,17.0
22.129,-2.631,0.127,18.0
22.176,-2.64,0.009,17.0
22.388,-2.669,-0.11,23.0
22.148,-2.64,0.51,12.0
22.119,-2.639,0.391,20.0
22.103,-2.64,0.272,17.0
22.131,-2.646,0.152,16.0
22.165,-2.653,0.034,20.0
22.277,-2.67,-0.084,13.0
22.151,-2.655,0.535,16.0
22.12,-2.654,0.416,19.0
22.115,-2.656,0.298,16.0
22.152,-2.663,0.177,13.0
22.164,-2.667,0.059,20.0
22.187,-2.672,-0.059,18.0
22.129,-2.666,0.559,18.0
22.13,-2.668,0.441,17.0
22.125,-2.67,0.323,13.0
22.351,-2.7,0.204,13.0
22.159,-2.679,0.084,15.0
22.196,-2.686,-0.034,20.0
22.141,-2.68,0.585,18.0
22.127,-2.68,0.467,14.0
22.128,-2.682,0.348,13.0
22.506,-2.73,0.231,8.0
22.177,-2.693,0.109,8.0
22.183,-2.696,-0.008,20.0
22.132,-2.69,0.61,19.0
22.162,-2.696,0.492,13.0
22.137,-2.694,0.374,13.0
22.466,-2.736,0.257,0.0
26.506,-3.231,0.161,3.0
22.199,-2.708,0.016,14.0
22.084,-2.695,0.634,12.0
22.161,-2.706,0.518,15.0
22.145,-2.705,0.399,13.0
32.501,-3.973,0.409,0.0
26.135,-3.197,0.189,2.0
25.751,-3.152,0.049,2.0
22.084,-2.704,0.66,10.0
22.155,-2.714,0.544,15.0
22.149,-2.715,0.425,12.0
33.66,-4.129,0.463,0.0
28.345,-3.479,0.238,0.0
25.775,-3.165,0.079,8.0
22.155,-2.721,0.688,12.0
22.159,-2.723,0.569,14.0
22.156,-2.724,0.451,10.0
35.151,-4.324,0.525,0.0
29.023,-3.572,0.278,1.0
26.097,-3.213,0.111,6.0
22.22,-2.737,0.716,20.0
22.169,-2.732,0.596,13.0
22.15,-2.73,0.477,3.0
21.892,-2.7,0.352,0.0
30.407,-3.751,0.327,0.0
26.275,-3.243,0.142,6.0
22.274,-2.75,0.744,24.0
22.192,-2.741,0.623,6.0
22.213,-2.744,0.505,0.0
39.248,-4.85,0.678,0.0
31.802,-3.931,0.38,0.0
26.289,-3.251,0.173,6.0
22.285,-2.757,0.771,24.0
22.209,-2.748,0.649,4.0
22.154,-2.742,0.529,0.0
22.199,-2.748,0.409,0.0
33.33,-4.127,0.437,1.0
26.047,-3.226,0.202,2.0
22.236,-2.755,0.795,19.0
22.242,-2.756,0.676,11.0
22.214,-2.753,0.557,0.0
22.179,-2.749,0.435,1.0
34.005,-4.216,0.485,0.0
25.988,-3.222,0.232,0.0
22.196,-2.754,0.82,18.0
22.264,-2.762,0.703,16.0
22.136,-2.746,0.581,0.0
22.122,-2.745,0.46,0.0
35.468,-4.401,0.548,0.0
29.366,-3.644,0.297,0.0
22.182,-2.754,0.845,16.0
22.292,-2.768,0.73,22.0
22.195,-2.755,0.608,0.0
0.0,0.0,0.0,0.0
0.0,0.0,0.0,0.0
30.939,-3.841,0.348,0.0
22.178,-2.755,0.871,15.0
22.286,-2.768,0.756,24.0
22.227,-2.76,0.635,0.0
0.0,0.0,0.0,0.0
0.0,0.0,0.0,0.0
32.27,-4.006,0.4,0.0
22.179,-2.755,0.897,18.0
22.279,-2.767,0.781,21.0
22.262,-2.764,0.661,4.0
22.178,-2.753,0.538,0.0
22.152,-2.75,0.419,0.0
33.787,-4.193,0.458,0.0
22.165,-2.753,0.922,18.0
22.198,-2.756,0.804,16.0
22.272,-2.764,0.687,13.0
22.215,-2.756,0.564,0.0
22.196,-2.753,0.445,0.0
35.106,-4.354,0.516,0.0
22.152,-2.749,0.947,16.0
22.174,-2.751,0.829,16.0
22.267,-2.761,0.713,19.0
22.171,-2.748,0.588,2.0
22.163,-2.746,0.469,0.0
35.887,-4.446,0.569,0.0
22.116,-2.742,0.97,12.0
22.162,-2.746,0.853,15.0
22.28,-2.759,0.738,23.0
22.194,-2.748,0.614,3.0
22.22,-2.75,0.496,0.0
39.249,-4.855,0.666,0.0
22.073,-2.733,0.993,9.0
22.136,-2.739,0.877,13.0
22.275,-2.754,0.763,23.0
22.174,-2.741,0.639,7.0
22.15,-2.736,0.519,1.0
22.194,-2.74,0.401,3.0
22.022,-2.721,1.016,8.0
22.093,-2.728,0.9,10.0
22.208,-2.741,0.786,16.0
22.176,-2.735,0.663,12.0
22.156,-2.731,0.544,8.0
22.161,-2.73,0.425,11.0
22.02,-2.715,1.04,9.0
22.027,-2.714,0.922,8.0
22.089,-2.72,0.806,10.0
22.173,-2.728,0.687,13.0
22.159,-2.725,0.568,14.0
22.145,-2.721,0.449,12.0
22.007,-2.707,1.063,9.0
22.007,-2.705,0.945,8.0
22.01,-2.703,0.827,7.0
22.074,-2.709,0.708,12.0
22.152,-2.716,0.592,17.0
22.167,-2.716,0.473,11.0
22.014,-2.7,1.087,9.0
21.998,-2.695,0.968,9.0
22.003,-2.694,0.85,8.0
21.982,-2.689,0.729,20.0
22.11,-2.702,0.614,13.0
22.159,-2.706,0.496,15.0
22.014,-2.691,1.111,9.0
22.004,-2.687,0.992,9.0
21.985,-2.682,0.872,9.0
21.969,-2.678,0.751,24.0
21.989,-2.678,0.634,15.0
22.14,-2.694,0.519,17.0
22.021,-2.682,1.134,10.0
22.001,-2.677,1.015,9.0
21.986,-2.672,0.895,9.0
21.967,-2.667,0.774,19.0
21.975,-2.666,0.656,22.0
22.132,-2.682,0.542,17.0
22.025,-2.672,1.157,9.0
22.009,-2.667,1.038,9.0
21.996,-2.662,0.918,9.0
21.974,-2.657,0.797,10.0
21.995,-2.656,0.679,26.0
22.129,-2.67,0.564,18.0
22.028,-2.66,1.18,9.0
22.019,-2.656,1.06,8.0
22.003,-2.651,0.941,8.0
21.997,-2.647,0.82,8.0
21.986,-2.643,0.701,20.0
22.137,-2.658,0.586,18.0
22.037,-2.649,1.202,7.0
22.033,-2.645,1.083,6.0
22.026,-2.641,0.964,7.0
22.016,-2.636,0.842,6.0
22.068,-2.639,0.725,13.0
22.143,-2.645,0.608,17.0
22.072,-2.639,1.226,3.0
22.061,-2.634,1.106,7.0
22.092,-2.635,0.988,11.0
22.121,-2.634,0.868,13.0
22.177,-2.638,0.75,13.0
22.151,-2.632,0.63,16.0
22.135,-2.632,1.25,5.0
22.101,-2.625,1.129,14.0
22.133,-2.625,1.011,15.0
22.153,-2.623,0.89,16.0
22.177,-2.622,0.771,12.0
22.178,-2.619,0.651,15.0
22.139,-2.617,1.272,18.0
22.133,-2.612,1.152,19.0
22.144,-2.61,1.032,16.0
22.146,-2.606,0.91,15.0
22.178,-2.606,0.791,12.0
22.216,-2.607,0.673,16.0
22.144,-2.601,1.293,16.0
22.141,-2.597,1.172,21.0
22.128,-2.591,1.051,17.0
22.157,-2.59,0.931,14.0
22.186,-2.59,0.812,12.0
22.261,-2.595,0.694,17.0
22.21,-2.592,1.316,9.0
22.136,-2.579,1.191,20.0
22.147,-2.576,1.072,16.0
22.163,-2.573,0.95,12.0
22.189,-2.572,0.831,11.0
22.315,-2.582,0.715,13.0
22.264,-2.58,1.339,8.0
22.149,-2.562,1.211,12.0
22.161,-2.559,1.092,13.0
22.172,-2.555,0.97,11.0
22.218,-2.556,0.851,11.0
22.289,-2.56,0.733,2.0
22.284,-2.563,1.359,0.0
22.263,-2.555,1.236,4.0
22.191,-2.542,1.112,9.0
22.223,-2.541,0.99,9.0
22.28,-2.544,0.872,7.0
22.336,-2.545,0.753,0.0
22.246,-2.538,1.375,1.0
22.368,-2.547,1.26,0.0
22.308,-2.535,1.136,4.0
22.29,-2.529,1.011,2.0
22.319,-2.527,0.891,0.0
0.0,0.0,0.0,0.0
22.259,-2.519,1.393,3.0
160.384,-18.114,9.167,4.0
158.795,-17.899,8.21,8.0
164.328,-18.486,7.586,6.0
153.741,-17.261,6.261,5.0
145.235,-16.275,5.125,3.0
22.252,-2.496,1.41,1.0
159.215,-17.824,9.223,16.0
158.506,-17.707,8.317,17.0
0.0,0.0,0.0,0.0
153.627,-17.094,6.37,11.0
145.339,-16.139,5.236,4.0
160.091,-17.799,10.264,9.0
159.538,-17.698,9.357,17.0
158.997,-17.6,8.457,18.0
159.324,-17.599,7.588,6.0
153.71,-16.942,6.483,3.0
145.6,-16.016,5.348,3.0
174.521,-19.22,11.313,16.0
159.913,-17.572,9.49,17.0
159.085,-17.441,8.573,18.0
159.655,-17.465,7.714,17.0
154.053,-16.817,6.601,5.0
36.596,-3.986,1.369,0.0
174.496,-19.029,11.429,21.0
159.998,-17.407,9.603,11.0
159.205,-17.281,8.684,17.0
159.676,-17.293,7.819,20.0
154.319,-16.676,6.714,3.0
36.496,-3.935,1.388,0.0
174.509,-18.836,11.543,42.0
159.911,-17.217,9.7,16.0
159.537,-17.136,8.804,20.0
159.639,-17.106,7.919,17.0
0.0,0.0,0.0,0.0
36.598,-3.903,1.415,1.0
174.611,-18.644,11.659,22.0
159.858,-17.025,9.796,14.0
159.026,-16.894,8.872,16.0
159.191,-16.871,7.992,11.0
159.826,-16.898,7.149,12.0
155.033,-16.352,6.086,2.0
175.032,-18.48,11.789,20.0
161.324,-16.989,9.979,6.0
158.387,-16.637,8.928,16.0
159.125,-16.671,8.08,17.0
160.11,-16.732,7.252,13.0
35.595,-3.71,1.417,0.0
175.385,-18.303,11.911,22.0
160.244,-16.677,10.001,5.0
158.56,-16.459,9.022,6.0
159.289,-16.491,8.174,16.0
160.227,-16.544,7.343,5.0
35.179,-3.623,1.419,0.0
175.782,-18.123,12.029,11.0
160.088,-16.459,10.074,8.0
160.112,-16.417,9.193,17.0
158.824,-16.24,8.229,15.0
36.151,-3.686,1.674,0.0
34.885,-3.548,1.424,4.0
143.419,-14.602,9.885,12.0
176.322,-17.9,11.179,8.0
159.898,-16.186,9.256,15.0
158.897,-16.041,8.308,17.0
35.598,-3.583,1.665,0.0
34.646,-3.478,1.43,1.0
143.854,-14.457,9.98,14.0
176.643,-17.701,11.278,14.0
160.086,-15.996,9.338,16.0
158.903,-15.832,8.377,17.0
35.013,-3.478,1.652,2.0
34.459,-3.414,1.436,0.0
177.038,-17.557,12.355,7.0
150.051,-14.835,9.642,21.0
160.067,-15.777,9.4,16.0
158.824,-15.609,8.433,17.0
34.815,-3.411,1.657,0.0
34.346,-3.355,1.445,0.0
177.377,-17.347,12.445,9.0
149.195,-14.545,9.641,13.0
160.002,-15.55,9.456,10.0
159.073,-15.413,8.505,17.0
0.0,0.0,0.0,0.0
34.33,-3.306,1.456,3.0
143.517,-13.834,10.119,13.0
149.209,-14.337,9.693,5.0
149.528,-14.323,8.885,31.0
150.061,-14.33,8.071,16.0
34.903,-3.322,1.684,0.0
34.226,-3.248,1.462,0.0
153.776,-14.604,10.889,3.0
189.8,-17.967,12.387,9.0
149.499,-14.107,8.927,10.0
150.011,-14.11,8.111,25.0
0.0,0.0,0.0,0.0
34.25,-3.201,1.473,0.0
153.385,-14.347,10.902,9.0
151.518,-14.125,9.928,14.0
149.579,-13.897,8.97,28.0
150.31,-13.918,8.165,11.0
34.859,-3.217,1.7,0.0
34.166,-3.143,1.477,0.0
147.287,-13.561,10.502,5.0
151.131,-13.867,9.937,3.0
150.404,-13.754,9.052,17.0
162.105,-14.773,8.839,13.0
34.992,-3.178,1.714,0.0
0.0,0.0,0.0,0.0
145.729,-13.2,10.42,9.0
0.0,0.0,0.0,0.0
149.11,-13.411,9.0,3.0
209.18,-18.748,11.443,150.0
0.0,0.0,0.0,0.0
34.21,-3.045,1.491,0.0
145.957,-12.998,10.459,4.0
147.315,-13.073,9.734,12.0
209.063,-18.485,12.648,18.0
194.649,-17.15,10.674,33.0
0.0,0.0,0.0,0.0
0.0,0.0,0.0,0.0
146.182,-12.796,10.491,13.0
208.487,-18.182,13.798,9.0
185.291,-16.099,11.229,12.0
151.947,-13.154,8.347,110.0
34.922,-3.012,1.723,0.0
0.0,0.0,0.0,0.0
146.257,-12.576,10.507,9.0
147.064,-12.599,9.742,13.0
151.92,-12.965,9.215,15.0
151.949,-12.92,8.354,150.0
34.963,-2.961,1.727,0.0
0.0,0.0,0.0,0.0
146.315,-12.352,10.515,11.0
148.167,-12.46,9.82,9.0
208.848,-17.497,12.672,16.0
200.099,-16.699,11.003,21.0
34.966,-2.906,1.727,0.0
0.0,0.0,0.0,0.0
0.0,0.0,0.0,0.0
148.187,-12.227,9.819,7.0
208.839,-17.165,12.668,20.0
200.169,-16.389,11.003,23.0
0.0,0.0,0.0,0.0
34.308,-2.787,1.502,0.0
28.278,-2.297,2.03,0.0
149.296,-12.079,9.885,6.0
0.0,0.0,0.0,0.0
200.257,-16.072,10.994,14.0
34.972,-2.795,1.724,0.0
0.0,0.0,0.0,0.0
148.632,-11.836,10.66,10.0
151.12,-11.984,9.991,14.0
208.923,-16.5,12.64,13.0
193.763,-15.241,10.618,14.0
34.92,-2.735,1.718,0.0
0.0,0.0,0.0,0.0
149.415,-11.657,10.699,4.0
208.629,-16.206,13.765,7.0
0.0,0.0,0.0,0.0
193.426,-14.899,10.571,17.0
34.966,-2.682,1.714,0.0
34.257,-2.616,1.488,0.0
122.609,-9.364,8.757,2.0
154.299,-11.732,10.154,6.0
190.761,-14.44,11.48,9.0
190.1,-14.329,10.352,5.0
34.808,-2.612,1.7,0.0
34.238,-2.559,1.48,0.0
151.955,-11.351,10.822,7.0
154.113,-11.462,10.108,6.0
189.48,-14.031,11.36,15.0
189.961,-14.004,10.301,8.0
0.0,0.0,0.0,0.0
0.0,0.0,0.0,0.0
147.523,-10.776,10.469,7.0
122.163,-8.883,7.981,10.0
189.326,-13.704,11.302,7.0
0.0,0.0,0.0,0.0
34.921,-2.505,1.688,0.0
34.253,-2.446,1.463,0.0
122.412,-8.736,8.652,12.0
122.211,-8.681,7.946,15.0
188.746,-13.347,11.209,17.0
189.465,-13.335,10.164,8.0
34.789,-2.437,1.67,0.0
34.231,-2.387,1.45,0.0
122.358,-8.524,8.607,17.0
122.162,-8.471,7.902,16.0
189.261,-13.062,11.175,7.0
189.146,-12.994,10.081,12.0
34.762,-2.376,1.656,0.0
34.202,-2.327,1.437,0.0
119.359,-8.116,8.351,7.0
121.855,-8.246,7.837,20.0
91.483,-6.161,5.366,16.0
156.936,-10.517,8.302,15.0
34.927,-2.329,1.651,0.0
34.172,-2.268,1.422,0.0
121.176,-8.033,8.428,15.0
121.73,-8.028,7.776,12.0
121.218,-7.954,7.057,6.0
188.679,-12.319,9.9,4.0
34.839,-2.263,1.631,0.0
34.189,-2.21,1.407,0.0
120.004,-7.749,8.291,11.0
89.633,-5.758,5.684,7.0
157.026,-10.036,9.068,17.0
188.449,-11.985,9.798,9.0
34.708,-2.196,1.608,0.0
34.165,-2.151,1.39,0.0
89.428,-5.621,6.134,6.0
92.079,-5.758,5.793,15.0
120.769,-7.512,6.912,15.0
187.568,-11.608,9.653,9.0
34.815,-2.143,1.595,0.0
34.094,-2.088,1.369,0.0
91.517,-5.594,6.226,7.0
92.425,-5.62,5.763,8.0
188.656,-11.41,10.694,16.0
188.214,-11.321,9.581,21.0
0.0,0.0,0.0,0.0
34.124,-2.031,1.35,1.0
87.969,-5.225,5.934,13.0
92.357,-5.455,5.704,17.0
120.783,-7.096,6.773,18.0
188.446,-11.012,9.48,19.0
0.0,0.0,0.0,0.0
34.175,-1.975,1.331,1.0
88.082,-5.079,5.885,8.0
111.795,-6.412,6.834,7.0
122.85,-7.006,6.811,9.0
188.94,-10.714,9.382,19.0
0.0,0.0,0.0,0.0
34.233,-1.919,1.311,0.0
91.835,-5.137,6.075,24.0
92.57,-5.148,5.595,16.0
119.179,-6.589,6.525,18.0
119.086,-6.547,5.831,3.0
0.0,0.0,0.0,0.0
109.298,-5.941,4.11,4.0
90.138,-4.887,5.898,13.0
111.998,-6.035,6.69,10.0
119.214,-6.387,6.441,10.0
194.306,-10.35,9.374,5.0
0.0,0.0,0.0,0.0
109.364,-5.759,4.032,150.0
89.813,-4.716,5.81,11.0
112.211,-5.855,6.618,17.0
112.653,-5.843,6.001,6.0
0.0,0.0,0.0,0.0
0.0,0.0,0.0,0.0
109.403,-5.573,3.949,150.0
108.741,-5.523,6.947,14.0
98.184,-4.955,5.713,16.0
112.509,-5.644,5.904,10.0
194.053,-9.673,9.056,5.0
0.0,0.0,0.0,0.0
109.438,-5.388,3.861,1.0
92.054,-4.517,5.805,25.0
112.46,-5.483,6.448,11.0
113.099,-5.479,5.839,4.0
194.426,-9.358,8.908,5.0
0.0,0.0,0.0,0.0
94.999,-4.514,3.269,3.0
94.961,-4.496,5.905,17.0
112.006,-5.269,6.324,11.0
164.253,-7.676,8.334,32.0
0.0,0.0,0.0,0.0
93.522,-4.312,3.668,4.0
0.0,0.0,0.0,0.0
97.954,-4.47,6.001,18.0
111.81,-5.069,6.21,12.0
194.46,-8.756,9.687,13.0
0.0,0.0,0.0,0.0
92.535,-4.112,3.543,5.0
92.425,-4.079,3.011,5.0
91.387,-4.017,5.512,12.0
89.665,-3.914,4.895,13.0
120.232,-5.212,5.874,29.0
92.944,-4.0,3.999,3.0
92.172,-3.941,3.44,150.0
0.0,0.0,0.0,0.0
89.627,-3.789,5.317,13.0
113.605,-4.769,6.089,12.0
194.867,-8.123,9.327,9.0
92.495,-3.827,3.888,1.0
92.159,-3.787,3.347,157.0
