X,Y,Z,Reflectivity
33.862,-2.464,1.188,6.0
33.851,-2.471,1.006,86.0
33.893,-2.482,0.828,151.0
33.861,-2.487,0.649,150.0
34.582,-2.545,1.625,0.0
34.072,-2.514,1.421,0.0
33.85,-2.505,1.233,9.0
33.826,-2.51,1.05,87.0
33.818,-2.517,0.872,35.0
33.853,-2.527,0.694,154.0
34.891,-2.609,1.686,0.0
0.0,0.0,0.0,0.0
33.834,-2.545,1.278,51.0
33.806,-2.55,1.095,95.0
33.832,-2.558,0.918,81.0
33.862,-2.568,0.74,155.0
35.014,-2.66,1.74,0.0
0.0,0.0,0.0,0.0
33.825,-2.583,1.323,54.0
33.809,-2.588,1.141,38.0
33.83,-2.597,0.964,145.0
33.858,-2.606,0.786,154.0
0.0,0.0,0.0,0.0
0.0,0.0,0.0,0.0
33.834,-2.621,1.37,6.0
33.814,-2.626,1.187,7.0
33.822,-2.633,1.009,127.0
33.853,-2.642,0.832,150.0
200.288,-15.663,10.503,107.0
34.692,-2.719,1.636,0.0
34.083,-2.677,1.427,0.0
33.821,-2.663,1.235,24.0
33.808,-2.668,1.056,126.0
33.798,-2.673,0.877,49.0
200.28,-15.873,10.781,7.0
34.809,-2.764,1.689,0.0
0.0,0.0,0.0,0.0
33.827,-2.698,1.282,80.0
33.793,-2.701,1.103,103.0
33.806,-2.708,0.925,118.0
200.251,-16.074,11.063,30.0
34.917,-2.808,1.744,0.0
0.0,0.0,0.0,0.0
33.792,-2.729,1.328,50.0
33.795,-2.735,1.15,23.0
33.81,-2.742,0.973,150.0
200.172,-16.261,11.341,21.0
200.355,-16.308,10.294,8.0
34.514,-2.814,1.591,0.0
33.865,-2.766,1.379,2.0
33.818,-2.768,1.199,14.0
33.793,-2.772,1.02,130.0
200.092,-16.44,11.621,16.0
200.214,-16.479,10.569,35.0
0.0,0.0,0.0,0.0
34.163,-2.822,1.44,0.0
33.853,-2.801,1.248,60.0
33.798,-2.802,1.068,150.0
209.278,-17.383,12.452,15.0
151.97,-12.642,8.239,120.0
34.897,-2.908,1.708,0.0
0.0,0.0,0.0,0.0
33.81,-2.826,1.295,84.0
33.796,-2.83,1.116,66.0
209.07,-17.542,12.74,6.0
151.997,-12.773,8.459,41.0
152.015,-12.793,7.659,21.0
0.0,0.0,0.0,0.0
33.813,-2.854,1.343,21.0
33.801,-2.858,1.165,8.0
148.998,-12.621,9.295,5.0
152.002,-12.894,8.68,14.0
151.976,-12.91,7.875,150.0
34.534,-2.937,1.604,0.0
34.051,-2.9,1.402,0.0
33.815,-2.885,1.214,15.0
148.585,-12.7,9.483,12.0
209.162,-17.899,12.246,11.0
151.969,-13.022,8.094,150.0
34.833,-2.988,1.668,0.0
0.0,0.0,0.0,0.0
33.816,-2.909,1.263,65.0
147.302,-12.694,9.615,3.0
185.341,-15.991,11.117,14.0
151.969,-13.127,8.313,95.0
0.0,0.0,0.0,0.0
34.58,-2.994,1.523,0.0
33.805,-2.93,1.311,52.0
145.895,-12.672,9.734,9.0
185.39,-16.12,11.389,30.0
185.41,-16.137,10.412,65.0
185.457,-16.159,9.418,24.0
34.47,-3.007,1.569,0.0
33.848,-2.956,1.362,2.0
145.907,-12.765,9.949,13.0
148.674,-13.019,9.35,5.0
199.19,-17.46,11.476,32.0
199.212,-17.478,10.407,55.0
0.0,0.0,0.0,0.0
34.076,-2.995,1.42,0.0
145.98,-12.857,10.166,11.0
150.31,-13.249,9.671,11.0
209.235,-18.459,12.354,9.0
209.188,-18.469,11.225,37.0
34.836,-3.078,1.685,0.0
34.166,-3.022,1.473,0.0
145.903,-12.93,10.371,12.0
147.387,-13.07,9.696,12.0
148.96,-13.219,9.01,3.0
209.178,-18.577,11.527,150.0
0.0,0.0,0.0,0.0
34.445,-3.063,1.535,0.0
144.906,-12.914,10.51,15.0
147.204,-13.125,9.896,13.0
149.059,-13.299,9.233,8.0
209.132,-18.671,11.828,150.0
169.887,-15.178,8.71,12.0
34.51,-3.085,1.587,0.0
144.852,-12.975,10.717,13.0
146.819,-13.157,10.084,9.0
150.946,-13.534,9.569,5.0
186.425,-16.723,10.813,12.0
169.953,-15.254,8.96,7.0
34.741,-3.12,1.648,0.0
145.013,-13.05,10.938,13.0
145.932,-13.137,10.234,5.0
148.628,-13.384,9.635,5.0
150.405,-13.55,8.939,19.0
195.778,-17.646,10.602,7.0
34.967,-3.153,1.709,0.0
145.423,-13.139,11.179,12.0
145.896,-13.186,10.441,12.0
148.605,-13.435,9.848,9.0
149.925,-13.557,9.126,25.0
186.43,-16.865,10.362,30.0
0.0,0.0,0.0,0.0
144.724,-13.122,11.333,15.0
146.178,-13.257,10.669,12.0
146.749,-13.311,9.931,3.0
149.104,-13.526,9.287,21.0
186.308,-16.906,10.618,91.0
169.666,-15.401,8.771,13.0
144.69,-13.161,11.535,21.0
146.203,-13.298,10.878,10.0
145.889,-13.271,10.08,4.0
148.863,-13.541,9.481,14.0
150.454,-13.689,8.784,22.0
169.573,-15.431,9.002,11.0
144.789,-13.203,11.747,15.0
146.118,-13.323,11.077,13.0
145.654,-13.28,10.267,4.0
148.695,-13.558,9.677,5.0
150.433,-13.716,8.992,19.0
162.309,-14.8,8.843,5.0
146.737,-13.408,12.111,6.0
145.55,-13.298,11.236,11.0
147.006,-13.429,10.566,4.0
0.0,0.0,0.0,0.0
149.414,-13.647,9.137,14.0
186.209,-17.006,10.402,13.0
145.123,-13.282,12.179,7.0
144.766,-13.246,11.376,13.0
146.363,-13.39,10.723,5.0
209.602,-19.169,14.222,6.0
149.365,-13.659,9.341,12.0
150.462,-13.756,8.611,14.0
145.035,-13.289,12.37,13.0
144.579,-13.242,11.56,18.0
146.195,-13.386,10.911,10.0
145.744,-13.34,10.088,9.0
149.488,-13.679,9.551,3.0
150.456,-13.765,8.815,24.0
0.0,0.0,0.0,0.0
144.738,-13.264,11.771,6.0
145.977,-13.372,11.092,15.0
147.224,-13.481,10.39,5.0
185.273,-16.958,12.088,6.0
150.166,-13.741,8.999,21.0
147.104,-13.489,12.948,5.0
146.798,-13.453,12.136,8.0
145.595,-13.337,11.258,10.0
146.843,-13.444,10.557,3.0
0.0,0.0,0.0,0.0
149.457,-13.671,9.156,14.0
145.348,-13.324,12.989,4.0
145.021,-13.286,12.182,10.0
144.693,-13.246,11.383,18.0
146.166,-13.374,10.702,5.0
209.48,-19.157,14.222,8.0
149.268,-13.643,9.34,12.0
145.128,-13.294,13.161,12.0
144.995,-13.271,12.374,11.0
144.629,-13.228,11.569,13.0
146.238,-13.367,10.9,13.0
145.819,-13.32,10.091,8.0
148.939,-13.597,9.514,9.0
144.957,-13.261,13.336,8.0
0.0,0.0,0.0,0.0
144.81,-13.225,11.77,12.0
146.046,-13.329,11.073,12.0
145.788,-13.295,10.275,4.0
148.82,-13.562,9.695,7.0
146.372,-13.368,13.654,10.0
145.643,-13.289,12.804,3.0
146.644,-13.369,12.104,9.0
0.0,0.0,0.0,0.0
146.183,-13.304,10.487,8.0
146.922,-13.36,9.756,4.0
146.329,-13.336,13.835,9.0
145.352,-13.232,12.961,13.0
146.587,-13.332,12.283,11.0
144.697,-13.148,11.334,19.0
146.146,-13.267,10.666,11.0
151.944,-13.781,10.276,2.0
145.899,-13.262,13.976,4.0
145.096,-13.173,13.118,20.0
146.628,-13.299,12.467,8.0
144.741,-13.114,11.513,17.0
146.206,-13.232,10.847,4.0
148.295,-13.409,10.208,3.0
146.012,-13.231,14.163,11.0
144.943,-13.119,13.277,11.0
147.046,-13.294,12.678,7.0
144.702,-13.067,11.684,13.0
145.268,-13.103,10.95,15.0
145.929,-13.149,10.217,4.0
146.118,-13.194,14.349,16.0
146.953,-13.253,13.636,12.0
147.238,-13.262,12.869,15.0
144.575,-13.005,11.844,4.0
145.397,-13.063,11.13,15.0
145.917,-13.096,10.386,10.0
146.093,-13.141,14.517,15.0
146.844,-13.188,13.799,13.0
145.709,-13.069,12.905,5.0
146.27,-13.102,12.152,3.0
144.94,-12.966,11.262,17.0
144.773,-12.935,10.47,14.0
145.965,-13.071,14.673,15.0
146.646,-13.112,13.947,12.0
145.593,-12.999,13.06,19.0
145.925,-13.01,12.288,3.0
144.421,-12.857,11.383,19.0
144.576,-12.854,10.618,19.0
145.884,-13.0,14.829,15.0
146.5,-13.034,14.098,13.0
145.536,-12.928,13.217,17.0
148.489,-13.171,12.667,8.0
144.42,-12.791,11.541,20.0
144.467,-12.776,10.768,10.0
145.817,-12.924,14.982,15.0
146.409,-12.956,14.248,14.0
146.901,-12.977,13.501,4.0
148.363,-13.085,12.817,4.0
144.465,-12.722,11.699,16.0
145.551,-12.798,11.002,8.0
145.431,-12.815,15.099,15.0
146.022,-12.846,14.365,16.0
146.46,-12.862,13.614,4.0
145.832,-12.784,12.752,11.0
144.15,-12.615,11.825,11.0
145.757,-12.736,11.169,4.0
145.309,-12.725,15.238,17.0
145.974,-12.759,14.514,11.0
146.125,-12.75,13.733,8.0
145.711,-12.69,12.89,17.0
144.157,-12.534,11.971,6.0
145.196,-12.602,11.272,13.0
145.41,-12.648,15.397,15.0
145.7,-12.649,14.633,5.0
145.674,-12.622,13.838,12.0
145.698,-12.601,13.034,11.0
145.594,-12.57,12.234,8.0
145.174,-12.509,11.414,19.0
145.984,-12.607,15.602,7.0
147.232,-12.689,14.931,5.0
145.481,-12.513,13.961,21.0
153.089,-13.141,13.843,3.0
146.122,-12.52,12.418,3.0
145.142,-12.413,11.547,15.0
146.417,-12.548,15.788,4.0
145.721,-12.462,14.916,13.0
145.536,-12.421,14.102,17.0
144.848,-12.337,13.231,10.0
146.224,-12.429,12.561,6.0
145.276,-12.324,11.691,5.0
148.225,-12.6,16.12,7.0
145.731,-12.361,15.051,17.0
145.618,-12.324,14.243,18.0
144.931,-12.24,13.37,15.0
145.28,-12.244,12.61,10.0
154.151,-12.965,12.542,5.0
148.541,-12.519,16.287,14.0
0.0,0.0,0.0,0.0
145.476,-12.205,14.357,17.0
145.018,-12.139,13.504,11.0
145.348,-12.141,12.741,13.0
146.131,-12.18,12.014,11.0
148.193,-12.377,16.376,12.0
147.642,-12.303,15.503,11.0
145.567,-12.101,14.487,11.0
144.933,-12.021,13.616,12.0
145.731,-12.059,12.895,14.0
146.281,-12.078,12.146,9.0
148.192,-12.26,16.498,22.0
147.452,-12.168,15.605,14.0
146.372,-12.05,14.687,17.0
144.815,-11.893,13.722,13.0
145.333,-11.907,12.976,18.0
146.218,-11.951,12.257,11.0
148.312,-12.146,16.63,17.0
147.302,-12.032,15.705,11.0
146.569,-11.942,14.821,14.0
144.673,-11.759,13.82,11.0
145.157,-11.77,13.07,15.0
146.147,-11.821,12.36,10.0
151.14,-12.248,17.061,8.0
149.145,-12.055,16.013,4.0
146.884,-11.841,14.961,7.0
144.414,-11.613,13.9,11.0
144.985,-11.628,13.16,13.0
146.086,-11.688,12.459,4.0
148.498,-11.903,16.869,18.0
146.551,-11.714,15.839,5.0
146.754,-11.699,15.051,11.0
145.886,-11.599,14.144,11.0
144.978,-11.496,13.259,12.0
145.819,-11.533,12.536,16.0
148.544,-11.769,16.977,8.0
148.705,-11.75,16.171,6.0
146.526,-11.545,15.125,14.0
145.753,-11.451,14.228,14.0
146.205,-11.457,13.466,12.0
145.859,-11.401,12.632,7.0
151.298,-11.845,17.389,18.0
148.724,-11.609,16.269,15.0
147.881,-11.51,15.359,4.0
145.771,-11.315,14.319,19.0
146.277,-11.322,13.562,12.0
119.007,-9.186,10.379,12.0
151.212,-11.692,17.47,5.0
151.254,-11.66,16.635,5.0
147.872,-11.365,15.445,13.0
145.643,-11.162,14.39,21.0
150.9,-11.531,14.077,4.0
119.074,-9.073,10.452,10.0
0.0,0.0,0.0,0.0
151.431,-11.521,16.74,12.0
149.065,-11.307,15.651,11.0
145.675,-11.016,14.473,19.0
147.411,-11.115,13.83,7.0
118.984,-8.946,10.506,8.0
148.733,-11.163,16.519,4.0
148.309,-11.096,15.648,17.0
0.0,0.0,0.0,0.0
147.048,-10.934,13.869,7.0
119.02,-8.823,10.568,10.0
148.523,-10.99,16.568,14.0
148.633,-10.964,15.752,4.0
0.0,0.0,0.0,0.0
146.924,-10.769,13.924,18.0
119.261,-8.714,10.642,12.0
148.345,-10.819,16.612,16.0
148.581,-10.8,15.81,9.0
0.0,0.0,0.0,0.0
146.85,-10.605,13.978,20.0
119.189,-8.58,10.684,12.0
148.618,-10.674,16.702,9.0
90.7,-6.492,9.687,5.0
146.159,-10.426,14.78,11.0
146.718,-10.432,14.021,15.0
116.947,-8.289,10.526,7.0
90.13,-6.395,10.666,4.0
148.466,-10.499,16.737,14.0
148.764,-10.483,15.939,16.0
90.197,-6.334,9.151,7.0
146.537,-10.255,14.051,17.0
117.104,-8.169,10.577,12.0
89.84,-6.273,10.66,3.0
89.764,-6.245,10.148,5.0
148.765,-10.313,15.985,16.0
146.33,-10.107,14.891,13.0
114.34,-7.872,10.997,8.0
117.082,-8.033,10.608,10.0
89.848,-6.17,10.687,15.0
89.907,-6.151,10.188,15.0
148.821,-10.145,16.03,13.0
90.419,-6.141,9.224,11.0
90.659,-6.136,8.741,15.0
118.549,-7.996,10.77,5.0
89.784,-6.06,10.7,16.0
89.994,-6.051,10.219,25.0
113.531,-7.605,12.254,11.0
90.465,-6.038,9.247,20.0
113.035,-7.517,10.922,9.0
118.467,-7.851,10.785,15.0
89.893,-5.96,10.731,32.0
89.751,-5.928,10.208,17.0
113.584,-7.473,12.28,12.0
90.573,-5.937,9.274,28.0
113.022,-7.38,10.94,17.0
118.722,-7.724,10.827,6.0
89.776,-5.844,10.73,24.0
89.618,-5.81,10.205,24.0
113.434,-7.325,12.279,10.0
90.991,-5.853,9.329,20.0
90.441,-5.796,8.764,6.0
117.385,-7.494,10.718,14.0
89.819,-5.736,10.745,18.0
90.102,-5.731,10.269,21.0
97.06,-6.149,10.515,18.0
90.99,-5.741,9.336,24.0
90.917,-5.715,8.817,18.0
117.861,-7.38,10.769,15.0
89.946,-5.633,10.766,21.0
90.009,-5.613,10.264,29.0
90.696,-5.633,9.83,13.0
91.045,-5.631,9.345,16.0
91.229,-5.62,8.85,28.0
88.421,-5.425,8.082,11.0
89.798,-5.511,10.749,17.0
90.132,-5.508,10.279,26.0
90.984,-5.536,9.862,16.0
86.785,-5.259,8.907,18.0
91.076,-5.497,8.834,14.0
88.728,-5.333,8.108,18.0
89.377,-5.371,10.697,18.0
90.849,-5.436,10.358,10.0
91.022,-5.423,9.861,6.0
86.858,-5.152,8.911,19.0
87.03,-5.142,8.437,6.0
88.573,-5.212,8.088,23.0
89.15,-5.243,10.664,19.0
90.684,-5.311,10.331,16.0
86.719,-5.056,9.388,24.0
87.264,-5.066,8.944,22.0
87.478,-5.055,8.472,14.0
88.701,-5.104,8.09,29.0
87.098,-5.008,10.408,11.0
90.76,-5.196,10.329,13.0
86.748,-4.944,9.38,13.0
87.442,-4.961,8.95,14.0
87.668,-4.952,8.477,29.0
88.656,-4.987,8.072,24.0
87.158,-4.899,10.401,30.0
91.267,-5.107,10.371,21.0
91.183,-5.079,9.843,12.0
87.368,-4.845,8.927,22.0
87.778,-4.846,8.471,21.0
88.652,-4.872,8.055,6.0
87.268,-4.793,10.396,28.0
91.128,-4.981,10.336,15.0
82.236,-4.474,8.859,14.0
87.136,-4.719,8.883,17.0
86.768,-4.678,8.353,19.0
90.764,-4.871,8.225,11.0
87.277,-4.679,10.375,16.0
81.775,-4.363,9.254,16.0
82.37,-4.373,8.852,30.0
87.181,-4.608,8.864,20.0
0.0,0.0,0.0,0.0
89.159,-4.668,8.054,11.0
86.815,-4.539,10.295,9.0
81.82,-4.258,9.234,25.0
92.547,-4.792,9.917,14.0
83.856,-4.322,8.499,10.0
0.0,0.0,0.0,0.0
89.178,-4.552,8.025,21.0
87.353,-4.452,10.329,20.0
81.994,-4.159,9.225,19.0
90.436,-4.565,9.658,13.0
83.725,-4.205,8.456,19.0
85.466,-4.272,8.145,12.0
86.991,-4.327,7.796,21.0
85.769,-4.258,10.108,21.0
82.2,-4.06,9.216,20.0
81.942,-4.027,8.719,17.0
83.611,-4.088,8.41,25.0
87.484,-4.256,8.301,12.0
87.026,-4.213,7.763,23.0
85.781,-4.145,10.072,21.0
82.254,-3.954,9.186,25.0
81.911,-3.916,8.678,23.0
85.413,-4.063,8.552,7.0
87.675,-4.149,8.279,9.0
87.127,-4.102,7.731,24.0
81.584,-3.833,9.54,8.0
81.03,-3.787,9.01,16.0
82.419,-3.83,8.692,22.0
85.228,-3.94,8.492,12.0
78.987,-3.632,7.418,13.0
87.164,-3.988,7.689,25.0
81.668,-3.727,9.507,21.0
81.025,-3.678,8.966,27.0
82.487,-3.725,8.654,28.0
79.487,-3.569,7.877,26.0
79.005,-3.529,7.377,25.0
87.827,-3.903,7.699,21.0
81.791,-3.625,9.475,32.0
81.089,-3.574,8.927,15.0
84.06,-3.684,8.771,13.0
79.528,-3.466,7.834,27.0
79.118,-3.43,7.341,22.0
88.066,-3.798,7.668,28.0
81.653,-3.509,9.409,37.0
82.294,-3.517,9.009,19.0
79.626,-3.384,8.258,16.0
79.451,-3.358,7.776,34.0
79.063,-3.322,7.285,22.0
88.049,-3.679,7.61,3.0
65.136,-2.712,7.462,12.0
82.272,-3.406,8.951,15.0
64.678,-2.662,6.665,10.0
79.152,-3.24,7.693,32.0
79.35,-3.229,7.257,9.0
87.496,-3.54,7.501,10.0
65.161,-2.626,7.419,18.0
80.207,-3.213,8.669,16.0
64.197,-2.557,6.568,32.0
79.253,-3.138,7.645,22.0
66.428,-2.615,6.027,11.0
79.908,-3.129,6.792,27.0
65.26,-2.544,7.381,22.0
64.284,-2.491,6.899,7.0
64.512,-2.484,6.552,39.0
79.201,-3.032,7.58,21.0
80.094,-3.048,7.204,10.0
79.951,-3.025,6.734,17.0
64.266,-2.42,7.218,22.0
64.606,-2.419,6.882,17.0
64.664,-2.406,6.516,39.0
79.388,-2.936,7.533,13.0
79.804,-2.934,7.114,19.0
87.505,-3.198,7.299,13.0
64.351,-2.341,7.174,24.0
64.56,-2.333,6.823,39.0
64.938,-2.332,6.488,32.0
80.095,-2.858,7.532,4.0
79.85,-2.833,7.05,28.0
79.883,-2.817,6.594,24.0
64.443,-2.26,7.128,31.0
64.534,-2.248,6.763,30.0
65.567,-2.27,6.492,40.0
66.518,-2.288,6.196,18.0
79.967,-2.734,6.988,24.0
80.265,-2.728,6.553,14.0
64.548,-2.181,7.079,32.0
64.563,-2.166,6.707,38.0
64.939,-2.164,6.37,28.0
66.474,-2.201,6.129,27.0
80.235,-2.64,6.935,13.0
80.465,-2.63,6.493,6.0
64.742,-2.104,7.038,28.0
64.895,-2.094,6.678,30.0
65.087,-2.086,6.321,30.0
67.236,-2.141,6.134,13.0
80.261,-2.54,6.859,10.0
80.766,-2.538,6.437,21.0
64.813,-2.023,6.98,35.0
64.784,-2.009,6.601,39.0
65.409,-2.014,6.285,32.0
67.579,-2.067,6.096,27.0
80.54,-2.447,6.801,17.0
86.134,-2.6,6.776,10.0
64.933,-1.946,6.925,38.0
64.627,-1.923,6.517,38.0
66.476,-1.964,6.317,15.0
65.878,-1.933,5.873,23.0
76.749,-2.236,6.398,15.0
81.742,-2.366,6.343,11.0
64.958,-1.865,6.857,29.0
64.417,-1.837,6.425,31.0
66.722,-1.889,6.268,31.0
65.909,-1.853,5.804,23.0
76.772,-2.143,6.316,14.0
77.012,-2.135,5.891,10.0
64.78,-1.781,6.765,40.0
64.129,-1.751,6.324,38.0
66.353,-1.798,6.158,23.0
66.343,-1.785,5.766,42.0
81.098,-2.166,6.579,20.0
77.04,-2.042,5.804,26.0
64.723,-1.701,6.683,32.0
64.202,-1.674,6.256,39.0
66.196,-1.714,6.066,32.0
67.005,-1.722,5.744,16.0
81.079,-2.068,6.482,17.0
87.061,-2.205,6.456,25.0
64.812,-1.626,6.615,22.0
64.012,-1.594,6.16,35.0
65.96,-1.629,5.964,25.0
67.573,-1.657,5.71,21.0
76.977,-1.872,6.059,20.0
87.391,-2.109,6.373,11.0
65.013,-1.553,6.553,34.0
63.681,-1.51,6.048,17.0
0.0,0.0,0.0,0.0
67.594,-1.578,5.627,8.0
77.32,-1.791,5.988,33.0
75.725,-1.74,5.427,27.0
64.427,-1.464,6.411,40.0
63.584,-1.433,5.956,28.0
67.53,-1.51,5.933,9.0
77.033,-1.709,6.313,23.0
76.712,-1.688,5.841,8.0
75.646,-1.652,5.322,32.0
64.134,-1.385,6.297,33.0
63.662,-1.362,5.879,25.0
67.375,-1.43,5.829,11.0
75.845,-1.597,6.113,26.0
76.892,-1.605,5.751,32.0
75.818,-1.57,5.232,33.0
64.041,-1.31,6.2,25.0
63.672,-1.291,5.792,19.0
66.142,-1.329,5.63,21.0
75.202,-1.498,5.957,22.0
76.93,-1.52,5.647,31.0
75.96,-1.488,5.135,31.0
63.923,-1.236,6.099,26.0
67.497,-1.294,6.045,13.0
66.154,-1.257,5.539,17.0
75.425,-1.421,5.868,14.0
76.073,-1.42,5.477,29.0
76.04,-1.407,5.033,14.0
63.93,-1.167,6.007,31.0
65.813,-1.19,5.799,38.0
74.333,-1.332,6.116,27.0
76.293,-1.355,5.825,36.0
76.054,-1.339,5.365,32.0
77.221,-1.346,4.999,14.0
64.275,-1.104,5.944,22.0
65.493,-1.115,5.674,29.0
66.561,-1.123,5.377,28.0
76.429,-1.276,5.722,29.0
76.214,-1.261,5.262,29.0
90.894,-1.491,5.748,30.0
64.174,-1.036,5.838,27.0
65.642,-1.049,5.587,30.0
66.626,-1.055,5.282,26.0
76.28,-1.196,5.595,31.0
90.235,-1.402,6.094,19.0
90.777,-1.396,5.602,30.0
63.959,-0.967,5.719,22.0
66.515,-0.996,5.558,15.0
76.497,-1.134,5.946,32.0
76.457,-1.122,5.489,31.0
90.276,-1.311,5.955,28.0
90.626,-1.304,5.451,16.0
66.479,-0.939,5.839,12.0
66.599,-0.931,5.46,9.0
76.673,-1.061,5.837,27.0
76.121,-1.042,5.344,28.0
90.314,-1.223,5.814,8.0
90.547,-1.214,5.301,23.0
66.614,-0.877,5.743,25.0
76.687,-0.998,6.163,13.0
76.343,-0.984,5.69,15.0
76.002,-0.969,5.212,32.0
90.438,-1.14,5.676,16.0
90.518,-1.128,5.153,32.0
66.676,-0.815,5.639,14.0
76.681,-0.926,6.036,28.0
76.206,-0.91,5.554,25.0
76.029,-0.899,5.089,16.0
90.458,-1.057,5.527,23.0
90.542,-1.046,5.006,35.0
75.659,-0.856,6.273,12.0
76.539,-0.855,5.897,18.0
76.162,-0.841,5.422,30.0
91.284,-0.996,5.957,29.0
90.493,-0.976,5.377,21.0
90.555,-0.965,4.853,29.0
76.963,-0.801,6.248,8.0
76.517,-0.787,5.763,23.0
76.136,-0.774,5.29,27.0
90.473,-0.908,5.748,33.0
90.59,-0.899,5.227,17.0
90.665,-0.888,4.703,20.0
76.83,-0.734,6.104,11.0
76.459,-0.721,5.627,15.0
90.583,-0.844,6.137,29.0
90.536,-0.833,5.595,10.0
179.692,-1.633,10.057,7.0
193.181,-1.733,9.689,22.0
76.604,-0.669,5.952,20.0
0.0,0.0,0.0,0.0
90.565,-0.77,5.976,11.0
105.871,-0.888,6.357,18.0
193.742,-1.604,10.503,20.0
193.722,-1.582,9.371,21.0
76.561,-0.607,5.813,17.0
88.285,-0.69,6.185,15.0
105.595,-0.815,6.78,13.0
179.016,-1.363,10.431,6.0
193.828,-1.454,10.161,17.0
193.56,-1.433,9.019,19.0
82.428,-0.591,6.11,14.0
96.425,-0.681,6.582,21.0
105.783,-0.736,6.6,21.0
179.187,-1.229,10.117,22.0
194.046,-1.31,9.819,9.0
194.137,-1.292,8.692,13.0
87.966,-0.565,6.358,11.0
96.456,-0.611,6.407,13.0
171.69,-1.07,10.398,6.0
179.161,-1.099,9.783,29.0
179.32,-1.082,8.744,5.0
128.613,-0.763,5.52,3.0
96.495,-0.552,6.794,15.0
96.421,-0.542,6.222,24.0
106.313,-0.588,6.237,5.0
179.302,-0.974,9.454,13.0
179.107,-0.958,8.397,26.0
128.518,-0.676,5.275,36.0
96.455,-0.486,6.609,16.0
96.44,-0.477,6.041,20.0
180.383,-0.878,10.244,5.0
179.195,-0.856,9.109,18.0
128.477,-0.603,5.781,17.0
128.44,-0.592,5.03,38.0
96.285,-0.424,6.414,25.0
106.309,-0.459,6.457,18.0
0.0,0.0,0.0,0.0
179.097,-0.744,8.766,15.0
128.398,-0.523,5.533,33.0
128.476,-0.513,4.786,22.0
96.291,-0.366,6.23,31.0
106.233,-0.395,6.249,22.0
179.212,-0.652,9.491,8.0
194.064,-0.691,9.125,16.0
128.397,-0.448,5.286,36.0
108.628,-0.371,3.837,8.0
96.491,-0.311,6.053,21.0
179.482,-0.565,10.209,12.0
179.234,-0.551,9.143,8.0
0.0,0.0,0.0,0.0
179.143,-0.525,7.025,21.0
105.322,-0.301,3.515,4.0
96.438,-0.258,5.86,16.0
179.023,-0.467,9.831,25.0
194.381,-0.494,9.534,18.0
204.156,-0.506,8.798,9.0
109.042,-0.263,4.06,2.0
83.248,-0.195,2.614,5.0
106.244,-0.231,6.245,9.0
202.019,-0.426,10.689,18.0
201.833,-0.413,9.499,10.0
179.064,-0.356,7.361,16.0
108.491,-0.209,3.824,10.0
82.733,-0.154,2.432,3.0
178.736,-0.304,10.149,16.0
201.688,-0.332,10.27,13.0
0.0,0.0,0.0,0.0
0.0,0.0,0.0,0.0
83.331,-0.123,2.77,2.0
78.566,-0.111,2.152,6.0
151.055,-0.19,8.272,27.0
201.661,-0.244,9.862,18.0
202.864,-0.235,8.73,7.0
108.889,-0.12,4.036,8.0
83.127,-0.088,2.596,9.0
78.345,-0.079,1.989,0.0
151.098,-0.13,7.966,21.0
201.907,-0.164,9.461,21.0
0.0,0.0,0.0,0.0
83.311,-0.059,2.918,11.0
82.665,-0.055,2.411,3.0
0.0,0.0,0.0,0.0
201.338,-0.098,10.198,23.0
202.448,-0.09,9.065,7.0
176.658,-0.072,6.875,5.0
83.281,-0.03,2.745,21.0
77.733,-0.025,2.107,3.0
0.0,0.0,0.0,0.0
201.592,-0.031,9.791,22.0
202.666,-0.024,8.657,10.0
83.291,-0.007,3.07,13.0
83.017,-0.004,2.566,9.0
0.0,0.0,0.0,0.0
0.0,0.0,0.0,0.0
201.815,0.026,9.386,21.0
83.398,0.014,3.389,2.0
83.249,0.016,2.896,26.0
77.66,0.017,2.238,1.0
0.0,0.0,0.0,0.0
0.0,0.0,0.0,0.0
201.967,0.079,8.972,13.0
83.343,0.034,3.214,26.0
83.225,0.036,2.722,11.0
77.374,0.036,2.069,3.0
0.0,0.0,0.0,0.0
39.613,0.02,0.596,0.0
83.339,0.051,3.527,9.0
83.254,0.052,3.037,29.0
82.842,0.054,2.536,7.0
0.0,0.0,0.0,0.0
0.0,0.0,0.0,0.0
36.701,0.026,0.475,0.0
83.312,0.066,3.351,29.0
78.048,0.063,2.681,13.0
77.33,0.064,2.204,3.0
0.0,0.0,0.0,0.0
0.0,0.0,0.0,0.0
35.668,0.031,0.387,0.0
83.283,0.078,3.174,32.0
78.086,0.074,2.518,15.0
76.885,0.074,2.029,3.0
0.0,0.0,0.0,0.0
38.895,0.038,0.567,0.0
33.528,0.033,0.293,0.0
83.226,0.087,2.996,27.0
77.994,0.082,2.35,3.0
0.0,0.0,0.0,0.0
0.0,0.0,0.0,0.0
36.203,0.038,0.451,0.0
30.775,0.033,0.203,0.0
78.084,0.088,2.645,20.0
77.159,0.087,2.161,5.0
0.0,0.0,0.0,0.0
0.0,0.0,0.0,0.0
0.0,0.0,0.0,0.0
28.78,0.032,0.129,0.0
78.096,0.091,2.479,12.0
76.693,0.089,1.984,1.0
0.0,0.0,0.0,0.0
37.264,0.042,0.524,0.0
0.0,0.0,0.0,0.0
28.516,0.032,0.067,1.0
77.868,0.09,2.306,3.0
0.0,0.0,0.0,0.0
0.0,0.0,0.0,0.0
35.702,0.04,0.425,0.0
30.282,0.033,0.184,0.0
26.882,0.029,0.006,0.0
77.042,0.086,2.116,5.0
0.0,0.0,0.0,0.0
40.252,0.044,0.634,0.0
33.771,0.036,0.33,0.0
28.727,0.03,0.112,1.0
25.831,0.026,-0.049,0.0
0.0,0.0,0.0,0.0
0.0,0.0,0.0,0.0
0.0,0.0,0.0,0.0
31.368,0.03,0.24,0.0
27.893,0.026,0.05,0.0
24.435,0.022,-0.099,0.0
0.0,0.0,0.0,0.0
0.0,0.0,0.0,0.0
35.483,0.031,0.406,0.0
30.06,0.025,0.165,0.0
26.479,0.021,-0.008,0.0
23.565,0.018,-0.146,1.0
0.0,0.0,0.0,0.0
0.0,0.0,0.0,0.0
33.183,0.023,0.309,0.0
28.689,0.019,0.096,2.0
25.44,0.016,-0.063,0.0
22.06,0.013,-0.183,0.0
0.0,0.0,0.0,0.0
0.0,0.0,0.0,0.0
31.629,0.016,0.227,0.0
27.387,0.013,0.033,0.0
24.014,0.01,-0.11,0.0
21.081,0.008,-0.22,2.0
42.342,0.015,0.709,0.0
0.0,0.0,0.0,0.0
28.781,0.008,0.145,0.0
26.194,0.006,-0.023,0.0
23.331,0.004,-0.157,0.0
19.868,0.002,-0.25,0.0
0.0,0.0,0.0,0.0
33.08,0.001,0.29,0.0
28.422,0.0,0.082,1.0
25.138,-0.001,-0.076,0.0
21.591,-0.001,-0.192,1.0
18.667,-0.002,-0.275,0.0
36.247,-0.007,0.452,0.0
30.579,-0.007,0.202,0.0
27.091,-0.008,0.021,0.0
23.786,-0.008,-0.123,1.0
20.924,-0.008,-0.23,1.0
17.914,-0.008,-0.302,0.0
33.322,-0.017,0.345,0.0
28.738,-0.017,0.129,0.0
25.926,-0.017,-0.035,0.0
22.874,-0.016,-0.166,0.0
19.566,-0.015,-0.257,0.0
17.218,-0.014,-0.327,0.0
31.611,-0.028,0.259,0.0
28.281,-0.027,0.067,1.0
24.827,-0.025,-0.086,0.0
21.28,-0.023,-0.2,2.0
18.337,-0.021,-0.28,0.0
16.647,-0.02,-0.352,0.0
30.25,-0.04,0.184,0.0
26.604,-0.037,0.006,0.0
23.607,-0.034,-0.132,0.0
20.513,-0.031,-0.236,0.0
17.692,-0.028,-0.307,0.0
16.117,-0.027,-0.374,0.0
28.768,-0.051,0.115,6.0
25.573,-0.047,-0.047,0.0
22.289,-0.043,-0.172,0.0
19.171,-0.038,-0.262,0.0
17.076,-0.035,-0.333,0.0
15.652,-0.033,-0.397,0.0
27.763,-0.063,0.052,0.0
24.465,-0.057,-0.096,0.0
21.16,-0.051,-0.207,0.0
18.332,-0.046,-0.288,0.0
16.574,-0.043,-0.358,0.0
15.088,-0.04,-0.414,0.0
26.478,-0.073,-0.004,0.0
23.568,-0.067,-0.141,0.0
20.157,-0.059,-0.239,0.0
17.53,-0.053,-0.312,0.0
15.99,-0.05,-0.378,0.0
14.642,-0.047,-0.432,0.0
25.284,-0.084,-0.056,0.0
22.126,-0.076,-0.178,0.0
18.339,-0.064,-0.255,0.0
16.913,-0.061,-0.336,0.0
15.571,-0.057,-0.4,0.0
14.199,-0.054,-0.448,0.0
24.131,-0.095,-0.103,0.0
21.041,-0.084,-0.213,0.0
18.22,-0.075,-0.29,0.0
16.476,-0.069,-0.361,0.0
15.0,-0.064,-0.416,0.0
13.836,-0.061,-0.465,0.0
23.169,-0.105,-0.146,0.0
19.879,-0.092,-0.242,0.0
17.388,-0.082,-0.313,0.0
15.938,-0.077,-0.381,0.0
14.581,-0.072,-0.434,0.0
13.504,-0.068,-0.481,0.0
21.916,-0.114,-0.182,1.0
18.92,-0.1,-0.268,0.0
16.919,-0.092,-0.338,0.0
15.496,-0.085,-0.402,0.0
14.159,-0.08,-0.45,0.0
13.152,-0.075,-0.495,0.0
21.123,-0.125,-0.218,0.0
18.138,-0.109,-0.293,0.0
16.356,-0.1,-0.36,0.0
14.986,-0.093,-0.419,0.0
13.799,-0.087,-0.466,0.0
12.884,-0.083,-0.511,0.0
19.682,-0.13,-0.242,0.0
17.4,-0.117,-0.315,0.0
15.914,-0.109,-0.381,0.0
14.565,-0.101,-0.436,0.0
13.415,-0.095,-0.48,0.0
12.507,-0.09,-0.52,0.0
18.741,-0.138,-0.267,0.0
16.835,-0.126,-0.339,0.0
15.45,-0.118,-0.401,0.0
14.094,-0.109,-0.449,0.0
13.148,-0.103,-0.496,0.0
12.334,-0.099,-0.537,0.0
18.049,-0.148,-0.293,0.0
16.403,-0.136,-0.361,0.0
14.882,-0.125,-0.415,0.0
13.787,-0.118,-0.466,0.0
12.774,-0.111,-0.507,0.0
11.993,-0.106,-0.546,0.0
17.357,-0.156,-0.315,0.0
15.945,-0.146,-0.382,0.0
14.523,-0.134,-0.433,0.0
13.42,-0.126,-0.48,0.0
12.512,-0.119,-0.52,0.0
11.725,-0.113,-0.556,0.0
16.828,-0.166,-0.337,0.0
15.469,-0.155,-0.4,0.0
14.093,-0.143,-0.447,0.0
13.111,-0.135,-0.494,0.0
12.278,-0.128,-0.534,0.0
11.525,-0.122,-0.569,0.0
16.404,-0.177,-0.36,0.0
14.927,-0.163,-0.414,0.0
13.82,-0.153,-0.464,0.0
12.817,-0.143,-0.506,0.0
11.983,-0.136,-0.544,0.0
11.261,-0.129,-0.577,0.0
15.893,-0.186,-0.378,0.0
14.494,-0.171,-0.429,0.0
13.438,-0.161,-0.476,0.0
12.562,-0.152,-0.52,0.0
11.766,-0.144,-0.556,0.0
11.089,-0.138,-0.588,0.0
15.527,-0.196,-0.398,0.0
14.181,-0.181,-0.446,0.0
13.123,-0.17,-0.489,0.0
12.319,-0.161,-0.532,0.0
11.498,-0.152,-0.564,0.0
10.824,-0.145,-0.594,0.0
15.038,-0.205,-0.413,0.0
13.862,-0.191,-0.461,0.0
12.887,-0.179,-0.504,0.0
11.934,-0.168,-0.537,0.0
11.322,-0.161,-0.576,0.0
10.664,-0.153,-0.604,0.0
14.663,-0.214,-0.428,0.0
13.501,-0.199,-0.473,0.0
12.581,-0.188,-0.514,0.0
11.813,-0.178,-0.553,0.0
11.083,-0.169,-0.583,0.0
10.413,-0.161,-0.609,0.0
14.312,-0.224,-0.443,0.0
13.181,-0.208,-0.485,0.0
12.348,-0.197,-0.526,0.0
11.544,-0.186,-0.56,0.0
10.96,-0.179,-0.596,0.0
10.275,-0.169,-0.619,0.0
13.886,-0.232,-0.454,0.0
12.926,-0.218,-0.498,0.0
12.077,-0.206,-0.535,0.0
11.366,-0.196,-0.571,0.0
10.712,-0.186,-0.601,0.0
10.118,-0.178,-0.626,0.0
13.616,-0.242,-0.468,0.0
12.574,-0.226,-0.506,0.0
11.897,-0.216,-0.547,0.0
11.17,-0.205,-0.58,0.0
10.496,-0.194,-0.606,0.0
9.979,-0.186,-0.635,0.0
13.375,-0.253,-0.482,0.0
12.443,-0.238,-0.521,0.0
11.608,-0.224,-0.554,0.0
10.918,-0.212,-0.585,0.0
10.321,-0.203,-0.613,0.0
9.852,-0.195,-0.643,0.0
13.076,-0.262,-0.493,0.0
12.205,-0.247,-0.531,0.0
11.422,-0.233,-0.563,0.0
10.847,-0.223,-0.599,0.0
10.168,-0.211,-0.621,0.0
0.0,0.0,0.0,0.0
12.82,-0.272,-0.504,0.0
11.944,-0.256,-0.539,0.0
11.333,-0.245,-0.577,0.0
0.0,0.0,0.0,0.0
0.0,0.0,0.0,0.0
9.454,-0.21,-0.647,0.0
12.572,-0.282,-0.514,0.0
11.776,-0.266,-0.55,0.0
11.092,-0.253,-0.582,0.0
10.413,-0.239,-0.608,0.0
9.864,-0.229,-0.634,0.0
9.336,-0.218,-0.654,0.0
12.384,-0.293,-0.526,0.0
11.578,-0.276,-0.558,0.0
10.857,-0.261,-0.587,0.0
10.296,-0.249,-0.617,0.0
0.0,0.0,0.0,0.0
9.176,-0.226,-0.657,0.0
12.127,-0.301,-0.533,0.0
11.417,-0.286,-0.568,0.0
10.638,-0.269,-0.591,0.0
0.0,0.0,0.0,0.0
9.587,-0.246,-0.645,0.0
9.109,-0.236,-0.666,0.0
11.934,-0.311,-0.542,0.0
11.221,-0.295,-0.575,0.0
10.486,-0.278,-0.598,0.0
0.0,0.0,0.0,0.0
0.0,0.0,0.0,0.0
8.949,-0.243,-0.667,0.0
11.741,-0.321,-0.55,0.0
10.948,-0.302,-0.576,0.0
10.435,-0.29,-0.61,0.0
0.0,0.0,0.0,0.0
0.0,0.0,0.0,0.0
0.0,0.0,0.0,0.0
11.553,-0.331,-0.558,0.0
10.824,-0.313,-0.585,0.0
10.34,-0.301,-0.619,0.0
0.0,0.0,0.0,0.0
9.191,-0.272,-0.658,0.0
8.689,-0.259,-0.672,0.0
11.386,-0.342,-0.565,0.0
10.647,-0.322,-0.59,0.0
0.0,0.0,0.0,0.0
0.0,0.0,0.0,0.0
9.063,-0.28,-0.661,0.0
8.697,-0.27,-0.685,0.0
11.214,-0.351,-0.572,0.0
10.51,-0.332,-0.597,0.0
0.0,0.0,0.0,0.0
0.0,0.0,0.0,0.0
0.0,0.0,0.0,0.0
8.585,-0.279,-0.687,0.0
11.001,-0.36,-0.575,0.0
10.43,-0.343,-0.606,0.0
9.976,-0.33,-0.637,0.0
0.0,0.0,0.0,0.0
0.0,0.0,0.0,0.0
0.0,0.0,0.0,0.0
10.934,-0.372,-0.586,0.0
10.33,-0.354,-0.613,0.0
0.0,0.0,0.0,0.0
0.0,0.0,0.0,0.0
8.734,-0.306,-0.671,0.0
0.0,0.0,0.0,0.0
10.813,-0.383,-0.593,0.0
10.112,-0.361,-0.612,0.0
0.0,0.0,0.0,0.0
0.0,0.0,0.0,0.0
8.689,-0.316,-0.678,0.0
8.322,-0.305,-0.697,0.0
10.621,-0.391,-0.595,0.0
10.107,-0.375,-0.624,0.0
9.514,-0.355,-0.642,0.0
9.064,-0.34,-0.665,0.0
8.611,-0.325,-0.682,0.0
8.24,-0.313,-0.7,0.0
10.467,-0.4,-0.598,0.0
9.973,-0.384,-0.627,0.0
0.0,0.0,0.0,0.0
8.958,-0.349,-0.668,0.0
8.563,-0.336,-0.688,0.0
8.171,-0.322,-0.703,0.0
10.382,-0.412,-0.605,0.0
9.878,-0.394,-0.632,0.0
0.0,0.0,0.0,0.0
0.0,0.0,0.0,0.0
0.0,0.0,0.0,0.0
8.104,-0.332,-0.706,0.0
10.335,-0.425,-0.613,0.0
9.742,-0.403,-0.634,0.0
9.222,-0.384,-0.653,0.0
8.808,-0.369,-0.675,0.0
0.0,0.0,0.0,0.0
8.006,-0.339,-0.706,0.0
10.151,-0.432,-0.612,0.0
0.0,0.0,0.0,0.0
9.091,-0.391,-0.653,0.0
8.696,-0.377,-0.676,0.0
0.0,0.0,0.0,0.0
7.949,-0.348,-0.709,0.0
10.152,-0.447,-0.623,0.0
0.0,0.0,0.0,0.0
0.0,0.0,0.0,0.0
8.559,-0.383,-0.673,0.0
8.192,-0.369,-0.692,0.0
7.914,-0.358,-0.714,0.0
9.998,-0.455,-0.623,0.0
0.0,0.0,0.0,0.0
0.0,0.0,0.0,0.0
0.0,0.0,0.0,0.0
0.0,0.0,0.0,0.0
0.0,0.0,0.0,0.0
0.0,0.0,0.0,0.0
9.384,-0.443,-0.647,0.0
0.0,0.0,0.0,0.0
0.0,0.0,0.0,0.0
0.0,0.0,0.0,0.0
0.0,0.0,0.0,0.0
0.0,0.0,0.0,0.0
9.376,-0.456,-0.654,0.0
0.0,0.0,0.0,0.0
0.0,0.0,0.0,0.0
8.071,-0.399,-0.703,0.0
0.0,0.0,0.0,0.0
0.0,0.0,0.0,0.0
0.0,0.0,0.0,0.0
8.749,-0.441,-0.668,0.0
0.0,0.0,0.0,0.0
7.999,-0.408,-0.703,0.0
0.0,0.0,0.0,0.0
9.652,-0.496,-0.634,0.0
0.0,0.0,0.0,0.0
8.77,-0.455,-0.676,0.0
8.327,-0.435,-0.69,0.0
8.03,-0.421,-0.712,0.0
0.0,0.0,0.0,0.0
9.586,-0.507,-0.636,0.0
9.099,-0.484,-0.656,0.0
0.0,0.0,0.0,0.0
8.266,-0.444,-0.691,0.0
7.954,-0.429,-0.711,0.0
0.0,0.0,0.0,0.0
9.574,-0.52,-0.642,0.0
9.053,-0.494,-0.659,0.0
8.585,-0.471,-0.674,0.0
8.198,-0.452,-0.691,0.0
7.912,-0.439,-0.712,0.0
7.62,-0.425,-0.729,0.0
9.471,-0.529,-0.641,0.0
8.962,-0.503,-0.658,0.0
8.593,-0.485,-0.68,0.0
0.0,0.0,0.0,0.0
0.0,0.0,0.0,0.0
0.0,0.0,0.0,0.0
0.0,0.0,0.0,0.0
8.971,-0.517,-0.664,0.0
8.525,-0.493,-0.679,0.0
0.0,0.0,0.0,0.0
0.0,0.0,0.0,0.0
0.0,0.0,0.0,0.0
9.387,-0.552,-0.646,0.0
8.881,-0.525,-0.662,0.0
8.473,-0.503,-0.68,0.0
0.0,0.0,0.0,0.0
0.0,0.0,0.0,0.0
0.0,0.0,0.0,0.0
0.0,0.0,0.0,0.0
0.0,0.0,0.0,0.0
8.5,-0.517,-0.686,0.0
0.0,0.0,0.0,0.0
0.0,0.0,0.0,0.0
0.0,0.0,0.0,0.0
9.236,-0.571,-0.645,0.0
0.0,0.0,0.0,0.0
8.412,-0.524,-0.683,0.0
0.0,0.0,0.0,0.0
0.0,0.0,0.0,0.0
0.0,0.0,0.0,0.0
9.228,-0.584,-0.649,0.0
0.0,0.0,0.0,0.0
8.427,-0.538,-0.688,0.0
0.0,0.0,0.0,0.0
0.0,0.0,0.0,0.0
0.0,0.0,0.0,0.0
9.212,-0.596,-0.651,0.0
8.744,-0.568,-0.667,0.0
8.41,-0.549,-0.69,0.0
0.0,0.0,0.0,0.0
0.0,0.0,0.0,0.0
0.0,0.0,0.0,0.0
9.167,-0.607,-0.651,0.0
0.0,0.0,0.0,0.0
8.355,-0.558,-0.688,0.0
0.0,0.0,0.0,0.0
0.0,0.0,0.0,0.0
0.0,0.0,0.0,0.0
9.209,-0.623,-0.657,0.0
8.733,-0.593,-0.672,0.0
8.346,-0.569,-0.689,0.0
8.021,-0.549,-0.709,0.0
0.0,0.0,0.0,0.0
0.0,0.0,0.0,0.0
0.0,0.0,0.0,0.0
8.724,-0.605,-0.673,0.0
8.361,-0.582,-0.693,0.0
0.0,0.0,0.0,0.0
0.0,0.0,0.0,0.0
0.0,0.0,0.0,0.0
9.122,-0.643,-0.655,0.0
8.668,-0.614,-0.671,0.0
0.0,0.0,0.0,0.0
0.0,0.0,0.0,0.0
0.0,0.0,0.0,0.0
7.321,-0.527,-0.733,0.0
0.0,0.0,0.0,0.0
8.647,-0.625,-0.671,0.0
8.343,-0.605,-0.694,0.0
0.0,0.0,0.0,0.0
0.0,0.0,0.0,0.0
7.354,-0.54,-0.737,0.0
0.0,0.0,0.0,0.0
8.622,-0.635,-0.67,0.0
0.0,0.0,0.0,0.0
0.0,0.0,0.0,0.0
0.0,0.0,0.0,0.0
7.285,-0.545,-0.731,0.0
0.0,0.0,0.0,0.0
8.684,-0.652,-0.675,0.0
8.318,-0.626,-0.693,0.0
0.0,0.0,0.0,0.0
0.0,0.0,0.0,0.0
7.304,-0.556,-0.733,0.0
0.0,0.0,0.0,0.0
8.623,-0.659,-0.671,0.0
0.0,0.0,0.0,0.0
7.961,-0.613,-0.709,0.0
0.0,0.0,0.0,0.0
7.3,-0.566,-0.733,0.0
0.0,0.0,0.0,0.0
8.681,-0.675,-0.675,0.0
8.303,-0.648,-0.692,0.0
0.0,0.0,0.0,0.0
0.0,0.0,0.0,0.0
7.318,-0.577,-0.734,0.0
0.0,0.0,0.0,0.0
8.665,-0.686,-0.674,0.0
8.266,-0.656,-0.689,0.0
0.0,0.0,0.0,0.0
0.0,0.0,0.0,0.0
7.32,-0.588,-0.734,0.0
0.0,0.0,0.0,0.0
8.637,-0.695,-0.671,0.0
8.296,-0.67,-0.69,0.0
7.904,-0.64,-0.703,0.0
0.0,0.0,0.0,0.0
7.3,-0.596,-0.731,0.0
0.0,0.0,0.0,0.0
8.696,-0.711,-0.674,0.0
8.33,-0.684,-0.692,0.0
7.923,-0.652,-0.703,0.0
0.0,0.0,0.0,0.0
0.0,0.0,0.0,0.0
0.0,0.0,0.0,0.0
8.698,-0.723,-0.673,0.0
8.328,-0.694,-0.69,0.0
7.923,-0.663,-0.702,0.0
0.0,0.0,0.0,0.0
0.0,0.0,0.0,0.0
0.0,0.0,0.0,0.0
8.696,-0.734,-0.671,0.0
8.297,-0.702,-0.686,0.0
7.945,-0.675,-0.702,0.0
0.0,0.0,0.0,0.0
0.0,0.0,0.0,0.0
0.0,0.0,0.0,0.0
0.0,0.0,0.0,0.0
8.311,-0.714,-0.685,0.0
8.022,-0.691,-0.706,0.0
0.0,0.0,0.0,0.0
0.0,0.0,0.0,0.0
9.213,-0.798,-0.654,0.0
8.773,-0.762,-0.672,0.0
8.368,-0.729,-0.687,0.0
7.973,-0.697,-0.7,0.0
0.0,0.0,0.0,0.0
0.0,0.0,0.0,0.0
9.186,-0.807,-0.649,0.0
0.0,0.0,0.0,0.0
8.369,-0.739,-0.684,0.0
0.0,0.0,0.0,0.0
0.0,0.0,0.0,0.0
0.0,0.0,0.0,0.0
9.256,-0.824,-0.651,0.0
8.694,-0.776,-0.659,0.0
8.407,-0.753,-0.684,0.0
8.091,-0.726,-0.704,0.0
0.0,0.0,0.0,0.0
0.0,0.0,0.0,0.0
0.0,0.0,0.0,0.0
0.0,0.0,0.0,0.0
8.397,-0.761,-0.68,0.0
8.081,-0.735,-0.7,0.0
0.0,0.0,0.0,0.0
0.0,0.0,0.0,0.0
9.342,-0.853,-0.649,0.0
0.0,0.0,0.0,0.0
8.427,-0.774,-0.678,0.0
8.09,-0.745,-0.697,0.0
0.0,0.0,0.0,0.0
0.0,0.0,0.0,0.0
0.0,0.0,0.0,0.0
0.0,0.0,0.0,0.0
8.509,-0.791,-0.681,0.0
8.1,-0.755,-0.694,0.0
0.0,0.0,0.0,0.0
0.0,0.0,0.0,0.0
0.0,0.0,0.0,0.0
0.0,0.0,0.0,0.0
8.492,-0.798,-0.675,0.0
8.152,-0.768,-0.694,0.0
7.817,-0.738,-0.708,0.0
0.0,0.0,0.0,0.0
9.422,-0.891,-0.64,0.0
0.0,0.0,0.0,0.0
8.548,-0.812,-0.675,0.0
8.197,-0.781,-0.693,0.0
7.888,-0.753,-0.71,0.0
0.0,0.0,0.0,0.0
16.471,-0.075,-0.37,0.0
15.184,-0.069,-0.419,0.0
14.063,-0.065,-0.461,0.0
13.212,-0.061,-0.502,0.0
12.447,-0.058,-0.538,0.0
11.755,-0.055,-0.568,0.0
16.974,-0.078,-0.346,0.0
15.728,-0.072,-0.402,0.0
14.523,-0.067,-0.445,0.0
13.529,-0.063,-0.486,0.0
12.749,-0.059,-0.524,0.0
11.999,-0.056,-0.555,0.0
17.587,-0.081,-0.321,0.0
16.233,-0.075,-0.38,0.0
15.03,-0.069,-0.429,0.0
13.875,-0.064,-0.469,0.0
13.112,-0.061,-0.511,0.0
12.367,-0.057,-0.546,0.0
18.342,-0.084,-0.297,0.0
16.765,-0.076,-0.358,0.0
15.469,-0.071,-0.41,0.0
14.316,-0.065,-0.454,0.0
13.425,-0.061,-0.495,0.0
12.598,-0.057,-0.53,0.0
19.233,-0.086,-0.271,0.0
17.296,-0.078,-0.333,0.0
15.937,-0.071,-0.389,0.0
14.833,-0.066,-0.439,0.0
13.816,-0.062,-0.48,0.0
12.946,-0.058,-0.517,0.0
20.432,-0.089,-0.245,0.0
18.064,-0.079,-0.309,0.0
16.566,-0.072,-0.369,0.0
15.258,-0.066,-0.419,0.0
14.08,-0.061,-0.46,0.0
13.216,-0.057,-0.499,0.0
21.78,-0.092,-0.215,1.0
18.902,-0.08,-0.283,0.0
17.066,-0.071,-0.344,0.0
15.775,-0.066,-0.4,0.0
14.621,-0.06,-0.446,0.0
13.642,-0.056,-0.487,0.0
22.915,-0.093,-0.177,0.0
19.929,-0.08,-0.257,0.0
17.743,-0.071,-0.32,0.0
16.409,-0.065,-0.382,0.0
15.095,-0.059,-0.429,0.0
13.961,-0.054,-0.469,0.0
23.924,-0.091,-0.135,0.0
21.302,-0.081,-0.23,0.0
18.46,-0.069,-0.294,0.0
16.813,-0.062,-0.356,0.0
15.596,-0.057,-0.411,0.0
14.408,-0.052,-0.453,0.0
25.176,-0.09,-0.089,0.0
22.22,-0.078,-0.193,0.0
19.41,-0.068,-0.268,0.0
17.426,-0.06,-0.332,0.0
16.076,-0.054,-0.389,0.0
14.969,-0.05,-0.439,0.0
26.242,-0.086,-0.037,0.0
23.604,-0.076,-0.155,0.0
20.686,-0.066,-0.242,0.0
18.165,-0.057,-0.308,0.0
16.633,-0.051,-0.367,0.0
15.376,-0.046,-0.419,0.0
27.514,-0.081,0.019,0.0
24.913,-0.072,-0.111,0.0
21.916,-0.062,-0.21,0.0
19.08,-0.052,-0.283,0.0
17.172,-0.046,-0.343,0.0
15.884,-0.042,-0.399,0.0
28.748,-0.073,0.08,6.0
25.759,-0.064,-0.06,0.0
23.288,-0.057,-0.174,0.0
20.201,-0.048,-0.257,0.0
17.898,-0.041,-0.32,0.0
16.441,-0.037,-0.379,0.0
28.878,-0.062,0.14,2.0
27.114,-0.056,-0.007,0.0
24.019,-0.048,-0.13,0.0
21.284,-0.041,-0.226,0.0
18.49,-0.034,-0.292,0.0
16.936,-0.03,-0.355,0.0
31.497,-0.054,0.219,0.0
28.604,-0.046,0.052,3.0
25.361,-0.039,-0.084,0.0
22.417,-0.033,-0.192,0.0
19.673,-0.027,-0.27,0.0
17.542,-0.023,-0.331,0.0
33.203,-0.04,0.301,0.0
28.807,-0.033,0.113,2.0
26.459,-0.028,-0.032,0.0
23.693,-0.023,-0.153,1.0
21.008,-0.018,-0.244,1.0
18.326,-0.014,-0.307,0.0
43.061,4.409,3.621,35.0
58.565,6.003,4.589,32.0
58.879,6.041,4.278,26.0
57.969,5.954,3.876,32.0
57.734,5.936,3.531,28.0
57.901,5.96,3.212,28.0
43.068,4.454,3.593,24.0
58.4,6.046,4.539,33.0
58.804,6.094,4.234,31.0
57.771,5.992,3.825,32.0
57.72,5.993,3.493,28.0
57.98,6.027,3.179,29.0
43.02,4.492,3.561,24.0
58.542,6.118,4.511,22.0
59.023,6.174,4.211,18.0
57.662,6.037,3.779,31.0
57.881,6.067,3.463,31.0
58.104,6.096,3.145,32.0
58.165,6.13,4.774,21.0
54.07,5.703,4.128,20.0
58.584,6.184,4.138,33.0
57.718,6.098,3.742,32.0
58.026,6.137,3.431,31.0
58.475,6.19,3.124,32.0
58.241,6.192,4.738,15.0
53.726,5.716,4.063,27.0
58.236,6.201,4.071,32.0
57.663,6.145,3.695,32.0
58.108,6.198,3.392,27.0
58.562,6.252,3.085,32.0
53.737,5.761,4.331,29.0
53.656,5.757,4.016,27.0
58.098,6.238,4.016,29.0
57.7,6.2,3.653,27.0
58.202,6.259,3.352,31.0
58.589,6.306,3.041,28.0
53.224,5.752,4.247,25.0
53.672,5.804,3.975,25.0
57.924,6.268,3.958,27.0
57.809,6.261,3.614,32.0
58.025,6.289,3.296,31.0
58.414,6.336,2.984,32.0
53.241,5.798,4.204,25.0
53.115,5.788,3.89,14.0
57.63,6.284,3.89,28.0
57.611,6.286,3.554,18.0
57.819,6.313,3.236,31.0
58.044,6.343,2.917,26.0
53.186,5.834,4.155,24.0
53.142,5.832,3.847,22.0
57.553,6.32,3.836,21.0
54.461,5.984,3.313,28.0
57.878,6.364,3.189,31.0
58.25,6.409,2.878,32.0
53.111,5.866,4.103,23.0
53.021,5.859,3.791,12.0
54.019,5.972,3.553,12.0
57.626,6.374,3.454,5.0
57.854,6.404,3.136,31.0
58.276,6.454,2.827,33.0
53.116,5.904,4.055,27.0
53.289,5.925,3.763,17.0
54.013,6.008,3.504,27.0
57.453,6.395,3.392,17.0
57.927,6.451,3.088,27.0
58.142,6.479,2.767,32.0
53.203,5.949,4.013,24.0
57.795,6.465,4.027,15.0
53.996,6.042,3.453,27.0
57.525,6.44,3.342,24.0
57.965,6.493,3.036,27.0
58.007,6.501,2.707,32.0
53.149,5.976,3.958,21.0
57.492,6.467,3.951,14.0
54.149,6.093,3.41,28.0
57.461,6.468,3.284,31.0
58.075,6.541,2.986,31.0
58.326,6.572,2.665,32.0
53.151,6.008,3.906,27.0
54.007,6.107,3.659,27.0
54.625,6.178,3.387,28.0
57.689,6.527,3.24,32.0
58.029,6.569,2.926,19.0
59.064,6.689,2.641,26.0
53.041,6.025,3.845,23.0
53.973,6.132,3.602,24.0
55.267,6.28,3.372,17.0
57.845,6.576,3.191,32.0
55.558,6.318,2.746,9.0
59.163,6.731,2.586,20.0
53.253,6.076,3.806,19.0
53.93,6.154,3.544,20.0
46.449,5.302,2.786,29.0
57.838,6.603,3.131,32.0
58.127,6.639,2.813,6.0
59.141,6.757,2.524,14.0
46.532,5.331,3.278,9.0
46.505,5.328,3.008,12.0
46.434,5.321,2.736,28.0
57.841,6.63,3.071,13.0
58.722,6.733,2.781,18.0
59.132,6.782,2.461,18.0
46.496,5.346,3.226,14.0
46.453,5.342,2.955,19.0
46.434,5.34,2.687,20.0
46.474,5.346,2.418,15.0
58.637,6.747,2.714,9.0
59.071,6.798,2.396,20.0
46.471,5.361,3.174,16.0
46.415,5.355,2.903,37.0
46.432,5.357,2.637,17.0
46.455,5.36,2.367,21.0
46.493,5.366,2.102,18.0
46.461,5.363,1.834,15.0
46.448,5.374,3.121,30.0
46.403,5.369,2.851,37.0
46.424,5.371,2.585,27.0
46.456,5.376,2.316,31.0
46.454,5.376,2.048,37.0
46.442,5.376,1.781,30.0
46.435,5.386,3.068,46.0
46.386,5.38,2.798,47.0
46.406,5.383,2.532,36.0
46.449,5.388,2.263,38.0
46.451,5.388,1.996,43.0
46.416,5.385,1.729,29.0
46.419,5.396,3.014,46.0
46.377,5.391,2.745,51.0
46.405,5.393,2.479,37.0
46.435,5.397,2.209,38.0
46.424,5.396,1.943,44.0
46.399,5.393,1.675,29.0
46.401,5.403,2.96,42.0
46.381,5.4,2.691,51.0
46.416,5.404,2.427,47.0
46.421,5.404,2.155,47.0
46.415,5.403,1.889,39.0
46.387,5.4,1.621,32.0
46.401,5.411,2.907,47.0
46.385,5.408,2.638,49.0
46.415,5.41,2.373,51.0
46.4,5.408,2.1,50.0
46.404,5.409,1.834,33.0
46.382,5.406,1.567,36.0
46.38,5.413,2.85,52.0
46.39,5.414,2.583,40.0
46.419,5.416,2.318,53.0
46.398,5.413,2.046,49.0
46.392,5.411,1.779,33.0
46.381,5.41,1.513,39.0
46.372,5.416,2.794,53.0
46.375,5.415,2.527,39.0
46.418,5.418,2.263,49.0
46.407,5.416,1.991,46.0
46.377,5.412,1.723,39.0
46.38,5.412,1.457,37.0
46.382,5.418,2.739,55.0
46.393,5.418,2.473,46.0
46.408,5.418,2.207,48.0
46.408,5.416,1.936,43.0
46.375,5.412,1.668,36.0
46.369,5.41,1.401,33.0
46.38,5.417,2.684,56.0
46.415,5.419,2.418,52.0
46.406,5.416,2.151,48.0
46.397,5.414,1.879,37.0
46.38,5.41,1.613,36.0
46.36,5.407,1.346,31.0
46.39,5.415,2.628,47.0
46.432,5.417,2.363,53.0
46.406,5.412,2.095,47.0
46.387,5.408,1.823,30.0
46.379,5.406,1.556,37.0
46.354,5.402,1.29,29.0
46.385,5.409,2.572,37.0
46.425,5.411,2.306,47.0
46.411,5.407,2.039,49.0
46.402,5.404,1.767,31.0
46.391,5.401,1.501,38.0
46.368,5.397,1.234,26.0
46.402,5.404,2.516,37.0
46.428,5.404,2.251,41.0
46.415,5.4,1.983,46.0
46.398,5.396,1.711,27.0
46.389,5.393,1.444,33.0
46.368,5.388,1.177,24.0
46.421,5.396,2.46,43.0
46.443,5.396,2.194,36.0
46.432,5.392,1.926,45.0
46.404,5.386,1.654,23.0
46.394,5.382,1.387,30.0
46.353,5.376,1.12,16.0
59.146,6.257,1.917,27.0
59.436,6.279,1.586,15.0
46.364,4.891,0.972,6.0
45.034,4.744,0.683,4.0
35.787,3.765,0.338,0.0
29.262,3.074,0.109,0.0
59.611,6.246,1.864,22.0
59.456,6.22,1.519,4.0
45.9,4.795,0.91,14.0
45.12,4.707,0.633,6.0
34.587,3.603,0.288,0.0
29.099,3.027,0.076,1.0
59.831,6.206,1.804,24.0
51.848,5.369,1.267,2.0
45.722,4.728,0.856,4.0
42.789,4.418,0.553,0.0
0.0,0.0,0.0,0.0
28.163,2.899,0.043,0.0
59.842,6.142,1.739,26.0
51.556,5.283,1.204,5.0
45.61,4.666,0.804,7.0
39.33,4.017,0.465,0.0
32.147,3.279,0.197,0.0
27.295,2.78,0.012,0.0
59.866,6.077,1.674,22.0
51.274,5.196,1.142,5.0
45.698,4.623,0.757,6.0
39.572,3.996,0.426,0.0
31.626,3.189,0.16,0.0
26.173,2.635,-0.016,1.0
0.0,0.0,0.0,0.0
46.966,4.703,0.995,1.0
45.956,4.595,0.712,14.0
35.801,3.573,0.347,0.0
29.234,2.913,0.117,1.0
25.885,2.575,-0.043,1.0
58.312,5.78,1.507,1.0
46.696,4.62,0.941,2.0
46.115,4.554,0.666,5.0
34.868,3.437,0.302,1.0
29.221,2.876,0.087,5.0
25.18,2.474,-0.068,0.0
53.002,5.187,1.315,1.0
46.641,4.556,0.892,7.0
46.225,4.507,0.621,1.0
0.0,0.0,0.0,0.0
28.782,2.796,0.056,1.0
24.584,2.384,-0.091,0.0
51.928,5.016,1.237,5.0
46.747,4.506,0.847,5.0
0.0,0.0,0.0,0.0
32.388,3.11,0.216,0.0
27.446,2.631,0.027,0.0
24.17,2.313,-0.113,0.0
51.69,4.925,1.18,13.0
46.87,4.456,0.804,7.0
40.379,3.831,0.463,0.0
29.309,2.775,0.167,1.0
26.519,2.506,0.0,0.0
23.695,2.235,-0.133,0.0
51.281,4.817,1.122,4.0
47.119,4.416,0.763,4.0
35.605,3.33,0.375,0.0
29.278,2.732,0.138,3.0
26.0,2.421,-0.023,2.0
22.929,2.131,-0.151,0.0
49.163,4.549,1.029,1.0
47.393,4.375,0.723,2.0
35.679,3.287,0.342,0.0
29.23,2.687,0.111,5.0
25.741,2.361,-0.047,1.0
22.475,2.057,-0.168,1.0
47.997,4.373,0.961,2.0
45.589,4.144,0.654,1.0
0.0,0.0,0.0,0.0
29.052,2.628,0.084,1.0
25.046,2.261,-0.068,0.0
22.123,1.993,-0.185,3.0
48.02,4.304,0.918,3.0
41.354,3.698,0.556,0.0
33.288,2.969,0.259,0.0
27.958,2.488,0.057,0.0
24.697,2.193,-0.089,0.0
21.831,1.934,-0.202,2.0
48.397,4.265,0.884,7.0
41.305,3.631,0.52,0.0
32.367,2.838,0.224,0.0
27.181,2.378,0.032,0.0
24.162,2.108,-0.108,0.0
21.499,1.872,-0.217,1.0
48.615,4.21,0.846,4.0
0.0,0.0,0.0,0.0
30.952,2.666,0.188,0.0
26.728,2.296,0.009,1.0
23.689,2.03,-0.125,0.0
21.123,1.806,-0.231,0.0
88.154,-5.116,11.156,13.0
89.19,-5.158,10.795,27.0
90.304,-5.205,10.431,16.0
86.604,-4.974,9.519,13.0
87.14,-4.987,9.099,28.0
87.289,-4.98,8.636,29.0
88.166,-5.039,11.226,30.0
0.0,0.0,0.0,0.0
87.141,-4.946,10.131,7.0
92.902,-5.254,10.28,18.0
87.091,-4.908,9.158,16.0
87.652,-4.922,8.735,17.0
88.01,-4.951,11.27,19.0
89.838,-5.035,11.006,21.0
87.12,-4.864,10.191,17.0
93.164,-5.183,10.374,16.0
87.491,-4.849,9.26,16.0
87.384,-4.826,8.769,23.0
87.601,-4.846,11.278,26.0
86.835,-4.785,10.697,13.0
87.249,-4.789,10.265,32.0
91.212,-4.988,10.218,11.0
82.251,-4.481,8.76,18.0
87.322,-4.739,8.819,14.0
87.609,-4.763,11.336,26.0
86.672,-4.693,10.733,25.0
87.242,-4.706,10.319,12.0
81.552,-4.382,9.185,10.0
82.309,-4.405,8.816,25.0
87.076,-4.642,8.846,22.0
87.587,-4.676,11.386,22.0
86.813,-4.616,10.802,30.0
87.023,-4.608,10.344,13.0
81.871,-4.319,9.269,16.0
82.392,-4.329,8.872,24.0
87.164,-4.561,8.904,18.0
87.501,-4.584,11.425,15.0
86.993,-4.539,10.872,32.0
86.777,-4.508,10.362,23.0
81.951,-4.24,9.322,12.0
82.435,-4.247,8.92,12.0
84.011,-4.312,8.625,20.0
86.703,-4.454,11.366,10.0
87.248,-4.463,10.949,30.0
86.673,-4.415,10.393,17.0
89.809,-4.555,10.26,11.0
82.448,-4.164,8.961,19.0
84.083,-4.23,8.673,21.0
87.328,-4.396,11.489,16.0
87.309,-4.376,10.998,30.0
87.063,-4.344,10.48,26.0
87.276,-4.335,10.01,6.0
82.341,-4.072,8.986,20.0
84.112,-4.142,8.712,12.0
87.43,-4.309,11.54,25.0
87.321,-4.284,11.036,17.0
0.0,0.0,0.0,0.0
89.803,-4.366,10.337,12.0
82.27,-3.982,9.011,18.0
81.865,-3.945,8.512,10.0
86.943,-4.193,11.51,20.0
87.492,-4.198,11.092,15.0
86.767,-4.145,10.513,15.0
81.473,-3.874,9.408,10.0
82.225,-3.891,9.036,24.0
82.206,-3.873,8.576,9.0
86.654,-4.084,11.502,16.0
87.308,-4.095,11.098,19.0
86.342,-4.03,10.49,17.0
81.564,-3.789,9.444,17.0
81.009,-3.746,8.927,18.0
82.372,-3.79,8.618,27.0
86.504,-3.982,11.508,20.0
87.397,-4.003,11.135,12.0
86.131,-3.925,10.489,15.0
81.656,-3.703,9.478,23.0
81.002,-3.656,8.948,28.0
82.553,-3.707,8.659,27.0
86.578,-3.887,11.541,25.0
85.73,-3.83,10.944,26.0
85.876,-3.817,10.479,16.0
81.741,-3.616,9.506,27.0
81.049,-3.567,8.971,27.0
0.0,0.0,0.0,0.0
86.822,-3.801,11.592,29.0
85.772,-3.735,10.967,19.0
86.158,-3.733,10.53,18.0
81.302,-3.504,9.471,28.0
65.146,-2.793,7.223,13.0
79.644,-3.398,8.384,5.0
86.385,-3.683,11.548,25.0
82.252,-3.489,10.53,11.0
86.101,-3.631,10.536,15.0
81.088,-3.403,9.457,22.0
65.174,-2.721,7.235,8.0
79.889,-3.317,8.42,14.0
11.89,-0.714,-0.538,0.0
11.231,-0.678,-0.572,0.0
10.641,-0.645,-0.602,0.0
0.0,0.0,0.0,0.0
0.0,0.0,0.0,0.0
9.007,-0.555,-0.664,0.0
11.819,-0.729,-0.541,0.0
11.124,-0.69,-0.572,0.0
10.523,-0.656,-0.601,0.0
0.0,0.0,0.0,0.0
0.0,0.0,0.0,0.0
8.896,-0.563,-0.661,0.0
11.763,-0.746,-0.545,0.0
11.084,-0.706,-0.576,0.0
10.406,-0.666,-0.6,0.0
0.0,0.0,0.0,0.0
0.0,0.0,0.0,0.0
8.859,-0.575,-0.662,0.0
11.697,-0.761,-0.548,0.0
10.995,-0.718,-0.577,0.0
10.368,-0.681,-0.603,0.0
0.0,0.0,0.0,0.0
0.0,0.0,0.0,0.0
8.841,-0.589,-0.665,0.0
11.681,-0.779,-0.552,0.0
11.01,-0.738,-0.583,0.0
10.317,-0.695,-0.604,0.0
0.0,0.0,0.0,0.0
0.0,0.0,0.0,0.0
0.0,0.0,0.0,0.0
11.623,-0.794,-0.555,0.0
10.948,-0.752,-0.584,0.0
10.287,-0.71,-0.607,0.0
0.0,0.0,0.0,0.0
9.283,-0.646,-0.654,0.0
8.785,-0.614,-0.668,0.0
11.594,-0.812,-0.557,0.0
10.935,-0.769,-0.587,0.0
10.25,-0.724,-0.608,0.0
0.0,0.0,0.0,0.0
9.208,-0.656,-0.651,0.0
8.799,-0.63,-0.672,0.0
11.535,-0.826,-0.558,0.0
10.876,-0.782,-0.588,0.0
10.248,-0.74,-0.612,0.0
9.685,-0.703,-0.633,0.0
0.0,0.0,0.0,0.0
8.782,-0.643,-0.674,0.0
11.476,-0.841,-0.559,0.0
10.832,-0.797,-0.588,0.0
0.0,0.0,0.0,0.0
9.561,-0.709,-0.628,0.0
0.0,0.0,0.0,0.0
8.736,-0.654,-0.672,0.0
11.448,-0.857,-0.56,0.0
10.697,-0.804,-0.584,0.0
0.0,0.0,0.0,0.0
9.57,-0.725,-0.631,0.0
0.0,0.0,0.0,0.0
8.732,-0.667,-0.674,0.0
11.451,-0.876,-0.563,0.0
10.708,-0.822,-0.586,0.0
0.0,0.0,0.0,0.0
0.0,0.0,0.0,0.0
0.0,0.0,0.0,0.0
8.684,-0.678,-0.672,0.0
11.408,-0.891,-0.563,0.0
10.653,-0.835,-0.585,0.0
0.0,0.0,0.0,0.0
0.0,0.0,0.0,0.0
0.0,0.0,0.0,0.0
8.701,-0.693,-0.674,0.0
11.425,-0.91,-0.565,0.0
10.688,-0.855,-0.588,0.0
0.0,0.0,0.0,0.0
0.0,0.0,0.0,0.0
9.127,-0.738,-0.657,0.0
8.68,-0.705,-0.673,0.0
11.396,-0.926,-0.564,0.0
10.64,-0.867,-0.586,0.0
0.0,0.0,0.0,0.0
0.0,0.0,0.0,0.0
0.0,0.0,0.0,0.0
8.696,-0.72,-0.675,0.0
11.269,-0.933,-0.558,0.0
10.657,-0.885,-0.588,0.0
0.0,0.0,0.0,0.0
0.0,0.0,0.0,0.0
0.0,0.0,0.0,0.0
8.673,-0.731,-0.673,0.0
11.387,-0.96,-0.564,0.0
0.0,0.0,0.0,0.0
0.0,0.0,0.0,0.0
0.0,0.0,0.0,0.0
0.0,0.0,0.0,0.0
8.67,-0.744,-0.673,0.0
7.13,0.074,-0.755,0.0
0.0,0.0,0.0,0.0
0.0,0.0,0.0,0.0
0.0,0.0,0.0,0.0
0.0,0.0,0.0,0.0
0.0,0.0,0.0,0.0
7.118,0.066,-0.749,0.0
0.0,0.0,0.0,0.0
0.0,0.0,0.0,0.0
0.0,0.0,0.0,0.0
0.0,0.0,0.0,0.0
0.0,0.0,0.0,0.0
7.127,0.058,-0.745,0.0
0.0,0.0,0.0,0.0
0.0,0.0,0.0,0.0
0.0,0.0,0.0,0.0
0.0,0.0,0.0,0.0
0.0,0.0,0.0,0.0
7.195,0.05,-0.747,0.0
0.0,0.0,0.0,0.0
0.0,0.0,0.0,0.0
0.0,0.0,0.0,0.0
0.0,0.0,0.0,0.0
0.0,0.0,0.0,0.0
7.233,0.043,-0.745,0.0
0.0,0.0,0.0,0.0
0.0,0.0,0.0,0.0
0.0,0.0,0.0,0.0
0.0,0.0,0.0,0.0
0.0,0.0,0.0,0.0
7.281,0.035,-0.744,0.0
0.0,0.0,0.0,0.0
0.0,0.0,0.0,0.0
0.0,0.0,0.0,0.0
0.0,0.0,0.0,0.0
0.0,0.0,0.0,0.0
7.335,0.028,-0.744,0.0
0.0,0.0,0.0,0.0
0.0,0.0,0.0,0.0
0.0,0.0,0.0,0.0
0.0,0.0,0.0,0.0
0.0,0.0,0.0,0.0
7.334,0.02,-0.737,0.0
7.136,0.018,-0.756,0.0
0.0,0.0,0.0,0.0
0.0,0.0,0.0,0.0
0.0,0.0,0.0,0.0
0.0,0.0,0.0,0.0
7.401,0.013,-0.737,0.0
7.172,0.011,-0.753,0.0
0.0,0.0,0.0,0.0
0.0,0.0,0.0,0.0
0.0,0.0,0.0,0.0
0.0,0.0,0.0,0.0
0.0,0.0,0.0,0.0
7.203,0.004,-0.749,0.0
6.94,0.002,-0.76,0.0
0.0,0.0,0.0,0.0
0.0,0.0,0.0,0.0
0.0,0.0,0.0,0.0
0.0,0.0,0.0,0.0
7.247,-0.002,-0.746,0.0
6.955,-0.003,-0.754,0.0
0.0,0.0,0.0,0.0
0.0,0.0,0.0,0.0
0.0,0.0,0.0,0.0
7.577,-0.008,-0.731,0.0
7.321,-0.009,-0.746,0.0
7.014,-0.01,-0.753,0.0
0.0,0.0,0.0,0.0
0.0,0.0,0.0,0.0
0.0,0.0,0.0,0.0
7.654,-0.016,-0.73,0.0
7.362,-0.016,-0.742,0.0
7.105,-0.017,-0.755,0.0
0.0,0.0,0.0,0.0
0.0,0.0,0.0,0.0
0.0,0.0,0.0,0.0
7.768,-0.023,-0.732,0.0
7.382,-0.023,-0.736,0.0
7.104,-0.024,-0.747,0.0
0.0,0.0,0.0,0.0
0.0,0.0,0.0,0.0
0.0,0.0,0.0,0.0
7.81,-0.03,-0.727,0.0
0.0,0.0,0.0,0.0
7.208,-0.031,-0.749,0.0
0.0,0.0,0.0,0.0
0.0,0.0,0.0,0.0
0.0,0.0,0.0,0.0
0.0,0.0,0.0,0.0
0.0,0.0,0.0,0.0
7.277,-0.037,-0.747,0.0
0.0,0.0,0.0,0.0
0.0,0.0,0.0,0.0
0.0,0.0,0.0,0.0
7.927,-0.045,-0.719,0.0
0.0,0.0,0.0,0.0
7.347,-0.044,-0.745,0.0
0.0,0.0,0.0,0.0
0.0,0.0,0.0,0.0
0.0,0.0,0.0,0.0
7.98,-0.052,-0.713,0.0
0.0,0.0,0.0,0.0
7.389,-0.05,-0.74,0.0
0.0,0.0,0.0,0.0
0.0,0.0,0.0,0.0
0.0,0.0,0.0,0.0
8.038,-0.059,-0.708,0.0
0.0,0.0,0.0,0.0
0.0,0.0,0.0,0.0
7.188,-0.056,-0.749,0.0
0.0,0.0,0.0,0.0
0.0,0.0,0.0,0.0
8.179,-0.066,-0.709,0.0
