X,Y,Z,Reflectivity
19.65,0.152,-0.265,0.0
17.516,0.131,-0.328,0.0
16.189,0.118,-0.388,0.0
28.82,0.204,0.113,1.0
26.283,0.18,-0.033,0.0
23.358,0.154,-0.151,0.0
20.633,0.132,-0.243,0.0
18.108,0.111,-0.308,0.0
16.535,0.098,-0.368,0.0
0.0,0.0,0.0,0.0
27.284,0.15,0.011,0.0
24.416,0.129,-0.116,0.0
21.388,0.109,-0.216,4.0
18.743,0.091,-0.287,0.0
16.982,0.079,-0.348,0.0
31.768,0.141,0.233,0.0
28.42,0.12,0.061,1.0
25.345,0.102,-0.077,0.0
22.392,0.085,-0.187,0.0
19.652,0.071,-0.267,0.0
17.479,0.059,-0.328,0.0
0.0,0.0,0.0,0.0
28.778,0.085,0.112,1.0
26.34,0.073,-0.034,0.0
23.445,0.06,-0.155,1.0
20.82,0.049,-0.246,0.0
18.189,0.039,-0.309,0.0
34.531,0.067,0.375,0.0
30.534,0.053,0.173,0.0
27.254,0.042,0.012,0.0
24.191,0.032,-0.117,0.0
21.34,0.024,-0.214,3.0
18.711,0.017,-0.285,0.0
36.686,0.027,0.464,0.0
0.0,0.0,0.0,0.0
28.472,0.01,0.064,1.0
25.396,0.004,-0.077,0.0
22.6,0.0,-0.186,0.0
19.736,-0.004,-0.265,0.0
0.0,0.0,0.0,0.0
33.22,-0.02,0.307,0.0
28.794,-0.022,0.117,2.0
26.359,-0.025,-0.032,0.0
23.673,-0.027,-0.151,0.0
20.859,-0.028,-0.242,0.0
43.251,-0.067,0.704,0.0
36.191,-0.063,0.401,0.0
30.502,-0.058,0.18,0.0
27.57,-0.057,0.016,0.0
24.55,-0.056,-0.112,0.0
21.861,-0.053,-0.213,0.0
0.0,0.0,0.0,0.0
0.0,0.0,0.0,0.0
0.0,0.0,0.0,0.0
28.712,-0.091,0.07,6.0
25.529,-0.086,-0.069,0.0
22.957,-0.081,-0.181,0.0
0.0,0.0,0.0,0.0
0.0,0.0,0.0,0.0
33.24,-0.135,0.32,0.0
28.837,-0.122,0.125,4.0
26.807,-0.118,-0.022,0.0
23.944,-0.11,-0.143,0.0
0.0,0.0,0.0,0.0
0.0,0.0,0.0,0.0
0.0,0.0,0.0,0.0
31.295,-0.165,0.195,1.0
27.961,-0.152,0.029,0.0
24.787,-0.139,-0.101,0.0
0.0,0.0,0.0,0.0
0.0,0.0,0.0,0.0
0.0,0.0,0.0,0.0
32.356,-0.202,0.263,1.0
28.741,-0.184,0.085,6.0
25.86,-0.17,-0.057,0.0
0.0,0.0,0.0,0.0
0.0,0.0,0.0,0.0
0.0,0.0,0.0,0.0
0.0,0.0,0.0,0.0
28.838,-0.212,0.14,1.0
27.019,-0.203,-0.007,0.0
82.395,-0.633,2.275,2.0
55.876,-0.437,1.252,0.0
0.0,0.0,0.0,0.0
36.438,-0.296,0.436,0.0
31.694,-0.262,0.215,1.0
28.52,-0.24,0.047,3.0
83.2,-0.714,2.458,3.0
0.0,0.0,0.0,0.0
0.0,0.0,0.0,0.0
0.0,0.0,0.0,0.0
32.984,-0.302,0.289,1.0
28.786,-0.267,0.104,4.0
90.456,-0.856,2.851,14.0
0.0,0.0,0.0,0.0
0.0,0.0,0.0,0.0
0.0,0.0,0.0,0.0
35.466,-0.354,0.38,0.0
30.917,-0.312,0.172,0.0
90.583,-0.932,3.032,34.0
84.063,-0.875,2.378,2.0
0.0,0.0,0.0,0.0
0.0,0.0,0.0,0.0
37.451,-0.403,0.475,0.0
32.466,-0.354,0.244,1.0
90.643,-1.004,3.211,48.0
90.163,-1.009,2.727,5.0
0.0,0.0,0.0,0.0
0.0,0.0,0.0,0.0
0.0,0.0,0.0,0.0
33.774,-0.394,0.321,1.0
90.731,-1.073,3.395,16.0
90.811,-1.085,2.929,8.0
0.0,0.0,0.0,0.0
0.0,0.0,0.0,0.0
43.247,-0.531,0.72,0.0
0.0,0.0,0.0,0.0
174.211,-2.187,6.866,5.0
0.0,0.0,0.0,0.0
85.712,-1.094,2.492,3.0
63.947,-0.822,1.522,0.0
0.0,0.0,0.0,0.0
0.0,0.0,0.0,0.0
193.758,-2.565,8.024,17.0
171.363,-2.285,6.211,6.0
89.887,-1.207,2.793,5.0
0.0,0.0,0.0,0.0
0.0,0.0,0.0,0.0
0.0,0.0,0.0,0.0
193.209,-2.682,8.387,20.0
171.915,-2.401,6.574,14.0
0.0,0.0,0.0,0.0
86.472,-1.223,2.405,1.0
0.0,0.0,0.0,0.0
0.0,0.0,0.0,0.0
193.168,-2.799,8.777,8.0
171.724,-2.503,6.916,5.0
171.635,-2.516,6.025,5.0
89.825,-1.323,2.68,2.0
0.0,0.0,0.0,0.0
47.591,-0.709,0.929,0.0
194.026,-2.922,9.209,15.0
193.643,-2.93,8.187,12.0
171.715,-2.612,6.373,14.0
96.7,-1.478,3.079,6.0
0.0,0.0,0.0,0.0
0.0,0.0,0.0,0.0
191.321,-2.982,9.463,9.0
192.958,-3.02,8.544,16.0
171.578,-2.697,6.712,5.0
0.0,0.0,0.0,0.0
87.6,-1.389,2.514,1.0
0.0,0.0,0.0,0.0
191.431,-3.078,9.856,11.0
0.0,0.0,0.0,0.0
193.914,-3.142,7.979,7.0
0.0,0.0,0.0,0.0
96.694,-1.578,2.97,4.0
0.0,0.0,0.0,0.0
99.437,-1.643,5.319,5.0
191.289,-3.172,9.245,13.0
193.674,-3.223,8.359,24.0
0.0,0.0,0.0,0.0
96.956,-1.623,3.173,20.0
87.874,-1.475,2.423,4.0
99.322,-1.682,5.513,24.0
191.219,-3.249,9.627,17.0
190.415,-3.244,8.603,5.0
171.427,-2.928,6.843,9.0
97.051,-1.661,3.372,11.0
89.638,-1.538,2.653,4.0
99.133,-1.717,5.704,29.0
191.752,-3.328,10.039,7.0
190.908,-3.321,9.008,7.0
194.202,-3.385,8.142,7.0
97.109,-1.696,3.569,3.0
96.818,-1.694,3.058,13.0
98.849,-1.745,5.886,26.0
190.95,-3.378,10.382,5.0
190.747,-3.379,9.383,13.0
0.0,0.0,0.0,0.0
0.0,0.0,0.0,0.0
96.966,-1.726,3.258,31.0
98.849,-1.774,6.086,14.0
99.231,-1.784,5.595,6.0
190.292,-3.425,9.745,18.0
190.237,-3.427,8.737,16.0
0.0,0.0,0.0,0.0
96.996,-1.752,3.453,28.0
105.995,-1.93,6.738,8.0
99.108,-1.806,5.786,14.0
190.038,-3.467,10.111,13.0
190.388,-3.475,9.123,20.0
194.006,-3.544,8.294,6.0
96.998,-1.773,3.645,17.0
88.065,-1.623,5.774,14.0
98.952,-1.824,5.975,24.0
99.388,-1.833,5.485,2.0
190.336,-3.512,9.5,23.0
190.173,-3.51,8.505,22.0
97.058,-1.792,3.84,5.0
76.124,-1.417,5.143,23.0
98.754,-1.837,6.158,20.0
105.978,-1.972,6.059,2.0
190.164,-3.539,9.87,17.0
190.277,-3.541,8.891,13.0
194.144,-3.613,8.069,6.0
76.129,-1.428,5.296,30.0
98.307,-1.842,6.327,14.0
99.094,-1.857,5.864,15.0
190.059,-3.56,10.244,17.0
190.319,-3.563,9.273,21.0
190.324,-3.561,8.286,12.0
76.206,-1.437,5.452,35.0
76.16,-1.435,5.053,11.0
98.821,-1.86,6.042,25.0
99.3,-1.868,5.546,7.0
190.348,-3.578,9.647,19.0
190.004,-3.567,8.643,18.0
76.525,-1.448,5.626,26.0
76.163,-1.439,5.203,32.0
98.64,-1.862,6.225,15.0
106.076,-1.999,6.133,3.0
190.099,-3.579,10.004,20.0
190.395,-3.58,9.034,20.0
76.826,-1.455,5.798,14.0
76.109,-1.439,5.348,32.0
97.234,-1.836,6.326,7.0
99.041,-1.867,5.92,19.0
99.336,-1.869,5.421,8.0
190.392,-3.577,9.403,21.0
75.761,-1.434,5.866,22.0
76.345,-1.443,5.513,35.0
76.192,-1.437,5.104,24.0
98.754,-1.858,6.092,27.0
191.068,-3.588,10.792,6.0
190.294,-3.567,9.76,20.0
0.0,0.0,0.0,0.0
76.543,-1.442,5.672,20.0
76.153,-1.431,5.246,30.0
98.533,-1.847,6.264,14.0
99.078,-1.853,5.784,8.0
189.993,-3.545,10.103,17.0
65.998,-1.24,5.361,14.0
76.643,-1.436,5.825,17.0
76.122,-1.423,5.388,34.0
88.065,-1.641,5.765,12.0
98.978,-1.839,5.964,24.0
99.266,-1.84,5.465,2.0
66.016,-1.232,5.489,19.0
75.812,-1.411,5.907,32.0
76.216,-1.414,5.539,28.0
76.108,-1.407,5.127,25.0
98.759,-1.82,6.137,16.0
99.129,-1.821,5.643,4.0
74.54,-1.379,6.337,26.0
76.006,-1.402,6.064,16.0
76.517,-1.406,5.704,24.0
76.144,-1.394,5.271,31.0
106.019,-1.934,6.786,8.0
98.972,-1.798,5.818,20.0
65.692,-1.202,5.708,11.0
66.042,-1.204,5.392,32.0
76.31,-1.386,5.831,38.0
76.06,-1.375,5.405,31.0
87.984,-1.585,5.793,11.0
98.843,-1.773,5.993,17.0
65.663,-1.186,5.828,25.0
66.05,-1.188,5.514,19.0
76.261,-1.366,5.967,23.0
76.395,-1.362,5.57,22.0
76.147,-1.351,5.153,25.0
105.944,-1.871,6.617,17.0
65.653,-1.168,5.947,26.0
74.574,-1.321,6.363,17.0
66.026,-1.163,5.286,14.0
76.626,-1.343,5.725,30.0
76.222,-1.33,5.296,33.0
90.966,-1.579,5.844,24.0
67.686,-1.183,6.253,7.0
65.629,-1.141,5.718,32.0
66.013,-1.141,5.404,27.0
76.474,-1.316,5.85,27.0
76.162,-1.303,5.427,37.0
90.945,-1.548,6.003,37.0
63.894,-1.095,6.017,18.0
65.597,-1.117,5.832,28.0
66.018,-1.118,5.522,22.0
76.445,-1.287,5.983,25.0
76.312,-1.278,5.572,28.0
76.371,-1.271,5.176,11.0
63.993,-1.072,6.14,10.0
65.594,-1.092,5.946,32.0
66.011,-1.092,5.636,17.0
76.485,-1.258,6.12,20.0
76.486,-1.25,5.718,29.0
76.245,-1.237,5.299,28.0
64.248,-1.05,6.276,26.0
64.238,-1.043,5.935,22.0
65.494,-1.055,5.705,32.0
74.13,-1.187,6.059,22.0
76.536,-1.217,5.853,20.0
76.316,-1.205,5.434,31.0
64.29,-1.022,6.39,32.0
58.562,-0.924,5.51,20.0
63.93,-1.001,5.676,15.0
65.976,-1.026,5.503,26.0
76.422,-1.18,5.971,33.0
76.442,-1.171,5.57,28.0
64.371,-0.992,6.506,15.0
58.693,-0.897,5.621,25.0
63.982,-0.971,5.788,28.0
65.392,-0.984,5.563,36.0
76.479,-1.141,6.103,18.0
76.432,-1.132,5.696,21.0
58.99,-0.879,6.061,17.0
64.188,-0.948,6.253,32.0
64.046,-0.938,5.9,12.0
65.493,-0.951,5.68,33.0
75.888,-1.092,6.18,9.0
76.599,-1.092,5.833,22.0
58.988,-0.846,6.157,24.0
64.204,-0.913,6.36,25.0
58.592,-0.825,5.492,26.0
63.844,-0.891,5.639,10.0
66.162,-0.914,5.494,40.0
76.612,-1.048,5.956,24.0
59.089,-0.814,6.263,28.0
59.024,-0.804,5.942,24.0
58.663,-0.791,5.593,24.0
63.907,-0.853,5.746,15.0
65.967,-0.872,5.582,40.0
76.732,-1.004,6.086,16.0
65.189,-0.858,7.013,17.0
59.017,-0.768,6.033,30.0
63.879,-0.822,6.19,22.0
58.667,-0.747,5.366,14.0
66.611,-0.838,5.739,27.0
76.343,-0.95,6.172,10.0
57.298,-0.717,6.253,20.0
59.001,-0.729,6.123,28.0
63.942,-0.781,6.295,24.0
58.685,-0.708,5.458,29.0
67.044,-0.8,5.878,42.0
76.218,-0.898,6.278,9.0
57.304,-0.678,6.34,22.0
0.0,0.0,0.0,0.0
58.995,-0.681,5.896,21.0
58.754,-0.669,5.551,29.0
66.563,-0.747,5.935,28.0
73.761,-0.817,6.184,23.0
59.87,-0.667,6.713,10.0
57.383,-0.63,6.126,31.0
59.007,-0.639,5.983,28.0
63.994,-0.683,6.139,10.0
66.784,-0.703,6.05,14.0
76.351,-0.791,6.51,10.0
59.893,-0.624,6.802,22.0
57.328,-0.587,6.203,31.0
59.134,-0.597,6.08,33.0
64.003,-0.636,6.232,22.0
58.757,-0.574,5.407,22.0
73.882,-0.709,6.404,22.0
59.942,-0.578,6.893,21.0
57.234,-0.543,6.273,31.0
59.216,-0.552,6.171,18.0
58.975,-0.54,5.824,14.0
58.807,-0.529,5.492,21.0
64.761,-0.572,5.702,11.0
63.629,-0.565,7.404,30.0
57.344,-0.499,6.364,22.0
57.324,-0.489,6.052,28.0
59.041,-0.494,5.91,26.0
56.873,-0.466,5.388,8.0
64.776,-0.52,5.789,13.0
63.645,-0.513,7.492,24.0
59.914,-0.473,6.729,22.0
57.207,-0.442,6.116,28.0
58.834,-0.444,5.967,33.0
56.903,-0.42,5.465,16.0
58.846,-0.424,5.335,10.0
58.714,-0.425,6.988,23.0
59.894,-0.423,6.804,34.0
57.115,-0.393,6.179,30.0
59.251,-0.398,6.084,13.0
58.998,-0.386,5.741,11.0
57.004,-0.363,5.241,20.0
0.0,0.0,0.0,0.0
59.771,-0.37,6.866,34.0
57.142,-0.343,6.255,27.0
57.269,-0.334,5.953,26.0
58.757,-0.332,5.791,25.0
57.034,-0.312,5.314,24.0
57.036,-0.312,6.933,17.0
59.734,-0.317,6.936,22.0
57.177,-0.293,6.328,26.0
57.277,-0.283,6.023,31.0
56.574,-0.269,5.643,26.0
57.087,-0.261,5.386,24.0
56.855,-0.26,6.978,28.0
59.757,-0.263,7.009,32.0
57.274,-0.241,6.406,11.0
57.213,-0.23,6.083,30.0
56.65,-0.218,5.716,28.0
57.234,-0.209,5.466,10.0
56.851,-0.208,7.043,28.0
57.182,-0.198,6.772,19.0
59.775,-0.196,6.753,7.0
57.219,-0.177,6.148,20.0
57.105,-0.166,5.826,31.0
59.102,-0.161,5.71,9.0
56.905,-0.154,7.113,21.0
57.008,-0.144,6.815,29.0
59.897,-0.139,6.833,28.0
57.287,-0.123,6.217,31.0
57.361,-0.112,5.914,31.0
56.749,-0.1,5.543,25.0
49.109,-0.086,6.191,16.0
57.0,-0.089,6.874,26.0
59.924,-0.082,6.899,31.0
57.38,-0.067,6.288,31.0
57.513,-0.057,5.989,31.0
56.798,-0.045,5.606,22.0
49.12,-0.037,6.244,26.0
57.007,-0.032,6.934,31.0
59.855,-0.022,6.953,15.0
57.275,-0.01,6.334,30.0
57.03,0.0,5.996,24.0
56.813,0.011,5.664,26.0
58.819,0.014,7.536,10.0
57.048,0.025,6.995,25.0
59.748,0.037,6.999,6.0
56.257,0.046,6.276,28.0
57.328,0.059,6.082,23.0
56.742,0.069,5.711,25.0
62.805,0.08,8.107,11.0
58.188,0.085,7.191,29.0
57.192,0.095,6.753,31.0
56.277,0.104,6.33,16.0
57.216,0.117,6.122,30.0
56.809,0.127,5.769,28.0
62.816,0.145,8.166,12.0
58.282,0.146,7.254,22.0
57.136,0.155,6.797,26.0
52.423,0.152,5.943,17.0
56.759,0.175,6.124,30.0
56.784,0.186,5.816,20.0
48.668,0.164,6.369,15.0
58.336,0.209,7.312,21.0
57.243,0.215,6.859,31.0
57.276,0.227,6.542,16.0
56.367,0.235,6.129,28.0
57.014,0.249,5.887,29.0
51.532,0.229,6.787,8.0
49.151,0.228,6.201,23.0
59.711,0.289,7.203,7.0
57.345,0.289,6.596,19.0
56.37,0.295,6.174,27.0
57.091,0.311,5.939,31.0
48.669,0.27,6.448,20.0
48.514,0.278,6.158,22.0
59.487,0.353,7.222,34.0
57.427,0.352,6.649,19.0
56.42,0.357,6.221,14.0
57.158,0.373,5.989,29.0
48.724,0.324,6.491,27.0
48.352,0.331,6.173,22.0
59.318,0.417,7.244,35.0
57.451,0.416,6.693,8.0
56.552,0.42,6.276,20.0
57.246,0.437,6.037,30.0
51.721,0.401,6.927,4.0
48.582,0.386,6.236,22.0
58.601,0.479,7.197,32.0
52.645,0.44,6.168,15.0
56.618,0.484,6.32,18.0
50.477,0.442,5.356,6.0
49.383,0.439,6.646,25.0
48.836,0.443,6.3,23.0
58.389,0.542,7.207,31.0
48.531,0.46,5.716,15.0
56.897,0.55,6.386,10.0
56.931,0.561,6.075,30.0
49.442,0.495,6.683,23.0
48.9,0.499,6.337,23.0
58.815,0.611,7.294,33.0
52.776,0.559,6.246,9.0
57.413,0.619,6.476,26.0
57.413,0.631,6.158,26.0
51.838,0.577,7.036,5.0
48.858,0.554,6.358,23.0
49.159,0.567,6.123,20.0
0.0,0.0,0.0,0.0
56.341,0.671,6.385,6.0
57.309,0.694,6.177,31.0
49.453,0.608,6.738,4.0
48.959,0.611,6.396,23.0
49.039,0.622,6.132,16.0
49.061,0.631,5.856,23.0
56.298,0.736,6.407,5.0
57.107,0.757,6.182,6.0
48.033,0.645,6.566,34.0
0.0,0.0,0.0,0.0
49.101,0.679,6.162,24.0
48.974,0.687,5.867,23.0
52.85,0.751,6.037,13.0
50.216,0.723,5.457,29.0
48.058,0.701,6.59,19.0
0.0,0.0,0.0,0.0
48.995,0.733,6.169,29.0
48.878,0.741,5.875,37.0
52.681,0.809,6.038,15.0
50.282,0.781,5.483,24.0
48.076,0.757,6.611,35.0
47.458,0.757,6.258,27.0
49.209,0.794,6.213,23.0
48.863,0.797,5.891,25.0
50.384,0.832,5.792,24.0
50.351,0.841,5.507,29.0
51.769,0.876,7.136,10.0
47.742,0.817,6.311,22.0
49.042,0.848,6.207,8.0
48.686,0.85,5.884,23.0
50.339,0.89,5.802,37.0
50.324,0.899,5.519,27.0
51.892,0.938,7.167,6.0
47.468,0.867,6.288,24.0
46.074,0.851,5.844,19.0
48.707,0.908,5.899,25.0
50.32,0.948,5.812,23.0
50.247,0.956,5.522,16.0
52.078,1.003,7.205,12.0
47.72,0.927,6.332,22.0
46.025,0.903,5.848,26.0
48.794,0.966,5.92,31.0
50.349,1.006,5.826,18.0
50.126,1.011,5.519,30.0
52.078,1.063,7.215,5.0
47.499,0.978,6.312,13.0
45.982,0.956,5.85,25.0
48.781,1.023,5.926,19.0
50.321,1.064,5.83,30.0
0.0,0.0,0.0,0.0
52.079,1.124,7.222,18.0
43.866,0.955,5.835,12.0
46.044,1.011,5.864,36.0
45.37,1.004,5.517,23.0
50.335,1.123,5.837,24.0
0.0,0.0,0.0,0.0
48.014,1.093,6.663,14.0
43.876,1.006,5.84,29.0
46.003,1.063,5.862,20.0
45.482,1.059,5.534,29.0
50.342,1.182,5.841,16.0
49.685,1.175,5.485,20.0
44.131,1.055,6.127,33.0
47.562,1.146,6.332,5.0
45.683,1.109,5.823,20.0
45.5,1.112,5.537,27.0
50.299,1.238,5.837,16.0
45.844,1.137,5.062,21.0
44.108,1.106,6.123,31.0
47.547,1.2,6.33,10.0
45.197,1.149,5.76,19.0
45.523,1.165,5.539,22.0
45.604,1.175,5.291,23.0
48.651,1.262,5.37,14.0
43.662,1.145,6.059,18.0
47.653,1.257,6.342,4.0
45.319,1.204,5.773,26.0
45.477,1.215,5.53,28.0
45.569,1.226,5.284,34.0
48.682,1.318,5.369,14.0
43.613,1.194,6.049,26.0
43.986,1.211,5.849,24.0
45.263,1.253,5.761,20.0
45.565,1.269,5.536,24.0
47.738,1.338,5.529,8.0
45.914,1.294,5.058,18.0
43.763,1.247,6.063,26.0
44.007,1.261,5.846,11.0
45.226,1.303,5.75,19.0
45.454,1.318,5.515,27.0
45.622,1.33,5.277,13.0
46.192,1.354,5.081,18.0
43.802,1.298,6.061,21.0
47.607,1.418,6.315,4.0
43.861,1.313,5.567,26.0
45.551,1.372,5.518,28.0
48.308,1.463,5.577,22.0
45.839,1.395,5.032,17.0
43.932,1.351,6.069,30.0
47.596,1.471,6.302,9.0
43.868,1.363,5.557,29.0
45.553,1.422,5.507,23.0
48.103,1.508,5.541,13.0
48.814,1.539,5.346,3.0
44.094,1.404,6.079,19.0
43.927,1.406,5.804,32.0
43.984,1.414,5.56,30.0
45.574,1.472,5.496,37.0
45.779,1.486,5.26,12.0
48.925,1.596,5.343,12.0
43.974,1.449,6.048,21.0
43.72,1.446,5.762,28.0
44.046,1.464,5.553,22.0
45.551,1.521,5.477,36.0
45.786,1.535,5.245,23.0
46.199,1.556,5.029,22.0
43.93,1.495,6.026,21.0
43.617,1.49,5.732,39.0
44.134,1.515,5.547,19.0
45.651,1.573,5.472,29.0
45.758,1.583,5.224,17.0
46.197,1.605,5.011,14.0
43.819,1.538,5.993,19.0
43.673,1.538,5.722,40.0
0.0,0.0,0.0,0.0
45.722,1.624,5.461,29.0
45.836,1.635,5.212,19.0
45.761,1.638,4.943,20.0
43.608,1.576,5.944,28.0
43.773,1.588,5.714,33.0
45.416,1.654,5.668,28.0
45.915,1.679,5.462,18.0
48.684,1.787,5.513,11.0
45.741,1.684,4.919,20.0
43.619,1.622,5.924,34.0
44.133,1.647,5.739,24.0
0.0,0.0,0.0,0.0
45.861,1.724,5.432,14.0
45.798,1.727,5.162,19.0
48.329,1.829,5.171,4.0
43.576,1.665,5.894,40.0
44.256,1.696,5.731,28.0
45.549,1.752,5.636,35.0
45.915,1.772,5.413,21.0
45.58,1.765,5.112,24.0
49.53,1.924,5.272,26.0
43.584,1.709,5.869,35.0
44.271,1.741,5.706,23.0
45.588,1.799,5.613,31.0
45.814,1.814,5.373,24.0
45.521,1.808,5.077,25.0
49.52,1.973,5.24,20.0
43.705,1.757,5.858,33.0
44.369,1.789,5.69,24.0
45.979,1.86,5.631,20.0
45.712,1.855,5.331,20.0
45.537,1.853,5.049,30.0
49.528,2.021,5.208,6.0
43.782,1.803,5.839,33.0
44.239,1.827,5.643,26.0
45.925,1.902,5.593,20.0
45.795,1.901,5.309,34.0
45.556,1.897,5.02,3.0
51.001,2.129,5.327,24.0
43.75,1.843,5.803,22.0
0.0,0.0,0.0,0.0
45.856,1.941,5.552,20.0
45.645,1.937,5.259,33.0
48.472,2.063,5.306,6.0
50.757,2.166,5.265,22.0
44.345,1.909,5.848,30.0
45.631,1.968,5.754,20.0
45.876,1.984,5.519,32.0
45.613,1.977,5.22,30.0
46.114,2.003,5.012,14.0
50.431,2.196,5.192,18.0
44.43,1.952,5.824,24.0
0.0,0.0,0.0,0.0
45.864,2.024,5.481,25.0
45.688,2.021,5.191,25.0
51.413,2.279,5.546,15.0
50.285,2.234,5.135,19.0
44.459,1.992,5.791,30.0
45.051,2.023,5.606,21.0
45.749,2.059,5.428,20.0
45.799,2.065,5.165,31.0
51.385,2.322,5.499,20.0
50.548,2.289,5.119,24.0
44.41,2.028,5.745,30.0
0.0,0.0,0.0,0.0
45.739,2.097,5.386,32.0
46.153,2.12,5.164,30.0
51.194,2.355,5.433,24.0
50.647,2.335,5.083,25.0
44.447,2.066,5.709,31.0
46.164,2.149,5.662,13.0
45.684,2.131,5.338,38.0
48.261,2.255,5.355,19.0
50.627,2.37,5.326,24.0
50.244,2.356,4.996,14.0
44.423,2.1,5.664,37.0
46.038,2.18,5.602,14.0
45.715,2.168,5.298,15.0
57.116,2.714,6.283,31.0
50.494,2.403,5.263,28.0
49.714,2.369,4.895,20.0
44.385,2.132,5.615,29.0
45.819,2.204,5.53,30.0
48.26,2.325,5.545,25.0
56.525,2.728,6.161,8.0
50.555,2.443,5.219,23.0
49.75,2.408,4.849,33.0
52.532,2.562,6.592,5.0
45.841,2.239,5.486,32.0
48.248,2.36,5.494,22.0
50.373,2.467,5.439,24.0
50.227,2.463,5.133,23.0
49.774,2.445,4.799,27.0
46.007,2.277,5.724,13.0
43.638,2.163,5.175,20.0
47.955,2.38,5.408,22.0
48.953,2.432,5.233,20.0
49.79,2.477,5.034,22.0
49.703,2.476,4.739,18.0
45.937,2.305,5.665,21.0
43.618,2.191,5.125,18.0
48.021,2.415,5.363,23.0
48.918,2.463,5.175,23.0
49.723,2.506,4.973,20.0
49.681,2.507,4.681,21.0
45.94,2.335,5.613,14.0
43.634,2.22,5.077,15.0
48.398,2.465,5.35,27.0
49.278,2.512,5.156,23.0
49.93,2.548,4.936,14.0
49.676,2.538,4.624,16.0
43.656,2.246,5.283,19.0
47.578,2.45,5.481,21.0
48.6,2.504,5.315,22.0
49.471,2.552,5.119,24.0
49.911,2.577,4.875,22.0
49.602,2.564,4.559,24.0
43.579,2.267,5.221,30.0
47.464,2.472,5.41,20.0
48.94,2.55,5.294,23.0
49.817,2.598,5.094,24.0
49.777,2.598,4.802,23.0
49.591,2.59,4.498,23.0
43.654,2.296,5.176,18.0
47.646,2.507,5.372,22.0
49.377,2.6,5.28,23.0
49.807,2.624,5.032,18.0
49.724,2.622,4.736,26.0
49.359,2.605,4.415,24.0
47.487,2.522,5.571,5.0
47.975,2.549,5.349,23.0
53.155,2.826,5.617,10.0
49.765,2.648,4.964,19.0
49.608,2.641,4.661,25.0
49.107,2.616,4.33,27.0
47.524,2.547,5.513,15.0
47.598,2.553,5.244,21.0
53.161,2.852,5.547,6.0
49.734,2.669,4.896,23.0
49.602,2.664,4.596,19.0
49.136,2.64,4.268,22.0
47.508,2.568,5.449,20.0
47.581,2.573,5.179,20.0
49.364,2.67,5.086,5.0
49.723,2.691,4.829,18.0
65.311,3.535,5.964,15.0
49.161,2.662,4.205,20.0
48.059,2.618,5.446,23.0
47.613,2.594,5.118,11.0
49.213,2.682,5.003,20.0
49.661,2.707,4.755,22.0
65.265,3.56,5.871,9.0
58.547,3.194,4.928,15.0
48.216,2.645,5.397,23.0
44.835,2.46,4.757,17.0
49.184,2.699,4.932,16.0
49.577,2.721,4.679,21.0
49.309,2.706,4.367,25.0
58.539,3.215,4.846,33.0
48.2,2.661,5.327,24.0
44.772,2.472,4.687,21.0
49.741,2.746,4.917,19.0
49.567,2.737,4.607,3.0
49.262,2.72,4.293,22.0
58.517,3.231,4.761,43.0
48.114,2.671,5.249,23.0
44.789,2.486,4.625,32.0
49.758,2.762,4.848,23.0
66.44,3.688,6.081,15.0
65.538,3.638,5.618,8.0
58.502,3.247,4.676,24.0
44.866,2.503,4.829,3.0
49.18,2.743,5.007,9.0
56.917,3.174,5.463,9.0
49.406,2.755,4.449,21.0
65.565,3.656,5.525,17.0
58.442,3.258,4.586,19.0
44.824,2.511,4.758,15.0
48.918,2.739,4.907,22.0
57.082,3.196,5.394,8.0
49.331,2.761,4.37,23.0
58.537,3.276,4.845,22.0
58.335,3.264,4.491,23.0
44.864,2.522,4.695,31.0
49.33,2.772,4.874,24.0
66.402,3.73,6.174,13.0
49.268,2.767,4.29,20.0
58.514,3.285,4.755,37.0
58.257,3.27,4.397,32.0
44.861,2.529,4.626,23.0
56.9,3.206,5.535,11.0
65.29,3.678,5.97,13.0
49.215,2.771,4.209,10.0
58.487,3.291,4.664,28.0
58.28,3.279,4.309,33.0
48.853,2.76,4.962,17.0
56.979,3.216,5.455,27.0
49.401,2.788,4.441,27.0
66.309,3.74,5.569,13.0
58.417,3.293,4.567,24.0
58.362,3.288,4.225,26.0
48.802,2.761,4.88,14.0
57.233,3.235,5.389,14.0
49.322,2.786,4.357,23.0
58.528,3.304,4.824,18.0
58.318,3.291,4.468,23.0
58.431,3.295,4.138,25.0
49.666,2.811,4.887,17.0
49.407,2.794,4.573,1.0
49.248,2.784,4.272,10.0
58.498,3.304,4.729,29.0
58.258,3.288,4.371,30.0
58.473,3.298,4.048,14.0
56.904,3.221,5.508,19.0
49.44,2.796,4.497,21.0
66.212,3.741,5.637,14.0
58.468,3.301,4.632,27.0
58.297,3.289,4.28,29.0
67.896,3.828,4.591,21.0
57.111,3.23,5.434,27.0
49.363,2.789,4.409,27.0
66.448,3.751,5.549,9.0
58.363,3.292,4.529,25.0
58.395,3.29,4.193,31.0
80.427,4.529,5.308,21.0
57.325,3.238,5.361,5.0
49.293,2.781,4.322,21.0
58.52,3.298,4.791,27.0
58.261,3.28,4.425,29.0
58.461,3.288,4.101,18.0
80.441,4.52,5.177,36.0
65.289,3.679,5.998,15.0
49.227,2.771,4.235,12.0
58.499,3.289,4.692,31.0
58.274,3.272,4.33,32.0
67.912,3.81,4.653,25.0
80.411,4.507,5.043,27.0
49.407,2.776,4.457,24.0
65.672,3.685,5.542,14.0
58.41,3.274,4.589,20.0
58.374,3.268,4.241,27.0
67.874,3.795,4.538,24.0
80.808,4.513,4.934,13.0
49.319,2.761,4.366,24.0
58.525,3.272,4.84,27.0
58.296,3.254,4.482,25.0
80.418,4.484,5.708,10.0
80.472,4.481,5.246,31.0
80.739,4.491,4.795,25.0
49.246,2.745,4.277,21.0
58.523,3.257,4.742,31.0
58.269,3.238,4.382,35.0
67.924,3.769,4.707,23.0
80.362,4.453,5.103,25.0
80.636,4.462,4.654,36.0
65.548,3.634,5.582,15.0
58.483,3.237,4.64,19.0
58.345,3.224,4.29,23.0
67.923,3.749,4.593,29.0
80.401,4.43,4.971,9.0
80.533,4.431,4.512,36.0
58.527,3.226,4.885,26.0
58.33,3.209,4.529,26.0
80.59,4.426,5.789,32.0
67.918,3.724,4.477,13.0
80.669,4.416,4.849,6.0
80.655,4.409,4.382,35.0
58.53,3.204,4.784,42.0
58.294,3.185,4.426,43.0
80.574,4.394,5.648,34.0
80.395,4.377,5.161,26.0
80.605,4.381,4.708,29.0
80.978,4.394,4.26,39.0
58.543,3.18,4.684,18.0
58.341,3.163,4.328,16.0
80.455,4.354,5.501,15.0
80.387,4.342,5.022,15.0
80.453,4.338,4.56,35.0
81.23,4.372,4.134,35.0
58.272,3.138,4.561,23.0
80.646,4.335,5.844,14.0
67.942,3.645,4.529,13.0
80.806,4.326,4.909,10.0
80.615,4.307,4.43,35.0
81.094,4.325,3.988,20.0
58.284,3.11,4.462,43.0
80.604,4.292,5.702,31.0
67.833,3.605,4.404,16.0
80.635,4.276,4.76,35.0
80.745,4.273,4.299,37.0
0.0,0.0,0.0,0.0
64.892,3.428,4.855,29.0
80.578,4.247,5.56,35.0
81.653,4.294,5.16,15.0
80.539,4.226,4.615,39.0
81.197,4.251,4.183,33.0
0.0,0.0,0.0,0.0
64.607,3.375,4.721,10.0
80.581,4.2,5.421,32.0
82.271,4.278,5.057,19.0
80.753,4.189,4.488,35.0
81.034,4.194,4.034,22.0
0.0,0.0,0.0,0.0
80.379,4.149,5.735,30.0
81.098,4.176,5.316,17.0
81.096,4.165,4.845,21.0
80.773,4.138,4.35,48.0
81.034,4.141,3.894,3.0
0.0,0.0,0.0,0.0
80.644,4.109,5.614,31.0
81.54,4.144,5.203,19.0
81.127,4.112,4.705,34.0
81.328,4.112,4.238,33.0
0.0,0.0,0.0,0.0
0.0,0.0,0.0,0.0
81.067,4.074,5.502,17.0
81.582,4.088,5.064,23.0
81.469,4.071,4.584,30.0
81.277,4.051,4.096,27.0
0.0,0.0,0.0,0.0
48.187,2.388,1.87,1.0
81.807,4.05,5.411,10.0
81.504,4.023,4.919,33.0
81.581,4.015,4.45,25.0
80.764,3.963,3.93,8.0
0.0,0.0,0.0,0.0
47.67,2.326,1.769,6.0
81.447,3.968,5.247,32.0
81.418,3.955,4.773,32.0
81.142,3.929,4.287,36.0
0.0,0.0,0.0,0.0
0.0,0.0,0.0,0.0
47.691,2.288,1.688,169.0
81.434,3.902,5.107,34.0
81.396,3.887,4.633,32.0
80.961,3.853,4.14,35.0
0.0,0.0,0.0,0.0
48.268,2.283,1.905,1.0
47.581,2.243,1.603,12.0
81.459,3.832,4.969,32.0
81.328,3.813,4.49,29.0
80.796,3.775,3.993,22.0
0.0,0.0,0.0,0.0
47.871,2.221,1.807,3.0
47.503,2.197,1.519,12.0
81.445,3.757,4.828,32.0
81.177,3.731,4.341,39.0
49.175,2.252,2.345,3.0
48.668,2.221,2.035,3.0
47.773,2.172,1.722,5.0
47.538,2.154,1.439,10.0
81.323,3.675,4.681,22.0
81.174,3.654,4.202,38.0
49.026,2.198,2.254,1.0
48.523,2.168,1.946,8.0
47.746,2.125,1.64,5.0
47.633,2.112,1.361,0.0
65.569,2.898,3.663,20.0
81.13,3.572,4.064,26.0
0.0,0.0,0.0,0.0
48.383,2.113,1.859,2.0
48.112,2.093,1.571,4.0
48.067,2.082,1.293,0.0
65.576,2.831,3.552,37.0
65.582,2.819,3.173,21.0
48.776,2.087,2.078,4.0
48.402,2.063,1.778,2.0
48.271,2.049,1.495,9.0
48.381,2.045,1.219,2.0
65.551,2.76,3.44,60.0
65.616,2.751,3.065,5.0
48.643,2.03,1.991,16.0
48.535,2.017,1.702,2.0
48.45,2.004,1.42,3.0
48.58,2.001,1.144,2.0
65.556,2.689,3.331,62.0
0.0,0.0,0.0,0.0
48.801,1.983,1.917,2.0
48.777,1.973,1.63,3.0
48.822,1.965,1.35,2.0
49.339,1.977,1.081,0.0
65.599,2.617,3.227,36.0
0.0,0.0,0.0,0.0
49.308,1.947,1.856,1.0
49.066,1.928,1.559,2.0
49.178,1.923,1.28,2.0
49.912,1.942,1.011,0.0
81.391,3.152,3.87,19.0
50.569,1.948,2.113,1.0
49.538,1.899,1.785,3.0
49.502,1.887,1.493,2.0
49.47,1.876,1.207,1.0
50.759,1.914,0.947,1.0
81.167,3.044,3.727,15.0
50.454,1.882,2.026,1.0
49.819,1.848,1.713,2.0
49.906,1.841,1.425,2.0
50.139,1.839,1.142,0.0
47.244,1.723,0.805,1.0
56.149,2.036,2.488,0.0
50.462,1.819,1.945,3.0
50.212,1.799,1.646,2.0
50.265,1.79,1.353,2.0
50.7,1.795,1.074,0.0
0.0,0.0,0.0,0.0
0.0,0.0,0.0,0.0
50.661,1.762,1.872,3.0
50.558,1.747,1.578,2.0
50.341,1.728,1.276,0.0
50.62,1.727,0.992,0.0
38.583,1.308,0.535,0.0
0.0,0.0,0.0,0.0
50.949,1.704,1.802,2.0
54.086,1.796,1.602,2.0
0.0,0.0,0.0,0.0
47.527,1.557,0.856,0.0
0.0,0.0,0.0,0.0
0.0,0.0,0.0,0.0
54.193,1.739,1.832,0.0
54.098,1.723,1.518,45.0
0.0,0.0,0.0,0.0
0.0,0.0,0.0,0.0
34.95,1.09,0.375,1.0
0.0,0.0,0.0,0.0
54.138,1.661,1.746,1.0
54.234,1.651,1.438,8.0
55.586,1.68,1.149,6.0
0.0,0.0,0.0,0.0
33.663,1.002,0.31,1.0
0.0,0.0,0.0,0.0
54.111,1.584,1.663,4.0
54.095,1.57,1.352,4.0
0.0,0.0,0.0,0.0
37.452,1.07,0.503,0.0
31.953,0.905,0.246,0.0
0.0,0.0,0.0,0.0
54.088,1.504,1.581,5.0
54.509,1.502,1.281,0.0
0.0,0.0,0.0,0.0
35.87,0.971,0.428,1.0
29.055,0.78,0.18,1.0
54.237,1.44,1.816,3.0
54.081,1.423,1.501,1.0
56.831,1.482,1.252,4.0
0.0,0.0,0.0,0.0
34.275,0.876,0.358,0.0
28.942,0.733,0.137,4.0
54.329,1.361,1.741,3.0
54.17,1.344,1.425,0.0
57.536,1.412,1.184,4.0
39.219,0.952,0.578,0.0
33.05,0.795,0.298,0.0
28.805,0.685,0.095,2.0
54.204,1.274,1.658,1.0
54.324,1.262,1.351,0.0
47.857,1.1,0.916,2.0
36.984,0.841,0.492,0.0
31.908,0.717,0.242,0.0
27.745,0.616,0.051,0.0
54.271,1.19,1.584,0.0
54.643,1.184,1.282,1.0
0.0,0.0,0.0,0.0
35.369,0.748,0.421,0.0
30.936,0.646,0.192,0.0
27.026,0.557,0.013,0.0
54.351,1.105,1.511,1.0
54.777,1.099,1.209,0.0
0.0,0.0,0.0,0.0
34.328,0.671,0.362,0.0
28.93,0.557,0.139,1.0
26.288,0.499,-0.023,0.0
54.593,1.022,1.444,2.0
0.0,0.0,0.0,0.0
0.0,0.0,0.0,0.0
32.872,0.588,0.302,0.0
28.794,0.507,0.1,1.0
25.513,0.442,-0.056,0.0
54.97,0.937,1.38,1.0
0.0,0.0,0.0,0.0
38.083,0.628,0.521,0.0
32.143,0.521,0.253,0.0
28.1,0.448,0.061,0.0
24.879,0.39,-0.088,0.0
0.0,0.0,0.0,0.0
0.0,0.0,0.0,0.0
0.0,0.0,0.0,0.0
28.905,0.42,0.19,0.0
27.096,0.386,0.023,0.0
24.166,0.337,-0.116,1.0
0.0,0.0,0.0,0.0
0.0,0.0,0.0,0.0
0.0,0.0,0.0,0.0
28.892,0.37,0.153,3.0
26.517,0.332,-0.01,0.0
23.447,0.286,-0.142,0.0
0.0,0.0,0.0,0.0
0.0,0.0,0.0,0.0
33.473,0.379,0.33,0.0
28.85,0.318,0.117,6.0
25.874,0.278,-0.042,0.0
22.483,0.235,-0.164,0.0
0.0,0.0,0.0,0.0
0.0,0.0,0.0,0.0
32.889,0.315,0.284,0.0
28.725,0.266,0.081,4.0
25.246,0.226,-0.071,0.0
22.177,0.192,-0.189,4.0
0.0,0.0,0.0,0.0
36.548,0.294,0.48,0.0
31.777,0.247,0.237,0.0
27.581,0.206,0.046,0.0
24.651,0.177,-0.099,0.0
21.462,0.147,-0.208,2.0
0.0,0.0,0.0,0.0
0.0,0.0,0.0,0.0
0.0,0.0,0.0,0.0
27.071,0.153,0.014,0.0
23.733,0.127,-0.122,0.0
20.988,0.106,-0.227,1.0
41.557,0.197,0.688,0.0
0.0,0.0,0.0,0.0
28.876,0.119,0.15,0.0
26.448,0.101,-0.015,0.0
23.238,0.082,-0.145,1.0
20.326,0.065,-0.242,0.0
0.0,0.0,0.0,0.0
0.0,0.0,0.0,0.0
28.725,0.066,0.117,3.0
25.793,0.051,-0.043,0.0
22.926,0.038,-0.168,0.0
19.677,0.027,-0.256,0.0
38.334,0.04,0.551,0.0
33.172,0.024,0.289,0.0
28.538,0.011,0.086,1.0
25.157,0.002,-0.068,0.0
21.919,-0.004,-0.184,0.0
19.202,-0.009,-0.27,0.0
0.0,0.0,0.0,0.0
31.51,-0.035,0.242,0.0
28.261,-0.041,0.056,1.0
24.741,-0.043,-0.092,0.0
21.56,-0.045,-0.202,0.0
18.674,-0.045,-0.281,0.0
35.913,-0.098,0.443,0.0
31.064,-0.094,0.207,0.0
27.448,-0.092,0.028,0.0
24.067,-0.089,-0.114,0.0
21.315,-0.085,-0.221,0.0
18.271,-0.079,-0.293,0.0
34.741,-0.161,0.395,0.0
28.866,-0.143,0.165,2.0
0.0,0.0,0.0,0.0
23.614,-0.132,-0.134,0.0
20.554,-0.122,-0.233,0.0
17.988,-0.112,-0.306,0.0
33.076,-0.217,0.345,0.0
28.797,-0.198,0.138,5.0
26.247,-0.189,-0.022,0.0
23.1,-0.174,-0.152,0.0
19.856,-0.156,-0.243,0.0
17.599,-0.144,-0.315,0.0
32.753,-0.279,0.313,1.0
28.74,-0.254,0.112,6.0
25.661,-0.235,-0.044,0.0
22.614,-0.215,-0.169,1.0
19.444,-0.191,-0.255,0.0
17.335,-0.176,-0.325,0.0
32.42,-0.34,0.281,2.0
28.531,-0.308,0.086,1.0
25.345,-0.283,-0.066,0.0
22.309,-0.256,-0.186,0.0
19.128,-0.226,-0.267,0.0
17.053,-0.207,-0.334,0.0
31.874,-0.397,0.25,0.0
28.11,-0.359,0.062,0.0
24.921,-0.327,-0.085,0.0
21.964,-0.295,-0.201,1.0
18.733,-0.258,-0.277,0.0
16.821,-0.238,-0.343,0.0
31.293,-0.452,0.221,0.0
27.589,-0.408,0.039,0.0
24.032,-0.363,-0.101,0.0
21.455,-0.331,-0.213,0.0
18.305,-0.289,-0.285,0.0
16.645,-0.269,-0.353,0.0
0.0,0.0,0.0,0.0
27.074,-0.454,0.018,0.0
23.941,-0.41,-0.118,0.0
20.875,-0.364,-0.223,0.0
18.157,-0.323,-0.296,0.0
16.526,-0.3,-0.362,0.0
28.823,-0.531,0.161,0.0
26.571,-0.498,0.0,0.0
23.619,-0.451,-0.133,0.0
20.427,-0.397,-0.232,0.0
17.931,-0.355,-0.304,0.0
16.305,-0.329,-0.369,0.0
28.746,-0.588,0.141,5.0
26.328,-0.547,-0.018,0.0
23.299,-0.492,-0.147,0.0
19.854,-0.426,-0.239,0.0
17.66,-0.386,-0.312,0.0
16.182,-0.359,-0.376,0.0
28.724,-0.645,0.122,11.0
25.896,-0.591,-0.035,0.0
22.943,-0.532,-0.159,0.0
19.671,-0.463,-0.249,0.0
17.456,-0.417,-0.319,0.0
16.026,-0.388,-0.383,0.0
28.652,-0.702,0.104,6.0
25.726,-0.639,-0.05,0.0
22.546,-0.568,-0.17,0.0
19.428,-0.496,-0.257,0.0
17.272,-0.447,-0.326,0.0
15.873,-0.417,-0.388,0.0
28.609,-0.759,0.088,4.0
25.14,-0.675,-0.063,0.0
22.383,-0.609,-0.181,0.0
19.194,-0.529,-0.265,0.0
17.122,-0.478,-0.332,0.0
15.801,-0.447,-0.395,0.0
28.355,-0.81,0.072,1.0
25.452,-0.736,-0.077,0.0
21.814,-0.638,-0.188,0.0
18.924,-0.56,-0.271,0.0
16.981,-0.509,-0.338,0.0
15.682,-0.476,-0.4,0.0
27.941,-0.854,0.057,0.0
24.261,-0.75,-0.085,0.0
21.308,-0.667,-0.194,0.0
18.735,-0.593,-0.277,0.0
16.881,-0.54,-0.344,0.0
15.575,-0.504,-0.405,0.0
27.694,-0.903,0.044,0.0
0.0,0.0,0.0,0.0
21.291,-0.709,-0.203,3.0
18.589,-0.626,-0.283,0.0
16.786,-0.571,-0.35,0.0
15.394,-0.529,-0.406,0.0
27.41,-0.95,0.032,0.0
24.097,-0.844,-0.105,0.0
21.072,-0.745,-0.21,2.0
18.258,-0.652,-0.285,0.0
16.69,-0.602,-0.354,0.0
15.263,-0.556,-0.409,0.0
27.357,-1.003,0.022,0.0
0.0,0.0,0.0,0.0
20.982,-0.785,-0.217,2.0
18.172,-0.686,-0.291,0.0
16.517,-0.63,-0.356,0.0
15.109,-0.581,-0.41,0.0
27.198,-1.053,0.012,0.0
23.433,-0.916,-0.119,0.0
20.94,-0.826,-0.223,2.0
18.161,-0.723,-0.296,0.0
16.5,-0.663,-0.361,0.0
14.967,-0.607,-0.411,0.0
26.478,-1.079,0.004,0.0
23.557,-0.969,-0.127,1.0
20.919,-0.868,-0.229,1.0
18.034,-0.755,-0.3,0.0
16.436,-0.694,-0.364,0.0
14.966,-0.637,-0.415,0.0
26.184,-1.121,-0.002,1.0
23.585,-1.018,-0.133,2.0
20.903,-0.91,-0.234,0.0
17.982,-0.789,-0.303,0.0
16.374,-0.724,-0.367,0.0
14.916,-0.666,-0.417,0.0
26.215,-1.175,-0.008,2.0
23.46,-1.06,-0.138,1.0
20.641,-0.94,-0.236,0.0
17.881,-0.821,-0.305,0.0
16.342,-0.756,-0.37,0.0
14.809,-0.691,-0.417,0.0
26.504,-1.242,-0.013,1.0
23.36,-1.103,-0.141,1.0
20.22,-0.962,-0.234,0.0
17.831,-0.855,-0.307,0.0
16.215,-0.783,-0.369,0.0
14.823,-0.722,-0.42,0.0
26.289,-1.285,-0.017,0.0
23.271,-1.145,-0.144,1.0
20.275,-1.005,-0.238,0.0
17.7,-0.884,-0.307,0.0
16.316,-0.821,-0.374,0.0
14.805,-0.75,-0.421,0.0
26.259,-1.335,-0.02,0.0
23.32,-1.194,-0.147,1.0
20.014,-1.032,-0.237,0.0
17.697,-0.919,-0.309,0.0
16.199,-0.847,-0.373,0.0
14.782,-0.779,-0.422,0.0
25.949,-1.371,-0.022,0.0
23.219,-1.236,-0.148,1.0
34.191,-1.832,-0.407,0.0
17.691,-0.955,-0.31,0.0
16.131,-0.876,-0.372,0.0
14.743,-0.806,-0.421,0.0
34.257,-1.879,-0.03,4.0
23.366,-1.29,-0.149,1.0
34.211,-1.901,-0.408,3.0
17.763,-0.994,-0.312,0.0
16.242,-0.914,-0.375,0.0
14.791,-0.838,-0.423,0.0
34.207,-1.944,-0.03,0.0
23.24,-1.329,-0.148,0.0
20.094,-1.156,-0.239,0.0
17.655,-1.022,-0.309,0.0
16.106,-0.938,-0.371,0.0
14.769,-0.866,-0.422,0.0
26.078,-1.533,-0.022,0.0
23.312,-1.379,-0.148,0.0
0.0,0.0,0.0,0.0
17.748,-1.063,-0.31,0.0
16.064,-0.968,-0.369,0.0
14.821,-0.898,-0.422,0.0
25.943,-1.576,-0.02,0.0
23.276,-1.422,-0.146,0.0
20.17,-1.24,-0.237,0.0
17.788,-1.1,-0.309,0.0
15.997,-0.995,-0.366,0.0
14.787,-0.925,-0.42,0.0
26.096,-1.636,-0.017,0.0
23.353,-1.472,-0.143,0.0
20.306,-1.287,-0.236,0.0
17.829,-1.137,-0.307,0.0
16.214,-1.04,-0.369,0.0
14.756,-0.952,-0.417,0.0
26.121,-1.687,-0.013,0.0
23.506,-1.527,-0.141,0.0
20.471,-1.337,-0.235,0.0
17.861,-1.173,-0.305,0.0
16.203,-1.07,-0.365,0.0
14.844,-0.986,-0.416,0.0
26.816,-1.784,-0.008,0.0
23.488,-1.571,-0.136,0.0
20.527,-1.38,-0.231,0.0
17.932,-1.212,-0.302,0.0
16.305,-1.108,-0.364,0.0
14.957,-1.022,-0.416,0.0
25.912,-1.772,-0.002,0.0
23.69,-1.629,-0.132,0.0
20.732,-1.433,-0.229,0.0
18.027,-1.252,-0.3,0.0
16.34,-1.141,-0.361,0.0
14.952,-1.05,-0.412,0.0
33.883,-2.381,0.005,2.0
33.884,-2.393,-0.179,1.0
33.903,-2.407,-0.365,2.0
18.192,-1.298,-0.297,0.0
16.533,-1.185,-0.361,0.0
15.014,-1.082,-0.41,0.0
33.902,-2.446,0.015,2.0
33.898,-2.457,-0.169,3.0
33.902,-2.469,-0.355,4.0
18.29,-1.338,-0.293,0.0
16.668,-1.226,-0.358,0.0
15.167,-1.121,-0.409,0.0
33.896,-2.508,0.027,5.0
33.89,-2.519,-0.158,17.0
33.881,-2.53,-0.343,7.0
18.494,-1.387,-0.29,0.0
16.693,-1.258,-0.353,0.0
15.279,-1.157,-0.407,0.0
33.891,-2.569,0.039,3.0
33.872,-2.579,-0.145,17.0
33.897,-2.593,-0.33,4.0
18.603,-1.429,-0.284,0.0
16.887,-1.303,-0.35,0.0
15.366,-1.191,-0.403,0.0
33.881,-2.629,0.053,2.0
33.854,-2.638,-0.131,8.0
33.855,-2.65,-0.316,3.0
18.75,-1.474,-0.279,0.0
16.948,-1.338,-0.345,0.0
15.542,-1.233,-0.401,0.0
33.881,-2.689,0.067,1.0
33.876,-2.7,-0.116,4.0
33.856,-2.71,-0.301,3.0
18.987,-1.526,-0.274,0.0
17.098,-1.38,-0.34,0.0
15.578,-1.263,-0.394,0.0
33.878,-2.748,0.083,2.0
33.849,-2.757,-0.1,3.0
33.861,-2.769,-0.284,5.0
19.264,-1.582,-0.268,0.0
17.256,-1.423,-0.334,0.0
15.606,-1.292,-0.387,0.0
33.878,-2.807,0.1,3.0
33.866,-2.816,-0.083,1.0
33.841,-2.826,-0.267,5.0
19.532,-1.637,-0.262,0.0
17.417,-1.466,-0.328,0.0
15.789,-1.334,-0.383,0.0
29.135,-2.464,0.102,0.0
25.76,-2.187,-0.049,0.0
22.93,-1.954,-0.168,1.0
19.712,-1.686,-0.253,0.0
17.593,-1.51,-0.322,0.0
15.863,-1.367,-0.376,0.0
29.469,-2.541,0.12,0.0
25.852,-2.237,-0.034,0.0
23.122,-2.008,-0.156,1.0
20.163,-1.758,-0.248,0.0
17.733,-1.552,-0.314,0.0
16.063,-1.411,-0.372,0.0
29.757,-2.615,0.139,0.0
26.441,-2.332,-0.019,0.0
23.246,-2.057,-0.143,1.0
20.709,-1.839,-0.241,1.0
17.899,-1.595,-0.306,0.0
16.335,-1.461,-0.368,0.0
30.176,-2.7,0.16,0.0
27.025,-2.427,-0.002,0.0
23.494,-2.117,-0.129,0.0
20.824,-1.883,-0.229,1.0
18.207,-1.652,-0.299,0.0
16.593,-1.51,-0.363,0.0
30.692,-2.795,0.183,0.0
27.361,-2.5,0.015,0.0
23.67,-2.17,-0.114,0.0
21.074,-1.938,-0.218,1.0
18.567,-1.713,-0.293,0.0
16.719,-1.548,-0.354,0.0
31.156,-2.886,0.208,0.0
27.688,-2.572,0.034,0.0
24.598,-2.293,-0.102,0.0
21.589,-2.019,-0.208,1.0
19.05,-1.787,-0.287,0.0
16.95,-1.595,-0.347,0.0
31.724,-2.987,0.234,0.0
28.346,-2.677,0.056,0.0
25.274,-2.394,-0.086,0.0
22.129,-2.103,-0.197,1.0
19.33,-1.843,-0.277,0.0
17.214,-1.646,-0.339,0.0
0.0,0.0,0.0,0.0
28.86,-2.768,0.079,3.0
25.557,-2.459,-0.067,0.0
22.522,-2.173,-0.183,1.0
19.552,-1.892,-0.265,0.0
17.499,-1.699,-0.331,0.0
32.862,-3.191,0.292,0.0
29.558,-2.878,0.104,0.0
25.932,-2.532,-0.048,0.0
22.969,-2.249,-0.169,2.0
19.815,-1.946,-0.253,0.0
17.68,-1.742,-0.321,0.0
34.541,-3.403,0.335,0.0
29.849,-2.949,0.129,0.0
33.994,-3.367,-0.036,0.0
23.304,-2.315,-0.153,0.0
33.982,-3.385,-0.406,1.0
17.962,-1.794,-0.311,0.0
34.372,-3.434,0.362,0.0
30.763,-3.081,0.158,1.0
34.035,-3.418,-0.008,1.0
34.001,-3.424,-0.195,2.0
34.0,-3.433,-0.377,3.0
34.01,-3.444,-0.561,1.0
34.441,-3.487,0.392,0.0
30.783,-3.125,0.184,0.0
34.006,-3.461,0.021,1.0
33.987,-3.468,-0.165,0.0
21.388,-2.188,-0.219,0.0
18.883,-1.937,-0.295,0.0
34.375,-3.526,0.422,0.0
31.174,-3.205,0.214,1.0
27.644,-2.849,0.041,1.0
25.058,-2.589,-0.099,0.0
22.058,-2.285,-0.206,0.0
19.145,-1.988,-0.282,0.0
34.408,-3.573,0.452,0.0
31.906,-3.321,0.248,0.0
28.889,-3.014,0.069,12.0
25.496,-2.666,-0.078,0.0
22.344,-2.342,-0.188,2.0
19.529,-2.052,-0.269,0.0
34.415,-3.616,0.484,1.0
32.946,-3.47,0.286,0.0
28.597,-3.018,0.095,7.0
26.098,-2.761,-0.055,1.0
22.359,-2.371,-0.168,1.0
19.863,-2.111,-0.255,0.0
37.292,-3.964,0.56,0.0
29.244,-3.115,0.282,0.0
27.616,-2.948,0.118,4.0
26.689,-2.855,-0.031,4.0
23.554,-2.526,-0.154,4.0
20.432,-2.196,-0.243,0.0
37.211,-3.999,0.595,0.0
29.711,-3.199,0.315,1.0
27.452,-2.962,0.144,4.0
27.022,-2.922,-0.005,5.0
23.574,-2.554,-0.131,13.0
21.154,-2.297,-0.231,0.0
37.3,-4.051,0.633,1.0
29.487,-3.208,0.343,2.0
27.433,-2.991,0.172,4.0
23.632,-2.582,0.019,153.0
23.613,-2.585,-0.107,33.0
22.264,-2.442,-0.22,2.0
37.933,-4.161,0.683,0.0
29.814,-3.276,0.376,1.0
27.97,-3.079,0.203,7.0
23.582,-2.601,0.042,166.0
23.61,-2.609,-0.083,92.0
22.346,-2.474,-0.198,4.0
0.0,0.0,0.0,0.0
31.614,-3.507,0.432,1.0
27.925,-3.103,0.232,2.0
23.623,-2.63,0.067,156.0
23.609,-2.633,-0.058,150.0
22.44,-2.507,-0.176,3.0
0.0,0.0,0.0,0.0
34.119,-3.819,0.502,0.0
29.205,-3.274,0.273,3.0
23.619,-2.652,0.092,18.0
23.634,-2.659,-0.034,151.0
22.633,-2.551,-0.154,3.0
0.0,0.0,0.0,0.0
42.626,-4.811,0.672,0.0
0.0,0.0,0.0,0.0
26.735,-3.027,0.132,5.0
23.605,-2.677,-0.009,24.0
22.613,-2.569,-0.129,7.0
0.0,0.0,0.0,0.0
0.0,0.0,0.0,0.0
31.554,-3.596,0.362,2.0
27.013,-3.083,0.163,5.0
26.401,-3.018,0.018,1.0
22.596,-2.587,-0.105,3.0
22.478,-2.574,0.523,0.0
22.463,-2.575,0.402,3.0
22.146,-2.543,0.278,12.0
26.989,-3.103,0.192,1.0
26.34,-3.033,0.047,7.0
22.605,-2.607,-0.08,1.0
22.46,-2.59,0.547,8.0
22.337,-2.579,0.425,12.0
22.14,-2.56,0.302,16.0
22.144,-2.564,0.182,16.0
26.283,-3.047,0.075,13.0
26.17,-3.038,-0.064,2.0
22.243,-2.583,0.566,8.0
22.181,-2.579,0.446,13.0
22.128,-2.576,0.327,16.0
22.128,-2.579,0.206,16.0
22.174,-2.587,0.088,13.0
26.219,-3.064,-0.035,2.0
22.179,-2.592,0.59,12.0
22.169,-2.593,0.471,13.0
22.125,-2.591,0.352,19.0
22.118,-2.594,0.231,17.0
22.164,-2.602,0.113,17.0
22.38,-2.631,-0.004,11.0
22.167,-2.606,0.614,15.0
22.156,-2.607,0.496,13.0
22.125,-2.606,0.377,19.0
22.108,-2.607,0.256,18.0
22.141,-2.614,0.138,18.0
22.187,-2.622,0.02,15.0
22.174,-2.622,0.64,17.0
22.157,-2.622,0.521,12.0
22.117,-2.62,0.402,19.0
22.094,-2.62,0.282,20.0
22.125,-2.626,0.164,19.0
22.179,-2.635,0.046,19.0
22.154,-2.633,0.665,14.0
22.127,-2.632,0.546,14.0
22.119,-2.633,0.428,19.0
22.099,-2.633,0.307,20.0
22.126,-2.639,0.189,13.0
22.156,-2.645,0.071,20.0
22.054,-2.633,0.688,13.0
22.131,-2.645,0.572,18.0
22.118,-2.645,0.453,18.0
22.102,-2.645,0.332,19.0
22.149,-2.653,0.215,12.0
22.149,-2.656,0.097,20.0
21.998,-2.638,0.712,20.0
22.128,-2.656,0.598,17.0
22.131,-2.658,0.479,15.0
22.11,-2.657,0.359,18.0
22.251,-2.676,0.242,12.0
22.156,-2.667,0.123,18.0
22.008,-2.65,0.738,28.0
22.064,-2.659,0.622,13.0
22.139,-2.669,0.506,13.0
22.114,-2.668,0.385,17.0
22.21,-2.681,0.268,12.0
22.187,-2.68,0.149,12.0
22.011,-2.66,0.764,29.0
21.974,-2.657,0.645,18.0
22.133,-2.678,0.532,16.0
22.123,-2.678,0.411,17.0
22.192,-2.688,0.294,12.0
22.416,-2.717,0.177,9.0
21.985,-2.666,0.789,17.0
21.987,-2.667,0.672,24.0
22.129,-2.685,0.558,17.0
22.125,-2.686,0.438,15.0
22.174,-2.693,0.32,11.0
22.528,-2.738,0.205,2.0
21.99,-2.674,0.816,10.0
22.002,-2.676,0.698,26.0
22.133,-2.693,0.584,19.0
22.138,-2.695,0.464,13.0
22.132,-2.695,0.345,12.0
29.701,-3.618,0.305,0.0
22.005,-2.682,0.842,9.0
21.988,-2.681,0.724,24.0
22.122,-2.698,0.61,16.0
22.161,-2.703,0.49,12.0
22.154,-2.703,0.372,12.0
31.389,-3.832,0.359,0.0
21.997,-2.687,0.868,9.0
21.997,-2.687,0.75,22.0
22.061,-2.695,0.634,11.0
22.147,-2.706,0.516,15.0
22.153,-2.708,0.398,13.0
32.526,-3.977,0.411,0.0
21.998,-2.691,0.894,9.0
22.0,-2.692,0.776,15.0
22.027,-2.695,0.659,10.0
22.138,-2.709,0.542,17.0
22.137,-2.709,0.423,13.0
33.84,-4.143,0.467,1.0
22.007,-2.696,0.92,9.0
22.001,-2.695,0.802,8.0
22.051,-2.701,0.686,10.0
22.141,-2.712,0.568,19.0
22.14,-2.712,0.45,12.0
22.189,-2.719,0.332,0.0
22.005,-2.698,0.946,9.0
22.0,-2.697,0.828,7.0
22.057,-2.704,0.712,12.0
22.15,-2.715,0.594,17.0
22.186,-2.72,0.476,10.0
22.163,-2.717,0.357,3.0
22.007,-2.7,0.972,9.0
22.011,-2.7,0.854,8.0
22.068,-2.706,0.738,15.0
22.131,-2.713,0.619,16.0
22.181,-2.719,0.502,11.0
22.161,-2.717,0.383,10.0
22.009,-2.7,0.997,9.0
21.996,-2.698,0.879,8.0
22.025,-2.701,0.762,15.0
22.092,-2.708,0.644,10.0
22.15,-2.715,0.527,16.0
22.153,-2.715,0.408,12.0
22.012,-2.7,1.023,9.0
22.0,-2.698,0.904,8.0
22.003,-2.697,0.787,10.0
22.06,-2.703,0.668,10.0
22.147,-2.713,0.552,18.0
22.139,-2.712,0.433,14.0
22.014,-2.699,1.048,10.0
21.995,-2.695,0.929,8.0
21.995,-2.694,0.811,8.0
22.02,-2.696,0.692,12.0
22.15,-2.711,0.577,19.0
22.14,-2.709,0.459,12.0
22.018,-2.696,1.073,10.0
21.995,-2.692,0.954,9.0
21.991,-2.691,0.836,8.0
21.987,-2.689,0.715,19.0
22.142,-2.707,0.602,17.0
22.165,-2.708,0.484,12.0
22.011,-2.692,1.098,10.0
22.001,-2.689,0.979,9.0
21.994,-2.687,0.861,8.0
21.977,-2.683,0.74,24.0
22.058,-2.692,0.625,12.0
22.159,-2.703,0.509,17.0
22.014,-2.688,1.123,9.0
22.003,-2.685,1.004,10.0
21.992,-2.682,0.885,9.0
21.969,-2.677,0.764,22.0
21.979,-2.677,0.646,17.0
22.132,-2.694,0.532,18.0
22.013,-2.682,1.147,10.0
22.001,-2.679,1.028,10.0
21.99,-2.675,0.909,9.0
21.978,-2.672,0.789,12.0
21.985,-2.671,0.671,26.0
22.134,-2.687,0.557,17.0
22.031,-2.678,1.172,9.0
21.999,-2.672,1.052,9.0
22.0,-2.669,0.934,9.0
21.978,-2.665,0.813,9.0
21.994,-2.665,0.695,31.0
22.137,-2.68,0.581,17.0
22.031,-2.67,1.196,8.0
22.014,-2.665,1.077,8.0
22.007,-2.662,0.958,9.0
21.989,-2.658,0.836,9.0
22.001,-2.657,0.719,29.0
22.112,-2.668,0.604,15.0
22.039,-2.662,1.22,8.0
22.016,-2.657,1.1,8.0
22.006,-2.653,0.981,8.0
22.003,-2.65,0.86,7.0
21.986,-2.646,0.741,21.0
22.033,-2.649,0.624,14.0
22.056,-2.655,1.244,5.0
22.035,-2.649,1.124,8.0
22.029,-2.646,1.005,7.0
22.011,-2.641,0.883,7.0
22.01,-2.639,0.765,12.0
21.998,-2.635,0.646,12.0
22.109,-2.651,1.27,3.0
22.037,-2.639,1.147,8.0
22.045,-2.637,1.028,7.0
22.044,-2.634,0.907,10.0
22.09,-2.637,0.79,11.0
22.129,-2.639,0.672,13.0
22.138,-2.643,1.294,15.0
22.057,-2.63,1.17,6.0
22.098,-2.632,1.053,12.0
22.129,-2.632,0.933,14.0
22.147,-2.631,0.814,15.0
22.179,-2.632,0.696,16.0
22.139,-2.63,1.317,17.0
22.088,-2.621,1.194,4.0
22.122,-2.621,1.077,18.0
22.142,-2.621,0.955,17.0
22.159,-2.619,0.837,15.0
22.197,-2.621,0.719,18.0
22.174,-2.621,1.341,11.0
22.132,-2.613,1.218,11.0
22.138,-2.61,1.099,20.0
22.141,-2.606,0.977,17.0
22.167,-2.606,0.858,15.0
22.23,-2.61,0.741,16.0
22.225,-2.613,1.365,20.0
22.135,-2.598,1.239,17.0
22.138,-2.595,1.12,20.0
22.144,-2.592,0.998,14.0
22.166,-2.591,0.879,15.0
22.22,-2.594,0.761,15.0
22.231,-2.598,1.386,20.0
22.131,-2.582,1.26,13.0
22.143,-2.58,1.141,20.0
22.147,-2.577,1.018,13.0
22.184,-2.577,0.9,12.0
22.216,-2.577,0.781,17.0
22.225,-2.581,1.406,18.0
22.207,-2.575,1.284,8.0
22.139,-2.563,1.16,16.0
22.155,-2.561,1.039,13.0
22.195,-2.561,0.92,11.0
22.231,-2.562,0.801,10.0
22.214,-2.563,1.425,19.0
22.305,-2.569,1.31,4.0
22.184,-2.551,1.182,8.0
22.173,-2.545,1.059,11.0
22.224,-2.547,0.941,10.0
22.293,-2.551,0.823,7.0
22.206,-2.544,1.444,21.0
159.74,-18.27,9.52,10.0
22.285,-2.544,1.207,4.0
22.243,-2.535,1.081,5.0
22.287,-2.535,0.962,3.0
22.344,-2.538,0.843,0.0
22.212,-2.526,1.463,18.0
159.867,-18.148,9.661,13.0
22.401,-2.538,1.231,0.0
22.34,-2.526,1.104,0.0
0.0,0.0,0.0,0.0
153.708,-17.324,5.93,5.0
22.226,-2.508,1.482,19.0
159.844,-18.003,9.787,9.0
159.503,-17.93,8.898,20.0
158.177,-17.747,7.947,5.0
155.011,-17.361,6.943,3.0
153.751,-17.189,6.051,12.0
22.253,-2.49,1.501,13.0
159.715,-17.84,9.904,11.0
159.095,-17.735,8.998,22.0
158.592,-17.644,8.089,18.0
155.19,-17.232,7.071,4.0
153.627,-17.027,6.162,11.0
22.273,-2.471,1.52,0.0
159.945,-17.711,10.039,15.0
159.449,-17.62,9.136,19.0
159.118,-17.548,8.233,19.0
0.0,0.0,0.0,0.0
153.885,-16.902,6.285,3.0
142.763,-15.7,9.845,19.0
159.984,-17.555,10.157,12.0
159.55,-17.469,9.257,15.0
159.213,-17.394,8.352,16.0
160.184,-17.464,7.529,14.0
154.096,-16.767,6.401,9.0
143.007,-15.579,9.962,14.0
174.429,-18.959,11.195,7.0
159.959,-17.346,9.392,14.0
158.895,-17.193,8.443,16.0
159.932,-17.268,7.625,17.0
154.355,-16.631,6.515,6.0
142.841,-15.409,10.045,19.0
174.601,-18.791,11.322,27.0
160.047,-17.182,9.503,15.0
159.122,-17.045,8.559,18.0
159.88,-17.088,7.724,16.0
154.588,-16.487,6.624,4.0
142.831,-15.25,10.136,22.0
174.746,-18.612,11.442,18.0
160.108,-17.011,9.605,10.0
159.236,-16.879,8.664,17.0
159.438,-16.86,7.802,14.0
0.0,0.0,0.0,0.0
142.626,-15.065,10.209,18.0
175.059,-18.444,11.569,20.0
159.894,-16.806,9.687,10.0
158.537,-16.621,8.72,17.0
159.098,-16.641,7.877,17.0
159.957,-16.69,7.044,4.0
142.698,-14.907,10.295,14.0
175.361,-18.271,11.688,25.0
160.221,-16.65,9.798,10.0
158.429,-16.421,8.801,16.0
159.402,-16.482,7.979,17.0
36.398,-3.754,1.622,0.0
142.616,-14.725,10.368,10.0
175.807,-18.105,11.811,16.0
160.479,-16.482,9.897,14.0
160.243,-16.415,8.985,4.0
159.058,-16.251,8.045,12.0
35.857,-3.654,1.616,0.0
142.859,-14.575,10.458,10.0
143.425,-14.593,9.707,11.0
160.273,-16.262,9.964,8.0
160.324,-16.224,9.068,16.0
158.986,-16.047,8.116,19.0
35.315,-3.555,1.608,0.0
142.604,-14.371,10.506,14.0
143.902,-14.46,9.806,19.0
160.231,-16.056,10.033,5.0
160.19,-16.007,9.133,16.0
159.004,-15.846,8.188,17.0
34.884,-3.467,1.604,3.0
142.525,-14.179,10.562,9.0
148.934,-14.772,10.214,7.0
150.063,-14.842,9.461,10.0
160.165,-15.796,9.196,19.0
158.739,-15.612,8.24,13.0
34.73,-3.406,1.611,0.0
142.518,-13.99,10.618,15.0
143.52,-14.045,9.899,14.0
149.455,-14.582,9.482,14.0
160.224,-15.586,9.263,15.0
158.804,-15.404,8.302,15.0
34.652,-3.352,1.62,0.0
147.495,-14.28,11.044,6.0
143.545,-13.855,9.951,12.0
149.312,-14.367,9.525,18.0
149.5,-14.342,8.693,12.0
150.195,-14.367,7.902,16.0
34.686,-3.308,1.633,0.0
147.64,-14.09,11.104,7.0
151.471,-14.411,10.55,14.0
185.136,-17.559,11.866,11.0
149.526,-14.137,8.741,24.0
150.103,-14.149,7.943,26.0
34.688,-3.259,1.643,0.0
143.636,-13.508,10.843,4.0
153.365,-14.375,10.726,8.0
151.461,-14.15,9.751,12.0
149.603,-13.933,8.785,27.0
150.265,-13.95,7.991,8.0
34.77,-3.218,1.656,0.0
145.997,-13.522,11.058,12.0
145.758,-13.455,10.228,4.0
151.249,-13.915,9.773,5.0
150.406,-13.792,8.868,27.0
169.456,-15.489,9.05,9.0
34.65,-3.157,1.658,0.0
145.95,-13.309,11.085,14.0
145.789,-13.248,10.26,11.0
148.653,-13.462,9.634,4.0
150.338,-13.569,8.892,9.0
162.447,-14.614,8.705,6.0
34.928,-3.131,1.677,0.0
145.23,-13.029,11.056,16.0
146.054,-13.056,10.304,10.0
147.434,-13.135,9.578,4.0
209.095,-18.563,12.398,8.0
209.132,-18.502,11.239,22.0
0.0,0.0,0.0,0.0
145.791,-12.86,11.118,13.0
146.261,-12.854,10.337,15.0
208.57,-18.267,13.575,7.0
185.368,-16.176,11.014,44.0
151.951,-13.215,8.181,150.0
34.844,-3.019,1.682,0.0
145.533,-12.617,11.111,10.0
146.531,-12.656,10.369,14.0
147.069,-12.657,9.585,13.0
209.141,-17.933,12.441,10.0
151.951,-12.983,8.192,150.0
34.849,-2.967,1.684,0.0
146.377,-12.467,11.184,3.0
146.152,-12.402,10.349,8.0
149.955,-12.675,9.779,15.0
209.17,-17.615,12.45,15.0
151.975,-12.752,8.198,150.0
34.963,-2.923,1.691,0.0
145.826,-12.195,11.144,15.0
146.707,-12.221,10.388,13.0
149.445,-12.402,9.746,17.0
209.226,-17.294,12.453,10.0
200.204,-16.487,10.795,29.0
34.917,-2.864,1.687,0.0
146.95,-12.059,11.226,16.0
149.932,-12.256,10.611,16.0
208.644,-16.989,13.598,8.0
209.434,-16.989,12.454,8.0
200.279,-16.18,10.789,46.0
34.906,-2.809,1.685,0.0
145.288,-11.695,11.089,9.0
147.482,-11.823,10.427,4.0
150.86,-12.046,9.818,4.0
209.151,-16.633,12.419,10.0
194.367,-15.396,10.452,8.0
34.823,-2.747,1.677,0.0
0.0,0.0,0.0,0.0
149.344,-11.736,10.541,12.0
208.706,-16.331,13.558,16.0
194.488,-15.157,11.524,5.0
193.767,-15.041,10.393,14.0
34.752,-2.686,1.669,0.0
152.474,-11.787,11.598,4.0
149.226,-11.488,10.51,5.0
156.211,-11.974,10.122,4.0
193.931,-14.805,11.458,7.0
193.289,-14.694,10.334,13.0
34.741,-2.63,1.662,0.0
122.357,-9.261,9.282,10.0
155.523,-11.721,10.922,15.0
156.08,-11.713,10.081,9.0
190.555,-14.239,11.218,5.0
192.895,-14.352,10.271,5.0
34.796,-2.578,1.657,0.0
122.294,-9.058,9.25,8.0
147.413,-10.87,10.317,8.0
154.228,-11.322,9.924,12.0
189.455,-13.848,11.103,8.0
0.0,0.0,0.0,0.0
34.862,-2.526,1.651,0.0
119.459,-8.651,9.002,7.0
148.119,-10.679,10.325,12.0
122.3,-8.777,7.834,2.0
0.0,0.0,0.0,0.0
0.0,0.0,0.0,0.0
34.739,-2.459,1.634,0.0
119.272,-8.44,8.95,11.0
122.631,-8.638,8.508,11.0
92.2,-6.464,5.875,7.0
189.249,-13.209,10.973,15.0
189.957,-13.197,9.942,4.0
34.509,-2.387,1.611,0.0
120.058,-8.297,8.966,5.0
122.549,-8.428,8.457,14.0
92.23,-6.312,5.843,10.0
156.595,-10.667,9.019,23.0
156.914,-10.64,8.151,26.0
0.0,0.0,0.0,0.0
122.044,-8.229,9.064,3.0
121.364,-8.143,8.325,6.0
121.895,-8.139,7.67,11.0
121.49,-8.074,6.946,6.0
157.063,-10.389,8.091,13.0
34.62,-2.279,1.588,0.0
118.105,-7.765,8.719,8.0
89.528,-5.857,6.101,13.0
89.804,-5.846,5.61,15.0
156.97,-10.17,8.902,15.0
190.19,-12.261,9.709,4.0
34.576,-2.218,1.569,0.0
88.06,-5.642,6.458,6.0
89.626,-5.713,6.063,8.0
92.519,-5.867,5.734,7.0
188.955,-11.924,10.619,14.0
189.429,-11.894,9.574,8.0
34.657,-2.165,1.555,0.0
111.55,-6.959,8.121,7.0
89.718,-5.568,6.022,4.0
122.457,-7.56,7.523,9.0
121.146,-7.44,6.742,10.0
188.719,-11.533,9.432,6.0
34.63,-2.105,1.534,0.0
90.563,-5.496,6.541,9.0
91.779,-5.54,6.106,8.0
120.722,-7.249,7.345,12.0
188.455,-11.256,10.375,8.0
188.613,-11.208,9.315,18.0
0.0,0.0,0.0,0.0
92.281,-5.444,6.608,9.0
89.496,-5.25,5.899,7.0
