X,Y,Z,Reflectivity
49.451,1.023,4.82,23.0
57.496,1.2,5.292,30.0
62.246,1.312,5.392,36.0
50.234,1.066,5.776,22.0
50.036,1.072,5.48,23.0
57.454,1.243,5.98,6.0
49.332,1.077,4.861,23.0
57.576,1.268,5.359,29.0
62.473,1.389,5.476,26.0
50.254,1.125,5.831,25.0
49.799,1.125,5.505,23.0
57.617,1.312,6.055,9.0
49.67,1.142,4.943,23.0
57.719,1.338,5.43,20.0
57.463,1.344,5.094,31.0
50.374,1.187,5.895,9.0
45.929,1.092,5.123,17.0
49.789,1.193,5.281,23.0
49.56,1.198,4.981,23.0
62.39,1.52,5.93,5.0
56.962,1.4,5.104,12.0
50.198,1.243,5.923,4.0
50.0,1.248,5.625,5.0
49.672,1.25,5.315,17.0
49.536,1.256,5.024,23.0
49.903,1.275,4.789,23.0
56.823,1.464,5.143,11.0
45.485,1.18,5.408,39.0
45.88,1.2,5.202,13.0
49.699,1.31,5.362,15.0
49.449,1.313,5.059,32.0
50.389,1.348,4.879,23.0
50.005,1.348,4.569,23.0
45.518,1.237,5.452,31.0
47.738,1.307,5.455,19.0
49.612,1.368,5.396,17.0
49.328,1.37,5.089,23.0
50.531,1.414,4.936,19.0
49.742,1.402,4.586,18.0
45.488,1.291,5.486,31.0
47.754,1.366,5.496,15.0
46.033,1.326,5.044,24.0
48.803,1.415,5.074,23.0
50.676,1.481,4.99,19.0
49.817,1.465,4.633,24.0
0.0,0.0,0.0,0.0
45.661,1.362,5.29,17.0
46.037,1.383,5.08,16.0
48.752,1.474,5.106,17.0
50.758,1.545,5.036,17.0
49.868,1.529,4.674,31.0
0.0,0.0,0.0,0.0
46.734,1.452,5.449,24.0
45.799,1.432,5.086,17.0
48.483,1.526,5.112,19.0
50.58,1.602,5.054,20.0
56.433,1.799,5.328,9.0
45.641,1.466,5.606,7.0
46.474,1.502,5.45,15.0
45.548,1.481,5.09,19.0
46.208,1.512,4.903,20.0
50.859,1.674,5.116,24.0
50.15,1.661,4.768,18.0
45.634,1.523,5.635,5.0
45.807,1.537,5.402,23.0
45.849,1.548,5.152,20.0
48.494,1.648,5.176,4.0
50.882,1.739,5.149,13.0
50.246,1.727,4.807,28.0
43.827,1.518,5.438,35.0
46.036,1.603,5.456,20.0
47.6,1.667,5.377,4.0
46.091,1.624,4.946,22.0
56.136,1.988,5.713,12.0
50.411,1.795,4.851,24.0
43.79,1.572,5.458,32.0
45.899,1.656,5.465,20.0
45.952,1.667,5.215,23.0
45.769,1.669,4.936,20.0
56.318,2.066,5.761,12.0
50.054,1.846,4.843,28.0
43.797,1.627,5.482,31.0
45.812,1.711,5.478,20.0
45.963,1.726,5.239,20.0
45.81,1.729,4.962,28.0
48.231,1.829,4.957,20.0
50.069,1.909,4.868,26.0
43.936,1.688,5.52,19.0
45.808,1.769,5.499,20.0
45.847,1.779,5.247,29.0
48.51,1.891,5.276,5.0
48.306,1.892,4.985,19.0
50.152,1.975,4.897,28.0
43.749,1.736,5.515,31.0
46.031,1.835,5.544,28.0
45.752,1.833,5.255,31.0
49.428,1.99,5.396,9.0
48.326,1.954,5.006,13.0
50.22,2.041,4.923,39.0
43.859,1.796,5.545,19.0
45.94,1.89,5.55,28.0
45.761,1.89,5.272,35.0
48.245,2.002,5.284,20.0
49.482,2.064,5.143,27.0
50.294,2.107,4.947,22.0
43.753,1.847,5.546,19.0
45.891,1.946,5.56,20.0
45.612,1.943,5.269,27.0
46.184,1.976,5.072,29.0
49.486,2.126,5.158,20.0
50.232,2.167,4.956,26.0
43.736,1.902,5.557,22.0
45.737,1.997,5.553,25.0
45.647,2.001,5.286,24.0
46.194,2.033,5.086,19.0
49.501,2.189,5.172,23.0
50.322,2.234,4.977,19.0
43.989,1.968,5.6,23.0
46.007,2.066,5.597,20.0
45.676,2.06,5.299,33.0
48.237,2.184,5.321,4.0
50.152,2.28,5.251,23.0
50.503,2.305,5.005,24.0
44.306,2.038,5.648,36.0
44.412,2.051,5.411,13.0
45.653,2.116,5.305,36.0
48.186,2.242,5.323,20.0
51.085,2.386,5.357,25.0
50.647,2.375,5.027,25.0
44.815,2.117,5.72,20.0
0.0,0.0,0.0,0.0
45.806,2.18,5.329,26.0
48.189,2.301,5.33,25.0
50.807,2.436,5.334,24.0
53.751,2.586,5.341,11.0
44.455,2.155,5.678,26.0
45.885,2.232,5.601,22.0
48.113,2.348,5.601,5.0
47.466,2.325,5.253,9.0
50.55,2.484,5.31,22.0
53.755,2.651,5.345,5.0
44.475,2.21,5.683,38.0
45.844,2.286,5.598,20.0
45.978,2.3,5.354,12.0
48.045,2.411,5.319,22.0
50.181,2.527,5.273,23.0
49.856,2.52,4.958,12.0
44.484,2.265,5.685,42.0
45.935,2.346,5.61,18.0
46.04,2.359,5.361,4.0
47.861,2.46,5.298,23.0
48.914,2.522,5.139,16.0
49.867,2.58,4.958,15.0
44.547,2.322,5.691,37.0
0.0,0.0,0.0,0.0
43.621,2.287,5.078,17.0
47.476,2.497,5.252,19.0
48.948,2.583,5.139,22.0
49.981,2.646,4.965,8.0
44.592,2.378,5.694,33.0
0.0,0.0,0.0,0.0
43.756,2.346,5.089,27.0
47.553,2.557,5.256,21.0
48.946,2.64,5.133,19.0
45.142,2.442,4.48,15.0
44.543,2.428,5.682,6.0
45.893,2.508,5.592,6.0
43.717,2.396,5.078,32.0
48.05,2.64,5.304,22.0
0.0,0.0,0.0,0.0
49.84,2.754,4.938,12.0
42.518,2.367,5.416,17.0
43.803,2.445,5.33,31.0
43.669,2.443,5.065,31.0
47.648,2.673,5.251,23.0
45.127,2.538,4.717,13.0
49.156,2.773,4.86,14.0
42.338,2.405,5.384,10.0
43.759,2.492,5.315,18.0
43.661,2.493,5.054,33.0
45.422,2.6,4.995,20.0
45.178,2.593,4.711,14.0
48.948,2.817,4.827,22.0
42.307,2.452,5.369,30.0
42.678,2.479,5.172,17.0
43.767,2.548,5.054,26.0
45.185,2.637,4.956,34.0
48.232,2.823,5.016,21.0
48.682,2.856,4.787,18.0
42.366,2.503,5.364,29.0
42.836,2.536,5.178,30.0
43.769,2.598,5.04,29.0
45.067,2.681,4.928,25.0
48.227,2.875,5.0,21.0
48.607,2.905,4.763,12.0
42.366,2.55,5.349,26.0
43.26,2.609,5.214,22.0
45.214,2.733,5.191,8.0
45.237,2.74,4.931,27.0
48.918,2.969,5.053,23.0
52.042,3.166,5.08,8.0
42.371,2.595,5.333,22.0
42.793,2.626,5.141,17.0
45.297,2.786,5.182,20.0
45.134,2.782,4.901,18.0
49.289,3.045,5.071,35.0
51.976,3.218,5.052,20.0
42.56,2.653,5.338,23.0
42.58,2.659,5.096,14.0
45.28,2.833,5.16,19.0
47.112,2.953,5.095,13.0
49.27,3.095,5.047,33.0
51.919,3.268,5.023,23.0
42.639,2.702,5.328,33.0
33.966,2.156,4.049,18.0
45.253,2.878,5.135,26.0
47.101,3.001,5.071,19.0
49.246,3.143,5.02,14.0
52.042,3.328,5.009,21.0
42.656,2.746,5.308,26.0
33.985,2.191,4.034,23.0
45.796,2.959,5.173,25.0
47.174,3.054,5.053,13.0
67.887,4.402,6.884,4.0
52.274,3.396,5.003,8.0
42.673,2.79,5.286,26.0
33.972,2.225,4.013,20.0
46.098,3.024,5.18,7.0
0.0,0.0,0.0,0.0
51.588,3.395,5.201,7.0
54.886,3.619,5.221,8.0
42.754,2.837,5.271,20.0
42.467,2.822,4.991,6.0
0.0,0.0,0.0,0.0
48.662,3.244,5.155,13.0
54.82,3.661,5.493,6.0
66.003,4.414,6.237,11.0
42.71,2.875,5.238,18.0
42.464,2.862,4.963,4.0
47.085,3.178,5.232,4.0
48.953,3.309,5.154,13.0
54.646,3.7,5.44,6.0
65.986,4.474,6.192,8.0
42.789,2.92,5.218,11.0
33.882,2.315,3.937,27.0
33.861,2.316,3.739,17.0
54.482,3.732,5.698,5.0
64.356,4.415,6.362,24.0
51.994,3.572,4.843,2.0
34.014,2.351,4.124,21.0
33.797,2.339,3.903,22.0
47.066,3.261,5.164,7.0
54.557,3.785,5.667,15.0
48.192,3.347,4.729,14.0
51.922,3.611,4.798,4.0
34.019,2.381,4.099,29.0
33.563,2.351,3.85,21.0
33.941,2.381,3.698,33.0
62.925,4.419,6.488,7.0
48.179,3.387,4.691,31.0
51.939,3.656,4.76,12.0
34.029,2.41,4.074,19.0
33.586,2.381,3.827,23.0
43.084,3.057,4.66,5.0
63.021,4.478,6.447,22.0
48.084,3.42,4.643,16.0
51.88,3.694,4.713,21.0
33.952,2.432,4.037,28.0
33.743,2.419,3.816,18.0
43.101,3.093,4.626,25.0
48.211,3.463,4.892,22.0
43.445,3.124,4.159,18.0
51.816,3.73,4.663,15.0
33.872,2.452,3.998,39.0
33.642,2.438,3.776,18.0
43.128,3.128,4.592,34.0
48.185,3.498,4.847,22.0
43.221,3.141,4.1,21.0
51.836,3.77,4.619,15.0
33.827,2.474,3.962,26.0
33.727,2.469,3.755,22.0
51.847,3.798,5.473,5.0
48.15,3.531,4.801,29.0
43.138,3.166,4.052,18.0
51.858,3.81,4.574,19.0
33.749,2.493,3.921,26.0
33.833,2.501,3.735,17.0
48.27,3.571,5.05,9.0
48.161,3.565,4.756,9.0
43.017,3.187,4.0,16.0
51.897,3.849,4.528,19.0
33.741,2.515,3.888,41.0
43.129,3.217,4.72,9.0
48.278,3.604,5.004,24.0
43.144,3.223,4.219,13.0
58.816,4.397,5.413,11.0
51.903,3.883,4.478,16.0
33.721,2.536,3.852,39.0
43.132,3.245,4.677,34.0
48.289,3.635,4.957,22.0
43.242,3.258,4.184,18.0
49.616,3.74,4.515,8.0
61.329,4.626,5.229,13.0
33.731,2.557,3.818,34.0
43.199,3.277,4.639,17.0
48.348,3.669,4.913,21.0
43.282,3.286,4.144,18.0
49.558,3.766,4.459,10.0
61.344,4.664,5.166,16.0
33.786,2.581,3.788,29.0
43.349,3.313,4.609,19.0
51.8,3.961,5.208,7.0
43.119,3.299,4.081,28.0
51.875,3.971,4.611,18.0
61.315,4.697,5.097,19.0
33.827,2.603,3.756,27.0
42.847,3.298,4.509,17.0
49.915,3.844,4.964,5.0
43.114,3.322,4.033,21.0
51.874,3.998,4.554,18.0
61.157,4.716,5.016,33.0
43.095,3.339,4.736,9.0
42.803,3.317,4.455,28.0
43.292,3.356,4.255,25.0
49.614,3.847,4.585,18.0
51.872,4.023,4.495,19.0
60.965,4.731,4.931,33.0
43.014,3.353,4.677,16.0
42.857,3.341,4.411,23.0
43.219,3.37,4.198,31.0
51.847,4.044,4.731,12.0
51.882,4.048,4.435,41.0
60.598,4.73,4.831,34.0
42.902,3.363,4.614,30.0
49.366,3.87,5.023,6.0
43.197,3.387,4.144,27.0
51.863,4.067,4.671,31.0
51.891,4.07,4.374,48.0
60.362,4.736,4.74,34.0
42.809,3.373,4.552,29.0
43.332,3.414,4.356,18.0
43.133,3.399,4.086,28.0
51.864,4.087,4.608,18.0
51.898,4.09,4.312,21.0
60.156,4.742,4.651,34.0
42.788,3.387,4.497,31.0
43.279,3.426,4.297,26.0
43.11,3.412,4.031,17.0
51.893,4.108,4.547,11.0
60.321,4.775,4.937,13.0
60.441,4.785,4.598,34.0
42.818,3.403,4.446,30.0
43.201,3.433,4.236,21.0
49.01,3.894,4.521,18.0
51.884,4.123,4.481,18.0
60.091,4.775,4.842,28.0
60.295,4.792,4.511,35.0
43.023,3.431,4.413,20.0
43.144,3.44,4.174,29.0
48.961,3.904,4.453,23.0
51.897,4.138,4.414,24.0
59.843,4.771,4.745,26.0
59.779,4.766,4.395,34.0
43.304,3.465,4.385,28.0
43.08,3.446,4.112,31.0
48.928,3.912,4.386,18.0
51.917,4.151,4.348,37.0
59.932,4.791,4.674,27.0
59.407,4.749,4.29,24.0
43.358,3.478,4.333,23.0
43.034,3.451,4.05,34.0
61.095,4.897,5.396,16.0
51.947,4.163,4.282,33.0
60.172,4.821,4.613,29.0
59.379,4.757,4.209,24.0
43.25,3.476,4.264,32.0
49.004,3.937,4.546,5.0
59.924,4.813,5.212,15.0
51.989,4.174,4.216,16.0
60.138,4.827,4.529,33.0
59.576,4.781,4.144,30.0
43.179,3.476,4.198,36.0
48.967,3.94,4.476,21.0
51.92,4.176,4.445,11.0
59.811,4.809,4.769,25.0
59.643,4.793,4.411,31.0
59.727,4.799,4.072,27.0
43.089,3.472,4.13,34.0
48.932,3.941,4.405,16.0
51.916,4.179,4.373,22.0
59.822,4.813,4.687,32.0
59.367,4.775,4.308,26.0
59.825,4.81,3.996,24.0
43.041,3.47,4.065,34.0
60.801,4.898,5.389,23.0
51.939,4.183,4.302,34.0
60.077,4.835,4.623,34.0
59.317,4.772,4.222,25.0
59.653,4.797,3.901,30.0
49.022,3.952,4.56,6.0
59.701,4.809,5.207,21.0
51.972,4.184,4.232,25.0
60.099,4.836,4.539,35.0
59.535,4.788,4.152,30.0
59.341,4.77,3.797,22.0
48.958,3.945,4.484,18.0
59.394,4.782,5.095,9.0
59.809,4.812,4.784,22.0
59.638,4.795,4.419,29.0
59.698,4.797,4.078,32.0
59.373,4.768,3.714,28.0
48.942,3.939,4.411,15.0
51.928,4.176,4.379,25.0
59.85,4.809,4.7,27.0
59.375,4.768,4.314,28.0
59.8,4.799,3.999,27.0
60.092,4.819,3.671,20.0
61.083,4.908,5.416,18.0
51.938,4.17,4.304,33.0
60.137,4.824,4.634,29.0
59.367,4.759,4.225,26.0
59.648,4.778,3.901,33.0
0.0,0.0,0.0,0.0
60.108,4.82,5.24,14.0
59.92,4.8,4.876,10.0
60.307,4.827,4.558,34.0
59.47,4.756,4.144,28.0
59.327,4.741,3.792,27.0
61.979,4.948,3.604,24.0
51.918,4.151,4.448,17.0
59.823,4.779,4.779,29.0
59.887,4.78,4.437,34.0
59.637,4.755,4.067,25.0
0.0,0.0,0.0,0.0
76.925,6.124,4.358,13.0
51.926,4.139,4.371,43.0
60.005,4.778,4.703,28.0
59.365,4.722,4.309,28.0
59.902,4.76,3.995,21.0
60.911,4.835,3.71,26.0
76.882,6.098,4.241,15.0
51.956,4.126,4.295,15.0
60.423,4.792,4.645,35.0
59.284,4.697,4.214,25.0
59.686,4.724,3.892,34.0
61.743,4.881,3.67,29.0
62.317,4.922,3.344,15.0
60.414,4.777,4.903,36.0
60.244,4.757,4.54,35.0
59.522,4.694,4.142,33.0
59.576,4.693,3.795,10.0
61.515,4.841,3.563,23.0
81.476,6.405,4.251,13.0
60.514,4.761,4.82,36.0
59.984,4.713,4.429,34.0
59.658,4.682,4.06,33.0
60.846,4.769,3.783,35.0
76.966,6.025,4.34,13.0
81.522,6.375,4.128,24.0
60.061,4.699,4.691,29.0
59.531,4.651,4.305,26.0
59.763,4.663,3.976,28.0
60.579,4.721,3.674,22.0
62.001,4.825,3.403,6.0
81.639,6.347,4.011,18.0
60.308,4.69,4.619,36.0
59.651,4.632,4.223,26.0
59.919,4.647,3.895,28.0
61.196,4.739,3.619,36.0
81.349,6.291,4.342,27.0
81.595,6.303,3.884,25.0
60.796,4.697,4.562,26.0
59.954,4.624,4.152,34.0
60.444,4.656,3.836,34.0
61.296,4.714,3.53,23.0
81.405,6.252,4.219,25.0
81.481,6.249,3.754,26.0
60.767,4.66,4.466,23.0
59.739,4.574,4.046,34.0
60.699,4.64,3.759,30.0
61.359,4.684,3.44,17.0
81.382,6.203,4.093,26.0
81.8,6.226,3.644,26.0
60.718,4.62,4.369,25.0
59.968,4.555,3.969,33.0
60.62,4.597,3.662,25.0
80.96,6.13,4.415,8.0
81.289,6.145,3.964,29.0
81.592,6.159,3.51,19.0
60.658,4.576,4.272,34.0
60.624,4.566,3.919,35.0
60.638,4.559,3.57,7.0
81.044,6.083,4.295,20.0
81.107,6.078,3.832,23.0
48.947,3.662,2.031,3.0
60.53,4.525,4.17,27.0
60.468,4.512,3.817,35.0
77.483,5.771,4.443,8.0
81.046,6.026,4.171,29.0
81.122,6.021,3.708,17.0
0.0,0.0,0.0,0.0
61.036,4.518,4.11,36.0
61.033,4.509,3.758,35.0
77.813,5.738,4.342,9.0
80.881,5.953,4.039,24.0
81.115,5.96,3.584,5.0
48.593,3.564,1.867,0.0
61.187,4.482,4.027,12.0
61.372,4.486,3.685,25.0
81.057,5.914,4.399,7.0
80.912,5.892,3.917,14.0
0.0,0.0,0.0,0.0
48.046,3.485,1.773,1.0
60.918,4.413,3.915,20.0
61.429,4.44,3.594,7.0
80.902,5.836,4.267,13.0
81.061,5.835,3.8,8.0
0.0,0.0,0.0,0.0
47.645,3.416,1.686,4.0
60.767,4.35,3.814,17.0
77.576,5.541,4.421,20.0
80.73,5.753,4.136,29.0
0.0,0.0,0.0,0.0
0.0,0.0,0.0,0.0
47.473,3.361,1.608,8.0
77.888,5.505,4.769,10.0
78.211,5.515,4.338,11.0
80.759,5.682,4.014,32.0
0.0,0.0,0.0,0.0
48.255,3.38,1.839,0.0
47.316,3.307,1.531,13.0
77.592,5.412,4.635,23.0
80.168,5.578,4.326,16.0
80.768,5.606,3.894,17.0
0.0,0.0,0.0,0.0
47.814,3.303,1.75,2.0
47.227,3.255,1.458,16.0
78.589,5.405,4.575,26.0
80.49,5.521,4.222,22.0
80.843,5.531,3.776,1.0
0.0,0.0,0.0,0.0
47.528,3.236,1.668,6.0
47.228,3.208,1.387,34.0
78.484,5.317,4.451,20.0
80.824,5.461,4.119,23.0
0.0,0.0,0.0,0.0
0.0,0.0,0.0,0.0
47.368,3.176,1.592,9.0
47.246,3.16,1.317,156.0
81.3,5.421,4.49,8.0
80.887,5.38,4.002,29.0
0.0,0.0,0.0,0.0
47.969,3.173,1.818,1.0
47.235,3.116,1.519,9.0
47.225,3.107,1.247,165.0
80.877,5.304,4.347,23.0
80.864,5.288,3.881,9.0
0.0,0.0,0.0,0.0
47.647,3.098,1.735,3.0
47.208,3.061,1.448,30.0
47.23,3.054,1.178,160.0
80.851,5.211,4.227,29.0
0.0,0.0,0.0,0.0
0.0,0.0,0.0,0.0
47.453,3.031,1.659,7.0
47.197,3.005,1.379,53.0
47.226,2.998,1.109,94.0
58.716,3.715,2.985,6.0
0.0,0.0,0.0,0.0
0.0,0.0,0.0,0.0
47.31,2.964,1.585,14.0
47.212,2.949,1.311,161.0
47.266,2.944,1.042,4.0
58.666,3.639,2.896,25.0
0.0,0.0,0.0,0.0
47.975,2.957,1.818,1.0
47.223,2.901,1.514,20.0
47.213,2.891,1.243,160.0
47.255,2.885,0.975,4.0
58.665,3.566,2.813,5.0
0.0,0.0,0.0,0.0
47.61,2.874,1.737,3.0
47.179,2.839,1.447,107.0
47.255,2.834,1.179,5.0
47.319,2.828,0.909,0.0
0.0,0.0,0.0,0.0
0.0,0.0,0.0,0.0
47.446,2.803,1.665,8.0
47.198,2.778,1.382,41.0
47.244,2.772,1.113,1.0
47.961,2.804,0.855,1.0
0.0,0.0,0.0,0.0
48.163,2.792,1.899,0.0
47.325,2.733,1.596,12.0
47.226,2.717,1.317,31.0
47.288,2.711,1.049,6.0
48.068,2.745,0.791,5.0
0.0,0.0,0.0,0.0
47.912,2.711,1.823,1.0
47.237,2.662,1.527,12.0
47.261,2.653,1.253,29.0
47.263,2.643,0.983,4.0
42.24,2.353,0.637,0.0
0.0,0.0,0.0,0.0
47.632,2.628,1.748,4.0
47.251,2.596,1.463,13.0
47.276,2.587,1.19,15.0
47.363,2.581,0.922,1.0
0.0,0.0,0.0,0.0
0.0,0.0,0.0,0.0
47.545,2.555,1.682,82.0
47.283,2.53,1.402,19.0
47.296,2.52,1.128,4.0
49.148,2.607,0.891,3.0
37.562,1.984,0.467,0.0
48.201,2.53,1.917,0.0
47.527,2.483,1.618,13.0
47.334,2.462,1.341,21.0
47.301,2.449,1.066,1.0
49.55,2.554,0.834,2.0
35.552,1.824,0.395,0.0
48.032,2.449,1.847,2.0
47.499,2.41,1.556,34.0
47.362,2.392,1.281,19.0
0.0,0.0,0.0,0.0
0.0,0.0,0.0,0.0
0.0,0.0,0.0,0.0
47.661,2.357,1.772,7.0
47.448,2.335,1.494,3.0
47.387,2.32,1.222,18.0
47.567,2.317,0.95,1.0
0.0,0.0,0.0,0.0
32.575,1.571,0.28,1.0
47.694,2.284,1.714,154.0
47.422,2.259,1.434,4.0
47.427,2.247,1.163,18.0
47.752,2.25,0.895,1.0
0.0,0.0,0.0,0.0
31.906,1.488,0.234,1.0
47.6,2.203,1.652,9.0
47.481,2.185,1.377,14.0
47.506,2.174,1.107,4.0
47.68,2.17,0.835,1.0
36.1,1.634,0.427,0.0
30.611,1.378,0.188,0.0
47.706,2.13,1.598,5.0
47.678,2.116,1.325,0.0
47.897,2.113,1.059,0.0
0.0,0.0,0.0,0.0
34.502,1.504,0.367,1.0
29.072,1.26,0.144,0.0
48.196,2.072,1.557,5.0
48.26,2.062,1.285,1.0
48.326,2.051,1.011,0.0
0.0,0.0,0.0,0.0
33.293,1.396,0.315,0.0
28.858,1.202,0.109,1.0
48.525,2.004,1.512,3.0
48.672,1.996,1.24,2.0
0.0,0.0,0.0,0.0
39.068,1.581,0.547,0.0
32.898,1.322,0.274,0.0
28.4,1.134,0.075,1.0
49.063,1.942,1.473,2.0
49.15,1.931,1.197,1.0
0.0,0.0,0.0,0.0
38.102,1.476,0.491,0.0
31.382,1.207,0.227,0.0
26.047,0.995,0.04,0.0
49.661,1.879,1.436,2.0
0.0,0.0,0.0,0.0
47.327,1.763,0.832,0.0
35.686,1.32,0.421,0.0
30.81,1.131,0.189,0.0
26.91,0.98,0.013,0.0
50.183,1.81,1.398,2.0
50.529,1.808,1.121,0.0
0.0,0.0,0.0,0.0
34.5,1.215,0.371,0.0
28.901,1.009,0.147,0.0
26.407,0.915,-0.014,0.0
50.732,1.738,1.36,0.0
50.743,1.724,1.073,0.0
0.0,0.0,0.0,0.0
33.794,1.128,0.328,1.0
28.893,0.956,0.117,4.0
25.955,0.852,-0.041,0.0
54.168,1.757,1.397,4.0
54.931,1.765,1.106,4.0
0.0,0.0,0.0,0.0
32.702,1.031,0.285,0.0
28.737,0.898,0.088,2.0
25.293,0.783,-0.065,0.0
54.235,1.659,1.345,6.0
55.628,1.684,1.065,0.0
37.449,1.123,0.505,0.0
31.782,0.943,0.246,0.0
27.892,0.819,0.058,0.0
24.675,0.718,-0.087,0.0
54.233,1.556,1.293,1.0
46.172,1.312,0.84,0.0
36.29,1.02,0.455,0.0
31.085,0.864,0.211,0.0
27.185,0.748,0.031,0.0
23.975,0.652,-0.107,1.0
54.658,1.467,1.253,0.0
0.0,0.0,0.0,0.0
35.599,0.933,0.414,1.0
28.988,0.751,0.171,1.0
26.757,0.685,0.007,0.0
23.862,0.604,-0.128,1.0
57.52,1.434,1.268,4.0
0.0,0.0,0.0,0.0
34.765,0.846,0.374,0.0
28.94,0.695,0.145,1.0
26.422,0.626,-0.015,0.0
23.476,0.549,-0.146,0.0
57.95,1.334,1.228,3.0
0.0,0.0,0.0,0.0
33.604,0.753,0.333,0.0
28.844,0.637,0.121,1.0
25.929,0.565,-0.037,0.0
22.939,0.492,-0.162,0.0
0.0,0.0,0.0,0.0
0.0,0.0,0.0,0.0
33.276,0.68,0.303,1.0
28.737,0.578,0.097,1.0
25.431,0.503,-0.056,0.0
22.279,0.434,-0.175,0.0
0.0,0.0,0.0,0.0
37.622,0.706,0.524,0.0
32.413,0.598,0.269,0.0
28.29,0.513,0.073,0.0
25.13,0.448,-0.075,0.0
21.992,0.385,-0.189,0.0
0.0,0.0,0.0,0.0
37.825,0.635,0.499,0.0
31.812,0.524,0.241,0.0
27.576,0.445,0.051,0.0
24.669,0.39,-0.092,0.0
21.675,0.336,-0.203,0.0
0.0,0.0,0.0,0.0
0.0,0.0,0.0,0.0
28.918,0.418,0.198,0.0
27.289,0.386,0.031,0.0
24.301,0.335,-0.108,1.0
21.552,0.29,-0.217,1.0
0.0,0.0,0.0,0.0
0.0,0.0,0.0,0.0
28.937,0.36,0.178,1.0
27.019,0.327,0.012,0.0
23.824,0.28,-0.122,0.0
20.77,0.237,-0.223,0.0
0.0,0.0,0.0,0.0
34.494,0.369,0.383,0.0
28.901,0.3,0.159,2.0
26.543,0.266,-0.004,0.0
23.588,0.229,-0.136,0.0
20.544,0.192,-0.233,0.0
0.0,0.0,0.0,0.0
0.0,0.0,0.0,0.0
28.874,0.24,0.141,4.0
26.366,0.21,-0.02,0.0
23.317,0.178,-0.148,0.0
20.209,0.147,-0.242,0.0
39.534,0.274,0.613,0.0
33.549,0.221,0.332,0.0
28.803,0.18,0.124,0.0
26.067,0.154,-0.035,0.0
22.866,0.127,-0.159,1.0
19.905,0.104,-0.249,0.0
0.0,0.0,0.0,0.0
33.116,0.149,0.31,0.0
28.684,0.119,0.108,1.0
25.744,0.098,-0.049,0.0
22.734,0.079,-0.17,0.0
19.553,0.061,-0.255,0.0
0.0,0.0,0.0,0.0
32.244,0.078,0.285,0.0
28.667,0.059,0.093,1.0
25.451,0.044,-0.061,0.0
22.12,0.03,-0.176,0.0
19.275,0.02,-0.261,0.0
0.0,0.0,0.0,0.0
0.0,0.0,0.0,0.0
28.494,0.0,0.079,1.0
25.187,-0.009,-0.072,0.0
21.868,-0.015,-0.184,0.0
19.209,-0.02,-0.269,0.0
36.963,-0.052,0.499,0.0
31.561,-0.055,0.25,0.0
28.593,-0.06,0.067,2.0
25.166,-0.062,-0.082,0.0
21.857,-0.061,-0.193,0.0
18.984,-0.06,-0.274,0.0
36.889,-0.13,0.483,0.0
31.59,-0.122,0.238,1.0
28.336,-0.12,0.055,1.0
24.824,-0.113,-0.091,0.0
21.838,-0.108,-0.202,1.0
18.825,-0.099,-0.278,0.0
36.345,-0.204,0.462,0.0
31.396,-0.187,0.225,1.0
27.818,-0.176,0.045,0.0
24.546,-0.164,-0.099,0.0
21.707,-0.153,-0.208,0.0
18.698,-0.138,-0.283,0.0
0.0,0.0,0.0,0.0
31.349,-0.253,0.214,1.0
27.474,-0.232,0.035,0.0
24.232,-0.214,-0.105,0.0
21.397,-0.196,-0.211,0.0
18.539,-0.176,-0.286,0.0
0.0,0.0,0.0,0.0
30.886,-0.316,0.202,0.0
27.395,-0.29,0.027,0.0
24.141,-0.264,-0.111,0.0
21.104,-0.239,-0.214,0.0
18.363,-0.214,-0.288,0.0
0.0,0.0,0.0,0.0
30.826,-0.381,0.194,0.0
27.242,-0.346,0.02,0.0
23.859,-0.312,-0.116,0.0
21.173,-0.284,-0.22,0.0
18.218,-0.251,-0.29,0.0
34.304,-0.484,0.398,0.0
30.43,-0.44,0.185,0.0
27.117,-0.402,0.015,0.0
23.752,-0.361,-0.12,1.0
20.97,-0.326,-0.222,0.0
18.225,-0.29,-0.294,0.0
34.297,-0.556,0.392,0.0
30.305,-0.503,0.179,0.0
27.0,-0.457,0.01,0.0
23.972,-0.415,-0.125,0.0
20.749,-0.367,-0.223,0.0
18.232,-0.329,-0.297,0.0
34.138,-0.626,0.385,1.0
28.786,-0.539,0.166,1.0
26.735,-0.51,0.006,0.0
23.866,-0.464,-0.128,0.0
20.73,-0.41,-0.225,0.0
18.167,-0.367,-0.298,0.0
34.434,-0.705,0.385,1.0
28.83,-0.601,0.163,1.0
26.81,-0.568,0.004,0.0
23.736,-0.512,-0.129,0.0
20.572,-0.451,-0.225,0.0
18.161,-0.405,-0.299,0.0
34.191,-0.772,0.38,0.0
28.764,-0.66,0.161,2.0
26.863,-0.626,0.002,0.0
23.801,-0.563,-0.131,1.0
20.529,-0.494,-0.226,0.0
18.097,-0.442,-0.299,0.0
0.0,0.0,0.0,0.0
28.758,-0.721,0.16,1.0
26.741,-0.68,0.002,0.0
23.497,-0.607,-0.129,0.0
20.911,-0.547,-0.23,1.0
18.159,-0.482,-0.3,0.0
34.363,-0.922,0.381,0.0
28.803,-0.783,0.161,0.0
26.857,-0.74,0.002,0.0
23.552,-0.658,-0.129,0.0
20.94,-0.592,-0.23,1.0
18.165,-0.521,-0.299,0.0
34.652,-1.003,0.385,0.0
28.686,-0.84,0.161,0.0
26.864,-0.797,0.003,0.0
23.502,-0.706,-0.127,0.0
20.933,-0.636,-0.228,1.0
18.195,-0.56,-0.298,0.0
0.0,0.0,0.0,0.0
30.407,-0.955,0.174,0.0
26.921,-0.855,0.006,0.0
23.57,-0.758,-0.125,0.0
20.967,-0.682,-0.227,2.0
18.228,-0.6,-0.297,0.0
0.0,0.0,0.0,0.0
30.415,-1.02,0.178,0.0
26.754,-0.907,0.009,0.0
23.515,-0.805,-0.122,0.0
20.971,-0.726,-0.224,1.0
18.262,-0.639,-0.295,0.0
34.816,-1.227,0.399,0.0
30.478,-1.085,0.183,0.0
26.956,-0.97,0.014,0.0
24.047,-0.874,-0.121,0.0
21.0,-0.771,-0.22,2.0
18.275,-0.678,-0.292,0.0
34.946,-1.305,0.408,0.0
28.672,-1.081,0.178,0.0
27.368,-1.042,0.02,0.0
23.763,-0.913,-0.114,0.0
21.013,-0.815,-0.216,2.0
18.513,-0.725,-0.291,0.0
35.426,-1.396,0.421,0.0
30.787,-1.224,0.198,0.0
27.457,-1.102,0.027,0.0
23.853,-0.966,-0.109,0.0
21.058,-0.86,-0.211,2.0
18.547,-0.765,-0.287,0.0
35.694,-1.479,0.434,0.0
30.939,-1.293,0.207,0.0
28.061,-1.183,0.035,0.0
23.851,-1.015,-0.102,0.0
21.198,-0.909,-0.206,1.0
18.781,-0.813,-0.285,0.0
36.083,-1.569,0.45,0.0
31.253,-1.37,0.219,0.0
28.268,-1.25,0.044,0.0
23.958,-1.068,-0.095,0.0
21.459,-0.965,-0.202,1.0
18.916,-0.857,-0.281,0.0
0.0,0.0,0.0,0.0
31.349,-1.438,0.231,0.0
27.91,-1.291,0.053,1.0
24.649,-1.149,-0.089,0.0
21.961,-1.031,-0.199,0.0
19.052,-0.902,-0.276,0.0
0.0,0.0,0.0,0.0
31.659,-1.516,0.245,0.0
28.189,-1.36,0.064,7.0
25.09,-1.219,-0.081,0.0
22.235,-1.089,-0.192,1.0
19.076,-0.941,-0.269,0.0
37.814,-1.872,0.514,0.0
32.107,-1.601,0.262,0.0
28.313,-1.422,0.077,3.0
25.595,-1.295,-0.071,0.0
22.389,-1.141,-0.184,1.0
19.24,-0.987,-0.263,0.0
38.119,-1.963,0.535,0.0
0.0,0.0,0.0,0.0
28.435,-1.485,0.09,2.0
25.521,-1.342,-0.059,0.0
22.748,-1.204,-0.176,1.0
19.519,-1.04,-0.257,0.0
34.694,-1.855,0.503,0.0
32.458,-1.747,0.295,1.0
28.534,-1.546,0.104,7.0
34.246,-1.867,-0.063,7.0
34.223,-1.878,-0.248,2.0
34.237,-1.892,-0.434,2.0
34.636,-1.919,0.52,0.0
33.282,-1.856,0.32,0.0
28.572,-1.603,0.119,5.0
34.186,-1.93,-0.044,1.0
23.349,-1.327,-0.157,0.0
20.068,-1.147,-0.243,0.0
34.531,-1.979,0.538,1.0
34.51,-1.99,0.35,0.0
28.622,-1.66,0.136,4.0
0.0,0.0,0.0,0.0
23.494,-1.379,-0.144,0.0
20.388,-1.204,-0.236,0.0
34.616,-2.049,0.559,7.0
34.993,-2.083,0.375,0.0
30.533,-1.828,0.163,1.0
26.796,-1.614,-0.004,0.0
23.764,-1.44,-0.132,0.0
20.792,-1.267,-0.228,0.0
34.261,-2.092,0.574,3.0
0.0,0.0,0.0,0.0
30.756,-1.899,0.183,1.0
27.252,-1.692,0.012,0.0
23.955,-1.495,-0.118,0.0
21.147,-1.328,-0.218,0.0
34.119,-2.146,0.594,2.0
35.874,-2.269,0.43,0.0
31.706,-2.015,0.209,0.0
27.832,-1.779,0.031,1.0
24.429,-1.57,-0.104,0.0
21.819,-1.409,-0.21,0.0
33.989,-2.2,0.614,0.0
0.0,0.0,0.0,0.0
32.089,-2.098,0.234,0.0
28.093,-1.846,0.05,0.0
0.0,0.0,0.0,0.0
22.219,-1.475,-0.199,0.0
33.976,-2.26,0.638,0.0
34.645,-2.316,0.464,0.0
32.741,-2.199,0.262,0.0
28.49,-1.923,0.071,0.0
25.761,-1.747,-0.073,1.0
22.521,-1.535,-0.185,0.0
33.85,-2.311,0.66,0.0
34.517,-2.368,0.488,1.0
32.422,-2.235,0.283,0.0
33.991,-2.355,0.111,0.0
25.839,-1.798,-0.054,1.0
22.887,-1.6,-0.171,0.0
33.876,-2.373,0.687,153.0
34.416,-2.422,0.513,3.0
0.0,0.0,0.0,0.0
33.951,-2.411,0.137,0.0
33.945,-2.422,-0.044,1.0
33.927,-2.431,-0.227,1.0
33.869,-2.43,0.714,157.0
34.281,-2.471,0.538,4.0
35.47,-2.568,0.366,0.0
29.958,-2.178,0.146,0.0
33.918,-2.477,-0.016,2.0
33.914,-2.488,-0.198,3.0
33.87,-2.488,0.742,159.0
34.106,-2.516,0.564,4.0
35.664,-2.642,0.398,1.0
33.956,-2.526,0.194,0.0
33.93,-2.535,0.011,3.0
33.89,-2.543,-0.169,14.0
33.869,-2.544,0.771,154.0
33.939,-2.56,0.59,6.0
37.984,-2.877,0.457,0.0
31.296,-2.38,0.206,0.0
33.864,-2.586,0.041,2.0
33.888,-2.598,-0.139,8.0
33.863,-2.599,0.801,155.0
33.862,-2.609,0.619,6.0
38.688,-2.993,0.5,0.0
31.76,-2.467,0.237,0.0
33.855,-2.639,0.071,2.0
33.867,-2.651,-0.109,5.0
33.857,-2.653,0.831,152.0
33.838,-2.661,0.65,150.0
34.395,-2.715,0.476,2.0
0.0,0.0,0.0,0.0
33.883,-2.695,0.103,0.0
33.869,-2.704,-0.077,0.0
33.807,-2.702,0.862,40.0
33.834,-2.714,0.681,150.0
34.288,-2.76,0.507,3.0
33.384,-2.697,0.311,0.0
33.891,-2.748,0.135,0.0
33.879,-2.757,-0.045,1.0
33.802,-2.754,0.894,54.0
33.815,-2.764,0.713,156.0
34.135,-2.8,0.538,4.0
34.442,-2.834,0.355,0.0
30.291,-2.502,0.15,0.0
33.849,-2.805,-0.012,1.0
33.813,-2.805,0.927,120.0
33.823,-2.815,0.747,157.0
33.97,-2.836,0.568,2.0
35.438,-2.969,0.4,0.0
30.792,-2.588,0.183,0.0
27.47,-2.317,0.017,0.0
33.808,-2.854,0.961,150.0
33.812,-2.863,0.78,9.0
33.889,-2.879,0.601,1.0
0.0,0.0,0.0,0.0
31.565,-2.698,0.22,0.0
28.34,-2.431,0.046,0.0
33.811,-2.902,0.996,137.0
33.801,-2.91,0.815,9.0
33.777,-2.917,0.634,5.0
34.391,-2.979,0.459,1.0
0.0,0.0,0.0,0.0
28.973,-2.525,0.077,0.0
33.793,-2.947,1.031,96.0
33.781,-2.955,0.85,27.0
33.794,-2.965,0.67,1.0
34.337,-3.021,0.494,2.0
33.783,-2.981,0.306,0.0
29.355,-2.598,0.109,0.0
33.794,-2.993,1.067,85.0
33.781,-3.0,0.886,46.0
33.781,-3.009,0.706,0.0
34.167,-3.052,0.529,3.0
34.544,-3.094,0.35,0.0
30.373,-2.728,0.146,0.0
33.792,-3.038,1.104,58.0
33.801,-3.046,0.924,52.0
33.818,-3.056,0.744,2.0
34.016,-3.082,0.563,1.0
0.0,0.0,0.0,0.0
31.112,-2.834,0.184,0.0
33.798,-3.082,1.141,23.0
33.798,-3.089,0.961,44.0
33.823,-3.099,0.782,89.0
33.809,-3.106,0.598,0.0
34.572,-3.184,0.428,0.0
31.781,-2.935,0.224,0.0
33.83,-3.126,1.18,5.0
33.797,-3.131,0.999,29.0
33.78,-3.137,0.819,9.0
33.735,-3.14,0.635,0.0
34.572,-3.226,0.467,2.0
32.503,-3.041,0.266,0.0
33.841,-3.169,1.22,4.0
33.805,-3.172,1.039,24.0
33.803,-3.179,0.859,15.0
33.705,-3.178,0.674,0.0
34.499,-3.26,0.506,3.0
33.744,-3.196,0.315,0.0
33.855,-3.209,1.26,7.0
33.841,-3.215,1.079,4.0
33.819,-3.22,0.899,14.0
33.879,-3.233,0.717,0.0
34.007,-3.252,0.539,0.0
0.0,0.0,0.0,0.0
33.845,-3.246,1.299,5.0
33.85,-3.253,1.119,8.0
33.831,-3.258,0.939,11.0
33.816,-3.264,0.755,0.0
33.873,-3.276,0.577,0.0
0.0,0.0,0.0,0.0
33.987,-3.297,1.346,0.0
33.857,-3.291,1.161,4.0
33.855,-3.297,0.98,10.0
33.848,-3.303,0.797,3.0
33.771,-3.302,0.616,0.0
34.615,-3.391,0.447,2.0
34.216,-3.355,1.396,0.0
33.9,-3.33,1.203,2.0
33.92,-3.338,1.023,156.0
33.856,-3.338,0.838,4.0
0.0,0.0,0.0,0.0
34.315,-3.396,0.485,0.0
34.493,-3.417,1.449,0.0
33.93,-3.366,1.245,2.0
33.927,-3.372,1.065,164.0
33.882,-3.374,0.88,4.0
33.859,-3.377,0.7,0.0
34.105,-3.408,0.524,1.0
34.769,-3.477,1.504,0.0
34.012,-3.407,1.291,0.0
33.913,-3.403,1.107,18.0
33.897,-3.407,0.923,4.0
33.906,-3.414,0.743,1.0
34.022,-3.431,0.565,0.0
35.353,-3.569,1.573,0.0
34.337,-3.471,1.346,0.0
33.93,-3.435,1.15,1.0
33.985,-3.446,0.967,155.0
33.949,-3.448,0.786,2.0
33.99,-3.458,0.607,0.0
36.133,-3.679,1.654,0.0
34.955,-3.564,1.414,0.0
34.068,-3.478,1.197,0.0
33.957,-3.472,1.009,83.0
33.99,-3.481,0.83,2.0
33.925,-3.479,0.648,0.0
159.681,-16.392,7.514,8.0
35.624,-3.661,1.486,0.0
34.118,-3.511,1.242,0.0
33.995,-3.503,1.054,1.0
34.01,-3.51,0.873,0.0
34.037,-3.517,0.694,0.0
159.427,-16.491,7.704,18.0
36.489,-3.779,1.569,0.0
34.958,-3.624,1.317,1.0
34.103,-3.54,1.1,0.0
34.09,-3.543,0.919,0.0
34.089,-3.547,0.738,0.0
159.078,-16.572,7.888,19.0
160.029,-16.69,7.085,5.0
35.673,-3.724,1.39,2.0
34.212,-3.576,1.148,0.0
34.166,-3.576,0.965,0.0
34.152,-3.578,0.784,0.0
159.359,-16.715,8.109,12.0
159.858,-16.784,7.285,17.0
155.241,-16.315,6.249,4.0
34.46,-3.625,1.2,0.0
34.189,-3.601,1.01,0.0
34.383,-3.625,0.833,0.0
159.312,-16.814,8.313,14.0
159.717,-16.872,7.485,19.0
154.861,-16.374,6.433,6.0
35.207,-3.726,1.272,0.0
34.373,-3.641,1.06,0.0
34.977,-3.709,0.892,0.0
159.219,-16.902,8.515,17.0
159.907,-16.989,7.699,11.0
154.62,-16.44,6.624,6.0
36.225,-3.855,1.355,0.0
34.707,-3.696,1.114,0.0
35.037,-3.735,0.939,1.0
159.349,-17.006,8.728,19.0
159.739,-17.059,7.897,16.0
154.594,-16.521,6.822,4.0
36.462,-3.899,1.411,1.0
35.688,-3.82,1.192,0.0
35.729,-3.827,1.003,1.0
159.527,-17.107,8.944,19.0
159.386,-17.103,8.088,16.0
159.953,-17.173,7.265,10.0
36.49,-3.92,1.459,2.0
36.005,-3.871,1.249,0.0
35.908,-3.863,1.054,3.0
159.753,-17.207,9.163,11.0
159.448,-17.183,8.295,18.0
160.072,-17.26,7.476,15.0
154.215,-16.637,6.369,4.0
36.634,-3.954,1.318,0.0
36.135,-3.903,1.108,1.0
160.016,-17.304,9.385,13.0
158.987,-17.2,8.477,16.0
159.951,-17.312,7.677,18.0
154.068,-16.682,6.559,10.0
36.654,-3.971,1.365,0.0
36.638,-3.971,1.17,0.0
160.005,-17.365,9.592,11.0
159.175,-17.279,8.694,16.0
159.492,-17.32,7.862,18.0
155.708,-16.916,6.832,3.0
36.52,-3.969,1.407,1.0
37.221,-4.047,1.237,0.0
160.122,-17.432,9.806,13.0
159.466,-17.364,8.915,15.0
159.492,-17.372,8.067,20.0
155.513,-16.943,7.022,12.0
36.56,-3.984,1.456,0.0
0.0,0.0,0.0,0.0
159.944,-17.459,10.002,14.0
159.388,-17.401,9.117,19.0
159.342,-17.399,8.264,15.0
160.239,-17.499,7.441,12.0
153.915,-16.813,6.328,5.0
145.663,-15.916,5.215,4.0
159.973,-17.502,10.209,8.0
159.71,-17.475,9.34,16.0
159.055,-17.403,8.453,19.0
159.704,-17.476,7.621,9.0
153.841,-16.838,6.521,3.0
0.0,0.0,0.0,0.0
174.535,-19.13,11.361,20.0
159.882,-17.524,9.553,15.0
159.133,-17.441,8.659,16.0
159.536,-17.485,7.815,17.0
155.385,-17.032,6.782,3.0
36.525,-4.004,1.4,0.0
174.456,-19.149,11.579,35.0
159.966,-17.556,9.762,16.0
159.366,-17.488,8.875,18.0
159.413,-17.493,8.01,18.0
155.497,-17.061,6.985,7.0
153.923,-16.889,6.094,2.0
174.433,-19.166,11.797,21.0
159.839,-17.558,9.955,16.0
159.309,-17.497,9.071,19.0
159.127,-17.474,8.195,19.0
160.042,-17.573,7.388,3.0
153.859,-16.891,6.284,3.0
142.617,-15.679,9.825,17.0
159.929,-17.577,10.161,11.0
159.631,-17.54,9.288,18.0
159.075,-17.473,8.391,18.0
159.548,-17.522,7.563,11.0
153.749,-16.883,6.467,3.0
142.898,-15.713,10.022,18.0
174.46,-19.176,11.301,15.0
159.864,-17.566,9.499,17.0
159.113,-17.477,8.587,18.0
159.541,-17.519,7.758,20.0
0.0,0.0,0.0,0.0
143.121,-15.734,10.212,17.0
174.465,-19.171,11.513,32.0
160.014,-17.575,9.701,15.0
159.269,-17.486,8.787,15.0
159.444,-17.498,7.946,18.0
155.461,-17.055,6.918,11.0
143.317,-15.746,10.402,20.0
174.421,-19.152,11.723,24.0
159.903,-17.549,9.891,18.0
159.255,-17.468,8.983,18.0
159.205,-17.455,8.127,18.0
155.526,-17.044,7.107,5.0
143.478,-15.747,10.587,14.0
142.553,-15.635,9.752,12.0
159.857,-17.522,10.078,15.0
159.513,-17.474,9.185,17.0
159.198,-17.43,8.313,18.0
160.203,-17.531,7.509,7.0
143.327,-15.708,10.745,5.0
142.681,-15.625,9.931,17.0
174.512,-19.098,11.208,13.0
159.771,-17.473,9.388,13.0
159.019,-17.379,8.492,15.0
159.788,-17.452,7.677,17.0
143.132,-15.658,10.899,14.0
142.977,-15.628,10.117,22.0
174.478,-19.056,11.41,27.0
160.054,-17.466,9.591,15.0
159.279,-17.37,8.689,17.0
159.537,-17.386,7.848,22.0
143.277,-15.638,11.076,12.0
143.139,-15.609,10.294,19.0
174.501,-19.012,11.611,35.0
160.071,-17.425,9.774,7.0
159.475,-17.346,8.882,19.0
159.458,-17.331,8.024,21.0
143.872,-15.661,11.287,10.0
143.213,-15.574,10.462,13.0
174.441,-18.953,11.802,26.0
159.958,-17.363,9.945,3.0
159.756,-17.325,9.074,15.0
159.555,-17.288,8.206,16.0
143.909,-15.619,11.448,13.0
143.185,-15.524,10.616,5.0
174.391,-18.886,11.991,18.0
160.079,-17.319,10.129,6.0
159.951,-17.288,9.26,12.0
158.854,-17.153,8.343,12.0
143.7,-15.543,11.589,3.0
143.031,-15.451,10.763,13.0
142.687,-15.397,9.966,11.0
174.505,-18.81,11.23,20.0
159.959,-17.223,9.433,11.0
159.125,-17.116,8.528,19.0
143.114,-15.42,11.696,9.0
143.118,-15.4,10.923,16.0
142.819,-15.35,10.127,18.0
174.558,-18.74,11.417,36.0
160.021,-17.158,9.605,14.0
159.431,-17.077,8.71,16.0
143.044,-15.347,11.841,13.0
143.537,-15.379,11.104,16.0
142.976,-15.299,10.288,19.0
174.55,-18.655,11.597,27.0
159.83,-17.061,9.757,14.0
159.378,-16.991,8.872,21.0
143.142,-15.286,11.997,6.0
143.947,-15.35,11.284,19.0
143.032,-15.232,10.438,19.0
174.711,-18.581,11.785,23.0
159.751,-16.967,9.914,11.0
159.084,-16.875,9.013,11.0
143.361,-15.234,12.158,7.0
142.554,-15.125,11.316,5.0
143.097,-15.16,10.583,12.0
174.812,-18.494,11.965,24.0
0.0,0.0,0.0,0.0
160.235,-16.905,9.235,4.0
143.256,-15.139,12.292,13.0
142.583,-15.045,11.458,15.0
143.169,-15.082,10.729,15.0
174.969,-18.405,12.144,18.0
175.167,-18.399,11.21,12.0
160.035,-16.785,9.376,8.0
143.075,-15.031,12.414,12.0
142.397,-14.936,11.579,20.0
143.125,-14.988,10.86,14.0
142.428,-14.891,10.019,13.0
175.291,-18.3,11.379,19.0
160.004,-16.678,9.521,15.0
142.96,-14.927,12.536,10.0
142.552,-14.859,11.722,20.0
142.954,-14.874,10.978,14.0
142.411,-14.794,10.147,15.0
175.613,-18.213,11.559,23.0
160.146,-16.582,9.673,13.0
144.45,-14.981,12.798,6.0
142.696,-14.773,11.863,13.0
0.0,0.0,0.0,0.0
142.47,-14.697,10.278,8.0
175.766,-18.101,11.725,21.0
160.261,-16.476,9.821,16.0
142.551,-14.68,12.755,6.0
142.744,-14.673,11.991,12.0
142.787,-14.649,11.217,4.0
142.658,-14.608,10.415,14.0
175.988,-17.989,11.891,19.0
160.114,-16.337,9.948,10.0
142.56,-14.571,12.877,12.0
142.553,-14.542,12.096,15.0
143.023,-14.561,11.355,13.0
142.551,-14.484,10.526,19.0
149.635,-15.175,10.234,7.0
160.078,-16.206,10.076,7.0
143.995,-14.602,13.124,10.0
142.596,-14.43,12.217,14.0
143.022,-14.443,11.471,13.0
142.481,-14.361,10.633,13.0
143.431,-14.428,9.921,12.0
176.618,-17.731,11.256,15.0
144.245,-14.507,13.26,6.0
142.77,-14.327,12.341,12.0
142.615,-14.282,11.547,12.0
142.444,-14.235,10.739,12.0
143.62,-14.323,10.043,17.0
150.084,-14.937,9.677,18.0
144.208,-14.376,13.367,5.0
142.817,-14.205,12.453,14.0
144.653,-14.356,11.82,8.0
142.306,-14.093,10.834,12.0
143.604,-14.191,10.148,11.0
148.986,-14.693,9.713,13.0
0.0,0.0,0.0,0.0
142.774,-14.069,12.553,8.0
144.716,-14.229,11.927,15.0
142.211,-13.952,10.926,12.0
143.682,-14.065,10.253,12.0
150.354,-14.686,9.906,9.0
143.427,-14.031,13.498,9.0
142.776,-13.934,12.65,5.0
144.746,-14.093,12.028,19.0
151.939,-14.759,11.776,4.0
143.715,-13.928,10.351,12.0
177.754,-17.19,11.827,15.0
143.404,-13.888,13.591,16.0
144.758,-13.986,12.919,3.0
144.956,-13.971,12.139,7.0
146.349,-14.071,11.435,4.0
143.687,-13.783,10.438,15.0
185.19,-17.724,12.436,4.0
144.311,-13.833,13.765,7.0
147.143,-14.068,13.223,3.0
145.558,-13.882,12.276,5.0
146.366,-13.924,11.525,3.0
146.008,-13.856,10.693,6.0
151.447,-14.337,10.26,22.0
145.445,-13.792,13.957,5.0
147.231,-13.923,13.316,9.0
145.831,-13.756,12.382,12.0
145.448,-13.685,11.533,8.0
143.737,-13.49,10.606,4.0
209.368,-19.601,14.297,5.0
145.634,-13.654,14.057,15.0
153.575,-14.359,13.973,6.0
145.75,-13.591,12.454,3.0
145.74,-13.555,11.633,5.0
146.102,-13.552,10.857,4.0
209.592,-19.394,14.42,7.0
145.421,-13.474,14.11,13.0
147.225,-13.604,13.469,6.0
144.877,-13.35,12.452,3.0
144.662,-13.295,11.618,7.0
146.24,-13.403,10.937,12.0
153.758,-14.056,10.651,9.0
145.511,-13.319,14.189,15.0
0.0,0.0,0.0,0.0
147.008,-13.379,12.702,4.0
144.866,-13.146,11.701,13.0
148.18,-13.411,11.149,5.0
145.768,-13.158,10.161,10.0
146.187,-13.213,14.319,13.0
144.954,-13.063,13.391,12.0
147.317,-13.238,12.79,7.0
144.614,-12.958,11.739,15.0
145.319,-12.986,10.991,10.0
145.802,-12.993,10.222,11.0
146.188,-13.042,14.377,15.0
146.527,-13.033,13.593,5.0
148.503,-13.169,12.95,7.0
144.438,-12.771,11.78,20.0
145.108,-12.795,11.029,12.0
0.0,0.0,0.0,0.0
146.001,-12.853,14.41,12.0
146.371,-12.845,13.63,7.0
145.863,-12.761,12.771,11.0
144.565,-12.609,11.838,6.0
144.579,-12.573,11.037,4.0
146.244,-12.68,10.353,12.0
145.414,-12.621,14.4,4.0
146.615,-12.686,13.699,4.0
145.991,-12.593,12.827,9.0
144.967,-12.466,11.915,5.0
144.569,-12.393,11.078,6.0
146.323,-12.506,10.399,11.0
145.336,-12.433,14.433,18.0
0.0,0.0,0.0,0.0
153.82,-13.075,13.555,4.0
145.867,-12.36,12.026,5.0
146.433,-12.37,11.257,4.0
146.132,-12.306,10.421,7.0
145.449,-12.26,14.479,14.0
144.893,-12.172,13.612,13.0
145.18,-12.156,12.827,14.0
146.368,-12.216,12.098,5.0
145.802,-12.128,11.24,15.0
146.644,-12.159,10.488,7.0
0.0,0.0,0.0,0.0
145.176,-12.006,13.666,11.0
145.673,-12.006,12.897,17.0
145.893,-11.984,12.087,13.0
146.787,-12.017,11.341,11.0
147.055,-12.0,10.542,14.0
0.0,0.0,0.0,0.0
145.011,-11.8,13.673,14.0
145.592,-11.806,12.911,20.0
145.685,-11.773,12.089,9.0
146.596,-11.807,11.344,4.0
151.74,-12.181,10.896,4.0
145.808,-11.712,14.584,10.0
144.967,-11.604,13.684,5.0
145.642,-11.614,12.932,17.0
145.922,-11.597,12.123,14.0
145.403,-11.515,11.265,4.0
148.8,-11.743,10.697,4.0
145.883,-11.52,14.603,13.0
144.978,-11.406,13.696,14.0
146.4,-11.477,13.008,5.0
145.439,-11.362,12.09,14.0
145.309,-11.312,11.264,3.0
151.036,-11.716,10.865,4.0
145.686,-11.307,14.588,18.0
146.337,-11.316,13.827,4.0
119.142,-9.178,10.588,11.0
145.184,-11.144,12.071,12.0
154.553,-11.821,11.983,4.0
155.042,-11.815,11.152,8.0
145.92,-11.123,14.61,13.0
145.584,-11.057,13.754,5.0
119.218,-9.019,10.592,9.0
148.436,-11.188,12.336,9.0
147.082,-11.046,11.397,4.0
121.883,-9.119,8.761,6.0
146.226,-10.944,14.633,12.0
146.757,-10.94,13.856,14.0
119.165,-8.849,10.578,13.0
87.703,-6.489,7.282,3.0
119.159,-8.782,9.224,6.0
121.989,-8.957,8.758,6.0
146.407,-10.749,14.637,13.0
146.702,-10.729,13.836,10.0
119.113,-8.678,10.56,18.0
87.8,-6.371,7.28,19.0
119.356,-8.628,9.224,11.0
121.997,-8.786,8.742,13.0
91.611,-6.597,9.146,10.0
118.53,-8.5,11.162,10.0
119.096,-8.506,10.541,14.0
87.972,-6.257,7.28,16.0
119.27,-8.45,9.197,9.0
121.967,-8.607,8.719,8.0
91.25,-6.438,9.093,16.0
118.463,-8.324,11.132,10.0
117.266,-8.207,10.356,13.0
88.146,-6.143,7.277,11.0
118.824,-8.247,9.138,14.0
119.542,-8.264,8.52,9.0
91.328,-6.311,9.08,16.0
118.56,-8.158,11.114,6.0
117.161,-8.029,10.318,12.0
87.821,-5.993,7.228,16.0
119.212,-8.103,9.138,6.0
119.343,-8.077,8.474,10.0
91.431,-6.185,9.066,16.0
91.525,-6.165,8.555,27.0
88.33,-5.923,7.754,15.0
87.804,-5.863,7.202,17.0
119.232,-7.928,9.105,10.0
120.83,-8.002,8.543,9.0
91.476,-6.054,9.041,17.0
118.751,-7.823,11.062,7.0
88.202,-5.786,7.714,20.0
87.969,-5.746,7.185,24.0
94.687,-6.159,7.198,7.0
120.189,-7.784,8.457,13.0
91.294,-5.907,8.991,12.0
93.233,-6.006,8.651,11.0
88.266,-5.66,7.687,28.0
88.24,-5.633,7.174,18.0
87.829,-5.582,6.642,9.0
120.076,-7.599,8.401,10.0
87.271,-5.518,8.559,16.0
93.219,-5.866,8.611,19.0
88.582,-5.549,7.677,31.0
88.533,-5.521,7.161,13.0
87.847,-5.454,6.606,11.0
89.372,-5.524,6.215,12.0
87.082,-5.376,8.502,29.0
88.543,-5.441,8.139,14.0
89.339,-5.465,7.702,23.0
88.705,-5.401,7.134,15.0
87.7,-5.315,6.554,13.0
89.275,-5.386,6.165,13.0
87.348,-5.262,8.485,19.0
88.745,-5.321,8.114,17.0
93.075,-5.555,7.978,17.0
88.526,-5.258,7.074,19.0
87.772,-5.189,6.515,12.0
89.431,-5.262,6.129,27.0
87.861,-5.162,8.488,27.0
88.65,-5.183,8.057,29.0
92.8,-5.399,7.904,16.0
88.27,-5.111,7.005,23.0
94.796,-5.462,6.982,7.0
89.839,-5.152,6.107,14.0
87.904,-5.032,8.442,20.0
88.902,-5.065,8.028,14.0
89.011,-5.045,7.529,19.0
88.436,-4.988,6.966,26.0
88.068,-4.942,6.434,6.0
89.732,-5.012,6.044,13.0
87.859,-4.898,8.382,25.0
89.32,-4.953,8.009,7.0
89.05,-4.914,7.475,24.0
88.906,-4.882,6.945,17.0
88.994,-4.861,6.444,13.0
92.504,-5.028,6.171,17.0
87.9,-4.768,8.327,26.0
89.287,-4.819,7.947,15.0
88.687,-4.762,7.385,26.0
89.09,-4.758,6.899,13.0
88.286,-4.691,6.332,23.0
108.497,-5.738,7.163,8.0
87.375,-4.609,8.216,14.0
89.098,-4.675,7.866,19.0
88.569,-4.623,7.312,13.0
88.056,-4.572,6.755,19.0
88.383,-4.566,6.275,30.0
108.594,-5.582,7.09,11.0
85.259,-4.372,7.953,12.0
88.876,-4.532,7.779,15.0
89.534,-4.541,7.323,13.0
88.17,-4.448,6.697,25.0
88.307,-4.431,6.201,26.0
91.953,-4.59,5.931,20.0
87.49,-4.355,8.092,24.0
90.364,-4.473,7.837,13.0
88.85,-4.374,7.195,18.0
89.002,-4.358,6.688,16.0
88.609,-4.316,6.151,15.0
90.791,-4.398,5.783,9.0
87.951,-4.248,8.062,18.0
86.843,-4.171,7.459,16.0
88.229,-4.214,7.071,15.0
89.281,-4.24,6.633,16.0
90.731,-4.286,6.22,20.0
90.821,-4.267,5.707,13.0
89.08,-4.171,8.087,14.0
87.024,-4.051,7.398,14.0
88.201,-4.083,6.99,20.0
89.274,-4.109,6.553,15.0
91.187,-4.173,6.17,17.0
91.127,-4.147,5.643,17.0
87.203,-3.954,7.836,19.0
87.089,-3.925,7.323,19.0
88.087,-3.948,6.899,26.0
88.859,-3.96,6.44,14.0
91.206,-4.04,6.086,27.0
89.666,-3.949,5.468,17.0
87.094,-3.822,7.742,11.0
91.997,-4.013,7.647,6.0
88.982,-3.858,6.883,17.0
88.412,-3.81,6.32,23.0
97.015,-4.157,6.377,12.0
108.31,-4.615,6.499,5.0
87.109,-3.695,7.656,12.0
88.397,-3.727,7.258,20.0
88.685,-3.716,6.769,22.0
88.026,-3.665,6.202,15.0
88.897,-3.679,5.752,20.0
98.505,-4.053,5.808,5.0
87.189,-3.572,7.572,5.0
88.05,-3.584,7.137,25.0
88.185,-3.567,6.638,21.0
88.251,-3.547,6.124,12.0
90.152,-3.602,5.738,12.0
98.55,-3.914,5.706,22.0
79.719,-3.15,6.835,11.0
87.853,-3.449,7.025,25.0
87.712,-3.423,6.507,21.0
88.18,-3.419,6.023,14.0
98.97,-3.813,6.189,28.0
99.031,-3.792,5.624,16.0
79.794,-3.039,6.752,23.0
87.978,-3.329,6.935,11.0
88.086,-3.311,6.434,19.0
98.558,-3.682,6.62,17.0
98.807,-3.667,6.066,19.0
99.129,-3.656,5.516,26.0
88.038,-3.23,7.348,9.0
87.92,-3.203,6.828,6.0
87.845,-3.18,6.314,20.0
94.005,-3.381,6.204,18.0
97.585,-3.486,5.877,20.0
123.604,-4.387,6.732,13.0
79.768,-2.815,6.561,31.0
87.965,-3.082,6.725,9.0
87.784,-3.055,6.202,19.0
97.687,-3.376,6.327,19.0
0.0,0.0,0.0,0.0
123.646,-4.218,6.582,7.0
80.166,-2.718,6.495,10.0
88.006,-2.962,6.619,16.0
95.685,-3.198,6.641,17.0
97.672,-3.242,6.203,7.0
99.01,-3.264,5.716,17.0
190.231,-6.228,9.886,20.0
80.698,-2.625,6.433,28.0
87.906,-2.838,6.497,9.0
87.647,-2.81,5.971,21.0
97.795,-3.114,6.086,20.0
99.059,-3.132,5.591,7.0
97.161,-3.05,4.923,7.0
87.844,-2.738,6.887,7.0
87.607,-2.711,6.361,16.0
88.391,-2.715,5.904,13.0
99.14,-3.024,6.038,12.0
97.028,-2.939,5.349,19.0
189.903,-5.71,9.37,18.0
76.444,-2.281,5.89,16.0
88.499,-2.621,6.305,12.0
88.163,-2.592,5.769,25.0
108.354,-3.162,6.452,5.0
99.112,-2.87,5.327,12.0
189.531,-5.45,9.092,20.0
76.476,-2.181,5.786,16.0
88.436,-2.503,6.177,15.0
88.183,-2.477,5.647,18.0
96.992,-2.703,5.638,14.0
99.222,-2.744,5.193,13.0
189.758,-5.207,8.832,20.0
87.09,-2.37,6.463,10.0
97.387,-2.629,6.661,22.0
98.843,-2.648,6.187,5.0
88.476,-2.351,5.015,19.0
171.642,-4.526,8.734,27.0
124.107,-3.247,5.598,12.0
87.234,-2.262,6.347,17.0
96.973,-2.494,6.49,16.0
96.994,-2.475,5.928,8.0
88.282,-2.234,4.874,27.0
96.894,-2.432,4.787,10.0
124.113,-3.091,5.413,36.0
75.743,-1.869,5.397,24.0
96.171,-2.353,6.293,16.0
96.954,-2.353,5.781,20.0
96.762,-2.329,5.198,47.0
96.84,-2.311,4.639,27.0
124.196,-2.94,5.229,19.0
75.826,-1.777,5.288,19.0
76.463,-1.777,4.887,10.0
96.743,-2.23,5.621,35.0
96.776,-2.212,5.05,25.0
96.854,-2.195,4.492,49.0
96.93,-2.177,3.932,13.0
86.467,-1.922,5.895,20.0
96.746,-2.132,6.032,16.0
99.124,-2.165,5.602,9.0
128.436,-2.78,6.498,12.0
96.874,-2.079,4.34,35.0
96.926,-2.061,3.779,48.0
86.693,-1.824,5.771,23.0
98.749,-2.058,5.998,12.0
99.234,-2.05,5.45,11.0
190.261,-3.895,9.322,21.0
96.9,-1.966,4.185,7.0
96.939,-1.949,3.624,42.0
76.058,-1.512,4.94,13.0
98.901,-1.947,5.846,12.0
190.11,-3.709,10.132,19.0
190.155,-3.674,9.007,21.0
194.238,-3.719,8.071,5.0
96.971,-1.839,3.467,34.0
105.783,-1.982,6.695,8.0
98.982,-1.837,5.687,14.0
190.331,-3.498,9.828,15.0
190.542,-3.469,8.71,6.0
171.634,-3.094,6.846,3.0
97.015,-1.731,3.305,21.0
98.841,-1.741,6.088,7.0
99.055,-1.728,5.524,17.0
191.39,-3.304,9.556,20.0
193.472,-3.306,8.512,15.0
0.0,0.0,0.0,0.0
96.919,-1.622,3.136,10.0
98.772,-1.632,5.913,16.0
99.205,-1.621,5.359,5.0
194.054,-3.14,9.354,7.0
193.563,-3.1,8.183,8.0
171.67,-2.72,6.257,7.0
89.8,-1.408,2.751,3.0
98.68,-1.525,5.736,14.0
193.389,-2.957,10.11,21.0
193.181,-2.923,8.975,9.0
171.763,-2.571,6.961,5.0
0.0,0.0,0.0,0.0
86.348,-1.264,2.494,2.0
98.916,-1.427,5.574,20.0
193.567,-2.762,9.779,21.0
193.135,-2.723,8.627,21.0
174.246,-2.43,6.752,13.0
96.507,-1.33,3.176,1.0
0.0,0.0,0.0,0.0
90.597,-1.215,4.941,18.0
90.706,-1.202,4.416,12.0
193.47,-2.535,8.294,9.0
171.225,-2.217,6.323,9.0
90.215,-1.154,2.805,7.0
0.0,0.0,0.0,0.0
90.597,-1.126,4.775,43.0
90.635,-1.113,4.247,37.0
90.661,-1.099,3.718,45.0
90.628,-1.086,3.18,42.0
84.629,-1.001,2.476,1.0
0.0,0.0,0.0,0.0
90.603,-1.039,4.606,44.0
90.614,-1.027,4.078,53.0
90.619,-1.014,3.549,56.0
90.581,-1.001,3.01,31.0
83.809,-0.914,2.296,1.0
0.0,0.0,0.0,0.0
90.624,-0.957,4.438,38.0
90.616,-0.944,3.909,46.0
90.622,-0.932,3.38,54.0
90.32,-0.916,2.831,11.0
0.0,0.0,0.0,0.0
0.0,0.0,0.0,0.0
90.654,-0.878,4.268,23.0
90.638,-0.865,3.739,28.0
90.619,-0.853,3.209,43.0
82.996,-0.77,2.445,3.0
0.0,0.0,0.0,0.0
0.0,0.0,0.0,0.0
193.825,-1.713,8.76,19.0
90.684,-0.789,3.568,5.0
90.59,-0.777,3.034,20.0
82.321,-0.695,2.268,2.0
0.0,0.0,0.0,0.0
0.0,0.0,0.0,0.0
193.956,-1.555,8.39,22.0
0.0,0.0,0.0,0.0
90.452,-0.702,2.853,9.0
0.0,0.0,0.0,0.0
0.0,0.0,0.0,0.0
38.274,-0.283,0.533,0.0
194.628,-1.405,8.035,4.0
0.0,0.0,0.0,0.0
82.622,-0.577,2.446,5.0
0.0,0.0,0.0,0.0
0.0,0.0,0.0,0.0
0.0,0.0,0.0,0.0
0.0,0.0,0.0,0.0
104.603,-0.665,3.501,8.0
80.964,-0.505,2.237,2.0
0.0,0.0,0.0,0.0
0.0,0.0,0.0,0.0
33.262,-0.196,0.332,0.0
176.1,-1.012,6.574,4.0
90.292,-0.509,2.842,4.0
0.0,0.0,0.0,0.0
0.0,0.0,0.0,0.0
0.0,0.0,0.0,0.0
31.876,-0.166,0.255,1.0
108.409,-0.549,3.83,6.0
82.487,-0.409,2.431,1.0
0.0,0.0,0.0,0.0
43.732,-0.207,0.773,0.0
0.0,0.0,0.0,0.0
29.37,-0.133,0.175,1.0
104.558,-0.46,3.48,5.0
79.893,-0.344,2.192,3.0
57.469,-0.241,1.24,0.0
0.0,0.0,0.0,0.0
33.268,-0.133,0.325,1.0
28.799,-0.112,0.113,6.0
83.067,-0.314,2.595,4.0
0.0,0.0,0.0,0.0
0.0,0.0,0.0,0.0
36.963,-0.129,0.502,0.0
31.652,-0.107,0.244,0.0
28.384,-0.094,0.053,1.0
0.0,0.0,0.0,0.0
0.0,0.0,0.0,0.0
43.358,-0.131,0.758,0.0
0.0,0.0,0.0,0.0
28.915,-0.082,0.164,1.0
26.665,-0.073,-0.004,0.0
78.862,-0.208,2.139,2.0
0.0,0.0,0.0,0.0
0.0,0.0,0.0,0.0
33.314,-0.079,0.315,1.0
28.783,-0.066,0.104,6.0
25.579,-0.057,-0.057,0.0
0.0,0.0,0.0,0.0
0.0,0.0,0.0,0.0
0.0,0.0,0.0,0.0
31.488,-0.059,0.232,0.0
27.809,-0.05,0.042,0.0
24.161,-0.042,-0.104,0.0
0.0,0.0,0.0,0.0
42.157,-0.066,0.719,0.0
0.0,0.0,0.0,0.0
29.536,-0.042,0.155,1.0
26.425,-0.036,-0.015,0.0
23.4,-0.03,-0.15,1.0
0.0,0.0,0.0,0.0
0.0,0.0,0.0,0.0
33.181,-0.035,0.303,0.0
28.644,-0.029,0.091,1.0
25.367,-0.024,-0.068,0.0
21.916,-0.019,-0.187,0.0
0.0,0.0,0.0,0.0
36.287,-0.026,0.466,0.0
31.126,-0.021,0.217,0.0
27.31,-0.016,0.028,0.0
23.957,-0.013,-0.115,0.0
20.994,-0.01,-0.223,3.0
0.0,0.0,0.0,0.0
33.39,-0.012,0.358,0.0
28.884,-0.009,0.141,0.0
26.113,-0.007,-0.027,0.0
23.049,-0.004,-0.159,0.0
19.665,-0.003,-0.251,0.0
0.0,0.0,0.0,0.0
32.949,-0.001,0.283,0.0
28.471,0.0,0.079,1.0
25.167,0.001,-0.08,0.0
21.607,0.002,-0.195,1.0
18.677,0.002,-0.277,0.0
0.0,0.0,0.0,0.0
30.4,0.007,0.197,0.0
26.98,0.007,0.017,0.0
23.745,0.007,-0.125,1.0
20.889,0.007,-0.232,1.0
17.9,0.007,-0.304,0.0
33.234,0.014,0.34,0.0
28.771,0.013,0.126,1.0
25.907,0.013,-0.037,0.0
22.566,0.012,-0.167,0.0
19.505,0.011,-0.258,0.0
17.187,0.01,-0.328,0.0
32.098,0.021,0.26,0.0
28.294,0.019,0.064,1.0
24.639,0.018,-0.088,0.0
21.309,0.016,-0.203,4.0
18.44,0.014,-0.284,0.0
16.636,0.013,-0.353,0.0
30.267,0.025,0.18,0.0
26.764,0.023,0.003,0.0
23.586,0.021,-0.135,1.0
20.513,0.019,-0.239,0.0
17.654,0.016,-0.309,0.0
16.158,0.015,-0.378,0.0
28.684,0.028,0.11,1.0
25.604,0.025,-0.051,0.0
22.058,0.022,-0.173,0.0
19.195,0.02,-0.265,0.0
17.015,0.018,-0.334,0.0
15.627,0.017,-0.399,0.0
27.474,0.03,0.046,0.0
24.16,0.026,-0.1,0.0
21.139,0.024,-0.211,3.0
18.247,0.021,-0.291,0.0
16.482,0.019,-0.359,0.0
15.078,0.017,-0.417,0.0
26.421,0.03,-0.011,0.0
23.341,0.027,-0.146,1.0
19.96,0.023,-0.242,0.0
17.405,0.021,-0.315,0.0
16.014,0.019,-0.383,0.0
14.639,0.018,-0.436,0.0
25.216,0.03,-0.064,0.0
21.767,0.026,-0.182,1.0
18.839,0.022,-0.268,0.0
16.83,0.02,-0.34,0.0
15.573,0.019,-0.406,0.0
14.153,0.017,-0.452,0.0
23.91,0.028,-0.111,1.0
20.951,0.025,-0.22,2.0
18.059,0.021,-0.296,0.0
16.369,0.019,-0.365,0.0
14.957,0.018,-0.421,0.0
13.78,0.016,-0.469,0.0
23.046,0.026,-0.157,0.0
19.598,0.022,-0.248,0.0
17.277,0.019,-0.32,0.0
15.828,0.018,-0.387,0.0
14.361,0.016,-0.435,0.0
13.418,0.015,-0.485,0.0
21.479,0.023,-0.192,4.0
18.665,0.019,-0.276,0.0
16.74,0.017,-0.345,0.0
15.328,0.016,-0.407,0.0
14.05,0.014,-0.456,0.0
13.086,0.013,-0.501,0.0
20.776,0.019,-0.229,0.0
17.841,0.016,-0.301,0.0
16.21,0.015,-0.368,0.0
14.8,0.013,-0.424,0.0
13.639,0.012,-0.471,0.0
12.741,0.011,-0.515,0.0
19.373,0.015,-0.254,0.0
17.131,0.013,-0.325,0.0
15.768,0.012,-0.391,0.0
14.325,0.01,-0.441,0.0
13.334,0.009,-0.489,0.0
12.437,0.008,-0.529,0.0
18.384,0.011,-0.28,0.0
16.627,0.009,-0.35,0.0
15.245,0.008,-0.41,0.0
13.952,0.007,-0.459,0.0
13.002,0.006,-0.504,0.0
12.128,0.006,-0.541,0.0
17.597,0.006,-0.305,0.0
16.11,0.005,-0.373,0.0
14.772,0.004,-0.429,0.0
13.636,0.004,-0.477,0.0
12.532,0.003,-0.512,0.0
11.853,0.002,-0.553,0.0
16.979,0.002,-0.329,0.0
15.629,0.001,-0.395,0.0
14.229,0.0,-0.442,0.0
13.163,0.0,-0.488,0.0
12.408,0.0,-0.533,0.0
11.551,0.0,-0.563,0.0
16.508,-0.003,-0.355,0.0
15.08,-0.003,-0.412,0.0
13.805,-0.003,-0.458,0.0
12.871,-0.003,-0.504,0.0
12.04,-0.004,-0.542,0.0
11.32,-0.004,-0.576,0.0
15.987,-0.008,-0.376,0.0
14.545,-0.008,-0.427,0.0
13.484,-0.008,-0.475,0.0
12.561,-0.008,-0.517,0.0
11.829,-0.008,-0.556,0.0
11.047,-0.008,-0.584,0.0
15.509,-0.013,-0.397,0.0
14.212,-0.013,-0.447,0.0
13.226,-0.013,-0.493,0.0
12.332,-0.012,-0.533,0.0
