X,Y,Z,Reflectivity
23.131,2.385,-0.148,0.0
20.64,2.124,-0.249,0.0
17.989,1.849,-0.319,0.0
35.718,3.655,0.351,0.0
29.233,2.986,0.122,0.0
25.891,2.64,-0.038,1.0
22.188,2.258,-0.161,0.0
20.085,2.041,-0.26,0.0
17.742,1.8,-0.33,0.0
34.792,3.513,0.313,0.0
29.175,2.94,0.097,1.0
25.463,2.561,-0.059,1.0
22.026,2.212,-0.178,4.0
19.661,1.971,-0.27,0.0
17.542,1.755,-0.341,0.0
33.994,3.386,0.278,0.0
29.048,2.888,0.073,1.0
24.803,2.461,-0.077,0.0
21.75,2.154,-0.193,4.0
19.26,1.904,-0.28,0.0
17.292,1.706,-0.349,0.0
32.48,3.189,0.24,0.0
28.018,2.746,0.048,0.0
24.364,2.383,-0.095,0.0
21.483,2.097,-0.208,8.0
18.897,1.841,-0.289,0.0
17.131,1.666,-0.359,0.0
32.194,3.115,0.213,0.0
27.462,2.651,0.026,0.0
24.099,2.322,-0.112,0.0
21.34,2.052,-0.222,4.0
18.617,1.786,-0.299,0.0
16.933,1.622,-0.367,0.0
29.362,2.797,0.173,1.0
26.583,2.527,0.006,0.0
23.73,2.251,-0.128,0.0
21.175,2.005,-0.236,1.0
18.378,1.736,-0.308,0.0
16.707,1.575,-0.375,0.0
29.312,2.749,0.152,2.0
26.048,2.437,-0.011,1.0
23.007,2.148,-0.14,0.0
20.593,1.918,-0.243,0.0
18.197,1.691,-0.318,0.0
16.505,1.531,-0.381,0.0
29.253,2.698,0.132,4.0
25.892,2.383,-0.029,2.0
22.775,2.091,-0.154,1.0
19.838,1.817,-0.248,0.0
17.875,1.633,-0.324,0.0
16.306,1.487,-0.388,0.0
29.173,2.645,0.112,2.0
25.716,2.326,-0.045,1.0
22.512,2.031,-0.166,2.0
19.635,1.767,-0.258,0.0
17.673,1.587,-0.331,0.0
16.12,1.444,-0.393,0.0
28.995,2.582,0.093,1.0
25.236,2.242,-0.06,0.0
22.275,1.974,-0.178,2.0
19.684,1.74,-0.27,0.0
17.454,1.539,-0.338,0.0
15.988,1.406,-0.399,0.0
28.673,2.507,0.075,0.0
24.782,2.161,-0.073,0.0
22.045,1.917,-0.189,2.0
19.259,1.67,-0.275,0.0
17.304,1.497,-0.345,0.0
15.912,1.373,-0.406,0.0
27.758,2.381,0.058,0.0
24.48,2.094,-0.086,0.0
21.823,1.861,-0.199,1.0
19.047,1.62,-0.283,0.0
17.138,1.454,-0.351,0.0
15.725,1.33,-0.41,0.0
27.339,2.299,0.042,1.0
24.113,2.022,-0.097,1.0
21.604,1.806,-0.208,0.0
18.785,1.566,-0.288,0.0
16.987,1.412,-0.356,0.0
15.641,1.297,-0.416,0.0
27.072,2.23,0.028,1.0
24.037,1.974,-0.109,1.0
21.337,1.747,-0.216,0.0
18.441,1.505,-0.292,0.0
16.835,1.37,-0.361,0.0
15.504,1.258,-0.419,0.0
26.903,2.17,0.016,1.0
23.957,1.926,-0.119,1.0
21.139,1.694,-0.223,0.0
18.42,1.472,-0.3,0.0
16.778,1.337,-0.367,0.0
15.446,1.227,-0.424,0.0
26.543,2.094,0.004,0.0
23.879,1.878,-0.129,1.0
20.933,1.641,-0.23,0.0
18.275,1.428,-0.305,0.0
16.623,1.295,-0.37,0.0
15.343,1.191,-0.428,0.0
26.326,2.03,-0.005,0.0
23.648,1.817,-0.137,1.0
20.679,1.584,-0.235,0.0
18.156,1.386,-0.31,0.0
16.521,1.257,-0.374,0.0
15.163,1.15,-0.428,0.0
26.154,1.969,-0.014,0.0
23.401,1.756,-0.143,0.0
20.435,1.528,-0.239,0.0
18.069,1.346,-0.314,0.0
16.494,1.225,-0.379,0.0
15.119,1.119,-0.432,0.0
25.892,1.903,-0.022,0.0
23.189,1.698,-0.149,0.0
20.473,1.493,-0.246,0.0
17.928,1.303,-0.317,0.0
16.388,1.187,-0.381,0.0
15.11,1.091,-0.436,0.0
25.817,1.85,-0.03,0.0
23.008,1.642,-0.155,0.0
20.277,1.442,-0.249,0.0
17.78,1.259,-0.319,0.0
16.257,1.147,-0.383,0.0
15.083,1.061,-0.439,0.0
25.649,1.79,-0.036,0.0
22.801,1.585,-0.159,0.0
19.969,1.383,-0.25,0.0
17.69,1.22,-0.322,0.0
16.148,1.11,-0.384,0.0
15.007,1.027,-0.44,0.0
25.569,1.737,-0.041,0.0
22.617,1.53,-0.162,0.0
19.969,1.345,-0.254,0.0
17.606,1.181,-0.324,0.0
16.107,1.076,-0.386,0.0
14.995,0.998,-0.442,0.0
25.485,1.683,-0.046,0.0
22.632,1.488,-0.166,0.0
19.793,1.295,-0.255,0.0
17.562,1.145,-0.326,0.0
16.112,1.046,-0.388,0.0
14.873,0.961,-0.441,0.0
25.367,1.626,-0.049,0.0
22.614,1.443,-0.169,0.0
19.672,1.25,-0.256,0.0
17.513,1.108,-0.327,0.0
16.088,1.013,-0.39,0.0
14.836,0.93,-0.441,0.0
25.414,1.58,-0.052,1.0
22.555,1.396,-0.171,0.0
19.534,1.203,-0.256,0.0
17.48,1.072,-0.328,0.0
16.039,0.979,-0.39,0.0
14.788,0.898,-0.441,0.0
25.42,1.531,-0.054,0.0
22.53,1.351,-0.172,0.0
19.517,1.164,-0.257,0.0
17.437,1.035,-0.328,0.0
15.954,0.942,-0.388,0.0
14.764,0.868,-0.441,0.0
25.325,1.475,-0.054,0.0
22.336,1.295,-0.171,0.0
19.415,1.119,-0.256,0.0
17.422,1.0,-0.328,0.0
16.008,0.914,-0.39,0.0
14.829,0.842,-0.443,0.0
25.319,1.425,-0.054,0.0
22.133,1.239,-0.169,0.0
19.481,1.085,-0.257,0.0
17.398,0.964,-0.327,0.0
15.983,0.88,-0.388,0.0
14.791,0.81,-0.441,0.0
25.397,1.378,-0.053,0.0
22.204,1.199,-0.169,0.0
19.537,1.049,-0.256,0.0
17.438,0.931,-0.326,0.0
16.069,0.853,-0.389,0.0
14.827,0.783,-0.441,0.0
25.61,1.339,-0.051,1.0
22.381,1.164,-0.168,0.0
19.615,1.014,-0.255,0.0
17.535,0.901,-0.326,0.0
16.109,0.823,-0.388,0.0
14.817,0.753,-0.439,0.0
25.596,1.287,-0.048,0.0
22.553,1.127,-0.166,1.0
19.761,0.982,-0.254,0.0
17.533,0.866,-0.324,0.0
16.132,0.792,-0.387,0.0
14.733,0.719,-0.434,0.0
25.688,1.24,-0.044,0.0
22.838,1.096,-0.165,1.0
19.848,0.946,-0.252,0.0
17.651,0.836,-0.323,0.0
16.096,0.757,-0.383,0.0
14.819,0.693,-0.434,0.0
25.889,1.198,-0.039,0.0
22.907,1.053,-0.16,1.0
19.805,0.904,-0.247,0.0
17.676,0.801,-0.319,0.0
16.217,0.73,-0.382,0.0
14.817,0.663,-0.43,0.0
25.916,1.146,-0.033,0.0
23.122,1.016,-0.156,1.0
20.013,0.873,-0.245,0.0
17.794,0.771,-0.317,0.0
16.258,0.699,-0.378,0.0
14.883,0.635,-0.428,0.0
26.04,1.1,-0.026,0.0
23.259,0.975,-0.151,1.0
20.182,0.839,-0.241,0.0
17.82,0.736,-0.312,0.0
16.372,0.671,-0.376,0.0
15.067,0.613,-0.429,0.0
26.211,1.054,-0.018,0.0
23.317,0.93,-0.143,0.0
20.312,0.804,-0.236,0.0
17.953,0.705,-0.308,0.0
16.457,0.641,-0.372,0.0
15.172,0.586,-0.426,0.0
25.886,0.988,-0.009,5.0
23.661,0.896,-0.137,0.0
20.726,0.778,-0.233,0.0
18.08,0.673,-0.304,0.0
16.521,0.61,-0.368,0.0
15.172,0.555,-0.42,0.0
26.617,0.962,0.0,0.0
23.858,0.855,-0.129,0.0
20.999,0.745,-0.228,0.0
18.2,0.64,-0.298,0.0
16.641,0.58,-0.363,0.0
15.268,0.528,-0.416,0.0
26.817,0.915,0.012,0.0
24.19,0.817,-0.12,1.0
21.439,0.717,-0.223,1.0
18.349,0.608,-0.292,0.0
16.706,0.548,-0.357,0.0
15.426,0.502,-0.414,0.0
27.081,0.869,0.025,0.0
24.298,0.772,-0.109,0.0
21.576,0.678,-0.214,0.0
18.54,0.577,-0.286,0.0
16.867,0.519,-0.352,0.0
15.561,0.474,-0.409,0.0
27.497,0.827,0.039,0.0
24.608,0.732,-0.098,0.0
21.75,0.64,-0.204,0.0
18.882,0.549,-0.281,0.0
17.002,0.489,-0.346,0.0
15.709,0.447,-0.405,0.0
27.84,0.78,0.055,0.0
24.984,0.692,-0.085,0.0
22.005,0.603,-0.194,0.0
19.087,0.517,-0.274,0.0
17.12,0.458,-0.338,0.0
15.703,0.415,-0.395,0.0
28.738,0.747,0.073,1.0
25.297,0.649,-0.071,0.0
22.295,0.565,-0.183,0.0
19.476,0.488,-0.268,0.0
17.269,0.427,-0.331,0.0
15.912,0.388,-0.391,0.0
28.786,0.691,0.091,2.0
25.557,0.605,-0.056,0.0
22.584,0.527,-0.171,0.0
19.727,0.454,-0.258,0.0
17.459,0.396,-0.323,0.0
16.13,0.361,-0.385,0.0
28.86,0.635,0.11,3.0
25.952,0.562,-0.04,0.0
23.167,0.494,-0.16,0.0
19.911,0.418,-0.247,0.0
17.766,0.368,-0.316,0.0
16.28,0.331,-0.378,0.0
28.887,0.577,0.131,1.0
26.378,0.519,-0.022,0.0
23.488,0.454,-0.146,0.0
20.3,0.386,-0.237,0.0
18.096,0.338,-0.309,0.0
16.497,0.303,-0.371,0.0
28.913,0.52,0.152,0.0
26.7,0.471,-0.002,0.0
23.876,0.414,-0.13,0.0
20.597,0.35,-0.225,0.0
18.299,0.305,-0.299,0.0
16.612,0.272,-0.36,0.0
28.967,0.463,0.175,0.0
26.963,0.423,0.018,0.0
24.237,0.372,-0.114,0.0
21.434,0.322,-0.218,0.0
18.625,0.274,-0.289,0.0
16.81,0.242,-0.351,0.0
31.384,0.44,0.214,0.0
27.691,0.379,0.041,0.0
24.793,0.332,-0.096,0.0
21.856,0.285,-0.204,1.0
18.884,0.24,-0.277,0.0
17.008,0.211,-0.341,0.0
32.054,0.387,0.246,0.0
28.615,0.336,0.066,2.0
25.247,0.288,-0.076,0.0
22.091,0.245,-0.187,2.0
19.232,0.207,-0.266,0.0
17.244,0.18,-0.331,0.0
32.555,0.329,0.278,0.0
28.793,0.282,0.092,5.0
25.825,0.245,-0.055,0.0
22.455,0.205,-0.17,1.0
19.867,0.175,-0.257,0.0
17.57,0.15,-0.321,0.0
33.601,0.275,0.318,0.0
28.86,0.227,0.119,4.0
26.261,0.198,-0.031,0.0
23.224,0.168,-0.154,0.0
20.533,0.142,-0.246,0.0
17.994,0.118,-0.312,0.0
34.343,0.215,0.358,0.0
28.79,0.171,0.146,0.0
26.742,0.15,-0.006,0.0
23.683,0.125,-0.134,0.0
21.06,0.105,-0.232,2.0
18.288,0.085,-0.299,0.0
35.42,0.153,0.404,0.0
30.343,0.122,0.184,0.0
27.138,0.1,0.02,0.0
24.378,0.083,-0.114,0.0
21.345,0.066,-0.214,4.0
18.732,0.052,-0.287,0.0
36.12,0.088,0.448,0.0
0.0,0.0,0.0,0.0
28.347,0.052,0.049,1.0
25.003,0.038,-0.091,0.0
21.835,0.026,-0.196,1.0
19.154,0.017,-0.274,0.0
0.0,0.0,0.0,0.0
33.073,0.009,0.269,0.0
28.667,0.0,0.08,1.0
25.615,-0.008,-0.066,0.0
22.521,-0.014,-0.178,0.0
19.807,-0.018,-0.262,0.0
39.256,-0.049,0.571,0.0
33.259,-0.052,0.306,0.0
28.803,-0.053,0.112,7.0
26.056,-0.056,-0.039,0.0
23.441,-0.058,-0.159,0.0
20.364,-0.056,-0.246,0.0
40.386,-0.124,0.632,0.0
33.732,-0.114,0.348,0.0
28.858,-0.106,0.145,3.0
26.823,-0.107,-0.01,0.0
23.995,-0.103,-0.136,0.0
21.31,-0.098,-0.234,0.0
0.0,0.0,0.0,0.0
0.0,0.0,0.0,0.0
31.189,-0.171,0.192,1.0
27.34,-0.158,0.021,0.0
24.486,-0.149,-0.11,0.0
21.868,-0.139,-0.214,1.0
0.0,0.0,0.0,0.0
0.0,0.0,0.0,0.0
31.782,-0.231,0.234,2.0
28.524,-0.216,0.056,2.0
25.077,-0.197,-0.083,0.0
22.384,-0.182,-0.192,1.0
0.0,0.0,0.0,0.0
0.0,0.0,0.0,0.0
32.645,-0.295,0.28,1.0
28.704,-0.268,0.091,3.0
0.0,0.0,0.0,0.0
22.942,-0.227,-0.169,0.0
0.0,0.0,0.0,0.0
0.0,0.0,0.0,0.0
33.6,-0.362,0.33,1.0
28.698,-0.318,0.127,0.0
26.445,-0.3,-0.022,0.0
23.4,-0.272,-0.143,0.0
0.0,0.0,0.0,0.0
0.0,0.0,0.0,0.0
0.0,0.0,0.0,0.0
30.882,-0.395,0.176,0.0
27.369,-0.357,0.012,0.0
24.386,-0.325,-0.117,0.0
0.0,0.0,0.0,0.0
43.518,-0.605,0.769,0.0
36.537,-0.518,0.453,0.0
31.896,-0.461,0.224,0.0
28.305,-0.418,0.049,1.0
25.181,-0.379,-0.088,0.0
63.919,-0.978,1.551,1.0
47.56,-0.741,0.904,0.0
38.174,-0.606,0.524,0.0
33.269,-0.537,0.278,1.0
28.608,-0.469,0.088,1.0
0.0,0.0,0.0,0.0
0.0,0.0,0.0,0.0
0.0,0.0,0.0,0.0
0.0,0.0,0.0,0.0
33.68,-0.598,0.327,2.0
28.746,-0.518,0.128,1.0
26.661,-0.488,-0.021,0.0
0.0,0.0,0.0,0.0
0.0,0.0,0.0,0.0
41.862,-0.799,0.688,0.0
34.712,-0.672,0.385,0.0
30.879,-0.606,0.18,0.0
27.612,-0.549,0.016,0.0
0.0,0.0,0.0,0.0
0.0,0.0,0.0,0.0
0.0,0.0,0.0,0.0
0.0,0.0,0.0,0.0
31.806,-0.674,0.23,0.0
28.591,-0.614,0.057,4.0
91.759,-1.993,2.735,1.0
0.0,0.0,0.0,0.0
0.0,0.0,0.0,0.0
0.0,0.0,0.0,0.0
33.252,-0.757,0.289,1.0
28.71,-0.661,0.099,10.0
96.799,-2.251,3.024,3.0
0.0,0.0,0.0,0.0
0.0,0.0,0.0,0.0
0.0,0.0,0.0,0.0
33.389,-0.81,0.339,0.0
28.776,-0.706,0.141,1.0
96.901,-2.399,3.169,5.0
0.0,0.0,0.0,0.0
0.0,0.0,0.0,0.0
0.0,0.0,0.0,0.0
36.151,-0.931,0.421,0.0
31.0,-0.806,0.199,0.0
92.421,-2.425,3.161,172.0
0.0,0.0,0.0,0.0
0.0,0.0,0.0,0.0
0.0,0.0,0.0,0.0
37.984,-1.033,0.499,0.0
32.142,-0.882,0.254,0.0
92.331,-2.555,3.297,190.0
93.157,-2.599,2.838,2.0
0.0,0.0,0.0,0.0
0.0,0.0,0.0,0.0
0.0,0.0,0.0,0.0
33.085,-0.954,0.312,0.0
92.295,-2.684,3.437,37.0
92.512,-2.71,2.96,5.0
0.0,0.0,0.0,0.0
0.0,0.0,0.0,0.0
0.0,0.0,0.0,0.0
34.614,-1.046,0.38,0.0
92.26,-2.808,3.577,30.0
92.212,-2.827,3.093,20.0
0.0,0.0,0.0,0.0
0.0,0.0,0.0,0.0
0.0,0.0,0.0,0.0
0.0,0.0,0.0,0.0
92.25,-2.933,3.723,26.0
92.21,-2.952,3.238,73.0
0.0,0.0,0.0,0.0
0.0,0.0,0.0,0.0
0.0,0.0,0.0,0.0
39.308,-1.292,0.555,0.0
92.224,-3.052,3.867,1.0
92.245,-3.072,3.385,165.0
92.855,-3.112,2.923,4.0
0.0,0.0,0.0,0.0
0.0,0.0,0.0,0.0
0.0,0.0,0.0,0.0
0.0,0.0,0.0,0.0
92.235,-3.19,3.534,167.0
92.202,-3.208,3.052,13.0
0.0,0.0,0.0,0.0
0.0,0.0,0.0,0.0
0.0,0.0,0.0,0.0
113.541,-4.044,5.129,2.0
92.192,-3.302,3.683,45.0
92.126,-3.319,3.2,56.0
0.0,0.0,0.0,0.0
0.0,0.0,0.0,0.0
0.0,0.0,0.0,0.0
113.427,-4.176,5.309,33.0
92.244,-3.415,3.837,7.0
92.146,-3.429,3.351,63.0
93.155,-3.484,2.892,1.0
0.0,0.0,0.0,0.0
0.0,0.0,0.0,0.0
113.444,-4.308,5.495,14.0
0.0,0.0,0.0,0.0
92.168,-3.536,3.504,60.0
92.248,-3.555,3.017,8.0
0.0,0.0,0.0,0.0
0.0,0.0,0.0,0.0
113.565,-4.444,5.693,7.0
0.0,0.0,0.0,0.0
92.242,-3.641,3.66,16.0
92.169,-3.654,3.167,150.0
92.989,-3.704,2.712,1.0
0.0,0.0,0.0,0.0
113.551,-4.567,5.883,7.0
194.92,-7.872,9.08,6.0
92.28,-3.743,3.818,4.0
92.16,-3.754,3.323,159.0
0.0,0.0,0.0,0.0
0.0,0.0,0.0,0.0
113.623,-4.69,6.078,9.0
120.238,-4.984,5.805,12.0
92.979,-3.868,4.005,7.0
92.223,-3.852,3.482,23.0
92.316,-3.872,3.005,2.0
0.0,0.0,0.0,0.0
97.862,-4.139,5.4,16.0
120.216,-5.102,6.006,20.0
120.236,-5.122,5.381,17.0
92.526,-3.957,3.65,1.0
92.247,-3.96,3.159,150.0
0.0,0.0,0.0,0.0
98.818,-4.278,5.624,16.0
111.771,-4.854,5.777,14.0
194.565,-8.48,9.044,15.0
0.0,0.0,0.0,0.0
92.318,-4.051,3.321,12.0
0.0,0.0,0.0,0.0
91.165,-4.032,5.345,15.0
111.971,-4.969,5.982,11.0
194.441,-8.655,9.374,12.0
0.0,0.0,0.0,0.0
93.007,-4.167,3.505,4.0
0.0,0.0,0.0,0.0
94.707,-4.275,5.718,7.0
112.242,-5.082,6.192,17.0
164.301,-7.461,8.207,22.0
0.0,0.0,0.0,0.0
94.043,-4.295,3.708,3.0
93.946,-4.304,3.216,3.0
94.612,-4.352,5.875,8.0
91.163,-4.205,5.187,12.0
112.241,-5.192,5.8,11.0
164.323,-7.622,7.619,20.0
0.0,0.0,0.0,0.0
94.614,-4.412,3.402,2.0
91.626,-4.29,5.849,24.0
98.15,-4.607,5.752,15.0
113.078,-5.321,6.037,8.0
194.514,-9.176,9.353,8.0
0.0,0.0,0.0,0.0
0.0,0.0,0.0,0.0
91.522,-4.357,6.001,17.0
91.749,-4.378,5.537,13.0
122.904,-5.878,6.777,10.0
189.637,-9.089,9.448,20.0
0.0,0.0,0.0,0.0
0.0,0.0,0.0,0.0
88.186,-4.264,5.937,13.0
91.713,-4.443,5.695,6.0
98.12,-4.764,5.582,16.0
164.39,-7.999,8.48,9.0
194.448,-9.483,9.017,5.0
0.0,0.0,0.0,0.0
88.245,-4.329,6.096,15.0
108.819,-5.349,6.948,8.0
112.187,-5.524,6.578,15.0
112.591,-5.555,6.002,16.0
119.311,-5.897,5.738,4.0
0.0,0.0,0.0,0.0
88.428,-4.397,6.263,18.0
88.103,-4.388,5.78,19.0
111.808,-5.579,6.752,18.0
118.986,-5.946,6.552,11.0
189.339,-9.479,9.439,15.0
0.0,0.0,0.0,0.0
88.496,-4.455,6.423,12.0
88.189,-4.446,5.939,33.0
111.995,-5.656,6.958,9.0
119.265,-6.031,6.775,10.0
189.473,-9.597,9.774,13.0
189.46,-9.611,8.789,4.0
88.46,-4.505,6.574,22.0
88.204,-4.498,6.094,30.0
89.774,-4.584,5.733,15.0
112.464,-5.749,6.584,12.0
119.528,-6.119,6.373,11.0
195.129,-10.004,9.39,8.0
88.673,-4.564,6.745,16.0
88.234,-4.546,6.249,27.0
89.572,-4.62,5.876,11.0
112.289,-5.799,6.768,14.0
119.246,-6.166,6.566,9.0
189.108,-9.789,9.429,18.0
89.272,-4.639,6.946,19.0
88.453,-4.601,6.42,13.0
88.097,-4.586,5.932,14.0
112.101,-5.842,6.952,8.0
119.39,-6.229,6.782,12.0
119.563,-6.243,6.167,7.0
89.007,-4.666,7.08,18.0
88.185,-4.627,6.552,18.0
88.165,-4.628,6.089,18.0
89.643,-4.71,5.714,14.0
92.195,-4.849,5.395,8.0
119.548,-6.292,6.371,10.0
88.285,-4.664,7.175,22.0
89.376,-4.725,6.796,10.0
88.253,-4.669,6.247,7.0
89.636,-4.745,5.868,11.0
92.282,-4.888,5.559,17.0
119.408,-6.33,6.571,18.0
88.427,-4.706,7.34,27.0
89.106,-4.744,6.93,25.0
98.295,-5.235,7.128,7.0
87.983,-4.688,5.911,25.0
92.357,-4.924,5.722,24.0
119.557,-6.377,6.783,8.0
88.559,-4.742,7.504,22.0
89.239,-4.78,7.094,18.0
88.045,-4.718,6.537,12.0
88.036,-4.718,6.066,17.0
91.884,-4.926,5.85,14.0
92.272,-4.949,5.392,8.0
88.757,-4.778,7.673,18.0
88.503,-4.765,7.186,12.0
89.005,-4.793,6.759,15.0
98.283,-5.294,6.939,5.0
87.954,-4.738,5.75,12.0
92.289,-4.973,5.55,14.0
92.696,-5.014,8.173,18.0
88.28,-4.775,7.318,22.0
89.022,-4.815,6.912,23.0
98.357,-5.32,7.11,11.0
87.977,-4.758,5.898,20.0
92.326,-4.994,5.706,6.0
92.824,-5.04,8.339,18.0
88.441,-4.802,7.48,19.0
89.474,-4.856,7.097,20.0
92.416,-5.015,6.836,4.0
88.157,-4.784,6.058,13.0
89.532,-4.858,5.684,16.0
88.888,-4.841,8.136,13.0
88.661,-4.827,7.648,14.0
0.0,0.0,0.0,0.0
88.872,-4.837,6.721,9.0
88.217,-4.799,6.208,10.0
87.914,-4.782,5.726,11.0
88.254,-4.818,8.225,18.0
92.66,-5.056,8.146,16.0
88.184,-4.81,7.288,24.0
88.941,-4.849,6.874,21.0
98.348,-5.36,7.084,5.0
87.94,-4.79,5.872,15.0
87.962,-4.81,8.343,17.0
92.802,-5.072,8.312,16.0
88.31,-4.822,7.444,16.0
89.441,-4.882,7.058,16.0
92.441,-5.043,6.808,11.0
88.227,-4.81,6.034,12.0
87.684,-4.798,8.461,21.0
88.859,-4.859,8.104,13.0
88.657,-4.844,7.617,13.0
89.862,-4.906,7.236,15.0
88.83,-4.847,6.685,6.0
88.23,-4.81,6.176,13.0
87.813,-4.806,8.615,21.0
88.38,-4.833,8.202,17.0
92.632,-5.061,8.107,14.0
88.161,-4.812,7.24,18.0
88.902,-4.849,6.831,21.0
98.315,-5.357,7.036,7.0
87.755,-4.8,8.749,14.0
88.076,-4.812,8.314,16.0
92.783,-5.065,8.266,20.0
88.248,-4.811,7.386,26.0
89.224,-4.86,6.996,16.0
92.455,-5.031,6.762,4.0
87.314,-4.769,8.843,22.0
87.74,-4.787,8.42,17.0
92.811,-5.058,8.414,6.0
88.609,-4.823,7.554,17.0
89.701,-4.877,7.173,21.0
88.125,-4.786,6.581,5.0
87.341,-4.76,8.982,23.0
87.714,-4.775,8.553,22.0
88.646,-4.819,8.173,16.0
88.643,-4.813,7.694,11.0
88.293,-4.787,7.196,11.0
88.93,-4.816,6.778,16.0
87.508,-4.757,9.134,27.0
87.798,-4.765,8.697,12.0
88.393,-4.79,8.286,24.0
92.721,-5.018,8.19,21.0
88.379,-4.777,7.338,25.0
89.065,-4.806,6.923,24.0
87.533,-4.741,9.271,14.0
87.411,-4.727,8.791,8.0
88.342,-4.769,8.414,15.0
92.921,-5.009,8.347,16.0
88.551,-4.766,7.484,22.0
89.298,-4.798,7.074,18.0
82.206,-4.434,8.829,19.0
87.201,-4.695,8.899,21.0
87.488,-4.702,8.461,17.0
89.067,-4.779,8.13,11.0
88.733,-4.753,7.627,16.0
88.259,-4.719,7.12,20.0
82.237,-4.414,8.953,13.0
87.231,-4.672,9.029,20.0
84.811,-4.535,8.325,11.0
88.583,-4.728,8.214,16.0
88.894,-4.736,7.77,11.0
88.377,-4.699,7.256,28.0
93.014,-4.963,10.261,14.0
87.515,-4.661,9.185,9.0
84.79,-4.507,8.446,16.0
86.703,-4.598,8.165,14.0
93.027,-4.925,8.264,12.0
88.602,-4.682,7.4,24.0
81.485,-4.321,9.106,10.0
93.07,-4.924,9.902,6.0
87.042,-4.595,8.794,14.0
85.552,-4.507,8.177,14.0
93.307,-4.905,8.419,16.0
88.788,-4.659,7.538,22.0
81.506,-4.291,9.222,26.0
82.315,-4.324,8.87,25.0
87.034,-4.561,8.912,15.0
87.533,-4.577,8.485,16.0
87.404,-4.56,8.006,5.0
88.78,-4.622,7.657,20.0
81.555,-4.26,9.338,17.0
82.398,-4.294,8.991,22.0
83.873,-4.36,8.702,12.0
85.099,-4.413,8.364,12.0
87.254,-4.514,8.109,16.0
86.896,-4.485,7.611,13.0
90.859,-4.705,10.527,16.0
82.224,-4.247,9.083,13.0
83.933,-4.324,8.82,12.0
84.92,-4.364,8.459,21.0
85.381,-4.377,8.046,10.0
89.1,-4.556,7.919,16.0
87.411,-4.486,10.241,9.0
81.757,-4.183,9.137,17.0
90.071,-4.596,9.581,8.0
83.477,-4.249,8.421,21.0
85.455,-4.338,8.161,11.0
89.144,-4.513,8.036,18.0
87.289,-4.434,10.339,17.0
81.773,-4.141,9.243,26.0
90.604,-4.576,9.751,12.0
83.65,-4.213,8.544,19.0
85.389,-4.289,8.262,16.0
89.177,-4.466,8.15,7.0
85.67,-4.305,10.254,11.0
81.936,-4.105,9.363,13.0
82.454,-4.118,8.976,16.0
83.92,-4.179,8.674,20.0
85.314,-4.237,8.358,15.0
87.415,-4.327,8.094,16.0
0.0,0.0,0.0,0.0
87.281,-4.321,10.079,13.0
82.411,-4.067,9.071,27.0
81.716,-4.02,8.545,7.0
85.4,-4.189,8.468,18.0
87.398,-4.274,8.196,18.0
87.122,-4.273,10.638,13.0
85.867,-4.197,10.019,13.0
82.201,-4.005,9.145,24.0
81.768,-3.97,8.646,16.0
85.257,-4.127,8.554,10.0
87.345,-4.215,8.292,13.0
86.196,-4.172,10.626,18.0
85.829,-4.14,10.112,14.0
82.201,-3.951,9.238,25.0
81.868,-3.921,8.749,25.0
83.556,-3.989,8.477,8.0
85.502,-4.069,8.212,9.0
86.049,-4.106,10.704,15.0
86.833,-4.129,10.328,22.0
82.004,-3.886,9.307,22.0
81.988,-3.87,8.851,21.0
82.137,-3.865,8.421,5.0
85.373,-4.004,8.291,15.0
87.68,-4.122,11.002,19.0
87.165,-4.083,10.46,20.0
81.563,-3.807,9.343,25.0
82.065,-3.816,8.946,27.0
82.13,-3.805,8.507,15.0
85.191,-3.932,8.362,17.0
80.581,-2.523,11.112,25.0
79.313,-2.466,10.491,8.0
77.553,-2.394,9.823,23.0
77.023,-2.361,9.316,29.0
65.2,-1.985,7.522,16.0
64.822,-1.96,7.117,30.0
80.915,-2.444,11.186,15.0
79.464,-2.383,10.538,17.0
77.491,-2.307,9.84,9.0
77.189,-2.282,9.361,13.0
65.193,-1.914,7.541,21.0
64.77,-1.888,7.131,29.0
76.587,-2.229,10.611,23.0
79.719,-2.303,10.595,30.0
74.029,-2.122,9.422,19.0
76.114,-2.166,9.252,18.0
77.673,-2.195,9.006,11.0
64.841,-1.818,7.155,25.0
75.858,-2.122,10.529,23.0
79.903,-2.218,10.639,14.0
74.135,-2.042,9.453,21.0
76.172,-2.082,9.276,10.0
75.366,-2.044,8.755,23.0
64.876,-1.747,7.173,29.0
75.729,-2.034,10.527,18.0
75.82,-2.02,10.11,4.0
74.338,-1.964,9.493,22.0
74.032,-1.941,9.029,25.0
75.119,-1.953,8.739,22.0
64.901,-1.675,7.186,26.0
75.951,-1.954,10.57,27.0
64.143,-1.635,8.563,14.0
64.179,-1.622,8.205,21.0
74.089,-1.857,9.046,27.0
75.126,-1.868,8.75,33.0
65.255,-1.609,7.233,29.0
76.673,-1.883,10.679,24.0
64.247,-1.565,8.583,27.0
64.131,-1.548,8.205,18.0
74.217,-1.776,9.068,13.0
74.926,-1.777,8.732,28.0
65.372,-1.538,7.251,24.0
76.29,-1.787,10.631,13.0
64.248,-1.49,8.587,28.0
64.202,-1.476,8.217,19.0
74.338,-1.695,9.086,36.0
74.227,-1.677,8.653,9.0
65.38,-1.464,7.254,24.0
65.456,-1.458,9.122,11.0
64.375,-1.419,8.605,33.0
64.242,-1.404,8.222,22.0
74.41,-1.611,9.095,25.0
65.164,-1.397,7.596,21.0
65.29,-1.386,7.243,23.0
57.838,-1.22,8.059,14.0
64.64,-1.351,8.638,37.0
64.444,-1.334,8.246,19.0
74.397,-1.525,9.089,31.0
65.148,-1.322,7.59,16.0
65.111,-1.308,7.218,28.0
57.949,-1.156,8.07,25.0
64.302,-1.269,8.588,29.0
74.22,-1.449,9.49,23.0
74.926,-1.448,9.146,15.0
74.128,-1.417,8.629,25.0
65.042,-1.23,7.203,27.0
57.968,-1.088,8.066,29.0
64.295,-1.194,8.578,23.0
74.467,-1.367,9.511,12.0
58.878,-1.069,7.179,7.0
74.14,-1.33,8.619,20.0
64.987,-1.154,7.187,29.0
58.033,-1.022,8.065,23.0
58.145,-1.012,7.748,20.0
64.533,-1.11,8.23,33.0
59.687,-1.014,7.266,34.0
68.314,-1.147,7.928,10.0
65.062,-1.08,7.182,25.0
58.038,-0.953,8.053,23.0
62.4,-1.013,8.301,7.0
58.889,-0.944,7.497,21.0
59.379,-0.94,7.215,34.0
63.169,-0.989,7.315,11.0
57.267,-0.885,6.307,20.0
58.0,-0.886,8.033,25.0
58.245,-0.879,7.732,25.0
58.636,-0.872,7.449,30.0
0.0,0.0,0.0,0.0
63.25,-0.916,7.307,29.0
57.324,-0.82,6.296,21.0
58.102,-0.82,8.029,20.0
58.231,-0.811,7.712,32.0
58.571,-0.804,7.421,32.0
0.0,0.0,0.0,0.0
63.35,-0.845,7.297,29.0
57.32,-0.753,6.276,17.0
58.307,-0.755,8.036,24.0
58.17,-0.741,7.683,32.0
58.174,-0.73,7.349,32.0
0.0,0.0,0.0,0.0
63.696,-0.776,7.312,37.0
57.303,-0.687,6.252,28.0
58.159,-0.686,7.992,20.0
58.088,-0.674,7.648,32.0
57.278,-0.653,7.213,28.0
60.026,-0.674,7.208,30.0
63.851,-0.705,7.303,38.0
57.288,-0.622,6.225,31.0
58.197,-0.619,7.972,27.0
57.985,-0.606,7.608,32.0
57.453,-0.591,7.208,31.0
59.981,-0.605,7.175,33.0
59.965,-0.594,6.83,22.0
57.349,-0.557,6.204,29.0
58.234,-0.553,7.948,24.0
57.803,-0.538,7.555,30.0
57.333,-0.524,7.164,25.0
59.758,-0.535,7.117,34.0
59.956,-0.526,6.798,23.0
57.365,-0.493,6.176,29.0
58.282,-0.487,7.923,22.0
58.357,-0.477,7.596,32.0
57.499,-0.46,7.152,21.0
58.717,-0.459,6.96,6.0
59.942,-0.457,6.762,24.0
57.358,-0.428,6.142,40.0
51.785,-0.374,7.009,28.0
58.281,-0.41,7.551,32.0
57.177,-0.393,7.078,27.0
63.597,-0.426,7.5,10.0
57.397,-0.375,6.439,25.0
57.344,-0.364,6.105,35.0
51.799,-0.316,6.978,19.0
57.821,-0.342,7.454,33.0
57.281,-0.33,7.054,30.0
59.931,-0.335,7.029,29.0
57.441,-0.311,6.407,16.0
57.396,-0.302,6.073,31.0
51.858,-0.259,6.951,17.0
58.294,-0.281,7.476,32.0
57.412,-0.267,7.03,28.0
59.674,-0.267,6.957,30.0
57.487,-0.248,6.371,20.0
57.133,-0.237,6.004,31.0
58.926,-0.23,7.855,28.0
58.347,-0.218,7.44,27.0
57.319,-0.205,6.977,31.0
59.662,-0.203,6.912,17.0
57.485,-0.187,6.329,21.0
56.869,-0.176,5.934,30.0
58.714,-0.166,7.782,26.0
58.027,-0.154,7.355,32.0
57.407,-0.144,6.943,28.0
59.91,-0.141,6.895,8.0
57.555,-0.126,6.292,26.0
56.806,-0.115,5.883,28.0
58.672,-0.103,7.729,22.0
57.722,-0.092,7.269,32.0
57.385,-0.083,6.894,27.0
59.942,-0.078,6.849,9.0
57.534,-0.065,6.242,28.0
56.645,-0.056,5.819,27.0
62.788,-0.045,8.218,8.0
0.0,0.0,0.0,0.0
57.451,-0.023,6.852,30.0
56.532,-0.014,6.41,21.0
57.492,-0.005,6.186,24.0
56.781,0.002,5.783,22.0
61.179,0.019,7.953,6.0
58.565,0.027,7.272,33.0
57.431,0.035,6.798,23.0
56.496,0.043,6.354,26.0
57.255,0.052,6.109,30.0
56.867,0.06,5.74,23.0
51.5,0.069,6.646,6.0
57.66,0.085,7.105,32.0
57.449,0.093,6.746,20.0
56.5,0.1,6.301,26.0
57.26,0.11,6.055,30.0
56.842,0.116,5.683,27.0
48.85,0.114,6.256,13.0
57.667,0.143,7.05,31.0
57.204,0.15,6.66,31.0
56.568,0.156,6.253,30.0
57.185,0.165,5.99,25.0
56.896,0.172,5.631,29.0
48.948,0.163,6.218,16.0
0.0,0.0,0.0,0.0
56.863,0.204,6.562,26.0
56.739,0.212,6.213,31.0
57.145,0.22,5.926,30.0
56.511,0.226,5.534,24.0
48.945,0.21,6.166,11.0
60.103,0.266,7.222,7.0
52.639,0.239,6.019,20.0
57.179,0.267,6.2,31.0
57.255,0.275,5.876,30.0
56.965,0.281,5.518,31.0
58.506,0.306,7.306,26.0
57.62,0.308,6.86,13.0
52.645,0.288,5.961,20.0
57.305,0.322,6.15,31.0
59.135,0.339,6.003,7.0
56.887,0.333,5.446,30.0
58.761,0.362,7.271,22.0
57.726,0.362,6.806,13.0
56.764,0.363,6.362,29.0
57.414,0.374,6.095,31.0
0.0,0.0,0.0,0.0
56.912,0.384,5.382,28.0
59.107,0.417,7.244,34.0
52.686,0.378,6.15,16.0
56.803,0.414,6.299,30.0
57.363,0.425,6.022,30.0
56.636,0.426,5.617,12.0
57.505,0.439,5.369,32.0
53.138,0.422,6.448,5.0
52.709,0.424,6.087,17.0
57.001,0.465,6.251,31.0
57.354,0.474,5.95,30.0
57.028,0.477,5.585,30.0
57.854,0.491,5.331,26.0
52.963,0.466,6.36,16.0
57.467,0.511,6.565,22.0
57.61,0.519,6.244,25.0
57.894,0.527,5.933,32.0
56.595,0.522,5.471,29.0
57.397,0.535,5.215,30.0
52.81,0.508,6.273,27.0
56.814,0.553,6.416,16.0
57.508,0.565,6.159,18.0
57.912,0.575,5.859,26.0
56.596,0.567,5.397,26.0
57.521,0.582,5.152,31.0
52.684,0.55,6.188,13.0
53.138,0.559,5.93,13.0
50.256,0.534,5.315,24.0
57.827,0.619,5.773,26.0
56.651,0.612,5.327,29.0
57.212,0.624,5.047,18.0
48.767,0.546,5.661,5.0
57.37,0.648,6.325,21.0
49.931,0.568,5.213,21.0
57.723,0.662,5.684,26.0
57.358,0.663,5.314,30.0
62.824,0.732,5.456,15.0
53.009,0.634,6.08,13.0
57.376,0.691,6.245,31.0
49.998,0.606,5.15,17.0
56.699,0.692,5.503,30.0
57.356,0.705,5.233,30.0
62.748,0.777,5.361,9.0
49.833,0.632,5.644,19.0
57.415,0.732,6.166,17.0
63.066,0.81,6.404,12.0
56.626,0.731,5.415,30.0
62.995,0.819,5.657,5.0
59.043,0.772,4.959,26.0
56.775,0.76,6.347,14.0
50.108,0.674,5.308,23.0
63.14,0.854,6.319,14.0
56.667,0.771,5.334,30.0
59.064,0.808,5.216,16.0
59.027,0.812,4.87,23.0
50.107,0.704,5.525,13.0
50.106,0.707,5.232,19.0
57.27,0.812,5.645,6.0
57.388,0.818,5.316,32.0
59.014,0.845,5.123,22.0
58.976,0.849,4.777,22.0
50.209,0.737,5.46,24.0
55.055,0.812,5.664,11.0
57.121,0.846,5.543,26.0
58.102,0.864,5.293,32.0
59.048,0.882,5.035,27.0
58.968,0.884,4.685,17.0
50.267,0.768,5.388,27.0
55.12,0.846,5.585,20.0
56.768,0.874,5.42,30.0
58.352,0.902,5.224,14.0
62.593,0.971,5.239,8.0
76.218,1.187,5.936,5.0
50.206,0.796,5.301,20.0
57.067,0.908,5.692,5.0
57.059,0.911,5.357,30.0
58.922,0.944,5.181,27.0
59.086,0.95,4.852,12.0
83.491,1.346,6.37,7.0
55.065,0.903,5.726,11.0
57.073,0.939,5.6,13.0
57.241,0.944,5.282,22.0
59.044,0.976,5.097,25.0
63.192,1.048,5.087,14.0
83.406,1.387,6.229,26.0
55.053,0.931,5.634,15.0
57.246,0.97,5.522,20.0
57.249,0.973,5.188,10.0
62.596,1.066,5.301,21.0
63.114,1.078,4.976,24.0
88.461,1.515,6.46,11.0
55.194,0.96,5.556,8.0
57.416,1.0,5.443,30.0
0.0,0.0,0.0,0.0
73.268,1.282,6.081,17.0
76.988,1.349,5.941,9.0
76.714,1.348,5.474,11.0
49.386,0.88,4.888,11.0
57.3,1.023,5.335,26.0
58.987,1.055,5.147,31.0
63.071,1.13,5.128,25.0
83.839,1.505,6.328,13.0
76.71,1.379,5.344,20.0
59.278,1.081,5.765,5.0
57.257,1.045,5.233,18.0
62.619,1.145,5.356,21.0
62.854,1.151,5.003,24.0
76.796,1.408,5.665,6.0
82.747,1.519,5.621,17.0
57.709,1.074,5.512,18.0
59.01,1.099,5.29,16.0
63.534,1.184,5.324,9.0
76.97,1.437,5.992,10.0
76.738,1.434,5.526,25.0
89.265,1.67,5.908,4.0
57.468,1.088,5.388,28.0
62.069,1.176,5.455,20.0
63.022,1.195,5.17,13.0
76.84,1.459,5.846,29.0
76.741,1.458,5.391,11.0
83.773,1.593,5.396,23.0
57.18,1.1,5.258,24.0
62.75,1.208,5.403,36.0
62.838,1.21,5.042,21.0
76.818,1.48,5.707,38.0
82.699,1.595,5.662,23.0
84.012,1.621,5.261,18.0
59.043,1.152,5.322,6.0
63.539,1.24,5.354,38.0
76.9,1.501,6.029,18.0
76.81,1.5,5.565,9.0
82.708,1.615,5.51,9.0
83.858,1.638,5.099,23.0
62.171,1.228,5.489,15.0
63.108,1.246,5.202,19.0
76.849,1.517,5.884,17.0
82.783,1.634,5.846,23.0
83.834,1.655,5.431,20.0
84.057,1.659,4.956,26.0
62.452,1.245,5.398,10.0
62.929,1.254,5.071,23.0
83.554,1.665,6.243,24.0
82.635,1.646,5.683,27.0
83.393,1.661,5.247,17.0
84.329,1.679,4.814,20.0
63.437,1.275,5.363,39.0
76.912,1.545,6.052,21.0
83.449,1.675,6.078,28.0
82.603,1.657,5.525,15.0
83.81,1.681,5.116,28.0
84.321,1.69,4.655,14.0
63.109,1.276,5.216,22.0
83.664,1.69,6.426,13.0
82.78,1.671,5.874,16.0
83.707,1.688,5.441,23.0
84.007,1.693,4.97,26.0
0.0,0.0,0.0,0.0
63.014,1.279,5.089,17.0
83.541,1.694,6.258,33.0
82.555,1.672,5.7,25.0
83.014,1.679,5.239,20.0
84.301,1.703,4.827,19.0
85.522,1.727,4.399,7.0
76.92,1.565,6.065,22.0
83.461,1.696,6.092,29.0
82.537,1.675,5.542,25.0
83.782,1.697,5.127,32.0
84.311,1.706,4.667,14.0
90.922,1.837,4.504,16.0
83.683,1.703,6.438,15.0
82.797,1.682,5.884,14.0
83.704,1.698,5.459,21.0
83.981,1.701,4.978,29.0
84.733,1.713,4.528,12.0
90.365,1.824,4.302,14.0
83.519,1.697,6.263,32.0
82.553,1.674,5.707,24.0
83.065,1.681,5.255,20.0
84.281,1.703,4.832,21.0
85.462,1.723,4.401,7.0
90.35,1.819,4.128,3.0
83.45,1.69,6.096,28.0
82.57,1.668,5.548,22.0
83.792,1.689,5.139,26.0
84.412,1.698,4.676,14.0
90.962,1.826,4.509,16.0
56.08,1.123,2.452,0.0
82.774,1.667,5.885,17.0
83.74,1.682,5.462,24.0
84.054,1.684,4.991,25.0
85.129,1.701,4.548,13.0
90.333,1.801,4.3,15.0
55.824,1.11,2.331,0.0
82.656,1.652,5.711,27.0
83.271,1.66,5.266,16.0
84.299,1.676,4.838,18.0
85.419,1.693,4.395,14.0
90.341,1.786,4.12,4.0
55.551,1.095,2.21,0.0
82.661,1.637,5.548,13.0
83.845,1.655,5.137,21.0
84.961,1.673,4.709,13.0
90.973,1.785,4.501,18.0
0.0,0.0,0.0,0.0
0.0,0.0,0.0,0.0
83.894,1.643,5.464,21.0
84.042,1.64,4.981,20.0
85.406,1.661,4.563,11.0
90.308,1.751,4.289,13.0
0.0,0.0,0.0,0.0
0.0,0.0,0.0,0.0
83.956,1.622,5.301,18.0
84.301,1.622,4.829,18.0
85.448,1.638,4.395,11.0
90.43,1.727,4.114,1.0
0.0,0.0,0.0,0.0
0.0,0.0,0.0,0.0
83.96,1.597,5.134,24.0
85.488,1.619,4.727,14.0
91.092,1.718,4.504,16.0
0.0,0.0,0.0,0.0
0.0,0.0,0.0,0.0
0.0,0.0,0.0,0.0
84.11,1.57,4.974,22.0
85.449,1.588,4.552,10.0
90.928,1.683,4.313,10.0
0.0,0.0,0.0,0.0
0.0,0.0,0.0,0.0
0.0,0.0,0.0,0.0
84.719,1.549,4.839,17.0
91.171,1.659,4.674,13.0
0.0,0.0,0.0,0.0
0.0,0.0,0.0,0.0
0.0,0.0,0.0,0.0
54.73,0.977,1.522,0.0
85.142,1.521,4.691,11.0
91.046,1.618,4.485,15.0
0.0,0.0,0.0,0.0
0.0,0.0,0.0,0.0
55.092,0.964,1.744,0.0
54.885,0.955,1.418,2.0
89.094,1.551,4.731,7.0
76.61,1.326,3.62,8.0
0.0,0.0,0.0,0.0
0.0,0.0,0.0,0.0
54.968,0.935,1.63,1.0
54.888,0.929,1.308,4.0
76.589,1.295,3.913,16.0
76.62,1.287,3.466,6.0
55.726,0.93,2.196,0.0
55.085,0.914,1.845,0.0
55.092,0.909,1.523,1.0
0.0,0.0,0.0,0.0
76.545,1.253,3.757,31.0
0.0,0.0,0.0,0.0
55.563,0.897,2.079,0.0
55.165,0.885,1.737,0.0
55.293,0.881,1.419,0.0
0.0,0.0,0.0,0.0
76.55,1.21,3.605,37.0
0.0,0.0,0.0,0.0
0.0,0.0,0.0,0.0
55.584,0.859,1.638,0.0
0.0,0.0,0.0,0.0
44.137,0.672,0.787,0.0
76.545,1.162,3.45,31.0
55.834,0.841,2.19,0.0
0.0,0.0,0.0,0.0
55.66,0.825,1.53,0.0
0.0,0.0,0.0,0.0
40.579,0.592,0.642,1.0
76.546,1.112,3.297,8.0
0.0,0.0,0.0,0.0
55.824,0.797,1.753,0.0
56.264,0.797,1.434,0.0
0.0,0.0,0.0,0.0
37.791,0.525,0.522,0.0
57.735,0.799,2.371,0.0
0.0,0.0,0.0,0.0
0.0,0.0,0.0,0.0
57.495,0.773,1.35,1.0
0.0,0.0,0.0,0.0
0.0,0.0,0.0,0.0
0.0,0.0,0.0,0.0
56.336,0.731,1.873,0.0
56.387,0.724,1.546,1.0
0.0,0.0,0.0,0.0
0.0,0.0,0.0,0.0
33.758,0.419,0.333,0.0
0.0,0.0,0.0,0.0
56.554,0.69,1.769,1.0
57.359,0.692,1.46,2.0
0.0,0.0,0.0,0.0
38.407,0.452,0.527,0.0
31.928,0.371,0.252,0.0
0.0,0.0,0.0,0.0
56.855,0.648,1.667,0.0
57.631,0.648,1.354,0.0
0.0,0.0,0.0,0.0
36.117,0.396,0.425,0.0
28.94,0.313,0.172,1.0
57.15,0.612,1.897,0.0
57.331,0.605,1.57,1.0
0.0,0.0,0.0,0.0
41.233,0.423,0.645,0.0
33.714,0.34,0.331,0.0
28.84,0.287,0.115,5.0
57.718,0.567,1.804,2.0
57.659,0.558,1.467,0.0
0.0,0.0,0.0,0.0
0.0,0.0,0.0,0.0
31.991,0.294,0.252,0.0
28.423,0.257,0.059,1.0
57.94,0.517,1.699,1.0
0.0,0.0,0.0,0.0
0.0,0.0,0.0,0.0
0.0,0.0,0.0,0.0
28.92,0.239,0.173,1.0
26.747,0.217,0.004,0.0
74.783,0.597,2.05,3.0
0.0,0.0,0.0,0.0
40.262,0.308,0.636,0.0
33.554,0.251,0.331,0.0
28.837,0.211,0.117,4.0
25.802,0.184,-0.045,0.0
0.0,0.0,0.0,0.0
0.0,0.0,0.0,0.0
38.12,0.254,0.529,0.0
32.215,0.209,0.256,0.0
28.142,0.177,0.06,0.0
24.864,0.153,-0.09,0.0
0.0,0.0,0.0,0.0
0.0,0.0,0.0,0.0
35.81,0.201,0.429,0.0
0.0,0.0,0.0,0.0
26.914,0.142,0.007,0.0
23.625,0.12,-0.13,0.0
0.0,0.0,0.0,0.0
41.664,0.198,0.663,0.0
33.393,0.152,0.338,0.0
28.763,0.126,0.121,1.0
25.84,0.108,-0.04,0.0
22.761,0.091,-0.168,1.0
0.0,0.0,0.0,0.0
37.282,0.136,0.524,0.0
32.514,0.113,0.268,0.0
28.427,0.093,0.067,1.0
24.843,0.077,-0.085,0.0
21.517,0.062,-0.199,4.0
0.0,0.0,0.0,0.0
0.0,0.0,0.0,0.0
30.235,0.071,0.194,0.0
26.958,0.058,0.014,0.0
23.709,0.046,-0.124,1.0
20.887,0.037,-0.231,1.0
41.91,0.066,0.679,0.0
33.977,0.047,0.353,0.0
28.778,0.034,0.132,0.0
26.034,0.025,-0.033,0.0
23.053,0.018,-0.163,0.0
19.642,0.011,-0.253,0.0
0.0,0.0,0.0,0.0
33.055,0.006,0.284,0.0
28.452,0.0,0.08,1.0
25.146,-0.004,-0.076,0.0
21.608,-0.008,-0.191,1.0
18.683,-0.011,-0.273,0.0
36.444,-0.029,0.461,0.0
30.774,-0.03,0.211,0.0
27.29,-0.032,0.029,0.0
23.929,-0.033,-0.115,0.0
21.035,-0.033,-0.223,0.0
18.101,-0.032,-0.297,1.0
33.363,-0.067,0.364,0.0
28.852,-0.064,0.147,5.0
26.153,-0.064,-0.017,0.0
23.309,-0.061,-0.153,0.0
20.021,-0.057,-0.247,0.0
17.478,-0.053,-0.317,0.0
33.144,-0.109,0.304,1.0
28.702,-0.101,0.097,6.0
25.328,-0.094,-0.06,0.0
22.009,-0.086,-0.182,0.0
19.074,-0.079,-0.268,0.0
16.961,-0.074,-0.337,0.0
31.313,-0.144,0.233,1.0
27.584,-0.133,0.046,0.0
24.318,-0.122,-0.099,0.0
21.627,-0.113,-0.216,0.0
18.273,-0.1,-0.288,0.0
16.602,-0.094,-0.358,0.0
28.849,-0.17,0.166,3.0
26.518,-0.163,0.0,0.0
23.549,-0.15,-0.136,0.0
20.268,-0.133,-0.236,0.0
17.678,-0.12,-0.308,0.0
16.126,-0.113,-0.374,0.0
28.753,-0.209,0.118,6.0
25.834,-0.194,-0.042,0.0
22.435,-0.173,-0.166,0.0
19.34,-0.154,-0.257,0.0
17.165,-0.14,-0.327,0.0
15.793,-0.133,-0.393,0.0
28.365,-0.245,0.07,2.0
24.725,-0.22,-0.081,0.0
21.923,-0.2,-0.198,0.0
18.594,-0.174,-0.277,0.0
16.727,-0.16,-0.346,0.0
15.406,-0.151,-0.408,0.0
27.152,-0.273,0.024,0.0
24.029,-0.247,-0.117,0.0
20.833,-0.219,-0.221,0.0
18.016,-0.194,-0.297,0.0
16.426,-0.181,-0.366,0.0
14.926,-0.168,-0.419,0.0
26.244,-0.301,-0.017,0.0
23.08,-0.27,-0.148,1.0
19.927,-0.238,-0.243,0.0
17.434,-0.213,-0.315,0.0
16.018,-0.199,-0.382,0.0
14.592,-0.185,-0.432,0.0
25.263,-0.327,-0.056,0.0
22.267,-0.294,-0.178,1.0
19.148,-0.257,-0.263,0.0
16.959,-0.232,-0.333,0.0
15.601,-0.217,-0.396,0.0
14.344,-0.203,-0.447,0.0
24.658,-0.356,-0.092,0.0
21.686,-0.318,-0.206,0.0
18.333,-0.274,-0.28,0.0
16.618,-0.252,-0.351,0.0
15.127,-0.233,-0.407,0.0
13.994,-0.219,-0.457,0.0
23.708,-0.377,-0.123,1.0
20.513,-0.332,-0.225,0.0
17.924,-0.294,-0.3,0.0
16.27,-0.271,-0.367,0.0
14.86,-0.252,-0.421,0.0
13.741,-0.236,-0.469,0.0
22.984,-0.401,-0.153,0.0
19.639,-0.348,-0.244,0.0
17.33,-0.311,-0.315,0.0
15.878,-0.289,-0.382,0.0
14.562,-0.269,-0.434,0.0
13.418,-0.251,-0.477,0.0
22.238,-0.422,-0.18,0.0
19.145,-0.368,-0.265,0.0
16.971,-0.331,-0.332,0.0
15.546,-0.308,-0.396,0.0
14.289,-0.286,-0.446,0.0
13.23,-0.269,-0.489,0.0
21.624,-0.445,-0.205,0.0
18.315,-0.381,-0.279,0.0
16.575,-0.35,-0.348,0.0
15.276,-0.326,-0.41,0.0
13.949,-0.302,-0.455,0.0
13.014,-0.285,-0.499,0.0
20.503,-0.454,-0.222,0.0
18.034,-0.404,-0.299,0.0
16.321,-0.37,-0.365,0.0
14.777,-0.339,-0.417,0.0
13.722,-0.319,-0.466,0.0
12.76,-0.3,-0.507,0.0
19.676,-0.468,-0.24,0.0
17.431,-0.419,-0.312,0.0
15.955,-0.388,-0.377,0.0
14.496,-0.356,-0.428,0.0
13.542,-0.337,-0.477,0.0
12.565,-0.316,-0.515,0.0
19.236,-0.488,-0.259,0.0
17.046,-0.437,-0.327,0.0
15.645,-0.406,-0.39,0.0
14.316,-0.375,-0.441,0.0
13.257,-0.351,-0.484,0.0
12.406,-0.332,-0.524,0.0
18.535,-0.501,-0.273,0.0
16.691,-0.456,-0.342,0.0
15.217,-0.42,-0.399,0.0
14.037,-0.391,-0.45,0.0
13.062,-0.368,-0.493,0.0
12.298,-0.35,-0.535,0.0
18.165,-0.521,-0.29,0.0
16.442,-0.476,-0.356,0.0
14.885,-0.436,-0.408,0.0
13.762,-0.407,-0.458,0.0
12.885,-0.384,-0.502,0.0
12.07,-0.363,-0.54,0.0
17.695,-0.537,-0.304,0.0
16.088,-0.493,-0.368,0.0
14.692,-0.455,-0.42,0.0
13.651,-0.426,-0.47,0.0
12.684,-0.4,-0.509,0.0
11.908,-0.379,-0.546,0.0
17.307,-0.555,-0.317,0.0
15.76,-0.51,-0.379,0.0
14.508,-0.474,-0.432,0.0
13.443,-0.443,-0.478,0.0
12.524,-0.416,-0.517,0.0
11.775,-0.395,-0.554,0.0
16.985,-0.574,-0.33,0.0
15.636,-0.533,-0.393,0.0
14.208,-0.488,-0.439,0.0
13.227,-0.458,-0.485,0.0
12.364,-0.432,-0.524,0.0
11.623,-0.41,-0.559,0.0
16.693,-0.592,-0.343,0.0
15.268,-0.546,-0.401,0.0
14.036,-0.506,-0.448,0.0
13.044,-0.475,-0.493,0.0
12.275,-0.45,-0.534,0.0
11.503,-0.426,-0.566,0.0
16.403,-0.61,-0.354,0.0
14.979,-0.562,-0.409,0.0
13.822,-0.523,-0.456,0.0
12.891,-0.491,-0.5,0.0
12.046,-0.463,-0.536,0.0
11.274,-0.437,-0.566,0.0
16.157,-0.63,-0.365,0.0
14.751,-0.579,-0.417,0.0
13.653,-0.54,-0.464,0.0
12.717,-0.507,-0.506,0.0
11.953,-0.48,-0.544,0.0
11.238,-0.455,-0.576,0.0
15.951,-0.649,-0.376,0.0
14.589,-0.598,-0.426,0.0
13.538,-0.559,-0.473,0.0
12.573,-0.523,-0.512,0.0
11.852,-0.497,-0.551,0.0
11.082,-0.468,-0.578,0.0
15.693,-0.666,-0.384,0.0
14.364,-0.614,-0.433,0.0
13.335,-0.574,-0.478,0.0
12.488,-0.542,-0.52,0.0
11.709,-0.512,-0.555,0.0
11.01,-0.485,-0.584,0.0
15.465,-0.684,-0.392,0.0
14.173,-0.631,-0.44,0.0
13.244,-0.594,-0.487,0.0
12.287,-0.555,-0.523,0.0
11.615,-0.528,-0.56,0.0
10.959,-0.502,-0.591,0.0
15.208,-0.699,-0.399,0.0
14.031,-0.65,-0.448,0.0
13.144,-0.613,-0.494,0.0
12.303,-0.577,-0.534,0.0
11.531,-0.545,-0.566,0.0
10.829,-0.515,-0.593,0.0
14.961,-0.714,-0.404,0.0
13.856,-0.666,-0.453,0.0
12.983,-0.628,-0.498,0.0
12.124,-0.59,-0.535,0.0
11.357,-0.557,-0.566,0.0
10.717,-0.529,-0.595,0.0
14.779,-0.732,-0.411,0.0
13.706,-0.683,-0.459,0.0
12.868,-0.646,-0.504,0.0
11.953,-0.604,-0.537,0.0
11.291,-0.574,-0.572,0.0
10.61,-0.543,-0.597,0.0
14.719,-0.755,-0.42,0.0
13.635,-0.704,-0.466,0.0
12.736,-0.662,-0.508,0.0
11.885,-0.621,-0.542,0.0
11.244,-0.591,-0.577,0.0
10.538,-0.558,-0.601,0.0
14.57,-0.774,-0.426,0.0
13.473,-0.719,-0.47,0.0
12.558,-0.675,-0.509,0.0
11.83,-0.64,-0.548,0.0
11.126,-0.605,-0.579,0.0
10.482,-0.574,-0.604,0.0
14.421,-0.791,-0.431,0.0
13.391,-0.739,-0.476,0.0
12.455,-0.691,-0.513,0.0
11.707,-0.654,-0.55,0.0
11.069,-0.622,-0.582,0.0
10.359,-0.585,-0.604,0.0
14.209,-0.805,-0.433,0.0
13.281,-0.757,-0.48,0.0
12.362,-0.708,-0.517,0.0
11.646,-0.671,-0.554,0.0
10.953,-0.635,-0.583,0.0
10.373,-0.605,-0.611,0.0
14.152,-0.827,-0.44,0.0
13.217,-0.777,-0.485,0.0
12.328,-0.729,-0.522,0.0
11.572,-0.688,-0.557,0.0
10.917,-0.653,-0.587,0.0
10.378,-0.624,-0.617,0.0
14.037,-0.846,-0.444,0.0
13.099,-0.793,-0.488,0.0
12.295,-0.749,-0.527,0.0
11.537,-0.706,-0.561,0.0
10.9,-0.671,-0.592,0.0
10.246,-0.634,-0.614,0.0
14.006,-0.869,-0.45,0.0
13.018,-0.811,-0.491,0.0
12.248,-0.767,-0.531,0.0
11.422,-0.72,-0.561,0.0
10.825,-0.686,-0.593,0.0
10.247,-0.652,-0.619,0.0
13.891,-0.886,-0.452,0.0
12.969,-0.831,-0.495,0.0
12.14,-0.782,-0.532,0.0
11.376,-0.737,-0.564,0.0
10.817,-0.704,-0.597,0.0
10.168,-0.666,-0.618,0.0
13.784,-0.904,-0.454,0.0
12.898,-0.85,-0.498,0.0
12.034,-0.797,-0.532,0.0
11.286,-0.751,-0.564,0.0
10.636,-0.712,-0.591,0.0
10.081,-0.678,-0.617,0.0
13.725,-0.924,-0.457,0.0
12.887,-0.872,-0.502,0.0
12.012,-0.817,-0.535,0.0
11.276,-0.77,-0.567,0.0
10.672,-0.733,-0.597,0.0
10.078,-0.695,-0.62,0.0
13.71,-0.947,-0.461,0.0
12.808,-0.889,-0.503,0.0
11.929,-0.832,-0.535,0.0
11.234,-0.787,-0.568,0.0
10.63,-0.749,-0.598,0.0
0.0,0.0,0.0,0.0
13.631,-0.966,-0.463,0.0
12.817,-0.912,-0.507,0.0
11.905,-0.851,-0.538,0.0
11.226,-0.806,-0.571,0.0
10.599,-0.765,-0.599,0.0
0.0,0.0,0.0,0.0
13.589,-0.986,-0.465,0.0
12.749,-0.929,-0.507,0.0
11.844,-0.867,-0.538,0.0
11.154,-0.821,-0.57,0.0
10.489,-0.775,-0.595,0.0
0.0,0.0,0.0,0.0
13.546,-1.007,-0.466,0.0
12.716,-0.949,-0.508,0.0
11.832,-0.887,-0.539,0.0
11.12,-0.837,-0.57,0.0
10.514,-0.795,-0.598,0.0
10.064,-0.765,-0.629,0.0
13.51,-1.027,-0.467,0.0
12.534,-0.957,-0.503,0.0
11.848,-0.908,-0.542,0.0
11.177,-0.861,-0.575,0.0
10.55,-0.816,-0.602,0.0
9.986,-0.776,-0.625,0.0
13.529,-1.051,-0.469,0.0
12.589,-0.982,-0.507,0.0
11.87,-0.93,-0.544,0.0
11.155,-0.878,-0.575,0.0
0.0,0.0,0.0,0.0
0.0,0.0,0.0,0.0
13.514,-1.073,-0.47,0.0
12.56,-1.002,-0.507,0.0
11.827,-0.947,-0.543,0.0
11.07,-0.89,-0.571,0.0
0.0,0.0,0.0,0.0
0.0,0.0,0.0,0.0
13.541,-1.098,-0.471,0.0
12.531,-1.02,-0.506,0.0
11.825,-0.966,-0.543,0.0
11.119,-0.912,-0.574,0.0
0.0,0.0,0.0,0.0
0.0,0.0,0.0,0.0
13.536,-1.12,-0.471,0.0
12.629,-1.049,-0.51,0.0
11.837,-0.987,-0.544,0.0
11.067,-0.926,-0.571,0.0
0.0,0.0,0.0,0.0
9.893,-0.835,-0.621,0.0
13.502,-1.139,-0.47,0.0
12.571,-1.065,-0.507,0.0
11.816,-1.005,-0.542,0.0
11.117,-0.949,-0.573,0.0
10.331,-0.885,-0.59,0.0
9.901,-0.852,-0.621,0.0
13.476,-1.159,-0.468,0.0
12.608,-1.088,-0.508,0.0
11.811,-1.023,-0.541,0.0
11.189,-0.973,-0.576,0.0
10.433,-0.911,-0.595,0.0
0.0,0.0,0.0,0.0
13.522,-1.185,-0.468,0.0
12.66,-1.113,-0.508,0.0
11.814,-1.042,-0.54,0.0
11.239,-0.995,-0.577,0.0
10.575,-0.94,-0.602,0.0
9.952,-0.888,-0.622,0.0
13.589,-1.212,-0.468,0.0
12.621,-1.13,-0.505,0.0
11.829,-1.062,-0.539,0.0
11.135,-1.004,-0.57,0.0
0.0,0.0,0.0,0.0
9.988,-0.907,-0.622,0.0
13.572,-1.231,-0.465,0.0
12.616,-1.149,-0.502,0.0
11.901,-1.087,-0.54,0.0
11.142,-1.021,-0.568,0.0
0.0,0.0,0.0,0.0
0.0,0.0,0.0,0.0
13.657,-1.26,-0.465,0.0
12.699,-1.176,-0.503,0.0
11.905,-1.106,-0.537,0.0
11.13,-1.037,-0.565,0.0
10.611,-0.992,-0.597,0.0
10.074,-0.945,-0.623,0.0
13.729,-1.288,-0.464,0.0
12.741,-1.199,-0.501,0.0
11.898,-1.123,-0.533,0.0
11.302,-1.07,-0.57,0.0
10.584,-1.006,-0.592,0.0
10.071,-0.96,-0.619,0.0
13.745,-1.31,-0.46,0.0
12.78,-1.222,-0.498,0.0
11.938,-1.145,-0.531,0.0
11.359,-1.093,-0.569,0.0
10.68,-1.03,-0.594,0.0
0.0,0.0,0.0,0.0
13.79,-1.334,-0.457,0.0
12.896,-1.251,-0.499,0.0
11.988,-1.167,-0.53,0.0
11.352,-1.108,-0.565,0.0
10.7,-1.048,-0.592,0.0
10.153,-0.997,-0.618,0.0
13.845,-1.359,-0.454,0.0
12.876,-1.268,-0.493,0.0
12.076,-1.193,-0.529,0.0
11.433,-1.133,-0.565,0.0
10.676,-1.061,-0.586,0.0
10.107,-1.007,-0.611,0.0
13.957,-1.39,-0.452,0.0
12.963,-1.295,-0.491,0.0
12.074,-1.209,-0.524,0.0
11.466,-1.152,-0.562,0.0
10.664,-1.074,-0.581,0.0
10.222,-1.033,-0.613,0.0
13.981,-1.412,-0.447,0.0
13.127,-1.329,-0.491,0.0
12.267,-1.246,-0.527,0.0
11.48,-1.169,-0.557,0.0
10.821,-1.105,-0.584,0.0
0.0,0.0,0.0,0.0
14.091,-1.442,-0.444,0.0
13.192,-1.354,-0.488,0.0
12.288,-1.265,-0.522,0.0
11.537,-1.19,-0.554,0.0
10.937,-1.132,-0.585,0.0
10.319,-1.071,-0.609,0.0
34.064,-3.542,1.046,0.0
34.049,-3.53,0.861,0.0
34.049,-3.52,0.676,0.0
34.317,-3.539,0.491,0.0
34.036,-3.5,0.303,0.0
29.581,-3.034,0.103,1.0
33.947,-3.483,1.066,46.0
33.943,-3.472,0.882,2.0
33.968,-3.465,0.698,0.0
34.227,-3.482,0.514,1.0
34.345,-3.484,0.329,0.0
29.949,-3.03,0.125,0.0
33.964,-3.437,1.09,151.0
33.894,-3.42,0.903,4.0
33.91,-3.411,0.719,0.0
34.029,-3.413,0.534,1.0
34.308,-3.431,0.351,0.0
30.757,-3.067,0.148,0.0
33.914,-3.383,1.11,13.0
33.872,-3.369,0.925,6.0
33.849,-3.356,0.74,1.0
33.932,-3.354,0.554,1.0
36.778,-3.625,0.4,0.0
30.739,-3.021,0.167,1.0
33.855,-3.328,1.13,5.0
33.841,-3.316,0.945,9.0
33.872,-3.308,0.761,1.0
33.925,-3.303,0.574,0.0
0.0,0.0,0.0,0.0
31.054,-3.005,0.187,0.0
33.833,-3.275,1.149,5.0
33.824,-3.263,0.964,17.0
33.817,-3.252,0.779,2.0
33.798,-3.239,0.591,0.0
34.664,-3.312,0.417,0.0
31.6,-3.009,0.209,0.0
33.832,-3.223,1.168,5.0
33.819,-3.21,0.983,19.0
33.802,-3.198,0.798,6.0
33.849,-3.192,0.611,0.0
34.566,-3.249,0.435,1.0
31.95,-2.993,0.228,0.0
33.825,-3.169,1.186,5.0
33.805,-3.156,1.0,30.0
33.795,-3.144,0.815,10.0
33.828,-3.136,0.628,0.0
34.403,-3.179,0.451,2.0
32.3,-2.974,0.247,0.0
33.818,-3.114,1.202,6.0
33.795,-3.101,1.016,50.0
33.789,-3.09,0.831,25.0
33.751,-3.075,0.643,0.0
34.379,-3.121,0.467,3.0
0.0,0.0,0.0,0.0
33.818,-3.06,1.218,8.0
33.799,-3.046,1.032,74.0
33.779,-3.034,0.847,29.0
33.755,-3.02,0.658,0.0
34.353,-3.063,0.481,3.0
33.443,-2.971,0.286,0.0
33.814,-3.004,1.232,18.0
33.788,-2.99,1.046,89.0
33.785,-2.978,0.861,42.0
33.787,-2.967,0.672,5.0
34.269,-2.998,0.494,4.0
34.094,-2.972,0.305,0.0
33.807,-2.946,1.245,39.0
33.796,-2.934,1.059,122.0
33.788,-2.921,0.874,52.0
33.794,-2.911,0.685,1.0
34.233,-2.937,0.506,5.0
34.274,-2.929,0.319,0.0
33.796,-2.888,1.257,53.0
33.795,-2.876,1.071,140.0
33.817,-2.866,0.886,68.0
33.814,-2.855,0.697,155.0
34.159,-2.872,0.517,4.0
0.0,0.0,0.0,0.0
33.817,-2.831,1.269,76.0
33.795,-2.818,1.082,150.0
33.813,-2.808,0.897,151.0
33.82,-2.797,0.708,155.0
34.125,-2.81,0.527,4.0
35.493,-2.911,0.353,0.0
33.816,-2.773,1.279,82.0
33.798,-2.76,1.092,132.0
33.805,-2.748,0.906,86.0
33.828,-2.738,0.717,152.0
34.071,-2.746,0.535,4.0
0.0,0.0,0.0,0.0
33.826,-2.714,1.288,83.0
33.81,-2.701,1.101,112.0
33.828,-2.69,0.915,93.0
33.845,-2.68,0.725,155.0
34.059,-2.685,0.542,4.0
0.0,0.0,0.0,0.0
33.834,-2.654,1.295,80.0
33.817,-2.641,1.108,86.0
33.828,-2.629,0.922,94.0
33.854,-2.619,0.733,157.0
34.042,-2.622,0.549,4.0
35.287,-2.705,0.375,0.0
33.844,-2.593,1.302,77.0
33.837,-2.581,1.115,76.0
33.833,-2.568,0.928,92.0
33.861,-2.558,0.738,154.0
34.02,-2.558,0.554,4.0
35.734,-2.675,0.385,1.0
33.853,-2.532,1.307,65.0
33.846,-2.519,1.119,65.0
33.855,-2.508,0.933,82.0
33.874,-2.497,0.743,155.0
34.058,-2.499,0.559,3.0
35.881,-2.62,0.39,1.0
33.852,-2.469,1.311,53.0
33.844,-2.457,1.123,56.0
33.866,-2.446,0.936,73.0
33.876,-2.434,0.746,155.0
34.048,-2.435,0.561,3.0
35.629,-2.536,0.39,1.0
33.867,-2.408,1.313,46.0
33.844,-2.393,1.125,43.0
33.884,-2.384,0.939,56.0
33.877,-2.372,0.747,12.0
34.051,-2.372,0.563,2.0
35.111,-2.434,0.386,0.0
33.89,-2.346,1.315,36.0
33.865,-2.332,1.126,36.0
33.885,-2.321,0.939,45.0
33.85,-2.307,0.747,0.0
34.022,-2.306,0.563,1.0
34.236,-2.309,0.376,0.0
33.908,-2.284,1.315,26.0
33.882,-2.27,1.126,30.0
33.901,-2.258,0.939,30.0
33.942,-2.249,0.748,0.0
34.087,-2.246,0.562,0.0
0.0,0.0,0.0,0.0
33.941,-2.221,1.315,17.0
33.914,-2.207,1.125,22.0
33.922,-2.195,0.937,24.0
33.88,-2.18,0.745,0.0
34.163,-2.186,0.561,2.0
35.892,-2.285,0.39,0.0
33.979,-2.159,1.314,8.0
33.944,-2.145,1.123,10.0
33.966,-2.134,0.935,11.0
34.024,-2.125,0.744,0.0
34.199,-2.124,0.558,3.0
0.0,0.0,0.0,0.0
34.014,-2.096,1.311,6.0
33.977,-2.081,1.12,5.0
33.994,-2.07,0.931,8.0
33.987,-2.057,0.739,0.0
34.285,-2.063,0.554,4.0
34.901,-2.088,0.37,3.0
34.026,-2.032,1.306,4.0
34.059,-2.021,1.117,19.0
34.029,-2.007,0.926,5.0
0.0,0.0,0.0,0.0
34.242,-1.994,0.547,1.0
34.629,-2.005,0.36,0.0
34.114,-1.97,1.302,1.0
34.147,-1.96,1.113,151.0
34.072,-1.943,0.92,3.0
0.0,0.0,0.0,0.0
34.421,-1.938,0.542,1.0
34.605,-1.936,0.352,0.0
34.288,-1.913,1.3,0.0
34.174,-1.894,1.105,170.0
34.144,-1.88,0.913,2.0
34.129,-1.867,0.719,0.0
34.542,-1.877,0.535,0.0
34.298,-1.851,0.339,0.0
109.323,-5.887,4.115,14.0
34.238,-1.831,1.097,1.0
34.303,-1.822,0.907,0.0
34.454,-1.818,0.715,1.0
34.507,-1.808,0.524,0.0
33.961,-1.767,0.326,0.0
109.36,-5.675,4.082,68.0
0.0,0.0,0.0,0.0
0.0,0.0,0.0,0.0
0.0,0.0,0.0,0.0
0.0,0.0,0.0,0.0
33.652,-1.685,0.311,0.0
109.5,-5.467,4.046,4.0
0.0,0.0,0.0,0.0
0.0,0.0,0.0,0.0
0.0,0.0,0.0,0.0
38.82,-1.882,0.561,0.0
33.413,-1.607,0.296,0.0
95.216,-4.564,3.481,2.0
0.0,0.0,0.0,0.0
0.0,0.0,0.0,0.0
0.0,0.0,0.0,0.0
0.0,0.0,0.0,0.0
32.877,-1.516,0.277,0.0
93.339,-4.29,3.37,5.0
0.0,0.0,0.0,0.0
0.0,0.0,0.0,0.0
0.0,0.0,0.0,0.0
38.99,-1.735,0.528,0.0
32.383,-1.43,0.257,0.0
92.222,-4.056,3.286,150.0
0.0,0.0,0.0,0.0
0.0,0.0,0.0,0.0
0.0,0.0,0.0,0.0
38.027,-1.618,0.496,0.0
31.971,-1.349,0.238,0.0
92.157,-3.872,3.235,154.0
0.0,0.0,0.0,0.0
0.0,0.0,0.0,0.0
0.0,0.0,0.0,0.0
36.965,-1.5,0.462,0.0
31.527,-1.268,0.217,0.0
92.128,-3.686,3.182,54.0
0.0,0.0,0.0,0.0
0.0,0.0,0.0,0.0
0.0,0.0,0.0,0.0
36.322,-1.401,0.433,0.0
31.021,-1.186,0.195,0.0
92.13,-3.504,3.127,38.0
0.0,0.0,0.0,0.0
0.0,0.0,0.0,0.0
0.0,0.0,0.0,0.0
35.872,-1.314,0.405,0.0
30.48,-1.106,0.173,0.0
92.171,-3.325,3.07,12.0
0.0,0.0,0.0,0.0
0.0,0.0,0.0,0.0
0.0,0.0,0.0,0.0
34.617,-1.199,0.368,0.0
30.364,-1.041,0.152,0.0
92.547,-3.154,3.019,9.0
0.0,0.0,0.0,0.0
0.0,0.0,0.0,0.0
0.0,0.0,0.0,0.0
34.597,-1.131,0.344,0.0
28.692,-0.928,0.123,0.0
92.927,-2.984,2.964,3.0
0.0,0.0,0.0,0.0
0.0,0.0,0.0,0.0
0.0,0.0,0.0,0.0
0.0,0.0,0.0,0.0
28.627,-0.87,0.102,1.0
92.72,-2.796,2.888,1.0
0.0,0.0,0.0,0.0
0.0,0.0,0.0,0.0
0.0,0.0,0.0,0.0
32.487,-0.935,0.274,0.0
28.547,-0.812,0.079,1.0
93.037,-2.625,2.825,1.0
0.0,0.0,0.0,0.0
0.0,0.0,0.0,0.0
38.185,-1.039,0.507,0.0
32.517,-0.873,0.248,1.0
28.556,-0.757,0.056,4.0
0.0,0.0,0.0,0.0
0.0,0.0,0.0,0.0
0.0,0.0,0.0,0.0
37.656,-0.952,0.469,0.0
31.492,-0.785,0.213,0.0
28.088,-0.691,0.032,1.0
0.0,0.0,0.0,0.0
0.0,0.0,0.0,0.0
43.073,-1.021,0.747,0.0
35.089,-0.82,0.406,0.0
30.958,-0.713,0.183,0.0
27.303,-0.62,0.006,0.0
0.0,0.0,0.0,0.0
0.0,0.0,0.0,0.0
0.0,0.0,0.0,0.0
34.429,-0.739,0.367,1.0
28.77,-0.608,0.143,2.0
26.571,-0.553,-0.017,0.0
0.0,0.0,0.0,0.0
0.0,0.0,0.0,0.0
41.5,-0.825,0.642,0.0
33.781,-0.661,0.328,2.0
28.727,-0.553,0.116,4.0
26.125,-0.494,-0.042,0.0
0.0,0.0,0.0,0.0
0.0,0.0,0.0,0.0
0.0,0.0,0.0,0.0
33.287,-0.588,0.29,2.0
28.592,-0.496,0.087,1.0
25.594,-0.436,-0.067,0.0
63.853,-1.071,1.587,0.0
47.594,-0.782,0.912,0.0
0.0,0.0,0.0,0.0
32.365,-0.511,0.249,0.0
28.386,-0.439,0.057,1.0
25.142,-0.381,-0.092,0.0
64.104,-0.955,1.526,0.0
0.0,0.0,0.0,0.0
0.0,0.0,0.0,0.0
31.476,-0.438,0.209,0.0
27.585,-0.375,0.026,0.0
24.524,-0.326,-0.116,0.0
0.0,0.0,0.0,0.0
0.0,0.0,0.0,0.0
0.0,0.0,0.0,0.0
30.13,-0.365,0.167,0.0
27.003,-0.319,-0.003,0.0
23.993,-0.276,-0.139,0.0
0.0,0.0,0.0,0.0
0.0,0.0,0.0,0.0
33.679,-0.357,0.344,0.0
28.791,-0.296,0.127,4.0
26.3,-0.262,-0.033,0.0
23.053,-0.223,-0.16,0.0
0.0,0.0,0.0,0.0
39.985,-0.363,0.59,0.0
32.768,-0.288,0.297,1.0
28.743,-0.244,0.094,6.0
25.663,-0.21,-0.062,0.0
22.476,-0.177,-0.182,0.0
0.0,0.0,0.0,0.0
0.0,0.0,0.0,0.0
31.896,-0.224,0.252,1.0
28.624,-0.192,0.06,2.0
24.896,-0.16,-0.089,0.0
21.92,-0.134,-0.204,1.0
0.0,0.0,0.0,0.0
36.694,-0.203,0.454,0.0
31.194,-0.163,0.208,1.0
27.581,-0.136,0.024,0.0
24.349,-0.113,-0.117,0.0
