X,Y,Z,Reflectivity
28.857,0.121,0.142,0.0
26.301,0.102,-0.021,0.0
23.216,0.083,-0.15,1.0
20.065,0.065,-0.244,0.0
39.48,0.116,0.602,0.0
33.058,0.086,0.317,0.0
28.771,0.066,0.113,3.0
25.736,0.051,-0.046,0.0
22.732,0.038,-0.169,0.0
19.531,0.026,-0.256,0.0
37.994,0.038,0.543,0.0
32.782,0.023,0.283,0.0
28.53,0.011,0.085,1.0
25.24,0.001,-0.069,0.0
21.884,-0.005,-0.184,0.0
19.023,-0.011,-0.267,0.0
37.344,-0.033,0.499,0.0
31.582,-0.038,0.244,0.0
28.32,-0.043,0.058,1.0
24.663,-0.046,-0.09,0.0
21.561,-0.047,-0.201,0.0
18.648,-0.047,-0.279,0.0
36.51,-0.104,0.455,0.0
31.089,-0.099,0.212,1.0
27.442,-0.096,0.032,0.0
24.122,-0.092,-0.11,0.0
21.371,-0.089,-0.218,0.0
18.316,-0.082,-0.29,0.0
35.639,-0.172,0.414,0.0
28.919,-0.149,0.172,1.0
26.898,-0.147,0.009,0.0
23.871,-0.139,-0.129,0.0
20.398,-0.125,-0.225,0.0
18.046,-0.117,-0.301,0.0
0.0,0.0,0.0,0.0
28.815,-0.205,0.148,4.0
26.294,-0.196,-0.012,0.0
23.423,-0.182,-0.145,0.0
20.106,-0.164,-0.238,0.0
17.638,-0.149,-0.308,0.0
33.117,-0.291,0.331,1.0
28.781,-0.262,0.125,5.0
25.86,-0.244,-0.032,0.0
22.869,-0.224,-0.159,0.0
19.755,-0.2,-0.249,0.0
17.453,-0.182,-0.318,0.0
32.647,-0.351,0.302,1.0
28.627,-0.318,0.103,1.0
25.432,-0.291,-0.05,0.0
22.678,-0.267,-0.175,1.0
19.398,-0.235,-0.259,0.0
17.26,-0.215,-0.327,0.0
32.217,-0.412,0.274,1.0
28.465,-0.373,0.082,1.0
25.075,-0.337,-0.067,0.0
22.222,-0.307,-0.187,1.0
19.094,-0.27,-0.268,0.0
17.03,-0.247,-0.335,0.0
31.343,-0.463,0.246,0.0
28.136,-0.426,0.062,0.0
24.786,-0.384,-0.083,0.0
21.923,-0.347,-0.199,0.0
18.778,-0.304,-0.276,0.0
16.886,-0.279,-0.343,0.0
31.213,-0.525,0.224,0.0
27.687,-0.476,0.044,0.0
24.563,-0.43,-0.098,0.0
21.597,-0.386,-0.21,0.0
18.404,-0.335,-0.282,0.0
16.723,-0.31,-0.35,0.0
30.938,-0.583,0.204,0.0
27.277,-0.523,0.027,0.0
24.247,-0.474,-0.111,0.0
21.147,-0.421,-0.218,0.0
18.244,-0.369,-0.29,0.0
16.56,-0.341,-0.356,0.0
28.814,-0.602,0.173,1.0
26.803,-0.569,0.011,0.0
23.76,-0.513,-0.122,0.0
20.619,-0.452,-0.224,0.0
18.082,-0.403,-0.297,0.0
16.461,-0.373,-0.363,0.0
28.773,-0.661,0.157,4.0
26.494,-0.618,-0.002,0.0
23.633,-0.559,-0.134,0.0
20.02,-0.481,-0.228,0.0
17.937,-0.437,-0.304,0.0
16.32,-0.404,-0.368,0.0
28.725,-0.718,0.143,4.0
26.214,-0.665,-0.015,0.0
23.261,-0.598,-0.143,0.0
20.12,-0.525,-0.239,0.0
17.781,-0.47,-0.31,0.0
16.199,-0.434,-0.373,0.0
28.675,-0.776,0.129,1.0
26.077,-0.715,-0.027,0.0
23.096,-0.642,-0.153,0.0
19.639,-0.553,-0.241,0.0
17.525,-0.5,-0.313,0.0
16.091,-0.465,-0.378,0.0
28.625,-0.833,0.117,1.0
25.724,-0.758,-0.037,0.0
22.942,-0.685,-0.161,0.0
19.511,-0.589,-0.248,0.0
17.366,-0.531,-0.317,0.0
15.958,-0.493,-0.381,0.0
28.595,-0.891,0.106,1.0
25.286,-0.797,-0.046,0.0
22.563,-0.719,-0.167,0.0
19.42,-0.626,-0.254,0.0
17.313,-0.565,-0.323,0.0
15.842,-0.523,-0.384,0.0
28.553,-0.949,0.096,1.0
25.657,-0.862,-0.056,0.0
22.373,-0.759,-0.173,0.0
19.328,-0.663,-0.259,0.0
17.201,-0.597,-0.326,0.0
15.754,-0.552,-0.386,0.0
28.567,-1.008,0.087,3.0
24.99,-0.891,-0.062,0.0
22.395,-0.807,-0.18,0.0
19.281,-0.702,-0.264,0.0
17.117,-0.629,-0.329,0.0
15.782,-0.586,-0.392,0.0
28.546,-1.066,0.079,4.0
25.027,-0.944,-0.068,0.0
22.321,-0.85,-0.185,0.0
19.202,-0.738,-0.268,0.0
17.094,-0.664,-0.333,0.0
15.69,-0.615,-0.393,0.0
28.532,-1.124,0.073,4.0
25.396,-1.01,-0.075,0.0
22.273,-0.894,-0.19,1.0
19.075,-0.772,-0.27,0.0
17.031,-0.696,-0.336,0.0
15.652,-0.646,-0.395,0.0
28.491,-1.181,0.067,4.0
25.032,-1.047,-0.079,0.0
22.215,-0.937,-0.193,1.0
18.981,-0.808,-0.272,0.0
17.041,-0.732,-0.339,0.0
15.535,-0.673,-0.395,0.0
28.461,-1.239,0.063,3.0
25.181,-1.105,-0.083,0.0
21.96,-0.972,-0.194,0.0
18.921,-0.844,-0.274,0.0
17.014,-0.766,-0.34,0.0
15.594,-0.708,-0.398,0.0
28.253,-1.288,0.059,1.0
24.761,-1.137,-0.084,0.0
21.651,-1.003,-0.194,0.0
18.848,-0.88,-0.275,0.0
16.971,-0.798,-0.341,0.0
15.503,-0.735,-0.397,0.0
28.066,-1.336,0.056,7.0
0.0,0.0,0.0,0.0
22.005,-1.063,-0.198,0.0
18.892,-0.92,-0.276,0.0
16.94,-0.831,-0.341,0.0
15.519,-0.767,-0.398,0.0
27.874,-1.384,0.055,7.0
24.704,-1.235,-0.087,0.0
22.136,-1.115,-0.2,1.0
18.825,-0.955,-0.276,0.0
16.959,-0.867,-0.342,0.0
15.506,-0.798,-0.398,0.0
28.012,-1.448,0.055,4.0
24.558,-1.278,-0.086,0.0
22.294,-1.168,-0.201,0.0
18.863,-0.995,-0.276,0.0
16.951,-0.901,-0.342,0.0
15.511,-0.83,-0.398,0.0
28.326,-1.52,0.057,6.0
34.248,-1.85,-0.119,4.0
34.286,-1.865,-0.308,1.0
18.833,-1.031,-0.275,0.0
16.993,-0.937,-0.341,0.0
34.235,-1.901,-0.877,0.0
28.432,-1.583,0.059,3.0
34.22,-1.918,-0.116,3.0
22.206,-1.252,-0.197,0.0
18.927,-1.074,-0.274,0.0
16.991,-0.971,-0.34,0.0
15.549,-0.894,-0.396,0.0
28.455,-1.64,0.062,4.0
0.0,0.0,0.0,0.0
22.21,-1.296,-0.195,0.0
18.928,-1.111,-0.272,0.0
17.014,-1.005,-0.338,0.0
15.515,-0.923,-0.393,0.0
28.437,-1.695,0.066,6.0
24.56,-1.473,-0.076,0.0
22.219,-1.34,-0.191,0.0
18.986,-1.152,-0.27,0.0
17.107,-1.045,-0.337,0.0
15.635,-0.961,-0.394,0.0
28.439,-1.751,0.072,4.0
25.073,-1.553,-0.073,0.0
22.239,-1.385,-0.187,0.0
19.029,-1.192,-0.266,0.0
17.173,-1.082,-0.334,0.0
15.669,-0.993,-0.391,0.0
28.334,-1.8,0.078,1.0
25.301,-1.616,-0.068,0.0
22.35,-1.436,-0.183,0.0
19.138,-1.236,-0.263,0.0
17.167,-1.115,-0.33,0.0
15.719,-1.027,-0.388,0.0
28.285,-1.851,0.085,0.0
25.509,-1.678,-0.062,0.0
22.534,-1.491,-0.178,0.0
19.313,-1.284,-0.26,0.0
17.328,-1.159,-0.328,0.0
15.812,-1.063,-0.386,0.0
28.573,-1.924,0.094,0.0
25.768,-1.744,-0.055,0.0
22.692,-1.544,-0.172,0.0
19.404,-1.327,-0.255,0.0
17.447,-1.199,-0.325,0.0
15.797,-1.092,-0.381,0.0
28.997,-2.007,0.105,0.0
25.817,-1.796,-0.046,1.0
22.901,-1.601,-0.166,0.0
19.608,-1.378,-0.251,0.0
17.518,-1.237,-0.32,0.0
15.979,-1.134,-0.379,0.0
33.936,-2.412,0.136,1.0
33.89,-2.421,-0.048,2.0
33.92,-2.435,-0.233,0.0
19.858,-1.432,-0.247,0.0
17.663,-1.28,-0.316,0.0
15.994,-1.165,-0.373,0.0
29.544,-2.155,0.13,0.0
33.894,-2.483,-0.035,2.0
33.885,-2.495,-0.219,2.0
33.874,-2.505,-0.407,1.0
17.742,-1.318,-0.31,0.0
16.084,-1.201,-0.369,0.0
29.637,-2.215,0.143,0.0
33.883,-2.544,-0.02,2.0
33.871,-2.555,-0.204,4.0
20.754,-1.573,-0.24,0.0
17.943,-1.365,-0.305,0.0
16.252,-1.242,-0.365,0.0
30.049,-2.299,0.159,0.0
33.847,-2.601,-0.004,1.0
33.872,-2.615,-0.188,4.0
20.851,-1.617,-0.231,1.0
18.145,-1.413,-0.3,0.0
16.509,-1.291,-0.363,0.0
30.199,-2.365,0.175,0.0
33.899,-2.666,0.012,1.0
33.865,-2.674,-0.171,6.0
33.859,-2.685,-0.358,3.0
18.449,-1.469,-0.295,0.0
16.685,-1.334,-0.358,0.0
30.769,-2.463,0.195,0.0
33.901,-2.725,0.031,0.0
33.87,-2.733,-0.152,4.0
33.848,-2.743,-0.339,3.0
18.517,-1.507,-0.286,0.0
16.817,-1.374,-0.351,0.0
0.0,0.0,0.0,0.0
33.841,-2.778,0.05,1.0
33.846,-2.79,-0.132,4.0
33.866,-2.803,-0.32,8.0
18.875,-1.568,-0.28,0.0
16.979,-1.416,-0.344,0.0
31.758,-2.651,0.238,0.0
33.855,-2.836,0.071,1.0
33.846,-2.846,-0.112,1.0
22.091,-1.865,-0.195,0.0
19.142,-1.622,-0.272,0.0
17.169,-1.46,-0.338,0.0
31.939,-2.719,0.26,0.0
28.753,-2.456,0.078,0.0
25.643,-2.198,-0.068,0.0
22.471,-1.934,-0.184,0.0
19.416,-1.677,-0.264,0.0
17.355,-1.505,-0.33,0.0
0.0,0.0,0.0,0.0
29.15,-2.538,0.098,0.0
25.595,-2.236,-0.051,0.0
22.873,-2.005,-0.172,0.0
19.786,-1.741,-0.255,0.0
17.534,-1.549,-0.321,0.0
33.465,-2.957,0.318,0.0
29.452,-2.611,0.12,0.0
26.082,-2.321,-0.034,0.0
23.084,-2.061,-0.157,1.0
20.622,-1.848,-0.251,0.0
17.775,-1.598,-0.313,0.0
34.501,-3.103,0.352,0.0
29.87,-2.695,0.143,0.0
26.908,-2.436,-0.015,0.0
23.4,-2.126,-0.142,1.0
20.768,-1.893,-0.238,1.0
17.968,-1.643,-0.303,0.0
35.219,-3.222,0.386,0.0
0.0,0.0,0.0,0.0
27.176,-2.502,0.004,0.0
23.584,-2.178,-0.125,0.0
21.003,-1.946,-0.225,1.0
18.327,-1.704,-0.295,0.0
36.828,-3.425,0.432,0.0
31.336,-2.923,0.198,0.0
0.0,0.0,0.0,0.0
23.642,-2.219,-0.107,0.0
21.544,-2.028,-0.214,1.0
18.887,-1.784,-0.289,0.0
0.0,0.0,0.0,0.0
31.522,-2.986,0.225,0.0
28.337,-2.693,0.05,0.0
25.107,-2.393,-0.093,0.0
22.257,-2.128,-0.202,0.0
19.205,-1.841,-0.278,0.0
34.625,-3.321,0.462,1.0
32.04,-3.082,0.255,0.0
28.773,-2.776,0.074,0.0
25.339,-2.451,-0.073,0.0
22.535,-2.186,-0.186,2.0
19.51,-1.898,-0.266,0.0
34.603,-3.367,0.492,4.0
0.0,0.0,0.0,0.0
29.509,-2.888,0.102,0.0
25.716,-2.524,-0.051,0.0
23.008,-2.264,-0.17,1.0
19.927,-1.966,-0.254,0.0
34.343,-3.39,0.518,2.0
34.477,-3.411,0.335,1.0
29.64,-2.941,0.128,0.0
26.7,-2.656,-0.03,0.0
34.027,-3.394,-0.221,0.0
33.97,-3.398,-0.403,3.0
34.073,-3.409,0.545,1.0
34.559,-3.466,0.367,0.0
30.497,-3.066,0.16,1.0
34.004,-3.428,-0.006,3.0
34.008,-3.437,-0.189,3.0
34.033,-3.449,-0.372,2.0
34.071,-3.453,0.577,1.0
34.537,-3.509,0.399,0.0
31.115,-3.169,0.192,0.0
33.997,-3.471,0.024,1.0
33.993,-3.479,-0.157,0.0
21.611,-2.217,-0.216,0.0
34.095,-3.499,0.609,1.0
34.449,-3.543,0.431,0.0
31.274,-3.224,0.223,1.0
27.797,-2.872,0.046,1.0
25.064,-2.596,-0.092,0.0
22.396,-2.325,-0.202,0.0
34.248,-3.556,0.646,0.0
34.422,-3.582,0.464,0.0
32.263,-3.365,0.262,0.0
28.917,-3.023,0.077,14.0
25.686,-2.691,-0.069,0.0
22.36,-2.348,-0.18,2.0
34.364,-3.609,0.681,2.0
34.43,-3.624,0.498,1.0
33.381,-3.521,0.304,0.0
28.06,-2.966,0.102,3.0
26.601,-2.818,-0.045,1.0
22.545,-2.393,-0.159,0.0
35.067,-3.723,0.731,5.0
37.358,-3.974,0.578,0.0
29.496,-3.144,0.298,0.0
27.584,-2.946,0.128,5.0
26.917,-2.881,-0.018,6.0
23.621,-2.533,-0.142,3.0
36.381,-3.903,0.795,0.0
37.063,-3.984,0.612,0.0
29.52,-3.179,0.329,1.0
27.498,-2.967,0.157,5.0
27.294,-2.951,0.009,3.0
23.601,-2.557,-0.117,9.0
36.869,-3.995,0.844,1.0
37.309,-4.05,0.655,1.0
29.439,-3.201,0.359,0.0
27.628,-3.01,0.186,3.0
23.64,-2.58,0.033,152.0
23.629,-2.584,-0.092,27.0
37.535,-4.106,0.9,0.0
37.871,-4.149,0.705,0.0
39.68,-4.355,0.527,0.0
28.194,-3.099,0.22,7.0
23.636,-2.603,0.058,157.0
23.609,-2.605,-0.067,86.0
0.0,0.0,0.0,0.0
0.0,0.0,0.0,0.0
31.809,-3.522,0.457,0.0
29.113,-3.229,0.259,8.0
23.628,-2.625,0.084,150.0
23.611,-2.627,-0.041,154.0
0.0,0.0,0.0,0.0
0.0,0.0,0.0,0.0
0.0,0.0,0.0,0.0
29.536,-3.303,0.296,8.0
23.634,-2.647,0.11,6.0
23.597,-2.647,-0.015,156.0
0.0,0.0,0.0,0.0
0.0,0.0,0.0,0.0
0.0,0.0,0.0,0.0
0.0,0.0,0.0,0.0
27.2,-3.07,0.157,6.0
23.629,-2.671,0.011,150.0
0.0,0.0,0.0,0.0
0.0,0.0,0.0,0.0
0.0,0.0,0.0,0.0
31.72,-3.601,0.388,3.0
27.401,-3.115,0.189,4.0
26.455,-3.012,0.041,2.0
98.515,-11.22,2.908,4.0
0.0,0.0,0.0,0.0
0.0,0.0,0.0,0.0
22.134,-2.53,0.296,2.0
22.18,-2.539,0.178,1.0
26.38,-3.024,0.072,11.0
22.425,-2.571,0.687,0.0
98.516,-11.31,2.495,17.0
22.458,-2.581,0.449,3.0
22.161,-2.55,0.322,12.0
22.161,-2.553,0.204,13.0
26.389,-3.044,0.102,15.0
22.349,-2.579,0.711,12.0
22.423,-2.59,0.593,7.0
22.424,-2.593,0.474,12.0
22.138,-2.563,0.347,14.0
22.141,-2.566,0.229,16.0
22.181,-2.574,0.111,10.0
22.254,-2.583,0.734,18.0
22.276,-2.588,0.616,11.0
22.267,-2.589,0.496,10.0
22.141,-2.577,0.373,15.0
22.131,-2.579,0.255,17.0
22.154,-2.585,0.137,17.0
22.235,-2.595,0.759,16.0
22.208,-2.594,0.64,13.0
22.18,-2.593,0.52,9.0
22.131,-2.59,0.399,15.0
22.11,-2.59,0.281,19.0
22.137,-2.596,0.163,18.0
22.207,-2.605,0.784,13.0
22.198,-2.606,0.666,13.0
22.147,-2.602,0.546,12.0
22.13,-2.602,0.425,16.0
22.112,-2.602,0.307,20.0
22.125,-2.606,0.189,18.0
22.168,-2.613,0.809,13.0
22.185,-2.616,0.691,14.0
22.139,-2.613,0.572,14.0
22.117,-2.612,0.451,16.0
22.103,-2.613,0.333,19.0
22.115,-2.616,0.215,18.0
22.156,-2.622,0.835,14.0
22.187,-2.628,0.718,14.0
22.148,-2.625,0.598,16.0
22.137,-2.625,0.478,15.0
22.115,-2.624,0.36,20.0
22.12,-2.627,0.242,18.0
22.148,-2.632,0.861,15.0
22.171,-2.636,0.744,14.0
22.146,-2.634,0.625,16.0
22.129,-2.634,0.505,10.0
22.117,-2.634,0.386,20.0
22.11,-2.635,0.268,19.0
22.076,-2.632,0.886,11.0
22.096,-2.636,0.768,11.0
22.066,-2.633,0.649,13.0
22.14,-2.644,0.531,13.0
22.126,-2.643,0.412,20.0
22.117,-2.644,0.294,20.0
22.036,-2.635,0.91,7.0
22.023,-2.635,0.792,8.0
21.991,-2.632,0.673,13.0
22.114,-2.648,0.557,17.0
22.123,-2.65,0.439,18.0
22.121,-2.651,0.321,19.0
22.031,-2.642,0.937,8.0
22.001,-2.639,0.818,7.0
21.993,-2.639,0.7,19.0
22.121,-2.655,0.583,17.0
22.139,-2.658,0.466,16.0
22.119,-2.657,0.347,18.0
22.024,-2.647,0.962,8.0
22.013,-2.646,0.844,7.0
21.998,-2.645,0.726,22.0
22.098,-2.658,0.609,14.0
22.133,-2.663,0.492,13.0
22.123,-2.662,0.373,19.0
22.014,-2.651,0.988,8.0
22.005,-2.65,0.87,8.0
21.985,-2.648,0.751,22.0
21.993,-2.649,0.632,14.0
22.136,-2.667,0.518,15.0
22.123,-2.666,0.4,19.0
22.02,-2.656,1.015,9.0
22.004,-2.654,0.896,8.0
21.984,-2.651,0.778,16.0
21.963,-2.649,0.658,21.0
22.121,-2.668,0.544,17.0
22.124,-2.669,0.426,18.0
22.022,-2.659,1.041,9.0
21.998,-2.656,0.922,9.0
21.989,-2.655,0.804,10.0
21.996,-2.655,0.684,27.0
22.132,-2.672,0.571,17.0
22.129,-2.672,0.452,16.0
22.021,-2.661,1.067,9.0
22.003,-2.658,0.948,9.0
21.994,-2.657,0.83,9.0
22.007,-2.658,0.71,30.0
22.127,-2.672,0.596,16.0
22.134,-2.673,0.478,15.0
22.018,-2.661,1.093,9.0
21.989,-2.657,0.974,8.0
21.981,-2.656,0.855,9.0
22.001,-2.658,0.736,29.0
22.035,-2.661,0.619,13.0
22.147,-2.675,0.504,15.0
22.019,-2.661,1.118,9.0
22.013,-2.66,1.0,9.0
22.001,-2.658,0.882,8.0
21.973,-2.654,0.761,23.0
21.974,-2.653,0.643,18.0
22.127,-2.671,0.53,17.0
22.021,-2.661,1.144,10.0
22.008,-2.658,1.026,8.0
21.993,-2.655,0.907,8.0
21.976,-2.652,0.786,12.0
21.975,-2.651,0.669,22.0
22.132,-2.669,0.555,18.0
22.029,-2.66,1.17,9.0
22.013,-2.656,1.051,8.0
21.998,-2.653,0.932,8.0
21.995,-2.652,0.812,8.0
21.999,-2.651,0.694,26.0
22.131,-2.666,0.58,17.0
22.043,-2.658,1.196,8.0
22.021,-2.654,1.077,7.0
22.008,-2.651,0.958,8.0
21.987,-2.647,0.837,7.0
21.985,-2.646,0.719,23.0
22.114,-2.66,0.605,16.0
22.047,-2.655,1.222,7.0
22.026,-2.65,1.102,7.0
22.013,-2.647,0.983,7.0
22.012,-2.645,0.863,7.0
21.995,-2.642,0.744,19.0
22.025,-2.644,0.627,14.0
22.065,-2.652,1.247,4.0
22.03,-2.646,1.127,7.0
22.018,-2.642,1.008,6.0
22.011,-2.639,0.887,7.0
22.007,-2.637,0.769,11.0
21.995,-2.634,0.651,12.0
22.116,-2.652,1.275,5.0
22.04,-2.64,1.152,8.0
22.04,-2.638,1.033,6.0
22.019,-2.634,0.912,7.0
22.039,-2.634,0.794,9.0
22.082,-2.638,0.677,13.0
22.133,-2.647,1.301,16.0
22.049,-2.634,1.177,6.0
22.064,-2.634,1.059,8.0
22.068,-2.632,0.938,10.0
22.127,-2.637,0.821,12.0
22.161,-2.639,0.704,15.0
22.137,-2.639,1.324,15.0
22.067,-2.628,1.201,4.0
22.084,-2.628,1.083,12.0
22.12,-2.63,0.964,13.0
22.149,-2.631,0.846,15.0
22.195,-2.634,0.728,17.0
22.19,-2.636,1.351,12.0
22.11,-2.624,1.227,3.0
22.111,-2.621,1.108,17.0
22.137,-2.622,0.988,17.0
22.158,-2.622,0.869,16.0
22.197,-2.624,0.752,14.0
22.219,-2.63,1.376,21.0
22.134,-2.617,1.252,13.0
22.114,-2.611,1.131,18.0
22.138,-2.611,1.011,16.0
22.16,-2.611,0.892,15.0
22.197,-2.613,0.774,12.0
22.22,-2.619,1.399,22.0
22.131,-2.605,1.274,17.0
22.138,-2.603,1.155,20.0
22.14,-2.6,1.033,16.0
22.159,-2.599,0.915,15.0
22.184,-2.599,0.796,12.0
22.206,-2.605,1.421,22.0
22.147,-2.595,1.297,11.0
22.136,-2.59,1.177,21.0
22.135,-2.587,1.055,17.0
22.157,-2.586,0.937,14.0
22.18,-2.586,0.818,12.0
22.196,-2.591,1.442,24.0
22.23,-2.592,1.324,10.0
22.137,-2.577,1.198,18.0
22.135,-2.574,1.076,17.0
22.161,-2.573,0.958,12.0
22.193,-2.574,0.84,12.0
22.188,-2.576,1.463,23.0
22.261,-2.581,1.347,9.0
22.141,-2.563,1.22,12.0
22.147,-2.561,1.098,16.0
22.175,-2.56,0.98,11.0
22.199,-2.56,0.861,12.0
22.187,-2.562,1.484,23.0
22.28,-2.568,1.369,2.0
22.238,-2.56,1.246,4.0
22.167,-2.548,1.12,10.0
22.198,-2.547,1.001,11.0
22.231,-2.548,0.883,10.0
22.198,-2.547,1.505,22.0
22.25,-2.549,1.388,4.0
22.33,-2.554,1.271,2.0
22.221,-2.538,1.143,5.0
22.241,-2.536,1.023,8.0
22.293,-2.538,0.905,6.0
22.199,-2.531,1.525,20.0
22.231,-2.53,1.406,11.0
159.734,-18.151,9.242,6.0
22.315,-2.531,1.167,2.0
22.291,-2.524,1.045,1.0
22.295,-2.521,0.924,0.0
22.208,-2.514,1.546,16.0
22.245,-2.514,1.427,13.0
159.729,-18.022,9.379,17.0
158.854,-17.892,8.448,16.0
164.134,-18.456,7.838,6.0
153.774,-17.262,6.509,5.0
22.24,-2.5,1.566,14.0
22.247,-2.496,1.446,9.0
159.763,-17.892,9.514,17.0
159.195,-17.796,8.598,19.0
159.239,-17.77,7.735,6.0
153.769,-17.13,6.634,5.0
22.239,-2.48,1.584,2.0
22.246,-2.476,1.464,3.0
159.918,-17.77,9.652,12.0
159.258,-17.662,8.73,17.0
159.336,-17.638,7.867,16.0
155.229,-17.152,6.82,6.0
143.412,-15.867,10.336,13.0
174.439,-19.261,11.619,26.0
159.94,-17.625,9.779,16.0
159.35,-17.526,8.856,18.0
159.454,-17.503,7.995,21.0
155.521,-17.04,6.95,10.0
143.31,-15.722,10.436,19.0
174.435,-19.097,11.748,18.0
160.007,-17.48,9.904,10.0
159.47,-17.385,8.984,14.0
159.544,-17.359,8.116,20.0
155.634,-16.901,7.07,10.0
143.369,-15.589,10.546,13.0
174.43,-18.926,11.875,13.0
160.105,-17.334,10.024,7.0
159.72,-17.256,9.11,14.0
159.317,-17.176,8.217,17.0
159.933,-17.207,7.377,18.0
142.954,-15.4,10.616,15.0
174.337,-18.738,11.991,15.0
174.483,-18.711,11.045,9.0
159.828,-17.102,9.226,12.0
159.024,-16.978,8.31,16.0
159.805,-17.026,7.479,16.0
143.192,-15.275,10.731,15.0
142.563,-15.173,9.9,13.0
174.841,-18.564,11.184,6.0
160.174,-16.969,9.351,12.0
158.919,-16.799,8.406,18.0
159.806,-16.856,7.58,20.0
143.157,-15.119,10.818,14.0
142.442,-15.006,9.981,17.0
175.103,-18.404,11.309,20.0
159.962,-16.772,9.437,15.0
158.731,-16.605,8.493,18.0
159.335,-16.63,7.653,20.0
143.019,-14.944,10.897,17.0
142.476,-14.85,10.07,16.0
175.556,-18.254,11.442,21.0
160.095,-16.605,9.54,18.0
158.769,-16.429,8.589,16.0
159.235,-16.439,7.74,18.0
175.501,-18.14,13.469,5.0
142.292,-14.668,10.138,9.0
175.865,-18.083,11.561,19.0
160.459,-16.458,9.649,16.0
158.619,-16.228,8.668,15.0
158.949,-16.222,7.814,18.0
148.314,-15.155,11.464,15.0
143.806,-14.655,10.322,12.0
176.242,-17.913,11.679,16.0
159.865,-16.207,9.696,14.0
160.323,-16.212,8.842,8.0
159.577,-16.095,7.924,12.0
148.694,-15.014,11.569,7.0
143.451,-14.445,10.367,16.0
176.607,-17.736,11.789,16.0
160.085,-16.033,9.787,10.0
159.886,-15.97,8.896,11.0
159.252,-15.865,7.985,5.0
147.09,-14.67,11.513,4.0
143.523,-14.274,10.44,15.0
148.878,-14.765,10.007,16.0
160.353,-15.859,9.876,11.0
159.916,-15.773,8.967,19.0
160.047,-15.743,8.094,6.0
147.559,-14.53,11.614,7.0
143.677,-14.107,10.512,12.0
150.533,-14.738,10.181,7.0
160.497,-15.67,9.951,4.0
160.373,-15.614,9.057,12.0
158.834,-15.421,8.094,11.0
152.107,-14.782,12.033,3.0
143.913,-13.943,10.586,15.0
177.79,-17.174,12.093,17.0
149.423,-14.392,9.32,26.0
167.65,-16.101,9.532,4.0
150.241,-14.387,7.713,16.0
146.307,-14.023,11.627,3.0
143.813,-13.742,10.63,17.0
151.377,-14.421,10.35,10.0
194.602,-18.484,12.206,5.0
149.608,-14.168,8.555,26.0
150.265,-14.188,7.762,23.0
145.433,-13.745,11.604,10.0
146.107,-13.766,10.844,3.0
147.296,-13.834,10.114,4.0
189.896,-17.781,11.968,11.0
149.842,-13.987,8.613,21.0
169.357,-15.762,8.798,11.0
145.595,-13.562,11.658,7.0
146.045,-13.56,10.88,3.0
209.334,-19.374,14.431,12.0
149.444,-13.788,9.458,5.0
150.431,-13.835,8.685,23.0
169.582,-15.548,8.851,16.0
0.0,0.0,0.0,0.0
146.397,-13.387,10.941,5.0
153.752,-14.014,10.636,4.0
148.964,-13.534,9.46,12.0
186.377,-16.878,10.8,33.0
169.775,-15.325,8.898,12.0
144.729,-13.072,11.655,18.0
145.085,-13.06,10.873,9.0
148.009,-13.279,10.266,16.0
150.188,-13.429,9.567,12.0
209.181,-18.642,12.161,15.0
186.592,-16.574,9.811,28.0
144.514,-12.845,11.66,20.0
144.983,-12.841,10.889,14.0
154.175,-13.609,10.718,10.0
185.324,-16.304,11.83,5.0
190.039,-16.661,11.075,38.0
151.951,-13.279,8.009,100.0
144.663,-12.648,11.691,20.0
144.739,-12.609,10.888,12.0
146.24,-12.695,10.183,15.0
148.495,-12.847,9.495,15.0
209.125,-18.027,12.207,21.0
151.981,-13.057,8.026,150.0
145.185,-12.478,11.746,10.0
145.571,-12.467,10.961,8.0
146.025,-12.461,10.179,14.0
147.036,-12.502,9.412,5.0
151.982,-12.876,8.88,7.0
151.956,-12.828,8.031,150.0
145.252,-12.267,11.758,12.0
145.481,-12.241,10.96,14.0
154.293,-12.934,10.759,11.0
149.535,-12.489,9.575,18.0
209.284,-17.416,12.233,10.0
200.172,-16.597,10.582,32.0
145.398,-12.057,11.77,13.0
145.379,-12.01,10.952,14.0
147.146,-12.111,10.26,4.0
208.405,-17.087,13.343,17.0
0.0,0.0,0.0,0.0
200.261,-16.296,10.58,23.0
145.773,-11.865,11.796,14.0
146.788,-11.902,11.052,3.0
148.521,-11.995,10.348,5.0
208.565,-16.781,13.341,19.0
0.0,0.0,0.0,0.0
200.214,-15.987,10.566,6.0
145.424,-11.613,11.756,4.0
145.562,-11.576,10.948,10.0
148.798,-11.788,10.354,8.0
208.54,-16.454,13.32,10.0
0.0,0.0,0.0,0.0
200.273,-15.68,10.545,26.0
145.558,-11.395,11.749,6.0
146.603,-11.429,11.006,4.0
155.343,-12.062,10.789,6.0
208.44,-16.119,13.283,8.0
190.178,-14.647,11.051,4.0
193.567,-14.85,10.161,15.0
147.978,-11.35,11.921,4.0
122.124,-9.329,9.148,9.0
122.754,-9.339,8.504,8.0
154.602,-11.712,9.824,4.0
190.2,-14.349,11.017,8.0
193.377,-14.531,10.114,5.0
150.071,-11.273,12.059,2.0
122.201,-9.14,9.128,9.0
122.509,-9.123,8.46,3.0
154.604,-11.466,9.789,7.0
189.737,-14.011,10.947,15.0
0.0,0.0,0.0,0.0
118.815,-8.734,9.517,6.0
122.335,-8.955,9.106,5.0
147.658,-10.76,10.159,10.0
154.79,-11.231,9.76,5.0
190.025,-13.727,10.91,6.0
0.0,0.0,0.0,0.0
87.78,-6.312,7.006,5.0
122.221,-8.749,9.062,8.0
122.46,-8.726,8.387,15.0
154.658,-10.971,9.703,10.0
189.241,-13.367,10.806,11.0
0.0,0.0,0.0,0.0
87.847,-6.173,6.981,13.0
122.12,-8.543,9.014,9.0
122.388,-8.522,8.34,16.0
91.721,-6.357,5.722,12.0
189.225,-13.058,10.739,12.0
157.154,-10.798,8.031,5.0
88.073,-6.046,6.967,20.0
119.582,-8.171,8.781,7.0
121.818,-8.285,8.255,15.0
121.866,-8.25,7.555,16.0
156.664,-10.555,8.827,11.0
156.993,-10.531,7.96,6.0
88.194,-5.91,6.939,20.0
122.149,-8.148,8.917,10.0
121.835,-8.089,8.204,4.0
121.357,-8.02,7.471,3.0
121.152,-7.968,6.774,9.0
0.0,0.0,0.0,0.0
88.371,-5.78,6.913,14.0
119.697,-7.791,8.684,10.0
121.82,-7.89,8.146,7.0
92.373,-5.954,5.643,14.0
189.124,-12.132,10.484,14.0
35.166,-2.245,1.75,0.0
88.474,-5.64,6.877,13.0
119.683,-7.591,8.621,10.0
111.536,-7.04,7.401,7.0
89.4,-5.614,5.415,11.0
121.191,-7.575,6.653,7.0
189.337,-11.776,9.321,11.0
88.252,-5.481,6.812,29.0
91.573,-5.658,6.546,10.0
91.847,-5.645,6.043,5.0
92.328,-5.646,5.54,4.0
120.936,-7.36,6.571,5.0
188.719,-11.428,9.183,5.0
88.57,-5.354,6.784,21.0
92.054,-5.535,6.526,13.0
89.402,-5.348,5.829,13.0
111.748,-6.651,6.638,10.0
122.898,-7.277,6.603,5.0
188.655,-11.113,9.065,8.0
88.747,-5.218,6.742,30.0
91.922,-5.375,6.458,5.0
89.259,-5.192,5.762,18.0
111.705,-6.462,6.564,6.0
123.124,-7.085,6.534,3.0
188.71,-10.804,8.942,10.0
89.2,-5.096,6.716,13.0
88.196,-5.01,6.136,21.0
89.315,-5.046,5.704,16.0
111.732,-6.279,6.487,6.0
119.6,-6.686,6.264,6.0
188.883,-10.502,8.818,4.0
90.458,-5.017,6.745,15.0
87.88,-4.848,6.051,16.0
92.419,-5.069,5.836,9.0
119.431,-6.515,6.848,18.0
119.268,-6.47,6.158,11.0
188.587,-10.174,8.665,7.0
94.91,-5.107,7.006,10.0
87.938,-4.705,5.988,19.0
112.091,-5.964,6.991,7.0
112.115,-5.931,6.342,9.0
189.086,-9.946,9.617,19.0
189.007,-9.886,8.535,6.0
88.599,-4.621,6.469,15.0
89.683,-4.65,6.035,12.0
111.937,-5.77,6.891,10.0
123.158,-6.312,6.865,14.0
189.371,-9.652,9.477,16.0
0.0,0.0,0.0,0.0
88.923,-4.492,6.418,15.0
91.483,-4.594,6.079,8.0
90.704,-4.528,5.507,14.0
112.405,-5.578,6.17,13.0
189.628,-9.355,9.328,8.0
0.0,0.0,0.0,0.0
89.271,-4.364,6.365,13.0
90.737,-4.408,5.948,20.0
112.682,-5.442,6.742,5.0
97.859,-4.696,5.285,7.0
194.413,-9.273,9.386,7.0
0.0,0.0,0.0,0.0
89.013,-4.204,6.263,24.0
90.831,-4.263,5.87,14.0
108.23,-5.048,6.374,12.0
111.852,-5.184,5.934,20.0
164.369,-7.572,7.781,28.0
0.0,0.0,0.0,0.0
88.943,-4.057,6.174,6.0
94.673,-4.291,6.028,15.0
97.955,-4.411,5.674,17.0
111.648,-4.995,5.815,4.0
194.524,-8.648,9.017,8.0
92.712,-4.095,3.767,1.0
94.956,-4.177,6.496,26.0
97.746,-4.27,6.124,19.0
89.752,-3.896,5.108,14.0
120.184,-5.182,6.138,12.0
120.223,-5.151,5.45,26.0
92.306,-3.928,3.655,9.0
97.483,-4.13,6.566,15.0
97.629,-4.108,6.014,13.0
89.816,-3.753,5.016,24.0
113.458,-4.71,5.673,11.0
0.0,0.0,0.0,0.0
92.206,-3.777,3.553,21.0
88.432,-3.605,5.861,21.0
89.637,-3.629,5.424,18.0
113.784,-4.575,6.232,8.0
113.499,-4.532,5.552,5.0
0.0,0.0,0.0,0.0
92.154,-3.629,3.45,50.0
89.742,-3.516,5.847,7.0
98.756,-3.842,5.865,19.0
113.31,-4.376,6.077,24.0
113.382,-4.347,5.416,24.0
0.0,0.0,0.0,0.0
92.161,-3.483,3.344,54.0
90.012,-3.384,5.76,11.0
99.108,-3.698,5.771,22.0
113.357,-4.199,5.947,28.0
113.453,-4.172,5.287,18.0
92.201,-3.366,3.767,18.0
92.136,-3.34,3.235,58.0
95.698,-3.448,6.009,12.0
99.362,-3.553,5.665,26.0
122.991,-4.366,6.305,8.0
190.013,-6.693,8.626,8.0
92.206,-3.223,3.655,44.0
92.137,-3.197,3.123,31.0
97.641,-3.366,6.01,13.0
97.721,-3.343,5.451,1.0
190.615,-6.471,9.533,14.0
93.574,-3.152,4.132,1.0
92.258,-3.083,3.542,153.0
92.368,-3.063,3.014,11.0
0.0,0.0,0.0,0.0
189.915,-6.207,10.353,19.0
190.114,-6.163,9.265,18.0
93.481,-3.006,4.007,1.0
92.252,-2.943,3.423,58.0
92.934,-2.94,2.913,1.0
99.202,-3.117,5.85,20.0
97.127,-3.027,5.168,16.0
189.744,-5.865,8.999,19.0
92.348,-2.83,3.836,3.0
92.25,-2.803,3.3,53.0
0.0,0.0,0.0,0.0
97.206,-2.908,5.602,17.0
189.354,-5.618,9.818,15.0
189.787,-5.584,8.745,11.0
92.365,-2.694,3.713,12.0
92.321,-2.67,3.178,170.0
0.0,0.0,0.0,0.0
96.917,-2.757,5.453,22.0
189.888,-5.355,9.585,19.0
122.379,-3.42,5.47,20.0
92.499,-2.563,3.591,7.0
92.4,-2.538,3.054,33.0
0.0,0.0,0.0,0.0
99.047,-2.674,5.434,14.0
189.645,-5.072,9.305,21.0
122.412,-3.245,5.299,9.0
92.576,-2.432,3.463,4.0
96.908,-2.522,3.065,2.0
0.0,0.0,0.0,0.0
96.853,-2.475,5.174,10.0
171.665,-4.345,8.175,32.0
125.202,-3.139,5.239,11.0
124.724,-3.097,4.484,3.0
93.529,-2.3,2.821,1.0
0.0,0.0,0.0,0.0
96.772,-2.335,5.026,39.0
96.88,-2.315,4.47,17.0
124.924,-2.955,5.04,35.0
128.242,-3.004,4.42,5.0
0.0,0.0,0.0,0.0
0.0,0.0,0.0,0.0
96.819,-2.2,4.882,33.0
96.875,-2.179,4.323,46.0
97.028,-2.159,3.767,8.0
96.827,-2.132,3.188,5.0
0.0,0.0,0.0,0.0
0.0,0.0,0.0,0.0
190.183,-4.057,9.294,16.0
96.896,-2.045,4.173,39.0
96.949,-2.024,3.613,46.0
96.596,-1.995,3.031,5.0
0.0,0.0,0.0,0.0
0.0,0.0,0.0,0.0
190.012,-3.796,8.988,22.0
96.972,-1.915,4.023,8.0
96.942,-1.893,3.46,44.0
89.465,-1.728,2.665,1.0
0.0,0.0,0.0,0.0
0.0,0.0,0.0,0.0
190.216,-3.547,8.691,8.0
0.0,0.0,0.0,0.0
96.982,-1.766,3.306,27.0
0.0,0.0,0.0,0.0
0.0,0.0,0.0,0.0
0.0,0.0,0.0,0.0
193.551,-3.359,8.532,16.0
0.0,0.0,0.0,0.0
96.886,-1.64,3.146,12.0
0.0,0.0,0.0,0.0
0.0,0.0,0.0,0.0
0.0,0.0,0.0,0.0
193.597,-3.111,8.211,8.0
171.698,-2.722,6.283,8.0
89.745,-1.404,2.763,3.0
0.0,0.0,0.0,0.0
47.713,-0.726,0.91,0.0
37.831,-0.568,0.503,0.0
0.0,0.0,0.0,0.0
0.0,0.0,0.0,0.0
86.222,-1.242,2.51,1.0
0.0,0.0,0.0,0.0
43.246,-0.605,0.752,0.0
35.888,-0.495,0.416,0.0
174.34,-2.369,6.801,6.0
90.909,-1.216,3.017,2.0
0.0,0.0,0.0,0.0
0.0,0.0,0.0,0.0
0.0,0.0,0.0,0.0
33.711,-0.424,0.332,1.0
90.694,-1.123,3.379,33.0
90.471,-1.102,2.845,13.0
0.0,0.0,0.0,0.0
0.0,0.0,0.0,0.0
0.0,0.0,0.0,0.0
32.313,-0.368,0.261,1.0
90.603,-1.015,3.215,43.0
83.745,-0.923,2.486,1.0
0.0,0.0,0.0,0.0
0.0,0.0,0.0,0.0
36.133,-0.377,0.438,0.0
30.933,-0.317,0.195,1.0
90.576,-0.911,3.052,32.0
83.068,-0.82,2.316,1.0
0.0,0.0,0.0,0.0
0.0,0.0,0.0,0.0
34.042,-0.317,0.352,0.0
28.804,-0.263,0.13,4.0
90.481,-0.809,2.884,12.0
0.0,0.0,0.0,0.0
0.0,0.0,0.0,0.0
38.356,-0.322,0.549,0.0
32.45,-0.267,0.276,1.0
28.706,-0.231,0.077,5.0
82.808,-0.65,2.486,5.0
0.0,0.0,0.0,0.0
0.0,0.0,0.0,0.0
36.599,-0.268,0.456,0.0
31.274,-0.224,0.208,1.0
27.497,-0.192,0.022,0.0
81.453,-0.554,2.294,2.0
0.0,0.0,0.0,0.0
0.0,0.0,0.0,0.0
33.735,-0.212,0.357,0.0
28.815,-0.176,0.137,5.0
26.186,-0.156,-0.027,0.0
0.0,0.0,0.0,0.0
0.0,0.0,0.0,0.0
38.21,-0.207,0.558,0.0
30.731,-0.161,0.266,1.0
28.71,-0.146,0.082,6.0
25.05,-0.124,-0.073,0.0
63.897,-0.305,1.556,0.0
0.0,0.0,0.0,0.0
0.0,0.0,0.0,0.0
31.282,-0.134,0.212,1.0
27.409,-0.113,0.026,0.0
24.065,-0.096,-0.116,0.0
57.633,-0.22,1.293,1.0
42.996,-0.157,0.715,0.0
0.0,0.0,0.0,0.0
28.854,-0.097,0.14,5.0
26.276,-0.084,-0.025,0.0
23.31,-0.071,-0.157,0.0
0.0,0.0,0.0,0.0
0.0,0.0,0.0,0.0
33.153,-0.086,0.294,0.0
28.706,-0.07,0.084,6.0
25.244,-0.058,-0.072,0.0
21.922,-0.047,-0.191,0.0
0.0,0.0,0.0,0.0
36.354,-0.067,0.462,0.0
31.022,-0.053,0.214,0.0
27.333,-0.043,0.027,0.0
23.97,-0.034,-0.115,0.0
21.057,-0.027,-0.224,2.0
42.541,-0.049,0.705,0.0
34.455,-0.035,0.37,0.0
29.46,-0.025,0.145,0.0
26.158,-0.019,-0.025,0.0
23.415,-0.014,-0.159,0.0
19.825,-0.009,-0.25,0.0
0.0,0.0,0.0,0.0
33.03,-0.006,0.29,0.0
28.62,-0.002,0.084,1.0
25.153,0.001,-0.074,0.0
21.763,0.004,-0.191,1.0
18.841,0.006,-0.276,0.0
0.0,0.0,0.0,0.0
30.648,0.017,0.207,0.0
27.269,0.019,0.025,0.0
23.932,0.02,-0.119,1.0
21.015,0.02,-0.227,2.0
18.093,0.019,-0.301,0.0
34.235,0.041,0.362,0.0
28.794,0.038,0.136,0.0
26.127,0.038,-0.028,0.0
23.1,0.036,-0.162,1.0
19.701,0.033,-0.253,0.0
17.352,0.031,-0.324,0.0
31.717,0.061,0.271,0.0
28.616,0.058,0.077,3.0
25.022,0.054,-0.077,0.0
21.658,0.049,-0.195,3.0
18.705,0.044,-0.278,0.0
16.807,0.042,-0.348,0.0
30.568,0.08,0.198,0.0
26.993,0.073,0.018,0.0
23.774,0.067,-0.122,0.0
20.868,0.061,-0.231,1.0
17.989,0.055,-0.304,0.0
16.288,0.051,-0.371,0.0
28.845,0.093,0.128,1.0
25.897,0.087,-0.035,0.0
22.912,0.079,-0.165,1.0
19.396,0.069,-0.255,0.0
17.25,0.063,-0.327,0.0
15.766,0.059,-0.391,0.0
28.203,0.109,0.067,0.0
24.826,0.098,-0.085,0.0
21.561,0.087,-0.2,4.0
18.537,0.077,-0.282,0.0
16.673,0.071,-0.351,0.0
15.281,0.066,-0.411,0.0
26.771,0.119,0.008,0.0
23.492,0.106,-0.129,0.0
20.51,0.095,-0.232,0.0
17.789,0.084,-0.307,0.0
16.209,0.078,-0.374,0.0
14.859,0.073,-0.43,0.0
25.658,0.127,-0.044,0.0
22.466,0.113,-0.17,1.0
19.35,0.099,-0.259,0.0
17.108,0.089,-0.331,0.0
15.685,0.083,-0.395,0.0
14.319,0.077,-0.444,0.0
24.597,0.134,-0.094,0.0
21.344,0.118,-0.206,2.0
18.432,0.104,-0.285,0.0
16.579,0.095,-0.355,0.0
15.294,0.089,-0.417,0.0
13.986,0.082,-0.463,0.0
23.405,0.139,-0.138,0.0
20.213,0.121,-0.237,0.0
17.627,0.107,-0.31,0.0
16.071,0.099,-0.378,0.0
14.714,0.092,-0.432,0.0
13.576,0.086,-0.478,0.0
22.241,0.141,-0.177,2.0
19.13,0.123,-0.264,0.0
17.033,0.11,-0.334,0.0
15.599,0.102,-0.399,0.0
14.265,0.094,-0.448,0.0
13.246,0.089,-0.494,0.0
21.055,0.141,-0.211,1.0
18.16,0.123,-0.289,0.0
16.505,0.113,-0.359,0.0
15.034,0.104,-0.416,0.0
13.836,0.097,-0.464,0.0
12.89,0.091,-0.508,0.0
19.815,0.14,-0.241,0.0
17.484,0.125,-0.314,0.0
15.917,0.114,-0.379,0.0
14.579,0.106,-0.434,0.0
13.534,0.099,-0.482,0.0
12.612,0.093,-0.523,0.0
18.805,0.139,-0.267,0.0
16.877,0.125,-0.338,0.0
15.489,0.116,-0.401,0.0
14.168,0.107,-0.451,0.0
13.159,0.1,-0.496,0.0
12.344,0.094,-0.537,0.0
18.02,0.138,-0.294,0.0
16.398,0.126,-0.363,0.0
14.965,0.116,-0.419,0.0
13.774,0.107,-0.467,0.0
12.78,0.1,-0.508,0.0
11.96,0.094,-0.546,0.0
17.304,0.136,-0.318,0.0
15.866,0.126,-0.384,0.0
14.486,0.115,-0.436,0.0
13.398,0.107,-0.483,0.0
12.496,0.101,-0.523,0.0
11.69,0.095,-0.558,0.0
16.721,0.135,-0.342,0.0
15.38,0.125,-0.405,0.0
14.078,0.115,-0.453,0.0
13.064,0.107,-0.498,0.0
12.279,0.101,-0.54,0.0
11.474,0.095,-0.572,0.0
16.25,0.134,-0.366,0.0
14.723,0.121,-0.418,0.0
13.715,0.114,-0.47,0.0
12.679,0.106,-0.51,0.0
11.917,0.1,-0.549,0.0
11.212,0.094,-0.582,0.0
15.741,0.131,-0.388,0.0
14.306,0.12,-0.436,0.0
13.3,0.112,-0.483,0.0
12.384,0.104,-0.523,0.0
11.68,0.099,-0.562,0.0
10.916,0.093,-0.589,0.0
15.28,0.129,-0.408,0.0
13.989,0.118,-0.455,0.0
13.053,0.11,-0.501,0.0
12.163,0.103,-0.539,0.0
11.378,0.097,-0.571,0.0
10.719,0.091,-0.601,0.0
14.666,0.124,-0.422,0.0
13.666,0.116,-0.473,0.0
12.678,0.108,-0.513,0.0
11.812,0.101,-0.548,0.0
11.147,0.095,-0.583,0.0
10.496,0.09,-0.61,0.0
14.33,0.121,-0.442,0.0
13.264,0.112,-0.486,0.0
12.361,0.105,-0.525,0.0
11.582,0.098,-0.561,0.0
10.871,0.093,-0.591,0.0
10.305,0.088,-0.62,0.0
13.92,0.117,-0.457,0.0
12.956,0.109,-0.501,0.0
12.122,0.102,-0.54,0.0
11.317,0.096,-0.572,0.0
10.632,0.09,-0.599,0.0
10.078,0.085,-0.627,0.0
13.558,0.113,-0.473,0.0
12.621,0.105,-0.514,0.0
11.846,0.099,-0.552,0.0
11.101,0.093,-0.583,0.0
10.469,0.088,-0.611,0.0
9.945,0.083,-0.639,0.0
13.253,0.109,-0.489,0.0
12.347,0.102,-0.528,0.0
11.578,0.095,-0.563,0.0
10.822,0.089,-0.59,0.0
10.308,0.085,-0.623,0.0
9.691,0.08,-0.642,0.0
12.907,0.104,-0.503,0.0
12.083,0.098,-0.541,0.0
11.339,0.092,-0.574,0.0
10.567,0.085,-0.598,0.0
10.093,0.081,-0.63,0.0
9.56,0.077,-0.653,0.0
12.549,0.099,-0.514,0.0
11.788,0.093,-0.551,0.0
11.068,0.087,-0.582,0.0
10.465,0.082,-0.613,0.0
9.801,0.077,-0.631,0.0
9.376,0.073,-0.659,0.0
12.35,0.095,-0.53,0.0
11.555,0.089,-0.563,0.0
10.869,0.083,-0.593,0.0
10.153,0.077,-0.615,0.0
9.656,0.073,-0.641,0.0
9.158,0.07,-0.662,0.0
11.938,0.089,-0.535,0.0
11.305,0.084,-0.573,0.0
10.616,0.078,-0.6,0.0
10.104,0.074,-0.631,0.0
0.0,0.0,0.0,0.0
8.996,0.066,-0.668,0.0
11.811,0.084,-0.553,0.0
11.051,0.078,-0.582,0.0
10.428,0.074,-0.61,0.0
0.0,0.0,0.0,0.0
0.0,0.0,0.0,0.0
8.933,0.062,-0.68,0.0
11.517,0.078,-0.561,0.0
10.758,0.073,-0.587,0.0
10.228,0.069,-0.618,0.0
0.0,0.0,0.0,0.0
9.118,0.061,-0.658,0.0
8.714,0.058,-0.68,0.0
11.337,0.073,-0.574,0.0
10.578,0.068,-0.597,0.0
10.027,0.064,-0.625,0.0
0.0,0.0,0.0,0.0
9.019,0.057,-0.668,0.0
8.524,0.053,-0.682,0.0
11.036,0.067,-0.579,0.0
10.469,0.063,-0.611,0.0
9.856,0.059,-0.633,0.0
0.0,0.0,0.0,0.0
0.0,0.0,0.0,0.0
8.473,0.049,-0.694,0.0
10.781,0.06,-0.586,0.0
10.243,0.057,-0.617,0.0
9.646,0.053,-0.637,0.0
0.0,0.0,0.0,0.0
0.0,0.0,0.0,0.0
8.333,0.045,-0.698,0.0
10.603,0.054,-0.596,0.0
10.079,0.051,-0.626,0.0
9.567,0.048,-0.65,0.0
0.0,0.0,0.0,0.0
0.0,0.0,0.0,0.0
8.249,0.04,-0.706,0.0
10.435,0.048,-0.606,0.0
9.905,0.045,-0.633,0.0
0.0,0.0,0.0,0.0
0.0,0.0,0.0,0.0
8.489,0.037,-0.692,0.0
8.109,0.035,-0.709,0.0
10.278,0.042,-0.615,0.0
9.764,0.039,-0.642,0.0
0.0,0.0,0.0,0.0
0.0,0.0,0.0,0.0
8.424,0.032,-0.702,0.0
8.018,0.03,-0.715,0.0
10.101,0.036,-0.623,0.0
9.586,0.033,-0.647,0.0
0.0,0.0,0.0,0.0
0.0,0.0,0.0,0.0
8.217,0.027,-0.699,0.0
7.913,0.025,-0.72,0.0
9.921,0.029,-0.629,0.0
9.398,0.027,-0.65,0.0
0.0,0.0,0.0,0.0
0.0,0.0,0.0,0.0
8.138,0.021,-0.707,0.0
7.831,0.02,-0.726,0.0
9.817,0.023,-0.639,0.0
0.0,0.0,0.0,0.0
0.0,0.0,0.0,0.0
0.0,0.0,0.0,0.0
8.048,0.016,-0.713,0.0
7.732,0.015,-0.73,0.0
9.642,0.016,-0.644,0.0
0.0,0.0,0.0,0.0
0.0,0.0,0.0,0.0
0.0,0.0,0.0,0.0
0.0,0.0,0.0,0.0
7.628,0.009,-0.733,0.0
9.479,0.009,-0.649,0.0
0.0,0.0,0.0,0.0
0.0,0.0,0.0,0.0
0.0,0.0,0.0,0.0
0.0,0.0,0.0,0.0
0.0,0.0,0.0,0.0
9.314,0.002,-0.653,0.0
0.0,0.0,0.0,0.0
0.0,0.0,0.0,0.0
0.0,0.0,0.0,0.0
7.725,0.0,-0.722,0.0
7.404,-0.001,-0.736,0.0
9.213,-0.004,-0.66,0.0
0.0,0.0,0.0,0.0
0.0,0.0,0.0,0.0
0.0,0.0,0.0,0.0
7.666,-0.006,-0.729,0.0
7.334,-0.007,-0.741,0.0
0.0,0.0,0.0,0.0
0.0,0.0,0.0,0.0
0.0,0.0,0.0,0.0
0.0,0.0,0.0,0.0
7.616,-0.012,-0.736,0.0
7.294,-0.012,-0.748,0.0
0.0,0.0,0.0,0.0
0.0,0.0,0.0,0.0
8.169,-0.018,-0.706,0.0
0.0,0.0,0.0,0.0
0.0,0.0,0.0,0.0
7.17,-0.018,-0.746,0.0
8.728,-0.024,-0.666,0.0
0.0,0.0,0.0,0.0
8.036,-0.024,-0.706,0.0
7.747,-0.024,-0.727,0.0
7.358,-0.024,-0.733,0.0
7.106,-0.024,-0.75,0.0
0.0,0.0,0.0,0.0
0.0,0.0,0.0,0.0
0.0,0.0,0.0,0.0
0.0,0.0,0.0,0.0
7.333,-0.03,-0.742,0.0
7.042,-0.03,-0.753,0.0
8.653,-0.039,-0.685,0.0
8.196,-0.038,-0.697,0.0
0.0,0.0,0.0,0.0
0.0,0.0,0.0,0.0
7.268,-0.036,-0.746,0.0
6.996,-0.036,-0.759,0.0
8.562,-0.047,-0.69,0.0
8.109,-0.045,-0.701,0.0
7.821,-0.045,-0.721,0.0
0.0,0.0,0.0,0.0
7.185,-0.043,-0.747,0.0
6.944,-0.042,-0.763,0.0
8.401,-0.053,-0.688,0.0
8.112,-0.053,-0.712,0.0
0.0,0.0,0.0,0.0
0.0,0.0,0.0,0.0
7.113,-0.049,-0.749,0.0
6.848,-0.048,-0.761,0.0
8.335,-0.061,-0.694,0.0
0.0,0.0,0.0,0.0
0.0,0.0,0.0,0.0
7.329,-0.057,-0.739,0.0
7.031,-0.055,-0.75,0.0
0.0,0.0,0.0,0.0
8.297,-0.069,-0.702,0.0
0.0,0.0,0.0,0.0
0.0,0.0,0.0,0.0
7.28,-0.063,-0.743,0.0
0.0,0.0,0.0,0.0
0.0,0.0,0.0,0.0
8.188,-0.076,-0.703,0.0
0.0,0.0,0.0,0.0
0.0,0.0,0.0,0.0
7.233,-0.07,-0.748,0.0
0.0,0.0,0.0,0.0
0.0,0.0,0.0,0.0
8.11,-0.084,-0.706,0.0
0.0,0.0,0.0,0.0
7.444,-0.079,-0.734,0.0
7.176,-0.077,-0.75,0.0
0.0,0.0,0.0,0.0
0.0,0.0,0.0,0.0
8.027,-0.091,-0.708,0.0
0.0,0.0,0.0,0.0
7.365,-0.086,-0.735,0.0
7.112,-0.084,-0.752,0.0
0.0,0.0,0.0,0.0
6.571,-0.08,-0.771,0.0
7.938,-0.098,-0.71,0.0
0.0,0.0,0.0,0.0
7.317,-0.093,-0.739,0.0
0.0,0.0,0.0,0.0
0.0,0.0,0.0,0.0
6.506,-0.086,-0.771,0.0
7.929,-0.107,-0.718,0.0
0.0,0.0,0.0,0.0
7.265,-0.1,-0.741,0.0
0.0,0.0,0.0,0.0
0.0,0.0,0.0,0.0
0.0,0.0,0.0,0.0
7.807,-0.114,-0.715,0.0
0.0,0.0,0.0,0.0
7.192,-0.107,-0.742,0.0
0.0,0.0,0.0,0.0
0.0,0.0,0.0,0.0
0.0,0.0,0.0,0.0
7.761,-0.121,-0.718,0.0
0.0,0.0,0.0,0.0
7.126,-0.114,-0.742,0.0
0.0,0.0,0.0,0.0
0.0,0.0,0.0,0.0
0.0,0.0,0.0,0.0
7.717,-0.129,-0.722,0.0
7.416,-0.126,-0.736,0.0
7.134,-0.122,-0.75,0.0
0.0,0.0,0.0,0.0
0.0,0.0,0.0,0.0
0.0,0.0,0.0,0.0
0.0,0.0,0.0,0.0
7.348,-0.133,-0.737,0.0
7.043,-0.129,-0.747,0.0
0.0,0.0,0.0,0.0
0.0,0.0,0.0,0.0
0.0,0.0,0.0,0.0
0.0,0.0,0.0,0.0
7.329,-0.141,-0.741,0.0
7.027,-0.136,-0.751,0.0
0.0,0.0,0.0,0.0
0.0,0.0,0.0,0.0
0.0,0.0,0.0,0.0
0.0,0.0,0.0,0.0
7.255,-0.148,-0.74,0.0
0.0,0.0,0.0,0.0
0.0,0.0,0.0,0.0
0.0,0.0,0.0,0.0
0.0,0.0,0.0,0.0
0.0,0.0,0.0,0.0
7.231,-0.156,-0.743,0.0
0.0,0.0,0.0,0.0
0.0,0.0,0.0,0.0
0.0,0.0,0.0,0.0
0.0,0.0,0.0,0.0
0.0,0.0,0.0,0.0
7.201,-0.164,-0.745,0.0
0.0,0.0,0.0,0.0
0.0,0.0,0.0,0.0
0.0,0.0,0.0,0.0
0.0,0.0,0.0,0.0
0.0,0.0,0.0,0.0
7.164,-0.171,-0.747,0.0
0.0,0.0,0.0,0.0
0.0,0.0,0.0,0.0
0.0,0.0,0.0,0.0
0.0,0.0,0.0,0.0
0.0,0.0,0.0,0.0
7.091,-0.178,-0.744,0.0
0.0,0.0,0.0,0.0
0.0,0.0,0.0,0.0
0.0,0.0,0.0,0.0
0.0,0.0,0.0,0.0
7.349,-0.192,-0.734,0.0
7.059,-0.186,-0.745,0.0
0.0,0.0,0.0,0.0
0.0,0.0,0.0,0.0
0.0,0.0,0.0,0.0
0.0,0.0,0.0,0.0
7.318,-0.2,-0.735,0.0
7.075,-0.195,-0.751,0.0
6.765,-0.188,-0.756,0.0
0.0,0.0,0.0,0.0
0.0,0.0,0.0,0.0
0.0,0.0,0.0,0.0
7.285,-0.208,-0.735,0.0
7.058,-0.203,-0.753,0.0
6.796,-0.197,-0.764,0.0
0.0,0.0,0.0,0.0
0.0,0.0,0.0,0.0
0.0,0.0,0.0,0.0
7.297,-0.217,-0.74,0.0
6.974,-0.209,-0.747,0.0
0.0,0.0,0.0,0.0
0.0,0.0,0.0,0.0
0.0,0.0,0.0,0.0
0.0,0.0,0.0,0.0
7.25,-0.224,-0.739,0.0
0.0,0.0,0.0,0.0
0.0,0.0,0.0,0.0
0.0,0.0,0.0,0.0
0.0,0.0,0.0,0.0
0.0,0.0,0.0,0.0
7.241,-0.233,-0.741,0.0
0.0,0.0,0.0,0.0
0.0,0.0,0.0,0.0
0.0,0.0,0.0,0.0
0.0,0.0,0.0,0.0
0.0,0.0,0.0,0.0
7.235,-0.242,-0.743,0.0
0.0,0.0,0.0,0.0
0.0,0.0,0.0,0.0
0.0,0.0,0.0,0.0
0.0,0.0,0.0,0.0
0.0,0.0,0.0,0.0
7.2,-0.249,-0.741,0.0
0.0,0.0,0.0,0.0
0.0,0.0,0.0,0.0
0.0,0.0,0.0,0.0
0.0,0.0,0.0,0.0
0.0,0.0,0.0,0.0
7.199,-0.258,-0.743,0.0
0.0,0.0,0.0,0.0
0.0,0.0,0.0,0.0
0.0,0.0,0.0,0.0
0.0,0.0,0.0,0.0
0.0,0.0,0.0,0.0
7.189,-0.266,-0.744,0.0
6.926,-0.258,-0.756,0.0
0.0,0.0,0.0,0.0
0.0,0.0,0.0,0.0
0.0,0.0,0.0,0.0
0.0,0.0,0.0,0.0
7.165,-0.274,-0.742,0.0
6.922,-0.266,-0.756,0.0
0.0,0.0,0.0,0.0
0.0,0.0,0.0,0.0
0.0,0.0,0.0,0.0
0.0,0.0,0.0,0.0
7.158,-0.282,-0.743,0.0
6.89,-0.273,-0.754,0.0
0.0,0.0,0.0,0.0
0.0,0.0,0.0,0.0
0.0,0.0,0.0,0.0
0.0,0.0,0.0,0.0
7.118,-0.289,-0.739,0.0
6.876,-0.281,-0.753,0.0
0.0,0.0,0.0,0.0
0.0,0.0,0.0,0.0
0.0,0.0,0.0,0.0
0.0,0.0,0.0,0.0
7.137,-0.298,-0.741,0.0
6.942,-0.292,-0.76,0.0
6.623,-0.28,-0.762,0.0
0.0,0.0,0.0,0.0
0.0,0.0,0.0,0.0
0.0,0.0,0.0,0.0
7.13,-0.307,-0.741,0.0
6.87,-0.297,-0.752,0.0
0.0,0.0,0.0,0.0
0.0,0.0,0.0,0.0
0.0,0.0,0.0,0.0
0.0,0.0,0.0,0.0
7.181,-0.317,-0.745,0.0
6.792,-0.302,-0.743,0.0
6.664,-0.297,-0.767,0.0
0.0,0.0,0.0,0.0
0.0,0.0,0.0,0.0
0.0,0.0,0.0,0.0
7.156,-0.324,-0.742,0.0
6.897,-0.314,-0.754,0.0
6.692,-0.306,-0.769,0.0
0.0,0.0,0.0,0.0
0.0,0.0,0.0,0.0
0.0,0.0,0.0,0.0
7.156,-0.333,-0.741,0.0
6.935,-0.324,-0.757,0.0
6.66,-0.313,-0.764,0.0
0.0,0.0,0.0,0.0
0.0,0.0,0.0,0.0
0.0,0.0,0.0,0.0
7.18,-0.342,-0.742,0.0
6.922,-0.331,-0.754,0.0
6.646,-0.319,-0.761,0.0
0.0,0.0,0.0,0.0
0.0,0.0,0.0,0.0
0.0,0.0,0.0,0.0
7.193,-0.351,-0.742,0.0
6.914,-0.339,-0.752,0.0
0.0,0.0,0.0,0.0
0.0,0.0,0.0,0.0
0.0,0.0,0.0,0.0
0.0,0.0,0.0,0.0
7.212,-0.36,-0.742,0.0
6.954,-0.348,-0.754,0.0
6.725,-0.338,-0.767,0.0
0.0,0.0,0.0,0.0
0.0,0.0,0.0,0.0
0.0,0.0,0.0,0.0
7.224,-0.368,-0.741,0.0
6.942,-0.355,-0.751,0.0
0.0,0.0,0.0,0.0
0.0,0.0,0.0,0.0
0.0,0.0,0.0,0.0
0.0,0.0,0.0,0.0
7.243,-0.377,-0.74,0.0
6.983,-0.365,-0.752,0.0
6.733,-0.353,-0.763,0.0
0.0,0.0,0.0,0.0
0.0,0.0,0.0,0.0
0.0,0.0,0.0,0.0
7.259,-0.385,-0.739,0.0
7.006,-0.373,-0.752,0.0
6.748,-0.361,-0.762,0.0
0.0,0.0,0.0,0.0
0.0,0.0,0.0,0.0
0.0,0.0,0.0,0.0
7.291,-0.395,-0.739,0.0
6.967,-0.379,-0.745,0.0
6.765,-0.369,-0.761,0.0
0.0,0.0,0.0,0.0
0.0,0.0,0.0,0.0
0.0,0.0,0.0,0.0
7.26,-0.4,-0.732,0.0
6.985,-0.387,-0.743,0.0
6.799,-0.378,-0.761,0.0
6.54,-0.365,-0.769,0.0
0.0,0.0,0.0,0.0
0.0,0.0,0.0,0.0
7.317,-0.411,-0.734,0.0
7.092,-0.4,-0.751,0.0
6.811,-0.385,-0.759,0.0
6.582,-0.374,-0.77,0.0
6.389,-0.364,-0.783,0.0
0.0,0.0,0.0,0.0
7.356,-0.42,-0.734,0.0
7.034,-0.403,-0.74,0.0
6.81,-0.392,-0.754,0.0
6.568,-0.379,-0.765,0.0
0.0,0.0,0.0,0.0
6.177,-0.359,-0.788,0.0
0.0,0.0,0.0,0.0
7.054,-0.411,-0.738,0.0
6.852,-0.401,-0.755,0.0
0.0,0.0,0.0,0.0
0.0,0.0,0.0,0.0
0.0,0.0,0.0,0.0
0.0,0.0,0.0,0.0
7.161,-0.424,-0.745,0.0
6.903,-0.41,-0.756,0.0
0.0,0.0,0.0,0.0
0.0,0.0,0.0,0.0
0.0,0.0,0.0,0.0
7.513,-0.45,-0.735,0.0
7.192,-0.432,-0.743,0.0
6.933,-0.418,-0.754,0.0
0.0,0.0,0.0,0.0
0.0,0.0,0.0,0.0
0.0,0.0,0.0,0.0
0.0,0.0,0.0,0.0
7.247,-0.442,-0.743,0.0
7.007,-0.429,-0.757,0.0
6.715,-0.412,-0.763,0.0
0.0,0.0,0.0,0.0
0.0,0.0,0.0,0.0
0.0,0.0,0.0,0.0
7.27,-0.45,-0.74,0.0
6.985,-0.433,-0.749,0.0
6.733,-0.419,-0.76,0.0
0.0,0.0,0.0,0.0
0.0,0.0,0.0,0.0
0.0,0.0,0.0,0.0
7.261,-0.455,-0.733,0.0
7.031,-0.442,-0.748,0.0
6.75,-0.426,-0.756,0.0
6.525,-0.413,-0.766,0.0
0.0,0.0,0.0,0.0
0.0,0.0,0.0,0.0
7.327,-0.465,-0.733,0.0
7.018,-0.447,-0.741,0.0
6.801,-0.434,-0.756,0.0
0.0,0.0,0.0,0.0
6.364,-0.409,-0.777,0.0
0.0,0.0,0.0,0.0
0.0,0.0,0.0,0.0
7.096,-0.457,-0.742,0.0
0.0,0.0,0.0,0.0
6.614,-0.429,-0.765,0.0
0.0,0.0,0.0,0.0
7.717,-0.501,-0.716,0.0
0.0,0.0,0.0,0.0
7.114,-0.464,-0.738,0.0
0.0,0.0,0.0,0.0
6.679,-0.438,-0.766,0.0
6.427,-0.422,-0.772,0.0
7.758,-0.509,-0.713,0.0
0.0,0.0,0.0,0.0
7.228,-0.476,-0.742,0.0
0.0,0.0,0.0,0.0
6.709,-0.444,-0.763,0.0
6.496,-0.432,-0.774,0.0
7.863,-0.521,-0.714,0.0
0.0,0.0,0.0,0.0
7.258,-0.483,-0.738,0.0
0.0,0.0,0.0,0.0
6.771,-0.453,-0.763,0.0
6.533,-0.438,-0.772,0.0
7.925,-0.53,-0.712,0.0
0.0,0.0,0.0,0.0
7.299,-0.491,-0.735,0.0
0.0,0.0,0.0,0.0
6.819,-0.461,-0.761,0.0
6.582,-0.446,-0.771,0.0
7.971,-0.538,-0.708,0.0
0.0,0.0,0.0,0.0
0.0,0.0,0.0,0.0
7.073,-0.481,-0.744,0.0
6.85,-0.467,-0.757,0.0
6.634,-0.453,-0.769,0.0
8.04,-0.548,-0.705,0.0
0.0,0.0,0.0,0.0
0.0,0.0,0.0,0.0
7.095,-0.486,-0.738,0.0
0.0,0.0,0.0,0.0
6.673,-0.459,-0.766,0.0
8.084,-0.555,-0.7,0.0
0.0,0.0,0.0,0.0
0.0,0.0,0.0,0.0
7.237,-0.5,-0.744,0.0
0.0,0.0,0.0,0.0
6.735,-0.467,-0.766,0.0
8.15,-0.564,-0.696,0.0
0.0,0.0,0.0,0.0
0.0,0.0,0.0,0.0
7.263,-0.505,-0.739,0.0
0.0,0.0,0.0,0.0
6.783,-0.474,-0.763,0.0
8.195,-0.571,-0.691,0.0
7.909,-0.552,-0.709,0.0
0.0,0.0,0.0,0.0
0.0,0.0,0.0,0.0
7.083,-0.497,-0.75,0.0
6.803,-0.478,-0.757,0.0
8.297,-0.582,-0.689,0.0
8.032,-0.564,-0.71,0.0
0.0,0.0,0.0,0.0
0.0,0.0,0.0,0.0
7.133,-0.504,-0.746,0.0
6.857,-0.485,-0.755,0.0
8.358,-0.59,-0.684,0.0
8.069,-0.57,-0.703,0.0
7.74,-0.548,-0.716,0.0
0.0,0.0,0.0,0.0
7.22,-0.513,-0.746,0.0
0.0,0.0,0.0,0.0
8.457,-0.6,-0.681,0.0
8.132,-0.578,-0.699,0.0
7.808,-0.555,-0.713,0.0
0.0,0.0,0.0,0.0
7.254,-0.517,-0.741,0.0
7.04,-0.503,-0.757,0.0
8.512,-0.607,-0.675,0.0
8.214,-0.586,-0.695,0.0
7.941,-0.567,-0.714,0.0
0.0,0.0,0.0,0.0
7.307,-0.524,-0.736,0.0
7.042,-0.505,-0.747,0.0
8.605,-0.616,-0.671,0.0
8.273,-0.593,-0.689,0.0
8.012,-0.575,-0.71,0.0
0.0,0.0,0.0,0.0
0.0,0.0,0.0,0.0
7.147,-0.515,-0.749,0.0
8.739,-0.628,-0.67,0.0
8.341,-0.6,-0.684,0.0
8.121,-0.585,-0.709,0.0
0.0,0.0,0.0,0.0
0.0,0.0,0.0,0.0
7.219,-0.521,-0.747,0.0
8.857,-0.638,-0.667,0.0
8.453,-0.61,-0.681,0.0
8.119,-0.586,-0.698,0.0
0.0,0.0,0.0,0.0
0.0,0.0,0.0,0.0
7.29,-0.528,-0.744,0.0
8.869,-0.641,-0.655,0.0
8.588,-0.621,-0.68,0.0
8.211,-0.594,-0.694,0.0
0.0,0.0,0.0,0.0
0.0,0.0,0.0,0.0
7.323,-0.531,-0.737,0.0
9.025,-0.653,-0.654,0.0
8.662,-0.627,-0.674,0.0
8.347,-0.605,-0.694,0.0
0.0,0.0,0.0,0.0
0.0,0.0,0.0,0.0
7.422,-0.539,-0.736,0.0
9.221,-0.668,-0.656,0.0
8.904,-0.646,-0.68,0.0
8.406,-0.61,-0.687,0.0
0.0,0.0,0.0,0.0
0.0,0.0,0.0,0.0
7.483,-0.544,-0.732,0.0
9.334,-0.677,-0.65,0.0
8.878,-0.644,-0.665,0.0
8.496,-0.617,-0.682,0.0
0.0,0.0,0.0,0.0
7.852,-0.571,-0.714,0.0
0.0,0.0,0.0,0.0
9.399,-0.682,-0.641,0.0
0.0,0.0,0.0,0.0
8.576,-0.623,-0.676,0.0
0.0,0.0,0.0,0.0
8.009,-0.582,-0.717,0.0
0.0,0.0,0.0,0.0
9.582,-0.695,-0.639,0.0
0.0,0.0,0.0,0.0
0.0,0.0,0.0,0.0
0.0,0.0,0.0,0.0
8.019,-0.582,-0.706,0.0
7.786,-0.566,-0.727,0.0
9.675,-0.701,-0.631,0.0
0.0,0.0,0.0,0.0
8.828,-0.64,-0.669,0.0
8.406,-0.61,-0.683,0.0
8.153,-0.591,-0.705,0.0
7.813,-0.567,-0.717,0.0
9.826,-0.711,-0.626,0.0
9.367,-0.678,-0.646,0.0
0.0,0.0,0.0,0.0
8.521,-0.617,-0.679,0.0
0.0,0.0,0.0,0.0
7.931,-0.574,-0.716,0.0
9.934,-0.717,-0.618,0.0
9.553,-0.69,-0.645,0.0
0.0,0.0,0.0,0.0
0.0,0.0,0.0,0.0
8.265,-0.597,-0.69,0.0
7.971,-0.576,-0.707,0.0
10.131,-0.73,-0.615,0.0
9.642,-0.694,-0.636,0.0
9.069,-0.653,-0.646,0.0
8.793,-0.633,-0.674,0.0
8.429,-0.607,-0.69,0.0
8.064,-0.581,-0.703,0.0
10.372,-0.745,-0.614,0.0
9.865,-0.708,-0.636,0.0
9.324,-0.669,-0.65,0.0
0.0,0.0,0.0,0.0
8.517,-0.611,-0.684,0.0
8.162,-0.585,-0.699,0.0
10.43,-0.746,-0.601,0.0
9.875,-0.706,-0.621,0.0
0.0,0.0,0.0,0.0
0.0,0.0,0.0,0.0
8.616,-0.615,-0.679,0.0
8.264,-0.59,-0.695,0.0
10.646,-0.758,-0.597,0.0
10.095,-0.719,-0.619,0.0
9.609,-0.684,-0.64,0.0
0.0,0.0,0.0,0.0
8.754,-0.622,-0.676,0.0
8.34,-0.592,-0.688,0.0
10.877,-0.771,-0.593,0.0
10.263,-0.727,-0.613,0.0
9.745,-0.69,-0.633,0.0
0.0,0.0,0.0,0.0
8.86,-0.626,-0.67,0.0
8.482,-0.599,-0.686,0.0
11.025,-0.777,-0.583,0.0
10.398,-0.732,-0.604,0.0
9.872,-0.695,-0.626,0.0
0.0,0.0,0.0,0.0
0.0,0.0,0.0,0.0
8.606,-0.604,-0.682,0.0
11.209,-0.785,-0.575,0.0
10.582,-0.74,-0.599,0.0
10.028,-0.701,-0.62,0.0
0.0,0.0,0.0,0.0
9.087,-0.634,-0.658,0.0
8.667,-0.604,-0.673,0.0
11.407,-0.793,-0.567,0.0
10.812,-0.751,-0.594,0.0
10.221,-0.709,-0.616,0.0
9.685,-0.671,-0.635,0.0
9.257,-0.641,-0.656,0.0
8.799,-0.609,-0.669,0.0
11.601,-0.801,-0.559,0.0
11.074,-0.763,-0.591,0.0
10.381,-0.715,-0.608,0.0
9.839,-0.676,-0.629,0.0
9.345,-0.642,-0.647,0.0
8.87,-0.609,-0.66,0.0
11.856,-0.811,-0.552,0.0
11.157,-0.762,-0.578,0.0
10.537,-0.719,-0.601,0.0
9.99,-0.681,-0.623,0.0
9.555,-0.65,-0.646,0.0
9.044,-0.615,-0.659,0.0
12.005,-0.814,-0.54,0.0
11.337,-0.768,-0.569,0.0
10.832,-0.732,-0.6,0.0
10.121,-0.683,-0.615,0.0
9.658,-0.651,-0.638,0.0
9.208,-0.62,-0.656,0.0
12.284,-0.825,-0.532,0.0
11.582,-0.777,-0.563,0.0
10.973,-0.735,-0.59,0.0
10.388,-0.694,-0.615,0.0
9.765,-0.652,-0.629,0.0
9.336,-0.622,-0.65,0.0
12.393,-0.824,-0.518,0.0
11.743,-0.779,-0.552,0.0
11.107,-0.736,-0.58,0.0
10.454,-0.691,-0.602,0.0
9.876,-0.652,-0.62,0.0
9.547,-0.629,-0.65,0.0
12.69,-0.834,-0.51,0.0
11.914,-0.782,-0.541,0.0
11.29,-0.739,-0.571,0.0
10.676,-0.698,-0.597,0.0
10.126,-0.66,-0.62,0.0
9.657,-0.629,-0.642,0.0
12.956,-0.841,-0.5,0.0
12.159,-0.788,-0.532,0.0
11.491,-0.743,-0.563,0.0
10.945,-0.706,-0.595,0.0
10.348,-0.666,-0.616,0.0
9.743,-0.626,-0.632,0.0
13.187,-0.845,-0.487,0.0
12.43,-0.795,-0.524,0.0
11.744,-0.75,-0.557,0.0
11.059,-0.704,-0.583,0.0
10.481,-0.666,-0.608,0.0
9.963,-0.632,-0.63,0.0
13.531,-0.856,-0.479,0.0
12.641,-0.797,-0.513,0.0
11.854,-0.746,-0.543,0.0
11.348,-0.713,-0.581,0.0
10.646,-0.667,-0.6,0.0
10.086,-0.63,-0.622,0.0
13.776,-0.859,-0.465,0.0
12.971,-0.806,-0.506,0.0
12.108,-0.751,-0.536,0.0
11.494,-0.711,-0.57,0.0
10.886,-0.672,-0.597,0.0
10.251,-0.631,-0.616,0.0
14.081,-0.864,-0.454,0.0
13.094,-0.802,-0.49,0.0
12.391,-0.756,-0.529,0.0
11.713,-0.713,-0.562,0.0
11.059,-0.672,-0.589,0.0
10.468,-0.634,-0.612,0.0
14.352,-0.867,-0.44,0.0
13.476,-0.811,-0.483,0.0
12.613,-0.757,-0.518,0.0
11.872,-0.711,-0.551,0.0
11.209,-0.669,-0.579,0.0
10.623,-0.632,-0.605,0.0
14.717,-0.873,-0.428,0.0
13.713,-0.811,-0.47,0.0
12.803,-0.755,-0.506,0.0
11.997,-0.706,-0.538,0.0
11.401,-0.668,-0.571,0.0
10.831,-0.633,-0.6,0.0
14.89,-0.868,-0.41,0.0
13.985,-0.812,-0.458,0.0
13.05,-0.756,-0.496,0.0
12.319,-0.711,-0.534,0.0
11.629,-0.669,-0.565,0.0
10.991,-0.63,-0.591,0.0
15.264,-0.873,-0.397,0.0
14.29,-0.814,-0.446,0.0
13.354,-0.758,-0.487,0.0
12.494,-0.707,-0.522,0.0
11.852,-0.668,-0.557,0.0
11.208,-0.63,-0.586,0.0
15.846,-0.887,-0.387,0.0
14.615,-0.815,-0.434,0.0
13.612,-0.757,-0.475,0.0
12.72,-0.705,-0.512,0.0
11.986,-0.661,-0.545,0.0
11.355,-0.624,-0.576,0.0
16.189,-0.888,-0.371,0.0
14.84,-0.81,-0.418,0.0
13.903,-0.756,-0.464,0.0
12.965,-0.702,-0.502,0.0
12.287,-0.663,-0.54,0.0
11.554,-0.621,-0.569,0.0
16.694,-0.895,-0.358,0.0
15.265,-0.815,-0.407,0.0
14.125,-0.751,-0.451,0.0
13.223,-0.7,-0.492,0.0
12.425,-0.655,-0.528,0.0
11.746,-0.617,-0.561,0.0
17.127,-0.896,-0.342,0.0
15.742,-0.82,-0.397,0.0
14.514,-0.753,-0.442,0.0
13.426,-0.694,-0.48,0.0
12.626,-0.649,-0.518,0.0
11.961,-0.613,-0.554,0.0
17.463,-0.891,-0.323,0.0
16.109,-0.819,-0.382,0.0
14.744,-0.746,-0.427,0.0
13.701,-0.69,-0.47,0.0
12.855,-0.644,-0.509,0.0
12.164,-0.607,-0.545,0.0
17.98,-0.894,-0.306,0.0
16.515,-0.817,-0.368,0.0
15.05,-0.741,-0.414,0.0
14.01,-0.686,-0.461,0.0
13.133,-0.64,-0.501,0.0
12.369,-0.6,-0.537,0.0
18.579,-0.898,-0.29,0.0
16.929,-0.814,-0.353,0.0
15.459,-0.74,-0.404,0.0
14.306,-0.681,-0.45,0.0
13.386,-0.634,-0.491,0.0
12.552,-0.591,-0.527,0.0
19.152,-0.899,-0.272,0.0
17.29,-0.807,-0.336,0.0
15.895,-0.738,-0.392,0.0
14.6,-0.674,-0.439,0.0
13.587,-0.624,-0.48,0.0
12.782,-0.584,-0.518,0.0
19.551,-0.889,-0.25,0.0
17.67,-0.799,-0.319,0.0
16.272,-0.732,-0.379,0.0
14.825,-0.663,-0.425,0.0
13.897,-0.618,-0.471,0.0
12.915,-0.571,-0.506,0.0
