X,Y,Z,Reflectivity
0.0,0.0,0.0,0.0
6.955,0.0,-0.757,0.0
0.0,0.0,0.0,0.0
0.0,0.0,0.0,0.0
0.0,0.0,0.0,0.0
0.0,0.0,0.0,0.0
0.0,0.0,0.0,0.0
7.009,-0.008,-0.758,0.0
0.0,0.0,0.0,0.0
0.0,0.0,0.0,0.0
0.0,0.0,0.0,0.0
0.0,0.0,0.0,0.0
0.0,0.0,0.0,0.0
7.064,-0.015,-0.76,0.0
0.0,0.0,0.0,0.0
0.0,0.0,0.0,0.0
0.0,0.0,0.0,0.0
0.0,0.0,0.0,0.0
0.0,0.0,0.0,0.0
7.077,-0.023,-0.756,0.0
0.0,0.0,0.0,0.0
0.0,0.0,0.0,0.0
0.0,0.0,0.0,0.0
0.0,0.0,0.0,0.0
0.0,0.0,0.0,0.0
7.073,-0.03,-0.75,0.0
0.0,0.0,0.0,0.0
0.0,0.0,0.0,0.0
0.0,0.0,0.0,0.0
0.0,0.0,0.0,0.0
0.0,0.0,0.0,0.0
7.097,-0.038,-0.748,0.0
0.0,0.0,0.0,0.0
0.0,0.0,0.0,0.0
0.0,0.0,0.0,0.0
0.0,0.0,0.0,0.0
0.0,0.0,0.0,0.0
7.182,-0.045,-0.751,0.0
0.0,0.0,0.0,0.0
0.0,0.0,0.0,0.0
0.0,0.0,0.0,0.0
0.0,0.0,0.0,0.0
0.0,0.0,0.0,0.0
7.198,-0.053,-0.746,0.0
0.0,0.0,0.0,0.0
0.0,0.0,0.0,0.0
0.0,0.0,0.0,0.0
0.0,0.0,0.0,0.0
0.0,0.0,0.0,0.0
7.248,-0.06,-0.745,0.0
0.0,0.0,0.0,0.0
0.0,0.0,0.0,0.0
0.0,0.0,0.0,0.0
0.0,0.0,0.0,0.0
0.0,0.0,0.0,0.0
7.294,-0.068,-0.743,0.0
0.0,0.0,0.0,0.0
0.0,0.0,0.0,0.0
0.0,0.0,0.0,0.0
0.0,0.0,0.0,0.0
0.0,0.0,0.0,0.0
7.342,-0.075,-0.74,0.0
7.05,-0.073,-0.749,0.0
0.0,0.0,0.0,0.0
0.0,0.0,0.0,0.0
0.0,0.0,0.0,0.0
0.0,0.0,0.0,0.0
7.384,-0.082,-0.737,0.0
7.138,-0.081,-0.751,0.0
0.0,0.0,0.0,0.0
0.0,0.0,0.0,0.0
0.0,0.0,0.0,0.0
0.0,0.0,0.0,0.0
0.0,0.0,0.0,0.0
7.158,-0.088,-0.746,0.0
0.0,0.0,0.0,0.0
0.0,0.0,0.0,0.0
0.0,0.0,0.0,0.0
0.0,0.0,0.0,0.0
0.0,0.0,0.0,0.0
7.225,-0.095,-0.745,0.0
0.0,0.0,0.0,0.0
0.0,0.0,0.0,0.0
0.0,0.0,0.0,0.0
0.0,0.0,0.0,0.0
0.0,0.0,0.0,0.0
7.316,-0.102,-0.746,0.0
0.0,0.0,0.0,0.0
0.0,0.0,0.0,0.0
0.0,0.0,0.0,0.0
0.0,0.0,0.0,0.0
0.0,0.0,0.0,0.0
7.331,-0.108,-0.739,0.0
7.087,-0.106,-0.752,0.0
0.0,0.0,0.0,0.0
0.0,0.0,0.0,0.0
0.0,0.0,0.0,0.0
0.0,0.0,0.0,0.0
0.0,0.0,0.0,0.0
7.142,-0.112,-0.749,0.0
0.0,0.0,0.0,0.0
0.0,0.0,0.0,0.0
0.0,0.0,0.0,0.0
0.0,0.0,0.0,0.0
0.0,0.0,0.0,0.0
7.227,-0.119,-0.749,0.0
0.0,0.0,0.0,0.0
0.0,0.0,0.0,0.0
0.0,0.0,0.0,0.0
0.0,0.0,0.0,0.0
0.0,0.0,0.0,0.0
7.256,-0.125,-0.743,0.0
0.0,0.0,0.0,0.0
0.0,0.0,0.0,0.0
0.0,0.0,0.0,0.0
7.983,-0.141,-0.721,0.0
0.0,0.0,0.0,0.0
7.32,-0.132,-0.739,0.0
0.0,0.0,0.0,0.0
0.0,0.0,0.0,0.0
0.0,0.0,0.0,0.0
8.03,-0.148,-0.714,0.0
0.0,0.0,0.0,0.0
0.0,0.0,0.0,0.0
7.13,-0.134,-0.749,0.0
0.0,0.0,0.0,0.0
0.0,0.0,0.0,0.0
8.131,-0.155,-0.712,0.0
0.0,0.0,0.0,0.0
0.0,0.0,0.0,0.0
7.192,-0.14,-0.746,0.0
0.0,0.0,0.0,0.0
0.0,0.0,0.0,0.0
8.183,-0.161,-0.705,0.0
0.0,0.0,0.0,0.0
0.0,0.0,0.0,0.0
7.288,-0.147,-0.745,0.0
0.0,0.0,0.0,0.0
6.756,-0.138,-0.763,0.0
8.303,-0.169,-0.703,0.0
0.0,0.0,0.0,0.0
0.0,0.0,0.0,0.0
7.318,-0.152,-0.737,0.0
7.127,-0.149,-0.756,0.0
0.0,0.0,0.0,0.0
0.0,0.0,0.0,0.0
0.0,0.0,0.0,0.0
0.0,0.0,0.0,0.0
0.0,0.0,0.0,0.0
7.177,-0.154,-0.75,0.0
0.0,0.0,0.0,0.0
8.492,-0.183,-0.693,0.0
0.0,0.0,0.0,0.0
0.0,0.0,0.0,0.0
0.0,0.0,0.0,0.0
7.265,-0.16,-0.748,0.0
7.009,-0.155,-0.759,0.0
8.599,-0.189,-0.689,0.0
0.0,0.0,0.0,0.0
0.0,0.0,0.0,0.0
0.0,0.0,0.0,0.0
7.32,-0.165,-0.742,0.0
7.072,-0.16,-0.755,0.0
8.618,-0.194,-0.677,0.0
0.0,0.0,0.0,0.0
0.0,0.0,0.0,0.0
0.0,0.0,0.0,0.0
0.0,0.0,0.0,0.0
7.165,-0.165,-0.753,0.0
0.0,0.0,0.0,0.0
0.0,0.0,0.0,0.0
0.0,0.0,0.0,0.0
0.0,0.0,0.0,0.0
0.0,0.0,0.0,0.0
7.209,-0.17,-0.746,0.0
0.0,0.0,0.0,0.0
8.581,-0.202,-0.691,0.0
0.0,0.0,0.0,0.0
0.0,0.0,0.0,0.0
0.0,0.0,0.0,0.0
7.313,-0.175,-0.745,0.0
0.0,0.0,0.0,0.0
8.612,-0.206,-0.68,0.0
0.0,0.0,0.0,0.0
0.0,0.0,0.0,0.0
0.0,0.0,0.0,0.0
0.0,0.0,0.0,0.0
9.216,-0.223,-0.663,0.0
0.0,0.0,0.0,0.0
0.0,0.0,0.0,0.0
0.0,0.0,0.0,0.0
0.0,0.0,0.0,0.0
0.0,0.0,0.0,0.0
0.0,0.0,0.0,0.0
0.0,0.0,0.0,0.0
8.569,-0.211,-0.692,0.0
0.0,0.0,0.0,0.0
0.0,0.0,0.0,0.0
0.0,0.0,0.0,0.0
0.0,0.0,0.0,0.0
0.0,0.0,0.0,0.0
8.614,-0.215,-0.681,0.0
0.0,0.0,0.0,0.0
0.0,0.0,0.0,0.0
0.0,0.0,0.0,0.0
9.603,-0.24,-0.641,0.0
9.142,-0.229,-0.658,0.0
0.0,0.0,0.0,0.0
0.0,0.0,0.0,0.0
8.135,-0.206,-0.715,0.0
0.0,0.0,0.0,0.0
9.788,-0.247,-0.636,0.0
0.0,0.0,0.0,0.0
0.0,0.0,0.0,0.0
0.0,0.0,0.0,0.0
8.209,-0.209,-0.707,0.0
0.0,0.0,0.0,0.0
9.992,-0.254,-0.632,0.0
0.0,0.0,0.0,0.0
0.0,0.0,0.0,0.0
0.0,0.0,0.0,0.0
8.373,-0.215,-0.706,0.0
8.039,-0.207,-0.72,0.0
10.106,-0.258,-0.621,0.0
9.706,-0.249,-0.647,0.0
9.213,-0.236,-0.662,0.0
0.0,0.0,0.0,0.0
0.0,0.0,0.0,0.0
8.116,-0.209,-0.712,0.0
10.388,-0.267,-0.62,0.0
0.0,0.0,0.0,0.0
9.325,-0.24,-0.653,0.0
0.0,0.0,0.0,0.0
8.567,-0.221,-0.691,0.0
8.264,-0.214,-0.71,0.0
10.605,-0.273,-0.613,0.0
10.011,-0.258,-0.631,0.0
0.0,0.0,0.0,0.0
0.0,0.0,0.0,0.0
8.647,-0.224,-0.681,0.0
8.319,-0.215,-0.699,0.0
10.745,-0.277,-0.601,0.0
10.249,-0.264,-0.627,0.0
9.63,-0.249,-0.639,0.0
0.0,0.0,0.0,0.0
0.0,0.0,0.0,0.0
8.515,-0.22,-0.699,0.0
10.993,-0.283,-0.595,0.0
10.368,-0.267,-0.615,0.0
0.0,0.0,0.0,0.0
0.0,0.0,0.0,0.0
9.032,-0.233,-0.678,0.0
8.59,-0.222,-0.689,0.0
11.155,-0.287,-0.582,0.0
10.55,-0.271,-0.606,0.0
10.156,-0.261,-0.636,0.0
9.655,-0.249,-0.655,0.0
0.0,0.0,0.0,0.0
8.739,-0.225,-0.684,0.0
11.433,-0.293,-0.575,0.0
10.821,-0.277,-0.6,0.0
10.259,-0.263,-0.622,0.0
9.739,-0.25,-0.643,0.0
0.0,0.0,0.0,0.0
8.866,-0.227,-0.677,0.0
11.624,-0.296,-0.562,0.0
11.076,-0.282,-0.593,0.0
10.392,-0.265,-0.611,0.0
0.0,0.0,0.0,0.0
0.0,0.0,0.0,0.0
9.063,-0.231,-0.675,0.0
11.93,-0.302,-0.554,0.0
11.323,-0.287,-0.585,0.0
10.681,-0.27,-0.607,0.0
0.0,0.0,0.0,0.0
9.666,-0.244,-0.651,0.0
9.172,-0.232,-0.665,0.0
12.145,-0.305,-0.541,0.0
11.474,-0.288,-0.571,0.0
10.934,-0.274,-0.6,0.0
10.208,-0.256,-0.614,0.0
9.823,-0.246,-0.642,0.0
9.402,-0.235,-0.664,0.0
12.437,-0.309,-0.53,0.0
11.739,-0.292,-0.561,0.0
11.113,-0.276,-0.589,0.0
0.0,0.0,0.0,0.0
9.982,-0.247,-0.633,0.0
0.0,0.0,0.0,0.0
12.683,-0.312,-0.516,0.0
11.964,-0.294,-0.549,0.0
11.366,-0.279,-0.58,0.0
10.618,-0.26,-0.598,0.0
10.221,-0.25,-0.628,0.0
9.692,-0.237,-0.646,0.0
13.048,-0.317,-0.505,0.0
12.304,-0.298,-0.54,0.0
11.579,-0.28,-0.568,0.0
10.963,-0.265,-0.596,0.0
10.343,-0.249,-0.616,0.0
0.0,0.0,0.0,0.0
13.33,-0.319,-0.49,0.0
12.524,-0.299,-0.525,0.0
11.868,-0.283,-0.559,0.0
11.196,-0.266,-0.587,0.0
10.525,-0.25,-0.606,0.0
10.042,-0.238,-0.63,0.0
13.693,-0.322,-0.477,0.0
12.82,-0.301,-0.513,0.0
12.094,-0.283,-0.546,0.0
11.411,-0.266,-0.576,0.0
10.831,-0.252,-0.602,0.0
10.246,-0.238,-0.623,0.0
13.997,-0.323,-0.46,0.0
13.129,-0.302,-0.499,0.0
12.383,-0.284,-0.535,0.0
11.674,-0.267,-0.566,0.0
11.058,-0.252,-0.593,0.0
10.363,-0.236,-0.61,0.0
14.436,-0.326,-0.447,0.0
13.518,-0.304,-0.488,0.0
12.694,-0.285,-0.524,0.0
11.941,-0.267,-0.556,0.0
11.334,-0.253,-0.586,0.0
10.689,-0.238,-0.608,0.0
14.783,-0.326,-0.428,0.0
13.769,-0.303,-0.47,0.0
12.942,-0.284,-0.509,0.0
12.282,-0.268,-0.548,0.0
11.504,-0.25,-0.572,0.0
10.936,-0.237,-0.601,0.0
15.295,-0.329,-0.414,0.0
14.216,-0.305,-0.458,0.0
13.254,-0.283,-0.495,0.0
12.48,-0.265,-0.532,0.0
11.769,-0.249,-0.563,0.0
11.179,-0.236,-0.592,0.0
15.863,-0.332,-0.398,0.0
14.587,-0.304,-0.441,0.0
13.57,-0.282,-0.481,0.0
12.732,-0.263,-0.518,0.0
12.037,-0.247,-0.552,0.0
11.41,-0.233,-0.582,0.0
16.274,-0.33,-0.376,0.0
15.08,-0.305,-0.427,0.0
13.959,-0.28,-0.467,0.0
12.993,-0.26,-0.503,0.0
12.351,-0.246,-0.542,0.0
11.611,-0.23,-0.57,0.0
16.741,-0.328,-0.354,0.0
15.531,-0.303,-0.409,0.0
14.332,-0.278,-0.451,0.0
13.436,-0.259,-0.494,0.0
12.602,-0.242,-0.528,0.0
11.885,-0.227,-0.56,0.0
17.24,-0.326,-0.331,0.0
15.97,-0.3,-0.389,0.0
14.751,-0.276,-0.436,0.0
13.729,-0.255,-0.478,0.0
12.908,-0.238,-0.516,0.0
12.135,-0.222,-0.548,0.0
18.07,-0.328,-0.312,0.0
16.488,-0.297,-0.37,0.0
15.206,-0.272,-0.42,0.0
14.078,-0.25,-0.463,0.0
13.194,-0.233,-0.502,0.0
12.43,-0.218,-0.537,0.0
18.632,-0.324,-0.286,0.0
16.905,-0.291,-0.346,0.0
15.704,-0.269,-0.403,0.0
14.494,-0.246,-0.448,0.0
13.512,-0.227,-0.488,0.0
12.695,-0.212,-0.524,0.0
19.494,-0.322,-0.261,0.0
17.565,-0.288,-0.326,0.0
16.184,-0.263,-0.384,0.0
14.84,-0.239,-0.431,0.0
13.871,-0.222,-0.474,0.0
13.03,-0.206,-0.513,0.0
20.729,-0.325,-0.238,0.0
18.256,-0.284,-0.304,0.0
16.61,-0.256,-0.362,0.0
15.352,-0.234,-0.416,0.0
14.249,-0.215,-0.46,0.0
13.322,-0.199,-0.499,0.0
21.958,-0.325,-0.211,1.0
19.001,-0.278,-0.28,0.0
17.073,-0.247,-0.34,0.0
15.882,-0.228,-0.4,0.0
14.663,-0.208,-0.446,0.0
13.645,-0.191,-0.485,0.0
23.063,-0.32,-0.178,1.0
19.799,-0.271,-0.255,0.0
17.749,-0.24,-0.32,0.0
16.353,-0.219,-0.381,0.0
15.057,-0.199,-0.429,0.0
13.988,-0.183,-0.471,0.0
23.412,-0.301,-0.136,0.0
21.068,-0.268,-0.231,0.0
18.405,-0.231,-0.297,0.0
16.706,-0.207,-0.358,0.0
15.61,-0.191,-0.415,0.0
14.344,-0.173,-0.456,0.0
24.979,-0.296,-0.098,0.0
22.325,-0.261,-0.203,0.0
19.321,-0.222,-0.276,0.0
17.237,-0.196,-0.337,0.0
15.995,-0.179,-0.396,0.0
14.677,-0.161,-0.439,0.0
25.859,-0.28,-0.053,0.0
23.075,-0.245,-0.167,0.0
20.135,-0.211,-0.25,0.0
17.965,-0.185,-0.318,0.0
16.44,-0.166,-0.376,0.0
15.145,-0.15,-0.425,0.0
27.085,-0.264,-0.006,0.0
24.113,-0.231,-0.131,0.0
21.355,-0.2,-0.226,0.0
18.541,-0.17,-0.295,0.0
16.846,-0.152,-0.355,0.0
15.713,-0.139,-0.413,0.0
28.418,-0.245,0.044,2.0
25.173,-0.213,-0.09,0.0
22.351,-0.185,-0.196,0.0
19.36,-0.156,-0.272,0.0
17.48,-0.138,-0.337,0.0
16.056,-0.123,-0.393,0.0
28.76,-0.216,0.097,6.0
26.061,-0.19,-0.047,0.0
23.353,-0.166,-0.163,0.0
20.327,-0.14,-0.25,0.0
18.035,-0.121,-0.315,0.0
16.49,-0.107,-0.374,0.0
28.85,-0.182,0.148,1.0
27.324,-0.167,0.0,0.0
24.238,-0.143,-0.126,0.0
21.784,-0.124,-0.229,1.0
18.673,-0.103,-0.293,0.0
16.948,-0.09,-0.354,0.0
31.331,-0.16,0.217,1.0
28.592,-0.14,0.049,3.0
25.218,-0.118,-0.087,0.0
22.372,-0.1,-0.195,0.0
19.513,-0.083,-0.272,0.0
17.421,-0.071,-0.334,0.0
33.231,-0.129,0.288,1.0
28.801,-0.105,0.1,7.0
26.108,-0.09,-0.044,0.0
23.441,-0.076,-0.164,0.0
20.42,-0.062,-0.25,0.0
18.133,-0.051,-0.316,0.0
35.07,-0.091,0.365,0.0
28.981,-0.069,0.151,0.0
27.378,-0.059,0.0,0.0
24.153,-0.047,-0.128,0.0
21.35,-0.037,-0.224,1.0
18.578,-0.028,-0.292,0.0
36.741,-0.047,0.445,0.0
31.418,-0.034,0.217,0.0
28.567,-0.024,0.048,1.0
25.392,-0.016,-0.091,0.0
22.154,-0.009,-0.195,0.0
19.697,-0.003,-0.276,0.0
0.0,0.0,0.0,0.0
33.186,0.008,0.285,1.0
28.744,0.014,0.097,1.0
26.191,0.018,-0.05,0.0
23.523,0.022,-0.168,1.0
20.747,0.024,-0.256,0.0
41.901,0.058,0.649,0.0
0.0,0.0,0.0,0.0
30.228,0.056,0.152,0.0
27.164,0.056,-0.007,0.0
24.155,0.056,-0.133,0.0
21.312,0.054,-0.229,4.0
0.0,0.0,0.0,0.0
36.861,0.111,0.438,0.0
31.79,0.103,0.211,0.0
28.365,0.099,0.037,1.0
25.238,0.094,-0.098,0.0
22.19,0.087,-0.202,1.0
0.0,0.0,0.0,0.0
38.842,0.172,0.524,0.0
0.0,0.0,0.0,0.0
28.749,0.141,0.083,1.0
25.942,0.134,-0.059,0.0
22.981,0.124,-0.173,0.0
50.816,0.287,1.033,0.0
40.019,0.236,0.603,0.0
0.0,0.0,0.0,0.0
28.869,0.184,0.13,0.0
26.932,0.179,-0.019,0.0
23.896,0.164,-0.142,0.0
0.0,0.0,0.0,0.0
0.0,0.0,0.0,0.0
0.0,0.0,0.0,0.0
30.217,0.238,0.182,0.0
27.83,0.226,0.022,0.0
25.001,0.209,-0.111,0.0
57.832,0.499,1.355,0.0
0.0,0.0,0.0,0.0
0.0,0.0,0.0,0.0
0.0,0.0,0.0,0.0
28.788,0.278,0.066,5.0
25.83,0.256,-0.075,0.0
0.0,0.0,0.0,0.0
0.0,0.0,0.0,0.0
40.102,0.428,0.578,0.0
33.659,0.367,0.304,0.0
28.892,0.323,0.109,6.0
26.42,0.302,-0.038,0.0
56.788,0.665,1.5,1.0
57.566,0.689,1.218,0.0
0.0,0.0,0.0,0.0
35.424,0.442,0.372,0.0
28.902,0.369,0.151,1.0
27.19,0.354,0.0,0.0
56.137,0.746,1.565,0.0
57.501,0.78,1.3,0.0
0.0,0.0,0.0,0.0
36.855,0.518,0.44,0.0
31.825,0.456,0.211,0.0
28.466,0.415,0.039,0.0
55.633,0.828,1.629,0.0
0.0,0.0,0.0,0.0
0.0,0.0,0.0,0.0
0.0,0.0,0.0,0.0
0.0,0.0,0.0,0.0
28.791,0.466,0.079,1.0
55.103,0.909,1.69,1.0
55.046,0.922,1.397,1.0
0.0,0.0,0.0,0.0
40.153,0.694,0.59,0.0
34.437,0.604,0.323,0.0
28.893,0.515,0.118,0.0
54.606,0.99,1.748,0.0
54.502,1.002,1.456,1.0
0.0,0.0,0.0,0.0
0.0,0.0,0.0,0.0
0.0,0.0,0.0,0.0
31.228,0.608,0.169,0.0
0.0,0.0,0.0,0.0
54.291,1.089,1.522,1.0
54.473,1.107,1.238,0.0
0.0,0.0,0.0,0.0
37.169,0.776,0.447,0.0
31.947,0.676,0.215,0.0
54.369,1.168,1.884,0.0
54.23,1.179,1.591,0.0
54.229,1.194,1.302,0.0
47.857,1.067,0.89,1.0
0.0,0.0,0.0,0.0
32.906,0.752,0.262,0.0
0.0,0.0,0.0,0.0
54.292,1.273,1.66,1.0
54.225,1.287,1.37,0.0
57.595,1.382,1.142,4.0
0.0,0.0,0.0,0.0
33.998,0.835,0.313,0.0
0.0,0.0,0.0,0.0
54.267,1.366,1.725,1.0
54.099,1.377,1.432,1.0
56.956,1.465,1.198,5.0
0.0,0.0,0.0,0.0
35.59,0.935,0.369,1.0
0.0,0.0,0.0,0.0
54.221,1.458,1.788,5.0
54.085,1.47,1.495,5.0
54.397,1.494,1.208,0.0
46.078,1.278,0.777,2.0
35.977,1.008,0.415,0.0
57.905,1.643,2.285,0.0
0.0,0.0,0.0,0.0
54.071,1.563,1.555,5.0
54.127,1.58,1.262,4.0
47.863,1.41,0.86,0.0
0.0,0.0,0.0,0.0
0.0,0.0,0.0,0.0
0.0,0.0,0.0,0.0
54.141,1.66,1.616,2.0
54.219,1.678,1.323,11.0
55.099,1.72,1.05,4.0
40.202,1.266,0.551,0.0
0.0,0.0,0.0,0.0
0.0,0.0,0.0,0.0
51.206,1.661,1.584,11.0
54.064,1.769,1.377,2.0
50.707,1.674,1.02,0.0
0.0,0.0,0.0,0.0
56.196,1.892,2.4,0.0
50.874,1.727,1.899,2.0
50.572,1.731,1.616,3.0
50.493,1.742,1.337,1.0
50.604,1.761,1.069,0.0
0.0,0.0,0.0,0.0
56.047,1.988,2.449,0.0
50.547,1.807,1.937,3.0
50.088,1.804,1.65,2.0
50.003,1.815,1.373,2.0
50.119,1.834,1.107,0.0
0.0,0.0,0.0,0.0
81.148,3.025,3.625,11.0
50.349,1.891,1.978,2.0
49.525,1.874,1.679,3.0
49.385,1.882,1.403,2.0
49.213,1.889,1.133,1.0
49.21,1.903,0.868,0.0
65.646,2.566,2.994,28.0
48.782,1.92,1.961,2.0
49.038,1.944,1.707,2.0
48.808,1.948,1.431,3.0
48.785,1.961,1.167,2.0
0.0,0.0,0.0,0.0
65.562,2.682,3.048,27.0
48.693,2.005,2.0,11.0
48.614,2.015,1.735,3.0
48.306,2.016,1.458,10.0
48.372,2.033,1.199,2.0
48.093,2.035,0.932,0.0
65.586,2.802,3.105,14.0
0.0,0.0,0.0,0.0
48.287,2.09,1.763,2.0
48.033,2.092,1.489,3.0
0.0,0.0,0.0,0.0
47.624,2.101,0.961,0.0
81.006,3.609,3.901,11.0
48.759,2.186,2.084,7.0
48.067,2.168,1.793,2.0
47.57,2.159,1.512,13.0
47.477,2.169,1.252,15.0
47.473,2.182,0.995,1.0
80.877,3.753,3.957,23.0
0.0,0.0,0.0,0.0
48.119,2.259,1.832,2.0
47.485,2.242,1.545,13.0
47.388,2.251,1.285,0.0
47.378,2.265,1.028,7.0
80.856,3.902,4.016,32.0
0.0,0.0,0.0,0.0
48.162,2.35,1.868,1.0
47.595,2.336,1.583,41.0
47.413,2.34,1.319,12.0
47.338,2.349,1.06,12.0
81.307,4.072,4.095,30.0
0.0,0.0,0.0,0.0
48.292,2.445,1.906,0.0
47.592,2.423,1.614,156.0
47.35,2.423,1.348,18.0
47.3,2.434,1.09,11.0
81.192,4.217,4.142,33.0
0.0,0.0,0.0,0.0
0.0,0.0,0.0,0.0
47.483,2.505,1.64,12.0
47.293,2.508,1.376,17.0
47.288,2.521,1.119,9.0
81.137,4.363,4.189,45.0
0.0,0.0,0.0,0.0
0.0,0.0,0.0,0.0
47.473,2.591,1.668,6.0
47.243,2.592,1.402,14.0
47.265,2.607,1.145,9.0
80.795,4.496,4.218,37.0
0.0,0.0,0.0,0.0
0.0,0.0,0.0,0.0
47.616,2.688,1.7,4.0
47.211,2.678,1.427,17.0
47.238,2.692,1.17,10.0
58.721,3.376,3.097,20.0
81.112,4.685,3.833,2.0
0.0,0.0,0.0,0.0
47.703,2.781,1.727,3.0
47.209,2.764,1.451,31.0
47.221,2.778,1.193,14.0
58.616,3.477,3.12,42.0
58.682,3.496,2.801,17.0
0.0,0.0,0.0,0.0
47.76,2.871,1.751,2.0
47.223,2.851,1.473,20.0
47.221,2.864,1.214,152.0
58.648,3.587,3.148,59.0
58.654,3.603,2.826,27.0
0.0,0.0,0.0,0.0
47.925,2.969,1.778,1.0
47.25,2.941,1.494,17.0
47.223,2.951,1.234,161.0
81.051,5.107,4.384,31.0
80.95,5.121,3.933,24.0
0.0,0.0,0.0,0.0
47.964,3.059,1.798,1.0
47.277,3.028,1.512,15.0
47.228,3.037,1.251,161.0
80.614,5.227,4.39,8.0
80.955,5.269,3.963,34.0
0.0,0.0,0.0,0.0
48.158,3.16,1.822,0.0
47.329,3.117,1.53,7.0
47.234,3.123,1.267,156.0
77.969,5.197,4.272,30.0
80.92,5.414,3.987,27.0
0.0,0.0,0.0,0.0
48.214,3.25,1.838,0.0
47.36,3.205,1.545,12.0
47.253,3.21,1.282,156.0
78.021,5.34,4.297,34.0
78.044,5.362,3.867,12.0
0.0,0.0,0.0,0.0
0.0,0.0,0.0,0.0
47.408,3.293,1.559,10.0
47.267,3.295,1.294,153.0
77.928,5.474,4.311,18.0
80.878,5.702,4.027,23.0
0.0,0.0,0.0,0.0
0.0,0.0,0.0,0.0
47.455,3.38,1.571,10.0
47.277,3.38,1.304,29.0
77.749,5.601,4.317,27.0
80.486,5.817,4.023,45.0
81.261,5.892,3.611,6.0
0.0,0.0,0.0,0.0
47.512,3.469,1.581,8.0
47.29,3.465,1.312,23.0
77.562,5.724,4.32,34.0
81.16,6.01,4.07,14.0
81.239,6.035,3.624,28.0
0.0,0.0,0.0,0.0
47.521,3.553,1.588,7.0
47.345,3.552,1.32,14.0
77.587,5.863,4.332,14.0
77.261,5.858,3.884,13.0
81.589,6.205,3.648,29.0
48.749,3.719,1.904,3.0
47.653,3.646,1.597,14.0
47.422,3.64,1.326,11.0
77.303,5.977,4.322,29.0
81.492,6.319,4.103,21.0
82.008,6.379,3.673,33.0
48.942,3.818,1.915,16.0
47.738,3.736,1.602,19.0
47.516,3.73,1.332,9.0
77.145,6.099,4.317,10.0
62.232,4.933,3.136,17.0
81.704,6.496,3.662,35.0
81.342,6.487,3.185,26.0
47.899,3.831,1.609,156.0
47.585,3.817,1.334,1.0
62.456,5.045,3.496,21.0
61.846,5.01,3.116,36.0
81.607,6.629,3.658,24.0
81.218,6.616,3.179,21.0
62.643,5.117,2.103,3.0
47.645,3.903,1.335,3.0
52.061,4.294,2.912,14.0
52.105,4.31,2.623,19.0
52.178,4.327,2.336,11.0
52.201,4.341,2.041,16.0
52.233,4.356,1.75,14.0
52.296,4.373,1.461,11.0
51.992,4.377,2.905,48.0
52.056,4.394,2.617,59.0
52.098,4.409,2.328,53.0
52.111,4.421,2.032,45.0
52.14,4.435,1.743,42.0
52.128,4.446,1.451,18.0
52.012,4.465,2.9,45.0
52.058,4.48,2.611,42.0
52.071,4.493,2.321,62.0
52.091,4.506,2.025,70.0
52.12,4.52,1.735,65.0
52.094,4.529,1.443,32.0
52.066,4.557,2.895,21.0
52.112,4.571,2.606,24.0
52.113,4.582,2.314,36.0
52.119,4.593,2.017,44.0
52.14,4.607,1.726,42.0
52.092,4.614,1.434,20.0
58.823,5.244,3.26,29.0
60.385,5.396,3.008,34.0
61.082,5.47,2.7,18.0
60.858,5.462,2.343,25.0
62.452,5.619,2.055,24.0
52.165,4.705,1.424,19.0
58.733,5.33,3.242,35.0
60.51,5.503,3.0,35.0
60.752,5.538,2.671,35.0
60.916,5.566,2.331,27.0
61.783,5.657,2.017,33.0
62.436,5.731,1.689,7.0
58.473,5.4,3.213,33.0
60.275,5.578,2.972,29.0
60.196,5.582,2.631,28.0
60.731,5.644,2.307,24.0
60.471,5.632,1.957,23.0
62.205,5.806,1.665,9.0
59.296,5.568,3.24,32.0
60.248,5.669,2.953,35.0
60.256,5.681,2.614,33.0
59.685,5.639,2.248,34.0
60.371,5.716,1.935,9.0
62.036,5.886,1.64,6.0
59.112,5.642,3.21,34.0
59.304,5.671,2.887,6.0
59.854,5.735,2.577,31.0
59.267,5.69,2.211,21.0
60.287,5.799,1.911,16.0
61.735,5.951,1.61,3.0
59.031,5.723,3.184,34.0
59.309,5.76,2.865,23.0
59.47,5.787,2.538,29.0
58.996,5.752,2.179,31.0
60.123,5.873,1.882,18.0
58.367,5.714,1.498,2.0
58.591,5.767,3.137,34.0
59.159,5.833,2.833,25.0
59.226,5.85,2.502,30.0
59.011,5.84,2.154,33.0
60.253,5.975,1.86,29.0
60.579,6.018,1.529,2.0
58.678,5.861,3.115,33.0
58.934,5.897,2.796,25.0
59.176,5.932,2.474,25.0
59.151,5.939,2.132,25.0
59.723,6.008,1.816,31.0
59.902,6.038,1.484,1.0
57.976,5.874,3.051,28.0
58.756,5.963,2.76,33.0
59.444,6.043,2.456,21.0
59.477,6.057,2.115,32.0
59.691,6.089,1.786,27.0
57.558,5.881,1.397,2.0
58.291,5.987,3.038,33.0
58.752,6.044,2.73,33.0
59.256,6.106,2.418,28.0
59.195,6.11,2.074,27.0
59.848,6.187,1.759,25.0
51.732,5.358,1.228,2.0
58.371,6.076,3.01,33.0
58.767,6.126,2.698,25.0
58.837,6.143,2.368,33.0
59.202,6.191,2.042,28.0
59.786,6.262,1.723,14.0
51.563,5.409,1.195,5.0
58.668,6.185,2.992,25.0
58.601,6.187,2.656,29.0
58.787,6.216,2.331,33.0
59.286,6.278,2.01,31.0
60.052,6.369,1.696,22.0
51.544,5.475,1.164,6.0
58.641,6.258,2.956,25.0
58.55,6.257,2.619,31.0
59.234,6.339,2.313,29.0
59.223,6.347,1.971,22.0
60.009,6.44,1.657,33.0
51.431,5.528,1.129,5.0
58.167,6.281,2.895,33.0
58.495,6.325,2.579,31.0
59.139,6.403,2.272,27.0
59.238,6.422,1.933,22.0
60.048,6.519,1.62,33.0
46.234,5.026,0.985,9.0
58.448,6.384,2.87,34.0
58.55,6.402,2.543,32.0
59.209,6.483,2.234,28.0
59.171,6.487,1.892,11.0
46.474,5.102,1.222,8.0
46.067,5.064,0.95,10.0
58.547,6.465,2.835,34.0
58.518,6.469,2.501,32.0
59.119,6.543,2.19,24.0
59.405,6.583,1.857,23.0
46.514,5.161,1.19,5.0
45.825,5.091,0.913,11.0
57.953,6.466,2.765,33.0
58.582,6.543,2.461,32.0
59.227,6.623,2.151,22.0
59.29,6.638,1.81,22.0
57.992,6.501,1.441,5.0
45.633,5.122,0.875,11.0
58.198,6.559,2.732,33.0
59.056,6.663,2.436,19.0
59.499,6.72,2.116,10.0
59.341,6.71,1.766,14.0
46.45,5.259,1.118,8.0
45.521,5.16,0.837,8.0
58.564,6.664,2.704,9.0
59.285,6.753,2.4,11.0
63.685,7.262,2.215,22.0
46.469,5.304,1.347,14.0
46.402,5.303,1.081,15.0
45.034,5.152,0.793,4.0
58.953,6.771,2.674,7.0
59.119,6.796,2.345,20.0
46.453,5.345,1.578,35.0
46.395,5.344,1.307,30.0
46.248,5.333,1.039,12.0
44.424,5.128,0.746,3.0
46.451,5.382,2.069,43.0
46.42,5.383,1.803,29.0
46.403,5.386,1.538,35.0
46.366,5.387,1.267,27.0
46.137,5.366,0.998,12.0
44.314,5.159,0.706,5.0
46.399,5.421,2.027,46.0
46.38,5.423,1.762,32.0
46.37,5.427,1.497,40.0
46.345,5.429,1.227,27.0
45.906,5.383,0.954,10.0
44.235,5.192,0.667,6.0
46.392,5.463,1.987,50.0
46.348,5.462,1.72,49.0
46.34,5.466,1.455,48.0
46.33,5.47,1.186,31.0
45.735,5.404,0.91,10.0
44.157,5.223,0.627,4.0
46.376,5.503,1.944,48.0
46.352,5.504,1.678,41.0
46.353,5.509,1.414,42.0
46.332,5.51,1.144,24.0
45.548,5.422,0.865,9.0
43.882,5.228,0.583,2.0
46.378,5.543,1.902,42.0
46.364,5.545,1.636,48.0
46.359,5.548,1.371,33.0
46.321,5.548,1.101,18.0
45.197,5.418,0.816,5.0
42.593,5.11,0.526,0.0
46.395,5.583,1.859,27.0
46.387,5.585,1.594,22.0
46.397,5.59,1.329,16.0
46.279,5.58,1.056,15.0
44.206,5.334,0.757,3.0
40.22,4.856,0.459,0.0
46.429,5.622,1.816,12.0
54.5,6.603,1.82,11.0
58.99,7.152,1.633,14.0
46.15,5.599,1.009,12.0
44.065,5.35,0.712,5.0
40.09,4.871,0.419,0.0
58.677,7.148,2.238,13.0
58.834,7.171,1.908,9.0
58.54,7.139,1.564,22.0
45.852,5.595,0.957,16.0
44.006,5.374,0.668,6.0
36.954,4.516,0.349,0.0
54.755,6.708,2.034,26.0
54.559,6.687,1.714,14.0
0.0,0.0,0.0,0.0
45.689,5.606,0.909,17.0
43.954,5.397,0.622,4.0
36.591,4.496,0.309,0.0
54.603,6.725,1.973,26.0
58.751,7.239,1.787,16.0
53.751,6.626,1.327,2.0
45.479,5.609,0.858,8.0
42.216,5.21,0.555,1.0
35.782,4.418,0.265,0.0
54.367,6.728,1.909,29.0
58.74,7.272,1.726,8.0
51.509,6.38,1.218,3.0
0.0,0.0,0.0,0.0
42.099,5.219,0.51,1.0
33.09,4.105,0.211,0.0
54.345,6.755,1.852,25.0
54.763,6.809,1.552,20.0
46.319,5.762,1.047,3.0
43.938,5.468,0.738,4.0
39.744,4.948,0.44,0.0
31.849,3.968,0.17,0.0
54.356,6.785,1.794,20.0
58.376,7.288,1.593,11.0
46.17,5.766,0.996,6.0
43.88,5.483,0.69,7.0
39.366,4.921,0.394,0.0
29.461,3.684,0.126,1.0
54.343,6.808,1.736,21.0
55.603,6.968,1.458,4.0
45.772,5.737,0.938,9.0
43.839,5.497,0.643,5.0
36.053,4.522,0.322,0.0
29.44,3.695,0.094,5.0
54.435,6.843,1.68,23.0
55.573,6.987,1.397,4.0
45.586,5.733,0.884,8.0
43.538,5.477,0.591,3.0
35.598,4.48,0.279,0.0
29.312,3.69,0.062,8.0
54.537,6.876,1.625,22.0
52.448,6.613,1.261,2.0
0.0,0.0,0.0,0.0
41.964,5.294,0.524,1.0
33.14,4.182,0.224,0.0
28.72,3.625,0.029,3.0
54.56,6.897,1.565,19.0
50.196,6.346,1.152,0.0
43.893,5.55,0.755,4.0
41.708,5.275,0.474,0.0
31.924,4.038,0.18,0.0
27.719,3.508,-0.002,1.0
54.555,6.911,1.503,5.0
46.18,5.851,1.008,3.0
43.847,5.556,0.705,8.0
39.067,4.951,0.401,0.0
29.51,3.741,0.133,1.0
26.84,3.403,-0.032,1.0
57.601,7.311,1.523,3.0
45.834,5.818,0.949,10.0
43.822,5.563,0.656,8.0
38.688,4.912,0.353,0.0
29.445,3.739,0.1,5.0
26.041,3.307,-0.06,1.0
54.551,6.934,1.381,4.0
45.605,5.797,0.892,9.0
43.661,5.55,0.604,3.0
35.522,4.516,0.284,0.0
29.408,3.739,0.067,7.0
25.251,3.211,-0.087,0.0
52.487,6.68,1.269,1.0
45.035,5.731,0.83,3.0
41.786,5.318,0.531,2.0
33.282,4.235,0.228,0.0
28.897,3.678,0.032,2.0
24.091,3.067,-0.11,0.0
0.0,0.0,0.0,0.0
43.9,5.59,0.76,4.0
41.397,5.272,0.479,1.0
31.839,4.054,0.182,1.0
27.676,3.525,0.0,1.0
23.647,3.012,-0.135,1.0
46.188,5.885,1.011,4.0
43.865,5.588,0.709,7.0
39.224,4.996,0.409,0.0
29.47,3.754,0.135,1.0
26.692,3.4,-0.03,1.0
23.187,2.954,-0.159,1.0
45.827,5.839,0.951,11.0
43.812,5.581,0.658,8.0
37.465,4.772,0.348,0.0
29.456,3.752,0.101,8.0
26.093,3.323,-0.059,1.0
22.444,2.859,-0.179,1.0
45.564,5.803,0.893,8.0
43.684,5.563,0.606,3.0
35.6,4.533,0.29,0.0
29.382,3.74,0.067,6.0
25.213,3.21,-0.086,0.0
22.094,2.812,-0.202,0.0
44.799,5.702,0.828,3.0
41.847,5.325,0.533,1.0
33.65,4.281,0.235,0.0
28.73,3.654,0.033,2.0
24.027,3.056,-0.109,0.0
21.09,2.682,-0.217,0.0
43.867,5.577,0.761,5.0
41.251,5.243,0.478,1.0
31.686,4.026,0.186,0.0
27.588,3.505,0.001,1.0
23.636,3.002,-0.134,2.0
20.688,2.628,-0.236,0.0
43.85,5.567,0.711,7.0
38.854,4.931,0.407,1.0
29.511,3.744,0.14,1.0
26.84,3.404,-0.029,1.0
23.09,2.928,-0.157,1.0
20.377,2.584,-0.255,0.0
43.829,5.554,0.66,7.0
35.916,4.55,0.335,0.0
29.426,3.726,0.106,4.0
26.014,3.293,-0.058,1.0
22.504,2.848,-0.179,1.0
19.791,2.504,-0.27,0.0
43.759,5.533,0.61,2.0
35.672,4.509,0.292,0.0
29.321,3.705,0.072,7.0
25.31,3.197,-0.084,0.0
21.968,2.774,-0.199,0.0
19.301,2.436,-0.286,0.0
41.969,5.293,0.537,1.0
33.521,4.226,0.237,0.0
28.797,3.629,0.039,4.0
23.971,3.02,-0.107,1.0
21.253,2.676,-0.216,0.0
18.98,2.389,-0.302,0.0
41.823,5.26,0.489,0.0
32.537,4.09,0.194,0.0
28.05,3.524,0.006,1.0
23.722,2.979,-0.132,2.0
20.807,2.612,-0.235,0.0
18.481,2.319,-0.314,0.0
39.459,4.946,0.418,0.0
29.494,3.695,0.143,0.0
26.485,3.316,-0.022,0.0
23.175,2.9,-0.155,1.0
20.33,2.543,-0.252,0.0
18.136,2.268,-0.329,0.0
0.0,0.0,0.0,0.0
29.436,3.674,0.111,4.0
26.057,3.25,-0.051,1.0
22.564,2.813,-0.175,1.0
19.874,2.477,-0.268,0.0
17.734,2.209,-0.341,0.0
0.0,0.0,0.0,0.0
29.323,3.645,0.078,3.0
25.439,3.16,-0.077,0.0
21.934,2.723,-0.194,0.0
19.372,2.404,-0.282,0.0
17.418,2.16,-0.354,0.0
34.314,4.249,0.25,0.0
28.79,3.562,0.046,1.0
24.096,2.98,-0.099,1.0
21.285,2.631,-0.211,0.0
18.979,2.344,-0.297,0.0
17.159,2.118,-0.367,0.0
32.625,4.02,0.203,0.0
27.897,3.435,0.014,0.0
23.87,2.937,-0.124,3.0
20.819,2.56,-0.229,0.0
18.555,2.28,-0.31,0.0
16.868,2.072,-0.379,0.0
31.754,3.892,0.164,0.0
26.562,3.253,-0.014,0.0
23.451,2.87,-0.146,1.0
20.508,2.508,-0.247,0.0
18.198,2.224,-0.323,0.0
16.648,2.034,-0.391,0.0
29.422,3.586,0.121,0.0
26.146,3.184,-0.041,1.0
22.723,2.765,-0.165,0.0
20.016,2.434,-0.262,0.0
17.812,2.165,-0.335,0.0
16.325,1.983,-0.4,0.0
29.336,3.555,0.091,1.0
25.731,3.115,-0.066,1.0
22.085,2.671,-0.183,0.0
19.467,2.353,-0.274,0.0
17.508,2.115,-0.347,0.0
16.053,1.938,-0.41,0.0
28.999,3.491,0.06,1.0
24.377,2.932,-0.088,1.0
21.505,2.584,-0.2,0.0
19.112,2.295,-0.289,0.0
17.23,2.067,-0.359,0.0
15.864,1.902,-0.421,0.0
28.053,3.354,0.03,0.0
23.996,2.867,-0.11,1.0
21.054,2.513,-0.217,0.0
18.67,2.226,-0.301,0.0
16.997,2.025,-0.371,0.0
15.603,1.858,-0.429,0.0
27.151,3.223,0.003,0.0
23.592,2.798,-0.131,1.0
20.591,2.44,-0.232,0.0
18.367,2.174,-0.313,0.0
16.814,1.988,-0.383,0.0
15.367,1.816,-0.438,0.0
26.198,3.086,-0.022,1.0
23.239,2.735,-0.152,0.0
20.357,2.393,-0.249,0.0
18.011,2.116,-0.325,0.0
16.465,1.932,-0.391,0.0
15.149,1.776,-0.446,0.0
26.075,3.048,-0.046,1.0
22.395,2.614,-0.167,0.0
20.052,2.338,-0.264,0.0
17.696,2.062,-0.335,0.0
16.206,1.886,-0.4,0.0
14.936,1.737,-0.453,0.0
25.144,2.914,-0.068,0.0
21.995,2.546,-0.184,0.0
19.572,2.263,-0.275,0.0
17.478,2.019,-0.347,0.0
16.007,1.847,-0.409,0.0
14.707,1.695,-0.46,0.0
24.287,2.79,-0.087,1.0
21.611,2.479,-0.2,0.0
19.064,2.184,-0.285,0.0
17.194,1.968,-0.357,0.0
15.793,1.806,-0.418,0.0
14.573,1.664,-0.468,0.0
23.996,2.731,-0.107,1.0
21.251,2.415,-0.216,0.0
18.729,2.126,-0.296,0.0
17.0,1.928,-0.368,0.0
15.565,1.763,-0.425,0.0
14.338,1.622,-0.473,0.0
23.806,2.683,-0.127,1.0
21.006,2.364,-0.231,0.0
18.399,2.068,-0.307,0.0
16.749,1.88,-0.376,0.0
15.37,1.723,-0.433,0.0
14.144,1.584,-0.479,0.0
23.42,2.613,-0.144,0.0
20.48,2.282,-0.242,0.0
18.108,2.015,-0.317,0.0
16.487,1.832,-0.384,0.0
15.18,1.685,-0.44,0.0
13.958,1.547,-0.484,0.0
22.598,2.495,-0.157,0.0
20.194,2.226,-0.255,0.0
17.81,1.96,-0.326,0.0
16.282,1.79,-0.392,0.0
15.033,1.65,-0.447,0.0
13.797,1.513,-0.489,0.0
21.922,2.394,-0.169,0.0
19.649,2.142,-0.263,0.0
17.596,1.916,-0.335,0.0
16.072,1.747,-0.399,0.0
14.828,1.61,-0.452,0.0
13.678,1.483,-0.495,0.0
21.635,2.335,-0.183,2.0
19.443,2.095,-0.275,0.0
17.398,1.872,-0.345,0.0
15.93,1.712,-0.407,0.0
14.641,1.571,-0.457,0.0
13.559,1.453,-0.501,0.0
21.542,2.298,-0.198,4.0
19.119,2.036,-0.284,0.0
17.233,1.832,-0.354,0.0
15.782,1.675,-0.415,0.0
14.465,1.533,-0.462,0.0
13.431,1.422,-0.505,0.0
21.399,2.255,-0.211,2.0
18.833,1.981,-0.293,0.0
17.027,1.788,-0.361,0.0
15.638,1.639,-0.422,0.0
14.352,1.502,-0.468,0.0
13.349,1.395,-0.511,0.0
21.143,2.199,-0.223,1.0
18.566,1.927,-0.301,0.0
16.869,1.748,-0.369,0.0
15.449,1.598,-0.427,0.0
14.244,1.471,-0.474,0.0
13.224,1.364,-0.515,0.0
21.077,2.163,-0.236,0.0
18.283,1.873,-0.308,0.0
16.686,1.706,-0.375,0.0
15.218,1.553,-0.43,0.0
14.06,1.433,-0.476,0.0
13.199,1.343,-0.522,0.0
20.653,2.09,-0.244,0.0
18.113,1.83,-0.316,0.0
16.487,1.662,-0.381,0.0
15.097,1.519,-0.435,0.0
13.99,1.405,-0.482,0.0
13.096,1.313,-0.525,0.0
20.209,2.016,-0.25,0.0
17.85,1.777,-0.321,0.0
16.324,1.622,-0.386,0.0
14.961,1.484,-0.44,0.0
13.828,1.369,-0.484,0.0
12.927,1.278,-0.526,0.0
19.827,1.949,-0.256,0.0
17.722,1.739,-0.329,0.0
16.159,1.582,-0.391,0.0
14.895,1.455,-0.446,0.0
13.723,1.338,-0.488,0.0
12.811,1.247,-0.528,0.0
19.658,1.903,-0.264,0.0
17.54,1.694,-0.334,0.0
16.044,1.546,-0.396,0.0
14.734,1.417,-0.448,0.0
13.646,1.31,-0.492,0.0
12.751,1.222,-0.531,0.0
19.441,1.852,-0.27,0.0
17.433,1.657,-0.34,0.0
15.94,1.512,-0.401,0.0
14.693,1.39,-0.454,0.0
13.577,1.282,-0.496,0.0
12.63,1.19,-0.532,0.0
19.244,1.803,-0.276,0.0
17.31,1.618,-0.346,0.0
15.869,1.48,-0.406,0.0
14.591,1.358,-0.457,0.0
13.55,1.258,-0.5,0.0
12.571,1.165,-0.535,0.0
19.108,1.76,-0.282,0.0
17.203,1.581,-0.35,0.0
15.701,1.439,-0.408,0.0
14.436,1.32,-0.458,0.0
13.469,1.229,-0.503,0.0
12.595,1.147,-0.541,0.0
18.936,1.714,-0.287,0.0
17.069,1.541,-0.354,0.0
15.744,1.418,-0.415,0.0
14.343,1.289,-0.46,0.0
13.348,1.196,-0.503,0.0
12.513,1.119,-0.542,0.0
18.72,1.664,-0.29,0.0
16.973,1.505,-0.358,0.0
15.598,1.379,-0.416,0.0
14.369,1.267,-0.465,0.0
13.316,1.172,-0.506,0.0
12.492,1.096,-0.545,0.0
18.565,1.619,-0.293,0.0
16.86,1.466,-0.361,0.0
15.531,1.347,-0.419,0.0
14.256,1.234,-0.466,0.0
13.317,1.149,-0.51,0.0
12.469,1.073,-0.547,0.0
18.451,1.578,-0.297,0.0
16.808,1.434,-0.364,0.0
15.462,1.315,-0.421,0.0
14.19,1.204,-0.467,0.0
13.222,1.119,-0.509,0.0
12.438,1.049,-0.549,0.0
18.344,1.538,-0.299,0.0
16.682,1.394,-0.365,0.0
15.41,1.284,-0.423,0.0
14.139,1.175,-0.469,0.0
13.226,1.096,-0.512,0.0
12.398,1.025,-0.55,0.0
18.281,1.501,-0.302,0.0
16.693,1.367,-0.368,0.0
15.372,1.255,-0.425,0.0
14.077,1.145,-0.469,0.0
13.229,1.073,-0.515,0.0
12.402,1.003,-0.552,0.0
18.252,1.467,-0.304,0.0
16.61,1.331,-0.369,0.0
15.251,1.218,-0.424,0.0
14.116,1.124,-0.472,0.0
13.103,1.04,-0.512,0.0
12.384,0.98,-0.553,0.0
18.161,1.427,-0.305,0.0
16.595,1.3,-0.371,0.0
15.18,1.185,-0.424,0.0
14.075,1.096,-0.473,0.0
13.171,1.022,-0.516,0.0
12.316,0.953,-0.551,0.0
18.157,1.395,-0.307,0.0
16.563,1.268,-0.372,0.0
15.19,1.159,-0.425,0.0
13.992,1.064,-0.471,0.0
13.135,0.996,-0.515,0.0
12.374,0.935,-0.554,0.0
18.155,1.362,-0.307,0.0
16.524,1.235,-0.371,0.0
15.228,1.135,-0.427,0.0
14.004,1.04,-0.472,0.0
13.139,0.972,-0.515,0.0
12.348,0.911,-0.553,0.0
18.177,1.331,-0.308,0.0
16.517,1.205,-0.371,0.0
15.189,1.104,-0.426,0.0
14.031,1.016,-0.472,0.0
13.063,0.943,-0.512,0.0
12.358,0.889,-0.553,0.0
18.18,1.298,-0.307,0.0
16.538,1.176,-0.371,0.0
15.234,1.08,-0.426,0.0
14.026,0.99,-0.472,0.0
13.161,0.926,-0.515,0.0
12.313,0.863,-0.55,0.0
18.15,1.263,-0.306,0.0
16.577,1.149,-0.371,0.0
15.25,1.053,-0.426,0.0
14.035,0.965,-0.471,0.0
13.087,0.897,-0.511,0.0
12.328,0.841,-0.55,0.0
18.286,1.238,-0.306,0.0
16.591,1.119,-0.37,0.0
15.253,1.025,-0.424,0.0
14.072,0.941,-0.47,0.0
13.178,0.878,-0.513,0.0
12.388,0.822,-0.551,0.0
18.314,1.206,-0.304,0.0
16.658,1.092,-0.368,0.0
15.278,0.998,-0.422,0.0
14.111,0.918,-0.469,0.0
13.161,0.852,-0.51,0.0
12.433,0.802,-0.551,0.0
18.365,1.175,-0.302,0.0
16.642,1.06,-0.365,0.0
15.395,0.976,-0.422,0.0
14.133,0.892,-0.467,0.0
13.169,0.828,-0.508,0.0
12.411,0.777,-0.547,0.0
18.4,1.142,-0.298,0.0
16.647,1.029,-0.361,0.0
15.351,0.944,-0.417,0.0
14.146,0.866,-0.464,0.0
13.246,0.808,-0.507,0.0
12.433,0.755,-0.545,0.0
18.445,1.11,-0.294,0.0
16.729,1.002,-0.359,0.0
15.483,0.923,-0.417,0.0
14.163,0.84,-0.46,0.0
13.299,0.785,-0.506,0.0
12.469,0.733,-0.543,0.0
18.599,1.084,-0.291,0.0
16.808,0.975,-0.355,0.0
15.641,0.903,-0.416,0.0
14.254,0.819,-0.459,0.0
13.287,0.759,-0.501,0.0
12.482,0.71,-0.539,0.0
18.554,1.046,-0.284,0.0
16.897,0.948,-0.351,0.0
15.627,0.872,-0.41,0.0
14.361,0.797,-0.457,0.0
13.4,0.74,-0.5,0.0
12.551,0.69,-0.537,0.0
18.833,1.026,-0.281,0.0
16.983,0.92,-0.346,0.0
15.734,0.848,-0.407,0.0
14.439,0.774,-0.454,0.0
13.447,0.717,-0.496,0.0
12.57,0.666,-0.533,0.0
19.072,1.002,-0.277,0.0
17.062,0.891,-0.341,0.0
15.819,0.822,-0.402,0.0
14.634,0.756,-0.453,0.0
13.549,0.696,-0.494,0.0
12.648,0.646,-0.53,0.0
19.245,0.974,-0.27,0.0
17.177,0.864,-0.335,0.0
15.848,0.793,-0.395,0.0
14.639,0.728,-0.446,0.0
13.593,0.672,-0.489,0.0
12.704,0.624,-0.526,0.0
19.45,0.947,-0.263,0.0
17.25,0.834,-0.327,0.0
15.991,0.769,-0.391,0.0
14.68,0.701,-0.44,0.0
13.701,0.651,-0.485,0.0
12.745,0.602,-0.521,0.0
19.741,0.923,-0.257,0.0
17.567,0.816,-0.324,0.0
16.07,0.741,-0.384,0.0
14.775,0.677,-0.434,0.0
13.723,0.625,-0.478,0.0
12.864,0.582,-0.518,0.0
19.945,0.893,-0.248,0.0
17.719,0.788,-0.316,0.0
16.24,0.718,-0.378,0.0
15.003,0.659,-0.432,0.0
13.889,0.606,-0.475,0.0
12.953,0.561,-0.514,0.0
20.227,0.867,-0.239,0.0
17.918,0.763,-0.308,0.0
16.397,0.693,-0.371,0.0
15.052,0.632,-0.424,0.0
14.02,0.584,-0.471,0.0
13.066,0.541,-0.51,0.0
20.556,0.842,-0.229,0.0
18.132,0.737,-0.3,0.0
16.623,0.671,-0.365,0.0
15.253,0.611,-0.419,0.0
14.123,0.561,-0.465,0.0
13.22,0.521,-0.506,0.0
21.14,0.825,-0.221,0.0
18.365,0.711,-0.291,0.0
16.753,0.644,-0.356,0.0
15.483,0.59,-0.414,0.0
14.238,0.538,-0.458,0.0
13.276,0.498,-0.499,0.0
21.527,0.799,-0.209,1.0
18.882,0.695,-0.285,0.0
16.92,0.618,-0.347,0.0
15.633,0.566,-0.406,0.0
14.465,0.519,-0.454,0.0
13.469,0.48,-0.496,0.0
21.805,0.767,-0.195,0.0
19.077,0.666,-0.273,0.0
17.092,0.591,-0.337,0.0
15.802,0.542,-0.398,0.0
14.631,0.498,-0.448,0.0
13.582,0.458,-0.489,0.0
22.403,0.746,-0.182,1.0
19.551,0.645,-0.264,0.0
17.387,0.569,-0.328,0.0
15.979,0.518,-0.389,0.0
14.75,0.473,-0.439,0.0
13.756,0.437,-0.483,0.0
22.98,0.722,-0.167,0.0
19.878,0.618,-0.251,0.0
17.714,0.546,-0.319,0.0
16.157,0.493,-0.38,0.0
14.899,0.45,-0.43,0.0
13.847,0.414,-0.474,0.0
23.338,0.689,-0.149,1.0
20.335,0.594,-0.239,0.0
18.012,0.521,-0.308,0.0
16.325,0.467,-0.369,0.0
15.146,0.429,-0.423,0.0
14.023,0.393,-0.467,0.0
23.72,0.656,-0.13,1.0
21.017,0.575,-0.228,0.0
18.272,0.494,-0.296,0.0
16.622,0.445,-0.36,0.0
15.487,0.41,-0.418,0.0
14.218,0.372,-0.46,0.0
24.012,0.619,-0.108,0.0
21.625,0.551,-0.213,0.0
18.691,0.471,-0.284,0.0
16.878,0.42,-0.349,0.0
15.621,0.384,-0.406,0.0
14.434,0.351,-0.453,0.0
24.927,0.597,-0.087,0.0
22.024,0.521,-0.195,0.0
19.13,0.447,-0.271,0.0
17.094,0.394,-0.336,0.0
15.839,0.36,-0.396,0.0
14.649,0.329,-0.444,0.0
25.38,0.561,-0.063,0.0
22.546,0.492,-0.176,0.0
19.748,0.425,-0.26,0.0
17.477,0.371,-0.325,0.0
16.075,0.337,-0.385,0.0
14.821,0.306,-0.434,0.0
25.963,0.527,-0.037,0.0
23.193,0.464,-0.157,0.0
20.128,0.397,-0.243,0.0
17.878,0.347,-0.313,0.0
16.379,0.313,-0.374,0.0
15.083,0.284,-0.425,0.0
26.628,0.493,-0.009,0.0
23.794,0.433,-0.134,0.0
20.478,0.367,-0.225,0.0
18.217,0.321,-0.299,0.0
16.628,0.288,-0.361,0.0
15.465,0.264,-0.418,0.0
27.076,0.453,0.021,0.0
24.291,0.399,-0.109,0.0
21.828,0.352,-0.214,0.0
18.662,0.296,-0.284,0.0
16.889,0.263,-0.347,0.0
15.655,0.239,-0.405,0.0
28.328,0.424,0.055,0.0
25.05,0.367,-0.084,0.0
22.069,0.317,-0.191,0.0
19.096,0.269,-0.269,0.0
17.216,0.237,-0.333,0.0
15.919,0.215,-0.393,0.0
28.792,0.38,0.09,4.0
25.725,0.332,-0.055,0.0
22.979,0.29,-0.171,0.0
19.89,0.246,-0.255,0.0
17.647,0.213,-0.32,0.0
16.217,0.191,-0.38,0.0
28.892,0.331,0.127,5.0
26.454,0.296,-0.024,0.0
23.519,0.256,-0.146,0.0
20.556,0.218,-0.238,0.0
18.206,0.188,-0.307,0.0
16.552,0.166,-0.367,0.0
28.937,0.282,0.163,1.0
26.925,0.255,0.009,0.0
24.087,0.221,-0.118,0.0
21.44,0.191,-0.221,1.0
18.615,0.16,-0.29,0.0
16.829,0.14,-0.351,0.0
31.686,0.255,0.22,0.0
27.93,0.217,0.046,0.0
25.097,0.188,-0.09,0.0
22.106,0.159,-0.198,2.0
19.137,0.132,-0.273,0.0
17.165,0.114,-0.335,0.0
31.856,0.203,0.264,0.0
28.686,0.175,0.086,1.0
25.695,0.149,-0.058,0.0
22.806,0.126,-0.174,1.0
19.861,0.104,-0.256,0.0
17.597,0.088,-0.32,0.0
0.0,0.0,0.0,0.0
28.813,0.128,0.125,0.0
26.566,0.111,-0.023,0.0
23.354,0.091,-0.146,1.0
20.895,0.076,-0.241,1.0
18.185,0.061,-0.305,0.0
35.53,0.109,0.392,0.0
30.271,0.085,0.174,0.0
27.241,0.069,0.013,0.0
24.178,0.055,-0.117,0.0
21.305,0.043,-0.215,4.0
18.627,0.032,-0.286,0.0
36.492,0.054,0.454,0.0
0.0,0.0,0.0,0.0
28.321,0.027,0.054,1.0
25.231,0.017,-0.086,0.0
22.02,0.009,-0.191,0.0
19.467,0.003,-0.271,0.0
0.0,0.0,0.0,0.0
33.051,-0.011,0.285,0.0
28.728,-0.017,0.097,2.0
25.888,-0.022,-0.051,0.0
23.238,-0.026,-0.167,0.0
20.125,-0.028,-0.251,0.0
40.154,-0.066,0.617,0.0
33.693,-0.064,0.341,0.0
28.866,-0.062,0.14,4.0
26.665,-0.064,-0.012,0.0
23.903,-0.064,-0.136,0.0
21.014,-0.061,-0.23,0.0
0.0,0.0,0.0,0.0
35.811,-0.123,0.416,0.0
31.19,-0.115,0.199,1.0
27.864,-0.11,0.029,0.0
24.677,-0.103,-0.103,0.0
21.897,-0.097,-0.206,1.0
0.0,0.0,0.0,0.0
0.0,0.0,0.0,0.0
32.019,-0.166,0.254,1.0
28.713,-0.156,0.074,6.0
25.683,-0.146,-0.067,0.0
22.827,-0.135,-0.179,0.0
0.0,0.0,0.0,0.0
0.0,0.0,0.0,0.0
0.0,0.0,0.0,0.0
28.795,-0.199,0.12,6.0
26.4,-0.189,-0.027,0.0
23.831,-0.176,-0.149,0.0
0.0,0.0,0.0,0.0
0.0,0.0,0.0,0.0
0.0,0.0,0.0,0.0
31.204,-0.26,0.18,0.0
27.534,-0.236,0.014,1.0
24.34,-0.214,-0.113,0.0
0.0,0.0,0.0,0.0
0.0,0.0,0.0,0.0
0.0,0.0,0.0,0.0
32.017,-0.312,0.236,1.0
28.454,-0.284,0.061,1.0
25.421,-0.259,-0.077,0.0
0.0,0.0,0.0,0.0
0.0,0.0,0.0,0.0
0.0,0.0,0.0,0.0
32.922,-0.366,0.296,1.0
28.738,-0.326,0.108,0.0
26.285,-0.304,-0.037,0.0
0.0,0.0,0.0,0.0
0.0,0.0,0.0,0.0
0.0,0.0,0.0,0.0
33.965,-0.423,0.362,0.0
30.77,-0.39,0.167,0.0
27.381,-0.353,0.006,0.0
85.756,-1.126,2.408,1.0
0.0,0.0,0.0,0.0
0.0,0.0,0.0,0.0
0.0,0.0,0.0,0.0
32.001,-0.447,0.228,0.0
28.46,-0.404,0.054,1.0
87.251,-1.259,2.597,1.0
0.0,0.0,0.0,0.0
47.663,-0.707,0.922,0.0
0.0,0.0,0.0,0.0
33.76,-0.515,0.298,1.0
28.693,-0.444,0.104,0.0
96.674,-1.516,3.042,5.0
0.0,0.0,0.0,0.0
0.0,0.0,0.0,0.0
0.0,0.0,0.0,0.0
34.087,-0.562,0.359,0.0
30.548,-0.51,0.163,0.0
96.973,-1.642,3.22,20.0
88.437,-1.514,2.476,1.0
0.0,0.0,0.0,0.0
0.0,0.0,0.0,0.0
36.446,-0.645,0.448,0.0
31.791,-0.569,0.225,0.0
96.981,-1.758,3.389,38.0
89.407,-1.638,2.66,1.0
0.0,0.0,0.0,0.0
0.0,0.0,0.0,0.0
38.514,-0.728,0.541,0.0
33.34,-0.636,0.296,2.0
96.925,-1.87,3.559,41.0
96.828,-1.886,3.052,6.0
0.0,0.0,0.0,0.0
0.0,0.0,0.0,0.0
43.105,-0.863,0.683,0.0
34.56,-0.699,0.368,0.0
96.917,-1.981,3.733,45.0
96.906,-1.998,3.228,5.0
0.0,0.0,0.0,0.0
0.0,0.0,0.0,0.0
0.0,0.0,0.0,0.0
0.0,0.0,0.0,0.0
96.955,-2.087,3.908,16.0
128.352,-2.786,4.508,13.0
91.724,-2.007,2.745,1.0
0.0,0.0,0.0,0.0
0.0,0.0,0.0,0.0
0.0,0.0,0.0,0.0
128.396,-2.902,5.41,31.0
128.395,-2.924,4.744,31.0
96.936,-2.224,3.079,5.0
0.0,0.0,0.0,0.0
0.0,0.0,0.0,0.0
0.0,0.0,0.0,0.0
171.617,-4.054,7.543,18.0
171.635,-4.083,6.653,25.0
0.0,0.0,0.0,0.0
0.0,0.0,0.0,0.0
0.0,0.0,0.0,0.0
0.0,0.0,0.0,0.0
171.716,-4.227,7.863,34.0
171.625,-4.252,6.969,26.0
166.075,-4.138,5.881,148.0
94.36,-2.365,2.843,2.0
0.0,0.0,0.0,0.0
0.0,0.0,0.0,0.0
171.831,-4.392,8.184,13.0
190.2,-4.89,8.071,16.0
92.502,-2.391,3.445,11.0
92.488,-2.404,2.956,4.0
0.0,0.0,0.0,0.0
0.0,0.0,0.0,0.0
189.368,-5.012,9.367,20.0
190.162,-5.058,8.419,18.0
92.511,-2.473,3.614,5.0
92.391,-2.482,3.121,176.0
0.0,0.0,0.0,0.0
0.0,0.0,0.0,0.0
99.209,-2.711,5.089,4.0
189.759,-5.21,8.751,20.0
92.622,-2.555,3.79,5.0
92.326,-2.559,3.291,182.0
93.174,-2.594,2.838,2.0
0.0,0.0,0.0,0.0
96.981,-2.731,5.156,13.0
189.665,-5.364,9.097,20.0
93.199,-2.647,3.987,2.0
92.326,-2.634,3.462,30.0
92.34,-2.646,2.986,9.0
0.0,0.0,0.0,0.0
97.081,-2.811,5.343,23.0
189.902,-5.52,9.463,16.0
190.232,-5.552,8.494,5.0
92.334,-2.705,3.635,17.0
92.246,-2.713,3.154,56.0
0.0,0.0,0.0,0.0
97.529,-2.898,5.55,17.0
97.361,-2.902,5.034,6.0
189.844,-5.681,8.832,21.0
92.382,-2.774,3.809,2.0
92.259,-2.779,3.325,38.0
93.262,-2.82,2.88,1.0
111.214,-3.384,6.535,9.0
97.372,-2.972,5.216,6.0
189.842,-5.814,9.186,20.0
0.0,0.0,0.0,0.0
92.252,-2.842,3.497,38.0
92.239,-2.851,3.02,14.0
98.315,-3.058,5.963,11.0
190.139,-5.933,10.546,9.0
190.314,-5.956,9.569,13.0
190.743,-5.985,8.583,8.0
92.263,-2.904,3.674,26.0
92.184,-2.91,3.193,45.0
95.989,-3.048,6.005,5.0
99.355,-3.163,5.7,7.0
123.722,-3.949,6.456,13.0
190.25,-6.089,8.922,21.0
0.0,0.0,0.0,0.0
92.254,-2.967,3.371,152.0
95.971,-3.105,6.186,13.0
99.044,-3.212,5.869,18.0
131.234,-4.265,7.094,15.0
190.201,-6.197,9.275,14.0
0.0,0.0,0.0,0.0
92.243,-3.018,3.542,151.0
94.316,-3.104,6.255,10.0
98.58,-3.251,6.026,17.0
123.286,-4.074,6.896,10.0
123.014,-4.073,6.231,8.0
190.341,-6.316,8.653,16.0
92.219,-3.065,3.715,18.0
94.387,-3.156,6.44,10.0
94.302,-3.159,5.943,23.0
99.157,-3.326,5.732,23.0
122.981,-4.133,6.458,20.0
190.646,-6.419,9.024,20.0
0.0,0.0,0.0,0.0
87.7,-2.974,6.147,19.0
94.363,-3.205,6.124,21.0
99.207,-3.375,5.922,11.0
123.504,-4.207,6.717,12.0
190.543,-6.501,9.376,21.0
93.327,-3.189,4.108,1.0
87.896,-3.019,6.327,16.0
96.034,-3.303,6.412,9.0
94.272,-3.247,5.805,15.0
115.374,-3.979,6.493,10.0
122.91,-4.243,6.279,8.0
190.146,-6.574,8.727,17.0
87.913,-3.056,6.494,14.0
96.162,-3.345,6.601,16.0
95.935,-3.341,6.087,7.0
99.187,-3.458,5.768,17.0
122.848,-4.287,6.505,19.0
190.791,-6.664,9.113,16.0
87.842,-3.085,6.654,8.0
87.986,-3.093,6.205,17.0
90.416,-3.181,5.906,12.0
98.379,-3.463,5.903,18.0
113.353,-3.993,6.214,6.0
190.561,-6.719,9.458,7.0
88.299,-3.13,6.854,7.0
88.146,-3.125,6.382,10.0
88.15,-3.127,5.922,8.0
95.82,-3.402,5.929,15.0
113.312,-4.024,6.422,15.0
122.866,-4.366,6.326,5.0
80.896,-2.89,6.429,5.0
88.172,-3.151,6.548,10.0
88.146,-3.15,6.086,16.0
95.769,-3.424,6.104,13.0
98.501,-3.523,5.765,11.0
113.381,-4.057,6.047,17.0
87.519,-3.147,7.118,19.0
88.247,-3.174,6.717,13.0
88.205,-3.173,6.253,21.0
90.413,-3.253,5.93,13.0
98.143,-3.53,5.925,16.0
113.297,-4.076,6.251,21.0
80.262,-2.903,6.678,11.0
88.34,-3.195,6.888,16.0
88.335,-3.193,6.425,13.0
88.135,-3.186,5.942,15.0
95.261,-3.443,5.925,11.0
113.24,-4.092,6.453,11.0
79.867,-2.901,6.791,21.0
87.546,-3.179,6.986,14.0
88.178,-3.2,6.574,13.0
88.247,-3.202,6.108,31.0
95.241,-3.455,6.096,15.0
98.619,-3.576,5.799,12.0
79.985,-2.915,6.947,28.0
80.379,-2.928,6.559,12.0
88.237,-3.212,6.739,21.0
88.273,-3.211,6.27,25.0
88.148,-3.205,5.801,5.0
94.984,-3.452,5.756,19.0
79.916,-2.919,7.086,19.0
80.176,-2.926,6.687,12.0
88.276,-3.219,6.901,17.0
88.324,-3.219,6.433,11.0
88.225,-3.213,5.965,21.0
95.213,-3.464,5.94,10.0
66.567,-2.434,6.021,11.0
79.885,-2.918,6.806,28.0
87.554,-3.195,7.0,16.0
88.169,-3.214,6.578,14.0
88.262,-3.215,6.123,32.0
95.194,-3.464,6.105,15.0
66.577,-2.435,6.139,18.0
79.983,-2.921,6.954,27.0
80.358,-2.931,6.565,12.0
88.23,-3.215,6.736,20.0
88.294,-3.213,6.277,23.0
90.494,-3.29,5.961,5.0
82.371,-3.01,7.74,13.0
79.914,-2.915,7.088,19.0
80.103,-2.918,6.683,11.0
88.332,-3.214,6.897,18.0
88.347,-3.21,6.435,13.0
88.218,-3.2,5.963,18.0
82.338,-3.002,7.88,8.0
66.59,-2.424,6.022,16.0
79.87,-2.902,6.801,26.0
87.522,-3.176,6.984,15.0
88.178,-3.194,6.574,14.0
88.219,-3.191,6.115,25.0
65.102,-2.366,6.343,12.0
66.637,-2.417,6.142,22.0
79.966,-2.896,6.948,24.0
87.525,-3.163,7.134,16.0
88.243,-3.184,6.728,13.0
88.252,-3.179,6.266,20.0
64.989,-2.352,6.442,32.0
66.6,-2.405,6.25,8.0
79.928,-2.881,7.08,20.0
87.588,-3.151,7.287,12.0
88.437,-3.175,6.892,9.0
88.095,-3.157,6.402,10.0
64.788,-2.333,6.532,41.0
82.306,-2.957,7.862,6.0
66.609,-2.388,6.01,28.0
87.589,-3.132,7.431,10.0
87.43,-3.12,6.956,8.0
89.936,-3.203,6.682,10.0
64.439,-2.305,6.603,31.0
65.695,-2.345,6.383,12.0
66.623,-2.372,6.119,30.0
79.927,-2.839,6.911,16.0
87.545,-3.102,7.108,15.0
87.962,-3.11,6.679,8.0
64.521,-2.292,6.717,31.0
65.108,-2.306,6.432,39.0
80.047,-2.829,7.483,8.0
79.987,-2.819,7.047,17.0
80.358,-2.824,6.654,16.0
85.952,-3.013,6.664,5.0
64.626,-2.276,6.832,27.0
64.89,-2.279,6.514,36.0
64.872,-2.272,6.168,26.0
66.586,-2.325,5.972,22.0
80.301,-2.796,6.776,21.0
80.849,-2.807,6.396,12.0
64.705,-2.257,6.944,28.0
64.55,-2.245,6.584,32.0
65.499,-2.271,6.333,41.0
66.589,-2.301,6.077,23.0
80.262,-2.766,6.9,14.0
80.818,-2.777,6.521,7.0
64.658,-2.231,7.041,30.0
64.592,-2.222,6.689,28.0
65.414,-2.243,6.426,40.0
66.574,-2.275,6.178,11.0
80.229,-2.733,7.02,16.0
88.436,-3.004,7.268,8.0
64.971,-2.216,7.174,41.0
64.779,-2.202,6.807,35.0
64.984,-2.202,6.482,34.0
64.819,-2.188,6.114,19.0
80.275,-2.701,7.144,13.0
80.322,-2.693,6.722,17.0
77.674,-2.615,8.694,13.0
65.048,-2.182,6.933,37.0
64.788,-2.166,6.559,40.0
64.871,-2.16,6.215,31.0
0.0,0.0,0.0,0.0
80.267,-2.653,6.837,12.0
77.537,-2.574,8.796,26.0
64.846,-2.144,7.008,37.0
64.684,-2.13,6.645,33.0
64.94,-2.13,6.317,26.0
66.547,-2.175,6.118,23.0
80.305,-2.614,6.955,18.0
77.678,-2.54,8.924,13.0
64.847,-2.112,7.101,30.0
64.813,-2.101,6.75,36.0
64.971,-2.098,6.412,30.0
64.861,-2.086,6.055,18.0
77.329,-2.476,6.807,9.0
65.206,-2.096,7.585,19.0
64.882,-2.077,7.198,15.0
65.03,-2.073,6.865,35.0
65.013,-2.063,6.509,28.0
64.909,-2.05,6.151,32.0
73.742,-2.319,6.595,8.0
65.11,-2.056,7.665,17.0
65.306,-2.053,7.336,17.0
64.832,-2.028,6.935,29.0
64.842,-2.019,6.581,35.0
64.942,-2.013,6.243,32.0
67.32,-2.077,6.112,22.0
77.638,-2.404,9.246,17.0
65.335,-2.013,7.428,16.0
64.902,-1.99,7.03,30.0
64.78,-1.977,6.661,40.0
64.849,-1.969,6.321,34.0
66.928,-2.023,6.164,24.0
77.628,-2.355,9.349,30.0
65.246,-1.969,7.504,24.0
64.9,-1.949,7.115,39.0
64.975,-1.941,6.766,40.0
64.612,-1.92,6.38,32.0
66.53,-1.968,6.213,15.0
77.3,-2.294,9.408,27.0
65.257,-1.926,7.589,9.0
65.447,-1.921,7.258,36.0
65.039,-1.899,6.854,41.0
64.538,-1.875,6.454,30.0
64.022,-1.85,6.058,11.0
74.12,-2.148,9.115,9.0
77.818,-2.243,9.148,25.0
65.561,-1.879,7.352,10.0
64.937,-1.851,6.924,33.0
64.641,-1.831,6.544,35.0
64.063,-1.805,6.141,26.0
74.122,-2.095,9.207,28.0
0.0,0.0,0.0,0.0
77.565,-2.166,8.792,7.0
64.907,-1.802,6.999,32.0
64.804,-1.789,6.638,35.0
64.119,-1.759,6.222,26.0
74.223,-2.042,9.308,27.0
76.251,-2.085,9.147,13.0
77.617,-2.109,8.889,9.0
64.908,-1.753,7.075,29.0
64.723,-1.737,6.704,35.0
64.342,-1.715,6.317,36.0
74.417,-1.99,9.418,21.0
74.097,-1.969,8.973,6.0
75.462,-1.992,8.727,27.0
64.958,-1.703,7.153,33.0
64.606,-1.683,6.764,33.0
64.565,-1.671,6.41,33.0
64.224,-1.666,8.2,15.0
77.204,-1.989,9.435,12.0
0.0,0.0,0.0,0.0
65.127,-1.655,7.243,24.0
64.448,-1.626,6.817,30.0
65.17,-1.633,6.541,29.0
64.232,-1.613,8.271,26.0
74.357,-1.854,9.168,10.0
74.141,-1.835,8.736,35.0
65.41,-1.606,7.344,11.0
64.699,-1.578,6.912,39.0
64.944,-1.572,6.585,30.0
64.302,-1.56,8.347,27.0
74.465,-1.793,9.258,25.0
74.27,-1.774,8.827,31.0
65.354,-1.549,7.404,11.0
65.158,-1.533,7.026,39.0
64.649,-1.509,6.62,32.0
64.749,-1.514,8.47,41.0
74.56,-1.729,9.344,27.0
74.375,-1.712,8.913,40.0
74.208,-1.694,8.479,11.0
65.342,-1.478,7.11,23.0
64.587,-1.449,6.676,31.0
64.913,-1.459,8.554,42.0
64.303,-1.433,8.12,12.0
74.334,-1.643,8.978,33.0
65.246,-1.43,7.517,18.0
65.271,-1.418,7.162,26.0
64.527,-1.39,6.728,26.0
64.634,-1.394,8.577,35.0
64.461,-1.378,8.199,16.0
74.22,-1.572,9.032,34.0
65.2,-1.368,7.57,21.0
65.391,-1.36,7.233,37.0
64.592,-1.331,6.792,28.0
64.452,-1.329,8.61,26.0
64.534,-1.318,8.265,29.0
74.248,-1.502,9.1,24.0
74.512,-1.493,8.715,13.0
65.216,-1.294,7.27,31.0
64.989,-1.277,6.888,40.0
64.864,-1.275,8.72,6.0
64.499,-1.255,8.314,24.0
58.252,-1.122,7.187,24.0
68.453,-1.305,8.062,15.0
65.411,-1.235,7.343,40.0
65.477,-1.223,6.991,35.0
58.213,-1.087,7.872,30.0
0.0,0.0,0.0,0.0
58.322,-1.066,7.241,32.0
74.5,-1.347,8.83,17.0
68.409,-1.224,7.732,11.0
65.287,-1.156,7.02,13.0
58.15,-1.028,7.907,29.0
62.743,-1.097,8.183,23.0
58.334,-1.008,7.285,26.0
74.205,-1.268,8.849,14.0
65.2,-1.101,7.416,8.0
58.779,-0.981,6.362,23.0
58.167,-0.969,7.951,25.0
62.706,-1.033,8.222,20.0
58.371,-0.95,7.33,24.0
59.924,-0.964,7.187,26.0
63.834,-1.013,7.303,39.0
65.328,-1.024,7.114,10.0
58.181,-0.91,7.992,26.0
58.23,-0.899,7.674,32.0
58.631,-0.893,7.401,30.0
59.391,-0.893,7.161,36.0
63.454,-0.942,7.3,28.0
0.0,0.0,0.0,0.0
58.189,-0.849,8.029,24.0
58.293,-0.839,7.718,32.0
64.15,-0.91,8.136,8.0
58.534,-0.818,7.093,24.0
63.344,-0.874,7.324,28.0
64.23,-0.873,7.071,6.0
58.391,-0.79,8.091,21.0
58.437,-0.779,7.77,32.0
58.116,-0.763,7.403,26.0
58.485,-0.757,7.119,33.0
63.387,-0.807,7.363,9.0
57.263,-0.717,6.335,18.0
58.218,-0.726,8.098,6.0
58.463,-0.716,7.805,28.0
57.928,-0.698,7.409,30.0
58.535,-0.694,7.154,33.0
60.036,-0.7,7.004,21.0
57.237,-0.655,6.36,16.0
63.251,-0.719,8.829,11.0
58.616,-0.655,7.853,33.0
57.699,-0.633,7.407,32.0
58.619,-0.631,7.192,33.0
59.998,-0.634,7.027,23.0
57.199,-0.593,6.381,26.0
58.38,-0.6,8.175,17.0
58.405,-0.589,7.85,32.0
57.211,-0.565,7.369,31.0
58.874,-0.57,7.247,33.0
60.024,-0.569,7.054,25.0
60.039,-0.558,6.721,7.0
63.646,-0.585,8.937,15.0
58.449,-0.525,7.878,32.0
57.253,-0.503,7.395,31.0
58.817,-0.505,7.262,34.0
59.671,-0.5,7.034,33.0
57.325,-0.47,6.438,17.0
63.695,-0.514,8.966,40.0
58.57,-0.461,7.915,33.0
57.123,-0.438,7.398,27.0
57.334,-0.428,7.097,24.0
59.858,-0.435,7.075,28.0
57.417,-0.406,6.466,18.0
63.381,-0.441,8.941,40.0
51.658,-0.349,6.996,22.0
58.36,-0.382,7.575,32.0
57.205,-0.364,7.097,15.0
59.926,-0.369,7.099,28.0
57.344,-0.342,6.472,18.0
63.631,-0.37,8.993,9.0
51.741,-0.291,7.02,20.0
58.454,-0.317,7.601,32.0
57.227,-0.299,7.113,26.0
59.918,-0.302,7.111,31.0
57.446,-0.278,6.496,16.0
59.262,-0.278,8.388,19.0
51.789,-0.233,7.037,24.0
58.386,-0.251,7.603,32.0
57.28,-0.235,7.13,31.0
59.93,-0.234,7.123,8.0
59.792,-0.222,6.771,8.0
