X,Y,Z,Reflectivity
25.619,-0.244,-0.059,0.0
22.939,-0.213,-0.172,0.0
20.01,-0.181,-0.256,0.0
17.788,-0.157,-0.321,0.0
16.384,-0.141,-0.381,0.0
28.83,-0.242,0.131,3.0
26.704,-0.218,-0.017,0.0
24.039,-0.191,-0.14,0.0
20.984,-0.162,-0.234,0.0
18.373,-0.137,-0.301,0.0
16.743,-0.121,-0.362,0.0
31.327,-0.22,0.194,1.0
27.833,-0.189,0.027,0.0
24.858,-0.163,-0.105,0.0
21.997,-0.139,-0.21,1.0
19.119,-0.116,-0.282,0.0
17.197,-0.101,-0.344,0.0
32.115,-0.181,0.25,1.0
28.735,-0.155,0.074,7.0
25.54,-0.131,-0.067,0.0
22.958,-0.113,-0.183,0.0
19.95,-0.093,-0.263,0.0
17.742,-0.078,-0.327,0.0
33.254,-0.14,0.312,1.0
28.871,-0.114,0.12,6.0
26.709,-0.099,-0.028,0.0
23.735,-0.082,-0.151,0.0
20.759,-0.067,-0.241,0.0
18.215,-0.054,-0.307,0.0
0.0,0.0,0.0,0.0
30.23,-0.075,0.173,1.0
27.493,-0.061,0.013,0.0
24.544,-0.048,-0.118,0.0
21.546,-0.037,-0.216,0.0
18.806,-0.028,-0.287,0.0
37.204,-0.046,0.466,0.0
31.481,-0.03,0.229,0.0
28.541,-0.02,0.058,1.0
25.487,-0.012,-0.083,0.0
22.396,-0.004,-0.19,0.0
19.514,0.0,-0.268,0.0
0.0,0.0,0.0,0.0
33.239,0.018,0.293,0.0
28.775,0.023,0.102,0.0
26.187,0.027,-0.046,0.0
23.519,0.03,-0.165,1.0
20.718,0.032,-0.254,0.0
41.847,0.076,0.651,0.0
34.271,0.071,0.353,0.0
29.71,0.07,0.15,0.0
26.963,0.07,-0.007,0.0
24.262,0.07,-0.134,0.0
21.316,0.067,-0.23,4.0
0.0,0.0,0.0,0.0
0.0,0.0,0.0,0.0
31.55,0.124,0.206,0.0
28.013,0.118,0.033,0.0
25.055,0.113,-0.102,0.0
22.105,0.105,-0.206,2.0
0.0,0.0,0.0,0.0
0.0,0.0,0.0,0.0
0.0,0.0,0.0,0.0
28.723,0.167,0.074,1.0
25.688,0.157,-0.068,0.0
22.603,0.144,-0.179,0.0
0.0,0.0,0.0,0.0
40.528,0.281,0.593,0.0
0.0,0.0,0.0,0.0
28.896,0.215,0.115,3.0
26.522,0.205,-0.034,0.0
23.718,0.19,-0.155,0.0
0.0,0.0,0.0,0.0
0.0,0.0,0.0,0.0
34.944,0.309,0.375,0.0
29.045,0.265,0.155,0.0
27.151,0.255,0.001,0.0
24.445,0.236,-0.127,0.0
0.0,0.0,0.0,0.0
0.0,0.0,0.0,0.0
36.431,0.383,0.439,0.0
31.335,0.338,0.209,0.0
28.593,0.317,0.04,1.0
25.078,0.285,-0.097,0.0
57.394,0.67,1.375,1.0
0.0,0.0,0.0,0.0
0.0,0.0,0.0,0.0
32.221,0.403,0.257,0.0
28.829,0.369,0.077,5.0
25.901,0.338,-0.067,0.0
56.204,0.752,1.419,0.0
0.0,0.0,0.0,0.0
40.47,0.564,0.593,0.0
33.917,0.482,0.313,0.0
28.889,0.419,0.113,4.0
26.41,0.39,-0.035,0.0
55.44,0.838,1.47,0.0
0.0,0.0,0.0,0.0
0.0,0.0,0.0,0.0
34.988,0.558,0.366,1.0
30.49,0.495,0.157,0.0
27.069,0.447,-0.003,0.0
55.007,0.928,1.526,1.0
54.856,0.941,1.23,6.0
0.0,0.0,0.0,0.0
0.0,0.0,0.0,0.0
31.442,0.566,0.2,0.0
27.881,0.51,0.029,0.0
0.0,0.0,0.0,0.0
0.0,0.0,0.0,0.0
0.0,0.0,0.0,0.0
0.0,0.0,0.0,0.0
32.276,0.638,0.242,0.0
28.69,0.575,0.062,1.0
54.329,1.108,1.634,0.0
54.289,1.123,1.343,0.0
0.0,0.0,0.0,0.0
40.52,0.861,0.566,0.0
33.36,0.718,0.288,0.0
28.866,0.63,0.095,1.0
54.469,1.208,1.698,8.0
54.181,1.218,1.4,1.0
57.831,1.316,1.185,5.0
0.0,0.0,0.0,0.0
34.063,0.795,0.331,0.0
28.963,0.684,0.126,0.0
54.424,1.306,1.756,21.0
54.079,1.313,1.456,1.0
57.442,1.411,1.238,3.0
0.0,0.0,0.0,0.0
35.884,0.903,0.386,0.0
29.035,0.739,0.157,0.0
54.245,1.4,1.807,1.0
54.073,1.411,1.511,2.0
54.471,1.437,1.231,1.0
0.0,0.0,0.0,0.0
0.0,0.0,0.0,0.0
31.331,0.855,0.202,0.0
0.0,0.0,0.0,0.0
54.062,1.511,1.566,3.0
54.178,1.531,1.279,2.0
48.152,1.374,0.873,0.0
0.0,0.0,0.0,0.0
32.889,0.958,0.244,1.0
0.0,0.0,0.0,0.0
54.133,1.613,1.62,3.0
54.218,1.632,1.332,9.0
55.382,1.683,1.057,3.0
40.318,1.237,0.553,0.0
33.209,1.029,0.277,1.0
0.0,0.0,0.0,0.0
54.169,1.715,1.672,1.0
54.107,1.729,1.379,138.0
50.992,1.644,1.02,0.0
0.0,0.0,0.0,0.0
33.782,1.109,0.312,1.0
51.135,1.7,1.9,1.0
50.97,1.71,1.619,2.0
0.0,0.0,0.0,0.0
50.556,1.725,1.056,0.0
0.0,0.0,0.0,0.0
0.0,0.0,0.0,0.0
50.551,1.775,1.921,2.0
50.234,1.78,1.639,2.0
50.142,1.791,1.365,2.0
50.442,1.816,1.096,0.0
47.271,1.716,0.772,1.0
36.043,1.319,0.394,0.0
50.38,1.864,1.957,1.0
49.639,1.852,1.66,3.0
49.616,1.865,1.391,3.0
49.467,1.873,1.114,0.0
47.333,1.807,0.811,0.0
37.97,1.461,0.445,0.0
49.795,1.936,1.973,1.0
49.082,1.923,1.679,2.0
48.906,1.931,1.409,2.0
48.855,1.942,1.138,1.0
0.0,0.0,0.0,0.0
38.256,1.544,0.477,0.0
48.664,1.985,1.964,12.0
48.626,1.997,1.7,2.0
48.352,2.001,1.428,4.0
48.424,2.018,1.163,10.0
48.009,2.014,0.893,0.0
0.0,0.0,0.0,0.0
48.742,2.081,2.003,4.0
48.231,2.073,1.72,2.0
48.178,2.085,1.456,2.0
0.0,0.0,0.0,0.0
47.625,2.088,0.918,0.0
0.0,0.0,0.0,0.0
48.677,2.171,2.033,7.0
47.889,2.149,1.739,3.0
47.55,2.148,1.469,11.0
47.459,2.158,1.203,14.0
47.593,2.178,0.948,0.0
41.725,1.921,0.604,0.0
0.0,0.0,0.0,0.0
47.768,2.235,1.765,3.0
47.446,2.234,1.495,14.0
47.446,2.247,1.232,7.0
47.386,2.258,0.972,0.0
0.0,0.0,0.0,0.0
0.0,0.0,0.0,0.0
47.939,2.335,1.799,3.0
47.449,2.324,1.522,11.0
47.382,2.334,1.257,17.0
47.307,2.345,0.997,1.0
49.808,2.484,0.779,1.0
0.0,0.0,0.0,0.0
48.182,2.439,1.835,1.0
47.586,2.422,1.552,150.0
47.331,2.423,1.281,19.0
47.302,2.434,1.022,1.0
49.324,2.553,0.797,3.0
0.0,0.0,0.0,0.0
48.099,2.526,1.856,0.0
47.54,2.51,1.575,79.0
47.288,2.51,1.303,22.0
47.238,2.521,1.043,1.0
48.9,2.624,0.813,4.0
0.0,0.0,0.0,0.0
48.243,2.625,1.884,0.0
47.44,2.595,1.593,7.0
47.245,2.597,1.323,24.0
47.254,2.611,1.065,0.0
48.593,2.699,0.829,3.0
0.0,0.0,0.0,0.0
0.0,0.0,0.0,0.0
47.413,2.683,1.612,6.0
47.221,2.685,1.341,30.0
47.308,2.703,1.085,2.0
53.098,3.049,0.927,1.0
0.0,0.0,0.0,0.0
0.0,0.0,0.0,0.0
47.46,2.776,1.631,8.0
47.196,2.773,1.358,48.0
47.251,2.789,1.101,1.0
47.483,2.816,0.846,0.0
0.0,0.0,0.0,0.0
0.0,0.0,0.0,0.0
47.462,2.865,1.648,7.0
47.184,2.861,1.374,48.0
47.225,2.876,1.115,153.0
53.706,3.287,0.974,2.0
0.0,0.0,0.0,0.0
0.0,0.0,0.0,0.0
47.538,2.959,1.664,5.0
47.183,2.95,1.388,46.0
47.23,2.966,1.129,156.0
47.396,2.99,0.872,0.0
0.0,0.0,0.0,0.0
0.0,0.0,0.0,0.0
47.558,3.05,1.677,4.0
47.185,3.039,1.4,37.0
47.228,3.055,1.141,159.0
47.343,3.075,0.883,1.0
80.908,5.298,3.765,0.0
0.0,0.0,0.0,0.0
47.672,3.146,1.692,3.0
47.209,3.128,1.41,28.0
47.246,3.143,1.151,162.0
47.3,3.16,0.891,1.0
80.837,5.443,3.778,5.0
0.0,0.0,0.0,0.0
47.67,3.235,1.701,3.0
47.243,3.218,1.419,21.0
47.265,3.232,1.159,163.0
47.305,3.247,0.899,2.0
80.798,5.591,3.789,9.0
0.0,0.0,0.0,0.0
47.778,3.33,1.711,2.0
47.255,3.305,1.426,20.0
47.279,3.32,1.166,162.0
47.34,3.337,0.906,2.0
80.849,5.742,3.8,16.0
0.0,0.0,0.0,0.0
47.797,3.419,1.717,2.0
47.282,3.394,1.432,18.0
47.311,3.408,1.171,11.0
47.354,3.424,0.91,2.0
81.286,5.922,3.827,16.0
0.0,0.0,0.0,0.0
47.965,3.518,1.726,2.0
47.305,3.482,1.435,17.0
47.345,3.497,1.174,13.0
47.399,3.513,0.912,2.0
81.107,6.057,3.822,19.0
81.475,6.103,3.386,8.0
48.066,3.613,1.731,1.0
47.388,3.573,1.438,11.0
47.388,3.585,1.175,16.0
47.403,3.598,0.913,2.0
81.408,6.226,3.836,27.0
81.406,6.244,3.383,19.0
48.176,3.707,1.734,3.0
47.454,3.663,1.439,8.0
47.447,3.675,1.176,17.0
47.5,3.69,0.913,2.0
81.815,6.402,3.852,15.0
81.705,6.413,3.392,29.0
48.149,3.79,1.73,2.0
47.524,3.752,1.439,8.0
47.526,3.765,1.174,13.0
47.487,3.774,0.909,0.0
81.564,6.527,3.834,17.0
81.373,6.53,3.372,17.0
81.007,6.519,2.904,9.0
47.592,3.841,1.436,5.0
47.659,3.858,1.173,5.0
47.709,3.874,0.908,0.0
81.58,6.669,3.826,12.0
62.92,5.158,2.599,9.0
62.672,5.152,2.239,8.0
47.706,3.933,1.433,4.0
47.673,3.941,1.166,12.0
49.421,4.098,0.934,4.0
52.117,4.351,2.436,22.0
52.16,4.367,2.146,23.0
52.188,4.381,1.856,24.0
52.227,4.396,1.56,22.0
52.131,4.4,1.266,10.0
49.061,4.152,0.918,4.0
52.081,4.438,2.424,54.0
52.101,4.451,2.133,56.0
52.116,4.464,1.842,50.0
52.123,4.476,1.546,33.0
52.088,4.485,1.254,13.0
48.65,4.201,0.899,4.0
52.084,4.526,2.412,48.0
52.102,4.539,2.121,50.0
52.101,4.55,1.829,47.0
52.113,4.562,1.533,40.0
52.035,4.567,1.239,11.0
48.265,4.247,0.879,3.0
61.623,5.457,2.838,10.0
52.16,4.63,2.11,20.0
52.14,4.639,1.817,27.0
52.134,4.65,1.519,23.0
51.964,4.646,1.223,12.0
47.901,4.294,0.859,5.0
0.0,0.0,0.0,0.0
61.191,5.532,2.456,21.0
62.125,5.63,2.145,36.0
62.232,5.653,1.793,8.0
51.94,4.728,1.205,10.0
47.633,4.347,0.838,4.0
60.624,5.566,2.754,24.0
60.588,5.575,2.411,25.0
61.026,5.628,2.086,35.0
65.735,6.076,1.871,7.0
51.868,4.805,1.185,11.0
47.274,4.39,0.815,4.0
60.593,5.66,2.73,36.0
60.365,5.65,2.379,28.0
60.247,5.652,2.036,25.0
62.6,5.885,1.757,15.0
51.763,4.877,1.162,13.0
46.9,4.429,0.789,6.0
60.418,5.738,2.697,30.0
60.011,5.711,2.341,34.0
60.322,5.753,2.013,20.0
62.47,5.97,1.727,6.0
51.641,4.945,1.137,10.0
46.598,4.472,0.764,5.0
60.672,5.856,2.682,24.0
59.483,5.752,2.294,30.0
60.245,5.837,1.984,25.0
62.203,6.039,1.691,9.0
51.467,5.007,1.11,4.0
46.333,4.516,0.738,6.0
59.816,5.864,2.615,35.0
59.473,5.841,2.265,29.0
60.211,5.924,1.954,11.0
61.351,6.048,1.638,9.0
51.494,5.086,1.085,3.0
46.05,4.558,0.711,10.0
59.365,5.908,2.566,20.0
59.132,5.895,2.222,28.0
60.061,5.998,1.918,21.0
60.725,6.076,1.59,7.0
46.8,4.691,0.961,2.0
45.728,4.592,0.681,5.0
59.337,5.991,2.533,25.0
59.206,5.988,2.192,27.0
60.095,6.088,1.885,23.0
0.0,0.0,0.0,0.0
46.347,4.712,0.926,4.0
45.457,4.63,0.652,3.0
59.05,6.045,2.487,29.0
59.26,6.077,2.16,33.0
59.848,6.147,1.843,21.0
59.194,6.09,1.483,5.0
46.212,4.763,0.896,5.0
45.214,4.668,0.621,5.0
59.002,6.122,2.449,27.0
58.863,6.118,2.11,30.0
59.414,6.185,1.793,32.0
59.144,6.167,1.445,1.0
45.67,4.77,0.857,14.0
45.079,4.716,0.591,3.0
58.69,6.171,2.399,34.0
58.879,6.199,2.073,32.0
59.621,6.287,1.761,23.0
51.568,5.446,1.226,2.0
45.442,4.807,0.823,11.0
44.875,4.755,0.559,1.0
58.759,6.256,2.363,34.0
59.189,6.31,2.044,28.0
59.839,6.389,1.727,20.0
51.539,5.511,1.191,5.0
45.213,4.842,0.788,7.0
42.304,4.538,0.498,0.0
59.24,6.384,2.341,26.0
59.288,6.397,2.007,24.0
60.531,6.541,1.705,35.0
46.373,5.018,1.038,3.0
44.904,4.866,0.751,5.0
0.0,0.0,0.0,0.0
59.153,6.449,2.294,25.0
59.018,6.443,1.954,22.0
60.044,6.563,1.647,31.0
46.272,5.065,1.002,11.0
44.735,4.904,0.715,4.0
38.015,4.173,0.392,0.0
59.006,6.505,2.245,25.0
58.928,6.504,1.907,29.0
59.891,6.619,1.597,24.0
46.056,5.096,0.962,12.0
44.623,4.945,0.679,4.0
37.815,4.196,0.361,0.0
59.071,6.582,2.201,24.0
58.958,6.577,1.862,23.0
59.367,6.631,1.538,10.0
45.794,5.121,0.921,10.0
44.538,4.987,0.643,4.0
0.0,0.0,0.0,0.0
59.078,6.651,2.155,18.0
58.986,6.648,1.815,9.0
57.839,6.527,1.45,5.0
45.621,5.154,0.88,11.0
44.107,4.989,0.6,4.0
34.299,3.884,0.272,0.0
59.376,6.751,2.116,20.0
61.645,7.016,1.846,5.0
46.427,5.29,1.126,16.0
45.395,5.178,0.838,11.0
42.88,4.897,0.547,2.0
33.523,3.833,0.237,0.0
46.478,5.334,1.616,17.0
46.424,5.333,1.35,21.0
46.368,5.332,1.085,15.0
44.871,5.165,0.79,3.0
41.313,4.761,0.492,1.0
32.832,3.788,0.204,1.0
46.409,5.373,1.574,33.0
46.378,5.375,1.309,27.0
46.264,5.367,1.042,16.0
44.36,5.152,0.742,4.0
40.664,4.727,0.448,0.0
32.196,3.747,0.171,1.0
46.385,5.417,1.532,41.0
46.347,5.417,1.266,29.0
46.111,5.395,0.996,11.0
44.271,5.185,0.7,6.0
37.225,4.364,0.376,0.0
31.757,3.727,0.14,1.0
46.361,5.458,1.488,47.0
46.338,5.46,1.223,32.0
45.856,5.408,0.949,10.0
44.183,5.216,0.657,6.0
36.986,4.37,0.34,0.0
29.418,3.479,0.102,0.0
46.356,5.5,1.445,43.0
46.344,5.502,1.18,28.0
45.674,5.427,0.902,12.0
44.066,5.241,0.614,3.0
36.544,4.35,0.301,0.0
29.298,3.491,0.074,1.0
46.369,5.541,1.401,37.0
46.342,5.542,1.136,20.0
45.474,5.443,0.854,10.0
43.882,5.256,0.57,0.0
33.526,4.019,0.244,0.0
29.158,3.499,0.045,1.0
46.387,5.582,1.356,15.0
46.333,5.579,1.09,15.0
44.793,5.397,0.798,4.0
42.5,5.125,0.51,0.0
33.175,4.004,0.208,0.0
28.053,3.388,0.016,0.0
58.833,7.125,1.662,14.0
46.229,5.602,1.041,11.0
44.08,5.346,0.741,4.0
40.298,4.891,0.443,0.0
32.214,3.912,0.17,0.0
27.237,3.31,-0.011,1.0
58.79,7.164,1.601,32.0
46.034,5.613,0.99,12.0
44.019,5.37,0.696,5.0
38.615,4.714,0.385,0.0
31.647,3.866,0.135,0.0
26.247,3.209,-0.037,1.0
57.84,7.088,1.516,10.0
45.755,5.61,0.938,17.0
43.956,5.393,0.649,5.0
36.542,4.486,0.327,0.0
29.402,3.612,0.095,0.0
26.011,3.198,-0.064,1.0
55.946,6.893,1.409,3.0
45.548,5.614,0.886,10.0
43.836,5.406,0.601,2.0
34.666,4.278,0.274,0.0
29.26,3.613,0.064,1.0
24.963,3.084,-0.087,0.0
51.682,6.399,1.246,2.0
45.263,5.606,0.833,4.0
42.087,5.216,0.533,1.0
33.841,4.196,0.231,0.0
28.679,3.558,0.032,1.0
24.049,2.985,-0.11,1.0
46.425,5.774,1.071,3.0
43.967,5.471,0.762,3.0
41.984,5.226,0.487,1.0
32.344,4.028,0.187,0.0
28.203,3.514,0.001,1.0
23.786,2.965,-0.134,3.0
46.238,5.775,1.016,6.0
43.893,5.484,0.713,6.0
39.506,4.938,0.416,0.0
29.474,3.685,0.138,0.0
26.486,3.313,-0.026,0.0
23.402,2.929,-0.157,1.0
45.854,5.748,0.958,8.0
43.889,5.504,0.666,6.0
39.338,4.935,0.371,0.0
29.449,3.696,0.106,4.0
26.12,3.279,-0.055,1.0
22.605,2.839,-0.177,1.0
45.64,5.741,0.904,8.0
43.732,5.503,0.615,3.0
35.519,4.471,0.296,0.0
29.337,3.694,0.074,7.0
25.652,3.231,-0.082,1.0
22.252,2.804,-0.198,0.0
45.23,5.707,0.845,3.0
42.049,5.307,0.545,1.0
34.246,4.323,0.247,0.0
28.889,3.648,0.04,5.0
24.136,3.049,-0.104,0.0
21.406,2.705,-0.215,0.0
43.95,5.56,0.773,3.0
41.737,5.281,0.495,1.0
33.205,4.203,0.203,0.0
27.835,3.524,0.008,1.0
23.735,3.006,-0.128,1.0
20.83,2.639,-0.232,0.0
43.857,5.561,0.722,7.0
38.984,4.944,0.418,0.0
31.553,4.002,0.158,1.0
27.214,3.453,-0.022,1.0
23.417,2.972,-0.153,1.0
20.451,2.596,-0.251,0.0
43.832,5.569,0.672,8.0
38.812,4.931,0.373,0.0
29.475,3.745,0.114,5.0
26.115,3.319,-0.051,1.0
22.555,2.867,-0.173,1.0
19.841,2.523,-0.266,0.0
43.778,5.571,0.622,3.0
35.426,4.508,0.3,0.0
29.425,3.745,0.08,7.0
25.492,3.245,-0.078,0.0
22.256,2.833,-0.196,0.0
19.459,2.478,-0.283,0.0
41.924,5.341,0.548,1.0
35.504,4.523,0.26,0.0
29.167,3.716,0.046,4.0
24.345,3.102,-0.103,0.0
21.365,2.723,-0.212,0.0
19.098,2.434,-0.299,0.0
41.405,5.279,0.493,2.0
0.0,0.0,0.0,0.0
28.263,3.603,0.013,1.0
23.689,3.02,-0.127,1.0
20.858,2.66,-0.231,0.0
18.565,2.368,-0.312,0.0
41.284,5.266,0.446,0.0
31.593,4.03,0.159,0.0
26.842,3.423,-0.017,0.0
23.354,2.979,-0.151,1.0
20.36,2.597,-0.249,0.0
18.275,2.331,-0.328,0.0
39.349,5.02,0.38,0.0
29.472,3.759,0.115,6.0
26.2,3.342,-0.047,1.0
22.486,2.868,-0.171,1.0
19.849,2.532,-0.265,0.0
17.884,2.281,-0.341,0.0
35.568,4.536,0.303,0.0
29.423,3.752,0.082,8.0
25.685,3.275,-0.075,0.0
22.273,2.84,-0.194,0.0
19.389,2.472,-0.281,0.0
17.482,2.229,-0.353,0.0
34.34,4.377,0.254,0.0
29.165,3.716,0.048,4.0
24.387,3.107,-0.099,0.0
21.33,2.717,-0.211,0.0
19.049,2.427,-0.297,0.0
17.164,2.186,-0.366,0.0
32.617,4.153,0.204,0.0
27.883,3.549,0.015,1.0
23.749,3.022,-0.123,1.0
20.802,2.647,-0.229,0.0
18.492,2.353,-0.309,0.0
16.885,2.148,-0.379,0.0
31.532,4.009,0.162,1.0
27.186,3.456,-0.015,1.0
23.42,2.976,-0.147,1.0
20.456,2.599,-0.248,0.0
18.227,2.316,-0.325,0.0
16.693,2.121,-0.394,0.0
29.477,3.741,0.119,4.0
26.098,3.312,-0.044,1.0
22.623,2.87,-0.167,1.0
19.879,2.521,-0.263,0.0
17.848,2.263,-0.339,0.0
16.239,2.059,-0.401,0.0
29.393,3.723,0.086,5.0
25.636,3.246,-0.071,0.0
22.337,2.827,-0.19,0.0
19.496,2.467,-0.279,0.0
17.552,2.221,-0.352,0.0
15.96,2.019,-0.412,0.0
28.991,3.663,0.052,7.0
24.174,3.053,-0.094,0.0
21.459,2.709,-0.206,0.0
19.035,2.402,-0.294,0.0
17.188,2.169,-0.364,0.0
15.786,1.992,-0.425,0.0
28.28,3.563,0.02,1.0
23.86,3.005,-0.119,3.0
20.876,2.628,-0.224,0.0
18.598,2.34,-0.307,0.0
16.912,2.128,-0.376,0.0
15.5,1.949,-0.434,0.0
26.943,3.384,-0.009,0.0
23.516,2.952,-0.143,1.0
20.341,2.552,-0.24,0.0
18.164,2.278,-0.32,0.0
16.68,2.091,-0.389,0.0
15.236,1.91,-0.443,0.0
26.158,3.273,-0.037,1.0
22.724,2.842,-0.162,1.0
20.129,2.516,-0.259,0.0
17.857,2.231,-0.334,0.0
16.197,2.023,-0.396,0.0
14.994,1.872,-0.452,0.0
25.84,3.221,-0.064,1.0
22.467,2.799,-0.184,0.0
19.495,2.427,-0.272,0.0
17.533,2.182,-0.346,0.0
15.939,1.983,-0.406,0.0
14.763,1.836,-0.461,0.0
24.332,3.02,-0.087,0.0
21.57,2.675,-0.2,0.0
19.162,2.375,-0.287,0.0
17.237,2.136,-0.358,0.0
15.751,1.951,-0.418,0.0
14.497,1.795,-0.467,0.0
24.002,2.965,-0.11,3.0
21.045,2.598,-0.217,0.0
18.725,2.31,-0.3,0.0
16.977,2.093,-0.371,0.0
15.628,1.926,-0.43,0.0
14.277,1.759,-0.475,0.0
23.68,2.91,-0.133,2.0
20.648,2.536,-0.234,0.0
18.384,2.256,-0.313,0.0
16.719,2.051,-0.382,0.0
15.301,1.876,-0.437,0.0
14.109,1.729,-0.484,0.0
23.168,2.832,-0.153,0.0
20.347,2.485,-0.251,0.0
18.061,2.205,-0.326,0.0
16.396,2.0,-0.391,0.0
15.11,1.842,-0.447,0.0
13.912,1.695,-0.491,0.0
22.438,2.727,-0.171,0.0
19.781,2.402,-0.263,0.0
17.719,2.15,-0.337,0.0
16.073,1.949,-0.399,0.0
14.965,1.813,-0.457,0.0
13.7,1.659,-0.497,0.0
21.897,2.644,-0.188,0.0
19.357,2.336,-0.277,0.0
17.458,2.105,-0.349,0.0
15.846,1.909,-0.409,0.0
14.607,1.759,-0.46,0.0
13.545,1.63,-0.504,0.0
21.367,2.564,-0.204,0.0
19.055,2.284,-0.29,0.0
17.124,2.051,-0.358,0.0
15.728,1.882,-0.421,0.0
14.395,1.721,-0.467,0.0
13.397,1.601,-0.511,0.0
20.856,2.485,-0.218,0.0
18.612,2.215,-0.301,0.0
16.908,2.011,-0.37,0.0
15.476,1.839,-0.428,0.0
14.225,1.689,-0.475,0.0
13.208,1.567,-0.516,0.0
20.6,2.436,-0.234,0.0
18.375,2.171,-0.313,0.0
16.702,1.971,-0.38,0.0
15.321,1.807,-0.438,0.0
14.079,1.659,-0.483,0.0
13.078,1.54,-0.523,0.0
20.228,2.374,-0.248,0.0
18.033,2.114,-0.324,0.0
16.317,1.911,-0.386,0.0
15.043,1.76,-0.443,0.0
13.871,1.621,-0.488,0.0
12.94,1.511,-0.529,0.0
19.986,2.326,-0.263,0.0
17.703,2.058,-0.334,0.0
16.166,1.877,-0.397,0.0
14.815,1.719,-0.449,0.0
13.734,1.592,-0.495,0.0
12.805,1.483,-0.534,0.0
19.433,2.242,-0.272,0.0
17.432,2.009,-0.343,0.0
15.949,1.836,-0.405,0.0
14.689,1.689,-0.458,0.0
13.569,1.559,-0.5,0.0
12.665,1.453,-0.539,0.0
19.098,2.183,-0.283,0.0
17.213,1.966,-0.353,0.0
15.79,1.801,-0.414,0.0
14.482,1.65,-0.463,0.0
13.435,1.529,-0.506,0.0
12.517,1.423,-0.543,0.0
18.667,2.114,-0.292,0.0
17.009,1.924,-0.363,0.0
15.564,1.758,-0.42,0.0
14.271,1.61,-0.468,0.0
13.3,1.499,-0.512,0.0
12.491,1.406,-0.552,0.0
18.496,2.074,-0.304,0.0
16.771,1.878,-0.37,0.0
15.447,1.728,-0.429,0.0
14.144,1.58,-0.474,0.0
13.145,1.467,-0.516,0.0
12.411,1.383,-0.557,0.0
18.261,2.027,-0.313,0.0
16.565,1.836,-0.378,0.0
15.245,1.687,-0.435,0.0
14.01,1.549,-0.48,0.0
13.072,1.443,-0.522,0.0
12.256,1.351,-0.56,0.0
17.933,1.969,-0.321,0.0
16.291,1.786,-0.384,0.0
15.121,1.656,-0.442,0.0
13.872,1.517,-0.486,0.0
12.928,1.412,-0.526,0.0
12.189,1.329,-0.565,0.0
17.64,1.915,-0.328,0.0
16.181,1.754,-0.392,0.0
14.899,1.613,-0.446,0.0
13.691,1.48,-0.489,0.0
12.808,1.383,-0.53,0.0
12.106,1.305,-0.569,0.0
17.514,1.88,-0.337,0.0
15.967,1.711,-0.398,0.0
14.7,1.573,-0.449,0.0
13.61,1.454,-0.495,0.0
12.688,1.353,-0.533,0.0
11.981,1.276,-0.571,0.0
17.296,1.833,-0.344,0.0
15.874,1.68,-0.406,0.0
14.539,1.536,-0.454,0.0
13.516,1.426,-0.5,0.0
12.64,1.331,-0.539,0.0
11.919,1.254,-0.576,0.0
17.161,1.796,-0.352,0.0
15.762,1.647,-0.412,0.0
14.459,1.508,-0.46,0.0
13.386,1.394,-0.503,0.0
12.522,1.302,-0.541,0.0
11.816,1.227,-0.578,0.0
16.959,1.752,-0.357,0.0
15.604,1.609,-0.417,0.0
14.283,1.471,-0.462,0.0
13.277,1.365,-0.506,0.0
12.478,1.28,-0.546,0.0
11.689,1.197,-0.578,0.0
16.848,1.717,-0.364,0.0
15.53,1.58,-0.424,0.0
14.166,1.439,-0.466,0.0
13.259,1.344,-0.512,0.0
12.422,1.257,-0.55,0.0
11.612,1.173,-0.58,0.0
16.734,1.682,-0.37,0.0
15.32,1.537,-0.425,0.0
14.146,1.417,-0.472,0.0
13.184,1.318,-0.516,0.0
12.341,1.231,-0.553,0.0
11.548,1.15,-0.582,0.0
16.541,1.639,-0.374,0.0
15.204,1.504,-0.429,0.0
14.04,1.386,-0.475,0.0
13.09,1.289,-0.518,0.0
12.251,1.205,-0.554,0.0
11.507,1.129,-0.585,0.0
16.443,1.605,-0.379,0.0
15.083,1.469,-0.432,0.0
13.907,1.352,-0.477,0.0
12.976,1.259,-0.519,0.0
12.183,1.18,-0.556,0.0
11.46,1.108,-0.588,0.0
16.279,1.565,-0.382,0.0
14.987,1.437,-0.436,0.0
13.92,1.332,-0.483,0.0
12.925,1.235,-0.522,0.0
12.102,1.154,-0.557,0.0
11.419,1.087,-0.59,0.0
16.241,1.537,-0.387,0.0
14.928,1.409,-0.439,0.0
13.808,1.301,-0.484,0.0
12.849,1.208,-0.524,0.0
12.084,1.133,-0.561,0.0
11.397,1.067,-0.593,0.0
16.088,1.497,-0.389,0.0
14.845,1.378,-0.442,0.0
13.745,1.273,-0.486,0.0
12.852,1.188,-0.528,0.0
12.044,1.111,-0.563,0.0
11.32,1.042,-0.592,0.0
15.982,1.462,-0.391,0.0
14.773,1.348,-0.444,0.0
13.65,1.243,-0.487,0.0
12.782,1.161,-0.529,0.0
12.031,1.091,-0.565,0.0
11.288,1.021,-0.594,0.0
15.958,1.435,-0.395,0.0
14.715,1.32,-0.446,0.0
13.626,1.219,-0.49,0.0
12.739,1.137,-0.53,0.0
12.012,1.07,-0.567,0.0
11.294,1.003,-0.597,0.0
15.91,1.405,-0.397,0.0
14.692,1.294,-0.449,0.0
13.543,1.189,-0.489,0.0
12.654,1.109,-0.529,0.0
11.964,1.045,-0.568,0.0
11.215,0.978,-0.595,0.0
15.895,1.377,-0.4,0.0
14.651,1.266,-0.45,0.0
13.547,1.167,-0.492,0.0
12.662,1.088,-0.532,0.0
11.92,1.022,-0.567,0.0
11.243,0.962,-0.598,0.0
15.833,1.345,-0.401,0.0
14.616,1.238,-0.452,0.0
13.489,1.14,-0.492,0.0
12.638,1.065,-0.533,0.0
11.904,1.0,-0.568,0.0
11.236,0.942,-0.599,0.0
15.854,1.32,-0.403,0.0
14.529,1.206,-0.45,0.0
13.556,1.122,-0.496,0.0
12.587,1.039,-0.532,0.0
11.862,0.977,-0.567,0.0
11.217,0.921,-0.599,0.0
15.821,1.291,-0.404,0.0
14.507,1.18,-0.451,0.0
13.522,1.097,-0.496,0.0
12.571,1.017,-0.532,0.0
11.878,0.958,-0.569,0.0
11.237,0.903,-0.601,0.0
15.799,1.262,-0.404,0.0
14.587,1.161,-0.454,0.0
13.481,1.07,-0.494,0.0
12.571,0.995,-0.532,0.0
11.815,0.932,-0.566,0.0
11.186,0.88,-0.598,0.0
15.78,1.233,-0.403,0.0
14.476,1.127,-0.45,0.0
13.477,1.046,-0.494,0.0
12.578,0.973,-0.532,0.0
11.877,0.916,-0.569,0.0
11.197,0.861,-0.598,0.0
15.732,1.201,-0.402,0.0
14.457,1.1,-0.449,0.0
13.512,1.025,-0.495,0.0
12.624,0.955,-0.534,0.0
11.882,0.895,-0.568,0.0
11.197,0.841,-0.598,0.0
15.813,1.18,-0.403,0.0
14.492,1.077,-0.449,0.0
13.507,1.001,-0.493,0.0
12.568,0.928,-0.53,0.0
11.876,0.874,-0.567,0.0
11.203,0.822,-0.597,0.0
15.794,1.15,-0.4,0.0
14.536,1.055,-0.449,0.0
13.54,0.979,-0.493,0.0
12.635,0.91,-0.531,0.0
11.905,0.855,-0.566,0.0
11.241,0.804,-0.597,0.0
15.868,1.127,-0.4,0.0
14.563,1.03,-0.447,0.0
13.579,0.957,-0.492,0.0
12.617,0.886,-0.528,0.0
11.961,0.837,-0.567,0.0
11.258,0.785,-0.596,0.0
15.871,1.099,-0.397,0.0
14.647,1.01,-0.447,0.0
13.577,0.933,-0.489,0.0
12.661,0.867,-0.527,0.0
11.962,0.816,-0.564,0.0
11.274,0.766,-0.594,0.0
15.88,1.071,-0.393,0.0
14.66,0.985,-0.444,0.0
13.588,0.909,-0.486,0.0
12.712,0.847,-0.526,0.0
12.024,0.798,-0.564,0.0
11.248,0.744,-0.59,0.0
15.925,1.045,-0.39,0.0
14.698,0.96,-0.441,0.0
13.653,0.888,-0.485,0.0
12.746,0.826,-0.524,0.0
12.004,0.775,-0.559,0.0
11.288,0.726,-0.588,0.0
15.962,1.018,-0.386,0.0
14.779,0.939,-0.439,0.0
13.689,0.866,-0.481,0.0
12.781,0.805,-0.521,0.0
12.073,0.757,-0.559,0.0
11.35,0.709,-0.588,0.0
16.013,0.992,-0.382,0.0
14.822,0.914,-0.434,0.0
13.741,0.843,-0.478,0.0
12.875,0.787,-0.52,0.0
12.105,0.737,-0.555,0.0
11.412,0.692,-0.586,0.0
16.195,0.973,-0.38,0.0
14.971,0.896,-0.433,0.0
13.847,0.825,-0.476,0.0
12.834,0.761,-0.513,0.0
12.175,0.718,-0.553,0.0
11.493,0.675,-0.585,0.0
16.305,0.95,-0.375,0.0
14.975,0.868,-0.426,0.0
13.93,0.804,-0.473,0.0
12.938,0.743,-0.511,0.0
12.233,0.699,-0.55,0.0
11.537,0.656,-0.582,0.0
16.502,0.931,-0.372,0.0
15.137,0.85,-0.424,0.0
14.06,0.785,-0.47,0.0
12.996,0.722,-0.507,0.0
12.308,0.681,-0.548,0.0
11.609,0.639,-0.58,0.0
16.603,0.906,-0.366,0.0
15.229,0.827,-0.419,0.0
14.097,0.761,-0.464,0.0
13.137,0.706,-0.506,0.0
12.354,0.66,-0.543,0.0
11.669,0.621,-0.577,0.0
16.668,0.879,-0.358,0.0
15.389,0.807,-0.414,0.0
14.129,0.737,-0.457,0.0
13.168,0.683,-0.499,0.0
12.455,0.643,-0.54,0.0
11.713,0.601,-0.572,0.0
16.86,0.858,-0.352,0.0
15.551,0.787,-0.409,0.0
14.277,0.718,-0.453,0.0
13.256,0.663,-0.494,0.0
12.52,0.623,-0.535,0.0
11.789,0.583,-0.568,0.0
16.963,0.832,-0.344,0.0
15.66,0.763,-0.402,0.0
14.406,0.698,-0.448,0.0
13.418,0.646,-0.492,0.0
12.565,0.602,-0.529,0.0
11.89,0.566,-0.565,0.0
17.114,0.807,-0.335,0.0
15.845,0.743,-0.396,0.0
14.49,0.675,-0.441,0.0
13.478,0.624,-0.485,0.0
12.716,0.585,-0.526,0.0
11.993,0.549,-0.561,0.0
17.297,0.784,-0.327,0.0
15.968,0.719,-0.388,0.0
14.784,0.661,-0.439,0.0
13.626,0.606,-0.48,0.0
12.812,0.566,-0.521,0.0
12.081,0.53,-0.556,0.0
17.665,0.768,-0.32,0.0
16.13,0.696,-0.38,0.0
14.883,0.638,-0.431,0.0
13.815,0.588,-0.476,0.0
12.944,0.548,-0.516,0.0
12.193,0.513,-0.552,0.0
17.88,0.744,-0.31,0.0
16.411,0.678,-0.373,0.0
15.086,0.619,-0.424,0.0
13.934,0.568,-0.469,0.0
13.019,0.527,-0.508,0.0
12.329,0.496,-0.548,0.0
18.165,0.723,-0.3,0.0
16.622,0.657,-0.364,0.0
15.191,0.596,-0.415,2.0
14.082,0.548,-0.462,0.0
13.256,0.512,-0.506,0.0
12.406,0.476,-0.541,0.0
18.415,0.699,-0.288,0.0
16.811,0.633,-0.353,0.0
15.484,0.579,-0.409,0.0
14.245,0.529,-0.454,0.0
13.375,0.492,-0.499,0.0
12.519,0.457,-0.534,0.0
18.951,0.685,-0.279,0.0
17.032,0.61,-0.343,0.0
15.67,0.557,-0.399,0.0
14.463,0.51,-0.448,0.0
13.518,0.473,-0.491,0.0
12.679,0.44,-0.529,0.0
19.27,0.661,-0.266,0.0
17.295,0.588,-0.331,0.0
15.963,0.539,-0.392,0.0
14.718,0.492,-0.441,0.0
13.707,0.455,-0.485,0.0
12.828,0.422,-0.523,0.0
19.889,0.647,-0.255,0.0
17.66,0.569,-0.321,0.0
16.197,0.517,-0.381,0.0
14.826,0.469,-0.43,0.0
13.858,0.435,-0.476,0.0
12.986,0.404,-0.516,0.0
20.255,0.622,-0.239,0.0
17.946,0.546,-0.308,0.0
16.483,0.497,-0.371,0.0
15.031,0.449,-0.42,0.0
14.06,0.416,-0.468,0.0
13.143,0.385,-0.508,0.0
20.898,0.605,-0.225,0.0
18.305,0.524,-0.294,0.0
16.698,0.474,-0.358,0.0
15.447,0.434,-0.415,0.0
14.195,0.395,-0.457,0.0
13.282,0.365,-0.499,0.0
21.67,0.589,-0.209,0.0
18.807,0.506,-0.282,0.0
16.976,0.452,-0.345,0.0
15.626,0.411,-0.403,0.0
14.462,0.377,-0.45,0.0
13.492,0.348,-0.492,0.0
22.181,0.564,-0.19,0.0
19.382,0.487,-0.269,0.0
17.267,0.429,-0.332,0.0
15.882,0.39,-0.391,0.0
14.656,0.356,-0.439,0.0
13.698,0.329,-0.483,0.0
22.846,0.541,-0.168,0.0
19.863,0.465,-0.252,0.0
17.654,0.408,-0.318,0.0
16.17,0.369,-0.379,0.0
14.824,0.334,-0.426,0.0
13.879,0.309,-0.473,0.0
23.525,0.517,-0.145,0.0
20.459,0.443,-0.235,0.0
18.072,0.386,-0.304,0.0
16.507,0.348,-0.367,0.0
15.211,0.317,-0.419,0.0
14.157,0.291,-0.465,0.0
24.133,0.488,-0.119,0.0
21.593,0.431,-0.221,0.0
18.592,0.366,-0.289,0.0
16.766,0.325,-0.351,0.0
15.552,0.297,-0.409,0.0
14.345,0.27,-0.453,0.0
24.878,0.461,-0.091,0.0
22.048,0.403,-0.198,0.0
19.014,0.342,-0.271,0.0
17.086,0.303,-0.336,0.0
15.917,0.277,-0.397,0.0
14.557,0.25,-0.441,0.0
25.419,0.429,-0.061,0.0
22.785,0.378,-0.175,0.0
19.788,0.323,-0.257,0.0
17.577,0.282,-0.323,0.0
16.18,0.255,-0.383,0.0
14.787,0.229,-0.428,0.0
26.224,0.399,-0.028,0.0
23.501,0.351,-0.149,0.0
20.347,0.299,-0.237,0.0
18.094,0.26,-0.308,0.0
16.507,0.233,-0.368,0.0
15.259,0.211,-0.421,0.0
26.838,0.365,0.007,0.0
24.176,0.322,-0.12,0.0
21.646,0.282,-0.222,1.0
18.629,0.238,-0.291,0.0
16.814,0.21,-0.352,0.0
15.619,0.191,-0.409,0.0
27.958,0.335,0.046,1.0
24.884,0.291,-0.089,0.0
22.055,0.252,-0.195,2.0
19.192,0.215,-0.273,0.0
17.182,0.188,-0.335,0.0
15.934,0.17,-0.394,0.0
28.799,0.299,0.089,5.0
25.738,0.261,-0.055,0.0
22.774,0.224,-0.169,0.0
19.809,0.19,-0.253,0.0
17.689,0.165,-0.319,0.0
16.268,0.148,-0.379,0.0
28.879,0.255,0.131,4.0
26.556,0.227,-0.018,0.0
23.715,0.197,-0.141,0.0
20.836,0.167,-0.235,0.0
18.204,0.141,-0.301,0.0
16.634,0.125,-0.363,0.0
29.014,0.211,0.175,0.0
27.283,0.191,0.021,0.0
24.547,0.166,-0.109,0.0
21.655,0.141,-0.212,2.0
18.925,0.118,-0.285,0.0
16.989,0.102,-0.345,0.0
31.586,0.182,0.238,0.0
28.364,0.156,0.065,1.0
25.333,0.133,-0.074,0.0
22.389,0.112,-0.185,1.0
19.61,0.093,-0.265,0.0
17.467,0.078,-0.328,0.0
0.0,0.0,0.0,0.0
28.789,0.116,0.11,1.0
26.166,0.099,-0.036,0.0
23.281,0.082,-0.156,1.0
20.678,0.067,-0.247,0.0
18.048,0.054,-0.31,0.0
34.492,0.096,0.367,0.0
29.724,0.076,0.161,0.0
27.015,0.062,0.004,0.0
24.105,0.05,-0.124,1.0
21.252,0.039,-0.22,3.0
18.555,0.029,-0.29,0.0
35.835,0.049,0.438,0.0
0.0,0.0,0.0,0.0
28.251,0.025,0.05,1.0
25.074,0.016,-0.089,0.0
22.052,0.009,-0.193,0.0
19.43,0.003,-0.272,0.0
0.0,0.0,0.0,0.0
32.98,-0.009,0.284,0.0
28.693,-0.014,0.097,1.0
25.915,-0.019,-0.049,0.0
23.469,-0.023,-0.166,0.0
20.175,-0.024,-0.249,0.0
41.343,-0.059,0.641,0.0
33.116,-0.055,0.341,0.0
28.903,-0.055,0.147,1.0
26.851,-0.057,-0.006,0.0
23.956,-0.056,-0.13,1.0
21.149,-0.054,-0.226,0.0
43.459,-0.121,0.746,0.0
35.481,-0.107,0.424,0.0
31.391,-0.101,0.211,1.0
28.24,-0.097,0.04,1.0
24.921,-0.091,-0.094,0.0
22.063,-0.086,-0.198,0.0
0.0,0.0,0.0,0.0
0.0,0.0,0.0,0.0
32.874,-0.149,0.277,1.0
28.776,-0.137,0.09,7.0
25.852,-0.128,-0.053,0.0
23.132,-0.12,-0.168,0.0
0.0,0.0,0.0,0.0
0.0,0.0,0.0,0.0
33.255,-0.194,0.338,0.0
28.833,-0.174,0.14,2.0
26.849,-0.168,-0.008,0.0
24.163,-0.156,-0.133,0.0
0.0,0.0,0.0,0.0
0.0,0.0,0.0,0.0
35.776,-0.254,0.426,0.0
31.4,-0.229,0.207,1.0
28.372,-0.213,0.04,1.0
24.951,-0.192,-0.094,0.0
0.0,0.0,0.0,0.0
0.0,0.0,0.0,0.0
0.0,0.0,0.0,0.0
32.625,-0.277,0.273,1.0
28.748,-0.25,0.091,6.0
25.661,-0.228,-0.051,0.0
0.0,0.0,0.0,0.0
0.0,0.0,0.0,0.0
0.0,0.0,0.0,0.0
33.381,-0.324,0.339,0.0
28.837,-0.285,0.143,0.0
26.992,-0.272,-0.006,0.0
83.838,-0.861,2.316,1.0
0.0,0.0,0.0,0.0
0.0,0.0,0.0,0.0
0.0,0.0,0.0,0.0
31.61,-0.348,0.213,0.0
28.328,-0.317,0.044,1.0
84.901,-0.97,2.5,2.0
63.86,-0.74,1.548,0.0
0.0,0.0,0.0,0.0
38.187,-0.456,0.526,0.0
32.916,-0.399,0.282,1.0
28.687,-0.353,0.097,0.0
89.939,-1.126,2.812,6.0
0.0,0.0,0.0,0.0
0.0,0.0,0.0,0.0
0.0,0.0,0.0,0.0
33.964,-0.448,0.353,0.0
30.19,-0.404,0.158,0.0
0.0,0.0,0.0,0.0
86.281,-1.186,2.408,1.0
0.0,0.0,0.0,0.0
43.609,-0.614,0.76,0.0
37.074,-0.528,0.454,0.0
31.755,-0.457,0.224,0.0
171.352,-2.502,5.986,3.0
87.0,-1.284,2.589,1.0
64.009,-0.956,1.573,1.0
47.532,-0.717,0.916,0.0
38.559,-0.588,0.544,0.0
33.658,-0.518,0.3,1.0
171.89,-2.681,6.327,3.0
96.792,-1.525,3.061,6.0
0.0,0.0,0.0,0.0
0.0,0.0,0.0,0.0
0.0,0.0,0.0,0.0
34.347,-0.562,0.371,0.0
171.521,-2.839,6.635,5.0
96.998,-1.62,3.25,18.0
88.123,-1.485,2.496,2.0
0.0,0.0,0.0,0.0
0.0,0.0,0.0,0.0
37.695,-0.651,0.478,0.0
0.0,0.0,0.0,0.0
97.01,-1.708,3.432,19.0
89.592,-1.59,2.705,4.0
0.0,0.0,0.0,0.0
48.361,-0.872,0.954,0.0
0.0,0.0,0.0,0.0
194.236,-3.565,8.245,6.0
96.97,-1.793,3.614,26.0
96.893,-1.804,3.109,16.0
0.0,0.0,0.0,0.0
0.0,0.0,0.0,0.0
41.705,-0.793,0.687,0.0
190.07,-3.649,8.431,12.0
96.934,-1.874,3.798,37.0
96.947,-1.886,3.296,27.0
90.187,-1.766,2.591,1.0
0.0,0.0,0.0,0.0
0.0,0.0,0.0,0.0
189.811,-3.798,8.781,16.0
96.887,-1.95,3.981,44.0
96.966,-1.963,3.481,34.0
96.787,-1.971,2.965,2.0
0.0,0.0,0.0,0.0
0.0,0.0,0.0,0.0
96.875,-2.013,4.669,7.0
96.887,-2.024,4.167,45.0
96.941,-2.037,3.668,24.0
96.906,-2.047,3.157,5.0
0.0,0.0,0.0,0.0
0.0,0.0,0.0,0.0
96.86,-2.085,4.857,24.0
96.874,-2.096,4.356,52.0
128.432,-2.791,5.11,20.0
128.259,-2.801,4.427,11.0
91.82,-2.015,2.694,1.0
0.0,0.0,0.0,0.0
96.793,-2.151,5.042,25.0
96.816,-2.162,4.542,41.0
128.398,-2.88,5.359,32.0
128.372,-2.89,4.679,32.0
96.768,-2.188,3.027,6.0
0.0,0.0,0.0,0.0
96.749,-2.214,5.226,27.0
96.815,-2.224,4.729,36.0
128.413,-2.962,5.607,13.0
128.415,-2.973,4.929,23.0
106.842,-2.483,3.549,1.0
0.0,0.0,0.0,0.0
96.721,-2.273,5.414,28.0
96.786,-2.283,4.915,34.0
171.676,-4.064,7.831,22.0
171.655,-4.078,6.924,8.0
128.395,-3.06,4.515,13.0
93.609,-2.239,2.809,1.0
96.796,-2.332,5.608,15.0
96.789,-2.34,5.105,24.0
171.701,-4.162,8.168,25.0
171.595,-4.173,7.259,26.0
166.075,-4.051,6.166,65.0
96.813,-2.368,3.093,6.0
97.082,-2.392,5.814,12.0
96.76,-2.39,5.292,27.0
171.626,-4.251,8.498,24.0
171.667,-4.264,7.595,30.0
123.264,-3.07,4.817,11.0
92.465,-2.309,3.135,18.0
97.025,-2.44,6.001,13.0
96.765,-2.439,5.482,24.0
98.691,-2.493,5.08,18.0
171.703,-4.348,7.931,16.0
123.273,-3.128,5.056,29.0
92.478,-2.352,3.315,150.0
96.519,-2.472,6.156,11.0
96.719,-2.481,5.668,20.0
98.679,-2.537,5.271,12.0
189.455,-4.881,9.119,15.0
123.238,-3.18,5.292,34.0
92.492,-2.392,3.493,3.0
96.639,-2.515,6.351,13.0
96.643,-2.52,5.849,13.0
96.811,-2.528,5.357,9.0
98.708,-2.582,4.939,8.0
123.209,-3.228,5.528,8.0
123.217,-3.234,4.892,32.0
97.409,-2.573,6.591,18.0
96.632,-2.556,6.036,7.0
96.783,-2.564,5.542,20.0
171.488,-4.549,8.915,7.0
189.529,-5.033,8.871,18.0
123.225,-3.277,5.13,38.0
97.477,-2.608,6.783,14.0
95.868,-2.568,6.172,15.0
96.748,-2.595,5.726,23.0
171.307,-4.598,9.233,21.0
189.642,-5.096,9.237,22.0
123.237,-3.315,5.365,26.0
87.199,-2.361,6.237,13.0
95.601,-2.589,6.34,16.0
96.627,-2.619,5.906,19.0
96.852,-2.627,5.408,18.0
189.545,-5.145,9.598,15.0
123.199,-3.347,5.601,6.0
76.445,-2.09,5.615,17.0
95.5,-2.612,6.518,8.0
96.459,-2.639,6.081,15.0
97.102,-2.658,5.608,18.0
172.093,-4.713,9.046,6.0
189.59,-5.194,8.981,21.0
76.464,-2.108,5.763,17.0
88.261,-2.434,6.192,13.0
88.106,-2.429,5.722,15.0
96.97,-2.674,5.784,10.0
96.951,-2.674,5.28,10.0
189.574,-5.229,9.34,19.0
87.329,-2.424,6.749,17.0
87.143,-2.418,6.28,15.0
95.716,-2.656,6.398,13.0
96.477,-2.676,5.938,13.0
96.99,-2.691,5.465,13.0
189.527,-5.258,9.697,16.0
81.145,-2.264,6.425,6.0
76.486,-2.133,5.657,21.0
88.319,-2.463,6.073,13.0
96.463,-2.688,6.123,15.0
97.13,-2.706,5.659,13.0
97.003,-2.701,5.147,4.0
80.975,-2.268,6.568,19.0
76.504,-2.142,5.804,10.0
0.0,0.0,0.0,0.0
88.021,-2.461,5.752,18.0
97.056,-2.712,5.836,6.0
88.093,-2.46,4.84,12.0
80.91,-2.273,6.713,15.0
87.493,-2.455,6.802,9.0
87.13,-2.443,6.319,12.0
88.15,-2.469,5.923,8.0
96.526,-2.701,5.982,11.0
97.097,-2.714,5.512,14.0
76.727,-2.158,6.508,19.0
81.119,-2.278,6.457,11.0
76.478,-2.145,5.687,24.0
88.354,-2.476,6.099,17.0
88.044,-2.464,5.618,10.0
97.126,-2.714,5.692,10.0
66.691,-1.875,5.78,20.0
80.934,-2.272,6.59,21.0
87.283,-2.447,6.649,11.0
87.406,-2.447,6.194,13.0
88.075,-2.462,5.782,13.0
96.712,-2.7,5.844,6.0
66.205,-1.858,5.86,43.0
76.719,-2.15,6.387,14.0
87.481,-2.448,6.825,8.0
87.153,-2.434,6.334,12.0
95.61,-2.666,6.449,9.0
96.516,-2.685,6.006,16.0
65.832,-1.843,5.946,42.0
66.743,-1.865,5.677,11.0
81.067,-2.26,6.47,9.0
76.454,-2.127,5.694,25.0
88.391,-2.454,6.121,13.0
88.06,-2.441,5.638,12.0
66.236,-1.846,6.103,24.0
66.72,-1.855,5.796,16.0
80.93,-2.245,6.605,18.0
87.369,-2.419,6.664,16.0
87.236,-2.41,6.197,12.0
88.09,-2.427,5.796,10.0
66.107,-1.832,6.209,13.0
65.71,-1.816,5.826,31.0
81.053,-2.235,6.759,10.0
91.353,-2.513,7.129,4.0
76.394,-2.096,5.561,11.0
95.521,-2.614,6.454,12.0
66.03,-1.817,6.319,26.0
65.43,-1.795,5.916,30.0
66.759,-1.827,5.684,13.0
85.49,-2.332,6.821,12.0
76.429,-2.079,5.697,23.0
97.589,-2.648,6.763,11.0
65.968,-1.8,6.428,23.0
65.523,-1.782,6.038,31.0
66.733,-1.81,5.798,11.0
85.517,-2.312,6.971,10.0
86.529,-2.332,6.599,12.0
87.23,-2.344,6.194,9.0
64.098,-1.732,6.356,24.0
66.08,-1.779,6.203,41.0
65.521,-1.758,5.805,15.0
85.564,-2.289,7.12,7.0
86.117,-2.296,6.712,13.0
87.181,-2.316,6.337,18.0
64.126,-1.713,6.468,33.0
65.957,-1.756,6.304,31.0
65.432,-1.735,5.908,24.0
76.661,-2.026,6.509,18.0
76.311,-2.009,6.077,15.0
76.479,-2.006,5.687,16.0
64.202,-1.693,6.584,28.0
63.968,-1.68,6.221,13.0
65.561,-1.716,6.028,33.0
66.784,-1.74,5.781,18.0
86.493,-2.245,7.031,12.0
86.056,-2.226,6.541,13.0
64.375,-1.674,6.708,26.0
64.033,-1.658,6.332,28.0
65.783,-1.696,6.156,26.0
0.0,0.0,0.0,0.0
76.741,-1.962,6.361,11.0
76.333,-1.944,5.925,14.0
64.418,-1.649,6.818,28.0
64.077,-1.632,6.44,29.0
65.878,-1.671,6.271,35.0
65.499,-1.654,5.882,36.0
76.756,-1.929,6.486,22.0
76.394,-1.911,6.052,21.0
64.422,-1.619,6.922,30.0
64.154,-1.605,6.551,36.0
0.0,0.0,0.0,0.0
65.594,-1.625,5.994,35.0
76.765,-1.893,6.608,11.0
80.831,-1.984,6.53,11.0
64.422,-1.589,7.023,28.0
64.238,-1.576,6.66,34.0
64.012,-1.563,6.295,26.0
65.663,-1.595,6.101,33.0
82.846,-2.002,7.258,17.0
80.805,-1.943,6.651,26.0
64.416,-1.556,7.122,25.0
64.287,-1.544,6.764,32.0
63.894,-1.527,6.381,28.0
65.719,-1.561,6.207,39.0
82.907,-1.96,7.389,4.0
76.773,-1.805,6.434,17.0
0.0,0.0,0.0,0.0
64.291,-1.51,6.861,28.0
64.071,-1.496,6.494,37.0
0.0,0.0,0.0,0.0
65.489,-1.511,5.933,9.0
76.775,-1.761,6.547,15.0
74.547,-1.719,8.464,11.0
64.468,-1.477,6.974,10.0
64.357,-1.465,6.617,25.0
64.102,-1.45,6.242,33.0
65.494,-1.472,6.028,26.0
66.955,-1.496,5.807,8.0
64.741,-1.453,7.446,8.0
64.829,-1.445,7.108,15.0
64.114,-1.42,6.685,35.0
64.074,-1.409,6.331,35.0
65.552,-1.433,6.127,21.0
66.953,-1.454,5.9,13.0
74.649,-1.629,8.692,21.0
64.817,-1.404,7.198,31.0
63.989,-1.376,6.762,28.0
63.635,-1.359,6.377,37.0
65.642,-1.392,6.226,40.0
67.007,-1.411,5.998,23.0
74.524,-1.576,8.781,27.0
64.768,-1.359,7.282,30.0
64.093,-1.335,6.861,22.0
63.742,-1.318,6.475,39.0
0.0,0.0,0.0,0.0
67.327,-1.371,6.117,31.0
74.234,-1.518,8.848,20.0
64.69,-1.312,7.361,28.0
64.635,-1.301,7.007,31.0
64.067,-1.279,6.593,39.0
63.547,-1.259,6.199,12.0
67.357,-1.324,6.209,25.0
74.378,-1.467,8.964,23.0
64.629,-1.264,7.439,23.0
64.735,-1.256,7.101,28.0
63.91,-1.229,6.66,31.0
63.49,-1.211,6.275,31.0
67.277,-1.272,6.288,16.0
74.509,-1.414,9.077,21.0
74.15,-1.394,8.631,13.0
64.771,-1.207,7.189,29.0
64.174,-1.185,6.769,27.0
63.528,-1.162,6.359,28.0
64.966,-1.178,6.154,18.0
63.753,-1.159,7.847,19.0
74.425,-1.341,8.756,28.0
64.931,-1.159,7.287,37.0
58.715,-1.038,6.265,10.0
63.644,-1.114,6.448,32.0
0.0,0.0,0.0,0.0
63.789,-1.109,7.929,17.0
74.522,-1.283,8.857,15.0
65.301,-1.113,7.406,34.0
58.669,-0.989,6.33,15.0
64.278,-1.073,6.587,19.0
63.598,-1.051,6.175,29.0
58.42,-0.968,7.33,20.0
68.216,-1.118,8.187,4.0
64.951,-1.052,7.442,7.0
58.638,-0.94,6.394,25.0
64.421,-1.021,6.676,16.0
63.332,-0.993,6.22,38.0
58.511,-0.919,7.408,23.0
63.843,-0.991,7.735,29.0
67.919,-1.042,7.859,15.0
64.746,-0.982,7.132,23.0
58.685,-0.879,6.146,24.0
63.737,-0.944,6.33,29.0
58.548,-0.869,7.477,20.0
63.873,-0.936,7.808,25.0
59.599,-0.863,6.96,18.0
65.213,-0.932,7.253,34.0
58.749,-0.829,6.215,28.0
64.166,-0.893,6.44,28.0
58.572,-0.817,7.543,15.0
57.965,-0.797,7.146,27.0
59.604,-0.809,7.022,31.0
65.299,-0.874,7.33,21.0
58.742,-0.775,6.274,25.0
64.141,-0.835,6.502,13.0
62.441,-0.813,8.105,25.0
58.123,-0.746,7.225,31.0
59.608,-0.754,7.083,28.0
63.99,-0.798,7.247,33.0
65.0,-0.798,7.006,18.0
58.826,-0.711,6.021,17.0
62.521,-0.756,8.177,18.0
58.363,-0.694,7.311,33.0
0.0,0.0,0.0,0.0
63.992,-0.737,7.308,30.0
64.959,-0.736,7.064,36.0
58.857,-0.655,6.079,28.0
62.582,-0.696,8.244,8.0
58.334,-0.638,7.363,23.0
58.0,-0.623,7.002,26.0
63.893,-0.674,7.356,28.0
65.748,-0.68,7.21,19.0
58.895,-0.598,6.136,27.0
57.78,-0.586,7.663,29.0
58.696,-0.583,7.461,33.0
58.055,-0.566,7.06,32.0
57.05,-0.545,6.618,9.0
59.663,-0.559,6.594,31.0
58.938,-0.541,6.191,25.0
57.771,-0.528,7.712,30.0
58.421,-0.522,7.476,33.0
58.295,-0.51,7.138,26.0
57.05,-0.488,6.665,14.0
59.703,-0.499,6.647,19.0
64.466,-0.526,6.824,16.0
57.961,-0.471,7.785,33.0
58.002,-0.46,7.469,32.0
57.94,-0.448,7.14,32.0
57.042,-0.43,6.709,20.0
59.769,-0.439,6.701,8.0
65.066,-0.465,6.938,20.0
57.935,-0.41,7.826,27.0
58.161,-0.4,7.534,32.0
57.69,-0.386,7.153,26.0
59.749,-0.388,7.073,18.0
57.177,-0.36,6.453,20.0
65.117,-0.397,6.991,15.0
57.937,-0.35,7.869,27.0
58.314,-0.34,7.596,28.0
57.495,-0.325,7.17,28.0
58.807,-0.32,7.002,33.0
57.166,-0.3,6.491,26.0
64.859,-0.328,7.007,21.0
58.074,-0.29,7.927,29.0
58.446,-0.279,7.652,23.0
57.547,-0.264,7.215,31.0
58.658,-0.258,7.023,30.0
56.947,-0.239,6.503,28.0
64.856,-0.259,7.048,15.0
58.252,-0.228,7.988,31.0
58.543,-0.217,7.702,11.0
57.563,-0.202,7.252,31.0
59.288,-0.197,7.134,34.0
56.661,-0.177,6.504,13.0
57.296,-0.167,6.26,22.0
58.398,-0.165,8.043,15.0
51.439,-0.135,6.798,23.0
58.121,-0.141,7.356,32.0
58.149,-0.13,7.03,23.0
59.399,-0.121,6.852,8.0
57.028,-0.104,6.263,31.0
51.14,-0.088,7.072,25.0
51.515,-0.078,6.836,23.0
58.258,-0.076,7.405,9.0
58.175,-0.065,7.064,27.0
59.527,-0.056,6.897,20.0
56.832,-0.041,6.27,22.0
50.986,-0.031,7.077,25.0
51.568,-0.021,6.868,19.0
48.825,-0.01,6.23,11.0
58.25,0.0,7.101,32.0
59.497,0.01,6.922,22.0
56.771,0.02,6.289,19.0
51.078,0.025,7.113,24.0
51.533,0.035,6.887,20.0
56.234,0.049,7.2,11.0
58.468,0.064,7.153,33.0
59.541,0.076,6.952,30.0
56.916,0.083,6.329,24.0
51.131,0.082,7.141,12.0
51.465,0.094,6.898,17.0
56.195,0.113,7.217,15.0
56.715,0.125,6.96,19.0
59.678,0.143,6.991,33.0
57.0,0.148,6.359,23.0
51.149,0.14,7.163,11.0
51.305,0.151,6.895,8.0
56.123,0.176,7.227,7.0
56.716,0.189,6.98,17.0
59.785,0.21,7.023,33.0
57.01,0.212,6.379,23.0
51.368,0.2,7.21,26.0
48.343,0.197,6.512,22.0
56.343,0.241,7.273,21.0
56.701,0.254,6.995,30.0
60.015,0.28,7.067,18.0
57.095,0.278,6.404,19.0
51.41,0.259,7.23,22.0
48.375,0.253,6.53,25.0
56.233,0.305,7.273,6.0
56.606,0.318,6.997,24.0
60.198,0.349,7.103,18.0
57.177,0.343,6.427,9.0
51.587,0.319,7.266,25.0
48.454,0.309,6.551,22.0
55.964,0.368,7.25,6.0
56.682,0.383,7.018,23.0
56.769,0.395,6.709,12.0
56.844,0.406,6.4,31.0
51.548,0.378,7.27,21.0
48.687,0.367,6.59,22.0
48.67,0.375,6.313,18.0
56.774,0.448,7.038,20.0
56.979,0.461,6.743,5.0
56.713,0.469,6.393,29.0
51.542,0.437,7.276,18.0
49.102,0.425,6.653,23.0
48.617,0.43,6.312,20.0
56.736,0.513,7.039,8.0
57.047,0.526,6.756,8.0
56.053,0.528,6.323,7.0
49.306,0.474,6.964,14.0
49.774,0.488,6.747,23.0
48.672,0.486,6.322,19.0
48.344,0.492,6.001,22.0
52.556,0.544,6.227,21.0
52.109,0.549,5.881,29.0
49.281,0.53,6.963,17.0
49.35,0.54,6.691,22.0
49.18,0.547,6.389,23.0
58.17,0.657,7.221,12.0
52.537,0.604,6.225,8.0
49.647,0.579,5.603,23.0
49.231,0.586,6.955,11.0
0.0,0.0,0.0,0.0
48.984,0.6,6.362,23.0
48.725,0.606,6.047,23.0
52.338,0.66,6.199,19.0
52.089,0.666,5.876,5.0
51.462,0.671,7.267,10.0
0.0,0.0,0.0,0.0
49.073,0.657,6.371,23.0
48.896,0.663,6.065,23.0
48.997,0.673,5.799,22.0
49.975,0.696,5.633,22.0
51.492,0.73,7.266,32.0
47.844,0.687,6.478,22.0
47.096,0.684,6.108,21.0
48.98,0.72,6.069,23.0
48.842,0.727,5.775,32.0
50.104,0.754,5.64,19.0
51.715,0.792,7.29,26.0
47.624,0.737,6.441,34.0
47.083,0.737,6.099,18.0
48.971,0.775,6.059,23.0
48.844,0.781,5.766,22.0
50.266,0.813,5.649,22.0
51.736,0.85,7.283,16.0
47.678,0.792,6.438,24.0
47.12,0.79,6.094,14.0
48.911,0.829,6.041,23.0
48.837,0.836,5.754,28.0
50.166,0.866,5.626,24.0
51.45,0.903,7.23,26.0
47.686,0.845,6.427,23.0
46.799,0.837,6.04,21.0
48.874,0.882,6.024,30.0
48.888,0.89,5.747,22.0
50.168,0.922,5.613,16.0
51.434,0.96,7.213,26.0
47.592,0.896,6.401,29.0
46.213,0.877,5.95,20.0
49.022,0.939,6.027,23.0
48.742,0.941,5.714,14.0
50.006,0.974,5.578,34.0
51.625,1.02,7.222,26.0
47.672,0.95,6.395,21.0
46.123,0.926,5.923,20.0
48.849,0.988,5.988,33.0
0.0,0.0,0.0,0.0
50.15,1.03,5.576,25.0
54.1,1.128,7.548,6.0
47.537,0.998,6.359,21.0
45.981,0.973,5.887,20.0
49.078,1.046,5.997,17.0
0.0,0.0,0.0,0.0
56.527,1.222,6.262,9.0
47.649,1.045,6.628,17.0
47.493,1.048,6.332,22.0
45.799,1.017,5.843,28.0
45.317,1.014,5.517,19.0
50.188,1.13,5.823,8.0
49.615,1.125,5.473,32.0
51.85,1.192,7.188,10.0
47.257,1.093,6.278,19.0
45.585,1.061,5.794,20.0
45.35,1.062,5.499,19.0
45.858,1.081,5.298,16.0
49.581,1.176,5.445,14.0
47.61,1.144,6.575,18.0
47.253,1.142,6.253,13.0
45.35,1.103,5.74,26.0
45.37,1.11,5.477,21.0
45.837,1.128,5.271,12.0
49.608,1.228,5.421,16.0
47.627,1.195,6.55,16.0
43.703,1.103,5.758,20.0
45.336,1.15,5.712,19.0
45.406,1.158,5.455,35.0
45.84,1.175,5.244,19.0
49.626,1.28,5.393,14.0
50.061,1.307,6.855,4.0
47.256,1.24,6.197,5.0
45.426,1.198,5.695,28.0
45.403,1.204,5.426,34.0
45.756,1.219,5.206,16.0
0.0,0.0,0.0,0.0
47.539,1.289,6.478,13.0
47.46,1.293,6.193,8.0
45.505,1.246,5.675,19.0
45.534,1.252,5.412,20.0
45.776,1.265,5.178,24.0
48.462,1.345,5.204,22.0
43.86,1.233,5.947,13.0
45.486,1.284,5.904,26.0
45.475,1.289,5.64,28.0
45.629,1.299,5.391,35.0
45.953,1.315,5.165,20.0
50.547,1.452,5.391,13.0
43.885,1.276,5.918,28.0
45.199,1.319,5.833,19.0
0.0,0.0,0.0,0.0
45.605,1.343,5.353,25.0
45.827,1.354,5.116,19.0
48.527,1.441,5.138,9.0
43.999,1.321,5.899,19.0
44.637,1.345,5.725,20.0
0.0,0.0,0.0,0.0
47.501,1.442,5.539,18.0
49.096,1.497,5.442,4.0
48.523,1.485,5.099,10.0
43.911,1.359,5.851,27.0
43.962,1.365,5.603,22.0
0.0,0.0,0.0,0.0
47.528,1.486,5.503,4.0
48.698,1.528,5.357,17.0
48.61,1.531,5.068,21.0
43.977,1.401,5.822,29.0
43.815,1.4,5.546,33.0
45.673,1.464,5.516,20.0
45.746,1.472,5.256,19.0
48.616,1.569,5.305,11.0
0.0,0.0,0.0,0.0
44.344,1.452,5.831,19.0
43.761,1.437,5.5,27.0
45.635,1.503,5.47,28.0
45.562,1.505,5.193,24.0
46.227,1.532,5.002,18.0
50.694,1.685,5.194,24.0
44.011,1.478,5.745,31.0
43.705,1.473,5.451,27.0
45.804,1.548,5.447,20.0
45.806,1.552,5.177,20.0
46.255,1.572,4.961,28.0
50.107,1.708,5.085,22.0
43.904,1.512,5.688,35.0
43.787,1.512,5.419,18.0
46.231,1.6,5.453,20.0
45.431,1.576,5.091,20.0
55.129,1.918,5.859,7.0
50.077,1.746,5.033,26.0
43.957,1.549,5.651,34.0
0.0,0.0,0.0,0.0
45.871,1.624,5.364,28.0
45.44,1.612,5.045,22.0
61.462,2.186,6.469,7.0
50.057,1.785,4.979,14.0
43.791,1.577,5.583,34.0
45.597,1.646,5.548,29.0
45.87,1.659,5.315,35.0
45.557,1.652,5.01,20.0
61.598,2.238,6.418,7.0
50.025,1.821,4.923,14.0
43.582,1.602,5.509,33.0
45.848,1.689,5.528,20.0
45.981,1.698,5.277,20.0
45.944,1.7,5.002,20.0
49.811,1.847,5.134,23.0
56.443,2.097,5.492,6.0
43.679,1.638,5.472,35.0
45.947,1.726,5.488,13.0
45.614,1.717,5.183,19.0
48.63,1.834,5.238,11.0
50.233,1.898,5.12,19.0
49.823,1.886,4.79,19.0
0.0,0.0,0.0,0.0
45.919,1.758,5.431,20.0
45.531,1.746,5.12,30.0
49.085,1.885,5.229,24.0
49.969,1.923,5.034,21.0
49.878,1.923,4.736,22.0
0.0,0.0,0.0,0.0
45.782,1.783,5.359,20.0
45.487,1.774,5.059,19.0
48.776,1.905,5.137,23.0
49.874,1.952,4.963,33.0
49.979,1.959,4.685,17.0
46.046,1.82,5.601,26.0
45.752,1.812,5.298,27.0
48.823,1.935,5.37,14.0
48.416,1.922,5.039,22.0
49.813,1.98,4.895,29.0
54.054,2.152,4.999,13.0
45.93,1.844,5.529,27.0
45.639,1.834,5.227,28.0
48.756,1.962,5.3,22.0
48.287,1.945,4.964,22.0
49.817,2.01,4.833,21.0
54.036,2.183,4.929,13.0
45.833,1.867,5.458,24.0
45.54,1.857,5.157,31.0
49.256,2.01,5.29,23.0
50.137,2.048,5.088,8.0
49.651,2.031,4.751,23.0
51.278,2.1,4.609,9.0
45.836,1.892,5.396,33.0
45.871,1.895,5.133,20.0
48.404,2.001,5.134,22.0
50.083,2.072,5.016,28.0
49.681,2.058,4.687,18.0
55.7,2.31,4.932,9.0
45.688,1.909,5.316,35.0
46.189,1.931,5.105,30.0
48.318,2.023,5.059,26.0
50.021,2.095,4.941,24.0
54.095,2.268,5.029,8.0
55.991,2.349,4.881,30.0
45.63,1.929,5.246,35.0
48.275,2.042,5.268,6.0
48.28,2.043,4.987,13.0
49.777,2.108,4.847,23.0
54.018,2.29,4.946,8.0
56.386,2.392,4.836,26.0
45.832,1.958,5.203,21.0
48.407,2.069,5.213,11.0
50.187,2.147,5.112,24.0
0.0,0.0,0.0,0.0
0.0,0.0,0.0,0.0
56.458,2.418,4.761,27.0
46.206,1.994,5.178,36.0
56.305,2.43,5.981,14.0
50.124,2.164,5.032,23.0
0.0,0.0,0.0,0.0
55.442,2.396,4.915,38.0
56.389,2.437,4.672,22.0
48.218,2.098,5.332,10.0
50.355,2.192,5.274,16.0
50.289,2.189,4.974,24.0
53.976,2.351,5.02,18.0
55.422,2.414,4.832,25.0
58.36,2.543,4.75,4.0
48.929,2.146,5.338,23.0
50.131,2.199,5.176,25.0
50.996,2.237,4.968,24.0
53.966,2.367,4.938,17.0
55.283,2.426,4.737,25.0
58.343,2.561,4.66,11.0
56.386,2.49,6.065,14.0
50.139,2.214,5.099,24.0
49.495,2.186,4.745,13.0
0.0,0.0,0.0,0.0
55.217,2.439,4.645,27.0
66.352,2.931,5.197,5.0
51.325,2.281,5.439,16.0
50.702,2.252,5.077,25.0
49.478,2.198,4.666,15.0
55.381,2.46,4.894,29.0
55.175,2.451,4.555,26.0
66.283,2.944,5.087,18.0
50.588,2.26,5.281,25.0
0.0,0.0,0.0,0.0
53.95,2.408,5.002,21.0
55.325,2.469,4.802,23.0
58.239,2.599,4.717,12.0
66.169,2.952,4.974,21.0
50.409,2.262,5.182,25.0
49.606,2.224,4.81,17.0
54.059,2.423,4.926,11.0
55.241,2.475,4.706,26.0
58.172,2.606,4.618,9.0
66.095,2.96,4.863,15.0
50.367,2.267,5.096,24.0
49.467,2.226,4.715,19.0
54.11,2.433,4.843,9.0
55.159,2.479,4.61,28.0
66.058,2.968,5.137,7.0
65.953,2.962,4.745,14.0
50.466,2.278,5.023,27.0
53.978,2.435,5.058,8.0
55.275,2.492,4.856,24.0
58.204,2.622,4.769,9.0
65.882,2.967,5.015,20.0
65.92,2.966,4.636,20.0
49.629,2.244,4.858,19.0
54.024,2.44,4.972,16.0
55.288,2.496,4.766,11.0
58.219,2.626,4.674,20.0
65.899,2.971,4.907,19.0
65.908,2.969,4.526,25.0
49.527,2.241,4.765,17.0
54.089,2.445,4.887,18.0
55.155,2.491,4.662,19.0
64.187,2.897,5.046,7.0
65.917,2.973,4.798,25.0
65.881,2.969,4.413,22.0
49.428,2.237,4.671,16.0
0.0,0.0,0.0,0.0
55.156,2.491,4.568,23.0
65.859,2.971,5.064,21.0
65.886,2.97,4.684,21.0
65.45,2.948,4.273,28.0
54.005,2.442,5.011,17.0
55.309,2.498,4.809,14.0
58.226,2.627,4.723,20.0
65.874,2.968,4.953,21.0
65.927,2.968,4.573,26.0
65.333,2.938,4.153,23.0
54.09,2.441,4.925,14.0
55.2,2.488,4.704,16.0
58.204,2.621,4.621,7.0
65.993,2.968,4.848,18.0
65.884,2.959,4.457,24.0
65.467,2.937,4.048,20.0
0.0,0.0,0.0,0.0
55.159,2.48,4.604,29.0
66.032,2.964,5.126,10.0
65.993,2.958,4.732,7.0
65.687,2.941,4.329,32.0
65.539,2.931,3.939,16.0
55.35,2.483,4.846,23.0
58.218,2.608,4.757,10.0
66.13,2.957,5.018,20.0
66.015,2.948,4.619,9.0
65.383,2.915,4.194,30.0
65.544,2.919,3.825,16.0
55.246,2.467,4.739,24.0
58.216,2.595,4.654,12.0
66.144,2.944,4.903,19.0
65.966,2.932,4.498,21.0
65.421,2.903,4.081,30.0
65.556,2.904,3.71,21.0
55.21,2.452,4.638,26.0
66.374,2.943,5.189,8.0
66.118,2.926,4.783,21.0
65.882,2.91,4.376,26.0
65.486,2.888,3.969,25.0
65.569,2.887,3.594,18.0
55.178,2.435,4.536,12.0
66.222,2.917,5.058,20.0
66.065,2.904,4.662,32.0
65.511,2.874,4.235,34.0
65.495,2.869,3.854,27.0
65.628,2.87,3.48,18.0
58.327,2.555,4.691,6.0
66.12,2.891,4.933,34.0
66.018,2.881,4.54,32.0
65.424,2.849,4.113,33.0
65.5,2.847,3.737,36.0
65.597,2.845,3.362,23.0
66.416,2.886,5.222,8.0
66.087,2.865,4.811,40.0
65.992,2.855,4.421,21.0
65.438,2.825,3.995,26.0
65.543,2.823,3.621,35.0
65.582,2.819,3.243,32.0
66.367,2.857,5.099,15.0
66.064,2.837,4.69,38.0
65.848,2.821,4.291,7.0
65.437,2.797,3.877,23.0
65.547,2.796,3.502,47.0
65.581,2.791,3.124,16.0
66.182,2.819,4.963,22.0
66.069,2.808,4.57,23.0
65.445,2.774,4.146,18.0
65.474,2.768,3.76,30.0
65.554,2.765,3.384,49.0
0.0,0.0,0.0,0.0
66.172,2.787,4.841,5.0
81.648,3.429,5.498,26.0
65.386,2.739,4.023,25.0
65.519,2.737,3.643,42.0
65.554,2.732,3.265,55.0
0.0,0.0,0.0,0.0
81.15,3.374,5.789,29.0
81.57,3.383,5.344,25.0
65.424,2.705,3.906,18.0
65.527,2.702,3.524,59.0
65.55,2.696,3.146,51.0
48.715,1.998,2.055,3.0
81.032,3.323,5.632,19.0
