X,Y,Z,Reflectivity
21.103,0.063,-0.232,3.0
18.403,0.053,-0.298,0.0
16.756,0.045,-0.358,0.0
31.355,0.082,0.206,0.0
28.35,0.07,0.039,1.0
24.999,0.059,-0.094,0.0
21.907,0.048,-0.198,0.0
19.183,0.04,-0.272,0.0
17.303,0.034,-0.335,0.0
32.681,0.06,0.28,0.0
28.724,0.049,0.097,1.0
26.043,0.041,-0.046,0.0
23.377,0.034,-0.165,1.0
20.558,0.027,-0.251,0.0
18.081,0.022,-0.314,0.0
33.718,0.037,0.355,0.0
30.292,0.03,0.163,0.0
26.904,0.023,0.006,0.0
24.117,0.018,-0.121,0.0
21.353,0.013,-0.217,3.0
18.7,0.009,-0.287,0.0
36.93,0.015,0.464,0.0
31.772,0.009,0.235,0.0
28.575,0.005,0.064,1.0
25.597,0.001,-0.077,0.0
22.604,0.0,-0.184,0.0
19.921,-0.002,-0.265,0.0
0.0,0.0,0.0,0.0
33.185,-0.012,0.313,0.0
28.841,-0.013,0.123,0.0
26.46,-0.015,-0.025,0.0
23.787,-0.016,-0.145,0.0
21.042,-0.016,-0.237,2.0
42.67,-0.037,0.71,0.0
0.0,0.0,0.0,0.0
31.051,-0.033,0.196,0.0
27.859,-0.032,0.029,0.0
24.936,-0.031,-0.101,0.0
21.884,-0.03,-0.202,0.0
0.0,0.0,0.0,0.0
38.282,-0.06,0.518,0.0
33.129,-0.055,0.278,0.0
28.784,-0.05,0.09,7.0
26.012,-0.048,-0.052,0.0
23.443,-0.045,-0.167,0.0
0.0,0.0,0.0,0.0
41.483,-0.088,0.648,0.0
0.0,0.0,0.0,0.0
28.892,-0.066,0.15,0.0
27.285,-0.065,0.001,0.0
24.261,-0.059,-0.123,0.0
0.0,0.0,0.0,0.0
0.0,0.0,0.0,0.0
0.0,0.0,0.0,0.0
31.73,-0.089,0.231,1.0
28.716,-0.082,0.062,5.0
25.555,-0.075,-0.076,0.0
0.0,0.0,0.0,0.0
0.0,0.0,0.0,0.0
40.637,-0.13,0.594,0.0
33.216,-0.108,0.311,0.0
28.837,-0.096,0.121,5.0
26.677,-0.091,-0.024,0.0
79.873,-0.28,2.157,3.0
57.599,-0.205,1.258,1.0
42.952,-0.156,0.717,0.0
35.768,-0.132,0.409,0.0
31.411,-0.118,0.197,1.0
28.369,-0.108,0.032,1.0
80.782,-0.317,2.351,4.0
63.995,-0.254,1.532,0.0
0.0,0.0,0.0,0.0
38.459,-0.157,0.521,0.0
33.0,-0.137,0.277,1.0
28.789,-0.121,0.094,6.0
90.221,-0.388,2.816,2.0
80.133,-0.349,2.088,1.0
0.0,0.0,0.0,0.0
0.0,0.0,0.0,0.0
0.0,0.0,0.0,0.0
30.775,-0.14,0.165,1.0
104.744,-0.486,3.49,7.0
80.638,-0.378,2.271,1.0
0.0,0.0,0.0,0.0
0.0,0.0,0.0,0.0
37.672,-0.181,0.475,0.0
31.956,-0.155,0.238,1.0
0.0,0.0,0.0,0.0
82.976,-0.414,2.512,4.0
0.0,0.0,0.0,0.0
0.0,0.0,0.0,0.0
0.0,0.0,0.0,0.0
33.007,-0.169,0.316,0.0
175.919,-0.918,6.607,4.0
104.461,-0.548,3.384,7.0
80.823,-0.426,2.201,3.0
0.0,0.0,0.0,0.0
0.0,0.0,0.0,0.0
0.0,0.0,0.0,0.0
0.0,0.0,0.0,0.0
108.631,-0.594,3.747,2.0
82.833,-0.454,2.43,5.0
0.0,0.0,0.0,0.0
0.0,0.0,0.0,0.0
38.799,-0.215,0.535,0.0
194.469,-1.096,8.122,14.0
0.0,0.0,0.0,0.0
90.393,-0.512,2.843,5.0
81.115,-0.46,2.124,1.0
0.0,0.0,0.0,0.0
0.0,0.0,0.0,0.0
194.299,-1.124,8.52,18.0
0.0,0.0,0.0,0.0
104.7,-0.607,3.512,7.0
82.64,-0.479,2.337,2.0
0.0,0.0,0.0,0.0
0.0,0.0,0.0,0.0
193.776,-1.144,8.908,20.0
194.497,-1.148,7.935,6.0
0.0,0.0,0.0,0.0
90.25,-0.532,2.743,4.0
78.864,-0.464,1.989,0.0
0.0,0.0,0.0,0.0
193.844,-1.159,9.319,6.0
194.388,-1.161,8.343,16.0
0.0,0.0,0.0,0.0
104.584,-0.623,3.4,8.0
81.212,-0.482,2.22,2.0
0.0,0.0,0.0,0.0
194.01,-1.168,9.736,9.0
193.751,-1.163,8.721,23.0
0.0,0.0,0.0,0.0
108.25,-0.646,3.744,1.0
82.867,-0.493,2.439,6.0
0.0,0.0,0.0,0.0
193.847,-1.167,10.133,23.0
193.975,-1.163,9.138,12.0
194.409,-1.161,8.155,15.0
0.0,0.0,0.0,0.0
90.415,-0.535,2.85,4.0
81.194,-0.479,2.141,1.0
179.252,-1.072,9.747,18.0
179.178,-1.066,8.813,8.0
194.125,-1.149,8.546,22.0
0.0,0.0,0.0,0.0
104.857,-0.614,3.521,5.0
82.647,-0.481,2.349,3.0
179.146,-1.058,10.109,20.0
194.037,-1.139,9.942,19.0
193.83,-1.13,8.932,21.0
194.414,-1.126,7.933,8.0
0.0,0.0,0.0,0.0
90.316,-0.516,2.752,4.0
127.737,-0.74,7.471,7.0
179.193,-1.03,9.554,12.0
193.931,-1.106,9.337,9.0
194.396,-1.099,8.333,8.0
0.0,0.0,0.0,0.0
104.526,-0.581,3.4,8.0
98.881,-0.558,5.987,16.0
179.2,-1.001,9.921,28.0
179.209,-0.992,8.994,6.0
193.811,-1.063,8.703,18.0
0.0,0.0,0.0,0.0
108.498,-0.583,3.75,1.0
98.821,-0.538,6.186,13.0
179.108,-0.966,10.284,6.0
179.239,-0.956,9.363,23.0
179.159,-0.945,8.414,7.0
179.052,-0.933,7.479,18.0
175.903,-0.907,6.437,6.0
96.298,-0.503,6.224,17.0
99.036,-0.511,5.885,11.0
179.255,-0.914,9.721,8.0
179.144,-0.901,8.771,17.0
179.015,-0.889,7.836,26.0
175.997,-0.862,6.791,10.0
96.26,-0.478,6.414,12.0
98.894,-0.484,6.075,16.0
180.35,-0.87,10.14,8.0
179.218,-0.852,9.129,17.0
179.068,-0.838,8.193,36.0
178.963,-0.823,7.261,21.0
87.822,-0.41,6.027,15.0
96.318,-0.442,6.109,23.0
180.228,-0.813,10.491,8.0
194.193,-0.861,10.274,22.0
179.104,-0.781,8.545,33.0
179.014,-0.765,7.612,27.0
87.644,-0.38,6.187,7.0
96.104,-0.409,6.283,18.0
99.048,-0.413,5.958,19.0
194.532,-0.794,10.672,14.0
179.134,-0.717,8.895,19.0
179.035,-0.7,7.958,18.0
82.725,-0.328,6.0,22.0
87.805,-0.341,5.91,12.0
96.324,-0.365,5.98,17.0
0.0,0.0,0.0,0.0
194.424,-0.701,10.029,5.0
194.286,-0.682,9.014,8.0
76.251,-0.272,5.678,9.0
87.354,-0.303,6.049,10.0
96.22,-0.324,6.161,21.0
170.519,-0.558,10.011,9.0
194.664,-0.618,10.415,7.0
194.425,-0.598,9.392,6.0
76.435,-0.239,5.84,10.0
82.801,-0.25,5.893,29.0
87.776,-0.256,5.787,15.0
96.291,-0.271,5.837,10.0
179.713,-0.487,9.955,7.0
179.272,-0.467,8.997,6.0
62.658,-0.166,4.906,16.0
63.101,-0.16,4.611,23.0
87.722,-0.213,5.95,7.0
96.288,-0.223,6.018,18.0
180.135,-0.399,10.318,4.0
179.102,-0.377,9.325,14.0
59.032,-0.127,4.733,15.0
63.252,-0.128,4.74,24.0
82.813,-0.159,5.771,28.0
96.559,-0.174,6.214,14.0
106.137,-0.179,6.275,6.0
179.005,-0.281,9.649,14.0
62.684,-0.101,5.142,9.0
76.878,-0.114,5.902,11.0
63.192,-0.086,4.52,19.0
87.605,-0.109,5.798,11.0
96.245,-0.108,5.865,12.0
151.08,-0.151,8.418,18.0
62.541,-0.065,5.245,23.0
76.912,-0.07,6.045,15.0
63.252,-0.05,4.639,29.0
83.001,-0.055,5.643,34.0
96.435,-0.05,6.051,15.0
91.524,-0.036,5.264,14.0
62.302,-0.027,5.337,19.0
59.08,-0.017,4.749,21.0
63.319,-0.011,4.757,27.0
83.507,-0.004,5.826,5.0
87.581,0.007,5.65,11.0
91.629,0.02,5.431,11.0
57.981,0.011,5.07,23.0
59.148,0.019,4.86,23.0
63.456,0.029,4.879,13.0
63.368,0.038,4.532,17.0
83.054,0.062,5.504,31.0
91.497,0.081,5.584,13.0
57.79,0.05,5.154,32.0
59.184,0.059,4.966,20.0
76.988,0.088,6.055,15.0
63.387,0.082,4.643,25.0
79.258,0.114,5.389,5.0
83.221,0.131,5.221,11.0
57.628,0.09,5.239,33.0
58.656,0.1,5.023,34.0
62.798,0.116,5.045,7.0
63.479,0.127,4.759,32.0
79.261,0.171,5.523,10.0
83.12,0.191,5.355,31.0
57.072,0.131,5.287,32.0
58.067,0.141,5.071,32.0
62.404,0.162,5.119,8.0
63.453,0.174,4.863,18.0
76.92,0.222,5.489,17.0
79.408,0.243,5.247,33.0
56.818,0.173,5.357,31.0
57.997,0.185,5.16,32.0
62.361,0.209,5.217,17.0
63.436,0.222,4.965,6.0
63.41,0.232,4.627,12.0
79.418,0.303,5.375,20.0
57.152,0.218,5.482,32.0
0.0,0.0,0.0,0.0
62.676,0.26,5.345,36.0
62.694,0.269,5.007,22.0
63.478,0.283,4.733,37.0
76.951,0.356,5.331,17.0
57.137,0.264,5.572,27.0
56.589,0.272,5.216,28.0
62.672,0.311,5.444,17.0
62.712,0.321,5.108,30.0
63.603,0.336,4.842,24.0
62.781,0.342,4.447,22.0
57.888,0.316,5.735,33.0
56.676,0.319,5.313,30.0
58.542,0.34,5.176,25.0
62.907,0.375,5.22,21.0
63.2,0.388,4.909,34.0
62.751,0.396,4.541,21.0
0.0,0.0,0.0,0.0
57.001,0.371,5.431,31.0
56.869,0.38,5.114,30.0
63.139,0.432,5.335,23.0
57.091,0.401,4.521,14.0
63.017,0.454,4.655,24.0
56.927,0.411,5.814,17.0
57.432,0.425,5.558,30.0
56.711,0.43,5.185,30.0
63.121,0.49,5.428,19.0
57.007,0.452,4.598,16.0
63.295,0.514,4.768,14.0
57.093,0.466,5.916,18.0
57.868,0.482,5.685,31.0
56.609,0.482,5.259,28.0
57.832,0.502,5.056,32.0
57.192,0.507,4.695,30.0
63.54,0.575,4.878,12.0
57.163,0.52,6.005,26.0
58.021,0.538,5.783,32.0
56.79,0.537,5.356,30.0
57.53,0.555,5.112,31.0
57.372,0.564,4.791,30.0
63.506,0.636,4.964,24.0
50.391,0.507,5.365,6.0
50.066,0.513,5.06,22.0
57.419,0.599,5.495,31.0
56.816,0.603,5.126,31.0
57.371,0.62,4.869,29.0
63.033,0.693,5.012,30.0
56.947,0.63,6.141,32.0
50.17,0.564,5.14,16.0
57.738,0.66,5.604,30.0
56.681,0.659,5.191,31.0
57.315,0.676,4.941,12.0
62.609,0.751,5.062,17.0
56.94,0.687,6.216,32.0
57.204,0.701,5.936,11.0
57.726,0.718,5.678,23.0
56.687,0.716,5.264,30.0
62.62,0.802,5.479,8.0
59.108,0.769,4.854,12.0
56.765,0.744,6.27,29.0
57.362,0.762,6.026,8.0
50.159,0.676,4.998,10.0
56.974,0.779,5.364,31.0
58.431,0.811,5.186,30.0
59.053,0.831,4.924,29.0
56.293,0.797,6.289,22.0
57.243,0.822,6.085,12.0
50.158,0.729,5.06,18.0
57.268,0.844,5.462,28.0
57.805,0.863,5.201,31.0
59.035,0.893,4.994,31.0
56.222,0.856,6.35,18.0
50.223,0.774,5.399,24.0
50.24,0.785,5.129,24.0
57.378,0.907,5.541,12.0
57.164,0.915,5.211,30.0
58.792,0.953,5.042,32.0
56.217,0.918,6.415,7.0
50.106,0.828,5.445,24.0
50.298,0.84,5.193,19.0
49.27,0.833,4.814,19.0
57.371,0.981,5.295,27.0
58.189,1.007,5.056,32.0
48.809,0.851,5.625,28.0
50.18,0.884,5.51,23.0
54.981,0.98,5.738,15.0
49.195,0.886,4.862,11.0
57.498,1.048,5.37,29.0
57.312,1.056,5.042,20.0
49.633,0.921,5.775,26.0
50.345,0.944,5.583,24.0
50.171,0.951,5.29,14.0
54.946,1.053,5.489,17.0
58.006,1.123,5.479,26.0
57.34,1.121,5.105,25.0
48.774,0.961,5.727,19.0
50.207,0.999,5.62,24.0
50.302,1.011,5.356,23.0
55.15,1.119,5.566,10.0
60.715,1.245,5.797,10.0
57.314,1.186,5.161,26.0
48.666,1.015,5.763,21.0
50.201,1.057,5.67,24.0
50.055,1.064,5.379,20.0
55.332,1.187,5.639,12.0
60.717,1.315,5.856,14.0
56.158,1.228,5.111,12.0
48.678,1.072,5.812,5.0
50.262,1.117,5.725,21.0
49.774,1.116,5.397,33.0
49.809,1.127,5.123,15.0
49.33,1.127,4.804,22.0
55.954,1.289,5.144,21.0
45.453,1.055,5.469,27.0
50.251,1.176,5.77,8.0
49.751,1.175,5.439,23.0
49.745,1.184,5.161,15.0
49.36,1.185,4.851,22.0
56.0,1.356,5.197,20.0
45.487,1.109,5.513,29.0
50.309,1.237,5.82,25.0
49.719,1.233,5.479,5.0
49.616,1.24,5.19,23.0
49.418,1.245,4.898,33.0
0.0,0.0,0.0,0.0
45.566,1.166,5.561,18.0
45.632,1.177,5.318,34.0
45.869,1.193,5.092,15.0
54.742,1.434,5.771,8.0
0.0,0.0,0.0,0.0
50.63,1.348,4.782,16.0
45.583,1.222,5.6,28.0
45.639,1.233,5.354,19.0
45.805,1.247,5.121,18.0
48.957,1.342,5.199,24.0
50.353,1.391,5.069,23.0
56.185,1.563,5.348,7.0
45.648,1.28,5.642,27.0
45.692,1.29,5.394,28.0
45.843,1.303,5.159,20.0
49.388,1.414,5.28,23.0
50.822,1.466,5.153,15.0
56.271,1.635,5.397,10.0
0.0,0.0,0.0,0.0
45.67,1.345,5.424,24.0
45.871,1.361,5.194,17.0
46.311,1.383,4.982,17.0
55.102,1.657,5.624,6.0
56.255,1.703,5.432,11.0
44.022,1.342,5.502,29.0
45.69,1.402,5.456,32.0
45.825,1.415,5.218,13.0
48.677,1.513,5.268,6.0
48.518,1.518,4.982,16.0
51.022,1.607,4.958,16.0
43.784,1.389,5.499,26.0
45.784,1.462,5.495,27.0
47.64,1.531,5.453,6.0
48.907,1.581,5.322,5.0
48.564,1.58,5.015,10.0
50.713,1.66,4.957,24.0
43.786,1.444,5.524,29.0
45.643,1.515,5.504,35.0
45.865,1.53,5.275,20.0
48.678,1.634,5.323,11.0
51.028,1.723,5.297,11.0
56.542,1.92,5.557,9.0
43.822,1.5,5.552,37.0
45.472,1.565,5.507,30.0
46.08,1.594,5.323,20.0
45.541,1.585,5.003,30.0
46.341,1.621,4.833,9.0
56.448,1.986,5.575,8.0
43.694,1.549,5.556,34.0
45.527,1.623,5.535,32.0
45.899,1.645,5.324,27.0
45.547,1.641,5.024,20.0
55.171,1.998,5.779,5.0
50.364,1.834,4.995,17.0
43.563,1.599,5.559,34.0
45.521,1.679,5.553,34.0
45.875,1.701,5.34,21.0
45.545,1.697,5.042,28.0
48.655,1.823,5.116,24.0
50.381,1.897,5.017,13.0
43.566,1.653,5.576,21.0
44.9,1.712,5.495,21.0
45.793,1.754,5.347,17.0
45.564,1.754,5.061,26.0
48.615,1.881,5.129,29.0
50.332,1.957,5.029,9.0
43.548,1.706,5.589,27.0
45.076,1.774,5.531,21.0
45.821,1.812,5.365,20.0
45.6,1.812,5.079,33.0
48.787,1.947,5.162,22.0
48.309,1.938,4.842,21.0
43.538,1.76,5.6,33.0
44.242,1.796,5.441,25.0
45.864,1.87,5.383,20.0
48.383,1.981,5.403,7.0
49.584,2.04,5.259,23.0
50.311,2.08,5.055,6.0
43.596,1.816,5.619,35.0
59.157,2.475,7.291,7.0
45.739,1.921,5.379,28.0
45.69,1.928,5.112,11.0
49.483,2.097,5.259,14.0
50.342,2.143,5.069,18.0
43.756,1.877,5.648,35.0
45.775,1.971,5.65,14.0
45.742,1.978,5.388,31.0
46.099,2.002,5.166,20.0
49.393,2.154,5.258,14.0
50.337,2.204,5.077,24.0
43.797,1.932,5.661,32.0
45.145,2.0,5.58,21.0
45.784,2.036,5.4,27.0
46.022,2.055,5.164,34.0
56.392,2.528,6.011,11.0
50.498,2.272,5.099,24.0
44.174,2.004,5.714,21.0
44.445,2.023,5.498,32.0
45.776,2.092,5.404,31.0
46.184,2.118,5.186,27.0
56.36,2.595,6.012,9.0
50.482,2.333,5.102,24.0
44.465,2.071,5.755,31.0
44.444,2.078,5.5,31.0
45.778,2.148,5.406,31.0
48.317,2.275,5.428,36.0
51.4,2.429,5.485,21.0
50.453,2.393,5.1,27.0
44.492,2.127,5.76,25.0
44.437,2.131,5.5,28.0
45.868,2.207,5.418,36.0
48.294,2.332,5.426,21.0
50.944,2.468,5.436,24.0
50.265,2.444,5.081,24.0
44.498,2.18,5.759,32.0
0.0,0.0,0.0,0.0
45.843,2.261,5.413,12.0
48.058,2.378,5.397,22.0
48.921,2.428,5.218,14.0
50.35,2.508,5.086,18.0
44.499,2.233,5.756,38.0
45.974,2.314,5.685,14.0
43.698,2.206,5.156,16.0
47.599,2.411,5.341,21.0
48.922,2.486,5.213,22.0
49.942,2.546,5.04,25.0
44.51,2.286,5.753,40.0
0.0,0.0,0.0,0.0
43.648,2.255,5.144,25.0
47.697,2.472,5.346,22.0
48.955,2.545,5.21,22.0
49.961,2.605,5.034,22.0
44.596,2.342,5.757,35.0
0.0,0.0,0.0,0.0
43.697,2.308,5.143,18.0
47.524,2.517,5.318,29.0
0.0,0.0,0.0,0.0
49.877,2.657,5.017,19.0
44.591,2.394,5.747,37.0
44.443,2.392,5.474,19.0
43.715,2.359,5.135,28.0
48.036,2.599,5.365,23.0
51.452,2.791,5.454,11.0
49.863,2.713,5.003,20.0
44.357,2.431,5.706,20.0
43.843,2.409,5.389,25.0
43.675,2.406,5.119,32.0
48.195,2.662,5.369,23.0
53.136,2.943,5.618,5.0
49.7,2.761,4.973,23.0
43.829,2.453,5.625,26.0
43.811,2.457,5.372,30.0
43.648,2.454,5.102,32.0
45.093,2.541,5.01,19.0
44.752,2.528,4.717,15.0
48.803,2.764,4.867,22.0
43.77,2.497,5.603,30.0
45.915,2.626,5.614,6.0
43.733,2.506,5.097,20.0
45.089,2.59,4.993,20.0
44.835,2.582,4.71,32.0
49.004,2.829,4.869,23.0
43.087,2.505,5.499,25.0
43.821,2.553,5.341,36.0
43.734,2.553,5.08,30.0
45.008,2.633,4.967,29.0
48.189,2.826,5.043,4.0
49.158,2.89,4.865,20.0
42.998,2.546,5.469,33.0
43.835,2.601,5.324,33.0
43.789,2.603,5.067,18.0
44.934,2.677,4.938,34.0
48.825,2.915,5.087,23.0
49.188,2.943,4.845,19.0
43.319,2.61,5.49,19.0
43.567,2.63,5.271,27.0
45.096,2.727,5.197,24.0
44.889,2.721,4.912,30.0
49.194,2.987,5.102,22.0
56.809,3.456,5.569,3.0
42.861,2.626,5.41,33.0
43.653,2.679,5.259,31.0
45.046,2.77,5.168,30.0
44.918,2.767,4.892,15.0
49.342,3.046,5.092,39.0
51.999,3.216,5.069,21.0
42.69,2.658,5.365,29.0
43.808,2.732,5.254,25.0
45.153,2.821,5.156,19.0
44.993,2.816,4.875,10.0
49.311,3.092,5.06,39.0
51.925,3.262,5.032,19.0
42.711,2.701,5.343,31.0
0.0,0.0,0.0,0.0
45.38,2.88,5.154,22.0
47.106,2.994,5.075,17.0
49.279,3.137,5.027,35.0
52.024,3.318,5.01,20.0
42.623,2.736,5.305,18.0
42.23,2.715,5.012,10.0
45.832,2.952,5.176,33.0
47.163,3.042,5.051,16.0
59.96,3.874,6.078,4.0
55.009,3.56,5.261,8.0
42.466,2.766,5.257,24.0
33.8,2.205,3.989,6.0
46.702,3.05,5.243,13.0
0.0,0.0,0.0,0.0
48.287,3.163,4.861,6.0
54.97,3.607,5.22,16.0
42.294,2.793,5.205,23.0
33.826,2.236,3.968,19.0
0.0,0.0,0.0,0.0
49.048,3.252,5.184,10.0
48.272,3.205,4.825,14.0
55.016,3.658,5.184,14.0
42.47,2.842,5.195,22.0
33.785,2.263,3.937,21.0
47.028,3.154,5.21,9.0
49.102,3.297,5.152,8.0
48.249,3.244,4.786,26.0
63.048,4.246,5.892,9.0
42.312,2.867,5.143,19.0
48.548,3.293,5.62,9.0
47.087,3.197,5.179,10.0
65.885,4.48,6.861,6.0
48.333,3.29,4.755,21.0
61.084,4.163,5.66,8.0
42.24,2.897,5.099,10.0
48.49,3.329,5.573,14.0
47.112,3.238,5.143,19.0
48.326,3.325,4.992,13.0
48.366,3.331,4.718,10.0
61.008,4.207,5.601,10.0
33.843,2.347,4.056,23.0
48.559,3.371,5.539,21.0
47.078,3.272,5.098,19.0
48.276,3.359,4.945,22.0
64.986,4.525,6.283,8.0
59.07,4.119,5.371,8.0
33.904,2.377,4.033,25.0
48.454,3.401,5.484,8.0
51.921,3.647,5.576,6.0
48.235,3.391,4.897,23.0
66.742,4.697,6.392,13.0
51.842,3.653,4.667,19.0
33.849,2.398,3.995,30.0
33.78,2.395,3.791,9.0
51.89,3.683,5.523,19.0
48.3,3.43,4.858,19.0
59.385,4.222,5.631,8.0
51.832,3.688,4.617,16.0
33.839,2.421,3.961,26.0
33.668,2.41,3.746,17.0
48.287,3.46,5.093,22.0
64.947,4.657,6.469,10.0
59.342,4.259,5.569,22.0
58.796,4.224,5.179,17.0
33.765,2.438,3.919,21.0
33.652,2.432,3.71,27.0
48.381,3.499,5.054,18.0
64.462,4.665,6.356,9.0
58.994,4.272,5.476,21.0
58.783,4.26,5.119,35.0
33.687,2.454,3.875,31.0
33.703,2.457,3.681,24.0
48.424,3.532,5.009,21.0
59.568,4.347,5.811,22.0
58.822,4.296,5.399,17.0
58.439,4.271,5.028,33.0
33.559,2.465,3.824,37.0
48.375,3.555,5.232,10.0
48.443,3.561,4.959,12.0
59.551,4.38,5.746,34.0
58.823,4.329,5.336,13.0
57.993,4.271,4.928,26.0
33.548,2.483,3.786,28.0
48.394,3.583,5.181,22.0
51.802,3.837,5.247,10.0
59.565,4.414,5.682,7.0
49.652,3.681,4.45,21.0
58.011,4.303,4.865,23.0
33.489,2.496,3.742,26.0
48.349,3.605,5.122,26.0
51.807,3.864,5.188,8.0
58.774,4.386,5.539,7.0
49.638,3.705,4.392,17.0
61.518,4.594,5.089,17.0
33.554,2.518,3.71,25.0
48.461,3.637,5.077,22.0
42.96,3.225,4.252,12.0
49.627,3.726,4.62,20.0
51.924,3.9,4.534,9.0
61.503,4.622,5.016,19.0
33.65,2.54,3.681,23.0
51.769,3.909,5.362,8.0
42.978,3.246,4.202,5.0
49.627,3.749,4.56,17.0
51.913,3.922,4.471,19.0
61.724,4.665,4.96,25.0
48.367,3.671,5.233,13.0
51.733,3.927,5.296,16.0
49.721,3.775,4.802,7.0
49.601,3.766,4.498,11.0
61.368,4.661,5.211,11.0
60.935,4.629,4.823,22.0
48.419,3.694,5.178,25.0
42.993,3.28,4.348,14.0
49.667,3.789,4.735,13.0
51.891,3.959,4.641,10.0
61.323,4.68,5.13,19.0
60.555,4.622,4.717,35.0
48.744,3.735,5.151,23.0
43.073,3.3,4.301,15.0
49.629,3.803,4.668,23.0
51.872,3.974,4.574,23.0
61.278,4.695,5.049,22.0
60.475,4.635,4.634,35.0
51.709,3.978,5.398,6.0
43.069,3.313,4.246,20.0
49.603,3.815,4.602,28.0
51.872,3.989,4.507,27.0
60.918,4.685,4.941,25.0
60.614,4.662,4.567,35.0
49.816,3.845,5.136,21.0
51.817,3.999,5.041,7.0
51.84,4.0,4.742,7.0
51.874,4.002,4.44,43.0
60.834,4.693,4.855,21.0
60.75,4.686,4.498,20.0
49.719,3.849,5.059,7.0
51.837,4.012,4.973,36.0
51.853,4.012,4.673,43.0
51.919,4.017,4.374,25.0
60.647,4.691,4.759,32.0
60.603,4.687,4.405,34.0
43.067,3.342,4.323,22.0
51.823,4.02,4.902,14.0
51.866,4.022,4.605,40.0
60.962,4.726,5.054,26.0
60.367,4.679,4.655,34.0
59.974,4.648,4.278,34.0
43.092,3.35,4.267,31.0
49.593,3.854,4.622,20.0
51.868,4.029,4.534,19.0
60.87,4.727,4.962,26.0
60.509,4.697,4.583,34.0
59.549,4.622,4.166,23.0
43.086,3.354,4.206,14.0
51.867,4.036,4.762,9.0
51.883,4.035,4.462,25.0
60.722,4.721,4.865,28.0
60.69,4.716,4.512,32.0
59.779,4.644,4.099,31.0
51.866,4.041,4.99,5.0
51.861,4.038,4.688,42.0
51.903,4.039,4.391,37.0
60.521,4.708,4.763,35.0
60.3,4.688,4.397,34.0
59.73,4.642,4.011,32.0
51.83,4.039,4.912,13.0
51.857,4.039,4.614,43.0
61.069,4.753,5.079,18.0
60.297,4.69,4.659,35.0
59.833,4.652,4.278,27.0
59.957,4.659,3.94,24.0
51.85,4.04,4.839,6.0
51.865,4.038,4.539,21.0
60.973,4.744,4.983,29.0
60.475,4.702,4.586,35.0
59.523,4.625,4.169,25.0
60.648,4.71,3.898,35.0
51.862,4.037,4.764,8.0
51.888,4.036,4.465,29.0
60.731,4.721,4.874,25.0
60.739,4.718,4.517,29.0
59.763,4.639,4.099,33.0
60.857,4.721,3.822,35.0
51.866,4.032,4.688,53.0
51.913,4.032,4.391,34.0
60.603,4.703,4.774,32.0
60.539,4.694,4.412,35.0
59.669,4.624,4.004,33.0
60.6,4.693,3.717,17.0
51.864,4.024,4.611,38.0
60.94,4.724,5.063,22.0
60.347,4.674,4.664,34.0
60.139,4.653,4.294,35.0
60.06,4.644,3.941,33.0
61.517,4.753,3.681,11.0
51.867,4.014,4.532,20.0
60.843,4.704,4.963,23.0
60.533,4.676,4.587,34.0
59.917,4.624,4.188,34.0
60.624,4.674,3.887,34.0
77.516,5.972,4.523,15.0
51.892,4.004,4.456,44.0
60.826,4.688,4.87,20.0
60.75,4.677,4.512,26.0
59.705,4.592,4.082,34.0
60.537,4.652,3.789,30.0
77.256,5.932,4.39,12.0
61.285,4.711,5.169,11.0
60.648,4.657,4.764,35.0
60.589,4.647,4.408,23.0
59.799,4.582,3.998,28.0
60.873,4.66,3.718,32.0
77.172,5.902,4.269,19.0
61.355,4.697,5.08,20.0
60.483,4.625,4.658,35.0
60.356,4.61,4.298,34.0
60.628,4.625,3.961,34.0
61.37,4.676,3.655,9.0
81.331,6.191,4.374,9.0
61.489,4.685,4.996,19.0
60.644,4.615,4.576,35.0
60.12,4.569,4.189,29.0
60.744,4.611,3.875,31.0
77.424,5.87,4.492,26.0
81.388,6.163,4.252,9.0
61.18,4.637,4.877,25.0
60.829,4.604,4.496,27.0
60.254,4.554,4.105,32.0
60.572,4.572,3.77,29.0
77.462,5.84,4.375,26.0
81.328,6.124,4.125,23.0
60.85,4.584,4.757,36.0
60.672,4.564,4.391,26.0
60.392,4.537,4.021,35.0
60.953,4.572,3.7,36.0
77.983,5.843,4.284,7.0
81.231,6.078,3.993,25.0
60.999,4.565,4.673,31.0
60.559,4.526,4.288,27.0
60.822,4.538,3.955,35.0
61.335,4.57,3.627,9.0
81.133,6.036,4.331,22.0
81.111,6.027,3.862,24.0
60.786,4.517,4.561,23.0
60.52,4.489,4.191,34.0
60.735,4.498,3.854,35.0
77.587,5.738,4.468,26.0
81.072,5.987,4.201,27.0
81.221,5.989,3.74,17.0
60.723,4.476,4.461,24.0
60.306,4.438,4.081,35.0
60.772,4.465,3.761,22.0
77.669,5.697,4.351,28.0
80.876,5.923,4.064,24.0
49.162,3.595,2.187,2.0
60.688,4.436,4.363,28.0
60.725,4.43,4.014,30.0
77.728,5.661,4.688,14.0
77.825,5.659,4.237,13.0
80.999,5.88,3.944,21.0
0.0,0.0,0.0,0.0
60.627,4.391,4.263,23.0
60.825,4.397,3.925,32.0
77.863,5.618,4.576,26.0
77.891,5.61,4.12,10.0
81.029,5.826,3.818,12.0
0.0,0.0,0.0,0.0
60.644,4.349,4.17,22.0
61.268,4.386,3.858,23.0
77.876,5.563,4.454,24.0
80.71,5.755,4.143,13.0
49.464,3.52,2.254,0.0
0.0,0.0,0.0,0.0
60.708,4.308,4.079,22.0
77.636,5.498,4.768,16.0
77.66,5.488,4.321,26.0
80.717,5.693,4.017,34.0
0.0,0.0,0.0,0.0
48.272,3.391,1.847,0.0
60.663,4.257,3.981,19.0
77.675,5.439,4.649,28.0
79.287,5.54,4.287,8.0
80.864,5.638,3.899,18.0
0.0,0.0,0.0,0.0
47.84,3.322,1.756,2.0
60.687,4.207,3.888,15.0
78.186,5.408,4.558,28.0
80.823,5.579,4.245,32.0
80.721,5.559,3.767,1.0
0.0,0.0,0.0,0.0
47.559,3.261,1.672,5.0
80.051,5.48,5.005,27.0
78.81,5.382,4.472,26.0
80.806,5.505,4.12,28.0
0.0,0.0,0.0,0.0
0.0,0.0,0.0,0.0
47.389,3.206,1.593,10.0
80.046,5.405,4.879,24.0
78.758,5.306,4.347,19.0
80.781,5.428,3.993,33.0
0.0,0.0,0.0,0.0
47.986,3.209,1.815,1.0
47.25,3.152,1.515,9.0
79.751,5.309,4.738,25.0
81.067,5.382,4.349,9.0
80.804,5.352,3.87,9.0
0.0,0.0,0.0,0.0
47.67,3.141,1.73,3.0
47.213,3.103,1.442,31.0
79.008,5.181,4.574,27.0
80.964,5.294,4.221,30.0
0.0,0.0,0.0,0.0
0.0,0.0,0.0,0.0
47.481,3.08,1.651,7.0
47.209,3.054,1.371,87.0
80.784,5.213,4.554,9.0
80.875,5.204,4.093,31.0
0.0,0.0,0.0,0.0
0.0,0.0,0.0,0.0
47.305,3.019,1.574,11.0
47.221,3.005,1.301,156.0
80.947,5.137,4.442,28.0
58.71,3.714,2.883,6.0
0.0,0.0,0.0,0.0
47.865,3.011,1.796,2.0
47.213,2.961,1.5,15.0
47.221,2.953,1.23,164.0
58.68,3.658,3.132,24.0
58.69,3.647,2.795,3.0
0.0,0.0,0.0,0.0
47.545,2.936,1.713,4.0
47.19,2.906,1.43,45.0
47.225,2.899,1.16,154.0
58.645,3.588,3.043,60.0
0.0,0.0,0.0,0.0
0.0,0.0,0.0,0.0
47.396,2.872,1.638,11.0
47.193,2.85,1.36,41.0
47.317,2.849,1.093,1.0
58.656,3.518,2.957,58.0
0.0,0.0,0.0,0.0
48.09,2.865,1.872,0.0
47.279,2.807,1.565,14.0
47.219,2.794,1.292,30.0
47.24,2.786,1.022,5.0
58.691,3.448,2.873,6.0
0.0,0.0,0.0,0.0
47.787,2.787,1.79,2.0
47.208,2.743,1.493,22.0
47.244,2.736,1.224,14.0
47.287,2.729,0.954,3.0
0.0,0.0,0.0,0.0
0.0,0.0,0.0,0.0
47.538,2.711,1.712,4.0
47.216,2.683,1.426,17.0
47.254,2.675,1.156,2.0
47.477,2.678,0.89,0.0
0.0,0.0,0.0,0.0
0.0,0.0,0.0,0.0
47.38,2.639,1.639,6.0
47.246,2.622,1.359,23.0
47.284,2.613,1.089,1.0
48.706,2.682,0.843,6.0
0.0,0.0,0.0,0.0
48.121,2.625,1.872,1.0
47.462,2.579,1.575,16.0
47.281,2.559,1.293,30.0
47.248,2.546,1.022,4.0
48.905,2.625,0.778,2.0
0.0,0.0,0.0,0.0
47.741,2.539,1.791,3.0
47.327,2.506,1.505,9.0
47.294,2.493,1.228,30.0
47.353,2.486,0.959,2.0
0.0,0.0,0.0,0.0
0.0,0.0,0.0,0.0
47.571,2.462,1.72,24.0
47.359,2.44,1.441,15.0
47.317,2.427,1.165,21.0
49.84,2.545,0.942,0.0
38.614,1.963,0.51,0.0
48.417,2.447,1.962,0.0
47.595,2.394,1.656,153.0
47.41,2.373,1.379,13.0
47.329,2.358,1.101,13.0
50.124,2.486,0.881,2.0
36.939,1.824,0.438,0.0
48.197,2.364,1.888,1.0
47.577,2.322,1.592,20.0
47.417,2.302,1.316,6.0
47.334,2.287,1.039,2.0
0.0,0.0,0.0,0.0
0.0,0.0,0.0,0.0
47.777,2.271,1.81,4.0
47.461,2.244,1.526,15.0
47.453,2.232,1.255,5.0
0.0,0.0,0.0,0.0
41.013,1.909,0.613,0.0
33.613,1.556,0.31,0.0
47.752,2.195,1.747,5.0
47.526,2.173,1.467,12.0
47.484,2.159,1.195,6.0
47.831,2.163,0.926,0.0
0.0,0.0,0.0,0.0
32.299,1.445,0.257,0.0
47.827,2.123,1.689,4.0
47.923,2.115,1.419,1.0
0.0,0.0,0.0,0.0
47.882,2.089,0.867,1.0
36.789,1.595,0.457,0.0
31.024,1.337,0.208,0.0
48.147,2.06,1.64,3.0
48.363,2.056,1.372,5.0
48.255,2.039,1.094,0.0
0.0,0.0,0.0,0.0
35.276,1.472,0.395,0.0
30.751,1.275,0.169,0.0
48.612,1.999,1.597,3.0
48.62,1.987,1.32,2.0
49.267,2.0,1.057,0.0
0.0,0.0,0.0,0.0
33.633,1.348,0.336,0.0
28.939,1.152,0.124,1.0
49.057,1.936,1.553,2.0
49.199,1.929,1.278,2.0
0.0,0.0,0.0,0.0
0.0,0.0,0.0,0.0
33.207,1.275,0.293,0.0
28.75,1.096,0.09,1.0
49.624,1.875,1.514,3.0
49.685,1.864,1.233,1.0
50.704,1.888,0.97,2.0
0.0,0.0,0.0,0.0
31.998,1.174,0.245,0.0
27.746,1.01,0.055,0.0
50.198,1.809,1.474,2.0
0.0,0.0,0.0,0.0
0.0,0.0,0.0,0.0
36.323,1.279,0.444,0.0
30.872,1.078,0.202,0.0
27.109,0.939,0.024,0.0
0.0,0.0,0.0,0.0
0.0,0.0,0.0,0.0
0.0,0.0,0.0,0.0
34.953,1.169,0.389,1.0
29.006,0.961,0.158,1.0
26.575,0.873,-0.005,0.0
54.105,1.759,1.469,150.0
54.95,1.77,1.181,3.0
0.0,0.0,0.0,0.0
34.008,1.076,0.342,0.0
28.946,0.908,0.127,6.0
26.031,0.809,-0.032,0.0
54.243,1.665,1.416,9.0
55.527,1.689,1.135,4.0
40.013,1.206,0.591,0.0
33.465,0.998,0.301,1.0
28.848,0.852,0.097,4.0
25.378,0.743,-0.058,0.0
54.115,1.563,1.358,3.0
56.125,1.604,1.09,0.0
0.0,0.0,0.0,0.0
32.019,0.896,0.256,0.0
28.503,0.789,0.067,1.0
24.957,0.684,-0.082,0.0
54.5,1.473,1.313,1.0
0.0,0.0,0.0,0.0
36.401,0.962,0.465,0.0
31.205,0.815,0.219,0.0
27.298,0.705,0.037,0.0
24.275,0.619,-0.103,0.0
54.711,1.376,1.265,0.0
47.653,1.184,0.833,1.0
35.984,0.883,0.425,0.0
28.994,0.703,0.176,0.0
26.832,0.642,0.011,0.0
23.82,0.563,-0.124,0.0
57.886,1.346,1.285,5.0
42.141,0.967,0.697,0.0
34.821,0.788,0.379,0.0
28.805,0.643,0.148,0.0
26.422,0.581,-0.012,0.0
23.455,0.509,-0.143,0.0
54.732,1.166,1.165,1.0
40.058,0.841,0.626,0.0
33.844,0.7,0.338,1.0
28.844,0.587,0.122,1.0
26.045,0.522,-0.035,0.0
22.98,0.454,-0.161,0.0
0.0,0.0,0.0,0.0
39.781,0.757,0.587,0.0
33.149,0.62,0.302,1.0
28.738,0.529,0.097,1.0
25.473,0.461,-0.056,0.0
22.374,0.398,-0.175,0.0
0.0,0.0,0.0,0.0
38.141,0.651,0.531,0.0
0.0,0.0,0.0,0.0
28.458,0.467,0.073,0.0
25.011,0.402,-0.076,0.0
22.079,0.348,-0.191,0.0
0.0,0.0,0.0,0.0
37.16,0.561,0.488,0.0
31.785,0.47,0.239,0.0
27.641,0.4,0.049,0.0
24.62,0.348,-0.094,0.0
21.735,0.3,-0.205,1.0
0.0,0.0,0.0,0.0
0.0,0.0,0.0,0.0
29.079,0.372,0.196,0.0
27.175,0.339,0.028,0.0
24.323,0.295,-0.111,0.0
21.511,0.254,-0.219,1.0
0.0,0.0,0.0,0.0
35.161,0.391,0.41,0.0
28.95,0.312,0.174,1.0
26.88,0.281,0.008,0.0
23.772,0.24,-0.125,0.0
20.858,0.204,-0.227,0.0
41.593,0.392,0.689,0.0
34.36,0.313,0.376,0.0
28.894,0.253,0.154,3.0
26.489,0.223,-0.009,0.0
23.539,0.19,-0.14,0.0
20.607,0.16,-0.238,0.0
40.427,0.299,0.643,0.0
34.044,0.24,0.35,0.0
28.834,0.193,0.135,0.0
26.114,0.166,-0.026,0.0
23.126,0.139,-0.152,0.0
19.971,0.113,-0.243,0.0
0.0,0.0,0.0,0.0
0.0,0.0,0.0,0.0
28.766,0.134,0.117,1.0
25.654,0.11,-0.041,0.0
23.025,0.09,-0.166,1.0
19.741,0.071,-0.253,0.0
0.0,0.0,0.0,0.0
0.0,0.0,0.0,0.0
28.705,0.074,0.1,3.0
25.475,0.056,-0.056,0.0
22.412,0.042,-0.174,0.0
19.338,0.029,-0.258,0.0
38.369,0.045,0.541,0.0
33.04,0.027,0.281,0.0
28.475,0.013,0.083,1.0
25.233,0.003,-0.069,0.0
21.994,-0.004,-0.183,0.0
19.082,-0.01,-0.265,0.0
0.0,0.0,0.0,0.0
31.593,-0.04,0.252,0.0
28.571,-0.045,0.069,1.0
24.882,-0.048,-0.081,0.0
21.973,-0.05,-0.194,0.0
18.853,-0.05,-0.272,0.0
37.232,-0.112,0.487,0.0
31.545,-0.106,0.237,1.0
28.183,-0.104,0.054,1.0
24.639,-0.1,-0.092,0.0
21.788,-0.096,-0.202,1.0
18.613,-0.088,-0.277,0.0
0.0,0.0,0.0,0.0
31.317,-0.17,0.221,1.0
27.662,-0.16,0.041,0.0
24.514,-0.151,-0.102,0.0
21.685,-0.141,-0.211,0.0
18.488,-0.127,-0.283,0.0
36.133,-0.261,0.441,0.0
31.292,-0.237,0.208,1.0
27.407,-0.217,0.03,0.0
24.201,-0.2,-0.11,0.0
21.058,-0.181,-0.213,0.0
18.426,-0.165,-0.289,0.0
0.0,0.0,0.0,0.0
30.899,-0.299,0.194,0.0
26.87,-0.269,0.019,0.0
24.079,-0.25,-0.118,0.0
20.994,-0.225,-0.22,0.0
18.296,-0.203,-0.293,0.0
34.168,-0.39,0.393,0.0
0.0,0.0,0.0,0.0
26.849,-0.325,0.011,0.0
23.501,-0.294,-0.123,0.0
20.861,-0.268,-0.225,0.0
18.139,-0.239,-0.296,0.0
33.999,-0.46,0.381,0.0
28.728,-0.399,0.162,0.0
26.581,-0.378,0.003,0.0
23.646,-0.345,-0.13,1.0
20.55,-0.307,-0.227,0.0
18.054,-0.276,-0.299,0.0
34.221,-0.535,0.375,1.0
28.78,-0.46,0.155,0.0
26.522,-0.434,-0.003,0.0
23.61,-0.395,-0.136,0.0
20.31,-0.347,-0.229,0.0
18.081,-0.315,-0.304,0.0
33.831,-0.601,0.363,1.0
28.7,-0.52,0.149,0.0
26.423,-0.488,-0.009,0.0
23.45,-0.442,-0.14,0.0
20.331,-0.39,-0.234,0.0
17.926,-0.351,-0.305,0.0
33.965,-0.675,0.358,1.0
28.753,-0.582,0.144,5.0
26.451,-0.545,-0.013,0.0
23.477,-0.492,-0.144,0.0
20.167,-0.43,-0.235,0.0
17.914,-0.389,-0.308,0.0
33.618,-0.74,0.349,1.0
28.747,-0.643,0.139,7.0
26.359,-0.599,-0.017,0.0
23.257,-0.537,-0.146,0.0
19.987,-0.469,-0.235,0.0
17.856,-0.425,-0.309,0.0
33.207,-0.8,0.341,0.0
28.718,-0.703,0.136,5.0
26.177,-0.65,-0.019,0.0
23.257,-0.586,-0.148,0.0
20.163,-0.516,-0.239,0.0
17.785,-0.461,-0.309,0.0
33.122,-0.868,0.338,0.0
28.725,-0.764,0.134,3.0
26.385,-0.711,-0.021,0.0
23.248,-0.635,-0.149,0.0
20.353,-0.564,-0.243,0.0
17.762,-0.499,-0.31,0.0
34.096,-0.966,0.346,0.0
28.65,-0.823,0.133,0.0
26.157,-0.76,-0.022,0.0
23.309,-0.687,-0.15,0.0
20.228,-0.603,-0.241,0.0
17.75,-0.536,-0.309,0.0
0.0,0.0,0.0,0.0
28.651,-0.882,0.133,0.0
26.302,-0.82,-0.021,0.0
23.239,-0.733,-0.149,0.0
20.539,-0.656,-0.245,0.0
17.754,-0.573,-0.309,0.0
33.821,-1.101,0.345,0.0
28.623,-0.942,0.134,0.0
26.245,-0.873,-0.02,0.0
23.235,-0.782,-0.148,0.0
20.677,-0.704,-0.245,0.0
17.865,-0.615,-0.31,0.0
33.506,-1.161,0.344,0.0
28.604,-1.001,0.137,0.0
26.312,-0.931,-0.018,0.0
23.597,-0.844,-0.148,0.0
20.576,-0.743,-0.242,0.0
17.945,-0.655,-0.309,0.0
32.583,-1.197,0.338,0.0
28.685,-1.064,0.141,5.0
26.378,-0.988,-0.014,0.0
23.163,-0.876,-0.142,0.0
20.79,-0.794,-0.241,0.0
17.977,-0.694,-0.307,0.0
34.119,-1.324,0.36,0.0
28.679,-1.124,0.145,4.0
26.196,-1.036,-0.01,0.0
23.361,-0.932,-0.139,1.0
20.854,-0.84,-0.238,1.0
18.012,-0.732,-0.304,0.0
34.371,-1.405,0.369,0.0
28.674,-1.183,0.151,2.0
26.193,-1.09,-0.005,0.0
23.558,-0.989,-0.136,1.0
20.916,-0.886,-0.235,1.0
18.076,-0.772,-0.302,0.0
34.215,-1.469,0.375,0.0
28.677,-1.241,0.157,1.0
26.33,-1.149,0.0,0.0
23.666,-1.042,-0.13,1.0
20.944,-0.929,-0.23,1.0
18.145,-0.812,-0.298,0.0
34.76,-1.563,0.39,0.0
30.137,-1.365,0.173,0.0
26.894,-1.228,0.008,1.0
23.677,-1.09,-0.124,1.0
21.215,-0.984,-0.227,0.0
18.198,-0.851,-0.294,0.0
35.741,-1.679,0.411,0.0
30.423,-1.44,0.184,0.0
27.501,-1.312,0.016,4.0
23.77,-1.142,-0.117,1.0
21.475,-1.04,-0.223,0.0
18.362,-0.896,-0.29,0.0
0.0,0.0,0.0,0.0
30.423,-1.501,0.194,0.0
27.604,-1.372,0.026,5.0
23.767,-1.19,-0.109,0.0
21.596,-1.089,-0.216,0.0
18.647,-0.947,-0.288,0.0
36.212,-1.845,0.442,0.0
30.992,-1.59,0.209,0.0
27.865,-1.44,0.037,2.0
23.933,-1.245,-0.1,0.0
22.098,-1.158,-0.213,0.0
18.792,-0.992,-0.283,0.0
34.808,-1.842,0.439,0.0
31.606,-1.684,0.227,0.0
28.346,-1.521,0.049,5.0
34.244,-1.85,-0.129,5.0
34.248,-1.862,-0.315,1.0
18.894,-1.034,-0.276,0.0
34.666,-1.903,0.452,0.0
31.065,-1.716,0.236,0.0
28.489,-1.584,0.062,5.0
34.202,-1.914,-0.114,3.0
22.277,-1.255,-0.195,0.0
19.022,-1.078,-0.269,0.0
34.682,-1.971,0.469,0.0
0.0,0.0,0.0,0.0
28.518,-1.641,0.076,7.0
25.468,-1.475,-0.072,0.0
22.441,-1.307,-0.185,0.0
19.266,-1.129,-0.263,0.0
34.932,-2.052,0.49,6.0
31.83,-1.881,0.274,0.0
28.507,-1.695,0.091,7.0
25.654,-1.534,-0.059,0.0
22.749,-1.368,-0.176,0.0
19.578,-1.185,-0.257,0.0
34.784,-2.11,0.507,3.0
32.183,-1.963,0.295,1.0
28.527,-1.75,0.106,6.0
25.85,-1.594,-0.045,0.0
23.106,-1.433,-0.165,0.0
19.82,-1.236,-0.249,0.0
34.663,-2.167,0.525,4.0
32.866,-2.065,0.319,0.0
28.704,-1.814,0.124,0.0
26.023,-1.653,-0.03,0.0
23.317,-1.489,-0.153,0.0
20.161,-1.295,-0.241,0.0
34.467,-2.218,0.543,3.0
33.573,-2.172,0.347,0.0
30.075,-1.956,0.148,0.0
26.437,-1.728,-0.014,0.0
23.561,-1.548,-0.14,0.0
20.517,-1.355,-0.233,0.0
34.329,-2.271,0.562,1.0
34.311,-2.282,0.376,0.0
30.424,-2.033,0.169,0.0
27.03,-1.815,0.002,0.0
23.845,-1.61,-0.126,0.0
21.03,-1.426,-0.225,0.0
34.034,-2.313,0.58,2.0
35.234,-2.406,0.41,0.0
0.0,0.0,0.0,0.0
27.408,-1.89,0.02,0.0
33.95,-2.353,-0.157,0.0
21.672,-1.509,-0.217,0.0
33.988,-2.37,0.603,2.0
35.791,-2.507,0.442,0.0
31.47,-2.215,0.219,0.0
33.902,-2.397,0.05,3.0
33.902,-2.409,-0.132,7.0
33.909,-2.421,-0.315,3.0
33.865,-2.421,0.625,3.0
36.865,-2.647,0.482,0.0
31.713,-2.287,0.244,0.0
33.897,-2.456,0.075,3.0
33.903,-2.468,-0.106,5.0
33.909,-2.479,-0.289,3.0
33.853,-2.479,0.651,70.0
34.436,-2.532,0.477,1.0
32.52,-2.401,0.275,0.0
33.896,-2.514,0.101,3.0
33.903,-2.526,-0.08,6.0
33.894,-2.536,-0.262,19.0
33.851,-2.536,0.678,153.0
34.387,-2.587,0.503,3.0
33.593,-2.537,0.311,0.0
33.948,-2.575,0.129,0.0
33.922,-2.584,-0.053,2.0
33.89,-2.592,-0.235,5.0
33.851,-2.592,0.705,155.0
34.244,-2.633,0.529,6.0
34.114,-2.633,0.344,0.0
29.788,-2.308,0.138,0.0
33.924,-2.639,-0.025,1.0
33.896,-2.648,-0.206,5.0
33.841,-2.646,0.734,155.0
34.111,-2.678,0.556,4.0
0.0,0.0,0.0,0.0
30.331,-2.399,0.166,0.0
33.901,-2.692,0.004,0.0
33.881,-2.701,-0.177,5.0
33.84,-2.7,0.763,155.0
33.981,-2.722,0.584,2.0
36.751,-2.955,0.434,0.0
30.944,-2.497,0.197,0.0
33.884,-2.744,0.034,1.0
33.886,-2.755,-0.147,3.0
33.841,-2.754,0.793,153.0
33.866,-2.766,0.613,2.0
0.0,0.0,0.0,0.0
31.897,-2.624,0.232,0.0
33.86,-2.795,0.065,2.0
33.882,-2.807,-0.115,2.0
33.834,-2.805,0.825,152.0
33.806,-2.813,0.643,150.0
34.407,-2.873,0.47,1.0
32.752,-2.744,0.269,1.0
33.869,-2.848,0.097,0.0
25.633,-2.163,-0.063,0.0
33.779,-2.852,0.856,29.0
33.792,-2.862,0.675,5.0
34.321,-2.917,0.502,4.0
33.012,-2.815,0.303,0.0
29.243,-2.502,0.112,0.0
26.189,-2.248,-0.039,0.0
33.782,-2.902,0.888,52.0
33.805,-2.913,0.708,4.0
34.155,-2.952,0.532,4.0
0.0,0.0,0.0,0.0
30.226,-2.629,0.145,0.0
27.272,-2.38,-0.014,0.0
33.806,-2.952,0.923,78.0
0.0,0.0,0.0,0.0
33.918,-2.98,0.563,0.0
36.161,-3.187,0.404,0.0
30.795,-2.722,0.179,0.0
27.554,-2.443,0.013,0.0
33.806,-3.0,0.957,85.0
33.768,-3.005,0.776,1.0
33.873,-3.023,0.597,0.0
0.0,0.0,0.0,0.0
31.429,-2.822,0.215,0.0
27.959,-2.517,0.043,0.0
33.804,-3.046,0.992,68.0
33.813,-3.055,0.812,8.0
33.819,-3.064,0.632,0.0
34.397,-3.125,0.456,1.0
32.383,-2.95,0.256,0.0
28.877,-2.638,0.074,0.0
33.797,-3.09,1.028,47.0
33.786,-3.097,0.847,20.0
33.821,-3.109,0.668,3.0
34.316,-3.162,0.491,3.0
33.795,-3.123,0.304,0.0
29.514,-2.735,0.108,0.0
33.8,-3.134,1.065,35.0
33.804,-3.142,0.885,23.0
33.811,-3.151,0.704,7.0
34.171,-3.193,0.526,2.0
33.93,-3.178,0.342,0.0
30.181,-2.834,0.143,0.0
33.805,-3.177,1.102,16.0
33.812,-3.185,0.922,21.0
33.671,-3.18,0.739,0.0
33.915,-3.211,0.56,0.0
0.0,0.0,0.0,0.0
30.774,-2.928,0.181,0.0
33.824,-3.22,1.141,6.0
33.829,-3.228,0.96,18.0
33.811,-3.233,0.78,2.0
33.801,-3.24,0.596,0.0
34.603,-3.325,0.426,0.0
31.162,-3.001,0.218,0.0
33.857,-3.263,1.18,4.0
33.835,-3.268,0.999,10.0
33.837,-3.275,0.819,5.0
33.859,-3.284,0.636,0.0
34.63,-3.367,0.467,3.0
32.572,-3.174,0.266,0.0
33.897,-3.305,1.221,3.0
33.923,-3.314,1.041,154.0
33.851,-3.314,0.859,6.0
0.0,0.0,0.0,0.0
34.542,-3.397,0.506,5.0
34.457,-3.395,0.321,0.0
33.885,-3.342,1.261,2.0
33.93,-3.352,1.082,153.0
33.873,-3.353,0.899,5.0
33.8,-3.352,0.714,0.0
34.097,-3.389,0.539,1.0
34.5,-3.436,0.362,0.0
33.99,-3.387,1.305,1.0
33.924,-3.387,1.121,8.0
33.897,-3.391,0.94,6.0
33.894,-3.396,0.756,2.0
33.978,-3.412,0.578,0.0
34.537,-3.475,0.404,0.0
34.376,-3.461,1.361,0.0
33.898,-3.418,1.161,2.0
33.966,-3.431,0.983,167.0
33.913,-3.432,0.797,2.0
34.02,-3.449,0.619,0.0
34.361,-3.49,0.443,0.0
34.927,-3.55,1.424,0.0
34.007,-3.462,1.206,0.0
33.947,-3.462,1.023,151.0
33.977,-3.47,0.84,2.0
33.991,-3.478,0.66,0.0
34.368,-3.522,0.485,0.0
35.662,-3.658,1.498,0.0
34.136,-3.506,1.252,0.0
33.951,-3.493,1.065,2.0
33.971,-3.5,0.881,1.0
34.044,-3.513,0.702,0.0
34.31,-3.546,0.526,0.0
36.482,-3.774,1.577,0.0
34.9,-3.616,1.323,0.0
34.059,-3.533,1.11,0.0
34.091,-3.542,0.926,0.0
34.123,-3.55,0.746,0.0
34.319,-3.576,0.568,1.0
160.088,-16.697,7.121,3.0
35.79,-3.737,1.401,1.0
34.302,-3.587,1.161,0.0
34.172,-3.578,0.971,0.0
34.136,-3.579,0.789,0.0
34.363,-3.608,0.611,2.0
159.938,-16.808,7.314,15.0
155.168,-16.327,6.269,5.0
34.694,-3.655,1.217,0.0
34.337,-3.622,1.019,0.0
34.682,-3.663,0.844,0.0
34.891,-3.69,0.664,0.0
159.732,-16.908,7.505,18.0
0.0,0.0,0.0,0.0
35.504,-3.766,1.29,0.0
34.592,-3.674,1.07,0.0
35.039,-3.725,0.898,1.0
35.084,-3.735,0.713,5.0
160.008,-17.051,7.72,16.0
154.599,-16.491,6.637,12.0
36.478,-3.895,1.372,0.0
35.456,-3.79,1.142,0.0
35.633,-3.813,0.959,0.0
36.272,-3.886,0.783,0.0
159.563,-17.111,7.903,20.0
155.633,-16.704,6.882,6.0
36.48,-3.919,1.419,1.0
35.964,-3.867,1.204,2.0
35.92,-3.866,1.011,1.0
36.443,-3.927,0.833,0.0
159.487,-17.201,8.104,15.0
155.705,-16.806,7.083,12.0
36.523,-3.945,1.467,1.0
36.902,-3.99,1.282,0.0
36.3,-3.928,1.068,1.0
36.682,-3.973,0.885,1.0
159.464,-17.29,8.307,22.0
160.236,-17.387,7.494,14.0
154.074,-16.731,6.388,10.0
0.0,0.0,0.0,0.0
36.982,-4.022,1.136,1.0
37.017,-4.029,0.94,0.0
159.034,-17.329,8.49,17.0
160.039,-17.449,7.693,14.0
154.055,-16.808,6.584,4.0
0.0,0.0,0.0,0.0
37.189,-4.063,1.19,0.0
37.155,-4.062,0.992,0.0
159.106,-17.414,8.697,16.0
159.526,-17.469,7.87,20.0
155.403,-17.028,6.84,6.0
153.787,-16.86,5.935,3.0
37.503,-4.114,1.247,0.0
37.759,-4.144,1.056,1.0
159.347,-17.51,8.914,17.0
159.32,-17.515,8.064,20.0
155.283,-17.079,7.033,9.0
153.624,-16.905,6.124,8.0
0.0,0.0,0.0,0.0
37.866,-4.171,1.107,2.0
159.293,-17.568,9.117,17.0
159.072,-17.548,8.256,20.0
164.259,-18.128,7.648,4.0
153.715,-16.97,6.323,10.0
133.136,-14.705,4.769,9.0
37.764,-4.173,1.152,0.0
159.471,-17.642,9.329,17.0
159.018,-17.596,8.455,18.0
159.36,-17.639,7.625,6.0
153.536,-17.0,6.513,7.0
153.511,-17.004,5.696,3.0
0.0,0.0,0.0,0.0
159.878,-17.736,9.558,15.0
159.283,-17.673,8.672,16.0
159.363,-17.685,7.827,12.0
153.759,-17.067,6.718,4.0
153.588,-17.052,5.894,12.0
0.0,0.0,0.0,0.0
159.669,-17.754,9.752,14.0
159.2,-17.703,8.871,19.0
158.847,-17.666,8.005,13.0
155.11,-17.252,6.975,5.0
153.742,-17.103,6.095,13.0
118.718,-13.21,4.074,1.0
159.7,-17.791,9.955,11.0
159.105,-17.724,9.068,20.0
158.541,-17.662,8.188,21.0
164.541,-18.331,7.606,5.0
153.676,-17.122,6.283,10.0
145.461,-16.209,5.172,2.0
22.206,-2.477,1.411,0.0
159.239,-17.764,9.274,18.0
158.747,-17.708,8.397,19.0
164.334,-18.33,7.799,3.0
153.594,-17.132,6.471,4.0
153.684,-17.143,5.655,3.0
22.245,-2.484,1.442,3.0
159.722,-17.835,9.501,18.0
159.205,-17.775,8.619,16.0
0.0,0.0,0.0,0.0
153.753,-17.163,6.668,5.0
153.592,-17.143,5.844,10.0
22.252,-2.487,1.47,12.0
159.668,-17.84,9.697,17.0
159.291,-17.793,8.823,22.0
159.046,-17.761,7.945,4.0
154.868,-17.292,6.908,4.0
153.737,-17.164,6.036,11.0
22.253,-2.487,1.498,13.0
159.623,-17.837,9.892,9.0
159.139,-17.778,9.009,17.0
158.553,-17.706,8.112,17.0
164.656,-18.383,7.544,5.0
153.754,-17.162,6.225,7.0
22.25,-2.487,1.525,12.0
174.526,-19.499,11.028,11.0
159.266,-17.785,9.212,17.0
158.598,-17.704,8.309,23.0
164.3,-18.334,7.73,6.0
153.648,-17.14,6.407,5.0
22.255,-2.486,1.552,12.0
22.269,-2.486,1.434,2.0
159.724,-17.824,9.43,18.0
159.037,-17.739,8.522,19.0
159.317,-17.763,7.685,5.0
153.733,-17.132,6.594,4.0
22.25,-2.483,1.579,3.0
22.251,-2.481,1.459,8.0
159.758,-17.808,9.622,18.0
159.236,-17.74,8.721,19.0
159.389,-17.748,7.875,5.0
155.183,-17.27,6.838,4.0
22.234,-2.478,1.604,0.0
22.263,-2.479,1.486,7.0
159.627,-17.766,9.801,14.0
159.117,-17.698,8.9,22.0
158.714,-17.643,8.026,15.0
155.237,-17.245,7.02,4.0
143.723,-15.99,10.536,7.0
22.275,-2.476,1.513,4.0
159.973,-17.771,10.007,14.0
159.166,-17.668,9.086,18.0
158.833,-17.618,8.215,17.0
164.163,-18.198,7.612,4.0
142.615,-15.833,10.621,2.0
22.251,-2.468,1.537,1.0
160.094,-17.742,10.199,13.0
159.453,-17.657,9.285,16.0
159.049,-17.598,8.408,21.0
159.4,-17.624,7.572,5.0
142.774,-15.81,10.796,6.0
143.13,-15.834,10.051,7.0
174.468,-19.283,11.311,16.0
159.742,-17.639,9.48,16.0
159.047,-17.547,8.585,19.0
159.471,-17.579,7.752,15.0
142.736,-15.759,10.952,10.0
143.226,-15.796,10.217,13.0
174.466,-19.223,11.503,28.0
160.024,-17.614,9.673,16.0
159.195,-17.506,8.767,18.0
159.433,-17.517,7.922,27.0
142.975,-15.732,11.127,3.0
143.379,-15.759,10.384,18.0
174.439,-19.153,11.69,17.0
160.015,-17.55,9.845,14.0
159.322,-17.455,8.946,19.0
159.456,-17.453,8.095,19.0
144.068,-15.794,11.367,6.0
143.267,-15.687,10.529,11.0
142.569,-15.592,9.706,13.0
159.939,-17.472,10.009,13.0
159.615,-17.416,9.13,17.0
159.429,-17.377,8.262,17.0
145.617,-15.897,11.644,4.0
143.006,-15.592,10.659,9.0
142.707,-15.54,9.865,16.0
160.031,-17.404,10.184,11.0
159.845,-17.364,9.308,13.0
159.045,-17.257,8.403,16.0
145.357,-15.797,11.773,3.0
142.939,-15.512,10.802,15.0
143.016,-15.501,10.033,13.0
174.449,-18.882,11.277,26.0
160.013,-17.298,9.479,12.0
159.172,-17.185,8.571,18.0
142.911,-15.454,11.719,8.0
143.256,-15.469,10.97,14.0
143.049,-15.424,10.179,21.0
174.485,-18.789,11.452,36.0
159.981,-17.203,9.635,18.0
159.521,-17.131,8.746,21.0
143.161,-15.399,11.88,11.0
143.535,-15.416,11.13,8.0
143.039,-15.34,10.316,25.0
174.54,-18.69,11.624,26.0
159.893,-17.097,9.783,15.0
159.368,-17.017,8.889,20.0
143.182,-15.313,12.019,4.0
143.998,-15.376,11.303,15.0
143.139,-15.26,10.458,19.0
174.638,-18.589,11.795,20.0
159.782,-16.983,9.924,12.0
0.0,0.0,0.0,0.0
143.49,-15.252,12.179,4.0
143.802,-15.26,11.421,9.0
143.333,-15.185,10.604,18.0
174.85,-18.494,11.969,17.0
159.741,-16.868,10.068,3.0
158.422,-16.703,9.126,5.0
143.247,-15.128,12.288,12.0
142.607,-15.034,11.455,13.0
143.362,-15.088,10.733,14.0
142.432,-14.963,9.876,12.0
175.206,-18.374,11.198,16.0
159.995,-16.751,9.358,12.0
142.989,-14.995,12.393,18.0
142.414,-14.907,11.565,23.0
142.969,-14.938,10.83,13.0
142.419,-14.854,9.998,17.0
175.415,-18.263,11.361,22.0
160.082,-16.639,9.497,14.0
143.013,-14.889,12.516,10.0
142.476,-14.804,11.69,26.0
142.863,-14.815,10.942,10.0
142.288,-14.728,10.107,11.0
175.736,-18.156,11.526,25.0
160.34,-16.537,9.643,13.0
144.288,-14.905,12.746,8.0
142.694,-14.708,11.826,20.0
148.089,-15.235,11.462,3.0
142.211,-14.601,10.216,9.0
175.911,-18.027,11.678,20.0
160.25,-16.391,9.766,12.0
142.521,-14.601,12.705,6.0
142.59,-14.577,11.929,15.0
148.25,-15.125,11.59,6.0
143.6,-14.619,10.428,7.0
149.722,-15.212,10.055,11.0
160.011,-16.227,9.872,8.0
144.234,-14.65,12.967,9.0
142.513,-14.443,12.03,14.0
143.195,-14.481,11.302,10.0
143.037,-14.434,10.492,12.0
176.474,-17.773,11.979,14.0
176.621,-17.751,11.025,5.0
144.162,-14.512,13.064,19.0
144.233,-14.486,12.279,14.0
143.165,-14.347,11.401,12.0
142.918,-14.291,10.583,18.0
143.786,-14.347,9.861,8.0
169.571,-16.883,10.702,3.0
144.37,-14.397,13.183,18.0
144.584,-14.384,12.407,13.0
142.656,-14.159,11.458,13.0
142.707,-14.132,10.664,8.0
176.923,-17.482,12.251,11.0
150.052,-14.794,9.569,19.0
144.318,-14.25,13.275,17.0
144.676,-14.252,12.509,10.0
142.626,-14.016,11.547,14.0
142.544,-13.976,10.742,13.0
177.383,-17.352,12.394,17.0
149.238,-14.565,9.609,12.0
144.338,-14.108,13.366,10.0
148.576,-14.485,12.939,12.0
144.868,-14.089,11.818,8.0
142.474,-13.822,10.824,10.0
143.485,-13.888,10.111,9.0
149.557,-14.442,9.718,9.0
144.364,-13.96,13.454,12.0
145.805,-14.063,12.783,3.0
144.96,-13.946,11.909,4.0
147.964,-14.198,11.326,5.0
151.471,-14.499,10.76,16.0
189.952,-18.138,12.45,6.0
144.225,-13.791,13.523,4.0
147.517,-14.068,13.015,4.0
0.0,0.0,0.0,0.0
145.926,-13.845,11.247,3.0
153.657,-14.541,10.996,11.0
151.47,-14.298,10.006,17.0
148.179,-14.008,13.969,2.0
146.602,-13.819,13.01,5.0
0.0,0.0,0.0,0.0
147.896,-13.869,11.471,5.0
145.998,-13.654,10.52,2.0
151.637,-14.144,10.091,2.0
145.607,-13.599,13.798,3.0
146.972,-13.689,13.111,5.0
146.828,-13.636,12.286,5.0
145.605,-13.486,11.362,6.0
0.0,0.0,0.0,0.0
0.0,0.0,0.0,0.0
146.082,-13.476,13.908,11.0
145.514,-13.384,13.045,8.0
146.515,-13.438,12.322,15.0
145.694,-13.323,11.432,7.0
145.872,-13.302,10.638,9.0
146.79,-13.35,9.893,13.0
146.661,-13.354,14.023,9.0
145.332,-13.193,13.089,14.0
0.0,0.0,0.0,0.0
144.848,-13.073,11.421,12.0
145.946,-13.134,10.699,3.0
148.381,-13.315,10.057,2.0
146.612,-13.171,14.074,11.0
145.61,-13.041,13.166,18.0
148.544,-13.263,12.605,9.0
144.965,-12.904,11.481,13.0
145.004,-12.87,10.68,13.0
147.478,-13.053,10.044,4.0
145.942,-12.931,14.057,13.0
145.516,-12.851,13.206,9.0
145.253,-12.788,12.372,9.0
144.763,-12.705,11.51,20.0
145.055,-12.693,10.727,13.0
154.164,-13.449,10.546,4.0
145.609,-12.717,14.069,15.0
146.394,-12.745,13.326,3.0
144.951,-12.578,12.387,5.0
144.872,-12.532,11.558,14.0
145.039,-12.507,10.764,3.0
145.876,-12.541,10.015,11.0
145.624,-12.532,14.107,20.0
144.892,-12.427,13.225,10.0
153.876,-13.156,13.184,5.0
145.258,-12.379,11.621,15.0
145.372,-12.349,10.82,10.0
154.23,-13.06,10.622,8.0
145.712,-12.348,14.147,9.0
145.08,-12.254,13.272,13.0
145.953,-12.287,12.535,14.0
145.482,-12.206,11.667,14.0
145.417,-12.161,10.851,19.0
154.192,-12.853,10.647,5.0
149.125,-12.441,14.502,2.0
145.245,-12.076,13.311,17.0
145.989,-12.096,12.561,15.0
145.447,-12.01,11.685,10.0
145.347,-11.962,10.866,12.0
147.377,-12.09,10.195,5.0
144.57,-11.867,14.078,10.0
145.092,-11.867,13.315,16.0
145.869,-11.89,12.567,6.0
146.642,-11.911,11.797,7.0
146.04,-11.822,10.931,4.0
148.623,-11.99,10.296,7.0
145.77,-11.766,14.208,11.0
145.009,-11.662,13.318,11.0
146.145,-11.712,12.601,4.0
145.44,-11.613,11.711,10.0
145.557,-11.581,10.905,9.0
148.713,-11.792,10.309,12.0
145.721,-11.561,14.21,20.0
146.462,-11.576,13.457,8.0
145.917,-11.492,12.586,13.0
145.609,-11.426,11.726,7.0
0.0,0.0,0.0,0.0
155.245,-12.095,10.763,7.0
145.721,-11.358,14.211,16.0
147.942,-11.487,13.593,5.0
145.64,-11.267,12.56,20.0
145.448,-11.211,11.71,3.0
88.221,-6.774,6.608,3.0
122.626,-9.383,8.497,4.0
149.065,-11.409,14.529,5.0
119.062,-9.078,10.933,10.0
145.762,-11.07,12.563,10.0
0.0,0.0,0.0,0.0
147.311,-11.103,11.023,5.0
155.449,-11.673,10.761,5.0
147.42,-11.073,14.357,10.0
119.198,-8.917,10.934,8.0
119.246,-8.886,10.265,12.0
149.075,-11.064,11.979,5.0
122.105,-9.027,9.124,9.0
150.29,-11.07,10.385,3.0
90.719,-6.682,8.824,10.0
119.556,-8.771,10.952,11.0
119.211,-8.71,10.246,10.0
87.937,-6.4,7.052,10.0
88.436,-6.411,6.595,7.0
122.448,-8.843,8.442,10.0
90.915,-6.565,8.828,15.0
119.272,-8.578,10.905,10.0
119.078,-8.527,10.213,16.0
88.074,-6.282,7.048,7.0
88.44,-6.283,6.578,12.0
122.522,-8.671,8.422,17.0
91.061,-6.443,8.822,18.0
117.023,-8.246,10.673,12.0
119.041,-8.353,10.183,17.0
88.088,-6.155,7.028,11.0
88.559,-6.162,6.565,4.0
122.452,-8.487,8.387,18.0
91.132,-6.313,8.805,5.0
117.128,-8.079,10.653,13.0
119.504,-8.209,10.191,7.0
88.222,-6.034,7.014,13.0
119.733,-8.155,8.843,4.0
121.653,-8.251,8.298,10.0
91.366,-6.193,8.801,18.0
117.145,-7.906,10.618,11.0
118.792,-7.982,10.093,12.0
94.305,-6.309,7.468,6.0
122.178,-8.139,8.983,9.0
121.306,-8.046,8.233,8.0
91.463,-6.062,8.779,23.0
93.114,-6.145,8.407,5.0
89.891,-5.906,7.605,14.0
88.37,-5.78,6.965,10.0
88.112,-5.738,6.446,6.0
121.876,-7.904,8.226,6.0
91.005,-5.897,8.699,21.0
88.179,-5.687,7.927,7.0
88.439,-5.678,7.447,7.0
88.623,-5.665,6.949,11.0
92.042,-5.857,6.695,7.0
121.359,-7.688,8.14,9.0
91.003,-5.759,8.66,17.0
88.094,-5.549,7.88,28.0
88.569,-5.553,7.419,6.0
88.35,-5.514,6.888,11.0
91.821,-5.704,6.637,10.0
91.78,-5.676,6.114,14.0
91.776,-5.669,8.69,11.0
88.489,-5.441,7.873,28.0
93.127,-5.699,7.755,16.0
88.644,-5.399,6.868,21.0
92.047,-5.581,6.608,12.0
91.406,-5.516,6.042,16.0
92.109,-5.55,8.674,15.0
88.807,-5.325,7.855,22.0
93.134,-5.558,7.706,34.0
88.721,-5.269,6.825,23.0
91.901,-5.432,6.547,9.0
91.515,-5.384,5.999,11.0
88.773,-5.215,8.309,18.0
93.077,-5.44,8.18,6.0
92.948,-5.407,7.637,31.0
88.869,-5.144,6.785,17.0
88.197,-5.08,6.232,11.0
89.444,-5.127,5.811,14.0
88.794,-5.082,8.258,17.0
92.969,-5.293,8.113,24.0
92.809,-5.257,7.567,15.0
89.132,-5.023,6.75,10.0
88.238,-4.949,6.179,18.0
89.499,-4.995,5.757,13.0
88.42,-4.925,8.165,19.0
92.918,-5.149,8.048,10.0
88.617,-4.885,7.167,20.0
88.503,-4.853,6.643,8.0
88.071,-4.806,6.108,24.0
89.704,-4.871,5.709,11.0
89.364,-4.842,8.191,13.0
89.063,-4.8,7.652,31.0
88.581,-4.749,7.102,15.0
88.336,-4.712,6.568,12.0
88.056,-4.672,6.044,19.0
108.583,-5.733,6.833,8.0
89.329,-4.704,8.121,15.0
88.921,-4.658,7.574,14.0
88.473,-4.609,7.028,17.0
88.515,-4.587,6.515,12.0
88.29,-4.552,5.993,16.0
91.61,-4.698,5.695,16.0
89.232,-4.563,8.043,25.0
88.535,-4.502,7.471,22.0
89.14,-4.508,7.009,18.0
88.788,-4.467,6.464,13.0
88.104,-4.408,5.909,16.0
90.952,-4.527,5.58,21.0
86.971,-4.316,7.767,19.0
88.491,-4.366,7.393,27.0
89.272,-4.381,6.946,12.0
89.278,-4.357,6.424,15.0
90.645,-4.399,6.003,22.0
90.861,-4.386,5.498,8.0
87.016,-4.187,7.696,21.0
89.359,-4.276,7.389,25.0
88.195,-4.196,6.785,27.0
89.27,-4.224,6.346,27.0
90.961,-4.279,5.944,15.0
94.754,-4.433,5.65,12.0
87.085,-4.061,7.623,20.0
89.274,-4.139,7.3,10.0
88.181,-4.064,6.703,13.0
89.044,-4.08,6.248,25.0
95.017,-4.33,6.121,17.0
98.01,-4.44,5.753,9.0
87.089,-3.931,7.541,24.0
88.882,-3.987,7.183,15.0
88.893,-3.964,6.671,13.0
108.0,-4.788,7.474,7.0
94.858,-4.181,6.019,20.0
111.474,-4.886,6.435,13.0
87.586,-3.823,7.498,23.0
88.243,-3.829,7.045,16.0
89.024,-3.84,6.594,20.0
95.083,-4.076,6.485,26.0
97.466,-4.153,6.087,18.0
89.708,-3.8,5.088,19.0
88.295,-3.724,7.468,14.0
88.066,-3.692,6.94,31.0
87.762,-3.656,6.409,28.0
89.275,-3.696,5.996,15.0
89.607,-3.687,5.503,7.0
89.771,-3.672,4.997,28.0
88.327,-3.597,7.377,13.0
87.869,-3.556,6.83,17.0
88.003,-3.539,6.332,18.0
88.146,-3.523,5.826,18.0
89.651,-3.56,5.408,17.0
98.559,-3.889,5.378,6.0
88.188,-3.463,7.268,12.0
