X,Y,Z,Reflectivity
20.356,0.186,-0.244,0.0
18.002,0.162,-0.309,0.0
16.501,0.146,-0.369,0.0
15.207,0.132,-0.421,0.0
14.112,0.12,-0.464,0.0
13.228,0.11,-0.504,0.0
21.509,0.177,-0.217,1.0
18.711,0.151,-0.286,0.0
16.923,0.134,-0.346,0.0
15.663,0.122,-0.403,0.0
14.429,0.11,-0.447,0.0
13.538,0.101,-0.489,0.0
22.349,0.165,-0.182,1.0
19.621,0.142,-0.262,0.0
17.508,0.124,-0.324,0.0
16.203,0.112,-0.386,0.0
14.898,0.101,-0.432,0.0
13.836,0.091,-0.473,0.0
23.599,0.154,-0.146,0.0
20.761,0.132,-0.236,0.0
18.329,0.114,-0.303,0.0
16.594,0.101,-0.362,0.0
15.427,0.092,-0.417,0.0
14.226,0.082,-0.458,0.0
24.768,0.141,-0.105,0.0
21.822,0.121,-0.206,2.0
19.068,0.104,-0.279,0.0
17.113,0.09,-0.34,0.0
15.864,0.082,-0.397,0.0
14.66,0.074,-0.443,0.0
25.671,0.126,-0.058,0.0
22.977,0.11,-0.171,0.0
19.951,0.093,-0.252,0.0
17.803,0.081,-0.319,0.0
16.405,0.072,-0.378,0.0
15.061,0.064,-0.425,0.0
26.899,0.112,-0.007,0.0
24.009,0.097,-0.131,0.0
21.181,0.083,-0.224,4.0
18.474,0.07,-0.293,0.0
16.861,0.062,-0.355,0.0
15.638,0.055,-0.41,0.0
28.41,0.098,0.049,1.0
25.244,0.084,-0.086,0.0
22.159,0.071,-0.19,0.0
19.372,0.06,-0.268,0.0
17.43,0.052,-0.331,0.0
16.11,0.046,-0.389,0.0
28.756,0.08,0.108,1.0
26.345,0.07,-0.036,0.0
23.465,0.06,-0.153,1.0
20.797,0.051,-0.245,1.0
18.182,0.042,-0.308,0.0
16.599,0.037,-0.367,0.0
30.395,0.065,0.176,0.0
27.337,0.056,0.017,0.0
24.553,0.047,-0.11,0.0
21.579,0.039,-0.21,2.0
19.011,0.032,-0.283,0.0
17.129,0.027,-0.343,0.0
32.04,0.049,0.252,0.0
28.673,0.041,0.078,2.0
25.777,0.034,-0.061,0.0
23.233,0.028,-0.178,0.0
19.895,0.022,-0.255,0.0
17.847,0.018,-0.32,0.0
33.217,0.032,0.331,0.0
29.737,0.025,0.143,0.0
26.723,0.02,-0.008,0.0
23.825,0.016,-0.133,0.0
21.155,0.012,-0.227,3.0
18.579,0.009,-0.295,0.0
36.144,0.015,0.436,0.0
30.702,0.01,0.212,0.0
28.251,0.007,0.049,1.0
25.45,0.004,-0.089,0.0
22.103,0.001,-0.191,0.0
19.623,0.0,-0.27,0.0
0.0,0.0,0.0,0.0
33.173,-0.005,0.298,0.0
28.734,-0.006,0.11,0.0
26.286,-0.008,-0.037,0.0
23.714,-0.009,-0.155,1.0
20.92,-0.009,-0.245,1.0
42.464,-0.022,0.689,0.0
35.335,-0.021,0.391,0.0
30.552,-0.02,0.181,0.0
27.527,-0.02,0.018,0.0
24.898,-0.02,-0.111,0.0
21.573,-0.019,-0.207,0.0
0.0,0.0,0.0,0.0
0.0,0.0,0.0,0.0
33.115,-0.036,0.266,0.0
28.742,-0.033,0.08,6.0
25.931,-0.031,-0.06,0.0
23.283,-0.029,-0.174,0.0
0.0,0.0,0.0,0.0
41.031,-0.057,0.628,0.0
33.513,-0.049,0.34,0.0
28.978,-0.044,0.142,1.0
27.002,-0.042,-0.005,0.0
24.175,-0.039,-0.129,0.0
0.0,0.0,0.0,0.0
0.0,0.0,0.0,0.0
0.0,0.0,0.0,0.0
31.396,-0.058,0.221,0.0
28.657,-0.054,0.054,4.0
25.45,-0.049,-0.082,0.0
0.0,0.0,0.0,0.0
0.0,0.0,0.0,0.0
0.0,0.0,0.0,0.0
33.304,-0.071,0.305,1.0
28.847,-0.063,0.116,5.0
26.432,-0.058,-0.029,0.0
79.164,-0.182,2.125,3.0
0.0,0.0,0.0,0.0
42.705,-0.101,0.706,0.0
35.666,-0.085,0.402,0.0
31.142,-0.075,0.191,1.0
28.113,-0.069,0.028,1.0
82.81,-0.21,2.398,3.0
0.0,0.0,0.0,0.0
0.0,0.0,0.0,0.0
39.449,-0.103,0.529,0.0
33.262,-0.088,0.275,1.0
28.778,-0.076,0.089,6.0
83.29,-0.228,2.589,5.0
79.484,-0.219,2.062,1.0
0.0,0.0,0.0,0.0
41.596,-0.116,0.647,0.0
34.666,-0.097,0.361,0.0
30.04,-0.085,0.158,1.0
104.876,-0.305,3.486,3.0
79.504,-0.232,2.232,1.0
57.431,-0.168,1.317,0.0
0.0,0.0,0.0,0.0
0.0,0.0,0.0,0.0
31.712,-0.094,0.235,0.0
108.665,-0.329,3.844,7.0
83.045,-0.252,2.51,5.0
0.0,0.0,0.0,0.0
0.0,0.0,0.0,0.0
40.088,-0.122,0.588,0.0
33.255,-0.101,0.316,0.0
0.0,0.0,0.0,0.0
104.725,-0.327,3.388,1.0
79.565,-0.248,2.164,3.0
57.597,-0.179,1.264,2.0
0.0,0.0,0.0,0.0
35.867,-0.111,0.418,0.0
0.0,0.0,0.0,0.0
108.586,-0.344,3.743,7.0
82.878,-0.261,2.431,5.0
0.0,0.0,0.0,0.0
0.0,0.0,0.0,0.0
39.802,-0.124,0.548,0.0
0.0,0.0,0.0,0.0
0.0,0.0,0.0,0.0
83.408,-0.263,2.622,1.0
79.503,-0.249,2.082,1.0
57.525,-0.179,1.211,0.0
43.019,-0.133,0.684,0.0
194.782,-0.617,8.548,8.0
0.0,0.0,0.0,0.0
108.43,-0.338,3.639,2.0
82.641,-0.255,2.34,1.0
0.0,0.0,0.0,0.0
0.0,0.0,0.0,0.0
194.114,-0.602,8.929,12.0
0.0,0.0,0.0,0.0
108.909,-0.331,3.884,4.0
83.182,-0.25,2.529,4.0
79.516,-0.237,2.008,0.0
0.0,0.0,0.0,0.0
194.112,-0.583,9.335,20.0
194.903,-0.578,8.365,9.0
174.847,-0.512,6.601,16.0
0.0,0.0,0.0,0.0
79.471,-0.226,2.172,2.0
57.531,-0.161,1.276,0.0
179.224,-0.513,8.992,15.0
0.0,0.0,0.0,0.0
0.0,0.0,0.0,0.0
108.61,-0.297,3.756,10.0
82.883,-0.222,2.438,6.0
0.0,0.0,0.0,0.0
179.136,-0.482,9.363,19.0
194.128,-0.513,9.144,7.0
0.0,0.0,0.0,0.0
175.099,-0.444,6.418,4.0
83.249,-0.206,2.62,3.0
79.174,-0.192,2.083,2.0
179.211,-0.445,9.735,7.0
194.205,-0.47,9.543,14.0
195.141,-0.462,8.578,7.0
179.113,-0.413,6.931,47.0
105.493,-0.237,3.535,3.0
82.716,-0.18,2.345,2.0
179.331,-0.401,10.109,7.0
179.106,-0.389,9.166,6.0
195.305,-0.411,8.984,5.0
179.105,-0.366,7.293,58.0
108.847,-0.215,3.868,7.0
83.189,-0.158,2.526,5.0
106.062,-0.207,6.194,10.0
179.056,-0.337,9.527,19.0
194.576,-0.352,9.344,13.0
204.083,-0.355,8.724,5.0
0.0,0.0,0.0,0.0
99.821,-0.159,3.232,2.0
96.312,-0.157,5.819,11.0
178.889,-0.279,9.878,22.0
202.268,-0.299,10.12,10.0
202.099,-0.283,9.045,9.0
177.163,-0.233,7.008,5.0
108.496,-0.134,3.73,9.0
96.448,-0.123,6.021,18.0
178.667,-0.214,10.227,10.0
201.94,-0.224,10.509,11.0
201.623,-0.206,9.425,19.0
204.096,-0.191,8.484,5.0
108.976,-0.092,3.963,6.0
96.617,-0.085,6.225,9.0
96.26,-0.076,5.703,6.0
151.063,-0.106,8.166,27.0
201.445,-0.123,9.821,21.0
202.71,-0.105,8.832,7.0
175.026,-0.073,6.717,3.0
82.97,-0.038,5.512,16.0
96.413,-0.034,5.904,16.0
151.095,-0.039,8.464,33.0
151.081,-0.024,7.663,8.0
201.857,-0.012,9.191,20.0
0.0,0.0,0.0,0.0
63.472,0.0,4.343,13.0
96.657,0.01,6.108,9.0
91.638,0.019,5.314,16.0
151.103,0.047,7.96,37.0
201.515,0.086,9.567,24.0
202.386,0.107,8.556,8.0
63.499,0.031,4.467,28.0
83.095,0.05,5.411,13.0
91.524,0.065,5.481,12.0
151.102,0.124,8.245,35.0
201.195,0.188,9.932,16.0
83.344,0.087,3.681,3.0
63.536,0.065,4.59,32.0
83.118,0.094,5.571,19.0
91.357,0.114,5.647,8.0
151.049,0.208,8.535,19.0
151.103,0.226,7.748,11.0
83.295,0.134,3.837,13.0
63.606,0.101,4.718,25.0
63.512,0.109,4.379,8.0
83.138,0.152,5.298,32.0
83.261,0.163,4.861,13.0
83.303,0.173,4.429,11.0
83.269,0.184,3.993,28.0
63.368,0.139,4.82,39.0
63.57,0.147,4.502,7.0
83.166,0.203,5.455,21.0
83.247,0.214,5.016,25.0
83.245,0.225,4.581,25.0
83.252,0.236,4.145,29.0
62.81,0.177,4.895,36.0
63.556,0.187,4.618,22.0
79.407,0.244,5.353,38.0
83.161,0.267,5.162,32.0
83.196,0.279,4.728,25.0
83.229,0.29,4.295,28.0
62.813,0.218,5.009,29.0
63.651,0.23,4.74,28.0
62.863,0.236,4.352,16.0
83.145,0.323,5.311,17.0
83.193,0.335,4.879,26.0
83.236,0.347,4.445,25.0
62.878,0.262,5.128,27.0
63.091,0.272,4.813,38.0
62.985,0.28,4.474,12.0
79.429,0.365,5.215,98.0
83.161,0.394,5.024,22.0
83.228,0.407,4.592,10.0
63.19,0.309,5.267,28.0
62.961,0.317,4.915,25.0
63.297,0.328,4.607,26.0
79.423,0.424,5.355,15.0
79.379,0.435,4.934,13.0
79.303,0.447,4.513,6.0
63.06,0.356,5.366,35.0
63.086,0.366,5.034,33.0
63.255,0.376,4.714,28.0
62.876,0.384,4.348,22.0
79.276,0.497,5.066,5.0
79.323,0.509,4.652,3.0
63.096,0.406,5.479,17.0
63.533,0.419,5.181,38.0
63.451,0.429,4.839,34.0
63.133,0.436,4.475,31.0
76.44,0.541,5.014,7.0
79.319,0.573,4.785,2.0
63.672,0.462,5.637,17.0
63.438,0.47,5.28,27.0
63.489,0.481,4.948,34.0
63.269,0.49,4.59,24.0
76.682,0.606,5.159,17.0
76.727,0.619,4.756,4.0
58.631,0.474,5.288,23.0
57.014,0.47,4.839,20.0
63.488,0.535,5.052,38.0
75.918,0.652,5.632,13.0
63.018,0.551,4.341,11.0
76.578,0.684,4.871,9.0
58.422,0.524,5.365,33.0
56.816,0.518,4.915,24.0
63.097,0.587,5.123,39.0
63.518,0.601,4.814,18.0
76.039,0.733,5.36,30.0
76.652,0.752,4.997,23.0
57.586,0.567,5.38,32.0
57.15,0.573,5.035,25.0
62.749,0.64,5.195,34.0
63.349,0.657,4.9,24.0
63.257,0.667,4.558,23.0
76.273,0.818,5.092,24.0
57.136,0.615,5.427,32.0
57.197,0.626,5.128,19.0
62.563,0.696,5.276,14.0
62.497,0.706,4.931,33.0
63.357,0.727,4.662,20.0
76.166,0.887,5.2,18.0
56.697,0.664,5.472,24.0
57.212,0.681,5.217,8.0
57.117,0.69,4.903,8.0
62.639,0.767,5.037,33.0
82.635,1.028,6.204,12.0
63.193,0.798,4.409,7.0
57.018,0.723,5.59,33.0
57.419,0.739,5.321,31.0
59.015,0.77,5.154,7.0
58.999,0.781,4.831,19.0
58.924,0.791,4.511,22.0
76.313,1.039,5.436,24.0
57.703,0.79,5.742,30.0
56.447,0.783,5.314,24.0
58.949,0.829,5.234,24.0
58.973,0.84,4.914,27.0
58.963,0.851,4.599,20.0
76.336,1.117,5.547,27.0
63.051,0.928,6.365,13.0
56.419,0.84,5.392,26.0
58.815,0.887,5.306,29.0
58.993,0.901,4.999,21.0
63.382,0.981,5.032,12.0
77.315,1.211,5.725,19.0
54.913,0.865,5.62,12.0
56.836,0.906,5.51,31.0
0.0,0.0,0.0,0.0
58.997,0.963,5.079,15.0
63.073,1.041,5.093,16.0
83.421,1.394,6.29,10.0
54.902,0.923,5.693,6.0
57.234,0.973,5.626,7.0
56.966,0.979,5.293,31.0
58.886,1.024,5.149,33.0
62.023,1.09,5.09,8.0
63.231,1.124,4.85,10.0
57.281,1.025,6.016,13.0
55.193,0.998,5.498,8.0
56.89,1.04,5.36,31.0
0.0,0.0,0.0,0.0
62.336,1.164,5.196,32.0
63.216,1.193,4.93,18.0
49.996,0.949,5.315,18.0
55.022,1.056,5.551,23.0
57.458,1.114,5.487,26.0
57.171,1.12,5.145,17.0
62.702,1.241,5.305,29.0
63.263,1.265,5.012,19.0
49.964,1.005,5.374,25.0
55.072,1.119,5.625,9.0
60.909,1.25,5.891,14.0
57.257,1.187,5.223,26.0
62.298,1.304,5.347,16.0
63.148,1.334,5.08,10.0
57.495,1.222,6.254,14.0
54.997,1.18,5.683,18.0
56.755,1.23,5.558,21.0
57.261,1.253,5.291,31.0
62.709,1.384,5.455,14.0
63.11,1.405,5.15,20.0
49.636,1.113,5.457,24.0
55.083,1.246,5.756,5.0
56.853,1.298,5.632,10.0
57.443,1.323,5.373,31.0
65.285,1.517,5.753,8.0
63.26,1.483,5.233,23.0
49.688,1.173,5.519,23.0
49.598,1.18,5.238,11.0
49.114,1.179,4.92,22.0
57.373,1.388,5.43,11.0
50.588,1.235,4.513,11.0
63.171,1.555,5.293,19.0
45.91,1.137,5.149,27.0
57.673,1.441,6.153,9.0
49.104,1.237,4.971,22.0
50.549,1.283,4.837,9.0
57.842,1.48,5.22,10.0
63.067,1.627,5.349,16.0
45.82,1.19,5.186,15.0
49.582,1.298,5.34,20.0
49.236,1.298,5.034,19.0
61.501,1.635,5.947,15.0
55.929,1.497,5.103,20.0
63.005,1.7,5.406,15.0
45.739,1.243,5.223,13.0
49.134,1.346,5.341,19.0
49.338,1.361,5.093,24.0
50.515,1.403,4.933,14.0
55.991,1.568,5.163,26.0
63.476,1.791,5.508,38.0
47.539,1.35,5.474,6.0
46.208,1.322,5.067,18.0
50.513,1.455,5.262,7.0
55.275,1.604,5.45,7.0
56.039,1.638,5.219,9.0
55.761,1.641,4.889,7.0
45.636,1.353,5.297,32.0
46.037,1.374,5.09,20.0
48.459,1.456,5.092,16.0
50.64,1.532,5.038,24.0
49.567,1.51,4.66,20.0
55.653,1.707,4.928,17.0
47.552,1.469,5.561,4.0
45.821,1.425,5.105,13.0
48.415,1.515,5.128,18.0
50.514,1.591,5.068,21.0
49.717,1.576,4.715,35.0
55.705,1.777,4.978,22.0
46.744,1.502,5.504,24.0
45.72,1.478,5.131,22.0
46.219,1.504,4.933,18.0
50.439,1.651,5.101,24.0
49.747,1.639,4.757,26.0
55.925,1.855,5.042,11.0
45.791,1.53,5.428,26.0
45.823,1.54,5.179,30.0
48.574,1.642,5.221,4.0
50.63,1.722,5.158,23.0
50.034,1.712,4.823,21.0
53.752,1.851,4.886,21.0
45.829,1.589,5.467,31.0
45.721,1.595,5.201,20.0
45.969,1.613,4.975,20.0
61.548,2.172,6.315,7.0
50.244,1.784,4.878,24.0
53.75,1.92,4.923,20.0
45.786,1.647,5.494,20.0
45.919,1.661,5.255,24.0
45.509,1.655,4.956,19.0
61.798,2.26,6.383,7.0
50.278,1.849,4.915,23.0
53.782,1.989,4.962,13.0
45.65,1.701,5.507,27.0
45.951,1.721,5.289,17.0
45.672,1.719,5.003,28.0
48.557,1.838,5.045,20.0
49.967,1.901,4.915,23.0
49.957,1.911,4.639,13.0
45.582,1.757,5.527,36.0
45.858,1.776,5.305,29.0
45.523,1.772,5.013,30.0
48.886,1.913,5.107,24.0
49.94,1.963,4.941,30.0
49.957,1.974,4.667,28.0
0.0,0.0,0.0,0.0
45.733,1.83,5.316,29.0
45.499,1.829,5.035,19.0
48.455,1.957,5.088,32.0
50.046,2.032,4.978,23.0
49.678,2.027,4.666,17.0
0.0,0.0,0.0,0.0
45.825,1.892,5.35,31.0
45.76,1.899,5.087,20.0
49.247,2.054,5.196,23.0
50.153,2.101,5.013,10.0
49.739,2.094,4.695,24.0
0.0,0.0,0.0,0.0
45.692,1.946,5.355,29.0
46.044,1.97,5.14,25.0
56.314,2.421,5.966,7.0
48.277,2.084,4.846,16.0
53.986,2.342,5.12,20.0
45.722,1.998,5.634,28.0
45.698,2.006,5.375,24.0
46.159,2.034,5.171,35.0
56.375,2.496,5.995,10.0
50.208,2.232,5.059,23.0
49.728,2.221,4.735,18.0
45.107,2.029,5.575,22.0
45.715,2.065,5.394,20.0
46.064,2.089,5.177,20.0
51.28,2.335,5.471,5.0
50.324,2.301,5.088,23.0
49.725,2.283,4.751,13.0
44.368,2.052,5.499,33.0
45.764,2.125,5.414,35.0
48.127,2.244,5.424,29.0
51.304,2.401,5.49,10.0
50.263,2.362,5.098,22.0
49.626,2.342,4.756,18.0
44.396,2.111,5.515,33.0
45.856,2.188,5.438,31.0
48.111,2.305,5.435,29.0
0.0,0.0,0.0,0.0
50.343,2.43,5.118,16.0
49.595,2.403,4.766,20.0
44.373,2.166,5.523,34.0
45.825,2.245,5.445,34.0
48.184,2.369,5.454,9.0
50.788,2.507,5.459,24.0
50.409,2.497,5.135,23.0
49.636,2.468,4.779,20.0
44.365,2.222,5.53,15.0
45.779,2.301,5.448,19.0
47.318,2.386,5.365,4.0
50.464,2.554,5.433,5.0
50.343,2.557,5.137,19.0
49.716,2.535,4.795,38.0
47.728,2.452,5.957,12.0
45.828,2.361,5.461,35.0
47.324,2.447,5.372,21.0
0.0,0.0,0.0,0.0
49.863,2.596,5.094,23.0
49.721,2.597,4.801,13.0
47.462,2.497,5.928,7.0
45.863,2.42,5.469,5.0
47.304,2.505,5.374,19.0
48.215,2.561,5.201,23.0
49.35,2.63,5.045,23.0
49.811,2.663,4.813,18.0
44.582,2.401,5.571,24.0
43.585,2.354,5.199,34.0
47.279,2.561,5.373,35.0
47.699,2.592,5.146,22.0
49.314,2.688,5.043,22.0
49.744,2.72,4.807,23.0
0.0,0.0,0.0,0.0
43.598,2.408,5.201,23.0
47.5,2.631,5.398,21.0
47.983,2.666,5.176,22.0
45.068,2.511,4.608,17.0
49.672,2.776,4.799,27.0
43.051,2.423,5.379,20.0
43.216,2.44,5.154,23.0
48.201,2.729,5.475,22.0
47.706,2.708,5.144,5.0
45.092,2.567,4.608,13.0
49.559,2.83,4.785,23.0
42.927,2.468,5.36,18.0
42.77,2.466,5.097,30.0
46.041,2.662,5.226,15.0
45.217,2.621,4.871,36.0
45.062,2.619,4.6,17.0
57.082,3.328,5.505,8.0
43.02,2.525,5.366,5.0
42.811,2.519,5.097,21.0
43.771,2.583,4.962,7.0
45.15,2.671,4.857,33.0
48.697,2.888,4.964,20.0
57.425,3.415,5.529,31.0
35.493,2.125,4.421,29.0
42.682,2.562,5.074,28.0
0.0,0.0,0.0,0.0
45.073,2.719,4.841,24.0
49.239,2.978,5.009,24.0
54.978,3.333,5.282,8.0
35.511,2.168,4.416,40.0
42.571,2.605,5.051,20.0
45.085,2.765,5.093,19.0
45.082,2.771,4.832,23.0
49.318,3.039,5.006,30.0
52.096,3.218,4.993,25.0
43.032,2.677,5.341,11.0
42.587,2.654,5.042,30.0
34.339,2.145,3.87,20.0
49.387,3.092,5.28,8.0
49.29,3.093,4.989,11.0
52.005,3.271,4.969,13.0
35.603,2.255,4.408,20.0
42.562,2.701,5.026,33.0
34.317,2.182,3.856,24.0
0.0,0.0,0.0,0.0
51.719,3.304,5.218,4.0
52.062,3.333,4.958,15.0
42.773,2.757,5.281,26.0
42.542,2.747,5.009,15.0
34.337,2.221,3.847,31.0
48.728,3.159,5.176,8.0
51.663,3.356,5.194,11.0
54.88,3.573,5.206,6.0
43.039,2.82,5.298,18.0
34.224,2.247,4.016,15.0
34.018,2.238,3.797,32.0
34.008,2.242,3.599,21.0
51.552,3.405,5.162,13.0
66.024,4.369,6.236,6.0
42.69,2.844,5.236,17.0
42.686,2.848,4.991,12.0
34.006,2.273,3.781,28.0
48.836,3.27,5.146,18.0
51.519,3.457,5.135,10.0
80.743,5.428,7.589,11.0
42.687,2.888,5.216,8.0
42.568,2.885,4.957,8.0
33.932,2.303,3.757,24.0
33.898,2.305,3.556,12.0
48.137,3.28,4.775,16.0
66.077,4.51,6.178,9.0
42.634,2.928,5.188,11.0
34.327,2.361,3.98,29.0
33.975,2.341,3.744,23.0
34.095,2.353,3.558,20.0
48.041,3.321,4.74,14.0
43.616,3.02,4.055,5.0
34.262,2.388,4.15,28.0
34.286,2.392,3.956,26.0
33.966,2.373,3.724,31.0
34.267,2.399,3.557,8.0
47.994,3.364,4.708,11.0
43.589,3.06,4.028,15.0
34.277,2.422,4.132,28.0
34.211,2.42,3.927,25.0
33.963,2.406,3.704,36.0
48.26,3.424,4.981,11.0
64.372,4.574,6.276,9.0
43.614,3.104,4.003,13.0
42.641,3.053,5.114,3.0
34.18,2.45,3.902,27.0
33.968,2.438,3.683,33.0
48.182,3.463,4.943,16.0
64.02,4.608,6.201,10.0
43.583,3.141,3.973,16.0
34.139,2.476,4.071,15.0
34.127,2.478,3.873,25.0
34.034,2.474,3.667,25.0
48.188,3.508,4.911,20.0
59.547,4.34,5.727,14.0
58.819,4.293,5.321,13.0
34.238,2.514,4.059,38.0
34.125,2.508,3.849,39.0
34.052,2.506,3.644,24.0
48.252,3.555,4.882,19.0
59.569,4.395,5.686,12.0
43.211,3.192,3.877,28.0
34.251,2.545,4.035,26.0
34.125,2.538,3.823,39.0
34.137,2.541,3.628,26.0
59.63,4.445,5.988,10.0
43.624,3.255,4.131,27.0
43.299,3.235,3.852,22.0
34.248,2.573,4.008,35.0
34.108,2.565,3.795,22.0
42.852,3.226,4.521,13.0
51.787,3.902,5.16,19.0
43.391,3.273,4.075,18.0
43.254,3.266,3.814,31.0
34.255,2.601,3.981,25.0
43.243,3.287,4.776,10.0
42.898,3.264,4.49,27.0
51.779,3.943,5.117,26.0
43.343,3.304,4.034,33.0
51.875,3.958,4.531,19.0
34.276,2.63,3.954,28.0
43.277,3.323,4.743,9.0
42.893,3.296,4.453,19.0
43.599,3.353,4.271,17.0
43.291,3.332,3.993,29.0
51.885,3.998,4.488,26.0
34.107,2.642,3.905,31.0
34.049,2.639,3.701,19.0
42.897,3.328,4.416,25.0
43.45,3.373,4.218,31.0
43.29,3.364,3.953,34.0
51.883,4.035,4.44,34.0
34.017,2.659,3.863,38.0
34.042,2.663,3.669,24.0
49.946,3.91,5.095,6.0
43.362,3.397,4.169,23.0
43.269,3.392,3.911,35.0
51.901,4.073,4.393,47.0
34.0,2.681,3.829,29.0
42.976,3.391,4.591,20.0
49.454,3.905,4.997,6.0
43.252,3.417,4.117,22.0
43.279,3.422,3.87,10.0
51.915,4.107,4.345,46.0
33.942,2.699,3.789,28.0
42.945,3.416,4.545,29.0
43.508,3.463,4.354,18.0
43.16,3.437,4.066,34.0
60.726,4.839,5.371,17.0
51.931,4.141,4.295,39.0
34.012,2.725,3.763,30.0
42.93,3.441,4.501,30.0
43.455,3.485,4.305,25.0
43.098,3.458,4.016,35.0
59.84,4.804,5.232,22.0
51.961,4.174,4.244,29.0
34.089,2.751,3.735,30.0
42.881,3.462,4.45,30.0
43.352,3.501,4.248,21.0
43.186,3.489,3.979,33.0
59.428,4.804,5.133,30.0
51.973,4.204,4.19,36.0
34.045,2.766,3.694,22.0
43.073,3.501,4.424,18.0
43.188,3.512,4.185,32.0
43.284,3.52,3.941,31.0
59.901,4.874,5.108,23.0
51.981,4.232,4.134,20.0
42.266,3.456,4.539,11.0
43.122,3.527,4.381,21.0
43.158,3.531,4.135,27.0
60.318,4.936,5.424,11.0
60.026,4.913,5.052,12.0
51.964,4.255,4.074,17.0
42.36,3.484,4.501,30.0
43.303,3.562,4.35,32.0
43.141,3.549,4.084,32.0
49.046,4.035,4.355,4.0
59.922,4.932,4.975,10.0
51.934,4.276,4.013,15.0
42.431,3.508,4.459,31.0
43.293,3.579,4.299,27.0
43.14,3.567,4.034,38.0
59.405,4.913,5.205,22.0
51.897,4.293,4.248,19.0
51.896,4.294,3.949,18.0
42.55,3.535,4.421,23.0
43.228,3.591,4.24,32.0
43.171,3.586,3.985,28.0
59.566,4.949,5.148,34.0
51.892,4.312,4.186,23.0
51.902,4.314,3.887,27.0
42.775,3.568,4.393,19.0
43.172,3.601,4.183,35.0
49.048,4.092,4.468,19.0
59.826,4.991,5.099,32.0
51.864,4.327,4.121,32.0
51.892,4.33,3.824,26.0
43.194,3.617,4.383,31.0
43.133,3.612,4.126,31.0
49.104,4.111,4.414,24.0
59.642,4.993,5.01,28.0
51.863,4.342,4.057,37.0
51.897,4.345,3.76,29.0
43.265,3.635,4.335,36.0
43.082,3.619,4.067,35.0
49.095,4.124,4.35,9.0
59.329,4.983,4.908,21.0
51.855,4.354,3.991,42.0
51.88,4.357,3.693,22.0
43.244,3.644,4.278,36.0
43.073,3.628,4.011,35.0
59.595,5.019,5.204,29.0
51.758,4.358,4.215,14.0
51.855,4.366,3.924,44.0
51.88,4.368,3.626,21.0
43.204,3.649,4.218,39.0
49.121,4.147,4.51,9.0
59.649,5.035,5.131,28.0
51.791,4.37,4.15,19.0
51.873,4.377,3.857,37.0
51.885,4.377,3.559,32.0
43.151,3.651,4.155,35.0
49.009,4.145,4.435,23.0
59.703,5.048,5.056,20.0
51.821,4.38,4.084,19.0
51.881,4.384,3.789,24.0
51.898,4.385,3.491,44.0
43.099,3.652,4.092,31.0
48.978,4.148,4.366,14.0
51.733,4.379,4.312,21.0
51.839,4.387,4.016,22.0
51.875,4.388,3.719,22.0
51.896,4.389,3.422,45.0
43.086,3.654,4.032,33.0
59.462,5.04,5.22,28.0
51.747,4.384,4.243,19.0
51.835,4.39,3.945,40.0
51.866,4.39,3.649,25.0
51.921,4.393,3.353,40.0
43.076,3.654,3.972,19.0
59.504,5.045,5.141,27.0
51.789,4.388,4.175,12.0
51.852,4.392,3.875,33.0
51.866,4.391,3.576,22.0
51.94,4.395,3.282,50.0
49.003,4.156,4.45,13.0
59.66,5.057,5.072,19.0
51.849,4.393,4.107,10.0
51.867,4.391,3.804,24.0
51.884,4.391,3.505,38.0
51.956,4.395,3.211,49.0
48.993,4.153,4.38,13.0
51.721,4.381,4.324,21.0
51.828,4.387,4.033,20.0
51.876,4.389,3.731,23.0
51.904,4.389,3.434,49.0
51.968,4.392,3.138,46.0
59.49,5.037,5.234,23.0
51.761,4.379,4.253,20.0
51.85,4.384,3.96,42.0
51.862,4.382,3.656,28.0
51.926,4.384,3.361,42.0
51.968,4.385,3.064,39.0
59.589,5.037,5.157,31.0
51.789,4.374,4.182,20.0
51.859,4.377,3.887,40.0
51.868,4.374,3.583,27.0
51.954,4.378,3.289,45.0
51.978,4.377,2.991,31.0
59.76,5.041,5.085,22.0
51.841,4.369,4.111,30.0
51.884,4.369,3.814,25.0
51.896,4.367,3.51,47.0
51.967,4.369,3.215,47.0
51.993,4.368,2.917,30.0
59.512,5.007,4.978,15.0
51.868,4.359,4.038,37.0
51.885,4.357,3.739,25.0
51.905,4.355,3.435,42.0
51.993,4.358,3.141,41.0
52.037,4.359,2.844,31.0
59.289,4.972,4.873,15.0
51.866,4.345,3.962,45.0
51.886,4.342,3.663,21.0
51.941,4.343,3.362,30.0
51.99,4.343,3.065,25.0
52.06,4.345,2.769,33.0
51.849,4.332,4.184,22.0
51.887,4.33,3.887,26.0
51.905,4.327,3.588,25.0
51.995,4.33,3.289,24.0
52.02,4.328,2.99,18.0
52.071,4.329,2.693,19.0
51.896,4.317,4.111,33.0
51.928,4.315,3.813,16.0
51.942,4.311,3.513,24.0
52.011,4.312,3.212,23.0
52.051,4.311,2.915,14.0
52.128,4.313,2.619,11.0
51.896,4.297,4.034,21.0
52.008,4.301,3.741,9.0
52.0,4.295,3.44,14.0
52.047,4.294,3.137,12.0
52.113,4.294,2.841,13.0
81.525,6.711,3.975,12.0
51.951,4.278,3.96,14.0
59.214,4.87,4.171,15.0
59.906,4.92,3.874,24.0
52.081,4.272,3.062,7.0
62.205,5.097,3.298,20.0
81.531,6.673,3.854,18.0
59.86,4.9,4.473,16.0
59.375,4.854,4.093,33.0
59.761,4.879,3.774,34.0
52.071,4.245,2.983,4.0
62.256,5.07,3.207,26.0
81.554,6.633,3.732,5.0
59.547,4.843,4.359,33.0
59.442,4.827,4.008,33.0
60.045,4.87,3.702,33.0
62.374,5.052,3.479,12.0
79.112,6.399,3.958,13.0
81.81,6.609,3.622,5.0
59.393,4.797,4.26,30.0
59.527,4.8,3.924,29.0
60.289,4.855,3.627,12.0
62.32,5.011,3.383,20.0
81.475,6.542,3.954,23.0
81.637,6.545,3.492,18.0
59.661,4.782,4.188,31.0
59.597,4.769,3.839,34.0
62.219,4.97,3.649,12.0
62.2,4.961,3.283,19.0
81.661,6.505,3.841,18.0
81.374,6.472,3.359,23.0
59.501,4.729,4.088,26.0
60.099,4.769,3.781,33.0
77.182,6.114,4.411,12.0
62.124,4.913,3.186,6.0
82.181,6.49,3.742,19.0
48.935,3.858,1.946,9.0
59.65,4.699,4.008,34.0
60.654,4.77,3.725,35.0
62.362,4.896,3.471,12.0
81.626,6.397,4.064,20.0
81.914,6.41,3.607,21.0
48.939,3.823,1.873,13.0
60.122,4.692,3.949,35.0
60.672,4.726,3.635,18.0
62.376,4.849,3.378,9.0
81.686,6.34,3.944,25.0
81.514,6.315,3.466,25.0
48.511,3.752,1.784,4.0
60.268,4.656,3.868,29.0
60.967,4.7,3.561,23.0
81.367,6.262,4.284,25.0
81.549,6.264,3.817,27.0
81.387,6.24,3.341,17.0
47.679,3.649,1.683,4.0
60.381,4.614,3.785,35.0
61.546,4.693,3.503,16.0
81.364,6.192,4.161,23.0
81.998,6.228,3.714,22.0
48.873,3.705,1.933,2.0
47.555,3.598,1.607,7.0
60.502,4.57,3.702,35.0
61.609,4.645,3.415,4.0
81.167,6.106,4.032,26.0
81.575,6.124,3.575,17.0
48.415,3.628,1.843,0.0
47.435,3.547,1.534,6.0
61.526,4.592,3.673,22.0
81.155,6.044,4.378,16.0
80.998,6.019,3.903,23.0
49.041,3.636,2.077,2.0
48.006,3.552,1.757,1.0
47.301,3.493,1.46,13.0
61.859,4.558,3.603,16.0
79.986,5.879,4.198,19.0
81.49,5.977,3.807,13.0
0.0,0.0,0.0,0.0
47.648,3.479,1.673,4.0
47.268,3.443,1.389,23.0
77.443,5.628,4.395,16.0
80.686,5.85,4.115,33.0
49.225,3.56,2.227,1.0
0.0,0.0,0.0,0.0
47.455,3.417,1.598,9.0
47.265,3.395,1.32,30.0
78.613,5.631,4.347,8.0
80.752,5.771,4.0,31.0
0.0,0.0,0.0,0.0
48.174,3.425,1.829,0.0
47.32,3.357,1.524,13.0
47.272,3.345,1.252,162.0
80.6,5.687,4.341,10.0
80.887,5.693,3.891,23.0
0.0,0.0,0.0,0.0
47.774,3.345,1.745,2.0
47.241,3.299,1.454,19.0
47.266,3.293,1.184,160.0
80.355,5.581,4.212,39.0
80.788,5.596,3.77,1.0
0.0,0.0,0.0,0.0
47.519,3.273,1.668,5.0
47.228,3.245,1.387,30.0
47.245,3.238,1.118,150.0
80.642,5.508,4.113,30.0
0.0,0.0,0.0,0.0
0.0,0.0,0.0,0.0
47.371,3.208,1.596,10.0
47.253,3.192,1.321,156.0
47.318,3.187,1.052,2.0
80.84,5.425,4.009,33.0
0.0,0.0,0.0,0.0
48.02,3.204,1.831,1.0
47.232,3.141,1.525,9.0
47.235,3.132,1.255,164.0
47.234,3.124,0.984,4.0
80.902,5.329,3.899,9.0
0.0,0.0,0.0,0.0
47.694,3.123,1.752,2.0
47.199,3.08,1.458,27.0
47.235,3.073,1.189,161.0
47.34,3.071,0.921,1.0
0.0,0.0,0.0,0.0
0.0,0.0,0.0,0.0
47.497,3.048,1.679,6.0
47.195,3.019,1.393,39.0
47.233,3.012,1.124,150.0
52.163,3.316,0.943,3.0
0.0,0.0,0.0,0.0
0.0,0.0,0.0,0.0
47.34,2.975,1.608,11.0
47.221,2.958,1.329,158.0
47.278,2.951,1.06,3.0
47.129,2.932,0.788,0.0
0.0,0.0,0.0,0.0
48.04,2.964,1.842,1.0
47.246,2.905,1.541,14.0
47.206,2.892,1.265,160.0
47.27,2.886,0.997,5.0
47.492,2.89,0.731,1.0
0.0,0.0,0.0,0.0
47.654,2.874,1.763,3.0
47.201,2.836,1.477,150.0
47.242,2.828,1.203,9.0
47.353,2.824,0.936,1.0
43.554,2.588,0.612,0.0
0.0,0.0,0.0,0.0
47.52,2.798,1.696,6.0
47.191,2.768,1.415,45.0
47.229,2.76,1.142,3.0
0.0,0.0,0.0,0.0
0.0,0.0,0.0,0.0
0.0,0.0,0.0,0.0
47.357,2.719,1.629,9.0
47.226,2.701,1.355,30.0
47.243,2.691,1.082,4.0
48.214,2.736,0.829,4.0
0.0,0.0,0.0,0.0
48.111,2.702,1.869,1.0
47.257,2.644,1.566,5.0
47.264,2.632,1.297,37.0
47.236,2.62,1.022,6.0
48.719,2.691,0.777,2.0
34.325,1.888,0.352,0.0
47.814,2.614,1.798,3.0
47.276,2.573,1.508,11.0
47.272,2.561,1.239,36.0
47.265,2.55,0.965,2.0
0.0,0.0,0.0,0.0
32.924,1.76,0.296,0.0
47.5,2.522,1.727,6.0
47.322,2.501,1.451,13.0
47.291,2.487,1.181,20.0
0.0,0.0,0.0,0.0
38.991,2.032,0.526,0.0
31.912,1.655,0.249,0.0
47.592,2.452,1.673,150.0
47.369,2.428,1.396,17.0
47.324,2.413,1.125,14.0
49.748,2.524,0.894,3.0
0.0,0.0,0.0,0.0
31.162,1.566,0.206,1.0
47.573,2.373,1.617,96.0
47.407,2.353,1.341,13.0
47.312,2.336,1.069,6.0
50.132,2.462,0.843,2.0
35.672,1.743,0.397,0.0
30.035,1.46,0.164,0.0
47.433,2.288,1.557,10.0
47.428,2.275,1.287,5.0
0.0,0.0,0.0,0.0
0.0,0.0,0.0,0.0
0.0,0.0,0.0,0.0
29.145,1.368,0.126,0.0
47.491,2.212,1.505,13.0
47.458,2.197,1.234,19.0
47.699,2.196,0.97,0.0
0.0,0.0,0.0,0.0
32.718,1.488,0.29,1.0
28.589,1.293,0.091,0.0
47.599,2.136,1.456,4.0
47.579,2.121,1.185,0.0
47.757,2.116,0.918,0.0
38.113,1.679,0.513,0.0
32.268,1.413,0.251,1.0
27.957,1.216,0.059,0.0
48.238,2.08,1.423,3.0
48.411,2.075,1.154,0.0
47.925,2.04,0.87,0.0
36.55,1.546,0.453,0.0
31.036,1.304,0.209,0.0
27.232,1.137,0.029,0.0
48.508,2.006,1.38,3.0
48.652,1.999,1.109,0.0
0.0,0.0,0.0,0.0
35.638,1.444,0.405,0.0
30.656,1.234,0.175,0.0
26.655,1.065,0.001,0.0
49.137,1.944,1.348,2.0
0.0,0.0,0.0,0.0
45.618,1.779,0.735,0.0
33.888,1.312,0.351,0.0
28.911,1.111,0.135,1.0
25.837,0.985,-0.024,7.0
49.601,1.873,1.311,2.0
50.69,1.899,1.053,2.0
0.0,0.0,0.0,0.0
33.441,1.234,0.313,1.0
28.825,1.055,0.107,1.0
25.765,0.936,-0.049,1.0
50.227,1.805,1.279,1.0
50.46,1.798,1.0,0.0
0.0,0.0,0.0,0.0
32.02,1.122,0.27,0.0
28.652,0.996,0.079,0.0
24.964,0.86,-0.071,0.0
0.0,0.0,0.0,0.0
0.0,0.0,0.0,0.0
0.0,0.0,0.0,0.0
31.345,1.04,0.235,1.0
27.603,0.908,0.051,0.0
24.556,0.8,-0.092,0.0
54.396,1.75,1.286,1.0
46.569,1.484,0.838,0.0
0.0,0.0,0.0,0.0
29.063,0.909,0.192,0.0
27.108,0.84,0.026,0.0
24.06,0.738,-0.111,0.0
0.0,0.0,0.0,0.0
45.659,1.368,0.782,1.0
35.366,1.049,0.406,0.0
29.021,0.852,0.167,3.0
26.734,0.777,0.003,0.0
23.562,0.677,-0.129,1.0
56.302,1.596,1.235,4.0
46.101,1.292,0.751,0.0
34.545,0.957,0.368,0.0
28.943,0.793,0.142,5.0
26.344,0.714,-0.018,0.0
23.526,0.63,-0.148,1.0
56.803,1.499,1.2,5.0
0.0,0.0,0.0,0.0
33.911,0.873,0.334,1.0
28.893,0.735,0.119,6.0
25.973,0.653,-0.038,0.0
22.975,0.57,-0.163,0.0
57.585,1.406,1.171,2.0
0.0,0.0,0.0,0.0
32.606,0.776,0.296,0.0
28.822,0.676,0.097,3.0
25.58,0.592,-0.057,0.0
22.375,0.511,-0.175,0.0
47.923,1.075,0.939,0.0
37.319,0.825,0.522,0.0
32.158,0.701,0.269,0.0
28.727,0.617,0.076,1.0
25.181,0.532,-0.074,0.0
22.092,0.46,-0.189,0.0
0.0,0.0,0.0,0.0
37.212,0.748,0.494,0.0
31.634,0.625,0.242,0.0
27.649,0.538,0.054,0.0
24.762,0.474,-0.09,0.0
21.853,0.411,-0.201,0.0
0.0,0.0,0.0,0.0
35.988,0.651,0.454,0.0
31.027,0.551,0.217,0.0
27.319,0.476,0.035,0.0
24.332,0.415,-0.104,0.0
21.601,0.362,-0.213,0.0
43.664,0.714,0.767,0.0
0.0,0.0,0.0,0.0
29.005,0.455,0.185,0.0
26.937,0.414,0.018,0.0
24.071,0.362,-0.118,0.0
21.204,0.311,-0.222,0.0
0.0,0.0,0.0,0.0
35.192,0.492,0.4,0.0
28.948,0.394,0.167,1.0
26.78,0.356,0.002,0.0
23.807,0.308,-0.13,0.0
20.72,0.261,-0.229,0.0
0.0,0.0,0.0,0.0
34.504,0.41,0.373,0.0
28.907,0.334,0.151,5.0
26.441,0.297,-0.012,0.0
23.508,0.255,-0.142,0.0
20.325,0.214,-0.236,0.0
40.774,0.413,0.647,0.0
34.121,0.335,0.351,0.0
28.854,0.273,0.135,5.0
26.173,0.238,-0.025,0.0
23.222,0.203,-0.152,0.0
20.11,0.169,-0.244,0.0
39.481,0.318,0.606,0.0
33.214,0.256,0.325,0.0
28.841,0.213,0.121,1.0
25.952,0.182,-0.037,0.0
22.697,0.152,-0.159,0.0
19.877,0.126,-0.25,0.0
39.912,0.238,0.595,0.0
33.207,0.187,0.31,0.0
28.701,0.151,0.108,1.0
25.662,0.127,-0.048,0.0
22.788,0.105,-0.17,1.0
19.492,0.082,-0.254,0.0
0.0,0.0,0.0,0.0
0.0,0.0,0.0,0.0
28.692,0.091,0.096,3.0
25.524,0.072,-0.058,0.0
22.33,0.055,-0.175,0.0
19.317,0.041,-0.259,0.0
38.219,0.067,0.538,0.0
32.147,0.045,0.274,0.0
28.576,0.03,0.085,1.0
25.345,0.017,-0.067,0.0
22.048,0.007,-0.181,0.0
19.214,0.0,-0.265,0.0
37.621,-0.013,0.517,0.0
0.0,0.0,0.0,0.0
28.64,-0.03,0.075,3.0
25.159,-0.035,-0.075,0.0
22.02,-0.039,-0.188,0.0
19.011,-0.04,-0.268,0.0
0.0,0.0,0.0,0.0
31.412,-0.089,0.247,1.0
28.519,-0.091,0.066,3.0
25.032,-0.088,-0.082,0.0
21.924,-0.085,-0.194,0.0
18.879,-0.08,-0.271,0.0
36.962,-0.171,0.486,0.0
31.298,-0.155,0.238,1.0
28.448,-0.152,0.059,1.0
24.712,-0.14,-0.088,0.0
21.961,-0.133,-0.199,1.0
18.805,-0.12,-0.275,0.0
0.0,0.0,0.0,0.0
31.502,-0.224,0.232,1.0
28.279,-0.212,0.052,1.0
24.628,-0.193,-0.093,0.0
21.962,-0.18,-0.204,0.0
18.687,-0.16,-0.277,0.0
0.0,0.0,0.0,0.0
31.31,-0.289,0.225,1.0
27.7,-0.266,0.045,0.0
24.51,-0.244,-0.097,0.0
21.69,-0.224,-0.205,0.0
18.679,-0.2,-0.28,0.0
0.0,0.0,0.0,0.0
30.935,-0.352,0.217,0.0
27.664,-0.325,0.041,0.0
24.673,-0.299,-0.101,0.0
21.686,-0.27,-0.208,0.0
18.519,-0.238,-0.28,0.0
35.171,-0.463,0.437,0.0
31.179,-0.421,0.215,0.0
27.571,-0.383,0.038,0.0
24.37,-0.347,-0.102,0.0
21.784,-0.318,-0.212,0.0
18.49,-0.277,-0.282,0.0
35.291,-0.54,0.435,0.0
30.972,-0.485,0.211,0.0
27.549,-0.441,0.036,0.0
24.389,-0.399,-0.104,0.0
21.696,-0.363,-0.212,0.0
18.433,-0.316,-0.282,0.0
0.0,0.0,0.0,0.0
30.848,-0.549,0.209,0.0
27.536,-0.5,0.035,0.0
24.546,-0.455,-0.106,0.0
21.734,-0.41,-0.213,0.0
18.47,-0.356,-0.283,0.0
0.0,0.0,0.0,0.0
30.846,-0.614,0.209,0.0
27.67,-0.562,0.035,0.0
24.572,-0.508,-0.106,2.0
21.667,-0.455,-0.212,0.0
18.507,-0.396,-0.283,0.0
0.0,0.0,0.0,0.0
30.864,-0.68,0.21,0.0
27.563,-0.617,0.036,0.0
24.334,-0.554,-0.104,0.0
21.696,-0.502,-0.211,0.0
18.544,-0.436,-0.282,0.0
35.262,-0.839,0.436,0.0
30.631,-0.74,0.21,0.0
27.734,-0.68,0.038,0.0
24.658,-0.614,-0.103,0.0
21.969,-0.555,-0.212,0.0
18.532,-0.475,-0.281,0.0
36.111,-0.935,0.45,0.0
0.0,0.0,0.0,0.0
27.744,-0.739,0.041,0.0
24.518,-0.662,-0.099,0.0
21.208,-0.58,-0.202,1.0
18.608,-0.516,-0.279,0.0
0.0,0.0,0.0,0.0
31.071,-0.881,0.221,0.0
27.955,-0.803,0.046,0.0
24.925,-0.725,-0.097,0.0
21.234,-0.625,-0.199,0.0
18.715,-0.558,-0.278,0.0
36.115,-1.086,0.461,0.0
31.159,-0.949,0.227,0.0
27.95,-0.861,0.051,0.0
24.525,-0.765,-0.091,0.0
21.162,-0.668,-0.194,0.0
18.848,-0.602,-0.276,0.0
0.0,0.0,0.0,0.0
31.323,-1.019,0.235,0.0
28.304,-0.931,0.058,1.0
0.0,0.0,0.0,0.0
22.088,-0.743,-0.198,1.0
18.978,-0.645,-0.273,0.0
36.422,-1.248,0.482,0.0
31.478,-1.09,0.244,0.0
28.427,-0.995,0.065,1.0
24.939,-0.882,-0.08,0.0
22.2,-0.793,-0.193,0.0
19.098,-0.689,-0.27,0.0
0.0,0.0,0.0,0.0
32.419,-1.189,0.261,1.0
28.556,-1.058,0.074,5.0
25.436,-0.952,-0.074,0.0
22.436,-0.848,-0.188,0.0
19.21,-0.733,-0.265,0.0
37.279,-1.431,0.516,0.0
32.118,-1.244,0.269,0.0
28.572,-1.118,0.084,6.0
25.762,-1.017,-0.066,0.0
22.474,-0.895,-0.18,2.0
19.32,-0.777,-0.26,0.0
0.0,0.0,0.0,0.0
32.249,-1.315,0.282,0.0
28.593,-1.176,0.094,7.0
25.849,-1.073,-0.057,2.0
22.593,-0.946,-0.173,1.0
19.406,-0.82,-0.254,0.0
0.0,0.0,0.0,0.0
32.861,-1.407,0.301,0.0
28.594,-1.235,0.106,7.0
25.895,-1.128,-0.046,3.0
22.907,-1.006,-0.165,1.0
19.528,-0.865,-0.247,0.0
38.679,-1.721,0.581,0.0
0.0,0.0,0.0,0.0
28.542,-1.29,0.118,0.0
26.124,-1.19,-0.035,1.0
23.13,-1.062,-0.157,2.0
19.65,-0.909,-0.24,0.0
0.0,0.0,0.0,0.0
33.802,-1.583,0.34,0.0
28.567,-1.348,0.132,0.0
26.673,-1.268,-0.023,0.0
23.433,-1.123,-0.147,1.0
20.129,-0.972,-0.236,0.0
0.0,0.0,0.0,0.0
34.255,-1.672,0.361,0.0
30.387,-1.494,0.156,0.0
27.242,-1.349,-0.01,1.0
23.628,-1.178,-0.136,1.0
20.767,-1.043,-0.232,0.0
0.0,0.0,0.0,0.0
35.719,-1.813,0.396,0.0
30.36,-1.552,0.172,0.0
27.586,-1.419,0.004,0.0
23.714,-1.229,-0.124,0.0
21.142,-1.103,-0.225,0.0
34.658,-1.814,0.591,0.0
34.666,-1.826,0.404,0.0
30.512,-1.618,0.19,0.0
27.956,-1.493,0.021,1.0
34.272,-1.842,-0.159,1.0
34.231,-1.852,-0.344,0.0
34.352,-1.864,0.607,1.0
34.759,-1.898,0.426,0.0
30.731,-1.689,0.211,0.0
28.267,-1.563,0.038,1.0
34.23,-1.905,-0.137,3.0
22.045,-1.234,-0.207,0.0
34.146,-1.917,0.624,0.0
34.676,-1.959,0.447,0.0
30.941,-1.759,0.232,0.0
28.45,-1.627,0.057,6.0
34.202,-1.968,-0.115,0.0
22.351,-1.293,-0.195,0.0
34.08,-1.978,0.646,0.0
34.733,-2.027,0.471,4.0
31.524,-1.85,0.257,0.0
28.485,-1.682,0.076,7.0
25.472,-1.513,-0.068,0.0
22.687,-1.355,-0.183,0.0
33.985,-2.035,0.668,0.0
34.835,-2.097,0.497,2.0
32.155,-1.947,0.285,1.0
28.505,-1.735,0.096,13.0
25.841,-1.582,-0.051,0.0
23.013,-1.417,-0.169,0.0
34.016,-2.099,0.693,0.0
34.669,-2.15,0.52,5.0
32.762,-2.043,0.315,0.0
28.49,-1.786,0.118,0.0
26.248,-1.654,-0.032,0.0
23.388,-1.482,-0.154,0.0
33.912,-2.154,0.717,0.0
34.433,-2.198,0.542,3.0
33.541,-2.152,0.348,0.0
29.834,-1.924,0.146,0.0
27.162,-1.761,-0.012,0.0
23.631,-1.539,-0.137,0.0
33.979,-2.218,0.745,0.0
34.184,-2.242,0.565,1.0
35.751,-2.356,0.399,0.0
30.404,-2.014,0.173,0.0
27.206,-1.811,0.009,0.0
23.907,-1.599,-0.119,0.0
33.905,-2.272,0.771,0.0
34.036,-2.292,0.591,1.0
0.0,0.0,0.0,0.0
30.768,-2.091,0.201,0.0
27.79,-1.898,0.032,0.0
0.0,0.0,0.0,0.0
33.908,-2.33,0.799,1.0
33.922,-2.342,0.618,1.0
0.0,0.0,0.0,0.0
31.68,-2.207,0.234,0.0
33.916,-2.373,0.069,2.0
33.908,-2.383,-0.112,7.0
33.905,-2.387,0.829,153.0
33.866,-2.395,0.646,117.0
34.52,-2.452,0.474,1.0
33.91,-2.419,0.28,0.0
33.926,-2.431,0.099,2.0
33.931,-2.442,-0.082,4.0
33.893,-2.443,0.859,137.0
33.861,-2.451,0.677,155.0
34.392,-2.5,0.504,4.0
0.0,0.0,0.0,0.0
29.807,-2.185,0.114,1.0
33.915,-2.496,-0.05,4.0
33.831,-2.494,0.889,37.0
33.856,-2.506,0.708,160.0
34.225,-2.543,0.533,6.0
35.431,-2.643,0.359,0.0
30.159,-2.259,0.144,0.0
33.9,-2.55,-0.018,2.0
33.839,-2.548,0.921,71.0
33.861,-2.56,0.741,155.0
34.028,-2.582,0.563,4.0
0.0,0.0,0.0,0.0
30.762,-2.352,0.177,0.0
33.884,-2.601,0.014,1.0
33.837,-2.601,0.954,123.0
33.863,-2.612,0.774,156.0
33.909,-2.625,0.594,4.0
36.556,-2.841,0.441,0.0
31.577,-2.463,0.212,0.0
33.863,-2.651,0.048,2.0
33.833,-2.652,0.988,150.0
33.854,-2.663,0.808,155.0
33.813,-2.669,0.626,29.0
34.437,-2.728,0.451,0.0
32.146,-2.556,0.25,0.0
33.887,-2.704,0.082,1.0
33.821,-2.702,1.022,145.0
33.823,-2.711,0.842,47.0
33.831,-2.721,0.662,150.0
34.349,-2.772,0.485,2.0
33.677,-2.727,0.296,0.0
33.892,-2.754,0.118,0.0
33.806,-2.75,1.058,140.0
33.789,-2.758,0.877,43.0
33.821,-2.77,0.698,156.0
34.236,-2.813,0.52,4.0
34.025,-2.805,0.336,0.0
34.076,-2.818,0.155,0.0
33.803,-2.798,1.094,150.0
33.811,-2.808,0.914,90.0
33.823,-2.817,0.734,155.0
33.984,-2.839,0.553,3.0
35.401,-2.967,0.388,0.0
30.697,-2.581,0.173,0.0
33.79,-2.844,1.13,72.0
33.807,-2.854,0.951,147.0
33.803,-2.862,0.771,9.0
33.878,-2.877,0.588,1.0
0.0,0.0,0.0,0.0
31.369,-2.68,0.211,0.0
33.793,-2.891,1.168,14.0
33.804,-2.899,0.989,133.0
33.792,-2.907,0.808,7.0
33.806,-2.916,0.625,4.0
34.396,-2.976,0.453,1.0
32.332,-2.805,0.254,0.0
33.817,-2.937,1.207,13.0
33.797,-2.943,1.027,95.0
33.774,-2.949,0.846,26.0
33.747,-2.955,0.663,4.0
34.339,-3.015,0.492,2.0
0.0,0.0,0.0,0.0
33.808,-2.98,1.246,21.0
33.797,-2.986,1.066,84.0
33.785,-2.993,0.886,49.0
33.74,-2.996,0.702,0.0
34.114,-3.038,0.528,2.0
35.17,-3.14,0.358,0.0
33.805,-3.021,1.285,51.0
33.783,-3.026,1.105,56.0
33.812,-3.037,0.926,58.0
33.769,-3.041,0.742,0.0
34.01,-3.07,0.567,1.0
36.119,-3.269,0.411,0.0
33.814,-3.063,1.326,28.0
33.783,-3.068,1.146,17.0
33.799,-3.076,0.966,50.0
33.795,-3.083,0.783,10.0
33.771,-3.088,0.604,0.0
34.451,-3.158,0.433,0.0
33.919,-3.112,1.371,1.0
33.819,-3.11,1.187,5.0
33.795,-3.114,1.007,34.0
33.783,-3.12,0.824,12.0
33.789,-3.128,0.645,0.0
34.495,-3.201,0.475,3.0
34.097,-3.166,1.42,0.0
33.844,-3.149,1.229,6.0
33.797,-3.152,1.048,28.0
33.8,-3.158,0.866,20.0
33.792,-3.165,0.686,1.0
34.316,-3.221,0.515,2.0
34.235,-3.216,1.468,0.0
33.838,-3.185,1.271,10.0
33.806,-3.189,1.09,7.0
33.815,-3.196,0.907,20.0
33.705,-3.192,0.726,0.0
33.946,-3.221,0.551,0.0
34.339,-3.262,1.515,4.0
33.866,-3.223,1.315,5.0
33.833,-3.226,1.134,6.0
33.828,-3.231,0.951,18.0
33.782,-3.233,0.77,2.0
33.863,-3.248,0.593,0.0
34.459,-3.308,1.564,0.0
34.06,-3.275,1.365,0.0
33.843,-3.26,1.177,3.0
33.825,-3.264,0.993,9.0
33.836,-3.271,0.815,6.0
33.762,-3.27,0.634,0.0
34.692,-3.364,1.619,0.0
34.258,-3.327,1.417,0.0
33.879,-3.295,1.221,3.0
33.913,-3.304,1.039,115.0
33.869,-3.306,0.858,7.0
0.0,0.0,0.0,0.0
34.948,-3.42,1.675,0.0
34.373,-3.369,1.465,0.0
33.892,-3.327,1.265,2.0
33.912,-3.334,1.083,150.0
33.851,-3.334,0.901,6.0
33.856,-3.34,0.722,0.0
35.256,-3.481,1.736,0.0
34.64,-3.425,1.521,2.0
33.987,-3.366,1.312,1.0
33.869,-3.359,1.125,4.0
33.885,-3.365,0.946,8.0
33.882,-3.37,0.766,2.0
35.591,-3.544,1.799,0.0
35.067,-3.496,1.586,0.0
34.317,-3.426,1.37,0.0
33.896,-3.389,1.17,2.0
33.908,-3.395,0.991,172.0
33.907,-3.4,0.811,3.0
158.913,-15.95,8.241,13.0
35.558,-3.573,1.655,0.0
34.707,-3.492,1.431,0.0
33.979,-3.423,1.217,1.0
33.911,-3.42,1.035,183.0
33.92,-3.426,0.856,3.0
158.911,-16.067,8.449,18.0
36.133,-3.657,1.728,0.0
35.167,-3.563,1.496,0.0
34.059,-3.455,1.264,0.0
33.975,-3.45,1.081,62.0
33.947,-3.452,0.9,3.0
158.725,-16.158,8.645,16.0
158.953,-16.198,7.812,18.0
0.0,0.0,0.0,0.0
0.0,0.0,0.0,0.0
33.902,-3.465,1.123,1.0
33.934,-3.472,0.944,4.0
158.7,-16.258,8.851,10.0
159.174,-16.322,8.032,10.0
36.421,-3.737,1.644,0.0
35.107,-3.606,1.395,1.0
34.03,-3.499,1.172,0.0
33.962,-3.496,0.989,3.0
158.477,-16.332,9.048,11.0
159.216,-16.421,8.242,16.0
159.802,-16.495,7.424,14.0
35.998,-3.718,1.478,0.0
34.212,-3.537,1.223,2.0
34.004,-3.519,1.035,1.0
160.212,-16.6,9.358,5.0
159.009,-16.487,8.441,16.0
159.557,-16.557,7.623,20.0
36.594,-3.8,1.55,0.0
34.805,-3.617,1.29,0.0
34.11,-3.547,1.084,0.0
159.987,-16.661,9.557,22.0
158.619,-16.529,8.632,17.0
159.154,-16.594,7.815,19.0
155.474,-16.221,6.794,3.0
35.629,-3.72,1.368,2.0
34.182,-3.571,1.131,0.0
160.063,-16.744,9.775,11.0
158.467,-16.586,8.833,16.0
159.272,-16.68,8.031,17.0
159.913,-16.755,7.198,13.0
155.373,-16.289,6.169,3.0
34.403,-3.609,1.183,0.0
161.184,-16.93,10.056,6.0
158.369,-16.642,9.038,15.0
159.398,-16.757,8.247,17.0
159.838,-16.81,7.406,20.0
155.121,-16.323,6.364,5.0
34.797,-3.663,1.243,0.0
159.87,-16.855,10.185,3.0
160.029,-16.876,9.343,6.0
159.008,-16.774,8.438,16.0
159.767,-16.861,7.611,19.0
154.948,-16.359,6.559,4.0
35.725,-3.773,1.322,0.0
174.798,-18.487,11.366,17.0
160.042,-16.929,9.553,12.0
159.2,-16.845,8.654,17.0
159.635,-16.896,7.811,15.0
0.0,0.0,0.0,0.0
36.666,-3.883,1.404,1.0
174.773,-18.535,11.591,24.0
159.966,-16.966,9.758,12.0
159.373,-16.906,8.871,16.0
159.85,-16.96,8.031,11.0
159.769,-16.954,7.178,13.0
36.697,-3.895,1.453,3.0
174.684,-18.569,11.815,20.0
159.792,-16.986,9.956,13.0
159.272,-16.933,9.073,17.0
159.656,-16.974,8.23,6.0
159.765,-16.988,7.386,17.0
36.631,-3.895,1.498,0.0
174.647,-18.601,12.039,11.0
160.115,-17.051,10.184,4.0
159.96,-17.034,9.322,13.0
159.001,-16.932,8.401,20.0
160.002,-17.039,7.602,17.0
154.63,-16.468,6.526,11.0
142.614,-15.211,10.016,20.0
174.602,-18.62,11.331,18.0
160.015,-17.062,9.53,15.0
159.274,-16.981,8.621,17.0
159.967,-17.055,7.805,15.0
154.504,-16.471,6.716,3.0
142.844,-15.252,10.214,23.0
174.534,-18.631,11.547,29.0
159.966,-17.072,9.729,16.0
159.423,-17.01,8.831,19.0
159.768,-17.045,7.998,16.0
159.69,-17.035,7.143,9.0
143.051,-15.282,10.413,24.0
174.53,-18.639,11.771,25.0
159.796,-17.061,9.922,14.0
159.479,-17.023,9.033,15.0
159.727,-17.045,8.195,14.0
159.81,-17.051,7.346,16.0
143.037,-15.284,10.591,18.0
174.456,-18.634,11.983,15.0
159.856,-17.068,10.125,9.0
159.814,-17.057,9.253,12.0
159.066,-16.972,8.36,18.0
159.939,-17.06,7.553,12.0
143.175,-15.296,10.78,15.0
142.578,-15.224,9.97,19.0
174.562,-18.631,11.272,17.0
160.055,-17.075,9.464,16.0
159.183,-16.975,8.562,16.0
159.928,-17.049,7.747,15.0
143.05,-15.273,10.948,16.0
142.812,-15.238,10.164,23.0
174.578,-18.618,11.487,26.0
159.872,-17.041,9.648,16.0
159.317,-16.972,8.764,20.0
159.786,-17.015,7.935,14.0
144.068,-15.366,11.202,12.0
142.993,-15.241,10.35,21.0
174.583,-18.595,11.702,25.0
159.815,-17.012,9.838,16.0
159.345,-16.952,8.957,21.0
159.895,-17.0,8.133,9.0
144.087,-15.346,11.376,13.0
143.11,-15.23,10.53,16.0
174.634,-18.57,11.912,20.0
159.836,-16.985,10.028,10.0
159.58,-16.947,9.157,7.0
159.14,-16.889,8.28,15.0
143.909,-15.298,11.533,4.0
143.087,-15.198,10.697,12.0
142.513,-15.124,9.888,8.0
174.874,-18.543,11.177,10.0
160.189,-16.973,9.38,10.0
159.093,-16.845,8.464,18.0
142.678,-15.133,11.603,17.0
143.041,-15.156,10.862,12.0
142.549,-15.091,10.056,17.0
174.877,-18.497,11.379,20.0
159.998,-16.909,9.552,10.0
158.905,-16.78,8.635,14.0
142.819,-15.106,11.778,18.0
142.88,-15.097,11.013,8.0
142.772,-15.071,10.234,20.0
174.933,-18.449,11.581,25.0
160.31,-16.891,9.752,7.0
158.554,-16.69,8.796,14.0
142.948,-15.074,11.951,14.0
142.439,-15.003,11.139,10.0
142.987,-15.045,10.411,15.0
175.042,-18.397,11.785,25.0
161.206,-16.926,9.986,6.0
158.447,-16.62,8.964,13.0
144.446,-15.178,12.238,3.0
142.427,-14.948,11.295,18.0
143.11,-15.001,10.579,14.0
175.121,-18.337,11.981,20.0
161.868,-16.93,10.203,8.0
158.547,-16.566,9.14,5.0
142.958,-14.963,12.266,13.0
142.354,-14.881,11.444,20.0
143.021,-14.932,10.724,13.0
175.255,-18.274,12.178,13.0
175.346,-18.263,11.237,16.0
159.933,-16.639,9.389,15.0
143.01,-14.904,12.423,17.0
142.448,-14.824,11.603,24.0
142.948,-14.857,10.869,18.0
142.561,-14.798,10.054,9.0
175.565,-18.201,11.436,21.0
160.214,-16.588,9.572,13.0
144.447,-14.983,12.698,4.0
142.674,-14.778,11.768,22.0
147.835,-15.29,11.393,3.0
142.304,-14.698,10.183,13.0
175.7,-18.122,11.623,22.0
160.448,-16.527,9.748,14.0
144.288,-14.888,12.834,9.0
142.657,-14.698,11.912,19.0
0.0,0.0,0.0,0.0
142.664,-14.656,10.351,9.0
175.809,-18.034,11.806,18.0
160.338,-16.425,9.9,13.0
142.404,-14.613,12.806,13.0
142.473,-14.597,12.037,18.0
146.192,-14.953,11.559,4.0
142.797,-14.584,10.5,11.0
143.329,-14.616,9.763,12.0
160.126,-16.305,10.04,7.0
143.835,-14.672,13.074,8.0
142.702,-14.532,12.194,21.0
143.038,-14.542,11.445,19.0
142.672,-14.481,10.626,13.0
143.475,-14.539,9.908,15.0
176.399,-17.847,11.226,17.0
142.711,-14.463,13.108,12.0
142.885,-14.456,12.344,13.0
142.961,-14.439,11.57,15.0
176.334,-17.778,13.297,9.0
143.671,-14.46,10.053,19.0
176.554,-17.742,11.396,18.0
142.63,-14.358,13.229,12.0
142.842,-14.354,12.468,12.0
142.68,-14.311,11.676,11.0
147.225,-14.74,11.231,4.0
143.569,-14.349,10.172,19.0
150.019,-14.967,9.814,16.0
142.692,-14.261,13.36,14.0
144.28,-14.392,12.72,3.0
144.574,-14.395,11.956,12.0
147.007,-14.609,11.341,7.0
143.64,-14.248,10.299,12.0
148.946,-14.749,9.869,15.0
143.41,-14.225,13.549,11.0
144.354,-14.289,12.849,13.0
144.744,-14.3,12.091,15.0
147.088,-14.504,11.468,4.0
143.521,-14.125,10.407,11.0
143.851,-14.13,9.648,8.0
143.363,-14.107,13.662,12.0
144.453,-14.185,12.973,19.0
144.636,-14.173,12.198,18.0
145.157,-14.195,11.433,5.0
143.824,-14.037,10.543,4.0
177.442,-17.285,12.039,7.0
143.272,-13.98,13.765,13.0
144.784,-14.096,13.117,10.0
144.725,-14.06,12.317,12.0
145.158,-14.073,11.543,15.0
147.283,-14.25,10.908,8.0
143.408,-13.846,9.838,11.0
143.162,-13.846,13.863,13.0
147.289,-14.213,13.453,7.0
147.623,-14.213,12.673,4.0
145.06,-13.935,11.643,20.0
151.427,-14.515,11.326,5.0
151.415,-14.483,10.497,8.0
143.463,-13.746,13.996,12.0
148.273,-14.174,13.649,4.0
147.612,-14.078,12.777,4.0
145.033,-13.801,11.742,10.0
147.744,-14.027,11.153,12.0
153.64,-14.555,10.756,5.0
143.998,-13.664,14.148,7.0
146.948,-13.91,13.628,3.0
146.537,-13.838,12.783,5.0
145.221,-13.681,11.855,11.0
147.945,-13.905,11.266,6.0
153.462,-14.39,10.845,11.0
145.28,-13.645,14.37,20.0
148.124,-13.878,13.833,9.0
146.804,-13.721,12.899,11.0
0.0,0.0,0.0,0.0
146.151,-13.593,11.22,5.0
153.224,-14.218,10.922,9.0
145.266,-13.501,14.458,14.0
147.491,-13.673,13.863,6.0
146.923,-13.585,12.999,8.0
146.729,-13.533,12.158,12.0
153.83,-14.153,11.9,4.0
0.0,0.0,0.0,0.0
146.511,-13.467,14.668,15.0
146.266,-13.408,13.833,12.0
145.618,-13.313,12.967,8.0
146.648,-13.373,12.235,12.0
145.839,-13.265,11.364,3.0
146.184,-13.264,10.585,10.0
145.969,-13.264,14.694,13.0
146.836,-13.307,13.966,15.0
145.271,-13.131,13.012,10.0
145.273,-13.094,12.196,2.0
144.969,-13.032,11.37,6.0
145.885,-13.082,10.637,8.0
145.918,-13.103,14.762,15.0
146.574,-13.123,14.016,12.0
145.486,-12.989,13.105,14.0
148.475,-13.221,12.537,8.0
145.135,-12.888,11.452,12.0
145.847,-12.915,10.705,6.0
145.9,-12.939,14.83,14.0
146.223,-12.929,14.05,5.0
145.578,-12.835,13.18,14.0
144.55,-12.707,12.272,14.0
145.058,-12.716,11.512,16.0
144.884,-12.665,10.698,13.0
145.656,-12.75,14.869,16.0
145.47,-12.696,14.041,15.0
145.993,-12.704,13.279,3.0
144.323,-12.521,12.312,13.0
145.167,-12.558,11.579,14.0
144.67,-12.479,10.739,7.0
145.826,-12.595,14.945,9.0
145.423,-12.521,14.093,22.0
146.839,-12.604,13.413,11.0
153.694,-13.153,13.169,5.0
145.259,-12.394,11.64,13.0
0.0,0.0,0.0,0.0
145.601,-12.402,14.974,13.0
145.73,-12.373,14.174,13.0
144.995,-12.274,13.294,11.0
146.344,-12.349,12.588,4.0
145.511,-12.242,11.708,10.0
145.52,-12.207,10.9,12.0
146.864,-12.333,15.15,10.0
145.651,-12.191,14.21,10.0
145.075,-12.104,13.345,14.0
145.97,-12.14,12.598,15.0
145.451,-12.059,11.744,11.0
145.506,-12.026,10.94,18.0
146.785,-12.144,15.183,13.0
149.243,-12.308,14.601,4.0
145.252,-11.939,13.398,17.0
145.878,-11.951,12.628,15.0
146.216,-11.94,11.842,20.0
145.48,-11.843,10.972,12.0
146.592,-11.944,15.197,14.0
144.641,-11.746,14.184,5.0
145.124,-11.745,13.419,17.0
145.642,-11.749,12.637,8.0
145.501,-11.698,11.814,17.0
0.0,0.0,0.0,0.0
146.514,-11.753,15.217,13.0
145.837,-11.657,14.329,9.0
144.794,-11.535,13.414,13.0
145.879,-11.583,12.682,18.0
145.549,-11.519,11.841,14.0
146.675,-11.569,11.114,13.0
146.95,-11.599,15.285,6.0
145.742,-11.463,14.34,18.0
146.321,-11.467,13.575,7.0
146.243,-11.422,12.734,10.0
145.45,-11.32,11.851,13.0
152.773,-11.851,11.593,3.0
148.213,-11.506,15.432,12.0
145.685,-11.267,14.349,21.0
119.071,-9.177,11.058,7.0
145.686,-11.188,12.697,19.0
145.403,-11.125,11.858,11.0
122.1,-9.31,9.275,6.0
147.933,-11.285,15.414,18.0
145.839,-11.085,14.372,12.0
147.574,-11.175,13.713,5.0
119.385,-9.008,10.411,9.0
88.104,-6.623,7.188,5.0
147.132,-11.023,11.18,9.0
148.852,-11.155,15.513,5.0
146.598,-10.944,14.45,5.0
145.552,-10.824,13.527,10.0
119.284,-8.837,10.402,11.0
88.269,-6.515,7.201,16.0
122.191,-8.986,9.283,4.0
147.698,-10.865,15.39,10.0
146.277,-10.72,14.414,15.0
146.776,-10.715,13.635,11.0
119.115,-8.661,10.383,13.0
88.303,-6.397,7.2,18.0
119.446,-8.622,9.068,12.0
148.391,-10.714,15.453,7.0
91.469,-6.578,9.007,7.0
118.854,-8.513,11.032,10.0
118.899,-8.483,10.354,18.0
88.312,-6.276,7.193,19.0
119.27,-8.446,9.043,12.0
147.893,-10.471,15.386,9.0
91.481,-6.451,8.998,6.0
117.339,-8.242,10.877,14.0
88.267,-6.175,7.675,15.0
88.177,-6.144,7.17,15.0
119.147,-8.27,9.017,13.0
91.405,-6.343,9.495,4.0
91.535,-6.326,8.988,14.0
91.664,-6.309,8.482,7.0
88.364,-6.058,7.668,27.0
88.204,-6.022,7.156,17.0
117.734,-8.007,8.889,5.0
93.256,-6.341,9.669,13.0
93.59,-6.337,9.172,13.0
91.654,-6.18,8.462,7.0
88.589,-5.949,7.668,17.0
88.271,-5.903,7.143,19.0
117.887,-7.853,8.873,10.0
92.573,-6.163,9.576,19.0
91.69,-6.078,8.963,16.0
118.833,-7.843,10.941,14.0
88.702,-5.829,7.656,38.0
88.424,-5.786,7.131,17.0
87.945,-5.732,6.595,9.0
92.772,-6.042,9.57,14.0
91.387,-5.925,8.907,26.0
117.421,-7.581,10.777,9.0
88.823,-5.71,7.639,18.0
88.599,-5.67,7.118,8.0
94.408,-6.017,7.05,7.0
86.964,-5.538,8.943,17.0
91.337,-5.791,8.871,12.0
88.76,-5.602,8.116,18.0
92.943,-5.841,7.961,19.0
88.642,-5.547,7.09,13.0
87.836,-5.472,6.528,5.0
87.103,-5.421,8.925,18.0
87.253,-5.406,8.442,9.0
88.882,-5.483,8.094,24.0
92.988,-5.71,7.929,20.0
88.859,-5.433,7.072,16.0
87.729,-5.339,6.485,15.0
87.466,-5.318,8.926,25.0
87.745,-5.31,8.453,27.0
88.949,-5.358,8.061,34.0
93.205,-5.588,7.907,15.0
88.532,-5.284,7.007,21.0
90.432,-5.373,6.644,7.0
87.504,-5.192,8.89,16.0
87.898,-5.19,8.427,30.0
88.864,-5.222,8.012,24.0
93.184,-5.451,7.86,14.0
88.42,-5.148,6.955,27.0
112.493,-6.519,8.21,7.0
87.311,-5.053,8.825,24.0
87.95,-5.065,8.387,16.0
93.54,-5.361,8.385,13.0
89.05,-5.08,7.465,26.0
88.737,-5.038,6.934,27.0
88.264,-4.988,6.394,10.0
87.255,-4.923,8.772,27.0
88.03,-4.942,8.346,18.0
89.343,-4.99,7.959,13.0
89.101,-4.952,7.419,19.0
89.022,-4.925,6.904,13.0
88.401,-4.867,6.353,12.0
88.08,-4.839,8.803,14.0
87.049,-4.759,8.2,27.0
89.146,-4.849,7.887,17.0
88.719,-4.802,7.333,21.0
87.794,-4.729,6.755,15.0
88.324,-4.734,6.292,27.0
84.904,-4.541,8.432,10.0
86.939,-4.626,8.135,27.0
86.938,-4.602,7.636,9.0
88.706,-4.671,7.274,17.0
88.414,-4.633,6.745,19.0
88.371,-4.607,6.237,27.0
84.97,-4.42,8.38,19.0
85.354,-4.416,7.928,11.0
87.101,-4.484,7.59,12.0
89.354,-4.576,7.266,17.0
88.122,-4.491,6.661,17.0
88.255,-4.474,6.167,22.0
85.148,-4.305,8.336,25.0
85.368,-4.293,7.866,9.0
87.177,-4.361,7.533,14.0
89.415,-4.45,7.204,16.0
89.521,-4.432,6.7,10.0
91.259,-4.494,6.309,7.0
85.515,-4.199,8.307,10.0
88.52,-4.323,8.089,20.0
87.309,-4.24,7.476,12.0
88.095,-4.256,7.029,38.0
89.409,-4.296,6.621,25.0
90.683,-4.334,6.196,9.0
79.015,-3.765,7.612,8.0
0.0,0.0,0.0,0.0
87.222,-4.11,7.397,16.0
88.05,-4.126,6.952,27.0
89.256,-4.159,6.535,14.0
