X,Y,Z,Reflectivity
28.854,0.629,0.099,1.0
25.846,0.572,-0.056,0.0
22.944,0.516,-0.177,0.0
19.951,0.455,-0.264,0.0
0.0,0.0,0.0,0.0
33.278,0.785,0.293,0.0
28.884,0.691,0.094,3.0
25.732,0.625,-0.06,0.0
22.832,0.561,-0.179,0.0
19.817,0.494,-0.265,0.0
40.256,1.022,0.57,0.0
33.029,0.849,0.285,0.0
28.869,0.752,0.089,5.0
25.464,0.671,-0.064,0.0
22.738,0.607,-0.183,0.0
19.684,0.532,-0.267,0.0
0.0,0.0,0.0,0.0
32.963,0.916,0.277,0.0
28.857,0.812,0.083,4.0
25.414,0.723,-0.07,0.0
22.586,0.651,-0.187,0.0
19.695,0.574,-0.272,0.0
0.0,0.0,0.0,0.0
32.762,0.98,0.267,0.0
28.83,0.872,0.075,2.0
25.245,0.772,-0.076,0.0
22.378,0.691,-0.191,0.0
19.584,0.611,-0.276,0.0
12.864,0.204,-0.516,0.0
12.064,0.189,-0.547,0.0
11.412,0.177,-0.578,0.0
10.686,0.164,-0.598,0.0
10.255,0.155,-0.628,0.0
9.732,0.146,-0.647,0.0
13.094,0.195,-0.503,0.0
12.357,0.182,-0.539,0.0
11.651,0.169,-0.57,0.0
10.972,0.157,-0.595,0.0
10.427,0.148,-0.62,0.0
9.889,0.138,-0.64,0.0
13.41,0.187,-0.492,0.0
12.625,0.173,-0.529,0.0
11.849,0.161,-0.559,0.0
11.129,0.149,-0.584,0.0
10.626,0.14,-0.613,0.0
10.155,0.133,-0.64,0.0
13.736,0.178,-0.479,0.0
12.819,0.164,-0.514,0.0
12.09,0.153,-0.548,0.0
11.408,0.142,-0.578,0.0
10.862,0.133,-0.607,0.0
10.313,0.125,-0.631,0.0
14.046,0.169,-0.465,0.0
13.192,0.157,-0.505,0.0
12.328,0.144,-0.537,0.0
11.746,0.136,-0.574,0.0
10.997,0.125,-0.595,0.0
10.426,0.117,-0.618,0.0
14.299,0.159,-0.447,0.0
13.389,0.147,-0.488,0.0
12.57,0.136,-0.524,0.0
11.847,0.126,-0.557,0.0
11.225,0.118,-0.586,0.0
10.601,0.11,-0.609,0.0
14.809,0.152,-0.435,0.0
13.775,0.14,-0.477,0.0
12.908,0.129,-0.514,0.0
12.159,0.119,-0.549,0.0
11.472,0.111,-0.577,0.0
10.851,0.103,-0.603,0.0
15.284,0.145,-0.421,0.0
14.124,0.132,-0.462,0.0
13.168,0.121,-0.5,0.0
12.397,0.112,-0.536,0.0
11.726,0.104,-0.568,0.0
11.072,0.097,-0.594,0.0
15.649,0.136,-0.401,0.0
14.432,0.123,-0.445,0.0
13.513,0.113,-0.487,0.0
12.641,0.104,-0.523,0.0
11.964,0.097,-0.557,0.0
11.239,0.089,-0.582,0.0
16.19,0.128,-0.384,0.0
14.857,0.115,-0.43,0.0
13.891,0.106,-0.474,0.0
12.913,0.097,-0.509,0.0
12.302,0.09,-0.549,0.0
11.532,0.083,-0.574,0.0
16.567,0.119,-0.361,0.0
15.457,0.109,-0.417,0.0
14.218,0.098,-0.457,0.0
13.304,0.09,-0.498,0.0
12.429,0.083,-0.53,0.0
11.802,0.077,-0.564,0.0
17.078,0.111,-0.339,0.0
15.818,0.1,-0.395,0.0
14.624,0.091,-0.441,0.0
13.588,0.083,-0.482,0.0
12.83,0.077,-0.522,0.0
12.041,0.07,-0.552,0.0
17.725,0.103,-0.316,0.0
16.383,0.093,-0.377,0.0
14.992,0.083,-0.423,0.0
13.962,0.076,-0.467,0.0
13.064,0.069,-0.505,0.0
12.353,0.064,-0.542,0.0
18.466,0.096,-0.292,0.0
16.808,0.085,-0.353,0.0
15.578,0.077,-0.408,0.0
14.298,0.069,-0.45,0.0
13.475,0.063,-0.494,0.0
12.644,0.058,-0.529,0.0
19.345,0.088,-0.267,0.0
17.33,0.077,-0.329,0.0
16.025,0.07,-0.387,0.0
14.821,0.063,-0.436,0.0
13.77,0.057,-0.476,0.0
12.936,0.052,-0.514,0.0
20.745,0.083,-0.244,0.0
18.125,0.071,-0.307,0.0
16.596,0.063,-0.367,0.0
15.322,0.057,-0.419,0.0
14.178,0.051,-0.461,0.0
13.252,0.046,-0.5,0.0
33.984,2.771,3.768,31.0
43.102,3.519,4.533,14.0
42.84,3.502,4.26,17.0
51.581,4.223,4.83,25.0
59.942,4.915,5.271,33.0
51.941,4.266,4.272,19.0
33.917,2.801,3.743,30.0
43.154,3.568,4.515,15.0
42.671,3.533,4.221,23.0
51.503,4.27,4.795,16.0
59.223,4.917,5.176,30.0
59.653,4.96,4.873,11.0
33.761,2.823,3.707,28.0
33.781,2.828,3.515,13.0
42.663,3.576,4.195,31.0
51.701,4.338,4.783,16.0
59.359,4.988,5.153,32.0
51.773,4.356,4.2,16.0
33.734,2.854,3.684,27.0
43.062,3.647,4.455,16.0
42.639,3.615,4.167,26.0
51.468,4.369,4.73,25.0
59.495,5.057,5.128,30.0
51.781,4.407,4.168,50.0
33.69,2.882,3.658,28.0
43.027,3.685,4.424,24.0
42.689,3.66,4.144,24.0
51.446,4.416,4.695,25.0
59.509,5.113,5.091,21.0
51.771,4.454,4.133,41.0
33.671,2.912,3.633,29.0
42.904,3.714,4.383,32.0
42.803,3.709,4.126,23.0
51.457,4.464,4.661,24.0
51.65,4.485,4.383,47.0
51.792,4.503,4.099,32.0
33.638,2.94,3.605,25.0
42.915,3.754,4.353,26.0
42.886,3.754,4.104,19.0
51.566,4.519,4.633,42.0
59.283,5.2,4.988,23.0
51.796,4.548,4.062,19.0
33.739,2.978,3.591,29.0
42.869,3.786,4.316,37.0
42.883,3.791,4.071,17.0
51.5,4.557,4.589,17.0
59.178,5.241,4.934,24.0
51.84,4.596,4.026,17.0
41.997,3.741,4.438,12.0
42.863,3.821,4.282,32.0
51.505,4.596,4.85,11.0
59.539,5.317,5.258,7.0
42.881,3.833,3.541,14.0
51.869,4.64,3.987,20.0
42.431,3.814,4.449,27.0
42.753,3.846,4.236,21.0
51.603,4.646,4.816,12.0
59.236,5.337,5.182,9.0
42.839,3.862,3.502,14.0
51.892,4.682,3.946,20.0
42.868,3.887,4.459,31.0
42.703,3.874,4.195,28.0
53.652,4.87,4.962,5.0
52.928,4.808,4.586,9.0
51.815,4.71,4.192,19.0
59.993,5.458,4.51,12.0
42.972,3.927,4.432,30.0
42.689,3.904,4.156,23.0
59.795,5.471,5.478,14.0
43.268,3.961,3.71,18.0
51.839,4.75,4.148,6.0
59.471,5.453,4.418,29.0
42.901,3.951,4.386,34.0
42.655,3.93,4.114,15.0
43.487,4.009,3.944,24.0
42.948,3.961,3.644,23.0
42.783,3.949,3.384,18.0
59.482,5.494,4.364,30.0
42.831,3.973,4.338,39.0
42.948,3.985,4.102,22.0
43.407,4.03,3.896,18.0
42.924,3.987,3.601,31.0
52.288,4.859,4.087,11.0
59.386,5.523,4.301,33.0
42.781,3.995,4.292,33.0
43.381,4.052,4.102,18.0
43.383,4.054,3.852,18.0
42.869,4.008,3.555,25.0
59.341,5.551,4.58,14.0
58.885,5.511,4.207,33.0
42.774,4.019,4.249,35.0
43.355,4.075,4.056,34.0
43.214,4.063,3.794,12.0
42.826,4.029,3.508,17.0
59.245,5.576,4.513,33.0
58.706,5.527,4.135,28.0
42.777,4.044,4.205,41.0
43.346,4.098,4.011,16.0
59.23,5.602,5.139,8.0
51.826,4.903,4.192,6.0
58.921,5.577,4.427,32.0
58.803,5.568,4.081,22.0
42.779,4.066,4.16,32.0
43.304,4.117,3.961,10.0
51.79,4.924,4.438,15.0
52.212,4.965,4.169,9.0
58.849,5.599,4.36,32.0
58.693,5.586,4.011,29.0
42.925,4.1,4.128,22.0
52.327,4.999,4.73,9.0
52.332,5.0,4.428,26.0
59.177,5.655,4.661,18.0
58.669,5.608,4.283,32.0
58.635,5.606,3.944,25.0
43.37,4.161,4.123,34.0
52.105,5.0,4.653,7.0
52.081,4.998,4.35,26.0
59.164,5.679,4.594,28.0
58.518,5.618,4.208,29.0
58.692,5.636,3.882,31.0
43.376,4.179,4.075,26.0
51.976,5.008,4.582,9.0
51.818,4.993,4.269,29.0
59.014,5.687,4.516,33.0
58.499,5.638,4.14,32.0
58.741,5.662,3.819,32.0
43.35,4.192,4.022,25.0
51.924,5.021,4.518,14.0
51.825,5.012,4.21,31.0
58.827,5.689,4.433,33.0
58.505,5.658,4.072,32.0
58.721,5.68,3.75,33.0
51.978,5.043,4.762,8.0
51.937,5.038,4.458,16.0
59.251,5.748,4.743,13.0
58.673,5.692,4.353,30.0
58.56,5.681,4.007,26.0
58.437,5.669,3.662,30.0
51.988,5.059,4.7,20.0
51.894,5.048,4.392,15.0
59.241,5.763,4.672,25.0
58.6,5.699,4.278,28.0
58.575,5.697,3.938,30.0
58.207,5.661,3.579,27.0
59.47,5.8,5.305,11.0
51.824,5.053,4.323,25.0
59.186,5.77,4.595,33.0
58.539,5.706,4.201,31.0
58.427,5.695,3.857,31.0
58.306,5.683,3.513,29.0
59.326,5.797,5.219,12.0
51.798,5.06,4.257,31.0
58.937,5.756,4.503,33.0
58.435,5.707,4.122,28.0
58.425,5.705,3.785,32.0
58.391,5.701,3.447,32.0
59.275,5.801,5.141,8.0
51.838,5.072,4.196,19.0
58.813,5.752,4.421,33.0
58.421,5.713,4.048,30.0
58.4,5.71,3.71,27.0
58.257,5.695,3.366,23.0
43.302,4.242,3.7,13.0
59.377,5.815,4.731,15.0
58.628,5.74,4.332,31.0
58.52,5.727,3.981,33.0
58.257,5.701,3.628,29.0
58.229,5.697,3.291,27.0
51.816,5.08,4.362,13.0
59.33,5.814,4.651,27.0
58.541,5.734,4.251,24.0
58.468,5.725,3.903,33.0
58.215,5.699,3.55,30.0
58.543,5.729,3.234,34.0
51.81,5.08,4.295,31.0
59.143,5.797,4.56,31.0
58.43,5.724,4.168,27.0
58.342,5.713,3.819,32.0
58.384,5.715,3.485,32.0
59.035,5.777,3.184,33.0
51.817,5.079,4.228,22.0
58.955,5.776,4.469,33.0
58.39,5.718,4.088,28.0
58.348,5.711,3.742,29.0
58.303,5.704,3.404,31.0
59.071,5.777,3.108,26.0
59.395,5.818,4.766,8.0
58.682,5.745,4.369,33.0
58.474,5.721,4.016,30.0
58.312,5.703,3.662,27.0
58.255,5.694,3.323,27.0
59.031,5.768,3.028,24.0
59.354,5.808,4.682,23.0
58.627,5.732,4.286,29.0
58.517,5.718,3.94,32.0
58.198,5.684,3.577,29.0
58.567,5.717,3.262,32.0
59.105,5.767,2.952,25.0
59.107,5.774,4.583,33.0
58.519,5.713,4.199,30.0
58.426,5.7,3.855,32.0
58.377,5.691,3.509,33.0
59.044,5.753,3.209,32.0
59.277,5.773,2.88,14.0
58.748,5.727,4.475,31.0
58.461,5.694,4.115,28.0
58.559,5.7,3.784,32.0
58.202,5.661,3.419,32.0
59.124,5.747,3.134,27.0
59.207,5.752,2.797,11.0
58.686,5.707,4.39,27.0
58.538,5.687,4.04,31.0
58.51,5.68,3.701,32.0
58.105,5.637,3.334,32.0
59.049,5.724,3.048,30.0
60.824,5.892,2.79,14.0
58.643,5.685,4.306,30.0
58.615,5.677,3.965,27.0
58.244,5.637,3.603,30.0
58.309,5.638,3.266,33.0
59.155,5.716,2.972,24.0
60.337,5.826,2.685,28.0
58.572,5.658,4.219,28.0
58.62,5.658,3.884,28.0
58.323,5.624,3.527,32.0
59.017,5.686,3.223,33.0
59.316,5.71,2.899,6.0
59.975,5.77,2.586,32.0
58.599,5.639,4.14,32.0
58.91,5.663,3.821,33.0
58.179,5.587,3.439,30.0
59.175,5.678,3.15,33.0
60.718,5.821,2.883,19.0
59.821,5.73,2.497,26.0
58.805,5.634,4.072,34.0
58.817,5.629,3.734,33.0
58.184,5.562,3.358,28.0
59.294,5.663,3.075,31.0
60.553,5.778,2.792,25.0
59.706,5.692,2.41,30.0
58.65,5.592,3.981,24.0
58.607,5.581,3.639,33.0
58.853,5.598,3.316,34.0
59.222,5.628,2.99,11.0
60.455,5.739,2.704,31.0
59.692,5.661,2.327,33.0
58.905,5.586,3.916,34.0
58.203,5.513,3.533,32.0
58.958,5.577,3.24,33.0
60.557,5.723,2.972,35.0
60.27,5.69,2.612,30.0
60.35,5.691,2.269,21.0
58.991,5.56,3.839,31.0
58.11,5.471,3.446,27.0
59.341,5.58,3.178,23.0
60.622,5.694,2.891,27.0
60.247,5.652,2.527,33.0
61.165,5.733,2.214,10.0
59.244,5.549,3.773,31.0
58.237,5.447,3.373,32.0
59.59,5.567,3.108,33.0
60.647,5.659,2.808,25.0
60.364,5.626,2.448,34.0
60.513,5.634,2.108,28.0
58.476,5.439,3.643,32.0
58.243,5.41,3.293,32.0
60.298,5.594,3.061,34.0
60.713,5.625,2.728,31.0
60.552,5.604,2.373,22.0
60.41,5.584,2.02,19.0
58.532,5.404,3.565,33.0
58.783,5.42,3.241,35.0
60.399,5.561,2.983,33.0
60.3,5.544,2.626,30.0
61.124,5.613,2.31,26.0
62.099,5.695,1.991,19.0
58.609,5.369,3.488,30.0
59.255,5.419,3.186,33.0
60.5,5.526,2.904,23.0
60.573,5.524,2.553,28.0
62.01,5.647,2.257,35.0
62.071,5.645,1.904,15.0
58.645,5.326,3.408,24.0
59.822,5.424,3.132,34.0
60.947,5.518,2.841,21.0
61.032,5.518,2.488,18.0
62.234,5.618,2.18,21.0
52.188,4.704,1.529,19.0
58.785,5.29,3.335,31.0
60.022,5.393,3.06,34.0
61.534,5.52,2.784,20.0
52.145,4.67,2.055,10.0
52.159,4.665,1.756,25.0
52.096,4.652,1.455,21.0
58.781,5.24,3.255,30.0
60.676,5.4,3.011,13.0
52.125,4.631,2.287,22.0
52.108,4.621,1.982,41.0
52.132,4.616,1.684,48.0
52.084,4.604,1.384,20.0
52.119,4.598,2.813,16.0
52.097,4.588,2.513,25.0
52.094,4.579,2.214,46.0
52.092,4.571,1.909,46.0
52.12,4.566,1.612,58.0
52.096,4.557,1.313,12.0
52.063,4.544,2.74,39.0
52.062,4.536,2.441,48.0
52.087,4.529,2.143,64.0
52.111,4.524,1.841,60.0
52.113,4.516,1.542,45.0
52.001,4.498,1.241,10.0
52.053,4.491,2.67,48.0
52.073,4.485,2.371,64.0
52.094,4.478,2.074,54.0
52.126,4.472,1.771,40.0
52.132,4.464,1.472,19.0
51.606,4.412,1.162,8.0
52.047,4.437,2.6,58.0
52.093,4.432,2.303,45.0
52.14,4.427,2.006,35.0
52.194,4.423,1.704,23.0
52.196,4.415,1.405,15.0
51.149,4.319,1.085,6.0
52.079,4.385,2.532,45.0
52.149,4.381,2.236,23.0
52.221,4.378,1.94,19.0
62.616,5.239,1.962,2.0
47.7,3.983,1.222,2.0
49.509,4.126,0.985,3.0
52.167,4.334,2.468,6.0
62.453,5.177,2.597,23.0
62.638,5.182,2.246,24.0
47.631,3.931,1.43,7.0
47.658,3.925,1.159,5.0
48.008,3.946,0.893,0.0
81.578,6.683,3.753,19.0
81.152,6.633,3.268,14.0
47.885,3.905,1.654,3.0
47.573,3.87,1.366,0.0
47.582,3.863,1.095,12.0
47.978,3.887,0.83,3.0
81.638,6.59,3.65,19.0
81.353,6.551,3.171,26.0
47.883,3.847,1.593,161.0
47.583,3.814,1.306,8.0
47.496,3.798,1.032,8.0
48.032,3.832,0.77,7.0
81.834,6.505,3.554,33.0
48.893,3.876,1.843,12.0
47.757,3.777,1.528,21.0
47.491,3.747,1.243,13.0
47.446,3.735,0.971,2.0
48.056,3.773,0.71,0.0
81.707,6.392,3.446,28.0
47.987,3.744,1.75,2.0
47.445,3.692,1.459,7.0
47.433,3.682,1.183,19.0
47.493,3.677,0.914,2.0
0.0,0.0,0.0,0.0
81.497,6.269,3.337,24.0
47.618,3.653,1.678,6.0
47.382,3.625,1.399,10.0
47.403,3.617,1.124,4.0
47.662,3.628,0.859,0.0
0.0,0.0,0.0,0.0
48.866,3.693,1.941,0.0
47.531,3.583,1.617,6.0
47.327,3.557,1.34,16.0
47.462,3.558,1.069,0.0
51.249,3.831,0.862,2.0
37.053,2.762,0.412,0.0
48.432,3.593,1.866,0.0
47.401,3.507,1.556,9.0
47.322,3.491,1.283,20.0
47.314,3.481,1.009,2.0
46.506,3.411,0.727,0.0
35.716,2.612,0.355,1.0
48.109,3.501,1.797,1.0
47.312,3.433,1.497,16.0
47.296,3.421,1.227,16.0
47.3,3.412,0.954,2.0
45.045,3.239,0.652,0.0
32.848,2.355,0.288,0.0
47.714,3.403,1.726,3.0
47.252,3.36,1.441,20.0
47.278,3.351,1.172,163.0
47.426,3.351,0.901,0.0
0.0,0.0,0.0,0.0
32.441,2.278,0.248,0.0
47.512,3.319,1.665,6.0
47.224,3.288,1.386,36.0
47.271,3.28,1.119,151.0
50.931,3.523,0.911,3.0
37.33,2.573,0.456,0.0
31.269,2.149,0.204,1.0
47.383,3.238,1.608,10.0
47.249,3.217,1.334,161.0
47.256,3.206,1.066,1.0
50.913,3.443,0.854,4.0
47.341,3.191,0.526,1.0
30.448,2.045,0.165,0.0
47.294,3.158,1.553,8.0
47.228,3.142,1.282,165.0
47.219,3.13,1.014,4.0
46.059,3.042,0.723,0.0
0.0,0.0,0.0,0.0
29.255,1.918,0.127,1.0
47.22,3.077,1.5,17.0
47.227,3.067,1.232,168.0
47.3,3.06,0.965,3.0
43.603,2.81,0.638,0.0
33.52,2.153,0.301,1.0
28.838,1.845,0.095,1.0
47.197,3.0,1.45,41.0
47.218,2.99,1.183,160.0
53.218,3.357,1.032,1.0
0.0,0.0,0.0,0.0
32.477,2.033,0.258,0.0
28.085,1.751,0.064,0.0
47.194,2.924,1.402,54.0
47.233,2.913,1.136,150.0
53.208,3.268,0.978,3.0
47.203,2.887,0.595,1.0
31.3,1.907,0.217,1.0
27.436,1.665,0.035,0.0
47.213,2.845,1.356,40.0
47.284,2.837,1.09,2.0
47.739,2.852,0.83,4.0
0.0,0.0,0.0,0.0
30.472,1.805,0.182,0.0
26.806,1.581,0.008,0.0
47.227,2.765,1.311,34.0
47.231,2.753,1.043,7.0
47.922,2.781,0.787,9.0
35.851,2.07,0.383,0.0
29.887,1.718,0.15,0.0
26.276,1.504,-0.016,0.0
47.252,2.685,1.267,28.0
47.244,2.671,0.999,5.0
48.426,2.725,0.751,0.0
33.678,1.886,0.328,0.0
29.136,1.624,0.12,0.0
25.812,1.432,-0.039,0.0
47.273,2.602,1.224,27.0
47.339,2.592,0.958,2.0
0.0,0.0,0.0,0.0
33.36,1.808,0.295,0.0
28.585,1.542,0.091,0.0
25.286,1.357,-0.061,0.0
47.289,2.518,1.183,17.0
47.416,2.511,0.918,0.0
39.276,2.068,0.539,0.0
32.246,1.689,0.257,1.0
28.116,1.465,0.065,0.0
25.014,1.297,-0.082,0.0
47.313,2.432,1.143,15.0
49.618,2.537,0.918,3.0
38.095,1.937,0.49,0.0
31.523,1.594,0.225,1.0
27.591,1.387,0.041,1.0
24.535,1.227,-0.101,0.0
47.351,2.347,1.104,12.0
50.121,2.469,0.887,4.0
37.345,1.829,0.45,0.0
30.957,1.507,0.196,0.0
27.004,1.307,0.019,0.0
24.029,1.156,-0.118,0.0
47.399,2.26,1.068,3.0
47.752,2.263,0.807,1.0
0.0,0.0,0.0,0.0
29.974,1.403,0.166,0.0
26.64,1.239,-0.001,0.0
23.32,1.078,-0.132,1.0
0.0,0.0,0.0,0.0
0.0,0.0,0.0,0.0
34.547,1.561,0.364,0.0
29.364,1.318,0.141,0.0
26.282,1.173,-0.021,0.0
23.267,1.031,-0.149,1.0
47.865,2.101,1.007,0.0
42.079,1.834,0.649,0.0
33.844,1.465,0.332,0.0
28.869,1.241,0.118,0.0
25.804,1.102,-0.038,0.0
23.029,0.976,-0.164,0.0
0.0,0.0,0.0,0.0
0.0,0.0,0.0,0.0
33.262,1.375,0.303,1.0
28.753,1.18,0.098,1.0
25.411,1.035,-0.055,0.0
22.305,0.902,-0.173,0.0
0.0,0.0,0.0,0.0
0.0,0.0,0.0,0.0
32.901,1.296,0.278,1.0
28.444,1.111,0.079,1.0
25.496,0.988,-0.072,1.0
22.142,0.851,-0.186,1.0
50.786,1.93,0.967,1.0
39.823,1.501,0.536,0.0
32.299,1.208,0.253,0.0
27.903,1.035,0.06,0.0
24.695,0.908,-0.084,1.0
21.865,0.797,-0.197,1.0
50.675,1.826,0.935,0.0
37.109,1.325,0.477,0.0
31.396,1.111,0.228,0.0
27.6,0.969,0.043,0.0
24.516,0.852,-0.098,1.0
21.633,0.745,-0.207,1.0
0.0,0.0,0.0,0.0
36.781,1.24,0.453,0.0
31.035,1.036,0.208,0.0
27.221,0.901,0.028,0.0
24.474,0.802,-0.111,1.0
21.425,0.695,-0.216,1.0
46.335,1.484,0.805,0.0
35.376,1.121,0.417,0.0
29.04,0.911,0.18,1.0
26.967,0.837,0.014,0.0
23.747,0.73,-0.119,0.0
21.268,0.646,-0.226,0.0
45.724,1.37,0.772,0.0
35.404,1.05,0.4,0.0
28.997,0.85,0.166,3.0
26.703,0.774,0.001,0.0
23.599,0.676,-0.13,0.0
20.772,0.589,-0.23,0.0
0.0,0.0,0.0,0.0
34.956,0.964,0.379,1.0
28.975,0.79,0.153,4.0
26.475,0.713,-0.01,0.0
23.62,0.628,-0.14,1.0
20.448,0.537,-0.235,0.0
0.0,0.0,0.0,0.0
34.26,0.874,0.357,0.0
28.937,0.729,0.141,4.0
26.26,0.653,-0.02,0.0
23.381,0.573,-0.148,0.0
20.219,0.489,-0.24,0.0
41.191,0.979,0.643,0.0
34.233,0.802,0.344,0.0
28.842,0.666,0.129,1.0
25.955,0.591,-0.03,0.0
23.266,0.522,-0.156,0.0
20.041,0.442,-0.245,0.0
40.843,0.886,0.623,0.0
33.549,0.716,0.326,0.0
28.837,0.605,0.12,1.0
25.902,0.535,-0.038,0.0
23.016,0.468,-0.162,0.0
19.959,0.398,-0.251,0.0
40.167,0.786,0.6,0.0
33.449,0.643,0.314,0.0
28.825,0.544,0.111,1.0
25.698,0.476,-0.045,0.0
22.805,0.415,-0.167,0.0
19.963,0.356,-0.257,0.0
0.0,0.0,0.0,0.0
34.152,0.584,0.312,0.0
28.785,0.483,0.103,1.0
25.639,0.421,-0.052,0.0
22.764,0.366,-0.172,0.0
19.767,0.311,-0.259,0.0
40.465,0.619,0.584,0.0
33.091,0.495,0.294,0.0
28.812,0.421,0.096,4.0
25.511,0.364,-0.057,0.0
22.538,0.313,-0.175,0.0
19.695,0.267,-0.262,0.0
38.957,0.513,0.554,0.0
32.652,0.419,0.284,0.0
28.777,0.359,0.091,5.0
25.409,0.308,-0.062,0.0
22.154,0.261,-0.176,0.0
19.394,0.222,-0.261,0.0
38.341,0.424,0.539,0.0
32.633,0.349,0.278,0.0
28.763,0.297,0.086,5.0
25.42,0.254,-0.066,0.0
22.218,0.214,-0.18,2.0
19.271,0.179,-0.262,0.0
0.0,0.0,0.0,0.0
32.424,0.277,0.273,0.0
28.763,0.236,0.083,4.0
25.329,0.199,-0.068,0.0
22.282,0.167,-0.183,2.0
19.242,0.138,-0.264,0.0
0.0,0.0,0.0,0.0
0.0,0.0,0.0,0.0
28.594,0.174,0.08,1.0
25.329,0.145,-0.07,0.0
22.336,0.12,-0.185,2.0
19.361,0.097,-0.267,0.0
37.769,0.175,0.521,0.0
31.98,0.137,0.265,0.0
28.561,0.112,0.079,1.0
25.296,0.09,-0.071,0.0
22.134,0.071,-0.184,1.0
19.251,0.055,-0.266,0.0
37.643,0.094,0.518,0.0
32.029,0.069,0.265,0.0
28.629,0.051,0.079,1.0
25.302,0.036,-0.071,0.0
22.129,0.024,-0.183,0.0
19.374,0.014,-0.267,0.0
0.0,0.0,0.0,0.0
33.072,0.0,0.274,0.0
28.621,-0.009,0.08,1.0
25.266,-0.017,-0.07,0.0
22.103,-0.023,-0.182,0.0
19.299,-0.027,-0.265,0.0
37.443,-0.065,0.518,0.0
33.131,-0.07,0.277,0.0
28.705,-0.071,0.082,5.0
25.34,-0.072,-0.068,0.0
22.22,-0.07,-0.181,0.0
19.342,-0.068,-0.264,0.0
37.491,-0.146,0.523,0.0
32.198,-0.137,0.272,1.0
28.705,-0.132,0.085,7.0
25.195,-0.125,-0.065,0.0
22.272,-0.118,-0.179,0.0
19.407,-0.11,-0.262,0.0
0.0,0.0,0.0,0.0
32.199,-0.206,0.277,1.0
28.713,-0.194,0.09,6.0
25.362,-0.18,-0.061,0.0
22.439,-0.168,-0.177,0.0
19.402,-0.152,-0.259,0.0
38.515,-0.315,0.549,0.0
32.453,-0.277,0.285,1.0
28.73,-0.256,0.095,6.0
25.416,-0.236,-0.056,0.0
22.711,-0.219,-0.174,0.0
19.563,-0.196,-0.257,0.0
38.007,-0.392,0.549,0.0
32.652,-0.349,0.294,1.0
28.623,-0.316,0.101,1.0
25.673,-0.293,-0.051,0.0
22.998,-0.271,-0.171,2.0
19.743,-0.24,-0.255,0.0
38.304,-0.478,0.563,0.0
33.033,-0.424,0.305,1.0
28.722,-0.379,0.109,1.0
25.569,-0.346,-0.044,0.0
23.154,-0.322,-0.166,0.0
19.836,-0.283,-0.25,0.0
38.772,-0.565,0.581,0.0
33.158,-0.495,0.316,1.0
28.693,-0.439,0.117,0.0
25.985,-0.407,-0.037,0.0
23.238,-0.372,-0.16,0.0
19.759,-0.323,-0.243,0.0
39.573,-0.66,0.606,0.0
33.566,-0.572,0.331,2.0
28.672,-0.498,0.126,0.0
26.316,-0.467,-0.029,0.0
23.342,-0.423,-0.152,0.0
20.141,-0.372,-0.241,0.0
0.0,0.0,0.0,0.0
33.853,-0.648,0.346,2.0
28.757,-0.561,0.138,4.0
26.415,-0.525,-0.019,0.0
23.658,-0.479,-0.145,0.0
20.24,-0.416,-0.234,0.0
0.0,0.0,0.0,0.0
34.167,-0.725,0.363,1.0
28.752,-0.621,0.149,2.0
26.768,-0.587,-0.008,0.0
23.745,-0.53,-0.136,0.0
20.666,-0.468,-0.231,0.0
0.0,0.0,0.0,0.0
34.244,-0.798,0.378,0.0
28.773,-0.681,0.162,1.0
27.041,-0.65,0.003,0.0
23.757,-0.579,-0.125,0.0
20.807,-0.515,-0.223,0.0
0.0,0.0,0.0,0.0
35.739,-0.907,0.412,0.0
28.769,-0.741,0.176,0.0
27.368,-0.714,0.016,0.0
23.73,-0.628,-0.114,0.0
21.016,-0.564,-0.214,1.0
0.0,0.0,0.0,0.0
35.787,-0.981,0.43,0.0
31.312,-0.87,0.207,0.0
27.504,-0.774,0.03,0.0
24.357,-0.694,-0.104,0.0
21.186,-0.611,-0.205,1.0
0.0,0.0,0.0,0.0
36.237,-1.067,0.455,0.0
31.286,-0.933,0.224,0.0
27.846,-0.84,0.046,0.0
24.86,-0.759,-0.092,0.0
21.595,-0.667,-0.197,0.0
0.0,0.0,0.0,0.0
36.639,-1.154,0.481,0.0
31.748,-1.011,0.246,0.0
28.401,-0.914,0.064,1.0
25.036,-0.815,-0.078,0.0
22.239,-0.731,-0.189,1.0
0.0,0.0,0.0,0.0
37.592,-1.259,0.517,0.0
0.0,0.0,0.0,0.0
28.559,-0.976,0.082,2.0
25.428,-0.878,-0.063,0.0
22.521,-0.786,-0.177,0.0
0.0,0.0,0.0,0.0
38.871,-1.379,0.559,0.0
32.629,-1.169,0.294,0.0
28.614,-1.035,0.101,7.0
25.932,-0.947,-0.048,0.0
22.927,-0.845,-0.165,1.0
0.0,0.0,0.0,0.0
39.303,-1.472,0.592,0.0
33.42,-1.263,0.324,0.0
28.633,-1.092,0.12,6.0
26.246,-1.01,-0.03,0.0
23.246,-0.903,-0.152,1.0
0.0,0.0,0.0,0.0
0.0,0.0,0.0,0.0
34.203,-1.359,0.356,0.0
28.694,-1.15,0.141,4.0
26.521,-1.073,-0.011,0.0
23.581,-0.962,-0.136,1.0
0.0,0.0,0.0,0.0
0.0,0.0,0.0,0.0
34.657,-1.445,0.387,0.0
28.668,-1.205,0.163,0.0
27.31,-1.157,0.008,0.0
23.783,-1.015,-0.119,0.0
0.0,0.0,0.0,0.0
0.0,0.0,0.0,0.0
35.935,-1.566,0.429,0.0
31.114,-1.367,0.201,0.0
28.158,-1.246,0.031,0.0
24.103,-1.075,-0.102,0.0
0.0,0.0,0.0,0.0
0.0,0.0,0.0,0.0
37.43,-1.702,0.477,0.0
31.775,-1.455,0.231,0.0
28.261,-1.304,0.054,2.0
25.125,-1.167,-0.085,0.0
0.0,0.0,0.0,0.0
0.0,0.0,0.0,0.0
38.108,-1.804,0.518,0.0
32.26,-1.537,0.262,0.0
28.488,-1.367,0.079,7.0
25.658,-1.24,-0.065,0.0
0.0,0.0,0.0,0.0
0.0,0.0,0.0,0.0
0.0,0.0,0.0,0.0
33.062,-1.636,0.298,0.0
28.527,-1.421,0.105,1.0
25.956,-1.302,-0.043,0.0
0.0,0.0,0.0,0.0
0.0,0.0,0.0,0.0
41.452,-2.113,0.637,0.0
33.838,-1.735,0.335,0.0
28.567,-1.474,0.13,0.0
0.0,0.0,0.0,0.0
34.282,-1.786,0.924,0.0
34.306,-1.798,0.742,0.0
34.635,-1.826,0.564,0.0
34.735,-1.842,0.376,0.0
28.656,-1.529,0.158,0.0
34.239,-1.838,0.006,0.0
34.164,-1.84,0.954,2.0
34.201,-1.853,0.772,1.0
34.322,-1.87,0.592,1.0
34.697,-1.901,0.41,0.0
30.778,-1.696,0.199,1.0
28.206,-1.563,0.032,1.0
34.142,-1.898,0.986,8.0
34.087,-1.905,0.803,1.0
34.11,-1.917,0.622,0.0
34.645,-1.958,0.443,0.0
31.478,-1.789,0.235,0.0
28.487,-1.628,0.061,6.0
34.111,-1.955,1.02,53.0
34.038,-1.96,0.836,2.0
34.017,-1.97,0.654,0.0
34.689,-2.019,0.479,4.0
32.126,-1.88,0.273,0.0
28.537,-1.679,0.09,6.0
34.025,-2.007,1.052,6.0
33.991,-2.015,0.87,6.0
34.065,-2.03,0.691,0.0
34.766,-2.081,0.517,7.0
32.477,-1.954,0.31,0.0
28.543,-1.726,0.12,4.0
33.982,-2.06,1.087,8.0
33.959,-2.068,0.905,8.0
33.955,-2.078,0.724,0.0
34.401,-2.115,0.548,4.0
35.355,-2.184,0.375,0.0
30.284,-1.88,0.16,1.0
33.96,-2.113,1.122,14.0
33.949,-2.122,0.942,14.0
33.894,-2.129,0.76,0.0
34.093,-2.151,0.58,2.0
36.27,-2.299,0.425,0.0
31.745,-2.021,0.203,1.0
33.942,-2.166,1.16,11.0
33.932,-2.175,0.979,106.0
33.963,-2.186,0.799,1.0
33.939,-2.194,0.615,0.0
37.326,-2.424,0.479,0.0
32.435,-2.115,0.244,1.0
33.923,-2.217,1.197,5.0
33.904,-2.225,1.016,38.0
33.905,-2.234,0.836,6.0
33.886,-2.242,0.652,0.0
34.569,-2.297,0.482,3.0
33.457,-2.233,0.289,1.0
33.936,-2.269,1.236,5.0
33.878,-2.274,1.055,44.0
33.88,-2.284,0.875,20.0
33.891,-2.294,0.692,0.0
34.433,-2.34,0.521,3.0
34.233,-2.336,0.337,2.0
33.897,-2.317,1.275,18.0
33.877,-2.324,1.094,54.0
33.877,-2.333,0.915,38.0
33.867,-2.342,0.732,8.0
34.107,-2.368,0.557,2.0
35.452,-2.47,0.391,1.0
33.886,-2.365,1.315,42.0
33.854,-2.372,1.134,41.0
33.889,-2.383,0.956,68.0
33.895,-2.392,0.774,155.0
33.984,-2.407,0.596,2.0
36.455,-2.592,0.446,0.0
33.881,-2.413,1.356,22.0
33.85,-2.419,1.176,10.0
33.86,-2.428,0.997,79.0
33.892,-2.439,0.815,155.0
33.862,-2.446,0.635,114.0
34.477,-2.499,0.465,1.0
33.953,-2.466,1.402,1.0
33.874,-2.468,1.219,5.0
33.843,-2.474,1.039,82.0
33.827,-2.481,0.856,29.0
33.864,-2.492,0.678,154.0
34.329,-2.535,0.506,5.0
34.235,-2.533,1.457,0.0
33.842,-2.511,1.261,27.0
33.836,-2.519,1.081,92.0
33.821,-2.525,0.899,51.0
33.858,-2.536,0.721,154.0
34.08,-2.561,0.545,4.0
0.0,0.0,0.0,0.0
33.844,-2.555,1.304,68.0
33.848,-2.564,1.125,63.0
33.832,-2.57,0.942,108.0
33.868,-2.58,0.765,155.0
33.916,-2.592,0.587,7.0
34.337,-2.628,1.549,0.0
33.813,-2.596,1.347,30.0
33.81,-2.603,1.168,9.0
33.821,-2.611,0.986,141.0
33.862,-2.622,0.809,153.0
33.829,-2.627,0.629,120.0
34.503,-2.684,1.602,0.0
33.9,-2.644,1.395,1.0
33.831,-2.646,1.213,6.0
33.814,-2.651,1.03,120.0
33.801,-2.658,0.852,39.0
33.829,-2.667,0.674,153.0
34.742,-2.744,1.659,0.0
0.0,0.0,0.0,0.0
33.813,-2.684,1.257,43.0
33.803,-2.69,1.075,125.0
33.821,-2.698,0.897,72.0
33.836,-2.707,0.719,153.0
35.035,-2.807,1.72,0.0
34.199,-2.746,1.498,0.0
33.824,-2.723,1.303,81.0
33.811,-2.728,1.12,75.0
33.814,-2.735,0.942,150.0
33.836,-2.744,0.764,152.0
0.0,0.0,0.0,0.0
34.41,-2.801,1.554,0.0
33.794,-2.757,1.347,26.0
33.792,-2.764,1.165,10.0
33.811,-2.771,0.988,150.0
33.836,-2.78,0.81,152.0
200.219,-16.481,10.375,12.0
0.0,0.0,0.0,0.0
33.905,-2.802,1.398,0.0
33.806,-2.8,1.212,36.0
33.8,-2.806,1.033,131.0
33.783,-2.81,0.855,39.0
151.976,-12.665,8.083,150.0
0.0,0.0,0.0,0.0
34.234,-2.864,1.458,0.0
33.807,-2.834,1.258,65.0
33.785,-2.838,1.079,125.0
33.801,-2.845,0.901,81.0
151.966,-12.813,8.289,150.0
0.0,0.0,0.0,0.0
0.0,0.0,0.0,0.0
33.806,-2.866,1.305,80.0
33.777,-2.869,1.125,49.0
33.799,-2.877,0.948,144.0
151.963,-12.955,8.499,37.0
151.992,-12.981,7.698,37.0
34.396,-2.943,1.56,0.0
33.79,-2.896,1.351,11.0
33.805,-2.902,1.174,7.0
33.792,-2.907,0.995,119.0
209.115,-18.019,11.989,14.0
151.972,-13.115,7.912,138.0
0.0,0.0,0.0,0.0
34.016,-2.945,1.407,0.0
33.81,-2.932,1.221,19.0
33.788,-2.935,1.042,100.0
185.385,-16.133,10.89,70.0
185.441,-16.163,9.914,61.0
34.538,-3.015,1.664,0.0
34.11,-2.982,1.46,0.0
33.793,-2.959,1.268,55.0
33.779,-2.962,1.089,76.0
209.071,-18.365,12.579,16.0
209.201,-18.403,11.481,74.0
0.0,0.0,0.0,0.0
0.0,0.0,0.0,0.0
33.79,-2.985,1.316,41.0
33.79,-2.989,1.137,23.0
148.886,-13.195,9.169,10.0
209.164,-18.561,11.775,150.0
186.595,-16.58,9.519,14.0
0.0,0.0,0.0,0.0
33.878,-3.018,1.367,1.0
33.826,-3.017,1.187,6.0
150.873,-13.482,9.508,10.0
209.167,-18.712,12.076,64.0
169.926,-15.22,8.913,16.0
34.719,-3.113,1.634,0.0
34.089,-3.06,1.424,0.0
33.81,-3.039,1.234,25.0
148.735,-13.393,9.584,3.0
150.434,-13.559,8.897,17.0
169.821,-15.323,9.146,5.0
34.885,-3.151,1.691,0.0
0.0,0.0,0.0,0.0
33.81,-3.06,1.282,43.0
148.669,-13.482,9.791,11.0
150.378,-13.65,9.108,14.0
186.391,-16.934,10.305,12.0
0.0,0.0,0.0,0.0
0.0,0.0,0.0,0.0
33.825,-3.082,1.33,7.0
0.0,0.0,0.0,0.0
149.421,-13.651,9.26,15.0
186.265,-17.03,10.56,14.0
169.41,-15.502,8.69,11.0
0.0,0.0,0.0,0.0
34.014,-3.118,1.385,0.0
145.959,-13.404,10.028,3.0
149.485,-13.738,9.478,5.0
150.388,-13.83,8.739,23.0
169.483,-15.598,8.935,14.0
34.861,-3.211,1.653,0.0
34.156,-3.148,1.44,0.0
145.793,-13.463,10.223,8.0
151.481,-13.997,9.819,15.0
149.609,-13.833,8.904,28.0
150.246,-13.899,8.132,22.0
34.738,-3.216,1.696,0.0
34.37,-3.184,1.497,0.0
153.339,-14.231,10.97,10.0
151.525,-14.07,10.036,11.0
149.525,-13.891,9.112,14.0
150.182,-13.959,8.341,19.0
0.0,0.0,0.0,0.0
34.54,-3.214,1.553,0.0
146.179,-13.629,10.665,3.0
209.364,-19.526,14.163,7.0
0.0,0.0,0.0,0.0
149.606,-13.965,8.519,21.0
150.216,-14.028,7.758,18.0
34.614,-3.234,1.605,0.0
143.683,-13.45,10.685,12.0
147.279,-13.789,10.17,7.0
185.248,-17.35,11.809,11.0
149.525,-14.01,8.722,30.0
150.127,-14.07,7.963,29.0
34.729,-3.256,1.658,0.0
143.68,-13.497,10.887,6.0
153.496,-14.422,10.813,5.0
185.324,-17.415,12.071,7.0
159.983,-15.038,9.556,10.0
149.915,-14.096,8.161,35.0
0.0,0.0,0.0,0.0
145.442,-13.705,11.221,8.0
146.055,-13.763,10.491,14.0
151.471,-14.275,10.076,15.0
160.053,-15.086,9.782,9.0
149.743,-14.117,8.358,27.0
150.265,-14.169,7.592,15.0
145.368,-13.733,11.419,20.0
143.76,-13.581,10.528,9.0
151.426,-14.306,10.283,13.0
194.457,-18.372,12.153,7.0
149.597,-14.134,8.557,25.0
150.219,-14.194,7.795,32.0
145.4,-13.766,11.623,12.0
143.687,-13.601,10.72,11.0
151.487,-14.339,10.494,7.0
189.693,-17.954,12.114,5.0
149.544,-14.154,8.757,22.0
150.092,-14.205,7.994,30.0
145.259,-13.775,11.812,2.0
147.796,-14.013,11.229,5.0
151.478,-14.358,10.703,7.0
185.098,-17.542,12.074,8.0
160.052,-15.167,9.59,7.0
149.96,-14.21,8.188,28.0
145.403,-13.804,12.021,3.0
145.841,-13.842,11.278,14.0
145.993,-13.852,10.511,6.0
185.192,-17.567,12.329,4.0
160.03,-15.177,9.803,8.0
149.779,-14.202,8.38,23.0
145.383,-13.812,12.215,14.0
145.369,-13.806,11.436,18.0
143.66,-13.639,10.534,12.0
147.123,-13.961,9.99,13.0
0.0,0.0,0.0,0.0
149.615,-14.19,8.567,24.0
145.158,-13.794,12.389,10.0
145.339,-13.805,11.626,13.0
143.61,-13.634,10.721,8.0
151.478,-14.375,10.484,8.0
149.134,-14.146,9.529,3.0
149.585,-14.184,8.76,26.0
152.629,-14.502,13.227,4.0
145.391,-13.805,11.823,3.0
147.849,-14.031,11.232,5.0
151.404,-14.361,10.677,9.0
185.221,-17.56,12.075,9.0
160.086,-15.17,9.584,8.0
146.522,-13.912,12.89,6.0
145.391,-13.795,12.012,4.0
145.397,-13.788,11.233,10.0
145.944,-13.829,10.481,9.0
151.396,-14.338,10.065,5.0
160.01,-15.146,9.784,9.0
146.795,-13.922,13.104,12.0
145.405,-13.78,12.199,13.0
145.382,-13.768,11.417,19.0
143.766,-13.604,10.507,7.0
151.411,-14.318,10.256,14.0
199.131,-18.818,12.425,10.0
147.553,-13.973,13.356,9.0
145.281,-13.746,12.37,10.0
145.487,-13.755,11.606,12.0
143.717,-13.575,10.682,14.0
147.076,-13.882,10.143,10.0
185.194,-17.467,11.783,12.0
146.854,-13.879,13.476,5.0
0.0,0.0,0.0,0.0
0.0,0.0,0.0,0.0
143.587,-13.532,10.847,9.0
146.057,-13.754,10.25,3.0
185.248,-17.428,12.012,10.0
148.136,-13.966,13.775,4.0
146.633,-13.811,12.845,9.0
146.361,-13.771,12.035,3.0
145.328,-13.659,11.154,6.0
146.061,-13.715,10.428,8.0
151.506,-14.214,10.004,22.0
148.207,-13.933,13.961,5.0
146.682,-13.774,13.026,5.0
0.0,0.0,0.0,0.0
145.508,-13.633,11.341,16.0
143.759,-13.455,10.434,4.0
151.624,-14.177,10.19,3.0
145.677,-13.649,13.896,13.0
147.773,-13.829,13.297,4.0
145.099,-13.563,12.273,8.0
145.491,-13.584,11.509,15.0
143.575,-13.389,10.585,9.0
209.56,-19.522,14.324,5.0
145.724,-13.603,14.068,14.0
153.382,-14.298,13.979,6.0
145.089,-13.509,12.439,11.0
145.779,-13.555,11.698,11.0
143.651,-13.341,10.754,3.0
145.734,-13.518,10.128,7.0
145.418,-13.517,14.205,11.0
144.926,-13.452,13.373,8.0
151.382,-14.031,13.152,5.0
144.827,-13.406,11.785,6.0
145.813,-13.48,11.079,12.0
147.246,-13.594,10.397,4.0
145.558,-13.467,14.381,3.0
147.517,-13.628,13.776,5.0
147.174,-13.576,12.948,3.0
0.0,0.0,0.0,0.0
145.651,-13.397,11.226,11.0
0.0,0.0,0.0,0.0
146.65,-13.498,14.65,15.0
146.314,-13.447,13.822,16.0
145.464,-13.348,12.954,9.0
146.506,-13.422,12.239,13.0
144.666,-13.234,11.303,16.0
146.376,-13.371,10.647,12.0
146.247,-13.387,14.766,16.0
146.055,-13.347,13.952,5.0
145.376,-13.263,13.098,15.0
146.75,-13.367,12.412,9.0
144.71,-13.16,11.457,19.0
146.114,-13.267,10.779,11.0
145.609,-13.249,14.853,16.0
146.195,-13.278,14.117,12.0
145.162,-13.161,13.229,9.0
146.956,-13.302,12.579,6.0
144.532,-13.06,11.589,13.0
145.035,-13.084,10.845,14.0
145.798,-13.18,15.019,16.0
146.472,-13.218,14.289,14.0
146.83,-13.225,13.525,6.0
147.264,-13.242,12.749,12.0
144.464,-12.966,11.724,20.0
144.966,-12.989,10.979,13.0
145.708,-13.084,15.15,20.0
146.397,-13.12,14.423,15.0
146.853,-13.134,13.669,8.0
146.013,-13.034,12.782,3.0
144.338,-12.862,11.85,24.0
145.078,-12.905,11.124,12.0
145.43,-12.961,15.261,20.0
146.246,-13.007,14.548,14.0
0.0,0.0,0.0,0.0
145.806,-12.917,12.898,19.0
144.277,-12.756,11.98,14.0
145.012,-12.798,11.252,12.0
145.346,-12.853,15.386,14.0
145.995,-12.884,14.654,12.0
145.873,-12.846,13.845,15.0
145.762,-12.811,13.024,14.0
144.149,-12.642,12.096,7.0
145.096,-12.701,11.385,14.0
145.5,-12.762,15.53,12.0
145.697,-12.75,14.754,17.0
145.68,-12.722,13.954,12.0
0.0,0.0,0.0,0.0
145.668,-12.666,12.348,4.0
145.099,-12.592,11.508,17.0
145.968,-12.693,15.703,7.0
145.735,-12.642,14.88,9.0
145.476,-12.591,14.056,19.0
144.949,-12.518,13.197,7.0
146.412,-12.617,12.53,4.0
145.154,-12.481,11.632,13.0
148.848,-12.823,16.138,4.0
145.81,-12.531,15.007,12.0
145.518,-12.477,14.178,17.0
144.988,-12.402,13.318,16.0
145.449,-12.414,12.563,9.0
145.273,-12.372,11.755,6.0
148.536,-12.672,16.222,4.0
145.602,-12.392,15.099,12.0
145.608,-12.363,14.299,18.0
145.009,-12.283,13.429,13.0
145.404,-12.286,12.67,13.0
154.005,-12.984,12.576,3.0
147.124,-12.427,16.177,11.0
146.553,-12.347,15.306,6.0
145.575,-12.235,14.402,12.0
144.87,-12.145,13.521,13.0
145.582,-12.173,12.79,12.0
146.091,-12.188,12.034,12.0
148.603,-12.421,16.445,14.0
147.324,-12.28,15.491,15.0
147.298,-12.246,14.676,3.0
144.723,-12.002,13.608,10.0
145.358,-12.024,12.869,16.0
146.16,-12.06,12.138,10.0
148.939,-12.311,16.584,13.0
147.004,-12.119,15.555,17.0
146.592,-12.053,14.702,14.0
146.766,-12.035,13.896,13.0
145.332,-11.887,12.959,18.0
146.1,-11.918,12.226,9.0
148.817,-12.16,16.667,13.0
146.728,-11.955,15.62,11.0
148.412,-12.059,14.979,3.0
146.005,-11.832,13.914,7.0
145.296,-11.744,13.045,13.0
146.079,-11.775,12.313,12.0
148.738,-12.01,16.747,7.0
146.633,-11.805,15.696,14.0
148.174,-11.895,15.041,5.0
145.531,-11.65,13.953,12.0
145.88,-11.645,13.182,16.0
145.818,-11.609,12.373,14.0
148.831,-11.867,16.843,8.0
149.031,-11.848,16.036,10.0
148.71,-11.788,15.177,5.0
145.778,-11.522,14.056,20.0
146.427,-11.54,13.309,8.0
145.571,-11.441,12.427,13.0
148.902,-11.721,16.928,5.0
148.602,-11.66,16.068,8.0
148.368,-11.607,15.218,11.0
145.635,-11.359,14.115,20.0
146.375,-11.383,13.377,8.0
145.585,-11.289,12.5,19.0
0.0,0.0,0.0,0.0
0.0,0.0,0.0,0.0
148.031,-11.425,15.252,11.0
145.691,-11.21,14.188,16.0
118.894,-9.12,10.919,6.0
145.646,-11.139,12.57,10.0
0.0,0.0,0.0,0.0
148.638,-11.346,16.208,5.0
148.005,-11.261,15.315,19.0
145.961,-11.072,14.276,4.0
145.62,-11.012,13.434,12.0
119.228,-8.988,10.339,14.0
0.0,0.0,0.0,0.0
148.671,-11.186,16.271,13.0
148.743,-11.154,15.449,11.0
146.459,-10.949,14.38,10.0
146.785,-10.938,13.596,12.0
119.257,-8.858,10.384,16.0
0.0,0.0,0.0,0.0
148.408,-10.999,16.295,20.0
147.69,-10.909,15.391,13.0
146.127,-10.757,14.398,17.0
146.699,-10.764,13.638,12.0
119.002,-8.704,10.401,16.0
151.065,-11.061,17.482,4.0
148.701,-10.85,16.374,14.0
148.632,-10.807,15.535,10.0
146.446,-10.612,14.474,13.0
90.235,-6.516,8.415,4.0
119.111,-8.573,10.445,16.0
0.0,0.0,0.0,0.0
89.93,-6.454,9.928,7.0
148.238,-10.603,15.534,10.0
90.887,-6.479,9.006,5.0
90.21,-6.407,8.436,13.0
118.929,-8.42,10.458,12.0
150.754,-10.681,17.525,5.0
89.869,-6.343,9.942,21.0
146.107,-10.275,15.344,5.0
90.907,-6.371,9.028,6.0
90.506,-6.32,8.482,14.0
117.053,-8.146,10.317,13.0
89.542,-6.235,10.427,2.0
89.654,-6.22,9.935,24.0
146.226,-10.108,15.382,8.0
90.576,-6.237,9.011,10.0
90.862,-6.235,8.53,25.0
117.151,-8.01,10.344,16.0
89.818,-6.145,10.473,15.0
89.848,-6.123,9.97,25.0
148.301,-10.07,15.621,13.0
90.417,-6.116,9.007,24.0
90.906,-6.126,8.546,21.0
117.139,-7.865,10.356,16.0
89.137,-5.988,10.404,17.0
89.417,-5.983,9.932,15.0
98.058,-6.536,10.339,11.0
90.616,-6.016,9.035,30.0
91.015,-6.02,8.563,14.0
113.595,-7.485,10.052,6.0
89.224,-5.882,10.42,27.0
89.275,-5.861,9.921,22.0
98.071,-6.413,10.345,8.0
90.933,-5.924,9.07,19.0
90.661,-5.883,8.533,10.0
93.062,-6.015,8.238,10.0
89.314,-5.774,10.433,27.0
89.377,-5.755,9.933,30.0
97.972,-6.284,10.335,9.0
91.069,-5.818,9.084,23.0
87.241,-5.551,8.211,15.0
93.184,-5.905,8.247,7.0
89.318,-5.661,10.431,31.0
89.739,-5.664,9.972,23.0
90.314,-5.677,9.524,15.0
86.922,-5.441,8.667,15.0
86.953,-5.42,8.179,25.0
93.09,-5.78,8.233,7.0
88.535,-5.496,10.334,7.0
90.407,-5.588,10.039,12.0
90.774,-5.587,9.566,15.0
87.122,-5.339,8.679,31.0
87.185,-5.32,8.193,26.0
88.643,-5.387,7.831,15.0
88.717,-5.391,10.345,18.0
90.767,-5.491,10.069,15.0
90.83,-5.472,9.56,15.0
87.2,-5.23,8.675,16.0
87.469,-5.225,8.207,28.0
88.695,-5.275,7.822,20.0
87.757,-5.217,10.22,29.0
90.578,-5.361,10.033,16.0
90.973,-5.361,9.56,19.0
87.471,-5.132,8.687,21.0
87.809,-5.13,8.223,27.0
88.726,-5.16,7.808,31.0
87.646,-5.095,10.189,23.0
86.953,-5.032,9.614,20.0
92.828,-5.348,9.735,12.0
87.108,-4.996,8.631,22.0
87.669,-5.006,8.191,29.0
88.608,-5.037,7.777,34.0
86.56,-4.916,10.042,26.0
86.318,-4.88,9.521,22.0
92.786,-5.222,9.707,6.0
87.003,-4.874,8.598,29.0
87.744,-4.893,8.173,34.0
89.09,-4.946,7.795,15.0
86.641,-4.805,10.027,33.0
86.329,-4.765,9.497,20.0
83.265,-4.575,8.685,7.0
88.015,-4.813,8.671,23.0
87.824,-4.779,8.153,22.0
89.223,-4.834,7.777,12.0
86.754,-4.694,10.011,22.0
82.226,-4.428,9.018,11.0
83.295,-4.465,8.659,11.0
87.996,-4.694,8.637,19.0
85.162,-4.521,7.875,12.0
89.15,-4.709,7.738,20.0
86.347,-4.555,9.93,15.0
82.517,-4.332,9.017,12.0
83.306,-4.352,8.628,17.0
88.614,-4.607,8.663,15.0
85.178,-4.407,7.842,17.0
89.098,-4.588,7.697,11.0
86.213,-4.432,9.878,15.0
82.522,-4.221,8.983,26.0
88.847,-4.522,9.163,7.0
84.675,-4.289,8.24,12.0
87.24,-4.397,7.992,10.0
86.809,-4.354,7.459,11.0
85.747,-4.292,9.785,15.0
82.243,-4.095,8.913,26.0
86.996,-4.309,8.929,6.0
85.192,-4.199,8.249,23.0
87.484,-4.291,7.971,11.0
86.879,-4.24,7.421,14.0
85.653,-4.171,9.73,5.0
82.14,-3.979,8.859,27.0
0.0,0.0,0.0,0.0
85.205,-4.085,8.205,24.0
84.858,-4.049,7.686,7.0
87.115,-4.135,7.394,26.0
81.197,-3.845,9.179,20.0
82.605,-3.89,8.863,21.0
84.42,-3.955,8.572,8.0
84.968,-3.958,8.133,23.0
88.695,-4.111,7.982,4.0
86.926,-4.009,7.327,27.0
81.119,-3.73,9.121,33.0
82.8,-3.787,8.833,20.0
83.671,-3.806,8.445,18.0
84.861,-3.839,8.069,21.0
87.042,-3.917,7.779,26.0
86.881,-3.889,7.268,10.0
81.329,-3.629,9.091,31.0
82.297,-3.652,8.726,24.0
84.111,-3.713,8.434,20.0
84.28,-3.699,7.958,12.0
87.047,-3.8,7.72,14.0
88.388,-3.838,7.334,6.0
82.575,-3.573,9.173,27.0
81.61,-3.512,8.595,12.0
84.33,-3.607,8.395,8.0
82.588,-3.513,7.74,21.0
87.05,-3.683,7.658,26.0
88.291,-3.715,7.262,17.0
80.115,-3.359,8.841,18.0
79.046,-3.295,8.266,14.0
82.049,-3.401,8.108,21.0
82.439,-3.397,7.664,12.0
84.064,-3.445,7.332,7.0
88.099,-3.59,7.18,14.0
79.543,-3.229,8.716,15.0
64.421,-2.6,6.686,17.0
82.165,-3.296,8.055,20.0
82.5,-3.291,7.604,29.0
88.447,-3.507,7.644,6.0
87.811,-3.462,7.084,27.0
79.812,-3.133,8.68,25.0
64.063,-2.499,6.596,36.0
66.226,-2.569,6.436,13.0
82.396,-3.177,7.525,20.0
86.845,-3.329,7.432,14.0
87.336,-3.329,6.972,26.0
79.444,-3.013,8.571,12.0
64.421,-2.429,6.577,27.0
66.21,-2.481,6.378,27.0
82.092,-3.058,7.426,19.0
82.678,-3.061,7.002,10.0
84.879,-3.124,6.701,16.0
64.31,-2.355,6.88,40.0
64.895,-2.362,6.567,35.0
66.26,-2.396,6.322,21.0
82.208,-2.956,7.36,12.0
87.028,-3.11,7.291,25.0
84.93,-3.016,6.627,11.0
64.163,-2.267,6.803,32.0
65.507,-2.299,6.566,40.0
66.928,-2.334,6.321,42.0
82.886,-2.872,7.341,14.0
87.085,-2.999,7.212,19.0
87.813,-3.005,6.766,10.0
64.256,-2.186,6.749,33.0
64.603,-2.184,6.412,31.0
67.148,-2.255,6.275,33.0
82.726,-2.761,7.244,27.0
85.225,-2.826,6.972,10.0
87.844,-2.895,6.68,5.0
64.421,-2.109,6.7,39.0
64.632,-2.102,6.348,31.0
67.215,-2.171,6.211,27.0
83.857,-2.692,7.256,9.0
85.174,-2.716,6.877,34.0
96.388,-3.054,7.228,11.0
64.693,-2.035,6.659,28.0
64.672,-2.021,6.282,27.0
79.249,-2.46,7.238,18.0
79.614,-2.456,6.802,13.0
87.677,-2.685,6.985,13.0
76.557,-2.329,5.657,12.0
64.589,-1.951,6.576,30.0
66.342,-1.99,6.369,20.0
79.327,-2.362,7.155,12.0
85.41,-2.526,7.201,18.0
86.047,-2.528,6.756,9.0
76.559,-2.234,5.57,8.0
64.435,-1.865,6.486,30.0
66.452,-1.91,6.302,34.0
65.966,-1.882,5.873,41.0
85.355,-2.419,7.096,11.0
86.014,-2.421,6.653,29.0
88.146,-2.463,6.309,4.0
64.243,-1.78,6.39,22.0
66.133,-1.82,6.193,41.0
66.489,-1.816,5.84,36.0
0.0,0.0,0.0,0.0
85.989,-2.316,6.547,11.0
97.479,-2.606,6.859,15.0
64.212,-1.702,6.308,23.0
65.86,-1.732,6.086,34.0
67.165,-1.754,5.816,9.0
76.171,-1.974,6.146,10.0
76.551,-1.969,5.733,26.0
76.335,-1.949,5.276,20.0
66.141,-1.673,6.413,11.0
65.875,-1.654,6.003,31.0
67.288,-1.677,5.74,14.0
76.238,-1.885,6.053,33.0
87.163,-2.139,6.415,11.0
76.343,-1.859,5.176,21.0
66.141,-1.594,6.325,19.0
0.0,0.0,0.0,0.0
80.055,-1.9,6.723,21.0
76.461,-1.8,5.969,19.0
86.964,-2.032,6.285,11.0
86.106,-1.996,5.723,16.0
66.028,-1.515,6.225,35.0
67.311,-1.532,5.954,31.0
76.354,-1.724,6.308,11.0
76.615,-1.715,5.876,11.0
76.516,-1.7,5.425,18.0
96.68,-2.13,6.294,30.0
67.029,-1.46,6.226,21.0
76.592,-1.655,6.667,11.0
76.624,-1.643,6.224,28.0
87.079,-1.851,6.557,12.0
76.271,-1.608,5.3,16.0
75.882,-1.587,4.834,10.0
67.307,-1.391,6.156,11.0
65.839,-1.349,5.637,13.0
87.025,-1.768,6.945,9.0
76.758,-1.546,5.67,32.0
75.588,-1.51,5.145,32.0
75.822,-1.502,4.721,29.0
67.381,-1.318,6.065,25.0
76.0,-1.474,6.396,25.0
76.54,-1.472,5.995,21.0
76.733,-1.463,5.556,29.0
75.775,-1.432,5.046,35.0
75.75,-1.419,4.605,15.0
65.66,-1.214,5.812,29.0
76.284,-1.398,6.306,32.0
76.533,-1.39,5.88,24.0
76.122,-1.37,5.398,41.0
76.032,-1.356,4.949,35.0
98.763,-1.746,5.855,33.0
65.475,-1.141,5.696,33.0
66.462,-1.148,5.392,13.0
76.328,-1.306,5.747,28.0
75.916,-1.287,5.267,35.0
90.841,-1.526,5.774,17.0
98.821,-1.645,5.708,31.0
75.866,-1.244,6.481,17.0
66.443,-1.079,5.287,22.0
76.475,-1.23,5.639,29.0
76.071,-1.212,5.158,33.0
90.79,-1.432,5.627,31.0
98.946,-1.546,5.557,20.0
66.422,-1.022,5.567,18.0
76.333,-1.163,5.952,20.0
76.221,-1.149,5.498,30.0
90.269,-1.348,5.976,40.0
90.67,-1.341,5.473,26.0
99.432,-1.456,5.425,13.0
66.453,-0.957,5.462,30.0
76.377,-1.088,5.83,31.0
76.358,-1.076,5.383,32.0
90.306,-1.261,5.83,19.0
90.583,-1.251,5.319,16.0
90.635,-1.239,4.796,16.0
66.496,-0.893,5.355,16.0
76.449,-1.016,5.709,25.0
76.076,-1.0,5.236,26.0
90.378,-1.176,5.684,15.0
90.534,-1.166,5.166,29.0
90.633,-1.154,4.643,42.0
75.258,-0.94,5.933,23.0
76.305,-0.944,5.569,15.0
76.091,-0.93,5.108,34.0
90.415,-1.094,5.534,17.0
90.544,-1.084,5.014,38.0
90.614,-1.073,4.489,44.0
201.717,-0.27,9.346,5.0
129.069,-0.166,5.222,25.0
108.071,-0.134,3.738,4.0
0.0,0.0,0.0,0.0
0.0,0.0,0.0,0.0
42.914,-0.047,0.727,0.0
128.991,-0.126,5.705,27.0
0.0,0.0,0.0,0.0
83.291,-0.075,2.708,10.0
78.107,-0.067,2.074,2.0
0.0,0.0,0.0,0.0
0.0,0.0,0.0,0.0
129.005,-0.086,5.438,44.0
83.371,-0.052,3.025,7.0
82.837,-0.049,2.521,6.0
0.0,0.0,0.0,0.0
0.0,0.0,0.0,0.0
36.303,-0.017,0.463,0.0
128.998,-0.05,5.166,26.0
83.296,-0.03,2.848,20.0
77.798,-0.025,2.203,3.0
0.0,0.0,0.0,0.0
0.0,0.0,0.0,0.0
34.302,-0.008,0.365,0.0
83.342,-0.012,3.161,5.0
83.234,-0.01,2.67,13.0
77.782,-0.007,2.038,1.0
0.0,0.0,0.0,0.0
0.0,0.0,0.0,0.0
33.076,0.0,0.282,0.0
83.278,0.004,2.982,23.0
82.716,0.006,2.476,4.0
0.0,0.0,0.0,0.0
0.0,0.0,0.0,0.0
36.762,0.004,0.45,0.0
30.489,0.004,0.195,0.0
83.266,0.018,2.805,21.0
77.369,0.018,2.152,3.0
0.0,0.0,0.0,0.0
41.534,0.011,0.664,0.0
33.193,0.009,0.336,0.0
28.775,0.008,0.123,1.0
83.113,0.029,2.622,10.0
0.0,0.0,0.0,0.0
0.0,0.0,0.0,0.0
0.0,0.0,0.0,0.0
33.181,0.012,0.265,0.0
28.321,0.011,0.061,1.0
82.717,0.036,2.433,1.0
0.0,0.0,0.0,0.0
0.0,0.0,0.0,0.0
35.509,0.016,0.417,0.0
30.214,0.013,0.177,0.0
26.785,0.012,0.001,0.0
77.307,0.038,2.109,3.0
0.0,0.0,0.0,0.0
39.885,0.019,0.62,0.0
33.24,0.016,0.319,0.0
28.716,0.014,0.107,1.0
25.634,0.012,-0.054,0.0
0.0,0.0,0.0,0.0
0.0,0.0,0.0,0.0
0.0,0.0,0.0,0.0
0.0,0.0,0.0,0.0
27.75,0.013,0.044,0.0
24.274,0.011,-0.103,0.0
0.0,0.0,0.0,0.0
42.622,0.02,0.728,0.0
34.394,0.016,0.386,0.0
28.708,0.013,0.151,0.0
26.364,0.011,-0.014,0.0
23.494,0.01,-0.15,1.0
0.0,0.0,0.0,0.0
0.0,0.0,0.0,0.0
33.185,0.013,0.302,0.0
28.663,0.011,0.09,1.0
25.365,0.009,-0.068,0.0
21.808,0.007,-0.186,1.0
0.0,0.0,0.0,0.0
36.598,0.011,0.469,0.0
30.739,0.009,0.213,0.0
27.252,0.007,0.027,0.0
23.817,0.006,-0.115,0.0
21.002,0.004,-0.225,2.0
41.048,0.008,0.678,0.0
0.0,0.0,0.0,0.0
28.831,0.004,0.138,0.0
25.972,0.003,-0.029,0.0
23.216,0.002,-0.162,0.0
19.628,0.001,-0.252,0.0
0.0,0.0,0.0,0.0
33.041,0.0,0.282,0.0
28.415,0.0,0.076,1.0
25.06,-0.001,-0.082,0.0
21.537,-0.001,-0.196,2.0
18.613,-0.002,-0.278,0.0
35.719,-0.005,0.437,0.0
30.513,-0.006,0.195,0.0
26.912,-0.006,0.014,0.0
23.734,-0.006,-0.128,1.0
20.793,-0.006,-0.234,0.0
17.911,-0.006,-0.306,0.0
33.265,-0.013,0.336,0.0
28.772,-0.012,0.122,0.0
25.809,-0.012,-0.041,0.0
22.604,-0.012,-0.17,0.0
19.401,-0.011,-0.26,0.0
17.149,-0.01,-0.33,0.0
31.291,-0.021,0.249,0.0
28.03,-0.02,0.059,0.0
24.62,-0.019,-0.091,0.0
21.225,-0.017,-0.205,3.0
18.402,-0.016,-0.286,0.0
16.613,-0.015,-0.355,0.0
30.233,-0.03,0.177,0.0
26.433,-0.028,0.0,0.0
23.532,-0.026,-0.137,1.0
20.156,-0.023,-0.237,0.0
17.702,-0.021,-0.312,0.0
16.082,-0.02,-0.378,0.0
28.752,-0.039,0.107,3.0
25.424,-0.036,-0.053,0.0
22.117,-0.032,-0.176,0.0
19.072,-0.029,-0.265,0.0
17.024,-0.027,-0.336,0.0
15.6,-0.025,-0.399,0.0
27.65,-0.048,0.045,0.0
24.159,-0.043,-0.101,0.0
21.11,-0.039,-0.212,1.0
18.252,-0.035,-0.292,0.0
16.518,-0.033,-0.361,0.0
15.016,-0.031,-0.416,0.0
26.271,-0.057,-0.011,0.0
23.333,-0.052,-0.147,0.0
19.937,-0.046,-0.242,0.0
17.413,-0.041,-0.315,0.0
15.997,-0.039,-0.383,0.0
14.568,-0.036,-0.434,0.0
25.248,-0.066,-0.063,0.0
21.905,-0.059,-0.183,0.0
18.824,-0.052,-0.267,0.0
16.858,-0.048,-0.34,0.0
15.481,-0.045,-0.403,0.0
14.169,-0.042,-0.452,0.0
23.892,-0.075,-0.11,0.0
20.768,-0.066,-0.217,0.0
18.094,-0.059,-0.295,0.0
16.403,-0.055,-0.365,0.0
14.951,-0.051,-0.42,0.0
13.807,-0.049,-0.469,0.0
23.013,-0.084,-0.153,0.0
19.622,-0.074,-0.246,0.0
17.319,-0.066,-0.318,0.0
15.847,-0.062,-0.385,0.0
14.535,-0.058,-0.438,0.0
13.346,-0.054,-0.481,0.0
21.814,-0.092,-0.19,1.0
18.65,-0.081,-0.271,0.0
16.79,-0.074,-0.342,0.0
15.339,-0.069,-0.404,0.0
14.107,-0.065,-0.454,0.0
13.055,-0.061,-0.497,0.0
20.666,-0.1,-0.222,0.0
17.99,-0.089,-0.298,0.0
16.329,-0.082,-0.366,0.0
14.833,-0.076,-0.42,0.0
13.78,-0.072,-0.471,0.0
12.726,-0.067,-0.51,0.0
19.524,-0.107,-0.248,0.0
17.261,-0.096,-0.321,0.0
15.836,-0.09,-0.387,0.0
14.407,-0.083,-0.437,0.0
13.32,-0.078,-0.482,0.0
12.475,-0.074,-0.525,0.0
18.553,-0.114,-0.273,0.0
16.726,-0.104,-0.344,0.0
15.324,-0.097,-0.405,0.0
13.994,-0.09,-0.453,0.0
12.92,-0.085,-0.493,0.0
12.238,-0.082,-0.539,0.0
17.881,-0.122,-0.299,0.0
16.227,-0.113,-0.366,0.0
14.746,-0.104,-0.418,0.0
13.639,-0.098,-0.468,0.0
12.653,-0.092,-0.508,0.0
11.957,-0.088,-0.55,0.0
17.188,-0.13,-0.321,0.0
15.824,-0.122,-0.388,0.0
14.387,-0.112,-0.437,0.0
13.355,-0.106,-0.485,0.0
12.427,-0.1,-0.524,0.0
11.611,-0.095,-0.557,0.0
16.636,-0.139,-0.343,0.0
15.267,-0.129,-0.404,0.0
13.95,-0.12,-0.45,0.0
13.036,-0.114,-0.498,0.0
12.202,-0.108,-0.538,0.0
11.44,-0.102,-0.571,0.0
16.229,-0.149,-0.365,0.0
14.782,-0.137,-0.419,0.0
13.683,-0.129,-0.468,0.0
12.669,-0.121,-0.508,0.0
11.929,-0.115,-0.548,0.0
11.178,-0.109,-0.579,0.0
15.806,-0.158,-0.386,0.0
14.445,-0.146,-0.437,0.0
13.346,-0.137,-0.481,0.0
12.385,-0.128,-0.52,0.0
11.719,-0.123,-0.561,0.0
11.009,-0.117,-0.591,0.0
15.372,-0.167,-0.404,0.0
13.971,-0.153,-0.448,0.0
12.974,-0.144,-0.492,0.0
12.22,-0.137,-0.536,0.0
11.405,-0.13,-0.567,0.0
10.781,-0.124,-0.599,0.0
14.784,-0.174,-0.416,0.0
13.719,-0.163,-0.466,0.0
12.802,-0.154,-0.509,0.0
11.886,-0.145,-0.543,0.0
11.207,-0.138,-0.578,0.0
10.56,-0.131,-0.606,0.0
14.459,-0.183,-0.433,0.0
13.381,-0.171,-0.478,0.0
12.484,-0.162,-0.519,0.0
11.687,-0.153,-0.555,0.0
11.005,-0.146,-0.587,0.0
10.325,-0.138,-0.611,0.0
14.071,-0.192,-0.446,0.0
13.108,-0.18,-0.492,0.0
12.264,-0.171,-0.532,0.0
11.429,-0.161,-0.564,0.0
10.8,-0.154,-0.596,0.0
10.205,-0.147,-0.622,0.0
13.748,-0.201,-0.461,0.0
12.753,-0.188,-0.502,0.0
11.925,-0.178,-0.539,0.0
11.276,-0.17,-0.576,0.0
10.554,-0.161,-0.601,0.0
10.014,-0.154,-0.629,0.0
13.429,-0.21,-0.474,0.0
12.533,-0.198,-0.515,0.0
11.743,-0.187,-0.551,0.0
11.009,-0.177,-0.582,0.0
10.37,-0.169,-0.609,0.0
9.889,-0.163,-0.638,0.0
13.136,-0.219,-0.486,0.0
12.33,-0.208,-0.528,0.0
11.544,-0.196,-0.561,0.0
10.911,-0.187,-0.595,0.0
10.231,-0.177,-0.618,0.0
9.679,-0.169,-0.641,0.0
12.941,-0.229,-0.5,0.0
12.026,-0.215,-0.535,0.0
11.324,-0.205,-0.57,0.0
10.695,-0.195,-0.601,0.0
10.039,-0.185,-0.623,0.0
0.0,0.0,0.0,0.0
12.676,-0.238,-0.511,0.0
11.872,-0.225,-0.548,0.0
11.126,-0.213,-0.578,0.0
10.445,-0.202,-0.604,0.0
0.0,0.0,0.0,0.0
9.355,-0.184,-0.65,0.0
12.369,-0.246,-0.519,0.0
11.645,-0.234,-0.556,0.0
10.853,-0.22,-0.581,0.0
10.294,-0.211,-0.612,0.0
9.838,-0.203,-0.643,0.0
9.227,-0.192,-0.656,0.0
12.189,-0.257,-0.531,0.0
11.431,-0.243,-0.564,0.0
10.762,-0.23,-0.593,0.0
10.133,-0.219,-0.619,0.0
0.0,0.0,0.0,0.0
9.138,-0.201,-0.664,0.0
11.94,-0.265,-0.538,0.0
11.234,-0.252,-0.572,0.0
10.439,-0.236,-0.592,0.0
0.0,0.0,0.0,0.0
0.0,0.0,0.0,0.0
9.001,-0.208,-0.668,0.0
11.789,-0.276,-0.55,0.0
11.051,-0.261,-0.579,0.0
10.466,-0.249,-0.609,0.0
0.0,0.0,0.0,0.0
0.0,0.0,0.0,0.0
0.0,0.0,0.0,0.0
11.56,-0.284,-0.556,0.0
10.847,-0.269,-0.585,0.0
10.257,-0.256,-0.612,0.0
0.0,0.0,0.0,0.0
9.269,-0.235,-0.662,0.0
8.777,-0.225,-0.678,0.0
11.4,-0.294,-0.565,0.0
10.786,-0.281,-0.597,0.0
10.174,-0.267,-0.622,0.0
0.0,0.0,0.0,0.0
9.084,-0.242,-0.662,0.0
8.649,-0.232,-0.681,0.0
11.265,-0.305,-0.574,0.0
10.466,-0.285,-0.594,0.0
0.0,0.0,0.0,0.0
0.0,0.0,0.0,0.0
8.942,-0.249,-0.664,0.0
8.521,-0.239,-0.683,0.0
11.095,-0.314,-0.581,0.0
10.387,-0.297,-0.604,0.0
9.954,-0.286,-0.637,0.0
0.0,0.0,0.0,0.0
0.0,0.0,0.0,0.0
8.491,-0.25,-0.692,0.0
10.911,-0.323,-0.586,0.0
10.246,-0.306,-0.61,0.0
0.0,0.0,0.0,0.0
0.0,0.0,0.0,0.0
8.789,-0.268,-0.677,0.0
8.398,-0.258,-0.695,0.0
10.633,-0.329,-0.586,0.0
10.15,-0.316,-0.617,0.0
0.0,0.0,0.0,0.0
0.0,0.0,0.0,0.0
8.666,-0.275,-0.679,0.0
8.327,-0.267,-0.7,0.0
10.611,-0.342,-0.598,0.0
10.035,-0.326,-0.623,0.0
0.0,0.0,0.0,0.0
0.0,0.0,0.0,0.0
0.0,0.0,0.0,0.0
8.222,-0.274,-0.702,0.0
10.466,-0.351,-0.603,0.0
9.9,-0.335,-0.627,0.0
0.0,0.0,0.0,0.0
0.0,0.0,0.0,0.0
0.0,0.0,0.0,0.0
8.145,-0.283,-0.705,0.0
10.359,-0.362,-0.609,0.0
9.828,-0.345,-0.634,0.0
9.298,-0.329,-0.654,0.0
0.0,0.0,0.0,0.0
0.0,0.0,0.0,0.0
8.05,-0.29,-0.707,0.0
10.219,-0.371,-0.613,0.0
0.0,0.0,0.0,0.0
0.0,0.0,0.0,0.0
0.0,0.0,0.0,0.0
0.0,0.0,0.0,0.0
8.004,-0.3,-0.712,0.0
10.092,-0.38,-0.617,0.0
9.59,-0.364,-0.641,0.0
9.068,-0.346,-0.658,0.0
0.0,0.0,0.0,0.0
8.237,-0.318,-0.694,0.0
7.938,-0.309,-0.715,0.0
10.003,-0.391,-0.622,0.0
