X,Y,Z,Reflectivity
9.956,0.418,-0.642,0.0
9.385,0.395,-0.66,0.0
12.414,0.523,-0.534,0.0
11.6,0.49,-0.566,0.0
10.833,0.459,-0.591,0.0
10.273,0.436,-0.621,0.0
9.73,0.414,-0.645,0.0
9.266,0.396,-0.668,0.0
12.131,0.518,-0.543,0.0
11.375,0.487,-0.575,0.0
10.773,0.462,-0.607,0.0
10.132,0.436,-0.631,0.0
0.0,0.0,0.0,0.0
9.142,0.395,-0.676,0.0
11.931,0.515,-0.556,0.0
11.164,0.483,-0.585,0.0
10.49,0.455,-0.61,0.0
0.0,0.0,0.0,0.0
0.0,0.0,0.0,0.0
8.981,0.392,-0.68,0.0
11.695,0.511,-0.566,0.0
10.946,0.479,-0.593,0.0
10.365,0.454,-0.622,0.0
0.0,0.0,0.0,0.0
0.0,0.0,0.0,0.0
8.826,0.39,-0.684,0.0
11.375,0.502,-0.571,0.0
10.75,0.475,-0.602,0.0
10.179,0.451,-0.629,0.0
0.0,0.0,0.0,0.0
9.152,0.407,-0.673,0.0
8.667,0.386,-0.687,0.0
11.195,0.498,-0.582,0.0
10.542,0.47,-0.609,0.0
0.0,0.0,0.0,0.0
0.0,0.0,0.0,0.0
0.0,0.0,0.0,0.0
8.594,0.386,-0.697,0.0
17.99,-0.339,-0.311,0.0
16.481,-0.308,-0.37,0.0
15.161,-0.282,-0.419,0.0
14.12,-0.261,-0.464,0.0
13.283,-0.243,-0.506,0.0
12.425,-0.226,-0.537,0.0
18.64,-0.336,-0.286,0.0
16.962,-0.304,-0.348,0.0
15.76,-0.28,-0.405,0.0
14.442,-0.255,-0.447,0.0
13.476,-0.236,-0.487,0.0
12.665,-0.22,-0.523,0.0
19.605,-0.337,-0.264,0.0
17.539,-0.299,-0.326,0.0
16.139,-0.273,-0.384,0.0
14.894,-0.249,-0.433,0.0
13.852,-0.23,-0.474,0.0
12.997,-0.214,-0.512,0.0
20.719,-0.337,-0.239,0.0
18.211,-0.294,-0.304,0.0
16.624,-0.266,-0.364,0.0
15.302,-0.242,-0.415,0.0
14.125,-0.222,-0.457,0.0
13.308,-0.207,-0.499,0.0
21.94,-0.337,-0.212,0.0
19.072,-0.29,-0.283,0.0
17.116,-0.258,-0.343,0.0
15.836,-0.236,-0.401,0.0
14.58,-0.215,-0.444,0.0
13.609,-0.198,-0.485,0.0
22.947,-0.331,-0.179,0.0
19.871,-0.283,-0.257,0.0
17.711,-0.249,-0.321,0.0
16.3,-0.227,-0.382,0.0
14.951,-0.206,-0.428,0.0
13.922,-0.189,-0.47,0.0
23.468,-0.315,-0.139,0.0
21.036,-0.278,-0.233,0.0
18.33,-0.239,-0.298,0.0
16.678,-0.215,-0.359,0.0
15.501,-0.197,-0.414,0.0
14.323,-0.18,-0.457,0.0
24.748,-0.306,-0.101,0.0
22.169,-0.271,-0.205,0.0
19.147,-0.23,-0.276,0.0
17.214,-0.204,-0.339,0.0
15.949,-0.186,-0.397,0.0
14.588,-0.168,-0.439,0.0
25.779,-0.292,-0.058,0.0
23.034,-0.257,-0.171,0.0
20.105,-0.22,-0.253,0.0
17.833,-0.192,-0.319,0.0
16.433,-0.174,-0.379,0.0
15.11,-0.157,-0.427,0.0
26.741,-0.273,-0.011,0.0
24.027,-0.241,-0.135,0.0
21.269,-0.209,-0.229,0.0
18.378,-0.177,-0.295,0.0
16.785,-0.159,-0.357,0.0
15.642,-0.145,-0.414,0.0
27.966,-0.254,0.038,1.0
24.938,-0.221,-0.094,0.0
22.312,-0.194,-0.2,0.0
19.23,-0.163,-0.274,0.0
17.341,-0.144,-0.338,0.0
16.038,-0.13,-0.396,0.0
28.745,-0.227,0.091,5.0
25.85,-0.199,-0.052,0.0
23.094,-0.173,-0.166,0.0
20.202,-0.147,-0.252,0.0
17.986,-0.128,-0.318,0.0
16.456,-0.113,-0.377,0.0
28.842,-0.193,0.142,1.0
26.863,-0.174,-0.006,0.0
24.163,-0.152,-0.131,0.0
21.521,-0.131,-0.231,0.0
18.577,-0.109,-0.296,0.0
16.9,-0.095,-0.357,0.0
31.435,-0.171,0.211,1.0
28.445,-0.149,0.043,1.0
25.089,-0.126,-0.092,0.0
22.063,-0.106,-0.198,0.0
19.462,-0.09,-0.276,0.0
17.368,-0.076,-0.337,0.0
33.114,-0.139,0.279,1.0
28.769,-0.114,0.093,7.0
25.925,-0.097,-0.05,0.0
23.267,-0.082,-0.168,0.0
20.405,-0.067,-0.254,0.0
18.02,-0.055,-0.318,0.0
0.0,0.0,0.0,0.0
28.852,-0.076,0.143,1.0
26.903,-0.065,-0.006,0.0
23.908,-0.053,-0.132,0.0
21.219,-0.042,-0.228,0.0
18.509,-0.032,-0.295,0.0
20.284,2.103,-0.25,0.0
17.883,1.851,-0.321,0.0
16.328,1.687,-0.386,0.0
14.963,1.543,-0.44,0.0
13.884,1.43,-0.487,0.0
12.886,1.325,-0.524,0.0
19.957,2.042,-0.258,0.0
17.659,1.803,-0.328,0.0
16.165,1.648,-0.392,0.0
14.867,1.513,-0.446,0.0
13.732,1.395,-0.489,0.0
12.872,1.305,-0.531,0.0
19.643,1.981,-0.266,0.0
17.48,1.76,-0.335,0.0
16.015,1.609,-0.397,0.0
14.721,1.477,-0.45,0.0
13.566,1.358,-0.491,0.0
12.688,1.268,-0.531,0.0
19.537,1.943,-0.275,0.0
17.388,1.726,-0.343,0.0
15.943,1.579,-0.404,0.0
14.656,1.449,-0.456,0.0
13.561,1.338,-0.498,0.0
12.645,1.245,-0.536,0.0
19.121,1.873,-0.279,0.0
17.191,1.681,-0.348,0.0
15.771,1.539,-0.408,0.0
14.479,1.41,-0.457,0.0
13.458,1.308,-0.501,0.0
12.539,1.216,-0.538,0.0
18.956,1.828,-0.286,0.0
17.054,1.641,-0.353,0.0
15.673,1.505,-0.413,0.0
14.424,1.382,-0.462,0.0
13.353,1.277,-0.503,0.0
12.53,1.196,-0.543,0.0
18.67,1.772,-0.29,0.0
16.927,1.603,-0.358,0.0
15.633,1.477,-0.419,0.0
14.28,1.346,-0.464,0.0
13.266,1.248,-0.506,0.0
12.483,1.172,-0.546,0.0
18.551,1.732,-0.296,0.0
16.795,1.564,-0.362,0.0
15.497,1.44,-0.421,0.0
14.224,1.319,-0.468,0.0
13.213,1.222,-0.509,0.0
12.423,1.147,-0.549,0.0
18.403,1.689,-0.301,0.0
16.716,1.53,-0.367,0.0
15.372,1.404,-0.424,0.0
14.079,1.283,-0.469,0.0
13.196,1.199,-0.513,0.0
12.362,1.121,-0.55,0.0
18.305,1.65,-0.306,0.0
16.636,1.496,-0.371,0.0
15.277,1.37,-0.426,0.0
14.079,1.26,-0.473,0.0
13.154,1.174,-0.516,0.0
12.304,1.096,-0.552,0.0
18.192,1.61,-0.31,0.0
16.55,1.461,-0.374,0.0
15.258,1.343,-0.431,0.0
14.0,1.229,-0.475,0.0
13.055,1.143,-0.516,0.0
12.225,1.068,-0.552,0.0
18.051,1.567,-0.312,0.0
16.451,1.424,-0.377,0.0
15.158,1.309,-0.432,0.0
13.982,1.204,-0.478,0.0
12.968,1.114,-0.516,0.0
12.203,1.046,-0.554,0.0
17.987,1.531,-0.316,0.0
16.395,1.392,-0.38,0.0
15.139,1.282,-0.435,0.0
13.815,1.166,-0.475,0.0
12.994,1.094,-0.52,0.0
12.21,1.025,-0.557,0.0
17.897,1.493,-0.318,0.0
16.299,1.355,-0.381,0.0
15.028,1.246,-0.435,0.0
13.873,1.147,-0.48,0.0
12.903,1.064,-0.519,0.0
12.171,1.001,-0.557,0.0
17.8,1.454,-0.319,0.0
16.19,1.318,-0.381,0.0
15.019,1.219,-0.437,0.0
13.82,1.119,-0.48,0.0
12.91,1.042,-0.521,0.0
12.184,0.981,-0.559,0.0
17.823,1.425,-0.322,0.0
16.235,1.294,-0.384,0.0
14.936,1.186,-0.436,0.0
13.768,1.09,-0.48,0.0
12.796,1.01,-0.518,0.0
12.159,0.957,-0.559,0.0
171.718,-4.416,8.532,13.0
123.892,-3.203,5.512,19.0
123.946,-3.219,4.872,20.0
92.427,-2.413,3.145,173.0
0.0,0.0,0.0,0.0
0.0,0.0,0.0,0.0
171.916,-4.568,8.866,6.0
189.692,-5.063,8.799,18.0
123.998,-3.325,5.108,21.0
92.383,-2.489,3.318,186.0
93.065,-2.518,2.86,1.0
0.0,0.0,0.0,0.0
99.087,-2.712,5.296,20.0
189.518,-5.211,9.147,21.0
190.096,-5.248,8.189,14.0
92.362,-2.56,3.491,10.0
92.337,-2.571,3.012,15.0
0.0,0.0,0.0,0.0
96.972,-2.729,5.366,26.0
189.695,-5.36,9.514,20.0
189.975,-5.389,8.545,15.0
92.351,-2.629,3.665,13.0
92.298,-2.637,3.185,157.0
0.0,0.0,0.0,0.0
97.218,-2.807,5.564,15.0
97.226,-2.817,5.059,9.0
189.715,-5.516,8.89,19.0
0.0,0.0,0.0,0.0
92.288,-2.701,3.359,40.0
92.642,-2.721,2.893,4.0
97.573,-2.885,5.769,9.0
97.03,-2.878,5.234,18.0
189.832,-5.648,9.256,22.0
0.0,0.0,0.0,0.0
92.283,-2.763,3.534,29.0
92.239,-2.769,3.055,20.0
99.098,-2.994,6.048,10.0
100.274,-3.039,5.6,6.0
189.612,-5.761,9.604,21.0
190.357,-5.8,8.635,15.0
92.278,-2.819,3.708,15.0
92.213,-2.825,3.228,37.0
97.128,-2.994,6.112,20.0
100.242,-3.098,5.788,21.0
189.8,-5.881,9.973,16.0
190.038,-5.902,8.981,20.0
0.0,0.0,0.0,0.0
92.252,-2.879,3.405,87.0
97.937,-3.075,6.35,10.0
98.952,-3.113,5.901,12.0
189.992,-5.992,10.342,10.0
190.197,-6.01,9.346,19.0
93.564,-2.963,4.113,1.0
92.27,-2.929,3.579,129.0
96.642,-3.086,6.448,8.0
98.432,-3.148,6.056,12.0
190.331,-6.1,10.721,15.0
190.234,-6.107,9.707,21.0
190.452,-6.127,8.732,16.0
92.301,-2.975,3.754,11.0
87.589,-2.84,6.011,22.0
95.884,-3.114,6.081,17.0
98.961,-3.218,5.762,2.0
190.132,-6.195,10.065,18.0
190.324,-6.211,9.086,19.0
0.0,0.0,0.0,0.0
96.048,-3.157,6.773,15.0
95.736,-3.151,6.253,16.0
94.727,-3.123,5.695,16.0
190.773,-6.297,10.458,11.0
190.47,-6.296,9.455,10.0
190.303,-6.299,8.461,11.0
87.891,-2.926,6.365,26.0
96.076,-3.201,6.456,14.0
94.825,-3.163,5.879,21.0
99.246,-3.315,5.627,16.0
190.249,-6.36,9.798,12.0
190.426,-6.374,8.821,17.0
87.967,-2.961,6.536,21.0
96.102,-3.237,6.64,17.0
95.001,-3.203,6.068,19.0
94.708,-3.196,5.547,10.0
190.17,-6.424,10.152,18.0
190.746,-6.448,9.192,11.0
87.944,-2.989,6.698,17.0
87.974,-2.991,6.242,9.0
95.086,-3.236,6.25,21.0
94.705,-3.225,5.724,9.0
99.216,-3.38,5.481,11.0
190.242,-6.486,9.521,20.0
85.461,-2.93,6.669,25.0
87.959,-3.016,6.405,28.0
95.363,-3.271,6.446,13.0
98.126,-3.367,6.113,11.0
99.101,-3.402,5.657,18.0
190.131,-6.53,9.867,18.0
79.817,-2.756,6.378,10.0
87.996,-3.039,6.571,16.0
87.765,-3.031,6.096,11.0
94.954,-3.28,6.09,11.0
110.438,-3.816,6.51,10.0
130.985,-4.527,7.041,2.0
79.743,-2.77,6.519,16.0
85.427,-2.968,6.537,7.0
87.847,-3.051,6.263,20.0
94.738,-3.29,6.251,10.0
98.847,-3.433,6.006,15.0
99.094,-3.441,5.506,14.0
83.422,-2.912,6.974,18.0
85.45,-2.982,6.696,18.0
87.934,-3.068,6.43,26.0
94.736,-3.304,6.424,14.0
94.474,-3.294,5.914,10.0
99.113,-3.455,5.689,18.0
83.468,-2.925,7.132,6.0
79.704,-2.791,6.392,15.0
88.016,-3.081,6.597,17.0
87.739,-3.07,6.111,26.0
97.988,-3.426,6.312,8.0
99.171,-3.466,5.871,13.0
79.68,-2.8,6.953,26.0
83.487,-2.932,6.848,12.0
85.421,-2.997,6.558,14.0
87.845,-3.08,6.275,24.0
94.445,-3.309,6.254,10.0
97.906,-3.427,5.972,9.0
79.783,-2.808,7.106,14.0
83.437,-2.934,6.993,12.0
85.474,-3.002,6.715,11.0
87.954,-3.087,6.439,24.0
94.736,-3.321,6.44,13.0
94.512,-3.31,5.933,14.0
79.188,-2.788,7.194,10.0
79.687,-2.802,6.819,8.0
79.719,-2.8,6.403,16.0
88.029,-3.088,6.601,18.0
87.751,-3.074,6.121,25.0
97.973,-3.429,6.321,9.0
82.28,-2.895,7.621,7.0
79.67,-2.799,6.96,27.0
83.469,-2.928,6.852,14.0
85.395,-2.992,6.554,14.0
87.874,-3.074,6.285,23.0
94.605,-3.306,6.27,12.0
66.243,-2.326,6.252,22.0
79.745,-2.796,7.106,13.0
83.447,-2.921,6.997,15.0
85.464,-2.986,6.709,14.0
87.949,-3.069,6.442,24.0
94.943,-3.308,6.457,10.0
66.242,-2.32,6.368,25.0
79.191,-2.768,7.195,6.0
79.695,-2.78,6.821,10.0
79.716,-2.776,6.396,19.0
88.041,-3.061,6.601,14.0
87.776,-3.046,6.12,18.0
66.255,-2.311,6.483,15.0
67.27,-2.341,6.227,9.0
79.698,-2.768,6.957,31.0
79.748,-2.765,6.533,16.0
85.463,-2.957,6.552,11.0
87.9,-3.035,6.276,19.0
63.99,-2.221,6.37,13.0
66.278,-2.295,6.248,14.0
79.874,-2.759,7.108,15.0
79.824,-2.752,6.674,14.0
85.489,-2.94,6.698,25.0
87.963,-3.019,6.429,22.0
64.06,-2.209,6.485,26.0
66.226,-2.278,6.354,18.0
80.005,-2.746,7.254,6.0
79.835,-2.733,6.808,24.0
79.945,-2.73,6.396,26.0
87.986,-2.997,6.577,17.0
64.213,-2.198,6.608,24.0
66.258,-2.262,6.468,11.0
67.34,-2.293,6.217,11.0
79.731,-2.707,6.931,32.0
79.783,-2.703,6.514,32.0
87.848,-2.968,6.709,11.0
64.354,-2.184,6.729,22.0
63.985,-2.166,6.35,6.0
67.332,-2.272,6.325,7.0
79.858,-2.687,7.071,30.0
79.899,-2.681,6.652,31.0
85.653,-2.866,6.679,13.0
64.42,-2.166,6.839,25.0
63.83,-2.14,6.437,23.0
66.225,-2.213,6.327,16.0
79.947,-2.663,7.206,15.0
79.909,-2.654,6.779,27.0
80.175,-2.655,6.377,11.0
64.463,-2.144,6.946,29.0
63.948,-2.12,6.55,33.0
66.24,-2.189,6.432,18.0
67.333,-2.218,6.174,9.0
79.936,-2.624,6.906,27.0
80.044,-2.619,6.491,14.0
64.591,-2.123,7.061,35.0
64.472,-2.112,6.704,29.0
63.675,-2.079,6.281,23.0
67.349,-2.19,6.278,11.0
79.971,-2.592,7.03,24.0
80.151,-2.589,6.621,26.0
64.675,-2.098,7.169,32.0
64.417,-2.082,6.796,34.0
63.643,-2.05,6.374,30.0
64.346,-2.064,6.095,8.0
80.037,-2.558,7.156,24.0
80.128,-2.551,6.739,18.0
64.795,-2.072,7.28,12.0
64.182,-2.044,6.867,30.0
63.814,-2.025,6.487,34.0
64.345,-2.033,6.191,22.0
67.443,-2.123,6.129,24.0
80.158,-2.513,6.859,23.0
77.161,-2.43,8.784,21.0
64.076,-2.009,6.95,31.0
63.95,-1.997,6.594,38.0
63.846,-1.985,6.235,30.0
67.404,-2.087,6.223,24.0
80.119,-2.47,6.971,14.0
77.028,-2.385,8.88,27.0
64.173,-1.977,7.053,35.0
63.682,-1.954,6.657,35.0
63.665,-1.945,6.309,26.0
67.44,-2.051,6.322,8.0
80.339,-2.432,7.103,15.0
76.287,-2.32,8.903,19.0
64.703,-1.958,7.202,18.0
63.642,-1.916,6.742,29.0
63.84,-1.914,6.414,34.0
64.329,-1.919,6.119,35.0
80.767,-2.398,7.252,12.0
64.45,-1.921,7.611,17.0
64.871,-1.924,7.311,10.0
63.754,-1.882,6.842,31.0
64.078,-1.882,6.526,39.0
64.437,-1.883,6.217,17.0
67.379,-1.959,6.14,13.0
79.515,-2.322,9.497,13.0
77.934,-2.264,8.887,13.0
64.022,-1.849,6.956,28.0
64.181,-1.844,6.621,31.0
64.462,-1.842,6.304,30.0
67.366,-1.915,6.227,23.0
79.596,-2.271,9.612,30.0
64.699,-1.836,7.464,12.0
64.286,-1.814,7.069,31.0
64.331,-1.805,6.721,32.0
64.408,-1.797,6.382,29.0
67.448,-1.872,6.321,12.0
76.605,-2.134,9.351,18.0
64.624,-1.789,7.538,31.0
64.551,-1.777,7.18,24.0
64.224,-1.758,6.791,33.0
64.422,-1.753,6.464,30.0
64.3,-1.739,6.106,15.0
76.775,-2.084,9.468,23.0
64.608,-1.742,7.616,11.0
64.756,-1.736,7.283,17.0
64.277,-1.713,6.875,29.0
64.347,-1.704,6.534,24.0
64.311,-1.693,6.185,29.0
75.958,-2.007,9.459,18.0
73.885,-1.938,8.799,18.0
64.917,-1.693,7.378,15.0
64.374,-1.667,6.962,29.0
64.424,-1.658,6.618,18.0
64.294,-1.644,6.258,29.0
74.162,-1.902,9.323,9.0
73.953,-1.884,8.894,28.0
74.451,-1.883,8.549,10.0
64.439,-1.619,7.043,34.0
64.5,-1.61,6.7,26.0
64.299,-1.593,6.332,24.0
74.165,-1.844,9.408,15.0
74.099,-1.829,8.996,32.0
74.205,-1.818,8.604,10.0
64.485,-1.569,7.12,32.0
64.401,-1.556,6.761,28.0
64.313,-1.542,6.404,30.0
74.07,-1.781,9.478,16.0
74.03,-1.766,9.068,31.0
74.47,-1.763,8.716,9.0
65.178,-1.532,7.267,40.0
64.52,-1.505,6.843,26.0
64.525,-1.494,6.493,29.0
73.975,-1.716,9.545,15.0
74.109,-1.706,9.156,31.0
74.403,-1.699,8.786,9.0
74.163,-1.68,8.346,10.0
64.707,-1.454,6.929,36.0
64.273,-1.433,6.534,28.0
63.743,-1.423,8.291,20.0
74.076,-1.641,9.228,29.0
74.345,-1.633,8.855,22.0
74.302,-1.618,8.436,10.0
64.944,-1.403,7.019,14.0
64.172,-1.375,6.586,29.0
63.766,-1.368,8.358,28.0
73.934,-1.572,9.283,32.0
74.441,-1.568,8.939,13.0
64.763,-1.353,7.415,18.0
64.883,-1.342,7.075,7.0
64.194,-1.316,6.65,26.0
63.898,-1.312,8.435,22.0
73.974,-1.505,9.359,30.0
74.209,-1.496,8.98,32.0
64.734,-1.292,7.472,13.0
64.803,-1.282,7.125,26.0
64.34,-1.26,6.723,33.0
64.008,-1.254,8.509,22.0
74.156,-1.44,9.448,30.0
74.185,-1.426,9.043,28.0
64.664,-1.23,7.521,20.0
64.781,-1.22,7.18,29.0
64.497,-1.202,6.796,29.0
63.857,-1.191,8.545,20.0
64.139,-1.183,8.227,8.0
74.256,-1.356,9.116,33.0
74.004,-1.337,8.67,12.0
64.772,-1.158,7.232,33.0
64.938,-1.148,6.895,18.0
0.0,0.0,0.0,0.0
64.161,-1.121,8.283,9.0
74.344,-1.285,9.187,34.0
67.237,-1.148,7.932,18.0
64.869,-1.096,7.295,20.0
64.974,-1.085,6.95,14.0
64.239,-1.071,8.699,26.0
63.969,-1.054,8.308,29.0
59.153,-0.963,7.355,10.0
67.212,-1.081,7.979,17.0
64.889,-1.031,7.346,29.0
58.667,-0.921,6.319,22.0
64.189,-1.006,8.74,29.0
63.931,-0.99,8.35,28.0
58.364,-0.892,7.299,27.0
67.12,-1.012,8.016,8.0
65.277,-0.972,7.436,32.0
58.692,-0.863,6.362,22.0
64.315,-0.942,8.802,27.0
63.94,-0.924,8.395,28.0
58.328,-0.832,7.334,26.0
66.099,-0.929,7.938,18.0
65.388,-0.906,7.491,7.0
0.0,0.0,0.0,0.0
64.326,-0.876,8.846,22.0
64.119,-0.86,8.46,26.0
58.314,-0.771,7.369,32.0
0.0,0.0,0.0,0.0
73.651,-0.944,8.484,16.0
57.4,-0.725,6.294,22.0
64.351,-0.809,8.889,20.0
57.356,-0.709,7.602,22.0
58.435,-0.71,7.42,32.0
57.761,-0.691,7.007,25.0
73.587,-0.866,8.519,11.0
57.287,-0.662,6.315,26.0
64.328,-0.739,8.922,15.0
57.35,-0.647,7.633,26.0
58.515,-0.649,7.462,32.0
57.83,-0.63,7.046,27.0
64.274,-0.688,7.474,22.0
57.252,-0.602,6.34,26.0
64.807,-0.675,9.022,28.0
57.422,-0.586,7.672,30.0
58.515,-0.586,7.491,20.0
57.908,-0.569,7.084,30.0
64.447,-0.62,7.526,13.0
57.323,-0.54,6.375,22.0
62.987,-0.588,8.799,21.0
57.464,-0.524,7.705,31.0
58.118,-0.519,7.467,33.0
57.91,-0.506,7.111,32.0
64.491,-0.55,7.559,9.0
57.354,-0.478,6.404,18.0
62.892,-0.517,8.813,15.0
57.499,-0.461,7.734,31.0
57.397,-0.448,7.398,32.0
57.658,-0.44,7.103,31.0
59.568,-0.442,7.006,23.0
63.717,-0.46,7.139,15.0
62.932,-0.447,8.842,24.0
57.752,-0.4,7.789,32.0
57.297,-0.385,7.406,34.0
57.097,-0.372,7.054,32.0
59.562,-0.376,7.026,23.0
63.691,-0.39,7.157,19.0
62.97,-0.377,8.869,24.0
51.466,-0.298,6.958,10.0
0.0,0.0,0.0,0.0
57.026,-0.308,7.063,31.0
59.453,-0.309,7.031,33.0
63.78,-0.319,7.186,10.0
63.229,-0.308,8.924,20.0
51.485,-0.24,6.975,25.0
58.242,-0.26,7.563,24.0
57.027,-0.244,7.078,31.0
59.433,-0.243,7.044,33.0
63.813,-0.248,7.206,13.0
61.809,-0.231,8.739,13.0
51.541,-0.183,6.995,25.0
58.312,-0.196,7.585,20.0
56.733,-0.179,7.054,29.0
59.339,-0.176,7.045,26.0
57.235,-0.158,6.474,10.0
51.092,-0.134,7.233,20.0
51.601,-0.125,7.013,24.0
58.228,-0.13,7.585,27.0
56.737,-0.115,7.064,28.0
56.95,-0.104,6.771,11.0
63.293,-0.104,7.169,10.0
51.043,-0.075,7.234,27.0
51.352,-0.065,6.986,25.0
58.152,-0.063,7.582,17.0
56.767,-0.051,7.075,10.0
58.192,-0.041,6.925,29.0
63.251,-0.032,7.172,7.0
51.056,-0.017,7.241,20.0
51.064,-0.008,6.952,25.0
58.159,0.002,7.588,22.0
49.021,0.011,6.114,21.0
57.435,0.024,6.839,30.0
59.648,0.036,6.767,17.0
51.206,0.04,7.265,31.0
48.281,0.047,6.575,20.0
58.217,0.068,7.598,26.0
49.001,0.066,6.113,14.0
57.104,0.088,6.801,26.0
59.654,0.103,6.768,14.0
51.302,0.099,7.279,26.0
48.322,0.103,6.581,22.0
58.378,0.135,7.619,29.0
49.059,0.123,6.119,23.0
57.116,0.154,6.801,27.0
59.736,0.172,6.776,7.0
51.377,0.158,7.288,28.0
48.378,0.158,6.586,16.0
59.436,0.206,7.754,6.0
49.048,0.178,6.115,17.0
57.109,0.218,6.796,27.0
52.259,0.209,5.924,13.0
51.57,0.218,7.311,26.0
48.469,0.214,6.594,26.0
48.518,0.223,6.324,21.0
58.294,0.279,7.261,23.0
57.288,0.284,6.811,23.0
52.285,0.269,5.92,11.0
51.697,0.278,7.322,26.0
51.201,0.284,6.959,11.0
51.371,0.294,6.689,11.0
49.043,0.29,6.101,20.0
57.324,0.349,6.806,27.0
52.374,0.328,5.921,19.0
51.637,0.336,7.304,26.0
51.251,0.343,6.956,14.0
49.213,0.337,6.398,23.0
58.302,0.41,7.241,9.0
57.419,0.414,6.805,18.0
52.328,0.386,5.905,22.0
51.575,0.393,7.284,24.0
51.493,0.401,6.977,15.0
48.643,0.388,6.312,15.0
58.205,0.474,7.215,10.0
52.86,0.439,6.252,11.0
56.625,0.481,6.375,15.0
51.671,0.452,7.283,6.0
0.0,0.0,0.0,0.0
48.641,0.442,6.298,22.0
58.475,0.541,7.231,12.0
52.643,0.496,6.21,22.0
56.603,0.543,6.355,14.0
49.303,0.486,6.934,18.0
49.756,0.499,6.711,23.0
49.071,0.5,6.337,23.0
48.394,0.501,5.968,22.0
52.722,0.555,6.201,26.0
56.92,0.608,6.371,18.0
49.336,0.54,6.92,17.0
49.275,0.548,6.628,23.0
48.952,0.552,6.304,23.0
58.545,0.67,7.198,8.0
52.458,0.609,6.15,18.0
56.903,0.67,6.346,30.0
49.369,0.595,6.905,17.0
0.0,0.0,0.0,0.0
48.682,0.602,6.248,34.0
49.165,0.617,6.023,23.0
48.54,0.616,5.669,20.0
56.708,0.728,6.3,30.0
51.518,0.677,7.182,13.0
47.717,0.634,6.377,21.0
48.09,0.647,6.15,24.0
49.238,0.67,6.009,14.0
48.743,0.671,5.67,22.0
49.878,0.694,5.516,11.0
51.601,0.734,7.167,7.0
48.621,0.699,6.472,24.0
48.506,0.705,6.178,22.0
48.926,0.718,5.945,25.0
48.696,0.722,5.638,23.0
50.059,0.75,5.51,18.0
49.07,0.75,6.788,23.0
47.69,0.736,6.322,22.0
49.088,0.765,6.224,23.0
48.883,0.769,5.912,32.0
48.674,0.773,5.607,14.0
50.06,0.803,5.481,23.0
51.632,0.844,7.112,6.0
47.751,0.788,6.301,22.0
49.054,0.816,6.19,23.0
48.863,0.82,5.88,43.0
0.0,0.0,0.0,0.0
50.161,0.856,5.46,24.0
51.57,0.897,7.07,4.0
47.447,0.832,6.23,21.0
49.035,0.866,6.156,23.0
48.882,0.871,5.85,24.0
50.252,0.902,5.725,29.0
50.307,0.91,5.443,19.0
48.084,0.885,6.56,17.0
47.489,0.88,6.203,21.0
48.954,0.915,6.112,27.0
48.836,0.919,5.81,23.0
50.209,0.952,5.685,27.0
50.411,0.962,5.418,18.0
48.062,0.934,6.521,29.0
0.0,0.0,0.0,0.0
48.967,0.964,6.077,23.0
48.718,0.965,5.76,18.0
50.159,1.001,5.642,29.0
50.092,1.006,5.346,22.0
48.015,0.979,6.478,11.0
45.697,0.938,5.9,10.0
48.947,1.011,6.036,26.0
49.497,1.029,5.813,26.0
50.117,1.048,5.597,35.0
50.075,1.054,5.305,28.0
47.97,1.025,6.433,11.0
45.674,0.981,5.86,18.0
49.057,1.061,6.01,23.0
50.261,1.092,5.861,22.0
49.916,1.091,5.534,32.0
49.843,1.096,5.239,16.0
50.295,1.123,6.702,7.0
49.448,1.109,6.302,7.0
45.232,1.02,5.502,29.0
50.191,1.138,5.81,24.0
49.749,1.133,5.472,26.0
55.144,1.263,5.748,6.0
45.696,1.062,6.048,13.0
45.608,1.065,5.771,20.0
45.25,1.062,5.464,33.0
45.601,1.075,5.237,15.0
49.723,1.178,5.424,20.0
49.591,1.18,5.123,28.0
45.737,1.105,6.011,22.0
45.564,1.105,5.723,20.0
50.377,1.227,6.035,4.0
45.64,1.117,5.198,18.0
48.357,1.189,5.229,11.0
49.434,1.221,5.06,26.0
45.698,1.143,5.961,16.0
45.43,1.142,5.661,28.0
45.302,1.143,5.382,19.0
49.693,1.259,5.611,22.0
48.467,1.233,5.192,22.0
0.0,0.0,0.0,0.0
45.543,1.179,5.894,20.0
45.314,1.177,5.601,19.0
45.459,1.186,5.355,26.0
45.725,1.197,5.116,13.0
57.446,1.509,6.095,7.0
50.765,1.339,5.093,21.0
45.327,1.211,5.818,24.0
45.349,1.216,5.557,18.0
45.489,1.224,5.31,33.0
46.102,1.245,5.109,17.0
49.133,1.331,5.161,23.0
50.665,1.378,5.029,24.0
45.196,1.244,5.753,24.0
45.326,1.252,5.505,29.0
45.472,1.259,5.258,37.0
48.578,1.35,5.33,10.0
0.0,0.0,0.0,0.0
50.354,1.408,4.942,24.0
0.0,0.0,0.0,0.0
45.314,1.287,5.452,37.0
45.536,1.297,5.213,31.0
48.472,1.384,5.263,19.0
50.838,1.457,5.226,13.0
49.937,1.435,4.844,19.0
0.0,0.0,0.0,0.0
45.441,1.325,5.414,32.0
45.66,1.335,5.174,14.0
48.553,1.423,5.215,19.0
55.092,1.618,5.598,10.0
50.098,1.476,4.801,18.0
45.619,1.36,5.646,20.0
45.491,1.359,5.365,39.0
45.743,1.37,5.128,19.0
48.468,1.455,5.147,18.0
50.434,1.518,5.063,23.0
56.308,1.699,5.327,17.0
45.513,1.389,5.577,20.0
45.469,1.39,5.306,36.0
48.628,1.49,5.392,12.0
50.84,1.561,5.336,11.0
50.438,1.552,5.001,23.0
56.23,1.734,5.25,27.0
45.479,1.418,5.515,18.0
45.634,1.426,5.267,21.0
46.139,1.444,5.056,21.0
51.021,1.6,5.29,14.0
50.255,1.579,4.918,26.0
0.0,0.0,0.0,0.0
45.435,1.446,5.45,23.0
45.678,1.456,5.212,20.0
46.203,1.475,5.003,17.0
50.932,1.63,5.214,22.0
50.409,1.616,4.867,23.0
54.322,1.744,4.93,10.0
45.469,1.475,5.393,18.0
45.969,1.494,5.184,20.0
48.843,1.59,5.223,19.0
50.481,1.645,5.099,24.0
56.244,1.836,5.354,11.0
54.329,1.777,4.857,3.0
47.646,1.573,5.586,6.0
46.112,1.525,5.136,20.0
51.032,1.689,5.387,23.0
50.356,1.67,5.017,24.0
54.376,1.806,5.101,10.0
67.304,2.238,5.924,17.0
45.717,1.535,5.295,31.0
46.106,1.55,5.071,19.0
50.998,1.716,5.311,14.0
50.443,1.699,4.954,24.0
54.314,1.833,5.019,23.0
76.159,2.573,6.596,14.0
45.761,1.56,5.235,15.0
48.901,1.669,5.308,16.0
57.717,1.972,5.928,15.0
50.139,1.715,4.852,24.0
54.254,1.857,4.935,5.0
81.0,2.776,6.899,8.0
46.146,1.595,5.211,16.0
55.273,1.913,5.919,10.0
50.291,1.742,5.091,19.0
49.999,1.733,4.765,21.0
56.034,1.944,5.014,24.0
64.195,2.23,5.372,16.0
46.127,1.616,5.139,33.0
55.223,1.936,5.829,26.0
50.136,1.759,4.999,29.0
50.045,1.757,4.694,20.0
56.061,1.969,4.932,22.0
64.155,2.256,5.272,12.0
46.17,1.637,5.074,15.0
61.644,2.187,6.414,8.0
49.987,1.774,4.909,33.0
50.062,1.777,4.619,17.0
66.746,2.372,5.771,14.0
56.109,1.995,4.526,15.0
51.129,1.832,5.54,7.0
56.346,2.019,5.776,7.0
49.954,1.791,4.829,34.0
56.05,2.01,5.086,10.0
66.71,2.394,5.665,9.0
56.123,2.015,4.439,4.0
48.557,1.757,5.185,14.0
50.22,1.817,5.068,23.0
49.85,1.804,4.74,23.0
56.07,2.03,4.999,26.0
56.036,2.029,4.671,18.0
77.622,2.812,6.019,11.0
48.396,1.766,5.091,14.0
50.047,1.826,4.972,23.0
49.944,1.823,4.669,23.0
66.715,2.435,5.842,31.0
55.976,2.043,4.576,27.0
65.238,2.382,4.954,14.0
50.537,1.858,5.235,9.0
49.891,1.834,4.875,25.0
50.163,1.844,4.609,14.0
66.68,2.451,5.731,25.0
56.176,2.065,4.501,26.0
65.253,2.398,4.85,25.0
50.305,1.861,5.127,28.0
49.944,1.847,4.798,23.0
55.618,2.057,5.018,23.0
56.076,2.073,4.727,22.0
56.311,2.082,4.419,6.0
65.297,2.414,4.745,30.0
50.111,1.864,5.024,34.0
49.892,1.855,4.71,23.0
55.824,2.075,4.944,8.0
55.985,2.08,4.626,29.0
65.409,2.43,5.025,8.0
65.328,2.427,4.638,30.0
49.952,1.866,4.924,30.0
50.015,1.868,4.637,19.0
56.184,2.097,4.881,17.0
56.1,2.093,4.541,30.0
65.259,2.433,4.903,22.0
65.382,2.437,4.533,22.0
49.907,1.871,4.834,22.0
0.0,0.0,0.0,0.0
56.155,2.103,4.783,23.0
56.294,2.107,4.461,17.0
65.287,2.441,4.794,32.0
65.516,2.448,4.43,9.0
49.951,1.877,4.752,24.0
68.536,2.574,6.12,11.0
56.02,2.102,4.675,28.0
65.356,2.451,5.067,7.0
65.308,2.447,4.682,49.0
81.446,3.049,5.366,21.0
50.012,1.882,4.671,23.0
56.175,2.112,4.918,8.0
55.996,2.103,4.576,29.0
65.306,2.451,4.95,17.0
65.323,2.449,4.571,33.0
65.714,2.462,4.216,17.0
50.161,1.888,4.597,5.0
56.174,2.112,4.82,23.0
56.217,2.111,4.495,26.0
65.286,2.449,4.833,30.0
65.42,2.452,4.463,20.0
65.591,2.456,4.093,24.0
68.468,2.576,6.154,11.0
56.04,2.105,4.709,29.0
77.742,2.917,6.08,7.0
65.295,2.447,4.719,40.0
81.47,3.05,5.414,20.0
65.531,2.45,3.974,14.0
68.771,2.583,6.059,8.0
55.988,2.099,4.606,29.0
65.334,2.446,4.993,13.0
65.322,2.443,4.605,35.0
65.758,2.456,4.253,15.0
81.374,3.035,4.79,26.0
56.186,2.104,4.849,20.0
56.212,2.101,4.523,30.0
65.273,2.436,4.871,26.0
65.479,2.44,4.497,9.0
65.674,2.444,4.129,29.0
81.207,3.018,4.634,30.0
56.072,2.091,4.737,23.0
56.312,2.096,4.428,6.0
65.306,2.428,4.754,38.0
81.552,3.026,5.454,12.0
65.642,2.432,4.009,6.0
81.175,3.003,4.485,34.0
55.989,2.078,4.628,28.0
65.405,2.422,5.024,9.0
65.321,2.415,4.637,17.0
65.818,2.429,4.283,21.0
81.422,3.0,4.824,24.0
81.336,2.991,4.347,32.0
56.153,2.071,4.539,30.0
65.257,2.402,4.893,23.0
81.741,3.004,5.652,16.0
65.729,2.41,4.156,28.0
81.37,2.978,4.671,32.0
81.28,2.968,4.193,32.0
77.722,2.847,6.138,11.0
65.293,2.386,4.775,13.0
81.631,2.976,5.494,15.0
81.558,2.967,5.005,21.0
81.493,2.959,4.528,28.0
81.188,2.941,4.039,29.0
65.269,2.37,5.034,8.0
81.445,2.951,5.806,28.0
65.824,2.379,4.308,20.0
81.529,2.94,4.853,31.0
81.555,2.935,4.381,32.0
81.024,2.909,3.881,23.0
65.226,2.346,4.908,21.0
81.731,2.933,5.674,24.0
65.777,2.354,4.183,17.0
81.665,2.915,4.711,33.0
81.31,2.896,4.217,31.0
81.276,2.888,3.743,11.0
81.225,2.89,5.961,26.0
81.622,2.896,5.513,24.0
81.604,2.888,5.037,34.0
81.659,2.882,4.557,33.0
81.175,2.858,4.058,27.0
56.058,1.968,2.477,0.0
81.457,2.863,5.825,25.0
65.834,2.308,4.323,21.0
81.57,2.851,4.882,33.0
81.756,2.849,4.408,24.0
80.997,2.814,3.896,23.0
56.122,1.945,2.374,0.0
81.691,2.833,5.687,28.0
81.605,2.821,5.206,13.0
81.766,2.819,4.74,34.0
81.352,2.796,4.235,34.0
81.556,2.795,3.772,13.0
0.0,0.0,0.0,0.0
81.751,2.794,5.54,18.0
81.528,2.778,5.05,35.0
81.76,2.776,4.587,32.0
81.098,2.745,4.07,30.0
56.085,1.892,2.489,0.0
51.164,1.721,1.974,0.0
65.943,2.218,4.344,21.0
81.612,2.735,4.901,37.0
81.689,2.728,4.429,28.0
81.177,2.702,3.922,27.0
0.0,0.0,0.0,0.0
51.106,1.689,1.876,1.0
81.434,2.691,5.211,18.0
81.816,2.694,4.76,33.0
81.514,2.674,4.268,33.0
81.554,2.665,3.788,16.0
0.0,0.0,0.0,0.0
51.167,1.66,1.782,0.0
81.391,2.638,5.055,37.0
81.762,2.64,4.602,30.0
81.899,2.634,4.133,28.0
0.0,0.0,0.0,0.0
0.0,0.0,0.0,0.0
54.182,1.722,1.785,1.0
81.571,2.59,4.913,35.0
82.094,2.595,4.467,17.0
82.218,2.589,3.995,17.0
0.0,0.0,0.0,0.0
0.0,0.0,0.0,0.0
54.15,1.683,1.682,1.0
81.617,2.534,4.762,31.0
82.1,2.537,4.313,25.0
84.219,2.591,3.935,5.0
0.0,0.0,0.0,0.0
0.0,0.0,0.0,0.0
54.083,1.641,1.579,11.0
81.725,2.475,4.614,30.0
82.626,2.491,4.185,14.0
0.0,0.0,0.0,0.0
0.0,0.0,0.0,0.0
54.1,1.608,1.792,0.0
54.208,1.604,1.482,6.0
81.937,2.418,4.474,25.0
82.842,2.432,4.041,9.0
0.0,0.0,0.0,0.0
0.0,0.0,0.0,0.0
54.153,1.566,1.694,3.0
54.061,1.555,1.377,6.0
82.595,2.369,4.356,19.0
85.419,2.437,4.009,10.0
57.816,1.64,2.377,0.0
0.0,0.0,0.0,0.0
54.099,1.519,1.592,3.0
54.313,1.516,1.283,1.0
82.854,2.305,4.215,27.0
0.0,0.0,0.0,0.0
0.0,0.0,0.0,0.0
54.215,1.482,1.809,4.0
54.121,1.471,1.491,3.0
56.629,1.53,1.232,4.0
84.54,2.274,4.143,17.0
0.0,0.0,0.0,0.0
0.0,0.0,0.0,0.0
54.115,1.43,1.705,3.0
54.047,1.419,1.39,1.0
56.784,1.482,1.132,1.0
88.701,2.305,4.186,12.0
0.0,0.0,0.0,0.0
0.0,0.0,0.0,0.0
54.071,1.378,1.606,1.0
54.415,1.377,1.301,1.0
47.58,1.196,0.862,0.0
55.963,1.4,2.539,0.0
0.0,0.0,0.0,0.0
54.435,1.342,1.838,5.0
54.092,1.324,1.508,1.0
57.684,1.402,1.274,5.0
46.667,1.126,0.761,0.0
0.0,0.0,0.0,0.0
0.0,0.0,0.0,0.0
54.389,1.286,1.738,4.0
54.229,1.273,1.415,1.0
57.834,1.347,1.174,2.0
0.0,0.0,0.0,0.0
0.0,0.0,0.0,0.0
0.0,0.0,0.0,0.0
54.169,1.223,1.634,0.0
54.381,1.218,1.32,0.0
47.809,1.062,0.884,1.0
37.124,0.818,0.472,1.0
0.0,0.0,0.0,0.0
54.52,1.182,1.864,150.0
54.269,1.166,1.541,0.0
54.639,1.164,1.23,2.0
0.0,0.0,0.0,0.0
35.126,0.735,0.384,0.0
0.0,0.0,0.0,0.0
54.426,1.119,1.764,0.0
54.3,1.106,1.446,0.0
54.816,1.106,1.137,0.0
40.223,0.804,0.602,0.0
33.284,0.658,0.306,0.0
0.0,0.0,0.0,0.0
0.0,0.0,0.0,0.0
0.0,0.0,0.0,0.0
0.0,0.0,0.0,0.0
37.326,0.702,0.493,0.0
31.464,0.585,0.234,0.0
0.0,0.0,0.0,0.0
0.0,0.0,0.0,0.0
54.567,0.982,1.262,0.0
0.0,0.0,0.0,0.0
0.0,0.0,0.0,0.0
28.919,0.502,0.164,0.0
55.058,0.946,1.815,2.0
55.087,0.935,1.498,1.0
0.0,0.0,0.0,0.0
0.0,0.0,0.0,0.0
34.177,0.559,0.333,0.0
28.813,0.465,0.115,1.0
55.436,0.883,1.732,0.0
0.0,0.0,0.0,0.0
0.0,0.0,0.0,0.0
37.513,0.573,0.518,0.0
31.684,0.477,0.255,0.0
28.279,0.42,0.064,0.0
0.0,0.0,0.0,0.0
0.0,0.0,0.0,0.0
0.0,0.0,0.0,0.0
36.039,0.504,0.438,0.0
28.988,0.399,0.185,0.0
26.947,0.365,0.016,0.0
56.291,0.75,1.571,0.0
57.552,0.754,1.274,0.0
0.0,0.0,0.0,0.0
33.958,0.43,0.356,0.0
28.887,0.359,0.137,5.0
26.081,0.318,-0.026,0.0
57.202,0.684,1.501,1.0
0.0,0.0,0.0,0.0
39.799,0.458,0.585,0.0
32.651,0.368,0.289,0.0
28.751,0.317,0.088,4.0
25.248,0.273,-0.067,0.0
57.481,0.608,1.415,0.0
0.0,0.0,0.0,0.0
36.435,0.368,0.477,0.0
31.277,0.309,0.226,0.0
27.566,0.266,0.041,0.0
24.287,0.229,-0.103,0.0
0.0,0.0,0.0,0.0
0.0,0.0,0.0,0.0
0.0,0.0,0.0,0.0
28.909,0.244,0.163,1.0
26.638,0.219,-0.003,0.0
23.512,0.187,-0.137,0.0
53.557,0.414,1.148,1.0
40.195,0.301,0.63,0.0
33.378,0.241,0.33,0.0
28.778,0.201,0.117,1.0
25.739,0.174,-0.043,0.0
22.407,0.145,-0.166,1.0
0.0,0.0,0.0,0.0
36.942,0.222,0.522,0.0
32.074,0.185,0.269,0.0
28.367,0.156,0.071,1.0
25.042,0.132,-0.08,0.0
21.851,0.11,-0.195,4.0
0.0,0.0,0.0,0.0
36.162,0.163,0.455,0.0
30.386,0.129,0.208,0.0
27.187,0.108,0.027,0.0
24.067,0.09,-0.114,0.0
21.077,0.073,-0.221,2.0
41.974,0.136,0.707,0.0
34.875,0.104,0.387,0.0
29.145,0.079,0.156,0.0
26.323,0.065,-0.012,0.0
23.376,0.052,-0.145,1.0
20.199,0.039,-0.241,0.0
0.0,0.0,0.0,0.0
33.488,0.048,0.323,0.0
28.689,0.034,0.111,1.0
25.656,0.023,-0.049,0.0
22.257,0.014,-0.17,0.0
19.39,0.008,-0.26,0.0
37.635,0.005,0.524,0.0
0.0,0.0,0.0,0.0
28.287,-0.011,0.069,1.0
24.851,-0.016,-0.083,0.0
21.39,-0.019,-0.195,1.0
18.609,-0.022,-0.276,0.0
36.324,-0.052,0.454,0.0
30.671,-0.053,0.207,0.0
26.985,-0.054,0.028,0.0
23.882,-0.054,-0.114,0.0
20.903,-0.053,-0.22,0.0
18.201,-0.051,-0.296,0.0
0.0,0.0,0.0,0.0
28.87,-0.097,0.155,4.0
26.458,-0.096,-0.009,0.0
23.352,-0.091,-0.144,0.0
19.993,-0.084,-0.238,0.0
17.59,-0.078,-0.31,0.0
33.07,-0.156,0.322,1.0
28.768,-0.144,0.115,7.0
25.608,-0.135,-0.043,0.0
22.465,-0.125,-0.169,0.0
19.406,-0.113,-0.257,0.0
17.219,-0.105,-0.327,0.0
31.879,-0.204,0.268,1.0
28.558,-0.191,0.076,3.0
24.825,-0.173,-0.075,0.0
22.077,-0.16,-0.195,1.0
18.782,-0.141,-0.274,0.0
16.846,-0.132,-0.342,0.0
31.34,-0.254,0.222,1.0
27.455,-0.23,0.037,0.0
24.128,-0.209,-0.104,1.0
21.0,-0.188,-0.213,0.0
18.25,-0.169,-0.29,0.0
16.547,-0.158,-0.357,0.0
28.836,-0.283,0.167,1.0
26.636,-0.269,0.002,0.0
23.575,-0.245,-0.132,0.0
20.275,-0.217,-0.231,0.0
17.81,-0.195,-0.305,0.0
16.246,-0.183,-0.371,0.0
28.656,-0.331,0.13,1.0
25.995,-0.308,-0.029,0.0
23.047,-0.28,-0.157,1.0
19.662,-0.245,-0.249,0.0
17.396,-0.222,-0.319,0.0
15.977,-0.208,-0.385,0.0
28.527,-0.38,0.095,1.0
25.252,-0.344,-0.059,0.0
22.245,-0.31,-0.179,0.0
19.111,-0.272,-0.265,0.0
17.027,-0.247,-0.333,0.0
15.691,-0.233,-0.396,0.0
27.879,-0.422,0.06,0.0
24.656,-0.38,-0.087,0.0
21.768,-0.342,-0.201,0.0
18.43,-0.295,-0.277,0.0
16.713,-0.273,-0.346,0.0
15.332,-0.255,-0.405,0.0
26.857,-0.454,0.027,0.0
24.001,-0.413,-0.112,0.0
21.006,-0.368,-0.218,0.0
18.159,-0.324,-0.294,0.0
16.504,-0.299,-0.361,0.0
15.063,-0.278,-0.415,0.0
26.325,-0.493,-0.002,0.0
23.41,-0.445,-0.135,0.0
20.173,-0.39,-0.231,0.0
17.746,-0.349,-0.306,0.0
16.193,-0.323,-0.372,0.0
14.814,-0.3,-0.424,0.0
25.887,-0.532,-0.03,0.0
22.96,-0.479,-0.157,0.0
19.574,-0.414,-0.245,0.0
17.341,-0.372,-0.318,0.0
15.964,-0.348,-0.383,0.0
14.591,-0.322,-0.433,0.0
25.329,-0.567,-0.056,0.0
22.236,-0.504,-0.175,0.0
19.234,-0.442,-0.261,0.0
17.041,-0.397,-0.33,0.0
15.624,-0.369,-0.391,0.0
14.374,-0.345,-0.442,0.0
24.803,-0.601,-0.079,0.0
22.076,-0.542,-0.196,0.0
18.825,-0.468,-0.274,0.0
16.821,-0.423,-0.342,0.0
15.412,-0.393,-0.401,0.0
14.15,-0.365,-0.449,0.0
0.0,0.0,0.0,0.0
21.033,-0.555,-0.207,1.0
18.292,-0.489,-0.284,0.0
16.561,-0.448,-0.353,0.0
15.145,-0.415,-0.408,0.0
13.931,-0.386,-0.455,0.0
23.482,-0.656,-0.12,0.0
20.961,-0.593,-0.226,1.0
18.016,-0.515,-0.296,0.0
16.357,-0.473,-0.363,0.0
14.88,-0.435,-0.415,0.0
13.798,-0.408,-0.463,0.0
23.182,-0.691,-0.139,0.0
20.236,-0.61,-0.236,0.0
17.683,-0.539,-0.306,0.0
16.116,-0.497,-0.372,0.0
14.717,-0.458,-0.423,0.0
13.648,-0.43,-0.47,0.0
22.882,-0.726,-0.157,0.0
19.57,-0.627,-0.245,0.0
17.425,-0.564,-0.316,0.0
15.897,-0.52,-0.38,0.0
14.586,-0.482,-0.432,0.0
13.466,-0.45,-0.475,0.0
22.31,-0.75,-0.171,1.0
19.253,-0.654,-0.257,0.0
17.116,-0.587,-0.325,0.0
15.7,-0.544,-0.388,0.0
14.405,-0.504,-0.438,0.0
13.394,-0.473,-0.483,0.0
21.977,-0.781,-0.186,1.0
18.905,-0.678,-0.267,0.0
16.965,-0.614,-0.335,0.0
15.521,-0.567,-0.396,0.0
14.189,-0.523,-0.442,0.0
13.241,-0.493,-0.488,0.0
21.168,-0.792,-0.195,1.0
18.619,-0.703,-0.276,0.0
16.768,-0.639,-0.344,0.0
15.184,-0.584,-0.398,0.0
14.065,-0.546,-0.448,0.0
13.085,-0.512,-0.491,0.0
21.052,-0.828,-0.208,2.0
18.294,-0.726,-0.284,0.0
16.551,-0.663,-0.351,0.0
15.079,-0.609,-0.406,0.0
13.926,-0.567,-0.454,0.0
12.988,-0.533,-0.496,0.0
20.93,-0.864,-0.221,1.0
18.114,-0.754,-0.293,0.0
16.406,-0.688,-0.358,0.0
14.892,-0.63,-0.411,0.0
13.808,-0.589,-0.459,0.0
12.919,-0.556,-0.502,0.0
20.882,-0.902,-0.234,0.0
17.9,-0.78,-0.301,0.0
16.308,-0.716,-0.366,0.0
14.779,-0.654,-0.417,0.0
13.751,-0.613,-0.465,0.0
12.883,-0.579,-0.508,0.0
19.85,-0.896,-0.234,0.0
17.643,-0.802,-0.307,0.0
16.058,-0.736,-0.37,0.0
14.651,-0.676,-0.421,0.0
13.582,-0.632,-0.467,0.0
12.752,-0.598,-0.51,0.0
19.625,-0.924,-0.242,0.0
17.575,-0.833,-0.316,0.0
15.955,-0.762,-0.376,0.0
14.599,-0.702,-0.428,0.0
13.532,-0.656,-0.473,0.0
12.657,-0.618,-0.513,0.0
19.319,-0.947,-0.248,0.0
17.352,-0.856,-0.321,0.0
15.793,-0.785,-0.38,0.0
14.503,-0.726,-0.432,0.0
13.475,-0.679,-0.477,0.0
12.539,-0.637,-0.515,0.0
19.207,-0.978,-0.256,0.0
17.24,-0.884,-0.327,0.0
15.692,-0.81,-0.385,0.0
14.429,-0.75,-0.437,0.0
13.397,-0.701,-0.481,0.0
12.493,-0.659,-0.518,0.0
19.019,-1.006,-0.262,0.0
17.117,-0.911,-0.332,0.0
15.589,-0.835,-0.389,0.0
14.268,-0.769,-0.438,0.0
13.327,-0.723,-0.484,0.0
12.403,-0.678,-0.52,0.0
18.872,-1.034,-0.267,0.0
16.992,-0.937,-0.336,0.0
34.269,-1.902,-0.869,0.0
14.175,-0.792,-0.44,0.0
13.269,-0.746,-0.486,0.0
12.405,-0.702,-0.524,0.0
18.777,-1.065,-0.273,0.0
16.873,-0.963,-0.339,0.0
15.435,-0.886,-0.397,0.0
14.141,-0.817,-0.444,0.0
13.133,-0.764,-0.486,0.0
12.348,-0.722,-0.526,0.0
18.635,-1.093,-0.276,0.0
16.782,-0.99,-0.343,0.0
15.286,-0.907,-0.398,0.0
14.043,-0.838,-0.445,0.0
13.142,-0.789,-0.49,0.0
12.322,-0.744,-0.528,0.0
18.524,-1.121,-0.28,0.0
16.728,-1.018,-0.346,0.0
15.195,-0.93,-0.399,0.0
14.068,-0.866,-0.449,0.0
13.092,-0.811,-0.491,0.0
12.279,-0.765,-0.53,0.0
18.393,-1.148,-0.282,0.0
16.659,-1.046,-0.348,0.0
15.063,-0.951,-0.399,0.0
13.991,-0.888,-0.45,0.0
12.987,-0.829,-0.49,0.0
12.273,-0.788,-0.532,0.0
18.409,-1.184,-0.286,0.0
16.615,-1.074,-0.351,0.0
15.129,-0.984,-0.404,0.0
13.939,-0.911,-0.451,0.0
12.99,-0.854,-0.493,0.0
12.261,-0.81,-0.533,0.0
18.266,-1.209,-0.287,0.0
16.563,-1.102,-0.352,0.0
14.953,-1.0,-0.401,0.0
13.944,-0.938,-0.453,0.0
12.988,-0.878,-0.494,0.0
12.199,-0.829,-0.532,0.0
18.207,-1.239,-0.288,0.0
16.532,-1.131,-0.353,0.0
14.955,-1.028,-0.403,0.0
13.891,-0.96,-0.453,0.0
12.989,-0.902,-0.496,0.0
12.189,-0.851,-0.533,0.0
18.226,-1.274,-0.29,0.0
16.557,-1.163,-0.355,0.0
15.065,-1.064,-0.407,0.0
13.887,-0.985,-0.453,0.0
13.032,-0.929,-0.498,0.0
12.18,-0.873,-0.533,0.0
18.209,-1.307,-0.29,0.0
16.475,-1.188,-0.354,0.0
15.029,-1.089,-0.406,0.0
13.917,-1.013,-0.455,0.0
13.054,-0.955,-0.499,0.0
12.143,-0.893,-0.532,0.0
18.152,-1.336,-0.289,0.0
16.534,-1.223,-0.355,0.0
14.981,-1.113,-0.405,0.0
13.909,-1.038,-0.454,0.0
13.023,-0.977,-0.498,0.0
12.184,-0.918,-0.533,0.0
18.223,-1.374,-0.29,0.0
16.56,-1.254,-0.355,0.0
15.016,-1.143,-0.405,0.0
13.93,-1.065,-0.454,0.0
13.029,-1.001,-0.497,0.0
12.217,-0.943,-0.534,0.0
18.272,-1.411,-0.289,0.0
16.641,-1.291,-0.355,0.0
14.929,-1.163,-0.401,0.0
13.908,-1.088,-0.452,0.0
13.008,-1.022,-0.495,0.0
12.258,-0.968,-0.534,0.0
18.411,-1.455,-0.289,0.0
16.667,-1.323,-0.354,0.0
15.123,-1.205,-0.405,0.0
13.906,-1.113,-0.45,0.0
13.033,-1.047,-0.494,0.0
12.177,-0.983,-0.529,0.0
18.328,-1.48,-0.285,0.0
16.696,-1.354,-0.352,0.0
15.158,-1.234,-0.403,0.0
13.97,-1.143,-0.45,0.0
13.046,-1.072,-0.492,0.0
12.252,-1.011,-0.53,0.0
18.45,-1.523,-0.284,0.0
16.751,-1.388,-0.35,0.0
15.185,-1.263,-0.401,0.0
14.019,-1.171,-0.449,0.0
13.101,-1.099,-0.491,0.0
12.263,-1.033,-0.528,0.0
18.641,-1.57,-0.283,0.0
16.81,-1.422,-0.347,0.0
15.139,-1.285,-0.396,0.0
14.093,-1.201,-0.448,0.0
13.185,-1.128,-0.491,0.0
12.277,-1.055,-0.525,0.0
18.775,-1.614,-0.28,0.0
16.862,-1.455,-0.344,0.0
15.374,-1.331,-0.398,0.0
14.112,-1.227,-0.444,0.0
13.215,-1.154,-0.489,0.0
12.379,-1.085,-0.526,0.0
18.849,-1.652,-0.275,0.0
16.93,-1.489,-0.34,0.0
15.455,-1.365,-0.395,0.0
14.165,-1.255,-0.442,0.0
13.19,-1.173,-0.484,0.0
12.403,-1.108,-0.523,0.0
19.116,-1.707,-0.273,0.0
17.079,-1.531,-0.337,0.0
15.512,-1.395,-0.391,0.0
14.26,-1.287,-0.439,0.0
13.304,-1.205,-0.483,0.0
12.427,-1.13,-0.519,0.0
19.202,-1.746,-0.267,0.0
17.161,-1.566,-0.332,0.0
15.618,-1.43,-0.388,0.0
14.303,-1.314,-0.435,0.0
13.391,-1.235,-0.481,0.0
12.441,-1.152,-0.515,0.0
19.358,-1.792,-0.261,0.0
17.314,-1.608,-0.328,0.0
15.721,-1.465,-0.384,0.0
14.407,-1.347,-0.432,0.0
13.459,-1.262,-0.478,0.0
12.518,-1.178,-0.513,0.0
19.551,-1.84,-0.255,0.0
17.465,-1.649,-0.323,0.0
15.74,-1.491,-0.378,0.0
14.478,-1.376,-0.428,0.0
13.554,-1.293,-0.475,0.0
12.63,-1.208,-0.512,0.0
19.665,-1.881,-0.248,0.0
17.594,-1.688,-0.318,0.0
15.874,-1.528,-0.373,0.0
14.577,-1.408,-0.424,0.0
13.598,-1.318,-0.47,0.0
12.669,-1.232,-0.507,0.0
19.963,-1.94,-0.241,0.0
17.746,-1.73,-0.311,0.0
16.1,-1.574,-0.37,0.0
14.649,-1.437,-0.418,0.0
13.721,-1.35,-0.467,0.0
12.785,-1.262,-0.505,0.0
20.425,-2.016,-0.236,0.0
17.867,-1.769,-0.304,0.0
16.364,-1.625,-0.367,0.0
14.857,-1.48,-0.416,0.0
13.76,-1.374,-0.46,0.0
12.795,-1.282,-0.498,0.0
33.995,-3.406,-0.374,3.0
34.026,-3.419,-0.559,0.0
16.509,-1.663,-0.361,0.0
14.953,-1.511,-0.41,0.0
13.887,-1.407,-0.456,0.0
12.943,-1.316,-0.496,0.0
34.055,-3.461,-0.354,1.0
18.336,-1.868,-0.29,0.0
16.698,-1.706,-0.355,0.0
15.065,-1.543,-0.404,0.0
13.96,-1.434,-0.45,0.0
13.033,-1.343,-0.491,0.0
21.461,-2.211,-0.209,0.0
18.82,-1.944,-0.286,0.0
16.81,-1.741,-0.347,0.0
15.337,-1.592,-0.401,0.0
14.064,-1.464,-0.444,0.0
13.071,-1.365,-0.484,0.0
22.104,-2.307,-0.201,0.0
19.109,-1.999,-0.278,0.0
17.079,-1.792,-0.341,0.0
15.438,-1.624,-0.394,0.0
14.185,-1.496,-0.439,0.0
13.195,-1.395,-0.48,0.0
22.304,-2.358,-0.188,3.0
19.36,-2.052,-0.268,0.0
17.24,-1.831,-0.332,0.0
15.637,-1.665,-0.388,0.0
14.395,-1.537,-0.435,0.0
13.404,-1.435,-0.478,0.0
22.346,-2.391,-0.172,3.0
19.674,-2.11,-0.258,0.0
17.441,-1.875,-0.324,0.0
15.816,-1.705,-0.381,0.0
14.506,-1.567,-0.428,0.0
13.53,-1.466,-0.473,0.0
22.915,-2.481,-0.16,5.0
19.986,-2.169,-0.247,0.0
17.677,-1.923,-0.315,0.0
16.024,-1.747,-0.374,0.0
14.634,-1.599,-0.421,0.0
13.659,-1.496,-0.467,0.0
23.492,-2.572,-0.146,13.0
23.642,-2.594,-0.275,6.0
23.601,-2.596,-0.402,0.0
16.306,-1.797,-0.367,0.0
14.864,-1.642,-0.415,0.0
13.858,-1.535,-0.462,0.0
23.602,-2.613,-0.128,38.0
23.603,-2.619,-0.255,18.0
23.62,-2.626,-0.383,2.0
16.564,-1.845,-0.36,0.0
15.018,-1.677,-0.408,0.0
13.95,-1.561,-0.454,0.0
23.596,-2.639,-0.108,48.0
23.252,-2.606,-0.232,5.0
23.649,-2.656,-0.364,0.0
16.818,-1.893,-0.351,0.0
15.321,-1.728,-0.403,0.0
14.15,-1.599,-0.449,0.0
23.389,-2.643,-0.087,20.0
22.33,-2.528,-0.204,3.0
18.978,-2.153,-0.276,0.0
17.082,-1.942,-0.342,0.0
15.534,-1.769,-0.395,0.0
14.255,-1.627,-0.44,0.0
23.496,-2.68,-0.067,0.0
22.365,-2.556,-0.185,4.0
19.587,-2.243,-0.268,0.0
17.31,-1.986,-0.332,0.0
15.822,-1.819,-0.388,0.0
14.431,-1.662,-0.432,0.0
26.266,-3.024,-0.052,2.0
22.441,-2.588,-0.166,2.0
19.904,-2.3,-0.254,0.0
17.633,-2.041,-0.322,0.0
16.007,-1.856,-0.378,0.0
14.871,-1.728,-0.432,0.0
26.242,-3.048,-0.028,3.0
22.55,-2.623,-0.145,3.0
20.326,-2.369,-0.24,0.0
17.908,-2.09,-0.31,0.0
16.318,-1.908,-0.371,0.0
14.986,-1.756,-0.421,0.0
22.633,-2.65,-0.003,4.0
22.561,-2.646,-0.125,10.0
22.261,-2.615,-0.242,0.0
18.223,-2.144,-0.299,0.0
16.59,-1.956,-0.361,0.0
15.129,-1.786,-0.411,0.0
22.241,-2.625,0.018,14.0
22.475,-2.657,-0.102,14.0
22.329,-2.644,-0.222,4.0
18.977,-2.25,-0.293,0.0
16.9,-2.007,-0.351,0.0
15.3,-1.82,-0.4,0.0
22.181,-2.638,0.039,19.0
22.383,-2.666,-0.08,22.0
22.291,-2.659,-0.199,8.0
19.205,-2.294,-0.277,0.0
17.199,-2.057,-0.341,0.0
15.542,-1.862,-0.391,0.0
22.171,-2.655,0.061,21.0
22.217,-2.664,-0.057,14.0
22.131,-2.658,-0.176,4.0
19.646,-2.362,-0.264,0.0
17.495,-2.107,-0.329,0.0
15.891,-1.916,-0.384,0.0
22.167,-2.673,0.084,19.0
22.185,-2.678,-0.035,18.0
22.157,-2.678,-0.154,7.0
20.065,-2.428,-0.249,0.0
17.812,-2.159,-0.317,0.0
16.18,-1.964,-0.375,0.0
22.188,-2.692,0.106,11.0
22.196,-2.696,-0.012,20.0
22.194,-2.699,-0.131,10.0
22.196,-2.703,-0.253,0.0
18.137,-2.211,-0.304,0.0
16.532,-2.018,-0.366,0.0
26.325,-3.212,0.153,5.0
22.191,-2.711,0.01,13.0
22.195,-2.714,-0.108,14.0
22.164,-2.714,-0.229,1.0
18.745,-2.298,-0.295,0.0
16.855,-2.069,-0.355,0.0
26.212,-3.216,0.18,4.0
25.718,-3.159,0.039,9.0
22.213,-2.731,-0.085,12.0
22.17,-2.729,-0.206,2.0
19.248,-2.372,-0.282,0.0
17.085,-2.107,-0.342,0.0
26.043,-3.212,0.207,2.0
25.673,-3.169,0.066,10.0
25.67,-3.172,-0.07,1.0
22.242,-2.751,-0.182,4.0
19.585,-2.425,-0.266,0.0
17.566,-2.177,-0.333,0.0
26.014,-3.223,0.235,1.0
25.708,-3.188,0.094,6.0
25.628,-3.181,-0.043,11.0
22.302,-2.771,-0.159,3.0
20.57,-2.558,-0.257,0.0
17.839,-2.22,-0.318,0.0
29.302,-3.646,0.296,0.0
25.967,-3.234,0.123,5.0
25.592,-3.189,-0.015,13.0
23.558,-2.938,-0.142,0.0
20.848,-2.603,-0.238,1.0
18.235,-2.278,-0.306,0.0
30.52,-3.813,0.342,1.0
26.129,-3.266,0.153,1.0
25.554,-3.197,0.012,12.0
24.467,-3.063,-0.121,1.0
22.079,-2.766,-0.227,2.0
18.855,-2.364,-0.295,0.0
31.308,-3.925,0.386,0.0
27.187,-3.411,0.189,1.0
25.527,-3.204,0.041,11.0
25.417,-3.193,-0.097,6.0
22.387,-2.814,-0.205,5.0
19.343,-2.433,-0.281,0.0
32.45,-4.082,0.436,0.0
27.876,-3.508,0.225,1.0
25.517,-3.213,0.069,7.0
25.499,-3.212,-0.068,10.0
22.558,-2.844,-0.181,4.0
19.813,-2.499,-0.266,0.0
33.969,-4.285,0.494,0.0
28.606,-3.61,0.263,0.0
25.684,-3.242,0.099,4.0
25.465,-3.216,-0.04,12.0
23.136,-2.924,-0.16,5.0
20.616,-2.607,-0.253,0.0
35.49,-4.487,0.557,0.0
29.376,-3.715,0.303,0.0
26.063,-3.298,0.13,1.0
25.459,-3.223,-0.012,13.0
23.672,-2.998,-0.137,1.0
20.884,-2.646,-0.233,0.0
39.274,-4.976,0.661,0.0
30.828,-3.907,0.353,0.0
26.79,-3.396,0.163,1.0
25.43,-3.225,0.016,11.0
25.208,-3.198,-0.118,1.0
22.308,-2.831,-0.224,4.0
39.246,-4.981,0.704,1.0
31.611,-4.012,0.398,0.0
27.433,-3.483,0.198,1.0
25.419,-3.228,0.045,10.0
25.424,-3.229,-0.09,6.0
22.441,-2.851,-0.2,6.0
39.543,-5.025,0.755,0.0
33.236,-4.224,0.456,0.0
27.967,-3.555,0.234,1.0
25.471,-3.238,0.074,6.0
25.415,-3.232,-0.061,12.0
22.693,-2.886,-0.176,4.0
44.686,-5.684,0.904,0.0
34.85,-4.433,0.518,0.0
28.679,-3.648,0.273,0.0
25.767,-3.278,0.104,3.0
25.415,-3.234,-0.032,13.0
23.293,-2.964,-0.154,3.0
48.185,-6.133,1.029,0.0
35.649,-4.537,0.571,0.0
30.061,-3.826,0.32,0.0
26.322,-3.35,0.136,1.0
25.409,-3.234,-0.003,13.0
23.925,-3.045,-0.131,1.0
0.0,0.0,0.0,0.0
37.397,-4.76,0.641,0.0
31.307,-3.984,0.369,0.0
26.96,-3.431,0.17,1.0
25.409,-3.233,0.024,11.0
25.321,-3.222,-0.11,4.0
0.0,0.0,0.0,0.0
39.451,-5.021,0.721,0.0
32.536,-4.14,0.421,0.0
27.633,-3.515,0.206,1.0
25.428,-3.234,0.053,9.0
25.418,-3.233,-0.082,10.0
0.0,0.0,0.0,0.0
0.0,0.0,0.0,0.0
0.0,0.0,0.0,0.0
28.176,-3.582,0.242,1.0
25.545,-3.246,0.083,6.0
25.424,-3.23,-0.053,12.0
0.0,0.0,0.0,0.0
44.556,-5.662,0.915,0.0
34.918,-4.435,0.53,0.0
28.99,-3.681,0.282,0.0
25.884,-3.286,0.113,3.0
25.435,-3.228,-0.024,13.0
0.0,0.0,0.0,0.0
48.052,-6.098,1.042,0.0
36.078,-4.576,0.589,0.0
30.291,-3.84,0.329,0.0
26.488,-3.357,0.145,1.0
25.451,-3.224,0.003,12.0
0.0,0.0,0.0,0.0
0.0,0.0,0.0,0.0
39.274,-4.973,0.685,0.0
31.599,-3.999,0.378,0.0
27.276,-3.45,0.18,1.0
25.465,-3.22,0.032,11.0
0.0,0.0,0.0,0.0
0.0,0.0,0.0,0.0
39.459,-4.985,0.732,0.0
32.872,-4.151,0.43,0.0
27.885,-3.519,0.215,1.0
25.509,-3.218,0.06,9.0
0.0,0.0,0.0,0.0
0.0,0.0,0.0,0.0
42.66,-5.376,0.838,0.0
34.002,-4.282,0.482,0.0
28.409,-3.576,0.25,0.0
25.665,-3.228,0.088,4.0
22.309,-2.808,0.702,0.0
66.371,-8.347,1.733,1.0
0.0,0.0,0.0,0.0
35.346,-4.438,0.54,0.0
29.475,-3.699,0.292,1.0
25.959,-3.255,0.118,4.0
22.351,-2.804,0.728,6.0
0.0,0.0,0.0,0.0
0.0,0.0,0.0,0.0
39.26,-4.914,0.642,0.0
30.775,-3.849,0.338,0.0
26.33,-3.29,0.148,1.0
22.296,-2.788,0.75,23.0
0.0,0.0,0.0,0.0
0.0,0.0,0.0,0.0
39.198,-4.888,0.682,0.0
31.619,-3.939,0.381,0.0
26.215,-3.263,0.175,3.0
22.282,-2.775,0.773,23.0
22.273,-2.771,0.653,2.0
0.0,0.0,0.0,0.0
22.18,-2.754,0.409,0.0
33.318,-4.134,0.436,1.0
26.054,-3.23,0.201,2.0
22.231,-2.757,0.794,20.0
22.225,-2.753,0.675,11.0
22.183,-2.745,0.554,3.0
22.164,-2.74,0.432,7.0
33.818,-4.177,0.478,0.0
28.503,-3.517,0.249,1.0
22.13,-2.732,0.813,13.0
22.193,-2.737,0.696,14.0
22.162,-2.73,0.576,13.0
22.151,-2.725,0.454,10.0
22.183,-2.726,0.336,0.0
29.195,-3.584,0.285,0.0
22.01,-2.704,0.832,8.0
22.042,-2.704,0.714,13.0
22.15,-2.714,0.598,17.0
22.155,-2.712,0.477,11.0
22.16,-2.709,0.358,11.0
22.454,-2.742,0.242,0.0
21.994,-2.688,0.853,9.0
21.996,-2.684,0.734,25.0
22.067,-2.689,0.618,14.0
22.153,-2.696,0.499,14.0
22.126,-2.69,0.379,15.0
22.393,-2.719,0.263,11.0
21.998,-2.673,0.875,10.0
22.01,-2.67,0.757,28.0
21.978,-2.663,0.637,17.0
22.133,-2.678,0.52,16.0
22.121,-2.673,0.4,18.0
22.128,-2.67,0.281,14.0
22.005,-2.657,0.897,9.0
21.995,-2.652,0.777,15.0
21.981,-2.646,0.658,17.0
22.111,-2.658,0.541,17.0
22.118,-2.655,0.421,19.0
22.115,-2.651,0.302,20.0
22.03,-2.643,0.918,7.0
22.02,-2.638,0.799,7.0
22.08,-2.641,0.682,13.0
22.118,-2.641,0.562,17.0
22.124,-2.638,0.442,18.0
22.116,-2.633,0.323,21.0
22.129,-2.637,0.943,14.0
22.141,-2.634,0.824,14.0
22.172,-2.633,0.705,14.0
22.137,-2.625,0.582,15.0
22.143,-2.621,0.463,16.0
22.118,-2.614,0.343,20.0
22.144,-2.619,0.964,18.0
22.165,-2.617,0.845,14.0
22.202,-2.617,0.726,16.0
22.155,-2.607,0.603,13.0
22.169,-2.604,0.483,13.0
22.127,-2.595,0.363,18.0
22.152,-2.6,0.984,16.0
22.165,-2.596,0.865,14.0
22.236,-2.6,0.747,16.0
22.246,-2.597,0.625,13.0
22.311,-2.6,0.506,11.0
22.153,-2.577,0.382,14.0
22.158,-2.58,1.003,13.0
22.181,-2.577,0.884,12.0
22.223,-2.577,0.766,16.0
22.413,-2.594,0.648,5.0
22.467,-2.596,0.528,5.0
22.435,-2.588,0.406,4.0
22.182,-2.561,1.023,12.0
22.211,-2.559,0.904,11.0
22.266,-2.56,0.785,9.0
98.516,-11.305,2.933,25.0
98.56,-11.288,2.399,4.0
0.0,0.0,0.0,0.0
22.214,-2.541,1.043,10.0
22.252,-2.54,0.923,7.0
98.499,-11.223,3.555,40.0
0.0,0.0,0.0,0.0
0.0,0.0,0.0,0.0
0.0,0.0,0.0,0.0
22.309,-2.528,1.065,1.0
22.333,-2.526,0.944,0.0
145.151,-16.384,5.351,3.0
0.0,0.0,0.0,0.0
0.0,0.0,0.0,0.0
0.0,0.0,0.0,0.0
164.609,-18.479,7.985,4.0
153.64,-17.209,6.615,4.0
153.659,-17.173,5.78,7.0
0.0,0.0,0.0,0.0
0.0,0.0,0.0,0.0
52.703,-5.851,1.117,0.0
159.387,-17.712,7.848,16.0
0.0,0.0,0.0,0.0
153.718,-17.002,5.893,8.0
37.605,-4.15,1.233,0.0
37.782,-4.159,1.033,1.0
37.644,-4.135,0.824,0.0
159.501,-17.536,7.966,20.0
155.427,-17.047,6.915,7.0
36.605,-4.005,1.429,0.0
37.203,-4.061,1.245,0.0
36.634,-3.989,1.026,0.0
36.769,-3.995,0.83,1.0
159.489,-17.343,8.073,18.0
155.675,-16.885,7.03,12.0
36.497,-3.948,1.449,2.0
35.975,-3.882,1.228,1.0
35.808,-3.855,1.027,1.0
35.963,-3.862,0.835,0.0
159.538,-17.149,8.178,14.0
159.844,-17.136,7.322,15.0
36.483,-3.901,1.471,0.0
35.249,-3.759,1.225,0.0
34.507,-3.671,1.011,0.0
34.82,-3.695,0.83,0.0
159.58,-16.95,8.279,16.0
159.836,-16.931,7.419,19.0
155.001,-16.375,6.346,6.0
34.471,-3.631,1.219,0.0
34.14,-3.587,1.021,0.0
34.098,-3.574,0.833,0.0
159.016,-16.68,8.345,23.0
159.763,-16.712,7.507,17.0
36.616,-3.819,1.52,0.0
34.217,-3.559,1.23,1.0
33.988,-3.526,1.035,1.0
34.013,-3.519,0.85,1.0
159.079,-16.473,8.434,17.0
159.308,-16.449,7.574,16.0
35.557,-3.661,1.495,0.0
34.071,-3.498,1.242,0.0
33.958,-3.477,1.052,150.0
33.962,-3.467,0.867,3.0
158.803,-16.227,8.502,18.0
36.09,-3.676,1.734,0.0
35.175,-3.573,1.497,0.0
33.992,-3.443,1.256,0.0
33.966,-3.43,1.069,155.0
33.902,-3.414,0.882,4.0
158.837,-16.007,8.582,16.0
35.671,-3.584,1.731,2.0
34.676,-3.473,1.492,0.0
33.956,-3.391,1.271,1.0
33.913,-3.377,1.083,117.0
33.867,-3.363,0.896,5.0
158.933,-15.793,8.658,17.0
35.195,-3.486,1.723,0.0
34.486,-3.405,1.499,0.0
33.888,-3.336,1.283,2.0
33.889,-3.326,1.097,8.0
33.843,-3.311,0.91,8.0
159.047,-15.573,8.731,14.0
34.984,-3.414,1.728,0.0
34.419,-3.348,1.51,1.0
33.854,-3.283,1.295,4.0
33.847,-3.272,1.109,7.0
33.836,-3.26,0.923,16.0
0.0,0.0,0.0,0.0
0.0,0.0,0.0,0.0
34.368,-3.292,1.521,3.0
33.851,-3.232,1.308,5.0
33.814,-3.217,1.12,7.0
33.819,-3.208,0.934,20.0
149.837,-14.221,8.336,30.0
150.267,-14.212,7.53,4.0
34.49,-3.251,1.538,0.0
33.811,-3.176,1.317,7.0
33.79,-3.164,1.13,9.0
33.796,-3.154,0.944,28.0
150.237,-14.029,8.405,21.0
0.0,0.0,0.0,0.0
0.0,0.0,0.0,0.0
33.818,-3.124,1.327,9.0
33.787,-3.111,1.14,12.0
33.802,-3.102,0.954,47.0
186.219,-17.096,10.469,42.0
169.499,-15.506,8.591,5.0
0.0,0.0,0.0,0.0
33.812,-3.071,1.336,9.0
33.782,-3.057,1.148,10.0
33.804,-3.048,0.962,75.0
209.152,-18.868,11.809,150.0
169.981,-15.276,8.655,4.0
34.65,-3.102,1.572,0.0
