X,Y,Z,Reflectivity
10.612,1.067,-0.628,0.0
9.934,0.998,-0.645,0.0
9.472,0.95,-0.669,0.0
8.939,0.895,-0.682,0.0
11.762,1.172,-0.568,0.0
11.105,1.105,-0.599,0.0
10.53,1.046,-0.627,0.0
9.895,0.981,-0.647,0.0
9.432,0.934,-0.67,0.0
8.942,0.884,-0.686,0.0
11.778,1.159,-0.574,0.0
11.059,1.086,-0.601,0.0
10.462,1.026,-0.628,0.0
9.887,0.968,-0.65,0.0
9.412,0.92,-0.672,0.0
8.843,0.863,-0.682,0.0
11.52,0.845,-0.577,0.0
10.89,0.796,-0.605,0.0
10.307,0.751,-0.63,0.0
9.784,0.711,-0.653,0.0
9.233,0.669,-0.668,0.0
8.844,0.639,-0.689,0.0
11.616,0.833,-0.578,0.0
10.947,0.782,-0.605,0.0
10.313,0.735,-0.627,0.0
9.849,0.699,-0.655,0.0
9.254,0.655,-0.666,0.0
8.887,0.627,-0.689,0.0
11.546,0.809,-0.571,0.0
10.945,0.764,-0.602,0.0
10.305,0.717,-0.623,0.0
9.822,0.681,-0.649,0.0
9.363,0.647,-0.671,0.0
8.913,0.614,-0.688,0.0
11.665,0.798,-0.572,0.0
10.937,0.746,-0.597,0.0
10.407,0.707,-0.625,0.0
9.831,0.666,-0.646,0.0
9.411,0.635,-0.67,0.0
8.92,0.6,-0.685,0.0
11.722,0.783,-0.57,0.0
10.992,0.731,-0.595,0.0
10.445,0.693,-0.623,0.0
9.924,0.656,-0.648,0.0
9.435,0.621,-0.668,0.0
8.928,0.586,-0.681,0.0
11.822,0.77,-0.57,0.0
11.068,0.718,-0.594,0.0
10.471,0.677,-0.62,0.0
9.916,0.639,-0.643,0.0
9.473,0.608,-0.666,0.0
9.019,0.577,-0.684,0.0
11.807,0.75,-0.563,0.0
11.105,0.703,-0.591,0.0
10.462,0.659,-0.614,0.0
9.95,0.625,-0.64,0.0
9.464,0.592,-0.66,0.0
9.002,0.561,-0.678,0.0
11.901,0.736,-0.562,0.0
11.152,0.687,-0.587,0.0
10.651,0.654,-0.619,0.0
10.004,0.611,-0.638,0.0
9.549,0.581,-0.661,0.0
9.044,0.549,-0.676,0.0
11.96,0.72,-0.557,0.0
11.267,0.676,-0.587,0.0
10.646,0.636,-0.613,0.0
10.102,0.601,-0.638,0.0
9.57,0.567,-0.657,0.0
9.145,0.539,-0.678,0.0
12.068,0.707,-0.555,0.0
11.349,0.662,-0.584,0.0
10.642,0.618,-0.606,0.0
10.156,0.587,-0.635,0.0
9.678,0.557,-0.658,0.0
9.199,0.527,-0.676,0.0
12.161,0.692,-0.551,0.0
11.401,0.646,-0.579,0.0
10.779,0.608,-0.606,0.0
10.238,0.575,-0.633,0.0
9.724,0.544,-0.654,0.0
9.175,0.511,-0.667,0.0
12.212,0.675,-0.545,0.0
11.563,0.636,-0.579,0.0
11.006,0.602,-0.611,0.0
10.305,0.561,-0.629,0.0
9.799,0.531,-0.652,0.0
9.276,0.501,-0.668,0.0
12.333,0.661,-0.541,0.0
11.593,0.618,-0.572,0.0
10.922,0.58,-0.598,0.0
10.406,0.55,-0.628,0.0
9.855,0.518,-0.648,0.0
9.325,0.488,-0.664,0.0
12.411,0.645,-0.535,0.0
11.713,0.605,-0.568,0.0
10.957,0.563,-0.591,0.0
10.415,0.533,-0.62,0.0
9.873,0.503,-0.641,0.0
9.465,0.48,-0.666,0.0
12.508,0.629,-0.529,0.0
11.812,0.591,-0.563,0.0
11.126,0.554,-0.591,0.0
10.476,0.519,-0.614,0.0
9.963,0.491,-0.638,0.0
9.498,0.466,-0.66,0.0
12.668,0.616,-0.525,0.0
11.85,0.573,-0.555,0.0
11.297,0.544,-0.59,0.0
10.6,0.507,-0.612,0.0
10.078,0.48,-0.637,0.0
9.556,0.453,-0.656,0.0
12.763,0.6,-0.517,0.0
12.023,0.562,-0.552,0.0
11.328,0.527,-0.581,0.0
10.634,0.492,-0.604,0.0
10.175,0.468,-0.633,0.0
9.63,0.44,-0.652,0.0
12.847,0.583,-0.508,0.0
12.161,0.549,-0.547,0.0
11.463,0.514,-0.577,0.0
10.744,0.479,-0.6,0.0
10.267,0.455,-0.629,0.0
9.736,0.429,-0.649,0.0
13.071,0.572,-0.504,0.0
12.353,0.537,-0.543,0.0
11.575,0.5,-0.571,0.0
10.873,0.467,-0.596,0.0
10.351,0.442,-0.623,0.0
9.822,0.417,-0.645,0.0
13.244,0.558,-0.497,0.0
12.431,0.52,-0.533,0.0
11.729,0.488,-0.566,0.0
10.996,0.454,-0.591,0.0
10.492,0.431,-0.621,0.0
9.904,0.404,-0.639,0.0
13.464,0.545,-0.491,0.0
12.518,0.504,-0.524,0.0
11.884,0.475,-0.561,0.0
11.207,0.445,-0.59,0.0
10.559,0.417,-0.613,0.0
10.055,0.394,-0.638,0.0
13.667,0.532,-0.483,0.0
12.721,0.492,-0.518,0.0
12.073,0.463,-0.556,0.0
11.332,0.432,-0.584,0.0
10.639,0.403,-0.606,0.0
10.154,0.382,-0.633,0.0
13.823,0.516,-0.473,0.0
12.916,0.479,-0.511,0.0
12.204,0.449,-0.548,0.0
11.384,0.416,-0.573,0.0
10.785,0.391,-0.601,0.0
10.214,0.368,-0.624,0.0
14.02,0.501,-0.463,0.0
13.039,0.463,-0.501,0.0
12.384,0.436,-0.541,0.0
11.602,0.406,-0.571,0.0
11.014,0.382,-0.601,0.0
10.381,0.358,-0.622,0.0
14.28,0.488,-0.454,0.0
13.377,0.454,-0.497,0.0
12.434,0.419,-0.528,0.0
11.8,0.394,-0.566,0.0
11.139,0.37,-0.593,0.0
10.488,0.345,-0.615,0.0
14.58,0.476,-0.446,0.0
13.53,0.438,-0.486,0.0
12.698,0.408,-0.524,0.0
11.924,0.38,-0.556,0.0
11.26,0.356,-0.586,0.0
10.63,0.334,-0.61,0.0
14.845,0.462,-0.435,0.0
13.814,0.427,-0.478,0.0
12.811,0.392,-0.512,0.0
12.175,0.37,-0.552,0.0
11.44,0.345,-0.58,0.0
10.738,0.321,-0.602,0.0
15.112,0.448,-0.423,0.0
14.01,0.412,-0.467,0.0
13.05,0.38,-0.504,0.0
12.331,0.356,-0.543,0.0
11.654,0.334,-0.575,0.0
10.995,0.312,-0.601,0.0
15.452,0.435,-0.412,0.0
14.178,0.396,-0.453,0.0
13.273,0.367,-0.494,0.0
12.478,0.342,-0.532,0.0
11.762,0.32,-0.564,0.0
11.129,0.3,-0.593,0.0
15.681,0.418,-0.396,0.0
14.546,0.385,-0.444,0.0
13.521,0.354,-0.485,0.0
12.736,0.331,-0.525,0.0
12.01,0.309,-0.559,0.0
11.28,0.287,-0.585,0.0
16.093,0.406,-0.383,0.0
14.825,0.37,-0.431,0.0
13.809,0.342,-0.475,0.0
12.897,0.316,-0.513,0.0
12.196,0.296,-0.55,0.0
11.448,0.275,-0.577,0.0
16.468,0.392,-0.368,0.0
15.262,0.359,-0.422,0.0
13.96,0.325,-0.459,0.0
13.166,0.304,-0.504,0.0
12.378,0.283,-0.539,0.0
11.672,0.264,-0.57,0.0
16.77,0.375,-0.35,0.0
15.613,0.346,-0.408,0.0
14.376,0.315,-0.452,0.0
13.36,0.29,-0.492,0.0
12.583,0.27,-0.529,0.0
11.869,0.252,-0.562,0.0
17.189,0.361,-0.333,0.0
15.844,0.329,-0.39,0.0
14.669,0.301,-0.438,0.0
13.676,0.277,-0.482,0.0
12.759,0.256,-0.517,0.0
12.097,0.24,-0.554,0.0
17.76,0.348,-0.316,0.0
16.28,0.316,-0.375,0.0
14.987,0.287,-0.424,0.0
13.927,0.264,-0.469,0.0
13.032,0.244,-0.507,0.0
12.34,0.228,-0.545,0.0
18.354,0.335,-0.297,0.0
16.628,0.3,-0.357,0.0
15.502,0.276,-0.414,0.0
14.175,0.249,-0.454,0.0
13.371,0.232,-0.499,0.0
12.445,0.213,-0.53,0.0
19.062,0.323,-0.278,0.0
17.064,0.285,-0.338,0.0
15.801,0.261,-0.396,0.0
14.547,0.237,-0.443,0.0
13.519,0.217,-0.482,0.0
12.712,0.201,-0.52,0.0
19.962,0.312,-0.258,0.0
17.622,0.272,-0.32,0.0
16.209,0.247,-0.38,0.0
14.991,0.225,-0.431,0.0
13.892,0.205,-0.472,0.0
12.948,0.189,-0.508,0.0
20.625,0.297,-0.233,0.0
18.227,0.258,-0.301,0.0
16.602,0.232,-0.361,0.0
15.306,0.21,-0.414,0.0
14.21,0.192,-0.459,0.0
13.308,0.177,-0.5,0.0
21.775,0.286,-0.209,1.0
18.849,0.244,-0.279,0.0
16.977,0.216,-0.34,0.0
15.766,0.197,-0.4,0.0
14.523,0.179,-0.444,0.0
13.569,0.164,-0.486,0.0
22.34,0.267,-0.176,0.0
20.018,0.235,-0.262,0.0
17.594,0.202,-0.322,0.0
16.245,0.184,-0.383,0.0
14.856,0.165,-0.428,0.0
13.891,0.151,-0.473,0.0
23.462,0.252,-0.143,0.0
20.847,0.22,-0.236,0.0
18.28,0.189,-0.302,0.0
16.624,0.168,-0.363,0.0
15.395,0.153,-0.416,0.0
14.188,0.138,-0.458,0.0
24.612,0.235,-0.106,0.0
21.92,0.205,-0.209,3.0
19.02,0.175,-0.28,0.0
17.081,0.153,-0.343,0.0
15.78,0.139,-0.399,0.0
14.627,0.126,-0.446,0.0
25.592,0.216,-0.064,0.0
22.532,0.186,-0.174,1.0
19.906,0.16,-0.257,0.0
17.609,0.138,-0.321,0.0
16.32,0.125,-0.382,0.0
15.091,0.113,-0.432,0.0
26.54,0.194,-0.018,0.0
23.623,0.169,-0.139,0.0
20.937,0.146,-0.232,1.0
18.376,0.125,-0.301,0.0
16.71,0.11,-0.361,0.0
15.527,0.1,-0.416,0.0
27.517,0.172,0.031,0.0
24.911,0.152,-0.101,0.0
22.043,0.13,-0.204,3.0
19.136,0.109,-0.278,0.0
17.174,0.095,-0.339,0.0
15.897,0.085,-0.396,0.0
28.621,0.149,0.086,1.0
25.592,0.129,-0.055,0.0
22.991,0.112,-0.169,1.0
20.116,0.094,-0.254,0.0
17.847,0.081,-0.318,0.0
16.413,0.072,-0.378,0.0
28.998,0.122,0.141,0.0
26.889,0.109,-0.007,0.0
23.818,0.092,-0.13,0.0
21.149,0.078,-0.227,4.0
18.565,0.066,-0.296,0.0
16.838,0.057,-0.355,0.0
57.582,-0.062,5.811,23.0
56.85,-0.053,5.434,27.0
57.446,-0.045,5.184,31.0
62.696,-0.039,5.319,36.0
59.124,-0.027,4.703,24.0
63.332,-0.019,4.702,31.0
57.359,-0.018,5.878,32.0
56.832,-0.01,5.521,27.0
57.37,-0.001,5.267,29.0
58.123,0.008,5.021,24.0
59.168,0.017,4.797,17.0
63.481,0.029,4.809,23.0
56.952,0.025,5.924,31.0
57.095,0.034,5.634,31.0
57.192,0.044,5.337,31.0
57.862,0.054,5.086,32.0
59.189,0.064,4.887,22.0
63.412,0.08,4.899,23.0
57.395,0.072,6.057,28.0
56.804,0.081,5.691,22.0
57.007,0.091,5.406,29.0
57.547,0.101,5.144,32.0
59.222,0.114,4.978,30.0
62.731,0.132,4.939,17.0
57.431,0.121,6.147,27.0
56.683,0.129,5.762,27.0
56.972,0.139,5.486,30.0
56.692,0.148,5.15,30.0
58.916,0.164,5.037,32.0
62.746,0.185,5.03,32.0
56.693,0.168,6.149,31.0
56.793,0.178,5.854,25.0
57.285,0.189,5.597,31.0
56.681,0.197,5.228,31.0
58.454,0.214,5.079,18.0
62.773,0.241,5.12,30.0
56.436,0.218,6.2,25.0
57.053,0.23,5.961,30.0
57.412,0.241,5.69,31.0
57.449,0.252,5.379,31.0
0.0,0.0,0.0,0.0
63.082,0.299,5.231,27.0
56.547,0.27,6.29,24.0
56.993,0.282,6.033,31.0
57.063,0.293,5.732,29.0
57.252,0.304,5.438,31.0
56.738,0.312,5.084,25.0
63.083,0.358,5.315,31.0
56.564,0.323,6.368,14.0
56.815,0.335,6.089,31.0
57.044,0.347,5.806,28.0
57.352,0.359,5.523,28.0
56.66,0.365,5.151,28.0
63.08,0.418,5.396,14.0
56.778,0.378,6.466,13.0
56.792,0.389,6.16,30.0
57.223,0.403,5.897,25.0
58.187,0.42,5.677,32.0
56.719,0.421,5.228,30.0
63.045,0.48,5.472,12.0
52.502,0.402,6.046,13.0
56.646,0.444,6.215,30.0
57.289,0.46,5.976,30.0
0.0,0.0,0.0,0.0
56.911,0.478,5.316,30.0
0.0,0.0,0.0,0.0
52.545,0.455,6.115,24.0
56.91,0.503,6.314,29.0
57.453,0.52,6.062,19.0
57.298,0.529,5.73,14.0
57.261,0.539,5.416,26.0
56.811,0.546,5.067,30.0
52.421,0.508,6.163,24.0
57.127,0.564,6.405,30.0
57.466,0.579,6.131,26.0
57.609,0.592,5.828,32.0
57.737,0.604,5.528,31.0
56.547,0.602,5.108,25.0
52.274,0.561,6.206,25.0
48.786,0.533,5.526,13.0
57.465,0.639,6.196,31.0
57.512,0.65,5.882,31.0
57.75,0.665,5.593,29.0
56.709,0.664,5.185,29.0
52.442,0.619,6.284,9.0
59.335,0.711,6.785,5.0
57.151,0.697,6.224,29.0
57.535,0.712,5.947,16.0
57.81,0.727,5.661,28.0
56.817,0.726,5.255,23.0
52.189,0.672,6.309,12.0
60.016,0.785,6.926,9.0
56.808,0.754,6.246,31.0
57.358,0.773,5.988,20.0
49.946,0.683,4.942,12.0
57.045,0.791,5.335,26.0
48.978,0.685,5.972,24.0
48.612,0.689,5.66,22.0
56.463,0.811,6.265,30.0
57.388,0.837,6.048,31.0
50.051,0.739,5.002,19.0
57.208,0.856,5.406,23.0
48.9,0.738,6.01,23.0
49.044,0.75,5.758,20.0
56.316,0.872,6.303,9.0
57.43,0.901,6.108,26.0
50.163,0.797,5.061,30.0
57.304,0.922,5.469,7.0
48.957,0.794,6.063,22.0
48.838,0.801,5.78,22.0
56.327,0.936,6.357,12.0
50.14,0.843,5.378,19.0
50.163,0.854,5.106,21.0
57.049,0.982,5.495,15.0
49.057,0.852,6.12,23.0
48.86,0.858,5.826,38.0
0.0,0.0,0.0,0.0
50.031,0.899,5.411,25.0
50.252,0.913,5.159,19.0
57.005,1.047,5.54,23.0
48.961,0.907,6.15,9.0
48.851,0.914,5.866,39.0
0.0,0.0,0.0,0.0
50.117,0.958,5.461,23.0
50.164,0.969,5.191,17.0
57.001,1.112,5.586,25.0
45.886,0.903,5.801,22.0
48.732,0.969,5.891,22.0
49.673,0.998,5.73,25.0
50.147,1.017,5.504,24.0
50.228,1.028,5.236,15.0
57.162,1.182,5.645,17.0
45.91,0.957,5.839,26.0
48.737,1.026,5.928,16.0
48.996,1.041,5.689,22.0
50.149,1.075,5.541,24.0
55.015,1.19,5.775,8.0
57.287,1.252,5.698,14.0
45.942,1.012,5.876,29.0
45.394,1.009,5.554,14.0
48.988,1.099,5.723,6.0
50.072,1.133,5.567,34.0
49.926,1.14,5.275,23.0
57.301,1.32,5.739,20.0
45.951,1.067,5.909,14.0
45.404,1.064,5.586,28.0
50.298,1.188,5.909,4.0
50.052,1.192,5.598,22.0
49.866,1.198,5.301,32.0
61.793,1.496,6.228,7.0
0.0,0.0,0.0,0.0
45.512,1.121,5.627,19.0
45.299,1.124,5.349,16.0
45.676,1.142,5.135,19.0
49.723,1.253,5.315,23.0
57.287,1.456,5.807,25.0
47.408,1.215,6.154,14.0
45.408,1.173,5.641,19.0
45.327,1.179,5.378,28.0
50.027,1.312,5.653,8.0
0.0,0.0,0.0,0.0
49.551,1.318,5.05,20.0
47.538,1.276,6.197,18.0
45.244,1.222,5.644,30.0
45.322,1.233,5.401,35.0
45.618,1.25,5.178,19.0
49.692,1.372,5.364,18.0
49.542,1.377,5.073,24.0
44.337,1.243,5.801,17.0
44.155,1.246,5.53,18.0
45.362,1.289,5.428,27.0
45.559,1.303,5.192,20.0
46.073,1.327,4.995,17.0
49.164,1.426,5.057,24.0
44.242,1.294,5.809,38.0
43.938,1.294,5.522,24.0
45.349,1.344,5.446,32.0
45.687,1.363,5.226,14.0
48.699,1.462,5.3,11.0
49.06,1.482,5.066,23.0
44.15,1.345,5.814,24.0
43.873,1.345,5.531,21.0
45.488,1.403,5.48,23.0
45.636,1.416,5.238,9.0
48.779,1.523,5.326,13.0
48.913,1.537,5.068,23.0
44.083,1.397,5.821,18.0
43.819,1.397,5.54,25.0
45.527,1.46,5.5,27.0
45.692,1.473,5.259,13.0
48.908,1.586,5.356,22.0
48.917,1.596,5.084,22.0
43.97,1.447,5.82,19.0
43.765,1.448,5.546,38.0
45.494,1.514,5.509,36.0
0.0,0.0,0.0,0.0
48.642,1.637,5.341,4.0
48.922,1.655,5.098,6.0
43.983,1.501,5.833,27.0
43.739,1.5,5.554,38.0
45.449,1.568,5.515,29.0
45.814,1.589,5.297,20.0
45.791,1.596,5.038,20.0
50.788,1.779,5.304,17.0
43.715,1.545,5.807,33.0
43.836,1.557,5.576,34.0
45.354,1.619,5.513,35.0
45.739,1.641,5.297,27.0
46.003,1.659,5.07,20.0
50.774,1.841,5.311,11.0
43.603,1.594,5.8,27.0
0.0,0.0,0.0,0.0
45.439,1.677,5.53,33.0
45.762,1.697,5.307,33.0
45.49,1.695,5.02,23.0
48.376,1.811,5.067,22.0
43.528,1.643,5.795,31.0
43.959,1.667,5.603,29.0
45.454,1.732,5.537,29.0
45.813,1.753,5.318,20.0
45.346,1.743,5.008,29.0
48.274,1.865,5.06,22.0
43.657,1.701,5.816,36.0
44.155,1.727,5.632,30.0
45.561,1.79,5.553,36.0
45.71,1.804,5.308,34.0
45.417,1.8,5.018,29.0
48.394,1.927,5.075,16.0
43.653,1.752,5.817,31.0
44.592,1.797,5.689,20.0
45.948,1.859,5.601,20.0
45.634,1.854,5.3,20.0
45.393,1.852,5.015,25.0
63.298,2.594,6.638,5.0
43.759,1.808,5.83,31.0
0.0,0.0,0.0,0.0
45.884,1.911,5.592,20.0
45.658,1.909,5.301,30.0
49.625,2.083,5.481,6.0
56.177,2.367,5.888,7.0
43.834,1.862,5.838,31.0
0.0,0.0,0.0,0.0
45.801,1.961,5.578,20.0
45.608,1.959,5.292,29.0
45.977,1.983,5.074,12.0
49.427,2.14,5.176,15.0
43.908,1.916,5.843,38.0
44.751,1.96,5.7,19.0
45.874,2.016,5.582,21.0
45.542,2.009,5.278,31.0
46.061,2.039,5.077,32.0
49.381,2.194,5.164,12.0
44.236,1.982,5.88,33.0
44.368,1.994,5.644,32.0
46.007,2.075,5.59,20.0
45.585,2.063,5.275,33.0
48.342,2.195,5.32,4.0
56.408,2.57,5.889,15.0
44.415,2.04,5.895,32.0
44.382,2.046,5.637,39.0
45.994,2.126,5.579,10.0
45.59,2.114,5.266,34.0
48.57,2.26,5.335,22.0
59.412,2.774,6.189,4.0
44.536,2.096,5.901,36.0
44.395,2.096,5.628,38.0
45.923,2.175,5.559,19.0
45.613,2.166,5.257,31.0
57.265,2.729,6.274,30.0
59.356,2.837,6.167,17.0
44.486,2.143,5.881,30.0
44.401,2.145,5.615,25.0
45.789,2.219,5.529,33.0
48.153,2.34,5.535,29.0
56.735,2.765,6.199,30.0
50.589,2.473,5.24,24.0
44.475,2.192,5.865,30.0
44.338,2.191,5.592,17.0
45.835,2.271,5.519,35.0
48.944,2.432,5.609,24.0
51.322,2.557,5.589,24.0
50.522,2.524,5.215,21.0
44.5,2.241,5.852,33.0
48.111,2.429,6.05,13.0
45.788,2.318,5.496,26.0
47.521,2.412,5.427,20.0
50.607,2.576,5.491,13.0
50.417,2.573,5.183,24.0
44.457,2.286,5.827,37.0
47.771,2.462,5.987,21.0
43.626,2.254,5.217,27.0
47.41,2.456,5.394,18.0
48.686,2.528,5.261,22.0
50.248,2.617,5.144,23.0
44.516,2.335,5.815,33.0
47.593,2.503,5.943,21.0
43.567,2.296,5.19,18.0
47.368,2.503,5.366,29.0
48.555,2.572,5.223,22.0
50.02,2.655,5.096,24.0
44.556,2.384,5.797,32.0
0.0,0.0,0.0,0.0
43.682,2.346,5.181,22.0
47.553,2.561,5.363,22.0
48.818,2.635,5.226,6.0
50.056,2.707,5.073,7.0
44.331,2.416,5.744,17.0
0.0,0.0,0.0,0.0
43.68,2.39,5.157,27.0
47.675,2.614,5.35,22.0
44.782,2.461,4.769,11.0
49.968,2.752,5.036,22.0
35.459,1.967,4.574,27.0
43.78,2.433,5.394,31.0
43.629,2.429,5.125,33.0
48.528,2.708,5.416,6.0
44.768,2.503,4.74,22.0
49.394,2.767,4.948,23.0
35.389,1.997,4.542,32.0
43.786,2.475,5.367,23.0
43.61,2.469,5.095,29.0
45.0,2.553,4.994,21.0
44.852,2.549,4.72,22.0
49.241,2.804,4.901,23.0
35.415,2.031,4.522,32.0
43.789,2.516,5.338,16.0
47.148,2.714,5.476,3.0
45.185,2.605,4.984,20.0
48.255,2.787,5.045,13.0
49.555,2.867,4.898,24.0
42.907,2.5,5.448,12.0
43.736,2.552,5.301,27.0
43.736,2.556,5.049,19.0
44.849,2.626,4.914,26.0
48.325,2.834,5.018,21.0
56.915,3.343,5.584,16.0
42.992,2.543,5.427,19.0
43.669,2.587,5.26,27.0
44.549,2.643,5.109,20.0
44.9,2.668,4.886,21.0
48.75,2.901,5.025,22.0
57.057,3.401,5.554,17.0
42.911,2.575,5.383,34.0
0.0,0.0,0.0,0.0
44.981,2.707,5.122,29.0
48.388,2.916,5.227,14.0
49.345,2.978,5.046,22.0
63.15,3.818,6.096,11.0
42.897,2.61,5.346,34.0
42.337,2.579,5.031,5.0
44.938,2.741,5.08,25.0
48.824,2.982,5.233,23.0
51.652,3.159,5.239,7.0
63.163,3.869,6.044,17.0
42.905,2.646,5.309,26.0
45.11,2.784,5.321,13.0
0.0,0.0,0.0,0.0
48.854,3.023,5.193,23.0
60.121,3.725,6.045,12.0
63.044,3.911,5.977,13.0
43.224,2.699,5.31,19.0
45.053,2.816,5.273,8.0
46.65,2.919,5.19,21.0
49.052,3.072,5.17,23.0
51.997,3.261,5.181,13.0
54.981,3.452,5.162,11.0
43.189,2.729,5.265,20.0
45.304,2.865,5.261,13.0
47.154,2.985,5.202,16.0
49.177,3.116,5.136,23.0
51.996,3.298,5.131,25.0
59.761,3.795,5.554,20.0
0.0,0.0,0.0,0.0
45.589,2.915,5.249,20.0
47.097,3.015,5.15,12.0
49.275,3.157,5.098,4.0
51.918,3.329,5.073,25.0
59.692,3.832,5.489,10.0
42.362,2.736,5.081,19.0
45.982,2.972,5.248,20.0
47.15,3.05,5.108,12.0
59.887,3.876,6.137,2.0
52.051,3.373,5.033,25.0
68.659,4.453,6.244,8.0
42.486,2.771,5.052,15.0
46.791,3.054,5.292,7.0
0.0,0.0,0.0,0.0
51.692,3.38,5.242,6.0
52.217,3.416,4.994,22.0
58.013,3.798,5.215,19.0
46.765,3.08,5.51,4.0
34.178,2.252,3.829,26.0
49.125,3.24,5.218,23.0
51.628,3.407,5.18,18.0
52.343,3.456,4.949,24.0
0.0,0.0,0.0,0.0
47.113,3.131,5.499,22.0
34.137,2.269,3.786,26.0
51.563,3.429,5.42,6.0
51.554,3.431,5.115,8.0
52.352,3.486,4.892,21.0
59.33,3.953,5.203,22.0
46.779,3.134,5.408,13.0
34.155,2.289,3.75,26.0
64.527,4.327,6.71,5.0
54.848,3.68,5.38,9.0
62.837,4.218,5.801,9.0
0.0,0.0,0.0,0.0
46.813,3.161,5.357,14.0
33.887,2.289,3.68,11.0
54.664,3.694,5.62,17.0
65.86,4.452,6.383,19.0
61.092,4.132,5.568,5.0
58.096,3.93,4.96,13.0
34.176,2.324,3.87,27.0
33.786,2.298,3.629,21.0
54.778,3.727,5.567,16.0
65.923,4.487,6.31,11.0
59.244,4.034,5.329,13.0
67.013,4.564,5.641,10.0
34.176,2.339,3.828,33.0
33.773,2.312,3.587,24.0
48.308,3.308,4.85,15.0
52.011,3.563,4.915,5.0
59.208,4.056,5.253,15.0
58.609,4.017,4.862,21.0
34.001,2.341,3.766,28.0
33.803,2.328,3.547,25.0
48.265,3.324,4.785,17.0
62.778,4.325,5.854,2.0
59.193,4.079,5.177,6.0
58.587,4.038,4.785,25.0
33.845,2.343,3.705,29.0
54.581,3.779,5.658,8.0
48.208,3.339,4.717,23.0
60.984,4.223,5.608,7.0
81.022,5.612,6.982,12.0
58.451,4.049,4.699,32.0
33.707,2.345,3.646,23.0
54.548,3.796,5.583,17.0
48.18,3.352,4.651,19.0
59.067,4.11,5.354,6.0
58.689,4.084,4.98,18.0
58.141,4.045,4.598,40.0
33.742,2.358,3.605,25.0
48.256,3.372,4.874,22.0
52.006,3.634,4.951,9.0
51.873,3.624,4.633,17.0
58.651,4.098,4.898,28.0
58.133,4.061,4.519,21.0
33.853,2.375,3.57,28.0
48.246,3.383,4.808,27.0
51.97,3.644,4.877,19.0
51.844,3.635,4.559,8.0
58.642,4.111,4.817,25.0
61.543,4.314,4.7,11.0
48.29,3.398,5.026,6.0
48.194,3.391,4.735,22.0
51.969,3.655,4.804,13.0
58.763,4.132,5.086,15.0
58.424,4.108,4.718,25.0
61.51,4.324,4.613,20.0
48.343,3.411,4.964,16.0
48.143,3.396,4.663,10.0
51.883,3.658,4.724,16.0
58.706,4.138,4.998,31.0
58.115,4.096,4.612,31.0
61.377,4.324,4.517,26.0
48.282,3.414,4.889,18.0
66.82,4.723,6.377,6.0
51.832,3.662,4.645,24.0
58.664,4.143,4.911,28.0
58.148,4.104,4.532,20.0
61.36,4.33,4.427,27.0
48.271,3.418,4.818,31.0
51.965,3.677,4.884,13.0
58.812,4.16,5.186,9.0
58.67,4.148,4.827,20.0
61.509,4.347,4.705,10.0
60.734,4.291,4.294,23.0
48.207,3.417,4.741,16.0
51.94,3.679,4.805,21.0
58.766,4.16,5.095,28.0
58.307,4.125,4.711,12.0
61.525,4.351,4.615,24.0
60.738,4.293,4.205,26.0
48.183,3.416,4.667,3.0
51.858,3.674,4.721,18.0
58.717,4.157,5.004,29.0
58.128,4.113,4.611,32.0
61.388,4.341,4.513,26.0
61.38,4.338,4.159,31.0
66.824,4.736,6.371,4.0
51.835,3.671,4.64,24.0
58.667,4.152,4.911,28.0
58.11,4.109,4.522,13.0
61.298,4.332,4.415,25.0
0.0,0.0,0.0,0.0
51.971,3.68,4.876,15.0
58.81,4.161,5.176,13.0
58.676,4.148,4.824,17.0
61.526,4.346,4.695,12.0
60.644,4.281,4.277,24.0
60.783,4.288,3.936,13.0
51.923,3.671,4.793,16.0
58.757,4.151,5.082,22.0
58.25,4.112,4.7,18.0
61.455,4.334,4.596,27.0
60.994,4.298,4.209,32.0
60.778,4.28,3.843,13.0
51.849,3.659,4.706,20.0
58.709,4.139,4.987,28.0
58.114,4.093,4.599,30.0
61.324,4.315,4.492,32.0
61.69,4.337,4.161,30.0
77.719,5.459,4.794,17.0
51.856,3.649,4.626,18.0
58.648,4.123,4.891,24.0
58.124,4.082,4.51,12.0
61.321,4.302,4.396,20.0
0.0,0.0,0.0,0.0
77.749,5.445,4.674,26.0
58.904,4.132,5.162,5.0
58.644,4.109,4.798,23.0
61.592,4.311,4.682,14.0
60.763,4.248,4.26,24.0
60.808,4.247,3.911,11.0
77.683,5.42,4.549,31.0
58.734,4.104,5.054,14.0
58.244,4.065,4.673,32.0
61.612,4.295,4.585,20.0
60.702,4.226,4.16,22.0
77.682,5.402,4.873,14.0
78.027,5.421,4.445,26.0
58.658,4.08,4.954,21.0
58.126,4.038,4.571,31.0
61.546,4.27,4.482,11.0
77.98,5.403,5.22,7.0
77.755,5.381,4.755,10.0
78.731,5.442,4.36,26.0
58.607,4.055,4.855,25.0
61.624,4.259,4.746,7.0
60.985,4.208,4.344,19.0
77.958,5.372,5.094,12.0
77.649,5.345,4.625,23.0
78.663,5.407,4.231,24.0
58.548,4.028,4.756,26.0
61.545,4.228,4.643,12.0
60.518,4.151,4.215,18.0
80.377,5.506,5.124,25.0
78.515,5.371,4.552,23.0
78.62,5.371,4.104,16.0
58.183,3.977,4.633,25.0
61.549,4.201,4.544,16.0
78.174,5.327,5.319,10.0
80.035,5.446,4.975,31.0
78.818,5.356,4.445,21.0
80.46,5.459,4.073,36.0
58.09,3.944,4.534,20.0
61.156,4.144,4.419,21.0
80.574,5.451,5.355,16.0
80.009,5.405,4.846,32.0
78.723,5.31,4.314,13.0
80.804,5.441,3.962,28.0
58.254,3.923,4.453,6.0
60.552,4.071,4.277,12.0
80.555,5.407,5.223,28.0
80.055,5.364,4.719,9.0
78.521,5.252,4.175,8.0
80.843,5.399,3.833,7.0
64.789,4.327,4.847,6.0
80.823,5.388,5.579,9.0
80.618,5.365,5.098,31.0
79.974,5.312,4.587,31.0
80.945,5.368,4.175,35.0
0.0,0.0,0.0,0.0
61.571,4.074,4.507,10.0
80.8,5.337,5.446,26.0
80.443,5.303,4.956,27.0
79.952,5.261,4.456,25.0
80.907,5.313,4.042,32.0
0.0,0.0,0.0,0.0
80.875,5.299,5.789,8.0
80.621,5.271,5.303,33.0
80.467,5.25,4.827,27.0
80.862,5.266,4.376,25.0
80.864,5.256,3.909,15.0
0.0,0.0,0.0,0.0
68.17,4.419,4.768,21.0
80.76,5.224,5.182,35.0
80.808,5.216,4.717,28.0
80.819,5.205,4.242,30.0
0.0,0.0,0.0,0.0
0.0,0.0,0.0,0.0
80.663,5.169,5.511,15.0
80.814,5.167,5.053,29.0
80.907,5.161,4.591,22.0
80.917,5.151,4.116,34.0
0.0,0.0,0.0,0.0
0.0,0.0,0.0,0.0
58.571,3.708,3.907,10.0
58.671,3.705,3.574,10.0
80.882,5.097,4.461,18.0
58.693,3.689,2.892,20.0
0.0,0.0,0.0,0.0
47.913,2.998,1.809,1.0
58.539,3.658,3.811,23.0
58.566,3.65,3.474,40.0
58.642,3.646,3.14,29.0
58.659,3.638,2.796,5.0
0.0,0.0,0.0,0.0
47.576,2.937,1.72,4.0
58.53,3.607,3.716,47.0
58.586,3.601,3.381,55.0
58.648,3.595,3.046,54.0
0.0,0.0,0.0,0.0
0.0,0.0,0.0,0.0
47.417,2.885,1.639,8.0
58.54,3.555,3.623,45.0
58.606,3.549,3.288,50.0
58.644,3.542,2.952,56.0
0.0,0.0,0.0,0.0
48.205,2.896,1.867,0.0
47.28,2.833,1.559,12.0
58.556,3.5,3.53,51.0
58.612,3.493,3.195,31.0
58.659,3.487,2.859,20.0
0.0,0.0,0.0,0.0
47.764,2.823,1.774,2.0
47.204,2.782,1.481,32.0
58.59,3.445,3.439,37.0
58.673,3.44,3.106,20.0
0.0,0.0,0.0,0.0
0.0,0.0,0.0,0.0
47.486,2.759,1.688,5.0
47.206,2.735,1.407,39.0
58.658,3.389,3.351,24.0
81.054,4.668,4.162,25.0
0.0,0.0,0.0,0.0
0.0,0.0,0.0,0.0
47.35,2.702,1.609,9.0
47.237,2.687,1.334,32.0
80.614,4.572,4.479,28.0
81.058,4.582,4.036,20.0
0.0,0.0,0.0,0.0
47.955,2.693,1.83,1.0
47.261,2.645,1.532,11.0
47.257,2.637,1.261,35.0
80.903,4.499,4.368,28.0
81.028,4.49,3.908,2.0
0.0,0.0,0.0,0.0
47.635,2.621,1.744,3.0
47.255,2.592,1.459,13.0
47.265,2.584,1.188,14.0
81.088,4.417,4.253,35.0
0.0,0.0,0.0,0.0
0.0,0.0,0.0,0.0
47.519,2.56,1.667,39.0
47.289,2.539,1.387,20.0
47.296,2.53,1.116,2.0
81.031,4.318,4.125,26.0
0.0,0.0,0.0,0.0
48.171,2.548,1.898,1.0
47.46,2.501,1.593,12.0
47.306,2.483,1.316,20.0
47.262,2.472,1.044,3.0
81.011,4.219,4.001,11.0
0.0,0.0,0.0,0.0
47.829,2.471,1.813,3.0
47.344,2.437,1.518,9.0
47.331,2.426,1.245,20.0
47.383,2.42,0.975,1.0
0.0,0.0,0.0,0.0
0.0,0.0,0.0,0.0
47.583,2.399,1.732,43.0
47.39,2.379,1.449,11.0
47.345,2.367,1.176,19.0
47.627,2.371,0.909,0.0
0.0,0.0,0.0,0.0
0.0,0.0,0.0,0.0
47.69,2.342,1.665,109.0
47.32,2.314,1.376,1.0
47.362,2.305,1.106,14.0
50.273,2.436,0.885,4.0
0.0,0.0,0.0,0.0
48.199,2.313,1.888,1.0
47.496,2.269,1.588,11.0
47.474,2.257,1.311,0.0
47.413,2.244,1.038,1.0
44.094,2.077,0.712,0.0
0.0,0.0,0.0,0.0
47.844,2.23,1.804,3.0
47.504,2.204,1.519,13.0
47.444,2.19,1.241,18.0
47.721,2.192,0.975,0.0
0.0,0.0,0.0,0.0
48.642,2.211,2.044,9.0
47.839,2.163,1.736,4.0
47.594,2.141,1.454,5.0
47.589,2.13,1.177,1.0
47.839,2.13,0.909,0.0
38.445,1.703,0.51,0.0
48.568,2.137,1.971,0.0
47.964,2.099,1.672,2.0
48.066,2.093,1.4,1.0
48.076,2.082,1.121,0.0
47.811,2.059,0.841,0.0
36.163,1.549,0.429,0.0
48.7,2.072,1.909,2.0
48.216,2.039,1.613,2.0
48.395,2.035,1.342,17.0
48.569,2.031,1.064,0.0
45.924,1.909,0.744,0.0
34.358,1.42,0.36,0.0
48.854,2.005,1.847,2.0
48.663,1.985,1.561,3.0
48.811,1.979,1.287,2.0
0.0,0.0,0.0,0.0
0.0,0.0,0.0,0.0
33.22,1.322,0.303,1.0
49.228,1.944,1.794,1.0
49.136,1.929,1.51,2.0
49.188,1.918,1.23,1.0
0.0,0.0,0.0,0.0
0.0,0.0,0.0,0.0
32.024,1.225,0.249,0.0
49.593,1.881,1.741,3.0
49.722,1.873,1.462,2.0
49.827,1.865,1.18,0.0
47.373,1.761,0.847,0.0
36.761,1.357,0.447,0.0
30.767,1.128,0.199,0.0
50.052,1.819,1.691,2.0
50.19,1.811,1.409,2.0
50.364,1.804,1.127,0.0
44.756,1.591,0.741,0.0
34.618,1.222,0.376,0.0
28.955,1.014,0.149,0.0
50.524,1.754,1.642,3.0
0.0,0.0,0.0,0.0
50.642,1.731,1.068,0.0
0.0,0.0,0.0,0.0
33.72,1.134,0.323,1.0
28.831,0.963,0.112,1.0
51.201,1.693,1.6,11.0
0.0,0.0,0.0,0.0
0.0,0.0,0.0,0.0
39.522,1.275,0.555,0.0
32.224,1.031,0.269,0.0
28.552,0.906,0.076,1.0
54.082,1.698,1.623,4.0
54.303,1.69,1.321,4.0
0.0,0.0,0.0,0.0
36.951,1.13,0.474,0.0
31.149,0.944,0.222,0.0
27.388,0.822,0.04,0.0
54.101,1.606,1.558,4.0
54.513,1.603,1.26,0.0
45.877,1.337,0.799,0.0
35.597,1.027,0.414,1.0
28.999,0.828,0.172,2.0
26.832,0.759,0.007,0.0
54.064,1.51,1.493,5.0
56.43,1.561,1.237,5.0
0.0,0.0,0.0,0.0
34.537,0.935,0.361,0.0
28.934,0.775,0.138,5.0
26.248,0.696,-0.023,0.0
54.002,1.413,1.429,1.0
56.986,1.475,1.184,4.0
0.0,0.0,0.0,0.0
33.189,0.84,0.309,0.0
28.854,0.722,0.105,4.0
25.468,0.629,-0.051,0.0
54.39,1.326,1.378,0.0
0.0,0.0,0.0,0.0
38.612,0.918,0.539,0.0
32.125,0.755,0.263,0.0
28.671,0.665,0.072,1.0
25.08,0.575,-0.078,0.0
54.555,1.232,1.322,0.0
47.855,1.066,0.888,0.0
36.923,0.811,0.475,0.0
31.405,0.681,0.223,0.0
27.256,0.583,0.039,0.0
24.528,0.517,-0.103,0.0
54.601,1.132,1.265,1.0
0.0,0.0,0.0,0.0
0.0,0.0,0.0,0.0
29.109,0.577,0.176,0.0
26.762,0.522,0.01,0.0
23.75,0.457,-0.124,0.0
0.0,0.0,0.0,0.0
0.0,0.0,0.0,0.0
0.0,0.0,0.0,0.0
28.825,0.517,0.145,0.0
26.322,0.464,-0.016,0.0
23.4,0.406,-0.146,0.0
0.0,0.0,0.0,0.0
0.0,0.0,0.0,0.0
33.667,0.551,0.33,0.0
28.824,0.463,0.116,4.0
25.725,0.405,-0.041,0.0
22.854,0.353,-0.166,0.0
0.0,0.0,0.0,0.0
40.482,0.598,0.586,0.0
32.836,0.474,0.29,0.0
28.754,0.406,0.088,3.0
25.291,0.349,-0.064,0.0
22.135,0.299,-0.181,0.0
46.697,0.614,0.896,0.0
37.317,0.479,0.505,0.0
31.916,0.399,0.252,0.0
28.369,0.346,0.06,1.0
24.958,0.296,-0.087,0.0
21.901,0.253,-0.2,2.0
0.0,0.0,0.0,0.0
36.398,0.396,0.46,0.0
28.93,0.305,0.202,0.0
27.305,0.279,0.034,0.0
24.357,0.241,-0.106,0.0
21.467,0.205,-0.215,2.0
0.0,0.0,0.0,0.0
0.0,0.0,0.0,0.0
28.895,0.248,0.176,0.0
26.791,0.221,0.01,0.0
23.852,0.189,-0.125,0.0
20.819,0.158,-0.226,0.0
0.0,0.0,0.0,0.0
34.158,0.237,0.373,0.0
28.869,0.19,0.152,0.0
26.498,0.166,-0.011,0.0
23.212,0.138,-0.14,0.0
20.329,0.113,-0.238,0.0
0.0,0.0,0.0,0.0
0.0,0.0,0.0,0.0
28.772,0.132,0.129,0.0
25.899,0.111,-0.031,0.0
23.113,0.091,-0.158,1.0
19.994,0.072,-0.249,0.0
0.0,0.0,0.0,0.0
0.0,0.0,0.0,0.0
28.699,0.074,0.107,2.0
25.58,0.057,-0.05,0.0
22.612,0.043,-0.172,0.0
19.424,0.03,-0.257,0.0
0.0,0.0,0.0,0.0
33.113,0.029,0.285,0.0
28.608,0.016,0.085,1.0
25.324,0.005,-0.068,0.0
21.98,-0.002,-0.183,0.0
19.316,-0.008,-0.269,0.0
0.0,0.0,0.0,0.0
31.549,-0.035,0.25,0.0
28.45,-0.041,0.065,1.0
24.932,-0.044,-0.084,0.0
21.775,-0.046,-0.196,0.0
19.171,-0.047,-0.28,0.0
36.525,-0.102,0.47,0.0
31.368,-0.098,0.228,0.0
27.684,-0.096,0.046,0.0
24.499,-0.094,-0.098,0.0
21.609,-0.09,-0.208,1.0
18.595,-0.084,-0.283,0.0
36.2,-0.175,0.443,0.0
30.862,-0.16,0.205,1.0
27.2,-0.151,0.028,0.0
24.205,-0.142,-0.112,0.0
21.191,-0.132,-0.217,0.0
18.35,-0.121,-0.291,0.0
0.0,0.0,0.0,0.0
28.938,-0.211,0.175,0.0
26.708,-0.203,0.012,0.0
23.926,-0.191,-0.125,1.0
20.668,-0.172,-0.223,0.0
18.198,-0.158,-0.299,0.0
34.221,-0.308,0.379,0.0
28.853,-0.27,0.158,2.0
26.564,-0.258,-0.002,0.0
23.728,-0.238,-0.137,0.0
20.358,-0.212,-0.231,0.0
18.002,-0.194,-0.305,0.0
33.708,-0.374,0.356,0.0
28.78,-0.329,0.143,0.0
26.276,-0.31,-0.015,0.0
23.173,-0.281,-0.145,1.0
20.171,-0.252,-0.239,0.0
17.789,-0.229,-0.31,0.0
33.565,-0.442,0.338,1.0
28.724,-0.388,0.129,0.0
25.9,-0.359,-0.027,0.0
23.259,-0.331,-0.157,1.0
20.045,-0.292,-0.247,0.0
17.672,-0.264,-0.316,0.0
33.043,-0.504,0.318,0.0
28.667,-0.447,0.116,0.0
25.821,-0.412,-0.038,0.0
22.915,-0.374,-0.164,0.0
19.76,-0.33,-0.252,0.0
17.484,-0.298,-0.32,0.0
33.243,-0.576,0.307,2.0
28.623,-0.506,0.105,1.0
25.471,-0.459,-0.048,0.0
22.693,-0.418,-0.171,0.0
19.476,-0.365,-0.255,0.0
17.301,-0.331,-0.323,0.0
33.087,-0.643,0.293,1.0
28.652,-0.567,0.094,5.0
24.982,-0.503,-0.056,0.0
22.448,-0.46,-0.177,0.0
19.47,-0.406,-0.262,0.0
17.263,-0.366,-0.328,0.0
32.715,-0.704,0.279,1.0
28.605,-0.626,0.085,5.0
25.131,-0.559,-0.064,0.0
22.307,-0.504,-0.183,0.0
19.276,-0.443,-0.265,0.0
17.14,-0.4,-0.331,0.0
32.562,-0.769,0.268,1.0
28.533,-0.684,0.076,5.0
25.06,-0.61,-0.071,0.0
22.214,-0.549,-0.189,0.0
19.144,-0.48,-0.269,0.0
17.077,-0.435,-0.335,0.0
31.651,-0.814,0.252,0.0
28.45,-0.742,0.069,3.0
25.037,-0.662,-0.077,0.0
22.176,-0.594,-0.194,0.0
19.094,-0.519,-0.273,0.0
17.002,-0.468,-0.337,0.0
31.579,-0.878,0.245,0.0
28.153,-0.792,0.062,0.0
0.0,0.0,0.0,0.0
21.509,-0.621,-0.192,0.0
18.939,-0.554,-0.274,0.0
16.96,-0.503,-0.339,0.0
31.278,-0.935,0.237,0.0
27.878,-0.844,0.057,0.0
24.713,-0.757,-0.086,0.0
21.294,-0.66,-0.194,0.0
19.005,-0.596,-0.278,0.0
16.923,-0.537,-0.341,0.0
0.0,0.0,0.0,0.0
27.725,-0.897,0.052,0.0
24.379,-0.797,-0.088,0.0
21.521,-0.712,-0.199,2.0
18.964,-0.635,-0.28,0.0
16.897,-0.571,-0.343,0.0
31.264,-1.065,0.229,0.0
28.02,-0.964,0.05,0.0
24.694,-0.859,-0.091,0.0
21.39,-0.752,-0.199,1.0
18.885,-0.671,-0.28,0.0
16.887,-0.606,-0.344,0.0
31.289,-1.131,0.227,0.0
28.201,-1.03,0.049,1.0
24.507,-0.904,-0.092,0.0
21.234,-0.792,-0.199,1.0
18.821,-0.708,-0.28,0.0
16.908,-0.643,-0.345,0.0
0.0,0.0,0.0,0.0
28.12,-1.085,0.048,1.0
24.672,-0.961,-0.093,0.0
21.549,-0.847,-0.202,1.0
18.884,-0.75,-0.281,0.0
16.878,-0.676,-0.344,0.0
31.152,-1.255,0.225,0.0
28.208,-1.147,0.048,1.0
24.457,-1.004,-0.092,0.0
21.503,-0.89,-0.201,1.0
18.864,-0.788,-0.28,0.0
16.919,-0.713,-0.344,0.0
31.339,-1.327,0.228,0.0
28.358,-1.211,0.05,1.0
24.159,-1.041,-0.089,0.0
21.508,-0.934,-0.2,1.0
18.923,-0.829,-0.28,0.0
16.934,-0.748,-0.344,0.0
31.368,-1.392,0.231,0.0
28.061,-1.256,0.052,1.0
24.538,-1.107,-0.088,0.0
21.537,-0.98,-0.198,1.0
18.948,-0.869,-0.278,0.0
16.981,-0.785,-0.343,0.0
31.643,-1.469,0.236,0.0
27.719,-1.297,0.055,3.0
24.648,-1.162,-0.086,0.0
22.107,-1.051,-0.2,0.0
19.047,-0.912,-0.277,0.0
17.018,-0.821,-0.341,0.0
31.612,-1.532,0.241,0.0
27.925,-1.364,0.06,7.0
25.049,-1.232,-0.083,0.0
22.125,-1.096,-0.197,1.0
19.05,-0.951,-0.274,0.0
17.126,-0.862,-0.34,0.0
31.278,-1.579,0.245,0.0
28.095,-1.428,0.066,5.0
24.8,-1.27,-0.077,0.0
22.304,-1.15,-0.193,1.0
19.066,-0.99,-0.27,0.0
17.132,-0.896,-0.336,0.0
31.924,-1.675,0.257,0.0
28.406,-1.501,0.073,7.0
34.27,-1.823,-0.098,0.0
22.422,-1.201,-0.189,0.0
19.074,-1.028,-0.265,0.0
17.234,-0.936,-0.334,0.0
32.413,-1.765,0.269,0.0
28.498,-1.562,0.081,7.0
34.238,-1.889,-0.089,8.0
34.24,-1.902,-0.279,1.0
34.206,-1.913,-0.466,1.0
17.319,-0.975,-0.33,0.0
32.449,-1.831,0.279,0.0
28.505,-1.619,0.09,7.0
34.151,-1.952,-0.078,0.0
22.535,-1.296,-0.176,0.0
19.475,-1.127,-0.259,0.0
17.411,-1.014,-0.326,0.0
33.207,-1.939,0.297,0.0
28.506,-1.674,0.1,7.0
0.0,0.0,0.0,0.0
22.767,-1.354,-0.17,0.0
19.627,-1.174,-0.254,0.0
17.475,-1.052,-0.321,0.0
32.285,-1.948,0.301,1.0
28.508,-1.73,0.11,12.0
25.743,-1.571,-0.04,0.0
23.012,-1.413,-0.163,0.0
19.803,-1.223,-0.248,0.0
17.65,-1.097,-0.317,0.0
33.474,-2.084,0.326,0.0
28.39,-1.778,0.122,0.0
26.037,-1.64,-0.029,0.0
23.218,-1.47,-0.154,0.0
20.018,-1.275,-0.242,0.0
17.828,-1.142,-0.313,0.0
33.306,-2.137,0.339,0.0
0.0,0.0,0.0,0.0
26.404,-1.712,-0.017,0.0
23.465,-1.53,-0.145,0.0
20.341,-1.333,-0.237,0.0
17.975,-1.185,-0.307,0.0
34.088,-2.251,0.363,1.0
29.937,-1.987,0.156,0.0
26.737,-1.784,-0.005,0.0
23.595,-1.582,-0.135,0.0
20.644,-1.392,-0.23,0.0
18.112,-1.227,-0.3,0.0
34.515,-2.343,0.385,1.0
30.43,-2.076,0.174,0.0
0.0,0.0,0.0,0.0
23.888,-1.646,-0.124,0.0
21.061,-1.459,-0.223,0.0
18.36,-1.278,-0.294,0.0
35.542,-2.478,0.416,1.0
30.521,-2.138,0.192,0.0
33.913,-2.387,0.029,1.0
33.909,-2.399,-0.157,3.0
33.858,-2.407,-0.34,2.0
18.666,-1.333,-0.288,0.0
36.033,-2.577,0.443,1.0
31.431,-2.259,0.216,0.0
33.908,-2.448,0.049,2.0
33.888,-2.458,-0.137,3.0
33.915,-2.472,-0.321,3.0
18.855,-1.38,-0.28,0.0
37.112,-2.72,0.478,1.0
32.025,-2.358,0.239,0.0
33.898,-2.508,0.07,5.0
33.885,-2.518,-0.116,10.0
33.904,-2.531,-0.299,18.0
19.236,-1.442,-0.273,0.0
38.125,-2.862,0.516,1.0
32.177,-2.426,0.261,0.0
33.9,-2.567,0.092,1.0
33.877,-2.577,-0.093,3.0
33.883,-2.588,-0.276,6.0
19.464,-1.493,-0.264,0.0
34.406,-2.643,0.489,1.0
32.63,-2.516,0.287,0.0
33.931,-2.628,0.115,1.0
33.871,-2.634,-0.07,0.0
33.878,-2.646,-0.253,4.0
19.866,-1.558,-0.255,0.0
34.316,-2.694,0.512,5.0
0.0,0.0,0.0,0.0
33.892,-2.683,0.139,0.0
33.862,-2.691,-0.046,0.0
33.868,-2.702,-0.229,8.0
33.84,-2.711,-0.411,1.0
34.21,-2.743,0.535,4.0
0.0,0.0,0.0,0.0
29.901,-2.416,0.145,0.0
33.866,-2.747,-0.021,1.0
33.862,-2.757,-0.203,4.0
33.86,-2.768,-0.386,3.0
34.059,-2.786,0.558,3.0
0.0,0.0,0.0,0.0
30.213,-2.49,0.17,0.0
33.846,-2.8,0.004,0.0
33.838,-2.81,-0.177,4.0
33.859,-2.823,-0.36,4.0
33.93,-2.831,0.583,2.0
0.0,0.0,0.0,0.0
30.874,-2.594,0.198,0.0
27.323,-2.304,0.025,0.0
33.855,-2.865,-0.15,0.0
21.504,-1.827,-0.211,1.0
33.87,-2.879,0.609,1.0
0.0,0.0,0.0,0.0
31.553,-2.701,0.228,0.0
28.209,-2.423,0.049,0.0
24.909,-2.147,-0.089,0.0
21.979,-1.901,-0.197,0.0
33.795,-2.925,0.636,4.0
34.382,-2.986,0.463,1.0
32.09,-2.796,0.259,0.0
28.579,-2.498,0.074,0.0
25.483,-2.235,-0.07,0.0
22.573,-1.987,-0.183,0.0
33.801,-2.977,0.666,1.0
34.342,-3.034,0.492,2.0
32.87,-2.913,0.294,0.0
29.072,-2.585,0.101,0.0
25.918,-2.312,-0.048,0.0
23.023,-2.06,-0.166,1.0
33.791,-3.026,0.696,0.0
34.249,-3.076,0.521,5.0
0.0,0.0,0.0,0.0
29.468,-2.663,0.129,0.0
26.345,-2.388,-0.025,0.0
23.324,-2.121,-0.147,1.0
33.805,-3.076,0.727,7.0
34.098,-3.112,0.55,2.0
0.0,0.0,0.0,0.0
30.102,-2.764,0.16,0.0
27.167,-2.502,0.0,0.0
23.629,-2.183,-0.127,0.0
33.838,-3.127,0.76,150.0
33.944,-3.146,0.58,1.0
0.0,0.0,0.0,0.0
31.034,-2.893,0.195,0.0
27.839,-2.602,0.025,0.0
24.959,-2.34,-0.11,0.0
33.782,-3.169,0.791,2.0
33.811,-3.18,0.611,0.0
34.561,-3.259,0.439,0.0
31.604,-2.989,0.229,0.0
28.346,-2.688,0.054,0.0
25.36,-2.412,-0.087,0.0
33.809,-3.217,0.825,6.0
33.779,-3.222,0.644,0.0
34.601,-3.309,0.474,3.0
0.0,0.0,0.0,0.0
28.934,-2.782,0.084,3.0
25.581,-2.466,-0.062,0.0
33.825,-3.262,0.859,6.0
33.814,-3.269,0.679,0.0
34.579,-3.352,0.509,4.0
34.057,-3.31,0.316,0.0
29.887,-2.912,0.117,1.0
26.242,-2.563,-0.036,0.0
33.861,-3.309,0.895,6.0
0.0,0.0,0.0,0.0
34.28,-3.366,0.54,2.0
34.585,-3.404,0.356,0.0
30.462,-3.005,0.151,1.0
33.976,-3.36,-0.012,0.0
33.877,-3.352,0.931,5.0
33.854,-3.357,0.75,1.0
34.036,-3.383,0.572,0.0
34.499,-3.437,0.392,0.0
31.002,-3.096,0.186,2.0
34.029,-3.406,0.023,2.0
33.947,-3.399,0.969,151.0
33.904,-3.402,0.787,2.0
33.97,-3.417,0.607,0.0
34.342,-3.461,0.427,0.0
31.679,-3.2,0.225,0.0
34.018,-3.444,0.06,1.0
33.93,-3.437,1.006,171.0
33.936,-3.444,0.825,2.0
33.964,-3.454,0.644,0.0
34.315,-3.497,0.464,0.0
32.965,-3.367,0.27,0.0
29.346,-3.004,0.084,1.0
33.949,-3.476,1.044,44.0
33.98,-3.486,0.863,1.0
33.989,-3.494,0.682,0.0
34.37,-3.54,0.503,0.0
34.122,-3.522,0.317,0.0
29.841,-3.086,0.118,8.0
34.03,-3.521,1.084,0.0
34.095,-3.534,0.904,0.0
34.115,-3.543,0.723,0.0
34.3,-3.569,0.54,0.0
34.439,-3.59,0.359,0.0
30.276,-3.162,0.155,1.0
34.212,-3.575,1.129,0.0
34.127,-3.573,0.944,0.0
34.274,-3.594,0.765,0.0
34.353,-3.609,0.58,2.0
34.571,-3.638,0.4,0.0
28.126,-2.965,0.175,1.0
34.379,-3.626,1.174,0.0
34.337,-3.628,0.989,0.0
34.863,-3.69,0.819,0.0
35.012,-3.712,0.632,2.0
37.431,-3.975,0.476,0.0
28.084,-2.987,0.208,1.0
35.498,-3.778,1.253,0.0
34.958,-3.726,1.048,1.0
35.242,-3.762,0.868,1.0
36.487,-3.902,0.701,25.0
37.379,-4.004,0.519,0.0
29.202,-3.133,0.25,1.0
36.708,-3.94,1.339,0.0
35.878,-3.857,1.117,3.0
36.16,-3.893,0.934,0.0
36.719,-3.959,0.749,1.0
37.329,-4.031,0.562,0.0
29.982,-3.242,0.292,4.0
36.567,-3.956,1.377,0.0
36.597,-3.965,1.183,1.0
36.663,-3.977,0.99,0.0
37.032,-4.023,0.799,1.0
37.35,-4.064,0.607,2.0
29.606,-3.226,0.323,1.0
36.549,-3.984,1.42,0.0
37.395,-4.082,1.254,0.0
37.174,-4.063,1.048,0.0
37.81,-4.137,0.861,0.0
37.849,-4.147,0.66,0.0
29.776,-3.267,0.361,1.0
153.761,-16.882,6.161,3.0
0.0,0.0,0.0,0.0
37.87,-4.167,1.114,2.0
38.004,-4.187,0.911,0.0
0.0,0.0,0.0,0.0
39.715,-4.387,0.53,0.0
153.602,-16.978,6.343,11.0
145.492,-16.099,5.233,5.0
0.0,0.0,0.0,0.0
0.0,0.0,0.0,0.0
0.0,0.0,0.0,0.0
31.871,-3.542,0.464,1.0
153.655,-17.089,6.533,8.0
0.0,0.0,0.0,0.0
0.0,0.0,0.0,0.0
0.0,0.0,0.0,0.0
0.0,0.0,0.0,0.0
0.0,0.0,0.0,0.0
153.917,-17.218,6.733,3.0
153.61,-17.198,5.903,6.0
118.781,-13.311,3.93,2.0
0.0,0.0,0.0,0.0
0.0,0.0,0.0,0.0
0.0,0.0,0.0,0.0
22.413,-2.52,1.008,0.0
153.867,-17.318,6.102,5.0
0.0,0.0,0.0,0.0
0.0,0.0,0.0,0.0
0.0,0.0,0.0,0.0
47.901,-5.409,0.874,0.0
22.282,-2.518,1.03,2.0
22.291,-2.521,0.911,2.0
22.301,-2.524,0.793,0.0
0.0,0.0,0.0,0.0
0.0,0.0,0.0,0.0
0.0,0.0,0.0,0.0
22.243,-2.525,1.055,7.0
22.258,-2.528,0.937,6.0
98.485,-11.194,3.623,22.0
0.0,0.0,0.0,0.0
98.488,-11.208,2.565,2.0
0.0,0.0,0.0,0.0
22.206,-2.531,1.081,10.0
22.217,-2.533,0.963,8.0
22.253,-2.539,0.846,7.0
22.274,-2.542,0.726,0.0
98.533,-11.255,2.689,9.0
22.462,-2.567,0.493,0.0
22.177,-2.537,1.107,11.0
22.189,-2.539,0.99,10.0
22.226,-2.544,0.873,11.0
22.288,-2.553,0.754,4.0
98.518,-11.291,2.81,11.0
22.481,-2.578,0.521,2.0
22.16,-2.543,1.134,12.0
22.177,-2.546,1.016,11.0
22.206,-2.55,0.899,11.0
22.251,-2.556,0.781,10.0
22.416,-2.576,0.667,2.0
22.45,-2.581,0.549,2.0
22.146,-2.548,1.161,14.0
22.164,-2.551,1.044,13.0
22.192,-2.555,0.926,10.0
22.211,-2.558,0.807,11.0
22.373,-2.577,0.693,8.0
22.431,-2.585,0.575,6.0
22.146,-2.555,1.188,15.0
22.154,-2.556,1.07,14.0
22.181,-2.559,0.953,11.0
22.188,-2.561,0.833,11.0
22.307,-2.575,0.718,13.0
22.409,-2.588,0.602,9.0
22.144,-2.559,1.216,15.0
22.147,-2.56,1.097,18.0
22.154,-2.561,0.979,11.0
22.184,-2.565,0.86,12.0
22.24,-2.572,0.744,16.0
22.403,-2.591,0.63,10.0
22.142,-2.563,1.243,13.0
22.141,-2.563,1.124,19.0
22.157,-2.565,1.007,12.0
22.18,-2.568,0.887,12.0
22.223,-2.573,0.77,17.0
22.376,-2.591,0.656,11.0
22.163,-2.569,1.271,10.0
22.139,-2.566,1.151,20.0
22.154,-2.567,1.033,13.0
22.16,-2.568,0.913,12.0
22.204,-2.573,0.796,14.0
22.285,-2.582,0.68,12.0
22.206,-2.576,1.301,8.0
22.141,-2.568,1.178,19.0
22.149,-2.568,1.06,16.0
22.162,-2.569,0.94,12.0
22.19,-2.573,0.822,12.0
22.257,-2.58,0.706,16.0
22.232,-2.58,1.329,11.0
22.134,-2.568,1.205,18.0
22.134,-2.567,1.086,18.0
22.155,-2.569,0.966,12.0
22.18,-2.572,0.849,12.0
22.241,-2.578,0.732,16.0
22.243,-2.581,1.356,14.0
22.135,-2.568,1.231,14.0
22.143,-2.568,1.112,20.0
22.143,-2.567,0.992,12.0
22.173,-2.57,0.874,12.0
22.225,-2.575,0.758,17.0
22.227,-2.579,1.381,17.0
22.137,-2.567,1.257,11.0
22.139,-2.566,1.138,19.0
22.142,-2.565,1.018,12.0
22.17,-2.568,0.9,11.0
22.215,-2.572,0.783,17.0
22.219,-2.576,1.407,19.0
22.201,-2.572,1.287,8.0
22.131,-2.563,1.164,19.0
22.15,-2.564,1.044,14.0
22.17,-2.565,0.926,11.0
22.202,-2.568,0.808,12.0
22.208,-2.571,1.432,21.0
22.242,-2.574,1.315,9.0
22.135,-2.56,1.189,16.0
22.138,-2.559,1.069,15.0
22.166,-2.561,0.951,11.0
22.192,-2.563,0.834,11.0
22.191,-2.566,1.457,23.0
22.261,-2.572,1.342,7.0
22.145,-2.557,1.215,12.0
22.144,-2.555,1.094,16.0
22.169,-2.556,0.977,11.0
22.199,-2.558,0.859,11.0
22.188,-2.56,1.482,23.0
22.249,-2.565,1.366,4.0
22.182,-2.556,1.243,8.0
22.153,-2.55,1.12,13.0
22.167,-2.55,1.002,11.0
22.206,-2.553,0.885,11.0
22.194,-2.555,1.507,23.0
22.246,-2.559,1.391,9.0
22.262,-2.559,1.272,6.0
22.143,-2.543,1.144,11.0
22.172,-2.544,1.027,11.0
22.209,-2.546,0.909,10.0
22.192,-2.548,1.532,23.0
22.207,-2.547,1.413,15.0
22.32,-2.558,1.3,3.0
22.176,-2.539,1.17,7.0
22.187,-2.538,1.051,11.0
22.215,-2.539,0.933,10.0
22.186,-2.54,1.556,20.0
22.203,-2.539,1.437,20.0
159.806,-18.257,9.485,9.0
22.246,-2.539,1.198,4.0
22.21,-2.532,1.076,9.0
22.235,-2.533,0.958,7.0
22.182,-2.531,1.579,14.0
22.203,-2.53,1.461,20.0
159.885,-18.202,9.657,12.0
22.303,-2.536,1.224,2.0
22.262,-2.529,1.102,4.0
22.282,-2.529,0.983,3.0
22.195,-2.522,1.603,8.0
22.202,-2.52,1.484,18.0
22.261,-2.524,1.367,0.0
22.418,-2.539,1.254,0.0
22.321,-2.525,1.128,2.0
22.279,-2.517,1.006,0.0
22.245,-2.517,1.63,3.0
22.2,-2.509,1.507,16.0
22.262,-2.513,1.39,3.0
160.201,-18.063,9.125,4.0
158.745,-17.877,8.186,7.0
164.282,-18.481,7.584,5.0
22.283,-2.51,1.655,0.0
22.209,-2.498,1.529,15.0
22.254,-2.5,1.412,4.0
159.394,-17.885,9.236,16.0
158.723,-17.788,8.34,20.0
164.337,-18.394,7.748,7.0
142.899,-16.018,10.758,13.0
22.225,-2.487,1.552,13.0
22.257,-2.487,1.434,4.0
159.47,-17.799,9.397,19.0
159.212,-17.747,8.521,18.0
159.362,-17.74,7.669,10.0
142.91,-15.933,10.897,17.0
22.241,-2.475,1.575,3.0
22.259,-2.474,1.455,4.0
159.754,-17.731,9.566,14.0
159.228,-17.647,8.672,15.0
159.386,-17.64,7.819,13.0
143.14,-15.866,11.051,6.0
143.462,-15.876,10.295,13.0
22.267,-2.46,1.477,0.0
159.929,-17.643,9.724,17.0
159.359,-17.554,8.826,16.0
159.37,-17.529,7.964,19.0
144.83,-15.955,11.313,4.0
143.329,-15.762,10.416,16.0
142.685,-15.665,9.594,13.0
160.065,-17.545,9.876,14.0
159.266,-17.43,8.963,18.0
159.4,-17.418,8.107,19.0
144.156,-15.774,11.392,4.0
142.971,-15.618,10.518,18.0
142.794,-15.572,9.727,21.0
160.209,-17.442,10.025,6.0
159.836,-17.373,9.132,13.0
159.599,-17.318,8.254,15.0
141.355,-15.361,11.291,12.0
142.938,-15.505,10.636,20.0
143.113,-15.496,9.87,15.0
174.554,-18.865,11.071,7.0
159.814,-17.242,9.268,12.0
158.924,-17.118,8.352,14.0
153.023,-16.507,12.351,3.0
143.117,-15.408,10.77,20.0
142.903,-15.356,9.974,18.0
174.535,-18.721,11.211,18.0
160.146,-17.147,9.416,15.0
159.086,-17.004,8.487,18.0
142.87,-15.293,11.646,14.0
143.151,-15.292,10.887,18.0
142.904,-15.235,10.088,25.0
174.714,-18.59,11.362,18.0
160.065,-17.0,9.536,12.0
159.181,-16.873,8.618,16.0
142.771,-15.157,11.75,20.0
143.392,-15.191,11.016,16.0
142.981,-15.115,10.204,23.0
174.997,-18.462,11.515,22.0
160.24,-16.872,9.669,9.0
158.599,-16.668,8.704,14.0
142.905,-15.04,11.869,16.0
142.492,-14.964,11.054,8.0
142.938,-14.979,10.306,20.0
175.246,-18.327,11.657,23.0
160.029,-16.701,9.771,11.0
158.427,-16.501,8.808,15.0
142.949,-14.911,11.975,8.0
142.513,-14.831,11.157,12.0
143.019,-14.852,10.411,18.0
175.587,-18.193,11.804,19.0
160.207,-16.564,9.894,14.0
158.473,-16.351,8.919,8.0
142.979,-14.773,12.076,8.0
142.319,-14.671,11.238,12.0
142.753,-14.683,10.488,15.0
175.856,-18.047,11.937,17.0
160.127,-16.397,9.993,14.0
160.039,-16.352,9.112,15.0
142.667,-14.598,12.142,18.0
143.131,-14.61,11.394,17.0
142.836,-14.545,10.586,11.0
143.352,-14.563,9.823,17.0
176.214,-17.861,11.107,13.0
160.081,-16.189,9.213,13.0
142.711,-14.451,12.237,15.0
143.057,-14.45,11.478,23.0
142.49,-14.359,10.647,8.0
143.564,-14.432,9.923,19.0
176.632,-17.714,11.239,15.0
160.107,-16.02,9.308,15.0
142.907,-14.318,12.336,13.0
142.765,-14.268,11.536,8.0
142.6,-14.215,10.736,10.0
143.661,-14.286,10.01,17.0
150.026,-14.882,9.628,19.0
160.312,-15.863,9.409,13.0
142.902,-14.159,12.415,15.0
142.639,-14.095,11.604,11.0
142.311,-14.027,10.791,10.0
143.579,-14.114,10.082,13.0
149.189,-14.63,9.653,18.0
160.176,-15.669,9.482,14.0
142.708,-13.977,12.472,18.0
145.005,-14.165,11.869,13.0
142.325,-13.865,10.863,6.0
143.638,-13.955,10.157,12.0
149.583,-14.496,9.752,5.0
149.52,-14.452,8.924,11.0
142.659,-13.806,12.536,9.0
144.941,-13.988,11.934,18.0
148.145,-14.257,11.377,4.0
143.643,-13.786,10.223,12.0
185.255,-17.732,12.162,7.0
149.589,-14.28,8.996,18.0
147.111,-14.06,12.993,5.0
146.786,-13.988,12.15,3.0
146.346,-13.907,11.301,6.0
153.724,-14.568,11.005,4.0
151.446,-14.312,10.005,13.0
170.107,-16.032,10.299,9.0
146.664,-13.839,13.012,7.0
0.0,0.0,0.0,0.0
148.059,-13.889,11.492,5.0
145.956,-13.653,10.504,7.0
151.488,-14.131,10.064,4.0
149.543,-13.91,9.109,16.0
146.807,-13.671,13.078,12.0
0.0,0.0,0.0,0.0
145.48,-13.466,11.343,7.0
146.202,-13.494,10.572,5.0
208.557,-19.192,13.925,6.0
149.401,-13.708,9.15,14.0
145.501,-13.365,13.01,6.0
146.627,-13.426,12.294,12.0
144.959,-13.233,11.348,4.0
146.538,-13.335,10.642,10.0
148.521,-13.475,9.962,13.0
149.243,-13.5,9.183,14.0
145.407,-13.166,13.045,13.0
0.0,0.0,0.0,0.0
144.713,-13.021,11.368,15.0
145.651,-13.063,10.618,10.0
151.937,-13.586,10.231,3.0
148.86,-13.271,9.197,10.0
145.694,-13.001,13.107,14.0
148.563,-13.213,12.535,5.0
144.652,-12.823,11.398,18.0
144.692,-12.785,10.58,15.0
147.206,-12.967,9.946,16.0
148.83,-13.069,9.228,13.0
145.663,-12.8,13.135,13.0
144.204,-12.629,12.197,10.0
144.921,-12.65,11.449,15.0
144.944,-12.61,10.627,10.0
151.911,-13.173,10.291,11.0
148.824,-12.865,9.253,17.0
145.73,-12.608,13.167,7.0
145.317,-12.53,12.314,10.0
145.243,-12.48,11.496,18.0
147.057,-12.594,10.803,3.0
145.989,-12.461,9.91,13.0
149.097,-12.684,9.291,11.0
145.053,-12.347,13.125,8.0
146.527,-12.428,12.437,5.0
145.255,-12.278,11.514,14.0
145.449,-12.252,10.701,12.0
146.134,-12.268,9.936,7.0
208.405,-17.436,13.008,10.0
145.117,-12.147,13.143,14.0
146.235,-12.198,12.423,14.0
146.398,-12.167,11.617,12.0
145.396,-12.04,10.708,12.0
147.783,-12.197,10.057,7.0
208.505,-17.15,13.026,18.0
145.347,-11.96,13.171,18.0
146.172,-11.981,12.425,14.0
146.764,-11.987,11.65,14.0
147.472,-12.002,10.865,6.0
147.529,-11.963,10.043,8.0
208.525,-16.851,13.028,20.0
145.229,-11.74,13.161,19.0
146.106,-11.765,12.419,8.0
88.679,-7.114,7.039,4.0
146.311,-11.695,10.777,4.0
151.341,-12.052,10.298,3.0
208.565,-16.548,13.027,22.0
145.332,-11.533,13.166,16.0
145.92,-11.537,12.396,17.0
88.667,-6.984,7.034,15.0
151.075,-11.854,11.12,7.0
155.368,-12.146,10.563,11.0
208.534,-16.243,13.01,23.0
118.967,-9.267,10.768,5.0
145.664,-11.303,12.362,20.0
88.767,-6.861,7.034,4.0
151.133,-11.635,11.109,11.0
155.152,-11.9,10.532,12.0
208.558,-15.935,12.987,5.0
147.179,-11.246,13.304,9.0
145.634,-11.085,12.341,16.0
88.704,-6.725,7.017,7.0
150.484,-11.363,11.041,6.0
155.133,-11.669,10.508,4.0
154.688,-11.59,9.608,3.0
119.164,-8.928,10.752,11.0
119.6,-8.924,10.115,8.0
88.634,-6.586,6.995,7.0
148.771,-11.009,10.887,5.0
122.618,-9.038,8.283,12.0
154.559,-11.348,9.57,14.0
119.062,-8.739,10.719,11.0
119.448,-8.732,10.077,10.0
88.659,-6.455,6.978,7.0
147.981,-10.73,10.797,7.0
122.56,-8.85,8.251,9.0
155.02,-11.148,9.562,12.0
88.479,-6.361,7.944,11.0
119.384,-8.544,10.042,10.0
88.745,-6.325,6.962,13.0
121.906,-8.653,8.861,11.0
122.291,-8.644,8.199,17.0
91.743,-6.458,5.633,1.0
88.532,-6.228,7.922,14.0
119.365,-8.361,10.005,17.0
88.768,-6.191,6.937,11.0
119.472,-8.295,8.647,10.0
122.074,-8.441,8.145,19.0
91.798,-6.321,5.607,9.0
88.53,-6.092,7.893,26.0
121.152,-8.299,10.112,5.0
88.691,-6.049,6.9,17.0
119.353,-8.105,8.597,9.0
121.903,-8.241,8.09,18.0
91.806,-6.18,5.574,4.0
88.662,-5.963,7.871,24.0
119.223,-7.982,9.906,13.0
88.429,-5.893,6.844,20.0
120.962,-8.024,8.665,11.0
121.892,-8.049,8.041,18.0
89.732,-5.9,5.411,17.0
88.853,-5.836,7.85,30.0
113.569,-7.425,9.387,8.0
88.513,-5.76,6.813,15.0
119.719,-7.755,8.522,13.0
89.409,-5.765,5.857,14.0
89.719,-5.759,5.37,8.0
88.831,-5.696,7.807,24.0
88.339,-5.637,7.26,6.0
88.856,-5.644,6.797,9.0
119.922,-7.581,8.479,11.0
89.485,-5.631,5.819,6.0
120.959,-7.578,7.181,9.0
89.399,-5.594,7.812,16.0
88.534,-5.512,7.231,18.0
89.032,-5.517,6.765,27.0
91.531,-5.644,6.424,11.0
89.649,-5.503,5.782,9.0
120.943,-7.388,7.115,5.0
92.691,-5.654,8.049,12.0
88.714,-5.385,7.196,22.0
89.035,-5.378,6.715,16.0
91.243,-5.485,6.352,8.0
91.611,-5.481,5.856,17.0
120.75,-7.189,7.034,8.0
92.683,-5.508,7.993,16.0
89.512,-5.293,7.208,17.0
89.374,-5.258,6.687,8.0
88.055,-5.154,6.077,15.0
92.437,-5.385,5.852,15.0
121.135,-7.023,6.982,4.0
89.119,-5.156,7.629,26.0
88.883,-5.117,7.1,22.0
90.517,-5.183,6.714,12.0
88.095,-5.019,6.022,15.0
92.619,-5.25,5.803,20.0
119.495,-6.741,6.807,8.0
89.149,-5.018,7.572,26.0
88.744,-4.968,7.028,21.0
98.366,-5.479,7.228,14.0
89.946,-4.983,6.086,16.0
92.402,-5.092,5.725,13.0
119.41,-6.548,6.718,21.0
88.775,-4.856,7.475,28.0
89.274,-4.857,7.005,16.0
88.538,-4.791,6.441,17.0
89.71,-4.829,6.003,18.0
112.117,-6.004,6.862,19.0
119.286,-6.354,6.622,11.0
88.645,-4.709,7.396,11.0
88.793,-4.692,6.899,21.0
88.657,-4.659,6.38,13.0
92.573,-4.837,6.123,9.0
112.231,-5.834,6.781,15.0
123.25,-6.372,6.743,6.0
89.583,-4.619,7.403,13.0
89.615,-4.595,6.89,20.0
89.37,-4.557,6.36,16.0
91.414,-4.636,5.972,13.0
112.232,-5.66,6.689,12.0
112.601,-5.648,6.069,13.0
89.228,-4.463,7.298,16.0
88.27,-4.389,6.712,20.0
89.243,-4.413,6.274,15.0
91.395,-4.493,5.892,13.0
90.896,-4.444,5.339,13.0
112.142,-5.452,5.946,6.0
89.235,-4.325,7.22,16.0
0.0,0.0,0.0,0.0
88.975,-4.262,6.176,18.0
90.703,-4.319,5.766,18.0
98.045,-4.642,5.67,10.0
112.905,-5.315,5.883,9.0
88.863,-4.169,7.107,16.0
89.347,-4.166,6.631,18.0
89.595,-4.153,6.134,17.0
91.026,-4.194,5.7,11.0
108.383,-4.964,6.165,10.0
