X,Y,Z,Reflectivity
46.297,1.636,4.853,15.0
50.365,1.789,4.998,15.0
50.024,1.788,4.69,27.0
50.136,1.803,4.425,19.0
45.963,1.664,5.361,28.0
45.508,1.657,5.057,19.0
48.268,1.767,5.096,6.0
56.458,2.079,5.645,6.0
50.077,1.854,4.731,25.0
50.256,1.871,4.472,12.0
45.894,1.721,5.386,16.0
45.74,1.724,5.115,20.0
48.327,1.832,5.137,9.0
50.478,1.923,5.082,24.0
50.312,1.927,4.788,26.0
55.725,2.146,4.996,3.0
46.013,1.784,5.432,21.0
45.736,1.783,5.145,20.0
48.602,1.904,5.198,15.0
50.392,1.985,5.106,24.0
50.345,1.994,4.824,33.0
55.543,2.211,5.016,11.0
45.923,1.841,5.451,23.0
45.708,1.842,5.171,30.0
49.696,2.012,5.347,24.0
56.235,2.288,5.733,7.0
50.337,2.058,4.853,23.0
51.456,2.115,4.678,21.0
45.956,1.903,5.482,28.0
45.698,1.901,5.197,38.0
49.519,2.07,5.356,12.0
56.154,2.358,5.757,6.0
50.629,2.136,4.91,24.0
55.226,2.341,5.051,15.0
46.004,1.964,5.513,26.0
45.647,1.958,5.215,35.0
49.386,2.128,5.368,4.0
49.678,2.15,5.119,23.0
50.615,2.201,4.934,25.0
51.366,2.244,4.723,8.0
45.787,2.015,5.51,37.0
45.655,2.018,5.239,23.0
49.394,2.193,5.393,8.0
50.68,2.26,5.246,24.0
50.946,2.282,4.991,24.0
54.034,2.432,4.994,9.0
45.997,2.085,5.557,23.0
45.667,2.079,5.261,38.0
48.822,2.231,5.352,23.0
50.97,2.339,5.299,25.0
50.666,2.335,4.985,24.0
53.463,2.474,4.963,12.0
46.031,2.146,5.58,10.0
45.705,2.14,5.284,37.0
51.614,2.426,5.679,6.0
50.599,2.388,5.279,24.0
50.304,2.383,4.968,25.0
53.541,2.547,4.991,8.0
45.994,2.204,5.592,15.0
45.842,2.205,5.316,19.0
51.618,2.493,5.697,9.0
50.495,2.448,5.286,30.0
49.68,2.418,4.923,15.0
49.631,2.426,4.642,26.0
45.95,2.262,5.602,31.0
48.205,2.381,5.606,4.0
47.696,2.365,5.279,22.0
48.917,2.435,5.135,15.0
49.694,2.484,4.939,22.0
49.646,2.49,4.658,23.0
45.943,2.321,5.613,11.0
46.073,2.336,5.37,27.0
47.996,2.442,5.325,22.0
49.008,2.502,5.157,23.0
49.751,2.549,4.957,23.0
49.672,2.555,4.672,16.0
43.558,2.256,5.332,21.0
45.858,2.384,5.355,11.0
47.629,2.484,5.294,15.0
49.021,2.566,5.169,23.0
49.862,2.619,4.978,23.0
49.638,2.617,4.678,13.0
43.607,2.315,5.346,17.0
0.0,0.0,0.0,0.0
47.884,2.559,5.331,22.0
50.052,2.684,5.286,13.0
49.85,2.682,4.985,14.0
49.685,2.682,4.69,27.0
43.674,2.375,5.36,32.0
43.585,2.378,5.103,9.0
48.12,2.633,5.363,22.0
53.115,2.916,5.615,17.0
49.429,2.722,4.948,23.0
49.615,2.742,4.688,22.0
43.816,2.438,5.382,19.0
47.131,2.63,5.523,6.0
48.099,2.692,5.364,22.0
53.14,2.984,5.622,12.0
48.92,2.755,4.9,22.0
49.638,2.805,4.693,18.0
43.781,2.491,5.38,22.0
43.719,2.495,5.125,22.0
47.736,2.732,5.325,5.0
48.133,2.762,5.093,22.0
48.779,2.808,4.887,21.0
57.325,3.31,5.421,11.0
43.752,2.544,5.377,37.0
43.695,2.547,5.122,17.0
45.318,2.649,5.055,20.0
48.173,2.824,5.096,20.0
49.231,2.894,4.931,27.0
57.617,3.397,5.446,40.0
43.668,2.592,5.364,38.0
45.978,2.737,5.387,5.0
45.308,2.704,5.052,20.0
48.221,2.886,5.099,9.0
49.356,2.962,4.94,12.0
57.728,3.474,5.453,23.0
43.776,2.653,5.374,33.0
0.0,0.0,0.0,0.0
44.94,2.737,5.006,19.0
44.516,2.718,4.702,20.0
51.653,3.162,5.164,2.0
63.105,3.873,5.953,23.0
43.758,2.704,5.366,27.0
45.203,2.8,5.286,19.0
44.755,2.779,4.979,29.0
48.978,3.049,5.166,16.0
51.83,3.234,5.174,12.0
52.281,3.27,4.923,13.0
43.135,2.717,5.282,26.0
45.408,2.866,5.302,20.0
44.752,2.831,4.97,33.0
49.112,3.114,5.171,17.0
51.708,3.286,5.151,22.0
59.859,3.814,5.624,7.0
42.222,2.709,5.161,27.0
45.006,2.893,5.244,27.0
44.702,2.88,4.954,17.0
48.898,3.157,5.137,24.0
51.697,3.345,5.138,20.0
63.138,4.095,5.917,11.0
42.606,2.782,5.197,18.0
44.959,2.942,5.227,17.0
49.272,3.231,5.448,6.0
48.829,3.209,5.116,23.0
51.61,3.399,5.114,16.0
63.074,4.164,5.892,20.0
42.654,2.834,5.19,18.0
45.049,2.999,5.223,7.0
49.277,3.287,5.432,23.0
49.106,3.283,5.129,19.0
54.945,3.68,5.426,17.0
63.016,4.229,5.866,9.0
45.906,3.102,5.569,19.0
33.839,2.29,3.911,5.0
47.099,3.193,5.175,16.0
54.517,3.704,5.674,14.0
48.274,3.286,4.75,17.0
62.996,4.297,5.841,5.0
46.489,3.192,5.622,4.0
48.525,3.337,5.59,18.0
47.112,3.246,5.158,18.0
54.561,3.766,5.657,5.0
48.267,3.337,4.729,20.0
60.842,4.215,5.616,6.0
46.547,3.245,5.609,3.0
48.512,3.388,5.567,9.0
51.914,3.631,5.661,9.0
54.565,3.823,5.633,15.0
48.273,3.389,4.708,29.0
51.958,3.654,4.772,15.0
33.902,2.399,4.069,17.0
33.792,2.395,3.862,14.0
49.211,3.494,5.342,22.0
48.326,3.437,4.965,21.0
48.272,3.439,4.684,18.0
51.921,3.705,4.742,18.0
33.955,2.438,4.058,27.0
33.495,2.409,3.81,20.0
49.485,3.564,5.346,11.0
48.302,3.484,4.937,22.0
59.553,4.302,5.747,5.0
51.862,3.752,4.709,4.0
33.945,2.471,4.038,18.0
33.435,2.438,3.785,20.0
49.524,3.616,5.322,6.0
48.293,3.531,4.908,22.0
59.533,4.36,5.71,33.0
58.794,4.313,5.304,23.0
33.881,2.5,4.01,31.0
33.502,2.475,3.772,19.0
33.868,2.506,3.619,17.0
48.294,3.578,4.879,27.0
59.564,4.419,5.677,7.0
58.836,4.372,5.272,11.0
33.802,2.526,3.979,35.0
33.511,2.508,3.752,22.0
48.32,3.62,5.133,12.0
48.365,3.628,4.855,16.0
60.991,4.582,5.773,9.0
60.363,4.54,5.37,11.0
33.809,2.558,3.957,22.0
33.561,2.542,3.735,25.0
48.316,3.664,5.099,20.0
51.764,3.93,5.161,15.0
51.876,3.944,4.875,13.0
51.919,3.952,4.582,7.0
33.698,2.58,3.92,28.0
33.712,2.583,3.728,26.0
48.386,3.712,5.072,28.0
42.861,3.292,4.242,17.0
49.666,3.819,4.631,33.0
51.885,3.995,4.541,7.0
33.673,2.607,3.892,38.0
33.883,2.626,3.721,29.0
49.548,3.844,5.157,23.0
42.857,3.328,4.209,17.0
49.652,3.86,4.592,18.0
51.862,4.036,4.5,14.0
33.698,2.637,3.869,32.0
33.894,2.655,3.696,24.0
49.914,3.913,5.156,19.0
42.954,3.37,4.186,26.0
51.908,4.077,4.76,4.0
51.875,4.079,4.46,19.0
33.724,2.666,3.845,29.0
48.497,3.837,5.249,17.0
43.058,3.41,4.412,17.0
42.995,3.407,4.154,16.0
60.575,4.806,5.505,6.0
51.892,4.121,4.418,29.0
33.708,2.691,3.814,32.0
48.645,3.886,5.223,11.0
43.059,3.443,4.375,17.0
49.521,3.962,4.742,13.0
60.452,4.841,5.442,21.0
51.913,4.161,4.375,23.0
48.667,3.921,5.464,5.0
50.051,4.036,5.329,24.0
43.012,3.47,4.332,27.0
49.516,3.998,4.697,17.0
60.352,4.877,5.378,30.0
51.93,4.199,4.33,33.0
49.056,3.987,5.462,5.0
50.248,4.087,5.305,12.0
42.854,3.488,4.276,20.0
51.604,4.202,4.847,6.0
60.1,4.898,5.299,34.0
51.938,4.236,4.282,40.0
33.787,2.769,3.73,26.0
43.088,3.533,4.507,16.0
42.695,3.503,4.219,31.0
49.222,4.04,4.577,23.0
59.586,4.895,5.197,33.0
51.927,4.268,4.231,36.0
33.775,2.789,3.695,24.0
49.173,4.063,5.095,7.0
42.671,3.528,4.175,21.0
49.246,4.073,4.53,23.0
59.534,4.927,5.134,33.0
51.904,4.298,4.177,26.0
49.474,4.116,5.363,16.0
42.877,3.569,4.4,17.0
42.547,3.542,4.12,23.0
49.448,4.119,4.498,24.0
59.727,4.978,5.089,33.0
51.87,4.326,4.122,26.0
49.275,4.127,5.29,8.0
42.749,3.582,4.342,27.0
42.548,3.566,4.076,14.0
49.485,4.15,4.449,23.0
59.68,5.007,5.022,20.0
51.852,4.352,4.065,37.0
43.118,3.635,4.583,18.0
42.646,3.596,4.285,28.0
49.011,4.134,4.642,23.0
59.276,5.002,5.265,19.0
51.732,4.366,4.298,17.0
51.842,4.378,4.008,34.0
43.114,3.656,4.535,35.0
42.628,3.616,4.236,21.0
49.004,4.157,4.587,21.0
59.428,5.043,5.213,30.0
51.738,4.392,4.24,36.0
51.839,4.402,3.95,39.0
43.048,3.67,4.479,29.0
42.652,3.637,4.19,22.0
48.972,4.177,4.528,16.0
59.472,5.073,5.149,29.0
51.767,4.417,4.184,50.0
51.828,4.423,3.89,30.0
42.875,3.674,4.411,29.0
42.79,3.667,4.154,20.0
48.96,4.196,4.47,22.0
59.559,5.105,5.087,16.0
51.793,4.44,4.125,42.0
51.854,4.446,3.832,37.0
42.781,3.682,4.35,34.0
48.659,4.188,4.666,5.0
48.952,4.213,4.41,13.0
51.665,4.447,4.351,21.0
51.791,4.458,4.063,41.0
51.857,4.465,3.77,36.0
42.767,3.696,4.297,37.0
48.598,4.199,4.602,17.0
59.31,5.125,5.273,8.0
51.694,4.466,4.292,25.0
51.804,4.476,4.002,37.0
51.861,4.482,3.708,45.0
42.806,3.712,4.249,23.0
48.644,4.217,4.546,16.0
59.35,5.145,5.203,7.0
51.749,4.486,4.232,20.0
51.814,4.492,3.939,37.0
51.867,4.496,3.644,39.0
42.801,3.722,4.195,14.0
51.489,4.478,4.747,8.0
51.637,4.489,4.462,37.0
51.763,4.5,4.169,21.0
51.828,4.505,3.875,44.0
51.865,4.508,3.579,20.0
42.818,3.733,4.142,12.0
51.523,4.492,4.685,20.0
51.645,4.501,4.397,42.0
51.786,4.512,4.104,28.0
51.847,4.517,3.81,34.0
51.869,4.519,3.513,19.0
48.704,4.256,4.648,13.0
51.609,4.508,4.626,44.0
59.193,5.169,4.963,9.0
51.789,4.521,4.038,24.0
51.871,4.527,3.745,35.0
51.893,4.529,3.447,30.0
51.502,4.507,4.848,12.0
51.626,4.516,4.56,56.0
59.175,5.175,4.884,16.0
51.81,4.53,3.971,16.0
51.867,4.533,3.676,44.0
51.922,4.537,3.381,36.0
51.553,4.517,4.783,33.0
51.642,4.523,4.492,49.0
51.78,4.533,4.204,12.0
51.831,4.536,3.904,22.0
51.87,4.538,3.607,22.0
51.948,4.543,3.313,47.0
51.517,4.517,4.71,29.0
51.642,4.525,4.423,23.0
51.786,4.536,4.135,22.0
51.838,4.538,3.834,25.0
51.888,4.541,3.539,20.0
51.971,4.547,3.245,46.0
51.589,4.524,4.647,49.0
59.236,5.191,4.992,19.0
51.799,4.537,4.066,24.0
51.851,4.54,3.765,32.0
51.897,4.541,3.469,28.0
51.996,4.548,3.176,40.0
51.643,4.527,4.581,56.0
59.178,5.184,4.906,21.0
51.823,4.537,3.996,15.0
51.869,4.538,3.695,46.0
51.922,4.541,3.399,36.0
52.008,4.546,3.105,40.0
51.646,4.523,4.509,54.0
51.806,4.534,4.222,11.0
51.837,4.534,3.925,22.0
51.87,4.534,3.623,25.0
51.965,4.54,3.329,47.0
52.039,4.544,3.034,37.0
51.651,4.518,4.436,41.0
51.788,4.526,4.148,24.0
51.83,4.527,3.851,27.0
51.865,4.527,3.549,23.0
51.961,4.532,3.255,50.0
52.044,4.537,2.961,45.0
51.652,4.51,4.363,18.0
51.802,4.519,4.075,30.0
51.852,4.52,3.779,25.0
51.871,4.518,3.476,25.0
51.975,4.524,3.183,45.0
52.04,4.527,2.887,47.0
51.723,4.506,4.295,14.0
51.806,4.509,4.001,25.0
51.861,4.51,3.706,42.0
51.91,4.511,3.405,36.0
51.982,4.513,3.109,36.0
52.039,4.515,2.813,38.0
51.776,4.498,4.225,19.0
51.829,4.498,3.929,42.0
51.859,4.496,3.631,32.0
51.927,4.499,3.331,53.0
51.983,4.5,3.035,36.0
52.041,4.501,2.739,40.0
51.777,4.483,4.15,39.0
51.826,4.482,3.854,44.0
51.845,4.48,3.556,29.0
51.939,4.484,3.257,59.0
51.995,4.484,2.961,44.0
52.048,4.485,2.664,45.0
51.803,4.468,4.077,40.0
51.849,4.467,3.781,32.0
51.876,4.465,3.482,36.0
51.947,4.467,3.182,57.0
52.009,4.467,2.886,44.0
52.042,4.466,2.588,46.0
51.82,4.45,4.002,35.0
51.869,4.449,3.706,32.0
51.896,4.446,3.408,51.0
51.959,4.447,3.107,50.0
52.01,4.447,2.811,57.0
52.04,4.445,2.512,46.0
51.837,4.429,3.927,30.0
51.849,4.425,3.629,23.0
51.922,4.426,3.333,48.0
51.959,4.424,3.031,47.0
52.033,4.426,2.735,59.0
52.07,4.424,2.438,45.0
51.86,4.407,3.853,26.0
51.885,4.404,3.555,25.0
51.947,4.404,3.259,52.0
51.968,4.4,2.955,45.0
52.044,4.401,2.659,56.0
52.085,4.4,2.361,45.0
51.884,4.383,3.777,21.0
51.903,4.379,3.479,54.0
51.966,4.379,3.183,48.0
51.995,4.375,2.88,31.0
52.06,4.375,2.584,50.0
52.142,4.377,2.287,28.0
51.894,4.356,3.702,21.0
51.927,4.352,3.404,39.0
51.985,4.351,3.108,31.0
52.054,4.351,2.807,39.0
52.113,4.35,2.51,22.0
52.179,4.35,2.213,10.0
51.914,4.327,3.627,21.0
51.996,4.327,3.332,21.0
52.006,4.321,3.032,19.0
52.086,4.322,2.731,20.0
62.012,5.138,2.895,12.0
62.449,5.168,2.557,26.0
51.96,4.297,3.552,19.0
52.057,4.298,3.258,11.0
52.068,4.293,2.959,16.0
62.184,5.119,3.169,21.0
81.565,6.705,3.687,12.0
81.13,6.66,3.201,12.0
59.728,4.899,3.994,32.0
59.916,4.907,3.661,22.0
62.182,5.084,3.442,11.0
62.316,5.087,3.084,13.0
62.767,5.116,2.745,7.0
81.165,6.606,3.083,24.0
59.757,4.858,3.908,35.0
61.943,5.027,3.694,8.0
61.91,5.016,3.335,32.0
81.647,6.604,3.92,9.0
81.695,6.597,3.452,14.0
81.081,6.538,2.96,9.0
60.113,4.841,3.842,27.0
62.137,4.995,3.613,12.0
62.583,5.021,3.278,26.0
81.597,6.536,3.797,34.0
81.388,6.508,3.319,28.0
47.87,3.821,1.677,16.0
60.964,4.86,3.807,27.0
62.425,4.967,3.538,9.0
79.142,6.286,4.03,11.0
81.814,6.486,3.687,26.0
48.916,3.871,1.923,12.0
47.775,3.774,1.604,59.0
60.49,4.77,3.688,19.0
62.398,4.912,3.445,17.0
81.595,6.41,4.035,25.0
81.82,6.415,3.567,26.0
48.92,3.828,1.851,11.0
47.622,3.72,1.529,7.0
60.519,4.718,3.6,16.0
62.341,4.85,3.35,11.0
81.776,6.349,3.923,25.0
81.594,6.323,3.438,22.0
48.216,3.729,1.754,3.0
47.427,3.661,1.454,7.0
77.6,5.978,4.503,18.0
77.222,5.936,4.037,24.0
81.547,6.254,3.794,25.0
81.37,6.227,3.31,14.0
47.63,3.638,1.664,5.0
47.364,3.61,1.384,11.0
77.349,5.883,4.378,14.0
81.389,6.177,4.139,20.0
81.757,6.19,3.687,19.0
0.0,0.0,0.0,0.0
47.559,3.585,1.594,6.0
47.345,3.562,1.316,14.0
77.244,5.796,4.261,35.0
81.312,6.086,4.017,27.0
81.783,6.108,3.57,10.0
48.318,3.6,1.827,0.0
47.392,3.523,1.52,8.0
47.354,3.513,1.247,17.0
81.127,6.002,4.358,16.0
81.118,5.986,3.891,23.0
0.0,0.0,0.0,0.0
47.875,3.516,1.743,2.0
47.293,3.465,1.45,19.0
47.324,3.459,1.18,8.0
80.785,5.888,4.226,23.0
81.271,5.908,3.785,10.0
0.0,0.0,0.0,0.0
47.587,3.441,1.665,4.0
47.265,3.41,1.382,25.0
47.339,3.407,1.114,1.0
80.729,5.791,4.109,26.0
0.0,0.0,0.0,0.0
0.0,0.0,0.0,0.0
47.401,3.373,1.592,10.0
47.274,3.355,1.317,156.0
47.324,3.35,1.047,1.0
80.753,5.697,3.997,27.0
0.0,0.0,0.0,0.0
48.306,3.388,1.836,0.0
47.304,3.309,1.523,16.0
47.264,3.298,1.251,168.0
47.306,3.292,0.982,3.0
80.842,5.604,3.889,13.0
0.0,0.0,0.0,0.0
47.811,3.295,1.752,2.0
47.233,3.246,1.455,20.0
47.259,3.239,1.186,163.0
47.346,3.236,0.918,1.0
0.0,0.0,0.0,0.0
0.0,0.0,0.0,0.0
47.541,3.216,1.677,5.0
47.202,3.183,1.39,34.0
47.255,3.177,1.121,150.0
50.963,3.417,0.919,3.0
0.0,0.0,0.0,0.0
0.0,0.0,0.0,0.0
47.394,3.145,1.609,9.0
47.242,3.125,1.329,157.0
47.261,3.116,1.06,2.0
50.912,3.346,0.85,1.0
0.0,0.0,0.0,0.0
48.002,3.131,1.84,1.0
47.273,3.074,1.542,14.0
47.225,3.06,1.266,165.0
47.242,3.051,0.997,4.0
43.396,2.794,0.668,0.0
0.0,0.0,0.0,0.0
47.736,3.048,1.767,2.0
47.198,3.003,1.478,23.0
47.223,2.995,1.205,161.0
47.302,2.99,0.937,1.0
43.429,2.736,0.612,0.0
0.0,0.0,0.0,0.0
47.514,2.967,1.698,5.0
47.191,2.936,1.417,47.0
47.228,2.928,1.144,152.0
53.606,3.312,0.993,2.0
47.176,2.904,0.605,1.0
0.0,0.0,0.0,0.0
47.368,2.89,1.633,9.0
47.198,2.869,1.358,49.0
47.289,2.863,1.086,2.0
47.637,2.874,0.822,3.0
36.451,2.191,0.422,0.0
48.129,2.876,1.874,1.0
47.286,2.814,1.571,13.0
47.221,2.8,1.3,30.0
47.247,2.79,1.026,6.0
47.721,2.807,0.765,7.0
34.891,2.044,0.36,0.0
47.82,2.786,1.802,2.0
47.225,2.74,1.511,20.0
47.245,2.729,1.242,17.0
47.267,2.719,0.969,3.0
42.004,2.407,0.621,0.0
33.35,1.903,0.303,0.0
47.569,2.697,1.735,4.0
47.232,2.666,1.453,18.0
47.27,2.657,1.186,6.0
47.39,2.652,0.914,0.0
0.0,0.0,0.0,0.0
30.552,1.695,0.242,0.0
47.42,2.615,1.674,7.0
47.261,2.594,1.399,21.0
47.258,2.582,1.13,1.0
48.883,2.659,0.886,4.0
37.281,2.018,0.463,0.0
30.969,1.669,0.209,0.0
47.554,2.546,1.623,150.0
47.307,2.52,1.345,21.0
47.237,2.504,1.074,2.0
49.15,2.593,0.833,2.0
37.434,1.966,0.422,0.0
30.352,1.586,0.17,0.0
47.496,2.465,1.566,17.0
47.344,2.444,1.292,20.0
47.238,2.426,1.021,1.0
0.0,0.0,0.0,0.0
34.272,1.743,0.348,0.0
29.272,1.481,0.131,0.0
47.4,2.38,1.51,9.0
47.367,2.366,1.24,20.0
47.674,2.369,0.978,0.0
40.459,2.0,0.596,0.0
33.086,1.627,0.3,0.0
28.695,1.404,0.097,0.0
47.42,2.301,1.46,1.0
47.399,2.288,1.19,18.0
47.744,2.292,0.928,1.0
38.523,1.838,0.526,0.0
32.181,1.527,0.257,1.0
28.075,1.325,0.065,0.0
47.45,2.221,1.41,14.0
47.434,2.207,1.141,14.0
47.829,2.213,0.879,1.0
0.0,0.0,0.0,0.0
31.407,1.436,0.218,1.0
27.311,1.241,0.035,0.0
47.567,2.143,1.364,4.0
47.683,2.135,1.097,0.0
47.64,2.121,0.827,0.0
0.0,0.0,0.0,0.0
30.239,1.329,0.179,1.0
26.763,1.168,0.007,0.0
48.177,2.085,1.333,1.0
0.0,0.0,0.0,0.0
0.0,0.0,0.0,0.0
34.459,1.462,0.365,0.0
28.925,1.219,0.143,0.0
26.289,1.101,-0.018,0.0
48.519,2.012,1.295,3.0
49.459,2.037,1.041,0.0
0.0,0.0,0.0,0.0
33.402,1.356,0.322,1.0
28.901,1.165,0.115,1.0
25.785,1.032,-0.042,0.0
49.061,1.945,1.263,2.0
0.0,0.0,0.0,0.0
0.0,0.0,0.0,0.0
33.065,1.282,0.288,0.0
28.702,1.104,0.087,1.0
25.674,0.981,-0.066,4.0
49.598,1.874,1.231,1.0
50.698,1.9,0.972,3.0
38.373,1.427,0.519,0.0
32.3,1.191,0.251,0.0
27.863,1.02,0.06,0.0
24.581,0.892,-0.085,1.0
50.473,1.812,1.208,0.0
50.68,1.804,0.927,0.0
36.524,1.289,0.462,0.0
0.0,0.0,0.0,0.0
27.265,0.946,0.035,0.0
24.426,0.84,-0.105,1.0
0.0,0.0,0.0,0.0
44.79,1.51,0.781,1.0
35.828,1.197,0.423,0.0
30.866,1.021,0.187,0.0
26.908,0.882,0.012,0.0
24.156,0.785,-0.124,0.0
0.0,0.0,0.0,0.0
0.0,0.0,0.0,0.0
34.986,1.101,0.385,0.0
28.959,0.902,0.152,5.0
26.52,0.818,-0.009,0.0
23.328,0.713,-0.139,1.0
55.607,1.676,1.194,4.0
0.0,0.0,0.0,0.0
33.795,0.998,0.345,1.0
28.951,0.845,0.13,6.0
26.086,0.754,-0.029,0.0
23.189,0.663,-0.156,1.0
56.264,1.586,1.165,5.0
0.0,0.0,0.0,0.0
33.357,0.919,0.315,0.0
28.861,0.785,0.108,6.0
25.584,0.688,-0.047,0.0
22.765,0.605,-0.17,0.0
56.914,1.491,1.137,1.0
38.689,1.001,0.555,0.0
32.985,0.843,0.288,0.0
28.792,0.726,0.087,2.0
25.33,0.631,-0.065,0.0
22.232,0.547,-0.181,0.0
47.683,1.153,0.919,0.0
37.583,0.897,0.514,0.0
0.0,0.0,0.0,0.0
28.699,0.666,0.067,1.0
24.955,0.572,-0.08,0.0
21.964,0.496,-0.194,0.0
0.0,0.0,0.0,0.0
37.191,0.813,0.484,1.0
31.685,0.682,0.235,0.0
27.535,0.584,0.047,0.0
24.709,0.516,-0.095,0.0
21.816,0.448,-0.206,1.0
0.0,0.0,0.0,0.0
0.0,0.0,0.0,0.0
31.141,0.608,0.212,0.0
27.152,0.521,0.03,0.0
24.238,0.457,-0.108,0.0
21.596,0.4,-0.217,0.0
0.0,0.0,0.0,0.0
35.477,0.631,0.419,0.0
0.0,0.0,0.0,0.0
26.885,0.461,0.014,0.0
23.965,0.403,-0.12,0.0
20.676,0.341,-0.219,0.0
43.303,0.696,0.73,0.0
34.847,0.549,0.393,0.0
28.907,0.446,0.164,1.0
26.606,0.401,0.0,0.0
23.756,0.35,-0.132,0.0
20.689,0.298,-0.23,0.0
40.79,0.572,0.666,0.0
34.566,0.472,0.372,0.0
28.908,0.385,0.149,4.0
26.406,0.343,-0.013,0.0
23.482,0.297,-0.142,0.0
20.272,0.249,-0.236,0.0
0.0,0.0,0.0,0.0
33.652,0.39,0.346,0.0
28.888,0.324,0.136,6.0
26.131,0.285,-0.025,0.0
23.346,0.246,-0.152,0.0
20.102,0.205,-0.243,0.0
0.0,0.0,0.0,0.0
0.0,0.0,0.0,0.0
28.844,0.264,0.123,6.0
26.022,0.229,-0.036,0.0
22.738,0.192,-0.158,0.0
19.938,0.162,-0.249,0.0
39.049,0.302,0.585,0.0
33.066,0.244,0.312,0.0
28.749,0.202,0.111,1.0
25.701,0.171,-0.046,0.0
22.467,0.142,-0.165,0.0
19.638,0.117,-0.253,0.0
0.0,0.0,0.0,0.0
0.0,0.0,0.0,0.0
28.681,0.14,0.1,1.0
25.54,0.116,-0.054,0.0
22.57,0.095,-0.173,1.0
19.489,0.075,-0.258,0.0
0.0,0.0,0.0,0.0
0.0,0.0,0.0,0.0
28.679,0.08,0.091,3.0
25.358,0.062,-0.062,0.0
22.104,0.046,-0.177,0.0
19.324,0.033,-0.262,0.0
0.0,0.0,0.0,0.0
33.154,0.034,0.279,0.0
28.531,0.019,0.082,1.0
25.332,0.008,-0.069,0.0
22.187,0.0,-0.184,0.0
19.234,-0.007,-0.266,0.0
0.0,0.0,0.0,0.0
31.556,-0.034,0.258,0.0
28.638,-0.041,0.075,4.0
25.091,-0.045,-0.075,0.0
21.996,-0.048,-0.187,0.0
19.083,-0.048,-0.268,0.0
37.261,-0.107,0.502,0.0
31.666,-0.103,0.251,1.0
28.613,-0.103,0.069,3.0
24.849,-0.098,-0.079,0.0
21.908,-0.094,-0.191,0.0
19.122,-0.089,-0.272,0.0
37.333,-0.187,0.496,0.0
31.616,-0.169,0.245,1.0
28.539,-0.163,0.064,1.0
24.802,-0.151,-0.083,0.0
22.064,-0.142,-0.196,1.0
19.001,-0.129,-0.274,0.0
36.167,-0.258,0.475,0.0
31.686,-0.238,0.241,1.0
28.347,-0.223,0.059,1.0
24.656,-0.202,-0.086,0.0
22.052,-0.189,-0.199,0.0
18.895,-0.169,-0.274,0.0
36.686,-0.339,0.478,0.0
31.658,-0.305,0.238,1.0
27.942,-0.279,0.056,0.0
24.741,-0.256,-0.089,0.0
21.936,-0.235,-0.2,0.0
18.825,-0.209,-0.275,0.0
36.574,-0.418,0.473,0.0
31.804,-0.374,0.236,0.0
27.983,-0.34,0.054,0.0
24.694,-0.309,-0.09,0.0
21.954,-0.282,-0.201,1.0
18.942,-0.251,-0.278,0.0
0.0,0.0,0.0,0.0
31.56,-0.439,0.233,0.0
28.112,-0.402,0.053,0.0
24.836,-0.364,-0.091,0.0
22.032,-0.331,-0.202,0.0
18.868,-0.29,-0.277,0.0
35.819,-0.562,0.462,0.0
31.527,-0.506,0.233,0.0
27.948,-0.459,0.053,0.0
24.856,-0.417,-0.091,0.0
22.05,-0.378,-0.202,1.0
18.819,-0.33,-0.276,0.0
33.911,-0.604,0.439,0.0
31.341,-0.57,0.233,0.0
28.315,-0.525,0.055,1.0
24.723,-0.467,-0.089,0.0
21.968,-0.424,-0.2,0.0
18.87,-0.371,-0.275,0.0
0.0,0.0,0.0,0.0
31.298,-0.635,0.235,0.0
28.419,-0.587,0.058,1.0
24.705,-0.52,-0.087,0.0
22.055,-0.472,-0.198,0.0
18.967,-0.413,-0.274,0.0
0.0,0.0,0.0,0.0
31.593,-0.709,0.241,0.0
28.522,-0.65,0.062,2.0
24.811,-0.575,-0.084,0.0
22.107,-0.52,-0.196,0.0
19.137,-0.457,-0.274,0.0
0.0,0.0,0.0,0.0
31.883,-0.783,0.248,0.0
28.526,-0.711,0.066,3.0
25.117,-0.635,-0.081,0.0
22.237,-0.57,-0.193,0.0
19.214,-0.5,-0.272,0.0
0.0,0.0,0.0,0.0
31.846,-0.849,0.254,0.0
28.48,-0.77,0.072,1.0
25.331,-0.694,-0.076,0.0
22.276,-0.619,-0.189,0.0
19.238,-0.541,-0.268,0.0
0.0,0.0,0.0,0.0
32.208,-0.927,0.265,0.0
28.43,-0.828,0.078,1.0
25.128,-0.741,-0.07,0.0
22.285,-0.665,-0.183,0.0
19.299,-0.584,-0.264,0.0
38.03,-1.16,0.53,0.0
32.198,-0.994,0.273,0.0
28.517,-0.891,0.086,1.0
0.0,0.0,0.0,0.0
22.498,-0.719,-0.179,0.0
19.379,-0.627,-0.26,0.0
0.0,0.0,0.0,0.0
32.193,-1.061,0.283,0.0
28.523,-0.95,0.095,1.0
25.595,-0.862,-0.056,0.0
22.453,-0.764,-0.171,0.0
19.445,-0.669,-0.254,0.0
0.0,0.0,0.0,0.0
0.0,0.0,0.0,0.0
28.614,-1.012,0.105,4.0
25.956,-0.928,-0.048,0.0
22.757,-0.822,-0.166,0.0
19.605,-0.715,-0.249,0.0
39.06,-1.434,0.583,0.0
32.803,-1.216,0.311,0.0
28.623,-1.071,0.116,7.0
0.0,0.0,0.0,0.0
23.081,-0.881,-0.159,0.0
19.887,-0.766,-0.245,0.0
0.0,0.0,0.0,0.0
33.939,-1.327,0.336,0.0
28.661,-1.131,0.128,7.0
25.855,-1.029,-0.027,0.0
23.273,-0.935,-0.15,1.0
20.511,-0.832,-0.244,0.0
0.0,0.0,0.0,0.0
34.104,-1.402,0.353,0.0
28.639,-1.188,0.141,3.0
26.133,-1.093,-0.015,1.0
23.561,-0.994,-0.141,1.0
20.904,-0.889,-0.239,1.0
0.0,0.0,0.0,0.0
34.204,-1.475,0.37,0.0
28.7,-1.248,0.155,1.0
26.468,-1.16,-0.002,1.0
23.694,-1.047,-0.13,1.0
20.994,-0.935,-0.229,1.0
42.371,-1.896,0.71,0.0
34.861,-1.572,0.395,0.0
30.673,-1.394,0.181,0.0
27.185,-1.245,0.011,1.0
23.759,-1.096,-0.118,0.0
21.312,-0.991,-0.221,1.0
42.556,-1.987,0.735,0.0
35.791,-1.684,0.425,0.0
30.521,-1.447,0.197,0.0
27.654,-1.321,0.026,7.0
23.914,-1.151,-0.106,0.0
21.73,-1.054,-0.213,1.0
0.0,0.0,0.0,0.0
36.295,-1.779,0.452,0.0
30.571,-1.509,0.215,0.0
27.784,-1.381,0.043,7.0
24.722,-1.238,-0.094,0.0
22.165,-1.118,-0.204,1.0
0.0,0.0,0.0,0.0
37.337,-1.902,0.488,0.0
31.916,-1.637,0.245,0.0
28.2,-1.456,0.061,5.0
25.177,-1.309,-0.08,0.0
22.404,-1.172,-0.192,2.0
34.442,-1.808,0.658,2.0
34.696,-1.833,0.476,0.0
32.28,-1.717,0.268,1.0
28.478,-1.525,0.08,7.0
34.255,-1.846,-0.087,4.0
34.248,-1.857,-0.271,3.0
34.261,-1.863,0.677,0.0
34.626,-1.895,0.498,0.0
32.932,-1.814,0.297,0.0
28.543,-1.582,0.1,6.0
34.214,-1.908,-0.063,4.0
23.205,-1.302,-0.167,0.0
0.0,0.0,0.0,0.0
34.662,-1.962,0.524,1.0
33.524,-1.909,0.326,0.0
28.622,-1.639,0.121,6.0
25.992,-1.498,-0.029,0.0
23.448,-1.359,-0.152,0.0
0.0,0.0,0.0,0.0
34.542,-2.019,0.548,3.0
34.802,-2.046,0.365,1.0
0.0,0.0,0.0,0.0
27.022,-1.607,-0.009,0.0
23.795,-1.423,-0.136,0.0
34.01,-2.038,0.748,0.0
34.282,-2.066,0.57,3.0
0.0,0.0,0.0,0.0
30.818,-1.878,0.178,1.0
27.66,-1.695,0.012,0.0
24.017,-1.48,-0.118,0.0
33.909,-2.094,0.773,0.0
34.075,-2.115,0.594,2.0
36.112,-2.253,0.436,0.0
31.635,-1.984,0.209,2.0
28.09,-1.771,0.035,0.0
24.58,-1.558,-0.1,0.0
33.948,-2.156,0.802,0.0
33.971,-2.169,0.621,1.0
34.767,-2.23,0.449,0.0
32.098,-2.069,0.239,1.0
28.269,-1.832,0.059,1.0
25.299,-1.647,-0.082,0.0
33.91,-2.212,0.83,3.0
33.944,-2.226,0.649,0.0
34.605,-2.28,0.477,1.0
32.943,-2.181,0.274,1.0
28.533,-1.898,0.084,0.0
25.663,-1.715,-0.061,0.0
33.888,-2.269,0.86,8.0
33.914,-2.281,0.679,0.0
34.528,-2.333,0.506,3.0
33.897,-2.301,0.312,1.0
29.349,-2.002,0.113,0.0
25.884,-1.774,-0.037,2.0
33.881,-2.325,0.891,27.0
33.851,-2.334,0.709,2.0
34.297,-2.375,0.535,2.0
34.797,-2.42,0.353,1.0
0.0,0.0,0.0,0.0
33.931,-2.381,-0.018,1.0
33.869,-2.38,0.922,47.0
33.885,-2.391,0.741,156.0
34.098,-2.416,0.563,3.0
35.595,-2.533,0.395,2.0
30.378,-2.171,0.174,0.0
33.934,-2.436,0.013,2.0
33.866,-2.434,0.954,78.0
33.886,-2.445,0.774,156.0
33.97,-2.461,0.594,2.0
36.584,-2.662,0.441,1.0
31.323,-2.288,0.211,0.0
33.911,-2.488,0.047,5.0
33.857,-2.487,0.987,106.0
33.875,-2.498,0.807,158.0
33.835,-2.505,0.626,8.0
37.903,-2.817,0.495,1.0
31.673,-2.363,0.244,0.0
33.895,-2.539,0.081,2.0
33.843,-2.539,1.021,113.0
33.879,-2.551,0.842,152.0
33.852,-2.559,0.661,153.0
34.4,-2.61,0.484,1.0
32.752,-2.494,0.287,0.0
33.911,-2.592,0.116,0.0
33.831,-2.59,1.056,110.0
33.809,-2.597,0.876,33.0
33.846,-2.609,0.696,156.0
34.263,-2.651,0.519,5.0
0.0,0.0,0.0,0.0
29.79,-2.321,0.134,0.0
33.814,-2.639,1.092,126.0
33.831,-2.649,0.912,65.0
33.84,-2.658,0.732,156.0
34.058,-2.685,0.552,4.0
0.0,0.0,0.0,0.0
30.484,-2.419,0.169,0.0
33.806,-2.687,1.128,84.0
33.823,-2.697,0.948,141.0
33.843,-2.707,0.769,156.0
33.902,-2.721,0.586,2.0
0.0,0.0,0.0,0.0
31.335,-2.531,0.208,0.0
33.794,-2.733,1.165,22.0
33.819,-2.743,0.985,150.0
33.842,-2.754,0.806,154.0
33.779,-2.758,0.621,33.0
34.409,-2.818,0.45,0.0
32.117,-2.639,0.249,0.0
33.819,-2.782,1.203,28.0
33.801,-2.788,1.023,132.0
33.828,-2.799,0.844,144.0
33.807,-2.806,0.66,152.0
34.373,-2.861,0.489,3.0
32.99,-2.754,0.294,0.0
33.82,-2.827,1.242,34.0
33.799,-2.833,1.061,141.0
33.788,-2.84,0.881,51.0
33.781,-2.848,0.698,48.0
34.132,-2.886,0.524,5.0
0.0,0.0,0.0,0.0
33.832,-2.872,1.282,72.0
33.797,-2.877,1.101,98.0
33.791,-2.884,0.921,94.0
33.76,-2.89,0.738,0.0
33.961,-2.915,0.562,2.0
0.0,0.0,0.0,0.0
33.812,-2.913,1.321,70.0
33.779,-2.918,1.14,33.0
33.799,-2.928,0.962,123.0
33.778,-2.933,0.779,0.0
33.819,-2.945,0.6,1.0
34.536,-3.015,0.43,0.0
33.814,-2.955,1.362,7.0
33.803,-2.962,1.182,8.0
33.797,-2.968,1.002,85.0
33.767,-2.973,0.819,10.0
33.762,-2.98,0.64,0.0
34.378,-3.042,0.469,2.0
34.069,-3.018,1.413,0.0
33.829,-3.004,1.224,10.0
33.793,-3.007,1.043,77.0
33.777,-3.013,0.86,32.0
0.0,0.0,0.0,0.0
34.243,-3.069,0.509,4.0
34.141,-3.064,1.459,0.0
33.799,-3.039,1.264,39.0
33.823,-3.048,1.086,62.0
33.791,-3.052,0.902,43.0
33.824,-3.062,0.724,1.0
34.082,-3.093,0.549,2.0
0.0,0.0,0.0,0.0
33.801,-3.077,1.306,33.0
33.785,-3.082,1.126,26.0
33.788,-3.088,0.944,43.0
33.826,-3.099,0.766,150.0
33.872,-3.11,0.587,0.0
34.47,-3.168,1.558,0.0
33.845,-3.117,1.351,4.0
33.801,-3.119,1.17,6.0
33.799,-3.125,0.987,29.0
33.799,-3.131,0.808,9.0
33.829,-3.14,0.63,0.0
34.507,-3.207,1.604,0.0
34.05,-3.171,1.402,1.0
33.834,-3.156,1.214,4.0
33.787,-3.158,1.03,26.0
33.798,-3.165,0.851,17.0
33.711,-3.163,0.671,0.0
34.939,-3.282,1.669,0.0
34.2,-3.218,1.453,0.0
33.829,-3.189,1.258,8.0
33.807,-3.193,1.074,7.0
33.813,-3.199,0.896,20.0
33.943,-3.217,0.72,0.0
0.0,0.0,0.0,0.0
34.341,-3.264,1.504,4.0
33.851,-3.222,1.303,6.0
33.826,-3.226,1.119,7.0
33.829,-3.231,0.94,18.0
33.799,-3.234,0.761,1.0
0.0,0.0,0.0,0.0
34.419,-3.302,1.552,0.0
33.969,-3.264,1.352,0.0
33.824,-3.255,1.163,4.0
33.831,-3.261,0.985,12.0
33.833,-3.266,0.806,5.0
158.848,-15.356,8.217,12.0
34.634,-3.353,1.608,0.0
34.179,-3.313,1.406,0.0
33.87,-3.288,1.21,3.0
33.894,-3.295,1.032,20.0
33.854,-3.296,0.851,6.0
158.735,-15.475,8.422,17.0
34.81,-3.398,1.662,0.0
34.335,-3.356,1.457,0.0
33.879,-3.316,1.255,4.0
33.925,-3.325,1.077,150.0
33.867,-3.324,0.896,6.0
159.104,-15.635,8.654,16.0
35.204,-3.463,1.727,0.0
34.642,-3.412,1.516,1.0
33.938,-3.347,1.302,1.0
33.884,-3.345,1.121,6.0
33.881,-3.35,0.942,6.0
158.933,-15.734,8.856,13.0
35.357,-3.504,1.782,0.0
34.907,-3.463,1.574,0.0
34.266,-3.403,1.36,0.0
33.89,-3.37,1.166,2.0
33.937,-3.379,0.988,162.0
160.022,-15.952,9.134,15.0
158.979,-15.864,8.23,18.0
35.333,-3.529,1.641,0.0
34.571,-3.456,1.419,0.0
33.986,-3.402,1.215,1.0
33.918,-3.398,1.033,184.0
160.183,-16.072,9.358,14.0
158.913,-15.958,8.438,22.0
35.899,-3.608,1.716,1.0
34.933,-3.514,1.481,0.0
33.979,-3.421,1.26,0.0
33.957,-3.422,1.08,151.0
160.23,-16.172,9.575,13.0
158.849,-16.045,8.649,16.0
158.965,-16.07,7.81,7.0
35.381,-3.579,1.547,0.0
34.242,-3.467,1.316,0.0
33.897,-3.435,1.123,2.0
160.291,-16.267,9.794,10.0
160.293,-16.277,8.944,6.0
159.085,-16.166,8.031,14.0
35.898,-3.65,1.618,0.0
34.864,-3.548,1.387,1.0
33.948,-3.457,1.17,0.0
160.227,-16.342,10.005,12.0
160.035,-16.33,9.144,17.0
158.764,-16.211,8.229,15.0
36.338,-3.712,1.687,0.0
35.281,-3.607,1.45,0.0
34.078,-3.486,1.22,0.0
175.777,-18.008,11.214,8.0
160.272,-16.428,9.371,17.0
158.748,-16.279,8.44,18.0
159.038,-16.318,7.595,18.0
35.894,-3.685,1.523,0.0
34.2,-3.513,1.27,0.0
175.729,-18.076,11.446,19.0
160.312,-16.497,9.587,15.0
158.768,-16.344,8.652,16.0
159.04,-16.379,7.807,18.0
36.338,-3.744,1.59,0.0
35.05,-3.613,1.348,1.0
175.615,-18.129,11.673,25.0
160.174,-16.54,9.794,14.0
158.461,-16.369,8.845,12.0
159.164,-16.446,8.022,16.0
160.195,-16.559,7.224,10.0
35.412,-3.662,1.409,1.0
175.486,-18.174,11.898,21.0
160.205,-16.594,10.008,12.0
158.535,-16.425,9.061,7.0
159.166,-16.494,8.235,19.0
159.71,-16.555,7.414,16.0
36.436,-3.778,1.497,0.0
175.385,-18.213,12.124,16.0
175.48,-18.225,11.193,10.0
159.958,-16.614,9.353,7.0
159.009,-16.518,8.434,16.0
159.41,-16.563,7.608,20.0
155.484,-16.158,6.595,4.0
142.389,-14.82,10.029,12.0
175.35,-18.25,11.415,21.0
159.887,-16.641,9.556,16.0
158.659,-16.515,8.621,17.0
159.114,-16.563,7.801,17.0
0.0,0.0,0.0,0.0
142.476,-14.856,10.22,23.0
175.299,-18.276,11.64,25.0
159.952,-16.675,9.767,12.0
158.386,-16.511,8.811,19.0
159.177,-16.594,8.007,19.0
160.103,-16.692,7.201,10.0
142.859,-14.916,10.433,17.0
175.225,-18.293,11.859,22.0
161.669,-16.875,10.079,6.0
158.399,-16.531,9.016,13.0
159.103,-16.603,8.209,17.0
159.948,-16.691,7.401,16.0
143.092,-14.956,10.635,12.0
175.279,-18.314,12.09,17.0
175.211,-18.303,11.15,13.0
158.581,-16.562,9.23,5.0
158.918,-16.595,8.403,18.0
159.68,-16.671,7.593,19.0
143.107,-14.965,10.821,11.0
142.415,-14.888,10.005,14.0
175.299,-18.319,11.379,20.0
159.943,-16.71,9.51,15.0
158.604,-16.564,8.585,17.0
159.1,-16.613,7.764,19.0
143.139,-14.971,11.002,13.0
142.503,-14.898,10.19,21.0
175.255,-18.314,11.595,24.0
159.913,-16.704,9.709,8.0
158.477,-16.548,8.776,22.0
159.184,-16.617,7.967,15.0
142.533,-14.903,11.136,4.0
142.826,-14.925,10.394,17.0
175.218,-18.302,11.811,25.0
161.454,-16.855,10.003,6.0
158.436,-16.534,8.969,15.0
159.13,-16.598,8.16,18.0
142.397,-14.878,11.302,16.0
143.008,-14.933,10.582,14.0
175.213,-18.284,12.026,17.0
175.425,-18.296,11.084,5.0
158.625,-16.535,9.173,5.0
159.052,-16.571,8.35,16.0
142.447,-14.867,11.479,17.0
143.069,-14.921,10.76,14.0
142.439,-14.845,9.948,10.0
175.304,-18.258,11.287,19.0
159.996,-16.654,9.445,14.0
158.739,-16.513,8.522,14.0
142.528,-14.852,11.659,20.0
143.029,-14.893,10.929,12.0
142.485,-14.825,10.123,15.0
175.447,-18.24,11.506,23.0
160.118,-16.635,9.641,15.0
158.469,-16.452,8.696,16.0
142.741,-14.845,11.846,18.0
142.934,-14.852,11.092,10.0
142.442,-14.789,10.288,14.0
175.426,-18.197,11.711,21.0
160.178,-16.603,9.833,11.0
158.453,-16.412,8.878,9.0
142.766,-14.813,12.015,9.0
142.518,-14.773,11.226,10.0
142.927,-14.801,10.49,12.0
175.64,-18.172,11.929,25.0
160.068,-16.546,10.012,13.0
160.174,-16.544,9.159,7.0
142.648,-14.76,12.17,15.0
142.432,-14.721,11.385,12.0
142.937,-14.758,10.655,17.0
175.588,-18.111,12.126,16.0
175.706,-18.106,11.19,11.0
160.281,-16.5,9.349,15.0
142.791,-14.726,12.348,20.0
142.435,-14.673,11.547,21.0
142.897,-14.705,10.812,13.0
143.162,-14.715,10.048,13.0
175.857,-18.057,11.395,22.0
160.493,-16.463,9.537,16.0
143.005,-14.695,12.524,15.0
142.788,-14.655,11.733,18.0
148.23,-15.195,11.38,9.0
143.678,-14.711,10.242,8.0
176.001,-18.0,11.598,20.0
160.426,-16.389,9.709,13.0
142.797,-14.615,12.662,8.0
142.863,-14.601,11.896,14.0
148.222,-15.13,11.541,14.0
143.836,-14.664,10.407,8.0
176.073,-17.929,11.791,16.0
160.398,-16.313,9.878,5.0
144.079,-14.68,12.931,5.0
142.45,-14.494,12.013,16.0
143.099,-14.539,11.293,11.0
142.882,-14.498,10.488,6.0
149.653,-15.166,10.178,11.0
176.303,-17.843,11.04,6.0
144.187,-14.62,13.092,14.0
142.377,-14.414,12.155,5.0
143.16,-14.473,11.446,17.0
142.807,-14.416,10.631,11.0
143.446,-14.459,9.904,13.0
176.551,-17.773,11.236,16.0
144.238,-14.548,13.244,14.0
144.141,-14.514,12.453,7.0
143.006,-14.378,11.579,12.0
142.532,-14.309,10.753,11.0
143.743,-14.41,10.065,17.0
176.689,-17.686,11.419,11.0
143.67,-14.407,13.336,13.0
142.569,-14.274,12.457,12.0
142.703,-14.263,11.694,8.0
142.383,-14.208,10.881,8.0
143.733,-14.321,10.205,13.0
149.988,-14.922,9.837,14.0
143.652,-14.318,13.473,15.0
142.559,-14.185,12.593,14.0
144.55,-14.357,11.984,13.0
0.0,0.0,0.0,0.0
143.622,-14.218,10.331,13.0
148.837,-14.711,9.9,17.0
143.53,-14.212,13.596,13.0
142.573,-14.092,12.727,9.0
144.724,-14.279,12.131,15.0
148.159,-14.592,11.598,3.0
143.514,-14.111,10.453,13.0
143.931,-14.127,9.704,10.0
143.338,-14.095,13.709,16.0
144.59,-14.192,13.038,9.0
144.74,-14.18,12.262,17.0
142.652,-13.949,11.293,4.0
143.817,-14.037,10.603,11.0
177.453,-17.29,12.12,10.0
143.317,-13.99,13.832,13.0
144.642,-14.09,13.17,5.0
144.679,-14.067,12.382,13.0
142.572,-13.835,11.409,12.0
143.824,-13.932,10.725,9.0
177.735,-17.186,12.286,11.0
143.258,-13.876,13.948,14.0
147.3,-14.237,13.535,3.0
144.94,-13.982,12.524,9.0
144.936,-13.952,11.719,4.0
143.78,-13.813,10.841,7.0
147.221,-14.118,10.298,4.0
143.29,-13.766,14.068,18.0
144.263,-13.829,13.373,9.0
0.0,0.0,0.0,0.0
145.35,-13.876,11.866,2.0
148.021,-14.101,11.277,6.0
151.508,-14.405,10.715,7.0
143.98,-13.713,14.249,5.0
144.324,-13.715,13.49,4.0
146.478,-13.889,12.888,8.0
145.166,-13.736,11.962,7.0
143.76,-13.573,11.061,6.0
153.384,-14.451,10.964,5.0
145.16,-13.699,14.476,20.0
148.233,-13.958,13.966,3.0
0.0,0.0,0.0,0.0
0.0,0.0,0.0,0.0
143.818,-13.451,11.169,4.0
153.302,-14.307,11.068,2.0
145.258,-13.579,14.591,14.0
148.002,-13.802,14.051,3.0
146.835,-13.661,13.133,4.0
147.086,-13.652,12.332,4.0
145.572,-13.48,11.407,11.0
146.118,-13.501,10.649,2.0
146.819,-13.589,14.848,10.0
145.917,-13.472,13.952,15.0
145.291,-13.381,13.092,11.0
146.489,-13.458,12.379,15.0
0.0,0.0,0.0,0.0
146.24,-13.372,10.754,10.0
145.891,-13.362,14.851,15.0
145.811,-13.321,14.036,8.0
145.058,-13.218,13.164,19.0
146.748,-13.338,12.495,8.0
144.829,-13.133,11.534,7.0
146.073,-13.215,10.83,9.0
145.917,-13.22,14.943,17.0
146.535,-13.241,14.196,11.0
145.477,-13.112,13.288,10.0
147.366,-13.248,12.634,13.0
144.821,-12.986,11.618,16.0
145.248,-12.993,10.852,13.0
145.762,-13.058,15.012,16.0
146.402,-13.08,14.266,13.0
145.466,-12.962,13.37,7.0
148.482,-13.195,12.812,8.0
144.612,-12.818,11.68,15.0
144.838,-12.806,10.9,17.0
145.603,-12.893,15.074,17.0
145.916,-12.884,14.296,15.0
148.283,-13.057,13.707,5.0
145.828,-12.807,12.658,6.0
144.542,-12.659,11.748,19.0
144.625,-12.633,10.957,14.0
145.648,-12.742,15.151,16.0
145.54,-12.695,14.331,5.0
150.146,-13.06,13.952,3.0
145.814,-12.647,12.727,9.0
144.575,-12.505,11.819,13.0
144.429,-12.459,11.009,4.0
146.066,-12.616,15.264,16.0
145.435,-12.524,14.388,18.0
144.849,-12.437,13.525,14.0
146.219,-12.519,12.826,4.0
145.548,-12.427,11.962,9.0
153.905,-13.105,11.797,4.0
145.765,-12.427,15.293,4.0
145.438,-12.36,14.45,16.0
144.979,-12.285,13.597,14.0
145.263,-12.273,12.801,14.0
146.315,-12.324,12.084,4.0
145.914,-12.256,11.242,13.0
147.796,-12.429,15.565,8.0
145.806,-12.224,14.541,7.0
144.845,-12.105,13.639,15.0
145.583,-12.131,12.883,13.0
146.269,-12.152,12.13,15.0
145.907,-12.085,11.293,11.0
146.953,-12.185,15.527,16.0
146.624,-12.119,14.673,10.0
146.781,-12.095,13.869,5.0
145.385,-11.942,12.913,18.0
146.137,-11.967,12.167,10.0
146.78,-11.984,11.404,13.0
146.768,-11.994,15.553,12.0
145.722,-11.871,14.626,10.0
145.056,-11.778,13.749,12.0
145.345,-11.764,12.951,14.0
146.061,-11.787,12.199,7.0
146.734,-11.803,11.441,13.0
146.407,-11.789,15.553,4.0
148.308,-11.902,14.923,4.0
144.937,-11.593,13.774,7.0
145.961,-11.637,13.04,20.0
145.902,-11.595,12.221,9.0
149.554,-11.846,11.695,3.0
146.275,-11.597,15.572,4.0
145.891,-11.527,14.712,10.0
145.992,-11.495,13.904,12.0
147.512,-11.574,13.209,4.0
145.492,-11.377,12.216,15.0
88.501,-6.898,6.937,16.0
149.127,-11.633,15.903,9.0
145.556,-11.313,14.706,19.0
146.341,-11.336,13.963,12.0
119.054,-9.19,10.68,7.0
145.428,-11.187,12.233,11.0
147.658,-11.319,11.597,6.0
148.464,-11.39,15.855,11.0
145.541,-11.125,14.723,5.0
146.748,-11.179,14.02,4.0
118.981,-9.032,10.688,3.0
119.26,-9.021,10.045,6.0
148.145,-11.167,11.65,11.0
148.827,-11.223,15.909,4.0
148.829,-11.183,15.07,4.0
90.803,-6.799,8.683,3.0
119.154,-8.888,10.713,12.0
146.505,-10.889,12.351,11.0
88.292,-6.539,6.949,6.0
148.756,-11.022,15.909,13.0
146.525,-10.815,14.843,14.0
90.967,-6.69,8.702,13.0
119.307,-8.741,10.731,13.0
119.411,-8.717,10.069,9.0
88.348,-6.426,6.955,13.0
148.506,-10.806,15.884,16.0
91.653,-6.644,9.285,3.0
91.095,-6.577,8.715,14.0
119.464,-8.594,10.744,12.0
119.193,-8.543,10.049,10.0
88.385,-6.311,6.956,17.0
148.049,-10.575,15.831,10.0
90.992,-6.474,9.214,8.0
91.188,-6.463,8.72,12.0
116.916,-8.255,10.508,5.0
119.193,-8.383,10.043,15.0
88.407,-6.194,6.952,14.0
148.843,-10.431,15.905,5.0
91.06,-6.356,9.215,17.0
91.261,-6.345,8.719,7.0
117.348,-8.128,10.536,14.0
119.465,-8.241,10.053,9.0
88.463,-6.079,6.946,9.0
150.802,-10.363,16.096,3.0
91.272,-6.247,9.225,18.0
91.393,-6.229,8.719,17.0
88.148,-5.983,7.902,14.0
119.103,-8.052,10.005,16.0
88.591,-5.965,6.942,15.0
91.006,-6.127,9.699,6.0
91.293,-6.12,9.211,22.0
91.513,-6.11,8.715,18.0
88.267,-5.869,7.897,22.0
118.977,-7.879,9.972,10.0
88.656,-5.847,6.93,16.0
91.066,-6.004,9.687,15.0
91.575,-6.012,9.22,23.0
91.15,-5.959,8.66,26.0
88.327,-5.75,7.883,24.0
118.045,-7.653,9.867,12.0
88.456,-5.711,6.894,21.0
91.072,-5.877,9.665,16.0
92.239,-5.926,9.264,18.0
91.121,-5.828,8.634,15.0
88.439,-5.633,7.868,28.0
90.267,-5.725,7.52,5.0
88.51,-5.59,6.873,12.0
87.09,-5.496,9.217,14.0
88.871,-5.584,8.899,12.0
91.104,-5.7,8.604,15.0
88.531,-5.514,7.849,23.0
90.183,-5.593,7.484,6.0
88.887,-5.489,6.873,20.0
87.217,-5.382,9.201,16.0
88.866,-5.458,8.868,28.0
88.821,-5.43,8.358,6.0
88.693,-5.399,7.832,17.0
93.251,-5.651,7.704,11.0
88.753,-5.354,6.83,21.0
87.395,-5.267,9.186,19.0
88.55,-5.313,8.802,15.0
88.854,-5.306,8.325,11.0
89.666,-5.33,7.882,21.0
93.168,-5.514,7.66,30.0
88.907,-5.238,6.805,20.0
87.641,-5.157,9.175,18.0
87.786,-5.142,8.688,24.0
88.835,-5.178,8.285,25.0
89.981,-5.22,7.87,13.0
88.46,-5.109,7.233,14.0
89.12,-5.123,6.78,24.0
87.523,-5.024,9.122,23.0
87.868,-5.02,8.654,30.0
88.704,-5.044,8.229,18.0
93.068,-5.266,8.094,22.0
88.536,-4.986,7.195,29.0
88.704,-4.973,6.704,13.0
82.529,-4.619,8.558,10.0
88.127,-4.908,8.634,20.0
88.34,-4.896,8.149,18.0
89.056,-4.911,7.697,14.0
88.57,-4.86,7.15,18.0
87.91,-4.802,6.596,11.0
87.727,-4.782,9.048,16.0
87.935,-4.77,8.565,19.0
89.392,-4.825,8.195,13.0
89.052,-4.783,7.645,12.0
88.641,-4.737,7.104,22.0
88.156,-4.689,6.562,9.0
88.191,-4.68,9.043,11.0
84.938,-4.485,8.221,9.0
89.38,-4.696,8.138,13.0
0.0,0.0,0.0,0.0
89.266,-4.643,7.098,17.0
88.334,-4.572,6.52,8.0
0.0,0.0,0.0,0.0
85.027,-4.368,8.174,26.0
89.186,-4.558,8.062,23.0
87.757,-4.462,7.421,18.0
89.367,-4.521,7.046,19.0
88.703,-4.465,6.487,16.0
84.195,-4.227,8.521,11.0
85.274,-4.259,8.139,17.0
88.828,-4.412,7.967,12.0
89.548,-4.424,7.509,11.0
87.954,-4.323,6.871,6.0
89.576,-4.379,6.486,20.0
82.269,-4.011,8.264,7.0
85.402,-4.141,8.087,23.0
87.141,-4.202,7.75,13.0
89.356,-4.286,7.425,13.0
88.253,-4.21,6.828,33.0
89.301,-4.237,6.397,24.0
85.308,-4.035,8.502,11.0
85.494,-4.022,8.027,11.0
87.191,-4.08,7.686,22.0
0.0,0.0,0.0,0.0
88.27,-4.085,6.759,20.0
89.047,-4.099,6.308,27.0
79.32,-3.639,7.84,18.0
85.028,-3.88,7.914,12.0
87.449,-3.967,7.636,28.0
90.79,-4.097,7.396,8.0
88.203,-3.958,6.679,10.0
90.87,-4.056,6.36,9.0
79.126,-3.519,7.753,37.0
84.384,-3.731,7.781,10.0
87.371,-3.841,7.553,6.0
88.277,-3.86,7.114,13.0
89.163,-3.876,6.673,15.0
95.258,-4.117,6.583,14.0
79.014,-3.402,7.67,23.0
82.601,-3.535,7.541,14.0
98.168,-4.177,8.396,11.0
88.194,-3.731,7.026,22.0
88.145,-3.708,6.515,17.0
88.377,-3.697,6.025,13.0
79.152,-3.296,7.609,13.0
79.22,-3.28,7.157,16.0
88.493,-3.642,7.484,20.0
87.738,-3.59,6.906,26.0
87.729,-3.568,6.399,26.0
88.184,-3.566,5.927,28.0
78.888,-3.176,7.505,25.0
82.795,-3.312,7.397,9.0
87.89,-3.495,7.345,11.0
87.878,-3.473,6.827,24.0
88.144,-3.462,6.341,16.0
88.092,-3.44,5.83,15.0
79.188,-3.077,7.451,14.0
82.31,-3.179,7.269,5.0
88.17,-3.384,7.276,13.0
88.227,-3.365,6.762,17.0
87.791,-3.327,6.222,26.0
94.147,-3.547,6.131,11.0
79.104,-2.964,7.358,17.0
79.638,-2.966,6.946,5.0
83.267,-3.081,6.781,14.0
87.999,-3.236,6.649,9.0
87.742,-3.207,6.123,27.0
89.947,-3.266,5.759,12.0
82.118,-2.966,7.547,9.0
79.624,-2.857,6.856,26.0
85.581,-3.051,6.874,13.0
87.948,-3.115,6.546,23.0
87.648,-3.085,6.018,8.0
95.007,-3.322,5.976,6.0
67.247,-2.338,6.103,11.0
83.275,-2.876,7.074,13.0
85.575,-2.937,6.775,11.0
87.829,-2.994,6.436,26.0
87.587,-2.966,5.911,11.0
94.816,-3.19,5.853,30.0
79.583,-2.66,7.128,18.0
79.687,-2.646,6.674,37.0
80.378,-2.651,6.267,5.0
87.602,-2.87,6.314,9.0
96.913,-3.154,6.424,18.0
98.466,-3.183,5.959,18.0
67.383,-2.163,5.952,11.0
80.016,-2.551,6.603,10.0
87.881,-2.782,6.742,6.0
87.807,-2.761,6.219,19.0
95.959,-2.997,6.241,14.0
99.463,-3.086,5.894,12.0
76.55,-2.357,6.665,12.0
80.464,-2.46,6.537,24.0
87.627,-2.661,6.61,6.0
88.308,-2.663,6.142,20.0
96.316,-2.883,6.141,10.0
88.145,-2.621,5.11,22.0
76.594,-2.26,6.568,27.0
81.096,-2.376,6.483,16.0
76.091,-2.213,5.64,12.0
88.144,-2.544,6.013,7.0
96.562,-2.768,6.029,10.0
97.015,-2.76,5.495,15.0
76.66,-2.164,6.47,12.0
80.881,-2.266,6.355,11.0
87.142,-2.424,6.342,14.0
95.573,-2.638,6.39,14.0
96.645,-2.649,5.903,26.0
96.803,-2.633,5.351,8.0
80.747,-2.177,6.703,26.0
87.315,-2.337,6.74,15.0
97.852,-2.599,6.984,9.0
96.647,-2.548,6.328,10.0
96.708,-2.53,5.77,10.0
99.013,-2.571,5.334,8.0
86.386,-2.223,7.049,15.0
76.387,-1.951,5.788,21.0
87.026,-2.205,6.087,12.0
86.498,-2.175,5.54,12.0
96.86,-2.417,5.641,13.0
96.798,-2.397,5.077,31.0
76.347,-1.872,6.119,13.0
76.506,-1.861,5.685,30.0
96.065,-2.319,6.58,16.0
96.523,-2.311,6.041,21.0
96.721,-2.297,5.492,35.0
96.795,-2.281,4.934,37.0
76.539,-1.786,6.02,31.0
89.727,-2.077,6.535,11.0
86.517,-1.985,5.797,21.0
96.652,-2.2,5.905,31.0
96.847,-2.186,5.354,15.0
96.842,-2.168,4.791,36.0
76.683,-1.699,5.915,24.0
75.96,-1.668,5.416,25.0
86.684,-1.888,5.676,24.0
107.113,-2.313,6.378,11.0
99.134,-2.123,5.327,8.0
190.088,-4.036,9.111,15.0
76.913,-1.614,5.812,14.0
75.931,-1.58,5.294,33.0
76.312,-1.574,4.876,9.0
128.464,-2.627,7.447,11.0
190.192,-3.857,9.92,22.0
190.259,-3.824,8.818,6.0
76.294,-1.515,5.642,33.0
87.725,-1.727,5.977,10.0
105.882,-2.065,6.596,9.0
98.931,-1.913,5.576,23.0
190.395,-3.65,9.627,21.0
125.791,-2.389,5.628,6.0
76.368,-1.432,5.524,28.0
76.236,-1.417,5.07,12.0
98.784,-1.82,5.994,7.0
99.153,-1.809,5.428,28.0
191.144,-3.456,9.35,8.0
193.701,-3.471,8.351,13.0
76.287,-1.349,5.392,36.0
76.043,-1.331,4.93,15.0
98.762,-1.713,5.828,13.0
99.207,-1.705,5.266,10.0
0.0,0.0,0.0,0.0
168.55,-2.842,6.987,4.0
75.646,-1.258,5.22,24.0
75.983,-1.251,4.8,18.0
98.694,-1.61,5.659,5.0
193.422,-3.125,9.943,8.0
192.959,-3.087,8.794,6.0
171.643,-2.718,6.825,6.0
75.415,-1.177,5.076,27.0
90.715,-1.401,5.574,27.0
98.738,-1.51,5.49,10.0
193.525,-2.93,9.615,20.0
193.169,-2.896,8.472,21.0
171.866,-2.551,6.539,18.0
75.594,-1.104,4.955,31.0
90.615,-1.31,5.411,15.0
193.445,-2.767,10.42,14.0
193.281,-2.735,9.262,19.0
193.562,-2.71,8.148,19.0
171.436,-2.376,6.219,3.0
75.503,-1.029,4.815,23.0
90.552,-1.221,5.244,19.0
90.629,-1.209,4.72,18.0
192.946,-2.547,8.904,16.0
193.821,-2.531,7.815,6.0
90.828,-1.173,3.133,5.0
90.427,-1.148,5.605,22.0
90.525,-1.136,5.082,40.0
90.621,-1.125,4.558,52.0
90.64,-1.112,4.02,43.0
90.65,-1.1,3.492,40.0
90.654,-1.087,2.964,22.0
90.457,-1.065,5.442,26.0
90.579,-1.055,4.919,38.0
90.604,-1.043,4.392,39.0
90.611,-1.03,3.853,57.0
90.618,-1.019,3.325,49.0
90.34,-1.004,2.788,8.0
90.5,-0.986,5.277,30.0
90.551,-0.975,4.75,34.0
90.605,-0.964,4.225,35.0
90.604,-0.952,3.686,56.0
90.603,-0.94,3.156,41.0
83.296,-0.853,2.415,1.0
90.589,-0.91,5.113,23.0
90.656,-0.899,4.586,23.0
90.635,-0.887,4.055,28.0
90.624,-0.876,3.516,45.0
90.572,-0.864,2.985,31.0
0.0,0.0,0.0,0.0
193.693,-1.787,10.565,18.0
193.289,-1.759,9.412,15.0
194.046,-1.743,8.314,14.0
90.651,-0.803,3.344,24.0
90.447,-0.79,2.807,6.0
0.0,0.0,0.0,0.0
193.583,-1.632,10.187,22.0
193.468,-1.608,9.046,22.0
0.0,0.0,0.0,0.0
90.695,-0.733,3.172,5.0
82.664,-0.659,2.408,4.0
0.0,0.0,0.0,0.0
193.459,-1.485,9.806,18.0
193.733,-1.466,8.686,18.0
0.0,0.0,0.0,0.0
90.584,-0.665,2.993,7.0
81.605,-0.591,2.219,1.0
0.0,0.0,0.0,0.0
193.765,-1.349,9.446,11.0
194.381,-1.333,8.34,22.0
0.0,0.0,0.0,0.0
90.33,-0.6,2.808,5.0
0.0,0.0,0.0,0.0
0.0,0.0,0.0,0.0
193.795,-1.214,9.063,19.0
0.0,0.0,0.0,0.0
108.449,-0.656,3.799,2.0
82.574,-0.492,2.401,1.0
0.0,0.0,0.0,0.0
42.838,-0.247,0.745,0.0
179.047,-1.002,8.011,26.0
175.947,-0.968,6.84,15.0
104.478,-0.564,3.449,8.0
80.659,-0.428,2.182,1.0
0.0,0.0,0.0,0.0
0.0,0.0,0.0,0.0
178.962,-0.889,7.644,28.0
175.865,-0.858,6.484,6.0
83.167,-0.398,2.578,3.0
63.849,-0.3,1.6,0.0
0.0,0.0,0.0,0.0
36.61,-0.165,0.489,0.0
178.987,-0.784,7.284,20.0
108.678,-0.467,3.786,5.0
80.415,-0.338,2.33,4.0
57.511,-0.237,1.324,1.0
0.0,0.0,0.0,0.0
0.0,0.0,0.0,0.0
0.0,0.0,0.0,0.0
104.491,-0.391,3.425,1.0
79.547,-0.291,2.141,2.0
0.0,0.0,0.0,0.0
39.637,-0.139,0.599,0.0
33.17,-0.113,0.307,1.0
108.895,-0.359,3.983,7.0
82.948,-0.267,2.547,7.0
0.0,0.0,0.0,0.0
47.84,-0.147,0.905,0.0
36.614,-0.11,0.478,0.0
31.476,-0.092,0.227,0.0
105.416,-0.297,3.637,5.0
79.218,-0.218,2.269,3.0
0.0,0.0,0.0,0.0
43.38,-0.113,0.73,0.0
34.578,-0.088,0.379,0.0
28.875,-0.071,0.148,3.0
83.306,-0.197,2.7,3.0
78.66,-0.181,2.089,3.0
0.0,0.0,0.0,0.0
0.0,0.0,0.0,0.0
33.165,-0.07,0.295,0.0
28.713,-0.059,0.087,5.0
82.809,-0.162,2.511,5.0
0.0,0.0,0.0,0.0
0.0,0.0,0.0,0.0
36.796,-0.065,0.465,0.0
30.895,-0.053,0.209,0.0
27.436,-0.045,0.025,0.0
78.705,-0.124,2.22,4.0
0.0,0.0,0.0,0.0
41.133,-0.06,0.678,0.0
33.461,-0.047,0.353,0.0
28.829,-0.039,0.135,1.0
26.123,-0.034,-0.03,0.0
78.48,-0.097,2.048,3.0
0.0,0.0,0.0,0.0
0.0,0.0,0.0,0.0
32.999,-0.036,0.277,0.0
28.562,-0.03,0.073,1.0
25.047,-0.025,-0.082,0.0
0.0,0.0,0.0,0.0
0.0,0.0,0.0,0.0
36.122,-0.03,0.442,0.0
30.272,-0.024,0.19,0.0
26.918,-0.02,0.011,0.0
23.726,-0.017,-0.128,1.0
0.0,0.0,0.0,0.0
0.0,0.0,0.0,0.0
33.192,-0.019,0.335,0.0
28.759,-0.016,0.119,0.0
25.76,-0.013,-0.043,0.0
22.773,-0.011,-0.171,0.0
0.0,0.0,0.0,0.0
38.082,-0.015,0.527,0.0
32.961,-0.012,0.263,0.0
27.999,-0.009,0.057,0.0
24.68,-0.007,-0.094,0.0
21.276,-0.006,-0.205,4.0
0.0,0.0,0.0,0.0
35.822,-0.008,0.419,0.0
30.392,-0.006,0.177,0.0
26.608,-0.004,-0.002,0.0
23.559,-0.003,-0.14,1.0
20.387,-0.002,-0.241,0.0
0.0,0.0,0.0,0.0
33.159,-0.002,0.317,0.0
28.668,-0.001,0.106,1.0
25.527,0.0,-0.057,0.0
22.189,0.0,-0.18,0.0
19.019,0.0,-0.265,0.0
0.0,0.0,0.0,0.0
30.827,0.001,0.228,0.0
27.559,0.001,0.042,0.0
23.944,0.001,-0.105,0.0
21.07,0.001,-0.216,3.0
18.249,0.001,-0.294,0.0
34.462,0.003,0.383,0.0
28.773,0.003,0.151,0.0
26.325,0.003,-0.015,0.0
23.388,0.002,-0.153,0.0
19.866,0.002,-0.246,0.0
17.435,0.002,-0.318,0.0
33.006,0.004,0.295,0.0
28.579,0.004,0.088,1.0
25.242,0.003,-0.069,0.0
21.621,0.003,-0.188,1.0
18.65,0.002,-0.271,0.0
16.823,0.002,-0.343,0.0
30.426,0.004,0.207,0.0
27.147,0.003,0.025,0.0
23.813,0.003,-0.116,0.0
20.92,0.002,-0.227,1.0
18.045,0.002,-0.301,0.0
16.363,0.002,-0.369,0.0
28.778,0.003,0.134,0.0
25.916,0.002,-0.031,0.0
22.989,0.002,-0.162,0.0
19.59,0.001,-0.254,0.0
17.263,0.001,-0.325,0.0
15.83,0.001,-0.391,0.0
28.114,0.001,0.07,1.0
24.883,0.0,-0.083,0.0
21.358,0.0,-0.196,2.0
18.457,0.0,-0.279,0.0
16.692,0.0,-0.35,0.0
15.15,0.0,-0.407,0.0
26.696,-0.001,0.01,0.0
23.61,-0.002,-0.129,1.0
20.713,-0.002,-0.234,0.0
17.734,-0.002,-0.306,0.0
16.185,-0.002,-0.374,0.0
14.772,-0.002,-0.428,0.0
25.601,-0.005,-0.045,0.0
22.317,-0.005,-0.17,0.0
19.241,-0.005,-0.259,0.0
17.037,-0.004,-0.331,0.0
15.687,-0.004,-0.396,0.0
14.203,-0.004,-0.442,0.0
24.162,-0.009,-0.094,0.0
21.152,-0.009,-0.206,3.0
18.329,-0.008,-0.286,0.0
16.543,-0.007,-0.356,0.0
15.236,-0.007,-0.418,0.0
13.875,-0.007,-0.462,0.0
23.416,-0.014,-0.141,1.0
19.899,-0.013,-0.236,0.0
17.497,-0.012,-0.31,0.0
16.031,-0.011,-0.379,0.0
14.604,-0.011,-0.431,0.0
13.559,-0.01,-0.48,0.0
21.946,-0.019,-0.178,1.0
18.926,-0.017,-0.264,0.0
16.899,-0.016,-0.335,0.0
15.559,-0.015,-0.401,0.0
14.179,-0.014,-0.449,0.0
13.089,-0.014,-0.491,0.0
20.976,-0.024,-0.215,2.0
18.179,-0.022,-0.292,0.0
16.479,-0.02,-0.361,0.0
14.982,-0.019,-0.418,0.0
13.784,-0.018,-0.465,0.0
12.753,-0.017,-0.505,0.0
19.7,-0.029,-0.242,0.0
17.377,-0.026,-0.315,0.0
15.933,-0.025,-0.382,0.0
14.465,-0.023,-0.433,0.0
13.429,-0.022,-0.481,0.0
12.461,-0.021,-0.519,0.0
18.568,-0.034,-0.267,0.0
16.792,-0.032,-0.339,0.0
15.501,-0.03,-0.404,0.0
14.045,-0.028,-0.45,0.0
13.029,-0.027,-0.493,0.0
12.287,-0.026,-0.537,0.0
18.054,-0.04,-0.296,0.0
16.362,-0.038,-0.364,0.0
14.822,-0.035,-0.417,0.0
13.787,-0.033,-0.47,0.0
12.701,-0.031,-0.507,0.0
11.937,-0.03,-0.547,0.0
17.264,-0.046,-0.319,0.0
15.811,-0.043,-0.385,0.0
14.35,-0.04,-0.433,0.0
13.322,-0.038,-0.481,0.0
12.463,-0.036,-0.523,0.0
11.641,-0.035,-0.557,0.0
16.728,-0.053,-0.343,0.0
15.38,-0.05,-0.406,0.0
14.049,-0.046,-0.453,0.0
13.14,-0.044,-0.501,0.0
12.226,-0.042,-0.538,0.0
11.404,-0.04,-0.569,0.0
16.276,-0.06,-0.367,0.0
14.833,-0.055,-0.421,0.0
13.674,-0.052,-0.468,0.0
12.635,-0.049,-0.508,0.0
11.911,-0.047,-0.548,0.0
11.184,-0.045,-0.58,0.0
15.742,-0.066,-0.387,0.0
14.338,-0.061,-0.436,0.0
13.263,-0.058,-0.481,0.0
12.421,-0.055,-0.524,0.0
11.614,-0.052,-0.558,0.0
10.978,-0.05,-0.592,0.0
15.276,-0.073,-0.406,0.0
13.94,-0.068,-0.452,0.0
12.967,-0.064,-0.496,0.0
12.102,-0.061,-0.535,0.0
11.389,-0.058,-0.57,0.0
10.676,-0.055,-0.597,0.0
14.692,-0.079,-0.419,0.0
13.61,-0.075,-0.468,0.0
12.586,-0.07,-0.506,0.0
11.899,-0.067,-0.549,0.0
11.137,-0.064,-0.579,0.0
10.504,-0.061,-0.608,0.0
14.31,-0.086,-0.436,0.0
13.339,-0.082,-0.484,0.0
12.412,-0.077,-0.523,0.0
