X,Y,Z,Reflectivity
0.0,0.0,0.0,0.0
0.0,0.0,0.0,0.0
0.0,0.0,0.0,0.0
0.0,0.0,0.0,0.0
0.0,0.0,0.0,0.0
7.144,-0.075,-0.744,0.0
0.0,0.0,0.0,0.0
0.0,0.0,0.0,0.0
0.0,0.0,0.0,0.0
0.0,0.0,0.0,0.0
0.0,0.0,0.0,0.0
7.093,-0.083,-0.743,0.0
0.0,0.0,0.0,0.0
0.0,0.0,0.0,0.0
0.0,0.0,0.0,0.0
0.0,0.0,0.0,0.0
0.0,0.0,0.0,0.0
7.084,-0.09,-0.747,0.0
0.0,0.0,0.0,0.0
0.0,0.0,0.0,0.0
0.0,0.0,0.0,0.0
0.0,0.0,0.0,0.0
0.0,0.0,0.0,0.0
7.066,-0.098,-0.749,0.0
0.0,0.0,0.0,0.0
0.0,0.0,0.0,0.0
0.0,0.0,0.0,0.0
0.0,0.0,0.0,0.0
0.0,0.0,0.0,0.0
7.037,-0.106,-0.75,0.0
0.0,0.0,0.0,0.0
0.0,0.0,0.0,0.0
0.0,0.0,0.0,0.0
0.0,0.0,0.0,0.0
0.0,0.0,0.0,0.0
7.0,-0.113,-0.749,0.0
0.0,0.0,0.0,0.0
0.0,0.0,0.0,0.0
0.0,0.0,0.0,0.0
0.0,0.0,0.0,0.0
0.0,0.0,0.0,0.0
6.987,-0.121,-0.751,0.0
0.0,0.0,0.0,0.0
0.0,0.0,0.0,0.0
0.0,0.0,0.0,0.0
0.0,0.0,0.0,0.0
0.0,0.0,0.0,0.0
0.0,0.0,0.0,0.0
0.0,0.0,0.0,0.0
0.0,0.0,0.0,0.0
0.0,0.0,0.0,0.0
0.0,0.0,0.0,0.0
0.0,0.0,0.0,0.0
6.953,-0.136,-0.752,0.0
0.0,0.0,0.0,0.0
0.0,0.0,0.0,0.0
0.0,0.0,0.0,0.0
0.0,0.0,0.0,0.0
0.0,0.0,0.0,0.0
6.934,-0.144,-0.752,0.0
0.0,0.0,0.0,0.0
0.0,0.0,0.0,0.0
0.0,0.0,0.0,0.0
0.0,0.0,0.0,0.0
0.0,0.0,0.0,0.0
0.0,0.0,0.0,0.0
0.0,0.0,0.0,0.0
0.0,0.0,0.0,0.0
0.0,0.0,0.0,0.0
0.0,0.0,0.0,0.0
0.0,0.0,0.0,0.0
0.0,0.0,0.0,0.0
0.0,0.0,0.0,0.0
0.0,0.0,0.0,0.0
0.0,0.0,0.0,0.0
0.0,0.0,0.0,0.0
0.0,0.0,0.0,0.0
0.0,0.0,0.0,0.0
0.0,0.0,0.0,0.0
0.0,0.0,0.0,0.0
0.0,0.0,0.0,0.0
0.0,0.0,0.0,0.0
0.0,0.0,0.0,0.0
0.0,0.0,0.0,0.0
0.0,0.0,0.0,0.0
0.0,0.0,0.0,0.0
0.0,0.0,0.0,0.0
0.0,0.0,0.0,0.0
0.0,0.0,0.0,0.0
0.0,0.0,0.0,0.0
0.0,0.0,0.0,0.0
0.0,0.0,0.0,0.0
0.0,0.0,0.0,0.0
0.0,0.0,0.0,0.0
0.0,0.0,0.0,0.0
0.0,0.0,0.0,0.0
6.657,-0.186,-0.766,0.0
0.0,0.0,0.0,0.0
0.0,0.0,0.0,0.0
0.0,0.0,0.0,0.0
0.0,0.0,0.0,0.0
0.0,0.0,0.0,0.0
6.62,-0.193,-0.761,0.0
0.0,0.0,0.0,0.0
0.0,0.0,0.0,0.0
0.0,0.0,0.0,0.0
0.0,0.0,0.0,0.0
0.0,0.0,0.0,0.0
0.0,0.0,0.0,0.0
0.0,0.0,0.0,0.0
0.0,0.0,0.0,0.0
0.0,0.0,0.0,0.0
0.0,0.0,0.0,0.0
0.0,0.0,0.0,0.0
0.0,0.0,0.0,0.0
0.0,0.0,0.0,0.0
0.0,0.0,0.0,0.0
0.0,0.0,0.0,0.0
0.0,0.0,0.0,0.0
0.0,0.0,0.0,0.0
0.0,0.0,0.0,0.0
0.0,0.0,0.0,0.0
0.0,0.0,0.0,0.0
0.0,0.0,0.0,0.0
0.0,0.0,0.0,0.0
0.0,0.0,0.0,0.0
0.0,0.0,0.0,0.0
0.0,0.0,0.0,0.0
0.0,0.0,0.0,0.0
0.0,0.0,0.0,0.0
0.0,0.0,0.0,0.0
0.0,0.0,0.0,0.0
0.0,0.0,0.0,0.0
0.0,0.0,0.0,0.0
0.0,0.0,0.0,0.0
0.0,0.0,0.0,0.0
0.0,0.0,0.0,0.0
6.998,-0.25,-0.758,0.0
0.0,0.0,0.0,0.0
0.0,0.0,0.0,0.0
0.0,0.0,0.0,0.0
0.0,0.0,0.0,0.0
0.0,0.0,0.0,0.0
6.987,-0.257,-0.754,0.0
6.693,-0.247,-0.76,0.0
0.0,0.0,0.0,0.0
0.0,0.0,0.0,0.0
0.0,0.0,0.0,0.0
0.0,0.0,0.0,0.0
7.036,-0.266,-0.757,0.0
6.769,-0.257,-0.766,0.0
0.0,0.0,0.0,0.0
0.0,0.0,0.0,0.0
0.0,0.0,0.0,0.0
0.0,0.0,0.0,0.0
6.977,-0.271,-0.748,0.0
6.753,-0.264,-0.761,0.0
0.0,0.0,0.0,0.0
0.0,0.0,0.0,0.0
0.0,0.0,0.0,0.0
0.0,0.0,0.0,0.0
6.989,-0.279,-0.746,0.0
6.792,-0.272,-0.763,0.0
0.0,0.0,0.0,0.0
0.0,0.0,0.0,0.0
0.0,0.0,0.0,0.0
0.0,0.0,0.0,0.0
7.023,-0.287,-0.746,0.0
6.826,-0.281,-0.763,0.0
0.0,0.0,0.0,0.0
0.0,0.0,0.0,0.0
0.0,0.0,0.0,0.0
0.0,0.0,0.0,0.0
7.108,-0.298,-0.751,0.0
6.831,-0.288,-0.76,0.0
0.0,0.0,0.0,0.0
0.0,0.0,0.0,0.0
0.0,0.0,0.0,0.0
0.0,0.0,0.0,0.0
7.076,-0.304,-0.744,0.0
6.82,-0.294,-0.754,0.0
0.0,0.0,0.0,0.0
0.0,0.0,0.0,0.0
0.0,0.0,0.0,0.0
0.0,0.0,0.0,0.0
7.146,-0.314,-0.746,0.0
6.9,-0.304,-0.759,0.0
0.0,0.0,0.0,0.0
0.0,0.0,0.0,0.0
0.0,0.0,0.0,0.0
0.0,0.0,0.0,0.0
7.176,-0.322,-0.745,0.0
6.882,-0.31,-0.752,0.0
6.644,-0.3,-0.763,0.0
0.0,0.0,0.0,0.0
0.0,0.0,0.0,0.0
0.0,0.0,0.0,0.0
13.426,-0.685,-0.482,0.0
12.589,-0.641,-0.518,0.0
11.905,-0.604,-0.552,0.0
11.199,-0.567,-0.579,0.0
10.647,-0.537,-0.606,0.0
10.072,-0.507,-0.626,0.0
13.688,-0.687,-0.469,0.0
12.876,-0.644,-0.508,0.0
12.116,-0.604,-0.541,0.0
11.39,-0.566,-0.569,0.0
10.838,-0.537,-0.598,0.0
10.251,-0.507,-0.619,0.0
13.991,-0.689,-0.455,0.0
13.203,-0.648,-0.499,0.0
12.344,-0.604,-0.531,0.0
11.617,-0.567,-0.561,0.0
11.014,-0.536,-0.589,0.0
10.384,-0.504,-0.61,0.0
14.342,-0.693,-0.443,0.0
13.435,-0.647,-0.485,0.0
12.634,-0.606,-0.522,0.0
11.899,-0.569,-0.555,0.0
11.171,-0.533,-0.579,0.0
10.61,-0.504,-0.605,0.0
14.603,-0.691,-0.427,0.0
13.707,-0.647,-0.472,0.0
12.854,-0.604,-0.51,0.0
12.128,-0.568,-0.545,0.0
11.433,-0.534,-0.574,0.0
10.826,-0.504,-0.6,0.0
15.03,-0.696,-0.414,0.0
13.944,-0.644,-0.457,0.0
13.081,-0.602,-0.497,0.0
12.319,-0.564,-0.533,0.0
11.614,-0.53,-0.564,0.0
11.016,-0.501,-0.592,0.0
15.499,-0.702,-0.402,0.0
14.28,-0.644,-0.444,0.0
13.352,-0.6,-0.485,0.0
12.517,-0.56,-0.521,0.0
11.862,-0.528,-0.556,0.0
11.21,-0.497,-0.584,0.0
16.01,-0.707,-0.389,0.0
14.673,-0.645,-0.433,0.0
13.691,-0.6,-0.475,0.0
12.856,-0.561,-0.514,0.0
12.013,-0.522,-0.543,0.0
11.402,-0.493,-0.575,0.0
16.427,-0.707,-0.372,0.0
14.964,-0.641,-0.417,0.0
13.909,-0.593,-0.46,0.0
13.033,-0.553,-0.5,0.0
12.37,-0.523,-0.54,0.0
11.611,-0.488,-0.567,0.0
16.777,-0.703,-0.353,0.0
15.529,-0.647,-0.408,0.0
14.191,-0.589,-0.447,0.0
13.345,-0.551,-0.491,0.0
12.536,-0.515,-0.527,0.0
11.796,-0.482,-0.557,0.0
17.214,-0.7,-0.335,0.0
15.857,-0.642,-0.391,0.0
14.624,-0.589,-0.437,0.0
13.587,-0.544,-0.478,0.0
12.753,-0.508,-0.515,0.0
11.969,-0.474,-0.546,0.0
17.715,-0.699,-0.316,0.0
16.318,-0.64,-0.377,0.0
14.912,-0.582,-0.422,0.0
13.839,-0.537,-0.465,0.0
13.091,-0.505,-0.508,0.0
12.271,-0.471,-0.541,0.0
18.284,-0.698,-0.298,0.0
16.691,-0.633,-0.359,0.0
15.423,-0.581,-0.412,0.0
14.161,-0.531,-0.454,0.0
13.28,-0.495,-0.495,0.0
12.474,-0.462,-0.53,0.0
19.034,-0.701,-0.28,0.0
17.083,-0.625,-0.341,0.0
15.753,-0.573,-0.396,0.0
14.478,-0.523,-0.441,0.0
13.54,-0.486,-0.484,0.0
12.647,-0.451,-0.518,0.0
19.609,-0.696,-0.259,0.0
17.591,-0.62,-0.324,0.0
16.186,-0.567,-0.382,0.0
14.772,-0.514,-0.428,0.0
13.822,-0.477,-0.473,0.0
12.981,-0.445,-0.512,0.0
20.911,-0.713,-0.244,1.0
18.091,-0.612,-0.305,0.0
16.566,-0.557,-0.366,0.0
15.136,-0.505,-0.415,0.0
14.109,-0.467,-0.461,0.0
13.215,-0.434,-0.501,0.0
21.12,-0.69,-0.214,2.0
18.713,-0.607,-0.288,0.0
16.92,-0.544,-0.349,0.0
15.57,-0.497,-0.404,0.0
14.364,-0.455,-0.448,0.0
13.438,-0.422,-0.49,0.0
22.306,-0.697,-0.193,0.0
19.371,-0.6,-0.269,0.0
17.357,-0.533,-0.332,0.0
15.963,-0.486,-0.391,0.0
14.661,-0.443,-0.436,0.0
13.718,-0.411,-0.48,0.0
23.118,-0.688,-0.167,0.0
20.168,-0.594,-0.251,0.0
17.905,-0.523,-0.317,0.0
16.422,-0.475,-0.378,0.0
15.032,-0.431,-0.425,0.0
13.923,-0.396,-0.467,0.0
23.589,-0.666,-0.136,0.0
21.018,-0.587,-0.231,2.0
18.336,-0.508,-0.298,0.0
16.718,-0.458,-0.361,0.0
15.433,-0.419,-0.415,0.0
14.227,-0.382,-0.457,0.0
24.714,-0.659,-0.108,0.0
22.027,-0.582,-0.212,0.0
19.0,-0.496,-0.282,0.0
17.056,-0.441,-0.345,0.0
15.819,-0.405,-0.403,0.0
14.468,-0.366,-0.445,0.0
25.464,-0.639,-0.076,0.0
22.486,-0.558,-0.185,0.0
19.592,-0.481,-0.264,0.0
17.539,-0.426,-0.33,0.0
16.159,-0.388,-0.389,0.0
14.72,-0.349,-0.432,0.0
26.073,-0.613,-0.042,0.0
23.473,-0.545,-0.161,0.0
20.153,-0.463,-0.245,0.0
18.05,-0.409,-0.316,0.0
16.471,-0.369,-0.375,0.0
15.066,-0.333,-0.422,0.0
26.821,-0.587,-0.007,0.0
23.895,-0.516,-0.132,0.0
21.36,-0.455,-0.231,0.0
18.356,-0.386,-0.297,0.0
16.733,-0.347,-0.359,0.0
15.502,-0.317,-0.414,0.0
27.876,-0.564,0.028,0.0
24.728,-0.493,-0.105,0.0
22.047,-0.433,-0.21,0.0
19.109,-0.37,-0.284,0.0
17.106,-0.326,-0.345,0.0
15.821,-0.297,-0.402,0.0
28.59,-0.53,0.066,3.0
25.349,-0.463,-0.075,0.0
22.702,-0.407,-0.187,0.0
19.603,-0.346,-0.266,0.0
17.477,-0.303,-0.33,0.0
16.101,-0.275,-0.389,0.0
28.731,-0.483,0.102,0.0
26.241,-0.433,-0.044,0.0
23.481,-0.381,-0.164,0.0
20.2,-0.322,-0.249,0.0
17.98,-0.281,-0.317,0.0
16.468,-0.252,-0.377,0.0
28.862,-0.435,0.139,0.0
0.0,0.0,0.0,0.0
23.812,-0.345,-0.137,0.0
21.072,-0.299,-0.235,0.0
18.347,-0.255,-0.301,0.0
16.711,-0.227,-0.363,0.0
30.691,-0.408,0.184,0.0
27.492,-0.357,0.02,0.0
24.672,-0.313,-0.112,0.0
21.889,-0.271,-0.218,0.0
18.996,-0.229,-0.289,0.0
16.982,-0.2,-0.349,0.0
32.17,-0.37,0.231,1.0
28.304,-0.317,0.053,1.0
25.297,-0.276,-0.085,0.0
22.448,-0.238,-0.197,0.0
19.334,-0.199,-0.272,0.0
17.36,-0.173,-0.336,0.0
32.552,-0.316,0.272,1.0
28.742,-0.27,0.087,6.0
25.844,-0.234,-0.058,0.0
22.861,-0.2,-0.175,0.0
19.997,-0.169,-0.259,0.0
17.748,-0.144,-0.324,0.0
33.21,-0.261,0.314,0.0
28.811,-0.218,0.119,5.0
26.499,-0.192,-0.03,0.0
23.407,-0.162,-0.153,0.0
20.669,-0.137,-0.245,0.0
18.148,-0.114,-0.312,0.0
34.84,-0.21,0.367,0.0
28.905,-0.165,0.151,1.0
27.177,-0.147,-0.002,0.0
24.112,-0.123,-0.133,0.0
21.524,-0.103,-0.233,1.0
18.46,-0.082,-0.298,0.0
36.077,-0.151,0.418,0.0
31.331,-0.121,0.196,1.0
27.627,-0.098,0.025,1.0
24.646,-0.08,-0.11,0.0
21.852,-0.063,-0.214,0.0
18.936,-0.049,-0.287,0.0
0.0,0.0,0.0,0.0
31.631,-0.062,0.23,0.0
28.644,-0.047,0.055,4.0
25.33,-0.034,-0.088,0.0
22.067,-0.022,-0.194,0.0
19.557,-0.013,-0.276,0.0
0.0,0.0,0.0,0.0
33.109,-0.002,0.273,0.0
28.695,0.007,0.083,1.0
25.831,0.015,-0.064,0.0
23.1,0.02,-0.181,0.0
19.857,0.024,-0.262,0.0
0.0,0.0,0.0,0.0
33.776,0.062,0.31,0.0
28.829,0.062,0.111,1.0
26.26,0.065,-0.041,0.0
23.316,0.065,-0.161,1.0
20.686,0.064,-0.254,0.0
41.674,0.144,0.644,0.0
34.293,0.13,0.346,0.0
30.084,0.124,0.143,0.0
26.77,0.118,-0.018,0.0
23.687,0.112,-0.143,0.0
21.061,0.107,-0.24,1.0
0.0,0.0,0.0,0.0
35.587,0.204,0.391,0.0
0.0,0.0,0.0,0.0
27.255,0.173,0.004,0.0
24.438,0.164,-0.127,0.0
21.515,0.151,-0.227,2.0
44.491,0.328,0.765,0.0
36.367,0.28,0.43,0.0
30.595,0.246,0.197,0.0
27.757,0.232,0.027,0.0
24.821,0.216,-0.108,0.0
21.988,0.198,-0.214,4.0
0.0,0.0,0.0,0.0
0.0,0.0,0.0,0.0
32.101,0.322,0.233,0.0
28.653,0.297,0.051,2.0
25.36,0.271,-0.09,0.0
22.069,0.243,-0.197,1.0
0.0,0.0,0.0,0.0
38.817,0.454,0.52,0.0
32.593,0.392,0.261,0.0
28.77,0.355,0.073,4.0
25.639,0.325,-0.072,0.0
22.758,0.296,-0.186,0.0
0.0,0.0,0.0,0.0
40.466,0.555,0.572,0.0
34.12,0.479,0.299,0.0
28.84,0.415,0.094,5.0
26.089,0.384,-0.054,0.0
23.197,0.349,-0.173,0.0
0.0,0.0,0.0,0.0
0.0,0.0,0.0,0.0
34.18,0.549,0.323,0.0
28.786,0.472,0.114,0.0
26.378,0.441,-0.037,0.0
23.588,0.402,-0.16,0.0
54.63,0.953,1.143,0.0
0.0,0.0,0.0,0.0
34.131,0.617,0.345,0.0
28.886,0.532,0.133,0.0
26.772,0.502,-0.02,0.0
23.742,0.453,-0.146,0.0
54.733,1.066,1.18,0.0
0.0,0.0,0.0,0.0
0.0,0.0,0.0,0.0
31.07,0.635,0.162,0.0
27.025,0.562,-0.004,0.0
24.128,0.509,-0.134,0.0
58.06,1.25,1.286,1.0
47.767,1.044,0.8,0.0
36.635,0.812,0.415,1.0
30.938,0.696,0.179,0.0
27.182,0.62,0.01,0.0
24.399,0.565,-0.122,0.0
54.618,1.287,1.24,0.0
47.469,1.134,0.821,3.0
36.392,0.881,0.432,0.0
31.156,0.764,0.197,0.0
27.459,0.682,0.025,0.0
24.625,0.62,-0.11,0.0
48.988,4.279,0.987,1.0
48.196,4.22,0.7,4.0
0.0,0.0,0.0,0.0
29.119,2.562,0.091,1.0
25.529,2.252,-0.063,1.0
22.466,1.987,-0.182,3.0
48.259,4.292,0.94,2.0
48.043,4.283,0.665,0.0
33.969,3.036,0.278,0.0
28.999,2.598,0.071,1.0
25.02,2.247,-0.079,1.0
22.076,1.987,-0.194,3.0
47.765,4.324,0.897,4.0
0.0,0.0,0.0,0.0
33.927,3.085,0.254,0.0
28.753,2.621,0.05,1.0
24.711,2.257,-0.096,0.0
21.8,1.996,-0.208,4.0
47.456,4.369,0.857,4.0
41.048,3.788,0.509,0.0
32.491,3.005,0.219,0.0
27.671,2.565,0.027,0.0
24.365,2.263,-0.113,0.0
21.54,2.005,-0.222,4.0
47.067,4.406,0.814,6.0
40.385,3.788,0.469,0.0
31.93,3.001,0.191,0.0
27.118,2.554,0.006,0.0
24.007,2.266,-0.13,0.0
21.302,2.015,-0.236,4.0
46.762,4.447,0.771,6.0
0.0,0.0,0.0,0.0
29.356,2.802,0.152,1.0
26.267,2.512,-0.015,1.0
23.461,2.249,-0.146,0.0
20.97,2.014,-0.249,1.0
46.482,4.486,0.729,4.0
36.701,3.549,0.368,0.0
29.297,2.839,0.128,4.0
25.936,2.518,-0.036,1.0
22.628,2.201,-0.16,0.0
20.462,1.995,-0.26,0.0
46.212,4.526,0.686,5.0
35.018,3.436,0.322,1.0
29.282,2.878,0.103,5.0
25.685,2.529,-0.057,1.0
22.191,2.189,-0.175,2.0
19.72,1.949,-0.268,0.0
45.935,4.562,0.642,5.0
34.527,3.435,0.287,0.0
29.08,2.898,0.077,1.0
25.144,2.51,-0.078,0.0
21.942,2.194,-0.193,4.0
19.52,1.956,-0.282,0.0
45.693,4.599,0.599,0.0
33.552,3.382,0.249,0.0
28.613,2.889,0.05,1.0
24.632,2.492,-0.099,0.0
21.644,2.193,-0.209,4.0
18.995,1.928,-0.292,0.0
41.19,4.199,0.502,0.0
32.278,3.296,0.21,0.0
27.748,2.838,0.023,0.0
24.012,2.46,-0.118,0.0
21.36,2.192,-0.226,2.0
18.738,1.926,-0.305,0.0
39.104,4.036,0.44,0.0
31.807,3.288,0.177,0.0
26.559,2.75,-0.002,0.0
23.535,2.44,-0.138,0.0
21.041,2.185,-0.243,0.0
18.348,1.909,-0.316,0.0
0.0,0.0,0.0,0.0
31.511,3.296,0.145,0.0
26.151,2.739,-0.027,1.0
22.894,2.402,-0.156,0.0
20.494,2.153,-0.257,0.0
18.036,1.898,-0.328,0.0
35.245,3.723,0.329,0.0
29.133,3.082,0.106,1.0
25.905,2.744,-0.053,1.0
21.993,2.333,-0.172,0.0
19.923,2.116,-0.269,0.0
17.648,1.878,-0.339,0.0
34.975,3.734,0.292,0.0
29.234,3.126,0.077,1.0
24.687,2.643,-0.075,0.0
21.664,2.322,-0.191,2.0
19.518,2.095,-0.283,0.0
17.394,1.87,-0.352,0.0
33.504,3.614,0.245,0.0
28.927,3.124,0.047,1.0
24.22,2.619,-0.098,1.0
21.457,2.324,-0.212,3.0
18.852,2.044,-0.293,0.0
17.116,1.859,-0.364,0.0
32.106,3.498,0.201,1.0
27.855,3.038,0.016,1.0
24.015,2.623,-0.122,1.0
21.284,2.327,-0.232,1.0
18.582,2.034,-0.309,0.0
16.844,1.847,-0.376,0.0
31.765,3.493,0.166,1.0
26.478,2.915,-0.012,1.0
23.655,2.607,-0.146,0.0
20.572,2.27,-0.246,0.0
18.224,2.014,-0.322,0.0
16.581,1.835,-0.388,0.0
29.396,3.262,0.122,5.0
26.108,2.9,-0.039,1.0
22.67,2.521,-0.164,0.0
20.032,2.23,-0.261,0.0
17.856,1.99,-0.335,0.0
16.183,1.806,-0.396,0.0
29.349,3.284,0.09,4.0
25.749,2.884,-0.067,0.0
21.984,2.465,-0.182,0.0
19.524,2.191,-0.276,0.0
17.451,1.961,-0.346,0.0
16.036,1.804,-0.41,0.0
29.146,3.287,0.058,2.0
24.332,2.747,-0.09,1.0
21.421,2.421,-0.202,0.0
19.08,2.159,-0.29,0.0
17.193,1.947,-0.36,0.0
15.726,1.783,-0.419,0.0
27.692,3.147,0.024,0.0
23.97,2.727,-0.115,1.0
21.084,2.401,-0.222,0.0
18.683,2.129,-0.305,0.0
16.898,1.928,-0.373,0.0
15.483,1.768,-0.43,0.0
26.71,3.057,-0.006,1.0
23.567,2.7,-0.14,1.0
20.601,2.362,-0.24,0.0
18.345,2.105,-0.32,0.0
16.608,1.908,-0.385,0.0
15.273,1.756,-0.441,0.0
26.149,3.013,-0.036,1.0
23.044,2.658,-0.163,0.0
20.027,2.312,-0.256,0.0
17.882,2.066,-0.333,0.0
16.234,1.877,-0.395,0.0
14.996,1.736,-0.451,0.0
25.621,2.971,-0.064,0.0
22.118,2.567,-0.182,0.0
19.761,2.295,-0.276,0.0
17.521,2.036,-0.346,0.0
15.973,1.858,-0.407,0.0
14.746,1.717,-0.46,0.0
24.325,2.837,-0.089,0.0
21.574,2.518,-0.202,0.0
19.202,2.243,-0.29,0.0
17.251,2.016,-0.361,0.0
15.74,1.841,-0.419,0.0
14.564,1.705,-0.472,0.0
23.901,2.803,-0.115,1.0
20.87,2.449,-0.22,0.0
18.637,2.188,-0.303,0.0
16.912,1.987,-0.373,0.0
15.424,1.814,-0.429,0.0
14.334,1.687,-0.481,0.0
23.432,2.762,-0.14,1.0
20.629,2.433,-0.241,0.0
18.27,2.156,-0.318,0.0
16.572,1.957,-0.385,0.0
15.252,1.802,-0.442,0.0
14.033,1.66,-0.487,0.0
22.854,2.706,-0.163,0.0
20.004,2.37,-0.257,0.0
17.805,2.111,-0.331,0.0
16.241,1.926,-0.397,0.0
14.962,1.776,-0.452,0.0
13.824,1.642,-0.496,0.0
22.042,2.621,-0.184,0.0
19.557,2.327,-0.275,0.0
17.465,2.079,-0.346,0.0
15.897,1.893,-0.407,0.0
14.743,1.757,-0.462,0.0
13.556,1.617,-0.503,0.0
21.427,2.557,-0.204,0.0
19.008,2.27,-0.29,0.0
17.173,2.052,-0.36,0.0
15.594,1.864,-0.418,0.0
14.395,1.722,-0.468,0.0
13.389,1.602,-0.513,0.0
20.896,2.502,-0.224,0.0
18.529,2.22,-0.304,0.0
16.851,2.02,-0.373,0.0
15.408,1.848,-0.431,0.0
14.24,1.709,-0.48,0.0
13.2,1.585,-0.521,0.0
20.402,2.451,-0.243,0.0
18.129,2.178,-0.319,0.0
16.511,1.985,-0.385,0.0
15.1,1.816,-0.441,0.0
13.934,1.677,-0.487,0.0
12.967,1.561,-0.527,0.0
19.709,2.374,-0.258,0.0
17.765,2.14,-0.334,0.0
16.181,1.95,-0.397,0.0
14.899,1.796,-0.453,0.0
13.694,1.652,-0.495,0.0
12.802,1.545,-0.536,0.0
19.388,2.34,-0.276,0.0
17.427,2.104,-0.348,0.0
15.822,1.911,-0.407,0.0
14.607,1.765,-0.461,0.0
13.516,1.634,-0.504,0.0
12.617,1.526,-0.543,0.0
18.94,2.29,-0.292,0.0
17.088,2.067,-0.362,0.0
15.62,1.89,-0.42,0.0
14.322,1.733,-0.469,0.0
13.317,1.612,-0.513,0.0
12.484,1.512,-0.552,0.0
18.424,2.231,-0.306,0.0
16.833,2.039,-0.376,0.0
15.405,1.866,-0.433,0.0
14.133,1.713,-0.48,0.0
13.169,1.596,-0.522,0.0
12.361,1.499,-0.562,0.0
18.042,2.187,-0.321,0.0
16.342,1.981,-0.385,0.0
15.053,1.825,-0.441,0.0
13.841,1.679,-0.486,0.0
12.987,1.576,-0.531,0.0
12.211,1.482,-0.569,0.0
17.646,2.141,-0.335,0.0
16.076,1.95,-0.397,0.0
14.862,1.803,-0.452,0.0
13.662,1.658,-0.496,0.0
12.81,1.555,-0.538,0.0
12.006,1.458,-0.574,0.0
17.317,2.101,-0.349,0.0
15.847,1.923,-0.41,0.0
14.613,1.773,-0.462,0.0
13.492,1.638,-0.505,0.0
12.588,1.528,-0.544,0.0
11.793,1.432,-0.577,0.0
16.995,2.062,-0.362,0.0
15.599,1.893,-0.422,0.0
14.36,1.743,-0.471,0.0
13.251,1.608,-0.512,0.0
12.492,1.516,-0.554,0.0
11.656,1.415,-0.584,0.0
16.771,2.034,-0.377,0.0
15.329,1.859,-0.432,0.0
14.098,1.71,-0.478,0.0
13.13,1.592,-0.522,0.0
12.337,1.497,-0.561,0.0
11.525,1.398,-0.591,0.0
16.399,1.987,-0.387,0.0
15.062,1.825,-0.442,0.0
13.862,1.68,-0.486,0.0
12.955,1.57,-0.53,0.0
12.155,1.473,-0.567,0.0
11.407,1.383,-0.598,0.0
16.077,1.946,-0.398,0.0
14.885,1.801,-0.454,0.0
13.698,1.658,-0.496,0.0
12.72,1.539,-0.535,0.0
12.051,1.458,-0.576,0.0
11.254,1.362,-0.603,0.0
15.794,1.909,-0.409,0.0
14.63,1.768,-0.462,0.0
13.441,1.624,-0.502,0.0
12.585,1.52,-0.543,0.0
11.795,1.425,-0.577,0.0
11.085,1.339,-0.606,0.0
15.586,1.88,-0.421,0.0
14.365,1.732,-0.47,0.0
13.296,1.603,-0.511,0.0
12.474,1.504,-0.553,0.0
11.651,1.404,-0.583,0.0
11.027,1.329,-0.615,0.0
15.404,1.854,-0.433,0.0
14.112,1.698,-0.477,0.0
13.115,1.577,-0.519,0.0
12.317,1.481,-0.559,0.0
11.505,1.383,-0.588,0.0
10.906,1.311,-0.62,0.0
15.08,1.81,-0.44,0.0
13.909,1.669,-0.486,0.0
12.896,1.547,-0.524,0.0
12.154,1.458,-0.565,0.0
11.372,1.364,-0.594,0.0
10.782,1.293,-0.625,0.0
14.904,1.783,-0.451,0.0
13.686,1.637,-0.492,0.0
12.773,1.527,-0.533,0.0
11.975,1.431,-0.569,0.0
11.289,1.349,-0.601,0.0
10.628,1.27,-0.627,0.0
14.657,1.747,-0.459,0.0
13.488,1.607,-0.5,0.0
12.658,1.508,-0.541,0.0
11.879,1.415,-0.577,0.0
11.139,1.326,-0.605,0.0
10.576,1.259,-0.635,0.0
14.413,1.712,-0.466,0.0
13.365,1.587,-0.509,0.0
12.508,1.484,-0.548,0.0
11.641,1.381,-0.578,0.0
11.024,1.307,-0.61,0.0
10.448,1.239,-0.639,0.0
14.226,1.682,-0.475,0.0
13.165,1.556,-0.515,0.0
12.403,1.465,-0.556,0.0
11.559,1.365,-0.586,0.0
10.936,1.291,-0.617,0.0
10.342,1.221,-0.643,0.0
13.998,1.648,-0.481,0.0
13.005,1.53,-0.521,0.0
12.181,1.432,-0.558,0.0
11.424,1.343,-0.59,0.0
10.85,1.275,-0.623,0.0
10.229,1.202,-0.646,0.0
13.784,1.615,-0.488,0.0
12.834,1.503,-0.527,0.0
12.083,1.414,-0.565,0.0
11.374,1.33,-0.599,0.0
10.778,1.26,-0.629,0.0
10.149,1.186,-0.651,0.0
13.605,1.585,-0.494,0.0
12.679,1.476,-0.533,0.0
11.86,1.38,-0.566,0.0
11.207,1.304,-0.6,0.0
10.619,1.235,-0.63,0.0
10.072,1.171,-0.655,0.0
13.464,1.56,-0.502,0.0
12.572,1.456,-0.54,0.0
11.739,1.358,-0.572,0.0
11.091,1.283,-0.605,0.0
10.512,1.215,-0.633,0.0
9.944,1.149,-0.656,0.0
13.291,1.53,-0.507,0.0
12.496,1.438,-0.548,0.0
11.703,1.346,-0.581,0.0
10.997,1.264,-0.61,0.0
10.451,1.2,-0.639,0.0
9.817,1.127,-0.657,0.0
13.146,1.504,-0.514,0.0
12.393,1.417,-0.555,0.0
11.564,1.321,-0.584,0.0
10.926,1.247,-0.615,0.0
10.305,1.176,-0.639,0.0
9.764,1.113,-0.662,0.0
13.02,1.479,-0.52,0.0
12.232,1.389,-0.558,0.0
11.463,1.3,-0.589,0.0
10.842,1.229,-0.62,0.0
10.199,1.155,-0.642,0.0
9.648,1.092,-0.662,0.0
12.918,1.457,-0.527,0.0
12.121,1.366,-0.564,0.0
11.377,1.281,-0.594,0.0
10.741,1.208,-0.623,0.0
10.146,1.141,-0.647,0.0
9.597,1.078,-0.667,0.0
12.767,1.429,-0.531,0.0
11.993,1.341,-0.567,0.0
11.242,1.256,-0.596,0.0
10.618,1.185,-0.625,0.0
10.08,1.124,-0.651,0.0
9.512,1.06,-0.668,0.0
12.632,1.402,-0.536,0.0
11.912,1.321,-0.573,0.0
11.168,1.237,-0.601,0.0
10.54,1.167,-0.628,0.0
10.02,1.108,-0.654,0.0
9.428,1.042,-0.67,0.0
12.53,1.379,-0.541,0.0
11.734,1.29,-0.573,0.0
11.073,1.216,-0.604,0.0
10.446,1.146,-0.631,0.0
9.866,1.082,-0.652,0.0
9.354,1.025,-0.672,0.0
12.49,1.363,-0.548,0.0
11.646,1.269,-0.578,0.0
11.001,1.198,-0.608,0.0
10.372,1.128,-0.634,0.0
9.856,1.071,-0.658,0.0
9.327,1.012,-0.676,0.0
12.361,1.336,-0.552,0.0
11.534,1.245,-0.58,0.0
10.922,1.178,-0.611,0.0
10.299,1.11,-0.636,0.0
9.759,1.05,-0.659,0.0
9.28,0.998,-0.679,0.0
12.267,1.313,-0.555,0.0
11.468,1.226,-0.584,0.0
10.816,1.155,-0.613,0.0
10.187,1.087,-0.636,0.0
9.734,1.037,-0.663,0.0
9.232,0.983,-0.682,0.0
12.2,1.293,-0.56,0.0
11.375,1.204,-0.587,0.0
10.771,1.138,-0.617,0.0
10.163,1.073,-0.641,0.0
9.649,1.018,-0.664,0.0
9.208,0.97,-0.686,0.0
12.062,1.265,-0.561,0.0
11.322,1.185,-0.591,0.0
10.725,1.122,-0.621,0.0
10.134,1.058,-0.645,0.0
9.595,1.001,-0.665,0.0
0.0,0.0,0.0,0.0
11.995,1.244,-0.565,0.0
11.258,1.166,-0.594,0.0
10.663,1.103,-0.623,0.0
10.093,1.043,-0.648,0.0
9.56,0.986,-0.668,0.0
0.0,0.0,0.0,0.0
11.903,1.221,-0.567,0.0
11.19,1.146,-0.597,0.0
10.584,1.082,-0.624,0.0
9.954,1.017,-0.645,0.0
9.488,0.968,-0.668,0.0
0.0,0.0,0.0,0.0
11.836,1.2,-0.57,0.0
11.109,1.124,-0.598,0.0
10.572,1.068,-0.629,0.0
9.94,1.003,-0.649,0.0
9.466,0.954,-0.671,0.0
0.0,0.0,0.0,0.0
11.775,1.179,-0.573,0.0
11.084,1.108,-0.602,0.0
10.475,1.046,-0.628,0.0
9.89,0.986,-0.65,0.0
9.38,0.933,-0.67,0.0
8.955,0.89,-0.69,0.0
11.711,1.158,-0.575,0.0
11.018,1.088,-0.603,0.0
10.472,1.032,-0.632,0.0
9.865,0.971,-0.652,0.0
9.336,0.917,-0.67,0.0
0.0,0.0,0.0,0.0
11.585,1.13,-0.573,0.0
10.991,1.071,-0.606,0.0
10.405,1.012,-0.632,0.0
9.805,0.952,-0.652,0.0
9.37,0.908,-0.676,0.0
8.868,0.858,-0.69,0.0
11.572,1.114,-0.577,0.0
10.947,1.052,-0.607,0.0
10.334,0.991,-0.632,0.0
9.801,0.939,-0.655,0.0
9.291,0.888,-0.674,0.0
8.892,0.849,-0.695,0.0
11.545,1.096,-0.579,0.0
10.879,1.031,-0.607,0.0
10.36,0.98,-0.637,0.0
9.757,0.921,-0.656,0.0
9.24,0.871,-0.673,0.0
8.779,0.826,-0.689,0.0
11.497,1.076,-0.58,0.0
10.842,1.013,-0.608,0.0
10.327,0.963,-0.637,0.0
9.759,0.908,-0.658,0.0
9.284,0.862,-0.679,0.0
8.818,0.818,-0.694,0.0
11.502,1.06,-0.584,0.0
10.816,0.995,-0.61,0.0
10.297,0.946,-0.638,0.0
9.737,0.892,-0.659,0.0
9.239,0.845,-0.678,0.0
8.794,0.803,-0.695,0.0
11.453,1.04,-0.584,0.0
10.814,0.98,-0.612,0.0
10.241,0.926,-0.637,0.0
9.714,0.876,-0.66,0.0
9.228,0.831,-0.679,0.0
8.803,0.791,-0.697,0.0
11.402,1.019,-0.583,0.0
10.766,0.96,-0.611,0.0
10.221,0.909,-0.637,0.0
9.637,0.855,-0.656,0.0
9.24,0.819,-0.681,0.0
8.767,0.775,-0.695,0.0
11.427,1.004,-0.586,0.0
10.781,0.945,-0.613,0.0
10.21,0.893,-0.638,0.0
9.648,0.842,-0.658,0.0
9.143,0.796,-0.675,0.0
8.751,0.761,-0.695,0.0
11.376,0.983,-0.584,0.0
10.749,0.927,-0.612,0.0
10.225,0.879,-0.64,0.0
9.638,0.827,-0.658,0.0
9.171,0.785,-0.678,0.0
8.736,0.746,-0.695,0.0
11.389,0.967,-0.586,0.0
10.701,0.906,-0.61,0.0
10.156,0.858,-0.636,0.0
9.652,0.814,-0.659,0.0
9.233,0.776,-0.682,0.0
8.74,0.733,-0.695,0.0
11.389,0.95,-0.586,0.0
10.732,0.893,-0.612,0.0
10.213,0.847,-0.64,0.0
9.594,0.794,-0.655,0.0
9.16,0.756,-0.677,0.0
8.784,0.723,-0.698,0.0
11.397,0.933,-0.586,0.0
10.704,0.874,-0.61,0.0
10.201,0.831,-0.638,0.0
9.624,0.782,-0.657,0.0
9.145,0.741,-0.675,0.0
8.712,0.704,-0.692,0.0
11.392,0.915,-0.585,0.0
10.758,0.861,-0.613,0.0
10.178,0.813,-0.636,0.0
9.651,0.769,-0.658,0.0
9.19,0.73,-0.678,0.0
8.741,0.693,-0.694,0.0
11.343,0.893,-0.582,0.0
10.771,0.846,-0.612,0.0
10.208,0.799,-0.637,0.0
9.641,0.753,-0.656,0.0
9.186,0.716,-0.676,0.0
8.755,0.68,-0.694,0.0
11.39,0.879,-0.582,0.0
10.782,0.83,-0.611,0.0
10.217,0.784,-0.636,0.0
9.632,0.737,-0.654,0.0
9.22,0.704,-0.677,0.0
8.734,0.665,-0.69,0.0
11.405,0.862,-0.581,0.0
10.808,0.815,-0.611,0.0
10.229,0.769,-0.635,0.0
9.651,0.723,-0.653,0.0
9.207,0.688,-0.674,0.0
8.799,0.655,-0.693,0.0
11.428,0.846,-0.58,0.0
10.764,0.794,-0.606,0.0
10.235,0.753,-0.633,0.0
9.734,0.714,-0.657,0.0
9.267,0.677,-0.677,0.0
8.833,0.644,-0.694,0.0
11.494,0.832,-0.58,0.0
10.861,0.784,-0.608,0.0
10.296,0.741,-0.633,0.0
9.737,0.698,-0.654,0.0
9.276,0.663,-0.674,0.0
8.785,0.626,-0.688,0.0
11.553,0.818,-0.579,0.0
10.867,0.767,-0.605,0.0
10.338,0.727,-0.633,0.0
9.74,0.683,-0.651,0.0
9.296,0.65,-0.673,0.0
8.859,0.617,-0.69,0.0
11.59,0.802,-0.577,0.0
10.909,0.752,-0.603,0.0
10.368,0.712,-0.631,0.0
9.769,0.669,-0.649,0.0
9.349,0.638,-0.673,0.0
8.869,0.603,-0.688,0.0
11.581,0.782,-0.572,0.0
11.011,0.741,-0.605,0.0
10.334,0.693,-0.624,0.0
9.75,0.652,-0.644,0.0
9.352,0.623,-0.669,0.0
8.903,0.591,-0.686,0.0
11.662,0.769,-0.571,0.0
10.994,0.722,-0.599,0.0
10.401,0.68,-0.624,0.0
9.913,0.646,-0.65,0.0
9.376,0.609,-0.667,0.0
8.987,0.581,-0.688,0.0
11.755,0.755,-0.57,0.0
11.094,0.71,-0.599,0.0
10.476,0.668,-0.623,0.0
9.876,0.627,-0.643,0.0
9.504,0.601,-0.671,0.0
8.991,0.567,-0.684,0.0
11.782,0.738,-0.565,0.0
11.122,0.693,-0.595,0.0
10.487,0.651,-0.618,0.0
9.931,0.614,-0.641,0.0
9.506,0.586,-0.666,0.0
9.043,0.555,-0.683,0.0
11.853,0.722,-0.562,0.0
11.168,0.678,-0.591,0.0
10.498,0.634,-0.613,0.0
10.019,0.603,-0.641,0.0
9.615,0.576,-0.668,0.0
9.098,0.543,-0.682,0.0
11.92,0.706,-0.558,0.0
11.304,0.667,-0.591,0.0
10.631,0.625,-0.614,0.0
10.09,0.59,-0.639,0.0
9.613,0.56,-0.661,0.0
9.136,0.53,-0.679,0.0
12.035,0.693,-0.555,0.0
11.314,0.649,-0.584,0.0
10.704,0.611,-0.611,0.0
10.107,0.575,-0.633,0.0
9.571,0.542,-0.652,0.0
9.193,0.518,-0.677,0.0
12.152,0.68,-0.553,0.0
11.444,0.637,-0.583,0.0
10.815,0.6,-0.61,0.0
10.203,0.563,-0.632,0.0
9.757,0.536,-0.658,0.0
9.25,0.506,-0.674,0.0
12.256,0.665,-0.548,0.0
11.508,0.622,-0.577,0.0
0.0,0.0,0.0,0.0
10.291,0.551,-0.629,0.0
9.752,0.52,-0.65,0.0
9.298,0.493,-0.67,0.0
12.35,0.65,-0.543,0.0
11.562,0.606,-0.571,0.0
0.0,0.0,0.0,0.0
10.353,0.537,-0.625,0.0
9.879,0.51,-0.65,0.0
9.392,0.483,-0.669,0.0
12.455,0.635,-0.538,0.0
11.737,0.595,-0.57,0.0
11.077,0.559,-0.598,0.0
10.453,0.525,-0.622,0.0
9.826,0.491,-0.638,0.0
9.381,0.466,-0.661,0.0
12.571,0.62,-0.532,0.0
11.816,0.58,-0.564,0.0
11.174,0.546,-0.594,0.0
10.546,0.512,-0.619,0.0
9.94,0.48,-0.637,0.0
9.531,0.458,-0.663,0.0
12.681,0.605,-0.525,0.0
11.964,0.568,-0.56,0.0
11.226,0.53,-0.586,0.0
10.647,0.5,-0.615,0.0
10.093,0.471,-0.638,0.0
9.598,0.446,-0.658,0.0
12.772,0.588,-0.517,0.0
12.047,0.552,-0.553,0.0
11.34,0.516,-0.582,0.0
10.706,0.485,-0.608,0.0
10.199,0.459,-0.634,0.0
9.734,0.436,-0.658,0.0
12.98,0.577,-0.513,0.0
12.211,0.54,-0.548,0.0
11.474,0.504,-0.577,0.0
10.782,0.471,-0.602,0.0
10.285,0.447,-0.629,0.0
9.723,0.42,-0.648,0.0
13.103,0.561,-0.505,0.0
12.382,0.527,-0.543,0.0
11.577,0.49,-0.57,0.0
10.866,0.457,-0.595,0.0
10.388,0.434,-0.625,0.0
9.776,0.406,-0.641,0.0
13.319,0.549,-0.499,0.0
12.483,0.512,-0.535,0.0
11.774,0.479,-0.568,0.0
11.066,0.448,-0.594,0.0
10.525,0.423,-0.622,0.0
9.975,0.399,-0.643,0.0
13.449,0.533,-0.489,0.0
12.662,0.499,-0.528,0.0
11.867,0.464,-0.559,0.0
11.18,0.435,-0.588,0.0
10.584,0.409,-0.613,0.0
10.078,0.387,-0.638,0.0
13.692,0.521,-0.483,0.0
12.793,0.484,-0.519,0.0
12.053,0.453,-0.554,0.0
11.349,0.423,-0.584,0.0
10.729,0.398,-0.609,0.0
10.184,0.375,-0.633,0.0
13.864,0.506,-0.473,0.0
12.99,0.471,-0.512,0.0
12.17,0.438,-0.545,0.0
11.492,0.411,-0.578,0.0
10.889,0.387,-0.605,0.0
10.313,0.364,-0.629,0.0
14.035,0.491,-0.462,0.0
13.198,0.458,-0.505,0.0
12.402,0.427,-0.541,0.0
11.608,0.397,-0.569,0.0
11.02,0.374,-0.599,0.0
10.443,0.352,-0.624,0.0
14.311,0.478,-0.453,0.0
13.349,0.442,-0.494,0.0
12.56,0.413,-0.532,0.0
11.833,0.386,-0.565,0.0
11.159,0.362,-0.593,0.0
10.591,0.341,-0.619,0.0
14.548,0.464,-0.442,0.0
13.541,0.428,-0.484,0.0
12.765,0.4,-0.524,0.0
11.892,0.37,-0.552,0.0
11.303,0.349,-0.585,0.0
10.672,0.327,-0.609,0.0
14.861,0.451,-0.432,0.0
13.797,0.415,-0.474,0.0
12.912,0.385,-0.512,0.0
12.193,0.361,-0.55,0.0
11.499,0.338,-0.58,0.0
10.87,0.316,-0.606,0.0
15.212,0.439,-0.422,0.0
14.079,0.403,-0.465,0.0
13.162,0.373,-0.505,0.0
12.387,0.348,-0.542,0.0
11.656,0.325,-0.572,0.0
11.016,0.304,-0.599,0.0
15.48,0.424,-0.408,0.0
14.277,0.387,-0.452,0.0
13.401,0.36,-0.495,0.0
12.546,0.334,-0.531,0.0
11.792,0.311,-0.562,0.0
11.187,0.293,-0.592,0.0
15.741,0.408,-0.392,0.0
14.63,0.375,-0.442,0.0
13.564,0.345,-0.482,0.0
12.803,0.323,-0.524,0.0
11.97,0.299,-0.553,0.0
11.328,0.28,-0.583,0.0
16.185,0.396,-0.38,0.0
14.87,0.36,-0.428,0.0
13.885,0.333,-0.473,0.0
12.958,0.308,-0.511,0.0
12.238,0.288,-0.547,0.0
11.525,0.268,-0.577,0.0
16.534,0.381,-0.364,0.0
15.175,0.346,-0.414,0.0
14.149,0.32,-0.461,0.0
13.225,0.296,-0.502,0.0
12.465,0.276,-0.539,0.0
11.722,0.257,-0.568,0.0
16.842,0.365,-0.345,0.0
15.614,0.335,-0.402,0.0
14.425,0.306,-0.448,0.0
13.532,0.284,-0.493,0.0
12.646,0.262,-0.527,0.0
11.95,0.245,-0.561,0.0
17.304,0.351,-0.328,0.0
15.987,0.321,-0.387,0.0
14.725,0.292,-0.434,0.0
13.709,0.269,-0.478,0.0
12.884,0.25,-0.517,0.0
12.155,0.233,-0.552,0.0
17.914,0.34,-0.312,0.0
16.395,0.307,-0.371,0.0
15.065,0.279,-0.42,0.0
14.039,0.257,-0.467,0.0
13.111,0.237,-0.505,0.0
12.432,0.222,-0.544,0.0
18.407,0.325,-0.291,0.0
16.765,0.292,-0.353,0.0
15.462,0.266,-0.406,0.0
14.315,0.243,-0.453,0.0
13.377,0.224,-0.493,0.0
12.588,0.208,-0.53,0.0
18.853,0.308,-0.267,0.0
17.167,0.276,-0.333,0.0
15.972,0.254,-0.393,0.0
14.64,0.229,-0.439,0.0
13.667,0.211,-0.482,0.0
12.839,0.196,-0.52,0.0
20.085,0.302,-0.251,0.0
17.751,0.263,-0.315,0.0
16.394,0.24,-0.376,0.0
15.009,0.216,-0.425,0.0
14.01,0.199,-0.47,0.0
13.064,0.183,-0.507,0.0
21.262,0.293,-0.23,0.0
18.395,0.25,-0.295,0.0
16.721,0.224,-0.355,0.0
15.488,0.204,-0.412,0.0
14.33,0.186,-0.456,0.0
13.353,0.17,-0.495,0.0
21.913,0.276,-0.199,2.0
19.072,0.236,-0.273,0.0
17.156,0.209,-0.335,0.0
15.865,0.19,-0.395,0.0
14.653,0.172,-0.441,0.0
13.662,0.158,-0.483,0.0
22.955,0.262,-0.169,0.0
20.078,0.225,-0.253,0.0
17.738,0.195,-0.316,0.0
16.325,0.176,-0.377,0.0
14.954,0.159,-0.424,0.0
13.952,0.145,-0.468,0.0
23.76,0.243,-0.133,0.0
21.135,0.212,-0.229,1.0
18.423,0.181,-0.295,0.0
16.727,0.161,-0.357,0.0
15.503,0.146,-0.412,0.0
14.26,0.132,-0.453,0.0
24.788,0.225,-0.095,0.0
22.14,0.197,-0.2,3.0
19.043,0.166,-0.271,0.0
17.229,0.147,-0.337,0.0
15.94,0.133,-0.395,0.0
14.652,0.119,-0.439,0.0
25.924,0.207,-0.052,0.0
22.694,0.177,-0.164,0.0
20.258,0.154,-0.252,0.0
17.835,0.133,-0.316,0.0
16.404,0.119,-0.376,0.0
14.959,0.106,-0.421,0.0
26.749,0.185,-0.005,0.0
23.876,0.161,-0.129,0.0
21.138,0.139,-0.224,1.0
18.547,0.118,-0.294,0.0
16.827,0.104,-0.355,0.0
15.603,0.094,-0.41,0.0
27.926,0.164,0.045,0.0
25.083,0.143,-0.089,0.0
22.197,0.122,-0.194,2.0
19.439,0.104,-0.272,0.0
17.262,0.089,-0.332,0.0
16.046,0.08,-0.392,0.0
28.744,0.14,0.1,1.0
26.1,0.122,-0.044,0.0
23.155,0.105,-0.159,1.0
20.561,0.089,-0.249,0.0
18.055,0.075,-0.313,0.0
16.532,0.066,-0.372,0.0
30.106,0.117,0.162,0.0
27.121,0.1,0.006,0.0
24.342,0.086,-0.12,0.0
21.379,0.072,-0.218,4.0
18.711,0.06,-0.288,0.0
16.986,0.052,-0.35,0.0
31.584,0.092,0.231,0.0
28.619,0.079,0.061,3.0
25.4,0.066,-0.077,0.0
22.324,0.055,-0.185,0.0
19.694,0.045,-0.265,0.0
17.507,0.037,-0.327,0.0
33.367,0.067,0.308,0.0
28.81,0.053,0.117,0.0
26.433,0.045,-0.028,0.0
23.627,0.036,-0.15,1.0
20.971,0.029,-0.242,2.0
18.285,0.023,-0.305,0.0
35.619,0.04,0.399,0.0
30.579,0.029,0.184,0.0
27.664,0.023,0.023,0.0
24.724,0.017,-0.109,0.0
21.56,0.011,-0.206,1.0
19.086,0.007,-0.281,0.0
37.716,0.01,0.497,0.0
33.097,0.004,0.264,0.0
28.649,0.0,0.081,1.0
25.771,-0.003,-0.062,0.0
23.102,-0.006,-0.175,0.0
20.161,-0.008,-0.257,0.0
40.295,-0.021,0.61,0.0
33.399,-0.022,0.333,0.0
29.896,-0.024,0.144,1.0
26.751,-0.025,-0.011,0.0
23.923,-0.025,-0.134,0.0
21.212,-0.025,-0.228,1.0
43.467,-0.058,0.746,0.0
0.0,0.0,0.0,0.0
31.345,-0.05,0.215,0.0
28.51,-0.048,0.045,1.0
25.282,-0.046,-0.09,0.0
22.148,-0.043,-0.193,0.0
47.717,-0.1,0.916,0.0
0.0,0.0,0.0,0.0
33.203,-0.077,0.294,1.0
28.802,-0.07,0.104,7.0
26.245,-0.067,-0.04,0.0
23.569,-0.063,-0.157,0.0
57.653,-0.162,1.223,0.0
0.0,0.0,0.0,0.0
0.0,0.0,0.0,0.0
30.725,-0.096,0.173,0.0
27.469,-0.089,0.013,0.0
24.731,-0.083,-0.115,0.0
57.595,-0.201,1.339,0.0
0.0,0.0,0.0,0.0
37.802,-0.14,0.489,0.0
32.18,-0.122,0.247,1.0
28.726,-0.112,0.072,6.0
25.676,-0.102,-0.067,0.0
0.0,0.0,0.0,0.0
0.0,0.0,0.0,0.0
0.0,0.0,0.0,0.0
33.236,-0.147,0.323,0.0
28.87,-0.13,0.132,3.0
26.818,-0.123,-0.014,0.0
80.607,-0.382,2.206,1.0
0.0,0.0,0.0,0.0
0.0,0.0,0.0,0.0
0.0,0.0,0.0,0.0
31.477,-0.16,0.209,1.0
28.577,-0.148,0.042,2.0
82.85,-0.44,2.438,5.0
0.0,0.0,0.0,0.0
0.0,0.0,0.0,0.0
0.0,0.0,0.0,0.0
32.87,-0.185,0.286,1.0
28.798,-0.165,0.103,8.0
90.399,-0.529,2.849,6.0
0.0,0.0,0.0,0.0
0.0,0.0,0.0,0.0
0.0,0.0,0.0,0.0
0.0,0.0,0.0,0.0
31.093,-0.193,0.176,1.0
104.731,-0.664,3.519,7.0
82.497,-0.529,2.346,3.0
0.0,0.0,0.0,0.0
0.0,0.0,0.0,0.0
0.0,0.0,0.0,0.0
32.171,-0.215,0.249,1.0
0.0,0.0,0.0,0.0
90.445,-0.621,2.76,5.0
0.0,0.0,0.0,0.0
0.0,0.0,0.0,0.0
0.0,0.0,0.0,0.0
33.871,-0.24,0.332,0.0
0.0,0.0,0.0,0.0
90.626,-0.659,2.954,13.0
82.167,-0.602,2.255,1.0
0.0,0.0,0.0,0.0
0.0,0.0,0.0,0.0
36.284,-0.271,0.431,0.0
128.199,-0.974,5.106,18.0
90.697,-0.693,3.144,13.0
83.036,-0.639,2.451,4.0
0.0,0.0,0.0,0.0
47.056,-0.366,0.899,0.0
38.703,-0.303,0.54,0.0
128.252,-1.018,5.374,29.0
90.715,-0.724,3.333,15.0
90.523,-0.726,2.86,15.0
0.0,0.0,0.0,0.0
55.687,-0.451,1.18,0.0
0.0,0.0,0.0,0.0
193.979,-1.601,8.534,15.0
90.677,-0.751,3.521,14.0
90.618,-0.753,3.051,26.0
82.862,-0.691,2.353,3.0
0.0,0.0,0.0,0.0
0.0,0.0,0.0,0.0
193.615,-1.649,8.921,18.0
90.694,-0.774,3.71,17.0
90.614,-0.776,3.24,36.0
90.362,-0.776,2.756,8.0
0.0,0.0,0.0,0.0
0.0,0.0,0.0,0.0
90.705,-0.793,4.368,9.0
90.688,-0.794,3.897,16.0
90.647,-0.796,3.428,35.0
90.552,-0.796,2.948,33.0
82.979,-0.731,2.274,1.0
0.0,0.0,0.0,0.0
90.66,-0.81,4.554,11.0
90.672,-0.811,4.085,17.0
90.651,-0.812,3.615,34.0
90.607,-0.812,3.138,42.0
83.325,-0.747,2.455,1.0
0.0,0.0,0.0,0.0
90.655,-0.824,4.74,16.0
90.673,-0.824,4.273,29.0
90.643,-0.824,3.803,33.0
90.614,-0.824,3.325,49.0
90.51,-0.823,2.854,21.0
0.0,0.0,0.0,0.0
90.6,-0.834,4.925,19.0
90.631,-0.834,4.458,22.0
90.649,-0.833,3.99,32.0
90.61,-0.832,3.511,46.0
90.597,-0.832,3.043,36.0
83.178,-0.763,2.365,2.0
90.588,-0.84,5.111,16.0
90.616,-0.84,4.644,23.0
90.663,-0.839,4.178,33.0
90.64,-0.838,3.7,41.0
90.61,-0.836,3.231,48.0
90.386,-0.833,2.756,10.0
90.576,-0.844,5.297,15.0
90.582,-0.842,4.828,20.0
90.655,-0.841,4.363,39.0
90.61,-0.839,3.884,38.0
90.643,-0.837,3.416,51.0
90.584,-0.835,2.947,28.0
90.521,-0.844,5.479,19.0
90.63,-0.842,5.016,19.0
90.658,-0.84,4.548,21.0
90.641,-0.838,4.069,34.0
90.631,-0.835,3.599,40.0
90.598,-0.832,3.13,38.0
90.476,-0.84,5.661,28.0
90.583,-0.838,5.198,15.0
90.607,-0.835,4.73,18.0
90.653,-0.832,4.253,36.0
90.632,-0.829,3.784,32.0
90.621,-0.826,3.316,45.0
90.541,-0.834,5.849,18.0
90.63,-0.831,5.385,15.0
90.596,-0.827,4.913,15.0
90.684,-0.824,4.437,20.0
90.673,-0.82,3.968,25.0
90.64,-0.816,3.498,34.0
75.219,-0.684,5.011,9.0
90.506,-0.819,5.559,21.0
90.649,-0.816,5.098,10.0
90.633,-0.811,4.617,11.0
90.717,-0.808,4.151,11.0
90.667,-0.803,3.68,27.0
88.015,-0.788,6.039,20.0
90.515,-0.805,5.74,20.0
90.713,-0.802,5.282,6.0
90.604,-0.796,4.796,5.0
90.676,-0.791,4.331,5.0
90.701,-0.786,3.861,10.0
75.463,-0.661,5.329,9.0
90.542,-0.788,5.924,26.0
105.884,-0.915,6.374,16.0
193.695,-1.662,10.637,7.0
193.039,-1.644,9.6,23.0
193.807,-1.638,8.634,12.0
75.867,-0.648,5.509,10.0
90.584,-0.767,6.105,31.0
90.572,-0.761,5.633,10.0
179.258,-1.495,10.2,16.0
0.0,0.0,0.0,0.0
193.512,-1.586,8.999,21.0
76.086,-0.63,5.675,11.0
75.931,-0.623,5.266,8.0
90.566,-0.736,5.809,11.0
127.235,-1.025,7.486,14.0
193.734,-1.546,10.392,16.0
193.515,-1.529,9.376,22.0
76.221,-0.608,5.833,26.0
75.903,-0.6,5.413,21.0
90.556,-0.708,5.986,9.0
105.936,-0.82,6.439,9.0
179.59,-1.374,9.981,13.0
193.284,-1.463,9.737,23.0
62.645,-0.479,4.915,12.0
76.028,-0.575,5.568,12.0
75.877,-0.567,5.16,19.0
105.647,-0.781,6.622,11.0
127.457,-0.93,7.326,11.0
193.783,-1.396,10.129,23.0
62.649,-0.456,5.035,24.0
76.158,-0.548,5.721,24.0
75.957,-0.539,5.308,26.0
96.346,-0.675,6.219,13.0
127.452,-0.881,7.563,3.0
193.715,-1.319,10.485,15.0
62.643,-0.431,5.152,13.0
76.357,-0.518,5.879,12.0
75.956,-0.507,5.45,17.0
96.187,-0.633,6.39,12.0
98.958,-0.641,6.056,10.0
179.187,-1.143,10.03,19.0
0.0,0.0,0.0,0.0
0.0,0.0,0.0,0.0
32.244,0.447,0.272,0.0
28.635,0.387,0.076,1.0
25.211,0.333,-0.074,0.0
21.92,0.283,-0.188,1.0
0.0,0.0,0.0,0.0
0.0,0.0,0.0,0.0
0.0,0.0,0.0,0.0
27.564,0.32,0.049,0.0
24.766,0.28,-0.095,0.0
21.82,0.239,-0.207,3.0
0.0,0.0,0.0,0.0
36.011,0.371,0.443,0.0
30.446,0.303,0.202,0.0
27.189,0.263,0.025,0.0
24.056,0.224,-0.113,0.0
21.164,0.19,-0.219,1.0
0.0,0.0,0.0,0.0
34.764,0.289,0.397,0.0
28.93,0.231,0.168,1.0
26.696,0.205,0.002,0.0
23.659,0.173,-0.131,0.0
20.719,0.145,-0.231,0.0
0.0,0.0,0.0,0.0
34.809,0.221,0.37,0.0
28.862,0.174,0.144,0.0
26.333,0.149,-0.018,0.0
23.135,0.124,-0.146,0.0
20.154,0.101,-0.241,0.0
0.0,0.0,0.0,0.0
33.377,0.145,0.329,0.0
28.768,0.116,0.122,1.0
25.974,0.095,-0.038,0.0
23.065,0.077,-0.163,1.0
19.866,0.06,-0.252,0.0
0.0,0.0,0.0,0.0
0.0,0.0,0.0,0.0
28.693,0.057,0.1,2.0
25.561,0.042,-0.056,0.0
22.244,0.029,-0.174,0.0
19.46,0.019,-0.261,0.0
37.643,0.025,0.528,0.0
32.863,0.01,0.276,0.0
28.469,0.0,0.079,1.0
25.137,-0.008,-0.073,0.0
21.906,-0.015,-0.186,1.0
19.147,-0.019,-0.27,0.0
37.097,-0.05,0.495,0.0
31.532,-0.053,0.244,0.0
28.325,-0.057,0.06,1.0
24.961,-0.059,-0.089,0.0
21.698,-0.059,-0.199,0.0
18.731,-0.057,-0.276,0.0
36.173,-0.123,0.459,0.0
31.247,-0.118,0.222,0.0
27.728,-0.113,0.041,0.0
24.281,-0.108,-0.101,0.0
21.675,-0.104,-0.212,2.0
18.49,-0.095,-0.284,0.0
36.301,-0.198,0.439,0.0
31.152,-0.181,0.202,0.0
27.222,-0.167,0.024,0.0
24.208,-0.157,-0.115,0.0
21.066,-0.144,-0.218,0.0
18.337,-0.132,-0.292,0.0
34.909,-0.263,0.402,0.0
28.888,-0.228,0.171,1.0
26.964,-0.222,0.009,0.0
23.932,-0.205,-0.127,0.0
20.704,-0.185,-0.226,0.0
18.151,-0.169,-0.299,0.0
33.971,-0.327,0.373,0.0
28.849,-0.287,0.156,0.0
26.54,-0.274,-0.004,0.0
23.704,-0.253,-0.138,0.0
20.398,-0.225,-0.233,0.0
17.94,-0.204,-0.305,0.0
33.677,-0.394,0.353,1.0
28.819,-0.348,0.141,0.0
26.363,-0.327,-0.017,0.0
23.224,-0.296,-0.147,2.0
20.142,-0.264,-0.24,0.0
17.679,-0.238,-0.309,0.0
33.612,-0.464,0.337,1.0
28.754,-0.406,0.128,1.0
25.944,-0.376,-0.028,0.0
23.261,-0.346,-0.157,1.0
19.806,-0.301,-0.244,0.0
17.601,-0.274,-0.315,0.0
33.542,-0.533,0.323,1.0
28.649,-0.465,0.116,0.0
26.174,-0.435,-0.039,0.0
22.884,-0.388,-0.164,0.0
19.653,-0.34,-0.25,0.0
17.406,-0.308,-0.318,0.0
113.54,-6.812,9.882,9.0
88.569,-5.287,7.202,7.0
88.752,-5.272,6.711,32.0
91.697,-5.42,6.401,4.0
89.308,-5.254,5.726,14.0
92.098,-5.392,5.382,5.0
88.918,-5.195,7.684,13.0
88.786,-5.162,7.164,17.0
88.648,-5.128,6.647,14.0
88.211,-5.077,6.102,14.0
89.33,-5.116,5.671,11.0
122.598,-6.987,7.085,11.0
88.977,-5.06,7.631,25.0
88.565,-5.01,7.088,26.0
94.119,-5.297,6.995,5.0
88.196,-4.938,6.042,7.0
92.157,-5.133,5.787,16.0
119.548,-6.625,6.827,8.0
88.927,-4.917,7.564,24.0
88.775,-4.883,7.042,22.0
93.936,-5.14,6.914,17.0
88.164,-4.798,5.976,26.0
92.236,-4.994,5.725,14.0
119.292,-6.425,6.724,18.0
0.0,0.0,0.0,0.0
93.426,-4.994,7.341,11.0
88.122,-4.684,6.419,19.0
88.056,-4.655,5.902,20.0
112.084,-5.895,6.872,10.0
112.064,-5.862,6.23,6.0
88.509,-4.617,7.392,13.0
89.036,-4.619,6.926,22.0
88.351,-4.558,6.365,13.0
88.235,-4.526,5.842,29.0
111.743,-5.702,6.761,14.0
122.572,-6.22,6.715,8.0
89.674,-4.538,7.415,14.0
88.438,-4.45,6.804,20.0
89.123,-4.459,6.346,24.0
88.177,-4.388,5.764,18.0
112.338,-5.558,6.7,14.0
112.483,-5.534,6.066,8.0
89.298,-4.381,7.307,20.0
91.309,-4.453,6.947,5.0
89.111,-4.321,6.267,25.0
91.473,-4.411,5.899,13.0
91.122,-4.369,5.355,11.0
112.382,-5.358,5.961,15.0
89.275,-4.242,7.224,14.0
88.156,-4.164,6.626,21.0
89.065,-4.182,6.182,30.0
90.59,-4.228,5.758,22.0
98.601,-4.576,5.703,16.0
111.669,-5.152,5.819,18.0
89.022,-4.091,7.118,19.0
88.693,-4.052,6.581,12.0
90.94,-4.129,6.224,9.0
97.87,-4.417,6.126,17.0
98.854,-4.435,5.62,16.0
122.858,-5.479,6.28,8.0
88.26,-3.921,6.969,16.0
89.301,-3.942,6.537,13.0
98.0,-4.299,6.608,13.0
98.205,-4.281,6.047,17.0
98.869,-4.284,5.521,6.0
120.214,-5.178,6.023,20.0
88.175,-3.782,6.871,18.0
88.587,-3.776,6.392,18.0
88.341,-3.742,5.865,21.0
94.903,-3.994,5.745,13.0
90.007,-3.765,4.931,8.0
113.449,-4.716,5.564,12.0
88.052,-3.643,6.766,29.0
87.95,-3.616,6.251,14.0
89.331,-3.649,5.835,14.0
89.833,-3.647,5.341,28.0
90.175,-3.637,4.843,16.0
194.795,-7.806,9.341,12.0
87.69,-3.497,6.641,23.0
88.249,-3.496,6.173,30.0
89.83,-3.535,5.766,16.0
99.378,-3.885,5.796,20.0
113.365,-4.402,5.958,17.0
113.428,-4.376,5.311,22.0
88.063,-3.38,6.568,21.0
88.006,-3.356,6.055,14.0
89.989,-3.408,5.672,14.0
99.4,-3.739,5.682,17.0
113.338,-4.235,5.825,26.0
113.453,-4.21,5.178,19.0
87.986,-3.247,6.456,14.0
90.191,-3.304,6.097,4.0
97.918,-3.562,6.053,24.0
113.329,-4.095,6.34,9.0
190.272,-6.827,9.546,14.0
93.475,-3.33,4.152,4.0
8.724,-0.703,-0.676,0.0
8.317,-0.671,-0.689,0.0
8.006,-0.646,-0.706,0.0
0.0,0.0,0.0,0.0
0.0,0.0,0.0,0.0
7.135,-0.579,-0.745,0.0
8.769,-0.709,-0.669,0.0
8.41,-0.681,-0.687,0.0
8.071,-0.655,-0.702,0.0
0.0,0.0,0.0,0.0
0.0,0.0,0.0,0.0
7.206,-0.587,-0.744,0.0
8.809,-0.716,-0.661,0.0
8.457,-0.688,-0.68,0.0
8.181,-0.666,-0.702,0.0
0.0,0.0,0.0,0.0
0.0,0.0,0.0,0.0
7.265,-0.594,-0.741,0.0
0.0,0.0,0.0,0.0
8.551,-0.698,-0.677,0.0
8.248,-0.674,-0.697,0.0
0.0,0.0,0.0,0.0
0.0,0.0,0.0,0.0
7.337,-0.602,-0.739,0.0
0.0,0.0,0.0,0.0
8.691,-0.712,-0.677,0.0
8.348,-0.684,-0.695,0.0
0.0,0.0,0.0,0.0
0.0,0.0,0.0,0.0
0.0,0.0,0.0,0.0
9.176,-0.753,-0.654,0.0
8.789,-0.722,-0.673,0.0
8.385,-0.689,-0.687,0.0
0.0,0.0,0.0,0.0
0.0,0.0,0.0,0.0
0.0,0.0,0.0,0.0
9.253,-0.761,-0.647,0.0
8.794,-0.723,-0.662,0.0
8.483,-0.698,-0.684,0.0
0.0,0.0,0.0,0.0
0.0,0.0,0.0,0.0
0.0,0.0,0.0,0.0
0.0,0.0,0.0,0.0
8.883,-0.732,-0.657,0.0
8.566,-0.706,-0.679,0.0
8.248,-0.681,-0.699,0.0
7.914,-0.653,-0.713,0.0
0.0,0.0,0.0,0.0
9.59,-0.791,-0.645,0.0
0.0,0.0,0.0,0.0
8.648,-0.714,-0.674,0.0
8.274,-0.683,-0.69,0.0
8.008,-0.662,-0.71,0.0
0.0,0.0,0.0,0.0
9.611,-0.793,-0.634,0.0
0.0,0.0,0.0,0.0
8.807,-0.727,-0.674,0.0
8.4,-0.694,-0.688,0.0
8.038,-0.664,-0.702,0.0
0.0,0.0,0.0,0.0
9.74,-0.804,-0.629,0.0
0.0,0.0,0.0,0.0
8.889,-0.734,-0.668,0.0
8.51,-0.703,-0.686,0.0
8.162,-0.675,-0.701,0.0
7.847,-0.649,-0.716,0.0
0.0,0.0,0.0,0.0
0.0,0.0,0.0,0.0
0.0,0.0,0.0,0.0
8.604,-0.71,-0.681,0.0
8.237,-0.68,-0.696,0.0
7.902,-0.653,-0.709,0.0
9.986,-0.823,-0.617,0.0
9.518,-0.785,-0.638,0.0
0.0,0.0,0.0,0.0
0.0,0.0,0.0,0.0
8.321,-0.686,-0.691,0.0
8.03,-0.663,-0.71,0.0
10.093,-0.831,-0.609,0.0
9.681,-0.797,-0.635,0.0
9.161,-0.754,-0.649,0.0
8.798,-0.724,-0.671,0.0
8.43,-0.694,-0.688,0.0
8.132,-0.67,-0.707,0.0
0.0,0.0,0.0,0.0
0.0,0.0,0.0,0.0
0.0,0.0,0.0,0.0
8.96,-0.736,-0.671,0.0
8.568,-0.704,-0.687,0.0
8.199,-0.674,-0.701,0.0
0.0,0.0,0.0,0.0
0.0,0.0,0.0,0.0
0.0,0.0,0.0,0.0
0.0,0.0,0.0,0.0
8.567,-0.702,-0.674,0.0
8.281,-0.678,-0.695,0.0
11.21,1.198,-0.596,0.0
10.589,1.131,-0.624,0.0
10.012,1.07,-0.647,0.0
9.478,1.012,-0.668,0.0
0.0,0.0,0.0,0.0
8.582,0.917,-0.704,0.0
11.089,1.181,-0.602,0.0
10.469,1.115,-0.628,0.0
9.917,1.056,-0.652,0.0
9.461,1.007,-0.678,0.0
8.865,0.943,-0.686,0.0
8.535,0.908,-0.71,0.0
10.977,1.165,-0.608,0.0
10.348,1.098,-0.632,0.0
9.802,1.039,-0.655,0.0
9.362,0.993,-0.681,0.0
8.866,0.94,-0.696,0.0
8.436,0.894,-0.71,0.0
10.845,1.146,-0.612,0.0
10.286,1.086,-0.639,0.0
9.687,1.023,-0.658,0.0
0.0,0.0,0.0,0.0
8.779,0.926,-0.698,0.0
8.365,0.883,-0.713,0.0
10.749,1.131,-0.618,0.0
10.152,1.067,-0.642,0.0
9.644,1.013,-0.665,0.0
0.0,0.0,0.0,0.0
8.7,0.914,-0.701,0.0
8.324,0.874,-0.718,0.0
10.635,1.113,-0.622,0.0
10.033,1.049,-0.644,0.0
9.483,0.991,-0.663,0.0
0.0,0.0,0.0,0.0
8.666,0.905,-0.707,0.0
8.229,0.859,-0.718,0.0
10.516,1.094,-0.625,0.0
9.969,1.037,-0.65,0.0
9.437,0.981,-0.669,0.0
8.943,0.929,-0.687,0.0
8.587,0.892,-0.709,0.0
8.195,0.851,-0.723,0.0
10.464,1.083,-0.632,0.0
9.876,1.021,-0.653,0.0
9.385,0.97,-0.675,0.0
8.865,0.916,-0.689,0.0
8.5,0.878,-0.709,0.0
8.112,0.837,-0.724,0.0
10.388,1.068,-0.638,0.0
9.796,1.007,-0.657,0.0
9.374,0.963,-0.683,0.0
0.0,0.0,0.0,0.0
8.424,0.864,-0.711,0.0
8.024,0.823,-0.723,0.0
10.158,1.038,-0.632,0.0
9.699,0.99,-0.659,0.0
0.0,0.0,0.0,0.0
0.0,0.0,0.0,0.0
8.363,0.852,-0.713,0.0
0.0,0.0,0.0,0.0
10.111,1.026,-0.639,0.0
9.597,0.973,-0.661,0.0
0.0,0.0,0.0,0.0
0.0,0.0,0.0,0.0
8.308,0.84,-0.716,0.0
0.0,0.0,0.0,0.0
10.076,1.014,-0.645,0.0
9.492,0.955,-0.662,0.0
0.0,0.0,0.0,0.0
8.633,0.867,-0.702,0.0
8.307,0.834,-0.723,0.0
0.0,0.0,0.0,0.0
9.937,0.992,-0.644,0.0
9.471,0.945,-0.668,0.0
0.0,0.0,0.0,0.0
0.0,0.0,0.0,0.0
8.224,0.819,-0.722,0.0
0.0,0.0,0.0,0.0
9.856,0.976,-0.647,0.0
9.45,0.935,-0.674,0.0
0.0,0.0,0.0,0.0
8.505,0.84,-0.705,0.0
8.177,0.807,-0.724,0.0
0.0,0.0,0.0,0.0
9.801,0.962,-0.651,0.0
9.326,0.915,-0.672,0.0
0.0,0.0,0.0,0.0
8.477,0.83,-0.709,0.0
8.118,0.794,-0.725,0.0
0.0,0.0,0.0,0.0
9.727,0.946,-0.653,0.0
9.217,0.896,-0.671,0.0
8.857,0.86,-0.695,0.0
8.368,0.812,-0.706,0.0
8.101,0.785,-0.73,0.0
0.0,0.0,0.0,0.0
9.677,0.933,-0.656,0.0
9.21,0.887,-0.677,0.0
8.783,0.845,-0.696,0.0
8.328,0.8,-0.708,0.0
0.0,0.0,0.0,0.0
7.661,0.734,-0.739,0.0
9.605,0.917,-0.657,0.0
0.0,0.0,0.0,0.0
8.746,0.833,-0.698,0.0
8.331,0.792,-0.714,0.0
0.0,0.0,0.0,0.0
7.689,0.73,-0.747,0.0
9.586,0.905,-0.662,0.0
0.0,0.0,0.0,0.0
8.626,0.813,-0.694,0.0
8.34,0.785,-0.719,0.0
0.0,0.0,0.0,0.0
7.671,0.72,-0.749,0.0
9.518,0.889,-0.663,0.0
0.0,0.0,0.0,0.0
8.656,0.807,-0.701,0.0
8.296,0.772,-0.72,0.0
0.0,0.0,0.0,0.0
7.645,0.71,-0.751,0.0
9.451,0.873,-0.664,0.0
8.944,0.825,-0.679,0.0
8.622,0.794,-0.703,0.0
8.195,0.754,-0.716,0.0
0.0,0.0,0.0,0.0
7.539,0.692,-0.745,0.0
9.48,0.866,-0.671,0.0
8.904,0.812,-0.68,0.0
8.579,0.781,-0.704,0.0
8.257,0.751,-0.726,0.0
0.0,0.0,0.0,0.0
7.541,0.684,-0.749,0.0
9.374,0.846,-0.668,0.0
8.931,0.804,-0.687,0.0
0.0,0.0,0.0,0.0
8.183,0.735,-0.723,0.0
0.0,0.0,0.0,0.0
7.524,0.674,-0.75,0.0
9.329,0.831,-0.669,0.0
8.927,0.794,-0.69,0.0
8.479,0.753,-0.704,0.0
8.198,0.727,-0.728,0.0
0.0,0.0,0.0,0.0
7.478,0.661,-0.749,0.0
9.311,0.819,-0.671,0.0
8.859,0.778,-0.689,0.0
8.478,0.743,-0.707,0.0
8.139,0.712,-0.726,0.0
0.0,0.0,0.0,0.0
7.466,0.651,-0.751,0.0
9.212,0.799,-0.667,0.0
8.862,0.767,-0.692,0.0
8.432,0.729,-0.706,0.0
0.0,0.0,0.0,0.0
0.0,0.0,0.0,0.0
7.469,0.643,-0.754,0.0
9.242,0.791,-0.672,0.0
8.886,0.759,-0.697,0.0
8.443,0.72,-0.71,0.0
0.0,0.0,0.0,0.0
0.0,0.0,0.0,0.0
7.399,0.627,-0.749,0.0
9.193,0.775,-0.672,0.0
8.738,0.735,-0.688,0.0
0.0,0.0,0.0,0.0
0.0,0.0,0.0,0.0
0.0,0.0,0.0,0.0
7.416,0.62,-0.752,0.0
9.24,0.767,-0.677,0.0
8.772,0.727,-0.692,0.0
0.0,0.0,0.0,0.0
0.0,0.0,0.0,0.0
0.0,0.0,0.0,0.0
7.41,0.61,-0.753,0.0
9.167,0.75,-0.674,0.0
8.739,0.713,-0.691,0.0
0.0,0.0,0.0,0.0
0.0,0.0,0.0,0.0
0.0,0.0,0.0,0.0
7.393,0.599,-0.753,0.0
9.175,0.739,-0.676,0.0
8.687,0.698,-0.689,0.0
0.0,0.0,0.0,0.0
0.0,0.0,0.0,0.0
0.0,0.0,0.0,0.0
7.382,0.588,-0.753,0.0
9.161,0.726,-0.676,0.0
8.744,0.691,-0.694,0.0
0.0,0.0,0.0,0.0
0.0,0.0,0.0,0.0
0.0,0.0,0.0,0.0
7.403,0.58,-0.756,0.0
0.0,0.0,0.0,0.0
0.0,0.0,0.0,0.0
0.0,0.0,0.0,0.0
0.0,0.0,0.0,0.0
0.0,0.0,0.0,0.0
0.0,0.0,0.0,0.0
9.59,0.513,-0.659,0.0
0.0,0.0,0.0,0.0
0.0,0.0,0.0,0.0
0.0,0.0,0.0,0.0
0.0,0.0,0.0,0.0
0.0,0.0,0.0,0.0
9.629,0.501,-0.655,0.0
0.0,0.0,0.0,0.0
0.0,0.0,0.0,0.0
0.0,0.0,0.0,0.0
0.0,0.0,0.0,0.0
0.0,0.0,0.0,0.0
9.691,0.49,-0.652,0.0
0.0,0.0,0.0,0.0
0.0,0.0,0.0,0.0
0.0,0.0,0.0,0.0
0.0,0.0,0.0,0.0
0.0,0.0,0.0,0.0
9.681,0.475,-0.644,0.0
0.0,0.0,0.0,0.0
0.0,0.0,0.0,0.0
0.0,0.0,0.0,0.0
0.0,0.0,0.0,0.0
0.0,0.0,0.0,0.0
9.797,0.467,-0.644,0.0
0.0,0.0,0.0,0.0
0.0,0.0,0.0,0.0
0.0,0.0,0.0,0.0
0.0,0.0,0.0,0.0
0.0,0.0,0.0,0.0
9.901,0.457,-0.642,0.0
0.0,0.0,0.0,0.0
0.0,0.0,0.0,0.0
0.0,0.0,0.0,0.0
0.0,0.0,0.0,0.0
0.0,0.0,0.0,0.0
9.416,0.419,-0.653,0.0
9.028,0.4,-0.675,0.0
0.0,0.0,0.0,0.0
0.0,0.0,0.0,0.0
10.077,0.436,-0.635,0.0
0.0,0.0,0.0,0.0
0.0,0.0,0.0,0.0
0.0,0.0,0.0,0.0
0.0,0.0,0.0,0.0
0.0,0.0,0.0,0.0
10.223,0.428,-0.634,0.0
0.0,0.0,0.0,0.0
0.0,0.0,0.0,0.0
0.0,0.0,0.0,0.0
8.445,0.346,-0.707,0.0
0.0,0.0,0.0,0.0
10.253,0.415,-0.625,0.0
9.714,0.391,-0.645,0.0
0.0,0.0,0.0,0.0
0.0,0.0,0.0,0.0
0.0,0.0,0.0,0.0
8.182,0.322,-0.721,0.0
10.419,0.407,-0.624,0.0
9.762,0.379,-0.638,0.0
0.0,0.0,0.0,0.0
0.0,0.0,0.0,0.0
0.0,0.0,0.0,0.0
8.228,0.312,-0.716,0.0
10.503,0.395,-0.618,0.0
9.959,0.372,-0.639,0.0
0.0,0.0,0.0,0.0
0.0,0.0,0.0,0.0
8.634,0.317,-0.695,0.0
8.254,0.301,-0.709,0.0
10.587,0.384,-0.61,0.0
10.031,0.361,-0.632,0.0
9.542,0.341,-0.653,0.0
0.0,0.0,0.0,0.0
0.0,0.0,0.0,0.0
8.355,0.293,-0.708,0.0
10.712,0.373,-0.605,0.0
10.204,0.353,-0.631,0.0
9.678,0.333,-0.65,0.0
0.0,0.0,0.0,0.0
0.0,0.0,0.0,0.0
8.481,0.286,-0.708,0.0
10.819,0.362,-0.598,0.0
10.316,0.343,-0.625,0.0
9.876,0.326,-0.652,0.0
0.0,0.0,0.0,0.0
0.0,0.0,0.0,0.0
8.55,0.277,-0.703,0.0
11.063,0.356,-0.597,0.0
10.364,0.331,-0.615,0.0
9.979,0.316,-0.645,0.0
9.453,0.298,-0.663,0.0
8.95,0.28,-0.676,0.0
8.657,0.269,-0.7,0.0
11.199,0.345,-0.59,0.0
10.527,0.322,-0.611,0.0
10.002,0.304,-0.634,0.0
0.0,0.0,0.0,0.0
9.143,0.274,-0.678,0.0
8.722,0.259,-0.694,0.0
11.326,0.334,-0.582,0.0
10.678,0.313,-0.605,0.0
10.189,0.296,-0.632,0.0
9.628,0.278,-0.649,0.0
0.0,0.0,0.0,0.0
8.765,0.249,-0.685,0.0
11.492,0.324,-0.574,0.0
10.812,0.303,-0.598,0.0
10.285,0.286,-0.623,0.0
9.778,0.269,-0.646,0.0
9.309,0.254,-0.664,0.0
8.961,0.243,-0.687,0.0
11.649,0.314,-0.566,0.0
11.017,0.294,-0.593,0.0
10.431,0.276,-0.617,0.0
9.881,0.26,-0.638,0.0
9.442,0.246,-0.66,0.0
8.999,0.233,-0.677,0.0
11.856,0.304,-0.558,0.0
11.218,0.285,-0.588,0.0
10.604,0.268,-0.612,0.0
10.053,0.252,-0.635,0.0
9.559,0.237,-0.654,0.0
9.122,0.224,-0.673,0.0
12.046,0.294,-0.55,0.0
