X,Y,Z,Reflectivity
90.934,-1.454,5.87,13.0
106.045,-1.693,6.296,13.0
98.987,-1.578,5.354,19.0
191.34,-3.046,9.358,8.0
193.059,-3.069,8.441,12.0
75.979,-1.218,5.452,27.0
75.582,-1.21,5.03,8.0
90.746,-1.449,5.566,15.0
98.593,-1.572,5.526,17.0
99.324,-1.58,5.053,1.0
0.0,0.0,0.0,0.0
76.038,-1.217,5.605,30.0
75.748,-1.21,5.189,19.0
90.906,-1.448,5.755,26.0
106.077,-1.687,6.153,4.0
99.125,-1.572,5.236,18.0
193.91,-3.068,9.235,6.0
76.089,-1.214,5.758,23.0
75.938,-1.208,5.351,31.0
98.369,-1.561,6.42,11.0
106.029,-1.678,6.359,12.0
98.682,-1.557,5.404,18.0
191.408,-3.012,9.488,14.0
76.54,-1.214,5.943,12.0
76.009,-1.201,5.504,26.0
75.66,-1.192,5.085,14.0
90.801,-1.426,5.62,30.0
98.526,-1.542,5.587,8.0
99.254,-1.548,5.111,10.0
75.401,-1.186,5.999,21.0
76.099,-1.192,5.657,33.0
75.891,-1.184,5.246,16.0
90.881,-1.413,5.799,9.0
106.08,-1.644,6.217,10.0
98.855,-1.525,5.278,29.0
75.536,-1.175,6.154,28.0
76.214,-1.181,5.811,28.0
75.908,-1.171,5.391,30.0
90.254,-1.386,5.929,4.0
90.716,-1.388,5.487,16.0
98.655,-1.502,5.453,14.0
75.696,-1.162,6.31,18.0
76.379,-1.167,5.967,18.0
76.089,-1.157,5.547,30.0
75.673,-1.145,5.113,18.0
90.809,-1.368,5.663,21.0
176.972,-2.653,10.115,6.0
65.241,-0.986,5.562,29.0
75.334,-1.132,6.027,22.0
76.141,-1.138,5.693,27.0
75.797,-1.127,5.263,29.0
90.29,-1.335,5.798,17.0
90.662,-1.334,5.349,11.0
0.0,0.0,0.0,0.0
75.507,-1.113,6.182,25.0
75.963,-1.113,5.82,26.0
75.95,-1.107,5.414,32.0
90.278,-1.308,5.963,26.0
90.745,-1.306,5.52,27.0
63.903,-0.927,5.685,25.0
65.536,-0.945,5.486,7.0
75.198,-1.078,5.9,15.0
76.121,-1.084,5.566,37.0
75.53,-1.068,5.126,21.0
90.36,-1.27,5.661,34.0
63.944,-0.905,5.805,30.0
65.491,-0.921,5.601,34.0
66.157,-0.924,5.31,9.0
76.005,-1.054,5.694,27.0
75.503,-1.039,5.26,29.0
90.312,-1.235,5.819,22.0
63.994,-0.881,5.925,24.0
63.797,-0.872,5.571,13.0
75.731,-1.027,6.214,10.0
75.768,-1.02,5.811,15.0
75.654,-1.011,5.405,20.0
75.459,-1.0,4.995,7.0
64.01,-0.855,6.04,9.0
63.811,-0.845,5.685,26.0
67.569,-0.887,5.662,24.0
66.153,-0.861,5.189,28.0
75.716,-0.978,5.541,25.0
75.459,-0.966,5.125,21.0
58.432,-0.754,5.616,20.0
63.888,-0.817,5.802,30.0
0.0,0.0,0.0,0.0
66.152,-0.831,5.302,24.0
75.986,-0.945,5.691,26.0
75.153,-0.926,5.234,25.0
58.529,-0.726,5.726,20.0
64.038,-0.787,5.926,17.0
65.922,-0.802,5.752,17.0
66.226,-0.798,5.422,10.0
66.207,-0.789,5.071,16.0
75.383,-0.89,5.377,34.0
64.149,-0.763,6.385,29.0
58.509,-0.688,5.513,21.0
63.834,-0.743,5.677,26.0
66.208,-0.762,5.531,31.0
66.178,-0.753,5.18,15.0
75.802,-0.853,5.533,26.0
67.524,-0.765,6.834,5.0
58.597,-0.657,5.619,27.0
63.885,-0.707,5.787,6.0
66.219,-0.725,5.641,34.0
66.207,-0.716,5.29,17.0
76.007,-0.812,5.672,22.0
58.806,-0.632,6.048,23.0
58.652,-0.623,5.72,27.0
66.274,-0.695,6.111,19.0
66.371,-0.687,5.761,32.0
66.399,-0.678,5.412,10.0
76.136,-0.767,5.802,15.0
0.0,0.0,0.0,0.0
63.913,-0.639,6.335,6.0
58.498,-0.577,5.486,20.0
66.431,-0.646,5.871,19.0
62.678,-0.6,5.207,17.0
76.245,-0.719,5.931,21.0
57.367,-0.544,6.083,31.0
58.803,-0.55,5.922,8.0
0.0,0.0,0.0,0.0
66.764,-0.604,6.006,38.0
73.708,-0.656,6.238,13.0
62.68,-0.549,4.973,20.0
57.272,-0.505,6.163,33.0
58.882,-0.51,6.02,22.0
66.896,-0.57,6.483,10.0
57.044,-0.477,5.218,15.0
64.757,-0.532,5.579,17.0
62.68,-0.505,5.067,27.0
56.994,-0.462,6.219,25.0
57.366,-0.456,5.952,20.0
66.928,-0.522,6.587,5.0
57.031,-0.436,5.302,26.0
64.738,-0.485,5.673,21.0
62.663,-0.46,5.158,23.0
57.01,-0.421,6.305,10.0
57.348,-0.414,6.035,31.0
58.865,-0.415,5.88,8.0
57.054,-0.394,5.388,24.0
64.792,-0.436,5.772,7.0
64.74,-0.426,5.422,8.0
0.0,0.0,0.0,0.0
57.276,-0.37,6.111,31.0
58.697,-0.37,5.947,6.0
0.0,0.0,0.0,0.0
57.119,-0.341,5.17,22.0
64.743,-0.376,5.514,22.0
63.456,-0.37,7.201,39.0
57.036,-0.323,6.166,29.0
57.205,-0.314,5.877,32.0
58.903,-0.314,5.729,11.0
57.114,-0.294,5.249,29.0
64.764,-0.324,5.606,22.0
63.414,-0.318,7.284,22.0
57.065,-0.277,6.247,28.0
57.367,-0.268,5.972,31.0
56.605,-0.255,5.582,29.0
57.195,-0.247,5.333,24.0
64.711,-0.269,5.688,20.0
59.214,-0.247,6.883,14.0
57.108,-0.228,6.329,30.0
57.267,-0.219,6.038,31.0
56.667,-0.207,5.663,28.0
57.282,-0.199,5.416,15.0
64.772,-0.215,5.777,25.0
59.277,-0.197,6.968,23.0
57.106,-0.179,6.403,11.0
57.213,-0.169,6.106,27.0
57.042,-0.159,5.774,31.0
56.85,-0.148,5.448,7.0
57.172,-0.139,5.172,18.0
59.421,-0.144,7.061,17.0
63.319,-0.142,7.181,12.0
57.214,-0.118,6.178,16.0
57.402,-0.108,5.882,31.0
56.742,-0.097,5.508,30.0
57.295,-0.088,5.253,25.0
0.0,0.0,0.0,0.0
63.431,-0.085,7.271,15.0
57.245,-0.066,6.251,31.0
57.482,-0.055,5.96,30.0
56.776,-0.045,5.58,26.0
57.41,-0.034,5.333,29.0
57.491,-0.033,6.972,34.0
59.547,-0.024,6.897,9.0
57.333,-0.012,6.329,30.0
56.991,-0.001,5.976,21.0
56.864,0.008,5.655,30.0
57.374,0.019,5.396,31.0
56.931,0.021,6.97,19.0
59.521,0.032,6.963,31.0
57.281,0.042,6.389,11.0
0.0,0.0,0.0,0.0
56.705,0.063,5.703,23.0
57.228,0.074,5.446,30.0
56.976,0.077,7.04,7.0
59.568,0.091,7.035,24.0
56.121,0.096,6.322,6.0
57.259,0.109,6.132,31.0
56.762,0.12,5.771,27.0
57.12,0.131,5.497,29.0
48.993,0.114,6.107,19.0
57.054,0.144,6.799,16.0
59.534,0.162,6.77,2.0
56.902,0.166,6.155,32.0
56.718,0.176,5.826,24.0
56.99,0.188,5.545,30.0
58.106,0.195,7.304,11.0
57.083,0.203,6.862,29.0
64.36,0.241,7.385,6.0
56.322,0.222,6.149,30.0
56.949,0.235,5.907,29.0
57.18,0.247,5.62,28.0
58.388,0.257,7.398,10.0
57.076,0.262,6.918,29.0
59.89,0.286,6.931,7.0
56.36,0.28,6.208,14.0
57.062,0.295,5.974,24.0
57.413,0.307,5.697,31.0
51.5,0.28,6.574,11.0
57.475,0.323,7.021,32.0
57.198,0.333,6.673,21.0
52.458,0.316,5.827,21.0
56.81,0.354,6.0,30.0
57.162,0.367,5.725,21.0
51.584,0.335,6.633,15.0
58.253,0.39,7.169,28.0
57.381,0.396,6.746,30.0
52.533,0.373,5.882,22.0
56.621,0.413,6.03,30.0
57.191,0.428,5.777,22.0
49.247,0.374,6.376,23.0
48.943,0.381,6.066,20.0
60.182,0.481,7.128,6.0
52.52,0.43,5.925,18.0
56.601,0.475,6.075,30.0
57.175,0.49,5.824,27.0
48.569,0.422,6.328,19.0
48.161,0.428,6.009,21.0
62.561,0.568,7.46,10.0
52.531,0.488,5.969,13.0
56.601,0.536,6.12,30.0
57.227,0.553,5.874,25.0
48.575,0.476,6.367,29.0
48.253,0.482,6.058,22.0
0.0,0.0,0.0,0.0
48.781,0.506,5.58,16.0
56.578,0.599,6.16,30.0
57.279,0.617,5.921,22.0
48.788,0.532,6.432,35.0
48.451,0.538,6.118,22.0
49.149,0.556,5.934,13.0
52.61,0.605,6.056,17.0
56.799,0.664,6.224,30.0
57.306,0.682,5.964,8.0
49.333,0.594,6.538,5.0
48.506,0.593,6.159,30.0
49.221,0.612,5.976,18.0
52.55,0.664,6.084,22.0
56.763,0.728,6.258,30.0
57.448,0.748,6.016,9.0
47.31,0.623,6.301,17.0
48.592,0.65,6.201,33.0
49.186,0.668,6.003,23.0
52.513,0.723,6.113,5.0
56.917,0.795,6.31,20.0
50.353,0.713,5.304,14.0
0.0,0.0,0.0,0.0
48.702,0.707,6.244,22.0
49.108,0.723,6.023,15.0
48.755,0.727,5.703,23.0
52.95,0.801,5.901,6.0
50.366,0.771,5.334,22.0
47.884,0.742,6.434,22.0
0.0,0.0,0.0,0.0
48.892,0.776,6.023,23.0
48.782,0.784,5.733,26.0
50.25,0.818,5.626,30.0
50.235,0.827,5.346,28.0
47.98,0.799,6.472,24.0
47.321,0.797,6.118,11.0
48.922,0.834,6.051,21.0
48.731,0.84,5.751,23.0
50.243,0.876,5.65,27.0
50.186,0.885,5.365,20.0
47.955,0.854,6.491,30.0
47.926,0.863,6.218,23.0
48.981,0.892,6.081,23.0
48.761,0.897,5.776,37.0
50.177,0.932,5.664,30.0
50.206,0.942,5.388,16.0
47.909,0.909,6.505,27.0
47.411,0.909,6.171,21.0
48.927,0.947,6.094,29.0
48.625,0.951,5.779,22.0
50.115,0.99,5.677,37.0
50.242,1.002,5.411,24.0
47.967,0.967,6.531,17.0
47.584,0.968,6.211,9.0
48.934,1.005,6.112,27.0
48.626,1.008,5.797,22.0
50.192,1.05,5.703,23.0
50.091,1.057,5.412,23.0
51.609,1.101,7.044,11.0
45.539,0.98,5.959,19.0
49.295,1.07,6.173,23.0
48.618,1.065,5.811,28.0
50.238,1.109,5.723,23.0
49.966,1.113,5.413,18.0
47.909,1.079,6.553,12.0
45.559,1.034,5.974,19.0
49.366,1.13,6.195,23.0
48.653,1.123,5.828,31.0
50.04,1.164,5.713,23.0
49.671,1.164,5.393,29.0
47.883,1.134,6.561,16.0
45.552,1.088,5.984,26.0
49.073,1.181,6.17,5.0
50.299,1.22,6.036,7.0
50.121,1.225,5.733,23.0
49.608,1.222,5.396,16.0
47.846,1.191,6.565,10.0
45.671,1.145,6.008,20.0
45.355,1.145,5.71,20.0
45.11,1.146,5.421,22.0
45.49,1.164,5.21,18.0
49.656,1.28,5.409,18.0
43.573,1.134,5.985,16.0
46.194,1.211,6.083,20.0
45.285,1.195,5.707,19.0
45.136,1.2,5.429,22.0
45.55,1.219,5.222,19.0
49.686,1.339,5.418,9.0
43.571,1.186,5.989,31.0
47.199,1.293,6.22,22.0
45.112,1.244,5.689,22.0
45.208,1.254,5.441,24.0
45.548,1.272,5.226,18.0
49.534,1.392,5.404,9.0
47.831,1.358,6.577,5.0
47.511,1.357,6.263,9.0
45.122,1.296,5.692,19.0
45.193,1.307,5.441,27.0
45.389,1.32,5.208,34.0
49.488,1.447,5.4,8.0
43.77,1.294,6.019,16.0
47.554,1.413,6.269,15.0
44.289,1.324,5.587,18.0
45.215,1.36,5.443,32.0
45.418,1.373,5.211,32.0
45.978,1.397,5.016,14.0
43.997,1.351,6.049,19.0
47.562,1.469,6.268,9.0
43.88,1.362,5.533,22.0
45.303,1.414,5.451,30.0
45.52,1.428,5.219,17.0
48.935,1.544,5.334,4.0
43.84,1.397,6.023,28.0
44.081,1.411,5.805,22.0
43.847,1.411,5.525,18.0
45.354,1.467,5.452,16.0
45.599,1.483,5.223,24.0
46.054,1.505,5.015,23.0
43.41,1.432,5.959,30.0
43.878,1.455,5.772,29.0
43.833,1.46,5.516,18.0
45.37,1.518,5.447,33.0
45.652,1.535,5.222,28.0
46.088,1.558,5.011,16.0
43.328,1.479,5.94,35.0
43.84,1.503,5.759,33.0
0.0,0.0,0.0,0.0
45.363,1.569,5.437,32.0
45.666,1.587,5.214,22.0
48.392,1.69,5.251,6.0
43.414,1.53,5.942,34.0
43.917,1.555,5.759,30.0
44.607,1.586,5.595,21.0
45.478,1.625,5.44,23.0
45.827,1.644,5.221,19.0
48.439,1.745,5.244,31.0
43.534,1.583,5.947,24.0
43.791,1.599,5.731,28.0
0.0,0.0,0.0,0.0
45.57,1.677,5.438,29.0
45.95,1.698,5.222,29.0
48.478,1.799,5.233,16.0
43.63,1.634,5.946,27.0
43.604,1.64,5.692,29.0
0.0,0.0,0.0,0.0
0.0,0.0,0.0,0.0
45.386,1.727,5.142,19.0
51.062,1.951,5.495,10.0
44.09,1.7,5.992,20.0
43.563,1.686,5.67,29.0
45.452,1.766,5.656,38.0
45.811,1.786,5.434,20.0
45.36,1.774,5.122,19.0
48.557,1.907,5.206,9.0
43.893,1.74,5.948,21.0
43.414,1.727,5.633,28.0
44.973,1.795,5.577,22.0
45.672,1.83,5.398,36.0
45.295,1.821,5.094,19.0
48.497,1.956,5.178,7.0
43.954,1.789,5.936,19.0
43.4,1.772,5.611,35.0
0.0,0.0,0.0,0.0
45.78,1.881,5.389,20.0
45.324,1.869,5.076,31.0
48.484,2.006,5.154,19.0
43.978,1.836,5.917,20.0
43.397,1.817,5.589,31.0
0.0,0.0,0.0,0.0
45.672,1.924,5.353,35.0
45.39,1.918,5.06,28.0
48.391,2.051,5.118,36.0
43.878,1.876,5.88,29.0
43.538,1.867,5.584,31.0
45.728,1.967,5.601,20.0
45.6,1.967,5.319,19.0
48.345,2.091,5.362,4.0
48.448,2.102,5.097,19.0
43.858,1.919,5.852,34.0
43.758,1.92,5.586,23.0
45.639,2.008,5.563,25.0
45.524,2.008,5.283,32.0
48.288,2.136,5.327,37.0
48.359,2.145,5.058,22.0
43.896,1.964,5.83,31.0
43.996,1.973,5.589,22.0
45.695,2.054,5.542,20.0
45.577,2.054,5.261,30.0
48.635,2.198,5.334,22.0
48.248,2.186,5.016,15.0
44.079,2.014,5.825,35.0
44.387,2.033,5.609,34.0
45.745,2.101,5.517,19.0
45.461,2.092,5.216,26.0
48.935,2.258,5.334,23.0
50.587,2.34,5.224,22.0
44.305,2.066,5.823,34.0
44.418,2.076,5.582,38.0
45.756,2.143,5.485,19.0
48.3,2.268,5.507,7.0
49.306,2.32,5.339,22.0
50.551,2.384,5.183,21.0
44.426,2.112,5.806,35.0
44.433,2.117,5.55,34.0
45.709,2.182,5.445,34.0
48.256,2.308,5.465,31.0
51.407,2.465,5.526,16.0
50.471,2.425,5.136,32.0
44.471,2.154,5.777,33.0
0.0,0.0,0.0,0.0
45.747,2.224,5.413,28.0
48.234,2.35,5.424,22.0
51.015,2.49,5.443,24.0
50.925,2.491,5.141,25.0
44.447,2.192,5.737,33.0
45.69,2.257,5.632,21.0
45.809,2.267,5.382,13.0
48.334,2.396,5.395,22.0
0.0,0.0,0.0,0.0
0.0,0.0,0.0,0.0
44.448,2.229,5.698,34.0
45.87,2.304,5.614,20.0
48.323,2.431,5.635,13.0
48.367,2.438,5.356,22.0
49.38,2.493,5.184,22.0
49.768,2.517,4.938,19.0
44.46,2.265,5.66,24.0
45.884,2.342,5.575,20.0
49.538,2.532,5.732,10.0
50.68,2.594,5.566,6.0
49.762,2.552,5.178,25.0
49.716,2.553,4.887,24.0
47.827,2.474,6.043,9.0
45.824,2.374,5.524,21.0
47.358,2.457,5.435,17.0
48.783,2.534,5.311,15.0
49.824,2.593,5.137,24.0
49.715,2.591,4.839,14.0
44.465,2.334,5.575,7.0
43.509,2.287,5.202,23.0
47.352,2.492,5.387,16.0
48.767,2.57,5.261,18.0
50.047,2.641,5.111,23.0
51.8,2.738,4.991,9.0
0.0,0.0,0.0,0.0
43.58,2.322,5.166,12.0
47.829,2.552,5.393,22.0
49.524,2.645,5.292,25.0
49.851,2.666,5.039,23.0
49.767,2.665,4.744,17.0
43.617,2.352,5.378,15.0
0.0,0.0,0.0,0.0
47.869,2.587,5.346,22.0
49.718,2.69,5.26,24.0
49.797,2.697,4.981,21.0
49.684,2.694,4.683,15.0
43.578,2.379,5.326,29.0
0.0,0.0,0.0,0.0
47.623,2.605,5.267,21.0
52.996,2.901,5.549,27.0
49.8,2.729,4.927,21.0
49.629,2.723,4.623,13.0
43.647,2.411,5.286,18.0
47.426,2.621,5.468,21.0
47.708,2.639,5.224,21.0
53.245,2.948,5.516,6.0
49.793,2.759,4.87,29.0
49.606,2.751,4.566,32.0
43.653,2.437,5.237,29.0
47.898,2.676,5.467,23.0
47.814,2.673,5.18,17.0
49.968,2.796,5.119,19.0
49.77,2.787,4.81,29.0
49.578,2.778,4.506,18.0
43.58,2.458,5.177,30.0
48.272,2.724,5.453,22.0
0.0,0.0,0.0,0.0
49.531,2.799,5.015,24.0
49.705,2.811,4.744,18.0
49.372,2.794,4.427,23.0
43.526,2.479,5.116,8.0
45.68,2.602,5.104,16.0
53.167,3.03,5.631,12.0
48.925,2.79,4.893,23.0
49.647,2.833,4.678,22.0
49.114,2.805,4.344,25.0
46.783,2.687,5.441,21.0
45.573,2.619,5.034,31.0
53.699,3.088,5.62,6.0
49.141,2.827,4.852,23.0
49.62,2.856,4.613,13.0
49.086,2.827,4.279,16.0
46.332,2.684,5.329,23.0
44.978,2.606,4.911,20.0
48.324,2.801,4.995,22.0
49.692,2.881,4.843,24.0
49.571,2.875,4.544,13.0
49.107,2.85,4.218,17.0
45.14,2.635,5.133,20.0
44.447,2.595,4.794,15.0
48.71,2.844,4.971,22.0
49.782,2.907,4.786,21.0
49.417,2.887,4.465,22.0
49.126,2.871,4.155,12.0
45.094,2.65,5.067,20.0
44.515,2.616,4.742,19.0
48.886,2.873,4.924,22.0
57.644,3.388,5.465,31.0
49.192,2.892,4.379,22.0
80.447,4.732,6.696,34.0
44.705,2.643,4.962,26.0
48.233,2.852,5.072,14.0
56.655,3.351,5.628,10.0
57.578,3.405,5.38,32.0
49.066,2.902,4.3,22.0
80.501,4.762,6.59,36.0
44.581,2.65,4.887,24.0
48.567,2.887,5.04,22.0
56.907,3.383,5.574,26.0
57.595,3.424,5.301,32.0
49.143,2.921,4.239,23.0
80.628,4.793,6.488,29.0
44.528,2.66,4.818,17.0
49.307,2.945,5.047,23.0
57.593,3.439,5.561,31.0
57.741,3.448,5.234,19.0
49.224,2.939,4.177,17.0
80.473,4.806,6.363,24.0
44.542,2.672,4.756,12.0
49.27,2.955,4.973,32.0
57.716,3.461,5.49,30.0
49.383,2.961,4.406,23.0
80.623,4.833,6.726,21.0
80.409,4.82,6.242,26.0
48.171,2.9,5.073,13.0
49.246,2.964,4.899,20.0
57.637,3.468,5.398,31.0
49.322,2.967,4.328,23.0
80.689,4.853,6.613,22.0
58.28,3.504,4.439,14.0
48.8,2.946,5.066,25.0
56.832,3.43,5.569,12.0
57.57,3.473,5.306,31.0
57.965,3.496,5.0,11.0
80.621,4.861,6.486,20.0
58.255,3.511,4.35,20.0
49.342,2.986,5.049,34.0
63.166,3.82,6.094,10.0
57.653,3.485,5.227,10.0
58.019,3.506,4.917,27.0
80.453,4.86,6.351,26.0
58.257,3.517,4.262,28.0
49.283,2.987,4.966,29.0
57.721,3.496,5.48,6.0
49.438,2.993,4.406,23.0
58.079,3.514,4.833,25.0
80.409,4.863,6.224,16.0
58.285,3.523,4.174,50.0
49.233,2.987,4.884,7.0
57.572,3.49,5.377,14.0
49.351,2.99,4.321,19.0
58.123,3.519,4.746,15.0
58.266,3.526,4.421,18.0
58.337,3.528,4.089,54.0
80.482,4.45,5.719,28.0
80.727,4.452,5.269,21.0
80.508,4.429,4.787,23.0
80.78,4.434,4.328,38.0
0.0,0.0,0.0,0.0
0.0,0.0,0.0,0.0
80.411,4.391,5.578,31.0
81.831,4.456,5.202,12.0
80.456,4.37,4.649,33.0
81.241,4.402,4.216,34.0
0.0,0.0,0.0,0.0
0.0,0.0,0.0,0.0
80.594,4.341,5.453,30.0
81.818,4.396,5.062,9.0
80.637,4.32,4.522,33.0
81.122,4.334,4.071,29.0
0.0,0.0,0.0,0.0
48.118,2.558,1.859,1.0
81.011,4.301,5.344,13.0
80.592,4.267,4.85,21.0
80.654,4.258,4.386,43.0
80.93,4.261,3.926,5.0
0.0,0.0,0.0,0.0
47.618,2.493,1.76,4.0
81.397,4.255,5.232,27.0
80.831,4.214,4.728,34.0
81.181,4.219,4.278,38.0
0.0,0.0,0.0,0.0
0.0,0.0,0.0,0.0
47.594,2.452,1.68,148.0
81.77,4.205,5.119,17.0
80.922,4.15,4.598,31.0
81.29,4.155,4.148,24.0
0.0,0.0,0.0,0.0
48.179,2.447,1.896,1.0
47.579,2.41,1.599,187.0
81.561,4.122,4.967,26.0
81.255,4.093,4.479,30.0
80.892,4.061,3.991,13.0
0.0,0.0,0.0,0.0
47.826,2.385,1.802,3.0
47.397,2.356,1.513,9.0
81.425,4.038,4.822,32.0
81.265,4.017,4.342,32.0
0.0,0.0,0.0,0.0
0.0,0.0,0.0,0.0
47.683,2.332,1.717,77.0
47.44,2.313,1.435,0.0
81.397,3.958,4.684,34.0
80.984,3.923,4.191,37.0
0.0,0.0,0.0,0.0
0.0,0.0,0.0,0.0
47.7,2.286,1.639,158.0
0.0,0.0,0.0,0.0
81.34,3.873,4.546,30.0
80.962,3.84,4.057,27.0
0.0,0.0,0.0,0.0
47.91,2.254,1.842,2.0
47.498,2.227,1.552,13.0
47.451,2.216,1.277,3.0
81.228,3.78,4.403,34.0
80.917,3.751,3.919,5.0
48.843,2.255,2.084,0.0
47.758,2.196,1.758,4.0
47.524,2.176,1.475,12.0
47.499,2.167,1.201,11.0
81.236,3.692,4.271,35.0
49.12,2.223,2.298,3.0
48.583,2.189,1.993,10.0
47.733,2.142,1.678,5.0
47.631,2.129,1.401,3.0
47.649,2.12,1.127,0.0
81.221,3.599,4.137,32.0
0.0,0.0,0.0,0.0
48.444,2.128,1.909,1.0
47.925,2.095,1.607,3.0
47.979,2.088,1.332,1.0
47.836,2.073,1.054,0.0
65.577,2.83,3.234,26.0
48.841,2.097,2.127,0.0
48.53,2.075,1.834,2.0
48.216,2.052,1.54,7.0
48.374,2.048,1.266,3.0
0.0,0.0,0.0,0.0
65.551,2.75,3.128,21.0
48.663,2.031,2.041,12.0
48.625,2.02,1.76,2.0
48.447,2.002,1.469,3.0
48.61,1.999,1.195,2.0
0.0,0.0,0.0,0.0
65.57,2.669,3.024,8.0
48.721,1.973,1.966,4.0
48.845,1.967,1.69,2.0
48.88,1.958,1.405,2.0
48.995,1.952,1.126,0.0
0.0,0.0,0.0,0.0
65.639,2.588,2.924,5.0
49.633,1.945,1.924,2.0
49.175,1.917,1.624,2.0
49.288,1.911,1.339,2.0
50.301,1.939,1.078,0.0
0.0,0.0,0.0,0.0
50.829,1.937,2.184,1.0
49.742,1.884,1.851,2.0
49.641,1.869,1.562,3.0
49.642,1.858,1.272,2.0
50.722,1.888,1.009,3.0
0.0,0.0,0.0,0.0
50.914,1.871,2.109,0.0
50.055,1.828,1.786,2.0
50.112,1.819,1.5,2.0
0.0,0.0,0.0,0.0
50.803,1.821,0.932,0.0
36.79,1.311,0.464,0.0
50.72,1.794,2.024,1.0
50.425,1.772,1.723,3.0
50.466,1.762,1.434,2.0
50.619,1.755,1.143,0.0
48.454,1.669,0.816,0.0
34.789,1.191,0.387,1.0
51.036,1.733,1.96,1.0
51.047,1.721,1.668,2.0
50.948,1.706,1.373,0.0
50.785,1.689,1.072,0.0
0.0,0.0,0.0,0.0
34.126,1.119,0.329,0.0
0.0,0.0,0.0,0.0
54.121,1.747,1.689,15.0
54.257,1.738,1.382,7.0
55.016,1.749,1.08,3.0
38.777,1.223,0.539,0.0
32.531,1.019,0.266,0.0
0.0,0.0,0.0,0.0
54.057,1.665,1.608,5.0
54.268,1.658,1.304,4.0
46.221,1.401,0.841,0.0
0.0,0.0,0.0,0.0
31.032,0.925,0.209,0.0
0.0,0.0,0.0,0.0
54.111,1.585,1.533,3.0
0.0,0.0,0.0,0.0
46.07,1.326,0.772,0.0
35.434,1.011,0.391,1.0
28.975,0.819,0.154,4.0
54.171,1.516,1.768,1.0
54.086,1.5,1.455,3.0
56.457,1.552,1.196,7.0
0.0,0.0,0.0,0.0
33.621,0.907,0.325,0.0
28.896,0.772,0.114,5.0
54.159,1.431,1.692,2.0
54.143,1.417,1.383,1.0
56.933,1.476,1.128,1.0
39.016,1.001,0.546,0.0
32.064,0.814,0.266,0.0
28.741,0.722,0.074,1.0
54.113,1.344,1.618,1.0
54.364,1.337,1.315,1.0
47.462,1.154,0.876,3.0
36.384,0.875,0.46,0.0
31.427,0.748,0.218,0.0
27.254,0.641,0.033,0.0
54.207,1.259,1.549,0.0
57.958,1.331,1.324,3.0
47.845,1.085,0.82,0.0
35.208,0.789,0.399,0.0
28.871,0.639,0.162,0.0
26.746,0.585,-0.002,0.0
54.329,1.171,1.48,0.0
54.72,1.165,1.178,1.0
0.0,0.0,0.0,0.0
33.888,0.703,0.339,1.0
28.847,0.59,0.124,1.0
25.846,0.522,-0.035,0.0
54.336,1.08,1.41,1.0
0.0,0.0,0.0,0.0
0.0,0.0,0.0,0.0
32.531,0.619,0.284,0.0
28.644,0.537,0.087,1.0
25.322,0.467,-0.067,0.0
54.77,0.994,1.351,0.0
0.0,0.0,0.0,0.0
37.589,0.661,0.499,0.0
31.468,0.544,0.235,0.0
27.746,0.472,0.049,0.0
24.594,0.411,-0.096,0.0
58.773,0.965,1.378,0.0
0.0,0.0,0.0,0.0
0.0,0.0,0.0,0.0
28.982,0.451,0.181,0.0
26.94,0.411,0.015,0.0
23.944,0.358,-0.122,0.0
0.0,0.0,0.0,0.0
40.546,0.582,0.67,0.0
35.224,0.495,0.382,0.0
28.887,0.397,0.146,5.0
26.259,0.354,-0.016,0.0
23.376,0.308,-0.147,0.0
0.0,0.0,0.0,0.0
0.0,0.0,0.0,0.0
0.0,0.0,0.0,0.0
28.831,0.345,0.112,6.0
25.813,0.301,-0.046,0.0
22.409,0.254,-0.167,0.0
0.0,0.0,0.0,0.0
37.768,0.405,0.537,0.0
32.223,0.336,0.275,0.0
28.691,0.29,0.079,3.0
25.196,0.247,-0.073,0.0
22.102,0.21,-0.19,3.0
45.685,0.42,0.858,0.0
36.778,0.327,0.482,0.0
31.031,0.267,0.23,0.0
27.661,0.229,0.045,0.0
24.639,0.196,-0.099,0.0
21.557,0.165,-0.209,2.0
43.373,0.319,0.768,0.0
0.0,0.0,0.0,0.0
30.467,0.206,0.194,0.0
27.016,0.174,0.016,0.0
23.976,0.147,-0.121,0.0
20.941,0.122,-0.224,1.0
41.771,0.23,0.696,0.0
34.73,0.18,0.381,0.0
28.918,0.141,0.154,0.0
26.46,0.12,-0.011,0.0
23.253,0.098,-0.142,0.0
20.366,0.08,-0.239,0.0
41.69,0.15,0.652,0.0
33.538,0.11,0.334,0.0
28.782,0.085,0.124,1.0
25.948,0.069,-0.037,0.0
23.138,0.054,-0.164,0.0
19.767,0.04,-0.252,0.0
38.593,0.066,0.565,0.0
32.981,0.045,0.296,0.0
28.645,0.03,0.095,1.0
25.367,0.018,-0.061,0.0
22.052,0.009,-0.178,0.0
19.23,0.001,-0.264,0.0
0.0,0.0,0.0,0.0
31.366,-0.017,0.252,0.0
28.383,-0.024,0.067,1.0
24.998,-0.029,-0.084,0.0
21.647,-0.032,-0.195,0.0
18.714,-0.034,-0.274,0.0
36.371,-0.078,0.464,0.0
31.351,-0.078,0.223,1.0
27.501,-0.077,0.04,0.0
24.267,-0.076,-0.103,0.0
21.387,-0.074,-0.212,0.0
18.41,-0.07,-0.286,0.0
35.935,-0.148,0.427,0.0
0.0,0.0,0.0,0.0
27.064,-0.129,0.016,0.0
23.962,-0.122,-0.123,0.0
20.855,-0.113,-0.224,0.0
18.17,-0.105,-0.298,0.0
33.721,-0.205,0.372,0.0
28.854,-0.184,0.156,3.0
26.56,-0.179,-0.006,0.0
23.579,-0.166,-0.14,0.0
20.296,-0.15,-0.235,0.0
17.824,-0.137,-0.307,0.0
33.076,-0.266,0.338,0.0
28.777,-0.241,0.132,5.0
25.92,-0.225,-0.026,0.0
22.876,-0.207,-0.154,0.0
19.889,-0.186,-0.246,0.0
17.558,-0.17,-0.316,0.0
32.684,-0.327,0.309,1.0
28.676,-0.297,0.109,1.0
25.647,-0.274,-0.046,0.0
22.739,-0.251,-0.171,0.0
19.509,-0.222,-0.256,0.0
17.288,-0.203,-0.324,0.0
32.504,-0.391,0.283,1.0
28.505,-0.353,0.088,1.0
25.133,-0.319,-0.063,0.0
22.276,-0.291,-0.183,1.0
19.279,-0.258,-0.267,0.0
17.049,-0.234,-0.332,0.0
31.682,-0.445,0.253,0.0
28.194,-0.405,0.067,1.0
24.967,-0.367,-0.08,0.0
22.037,-0.332,-0.197,1.0
18.888,-0.291,-0.275,0.0
16.913,-0.266,-0.341,0.0
31.232,-0.501,0.229,0.0
27.714,-0.455,0.047,0.0
24.555,-0.411,-0.095,0.0
21.682,-0.371,-0.208,0.0
18.426,-0.321,-0.28,0.0
16.757,-0.298,-0.349,0.0
30.8,-0.557,0.206,0.0
27.487,-0.507,0.03,0.0
24.189,-0.454,-0.109,0.0
20.984,-0.402,-0.214,0.0
18.328,-0.357,-0.29,0.0
16.586,-0.329,-0.355,0.0
28.818,-0.58,0.176,0.0
27.033,-0.554,0.013,0.0
24.032,-0.501,-0.122,0.0
20.635,-0.437,-0.222,0.0
18.216,-0.392,-0.298,0.0
16.475,-0.361,-0.362,0.0
28.76,-0.638,0.159,3.0
26.765,-0.603,-0.001,0.0
23.634,-0.541,-0.133,0.0
20.318,-0.472,-0.23,0.0
17.94,-0.423,-0.303,0.0
16.365,-0.392,-0.368,0.0
28.731,-0.696,0.144,4.0
26.347,-0.647,-0.014,0.0
23.306,-0.581,-0.143,0.0
19.792,-0.5,-0.234,0.0
17.799,-0.456,-0.31,0.0
16.212,-0.422,-0.373,0.0
28.69,-0.754,0.13,5.0
26.274,-0.699,-0.027,0.0
23.073,-0.623,-0.152,0.0
19.712,-0.539,-0.242,0.0
17.513,-0.485,-0.313,0.0
16.117,-0.452,-0.378,0.0
28.613,-0.811,0.117,1.0
25.945,-0.745,-0.038,0.0
22.818,-0.663,-0.161,0.0
19.557,-0.575,-0.249,0.0
17.44,-0.519,-0.319,0.0
15.941,-0.48,-0.381,0.0
28.603,-0.869,0.105,1.0
25.965,-0.799,-0.048,0.0
22.675,-0.706,-0.169,0.0
19.446,-0.612,-0.255,0.0
17.251,-0.549,-0.322,0.0
15.856,-0.511,-0.385,0.0
28.519,-0.926,0.094,1.0
25.479,-0.836,-0.057,0.0
22.274,-0.739,-0.174,0.0
19.372,-0.65,-0.261,0.0
17.242,-0.585,-0.328,0.0
15.825,-0.543,-0.39,0.0
28.469,-0.984,0.084,1.0
25.191,-0.879,-0.065,0.0
22.342,-0.788,-0.182,1.0
19.246,-0.686,-0.265,0.0
17.111,-0.616,-0.331,0.0
15.692,-0.571,-0.391,0.0
28.542,-1.045,0.076,4.0
25.121,-0.929,-0.072,0.0
22.157,-0.827,-0.186,0.0
19.156,-0.722,-0.269,0.0
17.036,-0.649,-0.334,0.0
15.661,-0.602,-0.394,0.0
28.51,-1.102,0.069,3.0
25.193,-0.983,-0.078,0.0
22.176,-0.874,-0.192,2.0
19.055,-0.758,-0.273,0.0
16.998,-0.682,-0.338,0.0
15.612,-0.632,-0.397,0.0
28.428,-1.157,0.063,2.0
25.036,-1.029,-0.083,0.0
22.056,-0.914,-0.195,1.0
18.972,-0.793,-0.275,0.0
16.95,-0.715,-0.34,0.0
15.602,-0.664,-0.399,0.0
28.481,-1.217,0.058,2.0
24.361,-1.05,-0.085,0.0
21.557,-0.937,-0.195,1.0
18.891,-0.829,-0.277,0.0
16.922,-0.748,-0.342,0.0
15.527,-0.692,-0.4,0.0
28.196,-1.263,0.053,0.0
24.205,-1.093,-0.088,0.0
21.419,-0.975,-0.196,1.0
18.838,-0.864,-0.279,0.0
16.889,-0.781,-0.343,0.0
15.476,-0.721,-0.4,0.0
27.669,-1.295,0.049,4.0
24.115,-1.138,-0.09,0.0
21.815,-1.037,-0.202,0.0
18.851,-0.903,-0.28,0.0
16.878,-0.815,-0.344,0.0
15.423,-0.75,-0.4,0.0
27.765,-1.356,0.048,7.0
24.302,-1.195,-0.092,0.0
21.926,-1.087,-0.204,1.0
18.832,-0.94,-0.281,0.0
16.879,-0.849,-0.345,0.0
15.434,-0.782,-0.401,0.0
27.796,-1.413,0.047,5.0
23.887,-1.223,-0.091,0.0
22.074,-1.138,-0.206,0.0
18.825,-0.978,-0.281,0.0
16.849,-0.881,-0.344,0.0
15.454,-0.814,-0.401,0.0
28.184,-1.49,0.048,2.0
34.256,-1.823,-0.13,0.0
21.923,-1.175,-0.204,0.0
18.812,-1.015,-0.28,0.0
16.966,-0.921,-0.346,0.0
34.228,-1.872,-0.888,0.0
28.327,-1.554,0.049,2.0
34.243,-1.89,-0.128,6.0
34.221,-1.902,-0.316,1.0
18.801,-1.052,-0.279,0.0
16.938,-0.954,-0.345,0.0
34.209,-1.94,-0.885,0.0
28.378,-1.613,0.052,3.0
34.228,-1.957,-0.125,0.0
22.032,-1.267,-0.201,0.0
18.843,-1.091,-0.278,0.0
16.953,-0.988,-0.343,0.0
15.442,-0.905,-0.397,0.0
28.417,-1.671,0.056,3.0
24.416,-1.444,-0.085,0.0
21.979,-1.308,-0.198,0.0
18.838,-1.128,-0.275,0.0
16.978,-1.023,-0.341,0.0
15.499,-0.94,-0.396,0.0
28.445,-1.728,0.06,6.0
24.679,-1.508,-0.082,0.0
22.116,-1.359,-0.195,0.0
18.906,-1.169,-0.272,0.0
17.073,-1.062,-0.34,0.0
15.553,-0.973,-0.395,0.0
28.351,-1.777,0.066,1.0
25.168,-1.587,-0.079,0.0
22.169,-1.406,-0.191,0.0
18.954,-1.209,-0.269,0.0
17.113,-1.098,-0.337,0.0
15.632,-1.008,-0.393,0.0
28.248,-1.825,0.072,1.0
25.148,-1.634,-0.073,0.0
22.26,-1.454,-0.186,0.0
19.046,-1.251,-0.266,0.0
17.184,-1.135,-0.334,0.0
15.717,-1.044,-0.391,0.0
28.352,-1.886,0.08,0.0
25.529,-1.707,-0.067,0.0
22.407,-1.506,-0.181,0.0
19.21,-1.298,-0.262,0.0
17.241,-1.171,-0.33,0.0
15.637,-1.068,-0.385,0.0
28.683,-1.963,0.09,0.0
25.811,-1.775,-0.059,1.0
22.573,-1.56,-0.176,0.0
19.381,-1.346,-0.259,0.0
17.376,-1.213,-0.327,0.0
15.746,-1.105,-0.382,0.0
33.958,-2.387,0.118,1.0
33.912,-2.395,-0.067,2.0
33.9,-2.406,-0.252,0.0
19.676,-1.403,-0.255,0.0
17.489,-1.253,-0.323,0.0
15.881,-1.144,-0.38,0.0
33.924,-2.447,0.13,1.0
33.907,-2.458,-0.054,2.0
33.875,-2.467,-0.238,1.0
19.904,-1.456,-0.251,0.0
17.677,-1.3,-0.319,0.0
15.963,-1.18,-0.375,0.0
33.958,-2.512,0.145,0.0
33.896,-2.519,-0.039,4.0
33.895,-2.531,-0.224,8.0
20.358,-1.527,-0.248,0.0
17.775,-1.339,-0.313,0.0
16.102,-1.219,-0.371,0.0
29.576,-2.241,0.139,0.0
33.866,-2.577,-0.024,3.0
33.87,-2.589,-0.209,8.0
20.676,-1.588,-0.242,0.0
17.885,-1.379,-0.307,0.0
16.246,-1.259,-0.367,0.0
29.847,-2.314,0.154,0.0
33.868,-2.637,-0.008,1.0
33.861,-2.648,-0.192,5.0
20.779,-1.632,-0.233,1.0
18.066,-1.425,-0.301,0.0
16.432,-1.302,-0.363,0.0
30.268,-2.4,0.172,0.0
33.894,-2.699,0.008,1.0
33.864,-2.708,-0.175,8.0
33.808,-2.715,-0.361,2.0
18.321,-1.477,-0.295,0.0
16.595,-1.344,-0.358,0.0
30.685,-2.487,0.191,0.0
33.879,-2.757,0.027,0.0
33.842,-2.765,-0.156,5.0
33.851,-2.777,-0.343,5.0
18.567,-1.529,-0.289,0.0
16.808,-1.39,-0.352,0.0
31.028,-2.568,0.211,0.0
33.836,-2.811,0.047,1.0
33.84,-2.822,-0.135,4.0
33.83,-2.833,-0.322,3.0
18.876,-1.587,-0.282,0.0
16.977,-1.433,-0.346,0.0
31.791,-2.684,0.236,0.0
28.055,-2.378,0.056,0.0
25.152,-2.14,-0.085,0.0
21.953,-1.874,-0.195,0.0
19.117,-1.639,-0.274,0.0
17.155,-1.476,-0.339,0.0
32.165,-2.769,0.259,0.0
28.277,-2.443,0.075,0.0
25.544,-2.215,-0.07,0.0
22.325,-1.943,-0.184,0.0
19.454,-1.699,-0.266,0.0
17.347,-1.521,-0.331,0.0
32.519,-2.852,0.284,0.0
28.981,-2.55,0.096,0.0
25.688,-2.269,-0.053,0.0
22.826,-2.023,-0.173,1.0
19.694,-1.751,-0.256,0.0
17.563,-1.567,-0.323,0.0
32.799,-2.928,0.309,0.0
29.32,-2.626,0.118,0.0
25.907,-2.328,-0.035,0.0
23.052,-2.079,-0.158,1.0
20.475,-1.853,-0.251,0.0
17.745,-1.611,-0.313,0.0
34.494,-3.134,0.35,0.0
29.66,-2.703,0.141,0.0
26.909,-2.46,-0.017,0.0
23.3,-2.137,-0.143,1.0
20.778,-1.912,-0.239,0.0
18.067,-1.668,-0.305,0.0
0.0,0.0,0.0,0.0
30.438,-2.82,0.168,0.0
27.144,-2.523,0.003,0.0
23.61,-2.201,-0.126,0.0
21.12,-1.975,-0.227,0.0
18.24,-1.712,-0.294,0.0
0.0,0.0,0.0,0.0
31.109,-2.929,0.196,0.0
27.807,-2.626,0.025,0.0
23.566,-2.232,-0.107,0.0
21.549,-2.048,-0.214,0.0
18.89,-1.8,-0.29,0.0
37.559,-3.581,0.47,0.0
31.485,-3.01,0.224,0.0
28.555,-2.738,0.049,1.0
25.114,-2.415,-0.094,0.0
22.243,-2.145,-0.203,1.0
19.254,-1.863,-0.279,0.0
34.607,-3.349,0.462,2.0
32.566,-3.16,0.259,0.0
28.423,-2.766,0.073,0.0
25.345,-2.473,-0.073,0.0
22.691,-2.221,-0.187,1.0
19.496,-1.914,-0.266,0.0
34.593,-3.396,0.491,4.0
32.409,-3.19,0.286,0.0
29.32,-2.894,0.101,0.0
25.845,-2.558,-0.052,0.0
22.783,-2.261,-0.168,0.0
20.077,-1.998,-0.256,0.0
34.192,-3.403,0.516,0.0
33.874,-3.38,0.329,0.0
29.996,-3.001,0.13,1.0
33.967,-3.407,-0.038,1.0
34.048,-3.425,-0.221,0.0
34.011,-3.43,-0.403,2.0
34.175,-3.447,0.547,1.0
34.417,-3.48,0.366,0.0
30.179,-3.059,0.159,0.0
34.009,-3.456,-0.006,2.0
33.971,-3.46,-0.189,1.0
21.08,-2.153,-0.23,0.0
34.121,-3.485,0.578,1.0
34.459,-3.528,0.398,0.0
30.99,-3.18,0.192,1.0
27.597,-2.839,0.02,2.0
24.222,-2.498,-0.112,0.0
21.561,-2.229,-0.215,0.0
34.185,-3.534,0.612,1.0
34.416,-3.566,0.431,0.0
31.416,-3.263,0.225,1.0
28.783,-2.996,0.049,5.0
25.084,-2.617,-0.091,0.0
22.299,-2.332,-0.201,1.0
34.358,-3.594,0.648,1.0
34.447,-3.611,0.465,0.0
32.023,-3.364,0.261,0.0
28.868,-3.039,0.077,8.0
25.687,-2.71,-0.068,0.0
22.322,-2.361,-0.178,3.0
34.935,-3.695,0.694,1.0
34.885,-3.697,0.506,0.0
33.625,-3.571,0.308,0.0
27.702,-2.948,0.102,4.0
26.567,-2.833,-0.044,4.0
23.329,-2.493,-0.163,2.0
36.297,-3.88,0.758,0.0
37.341,-3.999,0.579,0.0
29.572,-3.173,0.301,1.0
27.487,-2.956,0.129,4.0
26.896,-2.898,-0.017,6.0
23.554,-2.543,-0.141,4.0
36.744,-3.968,0.805,0.0
37.297,-4.035,0.617,0.0
29.838,-3.234,0.334,1.0
27.411,-2.976,0.157,5.0
23.637,-2.571,0.009,94.0
23.582,-2.571,-0.116,24.0
37.167,-4.052,0.853,0.0
37.435,-4.089,0.659,0.0
30.806,-3.371,0.377,1.0
27.786,-3.046,0.189,7.0
23.572,-2.589,0.034,160.0
23.605,-2.597,-0.091,70.0
37.962,-4.177,0.912,1.0
0.0,0.0,0.0,0.0
0.0,0.0,0.0,0.0
27.97,-3.093,0.22,6.0
23.589,-2.613,0.059,160.0
23.605,-2.619,-0.066,99.0
0.0,0.0,0.0,0.0
0.0,0.0,0.0,0.0
31.844,-3.546,0.458,1.0
0.0,0.0,0.0,0.0
23.641,-2.641,0.085,150.0
23.622,-2.643,-0.04,152.0
0.0,0.0,0.0,0.0
0.0,0.0,0.0,0.0
0.0,0.0,0.0,0.0
29.388,-3.304,0.295,2.0
26.778,-3.015,0.126,2.0
23.621,-2.664,-0.014,151.0
0.0,0.0,0.0,0.0
0.0,0.0,0.0,0.0
0.0,0.0,0.0,0.0
0.0,0.0,0.0,0.0
27.153,-3.08,0.158,5.0
23.609,-2.682,0.011,12.0
0.0,0.0,0.0,0.0
0.0,0.0,0.0,0.0
0.0,0.0,0.0,0.0
22.155,-2.527,0.272,2.0
27.205,-3.108,0.189,2.0
26.407,-3.021,0.042,4.0
98.517,-11.274,2.912,16.0
22.469,-2.574,0.544,0.0
22.46,-2.576,0.423,2.0
22.141,-2.543,0.297,11.0
22.164,-2.549,0.179,9.0
26.349,-3.034,0.072,16.0
22.413,-2.581,0.688,6.0
22.427,-2.586,0.568,4.0
22.414,-2.587,0.448,12.0
22.131,-2.558,0.322,14.0
22.137,-2.561,0.204,14.0
26.343,-3.052,0.102,10.0
22.269,-2.58,0.709,16.0
22.303,-2.587,0.591,9.0
22.27,-2.586,0.471,12.0
22.13,-2.572,0.348,16.0
22.135,-2.576,0.23,16.0
22.175,-2.584,0.112,15.0
22.249,-2.593,0.734,18.0
22.2,-2.59,0.614,12.0
22.181,-2.59,0.495,11.0
22.124,-2.586,0.373,16.0
22.124,-2.588,0.256,18.0
22.151,-2.594,0.138,18.0
22.233,-2.605,0.76,17.0
22.19,-2.602,0.64,14.0
22.166,-2.602,0.521,11.0
22.12,-2.599,0.4,17.0
22.11,-2.6,0.282,20.0
22.134,-2.605,0.164,18.0
22.188,-2.613,0.785,12.0
22.184,-2.614,0.666,13.0
22.14,-2.611,0.547,13.0
22.12,-2.611,0.426,18.0
22.106,-2.611,0.307,20.0
22.124,-2.616,0.19,18.0
22.155,-2.62,0.81,15.0
22.171,-2.624,0.692,13.0
22.133,-2.621,0.573,15.0
22.118,-2.621,0.452,17.0
22.112,-2.623,0.334,20.0
22.122,-2.626,0.216,19.0
22.15,-2.631,0.836,14.0
22.161,-2.633,0.718,14.0
22.132,-2.632,0.599,16.0
22.129,-2.633,0.479,15.0
22.118,-2.633,0.36,20.0
22.116,-2.635,0.242,18.0
22.089,-2.633,0.861,10.0
22.095,-2.635,0.743,14.0
22.1,-2.637,0.625,14.0
22.138,-2.643,0.506,11.0
22.119,-2.642,0.387,20.0
22.11,-2.643,0.269,18.0
22.033,-2.635,0.885,7.0
22.004,-2.633,0.766,12.0
21.991,-2.632,0.648,12.0
22.125,-2.649,0.532,16.0
22.117,-2.65,0.413,19.0
22.101,-2.649,0.295,19.0
22.017,-2.641,0.91,8.0
21.994,-2.639,0.792,10.0
21.982,-2.638,0.674,18.0
22.123,-2.656,0.558,17.0
22.118,-2.657,0.44,17.0
22.118,-2.658,0.322,18.0
22.009,-2.647,0.937,8.0
22.005,-2.647,0.819,8.0
21.996,-2.646,0.701,23.0
22.12,-2.662,0.584,16.0
22.124,-2.663,0.466,16.0
22.122,-2.664,0.348,17.0
22.003,-2.651,0.963,9.0
21.992,-2.65,0.845,8.0
22.007,-2.653,0.727,28.0
22.087,-2.663,0.61,13.0
22.131,-2.669,0.493,13.0
22.125,-2.669,0.375,17.0
22.01,-2.657,0.989,9.0
21.995,-2.655,0.871,9.0
22.02,-2.658,0.754,26.0
21.984,-2.654,0.633,16.0
22.139,-2.673,0.519,16.0
22.132,-2.673,0.401,19.0
22.02,-2.661,1.016,10.0
21.998,-2.659,0.897,9.0
21.984,-2.657,0.779,17.0
21.963,-2.655,0.659,22.0
22.13,-2.675,0.545,17.0
22.129,-2.675,0.427,18.0
22.013,-2.663,1.042,10.0
22.004,-2.662,0.923,9.0
21.979,-2.659,0.805,10.0
21.992,-2.66,0.685,30.0
22.129,-2.677,0.572,17.0
22.122,-2.676,0.453,16.0
22.018,-2.665,1.068,10.0
21.994,-2.662,0.949,9.0
21.993,-2.661,0.831,9.0
22.0,-2.662,0.711,32.0
22.111,-2.675,0.597,16.0
22.137,-2.678,0.479,14.0
22.014,-2.665,1.094,9.0
21.996,-2.662,0.975,9.0
21.987,-2.661,0.857,9.0
22.005,-2.662,0.737,31.0
22.027,-2.664,0.62,14.0
22.149,-2.679,0.505,15.0
22.034,-2.667,1.12,9.0
21.997,-2.662,1.001,9.0
22.006,-2.662,0.883,9.0
21.978,-2.658,0.762,23.0
21.97,-2.656,0.644,19.0
22.145,-2.677,0.531,17.0
22.028,-2.665,1.145,10.0
22.007,-2.661,1.026,9.0
21.99,-2.658,0.908,9.0
21.988,-2.657,0.787,12.0
21.999,-2.657,0.67,25.0
22.129,-2.672,0.556,18.0
22.029,-2.663,1.171,9.0
22.013,-2.659,1.052,8.0
21.998,-2.656,0.933,9.0
21.998,-2.655,0.813,9.0
22.0,-2.654,0.695,28.0
22.127,-2.668,0.581,17.0
22.035,-2.66,1.197,8.0
22.014,-2.656,1.077,8.0
22.004,-2.653,0.959,8.0
21.996,-2.65,0.838,8.0
22.007,-2.65,0.72,27.0
22.103,-2.661,0.605,15.0
22.052,-2.657,1.222,7.0
22.035,-2.653,1.103,8.0
22.007,-2.648,0.983,8.0
22.002,-2.646,0.863,8.0
21.991,-2.643,0.744,21.0
22.016,-2.644,0.627,14.0
22.054,-2.652,1.248,5.0
22.015,-2.645,1.127,8.0
22.017,-2.643,1.008,7.0
22.014,-2.641,0.888,7.0
22.007,-2.639,0.769,12.0
21.992,-2.635,0.651,14.0
22.125,-2.654,1.276,5.0
22.033,-2.641,1.152,8.0
22.03,-2.638,1.033,6.0
22.029,-2.636,0.913,6.0
22.017,-2.632,0.794,7.0
22.046,-2.634,0.677,12.0
22.139,-2.648,1.301,14.0
22.049,-2.635,1.177,6.0
22.053,-2.633,1.058,7.0
22.048,-2.63,0.937,9.0
22.111,-2.635,0.821,11.0
22.154,-2.638,0.704,14.0
22.136,-2.639,1.325,15.0
22.069,-2.628,1.202,4.0
22.077,-2.627,1.083,12.0
22.118,-2.629,0.964,13.0
22.148,-2.63,0.845,15.0
22.18,-2.632,0.727,17.0
22.186,-2.636,1.351,12.0
22.11,-2.624,1.227,3.0
22.109,-2.621,1.107,16.0
22.133,-2.621,0.987,17.0
22.161,-2.622,0.869,16.0
22.211,-2.625,0.751,15.0
22.211,-2.628,1.375,20.0
22.118,-2.614,1.25,13.0
22.112,-2.61,1.13,18.0
22.133,-2.61,1.01,16.0
22.158,-2.61,0.892,16.0
22.196,-2.612,0.774,12.0
22.215,-2.617,1.398,22.0
22.137,-2.605,1.273,18.0
22.133,-2.601,1.154,20.0
22.14,-2.599,1.032,16.0
22.16,-2.598,0.914,15.0
22.178,-2.597,0.795,12.0
22.206,-2.604,1.42,22.0
22.142,-2.593,1.296,11.0
22.14,-2.589,1.176,21.0
22.143,-2.586,1.054,18.0
22.172,-2.586,0.936,14.0
22.187,-2.585,0.817,12.0
22.196,-2.589,1.441,23.0
22.234,-2.59,1.323,10.0
22.142,-2.576,1.198,19.0
22.139,-2.572,1.075,17.0
22.165,-2.571,0.957,12.0
22.189,-2.571,0.838,11.0
22.189,-2.574,1.462,23.0
22.254,-2.578,1.345,8.0
22.142,-2.561,1.219,11.0
22.149,-2.558,1.097,15.0
22.174,-2.557,0.978,11.0
22.209,-2.558,0.86,11.0
22.184,-2.558,1.482,23.0
22.255,-2.562,1.366,2.0
22.23,-2.556,1.244,4.0
22.168,-2.545,1.118,10.0
22.201,-2.545,1.0,11.0
22.233,-2.544,0.881,10.0
22.188,-2.543,1.503,22.0
22.245,-2.545,1.386,4.0
22.344,-2.552,1.271,1.0
22.231,-2.535,1.141,5.0
22.246,-2.533,1.021,7.0
22.284,-2.533,0.903,3.0
22.191,-2.526,1.523,20.0
22.234,-2.526,1.405,10.0
151.285,-17.163,8.738,8.0
22.32,-2.528,1.165,1.0
22.297,-2.521,1.043,0.0
153.802,-17.363,6.364,5.0
22.211,-2.51,1.543,16.0
22.243,-2.509,1.424,12.0
159.59,-17.974,9.354,15.0
158.794,-17.852,8.429,18.0
164.442,-18.456,7.834,6.0
153.754,-17.227,6.491,5.0
22.238,-2.494,1.564,14.0
22.238,-2.49,1.443,6.0
159.665,-17.845,9.491,18.0
159.219,-17.762,8.581,15.0
159.378,-17.748,7.723,13.0
153.614,-17.077,6.608,6.0
22.249,-2.476,1.583,1.0
22.274,-2.474,1.463,2.0
159.819,-17.719,9.626,15.0
159.199,-17.617,8.706,19.0
159.496,-17.616,7.854,21.0
155.348,-17.127,6.803,5.0
143.374,-15.828,10.311,16.0
174.449,-19.219,11.594,27.0
159.999,-17.592,9.758,15.0
159.295,-17.479,8.83,19.0
159.465,-17.463,7.972,24.0
155.479,-16.994,6.925,5.0
143.106,-15.662,10.4,20.0
174.478,-19.055,11.725,20.0
160.205,-17.459,9.89,9.0
159.454,-17.341,8.955,17.0
159.452,-17.306,8.085,17.0
155.708,-16.866,7.047,11.0
142.837,-15.492,10.482,24.0
174.421,-18.876,11.844,18.0
159.961,-17.273,9.987,14.0
159.713,-17.209,9.082,14.0
159.436,-17.143,8.195,18.0
159.937,-17.161,7.348,15.0
143.063,-15.371,10.597,19.0
142.554,-15.28,9.777,12.0
159.782,-17.089,10.083,12.0
159.358,-17.005,9.168,14.0
159.071,-16.937,8.282,12.0
159.758,-16.975,7.444,18.0
143.175,-15.231,10.699,15.0
142.622,-15.137,9.873,15.0
175.008,-18.53,11.157,6.0
160.113,-16.915,9.312,6.0
158.925,-16.752,8.372,16.0
159.833,-16.809,7.547,17.0
143.124,-15.071,10.784,12.0
142.473,-14.965,9.951,23.0
175.234,-18.361,11.279,20.0
159.894,-16.713,9.398,14.0
158.86,-16.567,8.465,15.0
159.477,-16.592,7.624,17.0
142.936,-14.889,10.857,17.0
142.705,-14.828,10.052,17.0
175.607,-18.2,11.404,22.0
160.216,-16.564,9.508,17.0
158.737,-16.373,8.548,17.0
159.051,-16.367,7.692,16.0
151.893,-15.649,11.62,3.0
143.692,-14.765,10.2,7.0
175.933,-18.031,11.52,21.0
160.252,-16.382,9.596,15.0
158.755,-16.189,8.632,17.0
158.953,-16.17,7.771,14.0
148.376,-15.112,11.428,9.0
143.744,-14.601,10.278,18.0
176.339,-17.864,11.636,17.0
159.924,-16.158,9.656,14.0
158.647,-15.989,8.705,13.0
35.756,-3.594,1.765,1.0
146.982,-14.792,11.393,2.0
143.436,-14.394,10.325,20.0
149.928,-15.005,9.965,11.0
159.921,-15.963,9.73,16.0
158.946,-15.823,8.795,15.0
35.328,-3.507,1.76,0.0
147.121,-14.623,11.471,5.0
143.574,-14.229,10.4,14.0
148.779,-14.703,9.954,10.0
160.312,-15.799,9.825,13.0
160.033,-15.729,8.924,14.0
160.239,-15.704,8.053,3.0
0.0,0.0,0.0,0.0
143.616,-14.05,10.462,9.0
143.893,-14.037,9.685,9.0
159.863,-15.549,9.861,13.0
160.401,-15.557,9.008,12.0
0.0,0.0,0.0,0.0
147.936,-14.321,11.653,3.0
151.724,-14.643,11.11,15.0
177.921,-17.121,12.043,4.0
149.463,-14.339,9.274,15.0
149.737,-14.323,8.463,8.0
150.223,-14.329,7.659,20.0
145.686,-13.909,11.528,3.0
145.982,-13.894,10.739,11.0
151.505,-14.375,10.304,11.0
199.023,-18.826,12.415,13.0
149.622,-14.111,8.504,31.0
150.232,-14.128,7.707,16.0
145.505,-13.695,11.558,13.0
152.912,-14.347,11.295,6.0
147.143,-13.762,10.051,4.0
194.723,-18.156,12.202,5.0
150.313,-13.973,8.585,26.0
169.476,-15.707,8.74,11.0
144.771,-13.428,11.538,13.0
146.192,-13.516,10.836,10.0
209.394,-19.296,14.356,9.0
149.191,-13.704,9.384,9.0
186.324,-17.06,10.686,53.0
169.59,-15.48,8.787,16.0
144.709,-13.218,11.566,23.0
146.175,-13.307,10.868,9.0
148.452,-13.472,10.21,3.0
150.957,-13.653,9.527,4.0
209.151,-18.857,12.039,62.0
169.988,-15.278,8.84,15.0
144.492,-12.994,11.576,21.0
144.629,-12.961,10.781,19.0
147.04,-13.133,10.14,10.0
150.25,-13.374,9.509,14.0
209.145,-18.556,12.073,53.0
186.687,-16.51,9.738,9.0
144.524,-12.79,11.602,19.0
144.712,-12.762,10.807,15.0
146.042,-12.834,10.091,19.0
148.631,-13.018,9.426,12.0
185.381,-16.18,10.724,46.0
151.966,-13.22,7.945,150.0
145.143,-12.632,11.667,15.0
145.132,-12.585,10.855,9.0
146.15,-12.628,10.114,10.0
148.614,-12.796,9.438,14.0
209.152,-17.947,12.118,10.0
151.968,-12.994,7.958,150.0
145.249,-12.425,11.686,8.0
145.458,-12.398,10.887,12.0
145.987,-12.397,10.11,13.0
149.675,-12.661,9.515,21.0
209.273,-17.641,12.134,14.0
151.971,-12.766,7.963,150.0
145.291,-12.208,11.695,12.0
145.293,-12.164,10.879,13.0
146.384,-12.21,10.14,5.0
149.387,-12.413,9.498,11.0
200.111,-16.567,11.604,14.0
200.19,-16.512,10.49,35.0
145.458,-12.0,11.707,6.0
145.264,-11.939,10.876,10.0
149.895,-12.273,10.381,26.0
208.459,-17.005,13.246,19.0
0.0,0.0,0.0,0.0
200.256,-16.212,10.486,135.0
145.495,-11.78,11.702,11.0
150.124,-12.106,11.23,4.0
148.638,-11.94,10.283,12.0
208.524,-16.684,13.237,18.0
195.372,-15.573,11.306,5.0
200.197,-15.896,10.465,12.0
147.181,-11.686,11.825,9.0
146.564,-11.591,10.95,11.0
155.338,-12.235,10.731,11.0
208.637,-16.367,13.22,10.0
194.536,-15.2,11.234,8.0
200.33,-15.593,10.447,5.0
147.769,-11.5,11.852,11.0
148.608,-11.517,11.081,3.0
155.067,-11.969,10.69,7.0
154.424,-11.872,9.761,3.0
190.248,-14.566,10.956,12.0
193.408,-14.748,10.053,5.0
148.03,-11.285,11.847,4.0
122.238,-9.28,9.092,5.0
122.613,-9.27,8.429,3.0
0.0,0.0,0.0,0.0
190.402,-14.279,10.927,8.0
0.0,0.0,0.0,0.0
150.084,-11.204,11.979,4.0
122.315,-9.092,9.071,14.0
122.613,-9.076,8.402,11.0
154.568,-11.392,9.704,13.0
189.699,-13.922,10.841,6.0
0.0,0.0,0.0,0.0
87.844,-6.416,6.988,4.0
122.292,-8.893,9.037,5.0
122.513,-8.871,8.361,12.0
154.987,-11.173,9.686,12.0
189.945,-13.636,10.802,14.0
191.887,-13.715,9.831,4.0
88.035,-6.288,6.976,13.0
121.968,-8.672,8.974,8.0
122.482,-8.669,8.321,15.0
154.438,-10.881,9.603,5.0
189.267,-13.278,10.7,16.0
0.0,0.0,0.0,0.0
88.115,-6.149,6.952,19.0
119.776,-8.321,8.772,11.0
122.12,-8.444,8.251,17.0
91.265,-6.281,5.641,12.0
121.152,-8.301,6.803,5.0
157.0,-10.709,7.932,6.0
88.218,-6.011,6.926,12.0
119.431,-8.101,8.698,10.0
121.581,-8.209,8.167,13.0
91.322,-6.137,5.607,7.0
189.113,-12.651,10.542,10.0
0.0,0.0,0.0,0.0
88.319,-5.875,6.896,8.0
119.562,-7.916,8.656,8.0
121.775,-8.023,8.126,15.0
89.147,-5.846,5.434,15.0
156.962,-10.244,8.679,30.0
35.243,-2.289,1.749,0.0
88.154,-5.718,6.842,26.0
119.589,-7.72,8.601,13.0
88.931,-5.712,5.89,13.0
91.874,-5.873,5.556,7.0
92.118,-5.861,5.048,4.0
35.141,-2.225,1.727,0.0
87.832,-5.554,6.772,14.0
111.455,-7.013,7.958,7.0
89.081,-5.576,5.855,9.0
120.787,-7.524,7.24,4.0
188.131,-11.661,10.209,8.0
0.0,0.0,0.0,0.0
87.938,-5.416,6.731,19.0
111.499,-6.832,7.899,15.0
89.251,-5.44,5.814,11.0
92.042,-5.582,5.464,9.0
122.715,-7.404,6.588,7.0
188.47,-11.316,9.049,4.0
88.588,-5.309,6.728,10.0
91.362,-5.447,6.417,13.0
91.323,-5.416,5.894,17.0
111.791,-6.595,6.567,7.0
122.778,-7.205,6.516,8.0
188.7,-11.016,8.942,5.0
88.622,-5.164,6.673,12.0
91.701,-5.314,6.381,3.0
91.648,-5.283,5.855,19.0
122.525,-7.026,7.117,7.0
122.563,-6.99,6.422,7.0
188.414,-10.689,8.801,7.0
94.354,-5.341,7.04,6.0
89.574,-5.042,6.171,12.0
92.288,-5.166,5.831,16.0
119.605,-6.66,6.864,6.0
122.735,-6.797,6.344,7.0
0.0,0.0,0.0,0.0
90.24,-4.959,6.668,9.0
87.731,-4.793,5.98,9.0
92.229,-5.011,5.76,14.0
119.319,-6.448,6.758,17.0
119.25,-6.409,6.076,15.0
188.682,-10.084,8.538,7.0
88.385,-4.712,6.463,15.0
89.609,-4.75,6.04,13.0
112.085,-5.906,6.913,9.0
112.022,-5.869,6.259,8.0
189.153,-9.856,9.489,18.0
0.0,0.0,0.0,0.0
88.077,-4.549,6.369,13.0
91.979,-4.722,6.123,15.0
111.691,-5.702,6.798,19.0
124.088,-6.298,6.83,3.0
189.426,-9.558,9.344,8.0
0.0,0.0,0.0,0.0
88.471,-4.423,6.322,20.0
91.352,-4.54,6.004,13.0
90.551,-4.473,5.432,8.0
112.596,-5.528,6.1,8.0
194.425,-9.488,9.421,7.0
0.0,0.0,0.0,0.0
88.341,-4.272,6.234,23.0
91.135,-4.38,5.908,17.0
112.714,-5.383,6.66,8.0
112.381,-5.334,5.985,15.0
164.355,-7.753,7.815,24.0
0.0,0.0,0.0,0.0
89.231,-4.17,6.213,19.0
90.464,-4.199,5.779,17.0
98.526,-4.545,5.729,16.0
111.711,-5.121,5.844,18.0
164.318,-7.487,7.658,6.0
93.305,-4.224,3.814,1.0
90.734,-4.092,6.23,16.0
97.816,-4.384,6.155,19.0
98.684,-4.395,5.643,11.0
120.271,-5.321,6.176,12.0
120.368,-5.29,5.491,10.0
92.571,-4.042,3.692,1.0
98.001,-4.262,6.63,10.0
98.092,-4.238,6.073,13.0
89.976,-3.861,5.053,15.0
120.198,-5.123,6.048,17.0
120.24,-5.092,5.36,9.0
92.251,-3.88,3.584,12.0
88.359,-3.701,5.885,28.0
89.871,-3.738,5.468,11.0
90.189,-3.726,4.97,31.0
113.441,-4.655,5.588,12.0
0.0,0.0,0.0,0.0
92.176,-3.731,3.482,41.0
88.309,-3.557,5.785,21.0
90.039,-3.601,5.38,18.0
98.22,-3.901,5.304,19.0
195.115,-7.696,9.396,14.0
0.0,0.0,0.0,0.0
92.141,-3.584,3.378,57.0
89.568,-3.465,5.766,25.0
99.024,-3.803,5.805,18.0
113.305,-4.321,5.989,36.0
113.403,-4.293,5.33,35.0
92.212,-3.465,3.803,13.0
92.169,-3.438,3.273,147.0
98.038,-3.637,6.196,19.0
113.262,-4.171,6.505,16.0
113.42,-4.145,5.86,14.0
190.071,-6.895,8.708,6.0
92.21,-3.319,3.694,37.0
92.125,-3.291,3.16,39.0
99.089,-3.52,6.142,21.0
130.995,-4.617,7.363,26.0
190.292,-6.658,9.601,19.0
93.382,-3.242,4.164,1.0
92.241,-3.178,3.583,151.0
92.22,-3.154,3.051,13.0
98.952,-3.362,6.011,19.0
190.463,-6.42,10.469,7.0
190.514,-6.373,9.375,9.0
93.48,-3.102,4.051,1.0
92.258,-3.037,3.467,161.0
92.937,-3.036,2.958,6.0
111.005,-3.602,6.601,7.0
189.841,-6.112,10.193,20.0
190.055,-6.068,9.108,20.0
0.0,0.0,0.0,0.0
92.232,-2.897,3.347,39.0
95.945,-2.989,2.928,1.0
111.111,-3.438,6.462,8.0
189.491,-5.815,9.925,12.0
189.957,-5.779,8.851,20.0
92.366,-2.787,3.762,12.0
92.27,-2.76,3.226,150.0
0.0,0.0,0.0,0.0
97.089,-2.858,5.515,19.0
189.593,-5.533,9.673,19.0
189.971,-5.497,8.595,21.0
92.369,-2.649,3.635,12.0
92.325,-2.624,3.101,150.0
0.0,0.0,0.0,0.0
88.435,-2.472,4.9,25.0
189.582,-5.251,9.407,21.0
190.109,-5.218,8.335,21.0
92.434,-2.513,3.508,10.0
92.529,-2.494,2.978,4.0
0.0,0.0,0.0,0.0
88.406,-2.341,4.773,10.0
171.767,-4.508,8.279,16.0
171.628,-4.461,7.278,18.0
166.029,-4.277,6.066,150.0
96.734,-2.468,2.975,2.0
0.0,0.0,0.0,0.0
96.802,-2.425,5.086,22.0
171.693,-4.258,8.025,32.0
125.431,-3.081,5.137,32.0
128.293,-3.12,4.498,13.0
93.04,-2.241,2.725,1.0
0.0,0.0,0.0,0.0
96.793,-2.287,4.941,37.0
96.895,-2.267,4.385,26.0
125.356,-2.904,4.948,37.0
96.845,-2.22,3.251,1.0
0.0,0.0,0.0,0.0
0.0,0.0,0.0,0.0
96.855,-2.153,4.797,33.0
96.886,-2.131,4.236,48.0
96.97,-2.111,3.679,21.0
96.823,-2.086,3.103,7.0
0.0,0.0,0.0,0.0
0.0,0.0,0.0,0.0
190.03,-3.962,9.117,21.0
96.917,-1.999,4.087,34.0
96.951,-1.978,3.528,40.0
90.323,-1.822,2.754,1.0
0.0,0.0,0.0,0.0
0.0,0.0,0.0,0.0
189.883,-3.7,8.807,20.0
97.052,-1.869,3.938,5.0
96.957,-1.846,3.372,37.0
89.006,-1.675,2.571,1.0
0.0,0.0,0.0,0.0
0.0,0.0,0.0,0.0
193.378,-3.513,8.66,8.0
0.0,0.0,0.0,0.0
96.937,-1.719,3.216,16.0
0.0,0.0,0.0,0.0
0.0,0.0,0.0,0.0
0.0,0.0,0.0,0.0
193.762,-3.267,8.359,15.0
0.0,0.0,0.0,0.0
96.746,-1.59,3.05,3.0
63.809,-1.034,1.635,0.0
47.73,-0.764,0.946,0.0
38.287,-0.605,0.537,0.0
168.552,-2.628,6.992,3.0
171.179,-2.632,6.105,6.0
87.082,-1.32,2.6,1.0
64.088,-0.958,1.535,0.0
0.0,0.0,0.0,0.0
0.0,0.0,0.0,0.0
171.374,-2.456,6.817,5.0
0.0,0.0,0.0,0.0
85.892,-1.196,2.419,1.0
0.0,0.0,0.0,0.0
0.0,0.0,0.0,0.0
33.957,-0.452,0.361,0.0
171.285,-2.245,6.519,6.0
90.639,-1.169,2.922,7.0
0.0,0.0,0.0,0.0
0.0,0.0,0.0,0.0
0.0,0.0,0.0,0.0
32.739,-0.396,0.291,1.0
90.635,-1.079,3.289,49.0
90.077,-1.055,2.746,2.0
0.0,0.0,0.0,0.0
0.0,0.0,0.0,0.0
0.0,0.0,0.0,0.0
31.577,-0.345,0.225,1.0
90.595,-0.973,3.128,34.0
83.44,-0.88,2.396,1.0
0.0,0.0,0.0,0.0
0.0,0.0,0.0,0.0
34.197,-0.341,0.381,0.0
28.843,-0.282,0.154,1.0
90.541,-0.868,2.962,26.0
0.0,0.0,0.0,0.0
0.0,0.0,0.0,0.0
39.644,-0.358,0.601,0.0
32.898,-0.291,0.308,1.0
28.759,-0.25,0.102,5.0
90.352,-0.767,2.793,3.0
0.0,0.0,0.0,0.0
0.0,0.0,0.0,0.0
0.0,0.0,0.0,0.0
31.733,-0.247,0.239,2.0
28.321,-0.215,0.048,1.0
82.078,-0.609,2.387,5.0
0.0,0.0,0.0,0.0
43.769,-0.309,0.763,0.0
35.767,-0.247,0.412,0.0
28.879,-0.194,0.164,1.0
26.773,-0.175,-0.002,0.0
81.014,-0.517,2.206,1.0
0.0,0.0,0.0,0.0
41.227,-0.249,0.642,0.0
33.111,-0.194,0.319,0.0
28.78,-0.164,0.11,7.0
25.49,-0.141,-0.05,0.0
63.823,-0.342,1.618,0.0
0.0,0.0,0.0,0.0
0.0,0.0,0.0,0.0
31.777,-0.155,0.247,1.0
28.543,-0.134,0.055,1.0
24.775,-0.112,-0.095,0.0
57.638,-0.252,1.351,0.0
43.455,-0.183,0.765,0.0
35.599,-0.144,0.419,0.0
28.977,-0.113,0.17,0.0
27.015,-0.101,0.001,0.0
23.783,-0.085,-0.137,0.0
0.0,0.0,0.0,0.0
0.0,0.0,0.0,0.0
33.197,-0.103,0.327,1.0
28.78,-0.085,0.113,7.0
25.728,-0.072,-0.048,0.0
22.591,-0.06,-0.173,0.0
0.0,0.0,0.0,0.0
37.996,-0.089,0.522,0.0
31.651,-0.07,0.25,0.0
28.35,-0.058,0.056,1.0
24.775,-0.047,-0.094,0.0
21.39,-0.037,-0.206,2.0
9.603,-0.692,-0.64,0.0
9.117,-0.657,-0.656,0.0
8.661,-0.625,-0.669,0.0
8.376,-0.604,-0.692,0.0
0.0,0.0,0.0,0.0
0.0,0.0,0.0,0.0
9.733,-0.701,-0.634,0.0
9.235,-0.665,-0.65,0.0
8.807,-0.634,-0.667,0.0
8.476,-0.611,-0.687,0.0
8.123,-0.585,-0.702,0.0
0.0,0.0,0.0,0.0
9.798,-0.704,-0.624,0.0
0.0,0.0,0.0,0.0
8.964,-0.644,-0.665,0.0
8.582,-0.617,-0.683,0.0
8.27,-0.595,-0.702,0.0
7.938,-0.571,-0.716,0.0
10.015,-0.718,-0.622,0.0
0.0,0.0,0.0,0.0
9.085,-0.652,-0.66,0.0
0.0,0.0,0.0,0.0
8.365,-0.6,-0.697,0.0
8.002,-0.574,-0.709,0.0
10.054,-0.719,-0.609,0.0
9.689,-0.693,-0.638,0.0
9.177,-0.656,-0.653,0.0
0.0,0.0,0.0,0.0
8.413,-0.602,-0.688,0.0
8.135,-0.582,-0.708,0.0
10.295,-0.734,-0.608,0.0
9.812,-0.699,-0.631,0.0
0.0,0.0,0.0,0.0
0.0,0.0,0.0,0.0
8.553,-0.609,-0.686,0.0
8.177,-0.582,-0.699,0.0
10.435,-0.741,-0.6,0.0
9.92,-0.704,-0.622,0.0
0.0,0.0,0.0,0.0
0.0,0.0,0.0,0.0
8.663,-0.614,-0.681,0.0
8.304,-0.589,-0.697,0.0
10.671,-0.755,-0.597,0.0
10.155,-0.718,-0.621,0.0
0.0,0.0,0.0,0.0
0.0,0.0,0.0,0.0
8.747,-0.617,-0.674,0.0
8.35,-0.589,-0.687,0.0
10.878,-0.765,-0.591,0.0
10.317,-0.725,-0.615,0.0
9.686,-0.68,-0.628,0.0
9.295,-0.653,-0.652,0.0
8.845,-0.621,-0.667,0.0
8.487,-0.595,-0.685,0.0
11.043,-0.772,-0.583,0.0
10.448,-0.73,-0.606,0.0
0.0,0.0,0.0,0.0
0.0,0.0,0.0,0.0
8.999,-0.627,-0.665,0.0
8.591,-0.599,-0.68,0.0
11.237,-0.781,-0.575,0.0
10.644,-0.739,-0.6,0.0
10.031,-0.696,-0.618,0.0
0.0,0.0,0.0,0.0
9.107,-0.631,-0.658,0.0
8.727,-0.604,-0.677,0.0
11.395,-0.786,-0.565,0.0
10.819,-0.746,-0.593,0.0
10.243,-0.705,-0.615,0.0
0.0,0.0,0.0,0.0
9.262,-0.636,-0.655,0.0
