X,Y,Z,Reflectivity
18.456,0.826,-0.296,0.0
16.808,0.757,-0.364,0.0
30.29,1.378,0.174,0.0
26.785,1.226,0.004,1.0
23.421,1.079,-0.128,0.0
20.957,0.971,-0.234,0.0
18.247,0.851,-0.307,0.0
16.643,0.781,-0.373,0.0
29.938,1.418,0.15,0.0
26.366,1.256,-0.016,0.0
23.155,1.11,-0.144,0.0
20.376,0.983,-0.243,0.0
18.053,0.876,-0.317,1.0
16.44,0.802,-0.382,0.0
29.391,1.448,0.123,0.0
25.974,1.287,-0.036,0.0
22.882,1.14,-0.161,0.0
20.051,1.004,-0.256,0.0
17.821,0.898,-0.328,0.0
16.162,0.819,-0.388,0.0
28.802,1.472,0.097,0.0
25.589,1.315,-0.057,1.0
22.337,1.153,-0.175,0.0
19.592,1.017,-0.266,0.0
17.404,0.908,-0.335,0.0
15.986,0.839,-0.398,0.0
28.229,1.494,0.071,0.0
25.049,1.332,-0.077,0.0
21.921,1.172,-0.191,2.0
19.315,1.038,-0.279,0.0
17.137,0.925,-0.345,0.0
15.804,0.858,-0.407,0.0
27.684,1.515,0.045,0.0
24.577,1.351,-0.098,0.0
21.671,1.197,-0.208,3.0
18.711,1.039,-0.287,0.0
16.887,0.942,-0.355,0.0
15.615,0.875,-0.416,0.0
27.104,1.531,0.02,0.0
24.196,1.373,-0.118,0.0
21.426,1.221,-0.226,2.0
18.465,1.057,-0.301,0.0
16.745,0.963,-0.367,0.0
15.425,0.892,-0.426,0.0
26.494,1.543,-0.005,0.0
23.399,1.368,-0.137,0.0
20.929,1.229,-0.24,0.0
18.184,1.073,-0.314,0.0
16.506,0.978,-0.378,0.0
15.13,0.9,-0.432,0.0
25.955,1.556,-0.03,0.0
22.982,1.383,-0.156,0.0
20.309,1.227,-0.253,0.0
17.82,1.082,-0.325,0.0
16.189,0.986,-0.387,0.0
14.924,0.913,-0.441,0.0
25.443,1.568,-0.055,0.0
22.488,1.391,-0.176,0.0
19.626,1.219,-0.264,0.0
17.478,1.09,-0.336,0.0
15.972,1.0,-0.398,0.0
14.72,0.925,-0.45,0.0
24.923,1.577,-0.079,0.0
22.03,1.399,-0.195,0.0
19.123,1.219,-0.277,0.0
17.122,1.096,-0.347,0.0
15.738,1.011,-0.408,0.0
14.405,0.929,-0.456,0.0
24.383,1.582,-0.103,0.0
21.518,1.402,-0.213,0.0
18.709,1.223,-0.291,0.0
16.858,1.106,-0.36,0.0
15.528,1.023,-0.419,0.0
14.208,0.939,-0.464,0.0
24.037,1.598,-0.127,1.0
20.83,1.39,-0.228,0.0
18.409,1.232,-0.306,0.0
16.611,1.116,-0.372,0.0
15.227,1.026,-0.428,0.0
14.041,0.95,-0.474,0.0
23.257,1.582,-0.148,0.0
20.366,1.39,-0.246,0.0
17.898,1.226,-0.318,0.0
16.317,1.121,-0.384,0.0
15.028,1.036,-0.439,0.0
13.885,0.96,-0.484,0.0
22.655,1.576,-0.17,0.0
19.718,1.376,-0.26,0.0
17.524,1.227,-0.331,0.0
15.996,1.123,-0.394,0.0
14.773,1.041,-0.448,0.0
13.628,0.963,-0.491,0.0
21.972,1.561,-0.19,0.0
19.227,1.37,-0.276,0.0
17.222,1.231,-0.345,0.0
15.79,1.132,-0.407,0.0
14.515,1.044,-0.457,0.0
13.492,0.973,-0.502,0.0
21.484,1.558,-0.211,0.0
18.644,1.356,-0.289,0.0
16.852,1.229,-0.357,0.0
15.6,1.141,-0.421,0.0
14.27,1.047,-0.466,0.0
13.295,0.978,-0.51,0.0
20.922,1.547,-0.23,0.0
18.273,1.355,-0.305,0.0
16.654,1.238,-0.373,0.0
15.212,1.134,-0.429,0.0
14.013,1.047,-0.475,0.0
13.111,0.983,-0.519,0.0
20.413,1.537,-0.249,0.0
17.905,1.352,-0.32,0.0
16.237,1.229,-0.383,0.0
14.992,1.138,-0.441,0.0
13.735,1.046,-0.482,0.0
12.857,0.981,-0.525,0.0
19.456,1.491,-0.261,0.0
17.489,1.344,-0.334,0.0
15.947,1.229,-0.396,0.0
14.661,1.132,-0.449,0.0
13.626,1.055,-0.495,0.0
12.657,0.983,-0.532,0.0
19.126,1.491,-0.28,0.0
17.12,1.338,-0.349,0.0
15.689,1.229,-0.409,0.0
14.45,1.135,-0.461,0.0
13.395,1.054,-0.504,0.0
12.523,0.988,-0.542,0.0
18.494,1.465,-0.294,0.0
16.794,1.333,-0.363,0.0
15.476,1.232,-0.423,0.0
14.136,1.127,-0.468,0.0
13.22,1.057,-0.514,0.0
12.401,0.994,-0.553,0.0
18.136,1.459,-0.312,0.0
16.428,1.324,-0.376,0.0
14.978,1.21,-0.428,0.0
13.886,1.124,-0.478,0.0
12.981,1.054,-0.521,0.0
12.209,0.993,-0.56,0.0
17.677,1.443,-0.327,0.0
16.105,1.317,-0.39,0.0
14.818,1.215,-0.443,0.0
13.622,1.119,-0.486,0.0
12.767,1.051,-0.529,0.0
12.017,0.992,-0.567,0.0
17.266,1.429,-0.341,0.0
15.775,1.308,-0.402,0.0
14.537,1.208,-0.453,0.0
13.439,1.119,-0.497,0.0
12.577,1.05,-0.538,0.0
11.834,0.99,-0.574,0.0
16.962,1.423,-0.358,0.0
15.581,1.309,-0.417,0.0
14.209,1.196,-0.462,0.0
13.352,1.126,-0.512,0.0
12.425,1.05,-0.548,0.0
11.629,0.985,-0.579,0.0
16.623,1.412,-0.372,0.0
15.19,1.293,-0.427,0.0
13.963,1.19,-0.473,0.0
13.008,1.111,-0.516,0.0
12.235,1.047,-0.556,0.0
11.412,0.979,-0.584,0.0
16.22,1.395,-0.385,0.0
14.971,1.29,-0.441,0.0
13.749,1.186,-0.484,0.0
12.823,1.108,-0.526,0.0
12.094,1.047,-0.566,0.0
11.316,0.982,-0.594,0.0
15.891,1.382,-0.399,0.0
14.675,1.278,-0.453,0.0
13.595,1.186,-0.497,0.0
12.605,1.102,-0.535,0.0
11.885,1.041,-0.572,0.0
11.145,0.978,-0.601,0.0
15.634,1.375,-0.414,0.0
14.34,1.263,-0.462,0.0
13.326,1.175,-0.506,0.0
12.446,1.1,-0.545,0.0
11.708,1.036,-0.58,0.0
10.96,0.972,-0.606,0.0
15.23,1.353,-0.424,0.0
14.066,1.251,-0.473,0.0
13.135,1.17,-0.517,0.0
12.261,1.094,-0.554,0.0
11.511,1.029,-0.586,0.0
10.816,0.968,-0.613,0.0
14.926,1.339,-0.437,0.0
13.777,1.237,-0.482,0.0
12.964,1.166,-0.528,0.0
12.097,1.09,-0.563,0.0
11.325,1.022,-0.592,0.0
10.729,0.969,-0.623,0.0
14.703,1.331,-0.45,0.0
13.61,1.233,-0.495,0.0
12.674,1.15,-0.533,0.0
11.869,1.078,-0.569,0.0
11.172,1.017,-0.6,0.0
10.579,0.964,-0.629,0.0
14.381,1.313,-0.46,0.0
13.367,1.221,-0.504,0.0
12.483,1.142,-0.543,0.0
11.693,1.071,-0.577,0.0
10.99,1.008,-0.605,0.0
10.441,0.959,-0.635,0.0
14.103,1.297,-0.471,0.0
13.108,1.207,-0.513,0.0
12.273,1.132,-0.551,0.0
11.511,1.063,-0.584,0.0
10.855,1.004,-0.613,0.0
10.338,0.957,-0.643,0.0
13.869,1.285,-0.482,0.0
12.896,1.196,-0.522,0.0
12.094,1.123,-0.559,0.0
11.325,1.053,-0.59,0.0
10.735,1.0,-0.621,0.0
10.157,0.947,-0.646,0.0
13.591,1.268,-0.491,0.0
12.68,1.184,-0.531,0.0
11.917,1.114,-0.568,0.0
11.187,1.047,-0.598,0.0
10.59,0.993,-0.628,0.0
9.958,0.934,-0.648,0.0
13.365,1.255,-0.502,0.0
12.467,1.172,-0.54,0.0
11.723,1.103,-0.575,0.0
10.976,1.034,-0.603,0.0
10.455,0.986,-0.634,0.0
9.854,0.93,-0.655,0.0
13.2,1.247,-0.514,0.0
12.388,1.171,-0.554,0.0
11.529,1.091,-0.582,0.0
10.87,1.03,-0.612,0.0
10.259,0.973,-0.637,0.0
9.743,0.925,-0.661,0.0
12.934,1.228,-0.522,0.0
12.124,1.152,-0.559,0.0
11.402,1.084,-0.591,0.0
10.732,1.022,-0.619,0.0
10.109,0.963,-0.641,0.0
9.583,0.914,-0.663,0.0
12.692,1.211,-0.53,0.0
11.946,1.141,-0.567,0.0
11.154,1.066,-0.594,0.0
10.606,1.014,-0.627,0.0
10.008,0.958,-0.649,0.0
9.493,0.91,-0.67,0.0
12.511,1.199,-0.539,0.0
11.705,1.122,-0.572,0.0
11.031,1.059,-0.603,0.0
10.413,1.0,-0.63,0.0
9.831,0.945,-0.651,0.0
9.355,0.9,-0.674,0.0
12.384,1.191,-0.551,0.0
11.536,1.11,-0.58,0.0
10.855,1.046,-0.608,0.0
10.331,0.996,-0.639,0.0
9.715,0.937,-0.657,0.0
9.237,0.892,-0.678,0.0
12.135,1.171,-0.557,0.0
11.401,1.101,-0.589,0.0
10.739,1.038,-0.616,0.0
10.121,0.979,-0.64,0.0
9.6,0.929,-0.662,0.0
0.0,0.0,0.0,0.0
11.994,1.161,-0.566,0.0
11.182,1.083,-0.592,0.0
10.627,1.03,-0.624,0.0
10.028,0.973,-0.648,0.0
9.51,0.923,-0.669,0.0
0.0,0.0,0.0,0.0
11.748,1.14,-0.571,0.0
11.075,1.075,-0.602,0.0
10.523,1.022,-0.632,0.0
9.888,0.961,-0.652,0.0
9.369,0.911,-0.672,0.0
8.924,0.869,-0.692,0.0
11.566,1.124,-0.578,0.0
10.912,1.061,-0.608,0.0
10.342,1.006,-0.635,0.0
9.759,0.95,-0.657,0.0
9.233,0.9,-0.675,0.0
8.797,0.858,-0.694,0.0
11.411,1.111,-0.585,0.0
10.799,1.052,-0.616,0.0
10.139,0.988,-0.637,0.0
9.641,0.94,-0.662,0.0
0.0,0.0,0.0,0.0
8.71,0.85,-0.699,0.0
11.252,1.097,-0.592,0.0
10.641,1.037,-0.621,0.0
10.035,0.979,-0.643,0.0
9.503,0.927,-0.665,0.0
0.0,0.0,0.0,0.0
8.587,0.839,-0.7,0.0
11.087,1.081,-0.598,0.0
10.483,1.023,-0.626,0.0
9.878,0.964,-0.646,0.0
9.422,0.92,-0.672,0.0
0.0,0.0,0.0,0.0
8.587,0.839,-0.712,0.0
10.935,1.067,-0.604,0.0
10.357,1.01,-0.632,0.0
9.8,0.956,-0.654,0.0
9.291,0.907,-0.675,0.0
8.852,0.865,-0.694,0.0
8.477,0.828,-0.714,0.0
10.839,1.057,-0.613,0.0
10.186,0.993,-0.634,0.0
9.675,0.944,-0.658,0.0
0.0,0.0,0.0,0.0
8.764,0.855,-0.698,0.0
8.386,0.819,-0.717,0.0
10.701,1.043,-0.618,0.0
10.123,0.987,-0.643,0.0
9.538,0.93,-0.661,0.0
0.0,0.0,0.0,0.0
0.0,0.0,0.0,0.0
8.307,0.81,-0.721,0.0
10.53,1.025,-0.622,0.0
9.998,0.973,-0.648,0.0
9.49,0.924,-0.67,0.0
0.0,0.0,0.0,0.0
8.627,0.84,-0.709,0.0
8.217,0.8,-0.723,0.0
10.414,1.012,-0.628,0.0
9.827,0.955,-0.649,0.0
9.38,0.912,-0.674,0.0
0.0,0.0,0.0,0.0
8.544,0.831,-0.713,0.0
8.132,0.791,-0.726,0.0
10.301,0.999,-0.634,0.0
9.746,0.945,-0.656,0.0
0.0,0.0,0.0,0.0
0.0,0.0,0.0,0.0
8.376,0.812,-0.709,0.0
8.093,0.785,-0.732,0.0
10.167,0.983,-0.638,0.0
9.618,0.93,-0.659,0.0
0.0,0.0,0.0,0.0
0.0,0.0,0.0,0.0
8.362,0.809,-0.718,0.0
7.988,0.773,-0.732,0.0
10.067,0.971,-0.643,0.0
9.474,0.914,-0.66,0.0
0.0,0.0,0.0,0.0
0.0,0.0,0.0,0.0
8.313,0.802,-0.724,0.0
0.0,0.0,0.0,0.0
9.983,0.96,-0.649,0.0
9.403,0.904,-0.666,0.0
0.0,0.0,0.0,0.0
0.0,0.0,0.0,0.0
8.218,0.79,-0.725,0.0
0.0,0.0,0.0,0.0
9.824,0.941,-0.65,0.0
9.369,0.897,-0.674,0.0
0.0,0.0,0.0,0.0
0.0,0.0,0.0,0.0
8.129,0.778,-0.726,0.0
0.0,0.0,0.0,0.0
9.745,0.929,-0.656,0.0
0.0,0.0,0.0,0.0
8.805,0.839,-0.694,0.0
8.425,0.803,-0.713,0.0
8.082,0.77,-0.731,0.0
0.0,0.0,0.0,0.0
9.639,0.915,-0.659,0.0
0.0,0.0,0.0,0.0
8.729,0.828,-0.697,0.0
8.314,0.788,-0.713,0.0
0.0,0.0,0.0,0.0
7.649,0.725,-0.744,0.0
9.545,0.901,-0.663,0.0
0.0,0.0,0.0,0.0
8.652,0.816,-0.7,0.0
8.333,0.786,-0.723,0.0
0.0,0.0,0.0,0.0
7.624,0.719,-0.75,0.0
9.469,0.889,-0.668,0.0
0.0,0.0,0.0,0.0
8.542,0.802,-0.7,0.0
8.193,0.769,-0.719,0.0
0.0,0.0,0.0,0.0
7.529,0.706,-0.748,0.0
9.377,0.875,-0.67,0.0
0.0,0.0,0.0,0.0
8.446,0.788,-0.701,0.0
8.086,0.754,-0.718,0.0
0.0,0.0,0.0,0.0
7.468,0.696,-0.749,0.0
9.251,0.858,-0.671,0.0
8.876,0.823,-0.694,0.0
0.0,0.0,0.0,0.0
8.108,0.751,-0.728,0.0
0.0,0.0,0.0,0.0
7.418,0.686,-0.752,0.0
9.235,0.851,-0.678,0.0
8.781,0.809,-0.695,0.0
8.372,0.77,-0.711,0.0
0.0,0.0,0.0,0.0
0.0,0.0,0.0,0.0
7.369,0.677,-0.754,0.0
9.068,0.83,-0.674,0.0
8.688,0.794,-0.696,0.0
8.382,0.766,-0.719,0.0
0.0,0.0,0.0,0.0
0.0,0.0,0.0,0.0
7.335,0.669,-0.757,0.0
9.048,0.821,-0.681,0.0
8.715,0.79,-0.706,0.0
8.266,0.749,-0.717,0.0
0.0,0.0,0.0,0.0
0.0,0.0,0.0,0.0
7.27,0.658,-0.757,0.0
8.939,0.805,-0.681,0.0
0.0,0.0,0.0,0.0
8.219,0.739,-0.72,0.0
0.0,0.0,0.0,0.0
7.542,0.677,-0.748,0.0
7.25,0.65,-0.761,0.0
8.855,0.79,-0.681,0.0
8.519,0.76,-0.704,0.0
8.169,0.728,-0.722,0.0
0.0,0.0,0.0,0.0
7.484,0.666,-0.748,0.0
7.184,0.639,-0.76,0.0
8.879,0.786,-0.69,0.0
8.468,0.748,-0.707,0.0
8.136,0.718,-0.726,0.0
0.0,0.0,0.0,0.0
7.447,0.656,-0.75,0.0
0.0,0.0,0.0,0.0
8.771,0.769,-0.689,0.0
8.422,0.737,-0.709,0.0
0.0,0.0,0.0,0.0
0.0,0.0,0.0,0.0
7.408,0.647,-0.752,0.0
7.092,0.619,-0.761,0.0
8.765,0.761,-0.695,0.0
8.359,0.725,-0.71,0.0
0.0,0.0,0.0,0.0
0.0,0.0,0.0,0.0
7.36,0.636,-0.752,0.0
7.086,0.612,-0.765,0.0
8.683,0.746,-0.694,0.0
8.359,0.717,-0.716,0.0
0.0,0.0,0.0,0.0
0.0,0.0,0.0,0.0
7.336,0.627,-0.755,0.0
7.016,0.599,-0.762,0.0
8.661,0.736,-0.698,0.0
8.343,0.708,-0.72,0.0
0.0,0.0,0.0,0.0
0.0,0.0,0.0,0.0
7.268,0.614,-0.753,0.0
6.987,0.59,-0.764,0.0
8.607,0.723,-0.699,0.0
8.203,0.688,-0.713,0.0
0.0,0.0,0.0,0.0
0.0,0.0,0.0,0.0
7.264,0.607,-0.757,0.0
6.985,0.583,-0.768,0.0
8.553,0.71,-0.7,0.0
8.201,0.68,-0.718,0.0
0.0,0.0,0.0,0.0
0.0,0.0,0.0,0.0
7.24,0.598,-0.758,0.0
0.0,0.0,0.0,0.0
8.486,0.696,-0.699,0.0
8.146,0.667,-0.717,0.0
0.0,0.0,0.0,0.0
0.0,0.0,0.0,0.0
0.0,0.0,0.0,0.0
0.0,0.0,0.0,0.0
8.447,0.684,-0.7,0.0
0.0,0.0,0.0,0.0
0.0,0.0,0.0,0.0
7.424,0.598,-0.743,0.0
0.0,0.0,0.0,0.0
0.0,0.0,0.0,0.0
8.464,0.676,-0.706,0.0
0.0,0.0,0.0,0.0
0.0,0.0,0.0,0.0
7.44,0.592,-0.748,0.0
0.0,0.0,0.0,0.0
0.0,0.0,0.0,0.0
0.0,0.0,0.0,0.0
0.0,0.0,0.0,0.0
0.0,0.0,0.0,0.0
7.394,0.58,-0.746,0.0
0.0,0.0,0.0,0.0
0.0,0.0,0.0,0.0
8.397,0.652,-0.707,0.0
0.0,0.0,0.0,0.0
0.0,0.0,0.0,0.0
7.382,0.57,-0.748,0.0
0.0,0.0,0.0,0.0
0.0,0.0,0.0,0.0
8.391,0.642,-0.709,0.0
0.0,0.0,0.0,0.0
0.0,0.0,0.0,0.0
7.395,0.563,-0.752,0.0
7.089,0.539,-0.761,0.0
0.0,0.0,0.0,0.0
8.364,0.631,-0.71,0.0
0.0,0.0,0.0,0.0
0.0,0.0,0.0,0.0
7.353,0.551,-0.75,0.0
0.0,0.0,0.0,0.0
0.0,0.0,0.0,0.0
8.33,0.618,-0.709,0.0
0.0,0.0,0.0,0.0
0.0,0.0,0.0,0.0
7.352,0.542,-0.752,0.0
7.033,0.518,-0.759,0.0
0.0,0.0,0.0,0.0
0.0,0.0,0.0,0.0
0.0,0.0,0.0,0.0
0.0,0.0,0.0,0.0
7.321,0.531,-0.75,0.0
0.0,0.0,0.0,0.0
0.0,0.0,0.0,0.0
0.0,0.0,0.0,0.0
0.0,0.0,0.0,0.0
7.31,0.522,-0.75,0.0
0.0,0.0,0.0,0.0
0.0,0.0,0.0,0.0
0.0,0.0,0.0,0.0
0.0,0.0,0.0,0.0
7.337,0.514,-0.754,0.0
0.0,0.0,0.0,0.0
0.0,0.0,0.0,0.0
0.0,0.0,0.0,0.0
0.0,0.0,0.0,0.0
0.0,0.0,0.0,0.0
7.287,0.502,-0.749,0.0
0.0,0.0,0.0,0.0
0.0,0.0,0.0,0.0
0.0,0.0,0.0,0.0
0.0,0.0,0.0,0.0
7.275,0.492,-0.748,0.0
0.0,0.0,0.0,0.0
0.0,0.0,0.0,0.0
0.0,0.0,0.0,0.0
0.0,0.0,0.0,0.0
7.306,0.484,-0.752,0.0
0.0,0.0,0.0,0.0
0.0,0.0,0.0,0.0
0.0,0.0,0.0,0.0
0.0,0.0,0.0,0.0
0.0,0.0,0.0,0.0
7.284,0.474,-0.749,0.0
0.0,0.0,0.0,0.0
0.0,0.0,0.0,0.0
0.0,0.0,0.0,0.0
0.0,0.0,0.0,0.0
0.0,0.0,0.0,0.0
7.292,0.464,-0.749,0.0
0.0,0.0,0.0,0.0
0.0,0.0,0.0,0.0
0.0,0.0,0.0,0.0
0.0,0.0,0.0,0.0
0.0,0.0,0.0,0.0
7.342,0.458,-0.753,0.0
0.0,0.0,0.0,0.0
0.0,0.0,0.0,0.0
0.0,0.0,0.0,0.0
0.0,0.0,0.0,0.0
0.0,0.0,0.0,0.0
7.3,0.445,-0.748,0.0
0.0,0.0,0.0,0.0
0.0,0.0,0.0,0.0
0.0,0.0,0.0,0.0
0.0,0.0,0.0,0.0
0.0,0.0,0.0,0.0
7.347,0.438,-0.751,0.0
0.0,0.0,0.0,0.0
0.0,0.0,0.0,0.0
8.333,0.491,-0.709,0.0
0.0,0.0,0.0,0.0
0.0,0.0,0.0,0.0
7.323,0.427,-0.746,0.0
0.0,0.0,0.0,0.0
0.0,0.0,0.0,0.0
0.0,0.0,0.0,0.0
0.0,0.0,0.0,0.0
0.0,0.0,0.0,0.0
7.379,0.42,-0.75,0.0
7.096,0.403,-0.761,0.0
0.0,0.0,0.0,0.0
0.0,0.0,0.0,0.0
0.0,0.0,0.0,0.0
0.0,0.0,0.0,0.0
7.373,0.41,-0.747,0.0
7.091,0.393,-0.758,0.0
0.0,0.0,0.0,0.0
0.0,0.0,0.0,0.0
0.0,0.0,0.0,0.0
0.0,0.0,0.0,0.0
7.423,0.403,-0.749,0.0
7.128,0.385,-0.759,0.0
0.0,0.0,0.0,0.0
0.0,0.0,0.0,0.0
0.0,0.0,0.0,0.0
0.0,0.0,0.0,0.0
7.429,0.393,-0.746,0.0
7.108,0.374,-0.753,0.0
0.0,0.0,0.0,0.0
0.0,0.0,0.0,0.0
0.0,0.0,0.0,0.0
0.0,0.0,0.0,0.0
7.424,0.382,-0.742,0.0
7.163,0.367,-0.756,0.0
0.0,0.0,0.0,0.0
0.0,0.0,0.0,0.0
0.0,0.0,0.0,0.0
0.0,0.0,0.0,0.0
7.468,0.374,-0.742,0.0
7.207,0.36,-0.756,0.0
0.0,0.0,0.0,0.0
0.0,0.0,0.0,0.0
0.0,0.0,0.0,0.0
0.0,0.0,0.0,0.0
0.0,0.0,0.0,0.0
7.231,0.351,-0.755,0.0
0.0,0.0,0.0,0.0
0.0,0.0,0.0,0.0
0.0,0.0,0.0,0.0
0.0,0.0,0.0,0.0
0.0,0.0,0.0,0.0
7.251,0.342,-0.752,0.0
0.0,0.0,0.0,0.0
0.0,0.0,0.0,0.0
0.0,0.0,0.0,0.0
0.0,0.0,0.0,0.0
0.0,0.0,0.0,0.0
7.264,0.333,-0.749,0.0
0.0,0.0,0.0,0.0
0.0,0.0,0.0,0.0
0.0,0.0,0.0,0.0
0.0,0.0,0.0,0.0
0.0,0.0,0.0,0.0
0.0,0.0,0.0,0.0
7.023,0.31,-0.757,0.0
8.67,0.381,-0.689,0.0
0.0,0.0,0.0,0.0
0.0,0.0,0.0,0.0
0.0,0.0,0.0,0.0
7.388,0.318,-0.75,0.0
7.087,0.304,-0.759,0.0
0.0,0.0,0.0,0.0
0.0,0.0,0.0,0.0
0.0,0.0,0.0,0.0
0.0,0.0,0.0,0.0
7.409,0.309,-0.747,0.0
7.157,0.297,-0.76,0.0
8.825,0.363,-0.688,0.0
0.0,0.0,0.0,0.0
0.0,0.0,0.0,0.0
0.0,0.0,0.0,0.0
7.461,0.301,-0.745,0.0
7.153,0.287,-0.754,0.0
0.0,0.0,0.0,0.0
0.0,0.0,0.0,0.0
0.0,0.0,0.0,0.0
0.0,0.0,0.0,0.0
7.458,0.291,-0.738,0.0
7.209,0.279,-0.753,0.0
0.0,0.0,0.0,0.0
0.0,0.0,0.0,0.0
0.0,0.0,0.0,0.0
0.0,0.0,0.0,0.0
0.0,0.0,0.0,0.0
7.281,0.272,-0.754,0.0
9.013,0.335,-0.678,0.0
0.0,0.0,0.0,0.0
8.243,0.303,-0.71,0.0
0.0,0.0,0.0,0.0
0.0,0.0,0.0,0.0
7.351,0.265,-0.754,0.0
0.0,0.0,0.0,0.0
8.61,0.307,-0.686,0.0
8.313,0.294,-0.707,0.0
0.0,0.0,0.0,0.0
0.0,0.0,0.0,0.0
7.346,0.255,-0.746,0.0
0.0,0.0,0.0,0.0
0.0,0.0,0.0,0.0
8.376,0.285,-0.704,0.0
0.0,0.0,0.0,0.0
0.0,0.0,0.0,0.0
7.419,0.248,-0.745,0.0
9.223,0.306,-0.665,0.0
0.0,0.0,0.0,0.0
0.0,0.0,0.0,0.0
0.0,0.0,0.0,0.0
0.0,0.0,0.0,0.0
7.454,0.24,-0.74,0.0
9.363,0.299,-0.665,0.0
0.0,0.0,0.0,0.0
0.0,0.0,0.0,0.0
0.0,0.0,0.0,0.0
0.0,0.0,0.0,0.0
0.0,0.0,0.0,0.0
0.0,0.0,0.0,0.0
0.0,0.0,0.0,0.0
0.0,0.0,0.0,0.0
0.0,0.0,0.0,0.0
0.0,0.0,0.0,0.0
0.0,0.0,0.0,0.0
9.559,0.281,-0.657,0.0
9.064,0.265,-0.671,0.0
0.0,0.0,0.0,0.0
0.0,0.0,0.0,0.0
0.0,0.0,0.0,0.0
0.0,0.0,0.0,0.0
9.681,0.273,-0.653,0.0
0.0,0.0,0.0,0.0
0.0,0.0,0.0,0.0
0.0,0.0,0.0,0.0
0.0,0.0,0.0,0.0
0.0,0.0,0.0,0.0
9.789,0.264,-0.648,0.0
0.0,0.0,0.0,0.0
0.0,0.0,0.0,0.0
0.0,0.0,0.0,0.0
8.158,0.213,-0.716,0.0
0.0,0.0,0.0,0.0
9.88,0.254,-0.641,0.0
9.419,0.24,-0.662,0.0
9.002,0.228,-0.68,0.0
0.0,0.0,0.0,0.0
8.228,0.205,-0.711,0.0
0.0,0.0,0.0,0.0
10.02,0.246,-0.637,0.0
9.577,0.233,-0.66,0.0
9.106,0.22,-0.676,0.0
0.0,0.0,0.0,0.0
0.0,0.0,0.0,0.0
0.0,0.0,0.0,0.0
10.138,0.237,-0.63,0.0
0.0,0.0,0.0,0.0
9.176,0.21,-0.668,0.0
8.833,0.201,-0.691,0.0
8.396,0.189,-0.702,0.0
8.104,0.181,-0.721,0.0
10.246,0.228,-0.623,0.0
9.761,0.215,-0.645,0.0
0.0,0.0,0.0,0.0
0.0,0.0,0.0,0.0
0.0,0.0,0.0,0.0
8.198,0.174,-0.717,0.0
10.395,0.219,-0.617,0.0
9.873,0.206,-0.638,0.0
0.0,0.0,0.0,0.0
0.0,0.0,0.0,0.0
0.0,0.0,0.0,0.0
8.235,0.165,-0.708,0.0
10.559,0.211,-0.61,0.0
10.015,0.198,-0.632,0.0
0.0,0.0,0.0,0.0
0.0,0.0,0.0,0.0
0.0,0.0,0.0,0.0
8.391,0.159,-0.709,0.0
10.706,0.202,-0.603,0.0
10.215,0.191,-0.629,0.0
9.741,0.18,-0.652,0.0
0.0,0.0,0.0,0.0
0.0,0.0,0.0,0.0
8.443,0.151,-0.7,0.0
10.934,0.195,-0.599,0.0
10.363,0.183,-0.622,0.0
9.951,0.174,-0.65,0.0
0.0,0.0,0.0,0.0
8.941,0.153,-0.68,0.0
8.53,0.144,-0.694,0.0
11.11,0.187,-0.591,0.0
10.48,0.174,-0.613,0.0
0.0,0.0,0.0,0.0
0.0,0.0,0.0,0.0
0.0,0.0,0.0,0.0
8.63,0.137,-0.688,0.0
11.26,0.178,-0.581,0.0
10.646,0.166,-0.605,0.0
10.244,0.158,-0.636,0.0
0.0,0.0,0.0,0.0
0.0,0.0,0.0,0.0
8.831,0.131,-0.689,0.0
11.485,0.17,-0.573,0.0
10.818,0.158,-0.597,0.0
10.357,0.149,-0.626,0.0
0.0,0.0,0.0,0.0
0.0,0.0,0.0,0.0
8.936,0.124,-0.683,0.0
11.685,0.161,-0.564,0.0
11.063,0.151,-0.592,0.0
10.492,0.141,-0.616,0.0
0.0,0.0,0.0,0.0
0.0,0.0,0.0,0.0
9.096,0.118,-0.679,0.0
11.911,0.154,-0.554,0.0
11.283,0.143,-0.584,0.0
10.619,0.133,-0.606,0.0
10.158,0.126,-0.634,0.0
9.628,0.117,-0.651,0.0
9.187,0.111,-0.67,0.0
12.158,0.146,-0.545,0.0
11.478,0.135,-0.574,0.0
10.833,0.126,-0.599,0.0
10.305,0.118,-0.625,0.0
9.837,0.111,-0.648,0.0
0.0,0.0,0.0,0.0
12.412,0.138,-0.534,0.0
11.707,0.128,-0.565,0.0
11.087,0.119,-0.593,0.0
10.42,0.11,-0.613,0.0
9.992,0.104,-0.64,0.0
9.461,0.097,-0.656,0.0
12.67,0.13,-0.522,0.0
11.933,0.12,-0.554,0.0
11.273,0.112,-0.582,0.0
10.646,0.104,-0.607,0.0
10.141,0.097,-0.631,0.0
0.0,0.0,0.0,0.0
12.905,0.122,-0.508,0.0
12.249,0.113,-0.546,0.0
11.47,0.104,-0.572,0.0
10.885,0.097,-0.6,0.0
10.277,0.091,-0.621,0.0
9.807,0.085,-0.644,0.0
13.22,0.114,-0.496,0.0
12.437,0.105,-0.532,0.0
11.727,0.098,-0.563,0.0
11.098,0.091,-0.591,0.0
10.509,0.084,-0.615,0.0
10.069,0.079,-0.642,0.0
13.524,0.106,-0.482,0.0
12.789,0.099,-0.523,0.0
11.981,0.091,-0.552,0.0
11.29,0.084,-0.58,0.0
10.728,0.078,-0.607,0.0
10.208,0.073,-0.631,0.0
13.887,0.099,-0.469,0.0
12.99,0.091,-0.507,0.0
12.302,0.084,-0.544,0.0
11.536,0.078,-0.571,0.0
10.956,0.072,-0.6,0.0
10.405,0.067,-0.624,0.0
14.234,0.092,-0.454,0.0
13.29,0.084,-0.493,0.0
12.487,0.077,-0.528,0.0
11.784,0.071,-0.561,0.0
11.159,0.066,-0.589,0.0
10.532,0.061,-0.611,0.0
14.669,0.085,-0.439,0.0
13.64,0.077,-0.479,0.0
12.758,0.071,-0.515,0.0
12.058,0.065,-0.55,0.0
11.377,0.06,-0.578,0.0
10.824,0.056,-0.606,0.0
15.066,0.078,-0.422,0.0
13.96,0.07,-0.463,0.0
13.079,0.064,-0.502,0.0
12.374,0.059,-0.54,0.0
11.611,0.054,-0.567,0.0
11.059,0.05,-0.598,0.0
15.676,0.071,-0.408,0.0
14.422,0.064,-0.45,0.0
13.413,0.058,-0.488,0.0
12.626,0.053,-0.526,0.0
11.915,0.049,-0.558,0.0
11.25,0.045,-0.586,0.0
16.066,0.064,-0.386,0.0
14.869,0.058,-0.434,0.0
13.774,0.052,-0.474,0.0
12.879,0.047,-0.511,0.0
12.229,0.044,-0.548,0.0
11.526,0.04,-0.577,0.0
16.542,0.057,-0.365,0.0
15.4,0.052,-0.419,0.0
14.198,0.046,-0.46,0.0
13.23,0.042,-0.498,0.0
12.487,0.038,-0.535,0.0
11.8,0.035,-0.567,0.0
17.041,0.051,-0.341,0.0
15.776,0.045,-0.397,0.0
14.58,0.041,-0.443,0.0
13.593,0.037,-0.484,0.0
12.707,0.033,-0.518,0.0
12.018,0.03,-0.553,0.0
17.716,0.045,-0.319,0.0
16.338,0.04,-0.378,0.0
15.035,0.035,-0.426,0.0
13.935,0.031,-0.468,0.0
13.061,0.028,-0.506,0.0
12.405,0.026,-0.545,0.0
18.389,0.038,-0.293,0.0
16.819,0.034,-0.354,0.0
15.573,0.03,-0.409,0.0
14.312,0.026,-0.451,0.0
13.475,0.024,-0.494,0.0
12.614,0.021,-0.527,0.0
19.443,0.033,-0.269,0.0
17.368,0.028,-0.33,0.0
16.027,0.025,-0.387,0.0
14.821,0.022,-0.436,0.0
13.767,0.019,-0.476,0.0
12.978,0.017,-0.516,0.0
20.799,0.028,-0.245,0.0
18.192,0.023,-0.307,0.0
16.619,0.02,-0.366,0.0
15.266,0.017,-0.417,0.0
14.198,0.015,-0.461,0.0
13.266,0.013,-0.499,0.0
21.468,0.022,-0.207,3.0
19.039,0.018,-0.282,0.0
17.08,0.015,-0.341,0.0
15.861,0.013,-0.4,0.0
14.64,0.012,-0.445,0.0
13.638,0.01,-0.484,0.0
23.235,0.017,-0.175,0.0
20.056,0.014,-0.255,0.0
17.772,0.011,-0.317,0.0
16.418,0.01,-0.379,0.0
15.154,0.008,-0.428,0.0
14.044,0.007,-0.469,0.0
23.79,0.012,-0.13,0.0
21.132,0.01,-0.224,3.0
18.512,0.008,-0.292,0.0
16.848,0.006,-0.354,0.0
15.695,0.005,-0.41,0.0
14.43,0.004,-0.452,0.0
25.308,0.008,-0.085,0.0
22.186,0.006,-0.188,0.0
19.674,0.004,-0.268,0.0
17.464,0.003,-0.33,0.0
16.16,0.002,-0.388,0.0
14.93,0.002,-0.436,0.0
26.292,0.004,-0.032,0.0
23.633,0.002,-0.15,1.0
20.94,0.001,-0.241,1.0
18.231,0.001,-0.305,0.0
16.665,0.0,-0.365,0.0
15.442,0.0,-0.418,0.0
27.527,0.0,0.024,0.0
24.746,0.0,-0.105,0.0
21.699,0.0,-0.203,1.0
19.203,0.0,-0.281,0.0
17.199,-0.001,-0.34,0.0
16.014,-0.001,-0.399,0.0
28.685,-0.002,0.086,1.0
25.896,-0.002,-0.054,0.0
23.429,-0.002,-0.169,0.0
20.349,-0.002,-0.254,0.0
17.994,-0.002,-0.317,0.0
16.543,-0.002,-0.376,0.0
30.276,-0.004,0.157,0.0
27.143,-0.003,0.0,0.0
24.082,-0.003,-0.122,0.0
21.302,-0.003,-0.22,3.0
18.704,-0.003,-0.289,0.0
16.986,-0.002,-0.35,0.0
31.859,-0.004,0.233,0.0
28.525,-0.004,0.062,1.0
25.539,-0.004,-0.074,0.0
22.91,-0.003,-0.186,0.0
19.916,-0.003,-0.265,0.0
17.685,-0.002,-0.326,0.0
33.25,-0.004,0.315,0.0
29.014,-0.003,0.126,0.0
26.639,-0.003,-0.02,0.0
23.764,-0.002,-0.143,1.0
21.101,-0.002,-0.235,3.0
18.437,-0.001,-0.3,0.0
36.494,-0.003,0.425,0.0
30.982,-0.002,0.201,0.0
28.103,-0.001,0.038,0.0
25.16,-0.001,-0.097,0.0
22.009,0.0,-0.198,0.0
19.537,0.0,-0.276,0.0
0.0,0.0,0.0,0.0
33.128,0.0,0.287,0.0
28.783,0.001,0.101,0.0
26.093,0.001,-0.045,0.0
23.59,0.002,-0.161,1.0
20.888,0.002,-0.25,1.0
42.056,0.005,0.67,0.0
35.565,0.005,0.384,0.0
30.532,0.005,0.173,0.0
27.564,0.006,0.012,0.0
24.776,0.006,-0.116,0.0
21.551,0.006,-0.212,1.0
0.0,0.0,0.0,0.0
37.784,0.012,0.489,0.0
32.997,0.012,0.257,0.0
28.673,0.011,0.073,1.0
25.826,0.011,-0.066,0.0
23.332,0.011,-0.18,0.0
0.0,0.0,0.0,0.0
0.0,0.0,0.0,0.0
0.0,0.0,0.0,0.0
30.077,0.019,0.141,0.0
26.848,0.018,-0.012,0.0
23.891,0.017,-0.133,0.0
0.0,0.0,0.0,0.0
0.0,0.0,0.0,0.0
36.966,0.031,0.445,0.0
0.0,0.0,0.0,0.0
28.441,0.027,0.047,1.0
25.411,0.025,-0.088,0.0
0.0,0.0,0.0,0.0
0.0,0.0,0.0,0.0
0.0,0.0,0.0,0.0
33.348,0.039,0.297,0.0
28.81,0.036,0.109,0.0
26.453,0.034,-0.035,0.0
77.103,0.103,2.052,4.0
0.0,0.0,0.0,0.0
42.319,0.062,0.69,0.0
0.0,0.0,0.0,0.0
30.688,0.049,0.181,0.0
27.96,0.046,0.021,0.0
78.001,0.132,2.241,3.0
0.0,0.0,0.0,0.0
0.0,0.0,0.0,0.0
38.193,0.073,0.503,0.0
32.917,0.065,0.264,0.0
28.729,0.059,0.082,2.0
83.151,0.173,2.565,9.0
76.311,0.165,1.96,3.0
0.0,0.0,0.0,0.0
41.779,0.096,0.638,0.0
35.566,0.085,0.36,0.0
30.38,0.075,0.15,0.0
83.203,0.209,2.74,14.0
76.789,0.199,2.133,2.0
0.0,0.0,0.0,0.0
0.0,0.0,0.0,0.0
37.159,0.105,0.452,0.0
0.0,0.0,0.0,0.0
83.237,0.247,2.914,17.0
78.202,0.239,2.334,6.0
76.02,0.239,1.876,3.0
0.0,0.0,0.0,0.0
0.0,0.0,0.0,0.0
33.618,0.115,0.305,0.0
83.278,0.288,3.087,43.0
83.153,0.296,2.652,13.0
75.789,0.277,2.026,2.0
0.0,0.0,0.0,0.0
42.006,0.162,0.685,0.0
0.0,0.0,0.0,0.0
83.288,0.333,3.259,42.0
83.254,0.341,2.827,13.0
76.674,0.322,2.206,2.0
0.0,0.0,0.0,0.0
0.0,0.0,0.0,0.0
38.044,0.171,0.5,0.0
83.314,0.38,3.43,28.0
83.377,0.389,3.0,9.0
78.074,0.373,2.405,22.0
75.129,0.367,1.918,1.0
0.0,0.0,0.0,0.0
41.648,0.213,0.632,0.0
79.355,0.41,3.427,10.0
79.352,0.418,3.015,7.0
78.095,0.421,2.563,15.0
75.686,0.417,2.084,3.0
0.0,0.0,0.0,0.0
0.0,0.0,0.0,0.0
79.375,0.46,3.587,11.0
79.392,0.47,3.177,6.0
78.258,0.473,2.724,14.0
77.986,0.48,2.302,5.0
70.468,0.443,1.716,0.0
0.0,0.0,0.0,0.0
79.345,0.513,3.745,7.0
79.37,0.524,3.334,10.0
79.391,0.534,2.922,7.0
78.179,0.536,2.465,23.0
75.0,0.524,1.975,3.0
0.0,0.0,0.0,0.0
79.342,0.569,3.901,10.0
79.388,0.58,3.491,8.0
78.052,0.581,3.027,4.0
78.08,0.592,2.615,16.0
76.027,0.586,2.151,4.0
0.0,0.0,0.0,0.0
79.369,0.628,4.058,9.0
79.389,0.639,3.646,8.0
79.404,0.65,3.233,7.0
78.075,0.65,2.764,28.0
78.281,0.663,2.365,8.0
0.0,0.0,0.0,0.0
79.352,0.689,4.211,6.0
79.351,0.7,3.797,6.0
79.379,0.712,3.385,9.0
79.373,0.724,2.963,7.0
57.972,0.537,1.862,1.0
57.919,0.545,1.559,2.0
79.349,0.753,4.362,10.0
79.421,0.765,3.952,9.0
79.369,0.777,3.535,7.0
108.155,1.075,4.242,11.0
57.558,0.58,1.957,0.0
57.655,0.59,1.661,1.0
89.949,0.928,5.114,7.0
91.648,0.959,4.732,18.0
92.802,0.986,4.308,16.0
108.817,1.174,4.473,9.0
57.365,0.628,2.059,0.0
57.113,0.634,1.751,1.0
76.635,0.857,4.502,14.0
90.975,1.032,4.869,16.0
92.264,1.061,4.455,17.0
109.039,1.273,4.684,16.0
108.106,1.28,4.08,1.0
56.705,0.68,1.844,0.0
76.467,0.924,4.635,45.0
76.656,0.939,4.244,15.0
92.488,1.149,4.637,5.0
92.146,1.16,4.128,12.0
108.482,1.383,4.292,3.0
56.451,0.73,1.939,1.0
76.447,0.995,4.772,28.0
76.545,1.01,4.377,29.0
76.618,1.023,3.979,20.0
76.654,1.037,3.572,11.0
109.017,1.494,4.508,5.0
0.0,0.0,0.0,0.0
76.568,1.07,4.917,16.0
76.487,1.081,4.509,25.0
76.547,1.096,4.111,29.0
76.569,1.11,3.703,33.0
76.578,1.124,3.302,29.0
0.0,0.0,0.0,0.0
76.648,1.147,5.059,17.0
76.575,1.159,4.651,23.0
76.551,1.172,4.245,29.0
76.531,1.186,3.835,34.0
76.537,1.2,3.434,41.0
55.634,0.882,2.203,1.0
76.686,1.225,5.194,21.0
76.654,1.238,4.787,8.0
76.564,1.251,4.379,21.0
76.577,1.265,3.969,19.0
76.564,1.279,3.567,34.0
0.0,0.0,0.0,0.0
76.718,1.306,5.328,23.0
83.837,1.443,5.381,13.0
84.888,1.476,4.999,15.0
89.029,1.566,4.766,13.0
91.095,1.619,4.396,18.0
0.0,0.0,0.0,0.0
76.714,1.388,5.458,13.0
89.319,1.632,5.881,9.0
84.188,1.555,5.099,18.0
84.878,1.584,4.685,17.0
91.162,1.719,4.551,13.0
90.916,1.733,4.061,4.0
76.812,1.474,5.592,30.0
82.683,1.603,5.582,13.0
83.895,1.642,5.22,22.0
84.281,1.667,4.79,21.0
85.417,1.706,4.402,19.0
89.201,1.799,4.127,13.0
83.542,1.696,6.216,26.0
82.607,1.693,5.708,15.0
83.723,1.733,5.342,30.0
84.058,1.756,4.909,20.0
83.458,1.761,4.433,17.0
88.758,1.891,4.246,24.0
83.491,1.79,6.345,18.0
77.046,1.668,5.445,19.0
82.867,1.81,5.417,23.0
84.035,1.852,5.039,22.0
83.356,1.854,4.556,15.0
88.649,1.99,4.376,19.0
76.933,1.739,5.965,34.0
82.901,1.891,5.986,22.0
82.496,1.898,5.519,32.0
82.277,1.91,5.059,29.0
82.776,1.939,4.651,18.0
83.475,1.972,4.246,13.0
77.011,1.831,6.088,11.0
82.941,1.99,6.115,33.0
82.423,1.995,5.637,31.0
82.106,2.004,5.171,37.0
82.335,2.027,4.748,32.0
82.918,2.059,4.342,19.0
64.438,1.611,5.19,10.0
83.116,2.096,6.25,13.0
82.359,2.094,5.755,31.0
82.08,2.104,5.289,33.0
82.405,2.13,4.872,24.0
83.174,2.168,4.475,26.0
64.81,1.7,5.314,41.0
74.847,1.979,5.737,7.0
82.24,2.192,5.863,30.0
81.946,2.202,5.397,28.0
82.396,2.231,4.987,32.0
82.149,2.242,4.535,27.0
75.103,2.064,6.264,9.0
64.798,1.795,5.057,17.0
82.47,2.302,5.995,34.0
82.106,2.309,5.522,31.0
81.587,2.312,5.05,31.0
81.75,2.335,4.625,30.0
62.449,1.796,5.295,19.0
64.293,1.863,5.106,9.0
82.769,2.416,6.129,25.0
82.11,2.414,5.633,33.0
81.673,2.42,5.166,30.0
81.656,2.437,4.729,34.0
62.381,1.875,5.373,23.0
62.19,1.882,5.022,20.0
66.016,2.013,4.977,41.0
82.031,2.519,5.735,29.0
81.99,2.535,5.292,33.0
81.372,2.534,4.817,31.0
68.823,2.158,6.016,11.0
64.13,2.024,5.261,17.0
64.974,2.065,4.98,15.0
66.106,2.115,4.704,51.0
66.083,2.129,4.348,18.0
81.355,2.64,4.918,32.0
73.054,2.387,6.479,8.0
64.062,2.107,5.336,18.0
75.024,2.484,5.844,13.0
74.427,2.481,5.389,21.0
66.124,2.218,4.433,34.0
81.556,2.755,5.029,29.0
55.818,1.898,5.018,30.0
66.806,2.287,5.646,3.0
75.818,2.612,5.998,21.0
81.845,2.838,6.024,18.0
82.049,2.863,5.597,18.0
65.821,2.311,4.136,17.0
55.588,1.965,5.064,13.0
66.781,2.376,5.721,18.0
0.0,0.0,0.0,0.0
65.225,2.349,4.876,27.0
81.718,2.962,5.668,17.0
65.794,2.399,4.209,22.0
49.998,1.836,4.611,24.0
66.708,2.465,5.791,22.0
56.166,2.088,4.571,16.0
65.37,2.444,4.96,9.0
65.314,2.457,4.603,52.0
81.469,3.083,5.301,15.0
50.008,1.905,4.667,24.0
56.038,2.147,4.926,11.0
66.67,2.568,5.497,21.0
81.219,3.147,6.249,7.0
77.591,3.024,5.549,11.0
65.369,2.562,4.322,29.0
50.248,1.983,4.742,28.0
50.38,1.999,4.48,15.0
49.443,1.973,4.128,17.0
66.522,2.67,5.187,34.0
77.702,3.135,5.637,22.0
81.861,3.322,5.495,27.0
50.084,2.046,4.778,24.0
56.788,2.333,5.108,11.0
49.509,2.045,4.184,23.0
66.53,2.763,5.253,10.0
66.419,2.773,4.884,8.0
81.567,3.424,5.555,12.0
50.514,2.135,4.868,25.0
56.82,2.413,5.165,10.0
49.544,2.115,4.233,23.0
58.402,2.506,4.666,7.0
66.16,2.854,4.925,25.0
66.055,2.864,4.559,43.0
50.612,2.21,4.924,25.0
53.768,2.359,4.937,11.0
49.576,2.186,4.281,23.0
58.166,2.578,4.7,31.0
66.209,2.949,4.989,23.0
66.029,2.956,4.615,6.0
50.453,2.274,4.954,25.0
49.957,2.263,4.631,23.0
49.666,2.261,4.333,33.0
58.197,2.662,4.752,16.0
65.761,3.023,5.011,40.0
65.892,3.044,4.662,33.0
50.136,2.332,4.966,25.0
50.021,2.338,4.679,24.0
49.681,2.333,4.375,24.0
58.175,2.745,4.799,11.0
58.235,2.761,4.486,17.0
80.599,3.839,5.769,13.0
50.133,2.404,5.006,24.0
49.962,2.407,4.714,20.0
49.844,2.412,4.429,19.0
57.976,2.818,4.827,12.0
58.101,2.836,4.52,39.0
80.414,3.944,5.816,26.0
50.016,2.471,5.032,28.0
0.0,0.0,0.0,0.0
49.793,2.481,4.462,22.0
58.569,2.931,4.921,14.0
58.177,2.924,4.568,20.0
64.51,3.257,4.712,17.0
50.181,2.551,5.085,30.0
49.948,2.55,4.786,30.0
58.653,3.007,5.297,7.0
49.466,2.546,4.19,21.0
58.317,3.015,4.619,15.0
64.546,3.351,4.758,26.0
53.933,2.819,5.502,6.0
49.995,2.624,4.823,16.0
49.732,2.621,4.523,15.0
49.539,2.621,4.228,30.0
58.546,3.11,4.675,5.0
58.325,3.111,4.336,19.0
53.553,2.876,5.497,4.0
53.683,2.894,5.212,9.0
65.308,3.534,5.98,36.0
49.582,2.694,4.261,28.0
58.524,3.192,4.707,33.0
58.295,3.192,4.368,46.0
48.698,2.685,5.026,18.0
56.874,3.147,5.555,16.0
66.446,3.691,6.122,17.0
65.484,3.651,5.664,14.0
58.533,3.276,4.74,39.0
58.285,3.275,4.399,26.0
48.555,2.747,5.038,22.0
51.876,2.945,5.094,14.0
65.287,3.721,6.05,10.0
75.779,4.334,6.595,11.0
80.36,4.613,6.549,32.0
58.334,3.361,4.431,18.0
48.691,2.825,5.077,24.0
51.897,3.022,5.122,7.0
57.5,3.359,5.356,29.0
80.837,4.74,7.073,10.0
80.338,4.728,6.584,37.0
58.346,3.446,4.459,11.0
49.363,2.936,5.169,6.0
56.494,3.371,5.602,24.0
57.668,3.453,5.397,31.0
57.768,3.471,5.079,29.0
58.106,3.503,4.786,14.0
67.757,4.098,5.207,8.0
44.573,2.715,4.686,24.0
51.699,3.158,5.147,6.0
63.113,3.869,5.931,20.0
57.725,3.55,5.098,19.0
58.08,3.583,4.807,35.0
58.181,3.601,4.492,56.0
49.263,3.07,5.197,7.0
51.853,3.241,5.18,15.0
52.413,3.287,4.944,13.0
57.847,3.639,5.128,7.0
58.052,3.664,4.823,24.0
58.232,3.687,4.515,22.0
48.784,3.11,5.162,5.0
51.758,3.31,5.187,22.0
52.219,3.349,4.942,15.0
58.16,3.741,5.173,20.0
57.919,3.737,4.829,15.0
58.351,3.777,4.541,27.0
49.136,3.202,5.213,14.0
51.598,3.372,5.185,9.0
63.224,4.144,5.999,7.0
58.089,3.818,5.182,12.0
57.982,3.823,4.849,21.0
58.121,3.843,4.537,28.0
64.522,4.296,6.86,11.0
54.902,3.665,5.529,6.0
48.273,3.232,4.591,7.0
59.303,3.981,5.302,14.0
58.165,3.916,4.876,21.0
58.204,3.93,4.554,32.0
54.249,3.687,5.779,10.0
54.835,3.737,5.532,9.0
48.235,3.296,4.596,22.0
59.194,4.056,5.302,10.0
58.629,4.028,4.924,13.0
58.154,4.007,4.559,27.0
54.253,3.763,5.787,15.0
54.621,3.798,5.518,8.0
48.244,3.363,4.603,8.0
51.874,3.626,4.653,14.0
58.688,4.113,4.935,27.0
58.116,4.083,4.563,36.0
51.904,3.671,5.541,11.0
48.311,3.426,4.885,30.0
64.472,4.582,6.157,11.0
49.683,3.54,4.46,20.0
58.717,4.194,4.942,31.0
58.113,4.162,4.566,32.0
34.06,2.455,3.638,24.0
48.33,3.492,4.889,34.0
59.566,4.314,5.69,10.0
49.569,3.599,4.451,7.0
58.144,4.232,4.895,30.0
58.106,4.24,4.567,18.0
34.177,2.51,3.651,19.0
48.381,3.561,4.895,22.0
49.385,3.644,4.718,23.0
49.192,3.637,4.417,39.0
57.995,4.298,4.882,26.0
0.0,0.0,0.0,0.0
48.449,3.622,5.174,14.0
51.767,3.879,5.235,7.0
49.409,3.71,4.718,21.0
49.086,3.694,4.405,23.0
61.373,4.629,5.162,28.0
61.661,4.662,4.84,36.0
48.521,3.691,5.178,18.0
49.702,3.789,5.022,24.0
49.438,3.777,4.716,18.0
51.884,3.972,4.651,11.0
51.908,3.982,4.361,19.0
60.693,4.667,4.758,26.0
48.484,3.751,5.168,17.0
49.239,3.817,4.969,18.0
49.424,3.839,4.708,23.0
51.86,4.037,4.642,59.0
51.912,4.049,4.354,43.0
60.525,4.731,4.735,34.0
50.069,3.938,5.329,6.0
49.183,3.876,4.955,5.0
48.945,3.864,4.654,17.0
60.428,4.78,5.398,14.0
51.911,4.114,4.344,49.0
60.27,4.787,4.704,34.0
49.391,3.947,5.247,16.0
43.022,3.444,4.326,20.0
48.882,3.92,4.638,16.0
60.493,4.861,5.39,24.0
51.928,4.18,4.334,27.0
59.921,4.833,4.663,34.0
49.809,4.042,5.279,25.0
43.003,3.496,4.313,26.0
51.668,4.207,4.888,20.0
60.363,4.924,5.363,35.0
51.96,4.246,4.322,17.0
51.974,4.255,4.03,17.0
33.727,2.778,3.565,27.0
42.717,3.524,4.272,17.0
51.53,4.258,4.86,19.0
59.27,4.906,5.248,17.0
59.78,4.957,4.954,24.0
51.888,4.31,4.007,34.0
33.692,2.815,3.55,25.0
42.717,3.575,4.258,34.0
51.454,4.312,4.836,16.0
59.236,4.973,5.224,10.0
51.753,4.352,4.271,12.0
51.847,4.367,3.985,40.0
33.61,2.847,3.529,23.0
42.64,3.618,4.234,17.0
51.619,4.386,4.832,21.0
59.485,5.062,5.224,28.0
51.725,4.409,4.248,45.0
51.821,4.424,3.963,35.0
42.789,3.674,4.476,18.0
42.695,3.671,4.222,24.0
51.521,4.436,4.801,22.0
59.345,5.117,5.187,24.0
51.739,4.468,4.228,27.0
51.812,4.481,3.94,38.0
42.917,3.733,4.47,21.0
42.81,3.728,4.214,30.0
51.509,4.492,4.776,25.0
51.638,4.509,4.489,55.0
59.186,5.176,4.809,7.0
51.854,4.541,3.918,16.0
42.589,3.751,4.415,18.0
42.864,3.78,4.198,31.0
51.436,4.541,4.744,24.0
59.553,5.265,5.147,32.0
51.819,4.588,4.183,17.0
51.879,4.599,3.894,19.0
42.867,3.82,4.422,33.0
42.839,3.823,4.173,26.0
51.523,4.603,4.725,16.0
59.23,5.298,5.088,31.0
51.823,4.642,4.156,23.0
51.908,4.655,3.868,15.0
42.893,3.867,4.4,32.0
42.667,3.851,4.132,26.0
51.541,4.658,4.697,17.0
43.222,3.91,3.687,18.0
51.832,4.695,4.127,46.0
59.883,5.432,4.427,20.0
42.883,3.91,4.373,36.0
59.658,5.444,5.743,11.0
43.418,3.966,3.931,14.0
42.976,3.93,3.641,22.0
51.853,4.748,4.097,17.0
59.501,5.455,4.362,29.0
42.848,3.948,4.343,31.0
42.94,3.96,4.106,17.0
43.433,4.01,3.904,22.0
42.888,3.964,3.605,26.0
52.192,4.829,4.09,24.0
59.461,5.507,4.32,27.0
42.777,3.982,4.307,35.0
43.394,4.043,4.12,18.0
43.421,4.049,3.874,29.0
42.853,4.0,3.573,20.0
52.283,4.885,4.061,7.0
59.034,5.522,4.249,33.0
42.763,4.02,4.275,32.0
43.379,4.081,4.088,31.0
43.307,4.078,3.832,15.0
51.832,4.885,4.285,5.0
59.261,5.591,4.56,22.0
58.802,5.552,4.19,27.0
42.797,4.061,4.247,22.0
43.327,4.114,4.051,13.0
59.272,5.632,5.202,7.0
42.706,4.061,3.499,15.0
59.147,5.63,4.508,32.0
58.692,5.592,4.138,29.0
42.927,4.109,4.227,18.0
52.537,5.032,4.872,17.0
52.503,5.033,4.567,26.0
51.829,4.972,4.206,38.0
58.903,5.656,4.443,29.0
58.575,5.629,4.083,32.0
43.42,4.191,4.241,24.0
52.264,5.048,4.804,7.0
52.007,5.027,4.482,10.0
59.282,5.734,4.763,6.0
58.735,5.686,4.382,30.0
58.519,5.669,4.032,27.0
43.554,4.238,4.218,28.0
52.001,5.063,4.737,14.0
51.939,5.06,4.432,5.0
59.307,5.782,4.715,15.0
58.685,5.725,4.33,31.0
58.494,5.711,3.981,26.0
43.441,4.26,4.169,28.0
43.439,4.262,3.919,6.0
51.83,5.088,4.378,6.0
59.342,5.829,4.666,27.0
58.691,5.768,4.278,30.0
58.52,5.756,3.931,32.0
43.356,4.282,4.122,30.0
43.39,4.287,3.876,17.0
51.791,5.12,4.328,16.0
59.137,5.85,4.596,33.0
58.472,5.787,4.209,30.0
58.434,5.787,3.871,28.0
43.332,4.309,4.079,30.0
43.352,4.312,3.832,29.0
51.746,5.15,4.276,21.0
59.08,5.883,4.536,29.0
58.608,5.838,4.164,32.0
58.241,5.805,3.805,26.0
43.342,4.337,4.04,27.0
43.308,4.335,3.786,18.0
51.753,5.183,4.226,15.0
58.79,5.89,4.457,33.0
58.564,5.87,4.104,32.0
58.202,5.837,3.745,32.0
43.313,4.36,3.993,19.0
51.868,5.223,4.484,21.0
59.02,5.945,4.762,25.0
58.925,5.938,4.409,27.0
58.303,5.877,4.028,28.0
57.928,5.842,3.67,30.0
43.213,4.374,3.941,25.0
51.81,5.246,4.426,37.0
58.492,5.924,4.66,33.0
59.083,5.986,4.361,27.0
58.24,5.902,3.965,28.0
57.994,5.88,3.616,32.0
51.84,5.274,4.675,11.0
51.64,5.254,4.359,21.0
58.252,5.929,4.581,32.0
58.94,6.001,4.29,25.0
58.053,5.912,3.892,31.0
57.978,5.907,3.554,29.0
43.109,4.406,3.842,33.0
51.728,5.288,4.311,17.0
58.591,5.99,4.546,33.0
58.903,6.023,4.225,28.0
57.864,5.919,3.818,28.0
57.888,5.923,3.487,26.0
43.089,4.423,3.793,27.0
51.911,5.329,4.27,13.0
59.024,6.06,4.515,29.0
58.655,6.023,4.144,33.0
57.814,5.938,3.752,27.0
57.835,5.941,3.421,27.0
51.565,5.313,4.483,13.0
58.281,6.006,4.73,20.0
59.422,6.123,4.48,33.0
58.392,6.018,4.06,33.0
57.698,5.947,3.68,25.0
57.933,5.973,3.363,27.0
51.543,5.329,4.423,20.0
58.175,6.015,4.656,31.0
59.707,6.174,4.434,29.0
58.273,6.025,3.987,32.0
57.666,5.963,3.613,30.0
58.033,6.002,3.303,26.0
51.676,5.36,4.375,10.0
58.213,6.037,4.592,32.0
58.815,6.099,4.3,20.0
57.949,6.009,3.897,32.0
57.705,5.984,3.549,29.0
58.029,6.019,3.235,28.0
58.28,6.06,4.865,14.0
58.302,6.061,4.531,32.0
58.779,6.111,4.228,29.0
57.771,6.005,3.818,32.0
57.653,5.993,3.478,26.0
58.011,6.03,3.166,26.0
58.302,6.076,4.798,33.0
58.58,6.104,4.482,28.0
58.663,6.111,4.15,32.0
57.711,6.011,3.745,32.0
57.925,6.033,3.425,31.0
58.014,6.043,3.097,32.0
58.164,6.072,4.717,27.0
58.906,6.148,4.437,22.0
58.332,6.087,4.057,30.0
57.69,6.019,3.674,27.0
58.002,6.051,3.361,30.0
58.136,6.064,3.034,28.0
58.221,6.086,4.651,30.0
58.942,6.16,4.368,22.0
58.107,6.071,3.97,28.0
57.745,6.032,3.607,30.0
58.004,6.058,3.29,29.0
58.372,6.096,2.975,26.0
58.183,6.088,4.576,28.0
58.853,6.156,4.288,26.0
57.781,6.042,3.877,31.0
57.729,6.035,3.535,30.0
58.022,6.064,3.219,31.0
58.383,6.101,2.903,27.0
58.443,6.118,4.523,34.0
58.866,6.16,4.216,26.0
57.682,6.034,3.798,28.0
57.729,6.037,3.463,32.0
58.006,6.064,3.147,27.0
58.355,6.1,2.83,27.0
58.748,6.15,4.473,34.0
58.547,6.126,4.12,33.0
57.758,6.042,3.731,27.0
57.934,6.058,3.403,31.0
58.103,6.074,3.078,31.0
58.543,6.118,2.765,28.0
59.054,6.181,4.421,27.0
58.186,6.087,4.02,31.0
57.759,6.039,3.657,28.0
57.995,6.061,3.332,28.0
58.285,6.089,3.013,31.0
58.755,6.136,2.7,21.0
58.929,6.162,4.336,21.0
57.961,6.058,3.93,32.0
57.745,6.032,3.582,26.0
57.99,6.055,3.257,29.0
58.362,6.092,2.943,29.0
58.759,6.131,2.626,25.0
58.84,6.146,4.253,25.0
57.725,6.026,3.839,31.0
57.698,6.02,3.505,26.0
58.019,6.05,3.185,30.0
58.344,6.081,2.867,31.0
58.586,6.104,2.542,23.0
58.665,6.118,4.165,34.0
57.699,6.013,3.762,27.0
57.833,6.024,3.438,32.0
57.984,6.036,3.107,31.0
58.581,6.095,2.802,32.0
58.919,6.127,2.479,33.0
58.419,6.08,4.07,30.0
57.698,6.0,3.687,28.0
58.009,6.029,3.372,32.0
58.136,6.038,3.039,32.0
58.795,6.103,2.734,30.0
59.269,6.149,2.416,24.0
58.086,6.03,3.969,31.0
57.684,5.984,3.609,27.0
58.051,6.017,3.298,32.0
58.334,6.042,2.972,33.0
58.846,6.092,2.66,18.0
59.249,6.13,2.337,19.0
57.92,5.995,3.882,28.0
57.707,5.968,3.534,29.0
58.028,5.997,3.219,31.0
58.511,6.042,2.903,33.0
59.761,6.167,2.622,25.0
59.191,6.105,2.256,27.0
57.846,5.967,3.799,21.0
57.749,5.952,3.459,29.0
57.94,5.966,3.137,32.0
58.701,6.04,2.834,33.0
59.465,6.114,2.529,24.0
59.295,6.093,2.181,24.0
57.804,5.94,3.718,28.0
58.02,5.957,3.398,30.0
58.129,5.962,3.069,32.0
58.827,6.029,2.761,26.0
59.41,6.084,2.447,22.0
59.463,6.085,2.109,28.0
57.901,5.924,3.648,31.0
58.061,5.935,3.323,30.0
58.6,5.985,3.016,33.0
58.896,6.009,2.687,28.0
59.174,6.032,2.359,25.0
59.286,6.039,2.023,24.0
58.079,5.914,3.58,32.0
58.02,5.902,3.242,32.0
58.866,5.983,2.951,24.0
59.372,6.028,2.629,26.0
59.095,5.995,2.278,26.0
59.825,6.063,1.962,34.0
58.151,5.891,3.507,29.0
58.271,5.897,3.178,32.0
58.875,5.951,2.872,31.0
59.284,5.986,2.546,23.0
59.116,5.964,2.199,29.0
59.952,6.043,1.886,26.0
58.148,5.857,3.429,26.0
58.679,5.904,3.121,31.0
58.948,5.924,2.796,25.0
59.172,5.94,2.462,27.0
59.164,5.934,2.122,32.0
60.019,6.014,1.808,34.0
57.957,5.802,3.339,27.0
58.86,5.885,3.052,33.0
59.405,5.932,2.739,33.0
59.14,5.9,2.381,30.0
59.712,5.95,2.061,33.0
60.221,5.995,1.734,20.0
58.155,5.783,3.273,33.0
59.029,5.862,2.982,28.0
59.601,5.912,2.668,16.0
59.067,5.852,2.299,29.0
59.912,5.929,1.988,33.0
60.452,5.976,1.66,16.0
58.467,5.772,3.212,34.0
59.181,5.835,2.911,23.0
59.673,5.876,2.592,30.0
58.997,5.802,2.218,30.0
60.113,5.905,1.916,17.0
58.458,5.736,1.528,3.0
59.09,5.79,3.168,29.0
59.235,5.796,2.835,14.0
59.413,5.806,2.503,28.0
59.185,5.776,2.148,13.0
60.423,5.889,1.846,7.0
53.029,5.162,1.316,1.0
59.069,5.741,3.088,24.0
61.117,5.931,2.844,15.0
59.544,5.77,2.43,31.0
60.692,5.873,2.122,19.0
63.198,6.108,1.848,15.0
51.895,5.009,1.22,5.0
59.371,5.72,3.026,27.0
60.643,5.834,2.742,25.0
59.404,5.706,2.345,13.0
60.366,5.79,2.032,26.0
62.462,5.982,1.744,7.0
51.607,4.936,1.145,9.0
0.0,0.0,0.0,0.0
60.446,5.761,2.655,34.0
59.603,5.671,2.275,31.0
0.0,0.0,0.0,0.0
61.914,5.874,1.649,6.0
51.208,4.851,1.07,2.0
60.647,5.733,2.933,29.0
60.21,5.683,2.567,27.0
60.341,5.686,2.227,18.0
62.249,5.856,1.934,25.0
59.287,5.569,1.503,2.0
47.915,4.495,0.941,3.0
60.638,5.675,2.856,35.0
60.296,5.633,2.493,34.0
60.627,5.654,2.16,34.0
63.105,5.875,1.881,8.0
52.069,4.84,1.254,10.0
47.462,4.405,0.871,4.0
60.664,5.616,2.779,36.0
60.491,5.59,2.425,25.0
60.509,5.582,2.079,28.0
65.466,6.029,1.869,5.0
51.631,4.747,1.178,10.0
47.526,4.362,0.813,3.0
60.531,5.54,2.697,36.0
60.966,5.569,2.367,23.0
62.288,5.68,2.062,22.0
52.147,4.747,1.423,21.0
51.345,4.665,1.107,4.0
47.734,4.329,0.756,3.0
61.144,5.53,2.647,21.0
61.106,5.515,2.296,16.0
52.201,4.702,1.662,16.0
52.071,4.682,1.356,26.0
48.708,4.372,0.99,1.0
48.093,4.308,0.703,2.0
52.156,4.657,2.193,15.0
52.116,4.645,1.893,32.0
52.13,4.636,1.596,40.0
52.016,4.617,1.29,13.0
48.297,4.279,0.922,3.0
41.457,3.666,0.555,0.0
52.11,4.593,2.128,47.0
52.118,4.584,1.83,48.0
52.101,4.572,1.532,36.0
51.842,4.54,1.223,7.0
48.497,4.239,0.867,13.0
0.0,0.0,0.0,0.0
52.093,4.528,2.063,68.0
52.108,4.519,1.767,58.0
52.099,4.508,1.469,28.0
51.516,4.448,1.153,8.0
48.712,4.197,0.812,4.0
36.644,3.151,0.402,0.0
52.124,4.465,2.003,47.0
52.151,4.457,1.706,25.0
52.138,4.446,1.408,16.0
51.129,4.35,1.084,6.0
49.022,4.161,0.76,2.0
36.138,3.061,0.354,0.0
52.174,4.402,1.943,20.0
52.25,4.397,1.648,16.0
52.218,4.384,1.349,11.0
49.407,4.138,0.99,3.0
47.17,3.942,0.676,0.0
33.858,2.823,0.292,0.0
62.611,5.198,2.259,20.0
47.704,3.951,1.449,4.0
47.645,3.936,1.176,4.0
49.291,4.062,0.93,0.0
42.734,3.513,0.563,0.0
0.0,0.0,0.0,0.0
62.824,5.131,2.195,5.0
47.519,3.87,1.389,1.0
47.584,3.866,1.121,12.0
47.933,3.884,0.851,3.0
0.0,0.0,0.0,0.0
31.3,2.523,0.199,1.0
47.899,3.844,1.62,156.0
47.568,3.808,1.338,8.0
47.513,3.793,1.066,12.0
48.023,3.823,0.8,7.0
36.939,2.933,0.405,0.0
30.015,2.377,0.158,1.0
47.729,3.762,1.562,14.0
47.491,3.733,1.284,14.0
47.436,3.718,1.013,1.0
48.014,3.753,0.748,2.0
35.067,2.734,0.347,1.0
29.64,2.304,0.125,1.0
47.501,3.674,1.503,9.0
47.43,3.658,1.232,17.0
47.38,3.644,0.961,2.0
0.0,0.0,0.0,0.0
33.766,2.582,0.298,0.0
28.859,2.201,0.091,1.0
47.344,3.591,1.449,9.0
47.382,3.583,1.181,11.0
47.439,3.577,0.913,2.0
40.041,3.01,0.539,0.0
32.321,2.422,0.252,0.0
27.946,2.088,0.059,1.0
47.306,3.516,1.4,18.0
47.236,3.499,1.13,0.0
51.442,3.799,0.938,2.0
39.238,2.889,0.489,0.0
31.803,2.334,0.216,1.0
27.242,1.993,0.031,0.0
47.284,3.44,1.352,25.0
47.408,3.437,1.086,0.0
51.836,3.746,0.894,1.0
37.211,2.68,0.427,0.0
30.745,2.208,0.179,0.0
26.573,1.902,0.004,0.0
47.272,3.364,1.305,158.0
47.357,3.358,1.039,2.0
46.985,3.32,0.765,0.0
35.877,2.526,0.377,0.0
29.814,2.092,0.145,0.0
26.119,1.827,-0.02,0.0
47.258,3.285,1.26,161.0
47.284,3.275,0.993,3.0
45.676,3.152,0.701,0.0
0.0,0.0,0.0,0.0
29.012,1.988,0.114,1.0
25.735,1.757,-0.043,0.0
47.25,3.206,1.216,161.0
47.301,3.198,0.95,2.0
0.0,0.0,0.0,0.0
0.0,0.0,0.0,0.0
28.574,1.91,0.086,1.0
25.12,1.673,-0.065,0.0
47.239,3.125,1.174,158.0
47.282,3.116,0.908,1.0
0.0,0.0,0.0,0.0
32.519,2.126,0.253,0.0
27.8,1.811,0.06,0.0
24.704,1.603,-0.086,0.0
47.237,3.044,1.133,150.0
53.425,3.428,0.979,0.0
37.109,2.372,0.471,0.0
31.548,2.008,0.219,0.0
27.366,1.735,0.035,0.0
24.448,1.543,-0.105,0.0
47.266,2.963,1.093,3.0
0.0,0.0,0.0,0.0
47.258,2.937,0.56,2.0
30.575,1.892,0.187,0.0
26.742,1.648,0.013,1.0
23.995,1.472,-0.123,0.0
47.255,2.878,1.055,5.0
47.582,2.885,0.794,3.0
36.286,2.19,0.401,0.0
29.994,1.802,0.16,1.0
26.407,1.58,-0.007,0.0
23.326,1.389,-0.138,0.0
47.217,2.791,1.017,5.0
47.768,2.811,0.76,6.0
35.265,2.065,0.363,0.0
29.457,1.716,0.134,0.0
25.963,1.506,-0.027,0.0
23.01,1.328,-0.154,0.0
47.247,2.706,0.982,4.0
42.166,2.403,0.64,0.0
33.398,1.893,0.318,0.0
28.954,1.633,0.11,0.0
25.608,1.438,-0.046,0.0
22.447,1.254,-0.166,0.0
47.303,2.621,0.949,1.0
0.0,0.0,0.0,0.0
32.987,1.809,0.291,0.0
28.617,1.561,0.089,0.0
25.324,1.374,-0.063,0.0
22.075,1.192,-0.178,1.0
47.352,2.534,0.918,0.0
0.0,0.0,0.0,0.0
32.631,1.728,0.266,1.0
28.043,1.477,0.068,0.0
25.044,1.312,-0.078,1.0
21.941,1.143,-0.192,2.0
49.669,2.566,0.931,2.0
0.0,0.0,0.0,0.0
31.803,1.624,0.239,1.0
27.672,1.405,0.05,0.0
24.66,1.245,-0.093,0.0
21.748,1.091,-0.204,2.0
50.136,2.493,0.908,3.0
37.488,1.852,0.469,0.0
31.642,1.554,0.218,1.0
27.329,1.335,0.033,0.0
24.386,1.183,-0.106,0.0
21.542,1.039,-0.215,1.0
47.851,2.286,0.838,2.0
36.487,1.732,0.435,0.0
30.796,1.453,0.194,0.0
26.881,1.26,0.017,0.0
23.659,1.102,-0.117,0.0
21.259,0.984,-0.224,0.0
47.756,2.188,0.81,1.0
36.186,1.647,0.411,0.0
30.404,1.374,0.176,0.0
26.628,1.195,0.002,1.0
23.457,1.045,-0.128,1.0
21.241,0.94,-0.235,1.0
0.0,0.0,0.0,0.0
0.0,0.0,0.0,0.0
30.596,1.321,0.161,0.0
26.254,1.126,-0.01,0.0
23.443,0.998,-0.14,1.0
20.461,0.865,-0.236,0.0
0.0,0.0,0.0,0.0
33.952,1.41,0.352,0.0
28.964,1.193,0.138,0.0
26.118,1.068,-0.023,0.0
23.268,0.944,-0.15,1.0
20.172,0.812,-0.242,0.0
0.0,0.0,0.0,0.0
33.608,1.327,0.333,0.0
28.954,1.134,0.126,1.0
25.829,1.004,-0.033,6.0
23.027,0.887,-0.158,0.0
20.036,0.766,-0.249,0.0
0.0,0.0,0.0,0.0
33.474,1.254,0.318,1.0
28.88,1.072,0.114,1.0
25.786,0.949,-0.044,5.0
22.658,0.827,-0.165,0.0
19.776,0.715,-0.253,0.0
0.0,0.0,0.0,0.0
33.433,1.183,0.305,0.0
28.839,1.012,0.103,1.0
25.541,0.888,-0.053,0.0
22.617,0.779,-0.172,0.0
19.728,0.673,-0.26,0.0
0.0,0.0,0.0,0.0
33.043,1.102,0.29,0.0
28.85,0.953,0.093,3.0
25.251,0.826,-0.06,0.0
22.488,0.728,-0.179,0.0
19.606,0.628,-0.264,0.0
38.568,1.219,0.542,0.0
32.433,1.015,0.275,0.0
28.777,0.891,0.084,2.0
25.247,0.773,-0.068,0.0
22.271,0.674,-0.183,0.0
19.46,0.583,-0.268,0.0
38.045,1.123,0.524,0.0
32.435,0.946,0.266,0.0
28.674,0.827,0.077,1.0
25.169,0.717,-0.074,0.0
22.105,0.623,-0.187,0.0
19.345,0.538,-0.271,0.0
37.803,1.036,0.511,0.0
32.102,0.869,0.256,0.0
28.736,0.768,0.07,1.0
25.071,0.662,-0.079,0.0
22.093,0.576,-0.192,0.0
19.029,0.49,-0.271,0.0
36.722,0.929,0.489,0.0
31.715,0.791,0.247,0.0
28.578,0.704,0.064,0.0
24.952,0.606,-0.083,0.0
21.949,0.526,-0.195,0.0
19.034,0.45,-0.274,0.0
36.977,0.858,0.487,1.0
31.736,0.725,0.242,0.0
28.003,0.63,0.059,0.0
24.823,0.55,-0.086,0.0
21.969,0.479,-0.198,0.0
18.927,0.407,-0.275,0.0
36.965,0.778,0.482,0.0
31.621,0.655,0.237,0.0
27.921,0.569,0.056,0.0
24.851,0.498,-0.089,0.0
21.943,0.432,-0.2,0.0
18.928,0.366,-0.277,0.0
0.0,0.0,0.0,0.0
31.801,0.591,0.236,0.0
27.856,0.508,0.053,0.0
24.871,0.445,-0.091,0.0
21.92,0.384,-0.201,0.0
18.907,0.325,-0.277,0.0
37.198,0.625,0.48,0.0
31.569,0.519,0.233,0.0
27.769,0.447,0.052,0.0
24.782,0.39,-0.091,0.0
21.946,0.338,-0.202,0.0
18.906,0.284,-0.278,0.0
36.519,0.535,0.47,0.0
31.912,0.457,0.235,0.0
27.796,0.388,0.052,0.0
24.546,0.334,-0.09,0.0
21.845,0.29,-0.201,1.0
18.856,0.244,-0.277,0.0
36.407,0.456,0.47,0.0
31.5,0.383,0.233,0.0
28.289,0.334,0.054,1.0
24.766,0.284,-0.09,0.0
21.972,0.244,-0.201,3.0
18.895,0.203,-0.276,0.0
0.0,0.0,0.0,0.0
31.69,0.318,0.237,0.0
28.385,0.275,0.056,1.0
24.898,0.233,-0.089,0.0
22.05,0.198,-0.199,3.0
18.995,0.164,-0.276,0.0
0.0,0.0,0.0,0.0
0.0,0.0,0.0,0.0
28.203,0.213,0.059,0.0
24.991,0.181,-0.086,0.0
22.085,0.152,-0.197,3.0
19.082,0.124,-0.275,0.0
36.874,0.227,0.486,0.0
31.635,0.184,0.244,0.0
28.217,0.153,0.063,1.0
25.233,0.129,-0.083,0.0
22.0,0.104,-0.193,2.0
19.026,0.083,-0.271,0.0
0.0,0.0,0.0,0.0
31.602,0.116,0.25,0.0
28.453,0.094,0.069,1.0
25.191,0.074,-0.078,0.0
21.937,0.057,-0.188,1.0
19.178,0.043,-0.269,0.0
37.039,0.069,0.503,0.0
32.055,0.048,0.26,0.0
28.602,0.033,0.076,1.0
25.338,0.02,-0.073,0.0
22.222,0.01,-0.185,0.0
19.363,0.002,-0.267,0.0
0.0,0.0,0.0,0.0
32.948,-0.019,0.276,0.0
28.721,-0.027,0.084,4.0
25.341,-0.032,-0.066,0.0
22.279,-0.037,-0.179,0.0
19.516,-0.039,-0.264,0.0
38.115,-0.089,0.538,0.0
33.117,-0.089,0.287,1.0
28.753,-0.088,0.092,7.0
25.398,-0.087,-0.058,0.0
22.748,-0.086,-0.176,0.0
19.48,-0.08,-0.257,0.0
0.0,0.0,0.0,0.0
33.035,-0.159,0.297,1.0
28.782,-0.149,0.102,7.0
25.62,-0.142,-0.05,0.0
22.801,-0.134,-0.169,0.0
19.811,-0.124,-0.254,0.0
0.0,0.0,0.0,0.0
32.792,-0.227,0.307,1.0
28.758,-0.21,0.113,6.0
25.969,-0.198,-0.041,0.0
22.933,-0.183,-0.161,0.0
19.925,-0.166,-0.248,0.0
0.0,0.0,0.0,0.0
33.221,-0.3,0.324,1.0
28.78,-0.27,0.124,3.0
26.029,-0.254,-0.03,0.0
23.184,-0.234,-0.153,0.0
20.055,-0.209,-0.241,0.0
0.0,0.0,0.0,0.0
33.59,-0.373,0.342,1.0
28.758,-0.33,0.137,0.0
26.255,-0.311,-0.019,0.0
23.28,-0.283,-0.143,1.0
20.372,-0.255,-0.235,0.0
0.0,0.0,0.0,0.0
33.971,-0.448,0.362,0.0
30.486,-0.413,0.16,0.0
26.605,-0.37,-0.006,0.0
23.628,-0.337,-0.133,0.0
20.796,-0.304,-0.23,0.0
0.0,0.0,0.0,0.0
34.44,-0.527,0.385,0.0
30.81,-0.483,0.178,0.0
26.616,-0.426,0.007,0.0
23.946,-0.392,-0.122,0.0
21.303,-0.356,-0.224,0.0
0.0,0.0,0.0,0.0
34.068,-0.592,0.399,0.0
31.059,-0.55,0.196,0.0
27.443,-0.496,0.022,0.0
24.465,-0.451,-0.111,0.0
21.645,-0.406,-0.215,0.0
0.0,0.0,0.0,0.0
35.711,-0.694,0.44,0.0
31.307,-0.62,0.216,0.0
27.883,-0.561,0.039,0.0
24.678,-0.506,-0.097,3.0
22.027,-0.459,-0.205,0.0
0.0,0.0,0.0,0.0
0.0,0.0,0.0,0.0
31.872,-0.696,0.24,0.0
28.51,-0.632,0.058,1.0
