X,Y,Z,Reflectivity
46.775,0.943,6.023,21.0
48.864,0.993,6.008,11.0
0.0,0.0,0.0,0.0
50.067,1.034,5.587,28.0
52.035,1.09,7.282,26.0
47.637,1.005,6.393,23.0
46.528,0.989,5.977,21.0
45.553,0.976,5.587,20.0
50.067,1.08,5.855,23.0
49.945,1.086,5.557,23.0
52.257,1.152,7.295,6.0
47.725,1.059,6.388,22.0
46.541,1.04,5.963,21.0
45.502,1.024,5.565,20.0
50.247,1.139,5.858,23.0
49.625,1.133,5.503,14.0
52.05,1.204,7.246,10.0
43.633,1.016,5.823,11.0
46.197,1.083,5.9,20.0
45.576,1.075,5.555,20.0
45.752,1.086,5.315,19.0
49.638,1.186,5.484,16.0
51.805,1.255,7.19,9.0
43.725,1.066,5.816,30.0
48.9,1.199,6.224,16.0
45.586,1.124,5.536,20.0
50.144,1.244,5.803,11.0
45.934,1.146,5.053,28.0
47.64,1.205,6.589,18.0
43.709,1.111,5.793,33.0
48.936,1.252,6.204,10.0
45.419,1.168,5.493,20.0
45.779,1.184,5.274,18.0
49.622,1.29,5.434,13.0
47.55,1.253,6.552,10.0
47.285,1.252,6.242,3.0
45.24,1.204,5.712,19.0
45.473,1.216,5.475,26.0
45.657,1.228,5.236,14.0
49.123,1.328,5.352,23.0
43.893,1.201,6.023,24.0
47.398,1.303,6.23,16.0
45.268,1.251,5.689,25.0
45.443,1.262,5.445,30.0
45.801,1.278,5.225,13.0
49.394,1.385,5.353,7.0
43.899,1.246,5.997,24.0
0.0,0.0,0.0,0.0
45.238,1.296,5.657,24.0
45.435,1.308,5.416,34.0
45.828,1.325,5.199,13.0
49.356,1.434,5.317,5.0
47.551,1.397,6.465,4.0
0.0,0.0,0.0,0.0
0.0,0.0,0.0,0.0
45.562,1.356,5.401,24.0
45.853,1.37,5.172,19.0
46.237,1.388,4.95,17.0
43.91,1.334,5.939,24.0
44.086,1.344,5.708,20.0
43.939,1.345,5.435,17.0
45.633,1.402,5.377,38.0
45.81,1.413,5.134,19.0
48.418,1.5,5.149,7.0
43.731,1.37,5.883,31.0
43.917,1.38,5.654,28.0
0.0,0.0,0.0,0.0
47.601,1.508,5.573,28.0
45.757,1.455,5.094,12.0
48.426,1.545,5.113,12.0
43.903,1.417,5.872,29.0
43.858,1.42,5.611,33.0
0.0,0.0,0.0,0.0
47.331,1.543,5.504,22.0
45.49,1.488,5.028,30.0
48.485,1.592,5.08,4.0
44.563,1.478,5.924,21.0
43.759,1.456,5.563,27.0
45.562,1.522,5.528,39.0
45.835,1.535,5.292,19.0
45.793,1.539,5.023,20.0
48.511,1.636,5.042,16.0
44.198,1.506,5.837,19.0
43.734,1.495,5.522,32.0
45.658,1.566,5.5,25.0
45.795,1.575,5.247,19.0
46.168,1.592,5.023,20.0
50.765,1.756,5.231,11.0
44.065,1.54,5.78,29.0
43.754,1.534,5.484,37.0
45.909,1.613,5.488,20.0
45.962,1.62,5.224,20.0
46.008,1.626,4.964,20.0
56.258,1.994,5.746,17.0
43.852,1.57,5.71,26.0
0.0,0.0,0.0,0.0
46.076,1.658,5.465,20.0
48.453,1.748,5.461,7.0
45.909,1.661,4.909,19.0
50.208,1.821,5.08,17.0
43.617,1.597,5.637,29.0
45.369,1.666,5.599,26.0
45.874,1.688,5.395,20.0
45.702,1.686,5.106,22.0
48.695,1.801,5.159,5.0
50.165,1.86,5.025,20.0
43.496,1.628,5.577,31.0
45.443,1.704,5.562,29.0
45.92,1.726,5.354,15.0
45.586,1.718,5.046,26.0
48.587,1.835,5.097,21.0
50.056,1.894,4.962,21.0
43.542,1.664,5.537,26.0
45.618,1.747,5.535,33.0
45.853,1.759,5.297,28.0
45.539,1.75,4.992,25.0
48.859,1.882,5.073,16.0
49.914,1.927,4.895,34.0
43.876,1.709,5.531,31.0
45.934,1.793,5.522,23.0
45.802,1.791,5.24,24.0
48.644,1.906,5.278,7.0
48.438,1.901,4.975,18.0
49.893,1.962,4.837,29.0
44.022,1.747,5.499,28.0
45.892,1.823,5.466,20.0
45.733,1.821,5.181,20.0
48.739,1.943,5.233,23.0
0.0,0.0,0.0,0.0
49.768,1.991,4.768,26.0
0.0,0.0,0.0,0.0
45.823,1.852,5.404,18.0
45.561,1.844,5.108,32.0
48.556,1.968,5.157,32.0
0.0,0.0,0.0,0.0
49.747,2.023,4.708,17.0
0.0,0.0,0.0,0.0
45.82,1.882,5.348,31.0
45.701,1.879,5.069,20.0
48.644,2.003,5.108,23.0
50.15,2.068,4.975,30.0
49.774,2.055,4.65,21.0
45.923,1.913,5.572,24.0
45.715,1.906,5.28,36.0
46.201,1.929,5.067,23.0
48.393,2.023,5.021,22.0
50.12,2.098,4.91,37.0
51.22,2.146,4.721,11.0
45.941,1.941,5.515,21.0
45.644,1.93,5.214,33.0
0.0,0.0,0.0,0.0
48.363,2.049,4.957,25.0
50.007,2.122,4.835,19.0
0.0,0.0,0.0,0.0
45.74,1.958,5.432,35.0
45.806,1.963,5.173,22.0
49.595,2.127,5.312,23.0
50.168,2.154,5.077,4.0
53.866,2.315,5.139,11.0
55.453,2.385,4.969,24.0
45.683,1.98,5.366,31.0
46.196,2.003,5.156,28.0
49.435,2.146,5.229,23.0
50.147,2.178,5.008,27.0
53.809,2.34,5.061,8.0
55.384,2.41,4.889,24.0
45.661,2.002,5.301,30.0
48.105,2.11,5.303,8.0
49.946,2.193,5.215,23.0
50.349,2.212,4.959,24.0
49.562,2.178,4.594,19.0
55.345,2.435,4.809,23.0
45.587,2.02,5.228,29.0
49.306,2.186,5.367,16.0
50.353,2.233,5.187,24.0
50.24,2.23,4.878,25.0
53.822,2.39,4.914,14.0
55.229,2.454,4.722,19.0
45.857,2.052,5.194,29.0
56.415,2.525,6.061,11.0
50.238,2.249,5.104,19.0
49.67,2.225,4.753,18.0
53.838,2.412,4.839,17.0
55.203,2.475,4.642,18.0
48.112,2.172,5.381,8.0
51.204,2.311,5.428,11.0
50.458,2.279,5.055,24.0
49.55,2.238,4.67,20.0
49.249,2.225,4.356,22.0
58.188,2.63,4.809,20.0
48.252,2.195,5.326,19.0
50.475,2.297,5.276,22.0
50.724,2.308,5.006,24.0
49.562,2.256,4.598,19.0
49.234,2.241,4.281,27.0
58.242,2.652,4.727,26.0
49.34,2.261,5.372,18.0
50.26,2.303,5.178,22.0
50.774,2.327,4.935,18.0
53.835,2.467,4.913,9.0
49.163,2.253,4.202,22.0
64.165,2.941,5.111,19.0
49.381,2.277,5.3,17.0
50.248,2.317,5.1,24.0
0.0,0.0,0.0,0.0
55.556,2.561,4.985,17.0
49.219,2.269,4.131,17.0
64.173,2.958,5.013,21.0
50.568,2.345,5.35,25.0
50.559,2.344,5.053,24.0
49.645,2.301,4.672,23.0
49.17,2.279,4.336,17.0
58.211,2.697,4.795,22.0
0.0,0.0,0.0,0.0
50.423,2.349,5.255,23.0
50.808,2.366,4.999,24.0
55.611,2.588,5.147,8.0
49.206,2.29,4.263,16.0
58.226,2.709,4.705,26.0
65.851,3.063,4.939,21.0
50.508,2.362,5.184,25.0
49.713,2.324,4.811,16.0
55.54,2.595,5.052,24.0
49.224,2.298,4.185,23.0
58.239,2.719,4.613,8.0
65.909,3.076,4.838,16.0
50.714,2.378,5.123,26.0
49.627,2.326,4.722,23.0
55.561,2.603,4.963,6.0
58.19,2.725,4.853,8.0
64.207,3.005,4.982,8.0
80.37,3.759,5.77,19.0
50.876,2.391,5.056,25.0
49.597,2.329,4.639,18.0
49.186,2.309,4.314,21.0
58.194,2.73,4.759,31.0
65.845,3.087,5.001,15.0
80.647,3.778,5.658,18.0
0.0,0.0,0.0,0.0
55.552,2.613,5.104,21.0
49.199,2.312,4.233,19.0
58.203,2.733,4.662,25.0
80.552,3.779,5.985,12.0
81.026,3.8,5.55,13.0
49.644,2.337,4.768,20.0
55.528,2.612,5.008,15.0
49.236,2.314,4.154,19.0
64.187,3.014,5.035,7.0
80.345,3.769,5.837,26.0
65.359,3.064,4.368,7.0
49.609,2.335,4.681,25.0
49.199,2.313,4.354,17.0
58.208,2.734,4.812,23.0
65.855,3.09,5.055,10.0
80.452,3.772,5.708,21.0
65.165,3.052,4.245,19.0
55.592,2.614,5.15,15.0
49.198,2.31,4.271,19.0
58.21,2.73,4.713,30.0
65.871,3.086,4.944,15.0
80.914,3.787,5.603,14.0
81.374,3.805,5.162,27.0
55.532,2.605,5.049,19.0
49.227,2.307,4.188,21.0
58.219,2.724,4.614,7.0
65.882,3.079,4.831,17.0
65.883,3.076,4.449,18.0
81.475,3.799,5.03,33.0
49.227,2.302,4.391,17.0
58.182,2.718,4.85,9.0
0.0,0.0,0.0,0.0
65.911,3.07,4.72,22.0
65.259,3.036,4.294,23.0
81.515,3.788,4.891,30.0
49.197,2.293,4.302,16.0
58.211,2.709,4.752,25.0
65.834,3.059,4.99,28.0
65.902,3.057,4.605,33.0
65.195,3.021,4.178,10.0
81.343,3.763,4.741,33.0
49.18,2.281,4.215,16.0
64.175,2.972,5.127,26.0
65.86,3.045,4.878,34.0
65.912,3.042,4.491,40.0
81.5,3.757,5.08,17.0
81.3,3.742,4.597,31.0
58.215,2.685,4.887,15.0
0.0,0.0,0.0,0.0
65.888,3.029,4.764,39.0
65.573,3.009,4.353,41.0
81.566,3.737,4.941,16.0
81.353,3.721,4.457,29.0
58.224,2.668,4.785,25.0
65.816,3.01,5.025,28.0
65.892,3.008,4.647,41.0
65.267,2.974,4.217,24.0
81.323,3.699,4.782,29.0
81.251,3.689,4.307,33.0
58.298,2.652,4.687,16.0
65.87,2.99,4.912,29.0
65.9,2.985,4.531,33.0
65.4,2.957,4.109,22.0
81.285,3.668,4.635,22.0
81.169,3.656,4.157,32.0
64.208,2.896,5.046,7.0
65.941,2.968,4.798,16.0
65.876,2.959,4.41,25.0
65.496,2.935,3.998,21.0
81.261,3.634,4.489,23.0
81.08,3.619,4.009,23.0
66.226,2.959,5.086,20.0
80.643,3.595,5.723,11.0
65.551,2.915,4.271,34.0
65.521,2.908,3.882,19.0
81.28,3.599,4.344,28.0
81.018,3.579,3.86,2.0
66.143,2.925,4.961,24.0
66.02,2.912,4.567,26.0
65.404,2.878,4.144,30.0
65.507,2.876,3.764,27.0
81.179,3.555,4.193,15.0
0.0,0.0,0.0,0.0
66.092,2.889,4.838,28.0
65.952,2.876,4.444,23.0
65.447,2.846,4.029,30.0
65.535,2.843,3.648,35.0
65.612,2.839,3.271,27.0
0.0,0.0,0.0,0.0
66.084,2.853,4.717,43.0
65.819,2.833,4.315,8.0
65.46,2.811,3.911,26.0
65.543,2.806,3.529,41.0
65.587,2.8,3.15,23.0
48.747,2.076,2.06,4.0
66.077,2.814,4.597,24.0
65.45,2.779,4.173,16.0
65.47,2.772,3.794,28.0
65.541,2.767,3.412,49.0
65.5,2.757,3.029,1.0
48.674,2.043,1.969,11.0
81.684,3.428,5.536,22.0
65.395,2.736,4.051,25.0
65.513,2.733,3.679,40.0
65.543,2.725,3.293,59.0
0.0,0.0,0.0,0.0
48.707,2.013,1.883,3.0
81.589,3.37,5.382,30.0
65.436,2.694,3.937,20.0
65.541,2.689,3.562,55.0
65.567,2.682,3.177,55.0
48.773,1.988,2.08,1.0
48.843,1.985,1.801,2.0
65.44,2.657,4.2,13.0
65.491,2.649,3.822,23.0
65.558,2.643,3.446,40.0
65.568,2.635,3.06,31.0
48.745,1.952,1.993,4.0
49.019,1.957,1.721,2.0
65.434,2.608,4.082,23.0
65.564,2.603,3.709,38.0
65.581,2.595,3.33,27.0
65.594,2.586,2.944,12.0
49.545,1.946,1.937,1.0
49.112,1.922,1.635,1.0
65.486,2.559,3.968,22.0
65.641,2.555,3.596,9.0
81.138,3.146,3.974,13.0
50.89,1.966,2.193,0.0
49.63,1.91,1.851,2.0
49.363,1.892,1.556,2.0
65.565,2.508,3.855,8.0
81.322,3.098,4.31,32.0
81.091,3.077,3.827,25.0
50.585,1.912,2.09,1.0
49.671,1.869,1.765,2.0
49.67,1.862,1.477,2.0
81.367,3.043,4.639,29.0
81.217,3.024,4.16,32.0
81.084,3.006,3.683,7.0
50.452,1.862,1.994,1.0
49.932,1.835,1.685,2.0
49.991,1.83,1.399,2.0
81.666,2.981,4.513,23.0
81.04,2.944,4.008,26.0
56.113,2.03,2.45,0.0
50.382,1.814,1.903,3.0
50.183,1.798,1.605,2.0
50.262,1.793,1.317,2.0
81.677,2.905,4.368,29.0
81.141,2.871,3.869,22.0
0.0,0.0,0.0,0.0
50.509,1.77,1.818,3.0
50.477,1.76,1.525,3.0
50.58,1.755,1.236,1.0
81.335,2.812,4.204,28.0
81.638,2.808,3.747,9.0
0.0,0.0,0.0,0.0
50.687,1.725,1.735,3.0
0.0,0.0,0.0,0.0
0.0,0.0,0.0,0.0
81.415,2.732,4.066,24.0
0.0,0.0,0.0,0.0
0.0,0.0,0.0,0.0
51.121,1.687,1.66,6.0
54.096,1.776,1.444,12.0
51.014,1.665,1.067,0.0
81.887,2.66,3.945,30.0
0.0,0.0,0.0,0.0
0.0,0.0,0.0,0.0
54.073,1.726,1.661,3.0
54.253,1.722,1.353,7.0
55.07,1.737,1.056,1.0
82.138,2.578,3.814,8.0
0.0,0.0,0.0,0.0
0.0,0.0,0.0,0.0
54.068,1.665,1.566,5.0
54.421,1.666,1.263,1.0
0.0,0.0,0.0,0.0
0.0,0.0,0.0,0.0
0.0,0.0,0.0,0.0
54.093,1.615,1.792,0.0
54.171,1.607,1.477,6.0
55.745,1.642,1.198,3.0
0.0,0.0,0.0,0.0
0.0,0.0,0.0,0.0
0.0,0.0,0.0,0.0
54.136,1.553,1.702,1.0
54.055,1.54,1.382,5.0
56.217,1.59,1.113,2.0
0.0,0.0,0.0,0.0
57.715,1.609,2.383,1.0
0.0,0.0,0.0,0.0
54.048,1.484,1.608,5.0
54.326,1.48,1.297,1.0
0.0,0.0,0.0,0.0
36.016,0.967,0.445,0.0
0.0,0.0,0.0,0.0
54.307,1.435,1.838,1.0
54.079,1.417,1.518,2.0
56.929,1.48,1.264,3.0
0.0,0.0,0.0,0.0
34.395,0.879,0.367,0.0
0.0,0.0,0.0,0.0
54.311,1.366,1.748,2.0
54.148,1.35,1.43,1.0
57.523,1.422,1.183,2.0
40.778,0.999,0.603,0.0
32.663,0.793,0.295,0.0
0.0,0.0,0.0,0.0
54.155,1.291,1.655,1.0
54.375,1.285,1.348,0.0
47.674,1.115,0.903,1.0
36.936,0.856,0.487,0.0
31.423,0.721,0.233,0.0
54.441,1.237,1.889,6.0
0.0,0.0,0.0,0.0
52.207,1.163,1.21,3.0
0.0,0.0,0.0,0.0
0.0,0.0,0.0,0.0
30.804,0.665,0.179,0.0
54.497,1.164,1.804,12.0
0.0,0.0,0.0,0.0
54.662,1.141,1.179,1.0
0.0,0.0,0.0,0.0
33.893,0.692,0.338,1.0
28.823,0.582,0.122,1.0
0.0,0.0,0.0,0.0
54.343,1.071,1.399,0.0
0.0,0.0,0.0,0.0
0.0,0.0,0.0,0.0
32.216,0.612,0.271,0.0
28.522,0.535,0.076,0.0
0.0,0.0,0.0,0.0
54.574,0.998,1.321,0.0
0.0,0.0,0.0,0.0
36.319,0.646,0.457,0.0
31.296,0.549,0.214,0.0
27.243,0.471,0.03,0.0
55.018,0.938,1.563,1.0
54.837,0.921,1.242,0.0
0.0,0.0,0.0,0.0
34.82,0.567,0.385,1.0
28.894,0.463,0.153,0.0
26.446,0.417,-0.011,0.0
0.0,0.0,0.0,0.0
0.0,0.0,0.0,0.0
40.556,0.61,0.624,2.0
33.543,0.496,0.32,0.0
28.848,0.419,0.11,5.0
25.624,0.366,-0.049,0.0
0.0,0.0,0.0,0.0
0.0,0.0,0.0,0.0
0.0,0.0,0.0,0.0
32.122,0.425,0.259,0.0
28.413,0.369,0.067,1.0
24.876,0.317,-0.083,0.0
57.448,0.716,1.375,1.0
0.0,0.0,0.0,0.0
0.0,0.0,0.0,0.0
30.513,0.356,0.202,0.0
27.208,0.311,0.024,0.0
24.099,0.269,-0.116,0.0
55.058,0.599,1.238,0.0
0.0,0.0,0.0,0.0
34.673,0.359,0.383,0.0
28.89,0.292,0.15,3.0
26.433,0.26,-0.013,0.0
23.39,0.224,-0.145,0.0
0.0,0.0,0.0,0.0
40.019,0.36,0.614,0.0
32.993,0.288,0.317,0.0
28.805,0.244,0.109,6.0
25.714,0.211,-0.049,0.0
22.417,0.178,-0.171,1.0
0.0,0.0,0.0,0.0
0.0,0.0,0.0,0.0
0.0,0.0,0.0,0.0
28.29,0.194,0.069,1.0
25.031,0.164,-0.082,0.0
21.933,0.138,-0.197,3.0
0.0,0.0,0.0,0.0
36.442,0.209,0.46,0.0
31.112,0.169,0.215,0.0
27.414,0.142,0.03,0.0
24.33,0.119,-0.112,0.0
21.088,0.097,-0.218,3.0
0.0,0.0,0.0,0.0
0.0,0.0,0.0,0.0
30.236,0.114,0.169,0.0
26.682,0.093,-0.005,0.0
23.354,0.075,-0.138,1.0
20.493,0.06,-0.238,0.0
40.42,0.107,0.636,0.0
33.427,0.079,0.335,0.0
28.739,0.059,0.123,1.0
25.888,0.046,-0.038,0.0
23.022,0.034,-0.165,0.0
19.522,0.023,-0.252,0.0
0.0,0.0,0.0,0.0
32.946,0.02,0.288,0.0
28.569,0.009,0.087,1.0
25.201,0.001,-0.069,0.0
21.784,-0.005,-0.184,0.0
19.044,-0.01,-0.269,0.0
0.0,0.0,0.0,0.0
31.168,-0.035,0.234,0.0
27.904,-0.039,0.05,0.0
24.643,-0.042,-0.098,0.0
21.368,-0.042,-0.206,0.0
18.433,-0.042,-0.283,0.0
0.0,0.0,0.0,0.0
28.845,-0.083,0.182,0.0
27.185,-0.087,0.016,0.0
23.926,-0.083,-0.124,0.0
20.677,-0.078,-0.225,0.0
18.097,-0.074,-0.3,0.0
33.226,-0.146,0.359,0.0
28.846,-0.135,0.148,5.0
26.316,-0.131,-0.014,0.0
23.06,-0.122,-0.146,0.0
19.856,-0.111,-0.239,0.0
17.615,-0.104,-0.312,0.0
32.876,-0.204,0.318,1.0
28.757,-0.187,0.114,7.0
25.528,-0.174,-0.043,0.0
22.505,-0.16,-0.168,0.0
19.402,-0.144,-0.255,0.0
17.232,-0.133,-0.325,0.0
32.021,-0.257,0.274,1.0
28.615,-0.238,0.082,3.0
25.096,-0.217,-0.07,0.0
22.149,-0.198,-0.19,0.0
18.872,-0.175,-0.269,0.0
16.935,-0.162,-0.338,0.0
31.289,-0.309,0.234,1.0
27.674,-0.282,0.049,0.0
24.406,-0.257,-0.094,0.0
21.542,-0.233,-0.208,0.0
18.552,-0.207,-0.284,0.0
16.674,-0.191,-0.35,0.0
0.0,0.0,0.0,0.0
27.044,-0.326,0.02,0.0
23.841,-0.295,-0.117,0.0
20.793,-0.264,-0.222,0.0
18.185,-0.237,-0.297,0.0
16.474,-0.22,-0.363,0.0
28.8,-0.392,0.156,0.0
26.582,-0.371,-0.006,0.0
23.46,-0.335,-0.138,1.0
20.072,-0.293,-0.234,0.0
17.775,-0.265,-0.308,0.0
16.187,-0.247,-0.373,0.0
28.68,-0.445,0.127,0.0
25.972,-0.412,-0.031,0.0
23.048,-0.373,-0.159,0.0
19.474,-0.321,-0.246,0.0
17.382,-0.292,-0.318,0.0
15.961,-0.274,-0.383,0.0
28.561,-0.499,0.099,1.0
25.242,-0.449,-0.054,0.0
22.423,-0.406,-0.175,0.0
19.231,-0.355,-0.261,0.0
17.106,-0.321,-0.329,0.0
15.658,-0.299,-0.39,0.0
28.494,-0.552,0.073,2.0
24.781,-0.488,-0.075,0.0
21.988,-0.44,-0.191,0.0
18.807,-0.383,-0.272,0.0
16.872,-0.349,-0.34,0.0
15.477,-0.325,-0.399,0.0
27.682,-0.59,0.047,0.0
24.112,-0.521,-0.094,0.0
21.632,-0.475,-0.207,0.0
18.379,-0.41,-0.282,0.0
16.67,-0.377,-0.35,0.0
15.284,-0.351,-0.407,0.0
27.201,-0.632,0.024,0.0
23.903,-0.563,-0.113,0.0
20.736,-0.496,-0.215,0.0
18.199,-0.441,-0.294,0.0
16.507,-0.406,-0.36,0.0
15.053,-0.375,-0.413,0.0
26.701,-0.672,0.002,0.0
23.442,-0.598,-0.13,0.0
20.65,-0.534,-0.231,0.0
17.933,-0.47,-0.303,0.0
16.284,-0.432,-0.367,0.0
14.797,-0.398,-0.417,0.0
26.269,-0.713,-0.017,0.0
23.246,-0.639,-0.146,0.0
19.743,-0.549,-0.235,0.0
17.601,-0.496,-0.311,0.0
16.073,-0.458,-0.375,0.0
14.706,-0.424,-0.426,0.0
25.793,-0.751,-0.036,0.0
22.944,-0.676,-0.161,0.0
19.502,-0.581,-0.246,0.0
17.407,-0.525,-0.32,0.0
15.886,-0.485,-0.381,0.0
14.567,-0.449,-0.432,0.0
25.442,-0.791,-0.053,0.0
22.401,-0.704,-0.172,0.0
19.318,-0.614,-0.257,0.0
17.144,-0.551,-0.326,0.0
15.766,-0.512,-0.389,0.0
14.393,-0.473,-0.436,0.0
24.907,-0.824,-0.068,0.0
22.146,-0.74,-0.185,1.0
19.019,-0.642,-0.265,0.0
17.044,-0.581,-0.335,0.0
15.683,-0.541,-0.397,0.0
14.28,-0.497,-0.442,0.0
24.638,-0.864,-0.082,0.0
21.417,-0.758,-0.191,0.0
18.852,-0.674,-0.274,0.0
16.812,-0.607,-0.341,0.0
15.471,-0.564,-0.4,0.0
14.165,-0.521,-0.446,0.0
24.635,-0.912,-0.096,0.0
21.094,-0.788,-0.2,2.0
18.554,-0.7,-0.28,0.0
16.672,-0.635,-0.347,0.0
15.293,-0.588,-0.404,0.0
14.025,-0.544,-0.45,0.0
23.555,-0.919,-0.104,0.0
20.966,-0.826,-0.21,2.0
18.301,-0.727,-0.286,0.0
16.625,-0.666,-0.355,0.0
15.107,-0.611,-0.407,0.0
13.91,-0.568,-0.453,0.0
23.686,-0.971,-0.116,0.0
20.956,-0.867,-0.22,1.0
18.126,-0.756,-0.292,0.0
16.455,-0.692,-0.359,0.0
14.979,-0.636,-0.411,0.0
13.868,-0.593,-0.458,0.0
23.618,-1.015,-0.127,1.0
20.896,-0.906,-0.229,1.0
17.997,-0.786,-0.298,0.0
16.324,-0.719,-0.363,0.0
14.886,-0.661,-0.415,0.0
13.822,-0.619,-0.462,0.0
23.482,-1.056,-0.136,1.0
20.729,-0.94,-0.236,0.0
17.859,-0.816,-0.303,0.0
16.247,-0.748,-0.368,0.0
14.747,-0.684,-0.417,0.0
13.733,-0.642,-0.465,0.0
23.181,-1.088,-0.143,1.0
19.908,-0.942,-0.234,0.0
17.716,-0.845,-0.307,0.0
16.151,-0.776,-0.372,0.0
14.738,-0.713,-0.422,0.0
13.673,-0.667,-0.467,0.0
23.029,-1.127,-0.15,1.0
19.802,-0.976,-0.239,0.0
17.638,-0.876,-0.311,0.0
16.023,-0.802,-0.374,0.0
14.632,-0.737,-0.423,0.0
13.609,-0.691,-0.469,0.0
22.926,-1.168,-0.156,1.0
19.578,-1.004,-0.242,0.0
17.55,-0.906,-0.315,0.0
15.87,-0.826,-0.375,0.0
14.639,-0.767,-0.427,0.0
13.57,-0.716,-0.472,0.0
22.853,-1.21,-0.162,1.0
19.454,-1.037,-0.246,0.0
17.428,-0.935,-0.317,0.0
15.891,-0.858,-0.379,0.0
14.613,-0.795,-0.43,0.0
13.533,-0.741,-0.474,0.0
22.922,-1.259,-0.167,0.0
34.254,-1.893,-0.441,1.0
17.415,-0.969,-0.321,0.0
15.755,-0.882,-0.379,0.0
14.591,-0.822,-0.432,0.0
13.527,-0.767,-0.476,0.0
22.63,-1.287,-0.169,0.0
19.374,-1.108,-0.252,0.0
17.382,-1.001,-0.323,0.0
15.809,-0.916,-0.383,0.0
14.518,-0.846,-0.433,0.0
13.446,-0.789,-0.475,0.0
22.447,-1.32,-0.171,0.0
19.355,-1.145,-0.255,0.0
17.329,-1.032,-0.324,0.0
15.79,-0.946,-0.385,0.0
14.477,-0.872,-0.433,0.0
13.471,-0.817,-0.478,0.0
22.447,-1.364,-0.173,0.0
19.271,-1.178,-0.256,0.0
17.283,-1.062,-0.325,0.0
15.716,-0.972,-0.384,0.0
14.467,-0.9,-0.434,0.0
13.456,-0.842,-0.478,0.0
22.458,-1.408,-0.175,0.0
19.242,-1.213,-0.256,0.0
17.285,-1.096,-0.326,0.0
15.687,-1.0,-0.384,0.0
14.474,-0.928,-0.435,0.0
13.413,-0.865,-0.477,0.0
22.452,-1.451,-0.176,0.0
19.237,-1.25,-0.257,0.0
17.328,-1.132,-0.327,0.0
15.757,-1.035,-0.386,0.0
14.39,-0.951,-0.432,0.0
13.429,-0.892,-0.478,0.0
22.446,-1.494,-0.175,0.0
19.261,-1.288,-0.257,0.0
17.298,-1.163,-0.326,0.0
15.661,-1.058,-0.384,0.0
14.456,-0.982,-0.434,0.0
13.405,-0.916,-0.476,0.0
22.474,-1.538,-0.174,0.0
19.358,-1.331,-0.257,0.0
17.314,-1.197,-0.325,0.0
15.609,-1.085,-0.381,0.0
14.401,-1.006,-0.431,0.0
13.452,-0.945,-0.477,0.0
22.447,-1.578,-0.172,0.0
19.443,-1.374,-0.256,0.0
17.209,-1.222,-0.322,0.0
15.703,-1.121,-0.382,0.0
14.526,-1.042,-0.433,0.0
13.464,-0.971,-0.476,0.0
33.916,-2.449,-0.256,1.0
19.409,-1.408,-0.253,0.0
17.36,-1.266,-0.322,0.0
15.79,-1.157,-0.382,0.0
14.494,-1.067,-0.43,0.0
13.452,-0.995,-0.473,0.0
33.888,-2.51,-0.251,6.0
19.743,-1.469,-0.254,0.0
17.516,-1.309,-0.322,0.0
15.754,-1.183,-0.378,0.0
14.555,-1.098,-0.429,0.0
13.502,-1.023,-0.473,0.0
33.872,-2.57,-0.244,4.0
19.663,-1.498,-0.249,0.0
17.552,-1.344,-0.319,0.0
15.816,-1.216,-0.376,0.0
14.585,-1.127,-0.427,0.0
13.521,-1.049,-0.47,0.0
33.88,-2.632,-0.236,3.0
19.795,-1.544,-0.246,0.0
17.597,-1.379,-0.316,0.0
15.927,-1.254,-0.375,0.0
14.591,-1.154,-0.423,0.0
13.59,-1.079,-0.469,0.0
33.87,-2.692,-0.227,5.0
19.923,-1.59,-0.242,0.0
17.739,-1.422,-0.313,0.0
16.021,-1.29,-0.372,0.0
14.68,-1.187,-0.422,0.0
13.627,-1.107,-0.466,0.0
33.854,-2.751,-0.216,5.0
20.399,-1.664,-0.242,0.0
17.786,-1.457,-0.308,0.0
16.155,-1.329,-0.37,0.0
14.751,-1.218,-0.419,0.0
13.68,-1.134,-0.464,0.0
33.847,-2.809,-0.205,4.0
20.627,-1.718,-0.237,0.0
17.904,-1.497,-0.304,0.0
16.193,-1.36,-0.365,0.0
14.778,-1.246,-0.414,0.0
13.77,-1.166,-0.461,0.0
23.355,-1.978,-0.132,1.0
20.806,-1.769,-0.232,1.0
18.024,-1.538,-0.299,0.0
16.484,-1.412,-0.365,0.0
14.867,-1.279,-0.411,0.0
13.843,-1.196,-0.458,0.0
23.488,-2.029,-0.123,0.0
20.884,-1.811,-0.224,1.0
18.246,-1.588,-0.295,0.0
16.603,-1.451,-0.361,0.0
15.013,-1.317,-0.408,0.0
13.917,-1.225,-0.455,0.0
23.711,-2.088,-0.114,0.0
21.01,-1.857,-0.216,2.0
18.375,-1.63,-0.289,0.0
16.69,-1.486,-0.355,0.0
15.215,-1.36,-0.407,0.0
14.002,-1.256,-0.451,0.0
23.858,-2.141,-0.103,0.0
21.327,-1.92,-0.209,1.0
18.72,-1.691,-0.285,0.0
16.814,-1.525,-0.349,0.0
15.246,-1.387,-0.4,0.0
14.103,-1.288,-0.447,0.0
24.562,-2.243,-0.094,0.0
21.679,-1.987,-0.201,1.0
18.991,-1.747,-0.279,0.0
16.987,-1.568,-0.344,0.0
15.431,-1.429,-0.396,0.0
14.186,-1.318,-0.442,0.0
24.449,-2.272,-0.08,0.0
22.191,-2.069,-0.193,1.0
19.195,-1.796,-0.271,0.0
17.112,-1.606,-0.337,0.0
15.619,-1.471,-0.393,0.0
14.294,-1.351,-0.437,0.0
25.456,-2.406,-0.068,0.0
22.457,-2.129,-0.183,1.0
19.426,-1.847,-0.263,0.0
17.34,-1.654,-0.331,0.0
15.708,-1.503,-0.385,0.0
14.385,-1.381,-0.431,0.0
25.525,-2.451,-0.053,0.0
22.667,-2.183,-0.17,1.0
19.743,-1.907,-0.255,0.0
17.508,-1.697,-0.324,0.0
15.895,-1.545,-0.38,0.0
14.61,-1.425,-0.429,0.0
26.019,-2.537,-0.038,0.0
23.037,-2.253,-0.158,2.0
19.898,-1.952,-0.245,0.0
17.722,-1.744,-0.316,0.0
16.196,-1.598,-0.377,0.0
14.742,-1.459,-0.423,0.0
26.347,-2.608,-0.021,0.0
23.403,-2.323,-0.145,0.0
33.983,-3.384,-0.396,1.0
17.907,-1.788,-0.307,0.0
16.426,-1.645,-0.371,0.0
14.971,-1.504,-0.419,0.0
34.003,-3.415,-0.003,1.0
33.994,-3.423,-0.188,4.0
33.997,-3.433,-0.372,2.0
34.02,-3.445,-0.56,1.0
16.684,-1.694,-0.365,0.0
15.08,-1.536,-0.412,0.0
34.014,-3.464,0.02,2.0
34.013,-3.473,-0.163,0.0
21.269,-2.177,-0.217,0.0
18.539,-1.903,-0.291,0.0
16.801,-1.729,-0.355,0.0
15.34,-1.583,-0.407,0.0
27.646,-2.853,0.037,4.0
24.63,-2.548,-0.099,0.0
21.638,-2.244,-0.204,0.0
19.03,-1.979,-0.284,0.0
17.002,-1.773,-0.346,0.0
15.461,-1.616,-0.398,0.0
28.875,-3.019,0.061,7.0
25.33,-2.654,-0.082,0.0
22.305,-2.343,-0.193,4.0
19.319,-2.035,-0.273,0.0
17.236,-1.82,-0.337,0.0
15.633,-1.655,-0.39,0.0
28.031,-2.967,0.082,3.0
25.722,-2.729,-0.063,0.0
22.348,-2.377,-0.175,3.0
19.582,-2.087,-0.261,0.0
17.51,-1.871,-0.328,0.0
15.795,-1.692,-0.381,0.0
27.561,-2.952,0.103,4.0
26.607,-2.856,-0.043,3.0
0.0,0.0,0.0,0.0
19.945,-2.151,-0.249,0.0
17.787,-1.922,-0.318,0.0
16.187,-1.754,-0.377,0.0
27.332,-2.961,0.126,3.0
23.624,-2.564,-0.018,15.0
23.541,-2.561,-0.145,18.0
23.6,-2.573,-0.275,1.0
18.164,-1.985,-0.309,0.0
16.417,-1.798,-0.368,0.0
27.181,-2.976,0.149,4.0
23.592,-2.589,0.002,159.0
23.598,-2.595,-0.124,39.0
23.598,-2.601,-0.254,14.0
23.629,-2.61,-0.381,2.0
16.748,-1.854,-0.361,0.0
27.688,-3.064,0.176,2.0
23.589,-2.616,0.023,200.0
23.591,-2.621,-0.103,80.0
22.995,-2.56,-0.226,5.0
23.653,-2.639,-0.36,1.0
16.969,-1.897,-0.35,0.0
27.675,-3.094,0.202,3.0
23.588,-2.642,0.045,161.0
23.6,-2.648,-0.081,49.0
22.349,-2.513,-0.199,4.0
19.283,-2.172,-0.275,0.0
17.267,-1.949,-0.34,0.0
27.909,-3.15,0.23,1.0
23.615,-2.67,0.068,15.0
23.618,-2.675,-0.059,9.0
22.386,-2.54,-0.178,3.0
19.77,-2.248,-0.264,0.0
17.525,-1.996,-0.328,0.0
28.848,-3.285,0.265,1.0
26.45,-3.017,0.101,11.0
26.377,-3.014,-0.04,1.0
22.548,-2.581,-0.158,2.0
20.231,-2.32,-0.25,0.0
17.788,-2.044,-0.315,0.0
22.17,-2.547,0.226,13.0
26.522,-3.052,0.128,11.0
26.316,-3.033,-0.014,3.0
22.583,-2.607,-0.135,5.0
20.886,-2.415,-0.237,0.0
18.288,-2.119,-0.306,0.0
22.149,-2.565,0.247,18.0
22.176,-2.572,0.129,12.0
26.253,-3.05,0.011,3.0
22.553,-2.624,-0.113,12.0
22.28,-2.597,-0.231,1.0
18.77,-2.192,-0.295,0.0
22.126,-2.583,0.27,19.0
22.144,-2.589,0.151,17.0
22.425,-2.626,0.033,4.0
22.533,-2.642,-0.089,11.0
22.371,-2.627,-0.209,4.0
19.152,-2.253,-0.281,0.0
22.114,-2.601,0.292,20.0
22.118,-2.605,0.174,18.0
22.172,-2.615,0.055,15.0
22.44,-2.65,-0.065,10.0
22.343,-2.643,-0.185,9.0
19.666,-2.329,-0.268,0.0
22.113,-2.619,0.316,22.0
22.115,-2.623,0.197,18.0
22.16,-2.631,0.079,18.0
22.273,-2.648,-0.041,14.0
22.295,-2.655,-0.161,9.0
20.185,-2.407,-0.254,0.0
22.118,-2.637,0.339,22.0
22.126,-2.641,0.221,14.0
22.142,-2.646,0.102,18.0
22.18,-2.654,-0.017,17.0
22.347,-2.677,-0.138,11.0
22.307,-2.676,-0.257,0.0
22.124,-2.654,0.363,19.0
22.213,-2.668,0.246,12.0
22.144,-2.662,0.126,16.0
22.169,-2.668,0.005,19.0
22.216,-2.677,-0.113,12.0
22.174,-2.676,-0.231,0.0
22.132,-2.67,0.388,18.0
22.24,-2.686,0.27,10.0
22.165,-2.68,0.15,9.0
22.16,-2.682,0.03,17.0
22.199,-2.69,-0.088,18.0
22.193,-2.692,-0.207,2.0
22.139,-2.685,0.412,17.0
22.169,-2.692,0.294,3.0
27.902,-3.391,0.22,0.0
22.178,-2.698,0.054,12.0
22.202,-2.704,-0.064,19.0
22.17,-2.703,-0.182,5.0
22.135,-2.698,0.437,15.0
22.163,-2.704,0.318,0.0
28.506,-3.481,0.257,0.0
25.884,-3.164,0.092,3.0
22.203,-2.717,-0.039,13.0
22.186,-2.717,-0.158,8.0
22.152,-2.713,0.462,12.0
22.185,-2.719,0.344,0.0
29.341,-3.599,0.297,0.0
26.125,-3.207,0.123,6.0
25.724,-3.161,-0.016,1.0
22.217,-2.732,-0.133,7.0
22.16,-2.725,0.487,3.0
22.164,-2.728,0.368,0.0
30.791,-3.792,0.347,0.0
26.249,-3.235,0.152,6.0
25.681,-3.168,0.012,9.0
22.222,-2.743,-0.107,7.0
22.2,-2.741,0.513,0.0
22.182,-2.74,0.394,0.0
32.245,-3.986,0.4,0.0
26.199,-3.241,0.182,6.0
25.633,-3.173,0.041,12.0
25.632,-3.175,-0.095,2.0
22.153,-2.744,0.537,0.0
22.138,-2.744,0.418,0.0
33.452,-4.149,0.453,0.0
26.085,-3.237,0.211,1.0
25.646,-3.184,0.07,8.0
25.61,-3.182,-0.065,10.0
22.218,-2.761,0.564,0.0
22.187,-2.758,0.445,0.0
33.81,-4.205,0.497,0.0
26.075,-3.245,0.241,0.0
25.827,-3.216,0.101,5.0
25.594,-3.188,-0.036,12.0
0.0,0.0,0.0,0.0
0.0,0.0,0.0,0.0
0.0,0.0,0.0,0.0
29.635,-3.697,0.308,1.0
26.078,-3.254,0.132,3.0
25.582,-3.194,-0.006,13.0
0.0,0.0,0.0,0.0
0.0,0.0,0.0,0.0
39.417,-4.925,0.671,1.0
31.093,-3.886,0.36,0.0
26.545,-3.319,0.165,1.0
25.553,-3.196,0.022,12.0
0.0,0.0,0.0,0.0
0.0,0.0,0.0,0.0
39.375,-4.929,0.715,2.0
32.549,-4.075,0.414,0.0
27.717,-3.471,0.204,1.0
25.557,-3.202,0.051,12.0
0.0,0.0,0.0,0.0
0.0,0.0,0.0,0.0
39.39,-4.937,0.761,0.0
33.709,-4.226,0.467,0.0
28.195,-3.535,0.24,1.0
25.655,-3.218,0.081,7.0
22.319,-2.8,0.696,0.0
0.0,0.0,0.0,0.0
44.659,-5.604,0.914,0.0
35.267,-4.425,0.53,0.0
29.036,-3.644,0.281,0.0
25.902,-3.251,0.112,4.0
22.308,-2.801,0.721,1.0
0.0,0.0,0.0,0.0
0.0,0.0,0.0,0.0
36.918,-4.635,0.597,0.0
30.677,-3.852,0.332,1.0
26.049,-3.271,0.143,1.0
22.325,-2.804,0.747,3.0
0.0,0.0,0.0,0.0
0.0,0.0,0.0,0.0
39.294,-4.934,0.68,0.0
31.401,-3.943,0.376,0.0
27.164,-3.411,0.18,1.0
22.295,-2.801,0.772,13.0
0.0,0.0,0.0,0.0
0.0,0.0,0.0,0.0
39.353,-4.941,0.726,1.0
33.014,-4.144,0.432,0.0
27.897,-3.502,0.216,1.0
22.261,-2.796,0.796,15.0
0.0,0.0,0.0,0.0
0.0,0.0,0.0,0.0
44.54,-5.589,0.873,0.0
34.051,-4.272,0.485,0.0
28.448,-3.568,0.253,0.0
22.223,-2.789,0.82,13.0
22.321,-2.8,0.704,1.0
0.0,0.0,0.0,0.0
0.0,0.0,0.0,0.0
0.0,0.0,0.0,0.0
29.904,-3.747,0.299,1.0
22.194,-2.782,0.844,12.0
22.335,-2.799,0.73,9.0
0.0,0.0,0.0,0.0
0.0,0.0,0.0,0.0
39.342,-4.924,0.649,0.0
31.127,-3.894,0.347,0.0
22.19,-2.778,0.869,13.0
22.296,-2.789,0.753,20.0
0.0,0.0,0.0,0.0
0.0,0.0,0.0,0.0
39.357,-4.917,0.693,2.0
31.976,-3.993,0.392,0.0
22.177,-2.771,0.893,15.0
22.282,-2.782,0.778,20.0
22.374,-2.792,0.661,0.0
0.0,0.0,0.0,0.0
42.63,-5.315,0.798,0.0
33.593,-4.186,0.448,1.0
22.178,-2.765,0.918,16.0
22.221,-2.769,0.8,13.0
22.332,-2.781,0.684,8.0
0.0,0.0,0.0,0.0
22.121,-2.751,0.438,0.0
34.045,-4.231,0.491,0.0
22.171,-2.758,0.941,17.0
22.175,-2.756,0.822,15.0
22.282,-2.767,0.706,17.0
22.185,-2.753,0.582,0.0
22.165,-2.749,0.463,0.0
0.0,0.0,0.0,0.0
22.131,-2.745,0.964,13.0
22.167,-2.747,0.846,15.0
22.276,-2.758,0.73,23.0
22.174,-2.743,0.605,4.0
22.18,-2.742,0.487,0.0
22.174,-2.739,0.367,0.0
22.048,-2.726,0.983,8.0
22.113,-2.731,0.868,12.0
22.271,-2.748,0.754,23.0
22.163,-2.732,0.629,12.0
22.171,-2.731,0.51,4.0
22.174,-2.729,0.39,6.0
22.012,-2.711,1.005,9.0
22.023,-2.71,0.887,8.0
22.093,-2.716,0.771,13.0
22.114,-2.715,0.65,10.0
22.15,-2.717,0.532,16.0
22.147,-2.714,0.413,12.0
22.012,-2.7,1.028,9.0
21.996,-2.695,0.909,8.0
22.0,-2.693,0.791,10.0
21.988,-2.689,0.669,13.0
22.136,-2.704,0.555,18.0
22.137,-2.701,0.436,14.0
22.001,-2.687,1.05,10.0
21.991,-2.683,0.931,9.0
21.986,-2.679,0.812,9.0
22.001,-2.678,0.692,28.0
22.135,-2.691,0.577,18.0
22.134,-2.688,0.458,15.0
22.015,-2.676,1.073,10.0
21.996,-2.67,0.954,9.0
21.993,-2.666,0.835,9.0
22.006,-2.665,0.714,31.0
22.116,-2.675,0.599,15.0
22.14,-2.675,0.48,14.0
22.016,-2.662,1.095,9.0
22.004,-2.657,0.975,8.0
21.988,-2.652,0.856,8.0
21.971,-2.646,0.734,23.0
22.049,-2.652,0.618,13.0
22.144,-2.66,0.501,14.0
22.035,-2.65,1.117,8.0
22.019,-2.644,0.997,7.0
22.013,-2.64,0.878,6.0
22.012,-2.636,0.757,11.0
22.063,-2.638,0.64,13.0
22.136,-2.644,0.522,12.0
22.047,-2.636,1.139,8.0
22.056,-2.633,1.02,12.0
22.102,-2.634,0.902,13.0
22.133,-2.634,0.782,12.0
22.164,-2.634,0.663,13.0
22.139,-2.627,0.543,15.0
22.088,-2.624,1.162,10.0
22.13,-2.625,1.044,16.0
22.144,-2.622,0.925,15.0
22.153,-2.619,0.803,13.0
22.189,-2.62,0.684,16.0
22.149,-2.611,0.563,14.0
22.134,-2.612,1.184,15.0
22.14,-2.608,1.064,18.0
22.149,-2.605,0.945,14.0
22.164,-2.602,0.823,12.0
22.22,-2.605,0.705,15.0
22.174,-2.595,0.584,12.0
22.141,-2.594,1.204,21.0
22.143,-2.59,1.084,19.0
22.155,-2.587,0.964,13.0
22.162,-2.583,0.842,12.0
22.237,-2.588,0.724,17.0
22.34,-2.595,0.607,10.0
22.146,-2.576,1.223,17.0
22.142,-2.57,1.103,18.0
22.153,-2.567,0.983,11.0
22.187,-2.566,0.862,11.0
22.272,-2.572,0.744,11.0
22.418,-2.584,0.628,1.0
22.195,-2.561,1.245,8.0
22.158,-2.552,1.122,12.0
22.19,-2.551,1.003,10.0
22.221,-2.549,0.882,10.0
22.307,-2.555,0.764,3.0
98.597,-11.272,2.843,6.0
22.314,-2.553,1.27,3.0
22.219,-2.538,1.143,5.0
22.249,-2.536,1.023,7.0
22.282,-2.535,0.902,4.0
22.259,-2.527,0.78,0.0
0.0,0.0,0.0,0.0
160.075,-18.162,9.236,9.0
22.329,-2.528,1.166,1.0
22.298,-2.519,1.043,0.0
153.707,-17.333,6.34,5.0
145.246,-16.347,5.2,4.0
0.0,0.0,0.0,0.0
159.582,-17.943,9.328,16.0
158.847,-17.822,8.417,20.0
164.324,-18.396,7.811,4.0
153.821,-17.184,6.458,8.0
145.436,-16.212,5.316,3.0
0.0,0.0,0.0,0.0
159.475,-17.759,9.439,17.0
159.257,-17.696,8.555,18.0
159.337,-17.665,7.689,13.0
153.697,-17.001,6.565,3.0
153.844,-16.982,5.731,3.0
37.424,-4.122,1.19,0.0
159.909,-17.631,9.578,15.0
159.17,-17.508,8.663,19.0
159.512,-17.505,7.81,18.0
153.944,-16.855,6.681,3.0
36.568,-3.995,1.387,1.0
36.971,-4.03,1.201,0.0
160.152,-17.475,9.699,14.0
159.183,-17.327,8.769,20.0
159.544,-17.324,7.916,16.0
155.754,-16.872,6.861,4.0
36.502,-3.945,1.409,1.0
35.877,-3.868,1.188,1.0
159.935,-17.263,9.789,13.0
159.515,-17.175,8.889,20.0
159.567,-17.139,8.017,19.0
159.724,-17.113,7.137,6.0
36.495,-3.9,1.431,1.0
35.043,-3.736,1.182,0.0
159.806,-17.058,9.877,16.0
159.327,-16.962,8.975,18.0
159.794,-16.97,8.124,14.0
159.834,-16.93,7.234,15.0
155.022,-16.381,6.168,4.0
34.374,-3.623,1.179,0.0
161.101,-16.998,10.05,6.0
158.335,-16.661,9.009,14.0
159.182,-16.707,8.182,17.0
159.901,-16.738,7.326,18.0
36.66,-3.827,1.478,0.0
34.21,-3.563,1.192,1.0
162.084,-16.897,10.199,3.0
158.49,-16.477,9.102,9.0
159.128,-16.498,8.264,18.0
159.703,-16.514,7.4,9.0
35.506,-3.661,1.45,0.0
34.084,-3.506,1.205,0.0
160.096,-16.484,10.155,11.0
160.285,-16.456,9.284,16.0
158.866,-16.264,8.33,16.0
36.146,-3.69,1.692,1.0
35.031,-3.566,1.448,0.0
33.998,-3.451,1.218,0.0
176.209,-17.908,11.262,16.0
160.051,-16.217,9.347,16.0
158.884,-16.052,8.404,21.0
35.678,-3.594,1.687,1.0
34.699,-3.485,1.45,1.0
33.932,-3.399,1.231,2.0
176.721,-17.719,11.374,17.0
160.096,-16.004,9.419,17.0
158.901,-15.837,8.473,17.0
35.085,-3.486,1.673,2.0
34.528,-3.421,1.457,0.0
33.913,-3.35,1.245,3.0
150.034,-14.834,9.717,22.0
160.255,-15.797,9.492,15.0
158.973,-15.623,8.539,17.0
34.946,-3.423,1.68,0.0
34.367,-3.357,1.463,1.0
33.861,-3.297,1.255,5.0
149.385,-14.559,9.73,14.0
160.031,-15.547,9.538,15.0
159.138,-15.412,8.604,14.0
34.819,-3.361,1.687,0.0
34.356,-3.306,1.475,4.0
33.85,-3.247,1.266,6.0
189.997,-18.241,12.439,5.0
149.573,-14.314,8.965,31.0
149.959,-14.305,8.157,20.0
0.0,0.0,0.0,0.0
34.313,-3.252,1.483,0.0
33.822,-3.195,1.276,13.0
185.232,-17.515,12.182,12.0
170.126,-16.033,10.246,12.0
149.971,-14.086,8.201,22.0
0.0,0.0,0.0,0.0
34.436,-3.213,1.498,0.0
33.819,-3.145,1.284,22.0
151.501,-14.101,10.002,7.0
149.547,-13.873,9.044,26.0
150.379,-13.903,8.259,12.0
0.0,0.0,0.0,0.0
34.158,-3.136,1.494,0.0
33.818,-3.095,1.292,34.0
148.735,-13.621,9.854,2.0
150.378,-13.722,9.126,13.0
186.283,-16.938,10.271,12.0
35.068,-3.178,1.735,0.0
0.0,0.0,0.0,0.0
33.795,-3.041,1.297,44.0
148.457,-13.368,9.861,6.0
149.143,-13.381,9.078,4.0
209.177,-18.699,11.569,150.0
0.0,0.0,0.0,0.0
0.0,0.0,0.0,0.0
33.795,-2.989,1.303,51.0
208.401,-18.438,13.876,10.0
199.146,-17.555,12.149,17.0
190.08,-16.695,10.539,78.0
0.0,0.0,0.0,0.0
0.0,0.0,0.0,0.0
33.807,-2.937,1.307,55.0
147.388,-12.811,9.828,4.0
148.927,-12.897,9.101,7.0
151.955,-13.108,8.439,40.0
151.937,-13.058,7.575,4.0
0.0,0.0,0.0,0.0
33.813,-2.884,1.31,57.0
148.285,-12.651,9.899,4.0
151.923,-12.91,9.293,14.0
151.97,-12.864,8.448,40.0
0.0,0.0,0.0,0.0
0.0,0.0,0.0,0.0
33.827,-2.83,1.312,60.0
148.18,-12.4,9.896,12.0
208.807,-17.403,12.777,14.0
200.177,-16.617,11.132,37.0
0.0,0.0,0.0,0.0
36.195,-2.981,1.605,0.0
33.818,-2.774,1.311,68.0
147.523,-12.105,9.85,7.0
208.651,-17.05,12.764,27.0
200.154,-16.288,11.124,21.0
0.0,0.0,0.0,0.0
0.0,0.0,0.0,0.0
33.822,-2.719,1.31,68.0
149.416,-12.011,9.968,5.0
208.878,-16.722,12.766,18.0
195.033,-15.548,10.828,12.0
35.034,-2.781,1.745,0.0
34.187,-2.703,1.512,0.0
33.837,-2.664,1.307,65.0
151.174,-11.901,10.072,18.0
208.854,-16.371,12.743,11.0
193.466,-15.099,10.721,19.0
0.0,0.0,0.0,0.0
34.291,-2.653,1.512,0.0
33.839,-2.607,1.303,70.0
156.204,-12.034,10.387,6.0
193.548,-14.844,11.783,8.0
190.327,-14.532,10.518,7.0
35.007,-2.661,1.735,0.0
0.0,0.0,0.0,0.0
33.852,-2.551,1.298,66.0
155.729,-11.735,10.328,5.0
190.713,-14.305,11.576,6.0
189.979,-14.187,10.463,17.0
35.076,-2.607,1.731,0.0
34.312,-2.539,1.501,0.0
33.84,-2.493,1.291,51.0
122.055,-8.988,8.068,7.0
154.667,-11.336,9.352,5.0
189.74,-13.845,10.407,12.0
34.975,-2.54,1.718,0.0
34.335,-2.482,1.494,0.0
33.868,-2.437,1.284,44.0
121.986,-8.773,8.032,12.0
91.825,-6.573,5.528,5.0
189.37,-13.491,10.335,8.0
35.033,-2.484,1.711,0.0
34.368,-2.425,1.485,0.0
33.878,-2.38,1.274,31.0
122.168,-8.574,8.007,21.0
91.818,-6.412,5.499,11.0
189.225,-13.151,10.269,17.0
0.0,0.0,0.0,0.0
0.0,0.0,0.0,0.0
33.889,-2.321,1.263,20.0
121.992,-8.348,7.953,16.0
156.468,-10.653,9.318,16.0
156.815,-10.625,8.453,35.0
34.956,-2.356,1.683,0.0
34.285,-2.3,1.458,0.0
33.922,-2.264,1.252,8.0
89.372,-5.96,5.792,18.0
92.513,-6.138,5.473,5.0
157.063,-10.369,8.405,31.0
0.0,0.0,0.0,0.0
34.19,-2.234,1.44,0.0
33.956,-2.208,1.239,5.0
121.866,-7.915,7.847,9.0
120.869,-7.809,7.098,14.0
188.597,-12.121,10.011,19.0
34.891,-2.231,1.651,0.0
34.271,-2.18,1.428,0.0
33.993,-2.151,1.225,3.0
122.008,-7.71,7.8,9.0
120.904,-7.598,7.044,9.0
123.066,-7.692,6.473,3.0
34.826,-2.165,1.631,0.0
34.249,-2.118,1.411,0.0
34.012,-2.092,1.209,3.0
122.017,-7.493,7.737,9.0
120.845,-7.381,6.979,6.0
122.861,-7.464,6.399,14.0
0.0,0.0,0.0,0.0
34.298,-2.061,1.395,0.0
34.017,-2.033,1.191,3.0
92.495,-5.518,5.815,14.0
120.75,-7.162,6.905,13.0
188.262,-11.106,9.7,21.0
0.0,0.0,0.0,0.0
34.483,-2.011,1.382,0.0
34.054,-1.975,1.172,3.0
92.816,-5.372,5.78,4.0
122.511,-7.051,6.933,10.0
189.029,-10.816,9.624,13.0
0.0,0.0,0.0,0.0
34.535,-1.953,1.363,0.0
34.12,-1.919,1.153,2.0
92.562,-5.194,5.705,15.0
119.368,-6.659,6.678,13.0
188.971,-10.479,9.5,21.0
0.0,0.0,0.0,0.0
0.0,0.0,0.0,0.0
34.163,-1.862,1.133,2.0
112.003,-6.089,6.828,15.0
119.161,-6.438,6.586,12.0
189.109,-10.157,9.379,11.0
0.0,0.0,0.0,0.0
109.368,-5.802,4.17,7.0
34.547,-1.822,1.121,0.0
112.092,-5.896,6.754,17.0
119.221,-6.233,6.506,18.0
195.12,-10.139,9.537,7.0
0.0,0.0,0.0,0.0
109.375,-5.614,4.092,10.0
0.0,0.0,0.0,0.0
111.944,-5.692,6.661,18.0
112.572,-5.688,6.057,12.0
194.52,-9.767,9.36,6.0
0.0,0.0,0.0,0.0
109.464,-5.427,4.011,1.0
0.0,0.0,0.0,0.0
98.059,-4.815,5.758,12.0
112.08,-5.468,5.942,7.0
194.493,-9.428,9.203,13.0
0.0,0.0,0.0,0.0
95.191,-4.553,3.41,2.0
0.0,0.0,0.0,0.0
98.004,-4.641,5.673,10.0
111.744,-5.255,5.83,12.0
164.326,-7.677,7.637,29.0
94.317,-4.377,3.836,1.0
93.486,-4.309,3.269,4.0
0.0,0.0,0.0,0.0
89.822,-4.097,5.121,6.0
111.692,-5.059,5.73,4.0
194.487,-8.748,8.866,5.0
92.736,-4.143,3.689,3.0
92.302,-4.094,3.145,12.0
0.0,0.0,0.0,0.0
89.91,-3.945,5.044,25.0
120.198,-5.235,6.056,13.0
120.257,-5.201,5.371,15.0
92.278,-3.963,3.586,10.0
92.234,-3.933,3.058,6.0
0.0,0.0,0.0,0.0
113.563,-4.787,6.264,11.0
113.501,-4.75,5.611,14.0
0.0,0.0,0.0,0.0
92.16,-3.799,3.493,26.0
92.407,-3.782,2.974,7.0
0.0,0.0,0.0,0.0
113.685,-4.597,6.158,12.0
194.757,-7.814,9.434,11.0
0.0,0.0,0.0,0.0
92.142,-3.641,3.4,54.0
92.75,-3.636,2.892,1.0
0.0,0.0,0.0,0.0
113.331,-4.387,6.021,21.0
113.429,-4.357,5.377,25.0
92.203,-3.513,3.842,7.0
92.133,-3.483,3.303,64.0
0.0,0.0,0.0,0.0
0.0,0.0,0.0,0.0
113.396,-4.196,5.904,19.0
113.467,-4.166,5.258,13.0
92.206,-3.357,3.744,26.0
92.119,-3.326,3.203,50.0
0.0,0.0,0.0,0.0
0.0,0.0,0.0,0.0
190.224,-6.718,9.695,21.0
190.116,-6.659,8.6,7.0
92.222,-3.203,3.642,150.0
92.165,-3.174,3.102,23.0
0.0,0.0,0.0,0.0
0.0,0.0,0.0,0.0
191.002,-6.426,9.517,9.0
93.478,-3.117,4.12,1.0
92.252,-3.049,3.537,158.0
92.487,-3.03,3.006,8.0
0.0,0.0,0.0,0.0
0.0,0.0,0.0,0.0
190.013,-6.073,9.241,20.0
0.0,0.0,0.0,0.0
92.268,-2.896,3.427,39.0
92.887,-2.888,2.907,1.0
0.0,0.0,0.0,0.0
0.0,0.0,0.0,0.0
189.786,-5.753,9.0,18.0
92.445,-2.775,3.852,1.0
92.273,-2.744,3.315,150.0
0.0,0.0,0.0,0.0
0.0,0.0,0.0,0.0
0.0,0.0,0.0,0.0
120.845,-3.463,5.579,7.0
92.509,-2.625,3.738,10.0
92.344,-2.594,3.2,187.0
0.0,0.0,0.0,0.0
0.0,0.0,0.0,0.0
0.0,0.0,0.0,0.0
123.577,-3.342,5.546,29.0
123.612,-3.308,4.835,3.0
92.473,-2.449,3.085,31.0
0.0,0.0,0.0,0.0
0.0,0.0,0.0,0.0
0.0,0.0,0.0,0.0
123.615,-3.145,5.384,32.0
166.086,-4.179,6.276,19.0
96.809,-2.41,3.101,6.0
0.0,0.0,0.0,0.0
0.0,0.0,0.0,0.0
39.385,-0.949,0.578,0.0
128.396,-3.063,5.419,25.0
128.347,-3.027,4.676,27.0
92.371,-2.153,2.832,1.0
0.0,0.0,0.0,0.0
0.0,0.0,0.0,0.0
37.882,-0.853,0.504,0.0
96.939,-2.161,3.957,25.0
128.432,-2.829,4.501,4.0
91.118,-1.983,2.669,1.0
0.0,0.0,0.0,0.0
0.0,0.0,0.0,0.0
35.506,-0.745,0.422,0.0
96.917,-2.01,3.818,46.0
96.964,-1.986,3.26,19.0
0.0,0.0,0.0,0.0
0.0,0.0,0.0,0.0
41.635,-0.82,0.675,0.0
34.121,-0.663,0.357,2.0
96.982,-1.864,3.68,27.0
96.746,-1.834,3.112,14.0
0.0,0.0,0.0,0.0
0.0,0.0,0.0,0.0
0.0,0.0,0.0,0.0
33.373,-0.598,0.3,2.0
168.743,-2.987,6.149,3.0
89.688,-1.565,2.75,3.0
0.0,0.0,0.0,0.0
47.787,-0.81,0.909,0.0
0.0,0.0,0.0,0.0
31.859,-0.524,0.238,0.0
0.0,0.0,0.0,0.0
87.026,-1.391,2.537,2.0
0.0,0.0,0.0,0.0
0.0,0.0,0.0,0.0
0.0,0.0,0.0,0.0
30.734,-0.461,0.183,0.0
96.859,-1.432,3.235,1.0
0.0,0.0,0.0,0.0
0.0,0.0,0.0,0.0
0.0,0.0,0.0,0.0
33.952,-0.469,0.345,1.0
28.807,-0.391,0.126,0.0
90.186,-1.204,2.869,6.0
0.0,0.0,0.0,0.0
0.0,0.0,0.0,0.0
0.0,0.0,0.0,0.0
32.606,-0.404,0.28,1.0
28.582,-0.348,0.08,1.0
90.016,-1.075,2.72,1.0
0.0,0.0,0.0,0.0
0.0,0.0,0.0,0.0
0.0,0.0,0.0,0.0
31.378,-0.345,0.219,1.0
27.733,-0.299,0.033,0.0
83.565,-0.883,2.389,1.0
0.0,0.0,0.0,0.0
0.0,0.0,0.0,0.0
0.0,0.0,0.0,0.0
28.873,-0.279,0.154,1.0
26.814,-0.253,-0.011,0.0
0.0,0.0,0.0,0.0
0.0,0.0,0.0,0.0
0.0,0.0,0.0,0.0
32.946,-0.281,0.312,1.0
28.754,-0.239,0.105,6.0
25.771,-0.209,-0.054,0.0
0.0,0.0,0.0,0.0
0.0,0.0,0.0,0.0
38.105,-0.284,0.521,0.0
31.776,-0.23,0.247,2.0
28.479,-0.2,0.056,1.0
24.975,-0.17,-0.094,0.0
0.0,0.0,0.0,0.0
0.0,0.0,0.0,0.0
36.51,-0.225,0.436,0.0
30.827,-0.183,0.187,1.0
27.116,-0.156,0.007,0.0
24.026,-0.133,-0.132,0.0
0.0,0.0,0.0,0.0
40.875,-0.209,0.655,0.0
33.279,-0.163,0.34,0.0
28.799,-0.135,0.124,6.0
26.053,-0.117,-0.038,0.0
23.016,-0.098,-0.167,0.0
0.0,0.0,0.0,0.0
0.0,0.0,0.0,0.0
0.0,0.0,0.0,0.0
28.649,-0.099,0.073,4.0
25.17,-0.082,-0.081,0.0
21.919,-0.067,-0.198,0.0
0.0,0.0,0.0,0.0
36.188,-0.096,0.451,0.0
31.024,-0.076,0.207,1.0
27.275,-0.062,0.021,0.0
23.949,-0.049,-0.12,0.0
20.987,-0.039,-0.227,1.0
42.719,-0.071,0.703,0.0
33.859,-0.05,0.361,0.0
28.955,-0.037,0.141,0.0
26.231,-0.029,-0.026,0.0
23.494,-0.021,-0.16,0.0
19.878,-0.014,-0.251,0.0
39.288,-0.021,0.576,0.0
32.922,-0.011,0.291,0.0
28.536,-0.004,0.087,1.0
25.216,0.0,-0.071,0.0
21.9,0.004,-0.189,0.0
19.013,0.007,-0.274,0.0
36.481,0.02,0.468,0.0
30.946,0.023,0.217,0.0
27.473,0.025,0.033,0.0
24.167,0.027,-0.113,0.0
21.095,0.027,-0.221,3.0
18.266,0.026,-0.297,0.0
34.163,0.056,0.374,0.0
28.825,0.052,0.148,0.0
26.405,0.053,-0.017,0.0
23.279,0.05,-0.152,1.0
20.002,0.047,-0.247,0.0
17.572,0.044,-0.319,0.0
32.46,0.087,0.295,0.0
28.68,0.082,0.094,2.0
25.47,0.077,-0.063,0.0
22.113,0.071,-0.186,1.0
19.12,0.064,-0.272,0.0
16.985,0.06,-0.34,0.0
31.217,0.115,0.225,0.0
27.568,0.107,0.038,0.0
24.423,0.098,-0.107,0.0
21.096,0.088,-0.217,3.0
18.309,0.08,-0.295,0.0
16.531,0.075,-0.362,0.0
28.824,0.135,0.152,0.0
26.448,0.128,-0.013,0.0
23.156,0.116,-0.146,0.0
20.069,0.104,-0.245,0.0
17.51,0.093,-0.316,0.0
16.044,0.088,-0.383,0.0
28.647,0.161,0.096,1.0
25.507,0.148,-0.062,0.0
22.234,0.132,-0.183,2.0
19.077,0.116,-0.27,0.0
16.977,0.106,-0.339,0.0
15.607,0.1,-0.402,0.0
27.442,0.18,0.039,0.0
24.381,0.163,-0.106,0.0
21.077,0.144,-0.215,1.0
18.239,0.128,-0.293,0.0
16.559,0.118,-0.363,0.0
15.08,0.11,-0.418,0.0
26.471,0.196,-0.013,0.0
23.232,0.176,-0.146,0.0
20.041,0.155,-0.243,0.0
17.499,0.137,-0.316,0.0
16.05,0.128,-0.383,0.0
14.674,0.119,-0.436,0.0
25.314,0.209,-0.062,0.0
22.206,0.187,-0.184,3.0
18.979,0.162,-0.267,0.0
16.941,0.147,-0.339,0.0
15.577,0.137,-0.402,0.0
14.227,0.127,-0.45,0.0
24.182,0.22,-0.107,0.0
21.225,0.195,-0.217,1.0
18.233,0.17,-0.293,0.0
16.505,0.156,-0.363,0.0
14.916,0.143,-0.415,0.0
13.917,0.135,-0.468,0.0
23.222,0.229,-0.149,0.0
19.909,0.199,-0.244,0.0
17.509,0.177,-0.316,0.0
15.993,0.164,-0.383,0.0
14.674,0.152,-0.437,0.0
13.539,0.142,-0.482,0.0
22.018,0.233,-0.185,2.0
18.87,0.202,-0.268,0.0
16.896,0.183,-0.339,0.0
15.483,0.169,-0.402,0.0
14.272,0.158,-0.454,0.0
13.173,0.147,-0.496,0.0
21.056,0.237,-0.219,0.0
18.16,0.207,-0.295,0.0
16.445,0.189,-0.363,0.0
14.914,0.173,-0.417,0.0
13.829,0.162,-0.468,0.0
12.876,0.153,-0.51,0.0
19.76,0.236,-0.245,0.0
17.378,0.209,-0.317,0.0
15.93,0.194,-0.383,0.0
14.58,0.179,-0.437,0.0
13.447,0.166,-0.482,0.0
12.584,0.157,-0.524,0.0
18.772,0.236,-0.271,0.0
16.829,0.213,-0.341,0.0
15.484,0.198,-0.404,0.0
14.114,0.182,-0.452,0.0
13.253,0.172,-0.501,0.0
12.33,0.161,-0.539,0.0
18.041,0.237,-0.296,0.0
16.393,0.217,-0.365,0.0
14.879,0.198,-0.418,0.0
13.774,0.185,-0.468,0.0
12.856,0.174,-0.512,0.0
11.997,0.164,-0.548,0.0
17.283,0.236,-0.319,0.0
15.876,0.219,-0.385,0.0
14.61,0.203,-0.44,0.0
13.411,0.187,-0.483,0.0
12.542,0.176,-0.525,0.0
11.782,0.167,-0.562,0.0
16.755,0.237,-0.343,0.0
15.313,0.218,-0.403,0.0
14.074,0.202,-0.452,0.0
13.017,0.188,-0.495,0.0
12.288,0.179,-0.539,0.0
11.518,0.168,-0.573,0.0
16.308,0.239,-0.367,0.0
14.878,0.219,-0.422,0.0
13.766,0.204,-0.47,0.0
12.836,0.191,-0.515,0.0
11.955,0.179,-0.549,0.0
11.205,0.169,-0.58,0.0
15.766,0.238,-0.387,0.0
14.469,0.219,-0.439,0.0
13.444,0.205,-0.486,0.0
12.513,0.192,-0.527,0.0
11.738,0.181,-0.563,0.0
11.013,0.17,-0.593,0.0
15.418,0.238,-0.409,0.0
14.057,0.218,-0.455,0.0
13.037,0.204,-0.498,0.0
12.218,0.192,-0.54,0.0
11.441,0.18,-0.572,0.0
10.802,0.171,-0.603,0.0
14.748,0.233,-0.421,0.0
13.708,0.218,-0.472,0.0
12.735,0.203,-0.512,0.0
11.905,0.191,-0.55,0.0
11.261,0.181,-0.586,0.0
10.566,0.171,-0.611,0.0
14.45,0.233,-0.442,0.0
13.384,0.217,-0.487,0.0
12.447,0.202,-0.526,0.0
11.637,0.19,-0.561,0.0
10.99,0.18,-0.594,0.0
10.354,0.17,-0.62,0.0
14.018,0.23,-0.457,0.0
13.032,0.215,-0.501,0.0
12.221,0.202,-0.541,0.0
11.436,0.19,-0.574,0.0
10.738,0.179,-0.602,0.0
10.091,0.168,-0.625,0.0
13.614,0.226,-0.471,0.0
12.778,0.213,-0.517,0.0
11.911,0.199,-0.551,0.0
11.15,0.187,-0.582,0.0
10.483,0.177,-0.609,0.0
9.895,0.167,-0.632,0.0
13.331,0.224,-0.488,0.0
12.427,0.21,-0.527,0.0
11.655,0.197,-0.563,0.0
10.957,0.186,-0.594,0.0
10.319,0.176,-0.62,0.0
9.817,0.168,-0.647,0.0
12.994,0.221,-0.502,0.0
12.177,0.207,-0.541,0.0
11.362,0.194,-0.571,0.0
10.693,0.183,-0.601,0.0
10.125,0.174,-0.628,0.0
9.573,0.165,-0.65,0.0
12.678,0.217,-0.515,0.0
11.908,0.204,-0.553,0.0
11.191,0.192,-0.585,0.0
10.449,0.18,-0.608,0.0
9.893,0.171,-0.634,0.0
9.395,0.162,-0.657,0.0
12.39,0.213,-0.527,0.0
11.608,0.2,-0.562,0.0
10.957,0.189,-0.594,0.0
10.276,0.178,-0.618,0.0
9.727,0.168,-0.642,0.0
0.0,0.0,0.0,0.0
12.089,0.208,-0.538,0.0
11.359,0.196,-0.572,0.0
10.66,0.184,-0.599,0.0
0.0,0.0,0.0,0.0
9.535,0.165,-0.648,0.0
9.025,0.157,-0.666,0.0
11.852,0.204,-0.551,0.0
11.138,0.192,-0.583,0.0
10.495,0.181,-0.61,0.0
9.888,0.171,-0.634,0.0
9.443,0.164,-0.661,0.0
8.92,0.155,-0.676,0.0
11.6,0.2,-0.562,0.0
10.884,0.187,-0.59,0.0
10.329,0.178,-0.621,0.0
9.739,0.168,-0.643,0.0
0.0,0.0,0.0,0.0
8.729,0.151,-0.678,0.0
11.347,0.194,-0.571,0.0
10.69,0.183,-0.6,0.0
0.0,0.0,0.0,0.0
0.0,0.0,0.0,0.0
9.013,0.155,-0.665,0.0
8.579,0.147,-0.683,0.0
11.139,0.19,-0.582,0.0
10.482,0.178,-0.609,0.0
9.928,0.169,-0.634,0.0
0.0,0.0,0.0,0.0
8.892,0.152,-0.673,0.0
8.464,0.144,-0.69,0.0
10.911,0.184,-0.591,0.0
10.308,0.174,-0.618,0.0
9.759,0.165,-0.642,0.0
0.0,0.0,0.0,0.0
8.75,0.148,-0.679,0.0
8.366,0.141,-0.698,0.0
10.683,0.178,-0.599,0.0
10.187,0.17,-0.63,0.0
0.0,0.0,0.0,0.0
8.981,0.15,-0.661,0.0
0.0,0.0,0.0,0.0
8.204,0.137,-0.7,0.0
10.503,0.173,-0.608,0.0
9.938,0.164,-0.633,0.0
0.0,0.0,0.0,0.0
8.942,0.147,-0.675,0.0
8.534,0.14,-0.694,0.0
8.158,0.134,-0.711,0.0
10.274,0.167,-0.613,0.0
9.786,0.159,-0.641,0.0
0.0,0.0,0.0,0.0
8.69,0.141,-0.672,0.0
8.378,0.135,-0.697,0.0
8.078,0.13,-0.719,0.0
10.166,0.162,-0.625,0.0
9.586,0.153,-0.646,0.0
0.0,0.0,0.0,0.0
0.0,0.0,0.0,0.0
8.259,0.131,-0.702,0.0
7.964,0.126,-0.723,0.0
0.0,0.0,0.0,0.0
0.0,0.0,0.0,0.0
8.823,0.137,-0.662,0.0
0.0,0.0,0.0,0.0
8.12,0.126,-0.705,0.0
7.813,0.121,-0.724,0.0
9.789,0.149,-0.637,0.0
0.0,0.0,0.0,0.0
8.768,0.133,-0.673,0.0
0.0,0.0,0.0,0.0
8.023,0.121,-0.711,0.0
7.733,0.117,-0.73,0.0
9.612,0.143,-0.643,0.0
0.0,0.0,0.0,0.0
8.624,0.127,-0.677,0.0
8.211,0.121,-0.693,0.0
0.0,0.0,0.0,0.0
0.0,0.0,0.0,0.0
9.502,0.137,-0.652,0.0
9.008,0.13,-0.67,0.0
8.573,0.123,-0.688,0.0
8.217,0.117,-0.708,0.0
0.0,0.0,0.0,0.0
0.0,0.0,0.0,0.0
0.0,0.0,0.0,0.0
8.815,0.123,-0.671,0.0
8.471,0.117,-0.694,0.0
0.0,0.0,0.0,0.0
0.0,0.0,0.0,0.0
7.46,0.102,-0.743,0.0
9.179,0.124,-0.66,0.0
8.755,0.117,-0.681,0.0
8.33,0.111,-0.696,0.0
0.0,0.0,0.0,0.0
0.0,0.0,0.0,0.0
7.313,0.097,-0.741,0.0
9.062,0.117,-0.667,0.0
8.616,0.111,-0.684,0.0
8.173,0.105,-0.697,0.0
0.0,0.0,0.0,0.0
0.0,0.0,0.0,0.0
7.247,0.092,-0.746,0.0
8.842,0.109,-0.665,0.0
8.465,0.104,-0.686,0.0
8.07,0.099,-0.701,0.0
0.0,0.0,0.0,0.0
7.443,0.09,-0.734,0.0
7.16,0.086,-0.748,0.0
8.756,0.103,-0.673,0.0
8.373,0.098,-0.692,0.0
8.048,0.094,-0.712,0.0
0.0,0.0,0.0,0.0
7.387,0.085,-0.74,0.0
7.084,0.081,-0.752,0.0
8.68,0.097,-0.68,0.0
8.325,0.092,-0.701,0.0
0.0,0.0,0.0,0.0
0.0,0.0,0.0,0.0
7.303,0.079,-0.743,0.0
7.02,0.076,-0.756,0.0
8.591,0.09,-0.687,0.0
8.155,0.085,-0.699,0.0
0.0,0.0,0.0,0.0
0.0,0.0,0.0,0.0
7.218,0.074,-0.746,0.0
6.911,0.07,-0.755,0.0
8.446,0.083,-0.688,0.0
8.114,0.079,-0.708,0.0
0.0,0.0,0.0,0.0
0.0,0.0,0.0,0.0
7.124,0.068,-0.747,0.0
6.85,0.065,-0.758,0.0
8.356,0.076,-0.693,0.0
7.971,0.072,-0.707,0.0
7.735,0.069,-0.731,0.0
7.332,0.065,-0.737,0.0
0.0,0.0,0.0,0.0
6.796,0.059,-0.762,0.0
8.244,0.069,-0.695,0.0
7.911,0.066,-0.713,0.0
0.0,0.0,0.0,0.0
7.285,0.059,-0.742,0.0
6.967,0.056,-0.751,0.0
0.0,0.0,0.0,0.0
8.192,0.063,-0.702,0.0
7.842,0.059,-0.718,0.0
0.0,0.0,0.0,0.0
7.169,0.053,-0.741,0.0
6.961,0.05,-0.76,0.0
6.699,0.048,-0.77,0.0
8.052,0.055,-0.702,0.0
0.0,0.0,0.0,0.0
0.0,0.0,0.0,0.0
0.0,0.0,0.0,0.0
0.0,0.0,0.0,0.0
6.621,0.042,-0.77,0.0
8.013,0.048,-0.709,0.0
7.67,0.045,-0.723,0.0
7.339,0.043,-0.734,0.0
7.059,0.04,-0.748,0.0
0.0,0.0,0.0,0.0
0.0,0.0,0.0,0.0
7.954,0.041,-0.714,0.0
7.655,0.039,-0.732,0.0
7.327,0.036,-0.743,0.0
6.924,0.034,-0.743,0.0
0.0,0.0,0.0,0.0
0.0,0.0,0.0,0.0
7.846,0.034,-0.714,0.0
0.0,0.0,0.0,0.0
7.278,0.03,-0.747,0.0
0.0,0.0,0.0,0.0
0.0,0.0,0.0,0.0
0.0,0.0,0.0,0.0
0.0,0.0,0.0,0.0
0.0,0.0,0.0,0.0
7.156,0.023,-0.743,0.0
0.0,0.0,0.0,0.0
6.653,0.02,-0.769,0.0
0.0,0.0,0.0,0.0
7.705,0.019,-0.72,0.0
7.425,0.018,-0.737,0.0
7.073,0.016,-0.743,0.0
0.0,0.0,0.0,0.0
0.0,0.0,0.0,0.0
0.0,0.0,0.0,0.0
7.696,0.012,-0.728,0.0
7.323,0.011,-0.735,0.0
7.095,0.009,-0.754,0.0
0.0,0.0,0.0,0.0
0.0,0.0,0.0,0.0
0.0,0.0,0.0,0.0
7.597,0.005,-0.727,0.0
7.324,0.004,-0.744,0.0
6.965,0.003,-0.747,0.0
0.0,0.0,0.0,0.0
0.0,0.0,0.0,0.0
0.0,0.0,0.0,0.0
0.0,0.0,0.0,0.0
7.243,-0.002,-0.743,0.0
6.974,-0.003,-0.756,0.0
0.0,0.0,0.0,0.0
0.0,0.0,0.0,0.0
0.0,0.0,0.0,0.0
0.0,0.0,0.0,0.0
7.197,-0.009,-0.746,0.0
0.0,0.0,0.0,0.0
0.0,0.0,0.0,0.0
0.0,0.0,0.0,0.0
0.0,0.0,0.0,0.0
7.438,-0.016,-0.735,0.0
7.139,-0.017,-0.747,0.0
0.0,0.0,0.0,0.0
0.0,0.0,0.0,0.0
0.0,0.0,0.0,0.0
0.0,0.0,0.0,0.0
7.375,-0.024,-0.736,0.0
7.071,-0.024,-0.747,0.0
0.0,0.0,0.0,0.0
0.0,0.0,0.0,0.0
0.0,0.0,0.0,0.0
0.0,0.0,0.0,0.0
7.321,-0.031,-0.737,0.0
7.036,-0.031,-0.749,0.0
0.0,0.0,0.0,0.0
0.0,0.0,0.0,0.0
0.0,0.0,0.0,0.0
0.0,0.0,0.0,0.0
7.3,-0.039,-0.742,0.0
7.029,-0.039,-0.755,0.0
0.0,0.0,0.0,0.0
0.0,0.0,0.0,0.0
0.0,0.0,0.0,0.0
0.0,0.0,0.0,0.0
7.25,-0.046,-0.743,0.0
0.0,0.0,0.0,0.0
0.0,0.0,0.0,0.0
0.0,0.0,0.0,0.0
0.0,0.0,0.0,0.0
0.0,0.0,0.0,0.0
7.208,-0.054,-0.744,0.0
0.0,0.0,0.0,0.0
0.0,0.0,0.0,0.0
0.0,0.0,0.0,0.0
0.0,0.0,0.0,0.0
0.0,0.0,0.0,0.0
7.156,-0.061,-0.744,0.0
0.0,0.0,0.0,0.0
0.0,0.0,0.0,0.0
0.0,0.0,0.0,0.0
0.0,0.0,0.0,0.0
0.0,0.0,0.0,0.0
7.097,-0.069,-0.743,0.0
0.0,0.0,0.0,0.0
0.0,0.0,0.0,0.0
0.0,0.0,0.0,0.0
0.0,0.0,0.0,0.0
0.0,0.0,0.0,0.0
7.084,-0.077,-0.746,0.0
0.0,0.0,0.0,0.0
0.0,0.0,0.0,0.0
0.0,0.0,0.0,0.0
0.0,0.0,0.0,0.0
0.0,0.0,0.0,0.0
7.064,-0.084,-0.748,0.0
