X,Y,Z,Reflectivity
25.827,0.078,-0.055,0.0
23.111,0.078,-0.174,1.0
19.997,0.074,-0.26,0.0
0.0,0.0,0.0,0.0
0.0,0.0,0.0,0.0
28.791,0.138,0.109,0.0
26.136,0.134,-0.045,0.0
23.117,0.127,-0.165,0.0
20.391,0.119,-0.256,0.0
39.758,0.247,0.599,0.0
34.223,0.224,0.329,0.0
28.883,0.2,0.121,3.0
26.441,0.192,-0.035,0.0
23.446,0.178,-0.159,0.0
20.424,0.162,-0.249,0.0
41.164,0.344,0.635,0.0
34.105,0.297,0.34,0.0
28.909,0.261,0.131,3.0
26.533,0.249,-0.026,0.0
23.517,0.229,-0.151,0.0
20.741,0.209,-0.246,0.0
0.0,0.0,0.0,0.0
34.644,0.376,0.357,0.0
28.928,0.324,0.14,3.0
26.722,0.309,-0.018,0.0
23.655,0.281,-0.145,0.0
20.851,0.255,-0.242,0.0
0.0,0.0,0.0,0.0
35.383,0.459,0.374,0.0
28.904,0.385,0.148,2.0
26.744,0.365,-0.011,0.0
23.873,0.334,-0.14,1.0
20.943,0.3,-0.238,0.0
0.0,0.0,0.0,0.0
0.0,0.0,0.0,0.0
29.056,0.448,0.155,0.0
26.894,0.424,-0.005,0.0
23.876,0.385,-0.135,0.0
20.806,0.343,-0.231,0.0
0.0,0.0,0.0,0.0
35.685,0.615,0.393,0.0
29.088,0.511,0.161,0.0
27.006,0.483,0.0,0.0
24.014,0.438,-0.132,0.0
21.467,0.399,-0.235,0.0
0.0,0.0,0.0,0.0
35.854,0.694,0.401,0.0
30.804,0.607,0.175,0.0
27.169,0.544,0.003,0.0
24.186,0.493,-0.129,0.0
21.504,0.445,-0.233,0.0
0.0,0.0,0.0,0.0
36.462,0.784,0.412,0.0
30.782,0.672,0.179,0.0
27.141,0.601,0.006,0.0
24.082,0.542,-0.126,0.0
21.575,0.493,-0.231,0.0
47.718,1.111,0.806,0.0
36.336,0.858,0.414,1.0
31.208,0.747,0.184,0.0
27.194,0.66,0.008,0.0
24.039,0.592,-0.124,0.0
21.55,0.537,-0.23,0.0
0.0,0.0,0.0,0.0
36.12,0.93,0.413,0.0
31.146,0.812,0.185,0.0
26.954,0.712,0.009,0.0
23.917,0.639,-0.123,1.0
21.492,0.582,-0.228,0.0
46.09,1.268,0.782,2.0
35.824,0.998,0.411,0.0
29.024,0.818,0.173,0.0
27.215,0.775,0.009,0.0
24.071,0.694,-0.123,0.0
21.521,0.627,-0.229,1.0
0.0,0.0,0.0,0.0
35.655,1.067,0.408,0.0
29.045,0.878,0.172,0.0
27.069,0.828,0.008,0.0
24.202,0.748,-0.125,0.0
21.436,0.67,-0.229,0.0
0.0,0.0,0.0,0.0
36.283,1.162,0.413,0.0
31.047,1.005,0.182,0.0
26.962,0.881,0.006,1.0
24.261,0.801,-0.127,1.0
21.459,0.715,-0.231,1.0
48.413,1.637,0.814,0.0
36.336,1.24,0.41,0.0
30.881,1.063,0.178,0.0
27.03,0.939,0.003,1.0
24.247,0.851,-0.13,1.0
21.38,0.757,-0.233,0.0
47.325,1.699,0.789,2.0
0.0,0.0,0.0,0.0
30.919,1.13,0.173,0.0
26.587,0.98,0.0,0.0
23.965,0.891,-0.132,1.0
21.168,0.794,-0.234,1.0
0.0,0.0,0.0,0.0
35.641,1.365,0.391,0.0
30.838,1.191,0.167,0.0
26.842,1.045,-0.005,0.0
23.873,0.937,-0.136,1.0
21.216,0.84,-0.239,0.0
43.988,1.763,0.717,0.0
35.397,1.429,0.381,0.0
30.583,1.244,0.159,0.0
26.7,1.095,-0.011,0.0
23.575,0.974,-0.14,1.0
21.086,0.878,-0.242,0.0
0.0,0.0,0.0,0.0
34.001,1.442,0.357,0.0
30.588,1.307,0.152,0.0
26.512,1.141,-0.017,0.0
23.385,1.014,-0.145,1.0
21.13,0.922,-0.249,0.0
0.0,0.0,0.0,0.0
34.494,1.533,0.353,0.0
29.971,1.341,0.14,0.0
26.43,1.191,-0.025,0.0
23.266,1.055,-0.151,1.0
20.422,0.933,-0.246,0.0
0.0,0.0,0.0,0.0
33.814,1.571,0.335,0.0
29.575,1.383,0.129,0.0
26.205,1.234,-0.034,0.0
23.098,1.094,-0.158,1.0
20.24,0.965,-0.251,0.0
43.925,2.117,0.665,0.0
33.481,1.623,0.32,0.0
29.293,1.429,0.117,0.0
26.069,1.279,-0.043,0.0
22.874,1.129,-0.165,0.0
20.047,0.996,-0.256,0.0
0.0,0.0,0.0,0.0
33.318,1.682,0.306,0.0
29.13,1.478,0.105,0.0
25.777,1.316,-0.053,1.0
22.533,1.157,-0.172,0.0
19.91,1.028,-0.263,0.0
42.608,2.222,0.611,0.0
33.303,1.747,0.291,1.0
28.759,1.516,0.091,0.0
25.462,1.35,-0.063,0.0
22.236,1.185,-0.179,0.0
19.619,1.052,-0.268,0.0
0.0,0.0,0.0,0.0
32.985,1.794,0.273,0.0
28.513,1.559,0.077,0.0
25.2,1.385,-0.074,0.0
22.097,1.221,-0.189,1.0
19.395,1.077,-0.274,0.0
42.083,2.358,0.564,0.0
32.673,1.84,0.255,0.0
28.212,1.596,0.062,0.0
24.93,1.418,-0.086,0.0
21.88,1.251,-0.198,1.0
19.3,1.109,-0.282,0.0
39.74,2.304,0.512,0.0
32.214,1.877,0.234,0.0
27.832,1.629,0.046,0.0
24.668,1.451,-0.098,0.0
21.649,1.279,-0.208,1.0
19.05,1.131,-0.289,0.0
38.473,2.303,0.474,0.0
31.663,1.904,0.212,1.0
27.4,1.655,0.03,0.0
24.412,1.482,-0.111,0.0
21.44,1.307,-0.218,2.0
18.784,1.15,-0.296,0.0
47.263,2.918,0.555,2.0
31.097,1.928,0.19,0.0
27.011,1.682,0.014,0.0
24.075,1.506,-0.124,0.0
21.201,1.332,-0.228,1.0
18.572,1.172,-0.304,0.0
36.795,2.34,0.409,2.0
30.29,1.934,0.166,0.0
26.685,1.711,-0.002,0.0
23.714,1.527,-0.138,0.0
20.645,1.335,-0.236,0.0
18.315,1.189,-0.312,0.0
36.128,2.365,0.378,0.0
29.636,1.947,0.143,0.0
26.225,1.73,-0.02,0.0
23.355,1.547,-0.151,0.0
20.421,1.357,-0.247,0.0
18.032,1.203,-0.319,0.0
47.252,3.177,0.462,1.0
29.232,1.973,0.121,0.0
25.867,1.752,-0.037,0.0
22.857,1.554,-0.164,0.0
20.093,1.371,-0.257,0.0
17.706,1.213,-0.326,0.0
34.262,2.364,0.31,0.0
28.939,2.004,0.099,1.0
25.445,1.768,-0.055,0.0
22.647,1.58,-0.179,0.0
19.576,1.37,-0.265,0.0
17.496,1.229,-0.335,0.0
33.003,2.335,0.275,0.0
28.521,2.025,0.076,1.0
25.104,1.788,-0.073,0.0
22.203,1.587,-0.192,0.0
19.278,1.383,-0.275,0.0
17.308,1.246,-0.345,0.0
32.429,2.351,0.244,0.0
28.046,2.04,0.053,1.0
24.431,1.783,-0.091,1.0
21.714,1.59,-0.205,0.0
19.102,1.403,-0.288,0.0
17.079,1.259,-0.354,0.0
32.048,2.377,0.216,1.0
27.489,2.046,0.03,1.0
24.105,1.8,-0.109,2.0
21.413,1.604,-0.22,0.0
18.642,1.4,-0.297,0.0
16.88,1.272,-0.364,0.0
30.83,2.339,0.182,0.0
26.761,2.036,0.007,0.0
23.97,1.829,-0.128,2.0
21.034,1.61,-0.234,0.0
18.359,1.41,-0.308,0.0
16.676,1.284,-0.374,0.0
29.961,2.321,0.151,1.0
26.279,2.042,-0.015,0.0
23.667,1.844,-0.147,0.0
20.484,1.601,-0.245,0.0
18.052,1.415,-0.318,0.0
16.45,1.293,-0.383,0.0
29.708,2.35,0.123,2.0
25.788,2.045,-0.038,0.0
22.801,1.813,-0.162,1.0
20.158,1.608,-0.26,0.0
17.81,1.424,-0.33,0.0
16.254,1.304,-0.393,0.0
29.47,2.377,0.096,2.0
25.329,2.048,-0.06,0.0
22.481,1.823,-0.181,1.0
19.494,1.585,-0.269,0.0
17.537,1.43,-0.342,0.0
15.988,1.307,-0.402,0.0
28.254,2.323,0.065,0.0
24.687,2.035,-0.082,0.0
22.003,1.818,-0.198,1.0
19.138,1.585,-0.283,0.0
17.161,1.425,-0.351,0.0
15.814,1.317,-0.413,0.0
27.387,2.292,0.037,1.0
24.185,2.029,-0.104,0.0
21.538,1.812,-0.215,1.0
18.792,1.584,-0.296,0.0
16.924,1.431,-0.362,0.0
15.561,1.319,-0.421,0.0
26.725,2.277,0.009,1.0
23.674,2.021,-0.125,0.0
21.163,1.811,-0.232,0.0
18.395,1.578,-0.308,0.0
16.638,1.43,-0.373,0.0
15.305,1.319,-0.43,0.0
26.263,2.275,-0.016,1.0
22.988,1.995,-0.145,0.0
20.613,1.793,-0.247,0.0
18.111,1.579,-0.322,0.0
16.409,1.434,-0.385,0.0
15.094,1.322,-0.44,0.0
25.773,2.268,-0.043,1.0
22.599,1.993,-0.166,1.0
19.901,1.759,-0.259,0.0
17.677,1.566,-0.332,0.0
16.144,1.433,-0.395,0.0
14.809,1.317,-0.447,0.0
25.16,2.248,-0.068,0.0
22.108,1.98,-0.185,3.0
19.414,1.742,-0.273,0.0
17.42,1.566,-0.346,0.0
15.891,1.432,-0.406,0.0
14.688,1.326,-0.459,0.0
24.599,2.231,-0.093,0.0
21.721,1.973,-0.206,4.0
19.012,1.731,-0.288,0.0
17.091,1.559,-0.358,0.0
15.654,1.431,-0.417,0.0
14.476,1.326,-0.468,0.0
23.827,2.191,-0.116,0.0
21.336,1.966,-0.225,2.0
18.557,1.713,-0.301,0.0
16.771,1.551,-0.37,0.0
15.45,1.432,-0.429,0.0
14.137,1.313,-0.473,0.0
22.961,2.14,-0.137,0.0
20.832,1.945,-0.243,0.0
18.204,1.703,-0.316,0.0
16.497,1.546,-0.382,0.0
15.152,1.422,-0.437,0.0
13.906,1.308,-0.481,0.0
22.592,2.133,-0.16,1.0
20.057,1.897,-0.256,0.0
17.751,1.681,-0.328,0.0
16.163,1.534,-0.393,0.0
14.921,1.418,-0.448,0.0
13.765,1.311,-0.491,0.0
22.002,2.103,-0.181,4.0
19.326,1.85,-0.269,0.0
17.42,1.67,-0.342,0.0
15.922,1.529,-0.405,0.0
14.669,1.411,-0.457,0.0
13.567,1.308,-0.5,0.0
21.553,2.084,-0.203,8.0
18.945,1.835,-0.286,0.0
17.118,1.66,-0.356,0.0
15.685,1.524,-0.417,0.0
14.404,1.402,-0.465,0.0
13.426,1.309,-0.511,0.0
21.283,2.081,-0.225,3.0
18.55,1.816,-0.302,0.0
16.825,1.65,-0.37,0.0
15.349,1.508,-0.427,0.0
14.103,1.387,-0.473,0.0
13.237,1.304,-0.519,0.0
20.698,2.045,-0.243,0.0
18.066,1.788,-0.315,0.0
16.472,1.632,-0.382,0.0
15.078,1.496,-0.437,0.0
13.913,1.383,-0.483,0.0
13.012,1.295,-0.526,0.0
19.877,1.984,-0.258,0.0
17.63,1.762,-0.329,0.0
16.211,1.623,-0.395,0.0
14.887,1.492,-0.45,0.0
13.749,1.38,-0.494,0.0
12.814,1.288,-0.534,0.0
19.501,1.965,-0.276,0.0
17.33,1.749,-0.345,0.0
15.902,1.607,-0.407,0.0
14.572,1.474,-0.458,0.0
13.539,1.372,-0.503,0.0
12.662,1.285,-0.543,0.0
18.879,1.92,-0.291,0.0
17.059,1.737,-0.36,0.0
15.604,1.591,-0.419,0.0
14.194,1.449,-0.463,0.0
13.315,1.361,-0.511,0.0
12.484,1.278,-0.551,0.0
18.382,1.885,-0.306,0.0
16.671,1.712,-0.373,0.0
15.311,1.574,-0.43,0.0
14.034,1.445,-0.476,0.0
13.121,1.352,-0.52,0.0
12.26,1.265,-0.556,0.0
17.877,1.849,-0.32,0.0
16.324,1.69,-0.385,0.0
15.061,1.561,-0.442,0.0
13.835,1.436,-0.486,0.0
12.904,1.34,-0.528,0.0
12.127,1.261,-0.566,0.0
17.521,1.826,-0.335,0.0
15.986,1.667,-0.397,0.0
14.739,1.539,-0.451,0.0
13.634,1.425,-0.497,0.0
12.701,1.329,-0.535,0.0
11.957,1.253,-0.573,0.0
17.186,1.804,-0.351,0.0
15.79,1.659,-0.413,0.0
14.586,1.534,-0.465,0.0
13.448,1.416,-0.507,0.0
12.575,1.325,-0.546,0.0
11.795,1.244,-0.58,0.0
16.851,1.78,-0.365,0.0
15.443,1.633,-0.423,0.0
14.181,1.501,-0.47,0.0
13.221,1.401,-0.515,0.0
12.409,1.316,-0.555,0.0
11.595,1.231,-0.585,0.0
16.601,1.765,-0.381,0.0
15.121,1.609,-0.434,0.0
14.023,1.493,-0.482,0.0
13.0,1.386,-0.523,0.0
12.194,1.301,-0.561,0.0
11.418,1.219,-0.591,0.0
16.156,1.727,-0.391,0.0
14.922,1.597,-0.447,0.0
13.724,1.47,-0.49,0.0
12.727,1.364,-0.529,0.0
12.034,1.291,-0.569,0.0
11.29,1.212,-0.599,0.0
15.922,1.711,-0.406,0.0
14.599,1.57,-0.456,0.0
13.517,1.455,-0.5,0.0
12.638,1.361,-0.541,0.0
11.835,1.276,-0.575,0.0
11.114,1.199,-0.603,0.0
15.635,1.688,-0.419,0.0
14.315,1.547,-0.465,0.0
13.339,1.442,-0.51,0.0
12.492,1.352,-0.551,0.0
11.653,1.262,-0.581,0.0
10.983,1.191,-0.61,0.0
15.308,1.66,-0.429,0.0
14.131,1.534,-0.477,0.0
13.11,1.424,-0.518,0.0
12.245,1.331,-0.556,0.0
11.499,1.251,-0.588,0.0
10.834,1.179,-0.616,0.0
15.026,1.636,-0.441,0.0
13.819,1.506,-0.484,0.0
12.919,1.408,-0.527,0.0
12.042,1.314,-0.562,0.0
11.365,1.241,-0.595,0.0
10.727,1.172,-0.624,0.0
14.712,1.608,-0.45,0.0
13.591,1.486,-0.494,0.0
12.665,1.385,-0.533,0.0
11.909,1.304,-0.571,0.0
11.158,1.222,-0.599,0.0
10.575,1.159,-0.629,0.0
14.447,1.584,-0.461,0.0
13.455,1.476,-0.506,0.0
12.524,1.374,-0.543,0.0
11.714,1.286,-0.576,0.0
11.018,1.21,-0.606,0.0
10.424,1.146,-0.633,0.0
14.205,1.561,-0.471,0.0
13.201,1.451,-0.513,0.0
12.406,1.365,-0.554,0.0
11.53,1.269,-0.582,0.0
10.909,1.201,-0.613,0.0
10.293,1.134,-0.638,0.0
13.976,1.539,-0.481,0.0
13.009,1.433,-0.522,0.0
12.197,1.345,-0.56,0.0
11.404,1.258,-0.59,0.0
10.797,1.191,-0.621,0.0
10.168,1.123,-0.643,0.0
13.707,1.513,-0.489,0.0
12.787,1.411,-0.529,0.0
12.062,1.332,-0.569,0.0
11.245,1.242,-0.596,0.0
10.619,1.174,-0.624,0.0
10.069,1.113,-0.65,0.0
13.501,1.492,-0.498,0.0
12.598,1.393,-0.537,0.0
11.843,1.31,-0.573,0.0
11.062,1.224,-0.6,0.0
10.541,1.167,-0.633,0.0
9.876,1.093,-0.65,0.0
13.285,1.469,-0.507,0.0
12.453,1.378,-0.547,0.0
11.62,1.286,-0.577,0.0
10.954,1.213,-0.608,0.0
10.358,1.147,-0.635,0.0
9.777,1.083,-0.656,0.0
13.099,1.45,-0.517,0.0
12.241,1.355,-0.553,0.0
11.521,1.276,-0.587,0.0
10.863,1.203,-0.617,0.0
10.268,1.138,-0.642,0.0
9.693,1.074,-0.662,0.0
12.893,1.427,-0.524,0.0
12.067,1.336,-0.56,0.0
11.336,1.255,-0.591,0.0
10.692,1.184,-0.62,0.0
10.11,1.12,-0.645,0.0
9.591,1.063,-0.667,0.0
12.7,1.406,-0.532,0.0
11.962,1.324,-0.57,0.0
11.199,1.24,-0.598,0.0
10.567,1.17,-0.626,0.0
10.007,1.108,-0.65,0.0
9.489,1.051,-0.671,0.0
12.53,1.386,-0.54,0.0
11.72,1.296,-0.572,0.0
11.061,1.224,-0.604,0.0
10.395,1.15,-0.628,0.0
9.907,1.096,-0.656,0.0
9.432,1.044,-0.679,0.0
12.463,1.377,-0.552,0.0
11.609,1.283,-0.581,0.0
10.928,1.208,-0.609,0.0
10.317,1.14,-0.636,0.0
9.755,1.078,-0.657,0.0
9.313,1.029,-0.681,0.0
12.204,1.346,-0.555,0.0
11.456,1.264,-0.587,0.0
10.815,1.193,-0.616,0.0
10.157,1.121,-0.638,0.0
9.672,1.067,-0.663,0.0
9.208,1.016,-0.684,0.0
12.082,1.331,-0.563,0.0
11.318,1.246,-0.593,0.0
10.696,1.178,-0.622,0.0
10.08,1.11,-0.645,0.0
9.539,1.05,-0.665,0.0
9.021,0.994,-0.681,0.0
11.913,1.309,-0.569,0.0
11.155,1.226,-0.597,0.0
10.545,1.158,-0.625,0.0
10.063,1.105,-0.655,0.0
9.462,1.039,-0.67,0.0
0.0,0.0,0.0,0.0
11.691,1.281,-0.572,0.0
11.042,1.21,-0.603,0.0
10.447,1.145,-0.631,0.0
9.89,1.083,-0.655,0.0
9.387,1.028,-0.676,0.0
8.874,0.972,-0.69,0.0
11.578,1.265,-0.579,0.0
10.943,1.195,-0.61,0.0
10.309,1.126,-0.634,0.0
9.723,1.062,-0.655,0.0
9.395,1.026,-0.687,0.0
8.847,0.966,-0.698,0.0
11.445,1.246,-0.585,0.0
10.81,1.177,-0.614,0.0
10.198,1.11,-0.638,0.0
9.65,1.05,-0.66,0.0
0.0,0.0,0.0,0.0
8.712,0.948,-0.696,0.0
11.325,1.229,-0.591,0.0
10.722,1.163,-0.621,0.0
10.106,1.096,-0.643,0.0
9.546,1.035,-0.663,0.0
9.096,0.986,-0.684,0.0
8.63,0.935,-0.699,0.0
11.18,1.208,-0.595,0.0
10.593,1.144,-0.624,0.0
9.99,1.078,-0.646,0.0
9.47,1.022,-0.668,0.0
0.0,0.0,0.0,0.0
8.629,0.931,-0.708,0.0
11.066,1.19,-0.6,0.0
10.488,1.127,-0.629,0.0
9.881,1.062,-0.649,0.0
9.373,1.007,-0.671,0.0
8.867,0.952,-0.685,0.0
8.514,0.914,-0.707,0.0
10.961,1.173,-0.605,0.0
10.332,1.105,-0.63,0.0
9.746,1.042,-0.65,0.0
9.322,0.996,-0.676,0.0
8.856,0.946,-0.693,0.0
8.449,0.902,-0.71,0.0
10.83,1.152,-0.609,0.0
10.256,1.091,-0.635,0.0
9.757,1.037,-0.66,0.0
9.184,0.976,-0.675,0.0
8.81,0.936,-0.698,0.0
8.363,0.888,-0.711,0.0
10.74,1.136,-0.614,0.0
10.16,1.074,-0.639,0.0
9.651,1.02,-0.662,0.0
9.144,0.966,-0.681,0.0
8.743,0.923,-0.701,0.0
8.315,0.877,-0.715,0.0
10.66,1.121,-0.619,0.0
10.041,1.055,-0.641,0.0
9.534,1.001,-0.663,0.0
9.06,0.951,-0.683,0.0
8.683,0.911,-0.704,0.0
8.259,0.866,-0.717,0.0
10.533,1.1,-0.621,0.0
9.945,1.038,-0.643,0.0
9.45,0.986,-0.665,0.0
8.937,0.932,-0.681,0.0
8.585,0.894,-0.704,0.0
8.209,0.855,-0.72,0.0
10.46,1.085,-0.626,0.0
9.873,1.023,-0.647,0.0
9.416,0.975,-0.671,0.0
8.903,0.922,-0.687,0.0
8.507,0.88,-0.705,0.0
8.179,0.845,-0.725,0.0
10.377,1.068,-0.63,0.0
9.779,1.006,-0.649,0.0
9.349,0.961,-0.674,0.0
0.0,0.0,0.0,0.0
8.484,0.871,-0.71,0.0
8.117,0.833,-0.726,0.0
10.256,1.048,-0.631,0.0
9.714,0.991,-0.653,0.0
9.266,0.945,-0.676,0.0
0.0,0.0,0.0,0.0
8.444,0.86,-0.713,0.0
8.092,0.823,-0.73,0.0
10.2,1.033,-0.635,0.0
9.663,0.978,-0.657,0.0
9.205,0.931,-0.678,0.0
0.0,0.0,0.0,0.0
8.366,0.845,-0.713,0.0
7.984,0.806,-0.726,0.0
10.111,1.016,-0.637,0.0
9.613,0.965,-0.661,0.0
0.0,0.0,0.0,0.0
0.0,0.0,0.0,0.0
8.321,0.833,-0.715,0.0
7.998,0.8,-0.734,0.0
10.062,1.002,-0.642,0.0
9.549,0.95,-0.663,0.0
0.0,0.0,0.0,0.0
0.0,0.0,0.0,0.0
8.315,0.825,-0.721,0.0
7.926,0.785,-0.733,0.0
9.952,0.981,-0.641,0.0
9.5,0.936,-0.666,0.0
0.0,0.0,0.0,0.0
8.595,0.845,-0.702,0.0
8.215,0.807,-0.718,0.0
0.0,0.0,0.0,0.0
9.929,0.97,-0.646,0.0
9.431,0.92,-0.668,0.0
8.968,0.874,-0.686,0.0
8.552,0.832,-0.704,0.0
8.221,0.799,-0.724,0.0
0.0,0.0,0.0,0.0
9.842,0.951,-0.647,0.0
9.379,0.905,-0.67,0.0
8.85,0.853,-0.682,0.0
0.0,0.0,0.0,0.0
8.17,0.786,-0.724,0.0
0.0,0.0,0.0,0.0
9.818,0.939,-0.651,0.0
9.322,0.89,-0.671,0.0
8.862,0.845,-0.688,0.0
0.0,0.0,0.0,0.0
8.097,0.77,-0.722,0.0
0.0,0.0,0.0,0.0
9.744,0.921,-0.651,0.0
9.308,0.879,-0.675,0.0
8.875,0.837,-0.694,0.0
8.429,0.794,-0.708,0.0
8.134,0.765,-0.73,0.0
0.0,0.0,0.0,0.0
9.724,0.909,-0.655,0.0
9.277,0.866,-0.678,0.0
8.771,0.817,-0.691,0.0
0.0,0.0,0.0,0.0
8.087,0.752,-0.729,0.0
0.0,0.0,0.0,0.0
9.664,0.892,-0.656,0.0
9.152,0.844,-0.673,0.0
8.728,0.804,-0.691,0.0
0.0,0.0,0.0,0.0
0.0,0.0,0.0,0.0
0.0,0.0,0.0,0.0
9.602,0.876,-0.656,0.0
9.185,0.836,-0.679,0.0
8.672,0.788,-0.691,0.0
8.29,0.752,-0.708,0.0
0.0,0.0,0.0,0.0
0.0,0.0,0.0,0.0
9.578,0.862,-0.658,0.0
9.126,0.82,-0.679,0.0
8.686,0.779,-0.695,0.0
8.324,0.746,-0.714,0.0
0.0,0.0,0.0,0.0
7.63,0.682,-0.741,0.0
9.549,0.848,-0.66,0.0
9.066,0.804,-0.677,0.0
8.685,0.769,-0.698,0.0
8.259,0.73,-0.711,0.0
7.978,0.704,-0.733,0.0
7.587,0.668,-0.74,0.0
9.524,0.834,-0.661,0.0
9.151,0.8,-0.687,0.0
8.66,0.756,-0.699,0.0
8.254,0.719,-0.714,0.0
7.933,0.69,-0.731,0.0
7.602,0.66,-0.744,0.0
9.46,0.817,-0.659,0.0
9.065,0.781,-0.683,0.0
8.626,0.742,-0.699,0.0
8.248,0.708,-0.715,0.0
0.0,0.0,0.0,0.0
7.557,0.647,-0.741,0.0
9.445,0.804,-0.661,0.0
8.998,0.764,-0.68,0.0
8.69,0.737,-0.706,0.0
0.0,0.0,0.0,0.0
0.0,0.0,0.0,0.0
7.588,0.64,-0.746,0.0
9.435,0.791,-0.662,0.0
8.99,0.752,-0.681,0.0
8.622,0.72,-0.702,0.0
8.25,0.687,-0.719,0.0
0.0,0.0,0.0,0.0
7.561,0.627,-0.745,0.0
9.428,0.778,-0.663,0.0
8.981,0.739,-0.682,0.0
8.637,0.709,-0.704,0.0
0.0,0.0,0.0,0.0
0.0,0.0,0.0,0.0
7.576,0.619,-0.747,0.0
9.428,0.765,-0.664,0.0
9.008,0.73,-0.685,0.0
0.0,0.0,0.0,0.0
0.0,0.0,0.0,0.0
0.0,0.0,0.0,0.0
7.608,0.611,-0.751,0.0
9.443,0.754,-0.666,0.0
8.952,0.713,-0.682,0.0
0.0,0.0,0.0,0.0
0.0,0.0,0.0,0.0
0.0,0.0,0.0,0.0
7.552,0.596,-0.746,0.0
9.476,0.743,-0.669,0.0
9.0,0.704,-0.686,0.0
8.581,0.67,-0.702,0.0
0.0,0.0,0.0,0.0
0.0,0.0,0.0,0.0
7.55,0.585,-0.746,0.0
9.413,0.725,-0.664,0.0
8.989,0.691,-0.685,0.0
8.509,0.653,-0.696,0.0
0.0,0.0,0.0,0.0
0.0,0.0,0.0,0.0
7.51,0.572,-0.742,0.0
9.364,0.709,-0.661,0.0
9.013,0.68,-0.686,0.0
8.592,0.647,-0.702,0.0
0.0,0.0,0.0,0.0
0.0,0.0,0.0,0.0
7.544,0.564,-0.744,0.0
9.447,0.701,-0.666,0.0
9.008,0.667,-0.685,0.0
0.0,0.0,0.0,0.0
0.0,0.0,0.0,0.0
0.0,0.0,0.0,0.0
7.586,0.556,-0.748,0.0
9.443,0.688,-0.664,0.0
8.985,0.653,-0.682,0.0
0.0,0.0,0.0,0.0
0.0,0.0,0.0,0.0
0.0,0.0,0.0,0.0
7.541,0.542,-0.742,0.0
9.414,0.672,-0.661,0.0
8.972,0.639,-0.68,0.0
0.0,0.0,0.0,0.0
0.0,0.0,0.0,0.0
0.0,0.0,0.0,0.0
7.553,0.532,-0.742,0.0
9.468,0.662,-0.662,0.0
9.066,0.632,-0.685,0.0
0.0,0.0,0.0,0.0
0.0,0.0,0.0,0.0
0.0,0.0,0.0,0.0
7.593,0.523,-0.744,0.0
9.465,0.648,-0.66,0.0
9.058,0.618,-0.682,0.0
0.0,0.0,0.0,0.0
0.0,0.0,0.0,0.0
7.951,0.538,-0.732,0.0
0.0,0.0,0.0,0.0
9.484,0.636,-0.658,0.0
9.044,0.604,-0.678,0.0
0.0,0.0,0.0,0.0
0.0,0.0,0.0,0.0
0.0,0.0,0.0,0.0
7.578,0.5,-0.737,0.0
9.47,0.621,-0.654,0.0
9.039,0.59,-0.674,0.0
8.716,0.567,-0.699,0.0
0.0,0.0,0.0,0.0
0.0,0.0,0.0,0.0
0.0,0.0,0.0,0.0
9.522,0.61,-0.654,0.0
9.125,0.582,-0.677,0.0
8.714,0.554,-0.695,0.0
0.0,0.0,0.0,0.0
0.0,0.0,0.0,0.0
0.0,0.0,0.0,0.0
9.556,0.598,-0.652,0.0
0.0,0.0,0.0,0.0
8.679,0.539,-0.688,0.0
0.0,0.0,0.0,0.0
0.0,0.0,0.0,0.0
0.0,0.0,0.0,0.0
9.577,0.585,-0.649,0.0
9.208,0.56,-0.675,0.0
8.794,0.533,-0.693,0.0
0.0,0.0,0.0,0.0
0.0,0.0,0.0,0.0
0.0,0.0,0.0,0.0
9.6,0.572,-0.646,0.0
9.216,0.547,-0.671,0.0
8.82,0.521,-0.691,0.0
0.0,0.0,0.0,0.0
0.0,0.0,0.0,0.0
0.0,0.0,0.0,0.0
9.656,0.561,-0.644,0.0
9.255,0.535,-0.668,0.0
8.786,0.506,-0.683,0.0
0.0,0.0,0.0,0.0
0.0,0.0,0.0,0.0
0.0,0.0,0.0,0.0
9.711,0.549,-0.642,0.0
9.262,0.522,-0.663,0.0
0.0,0.0,0.0,0.0
0.0,0.0,0.0,0.0
0.0,0.0,0.0,0.0
0.0,0.0,0.0,0.0
9.805,0.54,-0.642,0.0
9.375,0.514,-0.665,0.0
0.0,0.0,0.0,0.0
0.0,0.0,0.0,0.0
0.0,0.0,0.0,0.0
0.0,0.0,0.0,0.0
9.802,0.525,-0.635,0.0
9.425,0.503,-0.662,0.0
0.0,0.0,0.0,0.0
0.0,0.0,0.0,0.0
0.0,0.0,0.0,0.0
0.0,0.0,0.0,0.0
9.874,0.514,-0.633,0.0
9.463,0.491,-0.658,0.0
0.0,0.0,0.0,0.0
0.0,0.0,0.0,0.0
0.0,0.0,0.0,0.0
0.0,0.0,0.0,0.0
9.976,0.505,-0.632,0.0
9.527,0.48,-0.655,0.0
9.153,0.459,-0.679,0.0
0.0,0.0,0.0,0.0
0.0,0.0,0.0,0.0
0.0,0.0,0.0,0.0
10.059,0.494,-0.629,0.0
9.561,0.467,-0.65,0.0
9.125,0.444,-0.67,0.0
0.0,0.0,0.0,0.0
8.37,0.403,-0.707,0.0
8.063,0.387,-0.725,0.0
10.164,0.484,-0.627,0.0
9.675,0.458,-0.649,0.0
9.292,0.438,-0.674,0.0
0.0,0.0,0.0,0.0
0.0,0.0,0.0,0.0
0.0,0.0,0.0,0.0
10.242,0.473,-0.622,0.0
9.724,0.446,-0.643,0.0
9.274,0.424,-0.664,0.0
8.892,0.404,-0.686,0.0
0.0,0.0,0.0,0.0
8.142,0.366,-0.717,0.0
10.292,0.46,-0.616,0.0
9.781,0.435,-0.638,0.0
9.299,0.411,-0.657,0.0
0.0,0.0,0.0,0.0
8.532,0.373,-0.696,0.0
8.231,0.358,-0.717,0.0
10.478,0.453,-0.616,0.0
9.852,0.423,-0.633,0.0
9.415,0.402,-0.656,0.0
0.0,0.0,0.0,0.0
8.632,0.365,-0.696,0.0
8.277,0.348,-0.712,0.0
10.53,0.44,-0.609,0.0
9.983,0.415,-0.631,0.0
9.55,0.394,-0.655,0.0
0.0,0.0,0.0,0.0
8.694,0.355,-0.692,0.0
8.388,0.341,-0.713,0.0
10.659,0.43,-0.605,0.0
10.17,0.408,-0.632,0.0
9.64,0.384,-0.651,0.0
9.163,0.363,-0.669,0.0
8.758,0.345,-0.687,0.0
8.338,0.326,-0.699,0.0
10.801,0.42,-0.601,0.0
10.197,0.394,-0.622,0.0
9.692,0.372,-0.644,0.0
9.226,0.352,-0.664,0.0
8.906,0.338,-0.689,0.0
8.482,0.32,-0.702,0.0
10.901,0.408,-0.594,0.0
10.374,0.386,-0.621,0.0
9.786,0.362,-0.639,0.0
9.329,0.343,-0.66,0.0
8.965,0.327,-0.683,0.0
8.579,0.311,-0.699,0.0
11.089,0.4,-0.592,0.0
10.463,0.374,-0.614,0.0
9.96,0.354,-0.638,0.0
9.426,0.333,-0.655,0.0
9.015,0.317,-0.676,0.0
8.67,0.302,-0.696,0.0
11.239,0.389,-0.586,0.0
10.576,0.364,-0.608,0.0
10.053,0.343,-0.632,0.0
9.523,0.323,-0.65,0.0
0.0,0.0,0.0,0.0
8.716,0.292,-0.689,0.0
11.325,0.377,-0.576,0.0
10.754,0.355,-0.605,0.0
10.214,0.335,-0.629,0.0
9.666,0.315,-0.648,0.0
9.263,0.3,-0.67,0.0
8.822,0.283,-0.686,0.0
11.522,0.367,-0.571,0.0
10.855,0.344,-0.596,0.0
10.298,0.324,-0.621,0.0
9.763,0.305,-0.642,0.0
9.358,0.29,-0.665,0.0
8.937,0.275,-0.683,0.0
11.715,0.358,-0.566,0.0
11.009,0.334,-0.59,0.0
10.392,0.313,-0.612,0.0
9.907,0.296,-0.638,0.0
9.395,0.279,-0.655,0.0
9.043,0.266,-0.679,0.0
11.853,0.346,-0.556,0.0
11.239,0.326,-0.587,0.0
10.575,0.304,-0.609,0.0
10.074,0.288,-0.634,0.0
9.555,0.271,-0.653,0.0
9.12,0.256,-0.672,0.0
12.155,0.339,-0.553,0.0
11.373,0.315,-0.578,0.0
10.724,0.294,-0.602,0.0
10.134,0.276,-0.624,0.0
9.723,0.263,-0.65,0.0
9.294,0.249,-0.671,0.0
12.337,0.328,-0.543,0.0
11.596,0.306,-0.572,0.0
10.898,0.285,-0.596,0.0
10.377,0.269,-0.623,0.0
9.806,0.252,-0.641,0.0
9.401,0.24,-0.665,0.0
12.495,0.316,-0.532,0.0
11.747,0.295,-0.562,0.0
11.154,0.278,-0.593,0.0
10.487,0.259,-0.614,0.0
9.951,0.243,-0.636,0.0
9.492,0.23,-0.657,0.0
12.658,0.305,-0.52,0.0
11.964,0.286,-0.555,0.0
11.302,0.267,-0.584,0.0
10.669,0.25,-0.609,0.0
10.127,0.235,-0.631,0.0
9.678,0.223,-0.655,0.0
12.965,0.296,-0.513,0.0
12.212,0.276,-0.547,0.0
11.464,0.257,-0.574,0.0
10.771,0.239,-0.598,0.0
10.251,0.226,-0.623,0.0
9.758,0.213,-0.645,0.0
13.222,0.286,-0.502,0.0
12.405,0.266,-0.537,0.0
11.662,0.248,-0.566,0.0
11.017,0.232,-0.594,0.0
10.411,0.217,-0.617,0.0
9.942,0.205,-0.641,0.0
13.521,0.277,-0.492,0.0
12.575,0.255,-0.524,0.0
11.882,0.239,-0.558,0.0
11.168,0.222,-0.584,0.0
10.614,0.209,-0.611,0.0
10.1,0.197,-0.635,0.0
13.724,0.265,-0.477,0.0
12.806,0.245,-0.513,0.0
12.148,0.23,-0.55,0.0
11.396,0.213,-0.577,0.0
10.752,0.199,-0.601,0.0
10.219,0.187,-0.625,0.0
14.02,0.255,-0.464,0.0
13.067,0.235,-0.501,0.0
12.348,0.22,-0.539,0.0
11.659,0.205,-0.571,0.0
11.024,0.192,-0.598,0.0
10.377,0.179,-0.617,0.0
14.333,0.245,-0.45,0.0
13.435,0.227,-0.493,0.0
12.564,0.21,-0.527,0.0
11.841,0.195,-0.56,0.0
11.183,0.182,-0.587,0.0
10.589,0.171,-0.612,0.0
14.585,0.233,-0.433,0.0
13.668,0.216,-0.477,0.0
12.805,0.2,-0.514,0.0
12.091,0.186,-0.55,0.0
11.414,0.174,-0.579,0.0
10.739,0.162,-0.601,0.0
15.018,0.224,-0.42,0.0
14.043,0.207,-0.466,0.0
13.103,0.191,-0.503,0.0
12.346,0.177,-0.54,0.0
11.606,0.165,-0.568,0.0
11.031,0.155,-0.598,0.0
15.517,0.216,-0.406,0.0
14.352,0.197,-0.451,0.0
13.444,0.182,-0.492,0.0
12.595,0.168,-0.528,0.0
11.878,0.157,-0.56,0.0
11.172,0.145,-0.586,0.0
15.955,0.206,-0.389,0.0
14.731,0.188,-0.436,0.0
13.706,0.172,-0.477,0.0
12.773,0.158,-0.513,0.0
12.194,0.149,-0.553,0.0
11.469,0.138,-0.58,0.0
16.448,0.196,-0.371,0.0
15.067,0.177,-0.418,0.0
13.999,0.162,-0.462,0.0
13.156,0.15,-0.504,0.0
12.384,0.14,-0.539,0.0
11.675,0.13,-0.569,0.0
16.8,0.185,-0.348,0.0
15.642,0.169,-0.405,0.0
14.461,0.154,-0.45,0.0
13.449,0.141,-0.49,0.0
12.617,0.131,-0.525,0.0
11.89,0.121,-0.557,0.0
17.354,0.175,-0.327,0.0
16.064,0.159,-0.386,0.0
14.788,0.144,-0.432,0.0
13.846,0.133,-0.478,0.0
12.905,0.122,-0.513,0.0
12.243,0.114,-0.55,0.0
16.562,0.15,-0.366,0.0
15.325,0.136,-0.419,0.0
14.194,0.124,-0.463,0.0
13.201,0.113,-0.499,0.0
12.454,0.105,-0.536,0.0
18.858,0.158,-0.283,0.0
16.986,0.139,-0.343,0.0
15.748,0.127,-0.4,0.0
14.477,0.115,-0.444,0.0
13.593,0.106,-0.488,0.0
12.683,0.097,-0.521,0.0
19.808,0.15,-0.259,0.0
17.553,0.13,-0.321,0.0
16.248,0.118,-0.381,0.0
14.914,0.106,-0.429,0.0
13.925,0.097,-0.473,0.0
13.019,0.089,-0.509,0.0
20.842,0.141,-0.232,1.0
18.398,0.122,-0.3,0.0
16.681,0.108,-0.359,0.0
15.345,0.098,-0.411,0.0
14.266,0.089,-0.456,0.0
13.33,0.081,-0.495,0.0
22.008,0.133,-0.202,2.0
19.075,0.112,-0.274,0.0
17.193,0.099,-0.336,0.0
15.91,0.09,-0.395,0.0
14.61,0.08,-0.438,0.0
13.707,0.074,-0.482,0.0
22.986,0.122,-0.165,1.0
20.138,0.104,-0.249,0.0
17.863,0.09,-0.313,0.0
16.44,0.081,-0.375,0.0
15.09,0.072,-0.422,0.0
14.01,0.066,-0.464,0.0
23.967,0.111,-0.124,0.0
21.288,0.096,-0.22,4.0
18.644,0.082,-0.289,0.0
16.859,0.072,-0.35,0.0
15.728,0.065,-0.408,0.0
14.488,0.058,-0.451,0.0
25.384,0.101,-0.08,0.0
22.416,0.086,-0.186,1.0
19.536,0.073,-0.263,0.0
17.438,0.063,-0.327,0.0
16.149,0.057,-0.386,0.0
14.805,0.05,-0.43,0.0
26.391,0.088,-0.029,0.0
23.389,0.076,-0.146,1.0
20.961,0.066,-0.239,2.0
18.21,0.055,-0.304,0.0
16.628,0.049,-0.364,0.0
15.493,0.044,-0.419,0.0
27.608,0.077,0.025,0.0
24.795,0.066,-0.104,0.0
21.76,0.056,-0.204,2.0
18.996,0.047,-0.278,0.0
17.166,0.041,-0.339,0.0
15.883,0.036,-0.396,0.0
28.702,0.064,0.086,2.0
25.797,0.055,-0.055,0.0
23.228,0.047,-0.169,1.0
20.425,0.04,-0.256,0.0
17.923,0.033,-0.317,0.0
16.438,0.029,-0.375,0.0
29.701,0.051,0.15,0.0
27.039,0.044,-0.001,0.0
24.082,0.037,-0.125,0.0
21.232,0.031,-0.221,4.0
18.652,0.026,-0.291,0.0
16.908,0.022,-0.351,0.0
29.891,0.037,0.214,0.0
28.543,0.033,0.058,1.0
25.416,0.028,-0.079,0.0
22.476,0.023,-0.187,0.0
19.6,0.018,-0.264,0.0
17.557,0.015,-0.327,0.0
33.234,0.027,0.308,0.0
28.855,0.021,0.119,0.0
26.494,0.018,-0.026,0.0
23.611,0.014,-0.147,1.0
21.006,0.011,-0.239,2.0
18.423,0.008,-0.305,0.0
0.0,0.0,0.0,0.0
30.625,0.01,0.191,0.0
27.78,0.008,0.03,0.0
24.907,0.005,-0.103,0.0
21.81,0.003,-0.202,0.0
19.221,0.002,-0.277,0.0
0.0,0.0,0.0,0.0
33.063,0.0,0.276,0.0
28.735,-0.001,0.092,1.0
25.981,-0.002,-0.052,0.0
23.461,-0.003,-0.168,1.0
20.542,-0.004,-0.252,0.0
0.0,0.0,0.0,0.0
35.714,-0.011,0.374,0.0
30.251,-0.011,0.161,0.0
27.225,-0.011,0.002,0.0
24.305,-0.011,-0.122,0.0
21.334,-0.01,-0.217,2.0
0.0,0.0,0.0,0.0
36.621,-0.022,0.461,0.0
33.04,-0.021,0.246,0.0
28.639,-0.019,0.063,2.0
25.733,-0.018,-0.074,0.0
22.849,-0.017,-0.183,0.0
0.0,0.0,0.0,0.0
39.509,-0.033,0.583,0.0
33.364,-0.029,0.32,0.0
29.046,-0.026,0.126,1.0
26.685,-0.025,-0.02,0.0
23.896,-0.023,-0.141,1.0
262.37,-0.27,5.783,150.0
0.0,0.0,0.0,0.0
36.215,-0.039,0.425,0.0
31.222,-0.034,0.202,0.0
28.459,-0.032,0.038,1.0
25.255,-0.029,-0.095,0.0
0.0,0.0,0.0,0.0
0.0,0.0,0.0,0.0
39.614,-0.049,0.55,0.0
33.187,-0.042,0.286,1.0
28.814,-0.037,0.1,5.0
26.319,-0.034,-0.043,0.0
78.673,-0.106,2.069,8.0
0.0,0.0,0.0,0.0
0.0,0.0,0.0,0.0
0.0,0.0,0.0,0.0
30.402,-0.042,0.171,0.0
27.607,-0.038,0.013,0.0
79.281,-0.115,2.255,3.0
0.0,0.0,0.0,0.0
0.0,0.0,0.0,0.0
37.031,-0.054,0.478,0.0
33.144,-0.048,0.257,0.0
28.761,-0.042,0.075,5.0
83.07,-0.126,2.54,5.0
78.614,-0.119,1.998,3.0
0.0,0.0,0.0,0.0
0.0,0.0,0.0,0.0
0.0,0.0,0.0,0.0
29.036,-0.043,0.137,1.0
105.44,-0.163,3.448,2.0
78.908,-0.121,2.175,4.0
0.0,0.0,0.0,0.0
0.0,0.0,0.0,0.0
36.505,-0.055,0.439,0.0
31.52,-0.047,0.217,0.0
108.601,-0.166,3.785,10.0
82.867,-0.125,2.462,4.0
78.635,-0.118,1.931,1.0
0.0,0.0,0.0,0.0
39.156,-0.057,0.554,0.0
33.202,-0.048,0.299,0.0
109.06,-0.162,4.035,1.0
83.265,-0.121,2.65,3.0
78.677,-0.113,2.098,7.0
0.0,0.0,0.0,0.0
0.0,0.0,0.0,0.0
36.247,-0.049,0.403,0.0
179.1,-0.251,7.006,9.0
108.261,-0.148,3.676,3.0
82.748,-0.111,2.382,3.0
0.0,0.0,0.0,0.0
0.0,0.0,0.0,0.0
0.0,0.0,0.0,0.0
204.07,-0.261,8.411,6.0
108.85,-0.135,3.923,10.0
83.167,-0.1,2.569,4.0
78.578,-0.091,2.015,8.0
0.0,0.0,0.0,0.0
0.0,0.0,0.0,0.0
0.0,0.0,0.0,0.0
0.0,0.0,0.0,0.0
99.775,-0.103,3.291,2.0
78.591,-0.077,2.179,2.0
0.0,0.0,0.0,0.0
0.0,0.0,0.0,0.0
201.916,-0.187,9.17,13.0
0.0,0.0,0.0,0.0
108.624,-0.089,3.81,12.0
82.925,-0.064,2.472,7.0
78.593,-0.056,1.938,3.0
0.0,0.0,0.0,0.0
201.691,-0.139,9.582,20.0
0.0,0.0,0.0,0.0
0.0,0.0,0.0,0.0
83.294,-0.043,2.656,9.0
78.06,-0.035,2.086,3.0
0.0,0.0,0.0,0.0
201.366,-0.085,9.987,13.0
202.427,-0.072,8.989,8.0
0.0,0.0,0.0,0.0
83.312,-0.018,2.831,11.0
82.827,-0.013,2.387,5.0
0.0,0.0,0.0,0.0
151.074,-0.017,7.805,18.0
201.769,-0.008,9.381,23.0
0.0,0.0,0.0,0.0
83.381,0.008,3.005,4.0
83.224,0.014,2.569,12.0
77.735,0.019,1.999,2.0
151.102,0.034,8.118,37.0
201.443,0.062,9.78,24.0
201.853,0.077,8.753,8.0
83.381,0.038,3.176,4.0
83.27,0.045,2.74,23.0
77.597,0.048,2.152,1.0
151.084,0.091,8.427,39.0
201.151,0.139,10.174,10.0
201.756,0.156,9.157,22.0
83.34,0.071,3.341,5.0
83.282,0.079,2.908,28.0
82.912,0.086,2.466,6.0
91.058,0.092,5.262,10.0
151.113,0.167,7.949,32.0
201.569,0.243,9.556,21.0
83.326,0.108,3.509,15.0
83.276,0.115,3.075,33.0
78.075,0.116,2.478,18.0
91.449,0.134,5.467,10.0
151.128,0.235,8.25,33.0
83.348,0.138,4.115,8.0
83.278,0.146,3.672,31.0
83.274,0.154,3.24,34.0
78.071,0.153,2.632,15.0
83.273,0.162,5.143,18.0
83.305,0.17,4.71,10.0
83.281,0.179,4.276,15.0
83.282,0.188,3.836,40.0
83.284,0.197,3.404,42.0
83.241,0.206,2.97,32.0
83.144,0.205,5.3,30.0
83.229,0.214,4.871,19.0
83.238,0.223,4.438,20.0
83.246,0.232,3.996,36.0
83.247,0.242,3.564,40.0
83.258,0.251,3.131,37.0
79.4,0.239,5.215,16.0
83.221,0.26,5.032,31.0
83.242,0.27,4.598,28.0
83.228,0.28,4.156,29.0
83.249,0.289,3.723,40.0
83.272,0.3,3.291,34.0
79.406,0.285,5.368,32.0
83.156,0.309,5.188,23.0
83.191,0.319,4.756,29.0
83.215,0.33,4.314,34.0
83.246,0.34,3.882,38.0
83.288,0.351,3.45,39.0
62.989,0.265,4.379,16.0
79.444,0.345,5.107,46.0
83.159,0.372,4.912,22.0
83.225,0.383,4.472,27.0
83.229,0.394,4.038,21.0
83.299,0.404,3.607,6.0
63.16,0.307,4.51,9.0
79.433,0.397,5.256,47.0
83.16,0.427,5.067,15.0
79.317,0.418,4.411,7.0
79.318,0.428,3.997,11.0
79.339,0.439,3.583,8.0
63.234,0.351,4.634,20.0
62.814,0.357,4.273,24.0
79.313,0.462,4.979,9.0
79.299,0.472,4.555,5.0
79.336,0.484,4.142,9.0
79.354,0.496,3.729,7.0
63.255,0.396,4.751,29.0
62.947,0.403,4.398,23.0
79.317,0.519,5.124,5.0
79.345,0.531,4.702,3.0
79.307,0.542,4.283,8.0
79.344,0.553,3.869,9.0
63.334,0.443,4.871,23.0
63.192,0.451,4.528,29.0
76.497,0.558,5.078,8.0
79.266,0.59,4.839,2.0
79.376,0.603,4.429,6.0
79.346,0.615,4.011,9.0
63.354,0.492,4.986,11.0
75.858,0.602,5.57,17.0
62.944,0.508,4.29,23.0
76.699,0.632,4.817,4.0
79.329,0.666,4.565,3.0
79.376,0.678,4.151,7.0
57.035,0.489,4.589,24.0
63.568,0.555,4.779,14.0
63.039,0.561,4.408,9.0
76.62,0.694,4.946,11.0
76.798,0.708,4.554,9.0
79.297,0.744,4.285,8.0
57.25,0.539,4.706,28.0
63.552,0.609,4.889,10.0
76.001,0.741,5.445,27.0
76.618,0.759,5.078,19.0
79.497,0.801,4.85,18.0
88.498,0.907,4.933,10.0
57.407,0.59,4.817,28.0
63.452,0.663,4.989,29.0
63.396,0.673,4.649,26.0
76.153,0.821,5.175,29.0
76.576,0.839,4.8,16.0
88.537,0.985,5.082,12.0
57.211,0.639,4.896,32.0
62.434,0.708,5.012,25.0
63.518,0.731,4.762,7.0
63.264,0.739,4.402,22.0
76.404,0.906,4.913,24.0
76.485,0.92,4.514,39.0
56.841,0.687,4.958,32.0
62.623,0.767,5.13,14.0
87.674,1.091,6.716,12.0
63.293,0.798,4.507,26.0
76.25,0.975,5.026,30.0
76.478,0.992,4.636,25.0
56.565,0.737,5.025,26.0
62.607,0.827,5.229,23.0
87.626,1.173,6.852,11.0
76.315,1.036,5.555,9.0
76.249,1.048,5.146,27.0
76.536,1.066,4.761,15.0
56.719,0.794,5.129,25.0
58.967,0.837,5.018,20.0
63.099,0.907,5.034,18.0
76.251,1.11,5.67,45.0
76.837,1.133,5.306,21.0
76.657,1.144,4.887,18.0
56.863,0.853,5.23,29.0
56.694,0.861,4.912,11.0
58.972,0.906,4.794,24.0
58.874,0.915,4.467,18.0
77.205,1.215,5.448,16.0
89.017,1.419,5.808,15.0
57.102,0.915,5.339,31.0
56.873,0.922,5.013,18.0
59.007,0.967,4.886,17.0
58.916,0.978,4.559,20.0
83.364,1.399,6.006,16.0
89.302,1.516,5.96,12.0
57.139,0.976,5.428,6.0
57.041,0.985,5.112,31.0
62.526,1.092,5.27,19.0
63.151,1.114,4.979,12.0
83.526,1.49,6.14,15.0
76.704,1.383,5.229,9.0
49.275,0.893,4.751,13.0
57.292,1.05,5.217,30.0
0.0,0.0,0.0,0.0
63.181,1.183,5.07,15.0
76.878,1.454,5.759,13.0
76.731,1.467,5.338,15.0
49.247,0.947,4.818,12.0
57.517,1.117,5.319,29.0
61.935,1.215,5.394,11.0
63.38,1.256,5.173,17.0
76.883,1.539,5.865,9.0
83.331,1.685,5.911,18.0
55.246,1.124,5.481,22.0
57.643,1.184,5.409,31.0
61.949,1.284,5.479,7.0
63.394,1.327,5.261,25.0
62.84,1.328,4.877,11.0
83.455,1.78,6.03,22.0
55.301,1.187,5.561,30.0
57.769,1.252,5.497,11.0
57.216,1.251,5.136,26.0
55.878,1.233,4.71,7.0
76.859,1.711,6.066,27.0
83.487,1.877,6.141,26.0
55.024,1.244,5.604,20.0
49.359,1.126,4.761,20.0
57.192,1.316,5.207,31.0
56.002,1.3,4.791,27.0
63.196,1.48,5.066,23.0
83.328,1.969,6.233,36.0
55.065,1.309,5.677,14.0
49.391,1.184,4.824,23.0
57.349,1.387,5.292,31.0
55.989,1.365,4.858,27.0
0.0,0.0,0.0,0.0
76.947,1.908,5.848,13.0
49.613,1.238,5.175,19.0
49.439,1.244,4.889,23.0
57.342,1.454,5.36,26.0
50.717,1.297,4.461,24.0
64.796,1.67,5.349,26.0
76.913,1.998,5.935,10.0
0.0,0.0,0.0,0.0
49.433,1.302,4.946,23.0
50.389,1.338,4.768,12.0
49.884,1.335,4.445,23.0
65.678,1.771,5.496,7.0
64.175,1.743,5.024,24.0
48.986,1.34,5.223,24.0
49.671,1.369,5.026,23.0
50.605,1.405,4.845,20.0
49.907,1.395,4.502,25.0
65.198,1.837,5.528,14.0
64.316,1.826,5.105,25.0
48.462,1.385,5.22,26.0
50.499,1.453,5.164,24.0
50.73,1.471,4.912,24.0
49.954,1.459,4.56,31.0
56.082,1.649,4.815,9.0
62.166,1.842,5.001,12.0
46.26,1.38,5.032,30.0
0.0,0.0,0.0,0.0
50.823,1.537,4.974,14.0
50.079,1.525,4.623,24.0
56.123,1.721,4.876,11.0
62.271,1.922,5.072,24.0
48.598,1.51,5.336,15.0
48.709,1.523,5.081,18.0
50.952,1.604,5.037,20.0
56.298,1.784,5.252,17.0
67.868,2.165,5.962,22.0
62.189,1.997,5.124,19.0
48.739,1.575,5.398,14.0
46.224,1.504,4.866,17.0
50.977,1.669,5.088,24.0
50.248,1.656,4.735,30.0
56.175,1.863,4.987,7.0
64.14,2.141,5.345,11.0
45.867,1.542,5.123,23.0
46.202,1.562,4.906,18.0
50.98,1.734,5.134,15.0
50.344,1.723,4.79,24.0
56.047,1.931,5.026,20.0
68.676,2.38,5.784,8.0
45.463,1.586,5.118,24.0
46.218,1.622,4.949,23.0
61.882,2.184,6.286,17.0
50.429,1.791,4.841,24.0
55.812,1.993,5.052,22.0
66.747,2.398,5.677,16.0
45.609,1.65,5.173,20.0
46.217,1.681,4.987,20.0
56.329,2.062,5.768,14.0
50.099,1.844,4.85,24.0
50.013,1.852,4.568,22.0
66.709,2.484,5.728,24.0
45.675,1.713,5.217,18.0
46.148,1.74,5.017,29.0
48.374,1.833,4.992,12.0
50.162,1.912,4.895,31.0
49.881,1.911,4.594,23.0
68.84,2.652,5.962,23.0
45.678,1.772,5.252,29.0
46.063,1.797,5.042,20.0
48.304,1.894,5.02,22.0
50.231,1.98,4.938,20.0
49.924,1.978,4.633,24.0
56.365,2.245,4.922,28.0
45.679,1.833,5.285,32.0
49.285,1.987,5.429,14.0
48.519,1.966,5.076,22.0
50.248,2.046,4.975,24.0
57.4,2.35,5.367,10.0
56.855,2.34,5.003,30.0
45.786,1.897,5.328,34.0
48.434,2.017,5.367,4.0
49.42,2.068,5.202,22.0
50.23,2.111,5.005,32.0
49.853,2.106,4.692,16.0
56.647,2.404,5.019,6.0
45.63,1.95,5.338,34.0
46.19,1.983,5.146,21.0
49.416,2.132,5.232,9.0
50.319,2.181,5.044,23.0
0.0,0.0,0.0,0.0
0.0,0.0,0.0,0.0
45.827,2.019,5.387,23.0
46.206,2.045,5.175,36.0
56.361,2.506,5.999,12.0
50.318,2.247,5.071,22.0
0.0,0.0,0.0,0.0
0.0,0.0,0.0,0.0
45.757,2.077,5.403,29.0
46.162,2.104,5.194,19.0
56.37,2.581,6.028,12.0
50.462,2.32,5.111,24.0
49.836,2.301,4.771,19.0
49.651,2.302,4.479,11.0
45.766,2.138,5.427,37.0
48.355,2.267,5.464,22.0
51.36,2.419,5.517,13.0
50.462,2.387,5.134,24.0
49.821,2.366,4.792,29.0
49.727,2.371,4.508,28.0
45.844,2.201,5.456,36.0
48.299,2.328,5.478,26.0
51.415,2.488,5.544,25.0
50.488,2.453,5.158,24.0
49.83,2.431,4.814,31.0
49.751,2.438,4.53,23.0
45.847,2.263,5.475,30.0
47.762,2.366,5.436,20.0
50.618,2.517,5.478,10.0
50.456,2.518,5.174,19.0
49.788,2.495,4.828,21.0
49.742,2.503,4.547,20.0
45.861,2.324,5.493,21.0
43.683,2.222,4.987,18.0
48.313,2.466,5.245,22.0
44.981,2.305,4.627,14.0
49.889,2.566,4.854,16.0
49.745,2.568,4.563,16.0
45.88,2.385,5.509,28.0
47.515,2.479,5.438,17.0
47.86,2.506,5.209,22.0
44.98,2.363,4.64,19.0
49.922,2.632,4.87,32.0
49.733,2.632,4.575,28.0
45.918,2.447,5.526,4.0
47.576,2.544,5.457,10.0
47.692,2.559,5.203,21.0
44.968,2.421,4.649,15.0
49.864,2.694,4.876,22.0
49.718,2.695,4.584,26.0
43.872,2.395,5.289,23.0
43.693,2.393,5.021,23.0
47.992,2.636,5.245,13.0
45.035,2.482,4.664,27.0
56.061,3.1,5.492,5.0
49.746,2.76,4.595,20.0
43.805,2.447,5.288,28.0
43.683,2.448,5.027,31.0
45.076,2.534,4.933,26.0
45.1,2.544,4.678,11.0
49.044,2.775,4.812,22.0
57.36,3.256,5.307,4.0
43.884,2.509,5.303,17.0
43.749,2.508,5.04,20.0
45.069,2.592,4.937,30.0
48.215,2.781,5.006,22.0
48.734,2.819,4.786,16.0
57.36,3.328,5.311,16.0
43.629,2.549,5.276,32.0
43.786,2.565,5.047,35.0
45.08,2.649,4.941,20.0
48.279,2.845,5.015,22.0
48.66,2.876,4.781,14.0
57.568,3.412,5.333,31.0
43.593,2.602,5.273,29.0
44.059,2.637,5.08,18.0
45.192,2.712,4.955,29.0
48.357,2.91,5.024,22.0
56.775,3.426,5.579,10.0
57.616,3.487,5.337,19.0
42.455,2.587,5.135,32.0
45.277,2.766,5.219,19.0
0.0,0.0,0.0,0.0
49.064,3.013,5.096,30.0
51.953,3.2,5.103,6.0
52.31,3.23,4.843,11.0
43.153,2.683,5.217,19.0
45.147,2.814,5.202,36.0
47.266,2.953,5.178,21.0
49.248,3.085,5.111,21.0
51.964,3.263,5.1,25.0
52.363,3.297,4.843,19.0
33.822,2.144,4.085,18.0
45.604,2.898,5.249,13.0
47.248,3.01,5.17,19.0
49.195,3.141,5.1,20.0
51.682,3.308,5.065,35.0
59.738,3.834,5.518,7.0
33.831,2.185,4.081,23.0
46.411,3.005,5.335,21.0
48.678,3.159,5.319,22.0
48.998,3.187,5.071,14.0
51.765,3.375,5.065,25.0
63.138,4.126,5.821,27.0
33.82,2.225,4.074,21.0
46.751,3.083,5.365,33.0
49.299,3.258,5.377,23.0
48.874,3.237,5.048,21.0
51.704,3.432,5.048,18.0
63.049,4.195,5.799,18.0
33.778,2.262,4.061,18.0
0.0,0.0,0.0,0.0
47.074,3.166,5.123,20.0
64.706,4.36,6.668,13.0
48.253,3.259,4.698,18.0
63.045,4.267,5.782,11.0
33.646,2.292,4.036,21.0
48.524,3.312,5.543,28.0
47.099,3.221,5.112,20.0
54.682,3.748,5.618,21.0
48.208,3.311,4.68,18.0
61.087,4.204,5.584,7.0
33.544,2.323,4.013,20.0
48.497,3.365,5.525,17.0
47.083,3.273,5.095,20.0
54.563,3.8,5.588,19.0
48.303,3.371,4.673,11.0
59.023,4.127,5.375,7.0
33.509,2.358,3.997,24.0
33.599,2.368,3.815,7.0
51.886,3.664,5.596,11.0
48.305,3.418,4.929,21.0
48.339,3.426,4.658,11.0
51.897,3.686,4.706,21.0
33.443,2.39,3.976,25.0
33.774,2.418,3.821,32.0
42.875,3.074,4.606,26.0
48.252,3.466,4.903,25.0
43.171,3.106,4.141,7.0
51.841,3.737,4.679,12.0
33.553,2.434,3.974,20.0
33.782,2.454,3.807,30.0
42.907,3.122,4.59,33.0
48.266,3.518,4.883,27.0
59.478,4.342,5.679,8.0
58.8,4.3,5.279,20.0
33.487,2.464,3.95,27.0
33.678,2.482,3.779,21.0
42.891,3.165,4.568,15.0
48.367,3.575,4.869,23.0
43.239,3.201,4.106,29.0
49.583,3.677,4.426,17.0
33.491,2.498,3.933,30.0
33.792,2.524,3.774,21.0
48.296,3.613,5.118,16.0
48.463,3.631,4.853,14.0
43.319,3.251,4.09,17.0
49.555,3.724,4.397,18.0
33.651,2.544,3.933,27.0
42.96,3.252,4.774,13.0
48.312,3.662,5.091,22.0
49.871,3.786,4.965,11.0
49.647,3.775,4.659,19.0
51.9,3.951,4.575,9.0
42.536,3.258,4.945,3.0
42.972,3.295,4.749,22.0
48.476,3.722,5.079,22.0
43.032,3.308,4.258,18.0
49.576,3.817,4.621,20.0
51.871,3.998,4.54,19.0
33.657,2.609,3.892,6.0
48.441,3.76,5.322,5.0
48.873,3.798,5.089,23.0
42.885,3.336,4.215,25.0
49.169,3.83,4.552,22.0
51.86,4.045,4.504,20.0
33.673,2.641,3.871,14.0
43.272,3.398,4.725,18.0
49.424,3.886,5.112,13.0
42.892,3.376,4.186,34.0
49.03,3.863,4.505,22.0
51.881,4.093,4.47,17.0
33.724,2.675,3.852,22.0
48.641,3.863,5.276,5.0
49.08,3.901,5.042,6.0
42.876,3.412,4.153,25.0
48.954,3.9,4.462,20.0
51.895,4.139,4.433,14.0
42.96,3.445,4.875,9.0
50.113,4.023,5.398,8.0
48.985,3.935,4.995,17.0
42.893,3.449,4.123,30.0
48.998,3.944,4.428,18.0
51.928,4.184,4.396,14.0
42.902,3.476,4.835,27.0
50.073,4.06,5.354,12.0
43.161,3.503,4.366,28.0
42.955,3.489,4.094,22.0
49.588,4.032,4.442,15.0
51.944,4.228,4.356,14.0
42.838,3.505,4.793,37.0
42.753,3.501,4.536,11.0
43.044,3.527,4.319,31.0
43.052,3.531,4.068,18.0
60.358,4.955,5.357,9.0
59.877,4.92,4.971,9.0
42.857,3.539,4.758,31.0
42.677,3.527,4.491,28.0
42.964,3.553,4.274,27.0
43.034,3.562,4.029,14.0
59.683,4.944,5.245,19.0
59.784,4.956,4.911,11.0
42.695,3.557,4.702,33.0
42.651,3.556,4.45,31.0
42.994,3.587,4.238,33.0
51.427,4.293,4.768,5.0
59.678,4.986,5.19,33.0
51.837,4.334,4.211,11.0
42.164,3.543,4.604,31.0
42.669,3.587,4.413,27.0
42.907,3.609,4.19,28.0
51.513,4.336,4.728,18.0
59.632,5.023,5.13,30.0
51.79,4.365,4.159,20.0
42.048,3.561,4.552,27.0
42.925,3.636,4.398,28.0
42.777,3.626,4.136,26.0
51.446,4.364,4.672,25.0
59.633,5.061,5.074,20.0
51.811,4.4,4.11,47.0
42.383,3.615,4.546,22.0
42.949,3.666,4.358,28.0
51.466,4.395,4.925,9.0
51.437,4.394,4.62,17.0
51.678,4.417,4.345,19.0
51.809,4.431,4.058,37.0
42.597,3.659,4.526,34.0
42.896,3.686,4.309,30.0
51.535,4.431,4.879,12.0
59.302,5.101,5.266,11.0
51.699,4.449,4.294,27.0
51.809,4.46,4.005,35.0
42.637,3.687,4.485,36.0
42.884,3.709,4.263,29.0
51.535,4.459,4.825,19.0
59.313,5.133,5.206,16.0
51.725,4.478,4.242,19.0
51.818,4.488,3.952,32.0
42.671,3.711,4.444,37.0
42.781,3.722,4.207,23.0
51.506,4.482,4.768,25.0
51.635,4.495,4.477,43.0
43.118,3.755,3.49,17.0
51.814,4.514,3.896,36.0
42.811,3.744,4.411,31.0
42.777,3.742,4.16,21.0
51.505,4.506,4.711,25.0
51.641,4.519,4.42,35.0
43.107,3.774,3.441,25.0
51.829,4.538,3.84,22.0
42.911,3.772,4.373,35.0
51.296,4.51,4.931,12.0
51.52,4.53,4.654,32.0
59.158,5.203,4.996,26.0
43.035,3.786,3.386,17.0
51.861,4.563,3.783,38.0
42.922,3.791,4.324,34.0
51.384,4.538,4.879,21.0
51.578,4.556,4.599,23.0
59.203,5.23,4.931,20.0
51.855,4.581,4.02,9.0
51.871,4.584,3.723,35.0
42.875,3.802,4.269,32.0
51.495,4.567,4.829,25.0
53.167,4.715,4.678,1.0
43.092,3.822,3.538,16.0
51.854,4.599,3.959,18.0
51.894,4.603,3.664,19.0
42.823,3.812,4.212,35.0
51.494,4.583,4.767,23.0
59.332,5.281,5.149,30.0
43.065,3.832,3.485,17.0
51.873,4.617,3.898,19.0
51.932,4.622,3.604,23.0
42.805,3.822,4.159,24.0
51.472,4.596,4.702,11.0
59.073,5.274,5.055,20.0
42.966,3.835,3.424,17.0
51.891,4.632,3.836,18.0
51.972,4.639,3.543,13.0
51.592,4.62,4.948,13.0
0.0,0.0,0.0,0.0
59.094,5.29,4.983,12.0
42.939,3.843,3.368,21.0
51.905,4.645,3.772,16.0
60.185,5.386,4.028,28.0
51.632,4.634,4.886,10.0
53.064,4.761,4.714,12.0
43.119,3.868,3.581,22.0
42.934,3.85,3.313,22.0
51.922,4.656,3.707,21.0
59.673,5.351,3.917,34.0
51.555,4.635,4.813,13.0
59.317,5.332,5.193,17.0
43.118,3.874,3.525,26.0
43.002,3.863,3.263,13.0
51.952,4.666,3.643,16.0
59.512,5.344,3.83,34.0
51.551,4.642,4.745,14.0
43.505,3.916,3.752,12.0
43.117,3.879,3.469,20.0
51.93,4.671,3.873,14.0
60.304,5.422,4.15,10.0
59.691,5.366,3.763,34.0
43.522,3.922,3.948,3.0
43.399,3.909,3.685,18.0
43.018,3.873,3.404,22.0
51.941,4.675,3.805,18.0
60.359,5.431,4.073,34.0
59.873,5.386,3.695,26.0
43.557,3.927,3.893,10.0
43.144,3.888,3.606,21.0
42.924,3.866,3.339,29.0
51.932,4.676,3.734,19.0
59.542,5.359,3.938,33.0
60.004,5.398,3.623,29.0
43.529,3.924,3.831,9.0
43.131,3.886,3.546,27.0
42.956,3.868,3.283,16.0
51.965,4.677,3.666,18.0
59.278,5.333,3.84,33.0
59.735,5.372,3.526,34.0
43.503,3.92,3.769,11.0
43.141,3.885,3.487,22.0
51.915,4.672,3.896,12.0
51.952,4.673,3.594,7.0
59.62,5.36,3.781,33.0
59.378,5.336,3.423,33.0
43.431,3.91,3.702,18.0
43.026,3.87,3.419,17.0
51.915,4.667,3.824,19.0
60.467,5.432,4.099,34.0
59.891,5.377,3.714,33.0
59.252,5.317,3.334,27.0
43.183,3.881,3.621,21.0
42.904,3.853,3.349,26.0
51.916,4.659,3.752,20.0
59.882,5.371,3.976,34.0
60.021,5.38,3.64,29.0
59.796,5.356,3.281,9.0
43.112,3.867,3.554,27.0
42.966,3.851,3.294,17.0
51.929,4.651,3.681,22.0
59.977,5.368,3.899,34.0
60.006,5.367,3.555,33.0
60.06,5.368,3.213,9.0
43.043,3.852,3.488,15.0
51.893,4.64,3.905,12.0
51.932,4.639,3.608,18.0
60.073,5.362,3.82,29.0
59.854,5.339,3.461,26.0
0.0,0.0,0.0,0.0
42.946,3.832,3.419,24.0
51.895,4.626,3.831,20.0
51.947,4.626,3.534,16.0
60.04,5.343,3.732,22.0
60.3,5.361,3.401,34.0
61.906,5.499,3.136,17.0
42.921,3.816,3.355,12.0
51.871,4.607,3.755,23.0
51.944,4.609,3.46,19.0
60.128,5.33,3.652,22.0
60.925,5.397,3.35,33.0
52.152,4.616,2.567,9.0
51.858,4.592,3.979,15.0
51.877,4.589,3.681,25.0
51.956,4.592,3.386,24.0
52.059,4.596,3.087,15.0
52.119,4.597,2.79,14.0
52.115,4.593,2.491,18.0
51.852,4.572,3.904,16.0
51.895,4.57,3.607,25.0
51.959,4.571,3.312,41.0
52.063,4.575,3.013,24.0
52.102,4.574,2.715,23.0
52.095,4.569,2.415,40.0
51.868,4.551,3.83,32.0
51.886,4.547,3.532,24.0
51.974,4.549,3.238,46.0
52.029,4.549,2.936,40.0
52.074,4.548,2.638,38.0
52.073,4.543,2.339,45.0
51.868,4.525,3.755,35.0
51.893,4.522,3.456,25.0
51.986,4.524,3.162,39.0
52.023,4.522,2.859,42.0
52.062,4.52,2.562,42.0
52.074,4.516,2.263,57.0
51.865,4.498,3.678,43.0
51.926,4.497,3.382,44.0
51.983,4.496,3.086,38.0
52.013,4.493,2.783,48.0
52.052,4.491,2.486,54.0
52.083,4.488,2.188,62.0
51.861,4.468,3.603,36.0
51.936,4.468,3.308,58.0
51.985,4.466,3.011,45.0
52.026,4.464,2.708,57.0
52.067,4.461,2.411,53.0
52.106,4.459,2.114,51.0
51.866,4.436,3.527,34.0
51.941,4.436,3.232,61.0
51.982,4.433,2.935,49.0
52.038,4.432,2.633,58.0
52.088,4.43,2.336,48.0
52.128,4.428,2.039,36.0
51.902,4.405,3.454,40.0
51.96,4.403,3.158,50.0
52.011,4.401,2.861,46.0
52.05,4.397,2.558,47.0
52.126,4.398,2.262,31.0
52.175,4.396,1.964,21.0
51.933,4.371,3.379,45.0
51.984,4.368,3.082,26.0
52.044,4.366,2.786,47.0
52.105,4.365,2.483,25.0
52.186,4.365,2.188,18.0
52.243,4.363,1.89,10.0
51.994,4.338,3.307,21.0
52.027,4.333,3.009,19.0
52.088,4.33,2.712,22.0
62.463,5.185,2.887,13.0
62.93,5.215,2.548,15.0
62.67,5.185,2.177,17.0
52.045,4.301,3.235,12.0
52.064,4.295,2.936,14.0
62.145,5.117,3.147,19.0
81.66,6.713,3.658,9.0
81.072,6.654,3.166,14.0
62.776,5.143,2.091,1.0
60.003,4.909,3.643,14.0
62.109,5.072,3.413,23.0
81.493,6.642,4.009,9.0
81.392,6.623,3.528,6.0
81.047,6.583,3.047,23.0
47.687,3.866,1.519,5.0
61.943,5.013,3.671,11.0
62.167,5.022,3.327,23.0
81.504,6.571,3.892,26.0
81.384,6.549,3.41,20.0
80.881,6.496,2.925,5.0
47.563,3.813,1.447,6.0
62.382,4.991,3.606,6.0
62.133,4.961,3.234,19.0
81.595,6.502,3.778,20.0
81.155,6.455,3.283,21.0
47.834,3.797,1.661,18.0
47.53,3.765,1.378,8.0
62.3,4.924,3.512,17.0
81.474,6.427,4.124,18.0
81.929,6.449,3.676,26.0
48.913,3.842,1.909,17.0
47.74,3.742,1.589,20.0
47.479,3.715,1.308,13.0
62.332,4.865,3.425,17.0
81.685,6.361,4.018,18.0
81.757,6.352,3.552,20.0
48.796,3.783,1.835,7.0
47.556,3.679,1.515,7.0
47.426,3.661,1.239,16.0
81.35,6.263,4.353,26.0
81.46,6.257,3.891,27.0
81.42,6.24,3.422,17.0
47.846,3.658,1.732,2.0
47.381,3.615,1.444,9.0
47.386,3.608,1.172,14.0
81.322,6.173,4.238,17.0
81.664,6.184,3.787,20.0
48.888,3.693,1.986,2.0
47.596,3.587,1.656,6.0
47.346,3.56,1.376,15.0
47.402,3.556,1.107,0.0
81.139,6.068,4.115,28.0
81.301,6.065,3.656,17.0
0.0,0.0,0.0,0.0
47.445,3.521,1.586,7.0
47.325,3.504,1.31,18.0
47.365,3.499,1.04,1.0
80.922,5.957,3.992,18.0
49.108,3.606,2.141,1.0
48.306,3.538,1.83,0.0
47.33,3.457,1.517,12.0
47.292,3.446,1.245,17.0
47.305,3.438,0.975,3.0
80.945,5.863,3.884,16.0
0.0,0.0,0.0,0.0
47.851,3.446,1.747,2.0
47.262,3.395,1.45,20.0
47.26,3.385,1.18,28.0
47.432,3.389,0.913,1.0
80.816,5.752,3.768,4.0
0.0,0.0,0.0,0.0
47.556,3.365,1.672,5.0
47.245,3.334,1.386,26.0
47.278,3.326,1.117,151.0
0.0,0.0,0.0,0.0
0.0,0.0,0.0,0.0
0.0,0.0,0.0,0.0
47.396,3.293,1.604,11.0
47.264,3.274,1.325,156.0
47.341,3.27,1.056,1.0
50.969,3.511,0.846,2.0
0.0,0.0,0.0,0.0
48.23,3.297,1.845,0.0
47.29,3.223,1.539,13.0
47.247,3.21,1.262,166.0
47.304,3.204,0.994,4.0
0.0,0.0,0.0,0.0
0.0,0.0,0.0,0.0
47.766,3.2,1.765,3.0
47.213,3.153,1.475,17.0
47.24,3.145,1.201,160.0
47.315,3.14,0.933,2.0
0.0,0.0,0.0,0.0
0.0,0.0,0.0,0.0
47.549,3.12,1.696,5.0
47.202,3.087,1.415,37.0
47.239,3.078,1.141,153.0
51.115,3.32,0.943,1.0
47.46,3.073,0.606,0.0
0.0,0.0,0.0,0.0
47.39,3.041,1.631,8.0
47.231,3.021,1.356,150.0
47.319,3.016,1.084,2.0
52.246,3.318,0.899,1.0
36.738,2.325,0.423,1.0
48.165,3.032,1.873,0.0
47.285,2.966,1.569,14.0
47.212,2.95,1.297,168.0
47.253,2.942,1.025,5.0
0.0,0.0,0.0,0.0
47.236,2.92,0.487,1.0
47.817,2.939,1.801,2.0
47.217,2.891,1.509,21.0
47.211,2.879,1.24,150.0
47.274,2.872,0.968,3.0
47.62,2.882,0.704,0.0
33.676,2.03,0.307,0.0
47.568,2.851,1.735,4.0
47.185,2.817,1.453,74.0
47.226,2.808,1.185,4.0
47.357,2.805,0.914,0.0
0.0,0.0,0.0,0.0
32.581,1.914,0.258,0.0
47.45,2.771,1.676,7.0
47.204,2.744,1.398,38.0
47.282,2.737,1.131,1.0
52.934,3.051,0.961,1.0
38.806,2.228,0.483,0.0
31.063,1.776,0.21,0.0
47.325,2.688,1.617,6.0
47.231,2.671,1.345,30.0
47.27,2.661,1.077,4.0
48.506,2.719,0.825,4.0
0.0,0.0,0.0,0.0
30.399,1.689,0.172,1.0
47.325,2.611,1.564,9.0
47.277,2.597,1.294,38.0
47.245,2.583,1.024,4.0
48.817,2.657,0.776,1.0
0.0,0.0,0.0,0.0
29.537,1.592,0.134,0.0
47.305,2.532,1.511,9.0
47.285,2.519,1.242,32.0
47.267,2.506,0.973,2.0
42.873,2.261,0.635,0.0
32.941,1.729,0.301,0.0
28.742,1.501,0.1,0.0
47.348,2.455,1.461,13.0
47.33,2.441,1.192,22.0
47.37,2.431,0.925,0.0
38.866,1.984,0.535,0.0
32.376,1.645,0.262,1.0
28.154,1.423,0.068,0.0
47.404,2.377,1.414,10.0
47.342,2.362,1.143,19.0
50.138,2.487,0.927,2.0
37.556,1.853,0.478,0.0
31.696,1.555,0.224,1.0
27.515,1.342,0.038,0.0
47.467,2.297,1.367,0.0
47.393,2.281,1.096,9.0
47.776,2.286,0.835,2.0
36.346,1.729,0.425,0.0
30.693,1.452,0.185,0.0
26.715,1.256,0.01,0.0
91.249,-5.812,9.913,19.0
86.936,-5.513,8.951,19.0
91.122,-5.754,8.863,19.0
93.055,-5.85,8.514,11.0
88.473,-5.538,7.593,24.0
88.503,-5.517,7.096,17.0
93.799,-5.842,10.166,9.0
87.172,-5.406,8.95,14.0
89.102,-5.502,8.641,13.0
88.67,-5.452,8.087,16.0
89.177,-5.459,7.628,16.0
92.498,-5.638,7.389,12.0
86.978,-5.297,9.399,27.0
87.445,-5.301,8.951,28.0
89.039,-5.373,8.606,26.0
88.816,-5.335,8.07,16.0
93.091,-5.567,7.93,28.0
88.845,-5.289,7.065,10.0
91.51,-5.443,9.856,13.0
87.578,-5.185,8.932,15.0
87.753,-5.171,8.45,25.0
88.846,-5.213,8.04,32.0
92.854,-5.423,7.874,23.0
88.135,-5.125,6.975,14.0
