X,Y,Z,Reflectivity
82.46,-4.402,8.947,11.0
88.921,-4.732,9.163,12.0
83.511,-4.43,8.152,12.0
85.985,-4.572,10.832,30.0
86.627,-4.59,10.438,30.0
86.768,-4.582,9.979,30.0
85.532,-4.501,9.361,17.0
82.864,-4.345,8.617,14.0
88.175,-4.608,8.689,9.0
85.946,-4.503,10.908,22.0
86.716,-4.527,10.529,20.0
86.758,-4.513,10.058,19.0
81.823,-4.241,9.029,15.0
82.66,-4.269,8.67,33.0
82.237,-4.233,8.177,12.0
86.051,-4.439,10.999,14.0
86.681,-4.454,10.602,35.0
86.594,-4.432,10.116,14.0
81.958,-4.18,9.116,33.0
82.517,-4.194,8.726,33.0
82.292,-4.166,8.253,10.0
87.242,-4.426,11.227,6.0
86.164,-4.355,10.613,24.0
80.706,-4.063,9.496,25.0
81.949,-4.109,9.184,25.0
82.505,-4.122,8.793,24.0
0.0,0.0,0.0,0.0
85.708,-4.274,11.1,10.0
86.048,-4.274,10.668,30.0
80.603,-3.988,9.549,31.0
81.981,-4.039,9.252,26.0
81.657,-4.008,8.767,16.0
83.454,-4.081,8.502,14.0
85.745,-4.2,11.172,24.0
86.133,-4.202,10.745,30.0
80.776,-3.925,9.631,20.0
82.02,-3.969,9.318,20.0
81.677,-3.935,8.83,18.0
82.134,-3.942,8.429,20.0
85.851,-4.127,11.249,15.0
85.856,-4.109,10.774,25.0
85.556,-4.078,10.263,10.0
81.692,-3.877,9.34,20.0
81.859,-3.868,8.908,12.0
81.991,-3.858,8.472,18.0
85.887,-4.048,11.315,8.0
85.57,-4.016,10.797,20.0
85.464,-3.993,10.31,8.0
81.212,-3.778,9.339,19.0
85.498,-3.96,9.36,6.0
81.663,-3.766,8.491,26.0
85.473,-3.948,11.316,13.0
85.593,-3.935,10.855,26.0
81.514,-3.731,9.885,13.0
81.371,-3.707,9.409,19.0
80.681,-3.659,8.883,15.0
81.644,-3.687,8.538,24.0
85.403,-3.861,11.359,12.0
80.605,-3.628,10.272,12.0
81.337,-3.643,9.913,34.0
81.435,-3.63,9.465,26.0
80.817,-3.586,8.945,22.0
81.526,-3.601,8.573,24.0
88.498,-3.913,11.822,7.0
80.638,-3.548,10.322,22.0
81.313,-3.56,9.955,32.0
81.527,-3.552,9.52,23.0
64.864,-2.812,7.214,8.0
81.552,-3.52,8.619,11.0
88.542,-3.824,11.876,22.0
80.157,-3.445,10.302,24.0
81.386,-3.48,10.006,31.0
81.62,-3.473,9.572,18.0
64.989,-2.751,7.261,17.0
81.545,-3.434,8.659,10.0
85.987,-3.625,11.575,9.0
79.882,-3.35,10.306,30.0
80.061,-3.34,9.881,23.0
81.561,-3.386,9.603,25.0
64.991,-2.684,7.29,17.0
0.0,0.0,0.0,0.0
80.86,-3.323,10.921,9.0
79.894,-3.266,10.342,32.0
80.081,-3.256,9.918,27.0
81.627,-3.302,9.645,32.0
65.023,-2.616,7.321,26.0
80.18,-3.209,8.581,22.0
80.995,-3.241,10.972,10.0
80.041,-3.186,10.393,28.0
80.164,-3.174,9.959,26.0
81.606,-3.213,9.673,28.0
65.044,-2.547,7.347,15.0
79.628,-3.102,8.551,9.0
79.744,-3.106,10.831,27.0
80.218,-3.105,10.444,19.0
80.238,-3.088,9.996,22.0
81.794,-3.131,9.723,34.0
65.11,-2.479,7.376,25.0
64.273,-2.433,6.922,24.0
79.778,-3.019,10.86,22.0
80.267,-3.019,10.475,24.0
80.276,-3.002,10.024,32.0
81.856,-3.042,9.754,26.0
64.445,-2.382,7.318,13.0
64.227,-2.361,6.934,29.0
79.927,-2.935,10.902,23.0
79.748,-2.91,10.428,20.0
80.327,-2.914,10.051,30.0
77.264,-2.786,9.225,27.0
78.902,-2.828,8.978,10.0
64.333,-2.293,6.96,31.0
79.795,-2.841,10.902,34.0
79.112,-2.798,10.361,24.0
79.97,-2.812,10.022,17.0
77.299,-2.701,9.244,30.0
65.12,-2.261,7.422,12.0
64.37,-2.221,6.976,25.0
79.813,-2.751,10.918,19.0
79.227,-2.713,10.389,27.0
79.475,-2.704,9.973,17.0
77.4,-2.617,9.268,16.0
78.993,-2.653,9.015,22.0
64.548,-2.155,7.004,30.0
75.765,-2.525,10.374,10.0
79.215,-2.622,10.397,25.0
77.655,-2.553,9.753,11.0
77.435,-2.529,9.28,23.0
78.898,-2.561,9.011,15.0
64.579,-2.082,7.013,27.0
79.879,-2.571,10.944,12.0
79.395,-2.538,10.427,23.0
77.353,-2.454,9.721,11.0
76.825,-2.422,9.212,28.0
65.139,-2.039,7.443,14.0
64.572,-2.008,7.015,27.0
79.624,-2.469,10.912,7.0
79.358,-2.443,10.424,27.0
76.982,-2.354,9.675,20.0
76.905,-2.335,9.222,24.0
77.498,-2.337,8.856,23.0
64.696,-1.937,7.028,26.0
75.562,-2.255,10.355,18.0
79.428,-2.353,10.432,24.0
76.834,-2.259,9.655,31.0
77.304,-2.256,9.268,19.0
65.199,-1.889,7.447,14.0
64.695,-1.861,7.025,35.0
75.541,-2.166,10.348,32.0
76.998,-2.191,10.108,11.0
77.399,-2.185,9.72,31.0
0.0,0.0,0.0,0.0
65.294,-1.816,7.453,21.0
64.743,-1.787,7.024,32.0
75.619,-2.078,10.35,30.0
76.876,-2.096,10.083,10.0
79.09,-2.139,9.923,13.0
75.902,-2.037,9.084,24.0
65.263,-1.738,7.44,12.0
64.632,-1.708,7.003,31.0
75.71,-1.99,10.351,17.0
76.764,-2.003,10.057,25.0
77.067,-1.994,9.657,11.0
76.777,-1.971,9.175,20.0
75.885,-1.931,8.638,10.0
64.623,-1.631,6.99,30.0
79.133,-1.987,10.804,11.0
75.946,-1.891,9.934,14.0
77.059,-1.903,9.639,24.0
75.923,-1.858,9.057,14.0
75.964,-1.843,8.63,10.0
64.438,-1.551,6.954,30.0
76.069,-1.82,10.367,31.0
76.004,-1.802,9.922,14.0
77.002,-1.81,9.612,14.0
76.059,-1.773,9.052,23.0
65.194,-1.505,7.388,17.0
64.292,-1.471,6.921,21.0
64.891,-1.475,8.825,11.0
63.94,-1.441,8.328,18.0
73.534,-1.641,9.157,7.0
75.901,-1.68,9.01,25.0
65.171,-1.429,7.365,29.0
64.348,-1.398,6.906,25.0
64.76,-1.397,8.785,32.0
64.018,-1.367,8.317,22.0
76.136,-1.611,9.454,7.0
64.991,-1.362,7.692,24.0
65.175,-1.352,7.341,21.0
64.594,-1.327,6.908,33.0
64.004,-1.304,8.658,26.0
64.12,-1.293,8.304,32.0
73.915,-1.475,9.149,11.0
74.057,-1.464,8.735,22.0
65.008,-1.272,7.296,34.0
64.508,-1.25,6.872,16.0
63.925,-1.226,8.62,30.0
64.15,-1.219,8.28,25.0
73.708,-1.385,9.09,30.0
73.914,-1.374,8.685,18.0
64.985,-1.196,7.264,34.0
64.552,-1.175,6.847,8.0
64.179,-1.156,8.623,30.0
63.978,-1.14,8.227,14.0
63.745,-1.123,7.831,17.0
73.749,-1.286,8.629,13.0
64.899,-1.118,7.221,29.0
58.775,-1.001,6.204,25.0
64.233,-1.082,8.597,26.0
58.487,-0.974,7.49,21.0
63.733,-1.048,7.795,13.0
73.659,-1.198,8.578,28.0
65.128,-1.047,7.211,20.0
58.822,-0.934,6.177,26.0
64.093,-1.005,8.542,30.0
58.536,-0.907,7.463,25.0
63.819,-0.976,7.768,9.0
68.113,-1.029,7.892,11.0
57.139,-0.853,6.293,23.0
58.883,-0.868,6.148,26.0
64.067,-0.93,8.499,27.0
58.217,-0.835,7.386,32.0
59.49,-0.842,7.204,14.0
64.278,-0.898,7.408,26.0
57.264,-0.789,6.27,29.0
58.959,-0.802,6.118,29.0
64.099,-0.857,8.461,21.0
58.105,-0.767,7.333,32.0
59.521,-0.775,7.168,14.0
64.291,-0.826,7.365,28.0
57.253,-0.725,6.23,23.0
58.952,-0.736,6.077,26.0
62.243,-0.762,8.172,11.0
57.914,-0.699,7.268,32.0
64.24,-0.764,7.691,20.0
59.481,-0.697,6.772,23.0
57.234,-0.66,6.187,30.0
58.992,-0.67,6.038,25.0
62.286,-0.693,8.131,13.0
57.958,-0.634,7.23,28.0
64.193,-0.691,7.636,23.0
63.752,-0.676,7.209,11.0
57.339,-0.598,6.154,30.0
59.026,-0.605,5.996,25.0
58.119,-0.581,7.541,33.0
58.017,-0.57,7.191,31.0
63.234,-0.611,7.472,11.0
63.723,-0.605,7.155,30.0
57.287,-0.534,6.102,30.0
59.025,-0.541,5.948,22.0
57.135,-0.509,7.366,32.0
0.0,0.0,0.0,0.0
59.633,-0.512,6.996,28.0
63.834,-0.537,7.113,11.0
57.317,-0.473,6.056,30.0
59.073,-0.477,5.902,24.0
56.821,-0.445,7.276,26.0
59.119,-0.454,7.226,33.0
59.618,-0.448,6.942,33.0
65.079,-0.478,7.194,28.0
57.303,-0.412,6.004,26.0
58.99,-0.415,5.841,10.0
56.831,-0.384,7.225,25.0
59.632,-0.394,7.234,11.0
59.487,-0.383,6.871,30.0
57.158,-0.36,6.265,26.0
57.407,-0.352,5.961,25.0
58.981,-0.353,5.785,12.0
57.155,-0.326,7.212,32.0
58.933,-0.328,7.093,34.0
63.453,-0.343,7.268,23.0
57.178,-0.3,6.212,29.0
57.331,-0.292,5.897,30.0
58.979,-0.291,5.726,5.0
56.873,-0.265,7.118,26.0
59.316,-0.268,7.078,34.0
63.259,-0.277,7.181,23.0
57.2,-0.241,6.156,28.0
56.997,-0.232,5.804,31.0
64.825,-0.254,6.227,10.0
56.873,-0.207,7.058,26.0
59.363,-0.207,7.021,26.0
57.258,-0.191,6.439,21.0
57.428,-0.183,6.119,12.0
56.966,-0.174,5.74,30.0
0.0,0.0,0.0,0.0
57.079,-0.15,7.021,21.0
63.396,-0.158,7.429,28.0
57.17,-0.133,6.366,22.0
57.489,-0.127,6.062,27.0
56.657,-0.117,5.646,24.0
57.304,-0.11,5.379,30.0
57.026,-0.094,6.951,26.0
63.425,-0.096,7.361,22.0
57.376,-0.079,6.325,31.0
57.075,-0.071,5.954,31.0
56.724,-0.063,5.588,30.0
57.363,-0.056,5.32,29.0
57.119,-0.039,6.895,27.0
59.685,-0.033,6.856,24.0
57.391,-0.024,6.258,29.0
56.753,-0.016,5.853,27.0
56.861,-0.009,5.535,29.0
57.501,-0.001,5.263,31.0
57.209,0.014,6.837,22.0
59.695,0.023,6.785,9.0
57.375,0.03,6.187,31.0
56.778,0.036,5.786,30.0
56.991,0.043,5.477,30.0
58.095,0.051,5.247,32.0
59.711,0.07,7.061,8.0
56.258,0.073,6.325,22.0
57.292,0.081,6.106,31.0
56.842,0.087,5.722,27.0
57.36,0.095,5.441,30.0
58.771,0.105,5.234,34.0
57.13,0.119,6.683,16.0
56.363,0.123,6.263,26.0
57.023,0.131,6.004,30.0
57.052,0.139,5.669,31.0
56.791,0.145,5.313,30.0
59.243,0.157,5.198,26.0
59.814,0.177,6.917,14.0
56.399,0.173,6.192,25.0
56.976,0.181,5.923,27.0
56.945,0.187,5.583,31.0
56.595,0.192,5.219,29.0
62.966,0.221,5.441,7.0
57.042,0.217,6.519,27.0
56.559,0.221,6.133,30.0
56.995,0.229,5.847,29.0
57.212,0.236,5.53,31.0
59.079,0.25,5.367,16.0
63.164,0.274,5.372,32.0
56.555,0.262,6.384,31.0
56.637,0.268,6.062,23.0
57.046,0.276,5.773,26.0
57.115,0.282,5.441,32.0
58.844,0.296,5.263,26.0
63.205,0.324,5.286,10.0
56.434,0.306,6.291,19.0
57.004,0.314,6.02,31.0
57.69,0.324,5.756,31.0
56.601,0.324,5.311,26.0
58.707,0.341,5.167,28.0
57.209,0.338,4.703,21.0
56.415,0.349,6.207,21.0
57.158,0.359,5.954,18.0
57.428,0.366,5.646,31.0
56.686,0.366,5.237,30.0
58.522,0.383,5.065,22.0
63.267,0.421,5.108,9.0
56.524,0.392,6.134,31.0
57.142,0.401,5.866,23.0
57.313,0.407,5.548,31.0
56.668,0.408,5.149,25.0
58.043,0.423,4.936,32.0
63.284,0.466,5.014,28.0
57.228,0.438,6.122,29.0
57.878,0.448,5.853,32.0
56.947,0.445,5.426,30.0
0.0,0.0,0.0,0.0
57.329,0.458,4.788,28.0
63.493,0.511,4.934,14.0
57.251,0.477,6.036,21.0
58.147,0.49,5.79,32.0
56.664,0.481,5.311,30.0
57.495,0.493,5.046,28.0
57.323,0.495,4.697,20.0
63.558,0.554,4.839,18.0
57.264,0.515,5.947,23.0
57.705,0.523,5.654,32.0
56.823,0.52,5.235,30.0
57.4,0.529,4.947,28.0
62.923,0.583,5.056,24.0
63.442,0.593,4.729,23.0
57.593,0.554,5.887,33.0
57.3,0.555,5.522,28.0
56.596,0.552,5.123,30.0
57.361,0.563,4.851,25.0
63.062,0.623,4.965,22.0
63.434,0.631,4.625,29.0
57.867,0.592,5.82,23.0
57.022,0.586,5.401,31.0
57.378,0.593,5.098,31.0
57.34,0.596,4.754,22.0
63.486,0.664,4.893,6.0
76.091,0.801,5.421,10.0
57.777,0.623,5.714,25.0
56.572,0.613,5.263,28.0
57.373,0.625,5.002,16.0
62.542,0.685,5.08,34.0
88.53,0.974,6.674,8.0
76.137,0.842,5.297,15.0
57.856,0.655,5.623,32.0
56.819,0.646,5.189,30.0
62.785,0.717,5.366,23.0
62.749,0.72,4.989,36.0
63.391,0.73,4.671,14.0
76.195,0.881,5.17,21.0
57.268,0.677,5.467,32.0
57.146,0.678,5.12,19.0
62.607,0.745,5.242,29.0
88.17,1.054,6.859,14.0
63.331,0.76,4.557,29.0
76.274,0.918,5.043,31.0
56.838,0.698,5.326,31.0
62.857,0.775,5.521,17.0
62.655,0.774,5.137,27.0
82.652,1.024,6.285,25.0
63.326,0.788,4.445,29.0
76.402,0.953,4.918,34.0
56.711,0.721,5.214,26.0
62.731,0.799,5.4,9.0
63.113,0.806,5.063,30.0
82.662,1.059,6.139,11.0
76.217,0.979,5.216,26.0
76.487,0.985,4.788,26.0
56.753,0.744,5.115,21.0
59.099,0.776,4.98,21.0
58.983,0.777,4.625,13.0
63.311,0.835,4.587,18.0
76.301,1.009,5.083,26.0
76.504,1.014,4.651,19.0
59.041,0.795,5.214,21.0
59.076,0.797,4.871,24.0
59.02,0.798,4.521,23.0
63.262,0.856,4.469,23.0
76.55,1.038,4.96,14.0
76.501,1.039,4.512,23.0
58.998,0.814,5.101,27.0
59.057,0.816,4.76,16.0
76.271,1.055,5.7,30.0
76.345,1.058,5.252,19.0
76.549,1.061,4.819,16.0
76.548,1.063,4.373,27.0
59.063,0.832,4.998,31.0
59.004,0.832,4.646,18.0
76.309,1.077,5.563,33.0
76.468,1.08,5.12,19.0
76.518,1.081,4.676,16.0
76.549,1.083,4.232,31.0
59.031,0.846,4.885,23.0
76.234,1.094,5.862,35.0
76.563,1.099,5.439,11.0
76.604,1.1,4.986,13.0
76.5,1.099,4.532,21.0
76.548,1.101,4.088,24.0
59.039,0.86,4.773,26.0
76.289,1.111,5.72,35.0
76.704,1.117,5.303,21.0
76.595,1.116,4.839,24.0
76.51,1.115,4.386,24.0
76.546,1.115,3.942,22.0
59.058,0.871,4.661,19.0
77.146,1.137,5.636,27.0
76.661,1.13,5.152,20.0
76.566,1.128,4.689,18.0
76.521,1.127,4.24,29.0
76.551,1.127,3.795,30.0
76.234,1.135,5.869,31.0
77.073,1.147,5.482,15.0
76.656,1.14,5.003,16.0
76.51,1.137,4.538,23.0
76.545,1.137,4.093,24.0
76.559,1.136,3.648,33.0
77.062,1.156,5.783,27.0
76.684,1.149,5.305,22.0
76.627,1.147,4.852,24.0
76.516,1.144,4.39,24.0
76.563,1.144,3.946,28.0
76.567,1.143,3.499,41.0
77.267,1.164,5.647,21.0
76.686,1.154,5.155,21.0
76.574,1.151,4.699,20.0
76.533,1.149,4.241,32.0
76.537,1.147,3.794,36.0
76.555,1.146,3.348,16.0
77.068,1.164,5.48,12.0
76.664,1.156,5.002,15.0
76.522,1.152,4.545,24.0
76.538,1.15,4.091,25.0
76.554,1.148,3.644,36.0
0.0,0.0,0.0,0.0
76.685,1.158,5.301,24.0
76.615,1.154,4.848,24.0
76.513,1.151,4.393,23.0
76.531,1.149,3.939,29.0
76.551,1.146,3.493,38.0
55.742,0.833,2.217,0.0
76.697,1.155,5.148,19.0
76.556,1.15,4.69,21.0
76.56,1.147,4.241,29.0
76.543,1.144,3.785,38.0
76.568,1.142,3.34,13.0
0.0,0.0,0.0,0.0
76.636,1.148,4.989,17.0
76.518,1.143,4.533,23.0
76.525,1.139,4.085,24.0
76.555,1.137,3.631,41.0
0.0,0.0,0.0,0.0
55.695,0.822,1.992,0.0
76.594,1.138,4.832,24.0
76.528,1.133,4.379,26.0
76.539,1.13,3.932,26.0
76.564,1.127,3.479,45.0
0.0,0.0,0.0,0.0
0.0,0.0,0.0,0.0
76.545,1.125,4.675,20.0
76.537,1.121,4.225,27.0
76.556,1.117,3.778,31.0
76.541,1.113,3.322,15.0
0.0,0.0,0.0,0.0
55.69,0.804,1.767,0.0
76.495,1.109,4.515,22.0
76.548,1.105,4.069,22.0
76.59,1.102,3.625,36.0
0.0,0.0,0.0,0.0
0.0,0.0,0.0,0.0
55.833,0.794,1.658,0.0
76.533,1.092,4.362,29.0
76.551,1.087,3.915,26.0
76.593,1.083,3.469,30.0
0.0,0.0,0.0,0.0
55.805,0.782,1.87,0.0
55.958,0.78,1.548,0.0
76.555,1.071,4.206,28.0
76.584,1.066,3.758,25.0
76.629,1.062,3.313,9.0
0.0,0.0,0.0,0.0
56.107,0.77,1.765,0.0
56.102,0.766,1.438,1.0
76.577,1.047,4.051,21.0
76.617,1.043,3.605,17.0
57.559,0.779,2.372,0.0
0.0,0.0,0.0,0.0
56.146,0.752,1.652,0.0
57.484,0.765,1.356,1.0
76.611,1.021,3.897,18.0
109.08,1.446,4.911,6.0
0.0,0.0,0.0,0.0
56.183,0.736,1.868,0.0
56.293,0.733,1.543,1.0
57.694,0.746,1.244,0.0
91.754,1.188,4.481,5.0
108.98,1.402,4.686,17.0
56.507,0.722,2.099,0.0
56.345,0.715,1.758,1.0
57.208,0.721,1.451,1.0
0.0,0.0,0.0,0.0
92.003,1.152,4.305,11.0
108.541,1.35,4.445,5.0
56.715,0.7,1.991,0.0
56.444,0.691,1.646,0.0
57.573,0.7,1.344,1.0
0.0,0.0,0.0,0.0
109.06,1.315,4.881,17.0
0.0,0.0,0.0,0.0
56.787,0.674,1.877,0.0
0.0,0.0,0.0,0.0
57.661,0.673,1.228,0.0
40.399,0.468,0.625,0.0
108.944,1.259,4.655,8.0
0.0,0.0,0.0,0.0
57.071,0.648,1.771,0.0
57.398,0.646,1.441,1.0
0.0,0.0,0.0,0.0
0.0,0.0,0.0,0.0
108.132,1.191,4.401,15.0
57.305,0.625,1.998,0.0
57.228,0.618,1.661,1.0
0.0,0.0,0.0,0.0
0.0,0.0,0.0,0.0
34.57,0.362,0.395,0.0
108.035,1.128,4.177,7.0
0.0,0.0,0.0,0.0
57.588,0.588,1.554,0.0
0.0,0.0,0.0,0.0
0.0,0.0,0.0,0.0
0.0,0.0,0.0,0.0
0.0,0.0,0.0,0.0
57.722,0.56,1.777,3.0
57.697,0.553,1.44,0.0
0.0,0.0,0.0,0.0
37.106,0.347,0.489,0.0
31.198,0.288,0.229,0.0
57.953,0.531,2.005,2.0
57.908,0.524,1.666,2.0
0.0,0.0,0.0,0.0
0.0,0.0,0.0,0.0
0.0,0.0,0.0,0.0
28.915,0.247,0.155,2.0
78.146,0.662,2.547,10.0
74.737,0.623,1.999,1.0
0.0,0.0,0.0,0.0
38.63,0.312,0.579,0.0
32.931,0.262,0.302,0.0
28.782,0.225,0.096,5.0
79.234,0.614,2.424,2.0
0.0,0.0,0.0,0.0
0.0,0.0,0.0,0.0
36.709,0.27,0.477,0.0
31.356,0.226,0.225,0.0
27.473,0.195,0.037,0.0
75.685,0.529,2.165,4.0
0.0,0.0,0.0,0.0
43.528,0.292,0.738,1.0
34.962,0.23,0.385,0.0
28.92,0.186,0.15,0.0
26.388,0.166,-0.016,0.0
74.934,0.463,1.995,1.0
0.0,0.0,0.0,0.0
0.0,0.0,0.0,0.0
32.551,0.187,0.294,0.0
28.649,0.161,0.092,1.0
25.361,0.138,-0.065,0.0
0.0,0.0,0.0,0.0
0.0,0.0,0.0,0.0
36.937,0.186,0.48,0.0
31.208,0.153,0.22,0.0
27.514,0.131,0.034,0.0
24.312,0.112,-0.11,0.0
0.0,0.0,0.0,0.0
41.713,0.18,0.703,0.0
34.476,0.144,0.38,0.0
28.844,0.116,0.147,0.0
26.405,0.102,-0.018,0.0
23.155,0.086,-0.15,1.0
0.0,0.0,0.0,0.0
38.761,0.132,0.578,0.0
32.438,0.105,0.294,0.0
28.655,0.088,0.09,2.0
25.24,0.074,-0.066,0.0
21.935,0.06,-0.185,1.0
0.0,0.0,0.0,0.0
0.0,0.0,0.0,0.0
31.427,0.072,0.225,0.0
27.335,0.058,0.034,0.0
24.142,0.047,-0.11,0.0
21.098,0.038,-0.219,3.0
41.515,0.068,0.701,0.0
34.182,0.051,0.379,0.0
28.834,0.038,0.151,0.0
26.301,0.03,-0.017,0.0
23.344,0.023,-0.15,1.0
20.047,0.016,-0.246,0.0
38.407,0.025,0.576,0.0
33.103,0.016,0.304,0.0
28.649,0.008,0.096,1.0
25.424,0.003,-0.064,0.0
21.913,0.0,-0.182,0.0
18.981,-0.003,-0.268,0.0
36.463,-0.013,0.478,0.0
30.925,-0.017,0.226,0.0
27.613,-0.02,0.041,0.0
24.077,-0.021,-0.105,0.0
21.101,-0.022,-0.215,2.0
18.271,-0.023,-0.292,0.0
34.803,-0.05,0.392,0.0
28.878,-0.047,0.157,2.0
26.469,-0.047,-0.008,0.0
23.301,-0.046,-0.145,0.0
20.093,-0.043,-0.242,0.0
17.559,-0.041,-0.313,0.0
33.203,-0.084,0.313,1.0
28.743,-0.078,0.104,7.0
25.448,-0.074,-0.055,0.0
22.121,-0.068,-0.178,0.0
19.041,-0.063,-0.264,0.0
17.009,-0.059,-0.335,0.0
31.43,-0.116,0.238,1.0
27.651,-0.107,0.049,0.0
24.483,-0.1,-0.098,0.0
21.5,-0.091,-0.212,0.0
18.331,-0.081,-0.287,0.0
16.561,-0.077,-0.356,0.0
28.858,-0.14,0.167,2.0
26.511,-0.134,0.0,0.0
23.312,-0.122,-0.135,0.0
20.063,-0.109,-0.234,0.0
17.694,-0.1,-0.309,0.0
16.101,-0.094,-0.375,0.0
28.774,-0.174,0.116,8.0
25.589,-0.16,-0.045,0.0
22.363,-0.144,-0.168,0.0
19.246,-0.128,-0.258,0.0
17.13,-0.117,-0.329,0.0
15.701,-0.11,-0.393,0.0
28.313,-0.206,0.065,1.0
24.608,-0.184,-0.086,0.0
21.603,-0.166,-0.2,0.0
18.437,-0.145,-0.28,0.0
16.655,-0.135,-0.349,0.0
15.26,-0.126,-0.408,0.0
26.968,-0.23,0.015,0.0
23.844,-0.208,-0.124,0.0
20.465,-0.183,-0.225,0.0
17.832,-0.163,-0.301,0.0
16.273,-0.152,-0.369,0.0
14.697,-0.14,-0.418,0.0
0.0,0.0,0.0,0.0
22.768,-0.228,-0.157,0.0
19.5,-0.199,-0.247,0.0
17.246,-0.18,-0.32,0.0
15.895,-0.169,-0.387,0.0
14.422,-0.157,-0.435,0.0
24.999,-0.277,-0.069,0.0
22.033,-0.249,-0.189,0.0
18.92,-0.218,-0.272,0.0
16.825,-0.198,-0.341,0.0
15.475,-0.185,-0.403,0.0
14.141,-0.173,-0.45,0.0
24.058,-0.299,-0.107,0.0
20.977,-0.266,-0.215,0.0
18.026,-0.232,-0.288,0.0
16.4,-0.215,-0.359,0.0
14.97,-0.2,-0.414,0.0
13.848,-0.188,-0.463,0.0
23.244,-0.321,-0.141,1.0
20.027,-0.281,-0.237,0.0
17.558,-0.251,-0.31,0.0
16.014,-0.232,-0.377,0.0
14.625,-0.215,-0.428,0.0
13.527,-0.202,-0.475,0.0
22.326,-0.339,-0.171,0.0
19.274,-0.297,-0.259,0.0
17.021,-0.267,-0.327,0.0
15.667,-0.249,-0.393,0.0
14.358,-0.231,-0.443,0.0
13.25,-0.217,-0.486,0.0
21.638,-0.359,-0.199,0.0
18.404,-0.31,-0.276,0.0
16.651,-0.284,-0.345,0.0
15.055,-0.26,-0.401,0.0
13.929,-0.244,-0.451,0.0
13.019,-0.231,-0.497,0.0
20.562,-0.37,-0.221,0.0
18.027,-0.329,-0.297,0.0
16.33,-0.302,-0.364,0.0
14.807,-0.277,-0.417,0.0
13.75,-0.261,-0.467,0.0
12.845,-0.247,-0.51,0.0
19.635,-0.382,-0.24,0.0
17.399,-0.343,-0.313,0.0
15.928,-0.318,-0.379,0.0
14.504,-0.293,-0.43,0.0
13.421,-0.275,-0.475,0.0
12.546,-0.26,-0.517,0.0
19.171,-0.402,-0.263,0.0
16.993,-0.361,-0.331,0.0
15.572,-0.334,-0.393,0.0
14.195,-0.308,-0.442,0.0
13.204,-0.29,-0.487,0.0
12.332,-0.274,-0.526,0.0
18.341,-0.412,-0.278,0.0
16.575,-0.377,-0.347,0.0
14.977,-0.344,-0.4,0.0
13.924,-0.324,-0.453,0.0
12.987,-0.305,-0.498,0.0
12.057,-0.286,-0.532,0.0
17.958,-0.431,-0.298,0.0
16.339,-0.396,-0.365,0.0
14.682,-0.36,-0.413,0.0
13.667,-0.339,-0.464,0.0
12.767,-0.32,-0.507,0.0
11.926,-0.302,-0.542,0.0
17.415,-0.445,-0.313,0.0
15.927,-0.411,-0.378,0.0
14.528,-0.379,-0.428,0.0
13.446,-0.354,-0.475,0.0
12.579,-0.335,-0.517,0.0
11.718,-0.315,-0.549,0.0
17.01,-0.461,-0.328,0.0
15.638,-0.428,-0.392,0.0
14.292,-0.395,-0.44,0.0
13.271,-0.37,-0.486,0.0
12.342,-0.348,-0.524,0.0
11.603,-0.33,-0.559,0.0
16.698,-0.479,-0.344,0.0
15.205,-0.44,-0.401,0.0
13.973,-0.408,-0.448,0.0
12.953,-0.382,-0.492,0.0
12.234,-0.364,-0.535,0.0
11.435,-0.344,-0.566,0.0
16.426,-0.497,-0.359,0.0
14.822,-0.453,-0.409,0.0
13.829,-0.426,-0.461,0.0
12.785,-0.397,-0.501,0.0
11.977,-0.376,-0.539,0.0
11.279,-0.357,-0.572,0.0
15.982,-0.509,-0.369,0.0
14.679,-0.472,-0.423,0.0
13.579,-0.44,-0.47,0.0
12.623,-0.413,-0.511,0.0
11.841,-0.391,-0.547,0.0
11.136,-0.371,-0.578,0.0
15.752,-0.528,-0.383,0.0
14.389,-0.486,-0.433,0.0
13.401,-0.457,-0.48,0.0
12.424,-0.427,-0.517,0.0
11.689,-0.405,-0.554,0.0
10.96,-0.383,-0.582,0.0
15.49,-0.545,-0.395,0.0
14.178,-0.503,-0.443,0.0
13.131,-0.469,-0.485,0.0
12.311,-0.443,-0.527,0.0
11.557,-0.42,-0.561,0.0
10.861,-0.398,-0.59,0.0
15.115,-0.557,-0.403,0.0
13.957,-0.518,-0.451,0.0
12.943,-0.484,-0.493,0.0
12.111,-0.456,-0.532,0.0
11.436,-0.434,-0.568,0.0
10.757,-0.412,-0.596,0.0
14.834,-0.571,-0.411,0.0
13.748,-0.533,-0.46,0.0
12.812,-0.5,-0.502,0.0
11.95,-0.47,-0.538,0.0
11.286,-0.448,-0.572,0.0
10.578,-0.423,-0.597,0.0
14.668,-0.589,-0.422,0.0
13.584,-0.55,-0.468,0.0
12.56,-0.512,-0.505,0.0
11.799,-0.484,-0.543,0.0
11.099,-0.459,-0.574,0.0
10.505,-0.438,-0.604,0.0
14.463,-0.605,-0.431,0.0
13.43,-0.566,-0.477,0.0
12.557,-0.533,-0.517,0.0
11.736,-0.501,-0.552,0.0
11.052,-0.475,-0.583,0.0
10.423,-0.452,-0.609,0.0
14.234,-0.62,-0.438,0.0
13.164,-0.577,-0.48,0.0
12.331,-0.544,-0.52,0.0
11.548,-0.513,-0.554,0.0
10.93,-0.489,-0.587,0.0
10.284,-0.463,-0.611,0.0
14.059,-0.636,-0.446,0.0
13.03,-0.593,-0.487,0.0
12.217,-0.56,-0.527,0.0
11.446,-0.528,-0.56,0.0
10.751,-0.499,-0.587,0.0
10.176,-0.476,-0.614,0.0
13.911,-0.653,-0.453,0.0
12.923,-0.611,-0.495,0.0
12.143,-0.577,-0.534,0.0
11.39,-0.545,-0.567,0.0
10.737,-0.517,-0.596,0.0
10.116,-0.49,-0.619,0.0
13.702,-0.667,-0.458,0.0
12.797,-0.627,-0.501,0.0
11.917,-0.587,-0.534,0.0
11.244,-0.558,-0.569,0.0
10.58,-0.528,-0.596,0.0
10.0,-0.502,-0.62,0.0
13.622,-0.686,-0.467,0.0
12.683,-0.643,-0.507,0.0
11.876,-0.606,-0.542,0.0
11.16,-0.573,-0.574,0.0
10.512,-0.543,-0.601,0.0
9.949,-0.517,-0.625,0.0
13.444,-0.7,-0.471,0.0
12.636,-0.662,-0.515,0.0
11.763,-0.62,-0.546,0.0
11.048,-0.586,-0.577,0.0
10.422,-0.556,-0.603,0.0
9.931,-0.533,-0.631,0.0
13.329,-0.717,-0.477,0.0
12.397,-0.671,-0.514,0.0
11.699,-0.637,-0.551,0.0
10.977,-0.601,-0.581,0.0
10.34,-0.57,-0.606,0.0
9.815,-0.544,-0.631,0.0
13.173,-0.732,-0.481,0.0
12.333,-0.689,-0.52,0.0
11.55,-0.649,-0.552,0.0
10.894,-0.616,-0.584,0.0
10.255,-0.583,-0.608,0.0
9.79,-0.56,-0.636,0.0
13.081,-0.749,-0.486,0.0
12.247,-0.706,-0.524,0.0
11.508,-0.667,-0.558,0.0
10.873,-0.633,-0.59,0.0
10.249,-0.6,-0.614,0.0
9.641,-0.568,-0.632,0.0
12.955,-0.765,-0.489,0.0
12.186,-0.723,-0.529,0.0
11.426,-0.682,-0.561,0.0
10.719,-0.643,-0.588,0.0
10.16,-0.613,-0.615,0.0
9.654,-0.586,-0.639,0.0
12.859,-0.781,-0.493,0.0
12.062,-0.737,-0.53,0.0
11.314,-0.695,-0.562,0.0
10.692,-0.66,-0.592,0.0
10.128,-0.628,-0.619,0.0
9.602,-0.599,-0.641,0.0
12.864,-0.804,-0.5,0.0
11.932,-0.749,-0.531,0.0
11.306,-0.714,-0.567,0.0
10.59,-0.672,-0.592,0.0
10.041,-0.64,-0.618,0.0
9.525,-0.611,-0.64,0.0
12.768,-0.82,-0.502,0.0
11.859,-0.765,-0.534,0.0
11.214,-0.727,-0.568,0.0
10.594,-0.69,-0.597,0.0
10.012,-0.656,-0.621,0.0
9.424,-0.62,-0.638,0.0
12.669,-0.835,-0.504,0.0
11.859,-0.786,-0.539,0.0
11.167,-0.743,-0.57,0.0
10.474,-0.701,-0.595,0.0
9.974,-0.67,-0.623,0.0
9.413,-0.636,-0.641,0.0
12.524,-0.847,-0.504,0.0
11.811,-0.803,-0.541,0.0
11.131,-0.76,-0.573,0.0
10.478,-0.719,-0.599,0.0
0.0,0.0,0.0,0.0
9.385,-0.65,-0.643,0.0
12.48,-0.865,-0.506,0.0
11.771,-0.82,-0.544,0.0
11.059,-0.774,-0.573,0.0
10.441,-0.734,-0.601,0.0
9.903,-0.699,-0.626,0.0
9.385,-0.666,-0.646,0.0
12.483,-0.887,-0.511,0.0
11.751,-0.838,-0.547,0.0
11.02,-0.79,-0.575,0.0
10.329,-0.744,-0.598,0.0
0.0,0.0,0.0,0.0
0.0,0.0,0.0,0.0
12.417,-0.903,-0.511,0.0
11.746,-0.858,-0.55,0.0
11.037,-0.81,-0.578,0.0
10.417,-0.767,-0.606,0.0
9.848,-0.729,-0.628,0.0
9.341,-0.694,-0.648,0.0
12.395,-0.922,-0.513,0.0
11.655,-0.871,-0.548,0.0
11.009,-0.826,-0.579,0.0
0.0,0.0,0.0,0.0
9.809,-0.742,-0.628,0.0
9.298,-0.707,-0.647,0.0
12.364,-0.94,-0.515,0.0
11.616,-0.887,-0.549,0.0
11.001,-0.844,-0.581,0.0
0.0,0.0,0.0,0.0
0.0,0.0,0.0,0.0
9.314,-0.723,-0.65,0.0
12.346,-0.959,-0.516,0.0
11.606,-0.906,-0.55,0.0
10.955,-0.858,-0.58,0.0
0.0,0.0,0.0,0.0
0.0,0.0,0.0,0.0
9.272,-0.736,-0.648,0.0
12.346,-0.98,-0.517,0.0
11.626,-0.926,-0.552,0.0
10.882,-0.871,-0.578,0.0
0.0,0.0,0.0,0.0
9.748,-0.786,-0.628,0.0
9.301,-0.753,-0.651,0.0
12.284,-0.995,-0.516,0.0
11.584,-0.942,-0.551,0.0
10.94,-0.893,-0.582,0.0
0.0,0.0,0.0,0.0
9.782,-0.805,-0.63,0.0
9.276,-0.766,-0.65,0.0
12.363,-1.021,-0.52,0.0
11.562,-0.958,-0.55,0.0
10.907,-0.908,-0.58,0.0
10.263,-0.857,-0.604,0.0
9.712,-0.815,-0.626,0.0
9.265,-0.78,-0.649,0.0
12.314,-1.037,-0.518,0.0
11.604,-0.98,-0.552,0.0
10.878,-0.923,-0.578,0.0
0.0,0.0,0.0,0.0
9.723,-0.831,-0.626,0.0
9.318,-0.799,-0.652,0.0
12.355,-1.06,-0.519,0.0
11.591,-0.998,-0.551,0.0
10.907,-0.942,-0.579,0.0
0.0,0.0,0.0,0.0
0.0,0.0,0.0,0.0
9.271,-0.81,-0.648,0.0
12.366,-1.08,-0.518,0.0
11.595,-1.016,-0.55,0.0
10.919,-0.96,-0.579,0.0
0.0,0.0,0.0,0.0
9.791,-0.867,-0.629,0.0
9.302,-0.827,-0.65,0.0
12.317,-1.095,-0.515,0.0
11.608,-1.035,-0.55,0.0
10.98,-0.982,-0.581,0.0
0.0,0.0,0.0,0.0
0.0,0.0,0.0,0.0
9.21,-0.833,-0.642,0.0
12.365,-1.118,-0.515,0.0
11.604,-1.052,-0.548,0.0
10.944,-0.996,-0.577,0.0
0.0,0.0,0.0,0.0
0.0,0.0,0.0,0.0
0.0,0.0,0.0,0.0
12.444,-1.144,-0.516,0.0
11.67,-1.076,-0.548,0.0
10.961,-1.014,-0.576,0.0
0.0,0.0,0.0,0.0
0.0,0.0,0.0,0.0
9.335,-0.872,-0.647,0.0
12.418,-1.16,-0.512,0.0
11.712,-1.097,-0.547,0.0
11.018,-1.035,-0.576,0.0
0.0,0.0,0.0,0.0
0.0,0.0,0.0,0.0
9.407,-0.893,-0.649,0.0
12.405,-1.176,-0.508,0.0
11.749,-1.117,-0.546,0.0
11.026,-1.052,-0.573,0.0
0.0,0.0,0.0,0.0
0.0,0.0,0.0,0.0
0.0,0.0,0.0,0.0
12.508,-1.204,-0.508,0.0
11.732,-1.133,-0.541,0.0
11.011,-1.066,-0.569,0.0
0.0,0.0,0.0,0.0
0.0,0.0,0.0,0.0
9.48,-0.927,-0.648,0.0
12.528,-1.224,-0.505,0.0
11.779,-1.154,-0.539,0.0
11.079,-1.088,-0.569,0.0
0.0,0.0,0.0,0.0
0.0,0.0,0.0,0.0
0.0,0.0,0.0,0.0
12.566,-1.245,-0.501,0.0
11.864,-1.178,-0.539,0.0
11.123,-1.108,-0.566,0.0
0.0,0.0,0.0,0.0
0.0,0.0,0.0,0.0
9.523,-0.957,-0.643,0.0
12.664,-1.271,-0.5,0.0
11.877,-1.195,-0.534,0.0
11.154,-1.126,-0.563,0.0
10.518,-1.065,-0.59,0.0
0.0,0.0,0.0,0.0
0.0,0.0,0.0,0.0
12.809,-1.303,-0.5,0.0
11.923,-1.216,-0.531,0.0
11.269,-1.152,-0.564,0.0
0.0,0.0,0.0,0.0
10.063,-1.035,-0.615,0.0
0.0,0.0,0.0,0.0
12.872,-1.326,-0.496,0.0
12.013,-1.241,-0.529,0.0
11.373,-1.178,-0.563,0.0
10.638,-1.104,-0.586,0.0
10.095,-1.051,-0.612,0.0
9.602,-1.002,-0.635,0.0
13.0,-1.356,-0.494,0.0
12.121,-1.267,-0.527,0.0
11.405,-1.195,-0.559,0.0
10.77,-1.131,-0.588,0.0
10.13,-1.067,-0.608,0.0
9.646,-1.019,-0.632,0.0
13.024,-1.374,-0.488,0.0
12.203,-1.291,-0.524,0.0
11.442,-1.213,-0.554,0.0
0.0,0.0,0.0,0.0
10.24,-1.091,-0.609,0.0
9.678,-1.034,-0.629,0.0
13.189,-1.407,-0.487,0.0
12.21,-1.306,-0.517,0.0
11.566,-1.24,-0.553,0.0
10.889,-1.17,-0.582,0.0
10.254,-1.104,-0.604,0.0
9.769,-1.055,-0.629,0.0
13.266,-1.431,-0.481,0.0
12.404,-1.341,-0.518,0.0
11.597,-1.257,-0.547,0.0
10.954,-1.19,-0.578,0.0
0.0,0.0,0.0,0.0
9.805,-1.07,-0.625,0.0
13.343,-1.454,-0.475,0.0
12.393,-1.354,-0.509,0.0
11.719,-1.283,-0.545,0.0
10.957,-1.202,-0.571,0.0
10.371,-1.14,-0.597,0.0
9.935,-1.095,-0.626,0.0
13.5,-1.486,-0.472,0.0
12.513,-1.381,-0.506,0.0
11.774,-1.302,-0.54,0.0
11.073,-1.227,-0.569,0.0
10.509,-1.167,-0.598,0.0
9.989,-1.112,-0.623,0.0
13.595,-1.511,-0.466,0.0
12.718,-1.417,-0.505,0.0
11.893,-1.328,-0.537,0.0
11.258,-1.259,-0.571,0.0
10.549,-1.182,-0.592,0.0
10.02,-1.125,-0.617,0.0
13.749,-1.543,-0.461,0.0
12.747,-1.433,-0.497,0.0
12.035,-1.356,-0.534,0.0
11.304,-1.276,-0.565,0.0
10.682,-1.208,-0.592,0.0
10.079,-1.142,-0.613,0.0
13.861,-1.569,-0.454,0.0
12.857,-1.458,-0.491,0.0
12.128,-1.378,-0.529,0.0
11.413,-1.299,-0.561,0.0
10.626,-1.212,-0.58,0.0
10.199,-1.165,-0.612,0.0
14.028,-1.601,-0.448,0.0
13.086,-1.496,-0.489,0.0
12.227,-1.401,-0.524,0.0
11.554,-1.326,-0.559,0.0
10.829,-1.245,-0.582,0.0
10.26,-1.182,-0.608,0.0
14.105,-1.623,-0.44,0.0
13.105,-1.51,-0.479,0.0
12.381,-1.429,-0.52,0.0
11.605,-1.342,-0.552,0.0
10.901,-1.263,-0.577,0.0
10.38,-1.205,-0.606,0.0
14.272,-1.655,-0.433,0.0
13.396,-1.556,-0.479,0.0
12.494,-1.453,-0.514,0.0
11.745,-1.368,-0.548,0.0
11.054,-1.29,-0.576,0.0
10.373,-1.213,-0.597,0.0
14.54,-1.698,-0.428,0.0
13.513,-1.58,-0.471,0.0
12.652,-1.482,-0.509,0.0
11.82,-1.387,-0.541,0.0
11.061,-1.3,-0.566,0.0
10.507,-1.237,-0.595,0.0
14.738,-1.733,-0.421,0.0
13.627,-1.605,-0.463,0.0
12.721,-1.5,-0.501,0.0
11.964,-1.413,-0.537,0.0
11.237,-1.329,-0.565,0.0
10.555,-1.25,-0.588,0.0
14.9,-1.763,-0.412,0.0
13.784,-1.633,-0.456,0.0
12.852,-1.525,-0.494,0.0
12.089,-1.436,-0.532,0.0
11.352,-1.351,-0.561,0.0
10.681,-1.273,-0.585,0.0
15.174,-1.807,-0.406,0.0
13.98,-1.666,-0.449,0.0
13.03,-1.555,-0.489,0.0
12.184,-1.456,-0.524,0.0
11.516,-1.378,-0.558,0.0
10.812,-1.296,-0.582,0.0
15.286,-1.83,-0.394,0.0
14.182,-1.7,-0.442,0.0
13.189,-1.583,-0.482,0.0
12.34,-1.483,-0.519,0.0
11.628,-1.399,-0.552,0.0
10.945,-1.319,-0.579,0.0
15.557,-1.873,-0.386,0.0
14.337,-1.728,-0.433,0.0
13.374,-1.614,-0.476,0.0
12.411,-1.499,-0.51,0.0
11.767,-1.423,-0.547,0.0
11.057,-1.339,-0.573,0.0
15.9,-1.923,-0.378,0.0
14.63,-1.772,-0.427,0.0
13.499,-1.636,-0.467,0.0
12.643,-1.534,-0.507,0.0
11.853,-1.44,-0.539,0.0
11.165,-1.358,-0.568,0.0
16.159,-1.964,-0.369,0.0
14.817,-1.802,-0.417,0.0
13.819,-1.682,-0.464,0.0
12.791,-1.559,-0.499,0.0
12.029,-1.468,-0.534,0.0
11.435,-1.397,-0.57,0.0
16.494,-2.013,-0.359,0.0
14.952,-1.826,-0.406,0.0
13.937,-1.704,-0.453,0.0
13.008,-1.592,-0.494,0.0
12.23,-1.498,-0.531,0.0
11.381,-1.395,-0.555,0.0
16.851,-2.064,-0.349,0.0
15.336,-1.88,-0.4,0.0
14.124,-1.733,-0.445,0.0
13.154,-1.615,-0.486,0.0
12.296,-1.511,-0.521,0.0
11.617,-1.429,-0.554,0.0
17.072,-2.098,-0.336,0.0
15.595,-1.918,-0.391,0.0
14.338,-1.765,-0.436,0.0
13.311,-1.64,-0.478,0.0
12.444,-1.534,-0.514,0.0
11.686,-1.442,-0.545,0.0
17.562,-2.165,-0.327,0.0
15.845,-1.955,-0.38,0.0
14.556,-1.797,-0.427,0.0
13.502,-1.668,-0.47,0.0
12.616,-1.56,-0.507,0.0
11.873,-1.469,-0.541,0.0
17.826,-2.204,-0.312,0.0
16.132,-1.995,-0.369,0.0
14.808,-1.833,-0.418,0.0
13.725,-1.7,-0.463,0.0
12.833,-1.59,-0.502,0.0
12.084,-1.498,-0.537,0.0
18.228,-2.259,-0.299,0.0
16.528,-2.049,-0.36,0.0
15.03,-1.864,-0.408,0.0
13.961,-1.732,-0.455,0.0
12.95,-1.608,-0.492,0.0
12.244,-1.521,-0.531,0.0
18.861,-2.342,-0.289,0.0
16.826,-2.09,-0.348,0.0
15.395,-1.913,-0.401,0.0
14.145,-1.758,-0.446,0.0
13.177,-1.639,-0.486,0.0
12.348,-1.536,-0.521,0.0
19.348,-2.406,-0.275,0.0
17.201,-2.14,-0.336,0.0
15.665,-1.949,-0.39,0.0
14.317,-1.782,-0.435,0.0
13.432,-1.673,-0.48,0.0
12.508,-1.558,-0.514,0.0
19.811,-2.467,-0.259,0.0
17.591,-2.191,-0.324,0.0
15.908,-1.981,-0.378,0.0
14.696,-1.831,-0.429,0.0
13.603,-1.695,-0.47,0.0
12.697,-1.583,-0.507,0.0
20.679,-2.577,-0.247,1.0
17.887,-2.229,-0.309,0.0
16.372,-2.041,-0.37,0.0
14.896,-1.857,-0.418,0.0
13.779,-1.718,-0.461,0.0
12.847,-1.602,-0.498,0.0
21.284,-2.653,-0.229,3.0
18.426,-2.297,-0.297,0.0
16.694,-2.081,-0.358,0.0
15.189,-1.894,-0.409,0.0
14.037,-1.751,-0.453,0.0
13.049,-1.628,-0.491,0.0
22.004,-2.743,-0.212,6.0
19.116,-2.383,-0.286,0.0
17.042,-2.125,-0.346,0.0
15.469,-1.929,-0.399,0.0
14.254,-1.777,-0.444,0.0
13.275,-1.655,-0.484,0.0
22.23,-2.771,-0.189,7.0
19.571,-2.439,-0.271,0.0
17.348,-2.162,-0.333,0.0
15.706,-1.957,-0.387,0.0
14.497,-1.806,-0.435,0.0
13.439,-1.675,-0.475,0.0
22.365,-2.786,-0.164,3.0
20.339,-2.533,-0.258,0.0
17.718,-2.206,-0.319,0.0
15.972,-1.989,-0.375,0.0
14.797,-1.842,-0.426,0.0
13.685,-1.703,-0.468,0.0
22.285,-2.773,-0.137,2.0
20.787,-2.586,-0.239,1.0
18.153,-2.258,-0.306,0.0
16.425,-2.042,-0.366,0.0
15.039,-1.87,-0.416,0.0
13.944,-1.733,-0.46,0.0
22.233,-2.763,-0.111,1.0
21.824,-2.711,-0.226,4.0
18.68,-2.32,-0.293,0.0
16.846,-2.091,-0.356,0.0
15.327,-1.902,-0.406,0.0
14.089,-1.748,-0.449,0.0
25.586,-3.174,-0.099,1.0
22.132,-2.744,-0.204,6.0
19.313,-2.394,-0.281,0.0
17.074,-2.115,-0.341,0.0
15.59,-1.931,-0.395,0.0
14.332,-1.774,-0.44,0.0
25.644,-3.174,-0.069,2.0
22.263,-2.754,-0.179,4.0
19.69,-2.435,-0.263,0.0
17.563,-2.171,-0.331,0.0
15.873,-1.961,-0.384,0.0
14.66,-1.81,-0.433,0.0
25.699,-3.173,-0.039,1.0
22.216,-2.741,-0.153,5.0
20.384,-2.514,-0.249,0.0
17.852,-2.2,-0.315,0.0
16.216,-1.998,-0.373,0.0
14.838,-1.827,-0.421,0.0
25.709,-3.165,-0.01,1.0
22.209,-2.732,-0.127,8.0
22.189,-2.728,-0.246,0.0
18.328,-2.252,-0.303,0.0
16.69,-2.049,-0.365,0.0
15.093,-1.852,-0.411,0.0
25.727,-3.157,0.019,1.0
22.208,-2.723,-0.102,15.0
22.184,-2.718,-0.22,1.0
18.908,-2.315,-0.29,0.0
16.994,-2.079,-0.352,0.0
15.454,-1.89,-0.403,0.0
22.199,-2.714,0.042,10.0
22.203,-2.712,-0.076,16.0
22.17,-2.706,-0.195,3.0
19.454,-2.372,-0.277,0.0
17.35,-2.114,-0.339,0.0
15.737,-1.916,-0.392,0.0
22.184,-2.701,0.067,12.0
22.199,-2.7,-0.051,19.0
22.153,-2.692,-0.169,6.0
19.822,-2.407,-0.259,0.0
17.709,-2.148,-0.326,0.0
16.045,-1.945,-0.381,0.0
22.161,-2.686,0.092,15.0
22.182,-2.686,-0.025,20.0
22.188,-2.684,-0.144,8.0
20.38,-2.463,-0.243,0.0
18.058,-2.18,-0.312,0.0
16.388,-1.977,-0.371,0.0
22.159,-2.673,0.117,17.0
22.176,-2.672,0.0,20.0
22.306,-2.685,-0.12,9.0
22.072,-2.654,-0.239,0.0
18.678,-2.243,-0.302,0.0
16.715,-2.006,-0.36,0.0
22.149,-2.658,0.142,19.0
22.174,-2.657,0.023,20.0
22.382,-2.679,-0.095,21.0
22.296,-2.666,-0.216,8.0
19.109,-2.282,-0.288,0.0
17.08,-2.038,-0.349,0.0
22.131,-2.64,0.166,18.0
22.163,-2.641,0.048,19.0
22.379,-2.663,-0.07,16.0
22.287,-2.649,-0.192,10.0
19.467,-2.311,-0.272,0.0
17.388,-2.062,-0.336,0.0
22.128,-2.624,0.19,20.0
22.161,-2.624,0.072,17.0
22.394,-2.648,-0.046,12.0
22.397,-2.645,-0.168,8.0
19.944,-2.353,-0.257,0.0
17.743,-2.09,-0.323,0.0
22.13,-2.607,0.214,18.0
22.157,-2.607,0.096,17.0
22.45,-2.637,-0.022,4.0
22.556,-2.646,-0.145,6.0
20.507,-2.402,-0.242,0.0
18.17,-2.126,-0.312,0.0
22.145,-2.591,0.238,18.0
22.166,-2.589,0.12,14.0
26.22,-3.059,0.001,3.0
22.568,-2.629,-0.121,10.0
22.006,-2.559,-0.236,0.0
18.772,-2.18,-0.302,0.0
22.134,-2.571,0.261,18.0
22.176,-2.572,0.143,11.0
26.301,-3.045,0.029,4.0
22.589,-2.611,-0.098,3.0
22.3,-2.574,-0.216,3.0
19.146,-2.206,-0.288,0.0
22.151,-2.553,0.284,13.0
22.173,-2.551,0.166,2.0
26.39,-3.031,0.056,6.0
25.366,-2.909,-0.084,0.0
22.376,-2.562,-0.194,3.0
19.661,-2.247,-0.276,0.0
22.162,-2.534,0.307,0.0
28.433,-3.245,0.242,1.0
26.479,-3.016,0.083,5.0
23.629,-2.687,-0.054,5.0
22.485,-2.552,-0.172,3.0
19.933,-2.259,-0.26,0.0
35.259,-3.997,0.525,0.0
29.264,-3.311,0.278,1.0
26.668,-3.011,0.11,1.0
23.628,-2.663,-0.031,152.0
23.034,-2.591,-0.154,5.0
23.613,-2.652,-0.284,13.0
0.0,0.0,0.0,0.0
29.645,-3.324,0.311,8.0
23.647,-2.646,0.121,5.0
23.593,-2.635,-0.008,184.0
23.587,-2.629,-0.135,48.0
23.61,-2.627,-0.262,22.0
0.0,0.0,0.0,0.0
30.023,-3.334,0.343,8.0
27.729,-3.073,0.168,2.0
23.594,-2.609,0.014,171.0
23.6,-2.605,-0.112,66.0
22.27,-2.453,-0.226,2.0
0.0,0.0,0.0,0.0
31.049,-3.414,0.384,0.0
27.885,-3.059,0.195,3.0
23.635,-2.588,0.036,151.0
23.615,-2.58,-0.091,14.0
22.3,-2.431,-0.205,4.0
37.287,-4.066,0.697,2.0
37.415,-4.071,0.498,0.0
28.533,-3.097,0.226,1.0
27.359,-2.963,0.066,5.0
25.924,-2.802,-0.076,1.0
22.353,-2.411,-0.185,2.0
36.701,-3.959,0.719,4.0
37.336,-4.018,0.53,0.0
29.279,-3.143,0.258,0.0
27.624,-2.959,0.092,4.0
26.488,-2.831,-0.054,2.0
22.452,-2.394,-0.166,0.0
35.059,-3.739,0.718,7.0
34.891,-3.712,0.526,0.0
34.534,-3.665,0.335,0.0
28.668,-3.035,0.12,2.0
26.696,-2.819,-0.031,0.0
23.319,-2.457,-0.153,0.0
34.349,-3.62,0.733,1.0
34.29,-3.604,0.547,0.0
34.521,-3.619,0.364,0.0
30.582,-3.198,0.154,3.0
26.886,-2.805,-0.008,0.0
23.827,-2.48,-0.136,0.0
34.132,-3.552,0.757,0.0
34.231,-3.553,0.574,1.0
34.592,-3.581,0.393,0.0
30.969,-3.198,0.182,2.0
27.54,-2.837,0.013,1.0
33.993,-3.492,-0.167,0.0
33.962,-3.49,0.781,2.0
34.041,-3.488,0.598,0.0
34.392,-3.514,0.419,0.0
31.716,-3.232,0.212,0.0
34.043,-3.46,0.043,2.0
34.024,-3.449,-0.14,4.0
33.925,-3.44,0.806,2.0
34.083,-3.446,0.626,0.0
34.337,-3.461,0.445,0.0
32.074,-3.224,0.239,1.0
28.78,-2.885,0.058,0.0
33.961,-3.395,-0.114,1.0
33.881,-3.388,0.831,3.0
34.112,-3.401,0.652,0.0
34.372,-3.417,0.471,0.0
32.227,-3.194,0.263,0.0
29.384,-2.904,0.081,0.0
25.659,-2.528,-0.067,0.0
33.844,-3.335,0.855,5.0
0.0,0.0,0.0,0.0
34.528,-3.382,0.498,4.0
0.0,0.0,0.0,0.0
29.711,-2.893,0.103,1.0
25.89,-2.513,-0.05,0.0
33.839,-3.285,0.878,7.0
0.0,0.0,0.0,0.0
34.52,-3.33,0.521,2.0
0.0,0.0,0.0,0.0
29.923,-2.869,0.124,0.0
26.488,-2.532,-0.033,0.0
33.821,-3.233,0.901,17.0
33.798,-3.22,0.716,0.0
34.086,-3.237,0.537,1.0
0.0,0.0,0.0,0.0
30.276,-2.857,0.145,0.0
26.669,-2.509,-0.016,0.0
33.82,-3.181,0.922,24.0
33.8,-3.168,0.738,13.0
33.974,-3.174,0.557,1.0
0.0,0.0,0.0,0.0
30.473,-2.828,0.165,0.0
27.22,-2.518,0.0,0.0
33.805,-3.127,0.942,38.0
33.812,-3.117,0.758,150.0
33.9,-3.114,0.576,0.0
36.464,-3.338,0.418,0.0
31.206,-2.847,0.188,0.0
27.704,-2.519,0.016,0.0
33.804,-3.073,0.962,55.0
33.814,-3.063,0.778,1.0
33.854,-3.056,0.595,0.0
0.0,0.0,0.0,0.0
31.689,-2.84,0.208,0.0
28.031,-2.503,0.032,0.0
33.806,-3.019,0.98,92.0
33.79,-3.006,0.796,4.0
33.818,-2.998,0.612,0.0
34.355,-3.034,0.431,0.0
32.024,-2.818,0.227,0.0
28.643,-2.511,0.047,0.0
33.805,-2.964,0.998,108.0
33.785,-2.95,0.813,9.0
33.813,-2.942,0.629,6.0
34.401,-2.981,0.449,1.0
32.005,-2.763,0.243,0.0
28.764,-2.474,0.061,0.0
33.801,-2.906,1.014,133.0
33.795,-2.895,0.829,19.0
33.764,-2.88,0.644,3.0
34.388,-2.922,0.465,2.0
32.862,-2.781,0.265,1.0
33.896,-2.858,0.088,0.0
33.802,-2.849,1.029,144.0
33.823,-2.839,0.845,71.0
33.812,-2.827,0.66,154.0
34.341,-2.86,0.479,3.0
33.251,-2.757,0.282,0.0
33.894,-2.799,0.102,1.0
33.806,-2.791,1.043,147.0
33.781,-2.777,0.858,38.0
33.821,-2.769,0.673,156.0
34.277,-2.794,0.492,3.0
0.0,0.0,0.0,0.0
33.907,-2.741,0.116,0.0
33.811,-2.732,1.056,148.0
33.795,-2.719,0.871,43.0
33.827,-2.71,0.686,155.0
34.282,-2.734,0.504,5.0
0.0,0.0,0.0,0.0
34.028,-2.691,0.128,0.0
33.819,-2.673,1.069,136.0
33.801,-2.659,0.882,49.0
33.836,-2.65,0.698,157.0
34.25,-2.671,0.515,6.0
0.0,0.0,0.0,0.0
33.997,-2.627,0.139,0.0
33.819,-2.612,1.079,116.0
33.819,-2.6,0.893,54.0
33.851,-2.59,0.708,157.0
34.189,-2.604,0.524,5.0
34.189,-2.592,0.337,0.0
33.983,-2.565,0.148,0.0
33.833,-2.552,1.089,102.0
33.833,-2.54,0.903,54.0
33.848,-2.529,0.717,165.0
34.169,-2.54,0.533,5.0
34.896,-2.582,0.352,0.0
30.133,-2.219,0.139,0.0
33.848,-2.49,1.097,82.0
33.846,-2.478,0.911,53.0
33.872,-2.468,0.725,155.0
34.105,-2.472,0.539,3.0
33.996,-2.452,0.351,1.0
30.141,-2.164,0.145,0.0
33.861,-2.429,1.105,72.0
33.855,-2.416,0.918,50.0
33.887,-2.406,0.732,159.0
34.128,-2.411,0.546,3.0
35.124,-2.469,0.369,2.0
30.247,-2.115,0.151,0.0
33.856,-2.365,1.11,54.0
33.872,-2.354,0.924,44.0
33.856,-2.34,0.737,0.0
34.054,-2.342,0.55,2.0
34.507,-2.361,0.367,1.0
30.208,-2.056,0.155,0.0
33.877,-2.302,1.115,40.0
33.889,-2.291,0.928,33.0
34.068,-2.29,0.745,0.0
34.117,-2.281,0.555,1.0
35.833,-2.383,0.385,0.0
30.207,-1.998,0.158,0.0
33.896,-2.239,1.119,29.0
33.915,-2.228,0.932,24.0
33.984,-2.22,0.746,0.0
34.157,-2.219,0.558,0.0
0.0,0.0,0.0,0.0
30.431,-1.955,0.161,0.0
33.931,-2.177,1.122,20.0
33.95,-2.166,0.935,15.0
33.881,-2.149,0.745,0.0
34.193,-2.156,0.559,3.0
35.642,-2.235,0.386,0.0
30.472,-1.899,0.162,1.0
33.96,-2.113,1.123,9.0
33.978,-2.102,0.936,9.0
33.968,-2.089,0.747,0.0
34.225,-2.092,0.56,3.0
35.759,-2.173,0.387,0.0
30.627,-1.851,0.162,4.0
34.042,-2.053,1.125,5.0
34.011,-2.039,0.936,6.0
0.0,0.0,0.0,0.0
34.206,-2.025,0.558,2.0
34.68,-2.041,0.374,1.0
30.458,-1.781,0.16,6.0
34.088,-1.989,1.125,45.0
34.056,-1.975,0.935,5.0
0.0,0.0,0.0,0.0
34.295,-1.963,0.557,1.0
34.774,-1.978,0.372,0.0
30.244,-1.709,0.156,3.0
34.176,-1.927,1.124,151.0
34.138,-1.912,0.933,3.0
34.165,-1.901,0.744,0.0
34.4,-1.901,0.555,1.0
34.64,-1.902,0.367,0.0
28.652,-1.563,0.144,0.0
34.178,-1.859,1.119,9.0
34.189,-1.848,0.93,2.0
34.265,-1.839,0.741,1.0
34.576,-1.843,0.552,0.0
34.319,-1.817,0.358,0.0
30.541,-1.606,0.149,0.0
109.448,-5.737,3.567,1.0
0.0,0.0,0.0,0.0
0.0,0.0,0.0,0.0
0.0,0.0,0.0,0.0
0.0,0.0,0.0,0.0
28.691,-1.451,0.133,0.0
0.0,0.0,0.0,0.0
0.0,0.0,0.0,0.0
0.0,0.0,0.0,0.0
0.0,0.0,0.0,0.0
34.692,-1.698,0.346,0.0
28.612,-1.39,0.126,0.0
0.0,0.0,0.0,0.0
0.0,0.0,0.0,0.0
0.0,0.0,0.0,0.0
0.0,0.0,0.0,0.0
33.704,-1.581,0.327,0.0
28.571,-1.331,0.118,0.0
0.0,0.0,0.0,0.0
0.0,0.0,0.0,0.0
0.0,0.0,0.0,0.0
0.0,0.0,0.0,0.0
33.533,-1.506,0.315,0.0
28.607,-1.275,0.109,4.0
0.0,0.0,0.0,0.0
0.0,0.0,0.0,0.0
0.0,0.0,0.0,0.0
0.0,0.0,0.0,0.0
32.884,-1.412,0.297,0.0
28.614,-1.218,0.099,6.0
0.0,0.0,0.0,0.0
0.0,0.0,0.0,0.0
0.0,0.0,0.0,0.0
39.33,-1.624,0.56,0.0
32.639,-1.336,0.282,0.0
28.612,-1.161,0.087,10.0
93.09,-3.757,2.858,1.0
0.0,0.0,0.0,0.0
0.0,0.0,0.0,0.0
38.861,-1.526,0.536,0.0
32.557,-1.267,0.267,0.0
28.603,-1.103,0.075,7.0
0.0,0.0,0.0,0.0
0.0,0.0,0.0,0.0
0.0,0.0,0.0,0.0
38.79,-1.446,0.517,0.0
32.387,-1.196,0.251,1.0
28.567,-1.044,0.061,5.0
0.0,0.0,0.0,0.0
0.0,0.0,0.0,0.0
0.0,0.0,0.0,0.0
37.279,-1.315,0.479,0.0
31.545,-1.101,0.228,0.0
28.426,-0.982,0.046,1.0
0.0,0.0,0.0,0.0
0.0,0.0,0.0,0.0
0.0,0.0,0.0,0.0
36.071,-1.2,0.444,0.0
31.49,-1.036,0.21,0.0
27.726,-0.902,0.03,0.0
0.0,0.0,0.0,0.0
54.911,-1.755,1.266,0.0
0.0,0.0,0.0,0.0
0.0,0.0,0.0,0.0
30.649,-0.947,0.187,0.0
27.407,-0.837,0.013,0.0
0.0,0.0,0.0,0.0
0.0,0.0,0.0,0.0
0.0,0.0,0.0,0.0
35.41,-1.036,0.393,0.0
30.271,-0.875,0.166,0.0
27.128,-0.775,-0.003,0.0
0.0,0.0,0.0,0.0
52.551,-1.47,1.146,0.0
0.0,0.0,0.0,0.0
34.492,-0.94,0.36,0.0
28.739,-0.773,0.138,2.0
26.679,-0.709,-0.021,0.0
0.0,0.0,0.0,0.0
0.0,0.0,0.0,0.0
0.0,0.0,0.0,0.0
33.37,-0.844,0.326,0.0
28.704,-0.716,0.118,5.0
26.212,-0.644,-0.039,0.0
0.0,0.0,0.0,0.0
0.0,0.0,0.0,0.0
0.0,0.0,0.0,0.0
33.331,-0.776,0.301,1.0
28.72,-0.659,0.097,10.0
25.897,-0.586,-0.057,0.0
0.0,0.0,0.0,0.0
0.0,0.0,0.0,0.0
38.402,-0.832,0.538,0.0
32.91,-0.702,0.272,1.0
28.674,-0.601,0.075,6.0
25.027,-0.517,-0.075,0.0
0.0,0.0,0.0,0.0
0.0,0.0,0.0,0.0
37.59,-0.74,0.496,0.0
32.715,-0.634,0.244,0.0
28.459,-0.542,0.051,2.0
24.772,-0.463,-0.094,0.0
0.0,0.0,0.0,0.0
0.0,0.0,0.0,0.0
36.521,-0.649,0.452,0.0
31.423,-0.548,0.208,0.0
27.684,-0.473,0.027,0.0
24.409,-0.409,-0.114,0.0
0.0,0.0,0.0,0.0
0.0,0.0,0.0,0.0
34.62,-0.547,0.398,0.0
30.488,-0.472,0.175,0.0
27.178,-0.412,0.002,0.0
23.864,-0.354,-0.132,0.0
0.0,0.0,0.0,0.0
0.0,0.0,0.0,0.0
34.11,-0.473,0.361,0.0
28.844,-0.39,0.139,0.0
26.458,-0.35,-0.021,0.0
23.198,-0.299,-0.15,1.0
0.0,0.0,0.0,0.0
0.0,0.0,0.0,0.0
33.236,-0.397,0.321,1.0
28.749,-0.334,0.111,1.0
26.047,-0.294,-0.046,0.0
22.911,-0.251,-0.17,0.0
0.0,0.0,0.0,0.0
0.0,0.0,0.0,0.0
32.649,-0.328,0.283,1.0
28.709,-0.279,0.083,6.0
25.372,-0.239,-0.07,0.0
22.484,-0.204,-0.189,1.0
46.69,-0.41,0.887,0.0
0.0,0.0,0.0,0.0
31.857,-0.259,0.244,2.0
28.528,-0.223,0.053,2.0
24.837,-0.186,-0.094,0.0
22.009,-0.158,-0.208,1.0
0.0,0.0,0.0,0.0
0.0,0.0,0.0,0.0
31.234,-0.196,0.206,1.0
27.641,-0.164,0.023,0.0
24.257,-0.137,-0.117,0.0
21.53,-0.115,-0.226,1.0
43.314,-0.218,0.732,0.0
0.0,0.0,0.0,0.0
28.953,-0.127,0.16,1.0
26.883,-0.11,-0.006,0.0
23.817,-0.09,-0.141,0.0
20.526,-0.071,-0.238,0.0
40.428,-0.128,0.638,0.0
33.305,-0.095,0.336,0.0
28.826,-0.073,0.127,5.0
26.167,-0.058,-0.036,0.0
23.245,-0.045,-0.164,0.0
20.027,-0.033,-0.255,0.0
39.73,-0.053,0.582,0.0
33.15,-0.035,0.297,0.0
28.666,-0.021,0.094,1.0
25.632,-0.011,-0.064,0.0
22.256,-0.003,-0.182,0.0
19.384,0.002,-0.269,0.0
0.0,0.0,0.0,0.0
31.754,0.023,0.247,0.0
28.46,0.029,0.059,1.0
25.015,0.033,-0.092,0.0
21.692,0.035,-0.203,3.0
18.757,0.036,-0.283,0.0
0.0,0.0,0.0,0.0
30.576,0.077,0.201,0.0
27.39,0.077,0.024,0.0
24.237,0.075,-0.118,0.0
21.126,0.072,-0.224,3.0
18.289,0.067,-0.298,0.0
0.0,0.0,0.0,0.0
28.99,0.124,0.155,0.0
26.716,0.122,-0.009,0.0
23.363,0.113,-0.143,0.0
20.529,0.105,-0.243,0.0
17.879,0.097,-0.314,0.0
33.773,0.194,0.331,0.0
28.798,0.173,0.118,1.0
26.041,0.164,-0.041,0.0
22.553,0.148,-0.167,0.0
19.635,0.135,-0.257,0.0
17.417,0.124,-0.328,1.0
32.78,0.244,0.279,0.0
28.777,0.222,0.08,4.0
25.296,0.202,-0.073,0.0
22.2,0.184,-0.193,3.0
19.096,0.163,-0.275,0.0
16.977,0.15,-0.342,0.0
31.424,0.287,0.226,0.0
27.716,0.261,0.041,0.0
24.617,0.238,-0.103,0.0
21.614,0.215,-0.217,2.0
18.537,0.19,-0.292,0.0
16.708,0.175,-0.358,0.0
28.92,0.312,0.169,1.0
26.952,0.298,0.003,0.0
23.674,0.268,-0.132,0.0
20.588,0.239,-0.234,0.0
17.971,0.213,-0.307,0.0
16.391,0.199,-0.374,0.0
28.867,0.359,0.129,5.0
26.144,0.332,-0.031,0.0
23.124,0.3,-0.16,0.0
19.963,0.264,-0.254,0.0
17.428,0.235,-0.322,0.0
15.992,0.22,-0.387,0.0
28.783,0.404,0.089,3.0
25.371,0.363,-0.066,0.0
22.276,0.324,-0.186,0.0
19.012,0.282,-0.269,0.0
17.038,0.257,-0.339,0.0
15.709,0.241,-0.402,0.0
27.586,0.432,0.045,0.0
24.565,0.391,-0.099,0.0
21.85,0.353,-0.213,0.0
18.474,0.303,-0.288,0.0
16.743,0.279,-0.357,0.0
15.393,0.26,-0.417,0.0
26.734,0.46,0.005,0.0
23.704,0.414,-0.131,0.0
20.519,0.363,-0.23,0.0
18.046,0.324,-0.308,0.0
16.38,0.298,-0.373,0.0
15.029,0.277,-0.429,0.0
25.928,0.486,-0.032,0.0
22.987,0.436,-0.16,0.0
19.902,0.382,-0.253,0.0
17.422,0.339,-0.323,0.0
15.946,0.314,-0.387,0.0
14.639,0.292,-0.439,0.0
25.151,0.509,-0.069,0.0
22.133,0.453,-0.187,1.0
19.042,0.394,-0.27,0.0
17.025,0.357,-0.341,0.0
15.659,0.332,-0.404,0.0
14.335,0.307,-0.452,0.0
24.283,0.527,-0.103,0.0
21.481,0.471,-0.214,0.0
18.448,0.409,-0.29,0.0
16.647,0.373,-0.359,0.0
15.268,0.346,-0.417,0.0
14.014,0.321,-0.463,0.0
23.511,0.544,-0.136,0.0
20.304,0.475,-0.234,0.0
17.941,0.423,-0.31,0.0
16.234,0.387,-0.375,0.0
14.964,0.36,-0.432,0.0
13.821,0.336,-0.479,0.0
22.606,0.555,-0.166,0.0
19.612,0.486,-0.257,0.0
17.281,0.432,-0.326,0.0
15.782,0.398,-0.39,0.0
14.633,0.373,-0.446,0.0
13.465,0.346,-0.488,0.0
21.859,0.567,-0.196,0.0
18.823,0.492,-0.277,0.0
16.892,0.446,-0.345,0.0
15.528,0.413,-0.409,0.0
14.226,0.382,-0.456,0.0
13.226,0.358,-0.5,0.0
20.984,0.573,-0.222,0.0
18.2,0.501,-0.297,0.0
16.459,0.456,-0.363,0.0
15.175,0.424,-0.424,0.0
13.897,0.391,-0.468,0.0
12.888,0.366,-0.508,0.0
20.132,0.576,-0.245,0.0
17.645,0.508,-0.317,0.0
16.022,0.465,-0.38,0.0
14.716,0.43,-0.435,0.0
13.661,0.402,-0.482,0.0
12.742,0.378,-0.524,0.0
19.238,0.575,-0.266,0.0
17.094,0.514,-0.335,0.0
15.703,0.475,-0.398,0.0
14.35,0.437,-0.448,0.0
13.325,0.409,-0.493,0.0
12.465,0.385,-0.533,0.0
18.438,0.574,-0.286,0.0
16.629,0.521,-0.353,0.0
15.233,0.48,-0.411,0.0
14.047,0.445,-0.462,0.0
13.079,0.417,-0.505,0.0
12.351,0.397,-0.548,0.0
17.923,0.579,-0.307,0.0
16.265,0.529,-0.373,0.0
14.927,0.488,-0.428,0.0
13.787,0.453,-0.476,0.0
12.857,0.425,-0.518,0.0
11.993,0.399,-0.552,0.0
17.298,0.579,-0.325,0.0
15.817,0.532,-0.389,0.0
14.59,0.494,-0.443,0.0
13.449,0.458,-0.487,0.0
12.583,0.431,-0.528,0.0
11.835,0.407,-0.565,0.0
16.851,0.583,-0.346,0.0
15.479,0.538,-0.407,0.0
14.204,0.496,-0.455,0.0
13.138,0.462,-0.498,0.0
12.372,0.437,-0.54,0.0
11.647,0.414,-0.576,0.0
16.446,0.587,-0.365,0.0
15.003,0.538,-0.42,0.0
13.839,0.499,-0.467,0.0
12.897,0.467,-0.511,0.0
12.118,0.441,-0.55,0.0
11.376,0.416,-0.582,0.0
15.962,0.586,-0.382,0.0
14.701,0.542,-0.436,0.0
13.529,0.502,-0.48,0.0
12.634,0.471,-0.522,0.0
11.916,0.446,-0.561,0.0
11.155,0.419,-0.59,0.0
15.565,0.587,-0.399,0.0
14.322,0.543,-0.45,0.0
13.265,0.505,-0.493,0.0
12.461,0.477,-0.537,0.0
11.665,0.448,-0.57,0.0
10.951,0.422,-0.598,0.0
15.172,0.587,-0.415,0.0
13.976,0.543,-0.463,0.0
13.055,0.51,-0.508,0.0
12.194,0.478,-0.546,0.0
11.479,0.452,-0.581,0.0
10.756,0.425,-0.606,0.0
14.822,0.588,-0.432,0.0
13.712,0.546,-0.478,0.0
12.766,0.51,-0.519,0.0
11.976,0.48,-0.558,0.0
11.245,0.453,-0.589,0.0
10.546,0.426,-0.613,0.0
14.363,0.582,-0.443,0.0
13.443,0.547,-0.493,0.0
12.52,0.511,-0.531,0.0
11.671,0.479,-0.564,0.0
11.016,0.453,-0.596,0.0
10.38,0.429,-0.622,0.0
14.119,0.585,-0.461,0.0
13.116,0.545,-0.504,0.0
12.316,0.514,-0.544,0.0
11.477,0.48,-0.575,0.0
10.773,0.453,-0.602,0.0
10.195,0.43,-0.629,0.0
13.756,0.581,-0.473,0.0
12.802,0.543,-0.515,0.0
11.986,0.51,-0.551,0.0
11.173,0.477,-0.579,0.0
10.616,0.454,-0.612,0.0
10.083,0.433,-0.64,0.0
13.515,0.581,-0.489,0.0
12.587,0.543,-0.528,0.0
11.788,0.51,-0.563,0.0
11.108,0.482,-0.596,0.0
10.439,0.455,-0.62,0.0
9.885,0.432,-0.645,0.0
13.129,0.574,-0.498,0.0
12.343,0.542,-0.54,0.0
11.538,0.508,-0.571,0.0
10.785,0.476,-0.598,0.0
10.239,0.453,-0.627,0.0
9.696,0.431,-0.65,0.0
12.909,0.574,-0.513,0.0
12.074,0.538,-0.549,0.0
11.363,0.508,-0.583,0.0
10.583,0.475,-0.605,0.0
10.107,0.454,-0.637,0.0
9.561,0.431,-0.658,0.0
12.612,0.569,-0.523,0.0
11.841,0.536,-0.56,0.0
11.105,0.504,-0.589,0.0
10.467,0.476,-0.617,0.0
9.877,0.45,-0.64,0.0
9.426,0.431,-0.665,0.0
12.416,0.568,-0.537,0.0
11.607,0.532,-0.569,0.0
10.912,0.502,-0.599,0.0
10.216,0.471,-0.621,0.0
9.729,0.449,-0.648,0.0
0.0,0.0,0.0,0.0
12.143,0.562,-0.547,0.0
11.399,0.529,-0.579,0.0
10.663,0.496,-0.604,0.0
0.0,0.0,0.0,0.0
0.0,0.0,0.0,0.0
9.091,0.426,-0.674,0.0
11.92,0.558,-0.558,0.0
11.113,0.522,-0.584,0.0
10.577,0.498,-0.617,0.0
0.0,0.0,0.0,0.0
0.0,0.0,0.0,0.0
0.0,0.0,0.0,0.0
11.692,0.554,-0.568,0.0
11.036,0.524,-0.6,0.0
10.334,0.491,-0.622,0.0
0.0,0.0,0.0,0.0
0.0,0.0,0.0,0.0
0.0,0.0,0.0,0.0
11.448,0.547,-0.576,0.0
10.655,0.51,-0.598,0.0
10.254,0.492,-0.635,0.0
0.0,0.0,0.0,0.0
0.0,0.0,0.0,0.0
8.756,0.423,-0.696,0.0
11.283,0.544,-0.588,0.0
10.584,0.511,-0.613,0.0
0.0,0.0,0.0,0.0
0.0,0.0,0.0,0.0
0.0,0.0,0.0,0.0
8.62,0.419,-0.7,0.0
11.089,0.539,-0.597,0.0
10.424,0.507,-0.622,0.0
0.0,0.0,0.0,0.0
0.0,0.0,0.0,0.0
0.0,0.0,0.0,0.0
8.493,0.416,-0.705,0.0
10.763,0.527,-0.598,0.0
10.207,0.5,-0.627,0.0
0.0,0.0,0.0,0.0
0.0,0.0,0.0,0.0
0.0,0.0,0.0,0.0
8.408,0.415,-0.713,0.0
10.578,0.521,-0.607,0.0
10.046,0.495,-0.634,0.0
0.0,0.0,0.0,0.0
0.0,0.0,0.0,0.0
0.0,0.0,0.0,0.0
8.228,0.408,-0.712,0.0
10.404,0.515,-0.614,0.0
0.0,0.0,0.0,0.0
0.0,0.0,0.0,0.0
0.0,0.0,0.0,0.0
8.523,0.424,-0.702,0.0
0.0,0.0,0.0,0.0
10.314,0.512,-0.627,0.0
9.728,0.484,-0.647,0.0
0.0,0.0,0.0,0.0
0.0,0.0,0.0,0.0
8.368,0.418,-0.704,0.0
0.0,0.0,0.0,0.0
