X,Y,Z,Reflectivity
14.069,1.4,-0.463,0.0
13.244,1.319,-0.513,0.0
12.448,1.242,-0.554,0.0
11.594,1.158,-0.582,0.0
16.631,1.664,-0.378,0.0
15.142,1.517,-0.431,0.0
13.861,1.39,-0.474,0.0
13.091,1.315,-0.524,0.0
12.225,1.229,-0.56,0.0
11.47,1.155,-0.591,0.0
16.212,1.635,-0.39,0.0
14.892,1.503,-0.443,0.0
13.736,1.388,-0.488,0.0
12.719,1.287,-0.526,0.0
12.074,1.223,-0.568,0.0
11.307,1.147,-0.597,0.0
15.921,1.617,-0.403,0.0
14.564,1.48,-0.452,0.0
13.504,1.374,-0.497,0.0
12.626,1.286,-0.538,0.0
11.897,1.213,-0.575,0.0
11.116,1.135,-0.602,0.0
15.6,1.595,-0.416,0.0
14.25,1.458,-0.461,0.0
13.315,1.364,-0.507,0.0
12.485,1.28,-0.549,0.0
11.693,1.2,-0.581,0.0
10.959,1.126,-0.607,0.0
15.223,1.566,-0.425,0.0
14.057,1.447,-0.473,0.0
13.145,1.354,-0.518,0.0
12.253,1.264,-0.555,0.0
11.501,1.187,-0.587,0.0
10.835,1.12,-0.615,0.0
14.976,1.549,-0.438,0.0
13.767,1.425,-0.482,0.0
12.925,1.339,-0.526,0.0
12.105,1.256,-0.564,0.0
11.366,1.18,-0.595,0.0
10.724,1.114,-0.623,0.0
14.696,1.528,-0.449,0.0
13.555,1.411,-0.492,0.0
12.692,1.322,-0.534,0.0
11.902,1.241,-0.57,0.0
11.188,1.167,-0.6,0.0
10.579,1.105,-0.628,0.0
14.393,1.504,-0.459,0.0
13.356,1.397,-0.502,0.0
12.535,1.312,-0.544,0.0
11.8,1.236,-0.581,0.0
11.054,1.159,-0.608,0.0
10.446,1.096,-0.634,0.0
14.024,1.472,-0.465,0.0
13.204,1.386,-0.514,0.0
12.382,1.301,-0.553,0.0
11.541,1.214,-0.583,0.0
10.912,1.148,-0.614,0.0
10.336,1.089,-0.641,0.0
13.865,1.461,-0.478,0.0
12.971,1.367,-0.522,0.0
12.188,1.286,-0.561,0.0
11.371,1.2,-0.589,0.0
10.773,1.138,-0.62,0.0
10.148,1.073,-0.643,0.0
13.611,1.439,-0.487,0.0
12.762,1.35,-0.53,0.0
11.995,1.269,-0.567,0.0
11.201,1.186,-0.595,0.0
10.622,1.126,-0.626,0.0
10.017,1.062,-0.648,0.0
13.425,1.423,-0.498,0.0
12.621,1.339,-0.541,0.0
11.801,1.252,-0.573,0.0
11.08,1.177,-0.603,0.0
10.491,1.115,-0.632,0.0
9.9,1.053,-0.653,0.0
13.25,1.408,-0.509,0.0
12.499,1.329,-0.552,0.0
11.603,1.234,-0.579,0.0
10.956,1.166,-0.611,0.0
10.345,1.102,-0.636,0.0
9.762,1.04,-0.657,0.0
13.02,1.387,-0.517,0.0
12.19,1.299,-0.554,0.0
11.484,1.224,-0.588,0.0
10.804,1.152,-0.616,0.0
10.247,1.094,-0.643,0.0
9.702,1.036,-0.665,0.0
12.837,1.37,-0.526,0.0
12.09,1.291,-0.565,0.0
11.327,1.21,-0.594,0.0
10.68,1.141,-0.623,0.0
10.085,1.078,-0.646,0.0
9.562,1.022,-0.668,0.0
12.641,1.351,-0.534,0.0
11.943,1.276,-0.573,0.0
11.151,1.192,-0.599,0.0
10.529,1.126,-0.627,0.0
9.97,1.067,-0.652,0.0
9.435,1.01,-0.671,0.0
12.485,1.335,-0.543,0.0
11.716,1.253,-0.577,0.0
11.013,1.178,-0.606,0.0
10.393,1.112,-0.633,0.0
9.797,1.049,-0.653,0.0
9.351,1.002,-0.677,0.0
12.322,1.318,-0.552,0.0
11.594,1.241,-0.586,0.0
10.898,1.166,-0.613,0.0
10.265,1.099,-0.638,0.0
9.715,1.04,-0.659,0.0
9.314,0.998,-0.686,0.0
12.132,1.298,-0.558,0.0
11.378,1.217,-0.589,0.0
10.735,1.149,-0.617,0.0
10.111,1.082,-0.641,0.0
9.617,1.03,-0.665,0.0
9.158,0.981,-0.686,0.0
12.049,1.288,-0.569,0.0
11.206,1.198,-0.594,0.0
10.645,1.139,-0.625,0.0
10.022,1.072,-0.647,0.0
9.478,1.014,-0.667,0.0
9.067,0.971,-0.69,0.0
11.818,1.263,-0.573,0.0
11.093,1.185,-0.601,0.0
10.536,1.126,-0.632,0.0
9.939,1.062,-0.654,0.0
9.431,1.008,-0.675,0.0
8.914,0.953,-0.689,0.0
11.633,1.241,-0.578,0.0
10.96,1.17,-0.607,0.0
10.38,1.108,-0.635,0.0
9.775,1.043,-0.655,0.0
9.264,0.989,-0.674,0.0
8.853,0.945,-0.695,0.0
11.505,1.226,-0.585,0.0
10.855,1.156,-0.614,0.0
10.206,1.087,-0.636,0.0
9.651,1.028,-0.658,0.0
9.221,0.983,-0.682,0.0
8.749,0.932,-0.698,0.0
11.343,1.206,-0.59,0.0
10.711,1.139,-0.619,0.0
10.06,1.07,-0.639,0.0
9.599,1.021,-0.666,0.0
9.11,0.969,-0.684,0.0
8.696,0.925,-0.703,0.0
11.181,1.186,-0.594,0.0
10.581,1.122,-0.623,0.0
10.015,1.062,-0.648,0.0
9.499,1.007,-0.67,0.0
0.0,0.0,0.0,0.0
8.598,0.912,-0.705,0.0
11.072,1.171,-0.601,0.0
10.441,1.104,-0.627,0.0
9.849,1.041,-0.648,0.0
9.398,0.994,-0.673,0.0
8.904,0.941,-0.689,0.0
8.483,0.897,-0.706,0.0
10.965,1.156,-0.608,0.0
10.364,1.092,-0.634,0.0
9.801,1.033,-0.656,0.0
9.302,0.98,-0.677,0.0
8.856,0.933,-0.695,0.0
8.451,0.89,-0.712,0.0
10.819,1.136,-0.611,0.0
10.267,1.078,-0.639,0.0
9.691,1.017,-0.659,0.0
0.0,0.0,0.0,0.0
8.758,0.919,-0.697,0.0
8.338,0.875,-0.712,0.0
10.722,1.122,-0.618,0.0
10.136,1.06,-0.642,0.0
9.564,1.0,-0.661,0.0
0.0,0.0,0.0,0.0
8.664,0.905,-0.699,0.0
8.323,0.87,-0.719,0.0
10.597,1.104,-0.621,0.0
10.046,1.046,-0.647,0.0
9.471,0.986,-0.664,0.0
0.0,0.0,0.0,0.0
0.0,0.0,0.0,0.0
8.211,0.854,-0.718,0.0
10.48,1.086,-0.625,0.0
9.946,1.03,-0.65,0.0
9.416,0.975,-0.67,0.0
8.876,0.919,-0.683,0.0
8.551,0.885,-0.707,0.0
8.167,0.845,-0.723,0.0
10.382,1.07,-0.63,0.0
9.788,1.008,-0.65,0.0
9.339,0.962,-0.674,0.0
8.873,0.913,-0.692,0.0
8.498,0.874,-0.712,0.0
8.166,0.84,-0.731,0.0
10.273,1.053,-0.633,0.0
9.733,0.997,-0.656,0.0
9.298,0.952,-0.68,0.0
0.0,0.0,0.0,0.0
8.407,0.86,-0.712,0.0
0.0,0.0,0.0,0.0
10.147,1.034,-0.635,0.0
9.629,0.98,-0.658,0.0
0.0,0.0,0.0,0.0
0.0,0.0,0.0,0.0
8.353,0.849,-0.715,0.0
0.0,0.0,0.0,0.0
10.108,1.023,-0.642,0.0
9.567,0.967,-0.662,0.0
0.0,0.0,0.0,0.0
8.741,0.883,-0.706,0.0
8.292,0.837,-0.718,0.0
0.0,0.0,0.0,0.0
10.027,1.008,-0.646,0.0
9.496,0.954,-0.666,0.0
0.0,0.0,0.0,0.0
8.564,0.859,-0.7,0.0
8.287,0.831,-0.725,0.0
0.0,0.0,0.0,0.0
9.901,0.988,-0.646,0.0
9.447,0.942,-0.671,0.0
9.001,0.897,-0.691,0.0
8.516,0.848,-0.703,0.0
8.188,0.815,-0.723,0.0
0.0,0.0,0.0,0.0
9.854,0.975,-0.652,0.0
9.399,0.93,-0.675,0.0
8.884,0.878,-0.689,0.0
8.528,0.842,-0.711,0.0
8.184,0.808,-0.729,0.0
0.0,0.0,0.0,0.0
9.745,0.957,-0.652,0.0
9.23,0.905,-0.67,0.0
8.805,0.863,-0.69,0.0
8.46,0.829,-0.712,0.0
8.129,0.795,-0.731,0.0
0.0,0.0,0.0,0.0
9.685,0.943,-0.656,0.0
0.0,0.0,0.0,0.0
8.846,0.86,-0.7,0.0
8.363,0.812,-0.71,0.0
8.101,0.786,-0.734,0.0
0.0,0.0,0.0,0.0
9.624,0.928,-0.659,0.0
0.0,0.0,0.0,0.0
8.719,0.839,-0.696,0.0
8.326,0.801,-0.713,0.0
0.0,0.0,0.0,0.0
7.66,0.736,-0.744,0.0
9.557,0.913,-0.661,0.0
0.0,0.0,0.0,0.0
8.735,0.833,-0.704,0.0
8.287,0.789,-0.716,0.0
0.0,0.0,0.0,0.0
7.563,0.719,-0.74,0.0
9.483,0.897,-0.662,0.0
0.0,0.0,0.0,0.0
8.629,0.815,-0.701,0.0
8.229,0.776,-0.716,0.0
0.0,0.0,0.0,0.0
7.589,0.714,-0.747,0.0
9.455,0.885,-0.666,0.0
0.0,0.0,0.0,0.0
8.524,0.796,-0.698,0.0
8.233,0.768,-0.722,0.0
0.0,0.0,0.0,0.0
7.53,0.701,-0.746,0.0
9.385,0.869,-0.667,0.0
0.0,0.0,0.0,0.0
8.519,0.787,-0.702,0.0
8.166,0.754,-0.721,0.0
0.0,0.0,0.0,0.0
7.49,0.69,-0.747,0.0
9.36,0.858,-0.671,0.0
8.874,0.812,-0.686,0.0
8.461,0.773,-0.702,0.0
8.12,0.741,-0.721,0.0
0.0,0.0,0.0,0.0
7.457,0.679,-0.748,0.0
9.3,0.842,-0.671,0.0
8.858,0.801,-0.69,0.0
8.472,0.765,-0.708,0.0
0.0,0.0,0.0,0.0
0.0,0.0,0.0,0.0
7.467,0.672,-0.752,0.0
9.268,0.829,-0.673,0.0
8.822,0.788,-0.691,0.0
8.404,0.75,-0.706,0.0
0.0,0.0,0.0,0.0
0.0,0.0,0.0,0.0
7.452,0.662,-0.754,0.0
9.179,0.811,-0.671,0.0
8.749,0.772,-0.689,0.0
8.39,0.739,-0.709,0.0
0.0,0.0,0.0,0.0
0.0,0.0,0.0,0.0
7.376,0.647,-0.75,0.0
9.193,0.802,-0.676,0.0
8.769,0.763,-0.694,0.0
8.378,0.728,-0.711,0.0
0.0,0.0,0.0,0.0
0.0,0.0,0.0,0.0
7.391,0.64,-0.754,0.0
9.111,0.784,-0.673,0.0
8.696,0.747,-0.692,0.0
8.407,0.721,-0.717,0.0
0.0,0.0,0.0,0.0
0.0,0.0,0.0,0.0
7.363,0.628,-0.754,0.0
9.105,0.773,-0.676,0.0
8.69,0.736,-0.694,0.0
8.336,0.705,-0.713,0.0
0.0,0.0,0.0,0.0
0.0,0.0,0.0,0.0
7.336,0.617,-0.753,0.0
9.097,0.761,-0.678,0.0
8.689,0.725,-0.697,0.0
8.299,0.691,-0.713,0.0
0.0,0.0,0.0,0.0
0.0,0.0,0.0,0.0
7.331,0.608,-0.755,0.0
9.114,0.751,-0.682,0.0
8.621,0.709,-0.694,0.0
8.289,0.68,-0.714,0.0
0.0,0.0,0.0,0.0
0.0,0.0,0.0,0.0
7.331,0.598,-0.757,0.0
9.071,0.736,-0.681,0.0
8.677,0.703,-0.7,0.0
8.269,0.668,-0.714,0.0
0.0,0.0,0.0,0.0
0.0,0.0,0.0,0.0
7.318,0.588,-0.757,0.0
9.033,0.721,-0.68,0.0
8.695,0.693,-0.703,0.0
8.28,0.658,-0.716,0.0
0.0,0.0,0.0,0.0
0.0,0.0,0.0,0.0
7.297,0.577,-0.756,0.0
9.019,0.709,-0.68,0.0
8.652,0.678,-0.701,0.0
0.0,0.0,0.0,0.0
0.0,0.0,0.0,0.0
0.0,0.0,0.0,0.0
7.3,0.567,-0.757,0.0
9.043,0.699,-0.682,0.0
0.0,0.0,0.0,0.0
0.0,0.0,0.0,0.0
0.0,0.0,0.0,0.0
0.0,0.0,0.0,0.0
7.29,0.557,-0.756,0.0
9.009,0.684,-0.68,0.0
8.634,0.654,-0.701,0.0
0.0,0.0,0.0,0.0
0.0,0.0,0.0,0.0
0.0,0.0,0.0,0.0
7.304,0.548,-0.758,0.0
8.995,0.671,-0.679,0.0
8.591,0.639,-0.697,0.0
0.0,0.0,0.0,0.0
0.0,0.0,0.0,0.0
0.0,0.0,0.0,0.0
7.267,0.536,-0.754,0.0
9.014,0.66,-0.681,0.0
0.0,0.0,0.0,0.0
0.0,0.0,0.0,0.0
0.0,0.0,0.0,0.0
0.0,0.0,0.0,0.0
7.266,0.525,-0.753,0.0
8.992,0.646,-0.678,0.0
0.0,0.0,0.0,0.0
0.0,0.0,0.0,0.0
0.0,0.0,0.0,0.0
7.307,0.518,-0.757,0.0
9.035,0.637,-0.681,0.0
0.0,0.0,0.0,0.0
0.0,0.0,0.0,0.0
0.0,0.0,0.0,0.0
7.312,0.508,-0.756,0.0
9.007,0.622,-0.677,0.0
0.0,0.0,0.0,0.0
0.0,0.0,0.0,0.0
0.0,0.0,0.0,0.0
0.0,0.0,0.0,0.0
7.309,0.498,-0.754,0.0
9.06,0.613,-0.679,0.0
0.0,0.0,0.0,0.0
0.0,0.0,0.0,0.0
0.0,0.0,0.0,0.0
0.0,0.0,0.0,0.0
7.315,0.488,-0.753,0.0
9.08,0.602,-0.678,0.0
0.0,0.0,0.0,0.0
0.0,0.0,0.0,0.0
0.0,0.0,0.0,0.0
0.0,0.0,0.0,0.0
7.352,0.48,-0.755,0.0
9.101,0.59,-0.677,0.0
8.692,0.562,-0.695,0.0
0.0,0.0,0.0,0.0
0.0,0.0,0.0,0.0
0.0,0.0,0.0,0.0
7.35,0.469,-0.752,0.0
9.088,0.576,-0.673,0.0
0.0,0.0,0.0,0.0
0.0,0.0,0.0,0.0
0.0,0.0,0.0,0.0
0.0,0.0,0.0,0.0
7.377,0.46,-0.752,0.0
0.0,0.0,0.0,0.0
0.0,0.0,0.0,0.0
0.0,0.0,0.0,0.0
0.0,0.0,0.0,0.0
0.0,0.0,0.0,0.0
7.365,0.449,-0.748,0.0
0.0,0.0,0.0,0.0
8.727,0.526,-0.688,0.0
0.0,0.0,0.0,0.0
0.0,0.0,0.0,0.0
0.0,0.0,0.0,0.0
7.43,0.442,-0.751,0.0
9.215,0.544,-0.671,0.0
0.0,0.0,0.0,0.0
0.0,0.0,0.0,0.0
0.0,0.0,0.0,0.0
0.0,0.0,0.0,0.0
7.43,0.431,-0.748,0.0
9.227,0.532,-0.667,0.0
0.0,0.0,0.0,0.0
0.0,0.0,0.0,0.0
0.0,0.0,0.0,0.0
0.0,0.0,0.0,0.0
7.482,0.423,-0.749,0.0
9.255,0.52,-0.664,0.0
0.0,0.0,0.0,0.0
0.0,0.0,0.0,0.0
0.0,0.0,0.0,0.0
0.0,0.0,0.0,0.0
7.466,0.411,-0.743,0.0
9.341,0.511,-0.665,0.0
0.0,0.0,0.0,0.0
0.0,0.0,0.0,0.0
0.0,0.0,0.0,0.0
0.0,0.0,0.0,0.0
0.0,0.0,0.0,0.0
9.378,0.499,-0.662,0.0
8.917,0.473,-0.678,0.0
0.0,0.0,0.0,0.0
0.0,0.0,0.0,0.0
0.0,0.0,0.0,0.0
0.0,0.0,0.0,0.0
0.0,0.0,0.0,0.0
0.0,0.0,0.0,0.0
0.0,0.0,0.0,0.0
0.0,0.0,0.0,0.0
0.0,0.0,0.0,0.0
9.45,0.475,-0.654,0.0
9.033,0.452,-0.674,0.0
0.0,0.0,0.0,0.0
0.0,0.0,0.0,0.0
0.0,0.0,0.0,0.0
9.576,0.468,-0.655,0.0
0.0,0.0,0.0,0.0
0.0,0.0,0.0,0.0
0.0,0.0,0.0,0.0
0.0,0.0,0.0,0.0
0.0,0.0,0.0,0.0
9.637,0.457,-0.651,0.0
0.0,0.0,0.0,0.0
8.763,0.411,-0.688,0.0
0.0,0.0,0.0,0.0
0.0,0.0,0.0,0.0
0.0,0.0,0.0,0.0
9.684,0.445,-0.646,0.0
0.0,0.0,0.0,0.0
8.798,0.4,-0.683,0.0
0.0,0.0,0.0,0.0
0.0,0.0,0.0,0.0
9.784,0.436,-0.644,0.0
0.0,0.0,0.0,0.0
0.0,0.0,0.0,0.0
0.0,0.0,0.0,0.0
0.0,0.0,0.0,0.0
9.918,0.427,-0.644,0.0
0.0,0.0,0.0,0.0
0.0,0.0,0.0,0.0
0.0,0.0,0.0,0.0
0.0,0.0,0.0,0.0
0.0,0.0,0.0,0.0
9.954,0.415,-0.636,0.0
9.552,0.396,-0.662,0.0
0.0,0.0,0.0,0.0
0.0,0.0,0.0,0.0
8.328,0.34,-0.714,0.0
0.0,0.0,0.0,0.0
10.1,0.407,-0.635,0.0
9.537,0.382,-0.651,0.0
0.0,0.0,0.0,0.0
0.0,0.0,0.0,0.0
0.0,0.0,0.0,0.0
0.0,0.0,0.0,0.0
10.159,0.395,-0.628,0.0
9.667,0.373,-0.65,0.0
0.0,0.0,0.0,0.0
0.0,0.0,0.0,0.0
0.0,0.0,0.0,0.0
8.114,0.306,-0.722,0.0
10.2,0.382,-0.62,0.0
9.791,0.364,-0.648,0.0
0.0,0.0,0.0,0.0
0.0,0.0,0.0,0.0
8.446,0.309,-0.696,0.0
8.139,0.296,-0.715,0.0
10.406,0.375,-0.62,0.0
9.866,0.354,-0.641,0.0
9.438,0.336,-0.664,0.0
0.0,0.0,0.0,0.0
8.604,0.303,-0.699,0.0
8.218,0.287,-0.712,0.0
10.494,0.364,-0.613,0.0
10.017,0.346,-0.639,0.0
0.0,0.0,0.0,0.0
0.0,0.0,0.0,0.0
0.0,0.0,0.0,0.0
8.347,0.28,-0.713,0.0
10.612,0.354,-0.607,0.0
10.098,0.335,-0.632,0.0
9.603,0.316,-0.653,0.0
9.166,0.3,-0.673,0.0
0.0,0.0,0.0,0.0
8.418,0.272,-0.709,0.0
10.768,0.345,-0.603,0.0
10.225,0.326,-0.627,0.0
9.663,0.305,-0.644,0.0
0.0,0.0,0.0,0.0
0.0,0.0,0.0,0.0
8.487,0.263,-0.704,0.0
10.924,0.336,-0.597,0.0
10.305,0.314,-0.619,0.0
9.862,0.299,-0.645,0.0
0.0,0.0,0.0,0.0
8.938,0.267,-0.681,0.0
8.583,0.254,-0.7,0.0
11.09,0.326,-0.592,0.0
10.52,0.307,-0.617,0.0
9.995,0.29,-0.64,0.0
0.0,0.0,0.0,0.0
9.07,0.259,-0.679,0.0
8.633,0.245,-0.692,0.0
11.259,0.317,-0.586,0.0
10.62,0.297,-0.609,0.0
10.08,0.279,-0.632,0.0
9.579,0.263,-0.652,0.0
9.246,0.252,-0.679,0.0
8.694,0.235,-0.685,0.0
11.38,0.306,-0.576,0.0
10.794,0.288,-0.604,0.0
10.222,0.27,-0.626,0.0
9.756,0.256,-0.65,0.0
9.267,0.241,-0.667,0.0
8.872,0.229,-0.686,0.0
11.575,0.297,-0.569,0.0
10.936,0.278,-0.596,0.0
10.343,0.261,-0.618,0.0
9.847,0.246,-0.642,0.0
0.0,0.0,0.0,0.0
8.94,0.22,-0.678,0.0
11.8,0.288,-0.563,0.0
11.07,0.268,-0.587,0.0
10.529,0.253,-0.614,0.0
9.986,0.238,-0.636,0.0
0.0,0.0,0.0,0.0
9.069,0.212,-0.674,0.0
11.926,0.277,-0.551,0.0
11.344,0.261,-0.584,0.0
10.686,0.244,-0.607,0.0
10.135,0.229,-0.63,0.0
9.724,0.218,-0.656,0.0
0.0,0.0,0.0,0.0
12.218,0.269,-0.546,0.0
11.489,0.251,-0.574,0.0
10.888,0.235,-0.601,0.0
10.257,0.22,-0.622,0.0
9.795,0.208,-0.646,0.0
9.342,0.196,-0.665,0.0
12.394,0.259,-0.534,0.0
11.706,0.242,-0.566,0.0
11.068,0.226,-0.594,0.0
10.443,0.212,-0.616,0.0
9.938,0.199,-0.639,0.0
9.507,0.189,-0.662,0.0
12.6,0.249,-0.523,0.0
11.901,0.232,-0.556,0.0
11.225,0.217,-0.584,0.0
10.613,0.203,-0.609,0.0
10.08,0.191,-0.632,0.0
9.6,0.18,-0.652,0.0
12.794,0.238,-0.51,0.0
12.151,0.224,-0.548,0.0
11.465,0.209,-0.577,0.0
10.786,0.194,-0.601,0.0
10.281,0.183,-0.627,0.0
9.806,0.173,-0.65,0.0
13.065,0.229,-0.499,0.0
12.382,0.215,-0.538,0.0
11.693,0.2,-0.569,0.0
11.016,0.187,-0.595,0.0
10.459,0.175,-0.62,0.0
9.994,0.166,-0.645,0.0
13.383,0.22,-0.488,0.0
12.576,0.205,-0.525,0.0
11.855,0.191,-0.557,0.0
11.241,0.179,-0.588,0.0
10.662,0.168,-0.614,0.0
10.055,0.156,-0.632,0.0
13.729,0.212,-0.477,0.0
12.778,0.195,-0.511,0.0
12.127,0.183,-0.549,0.0
11.406,0.17,-0.577,0.0
10.814,0.159,-0.604,0.0
10.311,0.15,-0.63,0.0
13.996,0.202,-0.462,0.0
13.097,0.186,-0.501,0.0
12.375,0.174,-0.538,0.0
11.639,0.162,-0.568,0.0
10.993,0.151,-0.594,0.0
10.482,0.142,-0.621,0.0
14.386,0.193,-0.449,0.0
13.391,0.178,-0.488,0.0
12.549,0.164,-0.523,0.0
11.907,0.154,-0.56,0.0
11.234,0.143,-0.587,0.0
10.686,0.135,-0.614,0.0
14.717,0.184,-0.433,0.0
13.767,0.17,-0.477,0.0
12.867,0.156,-0.513,0.0
12.105,0.145,-0.547,0.0
11.451,0.135,-0.577,0.0
10.826,0.126,-0.602,0.0
15.159,0.175,-0.418,0.0
14.017,0.16,-0.46,0.0
13.104,0.147,-0.498,0.0
12.377,0.137,-0.537,0.0
11.72,0.128,-0.569,0.0
11.039,0.119,-0.594,0.0
15.675,0.168,-0.403,0.0
14.438,0.152,-0.447,0.0
13.469,0.14,-0.487,0.0
12.644,0.129,-0.524,0.0
11.949,0.12,-0.558,0.0
11.289,0.112,-0.586,0.0
16.123,0.158,-0.385,0.0
14.804,0.143,-0.43,0.0
13.772,0.131,-0.472,0.0
12.872,0.12,-0.509,0.0
12.213,0.112,-0.547,0.0
11.548,0.105,-0.577,0.0
16.58,0.149,-0.364,0.0
15.352,0.136,-0.417,0.0
14.14,0.123,-0.457,0.0
13.211,0.113,-0.497,0.0
12.428,0.104,-0.532,0.0
11.77,0.097,-0.566,0.0
17.043,0.14,-0.341,0.0
15.787,0.127,-0.398,0.0
14.536,0.115,-0.442,0.0
13.553,0.105,-0.484,0.0
12.719,0.097,-0.52,0.0
12.041,0.09,-0.555,0.0
17.605,0.131,-0.318,0.0
16.309,0.119,-0.38,0.0
14.93,0.107,-0.425,0.0
13.879,0.097,-0.468,0.0
13.027,0.09,-0.507,0.0
12.305,0.083,-0.543,0.0
18.438,0.123,-0.297,0.0
16.778,0.11,-0.357,0.0
15.572,0.1,-0.412,0.0
14.264,0.09,-0.453,0.0
13.419,0.083,-0.496,0.0
12.459,0.075,-0.525,0.0
19.244,0.115,-0.272,0.0
17.238,0.101,-0.333,0.0
15.995,0.092,-0.392,0.0
14.68,0.083,-0.437,0.0
13.716,0.075,-0.479,0.0
12.793,0.069,-0.513,0.0
20.223,0.108,-0.246,0.0
17.952,0.093,-0.311,0.0
16.51,0.084,-0.371,0.0
15.094,0.075,-0.419,0.0
14.044,0.068,-0.463,0.0
13.18,0.063,-0.502,0.0
21.337,0.1,-0.216,4.0
18.693,0.086,-0.286,0.0
16.956,0.076,-0.347,0.0
15.679,0.068,-0.403,0.0
14.462,0.061,-0.447,0.0
13.533,0.056,-0.488,0.0
22.623,0.093,-0.183,1.0
19.733,0.079,-0.262,0.0
17.554,0.068,-0.324,0.0
16.239,0.061,-0.385,0.0
14.903,0.055,-0.43,0.0
13.91,0.05,-0.473,0.0
23.453,0.083,-0.142,0.0
20.971,0.072,-0.235,2.0
18.343,0.061,-0.3,0.0
16.716,0.054,-0.362,0.0
15.483,0.049,-0.415,0.0
14.273,0.043,-0.456,0.0
24.722,0.074,-0.099,0.0
21.794,0.063,-0.199,1.0
19.079,0.054,-0.273,0.0
17.246,0.047,-0.337,0.0
16.008,0.042,-0.396,0.0
14.665,0.037,-0.438,0.0
25.838,0.065,-0.049,0.0
23.263,0.057,-0.164,1.0
20.61,0.048,-0.252,0.0
18.037,0.041,-0.315,0.0
16.545,0.036,-0.374,0.0
15.286,0.032,-0.425,0.0
27.02,0.056,0.004,0.0
24.148,0.048,-0.12,0.0
21.364,0.041,-0.216,4.0
18.732,0.034,-0.288,0.0
16.988,0.03,-0.349,0.0
15.808,0.026,-0.406,0.0
28.515,0.047,0.064,1.0
25.51,0.04,-0.073,0.0
22.817,0.034,-0.183,0.0
19.83,0.028,-0.263,0.0
17.635,0.024,-0.325,0.0
16.287,0.021,-0.384,0.0
28.811,0.036,0.125,0.0
26.498,0.032,-0.021,0.0
23.725,0.027,-0.141,1.0
21.024,0.022,-0.235,3.0
18.377,0.018,-0.3,0.0
16.766,0.016,-0.36,0.0
30.712,0.028,0.198,0.0
27.908,0.024,0.037,0.0
25.049,0.02,-0.095,0.0
21.984,0.016,-0.199,0.0
19.371,0.013,-0.275,0.0
17.32,0.011,-0.335,0.0
33.134,0.02,0.284,0.0
28.723,0.016,0.099,1.0
26.068,0.013,-0.043,0.0
23.499,0.01,-0.162,1.0
20.77,0.008,-0.25,0.0
18.211,0.006,-0.313,0.0
35.104,0.011,0.377,0.0
30.368,0.008,0.17,0.0
27.363,0.006,0.012,0.0
24.421,0.005,-0.116,0.0
21.458,0.003,-0.212,1.0
18.937,0.002,-0.285,0.0
36.938,0.003,0.475,0.0
33.199,0.002,0.256,0.0
28.647,0.0,0.073,1.0
25.613,0.0,-0.068,0.0
23.108,0.0,-0.18,0.0
20.007,-0.001,-0.259,0.0
40.293,-0.004,0.605,0.0
0.0,0.0,0.0,0.0
30.107,-0.004,0.141,0.0
26.768,-0.004,-0.013,0.0
23.878,-0.004,-0.134,0.0
21.192,-0.004,-0.228,3.0
0.0,0.0,0.0,0.0
36.17,-0.01,0.434,0.0
31.383,-0.009,0.216,0.0
28.413,-0.009,0.046,1.0
25.408,-0.008,-0.088,0.0
22.296,-0.008,-0.192,0.0
0.0,0.0,0.0,0.0
0.0,0.0,0.0,0.0
33.233,-0.013,0.3,0.0
28.725,-0.012,0.108,0.0
26.22,-0.011,-0.035,0.0
23.658,-0.01,-0.153,1.0
0.0,0.0,0.0,0.0
43.697,-0.021,0.713,0.0
0.0,0.0,0.0,0.0
30.667,-0.015,0.181,0.0
27.659,-0.013,0.021,0.0
24.934,-0.012,-0.108,0.0
0.0,0.0,0.0,0.0
0.0,0.0,0.0,0.0
0.0,0.0,0.0,0.0
33.068,-0.017,0.267,0.0
28.667,-0.014,0.084,1.0
25.86,-0.013,-0.056,0.0
78.303,-0.042,2.017,2.0
0.0,0.0,0.0,0.0
41.878,-0.021,0.647,0.0
34.711,-0.017,0.353,0.0
30.01,-0.015,0.151,0.0
27.162,-0.013,-0.002,0.0
78.251,-0.04,2.181,3.0
0.0,0.0,0.0,0.0
0.0,0.0,0.0,0.0
36.847,-0.017,0.454,0.0
32.039,-0.014,0.23,0.0
28.579,-0.012,0.058,1.0
82.907,-0.037,2.489,8.0
0.0,0.0,0.0,0.0
0.0,0.0,0.0,0.0
40.956,-0.015,0.593,0.0
0.0,0.0,0.0,0.0
30.131,-0.009,0.126,0.0
83.318,-0.029,2.679,11.0
77.999,-0.025,2.106,4.0
0.0,0.0,0.0,0.0
0.0,0.0,0.0,0.0
35.864,-0.008,0.411,0.0
31.132,-0.006,0.196,0.0
83.33,-0.017,2.857,11.0
82.787,-0.015,2.411,5.0
0.0,0.0,0.0,0.0
0.0,0.0,0.0,0.0
37.91,-0.002,0.514,0.0
33.25,0.0,0.28,0.0
108.958,-0.004,3.966,7.0
83.234,0.0,2.6,12.0
77.802,0.003,2.03,2.0
0.0,0.0,0.0,0.0
42.374,0.005,0.664,0.0
0.0,0.0,0.0,0.0
0.0,0.0,0.0,0.0
83.295,0.018,2.779,18.0
82.663,0.022,2.332,1.0
0.0,0.0,0.0,0.0
0.0,0.0,0.0,0.0
0.0,0.0,0.0,0.0
0.0,0.0,0.0,0.0
83.308,0.039,2.956,19.0
83.072,0.044,2.517,9.0
77.585,0.046,1.944,0.0
0.0,0.0,0.0,0.0
40.324,0.028,0.593,0.0
202.406,0.141,8.647,7.0
83.332,0.063,3.13,17.0
83.242,0.069,2.696,17.0
77.321,0.069,2.098,2.0
0.0,0.0,0.0,0.0
0.0,0.0,0.0,0.0
201.98,0.207,9.053,9.0
83.319,0.091,3.304,20.0
83.26,0.097,2.871,26.0
82.776,0.102,2.419,5.0
0.0,0.0,0.0,0.0
0.0,0.0,0.0,0.0
83.274,0.115,3.906,1.0
83.324,0.121,3.478,26.0
83.287,0.128,3.045,35.0
78.112,0.126,2.444,14.0
76.795,0.13,2.006,2.0
0.0,0.0,0.0,0.0
83.287,0.148,4.078,13.0
83.295,0.154,3.647,40.0
83.266,0.162,3.214,37.0
78.046,0.158,2.601,18.0
77.891,0.165,2.193,3.0
0.0,0.0,0.0,0.0
83.263,0.183,4.247,18.0
83.271,0.191,3.815,46.0
83.257,0.198,3.383,41.0
83.229,0.206,2.942,29.0
83.07,0.213,2.507,9.0
76.182,0.203,1.906,3.0
83.236,0.222,4.415,22.0
83.264,0.23,3.984,41.0
83.25,0.238,3.551,43.0
83.256,0.246,3.11,40.0
83.205,0.254,2.678,19.0
76.314,0.241,2.062,3.0
83.219,0.263,4.581,25.0
83.235,0.272,4.15,33.0
83.244,0.28,3.718,43.0
83.253,0.289,3.278,41.0
83.251,0.298,2.845,12.0
82.879,0.306,2.404,3.0
83.199,0.308,4.747,31.0
83.228,0.317,4.316,34.0
83.247,0.327,3.884,41.0
83.263,0.336,3.444,48.0
83.295,0.345,3.014,32.0
78.1,0.332,2.42,17.0
83.163,0.355,4.91,24.0
83.24,0.365,4.481,25.0
83.252,0.375,4.049,34.0
83.298,0.385,3.608,30.0
83.325,0.394,3.176,10.0
78.093,0.379,2.572,9.0
83.159,0.405,5.072,22.0
83.274,0.416,4.645,6.0
79.346,0.406,4.011,7.0
79.334,0.415,3.59,7.0
79.321,0.425,3.177,9.0
78.074,0.428,2.722,8.0
79.362,0.437,4.994,17.0
79.305,0.447,4.577,5.0
79.328,0.457,4.164,10.0
79.325,0.467,3.741,7.0
79.369,0.477,3.331,11.0
79.389,0.488,2.919,10.0
79.366,0.49,5.147,6.0
79.313,0.5,4.728,3.0
79.285,0.51,4.313,9.0
79.323,0.522,3.894,9.0
79.353,0.533,3.482,11.0
79.403,0.544,3.07,2.0
79.331,0.546,5.296,5.0
79.279,0.556,4.877,3.0
79.333,0.567,4.466,7.0
79.32,0.578,4.042,9.0
79.343,0.59,3.63,9.0
79.398,0.602,3.218,8.0
76.816,0.585,5.272,16.0
76.611,0.594,4.856,4.0
79.396,0.627,4.617,2.0
79.349,0.638,4.19,7.0
79.354,0.65,3.776,6.0
79.403,0.662,3.364,7.0
62.767,0.525,4.423,8.0
76.545,0.652,4.993,17.0
76.72,0.665,4.602,5.0
79.345,0.7,4.335,7.0
79.349,0.712,3.92,7.0
79.373,0.724,3.506,11.0
62.89,0.576,4.546,15.0
76.699,0.714,5.141,18.0
79.369,0.752,4.904,3.0
79.329,0.763,4.476,9.0
79.363,0.776,4.063,9.0
93.016,0.924,4.275,4.0
89.984,0.898,6.666,11.0
76.119,0.772,5.238,33.0
76.61,0.789,4.869,16.0
89.755,0.938,5.223,29.0
89.132,0.946,4.719,10.0
92.551,0.997,4.415,15.0
63.458,0.687,4.812,14.0
83.11,0.913,5.865,13.0
76.39,0.852,4.989,22.0
76.566,0.867,4.59,27.0
90.624,1.042,4.956,21.0
92.495,1.078,4.573,17.0
63.174,0.74,4.902,14.0
83.063,0.987,6.006,12.0
76.242,0.919,5.111,20.0
76.448,0.934,4.714,43.0
76.609,0.949,4.321,28.0
76.717,0.964,3.924,5.0
87.552,1.106,6.944,11.0
63.303,0.811,4.687,27.0
76.234,0.99,5.242,21.0
76.429,1.006,4.845,30.0
76.509,1.02,4.445,23.0
76.604,1.035,4.048,21.0
63.021,0.856,5.106,13.0
58.97,0.811,4.465,19.0
76.325,1.063,5.376,42.0
76.578,1.081,4.981,18.0
76.506,1.094,4.573,16.0
76.555,1.108,4.173,32.0
59.004,0.859,4.88,28.0
76.217,1.123,5.898,23.0
63.177,0.942,4.554,27.0
76.675,1.157,5.114,24.0
76.595,1.171,4.704,24.0
76.529,1.184,4.295,22.0
59.082,0.919,4.982,19.0
58.992,0.928,4.661,12.0
63.122,1.005,4.653,19.0
76.71,1.235,5.239,27.0
84.722,1.38,5.337,17.0
76.6,1.261,4.419,16.0
58.741,0.973,5.046,19.0
63.315,1.061,5.102,5.0
83.435,1.413,6.279,16.0
76.686,1.313,5.357,17.0
85.017,1.472,5.488,16.0
84.455,1.478,5.004,26.0
0.0,0.0,0.0,0.0
62.821,1.118,5.16,8.0
76.986,1.386,5.914,11.0
76.713,1.395,5.477,9.0
89.21,1.639,5.896,9.0
83.899,1.559,5.099,22.0
57.285,1.07,5.098,20.0
63.522,1.199,5.315,37.0
63.062,1.203,4.94,27.0
76.799,1.479,5.598,37.0
88.593,1.724,5.987,6.0
83.834,1.648,5.221,24.0
57.331,1.134,5.188,23.0
63.819,1.275,5.434,13.0
63.039,1.272,5.031,11.0
83.445,1.699,6.206,24.0
82.473,1.696,5.693,10.0
83.733,1.738,5.335,31.0
57.384,1.198,5.276,26.0
55.945,1.179,4.844,26.0
63.134,1.343,5.128,6.0
83.435,1.792,6.323,20.0
82.502,1.788,5.811,15.0
82.89,1.813,5.397,32.0
57.47,1.265,5.365,32.0
56.024,1.244,4.929,26.0
63.186,1.416,5.221,22.0
76.896,1.739,5.935,24.0
82.772,1.888,5.946,17.0
82.546,1.901,5.488,34.0
57.513,1.333,5.449,9.0
56.274,1.315,5.029,27.0
63.077,1.487,5.298,8.0
76.998,1.83,6.047,8.0
82.827,1.986,6.061,48.0
82.174,1.988,5.574,30.0
61.78,1.504,5.938,23.0
56.445,1.386,5.12,30.0
55.951,1.385,4.775,24.0
64.624,1.613,5.161,9.0
62.406,1.571,4.649,7.0
82.196,2.086,5.683,32.0
61.584,1.573,5.999,19.0
57.092,1.47,5.254,31.0
56.018,1.454,4.852,29.0
64.714,1.693,5.251,29.0
62.421,1.646,4.729,24.0
82.221,2.186,5.788,28.0
61.714,1.651,6.09,26.0
56.81,1.531,5.299,31.0
56.07,1.523,4.928,17.0
64.714,1.772,5.331,9.0
62.333,1.72,4.8,27.0
82.165,2.284,5.885,30.0
55.051,1.54,5.501,6.0
49.786,1.403,4.704,23.0
56.189,1.595,5.006,7.0
62.421,1.785,5.218,26.0
62.438,1.799,4.882,26.0
82.354,2.391,5.996,30.0
50.603,1.478,5.116,21.0
49.761,1.465,4.761,30.0
50.662,1.501,4.572,24.0
62.774,1.874,5.32,37.0
64.251,1.932,5.098,37.0
66.08,2.001,4.886,10.0
50.74,1.547,5.189,15.0
50.343,1.545,4.874,24.0
56.202,1.737,5.137,18.0
76.684,2.387,6.586,14.0
74.667,2.34,6.008,8.0
65.978,2.082,4.953,38.0
48.73,1.548,5.038,8.0
50.219,1.606,4.919,24.0
54.32,1.749,5.025,15.0
68.004,2.204,5.914,7.0
64.113,2.091,5.228,19.0
65.087,2.137,4.956,17.0
48.702,1.61,5.087,16.0
50.594,1.683,5.009,24.0
54.356,1.82,5.085,24.0
56.036,1.888,4.932,27.0
64.154,2.175,5.298,12.0
74.782,2.551,5.77,8.0
50.904,1.748,5.369,10.0
50.502,1.745,5.051,24.0
50.21,1.745,4.747,10.0
55.849,1.954,4.971,30.0
64.254,2.262,5.369,6.0
56.089,1.987,4.382,17.0
50.963,1.818,5.426,6.0
50.631,1.817,5.113,24.0
50.402,1.819,4.815,24.0
55.297,2.007,4.974,29.0
56.24,2.053,4.753,20.0
56.023,2.057,4.429,28.0
51.036,1.887,5.482,15.0
56.295,2.093,5.738,14.0
50.474,1.888,4.868,25.0
55.31,2.081,5.026,10.0
66.686,2.522,5.696,12.0
56.127,2.135,4.488,28.0
51.047,1.956,5.529,5.0
50.58,1.948,5.2,19.0
49.951,1.934,4.861,31.0
50.098,1.95,4.596,24.0
68.661,2.688,5.923,13.0
56.365,2.218,4.555,25.0
45.372,1.798,4.952,17.0
50.535,2.013,5.238,15.0
50.042,2.004,4.912,23.0
49.829,2.006,4.613,23.0
56.947,2.304,4.959,30.0
56.468,2.297,4.609,25.0
45.302,1.856,4.981,34.0
48.341,1.99,5.049,14.0
50.201,2.077,4.967,33.0
49.774,2.07,4.646,20.0
55.35,2.313,4.863,16.0
0.0,0.0,0.0,0.0
45.439,1.922,5.031,38.0
48.346,2.055,5.086,30.0
50.197,2.144,5.004,24.0
0.0,0.0,0.0,0.0
55.39,2.389,4.907,22.0
58.211,2.524,4.837,20.0
45.483,1.986,5.069,36.0
48.338,2.12,5.12,22.0
50.227,2.213,5.042,21.0
49.73,2.201,4.713,14.0
54.222,2.412,4.841,7.0
58.141,2.599,4.871,12.0
48.389,2.178,5.426,5.0
56.394,2.55,6.011,20.0
50.292,2.284,5.082,24.0
0.0,0.0,0.0,0.0
51.661,2.368,4.645,11.0
58.183,2.679,4.912,7.0
48.343,2.241,5.451,28.0
56.328,2.623,6.039,12.0
50.411,2.357,5.125,24.0
49.756,2.337,4.778,15.0
54.486,2.57,4.932,27.0
49.222,2.332,4.184,20.0
48.323,2.306,5.478,23.0
49.355,2.366,5.32,23.0
50.448,2.428,5.158,23.0
49.725,2.403,4.804,14.0
53.515,2.597,4.874,8.0
49.317,2.404,4.219,21.0
48.3,2.371,5.501,23.0
49.313,2.431,5.342,11.0
50.534,2.501,5.194,24.0
49.756,2.473,4.833,32.0
49.636,2.477,4.546,20.0
49.363,2.474,4.248,30.0
48.993,2.472,5.605,24.0
50.536,2.56,5.5,13.0
50.407,2.563,5.205,30.0
49.704,2.537,4.851,21.0
49.654,2.544,4.57,24.0
49.453,2.544,4.278,32.0
47.797,2.476,5.49,20.0
48.311,2.512,5.279,22.0
49.736,2.596,5.157,25.0
49.821,2.611,4.884,20.0
49.723,2.615,4.598,22.0
58.557,3.091,5.09,13.0
0.0,0.0,0.0,0.0
47.93,2.557,5.257,22.0
49.498,2.65,5.152,24.0
50.01,2.687,4.921,24.0
49.695,2.68,4.614,20.0
63.154,3.419,5.513,19.0
0.0,0.0,0.0,0.0
47.989,2.625,5.28,22.0
49.148,2.697,5.133,23.0
49.824,2.744,4.92,23.0
49.719,2.747,4.632,27.0
49.279,2.733,4.317,26.0
47.404,2.647,5.496,22.0
48.0,2.689,5.296,22.0
53.021,2.98,5.553,26.0
51.857,2.925,5.136,9.0
49.721,2.814,4.647,32.0
49.316,2.801,4.334,20.0
47.154,2.697,5.48,15.0
47.725,2.738,5.278,21.0
48.44,2.788,5.086,22.0
49.411,2.853,4.906,23.0
57.308,3.32,5.37,16.0
49.456,2.874,4.358,19.0
46.246,2.707,5.385,21.0
45.688,2.682,5.063,23.0
48.204,2.838,5.071,12.0
49.575,2.929,4.932,23.0
57.687,3.419,5.416,48.0
49.506,2.943,4.372,20.0
45.881,2.746,5.351,20.0
45.184,2.712,5.015,26.0
48.168,2.9,5.075,15.0
48.814,2.947,4.865,23.0
57.74,3.497,5.431,11.0
57.713,3.507,5.105,21.0
45.099,2.759,5.266,17.0
44.786,2.747,4.977,19.0
44.501,2.738,4.695,18.0
48.874,3.016,4.876,23.0
54.984,3.402,5.177,6.0
59.586,3.698,5.277,6.0
45.535,2.845,5.321,20.0
44.775,2.805,4.979,28.0
49.24,3.093,5.198,23.0
51.827,3.264,5.174,10.0
52.303,3.303,4.928,10.0
0.0,0.0,0.0,0.0
33.914,2.162,3.965,22.0
44.706,2.858,4.973,32.0
0.0,0.0,0.0,0.0
51.715,3.323,5.164,17.0
52.195,3.363,4.918,20.0
58.097,3.754,5.149,19.0
33.917,2.206,3.965,25.0
45.001,2.934,5.006,19.0
0.0,0.0,0.0,0.0
51.602,3.381,5.152,19.0
63.019,4.14,5.937,20.0
0.0,0.0,0.0,0.0
33.938,2.25,3.966,24.0
49.372,3.281,5.49,7.0
49.184,3.276,5.191,12.0
51.568,3.443,5.145,12.0
62.966,4.214,5.928,19.0
59.293,3.978,5.248,21.0
33.891,2.289,3.958,24.0
33.626,2.276,3.736,22.0
49.225,3.339,5.19,7.0
48.355,3.288,4.82,10.0
62.951,4.29,5.92,11.0
59.233,4.046,5.236,20.0
33.688,2.316,3.93,33.0
33.645,2.318,3.733,14.0
54.413,3.757,5.73,8.0
48.295,3.342,4.807,21.0
51.99,3.607,4.88,20.0
59.115,4.11,5.216,7.0
33.712,2.359,3.927,32.0
33.589,2.355,3.721,12.0
54.589,3.836,5.738,16.0
48.315,3.402,4.8,26.0
51.98,3.667,4.87,11.0
51.857,3.667,4.565,15.0
33.677,2.397,3.915,30.0
33.664,2.401,3.722,29.0
51.883,3.708,5.442,7.0
48.32,3.46,4.789,22.0
59.317,4.256,5.543,24.0
58.8,4.228,5.162,19.0
33.712,2.439,3.911,31.0
33.697,2.443,3.717,25.0
48.357,3.513,5.059,22.0
48.458,3.527,4.789,5.0
58.95,4.299,5.492,32.0
58.801,4.297,5.145,11.0
33.716,2.479,3.901,31.0
33.815,2.491,3.72,26.0
48.407,3.572,5.049,22.0
59.665,4.411,5.878,7.0
58.807,4.356,5.459,16.0
51.889,3.851,4.523,21.0
33.732,2.519,3.891,29.0
33.917,2.537,3.719,30.0
48.368,3.624,5.028,34.0
43.157,3.239,4.236,18.0
58.776,4.419,5.435,28.0
51.903,3.909,4.505,22.0
33.809,2.562,3.887,31.0
33.933,2.576,3.707,13.0
51.761,3.935,5.36,5.0
43.171,3.287,4.22,18.0
51.87,3.957,4.775,21.0
51.895,3.966,4.483,31.0
33.809,2.599,3.873,32.0
48.524,3.736,5.281,16.0
49.88,3.847,5.143,12.0
42.925,3.315,4.177,22.0
51.85,4.01,4.751,10.0
51.882,4.02,4.459,21.0
33.776,2.632,3.854,30.0
48.538,3.789,5.26,20.0
49.809,3.894,5.112,12.0
42.899,3.359,4.154,29.0
51.891,4.069,4.729,5.0
51.891,4.075,4.434,31.0
33.843,2.673,3.844,28.0
48.593,3.844,5.241,22.0
43.277,3.428,4.42,14.0
42.906,3.403,4.132,23.0
49.531,3.935,4.488,19.0
51.913,4.13,4.408,22.0
33.836,2.707,3.825,28.0
49.974,4.004,5.363,24.0
49.455,3.968,5.023,8.0
42.924,3.448,4.11,23.0
49.5,3.982,4.457,10.0
51.926,4.183,4.38,17.0
33.836,2.741,3.805,24.0
50.201,4.071,5.357,16.0
43.2,3.508,4.362,30.0
42.961,3.493,4.088,17.0
60.375,4.916,5.4,24.0
51.956,4.235,4.351,13.0
33.796,2.771,3.779,23.0
50.162,4.117,5.322,24.0
43.075,3.539,4.322,32.0
42.942,3.532,4.059,17.0
60.204,4.959,5.346,31.0
59.726,4.925,4.963,17.0
33.83,2.805,3.761,16.0
43.282,3.593,4.563,18.0
43.088,3.58,4.295,23.0
49.082,4.082,4.607,6.0
59.332,4.94,5.229,28.0
59.485,4.959,4.903,28.0
42.612,3.572,4.708,3.0
43.164,3.621,4.52,18.0
43.054,3.616,4.261,37.0
49.003,4.12,4.564,7.0
59.417,5.0,5.194,33.0
43.051,3.627,3.517,20.0
42.564,3.605,4.671,27.0
43.085,3.653,4.48,18.0
42.935,3.643,4.218,33.0
48.94,4.156,4.522,11.0
59.472,5.056,5.155,18.0
51.78,4.406,4.192,13.0
42.078,3.599,4.586,17.0
43.094,3.689,4.448,41.0
42.908,3.676,4.182,31.0
48.927,4.196,4.483,23.0
43.646,3.746,3.749,20.0
51.78,4.449,4.152,17.0
42.257,3.649,4.572,29.0
43.114,3.726,4.416,32.0
42.92,3.712,4.149,28.0
48.881,4.231,4.439,11.0
51.64,4.474,4.393,6.0
42.903,3.72,3.405,25.0
42.183,3.675,4.528,17.0
43.104,3.758,4.378,28.0
42.884,3.742,4.109,42.0
51.558,4.502,4.639,11.0
43.087,3.765,3.63,23.0
51.804,4.531,4.067,5.0
42.59,3.743,4.535,11.0
43.024,3.783,4.333,37.0
42.89,3.774,4.072,42.0
43.619,3.841,3.886,28.0
43.07,3.795,3.59,27.0
51.845,4.572,4.025,8.0
42.75,3.787,4.514,22.0
43.024,3.814,4.294,38.0
42.95,3.809,4.039,31.0
43.582,3.867,3.844,26.0
43.033,3.821,3.548,17.0
51.863,4.609,3.979,20.0
0.0,0.0,0.0,0.0
34.223,0.529,0.33,0.0
28.852,0.436,0.118,6.0
25.885,0.382,-0.04,0.0
23.023,0.332,-0.163,0.0
19.999,0.282,-0.252,0.0
39.014,0.534,0.581,0.0
32.988,0.44,0.308,0.0
28.826,0.374,0.109,6.0
25.751,0.325,-0.047,0.0
22.95,0.282,-0.169,0.0
19.82,0.237,-0.256,0.0
0.0,0.0,0.0,0.0
33.005,0.37,0.299,0.0
28.827,0.313,0.102,6.0
25.584,0.269,-0.053,0.0
22.339,0.227,-0.17,0.0
19.593,0.192,-0.257,0.0
38.408,0.363,0.552,0.0
32.871,0.298,0.291,0.0
28.77,0.251,0.095,5.0
25.5,0.213,-0.058,0.0
22.416,0.18,-0.175,2.0
19.476,0.149,-0.26,0.0
0.0,0.0,0.0,0.0
32.615,0.227,0.282,0.0
28.685,0.189,0.09,1.0
25.437,0.159,-0.063,0.0
22.382,0.132,-0.179,2.0
19.45,0.108,-0.263,0.0
0.0,0.0,0.0,0.0
32.159,0.155,0.273,0.0
28.547,0.127,0.085,1.0
25.41,0.104,-0.066,0.0
22.348,0.084,-0.182,1.0
19.308,0.065,-0.263,0.0
37.508,0.113,0.522,0.0
31.737,0.084,0.266,0.0
28.682,0.066,0.082,4.0
25.223,0.049,-0.068,0.0
22.08,0.035,-0.182,0.0
19.294,0.023,-0.265,0.0
0.0,0.0,0.0,0.0
33.139,0.017,0.275,0.0
28.501,0.004,0.08,1.0
25.271,-0.004,-0.07,0.0
22.06,-0.012,-0.183,0.0
19.333,-0.017,-0.266,0.0
37.241,-0.047,0.513,0.0
31.647,-0.051,0.262,0.0
28.667,-0.056,0.079,4.0
25.296,-0.059,-0.071,0.0
22.119,-0.059,-0.184,0.0
19.236,-0.058,-0.265,0.0
0.0,0.0,0.0,0.0
31.943,-0.12,0.264,1.0
28.674,-0.118,0.079,5.0
25.233,-0.113,-0.071,0.0
22.088,-0.107,-0.183,0.0
19.308,-0.1,-0.266,0.0
37.861,-0.21,0.522,0.0
31.953,-0.189,0.265,1.0
28.646,-0.18,0.08,5.0
25.106,-0.167,-0.069,0.0
22.265,-0.156,-0.183,0.0
19.356,-0.142,-0.266,0.0
0.0,0.0,0.0,0.0
32.28,-0.26,0.27,1.0
28.659,-0.241,0.083,4.0
25.411,-0.223,-0.068,0.0
22.542,-0.206,-0.184,1.0
19.398,-0.185,-0.264,0.0
37.404,-0.368,0.522,0.0
32.42,-0.33,0.275,2.0
28.549,-0.302,0.086,1.0
25.446,-0.278,-0.065,0.0
22.639,-0.255,-0.181,1.0
19.431,-0.226,-0.262,0.0
0.0,0.0,0.0,0.0
32.583,-0.402,0.281,1.0
28.537,-0.363,0.09,1.0
25.408,-0.332,-0.06,0.0
22.585,-0.303,-0.177,0.0
19.469,-0.269,-0.259,0.0
38.319,-0.541,0.547,0.0
32.656,-0.473,0.288,0.0
28.578,-0.424,0.096,1.0
25.397,-0.386,-0.055,0.0
22.669,-0.353,-0.173,0.0
19.502,-0.311,-0.256,0.0
0.0,0.0,0.0,0.0
33.286,-0.552,0.301,1.0
28.616,-0.484,0.102,0.0
25.71,-0.445,-0.05,0.0
22.795,-0.403,-0.169,0.0
19.689,-0.355,-0.253,0.0
0.0,0.0,0.0,0.0
33.339,-0.623,0.31,2.0
28.714,-0.547,0.11,7.0
25.883,-0.503,-0.044,0.0
23.131,-0.458,-0.165,0.0
19.787,-0.399,-0.249,0.0
0.0,0.0,0.0,0.0
33.187,-0.69,0.318,1.0
28.712,-0.608,0.119,6.0
26.136,-0.563,-0.036,0.0
23.311,-0.51,-0.159,0.0
19.776,-0.44,-0.242,0.0
0.0,0.0,0.0,0.0
33.524,-0.768,0.332,1.0
28.706,-0.668,0.128,6.0
26.276,-0.621,-0.027,0.0
23.441,-0.563,-0.152,0.0
20.004,-0.487,-0.238,0.0
0.0,0.0,0.0,0.0
33.462,-0.837,0.344,0.0
28.721,-0.729,0.139,3.0
26.412,-0.679,-0.017,0.0
23.432,-0.611,-0.143,0.0
20.748,-0.549,-0.239,0.0
40.276,-1.076,0.649,0.0
34.205,-0.926,0.366,0.0
28.837,-0.792,0.152,0.0
26.607,-0.74,-0.006,0.0
23.468,-0.662,-0.133,0.0
20.954,-0.598,-0.232,1.0
0.0,0.0,0.0,0.0
34.895,-1.018,0.389,0.0
0.0,0.0,0.0,0.0
27.191,-0.813,0.005,0.0
23.517,-0.711,-0.122,0.0
21.043,-0.644,-0.223,2.0
0.0,0.0,0.0,0.0
35.501,-1.108,0.412,0.0
30.368,-0.959,0.188,0.0
27.415,-0.875,0.018,0.0
23.697,-0.765,-0.111,0.0
21.109,-0.689,-0.214,2.0
0.0,0.0,0.0,0.0
35.908,-1.195,0.435,0.0
30.99,-1.042,0.208,0.0
27.492,-0.934,0.033,0.0
24.515,-0.842,-0.102,0.0
21.318,-0.739,-0.204,1.0
0.0,0.0,0.0,0.0
36.189,-1.277,0.458,0.0
31.454,-1.121,0.228,0.0
28.388,-1.021,0.05,1.0
0.0,0.0,0.0,0.0
21.982,-0.807,-0.198,0.0
0.0,0.0,0.0,0.0
0.0,0.0,0.0,0.0
31.949,-1.202,0.251,0.0
28.53,-1.083,0.067,5.0
25.278,-0.969,-0.076,0.0
22.421,-0.867,-0.189,1.0
0.0,0.0,0.0,0.0
0.0,0.0,0.0,0.0
32.168,-1.274,0.272,0.0
28.585,-1.142,0.085,7.0
25.825,-1.041,-0.062,1.0
22.633,-0.92,-0.176,2.0
0.0,0.0,0.0,0.0
0.0,0.0,0.0,0.0
32.628,-1.355,0.297,0.0
28.6,-1.198,0.103,7.0
25.956,-1.096,-0.045,3.0
23.08,-0.983,-0.164,1.0
0.0,0.0,0.0,0.0
0.0,0.0,0.0,0.0
33.596,-1.461,0.329,0.0
28.63,-1.255,0.123,4.0
26.131,-1.154,-0.027,2.0
23.454,-1.044,-0.15,1.0
0.0,0.0,0.0,0.0
0.0,0.0,0.0,0.0
34.119,-1.549,0.358,0.0
28.545,-1.306,0.144,0.0
26.711,-1.231,-0.008,1.0
23.672,-1.099,-0.135,1.0
0.0,0.0,0.0,0.0
0.0,0.0,0.0,0.0
35.502,-1.679,0.4,0.0
30.38,-1.447,0.176,0.0
27.493,-1.319,0.011,6.0
23.794,-1.149,-0.117,0.0
0.0,0.0,0.0,0.0
43.558,-2.127,0.758,0.0
36.292,-1.784,0.437,0.0
30.597,-1.515,0.201,0.0
27.746,-1.383,0.033,7.0
25.009,-1.255,-0.103,0.0
0.0,0.0,0.0,0.0
44.087,-2.236,0.803,0.0
37.286,-1.903,0.479,0.0
31.415,-1.614,0.232,0.0
28.167,-1.457,0.057,4.0
25.097,-1.306,-0.082,0.0
34.279,-1.791,0.837,0.0
34.431,-1.809,0.656,2.0
34.559,-1.828,0.474,0.0
32.25,-1.716,0.266,1.0
28.498,-1.526,0.083,8.0
34.258,-1.846,-0.083,3.0
34.167,-1.847,0.864,2.0
34.26,-1.863,0.683,0.0
34.67,-1.896,0.506,0.0
32.571,-1.792,0.298,0.0
28.575,-1.582,0.108,7.0
34.219,-1.906,-0.052,2.0
34.106,-1.905,0.893,2.0
0.0,0.0,0.0,0.0
34.541,-1.951,0.535,1.0
34.296,-1.948,0.344,0.0
28.637,-1.636,0.135,3.0
26.618,-1.529,-0.016,0.0
34.032,-1.96,0.923,4.0
0.0,0.0,0.0,0.0
34.298,-1.997,0.563,2.0
34.797,-2.037,0.382,3.0
30.626,-1.803,0.173,7.0
27.643,-1.636,0.008,0.0
34.009,-2.018,0.954,6.0
0.0,0.0,0.0,0.0
34.152,-2.048,0.594,2.0
36.864,-2.222,0.441,0.0
31.394,-1.902,0.208,5.0
28.407,-1.73,0.036,4.0
33.965,-2.073,0.986,8.0
33.974,-2.083,0.805,1.0
33.981,-2.094,0.624,1.0
34.736,-2.152,0.449,0.0
31.888,-1.985,0.243,4.0
28.415,-1.778,0.065,2.0
33.961,-2.13,1.02,150.0
33.937,-2.138,0.839,4.0
33.876,-2.144,0.657,0.0
34.653,-2.204,0.483,2.0
32.582,-2.082,0.281,1.0
28.546,-1.833,0.094,0.0
33.938,-2.184,1.055,150.0
33.921,-2.193,0.874,10.0
0.0,0.0,0.0,0.0
34.497,-2.25,0.518,4.0
33.538,-2.198,0.325,1.0
29.628,-1.95,0.129,0.0
33.887,-2.236,1.089,39.0
33.89,-2.245,0.909,25.0
33.905,-2.256,0.729,0.0
34.303,-2.292,0.551,1.0
34.583,-2.321,0.372,1.0
30.144,-2.032,0.164,0.0
33.878,-2.288,1.126,42.0
33.88,-2.298,0.945,43.0
33.867,-2.307,0.765,0.0
34.011,-2.326,0.584,2.0
35.501,-2.438,0.421,0.0
0.0,0.0,0.0,0.0
33.875,-2.34,1.163,22.0
33.882,-2.35,0.982,59.0
33.887,-2.359,0.803,79.0
33.878,-2.368,0.619,4.0
34.54,-2.424,0.448,0.0
31.933,-2.25,0.245,0.0
33.877,-2.391,1.201,6.0
33.873,-2.4,1.021,71.0
33.902,-2.412,0.842,151.0
33.867,-2.418,0.658,152.0
34.48,-2.471,0.486,3.0
0.0,0.0,0.0,0.0
33.885,-2.441,1.24,11.0
33.854,-2.448,1.059,79.0
33.828,-2.454,0.878,30.0
33.862,-2.466,0.696,154.0
34.29,-2.507,0.523,4.0
35.267,-2.588,0.351,0.0
33.856,-2.488,1.278,39.0
33.836,-2.495,1.098,84.0
33.87,-2.506,0.919,62.0
33.857,-2.514,0.736,163.0
34.018,-2.535,0.559,4.0
35.61,-2.663,0.397,0.0
33.855,-2.535,1.318,69.0
33.812,-2.54,1.137,52.0
33.825,-2.55,0.958,116.0
33.866,-2.562,0.777,154.0
33.89,-2.572,0.598,8.0
37.978,-2.891,0.468,1.0
33.845,-2.581,1.358,25.0
33.813,-2.586,1.178,9.0
33.817,-2.595,0.999,127.0
33.862,-2.606,0.817,152.0
33.845,-2.613,0.637,150.0
34.41,-2.665,0.466,2.0
33.932,-2.632,1.403,1.0
33.82,-2.631,1.22,7.0
33.807,-2.638,1.04,117.0
33.799,-2.646,0.857,32.0
33.832,-2.656,0.679,154.0
34.299,-2.701,0.507,5.0
34.169,-2.695,1.456,0.0
33.848,-2.677,1.263,63.0
33.806,-2.681,1.082,128.0
33.813,-2.69,0.9,70.0
33.837,-2.699,0.722,155.0
34.048,-2.724,0.546,4.0
0.0,0.0,0.0,0.0
33.816,-2.717,1.305,85.0
33.798,-2.723,1.125,75.0
33.817,-2.732,0.943,150.0
33.841,-2.741,0.765,154.0
33.903,-2.754,0.587,2.0
0.0,0.0,0.0,0.0
33.815,-2.758,1.348,32.0
33.788,-2.763,1.168,10.0
33.801,-2.771,0.986,150.0
33.839,-2.781,0.808,153.0
33.806,-2.786,0.629,123.0
0.0,0.0,0.0,0.0
33.967,-2.81,1.398,1.0
33.827,-2.805,1.213,27.0
33.793,-2.809,1.03,130.0
33.785,-2.815,0.851,42.0
33.806,-2.824,0.673,153.0
0.0,0.0,0.0,0.0
0.0,0.0,0.0,0.0
33.824,-2.843,1.257,56.0
33.784,-2.846,1.074,130.0
33.8,-2.854,0.896,74.0
33.789,-2.86,0.717,13.0
34.785,-2.948,1.707,0.0
0.0,0.0,0.0,0.0
33.806,-2.878,1.302,81.0
33.793,-2.883,1.119,65.0
33.806,-2.891,0.941,133.0
33.788,-2.896,0.762,1.0
151.97,-13.044,7.663,8.0
0.0,0.0,0.0,0.0
33.794,-2.912,1.346,21.0
33.778,-2.916,1.163,9.0
33.797,-2.924,0.986,114.0
33.79,-2.93,0.807,7.0
185.434,-16.103,9.599,21.0
34.498,-3.001,1.603,0.0
34.01,-2.964,1.4,0.0
33.809,-2.952,1.21,8.0
33.79,-2.957,1.031,95.0
33.787,-2.962,0.853,38.0
199.218,-17.494,10.584,5.0
34.79,-3.06,1.664,0.0
34.352,-3.027,1.461,0.0
33.793,-2.983,1.255,39.0
33.788,-2.988,1.077,80.0
33.801,-2.995,0.899,63.0
209.164,-18.562,11.397,108.0
0.0,0.0,0.0,0.0
0.0,0.0,0.0,0.0
33.784,-3.013,1.301,50.0
33.783,-3.018,1.122,37.0
33.812,-3.026,0.945,72.0
209.162,-18.746,11.681,150.0
0.0,0.0,0.0,0.0
34.366,-3.089,1.555,0.0
33.82,-3.045,1.348,6.0
33.801,-3.048,1.169,7.0
33.811,-3.054,0.991,57.0
186.315,-16.855,10.659,84.0
169.669,-15.371,8.807,17.0
34.695,-3.147,1.617,0.0
34.045,-3.093,1.404,0.0
33.836,-3.079,1.216,9.0
33.791,-3.079,1.037,51.0
150.433,-13.729,8.814,19.0
169.473,-15.487,9.031,12.0
34.744,-3.179,1.667,0.0
34.121,-3.126,1.454,0.0
33.823,-3.103,1.262,26.0
33.783,-3.104,1.082,41.0
149.715,-13.777,8.979,25.0
150.296,-13.847,8.219,13.0
0.0,0.0,0.0,0.0
34.308,-3.169,1.509,0.0
33.821,-3.128,1.31,13.0
33.802,-3.13,1.13,13.0
149.596,-13.874,9.181,12.0
150.25,-13.951,8.426,19.0
0.0,0.0,0.0,0.0
34.621,-3.221,1.571,0.0
33.978,-3.165,1.363,0.0
33.833,-3.155,1.178,5.0
199.164,-18.605,12.501,11.0
149.61,-13.99,8.598,27.0
150.212,-14.059,7.839,24.0
0.0,0.0,0.0,0.0
34.128,-3.201,1.416,0.0
33.841,-3.177,1.225,6.0
185.281,-17.425,11.89,11.0
149.523,-14.074,8.801,20.0
150.064,-14.137,8.038,32.0
0.0,0.0,0.0,0.0
34.232,-3.231,1.468,0.0
33.835,-3.196,1.272,9.0
189.766,-17.959,12.441,6.0
149.574,-14.165,9.014,10.0
149.881,-14.205,8.239,20.0
0.0,0.0,0.0,0.0
34.37,-3.262,1.522,2.0
33.877,-3.218,1.321,3.0
185.223,-17.628,12.404,7.0
149.548,-14.243,9.223,10.0
149.888,-14.285,8.45,3.0
150.2,-14.324,7.657,10.0
34.504,-3.293,1.576,0.0
34.071,-3.254,1.376,0.0
147.128,-14.075,10.059,4.0
149.384,-14.299,9.421,17.0
167.783,-16.07,9.692,4.0
159.084,-15.247,8.33,5.0
34.661,-3.323,1.631,0.0
34.314,-3.293,1.433,1.0
143.358,-13.779,10.001,9.0
149.433,-14.37,9.632,14.0
149.656,-14.398,8.851,5.0
159.225,-15.327,8.556,15.0
34.898,-3.361,1.69,0.0
34.354,-3.31,1.482,3.0
143.364,-13.839,10.199,12.0
177.742,-17.162,11.702,9.0
160.169,-15.471,9.694,4.0
159.319,-15.396,8.784,10.0
0.0,0.0,0.0,0.0
34.473,-3.334,1.535,0.0
143.555,-13.909,10.412,16.0
177.688,-17.221,11.943,14.0
159.902,-15.5,9.899,5.0
160.233,-15.537,9.052,6.0
158.77,-15.401,8.127,4.0
34.619,-3.359,1.589,0.0
143.497,-13.948,10.605,15.0
143.642,-13.965,9.852,13.0
149.389,-14.525,9.452,8.0
160.022,-15.563,9.259,11.0
158.643,-15.433,8.337,16.0
34.789,-3.385,1.644,0.0
142.565,-13.896,10.733,15.0
143.367,-13.976,10.029,14.0
149.201,-14.546,9.644,16.0
159.932,-15.594,9.472,15.0
158.892,-15.494,8.567,16.0
35.066,-3.42,1.704,0.0
142.555,-13.929,10.927,6.0
143.595,-14.03,10.242,13.0
150.388,-14.692,9.927,4.0
160.03,-15.635,9.696,17.0
159.757,-15.61,8.829,10.0
160.19,-15.652,8.005,3.0
147.599,-14.448,11.515,7.0
143.623,-14.057,10.438,19.0
143.867,-14.08,9.689,9.0
160.333,-15.689,9.931,6.0
160.189,-15.675,9.069,14.0
158.694,-15.528,8.142,9.0
147.929,-14.501,11.739,4.0
142.892,-14.004,10.577,16.0
143.748,-14.085,9.873,12.0
149.975,-14.693,9.487,13.0
160.119,-15.683,9.279,15.0
158.706,-15.543,8.354,16.0
142.577,-13.99,11.507,13.0
142.53,-13.981,10.74,12.0
143.528,-14.074,10.051,13.0
149.545,-14.66,9.659,25.0
160.036,-15.685,9.485,14.0
158.95,-15.576,8.576,13.0
142.545,-13.994,11.692,12.0
177.127,-17.382,13.582,6.0
143.5,-14.077,10.236,13.0
148.986,-14.608,9.819,10.0
160.153,-15.699,9.7,14.0
159.388,-15.619,8.806,11.0
144.971,-14.234,12.081,13.0
147.542,-14.478,11.505,10.0
143.701,-14.094,10.438,16.0
143.941,-14.111,9.673,10.0
160.451,-15.723,9.927,5.0
160.184,-15.69,9.059,15.0
144.73,-14.204,12.249,14.0
147.753,-14.492,11.712,3.0
143.029,-14.02,10.572,18.0
143.852,-14.094,9.849,13.0
149.922,-14.68,9.464,13.0
160.088,-15.668,9.252,12.0
144.617,-14.182,12.423,12.0
142.546,-13.969,11.481,14.0
142.514,-13.955,10.714,12.0
143.471,-14.04,10.005,12.0
149.485,-14.62,9.626,21.0
160.044,-15.644,9.452,13.0
144.787,-14.18,12.622,3.0
142.472,-13.942,11.655,12.0
142.395,-13.924,10.885,8.0
143.553,-14.027,10.191,13.0
149.028,-14.552,9.781,8.0
160.043,-15.617,9.649,13.0
142.625,-13.945,12.611,4.0
145.028,-14.167,12.044,17.0
0.0,0.0,0.0,0.0
143.606,-14.004,10.37,21.0
143.929,-14.025,9.623,8.0
160.097,-15.588,9.849,5.0
142.525,-13.905,12.778,8.0
144.82,-14.115,12.204,18.0
0.0,0.0,0.0,0.0
143.473,-13.957,10.534,17.0
143.702,-13.967,9.78,12.0
149.6,-14.529,9.38,9.0
144.738,-14.085,13.149,5.0
144.803,-14.075,12.376,13.0
142.564,-13.844,11.416,5.0
142.67,-13.84,10.644,15.0
143.364,-13.894,9.926,11.0
149.329,-14.459,9.538,14.0
144.339,-14.003,13.285,5.0
148.829,-14.422,12.894,4.0
145.143,-14.05,11.793,12.0
142.491,-13.778,10.797,12.0
143.333,-13.844,10.09,13.0
177.804,-17.156,11.563,5.0
144.365,-13.958,13.454,13.0
0.0,0.0,0.0,0.0
144.954,-13.98,11.944,14.0
0.0,0.0,0.0,0.0
143.441,-13.803,10.259,11.0
177.872,-17.097,11.767,7.0
144.251,-13.893,13.607,12.0
147.195,-14.157,13.089,5.0
145.016,-13.931,12.111,5.0
145.243,-13.935,11.332,9.0
143.456,-13.746,10.42,12.0
147.099,-14.079,9.892,2.0
144.285,-13.838,13.77,3.0
147.439,-14.119,13.274,3.0
145.135,-13.879,12.282,5.0
145.23,-13.869,11.491,11.0
143.32,-13.669,10.566,11.0
147.101,-14.012,10.053,11.0
145.503,-13.887,14.048,9.0
147.106,-14.019,13.404,8.0
145.11,-13.809,12.436,10.0
145.133,-13.791,11.639,11.0
143.3,-13.598,10.717,13.0
151.532,-14.359,10.516,8.0
145.55,-13.82,14.206,17.0
146.689,-13.907,13.519,6.0
145.03,-13.728,12.58,5.0
145.074,-13.71,11.785,12.0
147.936,-13.96,11.218,3.0
153.487,-14.463,10.81,8.0
145.351,-13.724,14.338,19.0
147.953,-13.947,13.79,4.0
146.644,-13.799,12.873,3.0
146.267,-13.741,12.033,3.0
145.488,-13.646,11.181,11.0
153.351,-14.363,10.956,5.0
145.407,-13.646,14.492,13.0
148.271,-13.89,13.97,5.0
147.054,-13.753,13.055,5.0
146.267,-13.655,12.177,3.0
145.553,-13.566,11.328,11.0
146.189,-13.604,10.586,8.0
145.549,-13.57,14.65,10.0
145.842,-13.573,13.883,5.0
145.603,-13.526,13.068,3.0
146.179,-13.555,12.31,8.0
144.803,-13.403,11.41,9.0
146.23,-13.511,10.73,10.0
146.603,-13.574,14.896,10.0
145.81,-13.474,14.02,14.0
145.248,-13.396,13.174,12.0
146.317,-13.471,12.458,12.0
144.687,-13.296,11.533,18.0
146.258,-13.416,10.865,7.0
145.661,-13.387,14.936,16.0
145.642,-13.358,14.138,13.0
145.04,-13.277,13.287,16.0
146.848,-13.416,12.637,5.0
144.796,-13.204,11.671,16.0
145.948,-13.284,10.971,11.0
145.454,-13.265,15.044,18.0
146.113,-13.296,14.312,13.0
146.89,-13.339,13.585,11.0
147.017,-13.323,12.779,6.0
144.636,-13.081,11.784,10.0
145.071,-13.095,11.03,15.0
145.613,-13.169,15.187,15.0
146.188,-13.193,14.444,12.0
146.919,-13.23,13.712,10.0
147.204,-13.227,12.919,5.0
144.46,-12.955,11.889,17.0
145.292,-13.001,11.167,13.0
145.55,-13.05,15.3,16.0
146.158,-13.075,14.561,15.0
147.189,-13.137,13.857,3.0
145.777,-12.982,12.911,12.0
144.401,-12.833,11.999,17.0
144.987,-12.857,11.257,18.0
145.33,-12.912,15.392,14.0
146.103,-12.95,14.67,15.0
145.987,-12.909,13.857,12.0
145.743,-12.859,13.019,17.0
144.265,-12.7,12.098,11.0
145.06,-12.741,11.372,12.0
145.579,-12.809,15.53,13.0
145.741,-12.794,14.743,19.0
145.851,-12.773,13.952,14.0
145.84,-12.741,13.135,7.0
145.262,-12.661,12.287,10.0
145.24,-12.631,11.49,17.0
145.892,-12.709,15.669,8.0
145.348,-12.631,14.807,12.0
145.525,-12.613,14.025,19.0
0.0,0.0,0.0,0.0
146.205,-12.612,12.469,4.0
145.213,-12.497,11.587,13.0
146.586,-12.637,15.843,7.0
145.512,-12.512,14.924,15.0
145.726,-12.498,14.142,18.0
144.928,-12.399,13.251,12.0
146.278,-12.483,12.57,5.0
145.23,-12.363,11.683,7.0
146.919,-12.528,15.976,12.0
145.629,-12.385,15.029,12.0
145.739,-12.362,14.235,13.0
145.021,-12.267,13.352,14.0
145.54,-12.28,12.597,11.0
145.205,-12.221,11.77,11.0
146.947,-12.387,16.069,5.0
147.13,-12.368,15.275,9.0
145.628,-12.208,14.313,5.0
145.134,-12.134,13.448,15.0
145.743,-12.154,12.7,11.0
145.525,-12.103,11.88,15.0
148.916,-12.405,16.372,9.0
146.94,-12.207,15.338,13.0
0.0,0.0,0.0,0.0
144.955,-11.975,13.511,13.0
145.625,-11.997,12.769,16.0
145.762,-11.976,11.978,10.0
148.728,-12.238,16.431,13.0
146.666,-12.031,15.389,12.0
145.846,-11.931,14.493,7.0
144.965,-11.824,13.587,8.0
145.459,-11.831,12.829,14.0
145.849,-11.828,12.06,11.0
148.426,-12.054,16.474,13.0
146.507,-11.864,15.445,13.0
145.795,-11.771,14.56,12.0
144.977,-11.67,13.659,14.0
145.453,-11.674,12.898,15.0
145.079,-11.611,12.062,14.0
148.816,-11.927,16.586,15.0
146.406,-11.697,15.501,12.0
145.983,-11.629,14.643,6.0
146.058,-11.598,13.825,5.0
145.937,-11.555,13.004,11.0
145.242,-11.466,12.138,15.0
148.812,-11.763,16.648,4.0
147.609,-11.632,15.689,9.0
145.584,-11.436,14.663,19.0
146.274,-11.454,13.903,12.0
118.969,-9.288,10.647,7.0
145.571,-11.33,12.22,12.0
151.451,-11.801,17.002,5.0
149.141,-11.584,15.908,13.0
145.567,-11.27,14.714,16.0
146.472,-11.303,13.975,14.0
147.321,-11.333,13.237,11.0
145.703,-11.175,12.282,10.0
148.756,-11.422,16.75,4.0
148.633,-11.374,15.904,9.0
148.204,-11.303,15.029,12.0
0.0,0.0,0.0,0.0
119.169,-9.029,10.744,7.0
119.28,-9.008,10.091,6.0
148.441,-11.222,16.76,14.0
148.762,-11.207,15.962,4.0
148.847,-11.175,15.137,13.0
91.001,-6.809,8.737,6.0
119.166,-8.887,10.776,11.0
119.215,-8.862,10.117,6.0
90.399,-6.725,10.23,12.0
148.479,-11.007,15.969,16.0
146.05,-10.791,14.889,12.0
91.16,-6.712,8.773,15.0
119.511,-8.769,10.835,10.0
119.259,-8.721,10.147,5.0
90.493,-6.623,10.26,16.0
148.49,-10.83,16.001,14.0
147.231,-10.699,15.039,12.0
91.252,-6.608,8.8,11.0
119.391,-8.615,10.847,13.0
119.133,-8.566,10.158,9.0
90.457,-6.509,10.272,27.0
148.548,-10.651,16.032,16.0
91.346,-6.524,9.345,8.0
91.335,-6.5,8.822,15.0
116.985,-8.296,10.644,11.0
119.005,-8.41,10.163,14.0
90.469,-6.396,10.286,29.0
149.094,-10.502,16.11,11.0
91.307,-6.407,9.352,10.0
91.401,-6.39,8.838,13.0
117.138,-8.159,10.671,12.0
88.189,-6.12,7.54,13.0
90.202,-6.263,10.263,22.0
150.534,-10.413,16.277,10.0
91.416,-6.299,9.37,8.0
91.458,-6.279,8.85,8.0
117.243,-8.018,10.687,9.0
88.263,-6.014,7.55,21.0
89.975,-6.133,10.241,26.0
113.476,-7.703,12.275,13.0
93.246,-6.305,9.56,12.0
91.605,-6.17,8.867,9.0
118.726,-7.967,10.823,3.0
88.419,-5.91,7.564,26.0
90.013,-6.018,10.246,28.0
113.398,-7.551,12.266,9.0
91.746,-6.084,9.405,13.0
