X,Y,Z,Reflectivity
97.999,-4.646,8.332,5.0
93.37,-4.418,7.445,3.0
63.497,-3.016,6.853,8.0
63.467,-3.009,6.511,5.0
91.821,-4.344,8.931,10.0
56.704,-2.677,5.208,4.0
90.25,-4.252,7.81,4.0
92.569,-4.352,7.521,3.0
56.576,-2.671,6.192,6.0
55.053,-2.593,5.731,6.0
54.931,-2.581,5.426,2.0
63.306,-2.968,5.909,5.0
83.943,-3.928,7.389,11.0
91.067,-4.252,7.533,3.0
48.553,-2.275,5.386,4.0
63.526,-2.97,6.707,7.0
57.962,-2.703,5.81,4.0
83.282,-3.875,7.895,12.0
56.738,-2.634,5.077,6.0
83.885,-3.885,7.061,3.0
48.33,-2.247,5.433,12.0
55.126,-2.556,5.901,17.0
55.065,-2.547,5.6,13.0
82.99,-3.83,7.987,6.0
83.252,-3.832,7.568,10.0
83.899,-3.852,7.18,11.0
50.822,-2.342,5.785,9.0
40.615,-1.867,4.405,13.0
55.021,-2.522,5.673,3.0
55.025,-2.515,5.373,3.0
91.319,-4.164,8.43,6.0
92.696,-4.215,8.063,7.0
48.757,-2.225,5.619,9.0
40.643,-1.849,4.465,34.0
53.453,-2.425,5.586,2.0
55.034,-2.49,5.451,8.0
90.901,-4.103,8.516,5.0
56.706,-2.552,5.009,5.0
47.55,-2.147,5.546,4.0
40.609,-1.828,4.517,41.0
55.234,-2.479,5.846,6.0
55.017,-2.463,5.522,6.0
55.007,-2.455,5.227,1.0
56.783,-2.526,5.092,5.0
53.054,-2.369,6.258,7.0
50.806,-2.262,5.718,5.0
49.565,-2.199,5.312,5.0
57.302,-2.535,5.827,16.0
55.018,-2.426,5.3,6.0
91.448,-4.02,8.319,5.0
49.511,-2.184,5.904,10.0
40.586,-1.785,4.62,42.0
49.656,-2.176,5.385,13.0
56.656,-2.475,5.834,11.0
55.022,-2.395,5.37,16.0
82.796,-3.593,7.636,12.0
48.841,-2.127,5.887,5.0
40.568,-1.76,4.67,12.0
40.639,-1.757,4.458,54.0
53.091,-2.287,5.533,2.0
57.299,-2.461,5.663,7.0
63.739,-2.728,5.957,5.0
40.35,-1.732,4.914,8.0
57.371,-2.455,6.675,6.0
40.559,-1.729,4.5,59.0
53.225,-2.26,5.612,2.0
63.559,-2.689,6.359,6.0
54.984,-2.318,5.205,18.0
48.279,-2.042,5.938,13.0
0.0,0.0,0.0,0.0
40.444,-1.698,4.535,47.0
40.422,-1.69,4.31,52.0
56.647,-2.36,5.733,7.0
57.506,-2.387,5.511,6.0
40.38,-1.681,5.014,28.0
40.525,-1.681,4.811,46.0
40.49,-1.672,4.587,53.0
40.397,-1.662,4.353,70.0
53.281,-2.183,5.454,3.0
63.36,-2.586,6.144,13.0
40.337,-1.651,5.055,6.0
40.494,-1.651,4.853,40.0
40.424,-1.641,4.625,48.0
40.433,-1.634,4.403,59.0
53.279,-2.145,5.513,13.0
63.316,-2.538,6.209,5.0
42.166,-1.695,5.331,5.0
40.468,-1.62,4.895,59.0
40.603,-1.618,4.69,25.0
40.546,-1.609,4.459,49.0
43.23,-1.708,4.519,4.0
40.535,-1.595,4.018,5.0
42.131,-1.662,5.372,44.0
40.41,-1.587,4.931,62.0
40.526,-1.584,4.724,41.0
40.454,-1.574,4.491,58.0
40.511,-1.57,4.277,33.0
40.547,-1.564,4.061,11.0
42.17,-1.631,5.421,45.0
40.404,-1.555,4.972,54.0
40.382,-1.547,4.748,61.0
40.426,-1.541,4.529,63.0
40.324,-1.53,4.298,63.0
40.497,-1.53,4.096,55.0
42.165,-1.596,5.462,50.0
40.432,-1.523,5.016,48.0
40.536,-1.519,4.806,49.0
40.542,-1.513,4.581,56.0
40.437,-1.501,4.348,42.0
40.379,-1.492,4.122,60.0
42.317,-1.567,5.522,57.0
40.338,-1.486,5.042,47.0
40.538,-1.486,4.845,47.0
40.244,-1.467,4.585,59.0
40.422,-1.466,4.384,48.0
40.245,-1.453,4.145,61.0
42.334,-1.531,5.563,51.0
40.364,-1.452,5.082,38.0
40.427,-1.447,4.868,58.0
40.182,-1.43,4.614,72.0
40.323,-1.428,4.409,47.0
40.005,-1.409,4.156,64.0
42.241,-1.491,5.588,53.0
43.594,-1.53,5.526,7.0
40.577,-1.416,4.921,47.0
40.307,-1.399,4.662,59.0
40.349,-1.393,4.446,49.0
40.127,-1.378,4.201,56.0
42.293,-1.454,5.631,31.0
47.319,-1.618,6.038,9.0
40.659,-1.382,4.964,42.0
40.499,-1.369,4.717,49.0
40.037,-1.346,4.443,50.0
40.092,-1.34,4.229,50.0
42.087,-1.408,5.637,38.0
47.373,-1.576,6.082,3.0
40.622,-1.343,4.991,54.0
40.587,-1.334,4.758,55.0
39.987,-1.307,4.468,49.0
39.946,-1.297,4.244,53.0
42.157,-1.371,5.678,30.0
42.933,-1.388,5.544,30.0
40.521,-1.301,5.008,61.0
40.215,-1.284,4.744,50.0
39.897,-1.266,4.486,52.0
39.844,-1.256,4.261,54.0
42.155,-1.33,5.707,47.0
41.999,-1.317,5.453,58.0
40.399,-1.258,5.021,55.0
40.191,-1.244,4.768,57.0
39.754,-1.223,4.497,56.0
39.344,-1.202,4.234,56.0
42.078,-1.286,5.725,64.0
42.004,-1.275,5.481,52.0
40.498,-1.222,5.06,54.0
40.211,-1.205,4.797,45.0
39.97,-1.19,4.547,60.0
39.391,-1.165,4.263,63.0
42.173,-1.247,5.765,58.0
42.017,-1.234,5.509,34.0
40.388,-1.177,5.071,52.0
40.053,-1.159,4.802,62.0
39.395,-1.132,4.505,71.0
39.295,-1.122,4.276,68.0
42.338,-1.209,5.812,59.0
42.086,-1.193,5.542,26.0
40.206,-1.131,5.07,49.0
39.839,-1.112,4.799,51.0
39.445,-1.093,4.532,37.0
39.445,-1.085,4.314,52.0
42.316,-1.163,5.832,47.0
49.064,-1.339,6.488,7.0
39.969,-1.082,5.062,48.0
39.973,-1.075,4.835,60.0
39.44,-1.052,4.552,52.0
39.399,-1.043,4.328,53.0
42.183,-1.116,5.835,59.0
42.544,-1.116,5.646,69.0
39.547,-1.03,5.027,62.0
40.024,-1.034,4.86,57.0
39.167,-1.004,4.538,67.0
39.319,-0.999,4.337,62.0
42.017,-1.067,5.831,49.0
42.162,-1.061,5.614,61.0
39.573,-0.987,5.048,51.0
0.0,0.0,0.0,0.0
39.287,-0.965,4.568,56.0
39.547,-0.963,4.379,64.0
41.84,-1.017,5.823,75.0
42.221,-1.017,5.639,47.0
39.538,-0.944,5.058,48.0
40.011,-0.947,4.891,51.0
39.375,-0.924,4.593,52.0
39.773,-0.926,4.418,51.0
42.076,-0.977,5.871,52.0
42.06,-0.968,5.632,53.0
39.509,-0.901,5.068,55.0
39.62,-0.895,4.856,54.0
39.344,-0.88,4.602,54.0
39.195,-0.869,4.366,46.0
42.124,-0.931,5.891,47.0
41.806,-0.916,5.611,70.0
39.493,-0.857,5.078,41.0
39.75,-0.854,4.884,53.0
39.29,-0.836,4.607,53.0
39.052,-0.823,4.361,63.0
42.017,-0.882,5.887,48.0
42.211,-0.877,5.676,31.0
39.484,-0.812,5.087,50.0
39.524,-0.805,4.866,61.0
39.292,-0.792,4.616,55.0
39.1,-0.781,4.375,62.0
50.289,-0.999,7.058,5.0
42.69,-0.839,5.75,33.0
39.503,-0.768,5.097,30.0
39.39,-0.758,4.857,61.0
39.197,-0.746,4.613,54.0
39.163,-0.738,4.389,63.0
42.175,-0.79,5.926,61.0
42.653,-0.79,5.752,41.0
42.151,-0.772,5.446,27.0
39.427,-0.714,4.867,53.0
39.171,-0.702,4.615,62.0
39.237,-0.695,4.403,52.0
42.145,-0.742,5.928,72.0
42.912,-0.747,5.792,47.0
39.944,-0.687,5.165,34.0
39.41,-0.669,4.869,53.0
39.758,-0.668,4.688,49.0
39.301,-0.652,4.413,56.0
41.675,-0.686,5.865,54.0
42.962,-0.699,5.802,9.0
39.943,-0.641,5.167,45.0
39.431,-0.625,4.874,48.0
39.5,-0.619,4.66,52.0
39.322,-0.608,4.417,47.0
41.687,-0.638,5.868,63.0
39.957,-0.604,5.397,47.0
39.934,-0.596,5.167,60.0
39.512,-0.581,4.884,56.0
39.785,-0.577,4.693,62.0
39.343,-0.563,4.419,70.0
41.902,-0.594,5.898,60.0
39.939,-0.558,5.394,42.0
40.014,-0.55,5.176,58.0
40.024,-0.543,4.946,47.0
39.975,-0.534,4.714,49.0
39.672,-0.522,4.454,41.0
41.722,-0.543,5.87,60.0
39.959,-0.512,5.394,38.0
39.985,-0.504,5.169,63.0
39.918,-0.495,4.93,55.0
39.882,-0.487,4.699,61.0
40.041,-0.481,4.492,43.0
40.769,-0.483,5.731,77.0
40.058,-0.467,5.402,44.0
39.947,-0.458,5.16,58.0
39.869,-0.45,4.919,40.0
40.06,-0.444,4.715,44.0
39.645,-0.432,4.442,48.0
40.977,-0.439,5.754,43.0
40.035,-0.421,5.393,62.0
39.954,-0.413,5.154,43.0
39.868,-0.404,4.912,49.0
40.22,-0.4,4.726,34.0
39.851,-0.388,4.457,55.0
40.158,-0.384,5.631,76.0
40.095,-0.376,5.393,54.0
39.869,-0.366,5.134,51.0
39.847,-0.358,4.9,47.0
43.274,-0.381,5.075,4.0
39.888,-0.343,4.452,46.0
40.485,-0.341,5.667,67.0
40.011,-0.329,5.371,68.0
39.676,-0.319,5.099,45.0
39.632,-0.311,4.863,52.0
43.599,-0.334,5.102,18.0
40.369,-0.302,4.494,55.0
40.2,-0.292,5.615,64.0
39.668,-0.281,5.313,58.0
39.649,-0.273,5.084,40.0
39.594,-0.265,4.846,55.0
39.57,-0.258,4.617,53.0
40.082,-0.254,4.449,59.0
40.106,-0.245,5.588,58.0
39.412,-0.234,5.265,61.0
39.839,-0.229,5.094,51.0
39.539,-0.22,4.825,63.0
39.655,-0.214,4.612,38.0
39.847,-0.207,4.408,58.0
39.715,-0.197,5.518,62.0
39.379,-0.189,5.245,67.0
39.674,-0.183,5.057,61.0
39.627,-0.176,4.819,60.0
39.716,-0.169,4.603,44.0
39.862,-0.162,4.393,61.0
39.485,-0.152,5.469,56.0
39.436,-0.145,5.235,67.0
39.586,-0.138,5.027,66.0
39.495,-0.131,4.785,55.0
39.832,-0.125,4.598,47.0
40.192,-0.119,4.41,60.0
39.502,-0.107,5.453,67.0
39.391,-0.1,5.21,58.0
39.689,-0.093,5.021,62.0
39.548,-0.087,4.772,51.0
39.86,-0.081,4.581,48.0
40.995,-0.076,4.477,44.0
39.544,-0.063,5.437,51.0
39.619,-0.057,5.219,54.0
39.713,-0.05,5.002,60.0
39.726,-0.043,4.772,53.0
39.872,-0.037,4.561,53.0
40.746,-0.03,4.427,52.0
39.579,-0.019,5.42,59.0
39.611,-0.012,5.195,47.0
39.495,-0.006,4.952,57.0
39.89,0.0,4.768,46.0
39.878,0.006,4.537,47.0
40.235,0.013,4.347,45.0
39.757,0.023,5.419,58.0
39.602,0.029,5.169,61.0
39.39,0.036,4.914,51.0
39.88,0.043,4.741,63.0
40.355,0.05,4.566,38.0
40.555,0.057,4.356,68.0
39.864,0.067,5.407,64.0
39.456,0.072,5.124,60.0
39.417,0.078,4.891,44.0
39.749,0.086,4.698,31.0
40.289,0.093,4.531,43.0
40.427,0.1,4.314,41.0
39.852,0.109,5.377,64.0
39.936,0.116,5.157,57.0
43.133,0.132,5.321,20.0
39.618,0.127,4.654,55.0
40.236,0.135,4.495,44.0
40.382,0.142,4.28,49.0
0.0,0.0,0.0,0.0
39.582,0.157,5.081,43.0
0.0,0.0,0.0,0.0
43.918,0.187,5.125,4.0
40.219,0.177,4.462,57.0
40.533,0.185,4.264,63.0
39.815,0.193,5.31,48.0
39.761,0.198,5.072,64.0
39.659,0.204,4.83,12.0
42.633,0.225,4.941,13.0
40.535,0.22,4.464,46.0
40.265,0.225,4.202,53.0
39.731,0.233,5.266,16.0
39.758,0.239,5.038,58.0
39.781,0.245,4.811,46.0
40.065,0.252,4.609,39.0
40.235,0.259,4.397,62.0
40.149,0.264,4.156,57.0
39.572,0.272,5.21,54.0
39.848,0.279,5.015,59.0
39.77,0.284,4.774,51.0
40.11,0.293,4.578,50.0
40.741,0.303,4.415,39.0
40.289,0.304,4.134,41.0
39.601,0.312,5.177,32.0
39.808,0.318,4.973,74.0
39.92,0.325,4.755,60.0
40.627,0.336,4.6,26.0
44.112,0.371,4.739,5.0
40.19,0.343,4.086,42.0
39.48,0.349,5.124,55.0
46.975,0.421,5.823,4.0
39.814,0.362,4.704,50.0
40.24,0.371,4.517,39.0
47.226,0.441,5.028,8.0
40.09,0.379,4.037,30.0
39.462,0.386,5.082,67.0
43.84,0.434,5.39,4.0
40.194,0.403,4.708,57.0
40.903,0.415,4.549,45.0
56.244,0.579,5.93,11.0
47.646,0.496,4.749,37.0
39.263,0.42,5.015,47.0
43.762,0.474,5.334,4.0
40.134,0.44,4.658,54.0
41.493,0.46,4.571,21.0
40.492,0.453,4.226,42.0
47.67,0.539,4.7,25.0
39.118,0.455,4.954,48.0
40.118,0.471,4.846,22.0
40.429,0.479,4.648,52.0
41.528,0.497,4.529,16.0
41.028,0.496,4.237,33.0
56.253,0.686,5.484,5.0
0.0,0.0,0.0,0.0
40.511,0.512,4.848,16.0
40.44,0.515,4.604,15.0
41.3,0.53,4.457,16.0
41.276,0.535,4.216,25.0
40.064,0.523,3.86,47.0
40.437,0.541,5.028,39.0
41.205,0.555,4.883,16.0
41.421,0.562,4.668,32.0
47.605,0.651,5.083,14.0
40.886,0.563,4.128,16.0
40.089,0.557,3.816,51.0
0.0,0.0,0.0,0.0
41.584,0.595,4.878,30.0
41.481,0.598,4.625,44.0
56.21,0.815,5.934,6.0
40.468,0.591,4.037,38.0
40.17,0.59,3.775,43.0
39.305,0.59,4.792,23.0
40.811,0.617,4.737,58.0
41.604,0.633,4.586,39.0
42.924,0.657,4.478,3.0
40.092,0.617,3.95,58.0
40.034,0.62,3.712,61.0
41.549,0.657,5.013,34.0
40.882,0.65,4.693,34.0
41.405,0.662,4.512,40.0
40.74,0.655,4.198,23.0
48.373,0.782,4.703,49.0
49.041,0.797,4.484,8.0
41.304,0.684,4.929,49.0
41.084,0.684,4.662,42.0
43.955,0.735,4.732,6.0
40.059,0.674,4.075,40.0
56.085,0.948,5.379,7.0
40.043,0.68,3.608,35.0
41.549,0.719,4.902,44.0
41.36,0.719,4.638,47.0
43.968,0.768,4.674,5.0
39.99,0.701,4.014,57.0
49.017,0.863,4.636,16.0
40.047,0.708,3.555,41.0
40.84,0.735,4.763,68.0
41.217,0.745,4.565,63.0
41.236,0.749,4.326,37.0
40.263,0.734,3.986,47.0
40.032,0.732,3.73,66.0
39.985,0.734,3.494,48.0
47.485,0.887,5.471,9.0
41.353,0.775,4.522,16.0
42.963,0.808,4.447,2.0
48.995,0.925,4.781,7.0
40.038,0.759,3.674,64.0
39.931,0.759,3.433,67.0
41.494,0.802,4.721,30.0
42.258,0.819,4.56,33.0
48.525,0.944,4.953,6.0
42.79,0.835,4.114,4.0
40.163,0.786,3.627,31.0
39.97,0.785,3.378,58.0
41.747,0.833,4.688,27.0
48.502,0.97,5.163,15.0
40.583,0.814,4.082,36.0
40.05,0.806,3.791,48.0
40.089,0.809,3.561,39.0
39.996,0.81,3.32,51.0
48.544,0.997,5.378,51.0
48.516,0.998,5.091,5.0
49.05,1.013,4.86,8.0
40.039,0.829,3.729,58.0
73.339,1.521,6.404,21.0
53.949,1.122,4.397,10.0
48.529,1.024,5.302,24.0
41.159,0.87,4.255,16.0
40.121,0.85,3.913,15.0
39.979,0.849,3.662,66.0
39.997,0.851,3.431,41.0
53.907,1.15,4.311,14.0
48.473,1.048,5.22,36.0
40.953,0.887,4.17,13.0
40.01,0.868,3.84,35.0
40.058,0.871,3.607,55.0
40.031,0.872,3.371,67.0
53.903,1.176,4.226,59.0
48.473,1.072,5.142,10.0
49.086,1.087,4.92,6.0
40.094,0.889,3.784,43.0
40.051,0.89,3.542,65.0
53.898,1.2,4.452,63.0
53.899,1.202,4.139,111.0
41.252,0.931,4.309,36.0
40.236,0.909,3.967,55.0
54.033,1.223,5.011,6.0
53.993,1.223,4.687,17.0
53.885,1.223,4.364,94.0
53.708,1.22,4.038,67.0
40.892,0.94,4.205,30.0
53.967,1.242,5.233,20.0
40.143,0.925,3.657,35.0
53.929,1.244,4.593,16.0
53.901,1.245,4.276,78.0
53.503,1.237,3.934,69.0
40.674,0.951,4.114,38.0
53.98,1.263,5.144,16.0
40.195,0.941,3.595,58.0
53.902,1.264,4.5,29.0
53.722,1.26,4.172,27.0
53.617,1.259,3.851,56.0
40.403,0.959,4.018,45.0
40.338,0.958,3.774,15.0
40.173,0.955,3.524,49.0
61.367,1.46,5.018,72.0
53.435,1.272,4.057,54.0
53.729,1.28,3.767,48.0
40.315,0.97,3.939,45.0
40.387,0.972,3.709,22.0
67.528,1.627,5.807,18.0
61.392,1.479,4.914,20.0
56.229,1.355,4.173,12.0
53.837,1.298,3.681,47.0
42.915,1.045,4.117,24.0
40.287,0.981,3.629,53.0
67.509,1.644,5.686,21.0
53.358,1.3,4.177,52.0
61.967,1.51,4.489,8.0
53.948,1.315,3.594,66.0
40.346,0.992,3.799,15.0
67.527,1.661,5.963,10.0
53.234,1.309,4.39,8.0
56.476,1.389,4.321,11.0
61.909,1.522,4.376,60.0
0.0,0.0,0.0,0.0
40.314,1.0,3.724,37.0
67.557,1.676,5.845,32.0
53.277,1.321,4.299,55.0
56.333,1.396,4.211,30.0
61.965,1.536,4.271,15.0
54.434,1.349,3.435,75.0
40.255,1.005,3.647,66.0
67.545,1.687,5.724,24.0
61.491,1.535,4.851,13.0
56.061,1.399,4.089,26.0
53.947,1.345,3.621,64.0
54.385,1.356,3.333,96.0
64.067,1.609,5.688,13.0
53.229,1.336,4.413,10.0
56.531,1.418,4.357,30.0
61.871,1.551,4.4,45.0
54.074,1.355,3.53,41.0
54.82,1.373,3.26,101.0
67.645,1.706,5.881,7.0
53.259,1.342,4.318,46.0
56.41,1.42,4.243,34.0
61.915,1.558,4.29,8.0
54.379,1.367,3.45,71.0
55.415,1.391,3.193,66.0
67.591,1.709,5.749,14.0
61.462,1.553,4.868,27.0
56.096,1.415,4.115,29.0
53.966,1.36,3.638,40.0
54.365,1.369,3.349,95.0
55.466,1.395,3.093,11.0
53.259,1.348,4.43,5.0
56.539,1.429,4.373,41.0
61.875,1.562,4.423,17.0
54.073,1.363,3.544,38.0
54.797,1.38,3.272,102.0
123.104,3.096,6.634,30.0
53.277,1.348,4.331,39.0
56.425,1.425,4.257,33.0
61.936,1.562,4.311,8.0
54.369,1.369,3.461,68.0
55.42,1.393,3.205,72.0
122.791,3.084,6.386,24.0
61.475,1.552,4.881,23.0
56.141,1.415,4.129,30.0
53.964,1.357,3.653,38.0
54.369,1.365,3.358,97.0
55.456,1.39,3.101,18.0
122.424,3.064,6.135,36.0
56.542,1.422,4.381,35.0
61.866,1.553,4.432,30.0
54.031,1.353,3.555,49.0
54.694,1.368,3.274,99.0
123.046,3.071,6.649,26.0
122.677,3.056,5.916,19.0
56.411,1.412,4.264,43.0
61.94,1.546,4.319,23.0
54.533,1.358,3.484,56.0
55.278,1.374,3.203,78.0
122.573,3.041,6.39,24.0
153.638,3.803,7.114,9.0
56.138,1.395,4.135,27.0
53.926,1.337,3.657,65.0
54.379,1.345,3.37,105.0
55.42,1.367,3.105,31.0
122.497,3.016,6.15,39.0
130.186,3.197,5.777,13.0
61.888,1.525,4.438,45.0
54.119,1.33,3.565,37.0
54.556,1.337,3.274,90.0
55.469,1.356,2.999,5.0
122.698,2.993,5.922,21.0
130.671,3.178,5.545,27.0
61.93,1.511,4.32,10.0
54.984,1.337,3.513,56.0
55.223,1.339,3.206,60.0
122.52,2.964,6.387,21.0
127.61,3.077,5.907,7.0
130.425,3.136,5.279,15.0
53.899,1.3,3.654,61.0
54.392,1.307,3.369,85.0
55.409,1.327,3.108,51.0
122.573,2.927,6.148,34.0
130.166,3.099,5.772,24.0
152.618,3.622,5.878,31.0
0.0,0.0,0.0,0.0
54.483,1.291,3.267,81.0
55.428,1.309,2.999,25.0
127.48,3.001,6.144,18.0
130.553,3.062,5.532,19.0
152.589,3.567,5.58,36.0
55.143,1.291,3.521,61.0
55.095,1.285,3.196,50.0
122.699,2.852,6.404,23.0
127.617,2.955,5.903,28.0
152.457,3.517,6.162,16.0
152.689,3.509,5.282,34.0
54.429,1.252,3.369,64.0
55.374,1.269,3.103,73.0
122.77,2.802,6.164,23.0
130.515,2.967,5.778,12.0
152.484,3.453,5.863,30.0
158.806,3.581,5.181,19.0
54.441,1.228,3.261,61.0
55.392,1.244,2.994,47.0
127.15,2.844,6.132,12.0
130.659,2.91,5.527,16.0
152.718,3.386,5.572,35.0
159.213,3.516,4.884,19.0
54.812,1.21,3.176,29.0
122.836,2.701,6.402,29.0
127.607,2.792,5.905,21.0
152.454,3.319,6.152,28.0
152.764,3.312,5.276,11.0
128.235,2.766,3.682,6.0
55.367,1.194,3.099,51.0
125.716,2.697,6.302,19.0
127.758,2.727,5.661,33.0
128.084,2.72,4.917,18.0
128.101,2.706,4.172,34.0
128.144,2.694,3.43,38.0
55.341,1.162,2.989,62.0
128.068,2.676,6.172,12.0
127.832,2.656,5.416,31.0
128.049,2.646,4.667,56.0
128.04,2.632,3.922,57.0
128.056,2.618,3.178,49.0
55.298,1.128,2.878,7.0
127.769,2.593,5.907,20.0
127.931,2.581,5.17,29.0
127.984,2.566,4.414,55.0
128.043,2.553,3.673,53.0
128.041,2.538,2.927,45.0
129.04,2.551,6.467,11.0
127.967,2.515,5.667,15.0
127.965,2.499,4.921,32.0
128.023,2.483,4.164,34.0
128.034,2.467,3.418,34.0
128.029,2.452,2.676,30.0
128.295,2.45,6.176,13.0
127.963,2.426,5.413,14.0
128.048,2.411,4.672,23.0
128.07,2.396,3.914,23.0
128.11,2.379,3.169,25.0
128.064,2.362,2.424,25.0
128.61,2.363,5.939,20.0
128.098,2.337,5.169,10.0
132.8,2.405,4.586,11.0
128.183,2.303,3.667,6.0
128.223,2.288,2.924,14.0
127.553,2.258,2.167,36.0
129.927,2.289,5.746,30.0
161.48,2.824,6.203,15.0
132.805,2.304,4.329,25.0
160.317,2.758,4.276,13.0
190.162,3.246,3.969,19.0
126.514,2.142,1.905,40.0
174.203,2.933,7.369,19.0
132.665,2.214,4.838,22.0
163.352,2.703,5.009,17.0
181.035,2.97,4.481,6.0
189.736,3.084,3.593,18.0
126.203,2.034,1.657,11.0
59.363,0.95,2.396,5.0
132.774,2.105,4.585,32.0
159.887,2.51,4.591,16.0
190.012,2.956,4.334,20.0
127.56,1.965,2.168,28.0
89.658,1.367,1.001,6.0
163.071,2.468,6.264,14.0
132.97,1.992,4.336,27.0
176.341,2.614,4.724,16.0
190.082,2.788,3.969,33.0
126.703,1.84,1.911,36.0
78.104,1.121,0.724,19.0
55.097,0.784,2.012,63.0
55.099,0.775,1.691,5.0
176.442,2.456,4.393,24.0
189.485,2.606,3.596,29.0
121.275,1.648,1.598,14.0
48.199,0.647,0.356,7.0
55.041,0.732,1.905,98.0
55.067,0.724,1.587,56.0
55.112,0.715,1.268,10.0
48.243,0.618,0.825,3.0
48.202,0.609,0.545,11.0
48.074,0.6,0.264,79.0
55.009,0.678,1.801,117.0
55.023,0.669,1.481,96.0
55.056,0.659,1.162,66.0
48.148,0.569,0.732,52.0
48.09,0.56,0.452,78.0
48.02,0.551,0.173,80.0
55.027,0.623,1.698,17.0
48.178,0.537,1.207,66.0
48.144,0.528,0.926,85.0
48.086,0.519,0.642,102.0
48.057,0.51,0.362,90.0
47.906,0.5,0.083,51.0
48.158,0.495,1.396,92.0
48.126,0.486,1.116,100.0
48.102,0.477,0.836,99.0
48.058,0.467,0.552,99.0
48.027,0.459,0.273,98.0
0.0,0.0,0.0,0.0
48.124,0.442,1.307,114.0
48.109,0.434,1.027,111.0
48.086,0.424,0.748,109.0
48.034,0.415,0.464,108.0
48.015,0.406,0.185,92.0
43.96,0.364,-0.084,5.0
48.131,0.389,1.219,125.0
48.105,0.38,0.94,115.0
48.078,0.371,0.66,108.0
48.068,0.361,0.377,78.0
47.982,0.352,0.099,57.0
39.048,0.279,-0.145,45.0
48.118,0.334,1.132,107.0
48.114,0.325,0.852,88.0
48.129,0.316,0.574,51.0
48.171,0.306,0.291,62.0
0.0,0.0,0.0,0.0
38.293,0.228,-0.212,14.0
48.169,0.278,1.047,71.0
48.212,0.268,0.768,41.0
59.304,0.318,0.601,22.0
55.004,0.284,0.233,59.0
44.16,0.219,-0.068,10.0
37.769,0.179,-0.276,7.0
59.303,0.27,1.183,123.0
59.311,0.258,0.84,94.0
77.039,0.319,0.645,18.0
54.3,0.213,0.134,29.0
39.568,0.147,-0.13,38.0
37.788,0.133,-0.343,1.0
79.455,0.263,1.446,159.0
79.471,0.246,0.986,151.0
76.019,0.22,0.504,19.0
47.219,0.126,0.034,21.0
38.754,0.095,-0.195,16.0
31.993,0.072,-0.346,1.0
79.453,0.162,1.308,156.0
79.45,0.145,0.849,150.0
61.987,0.099,0.303,6.0
44.246,0.062,-0.043,19.0
38.262,0.045,-0.258,6.0
30.394,0.029,-0.381,2.0
79.456,0.058,1.172,151.0
79.418,0.041,0.712,108.0
0.0,0.0,0.0,0.0
40.603,0.002,-0.109,16.0
38.239,-0.005,-0.324,0.0
29.372,-0.01,-0.418,2.0
79.461,-0.047,1.037,152.0
76.494,-0.063,0.557,19.0
48.318,-0.05,0.073,6.0
39.51,-0.05,-0.172,22.0
32.695,-0.048,-0.331,1.0
28.407,-0.048,-0.452,1.0
79.468,-0.155,0.906,151.0
76.25,-0.166,0.429,9.0
45.914,-0.11,-0.006,20.0
38.934,-0.102,-0.234,5.0
31.235,-0.089,-0.368,1.0
27.306,-0.084,-0.479,2.0
79.477,-0.264,0.777,150.0
61.298,-0.218,0.245,11.0
42.844,-0.163,-0.075,18.0
37.127,-0.149,-0.283,1.0
29.827,-0.127,-0.4,2.0
26.476,-0.119,-0.508,2.0
79.268,-0.376,0.647,47.0
0.0,0.0,0.0,0.0
40.051,-0.209,-0.134,2.0
33.523,-0.183,-0.309,1.0
28.998,-0.165,-0.435,2.0
25.616,-0.152,-0.532,1.0
76.789,-0.475,0.505,15.0
50.882,-0.327,0.041,11.0
42.231,-0.282,-0.209,11.0
31.927,-0.221,-0.345,1.0
27.866,-0.199,-0.461,1.0
24.568,-0.182,-0.548,2.0
61.65,-0.472,0.31,8.0
48.257,-0.381,-0.034,6.0
40.17,-0.327,-0.26,2.0
30.549,-0.256,-0.377,1.0
26.959,-0.233,-0.488,2.0
23.802,-0.212,-0.568,1.0
60.909,-0.558,0.213,4.0
50.787,-0.478,-0.115,14.0
38.504,-0.372,-0.308,2.0
29.524,-0.292,-0.409,4.0
26.111,-0.265,-0.512,1.0
23.129,-0.241,-0.587,2.0
59.043,-0.63,0.118,3.0
47.162,-0.515,-0.177,1.0
33.32,-0.372,-0.317,1.0
28.671,-0.328,-0.44,2.0
25.329,-0.296,-0.535,1.0
22.449,-0.268,-0.603,1.0
60.76,-0.742,0.031,3.0
42.261,-0.527,-0.221,3.0
31.863,-0.406,-0.35,1.0
27.744,-0.36,-0.467,2.0
24.458,-0.324,-0.552,1.0
21.727,-0.294,-0.615,2.0
53.731,-0.741,-0.049,1.0
39.076,-0.549,-0.26,0.0
30.372,-0.434,-0.377,1.0
26.781,-0.39,-0.489,1.0
23.739,-0.352,-0.57,2.0
21.095,-0.319,-0.628,1.0
46.455,-0.714,-0.108,0.0
35.818,-0.56,-0.289,0.0
29.536,-0.469,-0.408,2.0
26.114,-0.422,-0.513,1.0
23.086,-0.38,-0.586,2.0
20.539,-0.343,-0.639,1.0
40.336,-0.684,-0.149,36.0
33.733,-0.582,-0.318,1.0
28.628,-0.501,-0.434,1.0
25.303,-0.45,-0.532,1.0
22.458,-0.405,-0.601,1.0
20.023,-0.367,-0.651,1.0
40.294,-0.749,-0.203,18.0
32.074,-0.605,-0.345,1.0
27.876,-0.534,-0.46,1.0
24.587,-0.477,-0.549,1.0
21.867,-0.431,-0.614,2.0
19.572,-0.391,-0.662,1.0
40.172,-0.814,-0.256,4.0
30.659,-0.629,-0.37,1.0
26.987,-0.561,-0.481,1.0
23.876,-0.503,-0.564,1.0
21.271,-0.454,-0.625,1.0
19.127,-0.414,-0.672,1.0
40.166,-0.879,-0.306,0.0
29.757,-0.66,-0.397,1.0
26.429,-0.594,-0.504,2.0
23.29,-0.53,-0.58,2.0
20.735,-0.478,-0.635,1.0
18.677,-0.436,-0.679,1.0
33.958,-0.8,-0.301,0.0
29.045,-0.693,-0.424,1.0
25.632,-0.619,-0.521,1.0
22.761,-0.556,-0.595,1.0
20.338,-0.503,-0.648,2.0
18.342,-0.459,-0.69,1.0
32.759,-0.828,-0.33,1.0
28.334,-0.724,-0.447,1.0
25.052,-0.648,-0.539,1.0
22.1,-0.578,-0.604,1.0
19.825,-0.524,-0.655,1.0
17.979,-0.481,-0.698,1.0
31.66,-0.855,-0.357,2.0
27.554,-0.752,-0.468,1.0
24.392,-0.672,-0.553,1.0
21.619,-0.603,-0.616,1.0
19.409,-0.547,-0.664,1.0
17.694,-0.504,-0.707,1.0
30.501,-0.876,-0.378,1.0
26.885,-0.78,-0.487,1.0
23.737,-0.696,-0.565,1.0
21.115,-0.625,-0.626,1.0
19.025,-0.569,-0.672,1.0
17.377,-0.525,-0.714,1.0
29.789,-0.907,-0.402,2.0
26.31,-0.809,-0.505,1.0
23.249,-0.722,-0.579,1.0
20.655,-0.647,-0.635,1.0
18.681,-0.591,-0.681,1.0
17.081,-0.546,-0.72,1.0
29.068,-0.935,-0.423,1.0
25.735,-0.836,-0.521,1.0
22.776,-0.747,-0.591,1.0
20.24,-0.67,-0.643,1.0
18.378,-0.614,-0.689,1.0
16.785,-0.566,-0.725,1.0
28.454,-0.966,-0.444,2.0
25.165,-0.862,-0.536,1.0
22.235,-0.769,-0.6,1.0
19.879,-0.694,-0.652,1.0
18.067,-0.636,-0.696,1.0
16.525,-0.587,-0.73,1.0
27.693,-0.99,-0.46,2.0
24.645,-0.888,-0.549,1.0
21.812,-0.793,-0.61,1.0
19.533,-0.716,-0.66,1.0
17.82,-0.659,-0.704,1.0
16.241,-0.606,-0.734,1.0
27.175,-1.02,-0.477,2.0
24.042,-0.91,-0.559,1.0
21.394,-0.817,-0.619,1.0
19.229,-0.74,-0.668,1.0
17.542,-0.681,-0.709,1.0
16.018,-0.627,-0.739,1.0
26.65,-1.049,-0.493,1.0
23.558,-0.935,-0.57,1.0
20.996,-0.839,-0.627,1.0
18.92,-0.763,-0.674,1.0
17.319,-0.704,-0.716,1.0
15.794,-0.647,-0.743,1.0
26.152,-1.077,-0.507,1.0
23.196,-0.962,-0.581,1.0
20.663,-0.864,-0.635,1.0
18.622,-0.784,-0.68,1.0
17.074,-0.725,-0.721,1.0
15.611,-0.668,-0.748,1.0
25.681,-1.104,-0.519,1.0
22.808,-0.988,-0.591,1.0
20.307,-0.886,-0.641,1.0
18.381,-0.808,-0.687,1.0
16.82,-0.745,-0.724,1.0
15.426,-0.689,-0.752,1.0
25.297,-1.134,-0.532,1.0
22.362,-1.009,-0.597,1.0
20.039,-0.911,-0.649,1.0
18.157,-0.831,-0.693,1.0
16.614,-0.766,-0.728,1.0
15.26,-0.709,-0.756,1.0
24.908,-1.162,-0.543,2.0
22.033,-1.035,-0.605,1.0
19.741,-0.934,-0.654,1.0
17.926,-0.854,-0.697,1.0
16.385,-0.786,-0.73,1.0
15.1,-0.729,-0.759,1.0
24.471,-1.186,-0.551,1.0
21.698,-1.058,-0.611,1.0
19.518,-0.959,-0.661,1.0
17.746,-0.877,-0.703,1.0
16.207,-0.807,-0.734,1.0
14.948,-0.749,-0.762,1.0
23.985,-1.206,-0.557,1.0
21.417,-1.084,-0.618,1.0
19.284,-0.982,-0.666,1.0
17.569,-0.901,-0.708,1.0
16.022,-0.827,-0.736,1.0
14.831,-0.771,-0.765,1.0
23.793,-1.24,-0.568,9.0
21.19,-1.111,-0.625,1.0
19.063,-1.006,-0.67,1.0
17.393,-0.924,-0.712,1.0
15.917,-0.851,-0.741,1.0
14.688,-0.79,-0.767,1.0
23.38,-1.261,-0.572,13.0
20.944,-1.136,-0.63,1.0
18.898,-1.032,-0.676,1.0
17.201,-0.945,-0.714,1.0
15.771,-0.872,-0.743,1.0
14.574,-0.811,-0.77,1.0
23.173,-1.292,-0.58,11.0
20.821,-1.168,-0.639,4.0
18.696,-1.055,-0.679,1.0
17.055,-0.968,-0.717,1.0
15.662,-0.894,-0.747,1.0
14.486,-0.832,-0.773,1.0
22.959,-1.322,-0.587,6.0
20.512,-1.188,-0.64,4.0
18.531,-1.08,-0.682,1.0
16.948,-0.993,-0.721,1.0
15.541,-0.916,-0.749,1.0
14.374,-0.852,-0.774,1.0
22.623,-1.344,-0.589,5.0
20.345,-1.216,-0.644,3.0
18.472,-1.11,-0.689,3.0
16.804,-1.016,-0.723,1.0
15.438,-0.938,-0.751,1.0
14.268,-0.872,-0.775,1.0
22.202,-1.36,-0.588,0.0
20.073,-1.236,-0.645,2.0
18.21,-1.128,-0.687,2.0
16.676,-1.038,-0.725,1.0
15.354,-0.961,-0.754,1.0
14.183,-0.893,-0.776,1.0
22.33,-1.408,-0.601,0.0
19.898,-1.262,-0.647,3.0
18.13,-1.156,-0.691,0.0
16.648,-1.067,-0.73,2.0
15.269,-0.984,-0.756,1.0
14.111,-0.914,-0.778,0.0
22.183,-1.439,-0.605,0.0
19.759,-1.289,-0.65,2.0
17.992,-1.18,-0.692,0.0
16.471,-1.086,-0.728,2.0
15.186,-1.006,-0.757,1.0
14.052,-0.936,-0.779,1.0
22.022,-1.469,-0.608,0.0
19.556,-1.311,-0.649,0.0
17.911,-1.207,-0.695,0.0
16.337,-1.106,-0.727,2.0
15.149,-1.031,-0.759,3.0
14.001,-0.958,-0.78,1.0
21.873,-1.498,-0.61,1.0
19.659,-1.353,-0.658,0.0
17.883,-1.237,-0.699,2.0
16.249,-1.13,-0.728,4.0
14.969,-1.046,-0.754,1.0
13.974,-0.981,-0.782,1.0
21.792,-1.532,-0.613,1.0
19.578,-1.382,-0.66,0.0
17.688,-1.255,-0.695,0.0
16.166,-1.152,-0.728,3.0
14.985,-1.073,-0.758,0.0
13.937,-1.003,-0.783,2.0
21.701,-1.564,-0.615,1.0
19.502,-1.412,-0.661,0.0
17.831,-1.297,-0.704,0.0
16.064,-1.174,-0.726,7.0
14.94,-1.097,-0.759,1.0
13.834,-1.02,-0.78,1.0
21.643,-1.598,-0.617,1.0
19.49,-1.445,-0.664,0.0
17.74,-1.321,-0.703,0.0
16.023,-1.199,-0.726,6.0
14.926,-1.122,-0.76,1.0
13.825,-1.044,-0.781,1.0
21.573,-1.631,-0.617,1.0
19.41,-1.473,-0.664,0.0
17.691,-1.349,-0.704,0.0
16.137,-1.236,-0.733,0.0
14.841,-1.142,-0.757,1.0
13.841,-1.07,-0.784,1.0
21.601,-1.67,-0.62,1.0
19.378,-1.505,-0.664,0.0
17.674,-1.378,-0.704,0.0
16.244,-1.272,-0.739,0.0
14.852,-1.168,-0.759,1.0
13.875,-1.096,-0.786,4.0
21.535,-1.703,-0.619,1.0
19.361,-1.537,-0.664,0.0
17.667,-1.408,-0.704,0.0
16.166,-1.294,-0.736,0.0
14.72,-1.183,-0.752,0.0
13.822,-1.116,-0.784,3.0
21.565,-1.742,-0.62,1.0
19.378,-1.571,-0.665,0.0
17.662,-1.438,-0.704,0.0
16.21,-1.325,-0.738,1.0
14.981,-1.23,-0.765,0.0
13.797,-1.137,-0.782,3.0
21.563,-1.778,-0.62,1.0
19.37,-1.603,-0.664,0.0
17.716,-1.472,-0.705,0.0
16.215,-1.353,-0.738,1.0
14.961,-1.253,-0.764,0.0
13.786,-1.159,-0.78,1.0
21.564,-1.814,-0.618,1.0
19.446,-1.642,-0.665,0.0
17.718,-1.502,-0.704,0.0
16.244,-1.382,-0.737,3.0
14.975,-1.279,-0.763,0.0
13.841,-1.187,-0.782,0.0
21.683,-1.86,-0.619,1.0
19.493,-1.678,-0.664,0.0
17.732,-1.533,-0.703,0.0
16.261,-1.411,-0.736,5.0
14.995,-1.306,-0.762,0.0
13.879,-1.213,-0.782,0.0
21.75,-1.901,-0.618,1.0
19.66,-1.725,-0.667,1.0
17.788,-1.566,-0.702,0.0
16.27,-1.438,-0.734,6.0
15.054,-1.335,-0.762,0.0
13.941,-1.241,-0.783,0.0
21.846,-1.945,-0.617,1.0
19.723,-1.762,-0.666,1.0
17.845,-1.6,-0.701,0.0
16.258,-1.463,-0.73,11.0
15.058,-1.36,-0.759,0.0
13.961,-1.265,-0.781,0.0
21.964,-1.99,-0.615,1.0
19.759,-1.797,-0.662,0.0
17.905,-1.634,-0.699,0.0
16.259,-1.489,-0.726,11.0
15.131,-1.391,-0.759,0.0
14.02,-1.293,-0.781,0.0
22.026,-2.031,-0.611,1.0
19.875,-1.839,-0.661,0.0
18.006,-1.671,-0.698,0.0
16.273,-1.515,-0.722,11.0
15.192,-1.42,-0.758,0.0
14.072,-1.32,-0.78,0.0
22.188,-2.08,-0.609,1.0
19.951,-1.876,-0.657,0.0
18.096,-1.708,-0.696,0.0
16.299,-1.543,-0.718,10.0
15.274,-1.451,-0.757,0.0
14.157,-1.349,-0.78,0.0
22.37,-2.131,-0.607,1.0
20.144,-1.925,-0.657,0.0
18.195,-1.744,-0.694,0.0
16.312,-1.569,-0.713,9.0
15.368,-1.483,-0.757,0.0
14.205,-1.375,-0.778,0.0
22.5,-2.177,-0.602,1.0
20.32,-1.972,-0.655,1.0
18.326,-1.784,-0.692,0.0
16.32,-1.594,-0.707,7.0
15.448,-1.513,-0.755,0.0
14.31,-1.406,-0.778,0.0
22.72,-2.232,-0.599,1.0
20.553,-2.025,-0.654,3.0
18.484,-1.826,-0.69,0.0
16.349,-1.62,-0.702,6.0
15.547,-1.546,-0.753,1.0
14.403,-1.436,-0.777,0.0
22.99,-2.291,-0.596,1.0
20.572,-2.056,-0.646,8.0
18.636,-1.868,-0.687,0.0
16.396,-1.648,-0.697,1.0
15.656,-1.579,-0.751,1.0
14.49,-1.465,-0.775,0.0
23.472,-2.372,-0.598,7.0
20.603,-2.088,-0.637,8.0
18.774,-1.908,-0.684,1.0
16.459,-1.678,-0.691,0.0
15.769,-1.612,-0.749,1.0
14.584,-1.495,-0.772,1.0
23.489,-2.407,-0.586,19.0
20.669,-2.124,-0.629,4.0
18.943,-1.952,-0.68,1.0
16.84,-1.74,-0.698,0.0
15.917,-1.649,-0.747,1.0
14.677,-1.525,-0.77,1.0
23.624,-2.453,-0.577,28.0
20.986,-2.185,-0.627,2.0
19.133,-1.997,-0.676,1.0
17.387,-1.82,-0.712,0.0
16.078,-1.687,-0.746,1.0
14.786,-1.556,-0.767,0.0
23.919,-2.516,-0.571,36.0
21.54,-2.271,-0.631,1.0
19.423,-2.053,-0.675,1.0
17.633,-1.869,-0.711,0.0
16.204,-1.722,-0.742,2.0
14.935,-1.591,-0.766,0.0
23.973,-2.552,-0.558,16.0
21.953,-2.343,-0.63,4.0
19.899,-2.129,-0.68,3.0
17.813,-1.911,-0.708,0.0
16.255,-1.748,-0.734,3.0
15.043,-1.622,-0.762,1.0
24.316,-2.62,-0.55,5.0
22.085,-2.385,-0.62,8.0
20.06,-2.171,-0.672,7.0
17.968,-1.95,-0.702,0.0
16.278,-1.771,-0.725,3.0
15.22,-1.66,-0.761,0.0
25.161,-2.742,-0.553,1.0
22.301,-2.436,-0.611,15.0
20.144,-2.205,-0.662,11.0
18.208,-1.998,-0.699,0.0
16.307,-1.794,-0.715,1.0
15.406,-1.699,-0.759,1.0
25.581,-2.819,-0.544,1.0
22.563,-2.491,-0.603,18.0
20.345,-2.251,-0.654,10.0
18.404,-2.041,-0.694,0.0
16.352,-1.818,-0.705,1.0
15.573,-1.735,-0.757,1.0
25.981,-2.893,-0.534,1.0
22.919,-2.557,-0.596,22.0
20.612,-2.305,-0.648,12.0
18.648,-2.09,-0.689,1.0
16.425,-1.845,-0.697,1.0
15.754,-1.773,-0.754,1.0
26.431,-2.973,-0.524,1.0
23.211,-2.616,-0.586,21.0
20.918,-2.362,-0.642,10.0
19.033,-2.154,-0.689,1.0
16.83,-1.908,-0.701,0.0
15.945,-1.812,-0.751,1.0
27.02,-3.068,-0.515,1.0
23.385,-2.661,-0.572,5.0
21.301,-2.428,-0.637,13.0
19.421,-2.218,-0.688,3.0
17.479,-2.001,-0.714,0.0
16.153,-1.853,-0.748,1.0
27.586,-3.162,-0.504,1.0
24.076,-2.764,-0.57,1.0
21.619,-2.487,-0.629,17.0
19.586,-2.257,-0.678,9.0
17.752,-2.05,-0.711,1.0
16.253,-1.881,-0.739,4.0
28.141,-3.254,-0.491,1.0
24.82,-2.875,-0.567,1.0
21.981,-2.551,-0.621,23.0
19.802,-2.302,-0.669,16.0
17.986,-2.095,-0.705,1.0
16.283,-1.9,-0.726,9.0
28.848,-3.364,-0.479,1.0
25.298,-2.955,-0.556,1.0
22.323,-2.612,-0.612,29.0
20.064,-2.352,-0.66,18.0
18.254,-2.143,-0.7,0.0
16.323,-1.92,-0.714,7.0
29.51,-3.469,-0.464,1.0
25.784,-3.036,-0.545,1.0
22.711,-2.678,-0.603,21.0
20.39,-2.409,-0.653,13.0
18.703,-2.213,-0.7,1.0
16.371,-1.94,-0.701,5.0
30.247,-3.583,-0.448,0.0
26.342,-3.125,-0.533,1.0
23.131,-2.748,-0.592,18.0
20.821,-2.478,-0.648,16.0
19.067,-2.273,-0.696,4.0
16.585,-1.98,-0.696,2.0
31.345,-3.74,-0.436,1.0
26.896,-3.213,-0.519,1.0
23.384,-2.798,-0.578,5.0
21.18,-2.538,-0.64,19.0
19.212,-2.306,-0.684,9.0
17.4,-2.092,-0.713,1.0
32.521,-3.907,-0.422,1.0
27.688,-3.33,-0.508,1.0
24.065,-2.899,-0.572,1.0
21.467,-2.589,-0.628,19.0
19.524,-2.358,-0.676,13.0
17.798,-2.153,-0.713,1.0
33.397,-4.038,-0.401,0.0
28.431,-3.442,-0.495,1.0
24.945,-3.024,-0.568,1.0
21.838,-2.651,-0.618,4.0
19.815,-2.408,-0.667,14.0
18.057,-2.198,-0.706,0.0
36.931,-4.492,-0.408,1.0
29.213,-3.558,-0.48,1.0
25.505,-3.11,-0.556,1.0
22.827,-2.787,-0.623,6.0
20.25,-2.475,-0.662,15.0
18.542,-2.27,-0.706,1.0
37.177,-4.548,-0.373,3.0
29.954,-3.668,-0.462,1.0
26.126,-3.203,-0.544,1.0
22.953,-2.817,-0.603,16.0
20.631,-2.536,-0.653,18.0
18.881,-2.323,-0.7,6.0
38.312,-4.712,-0.346,1.0
31.146,-3.834,-0.449,1.0
26.709,-3.292,-0.528,1.0
23.243,-2.868,-0.587,5.0
20.935,-2.586,-0.641,15.0
19.108,-2.363,-0.688,13.0
39.346,-4.863,-0.315,0.0
32.54,-4.026,-0.435,1.0
27.493,-3.404,-0.515,1.0
23.973,-2.972,-0.581,1.0
21.251,-2.637,-0.629,3.0
19.514,-2.424,-0.683,19.0
45.411,-5.638,-0.316,0.0
33.367,-4.146,-0.411,1.0
28.309,-3.521,-0.501,1.0
24.81,-3.089,-0.575,1.0
22.292,-2.778,-0.636,2.0
19.786,-2.468,-0.671,15.0
45.312,-5.649,-0.267,7.0
35.926,-4.482,-0.405,4.0
29.082,-3.631,-0.484,1.0
25.428,-3.178,-0.562,1.0
22.771,-2.848,-0.626,8.0
20.27,-2.538,-0.666,13.0
45.358,-5.676,-0.22,4.0
36.242,-4.538,-0.37,6.0
29.915,-3.749,-0.466,1.0
26.024,-3.264,-0.547,1.0
22.96,-2.882,-0.606,14.0
20.588,-2.586,-0.654,7.0
50.425,-6.332,-0.189,4.0
37.452,-4.706,-0.341,1.0
31.508,-3.961,-0.456,0.0
26.773,-3.368,-0.534,1.0
23.251,-2.927,-0.589,5.0
20.968,-2.642,-0.644,1.0
50.431,-6.352,-0.134,6.0
40.898,-5.154,-0.328,0.0
32.717,-4.125,-0.438,1.0
27.425,-3.46,-0.517,1.0
24.113,-3.044,-0.584,1.0
21.618,-2.731,-0.639,1.0
50.477,-6.374,-0.079,1.0
41.541,-5.248,-0.287,0.0
33.291,-4.208,-0.409,1.0
28.346,-3.585,-0.503,1.0
24.953,-3.157,-0.576,0.0
22.449,-2.842,-0.639,4.0
0.0,0.0,0.0,0.0
0.0,0.0,0.0,0.0
35.456,-4.491,-0.396,0.0
29.319,-3.715,-0.487,1.0
25.592,-3.245,-0.562,1.0
22.803,-2.892,-0.623,12.0
0.0,0.0,0.0,0.0
50.387,-6.392,-0.236,1.0
37.1,-4.708,-0.372,0.0
30.079,-3.818,-0.466,1.0
26.179,-3.324,-0.546,1.0
23.012,-2.923,-0.603,14.0
0.0,0.0,0.0,0.0
50.408,-6.404,-0.179,6.0
38.646,-4.911,-0.344,1.0
31.584,-4.014,-0.454,1.0
26.972,-3.429,-0.532,1.0
23.426,-2.979,-0.587,4.0
0.0,0.0,0.0,0.0
50.42,-6.412,-0.122,4.0
41.013,-5.217,-0.319,1.0
32.96,-4.193,-0.436,1.0
27.774,-3.534,-0.516,1.0
24.43,-3.109,-0.585,1.0
88.952,-11.32,0.359,3.0
0.0,0.0,0.0,0.0
0.0,0.0,0.0,0.0
33.954,-4.322,-0.411,1.0
28.671,-3.65,-0.5,1.0
25.124,-3.199,-0.573,1.0
89.107,-11.345,0.462,4.0
0.0,0.0,0.0,0.0
0.0,0.0,0.0,0.0
36.037,-4.588,-0.395,1.0
29.681,-3.779,-0.484,1.0
25.763,-3.281,-0.558,1.0
91.203,-11.612,0.577,5.0
0.0,0.0,0.0,0.0
50.42,-6.418,-0.22,3.0
38.428,-4.892,-0.378,1.0
30.554,-3.889,-0.463,1.0
26.465,-3.369,-0.543,1.0
99.448,-12.658,0.742,36.0
0.0,0.0,0.0,0.0
50.401,-6.413,-0.163,6.0
38.74,-4.929,-0.336,1.0
31.996,-4.07,-0.449,1.0
27.26,-3.468,-0.528,1.0
99.622,-12.672,0.857,57.0
89.239,-11.348,0.291,1.0
50.471,-6.417,-0.105,2.0
41.178,-5.234,-0.31,1.0
33.095,-4.206,-0.427,0.0
28.069,-3.567,-0.512,1.0
99.65,-12.662,0.973,68.0
89.36,-11.351,0.393,6.0
0.0,0.0,0.0,0.0
44.52,-5.652,-0.285,0.0
35.372,-4.489,-0.416,0.0
29.002,-3.68,-0.496,1.0
99.641,-12.644,1.084,75.0
89.598,-11.364,0.495,4.0
0.0,0.0,0.0,0.0
50.456,-6.395,-0.266,0.0
36.046,-4.567,-0.383,0.0
29.949,-3.793,-0.479,1.0
99.64,-12.621,1.196,76.0
99.415,-12.586,0.66,14.0
0.0,0.0,0.0,0.0
50.407,-6.376,-0.209,4.0
37.995,-4.804,-0.361,0.0
31.294,-3.955,-0.465,1.0
99.637,-12.594,1.309,78.0
99.537,-12.574,0.775,48.0
89.697,-11.324,0.218,1.0
50.433,-6.364,-0.152,5.0
0.0,0.0,0.0,0.0
32.516,-4.099,-0.446,1.0
99.641,-12.563,1.421,73.0
99.661,-12.557,0.889,65.0
89.643,-11.287,0.318,5.0
50.429,-6.346,-0.095,1.0
45.262,-5.692,-0.328,1.0
33.543,-4.216,-0.423,0.0
99.658,-12.528,1.534,69.0
99.675,-12.521,0.999,73.0
90.61,-11.374,0.423,5.0
0.0,0.0,0.0,0.0
45.327,-5.682,-0.278,3.0
35.995,-4.509,-0.414,6.0
99.694,-12.492,1.644,52.0
99.723,-12.486,1.109,55.0
99.165,-12.406,0.572,4.0
0.0,0.0,0.0,0.0
45.369,-5.667,-0.229,7.0
36.069,-4.502,-0.375,4.0
99.674,-12.445,1.752,10.0
86.43,-10.781,1.057,14.0
99.451,-12.395,0.682,9.0
0.0,0.0,0.0,0.0
50.398,-6.27,-0.199,4.0
39.412,-4.899,-0.366,0.0
201.234,-25.025,3.76,56.0
86.376,-10.73,1.149,27.0
86.435,-10.728,0.687,4.0
0.0,0.0,0.0,0.0
50.376,-6.241,-0.145,1.0
0.0,0.0,0.0,0.0
210.042,-26.007,4.147,6.0
86.336,-10.678,1.242,53.0
86.382,-10.672,0.779,175.0
0.0,0.0,0.0,0.0
0.0,0.0,0.0,0.0
45.361,-5.588,-0.325,0.0
203.155,-25.034,4.228,50.0
86.337,-10.627,1.334,34.0
86.337,-10.614,0.871,193.0
0.0,0.0,0.0,0.0
0.0,0.0,0.0,0.0
44.374,-5.438,-0.271,0.0
203.021,-24.889,4.44,58.0
86.344,-10.572,1.425,32.0
86.313,-10.555,0.961,161.0
86.859,-10.609,0.492,2.0
0.0,0.0,0.0,0.0
0.0,0.0,0.0,0.0
203.02,-24.752,4.652,40.0
86.329,-10.511,1.514,38.0
86.255,-10.488,1.05,66.0
86.993,-10.564,0.583,121.0
0.0,0.0,0.0,0.0
50.296,-6.093,-0.203,1.0
188.328,-22.824,4.51,24.0
86.331,-10.447,1.604,21.0
86.257,-10.424,1.138,58.0
86.663,-10.459,0.669,10.0
0.0,0.0,0.0,0.0
50.321,-6.057,-0.152,1.0
188.161,-22.659,4.696,37.0
86.332,-10.38,1.691,1.0
86.22,-10.352,1.225,60.0
86.21,-10.336,0.752,18.0
0.0,0.0,0.0,0.0
0.0,0.0,0.0,0.0
188.305,-22.525,4.888,29.0
86.687,-10.352,1.783,3.0
86.218,-10.28,1.311,57.0
86.196,-10.262,0.837,41.0
96.707,-11.496,0.419,8.0
0.0,0.0,0.0,0.0
188.763,-22.418,5.087,31.0
86.65,-10.274,1.867,11.0
86.238,-10.208,1.395,54.0
86.179,-10.185,0.92,52.0
87.359,-10.308,0.462,3.0
0.0,0.0,0.0,0.0
188.618,-22.235,5.261,43.0
86.675,-10.199,1.951,17.0
86.249,-10.132,1.476,54.0
86.237,-10.114,1.001,153.0
87.29,-10.22,0.544,23.0
0.0,0.0,0.0,0.0
188.367,-22.03,5.431,35.0
188.608,-22.018,4.421,23.0
86.25,-10.051,1.556,52.0
86.238,-10.031,1.082,171.0
87.272,-10.133,0.624,71.0
0.0,0.0,0.0,0.0
188.399,-21.851,5.604,33.0
188.821,-21.858,4.6,28.0
86.282,-9.969,1.635,20.0
86.25,-9.947,1.16,174.0
86.39,-9.945,0.696,35.0
0.0,0.0,0.0,0.0
115.939,-13.33,3.552,38.0
107.474,-12.333,2.712,45.0
86.386,-9.893,1.713,1.0
86.269,-9.86,1.237,152.0
86.274,-9.842,0.771,60.0
78.712,-8.962,0.279,0.0
115.9,-13.203,3.654,75.0
107.44,-12.213,2.806,94.0
86.66,-9.831,1.795,7.0
86.21,-9.76,1.311,150.0
86.194,-9.738,0.845,65.0
0.0,0.0,0.0,0.0
107.395,-12.116,3.479,36.0
107.451,-12.096,2.898,80.0
86.682,-9.738,1.869,12.0
86.25,-9.669,1.384,60.0
86.21,-9.644,0.917,150.0
0.0,0.0,0.0,0.0
107.317,-11.987,3.564,57.0
107.507,-11.98,2.989,17.0
86.77,-9.648,1.942,9.0
86.287,-9.573,1.455,55.0
86.238,-9.547,0.988,52.0
87.305,-9.644,0.527,6.0
107.279,-11.858,3.649,67.0
187.517,-20.676,5.364,36.0
86.939,-9.564,2.015,5.0
86.313,-9.474,1.524,52.0
86.291,-9.449,1.056,59.0
87.345,-9.543,0.596,9.0
107.278,-11.727,3.734,53.0
123.452,-13.463,3.627,77.0
123.617,-13.448,2.96,22.0
86.352,-9.371,1.591,37.0
86.306,-9.345,1.122,59.0
87.276,-9.427,0.662,9.0
107.314,-11.599,3.815,57.0
123.431,-13.307,3.718,92.0
123.547,-13.286,3.051,116.0
86.461,-9.274,1.657,19.0
86.371,-9.242,1.187,64.0
86.775,-9.263,0.722,7.0
107.368,-11.467,3.895,62.0
188.12,-20.038,5.803,38.0
187.865,-19.96,4.774,24.0
86.751,-9.193,1.724,4.0
86.408,-9.133,1.248,61.0
86.412,-9.11,0.779,139.0
107.368,-11.326,3.971,29.0
188.388,-19.817,5.944,32.0
187.604,-19.682,4.897,34.0
96.117,-10.057,1.977,7.0
86.628,-9.04,1.311,11.0
86.544,-9.008,0.838,12.0
122.912,-12.8,4.629,24.0
187.972,-19.521,6.054,21.0
157.53,-16.313,4.216,147.0
96.149,-9.93,2.04,7.0
88.259,-9.09,1.393,12.0
88.171,-9.056,0.911,4.0
124.371,-12.781,4.764,44.0
189.42,-19.408,6.223,11.0
188.089,-19.216,5.153,55.0
187.959,-19.147,4.107,23.0
95.167,-9.667,1.562,4.0
94.457,-9.568,1.036,14.0
124.753,-12.643,4.855,28.0
148.44,-14.997,4.967,67.0
188.127,-18.951,5.269,54.0
188.526,-18.934,4.233,25.0
95.734,-9.586,1.627,2.0
95.213,-9.507,1.1,5.0
147.909,-14.776,5.842,12.0
149.545,-14.892,5.09,33.0
188.089,-18.673,5.373,50.0
187.768,-18.584,4.322,54.0
97.512,-9.621,1.712,1.0
96.409,-9.484,1.167,1.0
210.054,-20.673,8.414,8.0
188.782,-18.52,6.528,33.0
187.932,-18.379,5.47,41.0
149.49,-14.573,3.521,54.0
0.0,0.0,0.0,0.0
100.745,-9.761,1.271,66.0
147.965,-14.341,6.003,52.0
150.581,-14.546,5.284,21.0
148.925,-14.339,4.41,64.0
149.472,-14.345,3.595,87.0
108.839,-10.412,2.022,8.0
0.0,0.0,0.0,0.0
151.051,-14.407,6.201,13.0
188.859,-17.953,6.718,20.0
148.866,-14.103,4.48,76.0
187.931,-17.743,4.608,51.0
108.872,-10.244,2.073,12.0
108.524,-10.178,1.473,5.0
156.826,-14.713,6.509,49.0
148.65,-13.896,5.354,84.0
187.853,-17.497,5.737,44.0
188.5,-17.498,4.705,41.0
109.075,-10.091,2.124,9.0
108.549,-10.009,1.519,58.0
147.893,-13.639,6.201,30.0
203.92,-18.737,7.43,8.0
188.251,-17.236,5.824,40.0
188.234,-17.174,4.773,43.0
188.381,-17.126,3.743,22.0
108.767,-9.854,1.564,19.0
148.536,-13.459,6.285,48.0
164.018,-14.807,6.037,34.0
149.573,-13.453,4.683,31.0
188.387,-16.884,4.845,49.0
188.592,-16.84,3.814,22.0
110.085,-9.794,1.622,8.0
148.527,-13.216,6.336,38.0
156.978,-13.915,5.831,37.0
188.855,-16.679,5.977,19.0
157.391,-13.848,4.099,32.0
157.219,-13.78,3.23,62.0
0.0,0.0,0.0,0.0
166.061,-14.502,7.135,41.0
204.294,-17.769,7.652,23.0
157.293,-13.627,5.025,42.0
157.391,-13.584,4.147,46.0
190.136,-16.345,3.963,6.0
0.0,0.0,0.0,0.0
158.402,-13.564,6.849,26.0
149.936,-12.787,5.657,44.0
157.499,-13.378,5.074,39.0
165.016,-13.961,4.389,93.0
165.087,-13.912,3.483,74.0
0.0,0.0,0.0,0.0
163.816,-13.746,7.124,12.0
163.765,-13.686,6.218,25.0
157.593,-13.116,5.113,32.0
193.493,-16.037,5.191,30.0
201.899,-16.667,4.304,30.0
0.0,0.0,0.0,0.0
149.889,-12.32,6.548,33.0
163.882,-13.412,6.255,37.0
157.158,-12.806,5.13,18.0
204.233,-16.572,5.517,37.0
291.542,-23.556,6.266,12.0
124.039,-9.981,1.982,2.0
166.532,-13.395,7.304,16.0
196.59,-15.742,7.534,32.0
164.392,-13.106,5.39,21.0
206.459,-16.388,5.609,15.0
214.789,-16.976,4.648,7.0
129.178,-10.165,2.081,1.0
162.976,-12.821,7.169,12.0
165.528,-12.963,6.364,21.0
196.65,-15.33,6.472,23.0
212.991,-16.531,5.81,35.0
291.409,-22.518,6.336,19.0
148.468,-11.421,2.407,120.0
158.043,-12.15,6.967,26.0
209.766,-16.052,8.083,7.0
195.83,-14.915,6.46,13.0
196.776,-14.917,5.381,68.0
197.032,-14.87,4.298,61.0
148.56,-11.159,2.418,17.0
156.359,-11.736,6.901,10.0
195.007,-14.569,7.525,42.0
197.092,-14.653,6.511,36.0
0.0,0.0,0.0,0.0
284.963,-20.985,6.224,15.0
0.0,0.0,0.0,0.0
155.952,-11.422,6.885,21.0
164.499,-11.988,6.348,45.0
208.261,-15.101,6.88,20.0
204.813,-14.78,5.609,61.0
204.949,-14.717,4.475,50.0
0.0,0.0,0.0,0.0
164.386,-11.736,7.254,22.0
196.552,-13.963,7.58,40.0
203.924,-14.414,6.729,34.0
208.374,-14.654,5.698,8.0
212.942,-14.899,4.64,76.0
0.0,0.0,0.0,0.0
196.57,-13.67,8.661,12.0
203.599,-14.084,7.838,28.0
204.924,-14.101,6.748,45.0
228.32,-15.63,6.224,16.0
228.599,-15.567,4.96,72.0
187.159,-12.682,3.022,66.0
211.569,-14.319,9.301,6.0
205.029,-13.802,7.872,21.0
208.703,-13.972,6.849,32.0
237.049,-15.786,6.434,37.0
244.479,-16.193,5.274,42.0
187.206,-12.333,2.997,151.0
159.289,-10.481,6.98,3.0
205.365,-13.438,7.853,8.0
0.0,0.0,0.0,0.0
248.353,-16.074,6.702,255.0
265.198,-17.068,5.678,18.0
187.196,-11.983,2.965,39.0
222.204,-14.204,9.697,9.0
213.866,-13.592,8.138,11.0
212.357,-13.42,6.894,19.0
263.358,-16.552,7.055,10.0
0.0,0.0,0.0,0.0
187.324,-11.641,2.929,150.0
211.003,-13.091,9.162,16.0
212.995,-13.136,8.057,15.0
244.225,-14.969,7.873,24.0
263.534,-16.061,6.998,150.0
271.99,-16.481,5.703,37.0
0.0,0.0,0.0,0.0
0.0,0.0,0.0,0.0
211.955,-12.666,7.962,18.0
271.648,-16.137,8.684,37.0
271.684,-16.04,7.137,151.0
0.0,0.0,0.0,0.0
0.0,0.0,0.0,0.0
0.0,0.0,0.0,0.0
278.77,-16.025,8.826,13.0
0.0,0.0,0.0,0.0
0.0,0.0,0.0,0.0
228.026,-12.867,3.368,153.0
0.0,0.0,0.0,0.0
0.0,0.0,0.0,0.0
0.0,0.0,0.0,0.0
233.727,-12.742,3.367,7.0
211.646,-11.509,8.92,6.0
0.0,0.0,0.0,0.0
0.0,0.0,0.0,0.0
0.0,0.0,0.0,0.0
0.0,0.0,0.0,0.0
0.0,0.0,0.0,0.0
0.0,0.0,0.0,0.0
0.0,0.0,0.0,0.0
0.0,0.0,0.0,0.0
0.0,0.0,0.0,0.0
0.0,0.0,0.0,0.0
0.0,0.0,0.0,0.0
0.0,0.0,0.0,0.0
0.0,0.0,0.0,0.0
0.0,0.0,0.0,0.0
0.0,0.0,0.0,0.0
0.0,0.0,0.0,0.0
0.0,0.0,0.0,0.0
0.0,0.0,0.0,0.0
0.0,0.0,0.0,0.0
0.0,0.0,0.0,0.0
0.0,0.0,0.0,0.0
0.0,0.0,0.0,0.0
0.0,0.0,0.0,0.0
0.0,0.0,0.0,0.0
0.0,0.0,0.0,0.0
0.0,0.0,0.0,0.0
0.0,0.0,0.0,0.0
0.0,0.0,0.0,0.0
0.0,0.0,0.0,0.0
0.0,0.0,0.0,0.0
0.0,0.0,0.0,0.0
0.0,0.0,0.0,0.0
0.0,0.0,0.0,0.0
0.0,0.0,0.0,0.0
0.0,0.0,0.0,0.0
0.0,0.0,0.0,0.0
0.0,0.0,0.0,0.0
0.0,0.0,0.0,0.0
0.0,0.0,0.0,0.0
0.0,0.0,0.0,0.0
0.0,0.0,0.0,0.0
0.0,0.0,0.0,0.0
0.0,0.0,0.0,0.0
0.0,0.0,0.0,0.0
0.0,0.0,0.0,0.0
0.0,0.0,0.0,0.0
0.0,0.0,0.0,0.0
0.0,0.0,0.0,0.0
0.0,0.0,0.0,0.0
0.0,0.0,0.0,0.0
0.0,0.0,0.0,0.0
0.0,0.0,0.0,0.0
0.0,0.0,0.0,0.0
0.0,0.0,0.0,0.0
0.0,0.0,0.0,0.0
0.0,0.0,0.0,0.0
0.0,0.0,0.0,0.0
0.0,0.0,0.0,0.0
0.0,0.0,0.0,0.0
0.0,0.0,0.0,0.0
0.0,0.0,0.0,0.0
0.0,0.0,0.0,0.0
40.333,-1.31,0.969,0.0
40.348,-1.298,0.737,13.0
40.347,-1.284,0.508,15.0
0.0,0.0,0.0,0.0
0.0,0.0,0.0,0.0
40.319,-1.247,1.163,13.0
40.306,-1.233,0.934,29.0
40.351,-1.22,0.702,14.0
120.919,-3.617,1.418,42.0
40.228,-1.19,0.243,2.0
0.0,0.0,0.0,0.0
40.314,-1.169,1.127,13.0
120.898,-3.467,2.693,9.0
120.697,-3.423,1.992,32.0
40.217,-1.127,0.435,37.0
40.181,-1.113,0.207,53.0
40.298,-1.106,1.318,10.0
40.199,-1.09,1.086,52.0
40.196,-1.077,0.858,46.0
40.199,-1.064,0.625,54.0
40.194,-1.051,0.397,44.0
40.265,-1.04,0.169,3.0
40.262,-1.029,1.278,70.0
40.197,-1.014,1.047,55.0
40.175,-1.001,0.818,53.0
40.221,-0.99,0.586,50.0
40.31,-0.979,0.358,140.0
40.307,-0.966,0.129,144.0
40.25,-0.954,1.238,53.0
40.201,-0.94,1.007,54.0
40.197,-0.927,0.778,57.0
40.34,-0.917,0.547,12.0
40.321,-0.904,0.318,0.0
68.147,-1.506,0.149,0.0
40.243,-0.879,1.195,42.0
40.218,-0.866,0.965,59.0
40.239,-0.853,0.737,61.0
40.229,-0.841,0.504,59.0
40.266,-0.829,0.275,43.0
40.331,-0.817,0.045,6.0
40.281,-0.806,1.153,58.0
40.225,-0.792,0.922,46.0
40.163,-0.778,0.692,53.0
40.246,-0.767,0.46,34.0
40.244,-0.755,0.231,49.0
40.298,-0.743,0.002,65.0
40.298,-0.733,1.11,37.0
40.222,-0.719,0.878,15.0
205.404,-3.609,3.313,60.0
123.985,-2.141,1.28,9.0
40.311,-0.683,0.186,10.0
0.0,0.0,0.0,0.0
151.439,-2.482,3.998,34.0
0.0,0.0,0.0,0.0
205.373,-3.239,3.077,25.0
98.977,-1.531,0.908,4.0
67.083,-1.017,0.232,0.0
0.0,0.0,0.0,0.0
183.423,-2.677,4.627,48.0
86.926,-1.242,1.696,15.0
86.946,-1.215,1.199,150.0
79.228,-1.084,0.632,7.0
86.874,-1.162,0.197,3.0
46.696,-0.611,-0.16,1.0
79.417,-1.018,1.907,9.0
79.445,-0.994,1.454,154.0
79.447,-0.971,1.0,195.0
78.857,-0.94,0.533,32.0
60.749,-0.706,0.063,5.0
0.0,0.0,0.0,0.0
79.426,-0.878,1.809,194.0
79.435,-0.854,1.354,202.0
79.454,-0.831,0.9,177.0
77.373,-0.786,0.425,9.0
53.672,-0.53,-0.011,5.0
42.148,-0.404,-0.249,3.0
79.43,-0.739,1.707,174.0
79.437,-0.717,1.253,194.0
79.466,-0.694,0.798,179.0
61.409,-0.519,0.259,8.0
47.428,-0.387,-0.07,5.0
40.538,-0.319,-0.292,15.0
79.438,-0.604,1.604,172.0
79.457,-0.581,1.149,176.0
79.462,-0.559,0.694,150.0
56.069,-0.379,0.163,8.0
42.038,-0.272,-0.118,4.0
37.145,-0.23,-0.317,0.0
79.431,-0.469,1.498,189.0
79.461,-0.447,1.043,160.0
79.208,-0.424,0.586,35.0
0.0,0.0,0.0,0.0
39.834,-0.191,-0.165,3.0
33.4,-0.15,-0.33,1.0
79.443,-0.336,1.389,167.0
79.464,-0.315,0.934,151.0
76.482,-0.282,0.46,11.0
0.0,0.0,0.0,0.0
39.376,-0.123,-0.218,14.0
32.11,-0.091,-0.362,2.0
79.458,-0.206,1.278,151.0
79.471,-0.183,0.822,151.0
61.741,-0.126,0.284,11.0
44.767,-0.079,-0.055,23.0
38.568,-0.058,-0.268,5.0
30.552,-0.037,-0.388,1.0
79.465,-0.076,1.164,151.0
79.418,-0.054,0.707,150.0
55.928,-0.023,0.177,29.0
40.912,-0.006,-0.109,17.0
38.137,0.003,-0.32,1.0
29.685,0.01,-0.419,2.0
79.463,0.05,1.049,151.0
76.533,0.068,0.571,17.0
0.0,0.0,0.0,0.0
39.392,0.055,-0.162,37.0
33.321,0.055,-0.328,1.0
28.846,0.056,-0.45,2.0
79.47,0.174,0.932,151.0
75.845,0.185,0.454,12.0
0.0,0.0,0.0,0.0
38.555,0.114,-0.215,14.0
31.734,0.101,-0.36,1.0
27.859,0.096,-0.476,1.0
59.342,0.22,0.607,80.0
59.361,0.235,0.266,8.0
44.616,0.188,-0.055,19.0
37.832,0.169,-0.268,8.0
30.433,0.143,-0.391,1.0
26.929,0.134,-0.501,2.0
48.213,0.252,0.42,31.0
54.989,0.301,0.162,10.0
39.733,0.228,-0.111,22.0
37.595,0.224,-0.325,0.0
29.54,0.183,-0.425,2.0
26.21,0.169,-0.528,2.0
48.108,0.323,0.344,51.0
47.85,0.333,0.067,56.0
38.734,0.279,-0.168,48.0
32.908,0.245,-0.336,1.0
28.559,0.22,-0.456,1.0
25.423,0.201,-0.552,1.0
48.043,0.392,0.268,105.0
0.0,0.0,0.0,0.0
37.915,0.328,-0.225,13.0
31.201,0.277,-0.368,2.0
27.419,0.25,-0.481,1.0
21.581,0.202,-0.503,4.0
48.026,0.461,0.19,84.0
43.764,0.43,-0.078,8.0
37.335,0.376,-0.282,6.0
30.04,0.309,-0.403,2.0
26.632,0.281,-0.511,2.0
20.798,0.224,-0.519,4.0
47.968,0.528,0.111,63.0
38.941,0.438,-0.133,45.0
33.947,0.389,-0.312,1.0
29.083,0.34,-0.438,3.0
25.985,0.31,-0.541,1.0
20.036,0.243,-0.533,3.0
47.117,0.583,0.032,42.0
37.943,0.478,-0.192,38.0
32.173,0.412,-0.348,1.0
27.935,0.364,-0.467,1.0
21.806,0.289,-0.49,4.0
19.329,0.261,-0.546,3.0
44.396,0.609,-0.043,19.0
37.276,0.519,-0.251,12.0
30.614,0.433,-0.383,1.0
26.958,0.387,-0.495,2.0
21.085,0.307,-0.509,4.0
18.719,0.277,-0.56,4.0
39.362,0.591,-0.105,42.0
37.001,0.564,-0.312,2.0
29.48,0.455,-0.419,2.0
26.215,0.411,-0.527,1.0
20.172,0.32,-0.522,3.0
18.094,0.291,-0.572,3.0
38.018,0.62,-0.167,47.0
32.769,0.541,-0.333,1.0
28.406,0.475,-0.453,1.0
21.858,0.37,-0.476,4.0
19.564,0.335,-0.54,6.0
17.548,0.304,-0.585,3.0
37.259,0.653,-0.227,15.0
30.937,0.548,-0.367,1.0
27.285,0.489,-0.481,1.0
21.068,0.382,-0.495,4.0
18.801,0.344,-0.551,8.0
16.927,0.313,-0.594,2.0
36.766,0.688,-0.288,9.0
29.796,0.564,-0.406,2.0
26.545,0.507,-0.515,1.0
20.264,0.391,-0.512,3.0
18.293,0.357,-0.568,4.0
16.414,0.323,-0.604,3.0
33.17,0.659,-0.318,1.0
28.771,0.577,-0.442,1.0
22.225,0.45,-0.47,4.0
19.558,0.4,-0.528,4.0
17.663,0.364,-0.579,2.0
15.903,0.331,-0.613,4.0
31.393,0.659,-0.356,2.0
27.506,0.582,-0.47,1.0
21.263,0.454,-0.487,4.0
18.893,0.407,-0.544,3.0
17.056,0.371,-0.59,2.0
15.455,0.339,-0.624,3.0
29.969,0.662,-0.393,2.0
26.798,0.597,-0.506,1.0
20.606,0.462,-0.509,4.0
18.218,0.412,-0.557,3.0
16.487,0.376,-0.599,2.0
15.069,0.346,-0.635,4.0
28.897,0.669,-0.431,2.0
22.421,0.523,-0.464,4.0
19.713,0.463,-0.522,3.0
17.612,0.417,-0.57,5.0
15.983,0.381,-0.61,2.0
14.705,0.353,-0.647,5.0
27.677,0.669,-0.463,1.0
21.235,0.517,-0.478,4.0
18.98,0.465,-0.537,3.0
17.111,0.422,-0.585,3.0
15.505,0.385,-0.62,2.0
14.416,0.361,-0.66,5.0
