X,Y,Z,Reflectivity
39.831,0.285,5.015,46.0
40.134,0.294,4.818,21.0
40.127,0.3,4.587,44.0
40.755,0.31,4.426,39.0
39.551,0.313,5.412,59.0
39.52,0.319,5.179,40.0
39.77,0.327,4.982,65.0
39.684,0.332,4.739,49.0
40.387,0.344,4.59,58.0
44.085,0.382,4.758,31.0
39.448,0.354,5.371,61.0
39.383,0.359,5.134,56.0
39.704,0.367,4.946,62.0
40.213,0.378,4.774,32.0
40.349,0.385,4.558,57.0
44.01,0.426,4.719,3.0
38.709,0.387,5.242,60.0
39.352,0.398,5.101,62.0
40.13,0.413,4.97,38.0
39.952,0.417,4.713,64.0
40.871,0.432,4.586,45.0
41.081,0.44,4.374,33.0
38.687,0.426,5.21,67.0
39.29,0.438,5.063,55.0
40.307,0.455,4.96,20.0
40.474,0.463,4.743,39.0
41.105,0.476,4.58,42.0
41.19,0.482,4.353,9.0
38.926,0.468,5.21,54.0
39.015,0.474,4.995,46.0
40.327,0.496,4.93,16.0
40.836,0.508,4.751,41.0
41.41,0.52,4.579,44.0
47.596,0.605,4.99,45.0
39.011,0.508,5.188,60.0
38.995,0.513,4.959,63.0
40.146,0.533,4.872,15.0
40.763,0.547,4.707,48.0
47.634,0.645,5.226,4.0
47.66,0.651,4.954,5.0
39.003,0.546,5.151,63.0
43.434,0.613,5.484,6.0
43.88,0.625,5.286,5.0
41.235,0.592,4.724,42.0
47.584,0.69,5.177,9.0
43.062,0.63,4.437,22.0
38.934,0.581,5.106,58.0
39.439,0.594,4.943,15.0
41.067,0.623,4.908,38.0
41.128,0.629,4.673,52.0
41.57,0.641,4.483,43.0
40.487,0.629,4.132,25.0
38.463,0.61,5.006,55.0
39.393,0.629,4.898,46.0
41.542,0.669,4.924,52.0
41.181,0.667,4.638,44.0
41.367,0.675,4.42,16.0
48.409,0.796,4.893,4.0
38.339,0.643,4.951,71.0
39.442,0.665,4.864,47.0
41.53,0.706,4.88,47.0
41.179,0.704,4.595,40.0
41.338,0.711,4.374,30.0
48.379,0.838,4.84,6.0
38.894,0.686,4.982,41.0
39.525,0.702,4.832,43.0
41.048,0.733,4.779,39.0
41.206,0.741,4.554,64.0
41.236,0.745,4.319,33.0
40.06,0.728,3.964,59.0
38.978,0.721,4.949,60.0
42.017,0.782,5.09,25.0
47.499,0.889,5.478,4.0
41.289,0.777,4.518,17.0
41.221,0.78,4.271,37.0
40.513,0.77,3.964,48.0
38.846,0.751,4.889,62.0
0.0,0.0,0.0,0.0
40.856,0.798,4.665,47.0
42.251,0.83,4.574,26.0
48.449,0.956,4.965,56.0
40.219,0.797,3.889,47.0
38.973,0.785,4.859,58.0
0.0,0.0,0.0,0.0
41.482,0.844,4.688,46.0
48.496,0.991,5.194,15.0
48.532,0.996,4.916,5.0
40.061,0.826,3.826,42.0
0.0,0.0,0.0,0.0
41.654,0.876,4.899,21.0
48.531,1.025,5.425,51.0
48.466,1.028,5.131,39.0
49.049,1.044,4.908,7.0
40.033,0.856,3.774,51.0
43.433,0.943,5.308,5.0
41.376,0.901,4.815,50.0
48.55,1.062,5.366,11.0
41.457,0.91,4.336,33.0
40.65,0.896,4.016,28.0
40.086,0.887,3.728,56.0
41.371,0.928,5.003,5.0
41.246,0.928,4.746,45.0
41.099,0.928,4.49,46.0
41.119,0.932,4.248,24.0
40.193,0.914,3.919,60.0
40.242,0.918,3.691,18.0
38.139,0.883,4.561,51.0
41.611,0.966,4.733,51.0
41.417,0.964,4.469,50.0
40.713,0.951,4.152,36.0
53.965,1.265,5.19,15.0
40.29,0.947,3.641,39.0
41.954,1.0,4.96,24.0
41.638,0.995,4.679,19.0
49.542,1.187,5.278,5.0
40.585,0.975,4.083,46.0
42.849,1.032,4.062,11.0
40.317,0.974,3.588,59.0
53.764,1.316,6.282,8.0
53.807,1.32,5.972,22.0
49.47,1.217,5.201,7.0
40.443,0.997,4.013,49.0
67.195,1.661,6.276,15.0
40.248,0.997,3.525,57.0
42.403,1.064,4.893,37.0
41.56,1.045,4.553,19.0
41.302,1.041,4.284,28.0
40.421,1.02,3.953,47.0
40.216,1.018,3.699,43.0
64.032,1.625,5.517,27.0
42.209,1.083,4.81,33.0
41.298,1.062,4.464,20.0
49.257,1.27,5.037,10.0
56.798,1.467,5.471,11.0
56.779,1.469,5.139,8.0
64.001,1.659,5.421,8.0
49.808,1.307,5.602,10.0
53.909,1.417,5.747,14.0
40.567,1.068,4.088,28.0
56.797,1.497,5.386,29.0
40.404,1.067,3.596,41.0
56.672,1.5,4.715,10.0
49.715,1.33,5.516,10.0
41.247,1.105,4.335,27.0
40.525,1.087,4.022,50.0
42.965,1.154,4.009,48.0
40.289,1.084,3.525,58.0
56.618,1.526,4.625,45.0
41.341,1.126,4.523,24.0
41.369,1.128,4.284,16.0
40.645,1.11,3.972,65.0
42.955,1.174,3.942,24.0
40.271,1.102,3.462,71.0
56.61,1.552,4.537,76.0
41.157,1.14,4.439,58.0
40.907,1.134,4.172,31.0
42.782,1.187,4.113,53.0
40.426,1.123,3.647,15.0
40.347,1.122,3.405,56.0
62.532,1.741,4.913,53.0
41.676,1.172,4.428,30.0
56.782,1.597,5.701,30.0
42.905,1.208,4.057,59.0
40.3,1.135,3.571,39.0
62.899,1.774,5.208,17.0
61.458,1.735,4.731,41.0
41.003,1.169,4.29,52.0
40.582,1.157,4.008,39.0
62.872,1.794,5.843,11.0
40.275,1.15,3.504,60.0
62.842,1.795,5.101,67.0
55.827,1.596,4.207,24.0
40.873,1.179,4.209,56.0
42.817,1.236,4.159,35.0
62.859,1.815,5.738,22.0
40.254,1.162,3.435,51.0
0.0,0.0,0.0,0.0
55.826,1.614,4.114,100.0
40.902,1.193,4.144,54.0
42.724,1.246,4.079,54.0
40.335,1.177,3.614,60.0
62.883,1.835,5.262,60.0
61.389,1.792,4.78,28.0
73.751,2.153,5.314,29.0
42.969,1.265,4.281,20.0
42.952,1.265,4.028,44.0
40.385,1.189,3.551,46.0
62.876,1.852,5.156,17.0
55.815,1.644,4.251,72.0
73.801,2.174,5.192,37.0
42.819,1.271,4.193,30.0
62.853,1.866,5.787,34.0
40.372,1.198,3.481,57.0
61.34,1.82,4.924,71.0
55.817,1.656,4.156,110.0
73.746,2.188,5.062,39.0
42.832,1.28,4.12,54.0
40.36,1.206,3.646,28.0
40.252,1.202,3.401,53.0
61.389,1.833,4.822,13.0
73.803,2.203,5.367,17.0
73.841,2.204,4.94,17.0
42.978,1.292,4.059,26.0
40.388,1.213,3.578,56.0
61.273,1.84,5.07,17.0
55.809,1.675,4.286,94.0
73.825,2.215,5.239,45.0
54.287,1.628,3.537,97.0
40.391,1.22,3.743,9.0
40.466,1.221,3.513,63.0
61.292,1.848,4.962,71.0
55.815,1.682,4.187,97.0
73.798,2.223,5.106,44.0
54.281,1.634,3.439,30.0
40.331,1.222,3.664,33.0
40.279,1.219,3.424,67.0
55.817,1.688,4.418,50.0
73.782,2.229,5.401,18.0
73.763,2.226,4.97,10.0
124.205,3.746,7.646,20.0
40.332,1.224,3.591,54.0
61.281,1.858,5.097,15.0
55.81,1.69,4.316,98.0
73.804,2.233,5.27,52.0
54.302,1.641,3.561,87.0
73.853,2.229,4.413,18.0
40.502,1.23,3.532,47.0
61.291,1.859,4.986,59.0
55.826,1.691,4.215,98.0
73.808,2.233,5.134,50.0
54.262,1.64,3.459,46.0
73.926,2.231,4.283,20.0
40.291,1.222,3.439,69.0
55.823,1.692,4.438,49.0
55.849,1.69,4.114,36.0
73.76,2.228,4.996,16.0
124.202,3.748,7.688,17.0
125.389,3.779,7.033,22.0
61.306,1.856,5.119,10.0
55.807,1.687,4.333,92.0
73.802,2.227,5.299,46.0
54.287,1.636,3.576,81.0
73.877,2.223,4.436,17.0
122.939,3.694,6.665,28.0
61.285,1.85,5.002,75.0
55.81,1.681,4.229,107.0
73.815,2.22,5.163,45.0
54.27,1.629,3.473,53.0
73.937,2.216,4.302,7.0
123.084,3.683,6.445,30.0
61.342,1.843,4.893,22.0
55.824,1.674,4.126,64.0
73.787,2.208,5.023,38.0
124.268,3.711,7.721,23.0
125.216,3.733,7.05,22.0
122.973,3.659,6.209,22.0
55.827,1.667,4.347,58.0
73.814,2.2,5.316,38.0
54.294,1.614,3.593,73.0
124.127,3.683,7.477,29.0
122.94,3.64,6.689,19.0
123.023,3.635,5.978,35.0
55.821,1.655,4.24,109.0
73.807,2.183,5.175,40.0
54.286,1.601,3.489,73.0
124.148,3.655,7.244,24.0
123.164,3.617,6.468,27.0
123.223,3.61,5.755,9.0
55.828,1.641,4.134,99.0
73.873,2.166,5.038,45.0
124.331,3.635,7.753,33.0
124.116,3.619,7.004,19.0
122.855,3.573,6.217,33.0
152.08,4.413,6.811,26.0
73.755,2.145,5.32,32.0
54.264,1.574,3.596,70.0
124.12,3.59,7.501,33.0
123.013,3.549,6.705,17.0
122.936,3.537,5.984,34.0
151.832,4.356,6.508,39.0
73.863,2.124,5.185,34.0
54.303,1.556,3.494,68.0
124.244,3.551,7.271,31.0
122.839,3.5,6.459,37.0
123.084,3.497,5.757,9.0
152.025,4.306,6.226,35.0
73.932,2.097,5.046,24.0
54.536,1.542,3.403,10.0
133.208,3.754,7.536,5.0
122.583,3.444,6.21,58.0
151.774,4.251,6.804,26.0
151.949,4.242,5.927,39.0
54.211,1.515,3.595,35.0
123.727,3.447,7.483,21.0
123.012,3.415,6.723,24.0
122.511,3.39,5.969,33.0
151.882,4.187,6.515,28.0
152.098,4.179,5.641,38.0
54.289,1.493,3.496,75.0
122.336,3.352,7.164,16.0
122.757,3.35,6.472,30.0
122.801,3.339,5.746,13.0
152.048,4.12,6.23,39.0
152.449,4.115,5.36,30.0
54.398,1.468,3.396,77.0
122.253,3.287,6.92,17.0
122.561,3.283,6.225,38.0
129.984,3.468,5.831,26.0
152.056,4.04,5.937,40.0
152.728,4.041,5.075,33.0
54.58,1.444,3.303,29.0
122.872,3.238,6.718,28.0
122.586,3.217,5.991,52.0
152.13,3.975,6.533,33.0
152.12,3.958,5.649,44.0
152.843,3.96,4.787,10.0
55.432,1.435,3.247,15.0
123.061,3.171,6.492,31.0
152.847,3.921,7.173,12.0
152.08,3.884,6.237,34.0
152.619,3.88,5.37,26.0
138.092,3.494,4.058,18.0
55.432,1.401,3.14,20.0
122.364,3.078,6.219,33.0
130.243,3.26,5.862,21.0
152.354,3.794,5.954,33.0
159.055,3.942,5.291,19.0
157.802,3.892,4.334,8.0
55.456,1.365,3.033,9.0
122.681,3.005,5.998,29.0
130.644,3.183,5.627,26.0
152.536,3.697,5.667,44.0
158.514,3.821,4.968,20.0
146.483,3.513,3.74,29.0
122.711,2.936,6.477,13.0
127.642,3.037,5.993,23.0
130.63,3.09,5.374,9.0
152.596,3.59,5.375,40.0
159.216,3.724,4.682,17.0
0.0,0.0,0.0,0.0
122.723,2.846,6.24,29.0
127.717,2.945,5.752,12.0
152.467,3.494,5.98,36.0
159.542,3.634,5.313,30.0
0.0,0.0,0.0,0.0
0.0,0.0,0.0,0.0
122.659,2.751,6.004,11.0
130.757,2.914,5.639,10.0
152.64,3.38,5.696,36.0
159.282,3.504,5.003,25.0
170.014,3.716,4.353,6.0
106.191,2.305,2.102,9.0
127.573,2.758,6.0,16.0
127.989,2.749,5.276,17.0
128.13,2.732,4.538,19.0
128.093,2.712,3.777,33.0
128.104,2.694,3.035,40.0
106.2,2.217,1.901,20.0
127.721,2.654,5.765,31.0
127.992,2.639,5.033,41.0
128.014,2.62,4.29,60.0
128.037,2.601,3.535,62.0
128.042,2.581,2.791,47.0
0.0,0.0,0.0,0.0
127.826,2.544,5.53,22.0
127.983,2.526,4.792,35.0
128.001,2.507,4.05,40.0
128.023,2.487,3.295,36.0
128.055,2.468,2.553,26.0
106.356,2.032,1.504,2.0
127.99,2.43,5.296,16.0
128.061,2.41,4.556,20.0
128.072,2.39,3.812,23.0
128.101,2.369,3.058,21.0
127.888,2.344,2.31,30.0
92.977,1.689,1.14,4.0
174.558,3.148,6.898,6.0
132.806,2.372,4.476,30.0
160.298,2.835,4.471,19.0
128.364,2.249,2.824,3.0
127.093,2.205,2.058,39.0
89.684,1.54,0.932,8.0
161.458,2.75,6.078,17.0
132.966,2.242,4.233,16.0
160.142,2.673,4.172,13.0
189.97,3.137,3.827,22.0
126.366,2.065,1.813,31.0
77.881,1.258,0.666,35.0
132.721,2.125,4.752,25.0
163.0,2.579,4.889,10.0
190.116,2.976,4.602,8.0
128.301,1.985,2.349,11.0
121.079,1.851,1.515,13.0
62.427,0.943,0.42,6.0
132.834,1.986,4.513,43.0
0.0,0.0,0.0,0.0
190.08,2.772,4.254,30.0
127.236,1.831,2.097,32.0
80.793,1.147,0.863,6.0
48.141,0.674,0.235,25.0
55.07,0.763,1.771,59.0
176.139,2.405,4.641,20.0
207.685,2.797,4.269,10.0
126.484,1.68,1.856,33.0
48.168,0.63,0.427,9.0
48.023,0.619,0.148,64.0
55.045,0.7,1.671,105.0
55.051,0.689,1.351,64.0
55.08,0.678,1.033,38.0
48.138,0.583,0.619,58.0
48.074,0.573,0.339,71.0
47.696,0.559,0.061,56.0
48.224,0.556,1.376,55.0
48.163,0.546,1.095,55.0
48.12,0.535,0.816,85.0
48.08,0.525,0.532,101.0
48.043,0.515,0.254,90.0
0.0,0.0,0.0,0.0
48.153,0.497,1.289,90.0
48.115,0.487,1.009,103.0
48.093,0.477,0.73,105.0
48.053,0.466,0.447,91.0
48.01,0.456,0.169,86.0
43.886,0.408,-0.099,3.0
48.119,0.437,1.203,110.0
48.103,0.427,0.925,111.0
48.077,0.417,0.646,110.0
48.038,0.407,0.363,104.0
47.906,0.395,0.085,57.0
38.788,0.312,-0.154,49.0
48.106,0.376,1.12,114.0
48.1,0.366,0.842,110.0
48.082,0.356,0.564,90.0
48.092,0.346,0.281,44.0
0.0,0.0,0.0,0.0
38.167,0.258,-0.217,14.0
48.137,0.315,1.039,97.0
48.141,0.304,0.761,59.0
48.185,0.293,0.483,56.0
54.994,0.323,0.228,46.0
44.476,0.251,-0.071,17.0
37.787,0.205,-0.279,4.0
48.227,0.251,0.96,25.0
59.289,0.296,0.837,140.0
59.305,0.282,0.495,101.0
54.446,0.248,0.135,29.0
39.546,0.171,-0.129,42.0
37.744,0.154,-0.341,1.0
79.469,0.308,1.451,151.0
79.467,0.289,0.992,151.0
76.104,0.259,0.511,26.0
47.374,0.15,0.039,22.0
38.764,0.114,-0.19,28.0
32.113,0.087,-0.343,1.0
79.451,0.197,1.319,157.0
79.454,0.179,0.862,151.0
59.16,0.119,0.3,6.0
0.0,0.0,0.0,0.0
38.264,0.059,-0.25,6.0
30.673,0.04,-0.377,1.0
79.459,0.086,1.193,151.0
79.424,0.068,0.735,150.0
54.962,0.033,0.191,6.0
40.78,0.014,-0.097,16.0
38.06,0.004,-0.31,1.0
29.577,-0.003,-0.411,2.0
79.461,-0.028,1.066,152.0
79.184,-0.048,0.605,9.0
50.821,-0.043,0.096,3.0
39.71,-0.043,-0.157,28.0
33.106,-0.044,-0.322,1.0
28.738,-0.045,-0.445,2.0
79.466,-0.145,0.941,151.0
76.307,-0.159,0.464,11.0
46.074,-0.107,0.015,15.0
39.071,-0.1,-0.215,9.0
31.903,-0.089,-0.359,2.0
27.651,-0.084,-0.471,1.0
79.453,-0.263,0.82,150.0
61.43,-0.219,0.28,14.0
44.043,-0.168,-0.052,19.0
39.136,-0.159,-0.275,1.0
30.144,-0.13,-0.385,2.0
26.725,-0.122,-0.496,1.0
79.462,-0.384,0.7,151.0
55.783,-0.284,0.17,29.0
41.897,-0.224,-0.113,7.0
34.031,-0.191,-0.291,0.0
29.4,-0.172,-0.42,2.0
26.03,-0.159,-0.522,2.0
76.989,-0.491,0.564,14.0
52.046,-0.345,0.082,25.0
0.0,0.0,0.0,0.0
32.828,-0.235,-0.328,1.0
28.488,-0.211,-0.449,1.0
25.013,-0.192,-0.538,1.0
77.102,-0.612,0.453,9.0
49.275,-0.404,0.007,4.0
42.22,-0.358,-0.236,6.0
31.178,-0.272,-0.357,1.0
27.605,-0.249,-0.475,3.0
24.332,-0.226,-0.558,1.0
61.255,-0.585,0.272,2.0
50.868,-0.499,-0.066,24.0
38.489,-0.388,-0.271,13.0
30.143,-0.312,-0.388,3.0
26.669,-0.283,-0.496,1.0
23.596,-0.257,-0.574,2.0
60.957,-0.681,0.185,3.0
47.021,-0.538,-0.126,0.0
35.464,-0.415,-0.299,1.0
29.297,-0.351,-0.417,2.0
25.917,-0.317,-0.518,1.0
22.986,-0.288,-0.591,2.0
60.93,-0.78,0.102,8.0
44.062,-0.576,-0.178,1.0
33.094,-0.441,-0.323,1.0
28.501,-0.388,-0.444,2.0
25.181,-0.35,-0.537,1.0
22.316,-0.317,-0.604,1.0
58.111,-0.84,0.02,1.0
41.883,-0.617,-0.224,0.0
31.346,-0.471,-0.348,1.0
27.626,-0.423,-0.468,1.0
24.422,-0.38,-0.553,1.0
21.726,-0.345,-0.617,2.0
51.67,-0.834,-0.049,0.0
40.145,-0.659,-0.268,4.0
30.384,-0.508,-0.376,1.0
26.796,-0.455,-0.488,1.0
23.743,-0.41,-0.569,2.0
21.2,-0.373,-0.629,1.0
40.314,-0.719,-0.089,68.0
37.029,-0.671,-0.294,0.0
29.647,-0.546,-0.405,1.0
26.156,-0.49,-0.51,1.0
23.149,-0.44,-0.583,2.0
20.616,-0.398,-0.638,1.0
46.682,-0.913,-0.161,4.0
33.821,-0.672,-0.31,1.0
28.945,-0.583,-0.431,1.0
25.47,-0.521,-0.527,1.0
22.53,-0.468,-0.596,4.0
20.15,-0.424,-0.648,1.0
40.257,-0.858,-0.187,1.0
32.868,-0.71,-0.341,1.0
28.161,-0.617,-0.453,1.0
24.868,-0.552,-0.545,1.0
22.025,-0.496,-0.608,1.0
19.73,-0.45,-0.658,1.0
40.267,-0.929,-0.235,45.0
31.243,-0.731,-0.361,1.0
27.335,-0.647,-0.472,6.0
24.159,-0.579,-0.557,1.0
21.477,-0.522,-0.618,1.0
19.352,-0.476,-0.668,1.0
40.127,-0.997,-0.28,1.0
30.219,-0.76,-0.383,1.0
26.823,-0.683,-0.493,1.0
23.579,-0.607,-0.57,1.0
20.88,-0.544,-0.624,3.0
18.977,-0.5,-0.676,1.0
35.668,-0.95,-0.288,0.0
29.699,-0.8,-0.409,1.0
26.163,-0.713,-0.509,1.0
23.138,-0.638,-0.585,2.0
20.614,-0.574,-0.638,2.0
18.614,-0.525,-0.683,1.0
33.653,-0.957,-0.307,1.0
28.93,-0.832,-0.429,1.0
25.599,-0.744,-0.525,1.0
22.639,-0.665,-0.596,1.0
20.193,-0.599,-0.647,1.0
18.298,-0.549,-0.69,1.0
33.073,-1.0,-0.336,2.0
28.368,-0.867,-0.45,2.0
24.997,-0.772,-0.538,1.0
22.143,-0.691,-0.605,1.0
19.846,-0.625,-0.655,1.0
18.027,-0.574,-0.698,1.0
31.889,-1.022,-0.355,1.0
27.622,-0.894,-0.465,1.0
24.509,-0.801,-0.552,1.0
21.698,-0.716,-0.614,1.0
19.494,-0.65,-0.663,1.0
17.761,-0.598,-0.705,1.0
30.827,-1.045,-0.373,1.0
27.07,-0.926,-0.481,2.0
23.896,-0.825,-0.561,1.0
21.289,-0.742,-0.623,1.0
19.16,-0.674,-0.669,1.0
17.522,-0.622,-0.712,1.0
30.101,-1.075,-0.392,1.0
26.618,-0.959,-0.497,1.0
23.491,-0.854,-0.572,1.0
20.954,-0.769,-0.631,1.0
18.913,-0.7,-0.677,1.0
17.268,-0.645,-0.717,1.0
29.625,-1.113,-0.411,1.0
26.102,-0.989,-0.51,1.0
23.138,-0.885,-0.584,2.0
20.555,-0.792,-0.637,1.0
18.626,-0.724,-0.683,2.0
17.009,-0.667,-0.721,1.0
28.995,-1.143,-0.427,2.0
25.687,-1.021,-0.524,1.0
22.771,-0.913,-0.593,1.0
20.232,-0.818,-0.644,1.0
18.366,-0.749,-0.689,1.0
16.778,-0.689,-0.724,1.0
28.57,-1.18,-0.444,2.0
25.211,-1.049,-0.534,1.0
22.373,-0.939,-0.601,1.0
19.955,-0.844,-0.651,1.0
18.142,-0.773,-0.694,1.0
16.579,-0.712,-0.729,1.0
28.19,-1.217,-0.459,2.0
24.863,-1.081,-0.545,1.0
22.013,-0.965,-0.607,1.0
19.73,-0.871,-0.658,1.0
17.934,-0.798,-0.7,1.0
16.382,-0.734,-0.732,1.0
27.575,-1.242,-0.469,2.0
24.397,-1.106,-0.553,1.0
21.647,-0.989,-0.613,1.0
19.48,-0.897,-0.663,1.0
17.76,-0.824,-0.705,1.0
16.188,-0.756,-0.735,1.0
27.106,-1.271,-0.479,1.0
23.974,-1.132,-0.559,1.0
21.411,-1.018,-0.62,1.0
19.256,-0.922,-0.668,1.0
17.564,-0.847,-0.709,1.0
16.04,-0.779,-0.738,1.0
26.781,-1.306,-0.49,1.0
23.67,-1.162,-0.567,2.0
21.171,-1.046,-0.626,1.0
19.041,-0.947,-0.673,1.0
17.393,-0.872,-0.713,1.0
15.916,-0.803,-0.742,1.0
26.494,-1.341,-0.501,1.0
23.407,-1.192,-0.574,2.0
20.961,-1.075,-0.633,1.0
18.84,-0.973,-0.677,2.0
17.233,-0.896,-0.716,1.0
15.764,-0.825,-0.744,1.0
26.175,-1.374,-0.51,1.0
23.236,-1.227,-0.583,10.0
20.682,-1.099,-0.636,1.0
18.7,-1.001,-0.682,1.0
17.061,-0.919,-0.718,1.0
15.678,-0.85,-0.749,1.0
25.913,-1.409,-0.518,1.0
22.964,-1.256,-0.588,8.0
20.462,-1.127,-0.639,1.0
18.529,-1.026,-0.685,1.0
16.942,-0.945,-0.722,1.0
15.563,-0.873,-0.751,1.0
25.633,-1.442,-0.525,1.0
22.686,-1.284,-0.592,4.0
20.422,-1.163,-0.648,3.0
18.391,-1.053,-0.689,2.0
16.831,-0.97,-0.725,1.0
15.458,-0.896,-0.753,1.0
25.439,-1.479,-0.532,1.0
22.474,-1.314,-0.596,4.0
20.099,-1.182,-0.646,3.0
18.281,-1.082,-0.692,2.0
16.729,-0.996,-0.728,1.0
15.344,-0.919,-0.754,1.0
25.239,-1.514,-0.539,1.0
22.175,-1.338,-0.597,3.0
19.922,-1.209,-0.648,2.0
18.141,-1.107,-0.694,3.0
16.622,-1.02,-0.729,1.0
15.271,-0.943,-0.756,1.0
25.033,-1.549,-0.543,2.0
22.068,-1.373,-0.602,0.0
19.771,-1.237,-0.651,2.0
17.96,-1.13,-0.694,0.0
16.553,-1.047,-0.732,1.0
15.208,-0.967,-0.758,1.0
24.906,-1.587,-0.549,1.0
22.102,-1.416,-0.611,0.0
19.734,-1.271,-0.655,2.0
17.935,-1.162,-0.698,0.0
16.44,-1.07,-0.732,3.0
15.139,-0.991,-0.759,1.0
24.744,-1.622,-0.552,1.0
21.975,-1.448,-0.613,0.0
19.523,-1.293,-0.654,1.0
17.823,-1.187,-0.698,0.0
16.294,-1.091,-0.73,2.0
15.136,-1.019,-0.762,1.0
24.628,-1.66,-0.555,1.0
21.864,-1.481,-0.615,1.0
19.556,-1.331,-0.659,0.0
17.805,-1.218,-0.702,1.0
16.196,-1.114,-0.729,4.0
15.003,-1.037,-0.759,3.0
24.517,-1.697,-0.558,1.0
21.756,-1.514,-0.616,0.0
19.52,-1.365,-0.662,0.0
17.695,-1.244,-0.701,1.0
16.167,-1.142,-0.73,4.0
14.97,-1.063,-0.76,0.0
24.367,-1.732,-0.558,1.0
21.682,-1.548,-0.618,1.0
19.481,-1.398,-0.663,0.0
17.743,-1.279,-0.705,0.0
16.077,-1.164,-0.728,6.0
14.966,-1.089,-0.762,1.0
24.329,-1.772,-0.561,1.0
21.603,-1.581,-0.618,0.0
19.436,-1.429,-0.664,0.0
17.755,-1.312,-0.707,0.0
16.035,-1.19,-0.728,8.0
14.906,-1.112,-0.76,1.0
24.212,-1.807,-0.56,1.0
21.646,-1.623,-0.621,1.0
19.412,-1.462,-0.665,0.0
17.679,-1.338,-0.705,0.0
16.049,-1.22,-0.73,2.0
14.872,-1.136,-0.759,1.0
24.265,-1.854,-0.562,1.0
21.588,-1.657,-0.62,1.0
19.404,-1.496,-0.665,0.0
17.681,-1.369,-0.706,0.0
16.278,-1.266,-0.741,0.0
14.878,-1.162,-0.76,1.0
24.243,-1.895,-0.562,1.0
21.587,-1.695,-0.62,1.0
19.366,-1.527,-0.664,0.0
17.66,-1.399,-0.705,1.0
16.205,-1.289,-0.737,0.0
14.784,-1.181,-0.754,0.0
24.274,-1.94,-0.562,1.0
21.642,-1.737,-0.621,1.0
19.435,-1.566,-0.665,0.0
17.702,-1.433,-0.706,0.0
16.224,-1.319,-0.737,1.0
15.001,-1.224,-0.765,0.0
24.399,-1.992,-0.563,1.0
21.651,-1.775,-0.619,1.0
19.463,-1.602,-0.664,0.0
17.737,-1.466,-0.706,0.0
16.238,-1.348,-0.736,1.0
15.039,-1.253,-0.765,0.0
24.515,-2.044,-0.563,1.0
21.682,-1.815,-0.618,1.0
19.53,-1.641,-0.664,0.0
17.775,-1.5,-0.705,0.0
16.273,-1.379,-0.735,4.0
15.095,-1.284,-0.766,0.0
24.549,-2.089,-0.56,1.0
21.793,-1.861,-0.617,1.0
19.598,-1.68,-0.663,0.0
17.792,-1.531,-0.702,1.0
16.273,-1.406,-0.732,9.0
15.099,-1.31,-0.763,0.0
24.742,-2.146,-0.56,1.0
21.875,-1.905,-0.616,1.0
19.702,-1.722,-0.663,0.0
17.847,-1.566,-0.701,0.0
16.279,-1.433,-0.729,9.0
15.119,-1.336,-0.761,0.0
24.813,-2.193,-0.556,1.0
22.005,-1.952,-0.614,1.0
19.821,-1.765,-0.662,3.0
17.939,-1.603,-0.7,0.0
16.287,-1.461,-0.726,11.0
15.187,-1.367,-0.761,0.0
25.028,-2.253,-0.554,1.0
22.147,-2.001,-0.612,1.0
19.922,-1.806,-0.66,0.0
17.998,-1.637,-0.698,0.0
16.292,-1.488,-0.721,11.0
15.238,-1.396,-0.759,0.0
25.175,-2.307,-0.55,1.0
22.27,-2.048,-0.609,1.0
20.063,-1.851,-0.659,0.0
18.095,-1.675,-0.696,0.0
16.311,-1.515,-0.717,11.0
15.336,-1.43,-0.759,0.0
25.274,-2.356,-0.544,1.0
22.435,-2.098,-0.606,1.0
20.183,-1.894,-0.656,0.0
18.247,-1.718,-0.695,0.0
16.336,-1.543,-0.712,9.0
15.404,-1.46,-0.757,1.0
25.47,-2.414,-0.539,1.0
22.586,-2.147,-0.602,1.0
20.331,-1.939,-0.653,1.0
18.352,-1.756,-0.692,0.0
16.346,-1.569,-0.706,9.0
15.474,-1.491,-0.754,0.0
25.768,-2.481,-0.535,1.0
22.882,-2.21,-0.6,1.0
20.515,-1.988,-0.651,1.0
18.504,-1.799,-0.69,1.0
16.37,-1.596,-0.701,7.0
15.592,-1.525,-0.753,1.0
26.048,-2.547,-0.529,1.0
23.052,-2.261,-0.595,1.0
20.656,-2.032,-0.646,3.0
18.635,-1.839,-0.687,0.0
16.379,-1.622,-0.694,5.0
15.719,-1.561,-0.752,1.0
26.303,-2.611,-0.522,1.0
23.619,-2.352,-0.598,5.0
20.695,-2.066,-0.637,4.0
18.857,-1.889,-0.686,1.0
16.58,-1.666,-0.694,0.0
15.832,-1.595,-0.749,1.0
26.571,-2.676,-0.514,1.0
23.667,-2.39,-0.588,16.0
20.795,-2.106,-0.63,4.0
18.972,-1.927,-0.68,1.0
17.051,-1.737,-0.705,0.0
15.986,-1.633,-0.748,1.0
26.973,-2.755,-0.508,1.0
23.734,-2.43,-0.576,21.0
21.135,-2.17,-0.629,1.0
19.184,-1.975,-0.677,1.0
17.488,-1.806,-0.713,0.0
16.125,-1.67,-0.746,1.0
27.357,-2.832,-0.5,1.0
23.879,-2.478,-0.566,23.0
21.543,-2.242,-0.628,1.0
19.47,-2.031,-0.676,1.0
17.707,-1.853,-0.712,0.0
16.248,-1.705,-0.742,1.0
27.811,-2.916,-0.491,1.0
24.036,-2.527,-0.555,13.0
22.084,-2.328,-0.631,4.0
19.958,-2.109,-0.681,3.0
17.857,-1.892,-0.706,0.0
16.249,-1.726,-0.732,3.0
28.301,-3.005,-0.482,1.0
24.487,-2.607,-0.551,5.0
22.164,-2.365,-0.619,10.0
20.117,-2.152,-0.673,8.0
18.047,-1.936,-0.703,0.0
16.297,-1.753,-0.723,2.0
28.767,-3.092,-0.471,1.0
25.299,-2.726,-0.552,1.0
22.472,-2.427,-0.612,14.0
20.183,-2.185,-0.662,14.0
18.258,-1.982,-0.698,0.0
16.318,-1.776,-0.713,1.0
29.444,-3.202,-0.462,1.0
25.694,-2.801,-0.543,1.0
22.692,-2.479,-0.603,18.0
20.336,-2.227,-0.653,11.0
18.514,-2.032,-0.695,0.0
16.357,-1.8,-0.703,1.0
29.925,-3.291,-0.448,1.0
26.154,-2.883,-0.534,1.0
23.061,-2.548,-0.596,23.0
20.67,-2.288,-0.648,9.0
18.737,-2.079,-0.689,1.0
16.46,-1.831,-0.695,0.0
30.455,-3.385,-0.433,0.0
26.583,-2.961,-0.523,1.0
23.411,-2.613,-0.587,27.0
20.96,-2.345,-0.641,10.0
19.159,-2.148,-0.69,1.0
17.184,-1.931,-0.712,0.0
31.933,-3.586,-0.43,1.0
27.136,-3.054,-0.513,1.0
23.591,-2.66,-0.573,10.0
21.346,-2.412,-0.636,12.0
19.523,-2.211,-0.688,3.0
17.605,-1.998,-0.716,1.0
32.597,-3.698,-0.413,0.0
27.827,-3.163,-0.503,1.0
24.265,-2.763,-0.57,1.0
21.653,-2.471,-0.628,16.0
19.652,-2.247,-0.677,8.0
17.826,-2.043,-0.71,1.0
33.405,-3.825,-0.396,0.0
28.372,-3.255,-0.489,1.0
24.966,-2.87,-0.566,1.0
22.004,-2.534,-0.62,22.0
19.913,-2.298,-0.669,14.0
18.043,-2.086,-0.704,1.0
34.652,-4.004,-0.381,0.0
29.067,-3.364,-0.477,1.0
25.44,-2.95,-0.555,1.0
22.395,-2.601,-0.612,28.0
20.139,-2.344,-0.659,17.0
18.32,-2.136,-0.699,0.0
37.051,-4.318,-0.376,1.0
29.793,-3.478,-0.463,1.0
25.924,-3.031,-0.543,1.0
22.699,-2.659,-0.6,26.0
20.485,-2.404,-0.653,14.0
18.824,-2.213,-0.702,1.0
36.88,-4.333,-0.342,1.0
30.369,-3.574,-0.445,1.0
26.456,-3.118,-0.53,1.0
23.137,-2.732,-0.591,15.0
20.894,-2.471,-0.647,16.0
19.143,-2.268,-0.696,5.0
38.929,-4.61,-0.325,1.0
31.874,-3.78,-0.438,0.0
27.097,-3.218,-0.518,1.0
23.456,-2.79,-0.578,5.0
21.253,-2.532,-0.638,20.0
19.309,-2.305,-0.684,9.0
41.038,-4.895,-0.305,0.0
32.683,-3.904,-0.419,1.0
27.717,-3.316,-0.504,1.0
24.298,-2.911,-0.575,1.0
21.599,-2.592,-0.628,21.0
19.627,-2.359,-0.677,12.0
43.475,-5.222,-0.282,0.0
33.862,-4.073,-0.402,1.0
28.631,-3.448,-0.494,1.0
24.969,-3.012,-0.567,1.0
22.009,-2.659,-0.619,4.0
19.918,-2.409,-0.668,13.0
44.581,-5.39,-0.246,0.0
37.341,-4.521,-0.407,0.0
29.349,-3.558,-0.478,1.0
25.469,-3.091,-0.554,1.0
22.89,-2.782,-0.621,9.0
20.332,-2.475,-0.661,16.0
0.0,0.0,0.0,0.0
37.269,-4.54,-0.369,3.0
30.032,-3.662,-0.459,1.0
26.191,-3.198,-0.544,1.0
23.02,-2.814,-0.602,15.0
20.694,-2.534,-0.652,19.0
50.341,-6.16,-0.177,1.0
37.629,-4.61,-0.335,0.0
31.332,-3.843,-0.447,1.0
26.748,-3.284,-0.528,1.0
23.345,-2.87,-0.587,5.0
21.013,-2.587,-0.641,16.0
50.316,-6.191,-0.126,1.0
39.522,-4.868,-0.312,0.0
32.455,-4.002,-0.43,1.0
27.496,-3.394,-0.515,1.0
24.047,-2.972,-0.58,1.0
21.281,-2.633,-0.627,3.0
0.0,0.0,0.0,0.0
45.261,-5.603,-0.309,0.0
35.962,-4.456,-0.439,0.0
28.355,-3.517,-0.501,1.0
24.888,-3.09,-0.574,1.0
22.437,-2.789,-0.638,3.0
0.0,0.0,0.0,0.0
45.299,-5.633,-0.262,7.0
35.878,-4.465,-0.4,5.0
29.203,-3.638,-0.486,1.0
25.471,-3.176,-0.56,1.0
22.811,-2.847,-0.624,10.0
0.0,0.0,0.0,0.0
45.422,-5.672,-0.214,6.0
36.029,-4.503,-0.363,4.0
29.919,-3.742,-0.465,1.0
26.122,-3.27,-0.547,1.0
22.997,-2.882,-0.605,14.0
0.0,0.0,0.0,0.0
50.38,-6.315,-0.184,4.0
37.412,-4.693,-0.337,0.0
31.398,-3.942,-0.455,1.0
26.837,-3.372,-0.532,1.0
23.316,-2.932,-0.588,5.0
0.0,0.0,0.0,0.0
50.451,-6.346,-0.129,5.0
41.21,-5.187,-0.327,0.0
32.579,-4.104,-0.436,1.0
27.657,-3.486,-0.519,1.0
24.284,-3.063,-0.585,1.0
89.498,-11.287,0.347,6.0
50.427,-6.363,-0.074,0.0
0.0,0.0,0.0,0.0
33.312,-4.208,-0.409,1.0
28.462,-3.598,-0.502,1.0
25.014,-3.164,-0.575,0.0
89.657,-11.339,0.447,7.0
0.0,0.0,0.0,0.0
0.0,0.0,0.0,0.0
35.621,-4.512,-0.398,0.0
29.498,-3.738,-0.488,1.0
25.641,-3.251,-0.561,1.0
91.193,-11.561,0.556,4.0
0.0,0.0,0.0,0.0
50.423,-6.398,-0.232,2.0
37.94,-4.816,-0.381,1.0
30.258,-3.843,-0.466,1.0
26.274,-3.338,-0.546,1.0
99.404,-12.629,0.717,22.0
0.0,0.0,0.0,0.0
50.409,-6.408,-0.175,5.0
38.592,-4.908,-0.345,1.0
31.84,-4.051,-0.455,1.0
27.068,-3.445,-0.532,1.0
99.58,-12.673,0.831,51.0
0.0,0.0,0.0,0.0
50.429,-6.421,-0.119,3.0
41.224,-5.25,-0.322,0.0
32.796,-4.178,-0.432,1.0
27.878,-3.553,-0.516,1.0
99.68,-12.702,0.945,60.0
88.925,-11.333,0.367,4.0
0.0,0.0,0.0,0.0
43.54,-5.551,-0.29,0.0
34.244,-4.367,-0.412,1.0
28.804,-3.674,-0.501,1.0
99.682,-12.715,1.058,53.0
88.872,-11.337,0.467,4.0
0.0,0.0,0.0,0.0
45.886,-5.855,-0.254,0.0
36.44,-4.65,-0.397,0.0
29.747,-3.797,-0.483,1.0
99.698,-12.725,1.171,59.0
99.338,-12.678,0.635,11.0
0.0,0.0,0.0,0.0
50.377,-6.43,-0.222,3.0
37.749,-4.818,-0.368,1.0
30.517,-3.896,-0.461,0.0
99.694,-12.727,1.286,62.0
99.483,-12.699,0.749,35.0
0.0,0.0,0.0,0.0
50.402,-6.433,-0.164,6.0
39.631,-5.058,-0.341,1.0
32.131,-4.101,-0.449,1.0
99.67,-12.722,1.398,60.0
99.612,-12.713,0.863,54.0
88.895,-11.343,0.295,1.0
50.455,-6.437,-0.107,2.0
41.321,-5.271,-0.308,0.0
33.384,-4.259,-0.428,1.0
99.658,-12.714,1.512,61.0
99.67,-12.713,0.978,62.0
88.916,-11.338,0.397,5.0
0.0,0.0,0.0,0.0
0.0,0.0,0.0,0.0
35.007,-4.462,-0.409,0.0
99.644,-12.702,1.623,68.0
99.677,-12.701,1.091,68.0
91.202,-11.618,0.509,4.0
0.0,0.0,0.0,0.0
50.39,-6.416,-0.263,0.0
36.5,-4.646,-0.386,1.0
99.627,-12.684,1.736,67.0
99.656,-12.682,1.204,77.0
99.372,-12.641,0.667,16.0
0.0,0.0,0.0,0.0
50.405,-6.407,-0.206,4.0
38.262,-4.862,-0.362,1.0
99.582,-12.658,1.846,74.0
99.636,-12.658,1.313,86.0
99.566,-12.644,0.779,59.0
0.0,0.0,0.0,0.0
50.435,-6.399,-0.15,5.0
41.008,-5.201,-0.341,1.0
99.578,-12.633,1.959,72.0
99.634,-12.632,1.425,89.0
99.64,-12.626,0.892,76.0
89.477,-11.332,0.312,4.0
50.384,-6.378,-0.094,0.0
0.0,0.0,0.0,0.0
99.56,-12.601,2.07,68.0
99.626,-12.601,1.537,84.0
99.653,-12.596,1.002,79.0
89.658,-11.326,0.413,6.0
0.0,0.0,0.0,0.0
45.295,-5.715,-0.276,3.0
99.559,-12.567,2.181,70.0
99.626,-12.566,1.647,93.0
99.654,-12.56,1.112,90.0
99.254,-12.501,0.567,5.0
0.0,0.0,0.0,0.0
45.324,-5.701,-0.227,3.0
99.571,-12.53,2.29,62.0
99.619,-12.525,1.756,84.0
99.679,-12.523,1.222,77.0
99.398,-12.478,0.675,17.0
0.0,0.0,0.0,0.0
50.4,-6.318,-0.197,5.0
99.605,-12.491,2.398,70.0
99.654,-12.486,1.866,54.0
99.708,-12.481,1.332,51.0
99.601,-12.457,0.786,45.0
0.0,0.0,0.0,0.0
50.449,-6.299,-0.143,4.0
99.623,-12.445,2.508,18.0
99.559,-12.425,1.971,5.0
86.506,-10.785,1.248,6.0
86.395,-10.761,0.775,20.0
0.0,0.0,0.0,0.0
0.0,0.0,0.0,0.0
203.695,-25.34,5.347,42.0
0.0,0.0,0.0,0.0
86.335,-10.717,1.339,15.0
86.395,-10.713,0.867,153.0
0.0,0.0,0.0,0.0
0.0,0.0,0.0,0.0
203.567,-25.206,5.561,52.0
203.186,-25.13,4.456,27.0
86.36,-10.669,1.431,16.0
86.365,-10.657,0.958,180.0
0.0,0.0,0.0,0.0
0.0,0.0,0.0,0.0
203.315,-25.05,5.766,53.0
203.043,-24.985,4.666,39.0
86.397,-10.618,1.521,24.0
86.324,-10.597,1.047,67.0
86.635,-10.623,0.585,3.0
0.0,0.0,0.0,0.0
203.262,-24.909,5.973,36.0
203.095,-24.855,4.876,35.0
86.447,-10.566,1.61,20.0
86.299,-10.535,1.134,65.0
87.022,-10.61,0.676,56.0
0.0,0.0,0.0,0.0
203.158,-24.753,6.178,37.0
188.145,-22.892,4.707,27.0
86.772,-10.543,1.703,1.0
86.252,-10.466,1.22,64.0
86.276,-10.455,0.757,151.0
0.0,0.0,0.0,0.0
203.122,-24.596,6.379,49.0
188.139,-22.749,4.895,35.0
86.719,-10.47,1.789,3.0
86.235,-10.396,1.306,53.0
86.191,-10.377,0.841,52.0
0.0,0.0,0.0,0.0
203.159,-24.44,6.581,33.0
188.36,-22.625,5.085,20.0
86.751,-10.404,1.875,7.0
86.253,-10.328,1.391,45.0
86.215,-10.308,0.925,48.0
87.471,-10.443,0.467,3.0
190.898,-22.807,6.367,30.0
189.4,-22.59,5.296,28.0
86.785,-10.334,1.957,9.0
86.266,-10.256,1.473,51.0
86.229,-10.236,1.006,54.0
87.302,-10.347,0.548,10.0
190.526,-22.595,6.534,16.0
188.863,-22.36,5.458,29.0
188.234,-22.246,4.423,29.0
86.259,-10.178,1.553,54.0
86.225,-10.157,1.086,123.0
87.241,-10.26,0.628,9.0
190.558,-22.425,6.711,20.0
188.579,-22.152,5.622,31.0
188.48,-22.102,4.599,40.0
86.263,-10.098,1.63,15.0
86.25,-10.079,1.164,169.0
86.867,-10.134,0.703,12.0
189.745,-22.151,6.851,12.0
188.475,-21.961,5.784,28.0
188.835,-21.961,4.774,34.0
86.498,-10.041,1.711,1.0
86.248,-9.994,1.24,151.0
86.259,-9.977,0.774,52.0
116.443,-13.477,4.306,11.0
188.467,-21.77,5.952,21.0
188.466,-21.726,4.932,23.0
86.617,-9.966,1.788,11.0
86.202,-9.899,1.314,69.0
86.222,-9.883,0.848,85.0
115.815,-13.284,4.383,59.0
115.917,-13.268,3.759,81.0
107.429,-12.271,2.902,56.0
86.641,-9.877,1.863,17.0
86.227,-9.81,1.386,57.0
86.211,-9.789,0.92,150.0
115.814,-13.159,4.48,19.0
115.942,-13.146,3.855,60.0
107.389,-12.15,2.989,87.0
86.684,-9.786,1.934,19.0
86.254,-9.718,1.457,60.0
86.264,-9.699,0.99,151.0
107.665,-12.114,4.25,23.0
107.348,-12.051,3.656,39.0
107.422,-12.032,3.076,65.0
86.783,-9.699,2.005,5.0
86.291,-9.624,1.526,57.0
86.247,-9.598,1.058,56.0
106.319,-11.84,4.28,62.0
107.162,-11.907,3.732,58.0
107.5,-11.917,3.159,13.0
187.848,-20.778,4.481,8.0
86.312,-9.525,1.591,44.0
86.263,-9.499,1.122,81.0
106.255,-11.708,4.357,21.0
107.02,-11.765,3.806,51.0
123.478,-13.541,3.721,34.0
187.483,-20.511,4.612,35.0
86.389,-9.429,1.656,13.0
86.287,-9.396,1.186,79.0
115.76,-12.615,4.831,15.0
107.11,-11.643,3.887,81.0
123.41,-13.382,3.807,84.0
123.535,-13.362,3.127,100.0
86.497,-9.333,1.718,4.0
86.328,-9.293,1.247,56.0
107.899,-11.622,4.579,41.0
107.338,-11.532,3.969,38.0
123.44,-13.229,3.893,19.0
123.555,-13.207,3.211,77.0
86.81,-9.256,1.783,6.0
86.372,-9.186,1.304,55.0
107.934,-11.487,4.653,52.0
107.346,-11.394,4.041,52.0
188.453,-19.949,6.067,23.0
187.564,-19.802,4.997,28.0
96.176,-10.127,2.039,4.0
86.454,-9.08,1.362,22.0
115.71,-12.16,5.061,24.0
122.862,-12.877,4.704,74.0
189.488,-19.804,6.221,19.0
187.703,-19.565,5.118,37.0
188.427,-19.587,4.113,22.0
87.301,-9.051,1.429,13.0
107.137,-11.114,4.752,89.0
0.0,0.0,0.0,0.0
189.478,-19.544,6.334,33.0
188.084,-19.345,5.241,48.0
188.134,-19.296,4.216,42.0
89.538,-9.158,1.517,2.0
106.643,-10.914,4.792,45.0
124.618,-12.716,4.917,16.0
148.399,-15.098,5.044,55.0
188.19,-19.09,5.349,58.0
188.027,-19.02,4.318,39.0
95.659,-9.649,1.674,8.0
106.723,-10.772,4.853,45.0
124.853,-12.564,4.993,33.0
148.74,-14.922,5.135,31.0
188.042,-18.809,5.444,45.0
187.556,-18.704,4.404,42.0
95.74,-9.52,1.725,9.0
106.7,-10.615,4.907,33.0
205.959,-20.424,8.344,9.0
188.788,-18.664,6.612,34.0
188.025,-18.532,5.537,46.0
187.689,-18.443,4.499,54.0
0.0,0.0,0.0,0.0
106.638,-10.452,4.955,20.0
204.891,-20.017,8.397,10.0
188.717,-18.379,6.699,19.0
148.889,-14.454,4.453,57.0
149.437,-14.461,3.65,89.0
108.796,-10.496,2.061,9.0
106.562,-10.284,5.0,11.0
150.966,-14.522,6.253,14.0
150.38,-14.417,5.402,8.0
149.122,-14.249,4.525,56.0
149.473,-14.237,3.715,39.0
108.833,-10.333,2.107,13.0
122.882,-11.671,5.816,23.0
157.453,-14.902,6.587,52.0
189.68,-17.892,6.891,22.0
148.827,-13.99,4.574,44.0
187.882,-17.604,4.743,47.0
108.858,-10.165,2.15,10.0
122.712,-11.462,5.854,28.0
164.111,-15.276,6.927,22.0
148.601,-13.783,5.454,71.0
188.146,-17.391,5.85,36.0
188.375,-17.351,4.822,34.0
188.619,-17.316,3.792,23.0
147.152,-13.512,7.071,25.0
148.655,-13.601,6.323,16.0
156.668,-14.283,5.801,23.0
188.521,-17.125,5.924,45.0
188.29,-17.044,4.879,52.0
188.225,-16.978,3.844,31.0
147.106,-13.271,7.115,5.0
148.521,-13.347,6.363,30.0
156.912,-14.05,5.856,25.0
149.586,-13.344,4.745,78.0
188.591,-16.763,4.942,46.0
188.546,-16.699,3.901,19.0
148.475,-13.152,7.221,26.0
148.588,-13.111,6.405,7.0
157.939,-13.885,5.937,42.0
190.478,-16.681,6.09,24.0
157.377,-13.731,4.162,100.0
157.318,-13.674,3.293,40.0
148.6,-12.916,7.263,32.0
205.148,-17.762,8.891,14.0
165.902,-14.307,6.273,28.0
157.199,-13.504,5.06,72.0
189.205,-16.19,5.045,31.0
165.065,-14.071,3.49,50.0
148.392,-12.649,7.281,10.0
158.425,-13.446,6.896,16.0
149.918,-12.673,5.698,55.0
157.562,-13.266,5.1,37.0
165.078,-13.844,4.43,72.0
201.647,-16.844,4.297,23.0
163.754,-13.678,8.062,11.0
158.664,-13.197,6.932,10.0
156.406,-12.954,5.966,38.0
157.333,-12.977,5.116,51.0
193.639,-15.907,5.224,26.0
202.455,-16.565,4.341,18.0
150.61,-12.319,7.433,22.0
150.042,-12.22,6.573,45.0
157.987,-12.811,6.045,46.0
164.609,-13.292,5.368,43.0
204.65,-16.458,5.542,16.0
291.185,-23.318,6.273,31.0
149.74,-11.988,7.403,17.0
163.423,-13.025,7.173,39.0
156.885,-12.45,6.014,42.0
207.895,-16.427,6.794,5.0
212.542,-16.722,5.769,17.0
257.504,-20.171,5.561,22.0
149.618,-11.714,7.404,13.0
156.432,-12.193,6.871,15.0
165.522,-12.845,6.351,54.0
196.553,-15.183,6.43,40.0
213.405,-16.41,5.796,16.0
197.002,-15.084,4.258,31.0
149.508,-11.44,7.4,4.0
156.372,-11.911,6.869,14.0
163.934,-12.43,6.29,39.0
197.173,-14.881,6.448,24.0
196.986,-14.8,5.346,35.0
284.979,-21.313,6.154,13.0
149.194,-11.151,7.38,9.0
155.59,-11.575,6.828,21.0
164.445,-12.175,6.302,17.0
195.796,-14.428,6.393,32.0
214.037,-15.697,5.798,16.0
204.941,-14.959,4.411,19.0
158.36,-11.549,7.823,14.0
156.38,-11.348,6.852,11.0
164.454,-11.876,6.288,15.0
208.276,-14.97,6.783,23.0
204.837,-14.653,5.53,49.0
241.803,-17.213,5.181,6.0
154.909,-11.016,7.634,5.0
164.361,-11.629,7.183,5.0
196.308,-13.82,7.483,11.0
204.051,-14.292,6.618,53.0
212.723,-14.828,5.715,55.0
221.102,-15.337,4.707,39.0
0.0,0.0,0.0,0.0
195.424,-13.471,8.51,9.0
203.543,-13.96,7.726,25.0
208.32,-14.216,6.724,19.0
228.377,-15.504,6.096,53.0
237.09,-16.014,5.005,28.0
149.592,-10.093,7.323,4.0
212.417,-14.257,9.209,11.0
204.218,-13.633,7.71,31.0
209.248,-13.894,6.711,31.0
248.308,-16.403,6.575,82.0
248.401,-16.324,5.19,30.0
157.907,-10.362,7.694,3.0
204.931,-13.376,8.836,7.0
208.498,-13.533,7.822,33.0
212.261,-13.701,6.754,16.0
248.342,-15.946,6.514,255.0
265.225,-16.939,5.473,28.0
150.045,-9.569,7.271,13.0
222.446,-14.106,9.531,12.0
220.924,-13.929,8.227,8.0
244.222,-15.31,7.701,11.0
263.379,-16.418,6.83,146.0
0.0,0.0,0.0,0.0
0.0,0.0,0.0,0.0
212.866,-13.095,9.052,15.0
227.682,-13.924,8.404,37.0
0.0,0.0,0.0,0.0
272.054,-16.448,6.966,81.0
272.082,-16.354,5.441,8.0
197.973,-11.878,9.46,5.0
211.893,-12.639,8.936,9.0
229.243,-13.591,8.38,9.0
272.069,-16.032,8.39,29.0
271.681,-15.918,6.855,150.0
0.0,0.0,0.0,0.0
211.656,-12.302,10.034,14.0
0.0,0.0,0.0,0.0
0.0,0.0,0.0,0.0
0.0,0.0,0.0,0.0
0.0,0.0,0.0,0.0
0.0,0.0,0.0,0.0
0.0,0.0,0.0,0.0
0.0,0.0,0.0,0.0
0.0,0.0,0.0,0.0
0.0,0.0,0.0,0.0
0.0,0.0,0.0,0.0
0.0,0.0,0.0,0.0
227.154,-12.343,10.564,6.0
0.0,0.0,0.0,0.0
0.0,0.0,0.0,0.0
0.0,0.0,0.0,0.0
0.0,0.0,0.0,0.0
0.0,0.0,0.0,0.0
0.0,0.0,0.0,0.0
0.0,0.0,0.0,0.0
0.0,0.0,0.0,0.0
0.0,0.0,0.0,0.0
0.0,0.0,0.0,0.0
0.0,0.0,0.0,0.0
162.155,-7.921,2.781,44.0
0.0,0.0,0.0,0.0
0.0,0.0,0.0,0.0
0.0,0.0,0.0,0.0
0.0,0.0,0.0,0.0
161.949,-7.605,2.676,39.0
0.0,0.0,0.0,0.0
0.0,0.0,0.0,0.0
0.0,0.0,0.0,0.0
0.0,0.0,0.0,0.0
162.183,-7.313,2.575,27.0
0.0,0.0,0.0,0.0
0.0,0.0,0.0,0.0
0.0,0.0,0.0,0.0
0.0,0.0,0.0,0.0
0.0,0.0,0.0,0.0
0.0,0.0,0.0,0.0
0.0,0.0,0.0,0.0
0.0,0.0,0.0,0.0
0.0,0.0,0.0,0.0
0.0,0.0,0.0,0.0
0.0,0.0,0.0,0.0
0.0,0.0,0.0,0.0
0.0,0.0,0.0,0.0
0.0,0.0,0.0,0.0
0.0,0.0,0.0,0.0
0.0,0.0,0.0,0.0
0.0,0.0,0.0,0.0
0.0,0.0,0.0,0.0
0.0,0.0,0.0,0.0
0.0,0.0,0.0,0.0
0.0,0.0,0.0,0.0
0.0,0.0,0.0,0.0
0.0,0.0,0.0,0.0
0.0,0.0,0.0,0.0
0.0,0.0,0.0,0.0
0.0,0.0,0.0,0.0
0.0,0.0,0.0,0.0
0.0,0.0,0.0,0.0
0.0,0.0,0.0,0.0
0.0,0.0,0.0,0.0
0.0,0.0,0.0,0.0
0.0,0.0,0.0,0.0
0.0,0.0,0.0,0.0
0.0,0.0,0.0,0.0
0.0,0.0,0.0,0.0
0.0,0.0,0.0,0.0
0.0,0.0,0.0,0.0
0.0,0.0,0.0,0.0
0.0,0.0,0.0,0.0
40.354,-1.306,0.641,11.0
126.608,-4.058,1.295,2.0
0.0,0.0,0.0,0.0
0.0,0.0,0.0,0.0
40.295,-1.256,1.064,28.0
40.316,-1.243,0.832,26.0
154.01,-4.701,2.302,140.0
0.0,0.0,0.0,0.0
0.0,0.0,0.0,0.0
0.0,0.0,0.0,0.0
40.323,-1.182,1.026,39.0
0.0,0.0,0.0,0.0
0.0,0.0,0.0,0.0
40.202,-1.141,0.332,56.0
40.277,-1.133,1.442,33.0
40.252,-1.119,1.212,34.0
40.195,-1.105,0.981,57.0
40.22,-1.093,0.748,42.0
40.211,-1.08,0.519,55.0
40.184,-1.067,0.29,61.0
40.21,-1.058,1.398,60.0
40.224,-1.046,1.169,46.0
40.186,-1.032,0.938,56.0
40.191,-1.019,0.705,67.0
40.221,-1.007,0.476,51.0
40.287,-0.997,0.247,2.0
40.245,-0.986,1.355,53.0
40.21,-0.972,1.124,59.0
40.193,-0.96,0.895,56.0
40.269,-0.949,0.662,42.0
40.278,-0.937,0.433,68.0
40.297,-0.925,0.203,10.0
40.325,-0.916,1.313,8.0
40.213,-0.901,1.079,58.0
40.199,-0.889,0.849,53.0
40.234,-0.877,0.616,54.0
40.261,-0.865,0.387,25.0
0.0,0.0,0.0,0.0
40.341,-0.845,1.267,27.0
40.249,-0.831,1.034,50.0
40.227,-0.818,0.803,48.0
40.237,-0.806,0.569,47.0
40.236,-0.794,0.339,59.0
40.272,-0.784,0.11,58.0
40.311,-0.774,1.218,43.0
40.232,-0.76,0.985,50.0
40.185,-0.747,0.754,62.0
40.212,-0.736,0.521,1.0
40.251,-0.724,0.291,49.0
40.282,-0.713,0.061,57.0
151.45,-2.643,4.391,81.0
248.292,-4.263,5.78,45.0
0.0,0.0,0.0,0.0
123.96,-2.053,1.452,5.0
91.546,-1.491,0.55,5.0
61.633,-0.985,0.017,3.0
151.46,-2.383,4.202,83.0
187.171,-2.893,4.122,35.0
183.418,-2.78,2.987,30.0
123.5,-1.837,1.292,10.0
0.0,0.0,0.0,0.0
57.772,-0.825,-0.057,0.0
86.925,-1.219,2.299,55.0
86.931,-1.195,1.801,59.0
86.961,-1.17,1.303,22.0
80.12,-1.055,0.733,22.0
79.239,-1.02,0.27,2.0
54.557,-0.687,-0.125,0.0
79.414,-0.981,1.996,150.0
79.431,-0.958,1.54,180.0
79.398,-0.935,1.084,255.0
79.269,-0.912,0.62,83.0
59.32,-0.666,0.124,5.0
50.831,-0.556,-0.185,3.0
79.435,-0.849,1.889,178.0
79.435,-0.827,1.433,195.0
79.451,-0.806,0.978,178.0
77.664,-0.766,0.502,22.0
52.612,-0.504,0.038,4.0
42.266,-0.393,-0.211,3.0
79.424,-0.72,1.78,180.0
79.444,-0.698,1.324,186.0
79.458,-0.676,0.867,192.0
76.983,-0.635,0.391,7.0
47.129,-0.376,-0.03,4.0
0.0,0.0,0.0,0.0
79.44,-0.591,1.667,181.0
79.449,-0.57,1.211,172.0
79.47,-0.549,0.755,175.0
61.279,-0.407,0.224,18.0
42.202,-0.269,-0.087,2.0
39.808,-0.243,-0.311,0.0
79.433,-0.464,1.553,198.0
79.456,-0.443,1.096,159.0
79.387,-0.422,0.639,150.0
0.0,0.0,0.0,0.0
41.715,-0.2,-0.147,5.0
33.933,-0.153,-0.315,0.0
79.452,-0.34,1.436,205.0
79.463,-0.319,0.979,151.0
76.569,-0.288,0.504,16.0
48.043,-0.168,0.034,11.0
39.737,-0.129,-0.199,15.0
32.417,-0.096,-0.349,2.0
79.45,-0.218,1.318,152.0
79.466,-0.197,0.86,152.0
76.144,-0.169,0.385,9.0
0.0,0.0,0.0,0.0
38.719,-0.066,-0.253,6.0
30.769,-0.045,-0.378,1.0
79.461,-0.096,1.195,151.0
79.431,-0.076,0.737,150.0
56.103,-0.04,0.198,15.0
43.791,-0.02,-0.102,4.0
38.107,-0.007,-0.308,2.0
29.815,0.001,-0.413,2.0
79.461,0.022,1.071,151.0
79.36,0.041,0.613,18.0
0.0,0.0,0.0,0.0
39.559,0.04,-0.153,38.0
33.35,0.041,-0.321,1.0
28.984,0.043,-0.446,2.0
79.465,0.137,0.947,151.0
75.924,0.15,0.467,15.0
0.0,0.0,0.0,0.0
38.626,0.095,-0.212,14.0
31.891,0.086,-0.358,1.0
27.873,0.082,-0.474,1.0
79.437,0.252,0.818,150.0
59.34,0.203,0.269,17.0
0.0,0.0,0.0,0.0
37.811,0.147,-0.268,11.0
30.449,0.125,-0.391,1.0
26.929,0.117,-0.501,2.0
59.309,0.272,0.514,129.0
54.764,0.264,0.159,38.0
39.738,0.2,-0.113,24.0
37.657,0.198,-0.328,0.0
29.442,0.162,-0.426,2.0
26.057,0.149,-0.528,2.0
48.176,0.287,0.338,62.0
47.787,0.296,0.059,47.0
38.686,0.248,-0.174,43.0
32.624,0.216,-0.338,1.0
28.474,0.195,-0.459,1.0
25.113,0.177,-0.55,1.0
48.061,0.351,0.257,91.0
0.0,0.0,0.0,0.0
37.914,0.294,-0.235,13.0
30.965,0.246,-0.373,2.0
27.224,0.223,-0.486,1.0
21.879,0.184,-0.517,4.0
48.026,0.414,0.175,98.0
39.871,0.352,-0.084,15.0
37.362,0.338,-0.294,3.0
29.786,0.276,-0.41,2.0
26.367,0.25,-0.515,1.0
20.91,0.203,-0.53,4.0
47.912,0.475,0.092,58.0
38.7,0.392,-0.148,49.0
33.248,0.344,-0.32,1.0
28.856,0.304,-0.447,2.0
22.238,0.239,-0.473,1.0
20.052,0.22,-0.542,4.0
0.0,0.0,0.0,0.0
37.794,0.43,-0.211,20.0
31.627,0.366,-0.359,1.0
27.525,0.324,-0.474,1.0
21.552,0.258,-0.496,4.0
19.318,0.235,-0.556,4.0
43.997,0.545,-0.068,7.0
37.208,0.468,-0.273,6.0
30.195,0.386,-0.396,2.0
26.632,0.346,-0.506,1.0
20.766,0.273,-0.514,4.0
18.634,0.249,-0.569,4.0
38.873,0.527,-0.129,53.0
33.801,0.465,-0.307,1.0
29.102,0.406,-0.433,2.0
22.221,0.314,-0.461,1.0
19.924,0.285,-0.529,3.0
18.012,0.261,-0.582,4.0
37.756,0.555,-0.192,38.0
31.963,0.476,-0.347,2.0
27.916,0.421,-0.464,1.0
21.527,0.328,-0.485,4.0
19.239,0.297,-0.545,3.0
17.398,0.272,-0.593,3.0
37.105,0.587,-0.255,9.0
30.416,0.487,-0.385,2.0
26.881,0.435,-0.496,2.0
20.721,0.339,-0.504,4.0
18.603,0.308,-0.561,5.0
16.798,0.281,-0.603,3.0
36.845,0.622,-0.32,2.0
29.327,0.501,-0.425,2.0
22.506,0.388,-0.456,1.0
19.848,0.346,-0.519,12.0
17.904,0.315,-0.572,3.0
16.306,0.29,-0.616,4.0
32.194,0.577,-0.339,1.0
28.078,0.508,-0.458,1.0
21.672,0.396,-0.479,4.0
19.136,0.353,-0.536,9.0
17.35,0.323,-0.586,2.0
15.893,0.299,-0.629,4.0
30.515,0.578,-0.377,2.0
26.96,0.515,-0.489,1.0
20.825,0.401,-0.499,4.0
18.591,0.362,-0.555,11.0
16.71,0.328,-0.596,3.0
15.589,0.308,-0.646,3.0
29.354,0.585,-0.417,2.0
23.009,0.462,-0.46,4.0
19.977,0.404,-0.516,3.0
17.942,0.366,-0.569,4.0
16.177,0.333,-0.607,3.0
15.251,0.316,-0.66,3.0
28.086,0.586,-0.451,1.0
21.652,0.455,-0.473,4.0
19.276,0.408,-0.533,4.0
17.368,0.37,-0.583,2.0
15.663,0.336,-0.616,3.0
14.951,0.323,-0.675,4.0
27.054,0.588,-0.485,2.0
20.891,0.457,-0.495,4.0
18.597,0.41,-0.549,3.0
16.724,0.371,-0.592,2.0
15.241,0.34,-0.628,3.0
14.667,0.33,-0.69,4.0
23.109,0.522,-0.457,4.0
20.023,0.455,-0.512,3.0
17.885,0.409,-0.561,4.0
16.196,0.373,-0.604,2.0
14.86,0.344,-0.641,4.0
14.4,0.336,-0.705,5.0
21.58,0.505,-0.468,4.0
19.277,0.454,-0.53,3.0
17.34,0.411,-0.577,4.0
15.669,0.374,-0.614,2.0
14.531,0.348,-0.654,5.0
14.162,0.342,-0.72,5.0
20.806,0.504,-0.491,5.0
18.577,0.452,-0.546,3.0
16.791,0.411,-0.591,2.0
15.25,0.375,-0.627,3.0
14.325,0.354,-0.672,5.0
13.94,0.347,-0.735,3.0
19.971,0.498,-0.509,3.0
17.837,0.447,-0.558,4.0
16.195,0.408,-0.601,2.0
14.84,0.376,-0.638,4.0
14.0,0.357,-0.684,4.0
13.709,0.351,-0.749,3.0
19.307,0.495,-0.529,3.0
17.308,0.446,-0.575,4.0
15.683,0.406,-0.612,2.0
14.495,0.377,-0.651,5.0
13.724,0.359,-0.696,4.0
13.48,0.354,-0.762,2.0
18.535,0.488,-0.543,3.0
16.731,0.442,-0.587,2.0
15.285,0.406,-0.625,3.0
14.299,0.381,-0.669,4.0
13.463,0.361,-0.709,4.0
13.316,0.359,-0.779,1.0
17.83,0.481,-0.557,6.0
16.103,0.436,-0.596,5.0
14.853,0.404,-0.636,3.0
13.944,0.381,-0.68,4.0
13.226,0.362,-0.722,4.0
13.177,0.363,-0.796,0.0
17.301,0.477,-0.573,4.0
15.656,0.433,-0.609,4.0
14.512,0.403,-0.649,4.0
13.622,0.38,-0.69,4.0
13.062,0.365,-0.738,5.0
13.064,0.367,-0.814,0.0
16.696,0.469,-0.585,2.0
15.12,0.426,-0.617,2.0
14.282,0.404,-0.666,4.0
13.273,0.377,-0.698,4.0
12.943,0.369,-0.756,5.0
12.979,0.371,-0.834,0.0
16.103,0.461,-0.595,4.0
14.719,0.423,-0.63,3.0
13.942,0.402,-0.677,4.0
13.02,0.376,-0.709,4.0
12.867,0.373,-0.776,3.0
12.909,0.376,-0.854,1.0
15.228,0.443,-0.592,3.0
14.455,0.422,-0.646,5.0
13.632,0.399,-0.688,4.0
12.844,0.377,-0.725,4.0
12.744,0.375,-0.793,1.0
12.819,0.379,-0.873,1.0
14.672,0.433,-0.599,3.0
14.293,0.423,-0.666,5.0
13.261,0.394,-0.695,4.0
12.723,0.379,-0.742,4.0
12.66,0.378,-0.812,0.0
12.681,0.38,-0.888,1.0
14.44,0.432,-0.617,2.0
13.929,0.418,-0.676,4.0
12.945,0.389,-0.703,4.0
12.611,0.38,-0.76,4.0
12.655,0.383,-0.836,0.0
12.588,0.382,-0.906,1.0
14.349,0.434,-0.64,5.0
13.625,0.413,-0.687,4.0
12.696,0.386,-0.714,3.0
12.534,0.382,-0.779,2.0
12.478,0.382,-0.848,1.0
12.391,0.38,-0.915,0.0
14.237,0.435,-0.662,4.0
13.263,0.407,-0.694,4.0
12.55,0.386,-0.73,3.0
12.435,0.383,-0.797,1.0
12.479,0.385,-0.872,0.0
13.949,0.43,-0.675,4.0
12.932,0.4,-0.701,4.0
12.462,0.386,-0.748,3.0
12.431,0.386,-0.82,0.0
12.468,0.388,-0.895,0.0
13.61,0.423,-0.684,4.0
12.625,0.393,-0.708,4.0
12.402,0.387,-0.768,2.0
12.363,0.387,-0.839,0.0
12.331,0.386,-0.909,0.0
13.269,0.415,-0.692,5.0
12.434,0.39,-0.721,3.0
12.334,0.387,-0.787,1.0
12.363,0.389,-0.862,0.0
12.148,0.383,-0.918,0.0
10.62,0.335,-0.865,0.0
12.949,0.407,-0.699,5.0
12.355,0.389,-0.739,3.0
12.287,0.388,-0.807,0.0
12.348,0.39,-0.884,0.0
10.391,0.329,-0.865,0.0
12.634,0.399,-0.706,4.0
12.312,0.389,-0.759,3.0
12.23,0.387,-0.826,0.0
12.289,0.39,-0.902,0.0
10.236,0.325,-0.871,0.0
12.427,0.393,-0.717,3.0
12.291,0.389,-0.781,2.0
12.301,0.39,-0.853,0.0
12.1,0.384,-0.911,0.0
10.624,0.338,-0.862,0.0
10.086,0.321,-0.877,0.0
12.331,0.391,-0.734,3.0
12.237,0.388,-0.8,1.0
12.302,0.391,-0.875,0.0
10.456,0.333,-0.867,0.0
9.91,0.316,-0.88,0.0
12.301,0.39,-0.754,3.0
12.257,0.389,-0.823,0.0
12.312,0.391,-0.898,0.0
10.271,0.326,-0.87,0.0
9.757,0.31,-0.884,0.0
12.319,0.39,-0.778,2.0
12.313,0.39,-0.849,0.0
12.171,0.386,-0.91,0.0
10.637,0.337,-0.858,0.0
10.111,0.321,-0.875,0.0
9.611,0.305,-0.888,0.0
12.291,0.388,-0.798,1.0
12.354,0.39,-0.873,0.0
10.46,0.331,-0.862,0.0
9.965,0.315,-0.88,0.0
9.436,0.299,-0.888,0.0
12.34,0.388,-0.822,0.0
12.392,0.39,-0.898,0.0
10.313,0.325,-0.868,0.0
9.803,0.309,-0.883,0.0
9.271,0.292,-0.889,0.0
12.367,0.387,-0.845,0.0
12.255,0.384,-0.909,0.0
10.764,0.337,-0.861,0.0
10.158,0.318,-0.873,0.0
9.647,0.302,-0.885,0.0
9.071,0.284,-0.885,1.0
12.488,0.388,-0.875,0.0
10.531,0.328,-0.86,0.0
10.02,0.312,-0.878,0.0
9.475,0.295,-0.886,0.0
9.022,0.281,-0.896,1.0
12.515,0.386,-0.898,1.0
10.364,0.32,-0.864,0.0
9.864,0.304,-0.881,0.0
9.277,0.286,-0.883,0.0
8.946,0.276,-0.904,0.0
12.364,0.378,-0.908,0.0
10.82,0.331,-0.858,0.0
10.222,0.313,-0.87,0.0
9.714,0.297,-0.884,0.0
9.139,0.279,-0.885,0.0
8.794,0.269,-0.903,0.0
10.637,0.322,-0.86,0.0
10.089,0.306,-0.875,0.0
9.546,0.289,-0.884,0.0
9.021,0.273,-0.888,2.0
8.69,0.263,-0.907,0.0
10.429,0.312,-0.861,0.0
9.925,0.297,-0.877,0.0
9.401,0.281,-0.886,0.0
9.008,0.269,-0.902,0.0
8.549,0.255,-0.906,0.0
10.947,0.324,-0.857,0.0
10.317,0.305,-0.868,0.0
9.78,0.289,-0.88,0.0
9.275,0.274,-0.889,0.0
8.877,0.262,-0.903,0.0
8.453,0.249,-0.909,0.0
10.741,0.314,-0.858,0.0
10.159,0.296,-0.871,0.0
9.655,0.281,-0.884,0.0
9.031,0.263,-0.88,1.0
8.747,0.254,-0.903,0.0
8.245,0.239,-0.9,0.0
10.479,0.301,-0.853,0.0
10.016,0.288,-0.874,0.0
9.496,0.272,-0.884,0.0
9.011,0.258,-0.892,2.0
8.627,0.247,-0.904,0.0
8.182,0.234,-0.906,2.0
10.408,0.295,-0.864,2.0
9.873,0.279,-0.876,0.0
9.373,0.264,-0.887,0.0
8.967,0.253,-0.901,0.0
8.35,0.235,-0.888,0.0
8.156,0.229,-0.915,1.0
10.283,0.286,-0.868,0.0
9.756,0.271,-0.881,0.0
9.264,0.257,-0.89,0.0
8.814,0.244,-0.899,0.0
8.292,0.229,-0.894,0.0
8.056,0.222,-0.916,0.0
10.115,0.276,-0.869,0.0
9.62,0.262,-0.882,0.0
9.053,0.246,-0.883,0.0
8.724,0.236,-0.903,0.0
8.208,0.222,-0.897,1.0
7.982,0.215,-0.919,0.0
9.985,0.267,-0.872,0.0
9.488,0.253,-0.884,0.0
9.009,0.239,-0.892,0.0
8.563,0.227,-0.898,0.0
8.188,0.217,-0.907,2.0
7.909,0.209,-0.922,0.0
9.858,0.257,-0.875,0.0
9.373,0.244,-0.886,0.0
8.939,0.232,-0.897,0.0
8.385,0.217,-0.891,0.0
8.159,0.211,-0.915,0.0
7.812,0.201,-0.921,0.0
9.744,0.248,-0.878,0.0
9.261,0.235,-0.888,0.0
8.81,0.223,-0.896,0.0
8.287,0.209,-0.892,0.0
8.065,0.203,-0.915,0.0
7.745,0.195,-0.924,0.0
9.626,0.239,-0.88,0.0
9.133,0.226,-0.888,0.0
8.728,0.215,-0.899,0.0
8.244,0.203,-0.898,0.0
7.997,0.196,-0.918,0.0
7.659,0.187,-0.924,0.0
9.501,0.229,-0.881,0.0
9.045,0.217,-0.891,0.0
8.661,0.208,-0.904,0.0
8.201,0.196,-0.904,0.0
7.938,0.189,-0.922,0.0
7.589,0.18,-0.926,0.0
9.391,0.22,-0.883,0.0
8.951,0.209,-0.894,0.0
8.529,0.198,-0.901,0.0
8.177,0.189,-0.912,0.0
7.867,0.181,-0.923,0.0
7.52,0.173,-0.927,0.0
9.289,0.211,-0.885,0.0
8.849,0.2,-0.894,0.0
8.454,0.19,-0.903,0.0
8.106,0.181,-0.914,0.0
7.767,0.173,-0.921,0.0
7.46,0.166,-0.928,0.0
9.188,0.201,-0.886,0.0
8.779,0.191,-0.898,0.0
8.39,0.182,-0.906,0.0
8.036,0.174,-0.916,0.0
7.715,0.166,-0.924,0.0
7.382,0.158,-0.927,0.0
9.075,0.191,-0.886,0.0
8.682,0.182,-0.898,0.0
8.298,0.173,-0.906,0.0
7.962,0.166,-0.917,0.0
7.642,0.158,-0.924,0.0
7.311,0.151,-0.927,0.0
8.997,0.182,-0.889,0.0
8.594,0.173,-0.898,0.0
8.222,0.165,-0.907,0.0
7.894,0.158,-0.918,0.0
7.563,0.15,-0.923,0.0
7.264,0.143,-0.929,0.0
8.935,0.174,-0.892,0.0
8.504,0.164,-0.898,0.0
8.165,0.157,-0.91,0.0
7.825,0.149,-0.918,0.0
7.518,0.143,-0.926,0.0
7.224,0.136,-0.932,0.0
8.851,0.164,-0.893,0.0
8.457,0.156,-0.902,0.0
8.074,0.148,-0.908,0.0
7.78,0.142,-0.921,0.0
7.473,0.135,-0.928,0.0
7.186,0.129,-0.934,0.0
8.759,0.155,-0.892,0.0
8.384,0.147,-0.903,0.0
8.034,0.14,-0.911,0.0
7.722,0.134,-0.922,0.0
7.356,0.127,-0.921,0.0
7.14,0.122,-0.935,0.0
8.685,0.146,-0.893,0.0
8.321,0.139,-0.904,0.0
7.993,0.132,-0.914,0.0
7.662,0.126,-0.922,0.0
7.305,0.119,-0.921,1.0
7.085,0.114,-0.935,0.0
8.608,0.136,-0.894,0.0
8.263,0.13,-0.905,0.0
7.972,0.124,-0.919,0.0
7.624,0.118,-0.924,0.0
7.293,0.112,-0.926,1.0
7.05,0.107,-0.936,0.0
8.551,0.127,-0.895,0.0
8.213,0.121,-0.907,0.0
7.905,0.116,-0.919,0.0
7.578,0.11,-0.925,0.0
7.277,0.104,-0.931,1.0
6.987,0.099,-0.934,0.0
8.493,0.118,-0.896,0.0
8.155,0.112,-0.907,0.0
7.837,0.107,-0.917,0.0
7.523,0.102,-0.925,0.0
7.268,0.097,-0.935,0.0
6.966,0.092,-0.937,0.0
8.438,0.109,-0.897,0.0
8.126,0.104,-0.911,0.0
7.8,0.099,-0.919,0.0
7.455,0.093,-0.922,0.0
7.21,0.089,-0.934,0.0
