X,Y,Z,Reflectivity
212.981,-14.738,4.169,26.0
155.316,-10.794,2.208,4.0
0.0,0.0,0.0,0.0
0.0,0.0,0.0,0.0
50.475,-3.555,-0.097,5.0
204.972,-14.461,5.295,18.0
285.014,-20.19,5.837,14.0
0.0,0.0,0.0,0.0
0.0,0.0,0.0,0.0
0.0,0.0,0.0,0.0
0.0,0.0,0.0,0.0
220.448,-15.912,5.901,8.0
232.681,-16.864,4.982,8.0
0.0,0.0,0.0,0.0
0.0,0.0,0.0,0.0
0.0,0.0,0.0,0.0
61.94,-4.564,-0.003,1.0
208.113,-15.357,5.771,15.0
291.801,-21.616,6.531,15.0
148.641,-11.054,2.532,14.0
148.514,-11.088,1.722,153.0
0.0,0.0,0.0,0.0
62.05,-4.67,0.057,0.0
196.744,-14.825,5.648,67.0
197.019,-14.903,4.604,60.0
148.526,-11.277,2.677,31.0
148.409,-11.31,1.869,11.0
0.0,0.0,0.0,0.0
0.0,0.0,0.0,0.0
212.849,-16.366,6.325,29.0
250.701,-19.347,6.112,20.0
0.0,0.0,0.0,0.0
128.108,-9.96,1.744,2.0
0.0,0.0,0.0,0.0
0.0,0.0,0.0,0.0
212.998,-16.703,6.552,24.0
214.781,-16.902,5.461,20.0
0.0,0.0,0.0,0.0
128.154,-10.153,1.878,160.0
0.0,0.0,0.0,0.0
0.0,0.0,0.0,0.0
164.653,-13.153,5.238,64.0
204.49,-16.391,5.416,28.0
228.539,-18.381,4.836,8.0
0.0,0.0,0.0,0.0
122.1,-9.885,1.271,6.0
87.018,-7.069,0.442,1.0
157.245,-12.79,5.173,50.0
193.685,-15.802,5.341,27.0
201.902,-16.525,4.491,34.0
0.0,0.0,0.0,0.0
121.837,-10.035,1.401,2.0
0.0,0.0,0.0,0.0
164.126,-13.58,5.581,21.0
165.052,-13.697,4.732,71.0
165.101,-13.744,3.855,35.0
0.0,0.0,0.0,0.0
121.828,-10.204,1.538,15.0
0.0,0.0,0.0,0.0
204.148,-17.17,7.172,15.0
157.494,-13.285,4.695,38.0
165.11,-13.968,4.043,47.0
0.0,0.0,0.0,0.0
121.741,-10.359,1.674,40.0
0.0,0.0,0.0,0.0
149.907,-12.809,5.438,23.0
157.344,-13.482,4.871,85.0
157.361,-13.52,4.036,57.0
157.23,-13.547,3.18,12.0
0.0,0.0,0.0,0.0
111.72,-9.68,1.073,2.0
157.959,-13.7,5.913,16.0
190.477,-16.566,6.12,29.0
157.41,-13.726,4.219,51.0
157.224,-13.745,3.363,63.0
110.831,-9.716,1.783,7.0
110.322,-9.698,1.189,5.0
204.372,-17.985,7.894,16.0
149.619,-13.198,4.983,58.0
188.47,-16.667,5.275,37.0
188.365,-16.701,4.253,39.0
0.0,0.0,0.0,0.0
108.942,-9.708,1.304,6.0
204.438,-18.238,8.14,31.0
188.971,-16.898,6.519,21.0
149.459,-13.396,4.363,45.0
188.351,-16.924,4.48,53.0
0.0,0.0,0.0,0.0
108.637,-9.81,1.432,44.0
148.59,-13.433,6.098,47.0
189.478,-17.166,6.771,12.0
188.28,-17.097,5.727,37.0
188.434,-17.151,4.714,32.0
188.707,-17.214,3.719,5.0
108.601,-9.93,1.565,51.0
150.427,-13.769,6.358,30.0
148.654,-13.634,5.493,26.0
188.244,-17.303,5.957,40.0
188.361,-17.352,4.943,32.0
188.474,-17.401,3.946,34.0
108.553,-10.045,1.699,20.0
164.107,-15.201,7.143,38.0
148.564,-13.789,5.676,68.0
148.769,-13.836,4.895,66.0
149.423,-13.926,4.108,37.0
188.283,-17.583,4.18,51.0
108.542,-10.158,1.834,4.0
156.327,-14.643,6.998,15.0
204.714,-19.213,8.078,25.0
149.786,-14.085,5.116,46.0
149.009,-14.04,4.283,46.0
188.087,-17.755,4.41,51.0
108.841,-10.295,1.977,4.0
122.876,-11.635,5.656,42.0
151.003,-14.323,6.149,9.0
188.659,-17.927,6.682,13.0
149.016,-14.186,4.472,57.0
149.459,-14.254,3.693,82.0
108.802,-10.396,2.113,17.0
147.78,-14.136,6.991,16.0
147.851,-14.167,6.21,9.0
150.667,-14.462,5.53,39.0
149.228,-14.347,4.67,33.0
149.471,-14.396,3.885,54.0
149.472,-14.42,3.095,57.0
106.525,-10.288,5.176,27.0
147.883,-14.305,6.4,31.0
148.118,-14.349,5.626,15.0
188.17,-18.259,6.131,17.0
188.074,-18.28,5.131,43.0
149.552,-14.559,3.288,37.0
108.078,-10.533,5.392,69.0
123.138,-12.019,5.49,21.0
148.178,-14.484,5.821,12.0
188.821,-18.484,6.397,23.0
188.188,-18.451,5.379,48.0
187.779,-18.439,4.372,45.0
106.502,-10.47,5.452,10.0
124.981,-12.302,5.736,23.0
210.331,-20.732,8.536,9.0
188.807,-18.637,6.643,34.0
188.006,-18.585,5.62,40.0
187.6,-18.571,4.614,49.0
106.689,-10.573,5.601,18.0
106.727,-10.59,5.037,62.0
123.186,-12.238,5.16,9.0
148.221,-14.745,5.411,19.0
148.576,-14.8,4.635,21.0
188.048,-18.756,4.871,49.0
99.214,-9.907,5.34,8.0
122.25,-12.221,5.931,27.0
123.223,-12.332,5.324,24.0
148.112,-14.84,5.6,36.0
148.483,-14.896,4.826,38.0
188.141,-18.897,5.121,52.0
99.239,-9.979,5.471,43.0
116.088,-11.685,5.784,16.0
106.724,-10.754,4.752,27.0
124.731,-12.582,4.879,38.0
148.426,-14.989,5.02,73.0
188.193,-19.026,5.37,59.0
99.319,-10.053,5.608,50.0
0.0,0.0,0.0,0.0
0.0,0.0,0.0,0.0
124.746,-12.663,5.044,6.0
148.399,-15.079,5.215,52.0
188.173,-19.14,5.616,42.0
99.298,-10.112,5.738,7.0
107.202,-10.926,5.625,6.0
108.179,-11.036,5.102,53.0
123.063,-12.564,5.14,22.0
148.439,-15.17,5.412,34.0
188.153,-19.247,5.865,33.0
86.389,-8.847,5.107,7.0
107.166,-10.983,5.767,25.0
107.176,-10.993,5.198,65.0
106.646,-10.946,4.595,63.0
124.277,-12.767,4.696,32.0
189.449,-19.479,6.155,17.0
86.2,-8.874,5.211,11.0
99.174,-10.217,5.469,25.0
107.161,-11.046,5.341,69.0
106.934,-11.03,4.75,71.0
122.932,-12.69,4.809,22.0
189.47,-19.572,6.409,28.0
99.22,-10.263,6.132,5.0
90.758,-9.393,5.126,5.0
108.404,-11.225,5.546,35.0
107.195,-11.106,4.904,72.0
106.735,-11.066,4.317,41.0
189.917,-19.703,6.673,26.0
116.737,-12.126,7.369,8.0
107.134,-11.134,6.193,8.0
108.953,-11.328,5.719,22.0
122.542,-12.746,5.769,46.0
107.083,-11.145,4.472,73.0
122.92,-12.8,4.482,12.0
81.64,-8.513,5.262,8.0
99.329,-10.361,5.874,6.0
99.163,-10.347,5.337,54.0
107.195,-11.19,5.188,3.0
107.258,-11.201,4.622,59.0
122.876,-12.838,4.642,57.0
89.445,-9.358,5.884,3.0
99.309,-10.393,6.004,18.0
99.171,-10.381,5.467,42.0
115.046,-12.046,5.718,12.0
115.77,-12.126,5.139,24.0
107.23,-11.236,4.191,46.0
97.892,-10.272,6.568,11.0
99.278,-10.419,6.131,19.0
99.245,-10.417,5.602,44.0
108.717,-11.414,5.546,11.0
116.167,-12.198,5.309,9.0
107.105,-11.25,4.325,63.0
100.476,-10.569,6.871,14.0
99.207,-10.436,6.256,15.0
99.24,-10.44,5.73,25.0
99.169,-10.434,5.187,22.0
116.063,-12.213,5.453,21.0
107.768,-11.342,4.491,77.0
86.212,-9.087,6.008,12.0
81.554,-8.595,5.249,11.0
99.247,-10.46,5.858,22.0
99.154,-10.451,5.315,47.0
115.293,-12.153,5.567,32.0
107.968,-11.381,4.639,32.0
86.186,-9.099,6.118,5.0
81.363,-8.589,5.342,1.0
99.225,-10.473,5.985,24.0
104.597,-11.039,5.741,8.0
115.123,-12.15,5.705,38.0
108.031,-11.401,4.78,37.0
68.421,-7.232,4.945,5.0
97.932,-10.349,6.555,17.0
99.242,-10.486,6.113,34.0
104.605,-11.05,5.876,11.0
115.011,-12.148,5.848,24.0
108.047,-11.412,4.918,26.0
82.475,-8.725,6.068,8.0
100.44,-10.621,6.852,8.0
99.209,-10.488,6.238,21.0
102.079,-10.789,5.864,9.0
99.206,-10.483,5.17,25.0
115.719,-12.225,5.414,20.0
82.542,-8.734,6.178,6.0
86.217,-9.12,5.991,12.0
81.496,-8.617,5.228,10.0
86.021,-9.092,5.05,11.0
99.199,-10.482,5.294,39.0
115.283,-12.179,5.538,32.0
77.908,-8.243,5.929,3.0
86.167,-9.113,6.096,6.0
81.474,-8.613,5.327,4.0
99.231,-10.485,5.949,18.0
104.648,-11.053,5.714,9.0
115.15,-12.159,5.672,37.0
77.845,-8.232,6.021,3.0
68.345,-7.224,4.919,5.0
97.976,-10.35,6.527,18.0
99.227,-10.476,6.071,37.0
90.866,-9.589,5.073,6.0
105.1,-11.087,5.306,4.0
68.891,-7.279,5.413,8.0
82.468,-8.708,6.038,8.0
100.427,-10.597,6.814,16.0
99.201,-10.462,6.189,24.0
99.264,-10.463,5.662,8.0
99.247,-10.455,5.13,14.0
68.895,-7.27,5.497,11.0
97.124,-10.241,7.228,12.0
100.422,-10.581,6.934,19.0
81.506,-8.582,5.183,8.0
99.264,-10.445,5.78,30.0
99.157,-10.427,5.244,44.0
68.67,-7.233,5.562,6.0
82.925,-8.728,6.27,2.0
86.164,-9.061,6.052,8.0
81.611,-8.575,5.286,8.0
99.28,-10.425,5.898,22.0
99.148,-10.404,5.359,55.0
76.647,-8.057,6.298,5.0
77.816,-8.171,5.976,3.0
82.757,-8.682,5.91,8.0
97.868,-10.259,6.453,3.0
99.296,-10.4,6.015,18.0
99.181,-10.38,5.476,32.0
77.015,-8.074,6.418,6.0
84.287,-8.828,6.569,4.0
82.489,-8.631,5.985,13.0
97.864,-10.23,6.564,6.0
99.237,-10.364,6.124,10.0
90.838,-9.479,5.117,5.0
84.833,-8.868,7.166,6.0
69.143,-7.219,5.468,7.0
82.321,-8.586,6.066,10.0
97.81,-10.192,6.67,7.0
99.167,-10.322,6.229,10.0
107.164,-11.144,6.156,6.0
84.4,-8.793,7.223,16.0
69.052,-7.185,5.537,11.0
83.003,-8.627,6.208,4.0
86.116,-8.94,5.968,9.0
81.659,-8.469,5.219,8.0
86.296,-8.939,5.052,4.0
84.861,-8.806,7.358,18.0
68.882,-7.139,5.599,10.0
83.051,-8.597,6.302,2.0
82.625,-8.543,5.816,6.0
81.519,-8.419,5.298,5.0
86.234,-8.896,5.14,10.0
78.292,-8.091,6.872,1.0
68.91,-7.112,5.674,10.0
83.88,-8.646,6.453,6.0
82.496,-8.492,5.894,9.0
89.496,-9.201,5.91,1.0
105.031,-10.785,6.37,15.0
83.326,-8.572,7.401,2.0
68.947,-7.083,5.75,7.0
84.31,-8.648,6.574,4.0
68.209,-6.987,4.943,3.0
99.287,-10.157,6.66,4.0
99.331,-10.149,6.126,5.0
84.979,-8.698,7.636,18.0
68.902,-7.041,5.817,8.0
84.165,-8.589,6.648,2.0
84.443,-8.605,6.205,4.0
97.36,-9.907,6.627,2.0
99.36,-10.096,6.227,9.0
84.981,-8.651,7.721,18.0
69.168,-7.03,5.908,10.0
89.565,-9.089,7.164,4.0
68.47,-6.938,5.098,3.0
86.483,-8.749,5.971,3.0
99.344,-10.036,6.321,11.0
84.979,-8.601,7.803,13.0
68.94,-6.965,5.955,8.0
84.296,-8.503,6.823,7.0
91.499,-9.215,6.9,5.0
82.601,-8.306,5.781,4.0
81.59,-8.191,5.269,4.0
84.998,-8.549,7.886,16.0
68.771,-6.904,6.005,8.0
69.71,-6.987,5.707,2.0
91.439,-9.149,6.98,4.0
82.611,-8.252,5.858,8.0
84.098,-8.387,5.508,12.0
84.997,-8.492,7.964,15.0
68.72,-6.853,6.064,5.0
69.663,-6.935,5.767,2.0
91.187,-9.061,7.043,2.0
82.313,-8.165,5.91,5.0
84.061,-8.324,5.579,31.0
76.883,-7.627,7.272,6.0
84.988,-8.415,7.574,17.0
76.24,-7.534,6.378,2.0
91.087,-8.985,7.114,4.0
96.675,-9.518,7.025,3.0
84.005,-8.256,5.648,3.0
80.96,-7.971,7.728,6.0
78.389,-7.703,7.053,3.0
96.841,-9.497,8.184,3.0
68.452,-6.7,5.404,1.0
84.61,-8.266,6.218,5.0
99.776,-9.73,6.79,7.0
81.011,-7.913,7.8,7.0
78.55,-7.657,7.132,3.0
84.758,-8.245,7.232,3.0
96.735,-9.392,7.715,5.0
84.632,-8.2,6.288,7.0
81.006,-7.834,5.577,1.0
80.982,-7.845,7.861,8.0
109.765,-10.611,10.053,6.0
96.674,-9.324,8.325,3.0
96.696,-9.308,7.788,4.0
84.67,-8.133,6.356,6.0
84.123,-8.064,5.856,24.0
81.063,-7.784,7.932,9.0
84.323,-8.079,7.787,11.0
83.785,-8.01,7.278,2.0
84.457,-8.056,6.866,6.0
98.146,-9.341,7.442,17.0
86.873,-8.251,6.112,1.0
81.059,-7.712,7.992,7.0
84.357,-8.006,7.853,11.0
83.662,-7.922,7.329,3.0
97.891,-9.248,8.028,26.0
97.507,-9.192,7.462,6.0
98.763,-9.289,7.019,15.0
81.07,-7.638,8.051,8.0
99.894,-9.388,9.37,23.0
98.15,-9.203,8.666,6.0
95.796,-8.961,7.922,8.0
98.855,-9.226,7.632,36.0
84.511,-7.869,6.062,3.0
81.016,-7.557,8.099,6.0
85.766,-7.979,8.102,12.0
107.272,-9.955,9.542,9.0
98.737,-9.141,8.229,16.0
83.975,-7.756,6.537,3.0
86.951,-8.012,6.292,3.0
80.977,-7.473,8.147,3.0
98.086,-9.029,9.326,8.0
98.712,-9.064,8.841,16.0
96.152,-8.807,8.072,12.0
105.129,-9.605,8.247,8.0
84.148,-7.669,6.139,4.0
83.688,-7.639,8.47,2.0
98.585,-8.974,9.433,13.0
96.456,-8.757,8.696,7.0
99.742,-9.032,8.431,8.0
105.232,-9.505,8.315,7.0
98.166,-8.845,7.217,5.0
83.722,-7.555,8.521,4.0
98.523,-8.867,9.481,13.0
84.517,-7.585,7.666,4.0
105.331,-9.428,8.96,9.0
85.263,-7.612,6.783,8.0
97.595,-8.691,7.225,13.0
83.772,-7.47,8.569,3.0
98.46,-8.756,9.526,7.0
107.728,-9.553,9.825,10.0
96.847,-8.564,8.287,7.0
100.923,-8.901,8.077,6.0
105.911,-9.316,7.893,16.0
97.673,-8.603,10.04,2.0
99.658,-8.753,9.689,16.0
97.348,-8.525,8.924,5.0
115.556,-10.091,9.941,14.0
100.972,-8.794,8.127,5.0
86.478,-7.51,6.483,6.0
84.819,-7.376,8.756,4.0
99.788,-8.652,9.746,3.0
96.554,-8.347,8.893,3.0
105.656,-9.106,9.135,23.0
106.39,-9.144,8.608,25.0
97.064,-8.32,7.316,7.0
105.62,-9.064,10.947,6.0
108.056,-9.245,10.596,16.0
106.214,-9.06,9.824,2.0
106.611,-9.066,9.258,15.0
97.348,-8.254,7.914,12.0
97.015,-8.203,7.348,2.0
83.847,-7.098,8.721,2.0
106.573,-8.993,10.49,8.0
106.584,-8.966,9.896,6.0
97.108,-8.144,8.467,11.0
84.977,-7.106,6.936,13.0
99.808,-8.321,7.593,2.0
0.0,0.0,0.0,0.0
106.326,-8.845,10.5,4.0
106.378,-8.821,9.911,4.0
107.734,-8.905,9.426,4.0
84.544,-6.967,6.927,3.0
98.004,-8.051,7.485,13.0
0.0,0.0,0.0,0.0
0.0,0.0,0.0,0.0
105.329,-8.605,9.842,7.0
105.477,-8.59,9.256,2.0
107.448,-8.721,8.831,15.0
108.017,-8.741,8.276,15.0
0.0,0.0,0.0,0.0
0.0,0.0,0.0,0.0
105.309,-8.473,9.864,6.0
107.936,-8.655,9.497,13.0
106.032,-8.475,8.737,7.0
107.997,-8.604,8.297,5.0
0.0,0.0,0.0,0.0
0.0,0.0,0.0,0.0
0.0,0.0,0.0,0.0
107.469,-8.481,9.475,4.0
106.184,-8.352,8.768,9.0
105.515,-8.271,8.125,3.0
0.0,0.0,0.0,0.0
0.0,0.0,0.0,0.0
0.0,0.0,0.0,0.0
106.099,-8.235,9.37,1.0
106.614,-8.248,8.818,1.0
148.639,-11.46,11.464,12.0
0.0,0.0,0.0,0.0
0.0,0.0,0.0,0.0
0.0,0.0,0.0,0.0
108.419,-8.275,9.585,2.0
108.056,-8.217,8.948,9.0
208.282,-15.785,16.083,9.0
0.0,0.0,0.0,0.0
0.0,0.0,0.0,0.0
0.0,0.0,0.0,0.0
0.0,0.0,0.0,0.0
108.476,-8.106,8.988,2.0
108.306,-8.066,8.367,5.0
0.0,0.0,0.0,0.0
0.0,0.0,0.0,0.0
0.0,0.0,0.0,0.0
0.0,0.0,0.0,0.0
0.0,0.0,0.0,0.0
108.849,-7.961,8.409,11.0
0.0,0.0,0.0,0.0
0.0,0.0,0.0,0.0
0.0,0.0,0.0,0.0
0.0,0.0,0.0,0.0
108.856,-7.843,9.016,6.0
108.904,-7.818,8.408,1.0
0.0,0.0,0.0,0.0
0.0,0.0,0.0,0.0
0.0,0.0,0.0,0.0
0.0,0.0,0.0,0.0
0.0,0.0,0.0,0.0
0.0,0.0,0.0,0.0
0.0,0.0,0.0,0.0
0.0,0.0,0.0,0.0
0.0,0.0,0.0,0.0
0.0,0.0,0.0,0.0
0.0,0.0,0.0,0.0
109.142,-7.535,8.404,6.0
0.0,0.0,0.0,0.0
0.0,0.0,0.0,0.0
0.0,0.0,0.0,0.0
0.0,0.0,0.0,0.0
0.0,0.0,0.0,0.0
0.0,0.0,0.0,0.0
0.0,0.0,0.0,0.0
0.0,0.0,0.0,0.0
0.0,0.0,0.0,0.0
0.0,0.0,0.0,0.0
0.0,0.0,0.0,0.0
0.0,0.0,0.0,0.0
0.0,0.0,0.0,0.0
0.0,0.0,0.0,0.0
0.0,0.0,0.0,0.0
0.0,0.0,0.0,0.0
0.0,0.0,0.0,0.0
0.0,0.0,0.0,0.0
0.0,0.0,0.0,0.0
0.0,0.0,0.0,0.0
0.0,0.0,0.0,0.0
0.0,0.0,0.0,0.0
0.0,0.0,0.0,0.0
0.0,0.0,0.0,0.0
0.0,0.0,0.0,0.0
0.0,0.0,0.0,0.0
0.0,0.0,0.0,0.0
0.0,0.0,0.0,0.0
0.0,0.0,0.0,0.0
0.0,0.0,0.0,0.0
0.0,0.0,0.0,0.0
0.0,0.0,0.0,0.0
0.0,0.0,0.0,0.0
0.0,0.0,0.0,0.0
0.0,0.0,0.0,0.0
0.0,0.0,0.0,0.0
0.0,0.0,0.0,0.0
0.0,0.0,0.0,0.0
0.0,0.0,0.0,0.0
0.0,0.0,0.0,0.0
0.0,0.0,0.0,0.0
0.0,0.0,0.0,0.0
0.0,0.0,0.0,0.0
0.0,0.0,0.0,0.0
0.0,0.0,0.0,0.0
0.0,0.0,0.0,0.0
0.0,0.0,0.0,0.0
0.0,0.0,0.0,0.0
0.0,0.0,0.0,0.0
0.0,0.0,0.0,0.0
0.0,0.0,0.0,0.0
0.0,0.0,0.0,0.0
0.0,0.0,0.0,0.0
0.0,0.0,0.0,0.0
56.554,-3.176,5.767,3.0
0.0,0.0,0.0,0.0
0.0,0.0,0.0,0.0
0.0,0.0,0.0,0.0
0.0,0.0,0.0,0.0
0.0,0.0,0.0,0.0
56.601,-3.096,5.739,1.0
56.875,-3.095,5.44,2.0
92.418,-5.004,8.312,4.0
0.0,0.0,0.0,0.0
83.026,-4.452,6.509,3.0
91.512,-4.883,6.653,4.0
0.0,0.0,0.0,0.0
90.565,-4.798,8.606,6.0
0.0,0.0,0.0,0.0
93.413,-4.899,7.798,4.0
98.492,-5.139,7.658,2.0
91.475,-4.749,6.591,4.0
0.0,0.0,0.0,0.0
56.673,-2.92,5.347,3.0
92.58,-4.746,8.204,1.0
93.273,-4.758,7.722,7.0
91.876,-4.662,7.081,3.0
91.456,-4.617,6.527,3.0
92.739,-4.67,9.219,5.0
56.695,-2.84,5.309,6.0
0.0,0.0,0.0,0.0
93.241,-4.622,7.652,6.0
91.962,-4.535,7.02,5.0
91.495,-4.489,6.462,3.0
54.911,-2.686,5.417,1.0
84.051,-4.09,7.808,3.0
83.948,-4.063,7.315,4.0
93.223,-4.486,7.579,5.0
92.046,-4.406,6.956,7.0
89.754,-4.274,6.268,6.0
54.902,-2.606,5.372,3.0
83.241,-3.929,7.666,10.0
83.934,-3.939,7.246,11.0
92.44,-4.316,7.439,2.0
83.546,-3.879,6.245,7.0
89.775,-4.146,6.196,3.0
54.97,-2.53,5.332,2.0
63.426,-2.903,5.787,3.0
93.28,-4.245,7.974,6.0
91.799,-4.154,7.31,3.0
83.484,-3.756,6.168,4.0
91.449,-4.092,6.231,1.0
63.747,-2.842,6.128,5.0
63.429,-2.812,5.731,4.0
83.335,-3.673,7.049,12.0
90.281,-3.956,7.108,10.0
83.47,-3.637,6.091,5.0
89.865,-3.894,6.042,5.0
54.995,-2.373,5.235,12.0
56.77,-2.435,5.076,4.0
92.383,-3.939,7.727,12.0
90.383,-3.832,7.03,7.0
83.427,-3.517,6.008,5.0
89.879,-3.767,5.958,5.0
57.815,-2.413,5.448,7.0
56.752,-2.355,5.02,6.0
92.727,-3.824,7.666,3.0
92.723,-3.802,7.121,12.0
83.433,-3.401,5.928,9.0
90.341,-3.662,5.9,6.0
57.726,-2.329,5.382,5.0
56.862,-2.28,4.972,6.0
84.047,-3.349,6.863,5.0
92.902,-3.681,7.041,23.0
83.31,-3.28,5.834,12.0
93.066,-3.642,5.982,6.0
57.65,-2.245,5.314,5.0
63.509,-2.458,5.487,5.0
84.083,-3.234,6.778,8.0
83.458,-3.191,6.237,4.0
83.318,-3.165,5.746,10.0
174.619,-6.595,11.038,17.0
40.791,-1.532,3.716,39.0
82.11,-3.065,7.004,13.0
91.474,-3.392,7.273,15.0
83.071,-3.062,6.116,10.0
83.47,-3.056,5.664,9.0
174.632,-6.356,10.845,33.0
54.854,-1.985,4.935,6.0
90.068,-3.239,7.58,19.0
83.582,-2.986,6.551,12.0
82.703,-2.935,5.995,13.0
93.144,-3.285,6.215,7.0
174.753,-6.125,10.653,34.0
40.842,-1.423,3.627,11.0
82.816,-2.867,6.874,11.0
92.602,-3.184,7.149,37.0
93.624,-3.197,6.678,6.0
90.301,-3.064,5.919,4.0
174.653,-5.889,10.44,34.0
40.969,-1.373,3.589,32.0
82.923,-2.759,6.783,9.0
90.303,-2.985,6.863,14.0
92.514,-3.037,6.486,23.0
172.5,-5.626,11.097,34.0
174.448,-5.652,10.215,20.0
54.718,-1.761,4.726,19.0
83.084,-2.656,6.693,14.0
83.152,-2.639,6.217,46.0
83.413,-2.629,5.744,14.0
92.996,-2.91,5.865,46.0
93.223,-2.898,5.341,11.0
54.71,-1.689,4.655,15.0
83.163,-2.548,6.592,9.0
82.991,-2.525,6.096,5.0
83.594,-2.525,5.647,19.0
90.574,-2.717,5.595,39.0
90.527,-2.697,5.069,46.0
54.698,-1.617,4.581,13.0
83.459,-2.449,6.505,8.0
83.62,-2.436,6.031,32.0
90.635,-2.621,6.002,27.0
83.445,-2.395,5.042,60.0
90.467,-2.578,4.944,51.0
54.666,-1.545,4.503,9.0
41.299,-1.159,3.162,15.0
93.294,-2.598,6.6,3.0
92.301,-2.551,5.985,68.0
83.517,-2.291,4.931,54.0
90.474,-2.464,4.818,46.0
41.248,-1.113,3.34,53.0
41.193,-1.103,3.095,22.0
82.221,-2.185,5.701,3.0
92.352,-2.436,5.857,3.0
83.611,-2.189,4.818,58.0
90.522,-2.352,4.692,47.0
41.31,-1.063,3.285,56.0
84.698,-2.163,6.243,3.0
91.696,-2.323,6.224,9.0
97.858,-2.46,6.064,34.0
83.648,-2.086,4.698,52.0
90.53,-2.24,4.56,42.0
41.211,-1.01,3.216,59.0
41.288,-1.004,2.982,28.0
84.763,-2.045,5.629,17.0
129.8,-3.106,7.851,26.0
83.702,-1.986,4.577,44.0
90.582,-2.133,4.428,50.0
41.265,-0.962,3.158,58.0
84.211,-1.947,5.956,62.0
84.09,-1.928,5.458,41.0
91.391,-2.079,5.391,63.0
92.148,-2.079,4.9,16.0
90.599,-2.027,4.293,45.0
41.251,-0.913,3.094,20.0
84.001,-1.844,5.813,15.0
84.158,-1.831,5.332,61.0
91.373,-1.971,5.248,15.0
91.545,-1.959,4.726,77.0
99.035,-2.101,4.538,13.0
41.281,-0.866,3.032,6.0
94.151,-1.957,6.365,5.0
84.134,-1.734,5.197,51.0
83.765,-1.711,4.679,15.0
91.589,-1.855,4.583,78.0
128.717,-2.584,5.693,34.0
83.949,-1.665,6.03,2.0
85.879,-1.687,5.667,70.0
84.097,-1.638,5.059,45.0
83.799,-1.617,4.544,29.0
90.86,-1.737,4.398,76.0
128.36,-2.433,5.469,30.0
101.305,-1.896,7.11,3.0
85.428,-1.584,5.496,23.0
84.113,-1.545,4.921,50.0
127.178,-2.315,6.688,34.0
99.194,-1.788,4.638,18.0
128.604,-2.297,5.265,20.0
126.257,-2.226,8.649,31.0
85.313,-1.489,5.346,65.0
84.054,-1.453,4.776,21.0
127.02,-2.175,6.465,29.0
0.0,0.0,0.0,0.0
128.103,-2.152,5.03,29.0
124.938,-2.07,8.347,39.0
85.348,-1.399,5.202,31.0
83.892,-1.362,4.624,58.0
90.826,-1.461,4.469,50.0
91.446,-1.457,3.967,94.0
129.002,-2.034,4.846,28.0
124.811,-1.939,8.123,22.0
85.396,-1.313,5.058,11.0
83.89,-1.277,4.479,60.0
79.178,-1.192,3.757,150.0
91.478,-1.363,3.808,66.0
99.763,-1.472,3.573,21.0
94.262,-1.37,5.97,52.0
128.876,-1.853,7.408,10.0
83.902,-1.194,4.333,43.0
85.752,-1.207,3.919,150.0
99.521,-1.386,3.969,27.0
109.519,-1.509,3.73,4.0
82.729,-1.121,5.091,73.0
83.628,-1.121,4.658,21.0
83.892,-1.112,4.182,17.0
85.894,-1.126,3.772,150.0
86.023,-1.116,3.276,7.0
79.407,-1.018,2.561,3.0
83.125,-1.047,4.965,31.0
83.677,-1.042,4.508,47.0
79.224,-0.976,3.806,171.0
79.382,-0.967,3.342,150.0
79.416,-0.956,2.88,150.0
79.426,-0.945,2.418,151.0
83.301,-0.974,4.824,49.0
83.726,-0.968,4.358,87.0
85.767,-0.979,3.962,11.0
79.43,-0.896,3.198,158.0
79.422,-0.885,2.735,151.0
79.44,-0.875,2.273,151.0
85.42,-0.923,4.788,14.0
83.754,-0.894,4.204,48.0
85.89,-0.905,3.808,150.0
79.425,-0.826,3.049,171.0
79.431,-0.816,2.587,151.0
79.433,-0.806,2.123,151.0
93.83,-0.933,5.081,31.0
79.226,-0.778,3.826,163.0
87.878,-0.851,3.731,5.0
79.439,-0.76,2.9,151.0
79.418,-0.749,2.435,150.0
79.435,-0.74,1.973,156.0
93.768,-0.855,4.899,23.0
82.053,-0.738,3.807,150.0
79.428,-0.705,3.221,151.0
79.407,-0.695,2.748,150.0
79.423,-0.686,2.285,150.0
79.424,-0.676,1.822,179.0
93.496,-0.779,4.706,27.0
86.014,-0.706,3.825,23.0
79.42,-0.643,3.067,175.0
79.409,-0.633,2.595,150.0
79.441,-0.624,2.132,153.0
79.431,-0.615,1.667,169.0
79.221,-0.599,3.833,77.0
59.492,-0.443,2.53,64.0
79.416,-0.583,2.913,150.0
79.419,-0.574,2.441,150.0
79.43,-0.566,1.977,170.0
79.442,-0.557,1.513,164.0
59.498,-0.407,2.762,106.0
79.388,-0.534,3.22,23.0
79.42,-0.526,2.757,150.0
79.435,-0.518,2.285,151.0
79.423,-0.509,1.82,197.0
79.45,-0.501,1.356,160.0
59.483,-0.365,2.642,98.0
79.395,-0.48,3.063,150.0
79.421,-0.472,2.599,151.0
79.426,-0.464,2.127,165.0
79.424,-0.456,1.664,209.0
79.457,-0.449,1.2,154.0
59.469,-0.326,2.524,92.0
79.411,-0.428,2.906,150.0
79.428,-0.421,2.441,151.0
79.432,-0.413,1.968,166.0
79.432,-0.406,1.505,191.0
79.451,-0.398,1.04,151.0
79.406,-0.386,3.209,26.0
79.419,-0.379,2.745,150.0
79.431,-0.371,2.28,151.0
79.435,-0.364,1.808,160.0
79.446,-0.358,1.344,163.0
79.451,-0.35,0.88,151.0
79.424,-0.339,3.049,150.0
79.421,-0.332,2.583,150.0
79.435,-0.325,2.119,151.0
79.42,-0.318,1.645,255.0
79.454,-0.312,1.181,151.0
79.44,-0.305,0.716,150.0
79.421,-0.294,2.885,150.0
79.424,-0.288,2.419,150.0
79.437,-0.281,1.955,151.0
79.429,-0.275,1.481,191.0
79.46,-0.269,1.016,151.0
76.595,-0.253,0.533,13.0
79.42,-0.252,2.719,150.0
79.42,-0.247,2.254,150.0
79.441,-0.241,1.79,155.0
79.444,-0.235,1.317,153.0
79.463,-0.229,0.852,151.0
61.568,-0.173,0.301,9.0
79.43,-0.214,2.556,150.0
79.439,-0.208,2.09,151.0
79.44,-0.203,1.626,169.0
79.451,-0.197,1.153,151.0
79.387,-0.192,0.687,150.0
0.0,0.0,0.0,0.0
79.431,-0.178,2.39,150.0
79.443,-0.173,1.925,151.0
79.44,-0.168,1.461,171.0
79.453,-0.163,0.988,151.0
76.397,-0.152,0.502,18.0
47.821,-0.092,0.035,17.0
79.428,-0.145,2.224,150.0
79.448,-0.141,1.758,151.0
79.46,-0.136,1.294,158.0
79.458,-0.131,0.821,151.0
61.71,-0.098,0.276,13.0
0.0,0.0,0.0,0.0
79.435,-0.115,2.057,150.0
79.441,-0.111,1.592,170.0
79.456,-0.107,1.126,156.0
79.32,-0.102,0.651,44.0
0.0,0.0,0.0,0.0
40.247,-0.048,-0.139,16.0
79.453,-0.088,1.89,151.0
79.441,-0.084,1.423,170.0
79.461,-0.08,0.958,159.0
76.105,-0.074,0.466,15.0
0.0,0.0,0.0,0.0
38.989,-0.034,-0.217,14.0
79.451,-0.064,1.723,151.0
79.454,-0.061,1.257,155.0
79.471,-0.057,0.793,151.0
61.592,-0.042,0.247,12.0
0.0,0.0,0.0,0.0
38.367,-0.023,-0.295,3.0
79.449,-0.043,1.553,159.0
79.463,-0.04,1.087,155.0
79.266,-0.037,0.619,17.0
0.0,0.0,0.0,0.0
39.654,-0.015,-0.157,33.0
33.216,-0.011,-0.326,1.0
79.451,-0.024,1.382,158.0
79.45,-0.022,0.917,182.0
76.029,-0.018,0.432,11.0
0.0,0.0,0.0,0.0
38.658,-0.007,-0.236,13.0
30.956,-0.004,-0.37,1.0
79.459,-0.009,1.213,151.0
79.436,-0.007,0.746,150.0
55.928,-0.003,0.198,17.0
40.868,-0.001,-0.098,17.0
38.069,0.0,-0.314,0.0
29.549,0.0,-0.417,2.0
79.468,0.002,1.042,151.0
76.323,0.004,0.553,16.0
47.853,0.003,0.066,12.0
39.21,0.004,-0.178,27.0
32.495,0.004,-0.338,1.0
28.23,0.004,-0.459,1.0
79.467,0.012,0.871,151.0
0.0,0.0,0.0,0.0
0.0,0.0,0.0,0.0
38.355,0.007,-0.257,6.0
30.411,0.006,-0.382,1.0
26.882,0.006,-0.495,2.0
79.405,0.018,0.699,80.0
54.71,0.013,0.16,25.0
40.441,0.01,-0.117,16.0
33.583,0.009,-0.297,0.0
29.172,0.008,-0.429,2.0
25.761,0.007,-0.53,1.0
76.092,0.021,0.507,18.0
0.0,0.0,0.0,0.0
38.997,0.011,-0.197,14.0
31.651,0.009,-0.349,1.0
27.713,0.008,-0.468,1.0
24.397,0.007,-0.555,2.0
0.0,0.0,0.0,0.0
0.0,0.0,0.0,0.0
38.199,0.011,-0.276,4.0
29.986,0.008,-0.395,2.0
26.565,0.007,-0.506,2.0
23.39,0.006,-0.582,2.0
0.0,0.0,0.0,0.0
39.728,0.01,-0.139,34.0
33.285,0.008,-0.312,0.0
28.757,0.007,-0.441,2.0
25.339,0.006,-0.537,1.0
22.521,0.005,-0.609,4.0
0.0,0.0,0.0,0.0
38.719,0.006,-0.219,14.0
31.1,0.005,-0.359,1.0
27.291,0.004,-0.477,1.0
24.015,0.003,-0.56,2.0
21.604,0.002,-0.631,3.0
41.024,0.003,-0.079,17.0
37.854,0.002,-0.295,1.0
29.692,0.001,-0.405,2.0
26.179,0.0,-0.513,1.0
23.129,0.0,-0.589,3.0
20.721,0.0,-0.649,2.0
39.408,-0.002,-0.16,36.0
32.83,-0.002,-0.326,1.0
28.352,-0.002,-0.447,2.0
25.0,-0.003,-0.543,1.0
22.293,-0.003,-0.615,2.0
19.847,-0.003,-0.664,3.0
38.501,-0.009,-0.238,6.0
30.725,-0.008,-0.37,1.0
26.956,-0.007,-0.482,2.0
23.76,-0.007,-0.567,2.0
21.338,-0.007,-0.634,3.0
19.003,-0.007,-0.676,3.0
38.283,-0.017,-0.318,0.0
29.367,-0.014,-0.416,2.0
26.017,-0.013,-0.521,1.0
22.924,-0.012,-0.595,3.0
20.481,-0.012,-0.652,2.0
18.434,-0.011,-0.695,2.0
31.925,-0.022,-0.333,1.0
27.978,-0.021,-0.456,1.0
24.601,-0.019,-0.544,2.0
22.024,-0.018,-0.619,3.0
19.586,-0.016,-0.665,2.0
17.762,-0.016,-0.707,1.0
30.243,-0.03,-0.379,2.0
26.761,-0.028,-0.491,2.0
23.584,-0.025,-0.571,2.0
21.09,-0.023,-0.636,3.0
18.868,-0.022,-0.68,3.0
17.194,-0.02,-0.72,1.0
29.101,-0.038,-0.425,2.0
25.646,-0.035,-0.524,1.0
22.779,-0.032,-0.599,3.0
20.257,-0.029,-0.653,3.0
18.242,-0.027,-0.695,1.0
16.61,-0.026,-0.73,0.0
27.602,-0.047,-0.46,1.0
24.282,-0.042,-0.547,2.0
21.781,-0.039,-0.618,3.0
19.397,-0.035,-0.666,3.0
17.632,-0.033,-0.708,1.0
15.955,-0.031,-0.735,1.0
26.539,-0.055,-0.497,2.0
23.393,-0.05,-0.575,2.0
20.922,-0.046,-0.636,2.0
18.711,-0.042,-0.68,2.0
17.036,-0.039,-0.719,1.0
15.536,-0.037,-0.747,1.0
25.384,-0.064,-0.527,1.0
22.536,-0.058,-0.6,2.0
20.114,-0.053,-0.653,2.0
18.079,-0.049,-0.694,2.0
16.498,-0.045,-0.73,1.0
15.1,-0.042,-0.757,1.0
24.177,-0.072,-0.551,2.0
21.626,-0.066,-0.619,3.0
19.323,-0.06,-0.666,3.0
17.513,-0.056,-0.708,1.0
15.939,-0.052,-0.738,1.0
14.705,-0.049,-0.766,1.0
23.248,-0.081,-0.576,2.0
20.768,-0.074,-0.636,2.0
18.609,-0.067,-0.678,2.0
16.924,-0.062,-0.718,1.0
15.483,-0.058,-0.747,1.0
14.317,-0.055,-0.775,1.0
22.407,-0.09,-0.6,3.0
19.938,-0.082,-0.65,3.0
18.084,-0.075,-0.696,2.0
16.378,-0.07,-0.728,1.0
15.071,-0.065,-0.758,1.0
13.921,-0.061,-0.782,1.0
21.479,-0.099,-0.618,3.0
19.191,-0.09,-0.664,2.0
17.475,-0.083,-0.707,1.0
15.896,-0.077,-0.737,1.0
14.704,-0.072,-0.768,1.0
13.597,-0.068,-0.79,1.0
20.63,-0.107,-0.634,2.0
18.531,-0.098,-0.677,2.0
16.908,-0.091,-0.717,1.0
15.451,-0.084,-0.747,1.0
14.27,-0.079,-0.773,1.0
13.297,-0.075,-0.799,1.0
19.879,-0.116,-0.649,2.0
17.976,-0.107,-0.692,2.0
16.333,-0.098,-0.724,0.0
15.048,-0.092,-0.757,1.0
13.901,-0.086,-0.78,0.0
13.017,-0.082,-0.807,0.0
19.207,-0.125,-0.664,1.0
17.455,-0.115,-0.705,1.0
15.874,-0.106,-0.734,1.0
14.673,-0.1,-0.766,1.0
13.594,-0.094,-0.789,0.0
12.712,-0.089,-0.812,0.0
18.529,-0.134,-0.676,1.0
16.949,-0.124,-0.717,1.0
15.453,-0.114,-0.744,1.0
14.274,-0.107,-0.772,1.0
13.313,-0.101,-0.798,1.0
12.443,-0.096,-0.819,0.0
18.021,-0.143,-0.691,1.0
16.362,-0.132,-0.723,1.0
15.092,-0.123,-0.755,1.0
13.93,-0.115,-0.779,0.0
13.033,-0.109,-0.805,0.0
12.175,-0.103,-0.824,0.0
17.495,-0.152,-0.703,1.0
15.961,-0.141,-0.734,1.0
14.707,-0.131,-0.762,1.0
13.617,-0.123,-0.787,1.0
12.748,-0.117,-0.811,1.0
11.935,-0.111,-0.829,0.0
16.981,-0.161,-0.713,1.0
15.531,-0.149,-0.743,1.0
14.33,-0.139,-0.769,1.0
13.33,-0.131,-0.795,1.0
12.462,-0.124,-0.816,0.0
11.705,-0.118,-0.835,0.0
16.462,-0.17,-0.721,1.0
15.154,-0.158,-0.752,1.0
14.015,-0.148,-0.777,1.0
13.077,-0.14,-0.803,0.0
12.22,-0.132,-0.822,0.0
11.511,-0.126,-0.841,0.0
16.023,-0.179,-0.73,1.0
14.784,-0.167,-0.76,1.0
13.688,-0.157,-0.783,1.0
12.789,-0.148,-0.808,1.0
11.979,-0.14,-0.827,1.0
11.29,-0.133,-0.845,0.0
15.624,-0.188,-0.739,1.0
14.417,-0.176,-0.766,1.0
13.448,-0.166,-0.793,1.0
12.546,-0.156,-0.814,1.0
11.753,-0.148,-0.831,0.0
11.079,-0.141,-0.849,0.0
15.243,-0.198,-0.747,1.0
14.105,-0.185,-0.773,1.0
13.178,-0.175,-0.799,0.0
12.31,-0.165,-0.82,0.0
11.569,-0.156,-0.838,0.0
10.897,-0.149,-0.853,0.0
14.908,-0.207,-0.756,1.0
13.815,-0.194,-0.781,1.0
12.914,-0.183,-0.805,0.0
12.07,-0.173,-0.824,1.0
11.372,-0.165,-0.843,0.0
10.73,-0.157,-0.858,0.0
14.572,-0.217,-0.763,1.0
13.551,-0.204,-0.788,1.0
12.658,-0.192,-0.81,0.0
11.855,-0.182,-0.829,1.0
11.172,-0.173,-0.846,0.0
10.561,-0.165,-0.862,0.0
14.258,-0.226,-0.769,1.0
13.314,-0.213,-0.796,1.0
12.428,-0.201,-0.815,0.0
11.655,-0.19,-0.834,0.0
10.996,-0.181,-0.851,0.0
10.397,-0.173,-0.865,0.0
13.966,-0.236,-0.776,1.0
13.047,-0.222,-0.801,0.0
12.226,-0.21,-0.821,0.0
11.493,-0.199,-0.84,0.0
10.819,-0.189,-0.854,0.0
10.18,-0.18,-0.863,0.0
13.691,-0.245,-0.782,1.0
12.8,-0.231,-0.806,1.0
11.988,-0.219,-0.824,1.0
11.292,-0.208,-0.843,0.0
10.655,-0.198,-0.858,0.0
10.054,-0.188,-0.868,1.0
13.471,-0.256,-0.79,1.0
12.567,-0.241,-0.81,1.0
11.81,-0.228,-0.83,0.0
11.134,-0.217,-0.848,0.0
10.517,-0.207,-0.863,0.0
9.891,-0.196,-0.869,1.0
13.233,-0.266,-0.796,0.0
12.361,-0.25,-0.815,0.0
11.61,-0.237,-0.833,1.0
10.938,-0.225,-0.85,0.0
10.379,-0.215,-0.867,0.0
9.791,-0.205,-0.875,2.0
13.002,-0.276,-0.801,1.0
12.16,-0.26,-0.82,0.0
11.463,-0.247,-0.839,0.0
10.771,-0.234,-0.852,0.0
10.19,-0.223,-0.866,0.0
9.7,-0.214,-0.881,0.0
12.794,-0.286,-0.807,1.0
11.968,-0.269,-0.824,1.0
11.28,-0.256,-0.842,0.0
10.651,-0.244,-0.858,0.0
10.033,-0.231,-0.867,0.0
9.563,-0.222,-0.882,0.0
12.568,-0.295,-0.81,1.0
11.789,-0.279,-0.828,0.0
11.132,-0.265,-0.846,0.0
10.506,-0.252,-0.861,0.0
9.891,-0.239,-0.868,1.0
9.44,-0.23,-0.883,0.0
12.387,-0.305,-0.815,0.0
11.65,-0.289,-0.834,0.0
10.965,-0.274,-0.848,0.0
10.358,-0.261,-0.862,0.0
9.795,-0.249,-0.873,2.0
9.329,-0.239,-0.886,0.0
12.218,-0.316,-0.82,0.0
11.485,-0.299,-0.837,0.0
10.811,-0.283,-0.85,0.0
10.222,-0.27,-0.864,0.0
9.741,-0.259,-0.88,1.0
9.203,-0.247,-0.885,0.0
12.027,-0.325,-0.822,0.0
11.326,-0.308,-0.84,0.0
10.696,-0.293,-0.855,0.0
10.075,-0.278,-0.865,0.0
9.586,-0.267,-0.878,0.0
9.117,-0.255,-0.888,0.0
11.876,-0.336,-0.826,0.0
11.186,-0.318,-0.843,0.0
10.564,-0.303,-0.857,0.0
9.949,-0.287,-0.866,1.0
9.474,-0.275,-0.88,0.0
9.038,-0.265,-0.892,0.0
11.707,-0.346,-0.829,0.0
11.051,-0.328,-0.846,0.0
10.45,-0.313,-0.861,0.0
9.841,-0.296,-0.868,1.0
9.403,-0.285,-0.884,0.0
8.942,-0.273,-0.893,0.0
11.583,-0.356,-0.833,0.0
10.92,-0.338,-0.849,0.0
10.356,-0.323,-0.865,0.0
9.776,-0.307,-0.874,2.0
9.312,-0.294,-0.886,0.0
8.844,-0.281,-0.893,0.0
11.45,-0.367,-0.837,0.0
10.797,-0.348,-0.851,0.0
10.211,-0.331,-0.864,0.0
9.7,-0.317,-0.878,0.0
9.224,-0.303,-0.888,0.0
8.783,-0.291,-0.897,0.0
11.32,-0.377,-0.839,0.0
10.694,-0.358,-0.855,0.0
10.081,-0.34,-0.864,0.0
9.603,-0.326,-0.879,0.0
9.139,-0.312,-0.89,0.0
8.685,-0.299,-0.896,0.0
11.201,-0.388,-0.842,0.0
10.591,-0.369,-0.857,0.0
9.97,-0.349,-0.864,0.0
9.519,-0.336,-0.881,0.0
9.044,-0.321,-0.89,0.0
8.622,-0.308,-0.898,0.0
11.091,-0.398,-0.845,0.0
10.473,-0.378,-0.858,0.0
9.878,-0.359,-0.866,1.0
9.436,-0.345,-0.883,0.0
8.971,-0.33,-0.891,0.0
8.56,-0.317,-0.9,0.0
11.001,-0.409,-0.848,0.0
10.399,-0.389,-0.862,0.0
9.814,-0.37,-0.87,2.0
9.356,-0.354,-0.884,0.0
8.884,-0.339,-0.891,0.0
8.497,-0.326,-0.901,0.0
10.9,-0.42,-0.851,0.0
10.294,-0.399,-0.862,0.0
9.759,-0.38,-0.874,2.0
9.281,-0.364,-0.885,0.0
8.815,-0.348,-0.892,0.0
8.447,-0.335,-0.903,0.0
10.793,-0.43,-0.852,0.0
10.191,-0.409,-0.863,0.0
9.707,-0.391,-0.877,0.0
9.207,-0.373,-0.886,0.0
8.766,-0.357,-0.894,0.0
8.386,-0.344,-0.904,0.0
10.71,-0.441,-0.854,0.0
10.097,-0.418,-0.863,0.0
9.638,-0.402,-0.879,0.0
9.148,-0.383,-0.888,0.0
8.705,-0.367,-0.895,0.0
8.333,-0.353,-0.905,0.0
10.623,-0.452,-0.855,0.0
9.999,-0.428,-0.862,1.0
9.552,-0.411,-0.879,0.0
9.075,-0.393,-0.888,0.0
8.658,-0.377,-0.897,0.0
8.294,-0.363,-0.907,0.0
10.549,-0.463,-0.857,0.0
9.937,-0.439,-0.864,2.0
9.484,-0.421,-0.879,0.0
9.028,-0.403,-0.89,0.0
8.615,-0.386,-0.899,0.0
8.257,-0.372,-0.909,0.0
10.475,-0.474,-0.859,0.0
9.878,-0.449,-0.866,2.0
9.417,-0.431,-0.88,0.0
8.975,-0.413,-0.891,0.0
8.57,-0.396,-0.9,0.0
8.206,-0.381,-0.909,0.0
10.424,-0.486,-0.861,0.0
9.831,-0.46,-0.868,2.0
9.377,-0.441,-0.882,0.0
8.939,-0.423,-0.893,0.0
8.532,-0.406,-0.901,0.0
8.167,-0.391,-0.909,0.0
10.351,-0.496,-0.861,0.0
9.784,-0.472,-0.87,2.0
9.335,-0.452,-0.883,0.0
8.867,-0.432,-0.891,0.0
8.473,-0.415,-0.9,0.0
8.131,-0.4,-0.91,0.0
10.286,-0.507,-0.862,0.0
9.769,-0.484,-0.874,2.0
9.281,-0.462,-0.883,0.0
8.831,-0.442,-0.892,0.0
8.449,-0.425,-0.902,0.0
8.084,-0.409,-0.909,0.0
10.235,-0.519,-0.863,0.0
9.734,-0.496,-0.876,1.0
9.248,-0.473,-0.885,0.0
8.799,-0.452,-0.893,0.0
8.42,-0.435,-0.903,0.0
8.041,-0.418,-0.908,0.0
10.185,-0.53,-0.864,0.0
9.698,-0.507,-0.877,0.0
9.22,-0.484,-0.887,0.0
8.764,-0.463,-0.894,0.0
8.4,-0.446,-0.905,0.0
8.041,-0.429,-0.912,0.0
10.125,-0.541,-0.863,0.0
9.636,-0.517,-0.876,0.0
9.178,-0.495,-0.887,0.0
8.739,-0.473,-0.895,0.0
8.356,-0.455,-0.903,0.0
8.017,-0.438,-0.912,0.0
10.071,-0.551,-0.862,0.0
9.601,-0.528,-0.876,0.0
9.155,-0.506,-0.888,0.0
8.706,-0.483,-0.895,0.0
8.332,-0.465,-0.904,0.0
7.986,-0.447,-0.912,0.0
10.033,-0.563,-0.862,0.0
9.578,-0.54,-0.878,0.0
9.126,-0.517,-0.888,0.0
8.683,-0.494,-0.895,0.0
8.313,-0.475,-0.904,0.0
7.972,-0.457,-0.913,0.0
9.996,-0.574,-0.862,1.0
9.542,-0.551,-0.877,0.0
9.105,-0.528,-0.888,0.0
8.656,-0.504,-0.895,0.0
8.285,-0.484,-0.903,0.0
7.962,-0.468,-0.914,0.0
9.979,-0.587,-0.863,2.0
9.527,-0.562,-0.878,0.0
9.086,-0.539,-0.889,0.0
8.647,-0.515,-0.896,0.0
8.276,-0.495,-0.904,0.0
7.955,-0.478,-0.915,0.0
9.968,-0.599,-0.864,2.0
9.511,-0.574,-0.878,0.0
9.062,-0.549,-0.888,0.0
8.649,-0.527,-0.898,0.0
8.262,-0.505,-0.904,0.0
7.939,-0.487,-0.914,0.0
9.949,-0.611,-0.864,2.0
9.51,-0.587,-0.88,0.0
9.078,-0.562,-0.891,0.0
8.624,-0.536,-0.896,0.0
8.258,-0.516,-0.905,0.0
7.935,-0.498,-0.915,0.0
9.938,-0.624,-0.865,2.0
9.489,-0.598,-0.879,0.0
9.029,-0.571,-0.887,0.0
8.626,-0.548,-0.897,0.0
8.258,-0.526,-0.906,0.0
7.918,-0.507,-0.913,0.0
9.929,-0.636,-0.865,2.0
9.498,-0.611,-0.881,0.0
9.035,-0.583,-0.889,0.0
8.614,-0.558,-0.897,0.0
8.252,-0.537,-0.906,0.0
7.937,-0.518,-0.916,0.0
9.915,-0.647,-0.864,2.0
9.472,-0.621,-0.878,0.0
9.022,-0.594,-0.887,0.0
8.623,-0.57,-0.898,0.0
8.255,-0.548,-0.906,0.0
7.921,-0.528,-0.914,0.0
9.919,-0.661,-0.864,2.0
9.497,-0.635,-0.881,0.0
9.03,-0.606,-0.888,0.0
8.619,-0.581,-0.897,0.0
8.26,-0.558,-0.906,0.0
7.939,-0.539,-0.916,0.0
9.926,-0.673,-0.864,2.0
9.493,-0.646,-0.88,0.0
9.042,-0.618,-0.889,0.0
8.636,-0.592,-0.898,0.0
8.286,-0.571,-0.908,0.0
7.932,-0.548,-0.914,0.0
9.938,-0.687,-0.864,2.0
9.511,-0.66,-0.88,0.0
9.047,-0.63,-0.888,0.0
8.638,-0.603,-0.897,0.0
8.289,-0.581,-0.908,0.0
7.933,-0.558,-0.913,0.0
9.945,-0.7,-0.864,2.0
9.514,-0.671,-0.879,0.0
9.085,-0.643,-0.89,0.0
8.616,-0.612,-0.894,0.0
8.29,-0.591,-0.906,0.0
7.944,-0.569,-0.913,0.0
9.954,-0.712,-0.863,2.0
9.53,-0.684,-0.879,0.0
9.08,-0.654,-0.888,0.0
8.653,-0.625,-0.896,0.0
8.311,-0.603,-0.907,0.0
7.979,-0.581,-0.915,0.0
9.976,-0.726,-0.862,1.0
9.551,-0.697,-0.879,0.0
9.111,-0.667,-0.889,0.0
8.663,-0.636,-0.895,0.0
8.319,-0.613,-0.906,0.0
7.98,-0.59,-0.913,0.0
10.013,-0.74,-0.863,1.0
9.563,-0.709,-0.877,0.0
9.118,-0.678,-0.887,0.0
8.691,-0.649,-0.895,0.0
8.324,-0.623,-0.904,0.0
8.01,-0.602,-0.914,0.0
10.058,-0.755,-0.864,1.0
9.613,-0.724,-0.879,0.0
9.151,-0.691,-0.887,0.0
8.716,-0.661,-0.895,0.0
8.357,-0.635,-0.905,0.0
8.017,-0.612,-0.913,0.0
10.093,-0.769,-0.863,0.0
9.641,-0.737,-0.878,0.0
9.176,-0.703,-0.887,0.0
8.745,-0.673,-0.894,0.0
8.38,-0.647,-0.904,0.0
8.042,-0.622,-0.912,0.0
10.134,-0.784,-0.863,0.0
9.694,-0.752,-0.879,0.0
9.207,-0.716,-0.886,0.0
8.774,-0.684,-0.894,0.0
8.415,-0.658,-0.904,0.0
8.054,-0.632,-0.91,0.0
10.189,-0.799,-0.863,0.0
9.728,-0.765,-0.878,1.0
9.224,-0.727,-0.883,0.0
8.812,-0.697,-0.894,0.0
8.445,-0.67,-0.903,0.0
8.087,-0.643,-0.91,0.0
10.239,-0.813,-0.863,0.0
9.754,-0.777,-0.876,2.0
9.299,-0.743,-0.886,0.0
8.843,-0.708,-0.893,0.0
8.468,-0.68,-0.902,0.0
8.125,-0.655,-0.91,0.0
10.306,-0.829,-0.863,0.0
9.786,-0.79,-0.873,3.0
9.329,-0.755,-0.884,0.0
8.889,-0.721,-0.893,0.0
8.513,-0.693,-0.902,0.0
8.151,-0.665,-0.909,0.0
10.369,-0.845,-0.863,0.0
9.805,-0.801,-0.87,3.0
9.393,-0.77,-0.885,0.0
8.934,-0.734,-0.892,0.0
8.536,-0.703,-0.899,0.0
8.189,-0.677,-0.908,0.0
10.417,-0.859,-0.861,0.0
9.835,-0.813,-0.867,3.0
9.411,-0.78,-0.881,0.0
8.981,-0.747,-0.891,0.0
8.58,-0.715,-0.899,0.0
8.233,-0.688,-0.908,0.0
10.487,-0.875,-0.86,0.0
9.909,-0.829,-0.867,2.0
9.474,-0.795,-0.881,0.0
9.054,-0.761,-0.893,0.0
8.632,-0.728,-0.899,0.0
8.27,-0.699,-0.907,0.0
10.535,-0.889,-0.857,0.0
9.959,-0.842,-0.865,2.0
9.536,-0.808,-0.88,0.0
9.081,-0.772,-0.889,0.0
8.688,-0.74,-0.899,0.0
8.321,-0.711,-0.906,0.0
10.625,-0.906,-0.857,0.0
10.011,-0.856,-0.862,0.0
9.602,-0.823,-0.88,0.0
9.149,-0.786,-0.889,0.0
8.723,-0.751,-0.896,0.0
8.373,-0.723,-0.906,0.0
10.712,-0.923,-0.856,0.0
10.133,-0.875,-0.865,0.0
9.694,-0.839,-0.881,0.0
9.232,-0.801,-0.89,0.0
8.791,-0.764,-0.896,0.0
8.42,-0.734,-0.905,0.0
10.764,-0.936,-0.852,1.0
10.231,-0.892,-0.866,0.0
9.743,-0.851,-0.878,2.0
9.268,-0.811,-0.887,0.0
8.849,-0.777,-0.895,0.0
8.463,-0.744,-0.903,0.0
10.841,-0.952,-0.85,1.0
10.31,-0.907,-0.864,0.0
9.78,-0.862,-0.873,3.0
9.341,-0.825,-0.886,0.0
8.908,-0.789,-0.894,0.0
8.518,-0.756,-0.901,0.0
10.939,-0.969,-0.848,0.0
10.396,-0.923,-0.863,1.0
9.834,-0.875,-0.87,3.0
9.423,-0.84,-0.886,0.0
8.981,-0.802,-0.893,0.0
8.598,-0.769,-0.902,0.0
11.053,-0.987,-0.848,0.0
10.463,-0.936,-0.859,2.0
9.904,-0.888,-0.867,2.0
9.487,-0.852,-0.883,0.0
9.049,-0.815,-0.892,0.0
8.665,-0.782,-0.901,0.0
11.117,-1.001,-0.843,0.0
10.512,-0.948,-0.854,1.0
9.973,-0.901,-0.864,1.0
9.564,-0.866,-0.882,0.0
9.133,-0.828,-0.892,0.0
8.698,-0.79,-0.897,0.0
11.213,-1.017,-0.84,0.0
10.622,-0.965,-0.853,0.0
10.094,-0.919,-0.865,0.0
9.662,-0.881,-0.882,0.0
9.199,-0.84,-0.89,0.0
8.765,-0.802,-0.895,0.0
11.335,-1.035,-0.838,0.0
10.75,-0.983,-0.853,0.0
10.177,-0.933,-0.863,0.0
9.75,-0.895,-0.88,2.0
9.293,-0.855,-0.89,0.0
8.866,-0.817,-0.897,0.0
11.446,-1.052,-0.835,0.0
10.866,-1.001,-0.851,0.0
10.291,-0.949,-0.862,0.0
9.783,-0.904,-0.873,3.0
9.369,-0.867,-0.887,0.0
8.929,-0.828,-0.894,0.0
11.586,-1.072,-0.833,0.0
10.973,-1.017,-0.849,0.0
10.423,-0.967,-0.862,0.0
9.86,-0.916,-0.87,3.0
9.454,-0.88,-0.886,0.0
9.012,-0.84,-0.893,0.0
11.736,-1.092,-0.832,0.0
11.077,-1.032,-0.845,0.0
10.516,-0.981,-0.859,0.0
9.956,-0.93,-0.868,2.0
9.559,-0.894,-0.885,0.0
9.101,-0.853,-0.892,0.0
11.854,-1.109,-0.828,0.0
11.193,-1.048,-0.842,0.0
10.618,-0.996,-0.856,0.0
10.058,-0.945,-0.866,0.0
9.659,-0.908,-0.884,0.0
9.209,-0.867,-0.892,0.0
11.995,-1.127,-0.825,0.0
11.321,-1.065,-0.839,0.0
10.731,-1.011,-0.853,0.0
10.15,-0.958,-0.863,0.0
9.752,-0.921,-0.881,2.0
9.293,-0.879,-0.89,0.0
12.135,-1.146,-0.82,0.0
11.481,-1.085,-0.838,0.0
10.843,-1.026,-0.85,0.0
10.29,-0.975,-0.863,0.0
9.803,-0.93,-0.875,3.0
9.38,-0.891,-0.888,0.0
12.312,-1.167,-0.818,0.0
11.612,-1.102,-0.834,0.0
11.006,-1.045,-0.85,0.0
10.427,-0.991,-0.862,0.0
9.885,-0.941,-0.871,2.0
9.483,-0.904,-0.886,0.0
12.452,-1.184,-0.813,0.0
11.759,-1.119,-0.831,0.0
11.094,-1.057,-0.844,0.0
10.549,-1.006,-0.86,0.0
9.997,-0.955,-0.869,1.0
9.573,-0.915,-0.883,0.0
12.659,-1.208,-0.812,0.0
11.886,-1.135,-0.826,0.0
11.276,-1.078,-0.844,0.0
10.676,-1.021,-0.857,0.0
10.119,-0.969,-0.867,0.0
9.714,-0.931,-0.885,1.0
12.835,-1.228,-0.808,0.0
12.146,-1.163,-0.829,0.0
11.421,-1.094,-0.841,0.0
10.773,-1.033,-0.852,0.0
10.251,-0.984,-0.866,0.0
9.774,-0.939,-0.878,3.0
13.032,-1.249,-0.804,0.0
12.266,-1.177,-0.823,0.0
11.555,-1.109,-0.837,0.0
10.93,-1.05,-0.851,0.0
10.381,-0.998,-0.864,0.0
9.861,-0.949,-0.874,3.0
13.243,-1.272,-0.801,0.0
12.417,-1.193,-0.817,0.0
11.691,-1.124,-0.832,0.0
11.088,-1.067,-0.849,0.0
10.522,-1.013,-0.862,0.0
9.965,-0.96,-0.87,2.0
13.444,-1.293,-0.796,0.0
12.609,-1.213,-0.814,0.0
11.898,-1.145,-0.832,0.0
11.225,-1.081,-0.846,0.0
10.669,-1.028,-0.861,0.0
10.086,-0.972,-0.868,1.0
13.64,-1.313,-0.791,0.0
12.807,-1.233,-0.81,0.0
12.045,-1.16,-0.826,0.0
11.389,-1.097,-0.843,0.0
10.762,-1.038,-0.854,0.0
10.227,-0.986,-0.867,0.0
13.853,-1.334,-0.785,1.0
13.023,-1.254,-0.807,0.0
12.255,-1.181,-0.825,0.0
11.522,-1.11,-0.838,0.0
10.924,-1.053,-0.853,0.0
10.357,-0.999,-0.864,0.0
14.089,-1.356,-0.78,0.0
13.236,-1.275,-0.803,0.0
12.413,-1.195,-0.819,0.0
11.679,-1.125,-0.834,0.0
11.069,-1.067,-0.85,0.0
10.509,-1.013,-0.863,0.0
14.377,-1.383,-0.777,0.0
13.433,-1.293,-0.797,0.0
12.58,-1.211,-0.813,0.0
11.888,-1.144,-0.833,0.0
11.223,-1.081,-0.846,0.0
10.662,-1.027,-0.861,0.0
14.596,-1.403,-0.769,0.0
13.656,-1.313,-0.792,1.0
12.822,-1.233,-0.812,0.0
12.067,-1.16,-0.83,0.0
11.401,-1.096,-0.844,0.0
10.761,-1.035,-0.854,0.0
14.878,-1.428,-0.764,0.0
13.868,-1.331,-0.786,1.0
13.018,-1.249,-0.807,0.0
12.254,-1.176,-0.826,0.0
11.535,-1.107,-0.839,0.0
10.952,-1.051,-0.855,0.0
15.2,-1.457,-0.76,0.0
14.097,-1.351,-0.78,0.0
13.243,-1.269,-0.803,0.0
12.398,-1.188,-0.819,0.0
11.718,-1.122,-0.836,0.0
11.089,-1.062,-0.85,0.0
15.509,-1.483,-0.755,0.0
14.402,-1.377,-0.777,1.0
13.465,-1.287,-0.798,0.0
12.639,-1.207,-0.817,0.0
11.868,-1.134,-0.83,0.0
11.245,-1.074,-0.846,0.0
15.82,-1.508,-0.748,0.0
14.627,-1.394,-0.769,0.0
13.707,-1.306,-0.793,0.0
12.831,-1.222,-0.812,0.0
12.132,-1.155,-0.832,0.0
11.432,-1.088,-0.845,0.0
16.232,-1.543,-0.745,4.0
14.942,-1.419,-0.765,0.0
13.92,-1.321,-0.786,0.0
13.085,-1.242,-0.809,0.0
12.299,-1.167,-0.826,0.0
11.604,-1.1,-0.841,0.0
16.288,-1.542,-0.725,11.0
15.281,-1.446,-0.761,0.0
14.193,-1.342,-0.782,0.0
13.32,-1.259,-0.805,0.0
12.502,-1.181,-0.822,0.0
11.771,-1.111,-0.836,0.0
16.361,-1.542,-0.705,8.0
15.619,-1.471,-0.755,1.0
14.46,-1.361,-0.776,1.0
13.536,-1.274,-0.799,0.0
12.718,-1.196,-0.818,0.0
11.942,-1.122,-0.832,0.0
16.457,-1.544,-0.686,4.0
15.975,-1.498,-0.75,1.0
14.722,-1.379,-0.769,1.0
13.748,-1.287,-0.793,1.0
12.956,-1.212,-0.816,0.0
12.1,-1.131,-0.826,0.0
17.524,-1.636,-0.706,0.0
16.249,-1.515,-0.741,8.0
15.025,-1.4,-0.764,0.0
13.972,-1.301,-0.786,1.0
13.16,-1.224,-0.81,0.0
12.269,-1.14,-0.82,0.0
18.039,-1.674,-0.702,0.0
16.315,-1.513,-0.721,10.0
15.368,-1.423,-0.76,0.0
14.248,-1.318,-0.781,0.0
13.4,-1.239,-0.806,0.0
12.478,-1.152,-0.817,0.0
18.481,-1.704,-0.693,0.0
16.386,-1.509,-0.701,12.0
15.683,-1.443,-0.754,0.0
14.507,-1.334,-0.775,1.0
13.582,-1.247,-0.797,0.0
12.758,-1.17,-0.817,0.0
18.961,-1.737,-0.684,1.0
16.581,-1.517,-0.686,2.0
16.11,-1.472,-0.751,2.0
14.801,-1.351,-0.77,0.0
13.806,-1.259,-0.791,0.0
12.966,-1.181,-0.812,0.0
19.428,-1.767,-0.674,0.0
17.734,-1.61,-0.709,0.0
16.26,-1.475,-0.735,10.0
15.105,-1.368,-0.765,0.0
14.062,-1.272,-0.786,0.0
13.283,-1.2,-0.813,0.0
19.952,-1.8,-0.664,1.0
18.169,-1.637,-0.701,0.0
16.324,-1.468,-0.715,8.0
15.428,-1.386,-0.759,0.0
14.369,-1.289,-0.783,0.0
13.442,-1.204,-0.804,0.0
20.484,-1.833,-0.653,0.0
18.642,-1.665,-0.693,0.0
16.389,-1.462,-0.695,6.0
15.767,-1.404,-0.754,0.0
14.623,-1.3,-0.776,0.0
13.65,-1.212,-0.797,0.0
21.055,-1.867,-0.642,1.0
19.102,-1.691,-0.683,1.0
16.772,-1.482,-0.688,1.0
16.182,-1.428,-0.751,2.0
14.924,-1.315,-0.772,0.0
13.883,-1.221,-0.791,0.0
21.64,-1.901,-0.63,1.0
19.622,-1.72,-0.674,0.0
17.87,-1.564,-0.708,0.0
16.286,-1.423,-0.733,9.0
15.22,-1.327,-0.766,0.0
14.103,-1.228,-0.784,0.0
22.264,-1.936,-0.617,1.0
20.145,-1.748,-0.665,0.0
18.271,-1.583,-0.699,0.0
16.334,-1.412,-0.713,7.0
15.541,-1.341,-0.76,0.0
14.466,-1.246,-0.784,0.0
22.936,-1.973,-0.604,1.0
20.641,-1.772,-0.653,1.0
18.779,-1.609,-0.693,0.0
16.414,-1.403,-0.694,4.0
15.839,-1.351,-0.753,0.0
14.649,-1.247,-0.774,0.0
23.546,-2.002,-0.588,1.0
21.247,-1.803,-0.643,0.0
19.171,-1.623,-0.681,0.0
17.49,-1.478,-0.715,0.0
16.188,-1.365,-0.748,1.0
15.015,-1.264,-0.773,0.0
24.311,-2.043,-0.575,1.0
21.793,-1.827,-0.63,1.0
19.649,-1.644,-0.672,0.0
17.935,-1.497,-0.71,0.0
16.294,-1.357,-0.731,1.0
15.309,-1.272,-0.768,0.0
25.114,-2.085,-0.56,1.0
22.383,-1.853,-0.618,1.0
20.18,-1.667,-0.663,0.0
18.316,-1.509,-0.7,0.0
16.362,-1.345,-0.712,1.0
15.602,-1.28,-0.762,0.0
25.841,-2.117,-0.542,1.0
23.024,-1.881,-0.605,1.0
20.688,-1.686,-0.653,0.0
18.774,-1.526,-0.693,1.0
16.759,-1.359,-0.707,0.0
15.888,-1.285,-0.755,0.0
26.487,-2.14,-0.521,1.0
23.557,-1.898,-0.588,1.0
21.256,-1.708,-0.643,0.0
19.154,-1.535,-0.682,1.0
17.579,-1.405,-0.719,0.0
16.213,-1.293,-0.749,0.0
27.297,-2.173,-0.502,1.0
24.351,-1.933,-0.576,1.0
21.767,-1.723,-0.63,1.0
19.659,-1.552,-0.675,0.0
17.935,-1.412,-0.71,0.0
16.355,-1.284,-0.734,0.0
28.239,-2.214,-0.482,1.0
25.129,-1.965,-0.562,1.0
22.357,-1.743,-0.618,1.0
20.095,-1.562,-0.664,0.0
18.331,-1.421,-0.702,0.0
16.574,-1.281,-0.723,0.0
29.235,-2.256,-0.462,1.0
25.85,-1.988,-0.545,1.0
22.962,-1.761,-0.606,1.0
20.609,-1.575,-0.655,0.0
18.733,-1.428,-0.694,1.0
17.237,-1.31,-0.73,0.0
29.661,-2.251,-0.432,1.0
26.473,-2.002,-0.525,1.0
23.518,-1.773,-0.591,1.0
21.1,-1.586,-0.644,0.0
19.115,-1.432,-0.685,0.0
17.603,-1.314,-0.724,0.0
31.254,-2.33,-0.416,1.0
27.113,-2.015,-0.505,1.0
24.277,-1.798,-0.58,1.0
21.655,-1.598,-0.634,1.0
19.567,-1.439,-0.677,0.0
17.907,-1.313,-0.714,0.0
32.379,-2.37,-0.392,1.0
28.111,-2.051,-0.489,1.0
24.972,-1.815,-0.567,1.0
22.16,-1.605,-0.623,1.0
20.038,-1.446,-0.669,0.0
18.237,-1.312,-0.706,0.0
34.098,-2.449,-0.372,1.0
29.003,-2.075,-0.47,1.0
25.563,-1.822,-0.55,1.0
22.749,-1.616,-0.612,1.0
20.449,-1.447,-0.659,0.0
18.61,-1.312,-0.698,0.0
35.828,-2.521,-0.349,0.0
29.679,-2.081,-0.446,1.0
26.246,-1.833,-0.534,1.0
23.306,-1.621,-0.6,1.0
20.916,-1.45,-0.649,0.0
18.985,-1.311,-0.69,0.0
38.305,-2.639,-0.328,0.0
30.592,-2.1,-0.424,1.0
26.866,-1.837,-0.515,1.0
23.82,-1.621,-0.586,1.0
21.516,-1.459,-0.643,0.0
19.132,-1.292,-0.673,0.0
40.204,-2.71,-0.299,1.0
32.034,-2.15,-0.408,1.0
27.618,-1.845,-0.498,1.0
24.596,-1.637,-0.577,1.0
21.913,-1.452,-0.63,0.0
19.671,-1.298,-0.67,2.0
41.517,-2.735,-0.262,0.0
32.941,-2.16,-0.383,1.0
28.363,-1.851,-0.48,1.0
25.154,-1.635,-0.562,2.0
22.423,-1.451,-0.62,0.0
20.116,-1.296,-0.663,2.0
0.0,0.0,0.0,0.0
34.478,-2.206,-0.363,0.0
29.122,-1.855,-0.461,1.0
25.741,-1.632,-0.547,1.0
23.063,-1.455,-0.613,0.0
20.566,-1.292,-0.656,2.0
50.393,-3.158,-0.208,0.0
37.459,-2.336,-0.354,0.0
29.876,-1.854,-0.441,1.0
26.369,-1.629,-0.532,2.0
23.444,-1.441,-0.598,1.0
20.982,-1.283,-0.647,3.0
50.425,-3.078,-0.156,5.0
38.221,-2.321,-0.321,0.0
30.704,-1.855,-0.422,1.0
26.904,-1.617,-0.515,2.0
23.919,-1.43,-0.585,1.0
21.466,-1.277,-0.64,4.0
50.477,-2.996,-0.104,10.0
0.0,0.0,0.0,0.0
31.708,-1.862,-0.403,1.0
27.565,-1.61,-0.5,2.0
24.341,-1.414,-0.572,4.0
21.874,-1.264,-0.63,5.0
50.503,-2.912,-0.054,1.0
0.0,0.0,0.0,0.0
32.451,-1.851,-0.381,1.0
28.262,-1.603,-0.485,1.0
24.922,-1.406,-0.561,1.0
22.248,-1.248,-0.619,6.0
58.791,-3.29,-0.007,9.0
0.0,0.0,0.0,0.0
34.09,-1.886,-0.368,1.0
28.874,-1.588,-0.468,1.0
25.629,-1.401,-0.552,1.0
22.734,-1.235,-0.611,9.0
0.0,0.0,0.0,0.0
0.0,0.0,0.0,0.0
0.0,0.0,0.0,0.0
29.374,-1.563,-0.449,1.0
26.088,-1.38,-0.539,1.0
23.424,-1.232,-0.609,5.0
62.857,-3.295,0.108,7.0
50.478,-2.629,-0.182,4.0
36.315,-1.879,-0.325,0.0
29.576,-1.521,-0.426,4.0
26.576,-1.358,-0.525,1.0
23.607,-1.199,-0.593,2.0
0.0,0.0,0.0,0.0
50.497,-2.539,-0.138,10.0
0.0,0.0,0.0,0.0
30.466,-1.511,-0.412,1.0
27.167,-1.339,-0.513,2.0
24.016,-1.175,-0.582,1.0
0.0,0.0,0.0,0.0
50.469,-2.445,-0.095,7.0
0.0,0.0,0.0,0.0
32.486,-1.552,-0.413,1.0
27.595,-1.309,-0.498,1.0
24.66,-1.161,-0.578,1.0
0.0,0.0,0.0,0.0
0.0,0.0,0.0,0.0
42.133,-1.948,-0.271,0.0
33.186,-1.523,-0.395,5.0
28.139,-1.282,-0.486,2.0
25.008,-1.131,-0.566,1.0
0.0,0.0,0.0,0.0
0.0,0.0,0.0,0.0
0.0,0.0,0.0,0.0
33.806,-1.487,-0.376,3.0
28.588,-1.247,-0.471,2.0
25.381,-1.099,-0.555,1.0
0.0,0.0,0.0,0.0
0.0,0.0,0.0,0.0
0.0,0.0,0.0,0.0
34.262,-1.441,-0.355,1.0
29.02,-1.211,-0.457,2.0
25.809,-1.068,-0.545,1.0
0.0,0.0,0.0,0.0
0.0,0.0,0.0,0.0
37.789,-1.529,-0.158,162.0
37.687,-1.512,-0.364,4.0
29.526,-1.174,-0.444,1.0
26.219,-1.034,-0.535,1.0
0.0,0.0,0.0,0.0
0.0,0.0,0.0,0.0
40.131,-1.545,-0.14,159.0
37.714,-1.439,-0.339,10.0
29.981,-1.133,-0.431,1.0
26.606,-0.996,-0.525,1.0
0.0,0.0,0.0,0.0
0.0,0.0,0.0,0.0
50.015,-1.826,-0.142,4.0
40.083,-1.449,-0.334,4.0
30.294,-1.084,-0.416,1.0
26.856,-0.952,-0.513,2.0
0.0,0.0,0.0,0.0
0.0,0.0,0.0,0.0
0.0,0.0,0.0,0.0
38.144,-1.303,-0.294,0.0
30.799,-1.041,-0.404,1.0
27.239,-0.912,-0.504,2.0
0.0,0.0,0.0,0.0
0.0,0.0,0.0,0.0
0.0,0.0,0.0,0.0
40.332,-1.297,-0.288,5.0
31.322,-0.996,-0.393,1.0
27.522,-0.865,-0.494,1.0
126.672,-3.953,1.231,2.0
0.0,0.0,0.0,0.0
0.0,0.0,0.0,0.0
40.2,-1.211,-0.265,19.0
31.968,-0.951,-0.384,1.0
27.967,-0.822,-0.487,1.0
40.255,-1.174,0.412,0.0
40.205,-1.158,0.194,44.0
40.185,-1.143,-0.023,65.0
40.573,-1.139,-0.247,16.0
32.055,-0.888,-0.369,1.0
28.298,-0.774,-0.479,1.0
40.21,-1.089,0.431,45.0
40.182,-1.074,0.213,55.0
40.978,-1.08,-0.004,32.0
40.967,-1.065,-0.23,89.0
32.995,-0.846,-0.364,1.0
28.48,-0.719,-0.469,1.0
40.226,-1.005,0.45,46.0
40.28,-0.992,0.232,1.0
40.304,-0.977,0.013,124.0
40.294,-0.963,-0.208,150.0
33.229,-0.782,-0.352,1.0
28.732,-0.666,-0.461,1.0
40.308,-0.924,0.468,26.0
40.273,-0.908,0.248,0.0
0.0,0.0,0.0,0.0
0.0,0.0,0.0,0.0
33.634,-0.721,-0.343,1.0
29.001,-0.611,-0.454,2.0
40.243,-0.837,0.482,52.0
40.279,-0.823,0.264,45.0
40.328,-0.809,0.045,14.0
46.691,-0.92,-0.206,4.0
33.744,-0.652,-0.332,0.0
29.231,-0.555,-0.447,1.0
40.287,-0.753,0.497,24.0
40.244,-0.737,0.277,53.0
40.277,-0.724,0.058,64.0
40.309,-0.709,-0.165,44.0
34.336,-0.591,-0.327,1.0
29.403,-0.496,-0.44,2.0
149.209,-2.474,1.888,13.0
91.695,-1.487,0.66,6.0
248.359,-3.941,0.434,90.0
46.309,-0.718,-0.176,1.0
35.004,-0.53,-0.324,1.0
29.539,-0.437,-0.434,2.0
148.162,-2.146,1.914,21.0
87.943,-1.243,0.656,10.0
86.892,-1.196,0.174,1.0
48.637,-0.651,-0.172,0.0
35.796,-0.466,-0.322,1.0
29.695,-0.376,-0.429,2.0
79.443,-0.982,1.045,161.0
79.246,-0.95,0.609,57.0
60.969,-0.71,0.135,4.0
47.376,-0.534,-0.158,2.0
38.451,-0.42,-0.338,12.0
29.799,-0.314,-0.425,3.0
79.447,-0.813,1.061,172.0
79.372,-0.783,0.625,59.0
60.951,-0.58,0.147,4.0
50.516,-0.462,-0.159,9.0
37.041,-0.325,-0.319,0.0
29.848,-0.251,-0.421,1.0
79.451,-0.642,1.074,176.0
79.418,-0.613,0.638,121.0
60.953,-0.448,0.156,5.0
44.21,-0.309,-0.133,3.0
39.584,-0.262,-0.336,3.0
