X,Y,Z,Reflectivity
79.437,-0.615,2.883,151.0
79.423,-0.618,2.473,150.0
79.437,-0.622,2.057,151.0
79.437,-0.624,1.647,176.0
79.447,-0.627,1.238,168.0
85.989,-0.688,3.742,121.0
79.419,-0.639,3.046,187.0
79.412,-0.641,2.635,150.0
79.417,-0.643,2.219,150.0
79.428,-0.646,1.81,183.0
79.441,-0.649,1.402,164.0
82.104,-0.679,3.743,150.0
79.411,-0.659,3.21,150.0
79.409,-0.661,2.8,151.0
79.415,-0.663,2.383,150.0
79.44,-0.665,1.975,154.0
79.443,-0.667,1.567,163.0
79.227,-0.673,3.777,152.0
86.034,-0.733,3.657,36.0
79.439,-0.678,2.966,204.0
79.416,-0.679,2.547,150.0
79.434,-0.68,2.139,151.0
79.43,-0.682,1.73,172.0
123.912,-1.077,6.165,29.0
85.907,-0.747,3.83,150.0
79.436,-0.692,3.132,187.0
79.424,-0.693,2.714,151.0
79.418,-0.693,2.304,150.0
79.44,-0.694,1.895,158.0
93.797,-0.829,4.863,19.0
79.296,-0.701,3.7,178.0
79.475,-0.703,3.298,2.0
79.432,-0.703,2.878,151.0
79.426,-0.703,2.467,150.0
79.438,-0.703,2.058,151.0
85.422,-0.765,4.603,44.0
79.193,-0.709,3.858,150.0
85.935,-0.769,3.742,150.0
79.42,-0.71,3.04,176.0
79.427,-0.709,2.63,151.0
79.426,-0.709,2.221,150.0
98.301,-0.888,5.501,26.0
124.081,-1.119,6.3,17.0
0.0,0.0,0.0,0.0
89.531,-0.805,3.612,14.0
79.431,-0.713,2.795,151.0
79.414,-0.712,2.386,150.0
98.242,-0.891,5.701,21.0
93.85,-0.849,4.96,29.0
79.22,-0.715,3.777,157.0
86.018,-0.775,3.648,31.0
79.425,-0.714,2.958,169.0
79.426,-0.712,2.549,151.0
98.23,-0.891,5.903,58.0
85.485,-0.773,4.693,43.0
124.025,-1.118,6.167,26.0
85.89,-0.772,3.816,150.0
79.429,-0.711,3.118,165.0
79.425,-0.709,2.708,151.0
77.475,-0.699,4.811,44.0
85.871,-0.772,4.889,45.0
93.842,-0.841,4.855,21.0
79.304,-0.708,3.684,177.0
87.79,-0.781,3.624,2.0
79.434,-0.703,2.867,151.0
77.709,-0.696,4.983,24.0
98.239,-0.876,5.79,61.0
85.416,-0.758,4.591,47.0
79.2,-0.699,3.838,150.0
85.922,-0.755,3.719,150.0
79.429,-0.695,3.027,202.0
76.825,-0.679,5.08,21.0
98.189,-0.864,5.984,23.0
101.27,-0.886,5.646,20.0
124.029,-1.079,6.259,12.0
82.136,-0.71,3.719,150.0
79.383,-0.682,3.184,150.0
76.819,-0.668,5.235,32.0
77.321,-0.667,4.867,21.0
85.844,-0.736,4.958,13.0
93.795,-0.8,4.921,30.0
79.244,-0.671,3.747,151.0
86.035,-0.724,3.622,29.0
82.851,-0.704,5.812,19.0
63.494,-0.536,4.123,46.0
124.754,-1.045,7.453,16.0
101.24,-0.842,5.512,35.0
123.769,-1.022,6.097,19.0
85.97,-0.704,3.789,148.0
82.87,-0.686,5.977,18.0
76.859,-0.631,5.143,30.0
77.112,-0.628,4.759,23.0
85.781,-0.692,4.84,43.0
93.719,-0.75,4.8,36.0
0.0,0.0,0.0,0.0
75.609,-0.606,5.603,18.0
62.96,-0.5,4.337,37.0
82.876,-0.652,5.276,16.0
59.432,-0.463,3.469,26.0
85.402,-0.659,4.538,47.0
93.337,-0.713,4.476,21.0
41.491,-0.32,3.155,51.0
75.632,-0.578,5.357,85.0
76.886,-0.581,5.043,20.0
93.503,-0.699,5.637,30.0
59.459,-0.44,3.275,87.0
59.488,-0.434,2.967,68.0
41.394,-0.306,3.227,58.0
49.134,-0.359,3.574,10.0
63.435,-0.458,4.283,68.0
76.953,-0.548,4.787,52.0
59.433,-0.418,3.387,89.0
59.472,-0.413,3.08,105.0
0.0,0.0,0.0,0.0
48.617,-0.336,3.629,23.0
62.664,-0.428,4.351,21.0
63.552,-0.428,4.075,44.0
77.135,-0.512,4.543,14.0
59.469,-0.388,3.192,99.0
40.562,-0.268,3.318,60.0
47.926,-0.312,3.669,4.0
49.083,-0.315,3.501,61.0
63.872,-0.403,4.214,82.0
77.004,-0.478,4.679,72.0
59.44,-0.363,3.302,98.0
39.987,-0.247,3.346,40.0
40.403,-0.245,3.168,76.0
48.673,-0.29,3.562,32.0
63.094,-0.369,4.28,38.0
63.558,-0.365,3.979,37.0
59.419,-0.334,3.41,87.0
39.984,-0.228,3.42,52.0
40.284,-0.225,3.234,65.0
47.817,-0.262,3.587,43.0
48.993,-0.262,3.414,68.0
63.831,-0.335,4.113,50.0
77.228,-0.396,4.572,25.0
39.882,-0.207,3.484,72.0
40.59,-0.206,3.332,63.0
40.126,-0.199,3.082,73.0
48.527,-0.235,3.468,63.0
62.707,-0.296,4.152,80.0
89.349,-0.411,5.449,55.0
39.852,-0.185,3.553,27.0
40.479,-0.183,3.395,66.0
40.119,-0.176,3.154,64.0
47.788,-0.205,3.5,62.0
48.939,-0.203,3.328,43.0
63.434,-0.255,3.98,53.0
41.913,-0.171,3.811,37.0
40.146,-0.159,3.438,25.0
40.737,-0.155,3.274,39.0
47.805,-0.177,3.585,7.0
48.786,-0.174,3.402,57.0
62.767,-0.215,4.047,66.0
41.878,-0.145,3.88,41.0
39.812,-0.133,3.478,60.0
41.345,-0.133,3.393,47.0
47.879,-0.147,3.673,7.0
47.81,-0.14,3.416,71.0
78.056,-0.219,5.165,18.0
41.712,-0.119,3.936,31.0
39.814,-0.108,3.546,36.0
39.838,-0.102,3.337,68.0
47.833,-0.116,3.749,29.0
47.768,-0.109,3.493,70.0
48.824,-0.105,3.312,57.0
40.016,-0.087,3.844,65.0
41.373,-0.084,3.755,49.0
39.842,-0.075,3.404,43.0
39.958,-0.07,3.198,50.0
47.785,-0.077,3.573,70.0
47.983,-0.07,3.335,60.0
40.103,-0.06,3.918,48.0
40.232,-0.054,3.718,64.0
47.753,-0.057,4.159,8.0
39.76,-0.041,3.248,73.0
47.816,-0.043,3.652,42.0
47.847,-0.035,3.402,95.0
40.875,-0.031,4.06,29.0
40.665,-0.025,3.822,16.0
47.709,-0.022,4.231,13.0
39.799,-0.012,3.315,69.0
47.847,-0.008,3.731,8.0
47.832,0.0,3.476,82.0
40.383,-0.001,4.075,64.0
41.197,0.005,3.938,50.0
41.921,0.011,3.784,25.0
39.909,0.017,3.386,30.0
39.841,0.023,3.168,75.0
54.595,0.041,4.052,15.0
40.305,0.03,4.131,55.0
40.341,0.036,3.92,56.0
0.0,0.0,0.0,0.0
47.712,0.058,4.122,6.0
39.837,0.055,3.229,68.0
54.572,0.084,4.135,72.0
40.095,0.062,4.171,51.0
40.158,0.069,3.963,69.0
54.673,0.103,5.103,77.0
47.688,0.098,4.192,35.0
39.926,0.088,3.297,57.0
54.164,0.129,4.185,66.0
40.737,0.097,4.299,59.0
40.119,0.102,4.019,65.0
59.227,0.161,5.616,19.0
47.718,0.138,4.265,13.0
39.862,0.122,3.35,66.0
54.028,0.175,4.253,42.0
40.527,0.131,4.337,41.0
40.083,0.137,4.074,67.0
40.177,0.144,3.868,60.0
47.684,0.179,4.331,31.0
39.97,0.157,3.416,53.0
59.221,0.243,4.746,66.0
40.154,0.166,4.355,44.0
40.225,0.173,4.146,55.0
40.23,0.18,3.931,60.0
47.648,0.222,4.395,74.0
54.729,0.265,4.755,8.0
39.926,0.2,3.256,58.0
40.197,0.203,4.416,59.0
40.202,0.21,4.2,63.0
57.354,0.31,5.683,11.0
47.635,0.266,4.459,43.0
40.344,0.232,3.56,33.0
39.93,0.237,3.31,35.0
40.403,0.242,4.493,60.0
40.053,0.247,4.238,67.0
57.367,0.364,5.761,13.0
47.537,0.31,4.514,13.0
57.244,0.385,5.128,11.0
39.925,0.275,3.362,66.0
40.304,0.28,4.536,59.0
40.62,0.289,4.352,42.0
40.227,0.294,4.093,41.0
47.503,0.356,4.572,50.0
40.037,0.308,3.638,30.0
48.765,0.384,4.17,47.0
40.187,0.319,4.575,53.0
40.891,0.332,4.434,42.0
40.039,0.333,4.125,58.0
47.558,0.404,4.639,11.0
40.064,0.348,3.692,39.0
48.769,0.433,4.231,65.0
40.204,0.359,4.628,59.0
40.459,0.369,4.438,47.0
0.0,0.0,0.0,0.0
40.066,0.381,3.957,25.0
40.052,0.388,3.739,32.0
48.858,0.483,4.298,8.0
40.328,0.401,4.691,46.0
41.037,0.416,4.551,26.0
41.096,0.425,4.334,33.0
47.68,0.502,4.765,7.0
39.93,0.428,3.774,56.0
48.913,0.534,4.359,6.0
40.025,0.44,4.703,60.0
40.631,0.454,4.552,41.0
41.049,0.466,4.375,16.0
47.67,0.551,4.818,7.0
40.045,0.471,3.83,45.0
39.931,0.477,3.603,55.0
40.246,0.485,4.774,42.0
40.573,0.497,4.592,55.0
41.245,0.513,4.443,16.0
47.627,0.602,4.866,11.0
40.103,0.514,3.88,15.0
39.937,0.52,3.648,59.0
40.121,0.527,4.803,31.0
40.388,0.538,4.615,51.0
47.638,0.644,5.183,4.0
47.662,0.654,4.921,4.0
40.066,0.557,3.918,34.0
40.077,0.565,3.702,53.0
43.878,0.624,5.299,4.0
41.261,0.595,4.757,44.0
47.584,0.695,5.226,5.0
41.221,0.61,4.297,16.0
40.704,0.61,4.022,56.0
40.169,0.611,3.751,54.0
0.0,0.0,0.0,0.0
40.929,0.635,4.76,48.0
41.491,0.652,4.598,41.0
41.218,0.656,4.338,16.0
40.02,0.645,3.993,57.0
40.051,0.654,3.778,45.0
39.652,0.653,4.867,25.0
41.433,0.69,4.858,45.0
41.254,0.695,4.611,40.0
43.978,0.75,4.67,5.0
43.018,0.742,4.333,3.0
56.093,0.978,5.343,6.0
39.157,0.689,4.843,61.0
41.682,0.741,4.926,47.0
41.137,0.74,4.635,54.0
42.718,0.777,4.574,48.0
42.983,0.791,4.368,21.0
49.03,0.912,4.714,10.0
38.982,0.731,4.856,70.0
41.868,0.793,4.984,42.0
47.548,0.91,5.399,5.0
42.361,0.82,4.572,36.0
48.472,0.948,4.966,11.0
40.198,0.794,3.898,48.0
38.773,0.772,4.862,64.0
0.0,0.0,0.0,0.0
40.838,0.83,4.67,66.0
48.562,0.996,5.281,14.0
48.492,1.004,5.007,13.0
49.031,1.025,4.794,11.0
38.505,0.812,4.859,63.0
40.595,0.864,4.898,18.0
41.453,0.891,4.773,43.0
48.541,1.052,5.316,39.0
48.52,1.061,5.047,5.0
40.469,0.893,3.987,32.0
38.244,0.852,4.855,60.0
41.351,0.929,5.02,3.0
48.528,1.1,5.623,6.0
66.535,1.522,7.335,14.0
41.554,0.959,4.352,38.0
40.445,0.941,4.013,33.0
38.097,0.894,4.864,48.0
37.943,0.898,4.633,57.0
41.772,0.997,4.869,41.0
41.694,1.003,4.625,16.0
49.52,1.202,5.22,7.0
40.418,0.989,4.037,46.0
38.527,0.951,4.944,45.0
37.852,0.941,4.647,58.0
42.136,1.056,4.938,56.0
42.05,1.062,4.691,43.0
57.057,1.453,6.05,6.0
49.274,1.264,4.953,7.0
38.158,0.987,4.92,48.0
37.708,0.983,4.652,69.0
41.393,1.087,4.876,35.0
49.807,1.317,5.586,7.0
53.892,1.436,5.745,14.0
49.331,1.324,4.986,6.0
38.318,1.038,4.962,50.0
37.692,1.028,4.671,58.0
41.651,1.144,4.93,12.0
49.848,1.379,5.617,10.0
41.156,1.146,4.409,43.0
56.794,1.593,5.77,12.0
37.885,1.072,4.926,60.0
37.824,1.078,4.707,56.0
41.599,1.193,4.944,12.0
42.255,1.22,4.783,17.0
41.346,1.202,4.45,19.0
40.857,1.195,4.171,44.0
37.918,1.119,4.949,40.0
37.841,1.124,4.727,62.0
41.124,1.229,4.907,6.0
37.866,1.139,4.303,35.0
41.189,1.247,4.451,22.0
40.992,1.25,4.202,42.0
0.0,0.0,0.0,0.0
38.039,1.177,4.768,48.0
38.079,1.185,4.56,25.0
37.802,1.184,4.311,39.0
38.303,1.207,4.155,37.0
41.458,1.314,4.266,23.0
40.705,1.301,5.346,3.0
38.162,1.227,4.797,62.0
37.969,1.228,4.56,43.0
38.018,1.236,4.35,34.0
38.262,1.252,4.164,61.0
41.463,1.364,4.281,12.0
38.033,1.262,5.008,63.0
37.906,1.265,4.778,53.0
37.818,1.269,4.554,56.0
37.915,1.279,4.35,61.0
38.311,1.3,4.181,54.0
41.641,1.421,4.312,25.0
37.858,1.303,4.996,58.0
37.799,1.307,4.775,66.0
37.88,1.317,4.572,51.0
38.012,1.328,4.371,60.0
38.352,1.348,4.195,56.0
41.592,1.469,4.317,18.0
37.699,1.343,4.984,65.0
37.714,1.35,4.773,61.0
37.842,1.361,4.576,49.0
37.863,1.369,4.362,50.0
38.378,1.394,4.206,59.0
41.699,1.523,4.337,34.0
37.648,1.387,4.985,60.0
37.795,1.399,4.791,67.0
37.811,1.406,4.58,62.0
37.764,1.411,4.357,50.0
38.489,1.445,4.225,39.0
62.04,2.34,6.463,12.0
37.504,1.427,4.972,62.0
37.834,1.446,4.801,69.0
37.92,1.455,4.598,40.0
37.704,1.454,4.355,58.0
42.453,1.644,4.665,3.0
41.422,1.612,4.319,27.0
37.672,1.478,4.998,52.0
37.954,1.495,4.82,51.0
37.85,1.498,4.593,66.0
37.624,1.495,4.349,58.0
38.403,1.533,4.223,44.0
41.456,1.662,4.326,16.0
37.943,1.534,5.037,25.0
38.074,1.546,4.838,41.0
37.874,1.544,4.598,59.0
37.614,1.54,4.35,61.0
38.357,1.576,4.219,62.0
41.882,1.729,4.371,8.0
37.574,1.564,4.988,49.0
43.017,1.798,5.466,21.0
37.882,1.589,4.599,42.0
37.627,1.585,4.351,32.0
41.111,1.739,4.522,29.0
54.64,2.32,5.702,8.0
37.445,1.603,4.97,62.0
38.035,1.634,4.832,17.0
38.0,1.638,4.611,38.0
55.757,2.413,6.445,7.0
42.003,1.825,4.618,17.0
63.539,2.772,6.626,38.0
37.459,1.648,4.969,58.0
38.072,1.68,4.833,17.0
38.044,1.685,4.613,16.0
53.257,2.368,6.151,7.0
42.4,1.892,4.657,17.0
63.663,2.851,6.633,11.0
37.781,1.706,5.007,56.0
37.934,1.718,4.811,53.0
38.028,1.728,4.606,34.0
37.959,1.731,4.378,2.0
63.363,2.901,6.95,34.0
52.931,2.431,5.506,9.0
38.171,1.767,5.052,45.0
38.033,1.767,4.817,48.0
37.87,1.765,4.58,53.0
41.207,1.926,4.745,12.0
0.0,0.0,0.0,0.0
0.0,0.0,0.0,0.0
37.85,1.795,5.002,49.0
37.941,1.805,4.797,52.0
37.929,1.81,4.579,60.0
42.167,2.018,4.846,28.0
41.787,2.007,4.565,11.0
54.717,2.636,5.668,4.0
37.744,1.833,4.978,46.0
37.936,1.847,4.786,43.0
37.918,1.852,4.567,54.0
41.688,2.042,4.779,39.0
42.149,2.071,4.593,9.0
41.538,2.047,4.29,26.0
37.632,1.869,4.952,57.0
37.621,1.873,4.735,62.0
38.14,1.905,4.582,46.0
54.23,2.716,6.2,6.0
41.828,2.1,4.544,14.0
41.518,2.09,4.275,20.0
37.808,1.919,4.962,49.0
37.737,1.92,4.736,51.0
54.23,2.767,6.496,13.0
41.965,2.147,4.782,23.0
41.633,2.136,4.507,36.0
63.027,3.242,6.466,10.0
38.075,1.973,4.983,38.0
37.663,1.957,4.712,65.0
44.726,2.33,5.339,5.0
41.754,2.18,4.742,26.0
42.116,2.205,4.542,26.0
62.97,3.306,6.433,21.0
38.251,2.023,4.989,52.0
37.758,2.002,4.707,46.0
41.99,2.232,4.994,24.0
41.848,2.229,4.733,14.0
41.674,2.225,4.476,16.0
62.914,3.368,6.399,17.0
38.415,2.072,4.992,49.0
37.726,2.039,4.685,38.0
41.672,2.258,4.936,16.0
38.292,2.079,4.312,59.0
41.581,2.263,4.445,26.0
62.917,3.432,6.367,10.0
44.811,2.462,5.8,20.0
37.733,2.078,4.666,48.0
38.161,2.106,4.5,3.0
38.285,2.117,4.291,67.0
41.838,2.318,4.45,13.0
63.189,3.51,6.36,17.0
45.552,2.549,5.87,6.0
41.349,2.318,5.09,4.0
38.312,2.152,4.496,30.0
38.365,2.159,4.278,65.0
41.879,2.362,4.43,10.0
53.324,3.013,5.336,6.0
38.065,2.167,4.882,35.0
41.311,2.356,5.06,21.0
38.18,2.181,4.457,32.0
38.379,2.197,4.256,42.0
63.203,3.625,6.647,9.0
41.586,2.389,4.135,41.0
38.042,2.201,4.855,58.0
38.638,2.24,4.708,12.0
38.207,2.218,4.435,58.0
38.394,2.234,4.232,62.0
63.135,3.679,6.598,18.0
41.425,2.418,4.092,58.0
37.994,2.234,4.823,41.0
41.343,2.434,5.009,2.0
38.249,2.256,4.414,53.0
42.094,2.487,4.611,3.0
63.399,3.752,6.581,7.0
41.426,2.456,4.063,55.0
37.959,2.266,4.791,67.0
41.368,2.473,4.982,6.0
38.139,2.283,4.373,49.0
38.5,2.308,4.189,43.0
63.712,3.826,6.567,8.0
41.405,2.491,4.03,53.0
38.078,2.306,4.777,39.0
38.222,2.318,4.574,21.0
38.108,2.314,4.34,68.0
38.395,2.335,4.148,31.0
63.602,3.874,6.506,14.0
41.452,2.529,4.002,36.0
41.239,2.533,5.141,5.0
38.103,2.343,4.529,58.0
38.317,2.359,4.333,57.0
38.311,2.362,4.108,41.0
63.41,3.915,6.435,35.0
41.437,2.562,3.967,12.0
38.354,2.387,4.749,10.0
38.106,2.374,4.497,56.0
38.4,2.395,4.31,46.0
38.291,2.392,4.073,21.0
63.624,3.979,6.402,38.0
70.306,4.403,6.671,22.0
44.547,2.808,5.477,11.0
38.07,2.402,4.46,64.0
38.335,2.421,4.269,49.0
64.017,4.049,6.753,39.0
63.342,4.011,6.317,20.0
63.667,4.036,5.984,4.0
38.168,2.435,4.657,43.0
38.151,2.436,4.434,60.0
38.317,2.449,4.231,61.0
63.64,4.073,6.654,36.0
63.312,4.056,6.255,13.0
70.268,4.507,6.539,28.0
38.246,2.468,4.63,59.0
38.184,2.467,4.401,69.0
38.283,2.475,4.191,59.0
63.985,4.141,6.629,34.0
63.414,4.108,6.205,13.0
70.391,4.565,6.482,31.0
38.218,2.493,4.589,56.0
38.274,2.499,4.374,63.0
41.944,2.741,4.551,3.0
70.834,4.632,7.269,15.0
63.502,4.157,6.15,12.0
70.402,4.613,6.414,16.0
38.273,2.522,4.557,39.0
38.266,2.524,4.334,64.0
38.783,2.559,4.168,45.0
64.493,4.261,6.552,9.0
63.404,4.192,6.076,23.0
70.192,4.644,6.322,20.0
38.218,2.544,4.51,42.0
38.298,2.55,4.297,71.0
64.199,4.278,6.832,15.0
70.95,4.731,7.133,20.0
63.3,4.224,5.998,20.0
0.0,0.0,0.0,0.0
38.233,2.567,4.471,69.0
38.605,2.594,4.29,31.0
64.197,4.316,6.762,23.0
71.065,4.781,7.067,49.0
63.264,4.259,5.925,31.0
65.025,4.38,5.715,28.0
38.18,2.586,4.421,68.0
38.797,2.629,4.268,30.0
64.165,4.351,6.686,18.0
70.619,4.79,6.943,20.0
70.588,4.79,6.533,14.0
64.945,4.411,5.636,45.0
38.218,2.609,4.382,68.0
41.965,2.866,4.568,3.0
64.191,4.386,6.616,31.0
70.634,4.828,6.863,42.0
70.733,4.837,6.465,20.0
0.0,0.0,0.0,0.0
38.321,2.636,4.349,54.0
38.854,2.673,4.184,8.0
71.922,4.949,7.327,14.0
70.743,4.87,6.79,48.0
70.584,4.861,6.367,10.0
65.372,4.504,5.52,38.0
41.918,2.903,4.706,3.0
64.096,4.44,6.824,24.0
64.342,4.458,6.476,28.0
70.706,4.9,6.7,48.0
65.124,4.514,5.795,36.0
65.445,4.539,5.446,34.0
41.917,2.921,4.654,3.0
64.348,4.484,6.771,31.0
64.963,4.528,6.458,26.0
70.644,4.925,6.607,48.0
64.069,4.468,5.621,38.0
64.972,4.532,5.326,32.0
41.899,2.936,4.6,9.0
64.308,4.507,6.686,39.0
70.958,4.973,6.965,18.0
70.787,4.962,6.531,10.0
63.843,4.476,5.521,27.0
64.578,4.528,5.212,40.0
41.911,2.952,4.547,12.0
54.263,3.822,5.571,13.0
70.86,4.991,6.864,21.0
64.281,4.528,5.848,25.0
63.829,4.496,5.438,30.0
64.281,4.528,5.105,39.0
64.122,4.536,6.873,40.0
67.503,4.776,6.842,43.0
70.928,5.017,6.777,35.0
63.904,4.52,5.73,32.0
63.842,4.516,5.354,31.0
64.9,4.591,5.069,40.0
54.261,3.854,5.743,1.0
67.721,4.81,6.774,26.0
70.99,5.041,6.688,47.0
63.914,4.538,5.645,38.0
64.161,4.555,5.296,39.0
65.216,4.63,5.006,26.0
64.295,4.583,6.717,16.0
67.741,4.827,6.684,23.0
71.076,5.064,6.6,12.0
63.929,4.553,5.559,39.0
64.141,4.568,5.206,38.0
67.07,4.776,5.056,13.0
38.652,2.763,3.984,42.0
64.002,4.573,6.226,17.0
64.107,4.579,5.864,30.0
63.909,4.564,5.468,31.0
0.0,0.0,0.0,0.0
67.308,4.805,4.982,31.0
67.491,4.835,6.863,16.0
64.011,4.584,6.137,23.0
63.872,4.572,5.753,23.0
63.805,4.566,5.371,38.0
65.159,4.661,5.108,39.0
67.363,4.818,4.891,13.0
67.628,4.853,6.782,14.0
71.151,5.103,6.721,22.0
63.846,4.577,5.66,25.0
63.794,4.572,5.279,39.0
65.476,4.691,5.039,40.0
71.072,5.09,5.059,16.0
67.702,4.864,6.69,15.0
64.128,4.605,5.964,31.0
64.252,4.611,5.603,37.0
63.93,4.586,5.198,39.0
0.0,0.0,0.0,0.0
67.452,4.835,4.704,26.0
63.99,4.6,6.23,16.0
64.057,4.602,5.864,39.0
63.955,4.592,5.483,39.0
64.611,4.636,5.158,41.0
67.405,4.834,4.991,33.0
67.539,4.842,4.611,32.0
64.049,4.604,6.141,21.0
63.859,4.587,5.751,30.0
63.8,4.58,5.375,38.0
65.122,4.672,5.102,41.0
71.182,5.104,5.165,12.0
67.604,4.844,4.515,26.0
71.142,5.112,6.714,21.0
63.856,4.584,5.655,25.0
63.799,4.577,5.28,38.0
0.0,0.0,0.0,0.0
71.064,5.091,5.051,16.0
70.833,5.071,4.625,25.0
64.137,4.603,5.956,31.0
64.225,4.605,5.591,39.0
63.919,4.579,5.194,38.0
0.0,0.0,0.0,0.0
67.476,4.827,4.695,31.0
70.873,5.067,4.522,32.0
64.059,4.59,5.852,28.0
63.905,4.574,5.466,35.0
64.872,4.639,5.172,40.0
67.325,4.81,4.971,30.0
67.556,4.823,4.597,38.0
157.514,11.236,9.809,17.0
63.854,4.565,5.735,25.0
63.84,4.559,5.363,34.0
65.219,4.652,5.1,35.0
67.312,4.798,4.867,39.0
70.789,5.04,4.71,11.0
157.65,11.216,9.577,21.0
63.916,4.556,5.642,35.0
64.253,4.574,5.299,40.0
65.199,4.637,4.998,24.0
71.073,5.049,5.029,9.0
70.814,5.026,4.601,46.0
157.635,11.178,9.331,28.0
63.835,4.534,5.535,32.0
64.317,4.563,5.203,39.0
71.148,5.041,5.343,16.0
67.48,4.776,4.67,37.0
70.939,5.016,4.499,21.0
157.684,11.138,9.09,21.0
63.849,4.516,5.436,29.0
64.501,4.557,5.117,40.0
67.174,4.74,4.94,31.0
67.539,4.759,4.568,40.0
157.568,11.093,9.748,13.0
157.748,11.093,8.847,11.0
64.226,4.521,5.367,35.0
65.161,4.581,5.066,41.0
67.322,4.727,4.844,32.0
67.617,4.741,4.468,36.0
172.925,12.112,10.428,18.0
165.918,11.607,9.048,12.0
64.764,4.535,5.31,41.0
0.0,0.0,0.0,0.0
67.277,4.698,4.734,29.0
70.97,4.949,4.577,10.0
157.684,10.981,9.257,4.0
33.402,2.323,1.768,3.0
65.082,4.53,5.231,41.0
67.032,4.658,4.999,42.0
67.549,4.688,4.646,24.0
67.384,4.669,4.238,10.0
128.398,8.885,7.334,15.0
33.417,2.309,1.715,85.0
65.666,4.54,5.173,42.0
71.117,4.909,5.19,9.0
67.57,4.657,4.54,43.0
67.286,4.631,4.125,12.0
128.485,8.829,7.134,5.0
33.394,2.291,1.661,27.0
65.646,4.506,5.067,42.0
67.247,4.608,4.8,42.0
67.555,4.621,4.431,41.0
67.356,4.6,4.022,16.0
33.367,2.275,1.799,0.0
33.436,2.276,1.61,3.0
66.9,4.556,5.055,44.0
67.413,4.582,4.704,30.0
67.386,4.572,4.311,38.0
128.192,8.684,7.449,14.0
33.401,2.258,1.748,8.0
33.44,2.257,1.557,2.0
71.2,4.806,5.265,10.0
67.325,4.536,4.589,43.0
67.433,4.535,4.206,28.0
128.417,8.62,7.255,25.0
33.391,2.237,1.693,49.0
119.613,8.002,5.377,14.0
67.432,4.509,4.879,23.0
67.244,4.488,4.476,43.0
67.294,4.482,4.089,33.0
128.44,8.539,7.05,27.0
33.416,2.217,1.641,5.0
157.945,10.463,6.85,21.0
67.119,4.443,4.748,40.0
67.036,4.429,4.354,38.0
67.116,4.425,3.971,32.0
33.378,2.196,1.778,2.0
157.937,10.372,7.506,34.0
158.01,10.357,6.599,45.0
67.276,4.405,4.65,44.0
67.215,4.392,4.258,35.0
67.063,4.373,3.861,18.0
33.402,2.173,1.726,21.0
33.438,2.171,1.535,1.0
158.131,10.248,6.352,33.0
67.176,4.348,4.536,44.0
67.045,4.33,4.139,41.0
128.172,8.26,7.174,22.0
157.973,10.157,7.913,28.0
33.45,2.146,1.482,3.0
158.162,10.126,6.1,39.0
67.067,4.288,4.421,27.0
67.019,4.274,4.03,33.0
128.355,8.168,6.978,29.0
158.047,10.034,7.666,36.0
33.446,2.118,1.429,3.0
33.445,2.113,1.237,3.0
67.036,4.23,4.313,23.0
67.156,4.227,3.933,8.0
128.304,8.056,6.772,42.0
157.971,9.895,7.412,21.0
33.464,2.09,1.377,1.0
33.421,2.083,1.182,6.0
67.085,4.174,4.208,22.0
128.712,7.987,7.331,24.0
128.024,7.925,6.554,34.0
158.035,9.757,7.163,16.0
33.425,2.058,1.322,3.0
33.425,2.053,1.13,3.0
67.072,4.111,4.101,22.0
128.449,7.852,7.112,35.0
127.779,7.789,6.337,34.0
33.412,2.031,1.461,1.0
33.458,2.029,1.271,0.0
157.143,9.506,5.067,5.0
128.319,7.743,7.643,29.0
128.261,7.717,6.901,35.0
161.84,9.709,7.773,22.0
157.96,9.451,6.662,13.0
157.326,9.386,5.73,16.0
162.029,9.639,4.969,13.0
128.105,7.602,7.429,26.0
33.441,1.978,1.746,17.0
161.935,9.551,7.524,30.0
157.776,9.278,6.406,16.0
157.657,9.245,5.495,13.0
162.102,9.478,4.72,9.0
128.044,7.463,7.224,40.0
33.456,1.944,1.694,135.0
162.14,9.393,7.281,15.0
158.237,9.138,6.18,18.0
157.192,9.051,5.235,14.0
163.501,9.385,4.505,14.0
127.887,7.316,7.016,23.0
33.445,1.907,1.642,4.0
162.309,9.226,7.037,13.0
158.028,8.953,5.926,17.0
162.383,9.171,5.157,6.0
163.226,9.189,4.247,10.0
33.448,1.876,1.783,3.0
33.483,1.871,1.592,1.0
157.878,8.796,6.6,19.0
157.358,8.737,5.659,14.0
162.556,8.994,4.912,6.0
163.146,8.998,3.994,24.0
33.43,1.836,1.731,52.0
162.303,8.884,7.472,29.0
157.557,8.595,6.348,16.0
157.135,8.54,5.412,10.0
157.014,8.502,4.506,11.0
162.611,8.774,3.734,12.0
33.443,1.797,1.681,52.0
159.895,8.56,7.117,11.0
157.248,8.385,6.095,13.0
156.785,8.331,5.162,9.0
156.772,8.299,4.263,11.0
162.475,8.568,3.485,14.0
33.478,1.757,1.632,1.0
159.999,8.368,6.882,17.0
157.483,8.202,5.868,14.0
157.547,8.173,4.951,5.0
156.471,8.085,4.019,5.0
167.157,8.604,3.335,3.0
132.206,6.773,6.248,19.0
157.608,8.039,6.543,12.0
156.625,7.957,5.604,16.0
156.56,7.92,4.687,19.0
0.0,0.0,0.0,0.0
0.0,0.0,0.0,0.0
132.019,6.589,6.044,21.0
157.559,7.83,6.309,24.0
156.782,7.757,5.378,15.0
156.154,7.691,4.445,10.0
0.0,0.0,0.0,0.0
0.0,0.0,0.0,0.0
129.582,6.293,5.743,12.0
157.442,7.612,6.074,19.0
156.672,7.539,5.146,12.0
156.342,7.488,4.223,7.0
0.0,0.0,0.0,0.0
105.774,5.02,1.646,3.0
129.783,6.123,5.563,14.0
157.646,7.401,5.855,19.0
156.13,7.294,4.903,9.0
0.0,0.0,0.0,0.0
0.0,0.0,0.0,0.0
101.399,4.669,1.434,2.0
124.318,5.691,5.154,34.0
156.725,7.136,5.599,18.0
173.813,7.873,5.213,7.0
0.0,0.0,0.0,0.0
0.0,0.0,0.0,0.0
92.769,4.138,1.181,2.0
124.366,5.51,4.979,16.0
156.751,6.909,5.379,9.0
173.643,7.612,4.965,15.0
0.0,0.0,0.0,0.0
0.0,0.0,0.0,0.0
79.278,3.419,0.899,8.0
157.626,6.75,6.092,18.0
156.258,6.653,5.146,6.0
173.33,7.337,4.716,10.0
0.0,0.0,0.0,0.0
0.0,0.0,0.0,0.0
77.943,3.243,0.777,26.0
157.685,6.512,5.879,21.0
162.475,6.668,5.128,9.0
0.0,0.0,0.0,0.0
0.0,0.0,0.0,0.0
101.079,4.075,1.448,4.0
77.576,3.108,0.669,19.0
157.838,6.274,5.674,13.0
161.963,6.396,4.896,6.0
0.0,0.0,0.0,0.0
0.0,0.0,0.0,0.0
92.917,3.599,1.208,3.0
74.139,2.853,0.541,12.0
173.583,6.626,6.011,5.0
160.477,6.083,4.64,4.0
0.0,0.0,0.0,0.0
0.0,0.0,0.0,0.0
79.759,2.96,0.932,6.0
59.547,2.195,0.356,33.0
160.189,5.852,5.336,8.0
160.477,5.821,4.431,6.0
0.0,0.0,0.0,0.0
0.0,0.0,0.0,0.0
78.189,2.775,0.814,27.0
58.835,2.074,0.278,15.0
157.304,5.492,5.044,7.0
0.0,0.0,0.0,0.0
0.0,0.0,0.0,0.0
100.762,3.438,1.499,2.0
77.809,2.634,0.714,26.0
54.645,1.835,0.19,28.0
159.004,5.286,4.9,11.0
0.0,0.0,0.0,0.0
0.0,0.0,0.0,0.0
100.67,3.263,1.372,3.0
74.519,2.396,0.592,13.0
48.902,1.559,0.11,22.0
158.376,4.996,4.689,14.0
0.0,0.0,0.0,0.0
0.0,0.0,0.0,0.0
88.921,2.73,1.105,4.0
61.178,1.862,0.412,8.0
47.953,1.445,0.05,22.0
154.162,4.595,4.379,30.0
0.0,0.0,0.0,0.0
0.0,0.0,0.0,0.0
78.77,2.282,0.886,6.0
59.869,1.717,0.333,33.0
0.0,0.0,0.0,0.0
154.023,4.321,4.196,33.0
0.0,0.0,0.0,0.0
0.0,0.0,0.0,0.0
78.172,2.127,0.789,27.0
58.737,1.581,0.26,25.0
42.766,1.139,-0.053,17.0
137.903,3.623,3.601,2.0
100.314,2.606,2.049,4.0
106.132,2.727,1.565,17.0
77.88,1.978,0.698,24.0
0.0,0.0,0.0,0.0
39.589,0.983,-0.093,31.0
146.441,3.585,3.662,10.0
0.0,0.0,0.0,0.0
106.119,2.534,1.449,5.0
74.841,1.766,0.59,19.0
48.566,1.131,0.107,6.0
38.724,0.89,-0.133,44.0
0.0,0.0,0.0,0.0
106.139,2.372,1.938,6.0
89.838,1.981,1.131,4.0
74.645,1.623,0.509,14.0
47.794,1.025,0.055,21.0
37.871,0.801,-0.17,50.0
128.052,2.662,2.93,49.0
106.367,2.178,1.831,2.0
89.911,1.815,1.039,6.0
61.089,1.214,0.353,35.0
0.0,0.0,0.0,0.0
37.395,0.721,-0.206,30.0
128.085,2.424,2.802,28.0
127.139,2.366,2.061,28.0
89.825,1.644,0.947,11.0
60.085,1.082,0.288,34.0
44.566,0.789,-0.038,18.0
37.264,0.648,-0.242,13.0
190.02,3.238,3.971,21.0
126.592,2.117,1.929,41.0
78.013,1.28,0.747,18.0
58.084,0.935,0.222,9.0
44.095,0.696,-0.08,6.0
37.064,0.574,-0.276,6.0
189.986,2.874,3.789,31.0
126.414,1.873,1.807,28.0
77.731,1.126,0.671,34.0
48.009,0.68,0.138,56.0
39.299,0.544,-0.108,36.0
37.111,0.502,-0.311,2.0
189.371,2.496,3.602,21.0
48.213,0.62,0.645,8.0
48.088,0.604,0.372,79.0
47.903,0.586,0.095,61.0
38.803,0.462,-0.141,47.0
33.572,0.389,-0.311,1.0
48.138,0.541,0.873,96.0
48.101,0.524,0.601,106.0
48.056,0.508,0.329,101.0
47.584,0.488,0.053,48.0
38.362,0.381,-0.173,46.0
32.66,0.314,-0.331,1.0
48.097,0.445,0.831,113.0
48.076,0.43,0.56,111.0
48.049,0.414,0.289,104.0
46.592,0.387,0.013,29.0
38.202,0.304,-0.204,28.0
31.813,0.243,-0.349,1.0
48.115,0.351,0.792,98.0
48.128,0.335,0.522,52.0
48.182,0.32,0.251,62.0
0.0,0.0,0.0,0.0
38.119,0.228,-0.233,13.0
31.215,0.176,-0.367,1.0
59.295,0.315,0.93,114.0
59.3,0.295,0.597,113.0
55.059,0.255,0.244,22.0
0.0,0.0,0.0,0.0
37.879,0.15,-0.261,17.0
30.584,0.111,-0.383,1.0
79.468,0.261,1.187,151.0
79.449,0.234,0.74,150.0
55.092,0.143,0.204,19.0
43.812,0.099,-0.088,5.0
38.076,0.073,-0.29,2.0
30.052,0.047,-0.398,1.0
79.464,0.098,1.13,151.0
79.401,0.071,0.683,62.0
54.699,0.03,0.163,8.0
40.725,0.009,-0.11,17.0
38.172,-0.003,-0.317,1.0
29.616,-0.013,-0.412,2.0
79.457,-0.063,1.076,151.0
79.288,-0.09,0.629,33.0
0.0,0.0,0.0,0.0
40.346,-0.073,-0.136,16.0
33.786,-0.073,-0.303,1.0
29.375,-0.073,-0.428,3.0
79.464,-0.225,1.025,151.0
79.11,-0.252,0.577,11.0
50.877,-0.18,0.086,10.0
39.735,-0.153,-0.158,3.0
33.36,-0.141,-0.32,1.0
28.985,-0.132,-0.44,2.0
79.462,-0.388,0.978,155.0
76.73,-0.402,0.514,15.0
50.048,-0.279,0.055,23.0
41.58,-0.246,-0.19,4.0
32.69,-0.205,-0.332,1.0
28.564,-0.189,-0.45,2.0
79.454,-0.553,0.932,184.0
77.066,-0.563,0.473,11.0
48.696,-0.372,0.026,3.0
42.238,-0.338,-0.217,3.0
32.147,-0.268,-0.344,1.0
28.221,-0.245,-0.46,3.0
79.461,-0.716,0.89,177.0
77.37,-0.724,0.435,8.0
56.377,-0.548,0.001,5.0
42.158,-0.425,-0.238,2.0
31.481,-0.328,-0.353,1.0
27.966,-0.302,-0.47,2.0
79.479,-0.883,0.851,150.0
77.765,-0.891,0.399,3.0
54.777,-0.647,-0.024,3.0
42.019,-0.512,-0.257,2.0
31.188,-0.391,-0.365,1.0
27.578,-0.355,-0.476,1.0
86.947,-1.146,0.891,40.0
0.0,0.0,0.0,0.0
53.546,-0.744,-0.047,2.0
0.0,0.0,0.0,0.0
30.839,-0.451,-0.374,1.0
27.224,-0.407,-0.482,1.0
98.979,-1.512,0.973,10.0
248.53,-3.885,1.06,13.0
51.49,-0.823,-0.067,0.0
40.136,-0.656,-0.279,4.0
30.549,-0.51,-0.383,1.0
27.003,-0.46,-0.489,1.0
40.265,-0.699,0.38,52.0
40.272,-0.713,0.156,63.0
40.302,-0.728,-0.067,66.0
40.118,-0.74,-0.294,2.0
30.291,-0.57,-0.39,1.0
26.831,-0.515,-0.495,1.0
40.257,-0.784,0.366,54.0
40.273,-0.799,0.142,0.0
0.0,0.0,0.0,0.0
40.149,-0.825,-0.307,1.0
30.031,-0.628,-0.397,1.0
26.668,-0.567,-0.5,1.0
40.393,-0.871,0.355,0.0
40.309,-0.884,0.13,1.0
40.291,-0.898,-0.092,56.0
40.247,-0.912,-0.32,1.0
29.826,-0.687,-0.403,1.0
26.67,-0.624,-0.508,2.0
40.315,-0.954,0.343,92.0
40.276,-0.967,0.12,1.0
40.808,-0.995,-0.104,0.0
37.184,-0.92,-0.305,0.0
29.841,-0.749,-0.41,1.0
26.422,-0.673,-0.51,1.0
40.189,-1.034,0.333,66.0
40.202,-1.049,0.11,46.0
40.973,-1.084,-0.113,174.0
35.641,-0.956,-0.3,0.0
29.825,-0.811,-0.416,1.0
26.278,-0.725,-0.512,2.0
40.213,-1.12,0.326,55.0
40.188,-1.134,0.103,58.0
40.205,-1.149,-0.119,63.0
35.433,-1.025,-0.304,0.0
29.592,-0.867,-0.418,1.0
26.266,-0.78,-0.516,1.0
0.0,0.0,0.0,0.0
0.0,0.0,0.0,0.0
0.0,0.0,0.0,0.0
35.141,-1.091,-0.307,0.0
29.592,-0.929,-0.422,1.0
26.181,-0.832,-0.518,1.0
0.0,0.0,0.0,0.0
65.332,-2.117,0.15,0.0
0.0,0.0,0.0,0.0
36.449,-1.208,-0.322,0.0
29.537,-0.99,-0.424,1.0
26.184,-0.887,-0.52,1.0
0.0,0.0,0.0,0.0
0.0,0.0,0.0,0.0
0.0,0.0,0.0,0.0
36.4,-1.283,-0.324,0.0
29.547,-1.052,-0.426,1.0
26.145,-0.941,-0.521,1.0
0.0,0.0,0.0,0.0
0.0,0.0,0.0,0.0
40.137,-1.484,-0.133,152.0
37.762,-1.41,-0.337,4.0
29.562,-1.115,-0.427,2.0
26.08,-0.993,-0.52,1.0
0.0,0.0,0.0,0.0
0.0,0.0,0.0,0.0
37.792,-1.475,-0.125,165.0
37.656,-1.484,-0.336,10.0
29.594,-1.177,-0.426,1.0
26.113,-1.048,-0.52,1.0
0.0,0.0,0.0,0.0
0.0,0.0,0.0,0.0
37.803,-1.554,-0.123,1.0
37.686,-1.563,-0.334,5.0
29.672,-1.242,-0.426,1.0
26.184,-1.105,-0.52,1.0
0.0,0.0,0.0,0.0
0.0,0.0,0.0,0.0
50.438,-2.178,-0.161,1.0
37.838,-1.647,-0.332,1.0
29.714,-1.305,-0.424,2.0
26.278,-1.164,-0.519,1.0
0.0,0.0,0.0,0.0
0.0,0.0,0.0,0.0
50.446,-2.281,-0.155,1.0
37.115,-1.692,-0.321,0.0
29.787,-1.369,-0.421,2.0
26.372,-1.222,-0.517,1.0
0.0,0.0,0.0,0.0
0.0,0.0,0.0,0.0
50.47,-2.386,-0.147,5.0
0.0,0.0,0.0,0.0
29.648,-1.423,-0.414,5.0
26.406,-1.277,-0.513,2.0
0.0,0.0,0.0,0.0
0.0,0.0,0.0,0.0
50.478,-2.489,-0.137,8.0
37.781,-1.876,-0.313,0.0
29.66,-1.484,-0.408,4.0
26.577,-1.34,-0.511,1.0
0.0,0.0,0.0,0.0
0.0,0.0,0.0,0.0
50.452,-2.589,-0.125,7.0
38.004,-1.964,-0.306,0.0
30.203,-1.572,-0.408,1.0
26.704,-1.4,-0.507,2.0
0.0,0.0,0.0,0.0
0.0,0.0,0.0,0.0
50.381,-2.686,-0.112,2.0
37.995,-2.039,-0.296,0.0
30.575,-1.653,-0.405,1.0
26.879,-1.463,-0.503,1.0
0.0,0.0,0.0,0.0
0.0,0.0,0.0,0.0
50.363,-2.785,-0.097,1.0
37.991,-2.115,-0.284,0.0
30.955,-1.734,-0.4,1.0
27.134,-1.53,-0.499,1.0
0.0,0.0,0.0,0.0
0.0,0.0,0.0,0.0
50.466,-2.89,-0.08,6.0
40.569,-2.338,-0.289,0.0
31.445,-1.823,-0.396,1.0
27.391,-1.598,-0.494,2.0
0.0,0.0,0.0,0.0
0.0,0.0,0.0,0.0
50.509,-2.991,-0.061,5.0
0.0,0.0,0.0,0.0
31.907,-1.913,-0.389,1.0
27.577,-1.663,-0.486,2.0
0.0,0.0,0.0,0.0
0.0,0.0,0.0,0.0
50.522,-3.089,-0.04,1.0
41.687,-2.563,-0.264,0.0
32.271,-1.996,-0.38,1.0
27.92,-1.737,-0.481,2.0
0.0,0.0,0.0,0.0
0.0,0.0,0.0,0.0
56.932,-3.588,-0.02,1.0
41.293,-2.618,-0.243,0.0
32.563,-2.076,-0.369,0.0
28.183,-1.807,-0.472,1.0
0.0,0.0,0.0,0.0
0.0,0.0,0.0,0.0
62.13,-4.035,0.007,2.0
0.0,0.0,0.0,0.0
33.731,-2.214,-0.365,1.0
28.564,-1.885,-0.465,1.0
0.0,0.0,0.0,0.0
0.0,0.0,0.0,0.0
62.175,-4.153,0.038,4.0
45.2,-3.034,-0.221,0.0
34.327,-2.316,-0.354,1.0
29.018,-1.968,-0.457,1.0
0.0,0.0,0.0,0.0
0.0,0.0,0.0,0.0
62.214,-4.269,0.072,6.0
45.28,-3.123,-0.197,0.0
34.997,-2.426,-0.342,0.0
29.47,-2.053,-0.447,1.0
152.221,-10.622,1.914,3.0
0.0,0.0,0.0,0.0
61.192,-4.311,0.106,5.0
50.443,-3.571,-0.19,1.0
37.148,-2.642,-0.341,0.0
30.053,-2.148,-0.438,1.0
149.958,-10.732,1.974,2.0
0.0,0.0,0.0,0.0
0.0,0.0,0.0,0.0
50.349,-3.654,-0.159,1.0
0.0,0.0,0.0,0.0
30.471,-2.232,-0.426,1.0
148.587,-10.897,2.05,12.0
0.0,0.0,0.0,0.0
0.0,0.0,0.0,0.0
50.369,-3.744,-0.126,1.0
0.0,0.0,0.0,0.0
31.041,-2.328,-0.414,1.0
148.48,-11.149,2.147,151.0
0.0,0.0,0.0,0.0
0.0,0.0,0.0,0.0
50.356,-3.831,-0.092,1.0
40.495,-3.094,-0.293,0.0
31.881,-2.446,-0.402,1.0
0.0,0.0,0.0,0.0
0.0,0.0,0.0,0.0
0.0,0.0,0.0,0.0
50.474,-3.926,-0.057,1.0
0.0,0.0,0.0,0.0
32.797,-2.572,-0.39,1.0
128.169,-10.064,2.035,175.0
0.0,0.0,0.0,0.0
0.0,0.0,0.0,0.0
0.0,0.0,0.0,0.0
0.0,0.0,0.0,0.0
33.745,-2.703,-0.377,1.0
0.0,0.0,0.0,0.0
0.0,0.0,0.0,0.0
87.12,-7.04,0.509,9.0
0.0,0.0,0.0,0.0
0.0,0.0,0.0,0.0
34.885,-2.852,-0.362,1.0
0.0,0.0,0.0,0.0
121.934,-10.014,1.465,4.0
93.786,-7.731,0.623,1.0
0.0,0.0,0.0,0.0
50.57,-4.2,-0.213,0.0
0.0,0.0,0.0,0.0
0.0,0.0,0.0,0.0
121.826,-10.201,1.564,18.0
0.0,0.0,0.0,0.0
0.0,0.0,0.0,0.0
50.363,-4.263,-0.17,1.0
0.0,0.0,0.0,0.0
0.0,0.0,0.0,0.0
121.757,-10.386,1.666,150.0
0.0,0.0,0.0,0.0
0.0,0.0,0.0,0.0
50.386,-4.343,-0.127,1.0
40.056,-3.465,-0.316,0.0
157.222,-13.609,3.132,15.0
111.639,-9.695,1.624,2.0
111.417,-9.707,1.023,5.0
0.0,0.0,0.0,0.0
50.461,-4.426,-0.083,4.0
41.401,-3.643,-0.29,0.0
188.588,-16.607,3.924,19.0
110.14,-9.729,1.7,11.0
109.671,-9.718,1.104,4.0
0.0,0.0,0.0,0.0
0.0,0.0,0.0,0.0
0.0,0.0,0.0,0.0
188.262,-16.855,4.089,45.0
109.143,-9.802,1.785,7.0
108.649,-9.788,1.195,151.0
90.521,-8.18,0.501,2.0
0.0,0.0,0.0,0.0
0.0,0.0,0.0,0.0
188.255,-17.128,4.265,44.0
108.801,-9.927,1.883,17.0
108.531,-9.931,1.296,152.0
0.0,0.0,0.0,0.0
0.0,0.0,0.0,0.0
0.0,0.0,0.0,0.0
188.507,-17.414,4.452,47.0
108.841,-10.083,1.987,2.0
108.466,-10.076,1.4,41.0
0.0,0.0,0.0,0.0
0.0,0.0,0.0,0.0
50.384,-4.72,-0.163,1.0
188.071,-17.631,4.626,54.0
108.779,-10.223,2.093,8.0
0.0,0.0,0.0,0.0
100.89,-9.534,0.851,4.0
0.0,0.0,0.0,0.0
50.425,-4.791,-0.114,0.0
149.441,-14.207,3.825,69.0
108.786,-10.367,2.202,15.0
100.768,-9.628,1.5,28.0
100.542,-9.631,0.95,1.0
0.0,0.0,0.0,0.0
0.0,0.0,0.0,0.0
149.453,-14.398,3.978,49.0
149.471,-14.436,3.179,72.0
97.514,-9.441,1.552,3.0
97.287,-9.443,1.019,1.0
0.0,0.0,0.0,0.0
0.0,0.0,0.0,0.0
188.132,-18.363,5.204,45.0
188.105,-18.402,4.198,41.0
96.681,-9.48,1.64,5.0
96.008,-9.437,1.107,2.0
90.519,-8.918,0.56,1.0
0.0,0.0,0.0,0.0
188.098,-18.588,5.404,50.0
187.775,-18.598,4.39,50.0
95.745,-9.503,1.728,15.0
95.134,-9.465,1.199,5.0
94.908,-9.465,0.69,1.0
0.0,0.0,0.0,0.0
188.122,-18.812,5.608,54.0
187.916,-18.832,4.599,47.0
95.783,-9.619,1.833,4.0
94.577,-9.52,1.296,8.0
94.518,-9.534,0.792,3.0
0.0,0.0,0.0,0.0
188.176,-19.033,5.817,52.0
188.005,-19.056,4.811,47.0
96.097,-9.759,1.946,4.0
89.213,-9.079,1.322,8.0
88.749,-9.051,0.841,4.0
0.0,0.0,0.0,0.0
188.215,-19.245,6.033,33.0
187.878,-19.247,5.018,30.0
96.192,-9.874,2.056,8.0
87.574,-9.006,1.396,12.0
86.989,-8.964,0.923,2.0
0.0,0.0,0.0,0.0
189.407,-19.567,6.285,20.0
188.007,-19.457,5.234,41.0
188.436,-19.538,4.242,27.0
86.883,-9.025,1.484,9.0
86.513,-9.003,1.017,131.0
86.922,-9.063,0.558,1.0
189.549,-19.775,6.506,31.0
188.015,-19.646,5.451,31.0
188.225,-19.702,4.452,33.0
86.554,-9.075,1.577,10.0
86.457,-9.082,1.116,61.0
86.953,-9.15,0.659,4.0
189.633,-19.968,6.729,22.0
188.078,-19.834,5.671,29.0
188.094,-19.869,4.669,27.0
86.597,-9.163,1.68,15.0
86.388,-9.156,1.216,69.0
86.421,-9.176,0.757,10.0
107.36,-11.404,3.937,63.0
188.212,-20.023,5.897,27.0
123.564,-13.166,3.213,83.0
86.787,-9.261,1.786,9.0
86.346,-9.229,1.317,55.0
86.348,-9.243,0.858,154.0
123.935,-13.275,4.691,42.0
123.372,-13.233,4.011,63.0
123.5,-13.266,3.358,99.0
86.929,-9.351,1.892,4.0
86.347,-9.302,1.42,39.0
86.322,-9.314,0.96,150.0
106.953,-11.546,4.176,55.0
123.349,-13.334,4.16,41.0
123.468,-13.365,3.505,82.0
86.969,-9.427,1.997,7.0
86.342,-9.372,1.524,40.0
86.296,-9.38,1.064,53.0
107.709,-11.715,4.336,22.0
107.281,-11.683,3.747,52.0
123.465,-13.461,3.655,48.0
187.549,-20.475,4.536,29.0
86.345,-9.439,1.629,32.0
86.273,-9.443,1.168,114.0
124.212,-13.604,5.153,17.0
106.918,-11.723,3.865,48.0
187.971,-20.634,5.794,20.0
187.296,-20.583,4.757,36.0
0.0,0.0,0.0,0.0
86.249,-9.502,1.272,88.0
105.869,-11.67,4.52,42.0
106.543,-11.757,3.981,62.0
107.371,-11.861,3.441,59.0
187.429,-20.726,4.99,35.0
86.745,-9.603,1.848,6.0
86.252,-9.559,1.378,53.0
105.75,-11.728,4.646,59.0
106.422,-11.813,4.108,67.0
107.311,-11.923,3.569,65.0
107.496,-11.955,2.992,28.0
86.758,-9.659,1.954,12.0
86.282,-9.616,1.484,52.0
105.978,-11.819,4.786,87.0
106.43,-11.879,4.238,43.0
107.291,-11.985,3.701,37.0
107.388,-12.007,3.122,73.0
115.873,-12.967,2.751,17.0
86.298,-9.667,1.59,40.0
106.403,-11.928,4.936,26.0
123.024,-13.801,5.051,16.0
115.987,-13.022,4.143,54.0
107.353,-12.062,3.254,77.0
107.51,-12.09,2.687,58.0
86.359,-9.72,1.699,3.0
99.724,-11.233,4.75,99.0
107.689,-12.137,4.555,17.0
116.022,-13.086,4.29,38.0
107.411,-12.123,3.388,33.0
107.442,-12.135,2.817,85.0
86.595,-9.788,1.81,11.0
99.31,-11.235,4.854,53.0
107.73,-12.194,4.691,24.0
115.909,-13.127,4.431,23.0
115.916,-13.136,3.801,83.0
107.408,-12.18,2.949,74.0
86.696,-9.838,1.92,14.0
105.307,-11.96,5.279,30.0
107.722,-12.24,4.826,19.0
115.623,-13.144,4.563,49.0
115.892,-13.181,3.945,84.0
107.407,-12.223,3.084,32.0
107.441,-12.234,2.513,62.0
105.284,-11.999,5.41,27.0
99.472,-11.341,4.58,34.0
115.51,-13.175,4.703,45.0
115.91,-13.227,4.089,59.0
115.882,-13.229,3.472,63.0
107.45,-12.273,2.648,69.0
98.594,-11.272,5.189,41.0
99.322,-11.358,4.698,75.0
115.523,-13.215,4.847,52.0
115.916,-13.264,4.233,75.0
115.925,-13.27,3.616,68.0
107.453,-12.305,2.78,22.0
100.863,-11.562,5.434,25.0
99.358,-11.392,4.822,31.0
115.489,-13.244,4.99,57.0
115.837,-13.287,4.376,52.0
115.958,-13.305,3.762,52.0
115.909,-13.304,3.143,24.0
100.844,-11.586,5.559,17.0
108.369,-12.452,5.394,21.0
115.416,-13.264,5.127,43.0
115.872,-13.318,4.519,42.0
115.96,-13.331,3.904,25.0
115.939,-13.332,3.286,9.0
105.145,-12.102,5.926,20.0
98.637,-11.354,5.032,36.0
99.398,-11.442,4.54,39.0
115.849,-13.337,4.662,33.0
115.979,-13.354,4.048,16.0
188.23,-21.675,5.566,22.0
99.327,-11.45,5.72,4.0
98.614,-11.367,5.152,32.0
99.323,-11.448,4.659,61.0
115.579,-13.322,4.791,23.0
116.109,-13.383,4.194,8.0
188.422,-21.72,5.801,21.0
105.12,-12.131,6.182,15.0
100.853,-11.637,5.391,35.0
99.334,-11.459,4.78,29.0
115.552,-13.329,4.931,41.0
116.33,-13.418,4.343,23.0
188.405,-21.731,6.029,12.0
105.109,-12.137,6.31,18.0
98.931,-11.421,5.409,5.0
98.873,-11.412,4.877,20.0
115.505,-13.329,5.068,53.0
116.437,-13.435,4.487,48.0
189.359,-21.847,6.288,19.0
91.021,-10.513,5.575,9.0
105.08,-12.133,5.873,10.0
98.665,-11.389,4.986,51.0
115.402,-13.318,5.203,29.0
116.564,-13.449,4.633,45.0
189.386,-21.847,6.516,21.0
91.03,-10.513,5.685,25.0
105.127,-12.137,6.001,22.0
98.625,-11.381,5.103,39.0
99.368,-11.463,4.599,69.0
115.936,-13.37,4.745,24.0
116.097,-13.385,4.132,7.0
91.075,-10.513,5.796,16.0
86.028,-9.925,5.013,6.0
100.857,-11.631,5.336,29.0
99.306,-11.447,4.712,51.0
115.545,-13.313,4.865,41.0
116.028,-13.364,4.265,25.0
84.596,-9.756,5.483,32.0
86.004,-9.913,5.112,9.0
100.881,-11.621,5.456,28.0
99.432,-11.449,4.833,18.0
115.509,-13.293,4.996,53.0
115.932,-13.336,4.394,36.0
84.599,-9.744,5.582,32.0
101.128,-11.64,6.128,6.0
105.121,-12.092,5.807,18.0
108.365,-12.458,5.393,21.0
115.372,-13.256,5.123,40.0
115.693,-13.286,4.518,31.0
84.601,-9.728,5.679,21.0
101.207,-11.628,6.251,20.0
99.138,-11.383,5.591,2.0
98.576,-11.311,5.019,19.0
99.408,-11.398,4.528,36.0
115.537,-13.24,4.644,36.0
84.582,-9.706,5.774,13.0
101.259,-11.61,6.368,15.0
99.241,-11.369,5.707,5.0
98.542,-11.28,5.128,40.0
99.361,-11.366,4.637,70.0
115.519,-13.205,4.772,45.0
84.438,-9.665,5.86,13.0
91.075,-10.416,5.829,11.0
86.032,-9.83,5.044,9.0
98.546,-11.25,5.237,42.0
99.303,-11.328,4.744,61.0
115.538,-13.17,4.898,29.0
84.396,-9.633,5.95,25.0
81.681,-9.313,5.319,10.0
101.039,-11.51,6.034,29.0
100.847,-11.477,5.47,23.0
99.343,-11.296,4.854,34.0
107.722,-12.238,4.685,23.0
84.399,-9.602,6.042,43.0
90.805,-10.32,6.01,16.0
101.073,-11.475,6.144,34.0
100.845,-11.437,5.577,36.0
105.277,-11.929,5.254,25.0
107.806,-12.204,4.801,5.0
84.344,-9.561,6.127,48.0
90.947,-10.298,6.115,12.0
101.097,-11.435,6.251,19.0
104.631,-11.821,5.896,9.0
105.053,-11.857,5.353,17.0
117.427,-13.24,5.351,21.0
84.169,-9.504,6.203,26.0
86.33,-9.735,5.895,8.0
101.216,-11.4,6.365,10.0
90.699,-10.204,5.204,13.0
98.524,-11.071,5.122,11.0
100.065,-11.232,4.663,43.0
84.229,-9.468,6.294,13.0
86.283,-9.687,5.98,8.0
81.553,-9.144,5.211,6.0
98.309,-11.008,5.74,32.0
107.91,-12.069,5.717,24.0
100.027,-11.174,4.761,65.0
69.059,-7.726,5.229,7.0
89.129,-9.957,6.266,5.0
81.481,-9.09,5.287,16.0
98.311,-10.953,5.838,40.0
90.621,-10.083,4.892,5.0
99.554,-11.063,4.836,27.0
68.911,-7.669,5.286,10.0
68.341,-7.594,4.872,4.0
81.666,-9.062,5.379,5.0
98.253,-10.887,5.93,47.0
90.56,-10.021,4.975,12.0
108.191,-11.956,5.36,39.0
68.533,-7.585,5.323,7.0
68.339,-7.551,4.937,7.0
97.848,-10.796,6.538,28.0
98.227,-10.821,6.02,24.0
108.388,-11.923,6.056,11.0
99.262,-10.904,5.008,32.0
68.451,-7.53,5.381,4.0
83.173,-9.135,6.086,4.0
97.717,-10.715,6.619,20.0
98.242,-10.755,6.112,10.0
90.146,-9.854,5.119,2.0
99.214,-10.829,5.096,43.0
83.849,-9.166,6.667,17.0
84.292,-9.199,6.243,18.0
97.733,-10.647,6.707,14.0
98.683,-10.733,6.226,17.0
100.408,-10.903,5.79,4.0
99.21,-10.756,5.182,52.0
83.762,-9.095,6.734,11.0
82.627,-8.955,6.192,8.0
86.242,-9.331,5.993,9.0
81.396,-8.791,5.205,9.0
100.298,-10.814,5.869,34.0
99.201,-10.678,5.267,38.0
68.718,-7.408,5.583,7.0
82.673,-8.896,6.266,7.0
86.266,-9.266,6.067,7.0
81.499,-8.738,5.279,10.0
86.14,-9.219,5.111,12.0
99.159,-10.594,5.345,19.0
84.719,-9.064,6.953,7.0
82.425,-8.802,6.314,5.0
68.41,-7.291,4.867,4.0
97.9,-10.415,6.421,17.0
86.229,-9.156,5.185,9.0
104.608,-11.087,5.723,17.0
84.678,-8.988,7.018,15.0
77.896,-8.251,6.029,3.0
68.396,-7.23,4.92,4.0
100.423,-10.594,6.666,19.0
99.236,-10.45,6.045,26.0
99.218,-10.428,5.502,38.0
77.409,-8.148,6.475,5.0
84.137,-8.837,6.576,5.0
82.54,-8.652,5.999,15.0
114.481,-11.975,7.683,8.0
99.281,-10.365,6.12,9.0
90.728,-9.453,5.098,5.0
84.256,-8.792,7.109,8.0
84.14,-8.761,6.637,6.0
82.274,-8.548,6.039,7.0
96.432,-9.997,6.54,6.0
99.063,-10.249,6.176,5.0
105.088,-10.85,5.979,16.0
83.854,-8.67,7.134,6.0
81.296,-8.386,6.469,2.0
84.467,-8.695,6.257,5.0
86.324,-8.866,5.913,2.0
81.663,-8.369,5.147,3.0
90.633,-9.269,5.217,4.0
77.95,-7.983,6.683,8.0
91.875,-9.387,7.371,4.0
84.436,-8.607,6.311,6.0
86.295,-8.776,5.967,4.0
99.415,-10.088,6.33,10.0
99.427,-10.067,5.786,48.0
69.09,-7.005,5.968,10.0
84.208,-8.517,6.81,6.0
68.451,-6.906,5.159,3.0
82.632,-8.318,5.765,4.0
99.561,-9.999,6.399,11.0
99.472,-9.966,5.849,28.0
68.621,-6.884,5.969,6.0
92.12,-9.219,7.505,2.0
68.396,-6.827,5.196,3.0
82.701,-8.235,5.819,18.0
99.643,-9.898,6.464,18.0
99.153,-9.826,5.888,45.0
78.386,-7.778,6.864,4.0
69.377,-6.866,5.692,1.0
91.555,-9.038,7.007,4.0
84.617,-8.333,6.0,1.0
98.925,-9.717,6.47,18.0
99.125,-9.712,5.94,17.0
76.107,-7.467,6.706,4.0
86.487,-8.462,7.142,1.0
84.996,-8.295,6.549,4.0
96.109,-9.355,6.865,2.0
98.767,-9.589,6.511,23.0
85.914,-8.32,5.191,5.0
83.847,-8.13,7.429,4.0
81.019,-7.834,6.73,1.0
97.144,-9.366,7.533,11.0
84.191,-8.096,6.054,3.0
98.731,-9.469,6.555,15.0
85.823,-8.21,5.225,6.0
83.704,-8.018,7.456,2.0
84.604,-8.081,7.066,6.0
97.894,-9.323,7.635,12.0
84.29,-8.006,6.099,6.0
84.695,-8.023,5.659,8.0
99.159,-9.367,6.08,9.0
99.815,-9.44,8.934,13.0
96.527,-9.103,8.103,9.0
97.313,-9.151,7.629,8.0
86.858,-8.144,6.32,3.0
86.353,-8.074,5.805,5.0
106.753,-9.955,6.586,17.0
98.042,-9.153,8.813,20.0
85.284,-7.938,7.191,14.0
97.145,-9.016,7.651,6.0
87.056,-8.055,6.366,3.0
86.403,-7.971,5.839,9.0
106.181,-9.769,6.588,19.0
95.737,-8.818,8.639,6.0
105.946,-9.729,8.97,8.0
105.1,-9.622,8.313,7.0
84.222,-7.687,6.185,4.0
84.505,-7.69,5.738,2.0
99.346,-9.014,6.195,9.0
96.427,-8.758,8.731,11.0
99.771,-9.034,8.477,7.0
105.238,-9.498,8.356,9.0
84.627,-7.615,6.24,4.0
106.004,-9.51,7.228,19.0
106.101,-9.49,6.646,13.0
99.734,-8.929,9.057,12.0
105.422,-9.407,8.986,6.0
85.097,-7.57,6.779,10.0
106.374,-9.433,7.87,12.0
98.432,-8.701,6.736,8.0
108.104,-9.528,6.796,7.0
97.458,-8.597,8.873,3.0
96.874,-8.517,8.279,8.0
108.111,-9.474,8.635,14.0
86.405,-7.547,6.411,8.0
97.773,-8.512,6.71,6.0
106.024,-9.201,6.687,2.0
96.529,-8.384,8.807,7.0
108.116,-9.359,9.26,4.0
106.22,-9.164,8.504,25.0
97.133,-8.353,7.223,8.0
84.468,-7.24,5.81,6.0
121.83,-10.409,7.703,7.0
97.149,-8.305,8.879,5.0
106.449,-9.069,9.132,18.0
84.586,-7.182,6.783,5.0
85.093,-7.2,6.34,14.0
108.007,-9.109,7.443,6.0
115.191,-9.682,7.296,7.0
109.012,-9.167,9.976,2.0
97.251,-8.15,8.353,7.0
96.868,-8.089,7.777,5.0
97.87,-8.144,7.3,9.0
100.756,-8.355,6.952,4.0
121.572,-10.048,7.71,5.0
106.298,-8.79,9.734,3.0
105.433,-8.686,9.063,7.0
105.979,-8.7,8.515,10.0
107.999,-8.834,8.061,9.0
108.785,-8.867,7.511,8.0
108.386,-8.805,6.877,2.0
105.353,-8.562,9.651,7.0
107.731,-8.722,9.263,10.0
105.962,-8.547,8.516,2.0
100.229,-8.055,7.482,4.0
108.704,-8.703,7.505,7.0
124.4,-9.925,7.894,4.0
105.512,-8.422,9.664,2.0
107.131,-8.519,9.209,5.0
108.336,-8.582,8.704,7.0
114.636,-9.048,8.553,3.0
108.875,-8.561,7.513,10.0
115.425,-9.043,7.317,5.0
107.458,-8.42,9.837,1.0
106.123,-8.284,9.116,9.0
108.032,-8.4,8.671,5.0
148.641,-11.513,11.08,15.0
108.847,-8.398,7.502,12.0
106.545,-8.191,6.745,5.0
107.168,-8.24,9.799,2.0
0.0,0.0,0.0,0.0
107.897,-8.23,8.648,2.0
107.865,-8.196,8.027,2.0
107.493,-8.135,7.395,6.0
149.23,-11.252,9.428,3.0
0.0,0.0,0.0,0.0
108.536,-8.151,9.295,7.0
148.504,-11.106,11.881,3.0
108.766,-8.101,8.077,7.0
149.247,-11.072,10.242,8.0
148.091,-10.945,9.33,4.0
0.0,0.0,0.0,0.0
108.484,-7.982,9.271,1.0
108.663,-7.962,8.671,2.0
207.015,-15.105,15.33,11.0
206.929,-15.039,14.158,6.0
149.691,-10.835,9.399,3.0
0.0,0.0,0.0,0.0
0.0,0.0,0.0,0.0
108.881,-7.812,8.663,4.0
109.024,-7.79,8.047,5.0
207.152,-14.741,14.12,19.0
150.484,-10.665,9.41,8.0
0.0,0.0,0.0,0.0
0.0,0.0,0.0,0.0
0.0,0.0,0.0,0.0
108.968,-7.621,8.011,5.0
207.9,-14.48,14.109,8.0
148.342,-10.288,9.231,11.0
0.0,0.0,0.0,0.0
0.0,0.0,0.0,0.0
109.15,-7.5,8.617,4.0
0.0,0.0,0.0,0.0
162.808,-11.089,10.994,4.0
0.0,0.0,0.0,0.0
0.0,0.0,0.0,0.0
0.0,0.0,0.0,0.0
0.0,0.0,0.0,0.0
0.0,0.0,0.0,0.0
209.896,-13.972,14.093,21.0
156.948,-10.401,9.651,6.0
0.0,0.0,0.0,0.0
0.0,0.0,0.0,0.0
0.0,0.0,0.0,0.0
0.0,0.0,0.0,0.0
0.0,0.0,0.0,0.0
210.441,-13.62,12.848,9.0
0.0,0.0,0.0,0.0
0.0,0.0,0.0,0.0
0.0,0.0,0.0,0.0
0.0,0.0,0.0,0.0
203.124,-12.889,13.458,6.0
148.392,-9.374,8.99,3.0
0.0,0.0,0.0,0.0
0.0,0.0,0.0,0.0
0.0,0.0,0.0,0.0
0.0,0.0,0.0,0.0
0.0,0.0,0.0,0.0
204.941,-12.627,12.31,4.0
0.0,0.0,0.0,0.0
0.0,0.0,0.0,0.0
0.0,0.0,0.0,0.0
0.0,0.0,0.0,0.0
0.0,0.0,0.0,0.0
0.0,0.0,0.0,0.0
0.0,0.0,0.0,0.0
0.0,0.0,0.0,0.0
0.0,0.0,0.0,0.0
0.0,0.0,0.0,0.0
0.0,0.0,0.0,0.0
229.192,-13.409,13.499,7.0
0.0,0.0,0.0,0.0
0.0,0.0,0.0,0.0
0.0,0.0,0.0,0.0
0.0,0.0,0.0,0.0
0.0,0.0,0.0,0.0
0.0,0.0,0.0,0.0
0.0,0.0,0.0,0.0
0.0,0.0,0.0,0.0
0.0,0.0,0.0,0.0
0.0,0.0,0.0,0.0
0.0,0.0,0.0,0.0
0.0,0.0,0.0,0.0
0.0,0.0,0.0,0.0
0.0,0.0,0.0,0.0
0.0,0.0,0.0,0.0
0.0,0.0,0.0,0.0
0.0,0.0,0.0,0.0
0.0,0.0,0.0,0.0
93.635,-5.027,7.938,1.0
92.611,-4.944,7.319,2.0
91.557,-4.862,6.712,6.0
0.0,0.0,0.0,0.0
0.0,0.0,0.0,0.0
0.0,0.0,0.0,0.0
93.389,-4.867,7.843,5.0
98.52,-5.105,7.708,2.0
91.376,-4.71,6.625,4.0
90.436,-4.635,6.03,3.0
0.0,0.0,0.0,0.0
0.0,0.0,0.0,0.0
83.766,-4.235,6.966,3.0
91.952,-4.622,7.118,2.0
91.542,-4.576,6.56,2.0
90.436,-4.495,5.953,3.0
0.0,0.0,0.0,0.0
0.0,0.0,0.0,0.0
0.0,0.0,0.0,0.0
83.588,-4.071,6.396,6.0
89.813,-4.349,6.357,7.0
91.792,-4.42,5.961,1.0
83.421,-3.993,4.939,1.0
0.0,0.0,0.0,0.0
92.466,-4.388,7.524,3.0
83.515,-3.939,6.314,7.0
89.853,-4.214,6.277,7.0
92.405,-4.307,5.915,1.0
83.281,-3.86,4.853,2.0
0.0,0.0,0.0,0.0
92.628,-4.253,7.449,6.0
83.531,-3.812,6.235,6.0
91.505,-4.151,6.305,4.0
92.387,-4.166,5.825,1.0
83.219,-3.73,4.769,1.0
0.0,0.0,0.0,0.0
90.234,-4.004,7.166,6.0
89.252,-3.936,6.573,5.0
89.87,-3.939,6.101,4.0
0.0,0.0,0.0,0.0
0.0,0.0,0.0,0.0
0.0,0.0,0.0,0.0
90.29,-3.869,7.076,5.0
83.434,-3.553,6.058,6.0
89.86,-3.802,6.007,5.0
83.24,-3.5,5.076,4.0
0.0,0.0,0.0,0.0
0.0,0.0,0.0,0.0
92.864,-3.84,7.179,3.0
83.583,-3.433,5.979,9.0
90.393,-3.689,5.944,9.0
97.557,-3.955,5.843,2.0
0.0,0.0,0.0,0.0
0.0,0.0,0.0,0.0
92.831,-3.697,7.072,21.0
93.12,-3.684,6.556,15.0
93.042,-3.656,6.013,6.0
98.199,-3.833,5.769,2.0
0.0,0.0,0.0,0.0
0.0,0.0,0.0,0.0
83.482,-3.199,6.262,4.0
83.328,-3.171,5.768,11.0
93.358,-3.529,5.923,8.0
98.342,-3.692,5.663,1.0
0.0,0.0,0.0,0.0
0.0,0.0,0.0,0.0
83.086,-3.061,6.133,10.0
83.49,-3.054,5.68,9.0
174.566,-6.343,10.869,35.0
0.0,0.0,0.0,0.0
0.0,0.0,0.0,0.0
0.0,0.0,0.0,0.0
82.82,-2.931,6.012,14.0
90.36,-3.175,6.036,12.0
97.912,-3.415,5.974,10.0
0.0,0.0,0.0,0.0
0.0,0.0,0.0,0.0
0.0,0.0,0.0,0.0
93.714,-3.18,6.684,5.0
90.344,-3.043,5.92,4.0
174.661,-5.842,10.434,33.0
0.0,0.0,0.0,0.0
0.0,0.0,0.0,0.0
148.062,-4.844,6.265,22.0
83.194,-2.704,5.824,44.0
93.029,-3.001,5.973,6.0
98.193,-3.143,5.736,8.0
0.0,0.0,0.0,0.0
0.0,0.0,0.0,0.0
148.258,-4.642,6.077,22.0
83.592,-2.598,5.739,40.0
93.068,-2.87,5.85,6.0
93.197,-2.852,5.319,40.0
0.0,0.0,0.0,0.0
0.0,0.0,0.0,0.0
148.2,-4.432,5.871,8.0
0.0,0.0,0.0,0.0
90.567,-2.666,5.567,15.0
90.475,-2.643,5.037,29.0
129.052,-3.74,6.426,13.0
0.0,0.0,0.0,0.0
40.218,-1.147,1.537,0.0
92.323,-2.613,6.08,14.0
83.481,-2.343,5.013,41.0
90.468,-2.518,4.908,47.0
178.379,-4.925,8.626,35.0
128.759,-3.527,5.482,30.0
40.214,-1.092,1.479,46.0
92.332,-2.487,5.947,39.0
83.554,-2.232,4.897,58.0
90.504,-2.397,4.779,39.0
129.053,-3.391,6.053,33.0
129.082,-3.362,5.306,45.0
40.18,-1.038,1.419,53.0
97.772,-2.503,6.153,15.0
83.63,-2.122,4.776,55.0
90.502,-2.277,4.644,40.0
129.1,-3.22,5.862,46.0
40.237,-0.994,1.593,6.0
40.234,-0.986,1.36,51.0
129.664,-3.149,7.963,28.0
83.68,-2.014,4.652,60.0
90.568,-2.16,4.509,48.0
129.49,-3.061,5.683,30.0
193.038,-4.521,7.352,9.0
40.307,-0.935,1.301,12.0
91.429,-2.1,5.471,55.0
92.17,-2.098,4.981,37.0
90.608,-2.044,4.37,51.0
129.084,-2.886,5.465,15.0
185.602,-4.11,6.78,47.0
40.276,-0.883,1.237,31.0
91.412,-1.985,5.327,9.0
91.431,-1.966,4.795,68.0
90.621,-1.93,4.227,28.0
191.408,-4.037,7.796,23.0
185.114,-3.867,6.468,45.0
40.303,-0.834,1.174,51.0
91.401,-1.87,5.179,2.0
91.49,-1.854,4.653,79.0
92.935,-1.864,4.185,16.0
188.511,-3.743,7.374,23.0
184.674,-3.63,6.15,44.0
40.267,-0.783,1.107,58.0
83.794,-1.611,4.609,35.0
90.958,-1.731,4.474,79.0
128.395,-2.417,5.567,35.0
185.845,-3.462,6.958,21.0
40.39,-0.744,1.278,1.0
40.251,-0.734,1.039,40.0
127.103,-2.29,6.777,30.0
90.934,-1.62,4.318,23.0
128.473,-2.264,5.352,24.0
184.382,-3.216,6.593,37.0
151.461,-2.612,4.535,94.0
248.308,-4.237,5.993,52.0
101.153,-1.704,5.222,31.0
91.445,-1.523,4.187,79.0
128.115,-2.109,5.119,30.0
151.417,-2.465,5.156,52.0
151.474,-2.439,4.278,90.0
261.977,-4.17,5.875,24.0
101.069,-1.587,5.043,27.0
91.489,-1.419,4.031,51.0
128.67,-1.972,4.919,29.0
151.431,-2.293,4.891,90.0
151.478,-2.267,4.014,37.0
183.394,-2.712,3.792,88.0
79.199,-1.154,3.811,152.0
91.11,-1.311,3.852,78.0
99.694,-1.417,3.635,3.0
86.91,-1.22,2.654,35.0
86.931,-1.205,2.148,29.0
