X,Y,Z,Reflectivity
68.984,-7.421,5.724,9.0
82.331,-8.843,6.384,13.0
68.409,-7.336,4.934,4.0
106.482,-11.402,7.09,7.0
100.135,-10.707,6.126,47.0
90.719,-9.686,5.059,7.0
69.048,-7.384,5.795,9.0
68.93,-7.359,5.41,9.0
82.543,-8.798,6.03,5.0
86.282,-9.183,5.826,5.0
99.309,-10.553,6.167,17.0
104.612,-11.1,5.93,35.0
69.014,-7.334,5.857,11.0
68.889,-7.308,5.471,13.0
82.433,-8.731,6.097,10.0
100.431,-10.62,6.872,13.0
99.141,-10.466,6.246,17.0
99.248,-10.462,5.713,25.0
68.955,-7.28,5.913,7.0
96.741,-10.195,7.768,13.0
82.789,-8.709,6.196,3.0
86.276,-9.06,5.979,9.0
81.521,-8.546,5.206,9.0
99.285,-10.391,5.802,13.0
83.415,-8.745,7.225,3.0
68.843,-7.203,5.587,8.0
82.948,-8.663,6.28,3.0
86.123,-8.978,6.042,10.0
81.481,-8.479,5.272,6.0
86.192,-8.954,5.109,8.0
78.351,-8.152,6.853,4.0
68.847,-7.15,5.645,8.0
77.819,-8.066,5.955,2.0
82.65,-8.55,5.866,10.0
81.22,-8.387,5.322,2.0
86.226,-8.887,5.181,11.0
76.462,-7.893,6.75,1.0
68.91,-7.1,5.705,10.0
84.372,-8.675,6.524,5.0
82.401,-8.456,5.913,7.0
99.265,-10.166,6.582,11.0
86.235,-8.815,5.248,10.0
84.942,-8.697,7.565,19.0
68.867,-7.036,5.755,10.0
96.238,-9.812,7.515,9.0
81.726,-8.315,5.927,7.0
99.276,-10.081,6.657,8.0
86.303,-8.746,5.317,12.0
85.006,-8.628,7.634,9.0
68.625,-6.95,5.786,4.0
98.357,-9.939,7.754,7.0
84.488,-8.52,6.189,2.0
98.776,-9.94,6.695,14.0
99.452,-9.987,6.198,32.0
85.057,-8.554,7.7,3.0
77.849,-7.811,6.619,3.0
98.475,-9.859,7.833,5.0
84.547,-8.446,6.252,9.0
82.888,-8.262,5.675,11.0
99.612,-9.908,6.276,17.0
83.112,-8.28,7.581,2.0
77.646,-7.717,6.654,3.0
98.513,-9.768,7.902,4.0
97.39,-9.634,7.267,6.0
99.638,-9.835,6.887,16.0
99.001,-9.75,6.302,30.0
85.251,-8.408,7.832,3.0
77.677,-7.643,6.707,3.0
98.768,-9.695,7.984,3.0
84.632,-8.287,6.368,6.0
108.375,-10.588,7.559,9.0
98.975,-9.648,6.361,17.0
84.646,-8.264,7.828,4.0
77.808,-7.577,6.765,3.0
96.714,-9.394,7.877,3.0
97.281,-9.426,7.377,10.0
84.053,-8.125,5.911,9.0
84.855,-8.183,5.502,4.0
85.008,-8.21,7.911,4.0
80.457,-7.75,7.042,2.0
96.51,-9.273,7.914,6.0
97.142,-9.309,7.421,9.0
98.433,-9.409,6.978,34.0
86.321,-8.231,5.645,5.0
84.373,-8.057,7.898,11.0
80.363,-7.654,7.077,4.0
96.728,-9.188,7.984,6.0
85.9,-8.138,6.606,5.0
98.884,-9.344,7.061,16.0
98.779,-9.31,6.51,6.0
85.21,-8.042,8.02,5.0
80.453,-7.572,7.126,3.0
96.058,-9.016,7.977,8.0
84.451,-7.905,6.537,6.0
86.699,-8.095,6.232,2.0
86.352,-8.041,5.732,6.0
85.653,-7.986,8.102,10.0
98.242,-9.134,8.748,7.0
95.865,-8.888,8.005,8.0
98.834,-9.138,7.696,3.0
86.925,-8.015,6.288,3.0
98.569,-9.064,6.585,9.0
98.085,-9.031,9.321,6.0
96.257,-8.837,8.612,8.0
97.239,-8.901,8.16,4.0
105.443,-9.625,8.253,11.0
84.104,-7.654,6.118,6.0
98.666,-8.955,6.632,6.0
98.683,-8.968,9.417,25.0
84.485,-7.654,7.592,10.0
99.919,-9.026,8.424,3.0
85.0,-7.655,6.686,5.0
84.537,-7.592,6.18,3.0
106.038,-9.496,7.166,16.0
98.404,-8.823,9.426,8.0
84.511,-7.553,7.624,11.0
96.918,-8.636,8.204,6.0
85.06,-7.557,6.719,11.0
106.185,-9.406,7.798,10.0
87.113,-7.695,5.914,6.0
83.171,-7.354,7.994,6.0
84.544,-7.451,7.654,5.0
96.904,-8.514,8.232,5.0
84.926,-7.438,6.733,6.0
86.462,-7.549,6.375,9.0
97.534,-8.491,6.65,6.0
99.663,-8.685,9.606,4.0
96.479,-8.38,8.76,6.0
108.146,-9.364,9.216,6.0
106.086,-9.156,8.439,21.0
97.133,-8.357,7.186,8.0
84.427,-7.241,5.776,5.0
105.664,-9.071,10.211,13.0
97.093,-8.308,8.839,4.0
106.537,-9.087,9.103,19.0
84.472,-7.181,6.738,6.0
85.138,-7.215,6.316,20.0
107.929,-9.117,7.407,11.0
108.375,-9.162,10.495,1.0
106.496,-8.973,9.716,6.0
97.33,-8.172,8.334,11.0
96.914,-8.111,7.747,7.0
85.179,-7.105,6.334,4.0
100.815,-8.383,6.935,6.0
108.54,-9.033,10.527,2.0
106.336,-8.818,9.717,4.0
96.587,-7.982,8.284,4.0
106.397,-8.764,8.519,11.0
108.022,-8.868,8.046,8.0
100.897,-8.255,6.952,4.0
106.739,-8.739,10.365,1.0
105.352,-8.596,9.638,14.0
108.525,-8.823,9.319,2.0
107.899,-8.742,8.651,8.0
105.577,-8.524,7.874,3.0
114.609,-9.222,7.907,5.0
0.0,0.0,0.0,0.0
105.555,-8.467,9.664,2.0
107.49,-8.591,9.238,2.0
98.25,-7.825,7.882,11.0
100.662,-7.988,7.512,4.0
108.77,-8.601,7.509,10.0
0.0,0.0,0.0,0.0
108.543,-8.556,9.941,7.0
106.111,-8.333,9.121,14.0
97.736,-7.648,7.842,6.0
147.413,-11.495,11.002,8.0
108.703,-8.446,7.504,16.0
0.0,0.0,0.0,0.0
0.0,0.0,0.0,0.0
0.0,0.0,0.0,0.0
107.932,-8.295,8.657,10.0
148.465,-11.367,11.074,5.0
107.469,-8.198,7.413,5.0
0.0,0.0,0.0,0.0
0.0,0.0,0.0,0.0
108.265,-8.197,9.297,3.0
105.557,-7.962,8.459,2.0
161.866,-12.163,12.061,13.0
107.103,-8.018,7.38,6.0
0.0,0.0,0.0,0.0
108.623,-8.1,9.929,6.0
108.48,-8.058,9.303,2.0
108.908,-8.058,8.714,7.0
108.827,-8.02,8.096,6.0
151.458,-11.121,10.416,5.0
0.0,0.0,0.0,0.0
0.0,0.0,0.0,0.0
0.0,0.0,0.0,0.0
108.58,-7.876,8.671,2.0
207.121,-14.964,15.373,9.0
206.828,-14.885,14.189,12.0
0.0,0.0,0.0,0.0
0.0,0.0,0.0,0.0
109.021,-7.781,9.312,1.0
108.981,-7.746,8.682,4.0
108.98,-7.716,8.066,4.0
207.517,-14.635,14.192,19.0
0.0,0.0,0.0,0.0
0.0,0.0,0.0,0.0
0.0,0.0,0.0,0.0
0.0,0.0,0.0,0.0
108.982,-7.556,8.039,2.0
157.213,-10.856,10.711,9.0
0.0,0.0,0.0,0.0
0.0,0.0,0.0,0.0
0.0,0.0,0.0,0.0
0.0,0.0,0.0,0.0
0.0,0.0,0.0,0.0
148.247,-10.017,10.055,11.0
0.0,0.0,0.0,0.0
0.0,0.0,0.0,0.0
0.0,0.0,0.0,0.0
0.0,0.0,0.0,0.0
0.0,0.0,0.0,0.0
210.047,-13.881,14.175,12.0
0.0,0.0,0.0,0.0
0.0,0.0,0.0,0.0
0.0,0.0,0.0,0.0
0.0,0.0,0.0,0.0
0.0,0.0,0.0,0.0
148.547,-9.592,9.966,4.0
0.0,0.0,0.0,0.0
0.0,0.0,0.0,0.0
0.0,0.0,0.0,0.0
0.0,0.0,0.0,0.0
0.0,0.0,0.0,0.0
0.0,0.0,0.0,0.0
0.0,0.0,0.0,0.0
0.0,0.0,0.0,0.0
0.0,0.0,0.0,0.0
0.0,0.0,0.0,0.0
0.0,0.0,0.0,0.0
0.0,0.0,0.0,0.0
0.0,0.0,0.0,0.0
0.0,0.0,0.0,0.0
0.0,0.0,0.0,0.0
0.0,0.0,0.0,0.0
0.0,0.0,0.0,0.0
0.0,0.0,0.0,0.0
0.0,0.0,0.0,0.0
0.0,0.0,0.0,0.0
0.0,0.0,0.0,0.0
0.0,0.0,0.0,0.0
0.0,0.0,0.0,0.0
0.0,0.0,0.0,0.0
0.0,0.0,0.0,0.0
0.0,0.0,0.0,0.0
0.0,0.0,0.0,0.0
0.0,0.0,0.0,0.0
92.885,-5.321,6.519,1.0
0.0,0.0,0.0,0.0
0.0,0.0,0.0,0.0
0.0,0.0,0.0,0.0
0.0,0.0,0.0,0.0
92.883,-5.206,6.99,1.0
0.0,0.0,0.0,0.0
0.0,0.0,0.0,0.0
92.402,-5.118,8.488,2.0
0.0,0.0,0.0,0.0
0.0,0.0,0.0,0.0
91.546,-4.992,6.827,2.0
92.913,-5.041,6.398,1.0
0.0,0.0,0.0,0.0
90.726,-4.887,8.27,1.0
0.0,0.0,0.0,0.0
0.0,0.0,0.0,0.0
91.521,-4.853,6.759,5.0
0.0,0.0,0.0,0.0
0.0,0.0,0.0,0.0
90.697,-4.749,8.2,3.0
93.206,-4.853,7.892,5.0
0.0,0.0,0.0,0.0
93.059,-4.795,6.802,3.0
92.986,-4.766,6.266,5.0
0.0,0.0,0.0,0.0
90.796,-4.617,8.139,3.0
92.548,-4.681,7.763,5.0
91.971,-4.627,7.186,3.0
93.084,-4.657,6.731,4.0
91.273,-4.542,6.077,1.0
0.0,0.0,0.0,0.0
90.79,-4.481,8.063,2.0
92.465,-4.538,7.679,3.0
83.603,-4.08,6.462,6.0
89.921,-4.364,6.425,4.0
90.408,-4.363,5.942,2.0
83.293,-3.998,4.998,2.0
83.991,-4.018,7.385,6.0
92.715,-4.411,7.619,4.0
83.531,-3.951,6.383,4.0
91.507,-4.303,6.457,3.0
0.0,0.0,0.0,0.0
83.27,-3.872,4.921,2.0
90.543,-4.194,7.878,7.0
92.721,-4.272,7.533,7.0
89.057,-4.078,6.723,2.0
91.395,-4.162,6.365,5.0
90.602,-4.101,5.788,1.0
83.285,-3.749,4.843,3.0
92.663,-4.155,7.973,12.0
90.293,-4.024,7.249,9.0
89.183,-3.951,6.645,4.0
91.324,-4.022,6.269,5.0
92.443,-4.047,5.816,1.0
0.0,0.0,0.0,0.0
83.334,-3.612,7.087,10.0
88.847,-3.828,7.043,4.0
83.57,-3.579,6.143,3.0
91.148,-3.88,6.165,5.0
83.276,-3.524,5.154,2.0
0.0,0.0,0.0,0.0
84.17,-3.524,7.071,6.0
92.885,-3.864,7.266,5.0
83.78,-3.463,6.069,7.0
90.098,-3.702,5.998,8.0
92.766,-3.789,5.643,2.0
0.0,0.0,0.0,0.0
84.06,-3.397,6.97,7.0
92.803,-3.725,7.159,18.0
91.749,-3.659,6.547,12.0
90.114,-3.571,5.901,5.0
97.546,-3.842,5.827,2.0
0.0,0.0,0.0,0.0
84.047,-3.272,6.874,8.0
83.366,-3.224,6.336,8.0
83.323,-3.202,5.851,10.0
93.05,-3.552,5.988,6.0
98.103,-3.722,5.747,3.0
0.0,0.0,0.0,0.0
91.462,-3.429,7.375,12.0
83.31,-3.102,6.235,12.0
83.323,-3.083,5.754,12.0
174.903,-6.428,11.051,31.0
98.502,-3.597,5.655,1.0
0.0,0.0,0.0,0.0
83.496,-3.012,6.633,14.0
0.0,0.0,0.0,0.0
83.401,-2.967,5.659,9.0
174.667,-6.172,10.823,42.0
0.0,0.0,0.0,0.0
0.0,0.0,0.0,0.0
92.573,-3.208,7.238,25.0
91.723,-3.156,6.639,8.0
83.301,-2.845,5.547,8.0
174.624,-5.925,10.602,30.0
0.0,0.0,0.0,0.0
0.0,0.0,0.0,0.0
90.328,-3.003,6.947,11.0
92.517,-3.054,6.578,67.0
172.53,-5.654,11.267,26.0
174.454,-5.676,10.365,25.0
90.54,-2.924,4.856,1.0
0.0,0.0,0.0,0.0
83.126,-2.648,6.283,49.0
91.973,-2.909,6.418,18.0
92.937,-2.918,5.947,39.0
93.225,-2.906,5.417,20.0
0.0,0.0,0.0,0.0
0.0,0.0,0.0,0.0
90.721,-2.766,6.734,5.0
83.577,-2.529,5.72,24.0
83.385,-2.505,5.223,53.0
90.527,-2.7,5.136,58.0
129.289,-3.828,6.589,12.0
0.0,0.0,0.0,0.0
83.609,-2.438,6.091,27.0
90.582,-2.621,6.074,18.0
83.433,-2.395,5.11,55.0
90.444,-2.577,5.006,52.0
129.003,-3.648,6.394,11.0
128.895,-3.617,5.643,12.0
93.471,-2.601,6.677,3.0
92.303,-2.548,6.057,53.0
83.498,-2.287,4.995,54.0
90.458,-2.458,4.877,33.0
177.88,-4.796,8.56,29.0
129.038,-3.451,5.461,33.0
82.156,-2.178,5.749,4.0
128.917,-3.391,8.271,35.0
83.573,-2.181,4.876,35.0
90.507,-2.342,4.747,39.0
129.221,-3.316,6.028,36.0
129.214,-3.29,5.279,53.0
91.694,-2.314,6.28,35.0
97.875,-2.45,6.134,18.0
83.646,-2.076,4.757,59.0
90.549,-2.229,4.614,38.0
129.199,-3.153,5.834,46.0
40.248,-0.974,1.584,3.0
84.876,-2.034,5.684,20.0
91.382,-2.171,5.587,7.0
83.69,-1.972,4.63,54.0
90.557,-2.115,4.476,38.0
129.704,-3.005,5.659,17.0
185.644,-4.263,7.022,29.0
84.077,-1.912,5.501,39.0
91.428,-2.06,5.449,44.0
83.737,-1.869,4.503,17.0
90.611,-2.005,4.336,59.0
128.857,-2.826,5.419,10.0
185.662,-4.037,6.732,44.0
84.393,-1.815,5.386,69.0
101.47,-2.162,5.884,6.0
91.418,-1.93,4.77,78.0
92.954,-1.944,4.3,14.0
183.984,-3.813,7.441,15.0
184.801,-3.794,6.402,47.0
84.33,-1.712,5.245,51.0
83.766,-1.684,4.721,6.0
91.446,-1.821,4.621,79.0
128.7,-2.538,5.742,27.0
188.445,-3.682,7.313,20.0
184.672,-3.575,6.095,47.0
84.129,-1.609,5.093,39.0
83.822,-1.588,4.586,36.0
90.912,-1.706,4.444,78.0
128.487,-2.387,5.522,40.0
185.9,-3.42,6.908,20.0
151.442,-2.758,4.747,49.0
84.114,-1.513,4.952,39.0
127.013,-2.262,6.737,34.0
99.215,-1.749,4.683,20.0
128.465,-2.24,5.302,13.0
184.535,-3.186,6.545,34.0
151.466,-2.589,4.492,86.0
84.03,-1.417,4.802,42.0
90.852,-1.516,4.663,26.0
91.451,-1.51,4.16,89.0
128.089,-2.093,5.068,36.0
151.424,-2.448,5.112,66.0
151.478,-2.423,4.232,85.0
83.888,-1.323,4.648,47.0
101.052,-1.576,5.01,21.0
91.51,-1.411,4.003,52.0
128.866,-1.967,4.874,27.0
151.469,-2.287,4.849,77.0
183.39,-2.737,4.803,52.0
83.871,-1.233,4.499,58.0
79.195,-1.151,3.786,156.0
91.134,-1.31,3.826,78.0
86.858,-1.233,3.131,3.0
86.924,-1.221,2.627,33.0
86.94,-1.206,2.12,25.0
83.895,-1.146,4.35,51.0
85.804,-1.158,3.948,150.0
86.022,-1.147,3.455,150.0
79.622,-1.049,2.726,0.0
79.555,-1.036,2.261,1.0
79.442,-1.021,1.795,6.0
83.868,-1.061,4.195,78.0
79.382,-0.991,3.507,150.0
79.394,-0.98,3.045,150.0
79.393,-0.967,2.574,150.0
79.417,-0.955,2.112,151.0
79.427,-0.944,1.65,165.0
79.24,-0.925,3.818,157.0
79.409,-0.915,3.362,4.0
79.418,-0.903,2.9,151.0
79.43,-0.891,2.429,151.0
79.437,-0.879,1.965,162.0
79.429,-0.868,1.503,184.0
85.797,-0.92,3.974,150.0
79.421,-0.84,3.216,151.0
79.435,-0.829,2.753,151.0
79.435,-0.818,2.281,151.0
79.426,-0.807,1.819,183.0
79.434,-0.795,1.356,184.0
85.934,-0.843,3.819,150.0
79.423,-0.768,3.067,184.0
79.412,-0.757,2.602,151.0
79.436,-0.746,2.131,151.0
79.432,-0.734,1.667,171.0
79.445,-0.724,1.205,172.0
82.835,-0.739,3.524,2.0
79.437,-0.698,2.915,151.0
79.424,-0.687,2.451,150.0
79.425,-0.676,1.979,164.0
79.443,-0.666,1.515,167.0
79.452,-0.656,1.052,168.0
79.435,-0.641,3.225,151.0
79.415,-0.63,2.76,150.0
79.406,-0.62,2.295,151.0
79.424,-0.61,1.825,199.0
79.446,-0.6,1.362,166.0
79.451,-0.59,0.898,174.0
79.435,-0.576,3.071,151.0
79.409,-0.565,2.605,150.0
79.428,-0.556,2.142,165.0
79.424,-0.546,1.671,190.0
79.453,-0.536,1.207,163.0
79.472,-0.526,0.743,158.0
79.418,-0.513,2.913,150.0
79.435,-0.503,2.449,151.0
79.432,-0.494,1.985,181.0
79.434,-0.484,1.512,181.0
79.462,-0.475,1.05,158.0
79.215,-0.464,0.584,32.0
79.424,-0.453,2.755,150.0
79.434,-0.444,2.292,162.0
79.423,-0.435,1.828,189.0
79.439,-0.425,1.355,172.0
79.463,-0.416,0.891,158.0
76.626,-0.393,0.413,9.0
79.42,-0.395,2.596,150.0
79.441,-0.387,2.133,151.0
79.393,-0.378,1.667,255.0
79.444,-0.369,1.196,154.0
79.441,-0.361,0.731,150.0
56.119,-0.248,0.188,10.0
79.432,-0.341,2.436,150.0
79.441,-0.332,1.971,152.0
79.411,-0.323,1.506,255.0
79.457,-0.316,1.035,151.0
79.187,-0.307,0.569,14.0
0.0,0.0,0.0,0.0
79.441,-0.289,2.275,151.0
79.445,-0.281,1.81,155.0
79.446,-0.272,1.345,161.0
79.46,-0.265,0.872,151.0
76.325,-0.246,0.391,7.0
45.827,-0.143,-0.032,20.0
79.442,-0.239,2.11,151.0
79.443,-0.231,1.645,169.0
79.451,-0.224,1.18,154.0
79.427,-0.216,0.708,150.0
55.988,-0.147,0.172,29.0
41.417,-0.105,-0.114,19.0
79.443,-0.193,1.947,151.0
79.438,-0.185,1.481,171.0
79.452,-0.178,1.016,155.0
76.495,-0.165,0.522,19.0
48.198,-0.099,0.047,11.0
39.446,-0.078,-0.191,15.0
79.449,-0.149,1.781,151.0
79.459,-0.142,1.315,157.0
79.463,-0.135,0.851,151.0
61.687,-0.1,0.293,12.0
44.615,-0.068,-0.048,21.0
38.551,-0.056,-0.267,4.0
79.448,-0.108,1.615,155.0
79.46,-0.102,1.15,157.0
79.391,-0.096,0.685,92.0
0.0,0.0,0.0,0.0
40.447,-0.042,-0.128,15.0
33.846,-0.033,-0.305,0.0
79.442,-0.07,1.448,162.0
79.46,-0.064,0.983,162.0
76.192,-0.056,0.496,18.0
0.0,0.0,0.0,0.0
39.063,-0.023,-0.205,14.0
31.704,-0.016,-0.352,1.0
79.465,-0.035,1.28,151.0
79.466,-0.03,0.815,173.0
61.587,-0.019,0.271,16.0
0.0,0.0,0.0,0.0
38.322,-0.006,-0.283,3.0
30.035,-0.003,-0.397,2.0
79.465,-0.003,1.113,151.0
79.338,0.001,0.646,25.0
0.0,0.0,0.0,0.0
39.792,0.005,-0.144,37.0
33.282,0.006,-0.316,1.0
28.882,0.007,-0.443,2.0
79.469,0.025,0.945,151.0
76.027,0.028,0.459,13.0
0.0,0.0,0.0,0.0
38.683,0.019,-0.223,14.0
31.205,0.017,-0.362,1.0
27.308,0.016,-0.476,2.0
79.455,0.051,0.776,150.0
0.0,0.0,0.0,0.0
43.824,0.032,-0.084,7.0
38.064,0.03,-0.299,2.0
29.705,0.025,-0.408,2.0
26.328,0.023,-0.516,2.0
76.424,0.071,0.584,20.0
48.041,0.047,0.085,10.0
39.328,0.04,-0.16,34.0
32.947,0.035,-0.33,1.0
28.478,0.032,-0.451,2.0
25.076,0.029,-0.544,2.0
61.95,0.073,0.341,9.0
0.0,0.0,0.0,0.0
38.351,0.048,-0.238,9.0
30.753,0.04,-0.374,1.0
27.052,0.036,-0.487,2.0
23.828,0.033,-0.568,3.0
54.923,0.077,0.184,29.0
40.465,0.058,-0.1,16.0
38.011,0.056,-0.317,0.0
29.39,0.044,-0.42,2.0
25.973,0.04,-0.523,2.0
23.068,0.036,-0.6,2.0
47.712,0.075,0.058,22.0
38.996,0.063,-0.18,23.0
32.347,0.053,-0.339,1.0
28.011,0.047,-0.46,1.0
24.62,0.042,-0.548,1.0
22.101,0.038,-0.622,2.0
0.0,0.0,0.0,0.0
38.157,0.066,-0.257,5.0
30.292,0.053,-0.381,1.0
26.741,0.048,-0.496,2.0
23.594,0.043,-0.576,2.0
21.199,0.039,-0.642,3.0
39.771,0.072,-0.121,34.0
33.543,0.062,-0.298,1.0
29.102,0.054,-0.429,2.0
25.722,0.048,-0.532,1.0
22.775,0.043,-0.605,2.0
20.335,0.039,-0.659,2.0
38.664,0.073,-0.2,15.0
31.575,0.06,-0.348,1.0
27.646,0.053,-0.466,1.0
24.255,0.047,-0.553,2.0
21.812,0.042,-0.625,2.0
19.376,0.038,-0.669,3.0
38.04,0.073,-0.278,3.0
29.933,0.057,-0.393,2.0
26.506,0.051,-0.503,3.0
23.384,0.045,-0.583,2.0
20.979,0.041,-0.646,2.0
18.805,0.037,-0.689,3.0
33.172,0.063,-0.311,1.0
28.773,0.055,-0.439,2.0
25.351,0.048,-0.535,1.0
22.524,0.043,-0.609,2.0
20.109,0.038,-0.662,2.0
18.14,0.035,-0.704,1.0
30.97,0.057,-0.356,1.0
27.232,0.05,-0.473,1.0
23.972,0.044,-0.557,2.0
21.518,0.04,-0.628,3.0
19.099,0.035,-0.669,3.0
17.546,0.032,-0.718,1.0
29.572,0.052,-0.403,2.0
26.222,0.046,-0.511,2.0
23.195,0.041,-0.588,2.0
20.724,0.036,-0.649,2.0
18.644,0.032,-0.693,2.0
16.992,0.029,-0.731,0.0
28.288,0.047,-0.446,2.0
24.925,0.041,-0.539,1.0
22.295,0.036,-0.612,2.0
19.855,0.032,-0.664,2.0
17.974,0.029,-0.706,1.0
15.877,0.025,-0.717,6.0
26.98,0.04,-0.482,2.0
23.763,0.035,-0.563,3.0
21.381,0.031,-0.632,2.0
18.952,0.027,-0.673,3.0
17.373,0.024,-0.718,1.0
15.853,0.022,-0.749,8.0
25.909,0.033,-0.516,1.0
22.993,0.029,-0.593,3.0
20.495,0.025,-0.649,2.0
18.454,0.022,-0.694,2.0
16.726,0.02,-0.727,0.0
15.295,0.018,-0.754,1.0
24.57,0.026,-0.541,2.0
22.051,0.023,-0.614,3.0
19.668,0.02,-0.663,2.0
17.824,0.017,-0.707,1.0
15.882,0.015,-0.723,16.0
14.933,0.013,-0.767,1.0
23.579,0.019,-0.567,2.0
21.228,0.016,-0.635,3.0
18.913,0.014,-0.676,3.0
17.257,0.012,-0.72,1.0
15.839,0.01,-0.754,6.0
14.509,0.009,-0.775,1.0
22.78,0.011,-0.595,5.0
20.376,0.009,-0.651,2.0
18.32,0.007,-0.693,1.0
15.986,0.006,-0.7,0.0
15.193,0.005,-0.754,1.0
14.051,0.004,-0.78,1.0
21.959,0.003,-0.618,4.0
19.481,0.002,-0.662,2.0
17.712,0.001,-0.705,1.0
15.87,0.0,-0.726,12.0
14.846,0.0,-0.767,1.0
13.716,0.0,-0.789,1.0
21.028,-0.004,-0.634,2.0
18.83,-0.004,-0.678,3.0
17.192,-0.005,-0.719,1.0
15.774,-0.005,-0.753,2.0
14.426,-0.005,-0.774,0.0
13.379,-0.006,-0.796,1.0
20.237,-0.012,-0.65,3.0
18.229,-0.012,-0.692,1.0
16.591,-0.012,-0.727,0.0
15.157,-0.011,-0.754,1.0
14.012,-0.011,-0.779,1.0
13.075,-0.011,-0.804,0.0
19.397,-0.02,-0.661,3.0
17.654,-0.019,-0.705,1.0
15.91,-0.018,-0.729,3.0
14.776,-0.018,-0.765,1.0
13.676,-0.017,-0.788,1.0
12.78,-0.017,-0.811,0.0
18.77,-0.029,-0.677,3.0
17.078,-0.027,-0.716,1.0
15.587,-0.026,-0.745,1.0
14.389,-0.024,-0.773,1.0
13.367,-0.024,-0.796,1.0
12.488,-0.023,-0.817,0.0
18.167,-0.037,-0.69,1.0
16.529,-0.035,-0.725,1.0
15.167,-0.033,-0.754,1.0
13.993,-0.031,-0.778,1.0
13.077,-0.03,-0.804,1.0
12.215,-0.029,-0.823,0.0
17.588,-0.045,-0.703,1.0
16.016,-0.042,-0.733,1.0
14.769,-0.04,-0.763,1.0
13.663,-0.038,-0.787,1.0
12.773,-0.037,-0.81,1.0
11.94,-0.035,-0.827,0.0
17.027,-0.054,-0.713,1.0
15.527,-0.05,-0.741,1.0
14.425,-0.048,-0.772,0.0
13.374,-0.045,-0.796,1.0
12.5,-0.043,-0.817,0.0
11.724,-0.042,-0.835,0.0
16.542,-0.062,-0.724,1.0
15.15,-0.058,-0.751,1.0
14.01,-0.055,-0.776,1.0
13.09,-0.052,-0.803,1.0
12.242,-0.05,-0.823,0.0
11.504,-0.048,-0.841,0.0
16.027,-0.071,-0.731,1.0
14.758,-0.066,-0.759,1.0
13.692,-0.063,-0.784,1.0
12.806,-0.06,-0.809,0.0
11.969,-0.057,-0.826,0.0
11.271,-0.055,-0.844,0.0
15.6,-0.079,-0.74,1.0
14.427,-0.075,-0.768,1.0
13.41,-0.071,-0.792,1.0
12.511,-0.067,-0.814,0.0
11.761,-0.064,-0.834,0.0
11.073,-0.061,-0.85,0.0
15.235,-0.088,-0.75,1.0
14.076,-0.083,-0.775,1.0
13.139,-0.079,-0.8,1.0
12.27,-0.075,-0.82,0.0
11.55,-0.071,-0.84,0.0
10.863,-0.068,-0.853,0.0
14.851,-0.097,-0.758,1.0
13.756,-0.091,-0.782,1.0
12.854,-0.087,-0.806,0.0
12.024,-0.082,-0.825,0.0
11.331,-0.079,-0.844,0.0
10.646,-0.075,-0.855,2.0
14.502,-0.106,-0.766,1.0
13.47,-0.1,-0.79,1.0
12.591,-0.095,-0.812,1.0
11.783,-0.09,-0.83,0.0
11.124,-0.086,-0.848,0.0
10.531,-0.083,-0.865,0.0
14.148,-0.115,-0.772,1.0
13.198,-0.108,-0.797,1.0
12.346,-0.103,-0.817,0.0
11.6,-0.098,-0.837,0.0
10.914,-0.093,-0.851,0.0
10.333,-0.09,-0.866,0.0
13.838,-0.124,-0.778,0.0
12.938,-0.117,-0.803,0.0
12.12,-0.111,-0.823,0.0
11.393,-0.106,-0.841,0.0
10.705,-0.101,-0.853,1.0
10.167,-0.097,-0.87,0.0
13.559,-0.133,-0.786,1.0
12.666,-0.126,-0.808,0.0
11.878,-0.119,-0.827,1.0
11.186,-0.114,-0.845,0.0
10.575,-0.109,-0.861,0.0
9.976,-0.104,-0.87,0.0
13.314,-0.142,-0.793,1.0
12.44,-0.134,-0.814,0.0
11.695,-0.128,-0.833,0.0
11.003,-0.122,-0.849,0.0
10.416,-0.117,-0.865,0.0
9.81,-0.111,-0.872,1.0
13.07,-0.151,-0.8,0.0
12.233,-0.143,-0.82,0.0
11.493,-0.136,-0.837,0.0
10.823,-0.13,-0.853,0.0
10.183,-0.123,-0.862,0.0
9.719,-0.119,-0.879,0.0
12.803,-0.16,-0.804,1.0
12.005,-0.152,-0.823,1.0
11.316,-0.145,-0.842,0.0
10.667,-0.138,-0.857,0.0
10.088,-0.132,-0.869,2.0
9.554,-0.126,-0.879,0.0
12.594,-0.17,-0.81,1.0
11.816,-0.161,-0.829,0.0
11.134,-0.153,-0.846,0.0
10.515,-0.146,-0.861,0.0
9.948,-0.14,-0.872,1.0
9.449,-0.134,-0.884,0.0
12.384,-0.179,-0.815,0.0
11.628,-0.17,-0.833,0.0
10.963,-0.161,-0.849,0.0
10.341,-0.154,-0.862,0.0
9.812,-0.147,-0.875,1.0
9.339,-0.142,-0.888,0.0
12.175,-0.188,-0.819,0.0
11.456,-0.179,-0.837,0.0
10.805,-0.17,-0.853,0.0
10.172,-0.162,-0.863,0.0
9.676,-0.155,-0.877,0.0
9.214,-0.149,-0.889,0.0
11.964,-0.197,-0.822,1.0
11.271,-0.187,-0.84,0.0
10.653,-0.179,-0.856,0.0
10.027,-0.17,-0.865,2.0
9.559,-0.163,-0.88,0.0
9.089,-0.157,-0.89,0.0
11.8,-0.207,-0.828,0.0
11.134,-0.197,-0.846,0.0
10.501,-0.187,-0.859,0.0
9.906,-0.178,-0.868,2.0
9.441,-0.171,-0.883,0.0
8.98,-0.165,-0.892,0.0
11.634,-0.216,-0.832,0.0
10.978,-0.206,-0.849,0.0
10.374,-0.196,-0.862,0.0
9.795,-0.187,-0.872,2.0
9.329,-0.18,-0.885,0.0
8.896,-0.173,-0.896,0.0
11.501,-0.226,-0.838,0.0
10.828,-0.215,-0.852,0.0
10.207,-0.204,-0.862,0.0
9.733,-0.197,-0.88,1.0
9.229,-0.188,-0.888,0.0
8.77,-0.18,-0.895,0.0
11.327,-0.236,-0.84,0.0
10.684,-0.224,-0.854,0.0
10.058,-0.213,-0.863,0.0
9.591,-0.205,-0.879,0.0
9.133,-0.196,-0.89,0.0
8.676,-0.188,-0.897,0.0
11.186,-0.245,-0.844,0.0
10.564,-0.234,-0.858,0.0
9.933,-0.221,-0.865,1.0
9.469,-0.213,-0.88,0.0
9.011,-0.204,-0.89,0.0
8.595,-0.196,-0.899,0.0
11.04,-0.255,-0.847,0.0
10.409,-0.242,-0.858,0.0
9.832,-0.231,-0.868,2.0
9.367,-0.221,-0.882,0.0
8.938,-0.213,-0.894,0.0
8.51,-0.204,-0.9,0.0
10.904,-0.265,-0.849,0.0
10.312,-0.252,-0.863,0.0
9.768,-0.241,-0.874,2.0
9.276,-0.23,-0.884,0.0
8.835,-0.221,-0.894,0.0
8.447,-0.213,-0.904,0.0
10.792,-0.275,-0.853,0.0
10.181,-0.261,-0.863,0.0
9.686,-0.25,-0.877,0.0
9.194,-0.239,-0.887,0.0
8.745,-0.229,-0.894,0.0
8.371,-0.221,-0.905,0.0
10.668,-0.284,-0.855,0.0
10.061,-0.27,-0.864,0.0
9.571,-0.259,-0.877,0.0
9.118,-0.248,-0.89,0.0
8.687,-0.238,-0.898,0.0
8.292,-0.229,-0.905,0.0
10.546,-0.294,-0.856,0.0
9.938,-0.279,-0.864,1.0
9.488,-0.268,-0.88,0.0
9.022,-0.257,-0.89,0.0
8.598,-0.246,-0.898,0.0
8.231,-0.237,-0.907,0.0
10.454,-0.304,-0.86,0.0
9.847,-0.288,-0.866,2.0
9.398,-0.277,-0.881,0.0
8.942,-0.265,-0.891,0.0
8.527,-0.255,-0.899,0.0
8.167,-0.246,-0.909,0.0
10.357,-0.314,-0.862,0.0
9.798,-0.299,-0.872,2.0
9.319,-0.286,-0.883,0.0
8.872,-0.274,-0.893,0.0
8.474,-0.264,-0.902,0.0
8.123,-0.255,-0.911,0.0
10.234,-0.323,-0.861,0.0
9.751,-0.31,-0.877,1.0
9.249,-0.296,-0.885,0.0
8.802,-0.283,-0.894,0.0
8.416,-0.273,-0.903,0.0
8.049,-0.262,-0.91,0.0
10.155,-0.333,-0.864,0.0
9.66,-0.319,-0.877,0.0
9.177,-0.305,-0.886,0.0
8.734,-0.292,-0.894,0.0
8.364,-0.282,-0.905,0.0
8.023,-0.272,-0.915,0.0
10.038,-0.342,-0.862,0.0
9.576,-0.328,-0.878,0.0
9.127,-0.315,-0.889,0.0
8.667,-0.301,-0.895,0.0
8.303,-0.29,-0.905,0.0
7.967,-0.28,-0.915,0.0
9.961,-0.352,-0.864,1.0
9.507,-0.338,-0.879,0.0
9.047,-0.324,-0.888,0.0
8.623,-0.311,-0.897,0.0
8.246,-0.299,-0.906,0.0
7.93,-0.289,-0.917,0.0
9.899,-0.363,-0.866,1.0
9.452,-0.348,-0.881,0.0
8.975,-0.333,-0.888,0.0
8.566,-0.32,-0.898,0.0
8.202,-0.308,-0.907,0.0
7.897,-0.298,-0.919,0.0
9.821,-0.373,-0.867,3.0
9.396,-0.359,-0.883,0.0
8.918,-0.342,-0.889,0.0
8.519,-0.329,-0.899,0.0
8.149,-0.317,-0.907,0.0
7.849,-0.307,-0.919,0.0
9.789,-0.384,-0.87,2.0
9.33,-0.368,-0.883,0.0
8.863,-0.352,-0.89,0.0
8.492,-0.339,-0.902,0.0
8.139,-0.327,-0.911,0.0
7.803,-0.315,-0.919,0.0
9.757,-0.396,-0.874,2.0
9.277,-0.378,-0.884,0.0
8.813,-0.361,-0.89,0.0
8.432,-0.348,-0.901,0.0
8.064,-0.334,-0.908,0.0
7.774,-0.324,-0.92,0.0
9.715,-0.407,-0.876,1.0
9.224,-0.388,-0.884,0.0
8.766,-0.371,-0.891,0.0
8.398,-0.357,-0.902,0.0
8.065,-0.345,-0.913,0.0
7.734,-0.333,-0.92,0.0
9.674,-0.418,-0.878,0.0
9.164,-0.398,-0.884,0.0
8.718,-0.38,-0.89,0.0
8.343,-0.366,-0.901,0.0
8.028,-0.354,-0.913,0.0
7.718,-0.342,-0.922,0.0
9.619,-0.428,-0.878,0.0
9.142,-0.409,-0.886,0.0
8.725,-0.392,-0.895,0.0
8.331,-0.376,-0.903,0.0
8.006,-0.363,-0.914,0.0
7.694,-0.351,-0.923,0.0
9.548,-0.437,-0.875,0.0
9.118,-0.419,-0.888,0.0
8.679,-0.401,-0.895,0.0
8.307,-0.386,-0.904,0.0
7.97,-0.372,-0.913,0.0
7.669,-0.36,-0.923,0.0
9.534,-0.449,-0.878,0.0
9.093,-0.43,-0.889,0.0
8.66,-0.412,-0.896,0.0
8.281,-0.396,-0.905,0.0
7.951,-0.382,-0.914,0.0
7.653,-0.369,-0.924,0.0
9.501,-0.459,-0.879,0.0
9.059,-0.44,-0.889,0.0
8.626,-0.421,-0.896,0.0
8.259,-0.405,-0.905,0.0
7.945,-0.392,-0.916,0.0
7.644,-0.379,-0.925,0.0
9.466,-0.47,-0.878,0.0
9.018,-0.45,-0.888,0.0
8.603,-0.431,-0.896,0.0
8.218,-0.414,-0.903,0.0
7.93,-0.401,-0.917,0.0
7.638,-0.389,-0.927,0.0
9.443,-0.481,-0.879,0.0
8.994,-0.46,-0.888,0.0
8.572,-0.441,-0.895,0.0
8.219,-0.425,-0.906,0.0
7.912,-0.411,-0.917,0.0
7.6,-0.396,-0.924,0.0
9.427,-0.492,-0.88,0.0
8.982,-0.471,-0.889,0.0
8.577,-0.452,-0.897,0.0
8.215,-0.435,-0.907,0.0
7.894,-0.42,-0.916,0.0
7.606,-0.407,-0.926,0.0
9.426,-0.504,-0.881,0.0
8.964,-0.482,-0.889,0.0
8.549,-0.462,-0.896,0.0
8.196,-0.445,-0.906,0.0
7.882,-0.429,-0.916,0.0
7.591,-0.415,-0.926,0.0
9.393,-0.515,-0.88,0.0
8.951,-0.492,-0.889,0.0
8.533,-0.471,-0.896,0.0
8.184,-0.454,-0.906,0.0
7.869,-0.439,-0.916,0.0
7.583,-0.425,-0.926,0.0
9.403,-0.527,-0.882,0.0
8.948,-0.504,-0.889,0.0
8.546,-0.483,-0.898,0.0
8.195,-0.465,-0.908,0.0
7.863,-0.448,-0.916,0.0
7.574,-0.434,-0.925,0.0
9.398,-0.539,-0.882,0.0
8.937,-0.514,-0.889,0.0
8.529,-0.493,-0.896,0.0
8.176,-0.474,-0.906,0.0
7.852,-0.458,-0.915,0.0
7.569,-0.443,-0.925,0.0
9.384,-0.549,-0.881,0.0
8.94,-0.526,-0.889,0.0
8.541,-0.504,-0.898,0.0
8.197,-0.486,-0.908,0.0
7.876,-0.469,-0.917,0.0
7.579,-0.453,-0.925,0.0
9.393,-0.561,-0.881,0.0
8.96,-0.538,-0.891,0.0
8.545,-0.515,-0.897,0.0
8.198,-0.496,-0.908,0.0
7.88,-0.478,-0.917,0.0
7.574,-0.462,-0.924,0.0
9.406,-0.574,-0.882,0.0
8.959,-0.548,-0.89,0.0
8.569,-0.527,-0.899,0.0
8.189,-0.505,-0.906,0.0
7.883,-0.488,-0.917,0.0
7.579,-0.471,-0.924,0.0
9.424,-0.586,-0.882,0.0
8.972,-0.56,-0.89,0.0
8.57,-0.537,-0.898,0.0
8.203,-0.516,-0.907,0.0
7.887,-0.498,-0.916,0.0
7.594,-0.481,-0.925,0.0
9.413,-0.596,-0.88,0.0
8.976,-0.571,-0.889,0.0
8.581,-0.548,-0.898,0.0
8.217,-0.526,-0.907,0.0
7.907,-0.508,-0.917,0.0
7.596,-0.49,-0.923,0.0
9.427,-0.608,-0.879,0.0
8.994,-0.582,-0.889,0.0
8.593,-0.558,-0.897,0.0
8.212,-0.536,-0.904,0.0
7.909,-0.518,-0.915,0.0
7.611,-0.5,-0.924,0.0
9.451,-0.621,-0.879,0.0
9.024,-0.595,-0.889,0.0
8.607,-0.569,-0.896,0.0
8.244,-0.547,-0.905,0.0
7.926,-0.528,-0.915,0.0
7.609,-0.509,-0.921,0.0
9.484,-0.633,-0.879,0.0
9.04,-0.606,-0.888,0.0
8.627,-0.58,-0.896,0.0
8.252,-0.557,-0.904,0.0
7.96,-0.539,-0.916,0.0
7.644,-0.52,-0.923,0.0
9.513,-0.646,-0.879,0.0
9.088,-0.619,-0.89,0.0
8.644,-0.591,-0.895,0.0
8.3,-0.569,-0.906,0.0
7.963,-0.548,-0.914,0.0
7.657,-0.529,-0.922,0.0
9.551,-0.659,-0.879,0.0
9.107,-0.631,-0.888,0.0
8.689,-0.604,-0.896,0.0
8.316,-0.58,-0.905,0.0
7.996,-0.559,-0.914,0.0
7.676,-0.539,-0.921,0.0
9.586,-0.672,-0.878,0.0
9.128,-0.642,-0.887,0.0
8.709,-0.614,-0.894,0.0
8.351,-0.591,-0.905,0.0
8.005,-0.568,-0.912,0.0
7.709,-0.549,-0.921,0.0
9.619,-0.684,-0.877,0.0
9.172,-0.654,-0.887,0.0
8.742,-0.626,-0.894,0.0
8.384,-0.602,-0.904,0.0
8.035,-0.579,-0.911,0.0
7.731,-0.559,-0.92,0.0
9.689,-0.699,-0.878,0.0
9.209,-0.667,-0.886,0.0
8.785,-0.638,-0.893,0.0
8.41,-0.613,-0.903,0.0
8.054,-0.588,-0.909,0.0
7.765,-0.569,-0.92,0.0
9.738,-0.713,-0.877,1.0
9.259,-0.68,-0.885,0.0
8.826,-0.65,-0.893,0.0
8.451,-0.624,-0.902,0.0
8.095,-0.599,-0.909,0.0
7.806,-0.58,-0.92,0.0
9.769,-0.725,-0.875,2.0
9.311,-0.693,-0.885,0.0
8.878,-0.662,-0.893,0.0
8.496,-0.636,-0.902,0.0
8.135,-0.61,-0.909,0.0
7.827,-0.589,-0.918,0.0
9.798,-0.736,-0.871,2.0
9.359,-0.705,-0.884,0.0
8.931,-0.675,-0.892,0.0
8.544,-0.647,-0.902,0.0
8.194,-0.623,-0.91,0.0
7.867,-0.599,-0.917,0.0
9.844,-0.749,-0.869,3.0
9.43,-0.719,-0.884,0.0
8.979,-0.687,-0.891,0.0
8.569,-0.657,-0.898,0.0
8.219,-0.632,-0.907,0.0
7.911,-0.61,-0.917,0.0
9.902,-0.762,-0.867,2.0
9.485,-0.732,-0.882,0.0
9.026,-0.698,-0.889,0.0
8.629,-0.669,-0.899,0.0
8.27,-0.643,-0.907,0.0
7.951,-0.62,-0.916,0.0
9.951,-0.775,-0.864,2.0
9.532,-0.744,-0.88,0.0
9.075,-0.71,-0.887,0.0
8.679,-0.681,-0.897,0.0
8.325,-0.655,-0.906,0.0
7.975,-0.629,-0.912,0.0
10.027,-0.789,-0.863,1.0
9.614,-0.758,-0.88,0.0
9.147,-0.723,-0.887,0.0
8.732,-0.692,-0.896,0.0
8.368,-0.665,-0.904,0.0
8.045,-0.641,-0.914,0.0
10.139,-0.806,-0.864,0.0
9.699,-0.773,-0.88,0.0
9.226,-0.737,-0.887,0.0
8.781,-0.703,-0.894,0.0
8.425,-0.676,-0.903,0.0
8.084,-0.65,-0.911,0.0
10.234,-0.822,-0.864,0.0
9.753,-0.785,-0.877,2.0
9.294,-0.75,-0.886,0.0
8.857,-0.716,-0.894,0.0
8.472,-0.686,-0.901,0.0
8.132,-0.66,-0.91,0.0
10.338,-0.838,-0.864,0.0
9.795,-0.796,-0.872,3.0
9.359,-0.762,-0.884,0.0
8.915,-0.727,-0.892,0.0
8.53,-0.697,-0.9,0.0
8.195,-0.671,-0.909,0.0
10.423,-0.852,-0.862,0.0
9.867,-0.808,-0.869,2.0
9.433,-0.775,-0.882,0.0
9.011,-0.741,-0.893,0.0
8.607,-0.71,-0.9,0.0
8.258,-0.682,-0.908,0.0
10.518,-0.867,-0.86,0.0
9.939,-0.821,-0.866,2.0
9.537,-0.789,-0.883,0.0
9.085,-0.754,-0.891,0.0
8.675,-0.721,-0.899,0.0
8.31,-0.692,-0.906,0.0
10.605,-0.881,-0.857,0.0
10.024,-0.835,-0.864,0.0
9.61,-0.802,-0.88,0.0
9.178,-0.767,-0.892,0.0
8.735,-0.731,-0.896,0.0
8.386,-0.704,-0.906,0.0
10.733,-0.899,-0.856,0.0
10.16,-0.852,-0.865,0.0
9.717,-0.816,-0.88,0.0
9.242,-0.778,-0.888,0.0
8.819,-0.744,-0.896,0.0
8.475,-0.716,-0.907,0.0
10.827,-0.913,-0.853,0.0
10.281,-0.868,-0.865,0.0
9.772,-0.827,-0.875,2.0
9.333,-0.791,-0.887,0.0
8.919,-0.757,-0.896,0.0
8.527,-0.725,-0.903,0.0
10.985,-0.932,-0.854,0.0
10.386,-0.883,-0.863,0.0
9.837,-0.837,-0.871,3.0
9.394,-0.801,-0.883,0.0
8.985,-0.767,-0.893,0.0
8.601,-0.736,-0.902,0.0
11.063,-0.944,-0.848,2.0
10.508,-0.898,-0.862,0.0
9.92,-0.849,-0.867,2.0
9.523,-0.817,-0.885,0.0
9.079,-0.78,-0.892,0.0
8.663,-0.745,-0.899,0.0
11.173,-0.959,-0.844,2.0
10.627,-0.913,-0.86,0.0
10.037,-0.864,-0.866,0.0
9.616,-0.829,-0.882,0.0
9.183,-0.793,-0.892,0.0
8.745,-0.756,-0.897,0.0
11.282,-0.973,-0.839,1.0
10.749,-0.928,-0.857,1.0
10.182,-0.88,-0.867,0.0
9.737,-0.843,-0.882,1.0
9.269,-0.804,-0.89,0.0
8.844,-0.768,-0.897,0.0
11.41,-0.989,-0.835,0.0
10.832,-0.94,-0.851,1.0
10.299,-0.895,-0.865,0.0
9.786,-0.851,-0.875,3.0
9.34,-0.813,-0.886,0.0
8.949,-0.78,-0.897,0.0
11.574,-1.007,-0.834,0.0
10.982,-0.956,-0.85,1.0
10.466,-0.913,-0.866,0.0
9.874,-0.862,-0.871,2.0
9.482,-0.829,-0.887,0.0
9.051,-0.792,-0.896,0.0
11.74,-1.025,-0.831,0.0
11.1,-0.97,-0.845,1.0
10.551,-0.923,-0.86,1.0
9.969,-0.873,-0.867,1.0
9.579,-0.84,-0.885,0.0
9.121,-0.801,-0.891,0.0
11.868,-1.04,-0.826,0.0
11.235,-0.985,-0.842,0.0
10.674,-0.937,-0.857,1.0
10.121,-0.889,-0.868,0.0
9.707,-0.854,-0.884,1.0
9.236,-0.813,-0.891,0.0
12.067,-1.06,-0.824,0.0
11.379,-1.0,-0.838,0.0
10.79,-0.949,-0.852,0.0
10.275,-0.905,-0.868,0.0
9.784,-0.862,-0.879,3.0
9.349,-0.825,-0.89,0.0
12.234,-1.077,-0.82,0.0
11.537,-1.016,-0.835,0.0
10.947,-0.965,-0.851,0.0
10.424,-0.92,-0.867,1.0
9.857,-0.87,-0.872,3.0
9.449,-0.835,-0.887,0.0
12.388,-1.092,-0.815,0.0
11.703,-1.033,-0.832,0.0
11.09,-0.979,-0.847,0.0
10.526,-0.93,-0.862,1.0
9.948,-0.879,-0.867,1.0
9.566,-0.846,-0.885,0.0
12.603,-1.113,-0.812,0.0
11.867,-1.048,-0.828,0.0
11.22,-0.992,-0.842,0.0
10.661,-0.943,-0.858,1.0
10.139,-0.897,-0.871,0.0
9.71,-0.86,-0.886,1.0
12.781,-1.129,-0.807,1.0
12.063,-1.066,-0.825,0.0
11.403,-1.008,-0.841,0.0
10.766,-0.952,-0.852,0.0
10.299,-0.912,-0.871,0.0
9.777,-0.866,-0.879,3.0
12.952,-1.145,-0.8,0.0
12.233,-1.081,-0.821,0.0
11.539,-1.02,-0.836,0.0
10.948,-0.969,-0.852,0.0
10.421,-0.922,-0.867,1.0
9.867,-0.874,-0.873,3.0
13.228,-1.169,-0.799,0.0
12.429,-1.098,-0.817,0.0
11.729,-1.037,-0.833,0.0
11.089,-0.981,-0.848,0.0
10.539,-0.932,-0.862,1.0
9.985,-0.883,-0.87,1.0
13.498,-1.192,-0.797,0.0
12.648,-1.117,-0.814,1.0
11.893,-1.05,-0.828,0.0
11.228,-0.992,-0.843,0.0
10.698,-0.945,-0.86,1.0
10.155,-0.897,-0.87,0.0
13.708,-1.209,-0.79,0.0
12.821,-1.131,-0.807,1.0
12.084,-1.066,-0.825,0.0
11.419,-1.007,-0.841,0.0
10.807,-0.953,-0.853,0.0
10.34,-0.912,-0.872,0.0
13.949,-1.228,-0.785,0.0
13.03,-1.147,-0.802,0.0
12.283,-1.082,-0.821,0.0
11.6,-1.021,-0.838,0.0
11.02,-0.97,-0.855,0.0
10.475,-0.922,-0.868,1.0
14.171,-1.245,-0.777,0.0
13.27,-1.166,-0.798,0.0
12.505,-1.098,-0.818,0.0
11.763,-1.033,-0.833,0.0
11.127,-0.977,-0.847,0.0
10.601,-0.931,-0.863,1.0
14.501,-1.271,-0.774,0.0
13.573,-1.189,-0.797,0.0
12.7,-1.112,-0.813,0.0
11.975,-1.049,-0.831,0.0
11.311,-0.99,-0.845,0.0
10.734,-0.94,-0.858,1.0
14.738,-1.287,-0.766,0.0
13.778,-1.203,-0.789,0.0
12.926,-1.128,-0.808,1.0
12.138,-1.059,-0.824,0.0
11.474,-1.001,-0.84,0.0
10.914,-0.952,-0.857,1.0
15.098,-1.314,-0.763,0.0
13.988,-1.217,-0.78,0.0
13.13,-1.142,-0.802,1.0
12.334,-1.072,-0.82,0.0
11.695,-1.016,-0.839,0.0
11.069,-0.961,-0.853,2.0
15.423,-1.337,-0.757,0.0
14.369,-1.245,-0.781,0.0
13.38,-1.158,-0.798,1.0
12.56,-1.087,-0.816,0.0
11.865,-1.026,-0.834,0.0
11.207,-0.969,-0.847,2.0
15.741,-1.358,-0.749,0.0
14.607,-1.259,-0.772,0.0
13.601,-1.172,-0.791,0.0
12.776,-1.1,-0.811,0.0
12.022,-1.034,-0.827,0.0
11.371,-0.978,-0.842,0.0
16.192,-1.389,-0.747,2.0
14.901,-1.278,-0.766,0.0
13.858,-1.187,-0.785,0.0
13.016,-1.114,-0.808,1.0
12.249,-1.048,-0.825,0.0
11.565,-0.988,-0.84,0.0
16.296,-1.39,-0.728,7.0
15.25,-1.3,-0.762,0.0
14.045,-1.196,-0.775,0.0
13.26,-1.128,-0.803,1.0
12.451,-1.058,-0.82,0.0
11.785,-1.001,-0.839,0.0
16.362,-1.387,-0.707,4.0
15.576,-1.319,-0.755,0.0
14.488,-1.225,-0.779,0.0
13.492,-1.14,-0.797,1.0
12.665,-1.069,-0.816,0.0
11.954,-1.008,-0.833,0.0
16.505,-1.39,-0.689,1.0
15.921,-1.339,-0.748,0.0
14.731,-1.237,-0.77,0.0
13.705,-1.15,-0.79,1.0
12.879,-1.079,-0.81,0.0
12.118,-1.014,-0.826,0.0
17.669,-1.477,-0.712,0.0
16.258,-1.357,-0.74,2.0
15.175,-1.265,-0.771,0.0
13.905,-1.157,-0.781,1.0
13.14,-1.093,-0.807,0.0
12.312,-1.022,-0.821,0.0
18.077,-1.498,-0.702,0.0
16.322,-1.351,-0.719,1.0
15.48,-1.28,-0.764,0.0
14.113,-1.165,-0.772,0.0
13.397,-1.104,-0.803,1.0
12.574,-1.035,-0.82,0.0
18.512,-1.521,-0.691,1.0
16.418,-1.347,-0.699,1.0
15.755,-1.291,-0.754,0.0
14.452,-1.182,-0.769,0.0
13.642,-1.114,-0.798,2.0
12.76,-1.041,-0.814,0.0
19.013,-1.548,-0.682,1.0
17.385,-1.413,-0.715,0.0
16.104,-1.307,-0.747,0.0
14.708,-1.192,-0.761,0.0
13.835,-1.119,-0.789,3.0
13.011,-1.051,-0.811,0.0
19.508,-1.573,-0.672,0.0
17.825,-1.434,-0.707,0.0
16.313,-1.31,-0.733,1.0
15.121,-1.212,-0.76,0.0
14.029,-1.123,-0.78,3.0
13.235,-1.058,-0.805,0.0
20.105,-1.604,-0.663,0.0
18.273,-1.455,-0.698,0.0
16.428,-1.306,-0.714,1.0
15.576,-1.235,-0.761,0.0
14.384,-1.139,-0.778,1.0
13.497,-1.067,-0.802,1.0
20.628,-1.627,-0.65,1.0
18.772,-1.478,-0.69,1.0
17.143,-1.347,-0.72,0.0
15.858,-1.243,-0.752,0.0
14.641,-1.146,-0.771,2.0
13.697,-1.07,-0.794,1.0
21.238,-1.656,-0.639,1.0
19.161,-1.491,-0.677,0.0
17.654,-1.37,-0.716,0.0
16.324,-1.265,-0.75,0.0
14.943,-1.155,-0.765,1.0
13.941,-1.075,-0.788,1.0
21.844,-1.682,-0.626,1.0
19.732,-1.516,-0.669,0.0
18.014,-1.381,-0.705,0.0
16.385,-1.253,-0.73,0.0
15.318,-1.169,-0.763,1.0
14.233,-1.083,-0.784,0.0
22.522,-1.711,-0.613,1.0
20.287,-1.538,-0.659,0.0
18.462,-1.396,-0.697,1.0
16.865,-1.272,-0.727,0.0
15.747,-1.185,-0.762,2.0
14.541,-1.092,-0.78,1.0
23.177,-1.737,-0.598,1.0
20.859,-1.559,-0.648,0.0
18.885,-1.408,-0.686,0.0
17.405,-1.294,-0.726,0.0
15.97,-1.185,-0.75,13.0
14.77,-1.093,-0.771,1.0
23.808,-1.758,-0.581,1.0
21.455,-1.58,-0.636,1.0
19.427,-1.427,-0.678,0.0
17.823,-1.305,-0.718,0.0
16.157,-1.18,-0.736,4.0
15.087,-1.099,-0.767,1.0
24.701,-1.796,-0.568,1.0
22.053,-1.599,-0.623,1.0
19.923,-1.44,-0.668,0.0
18.135,-1.307,-0.705,0.0
16.648,-1.197,-0.735,2.0
15.413,-1.105,-0.762,0.0
25.505,-1.825,-0.551,1.0
22.708,-1.62,-0.611,1.0
20.439,-1.453,-0.657,0.0
18.566,-1.316,-0.697,0.0
16.947,-1.198,-0.725,1.0
15.823,-1.115,-0.761,1.0
26.206,-1.843,-0.531,2.0
23.326,-1.635,-0.595,1.0
21.0,-1.467,-0.646,0.0
19.0,-1.323,-0.687,0.0
17.43,-1.21,-0.722,1.0
16.0,-1.108,-0.748,7.0
26.939,-1.861,-0.51,2.0
24.049,-1.656,-0.582,1.0
21.601,-1.482,-0.636,0.0
19.396,-1.326,-0.675,0.0
17.795,-1.213,-0.713,0.0
16.327,-1.109,-0.741,2.0
27.745,-1.881,-0.488,1.0
24.907,-1.683,-0.569,1.0
22.109,-1.488,-0.622,0.0
19.832,-1.33,-0.664,0.0
18.183,-1.215,-0.705,0.0
16.686,-1.111,-0.735,4.0
28.716,-1.909,-0.467,1.0
25.524,-1.69,-0.549,1.0
22.845,-1.507,-0.612,1.0
20.647,-1.357,-0.664,0.0
18.63,-1.22,-0.697,0.0
16.915,-1.103,-0.723,1.0
29.618,-1.928,-0.443,1.0
26.328,-1.707,-0.532,1.0
23.414,-1.512,-0.597,1.0
20.943,-1.347,-0.646,2.0
19.075,-1.222,-0.689,3.0
17.296,-1.104,-0.717,0.0
30.561,-1.947,-0.417,1.0
26.923,-1.708,-0.51,2.0
24.011,-1.517,-0.581,1.0
21.334,-1.342,-0.631,0.0
19.427,-1.217,-0.678,3.0
17.764,-1.109,-0.714,2.0
31.919,-1.987,-0.395,1.0
27.769,-1.722,-0.491,2.0
24.853,-1.534,-0.57,1.0
21.916,-1.347,-0.621,2.0
19.803,-1.212,-0.666,3.0
18.237,-1.111,-0.71,3.0
33.175,-2.017,-0.37,1.0
28.632,-1.733,-0.471,1.0
25.456,-1.534,-0.553,1.0
22.512,-1.35,-0.61,4.0
20.412,-1.219,-0.661,3.0
18.648,-1.108,-0.703,2.0
34.955,-2.072,-0.347,0.0
29.496,-1.741,-0.449,1.0
26.15,-1.536,-0.536,1.0
23.224,-1.357,-0.601,7.0
20.801,-1.21,-0.649,4.0
18.922,-1.096,-0.691,1.0
37.845,-2.186,-0.331,0.0
30.24,-1.738,-0.424,1.0
26.658,-1.525,-0.515,1.0
23.664,-1.347,-0.585,9.0
21.328,-1.208,-0.64,4.0
19.325,-1.089,-0.683,1.0
38.49,-2.163,-0.291,0.0
31.344,-1.752,-0.403,1.0
27.497,-1.529,-0.499,1.0
24.207,-1.339,-0.57,5.0
21.897,-1.205,-0.632,6.0
19.731,-1.08,-0.674,1.0
40.957,-2.236,-0.262,0.0
32.692,-1.774,-0.382,1.0
28.268,-1.526,-0.48,2.0
24.922,-1.338,-0.558,1.0
22.603,-1.207,-0.626,4.0
20.134,-1.069,-0.665,1.0
0.0,0.0,0.0,0.0
34.125,-1.796,-0.36,0.0
28.865,-1.511,-0.458,7.0
25.715,-1.338,-0.547,1.0
22.95,-1.188,-0.61,2.0
20.582,-1.059,-0.657,1.0
50.471,-2.589,-0.21,1.0
35.639,-1.817,-0.337,0.0
29.464,-1.493,-0.435,8.0
26.274,-1.323,-0.53,1.0
23.394,-1.171,-0.597,2.0
21.027,-1.046,-0.648,1.0
50.465,-2.503,-0.156,6.0
38.117,-1.878,-0.32,0.0
30.154,-1.476,-0.413,1.0
26.907,-1.309,-0.514,1.0
23.874,-1.154,-0.584,1.0
21.466,-1.031,-0.639,1.0
50.497,-2.417,-0.103,8.0
0.0,0.0,0.0,0.0
0.0,0.0,0.0,0.0
27.488,-1.29,-0.497,1.0
24.563,-1.145,-0.575,1.0
21.881,-1.013,-0.629,1.0
0.0,0.0,0.0,0.0
0.0,0.0,0.0,0.0
33.21,-1.51,-0.387,3.0
28.237,-1.275,-0.482,2.0
25.094,-1.125,-0.562,1.0
22.389,-0.997,-0.621,1.0
0.0,0.0,0.0,0.0
0.0,0.0,0.0,0.0
34.057,-1.488,-0.363,3.0
28.781,-1.248,-0.463,2.0
25.644,-1.104,-0.549,1.0
22.896,-0.978,-0.613,2.0
0.0,0.0,0.0,0.0
37.658,-1.589,-0.164,0.0
37.729,-1.58,-0.366,2.0
29.466,-1.225,-0.446,1.0
26.11,-1.077,-0.535,1.0
23.293,-0.953,-0.601,2.0
0.0,0.0,0.0,0.0
37.799,-1.527,-0.13,161.0
37.73,-1.511,-0.331,34.0
29.979,-1.191,-0.426,1.0
26.653,-1.05,-0.521,1.0
23.653,-0.924,-0.589,2.0
0.0,0.0,0.0,0.0
40.138,-1.547,-0.102,158.0
40.095,-1.531,-0.316,15.0
30.649,-1.16,-0.408,1.0
27.111,-1.017,-0.506,1.0
24.184,-0.899,-0.581,1.0
0.0,0.0,0.0,0.0
50.957,-1.866,-0.085,0.0
40.082,-1.455,-0.281,12.0
31.498,-1.132,-0.392,1.0
27.609,-0.983,-0.492,1.0
24.657,-0.87,-0.571,1.0
0.0,0.0,0.0,0.0
56.645,-1.967,-0.046,1.0
41.151,-1.415,-0.254,1.0
32.323,-1.1,-0.376,1.0
28.224,-0.951,-0.479,1.0
25.146,-0.839,-0.562,1.0
0.0,0.0,0.0,0.0
0.0,0.0,0.0,0.0
45.61,-1.48,-0.244,0.0
33.173,-1.065,-0.359,1.0
28.699,-0.912,-0.465,1.0
25.552,-0.803,-0.551,1.0
0.0,0.0,0.0,0.0
0.0,0.0,0.0,0.0
40.282,-1.228,-0.185,1.0
34.216,-1.031,-0.344,1.0
29.149,-0.868,-0.449,1.0
25.933,-0.764,-0.539,1.0
40.244,-1.175,0.277,8.0
40.2,-1.16,0.061,57.0
40.251,-1.147,-0.155,58.0
0.0,0.0,0.0,0.0
29.711,-0.826,-0.436,1.0
26.286,-0.722,-0.528,1.0
40.195,-1.095,0.305,62.0
40.204,-1.081,0.089,49.0
40.98,-1.087,-0.129,172.0
39.913,-1.046,-0.344,0.0
30.062,-0.777,-0.421,1.0
26.846,-0.684,-0.52,2.0
40.233,-1.016,0.333,38.0
0.0,0.0,0.0,0.0
40.288,-0.989,-0.1,5.0
40.239,-0.974,-0.32,11.0
30.48,-0.727,-0.407,1.0
27.179,-0.638,-0.509,3.0
40.303,-0.936,0.36,150.0
40.296,-0.922,0.142,23.0
40.273,-0.907,-0.074,1.0
40.17,-0.891,-0.294,5.0
30.965,-0.676,-0.394,1.0
27.378,-0.588,-0.496,1.0
40.282,-0.854,0.384,33.0
0.0,0.0,0.0,0.0
56.571,-1.159,-0.07,1.0
40.197,-0.809,-0.27,6.0
31.406,-0.621,-0.381,1.0
27.8,-0.54,-0.487,1.0
40.237,-0.77,0.408,47.0
40.26,-0.756,0.19,47.0
40.297,-0.742,-0.026,70.0
40.231,-0.726,-0.248,18.0
31.898,-0.565,-0.369,1.0
28.237,-0.49,-0.479,1.0
124.005,-2.116,1.325,9.0
40.293,-0.673,0.212,4.0
61.532,-1.006,-0.007,1.0
39.984,-0.639,-0.225,0.0
32.73,-0.511,-0.361,1.0
28.492,-0.435,-0.469,1.0
123.772,-1.854,1.386,11.0
82.197,-1.201,0.476,2.0
60.737,-0.866,0.022,1.0
44.236,-0.615,-0.227,1.0
32.967,-0.446,-0.348,1.0
28.757,-0.379,-0.459,2.0
79.834,-1.029,0.932,6.0
78.764,-0.987,0.493,22.0
60.738,-0.739,0.05,2.0
46.264,-0.547,-0.216,0.0
33.617,-0.385,-0.339,1.0
29.135,-0.323,-0.452,6.0
79.458,-0.856,0.963,161.0
78.783,-0.821,0.527,35.0
55.057,-0.554,0.069,4.0
47.346,-0.459,-0.201,4.0
34.084,-0.318,-0.33,1.0
29.374,-0.264,-0.444,3.0
79.452,-0.689,0.995,177.0
0.0,0.0,0.0,0.0
55.175,-0.439,0.091,12.0
46.002,-0.349,-0.178,4.0
34.24,-0.248,-0.319,0.0
29.569,-0.203,-0.436,1.0
79.461,-0.52,1.024,161.0
79.307,-0.49,0.591,53.0
55.872,-0.326,0.112,22.0
41.709,-0.229,-0.147,4.0
36.997,-0.189,-0.332,1.0
29.777,-0.142,-0.429,2.0
79.459,-0.353,1.05,151.0
79.338,-0.323,0.616,136.0
55.771,-0.208,0.129,29.0
41.511,-0.139,-0.133,19.0
37.137,-0.112,-0.322,0.0
29.89,-0.079,-0.422,2.0
79.468,-0.185,1.073,151.0
79.405,-0.156,0.639,133.0
55.923,-0.09,0.145,29.0
0.0,0.0,0.0,0.0
38.295,-0.034,-0.322,3.0
30.07,-0.016,-0.417,2.0
79.468,-0.015,1.094,151.0
79.431,0.011,0.659,134.0
54.963,0.027,0.156,4.0
43.75,0.037,-0.118,5.0
38.134,0.045,-0.312,2.0
30.136,0.047,-0.411,1.0
79.461,0.153,1.111,151.0
79.448,0.18,0.676,150.0
55.096,0.144,0.168,26.0
43.793,0.13,-0.11,7.0
37.822,0.126,-0.302,21.0
30.295,0.112,-0.407,2.0
59.301,0.241,0.84,106.0
59.297,0.262,0.515,115.0
54.973,0.262,0.176,62.0
44.173,0.226,-0.104,9.0
37.78,0.207,-0.295,5.0
30.397,0.177,-0.404,2.0
48.128,0.299,0.688,63.0
48.11,0.316,0.424,56.0
48.072,0.332,0.161,49.0
43.947,0.319,-0.098,12.0
37.561,0.286,-0.289,6.0
30.474,0.243,-0.402,2.0
48.084,0.402,0.693,113.0
48.063,0.419,0.429,104.0
48.02,0.435,0.165,91.0
43.881,0.413,-0.094,16.0
37.426,0.365,-0.285,7.0
30.59,0.309,-0.401,1.0
48.112,0.505,0.697,103.0
48.091,0.522,0.432,84.0
48.029,0.538,0.168,82.0
44.13,0.51,-0.092,8.0
37.338,0.444,-0.283,8.0
30.607,0.374,-0.4,2.0
126.63,1.602,1.838,31.0
78.043,1.014,0.704,12.0
48.061,0.641,0.169,53.0
44.145,0.604,-0.091,13.0
37.199,0.522,-0.282,9.0
30.639,0.44,-0.401,2.0
126.564,1.874,1.837,39.0
78.088,1.182,0.703,16.0
58.39,0.904,0.204,13.0
44.335,0.702,-0.093,15.0
37.08,0.6,-0.282,10.0
30.607,0.506,-0.401,2.0
126.42,2.143,1.829,41.0
78.0,1.348,0.698,19.0
57.893,1.02,0.199,7.0
40.051,0.719,-0.086,15.0
36.902,0.675,-0.283,12.0
30.499,0.568,-0.402,2.0
0.0,0.0,0.0,0.0
77.963,1.513,0.691,26.0
57.828,1.142,0.193,7.0
39.841,0.8,-0.09,15.0
36.8,0.752,-0.286,10.0
30.466,0.632,-0.405,2.0
89.863,1.905,1.282,11.0
77.924,1.678,0.681,40.0
57.996,1.268,0.186,10.0
39.762,0.883,-0.095,15.0
36.675,0.827,-0.29,8.0
30.33,0.694,-0.408,2.0
106.149,2.476,1.498,6.0
77.952,1.845,0.669,33.0
54.516,1.308,0.166,16.0
39.739,0.967,-0.102,26.0
36.53,0.901,-0.296,7.0
30.207,0.755,-0.412,2.0
106.061,2.699,1.476,24.0
77.862,2.007,0.653,20.0
0.0,0.0,0.0,0.0
42.469,1.122,-0.118,4.0
36.405,0.974,-0.303,6.0
29.989,0.813,-0.415,2.0
106.012,2.92,1.451,22.0
77.733,2.166,0.633,18.0
0.0,0.0,0.0,0.0
39.812,1.135,-0.12,36.0
36.307,1.048,-0.311,6.0
29.826,0.871,-0.421,2.0
100.583,2.981,1.35,4.0
77.673,2.327,0.612,8.0
54.187,1.641,0.126,25.0
39.699,1.215,-0.131,45.0
36.137,1.118,-0.32,6.0
29.694,0.928,-0.428,2.0
100.671,3.193,1.321,3.0
74.458,2.386,0.563,12.0
49.06,1.588,0.098,22.0
0.0,0.0,0.0,0.0
35.961,1.188,-0.33,4.0
29.406,0.98,-0.434,2.0
95.685,3.235,1.223,3.0
74.183,2.532,0.535,14.0
48.695,1.678,0.08,23.0
39.61,1.378,-0.158,41.0
35.698,1.253,-0.341,2.0
29.159,1.033,-0.441,2.0
94.13,3.379,1.168,7.0
73.983,2.679,0.506,10.0
48.307,1.764,0.061,24.0
39.55,1.457,-0.174,24.0
33.493,1.245,-0.334,1.0
28.96,1.085,-0.45,2.0
93.137,3.533,1.117,5.0
60.381,2.31,0.387,10.0
47.728,1.84,0.04,24.0
39.513,1.535,-0.19,3.0
32.674,1.28,-0.339,1.0
28.631,1.13,-0.457,2.0
79.983,3.196,0.923,7.0
59.494,2.395,0.355,23.0
0.0,0.0,0.0,0.0
36.435,1.489,-0.192,37.0
32.101,1.322,-0.348,1.0
28.398,1.178,-0.467,1.0
79.404,3.332,0.879,11.0
59.078,2.497,0.324,33.0
42.668,1.817,-0.004,17.0
36.259,1.555,-0.209,31.0
31.708,1.369,-0.36,1.0
24.866,1.081,-0.421,1.0
78.595,3.455,0.829,14.0
58.468,2.588,0.29,7.0
42.003,1.872,-0.026,18.0
36.035,1.617,-0.227,26.0
31.21,1.41,-0.371,2.0
24.608,1.119,-0.43,5.0
78.023,3.585,0.78,46.0
54.719,2.531,0.241,28.0
41.322,1.923,-0.049,17.0
35.84,1.679,-0.246,13.0
30.712,1.448,-0.383,2.0
24.048,1.141,-0.435,5.0
77.203,3.699,0.726,39.0
54.509,2.628,0.207,28.0
40.827,1.98,-0.073,48.0
35.628,1.739,-0.266,11.0
30.299,1.487,-0.396,2.0
23.445,1.158,-0.438,5.0
75.544,3.767,0.664,20.0
54.216,2.719,0.172,21.0
40.554,2.046,-0.098,40.0
35.511,1.802,-0.288,5.0
29.825,1.522,-0.41,2.0
22.775,1.169,-0.44,5.0
73.634,3.815,0.599,8.0
0.0,0.0,0.0,0.0
40.297,2.111,-0.124,27.0
35.352,1.861,-0.311,11.0
29.42,1.558,-0.424,2.0
22.212,1.183,-0.445,4.0
73.601,3.953,0.548,23.0
0.0,0.0,0.0,0.0
40.211,2.182,-0.152,5.0
0.0,0.0,0.0,0.0
28.959,1.587,-0.438,3.0
21.802,1.201,-0.452,4.0
73.461,4.083,0.494,13.0
46.685,2.608,0.051,7.0
36.367,2.041,-0.164,23.0
32.705,1.844,-0.334,1.0
28.721,1.628,-0.455,1.0
21.388,1.218,-0.459,4.0
57.92,3.326,0.346,10.0
25.095,1.447,0.009,1.0
36.043,2.089,-0.189,29.0
31.651,1.843,-0.348,1.0
24.648,1.442,-0.409,4.0
21.007,1.235,-0.467,4.0
55.352,3.279,0.288,29.0
41.522,2.471,-0.017,40.0
35.701,2.134,-0.216,26.0
30.918,1.857,-0.364,2.0
24.044,1.45,-0.419,5.0
20.704,1.254,-0.477,4.0
33.469,2.043,0.147,6.0
33.447,2.05,-0.041,1.0
33.437,2.058,-0.229,113.0
30.437,1.881,-0.383,2.0
23.3,1.446,-0.425,5.0
20.297,1.266,-0.485,3.0
33.49,2.103,0.119,11.0
40.061,2.526,-0.083,40.0
35.187,2.228,-0.271,8.0
29.857,1.898,-0.402,1.0
22.583,1.441,-0.431,4.0
19.935,1.278,-0.493,3.0
46.728,3.017,0.126,22.0
40.563,2.628,-0.119,3.0
35.139,2.286,-0.302,7.0
29.355,1.917,-0.421,1.0
21.903,1.436,-0.438,4.0
19.533,1.286,-0.501,3.0
0.0,0.0,0.0,0.0
36.387,2.42,-0.14,37.0
35.11,2.344,-0.333,1.0
28.916,1.937,-0.441,1.0
21.375,1.437,-0.447,4.0
19.2,1.296,-0.51,3.0
42.226,2.87,0.037,17.0
35.861,2.446,-0.171,25.0
32.238,2.206,-0.336,1.0
24.502,1.683,-0.396,4.0
20.989,1.447,-0.458,4.0
18.81,1.301,-0.517,3.0
41.612,2.897,-0.002,50.0
35.318,2.467,-0.202,26.0
31.089,2.178,-0.354,1.0
23.796,1.673,-0.408,5.0
20.575,1.451,-0.469,3.0
18.443,1.305,-0.525,3.0
41.195,2.934,-0.042,44.0
34.957,2.498,-0.234,11.0
30.396,2.179,-0.376,2.0
22.881,1.645,-0.415,5.0
20.135,1.453,-0.479,3.0
17.981,1.301,-0.53,3.0
38.815,2.826,-0.078,3.0
34.74,2.537,-0.267,11.0
29.809,2.183,-0.398,5.0
22.222,1.633,-0.425,4.0
19.652,1.448,-0.487,3.0
17.622,1.303,-0.537,2.0
29.781,2.214,-0.091,35.0
29.814,2.223,-0.26,39.0
29.549,2.21,-0.425,4.0
21.593,1.62,-0.436,4.0
19.237,1.447,-0.497,3.0
17.265,1.303,-0.544,2.0
29.756,2.258,-0.122,35.0
29.732,2.262,-0.291,31.0
24.899,1.9,-0.385,4.0
21.079,1.613,-0.447,4.0
18.81,1.443,-0.506,3.0
16.91,1.301,-0.551,3.0
29.746,2.301,-0.153,33.0
29.725,2.305,-0.322,25.0
24.072,1.872,-0.398,5.0
20.623,1.608,-0.46,4.0
18.376,1.437,-0.514,3.0
16.587,1.301,-0.559,2.0
29.775,2.346,-0.186,21.0
30.15,2.382,-0.36,3.0
22.889,1.813,-0.403,4.0
20.11,1.597,-0.471,3.0
17.986,1.432,-0.523,3.0
16.234,1.296,-0.565,3.0
34.878,2.798,-0.257,8.0
29.858,2.401,-0.39,2.0
22.199,1.79,-0.416,4.0
19.628,1.587,-0.482,3.0
17.615,1.428,-0.533,2.0
0.0,0.0,0.0,0.0
30.154,2.461,-0.257,19.0
29.305,2.397,-0.416,1.0
21.571,1.769,-0.429,4.0
19.155,1.574,-0.492,3.0
17.208,1.418,-0.54,2.0
15.707,1.297,-0.583,3.0
30.154,2.502,-0.292,30.0
24.539,2.041,-0.377,5.0
20.952,1.746,-0.441,4.0
18.695,1.561,-0.502,3.0
16.797,1.406,-0.547,2.0
13.895,1.166,-0.532,12.0
30.167,2.542,-0.327,19.0
23.627,1.995,-0.391,5.0
20.462,1.731,-0.455,3.0
18.224,1.545,-0.511,3.0
16.538,1.405,-0.558,1.0
13.829,1.178,-0.546,12.0
30.285,2.59,-0.364,2.0
22.626,1.939,-0.401,4.0
19.978,1.715,-0.468,3.0
17.762,1.528,-0.519,3.0
13.894,1.198,-0.485,12.0
13.777,1.19,-0.56,11.0
29.738,2.58,-0.394,1.0
21.941,1.907,-0.416,4.0
19.418,1.691,-0.479,3.0
13.911,1.214,-0.424,11.0
13.829,1.209,-0.5,17.0
13.641,1.195,-0.571,9.0
24.799,2.18,-0.359,3.0
21.271,1.874,-0.429,3.0
13.882,1.225,-0.359,11.0
13.868,1.226,-0.439,14.0
13.807,1.223,-0.516,15.0
13.519,1.2,-0.583,13.0
13.897,1.237,-0.218,11.0
13.888,1.239,-0.297,9.0
13.843,1.237,-0.375,15.0
13.828,1.238,-0.455,20.0
13.769,1.235,-0.532,15.0
13.397,1.204,-0.594,12.0
13.872,1.25,-0.235,21.0
13.862,1.252,-0.314,19.0
13.834,1.252,-0.392,18.0
13.802,1.251,-0.472,19.0
13.745,1.248,-0.548,13.0
13.302,1.21,-0.607,10.0
13.861,1.264,-0.252,24.0
13.835,1.264,-0.331,26.0
13.805,1.263,-0.409,23.0
13.769,1.262,-0.488,18.0
13.667,1.255,-0.563,10.0
13.1,1.205,-0.614,7.0
13.842,1.277,-0.269,29.0
13.828,1.277,-0.348,33.0
13.786,1.276,-0.426,19.0
13.75,1.274,-0.505,19.0
13.505,1.254,-0.573,11.0
13.082,1.216,-0.631,10.0
13.827,1.289,-0.287,34.0
13.807,1.289,-0.366,33.0
13.778,1.288,-0.444,29.0
13.734,1.286,-0.522,16.0
13.388,1.256,-0.586,11.0
13.053,1.226,-0.646,13.0
13.814,1.301,-0.305,36.0
13.793,1.3,-0.383,30.0
13.76,1.299,-0.461,30.0
13.711,1.297,-0.539,13.0
13.293,1.259,-0.599,11.0
13.018,1.235,-0.661,7.0
13.798,1.311,-0.322,35.0
13.775,1.311,-0.401,29.0
13.736,1.309,-0.478,21.0
13.668,1.305,-0.556,12.0
13.13,1.255,-0.609,8.0
12.745,1.22,-0.664,2.0
13.785,1.322,-0.34,36.0
13.766,1.322,-0.418,31.0
13.728,1.32,-0.496,17.0
13.545,1.304,-0.568,10.0
13.082,1.261,-0.624,10.0
12.459,1.203,-0.666,2.0
13.781,1.333,-0.358,36.0
13.767,1.333,-0.437,39.0
