X,Y,Z,Reflectivity
0.0,0.0,0.0,0.0
0.0,0.0,0.0,0.0
0.0,0.0,0.0,0.0
0.0,0.0,0.0,0.0
0.0,0.0,0.0,0.0
0.0,0.0,0.0,0.0
0.0,0.0,0.0,0.0
0.0,0.0,0.0,0.0
0.0,0.0,0.0,0.0
0.0,0.0,0.0,0.0
0.0,0.0,0.0,0.0
0.0,0.0,0.0,0.0
0.0,0.0,0.0,0.0
0.0,0.0,0.0,0.0
0.0,0.0,0.0,0.0
0.0,0.0,0.0,0.0
0.0,0.0,0.0,0.0
0.0,0.0,0.0,0.0
227.992,-12.799,3.417,151.0
0.0,0.0,0.0,0.0
0.0,0.0,0.0,0.0
0.0,0.0,0.0,0.0
271.626,-15.493,7.296,13.0
0.0,0.0,0.0,0.0
212.038,-12.235,9.358,6.0
0.0,0.0,0.0,0.0
244.388,-14.216,8.21,12.0
271.803,-15.875,7.672,66.0
279.279,-16.38,6.415,14.0
0.0,0.0,0.0,0.0
0.0,0.0,0.0,0.0
211.91,-12.563,8.526,11.0
212.164,-12.625,7.42,18.0
271.923,-16.244,8.051,33.0
272.064,-16.313,6.624,42.0
0.0,0.0,0.0,0.0
197.405,-11.917,9.257,5.0
0.0,0.0,0.0,0.0
227.526,-13.834,8.273,30.0
244.143,-14.901,7.57,35.0
263.445,-16.14,6.786,150.0
0.0,0.0,0.0,0.0
150.122,-9.255,7.252,4.0
219.842,-13.6,9.462,7.0
220.758,-13.702,8.339,8.0
212.402,-13.23,6.886,15.0
248.361,-15.526,6.749,53.0
265.189,-16.636,5.813,58.0
149.887,-9.427,7.454,15.0
222.629,-14.048,9.899,8.0
205.674,-13.021,8.065,7.0
208.177,-13.224,7.049,15.0
248.365,-15.828,7.107,255.0
248.365,-15.881,5.802,107.0
148.276,-9.506,7.589,12.0
203.571,-13.09,9.347,8.0
205.428,-13.251,8.353,7.0
208.378,-13.484,7.358,32.0
209.124,-13.575,6.286,28.0
248.335,-16.17,6.163,150.0
156.273,-10.201,8.225,5.0
157.303,-10.299,7.453,4.0
203.555,-13.364,8.573,25.0
204.385,-13.459,7.515,27.0
209.116,-13.813,6.592,35.0
237.07,-15.703,6.229,45.0
147.656,-9.806,7.99,4.0
149.259,-9.939,7.29,3.0
212.087,-14.163,9.245,6.0
205.144,-13.736,7.846,27.0
208.237,-13.983,6.872,30.0
228.41,-15.381,6.339,22.0
196.703,-13.279,10.934,10.0
0.0,0.0,0.0,0.0
0.0,0.0,0.0,0.0
203.466,-13.842,8.082,5.0
0.0,0.0,0.0,0.0
208.559,-14.263,6.099,31.0
157.235,-10.78,8.977,9.0
148.481,-10.205,7.695,5.0
158.515,-10.921,7.383,6.0
195.245,-13.483,8.048,19.0
203.823,-14.111,7.334,21.0
204.433,-14.19,6.285,33.0
156.705,-10.904,9.183,4.0
148.662,-10.366,7.929,3.0
158.198,-11.056,7.605,8.0
194.925,-13.652,8.327,9.0
196.352,-13.785,7.357,50.0
208.285,-14.655,6.711,17.0
163.365,-11.522,9.816,8.0
163.193,-11.534,8.946,6.0
148.877,-10.544,7.38,3.0
164.232,-11.657,7.261,14.0
195.033,-13.873,7.599,22.0
208.507,-14.862,7.03,13.0
150.202,-10.732,9.249,3.0
0.0,0.0,0.0,0.0
158.366,-11.359,8.086,8.0
146.886,-10.557,6.715,6.0
164.434,-11.841,6.653,17.0
195.215,-14.087,6.875,40.0
149.732,-10.831,9.448,3.0
148.407,-10.753,8.584,10.0
156.293,-11.346,8.218,6.0
157.838,-11.48,7.453,17.0
197.395,-14.382,8.287,8.0
164.479,-12.007,6.042,35.0
0.0,0.0,0.0,0.0
147.227,-10.79,8.737,11.0
0.0,0.0,0.0,0.0
149.22,-10.975,7.273,13.0
155.513,-11.456,6.765,20.0
194.979,-14.39,7.458,13.0
149.121,-11.032,9.863,4.0
148.334,-10.989,9.029,10.0
148.511,-11.02,8.26,5.0
156.223,-11.611,7.853,5.0
197.841,-14.726,8.906,5.0
208.7,-15.56,8.301,16.0
156.701,-11.712,10.606,7.0
162.133,-12.135,10.119,7.0
157.795,-11.826,9.017,4.0
158.264,-11.878,8.197,14.0
158.041,-11.88,7.357,29.0
163.808,-12.332,6.767,21.0
107.47,-8.109,7.44,5.0
149.268,-11.278,9.547,6.0
156.869,-11.868,9.208,12.0
147.908,-11.205,7.889,4.0
149.444,-11.335,7.187,12.0
165.416,-12.565,7.086,24.0
108.904,-8.291,7.706,11.0
158.72,-12.098,10.395,6.0
149.469,-11.406,9.003,8.0
155.641,-11.892,8.539,5.0
148.83,-11.384,7.385,5.0
158.098,-12.108,7.014,13.0
148.424,-11.395,10.732,14.0
105.816,-8.132,7.093,2.0
165.082,-12.699,10.196,6.0
165.169,-12.719,9.317,12.0
155.835,-12.014,7.97,16.0
162.694,-12.556,7.468,9.0
99.183,-7.673,7.325,1.0
108.826,-8.427,7.463,9.0
115.449,-8.948,7.309,5.0
106.344,-8.249,6.162,4.0
0.0,0.0,0.0,0.0
149.424,-11.614,7.089,13.0
108.202,-8.431,8.158,4.0
108.759,-8.481,7.626,7.0
124.152,-9.688,8.052,7.0
121.543,-9.492,7.229,3.0
148.272,-11.59,8.04,6.0
150.343,-11.762,7.363,14.0
105.546,-8.277,8.121,4.0
97.805,-7.675,7.007,3.0
116.02,-9.11,7.701,4.0
150.826,-11.851,9.202,4.0
158.671,-12.477,8.845,11.0
163.288,-12.85,8.244,21.0
97.796,-7.715,7.674,5.0
163.047,-12.868,11.932,6.0
122.623,-9.683,8.325,5.0
115.267,-9.106,7.207,5.0
106.351,-8.407,6.089,4.0
149.588,-11.833,7.779,13.0
98.24,-7.79,7.858,12.0
100.716,-7.989,7.523,6.0
108.725,-8.629,7.548,7.0
122.135,-9.698,7.821,2.0
106.378,-8.45,6.251,2.0
148.343,-11.79,7.937,9.0
106.002,-8.445,8.64,5.0
108.007,-8.607,8.231,5.0
97.834,-7.799,6.938,6.0
117.584,-9.377,7.705,3.0
145.601,-11.614,8.774,3.0
108.899,-8.69,5.989,3.0
106.1,-8.488,8.807,14.0
107.99,-8.64,8.391,11.0
100.799,-8.067,7.299,6.0
99.006,-7.925,6.637,3.0
115.518,-9.248,7.134,4.0
106.403,-8.521,6.009,6.0
107.628,-8.641,9.096,10.0
98.074,-7.875,7.768,8.0
100.36,-8.059,7.418,3.0
108.785,-8.736,7.455,8.0
122.468,-9.837,7.744,7.0
108.487,-8.714,6.288,2.0
107.729,-8.675,9.264,10.0
105.963,-8.533,8.55,6.0
108.038,-8.7,8.146,6.0
100.982,-8.131,7.068,4.0
122.796,-9.888,7.946,3.0
148.529,-11.961,8.826,8.0
98.336,-7.939,8.602,4.0
107.228,-8.655,8.81,16.0
107.996,-8.715,8.3,9.0
98.139,-7.919,7.013,2.0
98.908,-7.981,6.544,4.0
115.36,-9.308,7.024,2.0
107.787,-8.718,9.587,6.0
107.649,-8.705,9.001,11.0
107.921,-8.725,8.453,14.0
100.273,-8.104,7.311,3.0
108.842,-8.796,7.359,8.0
106.439,-8.6,6.634,5.0
105.349,-8.533,9.523,7.0
96.852,-7.842,8.241,2.0
107.936,-8.737,8.609,16.0
108.085,-8.746,8.036,4.0
100.946,-8.165,6.971,5.0
100.243,-8.107,6.391,2.0
105.373,-8.543,9.679,10.0
108.354,-8.78,9.375,4.0
107.501,-8.707,8.729,22.0
108.008,-8.745,8.184,10.0
100.984,-8.172,7.117,4.0
105.869,-8.565,6.901,2.0
105.254,-8.537,9.817,6.0
107.695,-8.729,9.47,3.0
107.357,-8.697,8.869,9.0
98.345,-7.963,7.591,14.0
150.901,-12.211,10.847,8.0
108.727,-8.795,7.238,4.0
105.291,-8.539,9.968,3.0
107.777,-8.734,9.629,6.0
123.26,-9.982,10.355,2.0
107.93,-8.735,8.482,16.0
100.338,-8.116,7.351,2.0
108.821,-8.796,7.394,11.0
0.0,0.0,0.0,0.0
105.375,-8.533,9.561,9.0
97.33,-7.875,8.312,1.0
107.876,-8.722,8.626,13.0
108.051,-8.73,8.065,5.0
101.055,-8.159,7.006,4.0
106.697,-8.637,10.398,1.0
105.313,-8.518,9.7,7.0
98.296,-7.942,8.529,5.0
106.052,-8.562,8.625,9.0
108.015,-8.714,8.209,13.0
97.992,-7.898,6.927,6.0
106.915,-8.64,10.566,1.0
105.247,-8.497,9.837,6.0
98.393,-7.935,8.67,4.0
107.27,-8.643,8.868,11.0
107.996,-8.694,8.351,12.0
98.192,-7.897,7.07,2.0
0.0,0.0,0.0,0.0
0.0,0.0,0.0,0.0
98.373,-7.915,8.797,6.0
107.377,-8.63,9.017,10.0
97.86,-7.858,7.695,10.0
100.471,-8.059,7.364,4.0
0.0,0.0,0.0,0.0
0.0,0.0,0.0,0.0
98.34,-7.889,8.922,8.0
107.963,-8.65,9.207,13.0
98.542,-7.887,7.876,4.0
105.557,-8.44,7.873,2.0
0.0,0.0,0.0,0.0
0.0,0.0,0.0,0.0
105.383,-8.426,9.696,7.0
107.809,-8.608,9.33,8.0
106.064,-8.459,8.611,4.0
108.046,-8.607,8.195,4.0
0.0,0.0,0.0,0.0
0.0,0.0,0.0,0.0
105.405,-8.394,9.832,14.0
107.63,-8.56,9.45,9.0
105.939,-8.414,8.733,5.0
108.002,-8.567,8.325,5.0
0.0,0.0,0.0,0.0
0.0,0.0,0.0,0.0
0.0,0.0,0.0,0.0
107.591,-8.518,9.578,10.0
106.04,-8.383,8.87,10.0
97.82,-7.723,7.658,8.0
0.0,0.0,0.0,0.0
0.0,0.0,0.0,0.0
0.0,0.0,0.0,0.0
108.546,-8.552,9.792,4.0
98.646,-7.76,8.368,6.0
97.766,-7.678,7.77,5.0
0.0,0.0,0.0,0.0
0.0,0.0,0.0,0.0
0.0,0.0,0.0,0.0
108.717,-8.516,9.937,2.0
106.131,-8.3,9.129,14.0
97.733,-7.632,7.881,5.0
0.0,0.0,0.0,0.0
0.0,0.0,0.0,0.0
0.0,0.0,0.0,0.0
0.0,0.0,0.0,0.0
106.108,-8.249,9.247,7.0
108.783,-8.442,8.895,3.0
0.0,0.0,0.0,0.0
0.0,0.0,0.0,0.0
0.0,0.0,0.0,0.0
0.0,0.0,0.0,0.0
106.04,-8.188,9.36,3.0
106.543,-8.213,8.829,2.0
0.0,0.0,0.0,0.0
0.0,0.0,0.0,0.0
0.0,0.0,0.0,0.0
0.0,0.0,0.0,0.0
106.429,-8.159,9.51,11.0
0.0,0.0,0.0,0.0
0.0,0.0,0.0,0.0
0.0,0.0,0.0,0.0
0.0,0.0,0.0,0.0
0.0,0.0,0.0,0.0
0.0,0.0,0.0,0.0
108.414,-8.232,9.215,1.0
0.0,0.0,0.0,0.0
0.0,0.0,0.0,0.0
0.0,0.0,0.0,0.0
0.0,0.0,0.0,0.0
0.0,0.0,0.0,0.0
108.391,-8.162,9.323,1.0
0.0,0.0,0.0,0.0
0.0,0.0,0.0,0.0
0.0,0.0,0.0,0.0
0.0,0.0,0.0,0.0
0.0,0.0,0.0,0.0
108.54,-8.101,9.442,5.0
0.0,0.0,0.0,0.0
0.0,0.0,0.0,0.0
0.0,0.0,0.0,0.0
0.0,0.0,0.0,0.0
0.0,0.0,0.0,0.0
108.585,-8.03,9.549,2.0
0.0,0.0,0.0,0.0
0.0,0.0,0.0,0.0
0.0,0.0,0.0,0.0
0.0,0.0,0.0,0.0
0.0,0.0,0.0,0.0
0.0,0.0,0.0,0.0
0.0,0.0,0.0,0.0
0.0,0.0,0.0,0.0
0.0,0.0,0.0,0.0
0.0,0.0,0.0,0.0
0.0,0.0,0.0,0.0
0.0,0.0,0.0,0.0
0.0,0.0,0.0,0.0
0.0,0.0,0.0,0.0
0.0,0.0,0.0,0.0
0.0,0.0,0.0,0.0
0.0,0.0,0.0,0.0
0.0,0.0,0.0,0.0
0.0,0.0,0.0,0.0
0.0,0.0,0.0,0.0
0.0,0.0,0.0,0.0
0.0,0.0,0.0,0.0
0.0,0.0,0.0,0.0
0.0,0.0,0.0,0.0
0.0,0.0,0.0,0.0
0.0,0.0,0.0,0.0
0.0,0.0,0.0,0.0
0.0,0.0,0.0,0.0
0.0,0.0,0.0,0.0
0.0,0.0,0.0,0.0
0.0,0.0,0.0,0.0
0.0,0.0,0.0,0.0
0.0,0.0,0.0,0.0
0.0,0.0,0.0,0.0
0.0,0.0,0.0,0.0
0.0,0.0,0.0,0.0
0.0,0.0,0.0,0.0
0.0,0.0,0.0,0.0
0.0,0.0,0.0,0.0
0.0,0.0,0.0,0.0
0.0,0.0,0.0,0.0
0.0,0.0,0.0,0.0
49.187,-3.364,5.997,2.0
0.0,0.0,0.0,0.0
0.0,0.0,0.0,0.0
0.0,0.0,0.0,0.0
0.0,0.0,0.0,0.0
0.0,0.0,0.0,0.0
48.998,-3.306,6.006,4.0
0.0,0.0,0.0,0.0
0.0,0.0,0.0,0.0
0.0,0.0,0.0,0.0
0.0,0.0,0.0,0.0
0.0,0.0,0.0,0.0
48.494,-3.225,5.975,5.0
0.0,0.0,0.0,0.0
0.0,0.0,0.0,0.0
0.0,0.0,0.0,0.0
0.0,0.0,0.0,0.0
0.0,0.0,0.0,0.0
48.445,-3.174,5.997,17.0
0.0,0.0,0.0,0.0
0.0,0.0,0.0,0.0
0.0,0.0,0.0,0.0
0.0,0.0,0.0,0.0
0.0,0.0,0.0,0.0
48.21,-3.11,5.994,11.0
49.185,-3.162,5.841,2.0
49.293,-3.158,5.58,1.0
0.0,0.0,0.0,0.0
0.0,0.0,0.0,0.0
0.0,0.0,0.0,0.0
0.0,0.0,0.0,0.0
49.151,-3.11,5.861,7.0
49.242,-3.104,5.597,2.0
0.0,0.0,0.0,0.0
0.0,0.0,0.0,0.0
0.0,0.0,0.0,0.0
0.0,0.0,0.0,0.0
48.993,-3.047,5.864,17.0
49.236,-3.051,5.619,0.0
0.0,0.0,0.0,0.0
0.0,0.0,0.0,0.0
0.0,0.0,0.0,0.0
49.36,-3.029,6.205,1.0
48.714,-2.978,5.851,23.0
0.0,0.0,0.0,0.0
0.0,0.0,0.0,0.0
0.0,0.0,0.0,0.0
0.0,0.0,0.0,0.0
49.133,-2.961,6.195,4.0
48.72,-2.924,5.87,22.0
0.0,0.0,0.0,0.0
49.355,-2.94,5.389,0.0
0.0,0.0,0.0,0.0
0.0,0.0,0.0,0.0
51.115,-3.024,6.462,1.0
48.2,-2.84,5.823,2.0
48.263,-2.832,5.559,1.0
49.335,-2.884,5.402,3.0
0.0,0.0,0.0,0.0
0.0,0.0,0.0,0.0
0.0,0.0,0.0,0.0
48.057,-2.777,5.819,2.0
50.406,-2.901,5.82,2.0
49.336,-2.827,5.415,4.0
0.0,0.0,0.0,0.0
0.0,0.0,0.0,0.0
0.0,0.0,0.0,0.0
47.725,-2.702,5.79,4.0
50.376,-2.841,5.828,3.0
49.381,-2.773,5.43,4.0
0.0,0.0,0.0,0.0
0.0,0.0,0.0,0.0
0.0,0.0,0.0,0.0
50.62,-2.808,6.151,3.0
48.295,-2.667,5.596,11.0
49.375,-2.715,5.438,2.0
0.0,0.0,0.0,0.0
56.594,-3.086,5.599,4.0
51.045,-2.783,6.498,8.0
50.851,-2.76,6.186,2.0
48.443,-2.618,5.62,20.0
0.0,0.0,0.0,0.0
0.0,0.0,0.0,0.0
56.58,-3.018,5.604,1.0
48.993,-2.613,6.242,2.0
50.966,-2.706,6.205,10.0
48.573,-2.567,5.64,22.0
56.992,-2.998,6.29,1.0
55.258,-2.894,5.787,3.0
92.749,-4.837,9.194,1.0
48.989,-2.554,6.245,2.0
48.876,-2.536,5.953,0.0
48.917,-2.527,5.681,12.0
50.119,-2.577,5.533,3.0
55.232,-2.828,5.786,3.0
92.587,-4.718,9.18,1.0
46.413,-2.364,5.917,3.0
48.942,-2.48,5.962,0.0
48.779,-2.46,5.666,17.0
50.052,-2.513,5.526,8.0
57.229,-2.86,5.995,3.0
92.663,-4.609,9.185,12.0
48.661,-2.419,6.203,10.0
57.538,-2.846,7.007,5.0
48.681,-2.396,5.652,19.0
56.653,-2.775,6.252,5.0
55.012,-2.682,5.759,10.0
54.976,-2.667,5.446,2.0
48.7,-2.361,6.204,22.0
48.953,-2.361,5.958,2.0
48.629,-2.333,5.642,17.0
49.817,-2.379,5.492,5.0
55.083,-2.618,5.761,3.0
57.993,-2.743,5.738,1.0
48.489,-2.29,6.171,16.0
48.944,-2.3,5.95,3.0
48.53,-2.269,5.624,14.0
40.495,-1.883,4.459,2.0
53.489,-2.475,5.586,3.0
57.947,-2.668,5.725,2.0
48.364,-2.224,6.148,23.0
50.539,-2.312,6.136,1.0
48.597,-2.211,5.623,7.0
40.501,-1.833,4.452,60.0
55.193,-2.485,5.754,5.0
55.031,-2.466,5.425,19.0
48.283,-2.159,6.127,23.0
46.096,-2.051,5.586,9.0
53.062,-2.348,6.128,12.0
40.483,-1.782,4.441,37.0
0.0,0.0,0.0,0.0
57.311,-2.496,5.636,5.0
48.324,-2.1,6.12,4.0
48.836,-2.111,5.905,4.0
40.468,-1.74,4.662,9.0
40.478,-1.731,4.429,55.0
53.191,-2.262,5.517,2.0
57.307,-2.425,5.619,9.0
57.032,-2.408,7.205,7.0
40.463,-1.698,4.88,37.0
40.507,-1.691,4.654,50.0
40.44,-1.679,4.412,65.0
53.176,-2.196,5.498,2.0
63.406,-2.604,6.196,12.0
57.005,-2.335,7.182,10.0
40.409,-1.646,4.86,56.0
40.451,-1.638,4.633,43.0
40.411,-1.627,4.393,60.0
53.271,-2.132,5.488,12.0
55.23,-2.198,5.376,19.0
43.769,-1.737,5.497,6.0
40.301,-1.59,4.83,67.0
40.382,-1.584,4.609,52.0
40.443,-1.577,4.38,53.0
52.547,-2.037,5.391,11.0
53.402,-2.058,5.175,2.0
40.242,-1.546,5.037,58.0
40.4,-1.543,4.824,50.0
40.314,-1.53,4.582,60.0
40.334,-1.522,4.35,56.0
40.331,-1.513,4.119,58.0
63.061,-2.352,6.081,5.0
40.242,-1.495,5.017,62.0
40.29,-1.488,4.791,59.0
40.272,-1.478,4.558,59.0
40.399,-1.474,4.337,69.0
40.36,-1.463,4.101,57.0
53.367,-1.923,5.119,18.0
40.357,-1.448,5.01,46.0
40.441,-1.442,4.787,63.0
40.317,-1.429,4.541,62.0
40.493,-1.426,4.324,48.0
40.297,-1.41,4.073,48.0
53.127,-1.847,5.066,27.0
40.321,-1.396,4.982,37.0
40.517,-1.394,4.773,51.0
40.383,-1.38,4.525,48.0
40.203,-1.365,4.269,33.0
40.556,-1.368,4.074,42.0
52.875,-1.773,5.01,9.0
40.393,-1.348,4.966,64.0
40.599,-1.346,4.757,55.0
40.111,-1.321,4.469,51.0
39.885,-1.305,4.21,55.0
40.467,-1.315,4.039,39.0
40.662,-1.313,3.826,31.0
40.39,-1.297,4.938,65.0
39.964,-1.274,4.656,62.0
39.889,-1.263,4.417,58.0
39.751,-1.25,4.168,63.0
40.129,-1.254,3.978,53.0
40.677,-1.262,3.799,59.0
40.4,-1.247,4.911,69.0
39.792,-1.219,4.607,59.0
40.046,-1.219,4.405,57.0
39.526,-1.194,4.116,63.0
40.135,-1.205,3.949,60.0
40.721,-1.214,3.773,50.0
40.448,-1.198,4.887,53.0
39.393,-1.158,4.531,69.0
39.532,-1.155,4.318,64.0
39.267,-1.139,4.059,63.0
39.795,-1.146,3.885,63.0
40.712,-1.164,3.74,54.0
39.946,-1.134,4.794,62.0
39.863,-1.124,4.553,53.0
39.259,-1.099,4.257,57.0
39.461,-1.096,4.047,62.0
48.981,-1.351,4.742,7.0
40.922,-1.121,3.726,42.0
39.603,-1.077,4.72,60.0
39.424,-1.064,4.47,48.0
39.368,-1.054,4.235,49.0
39.496,-1.05,4.017,69.0
40.531,-1.069,3.889,44.0
40.847,-1.07,3.684,37.0
39.319,-1.022,4.651,64.0
39.356,-1.015,4.427,57.0
39.104,-1.0,4.172,58.0
39.599,-1.005,3.992,70.0
49.074,-1.237,4.665,4.0
40.81,-1.02,3.644,58.0
39.231,-0.973,4.605,53.0
39.492,-0.971,4.406,49.0
39.036,-0.952,4.129,75.0
39.909,-0.966,3.986,56.0
40.028,-0.961,3.767,52.0
54.263,-1.293,4.794,35.0
39.416,-0.93,4.588,55.0
39.687,-0.929,4.389,63.0
39.179,-0.909,4.106,60.0
39.712,-0.915,3.927,54.0
49.096,-1.122,4.572,8.0
63.857,-1.446,5.578,7.0
39.367,-0.883,4.542,67.0
39.096,-0.87,4.284,50.0
39.459,-0.87,4.095,46.0
39.214,-0.858,3.838,64.0
39.784,-0.863,3.664,57.0
63.915,-1.375,5.518,12.0
39.339,-0.837,4.498,58.0
39.087,-0.824,4.242,51.0
39.413,-0.824,4.048,54.0
39.202,-0.812,3.795,72.0
39.675,-0.815,3.611,67.0
63.794,-1.299,5.439,16.0
39.315,-0.791,4.452,64.0
39.076,-0.779,4.198,58.0
39.68,-0.784,4.032,58.0
39.593,-0.776,3.789,52.0
40.048,-0.777,3.601,63.0
64.266,-1.237,5.408,33.0
39.141,-0.743,4.388,66.0
39.215,-0.738,4.168,57.0
39.503,-0.736,3.968,59.0
39.541,-0.73,3.739,66.0
49.087,-0.898,4.357,43.0
40.767,-0.739,3.383,49.0
39.226,-0.701,4.351,50.0
39.233,-0.694,4.123,64.0
39.522,-0.693,3.923,64.0
40.386,-0.701,3.77,53.0
49.818,-0.856,4.362,21.0
40.688,-0.692,3.327,62.0
39.018,-0.654,4.28,63.0
39.213,-0.651,4.073,60.0
0.0,0.0,0.0,0.0
48.111,-0.783,4.432,4.0
40.483,-0.652,3.495,51.0
40.692,-0.649,3.277,62.0
39.542,-0.62,4.288,53.0
39.368,-0.611,4.039,45.0
39.544,-0.607,3.827,63.0
40.093,-0.609,3.643,42.0
40.663,-0.612,3.459,48.0
40.958,-0.609,3.246,39.0
39.76,-0.581,4.26,30.0
39.524,-0.571,4.004,55.0
47.655,-0.682,4.55,5.0
40.727,-0.576,3.647,20.0
40.661,-0.569,3.405,58.0
41.031,-0.568,3.198,58.0
0.0,0.0,0.0,0.0
39.996,-0.537,3.998,44.0
47.702,-0.633,4.49,8.0
40.946,-0.537,3.612,17.0
40.74,-0.528,3.356,61.0
41.238,-0.529,3.158,57.0
39.451,-0.495,4.12,43.0
39.921,-0.495,3.936,20.0
40.314,-0.494,3.739,36.0
41.243,-0.499,3.581,41.0
40.248,-0.482,3.26,58.0
62.628,-0.741,4.71,22.0
39.406,-0.455,4.06,60.0
39.671,-0.453,3.855,25.0
39.907,-0.45,3.645,61.0
41.001,-0.456,3.501,41.0
40.669,-0.447,3.237,74.0
41.663,-0.452,3.074,11.0
39.344,-0.416,3.996,47.0
39.577,-0.413,3.788,51.0
47.904,-0.494,4.306,12.0
40.015,-0.407,3.359,61.0
41.358,-0.415,3.231,75.0
86.305,-0.855,6.242,5.0
39.341,-0.379,3.937,66.0
40.375,-0.383,3.804,38.0
40.566,-0.38,3.585,58.0
40.454,-0.373,3.336,70.0
41.387,-0.377,3.172,56.0
82.845,-0.744,5.869,35.0
39.435,-0.343,3.888,74.0
40.362,-0.346,3.743,56.0
40.208,-0.34,3.494,48.0
47.896,-0.399,3.877,6.0
41.638,-0.341,3.128,57.0
75.637,-0.611,5.243,11.0
39.541,-0.309,3.837,62.0
40.111,-0.308,3.657,45.0
39.878,-0.302,3.403,67.0
0.0,0.0,0.0,0.0
48.697,-0.356,3.582,53.0
63.461,-0.457,4.299,80.0
39.685,-0.275,3.788,70.0
39.973,-0.272,3.582,45.0
49.225,-0.33,4.123,4.0
40.826,-0.269,3.177,54.0
48.998,-0.317,3.527,82.0
63.855,-0.406,4.225,78.0
39.815,-0.243,3.737,35.0
39.969,-0.239,3.517,50.0
40.739,-0.239,3.346,48.0
47.819,-0.275,3.644,11.0
48.993,-0.276,3.447,70.0
63.623,-0.352,4.107,38.0
42.381,-0.223,3.908,47.0
39.928,-0.206,3.447,59.0
40.256,-0.204,3.24,65.0
47.773,-0.236,3.561,48.0
62.695,-0.303,4.307,10.0
63.579,-0.301,3.998,52.0
41.572,-0.186,3.764,23.0
49.249,-0.216,4.17,4.0
40.686,-0.174,3.207,71.0
47.814,-0.2,3.485,65.0
78.069,-0.319,5.235,26.0
77.81,-0.31,4.763,15.0
39.789,-0.148,3.535,60.0
40.834,-0.148,3.388,36.0
47.875,-0.169,3.692,10.0
48.196,-0.165,3.431,68.0
62.84,-0.21,4.106,36.0
77.715,-0.253,4.626,22.0
39.869,-0.12,3.474,39.0
40.269,-0.117,3.272,73.0
47.807,-0.135,3.605,25.0
48.549,-0.133,3.373,53.0
62.883,-0.166,4.001,86.0
59.414,-0.151,3.434,103.0
39.802,-0.092,3.398,68.0
39.977,-0.088,3.178,43.0
47.777,-0.101,3.519,94.0
48.786,-0.099,3.303,50.0
62.929,-0.123,3.893,62.0
59.418,-0.111,3.329,104.0
39.768,-0.065,3.324,73.0
47.82,-0.074,3.717,46.0
47.827,-0.07,3.437,98.0
63.789,-0.088,4.205,20.0
63.02,-0.082,3.786,15.0
59.425,-0.073,3.223,107.0
39.92,-0.04,3.264,57.0
47.8,-0.043,3.628,90.0
47.907,-0.04,3.356,69.0
63.764,-0.048,4.086,68.0
59.385,-0.041,3.459,94.0
59.427,-0.036,3.115,105.0
39.866,-0.015,3.186,78.0
47.824,-0.015,3.542,72.0
48.066,-0.011,3.278,55.0
75.698,-0.012,4.712,29.0
59.408,-0.005,3.351,109.0
59.441,-0.002,3.006,109.0
54.616,0.01,4.264,23.0
47.873,0.012,3.457,72.0
48.185,0.015,3.197,65.0
75.702,0.028,4.573,33.0
77.407,0.034,4.223,35.0
59.44,0.03,2.896,88.0
54.574,0.039,4.159,81.0
47.937,0.037,3.372,83.0
48.254,0.041,3.111,59.0
63.112,0.057,3.694,56.0
77.379,0.074,4.076,101.0
79.282,0.081,3.714,150.0
54.645,0.067,4.06,71.0
48.012,0.062,3.285,74.0
48.29,0.064,3.022,33.0
63.14,0.088,3.575,23.0
91.656,0.133,4.655,16.0
0.0,0.0,0.0,0.0
47.984,0.081,3.474,47.0
48.116,0.084,3.201,66.0
48.28,0.087,2.929,37.0
77.391,0.143,4.233,23.0
0.0,0.0,0.0,0.0
85.948,0.167,3.697,70.0
47.996,0.102,3.381,84.0
48.167,0.105,3.111,82.0
48.235,0.107,2.832,56.0
77.341,0.176,4.08,18.0
79.273,0.184,3.718,150.0
79.418,0.188,3.261,45.0
48.052,0.122,3.29,96.0
48.197,0.124,3.017,78.0
48.207,0.126,2.735,73.0
62.541,0.167,3.177,19.0
0.0,0.0,0.0,0.0
79.424,0.218,3.105,150.0
48.114,0.14,3.199,104.0
48.189,0.142,2.922,87.0
48.202,0.144,2.639,69.0
48.237,0.146,2.355,19.0
59.281,0.181,2.547,6.0
79.442,0.245,2.949,151.0
48.146,0.156,3.106,97.0
48.193,0.158,2.826,94.0
48.191,0.159,2.543,67.0
48.223,0.161,2.257,44.0
59.305,0.199,2.43,51.0
79.422,0.269,2.79,150.0
48.169,0.171,3.01,108.0
48.177,0.172,2.729,97.0
48.181,0.173,2.446,81.0
48.214,0.174,2.161,55.0
59.295,0.216,2.311,20.0
79.421,0.291,2.632,22.0
48.175,0.183,2.914,105.0
48.165,0.184,2.631,106.0
48.176,0.185,2.35,78.0
48.207,0.186,2.064,62.0
48.222,0.187,1.782,52.0
59.288,0.231,1.845,99.0
48.169,0.194,2.816,101.0
48.16,0.195,2.533,92.0
48.175,0.195,2.251,66.0
48.208,0.196,1.966,64.0
59.288,0.242,2.071,12.0
59.282,0.243,1.723,113.0
48.174,0.203,2.716,102.0
48.164,0.204,2.434,95.0
48.185,0.204,2.153,72.0
48.192,0.205,1.866,80.0
59.266,0.252,1.948,8.0
59.279,0.253,1.602,105.0
48.168,0.211,2.618,111.0
48.165,0.211,2.335,90.0
48.175,0.211,2.053,71.0
48.19,0.211,1.766,70.0
59.272,0.26,1.825,16.0
59.281,0.26,1.48,124.0
48.157,0.216,2.517,97.0
48.168,0.216,2.235,84.0
48.178,0.216,1.953,66.0
48.205,0.216,1.667,54.0
59.267,0.266,1.704,17.0
59.289,0.266,1.357,120.0
48.164,0.22,2.417,97.0
48.165,0.22,2.135,77.0
48.181,0.219,1.854,75.0
48.198,0.219,1.567,40.0
59.284,0.269,1.581,26.0
59.289,0.269,1.235,82.0
48.167,0.222,2.318,97.0
48.166,0.222,2.036,66.0
48.185,0.221,1.754,64.0
48.212,0.22,1.468,30.0
59.28,0.27,1.459,81.0
59.29,0.269,1.113,96.0
48.176,0.222,2.219,88.0
48.177,0.221,1.936,72.0
48.199,0.221,1.655,55.0
59.279,0.271,1.682,10.0
59.288,0.269,1.335,113.0
59.287,0.268,0.988,128.0
48.179,0.221,2.117,76.0
48.18,0.22,1.835,74.0
48.209,0.219,1.554,36.0
59.272,0.268,1.558,71.0
59.283,0.266,1.211,94.0
59.305,0.265,0.865,126.0
48.189,0.217,2.016,72.0
48.206,0.216,1.734,63.0
59.268,0.264,1.785,18.0
59.277,0.262,1.432,132.0
59.295,0.261,1.085,119.0
59.296,0.259,0.739,104.0
48.195,0.212,1.915,75.0
48.226,0.211,1.633,36.0
59.281,0.257,1.66,87.0
59.284,0.255,1.307,121.0
59.298,0.253,0.96,107.0
59.327,0.251,0.614,90.0
48.212,0.205,1.813,92.0
59.293,0.25,1.882,53.0
59.286,0.248,1.534,113.0
59.298,0.245,1.182,99.0
59.316,0.243,0.835,90.0
59.328,0.241,0.488,80.0
59.28,0.241,2.103,18.0
59.277,0.239,1.756,102.0
59.304,0.236,1.409,97.0
79.438,0.313,1.415,132.0
79.446,0.309,0.949,25.0
59.356,0.228,0.362,45.0
59.293,0.228,1.977,98.0
79.426,0.302,2.182,18.0
79.435,0.298,1.717,99.0
79.44,0.294,1.244,151.0
77.187,0.282,0.758,45.0
59.319,0.213,0.235,7.0
79.432,0.285,2.48,121.0
79.43,0.281,2.015,150.0
79.446,0.276,1.549,151.0
79.465,0.272,1.077,151.0
76.829,0.259,0.592,55.0
54.025,0.179,0.1,27.0
79.439,0.261,2.312,150.0
79.449,0.257,1.847,150.0
79.451,0.252,1.382,169.0
79.459,0.247,0.908,151.0
59.208,0.18,0.331,5.0
0.0,0.0,0.0,0.0
79.44,0.235,2.143,150.0
79.447,0.229,1.677,151.0
79.458,0.224,1.213,155.0
79.448,0.219,0.741,150.0
55.028,0.148,0.191,28.0
43.773,0.114,-0.103,3.0
79.444,0.205,1.976,150.0
79.461,0.199,1.51,152.0
79.465,0.194,1.046,151.0
76.401,0.181,0.55,31.0
47.943,0.11,0.065,21.0
39.06,0.087,-0.174,35.0
79.45,0.172,1.808,150.0
79.453,0.166,1.344,167.0
79.456,0.16,0.879,151.0
59.212,0.115,0.302,5.0
44.84,0.083,-0.032,21.0
38.23,0.068,-0.251,6.0
79.453,0.137,1.642,151.0
79.459,0.13,1.177,155.0
79.452,0.124,0.713,118.0
54.829,0.081,0.165,29.0
40.291,0.056,-0.113,16.0
35.037,0.046,-0.303,0.0
79.455,0.098,1.475,160.0
79.473,0.091,1.01,152.0
76.148,0.081,0.523,21.0
47.618,0.046,0.044,22.0
38.984,0.034,-0.191,18.0
32.518,0.026,-0.349,1.0
79.46,0.057,1.311,155.0
79.452,0.05,0.846,151.0
59.345,0.032,0.286,8.0
32.252,0.014,-0.035,10.0
38.315,0.013,-0.266,5.0
30.285,0.008,-0.388,2.0
79.467,0.013,1.146,151.0
79.369,0.005,0.681,45.0
0.0,0.0,0.0,0.0
40.126,-0.004,-0.128,28.0
33.552,-0.007,-0.303,0.0
29.078,-0.009,-0.433,2.0
79.465,-0.033,0.983,175.0
76.149,-0.04,0.496,15.0
0.0,0.0,0.0,0.0
39.029,-0.028,-0.205,14.0
31.566,-0.026,-0.35,1.0
27.681,-0.026,-0.469,2.0
79.455,-0.083,0.818,151.0
61.672,-0.071,0.275,18.0
0.0,0.0,0.0,0.0
38.341,-0.052,-0.28,2.0
29.913,-0.044,-0.393,2.0
26.598,-0.042,-0.505,2.0
79.303,-0.136,0.655,33.0
0.0,0.0,0.0,0.0
40.116,-0.077,-0.136,16.0
33.236,-0.068,-0.31,1.0
28.877,-0.062,-0.438,2.0
25.427,-0.058,-0.534,1.0
76.316,-0.184,0.476,12.0
46.096,-0.116,0.018,16.0
39.142,-0.103,-0.212,10.0
31.568,-0.087,-0.359,2.0
27.506,-0.079,-0.473,1.0
24.213,-0.073,-0.558,2.0
61.393,-0.193,0.259,14.0
42.323,-0.138,-0.068,17.0
38.847,-0.131,-0.289,0.0
29.804,-0.104,-0.398,2.0
26.428,-0.096,-0.507,2.0
23.32,-0.087,-0.584,2.0
0.0,0.0,0.0,0.0
39.909,-0.161,-0.143,3.0
33.163,-0.138,-0.312,1.0
28.702,-0.123,-0.44,1.0
25.229,-0.111,-0.534,1.0
22.415,-0.102,-0.605,3.0
46.586,-0.219,0.012,22.0
39.467,-0.191,-0.219,5.0
31.074,-0.154,-0.354,1.0
27.328,-0.139,-0.474,1.0
24.155,-0.127,-0.56,3.0
21.468,-0.115,-0.623,3.0
42.109,-0.234,-0.072,4.0
37.246,-0.212,-0.28,1.0
29.833,-0.173,-0.398,2.0
26.356,-0.157,-0.508,2.0
23.269,-0.142,-0.584,2.0
20.657,-0.129,-0.639,2.0
41.811,-0.268,-0.152,4.0
33.171,-0.218,-0.314,1.0
28.716,-0.192,-0.439,2.0
25.164,-0.172,-0.534,1.0
22.329,-0.156,-0.604,2.0
19.899,-0.142,-0.654,3.0
0.0,0.0,0.0,0.0
31.208,-0.233,-0.355,1.0
27.348,-0.208,-0.471,2.0
24.108,-0.187,-0.558,2.0
21.437,-0.169,-0.621,2.0
19.239,-0.155,-0.669,1.0
40.162,-0.33,-0.298,0.0
29.747,-0.249,-0.394,2.0
26.338,-0.225,-0.503,2.0
23.263,-0.202,-0.582,2.0
20.617,-0.182,-0.636,2.0
18.584,-0.167,-0.682,1.0
33.438,-0.307,-0.312,1.0
28.677,-0.268,-0.434,3.0
25.324,-0.241,-0.531,1.0
22.326,-0.216,-0.601,1.0
19.923,-0.196,-0.652,2.0
18.051,-0.18,-0.696,1.0
31.057,-0.317,-0.348,1.0
27.579,-0.285,-0.469,1.0
24.251,-0.255,-0.554,1.0
21.501,-0.23,-0.618,1.0
19.291,-0.209,-0.667,1.0
17.535,-0.193,-0.709,1.0
29.83,-0.335,-0.389,4.0
26.419,-0.301,-0.498,1.0
23.364,-0.27,-0.577,1.0
20.692,-0.242,-0.633,1.0
18.627,-0.222,-0.679,1.0
17.002,-0.205,-0.719,1.0
28.773,-0.353,-0.428,2.0
25.409,-0.316,-0.526,1.0
22.474,-0.284,-0.596,1.0
20.016,-0.256,-0.649,1.0
18.13,-0.235,-0.693,1.0
16.522,-0.217,-0.728,1.0
27.626,-0.369,-0.46,2.0
24.406,-0.33,-0.548,1.0
21.649,-0.297,-0.612,1.0
19.366,-0.269,-0.662,1.0
17.625,-0.248,-0.705,1.0
16.035,-0.228,-0.735,1.0
26.567,-0.385,-0.489,1.0
23.488,-0.344,-0.569,2.0
20.892,-0.31,-0.628,1.0
18.825,-0.283,-0.677,1.0
17.148,-0.26,-0.716,1.0
15.616,-0.24,-0.743,1.0
25.624,-0.4,-0.517,1.0
22.699,-0.359,-0.59,1.0
20.187,-0.322,-0.641,1.0
18.236,-0.295,-0.687,1.0
16.637,-0.272,-0.724,0.0
15.264,-0.252,-0.753,1.0
24.741,-0.415,-0.541,1.0
21.863,-0.371,-0.605,1.0
19.621,-0.337,-0.657,1.0
17.754,-0.308,-0.7,1.0
16.171,-0.284,-0.731,1.0
14.896,-0.264,-0.76,1.0
23.753,-0.427,-0.56,2.0
21.125,-0.384,-0.62,1.0
19.016,-0.349,-0.669,1.0
17.332,-0.322,-0.712,1.0
15.777,-0.296,-0.74,1.0
14.571,-0.276,-0.768,1.0
23.022,-0.442,-0.581,2.0
20.47,-0.397,-0.635,1.0
18.492,-0.362,-0.681,1.0
16.67,-0.33,-0.713,2.0
15.404,-0.308,-0.748,1.0
14.246,-0.288,-0.775,1.0
22.335,-0.457,-0.6,4.0
19.868,-0.411,-0.649,1.0
18.001,-0.376,-0.693,1.0
16.408,-0.346,-0.728,1.0
15.073,-0.321,-0.756,1.0
13.943,-0.3,-0.781,1.0
21.498,-0.467,-0.612,1.0
19.351,-0.424,-0.663,1.0
17.565,-0.389,-0.704,1.0
15.987,-0.357,-0.735,1.0
14.762,-0.333,-0.764,1.0
13.669,-0.311,-0.787,1.0
20.811,-0.479,-0.625,1.0
18.788,-0.436,-0.673,1.0
17.116,-0.401,-0.712,1.0
15.605,-0.369,-0.741,1.0
14.427,-0.344,-0.769,1.0
13.45,-0.324,-0.795,1.0
20.288,-0.494,-0.64,1.0
18.303,-0.449,-0.684,1.0
16.73,-0.414,-0.722,1.0
15.284,-0.382,-0.749,1.0
14.139,-0.356,-0.775,1.0
13.211,-0.336,-0.801,1.0
19.727,-0.506,-0.652,1.0
17.864,-0.462,-0.694,1.0
16.302,-0.425,-0.727,1.0
14.991,-0.395,-0.757,1.0
13.888,-0.369,-0.782,1.0
12.976,-0.347,-0.806,0.0
19.208,-0.519,-0.663,1.0
17.521,-0.477,-0.706,1.0
15.928,-0.437,-0.734,1.0
14.699,-0.407,-0.764,1.0
13.661,-0.381,-0.789,1.0
12.761,-0.359,-0.811,1.0
18.745,-0.532,-0.674,1.0
17.104,-0.489,-0.714,1.0
15.606,-0.45,-0.741,1.0
14.416,-0.419,-0.77,1.0
13.416,-0.393,-0.794,1.0
12.546,-0.371,-0.815,0.0
18.314,-0.545,-0.684,1.0
16.706,-0.501,-0.72,0.0
15.317,-0.463,-0.749,1.0
14.104,-0.43,-0.772,1.0
13.198,-0.405,-0.799,0.0
12.359,-0.383,-0.82,0.0
17.896,-0.558,-0.693,1.0
16.293,-0.512,-0.725,0.0
15.047,-0.476,-0.756,1.0
13.903,-0.444,-0.78,1.0
12.995,-0.418,-0.804,1.0
12.158,-0.394,-0.823,0.0
17.575,-0.573,-0.704,1.0
15.986,-0.525,-0.732,1.0
14.759,-0.488,-0.761,1.0
13.666,-0.456,-0.785,1.0
12.794,-0.43,-0.809,1.0
11.994,-0.406,-0.828,0.0
17.206,-0.586,-0.711,1.0
15.702,-0.539,-0.739,1.0
14.511,-0.501,-0.767,1.0
13.486,-0.469,-0.792,1.0
12.618,-0.442,-0.814,1.0
11.832,-0.418,-0.831,0.0
16.858,-0.599,-0.718,1.0
15.431,-0.552,-0.746,1.0
14.244,-0.513,-0.771,1.0
13.292,-0.482,-0.797,1.0
12.431,-0.454,-0.817,0.0
11.671,-0.429,-0.835,0.0
16.52,-0.611,-0.723,1.0
15.166,-0.565,-0.751,1.0
14.029,-0.526,-0.776,1.0
13.106,-0.495,-0.802,1.0
12.253,-0.466,-0.82,0.0
11.529,-0.441,-0.838,0.0
16.181,-0.623,-0.727,1.0
14.949,-0.579,-0.758,1.0
13.826,-0.539,-0.781,1.0
12.908,-0.507,-0.805,1.0
12.108,-0.479,-0.824,0.0
11.396,-0.453,-0.842,0.0
15.929,-0.637,-0.734,1.0
14.705,-0.592,-0.763,1.0
13.641,-0.553,-0.786,1.0
12.741,-0.519,-0.809,1.0
11.948,-0.49,-0.827,1.0
11.268,-0.465,-0.845,0.0
15.676,-0.651,-0.74,1.0
14.45,-0.604,-0.765,1.0
13.456,-0.566,-0.79,1.0
12.61,-0.533,-0.814,1.0
11.797,-0.502,-0.829,0.0
11.144,-0.478,-0.848,0.0
15.465,-0.666,-0.747,1.0
14.254,-0.617,-0.77,1.0
13.323,-0.581,-0.796,1.0
12.41,-0.544,-0.814,0.0
11.676,-0.515,-0.833,0.0
11.033,-0.49,-0.851,0.0
15.229,-0.679,-0.751,1.0
14.057,-0.631,-0.774,1.0
13.146,-0.593,-0.799,1.0
12.292,-0.558,-0.819,0.0
11.563,-0.528,-0.837,0.0
10.917,-0.502,-0.853,0.0
15.009,-0.692,-0.755,1.0
13.883,-0.644,-0.778,1.0
12.965,-0.605,-0.801,0.0
12.162,-0.571,-0.822,0.0
11.451,-0.541,-0.84,0.0
10.82,-0.514,-0.856,0.0
14.803,-0.706,-0.758,1.0
13.727,-0.658,-0.782,1.0
12.861,-0.62,-0.806,1.0
12.053,-0.585,-0.826,0.0
11.331,-0.553,-0.841,0.0
10.716,-0.526,-0.857,0.0
14.622,-0.72,-0.762,1.0
13.587,-0.673,-0.786,1.0
12.687,-0.632,-0.807,0.0
11.912,-0.597,-0.827,0.0
11.244,-0.566,-0.845,0.0
10.623,-0.538,-0.859,0.0
14.467,-0.735,-0.767,1.0
13.45,-0.687,-0.789,1.0
12.576,-0.646,-0.81,1.0
11.817,-0.61,-0.83,0.0
11.161,-0.58,-0.848,0.0
10.539,-0.55,-0.861,0.0
14.288,-0.748,-0.769,1.0
13.342,-0.703,-0.794,1.0
12.463,-0.66,-0.813,1.0
11.708,-0.623,-0.832,0.0
11.068,-0.592,-0.85,0.0
10.466,-0.563,-0.863,0.0
14.162,-0.764,-0.773,1.0
13.224,-0.717,-0.797,1.0
12.373,-0.675,-0.816,0.0
11.629,-0.638,-0.835,0.0
10.976,-0.605,-0.851,0.0
10.393,-0.576,-0.865,0.0
13.999,-0.778,-0.774,1.0
13.095,-0.731,-0.799,1.0
12.246,-0.687,-0.817,0.0
11.547,-0.651,-0.837,0.0
10.899,-0.618,-0.853,0.0
10.315,-0.588,-0.866,0.0
13.888,-0.793,-0.778,1.0
12.985,-0.745,-0.801,1.0
12.149,-0.701,-0.819,0.0
11.44,-0.664,-0.837,0.0
10.833,-0.631,-0.855,0.0
10.232,-0.6,-0.866,0.0
13.788,-0.81,-0.781,1.0
12.886,-0.76,-0.803,1.0
12.073,-0.716,-0.821,0.0
11.366,-0.677,-0.839,0.0
10.754,-0.644,-0.855,0.0
10.152,-0.611,-0.866,0.0
13.679,-0.825,-0.783,1.0
12.782,-0.775,-0.805,1.0
12.011,-0.731,-0.824,0.0
11.294,-0.691,-0.841,0.0
10.704,-0.658,-0.858,0.0
10.095,-0.624,-0.867,0.0
13.608,-0.842,-0.787,1.0
12.717,-0.791,-0.808,1.0
11.944,-0.746,-0.826,0.0
11.238,-0.705,-0.843,0.0
10.637,-0.671,-0.858,0.0
10.018,-0.635,-0.865,1.0
13.501,-0.857,-0.788,1.0
12.642,-0.806,-0.809,1.0
11.859,-0.76,-0.827,0.0
11.194,-0.72,-0.845,0.0
10.582,-0.684,-0.859,0.0
9.964,-0.647,-0.865,1.0
13.436,-0.874,-0.791,1.0
12.564,-0.821,-0.81,1.0
11.802,-0.774,-0.828,0.0
11.141,-0.734,-0.846,0.0
10.542,-0.698,-0.86,0.0
9.934,-0.661,-0.867,2.0
13.366,-0.89,-0.792,1.0
12.498,-0.836,-0.811,1.0
11.755,-0.79,-0.83,0.0
11.088,-0.748,-0.847,0.0
10.491,-0.711,-0.861,0.0
9.897,-0.674,-0.868,3.0
13.309,-0.907,-0.794,1.0
12.443,-0.852,-0.813,0.0
11.701,-0.804,-0.83,0.0
11.06,-0.763,-0.849,0.0
10.466,-0.726,-0.862,0.0
9.871,-0.688,-0.869,3.0
13.233,-0.922,-0.794,0.0
12.408,-0.868,-0.815,0.0
11.678,-0.821,-0.833,0.0
11.019,-0.778,-0.849,0.0
10.436,-0.74,-0.863,0.0
9.851,-0.701,-0.871,3.0
13.2,-0.94,-0.796,0.0
12.362,-0.884,-0.815,0.0
11.653,-0.837,-0.834,0.0
10.986,-0.792,-0.85,0.0
10.416,-0.754,-0.865,0.0
9.835,-0.715,-0.872,3.0
13.16,-0.958,-0.797,0.0
12.318,-0.9,-0.816,0.0
11.602,-0.851,-0.834,0.0
10.939,-0.806,-0.849,0.0
10.38,-0.768,-0.864,0.0
9.816,-0.729,-0.873,3.0
13.145,-0.976,-0.799,1.0
12.28,-0.916,-0.816,0.0
11.597,-0.868,-0.836,0.0
10.93,-0.822,-0.85,0.0
10.361,-0.782,-0.864,0.0
9.805,-0.743,-0.874,2.0
13.097,-0.993,-0.799,2.0
12.275,-0.934,-0.817,0.0
11.566,-0.883,-0.835,0.0
10.903,-0.836,-0.85,0.0
10.353,-0.797,-0.865,0.0
9.794,-0.757,-0.874,2.0
13.022,-1.006,-0.796,1.0
12.259,-0.951,-0.818,0.0
11.565,-0.901,-0.837,0.0
10.891,-0.851,-0.85,0.0
10.338,-0.811,-0.865,0.0
9.792,-0.771,-0.875,3.0
13.029,-1.026,-0.798,0.0
12.271,-0.97,-0.82,1.0
11.542,-0.916,-0.836,0.0
10.883,-0.867,-0.85,0.0
10.32,-0.825,-0.864,0.0
9.781,-0.785,-0.874,3.0
13.021,-1.045,-0.798,0.0
12.215,-0.983,-0.817,2.0
11.546,-0.933,-0.837,0.0
10.888,-0.883,-0.851,0.0
10.329,-0.841,-0.866,0.0
9.796,-0.8,-0.876,2.0
13.022,-1.063,-0.798,0.0
12.168,-0.997,-0.814,1.0
11.535,-0.949,-0.836,0.0
10.895,-0.899,-0.852,0.0
10.325,-0.855,-0.865,0.0
9.785,-0.813,-0.875,2.0
13.049,-1.084,-0.799,0.0
12.189,-1.016,-0.815,0.0
11.504,-0.963,-0.833,1.0
10.908,-0.916,-0.852,0.0
10.313,-0.869,-0.863,0.0
9.783,-0.827,-0.874,3.0
13.072,-1.105,-0.8,1.0
12.21,-1.035,-0.815,0.0
11.486,-0.977,-0.831,0.0
10.928,-0.933,-0.853,1.0
10.342,-0.886,-0.865,0.0
9.794,-0.842,-0.874,3.0
13.083,-1.124,-0.799,1.0
12.242,-1.055,-0.816,0.0
11.517,-0.996,-0.832,0.0
10.92,-0.948,-0.851,0.0
10.345,-0.901,-0.864,0.0
9.805,-0.857,-0.873,3.0
13.06,-1.14,-0.796,0.0
12.258,-1.074,-0.815,0.0
11.547,-1.015,-0.832,0.0
10.924,-0.963,-0.849,0.0
10.382,-0.918,-0.865,1.0
9.82,-0.871,-0.873,3.0
13.055,-1.158,-0.793,0.0
12.299,-1.094,-0.815,0.0
11.613,-1.036,-0.834,0.0
10.95,-0.98,-0.849,0.0
10.397,-0.934,-0.864,1.0
9.831,-0.886,-0.872,3.0
13.286,-1.196,-0.804,0.0
12.329,-1.113,-0.814,1.0
11.625,-1.053,-0.832,0.0
10.976,-0.997,-0.848,0.0
10.407,-0.948,-0.862,0.0
9.858,-0.901,-0.871,3.0
13.284,-1.213,-0.8,0.0
12.338,-1.13,-0.811,0.0
11.655,-1.071,-0.831,0.0
11.013,-1.015,-0.848,0.0
10.461,-0.967,-0.863,0.0
9.881,-0.916,-0.87,3.0
13.297,-1.232,-0.797,0.0
12.365,-1.149,-0.809,0.0
11.715,-1.092,-0.832,0.0
11.048,-1.032,-0.847,0.0
10.475,-0.982,-0.861,0.0
9.905,-0.931,-0.869,2.0
13.362,-1.255,-0.796,0.0
12.505,-1.178,-0.814,0.0
11.737,-1.108,-0.829,0.0
11.071,-1.048,-0.844,0.0
10.508,-0.998,-0.86,0.0
9.929,-0.946,-0.867,2.0
13.403,-1.275,-0.793,0.0
12.527,-1.195,-0.811,0.0
11.74,-1.123,-0.825,0.0
11.145,-1.069,-0.845,0.0
10.55,-1.015,-0.859,0.0
9.978,-0.963,-0.868,2.0
13.471,-1.298,-0.792,0.0
12.591,-1.216,-0.809,0.0
11.895,-1.152,-0.83,0.0
11.174,-1.085,-0.843,0.0
10.597,-1.032,-0.858,0.0
10.032,-0.98,-0.868,1.0
13.547,-1.322,-0.79,0.0
12.685,-1.241,-0.809,0.0
11.936,-1.17,-0.828,0.0
11.209,-1.102,-0.84,0.0
10.668,-1.052,-0.858,0.0
10.067,-0.995,-0.866,1.0
13.626,-1.345,-0.788,0.0
12.768,-1.264,-0.808,0.0
12.016,-1.192,-0.827,0.0
11.283,-1.122,-0.84,0.0
10.721,-1.069,-0.857,1.0
10.123,-1.012,-0.865,0.0
13.714,-1.369,-0.786,0.0
12.837,-1.285,-0.806,0.0
12.077,-1.212,-0.824,0.0
11.374,-1.144,-0.84,0.0
10.739,-1.083,-0.852,0.0
10.179,-1.029,-0.864,0.0
13.803,-1.393,-0.783,1.0
12.947,-1.31,-0.805,0.0
12.165,-1.234,-0.824,0.0
11.479,-1.167,-0.841,0.0
10.795,-1.1,-0.851,0.0
10.252,-1.047,-0.864,0.0
13.885,-1.417,-0.779,0.0
13.057,-1.335,-0.804,0.0
12.224,-1.253,-0.82,0.0
11.515,-1.183,-0.837,0.0
10.93,-1.125,-0.854,0.0
10.32,-1.065,-0.863,0.0
14.017,-1.444,-0.778,1.0
13.13,-1.356,-0.8,0.0
12.31,-1.274,-0.818,0.0
11.628,-1.206,-0.837,0.0
11.017,-1.145,-0.854,0.0
10.375,-1.081,-0.861,0.0
14.146,-1.472,-0.776,1.0
13.266,-1.383,-0.8,0.0
12.408,-1.296,-0.816,0.0
11.704,-1.226,-0.835,0.0
11.101,-1.165,-0.853,0.0
10.478,-1.102,-0.862,0.0
14.304,-1.502,-0.774,0.0
13.348,-1.405,-0.795,1.0
12.538,-1.322,-0.816,0.0
11.821,-1.249,-0.835,0.0
11.164,-1.182,-0.849,0.0
10.6,-1.125,-0.865,0.0
14.424,-1.528,-0.77,0.0
13.487,-1.432,-0.794,1.0
12.654,-1.346,-0.814,0.0
11.893,-1.268,-0.831,0.0
11.24,-1.2,-0.847,0.0
10.723,-1.147,-0.867,0.0
14.581,-1.558,-0.768,0.0
13.611,-1.457,-0.791,1.0
12.758,-1.368,-0.811,0.0
12.002,-1.29,-0.829,0.0
11.312,-1.218,-0.843,0.0
10.751,-1.16,-0.86,0.0
14.76,-1.59,-0.765,1.0
13.734,-1.482,-0.787,1.0
12.866,-1.391,-0.807,0.0
12.105,-1.311,-0.827,0.0
11.436,-1.241,-0.843,0.0
10.83,-1.177,-0.858,0.0
14.931,-1.621,-0.762,1.0
13.873,-1.509,-0.783,1.0
12.982,-1.414,-0.804,0.0
12.212,-1.332,-0.824,0.0
11.525,-1.26,-0.84,0.0
10.948,-1.199,-0.858,0.0
15.104,-1.652,-0.758,0.0
14.016,-1.535,-0.78,0.0
13.118,-1.439,-0.801,0.0
12.347,-1.357,-0.822,0.0
11.648,-1.282,-0.839,0.0
11.022,-1.215,-0.854,0.0
15.302,-1.685,-0.755,1.0
14.201,-1.566,-0.778,0.0
13.281,-1.466,-0.799,1.0
12.436,-1.375,-0.817,0.0
11.754,-1.302,-0.836,0.0
11.12,-1.234,-0.852,0.0
15.512,-1.719,-0.752,1.0
14.384,-1.596,-0.775,0.0
13.444,-1.494,-0.797,1.0
12.582,-1.4,-0.815,0.0
11.86,-1.322,-0.833,0.0
11.208,-1.251,-0.848,0.0
15.751,-1.756,-0.749,1.0
14.557,-1.625,-0.771,0.0
13.571,-1.517,-0.792,0.0
12.726,-1.425,-0.813,0.0
11.991,-1.344,-0.831,0.0
11.323,-1.271,-0.846,0.0
15.976,-1.791,-0.744,1.0
14.734,-1.654,-0.766,0.0
13.777,-1.549,-0.79,0.0
12.876,-1.449,-0.81,0.0
12.138,-1.368,-0.829,0.0
11.451,-1.292,-0.844,0.0
16.227,-1.829,-0.74,2.0
14.943,-1.686,-0.762,0.0
13.913,-1.572,-0.785,0.0
13.021,-1.473,-0.806,1.0
12.25,-1.388,-0.825,0.0
11.555,-1.311,-0.84,0.0
16.283,-1.844,-0.727,4.0
15.193,-1.723,-0.76,0.0
14.076,-1.598,-0.78,0.0
13.159,-1.496,-0.801,1.0
12.382,-1.409,-0.821,0.0
11.698,-1.333,-0.839,0.0
16.325,-1.858,-0.712,1.0
15.437,-1.758,-0.756,1.0
14.291,-1.629,-0.777,0.0
13.365,-1.526,-0.8,0.0
12.518,-1.431,-0.817,0.0
11.827,-1.353,-0.836,0.0
16.386,-1.872,-0.697,1.0
15.677,-1.793,-0.751,0.0
14.502,-1.66,-0.773,0.0
13.545,-1.552,-0.797,0.0
12.698,-1.457,-0.815,0.0
11.949,-1.372,-0.832,0.0
16.828,-1.93,-0.699,1.0
15.933,-1.829,-0.747,1.0
14.714,-1.69,-0.769,0.0
13.698,-1.575,-0.791,0.0
12.899,-1.485,-0.814,1.0
12.111,-1.395,-0.83,0.0
17.581,-2.023,-0.711,1.0
16.202,-1.866,-0.742,1.0
14.936,-1.721,-0.765,0.0
13.877,-1.601,-0.787,0.0
12.989,-1.5,-0.806,1.0
12.249,-1.415,-0.826,0.0
17.89,-2.065,-0.704,1.0
16.268,-1.879,-0.728,3.0
15.195,-1.756,-0.761,1.0
14.098,-1.631,-0.783,1.0
13.148,-1.522,-0.801,0.0
12.393,-1.436,-0.822,0.0
18.179,-2.103,-0.695,1.0
16.334,-1.891,-0.712,4.0
15.434,-1.788,-0.756,0.0
14.326,-1.661,-0.78,0.0
13.408,-1.556,-0.802,0.0
12.558,-1.458,-0.819,0.0
18.618,-2.159,-0.691,1.0
16.393,-1.902,-0.696,4.0
15.746,-1.828,-0.753,0.0
14.541,-1.689,-0.775,0.0
13.592,-1.58,-0.798,0.0
12.739,-1.482,-0.816,0.0
19.215,-2.232,-0.692,3.0
16.774,-1.95,-0.694,2.0
16.03,-1.864,-0.749,1.0
14.744,-1.715,-0.769,1.0
13.751,-1.601,-0.791,0.0
12.952,-1.509,-0.815,1.0
19.506,-2.269,-0.68,10.0
17.701,-2.06,-0.712,1.0
16.256,-1.893,-0.74,4.0
15.032,-1.751,-0.767,0.0
13.946,-1.625,-0.786,0.0
13.02,-1.518,-0.804,1.0
19.798,-2.306,-0.667,17.0
18.001,-2.097,-0.703,0.0
16.29,-1.898,-0.723,7.0
15.274,-1.781,-0.761,1.0
14.178,-1.653,-0.782,0.0
13.259,-1.547,-0.803,0.0
20.149,-2.348,-0.655,19.0
18.367,-2.141,-0.695,0.0
16.351,-1.906,-0.706,6.0
15.564,-1.815,-0.757,1.0
14.419,-1.682,-0.779,0.0
13.474,-1.572,-0.8,0.0
20.629,-2.405,-0.646,14.0
18.963,-2.211,-0.695,2.0
16.467,-1.92,-0.691,2.0
15.868,-1.851,-0.753,1.0
14.638,-1.708,-0.773,0.0
13.671,-1.595,-0.795,0.0
21.147,-2.465,-0.637,14.0
19.379,-2.259,-0.687,6.0
17.434,-2.032,-0.711,1.0
16.202,-1.889,-0.749,2.0
14.884,-1.735,-0.768,0.0
13.86,-1.616,-0.789,0.0
21.685,-2.527,-0.627,21.0
19.682,-2.293,-0.674,14.0
17.873,-2.082,-0.708,1.0
16.268,-1.895,-0.732,6.0
15.194,-1.77,-0.765,0.0
14.115,-1.645,-0.787,0.0
22.214,-2.586,-0.616,29.0
20.041,-2.333,-0.662,19.0
18.224,-2.121,-0.699,0.0
16.321,-1.899,-0.715,6.0
15.462,-1.799,-0.76,1.0
14.359,-1.671,-0.783,0.0
22.832,-2.654,-0.605,34.0
20.459,-2.378,-0.651,14.0
18.693,-2.172,-0.695,1.0
16.387,-1.904,-0.698,4.0
15.762,-1.831,-0.756,1.0
14.57,-1.692,-0.776,0.0
23.098,-2.681,-0.584,15.0
21.004,-2.437,-0.643,14.0
19.291,-2.238,-0.693,3.0
16.989,-1.97,-0.703,1.0
16.094,-1.866,-0.752,2.0
14.822,-1.718,-0.772,1.0
23.757,-2.752,-0.572,2.0
21.54,-2.494,-0.633,15.0
19.594,-2.267,-0.68,10.0
17.756,-2.054,-0.713,1.0
16.252,-1.88,-0.739,4.0
15.101,-1.746,-0.767,1.0
24.907,-2.878,-0.569,1.0
22.065,-2.548,-0.621,23.0
19.985,-2.307,-0.669,15.0
18.089,-2.087,-0.704,0.0
16.307,-1.881,-0.722,2.0
15.39,-1.774,-0.763,1.0
25.508,-2.939,-0.551,1.0
22.575,-2.599,-0.608,28.0
20.367,-2.344,-0.657,16.0
18.507,-2.129,-0.697,0.0
16.387,-1.884,-0.705,1.0
15.681,-1.802,-0.758,0.0
26.243,-3.013,-0.535,1.0
23.015,-2.641,-0.591,20.0
20.873,-2.394,-0.647,12.0
19.115,-2.191,-0.697,1.0
17.145,-1.964,-0.716,1.0
16.008,-1.832,-0.754,1.0
27.025,-3.091,-0.518,1.0
23.494,-2.686,-0.575,5.0
21.425,-2.447,-0.638,14.0
19.512,-2.227,-0.687,5.0
17.668,-2.015,-0.716,1.0
16.246,-1.852,-0.745,3.0
28.025,-3.193,-0.502,1.0
24.71,-2.813,-0.574,1.0
21.95,-2.496,-0.627,20.0
19.851,-2.256,-0.675,7.0
18.017,-2.046,-0.709,1.0
16.276,-1.847,-0.727,3.0
28.881,-3.275,-0.482,1.0
25.359,-2.873,-0.558,1.0
22.428,-2.539,-0.613,24.0
20.302,-2.296,-0.665,11.0
18.403,-2.08,-0.701,0.0
16.363,-1.848,-0.711,1.0
29.776,-3.36,-0.461,1.0
26.078,-2.94,-0.543,1.0
23.007,-2.591,-0.601,22.0
20.661,-2.325,-0.652,11.0
18.822,-2.116,-0.694,1.0
16.586,-1.863,-0.7,0.0
30.828,-3.46,-0.44,0.0
26.781,-3.003,-0.525,1.0
23.54,-2.636,-0.586,26.0
21.233,-2.376,-0.644,10.0
19.469,-2.176,-0.694,2.0
17.574,-1.962,-0.72,0.0
32.314,-3.606,-0.422,0.0
27.686,-3.086,-0.508,1.0
23.996,-2.671,-0.569,10.0
21.747,-2.418,-0.633,14.0
19.82,-2.201,-0.683,6.0
17.904,-1.986,-0.712,0.0
33.418,-3.706,-0.396,1.0
28.573,-3.165,-0.491,1.0
25.0,-2.765,-0.562,1.0
22.233,-2.456,-0.621,17.0
20.133,-2.221,-0.669,10.0
18.303,-2.017,-0.706,0.0
35.437,-3.904,-0.377,0.0
29.531,-3.249,-0.471,1.0
25.816,-2.836,-0.55,1.0
22.759,-2.497,-0.608,18.0
20.439,-2.239,-0.655,9.0
18.679,-2.044,-0.698,1.0
0.0,0.0,0.0,0.0
30.485,-3.329,-0.451,1.0
26.476,-2.887,-0.532,1.0
23.321,-2.539,-0.595,24.0
21.057,-2.29,-0.65,4.0
19.087,-2.073,-0.691,1.0
39.754,-4.315,-0.329,1.0
31.802,-3.446,-0.432,1.0
27.262,-2.95,-0.516,1.0
23.788,-2.57,-0.579,19.0
21.737,-2.345,-0.645,4.0
19.746,-2.127,-0.691,2.0
41.427,-4.46,-0.294,0.0
33.096,-3.557,-0.411,1.0
28.159,-3.022,-0.5,1.0
24.282,-2.601,-0.563,5.0
22.127,-2.367,-0.631,10.0
20.161,-2.153,-0.682,10.0
42.015,-4.485,-0.249,0.0
34.475,-3.673,-0.388,1.0
29.077,-3.093,-0.483,1.0
25.503,-2.708,-0.562,1.0
22.634,-2.399,-0.62,13.0
20.38,-2.157,-0.666,21.0
0.0,0.0,0.0,0.0
36.027,-3.804,-0.366,0.0
29.95,-3.157,-0.463,1.0
26.021,-2.738,-0.544,1.0
23.172,-2.433,-0.608,22.0
20.515,-2.151,-0.647,10.0
0.0,0.0,0.0,0.0
38.201,-3.995,-0.345,1.0
30.983,-3.234,-0.444,1.0
26.735,-2.785,-0.529,1.0
23.63,-2.457,-0.593,26.0
21.058,-2.186,-0.641,2.0
50.368,-5.226,-0.129,0.0
39.836,-4.125,-0.315,0.0
32.263,-3.334,-0.427,1.0
27.478,-2.834,-0.513,1.0
24.015,-2.471,-0.577,16.0
21.757,-2.234,-0.638,1.0
54.587,-5.604,-0.08,0.0
41.473,-4.249,-0.282,0.0
33.185,-3.392,-0.403,1.0
28.243,-2.881,-0.496,1.0
24.625,-2.506,-0.564,4.0
22.205,-2.255,-0.627,1.0
0.0,0.0,0.0,0.0
0.0,0.0,0.0,0.0
35.077,-3.545,-0.388,0.0
29.1,-2.935,-0.48,1.0
25.625,-2.578,-0.559,1.0
22.754,-2.284,-0.618,1.0
0.0,0.0,0.0,0.0
50.346,-5.042,-0.234,0.0
36.944,-3.691,-0.369,0.0
29.788,-2.969,-0.46,1.0
26.168,-2.602,-0.544,1.0
23.268,-2.308,-0.608,1.0
0.0,0.0,0.0,0.0
50.419,-4.988,-0.182,4.0
39.444,-3.893,-0.353,0.0
30.764,-3.028,-0.443,1.0
26.757,-2.627,-0.528,1.0
23.772,-2.329,-0.597,1.0
0.0,0.0,0.0,0.0
50.44,-4.927,-0.131,6.0
39.908,-3.888,-0.317,0.0
31.955,-3.105,-0.428,1.0
27.47,-2.663,-0.515,1.0
24.411,-2.361,-0.588,1.0
0.0,0.0,0.0,0.0
0.0,0.0,0.0,0.0
41.312,-3.972,-0.287,0.0
32.836,-3.149,-0.407,1.0
28.233,-2.7,-0.501,1.0
24.932,-2.378,-0.576,2.0
90.682,-8.646,0.429,1.0
0.0,0.0,0.0,0.0
0.0,0.0,0.0,0.0
33.959,-3.21,-0.388,0.0
28.881,-2.723,-0.484,1.0
25.383,-2.386,-0.561,1.0
91.149,-8.566,0.52,1.0
0.0,0.0,0.0,0.0
0.0,0.0,0.0,0.0
35.742,-3.33,-0.374,0.0
29.605,-2.75,-0.468,1.0
25.883,-2.397,-0.548,1.0
0.0,0.0,0.0,0.0
0.0,0.0,0.0,0.0
50.433,-4.641,-0.205,2.0
37.576,-3.447,-0.358,0.0
30.166,-2.759,-0.449,1.0
26.417,-2.409,-0.535,1.0
108.941,-9.932,0.825,2.0
0.0,0.0,0.0,0.0
50.429,-4.568,-0.159,7.0
0.0,0.0,0.0,0.0
31.125,-2.802,-0.435,9.0
26.986,-2.421,-0.522,1.0
109.008,-9.778,0.922,1.0
0.0,0.0,0.0,0.0
50.444,-4.494,-0.114,6.0
40.286,-3.578,-0.312,0.0
32.192,-2.849,-0.422,1.0
27.652,-2.44,-0.511,1.0
111.215,-9.809,1.038,4.0
0.0,0.0,0.0,0.0
50.456,-4.419,-0.071,1.0
41.266,-3.601,-0.284,0.0
32.935,-2.864,-0.403,1.0
28.153,-2.44,-0.496,1.0
121.732,-10.546,1.241,150.0
121.833,-10.518,0.585,3.0
0.0,0.0,0.0,0.0
0.0,0.0,0.0,0.0
33.681,-2.877,-0.385,1.0
28.798,-2.451,-0.484,1.0
121.775,-10.36,1.34,18.0
0.0,0.0,0.0,0.0
0.0,0.0,0.0,0.0
0.0,0.0,0.0,0.0
35.086,-2.94,-0.372,0.0
29.361,-2.452,-0.47,1.0
121.996,-10.182,1.44,2.0
0.0,0.0,0.0,0.0
0.0,0.0,0.0,0.0
50.476,-4.165,-0.225,0.0
37.233,-3.061,-0.367,0.0
29.756,-2.437,-0.453,1.0
122.109,-9.994,1.533,54.0
0.0,0.0,0.0,0.0
0.0,0.0,0.0,0.0
50.414,-4.077,-0.187,4.0
37.642,-3.032,-0.343,0.0
30.428,-2.441,-0.441,1.0
128.112,-10.272,1.703,47.0
0.0,0.0,0.0,0.0
0.0,0.0,0.0,0.0
50.459,-3.996,-0.151,6.0
38.381,-3.027,-0.322,0.0
31.081,-2.442,-0.429,1.0
128.149,-10.061,1.792,17.0
0.0,0.0,0.0,0.0
0.0,0.0,0.0,0.0
50.445,-3.911,-0.117,4.0
40.511,-3.127,-0.313,0.0
31.704,-2.437,-0.416,1.0
148.413,-11.399,2.174,150.0
0.0,0.0,0.0,0.0
0.0,0.0,0.0,0.0
0.0,0.0,0.0,0.0
40.342,-3.044,-0.285,0.0
32.467,-2.439,-0.405,1.0
148.513,-11.147,2.272,20.0
0.0,0.0,0.0,0.0
0.0,0.0,0.0,0.0
0.0,0.0,0.0,0.0
41.729,-3.075,-0.269,0.0
32.842,-2.409,-0.389,1.0
0.0,0.0,0.0,0.0
0.0,0.0,0.0,0.0
0.0,0.0,0.0,0.0
61.188,-4.419,-0.027,2.0
0.0,0.0,0.0,0.0
33.699,-2.411,-0.38,0.0
0.0,0.0,0.0,0.0
0.0,0.0,0.0,0.0
0.0,0.0,0.0,0.0
61.654,-4.341,0.006,3.0
0.0,0.0,0.0,0.0
34.631,-2.415,-0.371,1.0
0.0,0.0,0.0,0.0
0.0,0.0,0.0,0.0
0.0,0.0,0.0,0.0
62.085,-4.258,0.039,6.0
0.0,0.0,0.0,0.0
0.0,0.0,0.0,0.0
187.206,-12.693,3.284,41.0
0.0,0.0,0.0,0.0
0.0,0.0,0.0,0.0
62.196,-4.15,0.07,6.0
50.303,-3.339,-0.216,0.0
0.0,0.0,0.0,0.0
187.205,-12.342,3.374,151.0
0.0,0.0,0.0,0.0
0.0,0.0,0.0,0.0
62.364,-4.044,0.1,4.0
50.368,-3.249,-0.193,1.0
37.733,-2.42,-0.35,0.0
187.187,-11.985,3.456,20.0
0.0,0.0,0.0,0.0
0.0,0.0,0.0,0.0
62.54,-3.936,0.126,2.0
50.46,-3.157,-0.172,1.0
37.151,-2.312,-0.329,0.0
0.0,0.0,0.0,0.0
187.368,-11.57,2.515,154.0
0.0,0.0,0.0,0.0
0.0,0.0,0.0,0.0
50.47,-3.062,-0.153,8.0
37.726,-2.275,-0.32,0.0
0.0,0.0,0.0,0.0
0.0,0.0,0.0,0.0
0.0,0.0,0.0,0.0
0.0,0.0,0.0,0.0
50.448,-2.962,-0.135,8.0
38.202,-2.229,-0.31,0.0
0.0,0.0,0.0,0.0
0.0,0.0,0.0,0.0
0.0,0.0,0.0,0.0
0.0,0.0,0.0,0.0
50.44,-2.863,-0.119,1.0
38.871,-2.192,-0.304,0.0
0.0,0.0,0.0,0.0
228.03,-12.746,3.288,33.0
0.0,0.0,0.0,0.0
0.0,0.0,0.0,0.0
50.445,-2.764,-0.105,1.0
39.287,-2.138,-0.296,0.0
0.0,0.0,0.0,0.0
0.0,0.0,0.0,0.0
0.0,0.0,0.0,0.0
50.553,-2.669,-0.093,1.0
0.0,0.0,0.0,0.0
0.0,0.0,0.0,0.0
0.0,0.0,0.0,0.0
0.0,0.0,0.0,0.0
50.505,-2.565,-0.082,4.0
40.064,-2.02,-0.284,0.0
147.132,-7.392,3.029,11.0
146.852,-7.324,2.217,44.0
0.0,0.0,0.0,0.0
0.0,0.0,0.0,0.0
50.582,-2.466,-0.073,3.0
40.755,-1.972,-0.283,0.0
147.283,-7.099,3.055,10.0
147.024,-7.03,2.242,67.0
126.43,-6.0,1.233,2.0
0.0,0.0,0.0,0.0
0.0,0.0,0.0,0.0
41.727,-1.933,-0.284,0.0
0.0,0.0,0.0,0.0
0.0,0.0,0.0,0.0
0.0,0.0,0.0,0.0
0.0,0.0,0.0,0.0
50.516,-2.256,-0.062,0.0
39.881,-1.767,-0.268,0.0
0.0,0.0,0.0,0.0
0.0,0.0,0.0,0.0
0.0,0.0,0.0,0.0
0.0,0.0,0.0,0.0
0.0,0.0,0.0,0.0
0.0,0.0,0.0,0.0
0.0,0.0,0.0,0.0
0.0,0.0,0.0,0.0
0.0,0.0,0.0,0.0
37.804,-1.533,-0.043,22.0
37.798,-1.519,-0.251,150.0
0.0,0.0,0.0,0.0
0.0,0.0,0.0,0.0
126.519,-4.963,1.26,2.0
0.0,0.0,0.0,0.0
40.119,-1.543,-0.047,76.0
40.109,-1.529,-0.268,93.0
0.0,0.0,0.0,0.0
0.0,0.0,0.0,0.0
0.0,0.0,0.0,0.0
0.0,0.0,0.0,0.0
0.0,0.0,0.0,0.0
40.135,-1.447,-0.27,7.0
0.0,0.0,0.0,0.0
0.0,0.0,0.0,0.0
0.0,0.0,0.0,0.0
0.0,0.0,0.0,0.0
58.756,-2.017,-0.077,1.0
39.945,-1.356,-0.273,0.0
0.0,0.0,0.0,0.0
0.0,0.0,0.0,0.0
0.0,0.0,0.0,0.0
0.0,0.0,0.0,0.0
0.0,0.0,0.0,0.0
40.315,-1.284,-0.281,5.0
40.324,-1.274,0.832,24.0
40.342,-1.26,0.609,73.0
0.0,0.0,0.0,0.0
0.0,0.0,0.0,0.0
40.223,-1.212,-0.065,33.0
40.124,-1.194,-0.287,8.0
40.349,-1.191,0.825,4.0
153.906,-4.487,2.294,5.0
40.218,-1.158,0.376,36.0
40.19,-1.142,0.149,51.0
40.281,-1.129,-0.073,67.0
40.595,-1.123,-0.299,15.0
40.22,-1.103,0.813,45.0
40.228,-1.088,0.59,46.0
40.187,-1.072,0.366,46.0
40.213,-1.057,0.139,22.0
40.999,-1.063,-0.084,150.0
40.496,-1.035,-0.308,3.0
40.193,-1.016,0.802,56.0
40.21,-1.002,0.579,60.0
40.29,-0.99,0.356,18.0
40.302,-0.975,0.128,150.0
40.291,-0.96,-0.095,131.0
40.25,-0.944,-0.318,8.0
40.206,-0.932,0.791,59.0
40.315,-0.92,0.568,17.0
40.513,-0.91,0.346,0.0
68.243,-1.508,0.196,0.0
0.0,0.0,0.0,0.0
40.196,-0.859,-0.331,1.0
40.238,-0.849,0.778,56.0
40.228,-0.834,0.553,62.0
40.247,-0.819,0.33,50.0
40.291,-0.806,0.102,40.0
40.343,-0.792,-0.122,11.0
40.164,-0.774,-0.345,0.0
40.189,-0.764,0.762,68.0
40.32,-0.751,0.539,12.0
40.246,-0.735,0.314,46.0
40.262,-0.721,0.086,60.0
40.323,-0.707,-0.138,43.0
35.687,-0.613,-0.321,0.0
0.0,0.0,0.0,0.0
205.347,-3.396,2.663,16.0
91.567,-1.481,0.676,4.0
248.337,-3.927,0.424,90.0
46.26,-0.714,-0.179,1.0
34.637,-0.522,-0.327,1.0
183.389,-2.713,3.319,85.0
148.051,-2.136,1.852,17.0
87.897,-1.237,0.608,5.0
60.871,-0.834,0.075,7.0
45.94,-0.613,-0.199,1.0
33.62,-0.437,-0.333,1.0
79.448,-1.008,1.398,150.0
79.454,-0.979,0.954,156.0
78.641,-0.942,0.505,27.0
60.825,-0.707,0.044,5.0
44.281,-0.498,-0.215,2.0
33.038,-0.36,-0.345,1.0
79.432,-0.842,1.356,194.0
79.451,-0.814,0.912,181.0
77.509,-0.767,0.456,15.0
52.408,-0.499,0.009,5.0
42.25,-0.388,-0.228,5.0
32.628,-0.288,-0.358,1.0
79.448,-0.676,1.312,172.0
79.447,-0.649,0.867,195.0
77.0,-0.602,0.409,10.0
47.103,-0.351,-0.018,3.0
42.224,-0.3,-0.252,11.0
31.875,-0.216,-0.369,1.0
79.458,-0.513,1.264,162.0
79.445,-0.484,0.819,186.0
76.602,-0.44,0.36,6.0
46.551,-0.252,-0.046,21.0
39.365,-0.199,-0.26,4.0
31.111,-0.147,-0.38,1.0
