X,Y,Z,Reflectivity
0.0,0.0,0.0,0.0
0.0,0.0,0.0,0.0
50.499,-2.473,-0.078,8.0
39.579,-1.952,-0.274,0.0
0.0,0.0,0.0,0.0
0.0,0.0,0.0,0.0
0.0,0.0,0.0,0.0
50.615,-2.574,-0.042,1.0
41.998,-2.151,-0.261,0.0
0.0,0.0,0.0,0.0
0.0,0.0,0.0,0.0
0.0,0.0,0.0,0.0
59.46,-3.136,-0.005,6.0
0.0,0.0,0.0,0.0
233.881,-12.536,3.951,63.0
0.0,0.0,0.0,0.0
0.0,0.0,0.0,0.0
0.0,0.0,0.0,0.0
0.0,0.0,0.0,0.0
228.057,-12.641,4.033,159.0
0.0,0.0,0.0,0.0
0.0,0.0,0.0,0.0
60.364,-3.406,0.09,4.0
50.408,-2.861,-0.194,0.0
0.0,0.0,0.0,0.0
0.0,0.0,0.0,0.0
0.0,0.0,0.0,0.0
0.0,0.0,0.0,0.0
62.906,-3.662,0.147,2.0
50.47,-2.956,-0.151,6.0
271.752,-15.955,6.719,150.0
0.0,0.0,0.0,0.0
0.0,0.0,0.0,0.0
0.0,0.0,0.0,0.0
0.0,0.0,0.0,0.0
50.475,-3.045,-0.108,9.0
263.52,-15.939,6.75,113.0
0.0,0.0,0.0,0.0
187.383,-11.451,2.792,255.0
126.285,-7.757,1.194,2.0
0.0,0.0,0.0,0.0
56.927,-3.534,-0.069,1.0
0.0,0.0,0.0,0.0
265.212,-16.588,5.617,32.0
187.236,-11.767,2.964,22.0
0.0,0.0,0.0,0.0
0.0,0.0,0.0,0.0
62.335,-3.976,-0.018,1.0
248.364,-15.878,6.819,255.0
248.223,-15.946,5.489,15.0
187.206,-12.085,3.14,152.0
0.0,0.0,0.0,0.0
0.0,0.0,0.0,0.0
62.241,-4.074,0.04,6.0
237.13,-15.555,6.738,16.0
237.242,-15.633,5.473,38.0
187.185,-12.389,3.319,151.0
0.0,0.0,0.0,0.0
0.0,0.0,0.0,0.0
62.129,-4.169,0.101,3.0
208.824,-14.039,6.138,39.0
228.554,-15.434,5.499,66.0
0.0,0.0,0.0,0.0
0.0,0.0,0.0,0.0
0.0,0.0,0.0,0.0
0.0,0.0,0.0,0.0
208.307,-14.345,6.336,14.0
212.842,-14.719,5.34,67.0
213.018,-14.792,4.21,47.0
155.401,-10.836,2.227,5.0
0.0,0.0,0.0,0.0
0.0,0.0,0.0,0.0
204.812,-14.43,6.446,25.0
204.872,-14.491,5.355,35.0
204.972,-14.556,4.264,21.0
0.0,0.0,0.0,0.0
0.0,0.0,0.0,0.0
0.0,0.0,0.0,0.0
204.853,-14.751,6.664,22.0
220.477,-15.935,5.999,20.0
284.74,-20.659,6.23,16.0
0.0,0.0,0.0,0.0
0.0,0.0,0.0,0.0
0.0,0.0,0.0,0.0
197.062,-14.487,6.624,35.0
208.074,-15.35,5.886,16.0
291.846,-21.611,6.704,21.0
148.599,-11.044,2.607,6.0
148.533,-11.08,1.818,155.0
0.0,0.0,0.0,0.0
197.301,-14.796,6.85,36.0
196.716,-14.801,5.783,58.0
197.006,-14.876,4.745,65.0
148.594,-11.261,2.774,3.0
148.451,-11.291,1.984,135.0
0.0,0.0,0.0,0.0
164.16,-12.547,5.885,44.0
196.75,-15.09,6.009,25.0
214.308,-16.492,5.405,16.0
0.0,0.0,0.0,0.0
0.0,0.0,0.0,0.0
126.292,-9.818,1.162,2.0
165.458,-12.88,6.123,24.0
212.654,-16.606,6.738,28.0
206.587,-16.184,5.447,10.0
284.914,-22.391,5.974,11.0
128.183,-10.106,2.007,194.0
0.0,0.0,0.0,0.0
196.657,-15.578,7.508,15.0
164.506,-13.07,5.405,32.0
204.591,-16.305,5.635,18.0
291.203,-23.278,6.449,16.0
0.0,0.0,0.0,0.0
0.0,0.0,0.0,0.0
163.932,-13.205,6.452,28.0
157.32,-12.708,5.356,34.0
164.919,-13.361,4.741,17.0
202.094,-16.422,4.718,26.0
0.0,0.0,0.0,0.0
122.19,-9.987,1.556,83.0
156.243,-12.788,6.338,18.0
164.293,-13.482,5.792,35.0
165.181,-13.594,4.948,19.0
191.108,-15.771,4.691,17.0
0.0,0.0,0.0,0.0
122.035,-10.128,1.703,57.0
149.849,-12.452,6.261,33.0
163.874,-13.653,5.979,19.0
157.536,-13.159,4.911,45.0
165.037,-13.823,4.253,109.0
165.057,-13.861,3.38,57.0
0.0,0.0,0.0,0.0
158.369,-13.353,6.813,29.0
149.929,-12.674,5.655,37.0
157.376,-13.335,5.102,41.0
189.149,-16.069,5.111,24.0
0.0,0.0,0.0,0.0
0.0,0.0,0.0,0.0
205.304,-17.555,9.094,18.0
165.916,-14.221,6.47,41.0
156.955,-13.485,5.288,48.0
157.396,-13.556,4.454,96.0
157.301,-13.579,3.619,74.0
0.0,0.0,0.0,0.0
166.026,-14.387,7.565,14.0
166.01,-14.416,6.683,32.0
149.773,-13.036,5.237,26.0
189.829,-16.56,5.612,8.0
157.362,-13.759,3.821,35.0
157.352,-13.79,2.988,4.0
148.517,-13.033,6.957,36.0
158.346,-13.923,6.578,29.0
156.935,-13.828,5.687,37.0
149.6,-13.21,4.616,20.0
188.561,-16.687,4.821,46.0
188.554,-16.724,3.823,23.0
147.116,-13.065,7.081,2.0
148.504,-13.214,6.362,32.0
156.838,-13.984,5.889,21.0
188.736,-16.862,6.068,24.0
188.271,-16.854,5.057,44.0
188.237,-16.886,4.06,43.0
147.085,-13.212,7.272,9.0
158.831,-14.293,7.012,7.0
164.088,-14.794,6.376,29.0
188.679,-17.045,6.315,31.0
149.376,-13.521,4.21,31.0
188.098,-17.061,4.309,33.0
106.357,-9.658,5.401,10.0
150.425,-13.684,6.842,13.0
148.584,-13.541,5.971,44.0
188.964,-17.251,6.576,19.0
188.196,-17.212,5.553,30.0
188.785,-17.299,4.574,34.0
108.556,-9.96,5.657,11.0
147.275,-13.534,6.895,26.0
147.874,-13.611,6.139,46.0
148.652,-13.706,5.368,54.0
187.97,-17.36,5.796,43.0
188.278,-17.42,4.812,46.0
106.265,-9.844,5.679,41.0
122.725,-11.386,5.908,28.0
156.39,-14.532,6.701,22.0
148.585,-13.828,5.565,68.0
148.772,-13.867,4.786,57.0
149.41,-13.95,4.018,31.0
106.242,-9.932,5.821,22.0
106.258,-9.948,5.259,51.0
156.411,-14.666,6.913,30.0
204.744,-19.224,7.948,26.0
149.783,-14.085,5.021,40.0
149.172,-14.049,4.213,40.0
108.117,-10.196,6.071,48.0
115.718,-10.926,5.884,22.0
122.88,-11.618,5.597,35.0
204.908,-19.399,8.231,22.0
150.08,-14.228,5.235,13.0
148.925,-14.139,4.407,70.0
106.91,-10.164,6.149,14.0
115.576,-11.0,6.034,24.0
147.732,-14.078,6.929,13.0
150.961,-14.402,6.266,17.0
150.601,-14.387,5.456,11.0
149.462,-14.297,4.625,42.0
116.654,-11.173,6.867,16.0
108.033,-10.359,5.787,41.0
106.507,-10.224,5.141,25.0
123.083,-11.829,5.277,13.0
150.694,-14.498,5.665,41.0
188.051,-18.115,6.077,26.0
107.819,-10.401,6.495,17.0
107.833,-10.412,5.924,47.0
115.622,-11.176,5.74,18.0
123.117,-11.912,5.447,21.0
148.085,-14.343,5.768,30.0
188.42,-18.27,6.344,26.0
99.126,-9.625,6.107,10.0
106.878,-10.387,6.018,17.0
108.012,-10.507,5.509,59.0
106.656,-10.383,4.864,7.0
205.196,-19.997,8.276,9.0
188.929,-18.43,6.62,30.0
99.02,-9.672,6.237,23.0
106.918,-10.452,6.167,6.0
106.473,-10.417,5.576,7.0
106.666,-10.444,5.01,30.0
205.469,-20.136,8.565,10.0
148.208,-14.537,5.393,16.0
99.034,-9.727,6.372,22.0
99.134,-9.744,5.853,30.0
106.852,-10.51,5.742,39.0
106.508,-10.484,5.148,8.0
123.189,-12.134,5.302,25.0
148.182,-14.608,5.595,21.0
84.093,-8.302,5.527,8.0
99.149,-9.794,5.99,31.0
85.412,-8.442,4.706,12.0
106.68,-10.551,5.302,39.0
123.211,-12.193,5.471,25.0
210.053,-20.802,8.216,5.0
84.063,-8.338,5.64,38.0
99.501,-9.874,6.147,14.0
99.171,-9.846,5.6,44.0
106.752,-10.603,5.452,23.0
106.747,-10.609,4.886,46.0
147.891,-14.707,5.986,14.0
83.881,-8.354,5.743,10.0
99.467,-9.91,6.281,19.0
99.273,-9.895,5.741,32.0
116.158,-11.582,6.089,23.0
106.717,-10.645,5.029,43.0
123.258,-12.302,5.155,16.0
82.646,-8.262,5.77,6.0
99.535,-9.953,6.422,15.0
90.616,-9.063,5.364,1.0
99.245,-9.929,5.338,14.0
122.282,-12.239,5.929,29.0
123.194,-12.335,5.32,24.0
82.517,-8.275,5.874,6.0
81.038,-8.128,5.337,3.0
99.447,-9.977,6.021,39.0
99.219,-9.955,5.47,51.0
122.284,-12.273,6.092,15.0
106.725,-10.715,4.751,28.0
97.228,-9.778,7.053,9.0
117.076,-11.774,7.869,5.0
99.415,-9.999,6.152,34.0
99.298,-9.988,5.607,51.0
116.084,-11.678,5.938,21.0
106.689,-10.736,4.89,37.0
84.478,-8.515,6.24,3.0
86.573,-8.725,5.933,1.0
99.412,-10.019,6.285,20.0
99.406,-10.019,5.745,53.0
115.141,-11.605,6.042,11.0
108.104,-10.897,5.099,24.0
84.476,-8.53,6.354,3.0
86.469,-8.73,6.041,4.0
81.553,-8.233,5.264,6.0
99.433,-10.037,5.878,56.0
99.206,-10.014,5.337,16.0
122.37,-12.352,5.934,23.0
91.282,-9.23,6.986,5.0
82.426,-8.333,5.868,8.0
99.343,-10.041,6.543,5.0
99.414,-10.046,6.008,22.0
99.274,-10.031,5.471,48.0
116.106,-11.731,5.782,28.0
96.892,-9.807,7.543,6.0
85.985,-8.7,6.235,3.0
99.3,-10.045,6.67,5.0
99.415,-10.054,6.138,15.0
99.332,-10.043,5.604,47.0
115.923,-11.718,5.924,22.0
97.065,-9.829,7.684,5.0
68.396,-6.923,5.048,2.0
101.401,-10.26,6.943,3.0
99.416,-10.056,6.267,15.0
99.371,-10.048,5.734,47.0
114.97,-11.623,6.023,18.0
89.658,-9.08,7.214,5.0
84.412,-8.544,6.34,2.0
86.465,-8.748,6.031,4.0
81.645,-8.257,5.251,8.0
99.431,-10.051,5.865,46.0
99.2,-10.025,5.322,15.0
84.284,-8.532,6.889,5.0
96.811,-9.795,7.393,5.0
82.359,-8.328,5.848,7.0
89.332,-9.028,5.857,2.0
99.433,-10.044,5.989,33.0
99.235,-10.02,5.446,42.0
68.235,-6.902,5.662,4.0
96.911,-9.797,7.522,5.0
86.115,-8.7,6.222,3.0
97.943,-9.888,6.542,2.0
99.402,-10.03,6.108,24.0
99.298,-10.014,5.572,49.0
76.365,-7.716,6.431,4.0
84.507,-8.532,6.663,2.0
82.125,-8.285,6.035,3.0
105.079,-10.593,7.148,8.0
99.417,-10.016,6.231,29.0
99.412,-10.009,5.699,47.0
68.715,-6.932,5.871,5.0
0.0,0.0,0.0,0.0
68.45,-6.893,5.114,3.0
86.536,-8.707,5.991,2.0
99.448,-9.999,6.353,11.0
99.45,-9.992,5.821,55.0
68.73,-6.919,5.955,8.0
97.144,-9.77,7.895,7.0
96.877,-9.734,7.352,11.0
82.588,-8.291,5.816,5.0
81.403,-8.165,5.297,5.0
99.459,-9.968,5.939,33.0
69.102,-6.938,6.07,9.0
69.646,-6.986,5.743,2.0
96.825,-9.703,7.463,8.0
106.797,-10.692,7.646,13.0
84.09,-8.411,5.569,5.0
99.478,-9.941,6.055,28.0
69.48,-6.956,6.185,7.0
76.26,-7.626,6.378,3.0
84.363,-8.428,6.6,4.0
97.572,-9.736,7.099,7.0
84.036,-8.377,5.663,19.0
99.507,-9.91,6.171,16.0
69.495,-6.934,6.266,3.0
76.299,-7.604,6.468,3.0
98.436,-9.799,7.813,2.0
84.562,-8.409,6.247,8.0
82.951,-8.239,5.683,13.0
99.62,-9.884,6.289,15.0
83.172,-8.268,7.593,2.0
91.018,-9.036,7.817,5.0
84.317,-8.36,6.786,4.0
84.496,-8.368,6.337,3.0
82.743,-8.184,5.76,11.0
99.466,-9.827,6.389,14.0
85.045,-8.418,7.859,3.0
84.099,-8.313,7.316,8.0
83.214,-8.215,6.788,1.0
91.67,-9.037,6.975,4.0
99.625,-9.81,7.042,23.0
99.057,-9.742,6.468,15.0
85.16,-8.392,7.96,6.0
83.778,-8.243,7.377,5.0
69.572,-6.836,5.75,1.0
91.575,-8.985,7.064,5.0
99.506,-9.75,7.137,16.0
98.794,-9.667,6.554,14.0
80.919,-7.934,7.649,3.0
83.667,-8.19,7.455,4.0
81.044,-7.921,6.782,2.0
68.377,-6.673,5.344,2.0
96.612,-9.416,7.028,3.0
80.932,-7.876,5.451,2.0
80.989,-7.897,7.739,4.0
90.045,-8.766,8.114,4.0
96.844,-9.413,8.201,5.0
68.495,-6.647,5.422,1.0
84.626,-8.2,6.241,6.0
99.769,-9.653,6.818,23.0
81.03,-7.855,7.824,6.0
83.115,-8.044,7.572,3.0
96.82,-9.354,8.295,4.0
99.997,-9.645,8.014,10.0
84.641,-8.151,6.324,9.0
84.099,-8.086,5.829,18.0
81.053,-7.808,7.905,8.0
106.69,-10.259,9.824,6.0
85.349,-8.193,7.393,1.0
96.366,-9.234,7.815,8.0
84.718,-8.104,6.411,5.0
98.458,-9.402,6.917,28.0
81.011,-7.752,7.977,8.0
84.366,-8.057,7.848,11.0
96.782,-9.226,8.475,5.0
84.515,-8.042,6.932,8.0
98.071,-9.316,7.51,14.0
84.249,-7.988,5.995,5.0
81.047,-7.7,8.055,7.0
99.757,-9.458,9.37,6.0
99.704,-9.434,8.821,15.0
81.156,-7.664,6.73,1.0
85.927,-8.1,6.657,2.0
86.986,-8.185,6.267,2.0
81.193,-7.654,8.142,10.0
99.804,-9.391,9.462,10.0
98.913,-9.288,8.837,9.0
84.599,-7.928,7.088,1.0
99.876,-9.341,7.823,8.0
86.746,-8.098,6.322,3.0
80.951,-7.571,8.186,13.0
107.718,-10.052,10.304,10.0
98.047,-9.131,8.842,20.0
85.678,-7.963,7.249,13.0
99.048,-9.187,7.84,15.0
84.695,-7.84,6.242,2.0
80.99,-7.51,8.258,8.0
97.722,-9.043,9.427,16.0
98.464,-9.092,8.958,5.0
95.77,-8.824,8.179,16.0
97.079,-8.926,7.76,7.0
84.691,-7.771,6.307,6.0
80.944,-7.44,8.316,12.0
98.451,-9.029,9.573,8.0
98.639,-9.027,9.049,16.0
104.822,-9.57,9.032,10.0
96.991,-8.835,7.828,5.0
84.728,-7.702,6.375,14.0
80.939,-7.371,8.376,5.0
98.713,-8.968,9.673,4.0
96.339,-8.732,8.911,8.0
85.451,-7.727,7.426,6.0
85.711,-7.733,6.979,4.0
84.737,-7.628,6.436,16.0
85.592,-7.719,8.92,3.0
98.376,-8.849,9.711,7.0
83.18,-7.464,7.753,4.0
84.77,-7.588,7.426,9.0
105.495,-9.421,8.663,2.0
84.691,-7.546,6.49,8.0
80.799,-7.211,8.477,5.0
97.589,-8.688,9.699,3.0
99.596,-8.845,9.349,11.0
84.303,-7.468,7.442,7.0
105.933,-9.361,8.769,6.0
84.666,-7.463,6.544,10.0
80.764,-7.132,8.525,4.0
84.833,-7.471,8.487,10.0
99.47,-8.737,9.402,8.0
84.323,-7.387,7.497,7.0
115.672,-10.108,9.647,12.0
84.621,-7.376,6.593,5.0
81.402,-7.107,8.644,0.0
84.844,-7.387,8.54,8.0
96.534,-8.383,9.182,5.0
83.846,-7.262,7.504,3.0
105.654,-9.127,8.873,20.0
97.774,-8.426,7.673,13.0
99.833,-8.616,10.658,5.0
105.557,-9.084,10.685,3.0
105.652,-9.067,10.109,15.0
97.101,-8.311,8.744,5.0
106.567,-9.097,9.008,20.0
84.409,-7.185,6.671,9.0
98.788,-8.422,10.601,2.0
105.576,-8.976,10.743,6.0
105.746,-8.964,10.173,2.0
106.672,-9.016,9.662,17.0
106.348,-8.964,9.045,4.0
96.979,-8.153,7.712,4.0
84.817,-7.141,9.144,4.0
108.139,-9.077,11.057,4.0
106.613,-8.923,10.309,6.0
106.2,-8.862,9.67,8.0
100.871,-8.394,8.626,2.0
105.729,-8.773,8.458,8.0
0.0,0.0,0.0,0.0
99.641,-8.254,10.234,1.0
108.567,-8.966,10.547,2.0
106.078,-8.735,9.705,2.0
98.351,-8.075,8.453,7.0
107.763,-8.822,8.666,4.0
0.0,0.0,0.0,0.0
100.11,-8.181,10.324,4.0
106.9,-8.708,10.429,1.0
105.318,-8.553,9.678,9.0
107.944,-8.74,9.32,6.0
105.949,-8.553,8.561,4.0
0.0,0.0,0.0,0.0
0.0,0.0,0.0,0.0
0.0,0.0,0.0,0.0
105.391,-8.439,9.722,11.0
107.645,-8.592,9.332,4.0
98.559,-7.843,7.998,7.0
0.0,0.0,0.0,0.0
0.0,0.0,0.0,0.0
0.0,0.0,0.0,0.0
108.637,-8.571,10.056,1.0
107.244,-8.434,9.33,3.0
106.467,-8.346,8.671,5.0
0.0,0.0,0.0,0.0
0.0,0.0,0.0,0.0
0.0,0.0,0.0,0.0
0.0,0.0,0.0,0.0
106.053,-8.212,9.256,6.0
108.534,-8.377,8.868,1.0
0.0,0.0,0.0,0.0
0.0,0.0,0.0,0.0
0.0,0.0,0.0,0.0
0.0,0.0,0.0,0.0
108.471,-8.268,9.492,2.0
108.366,-8.233,8.879,5.0
0.0,0.0,0.0,0.0
0.0,0.0,0.0,0.0
0.0,0.0,0.0,0.0
0.0,0.0,0.0,0.0
0.0,0.0,0.0,0.0
108.287,-8.094,8.891,1.0
0.0,0.0,0.0,0.0
0.0,0.0,0.0,0.0
0.0,0.0,0.0,0.0
0.0,0.0,0.0,0.0
0.0,0.0,0.0,0.0
0.0,0.0,0.0,0.0
0.0,0.0,0.0,0.0
0.0,0.0,0.0,0.0
0.0,0.0,0.0,0.0
0.0,0.0,0.0,0.0
0.0,0.0,0.0,0.0
0.0,0.0,0.0,0.0
0.0,0.0,0.0,0.0
0.0,0.0,0.0,0.0
0.0,0.0,0.0,0.0
0.0,0.0,0.0,0.0
0.0,0.0,0.0,0.0
0.0,0.0,0.0,0.0
0.0,0.0,0.0,0.0
0.0,0.0,0.0,0.0
0.0,0.0,0.0,0.0
0.0,0.0,0.0,0.0
0.0,0.0,0.0,0.0
0.0,0.0,0.0,0.0
0.0,0.0,0.0,0.0
0.0,0.0,0.0,0.0
0.0,0.0,0.0,0.0
0.0,0.0,0.0,0.0
0.0,0.0,0.0,0.0
0.0,0.0,0.0,0.0
0.0,0.0,0.0,0.0
0.0,0.0,0.0,0.0
0.0,0.0,0.0,0.0
0.0,0.0,0.0,0.0
0.0,0.0,0.0,0.0
0.0,0.0,0.0,0.0
0.0,0.0,0.0,0.0
0.0,0.0,0.0,0.0
0.0,0.0,0.0,0.0
0.0,0.0,0.0,0.0
0.0,0.0,0.0,0.0
0.0,0.0,0.0,0.0
0.0,0.0,0.0,0.0
0.0,0.0,0.0,0.0
0.0,0.0,0.0,0.0
0.0,0.0,0.0,0.0
0.0,0.0,0.0,0.0
0.0,0.0,0.0,0.0
0.0,0.0,0.0,0.0
0.0,0.0,0.0,0.0
0.0,0.0,0.0,0.0
0.0,0.0,0.0,0.0
0.0,0.0,0.0,0.0
0.0,0.0,0.0,0.0
0.0,0.0,0.0,0.0
0.0,0.0,0.0,0.0
0.0,0.0,0.0,0.0
0.0,0.0,0.0,0.0
0.0,0.0,0.0,0.0
0.0,0.0,0.0,0.0
0.0,0.0,0.0,0.0
0.0,0.0,0.0,0.0
0.0,0.0,0.0,0.0
0.0,0.0,0.0,0.0
0.0,0.0,0.0,0.0
0.0,0.0,0.0,0.0
0.0,0.0,0.0,0.0
0.0,0.0,0.0,0.0
0.0,0.0,0.0,0.0
0.0,0.0,0.0,0.0
0.0,0.0,0.0,0.0
0.0,0.0,0.0,0.0
49.269,-2.894,5.375,0.0
0.0,0.0,0.0,0.0
0.0,0.0,0.0,0.0
0.0,0.0,0.0,0.0
0.0,0.0,0.0,0.0
93.089,-5.345,7.495,1.0
49.374,-2.831,5.367,1.0
0.0,0.0,0.0,0.0
0.0,0.0,0.0,0.0
0.0,0.0,0.0,0.0
0.0,0.0,0.0,0.0
0.0,0.0,0.0,0.0
49.389,-2.764,5.347,2.0
56.592,-3.152,5.802,2.0
0.0,0.0,0.0,0.0
92.295,-5.09,8.4,2.0
0.0,0.0,0.0,0.0
0.0,0.0,0.0,0.0
49.461,-2.698,5.331,3.0
0.0,0.0,0.0,0.0
56.766,-3.066,5.468,1.0
0.0,0.0,0.0,0.0
0.0,0.0,0.0,0.0
92.698,-4.936,7.333,1.0
55.309,-2.939,5.932,5.0
0.0,0.0,0.0,0.0
56.618,-2.979,5.423,3.0
90.782,-4.753,8.167,1.0
93.229,-4.856,7.854,5.0
91.946,-4.767,7.222,0.0
49.462,-2.558,5.276,4.0
92.589,-4.765,9.345,2.0
56.631,-2.9,5.391,7.0
90.731,-4.622,8.108,2.0
92.634,-4.696,7.749,4.0
91.973,-4.639,7.169,3.0
57.251,-2.881,6.071,4.0
92.668,-4.639,9.294,14.0
63.628,-3.168,6.017,2.0
84.018,-4.162,7.455,2.0
92.598,-4.565,7.686,2.0
83.574,-4.098,6.46,9.0
55.043,-2.692,5.801,11.0
55.004,-2.676,5.48,2.0
92.651,-4.484,8.698,7.0
90.37,-4.351,7.957,10.0
92.71,-4.441,7.632,4.0
92.045,-4.385,7.052,4.0
55.083,-2.616,5.766,4.0
90.782,-4.289,8.98,12.0
83.241,-3.912,7.755,8.0
83.868,-3.919,7.324,8.0
92.61,-4.306,7.556,4.0
92.274,-4.268,7.001,1.0
53.491,-2.466,5.559,3.0
57.966,-2.657,5.69,4.0
91.374,-4.166,8.444,6.0
92.678,-4.203,8.023,9.0
90.347,-4.075,7.302,7.0
92.31,-4.142,6.932,3.0
57.126,-2.554,5.892,7.0
55.035,-2.447,5.359,12.0
91.357,-4.038,8.369,6.0
83.29,-3.661,7.142,13.0
92.633,-4.049,7.412,2.0
89.213,-3.879,6.626,2.0
56.62,-2.452,5.792,7.0
54.952,-2.366,5.304,15.0
82.828,-3.546,7.517,9.0
92.421,-3.935,7.846,13.0
83.705,-3.544,6.626,6.0
96.45,-4.061,7.081,4.0
56.647,-2.376,5.745,8.0
57.7,-2.405,5.519,17.0
91.032,-3.772,8.181,7.0
84.169,-3.468,7.071,9.0
92.906,-3.806,7.27,15.0
96.531,-3.932,7.0,3.0
55.235,-2.24,5.551,4.0
57.35,-2.311,5.431,8.0
91.016,-3.646,8.094,16.0
84.247,-3.355,6.998,9.0
83.43,-3.303,6.45,15.0
93.145,-3.666,6.665,6.0
40.533,-1.588,4.034,18.0
57.243,-2.228,5.366,5.0
56.856,-2.2,5.001,5.0
91.378,-3.515,7.5,12.0
83.364,-3.187,6.363,17.0
83.341,-3.168,5.881,9.0
53.308,-2.016,5.252,6.0
57.207,-2.15,5.304,8.0
63.448,-2.369,5.516,4.0
82.973,-3.079,6.726,14.0
83.335,-3.074,6.275,19.0
93.064,-3.413,6.472,16.0
53.231,-1.941,5.188,28.0
40.791,-1.478,3.74,42.0
63.45,-2.285,5.449,5.0
82.905,-2.966,6.632,19.0
83.325,-2.963,6.185,12.0
83.169,-2.938,5.695,12.0
53.123,-1.866,5.12,28.0
40.737,-1.422,3.69,50.0
41.079,-1.424,3.483,10.0
90.151,-3.106,7.113,13.0
83.317,-2.852,6.093,14.0
83.253,-2.831,5.608,11.0
52.934,-1.789,5.042,11.0
40.804,-1.37,3.649,45.0
83.323,-2.779,6.969,4.0
83.081,-2.752,6.46,15.0
83.263,-2.741,5.993,12.0
83.238,-2.723,5.511,11.0
40.663,-1.321,3.826,45.0
40.924,-1.32,3.612,43.0
83.067,-2.664,6.852,13.0
83.082,-2.646,6.363,44.0
83.238,-2.633,5.893,22.0
92.9,-2.919,6.042,19.0
40.68,-1.269,3.778,61.0
40.88,-1.267,3.559,44.0
83.395,-2.566,6.776,10.0
90.706,-2.772,6.835,11.0
90.551,-2.748,6.3,14.0
83.429,-2.514,5.322,68.0
40.778,-1.22,3.736,28.0
40.86,-1.213,3.506,9.0
81.287,-2.398,6.503,2.0
83.546,-2.447,6.191,38.0
90.587,-2.634,6.188,21.0
98.76,-2.852,6.175,18.0
41.021,-1.175,3.705,46.0
63.475,-1.805,5.365,5.0
41.21,-1.163,3.243,14.0
41.346,-1.159,3.01,25.0
129.249,-3.598,8.662,14.0
83.485,-2.307,5.111,20.0
56.95,-1.56,5.069,7.0
54.442,-1.481,4.529,22.0
41.253,-1.114,3.191,30.0
93.461,-2.504,6.679,5.0
129.489,-3.445,8.503,24.0
92.281,-2.437,5.527,42.0
64.18,-1.68,5.626,12.0
41.234,-1.071,3.374,44.0
41.23,-1.063,3.133,60.0
85.727,-2.193,6.009,4.0
97.705,-2.481,6.282,29.0
92.229,-2.324,5.395,32.0
53.936,-1.346,4.652,12.0
41.254,-1.021,3.317,57.0
41.277,-1.014,3.079,15.0
91.706,-2.235,6.298,6.0
129.429,-3.131,8.137,25.0
92.163,-2.212,5.26,32.0
53.99,-1.283,4.578,11.0
41.149,-0.969,3.249,67.0
84.152,-1.968,6.155,19.0
84.296,-1.956,5.667,49.0
91.482,-2.105,5.619,52.0
91.801,-2.095,5.105,38.0
54.115,-1.222,4.509,10.0
41.236,-0.923,3.195,24.0
83.903,-1.864,6.012,38.0
84.155,-1.854,5.532,47.0
91.497,-1.999,5.482,36.0
91.425,-1.981,4.947,29.0
54.193,-1.161,4.433,7.0
41.28,-0.877,3.136,69.0
85.926,-1.811,6.028,32.0
85.133,-1.779,5.467,36.0
101.396,-2.101,5.922,38.0
91.395,-1.877,4.807,41.0
54.22,-1.101,4.352,8.0
41.292,-0.831,3.073,20.0
85.909,-1.714,5.892,38.0
85.167,-1.684,5.336,38.0
101.317,-1.986,5.758,48.0
91.378,-1.775,4.663,45.0
54.221,-1.04,4.266,12.0
94.688,-1.801,6.896,8.0
94.05,-1.772,6.3,2.0
0.0,0.0,0.0,0.0
83.814,-1.551,4.63,39.0
90.938,-1.668,4.495,57.0
63.897,-1.157,4.924,57.0
63.919,-1.146,4.552,10.0
126.301,-2.244,8.257,19.0
126.056,-2.219,7.492,28.0
90.826,-1.584,4.869,18.0
91.054,-1.574,4.353,78.0
63.43,-1.081,4.783,23.0
94.519,-1.596,6.575,5.0
98.688,-1.651,6.29,11.0
84.058,-1.393,4.858,46.0
90.853,-1.491,4.721,60.0
91.395,-1.486,4.219,81.0
63.814,-1.022,4.705,33.0
98.625,-1.565,6.696,17.0
85.414,-1.342,5.3,19.0
83.917,-1.305,4.71,18.0
126.989,-1.956,6.386,9.0
85.77,-1.308,3.814,137.0
63.693,-0.957,4.588,40.0
94.266,-1.401,6.239,61.0
85.412,-1.257,5.154,15.0
83.888,-1.221,4.563,21.0
79.21,-1.141,3.846,156.0
91.055,-1.299,3.891,92.0
82.549,-1.158,5.802,19.0
82.643,-1.148,5.326,77.0
85.438,-1.174,5.006,58.0
83.873,-1.14,4.417,62.0
85.782,-1.155,4.017,112.0
86.016,-1.145,3.526,150.0
63.344,-0.829,4.34,14.0
125.19,-1.621,7.847,28.0
85.453,-1.094,4.856,38.0
83.872,-1.062,4.267,86.0
79.401,-0.995,3.577,127.0
79.392,-0.984,3.114,143.0
86.096,-1.048,5.746,56.0
83.067,-0.999,5.057,45.0
83.574,-0.994,4.6,51.0
83.783,-0.986,4.114,11.0
85.965,-1.0,3.72,53.0
79.423,-0.913,2.973,151.0
90.512,-1.021,5.877,35.0
83.182,-0.928,4.914,30.0
83.709,-0.923,4.456,64.0
0.0,0.0,0.0,0.0
89.539,-0.964,3.711,17.0
79.434,-0.846,2.83,151.0
77.5,-0.809,4.891,45.0
98.279,-1.013,5.626,38.0
98.425,-1.002,5.06,18.0
85.84,-0.863,3.902,150.0
79.422,-0.789,3.147,167.0
79.422,-0.78,2.685,151.0
98.212,-0.944,6.016,51.0
85.469,-0.811,4.735,42.0
79.182,-0.742,3.923,150.0
85.944,-0.795,3.748,112.0
79.421,-0.726,3.0,190.0
79.414,-0.716,2.536,150.0
59.416,-0.524,3.527,5.0
93.768,-0.815,5.017,18.0
79.267,-0.681,3.778,163.0
89.543,-0.758,3.735,26.0
79.41,-0.664,2.849,150.0
79.42,-0.655,2.387,150.0
59.426,-0.478,3.415,87.0
59.467,-0.472,3.069,75.0
0.0,0.0,0.0,0.0
79.421,-0.613,3.16,151.0
79.424,-0.604,2.696,150.0
79.436,-0.596,2.233,151.0
59.445,-0.435,3.3,105.0
59.466,-0.428,2.953,109.0
59.478,-0.422,2.606,99.0
79.405,-0.556,3.006,151.0
79.411,-0.548,2.543,150.0
79.433,-0.54,2.08,158.0
59.452,-0.393,3.185,110.0
59.476,-0.387,2.839,103.0
59.464,-0.381,2.49,95.0
79.409,-0.502,2.852,150.0
79.439,-0.494,2.389,151.0
79.421,-0.486,1.924,168.0
59.459,-0.353,3.068,114.0
59.471,-0.348,2.72,101.0
79.397,-0.457,3.166,50.0
79.409,-0.45,2.695,150.0
79.439,-0.443,2.231,160.0
79.422,-0.435,1.766,175.0
59.461,-0.316,2.949,119.0
59.472,-0.31,2.602,100.0
79.413,-0.407,3.009,150.0
79.421,-0.4,2.535,150.0
79.435,-0.394,2.073,152.0
79.411,-0.387,1.608,247.0
59.465,-0.28,2.83,114.0
59.456,-0.275,2.481,95.0
79.434,-0.361,2.849,150.0
79.424,-0.354,2.376,151.0
79.439,-0.348,1.912,152.0
79.431,-0.342,1.447,255.0
59.459,-0.246,2.709,100.0
79.394,-0.323,3.151,150.0
79.417,-0.316,2.687,150.0
79.425,-0.31,2.214,151.0
79.438,-0.304,1.75,157.0
79.45,-0.298,1.285,151.0
59.462,-0.214,2.586,104.0
79.42,-0.281,2.989,150.0
79.409,-0.275,2.525,150.0
79.428,-0.269,2.052,151.0
79.433,-0.264,1.588,186.0
79.457,-0.259,1.124,151.0
59.443,-0.185,2.464,96.0
79.426,-0.242,2.828,150.0
79.428,-0.237,2.362,150.0
79.441,-0.232,1.89,151.0
79.448,-0.227,1.425,164.0
79.463,-0.222,0.961,151.0
79.42,-0.211,3.129,150.0
79.432,-0.207,2.665,150.0
79.42,-0.201,2.199,150.0
79.439,-0.197,1.728,151.0
79.448,-0.192,1.263,152.0
79.455,-0.187,0.798,151.0
79.439,-0.178,2.966,151.0
79.42,-0.173,2.5,150.0
79.418,-0.169,2.034,151.0
79.442,-0.164,1.562,165.0
79.458,-0.16,1.098,151.0
79.318,-0.156,0.631,40.0
79.422,-0.147,2.8,150.0
79.425,-0.143,2.334,150.0
79.447,-0.139,1.869,151.0
79.445,-0.135,1.395,161.0
79.464,-0.131,0.93,152.0
76.17,-0.122,0.446,18.0
79.431,-0.119,2.63,150.0
79.43,-0.115,2.165,150.0
79.445,-0.112,1.7,151.0
79.452,-0.108,1.227,153.0
79.446,-0.104,0.762,150.0
61.558,-0.078,0.23,10.0
79.433,-0.094,2.462,150.0
79.428,-0.091,1.998,150.0
79.445,-0.088,1.533,174.0
79.447,-0.084,1.06,153.0
79.238,-0.081,0.594,12.0
50.786,-0.05,0.083,3.0
79.429,-0.072,2.297,150.0
79.442,-0.069,1.831,151.0
79.443,-0.066,1.365,166.0
79.457,-0.064,0.891,157.0
76.018,-0.058,0.408,10.0
0.0,0.0,0.0,0.0
79.437,-0.053,2.126,150.0
79.454,-0.05,1.661,151.0
79.451,-0.048,1.195,156.0
79.413,-0.046,0.722,150.0
55.791,-0.03,0.181,28.0
40.892,-0.021,-0.106,16.0
79.438,-0.037,1.957,150.0
79.445,-0.035,1.491,170.0
79.464,-0.033,1.026,158.0
76.328,-0.03,0.531,22.0
47.963,-0.017,0.052,20.0
39.288,-0.013,-0.187,24.0
79.45,-0.023,1.787,151.0
79.454,-0.022,1.322,158.0
79.462,-0.02,0.856,179.0
61.831,-0.014,0.297,20.0
0.0,0.0,0.0,0.0
38.386,-0.007,-0.264,5.0
79.449,-0.013,1.616,151.0
79.464,-0.012,1.15,156.0
79.396,-0.011,0.685,55.0
0.0,0.0,0.0,0.0
40.227,-0.004,-0.128,20.0
33.815,-0.003,-0.305,0.0
79.447,-0.006,1.445,163.0
79.459,-0.005,0.979,170.0
76.154,-0.004,0.493,20.0
0.0,0.0,0.0,0.0
38.973,-0.001,-0.208,14.0
31.623,-0.001,-0.353,1.0
79.458,-0.001,1.274,151.0
79.473,-0.001,0.808,155.0
61.528,-0.001,0.265,10.0
0.0,0.0,0.0,0.0
38.261,0.0,-0.286,2.0
29.95,0.0,-0.4,2.0
79.462,0.0,1.103,151.0
79.336,0.0,0.637,20.0
52.275,0.0,0.113,8.0
39.693,0.0,-0.15,39.0
33.294,0.0,-0.32,1.0
28.692,0.0,-0.444,2.0
79.461,-0.002,0.932,163.0
75.937,-0.002,0.446,12.0
0.0,0.0,0.0,0.0
38.712,-0.001,-0.229,14.0
31.029,-0.001,-0.365,1.0
27.303,-0.001,-0.481,1.0
79.438,-0.006,0.762,150.0
56.034,-0.005,0.209,22.0
41.008,-0.004,-0.086,16.0
37.955,-0.004,-0.306,1.0
29.616,-0.004,-0.412,2.0
26.196,-0.003,-0.518,2.0
76.396,-0.014,0.569,18.0
48.06,-0.009,0.076,7.0
39.472,-0.008,-0.168,30.0
32.72,-0.007,-0.334,1.0
28.244,-0.007,-0.454,2.0
24.87,-0.006,-0.546,1.0
61.806,-0.019,0.327,16.0
0.0,0.0,0.0,0.0
38.473,-0.013,-0.246,7.0
30.587,-0.011,-0.378,2.0
26.912,-0.011,-0.491,2.0
23.757,-0.01,-0.572,2.0
55.37,-0.027,0.174,31.0
40.567,-0.02,-0.109,16.0
36.766,-0.019,-0.314,0.0
29.212,-0.016,-0.423,2.0
25.83,-0.015,-0.526,1.0
22.893,-0.014,-0.6,3.0
47.542,-0.033,0.049,22.0
39.183,-0.028,-0.189,15.0
31.85,-0.024,-0.34,1.0
27.801,-0.022,-0.462,1.0
24.488,-0.02,-0.551,2.0
21.978,-0.019,-0.623,3.0
0.0,0.0,0.0,0.0
38.406,-0.037,-0.268,3.0
30.154,-0.03,-0.386,2.0
26.648,-0.028,-0.5,2.0
23.474,-0.025,-0.578,2.0
21.008,-0.023,-0.64,2.0
40.045,-0.049,-0.129,26.0
33.536,-0.042,-0.304,1.0
29.008,-0.038,-0.433,2.0
25.458,-0.034,-0.531,2.0
22.666,-0.031,-0.605,3.0
20.21,-0.029,-0.658,3.0
39.067,-0.06,-0.207,15.0
31.539,-0.05,-0.351,1.0
27.518,-0.044,-0.468,1.0
24.157,-0.04,-0.555,2.0
21.685,-0.037,-0.624,3.0
19.301,-0.034,-0.669,3.0
38.196,-0.072,-0.282,2.0
29.877,-0.058,-0.395,1.0
26.398,-0.052,-0.504,2.0
23.233,-0.047,-0.582,3.0
20.796,-0.043,-0.642,2.0
18.643,-0.04,-0.685,2.0
32.65,-0.074,-0.309,1.0
28.672,-0.067,-0.439,2.0
25.196,-0.06,-0.533,1.0
22.385,-0.054,-0.606,3.0
19.949,-0.05,-0.657,2.0
18.005,-0.046,-0.699,2.0
31.03,-0.083,-0.358,2.0
27.226,-0.075,-0.473,1.0
24.049,-0.068,-0.559,3.0
21.426,-0.062,-0.625,3.0
19.179,-0.056,-0.672,2.0
17.406,-0.052,-0.712,1.0
29.611,-0.093,-0.403,2.0
26.214,-0.084,-0.51,1.0
23.077,-0.076,-0.583,2.0
20.575,-0.069,-0.643,2.0
18.466,-0.063,-0.685,2.0
16.855,-0.059,-0.724,1.0
28.337,-0.103,-0.443,1.0
24.899,-0.093,-0.535,1.0
22.229,-0.084,-0.607,2.0
19.745,-0.076,-0.657,2.0
17.907,-0.07,-0.701,2.0
16.263,-0.065,-0.732,1.0
27.007,-0.113,-0.478,1.0
23.866,-0.102,-0.561,1.0
21.271,-0.092,-0.625,3.0
19.008,-0.084,-0.671,2.0
17.307,-0.078,-0.712,1.0
15.751,-0.072,-0.741,1.0
26.018,-0.123,-0.512,1.0
22.979,-0.111,-0.587,2.0
20.436,-0.1,-0.641,3.0
18.385,-0.092,-0.686,2.0
16.757,-0.085,-0.723,1.0
15.33,-0.079,-0.752,1.0
24.646,-0.132,-0.534,2.0
22.033,-0.12,-0.606,2.0
19.675,-0.109,-0.656,2.0
17.783,-0.1,-0.699,1.0
16.196,-0.092,-0.732,1.0
14.932,-0.086,-0.762,1.0
23.792,-0.142,-0.563,2.0
21.131,-0.128,-0.624,3.0
18.953,-0.117,-0.67,1.0
17.251,-0.108,-0.712,1.0
15.711,-0.1,-0.741,1.0
14.504,-0.094,-0.769,1.0
22.868,-0.152,-0.586,2.0
20.319,-0.137,-0.64,2.0
18.33,-0.125,-0.684,2.0
16.713,-0.116,-0.723,0.0
15.289,-0.108,-0.751,1.0
14.127,-0.101,-0.777,1.0
22.026,-0.162,-0.608,3.0
19.644,-0.146,-0.657,2.0
17.788,-0.134,-0.698,1.0
16.137,-0.124,-0.729,1.0
14.895,-0.116,-0.761,1.0
13.806,-0.109,-0.786,0.0
21.093,-0.171,-0.622,2.0
18.912,-0.155,-0.668,1.0
17.273,-0.143,-0.711,1.0
15.755,-0.133,-0.742,1.0
14.524,-0.124,-0.769,1.0
13.494,-0.116,-0.794,1.0
20.287,-0.179,-0.637,2.0
18.357,-0.164,-0.683,1.0
16.723,-0.152,-0.72,1.0
15.292,-0.14,-0.75,1.0
14.139,-0.132,-0.776,1.0
13.177,-0.124,-0.8,1.0
19.654,-0.19,-0.654,1.0
17.805,-0.174,-0.696,1.0
16.174,-0.16,-0.727,1.0
14.901,-0.149,-0.758,1.0
13.806,-0.14,-0.783,0.0
12.915,-0.132,-0.808,0.0
18.964,-0.198,-0.666,1.0
17.29,-0.183,-0.708,1.0
15.807,-0.169,-0.739,1.0
14.537,-0.157,-0.766,1.0
13.52,-0.148,-0.792,1.0
12.635,-0.14,-0.814,0.0
18.428,-0.209,-0.681,1.0
16.777,-0.192,-0.718,1.0
15.358,-0.178,-0.747,1.0
14.198,-0.166,-0.774,1.0
13.235,-0.157,-0.799,1.0
12.373,-0.148,-0.82,0.0
17.9,-0.219,-0.693,1.0
16.288,-0.201,-0.726,1.0
15.004,-0.187,-0.756,1.0
13.846,-0.175,-0.78,1.0
12.954,-0.165,-0.805,0.0
12.133,-0.156,-0.825,0.0
17.424,-0.229,-0.706,1.0
15.863,-0.21,-0.735,1.0
14.635,-0.196,-0.763,1.0
13.589,-0.184,-0.79,1.0
12.669,-0.173,-0.81,0.0
11.893,-0.164,-0.83,0.0
16.902,-0.238,-0.714,1.0
15.472,-0.22,-0.744,1.0
14.281,-0.205,-0.77,1.0
13.317,-0.193,-0.797,1.0
12.452,-0.182,-0.818,0.0
11.686,-0.173,-0.836,0.0
16.404,-0.247,-0.721,1.0
15.121,-0.229,-0.753,1.0
13.974,-0.214,-0.777,1.0
13.03,-0.202,-0.802,1.0
12.196,-0.191,-0.822,0.0
11.486,-0.181,-0.841,0.0
15.989,-0.256,-0.73,1.0
14.768,-0.239,-0.76,1.0
13.677,-0.224,-0.784,1.0
12.78,-0.211,-0.808,1.0
11.974,-0.199,-0.827,1.0
11.272,-0.19,-0.845,0.0
15.582,-0.266,-0.738,1.0
14.417,-0.248,-0.766,1.0
13.422,-0.233,-0.791,1.0
12.533,-0.22,-0.813,1.0
11.776,-0.208,-0.833,0.0
11.093,-0.198,-0.849,0.0
15.27,-0.277,-0.748,1.0
14.105,-0.258,-0.773,1.0
13.183,-0.243,-0.799,1.0
12.299,-0.229,-0.818,0.0
11.583,-0.217,-0.838,0.0
10.906,-0.206,-0.853,0.0
14.943,-0.287,-0.756,1.0
13.833,-0.268,-0.78,1.0
12.934,-0.252,-0.804,0.0
12.078,-0.238,-0.822,0.0
11.424,-0.227,-0.844,0.0
10.733,-0.215,-0.856,0.0
14.63,-0.297,-0.762,1.0
13.588,-0.278,-0.787,1.0
12.686,-0.262,-0.808,0.0
11.901,-0.247,-0.829,1.0
11.204,-0.235,-0.846,0.0
10.607,-0.224,-0.862,0.0
14.305,-0.306,-0.767,1.0
13.356,-0.288,-0.794,1.0
12.463,-0.271,-0.813,0.0
11.7,-0.257,-0.833,1.0
11.041,-0.244,-0.85,0.0
10.423,-0.232,-0.863,0.0
14.036,-0.316,-0.774,1.0
13.108,-0.298,-0.799,1.0
12.259,-0.281,-0.818,0.0
11.547,-0.266,-0.839,0.0
10.859,-0.253,-0.852,0.0
10.274,-0.241,-0.866,0.0
13.792,-0.327,-0.78,1.0
12.893,-0.308,-0.804,1.0
12.067,-0.29,-0.823,1.0
11.355,-0.275,-0.841,0.0
10.716,-0.262,-0.856,0.0
10.109,-0.249,-0.867,0.0
13.571,-0.338,-0.787,1.0
12.651,-0.317,-0.807,1.0
11.88,-0.3,-0.827,1.0
11.18,-0.284,-0.844,1.0
10.585,-0.271,-0.861,0.0
9.953,-0.257,-0.867,1.0
13.35,-0.348,-0.793,0.0
12.454,-0.327,-0.812,0.0
11.701,-0.31,-0.83,0.0
11.035,-0.294,-0.848,0.0
10.437,-0.28,-0.863,0.0
9.833,-0.266,-0.87,2.0
13.14,-0.359,-0.798,1.0
12.304,-0.338,-0.819,0.0
11.557,-0.32,-0.836,0.0
10.88,-0.304,-0.851,0.0
10.314,-0.29,-0.867,0.0
9.768,-0.276,-0.878,2.0
12.923,-0.369,-0.802,1.0
12.105,-0.348,-0.821,0.0
11.384,-0.33,-0.838,0.0
10.75,-0.314,-0.855,0.0
10.141,-0.298,-0.866,0.0
9.66,-0.286,-0.881,0.0
12.752,-0.38,-0.808,1.0
11.932,-0.358,-0.825,1.0
11.255,-0.34,-0.843,0.0
10.606,-0.323,-0.857,0.0
10.005,-0.307,-0.867,0.0
9.517,-0.294,-0.88,0.0
12.552,-0.39,-0.811,0.0
11.779,-0.369,-0.829,0.0
11.09,-0.35,-0.844,0.0
10.48,-0.332,-0.86,0.0
9.87,-0.315,-0.867,1.0
9.439,-0.304,-0.884,0.0
12.397,-0.401,-0.816,0.0
11.635,-0.379,-0.833,0.0
10.963,-0.36,-0.848,0.0
10.359,-0.342,-0.862,0.0
9.796,-0.326,-0.872,2.0
9.345,-0.313,-0.886,0.0
12.221,-0.412,-0.818,0.0
11.508,-0.39,-0.837,0.0
10.844,-0.37,-0.851,0.0
10.255,-0.352,-0.865,0.0
9.745,-0.337,-0.878,1.0
9.256,-0.322,-0.888,0.0
12.078,-0.422,-0.822,0.0
11.374,-0.4,-0.84,0.0
10.713,-0.379,-0.852,0.0
10.119,-0.361,-0.865,0.0
9.633,-0.346,-0.879,0.0
9.165,-0.331,-0.889,0.0
11.932,-0.433,-0.825,0.0
11.236,-0.41,-0.841,0.0
10.629,-0.391,-0.857,0.0
9.999,-0.37,-0.865,0.0
9.546,-0.355,-0.881,0.0
9.076,-0.34,-0.89,0.0
11.794,-0.444,-0.828,0.0
11.124,-0.421,-0.845,0.0
10.51,-0.401,-0.858,0.0
9.906,-0.38,-0.867,2.0
9.456,-0.365,-0.883,0.0
8.999,-0.349,-0.892,0.0
11.681,-0.456,-0.831,0.0
11.015,-0.432,-0.847,0.0
10.41,-0.411,-0.861,0.0
9.82,-0.39,-0.87,2.0
9.38,-0.375,-0.885,0.0
8.925,-0.359,-0.893,0.0
11.569,-0.467,-0.834,0.0
10.892,-0.442,-0.848,0.0
10.309,-0.421,-0.862,0.0
9.773,-0.401,-0.875,2.0
9.296,-0.384,-0.886,0.0
8.844,-0.368,-0.894,0.0
11.457,-0.478,-0.837,0.0
10.814,-0.454,-0.852,0.0
10.226,-0.432,-0.864,0.0
9.719,-0.412,-0.878,1.0
9.239,-0.394,-0.888,0.0
8.774,-0.377,-0.894,0.0
11.344,-0.489,-0.838,0.0
10.706,-0.464,-0.853,0.0
10.112,-0.441,-0.863,0.0
9.628,-0.422,-0.879,0.0
9.162,-0.404,-0.889,0.0
8.722,-0.387,-0.896,0.0
11.242,-0.5,-0.84,0.0
10.626,-0.475,-0.855,0.0
9.998,-0.45,-0.862,1.0
9.555,-0.432,-0.88,0.0
9.106,-0.414,-0.891,0.0
8.664,-0.396,-0.898,0.0
11.152,-0.512,-0.842,0.0
10.533,-0.486,-0.856,0.0
9.949,-0.462,-0.866,1.0
9.487,-0.442,-0.881,0.0
9.038,-0.424,-0.891,0.0
8.617,-0.406,-0.899,0.0
11.076,-0.524,-0.845,0.0
10.475,-0.498,-0.859,0.0
9.882,-0.472,-0.867,2.0
9.437,-0.453,-0.883,0.0
8.957,-0.433,-0.89,0.0
8.565,-0.416,-0.9,0.0
11.019,-0.537,-0.848,0.0
10.406,-0.509,-0.861,0.0
9.835,-0.484,-0.87,2.0
9.364,-0.463,-0.883,0.0
8.928,-0.444,-0.893,0.0
8.523,-0.426,-0.901,0.0
10.929,-0.547,-0.849,0.0
10.345,-0.521,-0.862,0.0
9.776,-0.495,-0.871,2.0
9.32,-0.474,-0.884,0.0
8.873,-0.453,-0.893,0.0
8.479,-0.436,-0.902,0.0
10.863,-0.559,-0.85,0.0
10.273,-0.532,-0.863,0.0
9.758,-0.507,-0.875,1.0
9.265,-0.484,-0.885,0.0
8.813,-0.463,-0.892,0.0
8.452,-0.446,-0.904,0.0
10.792,-0.571,-0.851,0.0
10.207,-0.542,-0.863,0.0
9.724,-0.519,-0.877,1.0
9.223,-0.495,-0.886,0.0
8.778,-0.473,-0.893,0.0
8.394,-0.455,-0.902,0.0
10.741,-0.583,-0.853,0.0
10.152,-0.554,-0.864,0.0
9.675,-0.53,-0.878,0.0
9.193,-0.506,-0.888,0.0
8.745,-0.484,-0.894,0.0
8.388,-0.466,-0.906,0.0
10.681,-0.595,-0.853,0.0
10.083,-0.564,-0.862,0.0
9.612,-0.54,-0.877,0.0
9.147,-0.517,-0.887,0.0
8.718,-0.495,-0.896,0.0
8.334,-0.475,-0.904,0.0
10.65,-0.608,-0.855,0.0
10.025,-0.575,-0.862,0.0
9.574,-0.552,-0.878,0.0
9.131,-0.528,-0.89,0.0
8.704,-0.506,-0.898,0.0
8.32,-0.486,-0.906,0.0
10.601,-0.62,-0.855,0.0
9.991,-0.587,-0.863,1.0
9.538,-0.563,-0.878,0.0
9.111,-0.54,-0.891,0.0
8.654,-0.515,-0.896,0.0
8.301,-0.496,-0.907,0.0
10.561,-0.632,-0.856,0.0
9.965,-0.599,-0.864,1.0
9.52,-0.575,-0.879,0.0
9.09,-0.551,-0.892,0.0
8.652,-0.527,-0.898,0.0
8.26,-0.506,-0.905,0.0
10.531,-0.645,-0.857,0.0
9.945,-0.612,-0.865,2.0
9.497,-0.587,-0.88,0.0
9.046,-0.561,-0.891,0.0
8.631,-0.538,-0.899,0.0
8.249,-0.516,-0.906,0.0
10.51,-0.658,-0.858,0.0
9.925,-0.624,-0.866,2.0
9.474,-0.598,-0.88,0.0
9.016,-0.572,-0.89,0.0
8.596,-0.547,-0.897,0.0
8.235,-0.527,-0.906,0.0
10.489,-0.671,-0.858,0.0
9.901,-0.636,-0.866,2.0
9.433,-0.609,-0.878,0.0
8.996,-0.583,-0.889,0.0
8.598,-0.559,-0.899,0.0
8.229,-0.538,-0.907,0.0
10.456,-0.683,-0.857,0.0
9.887,-0.649,-0.866,2.0
9.425,-0.621,-0.879,0.0
8.998,-0.595,-0.891,0.0
8.598,-0.571,-0.9,0.0
8.211,-0.547,-0.906,0.0
10.459,-0.697,-0.859,0.0
9.874,-0.661,-0.867,3.0
9.431,-0.634,-0.881,0.0
9.004,-0.607,-0.893,0.0
8.58,-0.581,-0.899,0.0
8.215,-0.559,-0.907,0.0
10.458,-0.711,-0.86,0.0
9.861,-0.673,-0.866,3.0
9.419,-0.646,-0.88,0.0
8.995,-0.619,-0.892,0.0
8.581,-0.593,-0.9,0.0
8.209,-0.569,-0.907,0.0
10.437,-0.724,-0.859,0.0
9.859,-0.686,-0.866,3.0
9.431,-0.659,-0.882,0.0
8.99,-0.631,-0.892,0.0
8.573,-0.604,-0.899,0.0
8.198,-0.579,-0.906,0.0
10.435,-0.737,-0.859,0.0
9.867,-0.7,-0.867,3.0
9.431,-0.671,-0.882,0.0
8.972,-0.641,-0.89,0.0
8.56,-0.614,-0.897,0.0
8.213,-0.591,-0.907,0.0
10.444,-0.752,-0.859,0.0
9.879,-0.713,-0.868,2.0
9.437,-0.684,-0.882,0.0
8.984,-0.653,-0.891,0.0
8.577,-0.626,-0.899,0.0
8.216,-0.602,-0.907,0.0
10.474,-0.767,-0.86,0.0
9.887,-0.726,-0.867,2.0
9.449,-0.697,-0.882,0.0
8.998,-0.666,-0.891,0.0
8.572,-0.637,-0.897,0.0
8.22,-0.613,-0.906,0.0
10.467,-0.78,-0.858,0.0
9.893,-0.739,-0.867,2.0
9.452,-0.709,-0.881,0.0
9.008,-0.678,-0.891,0.0
8.6,-0.649,-0.899,0.0
8.244,-0.625,-0.908,0.0
10.479,-0.794,-0.858,0.0
9.893,-0.752,-0.865,2.0
9.471,-0.722,-0.881,0.0
9.02,-0.69,-0.89,0.0
8.608,-0.661,-0.898,0.0
8.236,-0.634,-0.905,0.0
10.515,-0.809,-0.858,0.0
9.926,-0.766,-0.866,2.0
9.485,-0.735,-0.88,0.0
9.047,-0.703,-0.891,0.0
8.633,-0.673,-0.898,0.0
8.264,-0.646,-0.906,0.0
10.53,-0.823,-0.857,0.0
9.941,-0.779,-0.864,2.0
9.514,-0.748,-0.88,0.0
9.074,-0.716,-0.891,0.0
8.642,-0.684,-0.897,0.0
8.278,-0.657,-0.905,0.0
10.572,-0.839,-0.857,0.0
9.965,-0.793,-0.863,1.0
9.54,-0.762,-0.88,0.0
9.107,-0.729,-0.891,0.0
8.672,-0.697,-0.897,0.0
8.31,-0.67,-0.906,0.0
10.601,-0.853,-0.856,0.0
10.001,-0.808,-0.863,0.0
9.556,-0.774,-0.878,0.0
9.119,-0.741,-0.889,0.0
8.697,-0.709,-0.896,0.0
8.334,-0.681,-0.906,0.0
10.644,-0.869,-0.856,0.0
10.044,-0.822,-0.863,0.0
9.621,-0.79,-0.88,0.0
9.149,-0.754,-0.889,0.0
8.725,-0.721,-0.896,0.0
8.364,-0.693,-0.905,0.0
10.693,-0.885,-0.855,0.0
10.098,-0.838,-0.863,0.0
9.652,-0.803,-0.879,0.0
9.186,-0.767,-0.888,0.0
8.766,-0.734,-0.896,0.0
8.39,-0.704,-0.904,0.0
10.724,-0.899,-0.853,0.0
10.17,-0.855,-0.865,0.0
9.702,-0.818,-0.879,0.0
9.242,-0.781,-0.889,0.0
8.79,-0.745,-0.894,0.0
8.426,-0.716,-0.904,0.0
10.782,-0.915,-0.852,0.0
10.214,-0.869,-0.864,0.0
9.749,-0.832,-0.878,2.0
9.281,-0.794,-0.888,0.0
8.836,-0.758,-0.894,0.0
8.458,-0.728,-0.903,0.0
10.856,-0.933,-0.852,1.0
10.286,-0.886,-0.864,0.0
9.757,-0.843,-0.873,2.0
9.313,-0.807,-0.886,0.0
8.884,-0.772,-0.894,0.0
8.491,-0.739,-0.902,0.0
10.899,-0.948,-0.849,1.0
10.338,-0.901,-0.863,0.0
9.801,-0.856,-0.872,3.0
9.377,-0.821,-0.887,0.0
8.935,-0.785,-0.894,0.0
8.537,-0.752,-0.901,0.0
10.951,-0.963,-0.847,0.0
10.408,-0.917,-0.862,1.0
9.834,-0.869,-0.868,3.0
9.433,-0.836,-0.886,0.0
8.977,-0.797,-0.893,0.0
8.591,-0.765,-0.902,0.0
11.034,-0.981,-0.846,0.0
10.447,-0.931,-0.858,1.0
9.89,-0.883,-0.867,2.0
9.464,-0.847,-0.883,0.0
9.04,-0.811,-0.893,0.0
8.641,-0.777,-0.901,0.0
11.098,-0.997,-0.844,0.0
10.5,-0.945,-0.856,1.0
9.941,-0.897,-0.865,1.0
9.516,-0.861,-0.881,0.0
9.097,-0.824,-0.892,0.0
8.661,-0.787,-0.897,0.0
11.169,-1.013,-0.841,0.0
10.568,-0.961,-0.854,0.0
10.026,-0.913,-0.865,1.0
9.587,-0.875,-0.88,0.0
9.149,-0.837,-0.89,0.0
8.722,-0.8,-0.897,0.0
11.244,-1.03,-0.838,0.0
10.653,-0.978,-0.852,0.0
10.107,-0.929,-0.864,0.0
9.677,-0.892,-0.881,0.0
9.224,-0.852,-0.89,0.0
8.776,-0.812,-0.895,0.0
11.36,-1.05,-0.838,0.0
10.741,-0.995,-0.851,0.0
10.169,-0.943,-0.861,0.0
9.748,-0.906,-0.88,2.0
9.273,-0.864,-0.888,0.0
8.839,-0.825,-0.895,0.0
11.452,-1.067,-0.836,0.0
10.84,-1.012,-0.85,0.0
10.276,-0.962,-0.862,0.0
9.784,-0.917,-0.875,3.0
9.359,-0.879,-0.888,0.0
8.914,-0.839,-0.895,0.0
11.567,-1.087,-0.834,0.0
10.959,-1.032,-0.85,0.0
10.382,-0.979,-0.862,0.0
9.834,-0.929,-0.871,3.0
9.414,-0.891,-0.885,0.0
9.004,-0.854,-0.896,0.0
11.676,-1.106,-0.832,0.0
11.038,-1.047,-0.846,0.0
10.466,-0.994,-0.86,0.0
9.902,-0.943,-0.868,2.0
9.491,-0.905,-0.884,0.0
9.055,-0.865,-0.893,0.0
11.754,-1.121,-0.827,0.0
11.124,-1.063,-0.843,0.0
10.542,-1.009,-0.856,0.0
9.984,-0.957,-0.866,1.0
9.583,-0.92,-0.883,0.0
9.128,-0.878,-0.891,0.0
11.914,-1.144,-0.827,0.0
11.254,-1.083,-0.842,0.0
10.666,-1.028,-0.856,0.0
10.087,-0.973,-0.865,1.0
9.676,-0.935,-0.883,0.0
9.215,-0.892,-0.891,0.0
12.072,-1.167,-0.826,0.0
11.354,-1.099,-0.839,0.0
10.769,-1.044,-0.854,0.0
10.17,-0.988,-0.862,0.0
9.751,-0.948,-0.88,2.0
9.302,-0.906,-0.89,0.0
12.179,-1.184,-0.822,0.0
11.435,-1.114,-0.833,0.0
10.865,-1.06,-0.85,0.0
10.299,-1.006,-0.863,0.0
9.806,-0.959,-0.875,3.0
9.383,-0.919,-0.888,0.0
12.325,-1.205,-0.819,0.0
11.616,-1.137,-0.835,0.0
10.999,-1.078,-0.85,0.0
10.403,-1.021,-0.861,0.0
9.881,-0.972,-0.871,3.0
9.464,-0.932,-0.886,0.0
12.45,-1.224,-0.814,0.0
11.782,-1.159,-0.834,0.0
11.097,-1.094,-0.846,0.0
10.526,-1.039,-0.86,0.0
9.962,-0.984,-0.868,2.0
9.547,-0.945,-0.883,0.0
12.62,-1.246,-0.812,0.0
11.956,-1.182,-0.834,0.0
11.19,-1.108,-0.841,0.0
10.673,-1.058,-0.86,0.0
10.081,-1.0,-0.867,1.0
9.672,-0.961,-0.884,0.0
12.778,-1.267,-0.808,0.0
12.035,-1.195,-0.826,0.0
11.351,-1.128,-0.84,0.0
10.744,-1.069,-0.854,1.0
10.172,-1.013,-0.864,0.0
9.755,-0.973,-0.881,2.0
12.988,-1.293,-0.807,0.0
12.186,-1.215,-0.823,0.0
11.538,-1.151,-0.841,0.0
10.858,-1.084,-0.851,0.0
10.316,-1.031,-0.864,0.0
9.81,-0.982,-0.875,3.0
13.144,-1.313,-0.802,0.0
12.32,-1.232,-0.818,0.0
11.677,-1.169,-0.838,0.0
10.984,-1.1,-0.848,0.0
10.439,-1.047,-0.862,0.0
9.9,-0.994,-0.871,2.0
13.318,-1.335,-0.797,0.0
12.512,-1.255,-0.816,0.0
11.823,-1.187,-0.835,0.0
11.073,-1.112,-0.842,0.0
10.595,-1.065,-0.863,0.0
9.993,-1.006,-0.868,1.0
13.52,-1.358,-0.794,1.0
12.68,-1.275,-0.812,0.0
11.958,-1.203,-0.83,0.0
11.317,-1.14,-0.847,0.0
10.691,-1.078,-0.858,0.0
10.131,-1.022,-0.867,0.0
13.7,-1.38,-0.788,1.0
12.869,-1.297,-0.809,0.0
12.118,-1.222,-0.827,0.0
11.442,-1.154,-0.843,0.0
10.801,-1.091,-0.854,0.0
10.268,-1.038,-0.866,0.0
13.898,-1.402,-0.782,1.0
13.068,-1.319,-0.806,0.0
12.267,-1.239,-0.822,0.0
11.603,-1.172,-0.84,0.0
10.947,-1.107,-0.852,0.0
10.391,-1.051,-0.864,0.0
14.13,-1.427,-0.778,0.0
13.254,-1.339,-0.8,1.0
12.431,-1.257,-0.817,0.0
11.762,-1.19,-0.837,0.0
11.129,-1.126,-0.852,0.0
10.537,-1.067,-0.863,0.0
14.392,-1.455,-0.775,0.0
13.443,-1.36,-0.795,1.0
12.646,-1.279,-0.815,0.0
11.929,-1.208,-0.834,0.0
11.339,-1.148,-0.853,0.0
10.671,-1.081,-0.86,0.0
14.62,-1.479,-0.768,0.0
13.656,-1.382,-0.79,1.0
12.832,-1.299,-0.811,0.0
12.079,-1.223,-0.829,0.0
11.448,-1.159,-0.847,0.0
10.76,-1.09,-0.854,0.0
14.888,-1.506,-0.764,0.0
13.865,-1.403,-0.785,1.0
13.043,-1.32,-0.808,0.0
12.245,-1.239,-0.825,0.0
11.582,-1.173,-0.842,0.0
10.892,-1.103,-0.85,0.0
15.174,-1.534,-0.759,0.0
14.088,-1.425,-0.779,0.0
13.209,-1.336,-0.801,1.0
12.408,-1.255,-0.82,0.0
11.771,-1.191,-0.841,0.0
11.114,-1.125,-0.853,0.0
15.48,-1.564,-0.754,0.0
14.366,-1.451,-0.776,0.0
13.431,-1.357,-0.797,1.0
12.617,-1.275,-0.817,0.0
11.929,-1.205,-0.836,0.0
11.288,-1.141,-0.851,0.0
15.789,-1.593,-0.748,1.0
14.629,-1.476,-0.771,0.0
13.676,-1.38,-0.793,1.0
12.816,-1.293,-0.813,0.0
12.074,-1.218,-0.83,0.0
11.44,-1.154,-0.848,0.0
16.142,-1.626,-0.744,1.0
14.914,-1.502,-0.766,1.0
13.86,-1.396,-0.786,0.0
13.032,-1.312,-0.809,0.0
12.252,-1.233,-0.826,0.0
11.591,-1.167,-0.843,0.0
16.285,-1.637,-0.729,4.0
15.171,-1.525,-0.76,0.0
14.096,-1.416,-0.781,0.0
13.231,-1.329,-0.804,1.0
12.405,-1.246,-0.82,0.0
11.776,-1.183,-0.841,0.0
16.333,-1.638,-0.709,3.0
15.501,-1.554,-0.755,0.0
14.399,-1.443,-0.778,0.0
13.452,-1.347,-0.8,1.0
12.629,-1.264,-0.818,0.0
11.946,-1.196,-0.837,0.0
16.446,-1.644,-0.692,2.0
15.811,-1.58,-0.749,1.0
14.641,-1.462,-0.771,0.0
13.66,-1.364,-0.794,1.0
12.818,-1.279,-0.813,0.0
12.087,-1.206,-0.831,0.0
17.155,-1.709,-0.699,1.0
16.187,-1.611,-0.745,2.0
14.931,-1.486,-0.767,1.0
13.855,-1.378,-0.786,0.0
13.059,-1.298,-0.81,0.0
12.266,-1.219,-0.826,0.0
17.86,-1.772,-0.704,0.0
16.274,-1.614,-0.727,10.0
15.235,-1.51,-0.762,1.0
14.128,-1.399,-0.782,0.0
13.248,-1.311,-0.804,0.0
12.454,-1.232,-0.822,0.0
18.305,-1.808,-0.696,0.0
16.338,-1.613,-0.708,7.0
15.526,-1.531,-0.755,1.0
14.45,-1.424,-0.781,1.0
13.486,-1.328,-0.8,0.0
12.667,-1.247,-0.819,0.0
18.766,-1.845,-0.688,1.0
16.474,-1.618,-0.691,3.0
15.877,-1.558,-0.75,1.0
14.653,-1.437,-0.772,0.0
13.734,-1.345,-0.796,0.0
12.883,-1.261,-0.815,0.0
19.17,-1.874,-0.677,1.0
17.348,-1.694,-0.704,0.0
16.245,-1.585,-0.745,4.0
14.963,-1.459,-0.767,0.0
13.924,-1.356,-0.788,1.0
13.083,-1.273,-0.81,0.0
19.733,-1.918,-0.67,0.0
17.971,-1.745,-0.705,0.0
16.298,-1.581,-0.726,10.0
15.282,-1.481,-0.763,0.0
14.195,-1.374,-0.784,0.0
13.324,-1.288,-0.806,0.0
20.28,-1.959,-0.661,1.0
18.413,-1.776,-0.697,0.0
16.352,-1.576,-0.706,8.0
15.588,-1.5,-0.757,1.0
14.484,-1.392,-0.78,0.0
13.533,-1.3,-0.8,0.0
20.765,-1.992,-0.649,1.0
18.872,-1.808,-0.689,1.0
16.499,-1.579,-0.69,2.0
15.96,-1.525,-0.753,1.0
14.709,-1.404,-0.772,1.0
13.759,-1.312,-0.795,0.0
21.308,-2.029,-0.637,1.0
19.283,-1.834,-0.678,1.0
17.572,-1.669,-0.711,0.0
16.243,-1.54,-0.745,6.0
15.035,-1.424,-0.769,0.0
13.984,-1.323,-0.789,0.0
21.869,-2.066,-0.624,1.0
19.826,-1.87,-0.671,0.0
18.024,-1.698,-0.705,0.0
16.294,-1.532,-0.725,10.0
15.355,-1.442,-0.764,0.0
14.243,-1.336,-0.785,0.0
22.565,-2.114,-0.613,1.0
20.311,-1.899,-0.659,0.0
18.449,-1.723,-0.696,0.0
16.364,-1.526,-0.706,12.0
15.669,-1.459,-0.759,0.0
14.483,-1.346,-0.778,1.0
23.163,-2.15,-0.599,1.0
20.833,-1.931,-0.649,1.0
18.86,-1.745,-0.687,0.0
16.468,-1.521,-0.688,3.0
16.059,-1.481,-0.756,1.0
14.726,-1.356,-0.772,0.0
23.772,-2.186,-0.583,1.0
21.379,-1.962,-0.637,1.0
19.328,-1.771,-0.678,0.0
17.64,-1.613,-0.714,0.0
16.251,-1.484,-0.744,8.0
15.081,-1.375,-0.77,0.0
24.648,-2.244,-0.572,1.0
21.937,-1.993,-0.625,1.0
19.896,-1.804,-0.672,0.0
18.03,-1.632,-0.706,0.0
16.306,-1.473,-0.724,9.0
15.375,-1.386,-0.765,0.0
25.322,-2.281,-0.554,1.0
22.599,-2.031,-0.613,1.0
20.323,-1.823,-0.659,1.0
18.449,-1.651,-0.698,0.0
16.371,-1.462,-0.706,8.0
15.672,-1.397,-0.759,0.0
26.02,-2.317,-0.535,1.0
23.257,-2.066,-0.601,1.0
20.867,-1.85,-0.649,0.0
18.888,-1.671,-0.69,1.0
16.495,-1.456,-0.689,2.0
16.061,-1.415,-0.757,1.0
26.813,-2.36,-0.516,1.0
23.771,-2.087,-0.583,1.0
21.433,-1.877,-0.639,1.0
19.287,-1.686,-0.679,0.0
17.642,-1.538,-0.715,0.0
16.27,-1.416,-0.745,6.0
27.723,-2.41,-0.498,1.0
24.66,-2.138,-0.574,1.0
21.931,-1.897,-0.626,0.0
19.826,-1.711,-0.673,0.0
18.029,-1.552,-0.707,0.0
16.307,-1.4,-0.726,9.0
28.574,-2.451,-0.478,1.0
25.363,-2.17,-0.558,1.0
22.574,-1.927,-0.616,1.0
20.254,-1.724,-0.662,0.0
18.447,-1.567,-0.701,0.0
16.379,-1.387,-0.709,2.0
29.489,-2.495,-0.456,1.0
25.912,-2.186,-0.538,1.0
23.143,-1.948,-0.602,1.0
20.815,-1.747,-0.654,0.0
18.876,-1.58,-0.693,1.0
16.601,-1.386,-0.698,0.0
30.363,-2.532,-0.432,1.0
26.608,-2.213,-0.519,1.0
23.724,-1.967,-0.588,1.0
21.292,-1.76,-0.643,1.0
19.212,-1.584,-0.682,0.0
17.612,-1.448,-0.718,0.0
31.666,-2.601,-0.411,1.0
27.569,-2.258,-0.504,1.0
24.491,-2.0,-0.577,1.0
21.77,-1.772,-0.631,1.0
19.73,-1.601,-0.676,0.0
17.981,-1.455,-0.712,1.0
32.989,-2.667,-0.388,1.0
28.419,-2.29,-0.485,1.0
25.16,-2.021,-0.563,1.0
22.343,-1.79,-0.62,1.0
20.167,-1.61,-0.667,0.0
18.358,-1.461,-0.705,1.0
34.387,-2.734,-0.364,0.0
29.203,-2.314,-0.464,1.0
25.867,-2.043,-0.548,2.0
22.928,-1.805,-0.61,1.0
20.633,-1.62,-0.658,0.0
18.728,-1.465,-0.697,1.0
37.675,-2.944,-0.354,0.0
29.925,-2.331,-0.44,1.0
26.408,-2.05,-0.529,1.0
23.452,-1.814,-0.596,1.0
21.091,-1.626,-0.648,1.0
19.072,-1.466,-0.687,1.0
0.0,0.0,0.0,0.0
30.949,-2.366,-0.419,1.0
27.063,-2.062,-0.511,1.0
24.056,-1.826,-0.584,1.0
21.565,-1.632,-0.638,1.0
19.437,-1.465,-0.679,0.0
0.0,0.0,0.0,0.0
32.417,-2.431,-0.403,1.0
27.887,-2.084,-0.495,1.0
24.745,-1.842,-0.573,1.0
22.068,-1.637,-0.628,1.0
19.853,-1.468,-0.671,0.0
0.0,0.0,0.0,0.0
33.42,-2.457,-0.378,1.0
28.747,-2.106,-0.478,1.0
25.341,-1.849,-0.559,1.0
22.482,-1.634,-0.616,1.0
20.276,-1.469,-0.663,0.0
0.0,0.0,0.0,0.0
34.81,-2.508,-0.357,0.0
29.388,-2.109,-0.458,1.0
25.867,-1.849,-0.544,1.0
23.13,-1.647,-0.609,1.0
20.678,-1.466,-0.655,0.0
50.47,-3.573,-0.196,2.0
0.0,0.0,0.0,0.0
30.006,-2.106,-0.436,1.0
26.52,-1.854,-0.529,1.0
23.475,-1.634,-0.594,1.0
21.207,-1.47,-0.649,0.0
50.417,-3.49,-0.144,6.0
0.0,0.0,0.0,0.0
30.91,-2.121,-0.418,1.0
27.044,-1.848,-0.512,1.0
24.066,-1.637,-0.584,1.0
21.635,-1.465,-0.64,0.0
50.48,-3.414,-0.093,5.0
40.536,-2.729,-0.291,0.0
32.21,-2.158,-0.403,1.0
27.711,-1.849,-0.497,1.0
24.733,-1.642,-0.576,1.0
22.039,-1.457,-0.631,0.0
0.0,0.0,0.0,0.0
0.0,0.0,0.0,0.0
32.975,-2.156,-0.38,1.0
28.299,-1.841,-0.48,1.0
25.178,-1.631,-0.562,1.0
22.425,-1.445,-0.62,0.0
62.274,-4.006,0.005,2.0
44.541,-2.851,-0.233,0.0
0.0,0.0,0.0,0.0
28.984,-1.837,-0.464,1.0
25.694,-1.62,-0.549,1.0
23.03,-1.445,-0.615,0.0
62.475,-3.912,0.064,6.0
50.454,-3.143,-0.217,0.0
0.0,0.0,0.0,0.0
29.591,-1.825,-0.447,1.0
26.274,-1.612,-0.537,1.0
23.382,-1.427,-0.603,1.0
62.615,-3.814,0.121,3.0
50.435,-3.055,-0.172,4.0
37.99,-2.289,-0.333,0.0
30.252,-1.812,-0.43,1.0
26.717,-1.592,-0.522,2.0
23.525,-1.394,-0.586,4.0
0.0,0.0,0.0,0.0
50.447,-2.967,-0.128,8.0
39.169,-2.29,-0.309,0.0
30.98,-1.801,-0.413,1.0
27.185,-1.572,-0.508,1.0
23.998,-1.38,-0.577,5.0
0.0,0.0,0.0,0.0
58.311,-3.324,-0.098,2.0
40.438,-2.292,-0.285,0.0
31.865,-1.795,-0.398,1.0
27.707,-1.552,-0.495,1.0
24.458,-1.362,-0.568,5.0
0.0,0.0,0.0,0.0
59.043,-3.259,-0.051,4.0
0.0,0.0,0.0,0.0
32.821,-1.79,-0.384,1.0
28.244,-1.53,-0.482,2.0
24.991,-1.346,-0.56,2.0
0.0,0.0,0.0,0.0
59.49,-3.175,-0.005,7.0
0.0,0.0,0.0,0.0
33.697,-1.775,-0.368,1.0
28.722,-1.503,-0.468,7.0
25.565,-1.329,-0.554,1.0
0.0,0.0,0.0,0.0
59.696,-3.075,0.039,4.0
0.0,0.0,0.0,0.0
35.159,-1.786,-0.358,0.0
29.133,-1.47,-0.453,8.0
25.92,-1.299,-0.543,1.0
0.0,0.0,0.0,0.0
60.122,-2.982,0.083,0.0
50.443,-2.485,-0.201,3.0
36.182,-1.77,-0.342,0.0
29.47,-1.431,-0.437,8.0
26.277,-1.267,-0.532,1.0
0.0,0.0,0.0,0.0
0.0,0.0,0.0,0.0
50.413,-2.386,-0.166,2.0
37.181,-1.747,-0.326,0.0
30.105,-1.404,-0.427,2.0
26.615,-1.232,-0.521,1.0
0.0,0.0,0.0,0.0
0.0,0.0,0.0,0.0
50.404,-2.288,-0.133,3.0
37.881,-1.706,-0.308,2.0
30.725,-1.373,-0.416,2.0
27.04,-1.199,-0.512,1.0
0.0,0.0,0.0,0.0
0.0,0.0,0.0,0.0
50.49,-2.194,-0.102,2.0
37.991,-1.637,-0.286,1.0
31.108,-1.33,-0.402,1.0
27.319,-1.158,-0.501,1.0
0.0,0.0,0.0,0.0
0.0,0.0,0.0,0.0
50.54,-2.097,-0.073,0.0
37.766,-1.553,-0.262,47.0
31.757,-1.295,-0.392,1.0
27.732,-1.121,-0.492,1.0
126.505,-5.087,1.254,2.0
0.0,0.0,0.0,0.0
37.81,-1.493,-0.034,21.0
37.779,-1.478,-0.242,84.0
32.127,-1.245,-0.379,1.0
28.002,-1.076,-0.482,2.0
0.0,0.0,0.0,0.0
0.0,0.0,0.0,0.0
40.122,-1.504,-0.015,0.0
40.111,-1.489,-0.236,26.0
32.542,-1.196,-0.368,1.0
28.462,-1.036,-0.476,1.0
126.629,-4.583,1.385,2.0
0.0,0.0,0.0,0.0
0.0,0.0,0.0,0.0
0.0,0.0,0.0,0.0
33.167,-1.152,-0.359,1.0
28.68,-0.986,-0.466,1.0
0.0,0.0,0.0,0.0
0.0,0.0,0.0,0.0
61.259,-2.048,0.033,0.0
45.219,-1.495,-0.225,0.0
33.514,-1.096,-0.349,0.0
28.912,-0.935,-0.458,1.0
40.394,-1.297,0.477,1.0
0.0,0.0,0.0,0.0
0.0,0.0,0.0,0.0
0.0,0.0,0.0,0.0
34.031,-1.042,-0.34,1.0
29.152,-0.882,-0.45,2.0
154.228,-4.633,1.884,3.0
93.055,-2.76,0.63,1.0
40.197,-1.177,0.053,50.0
40.211,-1.162,-0.168,59.0
0.0,0.0,0.0,0.0
29.419,-0.828,-0.443,1.0
40.25,-1.124,0.506,39.0
40.195,-1.108,0.286,61.0
40.186,-1.093,0.067,51.0
40.984,-1.1,-0.158,168.0
35.026,-0.927,-0.326,0.0
29.635,-0.773,-0.437,1.0
40.214,-1.039,0.518,60.0
40.228,-1.025,0.299,37.0
0.0,0.0,0.0,0.0
