X,Y,Z,Reflectivity
0.0,0.0,0.0,0.0
29.933,-0.094,-0.388,2.0
26.567,-0.085,-0.499,2.0
23.369,-0.076,-0.578,1.0
20.861,-0.07,-0.638,2.0
18.693,-0.064,-0.681,2.0
33.32,-0.119,-0.305,1.0
28.885,-0.105,-0.433,2.0
25.382,-0.094,-0.529,1.0
22.445,-0.085,-0.602,2.0
20.012,-0.078,-0.654,2.0
18.109,-0.072,-0.698,2.0
31.229,-0.128,-0.35,1.0
27.505,-0.115,-0.469,1.0
24.296,-0.104,-0.557,1.0
21.552,-0.094,-0.622,3.0
19.224,-0.085,-0.667,2.0
17.477,-0.079,-0.709,1.0
29.786,-0.139,-0.394,2.0
26.373,-0.125,-0.503,2.0
23.258,-0.113,-0.579,1.0
20.678,-0.102,-0.638,3.0
18.56,-0.093,-0.682,2.0
16.938,-0.087,-0.721,1.0
28.609,-0.151,-0.437,2.0
25.092,-0.135,-0.529,1.0
22.292,-0.122,-0.601,2.0
19.856,-0.11,-0.653,2.0
18.001,-0.102,-0.697,2.0
16.353,-0.094,-0.729,1.0
27.174,-0.161,-0.469,2.0
24.081,-0.145,-0.557,2.0
21.414,-0.131,-0.62,3.0
19.161,-0.119,-0.668,1.0
17.413,-0.11,-0.709,1.0
15.865,-0.102,-0.739,1.0
26.207,-0.173,-0.504,2.0
23.18,-0.156,-0.581,2.0
20.57,-0.14,-0.636,2.0
18.477,-0.128,-0.681,2.0
16.873,-0.119,-0.721,1.0
15.417,-0.11,-0.749,1.0
25.006,-0.183,-0.53,1.0
22.263,-0.165,-0.602,2.0
19.847,-0.15,-0.653,2.0
17.945,-0.137,-0.697,1.0
16.298,-0.126,-0.728,1.0
15.034,-0.118,-0.759,1.0
24.05,-0.194,-0.556,2.0
21.345,-0.175,-0.618,2.0
19.164,-0.159,-0.667,1.0
17.414,-0.146,-0.71,1.0
15.879,-0.135,-0.74,1.0
14.638,-0.126,-0.768,1.0
23.142,-0.204,-0.58,2.0
20.492,-0.183,-0.633,2.0
18.49,-0.168,-0.679,1.0
16.842,-0.155,-0.719,1.0
15.43,-0.144,-0.748,1.0
14.239,-0.134,-0.774,1.0
22.227,-0.214,-0.599,1.0
19.863,-0.194,-0.651,2.0
17.96,-0.177,-0.693,1.0
16.312,-0.163,-0.727,1.0
15.044,-0.152,-0.758,1.0
13.913,-0.143,-0.782,1.0
21.372,-0.224,-0.616,2.0
19.171,-0.203,-0.664,1.0
17.458,-0.187,-0.707,1.0
15.886,-0.173,-0.737,1.0
14.661,-0.161,-0.766,1.0
13.593,-0.151,-0.79,1.0
20.58,-0.233,-0.631,1.0
18.559,-0.213,-0.678,1.0
16.92,-0.197,-0.716,1.0
15.432,-0.181,-0.745,1.0
14.295,-0.17,-0.773,1.0
13.324,-0.16,-0.799,1.0
19.904,-0.244,-0.647,1.0
18.011,-0.223,-0.69,1.0
16.389,-0.205,-0.724,1.0
15.091,-0.191,-0.756,1.0
13.966,-0.179,-0.781,1.0
13.029,-0.169,-0.805,0.0
19.262,-0.254,-0.661,1.0
17.532,-0.233,-0.703,1.0
15.953,-0.215,-0.733,1.0
14.703,-0.2,-0.763,1.0
13.649,-0.188,-0.788,0.0
12.744,-0.177,-0.81,0.0
18.692,-0.264,-0.675,2.0
17.014,-0.243,-0.713,1.0
15.551,-0.224,-0.742,1.0
14.351,-0.209,-0.77,1.0
13.391,-0.197,-0.797,1.0
12.489,-0.186,-0.816,0.0
18.139,-0.274,-0.686,1.0
16.531,-0.253,-0.722,0.0
15.211,-0.235,-0.753,1.0
14.018,-0.218,-0.777,1.0
13.099,-0.206,-0.802,0.0
12.261,-0.195,-0.823,0.0
17.675,-0.285,-0.699,1.0
16.092,-0.262,-0.73,1.0
14.841,-0.244,-0.76,1.0
13.73,-0.228,-0.784,1.0
12.835,-0.215,-0.808,1.0
12.01,-0.204,-0.827,1.0
17.235,-0.296,-0.711,1.0
15.681,-0.272,-0.738,1.0
14.503,-0.254,-0.767,1.0
13.463,-0.238,-0.792,1.0
12.574,-0.224,-0.813,0.0
11.805,-0.213,-0.832,0.0
16.706,-0.305,-0.717,1.0
15.322,-0.282,-0.747,1.0
14.153,-0.263,-0.772,1.0
13.216,-0.248,-0.799,1.0
12.352,-0.234,-0.819,0.0
11.594,-0.221,-0.836,0.0
16.35,-0.316,-0.728,1.0
14.975,-0.292,-0.754,1.0
13.89,-0.273,-0.78,1.0
12.953,-0.257,-0.804,1.0
12.13,-0.243,-0.824,0.0
11.436,-0.231,-0.843,0.0
15.901,-0.325,-0.734,1.0
14.679,-0.303,-0.763,1.0
13.604,-0.283,-0.786,1.0
12.716,-0.267,-0.81,1.0
11.916,-0.252,-0.828,1.0
11.238,-0.24,-0.847,0.0
15.517,-0.335,-0.741,1.0
14.331,-0.312,-0.767,1.0
13.375,-0.294,-0.794,1.0
12.49,-0.277,-0.815,0.0
11.723,-0.262,-0.833,1.0
11.054,-0.249,-0.85,0.0
15.211,-0.346,-0.749,1.0
14.053,-0.322,-0.774,1.0
13.132,-0.304,-0.799,1.0
12.297,-0.287,-0.821,1.0
11.553,-0.272,-0.839,0.0
10.884,-0.258,-0.854,0.0
14.916,-0.357,-0.757,1.0
13.801,-0.333,-0.781,1.0
12.904,-0.314,-0.805,0.0
12.068,-0.296,-0.824,0.0
11.366,-0.281,-0.842,0.0
10.733,-0.267,-0.858,0.0
14.6,-0.367,-0.762,1.0
13.58,-0.344,-0.788,1.0
12.662,-0.323,-0.808,1.0
11.862,-0.305,-0.827,1.0
11.193,-0.29,-0.845,0.0
10.581,-0.276,-0.861,0.0
14.308,-0.377,-0.767,1.0
13.356,-0.355,-0.794,1.0
12.472,-0.334,-0.813,1.0
11.702,-0.316,-0.832,1.0
11.057,-0.3,-0.851,0.0
10.447,-0.286,-0.864,0.0
14.045,-0.388,-0.773,1.0
13.122,-0.365,-0.798,1.0
12.306,-0.345,-0.82,1.0
11.542,-0.326,-0.837,0.0
10.888,-0.31,-0.853,0.0
10.285,-0.295,-0.865,0.0
13.832,-0.399,-0.78,1.0
12.911,-0.375,-0.803,1.0
12.101,-0.354,-0.822,0.0
11.369,-0.335,-0.84,0.0
10.738,-0.319,-0.855,0.0
10.141,-0.303,-0.867,0.0
13.611,-0.41,-0.785,1.0
12.738,-0.387,-0.808,1.0
11.927,-0.365,-0.826,0.0
11.234,-0.346,-0.844,0.0
10.621,-0.329,-0.86,0.0
9.986,-0.312,-0.866,0.0
13.401,-0.421,-0.79,0.0
12.53,-0.397,-0.811,0.0
11.753,-0.375,-0.829,0.0
11.089,-0.356,-0.847,0.0
10.482,-0.339,-0.862,0.0
9.878,-0.321,-0.87,1.0
13.209,-0.433,-0.796,1.0
12.359,-0.408,-0.815,0.0
11.609,-0.385,-0.833,0.0
10.949,-0.366,-0.85,0.0
10.379,-0.349,-0.866,0.0
9.782,-0.331,-0.873,2.0
13.042,-0.445,-0.801,1.0
12.188,-0.418,-0.819,0.0
11.448,-0.395,-0.835,0.0
10.811,-0.376,-0.853,0.0
10.224,-0.358,-0.865,0.0
9.722,-0.342,-0.879,1.0
12.841,-0.455,-0.804,1.0
12.051,-0.43,-0.824,1.0
11.346,-0.407,-0.841,0.0
10.685,-0.386,-0.855,0.0
10.081,-0.366,-0.865,0.0
9.586,-0.351,-0.878,0.0
12.652,-0.466,-0.806,0.0
11.888,-0.44,-0.826,1.0
11.208,-0.417,-0.843,0.0
10.578,-0.396,-0.858,0.0
9.975,-0.376,-0.867,1.0
9.524,-0.361,-0.883,0.0
12.51,-0.477,-0.811,0.0
11.751,-0.451,-0.829,0.0
11.092,-0.428,-0.846,0.0
10.475,-0.407,-0.861,0.0
9.875,-0.386,-0.869,2.0
9.412,-0.37,-0.882,0.0
12.366,-0.489,-0.814,0.0
11.618,-0.462,-0.832,0.0
10.964,-0.439,-0.848,0.0
10.37,-0.417,-0.863,0.0
9.797,-0.397,-0.872,2.0
9.355,-0.381,-0.887,0.0
12.237,-0.501,-0.818,0.0
11.515,-0.474,-0.836,0.0
10.846,-0.449,-0.85,0.0
10.24,-0.427,-0.862,0.0
9.767,-0.409,-0.879,2.0
9.253,-0.39,-0.886,0.0
12.102,-0.512,-0.821,1.0
11.409,-0.486,-0.839,0.0
10.747,-0.46,-0.852,0.0
10.15,-0.437,-0.865,0.0
9.684,-0.419,-0.881,0.0
9.19,-0.4,-0.889,0.0
11.981,-0.524,-0.824,1.0
11.287,-0.496,-0.841,0.0
10.649,-0.471,-0.854,0.0
10.048,-0.447,-0.865,0.0
9.586,-0.429,-0.88,0.0
9.112,-0.41,-0.889,0.0
11.85,-0.535,-0.825,0.0
11.181,-0.508,-0.843,0.0
10.573,-0.483,-0.857,0.0
9.951,-0.457,-0.865,1.0
9.505,-0.439,-0.881,0.0
9.063,-0.421,-0.892,0.0
11.744,-0.547,-0.828,0.0
11.091,-0.519,-0.845,0.0
10.482,-0.493,-0.859,0.0
9.887,-0.468,-0.868,2.0
9.428,-0.449,-0.882,0.0
8.995,-0.43,-0.893,0.0
11.654,-0.559,-0.831,0.0
11.02,-0.532,-0.848,0.0
10.421,-0.506,-0.862,0.0
9.819,-0.479,-0.87,2.0
9.369,-0.459,-0.883,0.0
8.926,-0.44,-0.893,0.0
11.572,-0.572,-0.833,0.0
10.939,-0.543,-0.85,0.0
10.343,-0.517,-0.863,0.0
9.774,-0.491,-0.873,2.0
9.31,-0.47,-0.885,0.0
8.872,-0.45,-0.894,0.0
11.489,-0.584,-0.836,0.0
10.864,-0.555,-0.852,0.0
10.257,-0.527,-0.863,0.0
9.745,-0.503,-0.877,1.0
9.258,-0.481,-0.886,0.0
8.804,-0.459,-0.893,0.0
11.393,-0.596,-0.836,0.0
10.79,-0.567,-0.854,0.0
10.195,-0.539,-0.865,0.0
9.686,-0.514,-0.878,0.0
9.218,-0.492,-0.888,0.0
8.756,-0.47,-0.894,0.0
11.326,-0.609,-0.838,0.0
10.699,-0.578,-0.853,0.0
10.093,-0.548,-0.862,0.0
9.626,-0.525,-0.878,0.0
9.156,-0.502,-0.888,0.0
8.704,-0.479,-0.894,0.0
11.271,-0.622,-0.841,0.0
10.654,-0.591,-0.855,0.0
10.039,-0.559,-0.863,0.0
9.562,-0.535,-0.878,0.0
9.116,-0.513,-0.889,0.0
8.693,-0.491,-0.898,0.0
11.215,-0.635,-0.843,0.0
10.609,-0.603,-0.858,0.0
9.984,-0.571,-0.864,1.0
9.524,-0.547,-0.879,0.0
9.087,-0.524,-0.891,0.0
8.642,-0.501,-0.897,0.0
11.141,-0.647,-0.843,0.0
10.551,-0.615,-0.858,0.0
9.943,-0.583,-0.865,2.0
9.475,-0.558,-0.879,0.0
9.05,-0.535,-0.892,0.0
8.603,-0.511,-0.897,0.0
11.1,-0.66,-0.845,0.0
10.507,-0.628,-0.859,0.0
9.904,-0.595,-0.866,2.0
9.444,-0.57,-0.881,0.0
9.005,-0.546,-0.891,0.0
8.602,-0.523,-0.9,0.0
11.05,-0.673,-0.845,0.0
10.472,-0.641,-0.86,0.0
9.862,-0.606,-0.866,2.0
9.416,-0.581,-0.882,0.0
8.978,-0.557,-0.892,0.0
8.575,-0.534,-0.901,0.0
11.019,-0.687,-0.847,0.0
10.43,-0.653,-0.861,0.0
9.838,-0.619,-0.868,2.0
9.393,-0.593,-0.883,0.0
8.952,-0.568,-0.892,0.0
8.549,-0.545,-0.901,0.0
10.988,-0.701,-0.848,0.0
10.395,-0.666,-0.861,0.0
9.817,-0.631,-0.869,2.0
9.37,-0.605,-0.883,0.0
8.932,-0.579,-0.893,0.0
8.53,-0.556,-0.901,0.0
10.939,-0.713,-0.847,0.0
10.378,-0.679,-0.862,0.0
9.802,-0.644,-0.87,3.0
9.359,-0.618,-0.885,0.0
8.893,-0.589,-0.891,0.0
8.521,-0.567,-0.902,0.0
10.915,-0.727,-0.848,0.0
10.37,-0.693,-0.864,0.0
9.79,-0.657,-0.871,3.0
9.318,-0.628,-0.883,0.0
8.897,-0.602,-0.893,0.0
8.511,-0.578,-0.903,0.0
10.906,-0.741,-0.849,0.0
10.328,-0.704,-0.862,0.0
9.778,-0.669,-0.872,3.0
9.31,-0.64,-0.883,0.0
8.88,-0.613,-0.893,0.0
8.486,-0.588,-0.901,0.0
10.892,-0.755,-0.85,0.0
10.321,-0.718,-0.863,0.0
9.78,-0.683,-0.873,2.0
9.322,-0.654,-0.886,0.0
8.888,-0.626,-0.895,0.0
8.485,-0.6,-0.902,0.0
10.878,-0.769,-0.85,0.0
10.301,-0.731,-0.862,0.0
9.777,-0.696,-0.874,2.0
9.313,-0.666,-0.885,0.0
8.863,-0.636,-0.893,0.0
8.481,-0.611,-0.902,0.0
10.886,-0.784,-0.851,0.0
10.316,-0.746,-0.864,0.0
9.766,-0.708,-0.873,2.0
9.312,-0.678,-0.886,0.0
8.867,-0.648,-0.893,0.0
8.484,-0.623,-0.903,0.0
10.888,-0.799,-0.851,0.0
10.301,-0.758,-0.863,0.0
9.764,-0.721,-0.873,2.0
9.312,-0.691,-0.886,0.0
8.863,-0.66,-0.893,0.0
8.486,-0.634,-0.903,0.0
10.883,-0.813,-0.85,0.0
10.308,-0.773,-0.863,0.0
9.77,-0.735,-0.873,2.0
9.298,-0.702,-0.884,0.0
8.859,-0.671,-0.892,0.0
8.495,-0.646,-0.903,0.0
10.88,-0.827,-0.849,0.0
10.324,-0.787,-0.864,0.0
9.785,-0.749,-0.873,2.0
9.325,-0.716,-0.886,0.0
8.879,-0.684,-0.893,0.0
8.509,-0.658,-0.904,0.0
10.9,-0.842,-0.85,0.0
10.341,-0.802,-0.864,0.0
9.772,-0.76,-0.871,2.0
9.322,-0.728,-0.884,0.0
8.893,-0.697,-0.893,0.0
8.504,-0.668,-0.902,0.0
10.912,-0.857,-0.849,0.0
10.341,-0.815,-0.862,0.0
9.783,-0.773,-0.87,2.0
9.341,-0.741,-0.884,0.0
8.91,-0.709,-0.893,0.0
8.527,-0.681,-0.903,0.0
10.922,-0.871,-0.848,0.0
10.362,-0.829,-0.862,0.0
9.795,-0.786,-0.869,3.0
9.381,-0.756,-0.886,0.0
8.926,-0.721,-0.893,0.0
8.539,-0.692,-0.902,0.0
10.962,-0.888,-0.848,0.0
10.388,-0.844,-0.862,0.0
9.812,-0.8,-0.868,3.0
9.387,-0.767,-0.884,0.0
8.953,-0.734,-0.893,0.0
8.543,-0.703,-0.9,0.0
10.996,-0.904,-0.848,0.0
10.416,-0.859,-0.861,0.0
9.837,-0.814,-0.868,3.0
9.406,-0.78,-0.883,0.0
8.958,-0.746,-0.891,0.0
8.565,-0.715,-0.9,0.0
12.272,-1.211,-0.818,0.0
11.621,-1.149,-0.838,0.0
10.951,-1.084,-0.849,0.0
10.373,-1.029,-0.862,0.0
9.852,-0.979,-0.872,3.0
9.428,-0.939,-0.886,0.0
12.425,-1.235,-0.817,0.0
11.748,-1.169,-0.836,0.0
11.048,-1.101,-0.846,0.0
10.462,-1.045,-0.859,0.0
9.908,-0.991,-0.868,2.0
9.508,-0.953,-0.884,0.0
12.544,-1.255,-0.813,0.0
11.873,-1.189,-0.834,0.0
11.152,-1.119,-0.844,0.0
10.595,-1.065,-0.86,0.0
10.018,-1.008,-0.868,1.0
9.594,-0.967,-0.883,0.0
12.691,-1.277,-0.811,0.0
11.984,-1.208,-0.83,0.0
11.341,-1.144,-0.847,0.0
10.681,-1.079,-0.856,0.0
10.123,-1.025,-0.867,0.0
9.714,-0.985,-0.885,1.0
12.822,-1.297,-0.806,0.0
12.078,-1.224,-0.825,0.0
11.405,-1.157,-0.84,0.0
10.745,-1.092,-0.851,0.0
10.214,-1.039,-0.864,0.0
9.769,-0.995,-0.88,2.0
13.01,-1.323,-0.805,0.0
12.231,-1.246,-0.823,0.0
11.527,-1.175,-0.837,0.0
10.855,-1.108,-0.848,0.0
10.347,-1.058,-0.865,0.0
9.824,-1.006,-0.874,3.0
13.179,-1.347,-0.802,1.0
12.314,-1.26,-0.815,0.0
11.686,-1.197,-0.837,0.0
11.064,-1.135,-0.853,0.0
10.439,-1.072,-0.861,0.0
9.902,-1.018,-0.87,2.0
13.343,-1.37,-0.797,1.0
12.539,-1.288,-0.817,0.0
11.822,-1.216,-0.834,0.0
11.164,-1.15,-0.848,0.0
10.548,-1.088,-0.858,0.0
10.016,-1.034,-0.869,1.0
13.526,-1.394,-0.793,1.0
12.686,-1.309,-0.812,0.0
11.952,-1.234,-0.829,0.0
11.307,-1.169,-0.847,0.0
10.629,-1.1,-0.853,0.0
10.124,-1.049,-0.867,0.0
13.711,-1.418,-0.789,1.0
12.834,-1.329,-0.807,0.0
12.104,-1.254,-0.827,0.0
11.435,-1.186,-0.843,0.0
10.81,-1.122,-0.856,0.0
10.242,-1.064,-0.866,0.0
13.91,-1.443,-0.785,1.0
13.028,-1.353,-0.805,0.0
12.257,-1.274,-0.823,0.0
11.547,-1.201,-0.838,0.0
10.981,-1.143,-0.856,0.0
10.343,-1.078,-0.862,0.0
14.095,-1.466,-0.779,0.0
13.214,-1.376,-0.801,0.0
12.402,-1.292,-0.818,0.0
11.716,-1.222,-0.837,0.0
11.12,-1.16,-0.854,0.0
10.455,-1.092,-0.859,0.0
14.341,-1.495,-0.776,0.0
13.41,-1.399,-0.797,0.0
12.602,-1.316,-0.817,0.0
11.874,-1.241,-0.834,0.0
11.226,-1.174,-0.849,0.0
10.621,-1.111,-0.86,0.0
14.554,-1.52,-0.77,1.0
13.609,-1.423,-0.793,0.0
12.752,-1.334,-0.811,0.0
12.029,-1.259,-0.831,0.0
11.362,-1.19,-0.845,0.0
10.784,-1.13,-0.86,0.0
14.772,-1.545,-0.764,0.0
13.8,-1.445,-0.787,1.0
12.931,-1.354,-0.807,0.0
12.181,-1.276,-0.826,0.0
11.512,-1.207,-0.843,0.0
10.939,-1.147,-0.859,0.0
15.058,-1.577,-0.76,0.0
14.011,-1.468,-0.782,1.0
13.131,-1.376,-0.803,0.0
12.321,-1.292,-0.821,0.0
11.686,-1.226,-0.841,0.0
11.057,-1.161,-0.855,0.0
15.366,-1.61,-0.757,0.0
14.262,-1.495,-0.778,0.0
13.346,-1.4,-0.799,0.0
12.55,-1.316,-0.82,0.0
11.833,-1.242,-0.837,0.0
11.206,-1.177,-0.852,0.0
15.661,-1.642,-0.751,1.0
14.516,-1.522,-0.774,1.0
13.565,-1.422,-0.795,1.0
12.709,-1.333,-0.814,0.0
12.003,-1.259,-0.833,0.0
11.352,-1.192,-0.849,0.0
15.969,-1.674,-0.746,1.0
14.723,-1.543,-0.766,0.0
13.751,-1.442,-0.789,1.0
12.89,-1.351,-0.81,0.0
12.157,-1.275,-0.828,0.0
11.501,-1.206,-0.845,0.0
16.241,-1.701,-0.738,1.0
15.042,-1.575,-0.764,0.0
13.976,-1.464,-0.784,1.0
13.108,-1.373,-0.806,0.0
12.307,-1.289,-0.823,0.0
11.654,-1.221,-0.841,0.0
16.287,-1.704,-0.719,1.0
15.337,-1.605,-0.759,0.0
14.236,-1.489,-0.78,0.0
13.309,-1.392,-0.801,0.0
12.525,-1.31,-0.821,0.0
11.826,-1.237,-0.838,0.0
16.356,-1.709,-0.701,0.0
15.636,-1.633,-0.753,1.0
14.487,-1.513,-0.775,0.0
13.513,-1.411,-0.796,1.0
12.702,-1.326,-0.816,0.0
11.974,-1.25,-0.833,0.0
16.866,-1.759,-0.701,0.0
15.966,-1.664,-0.748,1.0
14.719,-1.534,-0.768,0.0
13.74,-1.432,-0.791,1.0
12.89,-1.343,-0.811,0.0
12.159,-1.267,-0.83,0.0
17.667,-1.838,-0.711,0.0
16.234,-1.688,-0.74,2.0
15.03,-1.562,-0.764,0.0
13.97,-1.452,-0.786,1.0
13.125,-1.364,-0.808,0.0
12.318,-1.279,-0.824,0.0
17.992,-1.866,-0.701,0.0
16.29,-1.689,-0.72,2.0
15.339,-1.59,-0.76,0.0
14.22,-1.473,-0.781,0.0
13.349,-1.383,-0.804,0.0
12.544,-1.299,-0.823,0.0
18.47,-1.91,-0.695,1.0
16.369,-1.692,-0.702,0.0
15.631,-1.615,-0.754,1.0
14.512,-1.498,-0.778,1.0
13.545,-1.398,-0.798,1.0
12.722,-1.312,-0.817,0.0
18.901,-1.947,-0.686,1.0
16.924,-1.742,-0.703,0.0
16.002,-1.646,-0.75,1.0
14.721,-1.514,-0.77,1.0
13.768,-1.415,-0.793,0.0
12.914,-1.326,-0.812,0.0
19.331,-1.983,-0.676,1.0
17.708,-1.815,-0.713,0.0
16.255,-1.665,-0.74,2.0
15.061,-1.542,-0.767,1.0
13.996,-1.432,-0.787,0.0
13.151,-1.345,-0.81,1.0
20.196,-2.062,-0.679,3.0
18.041,-1.841,-0.702,0.0
16.295,-1.661,-0.72,1.0
15.345,-1.563,-0.761,0.0
14.25,-1.451,-0.783,0.0
13.346,-1.358,-0.804,1.0
20.441,-2.077,-0.66,11.0
18.463,-1.874,-0.694,0.0
16.377,-1.661,-0.702,0.0
15.641,-1.585,-0.755,1.0
14.516,-1.47,-0.778,0.0
13.573,-1.373,-0.799,1.0
20.665,-2.088,-0.64,5.0
18.917,-1.909,-0.686,1.0
16.956,-1.71,-0.705,0.0
15.997,-1.611,-0.751,1.0
14.794,-1.489,-0.773,0.0
13.777,-1.385,-0.793,0.0
21.417,-2.151,-0.635,1.0
19.386,-1.945,-0.677,0.0
17.739,-1.778,-0.714,0.0
16.257,-1.627,-0.742,4.0
15.06,-1.506,-0.767,0.0
14.018,-1.4,-0.788,0.0
22.005,-2.196,-0.623,1.0
20.043,-1.998,-0.674,1.0
18.133,-1.805,-0.705,0.0
16.302,-1.621,-0.722,7.0
15.355,-1.525,-0.761,1.0
14.29,-1.417,-0.784,0.0
22.633,-2.243,-0.611,1.0
20.528,-2.031,-0.662,3.0
18.513,-1.83,-0.695,0.0
16.366,-1.615,-0.703,6.0
15.682,-1.546,-0.757,1.0
14.537,-1.431,-0.779,0.0
23.248,-2.287,-0.597,1.0
20.797,-2.042,-0.644,2.0
18.945,-1.858,-0.687,1.0
16.626,-1.628,-0.692,2.0
16.066,-1.571,-0.754,1.0
14.792,-1.445,-0.773,0.0
23.978,-2.34,-0.584,1.0
21.518,-2.096,-0.638,1.0
19.434,-1.89,-0.679,0.0
17.712,-1.72,-0.715,0.0
16.274,-1.578,-0.743,8.0
15.076,-1.46,-0.768,0.0
24.731,-2.393,-0.57,2.0
21.989,-2.124,-0.623,1.0
19.917,-1.921,-0.67,0.0
18.074,-1.74,-0.706,0.0
16.309,-1.568,-0.723,10.0
15.371,-1.475,-0.763,0.0
25.37,-2.433,-0.552,1.0
22.633,-2.166,-0.612,1.0
20.418,-1.951,-0.66,1.0
18.478,-1.762,-0.697,0.0
16.374,-1.559,-0.705,7.0
15.64,-1.487,-0.756,1.0
26.152,-2.484,-0.535,1.0
23.267,-2.206,-0.6,1.0
20.902,-1.978,-0.649,1.0
18.904,-1.785,-0.689,1.0
16.537,-1.559,-0.691,2.0
16.088,-1.514,-0.757,2.0
26.884,-2.527,-0.516,1.0
23.841,-2.237,-0.584,1.0
21.369,-2.001,-0.636,1.0
19.329,-1.807,-0.68,1.0
17.682,-1.649,-0.716,0.0
16.247,-1.513,-0.744,9.0
27.775,-2.584,-0.498,1.0
24.735,-2.296,-0.574,1.0
21.956,-2.034,-0.626,1.0
19.845,-1.835,-0.673,0.0
18.04,-1.664,-0.707,0.0
16.319,-1.503,-0.726,11.0
28.793,-2.649,-0.48,1.0
25.37,-2.328,-0.557,1.0
22.598,-2.07,-0.616,1.0
20.328,-1.857,-0.664,1.0
18.454,-1.683,-0.7,0.0
16.37,-1.489,-0.708,9.0
29.553,-2.686,-0.456,1.0
25.944,-2.353,-0.537,1.0
23.199,-2.099,-0.603,1.0
20.809,-1.878,-0.654,1.0
18.856,-1.698,-0.692,1.0
16.469,-1.48,-0.692,3.0
31.06,-2.788,-0.441,9.0
26.776,-2.398,-0.522,1.0
23.729,-2.12,-0.588,1.0
21.304,-1.899,-0.643,1.0
19.341,-1.72,-0.686,1.0
17.484,-1.551,-0.713,0.0
31.855,-2.823,-0.413,1.0
27.55,-2.435,-0.503,1.0
24.447,-2.155,-0.576,1.0
21.804,-1.917,-0.632,1.0
19.712,-1.729,-0.676,0.0
17.952,-1.571,-0.711,0.0
33.204,-2.903,-0.391,1.0
28.447,-2.48,-0.486,1.0
25.173,-2.189,-0.563,1.0
22.348,-1.938,-0.621,1.0
20.195,-1.746,-0.668,0.0
18.34,-1.582,-0.704,0.0
34.726,-2.993,-0.367,0.0
29.263,-2.515,-0.465,1.0
25.748,-2.206,-0.546,1.0
22.896,-1.957,-0.609,1.0
20.616,-1.757,-0.658,0.0
18.68,-1.587,-0.696,1.0
37.028,-3.144,-0.349,0.0
30.017,-2.541,-0.442,1.0
26.33,-2.222,-0.528,1.0
23.408,-1.97,-0.596,1.0
21.09,-1.77,-0.649,1.0
19.054,-1.594,-0.688,1.0
38.785,-3.242,-0.321,0.0
31.29,-2.607,-0.425,1.0
27.192,-2.259,-0.514,1.0
24.044,-1.991,-0.584,1.0
21.531,-1.778,-0.638,1.0
19.438,-1.6,-0.679,0.0
40.578,-3.337,-0.29,0.0
32.462,-2.661,-0.404,1.0
28.004,-2.288,-0.498,1.0
24.762,-2.017,-0.574,1.0
22.038,-1.789,-0.628,1.0
19.906,-1.611,-0.673,0.0
0.0,0.0,0.0,0.0
33.789,-2.723,-0.383,1.0
28.693,-2.304,-0.478,1.0
25.369,-2.03,-0.56,1.0
22.562,-1.8,-0.618,1.0
20.32,-1.616,-0.665,1.0
45.641,-3.625,-0.226,0.0
35.416,-2.803,-0.364,0.0
29.487,-2.326,-0.46,1.0
25.981,-2.042,-0.546,2.0
23.013,-1.803,-0.606,1.0
20.746,-1.619,-0.657,0.0
50.487,-3.937,-0.197,1.0
36.25,-2.816,-0.334,0.0
30.115,-2.331,-0.438,1.0
26.446,-2.039,-0.528,1.0
23.492,-1.805,-0.594,1.0
21.184,-1.622,-0.649,1.0
50.467,-3.859,-0.143,1.0
39.659,-3.021,-0.324,0.0
31.291,-2.375,-0.422,1.0
27.05,-2.045,-0.512,1.0
24.1,-1.815,-0.584,1.0
21.59,-1.62,-0.639,1.0
50.519,-3.786,-0.092,1.0
0.0,0.0,0.0,0.0
32.348,-2.405,-0.404,1.0
27.711,-2.052,-0.497,1.0
24.726,-1.824,-0.575,1.0
22.035,-1.619,-0.63,1.0
61.504,-4.513,-0.051,0.0
0.0,0.0,0.0,0.0
32.6,-2.372,-0.374,0.0
28.501,-2.065,-0.482,1.0
25.256,-1.822,-0.562,1.0
22.467,-1.615,-0.62,1.0
61.185,-4.39,0.009,4.0
0.0,0.0,0.0,0.0
34.57,-2.46,-0.364,0.0
29.144,-2.064,-0.465,1.0
25.753,-1.816,-0.549,1.0
22.985,-1.615,-0.613,1.0
62.087,-4.355,0.067,5.0
50.372,-3.517,-0.214,1.0
0.0,0.0,0.0,0.0
29.766,-2.06,-0.447,1.0
26.293,-1.811,-0.536,1.0
23.367,-1.603,-0.601,1.0
62.266,-4.265,0.125,3.0
50.468,-3.44,-0.168,4.0
37.944,-2.574,-0.329,0.0
30.394,-2.052,-0.429,1.0
26.889,-1.807,-0.524,1.0
23.789,-1.591,-0.591,1.0
0.0,0.0,0.0,0.0
50.371,-3.348,-0.123,1.0
0.0,0.0,0.0,0.0
31.391,-2.066,-0.416,1.0
27.32,-1.79,-0.508,2.0
24.3,-1.584,-0.582,1.0
0.0,0.0,0.0,0.0
50.558,-3.273,-0.08,0.0
40.502,-2.609,-0.281,0.0
32.253,-2.068,-0.4,1.0
27.813,-1.774,-0.494,2.0
24.845,-1.576,-0.575,1.0
0.0,0.0,0.0,0.0
56.959,-3.588,-0.043,0.0
41.712,-2.614,-0.255,0.0
32.831,-2.046,-0.38,1.0
28.418,-1.761,-0.481,2.0
25.209,-1.554,-0.562,1.0
0.0,0.0,0.0,0.0
59.878,-3.664,0.003,2.0
0.0,0.0,0.0,0.0
34.279,-2.075,-0.369,1.0
28.876,-1.738,-0.466,1.0
25.62,-1.534,-0.551,1.0
0.0,0.0,0.0,0.0
59.546,-3.536,0.049,5.0
0.0,0.0,0.0,0.0
34.967,-2.053,-0.35,0.0
29.414,-1.717,-0.453,1.0
26.078,-1.513,-0.542,2.0
0.0,0.0,0.0,0.0
62.923,-3.621,0.098,2.0
50.484,-2.888,-0.192,0.0
37.376,-2.125,-0.347,0.0
29.851,-1.687,-0.438,1.0
26.46,-1.487,-0.53,2.0
0.0,0.0,0.0,0.0
62.981,-3.507,0.143,3.0
50.428,-2.79,-0.156,2.0
38.028,-2.091,-0.326,0.0
30.28,-1.655,-0.423,1.0
26.783,-1.454,-0.518,1.0
0.0,0.0,0.0,0.0
0.0,0.0,0.0,0.0
50.435,-2.696,-0.122,2.0
0.0,0.0,0.0,0.0
31.082,-1.64,-0.414,1.0
27.531,-1.443,-0.515,3.0
0.0,0.0,0.0,0.0
0.0,0.0,0.0,0.0
50.45,-2.601,-0.09,5.0
40.387,-2.067,-0.294,0.0
31.811,-1.618,-0.403,1.0
27.983,-1.413,-0.506,7.0
0.0,0.0,0.0,0.0
0.0,0.0,0.0,0.0
50.53,-2.507,-0.059,2.0
41.928,-2.065,-0.28,0.0
32.658,-1.597,-0.394,2.0
28.244,-1.371,-0.494,7.0
0.0,0.0,0.0,0.0
0.0,0.0,0.0,0.0
0.0,0.0,0.0,0.0
0.0,0.0,0.0,0.0
33.457,-1.57,-0.385,10.0
28.445,-1.325,-0.481,1.0
0.0,0.0,0.0,0.0
0.0,0.0,0.0,0.0
0.0,0.0,0.0,0.0
0.0,0.0,0.0,0.0
33.654,-1.513,-0.369,4.0
28.744,-1.282,-0.471,2.0
0.0,0.0,0.0,0.0
0.0,0.0,0.0,0.0
0.0,0.0,0.0,0.0
0.0,0.0,0.0,0.0
35.144,-1.51,-0.368,0.0
28.88,-1.231,-0.459,2.0
0.0,0.0,0.0,0.0
0.0,0.0,0.0,0.0
0.0,0.0,0.0,0.0
37.761,-1.56,-0.173,66.0
37.66,-1.542,-0.377,1.0
29.297,-1.189,-0.452,1.0
0.0,0.0,0.0,0.0
0.0,0.0,0.0,0.0
0.0,0.0,0.0,0.0
37.81,-1.485,-0.157,155.0
37.674,-1.465,-0.361,4.0
29.54,-1.139,-0.444,2.0
0.0,0.0,0.0,0.0
0.0,0.0,0.0,0.0
0.0,0.0,0.0,0.0
40.127,-1.493,-0.151,28.0
37.021,-1.365,-0.34,0.0
29.721,-1.085,-0.435,1.0
0.0,0.0,0.0,0.0
0.0,0.0,0.0,0.0
0.0,0.0,0.0,0.0
0.0,0.0,0.0,0.0
37.323,-1.299,-0.33,0.0
29.952,-1.031,-0.428,1.0
0.0,0.0,0.0,0.0
0.0,0.0,0.0,0.0
0.0,0.0,0.0,0.0
0.0,0.0,0.0,0.0
38.4,-1.257,-0.327,0.0
30.179,-0.977,-0.422,1.0
40.352,-1.298,0.551,26.0
0.0,0.0,0.0,0.0
0.0,0.0,0.0,0.0
0.0,0.0,0.0,0.0
40.207,-1.234,-0.331,1.0
30.308,-0.918,-0.415,1.0
124.034,-3.73,1.729,38.0
0.0,0.0,0.0,0.0
40.21,-1.179,0.121,42.0
40.199,-1.164,-0.102,61.0
40.032,-1.145,-0.32,2.0
30.373,-0.857,-0.409,1.0
40.273,-1.126,0.57,33.0
40.19,-1.109,0.35,60.0
40.199,-1.094,0.13,44.0
40.976,-1.1,-0.095,170.0
40.453,-1.072,-0.315,15.0
30.574,-0.799,-0.405,1.0
40.217,-1.04,0.578,60.0
40.21,-1.025,0.357,44.0
40.209,-1.01,0.137,0.0
40.33,-0.998,-0.086,1.0
40.249,-0.981,-0.306,14.0
30.794,-0.739,-0.403,1.0
40.32,-0.957,0.585,105.0
40.301,-0.942,0.364,100.0
40.296,-0.927,0.143,44.0
40.268,-0.911,-0.08,1.0
40.215,-0.895,-0.301,4.0
30.746,-0.673,-0.398,1.0
40.243,-0.869,0.589,54.0
40.262,-0.854,0.369,33.0
0.0,0.0,0.0,0.0
56.442,-1.157,-0.107,0.0
40.164,-0.809,-0.296,4.0
30.793,-0.609,-0.396,1.0
40.264,-0.784,0.593,42.0
40.241,-0.768,0.372,50.0
40.269,-0.755,0.151,56.0
40.287,-0.74,-0.074,67.0
40.18,-0.723,-0.294,8.0
30.765,-0.542,-0.394,1.0
205.415,-3.563,3.038,71.0
123.873,-2.103,1.15,5.0
40.257,-0.669,0.152,0.0
51.579,-0.838,-0.093,0.0
0.0,0.0,0.0,0.0
30.938,-0.48,-0.396,1.0
205.376,-3.126,3.039,30.0
87.841,-1.305,0.816,1.0
0.0,0.0,0.0,0.0
51.715,-0.73,-0.093,2.0
42.114,-0.579,-0.308,1.0
30.669,-0.41,-0.393,1.0
79.438,-1.038,1.173,151.0
80.009,-1.016,0.741,1.0
0.0,0.0,0.0,0.0
54.467,-0.653,-0.101,4.0
38.476,-0.447,-0.283,1.0
30.66,-0.344,-0.395,2.0
79.447,-0.869,1.168,181.0
79.457,-0.84,0.73,158.0
0.0,0.0,0.0,0.0
50.815,-0.5,-0.098,12.0
42.119,-0.399,-0.314,1.0
30.599,-0.279,-0.397,1.0
79.455,-0.699,1.16,184.0
79.476,-0.67,0.721,152.0
61.512,-0.497,0.219,10.0
46.261,-0.357,-0.095,6.0
42.086,-0.309,-0.319,2.0
30.571,-0.214,-0.4,2.0
79.456,-0.53,1.149,161.0
79.462,-0.501,0.71,171.0
61.249,-0.364,0.208,16.0
46.036,-0.256,-0.102,5.0
39.354,-0.205,-0.304,1.0
30.327,-0.147,-0.402,1.0
79.454,-0.359,1.135,151.0
79.436,-0.331,0.695,150.0
61.257,-0.233,0.197,10.0
42.244,-0.146,-0.101,17.0
0.0,0.0,0.0,0.0
30.203,-0.082,-0.407,2.0
79.461,-0.188,1.118,151.0
79.426,-0.16,0.677,150.0
56.061,-0.093,0.167,21.0
0.0,0.0,0.0,0.0
38.265,-0.036,-0.313,3.0
30.104,-0.017,-0.413,2.0
79.465,-0.019,1.098,151.0
79.419,0.009,0.657,103.0
54.913,0.025,0.149,7.0
40.823,0.033,-0.119,17.0
38.126,0.045,-0.322,2.0
29.916,0.046,-0.419,2.0
79.469,0.151,1.075,151.0
79.478,0.179,0.634,24.0
54.634,0.143,0.132,28.0
40.103,0.119,-0.129,17.0
37.786,0.125,-0.331,11.0
29.769,0.109,-0.426,2.0
59.312,0.239,0.783,106.0
59.309,0.26,0.453,112.0
54.723,0.26,0.114,28.0
39.553,0.201,-0.141,35.0
37.66,0.204,-0.343,0.0
29.512,0.17,-0.433,2.0
48.132,0.296,0.618,59.0
48.118,0.312,0.35,49.0
48.002,0.328,0.082,58.0
39.128,0.281,-0.154,45.0
33.948,0.256,-0.323,1.0
29.303,0.23,-0.441,2.0
48.08,0.396,0.598,111.0
48.051,0.413,0.33,109.0
47.894,0.427,0.062,58.0
38.729,0.359,-0.168,48.0
33.272,0.32,-0.33,1.0
29.111,0.29,-0.451,2.0
48.109,0.498,0.577,106.0
48.054,0.514,0.308,84.0
47.728,0.527,0.04,53.0
38.321,0.436,-0.184,48.0
33.008,0.387,-0.343,1.0
28.803,0.347,-0.46,2.0
94.56,1.179,1.09,3.0
48.123,0.615,0.286,41.0
47.336,0.622,0.017,42.0
37.941,0.511,-0.201,44.0
32.611,0.451,-0.355,1.0
28.426,0.402,-0.468,1.0
89.684,1.305,0.988,6.0
61.876,0.922,0.336,36.0
46.715,0.711,-0.007,26.0
37.598,0.585,-0.219,35.0
32.033,0.509,-0.366,1.0
28.027,0.455,-0.477,1.0
89.68,1.492,0.938,10.0
60.807,1.031,0.296,35.0
0.0,0.0,0.0,0.0
37.286,0.657,-0.238,20.0
31.234,0.56,-0.374,1.0
27.582,0.504,-0.485,1.0
80.455,1.503,0.795,8.0
0.0,0.0,0.0,0.0
44.771,0.865,-0.058,19.0
37.042,0.728,-0.259,13.0
30.873,0.617,-0.388,2.0
27.296,0.554,-0.496,2.0
78.036,1.616,0.724,30.0
58.234,1.224,0.214,18.0
39.939,0.852,-0.076,15.0
36.731,0.796,-0.28,10.0
30.403,0.669,-0.402,2.0
27.012,0.603,-0.508,2.0
77.838,1.77,0.671,30.0
0.0,0.0,0.0,0.0
39.653,0.926,-0.102,26.0
36.518,0.865,-0.302,7.0
29.907,0.717,-0.415,2.0
23.644,0.575,-0.461,1.0
74.996,1.856,0.596,16.0
0.0,0.0,0.0,0.0
39.333,0.997,-0.128,43.0
36.305,0.932,-0.326,4.0
29.408,0.764,-0.429,2.0
23.09,0.607,-0.466,5.0
74.579,1.993,0.539,18.0
48.682,1.316,0.078,22.0
0.0,0.0,0.0,0.0
36.332,1.004,-0.352,0.0
29.016,0.811,-0.445,1.0
22.459,0.635,-0.47,4.0
61.343,1.76,0.397,10.0
47.992,1.392,0.041,22.0
0.0,0.0,0.0,0.0
32.903,0.974,-0.344,1.0
28.487,0.852,-0.458,1.0
21.941,0.663,-0.476,4.0
59.912,1.836,0.341,33.0
47.19,1.461,0.003,23.0
36.769,1.149,-0.204,31.0
31.802,1.003,-0.358,1.0
27.953,0.891,-0.472,1.0
21.463,0.69,-0.483,4.0
59.056,1.925,0.288,34.0
42.635,1.402,-0.031,10.0
36.479,1.21,-0.232,21.0
30.944,1.036,-0.374,1.0
24.366,0.823,-0.432,1.0
20.985,0.715,-0.49,4.0
54.969,1.896,0.222,29.0
41.37,1.439,-0.065,18.0
36.159,1.268,-0.261,11.0
30.435,1.077,-0.394,2.0
23.966,0.855,-0.446,5.0
20.626,0.742,-0.5,4.0
54.341,1.977,0.171,28.0
40.334,1.479,-0.099,39.0
35.988,1.33,-0.292,8.0
29.716,1.107,-0.412,2.0
23.29,0.874,-0.454,5.0
20.211,0.765,-0.508,3.0
48.881,1.87,0.11,24.0
39.791,1.534,-0.135,54.0
35.687,1.386,-0.322,3.0
29.177,1.141,-0.431,2.0
22.499,0.887,-0.46,4.0
19.732,0.783,-0.515,3.0
47.779,1.917,0.062,25.0
39.6,1.6,-0.172,3.0
32.896,1.338,-0.328,1.0
28.625,1.172,-0.45,2.0
21.458,0.885,-0.459,15.0
19.368,0.804,-0.524,3.0
0.0,0.0,0.0,0.0
36.346,1.533,-0.193,36.0
31.797,1.35,-0.348,1.0
28.252,1.208,-0.472,1.0
21.278,0.915,-0.476,9.0
18.944,0.82,-0.531,3.0
41.801,1.827,-0.027,18.0
36.052,1.585,-0.227,19.0
30.871,1.366,-0.369,2.0
24.358,1.084,-0.432,5.0
20.869,0.935,-0.488,4.0
18.56,0.836,-0.539,3.0
40.763,1.854,-0.068,38.0
35.731,1.634,-0.262,10.0
30.221,1.391,-0.393,2.0
23.395,1.083,-0.439,5.0
20.383,0.949,-0.498,3.0
18.169,0.851,-0.547,3.0
40.091,1.894,-0.109,47.0
35.585,1.69,-0.299,6.0
29.487,1.408,-0.415,2.0
22.559,1.083,-0.448,5.0
19.863,0.959,-0.507,3.0
17.773,0.863,-0.554,2.0
36.641,1.794,-0.14,31.0
33.531,1.65,-0.318,2.0
28.914,1.43,-0.438,2.0
21.756,1.082,-0.456,4.0
19.413,0.97,-0.517,3.0
17.448,0.877,-0.563,2.0
36.107,1.829,-0.178,42.0
32.15,1.636,-0.341,2.0
24.806,1.269,-0.404,1.0
21.184,1.089,-0.467,4.0
18.949,0.978,-0.526,3.0
17.089,0.887,-0.571,2.0
35.636,1.863,-0.216,9.0
31.02,1.629,-0.364,2.0
24.213,1.278,-0.422,5.0
20.631,1.094,-0.479,4.0
18.475,0.984,-0.534,3.0
16.602,0.888,-0.574,3.0
35.483,1.912,-0.256,13.0
30.179,1.634,-0.389,2.0
23.141,1.258,-0.43,5.0
20.126,1.099,-0.49,3.0
18.017,0.989,-0.542,4.0
16.254,0.896,-0.581,3.0
35.301,1.959,-0.297,8.0
29.343,1.635,-0.413,2.0
22.262,1.246,-0.44,4.0
19.638,1.104,-0.502,3.0
17.632,0.995,-0.551,3.0
15.925,0.903,-0.589,3.0
32.921,1.878,-0.316,1.0
28.823,1.651,-0.441,1.0
21.496,1.236,-0.451,4.0
19.152,1.106,-0.513,3.0
17.282,1.002,-0.561,2.0
15.227,0.886,-0.581,3.0
31.516,1.846,-0.342,1.0
24.444,1.437,-0.404,5.0
20.918,1.234,-0.465,4.0
18.651,1.105,-0.523,3.0
16.799,0.999,-0.567,2.0
14.677,0.876,-0.579,11.0
30.52,1.833,-0.369,2.0
23.459,1.414,-0.417,5.0
20.368,1.232,-0.478,3.0
18.169,1.103,-0.532,3.0
16.344,0.996,-0.572,4.0
14.638,0.895,-0.596,23.0
29.689,1.826,-0.396,2.0
22.521,1.39,-0.429,4.0
19.797,1.226,-0.49,3.0
17.752,1.103,-0.542,3.0
16.045,1.001,-0.582,4.0
14.444,0.904,-0.606,15.0
29.038,1.827,-0.425,1.0
21.664,1.367,-0.44,4.0
19.282,1.221,-0.502,3.0
17.324,1.101,-0.552,2.0
15.32,0.977,-0.575,2.0
13.933,0.891,-0.603,12.0
24.809,1.595,-0.395,6.0
21.046,1.358,-0.456,4.0
18.796,1.216,-0.514,3.0
16.874,1.095,-0.56,2.0
14.68,0.956,-0.571,8.0
13.714,0.896,-0.612,12.0
23.725,1.557,-0.409,5.0
20.444,1.346,-0.47,3.0
18.275,1.207,-0.524,3.0
16.387,1.086,-0.565,2.0
14.628,0.972,-0.589,19.0
13.488,0.899,-0.62,11.0
22.461,1.504,-0.418,4.0
19.824,1.331,-0.482,3.0
17.768,1.197,-0.534,3.0
16.048,1.084,-0.576,2.0
14.185,0.961,-0.59,14.0
13.311,0.904,-0.63,10.0
21.618,1.475,-0.432,4.0
19.332,1.323,-0.497,3.0
17.322,1.188,-0.544,2.0
15.378,1.058,-0.573,2.0
13.878,0.958,-0.596,13.0
13.094,0.906,-0.638,9.0
20.995,1.458,-0.448,4.0
18.812,1.31,-0.509,3.0
16.852,1.177,-0.552,3.0
14.656,1.026,-0.566,7.0
13.642,0.958,-0.605,12.0
13.064,0.92,-0.654,10.0
20.445,1.444,-0.465,4.0
18.248,1.292,-0.519,3.0
16.489,1.171,-0.564,2.0
14.519,1.033,-0.581,17.0
13.466,0.961,-0.616,12.0
13.042,0.933,-0.671,11.0
19.864,1.426,-0.479,3.0
17.7,1.274,-0.528,3.0
16.03,1.157,-0.57,2.0
13.94,1.008,-0.577,9.0
13.221,0.958,-0.623,8.0
12.874,0.936,-0.681,5.0
19.193,1.399,-0.49,3.0
17.27,1.262,-0.54,2.0
15.273,1.119,-0.565,2.0
13.746,1.009,-0.589,11.0
13.08,0.963,-0.635,9.0
12.561,0.927,-0.682,3.0
18.656,1.38,-0.503,3.0
16.83,1.248,-0.55,2.0
14.533,1.08,-0.558,7.0
13.545,1.009,-0.6,10.0
13.061,0.975,-0.653,9.0
12.308,0.921,-0.686,3.0
18.143,1.361,-0.515,4.0
16.377,1.231,-0.559,2.0
14.179,1.068,-0.565,11.0
13.343,1.007,-0.61,10.0
13.055,0.988,-0.672,10.0
12.101,0.918,-0.692,3.0
17.666,1.343,-0.527,2.0
15.935,1.213,-0.567,2.0
13.842,1.056,-0.572,12.0
13.154,1.006,-0.62,9.0
12.794,0.98,-0.677,3.0
11.824,0.908,-0.694,2.0
17.167,1.321,-0.537,2.0
15.171,1.17,-0.562,3.0
13.624,1.052,-0.583,11.0
13.046,1.01,-0.634,8.0
12.479,0.968,-0.679,3.0
11.573,0.899,-0.696,2.0
16.72,1.302,-0.548,3.0
14.307,1.116,-0.551,9.0
13.476,1.053,-0.596,12.0
13.069,1.023,-0.654,10.0
12.252,0.961,-0.684,3.0
11.336,0.891,-0.698,1.0
16.281,1.282,-0.557,2.0
13.977,1.102,-0.558,10.0
13.361,1.055,-0.611,8.0
12.978,1.027,-0.669,6.0
11.996,0.951,-0.687,2.0
11.126,0.884,-0.702,1.0
15.889,1.264,-0.567,2.0
13.74,1.095,-0.569,9.0
13.134,1.048,-0.619,7.0
12.677,1.013,-0.672,3.0
11.757,0.941,-0.691,2.0
10.882,0.873,-0.702,2.0
14.315,1.15,-0.532,7.0
13.577,1.092,-0.582,11.0
13.069,1.053,-0.636,8.0
12.439,1.004,-0.678,3.0
11.489,0.929,-0.692,2.0
10.698,0.866,-0.706,2.0
14.085,1.142,-0.544,12.0
13.456,1.092,-0.597,11.0
13.066,1.062,-0.655,10.0
12.238,0.996,-0.685,1.0
11.279,0.92,-0.696,1.0
10.493,0.857,-0.708,2.0
13.855,1.133,-0.556,14.0
13.259,1.085,-0.608,11.0
12.954,1.062,-0.668,4.0
11.915,0.978,-0.685,2.0
11.085,0.911,-0.701,1.0
10.292,0.847,-0.71,2.0
13.7,1.129,-0.57,10.0
13.087,1.08,-0.619,8.0
12.586,1.04,-0.668,3.0
11.657,0.964,-0.687,2.0
10.867,0.9,-0.703,1.0
10.124,0.84,-0.714,2.0
13.538,1.124,-0.583,10.0
13.082,1.087,-0.639,9.0
12.396,1.032,-0.676,4.0
11.417,0.951,-0.69,2.0
10.631,0.887,-0.704,1.0
9.909,0.828,-0.713,2.0
13.389,1.119,-0.596,10.0
13.067,1.093,-0.657,11.0
12.151,1.018,-0.681,1.0
11.206,0.94,-0.694,2.0
10.431,0.876,-0.706,2.0
9.781,0.822,-0.719,2.0
13.234,1.113,-0.609,11.0
12.901,1.086,-0.668,4.0
11.879,1.001,-0.683,1.0
11.021,0.93,-0.699,1.0
10.254,0.866,-0.709,2.0
9.666,0.818,-0.724,1.0
13.089,1.107,-0.621,10.0
12.527,1.06,-0.667,3.0
11.581,0.981,-0.683,2.0
10.823,0.918,-0.702,1.0
10.089,0.857,-0.713,2.0
9.568,0.814,-0.731,1.0
13.08,1.112,-0.64,9.0
12.359,1.051,-0.676,3.0
11.401,0.971,-0.689,2.0
10.608,0.904,-0.704,0.0
9.879,0.843,-0.712,2.0
9.454,0.808,-0.736,1.0
13.056,1.115,-0.658,11.0
12.039,1.029,-0.676,1.0
11.178,0.956,-0.692,2.0
10.396,0.89,-0.705,1.0
9.746,0.835,-0.717,2.0
9.291,0.797,-0.737,1.0
12.857,1.102,-0.667,2.0
11.81,1.013,-0.68,3.0
10.971,0.942,-0.695,1.0
10.218,0.878,-0.708,2.0
9.661,0.831,-0.725,1.0
9.161,0.789,-0.74,1.0
12.508,1.076,-0.667,4.0
11.576,0.997,-0.684,2.0
10.778,0.929,-0.699,1.0
10.052,0.867,-0.711,1.0
9.563,0.825,-0.731,1.0
9.037,0.781,-0.744,1.0
12.36,1.067,-0.676,3.0
11.354,0.98,-0.687,2.0
10.598,0.916,-0.702,0.0
9.873,0.854,-0.712,1.0
9.44,0.817,-0.736,0.0
8.899,0.771,-0.745,1.0
12.021,1.04,-0.675,2.0
11.175,0.967,-0.692,2.0
10.39,0.9,-0.703,1.0
9.731,0.843,-0.716,2.0
9.294,0.806,-0.737,0.0
8.801,0.764,-0.749,1.0
11.803,1.023,-0.679,3.0
10.93,0.948,-0.692,2.0
10.222,0.887,-0.706,2.0
9.65,0.838,-0.723,1.0
9.158,0.796,-0.74,1.0
8.687,0.755,-0.752,1.0
11.591,1.006,-0.683,3.0
10.78,0.936,-0.698,2.0
10.047,0.873,-0.708,1.0
9.554,0.831,-0.73,1.0
9.033,0.786,-0.742,1.0
8.415,0.733,-0.74,1.0
11.382,0.989,-0.687,2.0
10.629,0.924,-0.703,1.0
9.879,0.859,-0.71,1.0
9.449,0.822,-0.735,0.0
8.907,0.775,-0.744,1.0
7.991,0.696,-0.714,2.0
11.185,0.972,-0.691,2.0
10.407,0.905,-0.703,1.0
9.749,0.848,-0.714,2.0
9.289,0.808,-0.735,0.0
8.798,0.766,-0.747,1.0
7.848,0.684,-0.712,4.0
10.978,0.954,-0.693,2.0
10.234,0.89,-0.705,2.0
9.659,0.84,-0.721,1.0
9.153,0.796,-0.737,1.0
8.7,0.757,-0.751,1.0
7.724,0.673,-0.712,4.0
10.799,0.938,-0.696,2.0
10.078,0.876,-0.708,2.0
9.568,0.832,-0.727,1.0
9.056,0.787,-0.742,1.0
8.518,0.741,-0.747,1.0
7.63,0.664,-0.713,4.0
10.63,0.923,-0.7,1.0
9.89,0.859,-0.708,2.0
9.472,0.823,-0.733,0.0
8.923,0.775,-0.743,1.0
8.06,0.7,-0.717,2.0
7.551,0.656,-0.716,4.0
10.456,0.906,-0.702,1.0
9.774,0.847,-0.712,2.0
9.324,0.808,-0.733,0.0
8.832,0.766,-0.746,1.0
7.886,0.684,-0.712,3.0
7.503,0.651,-0.721,5.0
10.278,0.889,-0.703,2.0
9.68,0.837,-0.718,1.0
9.206,0.796,-0.736,1.0
8.749,0.757,-0.751,1.0
7.772,0.673,-0.712,4.0
7.481,0.648,-0.729,4.0
10.144,0.875,-0.707,2.0
9.612,0.83,-0.725,1.0
9.108,0.786,-0.74,1.0
8.591,0.741,-0.748,1.0
7.686,0.663,-0.714,4.0
7.465,0.644,-0.737,4.0
9.966,0.858,-0.707,2.0
9.53,0.82,-0.731,1.0
8.983,0.773,-0.741,1.0
8.237,0.709,-0.728,1.0
7.61,0.655,-0.716,4.0
7.453,0.641,-0.745,3.0
9.845,0.844,-0.71,2.0
9.403,0.806,-0.733,0.0
8.887,0.762,-0.744,1.0
7.984,0.684,-0.715,2.0
7.547,0.647,-0.719,4.0
7.405,0.635,-0.749,3.0
9.725,0.831,-0.713,2.0
9.277,0.792,-0.734,1.0
8.801,0.752,-0.747,1.0
7.874,0.672,-0.715,4.0
7.512,0.641,-0.725,4.0
7.344,0.627,-0.752,3.0
9.659,0.822,-0.72,2.0
9.179,0.781,-0.737,1.0
8.708,0.74,-0.749,1.0
7.766,0.66,-0.714,3.0
7.493,0.637,-0.732,4.0
7.297,0.62,-0.755,3.0
9.6,0.813,-0.727,1.0
9.079,0.768,-0.74,1.0
8.6,0.728,-0.75,1.0
7.681,0.65,-0.715,4.0
7.518,0.636,-0.743,3.0
7.256,0.613,-0.76,3.0
9.508,0.801,-0.731,1.0
8.97,0.755,-0.741,1.0
8.323,0.7,-0.735,1.0
7.629,0.642,-0.719,4.0
7.5,0.631,-0.75,3.0
7.237,0.609,-0.765,2.0
9.401,0.787,-0.733,1.0
8.891,0.744,-0.744,1.0
8.064,0.675,-0.721,2.0
7.595,0.635,-0.724,4.0
7.447,0.623,-0.753,3.0
7.156,0.598,-0.765,1.0
9.303,0.774,-0.735,1.0
8.827,0.734,-0.748,0.0
7.934,0.66,-0.718,3.0
7.579,0.63,-0.73,4.0
7.394,0.614,-0.755,3.0
7.045,0.585,-0.76,1.0
9.205,0.761,-0.737,1.0
8.752,0.723,-0.751,0.0
7.836,0.647,-0.717,4.0
7.616,0.629,-0.742,4.0
7.364,0.607,-0.76,3.0
6.991,0.576,-0.762,1.0
9.118,0.748,-0.739,1.0
8.668,0.711,-0.753,0.0
7.782,0.638,-0.72,4.0
7.626,0.625,-0.751,3.0
7.349,0.602,-0.766,3.0
6.952,0.569,-0.765,2.0
9.031,0.736,-0.741,1.0
8.381,0.682,-0.736,1.0
7.754,0.631,-0.725,4.0
7.588,0.617,-0.754,3.0
7.309,0.594,-0.769,2.0
6.943,0.564,-0.771,1.0
8.971,0.725,-0.745,1.0
8.172,0.66,-0.725,2.0
7.768,0.627,-0.734,4.0
7.529,0.607,-0.756,3.0
7.269,0.585,-0.772,1.0
6.913,0.556,-0.774,1.0
8.903,0.713,-0.747,1.0
8.046,0.644,-0.722,3.0
7.756,0.62,-0.74,4.0
7.466,0.597,-0.756,3.0
7.198,0.575,-0.771,1.0
6.852,0.547,-0.773,1.0
8.82,0.7,-0.748,1.0
7.99,0.634,-0.724,4.0
7.752,0.614,-0.747,3.0
7.443,0.589,-0.761,3.0
7.15,0.565,-0.772,0.0
6.817,0.539,-0.775,1.0
8.759,0.689,-0.751,1.0
7.961,0.625,-0.728,5.0
7.726,0.606,-0.751,4.0
7.403,0.58,-0.763,3.0
7.092,0.555,-0.772,0.0
6.784,0.531,-0.777,0.0
8.648,0.673,-0.749,1.0
7.944,0.617,-0.733,5.0
7.72,0.599,-0.757,3.0
7.384,0.573,-0.767,2.0
7.045,0.546,-0.772,0.0
6.771,0.524,-0.781,1.0
8.61,0.663,-0.752,2.0
7.937,0.61,-0.739,5.0
7.687,0.591,-0.759,2.0
7.346,0.564,-0.769,2.0
7.005,0.537,-0.773,0.0
6.771,0.518,-0.787,1.0
8.429,0.642,-0.743,2.0
7.931,0.603,-0.744,5.0
7.663,0.582,-0.763,1.0
7.303,0.554,-0.77,1.0
6.981,0.529,-0.776,0.0
6.789,0.514,-0.794,0.0
8.384,0.631,-0.745,2.0
7.915,0.595,-0.748,4.0
7.617,0.572,-0.764,1.0
7.273,0.545,-0.772,1.0
6.973,0.522,-0.78,1.0
6.824,0.51,-0.803,0.0
8.321,0.619,-0.745,4.0
7.908,0.587,-0.753,4.0
7.568,0.561,-0.764,1.0
7.238,0.536,-0.773,1.0
6.974,0.516,-0.785,1.0
6.91,0.51,-0.817,0.0
8.297,0.609,-0.748,4.0
7.882,0.578,-0.755,3.0
7.543,0.552,-0.766,1.0
7.199,0.526,-0.773,1.0
6.994,0.511,-0.791,0.0
6.987,0.509,-0.831,0.0
8.261,0.599,-0.75,5.0
7.872,0.57,-0.759,3.0
7.522,0.543,-0.768,1.0
7.185,0.518,-0.776,1.0
7.054,0.508,-0.802,1.0
7.052,0.507,-0.842,1.0
8.243,0.589,-0.753,5.0
7.845,0.56,-0.761,2.0
7.498,0.534,-0.77,1.0
7.187,0.511,-0.78,1.0
7.119,0.506,-0.813,1.0
7.123,0.505,-0.855,0.0
8.221,0.579,-0.755,5.0
7.83,0.551,-0.764,1.0
7.471,0.525,-0.771,1.0
7.209,0.505,-0.786,1.0
7.194,0.503,-0.826,0.0
7.171,0.501,-0.864,0.0
8.188,0.568,-0.756,4.0
7.808,0.541,-0.765,1.0
7.454,0.516,-0.773,1.0
7.267,0.502,-0.796,1.0
7.298,0.503,-0.841,1.0
7.243,0.498,-0.876,0.0
8.166,0.558,-0.758,4.0
7.804,0.533,-0.768,1.0
7.46,0.508,-0.777,1.0
7.349,0.5,-0.808,1.0
7.37,0.5,-0.852,1.0
7.385,0.5,-0.897,0.0
8.158,0.549,-0.76,3.0
7.777,0.522,-0.769,1.0
7.495,0.502,-0.783,1.0
7.448,0.498,-0.822,1.0
7.465,0.498,-0.866,0.0
7.515,0.501,-0.915,0.0
8.136,0.539,-0.761,3.0
7.767,0.513,-0.771,1.0
7.546,0.497,-0.791,1.0
7.549,0.496,-0.836,1.0
7.565,0.497,-0.881,0.0
7.606,0.498,-0.929,0.0
8.133,0.529,-0.763,2.0
7.783,0.505,-0.775,1.0
7.629,0.494,-0.803,1.0
7.638,0.494,-0.848,1.0
7.662,0.494,-0.894,0.0
7.664,0.493,-0.938,0.0
8.138,0.52,-0.766,1.0
7.799,0.498,-0.778,1.0
7.739,0.492,-0.816,1.0
7.747,0.492,-0.862,0.0
7.767,0.492,-0.908,0.0
7.707,0.487,-0.945,0.0
8.127,0.51,-0.767,1.0
7.857,0.492,-0.786,1.0
7.843,0.49,-0.829,1.0
7.852,0.489,-0.875,0.0
7.873,0.489,-0.922,0.0
7.8,0.484,-0.958,0.0
8.134,0.501,-0.769,1.0
7.936,0.488,-0.795,1.0
7.963,0.488,-0.843,1.0
7.959,0.487,-0.889,0.0
7.99,0.487,-0.937,0.0
7.876,0.479,-0.969,0.0
8.15,0.492,-0.772,1.0
8.055,0.485,-0.808,1.0
8.075,0.485,-0.856,0.0
8.077,0.484,-0.903,0.0
8.046,0.481,-0.945,0.0
7.929,0.473,-0.976,0.0
8.208,0.486,-0.778,1.0
8.171,0.483,-0.821,1.0
8.178,0.482,-0.868,0.0
8.191,0.481,-0.916,0.0
8.164,0.478,-0.96,0.0
8.022,0.469,-0.988,0.0
8.315,0.482,-0.789,1.0
8.326,0.482,-0.837,1.0
8.294,0.478,-0.88,0.0
8.332,0.479,-0.932,0.0
8.341,0.478,-0.981,0.0
7.831,0.448,-0.965,0.0
8.434,0.479,-0.8,2.0
8.454,0.479,-0.85,1.0
8.444,0.477,-0.896,0.0
8.421,0.474,-0.942,0.0
8.424,0.473,-0.99,0.0
8.542,0.475,-0.81,2.0
8.532,0.472,-0.857,1.0
8.625,0.476,-0.915,0.0
8.587,0.473,-0.96,0.0
8.434,0.463,-0.991,0.0
8.666,0.471,-0.822,2.0
8.656,0.468,-0.869,0.0
8.722,0.47,-0.925,0.0
8.7,0.468,-0.972,0.0
8.402,0.45,-0.986,0.0
7.593,0.406,-0.934,0.0
8.822,0.468,-0.835,2.0
8.873,0.469,-0.89,0.0
8.841,0.466,-0.936,0.0
8.776,0.461,-0.98,0.0
7.932,0.415,-0.93,0.0
7.601,0.396,-0.934,0.0
8.996,0.466,-0.85,1.0
9.054,0.467,-0.907,0.0
8.987,0.462,-0.95,0.0
8.799,0.451,-0.981,0.0
7.951,0.406,-0.931,0.0
7.602,0.387,-0.933,0.0
9.13,0.461,-0.861,0.0
9.15,0.46,-0.914,0.0
9.045,0.453,-0.954,0.0
8.499,0.424,-0.945,0.0
7.935,0.395,-0.927,0.0
7.605,0.377,-0.931,0.0
9.327,0.459,-0.878,0.0
9.295,0.456,-0.926,0.0
9.059,0.442,-0.953,0.0
8.308,0.404,-0.922,0.0
7.96,0.386,-0.928,0.0
7.602,0.367,-0.929,0.0
9.481,0.455,-0.889,0.0
9.44,0.451,-0.938,0.0
9.005,0.428,-0.945,0.0
8.268,0.392,-0.915,0.0
7.967,0.376,-0.926,0.0
7.645,0.359,-0.931,0.0
9.647,0.45,-0.902,0.0
9.605,0.446,-0.951,0.0
8.826,0.408,-0.923,0.0
8.301,0.382,-0.915,0.0
7.979,0.366,-0.924,0.0
7.655,0.35,-0.93,0.0
9.856,0.447,-0.917,0.0
9.744,0.44,-0.961,0.0
8.693,0.391,-0.905,0.0
8.3,0.372,-0.912,0.0
7.995,0.356,-0.923,0.0
7.711,0.342,-0.933,0.0
9.994,0.44,-0.926,0.0
9.784,0.429,-0.96,0.0
8.711,0.38,-0.903,0.0
8.36,0.363,-0.914,0.0
8.022,0.347,-0.922,0.0
7.702,0.332,-0.928,0.0
10.182,0.435,-0.938,0.0
9.479,0.403,-0.926,0.0
8.735,0.37,-0.902,0.0
8.379,0.353,-0.912,0.0
8.032,0.337,-0.919,0.0
7.745,0.323,-0.929,0.0
10.328,0.428,-0.946,0.0
9.232,0.381,-0.897,0.0
8.81,0.362,-0.905,0.0
8.393,0.343,-0.909,0.0
8.084,0.329,-0.921,0.0
7.775,0.315,-0.929,0.0
10.409,0.418,-0.948,0.0
9.337,0.373,-0.902,0.0
8.819,0.351,-0.9,0.0
8.438,0.334,-0.909,0.0
8.127,0.32,-0.921,0.0
7.774,0.304,-0.924,0.0
10.08,0.392,-0.912,0.0
9.347,0.361,-0.897,1.0
8.872,0.341,-0.9,0.0
8.495,0.325,-0.91,0.0
8.132,0.309,-0.916,0.0
7.823,0.296,-0.925,0.0
9.857,0.371,-0.885,0.0
9.35,0.35,-0.891,2.0
8.915,0.331,-0.899,0.0
8.53,0.316,-0.908,0.0
8.146,0.3,-0.912,0.0
7.875,0.288,-0.925,0.0
9.88,0.359,-0.88,0.0
9.353,0.338,-0.885,1.0
8.998,0.323,-0.901,0.0
8.572,0.306,-0.906,0.0
8.177,0.29,-0.909,0.0
7.908,0.279,-0.923,0.0
9.964,0.349,-0.881,0.0
9.396,0.327,-0.882,0.0
9.048,0.313,-0.899,0.0
8.635,0.297,-0.906,0.0
8.237,0.282,-0.91,0.0
7.961,0.271,-0.923,0.0
10.018,0.339,-0.878,0.0
9.513,0.319,-0.885,0.0
9.128,0.305,-0.899,0.0
8.714,0.289,-0.907,0.0
8.335,0.275,-0.914,0.0
8.019,0.263,-0.923,0.0
10.098,0.329,-0.876,0.0
9.623,0.311,-0.888,0.0
9.076,0.291,-0.887,1.0
8.747,0.279,-0.903,0.0
8.375,0.265,-0.911,0.0
8.058,0.254,-0.921,0.0
10.161,0.318,-0.873,0.0
9.688,0.301,-0.885,0.0
9.156,0.283,-0.886,0.0
8.825,0.271,-0.903,0.0
8.426,0.256,-0.909,0.0
8.106,0.245,-0.919,0.0
10.254,0.308,-0.871,0.0
9.775,0.292,-0.884,0.0
9.31,0.276,-0.893,0.0
8.921,0.262,-0.905,0.0
8.479,0.248,-0.906,0.0
8.166,0.237,-0.918,1.0
10.369,0.299,-0.871,0.0
9.851,0.282,-0.881,0.0
9.402,0.267,-0.892,0.0
8.992,0.253,-0.903,0.0
8.404,0.235,-0.89,0.0
8.182,0.227,-0.911,2.0
10.395,0.287,-0.863,4.0
9.933,0.272,-0.878,0.0
9.457,0.257,-0.888,0.0
9.014,0.243,-0.896,0.0
8.669,0.232,-0.909,0.0
8.204,0.218,-0.905,2.0
10.431,0.275,-0.855,4.0
10.037,0.262,-0.877,0.0
9.552,0.248,-0.887,0.0
9.061,0.233,-0.891,0.0
8.706,0.222,-0.904,0.0
8.254,0.209,-0.902,0.0
10.539,0.265,-0.853,2.0
10.14,0.253,-0.875,0.0
9.634,0.239,-0.884,0.0
9.188,0.226,-0.893,0.0
8.822,0.215,-0.906,0.0
8.417,0.203,-0.91,0.0
10.774,0.259,-0.86,0.0
10.26,0.244,-0.874,0.0
9.759,0.23,-0.884,0.0
9.27,0.217,-0.891,0.0
8.859,0.205,-0.899,0.0
8.483,0.195,-0.907,0.0
10.909,0.249,-0.858,0.0
10.339,0.234,-0.869,3.0
9.848,0.221,-0.881,0.0
9.39,0.209,-0.891,0.0
8.952,0.197,-0.898,0.0
8.596,0.188,-0.909,0.0
11.043,0.24,-0.855,0.0
10.409,0.224,-0.862,5.0
9.941,0.212,-0.877,0.0
9.476,0.2,-0.888,0.0
9.029,0.189,-0.895,0.0
8.67,0.179,-0.906,0.0
11.185,0.23,-0.852,0.0
10.47,0.213,-0.854,4.0
10.079,0.203,-0.876,0.0
9.596,0.191,-0.887,0.0
9.131,0.18,-0.893,0.0
8.731,0.171,-0.901,0.0
11.361,0.221,-0.851,0.0
10.646,0.205,-0.855,1.0
10.193,0.194,-0.873,0.0
9.704,0.183,-0.884,0.0
9.25,0.172,-0.892,0.0
8.823,0.163,-0.899,0.0
11.52,0.211,-0.848,0.0
10.868,0.197,-0.858,0.0
10.346,0.186,-0.872,2.0
9.81,0.174,-0.881,0.0
9.361,0.164,-0.891,0.0
8.924,0.155,-0.897,0.0
11.691,0.202,-0.845,0.0
11.01,0.188,-0.854,0.0
10.433,0.176,-0.865,7.0
9.92,0.166,-0.877,0.0
9.475,0.156,-0.888,0.0
9.032,0.147,-0.895,0.0
11.853,0.192,-0.84,0.0
11.167,0.179,-0.851,0.0
10.46,0.166,-0.853,7.0
10.092,0.158,-0.878,0.0
9.595,0.148,-0.886,0.0
9.158,0.14,-0.895,0.0
12.034,0.183,-0.836,1.0
11.357,0.17,-0.849,0.0
10.693,0.158,-0.856,1.0
10.223,0.149,-0.874,0.0
9.708,0.14,-0.882,0.0
9.252,0.132,-0.89,0.0
12.223,0.173,-0.831,1.0
11.537,0.162,-0.846,0.0
10.871,0.15,-0.855,0.0
10.394,0.142,-0.874,0.0
9.834,0.132,-0.879,0.0
9.398,0.125,-0.89,0.0
12.45,0.164,-0.828,1.0
11.732,0.153,-0.842,1.0
11.044,0.142,-0.851,1.0
10.506,0.133,-0.867,0.0
9.985,0.124,-0.877,0.0
9.499,0.117,-0.885,0.0
12.669,0.155,-0.823,1.0
11.932,0.144,-0.838,1.0
11.235,0.133,-0.849,1.0
10.71,0.125,-0.867,0.0
10.129,0.117,-0.874,0.0
9.625,0.109,-0.882,0.0
12.868,0.145,-0.816,1.0
12.11,0.135,-0.832,1.0
11.459,0.125,-0.848,0.0
10.842,0.117,-0.861,0.0
10.316,0.109,-0.874,0.0
9.779,0.102,-0.88,0.0
13.116,0.136,-0.811,1.0
12.352,0.126,-0.828,1.0
11.655,0.117,-0.843,1.0
10.999,0.109,-0.855,0.0
10.45,0.101,-0.868,0.0
9.935,0.095,-0.878,0.0
13.357,0.127,-0.804,1.0
12.572,0.117,-0.823,1.0
11.838,0.109,-0.837,1.0
11.182,0.101,-0.851,0.0
10.616,0.094,-0.864,0.0
10.114,0.088,-0.877,0.0
13.658,0.118,-0.799,1.0
12.793,0.109,-0.816,1.0
12.062,0.1,-0.833,1.0
11.392,0.093,-0.848,0.0
10.793,0.086,-0.861,0.0
10.277,0.081,-0.874,0.0
13.966,0.109,-0.794,1.0
13.073,0.1,-0.812,1.0
12.31,0.092,-0.829,1.0
11.598,0.085,-0.844,0.0
10.961,0.079,-0.855,0.0
10.424,0.073,-0.868,0.0
14.261,0.1,-0.786,1.0
13.317,0.091,-0.804,1.0
12.53,0.084,-0.823,1.0
11.793,0.077,-0.838,0.0
11.158,0.071,-0.851,0.0
10.612,0.066,-0.865,0.0
14.639,0.091,-0.782,1.0
13.628,0.083,-0.799,1.0
12.783,0.076,-0.817,1.0
12.031,0.07,-0.833,1.0
11.391,0.064,-0.849,0.0
10.805,0.06,-0.862,0.0
14.958,0.082,-0.772,2.0
13.91,0.075,-0.791,1.0
13.058,0.068,-0.811,1.0
12.287,0.062,-0.829,1.0
11.607,0.057,-0.844,0.0
10.977,0.053,-0.856,0.0
15.214,0.073,-0.758,1.0
14.27,0.066,-0.786,1.0
13.395,0.06,-0.808,1.0
12.536,0.055,-0.823,1.0
11.816,0.05,-0.838,0.0
11.204,0.046,-0.853,0.0
15.764,0.065,-0.757,8.0
14.668,0.058,-0.781,1.0
13.695,0.053,-0.801,1.0
12.794,0.047,-0.816,1.0
12.068,0.043,-0.833,0.0
11.439,0.039,-0.85,0.0
15.86,0.055,-0.732,1.0
14.99,0.05,-0.77,1.0
14.011,0.045,-0.793,1.0
13.076,0.04,-0.81,1.0
12.326,0.036,-0.828,0.0
11.664,0.033,-0.844,0.0
16.579,0.047,-0.734,0.0
15.315,0.042,-0.758,1.0
14.331,0.037,-0.784,1.0
13.401,0.033,-0.805,1.0
12.596,0.03,-0.822,1.0
11.877,0.026,-0.837,0.0
17.229,0.039,-0.731,0.0
15.836,0.034,-0.754,6.0
14.737,0.03,-0.778,1.0
13.724,0.026,-0.798,1.0
12.879,0.023,-0.816,0.0
12.152,0.02,-0.833,0.0
17.704,0.03,-0.717,1.0
15.883,0.025,-0.726,12.0
15.065,0.022,-0.767,1.0
14.032,0.019,-0.789,1.0
13.204,0.017,-0.811,0.0
12.419,0.014,-0.827,0.0
18.3,0.022,-0.705,1.0
16.82,0.018,-0.736,0.0
15.673,0.015,-0.767,2.0
14.441,0.012,-0.783,1.0
13.5,0.01,-0.803,1.0
12.696,0.008,-0.821,0.0
18.832,0.013,-0.689,3.0
17.371,0.01,-0.726,1.0
15.901,0.008,-0.747,12.0
14.824,0.006,-0.775,1.0
13.82,0.004,-0.794,1.0
13.009,0.003,-0.815,0.0
19.5,0.005,-0.675,3.0
17.903,0.003,-0.713,1.0
16.021,0.001,-0.721,0.0
15.219,0.0,-0.765,1.0
14.191,-0.001,-0.787,1.0
13.31,-0.002,-0.807,0.0
20.319,-0.003,-0.663,3.0
18.532,-0.004,-0.701,2.0
17.067,-0.005,-0.734,0.0
15.757,-0.006,-0.761,2.0
14.603,-0.007,-0.781,1.0
13.642,-0.007,-0.8,1.0
21.103,-0.011,-0.647,3.0
19.063,-0.011,-0.682,3.0
17.581,-0.012,-0.72,1.0
15.94,-0.012,-0.738,2.0
14.997,-0.012,-0.772,1.0
13.992,-0.012,-0.792,1.0
21.998,-0.019,-0.629,3.0
19.899,-0.018,-0.672,3.0
18.168,-0.018,-0.707,1.0
16.685,-0.018,-0.737,1.0
15.432,-0.017,-0.762,1.0
14.426,-0.017,-0.787,1.0
22.906,-0.027,-0.608,3.0
20.706,-0.026,-0.656,2.0
18.77,-0.024,-0.692,2.0
17.239,-0.023,-0.726,1.0
15.857,-0.022,-0.75,1.0
14.807,-0.022,-0.777,1.0
23.764,-0.034,-0.582,3.0
21.557,-0.032,-0.639,3.0
19.448,-0.03,-0.677,2.0
17.84,-0.029,-0.715,1.0
16.386,-0.027,-0.741,1.0
15.231,-0.026,-0.768,1.0
24.704,-0.042,-0.554,1.0
22.465,-0.039,-0.62,3.0
20.284,-0.036,-0.664,2.0
18.481,-0.034,-0.702,2.0
16.975,-0.032,-0.733,1.0
15.66,-0.03,-0.757,1.0
26.065,-0.049,-0.531,1.0
23.308,-0.045,-0.595,2.0
21.148,-0.042,-0.648,2.0
19.109,-0.038,-0.686,2.0
17.595,-0.036,-0.723,1.0
16.123,-0.034,-0.745,1.0
27.107,-0.056,-0.495,2.0
24.271,-0.051,-0.568,2.0
22.06,-0.047,-0.63,2.0
19.894,-0.043,-0.673,2.0
18.173,-0.04,-0.708,2.0
16.757,-0.037,-0.739,1.0
28.572,-0.062,-0.462,2.0
25.601,-0.057,-0.545,1.0
22.961,-0.051,-0.608,2.0
20.75,-0.047,-0.658,3.0
18.834,-0.043,-0.694,2.0
17.339,-0.04,-0.728,1.0
29.821,-0.068,-0.419,2.0
26.753,-0.061,-0.513,1.0
23.92,-0.055,-0.582,2.0
21.639,-0.05,-0.641,3.0
19.539,-0.046,-0.679,3.0
17.92,-0.042,-0.715,2.0
31.599,-0.073,-0.377,2.0
28.004,-0.065,-0.479,1.0
25.043,-0.059,-0.557,1.0
22.58,-0.053,-0.621,2.0
20.425,-0.048,-0.667,2.0
18.58,-0.044,-0.702,2.0
33.408,-0.078,-0.329,1.0
29.367,-0.069,-0.44,2.0
26.33,-0.062,-0.53,2.0
23.493,-0.055,-0.596,2.0
21.284,-0.05,-0.649,2.0
19.283,-0.046,-0.687,3.0
38.677,-0.09,-0.298,2.0
30.658,-0.071,-0.393,1.0
27.412,-0.063,-0.492,1.0
24.408,-0.057,-0.567,2.0
22.237,-0.051,-0.631,3.0
20.091,-0.046,-0.673,2.0
39.491,-0.089,-0.219,15.0
32.584,-0.073,-0.348,2.0
29.009,-0.065,-0.459,2.0
25.831,-0.058,-0.545,1.0
23.134,-0.051,-0.607,2.0
20.932,-0.046,-0.657,3.0
41.043,-0.089,-0.14,17.0
37.105,-0.08,-0.318,1.0
