X,Y,Z,Reflectivity
28.652,-0.048,-0.46,2.0
25.695,-0.044,-0.545,1.0
23.046,-0.04,-0.607,2.0
20.794,-0.037,-0.658,2.0
18.854,-0.034,-0.693,2.0
17.347,-0.032,-0.728,1.0
29.842,-0.054,-0.417,2.0
26.739,-0.049,-0.511,1.0
23.939,-0.044,-0.581,3.0
21.659,-0.041,-0.64,3.0
19.563,-0.037,-0.679,2.0
17.948,-0.034,-0.715,2.0
31.632,-0.06,-0.376,2.0
28.032,-0.053,-0.478,1.0
25.015,-0.048,-0.555,1.0
22.6,-0.044,-0.62,2.0
20.478,-0.04,-0.667,2.0
18.597,-0.037,-0.702,2.0
33.424,-0.065,-0.327,1.0
29.388,-0.057,-0.438,2.0
26.33,-0.052,-0.528,2.0
23.517,-0.046,-0.595,2.0
21.317,-0.042,-0.649,3.0
19.254,-0.038,-0.686,2.0
38.725,-0.075,-0.296,2.0
30.669,-0.06,-0.392,1.0
27.467,-0.054,-0.493,1.0
24.431,-0.048,-0.567,2.0
22.232,-0.044,-0.63,3.0
20.117,-0.039,-0.674,2.0
39.451,-0.076,-0.218,15.0
32.661,-0.063,-0.349,2.0
28.89,-0.055,-0.457,2.0
25.853,-0.049,-0.544,1.0
23.151,-0.044,-0.606,2.0
20.952,-0.04,-0.657,2.0
40.989,-0.076,-0.139,17.0
37.391,-0.069,-0.319,2.0
30.057,-0.055,-0.411,1.0
26.904,-0.049,-0.509,1.0
24.118,-0.044,-0.58,3.0
21.88,-0.04,-0.639,3.0
45.152,-0.08,-0.057,20.0
39.048,-0.068,-0.25,14.0
32.204,-0.056,-0.372,2.0
28.306,-0.048,-0.475,1.0
25.392,-0.043,-0.557,1.0
22.87,-0.038,-0.619,3.0
51.21,-0.083,0.044,5.0
40.092,-0.064,-0.171,16.0
0.0,0.0,0.0,0.0
29.609,-0.046,-0.434,2.0
26.547,-0.04,-0.525,1.0
23.752,-0.036,-0.592,2.0
56.154,-0.082,0.167,16.0
0.0,0.0,0.0,0.0
38.691,-0.054,-0.282,5.0
31.067,-0.042,-0.389,1.0
27.737,-0.037,-0.49,1.0
24.784,-0.032,-0.565,1.0
76.101,-0.094,0.391,15.0
0.0,0.0,0.0,0.0
39.598,-0.046,-0.203,24.0
33.247,-0.037,-0.345,1.0
29.233,-0.032,-0.454,2.0
26.159,-0.027,-0.541,2.0
79.264,-0.079,0.575,26.0
0.0,0.0,0.0,0.0
41.292,-0.037,-0.125,16.0
38.217,-0.033,-0.316,2.0
30.381,-0.024,-0.408,1.0
27.193,-0.021,-0.505,2.0
79.449,-0.056,0.743,150.0
61.739,-0.041,0.259,14.0
45.69,-0.028,-0.042,20.0
39.04,-0.021,-0.241,14.0
32.454,-0.016,-0.367,1.0
28.658,-0.012,-0.472,2.0
79.468,-0.031,0.911,154.0
76.386,-0.025,0.483,18.0
50.84,-0.014,0.059,3.0
40.237,-0.008,-0.164,16.0
37.524,-0.005,-0.345,1.0
29.873,-0.002,-0.429,2.0
79.461,-0.002,1.079,151.0
79.427,0.002,0.669,150.0
56.175,0.005,0.184,8.0
0.0,0.0,0.0,0.0
38.58,0.008,-0.274,10.0
31.361,0.009,-0.384,1.0
79.446,0.029,1.247,153.0
79.461,0.034,0.837,170.0
76.056,0.038,0.409,17.0
47.749,0.027,0.005,21.0
39.501,0.025,-0.198,34.0
33.338,0.024,-0.339,0.0
79.453,0.063,1.412,161.0
79.469,0.069,1.003,155.0
79.384,0.075,0.593,37.0
54.704,0.056,0.122,9.0
43.899,0.049,-0.128,6.0
38.215,0.045,-0.308,5.0
79.462,0.1,1.579,151.0
79.459,0.107,1.169,156.0
79.449,0.114,0.76,150.0
61.802,0.094,0.266,13.0
0.0,0.0,0.0,0.0
38.899,0.066,-0.233,14.0
79.445,0.141,1.744,150.0
79.451,0.148,1.334,169.0
79.46,0.155,0.925,152.0
76.504,0.157,0.488,27.0
0.0,0.0,0.0,0.0
40.117,0.09,-0.157,15.0
79.452,0.184,1.909,150.0
79.459,0.191,1.498,151.0
79.466,0.199,1.089,154.0
79.43,0.208,0.671,150.0
59.079,0.16,0.194,13.0
0.0,0.0,0.0,0.0
79.449,0.23,2.074,150.0
79.435,0.238,1.664,150.0
79.455,0.247,1.254,170.0
79.459,0.255,0.835,151.0
75.899,0.252,0.406,15.0
47.793,0.164,0.008,21.0
79.453,0.279,2.237,150.0
79.441,0.287,1.825,150.0
79.455,0.297,1.417,151.0
79.463,0.305,0.996,151.0
77.086,0.305,0.569,55.0
54.704,0.223,0.121,28.0
59.293,0.246,1.79,98.0
59.303,0.254,1.484,98.0
59.308,0.261,1.177,98.0
59.299,0.268,0.865,94.0
59.314,0.275,0.557,93.0
59.324,0.282,0.251,11.0
48.231,0.234,1.554,39.0
59.293,0.294,1.603,8.0
59.282,0.302,1.295,36.0
59.284,0.309,0.983,38.0
59.292,0.317,0.676,82.0
55.102,0.302,0.343,36.0
48.166,0.268,1.648,94.0
48.155,0.274,1.398,91.0
48.155,0.28,1.148,66.0
48.151,0.286,0.894,64.0
48.175,0.293,0.645,55.0
48.182,0.3,0.396,55.0
48.13,0.304,1.742,80.0
48.122,0.31,1.493,99.0
48.124,0.317,1.243,99.0
48.12,0.323,0.989,95.0
48.112,0.33,0.74,77.0
48.106,0.337,0.491,53.0
48.128,0.342,1.838,108.0
48.115,0.348,1.587,101.0
48.111,0.355,1.338,106.0
48.098,0.362,1.082,112.0
48.088,0.369,0.833,107.0
48.083,0.376,0.584,104.0
48.147,0.381,1.933,121.0
48.103,0.388,1.681,99.0
48.114,0.395,1.431,113.0
48.092,0.403,1.177,114.0
48.113,0.41,0.928,120.0
48.09,0.417,0.677,104.0
48.141,0.423,2.026,105.0
48.125,0.43,1.776,106.0
48.129,0.437,1.525,83.0
48.103,0.444,1.269,110.0
48.107,0.452,1.019,106.0
48.104,0.46,0.77,101.0
48.194,0.466,2.121,71.0
48.166,0.473,1.869,92.0
48.146,0.481,1.618,89.0
48.136,0.488,1.362,89.0
48.133,0.496,1.111,97.0
48.127,0.504,0.861,93.0
55.08,0.583,2.529,49.0
55.041,0.592,2.24,56.0
48.213,0.526,1.711,44.0
48.195,0.534,1.454,47.0
48.184,0.542,1.203,61.0
48.158,0.55,0.952,57.0
55.044,0.635,2.63,98.0
55.01,0.644,2.342,120.0
55.013,0.653,2.055,122.0
54.991,0.663,1.762,107.0
55.029,0.673,1.476,104.0
55.06,0.683,1.19,66.0
55.024,0.689,2.732,125.0
54.996,0.698,2.442,125.0
55.005,0.708,2.156,111.0
55.015,0.718,1.863,112.0
55.052,0.728,1.576,65.0
100.087,1.341,2.345,16.0
55.001,0.743,2.83,123.0
54.999,0.753,2.542,123.0
55.021,0.764,2.255,120.0
55.059,0.774,1.963,82.0
55.073,0.784,1.676,19.0
176.249,2.544,4.444,18.0
54.969,0.8,2.928,129.0
55.001,0.811,2.641,95.0
55.031,0.821,2.354,90.0
163.233,2.467,6.112,18.0
132.893,2.034,4.281,40.0
159.886,2.476,4.314,12.0
54.938,0.858,3.023,94.0
55.014,0.87,2.739,93.0
55.088,0.881,2.454,45.0
59.331,0.96,2.325,4.0
132.69,2.174,4.505,26.0
159.956,2.651,4.593,13.0
54.881,0.917,3.115,57.0
55.035,0.93,2.835,66.0
122.185,2.09,5.653,20.0
130.482,2.256,5.337,13.0
132.614,2.319,4.729,9.0
159.707,2.825,4.859,6.0
62.546,1.115,3.658,13.0
55.177,0.994,2.936,28.0
130.618,2.38,6.264,22.0
130.237,2.398,5.546,19.0
128.078,2.384,4.782,16.0
128.057,2.41,4.109,22.0
62.739,1.19,3.775,86.0
54.918,1.053,3.015,23.0
55.273,1.071,2.743,2.0
128.186,2.51,5.675,12.0
127.931,2.532,4.991,27.0
128.002,2.56,4.32,46.0
62.749,1.265,3.881,73.0
54.664,1.113,3.092,28.0
55.313,1.137,2.836,15.0
127.709,2.652,5.863,19.0
127.875,2.682,5.196,31.0
128.116,2.713,4.531,33.0
62.713,1.339,3.98,34.0
54.487,1.174,3.17,42.0
55.355,1.205,2.928,52.0
127.232,2.796,6.045,9.0
127.82,2.835,5.397,17.0
152.5,3.415,5.636,20.0
62.906,1.419,4.093,41.0
54.415,1.239,3.252,71.0
55.392,1.273,3.017,72.0
122.725,2.847,6.023,25.0
130.233,3.05,5.704,24.0
152.53,3.604,5.873,25.0
53.904,1.284,3.591,65.0
54.441,1.308,3.338,87.0
55.372,1.342,3.101,55.0
122.531,2.997,6.203,23.0
153.476,3.787,6.957,12.0
130.683,3.253,5.233,20.0
61.964,1.554,4.223,9.0
54.39,1.376,3.418,74.0
55.372,1.413,3.186,67.0
123.082,3.168,6.417,43.0
122.667,3.184,5.745,25.0
152.111,3.983,6.319,36.0
55.793,1.472,3.887,70.0
54.175,1.44,3.485,56.0
54.557,1.463,3.22,10.0
123.054,3.326,6.596,22.0
122.599,3.341,5.921,42.0
151.815,4.172,6.526,34.0
55.817,1.546,3.97,88.0
54.212,1.513,3.567,23.0
123.864,3.485,7.491,25.0
125.993,3.573,6.936,9.0
122.584,3.503,6.096,60.0
152.068,4.381,6.755,25.0
55.834,1.621,4.052,85.0
73.884,2.161,4.966,39.0
54.346,1.601,3.363,5.0
124.175,3.687,7.01,19.0
123.134,3.684,6.296,25.0
133.618,4.028,6.12,20.0
55.836,1.696,4.13,84.0
73.803,2.258,5.064,39.0
54.27,1.672,3.433,51.0
73.919,2.295,4.274,38.0
125.393,3.921,6.581,11.0
133.63,4.21,6.301,34.0
62.086,1.971,4.676,68.0
55.147,1.763,3.858,51.0
54.257,1.746,3.504,61.0
73.794,2.393,4.365,47.0
73.909,2.413,3.977,18.0
133.765,4.398,6.483,27.0
62.086,2.056,4.757,60.0
55.207,1.841,3.934,44.0
54.238,1.821,3.574,61.0
64.929,2.195,3.925,20.0
73.849,2.514,4.068,42.0
124.788,4.277,6.207,16.0
62.109,2.145,4.84,53.0
55.227,1.92,4.007,21.0
54.218,1.897,3.642,36.0
73.372,2.585,4.528,14.0
73.765,2.615,4.156,32.0
73.826,2.635,3.765,33.0
62.192,2.236,4.924,61.0
65.288,2.362,4.817,40.0
54.196,1.972,3.706,82.0
73.295,2.685,4.611,27.0
73.772,2.719,4.245,14.0
73.764,2.736,3.849,35.0
55.402,2.071,4.452,77.0
54.313,2.042,4.072,69.0
54.143,2.048,3.767,80.0
73.323,2.791,4.7,19.0
65.087,2.493,3.821,39.0
73.53,2.834,3.922,39.0
53.624,2.082,4.373,14.0
53.757,2.099,4.092,95.0
73.623,2.892,5.207,22.0
73.279,2.895,4.78,22.0
65.187,2.59,3.901,17.0
73.412,2.935,3.998,30.0
53.402,2.151,4.414,82.0
65.144,2.639,5.033,8.0
73.589,2.998,5.286,31.0
73.542,3.013,4.878,17.0
73.316,3.021,4.468,34.0
73.331,3.04,4.074,47.0
53.917,2.251,4.516,45.0
71.469,3.0,5.598,26.0
73.533,3.103,5.361,37.0
73.388,3.114,4.946,30.0
73.251,3.125,4.54,27.0
73.527,3.154,4.16,40.0
64.621,2.792,5.479,19.0
64.562,2.805,5.124,39.0
73.735,3.221,5.452,18.0
73.356,3.222,5.019,26.0
73.141,3.229,4.607,37.0
123.977,5.503,7.14,19.0
64.532,2.886,5.537,22.0
64.412,2.895,5.176,32.0
64.538,2.915,4.835,39.0
73.69,3.345,5.113,4.0
127.74,5.83,8.172,21.0
73.352,3.365,4.294,33.0
64.962,3.001,5.636,17.0
55.419,2.573,4.506,8.0
64.604,3.014,4.902,37.0
73.879,3.465,5.196,15.0
127.818,6.024,8.295,16.0
73.346,3.474,4.362,15.0
55.567,2.651,4.872,3.0
68.05,3.262,5.596,26.0
64.724,3.117,4.969,32.0
73.66,3.565,5.246,24.0
65.28,3.175,4.294,6.0
73.473,3.59,4.434,8.0
64.614,3.18,5.723,10.0
64.67,3.197,5.374,40.0
65.154,3.236,5.058,11.0
73.81,3.684,5.32,43.0
149.819,7.513,9.983,21.0
127.109,6.404,7.778,20.0
64.192,3.257,5.739,40.0
64.449,3.285,5.409,25.0
65.015,3.328,5.101,9.0
124.038,6.377,9.041,24.0
124.646,6.438,8.405,24.0
127.75,6.629,7.918,23.0
64.523,3.372,5.821,33.0
64.51,3.385,5.465,30.0
65.15,3.433,5.162,8.0
124.768,6.605,9.191,31.0
124.545,6.621,8.492,28.0
128.099,6.84,8.035,24.0
64.23,3.454,5.842,18.0
67.989,3.671,5.81,8.0
65.096,3.53,5.205,7.0
71.899,3.915,5.348,19.0
71.898,3.931,4.954,20.0
154.748,8.499,9.816,22.0
55.013,3.042,5.043,6.0
64.417,3.577,5.55,22.0
64.933,3.619,5.237,21.0
71.859,4.022,5.394,40.0
71.868,4.039,5.0,24.0
127.915,7.219,8.2,27.0
54.404,3.092,5.024,6.0
64.549,3.683,5.604,40.0
64.627,3.702,5.255,21.0
71.792,4.128,5.435,25.0
71.769,4.143,5.039,33.0
127.413,7.383,8.247,30.0
41.646,2.43,3.871,22.0
64.254,3.765,5.618,25.0
64.343,3.783,5.27,39.0
71.834,4.239,5.481,19.0
78.679,4.66,5.571,11.0
127.368,7.574,8.318,26.0
63.822,3.823,5.97,11.0
64.237,3.861,5.653,32.0
64.29,3.878,5.303,39.0
78.628,4.76,6.044,11.0
78.691,4.781,5.614,14.0
67.261,4.102,4.428,12.0
41.398,2.542,3.895,44.0
64.212,3.957,5.684,37.0
64.397,3.982,5.345,17.0
78.503,4.871,6.074,15.0
67.022,4.173,4.815,33.0
67.053,4.19,4.448,25.0
54.369,3.421,5.141,5.0
65.053,4.107,5.791,22.0
73.98,4.685,6.175,13.0
65.88,4.187,5.127,4.0
67.348,4.295,4.869,28.0
67.197,4.301,4.487,41.0
63.41,4.086,6.025,25.0
70.113,4.532,6.272,11.0
65.558,4.252,5.5,24.0
65.774,4.28,5.147,22.0
67.353,4.397,4.898,28.0
67.153,4.398,4.512,43.0
63.422,4.182,6.052,27.0
70.123,4.639,6.3,13.0
65.441,4.342,5.516,40.0
66.208,4.407,5.206,42.0
67.283,4.493,4.917,37.0
67.292,4.507,4.545,43.0
0.0,0.0,0.0,0.0
65.394,4.423,5.898,27.0
65.092,4.415,5.509,40.0
0.0,0.0,0.0,0.0
67.254,4.59,4.937,42.0
67.608,4.628,4.588,39.0
70.788,4.879,6.802,40.0
70.644,4.883,6.393,26.0
63.801,4.423,5.418,21.0
64.73,4.501,5.13,42.0
67.078,4.677,4.943,38.0
67.504,4.722,4.6,27.0
70.871,4.99,6.829,20.0
64.162,4.53,5.824,34.0
63.804,4.518,5.435,33.0
64.68,4.593,5.142,41.0
67.237,4.788,4.971,36.0
67.519,4.822,4.617,31.0
64.023,4.602,6.184,22.0
63.986,4.612,5.822,38.0
63.701,4.603,5.44,36.0
64.076,4.643,5.108,39.0
64.993,4.723,4.818,31.0
70.814,5.16,4.855,16.0
64.084,4.701,6.202,27.0
63.879,4.698,5.824,39.0
63.809,4.705,5.459,23.0
63.881,4.722,5.102,37.0
64.875,4.808,4.82,12.0
70.756,5.258,4.862,32.0
38.767,2.9,3.757,47.0
63.851,4.789,5.829,39.0
63.938,4.807,5.479,39.0
63.407,4.779,5.072,11.0
65.217,4.927,4.852,13.0
67.523,5.115,4.647,23.0
38.731,2.953,3.757,66.0
63.77,4.874,5.828,38.0
63.988,4.901,5.489,39.0
63.53,4.878,5.086,19.0
65.371,5.032,4.868,15.0
67.66,5.221,4.66,26.0
38.705,3.006,3.757,26.0
63.864,4.971,5.839,39.0
63.632,4.964,5.461,34.0
63.498,4.965,5.086,42.0
65.422,5.128,4.873,19.0
70.702,5.555,4.871,8.0
38.673,3.057,3.754,66.0
63.744,5.05,5.829,39.0
63.724,5.06,5.468,38.0
63.493,5.052,5.085,33.0
65.466,5.222,4.875,20.0
74.598,5.964,5.138,29.0
38.678,3.112,3.753,58.0
64.306,5.184,5.878,40.0
63.749,5.151,5.467,38.0
66.363,5.373,5.311,10.0
65.497,5.314,4.874,16.0
74.694,6.074,5.139,16.0
38.669,3.164,3.75,38.0
64.388,5.279,5.88,37.0
64.037,5.261,5.487,39.0
66.217,5.451,5.293,42.0
65.967,5.442,4.902,34.0
75.987,6.282,5.221,39.0
64.56,5.37,6.254,24.0
64.297,5.358,5.864,25.0
64.244,5.364,5.497,35.0
66.804,5.589,5.332,33.0
65.647,5.503,4.87,11.0
74.735,6.278,5.124,18.0
47.94,4.051,4.636,26.0
47.35,4.009,4.311,36.0
64.343,5.458,5.494,17.0
66.37,5.64,5.286,42.0
66.183,5.635,4.898,41.0
74.461,6.352,5.091,27.0
47.843,4.106,4.617,39.0
47.405,4.075,4.306,42.0
47.566,4.097,4.051,21.0
66.621,5.748,5.291,43.0
66.261,5.728,4.889,23.0
76.542,6.629,5.216,9.0
47.739,4.159,4.596,8.0
47.45,4.14,4.299,21.0
47.67,4.166,4.049,21.0
66.27,5.802,5.247,39.0
66.347,5.82,4.878,39.0
74.373,6.535,5.049,10.0
62.101,5.489,5.962,17.0
47.466,4.202,4.287,21.0
47.767,4.235,4.043,54.0
66.545,5.909,5.249,20.0
67.751,6.027,4.961,15.0
74.149,6.607,5.011,17.0
61.986,5.555,5.931,25.0
47.634,4.275,4.287,21.0
47.764,4.294,4.027,53.0
66.349,5.974,5.211,20.0
66.925,6.036,4.877,32.0
0.0,0.0,0.0,0.0
61.95,5.629,5.905,16.0
47.825,4.351,4.287,39.0
47.725,4.348,4.006,44.0
65.993,6.022,5.158,36.0
72.038,6.584,5.223,10.0
66.294,6.068,4.432,22.0
47.737,4.394,4.532,9.0
13.878,1.279,1.238,5.0
47.497,4.384,3.968,10.0
13.828,1.278,1.075,4.0
65.92,6.102,4.752,12.0
13.827,1.282,0.918,11.0
13.883,1.294,1.312,14.0
13.857,1.293,1.23,12.0
13.844,1.293,1.15,13.0
13.812,1.292,1.067,21.0
13.813,1.294,0.989,16.0
13.823,1.297,0.911,27.0
13.838,1.305,1.301,20.0
13.812,1.305,1.219,18.0
13.793,1.304,1.139,29.0
13.812,1.308,1.061,31.0
13.808,1.309,0.982,29.0
13.815,1.312,0.904,30.0
13.835,1.321,1.293,28.0
13.804,1.319,1.212,32.0
13.787,1.319,1.131,32.0
13.803,1.322,1.053,32.0
13.795,1.323,0.974,33.0
13.791,1.324,0.895,31.0
13.813,1.333,1.284,36.0
13.793,1.333,1.203,39.0
13.772,1.332,1.123,66.0
13.784,1.335,1.044,32.0
13.785,1.337,0.965,38.0
13.786,1.338,0.887,34.0
13.801,1.347,1.275,39.0
13.79,1.347,1.195,101.0
13.779,1.347,1.115,150.0
13.78,1.349,1.035,39.0
13.772,1.35,0.956,45.0
13.777,1.352,0.878,34.0
13.796,1.36,1.266,39.0
13.778,1.36,1.185,150.0
13.769,1.36,1.106,101.0
13.765,1.361,1.026,37.0
13.761,1.362,0.947,59.0
13.769,1.365,0.869,34.0
13.788,1.373,1.256,37.0
13.775,1.373,1.176,150.0
13.766,1.373,1.097,132.0
13.733,1.371,1.014,22.0
13.764,1.376,0.938,70.0
13.767,1.378,0.86,36.0
13.782,1.386,1.246,39.0
13.772,1.386,1.166,95.0
13.748,1.385,1.086,150.0
13.726,1.384,1.004,25.0
13.759,1.388,0.928,65.0
13.759,1.39,0.85,37.0
13.774,1.398,1.236,41.0
13.769,1.398,1.156,68.0
13.75,1.397,1.076,132.0
13.753,1.399,0.996,34.0
13.759,1.401,0.918,103.0
13.759,1.402,0.84,39.0
13.775,1.41,1.226,41.0
13.759,1.409,1.145,67.0
13.746,1.409,1.065,150.0
13.742,1.41,0.985,38.0
13.748,1.411,0.907,87.0
13.762,1.414,0.829,74.0
13.778,1.422,1.215,65.0
13.749,1.42,1.134,83.0
13.744,1.42,1.054,150.0
13.752,1.422,0.975,74.0
13.748,1.423,0.896,98.0
13.755,1.425,0.818,67.0
13.788,1.434,1.205,90.0
13.752,1.431,1.123,95.0
13.756,1.433,1.044,97.0
13.755,1.434,0.964,103.0
13.75,1.434,0.885,82.0
13.766,1.437,0.807,59.0
13.774,1.444,1.192,40.0
13.747,1.442,1.111,121.0
13.755,1.443,1.032,147.0
13.755,1.444,0.952,103.0
13.758,1.446,0.874,77.0
13.76,1.447,0.795,52.0
13.773,1.454,1.18,35.0
13.747,1.452,1.099,150.0
13.755,1.453,1.02,150.0
13.756,1.454,0.94,126.0
13.755,1.455,0.861,80.0
13.762,1.457,0.783,46.0
13.746,1.461,1.165,22.0
13.746,1.461,1.086,133.0
13.758,1.463,1.008,150.0
13.753,1.464,0.928,113.0
13.757,1.465,0.849,107.0
13.77,1.467,0.771,39.0
13.744,1.47,1.153,21.0
13.757,1.472,1.075,134.0
13.766,1.473,0.996,150.0
13.753,1.473,0.915,124.0
13.755,1.474,0.836,83.0
13.777,1.477,0.759,39.0
13.752,1.479,1.14,36.0
13.762,1.481,1.062,77.0
13.762,1.481,0.983,150.0
13.752,1.481,0.902,124.0
13.765,1.483,0.823,94.0
13.775,1.485,0.745,38.0
13.755,1.488,1.127,41.0
13.773,1.49,1.049,150.0
13.758,1.489,0.969,100.0
13.75,1.489,0.888,82.0
13.767,1.491,0.81,102.0
13.775,1.493,0.732,35.0
13.758,1.496,1.114,40.0
13.772,1.498,1.035,150.0
13.756,1.496,0.955,54.0
13.742,1.495,0.874,34.0
13.771,1.499,0.797,91.0
13.779,1.5,0.718,33.0
13.759,1.503,1.1,41.0
13.777,1.505,1.022,130.0
13.752,1.503,0.941,129.0
13.746,1.502,0.86,33.0
13.772,1.506,0.783,61.0
13.789,1.508,0.704,32.0
13.761,1.51,1.086,83.0
13.782,1.512,1.008,113.0
13.753,1.509,0.926,126.0
13.749,1.509,0.846,37.0
13.776,1.512,0.768,38.0
13.789,1.514,0.69,31.0
13.767,1.516,1.071,70.0
13.782,1.518,0.993,69.0
13.745,1.514,0.911,141.0
13.748,1.515,0.831,46.0
13.789,1.519,0.754,35.0
13.794,1.52,0.676,29.0
13.78,1.523,1.057,64.0
13.778,1.523,0.978,37.0
13.749,1.52,0.897,150.0
13.756,1.521,0.816,51.0
13.8,1.526,0.74,33.0
13.81,1.527,0.661,29.0
13.777,1.527,1.042,41.0
13.768,1.526,0.962,33.0
13.748,1.524,0.881,121.0
13.768,1.526,0.802,38.0
13.802,1.53,0.725,31.0
13.812,1.532,0.646,25.0
13.791,1.533,1.027,40.0
13.758,1.529,0.946,36.0
13.758,1.529,0.866,107.0
13.773,1.531,0.787,34.0
13.805,1.535,0.709,27.0
13.81,1.535,0.63,19.0
13.791,1.537,1.012,37.0
13.757,1.533,0.93,37.0
13.752,1.532,0.85,39.0
13.789,1.536,0.772,31.0
13.799,1.537,0.693,21.0
13.811,1.539,0.614,15.0
13.786,1.539,0.995,33.0
13.761,1.536,0.914,40.0
13.763,1.536,0.835,50.0
13.8,1.54,0.756,28.0
13.82,1.542,0.678,21.0
35.867,4.003,1.555,21.0
13.785,1.541,0.979,29.0
13.756,1.538,0.898,66.0
13.771,1.539,0.819,49.0
13.8,1.542,0.74,25.0
13.82,1.544,0.662,16.0
35.863,4.008,1.513,25.0
13.78,1.542,0.962,27.0
13.756,1.539,0.881,47.0
13.781,1.542,0.803,35.0
13.8,1.544,0.724,20.0
35.845,4.01,1.675,4.0
35.87,4.012,1.47,34.0
13.772,1.543,0.945,29.0
13.762,1.541,0.865,49.0
13.794,1.544,0.788,32.0
13.809,1.546,0.708,15.0
35.872,4.015,1.633,48.0
35.873,4.015,1.427,58.0
13.755,1.541,0.927,30.0
13.776,1.543,0.849,57.0
13.8,1.545,0.771,29.0
13.818,1.547,0.691,17.0
35.868,4.015,1.589,73.0
35.886,4.016,1.384,65.0
13.759,1.542,0.911,36.0
13.784,1.544,0.833,60.0
13.793,1.544,0.754,24.0
13.826,1.547,0.675,14.0
35.856,4.013,1.545,55.0
35.878,4.014,1.34,39.0
13.761,1.541,0.894,39.0
13.784,1.543,0.816,39.0
13.806,1.545,0.738,22.0
13.82,1.546,0.658,13.0
35.865,4.011,1.501,29.0
35.889,4.013,1.296,5.0
13.769,1.541,0.877,37.0
13.777,1.541,0.798,36.0
13.803,1.543,0.721,21.0
35.854,4.007,1.663,7.0
35.879,4.008,1.458,22.0
13.807,1.542,0.481,7.0
13.767,1.538,0.86,39.0
13.793,1.54,0.782,33.0
13.8,1.54,0.703,20.0
35.85,4.001,1.618,6.0
35.875,4.002,1.413,28.0
13.806,1.539,0.464,8.0
13.774,1.537,0.843,38.0
13.802,1.539,0.765,33.0
13.803,1.538,0.686,20.0
13.807,1.538,0.605,14.0
35.869,3.994,1.367,6.0
13.811,1.537,0.447,9.0
13.777,1.534,0.826,40.0
13.801,1.535,0.748,33.0
13.803,1.535,0.669,23.0
13.8,1.533,0.588,18.0
13.81,1.534,0.509,15.0
13.819,1.534,0.43,13.0
13.776,1.53,0.808,37.0
13.798,1.531,0.73,34.0
13.798,1.53,0.651,28.0
13.793,1.529,0.57,21.0
13.803,1.529,0.491,17.0
13.806,1.528,0.412,17.0
13.776,1.525,0.791,37.0
13.801,1.527,0.713,33.0
13.803,1.526,0.634,29.0
13.79,1.524,0.552,22.0
13.816,1.526,0.474,25.0
13.805,1.523,0.395,22.0
13.793,1.522,0.774,38.0
13.795,1.521,0.695,35.0
13.789,1.519,0.615,29.0
13.799,1.519,0.535,25.0
13.805,1.519,0.456,28.0
13.804,1.518,0.377,27.0
13.797,1.517,0.757,38.0
13.795,1.515,0.678,38.0
13.795,1.514,0.598,31.0
13.8,1.513,0.518,28.0
13.801,1.513,0.439,30.0
13.806,1.512,0.36,29.0
13.794,1.51,0.739,37.0
13.793,1.509,0.66,44.0
13.791,1.507,0.58,33.0
13.79,1.506,0.5,32.0
13.795,1.505,0.421,32.0
13.805,1.505,0.342,31.0
13.787,1.502,0.721,37.0
13.791,1.501,0.642,40.0
13.777,1.498,0.562,37.0
13.789,1.498,0.482,34.0
13.792,1.498,0.403,35.0
13.791,1.496,0.324,33.0
13.784,1.494,0.703,40.0
13.785,1.493,0.624,39.0
13.78,1.491,0.545,43.0
13.783,1.49,0.465,38.0
13.788,1.489,0.386,35.0
13.79,1.488,0.307,33.0
13.779,1.486,0.686,40.0
13.779,1.484,0.606,50.0
13.774,1.482,0.527,75.0
13.773,1.48,0.447,39.0
13.788,1.481,0.368,37.0
13.778,1.478,0.289,33.0
13.777,1.477,0.668,44.0
13.781,1.475,0.589,92.0
13.784,1.474,0.51,123.0
13.771,1.471,0.429,40.0
13.78,1.471,0.351,46.0
13.767,1.468,0.272,33.0
13.774,1.467,0.651,61.0
13.785,1.466,0.572,145.0
13.78,1.464,0.493,127.0
13.78,1.462,0.412,42.0
13.771,1.46,0.333,37.0
13.765,1.458,0.254,34.0
13.772,1.456,0.633,39.0
13.776,1.455,0.554,150.0
13.775,1.453,0.475,146.0
13.773,1.451,0.395,51.0
13.77,1.449,0.316,38.0
13.771,1.448,0.237,34.0
13.759,1.444,0.615,40.0
13.783,1.445,0.537,150.0
13.779,1.443,0.458,150.0
13.767,1.44,0.378,50.0
13.764,1.438,0.299,36.0
13.773,1.437,0.22,35.0
13.765,1.434,0.599,39.0
13.777,1.433,0.52,150.0
13.784,1.432,0.441,150.0
13.773,1.429,0.361,46.0
13.764,1.426,0.282,38.0
13.764,1.425,0.203,35.0
13.773,1.423,0.582,42.0
13.781,1.422,0.503,150.0
13.779,1.419,0.424,142.0
13.765,1.416,0.344,40.0
13.755,1.413,0.265,51.0
13.762,1.412,0.186,36.0
13.77,1.41,0.565,63.0
13.784,1.409,0.486,142.0
13.783,1.407,0.408,103.0
13.762,1.403,0.327,40.0
13.764,1.402,0.248,47.0
13.763,1.4,0.17,35.0
13.777,1.398,0.548,82.0
13.785,1.396,0.47,150.0
13.777,1.393,0.391,146.0
13.768,1.39,0.31,39.0
13.769,1.389,0.232,51.0
13.773,1.387,0.153,35.0
13.785,1.385,0.532,80.0
13.793,1.383,0.454,139.0
13.784,1.38,0.375,150.0
13.765,1.377,0.294,40.0
13.78,1.376,0.216,41.0
13.783,1.374,0.137,36.0
13.788,1.371,0.516,59.0
13.799,1.37,0.438,134.0
13.79,1.367,0.359,124.0
13.783,1.364,0.278,61.0
13.784,1.362,0.2,38.0
13.786,1.36,0.121,37.0
13.799,1.357,0.5,41.0
13.801,1.355,0.422,131.0
13.788,1.352,0.342,105.0
13.779,1.348,0.262,39.0
13.787,1.347,0.184,37.0
13.797,1.346,0.105,36.0
13.81,1.343,0.485,40.0
13.812,1.341,0.406,74.0
13.797,1.337,0.327,39.0
13.791,1.334,0.246,36.0
13.795,1.332,0.168,33.0
13.805,1.331,0.089,35.0
13.826,1.329,0.47,37.0
13.822,1.326,0.391,48.0
13.805,1.322,0.311,35.0
13.811,1.32,0.231,32.0
13.821,1.319,0.153,34.0
13.813,1.315,0.074,33.0
13.835,1.313,0.454,36.0
13.826,1.31,0.375,38.0
13.82,1.307,0.296,33.0
13.817,1.304,0.216,26.0
13.84,1.303,0.137,31.0
13.835,1.301,0.058,29.0
13.858,1.298,0.44,30.0
13.838,1.293,0.36,31.0
13.827,1.29,0.281,19.0
13.844,1.289,0.201,19.0
13.845,1.287,0.122,21.0
13.852,1.285,0.043,23.0
13.864,1.281,0.425,15.0
13.856,1.278,0.346,10.0
13.853,1.275,0.267,7.0
13.852,1.272,0.186,7.0
13.859,1.27,0.108,6.0
13.881,1.27,0.029,11.0
114.948,10.475,3.403,32.0
115.425,10.494,2.76,12.0
115.559,10.483,2.106,11.0
78.37,7.095,0.974,2.0
0.0,0.0,0.0,0.0
41.406,3.733,0.044,10.0
120.628,10.83,3.444,26.0
120.66,10.808,2.76,46.0
120.668,10.784,2.073,28.0
74.737,6.664,0.851,8.0
54.581,4.856,0.311,28.0
41.276,3.665,0.001,40.0
28.651,2.532,0.788,15.0
120.66,10.64,2.635,40.0
34.165,3.005,0.552,6.0
74.363,6.527,0.772,13.0
54.293,4.755,0.255,28.0
41.101,3.591,-0.039,38.0
28.605,2.487,0.758,32.0
34.304,2.975,0.714,3.0
34.309,2.969,0.52,3.0
34.293,2.961,0.322,22.0
34.284,2.953,0.127,1.0
38.363,3.297,-0.074,7.0
28.533,2.44,0.729,150.0
28.467,2.428,0.565,38.0
28.475,2.423,0.404,32.0
28.471,2.416,0.239,28.0
28.571,2.419,0.078,7.0
28.441,2.402,-0.082,9.0
28.441,2.39,0.699,35.0
28.449,2.384,0.538,55.0
28.441,2.377,0.376,52.0
28.47,2.374,0.213,32.0
28.504,2.37,0.051,21.0
28.368,2.353,-0.109,18.0
28.429,2.345,0.672,50.0
28.423,2.338,0.51,52.0
28.427,2.332,0.35,48.0
28.479,2.33,0.186,38.0
28.48,2.324,0.025,22.0
28.36,2.308,-0.135,12.0
28.42,2.3,0.646,59.0
28.408,2.293,0.485,52.0
28.407,2.286,0.324,55.0
28.493,2.286,0.161,29.0
28.507,2.281,0.0,17.0
28.419,2.268,-0.16,16.0
28.42,2.255,0.621,59.0
28.407,2.248,0.46,56.0
28.431,2.243,0.3,57.0
28.528,2.244,0.137,32.0
28.578,2.242,-0.024,18.0
35.094,2.745,-0.228,10.0
28.409,2.209,0.597,64.0
28.418,2.203,0.436,58.0
28.443,2.198,0.276,44.0
28.597,2.203,0.113,16.0
28.68,2.203,-0.048,40.0
28.673,2.196,-0.21,18.0
28.426,2.163,0.573,65.0
28.439,2.157,0.413,47.0
28.458,2.152,0.253,30.0
28.614,2.157,0.09,27.0
28.653,2.153,-0.071,30.0
28.679,2.148,-0.233,30.0
28.448,2.117,0.551,57.0
28.447,2.11,0.391,34.0
28.516,2.108,0.231,19.0
28.655,2.111,0.067,17.0
28.673,2.106,-0.093,22.0
28.732,2.104,-0.255,20.0
28.461,2.07,0.53,37.0
28.498,2.065,0.37,20.0
28.59,2.065,0.21,21.0
46.14,3.321,0.074,10.0
36.208,2.597,-0.145,2.0
34.983,2.5,-0.337,1.0
28.529,2.025,0.51,66.0
28.586,2.022,0.35,19.0
57.846,4.077,0.382,31.0
42.054,2.953,0.037,17.0
0.0,0.0,0.0,0.0
32.005,2.231,-0.331,1.0
114.648,7.937,1.968,14.0
80.64,5.562,0.93,5.0
57.819,3.973,0.341,10.0
41.792,2.86,0.007,36.0
35.458,2.418,-0.192,20.0
31.325,2.128,-0.346,1.0
139.606,9.418,2.302,22.0
78.081,5.246,0.848,7.0
55.006,3.681,0.288,28.0
41.071,2.737,-0.019,16.0
0.0,0.0,0.0,0.0
30.734,2.032,-0.359,1.0
139.572,9.162,2.21,5.0
74.878,4.894,0.765,11.0
54.806,3.568,0.252,29.0
40.889,2.65,-0.045,46.0
35.306,2.279,-0.237,11.0
30.43,1.957,-0.375,1.0
120.956,7.718,1.841,6.0
74.832,4.753,0.719,11.0
33.462,2.116,0.134,4.0
40.515,2.551,-0.069,16.0
33.354,2.091,-0.243,10.0
30.133,1.882,-0.389,2.0
33.475,2.074,0.49,150.0
33.448,2.062,0.302,6.0
33.485,2.056,0.114,6.0
40.251,2.46,-0.091,37.0
35.263,2.145,-0.277,7.0
29.775,1.804,-0.401,2.0
120.915,7.266,1.704,14.0
74.183,4.437,0.63,30.0
47.034,2.8,0.136,21.0
40.256,2.385,-0.112,23.0
35.272,2.08,-0.296,7.0
29.403,1.726,-0.411,2.0
96.571,5.619,1.31,7.0
73.728,4.269,0.588,24.0
46.68,2.689,0.111,21.0
40.084,2.298,-0.132,3.0
35.237,2.01,-0.313,5.0
29.085,1.65,-0.421,2.0
94.524,5.318,1.236,3.0
73.512,4.114,0.551,15.0
46.248,2.575,0.088,21.0
36.615,2.028,-0.138,12.0
35.336,1.947,-0.33,1.0
28.891,1.583,-0.431,3.0
81.873,4.447,1.034,9.0
73.499,3.971,0.518,16.0
0.0,0.0,0.0,0.0
36.647,1.958,-0.154,13.0
32.694,1.737,-0.319,1.0
28.802,1.522,-0.442,1.0
81.955,4.291,1.001,9.0
73.517,3.827,0.488,10.0
46.645,2.414,0.049,16.0
36.214,1.864,-0.166,42.0
32.516,1.664,-0.33,1.0
28.613,1.455,-0.45,1.0
81.896,4.125,0.969,9.0
58.793,2.944,0.368,9.0
43.096,2.145,0.03,18.0
36.127,1.787,-0.179,43.0
32.087,1.577,-0.338,1.0
24.938,1.218,-0.401,1.0
78.943,3.819,0.906,12.0
58.63,2.817,0.347,5.0
42.184,2.014,0.015,15.0
36.148,1.714,-0.191,35.0
31.812,1.499,-0.345,1.0
24.831,1.163,-0.407,1.0
78.636,3.644,0.879,18.0
58.506,2.693,0.328,11.0
42.246,1.932,0.002,17.0
36.12,1.64,-0.201,33.0
31.618,1.426,-0.352,2.0
24.902,1.115,-0.415,3.0
78.597,3.483,0.856,14.0
58.651,2.58,0.314,8.0
42.126,1.841,-0.008,17.0
36.153,1.568,-0.211,27.0
31.377,1.351,-0.357,2.0
24.656,1.054,-0.417,2.0
78.239,3.307,0.834,19.0
58.599,2.458,0.299,8.0
42.041,1.75,-0.017,17.0
36.174,1.495,-0.219,22.0
31.244,1.281,-0.362,1.0
24.578,1.0,-0.421,2.0
78.331,3.149,0.819,24.0
58.723,2.342,0.289,7.0
41.948,1.66,-0.025,19.0
36.227,1.422,-0.226,17.0
30.959,1.205,-0.364,8.0
24.46,0.945,-0.423,2.0
78.151,2.981,0.804,29.0
58.774,2.223,0.279,8.0
41.89,1.571,-0.032,18.0
36.268,1.348,-0.231,14.0
30.924,1.14,-0.368,2.0
24.351,0.89,-0.424,2.0
78.114,2.818,0.794,39.0
58.809,2.103,0.273,11.0
46.61,1.651,-0.041,7.0
36.336,1.275,-0.236,12.0
30.77,1.07,-0.37,1.0
24.314,0.838,-0.426,1.0
78.091,2.655,0.787,35.0
58.747,1.978,0.268,10.0
42.663,1.422,-0.04,5.0
36.398,1.202,-0.239,12.0
30.835,1.008,-0.372,2.0
27.627,0.894,-0.486,1.0
78.052,2.49,0.782,30.0
58.553,1.849,0.264,14.0
40.842,1.276,-0.04,15.0
36.538,1.13,-0.241,12.0
30.849,0.944,-0.373,2.0
27.462,0.831,-0.484,1.0
78.052,2.327,0.781,35.0
58.726,1.731,0.264,19.0
41.316,1.204,-0.041,16.0
36.629,1.056,-0.241,12.0
30.846,0.878,-0.373,1.0
27.445,0.772,-0.483,1.0
78.112,2.165,0.783,34.0
58.809,1.61,0.266,23.0
37.044,1.001,-0.035,13.0
36.769,0.982,-0.241,13.0
30.963,0.816,-0.373,2.0
27.388,0.713,-0.48,1.0
78.191,2.001,0.789,29.0
58.674,1.482,0.269,32.0
45.086,1.123,-0.04,10.0
36.825,0.905,-0.238,15.0
31.158,0.755,-0.372,1.0
27.405,0.655,-0.478,1.0
78.272,1.837,0.797,27.0
58.156,1.345,0.273,14.0
0.0,0.0,0.0,0.0
36.993,0.831,-0.235,13.0
31.239,0.691,-0.37,2.0
27.501,0.599,-0.476,1.0
80.374,1.717,0.829,10.0
59.906,1.259,0.29,34.0
45.842,0.948,-0.029,20.0
37.161,0.756,-0.23,19.0
31.306,0.626,-0.365,1.0
27.66,0.544,-0.474,1.0
80.46,1.55,0.844,10.0
60.428,1.143,0.303,35.0
0.0,0.0,0.0,0.0
37.327,0.68,-0.224,24.0
31.489,0.563,-0.361,1.0
27.81,0.488,-0.471,1.0
89.68,1.537,0.959,10.0
60.964,1.023,0.319,35.0
0.0,0.0,0.0,0.0
37.552,0.605,-0.217,27.0
31.825,0.501,-0.358,2.0
28.019,0.431,-0.468,2.0
89.773,1.347,0.983,9.0
62.371,0.914,0.342,15.0
0.0,0.0,0.0,0.0
37.76,0.527,-0.208,34.0
32.184,0.438,-0.353,1.0
28.266,0.375,-0.464,2.0
48.158,0.62,0.541,38.0
48.062,0.602,0.278,79.0
46.733,0.569,0.015,44.0
38.015,0.449,-0.197,38.0
32.416,0.372,-0.345,1.0
28.553,0.318,-0.459,1.0
48.09,0.517,0.556,106.0
48.049,0.5,0.294,100.0
47.34,0.476,0.032,42.0
38.301,0.371,-0.186,43.0
32.915,0.308,-0.339,1.0
28.797,0.259,-0.453,2.0
48.078,0.415,0.573,112.0
48.055,0.398,0.311,97.0
47.733,0.378,0.05,56.0
38.687,0.294,-0.173,46.0
33.17,0.24,-0.328,1.0
29.031,0.2,-0.445,2.0
48.188,0.314,0.594,55.0
55.079,0.34,0.379,17.0
54.574,0.318,0.08,7.0
39.097,0.214,-0.158,47.0
33.437,0.172,-0.317,1.0
29.234,0.14,-0.436,2.0
79.437,0.351,1.013,150.0
76.676,0.313,0.562,55.0
54.122,0.202,0.103,28.0
39.578,0.134,-0.142,43.0
33.499,0.102,-0.302,0.0
29.507,0.079,-0.426,3.0
79.469,0.185,1.051,151.0
79.435,0.159,0.62,7.0
0.0,0.0,0.0,0.0
40.434,0.052,-0.125,17.0
38.093,0.036,-0.325,1.0
29.73,0.018,-0.414,2.0
79.46,0.02,1.091,151.0
79.323,-0.007,0.661,59.0
55.718,-0.023,0.162,29.0
41.316,-0.032,-0.106,17.0
38.183,-0.043,-0.305,2.0
30.062,-0.044,-0.402,2.0
79.467,-0.143,1.135,151.0
79.448,-0.171,0.705,150.0
56.176,-0.14,0.195,10.0
42.429,-0.121,-0.085,17.0
38.999,-0.124,-0.289,2.0
30.497,-0.107,-0.391,1.0
79.458,-0.307,1.181,151.0
79.471,-0.335,0.752,157.0
61.353,-0.279,0.249,18.0
46.315,-0.226,-0.066,20.0
39.845,-0.209,-0.271,2.0
30.881,-0.172,-0.377,1.0
79.454,-0.469,1.229,162.0
79.454,-0.497,0.801,183.0
61.587,-0.406,0.289,6.0
46.786,-0.324,-0.037,4.0
40.423,-0.294,-0.249,5.0
31.465,-0.24,-0.364,1.0
79.446,-0.632,1.281,178.0
79.451,-0.659,0.853,189.0
77.286,-0.668,0.414,8.0
53.828,-0.483,-0.006,5.0
0.0,0.0,0.0,0.0
32.49,-0.314,-0.353,1.0
79.433,-0.794,1.336,188.0
79.452,-0.82,0.908,165.0
78.036,-0.833,0.473,13.0
80.033,-0.882,0.046,21.0
43.38,-0.492,-0.207,1.0
33.144,-0.388,-0.336,1.0
79.419,-0.954,1.393,150.0
86.981,-1.074,1.058,12.0
78.934,-1.003,0.537,13.0
60.763,-0.792,0.081,4.0
46.728,-0.625,-0.188,1.0
34.223,-0.47,-0.321,1.0
183.375,-2.57,3.356,77.0
148.451,-2.13,1.92,13.0
91.582,-1.346,0.693,2.0
248.34,-3.731,0.522,105.0
46.431,-0.713,-0.151,2.0
35.114,-0.551,-0.302,0.0
0.0,0.0,0.0,0.0
205.39,-3.353,2.819,23.0
40.275,-0.671,0.337,40.0
40.266,-0.684,0.117,57.0
40.316,-0.698,-0.098,63.0
40.147,-0.708,-0.313,2.0
40.196,-0.721,0.8,65.0
40.281,-0.736,0.586,35.0
40.229,-0.749,0.37,60.0
40.286,-0.763,0.15,45.0
53.731,-1.036,-0.086,1.0
40.178,-0.787,-0.279,4.0
40.22,-0.799,0.834,53.0
40.226,-0.813,0.62,55.0
40.269,-0.827,0.405,30.0
0.0,0.0,0.0,0.0
0.0,0.0,0.0,0.0
40.271,-0.867,-0.244,3.0
40.202,-0.876,0.87,59.0
40.302,-0.892,0.657,80.0
40.316,-0.906,0.442,109.0
40.284,-0.918,0.222,70.0
40.302,-0.932,0.007,150.0
40.289,-0.945,-0.207,121.0
40.195,-0.953,0.907,59.0
40.208,-0.966,0.693,70.0
40.218,-0.98,0.478,55.0
40.228,-0.993,0.26,14.0
66.59,-1.668,0.076,1.0
40.999,-1.04,-0.171,153.0
40.201,-1.029,0.945,57.0
40.214,-1.043,0.731,49.0
40.219,-1.056,0.517,50.0
40.179,-1.068,0.298,59.0
40.181,-1.081,0.084,56.0
40.521,-1.103,-0.13,77.0
40.287,-1.106,0.987,32.0
0.0,0.0,0.0,0.0
153.886,-4.325,2.132,4.0
40.225,-1.143,0.339,4.0
40.202,-1.156,0.125,29.0
40.217,-1.169,-0.088,45.0
40.305,-1.181,1.028,28.0
40.323,-1.195,0.814,23.0
40.341,-1.208,0.6,40.0
0.0,0.0,0.0,0.0
0.0,0.0,0.0,0.0
0.0,0.0,0.0,0.0
40.334,-1.255,1.071,8.0
40.357,-1.268,0.857,7.0
40.331,-1.28,0.642,0.0
126.613,-4.06,1.332,2.0
0.0,0.0,0.0,0.0
59.268,-1.938,-0.005,0.0
0.0,0.0,0.0,0.0
0.0,0.0,0.0,0.0
0.0,0.0,0.0,0.0
0.0,0.0,0.0,0.0
0.0,0.0,0.0,0.0
0.0,0.0,0.0,0.0
0.0,0.0,0.0,0.0
0.0,0.0,0.0,0.0
0.0,0.0,0.0,0.0
0.0,0.0,0.0,0.0
0.0,0.0,0.0,0.0
0.0,0.0,0.0,0.0
0.0,0.0,0.0,0.0
0.0,0.0,0.0,0.0
0.0,0.0,0.0,0.0
0.0,0.0,0.0,0.0
0.0,0.0,0.0,0.0
0.0,0.0,0.0,0.0
0.0,0.0,0.0,0.0
0.0,0.0,0.0,0.0
0.0,0.0,0.0,0.0
0.0,0.0,0.0,0.0
126.509,-4.98,1.236,2.0
0.0,0.0,0.0,0.0
0.0,0.0,0.0,0.0
0.0,0.0,0.0,0.0
0.0,0.0,0.0,0.0
0.0,0.0,0.0,0.0
0.0,0.0,0.0,0.0
0.0,0.0,0.0,0.0
0.0,0.0,0.0,0.0
0.0,0.0,0.0,0.0
0.0,0.0,0.0,0.0
0.0,0.0,0.0,0.0
0.0,0.0,0.0,0.0
0.0,0.0,0.0,0.0
0.0,0.0,0.0,0.0
0.0,0.0,0.0,0.0
0.0,0.0,0.0,0.0
0.0,0.0,0.0,0.0
0.0,0.0,0.0,0.0
0.0,0.0,0.0,0.0
0.0,0.0,0.0,0.0
0.0,0.0,0.0,0.0
0.0,0.0,0.0,0.0
0.0,0.0,0.0,0.0
0.0,0.0,0.0,0.0
0.0,0.0,0.0,0.0
0.0,0.0,0.0,0.0
0.0,0.0,0.0,0.0
0.0,0.0,0.0,0.0
150.728,-7.144,2.415,3.0
0.0,0.0,0.0,0.0
0.0,0.0,0.0,0.0
0.0,0.0,0.0,0.0
150.945,-7.38,2.615,73.0
150.997,-7.424,1.822,14.0
0.0,0.0,0.0,0.0
0.0,0.0,0.0,0.0
0.0,0.0,0.0,0.0
151.009,-7.606,2.818,84.0
150.699,-7.629,2.019,20.0
0.0,0.0,0.0,0.0
0.0,0.0,0.0,0.0
0.0,0.0,0.0,0.0
0.0,0.0,0.0,0.0
151.031,-7.824,3.024,12.0
150.948,-7.859,2.229,45.0
0.0,0.0,0.0,0.0
0.0,0.0,0.0,0.0
0.0,0.0,0.0,0.0
233.869,-12.503,3.776,31.0
0.0,0.0,0.0,0.0
0.0,0.0,0.0,0.0
0.0,0.0,0.0,0.0
0.0,0.0,0.0,0.0
228.084,-12.505,4.002,151.0
212.317,-11.679,9.626,5.0
0.0,0.0,0.0,0.0
0.0,0.0,0.0,0.0
0.0,0.0,0.0,0.0
0.0,0.0,0.0,0.0
228.074,-12.81,4.326,6.0
0.0,0.0,0.0,0.0
0.0,0.0,0.0,0.0
0.0,0.0,0.0,0.0
278.758,-15.893,8.614,22.0
271.684,-15.55,6.971,113.0
0.0,0.0,0.0,0.0
205.275,-11.832,9.897,7.0
0.0,0.0,0.0,0.0
228.958,-13.294,8.632,8.0
271.759,-15.839,8.792,17.0
271.692,-15.896,7.366,150.0
279.124,-16.394,6.105,16.0
150.136,-8.842,7.458,6.0
0.0,0.0,0.0,0.0
211.942,-12.571,8.301,22.0
212.314,-12.636,7.18,14.0
271.986,-16.245,7.771,60.0
272.099,-16.31,6.346,46.0
150.024,-9.017,7.673,4.0
0.0,0.0,0.0,0.0
0.0,0.0,0.0,0.0
228.004,-13.844,8.046,35.0
0.0,0.0,0.0,0.0
263.449,-16.103,6.538,87.0
149.322,-9.154,7.861,4.0
164.313,-10.105,7.787,4.0
214.072,-13.206,9.02,7.0
212.922,-13.175,7.834,24.0
212.603,-13.198,6.709,6.0
0.0,0.0,0.0,0.0
147.921,-9.238,8.009,7.0
149.958,-9.392,7.332,11.0
222.35,-13.967,9.703,12.0
208.779,-13.154,7.996,8.0
212.362,-13.417,7.019,6.0
248.365,-15.739,6.907,166.0
213.162,-13.546,11.863,8.0
148.443,-9.46,7.481,14.0
203.452,-13.0,9.187,6.0
0.0,0.0,0.0,0.0
208.39,-13.39,7.202,31.0
248.33,-16.0,7.283,153.0
148.351,-9.585,8.482,4.0
156.308,-10.126,8.116,4.0
157.228,-10.212,7.34,5.0
204.304,-13.306,8.446,25.0
208.411,-13.61,7.525,9.0
209.111,-13.69,6.455,30.0
148.229,-9.73,8.703,4.0
148.388,-9.764,7.933,3.0
158.182,-10.433,7.627,5.0
194.5,-12.861,8.34,7.0
204.382,-13.548,7.691,31.0
208.571,-13.86,6.758,33.0
157.056,-10.463,9.465,5.0
147.26,-9.833,8.1,4.0
156.262,-10.458,7.776,6.0
0.0,0.0,0.0,0.0
203.401,-13.675,7.969,9.0
208.215,-14.032,7.068,16.0
156.271,-10.559,9.659,3.0
158.333,-10.719,8.955,4.0
0.0,0.0,0.0,0.0
158.395,-10.77,7.28,3.0
197.634,-13.468,8.049,13.0
203.935,-13.926,7.239,25.0
162.852,-11.15,10.321,11.0
164.423,-11.28,9.555,10.0
148.64,-10.215,7.857,3.0
158.169,-10.892,7.514,8.0
196.644,-13.57,8.313,8.0
208.67,-14.427,7.728,9.0
150.547,-10.435,9.774,16.0
148.809,-10.334,8.877,4.0
0.0,0.0,0.0,0.0
148.845,-10.373,7.304,7.0
194.994,-13.615,8.547,7.0
0.0,0.0,0.0,0.0
150.288,-10.54,9.993,5.0
163.278,-11.47,9.999,4.0
156.591,-11.019,8.765,6.0
164.21,-11.575,8.315,8.0
156.341,-11.038,7.096,5.0
195.013,-13.793,7.831,20.0
206.96,-14.676,14.084,22.0
149.812,-10.638,9.408,3.0
157.646,-11.212,9.07,5.0
158.135,-11.264,8.253,5.0
158.186,-11.284,7.426,4.0
164.493,-11.753,6.859,37.0
206.742,-14.81,14.393,19.0
162.128,-11.629,10.434,4.0
150.321,-10.797,8.885,10.0
157.599,-11.337,8.473,5.0
158.297,-11.403,7.679,9.0
156.452,-11.286,6.769,4.0
109.085,-7.889,7.766,4.0
158.747,-11.496,10.467,4.0
0.0,0.0,0.0,0.0
146.118,-10.609,8.085,3.0
158.091,-11.491,7.917,13.0
156.085,-11.361,6.999,11.0
149.213,-10.889,10.858,13.0
149.22,-10.9,10.074,4.0
147.111,-10.758,9.156,6.0
148.256,-10.855,8.433,9.0
148.323,-10.871,7.659,7.0
157.933,-11.59,7.328,14.0
108.853,-8.009,8.093,6.0
149.274,-10.994,10.312,11.0
0.0,0.0,0.0,0.0
158.794,-11.717,9.283,3.0
148.998,-11.006,7.927,3.0
158.028,-11.686,7.579,8.0
208.601,-15.466,15.837,8.0
108.915,-8.081,7.695,5.0
149.009,-11.066,9.744,6.0
162.672,-12.091,9.766,6.0
150.086,-11.166,8.221,9.0
149.124,-11.104,7.385,6.0
148.804,-11.109,11.531,5.0
108.794,-8.128,7.857,7.0
156.524,-11.701,10.478,5.0
162.078,-12.126,9.982,7.0
146.779,-10.99,8.269,4.0
158.253,-11.858,8.083,4.0
164.759,-12.378,13.024,3.0
107.724,-8.098,7.947,2.0
107.614,-8.095,7.371,2.0
149.36,-11.24,9.429,10.0
157.643,-11.872,9.122,11.0
158.105,-11.915,8.319,6.0
107.799,-8.144,8.689,1.0
208.101,-15.73,15.674,18.0
124.107,-9.386,8.693,5.0
106.615,-8.067,6.896,3.0
107.696,-8.152,6.399,2.0
157.888,-11.959,8.55,11.0
108.282,-8.223,8.896,7.0
148.285,-11.264,11.397,11.0
108.82,-8.27,7.789,7.0
117.442,-8.928,7.775,6.0
149.335,-11.357,9.101,11.0
146.816,-11.17,8.174,4.0
148.828,-11.354,12.456,7.0
148.424,-11.325,11.637,15.0
148.218,-11.311,10.839,12.0
124.221,-9.482,8.416,2.0
106.53,-8.135,6.656,3.0
155.657,-11.891,8.906,8.0
0.0,0.0,0.0,0.0
107.853,-8.26,8.623,9.0
148.467,-11.373,11.084,22.0
108.839,-8.339,7.54,15.0
106.706,-8.176,6.829,5.0
149.391,-11.449,8.774,7.0
105.913,-8.139,9.189,2.0
98.788,-7.59,8.048,1.0
148.685,-11.425,11.326,14.0
108.96,-8.373,7.712,10.0
164.831,-12.667,10.798,5.0
149.436,-11.484,9.001,12.0
105.938,-8.163,9.352,5.0
97.577,-7.518,8.097,2.0
105.533,-8.13,8.198,5.0
108.426,-8.352,7.838,2.0
148.509,-11.439,9.951,5.0
106.533,-8.206,6.576,3.0
0.0,0.0,0.0,0.0
108.774,-8.398,9.188,5.0
107.969,-8.334,8.547,12.0
107.96,-8.331,7.964,2.0
108.664,-8.384,7.441,15.0
115.626,-8.921,7.306,3.0
0.0,0.0,0.0,0.0
106.025,-8.198,9.114,2.0
97.728,-7.554,7.881,2.0
148.661,-11.489,11.185,13.0
108.842,-8.408,7.614,11.0
106.688,-8.24,6.899,3.0
0.0,0.0,0.0,0.0
105.96,-8.202,9.264,6.0
97.663,-7.556,8.019,4.0
105.619,-8.168,8.101,9.0
108.722,-8.405,7.762,4.0
105.828,-8.179,6.996,2.0
0.0,0.0,0.0,0.0
0.0,0.0,0.0,0.0
108.829,-8.423,9.095,6.0
107.859,-8.343,8.43,4.0
108.312,-8.374,7.891,3.0
107.48,-8.306,7.26,4.0
0.0,0.0,0.0,0.0
0.0,0.0,0.0,0.0
106.052,-8.206,9.014,4.0
107.756,-8.332,8.577,8.0
148.736,-11.494,11.049,12.0
108.751,-8.399,7.502,16.0
0.0,0.0,0.0,0.0
0.0,0.0,0.0,0.0
106.118,-8.205,9.172,6.0
0.0,0.0,0.0,0.0
148.839,-11.491,11.265,12.0
108.851,-8.399,7.659,7.0
0.0,0.0,0.0,0.0
0.0,0.0,0.0,0.0
105.985,-8.184,9.307,5.0
108.633,-8.382,8.948,2.0
105.606,-8.141,8.137,6.0
98.708,-7.604,7.081,2.0
0.0,0.0,0.0,0.0
0.0,0.0,0.0,0.0
0.0,0.0,0.0,0.0
108.788,-8.377,9.11,2.0
107.895,-8.301,8.46,4.0
0.0,0.0,0.0,0.0
0.0,0.0,0.0,0.0
0.0,0.0,0.0,0.0
0.0,0.0,0.0,0.0
106.862,-8.21,9.093,1.0
107.804,-8.273,8.598,7.0
148.494,-11.384,11.053,16.0
0.0,0.0,0.0,0.0
0.0,0.0,0.0,0.0
0.0,0.0,0.0,0.0
106.024,-8.121,9.162,1.0
108.202,-8.279,8.773,11.0
148.47,-11.346,11.247,13.0
0.0,0.0,0.0,0.0
0.0,0.0,0.0,0.0
0.0,0.0,0.0,0.0
106.086,-8.097,9.307,2.0
148.337,-11.308,12.221,5.0
148.287,-11.29,11.425,9.0
0.0,0.0,0.0,0.0
0.0,0.0,0.0,0.0
0.0,0.0,0.0,0.0
106.857,-8.122,9.514,2.0
148.391,-11.265,12.416,5.0
105.576,-8.004,8.269,1.0
0.0,0.0,0.0,0.0
0.0,0.0,0.0,0.0
0.0,0.0,0.0,0.0
0.0,0.0,0.0,0.0
108.297,-8.183,9.197,2.0
105.563,-7.965,8.4,1.0
0.0,0.0,0.0,0.0
0.0,0.0,0.0,0.0
0.0,0.0,0.0,0.0
0.0,0.0,0.0,0.0
0.0,0.0,0.0,0.0
105.518,-7.919,8.524,2.0
0.0,0.0,0.0,0.0
0.0,0.0,0.0,0.0
0.0,0.0,0.0,0.0
0.0,0.0,0.0,0.0
0.0,0.0,0.0,0.0
108.324,-8.083,8.879,1.0
0.0,0.0,0.0,0.0
0.0,0.0,0.0,0.0
0.0,0.0,0.0,0.0
0.0,0.0,0.0,0.0
108.595,-8.067,9.611,5.0
108.406,-8.038,9.012,1.0
0.0,0.0,0.0,0.0
0.0,0.0,0.0,0.0
0.0,0.0,0.0,0.0
0.0,0.0,0.0,0.0
0.0,0.0,0.0,0.0
0.0,0.0,0.0,0.0
0.0,0.0,0.0,0.0
0.0,0.0,0.0,0.0
0.0,0.0,0.0,0.0
0.0,0.0,0.0,0.0
0.0,0.0,0.0,0.0
0.0,0.0,0.0,0.0
0.0,0.0,0.0,0.0
0.0,0.0,0.0,0.0
0.0,0.0,0.0,0.0
0.0,0.0,0.0,0.0
0.0,0.0,0.0,0.0
0.0,0.0,0.0,0.0
0.0,0.0,0.0,0.0
0.0,0.0,0.0,0.0
0.0,0.0,0.0,0.0
0.0,0.0,0.0,0.0
0.0,0.0,0.0,0.0
0.0,0.0,0.0,0.0
0.0,0.0,0.0,0.0
0.0,0.0,0.0,0.0
0.0,0.0,0.0,0.0
0.0,0.0,0.0,0.0
0.0,0.0,0.0,0.0
0.0,0.0,0.0,0.0
0.0,0.0,0.0,0.0
0.0,0.0,0.0,0.0
0.0,0.0,0.0,0.0
0.0,0.0,0.0,0.0
0.0,0.0,0.0,0.0
0.0,0.0,0.0,0.0
0.0,0.0,0.0,0.0
0.0,0.0,0.0,0.0
0.0,0.0,0.0,0.0
0.0,0.0,0.0,0.0
0.0,0.0,0.0,0.0
0.0,0.0,0.0,0.0
0.0,0.0,0.0,0.0
0.0,0.0,0.0,0.0
0.0,0.0,0.0,0.0
0.0,0.0,0.0,0.0
0.0,0.0,0.0,0.0
0.0,0.0,0.0,0.0
0.0,0.0,0.0,0.0
0.0,0.0,0.0,0.0
0.0,0.0,0.0,0.0
0.0,0.0,0.0,0.0
0.0,0.0,0.0,0.0
0.0,0.0,0.0,0.0
0.0,0.0,0.0,0.0
0.0,0.0,0.0,0.0
0.0,0.0,0.0,0.0
0.0,0.0,0.0,0.0
0.0,0.0,0.0,0.0
0.0,0.0,0.0,0.0
49.041,-3.321,5.952,1.0
0.0,0.0,0.0,0.0
0.0,0.0,0.0,0.0
0.0,0.0,0.0,0.0
0.0,0.0,0.0,0.0
0.0,0.0,0.0,0.0
48.765,-3.262,5.958,7.0
0.0,0.0,0.0,0.0
0.0,0.0,0.0,0.0
0.0,0.0,0.0,0.0
0.0,0.0,0.0,0.0
0.0,0.0,0.0,0.0
49.198,-3.248,6.048,6.0
0.0,0.0,0.0,0.0
0.0,0.0,0.0,0.0
0.0,0.0,0.0,0.0
0.0,0.0,0.0,0.0
0.0,0.0,0.0,0.0
48.677,-3.171,6.02,24.0
0.0,0.0,0.0,0.0
49.256,-3.188,5.546,0.0
0.0,0.0,0.0,0.0
0.0,0.0,0.0,0.0
0.0,0.0,0.0,0.0
48.176,-3.095,5.991,5.0
49.183,-3.149,5.844,3.0
49.324,-3.147,5.587,1.0
0.0,0.0,0.0,0.0
0.0,0.0,0.0,0.0
0.0,0.0,0.0,0.0
0.0,0.0,0.0,0.0
49.156,-3.1,5.872,9.0
49.263,-3.097,5.612,2.0
0.0,0.0,0.0,0.0
0.0,0.0,0.0,0.0
0.0,0.0,0.0,0.0
0.0,0.0,0.0,0.0
48.756,-3.028,5.854,23.0
0.0,0.0,0.0,0.0
0.0,0.0,0.0,0.0
0.0,0.0,0.0,0.0
0.0,0.0,0.0,0.0
0.0,0.0,0.0,0.0
48.725,-2.977,5.878,23.0
0.0,0.0,0.0,0.0
49.398,-2.996,5.405,0.0
0.0,0.0,0.0,0.0
0.0,0.0,0.0,0.0
51.219,-3.089,6.492,4.0
49.232,-2.958,5.965,7.0
0.0,0.0,0.0,0.0
49.283,-2.938,5.418,2.0
0.0,0.0,0.0,0.0
0.0,0.0,0.0,0.0
0.0,0.0,0.0,0.0
0.0,0.0,0.0,0.0
50.495,-2.97,5.86,1.0
49.292,-2.888,5.441,5.0
0.0,0.0,0.0,0.0
0.0,0.0,0.0,0.0
0.0,0.0,0.0,0.0
48.028,-2.785,5.863,3.0
50.504,-2.917,5.883,3.0
49.336,-2.838,5.467,4.0
0.0,0.0,0.0,0.0
0.0,0.0,0.0,0.0
48.937,-2.796,6.268,0.0
47.741,-2.716,5.847,1.0
48.562,-2.752,5.676,22.0
0.0,0.0,0.0,0.0
0.0,0.0,0.0,0.0
0.0,0.0,0.0,0.0
48.828,-2.736,6.271,1.0
50.709,-2.83,6.228,1.0
48.684,-2.705,5.707,23.0
0.0,0.0,0.0,0.0
0.0,0.0,0.0,0.0
56.551,-3.104,5.676,5.0
51.072,-2.805,6.576,4.0
0.0,0.0,0.0,0.0
48.995,-2.668,5.758,23.0
56.851,-3.084,6.356,12.0
0.0,0.0,0.0,0.0
0.0,0.0,0.0,0.0
48.941,-2.633,6.315,4.0
50.997,-2.732,6.293,17.0
48.892,-2.607,5.758,20.0
50.238,-2.668,5.629,4.0
55.308,-2.924,5.888,6.0
0.0,0.0,0.0,0.0
49.112,-2.586,6.348,5.0
0.0,0.0,0.0,0.0
47.755,-2.492,5.634,3.0
50.204,-2.608,5.636,11.0
49.463,-2.558,5.275,4.0
92.623,-4.77,9.36,1.0
48.456,-2.496,6.272,23.0
0.0,0.0,0.0,0.0
50.73,-2.588,5.994,10.0
54.818,-2.785,6.162,3.0
49.518,-2.504,5.288,8.0
55.152,-2.776,5.581,0.0
48.425,-2.437,6.275,23.0
50.602,-2.534,6.27,1.0
49.69,-2.477,5.876,4.0
56.609,-2.809,6.37,8.0
55.043,-2.719,5.884,12.0
55.118,-2.71,5.583,3.0
0.0,0.0,0.0,0.0
46.59,-2.279,5.777,3.0
49.638,-2.416,5.874,4.0
48.334,-2.341,5.442,15.0
49.544,-2.389,5.299,6.0
57.995,-2.783,5.877,5.0
47.884,-2.297,6.211,22.0
46.711,-2.229,5.794,6.0
49.6,-2.356,5.871,5.0
48.341,-2.284,5.444,14.0
56.606,-2.662,6.056,7.0
55.054,-2.577,5.58,5.0
47.94,-2.242,6.219,23.0
46.79,-2.177,5.803,4.0
49.593,-2.295,5.87,5.0
48.323,-2.226,5.441,11.0
49.582,-2.272,5.303,5.0
54.995,-2.507,5.572,15.0
49.811,-2.268,6.459,5.0
63.641,-2.883,7.89,6.0
49.499,-2.23,5.856,4.0
50.794,-2.277,5.716,5.0
40.555,-1.809,4.334,9.0
57.289,-2.543,5.799,15.0
56.904,-2.522,7.374,6.0
0.0,0.0,0.0,0.0
57.379,-2.516,6.782,6.0
40.505,-1.767,4.553,47.0
48.533,-2.106,5.181,3.0
56.619,-2.444,5.724,4.0
47.545,-2.049,6.154,5.0
48.378,-2.073,5.986,37.0
46.757,-1.993,5.519,9.0
40.541,-1.719,4.551,31.0
40.447,-1.706,4.311,46.0
56.68,-2.378,5.721,7.0
49.609,-2.077,6.412,4.0
40.298,-1.678,4.978,31.0
40.43,-1.674,4.764,45.0
40.372,-1.662,4.524,62.0
40.348,-1.652,4.292,72.0
55.138,-2.245,5.553,4.0
42.065,-1.708,5.428,6.0
40.29,-1.627,4.968,39.0
40.643,-1.632,4.78,15.0
40.354,-1.611,4.512,47.0
40.401,-1.604,4.287,56.0
40.478,-1.598,4.066,8.0
42.125,-1.659,5.424,51.0
40.364,-1.58,4.966,58.0
40.417,-1.573,4.741,59.0
40.231,-1.556,4.486,64.0
40.353,-1.551,4.27,56.0
40.42,-1.545,4.047,39.0
42.087,-1.604,5.405,50.0
40.379,-1.53,4.954,42.0
40.383,-1.521,4.724,59.0
40.479,-1.515,4.5,58.0
40.061,-1.491,4.225,51.0
52.882,-1.957,5.276,18.0
43.543,-1.605,5.576,27.0
40.372,-1.479,4.938,56.0
40.42,-1.472,4.713,48.0
40.351,-1.461,4.47,45.0
40.101,-1.442,4.213,46.0
54.889,-1.962,5.455,6.0
43.559,-1.551,5.56,36.0
40.333,-1.427,4.916,50.0
40.343,-1.418,4.686,52.0
40.482,-1.414,4.467,37.0
40.077,-1.391,4.193,54.0
40.808,-1.408,4.037,29.0
47.245,-1.623,6.009,5.0
40.617,-1.386,4.932,47.0
40.456,-1.372,4.68,49.0
39.894,-1.344,4.382,59.0
39.992,-1.338,4.164,53.0
40.557,-1.348,3.992,34.0
40.851,-1.352,5.174,49.0
40.544,-1.333,4.902,47.0
40.148,-1.311,4.623,52.0
39.963,-1.296,4.368,48.0
40.048,-1.29,4.149,55.0
40.128,-1.284,3.928,46.0
40.578,-1.293,5.117,47.0
40.522,-1.282,4.877,54.0
39.942,-1.255,4.577,56.0
39.755,-1.24,4.323,60.0
39.71,-1.23,4.091,47.0
40.391,-1.243,3.93,45.0
40.374,-1.236,5.068,54.0
40.262,-1.223,4.821,51.0
39.748,-1.199,4.531,57.0
39.451,-1.182,4.266,60.0
39.554,-1.177,4.05,53.0
39.861,-1.178,3.853,57.0
40.407,-1.187,5.045,50.0
40.009,-1.166,4.765,60.0
39.375,-1.14,4.462,73.0
39.261,-1.128,4.219,60.0
39.5,-1.127,4.018,45.0
48.991,-1.387,4.702,12.0
39.89,-1.122,4.953,59.0
39.326,-1.098,4.656,65.0
39.366,-1.091,4.434,60.0
39.542,-1.088,4.221,48.0
39.563,-1.081,3.996,54.0
40.615,-1.101,3.869,52.0
39.937,-1.075,4.93,64.0
39.259,-1.049,4.619,67.0
39.323,-1.042,4.399,56.0
39.321,-1.034,4.168,56.0
39.782,-1.039,3.988,55.0
40.176,-1.041,3.798,61.0
39.788,-1.023,4.881,62.0
39.188,-1.0,4.58,56.0
39.397,-0.997,4.377,43.0
39.212,-0.985,4.126,61.0
39.918,-0.995,3.97,57.0
40.508,-1.001,3.796,38.0
40.361,-0.989,4.918,74.0
39.204,-0.953,4.55,62.0
39.453,-0.952,4.351,69.0
39.09,-0.935,4.081,68.0
39.887,-0.947,3.934,64.0
49.079,-1.156,4.559,9.0
39.55,-0.922,4.785,64.0
39.573,-0.916,4.558,50.0
39.098,-0.897,4.277,52.0
39.35,-0.896,4.073,53.0
39.192,-0.884,3.831,65.0
49.06,-1.098,4.514,48.0
39.398,-0.873,4.731,66.0
39.365,-0.864,4.498,53.0
38.979,-0.848,4.229,69.0
39.555,-0.853,4.058,53.0
39.29,-0.841,3.804,65.0
39.89,-0.846,3.632,55.0
39.24,-0.823,4.675,66.0
39.324,-0.818,4.456,55.0
39.209,-0.808,4.216,55.0
39.658,-0.81,4.031,47.0
39.299,-0.795,3.767,70.0
39.841,-0.799,3.589,55.0
39.152,-0.776,4.626,64.0
39.266,-0.771,4.411,64.0
39.287,-0.765,4.185,47.0
39.642,-0.764,3.989,58.0
39.617,-0.757,3.758,62.0
49.101,-0.929,4.373,7.0
39.232,-0.733,4.594,55.0
39.217,-0.726,4.364,57.0
39.215,-0.719,4.136,72.0
39.584,-0.718,3.942,51.0
40.242,-0.723,3.775,41.0
49.086,-0.874,4.321,77.0
39.811,-0.699,4.62,56.0
39.151,-0.681,4.315,43.0
39.222,-0.675,4.095,64.0
39.582,-0.674,3.899,68.0
48.173,-0.813,4.466,5.0
49.815,-0.832,4.33,7.0
39.593,-0.651,4.55,60.0
39.284,-0.639,4.286,54.0
41.774,-0.673,4.314,23.0
40.313,-0.643,3.925,41.0
40.179,-0.634,3.679,48.0
40.646,-0.634,3.487,50.0
39.578,-0.608,4.502,55.0
39.696,-0.603,4.285,22.0
39.521,-0.594,4.036,49.0
39.453,-0.586,3.795,71.0
56.69,-0.834,5.125,7.0
40.536,-0.589,3.43,51.0
39.666,-0.566,4.465,53.0
40.116,-0.566,4.281,47.0
39.943,-0.557,4.031,41.0
39.677,-0.547,3.769,47.0
40.715,-0.555,3.631,36.0
40.67,-0.548,3.392,59.0
39.725,-0.525,4.423,44.0
39.453,-0.515,4.162,46.0
39.909,-0.515,3.977,37.0
47.72,-0.609,4.474,5.0
41.258,-0.52,3.628,35.0
40.402,-0.503,3.319,53.0
39.427,-0.48,4.339,58.0
39.322,-0.473,4.098,64.0
40.215,-0.478,3.956,17.0
40.517,-0.475,3.746,17.0
41.322,-0.479,3.581,40.0
40.71,-0.466,3.292,36.0
39.312,-0.439,4.274,71.0
39.525,-0.435,4.067,35.0
42.954,-0.467,4.169,2.0
40.388,-0.433,3.681,68.0
40.613,-0.43,3.465,50.0
40.711,-0.425,3.237,46.0
39.596,-0.403,4.252,53.0
39.358,-0.395,3.997,60.0
39.625,-0.392,3.793,59.0
47.913,-0.467,4.302,8.0
40.065,-0.385,3.364,58.0
41.383,-0.392,3.235,63.0
39.663,-0.365,4.204,57.0
39.402,-0.357,3.946,63.0
40.096,-0.357,3.781,69.0
40.152,-0.353,3.549,49.0
39.935,-0.346,3.297,66.0
41.347,-0.352,3.173,61.0
39.568,-0.326,4.138,46.0
39.564,-0.321,3.906,68.0
40.194,-0.321,3.733,40.0
40.062,-0.314,3.484,55.0
40.663,-0.314,3.299,43.0
41.558,-0.315,3.13,50.0
39.566,-0.29,4.08,68.0
39.665,-0.285,3.858,58.0
40.128,-0.283,3.668,55.0
39.859,-0.276,3.407,58.0
40.096,-0.273,3.193,67.0
48.632,-0.325,3.591,34.0
39.654,-0.254,4.029,57.0
42.334,-0.266,4.053,4.0
40.011,-0.247,3.597,27.0
49.224,-0.297,4.133,14.0
40.172,-0.237,3.139,72.0
48.528,-0.281,3.51,63.0
39.548,-0.219,3.957,67.0
42.46,-0.23,4.0,22.0
39.876,-0.211,3.524,47.0
40.32,-0.209,3.323,59.0
48.678,-0.247,3.729,22.0
48.974,-0.242,3.467,59.0
39.912,-0.187,3.931,48.0
41.888,-0.191,3.88,57.0
39.974,-0.178,3.47,26.0
40.702,-0.177,3.291,42.0
47.781,-0.202,3.585,6.0
48.91,-0.201,3.385,61.0
39.962,-0.154,3.873,59.0
0.0,0.0,0.0,0.0
39.908,-0.145,3.4,30.0
47.867,-0.169,3.794,10.0
47.764,-0.164,3.507,73.0
78.079,-0.26,5.279,16.0
0.0,0.0,0.0,0.0
53.769,-0.159,4.808,15.0
39.834,-0.114,3.329,64.0
47.837,-0.132,3.714,29.0
47.808,-0.127,3.433,81.0
63.12,-0.162,4.165,24.0
40.758,-0.094,3.817,18.0
39.883,-0.088,3.501,23.0
39.868,-0.084,3.267,54.0
47.804,-0.096,3.632,39.0
47.995,-0.092,3.367,64.0
