X,Y,Z,Reflectivity
11.691,-1.076,-0.836,0.0
11.063,-1.018,-0.85,0.0
10.511,-0.967,-0.863,1.0
14.38,-1.321,-0.778,1.0
13.454,-1.236,-0.799,0.0
12.517,-1.15,-0.81,0.0
11.872,-1.09,-0.832,0.0
11.218,-1.03,-0.846,0.0
10.629,-0.976,-0.858,0.0
14.586,-1.337,-0.769,1.0
13.652,-1.251,-0.792,0.0
12.774,-1.171,-0.808,0.0
12.061,-1.105,-0.828,0.0
11.403,-1.045,-0.844,0.0
10.809,-0.99,-0.857,0.0
14.894,-1.362,-0.764,0.0
13.859,-1.267,-0.784,0.0
13.071,-1.194,-0.809,0.0
12.266,-1.121,-0.825,1.0
11.577,-1.058,-0.84,0.0
10.972,-1.002,-0.855,0.0
15.226,-1.388,-0.76,0.0
14.135,-1.288,-0.78,0.0
13.328,-1.214,-0.806,0.0
12.405,-1.13,-0.817,0.0
11.745,-1.069,-0.836,0.0
11.103,-1.011,-0.849,0.0
15.544,-1.412,-0.753,0.0
14.437,-1.311,-0.776,1.0
13.52,-1.227,-0.798,0.0
12.585,-1.142,-0.811,0.0
11.929,-1.082,-0.832,0.0
11.265,-1.021,-0.845,0.0
15.963,-1.444,-0.751,1.0
14.672,-1.327,-0.768,0.0
13.736,-1.241,-0.791,0.0
12.749,-1.152,-0.803,0.0
12.117,-1.094,-0.828,0.0
11.448,-1.033,-0.843,0.0
16.258,-1.465,-0.742,7.0
15.015,-1.352,-0.764,0.0
13.964,-1.256,-0.785,0.0
13.16,-1.183,-0.81,0.0
12.313,-1.106,-0.823,0.0
11.64,-1.045,-0.84,0.0
16.32,-1.463,-0.721,11.0
15.328,-1.373,-0.758,0.0
14.262,-1.276,-0.781,0.0
13.396,-1.198,-0.806,0.0
12.525,-1.119,-0.819,1.0
11.814,-1.055,-0.835,0.0
16.372,-1.459,-0.7,8.0
15.658,-1.394,-0.752,0.0
14.557,-1.295,-0.776,0.0
13.547,-1.204,-0.795,0.0
12.716,-1.129,-0.813,1.0
12.0,-1.065,-0.831,0.0
16.553,-1.466,-0.684,2.0
16.086,-1.424,-0.749,1.0
14.829,-1.311,-0.769,0.0
13.839,-1.222,-0.792,0.0
12.906,-1.139,-0.807,0.0
12.196,-1.075,-0.827,0.0
17.769,-1.564,-0.709,0.0
16.283,-1.432,-0.735,8.0
15.141,-1.33,-0.763,0.0
14.003,-1.228,-0.781,0.0
13.127,-1.15,-0.802,0.0
12.386,-1.084,-0.822,0.0
18.146,-1.586,-0.698,1.0
16.336,-1.426,-0.714,8.0
15.47,-1.349,-0.758,0.0
14.446,-1.258,-0.785,0.0
13.391,-1.165,-0.799,0.0
12.608,-1.095,-0.819,0.0
18.627,-1.615,-0.69,1.0
16.405,-1.421,-0.694,6.0
15.793,-1.366,-0.751,0.0
14.625,-1.263,-0.774,0.0
13.615,-1.174,-0.792,0.0
12.807,-1.103,-0.813,0.0
19.06,-1.639,-0.678,1.0
0.0,0.0,0.0,0.0
16.221,-1.391,-0.748,3.0
14.97,-1.282,-0.771,0.0
13.868,-1.186,-0.787,0.0
13.063,-1.115,-0.811,0.0
19.641,-1.675,-0.671,0.0
17.92,-1.525,-0.706,0.0
16.282,-1.384,-0.728,5.0
15.273,-1.296,-0.764,0.0
14.051,-1.19,-0.777,0.0
13.295,-1.125,-0.806,1.0
20.156,-1.702,-0.66,0.0
18.354,-1.547,-0.697,0.0
16.363,-1.377,-0.708,1.0
15.572,-1.308,-0.757,0.0
14.521,-1.218,-0.783,0.0
13.511,-1.132,-0.8,2.0
20.724,-1.733,-0.649,0.0
18.849,-1.573,-0.689,1.0
16.537,-1.377,-0.692,0.0
15.911,-1.323,-0.751,0.0
14.6,-1.212,-0.766,0.0
13.717,-1.137,-0.792,3.0
21.298,-1.762,-0.637,1.0
19.253,-1.589,-0.677,0.0
17.636,-1.453,-0.713,1.0
16.225,-1.334,-0.743,1.0
15.107,-1.24,-0.771,0.0
13.933,-1.141,-0.785,2.0
21.877,-1.79,-0.623,1.0
19.818,-1.618,-0.669,0.0
18.05,-1.47,-0.704,0.0
16.33,-1.328,-0.725,1.0
15.372,-1.247,-0.763,0.0
14.175,-1.148,-0.779,1.0
22.562,-1.824,-0.611,1.0
20.326,-1.639,-0.658,0.0
18.518,-1.49,-0.697,0.0
16.476,-1.323,-0.708,1.0
15.7,-1.258,-0.758,0.0
14.532,-1.162,-0.778,1.0
23.187,-1.851,-0.596,1.0
20.9,-1.664,-0.647,1.0
18.94,-1.505,-0.687,1.0
17.351,-1.376,-0.722,0.0
16.044,-1.269,-0.753,0.0
14.76,-1.165,-0.77,1.0
23.89,-1.882,-0.582,1.0
21.454,-1.686,-0.635,1.0
19.413,-1.522,-0.677,0.0
17.726,-1.386,-0.713,0.0
16.324,-1.273,-0.743,0.0
15.099,-1.175,-0.767,1.0
24.728,-1.921,-0.568,1.0
22.031,-1.707,-0.622,1.0
19.911,-1.539,-0.667,0.0
18.112,-1.396,-0.704,0.0
16.394,-1.26,-0.724,0.0
15.395,-1.181,-0.761,1.0
25.44,-1.947,-0.549,1.0
22.694,-1.732,-0.61,1.0
20.444,-1.556,-0.657,0.0
18.537,-1.407,-0.695,1.0
17.13,-1.297,-0.733,0.0
15.836,-1.195,-0.761,4.0
26.204,-1.975,-0.531,1.0
23.352,-1.755,-0.596,1.0
20.973,-1.572,-0.646,0.0
18.969,-1.417,-0.686,1.0
17.476,-1.302,-0.724,0.0
15.981,-1.187,-0.747,14.0
26.885,-1.993,-0.508,1.0
24.037,-1.777,-0.581,1.0
21.547,-1.588,-0.634,1.0
19.399,-1.425,-0.675,0.0
17.86,-1.308,-0.716,0.0
16.249,-1.186,-0.738,3.0
27.854,-2.03,-0.49,1.0
24.845,-1.805,-0.568,1.0
22.093,-1.6,-0.621,1.0
19.924,-1.438,-0.668,0.0
18.248,-1.313,-0.708,0.0
16.667,-1.195,-0.735,2.0
28.875,-2.067,-0.47,1.0
25.515,-1.821,-0.55,1.0
22.736,-1.617,-0.61,1.0
20.458,-1.45,-0.659,0.0
18.631,-1.316,-0.699,0.0
16.973,-1.195,-0.726,1.0
29.563,-2.077,-0.443,1.0
26.18,-1.833,-0.531,1.0
23.342,-1.629,-0.597,1.0
20.929,-1.455,-0.648,0.0
18.976,-1.315,-0.688,0.0
17.387,-1.201,-0.722,0.0
30.795,-2.122,-0.423,1.0
26.901,-1.847,-0.512,1.0
23.951,-1.638,-0.582,1.0
21.516,-1.466,-0.639,0.0
19.29,-1.31,-0.675,0.0
17.77,-1.202,-0.716,0.0
32.139,-2.17,-0.402,1.0
27.648,-1.859,-0.492,1.0
24.806,-1.662,-0.573,1.0
22.013,-1.469,-0.627,0.0
19.603,-1.303,-0.662,0.0
18.103,-1.199,-0.707,0.0
33.309,-2.201,-0.376,1.0
28.513,-1.877,-0.472,1.0
25.345,-1.661,-0.554,1.0
22.612,-1.476,-0.616,0.0
20.202,-1.313,-0.658,1.0
18.529,-1.2,-0.701,0.0
35.005,-2.262,-0.353,0.0
29.419,-1.893,-0.452,1.0
26.115,-1.673,-0.54,1.0
23.222,-1.481,-0.605,1.0
20.659,-1.312,-0.648,1.0
18.923,-1.197,-0.694,3.0
37.532,-2.369,-0.334,0.0
30.276,-1.902,-0.429,1.0
26.682,-1.669,-0.52,3.0
23.688,-1.475,-0.589,1.0
21.344,-1.323,-0.644,3.0
19.273,-1.189,-0.684,3.0
0.0,0.0,0.0,0.0
31.333,-1.919,-0.408,1.0
27.295,-1.665,-0.5,2.0
24.385,-1.48,-0.579,1.0
21.79,-1.316,-0.633,4.0
19.642,-1.181,-0.675,3.0
0.0,0.0,0.0,0.0
32.7,-1.952,-0.389,1.0
28.108,-1.67,-0.483,1.0
25.043,-1.48,-0.566,1.0
22.214,-1.307,-0.62,4.0
20.0,-1.171,-0.664,4.0
0.0,0.0,0.0,0.0
34.06,-1.978,-0.367,1.0
28.941,-1.672,-0.465,2.0
25.592,-1.471,-0.55,1.0
22.795,-1.304,-0.611,4.0
20.595,-1.172,-0.662,4.0
0.0,0.0,0.0,0.0
35.348,-1.995,-0.343,0.0
29.545,-1.658,-0.443,2.0
26.175,-1.461,-0.534,1.0
23.269,-1.292,-0.599,11.0
21.027,-1.161,-0.653,2.0
50.452,-2.779,-0.168,1.0
0.0,0.0,0.0,0.0
30.206,-1.645,-0.421,1.0
26.735,-1.448,-0.518,2.0
23.733,-1.278,-0.586,10.0
21.362,-1.143,-0.641,1.0
50.425,-2.691,-0.114,2.0
0.0,0.0,0.0,0.0
31.386,-1.655,-0.405,1.0
27.735,-1.454,-0.509,5.0
24.276,-1.265,-0.574,5.0
21.811,-1.13,-0.632,1.0
50.55,-2.61,-0.064,3.0
40.478,-2.078,-0.267,0.0
32.372,-1.651,-0.385,1.0
28.245,-1.432,-0.49,7.0
25.017,-1.26,-0.567,1.0
22.243,-1.113,-0.623,1.0
59.962,-2.991,-0.017,2.0
0.0,0.0,0.0,0.0
33.366,-1.643,-0.365,1.0
28.649,-1.402,-0.469,8.0
25.485,-1.239,-0.553,1.0
22.714,-1.097,-0.614,1.0
60.115,-2.894,0.039,0.0
0.0,0.0,0.0,0.0
33.919,-1.61,-0.339,2.0
29.308,-1.381,-0.452,8.0
25.982,-1.216,-0.54,1.0
23.154,-1.076,-0.605,2.0
0.0,0.0,0.0,0.0
50.38,-2.316,-0.188,1.0
37.355,-1.705,-0.339,0.0
29.884,-1.354,-0.434,2.0
26.515,-1.193,-0.527,1.0
23.538,-1.051,-0.593,2.0
0.0,0.0,0.0,0.0
50.399,-2.224,-0.143,3.0
37.984,-1.663,-0.311,3.0
30.557,-1.327,-0.416,2.0
26.965,-1.163,-0.512,1.0
23.998,-1.027,-0.584,1.0
0.0,0.0,0.0,0.0
50.466,-2.132,-0.1,1.0
37.763,-1.583,-0.276,4.0
31.172,-1.296,-0.398,1.0
27.505,-1.135,-0.499,1.0
24.587,-1.006,-0.578,1.0
0.0,0.0,0.0,0.0
37.804,-1.526,-0.043,31.0
37.79,-1.513,-0.245,151.0
32.027,-1.271,-0.383,1.0
28.066,-1.104,-0.486,2.0
25.002,-0.975,-0.567,1.0
0.0,0.0,0.0,0.0
40.128,-1.544,-0.014,26.0
40.101,-1.529,-0.229,150.0
32.802,-1.239,-0.366,1.0
28.567,-1.069,-0.472,1.0
25.412,-0.943,-0.557,1.0
0.0,0.0,0.0,0.0
58.434,-2.135,0.024,0.0
0.0,0.0,0.0,0.0
33.767,-1.21,-0.352,0.0
28.961,-1.028,-0.457,2.0
25.763,-0.905,-0.545,1.0
0.0,0.0,0.0,0.0
0.0,0.0,0.0,0.0
0.0,0.0,0.0,0.0
35.357,-1.197,-0.342,0.0
29.439,-0.987,-0.443,1.0
26.126,-0.867,-0.534,1.0
0.0,0.0,0.0,0.0
0.0,0.0,0.0,0.0
0.0,0.0,0.0,0.0
36.043,-1.149,-0.324,0.0
29.819,-0.941,-0.429,1.0
26.57,-0.829,-0.525,1.0
0.0,0.0,0.0,0.0
0.0,0.0,0.0,0.0
40.251,-1.218,-0.115,14.0
40.048,-1.198,-0.334,0.0
30.32,-0.896,-0.416,1.0
26.865,-0.785,-0.514,1.0
40.237,-1.166,0.344,16.0
40.193,-1.15,0.127,50.0
40.262,-1.138,-0.089,61.0
40.386,-1.127,-0.312,5.0
30.614,-0.843,-0.401,3.0
27.198,-0.739,-0.503,1.0
40.199,-1.083,0.368,54.0
40.213,-1.069,0.151,44.0
41.001,-1.075,-0.067,156.0
40.769,-1.055,-0.291,16.0
31.204,-0.796,-0.391,1.0
27.413,-0.69,-0.491,6.0
40.252,-1.003,0.391,28.0
40.29,-0.989,0.174,4.0
40.301,-0.975,-0.043,150.0
40.255,-0.959,-0.264,82.0
31.832,-0.747,-0.381,1.0
27.514,-0.636,-0.478,3.0
40.307,-0.92,0.414,10.0
40.236,-0.904,0.195,0.0
0.0,0.0,0.0,0.0
40.288,-0.876,-0.244,2.0
32.605,-0.698,-0.374,1.0
28.262,-0.595,-0.477,1.0
40.258,-0.836,0.434,40.0
40.31,-0.822,0.216,29.0
40.327,-0.808,-0.002,3.0
46.693,-0.919,-0.26,2.0
33.168,-0.64,-0.364,1.0
28.461,-0.539,-0.467,1.0
40.265,-0.752,0.453,33.0
40.246,-0.737,0.234,53.0
40.292,-0.724,0.016,65.0
40.29,-0.709,-0.206,31.0
33.704,-0.581,-0.355,1.0
28.845,-0.487,-0.46,1.0
148.992,-2.473,1.74,5.0
91.542,-1.486,0.572,7.0
61.585,-0.978,0.05,6.0
46.122,-0.715,-0.217,1.0
33.935,-0.514,-0.344,1.0
29.035,-0.43,-0.452,1.0
148.133,-2.147,1.789,16.0
87.848,-1.243,0.583,4.0
60.821,-0.838,0.073,3.0
46.026,-0.617,-0.199,2.0
34.27,-0.447,-0.334,1.0
29.269,-0.371,-0.445,2.0
79.422,-0.984,0.987,150.0
78.958,-0.949,0.552,39.0
0.0,0.0,0.0,0.0
47.277,-0.534,-0.188,3.0
38.553,-0.422,-0.363,0.0
29.467,-0.312,-0.438,4.0
79.445,-0.816,1.013,168.0
79.066,-0.783,0.577,47.0
60.932,-0.582,0.113,2.0
50.5,-0.464,-0.186,5.0
36.583,-0.323,-0.334,0.0
29.616,-0.25,-0.432,2.0
79.452,-0.647,1.036,175.0
79.257,-0.616,0.601,59.0
53.228,-0.394,0.113,6.0
44.377,-0.313,-0.151,3.0
39.605,-0.265,-0.351,1.0
29.815,-0.189,-0.427,2.0
79.457,-0.476,1.056,156.0
79.364,-0.448,0.621,150.0
55.897,-0.295,0.132,29.0
42.039,-0.207,-0.134,7.0
37.132,-0.169,-0.321,0.0
29.887,-0.125,-0.422,2.0
79.461,-0.305,1.073,151.0
79.402,-0.277,0.638,150.0
56.018,-0.175,0.143,29.0
41.683,-0.115,-0.125,19.0
38.172,-0.092,-0.323,2.0
29.978,-0.061,-0.418,2.0
79.461,-0.135,1.087,151.0
79.397,-0.107,0.651,143.0
55.881,-0.055,0.152,29.0
43.707,-0.028,-0.124,3.0
38.176,-0.01,-0.317,3.0
30.034,0.002,-0.414,2.0
79.458,0.036,1.097,151.0
79.428,0.065,0.662,139.0
55.254,0.065,0.157,11.0
43.803,0.067,-0.119,3.0
38.046,0.072,-0.312,2.0
30.163,0.067,-0.413,1.0
79.471,0.206,1.105,151.0
79.437,0.235,0.669,86.0
54.95,0.182,0.161,28.0
43.862,0.161,-0.116,4.0
37.735,0.152,-0.307,10.0
30.222,0.132,-0.411,1.0
59.297,0.282,0.828,92.0
48.23,0.246,0.409,18.0
54.963,0.3,0.164,23.0
43.907,0.255,-0.114,4.0
37.685,0.232,-0.305,4.0
30.203,0.197,-0.41,2.0
48.101,0.332,0.673,101.0
48.061,0.349,0.408,99.0
48.031,0.365,0.144,89.0
43.93,0.35,-0.114,4.0
37.47,0.311,-0.303,5.0
30.243,0.262,-0.411,2.0
48.091,0.435,0.672,113.0
48.064,0.452,0.407,97.0
48.006,0.468,0.142,79.0
39.855,0.403,-0.105,15.0
37.308,0.39,-0.303,6.0
30.22,0.327,-0.412,2.0
48.136,0.539,0.67,64.0
48.093,0.556,0.405,84.0
48.029,0.572,0.139,71.0
39.739,0.487,-0.107,15.0
37.163,0.469,-0.305,5.0
30.128,0.391,-0.413,2.0
126.398,1.691,1.75,26.0
77.822,1.067,0.648,29.0
48.08,0.676,0.134,52.0
39.704,0.572,-0.111,23.0
37.036,0.547,-0.308,5.0
30.128,0.455,-0.417,2.0
126.354,1.961,1.733,30.0
77.855,1.234,0.638,50.0
0.0,0.0,0.0,0.0
39.565,0.654,-0.117,33.0
36.856,0.622,-0.312,7.0
29.95,0.516,-0.419,2.0
126.201,2.227,1.71,25.0
77.711,1.397,0.623,15.0
0.0,0.0,0.0,0.0
39.413,0.736,-0.123,37.0
36.769,0.699,-0.319,9.0
29.787,0.576,-0.423,2.0
121.196,2.398,1.618,2.0
77.74,1.564,0.607,12.0
52.19,1.067,0.118,9.0
39.251,0.816,-0.131,46.0
36.639,0.775,-0.326,3.0
29.612,0.636,-0.427,2.0
89.86,1.969,1.178,4.0
74.933,1.667,0.567,13.0
52.01,1.173,0.105,6.0
39.072,0.895,-0.141,48.0
36.501,0.849,-0.334,2.0
29.464,0.695,-0.433,1.0
106.071,2.547,1.361,39.0
74.813,1.822,0.545,23.0
48.795,1.205,0.084,11.0
38.629,0.966,-0.151,42.0
36.423,0.923,-0.344,1.0
29.344,0.753,-0.44,2.0
106.052,2.769,1.328,46.0
74.673,1.975,0.52,16.0
48.643,1.302,0.068,22.0
0.0,0.0,0.0,0.0
36.37,0.997,-0.356,0.0
29.068,0.807,-0.446,1.0
93.56,2.638,1.139,2.0
74.318,2.12,0.491,12.0
48.351,1.395,0.051,23.0
0.0,0.0,0.0,0.0
33.513,0.988,-0.34,1.0
28.786,0.858,-0.453,1.0
88.957,2.693,1.049,4.0
60.854,1.862,0.378,11.0
47.916,1.482,0.031,23.0
39.271,1.227,-0.196,3.0
32.792,1.034,-0.346,1.0
28.531,0.909,-0.46,1.0
79.952,2.585,0.909,6.0
60.16,1.963,0.349,30.0
47.377,1.561,0.011,23.0
36.671,1.221,-0.199,31.0
32.306,1.085,-0.356,1.0
28.269,0.958,-0.469,1.0
78.274,2.69,0.855,4.0
59.46,2.062,0.317,34.0
47.061,1.647,-0.011,22.0
36.471,1.288,-0.215,32.0
31.569,1.125,-0.363,1.0
28.003,1.006,-0.478,1.0
78.206,2.847,0.816,11.0
58.924,2.162,0.285,20.0
42.469,1.571,-0.031,17.0
36.284,1.354,-0.232,22.0
31.114,1.171,-0.373,2.0
24.498,0.93,-0.431,1.0
78.166,3.003,0.774,33.0
55.18,2.137,0.238,29.0
41.743,1.63,-0.053,19.0
36.128,1.422,-0.251,12.0
30.753,1.22,-0.386,2.0
24.339,0.973,-0.441,5.0
77.798,3.146,0.726,59.0
54.585,2.223,0.204,28.0
41.176,1.689,-0.075,22.0
35.885,1.483,-0.27,10.0
30.308,1.262,-0.398,2.0
23.781,0.997,-0.445,5.0
0.0,0.0,0.0,0.0
54.348,2.322,0.171,27.0
40.436,1.74,-0.099,52.0
35.759,1.549,-0.291,7.0
29.932,1.305,-0.412,1.0
23.224,1.02,-0.449,5.0
0.0,0.0,0.0,0.0
49.042,2.191,0.123,23.0
40.326,1.813,-0.124,45.0
35.609,1.612,-0.313,7.0
29.482,1.344,-0.425,2.0
22.567,1.035,-0.451,4.0
73.735,3.417,0.549,17.0
48.012,2.238,0.088,25.0
40.106,1.881,-0.15,9.0
35.317,1.666,-0.334,3.0
29.054,1.379,-0.438,2.0
22.054,1.053,-0.456,4.0
73.55,3.548,0.498,11.0
0.0,0.0,0.0,0.0
36.469,1.78,-0.163,41.0
33.005,1.62,-0.336,1.0
28.766,1.42,-0.454,1.0
21.618,1.074,-0.463,4.0
73.515,3.686,0.444,7.0
42.625,2.149,0.017,17.0
36.12,1.831,-0.187,42.0
32.133,1.638,-0.351,2.0
24.832,1.273,-0.411,1.0
21.225,1.094,-0.47,4.0
55.488,2.886,0.293,14.0
41.801,2.185,-0.014,17.0
35.693,1.876,-0.212,12.0
31.188,1.648,-0.364,2.0
24.438,1.298,-0.423,5.0
20.85,1.113,-0.478,4.0
54.562,2.939,0.245,29.0
41.084,2.225,-0.046,40.0
35.599,1.937,-0.24,21.0
30.456,1.666,-0.38,2.0
23.62,1.298,-0.428,5.0
20.497,1.132,-0.487,3.0
54.247,3.021,0.199,22.0
40.633,2.274,-0.079,16.0
35.394,1.991,-0.269,9.0
30.092,1.7,-0.401,2.0
22.813,1.295,-0.433,4.0
20.105,1.147,-0.495,3.0
0.0,0.0,0.0,0.0
40.307,2.328,-0.113,29.0
35.298,2.048,-0.298,7.0
29.422,1.715,-0.417,2.0
22.221,1.301,-0.441,4.0
19.745,1.161,-0.503,3.0
47.101,2.791,0.092,10.0
36.46,2.17,-0.134,20.0
0.0,0.0,0.0,0.0
28.968,1.739,-0.437,1.0
21.62,1.304,-0.448,4.0
19.368,1.173,-0.511,3.0
42.532,2.594,0.044,17.0
36.044,2.208,-0.165,5.0
32.589,2.004,-0.334,1.0
24.832,1.534,-0.397,1.0
21.175,1.313,-0.458,4.0
18.951,1.18,-0.517,3.0
41.725,2.617,0.004,32.0
35.703,2.248,-0.197,34.0
31.396,1.985,-0.351,1.0
24.433,1.551,-0.414,5.0
20.74,1.321,-0.469,4.0
18.513,1.184,-0.523,3.0
41.136,2.65,-0.035,52.0
35.334,2.285,-0.23,11.0
30.523,1.981,-0.371,2.0
23.382,1.523,-0.419,5.0
20.331,1.33,-0.479,3.0
18.189,1.194,-0.532,3.0
38.974,2.575,-0.071,4.0
35.154,2.331,-0.263,9.0
29.921,1.991,-0.394,2.0
22.499,1.502,-0.426,4.0
19.88,1.332,-0.489,3.0
17.828,1.199,-0.539,3.0
36.557,2.474,-0.104,24.0
35.064,2.381,-0.298,9.0
29.337,1.999,-0.416,2.0
21.865,1.495,-0.436,4.0
19.44,1.334,-0.498,3.0
17.478,1.204,-0.547,3.0
36.075,2.499,-0.14,8.0
34.987,2.431,-0.334,1.0
24.976,1.741,-0.38,1.0
21.314,1.491,-0.447,4.0
19.026,1.335,-0.507,3.0
17.089,1.203,-0.553,2.0
0.0,0.0,0.0,0.0
31.68,2.251,-0.336,1.0
24.36,1.736,-0.397,4.0
20.849,1.491,-0.46,4.0
18.628,1.336,-0.517,4.0
16.76,1.206,-0.56,3.0
0.0,0.0,0.0,0.0
30.739,2.23,-0.359,1.0
23.34,1.699,-0.405,5.0
20.339,1.485,-0.471,3.0
18.182,1.331,-0.524,3.0
16.369,1.202,-0.565,2.0
34.881,2.575,-0.248,11.0
30.075,2.227,-0.385,1.0
22.531,1.673,-0.417,4.0
19.818,1.476,-0.481,3.0
17.762,1.327,-0.532,2.0
16.052,1.202,-0.572,4.0
34.901,2.627,-0.288,9.0
29.339,2.215,-0.409,1.0
21.814,1.651,-0.428,4.0
19.317,1.467,-0.491,3.0
17.359,1.321,-0.54,2.0
15.639,1.194,-0.576,3.0
32.866,2.521,-0.309,1.0
24.774,1.906,-0.374,1.0
21.181,1.633,-0.44,4.0
18.857,1.458,-0.501,3.0
16.985,1.317,-0.548,2.0
14.832,1.153,-0.563,6.0
31.554,2.464,-0.334,1.0
24.159,1.892,-0.393,5.0
20.724,1.627,-0.455,4.0
18.412,1.449,-0.511,3.0
16.615,1.311,-0.556,2.0
14.257,1.128,-0.558,13.0
30.418,2.417,-0.358,2.0
22.928,1.826,-0.401,4.0
20.15,1.609,-0.467,3.0
17.959,1.437,-0.521,3.0
16.207,1.3,-0.562,3.0
13.924,1.12,-0.562,13.0
29.892,2.414,-0.388,2.0
22.151,1.793,-0.414,4.0
19.618,1.592,-0.479,3.0
17.587,1.43,-0.531,2.0
0.0,0.0,0.0,0.0
13.771,1.125,-0.573,10.0
24.963,2.047,-0.355,1.0
21.445,1.763,-0.427,4.0
19.137,1.577,-0.49,3.0
17.18,1.418,-0.54,2.0
14.04,1.162,-0.521,8.0
13.614,1.129,-0.584,10.0
24.401,2.032,-0.377,5.0
20.868,1.741,-0.442,4.0
18.655,1.56,-0.501,3.0
16.74,1.403,-0.547,2.0
13.895,1.167,-0.534,13.0
13.489,1.135,-0.595,9.0
23.368,1.973,-0.391,5.0
20.341,1.721,-0.456,3.0
18.137,1.538,-0.51,3.0
16.44,1.397,-0.558,0.0
13.819,1.176,-0.548,12.0
13.324,1.137,-0.605,8.0
22.368,1.915,-0.402,4.0
19.816,1.699,-0.47,3.0
17.671,1.518,-0.52,2.0
13.894,1.196,-0.489,13.0
13.764,1.187,-0.564,11.0
13.166,1.138,-0.615,8.0
21.692,1.881,-0.418,4.0
19.281,1.675,-0.482,3.0
13.897,1.209,-0.427,8.0
13.822,1.205,-0.505,15.0
13.589,1.187,-0.574,8.0
13.072,1.144,-0.627,9.0
21.024,1.845,-0.433,4.0
13.874,1.22,-0.365,8.0
13.881,1.223,-0.444,13.0
13.792,1.217,-0.522,13.0
13.495,1.193,-0.588,12.0
13.081,1.159,-0.645,10.0
13.89,1.233,-0.304,8.0
13.869,1.234,-0.383,13.0
13.831,1.232,-0.461,19.0
13.758,1.228,-0.539,13.0
13.359,1.194,-0.6,12.0
13.054,1.169,-0.661,10.0
13.873,1.245,-0.322,16.0
13.847,1.245,-0.4,17.0
13.808,1.244,-0.479,19.0
13.719,1.238,-0.555,13.0
13.198,1.193,-0.61,8.0
12.82,1.16,-0.666,4.0
13.848,1.256,-0.34,27.0
13.826,1.256,-0.418,23.0
13.773,1.254,-0.496,16.0
13.586,1.238,-0.568,9.0
13.073,1.194,-0.622,9.0
12.546,1.147,-0.669,4.0
13.826,1.267,-0.358,31.0
13.805,1.267,-0.436,23.0
13.76,1.264,-0.514,16.0
13.475,1.24,-0.582,11.0
13.077,1.205,-0.64,11.0
12.37,1.142,-0.676,3.0
13.823,1.278,-0.376,30.0
13.795,1.277,-0.455,26.0
13.737,1.274,-0.531,14.0
13.309,1.236,-0.593,12.0
13.056,1.214,-0.656,11.0
12.108,1.128,-0.678,2.0
13.809,1.288,-0.394,28.0
13.766,1.286,-0.472,24.0
13.692,1.281,-0.548,12.0
13.2,1.236,-0.606,10.0
12.85,1.205,-0.663,3.0
11.894,1.117,-0.682,1.0
13.785,1.297,-0.412,26.0
13.76,1.296,-0.491,26.0
13.582,1.281,-0.562,9.0
13.082,1.235,-0.618,9.0
12.567,1.188,-0.666,4.0
11.657,1.104,-0.685,1.0
13.789,1.307,-0.431,31.0
13.735,1.303,-0.508,20.0
13.494,1.282,-0.577,10.0
13.062,1.242,-0.635,11.0
12.346,1.176,-0.671,3.0
11.386,1.086,-0.684,1.0
13.768,1.314,-0.449,29.0
13.723,1.311,-0.527,17.0
13.343,1.277,-0.589,9.0
13.041,1.249,-0.652,9.0
12.118,1.162,-0.675,2.0
11.222,1.078,-0.69,1.0
13.76,1.322,-0.468,28.0
13.701,1.318,-0.545,15.0
13.245,1.276,-0.603,9.0
12.882,1.242,-0.661,2.0
11.888,1.147,-0.679,1.0
11.003,1.063,-0.692,1.0
13.738,1.328,-0.486,22.0
13.586,1.315,-0.559,11.0
13.075,1.267,-0.613,8.0
12.568,1.219,-0.662,1.0
11.668,1.133,-0.682,1.0
10.834,1.053,-0.696,2.0
13.729,1.335,-0.505,18.0
13.458,1.31,-0.572,11.0
13.067,1.273,-0.63,11.0
12.344,1.204,-0.668,2.0
11.425,1.115,-0.684,1.0
10.656,1.041,-0.699,1.0
13.72,1.341,-0.523,16.0
13.353,1.306,-0.585,10.0
13.055,1.278,-0.647,11.0
12.132,1.189,-0.673,2.0
11.226,1.101,-0.687,2.0
10.462,1.027,-0.701,1.0
13.697,1.345,-0.54,13.0
13.261,1.303,-0.599,9.0
12.9,1.269,-0.657,3.0
11.898,1.171,-0.676,1.0
10.995,1.083,-0.688,1.0
10.267,1.012,-0.702,2.0
13.593,1.34,-0.555,12.0
13.075,1.29,-0.609,8.0
12.607,1.245,-0.659,1.0
11.641,1.151,-0.677,1.0
10.845,1.073,-0.693,2.0
10.107,1.001,-0.704,2.0
13.496,1.336,-0.569,12.0
13.071,1.295,-0.626,11.0
12.389,1.228,-0.665,2.0
11.458,1.136,-0.682,1.0
10.653,1.058,-0.696,1.0
9.924,0.986,-0.705,3.0
13.325,1.323,-0.58,11.0
13.048,1.297,-0.643,11.0
12.176,1.211,-0.67,2.0
11.254,1.12,-0.685,1.0
10.495,1.045,-0.699,1.0
9.822,0.979,-0.711,3.0
13.234,1.318,-0.594,11.0
12.934,1.289,-0.655,4.0
11.929,1.189,-0.673,1.0
11.037,1.101,-0.687,1.0
10.301,1.028,-0.701,1.0
9.702,0.969,-0.716,2.0
13.102,1.308,-0.605,9.0
12.636,1.262,-0.657,2.0
11.681,1.167,-0.674,2.0
10.851,1.085,-0.69,2.0
10.139,1.014,-0.703,2.0
9.621,0.963,-0.723,1.0
13.086,1.309,-0.622,11.0
12.419,1.243,-0.662,2.0
11.507,1.152,-0.679,1.0
10.694,1.071,-0.694,2.0
9.971,0.999,-0.705,2.0
9.509,0.954,-0.727,1.0
13.052,1.307,-0.638,12.0
12.225,1.225,-0.667,1.0
11.275,1.13,-0.681,1.0
10.517,1.055,-0.696,1.0
9.843,0.988,-0.709,2.0
9.357,0.939,-0.728,1.0
12.978,1.301,-0.651,7.0
12.013,1.205,-0.672,1.0
11.099,1.114,-0.685,1.0
10.354,1.039,-0.699,1.0
9.721,0.976,-0.713,2.0
9.28,0.932,-0.734,1.0
12.734,1.277,-0.656,3.0
11.74,1.178,-0.672,1.0
10.915,1.096,-0.687,2.0
10.18,1.022,-0.701,2.0
9.648,0.969,-0.72,2.0
9.15,0.92,-0.736,1.0
12.501,1.254,-0.66,2.0
11.567,1.161,-0.677,1.0
10.751,1.079,-0.691,2.0
10.026,1.007,-0.703,2.0
9.562,0.96,-0.726,1.0
9.013,0.906,-0.736,1.0
12.304,1.234,-0.665,2.0
11.354,1.139,-0.679,1.0
10.601,1.064,-0.695,1.0
9.877,0.991,-0.705,2.0
9.422,0.946,-0.727,1.0
8.919,0.896,-0.74,1.0
12.109,1.214,-0.67,2.0
11.189,1.122,-0.683,1.0
10.408,1.044,-0.695,1.0
9.776,0.98,-0.71,2.0
9.31,0.934,-0.73,1.0
8.801,0.883,-0.741,1.0
11.867,1.188,-0.671,1.0
10.989,1.1,-0.684,2.0
10.264,1.028,-0.698,1.0
9.687,0.97,-0.716,2.0
9.222,0.924,-0.735,1.0
8.644,0.866,-0.739,1.0
11.664,1.166,-0.674,2.0
10.836,1.083,-0.688,2.0
10.105,1.01,-0.7,2.0
9.608,0.961,-0.722,1.0
9.094,0.909,-0.736,1.0
8.256,0.826,-0.716,1.0
11.489,1.146,-0.678,2.0
10.696,1.067,-0.692,1.0
9.967,0.994,-0.702,2.0
9.518,0.95,-0.727,0.0
8.986,0.896,-0.738,1.0
7.986,0.797,-0.702,2.0
11.32,1.126,-0.681,1.0
10.548,1.05,-0.695,1.0
9.847,0.98,-0.705,2.0
9.375,0.933,-0.727,1.0
8.881,0.884,-0.74,1.0
7.847,0.781,-0.699,4.0
11.141,1.105,-0.683,1.0
10.38,1.03,-0.696,1.0
9.745,0.967,-0.71,2.0
9.282,0.921,-0.73,1.0
8.786,0.872,-0.742,1.0
7.775,0.771,-0.701,4.0
10.966,1.085,-0.685,2.0
10.245,1.013,-0.699,2.0
9.674,0.956,-0.715,2.0
9.194,0.909,-0.734,1.0
8.541,0.844,-0.731,0.0
7.698,0.761,-0.703,4.0
10.843,1.068,-0.69,2.0
10.108,0.996,-0.701,2.0
9.612,0.947,-0.722,1.0
9.078,0.894,-0.735,1.0
8.185,0.806,-0.71,1.0
7.634,0.751,-0.706,3.0
10.705,1.05,-0.693,1.0
9.969,0.978,-0.702,2.0
9.523,0.934,-0.726,0.0
8.987,0.881,-0.737,1.0
8.004,0.785,-0.703,2.0
7.542,0.739,-0.706,3.0
10.581,1.034,-0.696,1.0
9.865,0.963,-0.705,3.0
9.406,0.918,-0.727,1.0
8.897,0.868,-0.74,1.0
7.875,0.768,-0.7,4.0
7.496,0.731,-0.71,4.0
10.39,1.01,-0.695,2.0
9.795,0.951,-0.711,2.0
9.304,0.904,-0.729,1.0
8.81,0.855,-0.742,1.0
7.8,0.757,-0.701,4.0
7.469,0.725,-0.715,4.0
10.276,0.993,-0.697,2.0
9.691,0.936,-0.713,2.0
9.224,0.891,-0.732,1.0
8.603,0.831,-0.733,0.0
7.737,0.747,-0.704,4.0
7.446,0.718,-0.72,4.0
10.17,0.977,-0.7,2.0
9.638,0.926,-0.719,2.0
9.133,0.877,-0.734,1.0
8.324,0.799,-0.717,0.0
7.685,0.737,-0.707,4.0
7.424,0.712,-0.726,4.0
10.044,0.959,-0.702,2.0
9.565,0.913,-0.723,1.0
9.058,0.864,-0.737,1.0
8.113,0.773,-0.707,2.0
7.623,0.726,-0.708,4.0
7.387,0.704,-0.729,3.0
9.952,0.944,-0.705,2.0
9.474,0.898,-0.725,1.0
8.982,0.851,-0.739,1.0
7.993,0.757,-0.704,2.0
7.551,0.714,-0.709,4.0
7.348,0.695,-0.732,3.0
9.885,0.931,-0.709,2.0
9.405,0.885,-0.728,1.0
8.925,0.839,-0.742,0.0
7.906,0.743,-0.704,3.0
7.512,0.706,-0.712,4.0
7.306,0.686,-0.734,3.0
9.798,0.916,-0.711,2.0
9.315,0.87,-0.73,1.0
8.833,0.824,-0.742,0.0
7.828,0.73,-0.704,4.0
7.492,0.698,-0.716,4.0
7.256,0.676,-0.736,3.0
9.706,0.9,-0.713,2.0
9.261,0.858,-0.733,1.0
8.742,0.809,-0.742,0.0
7.768,0.719,-0.705,4.0
7.478,0.691,-0.721,4.0
7.181,0.663,-0.734,3.0
9.663,0.889,-0.718,2.0
9.214,0.847,-0.737,0.0
8.512,0.781,-0.73,1.0
7.718,0.708,-0.706,4.0
7.456,0.683,-0.725,4.0
7.124,0.652,-0.734,3.0
9.616,0.876,-0.722,1.0
9.145,0.833,-0.739,0.0
8.458,0.769,-0.732,1.0
7.659,0.696,-0.707,4.0
7.439,0.676,-0.73,4.0
7.078,0.642,-0.735,3.0
9.541,0.862,-0.723,1.0
9.066,0.818,-0.739,0.0
8.27,0.745,-0.722,1.0
7.605,0.685,-0.708,4.0
7.433,0.669,-0.734,4.0
7.07,0.635,-0.739,3.0
9.509,0.85,-0.728,1.0
8.985,0.803,-0.739,1.0
8.115,0.724,-0.714,2.0
7.569,0.675,-0.71,4.0
7.409,0.66,-0.737,4.0
7.061,0.628,-0.743,3.0
9.483,0.839,-0.732,1.0
8.932,0.79,-0.741,1.0
8.013,0.708,-0.71,2.0
7.537,0.665,-0.712,4.0
7.4,0.652,-0.742,3.0
7.068,0.622,-0.749,3.0
9.401,0.823,-0.732,0.0
8.881,0.777,-0.742,1.0
7.941,0.694,-0.709,3.0
7.529,0.657,-0.716,4.0
7.394,0.644,-0.746,3.0
7.081,0.616,-0.755,2.0
9.332,0.808,-0.733,1.0
8.837,0.764,-0.744,1.0
7.912,0.683,-0.711,3.0
7.524,0.649,-0.72,4.0
7.378,0.636,-0.749,3.0
7.034,0.605,-0.754,2.0
9.283,0.795,-0.734,1.0
8.807,0.753,-0.747,1.0
7.893,0.674,-0.714,4.0
7.518,0.641,-0.724,4.0
7.364,0.627,-0.751,3.0
7.02,0.597,-0.756,2.0
9.238,0.781,-0.736,1.0
8.771,0.741,-0.748,1.0
7.854,0.662,-0.715,4.0
7.531,0.634,-0.729,4.0
7.364,0.619,-0.755,3.0
6.991,0.587,-0.757,2.0
9.193,0.768,-0.737,1.0
8.751,0.73,-0.751,0.0
7.838,0.653,-0.717,4.0
7.582,0.631,-0.738,4.0
7.367,0.612,-0.759,3.0
6.99,0.58,-0.76,1.0
9.172,0.756,-0.739,1.0
8.715,0.718,-0.752,0.0
7.818,0.643,-0.719,4.0
7.636,0.627,-0.747,3.0
7.375,0.604,-0.763,3.0
6.997,0.573,-0.764,1.0
9.129,0.743,-0.74,1.0
8.649,0.703,-0.75,1.0
7.824,0.634,-0.723,4.0
7.653,0.62,-0.751,3.0
7.379,0.596,-0.767,3.0
7.005,0.565,-0.768,1.0
9.112,0.731,-0.742,1.0
8.567,0.686,-0.746,1.0
7.87,0.629,-0.73,4.0
7.654,0.611,-0.754,3.0
7.367,0.587,-0.768,2.0
6.997,0.557,-0.769,1.0
9.093,0.719,-0.744,0.0
8.481,0.67,-0.742,1.0
7.895,0.622,-0.735,4.0
7.656,0.602,-0.757,3.0
7.344,0.577,-0.768,2.0
7.001,0.549,-0.772,1.0
9.073,0.707,-0.745,1.0
8.478,0.659,-0.744,2.0
7.924,0.615,-0.74,4.0
7.678,0.595,-0.762,2.0
7.348,0.568,-0.771,2.0
7.006,0.541,-0.775,1.0
9.038,0.694,-0.745,1.0
8.465,0.648,-0.745,2.0
7.931,0.606,-0.743,5.0
7.681,0.586,-0.764,2.0
7.333,0.558,-0.771,1.0
7.008,0.533,-0.777,1.0
9.028,0.682,-0.746,1.0
8.559,0.645,-0.755,2.0
7.958,0.599,-0.747,4.0
7.708,0.579,-0.768,2.0
7.324,0.549,-0.771,1.0
7.01,0.524,-0.778,1.0
9.023,0.67,-0.747,1.0
8.516,0.631,-0.753,2.0
7.973,0.59,-0.75,4.0
7.702,0.569,-0.769,1.0
7.325,0.54,-0.773,1.0
7.028,0.517,-0.781,1.0
9.022,0.659,-0.748,2.0
8.536,0.622,-0.756,3.0
7.999,0.582,-0.753,4.0
7.704,0.559,-0.77,1.0
7.317,0.53,-0.773,1.0
7.068,0.511,-0.786,1.0
9.019,0.648,-0.749,2.0
8.545,0.612,-0.758,4.0
8.023,0.573,-0.756,4.0
7.701,0.549,-0.77,1.0
7.33,0.521,-0.775,1.0
7.126,0.506,-0.793,1.0
9.028,0.637,-0.75,2.0
8.538,0.601,-0.757,5.0
8.038,0.564,-0.758,4.0
7.697,0.539,-0.77,1.0
7.366,0.515,-0.779,1.0
7.221,0.503,-0.804,1.0
9.047,0.626,-0.752,2.0
8.551,0.59,-0.759,5.0
8.075,0.556,-0.762,4.0
7.693,0.528,-0.77,1.0
7.407,0.508,-0.783,1.0
7.324,0.501,-0.816,1.0
9.044,0.614,-0.751,2.0
8.582,0.581,-0.761,3.0
8.094,0.547,-0.763,3.0
7.712,0.52,-0.771,1.0
7.469,0.502,-0.789,1.0
7.449,0.499,-0.829,1.0
9.034,0.602,-0.75,3.0
8.603,0.571,-0.762,2.0
8.109,0.537,-0.764,2.0
7.731,0.511,-0.773,1.0
7.559,0.498,-0.798,1.0
7.568,0.497,-0.842,1.0
9.084,0.593,-0.753,3.0
8.624,0.561,-0.763,2.0
8.133,0.528,-0.765,2.0
7.779,0.503,-0.776,1.0
7.66,0.494,-0.807,1.0
7.686,0.495,-0.853,1.0
9.091,0.581,-0.752,3.0
8.626,0.55,-0.762,1.0
8.16,0.518,-0.766,1.0
7.829,0.496,-0.78,1.0
7.789,0.492,-0.82,1.0
7.807,0.492,-0.865,0.0
9.149,0.572,-0.755,2.0
8.639,0.539,-0.761,1.0
8.187,0.509,-0.767,1.0
7.91,0.49,-0.786,1.0
7.905,0.489,-0.83,1.0
7.931,0.489,-0.877,0.0
9.178,0.562,-0.756,2.0
8.664,0.529,-0.761,1.0
8.232,0.501,-0.769,1.0
8.021,0.486,-0.795,1.0
8.051,0.486,-0.843,1.0
8.055,0.485,-0.889,0.0
9.188,0.55,-0.754,1.0
8.682,0.518,-0.76,2.0
8.286,0.492,-0.772,1.0
8.144,0.483,-0.805,1.0
8.188,0.483,-0.855,1.0
8.189,0.482,-0.901,0.0
9.219,0.539,-0.753,2.0
8.709,0.507,-0.76,2.0
8.368,0.486,-0.777,1.0
8.334,0.482,-0.821,1.0
8.33,0.48,-0.867,0.0
8.369,0.481,-0.918,0.0
9.244,0.528,-0.752,2.0
8.759,0.498,-0.761,2.0
8.466,0.48,-0.782,2.0
8.468,0.478,-0.83,1.0
8.455,0.476,-0.876,0.0
8.525,0.478,-0.931,0.0
9.286,0.517,-0.751,2.0
8.816,0.489,-0.762,2.0
8.592,0.475,-0.79,2.0
8.568,0.472,-0.836,2.0
8.597,0.472,-0.887,0.0
8.622,0.471,-0.938,0.0
9.316,0.506,-0.749,2.0
8.878,0.48,-0.763,2.0
8.717,0.47,-0.798,2.0
8.763,0.47,-0.851,1.0
8.819,0.472,-0.906,0.0
8.8,0.469,-0.953,0.0
9.371,0.496,-0.749,2.0
8.971,0.473,-0.767,2.0
8.9,0.467,-0.81,2.0
8.919,0.466,-0.862,0.0
8.979,0.468,-0.917,0.0
8.91,0.462,-0.96,0.0
9.432,0.486,-0.749,2.0
9.086,0.466,-0.771,2.0
9.085,0.464,-0.821,2.0
9.1,0.463,-0.874,0.0
9.102,0.461,-0.924,0.0
8.963,0.453,-0.96,0.0
9.503,0.477,-0.749,2.0
9.24,0.461,-0.779,2.0
9.221,0.459,-0.828,1.0
9.296,0.46,-0.887,0.0
9.22,0.455,-0.931,0.0
8.93,0.438,-0.951,0.0
9.586,0.467,-0.749,2.0
9.397,0.456,-0.786,2.0
9.423,0.455,-0.84,1.0
9.475,0.456,-0.898,0.0
9.414,0.451,-0.944,0.0
8.811,0.42,-0.932,0.0
9.7,0.459,-0.752,2.0
9.598,0.453,-0.796,2.0
9.614,0.451,-0.85,0.0
9.612,0.449,-0.904,0.0
9.618,0.447,-0.958,0.0
8.716,0.404,-0.916,0.0
9.836,0.452,-0.755,2.0
9.803,0.449,-0.806,1.0
9.852,0.449,-0.864,0.0
9.841,0.446,-0.918,0.0
9.768,0.441,-0.965,0.0
8.736,0.392,-0.911,0.0
9.989,0.446,-0.759,2.0
10.0,0.444,-0.815,1.0
10.085,0.446,-0.877,0.0
10.005,0.44,-0.926,0.0
9.819,0.429,-0.962,0.0
8.766,0.382,-0.907,0.0
10.178,0.44,-0.765,2.0
10.202,0.439,-0.823,1.0
10.224,0.437,-0.88,6.0
10.254,0.437,-0.94,0.0
9.637,0.408,-0.936,0.0
8.828,0.372,-0.906,0.0
10.406,0.436,-0.773,2.0
10.387,0.433,-0.829,1.0
10.218,0.423,-0.871,13.0
10.467,0.431,-0.95,0.0
9.346,0.383,-0.9,0.0
8.883,0.362,-0.904,0.0
10.651,0.431,-0.782,2.0
10.665,0.429,-0.841,0.0
10.253,0.411,-0.864,5.0
10.59,0.422,-0.952,0.0
9.351,0.37,-0.891,2.0
8.955,0.353,-0.902,0.0
10.879,0.426,-0.789,2.0
10.885,0.423,-0.848,0.0
10.862,0.42,-0.905,0.0
10.717,0.412,-0.953,0.0
9.351,0.358,-0.882,3.0
9.047,0.344,-0.903,0.0
11.113,0.42,-0.795,2.0
11.171,0.42,-0.859,0.0
11.142,0.416,-0.918,0.0
10.146,0.377,-0.892,0.0
9.405,0.347,-0.878,0.0
9.157,0.336,-0.904,0.0
11.371,0.414,-0.801,2.0
11.475,0.416,-0.871,0.0
11.385,0.41,-0.926,0.0
10.141,0.363,-0.881,0.0
9.634,0.343,-0.889,0.0
9.235,0.326,-0.902,0.0
11.626,0.408,-0.807,1.0
11.636,0.406,-0.871,0.0
11.554,0.401,-0.927,0.0
10.231,0.352,-0.877,0.0
9.742,0.333,-0.888,0.0
9.271,0.315,-0.895,1.0
11.93,0.403,-0.815,1.0
11.973,0.402,-0.882,0.0
10.297,0.341,-0.871,0.0
9.848,0.324,-0.886,0.0
9.3,0.304,-0.888,1.0
12.202,0.396,-0.82,0.0
12.319,0.397,-0.894,0.0
10.434,0.332,-0.87,0.0
9.956,0.315,-0.884,0.0
9.444,0.296,-0.89,0.0
12.548,0.391,-0.828,0.0
12.605,0.391,-0.9,1.0
10.499,0.321,-0.863,0.0
10.036,0.304,-0.879,0.0
9.569,0.288,-0.89,0.0
12.867,0.385,-0.833,0.0
12.871,0.383,-0.903,1.0
10.684,0.313,-0.865,0.0
10.164,0.295,-0.878,0.0
9.679,0.279,-0.888,0.0
13.142,0.377,-0.835,0.0
13.051,0.371,-0.899,1.0
10.79,0.302,-0.86,0.0
10.326,0.287,-0.878,0.0
9.816,0.271,-0.888,0.0
13.382,0.367,-0.832,0.0
12.767,0.347,-0.862,0.0
10.984,0.294,-0.861,0.0
10.384,0.276,-0.869,4.0
9.92,0.262,-0.884,0.0
13.664,0.358,-0.832,0.0
12.564,0.327,-0.832,0.0
11.867,0.306,-0.849,0.0
11.105,0.284,-0.855,0.0
10.448,0.265,-0.86,4.0
10.039,0.252,-0.88,0.0
13.858,0.347,-0.824,0.0
12.714,0.315,-0.824,0.0
12.031,0.296,-0.844,0.0
11.315,0.276,-0.855,0.0
10.636,0.257,-0.861,0.0
10.178,0.244,-0.878,0.0
14.223,0.339,-0.826,0.0
12.946,0.306,-0.821,0.0
12.185,0.285,-0.838,0.0
11.494,0.267,-0.852,0.0
10.856,0.25,-0.863,0.0
10.326,0.235,-0.876,2.0
14.814,0.336,-0.839,0.0
13.138,0.295,-0.814,0.0
12.402,0.276,-0.834,0.0
11.666,0.257,-0.848,0.0
11.002,0.24,-0.858,0.0
10.405,0.225,-0.867,5.0
15.259,0.328,-0.842,0.0
13.399,0.285,-0.81,0.0
12.591,0.266,-0.828,0.0
11.894,0.249,-0.847,0.0
11.2,0.232,-0.857,0.0
10.476,0.215,-0.857,3.0
15.641,0.319,-0.839,1.0
13.646,0.275,-0.804,0.0
12.787,0.256,-0.821,0.0
12.073,0.239,-0.841,0.0
11.411,0.224,-0.855,0.0
10.75,0.209,-0.863,0.0
15.366,0.296,-0.8,2.0
13.851,0.264,-0.795,0.0
13.059,0.247,-0.818,1.0
12.282,0.229,-0.836,0.0
11.597,0.214,-0.85,0.0
10.954,0.2,-0.862,0.0
15.272,0.278,-0.771,0.0
13.321,0.237,-0.813,1.0
12.51,0.221,-0.831,1.0
11.787,0.206,-0.846,0.0
11.103,0.192,-0.855,0.0
15.689,0.269,-0.767,0.0
14.635,0.248,-0.792,0.0
13.529,0.227,-0.804,1.0
12.726,0.211,-0.825,1.0
12.014,0.197,-0.842,0.0
11.328,0.184,-0.854,0.0
16.211,0.262,-0.766,0.0
14.906,0.238,-0.783,1.0
13.839,0.218,-0.8,0.0
12.966,0.202,-0.819,1.0
12.219,0.188,-0.836,1.0
11.561,0.176,-0.852,0.0
17.728,0.268,-0.808,2.0
15.105,0.226,-0.768,1.0
14.161,0.209,-0.794,0.0
13.252,0.193,-0.814,1.0
12.457,0.179,-0.831,1.0
11.762,0.167,-0.847,0.0
18.32,0.259,-0.803,1.0
15.472,0.216,-0.76,0.0
14.551,0.201,-0.791,0.0
13.52,0.184,-0.807,1.0
12.71,0.171,-0.826,1.0
11.987,0.159,-0.842,1.0
18.931,0.25,-0.797,2.0
15.818,0.206,-0.749,0.0
14.888,0.192,-0.783,1.0
13.833,0.176,-0.802,1.0
12.966,0.162,-0.819,1.0
12.203,0.151,-0.835,1.0
19.538,0.24,-0.788,2.0
16.303,0.198,-0.743,0.0
15.099,0.181,-0.767,1.0
14.079,0.166,-0.791,1.0
13.237,0.154,-0.813,1.0
12.474,0.143,-0.832,1.0
20.098,0.229,-0.775,2.0
15.459,0.171,-0.758,0.0
14.523,0.159,-0.789,1.0
13.534,0.146,-0.806,1.0
12.728,0.135,-0.825,1.0
19.022,0.2,-0.699,0.0
15.788,0.161,-0.745,0.0
14.892,0.15,-0.782,1.0
13.912,0.138,-0.803,4.0
13.0,0.127,-0.819,1.0
21.391,0.208,-0.747,0.0
48.172,0.461,-1.933,22.0
16.445,0.155,-0.745,0.0
15.123,0.14,-0.766,1.0
14.132,0.129,-0.79,1.0
13.289,0.119,-0.812,1.0
0.0,0.0,0.0,0.0
18.471,0.162,-0.707,0.0
17.032,0.147,-0.74,3.0
15.507,0.131,-0.757,0.0
14.601,0.122,-0.789,1.0
13.598,0.111,-0.805,1.0
21.152,0.172,-0.659,1.0
19.07,0.153,-0.693,1.0
15.858,0.123,-0.743,0.0
14.983,0.114,-0.78,2.0
13.956,0.104,-0.8,1.0
21.758,0.161,-0.636,4.0
19.7,0.143,-0.678,1.0
18.006,0.129,-0.714,0.0
16.747,0.117,-0.753,0.0
15.23,0.105,-0.763,1.0
14.315,0.096,-0.792,1.0
22.664,0.152,-0.618,1.0
20.506,0.135,-0.666,0.0
18.667,0.12,-0.703,1.0
17.226,0.109,-0.74,12.0
15.799,0.098,-0.761,16.0
14.726,0.089,-0.786,1.0
23.465,0.142,-0.595,2.0
21.275,0.126,-0.649,1.0
19.123,0.111,-0.683,2.0
17.294,0.098,-0.709,19.0
15.796,0.088,-0.73,6.0
15.041,0.082,-0.773,2.0
24.177,0.131,-0.565,2.0
22.2,0.117,-0.634,1.0
20.009,0.103,-0.675,1.0
18.202,0.092,-0.71,1.0
17.156,0.085,-0.758,1.0
15.674,0.076,-0.774,2.0
25.494,0.122,-0.545,2.0
22.976,0.108,-0.61,2.0
20.842,0.095,-0.661,2.0
18.838,0.084,-0.697,4.0
17.275,0.075,-0.729,17.0
15.792,0.067,-0.748,15.0
26.603,0.113,-0.515,2.0
23.726,0.098,-0.582,2.0
21.492,0.086,-0.639,3.0
19.507,0.076,-0.682,2.0
17.679,0.067,-0.71,2.0
16.561,0.061,-0.751,0.0
27.683,0.102,-0.48,1.0
24.838,0.089,-0.559,1.0
22.533,0.079,-0.624,2.0
20.355,0.069,-0.671,1.0
18.615,0.061,-0.71,3.0
17.142,0.055,-0.742,0.0
29.012,0.093,-0.444,2.0
26.151,0.081,-0.535,2.0
23.372,0.07,-0.599,2.0
21.167,0.062,-0.654,3.0
18.976,0.054,-0.684,5.0
17.628,0.048,-0.727,1.0
30.258,0.083,-0.401,2.0
27.059,0.071,-0.498,2.0
24.192,0.062,-0.57,2.0
22.03,0.054,-0.635,2.0
19.975,0.048,-0.679,2.0
18.251,0.042,-0.715,1.0
32.16,0.074,-0.359,1.0
28.469,0.063,-0.465,2.0
25.575,0.055,-0.549,1.0
22.966,0.047,-0.614,2.0
20.777,0.041,-0.663,2.0
18.838,0.036,-0.698,3.0
33.886,0.065,-0.308,0.0
29.667,0.054,-0.422,2.0
26.671,0.047,-0.517,2.0
23.733,0.04,-0.585,2.0
21.62,0.035,-0.644,4.0
19.536,0.03,-0.683,3.0
38.312,0.059,-0.268,7.0
31.205,0.046,-0.379,1.0
27.849,0.039,-0.481,1.0
24.88,0.034,-0.561,1.0
22.567,0.029,-0.625,4.0
20.432,0.025,-0.671,2.0
39.227,0.048,-0.192,36.0
33.401,0.039,-0.335,1.0
29.197,0.032,-0.444,2.0
26.138,0.028,-0.535,1.0
23.383,0.023,-0.599,2.0
21.274,0.02,-0.654,3.0
40.916,0.039,-0.114,17.0
38.233,0.034,-0.304,3.0
30.484,0.026,-0.399,1.0
27.193,0.021,-0.498,1.0
24.368,0.018,-0.572,2.0
22.238,0.015,-0.637,4.0
0.0,0.0,0.0,0.0
38.974,0.026,-0.227,14.0
32.746,0.02,-0.359,1.0
28.637,0.016,-0.465,2.0
25.767,0.013,-0.55,1.0
23.084,0.011,-0.612,3.0
52.309,0.026,0.075,9.0
40.303,0.018,-0.149,21.0
38.167,0.016,-0.337,0.0
29.891,0.011,-0.421,2.0
26.814,0.009,-0.515,2.0
23.962,0.007,-0.584,2.0
61.487,0.019,0.22,11.0
0.0,0.0,0.0,0.0
38.754,0.01,-0.259,14.0
31.492,0.007,-0.376,1.0
28.118,0.005,-0.48,1.0
25.168,0.004,-0.559,1.0
76.119,0.014,0.436,19.0
47.962,0.007,0.028,16.0
39.746,0.005,-0.181,33.0
33.614,0.004,-0.329,0.0
29.489,0.003,-0.44,2.0
26.478,0.002,-0.531,2.0
79.355,0.007,0.624,54.0
55.915,0.004,0.152,29.0
0.0,0.0,0.0,0.0
38.399,0.001,-0.293,6.0
30.841,0.001,-0.394,1.0
27.557,0.0,-0.493,1.0
79.454,0.002,0.797,173.0
76.004,0.001,0.371,10.0
0.0,0.0,0.0,0.0
39.271,0.0,-0.215,20.0
33.167,0.0,-0.353,1.0
29.071,0.0,-0.459,2.0
79.463,0.0,0.967,153.0
79.246,0.0,0.556,13.0
0.0,0.0,0.0,0.0
40.842,0.0,-0.136,17.0
38.269,0.0,-0.324,3.0
30.378,0.0,-0.413,2.0
79.46,0.001,1.138,151.0
79.473,0.001,0.73,173.0
61.716,0.001,0.249,14.0
45.208,0.001,-0.054,21.0
38.948,0.001,-0.247,14.0
32.217,0.001,-0.369,1.0
79.445,0.005,1.309,157.0
79.451,0.006,0.9,186.0
76.306,0.007,0.472,21.0
0.0,0.0,0.0,0.0
40.1,0.005,-0.167,27.0
37.492,0.005,-0.348,1.0
79.451,0.012,1.481,159.0
79.458,0.013,1.073,155.0
79.444,0.015,0.665,150.0
61.427,0.013,0.191,9.0
0.0,0.0,0.0,0.0
38.574,0.01,-0.275,9.0
79.453,0.022,1.653,151.0
79.457,0.024,1.244,157.0
79.447,0.026,0.835,178.0
76.055,0.028,0.401,16.0
47.834,0.019,0.006,21.0
39.537,0.017,-0.198,36.0
79.442,0.035,1.822,150.0
79.443,0.038,1.413,172.0
79.46,0.041,1.005,156.0
79.352,0.044,0.587,31.0
55.224,0.032,0.123,17.0
43.863,0.027,-0.126,5.0
79.442,0.051,1.991,150.0
79.45,0.054,1.583,151.0
79.452,0.058,1.174,158.0
79.454,0.061,0.757,151.0
61.89,0.05,0.271,7.0
0.0,0.0,0.0,0.0
79.44,0.07,2.16,150.0
79.434,0.074,1.752,151.0
79.452,0.078,1.343,172.0
79.461,0.082,0.926,151.0
76.38,0.083,0.497,18.0
0.0,0.0,0.0,0.0
79.447,0.092,2.33,150.0
79.442,0.096,1.921,150.0
79.448,0.101,1.512,151.0
79.458,0.106,1.095,152.0
79.428,0.11,0.685,150.0
61.658,0.089,0.215,8.0
79.448,0.116,2.499,150.0
79.444,0.122,2.09,150.0
79.434,0.127,1.68,151.0
79.448,0.132,1.262,161.0
79.469,0.137,0.853,151.0
76.02,0.137,0.424,18.0
79.448,0.144,2.666,151.0
79.441,0.15,2.256,150.0
79.44,0.156,1.846,150.0
79.451,0.161,1.429,151.0
79.462,0.167,1.02,151.0
79.464,0.173,0.611,73.0
79.455,0.175,2.833,151.0
79.441,0.181,2.422,150.0
79.444,0.187,2.012,150.0
79.441,0.193,1.593,151.0
79.464,0.2,1.184,156.0
79.448,0.206,0.773,150.0
79.437,0.208,2.997,151.0
79.438,0.215,2.587,150.0
79.438,0.221,2.176,150.0
79.431,0.228,1.757,150.0
79.456,0.235,1.348,161.0
79.461,0.242,0.937,151.0
79.422,0.244,3.16,150.0
79.452,0.251,2.751,151.0
79.44,0.258,2.339,150.0
79.44,0.266,1.92,150.0
79.453,0.273,1.509,151.0
79.461,0.28,1.098,151.0
59.281,0.211,2.48,13.0
79.427,0.29,2.912,150.0
79.445,0.298,2.5,150.0
79.408,0.306,2.082,150.0
79.434,0.314,1.671,150.0
79.466,0.322,1.261,151.0
48.226,0.197,2.116,56.0
59.291,0.248,2.294,10.0
59.277,0.254,1.987,83.0
59.278,0.261,1.674,99.0
59.294,0.267,1.367,103.0
59.299,0.273,1.06,101.0
48.177,0.224,2.211,78.0
48.186,0.229,1.962,71.0
48.195,0.234,1.712,65.0
48.202,0.24,1.458,34.0
59.266,0.301,1.485,17.0
59.267,0.308,1.178,11.0
48.157,0.252,2.307,101.0
48.161,0.258,2.057,82.0
48.152,0.263,1.807,79.0
48.148,0.269,1.553,79.0
48.158,0.275,1.303,78.0
48.165,0.281,1.054,58.0
48.137,0.283,2.403,105.0
48.139,0.288,2.152,99.0
48.134,0.294,1.902,94.0
48.125,0.3,1.647,79.0
48.121,0.306,1.397,104.0
48.136,0.312,1.148,91.0
48.163,0.315,2.499,131.0
48.142,0.32,2.247,106.0
48.126,0.327,1.996,100.0
48.105,0.333,1.741,98.0
48.106,0.339,1.49,106.0
48.117,0.346,1.241,103.0
48.169,0.348,2.593,127.0
48.126,0.354,2.34,110.0
48.154,0.361,2.091,125.0
48.106,0.367,1.834,107.0
48.096,0.373,1.582,103.0
48.112,0.38,1.333,104.0
48.181,0.383,2.687,87.0
48.144,0.39,2.434,103.0
48.142,0.396,2.183,105.0
48.107,0.403,1.927,102.0
48.111,0.41,1.676,88.0
48.121,0.417,1.427,117.0
48.25,0.421,2.785,51.0
48.199,0.428,2.53,57.0
48.173,0.434,2.277,85.0
48.138,0.441,2.02,90.0
48.131,0.448,1.769,102.0
48.139,0.455,1.518,85.0
55.088,0.525,3.284,57.0
59.369,0.575,3.229,122.0
59.394,0.584,2.921,84.0
48.213,0.481,2.115,53.0
48.177,0.488,1.861,80.0
48.162,0.496,1.61,81.0
54.927,0.569,3.378,104.0
59.357,0.624,3.34,105.0
59.376,0.634,3.03,95.0
55.062,0.596,2.517,56.0
55.022,0.604,2.227,79.0
55.024,0.613,1.94,45.0
77.868,0.873,4.933,15.0
54.992,0.625,3.194,79.0
55.081,0.635,2.911,48.0
55.031,0.643,2.615,96.0
55.0,0.652,2.325,118.0
55.018,0.661,2.038,122.0
126.273,1.527,8.225,10.0
54.953,0.673,3.291,98.0
55.021,0.683,3.006,64.0
55.008,0.692,2.712,120.0
54.999,0.701,2.423,122.0
55.013,0.711,2.136,108.0
91.312,1.188,6.113,36.0
91.677,1.208,5.654,19.0
54.969,0.733,3.102,107.0
54.982,0.743,2.809,122.0
55.0,0.753,2.521,121.0
55.027,0.763,2.234,113.0
64.127,0.895,4.406,99.0
64.048,0.904,4.064,51.0
54.974,0.786,3.198,116.0
54.948,0.796,2.903,124.0
54.989,0.805,2.616,82.0
55.039,0.816,2.329,87.0
91.314,1.363,6.433,28.0
91.811,1.386,5.984,45.0
63.749,0.974,3.819,22.0
54.929,0.849,2.997,101.0
55.011,0.86,2.711,108.0
55.08,0.871,2.425,53.0
91.372,1.455,6.593,2.0
91.807,1.479,6.14,38.0
76.461,1.246,4.711,28.0
54.885,0.904,3.086,64.0
55.023,0.916,2.804,63.0
122.16,2.057,5.582,34.0
122.852,2.082,9.071,25.0
91.847,1.573,6.296,11.0
76.365,1.322,4.831,31.0
62.482,1.093,3.616,7.0
55.126,0.975,2.899,44.0
130.013,2.324,6.153,12.0
53.386,0.96,4.029,47.0
76.628,1.393,5.378,51.0
62.326,1.145,4.044,49.0
62.686,1.163,3.729,71.0
55.015,1.032,2.983,23.0
55.232,1.046,2.703,3.0
77.037,1.469,5.94,15.0
74.315,1.431,5.335,40.0
62.265,1.211,4.14,51.0
62.717,1.233,3.832,97.0
54.708,1.086,3.053,23.0
55.327,1.108,2.795,8.0
77.078,1.555,6.066,9.0
74.256,1.512,5.448,12.0
62.228,1.279,4.235,10.0
62.737,1.302,3.931,53.0
54.563,1.143,3.13,58.0
55.33,1.17,2.88,37.0
53.93,1.148,4.327,9.0
53.48,1.149,4.007,15.0
63.028,1.367,4.386,3.0
62.814,1.375,4.031,38.0
54.423,1.202,3.204,55.0
55.367,1.234,2.966,75.0
53.896,1.209,4.407,65.0
53.895,1.22,4.119,122.0
53.597,1.224,3.811,55.0
53.91,1.242,3.54,22.0
54.394,1.264,3.283,69.0
55.39,1.299,3.049,60.0
53.921,1.273,4.489,43.0
53.646,1.277,4.179,24.0
53.543,1.286,3.886,19.0
53.859,1.305,3.617,54.0
54.502,1.332,3.37,89.0
55.398,1.365,3.13,57.0
67.53,1.676,5.721,27.0
53.315,1.333,4.231,57.0
56.352,1.421,4.17,31.0
0.0,0.0,0.0,0.0
54.295,1.392,3.433,57.0
55.135,1.425,3.192,40.0
64.028,1.666,5.514,19.0
56.645,1.485,4.575,6.0
61.558,1.627,4.641,38.0
55.788,1.486,3.903,76.0
54.144,1.454,3.498,50.0
54.476,1.474,3.229,10.0
56.741,1.546,4.965,21.0
56.638,1.555,4.652,58.0
61.929,1.714,4.755,47.0
55.789,1.556,3.979,87.0
54.224,1.523,3.576,16.0
124.137,3.515,7.525,27.0
40.231,1.146,3.575,45.0
62.906,1.806,5.25,23.0
61.492,1.778,4.802,35.0
55.821,1.626,4.054,88.0
73.863,2.169,4.969,42.0
54.315,1.606,3.363,8.0
62.862,1.871,5.667,13.0
62.894,1.886,5.331,24.0
61.327,1.851,4.868,62.0
55.835,1.698,4.126,84.0
73.816,2.26,5.058,38.0
54.266,1.673,3.428,55.0
63.724,1.978,5.826,13.0
40.451,1.264,3.479,14.0
55.821,1.757,4.5,101.0
62.074,1.967,4.664,65.0
55.137,1.759,3.846,53.0
54.25,1.743,3.493,60.0
40.295,1.303,3.733,26.0
61.066,1.988,5.327,67.0
55.856,1.83,4.57,35.0
62.088,2.047,4.739,65.0
55.207,1.832,3.916,51.0
54.256,1.813,3.557,63.0
61.102,2.056,5.733,44.0
61.029,2.066,5.395,19.0
71.767,2.445,5.956,36.0
62.092,2.129,4.81,50.0
55.214,1.905,3.979,18.0
54.219,1.883,3.616,22.0
67.645,2.365,6.423,9.0
56.044,1.971,5.018,58.0
71.893,2.544,6.047,19.0
62.132,2.213,4.883,56.0
65.348,2.341,4.782,24.0
54.208,1.954,3.675,64.0
42.624,1.547,4.094,34.0
55.985,2.044,5.073,72.0
62.147,2.283,5.295,61.0
55.393,2.047,4.413,64.0
54.326,2.019,4.034,48.0
54.176,2.025,3.73,69.0
55.855,2.102,5.425,22.0
55.961,2.119,5.13,55.0
68.041,2.59,5.868,13.0
64.437,2.467,5.2,13.0
54.04,2.081,4.068,49.0
54.145,2.097,3.783,18.0
56.045,2.186,5.501,51.0
67.786,2.659,6.283,19.0
67.903,2.678,5.924,28.0
53.47,2.12,4.368,48.0
53.769,2.144,4.101,47.0
73.642,2.952,5.217,24.0
53.105,2.144,5.264,49.0
53.195,2.159,4.982,40.0
53.258,2.173,4.698,49.0
53.44,2.192,4.417,62.0
71.569,2.952,5.526,10.0
73.531,3.049,5.278,29.0
41.133,1.717,4.116,37.0
54.585,2.291,5.164,21.0
62.34,2.63,5.557,5.0
54.402,2.306,4.547,65.0
71.361,3.041,5.575,19.0
73.675,3.157,5.355,12.0
53.026,2.288,5.355,8.0
41.361,1.794,3.95,9.0
54.468,2.374,4.903,82.0
64.642,2.832,5.459,36.0
64.497,2.839,5.095,38.0
65.64,2.904,4.827,10.0
52.971,2.36,5.395,12.0
41.443,1.855,3.993,41.0
54.472,2.45,4.95,32.0
64.483,2.915,5.5,35.0
64.597,2.934,5.156,20.0
64.57,2.947,4.801,19.0
52.949,2.433,5.436,10.0
54.404,2.512,5.286,12.0
68.183,3.163,6.25,26.0
65.005,3.03,5.595,37.0
73.967,3.464,5.962,13.0
64.669,3.042,4.858,7.0
0.0,0.0,0.0,0.0
41.457,1.972,4.06,13.0
0.0,0.0,0.0,0.0
64.98,3.12,5.642,11.0
68.056,3.282,5.535,19.0
64.693,3.134,4.908,29.0
63.308,3.089,6.594,10.0
41.493,2.033,4.093,11.0
54.102,2.662,5.039,8.0
64.787,3.202,5.67,14.0
64.938,3.223,5.327,37.0
64.865,3.235,4.965,9.0
41.526,2.085,4.354,17.0
63.635,3.209,6.32,17.0
53.884,2.728,5.054,7.0
70.503,3.584,6.217,9.0
64.526,3.295,5.335,28.0
124.897,6.404,9.64,16.0
41.813,2.159,4.411,17.0
63.538,3.293,6.351,14.0
0.0,0.0,0.0,0.0
64.222,3.356,5.703,35.0
64.485,3.384,5.371,18.0
78.227,4.121,6.085,14.0
41.731,2.214,4.428,26.0
63.018,3.356,6.336,16.0
41.37,2.212,3.93,6.0
64.254,3.449,5.743,31.0
64.935,3.499,5.444,21.0
78.297,4.236,6.133,17.0
41.486,2.26,4.424,29.0
62.908,3.439,6.36,10.0
63.546,3.488,6.071,8.0
64.355,3.545,5.785,14.0
68.004,3.76,5.738,10.0
78.405,4.353,6.182,19.0
41.902,2.342,4.49,3.0
63.257,3.548,6.426,31.0
41.388,2.33,3.975,34.0
64.498,3.645,5.83,22.0
70.128,3.978,5.95,12.0
64.967,3.698,5.153,9.0
41.927,2.403,4.512,6.0
41.587,2.392,4.243,9.0
41.5,2.395,4.004,50.0
55.595,3.219,5.049,9.0
64.487,3.748,5.498,23.0
78.494,4.577,6.258,13.0
41.953,2.463,4.532,21.0
63.313,3.73,6.486,23.0
41.502,2.453,4.02,50.0
63.933,3.792,5.831,39.0
55.639,3.311,4.766,4.0
64.52,3.853,5.168,15.0
38.413,2.309,4.164,53.0
70.608,4.259,7.26,25.0
41.402,2.505,4.026,67.0
63.696,3.867,5.832,30.0
64.333,3.919,5.532,29.0
64.483,3.941,5.187,53.0
38.306,2.356,4.165,63.0
63.348,3.91,6.533,36.0
63.579,3.936,6.202,32.0
41.404,2.571,3.803,15.0
64.517,4.019,5.567,25.0
64.619,4.038,5.216,28.0
38.296,2.409,4.175,68.0
63.381,3.999,6.554,28.0
63.397,4.011,6.201,19.0
70.173,4.454,6.464,25.0
64.798,4.125,5.607,33.0
65.308,4.169,5.288,23.0
38.307,2.462,4.185,66.0
63.948,4.123,6.627,39.0
63.351,4.095,6.211,16.0
70.38,4.563,6.498,33.0
64.929,4.222,5.632,39.0
65.309,4.259,5.301,38.0
38.55,2.531,4.219,63.0
64.207,4.227,6.666,27.0
54.359,3.589,5.339,10.0
70.35,4.657,6.508,16.0
64.922,4.31,5.643,30.0
64.975,4.326,5.284,30.0
38.769,2.598,4.249,35.0
64.191,4.314,6.674,34.0
70.792,4.77,6.962,29.0
70.456,4.76,6.526,13.0
64.966,4.4,5.654,43.0
65.249,4.432,5.314,24.0
41.924,2.867,4.599,21.0
64.185,4.399,6.68,30.0
65.18,4.479,6.416,26.0
70.744,4.873,6.559,48.0
64.292,4.44,5.6,39.0
64.989,4.5,5.297,35.0
41.902,2.921,4.599,7.0
64.369,4.497,6.702,40.0
71.066,4.977,6.999,11.0
70.825,4.973,6.569,35.0
64.079,4.51,5.584,26.0
64.855,4.577,5.288,40.0
38.852,2.759,4.265,37.0
64.228,4.573,6.688,13.0
67.692,4.83,6.667,24.0
64.104,4.585,5.946,30.0
64.213,4.604,5.594,29.0
63.853,4.589,5.205,32.0
38.788,2.806,4.257,38.0
38.568,2.796,4.015,63.0
38.846,2.823,3.824,11.0
71.152,5.182,6.596,18.0
63.876,4.663,5.562,22.0
63.63,4.656,5.183,33.0
38.807,2.857,4.257,17.0
38.569,2.846,4.012,60.0
68.029,5.031,6.692,7.0
64.232,4.76,5.949,40.0
63.91,4.747,5.559,38.0
63.538,4.73,5.168,37.0
38.821,2.908,4.254,41.0
38.399,2.882,3.99,64.0
38.704,2.911,3.802,43.0
63.951,4.821,5.914,32.0
63.889,4.826,5.548,38.0
63.416,4.801,5.15,28.0
38.716,2.949,4.236,47.0
38.379,2.929,3.981,62.0
38.709,2.96,3.796,66.0
63.77,4.886,5.887,28.0
63.917,4.908,5.539,38.0
63.542,4.889,5.148,22.0
38.638,2.991,4.22,43.0
38.382,2.977,3.974,65.0
38.697,3.007,3.787,29.0
63.924,4.977,5.887,31.0
63.68,4.967,5.504,37.0
63.478,4.962,5.128,31.0
38.565,3.033,4.203,42.0
38.418,3.026,3.968,64.0
38.659,3.051,3.773,56.0
63.807,5.045,5.86,39.0
63.855,5.058,5.502,24.0
63.514,5.041,5.114,30.0
41.645,3.325,4.527,20.0
38.354,3.068,3.95,62.0
38.655,3.097,3.762,42.0
64.104,5.145,5.868,40.0
63.626,5.115,5.463,36.0
63.467,5.111,5.091,14.0
41.424,3.356,4.489,4.0
38.353,3.112,3.938,63.0
38.691,3.144,3.752,31.0
64.503,5.251,5.883,40.0
63.66,5.191,5.445,38.0
66.229,5.41,5.289,41.0
38.558,3.168,4.165,54.0
47.766,3.931,4.887,6.0
64.506,5.317,6.232,34.0
64.372,5.314,5.846,31.0
64.062,5.297,5.454,21.0
66.568,5.513,5.29,32.0
38.465,3.204,4.139,59.0
47.666,3.976,4.857,8.0
64.561,5.393,6.211,28.0
64.211,5.373,5.804,34.0
0.0,0.0,0.0,0.0
66.728,5.6,5.274,21.0
38.345,3.237,4.109,61.0
47.576,4.021,4.827,8.0
64.619,5.47,6.187,8.0
47.415,4.019,4.264,40.0
0.0,0.0,0.0,0.0
66.351,5.641,5.213,35.0
38.246,3.27,4.08,64.0
47.602,4.075,4.806,19.0
47.731,4.092,4.546,30.0
47.441,4.072,4.243,34.0
66.297,5.698,5.552,30.0
66.86,5.755,5.219,43.0
38.239,3.309,4.06,68.0
47.564,4.121,4.777,21.0
47.596,4.129,4.508,21.0
47.391,4.117,4.213,51.0
66.416,5.777,5.527,19.0
66.547,5.796,5.159,42.0
38.315,3.355,4.046,62.0
47.546,4.169,4.748,41.0
47.448,4.165,4.467,21.0
47.53,4.177,4.199,52.0
71.021,6.249,5.869,12.0
66.448,5.854,5.113,40.0
38.31,3.393,4.023,55.0
41.245,3.657,4.094,46.0
47.547,4.221,4.448,21.0
47.53,4.224,4.169,37.0
70.97,6.315,5.821,22.0
66.509,5.925,5.076,33.0
38.397,3.438,4.007,34.0
47.912,4.295,4.725,13.0
47.525,4.265,4.415,36.0
64.482,5.792,5.615,9.0
47.719,4.291,3.882,7.0
66.217,5.962,5.01,42.0
41.277,3.735,4.28,16.0
