X,Y,Z,Reflectivity
13.797,1.525,0.751,35.0
13.814,1.528,0.673,30.0
13.8,1.528,0.594,22.0
13.782,1.532,0.977,31.0
13.76,1.531,0.897,122.0
13.764,1.532,0.818,94.0
13.797,1.537,0.74,28.0
13.82,1.541,0.662,19.0
35.86,4.003,1.515,29.0
13.786,1.545,0.966,28.0
13.762,1.543,0.886,40.0
13.787,1.547,0.809,35.0
13.813,1.551,0.73,11.0
13.825,1.554,0.651,6.0
35.876,4.036,1.487,133.0
13.777,1.556,0.954,12.0
13.738,1.552,0.873,19.0
13.778,1.558,0.797,14.0
13.827,1.564,0.719,0.0
35.85,4.06,1.66,46.0
33.151,3.757,1.346,5.0
13.784,1.568,0.943,9.0
13.749,1.564,0.862,15.0
13.798,1.571,0.786,5.0
9.984,1.137,0.51,8.0
35.845,4.088,1.629,66.0
32.968,3.762,1.31,3.0
13.797,1.58,0.932,3.0
13.767,1.577,0.851,7.0
9.994,1.145,0.56,15.0
9.991,1.146,0.502,13.0
35.825,4.112,1.597,4.0
33.145,3.807,1.288,2.0
10.006,1.153,0.667,39.0
10.005,1.153,0.609,61.0
10.007,1.154,0.552,41.0
10.005,1.155,0.494,20.0
10.005,1.155,0.436,19.0
9.998,1.155,0.379,18.0
10.005,1.16,0.657,85.0
9.999,1.16,0.6,132.0
9.998,1.16,0.542,112.0
9.999,1.161,0.484,59.0
9.999,1.161,0.427,55.0
10.003,1.163,0.37,21.0
9.994,1.165,0.647,79.0
10.005,1.167,0.591,139.0
10.001,1.167,0.533,129.0
9.992,1.166,0.474,79.0
10.003,1.168,0.417,75.0
9.996,1.168,0.36,33.0
9.999,1.172,0.638,92.0
9.994,1.172,0.58,145.0
9.988,1.171,0.523,132.0
9.987,1.172,0.464,88.0
9.989,1.172,0.407,76.0
9.994,1.174,0.35,28.0
9.987,1.176,0.627,82.0
9.995,1.177,0.57,146.0
9.984,1.176,0.512,124.0
9.987,1.177,0.454,87.0
9.986,1.178,0.397,80.0
9.981,1.178,0.34,35.0
9.98,1.18,0.617,82.0
9.978,1.181,0.559,150.0
9.983,1.181,0.502,150.0
9.984,1.182,0.444,97.0
9.985,1.183,0.387,79.0
9.979,1.182,0.33,39.0
9.98,1.185,0.606,87.0
9.976,1.185,0.549,148.0
9.975,1.185,0.492,138.0
9.972,1.185,0.433,103.0
9.982,1.187,0.376,89.0
9.976,1.187,0.319,47.0
9.973,1.189,0.596,92.0
9.976,1.19,0.538,150.0
9.973,1.189,0.481,150.0
9.976,1.19,0.423,110.0
9.983,1.191,0.366,105.0
9.983,1.192,0.309,52.0
9.97,1.193,0.585,98.0
9.976,1.194,0.528,150.0
9.97,1.193,0.47,150.0
9.972,1.193,0.412,105.0
9.973,1.194,0.355,98.0
9.979,1.195,0.298,57.0
9.975,1.197,0.574,99.0
9.978,1.197,0.517,150.0
9.97,1.196,0.459,150.0
9.968,1.196,0.401,110.0
9.971,1.197,0.344,100.0
9.975,1.198,0.287,57.0
9.968,1.199,0.563,101.0
9.975,1.2,0.506,150.0
9.973,1.2,0.449,150.0
9.964,1.199,0.39,109.0
9.973,1.2,0.333,104.0
9.97,1.2,0.276,60.0
9.97,1.202,0.552,111.0
9.971,1.202,0.495,150.0
9.976,1.203,0.438,150.0
9.97,1.202,0.379,120.0
9.972,1.202,0.322,107.0
9.974,1.203,0.265,67.0
9.97,1.204,0.541,109.0
9.974,1.205,0.484,150.0
9.974,1.205,0.426,150.0
9.969,1.204,0.368,122.0
9.973,1.205,0.311,107.0
9.97,1.204,0.253,66.0
9.97,1.206,0.529,117.0
9.972,1.206,0.472,150.0
9.977,1.207,0.415,150.0
9.969,1.206,0.356,121.0
9.973,1.206,0.299,114.0
9.972,1.206,0.242,67.0
9.971,1.208,0.518,111.0
9.976,1.208,0.461,150.0
9.977,1.208,0.404,150.0
9.967,1.207,0.345,123.0
9.975,1.208,0.288,106.0
9.972,1.207,0.231,69.0
9.971,1.208,0.507,112.0
9.975,1.209,0.45,150.0
9.976,1.209,0.392,150.0
9.97,1.208,0.334,123.0
9.974,1.208,0.277,110.0
9.97,1.208,0.219,65.0
9.971,1.209,0.495,101.0
9.97,1.208,0.438,150.0
9.974,1.209,0.38,150.0
9.97,1.208,0.322,120.0
9.968,1.208,0.265,118.0
9.969,1.208,0.208,61.0
9.972,1.209,0.483,104.0
9.977,1.209,0.426,150.0
9.968,1.208,0.369,150.0
9.971,1.208,0.31,113.0
9.976,1.208,0.253,114.0
9.971,1.207,0.196,61.0
9.972,1.208,0.472,111.0
9.972,1.208,0.414,150.0
9.974,1.208,0.357,150.0
9.968,1.207,0.299,114.0
9.977,1.208,0.242,116.0
9.971,1.207,0.184,61.0
9.969,1.207,0.46,109.0
9.971,1.207,0.402,150.0
9.978,1.207,0.345,150.0
9.964,1.205,0.287,104.0
9.973,1.206,0.23,107.0
9.971,1.206,0.173,60.0
9.972,1.206,0.448,101.0
9.978,1.206,0.391,150.0
9.972,1.205,0.333,150.0
9.965,1.204,0.275,106.0
9.974,1.205,0.218,107.0
9.97,1.204,0.161,59.0
9.972,1.204,0.436,97.0
9.977,1.204,0.379,150.0
9.973,1.203,0.321,150.0
9.965,1.202,0.263,99.0
9.973,1.202,0.206,97.0
9.97,1.202,0.149,48.0
9.97,1.202,0.424,101.0
9.978,1.202,0.367,150.0
9.973,1.201,0.309,150.0
9.97,1.2,0.251,100.0
9.975,1.2,0.194,95.0
9.977,1.2,0.137,48.0
9.978,1.2,0.412,101.0
9.976,1.199,0.355,150.0
9.976,1.198,0.298,150.0
9.969,1.197,0.239,100.0
9.984,1.198,0.182,101.0
9.979,1.197,0.125,54.0
9.974,1.196,0.4,91.0
9.98,1.196,0.343,150.0
9.978,1.195,0.286,150.0
9.968,1.193,0.228,92.0
9.986,1.195,0.171,89.0
9.978,1.193,0.113,42.0
9.979,1.193,0.389,90.0
9.981,1.192,0.331,150.0
9.979,1.191,0.274,150.0
9.974,1.19,0.216,81.0
9.978,1.19,0.159,81.0
9.985,1.19,0.102,37.0
9.982,1.189,0.377,80.0
9.982,1.188,0.32,143.0
9.982,1.187,0.262,130.0
9.978,1.186,0.204,70.0
9.99,1.187,0.147,76.0
9.989,1.186,0.09,45.0
9.982,1.184,0.365,75.0
9.995,1.185,0.308,150.0
9.985,1.183,0.25,135.0
9.983,1.182,0.192,71.0
9.993,1.182,0.135,78.0
9.989,1.181,0.078,36.0
9.99,1.18,0.354,74.0
9.996,1.18,0.296,150.0
9.99,1.178,0.239,118.0
9.983,1.177,0.181,75.0
10.001,1.178,0.123,69.0
9.995,1.177,0.066,29.0
9.998,1.176,0.342,84.0
10.007,1.176,0.285,144.0
9.997,1.174,0.227,106.0
9.993,1.172,0.169,60.0
10.002,1.172,0.112,55.0
10.005,1.172,0.054,21.0
10.003,1.17,0.33,74.0
10.0,1.169,0.273,132.0
10.003,1.168,0.216,91.0
10.003,1.167,0.157,26.0
10.003,1.166,0.1,20.0
10.005,1.166,0.043,18.0
10.011,1.165,0.319,50.0
33.95,3.947,0.888,4.0
10.011,1.162,0.204,20.0
9.993,1.159,0.146,16.0
33.914,3.933,0.302,7.0
33.749,3.911,0.107,3.0
33.938,3.926,1.043,108.0
33.951,3.924,0.849,7.0
34.034,3.929,0.656,5.0
33.785,3.897,0.454,25.0
33.888,3.905,0.262,18.0
33.904,3.904,0.068,114.0
10.008,1.15,0.296,13.0
9.995,1.147,0.238,8.0
10.008,1.148,0.181,5.0
9.992,1.145,0.123,3.0
33.868,3.878,0.223,33.0
33.914,3.879,0.03,75.0
10.01,1.142,0.284,3.0
10.02,1.142,0.227,1.0
10.037,1.143,0.17,0.0
75.713,8.616,0.846,5.0
33.887,3.853,0.185,49.0
39.792,4.52,-0.009,34.0
96.914,10.984,2.648,32.0
13.849,1.567,0.299,1.0
33.088,3.741,0.525,12.0
75.01,8.474,0.755,9.0
41.593,4.694,0.181,17.0
39.107,4.409,-0.052,14.0
13.865,1.559,0.363,2.0
33.109,3.719,0.678,3.0
33.11,3.715,0.489,6.0
13.832,1.55,0.124,4.0
13.842,1.55,0.045,6.0
13.87,1.551,-0.033,15.0
13.826,1.542,0.347,9.0
13.803,1.538,0.267,20.0
13.836,1.54,0.189,12.0
13.833,1.538,0.109,10.0
13.831,1.536,0.03,14.0
13.834,1.534,-0.048,18.0
13.817,1.528,0.332,22.0
13.801,1.524,0.253,30.0
13.791,1.522,0.174,21.0
13.796,1.52,0.093,21.0
13.796,1.518,0.015,21.0
13.804,1.518,-0.063,21.0
13.806,1.513,0.317,33.0
13.788,1.509,0.238,33.0
13.8,1.509,0.159,33.0
13.794,1.506,0.079,28.0
13.802,1.505,0.0,29.0
13.79,1.502,-0.078,25.0
13.793,1.498,0.302,36.0
13.793,1.495,0.223,41.0
13.78,1.492,0.144,39.0
13.785,1.49,0.064,34.0
13.8,1.49,-0.014,33.0
13.779,1.486,-0.092,29.0
13.783,1.482,0.287,37.0
13.785,1.48,0.209,58.0
13.783,1.477,0.13,92.0
13.782,1.475,0.05,38.0
13.781,1.473,-0.028,34.0
13.771,1.47,-0.106,32.0
13.778,1.465,0.273,38.0
13.768,1.462,0.194,45.0
13.788,1.462,0.116,134.0
13.775,1.459,0.036,38.0
13.772,1.456,-0.041,37.0
13.766,1.454,-0.12,34.0
13.767,1.448,0.259,39.0
13.77,1.446,0.181,77.0
13.784,1.446,0.102,106.0
13.777,1.443,0.023,39.0
13.768,1.44,-0.055,49.0
13.759,1.437,-0.133,35.0
13.764,1.432,0.245,40.0
13.776,1.431,0.167,79.0
13.781,1.429,0.089,127.0
13.773,1.426,0.009,41.0
13.767,1.423,-0.068,38.0
13.765,1.421,-0.146,35.0
13.77,1.416,0.232,50.0
13.773,1.413,0.154,98.0
13.774,1.411,0.076,150.0
13.774,1.409,-0.003,39.0
13.771,1.406,-0.081,38.0
13.77,1.404,-0.159,35.0
13.77,1.398,0.22,62.0
13.784,1.397,0.141,135.0
13.782,1.394,0.063,150.0
13.779,1.391,-0.016,40.0
13.772,1.389,-0.094,37.0
13.768,1.386,-0.172,33.0
13.776,1.381,0.207,45.0
13.787,1.379,0.129,150.0
13.785,1.376,0.051,150.0
13.783,1.374,-0.028,55.0
13.781,1.371,-0.106,37.0
13.783,1.369,-0.184,34.0
13.786,1.363,0.195,45.0
13.802,1.362,0.117,135.0
13.794,1.359,0.038,123.0
13.79,1.356,-0.04,39.0
13.793,1.354,-0.118,38.0
13.782,1.35,-0.197,33.0
13.793,1.345,0.183,39.0
13.812,1.344,0.105,135.0
13.806,1.341,0.027,90.0
13.794,1.337,-0.052,38.0
13.798,1.335,-0.13,37.0
13.799,1.333,-0.208,33.0
13.811,1.327,0.172,36.0
13.819,1.325,0.094,85.0
13.816,1.322,0.015,39.0
13.812,1.319,-0.063,35.0
13.814,1.317,-0.142,35.0
13.807,1.313,-0.22,32.0
13.832,1.309,0.161,35.0
13.819,1.305,0.082,36.0
13.829,1.303,0.004,34.0
13.826,1.3,-0.075,29.0
13.83,1.298,-0.153,31.0
13.826,1.295,-0.231,30.0
13.856,1.291,0.15,26.0
13.841,1.287,0.072,24.0
13.847,1.284,-0.006,26.0
13.848,1.282,-0.085,23.0
13.851,1.279,-0.164,27.0
13.846,1.276,-0.242,25.0
13.864,1.271,0.139,6.0
13.871,1.268,0.061,7.0
13.873,1.265,-0.016,10.0
13.871,1.262,-0.096,14.0
13.876,1.26,-0.174,23.0
13.87,1.257,-0.253,17.0
65.331,5.888,0.611,28.0
46.571,4.187,0.173,12.0
37.773,3.388,-0.072,21.0
34.748,3.109,-0.266,7.0
13.89,1.24,-0.184,5.0
21.92,1.952,-0.415,1.0
65.236,5.777,0.564,17.0
46.158,4.077,0.139,9.0
37.329,3.289,-0.098,26.0
34.699,3.049,-0.29,9.0
29.45,2.581,-0.412,1.0
21.575,1.887,-0.423,4.0
34.312,2.983,0.273,2.0
34.279,2.972,0.08,21.0
34.286,2.965,-0.112,29.0
34.565,2.981,-0.311,6.0
24.928,2.145,-0.365,4.0
21.33,1.83,-0.432,4.0
57.611,4.915,0.422,33.0
29.313,2.493,0.049,7.0
29.292,2.485,-0.115,35.0
29.261,2.475,-0.282,5.0
24.538,2.07,-0.375,5.0
21.03,1.769,-0.44,4.0
29.298,2.45,0.196,21.0
29.262,2.44,0.032,34.0
29.27,2.434,-0.132,47.0
29.244,2.425,-0.299,28.0
24.297,2.009,-0.386,5.0
20.795,1.714,-0.447,4.0
29.291,2.4,0.179,48.0
29.249,2.389,0.014,24.0
29.229,2.38,-0.149,38.0
29.203,2.371,-0.316,24.0
23.913,1.936,-0.393,5.0
20.586,1.662,-0.454,4.0
29.29,2.349,0.163,41.0
29.276,2.341,-0.001,15.0
29.244,2.331,-0.165,20.0
29.281,2.327,-0.332,21.0
23.495,1.861,-0.399,5.0
20.452,1.615,-0.462,3.0
29.385,2.305,0.148,16.0
29.414,2.3,-0.016,29.0
29.515,2.3,-0.181,19.0
29.586,2.299,-0.351,26.0
23.03,1.784,-0.402,5.0
20.262,1.564,-0.467,3.0
29.39,2.254,0.134,27.0
29.454,2.251,-0.03,23.0
29.538,2.25,-0.195,38.0
29.622,2.249,-0.365,15.0
22.808,1.726,-0.409,4.0
20.151,1.52,-0.474,3.0
29.432,2.204,0.121,21.0
29.48,2.2,-0.043,11.0
29.588,2.2,-0.209,20.0
29.764,2.206,-0.38,7.0
22.558,1.666,-0.414,4.0
19.951,1.469,-0.478,3.0
29.52,2.158,0.108,4.0
38.856,2.83,-0.073,9.0
34.985,2.539,-0.261,11.0
29.838,2.158,-0.393,2.0
22.412,1.615,-0.42,4.0
19.871,1.427,-0.483,3.0
47.495,3.385,0.157,22.0
38.663,2.745,-0.087,5.0
35.051,2.479,-0.275,10.0
29.568,2.083,-0.4,2.0
22.17,1.556,-0.424,4.0
19.692,1.377,-0.486,3.0
46.791,3.247,0.138,21.0
40.814,2.821,-0.106,4.0
35.081,2.415,-0.287,9.0
29.405,2.016,-0.408,2.0
22.079,1.508,-0.429,4.0
19.6,1.333,-0.49,3.0
46.249,3.122,0.122,21.0
36.58,2.459,-0.107,25.0
35.085,2.349,-0.298,6.0
29.247,1.95,-0.414,1.0
21.883,1.452,-0.432,4.0
19.549,1.292,-0.495,3.0
46.273,3.035,0.109,21.0
36.538,2.386,-0.117,28.0
0.0,0.0,0.0,0.0
29.15,1.887,-0.42,1.0
21.875,1.41,-0.437,4.0
19.483,1.251,-0.498,3.0
0.0,0.0,0.0,0.0
36.489,2.313,-0.125,26.0
32.977,2.081,-0.296,1.0
29.039,1.825,-0.425,2.0
21.76,1.361,-0.439,4.0
19.49,1.214,-0.502,3.0
0.0,0.0,0.0,0.0
36.357,2.235,-0.132,30.0
35.232,2.155,-0.323,2.0
28.968,1.764,-0.43,1.0
21.705,1.315,-0.442,4.0
19.386,1.169,-0.503,3.0
46.878,2.803,0.081,7.0
36.319,2.161,-0.138,34.0
35.249,2.087,-0.329,1.0
28.883,1.702,-0.433,1.0
21.719,1.273,-0.446,4.0
19.381,1.131,-0.505,3.0
0.0,0.0,0.0,0.0
36.424,2.096,-0.143,27.0
35.316,2.022,-0.334,1.0
28.876,1.644,-0.436,1.0
21.666,1.228,-0.447,4.0
19.43,1.095,-0.508,3.0
0.0,0.0,0.0,0.0
36.399,2.022,-0.146,13.0
35.348,1.954,-0.337,0.0
28.79,1.583,-0.437,2.0
21.684,1.186,-0.449,4.0
19.389,1.055,-0.508,3.0
0.0,0.0,0.0,0.0
36.62,1.962,-0.149,16.0
35.364,1.884,-0.339,1.0
28.754,1.523,-0.437,1.0
21.789,1.148,-0.452,4.0
19.401,1.016,-0.509,4.0
0.0,0.0,0.0,0.0
36.444,1.88,-0.148,37.0
32.862,1.685,-0.315,1.0
28.743,1.465,-0.437,1.0
21.787,1.104,-0.451,4.0
19.515,0.983,-0.512,3.0
0.0,0.0,0.0,0.0
36.506,1.81,-0.148,40.0
33.372,1.644,-0.319,2.0
28.779,1.409,-0.437,2.0
21.87,1.064,-0.452,4.0
19.592,0.947,-0.513,3.0
0.0,0.0,0.0,0.0
36.588,1.74,-0.146,32.0
33.34,1.576,-0.317,1.0
28.848,1.354,-0.435,2.0
21.993,1.026,-0.453,4.0
19.583,0.907,-0.511,3.0
0.0,0.0,0.0,0.0
39.908,1.817,-0.155,3.0
35.638,1.612,-0.334,0.0
28.91,1.298,-0.433,2.0
22.045,0.983,-0.451,4.0
19.706,0.872,-0.512,3.0
47.802,2.093,0.082,26.0
39.751,1.728,-0.149,30.0
35.713,1.541,-0.33,1.0
29.033,1.244,-0.431,2.0
21.85,0.929,-0.444,4.0
19.841,0.837,-0.512,3.0
48.231,2.013,0.091,24.0
39.841,1.65,-0.142,31.0
0.0,0.0,0.0,0.0
29.213,1.191,-0.428,2.0
22.509,0.911,-0.453,4.0
19.862,0.798,-0.508,3.0
48.588,1.928,0.102,24.0
39.713,1.563,-0.133,54.0
35.787,1.397,-0.316,3.0
29.323,1.135,-0.422,2.0
22.808,0.876,-0.453,4.0
20.013,0.762,-0.507,3.0
48.866,1.838,0.114,24.0
39.775,1.483,-0.123,48.0
35.898,1.327,-0.308,4.0
29.428,1.078,-0.416,2.0
23.156,0.841,-0.454,5.0
20.279,0.73,-0.508,3.0
49.245,1.751,0.13,23.0
39.902,1.405,-0.112,51.0
36.067,1.259,-0.298,6.0
29.666,1.026,-0.41,2.0
23.468,0.804,-0.453,5.0
20.398,0.692,-0.505,3.0
54.397,1.822,0.161,24.0
39.945,1.325,-0.099,42.0
36.196,1.189,-0.287,7.0
29.922,0.973,-0.404,2.0
23.814,0.767,-0.451,5.0
20.51,0.654,-0.5,3.0
0.0,0.0,0.0,0.0
40.228,1.252,-0.085,42.0
36.308,1.117,-0.274,10.0
30.153,0.919,-0.395,2.0
23.871,0.719,-0.443,2.0
20.736,0.618,-0.497,4.0
54.724,1.608,0.203,29.0
40.763,1.185,-0.07,17.0
36.454,1.048,-0.261,10.0
30.468,0.866,-0.387,2.0
27.321,0.767,-0.495,1.0
21.039,0.584,-0.496,4.0
55.306,1.513,0.229,13.0
0.0,0.0,0.0,0.0
36.783,0.982,-0.247,12.0
30.865,0.814,-0.378,2.0
27.404,0.714,-0.484,1.0
21.183,0.545,-0.489,4.0
58.846,1.49,0.272,34.0
45.672,1.141,-0.036,19.0
36.94,0.911,-0.23,24.0
31.366,0.763,-0.368,1.0
27.635,0.663,-0.474,1.0
21.412,0.506,-0.483,4.0
60.116,1.398,0.308,35.0
0.0,0.0,0.0,0.0
37.197,0.84,-0.211,33.0
31.806,0.708,-0.356,1.0
27.997,0.614,-0.465,1.0
21.771,0.47,-0.48,4.0
60.931,1.293,0.346,36.0
46.799,0.978,0.012,22.0
37.561,0.772,-0.192,42.0
32.456,0.656,-0.345,1.0
28.478,0.567,-0.457,1.0
22.221,0.435,-0.477,4.0
61.636,1.183,0.386,11.0
47.529,0.897,0.041,28.0
38.05,0.705,-0.172,48.0
33.103,0.602,-0.332,1.0
28.959,0.517,-0.447,2.0
22.296,0.391,-0.464,1.0
74.923,1.285,0.517,13.0
47.875,0.806,0.071,30.0
38.591,0.636,-0.15,49.0
34.128,0.552,-0.32,1.0
29.307,0.464,-0.433,2.0
26.244,0.407,-0.53,1.0
75.283,1.14,0.569,10.0
47.991,0.711,0.103,62.0
39.092,0.566,-0.126,44.0
37.094,0.525,-0.323,2.0
29.738,0.41,-0.419,2.0
26.541,0.358,-0.517,2.0
48.121,0.631,0.397,52.0
48.017,0.613,0.138,66.0
39.733,0.495,-0.099,15.0
37.221,0.451,-0.297,5.0
30.182,0.356,-0.403,2.0
26.901,0.308,-0.504,3.0
48.073,0.533,0.432,105.0
48.028,0.517,0.173,89.0
43.84,0.458,-0.077,14.0
37.444,0.379,-0.271,8.0
30.672,0.3,-0.386,2.0
27.22,0.257,-0.489,2.0
48.071,0.437,0.469,114.0
48.038,0.421,0.211,98.0
44.683,0.377,-0.043,20.0
37.918,0.308,-0.244,13.0
31.39,0.245,-0.371,1.0
27.745,0.207,-0.476,1.0
48.136,0.343,0.508,53.0
48.174,0.328,0.25,64.0
0.0,0.0,0.0,0.0
38.407,0.236,-0.216,14.0
32.307,0.188,-0.355,1.0
28.362,0.156,-0.463,2.0
59.301,0.307,0.676,129.0
59.335,0.287,0.358,87.0
47.53,0.214,0.032,26.0
38.909,0.162,-0.185,39.0
33.061,0.127,-0.334,1.0
28.94,0.101,-0.447,2.0
79.468,0.254,0.976,151.0
76.338,0.218,0.529,25.0
0.0,0.0,0.0,0.0
39.601,0.087,-0.152,38.0
33.714,0.063,-0.31,0.0
29.501,0.045,-0.429,2.0
79.463,0.097,1.049,151.0
79.359,0.073,0.623,31.0
0.0,0.0,0.0,0.0
40.831,0.011,-0.119,17.0
38.182,-0.001,-0.315,2.0
29.982,-0.01,-0.408,2.0
79.46,-0.054,1.124,151.0
79.42,-0.078,0.699,150.0
56.152,-0.073,0.194,11.0
42.428,-0.069,-0.083,17.0
38.76,-0.075,-0.283,3.0
30.64,-0.069,-0.387,1.0
79.461,-0.203,1.2,151.0
79.459,-0.229,0.777,150.0
61.396,-0.196,0.273,9.0
45.154,-0.158,-0.044,20.0
39.316,-0.15,-0.248,5.0
31.518,-0.131,-0.366,1.0
79.448,-0.354,1.281,163.0
79.458,-0.379,0.858,180.0
76.707,-0.39,0.419,12.0
0.0,0.0,0.0,0.0
41.395,-0.236,-0.218,4.0
32.825,-0.197,-0.347,1.0
79.45,-0.501,1.363,164.0
79.445,-0.526,0.94,191.0
77.109,-0.535,0.502,12.0
54.923,-0.397,0.06,3.0
47.359,-0.358,-0.199,20.0
33.699,-0.265,-0.32,0.0
79.446,-0.65,1.449,174.0
79.447,-0.675,1.027,186.0
79.098,-0.695,0.602,52.0
54.974,-0.501,0.121,4.0
50.854,-0.479,-0.158,16.0
38.507,-0.374,-0.324,7.0
79.431,-0.795,1.536,191.0
79.445,-0.819,1.114,185.0
79.451,-0.843,0.693,150.0
79.285,-0.866,0.263,2.0
54.469,-0.612,-0.107,2.0
42.15,-0.487,-0.306,0.0
79.409,-0.938,1.626,19.0
79.446,-0.963,1.205,151.0
80.154,-0.996,0.791,53.0
78.203,-0.995,0.35,1.0
54.478,-0.71,-0.044,0.0
42.647,-0.569,-0.26,3.0
183.441,-2.499,3.972,51.0
183.424,-2.555,3.001,65.0
123.656,-1.759,1.368,12.0
81.692,-1.186,0.463,2.0
61.563,-0.913,0.023,2.0
46.38,-0.701,-0.227,3.0
261.994,-4.033,5.988,37.0
0.0,0.0,0.0,0.0
149.322,-2.386,1.832,5.0
40.281,-0.655,0.277,26.0
40.303,-0.668,0.064,53.0
40.319,-0.68,-0.148,50.0
40.255,-0.69,0.969,45.0
40.187,-0.7,0.755,53.0
40.302,-0.715,0.545,11.0
40.235,-0.725,0.327,53.0
40.273,-0.737,0.114,63.0
40.32,-0.75,-0.097,38.0
40.263,-0.758,1.019,53.0
40.212,-0.769,0.806,38.0
40.239,-0.782,0.594,51.0
40.241,-0.793,0.378,46.0
0.0,0.0,0.0,0.0
56.612,-1.149,-0.064,0.0
40.221,-0.826,1.071,55.0
40.21,-0.838,0.858,54.0
40.257,-0.85,0.646,56.0
40.295,-0.862,0.43,3.0
40.181,-0.871,0.217,0.0
40.309,-0.885,0.006,5.0
40.229,-0.893,1.123,58.0
40.201,-0.903,0.91,57.0
40.237,-0.915,0.699,55.0
40.303,-0.928,0.484,150.0
40.311,-0.939,0.271,139.0
40.286,-0.95,0.059,62.0
40.233,-0.959,1.177,53.0
40.189,-0.968,0.963,56.0
40.187,-0.979,0.752,59.0
40.193,-0.991,0.537,57.0
40.198,-1.002,0.325,48.0
40.243,-1.014,0.114,2.0
40.266,-1.024,1.232,44.0
40.193,-1.033,1.019,58.0
40.203,-1.044,0.807,43.0
40.216,-1.055,0.592,45.0
40.18,-1.066,0.38,55.0
40.181,-1.077,0.17,41.0
40.3,-1.089,1.289,7.0
40.218,-1.097,1.075,41.0
40.373,-1.113,0.867,1.0
0.0,0.0,0.0,0.0
40.254,-1.13,0.437,5.0
40.222,-1.14,0.226,34.0
0.0,0.0,0.0,0.0
40.281,-1.161,1.133,31.0
40.324,-1.172,0.922,25.0
40.356,-1.184,0.708,16.0
40.354,-1.194,0.496,0.0
0.0,0.0,0.0,0.0
0.0,0.0,0.0,0.0
40.34,-1.223,1.192,1.0
40.31,-1.232,0.98,26.0
40.316,-1.243,0.765,19.0
40.353,-1.254,0.554,46.0
0.0,0.0,0.0,0.0
0.0,0.0,0.0,0.0
0.0,0.0,0.0,0.0
0.0,0.0,0.0,0.0
0.0,0.0,0.0,0.0
0.0,0.0,0.0,0.0
0.0,0.0,0.0,0.0
0.0,0.0,0.0,0.0
0.0,0.0,0.0,0.0
0.0,0.0,0.0,0.0
0.0,0.0,0.0,0.0
0.0,0.0,0.0,0.0
0.0,0.0,0.0,0.0
0.0,0.0,0.0,0.0
0.0,0.0,0.0,0.0
0.0,0.0,0.0,0.0
0.0,0.0,0.0,0.0
0.0,0.0,0.0,0.0
0.0,0.0,0.0,0.0
0.0,0.0,0.0,0.0
0.0,0.0,0.0,0.0
0.0,0.0,0.0,0.0
0.0,0.0,0.0,0.0
0.0,0.0,0.0,0.0
0.0,0.0,0.0,0.0
0.0,0.0,0.0,0.0
0.0,0.0,0.0,0.0
0.0,0.0,0.0,0.0
0.0,0.0,0.0,0.0
0.0,0.0,0.0,0.0
0.0,0.0,0.0,0.0
0.0,0.0,0.0,0.0
0.0,0.0,0.0,0.0
0.0,0.0,0.0,0.0
0.0,0.0,0.0,0.0
0.0,0.0,0.0,0.0
0.0,0.0,0.0,0.0
0.0,0.0,0.0,0.0
0.0,0.0,0.0,0.0
0.0,0.0,0.0,0.0
0.0,0.0,0.0,0.0
0.0,0.0,0.0,0.0
0.0,0.0,0.0,0.0
0.0,0.0,0.0,0.0
0.0,0.0,0.0,0.0
0.0,0.0,0.0,0.0
0.0,0.0,0.0,0.0
0.0,0.0,0.0,0.0
0.0,0.0,0.0,0.0
0.0,0.0,0.0,0.0
0.0,0.0,0.0,0.0
0.0,0.0,0.0,0.0
0.0,0.0,0.0,0.0
0.0,0.0,0.0,0.0
0.0,0.0,0.0,0.0
0.0,0.0,0.0,0.0
0.0,0.0,0.0,0.0
0.0,0.0,0.0,0.0
0.0,0.0,0.0,0.0
0.0,0.0,0.0,0.0
0.0,0.0,0.0,0.0
0.0,0.0,0.0,0.0
0.0,0.0,0.0,0.0
0.0,0.0,0.0,0.0
0.0,0.0,0.0,0.0
0.0,0.0,0.0,0.0
0.0,0.0,0.0,0.0
0.0,0.0,0.0,0.0
0.0,0.0,0.0,0.0
0.0,0.0,0.0,0.0
0.0,0.0,0.0,0.0
0.0,0.0,0.0,0.0
0.0,0.0,0.0,0.0
0.0,0.0,0.0,0.0
0.0,0.0,0.0,0.0
0.0,0.0,0.0,0.0
0.0,0.0,0.0,0.0
0.0,0.0,0.0,0.0
0.0,0.0,0.0,0.0
0.0,0.0,0.0,0.0
0.0,0.0,0.0,0.0
0.0,0.0,0.0,0.0
0.0,0.0,0.0,0.0
0.0,0.0,0.0,0.0
0.0,0.0,0.0,0.0
0.0,0.0,0.0,0.0
212.047,-10.438,9.054,6.0
0.0,0.0,0.0,0.0
0.0,0.0,0.0,0.0
0.0,0.0,0.0,0.0
0.0,0.0,0.0,0.0
0.0,0.0,0.0,0.0
0.0,0.0,0.0,0.0
0.0,0.0,0.0,0.0
263.587,-13.297,8.953,9.0
0.0,0.0,0.0,0.0
0.0,0.0,0.0,0.0
227.169,-11.564,11.671,12.0
0.0,0.0,0.0,0.0
212.113,-10.854,8.664,6.0
0.0,0.0,0.0,0.0
0.0,0.0,0.0,0.0
0.0,0.0,0.0,0.0
0.0,0.0,0.0,0.0
227.12,-11.781,10.842,9.0
0.0,0.0,0.0,0.0
0.0,0.0,0.0,0.0
0.0,0.0,0.0,0.0
0.0,0.0,0.0,0.0
267.47,-14.06,14.645,11.0
0.0,0.0,0.0,0.0
0.0,0.0,0.0,0.0
0.0,0.0,0.0,0.0
0.0,0.0,0.0,0.0
0.0,0.0,0.0,0.0
0.0,0.0,0.0,0.0
227.678,-12.17,11.645,7.0
0.0,0.0,0.0,0.0
211.677,-11.361,8.62,5.0
0.0,0.0,0.0,0.0
0.0,0.0,0.0,0.0
0.0,0.0,0.0,0.0
230.722,-12.498,12.19,8.0
0.0,0.0,0.0,0.0
0.0,0.0,0.0,0.0
92.827,-5.066,6.526,3.0
0.0,0.0,0.0,0.0
0.0,0.0,0.0,0.0
0.0,0.0,0.0,0.0
0.0,0.0,0.0,0.0
0.0,0.0,0.0,0.0
0.0,0.0,0.0,0.0
0.0,0.0,0.0,0.0
0.0,0.0,0.0,0.0
164.77,-9.143,9.264,5.0
0.0,0.0,0.0,0.0
0.0,0.0,0.0,0.0
0.0,0.0,0.0,0.0
0.0,0.0,0.0,0.0
0.0,0.0,0.0,0.0
164.676,-9.237,9.54,4.0
0.0,0.0,0.0,0.0
0.0,0.0,0.0,0.0
0.0,0.0,0.0,0.0
0.0,0.0,0.0,0.0
0.0,0.0,0.0,0.0
163.684,-9.273,9.76,3.0
164.769,-9.344,8.965,5.0
205.273,-11.657,10.097,5.0
0.0,0.0,0.0,0.0
0.0,0.0,0.0,0.0
0.0,0.0,0.0,0.0
0.0,0.0,0.0,0.0
0.0,0.0,0.0,0.0
0.0,0.0,0.0,0.0
0.0,0.0,0.0,0.0
0.0,0.0,0.0,0.0
0.0,0.0,0.0,0.0
0.0,0.0,0.0,0.0
0.0,0.0,0.0,0.0
164.791,-9.516,8.662,3.0
0.0,0.0,0.0,0.0
0.0,0.0,0.0,0.0
0.0,0.0,0.0,0.0
0.0,0.0,0.0,0.0
0.0,0.0,0.0,0.0
164.612,-9.574,8.93,3.0
0.0,0.0,0.0,0.0
0.0,0.0,0.0,0.0
0.0,0.0,0.0,0.0
0.0,0.0,0.0,0.0
0.0,0.0,0.0,0.0
163.624,-9.579,9.152,5.0
0.0,0.0,0.0,0.0
0.0,0.0,0.0,0.0
0.0,0.0,0.0,0.0
0.0,0.0,0.0,0.0
0.0,0.0,0.0,0.0
147.85,-8.704,8.515,2.0
0.0,0.0,0.0,0.0
0.0,0.0,0.0,0.0
0.0,0.0,0.0,0.0
0.0,0.0,0.0,0.0
0.0,0.0,0.0,0.0
163.273,-9.659,9.672,13.0
0.0,0.0,0.0,0.0
0.0,0.0,0.0,0.0
0.0,0.0,0.0,0.0
0.0,0.0,0.0,0.0
0.0,0.0,0.0,0.0
0.0,0.0,0.0,0.0
0.0,0.0,0.0,0.0
0.0,0.0,0.0,0.0
0.0,0.0,0.0,0.0
0.0,0.0,0.0,0.0
0.0,0.0,0.0,0.0
202.401,-12.065,12.65,4.0
0.0,0.0,0.0,0.0
0.0,0.0,0.0,0.0
0.0,0.0,0.0,0.0
0.0,0.0,0.0,0.0
0.0,0.0,0.0,0.0
0.0,0.0,0.0,0.0
0.0,0.0,0.0,0.0
0.0,0.0,0.0,0.0
0.0,0.0,0.0,0.0
0.0,0.0,0.0,0.0
0.0,0.0,0.0,0.0
0.0,0.0,0.0,0.0
0.0,0.0,0.0,0.0
0.0,0.0,0.0,0.0
0.0,0.0,0.0,0.0
0.0,0.0,0.0,0.0
0.0,0.0,0.0,0.0
0.0,0.0,0.0,0.0
0.0,0.0,0.0,0.0
0.0,0.0,0.0,0.0
0.0,0.0,0.0,0.0
0.0,0.0,0.0,0.0
0.0,0.0,0.0,0.0
0.0,0.0,0.0,0.0
0.0,0.0,0.0,0.0
0.0,0.0,0.0,0.0
0.0,0.0,0.0,0.0
0.0,0.0,0.0,0.0
0.0,0.0,0.0,0.0
0.0,0.0,0.0,0.0
0.0,0.0,0.0,0.0
0.0,0.0,0.0,0.0
0.0,0.0,0.0,0.0
0.0,0.0,0.0,0.0
0.0,0.0,0.0,0.0
0.0,0.0,0.0,0.0
0.0,0.0,0.0,0.0
0.0,0.0,0.0,0.0
0.0,0.0,0.0,0.0
0.0,0.0,0.0,0.0
0.0,0.0,0.0,0.0
0.0,0.0,0.0,0.0
0.0,0.0,0.0,0.0
0.0,0.0,0.0,0.0
0.0,0.0,0.0,0.0
0.0,0.0,0.0,0.0
0.0,0.0,0.0,0.0
0.0,0.0,0.0,0.0
0.0,0.0,0.0,0.0
0.0,0.0,0.0,0.0
0.0,0.0,0.0,0.0
0.0,0.0,0.0,0.0
0.0,0.0,0.0,0.0
0.0,0.0,0.0,0.0
0.0,0.0,0.0,0.0
0.0,0.0,0.0,0.0
0.0,0.0,0.0,0.0
0.0,0.0,0.0,0.0
0.0,0.0,0.0,0.0
0.0,0.0,0.0,0.0
0.0,0.0,0.0,0.0
0.0,0.0,0.0,0.0
0.0,0.0,0.0,0.0
0.0,0.0,0.0,0.0
0.0,0.0,0.0,0.0
0.0,0.0,0.0,0.0
0.0,0.0,0.0,0.0
0.0,0.0,0.0,0.0
0.0,0.0,0.0,0.0
0.0,0.0,0.0,0.0
0.0,0.0,0.0,0.0
0.0,0.0,0.0,0.0
0.0,0.0,0.0,0.0
0.0,0.0,0.0,0.0
0.0,0.0,0.0,0.0
0.0,0.0,0.0,0.0
0.0,0.0,0.0,0.0
0.0,0.0,0.0,0.0
49.362,-2.904,5.45,4.0
0.0,0.0,0.0,0.0
0.0,0.0,0.0,0.0
0.0,0.0,0.0,0.0
0.0,0.0,0.0,0.0
0.0,0.0,0.0,0.0
49.324,-2.884,5.514,3.0
0.0,0.0,0.0,0.0
0.0,0.0,0.0,0.0
0.0,0.0,0.0,0.0
0.0,0.0,0.0,0.0
0.0,0.0,0.0,0.0
0.0,0.0,0.0,0.0
0.0,0.0,0.0,0.0
0.0,0.0,0.0,0.0
0.0,0.0,0.0,0.0
0.0,0.0,0.0,0.0
0.0,0.0,0.0,0.0
50.404,-2.907,5.77,1.0
49.328,-2.839,5.38,2.0
0.0,0.0,0.0,0.0
0.0,0.0,0.0,0.0
0.0,0.0,0.0,0.0
0.0,0.0,0.0,0.0
50.43,-2.886,5.838,3.0
49.337,-2.816,5.445,4.0
0.0,0.0,0.0,0.0
0.0,0.0,0.0,0.0
0.0,0.0,0.0,0.0
0.0,0.0,0.0,0.0
48.571,-2.756,5.684,18.0
0.0,0.0,0.0,0.0
0.0,0.0,0.0,0.0
0.0,0.0,0.0,0.0
0.0,0.0,0.0,0.0
0.0,0.0,0.0,0.0
48.684,-2.737,5.757,24.0
0.0,0.0,0.0,0.0
0.0,0.0,0.0,0.0
56.562,-3.154,5.765,5.0
0.0,0.0,0.0,0.0
0.0,0.0,0.0,0.0
0.0,0.0,0.0,0.0
50.365,-2.795,5.744,3.0
49.41,-2.734,5.367,4.0
0.0,0.0,0.0,0.0
56.842,-3.129,5.555,0.0
92.254,-5.064,8.519,4.0
47.75,-2.629,5.761,3.0
48.277,-2.65,5.563,4.0
49.428,-2.706,5.427,3.0
0.0,0.0,0.0,0.0
56.557,-3.079,5.591,2.0
0.0,0.0,0.0,0.0
50.811,-2.766,6.188,2.0
48.504,-2.632,5.643,22.0
56.876,-3.078,6.308,9.0
0.0,0.0,0.0,0.0
56.632,-3.046,5.661,1.0
56.887,-3.051,5.379,4.0
0.0,0.0,0.0,0.0
48.772,-2.615,5.727,22.0
57.172,-3.056,6.402,6.0
55.283,-2.946,5.885,1.0
0.0,0.0,0.0,0.0
90.542,-4.796,8.657,6.0
51.028,-2.71,6.325,2.0
0.0,0.0,0.0,0.0
50.183,-2.648,5.672,6.0
49.411,-2.598,5.311,5.0
0.0,0.0,0.0,0.0
56.619,-2.959,5.471,5.0
0.0,0.0,0.0,0.0
47.724,-2.492,5.703,10.0
48.34,-2.516,5.513,11.0
56.942,-2.953,6.178,4.0
55.259,-2.856,5.695,1.0
92.55,-4.769,9.035,1.0
46.472,-2.4,5.855,1.0
48.959,-2.519,5.9,5.0
48.503,-2.488,5.579,19.0
49.961,-2.553,5.469,1.0
55.142,-2.808,5.736,3.0
63.72,-3.233,6.282,1.0
46.474,-2.364,5.9,3.0
62.914,-3.189,7.642,2.0
48.928,-2.47,5.675,12.0
54.81,-2.758,6.052,6.0
57.196,-2.868,6.002,3.0
92.711,-4.631,9.225,13.0
48.686,-2.438,6.226,9.0
50.91,-2.54,6.23,4.0
0.0,0.0,0.0,0.0
50.128,-2.481,5.58,5.0
54.88,-2.707,5.809,7.0
55.035,-2.705,5.524,2.0
48.555,-2.391,6.253,23.0
50.62,-2.483,6.24,1.0
47.63,-2.327,5.609,4.0
48.373,-2.354,5.426,10.0
49.518,-2.401,5.283,6.0
55.107,-2.661,5.578,4.0
48.095,-2.327,6.234,18.0
46.649,-2.248,5.789,4.0
49.587,-2.38,5.881,7.0
48.341,-2.31,5.462,16.0
49.538,-2.358,5.326,5.0
55.089,-2.612,5.621,4.0
47.755,-2.269,6.229,23.0
46.643,-2.207,5.826,3.0
49.37,-2.326,5.894,7.0
50.854,-2.386,5.786,10.0
55.137,-2.576,5.97,12.0
55.059,-2.562,5.66,19.0
47.516,-2.214,6.235,5.0
48.6,-2.255,6.107,15.0
48.912,-2.26,5.876,4.0
48.799,-2.245,5.588,9.0
40.519,-1.856,4.417,51.0
53.44,-2.438,5.532,4.0
56.848,-2.597,7.5,3.0
48.4,-2.201,6.117,22.0
46.045,-2.085,5.564,3.0
48.722,-2.196,5.614,8.0
40.491,-1.817,4.442,60.0
56.69,-2.533,5.907,18.0
49.904,-2.233,6.618,0.0
48.209,-2.147,6.125,19.0
46.268,-2.051,5.622,11.0
53.056,-2.341,6.148,14.0
40.477,-1.778,4.467,51.0
55.282,-2.417,5.796,4.0
49.929,-2.185,6.654,1.0
57.014,-2.484,7.28,5.0
47.613,-2.064,5.816,7.0
57.358,-2.475,6.682,6.0
48.368,-2.077,5.367,7.0
53.3,-2.278,5.62,2.0
42.292,-1.81,5.661,37.0
0.0,0.0,0.0,0.0
48.262,-2.045,5.923,18.0
57.402,-2.42,6.72,4.0
40.532,-1.7,4.52,35.0
40.4,-1.687,4.282,42.0
42.291,-1.767,5.685,42.0
49.712,-2.066,6.405,4.0
40.26,-1.665,4.962,34.0
40.462,-1.665,4.758,42.0
40.374,-1.653,4.524,59.0
40.348,-1.643,4.297,68.0
42.216,-1.721,5.697,49.0
42.06,-1.706,5.44,8.0
40.268,-1.624,4.984,32.0
40.569,-1.627,4.791,10.0
40.231,-1.606,4.527,60.0
40.305,-1.6,4.312,65.0
49.572,-1.969,6.713,6.0
42.05,-1.661,5.458,49.0
40.262,-1.581,5.001,22.0
40.357,-1.577,4.784,70.0
40.206,-1.563,4.542,62.0
40.39,-1.561,4.338,58.0
42.224,-1.633,5.736,49.0
42.12,-1.62,5.485,55.0
40.219,-1.537,5.012,55.0
40.324,-1.533,4.796,50.0
40.269,-1.522,4.565,62.0
40.331,-1.516,4.347,55.0
42.602,-1.601,5.804,28.0
42.205,-1.577,5.512,52.0
40.249,-1.495,5.031,51.0
40.248,-1.487,4.801,58.0
40.296,-1.48,4.582,55.0
40.489,-1.479,4.378,43.0
42.173,-1.54,5.759,52.0
42.302,-1.536,5.539,48.0
40.257,-1.453,5.045,49.0
40.212,-1.442,4.81,61.0
40.1,-1.43,4.572,70.0
40.368,-1.431,4.377,44.0
42.096,-1.491,5.761,61.0
42.252,-1.487,5.544,54.0
40.404,-1.413,5.074,36.0
40.32,-1.402,4.833,68.0
40.263,-1.391,4.601,48.0
40.192,-1.38,4.368,40.0
41.98,-1.44,5.756,55.0
42.239,-1.44,5.553,54.0
42.877,-1.452,5.395,6.0
40.6,-1.366,4.876,44.0
40.468,-1.353,4.633,39.0
40.052,-1.331,4.361,62.0
42.014,-1.394,5.769,50.0
42.011,-1.385,5.531,59.0
40.702,-1.333,5.129,44.0
40.533,-1.319,4.875,49.0
40.176,-1.298,4.606,54.0
39.961,-1.283,4.358,45.0
42.062,-1.348,5.783,34.0
41.924,-1.334,5.526,57.0
40.649,-1.285,5.128,51.0
40.462,-1.27,4.872,53.0
39.837,-1.242,4.573,56.0
39.886,-1.235,4.354,59.0
42.157,-1.303,5.8,56.0
41.926,-1.286,5.531,38.0
40.437,-1.232,5.105,47.0
40.4,-1.222,4.868,60.0
39.518,-1.187,4.539,66.0
39.902,-1.19,4.359,62.0
42.213,-1.256,5.811,57.0
41.943,-1.238,5.535,38.0
39.84,-1.168,5.032,55.0
40.319,-1.173,4.86,48.0
39.348,-1.136,4.521,73.0
39.563,-1.134,4.323,62.0
42.324,-1.21,5.827,57.0
42.039,-1.193,5.549,30.0
40.007,-1.126,5.053,61.0
40.035,-1.118,4.826,60.0
39.423,-1.093,4.529,50.0
39.448,-1.085,4.31,49.0
42.269,-1.159,5.818,54.0
42.208,-1.148,5.57,37.0
39.748,-1.072,5.019,58.0
40.122,-1.074,4.834,45.0
39.391,-1.046,4.523,53.0
39.363,-1.037,4.298,54.0
42.126,-1.105,5.796,55.0
42.087,-1.095,5.55,53.0
39.554,-1.021,4.991,56.0
39.803,-1.019,4.792,55.0
39.163,-0.994,4.493,66.0
39.215,-0.988,4.277,61.0
42.203,-1.057,5.801,42.0
42.111,-1.046,5.548,54.0
39.591,-0.975,4.99,49.0
39.767,-0.971,4.782,49.0
39.223,-0.949,4.494,59.0
39.354,-0.945,4.286,60.0
41.831,-0.999,5.743,63.0
42.035,-0.995,5.531,60.0
39.458,-0.926,4.966,40.0
39.501,-0.919,4.743,64.0
39.671,-0.914,4.538,52.0
38.973,-0.89,4.237,61.0
41.858,-0.95,5.738,50.0
42.099,-0.947,5.53,50.0
39.484,-0.88,4.96,64.0
39.656,-0.876,4.752,54.0
39.313,-0.86,4.487,58.0
39.014,-0.846,4.232,57.0
41.846,-0.901,5.725,58.0
42.041,-0.896,5.511,60.0
39.452,-0.833,4.946,68.0
39.205,-0.82,4.687,64.0
39.232,-0.813,4.467,62.0
39.188,-0.804,4.239,51.0
42.593,-0.867,5.814,25.0
41.831,-0.842,5.47,52.0
39.505,-0.788,4.94,49.0
39.165,-0.773,4.669,63.0
39.209,-0.766,4.451,68.0
39.015,-0.755,4.207,67.0
42.497,-0.814,5.786,19.0
39.925,-0.757,5.206,14.0
39.557,-0.742,4.932,50.0
39.334,-0.73,4.675,52.0
39.311,-0.722,4.448,64.0
39.076,-0.71,4.198,57.0
42.62,-0.767,5.786,49.0
41.893,-0.745,5.446,36.0
39.439,-0.694,4.901,55.0
39.32,-0.684,4.656,51.0
39.246,-0.675,4.423,61.0
39.375,-0.67,4.213,44.0
42.896,-0.722,5.804,18.0
39.902,-0.664,5.169,35.0
39.431,-0.648,4.882,54.0
39.401,-0.641,4.648,52.0
39.42,-0.633,4.425,49.0
39.681,-0.629,4.227,48.0
39.891,-0.625,5.378,66.0
39.871,-0.617,5.145,66.0
39.601,-0.605,4.883,51.0
39.495,-0.596,4.639,58.0
39.384,-0.587,4.4,51.0
39.73,-0.585,4.212,50.0
39.963,-0.58,5.366,58.0
39.89,-0.571,5.126,67.0
39.489,-0.558,4.847,54.0
39.951,-0.557,4.67,52.0
39.46,-0.542,4.386,46.0
39.805,-0.54,4.197,45.0
42.399,-0.566,5.668,6.0
40.049,-0.527,5.123,43.0
43.562,-0.565,5.321,2.0
39.991,-0.512,4.65,56.0
39.599,-0.499,4.378,61.0
39.461,-0.49,4.136,42.0
39.994,-0.488,5.322,37.0
39.96,-0.48,5.086,45.0
40.051,-0.474,4.866,50.0
39.881,-0.464,4.611,61.0
39.528,-0.453,4.343,52.0
39.322,-0.443,4.095,63.0
39.959,-0.442,5.289,48.0
39.947,-0.435,5.057,59.0
40.063,-0.429,4.84,26.0
39.996,-0.421,4.597,49.0
39.402,-0.408,4.302,67.0
39.401,-0.401,4.076,35.0
39.902,-0.397,5.253,61.0
39.884,-0.389,5.02,41.0
40.087,-0.384,4.814,35.0
40.433,-0.381,4.618,43.0
39.993,-0.369,4.337,47.0
39.48,-0.358,4.054,56.0
40.009,-0.352,5.237,45.0
39.731,-0.343,4.97,44.0
40.034,-0.339,4.776,35.0
40.485,-0.336,4.592,60.0
40.467,-0.329,4.357,52.0
39.52,-0.315,4.027,67.0
42.487,-0.327,5.526,30.0
39.678,-0.299,4.931,57.0
43.783,-0.323,5.187,4.0
40.489,-0.292,4.559,54.0
40.257,-0.284,4.301,47.0
39.62,-0.273,4.005,53.0
39.776,-0.264,5.14,42.0
39.606,-0.256,4.888,52.0
39.727,-0.25,4.673,47.0
40.328,-0.248,4.506,59.0
40.376,-0.241,4.278,60.0
39.56,-0.23,3.964,58.0
39.654,-0.221,5.089,58.0
39.65,-0.214,4.858,61.0
39.658,-0.207,4.629,44.0
39.929,-0.203,4.425,56.0
40.18,-0.198,4.221,64.0
47.361,-0.226,4.703,4.0
39.622,-0.178,5.048,64.0
39.505,-0.172,4.803,63.0
46.862,-0.197,5.425,6.0
39.845,-0.161,4.378,60.0
39.949,-0.156,4.158,48.0
40.012,-0.15,3.934,50.0
39.536,-0.137,4.998,74.0
39.453,-0.131,4.758,47.0
39.972,-0.126,4.588,48.0
40.322,-0.122,4.39,57.0
39.893,-0.114,4.113,54.0
39.926,-0.108,3.885,67.0
39.638,-0.096,4.97,66.0
39.706,-0.091,4.747,46.0
40.033,-0.086,4.553,43.0
40.976,-0.082,4.419,43.0
40.684,-0.075,4.152,49.0
0.0,0.0,0.0,0.0
39.556,-0.056,4.917,70.0
39.884,-0.051,4.726,44.0
40.458,-0.046,4.558,37.0
41.115,-0.041,4.39,47.0
40.595,-0.036,4.099,54.0
40.494,-0.03,3.854,23.0
39.549,-0.018,4.873,58.0
39.955,-0.012,4.69,28.0
40.322,-0.007,4.498,42.0
40.255,-0.001,4.252,45.0
40.366,0.003,4.03,51.0
0.0,0.0,0.0,0.0
39.474,0.019,4.818,68.0
39.755,0.025,4.621,41.0
40.06,0.03,4.423,52.0
40.213,0.036,4.202,47.0
40.267,0.041,3.974,55.0
54.693,0.063,5.081,80.0
39.675,0.057,4.796,45.0
39.728,0.062,4.57,56.0
40.001,0.068,4.369,63.0
39.999,0.073,4.132,62.0
40.14,0.078,3.914,72.0
54.682,0.113,5.015,19.0
43.761,0.104,5.237,19.0
39.754,0.099,4.525,58.0
40.253,0.105,4.347,45.0
40.051,0.109,4.088,69.0
59.202,0.169,5.699,14.0
47.681,0.141,4.314,9.0
43.887,0.143,5.197,3.0
40.095,0.135,4.513,43.0
40.57,0.141,4.33,46.0
40.093,0.145,4.042,72.0
47.678,0.178,4.529,37.0
54.7,0.21,4.879,11.0
43.775,0.181,5.126,6.0
40.242,0.171,4.477,51.0
40.728,0.178,4.293,68.0
40.317,0.18,4.011,37.0
47.64,0.218,4.463,55.0
40.085,0.188,3.523,10.0
42.946,0.214,4.972,20.0
40.308,0.205,4.431,52.0
40.221,0.209,4.186,63.0
57.335,0.305,5.627,15.0
47.68,0.258,4.402,14.0
39.975,0.221,3.459,62.0
40.39,0.235,4.62,46.0
40.087,0.237,4.351,64.0
40.262,0.242,4.135,48.0
47.49,0.291,4.596,29.0
57.265,0.356,5.209,16.0
39.904,0.252,3.397,59.0
40.333,0.267,4.557,61.0
40.566,0.272,4.346,16.0
40.215,0.274,4.073,30.0
47.612,0.328,4.54,29.0
57.2,0.4,5.122,25.0
75.31,0.534,6.307,53.0
40.278,0.298,4.493,56.0
40.671,0.304,4.299,17.0
47.388,0.359,4.732,9.0
40.014,0.306,3.758,47.0
48.791,0.378,4.298,72.0
48.631,0.382,4.001,38.0
40.347,0.328,4.441,40.0
40.108,0.33,4.18,60.0
47.562,0.395,4.678,7.0
40.025,0.336,3.699,57.0
48.743,0.413,4.221,89.0
48.428,0.415,3.912,77.0
44.113,0.39,4.789,39.0
40.257,0.359,4.135,42.0
47.699,0.43,4.62,6.0
39.955,0.363,3.633,70.0
48.691,0.446,4.144,67.0
48.417,0.448,3.838,107.0
47.248,0.451,5.057,5.0
40.04,0.385,4.051,34.0
40.287,0.39,3.84,15.0
48.85,0.477,4.366,7.0
48.452,0.477,4.049,80.0
48.441,0.48,3.766,89.0
56.247,0.574,5.933,10.0
47.659,0.489,4.747,29.0
39.955,0.413,3.746,58.0
48.462,0.504,4.256,13.0
48.435,0.508,3.971,109.0
56.149,0.592,4.277,21.0
40.454,0.438,4.202,65.0
40.953,0.445,4.014,24.0
39.922,0.437,3.679,52.0
48.402,0.533,4.173,105.0
48.453,0.537,3.894,71.0
56.064,0.625,4.18,51.0
0.0,0.0,0.0,0.0
40.009,0.459,3.856,48.0
48.401,0.559,4.382,8.0
48.425,0.562,4.096,105.0
56.126,0.654,4.419,53.0
55.963,0.655,4.081,36.0
47.662,0.571,4.794,10.0
56.217,0.677,5.325,12.0
48.364,0.585,4.297,12.0
56.164,0.682,4.657,16.0
56.134,0.685,4.327,82.0
55.98,0.686,3.989,8.0
40.486,0.507,4.004,16.0
48.335,0.607,4.497,12.0
48.438,0.611,4.223,8.0
56.153,0.711,4.561,68.0
56.117,0.713,4.23,63.0
64.149,0.819,4.463,9.0
40.001,0.521,3.887,49.0
48.345,0.632,4.414,8.0
56.19,0.737,4.801,86.0
61.621,0.811,4.899,65.0
64.139,0.847,4.724,90.0
64.133,0.849,4.35,66.0
40.13,0.541,3.829,54.0
39.787,0.538,3.563,53.0
56.21,0.763,4.705,58.0
64.386,0.876,5.006,34.0
64.162,0.876,4.614,91.0
64.089,0.877,4.235,85.0
40.075,0.558,3.753,53.0
39.857,0.556,3.499,58.0
89.035,1.246,7.296,6.0
64.309,0.902,4.887,19.0
64.144,0.901,4.5,34.0
64.04,0.902,4.12,68.0
39.931,0.572,3.669,57.0
39.968,0.573,3.439,21.0
91.734,1.319,7.355,12.0
91.794,1.322,6.814,15.0
64.135,0.926,4.386,11.0
63.926,0.924,3.999,49.0
39.789,0.584,3.585,60.0
39.98,0.588,3.367,9.0
78.041,1.149,6.115,9.0
91.377,1.349,6.616,52.0
91.81,1.357,6.111,59.0
63.782,0.944,3.873,21.0
39.857,0.598,3.517,59.0
76.772,1.155,6.324,5.0
91.805,1.382,7.024,11.0
91.73,1.383,6.472,32.0
125.082,1.887,8.096,14.0
54.965,0.83,3.237,78.0
39.89,0.611,3.446,67.0
84.94,1.301,6.84,12.0
91.236,1.399,6.813,35.0
91.781,1.408,6.308,64.0
76.459,1.174,4.808,42.0
54.926,0.844,3.134,76.0
39.891,0.621,3.371,44.0
78.027,1.215,6.138,10.0
91.413,1.424,6.656,3.0
91.81,1.431,6.138,31.0
63.649,0.992,3.883,31.0
54.926,0.856,3.03,85.0
63.536,1.003,5.251,3.0
91.183,1.439,7.001,23.0
91.753,1.448,6.507,18.0
124.202,1.961,8.068,18.0
54.951,0.867,3.249,60.0
54.98,0.868,2.93,77.0
76.328,1.219,6.162,9.0
91.225,1.456,6.831,9.0
91.805,1.465,6.336,72.0
76.417,1.219,4.82,36.0
54.905,0.876,3.142,66.0
55.001,0.877,2.827,50.0
78.066,1.258,6.153,11.0
124.572,2.007,9.088,9.0
91.849,1.478,6.163,3.0
63.064,1.014,3.856,40.0
54.916,0.883,3.038,78.0
55.036,0.884,2.723,73.0
91.161,1.479,7.009,14.0
91.773,1.487,6.517,47.0
76.376,1.237,4.977,4.0
54.936,0.889,3.253,44.0
54.976,0.888,2.934,79.0
55.063,0.889,2.617,55.0
91.274,1.488,6.84,3.0
91.781,1.494,6.339,40.0
76.409,1.242,4.831,27.0
54.879,0.891,3.143,62.0
55.013,0.892,2.829,60.0
55.111,0.892,2.513,6.0
89.328,1.459,6.518,4.0
124.926,2.037,8.384,22.0
62.928,1.024,3.855,38.0
54.912,0.892,3.037,77.0
55.044,0.893,2.723,75.0
130.278,2.11,5.684,32.0
91.786,1.499,6.515,52.0
76.41,1.245,4.977,8.0
54.925,0.893,3.255,42.0
54.975,0.892,2.932,80.0
55.063,0.892,2.614,48.0
130.322,2.107,5.427,15.0
91.804,1.495,6.334,35.0
76.394,1.241,4.823,23.0
54.88,0.889,3.144,63.0
55.0,0.889,2.824,59.0
55.112,0.889,2.508,7.0
59.281,0.954,2.351,2.0
100.896,1.635,6.76,2.0
63.001,1.018,3.852,39.0
54.913,0.885,3.036,79.0
55.024,0.884,2.716,76.0
130.235,2.088,5.667,31.0
161.455,2.582,6.083,11.0
76.408,1.229,4.967,11.0
54.946,0.881,3.25,56.0
54.974,0.879,2.93,75.0
55.04,0.877,2.606,64.0
59.376,0.943,2.465,4.0
132.75,2.103,4.736,20.0
76.425,1.217,4.813,31.0
54.913,0.872,3.137,72.0
54.996,0.87,2.821,57.0
55.083,0.868,2.497,45.0
59.376,0.933,2.345,4.0
132.845,2.081,4.473,35.0
63.573,1.0,3.876,29.0
54.935,0.861,3.027,91.0
55.012,0.858,2.709,109.0
55.113,0.857,2.387,13.0
163.087,2.527,6.111,13.0
132.98,2.052,4.206,21.0
54.946,0.851,3.237,82.0
54.971,0.848,2.916,89.0
55.015,0.845,2.597,93.0
59.338,0.908,2.449,7.0
132.836,2.023,4.706,16.0
162.943,2.471,4.821,16.0
54.933,0.836,3.124,103.0
54.998,0.833,2.806,113.0
55.024,0.829,2.484,84.0
59.344,0.89,2.327,4.0
132.859,1.985,4.436,43.0
160.093,2.38,4.413,4.0
54.953,0.818,3.013,123.0
54.993,0.815,2.694,101.0
55.044,0.812,2.374,79.0
55.13,0.809,2.051,4.0
133.03,1.943,4.173,20.0
176.403,2.563,4.504,19.0
54.981,0.8,2.902,128.0
54.998,0.795,2.582,103.0
55.061,0.792,2.263,80.0
55.099,0.788,1.937,20.0
163.074,2.32,4.78,12.0
176.704,2.501,4.153,18.0
55.001,0.779,2.792,127.0
54.999,0.774,2.469,107.0
55.059,0.77,2.151,87.0
55.052,0.765,1.823,64.0
176.234,2.435,4.811,12.0
190.235,2.612,4.082,19.0
55.009,0.755,2.679,121.0
55.011,0.75,2.357,116.0
55.043,0.745,2.037,89.0
55.063,0.74,1.711,59.0
55.11,0.736,1.391,2.0
207.455,2.754,4.027,9.0
55.006,0.729,2.567,129.0
55.015,0.724,2.246,121.0
55.024,0.718,1.924,102.0
55.054,0.714,1.599,64.0
55.109,0.709,1.278,15.0
189.012,2.414,3.285,13.0
54.988,0.701,2.454,106.0
55.018,0.696,2.134,118.0
55.013,0.69,1.812,119.0
55.037,0.684,1.486,82.0
55.073,0.68,1.166,57.0
48.218,0.59,0.74,35.0
55.001,0.671,2.342,95.0
55.018,0.665,2.021,124.0
55.009,0.659,1.7,114.0
55.029,0.654,1.374,62.0
55.077,0.648,1.054,9.0
48.129,0.561,0.641,67.0
55.004,0.639,2.231,102.0
55.002,0.633,1.91,128.0
55.047,0.627,1.59,6.0
48.186,0.543,1.106,53.0
48.133,0.537,0.824,74.0
48.106,0.532,0.543,91.0
55.019,0.605,2.121,100.0
48.214,0.524,1.577,34.0
48.164,0.518,1.294,79.0
48.123,0.512,1.008,91.0
48.099,0.506,0.727,99.0
48.08,0.501,0.447,93.0
48.182,0.498,1.76,65.0
48.155,0.492,1.478,92.0
48.135,0.486,1.197,94.0
48.1,0.48,0.911,98.0
48.094,0.474,0.631,99.0
48.059,0.468,0.351,98.0
48.163,0.465,1.664,96.0
48.13,0.458,1.382,102.0
48.117,0.452,1.101,102.0
48.079,0.446,0.815,105.0
48.061,0.439,0.534,95.0
48.035,0.433,0.254,97.0
48.127,0.429,1.566,88.0
48.123,0.423,1.286,114.0
48.096,0.416,1.004,109.0
48.068,0.41,0.719,113.0
48.055,0.403,0.439,102.0
48.025,0.396,0.159,85.0
48.137,0.393,1.471,127.0
48.106,0.386,1.19,116.0
48.106,0.379,0.91,114.0
48.059,0.372,0.624,110.0
48.061,0.366,0.344,86.0
47.804,0.357,0.064,53.0
48.113,0.354,1.376,110.0
48.115,0.347,1.096,111.0
48.1,0.34,0.815,98.0
48.097,0.333,0.529,57.0
48.13,0.327,0.25,52.0
45.021,0.299,-0.027,22.0
48.126,0.313,1.281,103.0
48.135,0.307,1.001,93.0
48.145,0.299,0.721,55.0
48.175,0.292,0.436,54.0
54.975,0.326,0.178,7.0
39.732,0.229,-0.102,18.0
48.167,0.272,1.188,67.0
48.185,0.265,0.908,53.0
59.293,0.317,0.773,16.0
59.321,0.307,0.422,8.0
47.824,0.24,0.061,36.0
38.746,0.189,-0.174,38.0
59.287,0.281,1.348,111.0
59.28,0.272,1.004,123.0
59.307,0.262,0.659,96.0
59.349,0.253,0.307,22.0
44.952,0.185,-0.027,22.0
37.964,0.15,-0.244,11.0
79.423,0.302,1.654,150.0
79.467,0.289,1.193,151.0
79.471,0.276,0.731,19.0
54.744,0.181,0.179,29.0
40.319,0.126,-0.102,16.0
37.898,0.113,-0.316,1.0
79.47,0.224,1.503,151.0
79.472,0.211,1.041,151.0
76.449,0.19,0.557,27.0
47.917,0.111,0.066,22.0
39.087,0.084,-0.173,37.0
32.634,0.064,-0.334,1.0
79.45,0.144,1.353,158.0
79.466,0.13,0.891,151.0
61.957,0.091,0.335,9.0
0.0,0.0,0.0,0.0
38.335,0.043,-0.242,8.0
30.662,0.028,-0.372,1.0
79.459,0.061,1.204,151.0
79.419,0.047,0.742,150.0
55.455,0.023,0.196,11.0
40.821,0.009,-0.096,17.0
38.229,0.002,-0.312,0.0
29.538,-0.003,-0.413,2.0
79.463,-0.023,1.058,152.0
76.487,-0.036,0.573,17.0
48.339,-0.032,0.081,5.0
39.531,-0.033,-0.166,20.0
32.989,-0.034,-0.33,1.0
28.405,-0.034,-0.449,1.0
79.469,-0.112,0.91,151.0
76.057,-0.121,0.43,11.0
45.77,-0.081,-0.006,20.0
38.821,-0.076,-0.235,6.0
31.054,-0.067,-0.368,1.0
27.205,-0.064,-0.481,2.0
79.453,-0.203,0.765,150.0
56.151,-0.154,0.215,17.0
41.949,-0.123,-0.081,18.0
37.18,-0.116,-0.292,1.0
29.737,-0.099,-0.406,2.0
26.32,-0.092,-0.512,2.0
79.197,-0.295,0.621,31.0
51.053,-0.2,0.104,9.0
39.704,-0.164,-0.149,3.0
33.23,-0.143,-0.32,1.0
28.701,-0.129,-0.443,2.0
25.199,-0.119,-0.535,1.0
76.613,-0.378,0.464,9.0
47.041,-0.241,0.012,22.0
39.656,-0.211,-0.219,5.0
31.166,-0.172,-0.356,1.0
27.41,-0.157,-0.471,1.0
24.267,-0.144,-0.558,3.0
61.346,-0.378,0.264,19.0
43.836,-0.279,-0.064,4.0
39.561,-0.259,-0.287,3.0
29.928,-0.203,-0.394,2.0
26.541,-0.185,-0.503,2.0
23.453,-0.168,-0.58,1.0
54.31,-0.403,0.14,9.0
47.209,-0.36,-0.151,11.0
33.823,-0.265,-0.304,1.0
28.984,-0.233,-0.431,2.0
25.594,-0.212,-0.529,1.0
22.672,-0.192,-0.6,1.0
51.14,-0.445,0.045,4.0
42.218,-0.377,-0.207,4.0
31.969,-0.292,-0.342,1.0
27.986,-0.262,-0.464,3.0
24.572,-0.235,-0.55,1.0
21.8,-0.214,-0.614,2.0
50.859,-0.51,-0.041,13.0
38.535,-0.395,-0.253,14.0
30.417,-0.318,-0.376,2.0
26.773,-0.286,-0.489,1.0
23.665,-0.258,-0.569,1.0
21.079,-0.235,-0.629,1.0
47.251,-0.538,-0.116,1.0
35.024,-0.406,-0.288,1.0
29.371,-0.347,-0.411,2.0
25.932,-0.312,-0.516,1.0
22.989,-0.282,-0.59,2.0
20.37,-0.255,-0.641,1.0
43.753,-0.558,-0.178,1.0
32.864,-0.426,-0.323,1.0
28.416,-0.375,-0.444,2.0
25.029,-0.336,-0.538,1.0
22.19,-0.303,-0.605,1.0
19.823,-0.276,-0.656,1.0
42.353,-0.599,-0.24,2.0
31.083,-0.446,-0.355,1.0
27.423,-0.4,-0.472,1.0
24.17,-0.359,-0.558,2.0
21.497,-0.324,-0.62,1.0
19.26,-0.295,-0.667,2.0
0.0,0.0,0.0,0.0
29.898,-0.473,-0.389,1.0
26.505,-0.425,-0.498,1.0
23.387,-0.381,-0.577,2.0
20.795,-0.344,-0.633,1.0
18.752,-0.314,-0.679,1.0
34.105,-0.58,-0.299,1.0
29.051,-0.502,-0.423,1.0
25.637,-0.449,-0.521,1.0
22.706,-0.403,-0.595,2.0
20.163,-0.363,-0.645,1.0
18.277,-0.333,-0.69,1.0
32.434,-0.6,-0.334,1.0
28.092,-0.526,-0.451,1.0
24.868,-0.472,-0.543,1.0
21.974,-0.423,-0.609,1.0
19.683,-0.384,-0.659,1.0
17.849,-0.352,-0.7,1.0
30.711,-0.614,-0.361,1.0
27.026,-0.547,-0.474,1.0
24.003,-0.492,-0.559,1.0
21.292,-0.442,-0.621,1.0
19.163,-0.402,-0.669,1.0
17.447,-0.371,-0.71,1.0
29.78,-0.641,-0.394,2.0
26.274,-0.572,-0.499,1.0
23.259,-0.512,-0.576,1.0
20.693,-0.461,-0.634,1.0
18.671,-0.421,-0.679,1.0
17.007,-0.388,-0.717,1.0
29.053,-0.669,-0.425,1.0
25.623,-0.597,-0.523,1.0
22.677,-0.534,-0.593,2.0
20.169,-0.48,-0.646,1.0
18.26,-0.44,-0.69,1.0
16.664,-0.406,-0.726,1.0
27.706,-0.682,-0.444,6.0
24.881,-0.619,-0.542,1.0
22.0,-0.553,-0.606,1.0
19.689,-0.5,-0.658,1.0
17.849,-0.458,-0.699,1.0
16.303,-0.423,-0.732,1.0
27.177,-0.712,-0.472,1.0
24.086,-0.637,-0.557,1.0
21.234,-0.567,-0.613,2.0
19.22,-0.519,-0.668,1.0
17.529,-0.478,-0.71,1.0
15.961,-0.439,-0.738,1.0
26.475,-0.735,-0.495,1.0
23.424,-0.657,-0.572,2.0
20.811,-0.589,-0.628,1.0
18.748,-0.536,-0.675,1.0
17.139,-0.495,-0.716,1.0
15.644,-0.456,-0.744,1.0
25.787,-0.758,-0.515,1.0
22.859,-0.678,-0.588,1.0
20.352,-0.609,-0.64,1.0
18.382,-0.556,-0.686,1.0
16.784,-0.512,-0.723,0.0
15.391,-0.474,-0.751,1.0
25.143,-0.78,-0.534,1.0
22.235,-0.696,-0.599,1.0
19.923,-0.629,-0.652,1.0
18.016,-0.574,-0.695,1.0
16.442,-0.529,-0.728,1.0
15.13,-0.491,-0.757,1.0
24.393,-0.797,-0.547,1.0
21.7,-0.715,-0.611,1.0
19.484,-0.648,-0.66,1.0
17.695,-0.593,-0.703,1.0
16.128,-0.545,-0.734,1.0
14.89,-0.508,-0.763,1.0
23.738,-0.815,-0.56,1.0
21.193,-0.734,-0.622,1.0
19.083,-0.666,-0.669,1.0
17.388,-0.612,-0.711,1.0
15.888,-0.564,-0.741,1.0
14.652,-0.524,-0.767,1.0
23.27,-0.838,-0.576,2.0
20.721,-0.752,-0.631,1.0
18.732,-0.685,-0.678,1.0
17.073,-0.629,-0.717,1.0
15.613,-0.58,-0.745,1.0
14.426,-0.54,-0.771,1.0
22.752,-0.857,-0.587,1.0
20.261,-0.769,-0.639,1.0
18.38,-0.703,-0.685,1.0
16.77,-0.646,-0.722,1.0
15.376,-0.597,-0.751,1.0
14.222,-0.557,-0.776,1.0
22.28,-0.877,-0.599,1.0
19.897,-0.789,-0.648,1.0
18.055,-0.721,-0.692,1.0
16.491,-0.663,-0.728,1.0
15.166,-0.615,-0.756,1.0
14.04,-0.573,-0.78,1.0
21.807,-0.895,-0.608,1.0
19.553,-0.808,-0.657,1.0
17.794,-0.741,-0.7,1.0
16.214,-0.68,-0.732,1.0
14.952,-0.632,-0.76,1.0
13.839,-0.589,-0.783,1.0
21.353,-0.913,-0.617,1.0
19.233,-0.828,-0.665,1.0
17.509,-0.759,-0.705,1.0
15.996,-0.698,-0.737,1.0
14.741,-0.648,-0.764,1.0
13.695,-0.606,-0.788,1.0
20.947,-0.932,-0.625,1.0
18.901,-0.846,-0.671,1.0
17.28,-0.779,-0.712,1.0
15.772,-0.716,-0.742,1.0
14.562,-0.666,-0.768,1.0
13.569,-0.624,-0.793,1.0
20.634,-0.953,-0.634,1.0
18.61,-0.866,-0.678,1.0
17.026,-0.797,-0.717,1.0
15.565,-0.733,-0.746,1.0
14.395,-0.683,-0.772,1.0
13.422,-0.641,-0.796,1.0
20.277,-0.972,-0.64,1.0
18.357,-0.885,-0.684,1.0
16.81,-0.816,-0.722,1.0
15.384,-0.751,-0.75,1.0
14.23,-0.699,-0.775,1.0
13.295,-0.658,-0.8,1.0
19.961,-0.991,-0.647,1.0
18.134,-0.906,-0.691,2.0
16.561,-0.832,-0.725,1.0
15.204,-0.769,-0.754,1.0
14.074,-0.716,-0.778,1.0
13.161,-0.674,-0.802,1.0
19.723,-1.013,-0.654,1.0
17.916,-0.926,-0.696,1.0
16.358,-0.85,-0.728,1.0
15.059,-0.788,-0.758,1.0
13.939,-0.734,-0.781,1.0
13.047,-0.691,-0.805,1.0
19.437,-1.032,-0.659,1.0
17.724,-0.947,-0.702,1.0
16.187,-0.87,-0.733,1.0
14.894,-0.805,-0.76,1.0
13.82,-0.752,-0.784,1.0
12.937,-0.708,-0.808,0.0
19.173,-1.052,-0.664,1.0
17.536,-0.967,-0.706,1.0
16.008,-0.888,-0.736,1.0
14.77,-0.824,-0.764,1.0
13.71,-0.77,-0.787,1.0
12.826,-0.724,-0.809,0.0
18.976,-1.074,-0.669,1.0
17.32,-0.986,-0.709,1.0
15.848,-0.907,-0.739,1.0
14.649,-0.843,-0.767,1.0
13.596,-0.787,-0.789,1.0
12.718,-0.74,-0.811,1.0
18.817,-1.098,-0.676,2.0
17.179,-1.008,-0.714,1.0
15.718,-0.927,-0.742,1.0
14.52,-0.861,-0.769,1.0
13.518,-0.806,-0.793,1.0
12.635,-0.758,-0.813,1.0
18.622,-1.119,-0.679,5.0
17.0,-1.027,-0.716,1.0
15.605,-0.948,-0.746,1.0
14.406,-0.88,-0.771,1.0
13.421,-0.824,-0.795,1.0
12.551,-0.775,-0.814,0.0
18.425,-1.14,-0.682,2.0
16.877,-1.049,-0.72,1.0
15.494,-0.968,-0.749,1.0
14.289,-0.897,-0.773,1.0
13.357,-0.843,-0.798,1.0
12.486,-0.792,-0.817,0.0
18.278,-1.162,-0.686,0.0
16.763,-1.071,-0.723,2.0
15.378,-0.987,-0.75,1.0
14.193,-0.916,-0.774,1.0
13.27,-0.861,-0.799,1.0
12.413,-0.809,-0.817,0.0
18.109,-1.182,-0.688,0.0
16.584,-1.088,-0.723,4.0
15.27,-1.007,-0.752,1.0
14.098,-0.934,-0.775,1.0
13.197,-0.879,-0.8,1.0
12.35,-0.827,-0.819,1.0
18.002,-1.207,-0.691,0.0
16.507,-1.112,-0.726,2.0
15.232,-1.031,-0.756,2.0
14.037,-0.955,-0.777,1.0
13.153,-0.899,-0.803,0.0
12.28,-0.843,-0.819,1.0
17.942,-1.233,-0.695,1.0
16.332,-1.128,-0.725,3.0
15.036,-1.043,-0.752,2.0
13.983,-0.975,-0.779,1.0
13.083,-0.917,-0.803,1.0
12.259,-0.863,-0.822,0.0
17.719,-1.248,-0.692,1.0
16.218,-1.148,-0.725,3.0
15.002,-1.067,-0.755,0.0
13.94,-0.996,-0.781,1.0
13.032,-0.935,-0.804,0.0
12.227,-0.882,-0.823,0.0
17.792,-1.284,-0.701,0.0
16.106,-1.167,-0.724,6.0
14.938,-1.087,-0.756,0.0
13.866,-1.014,-0.781,1.0
12.99,-0.954,-0.805,0.0
12.173,-0.898,-0.823,0.0
17.746,-1.31,-0.703,0.0
16.035,-1.189,-0.725,9.0
14.887,-1.109,-0.757,1.0
13.776,-1.031,-0.779,1.0
12.967,-0.974,-0.806,1.0
12.154,-0.917,-0.824,0.0
17.636,-1.332,-0.702,0.0
15.995,-1.213,-0.727,4.0
14.783,-1.126,-0.754,1.0
13.775,-1.053,-0.782,1.0
12.899,-0.991,-0.804,1.0
12.147,-0.937,-0.826,0.0
17.578,-1.357,-0.703,0.0
16.228,-1.258,-0.74,0.0
14.772,-1.15,-0.756,1.0
13.775,-1.077,-0.784,1.0
12.809,-1.005,-0.8,0.0
12.119,-0.955,-0.825,0.0
17.542,-1.383,-0.704,1.0
16.113,-1.275,-0.737,0.0
14.741,-1.172,-0.756,1.0
13.793,-1.101,-0.786,3.0
12.849,-1.03,-0.804,0.0
12.089,-0.973,-0.824,2.0
17.523,-1.41,-0.705,0.0
16.107,-1.301,-0.738,0.0
14.541,-1.179,-0.747,0.0
13.735,-1.119,-0.784,3.0
12.869,-1.052,-0.806,0.0
12.052,-0.989,-0.823,2.0
17.499,-1.436,-0.705,0.0
16.102,-1.327,-0.738,0.0
14.749,-1.22,-0.758,0.0
13.723,-1.14,-0.784,2.0
12.829,-1.07,-0.804,0.0
12.037,-1.007,-0.822,0.0
17.471,-1.462,-0.703,0.0
16.118,-1.354,-0.739,1.0
14.818,-1.25,-0.762,0.0
13.707,-1.16,-0.782,1.0
12.855,-1.092,-0.805,0.0
12.031,-1.026,-0.821,0.0
16.808,-1.434,-0.676,1.0
16.18,-1.385,-0.741,2.0
14.8,-1.272,-0.76,0.0
13.774,-1.188,-0.786,0.0
12.868,-1.114,-0.806,0.0
12.066,-1.048,-0.823,0.0
0.0,0.0,0.0,0.0
16.18,-1.411,-0.74,2.0
14.846,-1.299,-0.761,0.0
13.78,-1.21,-0.785,0.0
12.87,-1.134,-0.804,1.0
12.087,-1.069,-0.823,0.0
0.0,0.0,0.0,0.0
16.219,-1.439,-0.74,2.0
14.865,-1.324,-0.76,0.0
13.813,-1.234,-0.785,0.0
12.789,-1.147,-0.798,0.0
12.121,-1.091,-0.824,0.0
17.484,-1.573,-0.698,0.0
16.217,-1.464,-0.737,5.0
14.942,-1.354,-0.762,0.0
13.84,-1.258,-0.784,0.0
12.984,-1.184,-0.807,0.0
12.153,-1.112,-0.823,0.0
17.636,-1.614,-0.701,0.0
