X,Y,Z,Reflectivity
59.281,0.255,2.121,8.0
59.28,0.261,1.809,102.0
59.286,0.267,1.501,111.0
59.287,0.274,1.195,108.0
48.171,0.224,2.32,86.0
48.186,0.229,2.071,68.0
48.186,0.234,1.821,75.0
48.195,0.24,1.566,45.0
48.215,0.245,1.317,32.0
59.28,0.309,1.312,15.0
48.157,0.252,2.416,97.0
48.156,0.258,2.165,87.0
48.157,0.263,1.915,82.0
48.151,0.269,1.661,86.0
48.148,0.275,1.41,85.0
48.16,0.281,1.161,68.0
48.139,0.282,2.511,112.0
48.142,0.288,2.26,104.0
48.146,0.294,2.01,95.0
48.126,0.3,1.754,81.0
48.132,0.306,1.504,93.0
48.132,0.312,1.254,96.0
48.162,0.314,2.606,125.0
48.14,0.32,2.354,110.0
48.13,0.326,2.103,101.0
48.11,0.333,1.848,99.0
48.115,0.339,1.597,96.0
48.124,0.346,1.348,101.0
48.168,0.348,2.701,111.0
48.145,0.354,2.448,117.0
48.137,0.36,2.196,108.0
48.108,0.367,1.94,113.0
48.101,0.373,1.69,101.0
48.123,0.38,1.44,111.0
48.191,0.383,2.795,81.0
48.154,0.39,2.541,87.0
48.147,0.396,2.29,102.0
48.117,0.403,2.032,102.0
48.118,0.409,1.781,93.0
48.11,0.416,1.531,98.0
55.049,0.48,3.297,6.0
48.221,0.427,2.636,64.0
48.188,0.434,2.383,78.0
48.158,0.441,2.125,83.0
48.137,0.447,1.873,97.0
48.133,0.455,1.622,92.0
54.918,0.522,3.393,109.0
59.366,0.573,3.357,108.0
59.379,0.582,3.047,96.0
59.388,0.591,2.732,20.0
48.194,0.487,1.965,62.0
48.165,0.494,1.712,88.0
77.832,0.804,4.954,37.0
59.368,0.623,3.468,6.0
59.371,0.632,3.157,103.0
55.077,0.595,2.635,31.0
55.028,0.603,2.345,80.0
55.02,0.611,2.057,73.0
99.447,1.113,6.515,19.0
54.945,0.624,3.31,102.0
59.38,0.683,3.266,20.0
55.037,0.642,2.733,85.0
55.014,0.651,2.444,117.0
55.005,0.66,2.156,93.0
99.417,1.201,6.693,16.0
91.623,1.121,5.685,19.0
54.994,0.682,3.123,76.0
55.019,0.691,2.831,107.0
54.998,0.7,2.541,124.0
54.991,0.71,2.253,75.0
99.336,1.29,6.863,9.0
91.48,1.203,5.838,46.0
54.973,0.732,3.219,107.0
54.957,0.741,2.924,107.0
55.006,0.751,2.637,124.0
55.009,0.761,2.35,105.0
64.149,0.893,4.544,108.0
64.089,0.903,4.202,96.0
63.905,0.912,3.853,8.0
54.938,0.793,3.018,118.0
54.99,0.804,2.732,126.0
55.014,0.814,2.444,111.0
91.583,1.364,6.646,39.0
91.812,1.383,6.176,41.0
76.44,1.165,4.739,12.0
54.935,0.846,3.111,96.0
54.981,0.857,2.824,92.0
55.03,0.868,2.537,77.0
91.212,1.448,6.772,29.0
91.781,1.474,6.33,58.0
76.404,1.241,4.866,23.0
54.937,0.902,3.203,51.0
54.957,0.913,2.915,83.0
55.086,0.925,2.631,48.0
77.199,1.305,5.861,3.0
91.733,1.568,6.479,26.0
76.319,1.319,4.987,3.0
62.437,1.091,3.744,89.0
54.881,0.969,3.001,54.0
55.176,0.985,2.726,23.0
53.356,0.958,4.139,42.0
76.401,1.386,5.521,42.0
77.101,1.413,5.162,43.0
62.379,1.155,3.84,88.0
54.756,1.024,3.081,64.0
55.245,1.044,2.817,52.0
77.312,1.471,6.121,40.0
74.301,1.428,5.488,13.0
76.907,1.493,5.272,18.0
62.359,1.223,3.938,83.0
54.622,1.082,3.16,46.0
55.3,1.106,2.907,69.0
73.502,1.48,5.935,20.0
53.454,1.087,4.032,21.0
74.327,1.525,5.211,14.0
62.314,1.291,4.031,98.0
54.523,1.14,3.238,44.0
55.337,1.168,2.994,56.0
53.928,1.146,4.437,19.0
77.878,1.671,5.994,5.0
74.292,1.608,5.322,15.0
62.225,1.359,4.121,71.0
54.421,1.2,3.314,86.0
55.334,1.232,3.077,43.0
53.876,1.207,4.515,7.0
53.891,1.218,4.228,122.0
53.513,1.22,3.913,61.0
53.822,1.238,3.644,82.0
55.054,1.278,3.434,46.0
55.047,1.288,3.141,49.0
54.006,1.272,4.605,8.0
61.39,1.459,4.907,21.0
53.457,1.281,3.987,56.0
53.738,1.299,3.715,50.0
0.0,0.0,0.0,0.0
54.786,1.347,3.204,98.0
67.542,1.672,5.857,25.0
53.257,1.329,4.333,20.0
56.507,1.421,4.295,24.0
61.872,1.57,4.365,26.0
54.02,1.382,3.523,44.0
54.453,1.404,3.261,84.0
40.348,1.047,3.555,47.0
63.983,1.674,5.294,10.0
56.595,1.492,4.38,82.0
55.847,1.484,4.016,52.0
0.0,0.0,0.0,0.0
54.373,1.467,3.329,74.0
40.463,1.099,3.62,41.0
56.697,1.553,4.768,9.0
62.818,1.733,4.945,11.0
73.694,2.049,5.398,20.0
62.238,1.743,4.225,12.0
54.395,1.535,3.402,54.0
40.391,1.148,3.667,24.0
62.899,1.801,5.372,10.0
62.847,1.812,5.029,59.0
55.821,1.622,4.162,74.0
73.869,2.162,5.111,49.0
54.284,1.601,3.465,100.0
62.853,1.866,5.788,23.0
40.245,1.203,3.488,46.0
61.305,1.845,4.984,29.0
55.804,1.691,4.23,108.0
73.834,2.253,5.2,50.0
54.396,1.672,3.539,87.0
40.284,1.247,3.759,13.0
67.713,2.11,5.953,27.0
55.827,1.752,4.607,78.0
55.801,1.763,4.298,81.0
73.794,2.347,5.286,37.0
73.615,2.358,4.878,24.0
63.631,2.052,6.015,16.0
67.823,2.201,6.044,14.0
55.891,1.825,4.678,59.0
74.03,2.434,5.789,33.0
55.225,1.828,4.02,18.0
73.54,2.45,4.958,26.0
61.047,2.047,5.842,25.0
61.005,2.06,5.507,70.0
56.002,1.902,4.752,33.0
71.948,2.459,5.709,22.0
65.138,2.241,4.817,11.0
73.538,2.546,5.04,12.0
42.624,1.486,4.127,29.0
67.734,2.377,6.191,38.0
56.051,1.979,4.818,25.0
62.21,2.209,5.005,35.0
55.358,1.977,4.154,52.0
65.317,2.348,4.548,16.0
42.607,1.542,4.172,14.0
56.027,2.04,5.181,3.0
62.163,2.277,5.41,41.0
62.192,2.291,5.069,30.0
54.397,2.016,4.139,17.0
54.154,2.019,3.827,47.0
61.934,2.325,6.129,65.0
55.937,2.111,5.231,73.0
62.148,2.359,5.472,7.0
55.42,2.116,4.573,72.0
54.187,2.081,4.177,75.0
53.994,2.085,3.869,47.0
56.37,2.192,5.635,19.0
56.111,2.193,5.303,3.0
67.961,2.672,6.051,18.0
53.343,2.109,4.454,40.0
53.692,2.135,4.191,72.0
65.485,2.618,4.757,33.0
53.088,2.137,5.358,13.0
53.182,2.152,5.077,8.0
53.229,2.165,4.79,90.0
53.471,2.187,4.515,27.0
54.338,2.235,4.292,27.0
73.776,3.05,5.426,20.0
41.423,1.724,4.219,16.0
41.296,1.728,3.98,5.0
53.243,2.24,4.84,8.0
54.435,2.302,4.645,68.0
71.723,3.049,5.73,14.0
73.722,3.15,5.488,22.0
41.542,1.787,4.269,23.0
41.301,1.786,4.017,56.0
54.222,2.356,4.976,28.0
67.774,2.96,5.842,11.0
64.647,2.838,5.219,39.0
64.195,2.832,4.832,9.0
41.52,1.844,4.301,28.0
41.321,1.843,4.053,45.0
53.991,2.421,4.999,49.0
64.518,2.907,5.614,9.0
64.313,2.911,5.243,32.0
74.137,3.372,5.639,10.0
41.82,1.915,4.365,7.0
41.376,1.903,4.09,34.0
68.103,3.147,6.358,35.0
55.559,2.58,4.876,23.0
67.822,3.164,5.58,23.0
64.906,3.042,4.985,18.0
52.933,2.498,5.564,10.0
41.475,1.966,4.131,34.0
53.013,2.524,4.988,7.0
68.034,3.254,6.021,6.0
67.94,3.264,5.639,15.0
73.904,3.566,5.728,15.0
41.786,2.03,4.422,28.0
41.495,2.025,4.162,30.0
55.462,2.717,5.257,5.0
64.507,3.175,5.752,13.0
64.55,3.19,5.4,38.0
73.922,3.669,5.779,13.0
41.439,2.071,4.412,55.0
41.422,2.079,4.181,33.0
55.308,2.787,5.278,5.0
64.243,3.251,5.769,16.0
64.441,3.276,5.432,23.0
64.99,3.317,5.12,9.0
41.557,2.136,4.451,40.0
63.227,3.263,6.422,33.0
63.195,3.274,6.068,38.0
64.536,3.357,5.834,24.0
64.459,3.366,5.471,32.0
65.199,3.419,5.174,7.0
41.788,2.206,4.5,17.0
62.937,3.336,6.427,26.0
63.739,3.391,6.156,38.0
64.063,3.422,5.826,27.0
67.95,3.643,5.804,13.0
65.205,3.511,5.209,8.0
38.494,2.087,4.165,30.0
62.963,3.426,6.463,14.0
41.363,2.259,4.016,7.0
64.043,3.511,5.857,12.0
68.029,3.743,5.845,9.0
64.957,3.587,5.222,12.0
38.498,2.141,4.185,41.0
63.082,3.52,6.506,12.0
64.583,3.617,6.301,16.0
64.473,3.624,5.926,14.0
70.229,3.962,6.065,16.0
75.498,4.275,6.103,20.0
38.458,2.192,4.197,40.0
52.337,2.994,5.42,5.0
41.559,2.385,4.072,54.0
41.635,2.398,3.844,12.0
64.362,3.721,5.585,30.0
75.885,4.403,6.165,16.0
38.436,2.246,4.21,35.0
63.274,3.709,6.578,14.0
41.422,2.436,4.075,49.0
63.828,3.767,5.917,15.0
64.256,3.805,5.599,29.0
64.418,3.827,5.256,33.0
38.358,2.294,4.215,46.0
63.417,3.806,6.614,24.0
41.353,2.489,4.082,64.0
63.766,3.852,5.932,20.0
64.28,3.895,5.622,19.0
64.491,3.921,5.281,33.0
38.246,2.341,4.215,70.0
63.162,3.877,6.607,38.0
63.355,3.901,6.272,38.0
41.367,2.555,3.86,58.0
64.16,3.975,5.629,35.0
64.562,4.013,5.304,23.0
38.286,2.396,4.229,59.0
63.476,3.984,6.656,12.0
63.27,3.982,6.279,31.0
70.164,4.43,6.563,35.0
64.939,4.113,5.712,26.0
65.185,4.141,5.37,13.0
38.319,2.45,4.241,67.0
63.684,4.084,6.69,34.0
63.404,4.078,6.305,22.0
70.36,4.538,6.596,11.0
64.586,4.178,5.693,23.0
64.949,4.214,5.362,17.0
38.365,2.505,4.253,59.0
64.19,4.203,6.754,21.0
56.098,3.684,5.587,3.0
63.278,4.166,5.941,38.0
70.168,4.633,6.195,24.0
65.204,4.317,5.392,40.0
38.427,2.561,4.265,62.0
64.208,4.291,6.764,15.0
71.033,4.759,7.083,29.0
63.285,4.251,5.949,32.0
65.097,4.384,5.754,26.0
65.266,4.407,5.403,24.0
38.368,2.608,4.261,11.0
64.144,4.372,6.762,24.0
54.32,3.711,5.42,12.0
70.6,4.836,6.641,48.0
64.969,4.461,5.746,39.0
65.321,4.498,5.411,31.0
41.924,2.905,4.658,23.0
68.233,4.74,7.196,11.0
64.549,4.496,6.442,14.0
70.762,4.94,6.657,48.0
71.838,5.027,6.354,8.0
64.274,4.509,5.325,31.0
38.633,2.728,4.292,31.0
64.43,4.561,6.793,40.0
67.659,4.8,6.752,24.0
71.005,5.049,6.678,47.0
63.851,4.552,5.646,35.0
63.761,4.556,5.279,34.0
38.798,2.79,4.308,24.0
38.552,2.778,4.063,33.0
38.878,2.808,3.877,25.0
71.136,5.15,6.686,28.0
63.984,4.642,5.653,20.0
63.683,4.632,5.268,33.0
38.819,2.842,4.307,19.0
38.558,2.829,4.059,48.0
38.833,2.855,3.869,54.0
64.406,4.745,6.046,23.0
64.061,4.73,5.652,30.0
63.474,4.697,5.243,35.0
41.106,3.061,4.555,2.0
38.539,2.875,4.052,55.0
67.619,5.055,6.727,12.0
64.076,4.8,6.005,40.0
63.985,4.803,5.635,38.0
63.459,4.774,5.231,32.0
41.505,3.142,4.592,3.0
38.375,2.91,4.028,55.0
38.69,2.94,3.841,38.0
64.013,4.874,5.986,23.0
63.969,4.88,5.621,38.0
63.439,4.849,5.216,32.0
38.776,2.982,4.282,36.0
38.365,2.956,4.018,66.0
38.697,2.987,3.833,59.0
63.93,4.944,5.964,34.0
63.892,4.951,5.598,38.0
63.507,4.931,5.206,19.0
38.709,3.024,4.265,46.0
38.404,3.005,4.012,67.0
38.694,3.033,3.822,18.0
63.946,5.021,5.948,39.0
63.961,5.033,5.586,25.0
63.542,5.009,5.19,26.0
38.611,3.062,4.242,38.0
38.39,3.049,3.999,64.0
38.657,3.076,3.806,37.0
63.998,5.1,5.932,40.0
64.193,5.125,5.586,26.0
63.484,5.078,5.165,24.0
41.257,3.32,4.519,25.0
38.383,3.093,3.985,45.0
38.657,3.12,3.793,37.0
64.252,5.195,5.932,40.0
63.936,5.178,5.54,38.0
66.106,5.363,5.354,17.0
41.2,3.362,4.496,24.0
38.353,3.134,3.966,56.0
38.691,3.167,3.781,40.0
64.496,5.287,5.929,30.0
63.916,5.248,5.512,40.0
65.947,5.423,5.314,34.0
38.496,3.184,4.185,65.0
38.365,3.178,3.951,46.0
64.605,5.36,6.285,25.0
64.364,5.348,5.888,27.0
64.101,5.333,5.5,33.0
66.64,5.553,5.339,41.0
38.363,3.215,4.153,61.0
38.493,3.23,3.947,52.0
64.597,5.428,6.254,30.0
64.225,5.404,5.845,10.0
65.97,5.558,5.628,17.0
66.483,5.61,5.294,17.0
38.303,3.25,4.127,67.0
38.469,3.268,3.925,44.0
47.945,4.079,4.617,18.0
47.407,4.039,4.29,38.0
66.209,5.648,5.614,12.0
66.708,5.698,5.277,43.0
38.25,3.286,4.1,54.0
38.484,3.309,3.905,44.0
47.764,4.113,4.573,19.0
47.431,4.089,4.266,30.0
66.434,5.735,5.596,10.0
66.592,5.756,5.23,35.0
38.236,3.323,4.077,68.0
47.51,4.134,4.793,21.0
47.64,4.149,4.534,14.0
47.374,4.131,4.233,36.0
66.468,5.803,5.559,13.0
66.691,5.83,5.198,43.0
38.274,3.364,4.057,68.0
47.449,4.175,4.757,21.0
47.472,4.181,4.488,17.0
47.531,4.191,4.216,50.0
71.076,6.275,5.899,10.0
66.682,5.894,5.154,43.0
38.282,3.401,4.033,59.0
47.893,4.259,4.77,5.0
47.526,4.231,4.461,19.0
47.516,4.234,4.183,43.0
70.936,6.329,5.84,16.0
66.48,5.938,5.094,42.0
38.347,3.442,4.013,32.0
47.912,4.305,4.739,34.0
47.528,4.274,4.428,34.0
47.664,4.291,4.163,8.0
47.707,4.299,3.894,8.0
66.124,5.964,5.02,34.0
41.408,3.754,4.303,10.0
48.012,4.356,4.714,22.0
47.631,4.325,4.403,24.0
47.715,4.337,4.132,14.0
74.934,6.817,6.061,11.0
65.845,5.996,4.95,29.0
41.158,3.766,4.247,4.0
47.51,4.351,4.628,21.0
47.784,4.38,4.38,9.0
47.714,4.377,4.095,14.0
66.182,6.076,5.302,17.0
66.218,6.086,4.926,26.0
13.904,1.284,1.423,20.0
47.519,4.391,4.591,10.0
13.865,1.282,1.26,8.0
13.833,1.28,1.176,8.0
13.817,1.279,1.095,4.0
13.826,1.281,1.017,7.0
13.888,1.293,1.41,19.0
13.885,1.293,1.33,13.0
13.867,1.293,1.248,12.0
13.841,1.291,1.165,12.0
13.814,1.29,1.084,14.0
13.832,1.292,1.006,14.0
13.86,1.301,1.395,23.0
13.846,1.3,1.314,17.0
13.836,1.3,1.234,15.0
13.796,1.297,1.149,16.0
13.82,1.3,1.072,27.0
13.815,1.301,0.993,23.0
13.854,1.31,1.382,30.0
13.829,1.308,1.3,19.0
13.804,1.307,1.218,18.0
13.802,1.307,1.138,31.0
13.814,1.309,1.059,32.0
13.808,1.309,0.98,27.0
13.838,1.318,1.368,23.0
13.818,1.317,1.287,26.0
13.79,1.315,1.205,27.0
13.789,1.315,1.124,30.0
13.817,1.319,1.047,33.0
13.804,1.318,0.967,32.0
13.834,1.327,1.355,32.0
13.818,1.325,1.274,31.0
13.794,1.324,1.192,32.0
13.784,1.323,1.11,35.0
13.796,1.325,1.032,28.0
13.791,1.325,0.953,33.0
13.825,1.334,1.341,36.0
13.804,1.332,1.259,35.0
13.793,1.332,1.178,35.0
13.781,1.331,1.096,34.0
13.783,1.332,1.017,28.0
13.783,1.333,0.939,34.0
13.82,1.341,1.326,39.0
13.798,1.34,1.244,48.0
13.781,1.338,1.163,55.0
13.784,1.339,1.083,31.0
13.775,1.339,1.003,30.0
13.772,1.339,0.924,36.0
13.815,1.348,1.311,40.0
13.797,1.347,1.23,120.0
13.772,1.345,1.148,104.0
13.771,1.345,1.067,35.0
13.767,1.345,0.988,34.0
13.774,1.346,0.909,34.0
13.808,1.354,1.296,41.0
13.782,1.352,1.214,150.0
13.769,1.351,1.133,136.0
13.769,1.351,1.053,49.0
13.762,1.351,0.973,38.0
13.767,1.352,0.894,34.0
13.79,1.359,1.279,36.0
13.782,1.358,1.199,150.0
13.766,1.357,1.118,134.0
13.762,1.357,1.037,51.0
13.76,1.357,0.958,39.0
13.765,1.358,0.879,34.0
13.789,1.365,1.264,41.0
13.774,1.363,1.183,150.0
13.762,1.362,1.102,75.0
13.755,1.362,1.021,33.0
13.765,1.363,0.943,52.0
13.761,1.363,0.864,34.0
13.787,1.37,1.248,43.0
13.77,1.368,1.167,150.0
13.761,1.367,1.087,73.0
13.741,1.365,1.005,28.0
13.763,1.368,0.927,39.0
13.77,1.368,0.849,36.0
13.784,1.374,1.232,98.0
13.772,1.373,1.151,144.0
13.757,1.371,1.071,127.0
13.737,1.369,0.989,26.0
13.761,1.372,0.911,38.0
13.77,1.373,0.833,38.0
13.78,1.377,1.216,109.0
13.767,1.376,1.135,150.0
13.761,1.375,1.055,104.0
13.752,1.374,0.974,33.0
13.763,1.375,0.895,65.0
13.771,1.376,0.817,47.0
13.772,1.38,1.199,78.0
13.756,1.378,1.118,150.0
13.757,1.378,1.038,34.0
13.746,1.377,0.957,38.0
13.764,1.379,0.879,66.0
13.777,1.38,0.8,39.0
13.77,1.383,1.182,41.0
13.757,1.381,1.101,148.0
13.729,1.378,1.02,22.0
13.753,1.38,0.941,79.0
13.766,1.381,0.862,44.0
13.775,1.382,0.784,39.0
13.766,1.385,1.165,40.0
13.758,1.384,1.084,133.0
13.72,1.379,1.002,25.0
13.747,1.382,0.923,43.0
13.773,1.384,0.846,92.0
13.767,1.383,0.766,38.0
13.765,1.386,1.147,40.0
13.76,1.385,1.067,109.0
13.74,1.383,0.986,32.0
13.754,1.384,0.907,77.0
13.769,1.385,0.828,115.0
13.765,1.385,0.749,38.0
13.755,1.386,1.129,52.0
13.765,1.387,1.05,51.0
13.746,1.384,0.969,37.0
13.756,1.385,0.889,92.0
13.775,1.386,0.811,100.0
13.778,1.387,0.732,38.0
13.753,1.387,1.111,84.0
13.753,1.386,1.032,32.0
13.759,1.386,0.953,122.0
13.754,1.385,0.872,53.0
13.777,1.387,0.794,95.0
13.765,1.385,0.714,39.0
13.75,1.386,1.093,64.0
13.737,1.384,1.013,24.0
13.759,1.386,0.935,111.0
13.754,1.385,0.854,52.0
13.779,1.387,0.776,96.0
13.764,1.385,0.696,38.0
13.754,1.386,1.076,58.0
13.747,1.384,0.996,31.0
13.758,1.385,0.917,134.0
13.763,1.385,0.837,104.0
13.776,1.385,0.758,101.0
13.771,1.384,0.679,38.0
13.759,1.385,1.058,39.0
13.753,1.384,0.978,36.0
13.754,1.383,0.899,150.0
13.768,1.384,0.819,119.0
13.776,1.384,0.74,96.0
13.765,1.382,0.66,37.0
13.751,1.382,1.039,33.0
13.772,1.383,0.961,106.0
13.765,1.382,0.881,129.0
13.771,1.382,0.801,102.0
13.78,1.382,0.722,95.0
13.763,1.38,0.642,35.0
13.747,1.379,1.02,23.0
13.768,1.38,0.942,138.0
13.77,1.38,0.863,114.0
13.772,1.379,0.782,81.0
13.779,1.379,0.703,85.0
13.767,1.377,0.624,33.0
13.745,1.376,1.002,27.0
13.77,1.377,0.924,68.0
13.771,1.376,0.845,150.0
13.77,1.375,0.764,91.0
13.77,1.374,0.684,76.0
13.765,1.373,0.605,32.0
13.749,1.373,0.983,34.0
13.763,1.373,0.905,150.0
13.772,1.373,0.826,150.0
13.774,1.372,0.745,87.0
13.768,1.37,0.666,56.0
13.765,1.369,0.586,34.0
13.758,1.369,0.965,51.0
13.769,1.369,0.887,97.0
13.774,1.368,0.807,150.0
13.774,1.367,0.727,77.0
13.774,1.366,0.648,62.0
13.776,1.365,0.569,37.0
13.771,1.365,0.947,45.0
13.779,1.365,0.868,79.0
13.785,1.364,0.79,140.0
13.777,1.362,0.708,77.0
13.779,1.361,0.629,38.0
13.785,1.361,0.55,36.0
13.773,1.36,0.929,40.0
13.789,1.36,0.85,86.0
13.784,1.358,0.771,137.0
13.779,1.357,0.689,46.0
13.774,1.355,0.61,37.0
13.787,1.355,0.531,35.0
13.785,1.355,0.911,39.0
13.799,1.355,0.832,89.0
13.786,1.352,0.752,128.0
13.774,1.349,0.67,39.0
13.781,1.349,0.591,36.0
13.791,1.349,0.513,35.0
13.784,1.348,0.892,40.0
13.794,1.347,0.813,108.0
13.791,1.345,0.733,132.0
13.783,1.343,0.652,38.0
13.792,1.343,0.573,37.0
13.803,1.343,0.494,34.0
13.795,1.341,0.873,38.0
13.804,1.34,0.794,81.0
13.79,1.338,0.714,50.0
13.788,1.336,0.633,36.0
13.794,1.335,0.554,36.0
13.81,1.335,0.475,34.0
13.804,1.334,0.855,38.0
13.805,1.332,0.775,52.0
13.799,1.33,0.695,39.0
13.796,1.328,0.615,34.0
13.807,1.328,0.536,35.0
13.807,1.327,0.457,33.0
13.81,1.326,0.836,38.0
13.804,1.323,0.756,37.0
13.797,1.321,0.676,35.0
13.809,1.321,0.596,35.0
13.82,1.32,0.517,34.0
13.822,1.319,0.438,33.0
13.818,1.317,0.817,32.0
13.811,1.315,0.738,30.0
13.804,1.312,0.658,32.0
13.818,1.312,0.578,31.0
13.83,1.311,0.499,33.0
13.825,1.309,0.419,32.0
13.814,1.307,0.799,22.0
13.806,1.304,0.719,20.0
13.806,1.302,0.639,23.0
13.815,1.302,0.559,24.0
13.845,1.303,0.481,30.0
13.838,1.3,0.401,30.0
13.834,1.298,0.781,10.0
13.824,1.295,0.701,10.0
13.824,1.293,0.621,25.0
13.839,1.293,0.541,14.0
13.845,1.292,0.462,24.0
13.841,1.289,0.382,25.0
13.852,1.288,0.763,4.0
13.838,1.285,0.683,4.0
13.868,1.286,0.604,10.0
13.837,1.281,0.522,5.0
13.853,1.281,0.443,13.0
13.854,1.279,0.364,14.0
114.691,10.573,6.164,33.0
103.208,9.498,4.954,20.0
114.755,10.545,4.848,25.0
114.778,10.53,4.179,27.0
13.857,1.269,0.425,5.0
31.35,2.867,0.782,2.0
114.743,10.475,6.012,38.0
103.285,9.413,4.819,11.0
114.857,10.45,4.7,23.0
115.104,10.456,4.039,15.0
31.248,2.834,0.917,10.0
31.421,2.845,0.742,1.0
104.75,9.465,5.348,5.0
109.447,9.871,4.96,8.0
115.658,10.413,4.578,9.0
120.484,10.828,4.066,13.0
31.222,2.801,0.875,26.0
31.285,2.802,0.698,6.0
103.221,9.226,5.134,10.0
115.116,10.27,5.065,6.0
120.637,10.742,4.616,49.0
31.224,2.775,1.012,8.0
31.21,2.769,0.833,156.0
31.224,2.766,0.655,59.0
103.198,9.118,4.997,22.0
115.206,10.16,4.918,7.0
120.626,10.617,4.458,52.0
31.175,2.738,0.97,23.0
31.154,2.731,0.791,43.0
31.167,2.728,0.613,41.0
106.352,9.283,5.011,10.0
120.544,10.5,4.988,13.0
120.622,10.485,4.3,37.0
31.161,2.703,0.929,102.0
31.136,2.696,0.75,40.0
31.147,2.692,0.572,42.0
106.304,9.16,4.871,9.0
34.268,2.947,1.373,3.0
31.153,2.673,1.07,27.0
31.111,2.664,0.888,177.0
31.131,2.661,0.71,36.0
31.135,2.656,0.533,44.0
34.287,2.915,1.527,78.0
34.269,2.908,1.33,51.0
31.105,2.633,1.029,170.0
31.144,2.631,0.85,164.0
31.118,2.623,0.671,41.0
31.144,2.62,0.494,56.0
74.61,6.256,3.229,9.0
31.17,2.607,1.171,155.0
31.117,2.597,0.991,40.0
31.135,2.593,0.81,62.0
31.117,2.586,0.632,37.0
31.132,2.582,0.455,59.0
74.524,6.158,3.134,24.0
31.113,2.565,1.13,182.0
31.114,2.559,0.952,29.0
31.114,2.553,0.771,43.0
31.143,2.549,0.594,61.0
31.132,2.543,0.417,58.0
31.391,2.554,1.28,3.0
31.163,2.529,1.093,150.0
31.166,2.523,0.915,163.0
31.143,2.515,0.734,54.0
31.144,2.509,0.556,62.0
31.145,2.503,0.379,52.0
31.192,2.497,1.234,155.0
31.152,2.487,1.055,15.0
31.127,2.479,0.877,176.0
31.14,2.474,0.696,57.0
31.15,2.468,0.519,56.0
31.164,2.463,0.341,36.0
31.158,2.452,1.196,172.0
31.133,2.444,1.017,35.0
31.169,2.44,0.841,166.0
31.154,2.432,0.659,56.0
31.167,2.427,0.482,44.0
31.239,2.427,0.306,23.0
31.159,2.409,1.159,179.0
31.149,2.402,0.981,37.0
31.16,2.396,0.804,46.0
31.191,2.392,0.624,55.0
31.221,2.387,0.447,25.0
31.428,2.397,0.271,2.0
31.173,2.366,1.123,168.0
31.188,2.36,0.946,71.0
31.193,2.354,0.768,45.0
31.24,2.351,0.589,40.0
31.33,2.351,0.412,28.0
66.543,4.98,0.498,150.0
66.519,4.953,2.322,30.0
31.261,2.321,0.913,154.0
31.341,2.319,0.737,2.0
103.752,7.656,1.841,29.0
74.724,5.498,0.901,7.0
0.0,0.0,0.0,0.0
157.34,11.483,5.318,21.0
31.323,2.278,0.88,9.0
114.381,8.296,2.565,44.0
139.636,10.096,2.324,53.0
74.568,5.376,0.818,11.0
55.183,3.966,0.291,28.0
157.781,11.277,5.161,30.0
114.857,8.182,3.105,42.0
114.416,8.125,2.443,30.0
114.641,8.114,1.785,9.0
74.434,5.251,0.736,29.0
54.444,3.829,0.229,28.0
157.941,11.044,4.998,49.0
114.604,7.986,2.975,37.0
114.65,7.961,2.325,17.0
113.655,7.864,1.648,3.0
74.057,5.108,0.654,39.0
47.17,3.242,0.149,13.0
158.006,10.797,4.835,45.0
114.639,7.807,2.857,42.0
139.634,9.474,2.688,17.0
113.596,7.679,1.531,5.0
73.73,4.966,0.575,20.0
0.0,0.0,0.0,0.0
158.078,10.546,4.675,48.0
114.583,7.616,2.74,53.0
139.644,9.246,2.547,29.0
81.002,5.344,1.01,5.0
58.405,3.839,0.397,11.0
46.081,3.018,0.053,14.0
158.163,10.294,4.522,37.0
114.826,7.443,2.632,21.0
139.589,9.012,2.409,37.0
78.196,5.03,0.899,9.0
58.25,3.732,0.34,7.0
41.851,2.671,0.007,32.0
157.986,10.018,4.365,12.0
33.452,2.112,0.735,1.0
33.438,2.103,0.545,19.0
33.47,2.097,0.353,151.0
33.47,2.088,0.164,156.0
33.393,2.075,-0.024,1.0
33.434,2.063,0.892,6.0
33.439,2.055,0.703,3.0
33.412,2.044,0.514,4.0
75.223,4.584,0.725,17.0
54.62,3.314,0.217,28.0
40.594,2.453,-0.067,47.0
157.303,9.437,4.057,8.0
162.242,9.689,3.267,6.0
106.436,6.329,1.542,16.0
74.424,4.406,0.651,27.0
54.182,3.193,0.168,6.0
40.357,2.368,-0.102,32.0
0.0,0.0,0.0,0.0
162.281,9.407,3.127,5.0
96.432,5.565,1.314,6.0
73.777,4.237,0.581,23.0
46.626,2.665,0.104,21.0
40.081,2.281,-0.136,4.0
163.22,9.216,3.928,15.0
105.947,5.953,1.952,15.0
94.48,5.283,1.208,7.0
73.487,4.088,0.517,13.0
0.0,0.0,0.0,0.0
36.215,1.995,-0.152,12.0
162.719,8.893,3.782,40.0
105.756,5.749,1.861,10.0
81.972,4.433,0.981,4.0
0.0,0.0,0.0,0.0
42.444,2.272,0.026,17.0
36.184,1.927,-0.181,12.0
162.559,8.585,3.648,14.0
105.834,5.558,1.779,19.0
78.518,4.101,0.877,14.0
55.286,2.872,0.301,11.0
41.857,2.163,-0.006,17.0
35.933,1.846,-0.208,29.0
167.142,8.515,3.624,15.0
105.677,5.352,1.697,2.0
77.853,3.92,0.812,23.0
54.744,2.741,0.258,29.0
41.15,2.048,-0.037,27.0
35.785,1.772,-0.233,20.0
0.0,0.0,0.0,0.0
0.0,0.0,0.0,0.0
77.334,3.749,0.751,35.0
54.424,2.623,0.217,28.0
40.779,1.953,-0.065,48.0
35.69,1.699,-0.257,8.0
0.0,0.0,0.0,0.0
105.83,4.959,1.55,4.0
0.0,0.0,0.0,0.0
54.175,2.507,0.179,25.0
40.471,1.86,-0.092,46.0
35.712,1.632,-0.282,6.0
0.0,0.0,0.0,0.0
96.288,4.326,1.346,2.0
0.0,0.0,0.0,0.0
54.033,2.396,0.144,10.0
39.945,1.759,-0.117,51.0
35.667,1.56,-0.304,8.0
0.0,0.0,0.0,0.0
96.387,4.142,1.287,2.0
73.793,3.148,0.571,11.0
48.442,2.052,0.099,24.0
39.958,1.68,-0.141,39.0
35.769,1.494,-0.327,1.0
0.0,0.0,0.0,0.0
93.661,3.84,1.194,5.0
73.824,3.004,0.528,10.0
47.913,1.935,0.07,25.0
39.748,1.593,-0.163,2.0
33.085,1.316,-0.321,1.0
0.0,0.0,0.0,0.0
93.135,3.633,1.135,9.0
73.964,2.862,0.488,11.0
47.358,1.818,0.043,23.0
39.36,1.499,-0.183,2.0
32.57,1.23,-0.334,1.0
0.0,0.0,0.0,0.0
79.781,2.953,0.931,6.0
59.473,2.182,0.361,29.0
46.805,1.702,0.018,22.0
36.544,1.317,-0.189,32.0
31.899,1.14,-0.343,1.0
0.0,0.0,0.0,0.0
78.485,2.745,0.877,10.0
59.166,2.051,0.331,33.0
47.005,1.614,-0.003,21.0
36.563,1.244,-0.206,29.0
31.415,1.058,-0.352,1.0
0.0,0.0,0.0,0.0
78.55,2.587,0.842,19.0
59.082,1.926,0.304,32.0
46.563,1.503,-0.024,20.0
36.6,1.169,-0.223,23.0
31.179,0.986,-0.363,1.0
0.0,0.0,0.0,0.0
78.147,2.413,0.804,18.0
58.914,1.799,0.278,24.0
40.94,1.236,-0.038,16.0
36.598,1.093,-0.237,17.0
30.938,0.915,-0.373,2.0
0.0,0.0,0.0,0.0
78.06,2.249,0.773,39.0
58.88,1.677,0.256,12.0
0.0,0.0,0.0,0.0
36.593,1.017,-0.251,12.0
30.728,0.845,-0.381,2.0
106.139,2.871,1.604,9.0
77.976,2.084,0.745,39.0
55.046,1.453,0.22,9.0
42.783,1.115,-0.07,8.0
36.611,0.942,-0.263,11.0
30.504,0.774,-0.389,2.0
106.116,2.65,1.57,17.0
77.916,1.919,0.72,35.0
54.574,1.326,0.201,10.0
39.731,0.952,-0.077,15.0
36.649,0.866,-0.274,8.0
30.386,0.708,-0.396,2.0
106.173,2.427,1.54,5.0
77.911,1.755,0.698,33.0
57.816,1.283,0.198,6.0
39.603,0.865,-0.087,31.0
36.706,0.79,-0.284,7.0
30.137,0.638,-0.4,2.0
0.0,0.0,0.0,0.0
77.882,1.59,0.679,25.0
57.498,1.155,0.183,8.0
39.548,0.78,-0.096,35.0
36.764,0.713,-0.293,12.0
30.002,0.572,-0.405,2.0
126.207,2.352,1.774,21.0
77.802,1.423,0.663,20.0
0.0,0.0,0.0,0.0
39.466,0.695,-0.104,34.0
36.922,0.637,-0.301,5.0
29.854,0.504,-0.408,2.0
126.308,2.085,1.753,24.0
0.0,0.0,0.0,0.0
48.076,0.76,0.136,16.0
39.316,0.608,-0.109,35.0
37.027,0.559,-0.307,3.0
29.816,0.44,-0.412,2.0
126.303,1.817,1.736,22.0
0.0,0.0,0.0,0.0
48.01,0.657,0.13,60.0
39.266,0.523,-0.114,40.0
37.063,0.481,-0.312,3.0
29.708,0.375,-0.414,2.0
48.151,0.589,0.657,68.0
48.085,0.572,0.391,77.0
47.99,0.554,0.126,70.0
39.26,0.439,-0.117,41.0
37.286,0.404,-0.316,2.0
29.672,0.311,-0.415,2.0
48.095,0.486,0.653,110.0
48.05,0.469,0.388,103.0
47.995,0.451,0.123,77.0
39.408,0.357,-0.119,38.0
37.235,0.325,-0.317,1.0
29.722,0.248,-0.417,2.0
48.084,0.384,0.652,111.0
48.09,0.367,0.387,62.0
48.066,0.35,0.123,46.0
39.538,0.274,-0.119,32.0
37.606,0.248,-0.32,1.0
29.746,0.185,-0.417,2.0
59.293,0.346,0.805,7.0
59.307,0.326,0.479,96.0
54.667,0.281,0.141,37.0
39.889,0.191,-0.119,27.0
37.717,0.168,-0.32,10.0
29.685,0.121,-0.415,1.0
79.472,0.294,1.083,151.0
76.972,0.259,0.626,29.0
54.469,0.163,0.144,29.0
40.224,0.106,-0.117,16.0
37.637,0.086,-0.316,1.0
29.708,0.057,-0.412,2.0
79.461,0.124,1.09,151.0
79.381,0.095,0.653,32.0
54.778,0.047,0.151,25.0
40.677,0.02,-0.114,17.0
38.31,0.005,-0.318,1.0
29.77,-0.005,-0.41,2.0
79.463,-0.044,1.1,151.0
79.361,-0.073,0.664,83.0
0.0,0.0,0.0,0.0
41.455,-0.068,-0.11,19.0
37.042,-0.074,-0.301,1.0
29.849,-0.07,-0.406,2.0
79.465,-0.215,1.113,151.0
79.391,-0.244,0.678,150.0
55.975,-0.192,0.171,27.0
42.076,-0.158,-0.104,10.0
37.051,-0.153,-0.294,1.0
29.993,-0.135,-0.402,2.0
79.455,-0.386,1.129,155.0
79.442,-0.414,0.694,150.0
56.087,-0.312,0.184,9.0
0.0,0.0,0.0,0.0
39.582,-0.249,-0.306,2.0
30.166,-0.201,-0.397,1.0
79.444,-0.555,1.148,171.0
79.451,-0.584,0.714,150.0
60.986,-0.47,0.215,6.0
50.041,-0.404,-0.1,5.0
42.166,-0.355,-0.314,0.0
30.349,-0.266,-0.392,2.0
79.442,-0.724,1.169,187.0
79.465,-0.752,0.736,151.0
57.921,-0.57,0.221,0.0
54.365,-0.553,-0.093,8.0
38.537,-0.406,-0.276,7.0
30.543,-0.333,-0.385,2.0
79.419,-0.891,1.194,255.0
79.494,-0.921,0.762,4.0
0.0,0.0,0.0,0.0
54.497,-0.67,-0.075,4.0
42.118,-0.533,-0.287,1.0
30.903,-0.402,-0.379,1.0
86.937,-1.158,1.337,19.0
123.547,-1.691,1.228,9.0
0.0,0.0,0.0,0.0
53.506,-0.771,-0.054,0.0
0.0,0.0,0.0,0.0
31.336,-0.474,-0.372,1.0
205.353,-3.171,3.238,102.0
123.88,-1.956,1.28,13.0
40.302,-0.651,0.197,17.0
40.306,-0.665,-0.024,45.0
40.223,-0.679,-0.243,15.0
31.69,-0.547,-0.363,1.0
40.168,-0.704,0.65,10.0
40.241,-0.72,0.433,43.0
40.263,-0.735,0.215,50.0
40.293,-0.75,-0.007,52.0
40.23,-0.763,-0.225,2.0
32.668,-0.631,-0.359,1.0
40.256,-0.789,0.67,53.0
40.237,-0.803,0.451,40.0
0.0,0.0,0.0,0.0
0.0,0.0,0.0,0.0
40.284,-0.848,-0.206,0.0
33.044,-0.707,-0.347,1.0
40.246,-0.873,0.69,44.0
40.301,-0.889,0.472,20.0
40.304,-0.902,0.254,150.0
40.282,-0.917,0.032,57.0
40.296,-0.931,-0.185,140.0
33.49,-0.786,-0.334,0.0
40.213,-0.955,0.71,71.0
40.227,-0.969,0.493,49.0
40.231,-0.984,0.276,5.0
0.0,0.0,0.0,0.0
40.997,-1.032,-0.165,151.0
33.937,-0.866,-0.32,0.0
40.216,-1.037,0.733,57.0
40.209,-1.051,0.516,54.0
40.174,-1.064,0.298,60.0
40.178,-1.079,0.078,58.0
40.573,-1.104,-0.139,83.0
0.0,0.0,0.0,0.0
129.312,-3.598,2.436,78.0
129.116,-3.639,1.736,29.0
40.242,-1.148,0.324,3.0
40.214,-1.161,0.102,31.0
40.229,-1.176,-0.113,43.0
40.156,-1.188,-0.329,0.0
40.328,-1.203,0.785,25.0
40.342,-1.217,0.568,36.0
0.0,0.0,0.0,0.0
0.0,0.0,0.0,0.0
0.0,0.0,0.0,0.0
40.222,-1.27,-0.303,3.0
129.326,-4.115,2.604,25.0
129.264,-4.158,1.907,8.0
0.0,0.0,0.0,0.0
0.0,0.0,0.0,0.0
0.0,0.0,0.0,0.0
40.141,-1.348,-0.275,0.0
0.0,0.0,0.0,0.0
0.0,0.0,0.0,0.0
126.372,-4.36,1.275,2.0
0.0,0.0,0.0,0.0
55.17,-1.942,-0.041,0.0
40.125,-1.425,-0.245,7.0
0.0,0.0,0.0,0.0
0.0,0.0,0.0,0.0
0.0,0.0,0.0,0.0
0.0,0.0,0.0,0.0
40.146,-1.49,0.0,4.0
40.122,-1.503,-0.215,150.0
0.0,0.0,0.0,0.0
0.0,0.0,0.0,0.0
0.0,0.0,0.0,0.0
0.0,0.0,0.0,0.0
0.0,0.0,0.0,0.0
37.783,-1.488,-0.172,164.0
0.0,0.0,0.0,0.0
0.0,0.0,0.0,0.0
0.0,0.0,0.0,0.0
0.0,0.0,0.0,0.0
0.0,0.0,0.0,0.0
50.447,-2.083,-0.188,0.0
0.0,0.0,0.0,0.0
0.0,0.0,0.0,0.0
0.0,0.0,0.0,0.0
0.0,0.0,0.0,0.0
50.484,-2.179,-0.145,2.0
0.0,0.0,0.0,0.0
0.0,0.0,0.0,0.0
0.0,0.0,0.0,0.0
0.0,0.0,0.0,0.0
0.0,0.0,0.0,0.0
50.427,-2.271,-0.1,2.0
0.0,0.0,0.0,0.0
0.0,0.0,0.0,0.0
0.0,0.0,0.0,0.0
0.0,0.0,0.0,0.0
0.0,0.0,0.0,0.0
50.58,-2.369,-0.054,1.0
0.0,0.0,0.0,0.0
0.0,0.0,0.0,0.0
0.0,0.0,0.0,0.0
0.0,0.0,0.0,0.0
59.856,-2.912,-0.007,1.0
0.0,0.0,0.0,0.0
0.0,0.0,0.0,0.0
0.0,0.0,0.0,0.0
0.0,0.0,0.0,0.0
59.773,-3.013,0.05,3.0
0.0,0.0,0.0,0.0
0.0,0.0,0.0,0.0
0.0,0.0,0.0,0.0
62.555,-3.262,0.115,6.0
0.0,0.0,0.0,0.0
0.0,0.0,0.0,0.0
0.0,0.0,0.0,0.0
0.0,0.0,0.0,0.0
0.0,0.0,0.0,0.0
0.0,0.0,0.0,0.0
0.0,0.0,0.0,0.0
228.053,-12.527,3.318,36.0
0.0,0.0,0.0,0.0
0.0,0.0,0.0,0.0
278.792,-15.53,8.831,17.0
0.0,0.0,0.0,0.0
0.0,0.0,0.0,0.0
227.996,-12.902,3.561,31.0
0.0,0.0,0.0,0.0
0.0,0.0,0.0,0.0
0.0,0.0,0.0,0.0
271.718,-15.661,7.456,150.0
271.746,-15.744,6.014,23.0
0.0,0.0,0.0,0.0
0.0,0.0,0.0,0.0
0.0,0.0,0.0,0.0
244.286,-14.407,8.273,13.0
272.097,-16.123,7.771,73.0
272.028,-16.198,6.326,76.0
0.0,0.0,0.0,0.0
0.0,0.0,0.0,0.0
0.0,0.0,0.0,0.0
228.358,-13.831,7.994,27.0
271.739,-16.533,8.069,15.0
263.439,-16.103,6.426,39.0
0.0,0.0,0.0,0.0
187.326,-11.556,2.564,20.0
0.0,0.0,0.0,0.0
212.973,-13.229,7.702,21.0
208.913,-13.033,6.446,26.0
248.33,-15.562,6.346,151.0
265.273,-16.696,5.349,10.0
187.107,-11.828,2.781,17.0
0.0,0.0,0.0,0.0
208.558,-13.271,7.788,28.0
212.301,-13.567,6.803,17.0
248.356,-15.939,6.644,255.0
248.29,-15.999,5.301,17.0
187.204,-12.113,3.005,151.0
0.0,0.0,0.0,0.0
205.322,-13.369,7.912,22.0
208.827,-13.651,6.94,32.0
236.975,-15.551,6.622,15.0
237.173,-15.627,5.347,34.0
187.207,-12.384,3.229,151.0
0.0,0.0,0.0,0.0
205.188,-13.656,8.156,17.0
208.193,-13.91,7.174,29.0
208.81,-14.003,6.091,35.0
228.541,-15.384,5.433,67.0
187.078,-12.643,3.459,15.0
0.0,0.0,0.0,0.0
197.705,-13.442,8.107,7.0
203.86,-13.909,7.28,23.0
208.409,-14.271,6.341,24.0
212.787,-14.625,5.328,79.0
212.982,-14.694,4.209,18.0
0.0,0.0,0.0,0.0
196.638,-13.642,8.314,19.0
209.161,-14.562,7.737,7.0
204.537,-14.289,6.483,29.0
231.747,-16.245,6.099,8.0
213.047,-14.987,4.483,15.0
0.0,0.0,0.0,0.0
164.478,-11.633,7.166,34.0
195.065,-13.842,7.468,21.0
208.284,-14.828,6.872,17.0
204.861,-14.634,5.657,63.0
204.919,-14.684,4.576,66.0
0.0,0.0,0.0,0.0
156.488,-11.273,7.02,9.0
164.463,-11.884,6.51,14.0
195.361,-14.16,6.699,45.0
196.379,-14.279,5.677,9.0
292.028,-21.299,6.903,19.0
0.0,0.0,0.0,0.0
157.823,-11.57,7.288,8.0
197.379,-14.513,8.072,22.0
205.112,-15.125,7.306,13.0
196.516,-14.535,5.944,41.0
196.927,-14.608,4.914,15.0
197.157,-14.668,3.882,6.0
158.025,-11.779,7.507,25.0
163.791,-12.242,6.915,18.0
164.388,-12.32,6.073,31.0
196.099,-14.74,6.191,12.0
196.861,-14.839,5.176,66.0
197.008,-14.891,4.141,53.0
149.354,-11.31,7.296,9.0
165.467,-12.564,7.21,24.0
205.583,-15.65,7.872,18.0
196.25,-14.98,6.461,44.0
213.439,-16.337,5.902,29.0
291.465,-22.37,6.523,26.0
155.86,-11.983,7.827,6.0
150.3,-11.584,6.753,5.0
195.347,-15.094,7.745,20.0
196.715,-15.237,6.744,28.0
213.046,-16.545,6.182,10.0
250.747,-19.525,5.956,32.0
163.328,-12.741,8.428,6.0
149.534,-11.691,6.926,8.0
157.558,-12.348,6.466,38.0
156.816,-12.319,5.592,40.0
213.413,-16.805,6.488,8.0
214.863,-16.96,5.4,19.0
149.739,-11.842,7.934,4.0
149.666,-11.86,7.139,14.0
163.584,-12.993,6.94,22.0
196.921,-15.677,7.298,39.0
164.645,-13.137,5.233,50.0
204.581,-16.362,5.426,17.0
108.742,-8.711,5.913,4.0
158.639,-12.735,7.788,16.0
150.118,-12.077,6.578,24.0
158.009,-12.738,6.076,35.0
157.159,-12.697,5.216,21.0
203.33,-16.463,5.677,8.0
150.896,-12.238,8.417,16.0
150.72,-12.248,7.612,27.0
150.289,-12.237,6.798,32.0
156.199,-12.742,6.226,17.0
157.564,-12.88,5.449,28.0
165.054,-13.52,4.839,22.0
108.57,-8.908,6.21,5.0
148.355,-12.195,7.701,4.0
0.0,0.0,0.0,0.0
149.959,-12.371,6.187,43.0
164.002,-13.556,5.904,21.0
157.502,-13.044,4.84,27.0
108.489,-8.999,6.358,4.0
106.647,-8.862,5.687,2.0
0.0,0.0,0.0,0.0
166.71,-13.9,7.113,18.0
150.011,-12.53,5.611,32.0
157.579,-13.186,5.066,34.0
122.704,-10.285,7.366,11.0
106.427,-8.935,5.827,4.0
148.466,-12.484,7.346,9.0
166.865,-14.054,7.359,18.0
157.989,-13.329,6.136,29.0
157.454,-13.305,5.288,13.0
115.451,-9.773,7.097,3.0
108.455,-9.193,6.094,10.0
148.543,-12.61,7.563,15.0
158.533,-13.479,7.218,29.0
158.173,-13.467,6.368,5.0
157.127,-13.399,5.5,38.0
115.66,-9.881,7.276,16.0
122.477,-10.477,7.057,10.0
106.516,-9.124,5.576,2.0
158.647,-13.608,7.453,12.0
205.007,-17.61,8.549,16.0
149.858,-12.891,5.461,36.0
114.521,-9.868,7.37,4.0
124.588,-10.749,7.36,4.0
106.396,-9.19,5.723,4.0
148.495,-12.843,7.19,27.0
166.086,-14.383,7.165,22.0
158.143,-13.711,5.989,14.0
99.418,-8.636,6.541,3.0
115.343,-10.03,6.979,6.0
108.459,-9.441,5.989,8.0
150.229,-13.092,7.488,9.0
166.014,-14.485,7.4,38.0
158.206,-13.821,6.22,42.0
87.184,-7.63,5.863,5.0
105.989,-9.285,6.566,8.0
122.333,-10.726,6.933,13.0
149.988,-13.165,7.694,8.0
148.496,-13.048,6.835,43.0
158.286,-13.924,6.45,30.0
98.353,-8.668,6.757,7.0
106.097,-9.358,6.728,16.0
150.211,-13.261,8.73,12.0
115.708,-10.224,6.103,9.0
154.932,-13.702,7.354,3.0
148.542,-13.15,6.268,35.0
97.823,-8.676,6.862,13.0
108.437,-9.625,7.033,7.0
115.243,-10.236,6.865,16.0
122.443,-10.885,6.634,5.0
108.613,-9.663,5.312,4.0
150.445,-13.397,6.565,21.0
97.74,-8.72,6.998,6.0
87.156,-7.78,5.779,4.0
105.989,-9.468,6.467,9.0
122.415,-10.943,6.811,18.0
106.325,-9.511,5.354,8.0
145.635,-13.038,6.566,2.0
98.016,-8.792,7.159,9.0
98.722,-8.859,6.688,7.0
106.146,-9.531,6.629,13.0
122.239,-10.982,6.975,15.0
106.439,-9.568,5.51,9.0
146.961,-13.219,6.832,4.0
84.721,-7.635,6.31,8.0
82.054,-7.398,5.676,4.0
106.075,-9.568,6.775,9.0
115.294,-10.405,6.743,11.0
122.503,-11.061,6.518,14.0
147.092,-13.288,7.049,12.0
84.721,-7.668,6.432,21.0
97.941,-8.867,6.916,12.0
87.0,-7.879,5.682,5.0
106.011,-9.605,6.351,4.0
122.444,-11.099,6.688,29.0
147.302,-13.357,7.269,7.0
84.791,-7.704,6.558,6.0
98.241,-8.928,7.076,10.0
98.497,-8.953,6.572,7.0
106.027,-9.64,6.501,10.0
124.196,-11.296,6.958,15.0
106.39,-9.678,5.398,8.0
104.998,-9.571,8.268,7.0
99.819,-9.1,7.329,5.0
98.75,-9.003,6.728,6.0
106.107,-9.676,6.655,25.0
115.278,-10.515,6.62,25.0
122.578,-11.182,6.391,23.0
97.059,-8.872,7.781,5.0
84.711,-7.744,6.34,6.0
97.784,-8.938,6.799,5.0
106.14,-9.703,6.806,6.0
115.337,-10.545,6.785,15.0
146.96,-13.437,7.867,16.0
99.868,-9.15,8.146,13.0
84.733,-7.763,6.46,11.0
84.176,-7.711,5.971,8.0
100.108,-9.17,6.558,5.0
106.085,-9.718,6.386,10.0
124.074,-11.366,6.812,3.0
84.489,-7.755,7.009,4.0
84.187,-7.726,6.536,11.0
86.933,-7.977,6.286,2.0
98.601,-9.046,6.595,8.0
106.188,-9.741,6.54,21.0
115.331,-10.579,6.492,31.0
95.819,-8.808,8.081,8.0
83.965,-7.715,6.634,9.0
86.996,-7.992,6.41,2.0
86.383,-7.933,5.896,7.0
106.212,-9.753,6.686,12.0
115.309,-10.586,6.647,21.0
98.798,-9.09,8.469,15.0
97.084,-8.928,7.804,10.0
84.729,-7.789,6.359,9.0
98.068,-9.012,6.827,6.0
99.963,-9.184,6.428,7.0
105.652,-9.703,6.233,16.0
98.8,-9.093,8.603,7.0
97.109,-8.933,7.938,7.0
84.693,-7.788,6.47,10.0
98.228,-9.028,6.971,8.0
86.665,-7.962,5.689,2.0
106.209,-9.754,6.408,18.0
95.681,-8.805,8.461,12.0
84.558,-7.777,7.024,9.0
84.011,-7.723,6.529,7.0
86.908,-7.984,6.282,3.0
98.621,-9.057,6.603,7.0
106.169,-9.745,6.544,19.0
95.685,-8.802,8.587,14.0
95.782,-8.804,8.084,11.0
83.953,-7.712,6.636,9.0
86.976,-7.985,6.402,3.0
86.445,-7.931,5.902,4.0
106.17,-9.735,6.683,16.0
95.614,-8.787,8.706,6.0
95.82,-8.799,8.211,12.0
99.881,-9.164,8.025,6.0
84.706,-7.766,6.344,7.0
84.342,-7.727,5.867,4.0
106.198,-9.724,6.821,5.0
83.407,-7.653,7.703,9.0
98.79,-9.057,8.594,7.0
99.882,-9.15,8.153,14.0
84.717,-7.753,6.453,10.0
98.103,-8.972,6.949,7.0
100.161,-9.153,6.56,4.0
83.29,-7.628,7.798,7.0
96.426,-8.822,8.511,9.0
99.892,-9.131,8.28,15.0
105.029,-9.592,8.133,4.0
98.33,-8.972,7.088,5.0
98.524,-8.982,6.575,8.0
98.212,-8.974,9.319,2.0
84.57,-7.718,7.57,8.0
85.845,-7.827,7.223,8.0
105.232,-9.585,8.278,12.0
84.33,-7.674,6.182,4.0
98.725,-8.975,6.71,5.0
98.369,-8.962,9.455,8.0
84.514,-7.691,7.668,4.0
97.484,-8.862,8.32,3.0
85.661,-7.778,6.843,4.0
84.673,-7.68,6.31,8.0
86.387,-7.828,5.974,5.0
98.363,-8.932,9.575,6.0
98.751,-8.956,9.079,7.0
96.077,-8.703,8.316,5.0
105.071,-9.507,8.519,10.0
84.742,-7.658,6.416,34.0
97.881,-8.836,6.886,8.0
98.686,-8.929,9.723,18.0
83.242,-7.521,7.752,6.0
85.345,-7.701,7.487,4.0
96.952,-8.737,7.974,7.0
84.744,-7.628,6.513,17.0
97.905,-8.801,7.0,6.0
0.0,0.0,0.0,0.0
83.375,-7.501,7.86,9.0
84.618,-7.602,7.52,14.0
96.918,-8.695,8.081,8.0
85.02,-7.618,6.631,7.0
99.837,-8.933,7.251,2.0
98.589,-8.841,9.94,7.0
98.491,-8.82,9.396,8.0
99.717,-8.915,8.974,16.0
85.613,-7.643,7.233,6.0
85.184,-7.594,6.738,12.0
106.567,-9.487,7.856,7.0
83.833,-7.48,8.545,5.0
98.512,-8.775,9.508,8.0
99.792,-8.875,9.091,13.0
96.896,-8.604,8.293,9.0
105.541,-9.357,8.464,13.0
97.678,-8.648,7.306,5.0
99.189,-8.801,10.219,3.0
98.584,-8.731,9.622,7.0
107.612,-9.516,9.919,6.0
96.369,-8.507,8.351,2.0
105.896,-9.333,8.604,4.0
84.602,-7.445,6.417,9.0
97.626,-8.61,10.161,1.0
99.48,-8.758,9.813,9.0
85.363,-7.501,7.957,4.0
107.706,-9.449,9.445,3.0
110.203,-9.651,9.068,2.0
84.579,-7.395,6.502,7.0
81.325,-7.126,8.548,1.0
84.85,-7.421,8.457,6.0
85.396,-7.454,8.047,5.0
96.651,-8.422,8.573,9.0
115.415,-10.04,9.611,16.0
105.895,-9.194,8.246,14.0
0.0,0.0,0.0,0.0
84.792,-7.364,8.535,7.0
96.594,-8.372,9.198,4.0
83.741,-7.244,7.509,3.0
105.752,-9.131,8.909,6.0
105.98,-9.135,8.353,16.0
84.056,-7.26,9.001,2.0
98.94,-8.528,10.054,12.0
99.64,-8.571,9.582,8.0
105.673,-9.072,9.576,14.0
105.662,-9.054,9.0,7.0
84.675,-7.242,6.753,16.0
84.056,-7.204,9.08,3.0
84.785,-7.25,8.695,6.0
108.019,-9.218,10.487,11.0
97.101,-8.268,8.888,3.0
106.648,-9.063,9.182,16.0
97.568,-8.274,7.87,13.0
0.0,0.0,0.0,0.0
83.911,-7.115,8.68,3.0
99.446,-8.414,9.744,8.0
83.86,-7.08,7.75,3.0
106.249,-8.951,9.24,12.0
84.749,-7.124,6.909,11.0
0.0,0.0,0.0,0.0
105.542,-8.871,11.01,4.0
99.208,-8.319,9.806,8.0
106.648,-8.923,9.947,2.0
106.115,-8.859,9.317,5.0
84.88,-7.071,6.99,15.0
0.0,0.0,0.0,0.0
0.0,0.0,0.0,0.0
106.19,-8.822,10.582,7.0
106.563,-8.832,10.025,5.0
98.177,-8.119,8.699,1.0
84.711,-6.988,7.044,9.0
0.0,0.0,0.0,0.0
99.704,-8.222,10.563,5.0
100.199,-8.242,10.064,2.0
106.666,-8.753,10.117,2.0
105.335,-8.623,9.414,11.0
109.533,-8.946,9.191,4.0
0.0,0.0,0.0,0.0
0.0,0.0,0.0,0.0
0.0,0.0,0.0,0.0
0.0,0.0,0.0,0.0
107.75,-8.728,9.71,4.0
107.675,-8.701,9.114,12.0
0.0,0.0,0.0,0.0
0.0,0.0,0.0,0.0
0.0,0.0,0.0,0.0
0.0,0.0,0.0,0.0
98.31,-7.875,8.929,1.0
107.788,-8.614,9.198,2.0
0.0,0.0,0.0,0.0
0.0,0.0,0.0,0.0
0.0,0.0,0.0,0.0
0.0,0.0,0.0,0.0
105.414,-8.348,9.644,1.0
107.095,-8.459,9.21,3.0
0.0,0.0,0.0,0.0
0.0,0.0,0.0,0.0
0.0,0.0,0.0,0.0
0.0,0.0,0.0,0.0
0.0,0.0,0.0,0.0
106.003,-8.271,9.182,9.0
0.0,0.0,0.0,0.0
0.0,0.0,0.0,0.0
0.0,0.0,0.0,0.0
0.0,0.0,0.0,0.0
0.0,0.0,0.0,0.0
106.026,-8.17,9.246,5.0
0.0,0.0,0.0,0.0
0.0,0.0,0.0,0.0
0.0,0.0,0.0,0.0
0.0,0.0,0.0,0.0
0.0,0.0,0.0,0.0
108.478,-8.25,9.519,2.0
0.0,0.0,0.0,0.0
0.0,0.0,0.0,0.0
0.0,0.0,0.0,0.0
0.0,0.0,0.0,0.0
0.0,0.0,0.0,0.0
0.0,0.0,0.0,0.0
0.0,0.0,0.0,0.0
0.0,0.0,0.0,0.0
0.0,0.0,0.0,0.0
0.0,0.0,0.0,0.0
0.0,0.0,0.0,0.0
108.582,-8.032,9.634,2.0
0.0,0.0,0.0,0.0
0.0,0.0,0.0,0.0
0.0,0.0,0.0,0.0
0.0,0.0,0.0,0.0
0.0,0.0,0.0,0.0
0.0,0.0,0.0,0.0
0.0,0.0,0.0,0.0
0.0,0.0,0.0,0.0
0.0,0.0,0.0,0.0
0.0,0.0,0.0,0.0
0.0,0.0,0.0,0.0
0.0,0.0,0.0,0.0
0.0,0.0,0.0,0.0
0.0,0.0,0.0,0.0
0.0,0.0,0.0,0.0
0.0,0.0,0.0,0.0
0.0,0.0,0.0,0.0
0.0,0.0,0.0,0.0
0.0,0.0,0.0,0.0
0.0,0.0,0.0,0.0
0.0,0.0,0.0,0.0
0.0,0.0,0.0,0.0
0.0,0.0,0.0,0.0
0.0,0.0,0.0,0.0
0.0,0.0,0.0,0.0
0.0,0.0,0.0,0.0
0.0,0.0,0.0,0.0
0.0,0.0,0.0,0.0
0.0,0.0,0.0,0.0
0.0,0.0,0.0,0.0
0.0,0.0,0.0,0.0
0.0,0.0,0.0,0.0
0.0,0.0,0.0,0.0
0.0,0.0,0.0,0.0
0.0,0.0,0.0,0.0
0.0,0.0,0.0,0.0
0.0,0.0,0.0,0.0
0.0,0.0,0.0,0.0
0.0,0.0,0.0,0.0
0.0,0.0,0.0,0.0
0.0,0.0,0.0,0.0
0.0,0.0,0.0,0.0
0.0,0.0,0.0,0.0
0.0,0.0,0.0,0.0
0.0,0.0,0.0,0.0
0.0,0.0,0.0,0.0
0.0,0.0,0.0,0.0
0.0,0.0,0.0,0.0
49.205,-3.187,5.87,1.0
49.253,-3.178,5.597,1.0
0.0,0.0,0.0,0.0
0.0,0.0,0.0,0.0
0.0,0.0,0.0,0.0
0.0,0.0,0.0,0.0
49.144,-3.122,5.866,5.0
49.259,-3.117,5.602,2.0
0.0,0.0,0.0,0.0
0.0,0.0,0.0,0.0
0.0,0.0,0.0,0.0
0.0,0.0,0.0,0.0
49.122,-3.059,5.866,7.0
49.256,-3.055,5.603,2.0
0.0,0.0,0.0,0.0
0.0,0.0,0.0,0.0
0.0,0.0,0.0,0.0
0.0,0.0,0.0,0.0
48.763,-2.975,5.823,23.0
0.0,0.0,0.0,0.0
0.0,0.0,0.0,0.0
0.0,0.0,0.0,0.0
0.0,0.0,0.0,0.0
0.0,0.0,0.0,0.0
48.666,-2.907,5.809,24.0
0.0,0.0,0.0,0.0
0.0,0.0,0.0,0.0
0.0,0.0,0.0,0.0
0.0,0.0,0.0,0.0
0.0,0.0,0.0,0.0
48.806,-2.852,5.821,23.0
50.221,-2.921,5.704,0.0
0.0,0.0,0.0,0.0
0.0,0.0,0.0,0.0
0.0,0.0,0.0,0.0
0.0,0.0,0.0,0.0
48.869,-2.792,5.821,24.0
50.292,-2.86,5.705,0.0
0.0,0.0,0.0,0.0
56.535,-3.188,5.765,2.0
0.0,0.0,0.0,0.0
0.0,0.0,0.0,0.0
49.129,-2.743,5.843,20.0
50.254,-2.793,5.69,1.0
49.419,-2.733,5.315,1.0
56.522,-3.112,5.752,1.0
56.879,-3.118,5.466,4.0
92.36,-5.041,8.354,4.0
48.981,-2.67,5.814,23.0
50.255,-2.727,5.679,4.0
49.479,-2.672,5.309,3.0
0.0,0.0,0.0,0.0
56.746,-3.036,5.438,0.0
92.293,-4.916,8.322,1.0
0.0,0.0,0.0,0.0
50.205,-2.657,5.659,6.0
55.328,-2.914,5.921,3.0
0.0,0.0,0.0,0.0
56.634,-2.955,5.41,6.0
90.707,-4.711,8.151,2.0
0.0,0.0,0.0,0.0
50.228,-2.592,5.644,5.0
49.494,-2.541,5.279,4.0
92.799,-4.742,9.361,6.0
56.611,-2.879,5.388,4.0
90.767,-4.594,8.124,4.0
47.618,-2.406,5.606,4.0
50.146,-2.521,5.617,5.0
49.507,-2.477,5.262,3.0
92.618,-4.61,9.307,10.0
63.611,-3.151,6.029,3.0
90.8,-4.477,8.09,3.0
48.084,-2.366,5.641,11.0
56.605,-2.771,6.316,6.0
55.125,-2.685,5.835,11.0
54.974,-2.663,5.5,2.0
83.22,-4.012,7.852,6.0
83.907,-4.025,7.439,5.0
0.0,0.0,0.0,0.0
48.924,-2.329,5.437,3.0
63.584,-3.012,6.701,4.0
57.959,-2.731,5.771,4.0
83.278,-3.905,7.817,6.0
90.976,-4.244,8.021,4.0
63.021,-2.933,7.333,5.0
40.496,-1.874,4.479,38.0
56.835,-2.616,5.961,4.0
55.034,-2.52,5.451,4.0
91.313,-4.16,8.522,5.0
83.263,-3.774,7.297,12.0
48.675,-2.2,5.637,7.0
40.495,-1.82,4.456,40.0
0.0,0.0,0.0,0.0
55.023,-2.446,5.418,16.0
90.882,-4.018,8.43,10.0
84.403,-3.711,7.347,3.0
40.496,-1.775,4.665,12.0
40.6,-1.77,4.443,54.0
56.613,-2.455,5.871,7.0
57.283,-2.47,5.606,6.0
82.812,-3.552,7.631,6.0
84.257,-3.594,7.282,5.0
40.481,-1.721,4.638,31.0
40.495,-1.712,4.406,60.0
92.204,-3.877,9.502,9.0
57.282,-2.395,5.568,5.0
54.997,-2.286,5.031,4.0
91.045,-3.765,7.808,4.0
40.427,-1.665,4.604,61.0
40.372,-1.653,4.365,67.0
0.0,0.0,0.0,0.0
63.569,-2.573,6.135,15.0
54.949,-2.212,4.987,8.0
82.942,-3.319,7.053,10.0
40.258,-1.604,4.555,55.0
40.328,-1.597,4.33,64.0
53.286,-2.099,5.414,13.0
63.32,-2.479,6.063,11.0
54.799,-2.133,4.933,18.0
91.188,-3.529,7.685,16.0
40.226,-1.55,4.52,64.0
40.351,-1.545,4.301,67.0
40.405,-1.538,4.074,47.0
63.51,-2.404,6.031,12.0
40.765,-1.534,3.637,34.0
82.211,-3.075,6.864,3.0
40.53,-1.509,4.522,64.0
43.354,-1.604,4.586,3.0
52.76,-1.94,5.276,13.0
63.836,-2.333,6.009,22.0
54.861,-1.993,4.849,11.0
82.328,-2.974,6.804,10.0
40.334,-1.449,4.465,64.0
40.082,-1.431,4.206,52.0
54.899,-1.948,5.443,19.0
40.714,-1.436,3.797,9.0
40.834,-1.43,3.573,5.0
83.252,-2.9,6.807,6.0
40.169,-1.391,4.411,40.0
40.082,-1.379,4.169,50.0
40.985,-1.401,4.025,21.0
40.673,-1.381,3.756,44.0
40.968,-1.383,3.547,44.0
82.861,-2.78,6.699,12.0
40.148,-1.339,4.371,68.0
39.979,-1.325,4.12,63.0
40.571,-1.335,3.947,16.0
40.672,-1.33,3.717,69.0
0.0,0.0,0.0,0.0
83.022,-2.68,6.632,37.0
39.913,-1.28,4.306,66.0
43.27,-1.379,4.417,22.0
54.733,-1.733,5.27,6.0
40.842,-1.285,3.692,40.0
54.732,-1.71,4.632,15.0
83.135,-2.58,6.557,6.0
39.249,-1.21,4.194,74.0
39.535,-1.21,3.995,57.0
40.326,-1.226,3.841,31.0
40.777,-1.231,3.644,68.0
54.696,-1.64,4.572,13.0
83.468,-2.486,6.496,23.0
39.191,-1.159,4.146,69.0
39.649,-1.164,3.964,61.0
40.881,-1.192,3.85,42.0
53.672,-1.554,4.738,18.0
54.662,-1.571,4.51,10.0
82.658,-2.361,6.343,4.0
39.281,-1.113,4.112,64.0
48.993,-1.379,4.844,6.0
49.032,-1.37,4.563,5.0
53.653,-1.488,4.677,12.0
54.642,-1.505,4.447,8.0
41.252,-1.128,3.119,31.0
39.239,-1.064,4.063,66.0
39.84,-1.072,3.893,71.0
40.985,-1.095,3.767,46.0
53.877,-1.429,4.634,9.0
41.198,-1.085,3.305,67.0
41.263,-1.078,3.071,11.0
39.601,-1.025,4.053,69.0
39.903,-1.025,3.851,66.0
40.834,-1.041,3.703,41.0
53.886,-1.364,4.569,5.0
41.2,-1.035,3.255,62.0
84.875,-2.116,6.214,9.0
39.609,-0.978,4.004,45.0
39.932,-0.979,3.805,50.0
54.284,-1.32,4.856,18.0
41.301,-0.996,3.451,4.0
41.163,-0.985,3.201,68.0
41.237,-0.98,2.968,50.0
39.816,-0.936,3.975,63.0
40.006,-0.933,3.761,57.0
54.236,-1.255,4.783,25.0
41.282,-0.948,3.396,33.0
41.257,-0.94,3.155,24.0
91.36,-2.065,6.458,15.0
39.281,-0.878,3.87,60.0
49.085,-1.089,4.55,17.0
63.883,-1.405,5.55,13.0
41.307,-0.901,3.344,33.0
41.254,-0.893,3.1,55.0
85.944,-1.845,5.96,21.0
39.295,-0.834,3.819,70.0
39.883,-0.839,3.643,57.0
63.668,-1.329,5.444,17.0
41.258,-0.854,3.284,51.0
41.293,-0.847,3.047,6.0
85.914,-1.749,5.841,31.0
39.336,-0.791,3.768,77.0
40.041,-0.798,3.602,54.0
63.9,-1.263,5.376,15.0
41.272,-0.808,3.228,34.0
83.947,-1.631,6.078,5.0
85.883,-1.654,5.719,10.0
39.892,-0.758,3.764,61.0
49.104,-0.924,4.347,36.0
40.775,-0.761,3.372,54.0
63.91,-1.182,4.906,73.0
63.947,-1.172,4.537,4.0
126.347,-2.297,8.232,16.0
40.319,-0.722,3.746,55.0
49.078,-0.872,4.273,76.0
40.711,-0.716,3.307,59.0
63.695,-1.11,4.796,13.0
94.63,-1.635,6.575,4.0
94.332,-1.615,6.006,10.0
40.445,-0.682,3.697,46.0
40.694,-0.68,3.482,54.0
54.307,-0.899,4.33,10.0
63.539,-1.042,4.69,38.0
94.559,-1.535,6.428,2.0
85.46,-1.375,5.313,13.0
49.92,-0.79,4.487,8.0
40.97,-0.642,3.443,44.0
41.079,-0.637,3.212,48.0
63.802,-0.981,4.61,41.0
124.808,-1.901,8.292,30.0
85.396,-1.287,5.177,18.0
49.812,-0.738,4.399,10.0
40.669,-0.597,3.354,69.0
41.129,-0.598,3.152,54.0
63.375,-0.912,4.481,45.0
82.605,-1.176,5.359,31.0
85.445,-1.205,5.047,30.0
40.575,-0.562,3.519,41.0
49.119,-0.673,3.973,4.0
77.923,-1.057,5.848,13.0
63.33,-0.85,4.377,31.0
82.653,-1.098,5.231,34.0
85.442,-1.123,4.91,47.0
40.674,-0.524,3.462,59.0
41.306,-0.527,3.274,68.0
77.9,-0.982,5.719,32.0
86.138,-1.075,5.813,27.0
83.064,-1.025,5.121,11.0
83.521,-1.02,4.663,39.0
40.566,-0.485,3.385,62.0
41.382,-0.489,3.211,60.0
62.666,-0.733,4.496,91.0
86.089,-0.996,5.667,13.0
83.102,-0.951,4.986,64.0
83.636,-0.946,4.53,48.0
40.275,-0.445,3.294,66.0
41.458,-0.453,3.148,50.0
62.705,-0.678,4.395,67.0
77.697,-0.83,4.983,37.0
85.928,-0.907,5.01,34.0
98.411,-1.027,5.164,27.0
40.813,-0.416,3.268,53.0
41.6,-0.418,3.087,8.0
76.799,-0.764,5.25,37.0
83.012,-0.815,5.181,15.0
98.299,-0.954,5.563,25.0
124.049,-1.189,6.296,21.0
41.401,-0.387,3.243,51.0
75.584,-0.697,5.478,19.0
76.835,-0.699,5.118,31.0
124.671,-1.12,7.563,18.0
101.271,-0.899,5.552,26.0
79.213,-0.693,3.881,150.0
41.466,-0.353,3.174,53.0
75.626,-0.636,5.345,29.0
63.504,-0.526,4.116,38.0
59.411,-0.486,3.498,57.0
85.383,-0.689,4.529,17.0
79.297,-0.631,3.743,150.0
49.124,-0.379,3.671,18.0
63.284,-0.482,4.358,44.0
76.967,-0.578,4.85,56.0
59.426,-0.44,3.391,94.0
59.481,-0.434,3.046,108.0
59.49,-0.428,2.7,97.0
49.0,-0.341,3.572,66.0
63.863,-0.438,4.281,84.0
77.029,-0.521,4.712,64.0
59.442,-0.395,3.283,100.0
59.483,-0.39,2.937,105.0
59.484,-0.384,2.59,88.0
49.035,-0.306,3.484,77.0
63.782,-0.392,4.158,38.0
77.163,-0.466,4.579,24.0
59.446,-0.354,3.174,109.0
59.484,-0.348,2.828,104.0
59.469,-0.343,2.48,86.0
62.662,-0.348,4.336,25.0
63.564,-0.347,4.025,38.0
59.414,-0.319,3.415,105.0
59.463,-0.313,3.063,119.0
59.479,-0.308,2.717,97.0
79.403,-0.405,3.163,37.0
62.705,-0.306,4.219,78.0
89.35,-0.428,5.488,49.0
59.432,-0.279,3.302,107.0
59.465,-0.275,2.95,106.0
59.465,-0.269,2.602,95.0
79.417,-0.353,3.011,150.0
62.78,-0.267,4.103,72.0
59.403,-0.247,3.533,68.0
59.444,-0.243,3.188,101.0
59.463,-0.238,2.835,99.0
59.456,-0.233,2.487,93.0
79.419,-0.306,2.858,150.0
63.23,-0.231,4.01,43.0
59.417,-0.213,3.42,99.0
59.454,-0.208,3.073,102.0
59.464,-0.204,2.72,98.0
79.409,-0.266,3.168,101.0
79.415,-0.26,2.704,150.0
77.768,-0.24,4.78,43.0
59.429,-0.179,3.304,106.0
59.446,-0.175,2.956,101.0
59.454,-0.171,2.603,95.0
79.415,-0.223,3.013,150.0
79.422,-0.218,2.548,150.0
59.402,-0.152,3.533,79.0
59.439,-0.148,3.186,109.0
59.455,-0.144,2.838,101.0
59.445,-0.14,2.483,93.0
79.427,-0.182,2.853,150.0
79.425,-0.177,2.389,150.0
59.417,-0.122,3.414,105.0
59.447,-0.119,3.067,101.0
59.452,-0.115,2.719,98.0
79.403,-0.149,3.159,150.0
79.424,-0.145,2.695,150.0
79.422,-0.14,2.23,150.0
59.436,-0.095,3.296,113.0
59.453,-0.092,2.948,100.0
59.45,-0.089,2.599,97.0
79.428,-0.114,3.0,151.0
79.423,-0.11,2.535,150.0
79.425,-0.106,2.07,150.0
59.445,-0.07,3.175,113.0
59.456,-0.067,2.827,100.0
59.441,-0.064,2.477,94.0
79.425,-0.081,2.837,151.0
79.427,-0.078,2.373,150.0
79.437,-0.074,1.909,150.0
59.441,-0.046,3.053,112.0
59.446,-0.044,2.704,99.0
79.396,-0.055,3.148,150.0
79.422,-0.052,2.675,150.0
79.43,-0.048,2.21,150.0
79.434,-0.045,1.746,151.0
59.449,-0.026,2.932,107.0
59.436,-0.023,2.582,94.0
79.438,-0.028,2.986,151.0
79.424,-0.025,2.512,150.0
79.43,-0.022,2.047,150.0
79.453,-0.019,1.583,151.0
59.454,-0.007,2.808,101.0
59.431,-0.004,2.458,94.0
79.444,-0.004,2.821,151.0
79.434,-0.001,2.348,150.0
79.432,0.001,1.882,150.0
79.452,0.003,1.417,159.0
59.452,0.009,2.684,105.0
79.438,0.015,3.121,150.0
79.428,0.017,2.656,150.0
79.434,0.019,2.184,150.0
79.449,0.021,1.718,151.0
79.461,0.023,1.254,151.0
59.439,0.023,2.56,98.0
79.442,0.033,2.956,151.0
79.43,0.035,2.49,150.0
79.424,0.037,2.017,150.0
79.455,0.039,1.552,151.0
79.459,0.041,1.087,151.0
59.428,0.036,2.434,89.0
79.448,0.05,2.789,151.0
79.435,0.051,2.322,150.0
