X,Y,Z,Reflectivity
47.785,0.119,0.026,22.0
39.3,0.093,-0.18,39.0
33.519,0.075,-0.33,1.0
29.377,0.062,-0.441,2.0
26.343,0.053,-0.532,2.0
79.399,0.152,0.614,11.0
55.109,0.099,0.142,25.0
43.824,0.073,-0.113,7.0
38.146,0.059,-0.298,4.0
30.681,0.044,-0.398,1.0
27.322,0.036,-0.496,2.0
79.456,0.098,0.777,150.0
61.884,0.069,0.286,8.0
0.0,0.0,0.0,0.0
38.97,0.035,-0.225,15.0
32.816,0.026,-0.359,1.0
28.785,0.019,-0.463,2.0
79.457,0.046,0.941,157.0
76.499,0.036,0.512,18.0
0.0,0.0,0.0,0.0
40.417,0.011,-0.151,16.0
38.043,0.006,-0.338,2.0
29.97,0.002,-0.421,2.0
79.464,-0.001,1.104,151.0
79.431,-0.009,0.695,150.0
61.594,-0.013,0.22,12.0
0.0,0.0,0.0,0.0
38.717,-0.015,-0.264,9.0
31.462,-0.015,-0.377,1.0
79.454,-0.046,1.268,152.0
79.467,-0.054,0.859,157.0
76.176,-0.058,0.431,20.0
48.079,-0.041,0.019,10.0
39.768,-0.037,-0.188,27.0
33.773,-0.034,-0.334,1.0
79.446,-0.089,1.433,162.0
79.461,-0.096,1.024,156.0
79.385,-0.102,0.615,88.0
56.014,-0.076,0.139,29.0
42.157,-0.061,-0.112,17.0
38.608,-0.059,-0.301,3.0
79.443,-0.129,1.598,153.0
79.461,-0.135,1.19,155.0
79.459,-0.141,0.78,151.0
61.878,-0.114,0.283,7.0
46.084,-0.088,-0.025,12.0
39.523,-0.079,-0.225,15.0
79.447,-0.166,1.766,151.0
79.45,-0.171,1.356,166.0
79.462,-0.176,0.947,152.0
79.232,-0.181,0.527,22.0
0.0,0.0,0.0,0.0
41.291,-0.1,-0.149,19.0
79.444,-0.199,1.93,151.0
79.431,-0.204,1.521,196.0
79.454,-0.209,1.113,153.0
79.454,-0.214,0.695,150.0
61.514,-0.169,0.222,14.0
0.0,0.0,0.0,0.0
79.435,-0.23,2.099,151.0
79.445,-0.234,1.69,160.0
79.437,-0.239,1.28,164.0
79.457,-0.243,0.863,151.0
76.54,-0.238,0.438,14.0
0.0,0.0,0.0,0.0
79.433,-0.258,2.264,151.0
79.442,-0.262,1.855,153.0
79.413,-0.265,1.446,255.0
79.455,-0.269,1.031,151.0
79.398,-0.272,0.621,150.0
56.121,-0.195,0.15,10.0
79.419,-0.283,2.432,150.0
79.439,-0.286,2.023,151.0
79.415,-0.289,1.614,255.0
79.446,-0.292,1.198,155.0
79.454,-0.295,0.789,151.0
76.518,-0.287,0.367,11.0
79.421,-0.305,2.6,150.0
79.44,-0.308,2.192,151.0
79.436,-0.31,1.783,161.0
79.442,-0.313,1.366,165.0
79.454,-0.315,0.958,151.0
79.24,-0.317,0.549,34.0
79.418,-0.324,2.77,150.0
79.421,-0.326,2.36,151.0
79.437,-0.328,1.951,153.0
79.41,-0.33,1.533,234.0
79.449,-0.332,1.126,153.0
79.46,-0.334,0.718,151.0
79.422,-0.34,2.937,150.0
79.419,-0.341,2.528,150.0
79.437,-0.343,2.12,151.0
79.435,-0.344,1.703,175.0
79.451,-0.345,1.294,166.0
79.46,-0.347,0.886,151.0
79.408,-0.353,3.106,99.0
79.413,-0.354,2.695,150.0
79.428,-0.355,2.286,151.0
79.435,-0.355,1.868,164.0
79.432,-0.356,1.46,194.0
79.453,-0.357,1.052,151.0
59.466,-0.272,2.45,91.0
79.411,-0.363,2.863,150.0
79.418,-0.363,2.454,151.0
79.435,-0.364,2.037,159.0
79.43,-0.363,1.627,182.0
79.454,-0.364,1.218,158.0
59.474,-0.277,2.576,94.0
79.411,-0.369,3.03,150.0
79.406,-0.369,2.621,150.0
79.429,-0.369,2.204,153.0
79.437,-0.368,1.795,174.0
79.434,-0.368,1.385,182.0
59.484,-0.28,2.701,103.0
59.465,-0.279,2.394,88.0
79.411,-0.372,2.786,150.0
79.436,-0.371,2.37,151.0
79.435,-0.37,1.963,164.0
79.429,-0.369,1.553,183.0
59.483,-0.28,2.827,109.0
59.471,-0.279,2.519,94.0
79.403,-0.372,2.955,150.0
79.413,-0.37,2.538,150.0
79.439,-0.369,2.13,155.0
79.428,-0.367,1.719,169.0
59.47,-0.279,2.952,114.0
59.476,-0.278,2.645,100.0
79.386,-0.368,3.12,35.0
79.416,-0.366,2.704,150.0
79.438,-0.364,2.296,151.0
79.438,-0.362,1.886,159.0
59.46,-0.275,3.076,119.0
59.482,-0.273,2.769,103.0
59.464,-0.271,2.46,94.0
79.42,-0.36,2.868,150.0
79.415,-0.357,2.458,150.0
79.44,-0.354,2.049,151.0
59.454,-0.269,3.198,114.0
59.474,-0.267,2.891,112.0
59.481,-0.265,2.585,98.0
79.394,-0.35,3.031,150.0
79.425,-0.347,2.622,150.0
79.431,-0.343,2.213,151.0
59.435,-0.261,3.321,110.0
59.468,-0.258,3.014,104.0
59.477,-0.255,2.708,100.0
59.451,-0.252,2.393,89.0
79.42,-0.333,2.785,150.0
79.414,-0.329,2.376,150.0
59.414,-0.25,3.442,92.0
59.448,-0.247,3.137,103.0
59.47,-0.244,2.83,102.0
59.472,-0.241,2.516,91.0
79.415,-0.317,2.949,150.0
79.419,-0.313,2.539,150.0
59.397,-0.238,3.564,13.0
59.442,-0.234,3.258,107.0
59.466,-0.231,2.951,107.0
59.467,-0.227,2.637,94.0
79.395,-0.298,3.109,54.0
79.416,-0.293,2.699,150.0
63.531,-0.238,3.941,37.0
59.42,-0.219,3.377,104.0
59.453,-0.215,3.071,101.0
59.464,-0.211,2.757,99.0
59.46,-0.207,2.448,92.0
79.425,-0.271,2.859,150.0
62.878,-0.218,4.027,73.0
59.408,-0.202,3.495,67.0
59.44,-0.197,3.188,102.0
59.465,-0.193,2.875,101.0
59.471,-0.188,2.568,96.0
79.406,-0.245,3.018,150.0
78.047,-0.246,5.156,34.0
77.767,-0.238,4.732,42.0
59.421,-0.177,3.307,100.0
59.448,-0.172,2.994,100.0
59.462,-0.167,2.685,97.0
59.45,-0.162,2.377,86.0
48.865,-0.136,3.325,59.0
63.01,-0.17,3.96,67.0
59.407,-0.155,3.424,99.0
59.435,-0.15,3.11,106.0
59.468,-0.145,2.802,96.0
59.458,-0.139,2.493,90.0
48.321,-0.116,3.383,49.0
62.837,-0.145,4.072,39.0
77.748,-0.172,4.632,22.0
59.43,-0.126,3.225,107.0
59.463,-0.12,2.917,105.0
59.456,-0.114,2.608,94.0
47.804,-0.094,3.439,96.0
48.807,-0.091,3.256,40.0
62.912,-0.112,3.869,57.0
59.41,-0.099,3.338,99.0
59.447,-0.093,3.03,107.0
59.46,-0.087,2.722,97.0
47.789,-0.072,3.53,94.0
48.396,-0.068,3.322,52.0
63.126,-0.082,4.003,45.0
59.388,-0.071,3.45,91.0
59.422,-0.064,3.143,103.0
59.46,-0.058,2.834,99.0
47.806,-0.049,3.622,48.0
47.862,-0.043,3.376,88.0
63.792,-0.051,4.165,16.0
62.988,-0.043,3.778,62.0
59.411,-0.034,3.253,105.0
59.443,-0.027,2.945,99.0
47.824,-0.023,3.714,60.0
47.814,-0.018,3.462,96.0
48.133,-0.012,3.233,44.0
75.661,-0.01,4.678,17.0
59.395,-0.001,3.362,106.0
59.435,0.005,3.055,105.0
39.863,0.002,3.17,78.0
47.817,0.008,3.551,66.0
47.931,0.014,3.307,79.0
63.754,0.027,4.059,36.0
63.107,0.034,3.688,12.0
59.422,0.04,3.162,102.0
39.805,0.026,3.238,75.0
54.599,0.042,4.154,51.0
47.901,0.044,3.394,77.0
48.186,0.05,3.156,63.0
75.729,0.089,4.563,38.0
85.029,0.11,4.678,26.0
39.801,0.051,3.31,71.0
54.608,0.077,4.254,18.0
54.685,0.084,3.972,20.0
48.022,0.081,3.231,71.0
48.274,0.087,2.994,45.0
63.164,0.123,3.587,48.0
39.855,0.077,3.385,70.0
54.022,0.111,4.304,14.0
54.601,0.12,4.063,70.0
47.978,0.112,3.312,87.0
48.167,0.12,3.072,76.0
48.248,0.127,2.824,54.0
39.961,0.105,3.465,57.0
39.971,0.11,3.255,50.0
54.28,0.158,4.134,63.0
48.012,0.147,3.398,59.0
48.109,0.154,3.152,99.0
48.204,0.161,2.905,82.0
47.713,0.159,4.22,11.0
39.959,0.139,3.323,60.0
54.071,0.196,4.21,61.0
59.232,0.224,4.294,17.0
48.066,0.189,3.232,105.0
48.156,0.197,2.984,103.0
47.7,0.195,4.301,6.0
39.869,0.169,3.384,56.0
59.223,0.26,4.713,83.0
59.25,0.27,4.396,6.0
48.078,0.226,3.313,90.0
48.148,0.234,3.065,117.0
47.658,0.232,4.378,58.0
39.974,0.201,3.46,37.0
64.85,0.336,5.269,11.0
64.666,0.346,4.905,17.0
48.152,0.265,3.398,46.0
48.128,0.273,3.142,103.0
47.624,0.27,4.453,33.0
40.32,0.236,3.556,35.0
39.87,0.239,3.304,44.0
48.522,0.299,3.759,11.0
48.275,0.306,3.484,70.0
48.134,0.312,3.219,87.0
47.545,0.309,4.523,12.0
57.273,0.383,5.143,12.0
39.891,0.273,3.37,45.0
75.008,0.526,5.931,25.0
48.279,0.347,3.561,65.0
48.188,0.354,3.299,57.0
47.472,0.35,4.591,53.0
40.057,0.302,3.66,35.0
48.796,0.376,4.198,31.0
48.541,0.382,3.913,48.0
48.347,0.389,3.641,68.0
48.32,0.398,3.383,52.0
47.405,0.392,4.658,11.0
40.078,0.338,3.724,29.0
48.77,0.42,4.271,48.0
48.623,0.427,3.995,53.0
48.397,0.433,3.718,98.0
48.381,0.442,3.46,42.0
47.364,0.435,4.726,10.0
61.7,0.577,5.827,8.0
40.033,0.381,3.566,55.0
48.654,0.472,4.069,62.0
48.425,0.479,3.793,110.0
61.816,0.622,4.513,12.0
39.935,0.404,4.044,46.0
40.197,0.414,3.855,41.0
39.934,0.418,3.616,57.0
48.444,0.516,4.123,79.0
48.434,0.525,3.863,97.0
56.109,0.618,4.177,47.0
40.329,0.447,4.142,66.0
40.97,0.461,3.988,26.0
40.015,0.458,3.681,43.0
48.388,0.563,4.188,94.0
48.469,0.573,3.936,77.0
56.124,0.674,4.258,81.0
41.096,0.496,4.28,16.0
41.008,0.503,4.051,17.0
48.319,0.602,4.514,11.0
39.767,0.503,3.497,69.0
56.185,0.721,4.64,74.0
61.658,0.803,4.763,13.0
47.615,0.623,5.026,54.0
41.1,0.546,4.116,34.0
40.103,0.54,3.801,43.0
48.324,0.659,4.315,7.0
56.202,0.778,4.717,76.0
64.44,0.904,5.063,22.0
47.596,0.672,5.088,23.0
43.055,0.616,4.37,2.0
40.167,0.582,3.86,44.0
39.913,0.586,3.617,54.0
39.916,0.594,3.402,63.0
85.114,1.284,6.798,10.0
41.668,0.632,4.508,41.0
40.787,0.626,4.193,21.0
48.362,0.753,4.71,9.0
40.0,0.63,3.676,65.0
39.918,0.637,3.453,62.0
85.061,1.374,6.901,7.0
41.311,0.671,4.522,54.0
41.398,0.68,4.307,19.0
48.384,0.805,4.772,8.0
49.018,0.824,4.565,13.0
39.935,0.68,3.504,56.0
39.935,0.687,3.288,38.0
41.243,0.715,4.565,49.0
41.347,0.724,4.352,33.0
40.044,0.709,3.998,48.0
49.033,0.879,4.625,14.0
40.228,0.729,3.577,29.0
53.274,0.976,4.45,9.0
41.422,0.764,4.634,52.0
41.277,0.769,4.394,9.0
40.07,0.755,4.048,38.0
40.088,0.763,3.828,36.0
40.046,0.77,3.607,59.0
39.978,0.777,3.385,58.0
41.483,0.812,4.689,35.0
42.254,0.835,4.546,30.0
48.466,0.968,4.951,39.0
40.201,0.811,3.884,49.0
40.056,0.816,3.653,60.0
73.381,1.51,6.296,15.0
41.047,0.85,4.686,54.0
48.534,1.015,5.276,48.0
48.514,1.025,5.009,8.0
49.063,1.047,4.794,4.0
40.091,0.863,3.7,47.0
40.108,0.872,3.484,58.0
41.294,0.904,4.759,50.0
48.545,1.072,5.329,10.0
41.501,0.925,4.329,38.0
40.459,0.91,3.996,24.0
54.002,1.226,5.04,16.0
40.155,0.919,3.529,55.0
48.548,1.121,5.645,4.0
66.721,1.554,7.393,13.0
41.488,0.974,4.37,50.0
49.137,1.164,4.902,4.0
42.809,1.023,4.037,5.0
40.296,0.97,3.581,58.0
41.795,1.014,4.901,30.0
53.803,1.317,6.014,35.0
41.328,1.019,4.393,47.0
40.665,1.011,4.096,35.0
43.028,1.079,4.099,7.0
40.285,1.018,3.618,61.0
41.449,1.056,4.899,3.0
42.111,1.081,4.746,55.0
49.438,1.279,5.301,5.0
49.24,1.284,5.005,13.0
42.766,1.124,4.113,29.0
56.762,1.504,5.149,43.0
38.061,1.015,4.533,68.0
42.506,1.143,4.829,5.0
41.277,1.118,4.462,16.0
49.344,1.347,5.059,6.0
40.632,1.118,3.943,66.0
42.96,1.19,3.934,30.0
37.968,1.06,4.555,52.0
38.032,1.069,4.353,48.0
41.815,1.184,4.556,17.0
40.961,1.168,4.233,57.0
42.963,1.234,4.205,2.0
62.847,1.819,5.806,12.0
37.84,1.103,4.571,57.0
42.105,1.236,4.853,3.0
38.396,1.135,4.213,15.0
41.002,1.22,4.27,51.0
40.885,1.225,4.033,35.0
42.977,1.296,4.003,21.0
38.009,1.155,4.62,50.0
37.917,1.16,4.399,43.0
38.351,1.181,4.238,20.0
41.53,1.287,4.356,8.0
40.886,1.276,4.063,52.0
63.66,2.0,5.976,15.0
37.714,1.194,4.612,59.0
37.833,1.205,4.416,63.0
38.237,1.225,4.252,33.0
38.221,1.233,4.035,36.0
42.878,1.392,4.29,7.0
67.44,2.203,6.377,22.0
37.737,1.242,4.64,63.0
37.692,1.248,4.425,59.0
38.058,1.267,4.257,43.0
38.265,1.282,4.064,54.0
41.165,1.388,4.145,36.0
60.853,2.064,5.793,33.0
37.745,1.29,4.665,55.0
37.644,1.294,4.443,63.0
38.033,1.315,4.278,58.0
38.404,1.335,4.103,34.0
41.206,1.44,4.174,31.0
42.625,1.499,4.082,12.0
38.005,1.347,4.72,49.0
37.754,1.345,4.478,54.0
38.04,1.363,4.3,57.0
38.529,1.388,4.138,61.0
55.726,2.019,5.676,7.0
42.61,1.552,4.104,35.0
37.916,1.391,4.729,53.0
37.915,1.398,4.517,34.0
37.808,1.402,4.293,51.0
42.796,1.595,4.618,10.0
61.958,2.322,6.342,17.0
55.863,2.104,5.408,23.0
37.943,1.44,4.751,61.0
37.947,1.448,4.539,49.0
37.731,1.447,4.303,59.0
42.356,1.632,4.59,24.0
0.0,0.0,0.0,0.0
55.988,2.179,5.446,30.0
37.991,1.49,4.774,57.0
37.872,1.492,4.547,73.0
37.639,1.49,4.309,61.0
42.415,1.688,4.614,5.0
56.343,2.254,5.816,13.0
53.109,2.134,5.187,47.0
38.079,1.542,4.801,45.0
37.882,1.541,4.563,51.0
37.668,1.54,4.326,57.0
38.438,1.578,4.196,56.0
55.999,2.31,5.801,10.0
41.3,1.711,4.048,11.0
44.983,1.879,5.687,4.0
37.909,1.59,4.579,42.0
52.885,2.228,6.092,6.0
53.346,2.257,5.841,9.0
54.615,2.321,5.676,14.0
41.322,1.764,4.064,51.0
38.103,1.639,4.829,14.0
38.065,1.645,4.61,33.0
55.784,2.42,6.443,25.0
41.921,1.827,4.602,18.0
63.543,2.781,6.621,38.0
41.329,1.816,4.075,42.0
38.073,1.686,4.835,33.0
38.099,1.694,4.624,15.0
38.04,1.698,4.403,8.0
42.213,1.892,4.645,18.0
63.662,2.866,6.648,9.0
41.372,1.87,4.089,38.0
37.915,1.726,4.824,46.0
37.943,1.735,4.613,50.0
54.494,2.501,6.318,16.0
63.325,2.918,6.98,38.0
41.825,1.934,4.375,11.0
54.37,2.524,5.383,9.0
37.825,1.769,4.819,65.0
37.876,1.778,4.611,62.0
38.019,1.791,4.414,16.0
42.859,2.027,4.73,11.0
0.0,0.0,0.0,0.0
41.487,1.977,4.113,9.0
37.949,1.822,4.839,40.0
37.863,1.824,4.614,74.0
63.933,3.091,7.43,10.0
54.269,2.634,5.995,9.0
41.742,2.033,4.377,16.0
41.479,2.028,4.116,30.0
37.739,1.859,4.815,61.0
37.857,1.871,4.616,65.0
41.546,2.06,4.831,50.0
41.886,2.084,4.63,16.0
41.427,2.068,4.346,28.0
41.403,2.074,4.11,25.0
37.812,1.909,4.826,41.0
37.896,1.919,4.622,61.0
41.769,2.122,4.858,37.0
41.873,2.134,4.629,33.0
41.715,2.133,4.376,16.0
53.489,2.745,5.31,20.0
37.89,1.959,4.836,53.0
37.84,1.962,4.614,63.0
41.919,2.18,4.874,45.0
38.614,2.015,4.267,53.0
41.53,2.174,4.355,18.0
63.405,3.33,6.292,20.0
38.111,2.016,4.862,48.0
37.766,2.003,4.603,36.0
42.326,2.252,4.919,15.0
38.574,2.058,4.26,46.0
41.386,2.215,4.337,22.0
52.578,2.823,5.213,6.0
38.256,2.069,4.876,46.0
37.722,2.046,4.593,46.0
44.497,2.421,5.166,12.0
38.416,2.095,4.238,61.0
41.504,2.27,4.344,16.0
55.139,3.025,5.459,1.0
46.068,2.546,5.866,13.0
41.288,2.288,5.021,11.0
38.224,2.124,4.431,53.0
38.384,2.139,4.228,66.0
63.215,3.532,6.605,16.0
0.0,0.0,0.0,0.0
38.077,2.149,4.841,32.0
41.292,2.336,5.014,38.0
38.173,2.165,4.418,36.0
38.391,2.183,4.221,56.0
63.278,3.608,6.598,15.0
41.59,2.377,4.101,35.0
38.024,2.19,4.825,56.0
38.659,2.231,4.685,9.0
38.224,2.211,4.414,52.0
38.378,2.226,4.209,47.0
63.269,3.678,6.581,26.0
41.496,2.419,4.081,44.0
38.025,2.233,4.815,46.0
41.39,2.435,5.004,3.0
38.265,2.257,4.408,42.0
38.345,2.266,4.195,50.0
63.42,3.758,6.577,8.0
41.463,2.463,4.065,51.0
38.004,2.273,4.8,57.0
41.316,2.477,4.981,8.0
38.123,2.29,4.378,57.0
38.308,2.306,4.177,50.0
70.617,4.262,7.299,13.0
41.385,2.503,4.043,64.0
38.059,2.318,4.793,62.0
38.226,2.333,4.595,39.0
38.116,2.331,4.363,71.0
38.261,2.345,4.158,58.0
63.27,3.886,6.515,29.0
63.575,3.914,6.185,17.0
38.184,2.366,4.793,63.0
38.077,2.364,4.561,51.0
38.148,2.373,4.351,69.0
38.261,2.385,4.142,62.0
63.487,3.966,6.511,36.0
63.524,3.977,6.153,24.0
44.431,2.8,5.558,5.0
38.124,2.407,4.55,57.0
38.359,2.426,4.358,56.0
38.244,2.424,4.122,58.0
63.66,4.042,6.499,22.0
63.455,4.036,6.117,16.0
38.121,2.441,4.749,40.0
38.185,2.45,4.538,63.0
38.277,2.46,4.329,56.0
38.373,2.47,4.117,44.0
64.268,4.146,6.528,30.0
63.479,4.103,6.086,16.0
46.366,3.017,5.752,4.0
38.195,2.489,4.519,61.0
38.295,2.5,4.311,73.0
38.758,2.535,4.136,53.0
70.929,4.647,7.165,16.0
63.442,4.163,6.047,25.0
38.287,2.529,4.728,30.0
38.213,2.528,4.498,39.0
38.277,2.536,4.286,71.0
64.142,4.257,6.808,19.0
70.854,4.71,7.115,14.0
70.419,4.689,6.67,12.0
41.038,2.75,5.042,5.0
38.373,2.575,4.493,60.0
38.332,2.576,4.268,41.0
64.189,4.32,6.773,24.0
71.267,4.805,7.112,37.0
70.532,4.763,6.635,33.0
45.056,3.061,5.507,4.0
38.374,2.611,4.468,63.0
41.957,2.858,4.644,5.0
64.128,4.375,6.724,18.0
65.07,4.446,6.45,11.0
70.594,4.83,6.594,45.0
38.505,2.651,4.679,49.0
38.454,2.651,4.451,54.0
41.916,2.893,4.61,7.0
64.167,4.436,6.683,20.0
65.149,4.51,6.412,23.0
70.669,4.898,6.551,37.0
38.465,2.682,4.646,55.0
38.586,2.694,4.438,42.0
41.903,2.929,4.578,18.0
64.297,4.5,6.649,40.0
70.954,4.973,6.93,18.0
64.31,4.512,5.913,27.0
38.481,2.717,4.618,41.0
38.565,2.726,4.406,21.0
41.912,2.965,4.547,6.0
54.254,3.843,5.568,6.0
70.897,5.029,6.868,12.0
64.076,4.55,5.841,23.0
38.605,2.757,4.602,37.0
64.804,4.634,7.351,25.0
41.761,2.989,4.496,30.0
67.605,4.844,6.882,20.0
64.031,4.592,6.151,23.0
63.911,4.589,5.773,34.0
38.759,2.799,4.588,39.0
41.905,3.029,4.718,20.0
41.641,3.013,4.448,38.0
38.792,2.809,3.916,10.0
71.387,5.176,6.797,32.0
64.041,4.647,5.73,12.0
41.686,3.042,4.898,2.0
38.804,2.834,4.335,13.0
38.59,2.821,4.088,45.0
38.805,2.839,3.883,65.0
71.285,5.221,6.724,12.0
63.916,4.686,5.662,17.0
39.083,2.881,4.556,35.0
40.983,3.023,4.541,20.0
38.593,2.849,4.053,49.0
67.963,5.022,6.739,15.0
64.195,4.748,5.995,38.0
63.942,4.733,5.604,35.0
39.024,2.904,4.513,33.0
38.864,2.894,4.269,41.0
38.576,2.875,4.014,53.0
38.768,2.891,3.806,27.0
63.926,4.772,5.908,38.0
64.035,4.784,5.55,39.0
41.299,3.102,4.734,36.0
38.672,2.906,4.209,40.0
38.434,2.89,3.961,65.0
38.744,2.915,3.765,43.0
63.821,4.806,5.835,35.0
63.932,4.817,5.478,35.0
41.393,3.135,4.703,29.0
38.488,2.917,4.15,43.0
38.488,2.918,3.927,48.0
38.75,2.94,3.726,32.0
64.104,4.867,5.795,38.0
64.005,4.862,5.419,39.0
0.0,0.0,0.0,0.0
38.369,2.93,4.097,59.0
38.472,2.939,3.886,31.0
63.965,4.89,6.085,22.0
64.034,4.898,5.722,38.0
63.496,4.86,5.309,27.0
38.795,2.984,4.326,28.0
38.336,2.949,4.052,68.0
38.654,2.975,3.862,39.0
63.933,4.923,6.012,34.0
63.849,4.919,5.636,38.0
63.483,4.893,5.239,25.0
38.736,2.999,4.277,42.0
38.397,2.974,4.016,64.0
38.706,2.999,3.825,56.0
63.897,4.953,5.938,21.0
63.735,4.943,5.556,36.0
63.48,4.925,5.168,29.0
38.628,3.011,4.221,63.0
38.427,2.995,3.976,64.0
38.682,3.016,3.778,21.0
63.87,4.982,5.863,39.0
63.629,4.964,5.474,31.0
63.513,4.957,5.098,28.0
38.442,3.013,4.156,37.0
38.442,3.014,3.933,50.0
38.647,3.03,3.73,62.0
64.038,5.023,5.803,40.0
63.512,4.983,5.389,35.0
66.287,5.202,5.243,19.0
38.32,3.02,4.097,53.0
38.463,3.032,3.889,65.0
38.68,3.049,3.686,49.0
63.973,5.044,5.721,39.0
63.546,5.011,5.316,28.0
66.242,5.225,5.16,42.0
38.375,3.039,4.056,59.0
38.55,3.053,3.851,54.0
63.806,5.054,6.004,31.0
64.36,5.098,5.677,16.0
63.759,5.051,5.257,26.0
0.0,0.0,0.0,0.0
38.42,3.056,4.013,57.0
38.678,3.077,3.815,33.0
63.884,5.081,5.932,39.0
64.03,5.093,5.569,39.0
63.503,5.052,5.156,35.0
65.417,5.204,4.935,16.0
38.355,3.063,3.958,63.0
38.654,3.086,3.764,59.0
64.025,5.111,5.864,39.0
63.635,5.08,5.453,38.0
63.481,5.068,5.073,22.0
65.475,5.227,4.855,15.0
38.403,3.077,3.913,68.0
38.654,3.096,3.714,35.0
64.212,5.143,5.798,39.0
63.443,5.081,5.355,27.0
66.021,5.287,5.191,41.0
67.97,5.442,4.953,12.0
64.593,5.19,6.497,16.0
64.329,5.167,6.097,39.0
64.448,5.176,5.734,26.0
65.973,5.297,5.482,11.0
65.495,5.258,5.063,17.0
67.818,5.444,4.852,33.0
64.505,5.195,6.403,10.0
64.114,5.162,5.991,39.0
63.99,5.15,5.609,39.0
63.467,5.107,5.189,21.0
65.433,5.264,4.972,8.0
74.621,6.002,5.24,20.0
38.686,3.121,3.788,53.0
64.265,5.183,5.919,40.0
63.644,5.131,5.493,35.0
63.449,5.113,5.103,10.0
65.485,5.276,4.887,15.0
74.593,6.009,5.137,29.0
38.672,3.124,3.733,66.0
64.374,5.198,5.84,40.0
63.486,5.124,5.392,38.0
66.233,5.344,5.235,14.0
67.936,5.479,4.977,9.0
74.596,6.015,5.035,28.0
64.984,5.254,6.183,24.0
64.285,5.195,5.743,39.0
63.448,5.125,5.301,18.0
0.0,0.0,0.0,0.0
67.784,5.47,4.871,43.0
74.571,6.015,4.929,27.0
64.448,5.212,6.041,41.0
64.03,5.175,5.63,39.0
65.93,5.326,5.415,11.0
65.407,5.28,4.986,6.0
74.605,6.021,5.257,17.0
74.539,6.012,4.823,22.0
64.368,5.204,5.942,41.0
63.762,5.152,5.516,39.0
63.416,5.121,5.118,9.0
65.476,5.283,4.899,17.0
74.579,6.015,5.149,27.0
74.52,6.007,4.715,20.0
64.359,5.199,5.849,41.0
63.473,5.124,5.4,38.0
66.271,5.346,5.254,13.0
67.962,5.479,4.987,11.0
74.573,6.009,5.042,31.0
74.486,5.998,4.606,18.0
64.373,5.194,5.757,40.0
63.422,5.113,5.303,25.0
0.0,0.0,0.0,0.0
67.797,5.457,4.878,44.0
74.561,5.998,4.933,29.0
74.494,5.989,4.499,19.0
64.011,5.155,5.63,40.0
63.443,5.106,5.213,21.0
65.427,5.261,4.996,8.0
74.608,5.994,5.258,22.0
74.537,5.984,4.823,22.0
74.547,5.98,4.393,23.0
63.643,5.114,5.504,37.0
63.495,5.097,5.123,20.0
65.46,5.25,4.902,16.0
74.602,5.978,5.147,33.0
74.532,5.967,4.713,23.0
74.563,5.966,4.284,21.0
63.463,5.085,5.393,28.0
66.16,5.295,5.239,42.0
74.603,5.965,5.475,11.0
74.592,5.959,5.035,27.0
74.478,5.944,4.597,38.0
74.637,5.952,4.177,17.0
65.895,5.261,5.501,9.0
65.722,5.242,5.105,41.0
67.983,5.416,4.888,22.0
74.614,5.938,4.925,26.0
74.524,5.925,4.489,27.0
127.422,10.123,6.941,12.0
63.544,5.053,5.209,34.0
65.44,5.198,4.986,11.0
74.633,5.922,5.253,15.0
74.654,5.917,4.816,15.0
74.608,5.907,4.382,19.0
127.533,10.088,6.757,19.0
63.571,5.033,5.116,15.0
65.465,5.176,4.889,16.0
67.465,5.328,4.648,18.0
74.572,5.883,4.699,14.0
74.616,5.879,4.271,18.0
128.143,10.086,6.597,9.0
0.0,0.0,0.0,0.0
67.8,5.333,4.96,19.0
75.474,5.929,5.086,13.0
74.533,5.848,4.584,6.0
128.528,10.073,7.164,10.0
106.207,8.314,5.307,4.0
65.741,5.148,5.09,43.0
67.909,5.311,4.865,29.0
75.666,5.91,4.983,26.0
128.793,10.046,7.725,12.0
129.206,10.066,7.003,10.0
109.409,8.513,5.3,7.0
65.344,5.085,4.959,24.0
67.764,5.265,4.75,40.0
75.732,5.877,4.871,6.0
129.658,10.047,7.579,15.0
129.878,10.052,6.843,8.0
106.256,8.213,4.987,10.0
67.885,5.247,5.049,19.0
67.582,5.215,4.635,20.0
130.06,10.022,8.168,11.0
130.411,10.034,7.424,10.0
130.641,10.039,6.684,7.0
28.429,2.181,1.291,0.0
67.879,5.207,4.944,38.0
70.778,5.421,4.746,9.0
130.924,10.012,8.022,11.0
131.102,10.01,7.262,9.0
107.679,8.209,5.345,4.0
28.4,2.162,1.246,3.0
67.695,5.151,4.825,29.0
70.881,5.384,4.643,27.0
131.728,9.989,7.868,11.0
131.973,9.991,7.106,9.0
109.384,8.269,5.259,21.0
28.384,2.142,1.201,4.0
70.644,5.328,4.927,18.0
70.85,5.335,4.531,3.0
132.72,9.975,7.722,11.0
133.034,9.981,6.959,12.0
109.429,8.197,5.094,16.0
28.388,2.123,1.158,5.0
70.778,5.288,4.827,43.0
133.408,9.951,8.328,12.0
133.736,9.956,7.576,15.0
134.054,9.961,6.807,11.0
66.539,4.935,2.995,28.0
66.531,4.926,2.612,51.0
70.873,5.242,4.724,33.0
134.456,9.926,8.186,12.0
134.812,9.932,7.429,10.0
115.135,8.468,5.67,4.0
115.138,8.452,5.007,6.0
157.268,11.523,5.936,20.0
70.879,5.186,4.616,18.0
157.058,11.47,9.32,23.0
157.181,11.455,8.42,30.0
115.109,8.372,5.492,14.0
157.317,11.421,6.602,19.0
28.363,2.055,1.027,0.0
70.837,5.124,4.504,24.0
157.351,11.359,9.098,29.0
33.358,2.403,1.736,1.0
113.571,8.164,5.246,15.0
157.629,11.307,6.374,14.0
28.381,2.032,0.984,10.0
157.557,11.26,9.776,21.0
157.622,11.238,8.872,15.0
33.398,2.376,1.687,91.0
115.047,8.167,5.139,19.0
157.84,11.181,6.142,36.0
28.369,2.005,0.941,10.0
172.877,12.196,10.465,15.0
157.873,11.111,8.647,8.0
33.411,2.345,1.637,5.0
157.773,11.052,6.808,27.0
157.903,11.037,5.907,36.0
28.386,1.979,0.898,9.0
67.353,4.686,3.974,3.0
33.401,2.318,1.778,4.0
121.215,8.392,5.756,3.0
157.842,10.902,6.571,41.0
157.918,10.881,5.666,39.0
28.394,1.951,0.856,6.0
128.407,8.804,7.382,9.0
33.38,2.283,1.727,37.0
117.957,8.047,5.423,26.0
157.975,10.75,6.341,38.0
158.008,10.725,5.434,30.0
28.433,1.925,0.814,8.0
128.542,8.68,7.198,28.0
33.403,2.249,1.678,32.0
119.543,8.03,5.319,8.0
158.04,10.588,6.109,36.0
158.028,10.559,5.201,29.0
28.456,1.896,0.773,1.0
128.35,8.529,6.999,26.0
157.889,10.464,7.7,38.0
157.965,10.44,6.797,41.0
158.068,10.418,5.879,49.0
158.1,10.392,4.972,67.0
114.718,7.52,2.951,20.0
33.433,2.184,1.773,6.0
157.957,10.292,7.473,35.0
158.032,10.266,6.569,43.0
158.154,10.244,5.651,36.0
158.157,10.215,4.744,45.0
114.879,7.399,2.787,19.0
128.215,8.229,6.616,28.0
158.043,10.112,7.246,36.0
158.105,10.084,6.341,30.0
158.018,10.05,5.416,16.0
158.135,10.027,4.513,16.0
158.1,9.994,3.606,9.0
128.501,8.091,6.442,17.0
157.976,9.915,7.012,14.0
33.422,2.091,1.291,1.0
33.456,2.086,1.098,71.0
33.459,2.08,0.906,153.0
33.455,2.073,0.714,155.0
127.745,7.886,6.222,30.0
33.399,2.054,1.435,0.0
33.443,2.05,1.244,8.0
33.391,2.04,1.047,0.0
33.423,2.035,0.857,0.0
33.448,2.03,0.667,0.0
158.474,9.581,7.491,10.0
158.121,9.526,6.568,13.0
157.547,9.457,5.641,16.0
161.99,9.69,4.856,13.0
164.071,9.779,3.978,11.0
140.338,8.337,2.6,12.0
33.466,1.979,1.534,1.0
158.047,9.311,6.342,13.0
157.514,9.247,5.419,13.0
0.0,0.0,0.0,0.0
162.501,9.469,3.714,8.0
0.0,0.0,0.0,0.0
162.182,9.372,7.212,18.0
158.411,9.118,6.138,21.0
157.136,9.01,5.19,7.0
163.354,9.332,4.444,14.0
163.517,9.306,3.515,20.0
105.959,6.007,1.672,2.0
162.367,9.156,6.999,13.0
158.155,8.885,5.913,14.0
157.216,8.797,4.98,5.0
163.154,9.094,4.22,20.0
163.055,9.052,3.285,18.0
105.823,5.851,1.527,9.0
157.392,8.656,6.575,10.0
157.714,8.637,5.687,20.0
162.467,8.859,4.929,12.0
162.881,8.845,3.994,12.0
105.748,5.719,1.991,6.0
92.643,4.989,1.215,2.0
157.515,8.436,6.372,5.0
156.929,8.366,5.451,19.0
162.485,8.623,4.715,6.0
162.474,8.587,3.772,16.0
105.773,5.565,1.852,13.0
81.987,4.294,0.968,7.0
157.544,8.204,6.168,7.0
156.738,8.122,5.239,15.0
167.086,8.618,4.632,8.0
167.141,8.58,3.663,14.0
105.792,5.407,1.715,33.0
78.052,3.97,0.82,20.0
157.495,7.959,5.963,15.0
156.435,7.869,5.03,11.0
0.0,0.0,0.0,0.0
0.0,0.0,0.0,0.0
105.784,5.245,1.582,15.0
76.598,3.779,0.709,28.0
174.575,8.557,6.392,6.0
155.983,7.605,4.821,19.0
0.0,0.0,0.0,0.0
0.0,0.0,0.0,0.0
105.863,5.081,1.45,6.0
73.563,3.513,0.589,8.0
156.833,7.435,5.545,11.0
174.222,8.215,5.168,13.0
0.0,0.0,0.0,0.0
0.0,0.0,0.0,0.0
82.31,3.819,1.027,7.0
73.581,3.395,0.499,10.0
173.994,7.969,5.941,6.0
173.975,7.923,4.95,24.0
0.0,0.0,0.0,0.0
0.0,0.0,0.0,0.0
79.06,3.539,0.892,9.0
58.674,2.612,0.328,10.0
157.061,6.937,5.177,12.0
173.521,7.618,4.733,17.0
0.0,0.0,0.0,0.0
0.0,0.0,0.0,0.0
77.878,3.357,0.788,17.0
54.766,2.346,0.242,28.0
158.097,6.717,5.026,17.0
0.0,0.0,0.0,0.0
0.0,0.0,0.0,0.0
101.002,4.211,1.479,1.0
0.0,0.0,0.0,0.0
54.409,2.238,0.178,28.0
162.315,6.618,4.974,12.0
0.0,0.0,0.0,0.0
0.0,0.0,0.0,0.0
95.542,3.817,1.29,4.0
74.223,2.945,0.581,12.0
48.755,1.922,0.105,23.0
158.408,6.186,4.679,8.0
0.0,0.0,0.0,0.0
0.0,0.0,0.0,0.0
93.349,3.567,1.158,8.0
73.913,2.804,0.498,10.0
47.74,1.797,0.051,23.0
160.283,5.977,4.56,15.0
0.0,0.0,0.0,0.0
0.0,0.0,0.0,0.0
0.0,0.0,0.0,0.0
59.324,2.146,0.337,32.0
46.991,1.686,0.0,21.0
159.118,5.65,4.358,7.0
0.0,0.0,0.0,0.0
0.0,0.0,0.0,0.0
78.164,2.709,0.805,23.0
58.782,2.02,0.272,16.0
0.0,0.0,0.0,0.0
0.0,0.0,0.0,0.0
0.0,0.0,0.0,0.0
100.765,3.339,1.516,2.0
77.831,2.556,0.722,37.0
54.53,1.775,0.198,27.0
40.163,1.295,-0.081,29.0
0.0,0.0,0.0,0.0
0.0,0.0,0.0,0.0
100.686,3.15,1.415,5.0
77.638,2.407,0.645,8.0
54.241,1.665,0.143,17.0
39.582,1.203,-0.118,47.0
0.0,0.0,0.0,0.0
0.0,0.0,0.0,0.0
100.527,2.959,1.317,2.0
74.366,2.167,0.546,14.0
48.495,1.398,0.082,22.0
0.0,0.0,0.0,0.0
0.0,0.0,0.0,0.0
0.0,0.0,0.0,0.0
106.048,2.923,1.291,16.0
61.264,1.669,0.394,19.0
47.651,1.283,0.037,22.0
37.156,0.99,-0.18,27.0
0.0,0.0,0.0,0.0
100.355,2.604,1.698,14.0
79.906,2.048,0.901,9.0
60.296,1.526,0.333,35.0
0.0,0.0,0.0,0.0
37.008,0.914,-0.212,28.0
0.0,0.0,0.0,0.0
106.258,2.55,1.704,6.0
78.137,1.851,0.812,10.0
58.848,1.376,0.274,33.0
0.0,0.0,0.0,0.0
36.912,0.84,-0.243,12.0
0.0,0.0,0.0,0.0
89.882,1.982,1.366,7.0
77.997,1.695,0.746,30.0
57.988,1.242,0.222,9.0
39.8,0.84,-0.071,14.0
36.795,0.764,-0.273,7.0
128.087,2.613,2.564,13.0
0.0,0.0,0.0,0.0
77.839,1.539,0.682,22.0
0.0,0.0,0.0,0.0
39.458,0.755,-0.101,36.0
36.761,0.692,-0.301,9.0
128.067,2.36,2.464,26.0
126.171,2.286,1.719,19.0
77.718,1.383,0.622,12.0
52.578,0.919,0.12,15.0
38.93,0.668,-0.129,47.0
36.935,0.622,-0.33,1.0
189.571,3.122,3.509,14.0
121.204,1.955,1.562,14.0
75.165,1.187,0.546,10.0
47.857,0.74,0.074,43.0
38.397,0.581,-0.155,49.0
33.292,0.493,-0.321,1.0
128.096,1.849,2.279,16.0
121.156,1.711,1.476,11.0
48.147,0.664,0.316,17.0
47.407,0.638,0.041,45.0
38.084,0.5,-0.18,46.0
32.683,0.418,-0.338,1.0
48.219,0.598,0.825,30.0
48.117,0.581,0.553,96.0
48.045,0.563,0.283,83.0
0.0,0.0,0.0,0.0
37.924,0.42,-0.204,31.0
31.93,0.343,-0.351,1.0
48.107,0.499,0.792,107.0
48.074,0.482,0.522,99.0
48.036,0.466,0.253,100.0
0.0,0.0,0.0,0.0
37.876,0.342,-0.227,13.0
31.327,0.272,-0.363,1.0
48.103,0.4,0.763,124.0
48.078,0.384,0.494,104.0
48.082,0.368,0.225,50.0
0.0,0.0,0.0,0.0
37.809,0.263,-0.249,9.0
30.781,0.204,-0.375,1.0
48.178,0.302,0.737,60.0
48.21,0.286,0.468,39.0
54.997,0.308,0.227,63.0
44.227,0.232,-0.068,15.0
37.782,0.185,-0.269,10.0
30.449,0.139,-0.387,2.0
79.457,0.334,1.174,150.0
79.456,0.306,0.73,19.0
55.036,0.194,0.198,25.0
43.809,0.139,-0.09,5.0
38.041,0.107,-0.291,2.0
30.029,0.074,-0.397,2.0
79.464,0.167,1.134,151.0
79.424,0.141,0.69,71.0
55.186,0.078,0.172,20.0
40.71,0.043,-0.104,17.0
38.088,0.027,-0.309,1.0
29.764,0.01,-0.408,2.0
79.453,0.0,1.097,151.0
79.248,-0.025,0.653,29.0
0.0,0.0,0.0,0.0
40.628,-0.041,-0.121,17.0
37.461,-0.051,-0.321,0.0
29.541,-0.05,-0.417,2.0
79.464,-0.165,1.063,151.0
79.303,-0.191,0.62,42.0
0.0,0.0,0.0,0.0
41.171,-0.128,-0.14,17.0
34.114,-0.118,-0.306,1.0
29.396,-0.112,-0.427,2.0
79.456,-0.332,1.032,151.0
79.139,-0.359,0.588,21.0
0.0,0.0,0.0,0.0
40.651,-0.213,-0.153,5.0
33.529,-0.187,-0.313,1.0
29.111,-0.174,-0.433,2.0
79.456,-0.5,1.004,171.0
77.052,-0.513,0.546,13.0
53.442,-0.375,0.082,5.0
47.182,-0.347,-0.194,6.0
33.545,-0.259,-0.324,1.0
28.99,-0.234,-0.441,2.0
79.451,-0.667,0.98,185.0
77.362,-0.676,0.525,12.0
54.021,-0.491,0.066,5.0
43.8,-0.414,-0.193,4.0
33.186,-0.326,-0.33,1.0
28.738,-0.293,-0.445,5.0
79.452,-0.836,0.958,155.0
77.819,-0.846,0.506,9.0
80.083,-0.901,0.077,9.0
0.0,0.0,0.0,0.0
32.758,-0.392,-0.334,1.0
28.583,-0.352,-0.45,2.0
86.968,-1.101,1.027,46.0
78.615,-1.023,0.493,9.0
60.781,-0.812,0.045,1.0
42.754,-0.587,-0.209,2.0
32.729,-0.461,-0.341,1.0
28.395,-0.411,-0.453,1.0
123.796,-1.83,1.437,11.0
91.464,-1.386,0.556,4.0
61.552,-0.954,0.033,2.0
40.169,-0.638,-0.204,1.0
32.561,-0.529,-0.345,1.0
28.346,-0.471,-0.457,1.0
40.3,-0.681,0.461,17.0
40.26,-0.695,0.238,55.0
40.291,-0.711,0.015,68.0
40.264,-0.725,-0.21,23.0
32.533,-0.598,-0.349,1.0
28.285,-0.53,-0.46,1.0
40.238,-0.766,0.455,54.0
40.297,-0.782,0.233,49.0
56.474,-1.117,0.015,0.0
40.23,-0.81,-0.214,2.0
32.49,-0.666,-0.352,1.0
28.224,-0.589,-0.462,1.0
40.279,-0.853,0.452,11.0
0.0,0.0,0.0,0.0
40.279,-0.882,0.008,1.0
40.258,-0.897,-0.217,6.0
32.466,-0.735,-0.354,1.0
27.856,-0.641,-0.457,1.0
40.317,-0.939,0.45,150.0
40.29,-0.953,0.228,74.0
40.267,-0.967,0.006,0.0
40.383,-0.985,-0.219,4.0
32.456,-0.804,-0.355,1.0
28.126,-0.707,-0.462,2.0
40.213,-1.021,0.449,55.0
40.194,-1.035,0.227,47.0
40.972,-1.071,0.006,150.0
40.843,-1.083,-0.222,76.0
31.994,-0.86,-0.35,1.0
28.206,-0.769,-0.463,2.0
40.23,-1.107,0.45,36.0
40.204,-1.121,0.229,47.0
40.192,-1.136,0.008,65.0
40.172,-1.15,-0.216,32.0
32.701,-0.949,-0.356,1.0
28.221,-0.829,-0.462,2.0
0.0,0.0,0.0,0.0
0.0,0.0,0.0,0.0
0.0,0.0,0.0,0.0
40.343,-1.24,-0.214,2.0
32.691,-1.017,-0.353,1.0
28.284,-0.89,-0.46,1.0
126.742,-4.023,1.439,2.0
0.0,0.0,0.0,0.0
59.37,-1.929,0.022,0.0
0.0,0.0,0.0,0.0
32.77,-1.089,-0.35,1.0
28.447,-0.956,-0.459,1.0
0.0,0.0,0.0,0.0
0.0,0.0,0.0,0.0
0.0,0.0,0.0,0.0
41.856,-1.462,-0.211,0.0
32.749,-1.156,-0.344,1.0
28.591,-1.02,-0.457,1.0
0.0,0.0,0.0,0.0
0.0,0.0,0.0,0.0
0.0,0.0,0.0,0.0
40.12,-1.485,-0.194,150.0
33.453,-1.25,-0.345,1.0
28.714,-1.084,-0.453,2.0
0.0,0.0,0.0,0.0
0.0,0.0,0.0,0.0
0.0,0.0,0.0,0.0
37.795,-1.477,-0.174,159.0
33.479,-1.32,-0.337,0.0
28.856,-1.149,-0.448,1.0
0.0,0.0,0.0,0.0
0.0,0.0,0.0,0.0
0.0,0.0,0.0,0.0
37.725,-1.551,-0.164,1.0
34.367,-1.426,-0.337,1.0
29.054,-1.216,-0.444,1.0
0.0,0.0,0.0,0.0
0.0,0.0,0.0,0.0
0.0,0.0,0.0,0.0
0.0,0.0,0.0,0.0
34.125,-1.484,-0.325,1.0
29.291,-1.285,-0.438,2.0
0.0,0.0,0.0,0.0
0.0,0.0,0.0,0.0
0.0,0.0,0.0,0.0
50.366,-2.274,-0.188,0.0
34.287,-1.561,-0.314,0.0
29.579,-1.357,-0.432,2.0
0.0,0.0,0.0,0.0
0.0,0.0,0.0,0.0
0.0,0.0,0.0,0.0
50.432,-2.379,-0.169,4.0
35.983,-1.711,-0.316,0.0
29.561,-1.416,-0.421,7.0
151.952,-7.309,2.045,3.0
0.0,0.0,0.0,0.0
0.0,0.0,0.0,0.0
50.479,-2.483,-0.149,6.0
37.684,-1.867,-0.316,0.0
29.697,-1.482,-0.41,2.0
151.316,-7.58,2.101,11.0
0.0,0.0,0.0,0.0
63.306,-3.216,0.191,0.0
50.447,-2.582,-0.126,8.0
0.0,0.0,0.0,0.0
30.568,-1.586,-0.408,1.0
151.784,-7.905,2.178,64.0
0.0,0.0,0.0,0.0
0.0,0.0,0.0,0.0
50.437,-2.68,-0.102,3.0
0.0,0.0,0.0,0.0
30.958,-1.668,-0.398,1.0
0.0,0.0,0.0,0.0
0.0,0.0,0.0,0.0
0.0,0.0,0.0,0.0
50.426,-2.779,-0.076,1.0
0.0,0.0,0.0,0.0
31.71,-1.77,-0.391,1.0
227.997,-12.763,3.506,152.0
0.0,0.0,0.0,0.0
0.0,0.0,0.0,0.0
50.537,-2.881,-0.049,1.0
41.598,-2.387,-0.265,0.0
32.312,-1.865,-0.381,1.0
0.0,0.0,0.0,0.0
0.0,0.0,0.0,0.0
0.0,0.0,0.0,0.0
59.47,-3.503,-0.023,4.0
0.0,0.0,0.0,0.0
32.775,-1.954,-0.367,1.0
0.0,0.0,0.0,0.0
0.0,0.0,0.0,0.0
0.0,0.0,0.0,0.0
59.985,-3.646,0.013,2.0
0.0,0.0,0.0,0.0
33.647,-2.069,-0.356,0.0
187.294,-11.539,3.212,49.0
0.0,0.0,0.0,0.0
0.0,0.0,0.0,0.0
62.301,-3.903,0.053,4.0
0.0,0.0,0.0,0.0
34.805,-2.204,-0.345,0.0
187.181,-11.875,3.334,48.0
0.0,0.0,0.0,0.0
0.0,0.0,0.0,0.0
62.286,-4.014,0.095,5.0
50.457,-3.269,-0.194,0.0
0.0,0.0,0.0,0.0
187.209,-12.216,3.463,151.0
0.0,0.0,0.0,0.0
0.0,0.0,0.0,0.0
62.202,-4.121,0.139,2.0
50.457,-3.359,-0.159,1.0
37.839,-2.532,-0.323,1.0
187.257,-12.556,3.599,4.0
0.0,0.0,0.0,0.0
0.0,0.0,0.0,0.0
0.0,0.0,0.0,0.0
50.427,-3.448,-0.121,6.0
38.443,-2.641,-0.299,0.0
221.181,-15.222,4.419,8.0
0.0,0.0,0.0,0.0
0.0,0.0,0.0,0.0
0.0,0.0,0.0,0.0
50.451,-3.537,-0.082,4.0
40.161,-2.829,-0.281,0.0
239.072,-16.867,4.963,13.0
0.0,0.0,0.0,0.0
0.0,0.0,0.0,0.0
0.0,0.0,0.0,0.0
61.083,-4.387,-0.051,0.0
0.0,0.0,0.0,0.0
204.973,-14.81,4.421,34.0
0.0,0.0,0.0,0.0
0.0,0.0,0.0,0.0
0.0,0.0,0.0,0.0
61.907,-4.551,0.0,1.0
44.79,-3.307,-0.24,0.0
284.88,-21.058,6.381,18.0
148.642,-11.033,2.532,15.0
148.527,-11.069,1.733,152.0
0.0,0.0,0.0,0.0
0.0,0.0,0.0,0.0
0.0,0.0,0.0,0.0
196.989,-14.888,4.583,58.0
148.51,-11.267,2.659,37.0
148.527,-11.313,1.862,9.0
0.0,0.0,0.0,0.0
0.0,0.0,0.0,0.0
50.391,-3.885,-0.183,2.0
250.733,-19.352,6.056,19.0
0.0,0.0,0.0,0.0
128.293,-9.976,1.722,2.0
0.0,0.0,0.0,0.0
0.0,0.0,0.0,0.0
50.454,-3.969,-0.137,6.0
214.726,-16.913,5.383,20.0
0.0,0.0,0.0,0.0
128.132,-10.166,1.84,150.0
0.0,0.0,0.0,0.0
0.0,0.0,0.0,0.0
50.483,-4.05,-0.089,4.0
204.481,-16.424,5.321,21.0
0.0,0.0,0.0,0.0
122.146,-9.878,1.87,10.0
0.0,0.0,0.0,0.0
0.0,0.0,0.0,0.0
0.0,0.0,0.0,0.0
193.687,-15.849,5.226,39.0
201.774,-16.568,4.365,32.0
0.0,0.0,0.0,0.0
0.0,0.0,0.0,0.0
0.0,0.0,0.0,0.0
0.0,0.0,0.0,0.0
165.049,-13.749,4.616,85.0
165.087,-13.796,3.736,80.0
0.0,0.0,0.0,0.0
121.775,-10.244,1.442,21.0
0.0,0.0,0.0,0.0
0.0,0.0,0.0,0.0
157.493,-13.349,4.566,20.0
189.119,-16.08,4.473,24.0
0.0,0.0,0.0,0.0
121.784,-10.419,1.568,160.0
0.0,0.0,0.0,0.0
0.0,0.0,0.0,0.0
157.391,-13.562,4.726,84.0
157.345,-13.598,3.884,90.0
157.186,-13.624,3.041,6.0
111.348,-9.68,1.548,5.0
111.331,-9.707,0.955,3.0
0.0,0.0,0.0,0.0
188.618,-16.51,5.86,20.0
188.696,-16.563,4.857,46.0
188.521,-16.596,3.848,16.0
110.054,-9.716,1.648,11.0
109.817,-9.722,1.059,4.0
0.0,0.0,0.0,0.0
149.606,-13.297,4.811,64.0
188.301,-16.781,5.05,40.0
188.325,-16.829,4.048,44.0
109.279,-9.792,1.756,7.0
108.63,-9.762,1.167,150.0
90.625,-8.167,0.491,1.0
188.692,-17.02,6.276,34.0
149.468,-13.516,4.176,26.0
188.138,-17.058,4.255,37.0
108.871,-9.898,1.871,12.0
108.597,-9.899,1.288,168.0
0.0,0.0,0.0,0.0
188.841,-17.273,6.494,31.0
149.372,-13.697,4.341,17.0
188.723,-17.348,4.482,35.0
108.883,-10.034,1.994,6.0
108.481,-10.023,1.41,73.0
0.0,0.0,0.0,0.0
148.684,-13.785,5.284,85.0
187.938,-17.465,5.68,44.0
188.019,-17.514,4.682,52.0
108.848,-10.163,2.12,14.0
0.0,0.0,0.0,0.0
0.0,0.0,0.0,0.0
189.71,-17.815,6.964,23.0
148.872,-14.011,4.671,61.0
149.487,-14.101,3.895,35.0
108.86,-10.291,2.246,9.0
0.0,0.0,0.0,0.0
100.731,-9.568,1.008,2.0
190.155,-18.075,7.203,16.0
149.804,-14.269,4.876,53.0
149.166,-14.237,4.061,51.0
149.511,-14.302,3.261,78.0
0.0,0.0,0.0,0.0
0.0,0.0,0.0,0.0
150.796,-14.5,5.889,36.0
188.338,-18.147,6.354,26.0
149.435,-14.426,4.246,43.0
149.478,-14.46,3.437,86.0
0.0,0.0,0.0,0.0
97.201,-9.442,1.203,1.0
205.031,-19.933,8.254,9.0
188.771,-18.387,6.593,27.0
188.032,-18.351,5.568,30.0
187.656,-18.348,4.541,53.0
0.0,0.0,0.0,0.0
96.162,-9.44,1.306,1.0
0.0,0.0,0.0,0.0
188.737,-18.576,6.823,27.0
148.66,-14.658,4.583,27.0
187.684,-18.539,4.772,45.0
187.708,-18.576,3.775,11.0
95.731,-9.492,1.416,4.0
123.187,-12.224,5.259,19.0
148.259,-14.736,5.54,21.0
148.565,-14.792,4.763,39.0
188.097,-18.762,5.013,54.0
190.985,-19.084,4.076,5.0
95.395,-9.548,1.531,5.0
123.252,-12.348,5.415,21.0
148.07,-14.858,5.719,39.0
148.451,-14.92,4.945,59.0
188.202,-18.945,5.251,53.0
188.063,-18.963,4.249,32.0
95.611,-9.657,1.653,5.0
106.681,-10.784,4.821,43.0
124.753,-12.629,4.975,32.0
148.401,-15.046,5.13,67.0
188.103,-19.101,5.486,55.0
188.068,-19.126,4.487,47.0
89.164,-9.082,1.653,2.0
108.079,-11.019,5.021,89.0
123.077,-12.564,5.065,17.0
148.439,-15.174,5.319,41.0
187.952,-19.241,5.718,47.0
157.503,-16.146,3.956,83.0
96.168,-9.873,1.904,4.0
107.205,-11.017,5.116,63.0
106.673,-10.975,4.524,71.0
148.399,-15.288,5.505,35.0
187.902,-19.383,5.953,29.0
157.616,-16.28,4.157,23.0
96.111,-9.941,2.025,6.0
107.388,-11.118,5.261,28.0
107.265,-11.118,4.684,97.0
122.924,-12.755,4.715,55.0
189.497,-19.688,6.244,23.0
187.852,-19.54,5.193,35.0
188.475,-19.63,4.209,30.0
108.488,-11.31,5.452,17.0
122.721,-12.808,5.517,22.0
122.86,-12.836,4.871,31.0
189.491,-19.819,6.486,26.0
187.806,-19.666,5.431,27.0
188.136,-19.722,4.444,37.0
108.772,-11.414,5.609,12.0
116.253,-12.211,5.376,11.0
107.22,-11.273,4.388,80.0
107.413,-11.305,3.816,9.0
188.162,-19.824,5.684,29.0
188.047,-19.832,4.683,32.0
99.205,-10.473,5.243,33.0
115.417,-12.195,5.485,25.0
107.902,-11.412,4.555,58.0
107.348,-11.363,3.951,70.0
188.171,-19.938,5.927,30.0
123.592,-13.108,3.237,15.0
99.186,-10.53,5.371,30.0
115.307,-12.251,5.63,26.0
107.953,-11.479,4.696,68.0
123.92,-13.188,4.72,46.0
123.377,-13.14,4.045,9.0
123.556,-13.171,3.395,49.0
90.787,-9.689,5.033,5.0
105.122,-11.225,5.269,31.0
108.004,-11.541,4.838,47.0
106.954,-11.438,4.211,49.0
123.311,-13.196,4.202,38.0
123.485,-13.225,3.551,70.0
118.172,-12.671,6.704,19.0
99.29,-10.651,5.104,18.0
108.128,-11.607,4.982,45.0
107.635,-11.561,4.377,69.0
107.346,-11.537,3.795,58.0
123.428,-13.275,3.709,82.0
100.288,-10.799,5.819,47.0
99.199,-10.686,5.228,50.0
105.322,-11.352,4.99,28.0
107.873,-11.633,4.526,23.0
107.131,-11.559,3.926,72.0
123.398,-13.322,3.867,74.0
86.079,-9.304,5.106,9.0
118.087,-12.769,6.375,23.0
105.342,-11.395,5.127,10.0
115.678,-12.519,5.003,19.0
106.886,-11.573,4.055,57.0
123.37,-13.365,4.026,53.0
86.02,-9.329,5.215,8.0
100.214,-10.872,5.54,27.0
117.976,-12.804,5.893,26.0
105.689,-11.473,4.706,21.0
107.582,-11.684,4.217,32.0
107.338,-11.662,3.639,24.0
98.411,-10.705,6.092,7.0
109.014,-11.861,6.166,5.0
99.248,-10.8,5.085,32.0
105.642,-11.499,4.839,37.0
107.701,-11.727,4.36,7.0
107.211,-11.678,3.77,74.0
98.403,-10.731,6.217,10.0
86.113,-9.392,4.981,4.0
99.518,-10.856,5.226,77.0
108.199,-11.805,5.095,17.0
149.077,-16.268,6.227,11.0
106.868,-11.665,3.896,58.0
81.429,-8.9,5.25,8.0
86.102,-9.41,5.092,12.0
100.093,-10.94,5.385,59.0
108.209,-11.828,5.234,34.0
105.849,-11.571,4.555,34.0
106.816,-11.678,4.029,38.0
81.587,-8.932,5.364,7.0
86.036,-9.418,5.197,10.0
100.132,-10.961,5.514,12.0
108.24,-11.848,5.371,10.0
105.848,-11.586,4.688,29.0
106.524,-11.661,4.152,21.0
97.731,-10.713,6.549,19.0
98.238,-10.767,6.057,8.0
90.379,-9.904,5.091,7.0
99.23,-10.873,5.048,39.0
148.156,-16.233,6.748,17.0
124.232,-13.611,4.996,26.0
97.722,-10.722,6.669,21.0
98.223,-10.773,6.179,12.0
108.36,-11.883,6.238,8.0
99.447,-10.904,5.183,93.0
108.226,-11.865,5.063,20.0
105.95,-11.613,4.393,9.0
86.292,-9.472,5.999,8.0
81.389,-8.931,5.221,10.0
86.028,-9.437,5.059,11.0
100.019,-10.968,5.337,82.0
108.223,-11.865,5.197,44.0
105.876,-11.606,4.52,38.0
90.881,-9.977,6.429,3.0
81.58,-8.951,5.335,7.0
86.018,-9.435,5.164,11.0
100.116,-10.977,5.465,16.0
108.244,-11.864,5.332,17.0
105.856,-11.599,4.648,38.0
68.385,-7.504,4.922,5.0
97.721,-10.718,6.51,18.0
98.251,-10.77,6.02,6.0
90.463,-9.912,5.05,10.0
99.245,-10.87,5.008,28.0
148.171,-16.224,6.685,18.0
83.084,-9.11,6.081,6.0
97.757,-10.713,6.631,21.0
98.219,-10.757,6.135,11.0
125.492,-13.737,7.153,15.0
99.295,-10.864,5.127,60.0
108.23,-11.836,5.011,7.0
83.061,-9.098,6.178,9.0
86.253,-9.441,5.952,11.0
81.495,-8.914,5.186,5.0
86.077,-9.409,5.008,6.0
99.768,-10.9,5.269,80.0
108.207,-11.815,5.137,23.0
82.865,-9.062,6.261,10.0
86.287,-9.429,6.056,4.0
81.388,-8.887,5.275,7.0
85.998,-9.384,5.103,13.0
100.163,-10.922,5.407,45.0
117.945,-12.853,5.735,20.0
82.583,-9.013,6.337,8.0
68.422,-7.461,4.881,3.0
98.164,-10.696,6.475,3.0
85.895,-9.352,5.195,6.0
100.23,-10.904,5.525,17.0
117.98,-12.826,5.87,27.0
68.925,-7.505,5.366,11.0
84.364,-9.178,6.114,13.0
98.058,-10.658,6.578,8.0
98.383,-10.684,6.06,8.0
100.304,-10.884,5.639,28.0
99.226,-10.758,5.046,22.0
84.634,-9.19,6.685,17.0
84.263,-9.141,6.201,27.0
86.346,-9.358,5.888,8.0
98.2,-10.632,6.159,14.0
100.291,-10.848,5.751,37.0
99.238,-10.725,5.158,50.0
68.573,-7.423,5.492,6.0
82.75,-8.948,6.182,9.0
86.227,-9.314,5.976,11.0
81.493,-8.793,5.2,8.0
100.295,-10.811,5.861,34.0
99.202,-10.683,5.264,38.0
68.798,-7.421,5.586,7.0
82.728,-8.913,6.269,8.0
86.219,-9.278,6.069,6.0
81.434,-8.754,5.284,8.0
100.281,-10.768,5.967,25.0
99.214,-10.642,5.37,7.0
68.874,-7.4,5.665,7.0
82.366,-8.838,6.329,9.0
68.412,-7.332,4.887,4.0
99.194,-10.619,6.54,6.0
100.144,-10.708,6.063,27.0
90.774,-9.695,5.006,8.0
69.075,-7.39,5.754,7.0
68.857,-7.356,5.363,7.0
84.443,-9.01,6.119,5.0
86.475,-9.214,5.792,3.0
99.707,-10.612,6.138,21.0
104.621,-11.12,5.877,29.0
69.0,-7.346,5.819,10.0
68.948,-7.331,5.44,11.0
82.444,-8.753,6.059,8.0
86.286,-9.148,5.866,6.0
99.245,-10.508,6.211,20.0
102.147,-10.801,5.841,8.0
69.02,-7.311,5.89,8.0
68.903,-7.287,5.506,12.0
97.131,-10.257,7.236,14.0
86.219,-9.092,5.946,11.0
81.531,-8.584,5.182,9.0
99.266,-10.438,5.772,38.0
68.963,-7.264,5.953,7.0
68.761,-7.231,5.561,7.0
83.021,-8.717,6.265,3.0
86.166,-9.032,6.027,6.0
81.517,-8.533,5.259,7.0
99.287,-10.378,5.868,8.0
69.053,-7.229,6.027,4.0
68.715,-7.182,5.623,5.0
82.992,-8.661,6.339,2.0
82.711,-8.617,5.861,6.0
81.276,-8.454,5.318,2.0
86.233,-8.957,5.175,9.0
83.316,-8.668,7.349,3.0
68.872,-7.153,5.699,4.0
84.039,-8.713,6.496,5.0
82.539,-8.543,5.923,16.0
99.736,-10.306,6.616,2.0
86.247,-8.897,5.253,6.0
98.178,-10.145,8.748,11.0
76.578,-7.898,6.405,7.0
84.097,-8.658,6.576,6.0
68.359,-7.025,4.966,3.0
99.401,-10.198,6.68,5.0
105.023,-10.756,6.488,8.0
84.984,-8.719,7.646,10.0
68.81,-7.046,5.815,5.0
84.085,-8.594,6.646,2.0
84.496,-8.62,6.209,6.0
101.541,-10.339,6.91,4.0
99.391,-10.103,6.222,10.0
84.984,-8.653,7.717,17.0
69.022,-7.013,5.89,9.0
89.603,-9.087,7.157,4.0
68.387,-6.921,5.082,3.0
98.814,-9.983,6.804,8.0
99.401,-10.023,6.304,16.0
84.946,-8.579,7.783,16.0
68.689,-6.923,5.917,6.0
69.397,-6.98,5.598,2.0
68.429,-6.869,5.139,3.0
82.618,-8.277,5.753,4.0
81.694,-8.169,5.243,4.0
85.018,-8.515,7.855,12.0
78.002,-7.795,6.779,8.0
69.448,-6.926,5.654,2.0
68.445,-6.811,5.192,3.0
82.69,-8.212,5.82,13.0
99.482,-9.859,6.46,17.0
85.058,-8.444,7.922,4.0
83.836,-8.303,7.349,8.0
92.417,-9.133,7.594,2.0
68.345,-6.739,5.234,3.0
82.421,-8.11,5.86,4.0
98.894,-9.711,6.492,17.0
76.757,-7.549,7.204,2.0
78.732,-7.726,6.956,1.0
81.043,-7.934,6.716,1.0
91.607,-8.948,7.078,5.0
82.432,-8.034,5.918,3.0
98.845,-9.613,6.555,36.0
84.969,-8.276,8.033,6.0
83.737,-8.137,7.455,4.0
92.329,-8.951,7.712,2.0
91.577,-8.857,7.136,3.0
84.471,-8.151,6.118,3.0
98.699,-9.502,6.609,17.0
92.193,-8.889,8.776,4.0
83.614,-8.042,7.498,5.0
99.892,-9.585,8.406,20.0
85.248,-8.16,6.696,3.0
84.606,-8.079,6.181,3.0
98.621,-9.396,6.663,13.0
81.03,-7.731,7.763,1.0
99.893,-9.506,9.018,12.0
107.031,-10.16,9.071,2.0
97.869,-9.267,7.745,21.0
84.785,-8.008,6.243,6.0
98.492,-9.281,6.712,8.0
99.556,-9.395,9.594,7.0
83.649,-7.872,7.599,9.0
0.0,0.0,0.0,0.0
97.227,-9.103,7.748,12.0
98.843,-9.231,7.332,16.0
98.323,-9.16,6.753,9.0
97.878,-9.132,9.485,3.0
97.96,-9.115,8.951,16.0
96.362,-8.942,8.271,13.0
97.1,-8.986,7.788,12.0
84.739,-7.822,6.329,7.0
100.125,-9.219,6.926,4.0
98.04,-9.039,9.55,15.0
83.419,-7.67,7.663,6.0
0.0,0.0,0.0,0.0
105.863,-9.679,8.542,16.0
84.675,-7.721,6.364,8.0
86.391,-7.857,6.016,3.0
98.745,-8.993,9.665,3.0
96.2,-8.736,8.881,7.0
85.519,-7.743,7.421,6.0
105.169,-9.496,8.533,6.0
84.731,-7.629,6.406,11.0
97.843,-8.787,6.856,11.0
101.214,-9.101,9.95,5.0
96.437,-8.645,8.944,5.0
105.321,-9.414,9.182,6.0
105.46,-9.399,8.599,13.0
84.655,-7.523,6.433,7.0
86.405,-7.658,6.088,4.0
98.712,-8.759,9.743,9.0
85.419,-7.556,7.955,5.0
107.81,-9.509,9.44,6.0
115.945,-10.195,9.496,15.0
105.815,-9.278,8.08,10.0
84.479,-7.385,5.982,7.0
99.81,-8.736,9.885,3.0
85.381,-7.45,7.98,11.0
115.419,-10.04,10.145,7.0
108.076,-9.372,8.887,15.0
105.616,-9.132,8.097,16.0
98.533,-8.494,7.009,8.0
105.537,-9.108,10.486,5.0
105.664,-9.089,9.908,28.0
105.671,-9.061,9.319,7.0
106.459,-9.099,8.785,16.0
86.485,-7.369,6.655,5.0
99.747,-8.474,7.122,12.0
108.042,-9.187,10.764,8.0
106.525,-9.03,10.017,7.0
106.413,-8.99,9.411,7.0
84.95,-7.153,7.031,9.0
96.933,-8.136,7.483,2.0
108.087,-9.044,7.743,7.0
99.291,-8.316,9.915,7.0
106.496,-8.889,10.037,4.0
106.288,-8.843,9.424,1.0
84.733,-7.027,7.03,20.0
105.925,-8.755,8.198,7.0
96.71,-7.969,6.946,6.0
99.881,-8.236,9.993,1.0
106.654,-8.765,10.071,1.0
105.388,-8.632,9.362,12.0
109.474,-8.936,9.101,3.0
98.353,-8.001,7.627,12.0
98.234,-7.965,7.071,1.0
0.0,0.0,0.0,0.0
105.309,-8.515,9.959,2.0
98.261,-7.918,8.742,5.0
106.129,-8.522,8.837,13.0
107.971,-8.641,8.386,10.0
97.762,-7.797,7.047,5.0
0.0,0.0,0.0,0.0
0.0,0.0,0.0,0.0
107.35,-8.508,9.56,5.0
98.612,-7.787,8.219,5.0
107.868,-8.489,8.386,6.0
108.473,-8.508,7.827,5.0
0.0,0.0,0.0,0.0
0.0,0.0,0.0,0.0
0.0,0.0,0.0,0.0
108.743,-8.44,9.068,7.0
105.54,-8.162,8.209,5.0
148.444,-11.44,10.714,8.0
0.0,0.0,0.0,0.0
0.0,0.0,0.0,0.0
108.341,-8.291,9.654,2.0
107.53,-8.198,8.967,3.0
148.152,-11.254,11.522,6.0
108.757,-8.232,7.848,7.0
0.0,0.0,0.0,0.0
0.0,0.0,0.0,0.0
0.0,0.0,0.0,0.0
108.479,-8.119,9.041,3.0
108.178,-8.066,8.407,2.0
206.912,-15.372,14.92,14.0
0.0,0.0,0.0,0.0
0.0,0.0,0.0,0.0
0.0,0.0,0.0,0.0
0.0,0.0,0.0,0.0
108.698,-7.952,8.438,11.0
108.968,-7.942,7.846,2.0
0.0,0.0,0.0,0.0
0.0,0.0,0.0,0.0
0.0,0.0,0.0,0.0
108.84,-7.84,9.048,5.0
108.9,-7.813,8.439,1.0
207.395,-14.822,14.904,17.0
0.0,0.0,0.0,0.0
0.0,0.0,0.0,0.0
0.0,0.0,0.0,0.0
0.0,0.0,0.0,0.0
0.0,0.0,0.0,0.0
207.634,-14.542,14.883,22.0
0.0,0.0,0.0,0.0
0.0,0.0,0.0,0.0
0.0,0.0,0.0,0.0
0.0,0.0,0.0,0.0
109.039,-7.509,8.405,6.0
162.621,-11.153,11.618,12.0
0.0,0.0,0.0,0.0
0.0,0.0,0.0,0.0
0.0,0.0,0.0,0.0
0.0,0.0,0.0,0.0
0.0,0.0,0.0,0.0
148.347,-9.957,10.558,2.0
0.0,0.0,0.0,0.0
0.0,0.0,0.0,0.0
0.0,0.0,0.0,0.0
0.0,0.0,0.0,0.0
0.0,0.0,0.0,0.0
0.0,0.0,0.0,0.0
0.0,0.0,0.0,0.0
0.0,0.0,0.0,0.0
0.0,0.0,0.0,0.0
0.0,0.0,0.0,0.0
0.0,0.0,0.0,0.0
0.0,0.0,0.0,0.0
0.0,0.0,0.0,0.0
0.0,0.0,0.0,0.0
0.0,0.0,0.0,0.0
0.0,0.0,0.0,0.0
0.0,0.0,0.0,0.0
0.0,0.0,0.0,0.0
0.0,0.0,0.0,0.0
0.0,0.0,0.0,0.0
0.0,0.0,0.0,0.0
0.0,0.0,0.0,0.0
0.0,0.0,0.0,0.0
0.0,0.0,0.0,0.0
0.0,0.0,0.0,0.0
0.0,0.0,0.0,0.0
0.0,0.0,0.0,0.0
0.0,0.0,0.0,0.0
0.0,0.0,0.0,0.0
0.0,0.0,0.0,0.0
0.0,0.0,0.0,0.0
0.0,0.0,0.0,0.0
0.0,0.0,0.0,0.0
0.0,0.0,0.0,0.0
0.0,0.0,0.0,0.0
0.0,0.0,0.0,0.0
0.0,0.0,0.0,0.0
0.0,0.0,0.0,0.0
0.0,0.0,0.0,0.0
93.004,-5.331,7.387,4.0
0.0,0.0,0.0,0.0
0.0,0.0,0.0,0.0
0.0,0.0,0.0,0.0
0.0,0.0,0.0,0.0
0.0,0.0,0.0,0.0
91.545,-5.112,7.215,1.0
0.0,0.0,0.0,0.0
0.0,0.0,0.0,0.0
0.0,0.0,0.0,0.0
92.31,-5.068,8.282,3.0
0.0,0.0,0.0,0.0
0.0,0.0,0.0,0.0
0.0,0.0,0.0,0.0
0.0,0.0,0.0,0.0
56.899,-3.054,5.393,2.0
92.345,-4.931,8.222,3.0
0.0,0.0,0.0,0.0
92.767,-4.903,7.186,4.0
91.511,-4.811,6.566,3.0
0.0,0.0,0.0,0.0
56.801,-2.965,5.342,2.0
91.988,-4.776,8.122,2.0
93.297,-4.818,7.703,4.0
83.051,-4.266,6.372,4.0
91.411,-4.672,6.492,3.0
91.768,-4.666,5.992,0.0
56.709,-2.875,5.29,6.0
0.0,0.0,0.0,0.0
93.33,-4.682,7.634,8.0
92.718,-4.627,7.042,3.0
91.505,-4.542,6.427,3.0
91.974,-4.541,5.933,1.0
56.729,-2.792,5.246,7.0
84.021,-4.113,7.286,1.0
93.329,-4.543,7.557,4.0
92.613,-4.484,6.958,5.0
91.45,-4.404,6.346,2.0
92.136,-4.412,5.866,3.0
56.728,-2.708,5.198,9.0
98.238,-4.663,8.436,4.0
91.761,-4.331,7.351,4.0
83.493,-3.918,6.2,4.0
89.827,-4.193,6.155,6.0
92.224,-4.282,5.791,1.0
56.749,-2.625,5.149,7.0
83.879,-3.857,7.127,12.0
93.139,-4.259,7.377,3.0
83.503,-3.797,6.125,8.0
89.82,-4.062,6.074,4.0
0.0,0.0,0.0,0.0
56.76,-2.542,5.097,6.0
92.79,-4.132,7.798,14.0
90.354,-4.0,7.072,1.0
83.452,-3.672,6.042,7.0
89.793,-3.928,5.985,5.0
97.337,-4.234,5.929,3.0
56.763,-2.458,5.042,7.0
83.307,-3.587,6.918,12.0
90.356,-3.868,6.982,8.0
83.272,-3.544,5.947,11.0
90.315,-3.82,5.93,6.0
97.445,-4.097,5.838,2.0
56.805,-2.378,4.988,6.0
83.302,-3.466,6.833,7.0
90.425,-3.74,6.895,9.0
83.277,-3.423,5.861,8.0
90.573,-3.7,5.853,4.0
0.0,0.0,0.0,0.0
82.954,-3.353,7.195,11.0
92.752,-3.725,7.508,4.0
92.83,-3.705,6.978,12.0
83.279,-3.303,5.771,10.0
83.239,-3.281,5.289,6.0
98.416,-3.855,5.686,2.0
91.162,-3.554,7.807,19.0
83.794,-3.245,6.69,4.0
93.019,-3.58,6.889,13.0
83.375,-3.189,5.686,5.0
174.744,-6.643,10.909,16.0
0.0,0.0,0.0,0.0
83.79,-3.148,7.081,3.0
91.61,-3.419,7.21,4.0
90.599,-3.359,6.606,5.0
83.302,-3.069,5.585,8.0
174.577,-6.391,10.698,38.0
0.0,0.0,0.0,0.0
82.304,-2.976,6.858,10.0
91.665,-3.292,7.106,16.0
82.323,-2.936,5.905,12.0
93.181,-3.302,6.135,15.0
174.636,-6.148,10.49,39.0
0.0,0.0,0.0,0.0
83.317,-2.896,6.84,8.0
92.655,-3.199,7.069,36.0
83.082,-2.849,5.858,16.0
93.175,-3.173,6.021,26.0
174.997,-5.919,10.296,36.0
0.0,0.0,0.0,0.0
82.937,-2.769,6.705,11.0
90.365,-2.996,6.781,9.0
83.176,-2.739,5.76,56.0
93.148,-3.045,5.901,10.0
174.545,-5.668,10.049,14.0
0.0,0.0,0.0,0.0
83.042,-2.659,6.606,25.0
83.161,-2.643,6.132,52.0
83.428,-2.633,5.667,30.0
93.008,-2.914,5.771,51.0
90.519,-2.817,5.093,25.0
0.0,0.0,0.0,0.0
83.206,-2.553,6.508,10.0
172.555,-5.254,12.494,25.0
83.603,-2.527,5.568,34.0
90.586,-2.717,5.498,49.0
90.467,-2.694,4.966,39.0
0.0,0.0,0.0,0.0
83.627,-2.453,6.425,29.0
83.602,-2.434,5.937,22.0
