X,Y,Z,Reflectivity
9.98,1.218,-0.51,49.0
9.97,1.215,-0.234,82.0
9.973,1.215,-0.291,150.0
9.975,1.215,-0.348,150.0
9.979,1.216,-0.407,90.0
9.978,1.215,-0.464,80.0
9.978,1.215,-0.521,46.0
9.973,1.213,-0.245,94.0
9.978,1.213,-0.302,143.0
9.974,1.212,-0.359,150.0
9.972,1.212,-0.417,93.0
9.984,1.213,-0.475,64.0
9.988,1.213,-0.533,36.0
9.977,1.21,-0.255,94.0
9.979,1.21,-0.313,150.0
9.98,1.209,-0.37,142.0
9.976,1.209,-0.428,78.0
9.992,1.21,-0.486,53.0
9.99,1.21,-0.543,33.0
9.978,1.206,-0.266,76.0
9.985,1.206,-0.324,150.0
9.974,1.205,-0.38,136.0
9.981,1.205,-0.439,73.0
9.99,1.206,-0.497,57.0
9.989,1.206,-0.554,36.0
9.987,1.203,-0.277,76.0
9.992,1.203,-0.334,150.0
9.987,1.202,-0.391,141.0
9.984,1.201,-0.449,66.0
9.988,1.201,-0.507,70.0
9.988,1.201,-0.564,32.0
9.984,1.197,-0.287,70.0
9.993,1.198,-0.344,149.0
9.989,1.197,-0.402,130.0
9.995,1.197,-0.46,65.0
9.998,1.197,-0.518,77.0
9.999,1.197,-0.575,41.0
10.005,1.195,-0.298,87.0
9.993,1.193,-0.355,149.0
9.998,1.193,-0.412,122.0
9.992,1.192,-0.47,59.0
10.007,1.193,-0.528,72.0
10.012,1.193,-0.586,34.0
10.0,1.189,-0.308,78.0
10.007,1.189,-0.365,136.0
10.004,1.188,-0.422,119.0
10.008,1.188,-0.481,60.0
10.011,1.188,-0.539,59.0
10.009,1.187,-0.596,20.0
10.01,1.184,-0.318,73.0
10.004,1.182,-0.375,127.0
10.001,1.181,-0.432,84.0
10.013,1.182,-0.491,21.0
10.019,1.182,-0.549,20.0
10.012,1.181,-0.606,17.0
10.015,1.178,-0.328,41.0
10.017,1.177,-0.385,56.0
10.01,1.176,-0.442,20.0
10.001,1.174,-0.5,17.0
10.007,1.174,-0.558,16.0
10.043,1.178,-0.617,15.0
10.022,1.172,-0.337,18.0
13.667,1.597,-0.538,4.0
13.133,1.533,-0.592,0.0
9.994,1.166,-0.509,13.0
10.01,1.167,-0.567,8.0
10.086,1.176,-0.629,5.0
13.775,1.6,-0.477,7.0
13.563,1.575,-0.547,5.0
13.069,1.516,-0.601,5.0
10.021,1.162,-0.519,2.0
10.096,1.17,-0.581,2.0
10.319,1.195,-0.653,2.0
13.765,1.589,-0.489,8.0
13.479,1.554,-0.555,7.0
13.095,1.509,-0.614,9.0
12.373,1.425,-0.652,2.0
11.493,1.322,-0.672,2.0
10.701,1.231,-0.687,1.0
13.755,1.576,-0.5,14.0
13.432,1.538,-0.565,9.0
13.048,1.493,-0.623,13.0
12.27,1.403,-0.657,2.0
11.362,1.298,-0.674,1.0
10.601,1.21,-0.689,1.0
13.737,1.563,-0.511,18.0
13.333,1.515,-0.572,8.0
13.045,1.481,-0.634,14.0
12.159,1.38,-0.662,2.0
11.22,1.272,-0.675,1.0
10.492,1.189,-0.691,1.0
13.731,1.55,-0.522,20.0
13.293,1.499,-0.581,10.0
13.02,1.467,-0.643,7.0
12.044,1.356,-0.665,1.0
11.147,1.254,-0.679,1.0
10.398,1.169,-0.693,1.0
13.689,1.532,-0.531,15.0
13.239,1.48,-0.589,9.0
12.923,1.444,-0.649,3.0
11.934,1.332,-0.668,1.0
11.037,1.231,-0.681,1.0
10.309,1.149,-0.695,2.0
13.647,1.515,-0.54,12.0
13.12,1.455,-0.594,8.0
12.787,1.416,-0.651,3.0
11.819,1.308,-0.671,1.0
10.934,1.209,-0.683,2.0
10.222,1.129,-0.696,2.0
13.605,1.496,-0.548,12.0
13.083,1.437,-0.601,8.0
12.633,1.386,-0.653,1.0
11.655,1.278,-0.67,1.0
10.852,1.188,-0.685,2.0
10.146,1.11,-0.699,2.0
13.508,1.472,-0.554,11.0
13.079,1.423,-0.61,10.0
12.507,1.359,-0.655,1.0
11.584,1.258,-0.674,1.0
10.792,1.17,-0.689,1.0
10.082,1.092,-0.701,2.0
13.432,1.449,-0.56,12.0
13.073,1.408,-0.619,10.0
12.389,1.333,-0.657,2.0
11.515,1.238,-0.677,1.0
10.72,1.151,-0.691,1.0
10.013,1.074,-0.703,2.0
13.355,1.426,-0.565,14.0
13.079,1.395,-0.628,10.0
12.326,1.313,-0.661,2.0
11.384,1.211,-0.677,1.0
10.609,1.127,-0.691,2.0
9.96,1.057,-0.705,2.0
13.349,1.41,-0.573,11.0
13.083,1.38,-0.636,10.0
12.245,1.29,-0.664,2.0
11.303,1.189,-0.678,1.0
10.562,1.11,-0.694,2.0
9.92,1.041,-0.708,2.0
13.319,1.392,-0.579,10.0
13.061,1.363,-0.642,10.0
12.128,1.264,-0.665,1.0
11.25,1.171,-0.682,1.0
10.48,1.089,-0.694,2.0
9.846,1.022,-0.709,2.0
13.251,1.369,-0.583,12.0
13.041,1.345,-0.648,11.0
12.096,1.246,-0.669,1.0
11.176,1.149,-0.683,1.0
10.418,1.07,-0.696,2.0
9.803,1.005,-0.71,2.0
13.191,1.346,-0.588,14.0
12.987,1.323,-0.652,8.0
12.044,1.225,-0.673,1.0
11.124,1.13,-0.685,2.0
10.375,1.053,-0.698,2.0
9.751,0.988,-0.711,2.0
13.195,1.33,-0.594,11.0
12.925,1.301,-0.655,4.0
11.949,1.201,-0.673,1.0
11.052,1.109,-0.686,1.0
10.332,1.035,-0.7,1.0
9.724,0.973,-0.714,2.0
13.194,1.313,-0.6,9.0
12.847,1.276,-0.657,3.0
11.867,1.177,-0.673,1.0
11.001,1.089,-0.688,1.0
10.278,1.016,-0.701,2.0
9.696,0.957,-0.716,2.0
13.138,1.29,-0.603,8.0
12.781,1.253,-0.658,2.0
11.812,1.156,-0.675,1.0
10.959,1.071,-0.689,1.0
10.252,1.0,-0.703,2.0
9.679,0.942,-0.718,2.0
13.137,1.272,-0.607,9.0
12.704,1.228,-0.659,2.0
11.796,1.138,-0.678,1.0
10.919,1.052,-0.691,1.0
10.205,0.981,-0.703,2.0
9.668,0.928,-0.721,2.0
13.116,1.252,-0.611,10.0
12.637,1.204,-0.66,3.0
11.759,1.118,-0.68,1.0
10.908,1.036,-0.693,1.0
10.184,0.965,-0.705,2.0
9.658,0.914,-0.723,2.0
13.094,1.232,-0.614,10.0
12.601,1.183,-0.661,4.0
11.7,1.097,-0.68,2.0
10.878,1.018,-0.694,1.0
10.165,0.949,-0.706,2.0
9.646,0.899,-0.725,1.0
13.093,1.213,-0.617,10.0
12.568,1.162,-0.663,4.0
11.669,1.077,-0.681,2.0
10.848,0.999,-0.695,1.0
10.175,0.935,-0.709,1.0
9.627,0.883,-0.725,1.0
13.088,1.194,-0.62,11.0
12.579,1.145,-0.666,4.0
11.639,1.057,-0.682,2.0
10.837,0.982,-0.697,2.0
10.151,0.919,-0.71,1.0
9.616,0.868,-0.726,1.0
13.079,1.174,-0.621,11.0
12.562,1.125,-0.667,4.0
11.631,1.04,-0.683,1.0
10.824,0.965,-0.697,2.0
10.128,0.901,-0.71,2.0
9.608,0.853,-0.727,1.0
13.079,1.155,-0.623,11.0
12.534,1.104,-0.667,3.0
11.647,1.024,-0.686,2.0
10.818,0.949,-0.698,2.0
10.141,0.887,-0.712,2.0
9.612,0.839,-0.729,1.0
13.078,1.135,-0.625,11.0
12.51,1.083,-0.667,3.0
11.626,1.004,-0.685,2.0
10.821,0.933,-0.7,1.0
10.132,0.871,-0.712,2.0
9.608,0.824,-0.729,1.0
13.084,1.116,-0.626,10.0
12.514,1.065,-0.668,4.0
11.608,0.985,-0.685,2.0
10.841,0.918,-0.701,0.0
10.142,0.857,-0.713,2.0
9.618,0.81,-0.73,1.0
13.084,1.096,-0.626,10.0
12.531,1.047,-0.67,4.0
11.624,0.968,-0.686,2.0
10.841,0.901,-0.701,1.0
10.162,0.843,-0.714,2.0
9.621,0.796,-0.73,1.0
13.086,1.076,-0.626,10.0
12.545,1.028,-0.67,3.0
11.667,0.954,-0.688,2.0
10.856,0.885,-0.702,2.0
10.17,0.827,-0.714,2.0
9.623,0.781,-0.73,2.0
13.096,1.056,-0.626,9.0
12.587,1.012,-0.671,3.0
11.686,0.937,-0.688,2.0
10.863,0.869,-0.702,2.0
10.213,0.814,-0.716,2.0
9.624,0.765,-0.729,2.0
13.083,1.034,-0.624,8.0
12.638,0.996,-0.673,3.0
11.714,0.921,-0.689,2.0
10.888,0.853,-0.702,2.0
10.223,0.799,-0.716,1.0
9.628,0.75,-0.728,1.0
13.097,1.014,-0.623,9.0
12.669,0.978,-0.673,3.0
11.783,0.907,-0.691,1.0
10.906,0.837,-0.701,2.0
10.246,0.784,-0.716,2.0
9.641,0.736,-0.727,1.0
13.105,0.994,-0.621,7.0
12.761,0.965,-0.675,4.0
11.826,0.891,-0.691,1.0
10.943,0.822,-0.701,2.0
10.262,0.769,-0.715,2.0
9.66,0.722,-0.727,1.0
13.163,0.977,-0.621,8.0
12.846,0.95,-0.677,4.0
11.876,0.876,-0.691,1.0
11.021,0.81,-0.704,1.0
10.305,0.755,-0.715,2.0
9.682,0.708,-0.726,1.0
13.263,0.963,-0.622,10.0
12.907,0.934,-0.676,6.0
11.942,0.861,-0.692,2.0
11.104,0.798,-0.706,1.0
10.343,0.741,-0.715,2.0
9.698,0.693,-0.724,2.0
13.323,0.945,-0.621,12.0
12.984,0.918,-0.676,7.0
12.003,0.846,-0.692,2.0
11.143,0.782,-0.705,1.0
10.415,0.729,-0.716,2.0
9.725,0.678,-0.723,2.0
13.376,0.927,-0.618,12.0
13.056,0.901,-0.676,10.0
12.075,0.831,-0.691,2.0
11.211,0.769,-0.705,1.0
10.48,0.716,-0.717,2.0
9.781,0.666,-0.723,2.0
13.457,0.91,-0.617,12.0
13.057,0.88,-0.67,11.0
12.183,0.818,-0.693,2.0
11.292,0.755,-0.705,1.0
10.567,0.704,-0.718,2.0
9.851,0.654,-0.724,2.0
13.517,0.891,-0.614,13.0
13.067,0.859,-0.665,11.0
12.272,0.803,-0.692,2.0
11.39,0.743,-0.706,2.0
10.655,0.692,-0.719,1.0
9.917,0.642,-0.724,2.0
13.651,0.878,-0.614,12.0
13.073,0.837,-0.659,10.0
12.359,0.788,-0.691,2.0
11.45,0.728,-0.704,2.0
10.722,0.679,-0.719,1.0
9.998,0.631,-0.725,2.0
13.728,0.86,-0.61,13.0
13.071,0.815,-0.652,10.0
12.453,0.773,-0.69,4.0
11.523,0.713,-0.703,1.0
10.784,0.664,-0.717,2.0
10.069,0.618,-0.725,2.0
13.904,0.847,-0.61,12.0
13.075,0.793,-0.645,10.0
12.574,0.76,-0.689,2.0
11.634,0.7,-0.703,1.0
10.86,0.651,-0.716,2.0
10.16,0.606,-0.725,2.0
14.156,0.839,-0.613,15.0
13.131,0.775,-0.64,7.0
12.733,0.748,-0.69,2.0
11.754,0.687,-0.703,1.0
10.984,0.64,-0.717,2.0
10.279,0.596,-0.727,2.0
14.465,0.832,-0.617,17.0
13.262,0.76,-0.638,9.0
12.909,0.736,-0.691,4.0
11.919,0.677,-0.705,1.0
11.082,0.626,-0.716,3.0
10.413,0.586,-0.73,2.0
14.597,0.815,-0.613,23.0
13.428,0.747,-0.637,12.0
13.003,0.72,-0.687,6.0
12.075,0.665,-0.705,1.0
11.189,0.614,-0.715,3.0
10.548,0.576,-0.731,2.0
14.629,0.793,-0.603,25.0
13.499,0.728,-0.63,15.0
13.067,0.701,-0.681,11.0
12.19,0.651,-0.703,1.0
11.313,0.601,-0.714,2.0
10.673,0.565,-0.732,2.0
14.659,0.77,-0.594,22.0
13.665,0.714,-0.627,14.0
13.061,0.679,-0.671,12.0
12.314,0.637,-0.7,2.0
11.419,0.588,-0.712,3.0
10.784,0.552,-0.731,2.0
14.677,0.746,-0.583,14.0
13.917,0.704,-0.628,14.0
13.071,0.658,-0.661,10.0
12.472,0.624,-0.699,2.0
11.608,0.578,-0.714,2.0
10.905,0.54,-0.73,2.0
14.906,0.733,-0.579,7.0
14.287,0.699,-0.632,15.0
13.117,0.638,-0.652,8.0
12.664,0.613,-0.699,3.0
11.788,0.567,-0.715,3.0
11.017,0.527,-0.728,2.0
15.391,0.731,-0.584,2.0
14.519,0.686,-0.63,19.0
13.353,0.627,-0.651,11.0
12.889,0.602,-0.7,3.0
11.942,0.555,-0.713,2.0
11.136,0.514,-0.725,2.0
15.941,0.73,-0.59,3.0
14.617,0.666,-0.62,27.0
13.527,0.613,-0.647,15.0
13.005,0.586,-0.694,7.0
12.211,0.547,-0.717,1.0
11.288,0.503,-0.724,2.0
16.205,0.716,-0.585,2.0
14.647,0.643,-0.607,26.0
13.648,0.596,-0.639,13.0
13.029,0.565,-0.682,10.0
12.412,0.535,-0.717,2.0
11.459,0.491,-0.724,2.0
16.525,0.702,-0.58,3.0
14.674,0.62,-0.594,14.0
13.908,0.584,-0.637,13.0
13.058,0.545,-0.67,9.0
12.615,0.523,-0.715,4.0
11.638,0.48,-0.723,2.0
16.882,0.69,-0.575,2.0
14.89,0.605,-0.587,6.0
14.279,0.576,-0.639,16.0
13.053,0.523,-0.656,6.0
12.765,0.508,-0.71,6.0
11.807,0.467,-0.72,2.0
17.343,0.681,-0.572,2.0
15.615,0.609,-0.598,5.0
14.456,0.56,-0.631,15.0
13.13,0.505,-0.645,2.0
12.95,0.495,-0.706,6.0
12.005,0.455,-0.719,2.0
17.598,0.662,-0.56,6.0
16.035,0.599,-0.596,2.0
14.577,0.541,-0.62,18.0
13.348,0.492,-0.641,1.0
13.104,0.479,-0.699,5.0
12.211,0.444,-0.717,3.0
18.05,0.65,-0.554,4.0
16.384,0.586,-0.59,2.0
14.638,0.52,-0.606,13.0
13.587,0.479,-0.636,1.0
13.369,0.468,-0.698,4.0
12.437,0.432,-0.716,3.0
18.539,0.639,-0.547,3.0
16.807,0.575,-0.586,3.0
14.806,0.502,-0.595,4.0
13.829,0.466,-0.631,3.0
13.603,0.455,-0.693,4.0
12.66,0.42,-0.713,4.0
19.019,0.626,-0.538,3.0
17.227,0.562,-0.579,3.0
15.385,0.498,-0.599,2.0
14.109,0.453,-0.626,2.0
13.834,0.441,-0.688,4.0
12.911,0.408,-0.711,4.0
19.52,0.611,-0.527,3.0
17.627,0.548,-0.57,4.0
16.057,0.495,-0.605,3.0
14.462,0.442,-0.623,2.0
14.071,0.426,-0.681,4.0
13.152,0.395,-0.707,5.0
20.003,0.596,-0.514,3.0
18.1,0.534,-0.562,3.0
16.414,0.48,-0.597,2.0
15.015,0.436,-0.627,2.0
14.31,0.412,-0.674,5.0
13.442,0.383,-0.704,5.0
20.601,0.582,-0.502,4.0
18.572,0.52,-0.551,3.0
16.907,0.469,-0.592,2.0
15.473,0.425,-0.625,3.0
14.448,0.394,-0.66,5.0
13.75,0.371,-0.701,4.0
21.179,0.566,-0.487,4.0
19.119,0.506,-0.541,3.0
17.344,0.455,-0.583,4.0
15.818,0.411,-0.617,2.0
14.686,0.378,-0.651,5.0
14.078,0.359,-0.698,4.0
21.861,0.552,-0.472,4.0
19.686,0.492,-0.529,3.0
17.736,0.439,-0.571,6.0
16.237,0.398,-0.61,2.0
14.954,0.363,-0.641,4.0
14.465,0.347,-0.697,5.0
23.188,0.551,-0.467,4.0
20.362,0.479,-0.518,3.0
18.256,0.425,-0.561,3.0
16.641,0.383,-0.601,2.0
15.305,0.349,-0.634,3.0
14.913,0.336,-0.696,4.0
26.926,0.601,-0.503,1.0
20.984,0.463,-0.502,4.0
18.842,0.411,-0.551,5.0
17.052,0.368,-0.59,2.0
15.673,0.335,-0.625,3.0
15.408,0.325,-0.696,2.0
27.59,0.576,-0.474,1.0
21.673,0.447,-0.486,4.0
19.283,0.394,-0.535,6.0
17.617,0.355,-0.583,2.0
16.079,0.32,-0.617,3.0
15.859,0.313,-0.692,3.0
28.711,0.559,-0.449,2.0
22.586,0.434,-0.472,4.0
19.95,0.379,-0.522,7.0
18.189,0.341,-0.574,3.0
16.547,0.307,-0.609,3.0
16.298,0.299,-0.686,2.0
29.581,0.535,-0.417,2.0
26.609,0.476,-0.515,1.0
20.681,0.365,-0.509,4.0
18.728,0.326,-0.561,6.0
17.121,0.294,-0.603,2.0
16.781,0.285,-0.679,6.0
30.716,0.515,-0.384,2.0
27.372,0.452,-0.486,1.0
21.479,0.35,-0.494,4.0
19.348,0.311,-0.548,3.0
17.719,0.281,-0.595,4.0
17.536,0.274,-0.681,3.0
32.147,0.496,-0.35,1.0
28.481,0.432,-0.459,2.0
22.143,0.331,-0.473,3.0
19.971,0.294,-0.533,3.0
18.353,0.267,-0.586,4.0
18.272,0.261,-0.68,2.0
33.828,0.478,-0.313,1.0
29.543,0.41,-0.428,2.0
26.436,0.361,-0.521,1.0
20.75,0.279,-0.519,4.0
19.049,0.252,-0.577,5.0
19.049,0.248,-0.676,2.0
37.249,0.477,-0.281,6.0
30.557,0.385,-0.39,2.0
27.225,0.337,-0.49,1.0
21.551,0.262,-0.503,4.0
19.793,0.237,-0.565,6.0
19.895,0.234,-0.673,2.0
37.869,0.438,-0.221,25.0
32.142,0.365,-0.356,1.0
28.506,0.318,-0.465,1.0
22.187,0.242,-0.479,1.0
20.665,0.222,-0.555,3.0
20.677,0.218,-0.663,2.0
38.737,0.401,-0.16,52.0
33.798,0.343,-0.316,0.0
29.499,0.293,-0.429,2.0
26.398,0.256,-0.524,2.0
21.602,0.206,-0.542,4.0
21.363,0.199,-0.647,2.0
43.968,0.402,-0.104,4.0
37.53,0.336,-0.284,6.0
30.649,0.268,-0.392,2.0
27.237,0.233,-0.493,1.0
24.309,0.203,-0.567,1.0
22.166,0.181,-0.632,3.0
0.0,0.0,0.0,0.0
38.193,0.297,-0.221,17.0
32.23,0.244,-0.354,1.0
28.526,0.211,-0.465,1.0
25.607,0.184,-0.551,1.0
23.03,0.161,-0.615,2.0
47.911,0.327,0.057,55.0
39.19,0.26,-0.156,48.0
37.59,0.242,-0.345,0.0
29.619,0.185,-0.429,2.0
26.544,0.161,-0.523,2.0
23.719,0.14,-0.59,2.0
54.863,0.314,0.166,55.0
43.995,0.244,-0.095,8.0
37.847,0.203,-0.279,7.0
30.817,0.159,-0.39,1.0
27.47,0.137,-0.491,1.0
24.531,0.118,-0.566,1.0
59.34,0.276,0.287,42.0
0.0,0.0,0.0,0.0
38.684,0.166,-0.214,21.0
32.643,0.135,-0.354,1.0
28.701,0.113,-0.46,2.0
25.767,0.097,-0.546,2.0
0.0,0.0,0.0,0.0
54.153,0.186,0.082,28.0
39.807,0.13,-0.145,28.0
37.831,0.116,-0.338,0.0
29.861,0.087,-0.421,2.0
26.709,0.073,-0.516,3.0
79.448,0.206,0.683,150.0
55.274,0.133,0.189,10.0
0.0,0.0,0.0,0.0
38.293,0.08,-0.269,8.0
31.245,0.06,-0.381,1.0
27.834,0.048,-0.484,1.0
79.464,0.127,0.836,151.0
75.947,0.109,0.405,12.0
47.421,0.06,0.007,22.0
39.21,0.044,-0.2,25.0
33.22,0.032,-0.342,1.0
29.153,0.023,-0.451,2.0
79.46,0.052,0.988,151.0
79.324,0.039,0.575,18.0
0.0,0.0,0.0,0.0
40.866,0.007,-0.129,17.0
38.244,0.001,-0.319,3.0
30.232,-0.003,-0.409,1.0
79.462,-0.021,1.144,151.0
79.449,-0.033,0.733,150.0
61.76,-0.034,0.249,12.0
45.087,-0.032,-0.055,22.0
38.99,-0.033,-0.249,14.0
32.301,-0.032,-0.374,1.0
79.453,-0.091,1.299,152.0
79.472,-0.102,0.888,154.0
76.405,-0.109,0.458,16.0
51.252,-0.08,0.037,6.0
40.121,-0.068,-0.177,16.0
33.738,-0.062,-0.323,0.0
79.434,-0.158,1.455,166.0
79.463,-0.169,1.044,153.0
79.4,-0.18,0.633,146.0
56.119,-0.135,0.152,20.0
42.291,-0.107,-0.103,17.0
38.894,-0.103,-0.296,2.0
79.438,-0.223,1.612,192.0
79.463,-0.233,1.202,155.0
79.45,-0.243,0.79,151.0
76.414,-0.244,0.357,9.0
0.0,0.0,0.0,0.0
39.296,-0.135,-0.221,5.0
79.441,-0.285,1.77,156.0
79.45,-0.295,1.36,172.0
79.456,-0.304,0.949,151.0
79.142,-0.312,0.529,23.0
0.0,0.0,0.0,0.0
41.963,-0.176,-0.151,7.0
79.437,-0.344,1.929,158.0
79.426,-0.353,1.519,210.0
79.452,-0.363,1.11,160.0
79.463,-0.372,0.693,161.0
61.351,-0.294,0.218,17.0
46.501,-0.228,-0.073,20.0
79.437,-0.401,2.091,163.0
79.419,-0.409,1.68,214.0
79.45,-0.418,1.271,169.0
79.458,-0.426,0.852,176.0
76.75,-0.42,0.428,14.0
49.913,-0.278,0.021,14.0
79.438,-0.454,2.252,151.0
79.433,-0.462,1.842,190.0
79.446,-0.47,1.432,178.0
79.456,-0.478,1.014,164.0
79.406,-0.485,0.604,111.0
61.024,-0.379,0.15,8.0
79.427,-0.504,2.414,150.0
79.435,-0.512,2.004,172.0
79.436,-0.519,1.593,183.0
79.45,-0.527,1.176,167.0
79.461,-0.534,0.767,173.0
76.867,-0.524,0.346,7.0
79.429,-0.552,2.576,150.0
79.44,-0.559,2.167,151.0
79.426,-0.566,1.757,208.0
79.449,-0.573,1.34,167.0
79.452,-0.58,0.932,178.0
0.0,0.0,0.0,0.0
79.422,-0.597,2.74,150.0
79.421,-0.603,2.331,150.0
79.431,-0.61,1.921,174.0
79.443,-0.616,1.505,168.0
79.447,-0.622,1.095,179.0
79.459,-0.628,0.686,151.0
79.44,-0.639,2.905,151.0
79.422,-0.644,2.495,150.0
79.437,-0.65,2.085,151.0
79.427,-0.656,1.667,176.0
79.448,-0.662,1.259,179.0
79.448,-0.667,0.851,174.0
79.426,-0.677,3.068,209.0
79.428,-0.683,2.659,151.0
79.406,-0.688,2.249,151.0
79.43,-0.693,1.831,180.0
79.442,-0.698,1.422,174.0
79.451,-0.703,1.014,168.0
89.533,-0.803,3.644,18.0
79.435,-0.718,2.823,151.0
79.422,-0.722,2.414,150.0
79.431,-0.727,1.996,152.0
79.441,-0.731,1.587,174.0
79.439,-0.736,1.177,189.0
86.019,-0.808,3.68,31.0
79.424,-0.749,2.987,178.0
79.423,-0.754,2.578,151.0
79.448,-0.758,2.161,151.0
79.43,-0.761,1.75,185.0
79.432,-0.765,1.341,183.0
85.87,-0.838,3.85,150.0
79.435,-0.779,3.153,156.0
79.428,-0.782,2.742,151.0
79.436,-0.785,2.325,151.0
79.434,-0.789,1.915,159.0
79.434,-0.792,1.506,177.0
0.0,0.0,0.0,0.0
87.801,-0.89,3.665,2.0
79.436,-0.807,2.905,156.0
79.417,-0.81,2.488,150.0
79.436,-0.813,2.079,153.0
79.421,-0.815,1.669,187.0
83.757,-0.87,4.101,87.0
85.869,-0.895,3.762,150.0
79.422,-0.829,3.069,172.0
79.417,-0.832,2.65,151.0
79.433,-0.834,2.241,152.0
79.431,-0.836,1.831,166.0
83.736,-0.891,4.272,110.0
0.0,0.0,0.0,0.0
79.382,-0.848,3.23,150.0
79.42,-0.85,2.813,151.0
79.431,-0.852,2.405,151.0
79.433,-0.853,1.995,153.0
83.67,-0.909,4.441,49.0
79.232,-0.862,3.796,154.0
85.983,-0.936,3.675,49.0
79.441,-0.866,2.977,154.0
79.425,-0.867,2.566,151.0
79.437,-0.868,2.157,151.0
83.532,-0.923,4.605,48.0
83.742,-0.925,4.182,67.0
85.849,-0.949,3.844,150.0
79.419,-0.879,3.139,153.0
79.416,-0.879,2.73,150.0
79.434,-0.88,2.321,151.0
83.302,-0.932,4.764,47.0
83.727,-0.937,4.356,59.0
0.0,0.0,0.0,0.0
79.377,-0.888,3.302,85.0
79.41,-0.888,2.892,150.0
79.413,-0.888,2.483,150.0
83.141,-0.939,4.926,51.0
83.627,-0.944,4.523,54.0
83.806,-0.945,4.099,14.0
85.909,-0.968,3.748,150.0
79.433,-0.895,3.055,151.0
79.412,-0.893,2.644,150.0
83.06,-0.944,5.092,17.0
83.39,-0.946,4.681,48.0
83.765,-0.949,4.267,53.0
0.0,0.0,0.0,0.0
79.4,-0.897,3.215,150.0
79.416,-0.895,2.805,150.0
86.085,-0.981,5.452,52.0
83.219,-0.946,4.839,60.0
83.677,-0.95,4.433,56.0
79.226,-0.897,3.779,156.0
86.004,-0.971,3.657,16.0
79.414,-0.895,2.967,150.0
86.099,-0.98,5.628,42.0
83.064,-0.943,4.999,46.0
83.528,-0.946,4.594,49.0
83.766,-0.946,4.165,59.0
0.0,0.0,0.0,0.0
79.418,-0.891,3.127,151.0
86.101,-0.976,5.803,40.0
86.092,-0.973,5.355,51.0
83.293,-0.938,4.748,57.0
83.726,-0.939,4.33,66.0
0.0,0.0,0.0,0.0
79.392,-0.885,3.285,45.0
63.19,-0.711,4.386,41.0
86.093,-0.965,5.528,39.0
83.127,-0.928,4.906,60.0
83.605,-0.929,4.492,61.0
83.774,-0.928,4.067,75.0
85.865,-0.946,3.722,150.0
62.68,-0.698,4.475,90.0
86.111,-0.954,5.701,28.0
86.079,-0.949,5.25,12.0
83.436,-0.915,4.647,53.0
83.731,-0.914,4.229,99.0
85.798,-0.932,3.889,150.0
62.636,-0.687,4.596,65.0
63.389,-0.692,4.321,38.0
86.068,-0.934,5.419,38.0
83.25,-0.899,4.801,47.0
83.704,-0.898,4.392,58.0
79.239,-0.845,3.747,151.0
41.404,-0.446,3.12,67.0
62.746,-0.672,4.401,63.0
90.5,-0.963,5.877,36.0
83.093,-0.878,4.954,54.0
83.565,-0.878,4.547,41.0
83.754,-0.874,4.122,92.0
41.422,-0.436,3.201,69.0
62.68,-0.656,4.518,37.0
77.856,-0.809,5.206,23.0
83.055,-0.857,5.112,17.0
83.549,-0.856,4.707,4.0
83.739,-0.852,4.282,46.0
0.0,0.0,0.0,0.0
54.257,-0.553,4.014,6.0
62.816,-0.635,4.32,37.0
77.684,-0.779,4.929,53.0
85.952,-0.855,5.005,45.0
93.839,-0.926,4.975,32.0
40.198,-0.4,3.26,74.0
41.433,-0.409,3.144,66.0
62.702,-0.614,4.429,30.0
77.818,-0.755,5.083,56.0
83.04,-0.799,4.991,28.0
98.308,-0.937,5.397,39.0
40.019,-0.385,3.322,64.0
41.38,-0.394,3.218,76.0
86.341,-0.815,6.263,3.0
76.8,-0.718,5.161,31.0
77.4,-0.716,4.796,53.0
85.879,-0.787,4.874,45.0
40.414,-0.374,3.43,67.0
41.282,-0.378,3.287,48.0
41.541,-0.376,3.09,33.0
62.823,-0.562,4.339,38.0
63.481,-0.562,4.052,11.0
98.246,-0.86,5.758,35.0
40.838,-0.36,3.542,41.0
0.0,0.0,0.0,0.0
41.433,-0.357,3.158,51.0
82.854,-0.706,5.873,36.0
76.844,-0.647,5.044,30.0
77.354,-0.643,4.674,11.0
40.146,-0.337,3.555,60.0
40.112,-0.332,3.341,57.0
41.443,-0.338,3.234,48.0
75.593,-0.609,5.493,63.0
63.416,-0.504,4.276,39.0
82.914,-0.65,5.157,12.0
40.02,-0.317,3.616,49.0
40.205,-0.313,3.421,53.0
40.984,-0.315,3.271,46.0
41.632,-0.315,3.099,57.0
75.625,-0.563,5.233,31.0
76.94,-0.564,4.921,18.0
40.149,-0.297,3.699,41.0
40.062,-0.291,3.479,62.0
40.127,-0.287,3.273,65.0
41.381,-0.291,3.154,66.0
49.112,-0.339,3.485,7.0
63.887,-0.433,4.198,52.0
39.868,-0.273,3.743,45.0
40.068,-0.269,3.55,36.0
39.946,-0.264,3.328,71.0
47.877,-0.309,3.732,7.0
48.7,-0.309,3.539,60.0
63.407,-0.394,4.275,40.0
39.708,-0.249,3.797,49.0
40.086,-0.246,3.62,53.0
39.956,-0.24,3.397,53.0
40.127,-0.236,3.195,70.0
47.835,-0.275,3.557,27.0
49.01,-0.275,3.386,59.0
39.772,-0.225,3.869,34.0
42.844,-0.237,3.941,27.0
40.045,-0.216,3.471,47.0
49.133,-0.258,3.994,6.0
47.878,-0.245,3.639,6.0
48.903,-0.244,3.459,68.0
39.537,-0.199,3.912,64.0
42.493,-0.207,3.98,25.0
39.835,-0.189,3.519,55.0
40.326,-0.186,3.345,66.0
49.146,-0.219,3.816,27.0
47.887,-0.206,3.466,58.0
47.361,-0.206,4.765,10.0
42.821,-0.18,4.08,2.0
0.0,0.0,0.0,0.0
40.692,-0.159,3.441,19.0
0.0,0.0,0.0,0.0
47.767,-0.173,3.534,44.0
39.871,-0.145,4.076,73.0
39.95,-0.139,3.872,56.0
42.067,-0.14,3.853,33.0
39.891,-0.127,3.438,38.0
41.213,-0.125,3.333,26.0
47.861,-0.138,3.617,9.0
39.919,-0.116,4.145,48.0
39.975,-0.11,3.937,55.0
41.183,-0.107,3.836,35.0
39.845,-0.097,3.496,36.0
39.869,-0.091,3.286,58.0
47.848,-0.102,3.69,23.0
40.685,-0.087,4.287,58.0
40.822,-0.081,4.084,34.0
40.079,-0.073,3.795,21.0
0.0,0.0,0.0,0.0
39.804,-0.06,3.341,59.0
39.949,-0.054,3.141,53.0
41.017,-0.056,4.385,40.0
40.982,-0.049,4.161,47.0
41.429,-0.043,3.985,38.0
40.583,-0.035,3.683,60.0
47.751,-0.033,4.079,6.0
40.004,-0.021,3.205,50.0
41.094,-0.022,4.454,49.0
40.38,-0.015,4.16,57.0
41.436,-0.009,4.047,40.0
43.005,-0.002,3.966,6.0
40.962,0.005,3.559,35.0
39.789,0.011,3.245,61.0
40.164,0.011,4.412,46.0
40.41,0.018,4.222,52.0
40.474,0.025,4.011,56.0
40.87,0.032,3.827,43.0
47.774,0.046,4.218,6.0
39.828,0.045,3.304,65.0
40.144,0.046,4.467,49.0
41.088,0.055,4.351,49.0
40.18,0.061,4.039,58.0
54.685,0.092,5.198,20.0
41.49,0.077,3.721,48.0
39.866,0.081,3.362,60.0
40.285,0.082,4.539,31.0
40.193,0.089,4.311,54.0
40.044,0.096,4.08,62.0
40.101,0.103,3.865,73.0
54.678,0.151,4.977,17.0
39.942,0.118,3.422,60.0
39.729,0.118,4.529,62.0
40.137,0.126,4.359,58.0
39.997,0.133,4.128,68.0
40.59,0.142,3.966,55.0
59.244,0.218,5.47,9.0
40.112,0.155,3.488,38.0
39.567,0.154,4.562,63.0
40.159,0.164,4.413,51.0
40.252,0.171,4.206,62.0
40.247,0.179,3.984,49.0
47.639,0.221,4.459,80.0
54.733,0.264,4.829,8.0
40.499,0.197,4.721,28.0
40.291,0.203,4.478,46.0
40.248,0.21,4.255,57.0
40.576,0.22,4.067,53.0
47.622,0.267,4.516,8.0
40.321,0.233,3.606,23.0
43.926,0.257,5.175,3.0
40.283,0.243,4.526,55.0
40.0,0.248,4.277,67.0
40.217,0.257,4.079,32.0
47.508,0.313,4.561,46.0
57.249,0.388,5.187,24.0
39.619,0.271,4.714,52.0
40.172,0.282,4.561,54.0
40.401,0.292,4.368,61.0
40.249,0.298,4.129,47.0
47.423,0.36,4.607,47.0
40.059,0.312,3.675,41.0
39.945,0.314,4.799,42.0
40.085,0.322,4.597,50.0
40.568,0.335,4.431,40.0
40.047,0.338,4.152,55.0
47.404,0.409,4.658,5.0
61.716,0.545,5.731,20.0
40.66,0.362,4.93,32.0
40.14,0.365,4.648,56.0
0.0,0.0,0.0,0.0
47.251,0.448,4.951,9.0
0.0,0.0,0.0,0.0
40.109,0.397,3.767,22.0
43.829,0.437,5.361,6.0
40.246,0.409,4.703,47.0
41.021,0.425,4.569,43.0
41.087,0.434,4.348,39.0
47.673,0.513,4.786,10.0
39.984,0.438,3.796,51.0
40.225,0.445,4.962,58.0
40.099,0.451,4.726,30.0
40.59,0.465,4.562,56.0
41.034,0.478,4.384,16.0
0.0,0.0,0.0,0.0
56.223,0.677,5.394,15.0
40.203,0.488,4.999,35.0
40.182,0.496,4.776,15.0
40.484,0.508,4.589,49.0
41.344,0.526,4.456,16.0
41.262,0.533,4.222,19.0
40.11,0.527,3.885,32.0
39.608,0.525,4.962,24.0
40.074,0.539,4.8,15.0
40.533,0.553,4.632,58.0
47.588,0.659,5.173,10.0
41.147,0.578,4.247,24.0
40.09,0.571,3.919,26.0
43.404,0.624,5.477,6.0
43.891,0.639,5.296,3.0
41.231,0.609,4.748,37.0
41.602,0.623,4.558,38.0
41.201,0.624,4.288,23.0
40.413,0.621,3.985,64.0
39.189,0.607,4.978,35.0
0.0,0.0,0.0,0.0
40.476,0.644,4.695,52.0
41.399,0.666,4.57,48.0
41.355,0.674,4.338,16.0
48.371,0.798,4.809,4.0
39.007,0.649,4.987,36.0
39.775,0.67,4.865,28.0
41.427,0.706,4.838,45.0
41.163,0.71,4.576,41.0
41.342,0.721,4.368,29.0
40.01,0.705,4.008,41.0
38.718,0.689,4.98,41.0
39.235,0.706,4.829,53.0
41.777,0.76,4.91,42.0
41.429,0.762,4.636,49.0
41.302,0.768,4.395,9.0
40.102,0.754,4.046,35.0
38.578,0.731,4.989,52.0
38.999,0.747,4.827,63.0
41.717,0.808,4.932,46.0
41.562,0.813,4.68,35.0
42.181,0.833,4.517,22.0
48.454,0.967,4.921,8.0
38.714,0.779,5.033,48.0
38.883,0.791,4.839,65.0
0.0,0.0,0.0,0.0
41.307,0.856,4.678,55.0
48.529,1.016,5.228,15.0
48.498,1.024,4.957,6.0
39.213,0.836,5.123,18.0
38.051,0.819,4.759,67.0
41.847,0.909,5.001,31.0
41.185,0.902,4.689,54.0
48.497,1.072,5.253,8.0
41.121,0.917,4.227,29.0
38.628,0.869,5.069,49.0
38.08,0.864,4.785,63.0
38.211,0.874,4.588,21.0
41.256,0.952,4.72,50.0
41.495,0.965,4.517,16.0
40.974,0.962,4.234,38.0
38.766,0.918,5.108,55.0
37.874,0.905,4.779,62.0
38.713,0.932,4.669,71.0
41.518,1.007,4.772,50.0
53.812,1.317,5.885,15.0
41.268,1.017,4.285,28.0
38.717,0.963,5.121,42.0
37.972,0.952,4.81,61.0
37.863,0.957,4.584,54.0
42.345,1.078,4.886,38.0
49.772,1.277,5.466,15.0
41.245,1.066,4.301,24.0
47.036,1.227,6.243,3.0
38.012,0.999,4.832,43.0
37.876,1.003,4.602,52.0
42.157,1.124,4.883,15.0
49.741,1.335,5.484,11.0
41.25,1.116,4.318,20.0
40.132,1.095,5.342,32.0
37.991,1.043,4.844,72.0
37.794,1.046,4.607,60.0
42.796,1.192,4.973,6.0
41.984,1.177,4.644,35.0
56.642,1.599,5.95,7.0
37.997,1.083,5.072,50.0
38.392,1.101,4.908,64.0
37.791,1.09,4.619,73.0
42.926,1.248,5.002,3.0
42.304,1.237,4.693,17.0
41.195,1.212,4.34,56.0
37.85,1.124,5.064,35.0
38.114,1.138,4.884,58.0
37.915,1.14,4.646,45.0
37.859,1.145,4.422,43.0
41.587,1.266,4.625,16.0
42.217,1.293,4.459,17.0
37.805,1.168,5.068,62.0
38.467,1.195,4.939,43.0
37.712,1.179,4.63,61.0
37.866,1.19,4.432,52.0
38.27,1.21,4.265,29.0
61.06,1.943,6.463,7.0
38.413,1.233,5.158,65.0
38.45,1.241,4.945,42.0
37.801,1.227,4.649,55.0
37.831,1.235,4.435,41.0
38.127,1.251,4.256,50.0
38.28,1.263,4.058,31.0
38.335,1.276,5.154,60.0
38.228,1.279,4.923,36.0
37.703,1.268,4.642,59.0
37.652,1.273,4.42,63.0
37.973,1.291,4.244,52.0
38.272,1.308,4.063,52.0
37.746,1.302,5.079,66.0
38.118,1.321,4.913,62.0
37.801,1.317,4.658,52.0
37.618,1.317,4.42,62.0
37.954,1.335,4.245,56.0
38.406,1.358,4.08,33.0
37.463,1.336,5.044,64.0
38.188,1.369,4.925,46.0
38.047,1.37,4.691,45.0
37.67,1.363,4.428,46.0
37.956,1.38,4.248,46.0
38.574,1.409,4.1,19.0
37.406,1.378,5.038,70.0
38.042,1.408,4.907,57.0
38.045,1.415,4.692,56.0
37.728,1.409,4.435,36.0
38.006,1.426,4.253,47.0
61.989,2.337,6.588,22.0
37.55,1.428,5.056,56.0
37.99,1.451,4.9,49.0
37.868,1.452,4.669,48.0
37.778,1.455,4.44,46.0
38.135,1.476,4.266,50.0
41.283,1.605,4.385,25.0
37.659,1.476,5.069,62.0
38.026,1.497,4.901,38.0
37.865,1.496,4.666,58.0
43.022,1.707,5.053,9.0
37.874,1.509,4.233,62.0
41.165,1.647,4.369,51.0
37.6,1.518,5.057,62.0
37.727,1.529,4.859,51.0
37.867,1.54,4.661,59.0
41.587,1.699,4.879,7.0
38.081,1.561,4.251,60.0
41.816,1.721,4.432,10.0
37.687,1.564,5.063,37.0
37.49,1.562,4.822,38.0
37.998,1.59,4.671,43.0
52.874,2.22,6.193,13.0
41.101,1.732,4.581,24.0
41.909,1.773,4.434,21.0
37.628,1.606,5.047,52.0
37.902,1.623,4.867,43.0
37.885,1.628,4.649,55.0
41.639,1.795,4.868,4.0
41.636,1.801,4.631,16.0
41.918,1.82,4.425,26.0
37.549,1.644,5.028,53.0
38.001,1.67,4.87,26.0
37.879,1.669,4.639,42.0
53.35,2.359,6.224,14.0
54.564,2.421,6.055,12.0
41.71,1.857,4.392,32.0
37.853,1.699,5.058,52.0
37.876,1.706,4.843,52.0
38.159,1.723,4.661,24.0
37.979,1.721,4.419,33.0
63.599,2.892,7.038,24.0
41.856,1.909,4.394,15.0
38.254,1.759,5.098,40.0
38.056,1.755,4.854,49.0
37.88,1.753,4.614,63.0
41.824,1.941,4.851,4.0
42.794,1.992,4.72,17.0
52.946,2.472,5.539,9.0
38.026,1.789,5.054,44.0
37.935,1.79,4.824,51.0
37.896,1.794,4.601,66.0
42.007,1.993,4.856,17.0
41.996,1.999,4.615,16.0
52.89,2.525,5.511,4.0
37.82,1.82,5.01,61.0
37.896,1.828,4.802,41.0
37.902,1.834,4.586,67.0
41.732,2.024,4.806,23.0
54.297,2.641,5.943,49.0
63.341,3.089,6.572,10.0
37.609,1.849,4.965,64.0
37.666,1.856,4.756,57.0
38.011,1.878,4.581,53.0
41.726,2.067,4.785,44.0
42.021,2.087,4.579,13.0
41.57,2.07,4.293,10.0
37.688,1.891,4.956,55.0
37.764,1.9,4.749,42.0
41.84,2.11,5.021,8.0
41.824,2.114,4.775,17.0
41.843,2.12,4.537,23.0
41.517,2.109,4.265,18.0
37.942,1.942,4.969,38.0
37.645,1.931,4.713,61.0
42.159,2.168,5.035,17.0
42.019,2.166,4.773,47.0
41.581,2.148,4.485,33.0
63.153,3.27,6.451,14.0
38.208,1.994,4.981,42.0
37.723,1.973,4.7,58.0
42.335,2.219,5.031,17.0
41.721,2.191,4.714,41.0
41.8,2.2,4.483,22.0
63.058,3.327,6.402,25.0
38.042,2.022,4.935,54.0
37.731,2.01,4.676,65.0
42.102,2.247,4.976,34.0
52.685,2.817,5.918,7.0
41.315,2.213,4.404,41.0
0.0,0.0,0.0,0.0
42.28,2.287,5.456,3.0
37.726,2.044,4.65,42.0
44.738,2.429,5.256,10.0
38.369,2.087,4.283,58.0
41.471,2.26,4.392,21.0
52.554,2.87,5.264,5.0
45.348,2.494,5.819,16.0
42.911,2.364,5.258,3.0
38.289,2.113,4.471,14.0
38.355,2.12,4.254,65.0
63.007,3.491,6.626,9.0
63.631,3.531,6.327,31.0
45.692,2.554,5.829,8.0
41.312,2.313,5.031,41.0
38.182,2.141,4.429,53.0
38.387,2.156,4.228,66.0
41.621,2.341,4.345,8.0
64.401,3.63,6.354,29.0
38.049,2.159,4.824,50.0
41.343,2.35,5.002,35.0
38.177,2.173,4.398,47.0
38.4,2.189,4.199,39.0
41.581,2.374,4.307,3.0
41.565,2.377,4.067,47.0
37.983,2.187,4.784,57.0
38.628,2.228,4.641,4.0
38.232,2.208,4.372,59.0
41.975,2.428,4.554,3.0
63.352,3.67,6.508,18.0
41.487,2.407,4.023,64.0
38.057,2.223,4.759,57.0
41.371,2.42,4.934,3.0
38.22,2.238,4.337,42.0
41.928,2.459,4.511,20.0
52.947,3.109,5.392,4.0
41.458,2.438,3.984,42.0
38.073,2.254,4.726,51.0
38.521,2.283,4.559,14.0
38.221,2.267,4.302,61.0
41.93,2.491,4.473,10.0
41.442,2.465,4.182,10.0
41.458,2.469,3.945,63.0
45.978,2.756,5.664,8.0
38.278,2.297,4.494,30.0
38.262,2.298,4.27,55.0
63.292,3.806,6.692,16.0
63.28,3.81,6.326,11.0
41.435,2.498,3.904,56.0
44.966,2.728,5.496,7.0
38.108,2.314,4.436,53.0
38.257,2.325,4.232,53.0
63.353,3.855,6.636,36.0
41.4,2.522,4.097,43.0
63.758,3.887,5.944,17.0
38.182,2.343,4.628,35.0
38.089,2.339,4.395,70.0
38.274,2.352,4.195,63.0
63.211,3.889,6.556,35.0
63.614,3.918,6.231,28.0
63.697,3.927,5.872,12.0
38.126,2.364,4.581,58.0
38.175,2.37,4.365,55.0
38.439,2.388,4.172,55.0
63.769,3.964,6.547,39.0
63.632,3.959,6.166,22.0
65.198,4.06,5.942,13.0
38.109,2.387,4.538,63.0
38.386,2.406,4.348,57.0
38.292,2.402,4.115,29.0
63.78,4.004,6.478,33.0
70.407,4.423,6.745,16.0
64.868,4.079,5.84,17.0
38.081,2.409,4.491,64.0
38.353,2.427,4.3,53.0
64.08,4.058,6.813,39.0
63.384,4.016,6.366,24.0
63.611,4.034,6.021,5.0
65.278,4.142,5.802,18.0
38.128,2.433,4.453,65.0
38.331,2.447,4.254,64.0
63.696,4.069,6.699,33.0
63.305,4.046,6.284,20.0
63.629,4.069,5.949,13.0
64.856,4.15,5.689,40.0
38.193,2.458,4.415,63.0
38.273,2.463,4.202,61.0
63.925,4.117,6.648,39.0
63.361,4.082,6.215,12.0
70.398,4.537,6.499,33.0
65.045,4.195,5.63,26.0
38.246,2.479,4.376,67.0
38.435,2.492,4.174,62.0
70.782,4.592,7.276,10.0
63.474,4.119,6.15,15.0
70.378,4.569,6.413,18.0
65.777,4.272,5.614,41.0
38.352,2.504,4.341,64.0
38.749,2.53,4.16,11.0
70.841,4.627,7.194,10.0
63.418,4.143,6.066,29.0
70.084,4.581,6.299,21.0
65.403,4.276,5.501,41.0
38.36,2.52,4.293,63.0
64.198,4.219,6.812,18.0
56.079,3.686,5.624,4.0
63.299,4.161,5.975,38.0
70.163,4.614,6.217,22.0
64.956,4.272,5.381,32.0
38.611,2.552,4.271,62.0
64.183,4.242,6.726,14.0
70.606,4.667,6.99,44.0
70.31,4.648,6.546,17.0
64.836,4.287,5.661,30.0
65.156,4.309,5.313,40.0
38.802,2.578,4.241,55.0
64.299,4.272,6.654,8.0
70.547,4.688,6.891,12.0
63.36,4.21,5.814,38.0
65.091,4.325,5.596,33.0
65.681,4.365,5.267,33.0
38.823,2.592,4.191,49.0
64.306,4.293,6.567,26.0
63.38,4.23,6.104,11.0
63.478,4.237,5.739,22.0
65.406,4.365,5.534,34.0
0.0,0.0,0.0,0.0
64.183,4.303,6.84,8.0
71.251,4.775,7.178,14.0
63.283,4.24,6.007,24.0
65.009,4.356,5.787,15.0
65.212,4.369,5.427,30.0
66.032,4.424,5.114,41.0
64.17,4.316,6.748,27.0
70.927,4.77,7.046,48.0
63.266,4.254,5.917,30.0
64.971,4.367,5.693,35.0
65.247,4.385,5.339,27.0
0.0,0.0,0.0,0.0
64.206,4.331,6.661,25.0
0.0,0.0,0.0,0.0
70.602,4.76,6.503,13.0
65.004,4.381,5.604,37.0
65.312,4.4,5.252,32.0
67.257,4.531,5.02,33.0
64.238,4.344,6.572,33.0
0.0,0.0,0.0,0.0
65.272,4.41,5.918,20.0
65.196,4.403,5.526,34.0
65.975,4.454,5.209,41.0
71.224,4.807,5.213,12.0
71.32,4.831,7.192,13.0
70.474,4.771,6.697,41.0
65.117,4.406,5.809,31.0
65.26,4.414,5.437,30.0
66.358,4.486,5.144,44.0
67.171,4.539,4.819,43.0
70.741,4.797,7.029,21.0
70.561,4.782,6.601,22.0
64.97,4.4,5.701,40.0
65.237,4.416,5.339,30.0
0.0,0.0,0.0,0.0
67.257,4.548,4.726,39.0
64.877,4.401,6.349,7.0
63.274,4.29,5.824,9.0
64.982,4.403,5.603,41.0
65.386,4.428,5.252,40.0
67.164,4.545,5.006,29.0
67.409,4.56,4.634,43.0
70.495,4.783,6.792,32.0
65.377,4.432,5.918,32.0
65.159,4.414,5.52,39.0
0.0,0.0,0.0,0.0
66.975,4.531,4.89,36.0
67.51,4.564,4.539,36.0
70.507,4.78,6.685,38.0
65.086,4.409,5.792,35.0
65.256,4.416,5.428,31.0
0.0,0.0,0.0,0.0
67.173,4.539,4.802,42.0
67.583,4.564,4.44,22.0
70.594,4.779,6.584,12.0
64.966,4.395,5.68,40.0
65.232,4.409,5.325,32.0
67.053,4.527,5.078,43.0
67.238,4.536,4.702,42.0
67.492,4.55,4.329,18.0
70.591,4.77,6.473,13.0
65.06,4.392,5.588,39.0
65.387,4.41,5.235,32.0
67.217,4.529,4.985,27.0
67.356,4.534,4.605,42.0
67.483,4.538,4.223,29.0
65.17,4.392,5.873,18.0
65.266,4.394,5.501,24.0
66.41,4.466,5.212,43.0
67.256,4.518,4.881,31.0
67.318,4.518,4.496,42.0
67.329,4.515,4.107,20.0
65.013,4.368,5.755,25.0
65.203,4.375,5.392,28.0
65.769,4.408,5.057,23.0
67.388,4.512,4.785,43.0
67.3,4.501,4.389,42.0
67.218,4.491,3.996,17.0
65.027,4.352,5.652,33.0
65.386,4.37,5.304,25.0
67.045,4.476,5.049,43.0
67.336,4.49,4.673,44.0
67.47,4.493,4.293,28.0
67.014,4.458,3.877,28.0
65.308,4.351,5.572,32.0
65.964,4.389,5.244,37.0
67.324,4.473,4.962,33.0
67.213,4.461,4.557,43.0
67.34,4.463,4.177,33.0
67.108,4.442,3.774,10.0
65.284,4.327,5.465,43.0
65.966,4.366,5.138,41.0
67.243,4.444,4.848,20.0
71.021,4.688,4.702,9.0
67.24,4.433,4.062,39.0
128.088,8.433,6.998,24.0
65.184,4.296,5.351,36.0
66.955,4.406,5.107,43.0
67.245,4.418,4.739,37.0
67.114,4.404,4.335,43.0
67.041,4.392,3.943,28.0
33.429,2.187,1.773,3.0
65.844,4.312,5.298,34.0
67.368,4.404,5.03,28.0
67.255,4.39,4.632,41.0
67.193,4.379,4.231,40.0
67.044,4.363,3.834,8.0
33.398,2.17,1.717,24.0
65.818,4.279,5.189,23.0
67.254,4.365,4.911,32.0
67.153,4.351,4.515,43.0
67.028,4.335,4.112,43.0
128.156,8.277,7.122,20.0
33.373,2.152,1.662,1.0
0.0,0.0,0.0,0.0
67.241,4.329,4.801,43.0
67.03,4.308,4.397,34.0
66.988,4.298,4.0,28.0
128.284,8.216,6.92,27.0
158.02,10.105,7.611,42.0
67.244,4.3,5.08,24.0
67.199,4.289,4.687,43.0
71.144,4.533,4.551,9.0
128.374,8.164,7.456,25.0
128.071,8.129,6.698,37.0
158.027,10.015,7.353,27.0
78.48,4.972,5.8,12.0
67.057,4.24,4.568,41.0
67.0,4.228,4.175,25.0
128.315,8.082,7.241,20.0
128.26,8.063,6.496,25.0
158.064,9.917,7.093,16.0
67.157,4.211,4.851,24.0
67.092,4.199,4.458,30.0
67.074,4.189,4.069,23.0
128.429,8.004,7.036,23.0
157.972,9.827,7.743,13.0
157.993,9.808,6.834,10.0
67.211,4.169,4.746,28.0
67.103,4.154,4.35,39.0
128.404,7.931,7.58,26.0
128.262,7.905,6.818,35.0
127.762,7.858,6.053,22.0
33.455,2.053,1.392,1.0
67.138,4.117,4.63,20.0
67.036,4.101,4.235,38.0
128.777,7.86,7.391,35.0
127.941,7.791,6.592,38.0
158.302,9.618,7.242,15.0
33.419,2.026,1.336,0.0
67.231,4.071,4.526,11.0
67.055,4.051,4.127,22.0
128.575,7.749,7.171,34.0
127.652,7.675,6.368,30.0
33.48,2.008,1.477,1.0
158.027,9.455,6.06,16.0
67.058,4.007,4.404,9.0
127.885,7.622,7.66,30.0
128.359,7.631,6.948,34.0
161.904,9.602,7.812,40.0
162.086,9.588,6.887,9.0
157.545,9.296,5.785,18.0
127.746,7.527,8.183,21.0
127.379,7.484,7.422,31.0
33.418,1.958,1.754,18.0
162.002,9.469,7.553,24.0
157.603,9.187,6.44,21.0
157.625,9.164,5.531,14.0
127.518,7.399,7.96,21.0
128.316,7.425,7.268,32.0
33.44,1.929,1.701,100.0
162.229,9.334,7.301,14.0
158.381,9.09,6.216,17.0
157.165,8.995,5.263,15.0
127.857,7.301,7.775,29.0
127.263,7.246,7.003,22.0
33.443,1.898,1.647,7.0
162.278,9.185,7.043,13.0
158.073,8.92,5.947,16.0
157.144,8.844,5.009,4.0
127.334,7.148,7.537,26.0
33.45,1.872,1.787,2.0
33.469,1.867,1.595,1.0
157.972,8.787,6.601,14.0
157.549,8.738,5.677,9.0
162.484,8.984,4.919,10.0
127.129,7.009,7.32,27.0
33.432,1.837,1.732,39.0
162.305,8.889,7.472,30.0
157.637,8.608,6.335,17.0
157.51,8.573,5.422,16.0
156.988,8.517,4.502,9.0
128.84,6.969,7.213,9.0
33.425,1.801,1.678,31.0
159.723,8.582,7.101,16.0
157.442,8.431,6.079,12.0
156.895,8.372,5.152,7.0
162.498,8.642,4.403,14.0
150.357,7.971,8.18,29.0
33.472,1.768,1.628,1.0
159.939,8.417,6.856,16.0
157.476,8.257,5.828,12.0
156.984,8.204,4.908,5.0
162.89,8.482,4.156,5.0
154.545,8.018,8.163,6.0
132.132,6.829,6.217,15.0
157.583,8.114,6.507,6.0
156.615,8.034,5.549,14.0
156.84,8.016,4.657,18.0
167.135,8.509,4.002,14.0
154.575,7.839,7.92,16.0
132.01,6.668,6.004,25.0
167.064,8.406,6.638,15.0
156.563,7.848,5.304,17.0
156.555,7.817,4.405,11.0
0.0,0.0,0.0,0.0
129.353,6.406,6.428,22.0
160.329,7.907,7.046,17.0
157.402,7.733,6.013,18.0
156.113,7.637,5.05,15.0
0.0,0.0,0.0,0.0
0.0,0.0,0.0,0.0
132.292,6.387,6.37,11.0
129.896,6.245,5.508,9.0
156.735,7.502,5.745,15.0
156.312,7.449,4.817,10.0
0.0,0.0,0.0,0.0
0.0,0.0,0.0,0.0
129.611,6.092,6.043,33.0
157.134,7.352,6.423,8.0
174.027,8.106,6.114,10.0
174.139,8.074,5.101,7.0
0.0,0.0,0.0,0.0
0.0,0.0,0.0,0.0
129.7,5.927,5.852,33.0
124.388,5.657,4.898,18.0
157.399,7.123,5.294,14.0
173.828,7.828,4.831,26.0
0.0,0.0,0.0,0.0
0.0,0.0,0.0,0.0
124.29,5.511,5.422,29.0
157.12,6.933,5.953,19.0
157.736,6.923,5.069,6.0
173.662,7.584,4.568,5.0
0.0,0.0,0.0,0.0
101.165,4.372,1.501,2.0
124.221,5.336,5.235,52.0
157.024,6.709,5.716,15.0
158.149,6.721,4.851,10.0
0.0,0.0,0.0,0.0
0.0,0.0,0.0,0.0
95.994,4.014,1.285,3.0
124.201,5.158,5.053,18.0
156.62,6.469,5.473,7.0
173.261,7.116,5.063,6.0
0.0,0.0,0.0,0.0
0.0,0.0,0.0,0.0
80.082,3.234,0.957,4.0
158.025,6.335,6.203,8.0
157.679,6.283,5.285,5.0
158.488,6.279,4.406,5.0
0.0,0.0,0.0,0.0
0.0,0.0,0.0,0.0
78.578,3.057,0.828,23.0
157.23,6.071,5.95,8.0
160.37,6.152,5.15,5.0
0.0,0.0,0.0,0.0
0.0,0.0,0.0,0.0
100.877,3.797,1.499,1.0
77.74,2.908,0.711,32.0
153.566,5.698,5.599,21.0
160.336,5.908,4.927,16.0
0.0,0.0,0.0,0.0
0.0,0.0,0.0,0.0
95.872,3.461,1.292,5.0
74.237,2.662,0.577,12.0
153.214,5.446,5.375,23.0
159.213,5.62,4.675,17.0
0.0,0.0,0.0,0.0
0.0,0.0,0.0,0.0
93.639,3.235,1.136,6.0
73.934,2.535,0.474,8.0
0.0,0.0,0.0,0.0
159.191,5.367,4.461,7.0
0.0,0.0,0.0,0.0
0.0,0.0,0.0,0.0
78.304,2.579,0.845,11.0
58.948,1.927,0.3,32.0
158.848,5.142,5.149,13.0
0.0,0.0,0.0,0.0
0.0,0.0,0.0,0.0
100.639,3.178,1.528,1.0
77.869,2.438,0.738,39.0
54.622,1.695,0.206,28.0
158.273,4.861,4.923,12.0
0.0,0.0,0.0,0.0
0.0,0.0,0.0,0.0
100.637,3.011,1.398,4.0
77.667,2.304,0.637,10.0
49.001,1.439,0.122,7.0
154.046,4.476,4.596,38.0
0.0,0.0,0.0,0.0
0.0,0.0,0.0,0.0
105.981,2.992,1.339,19.0
74.383,2.08,0.516,12.0
48.203,1.335,0.06,22.0
154.058,4.216,4.405,43.0
0.0,0.0,0.0,0.0
0.0,0.0,0.0,0.0
89.573,2.377,1.022,4.0
60.643,1.593,0.347,34.0
0.0,0.0,0.0,0.0
138.068,3.543,3.781,14.0
100.342,2.546,2.176,49.0
100.397,2.518,1.606,6.0
78.328,1.944,0.8,21.0
58.735,1.441,0.266,32.0
45.233,1.098,-0.051,9.0
146.597,3.507,3.841,24.0
0.0,0.0,0.0,0.0
106.206,2.481,1.575,6.0
77.861,1.796,0.704,35.0
0.0,0.0,0.0,0.0
39.547,0.89,-0.091,30.0
0.0,0.0,0.0,0.0
106.195,2.322,2.055,18.0
89.997,1.941,1.23,2.0
74.929,1.595,0.591,14.0
52.133,1.095,0.115,8.0
38.865,0.804,-0.134,39.0
128.026,2.608,3.062,50.0
106.313,2.133,1.938,2.0
120.937,2.391,1.517,5.0
74.674,1.454,0.506,12.0
47.625,0.914,0.052,25.0
37.92,0.716,-0.173,44.0
128.14,2.379,2.924,25.0
127.515,2.329,2.186,37.0
89.859,1.613,1.03,8.0
61.193,1.081,0.348,27.0
0.0,0.0,0.0,0.0
37.527,0.64,-0.211,32.0
190.118,3.181,4.135,22.0
126.986,2.085,2.041,35.0
89.578,1.444,0.932,8.0
0.0,0.0,0.0,0.0
44.551,0.692,-0.045,18.0
37.292,0.568,-0.248,12.0
190.132,2.831,3.939,35.0
126.587,1.845,1.905,40.0
78.046,1.113,0.732,17.0
48.049,0.67,0.173,56.0
43.986,0.6,-0.09,4.0
37.158,0.495,-0.286,5.0
55.102,0.714,1.084,4.0
48.21,0.61,0.676,18.0
48.093,0.593,0.402,82.0
47.97,0.578,0.125,68.0
39.166,0.459,-0.119,39.0
37.246,0.425,-0.323,0.0
48.139,0.533,0.9,97.0
48.103,0.517,0.628,105.0
48.054,0.501,0.355,101.0
47.828,0.484,0.078,54.0
38.66,0.379,-0.154,48.0
32.959,0.312,-0.318,1.0
48.098,0.44,0.854,113.0
48.077,0.425,0.582,112.0
48.047,0.409,0.31,101.0
47.148,0.387,0.034,41.0
38.344,0.302,-0.189,37.0
32.265,0.243,-0.341,1.0
48.12,0.347,0.811,98.0
48.131,0.332,0.539,51.0
48.174,0.316,0.268,63.0
0.0,0.0,0.0,0.0
38.248,0.227,-0.222,13.0
31.39,0.176,-0.359,1.0
59.3,0.312,0.947,117.0
59.305,0.292,0.612,110.0
59.347,0.273,0.278,11.0
0.0,0.0,0.0,0.0
37.908,0.149,-0.253,15.0
30.745,0.111,-0.379,1.0
79.463,0.26,1.201,151.0
79.436,0.234,0.753,150.0
55.156,0.143,0.212,14.0
43.829,0.099,-0.082,7.0
38.106,0.074,-0.286,3.0
30.107,0.048,-0.395,1.0
79.465,0.102,1.137,151.0
79.428,0.076,0.689,76.0
55.02,0.034,0.167,17.0
40.712,0.012,-0.108,17.0
38.295,0.0,-0.317,1.0
29.607,-0.01,-0.412,2.0
79.461,-0.054,1.076,151.0
79.261,-0.082,0.627,31.0
0.0,0.0,0.0,0.0
40.257,-0.068,-0.138,16.0
33.836,-0.068,-0.306,1.0
29.3,-0.069,-0.43,3.0
79.458,-0.215,1.017,151.0
76.68,-0.232,0.551,14.0
0.0,0.0,0.0,0.0
39.592,-0.147,-0.164,4.0
33.241,-0.135,-0.325,1.0
28.798,-0.127,-0.443,2.0
79.463,-0.377,0.96,154.0
76.709,-0.39,0.496,14.0
49.036,-0.265,0.042,23.0
40.913,-0.235,-0.198,3.0
32.519,-0.197,-0.34,1.0
28.369,-0.183,-0.456,1.0
79.457,-0.537,0.908,184.0
77.011,-0.548,0.447,9.0
48.065,-0.359,0.009,3.0
43.933,-0.342,-0.241,2.0
31.636,-0.258,-0.351,1.0
27.882,-0.237,-0.466,2.0
79.45,-0.701,0.857,173.0
77.174,-0.708,0.4,3.0
50.848,-0.484,-0.021,4.0
38.545,-0.38,-0.236,7.0
31.027,-0.317,-0.363,2.0
27.611,-0.292,-0.478,2.0
79.463,-0.865,0.809,151.0
77.682,-0.873,0.356,1.0
54.458,-0.63,-0.054,2.0
41.906,-0.499,-0.28,0.0
30.767,-0.377,-0.378,1.0
27.184,-0.343,-0.486,2.0
86.99,-1.125,0.838,35.0
0.0,0.0,0.0,0.0
53.651,-0.731,-0.083,1.0
38.804,-0.542,-0.281,0.0
30.301,-0.434,-0.388,1.0
26.842,-0.394,-0.494,1.0
99.003,-1.485,0.902,4.0
248.371,-3.811,0.876,58.0
51.556,-0.809,-0.106,0.0
40.145,-0.645,-0.311,0.0
29.924,-0.491,-0.399,1.0
26.597,-0.446,-0.503,1.0
40.279,-0.687,0.347,47.0
40.275,-0.701,0.122,66.0
40.309,-0.716,-0.102,66.0
0.0,0.0,0.0,0.0
29.69,-0.549,-0.409,1.0
26.343,-0.497,-0.51,1.0
40.255,-0.77,0.329,56.0
40.324,-0.786,0.104,14.0
46.717,-0.928,-0.139,1.0
0.0,0.0,0.0,0.0
29.494,-0.607,-0.419,1.0
26.112,-0.547,-0.517,1.0
0.0,0.0,0.0,0.0
0.0,0.0,0.0,0.0
40.312,-0.885,-0.136,0.0
34.235,-0.764,-0.309,0.0
29.387,-0.667,-0.429,1.0
25.865,-0.596,-0.522,1.0
40.302,-0.941,0.297,150.0
40.287,-0.955,0.073,82.0
40.303,-0.971,-0.15,1.0
33.454,-0.817,-0.314,0.0
29.047,-0.72,-0.435,1.0
25.711,-0.647,-0.528,1.0
40.214,-1.023,0.283,58.0
40.681,-1.049,0.06,15.0
40.996,-1.073,-0.166,160.0
33.422,-0.887,-0.325,1.0
28.83,-0.775,-0.44,1.0
25.566,-0.697,-0.533,1.0
40.205,-1.107,0.271,60.0
40.194,-1.121,0.048,68.0
40.208,-1.136,-0.175,53.0
33.228,-0.951,-0.332,1.0
28.648,-0.83,-0.445,2.0
25.431,-0.746,-0.537,1.0
0.0,0.0,0.0,0.0
0.0,0.0,0.0,0.0
0.0,0.0,0.0,0.0
32.973,-1.013,-0.337,1.0
28.57,-0.888,-0.451,1.0
25.32,-0.796,-0.54,1.0
0.0,0.0,0.0,0.0
0.0,0.0,0.0,0.0
41.902,-1.358,-0.201,0.0
32.76,-1.074,-0.342,1.0
28.512,-0.946,-0.456,1.0
25.252,-0.847,-0.544,1.0
0.0,0.0,0.0,0.0
56.679,-1.935,0.031,0.0
0.0,0.0,0.0,0.0
32.645,-1.138,-0.346,1.0
28.469,-1.003,-0.46,1.0
25.169,-0.896,-0.545,1.0
0.0,0.0,0.0,0.0
0.0,0.0,0.0,0.0
40.124,-1.467,-0.205,29.0
32.61,-1.205,-0.35,1.0
28.321,-1.057,-0.461,1.0
25.123,-0.947,-0.548,1.0
0.0,0.0,0.0,0.0
40.148,-1.537,0.012,14.0
37.805,-1.461,-0.197,150.0
32.651,-1.274,-0.353,1.0
28.291,-1.114,-0.462,2.0
25.106,-0.998,-0.549,1.0
0.0,0.0,0.0,0.0
0.0,0.0,0.0,0.0
37.789,-1.538,-0.199,39.0
32.436,-1.332,-0.353,1.0
28.358,-1.175,-0.465,2.0
25.069,-1.048,-0.549,1.0
0.0,0.0,0.0,0.0
0.0,0.0,0.0,0.0
41.464,-1.773,-0.219,0.0
33.539,-1.447,-0.365,2.0
28.321,-1.232,-0.464,1.0
25.083,-1.101,-0.55,1.0
0.0,0.0,0.0,0.0
0.0,0.0,0.0,0.0
0.0,0.0,0.0,0.0
33.408,-1.51,-0.363,7.0
28.318,-1.29,-0.464,1.0
25.097,-1.153,-0.549,1.0
0.0,0.0,0.0,0.0
0.0,0.0,0.0,0.0
42.052,-1.972,-0.219,0.0
33.321,-1.575,-0.36,10.0
28.505,-1.358,-0.465,7.0
25.2,-1.21,-0.549,1.0
0.0,0.0,0.0,0.0
59.994,-2.914,0.022,2.0
0.0,0.0,0.0,0.0
32.893,-1.622,-0.352,1.0
28.506,-1.416,-0.462,9.0
25.182,-1.26,-0.546,1.0
0.0,0.0,0.0,0.0
59.732,-3.022,0.029,5.0
0.0,0.0,0.0,0.0
32.96,-1.692,-0.348,1.0
28.616,-1.479,-0.459,7.0
25.288,-1.317,-0.545,1.0
0.0,0.0,0.0,0.0
59.575,-3.134,0.039,6.0
0.0,0.0,0.0,0.0
33.652,-1.795,-0.35,1.0
28.702,-1.542,-0.456,1.0
25.404,-1.374,-0.543,1.0
0.0,0.0,0.0,0.0
0.0,0.0,0.0,0.0
0.0,0.0,0.0,0.0
34.072,-1.885,-0.347,0.0
28.994,-1.615,-0.454,2.0
25.55,-1.433,-0.54,1.0
0.0,0.0,0.0,0.0
58.506,-3.31,0.063,5.0
0.0,0.0,0.0,0.0
34.597,-1.982,-0.344,1.0
29.116,-1.679,-0.449,2.0
25.7,-1.491,-0.537,1.0
0.0,0.0,0.0,0.0
59.556,-3.486,0.081,5.0
0.0,0.0,0.0,0.0
34.893,-2.067,-0.337,0.0
29.204,-1.741,-0.442,1.0
25.842,-1.55,-0.532,1.0
0.0,0.0,0.0,0.0
62.564,-3.784,0.104,4.0
50.267,-3.058,-0.19,1.0
35.74,-2.188,-0.334,0.0
29.511,-1.817,-0.437,1.0
26.168,-1.621,-0.53,3.0
0.0,0.0,0.0,0.0
62.418,-3.896,0.125,4.0
50.4,-3.164,-0.173,1.0
37.16,-2.346,-0.334,0.0
29.795,-1.892,-0.43,1.0
26.422,-1.687,-0.526,2.0
0.0,0.0,0.0,0.0
62.42,-4.015,0.148,3.0
50.391,-3.259,-0.154,1.0
37.431,-2.434,-0.322,0.0
30.166,-1.972,-0.424,1.0
26.49,-1.741,-0.516,2.0
0.0,0.0,0.0,0.0
0.0,0.0,0.0,0.0
50.384,-3.354,-0.133,2.0
37.981,-2.541,-0.311,1.0
30.529,-2.054,-0.416,1.0
26.755,-1.809,-0.51,1.0
0.0,0.0,0.0,0.0
0.0,0.0,0.0,0.0
50.449,-3.452,-0.11,6.0
39.177,-2.695,-0.302,0.0
31.034,-2.145,-0.408,1.0
27.053,-1.88,-0.503,1.0
0.0,0.0,0.0,0.0
0.0,0.0,0.0,0.0
50.47,-3.547,-0.085,5.0
40.064,-2.829,-0.29,0.0
31.82,-2.258,-0.403,1.0
27.346,-1.95,-0.495,1.0
0.0,0.0,0.0,0.0
0.0,0.0,0.0,0.0
50.387,-3.633,-0.059,0.0
0.0,0.0,0.0,0.0
32.273,-2.349,-0.391,1.0
27.75,-2.03,-0.487,1.0
0.0,0.0,0.0,0.0
0.0,0.0,0.0,0.0
0.0,0.0,0.0,0.0
0.0,0.0,0.0,0.0
32.903,-2.454,-0.38,1.0
28.591,-2.142,-0.486,2.0
0.0,0.0,0.0,0.0
0.0,0.0,0.0,0.0
0.0,0.0,0.0,0.0
42.47,-3.228,-0.236,0.0
33.869,-2.586,-0.372,1.0
28.675,-2.199,-0.47,1.0
0.0,0.0,0.0,0.0
0.0,0.0,0.0,0.0
0.0,0.0,0.0,0.0
0.0,0.0,0.0,0.0
34.67,-2.707,-0.359,0.0
29.252,-2.294,-0.461,1.0
0.0,0.0,0.0,0.0
0.0,0.0,0.0,0.0
0.0,0.0,0.0,0.0
50.326,-3.999,-0.215,0.0
37.324,-2.978,-0.361,0.0
29.7,-2.38,-0.448,1.0
122.413,-9.818,1.555,2.0
87.101,-7.013,0.636,1.0
0.0,0.0,0.0,0.0
50.421,-4.092,-0.181,3.0
37.503,-3.056,-0.337,1.0
30.096,-2.462,-0.433,1.0
122.199,-10.006,1.639,99.0
0.0,0.0,0.0,0.0
0.0,0.0,0.0,0.0
50.378,-4.172,-0.145,1.0
39.476,-3.282,-0.327,0.0
30.973,-2.585,-0.423,1.0
122.01,-10.191,1.724,33.0
0.0,0.0,0.0,0.0
0.0,0.0,0.0,0.0
50.396,-4.256,-0.108,1.0
40.449,-3.428,-0.304,0.0
32.125,-2.733,-0.415,1.0
121.807,-10.371,1.814,2.0
0.0,0.0,0.0,0.0
121.796,-10.443,0.501,3.0
0.0,0.0,0.0,0.0
41.019,-3.543,-0.277,0.0
32.684,-2.833,-0.396,0.0
0.0,0.0,0.0,0.0
111.414,-9.695,1.147,5.0
0.0,0.0,0.0,0.0
0.0,0.0,0.0,0.0
0.0,0.0,0.0,0.0
34.237,-3.02,-0.388,0.0
110.295,-9.735,1.819,7.0
109.679,-9.713,1.218,8.0
0.0,0.0,0.0,0.0
0.0,0.0,0.0,0.0
0.0,0.0,0.0,0.0
0.0,0.0,0.0,0.0
109.189,-9.803,1.893,2.0
108.656,-9.786,1.299,151.0
0.0,0.0,0.0,0.0
0.0,0.0,0.0,0.0
50.404,-4.583,-0.215,1.0
37.49,-3.42,-0.361,0.0
108.899,-9.937,1.981,13.0
108.551,-9.936,1.392,150.0
0.0,0.0,0.0,0.0
0.0,0.0,0.0,0.0
50.396,-4.655,-0.171,1.0
38.438,-3.561,-0.337,0.0
108.896,-10.095,2.078,5.0
108.503,-10.087,1.487,36.0
0.0,0.0,0.0,0.0
0.0,0.0,0.0,0.0
50.388,-4.726,-0.125,1.0
0.0,0.0,0.0,0.0
108.826,-10.242,2.175,15.0
0.0,0.0,0.0,0.0
100.704,-9.531,0.932,5.0
0.0,0.0,0.0,0.0
0.0,0.0,0.0,0.0
41.062,-3.919,-0.284,0.0
149.532,-14.279,3.129,18.0
0.0,0.0,0.0,0.0
0.0,0.0,0.0,0.0
91.254,-8.785,0.433,1.0
0.0,0.0,0.0,0.0
0.0,0.0,0.0,0.0
149.48,-14.476,3.273,78.0
97.495,-9.465,1.611,5.0
96.88,-9.43,1.082,1.0
91.175,-8.898,0.522,3.0
0.0,0.0,0.0,0.0
44.962,-4.411,-0.224,0.0
188.093,-18.459,4.302,46.0
96.807,-9.524,1.695,1.0
95.693,-9.437,1.163,3.0
94.94,-9.386,0.636,2.0
0.0,0.0,0.0,0.0
50.444,-5.012,-0.201,4.0
187.654,-18.652,4.478,38.0
95.766,-9.541,1.773,3.0
94.715,-9.458,1.246,7.0
94.798,-9.489,0.731,1.0
0.0,0.0,0.0,0.0
50.45,-5.074,-0.15,6.0
188.004,-18.917,4.679,53.0
95.867,-9.667,1.873,11.0
94.702,-9.571,1.344,4.0
89.493,-9.066,0.782,3.0
0.0,0.0,0.0,0.0
50.493,-5.139,-0.098,0.0
187.916,-19.135,4.875,52.0
96.189,-9.815,1.982,2.0
88.493,-9.05,1.35,11.0
87.845,-9.003,0.862,3.0
0.0,0.0,0.0,0.0
0.0,0.0,0.0,0.0
157.497,-16.22,4.256,102.0
96.148,-9.922,2.083,7.0
87.064,-9.003,1.421,10.0
86.53,-8.966,0.942,16.0
0.0,0.0,0.0,0.0
0.0,0.0,0.0,0.0
187.77,-19.546,5.277,37.0
188.384,-19.647,4.286,32.0
86.634,-9.053,1.508,5.0
86.432,-9.049,1.034,150.0
86.83,-9.109,0.575,3.0
0.0,0.0,0.0,0.0
187.84,-19.754,5.485,24.0
188.368,-19.845,4.492,29.0
86.537,-9.134,1.602,28.0
86.398,-9.137,1.129,65.0
87.046,-9.222,0.673,19.0
0.0,0.0,0.0,0.0
188.157,-19.983,5.704,26.0
123.585,-13.148,3.086,86.0
86.562,-9.225,1.7,26.0
86.34,-9.217,1.226,67.0
86.378,-9.238,0.766,13.0
79.629,-8.533,0.282,10.0
123.411,-13.229,3.88,64.0
123.528,-13.263,3.226,99.0
