X,Y,Z,Reflectivity
12.288,-1.194,-0.82,0.0
11.504,-1.121,-0.831,0.0
10.926,-1.067,-0.85,0.0
10.339,-1.012,-0.862,0.0
9.824,-0.964,-0.873,3.0
13.165,-1.291,-0.799,0.0
12.334,-1.212,-0.816,0.0
11.705,-1.153,-0.839,0.0
10.969,-1.083,-0.848,0.0
10.41,-1.031,-0.862,0.0
9.865,-0.979,-0.871,3.0
13.261,-1.315,-0.797,0.0
12.428,-1.235,-0.815,0.0
11.769,-1.172,-0.837,0.0
11.039,-1.102,-0.847,0.0
10.464,-1.047,-0.86,0.0
9.911,-0.994,-0.869,2.0
13.342,-1.337,-0.794,0.0
12.539,-1.259,-0.815,0.0
11.799,-1.187,-0.832,0.0
11.146,-1.124,-0.848,0.0
10.541,-1.066,-0.86,0.0
9.946,-1.008,-0.866,1.0
13.427,-1.359,-0.791,1.0
12.614,-1.279,-0.812,0.0
11.893,-1.209,-0.831,0.0
11.211,-1.142,-0.846,0.0
10.589,-1.081,-0.857,0.0
10.032,-1.027,-0.867,1.0
13.564,-1.386,-0.79,1.0
12.702,-1.301,-0.809,0.0
11.978,-1.229,-0.829,0.0
11.317,-1.164,-0.846,0.0
10.629,-1.096,-0.853,0.0
10.094,-1.043,-0.866,0.0
13.668,-1.41,-0.787,1.0
12.799,-1.323,-0.807,0.0
12.067,-1.25,-0.827,0.0
11.386,-1.182,-0.843,0.0
10.747,-1.118,-0.855,0.0
10.147,-1.058,-0.863,0.0
13.795,-1.436,-0.785,1.0
12.924,-1.348,-0.805,0.0
12.155,-1.27,-0.824,0.0
11.475,-1.201,-0.842,0.0
10.903,-1.144,-0.859,0.0
10.22,-1.074,-0.862,0.0
13.919,-1.461,-0.781,0.0
13.046,-1.372,-0.803,0.0
12.242,-1.29,-0.82,0.0
11.56,-1.22,-0.839,0.0
10.975,-1.161,-0.856,0.0
10.365,-1.099,-0.866,0.0
14.037,-1.486,-0.777,0.0
13.164,-1.396,-0.8,0.0
12.333,-1.31,-0.817,0.0
11.658,-1.24,-0.837,0.0
11.032,-1.176,-0.852,0.0
10.511,-1.123,-0.869,0.0
14.211,-1.516,-0.775,0.0
13.282,-1.419,-0.797,0.0
12.494,-1.337,-0.817,0.0
11.777,-1.263,-0.836,0.0
11.138,-1.196,-0.851,0.0
10.537,-1.134,-0.863,0.0
14.379,-1.545,-0.772,0.0
13.443,-1.447,-0.795,0.0
12.614,-1.36,-0.814,0.0
11.863,-1.281,-0.832,0.0
11.218,-1.213,-0.847,0.0
10.699,-1.159,-0.866,0.0
14.549,-1.574,-0.769,0.0
13.603,-1.474,-0.792,0.0
12.748,-1.384,-0.812,0.0
11.987,-1.303,-0.83,0.0
11.306,-1.231,-0.844,0.0
10.727,-1.17,-0.859,0.0
14.735,-1.605,-0.765,1.0
13.731,-1.498,-0.788,1.0
12.851,-1.404,-0.807,0.0
12.087,-1.322,-0.826,0.0
11.428,-1.252,-0.843,0.0
10.826,-1.188,-0.857,0.0
14.895,-1.632,-0.76,0.0
13.904,-1.526,-0.785,0.0
13.037,-1.433,-0.806,0.0
12.214,-1.344,-0.823,0.0
11.554,-1.273,-0.841,0.0
10.939,-1.207,-0.855,0.0
15.12,-1.667,-0.757,0.0
14.04,-1.55,-0.779,0.0
13.154,-1.454,-0.801,0.0
12.353,-1.367,-0.82,0.0
11.69,-1.295,-0.839,0.0
11.041,-1.225,-0.853,0.0
15.364,-1.703,-0.755,0.0
14.255,-1.582,-0.777,0.0
13.349,-1.483,-0.8,1.0
12.504,-1.391,-0.818,0.0
11.794,-1.314,-0.835,0.0
11.141,-1.242,-0.85,0.0
15.606,-1.738,-0.751,1.0
14.449,-1.611,-0.773,0.0
13.493,-1.506,-0.795,0.0
12.638,-1.412,-0.814,0.0
11.936,-1.336,-0.833,0.0
11.25,-1.26,-0.846,0.0
15.842,-1.772,-0.746,1.0
14.641,-1.64,-0.769,0.0
13.66,-1.532,-0.791,0.0
12.785,-1.435,-0.81,0.0
12.056,-1.355,-0.829,0.0
11.384,-1.281,-0.845,0.0
16.135,-1.813,-0.743,1.0
14.861,-1.671,-0.765,0.0
13.847,-1.559,-0.787,1.0
12.993,-1.464,-0.81,1.0
12.211,-1.378,-0.827,0.0
11.515,-1.301,-0.842,0.0
16.255,-1.833,-0.732,4.0
15.089,-1.703,-0.76,0.0
14.021,-1.584,-0.782,0.0
13.093,-1.481,-0.802,1.0
12.348,-1.398,-0.823,0.0
11.657,-1.321,-0.84,0.0
16.303,-1.845,-0.716,2.0
15.341,-1.738,-0.756,0.0
14.229,-1.613,-0.778,0.0
13.292,-1.508,-0.8,0.0
12.488,-1.418,-0.819,0.0
11.812,-1.343,-0.838,0.0
16.364,-1.858,-0.701,1.0
15.599,-1.772,-0.752,0.0
14.452,-1.643,-0.774,0.0
13.477,-1.533,-0.796,0.0
12.66,-1.442,-0.816,0.0
11.928,-1.359,-0.833,0.0
16.639,-1.894,-0.694,1.0
15.892,-1.81,-0.748,1.0
14.648,-1.67,-0.768,0.0
13.681,-1.56,-0.792,0.0
12.846,-1.466,-0.813,0.0
12.097,-1.382,-0.831,0.0
17.55,-2.002,-0.713,0.0
16.205,-1.85,-0.745,2.0
14.915,-1.704,-0.765,0.0
13.886,-1.587,-0.789,0.0
12.994,-1.486,-0.808,1.0
12.242,-1.401,-0.827,0.0
17.87,-2.042,-0.705,1.0
16.27,-1.861,-0.729,3.0
15.178,-1.737,-0.762,1.0
14.08,-1.612,-0.783,1.0
13.147,-1.506,-0.802,0.0
12.397,-1.421,-0.823,0.0
18.204,-2.084,-0.698,0.0
16.315,-1.868,-0.712,2.0
15.436,-1.768,-0.757,1.0
14.295,-1.638,-0.779,0.0
13.401,-1.537,-0.802,0.0
12.58,-1.443,-0.82,0.0
18.611,-2.133,-0.691,1.0
16.417,-1.882,-0.698,1.0
15.731,-1.804,-0.752,0.0
14.538,-1.668,-0.775,0.0
13.587,-1.559,-0.797,0.0
12.738,-1.462,-0.815,0.0
19.218,-2.204,-0.691,2.0
17.183,-1.971,-0.71,1.0
16.064,-1.843,-0.749,1.0
14.761,-1.694,-0.769,0.0
13.771,-1.581,-0.791,0.0
12.959,-1.488,-0.814,1.0
19.543,-2.242,-0.68,7.0
17.723,-2.033,-0.711,0.0
16.249,-1.864,-0.738,2.0
15.048,-1.727,-0.766,1.0
13.977,-1.605,-0.786,1.0
13.074,-1.501,-0.805,1.0
19.902,-2.283,-0.668,11.0
18.049,-2.07,-0.702,0.0
16.303,-1.87,-0.721,2.0
15.309,-1.756,-0.761,1.0
14.224,-1.632,-0.783,0.0
13.298,-1.526,-0.803,0.0
20.285,-2.326,-0.656,18.0
18.474,-2.118,-0.696,1.0
16.373,-1.877,-0.704,1.0
15.591,-1.787,-0.756,0.0
14.492,-1.662,-0.78,0.0
13.516,-1.55,-0.799,0.0
20.713,-2.373,-0.645,13.0
18.907,-2.165,-0.689,1.0
16.88,-1.933,-0.705,1.0
15.931,-1.824,-0.753,1.0
14.683,-1.681,-0.772,1.0
13.72,-1.571,-0.795,0.0
21.274,-2.434,-0.636,14.0
19.484,-2.229,-0.687,4.0
17.623,-2.015,-0.715,0.0
16.216,-1.854,-0.746,2.0
14.975,-1.712,-0.769,1.0
13.933,-1.593,-0.79,0.0
21.79,-2.489,-0.625,19.0
19.79,-2.26,-0.673,8.0
17.952,-2.049,-0.706,0.0
16.285,-1.859,-0.729,2.0
15.246,-1.74,-0.764,1.0
14.147,-1.614,-0.784,1.0
22.305,-2.542,-0.612,27.0
20.236,-2.306,-0.663,13.0
18.337,-2.088,-0.699,0.0
16.336,-1.86,-0.711,1.0
15.541,-1.769,-0.759,1.0
14.426,-1.642,-0.782,0.0
22.797,-2.592,-0.597,26.0
20.584,-2.339,-0.649,12.0
18.755,-2.13,-0.691,0.0
16.484,-1.872,-0.697,1.0
15.855,-1.8,-0.755,1.0
14.655,-1.663,-0.776,1.0
23.305,-2.642,-0.582,15.0
21.197,-2.402,-0.642,11.0
19.435,-2.201,-0.692,3.0
17.511,-1.982,-0.719,0.0
16.184,-1.831,-0.75,2.0
14.9,-1.685,-0.77,0.0
23.9,-2.701,-0.567,4.0
21.732,-2.454,-0.631,16.0
19.711,-2.224,-0.677,7.0
17.871,-2.015,-0.711,0.0
16.271,-1.834,-0.734,3.0
15.194,-1.712,-0.766,0.0
25.14,-2.83,-0.565,1.0
22.201,-2.497,-0.617,22.0
20.168,-2.267,-0.668,8.0
18.226,-2.047,-0.702,0.0
16.315,-1.831,-0.715,1.0
15.477,-1.736,-0.761,0.0
25.725,-2.884,-0.546,1.0
22.784,-2.552,-0.605,21.0
20.572,-2.302,-0.655,11.0
18.629,-2.083,-0.695,0.0
16.424,-1.835,-0.7,1.0
15.785,-1.763,-0.757,1.0
26.496,-2.957,-0.529,1.0
23.401,-2.609,-0.592,27.0
21.088,-2.349,-0.645,10.0
19.161,-2.133,-0.691,1.0
17.401,-1.935,-0.72,0.0
16.111,-1.79,-0.752,1.0
27.426,-3.045,-0.514,1.0
23.84,-2.645,-0.574,19.0
21.637,-2.398,-0.636,12.0
19.717,-2.183,-0.686,3.0
17.802,-1.969,-0.714,0.0
16.258,-1.797,-0.739,3.0
28.305,-3.126,-0.496,1.0
24.394,-2.691,-0.557,3.0
22.153,-2.441,-0.624,16.0
20.015,-2.203,-0.672,9.0
18.165,-1.998,-0.706,0.0
16.319,-1.793,-0.721,1.0
29.172,-3.203,-0.475,1.0
25.629,-2.811,-0.553,1.0
22.687,-2.485,-0.611,17.0
20.347,-2.226,-0.658,11.0
18.572,-2.03,-0.699,0.0
16.42,-1.792,-0.706,1.0
30.056,-3.279,-0.452,1.0
26.342,-2.87,-0.536,1.0
23.261,-2.531,-0.597,24.0
20.787,-2.259,-0.646,4.0
18.94,-2.056,-0.69,1.0
17.139,-1.858,-0.715,0.0
31.248,-3.386,-0.432,0.0
27.069,-2.929,-0.518,1.0
23.735,-2.565,-0.581,21.0
21.646,-2.336,-0.647,4.0
19.556,-2.108,-0.688,1.0
17.708,-1.906,-0.718,0.0
32.903,-3.54,-0.416,1.0
27.942,-3.002,-0.501,1.0
24.203,-2.596,-0.563,5.0
22.018,-2.359,-0.632,8.0
20.124,-2.153,-0.684,7.0
18.018,-1.925,-0.708,0.0
34.481,-3.681,-0.394,0.0
28.867,-3.077,-0.483,1.0
25.456,-2.709,-0.561,1.0
22.551,-2.396,-0.62,11.0
20.385,-2.163,-0.669,23.0
18.448,-1.955,-0.703,0.0
35.693,-3.78,-0.365,0.0
29.683,-3.138,-0.461,1.0
26.082,-2.753,-0.544,1.0
23.092,-2.433,-0.607,21.0
20.503,-2.157,-0.648,10.0
18.812,-1.976,-0.695,1.0
0.0,0.0,0.0,0.0
30.529,-3.199,-0.439,1.0
26.773,-2.801,-0.527,1.0
23.578,-2.462,-0.592,28.0
21.075,-2.197,-0.641,2.0
19.236,-2.002,-0.688,1.0
40.018,-4.164,-0.315,1.0
32.287,-3.353,-0.426,1.0
27.569,-2.857,-0.511,1.0
23.973,-2.48,-0.574,17.0
21.733,-2.244,-0.636,1.0
19.885,-2.05,-0.688,2.0
41.742,-4.301,-0.28,0.0
33.407,-3.436,-0.402,1.0
28.455,-2.921,-0.494,1.0
24.624,-2.522,-0.562,4.0
22.275,-2.278,-0.627,1.0
20.333,-2.075,-0.68,7.0
44.941,-4.584,-0.251,0.0
35.382,-3.602,-0.386,0.0
29.311,-2.977,-0.475,1.0
25.604,-2.596,-0.555,1.0
23.068,-2.334,-0.623,3.0
20.511,-2.071,-0.663,9.0
50.434,-5.091,-0.225,0.0
37.387,-3.766,-0.366,0.0
30.13,-3.028,-0.455,1.0
26.231,-2.63,-0.539,1.0
23.647,-2.366,-0.612,5.0
20.751,-2.072,-0.648,4.0
50.407,-5.032,-0.169,6.0
38.546,-3.838,-0.334,0.0
31.379,-3.118,-0.439,1.0
27.021,-2.679,-0.525,1.0
24.103,-2.384,-0.597,5.0
21.347,-2.107,-0.643,1.0
50.46,-4.979,-0.114,6.0
40.826,-4.018,-0.31,0.0
32.481,-3.19,-0.42,1.0
27.758,-2.719,-0.51,1.0
24.593,-2.403,-0.583,2.0
21.837,-2.129,-0.634,1.0
50.521,-4.924,-0.059,0.0
41.876,-4.071,-0.273,0.0
33.468,-3.245,-0.397,1.0
28.416,-2.749,-0.491,1.0
25.075,-2.42,-0.567,1.0
22.29,-2.146,-0.623,1.0
0.0,0.0,0.0,0.0
44.618,-4.282,-0.243,0.0
35.584,-3.406,-0.384,0.0
29.234,-2.791,-0.474,1.0
25.649,-2.442,-0.553,1.0
22.85,-2.17,-0.615,1.0
0.0,0.0,0.0,0.0
0.0,0.0,0.0,0.0
35.949,-3.395,-0.351,0.0
29.959,-2.821,-0.455,1.0
26.313,-2.471,-0.541,1.0
23.3,-2.183,-0.603,1.0
0.0,0.0,0.0,0.0
50.447,-4.71,-0.172,1.0
0.0,0.0,0.0,0.0
30.864,-2.865,-0.438,1.0
26.836,-2.484,-0.524,1.0
23.768,-2.194,-0.592,1.0
0.0,0.0,0.0,0.0
50.462,-4.643,-0.122,4.0
40.73,-3.736,-0.316,0.0
31.871,-2.915,-0.421,1.0
27.646,-2.521,-0.513,1.0
24.363,-2.215,-0.582,1.0
0.0,0.0,0.0,0.0
50.513,-4.577,-0.072,2.0
41.686,-3.765,-0.283,0.0
32.881,-2.961,-0.403,0.0
28.304,-2.541,-0.498,1.0
25.03,-2.24,-0.575,1.0
0.0,0.0,0.0,0.0
0.0,0.0,0.0,0.0
0.0,0.0,0.0,0.0
34.238,-3.033,-0.387,0.0
28.865,-2.549,-0.481,1.0
25.466,-2.242,-0.561,1.0
97.984,-8.623,0.567,4.0
0.0,0.0,0.0,0.0
0.0,0.0,0.0,0.0
35.572,-3.099,-0.369,0.0
29.574,-2.568,-0.466,1.0
25.863,-2.238,-0.546,1.0
0.0,0.0,0.0,0.0
0.0,0.0,0.0,0.0
50.464,-4.335,-0.203,0.0
37.332,-3.196,-0.354,0.0
30.125,-2.57,-0.448,1.0
26.32,-2.238,-0.532,1.0
0.0,0.0,0.0,0.0
0.0,0.0,0.0,0.0
50.452,-4.256,-0.16,1.0
38.838,-3.265,-0.336,0.0
30.981,-2.595,-0.434,1.0
26.929,-2.247,-0.521,1.0
0.0,0.0,0.0,0.0
0.0,0.0,0.0,0.0
50.429,-4.175,-0.117,1.0
40.443,-3.336,-0.315,0.0
31.83,-2.615,-0.419,1.0
27.535,-2.255,-0.511,1.0
0.0,0.0,0.0,0.0
87.109,-7.101,0.337,1.0
50.5,-4.1,-0.076,1.0
0.0,0.0,0.0,0.0
32.615,-2.627,-0.403,1.0
28.169,-2.261,-0.5,1.0
0.0,0.0,0.0,0.0
0.0,0.0,0.0,0.0
0.0,0.0,0.0,0.0
42.007,-3.33,-0.261,0.0
33.423,-2.639,-0.388,1.0
28.508,-2.242,-0.484,1.0
0.0,0.0,0.0,0.0
0.0,0.0,0.0,0.0
0.0,0.0,0.0,0.0
44.508,-3.454,-0.243,0.0
34.755,-2.686,-0.377,0.0
29.135,-2.242,-0.473,1.0
131.318,-10.096,1.515,2.0
0.0,0.0,0.0,0.0
0.0,0.0,0.0,0.0
0.0,0.0,0.0,0.0
35.12,-2.654,-0.356,0.0
29.201,-2.197,-0.453,2.0
148.506,-11.164,1.819,154.0
0.0,0.0,0.0,0.0
61.953,-4.615,0.09,2.0
50.336,-3.733,-0.203,0.0
37.891,-2.797,-0.357,0.0
29.914,-2.199,-0.444,1.0
0.0,0.0,0.0,0.0
0.0,0.0,0.0,0.0
0.0,0.0,0.0,0.0
50.373,-3.647,-0.17,1.0
37.75,-2.72,-0.331,0.0
30.54,-2.191,-0.433,1.0
0.0,0.0,0.0,0.0
0.0,0.0,0.0,0.0
0.0,0.0,0.0,0.0
50.426,-3.561,-0.137,8.0
0.0,0.0,0.0,0.0
31.114,-2.176,-0.422,1.0
155.32,-10.85,2.206,3.0
0.0,0.0,0.0,0.0
0.0,0.0,0.0,0.0
50.466,-3.473,-0.107,5.0
40.253,-2.756,-0.304,0.0
31.736,-2.162,-0.411,1.0
187.1,-12.731,2.768,6.0
0.0,0.0,0.0,0.0
0.0,0.0,0.0,0.0
0.0,0.0,0.0,0.0
40.602,-2.706,-0.283,0.0
32.191,-2.134,-0.399,1.0
187.221,-12.391,2.873,150.0
0.0,0.0,0.0,0.0
0.0,0.0,0.0,0.0
0.0,0.0,0.0,0.0
41.094,-2.662,-0.265,0.0
32.854,-2.117,-0.39,1.0
187.189,-12.04,2.97,57.0
0.0,0.0,0.0,0.0
0.0,0.0,0.0,0.0
62.331,-3.942,-0.032,2.0
42.103,-2.648,-0.25,0.0
32.823,-2.052,-0.373,0.0
187.316,-11.692,3.065,123.0
0.0,0.0,0.0,0.0
0.0,0.0,0.0,0.0
59.917,-3.674,-0.002,1.0
0.0,0.0,0.0,0.0
34.109,-2.067,-0.372,1.0
0.0,0.0,0.0,0.0
0.0,0.0,0.0,0.0
0.0,0.0,0.0,0.0
59.524,-3.536,0.023,6.0
0.0,0.0,0.0,0.0
34.643,-2.032,-0.363,1.0
0.0,0.0,0.0,0.0
0.0,0.0,0.0,0.0
0.0,0.0,0.0,0.0
59.207,-3.402,0.047,5.0
0.0,0.0,0.0,0.0
35.005,-1.986,-0.353,0.0
227.994,-12.902,4.017,152.0
0.0,0.0,0.0,0.0
0.0,0.0,0.0,0.0
0.0,0.0,0.0,0.0
50.442,-2.78,-0.216,0.0
35.245,-1.93,-0.343,0.0
233.929,-12.776,4.204,90.0
0.0,0.0,0.0,0.0
0.0,0.0,0.0,0.0
61.66,-3.3,0.092,6.0
50.467,-2.682,-0.2,1.0
0.0,0.0,0.0,0.0
0.0,0.0,0.0,0.0
0.0,0.0,0.0,0.0
0.0,0.0,0.0,0.0
63.142,-3.254,0.112,2.0
50.451,-2.581,-0.185,4.0
36.254,-1.841,-0.331,0.0
0.0,0.0,0.0,0.0
0.0,0.0,0.0,0.0
0.0,0.0,0.0,0.0
0.0,0.0,0.0,0.0
50.463,-2.48,-0.172,6.0
37.589,-1.833,-0.334,0.0
0.0,0.0,0.0,0.0
0.0,0.0,0.0,0.0
0.0,0.0,0.0,0.0
0.0,0.0,0.0,0.0
50.447,-2.377,-0.161,1.0
37.199,-1.739,-0.323,0.0
0.0,0.0,0.0,0.0
0.0,0.0,0.0,0.0
0.0,0.0,0.0,0.0
0.0,0.0,0.0,0.0
50.464,-2.276,-0.153,3.0
37.891,-1.695,-0.322,3.0
0.0,0.0,0.0,0.0
0.0,0.0,0.0,0.0
0.0,0.0,0.0,0.0
0.0,0.0,0.0,0.0
50.461,-2.172,-0.145,2.0
37.73,-1.61,-0.316,8.0
0.0,0.0,0.0,0.0
0.0,0.0,0.0,0.0
0.0,0.0,0.0,0.0
0.0,0.0,0.0,0.0
37.809,-1.55,-0.105,120.0
37.742,-1.533,-0.312,60.0
0.0,0.0,0.0,0.0
0.0,0.0,0.0,0.0
0.0,0.0,0.0,0.0
0.0,0.0,0.0,0.0
40.139,-1.562,-0.108,154.0
37.749,-1.456,-0.31,23.0
0.0,0.0,0.0,0.0
0.0,0.0,0.0,0.0
0.0,0.0,0.0,0.0
0.0,0.0,0.0,0.0
49.515,-1.824,-0.132,4.0
40.088,-1.462,-0.328,5.0
0.0,0.0,0.0,0.0
0.0,0.0,0.0,0.0
0.0,0.0,0.0,0.0
0.0,0.0,0.0,0.0
0.0,0.0,0.0,0.0
37.852,-1.301,-0.31,1.0
0.0,0.0,0.0,0.0
0.0,0.0,0.0,0.0
0.0,0.0,0.0,0.0
0.0,0.0,0.0,0.0
0.0,0.0,0.0,0.0
40.371,-1.304,-0.333,1.0
40.358,-1.293,0.782,12.0
40.346,-1.278,0.559,57.0
0.0,0.0,0.0,0.0
0.0,0.0,0.0,0.0
40.209,-1.229,-0.113,1.0
40.108,-1.211,-0.334,1.0
40.356,-1.208,0.778,17.0
123.351,-3.647,1.696,76.0
40.244,-1.174,0.33,10.0
40.179,-1.157,0.104,54.0
40.268,-1.145,-0.118,62.0
40.081,-1.125,-0.339,0.0
40.273,-1.12,0.771,39.0
40.236,-1.104,0.547,45.0
40.189,-1.088,0.324,59.0
40.213,-1.074,0.098,40.0
40.993,-1.079,-0.126,163.0
0.0,0.0,0.0,0.0
40.199,-1.033,0.762,58.0
40.208,-1.018,0.54,57.0
40.267,-1.005,0.317,5.0
40.296,-0.991,0.09,10.0
40.326,-0.977,-0.132,150.0
40.275,-0.961,-0.355,1.0
40.197,-0.948,0.754,62.0
40.312,-0.936,0.532,150.0
40.283,-0.92,0.308,11.0
40.275,-0.905,0.081,0.0
0.0,0.0,0.0,0.0
35.553,-0.773,-0.322,0.0
40.235,-0.863,0.744,59.0
40.228,-0.848,0.521,62.0
40.28,-0.835,0.298,40.0
40.3,-0.821,0.07,2.0
46.691,-0.935,-0.177,3.0
34.291,-0.674,-0.32,0.0
40.18,-0.778,0.732,60.0
40.274,-0.765,0.51,34.0
40.24,-0.749,0.286,52.0
40.261,-0.735,0.058,66.0
40.306,-0.721,-0.165,49.0
34.019,-0.596,-0.328,1.0
0.0,0.0,0.0,0.0
149.122,-2.518,1.839,9.0
91.55,-1.511,0.619,7.0
61.599,-0.994,0.068,6.0
46.27,-0.73,-0.206,2.0
33.948,-0.524,-0.34,1.0
183.405,-2.775,3.216,42.0
148.137,-2.188,1.773,14.0
79.11,-1.14,0.506,2.0
60.81,-0.854,0.044,3.0
43.992,-0.602,-0.213,1.0
33.16,-0.442,-0.345,1.0
79.459,-1.034,1.361,150.0
79.462,-1.005,0.918,5.0
78.489,-0.966,0.469,16.0
80.025,-0.955,0.024,19.0
43.269,-0.5,-0.228,3.0
32.781,-0.367,-0.355,1.0
79.433,-0.866,1.326,190.0
79.455,-0.838,0.883,178.0
77.499,-0.789,0.428,11.0
53.66,-0.527,-0.008,5.0
42.188,-0.399,-0.241,3.0
32.181,-0.293,-0.364,1.0
79.449,-0.699,1.288,177.0
79.457,-0.672,0.845,195.0
77.014,-0.623,0.388,8.0
46.877,-0.362,-0.03,3.0
0.0,0.0,0.0,0.0
31.563,-0.222,-0.372,1.0
79.454,-0.533,1.247,161.0
79.453,-0.505,0.803,192.0
61.587,-0.37,0.278,7.0
46.589,-0.263,-0.054,21.0
39.459,-0.209,-0.266,4.0
30.951,-0.153,-0.382,1.0
79.454,-0.367,1.203,154.0
79.451,-0.339,0.759,150.0
61.428,-0.241,0.243,13.0
45.546,-0.162,-0.079,10.0
38.867,-0.126,-0.285,3.0
30.519,-0.088,-0.394,1.0
79.456,-0.202,1.157,151.0
79.459,-0.175,0.712,150.0
56.171,-0.105,0.189,11.0
0.0,0.0,0.0,0.0
38.347,-0.045,-0.304,3.0
30.136,-0.025,-0.408,1.0
79.46,-0.039,1.108,151.0
79.387,-0.011,0.662,89.0
54.873,0.01,0.149,10.0
40.725,0.021,-0.121,17.0
38.028,0.032,-0.326,1.0
29.747,0.035,-0.422,2.0
79.462,0.122,1.056,151.0
79.491,0.15,0.61,13.0
54.311,0.121,0.111,28.0
39.737,0.101,-0.144,41.0
37.8,0.109,-0.35,0.0
29.361,0.095,-0.436,2.0
79.43,0.284,1.0,108.0
59.336,0.232,0.414,96.0
54.529,0.232,0.074,20.0
39.063,0.179,-0.17,46.0
33.421,0.164,-0.333,1.0
28.931,0.152,-0.451,2.0
48.182,0.271,0.571,53.0
48.174,0.287,0.3,63.0
47.526,0.298,0.029,45.0
38.49,0.254,-0.196,39.0
32.727,0.227,-0.351,1.0
28.571,0.207,-0.467,1.0
48.078,0.366,0.533,108.0
48.039,0.382,0.262,103.0
0.0,0.0,0.0,0.0
37.985,0.326,-0.223,23.0
31.838,0.284,-0.366,1.0
27.904,0.258,-0.478,1.0
48.096,0.462,0.495,103.0
48.041,0.477,0.224,94.0
44.687,0.458,-0.042,20.0
37.639,0.398,-0.251,13.0
31.097,0.338,-0.383,2.0
27.313,0.306,-0.49,1.0
48.111,0.557,0.456,86.0
48.042,0.572,0.184,72.0
44.098,0.538,-0.079,11.0
37.236,0.466,-0.28,8.0
30.383,0.39,-0.4,2.0
26.965,0.354,-0.507,2.0
77.903,1.054,0.671,32.0
48.063,0.665,0.143,58.0
39.658,0.561,-0.105,23.0
37.005,0.535,-0.311,4.0
29.813,0.441,-0.419,2.0
26.502,0.4,-0.522,1.0
77.696,1.202,0.599,14.0
47.986,0.758,0.099,17.0
38.987,0.628,-0.139,47.0
36.843,0.604,-0.343,0.0
29.31,0.49,-0.438,2.0
22.503,0.383,-0.464,1.0
74.871,1.302,0.508,14.0
47.827,0.846,0.054,21.0
38.143,0.686,-0.171,44.0
33.019,0.604,-0.338,1.0
28.666,0.533,-0.456,1.0
22.33,0.422,-0.481,4.0
61.318,1.183,0.357,29.0
46.976,0.92,0.008,22.0
37.441,0.745,-0.204,34.0
31.951,0.645,-0.358,1.0
27.97,0.573,-0.472,1.0
21.569,0.449,-0.486,4.0
59.77,1.266,0.289,35.0
0.0,0.0,0.0,0.0
37.037,0.806,-0.239,17.0
31.048,0.685,-0.38,2.0
27.309,0.611,-0.489,2.0
21.085,0.478,-0.497,5.0
58.278,1.343,0.222,11.0
42.895,1.001,-0.079,3.0
36.622,0.865,-0.274,9.0
30.229,0.723,-0.401,2.0
26.992,0.653,-0.511,1.0
20.653,0.506,-0.508,6.0
0.0,0.0,0.0,0.0
39.468,0.993,-0.114,38.0
36.459,0.927,-0.312,4.0
29.48,0.758,-0.422,1.0
23.266,0.605,-0.465,4.0
20.107,0.529,-0.516,3.0
48.578,1.296,0.081,23.0
38.343,1.034,-0.152,41.0
33.685,0.917,-0.325,1.0
28.807,0.793,-0.444,1.0
22.157,0.616,-0.467,4.0
19.647,0.552,-0.526,3.0
47.536,1.353,0.027,23.0
36.893,1.06,-0.188,32.0
31.978,0.928,-0.344,1.0
27.986,0.82,-0.463,1.0
21.509,0.636,-0.478,4.0
19.17,0.572,-0.535,3.0
46.672,1.411,-0.026,21.0
36.637,1.118,-0.229,18.0
31.049,0.956,-0.37,1.0
27.578,0.856,-0.488,1.0
20.954,0.656,-0.49,4.0
18.77,0.593,-0.546,3.0
40.298,1.288,-0.07,16.0
36.212,1.168,-0.268,8.0
30.115,0.979,-0.394,2.0
23.786,0.78,-0.449,5.0
20.545,0.679,-0.505,3.0
18.376,0.613,-0.556,3.0
39.669,1.337,-0.117,51.0
35.893,1.219,-0.31,4.0
29.47,1.009,-0.422,2.0
22.856,0.788,-0.459,5.0
19.938,0.693,-0.514,3.0
17.918,0.628,-0.564,4.0
39.439,1.395,-0.164,24.0
33.267,1.186,-0.328,1.0
28.682,1.029,-0.446,2.0
21.883,0.791,-0.467,4.0
19.453,0.709,-0.526,3.0
17.468,0.641,-0.572,7.0
36.426,1.349,-0.197,31.0
31.626,1.179,-0.351,1.0
28.047,1.053,-0.471,1.0
21.163,0.799,-0.478,4.0
18.948,0.72,-0.536,3.0
17.106,0.655,-0.581,2.0
36.139,1.396,-0.241,12.0
30.725,1.195,-0.38,4.0
24.082,0.942,-0.435,5.0
20.68,0.814,-0.493,4.0
18.476,0.732,-0.546,3.0
16.586,0.661,-0.585,2.0
35.848,1.442,-0.285,6.0
29.755,1.204,-0.407,2.0
23.036,0.938,-0.446,5.0
20.127,0.824,-0.506,3.0
17.973,0.74,-0.555,3.0
16.193,0.671,-0.592,2.0
35.719,1.492,-0.331,0.0
29.001,1.219,-0.435,2.0
21.599,0.913,-0.447,11.0
19.525,0.83,-0.517,3.0
17.524,0.749,-0.564,3.0
15.802,0.679,-0.599,3.0
31.972,1.385,-0.339,1.0
24.925,1.085,-0.407,1.0
21.281,0.932,-0.469,4.0
18.949,0.834,-0.528,3.0
17.125,0.758,-0.575,2.0
14.93,0.664,-0.586,5.0
30.652,1.374,-0.367,2.0
24.172,1.088,-0.428,5.0
20.757,0.939,-0.486,4.0
18.41,0.838,-0.538,3.0
16.533,0.756,-0.578,2.0
14.67,0.674,-0.596,18.0
29.854,1.381,-0.399,1.0
22.909,1.065,-0.437,5.0
20.112,0.939,-0.498,3.0
17.879,0.839,-0.547,3.0
16.193,0.764,-0.588,2.0
14.659,0.695,-0.616,29.0
28.99,1.382,-0.428,2.0
21.962,1.052,-0.449,4.0
19.552,0.941,-0.512,3.0
17.403,0.841,-0.557,3.0
15.712,0.763,-0.593,3.0
14.462,0.705,-0.629,16.0
24.827,1.218,-0.401,2.0
21.234,1.047,-0.465,4.0
18.938,0.937,-0.523,3.0
17.008,0.845,-0.568,2.0
14.881,0.743,-0.583,7.0
14.011,0.702,-0.629,14.0
23.861,1.203,-0.42,5.0
20.625,1.044,-0.481,4.0
18.338,0.932,-0.533,3.0
16.467,0.84,-0.574,3.0
14.66,0.751,-0.595,18.0
13.624,0.701,-0.631,14.0
22.541,1.166,-0.429,5.0
19.929,1.035,-0.494,3.0
17.8,0.928,-0.543,3.0
16.021,0.839,-0.582,3.0
14.591,0.767,-0.614,20.0
13.436,0.709,-0.642,13.0
21.734,1.152,-0.446,4.0
19.304,1.027,-0.507,3.0
17.339,0.926,-0.554,2.0
15.488,0.83,-0.585,3.0
14.353,0.772,-0.625,14.0
13.108,0.708,-0.646,8.0
21.057,1.142,-0.463,4.0
18.705,1.019,-0.519,3.0
16.888,0.923,-0.565,2.0
14.664,0.804,-0.576,9.0
13.776,0.758,-0.62,15.0
13.061,0.722,-0.663,9.0
20.357,1.129,-0.478,4.0
18.174,1.012,-0.531,3.0
16.378,0.915,-0.573,4.0
14.644,0.82,-0.598,20.0
13.537,0.761,-0.63,11.0
13.059,0.737,-0.683,9.0
19.686,1.115,-0.492,3.0
17.664,1.004,-0.543,3.0
15.943,0.909,-0.582,2.0
14.512,0.83,-0.614,16.0
13.292,0.763,-0.639,8.0
12.871,0.741,-0.693,3.0
19.121,1.105,-0.507,3.0
17.22,0.998,-0.556,2.0
15.164,0.881,-0.576,3.0
14.054,0.819,-0.616,12.0
13.058,0.764,-0.648,8.0
12.501,0.733,-0.692,1.0
18.572,1.093,-0.521,3.0
16.588,0.979,-0.561,2.0
14.673,0.869,-0.58,15.0
13.674,0.812,-0.621,11.0
13.073,0.778,-0.669,10.0
12.256,0.732,-0.697,2.0
17.93,1.074,-0.531,3.0
16.201,0.973,-0.573,3.0
14.601,0.88,-0.6,17.0
13.495,0.815,-0.634,10.0
13.001,0.788,-0.685,7.0
11.99,0.728,-0.701,2.0
17.463,1.064,-0.544,3.0
15.716,0.96,-0.58,2.0
14.153,0.867,-0.604,13.0
13.119,0.806,-0.636,7.0
12.644,0.778,-0.686,3.0
11.686,0.722,-0.701,1.0
16.943,1.049,-0.554,2.0
14.719,0.913,-0.566,7.0
13.749,0.855,-0.608,12.0
13.064,0.815,-0.654,9.0
12.4,0.775,-0.692,3.0
11.447,0.718,-0.705,2.0
16.383,1.029,-0.562,4.0
14.658,0.923,-0.587,17.0
13.564,0.856,-0.621,11.0
13.032,0.825,-0.673,7.0
12.178,0.773,-0.699,1.0
11.192,0.712,-0.707,1.0
16.046,1.023,-0.576,3.0
14.322,0.915,-0.596,13.0
13.296,0.851,-0.63,9.0
12.845,0.824,-0.684,3.0
11.849,0.762,-0.7,1.0
10.926,0.704,-0.708,2.0
15.071,0.973,-0.565,2.0
13.864,0.897,-0.599,12.0
13.097,0.849,-0.641,9.0
12.502,0.813,-0.686,2.0
11.533,0.751,-0.699,2.0
10.771,0.703,-0.715,2.0
14.673,0.96,-0.573,15.0
13.602,0.891,-0.609,12.0
13.06,0.858,-0.66,11.0
12.266,0.807,-0.692,2.0
11.35,0.748,-0.706,1.0
10.564,0.698,-0.718,2.0
14.486,0.958,-0.588,18.0
13.378,0.887,-0.621,12.0
13.006,0.864,-0.678,6.0
11.961,0.796,-0.694,2.0
11.07,0.738,-0.706,2.0
10.305,0.689,-0.717,2.0
13.967,0.934,-0.59,15.0
13.128,0.88,-0.63,8.0
12.657,0.85,-0.68,2.0
11.712,0.788,-0.699,2.0
10.848,0.731,-0.71,2.0
10.149,0.685,-0.723,2.0
13.687,0.925,-0.6,13.0
13.076,0.885,-0.649,9.0
12.364,0.839,-0.685,2.0
11.477,0.78,-0.703,1.0
10.651,0.725,-0.714,2.0
9.914,0.676,-0.722,1.0
13.458,0.918,-0.612,11.0
13.063,0.893,-0.669,11.0
12.099,0.828,-0.689,2.0
11.195,0.768,-0.704,1.0
10.422,0.716,-0.715,2.0
9.698,0.667,-0.722,2.0
13.241,0.911,-0.623,10.0
12.854,0.886,-0.679,3.0
11.818,0.816,-0.692,3.0
10.932,0.756,-0.705,2.0
10.219,0.708,-0.718,2.0
9.611,0.667,-0.731,4.0
13.077,0.908,-0.636,11.0
12.52,0.87,-0.681,1.0
11.56,0.805,-0.696,2.0
10.747,0.749,-0.71,2.0
10.024,0.7,-0.72,1.0
9.524,0.666,-0.74,2.0
13.072,0.914,-0.657,11.0
12.246,0.857,-0.686,1.0
11.357,0.796,-0.701,1.0
10.543,0.74,-0.713,2.0
9.815,0.69,-0.721,1.0
9.381,0.66,-0.743,1.0
12.979,0.913,-0.672,7.0
11.967,0.843,-0.689,2.0
11.088,0.782,-0.702,1.0
10.306,0.728,-0.714,2.0
9.646,0.683,-0.724,2.0
9.238,0.655,-0.747,1.0
12.664,0.897,-0.676,3.0
11.689,0.829,-0.691,3.0
10.857,0.771,-0.705,2.0
10.119,0.719,-0.717,2.0
9.586,0.682,-0.734,3.0
9.102,0.649,-0.75,2.0
12.413,0.884,-0.682,2.0
11.455,0.816,-0.696,2.0
10.655,0.76,-0.709,2.0
9.902,0.707,-0.717,1.0
9.456,0.676,-0.739,2.0
8.97,0.642,-0.754,1.0
12.127,0.868,-0.686,2.0
11.216,0.803,-0.699,1.0
10.445,0.749,-0.711,2.0
9.751,0.7,-0.721,1.0
9.308,0.669,-0.742,2.0
8.834,0.635,-0.756,1.0
11.86,0.852,-0.689,2.0
11.002,0.791,-0.703,1.0
10.242,0.737,-0.713,2.0
9.611,0.692,-0.726,2.0
9.194,0.663,-0.748,1.0
8.67,0.626,-0.755,2.0
11.605,0.837,-0.692,3.0
10.805,0.78,-0.707,1.0
10.024,0.724,-0.713,1.0
9.55,0.69,-0.736,2.0
9.05,0.655,-0.75,1.0
8.569,0.621,-0.76,3.0
11.39,0.824,-0.697,2.0
10.584,0.766,-0.708,2.0
9.855,0.714,-0.717,2.0
9.417,0.683,-0.74,1.0
8.917,0.647,-0.753,1.0
8.38,0.609,-0.756,4.0
11.163,0.809,-0.7,1.0
10.367,0.752,-0.71,2.0
9.697,0.704,-0.72,1.0
9.269,0.673,-0.743,1.0
8.788,0.639,-0.755,1.0
8.157,0.594,-0.748,4.0
10.946,0.795,-0.703,1.0
10.19,0.74,-0.713,2.0
9.591,0.697,-0.727,2.0
9.135,0.665,-0.746,1.0
8.647,0.63,-0.756,2.0
8.016,0.584,-0.748,5.0
10.747,0.781,-0.706,1.0
9.974,0.725,-0.713,1.0
9.539,0.694,-0.737,2.0
9.012,0.656,-0.75,1.0
8.519,0.621,-0.758,3.0
7.974,0.582,-0.756,4.0
10.539,0.767,-0.708,2.0
9.836,0.716,-0.718,2.0
9.369,0.682,-0.738,1.0
8.887,0.648,-0.752,1.0
8.319,0.607,-0.753,4.0
7.892,0.576,-0.76,3.0
10.336,0.752,-0.71,2.0
9.684,0.705,-0.721,1.0
9.252,0.674,-0.742,1.0
8.758,0.638,-0.754,1.0
8.119,0.592,-0.746,4.0
7.821,0.57,-0.764,3.0
10.164,0.739,-0.712,2.0
9.603,0.699,-0.729,2.0
9.125,0.664,-0.745,1.0
8.627,0.628,-0.755,2.0
8.006,0.583,-0.747,4.0
7.765,0.566,-0.77,2.0
9.957,0.723,-0.712,2.0
9.525,0.692,-0.736,2.0
9.012,0.655,-0.749,1.0
8.508,0.619,-0.757,3.0
7.978,0.58,-0.756,4.0
7.651,0.557,-0.77,1.0
9.832,0.713,-0.717,2.0
9.377,0.68,-0.738,1.0
8.883,0.645,-0.751,1.0
8.326,0.604,-0.753,4.0
7.895,0.573,-0.759,3.0
7.555,0.549,-0.771,1.0
9.683,0.701,-0.72,2.0
9.268,0.671,-0.742,1.0
8.769,0.635,-0.753,1.0
8.145,0.59,-0.747,4.0
7.811,0.566,-0.762,2.0
7.463,0.541,-0.772,1.0
9.612,0.694,-0.727,3.0
9.142,0.66,-0.745,1.0
8.626,0.623,-0.753,2.0
8.027,0.579,-0.748,4.0
7.77,0.561,-0.769,2.0
7.372,0.532,-0.772,1.0
9.537,0.686,-0.735,3.0
9.04,0.65,-0.748,1.0
8.529,0.614,-0.755,3.0
8.0,0.576,-0.756,4.0
7.681,0.553,-0.77,1.0
7.295,0.525,-0.774,1.0
9.415,0.675,-0.738,2.0
8.924,0.639,-0.751,1.0
8.404,0.602,-0.756,4.0
7.942,0.569,-0.761,3.0
7.592,0.544,-0.771,1.0
7.219,0.517,-0.775,1.0
9.294,0.663,-0.74,2.0
8.801,0.628,-0.752,1.0
8.256,0.589,-0.753,4.0
7.837,0.559,-0.761,2.0
7.506,0.535,-0.772,1.0
7.174,0.512,-0.78,1.0
9.19,0.653,-0.744,2.0
8.67,0.615,-0.752,3.0
8.12,0.576,-0.751,4.0
7.774,0.552,-0.765,2.0
7.417,0.526,-0.773,1.0
7.151,0.507,-0.787,1.0
9.086,0.642,-0.747,2.0
8.593,0.607,-0.756,4.0
8.047,0.568,-0.754,4.0
7.72,0.545,-0.769,1.0
7.344,0.518,-0.774,1.0
7.139,0.503,-0.794,1.0
8.993,0.631,-0.75,2.0
8.494,0.596,-0.757,5.0
8.021,0.563,-0.761,3.0
7.634,0.535,-0.77,1.0
7.295,0.511,-0.778,1.0
7.151,0.501,-0.804,1.0
8.869,0.619,-0.75,2.0
8.406,0.586,-0.76,4.0
7.954,0.554,-0.765,1.0
7.556,0.526,-0.771,1.0
7.276,0.506,-0.784,1.0
7.2,0.501,-0.818,1.0
8.763,0.607,-0.752,3.0
8.292,0.574,-0.759,4.0
7.862,0.544,-0.765,1.0
7.489,0.518,-0.773,1.0
7.274,0.503,-0.793,1.0
7.251,0.501,-0.832,1.0
8.673,0.596,-0.754,5.0
8.167,0.561,-0.757,3.0
7.794,0.535,-0.767,1.0
7.444,0.511,-0.776,1.0
7.29,0.5,-0.803,1.0
7.302,0.5,-0.846,1.0
8.601,0.586,-0.757,5.0
8.102,0.552,-0.76,4.0
7.722,0.525,-0.769,1.0
7.419,0.505,-0.782,1.0
7.34,0.499,-0.816,1.0
7.349,0.499,-0.86,0.0
8.547,0.577,-0.761,4.0
8.053,0.544,-0.764,2.0
7.661,0.517,-0.771,1.0
7.416,0.5,-0.79,1.0
7.397,0.498,-0.83,1.0
7.394,0.498,-0.873,0.0
8.451,0.566,-0.761,2.0
7.992,0.534,-0.766,1.0
7.607,0.508,-0.773,1.0
7.449,0.497,-0.801,1.0
7.458,0.497,-0.845,1.0
7.455,0.497,-0.888,0.0
8.367,0.554,-0.762,1.0
7.918,0.524,-0.767,1.0
7.582,0.501,-0.778,1.0
7.497,0.495,-0.813,1.0
7.504,0.495,-0.858,1.0
7.541,0.497,-0.906,0.0
8.269,0.542,-0.761,1.0
7.861,0.515,-0.769,1.0
7.581,0.496,-0.785,1.0
7.574,0.495,-0.829,1.0
7.563,0.494,-0.872,0.0
7.624,0.497,-0.923,0.0
8.176,0.53,-0.761,2.0
7.808,0.506,-0.771,1.0
7.628,0.493,-0.797,1.0
7.63,0.493,-0.842,1.0
7.635,0.493,-0.887,0.0
7.629,0.492,-0.931,0.0
8.139,0.522,-0.764,2.0
7.792,0.499,-0.777,1.0
7.696,0.492,-0.811,1.0
7.697,0.492,-0.857,0.0
7.716,0.492,-0.903,0.0
7.677,0.489,-0.943,0.0
8.083,0.512,-0.766,1.0
7.793,0.493,-0.783,1.0
7.776,0.491,-0.827,1.0
7.776,0.49,-0.872,0.0
7.786,0.49,-0.918,0.0
7.72,0.486,-0.955,0.0
8.034,0.502,-0.768,1.0
7.827,0.488,-0.793,1.0
7.847,0.489,-0.841,1.0
7.866,0.49,-0.889,0.0
7.845,0.487,-0.932,0.0
7.765,0.482,-0.967,0.0
8.016,0.494,-0.773,1.0
7.91,0.487,-0.808,1.0
7.927,0.487,-0.855,0.0
7.938,0.487,-0.903,0.0
7.864,0.482,-0.94,0.0
7.801,0.477,-0.978,0.0
8.04,0.489,-0.781,1.0
8.004,0.486,-0.824,1.0
8.008,0.485,-0.87,0.0
7.998,0.484,-0.916,0.0
7.98,0.482,-0.96,0.0
7.81,0.471,-0.984,0.0
8.079,0.484,-0.791,1.0
8.1,0.484,-0.839,1.0
8.075,0.482,-0.883,0.0
8.068,0.481,-0.929,0.0
7.997,0.476,-0.967,0.0
7.66,0.455,-0.971,0.0
8.162,0.481,-0.805,1.0
8.181,0.482,-0.853,0.0
8.189,0.481,-0.901,0.0
8.128,0.477,-0.942,0.0
8.083,0.473,-0.983,0.0
8.276,0.48,-0.821,1.0
8.262,0.479,-0.867,0.0
8.33,0.482,-0.922,0.0
8.268,0.477,-0.963,0.0
8.069,0.465,-0.986,0.0
8.404,0.48,-0.839,1.0
8.386,0.478,-0.885,0.0
8.35,0.475,-0.929,0.0
8.357,0.474,-0.979,0.0
7.279,0.411,-0.936,0.0
8.494,0.477,-0.853,1.0
8.517,0.477,-0.904,0.0
8.479,0.474,-0.948,0.0
8.426,0.47,-0.991,0.0
7.255,0.403,-0.937,0.0
8.542,0.471,-0.862,1.0
8.616,0.474,-0.918,0.0
8.578,0.47,-0.963,0.0
8.377,0.458,-0.99,0.0
7.227,0.394,-0.937,0.0
8.684,0.469,-0.88,0.0
8.687,0.469,-0.93,0.0
8.655,0.466,-0.976,0.0
8.255,0.443,-0.979,0.0
7.467,0.4,-0.928,0.0
7.213,0.385,-0.938,0.0
8.863,0.47,-0.902,0.0
8.793,0.465,-0.945,0.0
8.669,0.457,-0.981,0.0
7.477,0.392,-0.933,0.0
7.204,0.377,-0.94,0.0
8.958,0.465,-0.916,0.0
8.895,0.461,-0.96,0.0
8.496,0.439,-0.965,0.0
7.431,0.382,-0.93,0.0
7.163,0.367,-0.937,0.0
9.043,0.46,-0.927,0.0
8.918,0.452,-0.965,0.0
8.045,0.407,-0.916,0.0
7.73,0.39,-0.926,0.0
7.425,0.373,-0.931,0.0
7.148,0.358,-0.938,0.0
9.168,0.456,-0.943,0.0
8.91,0.442,-0.967,0.0
8.011,0.396,-0.915,0.0
7.694,0.379,-0.923,0.0
7.388,0.363,-0.929,0.0
7.142,0.35,-0.939,0.0
9.292,0.452,-0.958,0.0
8.625,0.418,-0.938,0.0
8.007,0.387,-0.916,0.0
0.0,0.0,0.0,0.0
7.404,0.356,-0.933,0.0
7.152,0.342,-0.942,0.0
9.281,0.441,-0.959,0.0
8.402,0.398,-0.916,0.0
8.032,0.379,-0.921,0.0
7.614,0.358,-0.917,0.0
7.403,0.347,-0.934,0.0
7.116,0.333,-0.938,0.0
9.127,0.423,-0.945,0.0
8.346,0.386,-0.911,0.0
8.022,0.369,-0.921,0.0
7.695,0.353,-0.928,0.0
7.372,0.337,-0.931,0.0
7.109,0.324,-0.938,0.0
8.774,0.397,-0.909,0.0
8.325,0.375,-0.91,0.0
8.03,0.36,-0.923,0.0
7.665,0.343,-0.925,0.0
7.396,0.329,-0.935,0.0
7.114,0.316,-0.94,0.0
8.732,0.385,-0.906,0.0
8.293,0.364,-0.907,0.0
7.995,0.349,-0.92,0.0
7.673,0.334,-0.927,0.0
7.381,0.32,-0.933,0.0
7.102,0.307,-0.938,0.0
8.73,0.374,-0.906,0.0
8.306,0.355,-0.909,0.0
8.0,0.34,-0.92,0.0
7.67,0.325,-0.926,0.0
7.367,0.311,-0.932,0.0
7.108,0.299,-0.939,0.0
8.696,0.362,-0.902,0.0
8.332,0.346,-0.911,0.0
8.012,0.331,-0.921,0.0
7.657,0.315,-0.925,0.0
7.387,0.303,-0.934,0.0
7.131,0.291,-0.942,0.0
8.685,0.352,-0.901,0.0
8.329,0.336,-0.911,0.0
8.029,0.322,-0.923,0.0
7.619,0.304,-0.92,0.0
7.378,0.293,-0.932,0.0
7.115,0.282,-0.939,0.0
8.699,0.342,-0.901,0.0
8.331,0.326,-0.91,0.0
8.016,0.312,-0.92,0.0
7.663,0.297,-0.924,0.0
7.382,0.285,-0.932,0.0
7.091,0.272,-0.935,0.0
8.702,0.331,-0.9,0.0
8.326,0.315,-0.908,0.0
8.012,0.302,-0.919,0.0
7.695,0.289,-0.926,0.0
7.396,0.276,-0.932,0.0
7.111,0.264,-0.936,0.0
8.748,0.322,-0.903,0.0
8.335,0.306,-0.907,0.0
8.039,0.293,-0.92,0.0
7.69,0.279,-0.924,0.0
7.388,0.267,-0.93,0.0
7.132,0.256,-0.938,0.0
8.749,0.312,-0.902,0.0
8.364,0.297,-0.908,0.0
8.065,0.284,-0.921,0.0
7.729,0.271,-0.927,0.0
7.432,0.259,-0.933,0.0
7.155,0.248,-0.938,0.0
8.735,0.301,-0.898,0.0
8.364,0.286,-0.906,0.0
8.073,0.275,-0.92,0.0
7.7,0.261,-0.921,0.0
7.433,0.25,-0.931,0.0
7.176,0.24,-0.939,0.0
8.773,0.291,-0.899,0.0
8.392,0.277,-0.906,0.0
8.079,0.265,-0.918,0.0
7.759,0.253,-0.925,0.0
7.462,0.242,-0.932,0.0
7.164,0.231,-0.935,0.0
8.81,0.282,-0.899,0.0
8.449,0.269,-0.909,0.0
8.091,0.256,-0.916,0.0
7.755,0.244,-0.922,0.0
7.462,0.233,-0.929,0.0
7.177,0.223,-0.933,0.0
8.874,0.273,-0.902,0.0
8.437,0.258,-0.904,0.0
8.121,0.247,-0.916,0.0
7.785,0.235,-0.922,0.0
7.504,0.225,-0.931,0.0
7.216,0.215,-0.935,0.0
8.912,0.264,-0.902,0.0
8.481,0.249,-0.905,0.0
8.149,0.238,-0.915,0.0
7.802,0.226,-0.92,0.0
7.52,0.216,-0.929,0.0
7.233,0.207,-0.934,0.0
8.968,0.254,-0.903,0.0
8.356,0.235,-0.887,0.0
8.174,0.228,-0.913,1.0
7.865,0.218,-0.923,0.0
7.548,0.208,-0.928,0.0
7.255,0.198,-0.932,0.0
8.966,0.243,-0.898,0.0
8.482,0.228,-0.896,0.0
8.165,0.218,-0.908,1.0
7.907,0.21,-0.924,0.0
7.581,0.2,-0.928,0.0
7.28,0.19,-0.931,0.0
8.994,0.233,-0.895,0.0
8.436,0.217,-0.886,0.0
8.19,0.209,-0.905,1.0
7.937,0.201,-0.922,0.0
7.637,0.192,-0.93,0.0
7.312,0.182,-0.931,0.0
9.016,0.223,-0.891,0.0
8.641,0.212,-0.902,0.0
8.229,0.2,-0.904,0.0
7.981,0.192,-0.922,0.0
7.638,0.183,-0.925,0.0
7.382,0.175,-0.935,0.0
9.063,0.213,-0.89,0.0
8.69,0.203,-0.901,0.0
8.334,0.193,-0.91,0.0
7.998,0.183,-0.918,0.0
7.688,0.175,-0.925,0.0
7.419,0.167,-0.934,0.0
9.122,0.204,-0.889,0.0
8.734,0.194,-0.899,0.0
8.376,0.184,-0.908,0.0
8.018,0.174,-0.914,0.0
7.734,0.167,-0.925,0.0
7.45,0.159,-0.932,0.0
9.194,0.195,-0.889,0.0
8.796,0.185,-0.898,0.0
8.414,0.175,-0.906,0.0
8.066,0.166,-0.913,0.0
7.772,0.158,-0.923,0.0
7.496,0.151,-0.932,0.0
9.263,0.186,-0.888,0.0
8.843,0.175,-0.896,0.0
8.478,0.166,-0.905,0.0
8.136,0.158,-0.914,0.0
7.854,0.151,-0.926,0.0
7.555,0.144,-0.932,0.0
9.34,0.176,-0.887,0.0
8.916,0.166,-0.896,0.0
8.514,0.157,-0.902,0.0
8.171,0.149,-0.911,0.0
7.893,0.143,-0.923,0.0
7.569,0.135,-0.927,0.0
9.406,0.167,-0.885,0.0
8.963,0.157,-0.892,0.0
8.567,0.148,-0.899,0.0
8.237,0.141,-0.911,0.0
7.95,0.135,-0.922,0.0
7.642,0.128,-0.929,0.0
9.501,0.158,-0.885,0.0
9.041,0.148,-0.891,0.0
8.625,0.14,-0.897,0.0
8.308,0.133,-0.91,0.0
7.984,0.126,-0.918,0.0
7.701,0.12,-0.928,0.0
9.561,0.148,-0.881,0.0
9.104,0.139,-0.888,0.0
8.713,0.131,-0.897,0.0
8.35,0.124,-0.906,0.0
8.04,0.118,-0.917,0.0
7.761,0.112,-0.927,0.0
9.653,0.139,-0.879,0.0
9.191,0.13,-0.887,0.0
8.768,0.122,-0.894,0.0
8.424,0.116,-0.905,0.0
8.103,0.11,-0.915,0.0
7.817,0.105,-0.926,0.0
9.742,0.129,-0.877,0.0
9.296,0.122,-0.887,0.0
8.861,0.114,-0.893,0.0
8.487,0.108,-0.903,0.0
8.163,0.102,-0.913,0.0
7.876,0.097,-0.924,0.0
9.839,0.12,-0.875,0.0
9.392,0.113,-0.886,0.0
8.953,0.106,-0.893,0.0
8.57,0.1,-0.902,0.0
8.249,0.094,-0.913,0.0
7.938,0.089,-0.922,0.0
9.945,0.111,-0.873,0.0
9.49,0.104,-0.884,0.0
9.057,0.098,-0.892,0.0
8.659,0.092,-0.901,0.0
8.305,0.086,-0.909,0.0
8.014,0.082,-0.921,0.0
10.054,0.102,-0.87,0.0
9.581,0.095,-0.881,0.0
9.147,0.089,-0.89,0.0
8.719,0.083,-0.897,0.0
8.399,0.079,-0.909,0.0
8.067,0.074,-0.917,0.0
10.201,0.093,-0.87,0.0
9.691,0.087,-0.879,0.0
9.236,0.081,-0.887,0.0
8.827,0.075,-0.896,0.0
8.455,0.071,-0.904,0.0
8.142,0.067,-0.915,0.0
10.329,0.084,-0.868,0.0
9.817,0.078,-0.878,0.0
9.346,0.072,-0.886,0.0
8.917,0.067,-0.894,0.0
8.551,0.063,-0.903,0.0
8.229,0.059,-0.914,0.0
10.433,0.075,-0.863,0.0
9.928,0.069,-0.874,0.0
9.46,0.064,-0.884,0.0
9.032,0.06,-0.893,0.0
8.639,0.056,-0.901,0.0
8.313,0.052,-0.912,0.0
10.579,0.066,-0.861,0.0
10.045,0.061,-0.871,0.0
9.588,0.056,-0.883,0.0
9.14,0.052,-0.892,0.0
8.728,0.048,-0.898,0.0
8.392,0.045,-0.909,0.0
10.725,0.057,-0.858,0.0
10.2,0.052,-0.871,0.0
9.696,0.048,-0.879,0.0
9.261,0.044,-0.89,0.0
8.852,0.041,-0.898,0.0
8.471,0.037,-0.905,0.0
10.88,0.048,-0.855,0.0
10.339,0.044,-0.868,0.0
9.816,0.04,-0.876,0.0
9.377,0.036,-0.888,0.0
8.971,0.033,-0.898,0.0
8.575,0.03,-0.904,0.0
11.009,0.039,-0.849,0.0
10.488,0.035,-0.865,0.0
9.938,0.032,-0.872,0.0
9.513,0.029,-0.887,0.0
9.081,0.026,-0.895,0.0
8.681,0.023,-0.902,0.0
11.205,0.03,-0.848,0.0
10.634,0.027,-0.861,0.0
10.138,0.024,-0.875,0.0
9.617,0.021,-0.882,0.0
9.197,0.019,-0.893,0.0
8.796,0.016,-0.901,0.0
11.387,0.021,-0.844,0.0
10.829,0.018,-0.86,0.0
10.285,0.016,-0.872,0.0
9.741,0.013,-0.878,0.0
9.333,0.011,-0.891,0.0
8.915,0.009,-0.899,0.0
11.583,0.012,-0.84,0.0
10.946,0.01,-0.852,0.0
10.43,0.008,-0.867,0.0
9.903,0.006,-0.877,0.0
9.48,0.004,-0.89,0.0
9.067,0.002,-0.9,0.0
11.768,0.003,-0.835,0.0
11.131,0.002,-0.849,0.0
10.616,0.0,-0.866,0.0
10.062,-0.001,-0.875,0.0
9.591,-0.002,-0.885,0.0
9.151,-0.003,-0.893,0.0
11.988,-0.004,-0.832,0.0
11.34,-0.006,-0.846,0.0
10.768,-0.007,-0.861,0.0
10.223,-0.008,-0.872,0.0
9.732,-0.009,-0.882,0.0
9.323,-0.01,-0.895,0.0
12.201,-0.013,-0.826,0.0
11.54,-0.014,-0.842,0.0
10.947,-0.015,-0.857,0.0
10.412,-0.016,-0.871,0.0
9.886,-0.016,-0.879,0.0
9.445,-0.017,-0.89,0.0
12.432,-0.022,-0.821,0.0
11.733,-0.022,-0.837,0.0
11.102,-0.022,-0.85,0.0
10.587,-0.023,-0.868,0.0
10.04,-0.023,-0.876,0.0
9.583,-0.023,-0.887,0.0
12.671,-0.03,-0.816,0.0
11.956,-0.03,-0.832,0.0
11.331,-0.03,-0.849,0.0
10.71,-0.03,-0.859,0.0
10.22,-0.03,-0.874,0.0
9.731,-0.03,-0.884,0.0
12.955,-0.039,-0.812,1.0
12.181,-0.038,-0.827,0.0
11.538,-0.038,-0.844,0.0
10.92,-0.037,-0.857,0.0
10.39,-0.037,-0.87,0.0
9.888,-0.036,-0.88,0.0
13.223,-0.048,-0.805,1.0
12.433,-0.046,-0.822,0.0
11.749,-0.045,-0.839,0.0
11.104,-0.044,-0.852,0.0
10.578,-0.043,-0.867,0.0
10.067,-0.042,-0.878,0.0
13.498,-0.056,-0.798,1.0
12.698,-0.054,-0.817,0.0
11.985,-0.053,-0.834,0.0
11.343,-0.051,-0.85,0.0
10.716,-0.049,-0.859,1.0
10.25,-0.048,-0.876,0.0
13.781,-0.064,-0.79,1.0
12.977,-0.062,-0.812,0.0
12.22,-0.06,-0.828,0.0
11.566,-0.058,-0.846,0.0
10.971,-0.056,-0.86,0.0
10.437,-0.055,-0.873,0.0
14.099,-0.073,-0.782,0.0
13.254,-0.07,-0.805,1.0
12.486,-0.067,-0.823,0.0
11.771,-0.064,-0.839,0.0
11.148,-0.062,-0.853,0.0
10.609,-0.06,-0.867,1.0
14.479,-0.081,-0.777,1.0
13.549,-0.078,-0.798,1.0
12.745,-0.074,-0.817,0.0
12.011,-0.071,-0.834,0.0
11.38,-0.069,-0.85,0.0
10.759,-0.066,-0.86,0.0
14.828,-0.09,-0.768,1.0
13.836,-0.085,-0.789,1.0
13.04,-0.081,-0.811,0.0
12.286,-0.078,-0.83,0.0
11.603,-0.074,-0.844,0.0
11.01,-0.072,-0.859,0.0
15.236,-0.098,-0.76,1.0
14.181,-0.093,-0.782,1.0
13.316,-0.088,-0.803,0.0
12.522,-0.084,-0.822,0.0
11.838,-0.08,-0.839,0.0
11.221,-0.077,-0.854,0.0
15.641,-0.106,-0.751,1.0
14.547,-0.1,-0.774,1.0
13.629,-0.095,-0.796,1.0
12.806,-0.09,-0.816,0.0
12.095,-0.086,-0.834,0.0
11.463,-0.082,-0.85,0.0
16.077,-0.114,-0.741,1.0
14.963,-0.107,-0.767,1.0
13.961,-0.101,-0.788,1.0
13.113,-0.096,-0.81,1.0
12.361,-0.091,-0.828,0.0
11.692,-0.087,-0.844,0.0
16.605,-0.123,-0.733,0.0
15.343,-0.114,-0.757,1.0
14.31,-0.108,-0.78,1.0
13.442,-0.102,-0.804,1.0
12.64,-0.097,-0.822,1.0
11.938,-0.092,-0.838,0.0
17.152,-0.131,-0.723,1.0
15.843,-0.122,-0.75,1.0
14.722,-0.114,-0.774,1.0
13.744,-0.107,-0.795,1.0
12.959,-0.102,-0.817,0.0
12.208,-0.097,-0.833,0.0
17.703,-0.139,-0.712,1.0
16.259,-0.129,-0.738,1.0
15.121,-0.12,-0.764,1.0
14.087,-0.113,-0.787,1.0
13.237,-0.107,-0.808,1.0
12.486,-0.101,-0.827,0.0
18.268,-0.147,-0.698,1.0
16.806,-0.136,-0.729,1.0
15.537,-0.126,-0.755,1.0
14.478,-0.118,-0.78,1.0
13.562,-0.111,-0.801,1.0
12.768,-0.105,-0.82,1.0
18.871,-0.154,-0.683,1.0
17.403,-0.143,-0.72,1.0
16.026,-0.132,-0.746,1.0
14.877,-0.123,-0.771,1.0
13.893,-0.116,-0.792,0.0
13.099,-0.109,-0.815,1.0
19.665,-0.163,-0.672,2.0
17.978,-0.149,-0.707,1.0
16.523,-0.138,-0.735,1.0
15.305,-0.128,-0.762,1.0
14.264,-0.12,-0.784,1.0
13.408,-0.113,-0.806,1.0
20.29,-0.169,-0.653,2.0
18.522,-0.155,-0.691,1.0
17.112,-0.143,-0.727,1.0
15.772,-0.132,-0.753,1.0
14.696,-0.124,-0.778,1.0
13.721,-0.116,-0.797,1.0
21.154,-0.177,-0.637,2.0
19.211,-0.161,-0.678,1.0
17.715,-0.149,-0.717,1.0
16.232,-0.136,-0.742,1.0
15.111,-0.127,-0.769,1.0
14.091,-0.119,-0.79,1.0
22.051,-0.184,-0.619,1.0
19.955,-0.167,-0.663,2.0
18.294,-0.153,-0.702,1.0
16.82,-0.141,-0.734,1.0
15.502,-0.13,-0.757,1.0
14.488,-0.122,-0.782,1.0
23.098,-0.192,-0.601,1.0
20.735,-0.172,-0.646,2.0
18.871,-0.157,-0.685,1.0
17.412,-0.145,-0.724,1.0
16.022,-0.133,-0.749,1.0
14.902,-0.124,-0.774,1.0
24.008,-0.197,-0.575,2.0
21.605,-0.177,-0.629,2.0
19.635,-0.161,-0.672,2.0
17.974,-0.147,-0.71,1.0
16.559,-0.136,-0.74,0.0
15.32,-0.125,-0.764,1.0
25.092,-0.203,-0.549,1.0
22.673,-0.183,-0.613,1.0
20.368,-0.164,-0.655,2.0
18.576,-0.15,-0.695,1.0
17.144,-0.138,-0.73,1.0
15.839,-0.127,-0.756,1.0
26.4,-0.209,-0.523,3.0
23.588,-0.187,-0.588,2.0
21.261,-0.168,-0.64,2.0
19.292,-0.152,-0.682,1.0
17.72,-0.139,-0.718,1.0
16.295,-0.127,-0.744,1.0
27.444,-0.212,-0.486,2.0
24.594,-0.189,-0.562,2.0
22.242,-0.171,-0.623,1.0
20.016,-0.153,-0.666,2.0
18.355,-0.14,-0.705,1.0
16.91,-0.128,-0.737,1.0
28.93,-0.217,-0.452,2.0
25.94,-0.193,-0.539,1.0
23.24,-0.172,-0.602,1.0
20.867,-0.154,-0.65,2.0
18.968,-0.139,-0.689,1.0
17.482,-0.128,-0.725,1.0
30.088,-0.217,-0.407,2.0
26.974,-0.193,-0.503,2.0
24.179,-0.172,-0.576,2.0
21.799,-0.154,-0.634,2.0
19.739,-0.139,-0.675,2.0
18.06,-0.126,-0.711,1.0
31.936,-0.22,-0.366,1.0
28.382,-0.194,-0.471,1.0
25.362,-0.172,-0.551,1.0
22.744,-0.153,-0.613,2.0
20.502,-0.137,-0.658,2.0
18.684,-0.124,-0.696,2.0
34.056,-0.223,-0.317,0.0
29.644,-0.192,-0.429,1.0
26.601,-0.171,-0.522,2.0
23.707,-0.151,-0.59,2.0
21.399,-0.135,-0.642,2.0
19.433,-0.121,-0.684,2.0
39.611,-0.244,-0.287,7.0
31.044,-0.189,-0.385,1.0
27.822,-0.167,-0.488,1.0
24.696,-0.147,-0.562,1.0
22.338,-0.131,-0.624,2.0
20.165,-0.117,-0.667,3.0
40.53,-0.232,-0.209,3.0
33.346,-0.188,-0.343,1.0
29.149,-0.162,-0.45,2.0
26.067,-0.143,-0.539,1.0
23.356,-0.127,-0.603,2.0
21.004,-0.112,-0.651,3.0
41.988,-0.22,-0.129,6.0
37.201,-0.192,-0.305,0.0
30.39,-0.155,-0.406,1.0
27.129,-0.136,-0.505,2.0
24.278,-0.12,-0.577,3.0
21.921,-0.106,-0.634,2.0
46.435,-0.22,-0.046,22.0
39.503,-0.184,-0.242,6.0
32.268,-0.147,-0.364,1.0
28.535,-0.128,-0.472,1.0
25.541,-0.112,-0.554,1.0
22.918,-0.099,-0.615,2.0
50.93,-0.214,0.054,15.0
41.662,-0.171,-0.17,7.0
37.049,-0.149,-0.342,0.0
29.74,-0.116,-0.43,2.0
26.646,-0.102,-0.523,1.0
23.764,-0.089,-0.589,1.0
56.152,-0.203,0.176,7.0
0.0,0.0,0.0,0.0
39.063,-0.134,-0.28,4.0
31.224,-0.104,-0.387,1.0
27.836,-0.09,-0.489,1.0
24.83,-0.077,-0.564,1.0
76.421,-0.23,0.396,12.0
47.902,-0.139,0.001,21.0
40.048,-0.112,-0.205,15.0
33.114,-0.089,-0.343,1.0
29.269,-0.075,-0.454,2.0
26.132,-0.064,-0.54,2.0
79.291,-0.187,0.573,40.0
0.0,0.0,0.0,0.0
41.699,-0.089,-0.128,19.0
38.412,-0.077,-0.32,2.0
30.398,-0.058,-0.41,1.0
27.233,-0.049,-0.508,1.0
79.456,-0.132,0.736,150.0
61.773,-0.095,0.254,15.0
45.598,-0.065,-0.047,20.0
39.095,-0.051,-0.247,14.0
32.403,-0.038,-0.371,1.0
28.53,-0.03,-0.474,2.0
79.466,-0.074,0.898,152.0
76.369,-0.062,0.469,19.0
50.837,-0.035,0.049,5.0
39.982,-0.022,-0.171,25.0
38.195,-0.017,-0.361,0.0
29.71,-0.009,-0.434,2.0
79.465,-0.014,1.057,151.0
79.417,-0.004,0.645,143.0
56.116,0.004,0.166,13.0
0.0,0.0,0.0,0.0
38.433,0.013,-0.286,6.0
31.124,0.014,-0.393,1.0
79.455,0.048,1.215,152.0
79.469,0.059,0.805,151.0
75.976,0.067,0.376,12.0
47.192,0.048,-0.014,21.0
39.131,0.045,-0.214,28.0
33.139,0.043,-0.353,1.0
79.448,0.114,1.372,161.0
79.463,0.125,0.962,154.0
76.525,0.131,0.53,14.0
54.259,0.101,0.09,29.0
40.512,0.081,-0.142,16.0
37.998,0.082,-0.329,2.0
79.465,0.183,1.531,151.0
79.471,0.195,1.118,154.0
79.459,0.207,0.707,150.0
59.039,0.162,0.214,19.0
44.908,0.13,-0.069,21.0
38.478,0.117,-0.259,14.0
79.448,0.254,1.685,150.0
79.459,0.266,1.273,170.0
79.447,0.278,0.86,151.0
76.011,0.279,0.422,19.0
47.866,0.183,0.018,21.0
39.2,0.156,-0.188,43.0
79.414,0.328,1.838,14.0
59.309,0.255,1.065,98.0
59.315,0.264,0.758,95.0
59.313,0.274,0.444,95.0
54.753,0.262,0.126,51.0
43.995,0.217,-0.127,4.0
48.22,0.245,1.208,30.0
48.224,0.253,0.957,27.0
59.277,0.321,0.869,7.0
48.218,0.269,0.452,39.0
55.037,0.317,0.229,62.0
0.0,0.0,0.0,0.0
48.148,0.293,1.297,103.0
48.141,0.301,1.047,89.0
48.134,0.309,0.796,64.0
48.122,0.317,0.541,51.0
48.138,0.326,0.291,52.0
47.951,0.333,0.04,46.0
48.12,0.342,1.386,110.0
48.114,0.35,1.135,110.0
48.097,0.358,0.884,108.0
48.063,0.367,0.629,105.0
48.063,0.376,0.38,96.0
48.042,0.384,0.129,87.0
48.135,0.393,1.476,130.0
48.115,0.401,1.224,116.0
48.103,0.41,0.974,111.0
48.073,0.419,0.718,110.0
48.062,0.427,0.467,104.0
48.034,0.436,0.217,96.0
48.136,0.445,1.564,90.0
48.123,0.454,1.312,107.0
48.112,0.463,1.061,101.0
48.09,0.472,0.805,102.0
48.078,0.481,0.554,101.0
48.055,0.49,0.303,97.0
48.185,0.499,1.652,79.0
48.169,0.509,1.401,85.0
48.142,0.518,1.149,85.0
48.123,0.527,0.892,89.0
48.104,0.536,0.641,95.0
48.083,0.545,0.39,79.0
55.017,0.634,1.985,131.0
55.003,0.644,1.697,111.0
55.025,0.656,1.411,47.0
55.061,0.667,1.118,74.0
48.23,0.594,0.727,39.0
48.157,0.602,0.475,32.0
55.025,0.699,2.083,126.0
55.017,0.71,1.794,116.0
55.066,0.721,1.507,58.0
100.057,1.331,2.205,12.0
189.197,2.556,3.183,15.0
121.235,1.663,1.405,15.0
55.041,0.765,2.178,106.0
55.086,0.777,1.891,68.0
133.022,1.904,3.872,7.0
176.487,2.564,4.196,29.0
189.948,2.799,3.52,30.0
126.422,1.89,1.682,33.0
55.093,0.834,2.275,50.0
163.154,2.506,5.884,21.0
132.944,2.07,4.097,21.0
159.861,2.522,4.071,5.0
190.047,3.039,3.844,25.0
127.035,2.059,1.905,36.0
130.263,2.137,5.6,34.0
161.4,2.682,6.09,12.0
132.859,2.236,4.316,20.0
160.229,2.731,4.346,20.0
0.0,0.0,0.0,0.0
127.826,2.234,2.126,29.0
129.758,2.295,5.792,27.0
174.402,3.124,6.869,10.0
132.74,2.406,4.529,11.0
128.128,2.35,3.685,14.0
128.155,2.379,3.012,25.0
128.032,2.406,2.337,29.0
128.3,2.438,5.937,14.0
127.934,2.459,5.245,15.0
127.982,2.488,4.573,31.0
128.006,2.518,3.888,38.0
128.043,2.548,3.216,49.0
128.052,2.577,2.542,31.0
128.209,2.608,6.138,8.0
127.806,2.629,5.445,26.0
128.031,2.662,4.778,45.0
128.05,2.692,4.091,44.0
128.138,2.722,3.419,30.0
128.24,2.754,2.747,15.0
125.656,2.727,6.212,23.0
127.716,2.801,5.64,32.0
152.47,3.38,5.928,30.0
152.662,3.418,5.114,15.0
159.212,3.601,4.492,20.0
0.0,0.0,0.0,0.0
122.809,2.836,6.261,26.0
127.583,2.975,5.828,30.0
130.636,3.077,5.277,8.0
152.61,3.63,5.344,38.0
158.653,3.81,4.715,19.0
146.488,3.552,3.58,14.0
122.689,3.005,6.439,16.0
122.763,3.036,5.792,19.0
130.689,3.262,5.473,20.0
152.302,3.838,5.558,42.0
158.999,4.044,4.961,14.0
138.054,3.544,3.576,10.0
122.915,3.186,6.632,30.0
122.558,3.205,5.962,37.0
152.075,4.013,6.59,26.0
152.037,4.047,5.767,42.0
152.645,4.099,4.979,34.0
154.081,4.174,4.21,41.0
125.827,3.441,6.968,6.0
122.646,3.383,6.139,41.0
151.682,4.219,6.786,29.0
151.887,4.262,5.974,38.0
152.341,4.311,5.182,38.0
154.043,4.397,4.423,30.0
124.222,3.578,7.053,34.0
122.916,3.571,6.325,26.0
123.216,3.611,5.684,9.0
152.184,4.496,6.196,35.0
152.163,4.531,5.386,34.0
158.276,4.753,4.761,5.0
73.938,2.24,4.299,24.0
123.032,3.758,6.498,44.0
133.746,4.118,6.352,29.0
152.072,4.72,6.396,32.0
152.221,4.761,5.592,40.0
158.568,5.0,4.982,9.0
73.91,2.351,4.397,40.0
125.482,4.022,6.794,31.0
133.744,4.32,6.528,33.0
152.469,4.962,6.613,31.0
152.555,5.003,5.803,25.0
153.396,5.069,5.018,9.0
73.811,2.461,4.487,24.0
73.848,2.48,4.095,28.0
124.807,4.221,6.251,28.0
152.464,5.195,6.808,26.0
152.795,5.243,6.006,31.0
152.666,5.278,5.186,27.0
73.436,2.56,4.557,11.0
73.752,2.59,4.181,38.0
73.814,2.61,3.79,36.0
123.992,4.415,5.689,18.0
152.525,5.47,6.183,19.0
152.997,5.525,5.385,30.0
73.295,2.669,4.637,25.0
73.754,2.704,4.271,9.0
73.748,2.722,3.875,40.0
123.756,4.6,5.828,22.0
124.263,4.65,5.187,27.0
152.78,5.755,5.558,17.0
73.387,2.788,4.732,18.0
65.021,2.487,3.843,40.0
73.537,2.83,3.95,49.0
123.488,4.784,5.959,26.0
124.364,4.85,5.334,11.0
158.066,6.203,5.931,13.0
73.292,2.901,4.81,17.0
65.194,2.596,3.927,22.0
73.387,2.941,4.026,36.0
123.922,4.997,6.119,19.0
124.484,5.051,5.478,29.0
157.951,6.45,6.103,15.0
73.586,3.029,4.911,26.0
73.318,3.036,4.497,39.0
73.325,3.055,4.103,51.0
0.0,0.0,0.0,0.0
124.624,5.256,5.619,22.0
124.3,5.274,4.935,39.0
73.415,3.141,4.979,26.0
73.181,3.149,4.568,37.0
73.684,3.189,4.201,51.0
123.219,5.363,6.348,24.0
124.601,5.455,5.747,10.0
124.292,5.474,5.064,44.0
73.382,3.257,5.052,12.0
73.19,3.266,4.643,14.0
73.302,3.29,4.254,18.0
123.243,5.562,6.472,31.0
129.762,5.889,6.114,20.0
124.302,5.672,5.187,22.0
73.781,3.394,5.153,17.0
127.763,5.908,8.23,20.0
73.396,3.412,4.33,32.0
123.253,5.761,6.591,33.0
132.571,6.231,6.373,18.0
129.686,6.129,5.534,36.0
73.678,3.509,5.216,22.0
149.491,7.157,9.772,32.0
149.288,7.185,8.95,15.0
123.505,5.977,6.721,36.0
132.543,6.448,6.495,14.0
160.008,7.826,6.976,9.0
73.742,3.635,5.289,26.0
149.712,7.415,9.922,34.0
73.397,3.654,4.465,7.0
73.349,3.67,4.057,6.0
132.541,6.664,6.613,13.0
132.099,6.676,5.873,18.0
124.092,6.321,9.008,19.0
124.619,6.379,8.368,23.0
127.483,6.556,7.866,19.0
73.318,3.789,4.118,4.0
33.439,1.736,1.696,25.0
131.943,6.886,5.977,20.0
124.667,6.557,9.155,33.0
124.588,6.583,8.469,23.0
127.03,6.742,7.941,10.0
128.693,6.863,7.331,15.0
33.46,1.792,1.724,19.0
162.382,8.74,7.483,46.0
71.883,3.898,5.335,21.0
124.666,6.792,8.571,14.0
154.725,8.466,9.791,26.0
127.069,6.984,7.335,30.0
33.469,1.847,1.749,3.0
33.485,1.857,1.568,1.0
71.851,4.015,5.386,29.0
71.862,4.034,4.993,35.0
127.896,7.209,8.188,25.0
127.451,7.215,7.449,35.0
33.442,1.901,1.772,1.0
162.098,9.256,7.705,35.0
71.984,4.141,5.446,25.0
71.802,4.148,5.039,38.0
127.395,7.391,8.243,30.0
127.846,7.447,7.558,34.0
128.695,7.529,6.905,29.0
33.464,1.966,1.612,7.0
71.797,4.249,5.48,18.0
78.589,4.67,5.566,15.0
127.436,7.603,8.327,24.0
127.879,7.66,7.642,34.0
128.353,7.721,6.968,37.0
127.766,7.717,6.236,40.0
78.71,4.789,6.056,19.0
67.072,4.096,4.792,18.0
67.308,4.127,4.438,25.0
67.14,4.132,4.052,15.0
128.518,7.941,7.052,16.0
128.058,7.943,6.324,12.0
78.563,4.909,6.09,24.0
67.043,4.204,4.828,21.0
67.053,4.221,4.459,33.0
66.967,4.231,4.078,40.0
