X,Y,Z,Reflectivity
18.98,-1.546,-0.69,1.0
17.262,-1.402,-0.719,0.0
30.746,-2.494,-0.425,1.0
26.816,-2.169,-0.513,1.0
23.941,-1.931,-0.585,1.0
21.485,-1.727,-0.641,1.0
19.403,-1.556,-0.681,0.0
17.728,-1.417,-0.717,0.0
32.085,-2.562,-0.405,1.0
27.783,-2.211,-0.497,1.0
24.753,-1.964,-0.574,1.0
21.956,-1.737,-0.628,1.0
19.87,-1.567,-0.674,0.0
18.064,-1.42,-0.708,0.0
33.472,-2.627,-0.381,1.0
28.584,-2.237,-0.477,1.0
25.383,-1.98,-0.558,1.0
22.485,-1.748,-0.616,1.0
20.263,-1.57,-0.663,0.0
18.463,-1.426,-0.702,1.0
35.159,-2.712,-0.359,0.0
29.453,-2.264,-0.457,1.0
26.023,-1.993,-0.542,1.0
23.076,-1.762,-0.605,1.0
20.766,-1.58,-0.654,0.0
18.821,-1.427,-0.693,1.0
0.0,0.0,0.0,0.0
30.143,-2.275,-0.432,1.0
26.599,-2.0,-0.523,1.0
23.588,-1.767,-0.591,1.0
21.231,-1.585,-0.645,0.0
19.193,-1.428,-0.685,0.0
39.915,-2.965,-0.315,0.0
31.545,-2.335,-0.416,1.0
27.208,-2.007,-0.504,1.0
24.259,-1.782,-0.58,1.0
21.746,-1.592,-0.636,0.0
19.613,-1.43,-0.678,0.0
40.462,-2.947,-0.274,0.0
32.351,-2.347,-0.391,1.0
28.125,-2.033,-0.489,1.0
24.915,-1.794,-0.569,1.0
22.22,-1.594,-0.625,1.0
20.046,-1.432,-0.67,0.0
0.0,0.0,0.0,0.0
33.916,-2.409,-0.372,1.0
28.89,-2.044,-0.471,1.0
25.525,-1.798,-0.554,1.0
22.774,-1.598,-0.616,1.0
20.452,-1.429,-0.662,0.0
45.562,-3.179,-0.209,0.0
35.531,-2.469,-0.352,0.0
29.575,-2.046,-0.451,1.0
26.066,-1.796,-0.538,1.0
23.241,-1.594,-0.604,1.0
20.829,-1.423,-0.652,0.0
50.434,-3.439,-0.178,3.0
37.707,-2.56,-0.334,1.0
30.258,-2.045,-0.429,1.0
26.695,-1.796,-0.523,1.0
23.679,-1.586,-0.59,1.0
21.491,-1.433,-0.65,0.0
50.452,-3.359,-0.126,2.0
39.478,-2.617,-0.309,0.0
31.235,-2.061,-0.411,1.0
27.262,-1.791,-0.507,2.0
24.275,-1.587,-0.581,1.0
21.444,-1.396,-0.627,0.0
50.423,-3.276,-0.076,0.0
40.476,-2.617,-0.277,0.0
32.339,-2.081,-0.393,1.0
27.902,-1.787,-0.491,2.0
24.917,-1.588,-0.572,1.0
22.177,-1.407,-0.627,0.0
62.323,-3.946,-0.034,0.0
41.987,-2.645,-0.247,0.0
33.385,-2.093,-0.374,0.0
28.534,-1.78,-0.475,1.0
25.38,-1.575,-0.558,1.0
22.415,-1.384,-0.613,0.0
62.452,-3.849,0.024,2.0
0.0,0.0,0.0,0.0
34.553,-2.107,-0.355,0.0
29.112,-1.766,-0.458,1.0
25.857,-1.56,-0.545,1.0
22.935,-1.377,-0.606,3.0
62.894,-3.768,0.082,3.0
50.46,-3.006,-0.203,3.0
37.219,-2.205,-0.348,0.0
29.768,-1.754,-0.441,1.0
26.367,-1.545,-0.531,1.0
23.36,-1.361,-0.596,10.0
62.853,-3.654,0.139,2.0
50.45,-2.916,-0.157,6.0
37.453,-2.152,-0.317,0.0
30.43,-1.739,-0.423,1.0
26.81,-1.523,-0.516,1.0
23.765,-1.342,-0.585,9.0
0.0,0.0,0.0,0.0
50.441,-2.825,-0.114,1.0
40.041,-2.229,-0.304,0.0
31.322,-1.733,-0.409,1.0
27.416,-1.508,-0.505,1.0
24.151,-1.32,-0.574,5.0
0.0,0.0,0.0,0.0
59.207,-3.208,-0.084,2.0
41.794,-2.251,-0.283,0.0
32.259,-1.726,-0.395,1.0
28.105,-1.495,-0.495,7.0
24.557,-1.298,-0.564,5.0
0.0,0.0,0.0,0.0
59.426,-3.11,-0.036,2.0
0.0,0.0,0.0,0.0
32.8,-1.695,-0.375,1.0
28.504,-1.463,-0.479,7.0
25.285,-1.289,-0.561,1.0
0.0,0.0,0.0,0.0
59.827,-3.021,0.008,4.0
0.0,0.0,0.0,0.0
33.9,-1.688,-0.362,1.0
28.828,-1.426,-0.463,7.0
25.676,-1.262,-0.551,1.0
0.0,0.0,0.0,0.0
60.057,-2.92,0.053,1.0
50.449,-2.435,-0.226,0.0
34.016,-1.63,-0.339,1.0
29.286,-1.393,-0.449,8.0
26.039,-1.23,-0.539,1.0
0.0,0.0,0.0,0.0
0.0,0.0,0.0,0.0
50.458,-2.339,-0.191,1.0
36.204,-1.665,-0.335,0.0
29.9,-1.365,-0.438,2.0
26.425,-1.197,-0.529,1.0
0.0,0.0,0.0,0.0
0.0,0.0,0.0,0.0
50.403,-2.239,-0.157,2.0
37.835,-1.667,-0.325,3.0
30.276,-1.324,-0.424,2.0
26.785,-1.162,-0.519,1.0
0.0,0.0,0.0,0.0
0.0,0.0,0.0,0.0
50.435,-2.142,-0.125,0.0
37.753,-1.59,-0.301,9.0
30.798,-1.286,-0.411,1.0
27.144,-1.124,-0.509,1.0
0.0,0.0,0.0,0.0
0.0,0.0,0.0,0.0
37.777,-1.53,-0.07,99.0
37.763,-1.516,-0.278,124.0
31.409,-1.249,-0.401,1.0
27.51,-1.084,-0.5,2.0
0.0,0.0,0.0,0.0
0.0,0.0,0.0,0.0
40.144,-1.546,-0.052,137.0
40.104,-1.529,-0.273,96.0
31.744,-1.199,-0.388,1.0
27.862,-1.043,-0.491,1.0
0.0,0.0,0.0,0.0
0.0,0.0,0.0,0.0
0.0,0.0,0.0,0.0
40.127,-1.45,-0.252,6.0
32.347,-1.157,-0.378,1.0
28.17,-0.998,-0.482,2.0
126.557,-4.455,1.337,2.0
0.0,0.0,0.0,0.0
57.946,-1.997,-0.015,2.0
0.0,0.0,0.0,0.0
32.665,-1.102,-0.366,1.0
28.488,-0.951,-0.473,2.0
119.013,-3.945,1.314,1.0
0.0,0.0,0.0,0.0
0.0,0.0,0.0,0.0
40.482,-1.297,-0.215,0.0
33.334,-1.056,-0.358,1.0
28.732,-0.9,-0.464,1.0
40.402,-1.256,0.464,0.0
0.0,0.0,0.0,0.0
0.0,0.0,0.0,0.0
40.222,-1.206,-0.197,42.0
33.805,-1.001,-0.349,1.0
28.973,-0.847,-0.456,1.0
118.851,-3.447,1.414,48.0
40.208,-1.151,0.26,52.0
40.188,-1.136,0.041,66.0
40.68,-1.135,-0.183,71.0
34.064,-0.938,-0.338,0.0
29.248,-0.795,-0.45,1.0
40.219,-1.083,0.493,55.0
40.187,-1.068,0.274,62.0
40.29,-1.056,0.055,1.0
41.003,-1.06,-0.17,151.0
34.014,-0.866,-0.326,0.0
29.478,-0.74,-0.443,1.0
40.236,-1.0,0.507,54.0
40.3,-0.986,0.288,23.0
40.3,-0.971,0.068,150.0
40.29,-0.956,-0.154,119.0
35.264,-0.824,-0.327,0.0
29.617,-0.681,-0.436,1.0
40.32,-0.916,0.52,11.0
0.0,0.0,0.0,0.0
68.176,-1.499,0.136,0.0
0.0,0.0,0.0,0.0
0.0,0.0,0.0,0.0
29.733,-0.621,-0.43,1.0
40.239,-0.829,0.529,68.0
40.263,-0.815,0.31,47.0
40.295,-0.801,0.09,42.0
40.335,-0.787,-0.133,14.0
36.73,-0.703,-0.322,0.0
29.783,-0.559,-0.424,1.0
40.291,-0.744,0.539,6.0
40.246,-0.728,0.319,46.0
40.289,-0.715,0.099,57.0
40.325,-0.701,-0.125,40.0
40.104,-0.682,-0.343,0.0
29.92,-0.498,-0.42,2.0
205.331,-3.358,2.789,26.0
99.002,-1.583,0.802,6.0
248.301,-3.883,0.654,34.0
50.851,-0.776,-0.149,2.0
36.349,-0.542,-0.305,0.0
29.974,-0.436,-0.416,1.0
148.228,-2.11,2.035,7.0
87.883,-1.22,0.725,7.0
86.982,-1.176,0.241,5.0
54.48,-0.716,-0.152,1.0
0.0,0.0,0.0,0.0
30.058,-0.373,-0.413,1.0
79.421,-0.961,1.099,255.0
79.43,-0.931,0.664,134.0
60.637,-0.689,0.174,7.0
50.783,-0.558,-0.137,4.0
38.485,-0.409,-0.315,13.0
30.158,-0.31,-0.412,2.0
79.449,-0.79,1.106,181.0
79.432,-0.761,0.669,150.0
60.415,-0.556,0.177,7.0
49.794,-0.439,-0.132,3.0
40.19,-0.34,-0.327,1.0
30.198,-0.245,-0.411,2.0
79.449,-0.619,1.109,171.0
79.453,-0.591,0.672,150.0
61.109,-0.432,0.181,12.0
42.129,-0.282,-0.11,2.0
39.551,-0.251,-0.321,1.0
30.168,-0.18,-0.411,2.0
79.459,-0.448,1.109,154.0
79.494,-0.42,0.672,155.0
56.095,-0.275,0.165,10.0
0.0,0.0,0.0,0.0
39.0,-0.163,-0.318,1.0
30.118,-0.115,-0.411,2.0
79.458,-0.277,1.106,151.0
79.44,-0.248,0.668,150.0
56.111,-0.156,0.163,21.0
41.923,-0.101,-0.113,19.0
38.278,-0.078,-0.314,2.0
30.072,-0.051,-0.412,2.0
79.46,-0.107,1.101,151.0
79.391,-0.078,0.662,134.0
55.804,-0.034,0.157,29.0
41.052,-0.01,-0.114,17.0
38.179,0.003,-0.317,3.0
30.069,0.013,-0.415,2.0
79.471,0.066,1.092,151.0
79.433,0.094,0.653,72.0
54.95,0.084,0.148,28.0
40.686,0.077,-0.119,17.0
38.029,0.085,-0.321,2.0
29.963,0.077,-0.418,2.0
79.465,0.235,1.08,151.0
77.13,0.256,0.622,56.0
54.622,0.2,0.138,29.0
40.331,0.162,-0.124,16.0
37.672,0.165,-0.324,7.0
29.815,0.141,-0.422,2.0
48.232,0.246,0.646,34.0
48.201,0.263,0.379,45.0
48.146,0.28,0.112,55.0
39.592,0.243,-0.13,29.0
37.648,0.245,-0.332,1.0
29.742,0.204,-0.427,2.0
48.076,0.349,0.633,111.0
48.061,0.366,0.367,99.0
48.009,0.382,0.1,78.0
39.337,0.327,-0.139,39.0
37.376,0.324,-0.339,1.0
29.577,0.266,-0.432,2.0
48.094,0.452,0.621,105.0
48.056,0.468,0.354,101.0
47.975,0.485,0.087,63.0
39.003,0.407,-0.148,47.0
37.165,0.401,-0.348,0.0
29.389,0.327,-0.438,2.0
48.141,0.555,0.607,67.0
48.087,0.57,0.34,80.0
47.94,0.586,0.072,58.0
38.713,0.486,-0.16,48.0
33.723,0.435,-0.326,1.0
29.222,0.387,-0.445,2.0
121.133,1.655,1.488,15.0
75.219,1.052,0.506,12.0
47.906,0.687,0.056,51.0
38.354,0.563,-0.172,48.0
33.332,0.5,-0.335,1.0
29.028,0.446,-0.453,2.0
121.063,1.909,1.442,13.0
74.928,1.207,0.475,11.0
47.716,0.784,0.037,27.0
37.992,0.637,-0.185,43.0
33.029,0.565,-0.344,1.0
28.711,0.501,-0.459,2.0
89.965,1.607,1.035,7.0
61.656,1.122,0.366,11.0
47.384,0.877,0.017,26.0
37.625,0.709,-0.199,39.0
32.629,0.626,-0.354,1.0
28.371,0.553,-0.466,1.0
80.995,1.614,0.896,6.0
61.17,1.239,0.336,35.0
47.04,0.969,-0.003,22.0
37.269,0.78,-0.214,38.0
32.039,0.681,-0.363,1.0
28.042,0.605,-0.474,1.0
80.192,1.765,0.849,11.0
60.551,1.353,0.303,35.0
0.0,0.0,0.0,0.0
37.003,0.851,-0.231,26.0
31.554,0.736,-0.373,1.0
27.72,0.655,-0.483,1.0
78.303,1.886,0.788,16.0
58.997,1.439,0.264,33.0
42.786,1.057,-0.046,9.0
36.81,0.921,-0.249,15.0
31.061,0.788,-0.384,2.0
27.382,0.703,-0.491,1.0
78.068,2.038,0.743,37.0
58.626,1.549,0.23,13.0
0.0,0.0,0.0,0.0
36.547,0.99,-0.268,12.0
30.564,0.837,-0.395,2.0
27.276,0.756,-0.505,1.0
77.852,2.191,0.696,38.0
54.621,1.554,0.182,27.0
40.418,1.163,-0.091,16.0
36.332,1.057,-0.289,9.0
30.111,0.886,-0.408,2.0
23.847,0.709,-0.456,5.0
77.689,2.344,0.646,12.0
0.0,0.0,0.0,0.0
39.91,1.229,-0.115,45.0
36.163,1.125,-0.31,7.0
29.698,0.933,-0.421,2.0
23.293,0.739,-0.461,5.0
74.421,2.394,0.57,13.0
48.961,1.59,0.1,23.0
39.696,1.302,-0.14,47.0
0.0,0.0,0.0,0.0
29.292,0.978,-0.435,2.0
22.795,0.768,-0.466,5.0
74.04,2.529,0.516,11.0
48.219,1.661,0.065,24.0
39.585,1.376,-0.168,33.0
33.395,1.171,-0.332,1.0
28.895,1.022,-0.45,2.0
22.152,0.79,-0.469,4.0
59.975,2.166,0.375,14.0
47.555,1.731,0.03,23.0
36.62,1.344,-0.182,28.0
32.413,1.2,-0.346,1.0
28.446,1.062,-0.464,1.0
21.591,0.812,-0.473,4.0
59.121,2.25,0.325,34.0
0.0,0.0,0.0,0.0
36.388,1.406,-0.208,33.0
31.135,1.212,-0.356,2.0
28.169,1.105,-0.481,1.0
21.116,0.835,-0.479,4.0
55.281,2.209,0.261,28.0
41.821,1.684,-0.037,19.0
36.185,1.468,-0.236,17.0
30.876,1.262,-0.378,2.0
24.343,1.002,-0.435,5.0
20.892,0.866,-0.491,7.0
54.438,2.279,0.212,29.0
41.081,1.732,-0.071,36.0
35.86,1.522,-0.264,10.0
30.252,1.293,-0.396,1.0
23.682,1.019,-0.443,5.0
20.451,0.886,-0.498,3.0
54.142,2.369,0.165,20.0
40.249,1.773,-0.104,50.0
35.709,1.583,-0.293,8.0
29.647,1.323,-0.414,2.0
22.889,1.028,-0.448,4.0
20.074,0.907,-0.506,3.0
48.365,2.206,0.105,24.0
40.23,1.846,-0.139,18.0
35.525,1.64,-0.323,4.0
29.152,1.354,-0.433,1.0
22.155,1.035,-0.454,4.0
19.683,0.925,-0.514,3.0
0.0,0.0,0.0,0.0
36.49,1.741,-0.159,37.0
0.0,0.0,0.0,0.0
28.624,1.382,-0.451,1.0
21.596,1.048,-0.463,4.0
19.327,0.943,-0.523,3.0
42.794,2.107,0.013,18.0
36.03,1.784,-0.192,40.0
31.774,1.582,-0.349,1.0
24.765,1.24,-0.414,3.0
21.128,1.063,-0.473,4.0
18.944,0.959,-0.531,3.0
41.366,2.111,-0.026,22.0
35.841,1.838,-0.225,12.0
30.874,1.591,-0.369,1.0
24.06,1.247,-0.426,5.0
20.675,1.077,-0.483,3.0
18.538,0.97,-0.538,3.0
40.681,2.147,-0.066,46.0
35.508,1.882,-0.259,11.0
30.253,1.612,-0.392,2.0
23.115,1.238,-0.432,5.0
20.201,1.087,-0.492,3.0
18.049,0.976,-0.542,5.0
40.466,2.204,-0.107,16.0
35.386,1.937,-0.294,8.0
29.482,1.621,-0.412,2.0
22.271,1.23,-0.44,4.0
19.747,1.096,-0.502,3.0
17.71,0.987,-0.55,4.0
36.513,2.05,-0.135,27.0
35.332,1.993,-0.331,1.0
28.904,1.638,-0.434,1.0
21.639,1.231,-0.45,4.0
19.327,1.105,-0.511,3.0
17.408,0.999,-0.56,3.0
36.108,2.088,-0.172,32.0
32.077,1.862,-0.335,1.0
24.731,1.442,-0.399,2.0
21.073,1.234,-0.461,4.0
18.867,1.109,-0.52,3.0
17.057,1.007,-0.567,2.0
35.672,2.121,-0.209,23.0
30.996,1.85,-0.358,2.0
24.019,1.439,-0.414,5.0
20.608,1.24,-0.474,4.0
18.418,1.113,-0.528,3.0
16.57,1.005,-0.569,3.0
35.302,2.155,-0.247,4.0
30.31,1.857,-0.384,2.0
23.073,1.419,-0.423,5.0
20.074,1.239,-0.485,3.0
18.028,1.117,-0.538,3.0
16.215,1.009,-0.576,5.0
0.0,0.0,0.0,0.0
29.478,1.852,-0.408,2.0
22.221,1.401,-0.434,4.0
19.605,1.241,-0.496,3.0
17.603,1.118,-0.546,2.0
15.985,1.019,-0.586,2.0
35.095,2.251,-0.327,1.0
25.124,1.617,-0.377,3.0
21.483,1.388,-0.445,4.0
19.114,1.239,-0.506,3.0
17.226,1.12,-0.554,2.0
15.234,0.994,-0.577,2.0
31.758,2.084,-0.334,1.0
24.669,1.625,-0.4,5.0
20.986,1.387,-0.46,4.0
18.658,1.237,-0.517,3.0
16.832,1.12,-0.562,2.0
14.652,0.978,-0.573,9.0
30.707,2.06,-0.36,2.0
23.551,1.585,-0.41,5.0
20.472,1.382,-0.473,3.0
18.194,1.232,-0.526,3.0
16.412,1.115,-0.568,2.0
14.561,0.993,-0.587,16.0
29.876,2.047,-0.387,2.0
22.445,1.543,-0.419,4.0
19.817,1.366,-0.483,3.0
17.737,1.226,-0.535,4.0
16.048,1.113,-0.576,1.0
14.119,0.982,-0.587,13.0
29.182,2.04,-0.415,1.0
21.765,1.526,-0.433,4.0
19.307,1.358,-0.495,3.0
17.37,1.225,-0.546,2.0
15.523,1.098,-0.576,2.0
13.858,0.983,-0.594,12.0
24.714,1.761,-0.383,2.0
21.089,1.507,-0.447,4.0
18.787,1.346,-0.505,4.0
16.901,1.214,-0.553,2.0
14.677,1.058,-0.564,6.0
13.632,0.985,-0.602,12.0
23.701,1.72,-0.397,5.0
20.555,1.496,-0.462,4.0
18.333,1.338,-0.517,3.0
16.472,1.205,-0.56,2.0
14.329,1.051,-0.569,10.0
13.476,0.991,-0.612,11.0
22.672,1.674,-0.41,5.0
19.948,1.477,-0.474,3.0
17.847,1.324,-0.526,3.0
16.12,1.199,-0.569,2.0
13.93,1.039,-0.572,9.0
13.285,0.994,-0.621,8.0
21.834,1.639,-0.424,4.0
19.348,1.456,-0.486,3.0
17.395,1.312,-0.536,2.0
15.646,1.183,-0.573,2.0
13.766,1.043,-0.583,11.0
13.087,0.995,-0.629,8.0
21.178,1.615,-0.439,4.0
18.864,1.442,-0.499,3.0
16.954,1.299,-0.545,2.0
14.749,1.133,-0.56,5.0
13.536,1.042,-0.592,12.0
13.06,1.008,-0.646,9.0
20.543,1.59,-0.454,4.0
18.372,1.426,-0.511,3.0
16.549,1.287,-0.555,2.0
14.172,1.104,-0.558,11.0
13.448,1.05,-0.606,11.0
13.061,1.023,-0.664,9.0
19.987,1.57,-0.469,3.0
17.858,1.405,-0.521,3.0
16.153,1.274,-0.563,2.0
13.846,1.094,-0.564,9.0
13.254,1.05,-0.616,7.0
12.915,1.025,-0.674,4.0
19.439,1.548,-0.482,3.0
17.363,1.385,-0.53,2.0
0.0,0.0,0.0,0.0
13.666,1.095,-0.575,9.0
13.078,1.05,-0.626,7.0
12.595,1.013,-0.675,3.0
18.885,1.523,-0.495,3.0
16.937,1.369,-0.541,2.0
14.216,1.151,-0.535,9.0
13.537,1.098,-0.589,11.0
13.071,1.062,-0.644,9.0
12.407,1.011,-0.682,3.0
18.285,1.493,-0.505,2.0
16.54,1.353,-0.551,2.0
14.004,1.147,-0.547,11.0
13.381,1.098,-0.601,9.0
13.065,1.075,-0.662,10.0
12.184,1.004,-0.687,1.0
17.781,1.468,-0.516,3.0
16.111,1.333,-0.559,2.0
13.811,1.144,-0.559,12.0
13.224,1.098,-0.612,9.0
12.893,1.072,-0.671,4.0
11.889,0.991,-0.687,1.0
17.373,1.451,-0.528,2.0
13.958,1.167,-0.505,10.0
13.671,1.145,-0.573,9.0
13.061,1.096,-0.623,8.0
12.538,1.054,-0.671,3.0
11.602,0.977,-0.687,2.0
16.908,1.426,-0.538,2.0
13.884,1.173,-0.522,13.0
13.549,1.147,-0.587,9.0
13.051,1.106,-0.642,7.0
12.369,1.05,-0.679,3.0
11.4,0.97,-0.692,2.0
16.561,1.411,-0.551,0.0
13.82,1.179,-0.539,12.0
13.386,1.144,-0.599,8.0
13.049,1.117,-0.66,10.0
12.069,1.035,-0.68,1.0
11.195,0.961,-0.696,2.0
13.903,1.195,-0.482,13.0
13.773,1.186,-0.557,12.0
13.184,1.137,-0.609,8.0
12.873,1.112,-0.67,2.0
11.825,1.023,-0.684,2.0
10.977,0.951,-0.698,2.0
13.852,1.201,-0.5,15.0
13.622,1.183,-0.57,8.0
13.067,1.136,-0.622,8.0
12.52,1.09,-0.67,3.0
11.631,1.014,-0.689,1.0
10.786,0.942,-0.701,2.0
13.816,1.207,-0.519,15.0
13.509,1.182,-0.585,12.0
13.07,1.145,-0.641,10.0
12.345,1.083,-0.678,3.0
11.389,1.001,-0.691,1.0
10.591,0.932,-0.704,1.0
13.786,1.214,-0.537,15.0
13.376,1.179,-0.598,10.0
13.052,1.152,-0.659,10.0
12.04,1.064,-0.678,1.0
11.147,0.986,-0.692,2.0
10.417,0.923,-0.707,1.0
13.736,1.218,-0.555,13.0
13.175,1.169,-0.608,8.0
12.77,1.135,-0.663,3.0
11.81,1.051,-0.682,2.0
10.946,0.975,-0.696,2.0
10.229,0.912,-0.709,2.0
13.553,1.209,-0.567,13.0
13.074,1.168,-0.622,10.0
12.533,1.12,-0.669,4.0
11.564,1.035,-0.685,1.0
10.764,0.964,-0.699,1.0
10.041,0.901,-0.71,1.0
13.458,1.207,-0.583,13.0
13.069,1.174,-0.641,11.0
12.327,1.108,-0.676,2.0
11.379,1.024,-0.69,1.0
10.567,0.952,-0.702,1.0
9.881,0.891,-0.713,2.0
13.332,1.202,-0.596,12.0
13.023,1.176,-0.657,8.0
12.026,1.087,-0.676,2.0
11.155,1.009,-0.693,1.0
10.389,0.941,-0.705,1.0
9.734,0.882,-0.717,2.0
13.156,1.192,-0.607,8.0
12.724,1.154,-0.66,4.0
11.777,1.069,-0.679,2.0
10.924,0.993,-0.694,1.0
10.22,0.929,-0.708,1.0
9.649,0.879,-0.724,1.0
13.08,1.19,-0.622,11.0
12.51,1.139,-0.667,4.0
11.545,1.052,-0.682,1.0
10.746,0.98,-0.698,1.0
10.04,0.917,-0.71,1.0
9.524,0.87,-0.729,1.0
13.071,1.194,-0.64,12.0
12.318,1.126,-0.674,2.0
11.334,1.037,-0.686,2.0
10.539,0.965,-0.699,1.0
9.87,0.904,-0.712,2.0
9.414,0.863,-0.734,1.0
13.038,1.195,-0.657,11.0
12.037,1.104,-0.676,1.0
11.176,1.026,-0.692,1.0
10.363,0.952,-0.702,1.0
9.731,0.894,-0.716,2.0
9.277,0.853,-0.736,1.0
12.717,1.169,-0.658,4.0
11.768,1.082,-0.677,1.0
10.927,1.005,-0.692,1.0
10.209,0.94,-0.706,1.0
9.653,0.889,-0.723,1.0
9.163,0.845,-0.74,0.0
12.513,1.152,-0.665,4.0
11.551,1.064,-0.681,1.0
10.753,0.991,-0.695,1.0
10.044,0.927,-0.709,2.0
9.522,0.879,-0.727,1.0
9.059,0.837,-0.744,0.0
12.328,1.137,-0.672,3.0
11.343,1.047,-0.684,2.0
10.558,0.975,-0.697,1.0
9.898,0.915,-0.712,2.0
9.413,0.87,-0.731,1.0
8.91,0.824,-0.744,0.0
12.07,1.115,-0.675,2.0
11.185,1.034,-0.69,1.0
10.383,0.96,-0.7,2.0
9.735,0.9,-0.714,2.0
9.285,0.859,-0.734,1.0
8.778,0.813,-0.745,0.0
11.824,1.093,-0.677,2.0
10.978,1.015,-0.692,1.0
10.222,0.946,-0.703,2.0
9.66,0.894,-0.721,1.0
9.166,0.849,-0.737,0.0
8.584,0.795,-0.74,1.0
11.59,1.072,-0.679,2.0
10.791,0.998,-0.695,1.0
10.077,0.933,-0.707,2.0
9.54,0.883,-0.725,1.0
9.091,0.842,-0.744,0.0
8.178,0.758,-0.716,2.0
11.382,1.053,-0.682,2.0
10.588,0.979,-0.696,1.0
9.913,0.917,-0.708,2.0
9.441,0.874,-0.73,1.0
8.95,0.829,-0.744,0.0
7.951,0.736,-0.707,3.0
11.228,1.038,-0.688,2.0
10.432,0.964,-0.699,2.0
9.795,0.906,-0.713,2.0
9.318,0.862,-0.733,1.0
8.82,0.816,-0.745,0.0
7.837,0.725,-0.707,4.0
11.034,1.019,-0.69,1.0
10.271,0.948,-0.701,2.0
9.671,0.893,-0.716,1.0
9.23,0.853,-0.738,0.0
8.648,0.799,-0.741,1.0
7.733,0.715,-0.708,4.0
10.861,1.001,-0.693,1.0
10.139,0.935,-0.705,2.0
9.587,0.884,-0.722,1.0
9.101,0.839,-0.739,0.0
8.258,0.762,-0.718,2.0
7.65,0.706,-0.71,4.0
10.678,0.982,-0.695,1.0
9.982,0.919,-0.707,2.0
9.482,0.872,-0.726,1.0
9.013,0.829,-0.743,0.0
8.022,0.738,-0.708,2.0
7.551,0.695,-0.71,4.0
10.509,0.965,-0.697,2.0
9.861,0.905,-0.711,2.0
9.378,0.861,-0.73,1.0
8.87,0.814,-0.742,0.0
7.908,0.726,-0.708,4.0
7.499,0.688,-0.714,4.0
10.368,0.949,-0.7,2.0
9.728,0.89,-0.713,2.0
9.293,0.85,-0.734,1.0
8.762,0.802,-0.744,1.0
7.807,0.714,-0.708,4.0
7.466,0.683,-0.72,4.0
10.238,0.934,-0.703,2.0
9.657,0.881,-0.719,1.0
9.207,0.84,-0.739,0.0
8.531,0.778,-0.734,1.0
7.709,0.703,-0.708,4.0
7.453,0.68,-0.728,4.0
10.104,0.918,-0.706,2.0
9.564,0.869,-0.723,1.0
9.078,0.825,-0.739,0.0
8.314,0.755,-0.725,1.0
7.617,0.692,-0.709,4.0
7.424,0.674,-0.734,4.0
9.941,0.9,-0.706,2.0
9.474,0.857,-0.727,1.0
8.949,0.809,-0.739,0.0
8.031,0.726,-0.71,2.0
7.537,0.682,-0.71,4.0
7.386,0.668,-0.738,3.0
9.844,0.887,-0.71,2.0
9.387,0.845,-0.731,0.0
8.866,0.798,-0.742,1.0
7.884,0.709,-0.706,3.0
7.503,0.675,-0.715,4.0
7.335,0.66,-0.742,3.0
9.726,0.872,-0.713,2.0
9.304,0.833,-0.735,0.0
8.767,0.785,-0.743,1.0
7.805,0.699,-0.707,4.0
7.469,0.668,-0.72,5.0
7.267,0.65,-0.743,3.0
9.667,0.862,-0.719,2.0
9.203,0.82,-0.737,0.0
8.608,0.766,-0.739,1.0
7.726,0.688,-0.708,4.0
7.458,0.664,-0.727,4.0
7.196,0.64,-0.743,3.0
9.595,0.85,-0.723,1.0
9.098,0.805,-0.738,1.0
8.492,0.751,-0.738,1.0
7.64,0.676,-0.708,4.0
7.447,0.658,-0.734,4.0
7.121,0.629,-0.743,3.0
9.528,0.839,-0.728,1.0
9.014,0.793,-0.74,1.0
8.205,0.721,-0.721,1.0
7.587,0.667,-0.711,4.0
7.422,0.652,-0.739,3.0
7.102,0.623,-0.748,3.0
9.471,0.828,-0.733,0.0
8.909,0.778,-0.741,1.0
7.995,0.698,-0.711,2.0
7.544,0.658,-0.715,4.0
7.398,0.645,-0.743,3.0
7.098,0.618,-0.754,2.0
9.342,0.81,-0.732,1.0
8.84,0.766,-0.743,1.0
7.917,0.686,-0.711,3.0
7.514,0.65,-0.719,4.0
7.376,0.638,-0.748,3.0
7.039,0.609,-0.755,2.0
9.267,0.798,-0.735,1.0
8.781,0.755,-0.746,1.0
7.846,0.674,-0.712,4.0
7.498,0.644,-0.724,4.0
7.331,0.629,-0.75,3.0
6.973,0.598,-0.754,2.0
9.191,0.785,-0.737,1.0
8.72,0.744,-0.749,1.0
7.795,0.664,-0.714,4.0
7.498,0.638,-0.731,4.0
7.293,0.621,-0.753,3.0
6.943,0.59,-0.757,3.0
9.117,0.771,-0.739,1.0
8.641,0.73,-0.75,1.0
7.715,0.652,-0.714,4.0
7.528,0.635,-0.74,3.0
7.299,0.615,-0.76,3.0
6.933,0.584,-0.762,3.0
9.029,0.757,-0.739,1.0
8.554,0.716,-0.749,1.0
7.662,0.641,-0.715,4.0
7.54,0.63,-0.748,3.0
7.294,0.609,-0.765,3.0
6.929,0.578,-0.767,2.0
8.969,0.745,-0.741,2.0
8.339,0.692,-0.737,1.0
7.676,0.636,-0.722,4.0
7.523,0.623,-0.752,3.0
7.288,0.603,-0.77,2.0
6.918,0.572,-0.771,2.0
8.924,0.733,-0.744,1.0
8.103,0.665,-0.722,2.0
7.686,0.63,-0.729,4.0
7.493,0.614,-0.754,3.0
7.248,0.593,-0.771,1.0
6.912,0.565,-0.775,1.0
8.881,0.722,-0.747,1.0
8.015,0.651,-0.72,3.0
7.714,0.626,-0.737,3.0
7.455,0.604,-0.756,3.0
7.18,0.581,-0.769,1.0
6.861,0.555,-0.775,0.0
8.833,0.71,-0.749,1.0
7.981,0.641,-0.722,4.0
7.731,0.62,-0.744,4.0
7.43,0.595,-0.758,3.0
7.147,0.572,-0.77,1.0
6.829,0.546,-0.775,1.0
8.772,0.697,-0.75,1.0
7.957,0.632,-0.725,4.0
7.731,0.613,-0.749,4.0
7.411,0.587,-0.761,3.0
7.112,0.562,-0.771,0.0
6.792,0.537,-0.775,1.0
8.726,0.685,-0.751,2.0
7.935,0.622,-0.728,5.0
7.72,0.605,-0.753,4.0
7.397,0.579,-0.764,3.0
7.085,0.553,-0.772,0.0
6.785,0.529,-0.779,0.0
8.664,0.672,-0.751,2.0
7.944,0.615,-0.734,5.0
7.724,0.597,-0.757,3.0
7.384,0.57,-0.767,2.0
7.062,0.545,-0.774,1.0
6.785,0.522,-0.783,1.0
8.628,0.661,-0.752,2.0
7.952,0.608,-0.739,5.0
7.722,0.589,-0.761,3.0
7.359,0.561,-0.768,1.0
7.034,0.535,-0.774,1.0
6.802,0.517,-0.788,1.0
8.619,0.651,-0.756,2.0
7.961,0.6,-0.743,5.0
7.721,0.581,-0.765,2.0
7.34,0.552,-0.77,1.0
7.015,0.526,-0.776,1.0
6.848,0.513,-0.797,0.0
8.561,0.638,-0.755,2.0
7.97,0.593,-0.748,5.0
7.714,0.572,-0.768,1.0
7.319,0.542,-0.771,1.0
7.024,0.52,-0.78,1.0
6.903,0.51,-0.806,0.0
8.531,0.626,-0.756,3.0
7.978,0.584,-0.752,5.0
7.671,0.561,-0.766,1.0
7.301,0.533,-0.772,1.0
7.048,0.514,-0.785,1.0
6.998,0.509,-0.82,0.0
8.492,0.614,-0.755,4.0
7.986,0.576,-0.756,4.0
7.665,0.552,-0.769,1.0
7.283,0.523,-0.773,1.0
7.076,0.508,-0.791,1.0
7.082,0.507,-0.832,1.0
8.474,0.603,-0.757,5.0
8.004,0.568,-0.76,4.0
7.646,0.542,-0.769,1.0
7.293,0.516,-0.776,1.0
7.141,0.504,-0.801,1.0
7.152,0.504,-0.843,0.0
8.466,0.593,-0.758,5.0
8.013,0.56,-0.763,3.0
7.628,0.532,-0.77,1.0
7.323,0.51,-0.781,1.0
7.242,0.503,-0.814,1.0
7.247,0.502,-0.856,0.0
8.468,0.583,-0.761,4.0
8.007,0.55,-0.765,2.0
7.62,0.522,-0.771,1.0
7.36,0.503,-0.787,1.0
7.354,0.502,-0.828,1.0
7.329,0.499,-0.867,0.0
8.461,0.573,-0.762,3.0
8.017,0.541,-0.767,2.0
7.624,0.514,-0.773,1.0
7.435,0.5,-0.796,1.0
7.445,0.499,-0.84,1.0
7.445,0.498,-0.882,0.0
8.463,0.563,-0.764,2.0
8.005,0.531,-0.767,1.0
7.639,0.505,-0.776,1.0
7.517,0.496,-0.806,1.0
7.549,0.497,-0.853,1.0
7.579,0.498,-0.899,0.0
8.448,0.551,-0.763,1.0
7.995,0.52,-0.767,1.0
7.687,0.499,-0.781,1.0
7.631,0.494,-0.819,1.0
7.657,0.495,-0.866,0.0
7.7,0.496,-0.914,0.0
8.442,0.541,-0.764,1.0
8.002,0.511,-0.769,1.0
7.755,0.494,-0.789,1.0
7.737,0.492,-0.831,1.0
7.769,0.492,-0.879,0.0
7.79,0.492,-0.925,0.0
8.449,0.53,-0.765,1.0
8.016,0.502,-0.77,1.0
7.859,0.491,-0.799,1.0
7.866,0.49,-0.845,0.0
7.879,0.489,-0.891,0.0
7.866,0.487,-0.934,0.0
8.442,0.519,-0.764,2.0
8.058,0.494,-0.774,1.0
7.964,0.487,-0.81,1.0
7.989,0.487,-0.858,0.0
8.006,0.487,-0.905,0.0
7.976,0.484,-0.947,0.0
8.449,0.509,-0.764,2.0
8.113,0.488,-0.779,1.0
8.098,0.485,-0.823,1.0
8.096,0.484,-0.869,0.0
8.113,0.483,-0.917,0.0
8.04,0.477,-0.954,0.0
8.475,0.5,-0.766,2.0
8.212,0.483,-0.788,1.0
8.234,0.483,-0.836,1.0
8.235,0.481,-0.883,0.0
8.259,0.481,-0.932,0.0
8.241,0.479,-0.977,0.0
8.502,0.491,-0.767,2.0
8.366,0.481,-0.802,2.0
8.374,0.48,-0.849,1.0
8.409,0.481,-0.901,0.0
8.384,0.478,-0.945,0.0
8.368,0.475,-0.991,0.0
8.561,0.483,-0.771,2.0
8.497,0.478,-0.813,2.0
8.496,0.476,-0.86,1.0
8.508,0.475,-0.91,0.0
8.519,0.474,-0.959,0.0
8.403,0.466,-0.993,0.0
8.649,0.476,-0.777,2.0
8.594,0.472,-0.82,2.0
8.602,0.471,-0.869,0.0
8.667,0.473,-0.925,0.0
8.631,0.469,-0.969,0.0
8.366,0.453,-0.986,0.0
8.756,0.471,-0.784,2.0
8.767,0.47,-0.834,1.0
8.796,0.47,-0.886,0.0
8.802,0.468,-0.936,0.0
8.762,0.465,-0.981,0.0
7.933,0.419,-0.933,0.0
8.91,0.467,-0.795,2.0
8.939,0.467,-0.847,1.0
8.978,0.467,-0.901,0.0
8.952,0.464,-0.949,0.0
8.787,0.454,-0.981,0.0
7.907,0.407,-0.927,0.0
9.078,0.464,-0.807,2.0
9.098,0.463,-0.859,0.0
9.115,0.462,-0.911,0.0
9.069,0.458,-0.958,0.0
8.772,0.442,-0.976,0.0
7.924,0.397,-0.926,0.0
9.229,0.46,-0.816,2.0
9.248,0.459,-0.869,0.0
9.254,0.457,-0.921,0.0
9.108,0.448,-0.958,0.0
8.349,0.409,-0.925,0.0
7.979,0.389,-0.929,0.0
9.404,0.456,-0.828,1.0
9.444,0.456,-0.884,0.0
9.41,0.452,-0.933,0.0
9.135,0.437,-0.957,0.0
8.293,0.395,-0.915,0.0
7.988,0.379,-0.926,0.0
9.577,0.451,-0.838,1.0
9.622,0.452,-0.895,0.0
9.566,0.447,-0.943,0.0
9.098,0.423,-0.948,0.0
8.329,0.386,-0.914,0.0
7.993,0.369,-0.922,0.0
9.802,0.449,-0.853,0.0
9.804,0.447,-0.907,0.0
9.749,0.442,-0.956,0.0
8.787,0.397,-0.911,0.0
8.371,0.376,-0.914,0.0
8.031,0.359,-0.922,0.0
10.032,0.446,-0.867,0.0
9.996,0.442,-0.919,0.0
9.871,0.435,-0.962,0.0
8.786,0.385,-0.906,0.0
8.388,0.366,-0.911,0.0
8.058,0.35,-0.92,0.0
10.206,0.44,-0.876,5.0
10.163,0.436,-0.928,0.0
9.812,0.419,-0.95,0.0
8.827,0.375,-0.904,0.0
8.435,0.357,-0.91,0.0
8.106,0.341,-0.92,0.0
10.23,0.428,-0.871,13.0
10.381,0.432,-0.941,0.0
9.358,0.387,-0.899,0.0
8.871,0.365,-0.902,0.0
8.456,0.347,-0.907,0.0
8.181,0.334,-0.923,0.0
10.229,0.414,-0.863,9.0
10.521,0.424,-0.946,0.0
9.355,0.375,-0.892,2.0
8.945,0.356,-0.903,0.0
8.555,0.339,-0.911,0.0
8.192,0.323,-0.917,0.0
10.385,0.407,-0.869,1.0
10.708,0.417,-0.954,0.0
9.347,0.362,-0.884,3.0
8.996,0.347,-0.901,0.0
8.597,0.329,-0.909,0.0
8.229,0.314,-0.915,0.0
11.009,0.417,-0.912,0.0
10.521,0.396,-0.929,0.0
9.362,0.35,-0.878,2.0
9.069,0.337,-0.901,0.0
8.641,0.32,-0.906,0.0
8.292,0.305,-0.915,0.0
11.3,0.413,-0.927,0.0
10.069,0.366,-0.881,0.0
9.498,0.343,-0.883,0.0
9.142,0.328,-0.9,0.0
8.73,0.312,-0.908,0.0
8.347,0.296,-0.914,0.0
11.406,0.402,-0.925,0.0
10.141,0.355,-0.878,0.0
9.65,0.336,-0.888,0.0
9.221,0.319,-0.9,0.0
8.769,0.302,-0.904,0.0
8.411,0.288,-0.913,0.0
11.488,0.39,-0.921,0.0
10.215,0.345,-0.875,0.0
9.715,0.326,-0.885,0.0
9.22,0.307,-0.891,0.0
8.837,0.293,-0.902,0.0
8.497,0.28,-0.914,0.0
10.286,0.334,-0.871,0.0
9.831,0.317,-0.886,0.0
9.296,0.298,-0.889,0.0
8.95,0.285,-0.905,0.0
8.534,0.27,-0.909,0.0
10.955,0.345,-0.857,0.0
10.39,0.324,-0.869,0.0
9.916,0.308,-0.883,0.0
9.419,0.29,-0.891,0.0
9.008,0.276,-0.901,2.0
8.595,0.261,-0.907,0.0
10.448,0.313,-0.863,0.0
10.0,0.298,-0.88,0.0
9.491,0.28,-0.887,0.0
9.016,0.265,-0.892,3.0
8.708,0.254,-0.909,0.0
10.539,0.303,-0.859,0.0
10.107,0.288,-0.878,0.0
9.632,0.273,-0.89,0.0
9.076,0.255,-0.888,0.0
8.785,0.245,-0.907,0.0
10.655,0.293,-0.856,0.0
10.209,0.279,-0.875,0.0
9.715,0.263,-0.886,0.0
9.269,0.249,-0.896,0.0
8.857,0.236,-0.904,0.0
10.824,0.285,-0.857,0.0
10.333,0.269,-0.873,2.0
9.824,0.254,-0.884,0.0
9.377,0.241,-0.895,0.0
8.951,0.228,-0.903,0.0
11.693,0.296,-0.848,0.0
11.016,0.277,-0.858,0.0
10.412,0.259,-0.867,5.0
9.929,0.245,-0.882,0.0
9.449,0.231,-0.89,0.0
9.023,0.219,-0.898,0.0
11.841,0.286,-0.844,0.0
11.155,0.267,-0.855,0.0
10.446,0.248,-0.857,4.0
10.051,0.236,-0.879,0.0
9.565,0.223,-0.888,0.0
9.117,0.211,-0.896,0.0
12.025,0.276,-0.842,0.0
11.31,0.258,-0.852,0.0
10.621,0.24,-0.857,0.0
10.173,0.227,-0.877,0.0
9.689,0.215,-0.887,0.0
9.236,0.203,-0.895,0.0
12.169,0.266,-0.836,0.0
11.492,0.248,-0.851,0.0
10.844,0.232,-0.861,0.0
10.304,0.219,-0.874,1.0
9.793,0.206,-0.883,0.0
9.335,0.194,-0.892,0.0
12.373,0.256,-0.833,0.0
11.643,0.239,-0.846,0.0
10.984,0.223,-0.857,0.0
10.414,0.209,-0.869,3.0
9.916,0.197,-0.881,0.0
9.446,0.186,-0.889,0.0
12.556,0.246,-0.828,0.0
11.839,0.23,-0.844,0.0
11.149,0.214,-0.854,0.0
10.448,0.199,-0.857,7.0
10.063,0.189,-0.879,0.0
9.566,0.178,-0.887,0.0
12.743,0.236,-0.822,1.0
12.01,0.22,-0.838,0.0
11.321,0.205,-0.85,0.0
10.58,0.19,-0.852,1.0
10.203,0.181,-0.876,0.0
9.704,0.17,-0.885,0.0
12.948,0.226,-0.816,1.0
12.209,0.211,-0.834,0.0
11.53,0.197,-0.849,0.0
10.874,0.184,-0.86,0.0
10.365,0.173,-0.875,2.0
9.828,0.162,-0.882,0.0
13.218,0.217,-0.813,1.0
12.414,0.202,-0.829,1.0
11.716,0.188,-0.845,0.0
11.033,0.175,-0.855,0.0
10.451,0.164,-0.866,7.0
10.006,0.155,-0.882,0.0
13.457,0.207,-0.807,1.0
12.647,0.192,-0.825,1.0
11.909,0.179,-0.84,1.0
11.207,0.166,-0.851,1.0
10.517,0.154,-0.855,2.0
10.124,0.147,-0.877,0.0
13.713,0.198,-0.801,1.0
12.867,0.183,-0.819,1.0
12.108,0.17,-0.835,1.0
11.436,0.159,-0.85,0.0
10.794,0.148,-0.86,0.0
10.328,0.14,-0.878,0.0
13.991,0.188,-0.795,0.0
13.09,0.174,-0.812,1.0
12.343,0.162,-0.831,1.0
11.647,0.15,-0.847,0.0
10.979,0.14,-0.857,1.0
10.464,0.132,-0.872,0.0
14.32,0.179,-0.79,0.0
13.365,0.165,-0.807,1.0
12.573,0.153,-0.826,1.0
11.829,0.142,-0.841,1.0
11.155,0.132,-0.852,1.0
10.638,0.124,-0.869,0.0
14.656,0.17,-0.784,1.0
13.647,0.156,-0.802,1.0
12.793,0.144,-0.819,1.0
12.045,0.134,-0.836,1.0
11.393,0.125,-0.851,0.0
10.792,0.116,-0.863,0.0
14.971,0.161,-0.776,1.0
13.931,0.147,-0.795,4.0
13.054,0.136,-0.814,1.0
12.288,0.126,-0.832,1.0
11.617,0.117,-0.848,1.0
10.975,0.109,-0.859,0.0
15.166,0.15,-0.76,1.0
14.179,0.138,-0.785,1.0
13.321,0.127,-0.807,1.0
12.54,0.118,-0.827,1.0
11.812,0.109,-0.841,1.0
11.163,0.101,-0.854,0.0
15.538,0.141,-0.751,0.0
14.638,0.13,-0.784,1.0
13.618,0.119,-0.801,1.0
12.776,0.11,-0.82,1.0
12.052,0.102,-0.837,1.0
11.395,0.094,-0.851,0.0
16.038,0.132,-0.747,0.0
14.97,0.121,-0.775,2.0
13.964,0.111,-0.796,1.0
13.062,0.102,-0.814,1.0
12.3,0.094,-0.832,1.0
11.613,0.087,-0.846,0.0
16.722,0.125,-0.748,0.0
15.191,0.111,-0.759,1.0
14.289,0.103,-0.789,1.0
13.337,0.094,-0.807,1.0
12.532,0.086,-0.824,1.0
11.829,0.08,-0.84,1.0
17.204,0.116,-0.738,10.0
15.774,0.104,-0.759,9.0
14.691,0.095,-0.784,1.0
13.666,0.086,-0.802,1.0
12.82,0.079,-0.819,1.0
12.074,0.073,-0.835,0.0
17.299,0.104,-0.71,24.0
15.792,0.093,-0.731,11.0
15.006,0.086,-0.773,2.0
13.962,0.078,-0.793,1.0
13.124,0.072,-0.814,1.0
12.34,0.066,-0.83,0.0
17.808,0.095,-0.697,3.0
17.076,0.089,-0.758,0.0
15.437,0.079,-0.765,2.0
14.367,0.071,-0.789,1.0
13.444,0.065,-0.808,1.0
12.61,0.059,-0.824,1.0
18.791,0.088,-0.7,3.0
17.273,0.079,-0.733,13.0
15.794,0.07,-0.753,17.0
14.765,0.064,-0.782,1.0
13.773,0.058,-0.801,1.0
12.893,0.053,-0.818,0.0
19.203,0.079,-0.679,3.0
17.378,0.069,-0.704,6.0
15.852,0.061,-0.725,0.0
15.057,0.056,-0.768,2.0
14.098,0.051,-0.793,1.0
13.234,0.046,-0.813,1.0
20.082,0.071,-0.671,2.0
18.339,0.063,-0.708,1.0
16.979,0.056,-0.743,0.0
15.517,0.049,-0.761,1.0
14.483,0.044,-0.786,1.0
13.552,0.04,-0.806,1.0
20.913,0.062,-0.657,2.0
18.847,0.054,-0.69,8.0
17.402,0.048,-0.727,1.0
15.848,0.042,-0.746,6.0
14.901,0.038,-0.779,1.0
13.91,0.034,-0.799,1.0
21.627,0.053,-0.637,2.0
19.497,0.046,-0.675,3.0
17.984,0.041,-0.716,1.0
15.916,0.034,-0.717,1.0
15.196,0.031,-0.764,1.0
14.241,0.028,-0.79,1.0
22.587,0.045,-0.62,2.0
20.408,0.039,-0.665,2.0
18.607,0.033,-0.703,3.0
17.123,0.029,-0.737,0.0
15.832,0.025,-0.763,6.0
14.66,0.022,-0.783,1.0
23.351,0.036,-0.593,3.0
21.257,0.031,-0.649,3.0
19.098,0.026,-0.682,3.0
17.652,0.023,-0.724,1.0
15.894,0.019,-0.734,15.0
15.049,0.017,-0.773,1.0
24.27,0.027,-0.567,2.0
22.073,0.023,-0.629,4.0
19.993,0.019,-0.673,2.0
18.242,0.016,-0.71,1.0
16.744,0.014,-0.739,0.0
15.627,0.011,-0.77,1.0
25.503,0.019,-0.543,1.0
22.965,0.016,-0.607,3.0
20.814,0.013,-0.658,2.0
18.813,0.01,-0.694,3.0
17.377,0.008,-0.731,1.0
15.898,0.006,-0.751,13.0
26.665,0.011,-0.512,2.0
23.824,0.009,-0.581,2.0
21.703,0.006,-0.641,3.0
19.511,0.004,-0.679,3.0
17.923,0.003,-0.716,1.0
16.134,0.002,-0.728,0.0
27.848,0.004,-0.478,1.0
24.912,0.002,-0.556,1.0
22.59,0.0,-0.62,3.0
20.391,0.0,-0.667,2.0
18.603,-0.001,-0.704,2.0
17.124,-0.002,-0.737,1.0
29.236,-0.003,-0.44,2.0
26.238,-0.004,-0.53,1.0
23.41,-0.005,-0.594,2.0
21.259,-0.005,-0.651,2.0
19.165,-0.006,-0.686,3.0
17.691,-0.006,-0.724,1.0
30.464,-0.01,-0.395,1.0
27.258,-0.01,-0.493,1.0
24.362,-0.01,-0.566,2.0
22.176,-0.01,-0.632,3.0
20.043,-0.01,-0.674,3.0
18.3,-0.01,-0.71,2.0
32.583,-0.017,-0.353,1.0
28.805,-0.016,-0.46,2.0
25.697,-0.015,-0.543,2.0
23.073,-0.014,-0.609,3.0
20.902,-0.014,-0.659,3.0
18.92,-0.013,-0.694,3.0
37.564,-0.025,-0.327,1.0
29.942,-0.021,-0.415,2.0
26.852,-0.019,-0.51,2.0
23.936,-0.018,-0.58,2.0
21.817,-0.017,-0.641,3.0
19.689,-0.016,-0.68,3.0
38.812,-0.03,-0.256,10.0
31.66,-0.025,-0.371,1.0
28.182,-0.023,-0.476,1.0
25.184,-0.021,-0.557,1.0
22.755,-0.02,-0.62,3.0
20.531,-0.018,-0.666,2.0
39.822,-0.034,-0.178,30.0
33.819,-0.029,-0.325,1.0
29.509,-0.026,-0.435,2.0
26.437,-0.024,-0.529,2.0
23.611,-0.021,-0.594,2.0
21.44,-0.02,-0.649,3.0
0.0,0.0,0.0,0.0
38.552,-0.035,-0.288,3.0
30.841,-0.028,-0.389,1.0
27.55,-0.025,-0.492,2.0
24.669,-0.023,-0.567,1.0
22.417,-0.021,-0.631,3.0
46.102,-0.041,-0.009,11.0
39.409,-0.035,-0.21,15.0
33.275,-0.03,-0.348,1.0
28.997,-0.026,-0.455,2.0
26.003,-0.023,-0.542,1.0
23.267,-0.021,-0.605,3.0
55.268,-0.048,0.107,30.0
40.96,-0.035,-0.131,17.0
38.141,-0.032,-0.318,2.0
30.16,-0.025,-0.41,2.0
27.067,-0.022,-0.507,2.0
24.214,-0.02,-0.578,2.0
61.758,-0.049,0.252,21.0
0.0,0.0,0.0,0.0
39.067,-0.03,-0.241,14.0
32.238,-0.024,-0.369,1.0
28.516,-0.021,-0.472,2.0
25.51,-0.018,-0.554,2.0
76.312,-0.052,0.475,19.0
50.933,-0.034,0.055,3.0
40.231,-0.026,-0.163,15.0
37.176,-0.023,-0.346,0.0
29.793,-0.018,-0.43,2.0
26.703,-0.015,-0.522,2.0
79.429,-0.042,0.664,150.0
56.145,-0.028,0.18,9.0
0.0,0.0,0.0,0.0
38.583,-0.017,-0.275,7.0
31.222,-0.013,-0.384,1.0
27.962,-0.011,-0.487,1.0
79.462,-0.027,0.834,154.0
76.137,-0.024,0.407,14.0
47.827,-0.013,0.01,20.0
39.528,-0.009,-0.198,24.0
33.567,-0.007,-0.341,1.0
29.297,-0.005,-0.448,2.0
79.464,-0.01,1.005,151.0
79.29,-0.006,0.595,23.0
0.0,0.0,0.0,0.0
0.0,0.0,0.0,0.0
38.388,0.001,-0.308,5.0
30.61,0.002,-0.403,2.0
79.458,0.01,1.174,151.0
79.467,0.014,0.765,174.0
61.691,0.014,0.277,11.0
0.0,0.0,0.0,0.0
39.115,0.013,-0.23,18.0
32.89,0.012,-0.363,1.0
79.444,0.034,1.342,160.0
79.461,0.038,0.934,158.0
76.489,0.041,0.504,15.0
0.0,0.0,0.0,0.0
40.491,0.026,-0.153,16.0
38.195,0.027,-0.341,1.0
79.455,0.06,1.51,151.0
79.454,0.065,1.102,155.0
79.455,0.07,0.693,150.0
59.135,0.056,0.206,24.0
44.762,0.045,-0.075,21.0
38.62,0.042,-0.263,14.0
79.452,0.09,1.678,151.0
79.456,0.095,1.268,167.0
79.463,0.101,0.86,151.0
76.013,0.102,0.423,19.0
47.934,0.068,0.02,21.0
39.486,0.058,-0.186,36.0
79.44,0.122,1.846,150.0
79.452,0.128,1.435,161.0
79.464,0.134,1.026,154.0
79.43,0.141,0.609,39.0
55.087,0.102,0.139,15.0
43.925,0.085,-0.115,9.0
79.445,0.158,2.013,150.0
79.455,0.164,1.604,151.0
79.455,0.171,1.193,161.0
79.451,0.178,0.776,151.0
75.757,0.176,0.35,8.0
0.0,0.0,0.0,0.0
79.442,0.196,2.178,150.0
79.438,0.203,1.769,150.0
79.444,0.211,1.361,167.0
79.463,0.218,0.942,151.0
76.735,0.217,0.514,33.0
54.242,0.159,0.083,28.0
79.438,0.238,2.346,150.0
79.444,0.245,1.934,150.0
79.457,0.253,1.525,151.0
79.459,0.261,1.107,151.0
79.444,0.269,0.698,150.0
59.182,0.206,0.215,9.0
79.443,0.282,2.51,150.0
79.437,0.29,2.099,150.0
79.45,0.298,1.69,150.0
79.452,0.306,1.27,161.0
79.431,0.315,0.86,150.0
59.38,0.242,0.336,18.0
59.297,0.245,1.994,95.0
59.302,0.252,1.689,99.0
59.298,0.258,1.382,98.0
59.297,0.265,1.069,97.0
59.309,0.271,0.763,95.0
59.326,0.278,0.457,97.0
48.202,0.229,1.72,72.0
48.223,0.235,1.471,25.0
59.28,0.296,1.501,32.0
59.275,0.303,1.189,26.0
59.295,0.31,0.883,82.0
59.294,0.317,0.577,64.0
48.167,0.261,1.816,80.0
48.157,0.267,1.567,83.0
48.161,0.273,1.317,76.0
48.16,0.278,1.063,59.0
48.165,0.285,0.814,56.0
48.184,0.291,0.564,49.0
48.154,0.294,1.912,96.0
48.126,0.3,1.661,79.0
48.13,0.306,1.412,104.0
48.121,0.312,1.157,95.0
48.128,0.319,0.908,89.0
48.115,0.325,0.658,58.0
48.133,0.329,2.007,103.0
48.113,0.335,1.757,101.0
48.121,0.342,1.507,110.0
48.097,0.348,1.251,106.0
48.104,0.355,1.002,105.0
48.1,0.361,0.752,99.0
48.146,0.366,2.102,133.0
48.115,0.372,1.851,109.0
48.101,0.378,1.6,104.0
48.094,0.385,1.345,109.0
48.102,0.392,1.096,109.0
48.112,0.399,0.847,110.0
48.156,0.404,2.197,106.0
48.126,0.41,1.945,101.0
48.112,0.417,1.694,96.0
48.096,0.424,1.439,109.0
48.108,0.431,1.189,107.0
48.103,0.438,0.938,104.0
48.187,0.444,2.291,86.0
48.155,0.451,2.038,80.0
48.144,0.458,1.788,98.0
48.132,0.465,1.532,88.0
48.126,0.472,1.281,101.0
48.124,0.48,1.031,99.0
59.397,0.598,2.937,120.0
55.116,0.563,2.438,10.0
48.191,0.5,1.881,65.0
48.171,0.507,1.624,73.0
48.172,0.515,1.373,84.0
48.158,0.523,1.122,80.0
59.394,0.65,3.049,15.0
55.056,0.611,2.538,72.0
55.014,0.62,2.249,103.0
55.006,0.629,1.957,119.0
55.009,0.638,1.67,92.0
48.211,0.567,1.213,44.0
55.063,0.654,2.929,68.0
55.023,0.662,2.639,108.0
55.004,0.671,2.35,122.0
55.002,0.68,2.057,126.0
55.01,0.689,1.77,111.0
55.041,0.699,1.484,88.0
55.001,0.705,3.026,74.0
55.014,0.714,2.739,121.0
54.995,0.724,2.451,113.0
55.007,0.734,2.159,114.0
55.036,0.744,1.873,95.0
55.093,0.754,1.586,44.0
54.981,0.758,3.126,113.0
54.985,0.768,2.837,125.0
55.001,0.778,2.55,95.0
55.031,0.788,2.258,107.0
55.093,0.799,1.972,45.0
133.009,1.954,4.066,25.0
54.981,0.814,3.224,110.0
54.957,0.823,2.933,124.0
54.998,0.834,2.647,106.0
55.058,0.844,2.356,66.0
162.992,2.531,6.12,15.0
132.868,2.087,4.293,35.0
63.673,1.008,3.845,26.0
54.91,0.879,3.027,83.0
55.02,0.891,2.744,66.0
55.11,0.903,2.454,7.0
59.313,0.983,2.329,2.0
132.655,2.224,4.514,28.0
62.895,1.063,3.907,39.0
54.833,0.936,3.118,52.0
55.072,0.951,2.841,49.0
129.905,2.268,6.006,21.0
130.557,2.305,5.351,24.0
132.648,2.368,4.741,9.0
62.368,1.122,3.981,77.0
62.696,1.14,3.671,20.0
55.214,1.014,2.942,28.0
130.612,2.426,6.261,17.0
128.233,2.406,5.471,8.0
128.019,2.427,4.788,23.0
62.292,1.19,4.081,72.0
62.757,1.211,3.779,80.0
54.952,1.071,3.019,21.0
125.506,2.472,6.223,7.0
127.943,2.545,5.668,13.0
127.937,2.571,4.995,33.0
62.267,1.26,4.182,51.0
62.773,1.283,3.883,30.0
54.633,1.128,3.091,34.0
55.313,1.152,2.831,8.0
127.745,2.689,5.866,19.0
127.903,2.719,5.198,37.0
62.508,1.339,4.299,9.0
62.748,1.356,3.983,21.0
54.47,1.188,3.168,46.0
55.372,1.219,2.922,49.0
127.115,2.825,6.038,8.0
130.749,2.933,5.519,9.0
53.742,1.214,3.78,49.0
62.267,1.42,4.05,9.0
54.408,1.251,3.25,74.0
55.392,1.286,3.01,67.0
122.749,2.876,6.021,36.0
130.221,3.078,5.698,25.0
53.611,1.276,3.854,49.0
53.907,1.294,3.589,66.0
54.416,1.318,3.334,85.0
55.393,1.354,3.095,48.0
122.536,3.021,6.195,25.0
153.484,3.817,6.948,12.0
56.244,1.409,4.13,26.0
55.695,1.407,3.793,6.0
54.369,1.385,3.413,67.0
55.408,1.423,3.178,48.0
123.04,3.188,6.406,36.0
122.677,3.206,5.737,32.0
61.589,1.621,4.613,63.0
55.776,1.479,3.88,71.0
54.164,1.448,3.479,56.0
122.155,3.293,7.185,24.0
123.005,3.343,6.581,22.0
122.486,3.356,5.903,35.0
61.574,1.699,4.702,62.0
55.818,1.553,3.965,82.0
54.192,1.519,3.559,22.0
124.033,3.504,7.474,26.0
133.22,3.794,7.319,8.0
122.652,3.519,6.084,49.0
61.446,1.776,4.779,62.0
55.834,1.626,4.044,80.0
73.855,2.167,4.955,38.0
124.423,3.679,7.672,27.0
124.15,3.699,6.992,18.0
123.079,3.694,6.276,27.0
61.328,1.854,4.856,25.0
55.841,1.7,4.122,75.0
73.867,2.265,5.056,33.0
54.267,1.676,3.419,40.0
73.94,2.3,4.264,36.0
125.369,3.93,6.559,10.0
55.821,1.762,4.494,108.0
62.077,1.973,4.664,63.0
55.138,1.764,3.847,53.0
54.243,1.748,3.488,61.0
73.814,2.395,4.352,41.0
73.917,2.415,3.962,13.0
55.882,1.839,4.571,20.0
62.096,2.058,4.746,54.0
55.205,1.842,3.923,37.0
54.238,1.822,3.558,72.0
73.773,2.494,4.443,16.0
73.891,2.516,4.055,48.0
71.781,2.462,5.964,32.0
62.097,2.143,4.824,46.0
55.212,1.918,3.992,18.0
54.216,1.895,3.623,37.0
64.947,2.285,3.992,28.0
73.791,2.614,4.139,31.0
62.176,2.218,5.242,19.0
62.181,2.232,4.907,50.0
65.353,2.36,4.804,40.0
54.196,1.969,3.686,80.0
73.291,2.68,4.59,22.0
73.79,2.715,4.225,12.0
62.155,2.303,5.313,25.0
55.42,2.066,4.438,75.0
54.319,2.038,4.057,67.0
54.156,2.044,3.747,80.0
73.325,2.785,4.678,21.0
64.97,2.483,3.795,32.0
68.001,2.617,5.892,8.0
55.417,2.145,4.501,6.0
53.776,2.094,4.077,83.0
73.726,2.889,5.184,28.0
73.223,2.885,4.754,32.0
65.193,2.583,3.881,19.0
53.278,2.127,4.675,51.0
53.401,2.143,4.396,77.0
65.127,2.628,5.008,10.0
73.628,2.988,5.256,31.0
73.463,2.998,4.847,17.0
73.337,3.01,4.442,23.0
64.861,2.681,5.76,17.0
53.813,2.236,4.487,48.0
71.584,2.991,5.58,15.0
73.531,3.089,5.325,46.0
73.457,3.103,4.922,28.0
73.247,3.111,4.512,26.0
54.561,2.334,4.901,20.0
64.764,2.785,5.465,19.0
64.397,2.784,5.084,30.0
65.656,2.853,4.82,19.0
73.373,3.206,4.989,20.0
73.169,3.214,4.579,29.0
54.48,2.41,4.948,49.0
64.497,2.868,5.506,28.0
64.543,2.884,5.158,32.0
65.047,2.921,4.838,40.0
73.417,3.314,5.062,5.0
127.756,5.797,8.114,17.0
54.346,2.484,4.987,8.0
64.491,2.962,5.566,18.0
71.418,3.296,5.774,7.0
73.813,3.424,5.557,15.0
73.825,3.441,5.156,22.0
127.722,5.981,8.227,19.0
54.17,2.554,5.019,5.0
55.568,2.633,4.845,14.0
68.078,3.24,5.563,9.0
65.028,3.11,4.952,11.0
73.607,3.538,5.204,30.0
149.651,7.227,9.767,24.0
0.0,0.0,0.0,0.0
64.663,3.16,5.692,14.0
64.857,3.183,5.354,24.0
64.827,3.196,4.99,24.0
73.777,3.654,5.277,32.0
149.767,7.452,9.896,32.0
54.071,2.709,5.101,9.0
0.0,0.0,0.0,0.0
64.488,3.259,5.375,26.0
65.086,3.304,5.061,11.0
124.153,6.331,8.976,21.0
124.612,6.383,8.329,21.0
63.082,3.254,5.998,39.0
0.0,0.0,0.0,0.0
64.458,3.354,5.421,30.0
64.981,3.395,5.102,6.0
124.693,6.542,9.106,34.0
124.613,6.567,8.419,19.0
63.822,3.386,6.116,23.0
64.14,3.417,5.793,39.0
64.815,3.467,5.497,27.0
64.954,3.489,5.145,6.0
124.955,6.74,9.213,23.0
124.656,6.753,8.507,32.0
53.577,2.923,5.17,7.0
64.125,3.511,5.835,13.0
68.036,3.741,5.816,14.0
64.947,3.586,5.187,13.0
71.907,3.986,5.348,32.0
72.017,4.008,4.961,29.0
41.32,2.316,4.014,9.0
64.557,3.632,5.915,13.0
70.225,3.965,6.046,15.0
64.985,3.684,5.23,22.0
78.483,4.467,5.884,14.0
71.784,4.102,4.988,41.0
41.54,2.39,4.06,57.0
41.644,2.404,3.84,12.0
64.369,3.731,5.579,36.0
64.625,3.759,5.238,22.0
71.912,4.199,5.433,29.0
71.813,4.21,5.03,29.0
41.451,2.447,4.074,49.0
63.843,3.782,5.922,15.0
64.242,3.818,5.603,29.0
64.397,3.842,5.254,25.0
78.599,4.705,5.978,10.0
78.581,4.721,5.543,16.0
41.396,2.504,4.09,64.0
63.795,3.872,5.949,18.0
64.297,3.916,5.639,25.0
64.509,3.943,5.294,39.0
78.706,4.828,6.024,23.0
67.152,4.133,4.769,22.0
63.377,3.928,6.291,39.0
0.0,0.0,0.0,0.0
64.17,4.003,5.657,32.0
64.587,4.042,5.328,26.0
78.586,4.935,6.048,34.0
67.125,4.229,4.795,20.0
63.306,4.016,6.311,24.0
63.648,4.051,5.99,11.0
65.183,4.161,5.772,23.0
74.159,4.749,6.147,11.0
65.949,4.236,5.101,22.0
67.277,4.336,4.831,30.0
63.715,4.135,6.375,40.0
63.378,4.125,5.988,35.0
70.064,4.575,6.23,26.0
65.068,4.262,5.417,40.0
65.914,4.332,5.121,26.0
67.283,4.435,4.854,30.0
70.808,4.699,7.109,19.0
70.441,4.688,6.678,13.0
63.462,4.236,5.663,9.0
65.288,4.37,5.456,38.0
66.433,4.461,5.181,43.0
71.223,4.797,5.159,12.0
71.432,4.843,7.193,15.0
70.475,4.793,6.701,45.0
65.238,4.449,5.839,35.0
65.245,4.462,5.469,29.0
66.102,4.534,5.173,40.0
67.103,4.616,4.878,27.0
64.223,4.448,6.482,23.0
70.797,4.916,6.749,48.0
64.674,4.503,5.803,12.0
63.766,4.452,5.359,12.0
64.333,4.504,5.048,38.0
67.149,4.714,4.895,23.0
67.561,4.775,6.833,41.0
70.906,5.025,6.773,35.0
64.005,4.548,5.755,33.0
63.957,4.556,5.386,39.0
65.102,4.651,5.119,40.0
67.47,4.833,4.929,21.0
67.377,4.859,6.825,23.0
64.168,4.639,6.139,14.0
64.108,4.646,5.774,39.0
63.627,4.623,5.368,43.0
64.283,4.683,5.063,38.0
67.514,4.931,4.941,18.0
38.672,2.843,3.921,46.0
64.244,4.734,6.153,34.0
64.008,4.728,5.771,39.0
63.663,4.714,5.377,31.0
66.593,4.944,5.251,17.0
67.661,5.036,4.957,7.0
38.561,2.889,3.913,54.0
64.055,4.809,6.139,36.0
63.893,4.808,5.764,39.0
63.845,4.816,5.395,33.0
64.698,4.892,5.104,39.0
67.907,5.147,4.977,25.0
38.464,2.934,3.904,63.0
38.711,2.959,3.711,44.0
63.847,4.893,5.761,39.0
64.109,4.924,5.417,39.0
0.0,0.0,0.0,0.0
67.882,5.238,4.975,21.0
38.506,2.99,3.908,48.0
38.673,3.01,3.706,59.0
64.156,5.004,5.787,40.0
63.633,4.974,5.375,30.0
66.419,5.203,5.237,9.0
67.84,5.327,4.968,7.0
38.447,3.038,3.899,74.0
38.671,3.062,3.704,64.0
63.884,5.068,5.758,39.0
63.537,5.052,5.362,39.0
66.286,5.281,5.221,18.0
65.484,5.229,4.789,12.0
38.425,3.087,3.893,54.0
38.677,3.113,3.7,60.0
64.33,5.189,5.79,40.0
63.449,5.128,5.347,38.0
66.072,5.351,5.196,29.0
65.517,5.317,4.783,12.0
64.739,5.287,6.55,17.0
64.699,5.293,6.18,26.0
64.144,5.257,5.764,39.0
63.572,5.221,5.347,12.0
66.763,5.494,5.239,41.0
65.516,5.401,4.772,16.0
47.742,3.96,4.822,13.0
64.706,5.377,6.168,26.0
64.18,5.343,5.755,39.0
66.351,5.533,5.567,19.0
66.806,5.582,5.228,42.0
65.536,5.487,4.759,19.0
47.78,4.024,4.815,12.0
64.704,5.458,6.153,16.0
47.445,4.009,4.243,21.0
66.393,5.62,5.555,34.0
66.383,5.63,5.179,39.0
65.548,5.569,4.744,22.0
47.696,4.076,4.794,22.0
47.707,4.084,4.524,25.0
47.457,4.069,4.231,35.0
66.328,5.697,5.53,39.0
66.695,5.738,5.184,42.0
65.564,5.651,4.725,17.0
47.592,4.126,4.769,19.0
47.62,4.135,4.501,21.0
47.437,4.125,4.214,48.0
66.336,5.778,5.51,18.0
66.595,5.81,5.154,41.0
65.643,5.736,4.709,15.0
47.506,4.175,4.744,35.0
47.472,4.178,4.47,21.0
47.537,4.19,4.206,53.0
71.038,6.272,5.875,12.0
66.59,5.888,5.13,42.0
65.596,5.81,4.681,16.0
47.87,4.264,4.762,8.0
47.532,4.239,4.457,21.0
47.528,4.245,4.186,40.0
70.916,6.343,5.836,15.0
66.485,5.955,5.095,41.0
65.568,5.882,4.653,11.0
62.272,5.618,6.168,11.0
47.522,4.292,4.436,21.0
47.744,4.319,4.185,26.0
47.696,4.32,3.904,7.0
66.186,6.004,5.042,41.0
65.587,5.958,4.625,10.0
61.982,5.661,6.111,11.0
47.508,4.344,4.413,9.0
47.822,4.379,4.169,18.0
66.577,6.104,5.419,12.0
65.989,6.059,4.996,32.0
13.856,1.274,0.97,6.0
47.617,4.401,4.671,5.0
13.888,1.285,1.283,9.0
13.857,1.284,1.201,13.0
13.82,1.282,1.117,6.0
13.815,1.283,1.038,8.0
13.826,1.286,0.961,19.0
13.878,1.297,1.354,17.0
13.856,1.296,1.272,17.0
13.835,1.296,1.191,17.0
13.798,1.294,1.108,17.0
13.825,1.298,1.032,28.0
13.826,1.3,0.953,25.0
13.855,1.309,1.343,25.0
13.822,1.308,1.261,20.0
13.804,1.307,1.181,18.0
13.792,1.308,1.099,31.0
13.82,1.312,1.023,32.0
13.81,1.313,0.944,30.0
13.835,1.322,1.333,30.0
13.806,1.32,1.251,31.0
13.783,1.319,1.17,27.0
13.787,1.321,1.09,31.0
13.798,1.323,1.013,28.0
13.787,1.324,0.933,33.0
13.833,1.335,1.324,36.0
13.809,1.334,1.243,38.0
13.792,1.334,1.162,38.0
13.792,1.335,1.082,33.0
13.776,1.335,1.002,30.0
13.78,1.337,0.924,35.0
13.815,1.346,1.313,40.0
13.793,1.345,1.232,92.0
13.767,1.344,1.151,114.0
13.775,1.346,1.071,36.0
13.766,1.347,0.992,33.0
13.767,1.348,0.913,36.0
13.808,1.358,1.302,41.0
13.794,1.358,1.222,150.0
13.775,1.357,1.141,150.0
13.76,1.357,1.06,50.0
13.758,1.358,0.981,32.0
13.767,1.36,0.903,34.0
13.792,1.369,1.291,37.0
13.784,1.369,1.211,150.0
13.764,1.368,1.13,147.0
13.757,1.369,1.049,40.0
13.765,1.371,0.971,35.0
13.762,1.372,0.892,38.0
13.776,1.379,1.278,28.0
13.777,1.38,1.199,150.0
13.757,1.379,1.119,150.0
13.75,1.38,1.038,35.0
13.744,1.38,0.959,35.0
13.75,1.382,0.881,38.0
13.766,1.389,1.266,27.0
13.774,1.391,1.188,117.0
13.756,1.39,1.107,150.0
13.748,1.39,1.026,32.0
13.761,1.393,0.949,72.0
13.752,1.393,0.869,37.0
13.77,1.401,1.255,34.0
13.778,1.402,1.177,68.0
13.747,1.4,1.095,150.0
13.75,1.401,1.015,33.0
13.757,1.403,0.937,70.0
13.749,1.403,0.858,37.0
13.779,1.412,1.244,42.0
13.767,1.411,1.164,52.0
13.746,1.41,1.083,150.0
13.749,1.411,1.003,30.0
13.761,1.413,0.925,82.0
13.759,1.414,0.846,44.0
13.783,1.422,1.232,48.0
13.761,1.42,1.151,83.0
13.747,1.419,1.071,150.0
13.749,1.42,0.99,38.0
13.757,1.422,0.912,68.0
13.759,1.423,0.834,45.0
13.773,1.43,1.218,55.0
13.756,1.429,1.138,78.0
13.75,1.429,1.058,148.0
13.751,1.429,0.978,95.0
13.758,1.431,0.899,77.0
13.761,1.432,0.821,56.0
13.781,1.439,1.206,41.0
13.759,1.438,1.125,39.0
13.748,1.437,1.045,65.0
13.755,1.438,0.965,109.0
13.753,1.439,0.886,102.0
13.759,1.44,0.807,63.0
13.786,1.448,1.193,39.0
13.757,1.445,1.111,127.0
13.757,1.446,1.032,145.0
13.755,1.446,0.951,117.0
13.753,1.446,0.872,77.0
13.761,1.448,0.794,44.0
13.764,1.453,1.177,33.0
13.749,1.452,1.097,150.0
13.756,1.453,1.018,150.0
13.753,1.453,0.937,121.0
13.758,1.454,0.859,102.0
13.762,1.455,0.78,53.0
13.748,1.459,1.162,20.0
13.755,1.459,1.083,136.0
13.761,1.46,1.004,150.0
13.755,1.46,0.923,102.0
13.752,1.46,0.844,119.0
13.765,1.462,0.766,39.0
13.736,1.464,1.146,22.0
13.756,1.466,1.068,119.0
13.77,1.468,0.99,150.0
13.755,1.467,0.909,117.0
13.76,1.467,0.83,111.0
13.77,1.469,0.751,39.0
13.748,1.471,1.132,34.0
13.761,1.472,1.054,129.0
13.758,1.472,0.974,150.0
13.756,1.472,0.894,113.0
13.761,1.473,0.815,89.0
13.767,1.474,0.737,38.0
13.748,1.476,1.117,44.0
13.77,1.479,1.04,150.0
13.759,1.477,0.96,150.0
13.742,1.476,0.878,55.0
13.767,1.479,0.8,94.0
13.774,1.48,0.722,37.0
13.752,1.481,1.102,50.0
13.767,1.483,1.024,150.0
13.759,1.482,0.944,150.0
13.749,1.481,0.863,34.0
13.773,1.484,0.785,96.0
13.769,1.484,0.706,36.0
13.755,1.486,1.087,72.0
13.767,1.487,1.008,150.0
13.751,1.485,0.928,150.0
13.736,1.484,0.847,37.0
13.773,1.488,0.77,71.0
13.775,1.488,0.691,35.0
13.764,1.49,1.072,51.0
13.767,1.49,0.993,150.0
13.752,1.489,0.912,150.0
13.752,1.489,0.832,59.0
13.769,1.49,0.754,63.0
13.781,1.492,0.675,35.0
13.767,1.494,1.056,72.0
13.768,1.493,0.977,107.0
13.751,1.491,0.896,150.0
13.761,1.492,0.816,88.0
13.777,1.494,0.738,39.0
13.778,1.494,0.659,35.0
13.767,1.496,1.04,84.0
13.771,1.496,0.961,86.0
13.747,1.493,0.88,38.0
13.765,1.495,0.8,97.0
13.78,1.496,0.722,37.0
13.785,1.497,0.643,33.0
13.771,1.498,1.024,77.0
13.762,1.497,0.944,148.0
13.729,1.493,0.862,29.0
13.766,1.497,0.784,81.0
13.783,1.498,0.705,37.0
13.784,1.498,0.626,32.0
13.773,1.5,1.007,78.0
13.757,1.497,0.926,150.0
13.748,1.496,0.846,39.0
13.764,1.497,0.767,53.0
13.784,1.499,0.688,37.0
13.786,1.499,0.609,31.0
13.774,1.5,0.99,47.0
13.752,1.497,0.909,150.0
13.763,1.498,0.83,130.0
13.77,1.498,0.75,43.0
13.782,1.499,0.671,36.0
13.782,1.499,0.592,31.0
13.77,1.5,0.972,39.0
13.749,1.497,0.892,150.0
13.767,1.498,0.813,150.0
13.773,1.498,0.733,38.0
13.785,1.499,0.654,37.0
13.785,1.499,0.575,32.0
