X,Y,Z,Reflectivity
105.714,-9.179,8.14,23.0
84.053,-7.309,8.848,4.0
98.721,-8.559,9.845,12.0
85.488,-7.391,8.051,9.0
105.653,-9.11,9.354,24.0
105.773,-9.096,8.78,14.0
105.113,-9.015,8.145,9.0
107.99,-9.275,11.421,6.0
105.639,-9.046,10.586,12.0
108.287,-9.245,10.25,9.0
106.687,-9.083,9.497,13.0
106.315,-9.025,8.875,7.0
84.239,-7.131,6.567,10.0
84.88,-7.195,9.017,2.0
106.705,-9.019,10.741,7.0
106.66,-8.988,10.143,14.0
106.169,-8.92,9.497,12.0
85.097,-7.13,7.139,5.0
96.823,-8.089,7.588,2.0
0.0,0.0,0.0,0.0
99.246,-8.276,10.031,6.0
106.703,-8.872,10.19,2.0
106.088,-8.793,9.531,1.0
96.712,-7.993,8.151,4.0
86.195,-7.103,6.787,1.0
99.714,-8.227,10.672,1.0
100.11,-8.234,10.155,2.0
106.596,-8.74,10.218,2.0
105.31,-8.607,9.499,15.0
107.86,-8.788,9.129,2.0
107.923,-8.767,8.535,16.0
0.0,0.0,0.0,0.0
0.0,0.0,0.0,0.0
0.0,0.0,0.0,0.0
98.356,-7.923,8.902,9.0
107.828,-8.658,9.16,9.0
98.419,-7.878,7.813,13.0
0.0,0.0,0.0,0.0
0.0,0.0,0.0,0.0
0.0,0.0,0.0,0.0
108.48,-8.606,9.849,1.0
98.69,-7.804,8.409,6.0
97.792,-7.71,7.788,6.0
0.0,0.0,0.0,0.0
0.0,0.0,0.0,0.0
0.0,0.0,0.0,0.0
0.0,0.0,0.0,0.0
105.971,-8.25,9.054,5.0
107.976,-8.379,8.623,7.0
0.0,0.0,0.0,0.0
0.0,0.0,0.0,0.0
0.0,0.0,0.0,0.0
0.0,0.0,0.0,0.0
0.0,0.0,0.0,0.0
107.976,-8.245,8.642,4.0
0.0,0.0,0.0,0.0
0.0,0.0,0.0,0.0
0.0,0.0,0.0,0.0
0.0,0.0,0.0,0.0
108.456,-8.172,9.301,7.0
148.019,-11.116,11.867,2.0
0.0,0.0,0.0,0.0
0.0,0.0,0.0,0.0
0.0,0.0,0.0,0.0
108.697,-8.079,9.942,1.0
0.0,0.0,0.0,0.0
108.925,-8.039,8.743,5.0
0.0,0.0,0.0,0.0
0.0,0.0,0.0,0.0
0.0,0.0,0.0,0.0
0.0,0.0,0.0,0.0
0.0,0.0,0.0,0.0
108.351,-7.856,8.703,2.0
0.0,0.0,0.0,0.0
0.0,0.0,0.0,0.0
0.0,0.0,0.0,0.0
0.0,0.0,0.0,0.0
0.0,0.0,0.0,0.0
109.061,-7.764,8.76,2.0
0.0,0.0,0.0,0.0
0.0,0.0,0.0,0.0
0.0,0.0,0.0,0.0
0.0,0.0,0.0,0.0
0.0,0.0,0.0,0.0
0.0,0.0,0.0,0.0
0.0,0.0,0.0,0.0
0.0,0.0,0.0,0.0
0.0,0.0,0.0,0.0
0.0,0.0,0.0,0.0
0.0,0.0,0.0,0.0
109.144,-7.479,8.754,2.0
0.0,0.0,0.0,0.0
0.0,0.0,0.0,0.0
0.0,0.0,0.0,0.0
0.0,0.0,0.0,0.0
0.0,0.0,0.0,0.0
0.0,0.0,0.0,0.0
0.0,0.0,0.0,0.0
0.0,0.0,0.0,0.0
0.0,0.0,0.0,0.0
0.0,0.0,0.0,0.0
0.0,0.0,0.0,0.0
0.0,0.0,0.0,0.0
0.0,0.0,0.0,0.0
0.0,0.0,0.0,0.0
0.0,0.0,0.0,0.0
0.0,0.0,0.0,0.0
0.0,0.0,0.0,0.0
0.0,0.0,0.0,0.0
0.0,0.0,0.0,0.0
0.0,0.0,0.0,0.0
0.0,0.0,0.0,0.0
0.0,0.0,0.0,0.0
0.0,0.0,0.0,0.0
0.0,0.0,0.0,0.0
0.0,0.0,0.0,0.0
0.0,0.0,0.0,0.0
0.0,0.0,0.0,0.0
0.0,0.0,0.0,0.0
0.0,0.0,0.0,0.0
0.0,0.0,0.0,0.0
0.0,0.0,0.0,0.0
0.0,0.0,0.0,0.0
0.0,0.0,0.0,0.0
0.0,0.0,0.0,0.0
0.0,0.0,0.0,0.0
0.0,0.0,0.0,0.0
0.0,0.0,0.0,0.0
0.0,0.0,0.0,0.0
0.0,0.0,0.0,0.0
0.0,0.0,0.0,0.0
0.0,0.0,0.0,0.0
0.0,0.0,0.0,0.0
0.0,0.0,0.0,0.0
0.0,0.0,0.0,0.0
0.0,0.0,0.0,0.0
0.0,0.0,0.0,0.0
0.0,0.0,0.0,0.0
0.0,0.0,0.0,0.0
0.0,0.0,0.0,0.0
0.0,0.0,0.0,0.0
0.0,0.0,0.0,0.0
0.0,0.0,0.0,0.0
0.0,0.0,0.0,0.0
93.029,-5.21,7.212,1.0
0.0,0.0,0.0,0.0
56.675,-3.153,5.664,0.0
92.236,-5.107,8.69,2.0
0.0,0.0,0.0,0.0
0.0,0.0,0.0,0.0
0.0,0.0,0.0,0.0
0.0,0.0,0.0,0.0
56.534,-3.065,5.619,5.0
56.851,-3.067,5.325,1.0
92.361,-4.958,8.114,5.0
0.0,0.0,0.0,0.0
92.789,-4.933,7.093,2.0
0.0,0.0,0.0,0.0
0.0,0.0,0.0,0.0
56.722,-2.979,5.279,2.0
91.908,-4.803,8.019,12.0
83.155,-4.324,6.781,4.0
92.763,-4.799,7.035,2.0
55.237,-2.852,5.741,2.0
63.609,-3.267,6.245,0.0
56.752,-2.899,5.246,2.0
91.988,-4.675,7.968,6.0
83.653,-4.231,6.767,3.0
83.056,-4.179,6.244,5.0
55.148,-2.768,5.695,4.0
92.661,-4.627,9.036,5.0
56.682,-2.815,5.201,8.0
91.991,-4.545,7.905,6.0
93.307,-4.586,7.484,3.0
92.776,-4.537,6.911,3.0
55.115,-2.688,5.653,4.0
92.634,-4.493,8.967,8.0
56.707,-2.736,5.163,8.0
92.023,-4.417,7.841,3.0
91.6,-4.372,7.28,4.0
92.563,-4.396,6.827,1.0
55.097,-2.608,5.609,4.0
83.235,-3.919,7.993,13.0
56.724,-2.656,5.121,7.0
83.885,-3.907,7.083,5.0
92.869,-4.303,7.309,9.0
83.412,-3.844,6.088,6.0
55.035,-2.528,5.559,18.0
90.836,-4.149,8.652,10.0
56.73,-2.576,5.076,8.0
83.836,-3.787,7.011,9.0
93.151,-4.186,7.255,4.0
83.334,-3.723,6.014,8.0
64.361,-2.865,6.447,11.0
63.82,-2.825,6.024,3.0
56.751,-2.498,5.03,8.0
92.797,-4.062,7.682,12.0
92.851,-4.042,7.154,4.0
83.262,-3.605,5.937,7.0
57.318,-2.472,5.691,9.0
63.698,-2.731,5.957,4.0
56.79,-2.42,4.983,4.0
83.296,-3.529,6.821,13.0
90.469,-3.812,6.888,10.0
83.273,-3.488,5.861,8.0
63.369,-2.643,6.233,14.0
54.978,-2.28,5.09,13.0
56.889,-2.345,4.938,3.0
83.29,-3.414,6.741,8.0
92.438,-3.766,6.95,14.0
83.241,-3.372,5.78,8.0
53.265,-2.148,5.188,3.0
54.947,-2.202,5.034,14.0
82.899,-3.302,7.116,9.0
92.631,-3.669,7.407,4.0
93.027,-3.662,6.903,8.0
91.21,-3.569,6.244,4.0
63.343,-2.467,6.106,13.0
54.788,-2.12,4.963,16.0
91.236,-3.509,7.739,7.0
91.463,-3.496,7.22,5.0
93.023,-3.535,6.807,11.0
90.211,-3.407,6.082,6.0
63.213,-2.375,6.027,10.0
40.783,-1.523,3.652,40.0
82.191,-3.05,6.884,10.0
91.581,-3.376,7.133,8.0
90.66,-3.321,6.537,7.0
90.232,-3.285,5.986,11.0
63.939,-2.315,6.026,14.0
54.837,-1.973,4.85,15.0
92.39,-3.303,7.637,9.0
91.726,-3.258,7.043,17.0
82.59,-2.915,5.864,13.0
93.184,-3.268,6.079,14.0
40.669,-1.417,3.787,33.0
54.803,-1.897,4.784,6.0
83.042,-2.857,6.768,9.0
92.637,-3.166,7.006,59.0
83.176,-2.824,5.809,19.0
93.188,-3.144,5.971,21.0
40.735,-1.365,3.745,58.0
41.054,-1.366,3.536,16.0
83.024,-2.746,6.669,9.0
90.311,-2.967,6.722,8.0
83.187,-2.715,5.712,71.0
93.175,-3.021,5.859,11.0
40.806,-1.314,3.702,35.0
54.743,-1.75,4.648,8.0
83.063,-2.637,6.571,11.0
83.175,-2.623,6.089,32.0
83.504,-2.616,5.63,33.0
93.046,-2.894,5.736,38.0
40.788,-1.26,3.649,71.0
54.704,-1.678,4.576,5.0
83.633,-2.547,6.511,9.0
172.454,-5.217,12.409,26.0
83.595,-2.511,5.531,18.0
90.573,-2.701,5.468,57.0
53.299,-1.577,4.7,5.0
54.661,-1.606,4.502,4.0
83.649,-2.44,6.403,16.0
92.459,-2.679,6.532,13.0
90.612,-2.606,5.877,42.0
83.463,-2.384,4.93,23.0
53.52,-1.516,4.648,13.0
41.181,-1.158,3.337,43.0
41.269,-1.151,3.104,48.0
93.436,-2.589,6.476,3.0
92.31,-2.539,5.862,64.0
83.545,-2.281,4.821,25.0
53.57,-1.45,4.579,6.0
41.247,-1.108,3.285,49.0
84.798,-2.261,6.261,3.0
94.266,-2.494,6.403,2.0
129.087,-3.391,8.02,33.0
99.001,-2.581,5.577,30.0
53.642,-1.386,4.509,11.0
41.141,-1.054,3.219,56.0
84.778,-2.156,6.14,1.0
91.63,-2.312,6.094,11.0
97.944,-2.452,5.945,27.0
83.678,-2.079,4.595,20.0
41.287,-1.016,3.411,25.0
41.216,-1.006,3.165,52.0
41.192,-0.997,2.923,7.0
84.353,-2.027,5.488,15.0
91.425,-2.179,5.416,18.0
92.164,-2.18,4.926,41.0
41.17,-0.964,3.341,49.0
41.213,-0.957,3.104,57.0
84.177,-1.939,5.849,59.0
84.061,-1.921,5.345,35.0
91.389,-2.071,5.279,84.0
92.091,-2.07,4.785,41.0
41.142,-0.915,3.276,38.0
41.217,-0.909,3.041,4.0
84.706,-1.852,5.758,17.0
84.108,-1.824,5.219,46.0
91.326,-1.964,5.135,28.0
91.825,-1.958,4.631,79.0
41.267,-0.87,3.222,31.0
83.927,-1.755,6.064,6.0
129.822,-2.692,8.624,19.0
84.11,-1.729,5.089,39.0
83.779,-1.707,4.582,41.0
91.246,-1.844,4.461,79.0
41.244,-0.824,3.156,26.0
126.473,-2.504,8.94,27.0
85.817,-1.684,5.566,69.0
84.115,-1.637,4.958,30.0
127.143,-2.453,6.756,38.0
90.676,-1.734,4.291,27.0
41.17,-0.778,3.085,5.0
126.352,-2.365,8.732,33.0
85.327,-1.583,5.399,68.0
84.111,-1.546,4.823,20.0
127.223,-2.318,6.556,37.0
93.008,-1.679,4.251,35.0
63.89,-1.138,4.684,70.0
126.374,-2.231,8.528,29.0
85.236,-1.491,5.254,57.0
83.824,-1.453,4.671,36.0
90.782,-1.559,4.53,15.0
92.964,-1.581,4.097,39.0
63.696,-1.068,4.565,39.0
124.921,-2.075,8.222,36.0
85.318,-1.404,5.117,11.0
83.878,-1.367,4.533,61.0
90.857,-1.466,4.382,56.0
91.449,-1.462,3.878,62.0
63.347,-0.998,4.432,15.0
124.874,-1.947,8.007,21.0
128.733,-1.988,7.503,8.0
83.872,-1.282,4.39,29.0
85.77,-1.298,3.989,114.0
91.551,-1.371,3.725,39.0
94.263,-1.39,6.431,46.0
94.25,-1.376,5.879,41.0
127.365,-1.841,7.201,22.0
151.298,-2.164,7.656,34.0
85.792,-1.214,3.841,150.0
99.466,-1.394,3.876,26.0
82.571,-1.138,5.489,59.0
82.75,-1.129,5.017,44.0
83.599,-1.128,4.58,23.0
79.197,-1.057,3.868,167.0
86.012,-1.136,3.7,150.0
79.495,-1.038,2.956,1.0
86.043,-1.105,5.567,13.0
83.226,-1.057,4.898,12.0
90.36,-1.135,4.789,16.0
79.231,-0.984,3.73,164.0
79.393,-0.975,3.274,150.0
79.405,-0.965,2.811,150.0
86.09,-1.027,5.413,44.0
83.375,-0.983,4.755,56.0
83.736,-0.976,4.286,87.0
85.837,-0.989,3.883,150.0
79.42,-0.904,3.13,165.0
79.422,-0.894,2.667,151.0
83.088,-0.918,5.072,44.0
83.609,-0.913,4.616,26.0
79.199,-0.854,3.908,150.0
85.892,-0.915,3.728,91.0
79.428,-0.836,2.984,163.0
79.414,-0.826,2.521,150.0
85.915,-0.876,5.086,43.0
93.832,-0.944,5.004,37.0
79.282,-0.788,3.765,188.0
89.532,-0.879,3.72,21.0
79.426,-0.77,2.836,151.0
79.412,-0.76,2.372,150.0
85.831,-0.804,4.917,38.0
93.834,-0.867,4.827,10.0
85.892,-0.784,3.916,150.0
79.424,-0.715,3.148,181.0
79.42,-0.706,2.685,150.0
79.425,-0.697,2.221,151.0
85.605,-0.734,4.742,37.0
79.197,-0.67,3.922,150.0
86.021,-0.718,3.757,40.0
79.43,-0.653,2.996,162.0
79.422,-0.645,2.532,150.0
79.434,-0.636,2.07,153.0
59.455,-0.464,3.178,111.0
79.269,-0.611,3.773,150.0
79.388,-0.603,3.314,53.0
79.406,-0.594,2.843,150.0
79.416,-0.586,2.379,150.0
79.426,-0.578,1.917,169.0
59.458,-0.422,3.063,113.0
59.475,-0.416,2.717,102.0
79.413,-0.547,3.162,150.0
79.416,-0.538,2.689,150.0
79.436,-0.53,2.225,153.0
79.417,-0.522,1.762,197.0
59.467,-0.38,2.946,110.0
59.48,-0.375,2.599,101.0
79.422,-0.492,3.005,150.0
79.43,-0.485,2.532,151.0
79.438,-0.477,2.069,167.0
79.42,-0.47,1.604,206.0
59.479,-0.341,2.828,114.0
59.457,-0.336,2.48,95.0
79.413,-0.441,2.847,150.0
79.429,-0.434,2.376,154.0
79.436,-0.426,1.911,174.0
79.428,-0.419,1.446,185.0
59.471,-0.304,2.708,109.0
79.397,-0.398,3.15,106.0
79.417,-0.392,2.687,150.0
79.432,-0.385,2.215,151.0
79.437,-0.378,1.75,173.0
79.449,-0.371,1.287,157.0
59.466,-0.269,2.589,103.0
79.421,-0.352,2.992,150.0
79.417,-0.346,2.528,150.0
79.436,-0.339,2.055,151.0
79.43,-0.333,1.59,255.0
79.451,-0.327,1.126,151.0
59.453,-0.236,2.467,94.0
79.424,-0.309,2.83,150.0
79.409,-0.302,2.364,150.0
79.435,-0.296,1.892,151.0
79.447,-0.29,1.427,185.0
79.459,-0.284,0.963,151.0
79.41,-0.273,3.132,150.0
79.424,-0.267,2.667,150.0
79.415,-0.262,2.201,151.0
79.438,-0.256,1.73,153.0
79.453,-0.251,1.266,152.0
79.445,-0.245,0.801,151.0
79.419,-0.235,2.969,150.0
79.414,-0.229,2.503,150.0
79.438,-0.224,2.039,151.0
79.437,-0.219,1.566,170.0
79.453,-0.214,1.102,151.0
79.359,-0.208,0.636,52.0
79.427,-0.199,2.804,150.0
79.423,-0.194,2.338,150.0
79.441,-0.189,1.873,151.0
79.45,-0.184,1.4,159.0
79.469,-0.179,0.934,151.0
76.271,-0.167,0.45,12.0
79.429,-0.166,2.637,150.0
79.423,-0.161,2.171,150.0
79.439,-0.157,1.708,153.0
79.454,-0.153,1.234,153.0
79.437,-0.148,0.768,150.0
61.578,-0.111,0.235,10.0
79.431,-0.136,2.47,150.0
79.44,-0.132,2.004,151.0
79.443,-0.128,1.539,174.0
79.457,-0.124,1.066,153.0
79.244,-0.119,0.599,23.0
0.0,0.0,0.0,0.0
79.428,-0.108,2.3,150.0
79.445,-0.105,1.835,151.0
79.449,-0.101,1.369,165.0
79.455,-0.097,0.897,154.0
76.047,-0.09,0.412,11.0
45.418,-0.051,-0.019,19.0
79.438,-0.084,2.131,150.0
79.455,-0.081,1.666,151.0
79.451,-0.077,1.2,156.0
79.419,-0.074,0.726,150.0
55.892,-0.05,0.185,28.0
41.053,-0.035,-0.104,17.0
79.439,-0.063,1.964,150.0
79.447,-0.06,1.498,171.0
79.462,-0.057,1.033,158.0
76.374,-0.052,0.539,17.0
47.983,-0.031,0.057,13.0
39.373,-0.024,-0.183,25.0
79.452,-0.045,1.795,151.0
79.456,-0.042,1.329,157.0
79.454,-0.04,0.864,191.0
61.745,-0.029,0.304,20.0
0.0,0.0,0.0,0.0
38.441,-0.016,-0.26,6.0
79.452,-0.029,1.627,151.0
79.466,-0.027,1.161,155.0
79.396,-0.025,0.694,83.0
0.0,0.0,0.0,0.0
40.45,-0.011,-0.124,16.0
33.847,-0.008,-0.302,1.0
79.446,-0.017,1.454,162.0
79.462,-0.015,0.989,171.0
76.167,-0.013,0.503,19.0
47.326,-0.007,0.03,21.0
39.028,-0.005,-0.203,14.0
31.758,-0.003,-0.351,1.0
79.454,-0.007,1.285,151.0
79.472,-0.006,0.819,162.0
61.605,-0.004,0.273,12.0
0.0,0.0,0.0,0.0
38.292,-0.001,-0.282,3.0
30.024,0.0,-0.397,2.0
79.459,-0.001,1.112,151.0
79.347,0.0,0.647,27.0
0.0,0.0,0.0,0.0
39.728,0.0,-0.145,37.0
33.375,0.0,-0.318,1.0
28.839,0.0,-0.443,2.0
79.463,0.002,0.941,158.0
76.009,0.002,0.455,13.0
0.0,0.0,0.0,0.0
38.698,0.001,-0.225,14.0
31.127,0.001,-0.363,1.0
27.35,0.001,-0.479,2.0
79.46,0.002,0.771,150.0
56.078,0.002,0.215,10.0
43.808,0.001,-0.087,4.0
38.072,0.001,-0.302,1.0
29.736,0.0,-0.41,2.0
26.268,0.0,-0.516,2.0
76.414,0.0,0.577,17.0
48.08,0.0,0.081,6.0
39.485,0.0,-0.163,34.0
32.79,0.0,-0.331,1.0
28.371,0.0,-0.452,2.0
24.94,0.0,-0.543,1.0
61.865,-0.003,0.335,15.0
44.946,-0.003,-0.019,22.0
38.499,-0.003,-0.242,8.0
30.629,-0.002,-0.375,1.0
26.981,-0.002,-0.488,2.0
23.779,-0.002,-0.57,2.0
0.0,0.0,0.0,0.0
40.582,-0.007,-0.104,16.0
38.175,-0.007,-0.322,0.0
29.336,-0.006,-0.422,2.0
25.937,-0.006,-0.525,1.0
22.938,-0.005,-0.599,3.0
47.625,-0.014,0.053,22.0
39.168,-0.013,-0.185,14.0
32.051,-0.011,-0.338,1.0
27.945,-0.01,-0.462,2.0
24.553,-0.009,-0.55,2.0
22.039,-0.009,-0.622,3.0
43.778,-0.021,-0.044,19.0
38.395,-0.019,-0.263,5.0
30.281,-0.016,-0.385,1.0
26.665,-0.015,-0.498,2.0
23.502,-0.014,-0.577,2.0
21.064,-0.013,-0.64,3.0
40.008,-0.028,-0.126,30.0
33.624,-0.025,-0.303,1.0
29.049,-0.022,-0.432,2.0
25.479,-0.02,-0.53,1.0
22.651,-0.019,-0.604,3.0
20.205,-0.017,-0.657,2.0
38.994,-0.037,-0.205,14.0
31.424,-0.031,-0.349,1.0
27.519,-0.028,-0.467,1.0
24.199,-0.026,-0.554,2.0
21.756,-0.024,-0.626,3.0
19.291,-0.022,-0.668,3.0
38.082,-0.047,-0.28,2.0
29.83,-0.038,-0.394,2.0
26.468,-0.035,-0.504,2.0
23.297,-0.032,-0.583,3.0
20.849,-0.029,-0.643,2.0
18.696,-0.027,-0.687,2.0
32.978,-0.052,-0.311,1.0
28.695,-0.046,-0.439,2.0
25.267,-0.042,-0.535,1.0
22.434,-0.038,-0.608,3.0
19.982,-0.035,-0.658,2.0
18.026,-0.032,-0.7,1.0
30.987,-0.06,-0.358,1.0
27.258,-0.054,-0.474,1.0
24.048,-0.049,-0.559,3.0
21.469,-0.045,-0.627,3.0
19.163,-0.041,-0.672,2.0
17.429,-0.038,-0.713,1.0
29.575,-0.069,-0.403,2.0
26.188,-0.062,-0.51,2.0
23.104,-0.056,-0.585,2.0
20.572,-0.051,-0.643,2.0
18.497,-0.047,-0.687,2.0
16.834,-0.044,-0.724,1.0
28.346,-0.078,-0.444,1.0
24.835,-0.07,-0.534,1.0
22.207,-0.064,-0.608,3.0
19.742,-0.058,-0.658,2.0
17.874,-0.054,-0.7,2.0
16.251,-0.05,-0.732,1.0
26.946,-0.087,-0.478,2.0
23.845,-0.079,-0.562,2.0
21.268,-0.072,-0.626,2.0
19.031,-0.065,-0.673,2.0
17.287,-0.061,-0.713,1.0
15.767,-0.056,-0.743,1.0
25.978,-0.097,-0.514,1.0
22.941,-0.088,-0.588,2.0
20.432,-0.079,-0.643,2.0
18.352,-0.073,-0.687,2.0
16.738,-0.068,-0.725,1.0
15.308,-0.063,-0.752,1.0
24.691,-0.106,-0.538,1.0
22.039,-0.096,-0.609,3.0
19.611,-0.087,-0.657,2.0
17.775,-0.08,-0.701,1.0
16.158,-0.074,-0.732,1.0
14.915,-0.07,-0.763,1.0
23.749,-0.116,-0.565,1.0
21.101,-0.104,-0.626,3.0
18.944,-0.095,-0.673,2.0
17.196,-0.088,-0.713,1.0
15.689,-0.082,-0.742,1.0
14.514,-0.077,-0.771,1.0
22.861,-0.125,-0.589,2.0
20.266,-0.113,-0.641,3.0
18.319,-0.103,-0.686,2.0
16.665,-0.096,-0.724,1.0
15.276,-0.089,-0.753,1.0
14.111,-0.084,-0.778,0.0
21.883,-0.134,-0.607,2.0
19.596,-0.122,-0.659,2.0
17.73,-0.112,-0.699,1.0
16.138,-0.103,-0.733,1.0
14.862,-0.096,-0.762,1.0
13.759,-0.091,-0.785,1.0
21.077,-0.143,-0.626,3.0
18.851,-0.13,-0.67,1.0
17.208,-0.12,-0.712,1.0
15.673,-0.111,-0.742,1.0
14.473,-0.104,-0.77,1.0
13.465,-0.098,-0.795,1.0
20.196,-0.151,-0.638,3.0
18.271,-0.139,-0.684,1.0
16.654,-0.128,-0.721,0.0
15.254,-0.119,-0.751,1.0
14.111,-0.112,-0.777,1.0
13.149,-0.105,-0.801,1.0
19.599,-0.161,-0.657,2.0
17.731,-0.148,-0.697,1.0
16.118,-0.136,-0.728,1.0
14.88,-0.127,-0.76,1.0
13.764,-0.119,-0.784,1.0
12.879,-0.113,-0.809,0.0
18.886,-0.17,-0.668,1.0
17.201,-0.157,-0.709,1.0
15.725,-0.145,-0.74,1.0
14.499,-0.136,-0.768,1.0
13.493,-0.128,-0.794,1.0
12.571,-0.12,-0.813,0.0
18.317,-0.18,-0.682,1.0
16.711,-0.166,-0.72,0.0
15.303,-0.154,-0.748,1.0
14.122,-0.144,-0.774,1.0
13.18,-0.136,-0.8,1.0
12.329,-0.128,-0.821,0.0
17.802,-0.19,-0.695,1.0
16.202,-0.175,-0.727,1.0
14.913,-0.163,-0.757,1.0
13.785,-0.152,-0.781,0.0
12.915,-0.144,-0.808,0.0
12.08,-0.136,-0.826,0.0
17.287,-0.199,-0.707,1.0
15.788,-0.184,-0.737,1.0
14.557,-0.171,-0.765,1.0
13.535,-0.161,-0.792,1.0
12.622,-0.152,-0.812,1.0
11.852,-0.144,-0.832,1.0
16.803,-0.209,-0.717,1.0
15.388,-0.193,-0.746,1.0
14.212,-0.18,-0.772,1.0
13.261,-0.17,-0.799,1.0
12.395,-0.161,-0.819,1.0
11.62,-0.152,-0.836,0.0
16.292,-0.217,-0.723,1.0
14.999,-0.202,-0.753,1.0
13.891,-0.189,-0.779,1.0
12.98,-0.178,-0.805,0.0
12.148,-0.169,-0.824,0.0
11.433,-0.16,-0.842,0.0
15.918,-0.227,-0.734,1.0
14.67,-0.212,-0.762,1.0
13.605,-0.198,-0.786,1.0
12.719,-0.187,-0.81,0.0
11.919,-0.177,-0.829,1.0
11.228,-0.168,-0.846,0.0
15.515,-0.237,-0.742,1.0
14.326,-0.221,-0.768,1.0
13.359,-0.208,-0.794,1.0
12.457,-0.196,-0.814,1.0
11.716,-0.186,-0.834,0.0
11.046,-0.177,-0.851,0.0
15.174,-0.247,-0.75,1.0
14.029,-0.23,-0.775,1.0
13.102,-0.217,-0.8,1.0
12.249,-0.205,-0.821,0.0
11.513,-0.194,-0.839,0.0
10.857,-0.185,-0.854,0.0
14.83,-0.256,-0.757,1.0
13.746,-0.24,-0.782,1.0
12.828,-0.226,-0.804,0.0
12.02,-0.213,-0.825,1.0
11.322,-0.203,-0.843,0.0
10.683,-0.193,-0.858,0.0
14.519,-0.266,-0.765,1.0
13.497,-0.25,-0.789,1.0
12.616,-0.235,-0.811,0.0
11.827,-0.222,-0.83,1.0
11.134,-0.211,-0.847,0.0
10.538,-0.202,-0.863,0.0
14.202,-0.276,-0.77,1.0
13.253,-0.259,-0.796,1.0
12.401,-0.245,-0.817,0.0
11.615,-0.231,-0.834,1.0
10.967,-0.22,-0.851,0.0
10.361,-0.21,-0.865,0.0
13.91,-0.285,-0.776,1.0
13.005,-0.269,-0.801,1.0
12.168,-0.254,-0.82,0.0
11.468,-0.241,-0.841,0.0
10.789,-0.229,-0.854,0.0
10.2,-0.218,-0.867,0.0
13.656,-0.295,-0.782,1.0
12.789,-0.279,-0.806,1.0
11.974,-0.263,-0.825,1.0
11.273,-0.25,-0.843,0.0
10.651,-0.238,-0.859,0.0
10.012,-0.225,-0.865,0.0
13.465,-0.306,-0.791,1.0
12.571,-0.288,-0.811,1.0
11.799,-0.273,-0.83,1.0
11.108,-0.259,-0.847,0.0
10.516,-0.247,-0.863,0.0
9.886,-0.234,-0.869,1.0
13.23,-0.317,-0.796,1.0
12.363,-0.298,-0.815,1.0
11.628,-0.283,-0.834,0.0
10.968,-0.268,-0.852,0.0
10.34,-0.255,-0.863,0.0
9.782,-0.243,-0.873,2.0
13.007,-0.327,-0.8,0.0
12.159,-0.308,-0.819,0.0
11.478,-0.293,-0.839,0.0
10.79,-0.277,-0.853,0.0
10.213,-0.264,-0.866,0.0
9.714,-0.253,-0.881,1.0
12.797,-0.337,-0.805,1.0
11.994,-0.318,-0.824,0.0
11.289,-0.301,-0.841,0.0
10.656,-0.287,-0.856,0.0
10.05,-0.272,-0.866,0.0
9.577,-0.262,-0.881,0.0
12.61,-0.347,-0.81,0.0
11.824,-0.328,-0.828,1.0
11.146,-0.311,-0.845,0.0
10.525,-0.296,-0.86,0.0
9.913,-0.281,-0.867,1.0
9.466,-0.27,-0.883,0.0
12.415,-0.357,-0.813,1.0
11.677,-0.338,-0.832,0.0
10.995,-0.321,-0.847,0.0
10.403,-0.306,-0.863,0.0
9.812,-0.29,-0.871,2.0
9.371,-0.279,-0.886,0.0
12.254,-0.368,-0.818,0.0
11.512,-0.348,-0.835,0.0
10.857,-0.331,-0.85,0.0
10.273,-0.315,-0.865,0.0
9.753,-0.301,-0.878,1.0
9.266,-0.288,-0.888,0.0
12.087,-0.379,-0.821,0.0
11.38,-0.359,-0.839,0.0
10.75,-0.341,-0.854,0.0
10.132,-0.324,-0.865,0.0
9.65,-0.31,-0.88,0.0
9.174,-0.297,-0.89,0.0
11.93,-0.389,-0.824,0.0
11.244,-0.369,-0.842,0.0
10.611,-0.35,-0.856,0.0
10.012,-0.333,-0.866,0.0
9.541,-0.319,-0.881,0.0
9.076,-0.306,-0.89,0.0
11.784,-0.4,-0.827,0.0
11.119,-0.379,-0.845,0.0
10.511,-0.361,-0.859,0.0
9.894,-0.342,-0.867,1.0
9.458,-0.329,-0.883,0.0
8.992,-0.315,-0.892,0.0
11.664,-0.411,-0.831,0.0
11.014,-0.39,-0.848,0.0
10.402,-0.371,-0.861,0.0
9.8,-0.352,-0.869,2.0
9.373,-0.338,-0.885,0.0
8.911,-0.324,-0.893,0.0
11.538,-0.421,-0.834,0.0
10.9,-0.401,-0.851,0.0
10.302,-0.381,-0.864,0.0
9.757,-0.363,-0.875,1.0
9.281,-0.347,-0.886,0.0
8.799,-0.331,-0.891,0.0
11.418,-0.432,-0.837,0.0
10.792,-0.411,-0.853,0.0
10.168,-0.39,-0.862,0.0
9.698,-0.374,-0.879,0.0
9.225,-0.358,-0.89,0.0
8.754,-0.342,-0.895,0.0
11.302,-0.443,-0.839,0.0
10.687,-0.421,-0.855,0.0
10.052,-0.399,-0.862,0.0
9.591,-0.383,-0.879,0.0
9.128,-0.366,-0.889,0.0
8.691,-0.351,-0.897,0.0
11.197,-0.454,-0.842,0.0
10.561,-0.431,-0.855,0.0
9.96,-0.409,-0.863,1.0
9.515,-0.393,-0.88,0.0
9.05,-0.376,-0.89,0.0
8.636,-0.361,-0.899,0.0
11.102,-0.465,-0.844,0.0
10.489,-0.442,-0.858,0.0
9.878,-0.419,-0.865,2.0
9.427,-0.402,-0.88,0.0
8.982,-0.385,-0.89,0.0
8.564,-0.369,-0.899,0.0
11.016,-0.477,-0.847,0.0
10.431,-0.454,-0.862,0.0
9.827,-0.43,-0.868,3.0
9.369,-0.412,-0.882,0.0
8.928,-0.395,-0.892,0.0
8.529,-0.379,-0.902,0.0
10.924,-0.488,-0.848,0.0
10.347,-0.464,-0.863,0.0
9.775,-0.441,-0.871,2.0
9.324,-0.423,-0.885,0.0
8.869,-0.405,-0.893,0.0
8.473,-0.389,-0.902,0.0
10.844,-0.499,-0.85,0.0
10.257,-0.474,-0.863,0.0
9.748,-0.453,-0.876,1.0
9.266,-0.433,-0.887,0.0
8.808,-0.414,-0.893,0.0
8.412,-0.398,-0.902,0.0
10.762,-0.51,-0.851,0.0
10.166,-0.484,-0.862,0.0
9.693,-0.464,-0.877,0.0
9.203,-0.443,-0.887,0.0
8.76,-0.424,-0.894,0.0
8.374,-0.407,-0.903,0.0
10.719,-0.523,-0.855,0.0
10.09,-0.495,-0.862,0.0
9.623,-0.474,-0.877,0.0
9.145,-0.453,-0.887,0.0
8.71,-0.434,-0.895,0.0
8.34,-0.417,-0.905,0.0
10.641,-0.534,-0.855,0.0
10.022,-0.505,-0.862,0.0
9.561,-0.484,-0.877,0.0
9.106,-0.464,-0.889,0.0
8.669,-0.444,-0.896,0.0
8.29,-0.426,-0.904,0.0
10.587,-0.546,-0.857,0.0
9.962,-0.516,-0.863,1.0
9.511,-0.495,-0.878,0.0
9.062,-0.474,-0.889,0.0
8.634,-0.454,-0.897,0.0
8.268,-0.437,-0.906,0.0
10.515,-0.557,-0.857,0.0
9.926,-0.528,-0.865,1.0
9.478,-0.506,-0.88,0.0
9.012,-0.484,-0.889,0.0
8.598,-0.464,-0.897,0.0
8.242,-0.447,-0.907,0.0
10.493,-0.57,-0.86,0.0
9.893,-0.54,-0.867,2.0
9.437,-0.517,-0.881,0.0
9.011,-0.496,-0.893,0.0
8.563,-0.474,-0.898,0.0
8.211,-0.457,-0.908,0.0
10.441,-0.582,-0.86,0.0
9.854,-0.551,-0.868,2.0
9.404,-0.529,-0.881,0.0
8.949,-0.505,-0.891,0.0
8.538,-0.484,-0.899,0.0
8.181,-0.466,-0.908,0.0
10.408,-0.594,-0.861,0.0
9.817,-0.563,-0.868,2.0
9.372,-0.54,-0.882,0.0
8.919,-0.516,-0.891,0.0
8.511,-0.495,-0.899,0.0
8.177,-0.477,-0.91,0.0
10.352,-0.605,-0.86,0.0
9.803,-0.576,-0.87,2.0
9.34,-0.551,-0.882,0.0
8.886,-0.526,-0.891,0.0
8.51,-0.506,-0.901,0.0
8.144,-0.487,-0.909,0.0
10.333,-0.618,-0.862,0.0
9.79,-0.588,-0.872,2.0
9.325,-0.563,-0.883,0.0
8.877,-0.538,-0.892,0.0
8.475,-0.516,-0.9,0.0
8.123,-0.496,-0.909,0.0
10.304,-0.63,-0.862,0.0
9.763,-0.6,-0.872,2.0
9.296,-0.573,-0.883,0.0
8.867,-0.549,-0.893,0.0
8.455,-0.526,-0.9,0.0
8.103,-0.506,-0.908,0.0
10.272,-0.642,-0.862,0.0
9.765,-0.613,-0.874,2.0
9.291,-0.586,-0.884,0.0
8.858,-0.561,-0.894,0.0
8.441,-0.537,-0.9,0.0
8.1,-0.517,-0.91,0.0
10.261,-0.655,-0.863,0.0
9.755,-0.626,-0.875,1.0
9.28,-0.598,-0.885,0.0
8.835,-0.571,-0.893,0.0
8.436,-0.548,-0.901,0.0
8.092,-0.528,-0.91,0.0
10.245,-0.668,-0.863,0.0
9.745,-0.638,-0.875,1.0
9.265,-0.609,-0.884,0.0
8.82,-0.582,-0.893,0.0
8.429,-0.558,-0.901,0.0
8.083,-0.538,-0.909,0.0
10.232,-0.681,-0.862,0.0
9.757,-0.652,-0.877,2.0
9.251,-0.62,-0.884,0.0
8.815,-0.593,-0.893,0.0
8.437,-0.57,-0.902,0.0
8.086,-0.548,-0.91,0.0
10.222,-0.693,-0.862,0.0
9.755,-0.664,-0.877,2.0
9.253,-0.632,-0.884,0.0
8.807,-0.604,-0.892,0.0
8.438,-0.581,-0.902,0.0
8.076,-0.558,-0.909,0.0
10.226,-0.707,-0.862,0.0
9.752,-0.676,-0.877,2.0
9.271,-0.645,-0.885,0.0
8.807,-0.615,-0.892,0.0
8.439,-0.592,-0.902,0.0
8.083,-0.569,-0.91,0.0
10.229,-0.72,-0.862,0.0
9.748,-0.689,-0.876,2.0
9.275,-0.658,-0.885,0.0
8.823,-0.628,-0.893,0.0
8.435,-0.603,-0.901,0.0
8.103,-0.581,-0.911,0.0
10.255,-0.735,-0.863,0.0
9.76,-0.702,-0.876,2.0
9.28,-0.67,-0.885,0.0
8.837,-0.64,-0.893,0.0
8.468,-0.616,-0.903,0.0
8.091,-0.59,-0.909,0.0
10.279,-0.75,-0.864,0.0
9.776,-0.715,-0.876,2.0
9.309,-0.684,-0.886,0.0
8.839,-0.651,-0.892,0.0
8.48,-0.627,-0.903,0.0
8.104,-0.601,-0.909,0.0
10.308,-0.764,-0.864,0.0
9.769,-0.727,-0.874,2.0
9.305,-0.695,-0.884,0.0
8.857,-0.663,-0.892,0.0
8.489,-0.638,-0.902,0.0
8.128,-0.613,-0.91,0.0
10.3,-0.776,-0.861,0.0
9.787,-0.74,-0.873,2.0
9.327,-0.707,-0.884,0.0
8.882,-0.676,-0.892,0.0
8.513,-0.65,-0.903,0.0
8.155,-0.625,-0.911,0.0
10.349,-0.792,-0.863,0.0
9.794,-0.752,-0.871,2.0
9.363,-0.721,-0.885,0.0
8.915,-0.689,-0.893,0.0
8.524,-0.661,-0.901,0.0
8.158,-0.635,-0.908,0.0
10.376,-0.806,-0.862,0.0
9.806,-0.764,-0.869,3.0
9.375,-0.733,-0.883,0.0
8.938,-0.701,-0.892,0.0
8.54,-0.672,-0.9,0.0
8.18,-0.646,-0.908,0.0
10.395,-0.82,-0.86,0.0
9.828,-0.777,-0.868,2.0
9.405,-0.746,-0.882,0.0
8.966,-0.713,-0.892,0.0
8.556,-0.683,-0.899,0.0
8.211,-0.657,-0.908,0.0
10.448,-0.836,-0.86,0.0
9.866,-0.791,-0.867,2.0
9.434,-0.759,-0.881,0.0
9.009,-0.727,-0.893,0.0
8.602,-0.696,-0.9,0.0
8.242,-0.669,-0.908,0.0
10.473,-0.849,-0.858,0.0
9.903,-0.805,-0.866,2.0
9.482,-0.773,-0.882,0.0
9.019,-0.738,-0.89,0.0
8.625,-0.707,-0.899,0.0
8.271,-0.68,-0.908,0.0
10.537,-0.866,-0.858,0.0
9.927,-0.818,-0.864,1.0
9.528,-0.787,-0.881,0.0
9.062,-0.751,-0.889,0.0
8.658,-0.719,-0.898,0.0
8.295,-0.691,-0.906,0.0
10.583,-0.881,-0.857,0.0
9.975,-0.832,-0.863,1.0
9.559,-0.8,-0.879,0.0
9.135,-0.766,-0.892,0.0
8.701,-0.732,-0.898,0.0
8.327,-0.702,-0.905,0.0
10.643,-0.897,-0.856,0.0
10.042,-0.848,-0.863,0.0
9.604,-0.813,-0.878,0.0
9.177,-0.779,-0.891,0.0
8.724,-0.743,-0.895,0.0
8.359,-0.714,-0.904,0.0
10.699,-0.912,-0.854,0.0
10.124,-0.865,-0.864,0.0
9.674,-0.829,-0.879,0.0
9.197,-0.79,-0.887,0.0
8.776,-0.756,-0.895,0.0
8.41,-0.726,-0.904,0.0
10.777,-0.929,-0.854,1.0
10.189,-0.881,-0.863,0.0
9.731,-0.843,-0.878,1.0
9.287,-0.807,-0.89,0.0
8.813,-0.767,-0.893,0.0
8.456,-0.738,-0.904,0.0
10.814,-0.943,-0.85,1.0
10.29,-0.899,-0.865,0.0
9.768,-0.855,-0.875,2.0
9.312,-0.817,-0.886,0.0
8.886,-0.782,-0.894,0.0
8.487,-0.749,-0.901,0.0
10.881,-0.958,-0.848,0.0
10.36,-0.915,-0.864,0.0
9.801,-0.867,-0.871,3.0
9.36,-0.83,-0.884,0.0
8.941,-0.795,-0.894,0.0
8.544,-0.761,-0.901,0.0
10.983,-0.977,-0.848,0.0
10.412,-0.928,-0.861,1.0
9.861,-0.881,-0.869,2.0
9.438,-0.845,-0.884,0.0
9.006,-0.808,-0.893,0.0
8.61,-0.774,-0.901,0.0
11.069,-0.994,-0.846,0.0
10.468,-0.942,-0.857,1.0
9.913,-0.894,-0.866,2.0
9.497,-0.858,-0.883,0.0
9.066,-0.821,-0.892,0.0
8.654,-0.786,-0.899,0.0
11.136,-1.009,-0.842,0.0
10.539,-0.957,-0.855,0.0
9.997,-0.91,-0.865,1.0
9.559,-0.872,-0.881,0.0
9.141,-0.835,-0.892,0.0
8.704,-0.797,-0.897,0.0
11.227,-1.026,-0.84,0.0
10.614,-0.972,-0.852,0.0
10.097,-0.927,-0.865,0.0
9.658,-0.888,-0.881,0.0
9.188,-0.846,-0.889,0.0
8.76,-0.809,-0.895,0.0
11.331,-1.044,-0.838,0.0
10.733,-0.991,-0.852,0.0
10.155,-0.939,-0.862,0.0
9.744,-0.903,-0.881,1.0
9.265,-0.86,-0.888,0.0
8.851,-0.824,-0.897,0.0
11.427,-1.061,-0.835,0.0
10.82,-1.007,-0.85,0.0
10.266,-0.957,-0.862,0.0
9.787,-0.914,-0.876,3.0
9.347,-0.874,-0.888,0.0
8.919,-0.836,-0.896,0.0
11.561,-1.082,-0.835,0.0
10.938,-1.025,-0.849,0.0
10.367,-0.973,-0.861,0.0
9.84,-0.925,-0.871,3.0
9.416,-0.887,-0.885,0.0
8.985,-0.848,-0.894,0.0
11.69,-1.101,-0.833,0.0
11.034,-1.041,-0.846,0.0
10.49,-0.991,-0.861,0.0
9.914,-0.938,-0.869,2.0
9.49,-0.9,-0.883,0.0
9.061,-0.861,-0.892,0.0
11.786,-1.117,-0.828,0.0
11.132,-1.057,-0.842,0.0
10.557,-1.004,-0.856,0.0
10.004,-0.953,-0.866,1.0
9.606,-0.916,-0.884,0.0
9.166,-0.876,-0.893,0.0
11.852,-1.131,-0.821,0.0
11.248,-1.074,-0.84,0.0
10.686,-1.022,-0.856,0.0
10.101,-0.968,-0.864,0.0
9.706,-0.931,-0.883,0.0
9.251,-0.889,-0.892,0.0
12.062,-1.157,-0.823,0.0
11.394,-1.094,-0.839,0.0
10.756,-1.035,-0.85,0.0
10.205,-0.983,-0.863,0.0
9.77,-0.942,-0.879,2.0
9.323,-0.901,-0.889,0.0
12.26,-1.182,-0.824,0.0
11.497,-1.11,-0.834,0.0
10.902,-1.054,-0.85,0.0
10.354,-1.002,-0.864,0.0
9.824,-0.952,-0.873,3.0
9.403,-0.913,-0.886,0.0
12.364,-1.198,-0.817,0.0
11.612,-1.126,-0.83,0.0
11.034,-1.072,-0.848,0.0
10.458,-1.017,-0.861,0.0
9.91,-0.965,-0.87,2.0
9.506,-0.927,-0.885,0.0
12.528,-1.219,-0.814,0.0
11.866,-1.156,-0.835,0.0
11.157,-1.088,-0.845,0.0
10.581,-1.033,-0.86,0.0
10.032,-0.98,-0.869,1.0
9.604,-0.94,-0.884,0.0
12.684,-1.239,-0.81,0.0
11.967,-1.17,-0.829,0.0
11.272,-1.103,-0.841,0.0
10.713,-1.05,-0.858,0.0
10.121,-0.993,-0.865,1.0
9.728,-0.955,-0.884,1.0
12.859,-1.26,-0.807,0.0
12.085,-1.185,-0.823,0.0
11.414,-1.121,-0.838,0.0
10.795,-1.061,-0.852,0.0
10.257,-1.009,-0.865,0.0
9.784,-0.964,-0.878,3.0
13.07,-1.285,-0.805,0.0
12.255,-1.206,-0.82,0.0
11.585,-1.141,-0.837,0.0
10.954,-1.08,-0.852,0.0
10.381,-1.024,-0.863,0.0
9.868,-0.974,-0.873,3.0
13.252,-1.306,-0.8,0.0
12.436,-1.227,-0.817,0.0
11.776,-1.162,-0.837,0.0
11.074,-1.094,-0.848,0.0
10.521,-1.04,-0.862,0.0
9.962,-0.986,-0.869,2.0
13.433,-1.327,-0.795,0.0
12.624,-1.247,-0.814,0.0
11.921,-1.179,-0.833,0.0
11.203,-1.109,-0.844,0.0
10.665,-1.056,-0.86,0.0
10.082,-0.999,-0.867,1.0
13.66,-1.351,-0.791,0.0
12.82,-1.269,-0.811,0.0
12.062,-1.195,-0.827,0.0
11.328,-1.123,-0.839,0.0
10.762,-1.067,-0.855,0.0
10.208,-1.013,-0.865,0.0
13.865,-1.374,-0.786,0.0
13.012,-1.289,-0.807,0.0
12.234,-1.213,-0.824,0.0
11.577,-1.149,-0.843,0.0
10.913,-1.083,-0.853,0.0
10.353,-1.028,-0.864,0.0
14.068,-1.395,-0.78,0.0
13.198,-1.309,-0.802,0.0
12.41,-1.231,-0.82,0.0
11.744,-1.166,-0.84,0.0
11.063,-1.099,-0.85,0.0
10.5,-1.043,-0.863,0.0
14.353,-1.423,-0.777,0.0
13.414,-1.331,-0.798,0.0
12.589,-1.249,-0.816,0.0
11.901,-1.181,-0.836,0.0
11.182,-1.111,-0.845,0.0
10.659,-1.059,-0.863,0.0
14.567,-1.445,-0.77,1.0
13.613,-1.35,-0.792,0.0
12.774,-1.267,-0.811,0.0
12.035,-1.194,-0.83,0.0
11.359,-1.128,-0.844,0.0
10.761,-1.069,-0.857,1.0
14.797,-1.467,-0.763,1.0
13.844,-1.373,-0.787,0.0
12.986,-1.288,-0.808,0.0
12.204,-1.21,-0.825,0.0
11.58,-1.149,-0.845,0.0
10.913,-1.083,-0.854,0.0
15.132,-1.499,-0.76,1.0
14.045,-1.391,-0.78,0.0
13.183,-1.306,-0.802,0.0
12.39,-1.227,-0.821,0.0
11.765,-1.165,-0.842,0.0
11.073,-1.097,-0.852,0.0
15.425,-1.526,-0.755,1.0
14.325,-1.417,-0.777,0.0
13.42,-1.327,-0.799,0.0
12.571,-1.243,-0.816,0.0
11.91,-1.178,-0.837,0.0
11.189,-1.106,-0.846,0.0
15.774,-1.557,-0.75,1.0
14.597,-1.441,-0.772,1.0
13.629,-1.345,-0.793,0.0
12.808,-1.264,-0.815,0.0
12.05,-1.189,-0.83,0.0
11.323,-1.117,-0.841,0.0
16.159,-1.592,-0.747,2.0
14.834,-1.461,-0.764,0.0
13.854,-1.364,-0.787,0.0
12.982,-1.278,-0.808,0.0
12.245,-1.205,-0.827,0.0
11.582,-1.139,-0.844,0.0
16.291,-1.6,-0.731,11.0
15.182,-1.491,-0.762,0.0
14.094,-1.383,-0.782,0.0
13.227,-1.298,-0.805,0.0
12.421,-1.218,-0.822,0.0
11.779,-1.155,-0.842,0.0
16.321,-1.598,-0.71,8.0
15.482,-1.515,-0.755,1.0
14.372,-1.406,-0.777,0.0
13.451,-1.315,-0.8,0.0
12.627,-1.234,-0.818,0.0
11.943,-1.167,-0.837,0.0
16.413,-1.601,-0.692,6.0
15.815,-1.542,-0.75,1.0
14.615,-1.424,-0.77,0.0
13.67,-1.331,-0.794,1.0
12.847,-1.251,-0.815,0.0
12.089,-1.176,-0.831,0.0
0.0,0.0,0.0,0.0
16.205,-1.573,-0.746,2.0
14.914,-1.447,-0.765,0.0
13.88,-1.346,-0.787,0.0
13.042,-1.264,-0.809,0.0
12.294,-1.191,-0.828,0.0
17.893,-1.73,-0.705,0.0
16.29,-1.574,-0.728,10.0
15.235,-1.471,-0.761,0.0
14.117,-1.362,-0.782,0.0
13.27,-1.28,-0.805,0.0
12.457,-1.2,-0.822,0.0
18.294,-1.76,-0.696,0.0
16.341,-1.571,-0.708,9.0
15.546,-1.493,-0.756,0.0
14.436,-1.385,-0.779,0.0
13.499,-1.294,-0.8,0.0
12.688,-1.216,-0.82,0.0
18.763,-1.795,-0.688,1.0
16.471,-1.574,-0.691,4.0
15.898,-1.518,-0.751,1.0
14.645,-1.397,-0.771,0.0
13.728,-1.309,-0.795,0.0
12.908,-1.229,-0.816,0.0
19.209,-1.827,-0.678,1.0
17.363,-1.649,-0.704,0.0
16.243,-1.541,-0.745,6.0
14.964,-1.418,-0.767,0.0
13.924,-1.319,-0.787,0.0
13.119,-1.241,-0.811,0.0
19.765,-1.867,-0.67,1.0
17.975,-1.696,-0.704,0.0
16.295,-1.536,-0.725,10.0
15.303,-1.441,-0.763,0.0
14.225,-1.338,-0.785,0.0
13.342,-1.253,-0.807,0.0
20.232,-1.898,-0.658,0.0
18.417,-1.726,-0.697,0.0
16.374,-1.532,-0.706,10.0
15.601,-1.458,-0.757,0.0
14.467,-1.35,-0.778,1.0
13.569,-1.265,-0.802,0.0
20.807,-1.937,-0.649,1.0
18.847,-1.752,-0.687,1.0
16.456,-1.528,-0.687,3.0
16.006,-1.484,-0.754,1.0
14.73,-1.364,-0.772,1.0
13.765,-1.273,-0.794,0.0
21.357,-1.972,-0.637,1.0
19.33,-1.782,-0.678,0.0
17.623,-1.623,-0.711,0.0
16.241,-1.493,-0.743,8.0
15.049,-1.381,-0.768,0.0
13.984,-1.282,-0.788,0.0
21.909,-2.006,-0.623,1.0
19.881,-1.817,-0.671,0.0
18.076,-1.649,-0.705,0.0
16.304,-1.485,-0.724,9.0
15.335,-1.395,-0.762,0.0
14.298,-1.299,-0.786,0.0
22.516,-2.042,-0.61,1.0
20.389,-1.846,-0.66,0.0
18.491,-1.671,-0.696,0.0
16.361,-1.476,-0.704,7.0
15.658,-1.41,-0.757,0.0
14.522,-1.306,-0.779,0.0
23.217,-2.085,-0.598,1.0
20.882,-1.872,-0.648,1.0
18.918,-1.693,-0.687,0.0
16.527,-1.476,-0.689,2.0
16.075,-1.433,-0.755,1.0
14.778,-1.315,-0.772,0.0
23.838,-2.119,-0.582,1.0
21.468,-1.905,-0.637,0.0
19.525,-1.729,-0.683,1.0
17.707,-1.565,-0.714,0.0
16.285,-1.436,-0.743,6.0
15.104,-1.33,-0.769,0.0
24.748,-2.176,-0.571,1.0
22.011,-1.931,-0.624,1.0
19.88,-1.741,-0.669,0.0
18.089,-1.581,-0.706,0.0
16.313,-1.423,-0.723,9.0
15.385,-1.339,-0.763,0.0
25.395,-2.207,-0.552,1.0
22.593,-1.959,-0.611,1.0
20.379,-1.763,-0.659,0.0
18.511,-1.598,-0.698,0.0
16.376,-1.411,-0.704,6.0
15.679,-1.348,-0.757,0.0
26.035,-2.236,-0.532,1.0
23.29,-1.995,-0.599,1.0
20.932,-1.789,-0.649,0.0
18.909,-1.612,-0.688,1.0
16.595,-1.412,-0.692,1.0
16.029,-1.361,-0.753,1.0
26.873,-2.279,-0.515,1.0
23.837,-2.016,-0.583,1.0
21.403,-1.806,-0.636,1.0
19.345,-1.628,-0.679,0.0
17.695,-1.486,-0.715,0.0
16.261,-1.362,-0.743,1.0
27.794,-2.325,-0.497,1.0
24.741,-2.064,-0.573,1.0
21.969,-1.828,-0.625,1.0
19.857,-1.648,-0.672,0.0
18.075,-1.496,-0.707,0.0
16.328,-1.348,-0.725,1.0
28.695,-2.366,-0.476,1.0
25.427,-2.091,-0.556,1.0
22.577,-1.852,-0.613,1.0
20.301,-1.66,-0.661,0.0
18.487,-1.508,-0.7,1.0
16.401,-1.334,-0.708,1.0
29.545,-2.401,-0.453,1.0
25.993,-2.106,-0.536,1.0
23.211,-1.875,-0.601,1.0
20.838,-1.679,-0.652,0.0
18.86,-1.515,-0.69,1.0
17.211,-1.379,-0.721,1.0
30.492,-2.439,-0.43,1.0
26.668,-2.127,-0.517,1.0
23.729,-1.887,-0.586,1.0
21.313,-1.69,-0.641,1.0
19.248,-1.521,-0.681,0.0
17.649,-1.391,-0.718,1.0
31.931,-2.513,-0.411,1.0
27.682,-2.172,-0.503,1.0
24.639,-1.926,-0.577,1.0
21.827,-1.701,-0.629,1.0
19.768,-1.536,-0.675,0.0
18.006,-1.395,-0.71,0.0
32.812,-2.538,-0.382,1.0
28.26,-2.179,-0.479,1.0
25.237,-1.939,-0.561,1.0
22.372,-1.714,-0.618,1.0
20.203,-1.542,-0.666,0.0
18.389,-1.399,-0.703,1.0
34.681,-2.636,-0.363,0.0
29.191,-2.211,-0.46,2.0
25.854,-1.951,-0.544,1.0
22.938,-1.725,-0.607,1.0
20.632,-1.547,-0.656,0.0
18.731,-1.399,-0.695,1.0
36.343,-2.711,-0.338,0.0
29.979,-2.228,-0.438,1.0
26.522,-1.964,-0.528,1.0
23.488,-1.733,-0.594,1.0
21.158,-1.556,-0.648,0.0
19.093,-1.399,-0.686,1.0
39.188,-2.867,-0.319,0.0
30.744,-2.24,-0.414,3.0
27.113,-1.968,-0.509,1.0
24.099,-1.743,-0.582,1.0
21.661,-1.561,-0.638,1.0
19.518,-1.401,-0.679,0.0
40.909,-2.932,-0.287,0.0
32.361,-2.31,-0.399,1.0
27.958,-1.988,-0.493,1.0
24.796,-1.756,-0.571,1.0
22.087,-1.558,-0.626,1.0
19.949,-1.402,-0.672,0.0
0.0,0.0,0.0,0.0
33.536,-2.343,-0.376,1.0
28.804,-2.004,-0.476,1.0
25.37,-1.758,-0.557,1.0
22.603,-1.559,-0.616,1.0
20.299,-1.395,-0.661,0.0
0.0,0.0,0.0,0.0
34.922,-2.385,-0.354,0.0
29.38,-1.998,-0.454,1.0
25.984,-1.759,-0.542,1.0
23.171,-1.562,-0.607,1.0
20.772,-1.395,-0.655,0.0
50.373,-3.376,-0.189,1.0
37.581,-2.507,-0.341,0.0
30.205,-2.006,-0.435,1.0
26.545,-1.755,-0.526,2.0
23.596,-1.553,-0.593,1.0
21.084,-1.382,-0.642,3.0
50.447,-3.299,-0.137,2.0
0.0,0.0,0.0,0.0
30.955,-2.005,-0.414,1.0
27.086,-1.746,-0.509,2.0
24.172,-1.551,-0.583,1.0
21.547,-1.376,-0.635,0.0
50.437,-3.216,-0.086,1.0
40.951,-2.598,-0.288,0.0
32.026,-2.022,-0.396,1.0
27.794,-1.746,-0.495,2.0
24.767,-1.548,-0.573,1.0
21.764,-1.354,-0.619,1.0
56.98,-3.537,-0.041,1.0
41.871,-2.586,-0.253,0.0
32.993,-2.027,-0.376,1.0
28.453,-1.739,-0.479,1.0
25.271,-1.537,-0.56,1.0
22.349,-1.352,-0.615,4.0
59.791,-3.61,0.013,4.0
45.031,-2.704,-0.23,0.0
34.579,-2.066,-0.361,0.0
29.113,-1.73,-0.462,1.0
25.794,-1.524,-0.548,1.0
22.989,-1.351,-0.611,5.0
62.878,-3.687,0.072,2.0
50.389,-2.938,-0.211,1.0
0.0,0.0,0.0,0.0
29.5,-1.701,-0.441,1.0
26.221,-1.503,-0.532,1.0
23.327,-1.33,-0.598,11.0
63.194,-3.593,0.13,0.0
50.434,-2.85,-0.165,1.0
37.385,-2.101,-0.322,0.0
30.237,-1.689,-0.425,1.0
26.823,-1.49,-0.521,1.0
23.652,-1.306,-0.586,13.0
0.0,0.0,0.0,0.0
50.474,-2.763,-0.122,2.0
38.207,-2.078,-0.297,0.0
31.121,-1.683,-0.411,1.0
27.45,-1.475,-0.51,3.0
24.082,-1.286,-0.576,7.0
0.0,0.0,0.0,0.0
50.5,-2.673,-0.08,0.0
40.967,-2.154,-0.284,0.0
31.901,-1.667,-0.395,1.0
28.09,-1.458,-0.499,7.0
24.733,-1.275,-0.572,1.0
0.0,0.0,0.0,0.0
59.861,-3.056,-0.046,2.0
41.781,-2.119,-0.256,0.0
32.466,-1.635,-0.376,1.0
28.413,-1.421,-0.482,7.0
25.17,-1.251,-0.562,1.0
0.0,0.0,0.0,0.0
60.057,-2.954,0.0,2.0
0.0,0.0,0.0,0.0
33.355,-1.617,-0.361,2.0
28.77,-1.385,-0.466,7.0
25.559,-1.222,-0.551,1.0
0.0,0.0,0.0,0.0
0.0,0.0,0.0,0.0
0.0,0.0,0.0,0.0
34.041,-1.586,-0.343,2.0
29.362,-1.358,-0.454,2.0
25.934,-1.191,-0.541,1.0
0.0,0.0,0.0,0.0
0.0,0.0,0.0,0.0
50.375,-2.269,-0.197,1.0
37.78,-1.688,-0.355,1.0
29.827,-1.322,-0.441,2.0
26.33,-1.158,-0.531,1.0
0.0,0.0,0.0,0.0
0.0,0.0,0.0,0.0
50.366,-2.171,-0.163,2.0
37.687,-1.611,-0.329,5.0
30.249,-1.282,-0.427,2.0
26.718,-1.123,-0.521,1.0
0.0,0.0,0.0,0.0
0.0,0.0,0.0,0.0
37.793,-1.554,-0.098,11.0
37.733,-1.538,-0.305,50.0
30.612,-1.237,-0.413,1.0
27.032,-1.083,-0.51,1.0
0.0,0.0,0.0,0.0
0.0,0.0,0.0,0.0
40.109,-1.57,-0.08,53.0
37.76,-1.464,-0.283,39.0
31.124,-1.196,-0.401,1.0
27.423,-1.044,-0.501,2.0
0.0,0.0,0.0,0.0
0.0,0.0,0.0,0.0
40.063,-1.487,-0.056,0.0
40.092,-1.474,-0.277,11.0
31.857,-1.16,-0.392,1.0
27.668,-0.998,-0.491,1.0
0.0,0.0,0.0,0.0
0.0,0.0,0.0,0.0
0.0,0.0,0.0,0.0
40.975,-1.425,-0.262,0.0
32.248,-1.109,-0.38,1.0
28.079,-0.956,-0.483,1.0
0.0,0.0,0.0,0.0
0.0,0.0,0.0,0.0
0.0,0.0,0.0,0.0
41.908,-1.371,-0.246,1.0
32.521,-1.052,-0.367,1.0
28.387,-0.908,-0.474,1.0
0.0,0.0,0.0,0.0
0.0,0.0,0.0,0.0
0.0,0.0,0.0,0.0
40.229,-1.234,-0.218,3.0
33.58,-1.017,-0.364,1.0
28.615,-0.856,-0.465,2.0
0.0,0.0,0.0,0.0
40.239,-1.18,0.239,11.0
40.195,-1.164,0.021,60.0
40.215,-1.15,-0.201,45.0
33.581,-0.948,-0.35,1.0
28.887,-0.805,-0.458,1.0
40.227,-1.111,0.474,40.0
40.173,-1.095,0.255,59.0
40.333,-1.084,0.037,50.0
40.981,-1.087,-0.188,157.0
35.217,-0.921,-0.353,0.0
29.09,-0.75,-0.45,1.0
40.214,-1.027,0.489,61.0
40.265,-1.014,0.271,6.0
40.284,-0.999,0.051,0.0
40.283,-0.985,-0.171,35.0
35.352,-0.851,-0.342,0.0
29.345,-0.696,-0.444,1.0
40.306,-0.945,0.504,57.0
40.299,-0.931,0.284,150.0
40.292,-0.916,0.065,5.0
0.0,0.0,0.0,0.0
0.0,0.0,0.0,0.0
29.523,-0.638,-0.438,2.0
40.25,-0.86,0.515,58.0
40.297,-0.846,0.296,14.0
66.918,-1.38,0.127,1.0
46.689,-0.946,-0.17,2.0
35.573,-0.707,-0.324,0.0
29.673,-0.579,-0.432,1.0
40.265,-0.775,0.526,44.0
40.233,-0.759,0.306,54.0
40.276,-0.746,0.086,67.0
40.296,-0.731,-0.137,60.0
35.441,-0.63,-0.314,0.0
29.703,-0.517,-0.425,1.0
205.369,-3.519,2.732,18.0
40.279,-0.675,0.315,0.0
248.402,-4.075,0.589,65.0
0.0,0.0,0.0,0.0
0.0,0.0,0.0,0.0
29.834,-0.457,-0.421,1.0
148.284,-2.225,2.001,8.0
87.849,-1.286,0.704,12.0
183.468,-2.619,0.468,8.0
50.876,-0.707,-0.153,2.0
36.521,-0.494,-0.31,0.0
29.924,-0.394,-0.418,2.0
79.412,-1.022,1.083,150.0
79.222,-0.99,0.647,12.0
79.274,-0.961,0.213,4.0
53.913,-0.634,-0.155,3.0
38.422,-0.438,-0.321,6.0
30.074,-0.332,-0.416,3.0
79.447,-0.853,1.093,176.0
79.429,-0.823,0.657,150.0
61.26,-0.612,0.171,1.0
50.592,-0.487,-0.141,13.0
36.771,-0.34,-0.304,0.0
30.089,-0.268,-0.414,2.0
79.451,-0.681,1.1,178.0
79.437,-0.653,0.663,150.0
61.048,-0.479,0.174,8.0
45.696,-0.342,-0.124,5.0
39.598,-0.281,-0.325,2.0
30.103,-0.203,-0.412,1.0
79.459,-0.511,1.103,159.0
79.456,-0.482,0.666,151.0
56.093,-0.32,0.162,10.0
42.125,-0.225,-0.113,3.0
39.292,-0.195,-0.322,0.0
30.048,-0.138,-0.411,2.0
79.467,-0.34,1.104,151.0
79.424,-0.311,0.666,150.0
56.099,-0.2,0.161,12.0
41.888,-0.134,-0.113,18.0
38.521,-0.109,-0.316,2.0
30.116,-0.075,-0.413,2.0
79.46,-0.169,1.101,151.0
79.412,-0.141,0.663,150.0
56.031,-0.08,0.159,29.0
0.0,0.0,0.0,0.0
38.29,-0.026,-0.317,4.0
30.015,-0.01,-0.414,2.0
79.466,0.0,1.095,151.0
79.417,0.029,0.657,117.0
54.852,0.04,0.151,6.0
40.789,0.044,-0.116,16.0
37.985,0.054,-0.318,2.0
30.002,0.054,-0.416,2.0
79.472,0.171,1.087,151.0
79.464,0.2,0.648,38.0
54.777,0.157,0.144,28.0
40.458,0.13,-0.12,16.0
37.708,0.134,-0.32,13.0
29.89,0.117,-0.419,2.0
59.308,0.256,0.802,135.0
59.3,0.277,0.474,115.0
54.808,0.275,0.135,40.0
39.771,0.214,-0.125,19.0
37.692,0.216,-0.327,1.0
29.812,0.182,-0.423,2.0
48.109,0.311,0.642,74.0
48.094,0.328,0.376,62.0
48.026,0.344,0.109,80.0
39.513,0.296,-0.132,36.0
37.42,0.294,-0.332,1.0
29.778,0.245,-0.429,3.0
48.085,0.413,0.631,109.0
48.053,0.43,0.364,101.0
47.981,0.446,0.098,65.0
39.188,0.377,-0.14,41.0
37.28,0.372,-0.34,1.0
29.553,0.305,-0.433,2.0
48.114,0.516,0.619,100.0
48.07,0.532,0.352,76.0
47.927,0.548,0.085,64.0
38.869,0.458,-0.15,47.0
37.057,0.448,-0.348,0.0
29.383,0.366,-0.439,2.0
121.292,1.56,1.526,16.0
75.395,0.994,0.53,9.0
47.958,0.649,0.07,56.0
38.646,0.536,-0.161,51.0
33.55,0.477,-0.326,1.0
29.269,0.426,-0.447,2.0
121.143,1.814,1.484,15.0
75.141,1.15,0.503,12.0
47.898,0.749,0.054,35.0
38.304,0.612,-0.173,45.0
33.28,0.543,-0.335,1.0
29.052,0.484,-0.454,2.0
121.073,2.067,1.439,11.0
74.852,1.303,0.473,12.0
47.689,0.846,0.036,22.0
37.942,0.686,-0.186,42.0
32.905,0.606,-0.344,1.0
28.74,0.538,-0.46,1.0
89.88,1.723,1.032,7.0
61.64,1.202,0.364,14.0
47.418,0.941,0.016,22.0
37.604,0.758,-0.2,39.0
32.541,0.667,-0.354,1.0
28.38,0.591,-0.467,1.0
80.798,1.717,0.892,9.0
60.893,1.314,0.333,35.0
46.872,1.027,-0.004,21.0
37.217,0.828,-0.215,37.0
32.02,0.723,-0.363,1.0
28.106,0.644,-0.476,1.0
79.702,1.861,0.841,13.0
0.0,0.0,0.0,0.0
0.0,0.0,0.0,0.0
36.964,0.899,-0.232,27.0
31.339,0.772,-0.371,2.0
27.678,0.691,-0.482,1.0
78.297,1.988,0.787,17.0
58.941,1.516,0.263,33.0
43.272,1.127,-0.048,18.0
36.75,0.969,-0.25,13.0
31.025,0.828,-0.384,2.0
27.41,0.74,-0.492,2.0
78.048,2.141,0.742,39.0
58.813,1.633,0.23,10.0
41.088,1.154,-0.068,17.0
36.466,1.035,-0.268,12.0
30.599,0.879,-0.396,2.0
23.959,0.696,-0.444,1.0
77.818,2.293,0.695,31.0
54.571,1.625,0.182,28.0
40.324,1.213,-0.091,38.0
36.293,1.104,-0.289,10.0
30.17,0.927,-0.409,2.0
23.912,0.742,-0.458,5.0
77.551,2.441,0.645,13.0
54.414,1.73,0.147,28.0
39.924,1.281,-0.115,39.0
36.081,1.169,-0.309,7.0
29.716,0.972,-0.421,2.0
23.349,0.771,-0.462,5.0
74.377,2.489,0.57,15.0
48.966,1.653,0.101,23.0
39.653,1.351,-0.14,44.0
35.867,1.232,-0.331,4.0
29.325,1.017,-0.435,2.0
22.796,0.797,-0.466,5.0
73.969,2.62,0.517,11.0
48.288,1.725,0.066,23.0
39.51,1.424,-0.167,35.0
33.4,1.214,-0.332,1.0
28.883,1.058,-0.449,2.0
22.094,0.816,-0.467,4.0
60.009,2.244,0.376,15.0
47.324,1.784,0.03,23.0
39.388,1.496,-0.195,2.0
0.0,0.0,0.0,0.0
28.404,1.096,-0.463,1.0
21.573,0.839,-0.473,4.0
59.051,2.323,0.326,27.0
0.0,0.0,0.0,0.0
36.368,1.452,-0.208,35.0
31.585,1.27,-0.361,1.0
24.628,0.998,-0.42,1.0
21.226,0.866,-0.481,11.0
58.605,2.418,0.277,7.0
41.835,1.738,-0.036,18.0
36.13,1.511,-0.235,16.0
30.948,1.304,-0.378,2.0
24.322,1.031,-0.434,5.0
20.887,0.892,-0.49,4.0
54.494,2.351,0.214,29.0
40.913,1.777,-0.069,37.0
35.83,1.566,-0.262,11.0
30.275,1.332,-0.395,2.0
23.649,1.047,-0.442,5.0
20.515,0.914,-0.499,3.0
54.282,2.444,0.167,13.0
40.458,1.832,-0.102,44.0
35.68,1.626,-0.291,7.0
29.69,1.361,-0.413,1.0
22.849,1.054,-0.446,4.0
20.124,0.934,-0.507,3.0
48.297,2.262,0.107,25.0
40.049,1.887,-0.136,30.0
35.508,1.683,-0.321,5.0
29.155,1.39,-0.431,2.0
22.139,1.061,-0.452,4.0
19.726,0.951,-0.514,3.0
0.0,0.0,0.0,0.0
36.478,1.786,-0.157,39.0
32.992,1.624,-0.329,1.0
28.733,1.422,-0.451,1.0
21.581,1.074,-0.461,4.0
19.323,0.967,-0.522,3.0
42.4,2.14,0.016,18.0
36.058,1.829,-0.189,39.0
31.887,1.626,-0.348,1.0
24.758,1.27,-0.412,2.0
21.11,1.088,-0.471,4.0
18.87,0.978,-0.528,3.0
41.421,2.164,-0.023,27.0
35.588,1.868,-0.221,10.0
31.024,1.637,-0.368,2.0
24.066,1.276,-0.424,5.0
20.652,1.1,-0.481,3.0
18.504,0.991,-0.536,4.0
40.679,2.195,-0.063,49.0
35.47,1.923,-0.255,11.0
30.258,1.649,-0.389,2.0
23.193,1.27,-0.432,5.0
20.189,1.111,-0.49,3.0
18.079,0.999,-0.542,4.0
40.235,2.24,-0.103,6.0
35.364,1.978,-0.291,7.0
29.569,1.661,-0.411,2.0
22.379,1.263,-0.44,4.0
19.75,1.12,-0.5,3.0
17.727,1.009,-0.549,4.0
36.454,2.091,-0.131,26.0
34.952,2.014,-0.324,3.0
28.927,1.674,-0.432,1.0
21.695,1.261,-0.449,4.0
19.295,1.126,-0.509,3.0
17.399,1.02,-0.558,2.0
36.018,2.126,-0.168,42.0
32.294,1.914,-0.334,1.0
24.838,1.478,-0.398,1.0
21.151,1.264,-0.461,4.0
18.853,1.131,-0.518,3.0
17.007,1.024,-0.564,2.0
35.667,2.163,-0.205,29.0
31.026,1.889,-0.355,1.0
24.033,1.469,-0.411,5.0
20.699,1.27,-0.474,4.0
18.421,1.135,-0.526,4.0
16.585,1.026,-0.568,3.0
33.266,2.07,-0.229,1.0
30.281,1.891,-0.38,2.0
23.114,1.449,-0.422,5.0
20.165,1.269,-0.484,3.0
18.033,1.139,-0.536,4.0
16.224,1.029,-0.574,4.0
35.188,2.245,-0.282,8.0
29.554,1.892,-0.405,2.0
22.196,1.426,-0.43,4.0
19.604,1.264,-0.494,3.0
17.599,1.139,-0.543,2.0
15.996,1.039,-0.585,2.0
34.957,2.283,-0.321,4.0
25.071,1.643,-0.373,1.0
21.462,1.411,-0.441,4.0
19.152,1.264,-0.505,3.0
17.208,1.139,-0.552,2.0
15.29,1.016,-0.577,2.0
31.903,2.131,-0.331,1.0
24.594,1.648,-0.395,2.0
21.015,1.413,-0.457,4.0
18.647,1.258,-0.514,3.0
16.817,1.138,-0.559,4.0
14.671,0.996,-0.571,8.0
30.76,2.099,-0.356,2.0
23.643,1.618,-0.408,5.0
20.516,1.409,-0.471,4.0
18.206,1.254,-0.524,3.0
16.488,1.139,-0.568,2.0
14.568,1.01,-0.585,15.0
30.007,2.09,-0.384,2.0
22.524,1.573,-0.417,4.0
19.91,1.395,-0.482,3.0
17.738,1.247,-0.532,3.0
16.026,1.13,-0.572,1.0
14.114,0.998,-0.585,13.0
29.295,2.081,-0.412,1.0
21.778,1.552,-0.43,4.0
19.328,1.381,-0.492,3.0
17.391,1.246,-0.544,2.0
15.649,1.125,-0.579,2.0
13.862,0.999,-0.592,12.0
24.679,1.786,-0.378,1.0
21.107,1.532,-0.444,4.0
18.859,1.373,-0.504,3.0
16.973,1.239,-0.552,2.0
14.632,1.071,-0.56,5.0
13.621,1.0,-0.599,11.0
23.854,1.758,-0.396,5.0
20.622,1.523,-0.46,4.0
18.379,1.361,-0.515,3.0
16.527,1.227,-0.559,2.0
14.314,1.066,-0.566,10.0
13.456,1.005,-0.609,10.0
22.719,1.703,-0.406,5.0
20.012,1.504,-0.472,3.0
17.901,1.348,-0.525,3.0
16.127,1.218,-0.566,2.0
13.956,1.056,-0.57,11.0
13.238,1.005,-0.617,10.0
21.907,1.669,-0.421,4.0
19.406,1.482,-0.483,3.0
17.442,1.335,-0.534,2.0
15.717,1.206,-0.573,3.0
13.744,1.057,-0.58,11.0
13.095,1.01,-0.627,7.0
21.186,1.639,-0.435,4.0
18.88,1.464,-0.495,3.0
17.012,1.322,-0.544,2.0
14.794,1.152,-0.559,5.0
13.562,1.059,-0.59,11.0
13.074,1.023,-0.644,9.0
20.647,1.621,-0.452,4.0
18.407,1.448,-0.508,3.0
16.607,1.31,-0.553,2.0
14.178,1.121,-0.555,11.0
13.464,1.066,-0.604,11.0
13.071,1.038,-0.661,10.0
20.045,1.596,-0.465,3.0
17.913,1.429,-0.519,3.0
16.182,1.294,-0.561,3.0
13.887,1.113,-0.562,12.0
13.274,1.066,-0.614,8.0
12.937,1.041,-0.672,5.0
19.476,1.572,-0.479,3.0
17.452,1.411,-0.529,2.0
0.0,0.0,0.0,0.0
13.689,1.111,-0.573,9.0
13.087,1.065,-0.623,7.0
12.612,1.028,-0.673,3.0
18.953,1.549,-0.492,2.0
17.008,1.393,-0.539,2.0
14.183,1.163,-0.531,8.0
13.531,1.112,-0.586,9.0
13.067,1.076,-0.641,9.0
12.403,1.024,-0.679,4.0
18.393,1.522,-0.504,3.0
16.612,1.377,-0.55,2.0
13.909,1.155,-0.54,11.0
13.371,1.112,-0.597,8.0
13.051,1.088,-0.658,11.0
12.214,1.02,-0.686,1.0
17.841,1.493,-0.513,3.0
16.223,1.36,-0.56,0.0
13.806,1.159,-0.555,12.0
13.259,1.115,-0.611,9.0
12.939,1.09,-0.67,5.0
11.941,1.008,-0.687,1.0
17.447,1.475,-0.526,2.0
13.928,1.18,-0.5,13.0
13.693,1.162,-0.57,9.0
13.064,1.11,-0.62,7.0
12.58,1.071,-0.67,3.0
11.655,0.994,-0.687,2.0
16.971,1.45,-0.536,2.0
13.854,1.185,-0.517,13.0
13.556,1.161,-0.583,11.0
13.062,1.121,-0.638,10.0
12.398,1.066,-0.677,4.0
11.444,0.985,-0.691,2.0
13.915,1.2,-0.459,6.0
13.808,1.192,-0.535,13.0
13.421,1.161,-0.597,9.0
13.059,1.131,-0.657,12.0
12.15,1.054,-0.681,1.0
11.231,0.976,-0.694,2.0
13.871,1.207,-0.477,13.0
13.765,1.199,-0.553,12.0
13.24,1.155,-0.608,8.0
12.902,1.127,-0.668,4.0
11.848,1.037,-0.682,2.0
11.026,0.966,-0.698,2.0
13.837,1.214,-0.496,18.0
13.612,1.196,-0.566,8.0
13.074,1.15,-0.619,8.0
12.569,1.107,-0.669,4.0
11.633,1.026,-0.686,2.0
10.826,0.956,-0.701,2.0
13.803,1.22,-0.514,16.0
13.508,1.196,-0.581,13.0
13.07,1.159,-0.637,10.0
12.378,1.099,-0.676,2.0
11.424,1.015,-0.69,1.0
10.615,0.945,-0.702,1.0
13.779,1.227,-0.533,16.0
13.375,1.193,-0.594,12.0
13.055,1.165,-0.655,9.0
12.112,1.083,-0.679,1.0
11.202,1.003,-0.693,2.0
10.429,0.935,-0.705,2.0
13.732,1.231,-0.551,13.0
13.213,1.186,-0.606,8.0
12.836,1.154,-0.663,4.0
11.846,1.066,-0.681,1.0
10.988,0.99,-0.695,2.0
10.263,0.926,-0.709,1.0
13.591,1.226,-0.565,11.0
13.089,1.182,-0.619,9.0
12.572,1.137,-0.667,4.0
11.599,1.05,-0.683,2.0
10.804,0.979,-0.699,1.0
10.092,0.916,-0.711,1.0
13.473,1.222,-0.579,12.0
13.076,1.187,-0.637,11.0
12.363,1.124,-0.674,3.0
11.38,1.035,-0.687,2.0
10.594,0.965,-0.7,1.0
9.91,0.904,-0.712,2.0
13.358,1.218,-0.593,12.0
13.043,1.19,-0.654,11.0
12.117,1.107,-0.677,1.0
11.216,1.026,-0.693,1.0
10.412,0.953,-0.703,2.0
9.776,0.896,-0.717,2.0
13.183,1.208,-0.604,7.0
12.808,1.174,-0.66,4.0
11.834,1.086,-0.678,1.0
10.982,1.009,-0.694,1.0
10.228,0.94,-0.705,2.0
9.668,0.89,-0.722,1.0
13.089,1.204,-0.618,11.0
12.555,1.156,-0.665,4.0
11.597,1.068,-0.681,1.0
10.789,0.995,-0.697,1.0
10.079,0.93,-0.709,2.0
9.546,0.882,-0.727,1.0
13.07,1.207,-0.636,12.0
12.355,1.141,-0.672,3.0
11.373,1.051,-0.684,2.0
10.567,0.978,-0.698,1.0
9.91,0.918,-0.711,2.0
9.433,0.874,-0.732,1.0
13.053,1.209,-0.653,13.0
12.096,1.121,-0.675,1.0
11.202,1.039,-0.689,1.0
10.397,0.965,-0.701,2.0
9.78,0.908,-0.716,2.0
9.301,0.864,-0.734,1.0
12.792,1.188,-0.658,4.0
11.84,1.1,-0.677,1.0
10.983,1.021,-0.691,1.0
10.232,0.952,-0.704,2.0
9.668,0.9,-0.721,1.0
9.186,0.856,-0.738,1.0
12.561,1.169,-0.663,5.0
11.621,1.082,-0.68,1.0
10.817,1.008,-0.695,1.0
10.074,0.939,-0.707,2.0
9.555,0.891,-0.726,1.0
9.067,0.846,-0.741,1.0
12.364,1.152,-0.67,3.0
11.384,1.061,-0.682,2.0
10.584,0.987,-0.695,1.0
