X,Y,Z,Reflectivity
132.061,6.675,5.84,10.0
167.15,8.414,6.43,11.0
156.371,7.842,5.102,15.0
158.869,7.935,4.273,3.0
0.0,0.0,0.0,0.0
129.227,6.4,6.261,35.0
157.369,7.759,6.718,11.0
174.665,8.576,6.454,9.0
156.229,7.638,4.859,18.0
0.0,0.0,0.0,0.0
0.0,0.0,0.0,0.0
129.922,6.267,6.095,19.0
156.99,7.539,6.463,18.0
156.653,7.49,5.549,15.0
174.348,8.299,5.159,10.0
0.0,0.0,0.0,0.0
0.0,0.0,0.0,0.0
129.604,6.083,5.888,37.0
157.516,7.359,6.252,15.0
174.016,8.093,5.907,13.0
174.139,8.061,4.896,13.0
0.0,0.0,0.0,0.0
0.0,0.0,0.0,0.0
129.701,5.915,5.701,22.0
158.193,7.178,6.045,10.0
156.606,7.073,5.087,15.0
173.855,7.812,4.632,11.0
0.0,0.0,0.0,0.0
101.303,4.509,1.54,1.0
124.305,5.499,5.284,45.0
156.991,6.91,5.772,12.0
173.541,7.598,5.385,9.0
0.0,0.0,0.0,0.0
0.0,0.0,0.0,0.0
95.949,4.136,1.319,4.0
124.258,5.321,5.101,41.0
156.801,6.677,5.538,16.0
157.499,6.669,4.659,8.0
0.0,0.0,0.0,0.0
0.0,0.0,0.0,0.0
95.867,3.994,1.181,2.0
157.706,6.526,6.249,18.0
156.393,6.434,5.301,6.0
158.489,6.482,4.464,8.0
0.0,0.0,0.0,0.0
0.0,0.0,0.0,0.0
78.768,3.166,0.859,13.0
157.914,6.3,6.035,7.0
0.0,0.0,0.0,0.0
158.629,6.252,4.247,4.0
0.0,0.0,0.0,0.0
101.041,3.934,1.539,1.0
77.862,3.012,0.741,42.0
158.094,6.069,5.824,4.0
162.245,6.189,5.048,4.0
0.0,0.0,0.0,0.0
0.0,0.0,0.0,0.0
101.033,3.779,1.401,1.0
77.348,2.874,0.631,9.0
153.633,5.661,5.451,28.0
160.518,5.873,4.776,14.0
0.0,0.0,0.0,0.0
0.0,0.0,0.0,0.0
95.708,3.429,1.198,2.0
73.921,2.63,0.503,9.0
157.297,5.549,5.369,10.0
159.124,5.571,4.522,14.0
0.0,0.0,0.0,0.0
0.0,0.0,0.0,0.0
78.925,2.702,0.883,8.0
59.256,2.013,0.325,33.0
157.571,5.302,5.169,8.0
0.0,0.0,0.0,0.0
0.0,0.0,0.0,0.0
100.947,3.317,1.573,1.0
78.063,2.545,0.771,32.0
58.597,1.895,0.245,6.0
158.498,5.075,4.995,6.0
0.0,0.0,0.0,0.0
0.0,0.0,0.0,0.0
100.605,3.14,1.439,4.0
77.713,2.405,0.668,12.0
54.19,1.662,0.157,27.0
158.367,4.809,4.791,11.0
0.0,0.0,0.0,0.0
0.0,0.0,0.0,0.0
100.58,2.971,1.313,3.0
74.344,2.176,0.547,14.0
48.458,1.405,0.081,22.0
154.03,4.416,4.469,38.0
0.0,0.0,0.0,0.0
0.0,0.0,0.0,0.0
93.249,2.596,1.103,4.0
60.828,1.677,0.373,23.0
0.0,0.0,0.0,0.0
154.092,4.152,4.284,33.0
0.0,0.0,0.0,0.0
0.0,0.0,0.0,0.0
78.477,2.048,0.834,13.0
59.154,1.527,0.292,32.0
42.823,1.094,-0.031,11.0
100.323,2.529,2.67,17.0
100.369,2.5,2.1,3.0
106.092,2.613,1.617,9.0
77.975,1.899,0.737,45.0
54.611,1.314,0.206,8.0
42.979,1.022,-0.081,2.0
146.842,3.443,3.739,6.0
0.0,0.0,0.0,0.0
106.176,2.428,1.497,6.0
77.773,1.755,0.647,15.0
52.211,1.163,0.138,8.0
39.117,0.861,-0.118,41.0
128.192,2.776,3.12,24.0
106.235,2.269,1.983,19.0
120.978,2.548,1.571,3.0
74.739,1.553,0.539,16.0
47.969,0.983,0.074,21.0
38.253,0.773,-0.157,37.0
128.027,2.542,2.977,40.0
127.894,2.501,2.248,10.0
89.912,1.732,1.07,6.0
61.484,1.166,0.377,16.0
46.956,0.876,0.022,27.0
37.569,0.69,-0.195,38.0
128.277,2.312,2.847,14.0
127.131,2.252,2.1,35.0
89.703,1.563,0.974,9.0
0.0,0.0,0.0,0.0
45.107,0.758,-0.025,20.0
37.383,0.617,-0.233,13.0
190.042,3.073,4.021,26.0
126.798,2.011,1.964,39.0
78.143,1.214,0.767,10.0
58.184,0.887,0.236,8.0
44.093,0.658,-0.07,7.0
37.156,0.543,-0.269,6.0
190.184,2.713,3.831,21.0
126.444,1.766,1.832,30.0
77.914,1.064,0.688,30.0
48.016,0.64,0.147,64.0
39.408,0.514,-0.101,33.0
37.167,0.473,-0.306,2.0
55.085,0.681,1.056,51.0
48.137,0.581,0.65,68.0
48.07,0.565,0.378,78.0
47.92,0.548,0.101,61.0
38.881,0.432,-0.137,49.0
33.547,0.362,-0.308,0.0
48.121,0.503,0.877,101.0
48.088,0.487,0.605,103.0
48.049,0.472,0.333,105.0
47.622,0.452,0.056,51.0
38.455,0.353,-0.171,44.0
32.876,0.291,-0.332,1.0
48.098,0.409,0.833,113.0
48.079,0.394,0.561,107.0
48.065,0.379,0.29,74.0
46.673,0.352,0.013,30.0
38.271,0.276,-0.204,23.0
31.895,0.221,-0.35,1.0
48.149,0.316,0.792,63.0
48.19,0.3,0.521,54.0
55.026,0.326,0.285,63.0
44.905,0.251,-0.025,22.0
38.089,0.2,-0.236,13.0
31.073,0.153,-0.367,1.0
59.32,0.272,0.926,99.0
77.172,0.329,0.77,32.0
59.299,0.234,0.258,12.0
0.0,0.0,0.0,0.0
38.032,0.125,-0.266,6.0
30.429,0.089,-0.385,2.0
79.465,0.208,1.177,151.0
79.458,0.182,0.729,150.0
55.161,0.108,0.195,15.0
43.78,0.071,-0.095,5.0
38.041,0.048,-0.296,2.0
29.934,0.028,-0.402,2.0
79.465,0.048,1.115,151.0
79.339,0.022,0.667,35.0
0.0,0.0,0.0,0.0
40.6,-0.016,-0.119,17.0
37.73,-0.028,-0.323,0.0
29.536,-0.032,-0.419,2.0
79.464,-0.112,1.056,151.0
79.234,-0.139,0.608,24.0
54.287,-0.113,0.111,4.0
40.394,-0.098,-0.147,16.0
33.338,-0.092,-0.309,1.0
29.137,-0.09,-0.434,2.0
79.465,-0.272,1.001,151.0
76.692,-0.29,0.535,13.0
50.481,-0.208,0.068,23.0
39.632,-0.177,-0.172,5.0
33.096,-0.159,-0.329,1.0
28.685,-0.148,-0.446,2.0
79.452,-0.436,0.947,175.0
76.755,-0.449,0.484,13.0
51.057,-0.315,0.036,10.0
42.253,-0.275,-0.211,13.0
32.392,-0.222,-0.343,1.0
28.282,-0.204,-0.458,2.0
79.454,-0.599,0.897,186.0
77.082,-0.607,0.438,9.0
50.111,-0.412,0.004,4.0
42.211,-0.362,-0.236,7.0
31.634,-0.282,-0.354,1.0
27.984,-0.259,-0.47,3.0
79.454,-0.762,0.85,164.0
77.41,-0.769,0.395,3.0
54.388,-0.56,-0.026,15.0
38.525,-0.41,-0.238,3.0
31.107,-0.342,-0.366,2.0
27.482,-0.312,-0.477,2.0
79.455,-0.927,0.805,7.0
0.0,0.0,0.0,0.0
54.502,-0.674,-0.056,5.0
42.117,-0.536,-0.283,1.0
30.698,-0.401,-0.378,1.0
27.205,-0.365,-0.487,2.0
87.948,-1.208,0.846,11.0
0.0,0.0,0.0,0.0
50.878,-0.735,-0.078,3.0
0.0,0.0,0.0,0.0
30.315,-0.459,-0.388,1.0
26.811,-0.416,-0.493,1.0
123.927,-1.96,1.133,2.0
40.326,-0.652,0.143,8.0
40.341,-0.667,-0.081,29.0
40.129,-0.678,-0.309,1.0
29.948,-0.517,-0.397,1.0
26.586,-0.468,-0.501,1.0
40.251,-0.721,0.349,53.0
40.27,-0.736,0.125,67.0
40.319,-0.751,-0.099,42.0
36.816,-0.699,-0.299,0.0
29.7,-0.574,-0.407,1.0
26.364,-0.52,-0.508,1.0
40.282,-0.806,0.333,45.0
66.902,-1.362,0.181,1.0
0.0,0.0,0.0,0.0
35.558,-0.749,-0.303,0.0
29.63,-0.635,-0.417,1.0
26.191,-0.571,-0.514,2.0
40.303,-0.89,0.319,6.0
40.299,-0.905,0.094,150.0
40.292,-0.92,-0.129,40.0
35.237,-0.817,-0.312,0.0
29.373,-0.691,-0.424,1.0
26.0,-0.622,-0.52,1.0
40.233,-0.972,0.305,0.0
0.0,0.0,0.0,0.0
40.978,-1.021,-0.144,44.0
34.59,-0.874,-0.317,0.0
29.209,-0.749,-0.43,1.0
25.851,-0.672,-0.525,1.0
40.196,-1.055,0.293,65.0
40.202,-1.071,0.069,55.0
40.998,-1.107,-0.156,153.0
33.821,-0.926,-0.32,0.0
29.022,-0.805,-0.435,1.0
25.697,-0.722,-0.528,1.0
40.236,-1.141,0.283,41.0
40.2,-1.155,0.059,51.0
40.215,-1.17,-0.163,47.0
33.923,-1.0,-0.329,1.0
28.888,-0.862,-0.44,1.0
25.606,-0.774,-0.532,1.0
0.0,0.0,0.0,0.0
0.0,0.0,0.0,0.0
0.0,0.0,0.0,0.0
33.553,-1.059,-0.332,1.0
28.802,-0.92,-0.444,1.0
25.532,-0.825,-0.535,1.0
0.0,0.0,0.0,0.0
61.261,-2.018,0.067,2.0
0.0,0.0,0.0,0.0
33.24,-1.12,-0.334,0.0
28.742,-0.979,-0.448,1.0
25.496,-0.878,-0.539,1.0
0.0,0.0,0.0,0.0
61.019,-2.139,0.058,0.0
41.888,-1.484,-0.191,0.0
33.26,-1.19,-0.339,1.0
28.658,-1.036,-0.45,1.0
25.419,-0.928,-0.54,1.0
0.0,0.0,0.0,0.0
40.18,-1.491,0.034,0.0
40.13,-1.505,-0.186,152.0
33.168,-1.256,-0.341,1.0
28.644,-1.095,-0.452,2.0
25.306,-0.977,-0.539,1.0
0.0,0.0,0.0,0.0
37.764,-1.481,0.03,1.0
37.791,-1.496,-0.178,163.0
33.175,-1.325,-0.342,1.0
28.612,-1.154,-0.453,1.0
25.275,-1.029,-0.54,1.0
0.0,0.0,0.0,0.0
0.0,0.0,0.0,0.0
42.721,-1.779,-0.201,1.0
33.438,-1.404,-0.345,1.0
28.729,-1.217,-0.455,2.0
25.356,-1.084,-0.541,1.0
0.0,0.0,0.0,0.0
0.0,0.0,0.0,0.0
0.0,0.0,0.0,0.0
33.797,-1.489,-0.348,6.0
28.673,-1.274,-0.453,2.0
25.392,-1.138,-0.541,1.0
0.0,0.0,0.0,0.0
0.0,0.0,0.0,0.0
0.0,0.0,0.0,0.0
33.699,-1.553,-0.345,10.0
29.032,-1.349,-0.457,7.0
25.386,-1.188,-0.539,1.0
0.0,0.0,0.0,0.0
60.145,-2.849,0.056,0.0
0.0,0.0,0.0,0.0
33.284,-1.601,-0.337,2.0
28.757,-1.394,-0.449,7.0
25.545,-1.248,-0.539,1.0
0.0,0.0,0.0,0.0
59.893,-2.959,0.064,2.0
0.0,0.0,0.0,0.0
33.964,-1.703,-0.339,1.0
28.892,-1.46,-0.447,7.0
25.654,-1.306,-0.538,1.0
0.0,0.0,0.0,0.0
59.618,-3.067,0.073,3.0
45.441,-2.355,-0.192,0.0
0.0,0.0,0.0,0.0
28.896,-1.518,-0.442,3.0
25.724,-1.361,-0.534,1.0
0.0,0.0,0.0,0.0
60.815,-3.25,0.087,12.0
0.0,0.0,0.0,0.0
34.693,-1.879,-0.333,0.0
29.301,-1.598,-0.442,1.0
25.815,-1.417,-0.53,1.0
0.0,0.0,0.0,0.0
60.93,-3.378,0.102,8.0
0.0,0.0,0.0,0.0
35.783,-2.009,-0.335,0.0
29.383,-1.661,-0.435,1.0
26.026,-1.48,-0.528,1.0
0.0,0.0,0.0,0.0
62.863,-3.608,0.123,4.0
50.434,-2.913,-0.177,3.0
0.0,0.0,0.0,0.0
29.636,-1.734,-0.43,1.0
26.218,-1.544,-0.524,1.0
0.0,0.0,0.0,0.0
62.904,-3.735,0.142,3.0
50.436,-3.013,-0.16,4.0
37.266,-2.24,-0.326,0.0
29.829,-1.803,-0.423,1.0
26.491,-1.611,-0.521,2.0
0.0,0.0,0.0,0.0
62.697,-3.845,0.164,2.0
50.444,-3.111,-0.142,4.0
37.736,-2.341,-0.316,0.0
30.212,-1.885,-0.418,1.0
26.624,-1.671,-0.513,2.0
0.0,0.0,0.0,0.0
0.0,0.0,0.0,0.0
50.379,-3.204,-0.123,2.0
0.0,0.0,0.0,0.0
30.652,-1.971,-0.411,1.0
26.872,-1.738,-0.507,2.0
0.0,0.0,0.0,0.0
0.0,0.0,0.0,0.0
50.43,-3.303,-0.101,1.0
0.0,0.0,0.0,0.0
31.223,-2.067,-0.406,1.0
27.225,-1.812,-0.502,2.0
0.0,0.0,0.0,0.0
0.0,0.0,0.0,0.0
50.461,-3.4,-0.078,5.0
40.173,-2.72,-0.285,1.0
31.776,-2.163,-0.398,1.0
27.403,-1.875,-0.492,1.0
0.0,0.0,0.0,0.0
0.0,0.0,0.0,0.0
50.521,-3.498,-0.054,3.0
0.0,0.0,0.0,0.0
32.328,-2.261,-0.389,1.0
27.796,-1.953,-0.485,1.0
0.0,0.0,0.0,0.0
0.0,0.0,0.0,0.0
61.018,-4.336,-0.033,2.0
42.91,-3.064,-0.26,0.0
32.688,-2.345,-0.375,1.0
28.308,-2.041,-0.479,1.0
0.0,0.0,0.0,0.0
0.0,0.0,0.0,0.0
61.652,-4.492,0.0,1.0
0.0,0.0,0.0,0.0
33.871,-2.491,-0.37,1.0
28.808,-2.128,-0.471,1.0
148.579,-10.993,1.698,6.0
0.0,0.0,0.0,0.0
61.944,-4.624,0.036,0.0
0.0,0.0,0.0,0.0
34.587,-2.605,-0.357,1.0
29.114,-2.203,-0.458,2.0
148.572,-11.256,1.789,5.0
0.0,0.0,0.0,0.0
0.0,0.0,0.0,0.0
0.0,0.0,0.0,0.0
35.448,-2.732,-0.344,0.0
29.607,-2.292,-0.447,1.0
128.725,-9.975,1.632,2.0
0.0,0.0,0.0,0.0
0.0,0.0,0.0,0.0
50.456,-3.959,-0.183,1.0
38.148,-3.006,-0.344,0.0
29.951,-2.37,-0.432,1.0
128.164,-10.153,1.712,154.0
0.0,0.0,0.0,0.0
0.0,0.0,0.0,0.0
50.421,-4.042,-0.148,5.0
0.0,0.0,0.0,0.0
30.772,-2.487,-0.422,1.0
122.171,-9.88,1.718,9.0
0.0,0.0,0.0,0.0
0.0,0.0,0.0,0.0
50.408,-4.125,-0.111,1.0
39.923,-3.279,-0.304,0.0
31.796,-2.622,-0.413,1.0
122.01,-10.07,1.805,113.0
0.0,0.0,0.0,0.0
0.0,0.0,0.0,0.0
55.184,-4.605,-0.081,0.0
41.564,-3.481,-0.285,0.0
32.544,-2.736,-0.399,1.0
0.0,0.0,0.0,0.0
121.972,-10.298,1.239,2.0
0.0,0.0,0.0,0.0
0.0,0.0,0.0,0.0
0.0,0.0,0.0,0.0
33.456,-2.866,-0.384,1.0
0.0,0.0,0.0,0.0
121.779,-10.476,1.334,153.0
90.947,-7.85,0.506,1.0
0.0,0.0,0.0,0.0
0.0,0.0,0.0,0.0
34.699,-3.026,-0.37,1.0
110.888,-9.677,1.901,2.0
110.556,-9.679,1.301,4.0
97.949,-8.605,0.625,1.0
0.0,0.0,0.0,0.0
50.386,-4.456,-0.224,0.0
35.823,-3.179,-0.352,0.0
0.0,0.0,0.0,0.0
108.981,-9.707,1.375,5.0
0.0,0.0,0.0,0.0
0.0,0.0,0.0,0.0
50.43,-4.536,-0.181,4.0
37.697,-3.402,-0.338,0.0
0.0,0.0,0.0,0.0
108.613,-9.836,1.465,68.0
108.834,-9.887,0.884,2.0
0.0,0.0,0.0,0.0
50.451,-4.612,-0.136,6.0
40.14,-3.681,-0.324,0.0
109.111,-10.011,2.157,7.0
108.527,-9.987,1.562,65.0
109.069,-10.067,0.984,2.0
0.0,0.0,0.0,0.0
50.49,-4.688,-0.09,0.0
41.265,-3.844,-0.295,0.0
108.909,-10.149,2.253,10.0
108.534,-10.141,1.663,7.0
108.612,-10.177,1.081,40.0
90.89,-8.542,0.408,1.0
0.0,0.0,0.0,0.0
0.0,0.0,0.0,0.0
188.092,-17.788,4.068,36.0
0.0,0.0,0.0,0.0
100.609,-9.565,1.096,2.0
90.92,-8.669,0.495,2.0
0.0,0.0,0.0,0.0
45.072,-4.322,-0.237,0.0
149.485,-14.339,3.379,83.0
0.0,0.0,0.0,0.0
97.888,-9.439,1.163,4.0
91.011,-8.799,0.584,1.0
0.0,0.0,0.0,0.0
50.415,-4.901,-0.215,2.0
149.555,-14.544,3.527,33.0
0.0,0.0,0.0,0.0
96.567,-9.436,1.242,1.0
97.315,-9.534,0.722,1.0
0.0,0.0,0.0,0.0
50.402,-4.963,-0.165,6.0
187.63,-18.485,4.614,53.0
0.0,0.0,0.0,0.0
95.505,-9.454,1.327,4.0
95.169,-9.444,0.803,3.0
0.0,0.0,0.0,0.0
50.462,-5.032,-0.113,5.0
187.838,-18.737,4.81,52.0
0.0,0.0,0.0,0.0
94.816,-9.501,1.415,8.0
94.495,-9.491,0.895,16.0
0.0,0.0,0.0,0.0
50.522,-5.099,-0.061,0.0
188.125,-18.993,5.019,50.0
96.19,-9.732,2.051,7.0
95.001,-9.633,1.518,3.0
89.141,-9.059,0.939,5.0
0.0,0.0,0.0,0.0
0.0,0.0,0.0,0.0
188.06,-19.203,5.216,51.0
188.18,-19.255,4.213,27.0
88.467,-9.071,1.507,10.0
87.463,-8.987,1.015,4.0
0.0,0.0,0.0,0.0
0.0,0.0,0.0,0.0
188.119,-19.419,5.421,50.0
188.255,-19.471,4.418,47.0
87.179,-9.034,1.58,5.0
86.538,-8.985,1.097,22.0
86.797,-9.031,0.637,3.0
0.0,0.0,0.0,0.0
187.931,-19.602,5.621,42.0
187.847,-19.629,4.613,37.0
86.747,-9.081,1.668,4.0
86.445,-9.067,1.191,62.0
86.652,-9.106,0.732,4.0
0.0,0.0,0.0,0.0
188.258,-19.831,5.841,30.0
187.955,-19.834,4.826,31.0
86.788,-9.174,1.766,4.0
86.366,-9.146,1.287,65.0
86.358,-9.162,0.827,150.0
79.684,-8.47,0.338,3.0
188.16,-20.008,6.05,30.0
123.557,-13.161,3.314,70.0
86.96,-9.278,1.867,8.0
86.336,-9.227,1.385,48.0
86.347,-9.244,0.926,168.0
0.0,0.0,0.0,0.0
123.361,-13.236,4.107,54.0
123.471,-13.268,3.453,100.0
123.612,-13.305,2.798,12.0
86.364,-9.311,1.486,31.0
86.301,-9.319,1.024,126.0
87.408,-9.454,0.572,8.0
107.33,-11.615,3.7,24.0
123.457,-13.379,3.596,84.0
148.155,-16.079,3.525,19.0
86.353,-9.386,1.586,44.0
86.295,-9.394,1.125,69.0
87.304,-9.519,0.673,10.0
107.15,-11.688,3.819,72.0
123.428,-13.482,3.74,37.0
187.461,-20.506,4.681,43.0
86.363,-9.46,1.687,9.0
86.261,-9.462,1.226,101.0
86.301,-9.481,0.767,17.0
106.775,-11.737,3.932,49.0
107.455,-11.826,3.384,25.0
187.327,-20.643,4.899,35.0
86.681,-9.565,1.796,3.0
86.256,-9.531,1.328,74.0
86.208,-9.539,0.87,45.0
106.471,-11.787,4.048,62.0
107.351,-11.899,3.51,73.0
187.553,-20.814,5.133,25.0
86.698,-9.632,1.902,12.0
86.269,-9.597,1.432,53.0
86.244,-9.607,0.973,150.0
106.446,-11.863,4.175,53.0
107.314,-11.972,3.636,51.0
107.432,-11.999,3.068,64.0
115.883,-12.958,2.68,9.0
86.256,-9.656,1.536,55.0
86.266,-9.668,1.077,165.0
107.649,-12.072,4.353,21.0
115.983,-13.02,4.071,39.0
107.347,-12.062,3.196,81.0
107.497,-12.092,2.617,45.0
86.301,-9.718,1.641,19.0
86.261,-9.724,1.182,161.0
107.672,-12.145,4.485,18.0
115.962,-13.092,4.211,54.0
107.411,-12.138,3.328,36.0
107.448,-12.153,2.746,97.0
86.61,-9.806,1.753,3.0
86.231,-9.772,1.286,150.0
123.075,-13.957,5.277,16.0
115.919,-13.156,4.352,54.0
115.93,-13.168,3.734,80.0
107.42,-12.212,2.877,74.0
86.652,-9.859,1.859,16.0
86.24,-9.822,1.391,58.0
115.487,-13.161,5.092,27.0
115.685,-13.193,4.484,59.0
115.919,-13.229,3.875,73.0
115.873,-13.235,3.245,22.0
86.862,-9.928,1.97,44.0
86.25,-9.867,1.497,55.0
115.331,-13.203,5.227,25.0
115.58,-13.239,4.623,33.0
115.971,-13.293,4.02,46.0
115.926,-13.297,3.388,29.0
107.477,-12.337,2.568,35.0
86.292,-9.912,1.603,32.0
99.374,-11.423,4.627,60.0
115.598,-13.295,4.766,38.0
116.074,-13.357,4.165,20.0
188.293,-21.68,5.737,21.0
188.489,-21.717,4.739,34.0
0.0,0.0,0.0,0.0
99.32,-11.46,4.748,40.0
115.586,-13.341,4.909,23.0
116.484,-13.452,4.326,15.0
188.456,-21.774,5.976,21.0
188.433,-21.784,4.972,36.0
86.64,-10.021,1.825,14.0
98.784,-11.435,4.845,36.0
115.546,-13.38,5.051,22.0
116.517,-13.498,4.472,39.0
189.424,-21.953,6.24,26.0
188.212,-21.821,5.199,31.0
86.713,-10.058,1.932,14.0
98.693,-11.458,4.963,52.0
99.467,-11.55,4.471,20.0
116.546,-13.537,4.617,61.0
189.553,-22.025,6.478,31.0
188.274,-21.884,5.429,35.0
188.757,-21.948,4.44,22.0
100.835,-11.735,5.194,31.0
99.272,-11.555,4.584,59.0
116.507,-13.564,4.757,68.0
189.657,-22.085,6.712,23.0
188.397,-21.943,5.663,30.0
188.689,-21.984,4.664,29.0
100.792,-11.754,5.315,15.0
99.054,-11.552,4.695,60.0
116.44,-13.581,4.896,38.0
204.059,-23.805,7.468,17.0
188.935,-22.045,5.907,30.0
188.712,-22.023,4.896,27.0
106.682,-12.462,5.756,5.0
98.745,-11.534,4.799,38.0
116.368,-13.593,5.033,15.0
204.02,-23.834,7.715,31.0
189.741,-22.167,6.164,23.0
188.479,-22.023,5.117,43.0
106.633,-12.472,5.883,17.0
100.756,-11.783,5.02,10.0
122.989,-14.382,5.47,25.0
116.438,-13.616,4.544,8.0
189.835,-22.198,6.395,26.0
188.351,-22.026,5.34,43.0
106.584,-12.477,6.008,16.0
100.772,-11.794,5.142,37.0
99.268,-11.616,4.533,47.0
116.438,-13.624,4.682,27.0
190.075,-22.238,6.631,24.0
188.509,-22.055,5.568,25.0
91.645,-10.733,5.276,2.0
100.77,-11.798,5.262,15.0
99.025,-11.592,4.64,72.0
116.426,-13.626,4.821,56.0
190.79,-22.325,6.883,17.0
188.704,-22.079,5.798,22.0
108.953,-12.762,6.403,20.0
100.88,-11.811,5.388,2.0
98.819,-11.567,4.749,54.0
116.348,-13.615,4.956,37.0
204.039,-23.871,7.601,26.0
189.618,-22.178,6.052,25.0
90.716,-10.622,5.44,11.0
106.596,-12.476,5.821,10.0
98.772,-11.556,4.863,19.0
116.204,-13.591,5.088,7.0
204.0,-23.851,7.841,25.0
189.706,-22.173,6.277,21.0
84.557,-9.895,5.169,26.0
106.609,-12.468,5.945,17.0
100.788,-11.782,5.08,24.0
99.373,-11.611,4.467,22.0
116.51,-13.608,4.613,39.0
189.693,-22.147,6.497,21.0
84.557,-9.884,5.268,46.0
108.955,-12.728,6.204,6.0
100.795,-11.768,5.197,34.0
99.248,-11.581,4.575,62.0
116.493,-13.587,4.745,69.0
189.576,-22.101,6.71,16.0
84.551,-9.869,5.366,48.0
86.012,-10.033,4.995,6.0
100.725,-11.741,5.309,13.0
99.101,-11.544,4.683,49.0
116.498,-13.563,4.879,21.0
203.938,-23.731,7.449,15.0
84.577,-9.854,5.463,37.0
86.013,-10.014,5.093,10.0
106.682,-12.411,5.744,14.0
98.714,-11.475,4.776,46.0
123.084,-14.299,5.293,21.0
116.544,-13.531,4.387,20.0
84.561,-9.83,5.558,29.0
84.66,-9.833,5.109,4.0
106.683,-12.381,5.864,29.0
98.689,-11.444,4.883,63.0
115.507,-13.384,5.096,27.0
116.52,-13.492,4.516,50.0
84.52,-9.8,5.649,37.0
105.051,-12.169,6.455,21.0
104.902,-12.14,5.882,3.0
98.662,-11.408,4.991,59.0
99.483,-11.494,4.498,32.0
116.55,-13.455,4.643,37.0
84.484,-9.766,5.739,37.0
91.013,-10.51,5.691,25.0
105.152,-12.131,6.01,19.0
98.597,-11.363,5.095,40.0
99.35,-11.44,4.599,62.0
115.549,-13.294,4.727,33.0
84.444,-9.728,5.828,34.0
91.024,-10.475,5.79,19.0
86.041,-9.891,5.009,8.0
98.566,-11.319,5.196,35.0
99.314,-11.393,4.702,60.0
115.506,-13.239,4.846,51.0
84.426,-9.69,5.915,31.0
84.633,-9.701,5.473,15.0
86.022,-9.849,5.099,10.0
100.858,-11.536,5.423,34.0
99.327,-11.349,4.804,41.0
115.504,-13.183,4.965,40.0
84.418,-9.649,6.002,36.0
90.966,-10.384,5.976,14.0
101.065,-11.522,6.093,20.0
100.827,-11.482,5.524,45.0
105.34,-11.982,5.202,20.0
107.733,-12.24,4.741,22.0
84.412,-9.604,6.087,49.0
90.89,-10.328,6.062,19.0
101.063,-11.469,6.193,24.0
100.847,-11.43,5.625,32.0
105.156,-11.903,5.297,26.0
117.376,-13.271,5.28,22.0
84.302,-9.545,6.163,35.0
90.911,-10.279,6.153,8.0
101.21,-11.427,6.303,9.0
90.704,-10.227,5.148,4.0
104.981,-11.821,5.39,7.0
100.073,-11.255,4.597,17.0
84.183,-9.481,6.235,23.0
86.288,-9.704,5.923,11.0
98.378,-11.046,6.221,4.0
98.35,-11.027,5.676,30.0
108.02,-12.095,5.649,28.0
100.106,-11.194,4.693,36.0
84.083,-9.415,6.308,17.0
86.324,-9.651,6.008,7.0
81.485,-9.096,5.228,13.0
98.337,-10.96,5.767,45.0
108.217,-12.044,5.759,27.0
108.221,-12.027,5.175,18.0
69.095,-7.69,5.248,9.0
89.097,-9.9,6.282,2.0
81.561,-9.048,5.307,11.0
98.289,-10.886,5.853,19.0
108.615,-12.011,5.879,12.0
108.199,-11.946,5.27,51.0
68.994,-7.629,5.302,8.0
68.361,-7.545,4.881,5.0
97.812,-10.779,6.452,26.0
101.697,-11.188,6.145,6.0
90.585,-9.949,4.982,9.0
99.338,-10.893,4.924,11.0
83.997,-9.224,6.529,13.0
83.273,-9.127,6.019,11.0
97.821,-10.703,6.537,13.0
98.244,-10.731,6.02,3.0
100.247,-10.931,5.599,6.0
117.974,-12.842,5.948,28.0
68.573,-7.475,5.388,11.0
84.316,-9.174,6.164,26.0
86.354,-9.378,5.843,7.0
98.19,-10.644,6.099,13.0
100.285,-10.852,5.683,58.0
99.274,-10.723,5.086,27.0
68.463,-7.406,5.435,8.0
84.381,-9.11,6.238,6.0
86.292,-9.298,5.908,12.0
97.998,-10.539,6.165,24.0
100.387,-10.775,5.768,12.0
99.218,-10.63,5.161,33.0
68.517,-7.352,5.493,6.0
82.584,-8.843,6.169,7.0
86.209,-9.212,5.969,12.0
0.0,0.0,0.0,0.0
86.064,-9.16,5.01,8.0
99.198,-10.538,5.235,40.0
84.844,-9.027,6.866,7.0
82.966,-8.808,6.26,2.0
86.178,-9.13,6.031,11.0
81.515,-8.618,5.25,10.0
99.257,-10.473,5.85,23.0
99.153,-10.44,5.304,51.0
68.871,-7.263,5.624,3.0
97.049,-10.21,7.393,4.0
82.906,-8.704,5.86,4.0
81.474,-8.535,5.305,5.0
99.363,-10.388,5.926,6.0
99.151,-10.344,5.372,42.0
68.81,-7.189,5.666,4.0
77.88,-8.118,5.985,1.0
82.618,-8.593,5.896,11.0
101.635,-10.546,6.686,3.0
86.195,-8.924,5.199,7.0
99.201,-10.25,5.44,23.0
68.67,-7.105,5.7,6.0
83.913,-8.661,6.504,7.0
82.436,-8.489,5.937,6.0
99.244,-10.197,6.592,9.0
86.238,-8.84,5.256,9.0
99.273,-10.153,5.507,47.0
68.789,-7.045,5.753,8.0
84.233,-8.606,6.581,5.0
81.776,-8.334,5.939,8.0
99.197,-10.085,6.65,8.0
99.393,-10.082,6.117,15.0
99.289,-10.048,5.567,46.0
76.387,-7.741,6.435,4.0
98.289,-9.935,7.738,9.0
84.533,-8.523,6.189,2.0
98.736,-9.93,6.676,14.0
99.453,-9.977,6.179,27.0
99.186,-9.927,5.617,44.0
76.345,-7.651,6.474,3.0
106.601,-10.655,8.452,4.0
84.574,-8.432,6.239,6.0
0.0,0.0,0.0,0.0
99.596,-9.879,6.239,14.0
99.169,-9.813,5.668,18.0
76.26,-7.555,6.507,4.0
109.797,-10.85,8.761,4.0
84.563,-8.334,6.28,5.0
108.679,-10.682,7.462,4.0
98.983,-9.704,6.25,23.0
106.965,-10.46,6.166,4.0
69.695,-6.824,5.981,2.0
96.718,-9.443,7.765,8.0
84.709,-8.249,6.332,9.0
99.833,-9.695,6.901,19.0
99.335,-9.621,6.318,11.0
107.258,-10.362,6.231,17.0
85.367,-8.256,7.365,4.0
99.924,-9.637,8.066,4.0
84.685,-8.144,6.367,7.0
84.072,-8.063,5.848,17.0
86.409,-8.264,5.533,9.0
106.921,-10.198,6.256,20.0
96.654,-9.229,8.379,3.0
84.526,-8.047,6.858,8.0
84.602,-8.031,6.395,6.0
98.712,-9.345,6.905,27.0
86.565,-8.172,5.577,4.0
107.01,-10.075,6.302,16.0
98.563,-9.289,8.581,4.0
97.55,-9.166,7.951,7.0
98.861,-9.262,7.509,21.0
98.241,-9.177,6.906,13.0
99.746,-9.29,6.461,6.0
106.275,-9.87,6.295,52.0
96.435,-8.965,8.429,5.0
98.665,-9.144,8.075,20.0
84.725,-7.828,6.463,7.0
84.434,-7.779,5.963,5.0
100.044,-9.189,6.512,7.0
115.311,-10.559,6.867,18.0
96.514,-8.847,8.465,5.0
96.998,-8.863,7.967,7.0
84.703,-7.715,6.486,16.0
97.891,-8.889,6.941,13.0
87.111,-7.887,5.693,4.0
105.789,-9.549,6.327,11.0
99.807,-9.016,8.781,10.0
85.714,-7.718,7.062,4.0
84.698,-7.602,6.506,8.0
97.427,-8.717,6.932,9.0
87.203,-7.778,5.719,3.0
105.529,-9.384,6.335,6.0
84.26,-7.497,7.432,7.0
105.465,-9.353,8.713,5.0
84.666,-7.485,6.522,12.0
86.408,-7.614,6.166,3.0
98.1,-8.616,6.454,2.0
99.544,-8.715,5.996,3.0
96.777,-8.479,8.554,8.0
115.386,-10.075,9.552,17.0
105.771,-9.205,8.166,20.0
98.666,-8.558,7.056,15.0
97.48,-8.426,6.428,4.0
99.599,-8.581,6.013,4.0
105.69,-9.113,9.357,18.0
106.437,-9.145,8.827,27.0
86.508,-7.407,6.69,3.0
98.601,-8.414,7.064,7.0
108.645,-9.24,7.177,6.0
115.362,-9.778,6.978,5.0
106.66,-9.046,9.454,11.0
97.362,-8.227,8.084,6.0
96.934,-8.163,7.504,4.0
100.191,-8.407,7.187,6.0
98.77,-8.26,6.532,11.0
122.651,-10.222,7.427,10.0
106.26,-8.86,9.425,2.0
84.79,-7.044,7.044,19.0
106.032,-8.777,8.214,7.0
96.724,-7.977,6.942,6.0
98.981,-8.135,6.55,5.0
108.48,-8.885,6.572,5.0
105.393,-8.636,9.351,9.0
107.235,-8.753,8.911,2.0
107.947,-8.779,8.363,7.0
100.741,-8.162,7.23,3.0
105.743,-8.536,6.996,2.0
148.564,-11.951,8.999,7.0
107.904,-8.682,9.571,9.0
105.988,-8.496,8.805,10.0
108.04,-8.628,8.367,9.0
97.698,-7.772,7.007,7.0
0.0,0.0,0.0,0.0
106.426,-8.404,6.441,2.0
107.397,-8.482,9.519,2.0
106.045,-8.342,8.802,9.0
105.567,-8.273,8.167,3.0
108.538,-8.473,7.776,6.0
148.508,-11.55,9.805,9.0
149.389,-11.574,9.026,9.0
105.938,-8.208,9.378,5.0
148.035,-11.423,12.271,10.0
148.398,-11.405,11.464,13.0
108.863,-8.333,7.786,10.0
117.479,-8.958,7.741,4.0
151.125,-11.479,9.111,3.0
0.0,0.0,0.0,0.0
108.359,-8.198,8.965,6.0
107.98,-8.137,8.324,2.0
157.762,-11.841,11.256,9.0
149.194,-11.153,9.806,5.0
148.444,-11.052,8.922,5.0
108.559,-8.082,9.574,6.0
108.82,-8.067,8.981,4.0
108.558,-8.014,8.347,8.0
109.061,-8.019,7.759,7.0
202.499,-14.83,13.264,5.0
0.0,0.0,0.0,0.0
0.0,0.0,0.0,0.0
0.0,0.0,0.0,0.0
108.856,-7.871,8.343,2.0
207.013,-14.906,14.675,27.0
207.536,-14.882,13.543,8.0
148.324,-10.592,8.843,2.0
0.0,0.0,0.0,0.0
0.0,0.0,0.0,0.0
0.0,0.0,0.0,0.0
207.408,-14.612,14.643,25.0
150.546,-10.562,9.778,12.0
156.464,-10.93,9.279,3.0
0.0,0.0,0.0,0.0
0.0,0.0,0.0,0.0
109.082,-7.547,8.293,7.0
208.586,-14.367,14.655,6.0
148.293,-10.171,9.579,12.0
157.206,-10.736,9.268,14.0
0.0,0.0,0.0,0.0
0.0,0.0,0.0,0.0
0.0,0.0,0.0,0.0
148.27,-9.981,10.361,10.0
157.712,-10.571,10.127,9.0
163.202,-10.892,9.558,4.0
0.0,0.0,0.0,0.0
0.0,0.0,0.0,0.0
0.0,0.0,0.0,0.0
148.088,-9.739,10.286,4.0
165.662,-10.844,10.567,3.0
148.203,-9.659,8.616,13.0
0.0,0.0,0.0,0.0
0.0,0.0,0.0,0.0
0.0,0.0,0.0,0.0
0.0,0.0,0.0,0.0
203.2,-12.983,12.866,23.0
148.698,-9.458,8.572,5.0
0.0,0.0,0.0,0.0
0.0,0.0,0.0,0.0
0.0,0.0,0.0,0.0
0.0,0.0,0.0,0.0
0.0,0.0,0.0,0.0
147.946,-9.176,8.452,4.0
0.0,0.0,0.0,0.0
0.0,0.0,0.0,0.0
0.0,0.0,0.0,0.0
0.0,0.0,0.0,0.0
202.391,-12.293,12.599,13.0
147.902,-8.94,8.367,2.0
0.0,0.0,0.0,0.0
0.0,0.0,0.0,0.0
0.0,0.0,0.0,0.0
0.0,0.0,0.0,0.0
0.0,0.0,0.0,0.0
163.517,-9.626,9.152,4.0
0.0,0.0,0.0,0.0
0.0,0.0,0.0,0.0
0.0,0.0,0.0,0.0
0.0,0.0,0.0,0.0
211.595,-12.186,12.911,10.0
164.759,-9.44,9.115,9.0
0.0,0.0,0.0,0.0
93.041,-5.291,7.215,2.0
0.0,0.0,0.0,0.0
0.0,0.0,0.0,0.0
0.0,0.0,0.0,0.0
0.0,0.0,0.0,0.0
0.0,0.0,0.0,0.0
91.556,-5.061,7.035,3.0
92.853,-5.105,6.603,4.0
0.0,0.0,0.0,0.0
0.0,0.0,0.0,0.0
0.0,0.0,0.0,0.0
0.0,0.0,0.0,0.0
92.982,-4.992,7.075,6.0
92.822,-4.957,6.531,5.0
0.0,0.0,0.0,0.0
0.0,0.0,0.0,0.0
0.0,0.0,0.0,0.0
91.996,-4.82,7.454,4.0
83.108,-4.33,6.257,2.0
92.924,-4.814,6.463,9.0
0.0,0.0,0.0,0.0
0.0,0.0,0.0,0.0
0.0,0.0,0.0,0.0
83.778,-4.256,6.718,1.0
83.092,-4.196,6.185,5.0
92.962,-4.669,6.387,5.0
0.0,0.0,0.0,0.0
0.0,0.0,0.0,0.0
0.0,0.0,0.0,0.0
91.012,-4.48,7.218,1.0
83.167,-4.07,6.118,5.0
92.99,-4.525,6.307,4.0
0.0,0.0,0.0,0.0
0.0,0.0,0.0,0.0
0.0,0.0,0.0,0.0
91.212,-4.347,7.151,1.0
83.041,-3.933,6.032,5.0
92.986,-4.379,6.221,5.0
0.0,0.0,0.0,0.0
0.0,0.0,0.0,0.0
0.0,0.0,0.0,0.0
89.01,-4.103,6.894,3.0
93.047,-4.263,6.67,17.0
93.127,-4.24,6.14,2.0
0.0,0.0,0.0,0.0
0.0,0.0,0.0,0.0
0.0,0.0,0.0,0.0
84.747,-3.775,6.479,3.0
83.132,-3.679,5.876,4.0
92.759,-4.08,6.023,3.0
83.188,-3.636,4.915,4.0
0.0,0.0,0.0,0.0
0.0,0.0,0.0,0.0
96.303,-4.14,7.262,3.0
91.226,-3.897,6.354,7.0
93.019,-3.947,5.942,2.0
0.0,0.0,0.0,0.0
0.0,0.0,0.0,0.0
0.0,0.0,0.0,0.0
96.466,-3.999,7.171,2.0
91.288,-3.76,6.26,8.0
92.762,-3.796,5.826,22.0
0.0,0.0,0.0,0.0
0.0,0.0,0.0,0.0
0.0,0.0,0.0,0.0
90.546,-3.616,6.63,3.0
90.133,-3.576,6.08,5.0
93.982,-3.703,5.797,1.0
0.0,0.0,0.0,0.0
0.0,0.0,0.0,0.0
0.0,0.0,0.0,0.0
93.102,-3.577,6.71,7.0
90.174,-3.441,5.977,9.0
175.474,-6.649,10.618,15.0
0.0,0.0,0.0,0.0
0.0,0.0,0.0,0.0
0.0,0.0,0.0,0.0
93.002,-3.432,6.59,14.0
93.097,-3.411,6.059,6.0
175.111,-6.37,10.385,32.0
0.0,0.0,0.0,0.0
0.0,0.0,0.0,0.0
0.0,0.0,0.0,0.0
83.076,-2.941,5.784,25.0
174.336,-6.128,11.129,25.0
175.276,-6.115,10.175,29.0
0.0,0.0,0.0,0.0
0.0,0.0,0.0,0.0
148.026,-5.055,6.018,10.0
83.163,-2.822,5.684,17.0
93.135,-3.136,5.827,13.0
175.56,-5.869,9.968,7.0
0.0,0.0,0.0,0.0
0.0,0.0,0.0,0.0
148.097,-4.842,5.831,4.0
83.21,-2.702,5.579,27.0
93.184,-3.003,5.708,12.0
90.471,-2.893,5.018,22.0
0.0,0.0,0.0,0.0
0.0,0.0,0.0,0.0
0.0,0.0,0.0,0.0
83.324,-2.586,5.475,44.0
93.142,-2.868,5.581,62.0
90.467,-2.765,4.897,19.0
279.171,-8.464,13.467,10.0
148.154,-4.457,6.292,23.0
0.0,0.0,0.0,0.0
83.496,-2.474,5.372,28.0
90.565,-2.661,5.301,62.0
90.468,-2.637,4.772,14.0
0.0,0.0,0.0,0.0
129.289,-3.708,5.312,23.0
40.293,-1.146,1.422,4.0
98.732,-2.786,6.212,16.0
90.348,-2.528,5.16,42.0
93.049,-2.582,4.776,22.0
128.925,-3.549,5.858,33.0
40.238,-1.098,1.595,3.0
40.235,-1.089,1.363,46.0
92.303,-2.478,5.675,52.0
128.908,-3.43,7.176,26.0
93.057,-2.455,4.642,53.0
128.839,-3.37,5.667,38.0
40.209,-1.043,1.536,32.0
40.255,-1.035,1.305,64.0
92.268,-2.351,5.536,38.0
99.013,-2.5,5.365,69.0
93.089,-2.329,4.504,32.0
128.958,-3.197,5.479,46.0
40.212,-0.988,1.475,46.0
40.256,-0.98,1.244,59.0
92.198,-2.225,5.391,26.0
92.149,-2.203,4.854,45.0
93.007,-2.204,4.359,8.0
129.546,-3.041,5.308,33.0
40.293,-0.937,1.417,4.0
40.24,-0.927,1.182,50.0
91.567,-2.089,5.213,81.0
92.076,-2.081,4.708,54.0
128.782,-2.882,5.836,17.0
191.397,-4.241,7.542,33.0
185.629,-4.073,6.238,42.0
40.226,-0.874,1.119,49.0
91.357,-1.965,5.057,20.0
92.033,-1.96,4.559,23.0
128.858,-2.718,5.636,15.0
184.561,-3.855,6.982,21.0
40.348,-0.834,1.292,12.0
40.277,-0.824,1.056,40.0
83.772,-1.696,4.503,17.0
90.662,-1.816,4.346,55.0
128.637,-2.549,5.416,24.0
184.765,-3.624,6.689,49.0
40.304,-0.782,1.225,42.0
40.237,-0.773,0.99,52.0
127.231,-2.417,6.63,31.0
92.974,-1.747,4.304,45.0
128.716,-2.393,5.21,18.0
184.486,-3.392,6.377,36.0
40.31,-0.733,1.159,30.0
40.227,-0.723,0.923,37.0
127.104,-2.259,6.412,24.0
92.996,-1.634,4.149,49.0
185.636,-3.224,7.202,23.0
151.429,-2.601,4.98,103.0
151.463,-2.572,4.102,65.0
248.332,-4.168,5.282,42.0
90.827,-1.504,4.426,56.0
91.463,-1.497,3.924,56.0
184.975,-2.992,6.861,16.0
151.465,-2.42,4.721,103.0
183.534,-2.897,4.653,18.0
187.124,-2.92,3.657,59.0
85.799,-1.319,4.032,26.0
91.529,-1.39,3.768,47.0
183.378,-2.752,6.482,35.0
151.486,-2.244,4.457,44.0
183.398,-2.684,4.332,63.0
183.426,-2.65,3.265,74.0
85.786,-1.221,3.881,150.0
99.511,-1.399,3.923,30.0
109.49,-1.519,3.679,5.0
86.883,-1.19,2.404,9.0
86.913,-1.175,1.901,15.0
86.944,-1.159,1.395,15.0
86.01,-1.128,3.738,94.0
79.417,-1.028,2.989,5.0
79.398,-1.013,2.525,10.0
79.405,-0.999,2.055,41.0
79.43,-0.986,1.594,151.0
79.426,-0.973,1.133,255.0
79.401,-0.955,3.308,150.0
79.412,-0.941,2.845,150.0
79.429,-0.928,2.382,154.0
79.434,-0.915,1.912,167.0
79.429,-0.901,1.45,206.0
79.449,-0.888,0.989,156.0
79.42,-0.871,3.163,164.0
79.431,-0.858,2.7,151.0
79.434,-0.845,2.238,153.0
79.425,-0.832,1.768,185.0
79.433,-0.818,1.304,212.0
79.461,-0.806,0.842,163.0
79.425,-0.79,3.017,167.0
79.422,-0.778,2.554,150.0
79.436,-0.764,2.091,153.0
79.432,-0.752,1.62,172.0
79.447,-0.739,1.157,181.0
79.446,-0.726,0.695,150.0
79.433,-0.711,2.867,151.0
79.425,-0.698,2.405,150.0
79.429,-0.686,1.942,179.0
79.44,-0.674,1.472,168.0
79.447,-0.662,1.009,176.0
77.181,-0.631,0.53,10.0
79.424,-0.635,2.718,150.0
79.439,-0.623,2.255,151.0
79.429,-0.61,1.791,213.0
79.45,-0.599,1.322,167.0
79.459,-0.587,0.859,181.0
76.83,-0.557,0.384,6.0
79.431,-0.561,2.567,150.0
79.435,-0.549,2.104,170.0
79.43,-0.537,1.64,195.0
79.449,-0.526,1.169,164.0
79.478,-0.514,0.706,151.0
56.069,-0.354,0.171,11.0
79.431,-0.488,2.412,151.0
79.424,-0.477,1.947,186.0
79.439,-0.466,1.485,194.0
79.46,-0.455,1.013,158.0
76.785,-0.428,0.531,11.0
0.0,0.0,0.0,0.0
79.435,-0.419,2.256,151.0
79.433,-0.408,1.792,180.0
79.446,-0.397,1.328,170.0
79.465,-0.387,0.858,151.0
76.434,-0.362,0.379,6.0
45.231,-0.208,-0.039,20.0
79.445,-0.352,2.098,151.0
79.413,-0.342,1.635,255.0
79.454,-0.331,1.171,153.0
79.42,-0.321,0.699,150.0
55.962,-0.219,0.166,25.0
41.623,-0.157,-0.118,17.0
79.443,-0.289,1.941,151.0
79.434,-0.279,1.478,200.0
79.456,-0.269,1.014,151.0
76.593,-0.249,0.522,15.0
48.294,-0.151,0.048,8.0
39.735,-0.12,-0.192,15.0
79.451,-0.228,1.783,151.0
79.451,-0.218,1.318,156.0
79.47,-0.209,0.855,151.0
61.672,-0.154,0.297,11.0
0.0,0.0,0.0,0.0
38.698,-0.088,-0.264,4.0
79.449,-0.17,1.624,160.0
79.46,-0.161,1.16,155.0
79.421,-0.152,0.695,150.0
0.0,0.0,0.0,0.0
40.681,-0.068,-0.122,16.0
37.315,-0.058,-0.329,0.0
79.435,-0.115,1.463,163.0
79.464,-0.106,0.999,157.0
76.309,-0.093,0.513,16.0
47.633,-0.053,0.037,21.0
39.226,-0.039,-0.197,14.0
31.998,-0.028,-0.348,1.0
79.457,-0.062,1.3,152.0
79.458,-0.053,0.835,179.0
61.76,-0.035,0.288,15.0
0.0,0.0,0.0,0.0
38.385,-0.014,-0.272,5.0
30.286,-0.008,-0.391,1.0
79.463,-0.013,1.138,151.0
79.392,-0.004,0.673,43.0
0.0,0.0,0.0,0.0
40.189,0.005,-0.132,27.0
33.895,0.008,-0.31,1.0
29.106,0.009,-0.436,2.0
79.465,0.034,0.974,151.0
76.003,0.039,0.487,16.0
0.0,0.0,0.0,0.0
38.805,0.027,-0.208,14.0
31.702,0.025,-0.355,1.0
27.732,0.025,-0.473,2.0
79.453,0.078,0.808,150.0
58.391,0.062,0.253,8.0
0.0,0.0,0.0,0.0
38.15,0.047,-0.284,2.0
29.935,0.04,-0.398,1.0
26.595,0.038,-0.509,2.0
76.779,0.115,0.62,16.0
0.0,0.0,0.0,0.0
39.514,0.066,-0.142,38.0
33.335,0.058,-0.318,1.0
28.81,0.053,-0.443,2.0
25.445,0.049,-0.54,2.0
75.861,0.151,0.454,11.0
0.0,0.0,0.0,0.0
38.535,0.083,-0.22,14.0
31.124,0.069,-0.362,1.0
27.317,0.063,-0.478,1.0
24.031,0.057,-0.561,2.0
59.064,0.144,0.228,6.0
40.838,0.102,-0.08,17.0
37.946,0.098,-0.296,2.0
29.733,0.079,-0.409,2.0
26.314,0.071,-0.516,2.0
23.255,0.065,-0.592,3.0
47.975,0.136,0.085,20.0
39.096,0.114,-0.159,45.0
32.894,0.098,-0.325,1.0
28.508,0.087,-0.452,2.0
25.152,0.078,-0.546,2.0
22.397,0.071,-0.617,2.0
44.927,0.144,-0.014,22.0
38.051,0.124,-0.234,13.0
30.881,0.103,-0.37,1.0
27.001,0.091,-0.485,1.0
23.791,0.082,-0.566,2.0
21.332,0.075,-0.633,3.0
40.16,0.142,-0.097,18.0
37.719,0.136,-0.312,9.0
29.521,0.108,-0.417,2.0
26.006,0.096,-0.522,2.0
23.059,0.087,-0.598,2.0
20.674,0.079,-0.657,2.0
38.727,0.148,-0.176,35.0
32.294,0.125,-0.336,1.0
28.161,0.111,-0.458,1.0
24.73,0.099,-0.549,1.0
22.184,0.089,-0.622,1.0
19.763,0.081,-0.67,2.0
37.834,0.155,-0.252,10.0
30.366,0.126,-0.38,2.0
26.827,0.112,-0.493,1.0
23.632,0.1,-0.575,2.0
21.219,0.091,-0.64,1.0
18.928,0.082,-0.682,4.0
37.673,0.162,-0.33,1.0
29.083,0.126,-0.425,2.0
25.708,0.113,-0.526,1.0
22.799,0.101,-0.602,2.0
20.404,0.091,-0.658,1.0
18.4,0.083,-0.702,1.0
31.629,0.142,-0.344,1.0
27.698,0.125,-0.463,1.0
24.382,0.111,-0.55,1.0
21.985,0.101,-0.627,1.0
19.513,0.09,-0.671,2.0
17.293,0.08,-0.695,15.0
29.924,0.139,-0.388,2.0
26.559,0.124,-0.5,2.0
23.524,0.11,-0.58,2.0
21.033,0.099,-0.644,1.0
18.893,0.09,-0.689,5.0
17.248,0.082,-0.73,11.0
28.765,0.136,-0.433,2.0
25.429,0.121,-0.532,1.0
22.63,0.108,-0.605,2.0
20.222,0.097,-0.661,1.0
18.114,0.088,-0.698,2.0
16.766,0.081,-0.745,0.0
27.34,0.131,-0.469,1.0
24.059,0.116,-0.554,1.0
21.74,0.105,-0.627,1.0
19.217,0.093,-0.669,3.0
17.281,0.084,-0.703,25.0
15.796,0.077,-0.735,26.0
26.322,0.127,-0.506,2.0
23.315,0.113,-0.585,2.0
20.898,0.102,-0.647,1.0
18.786,0.092,-0.693,3.0
17.226,0.084,-0.737,6.0
15.699,0.077,-0.763,3.0
25.148,0.121,-0.536,1.0
22.466,0.109,-0.611,1.0
20.049,0.097,-0.662,1.0
17.64,0.086,-0.687,2.0
15.896,0.077,-0.713,1.0
15.053,0.073,-0.763,2.0
23.842,0.114,-0.559,2.0
21.476,0.103,-0.628,1.0
19.041,0.091,-0.669,3.0
17.284,0.083,-0.71,29.0
15.8,0.076,-0.742,29.0
14.709,0.07,-0.776,1.0
23.12,0.109,-0.589,2.0
20.699,0.097,-0.649,1.0
18.663,0.088,-0.694,2.0
17.184,0.081,-0.741,2.0
15.518,0.073,-0.76,2.0
14.243,0.067,-0.782,1.0
22.276,0.102,-0.614,2.0
19.854,0.091,-0.663,1.0
17.453,0.08,-0.685,4.0
15.802,0.072,-0.715,3.0
15.0,0.068,-0.766,2.0
13.846,0.063,-0.788,1.0
21.293,0.094,-0.63,1.0
18.957,0.084,-0.672,3.0
17.288,0.076,-0.714,22.0
15.785,0.069,-0.746,19.0
14.614,0.064,-0.776,1.0
13.518,0.059,-0.797,1.0
20.545,0.087,-0.65,1.0
18.532,0.078,-0.695,2.0
17.166,0.072,-0.744,1.0
15.284,0.064,-0.753,1.0
14.164,0.059,-0.781,1.0
13.191,0.055,-0.805,1.0
19.704,0.079,-0.663,2.0
17.371,0.069,-0.686,7.0
15.819,0.063,-0.717,4.0
14.93,0.059,-0.766,2.0
13.821,0.054,-0.79,1.0
12.84,0.05,-0.809,0.0
18.909,0.071,-0.674,3.0
17.27,0.064,-0.717,13.0
15.759,0.058,-0.746,10.0
14.551,0.053,-0.776,1.0
13.492,0.049,-0.798,1.0
12.536,0.045,-0.815,1.0
18.386,0.063,-0.693,1.0
17.077,0.058,-0.743,0.0
15.179,0.051,-0.749,1.0
14.128,0.047,-0.781,1.0
13.125,0.043,-0.803,1.0
12.277,0.04,-0.823,0.0
17.496,0.054,-0.694,2.0
15.848,0.048,-0.721,1.0
14.899,0.045,-0.765,1.0
13.797,0.041,-0.79,1.0
12.809,0.038,-0.809,1.0
11.98,0.035,-0.827,0.0
17.247,0.047,-0.718,1.0
15.712,0.042,-0.746,1.0
14.526,0.038,-0.774,1.0
13.436,0.035,-0.796,1.0
12.517,0.032,-0.815,1.0
11.75,0.029,-0.834,0.0
16.615,0.038,-0.724,0.0
15.184,0.034,-0.75,1.0
14.128,0.031,-0.78,1.0
13.095,0.028,-0.801,1.0
12.255,0.026,-0.822,0.0
11.526,0.024,-0.84,0.0
15.872,0.03,-0.722,10.0
14.909,0.027,-0.765,1.0
13.784,0.024,-0.788,1.0
12.806,0.022,-0.808,1.0
11.986,0.02,-0.827,0.0
11.292,0.018,-0.845,0.0
15.831,0.022,-0.75,5.0
14.51,0.019,-0.772,1.0
13.426,0.017,-0.793,1.0
12.53,0.015,-0.814,0.0
11.752,0.014,-0.833,0.0
11.045,0.012,-0.848,0.0
15.199,0.013,-0.749,1.0
14.082,0.012,-0.776,1.0
13.124,0.01,-0.8,0.0
12.273,0.008,-0.821,0.0
11.533,0.007,-0.839,0.0
10.88,0.006,-0.855,0.0
14.892,0.005,-0.762,1.0
13.751,0.004,-0.783,1.0
12.818,0.003,-0.805,0.0
12.017,0.001,-0.826,0.0
11.314,0.001,-0.844,0.0
10.662,0.0,-0.858,0.0
14.515,-0.003,-0.769,0.0
13.442,-0.003,-0.79,1.0
12.56,-0.004,-0.812,0.0
11.754,-0.004,-0.83,0.0
11.079,-0.005,-0.847,0.0
10.495,-0.006,-0.864,0.0
14.121,-0.011,-0.774,0.0
13.162,-0.011,-0.798,1.0
12.307,-0.011,-0.818,0.0
11.587,-0.012,-0.839,0.0
10.884,-0.012,-0.852,0.0
10.305,-0.012,-0.867,0.0
13.803,-0.02,-0.781,1.0
12.896,-0.019,-0.805,0.0
12.052,-0.019,-0.823,0.0
11.34,-0.019,-0.841,0.0
10.692,-0.019,-0.856,0.0
10.113,-0.018,-0.869,0.0
13.499,-0.028,-0.788,1.0
12.622,-0.027,-0.81,0.0
11.808,-0.027,-0.827,0.0
11.108,-0.026,-0.844,0.0
10.551,-0.026,-0.863,0.0
9.955,-0.025,-0.873,0.0
13.245,-0.037,-0.796,1.0
12.383,-0.036,-0.816,0.0
11.609,-0.035,-0.833,0.0
10.952,-0.034,-0.851,0.0
10.355,-0.033,-0.865,0.0
9.79,-0.032,-0.875,0.0
12.987,-0.046,-0.802,0.0
12.133,-0.044,-0.82,0.0
11.405,-0.042,-0.838,0.0
10.723,-0.041,-0.851,0.0
10.177,-0.04,-0.868,0.0
9.65,-0.039,-0.879,0.0
12.73,-0.054,-0.808,0.0
11.905,-0.052,-0.825,0.0
11.201,-0.05,-0.842,0.0
10.607,-0.049,-0.86,1.0
10.018,-0.047,-0.871,0.0
9.507,-0.046,-0.882,0.0
12.472,-0.063,-0.812,0.0
11.707,-0.061,-0.831,0.0
11.034,-0.058,-0.847,0.0
10.411,-0.056,-0.861,0.0
9.857,-0.054,-0.873,0.0
9.364,-0.053,-0.884,0.0
12.265,-0.072,-0.819,0.0
11.511,-0.069,-0.835,0.0
10.847,-0.066,-0.85,0.0
10.267,-0.064,-0.866,0.0
9.735,-0.062,-0.878,0.0
9.271,-0.06,-0.89,0.0
12.036,-0.081,-0.822,0.0
11.334,-0.078,-0.84,0.0
10.655,-0.074,-0.852,1.0
10.104,-0.072,-0.868,0.0
9.584,-0.069,-0.879,0.0
9.125,-0.067,-0.891,0.0
11.836,-0.09,-0.827,0.0
11.157,-0.086,-0.845,0.0
10.556,-0.083,-0.861,0.0
9.962,-0.079,-0.871,0.0
9.452,-0.076,-0.882,0.0
9.005,-0.074,-0.893,0.0
11.656,-0.099,-0.832,0.0
10.983,-0.095,-0.848,0.0
10.374,-0.091,-0.862,0.0
9.805,-0.087,-0.872,0.0
9.341,-0.084,-0.886,0.0
8.873,-0.081,-0.893,0.0
11.476,-0.108,-0.837,0.0
10.768,-0.103,-0.848,1.0
10.227,-0.099,-0.864,0.0
9.69,-0.095,-0.877,0.0
9.231,-0.092,-0.889,0.0
8.755,-0.088,-0.894,0.0
11.294,-0.117,-0.84,0.0
10.649,-0.112,-0.854,0.0
10.086,-0.107,-0.867,0.0
9.56,-0.103,-0.879,0.0
9.087,-0.099,-0.888,0.0
8.672,-0.096,-0.898,0.0
11.134,-0.126,-0.844,0.0
10.513,-0.121,-0.858,0.0
9.937,-0.115,-0.868,1.0
9.441,-0.111,-0.881,0.0
8.986,-0.107,-0.891,0.0
8.563,-0.103,-0.899,0.0
10.995,-0.136,-0.848,0.0
10.382,-0.129,-0.861,0.0
9.811,-0.124,-0.871,1.0
9.365,-0.119,-0.887,0.0
8.894,-0.115,-0.894,0.0
8.465,-0.111,-0.9,0.0
10.826,-0.144,-0.85,0.0
10.19,-0.137,-0.859,0.0
9.725,-0.133,-0.876,0.0
9.258,-0.128,-0.889,0.0
8.795,-0.123,-0.896,0.0
8.392,-0.118,-0.904,0.0
10.699,-0.154,-0.854,0.0
10.111,-0.147,-0.866,0.0
9.579,-0.141,-0.876,0.0
9.098,-0.135,-0.885,0.0
8.688,-0.13,-0.896,0.0
8.323,-0.126,-0.907,0.0
10.58,-0.163,-0.858,0.0
9.981,-0.156,-0.867,2.0
9.484,-0.149,-0.879,0.0
9.047,-0.144,-0.892,0.0
8.602,-0.138,-0.898,0.0
8.249,-0.134,-0.909,0.0
10.443,-0.172,-0.86,0.0
9.867,-0.164,-0.869,2.0
9.392,-0.158,-0.882,0.0
8.941,-0.152,-0.892,0.0
8.51,-0.146,-0.899,0.0
8.162,-0.141,-0.91,0.0
10.323,-0.181,-0.862,0.0
9.781,-0.174,-0.873,2.0
9.327,-0.167,-0.887,0.0
8.842,-0.16,-0.893,0.0
8.435,-0.154,-0.901,0.0
8.082,-0.149,-0.91,0.0
10.172,-0.19,-0.861,0.0
9.704,-0.183,-0.878,0.0
9.205,-0.175,-0.886,0.0
8.737,-0.168,-0.892,0.0
8.364,-0.162,-0.903,0.0
8.038,-0.157,-0.914,0.0
10.047,-0.199,-0.862,0.0
9.584,-0.192,-0.877,0.0
9.103,-0.184,-0.886,0.0
8.667,-0.176,-0.895,0.0
8.311,-0.171,-0.906,0.0
7.971,-0.165,-0.916,0.0
9.962,-0.209,-0.865,1.0
9.489,-0.201,-0.879,0.0
9.024,-0.192,-0.888,0.0
8.598,-0.185,-0.897,0.0
8.24,-0.179,-0.907,0.0
7.918,-0.173,-0.918,0.0
9.863,-0.218,-0.867,2.0
9.409,-0.21,-0.881,0.0
8.96,-0.201,-0.891,0.0
8.537,-0.194,-0.899,0.0
8.174,-0.187,-0.908,0.0
7.862,-0.181,-0.919,0.0
9.789,-0.228,-0.87,2.0
9.316,-0.219,-0.882,0.0
8.863,-0.21,-0.89,0.0
8.484,-0.202,-0.902,0.0
8.123,-0.195,-0.911,0.0
7.821,-0.19,-0.922,0.0
9.764,-0.239,-0.877,1.0
9.232,-0.228,-0.882,0.0
8.802,-0.219,-0.892,0.0
8.403,-0.21,-0.901,0.0
8.079,-0.204,-0.913,0.0
7.75,-0.197,-0.921,0.0
9.662,-0.248,-0.877,0.0
9.182,-0.237,-0.886,0.0
8.75,-0.228,-0.895,0.0
8.349,-0.219,-0.903,0.0
8.017,-0.212,-0.913,0.0
7.716,-0.206,-0.924,0.0
9.589,-0.258,-0.878,0.0
9.123,-0.247,-0.888,0.0
8.672,-0.236,-0.894,0.0
8.301,-0.228,-0.905,0.0
7.969,-0.22,-0.914,0.0
7.679,-0.214,-0.926,0.0
9.497,-0.267,-0.878,0.0
9.062,-0.256,-0.89,0.0
8.603,-0.245,-0.894,0.0
8.254,-0.237,-0.906,0.0
7.929,-0.229,-0.916,0.0
7.628,-0.222,-0.926,0.0
9.428,-0.276,-0.879,0.0
8.987,-0.265,-0.889,0.0
8.573,-0.255,-0.897,0.0
8.194,-0.245,-0.906,0.0
7.904,-0.238,-0.919,0.0
7.584,-0.23,-0.926,0.0
9.39,-0.287,-0.882,0.0
8.934,-0.275,-0.89,0.0
8.53,-0.264,-0.899,0.0
8.17,-0.255,-0.909,0.0
7.852,-0.246,-0.919,0.0
7.534,-0.238,-0.925,0.0
9.321,-0.296,-0.882,0.0
8.881,-0.284,-0.891,0.0
8.474,-0.273,-0.899,0.0
8.118,-0.263,-0.909,0.0
7.81,-0.255,-0.919,0.0
7.508,-0.247,-0.927,0.0
9.267,-0.306,-0.883,0.0
8.834,-0.294,-0.892,0.0
8.439,-0.282,-0.901,0.0
8.088,-0.272,-0.91,0.0
7.793,-0.264,-0.922,0.0
7.474,-0.255,-0.927,0.0
9.211,-0.316,-0.883,0.0
8.783,-0.303,-0.892,0.0
8.4,-0.291,-0.901,0.0
8.06,-0.281,-0.912,0.0
7.746,-0.272,-0.921,0.0
7.455,-0.264,-0.929,0.0
9.186,-0.326,-0.886,0.0
8.749,-0.313,-0.894,0.0
8.353,-0.3,-0.901,0.0
8.023,-0.29,-0.912,0.0
7.72,-0.281,-0.922,0.0
7.423,-0.272,-0.929,0.0
9.142,-0.336,-0.886,0.0
8.717,-0.323,-0.895,0.0
8.326,-0.31,-0.902,0.0
8.005,-0.3,-0.914,0.0
7.701,-0.29,-0.923,0.0
7.392,-0.28,-0.929,0.0
9.102,-0.346,-0.886,0.0
8.685,-0.332,-0.895,0.0
8.292,-0.319,-0.902,0.0
7.964,-0.308,-0.913,0.0
7.67,-0.299,-0.923,0.0
7.376,-0.289,-0.93,0.0
9.074,-0.357,-0.888,0.0
8.644,-0.342,-0.895,0.0
8.272,-0.329,-0.903,0.0
7.954,-0.318,-0.915,0.0
7.651,-0.307,-0.924,0.0
7.364,-0.298,-0.931,0.0
9.038,-0.366,-0.888,0.0
8.627,-0.352,-0.896,0.0
8.254,-0.338,-0.904,0.0
7.931,-0.327,-0.915,0.0
7.629,-0.316,-0.924,0.0
7.327,-0.305,-0.929,0.0
9.002,-0.376,-0.887,0.0
8.594,-0.361,-0.895,0.0
8.227,-0.348,-0.904,0.0
7.906,-0.336,-0.915,0.0
7.615,-0.325,-0.924,0.0
7.314,-0.314,-0.93,0.0
8.99,-0.387,-0.888,0.0
8.591,-0.372,-0.897,0.0
8.222,-0.358,-0.906,0.0
7.883,-0.345,-0.914,0.0
7.603,-0.334,-0.925,0.0
7.287,-0.322,-0.928,0.0
8.963,-0.397,-0.888,0.0
8.557,-0.381,-0.896,0.0
8.195,-0.366,-0.905,0.0
7.886,-0.355,-0.916,0.0
7.598,-0.343,-0.926,0.0
7.294,-0.331,-0.93,0.0
8.945,-0.407,-0.888,0.0
8.563,-0.392,-0.898,0.0
8.188,-0.376,-0.905,0.0
7.868,-0.363,-0.915,0.0
7.567,-0.351,-0.923,0.0
7.292,-0.34,-0.931,0.0
8.954,-0.418,-0.89,0.0
8.555,-0.402,-0.898,0.0
8.188,-0.387,-0.906,0.0
7.862,-0.373,-0.916,0.0
7.563,-0.36,-0.924,0.0
7.279,-0.349,-0.93,0.0
8.934,-0.429,-0.889,0.0
8.55,-0.412,-0.899,0.0
8.18,-0.396,-0.906,0.0
7.881,-0.383,-0.918,0.0
7.569,-0.37,-0.925,0.0
7.286,-0.358,-0.932,0.0
8.926,-0.439,-0.889,0.0
8.53,-0.421,-0.897,0.0
8.185,-0.406,-0.907,0.0
7.867,-0.392,-0.917,0.0
7.576,-0.38,-0.926,0.0
7.272,-0.366,-0.93,0.0
8.926,-0.45,-0.889,0.0
8.533,-0.432,-0.898,0.0
8.182,-0.416,-0.907,0.0
7.859,-0.401,-0.916,0.0
7.581,-0.389,-0.926,0.0
7.278,-0.375,-0.931,0.0
8.942,-0.461,-0.89,0.0
8.538,-0.442,-0.898,0.0
8.193,-0.426,-0.907,0.0
7.874,-0.411,-0.917,0.0
7.573,-0.398,-0.925,0.0
7.287,-0.384,-0.931,0.0
8.953,-0.472,-0.89,0.0
8.554,-0.453,-0.899,0.0
8.188,-0.436,-0.906,0.0
7.869,-0.42,-0.916,0.0
7.557,-0.406,-0.922,0.0
7.295,-0.393,-0.931,0.0
8.952,-0.483,-0.889,0.0
8.548,-0.463,-0.897,0.0
8.194,-0.446,-0.906,0.0
7.891,-0.431,-0.917,0.0
7.597,-0.417,-0.926,0.0
7.29,-0.402,-0.93,0.0
8.969,-0.494,-0.889,0.0
8.556,-0.473,-0.896,0.0
8.204,-0.456,-0.905,0.0
7.886,-0.44,-0.915,0.0
7.598,-0.426,-0.925,0.0
7.294,-0.41,-0.929,0.0
8.992,-0.506,-0.89,0.0
8.579,-0.484,-0.897,0.0
8.207,-0.465,-0.904,0.0
7.896,-0.449,-0.915,0.0
7.594,-0.434,-0.922,0.0
7.325,-0.42,-0.931,0.0
9.011,-0.517,-0.889,0.0
8.585,-0.495,-0.895,0.0
8.234,-0.476,-0.905,0.0
7.92,-0.46,-0.915,0.0
7.615,-0.444,-0.923,0.0
7.337,-0.429,-0.93,0.0
9.049,-0.529,-0.89,0.0
8.61,-0.506,-0.895,0.0
8.26,-0.487,-0.905,0.0
7.932,-0.469,-0.914,0.0
7.626,-0.453,-0.922,0.0
7.348,-0.438,-0.929,0.0
9.059,-0.54,-0.888,0.0
8.64,-0.517,-0.895,0.0
8.281,-0.497,-0.904,0.0
7.959,-0.48,-0.914,0.0
7.65,-0.463,-0.922,0.0
7.364,-0.447,-0.928,0.0
9.095,-0.552,-0.888,0.0
8.664,-0.528,-0.894,0.0
8.301,-0.507,-0.903,0.0
7.979,-0.489,-0.913,0.0
7.68,-0.473,-0.922,0.0
7.384,-0.456,-0.928,0.0
9.121,-0.563,-0.887,0.0
8.686,-0.538,-0.893,0.0
8.323,-0.517,-0.902,0.0
7.999,-0.499,-0.912,0.0
7.699,-0.482,-0.921,0.0
7.412,-0.466,-0.928,0.0
9.154,-0.574,-0.886,0.0
8.729,-0.55,-0.893,0.0
8.354,-0.528,-0.901,0.0
8.033,-0.509,-0.912,0.0
7.732,-0.492,-0.921,0.0
7.451,-0.476,-0.929,0.0
9.195,-0.586,-0.885,0.0
8.774,-0.561,-0.893,0.0
8.404,-0.54,-0.902,0.0
8.061,-0.519,-0.911,0.0
7.751,-0.501,-0.919,0.0
7.46,-0.484,-0.926,0.0
9.242,-0.599,-0.885,0.0
8.812,-0.573,-0.892,0.0
8.436,-0.55,-0.901,0.0
8.092,-0.529,-0.91,0.0
7.787,-0.511,-0.918,0.0
7.504,-0.494,-0.927,0.0
9.295,-0.611,-0.884,0.0
8.863,-0.585,-0.892,0.0
8.471,-0.561,-0.899,0.0
8.106,-0.538,-0.906,0.0
7.834,-0.522,-0.919,0.0
7.521,-0.502,-0.924,0.0
9.343,-0.623,-0.883,0.0
8.902,-0.595,-0.89,0.0
8.528,-0.572,-0.9,0.0
8.164,-0.549,-0.907,0.0
7.867,-0.531,-0.918,0.0
7.566,-0.512,-0.925,0.0
9.395,-0.635,-0.882,0.0
8.962,-0.608,-0.89,0.0
8.573,-0.583,-0.899,0.0
8.195,-0.559,-0.905,0.0
7.89,-0.54,-0.915,0.0
7.595,-0.521,-0.923,0.0
9.462,-0.648,-0.882,0.0
9.031,-0.62,-0.891,0.0
8.61,-0.593,-0.897,0.0
8.258,-0.571,-0.906,0.0
7.946,-0.551,-0.916,0.0
7.64,-0.531,-0.923,0.0
9.527,-0.661,-0.881,0.0
9.082,-0.632,-0.889,0.0
8.664,-0.604,-0.896,0.0
8.314,-0.582,-0.906,0.0
8.001,-0.561,-0.916,0.0
7.684,-0.541,-0.922,0.0
9.578,-0.673,-0.878,0.0
9.138,-0.643,-0.887,0.0
8.728,-0.616,-0.895,0.0
8.371,-0.592,-0.905,0.0
8.024,-0.569,-0.912,0.0
7.744,-0.551,-0.923,0.0
9.668,-0.687,-0.878,0.0
9.214,-0.656,-0.887,0.0
8.787,-0.627,-0.894,0.0
8.42,-0.603,-0.904,0.0
8.075,-0.58,-0.911,0.0
7.791,-0.561,-0.922,0.0
9.748,-0.7,-0.877,2.0
9.288,-0.669,-0.886,0.0
8.849,-0.639,-0.893,0.0
8.479,-0.613,-0.903,0.0
8.136,-0.59,-0.911,0.0
7.829,-0.569,-0.919,0.0
9.794,-0.711,-0.873,3.0
9.359,-0.681,-0.885,0.0
8.938,-0.652,-0.894,0.0
8.554,-0.625,-0.903,0.0
8.185,-0.6,-0.909,0.0
7.88,-0.579,-0.918,0.0
9.859,-0.722,-0.869,2.0
9.428,-0.692,-0.882,0.0
9.013,-0.663,-0.893,0.0
8.593,-0.634,-0.899,0.0
8.248,-0.61,-0.908,0.0
7.94,-0.589,-0.917,0.0
9.929,-0.734,-0.866,2.0
9.519,-0.706,-0.882,0.0
9.069,-0.674,-0.889,0.0
8.649,-0.644,-0.896,0.0
8.32,-0.621,-0.907,0.0
7.979,-0.597,-0.914,0.0
10.028,-0.748,-0.865,1.0
9.578,-0.716,-0.878,0.0
9.159,-0.686,-0.889,0.0
8.721,-0.655,-0.895,0.0
8.391,-0.631,-0.907,0.0
8.053,-0.607,-0.914,0.0
10.16,-0.764,-0.866,0.0
9.729,-0.733,-0.882,0.0
9.235,-0.698,-0.887,0.0
8.814,-0.667,-0.895,0.0
8.464,-0.642,-0.906,0.0
8.114,-0.617,-0.912,0.0
10.282,-0.78,-0.865,0.0
9.775,-0.743,-0.875,2.0
9.328,-0.71,-0.886,0.0
8.898,-0.679,-0.894,0.0
8.533,-0.652,-0.904,0.0
8.174,-0.626,-0.91,0.0
10.398,-0.794,-0.864,0.0
9.833,-0.752,-0.87,2.0
9.428,-0.723,-0.885,0.0
8.978,-0.69,-0.892,0.0
8.588,-0.661,-0.9,0.0
8.245,-0.636,-0.909,0.0
10.495,-0.807,-0.86,0.0
9.927,-0.765,-0.867,2.0
9.503,-0.733,-0.881,0.0
9.077,-0.702,-0.892,0.0
8.658,-0.67,-0.897,0.0
8.322,-0.645,-0.908,0.0
10.607,-0.821,-0.857,0.0
10.028,-0.777,-0.865,0.0
9.616,-0.747,-0.881,0.0
9.177,-0.713,-0.891,0.0
8.761,-0.682,-0.898,0.0
8.39,-0.655,-0.905,0.0
10.748,-0.836,-0.856,0.0
10.197,-0.795,-0.867,0.0
9.735,-0.76,-0.88,1.0
9.254,-0.723,-0.887,0.0
8.843,-0.692,-0.896,0.0
8.478,-0.665,-0.905,0.0
10.861,-0.85,-0.852,0.0
10.336,-0.81,-0.867,0.0
9.791,-0.768,-0.873,2.0
9.37,-0.736,-0.887,0.0
8.945,-0.704,-0.895,0.0
8.539,-0.673,-0.9,0.0
11.013,-0.866,-0.851,0.0
10.452,-0.823,-0.863,0.0
9.891,-0.78,-0.87,2.0
9.466,-0.747,-0.885,0.0
9.052,-0.715,-0.895,0.0
8.633,-0.683,-0.9,0.0
11.145,-0.88,-0.847,0.0
10.574,-0.836,-0.86,0.0
9.99,-0.79,-0.866,1.0
9.578,-0.759,-0.883,0.0
9.14,-0.725,-0.892,0.0
8.72,-0.693,-0.898,0.0
11.288,-0.894,-0.844,0.0
10.711,-0.85,-0.858,0.0
10.154,-0.806,-0.868,0.0
9.718,-0.772,-0.883,1.0
9.247,-0.736,-0.89,0.0
8.815,-0.702,-0.896,0.0
11.457,-0.911,-0.842,0.0
10.854,-0.864,-0.855,0.0
10.306,-0.821,-0.867,0.0
9.784,-0.78,-0.876,2.0
9.368,-0.748,-0.889,0.0
8.93,-0.714,-0.896,0.0
11.607,-0.925,-0.837,0.0
10.995,-0.877,-0.852,0.0
10.443,-0.834,-0.865,0.0
9.876,-0.789,-0.871,2.0
9.484,-0.759,-0.888,0.0
9.048,-0.725,-0.895,0.0
11.76,-0.939,-0.833,0.0
11.156,-0.892,-0.849,0.0
10.581,-0.846,-0.862,0.0
9.979,-0.799,-0.867,1.0
9.585,-0.768,-0.884,0.0
9.141,-0.733,-0.892,0.0
11.943,-0.956,-0.829,1.0
11.304,-0.905,-0.845,0.0
10.731,-0.86,-0.859,0.0
10.152,-0.814,-0.868,0.0
9.731,-0.781,-0.884,1.0
9.272,-0.744,-0.892,0.0
12.122,-0.971,-0.825,2.0
11.458,-0.918,-0.841,0.0
10.871,-0.872,-0.855,0.0
10.326,-0.829,-0.868,0.0
9.802,-0.787,-0.877,3.0
9.391,-0.755,-0.89,0.0
12.282,-0.984,-0.819,2.0
11.65,-0.934,-0.838,0.0
11.031,-0.885,-0.853,0.0
10.453,-0.839,-0.865,0.0
9.906,-0.796,-0.872,2.0
9.499,-0.763,-0.887,0.0
12.435,-0.997,-0.812,0.0
11.821,-0.948,-0.834,0.0
11.197,-0.898,-0.849,0.0
10.603,-0.851,-0.862,0.0
10.035,-0.806,-0.869,0.0
9.633,-0.774,-0.885,0.0
12.684,-1.016,-0.81,0.0
12.008,-0.962,-0.83,1.0
11.347,-0.91,-0.844,0.0
10.771,-0.864,-0.86,0.0
