X,Y,Z,Reflectivity
8.298,-0.254,-0.904,0.0
7.957,-0.246,-0.912,0.0
7.671,-0.238,-0.924,0.0
7.367,-0.231,-0.93,0.0
7.092,-0.223,-0.936,0.0
8.629,-0.273,-0.894,0.0
8.263,-0.263,-0.903,0.0
7.928,-0.254,-0.912,0.0
7.657,-0.247,-0.925,0.0
7.35,-0.239,-0.93,0.0
7.068,-0.231,-0.935,0.0
8.607,-0.283,-0.895,0.0
8.256,-0.273,-0.905,0.0
7.938,-0.264,-0.915,0.0
7.636,-0.256,-0.925,0.0
7.347,-0.248,-0.932,0.0
7.065,-0.24,-0.936,0.0
8.611,-0.293,-0.897,0.0
8.238,-0.282,-0.905,0.0
7.944,-0.274,-0.918,0.0
7.604,-0.264,-0.923,0.0
7.314,-0.255,-0.929,0.0
7.051,-0.248,-0.936,0.0
8.59,-0.303,-0.897,0.0
8.227,-0.292,-0.905,0.0
7.911,-0.282,-0.916,0.0
7.6,-0.273,-0.923,0.0
7.319,-0.264,-0.931,0.0
7.037,-0.256,-0.935,0.0
8.566,-0.312,-0.896,0.0
8.227,-0.302,-0.907,0.0
7.902,-0.292,-0.916,0.0
7.602,-0.282,-0.925,0.0
7.297,-0.272,-0.929,0.0
7.032,-0.264,-0.936,0.0
8.565,-0.323,-0.897,0.0
8.205,-0.311,-0.905,0.0
7.894,-0.301,-0.916,0.0
7.589,-0.291,-0.924,0.0
7.291,-0.281,-0.929,0.0
7.043,-0.273,-0.938,0.0
8.565,-0.333,-0.897,0.0
8.19,-0.32,-0.904,0.0
7.9,-0.31,-0.917,0.0
7.593,-0.3,-0.925,0.0
7.301,-0.29,-0.931,0.0
7.046,-0.282,-0.938,0.0
8.548,-0.342,-0.896,0.0
8.202,-0.33,-0.906,0.0
7.901,-0.32,-0.917,0.0
7.568,-0.308,-0.922,0.0
7.293,-0.298,-0.93,0.0
7.04,-0.29,-0.938,0.0
8.542,-0.352,-0.895,0.0
8.202,-0.34,-0.906,0.0
7.896,-0.329,-0.916,0.0
7.597,-0.318,-0.925,0.0
7.295,-0.307,-0.93,0.0
7.057,-0.299,-0.939,0.0
8.551,-0.362,-0.896,0.0
8.188,-0.349,-0.904,0.0
7.891,-0.338,-0.915,0.0
7.586,-0.327,-0.923,0.0
7.31,-0.316,-0.931,0.0
7.039,-0.306,-0.936,0.0
8.56,-0.373,-0.896,0.0
8.216,-0.36,-0.906,0.0
7.897,-0.347,-0.915,0.0
7.59,-0.336,-0.923,0.0
7.294,-0.324,-0.928,0.0
7.077,-0.316,-0.94,0.0
8.584,-0.384,-0.897,0.0
8.229,-0.37,-0.906,0.0
7.903,-0.357,-0.914,0.0
7.619,-0.346,-0.925,0.0
7.314,-0.333,-0.929,0.0
7.078,-0.324,-0.939,0.0
8.592,-0.394,-0.896,0.0
8.218,-0.378,-0.903,0.0
7.903,-0.366,-0.913,0.0
7.634,-0.355,-0.925,0.0
7.331,-0.342,-0.93,0.0
7.09,-0.333,-0.939,0.0
8.603,-0.404,-0.895,0.0
8.253,-0.389,-0.905,0.0
7.933,-0.376,-0.914,0.0
7.633,-0.363,-0.923,0.0
7.335,-0.351,-0.928,0.0
7.093,-0.341,-0.937,0.0
8.632,-0.415,-0.896,0.0
8.27,-0.399,-0.904,0.0
7.952,-0.385,-0.914,0.0
7.651,-0.373,-0.923,0.0
7.367,-0.36,-0.93,0.0
7.095,-0.349,-0.935,0.0
8.643,-0.425,-0.894,0.0
8.282,-0.409,-0.903,0.0
7.975,-0.395,-0.914,0.0
7.679,-0.382,-0.923,0.0
7.381,-0.369,-0.929,0.0
7.11,-0.357,-0.935,0.0
8.665,-0.435,-0.893,0.0
8.3,-0.418,-0.902,0.0
7.987,-0.404,-0.912,0.0
7.69,-0.391,-0.922,0.0
7.402,-0.378,-0.929,0.0
7.138,-0.366,-0.935,0.0
8.701,-0.446,-0.893,0.0
8.332,-0.429,-0.901,0.0
8.014,-0.414,-0.912,0.0
7.712,-0.4,-0.921,0.0
7.41,-0.386,-0.926,0.0
7.159,-0.375,-0.935,0.0
8.723,-0.456,-0.892,0.0
8.369,-0.439,-0.902,0.0
8.023,-0.423,-0.909,0.0
7.727,-0.409,-0.919,0.0
7.476,-0.397,-0.931,0.0
7.18,-0.383,-0.934,0.0
8.771,-0.468,-0.892,0.0
8.397,-0.449,-0.9,0.0
8.061,-0.433,-0.909,0.0
7.767,-0.419,-0.92,0.0
7.483,-0.405,-0.928,0.0
7.197,-0.391,-0.932,0.0
8.815,-0.479,-0.892,0.0
8.448,-0.461,-0.901,0.0
8.092,-0.443,-0.908,0.0
7.801,-0.429,-0.919,0.0
7.507,-0.414,-0.926,0.0
7.222,-0.4,-0.931,0.0
8.871,-0.491,-0.892,0.0
8.499,-0.472,-0.902,0.0
8.139,-0.453,-0.908,0.0
7.842,-0.438,-0.919,0.0
7.533,-0.423,-0.925,0.0
7.274,-0.41,-0.934,0.0
8.902,-0.501,-0.89,0.0
8.52,-0.481,-0.899,0.0
8.19,-0.464,-0.909,0.0
7.845,-0.446,-0.915,0.0
7.59,-0.433,-0.927,0.0
7.291,-0.418,-0.931,0.0
8.971,-0.513,-0.891,0.0
8.569,-0.492,-0.898,0.0
8.218,-0.473,-0.906,0.0
7.902,-0.457,-0.916,0.0
7.615,-0.442,-0.925,0.0
7.333,-0.427,-0.931,0.0
9.028,-0.524,-0.89,0.0
8.62,-0.502,-0.897,0.0
8.257,-0.483,-0.905,0.0
7.931,-0.465,-0.913,0.0
7.646,-0.45,-0.923,0.0
7.38,-0.436,-0.932,0.0
9.081,-0.536,-0.889,0.0
8.68,-0.514,-0.897,0.0
8.315,-0.494,-0.905,0.0
7.972,-0.475,-0.912,0.0
7.693,-0.46,-0.922,0.0
7.407,-0.444,-0.929,0.0
9.161,-0.548,-0.889,0.0
8.73,-0.524,-0.895,0.0
8.359,-0.503,-0.903,0.0
8.029,-0.485,-0.912,0.0
7.738,-0.469,-0.922,0.0
7.452,-0.453,-0.929,0.0
9.205,-0.559,-0.886,0.0
8.779,-0.534,-0.893,0.0
8.402,-0.513,-0.9,0.0
8.07,-0.494,-0.91,0.0
7.778,-0.478,-0.92,0.0
7.5,-0.462,-0.928,0.0
9.291,-0.571,-0.886,0.0
8.866,-0.547,-0.894,0.0
8.483,-0.525,-0.902,0.0
8.125,-0.504,-0.909,0.0
7.829,-0.487,-0.919,0.0
7.542,-0.471,-0.926,0.0
9.367,-0.583,-0.885,0.0
8.941,-0.558,-0.894,0.0
8.519,-0.533,-0.898,0.0
8.202,-0.515,-0.91,0.0
7.876,-0.496,-0.917,0.0
7.586,-0.479,-0.925,0.0
9.422,-0.594,-0.882,0.0
9.002,-0.569,-0.891,0.0
8.605,-0.545,-0.899,0.0
8.243,-0.523,-0.907,0.0
7.93,-0.505,-0.916,0.0
7.647,-0.488,-0.925,0.0
9.513,-0.606,-0.881,0.0
9.088,-0.58,-0.891,0.0
8.659,-0.554,-0.896,0.0
8.317,-0.534,-0.907,0.0
7.991,-0.514,-0.915,0.0
7.705,-0.497,-0.924,0.0
9.604,-0.618,-0.88,0.0
9.169,-0.592,-0.89,0.0
8.738,-0.565,-0.895,0.0
8.359,-0.542,-0.903,0.0
8.034,-0.522,-0.911,0.0
7.763,-0.506,-0.923,0.0
9.696,-0.63,-0.879,0.0
9.251,-0.603,-0.888,0.0
8.806,-0.575,-0.893,0.0
8.451,-0.553,-0.904,0.0
8.115,-0.533,-0.912,0.0
7.806,-0.514,-0.92,0.0
9.779,-0.642,-0.876,2.0
9.326,-0.614,-0.885,0.0
8.895,-0.587,-0.893,0.0
8.539,-0.565,-0.904,0.0
8.159,-0.541,-0.908,0.0
7.883,-0.523,-0.92,0.0
9.838,-0.652,-0.87,3.0
9.412,-0.625,-0.883,0.0
8.996,-0.598,-0.893,0.0
8.593,-0.573,-0.9,0.0
8.24,-0.551,-0.908,0.0
7.941,-0.532,-0.918,0.0
9.929,-0.663,-0.867,2.0
9.522,-0.637,-0.883,0.0
9.077,-0.609,-0.891,0.0
8.672,-0.583,-0.898,0.0
8.319,-0.56,-0.907,0.0
8.005,-0.54,-0.916,0.0
10.023,-0.675,-0.864,1.0
9.624,-0.649,-0.881,0.0
9.177,-0.62,-0.89,0.0
8.745,-0.592,-0.896,0.0
8.379,-0.568,-0.903,0.0
8.059,-0.548,-0.913,0.0
10.184,-0.69,-0.866,0.0
9.75,-0.662,-0.881,1.0
9.265,-0.63,-0.887,0.0
8.84,-0.603,-0.895,0.0
8.475,-0.579,-0.904,0.0
8.136,-0.557,-0.911,0.0
10.346,-0.706,-0.867,0.0
9.793,-0.669,-0.873,3.0
9.365,-0.641,-0.885,0.0
8.955,-0.614,-0.895,0.0
8.564,-0.589,-0.902,0.0
8.206,-0.565,-0.909,0.0
10.448,-0.717,-0.862,0.0
9.882,-0.68,-0.869,2.0
9.472,-0.652,-0.883,0.0
9.064,-0.625,-0.895,0.0
8.643,-0.597,-0.9,0.0
8.314,-0.576,-0.91,0.0
10.575,-0.73,-0.859,0.0
9.988,-0.691,-0.865,1.0
9.576,-0.663,-0.881,0.0
9.145,-0.634,-0.891,0.0
8.745,-0.608,-0.899,0.0
8.39,-0.584,-0.908,0.0
10.711,-0.743,-0.857,0.0
10.15,-0.705,-0.866,0.0
9.73,-0.677,-0.882,1.0
9.264,-0.645,-0.89,0.0
8.845,-0.617,-0.898,0.0
8.474,-0.592,-0.905,0.0
10.866,-0.757,-0.855,0.0
10.319,-0.72,-0.867,0.0
9.79,-0.684,-0.874,3.0
9.365,-0.655,-0.887,0.0
8.937,-0.626,-0.895,0.0
8.547,-0.6,-0.902,0.0
11.021,-0.771,-0.852,0.0
10.442,-0.731,-0.863,0.0
9.886,-0.693,-0.87,2.0
9.471,-0.665,-0.885,0.0
9.045,-0.636,-0.893,0.0
8.658,-0.609,-0.901,0.0
11.155,-0.783,-0.847,0.0
10.591,-0.744,-0.861,0.0
9.998,-0.703,-0.866,1.0
9.589,-0.675,-0.882,0.0
9.149,-0.645,-0.891,0.0
8.752,-0.617,-0.899,0.0
11.31,-0.796,-0.843,0.0
10.73,-0.756,-0.857,0.0
10.181,-0.718,-0.867,0.0
9.738,-0.687,-0.882,1.0
9.284,-0.656,-0.891,0.0
8.869,-0.627,-0.898,0.0
11.479,-0.809,-0.84,0.0
10.885,-0.768,-0.854,0.0
10.346,-0.731,-0.867,0.0
9.799,-0.693,-0.874,3.0
9.386,-0.664,-0.887,0.0
8.981,-0.636,-0.897,0.0
11.669,-0.824,-0.837,0.0
11.051,-0.781,-0.851,0.0
10.49,-0.742,-0.864,0.0
9.913,-0.702,-0.87,2.0
9.524,-0.674,-0.886,0.0
9.108,-0.646,-0.896,0.0
11.829,-0.836,-0.831,0.0
11.201,-0.792,-0.846,0.0
10.637,-0.753,-0.86,0.0
10.058,-0.712,-0.868,0.0
9.636,-0.683,-0.883,0.0
9.202,-0.653,-0.892,0.0
12.026,-0.85,-0.828,0.0
11.382,-0.805,-0.843,0.0
10.79,-0.764,-0.857,0.0
10.255,-0.726,-0.87,0.0
9.773,-0.692,-0.881,2.0
9.329,-0.661,-0.89,0.0
12.234,-0.865,-0.824,0.0
11.561,-0.818,-0.84,0.0
10.97,-0.776,-0.855,0.0
10.426,-0.738,-0.869,0.0
9.869,-0.699,-0.874,3.0
9.456,-0.67,-0.888,0.0
12.434,-0.878,-0.819,0.0
11.747,-0.83,-0.835,0.0
11.122,-0.786,-0.85,0.0
10.558,-0.746,-0.863,0.0
9.984,-0.706,-0.869,1.0
9.58,-0.678,-0.885,0.0
12.653,-0.893,-0.814,1.0
11.942,-0.842,-0.831,0.0
11.302,-0.797,-0.846,0.0
10.72,-0.757,-0.86,0.0
10.17,-0.718,-0.87,0.0
9.74,-0.688,-0.885,1.0
12.897,-0.908,-0.81,0.0
12.136,-0.854,-0.826,0.0
11.485,-0.809,-0.842,0.0
10.904,-0.768,-0.858,0.0
10.361,-0.73,-0.87,0.0
9.82,-0.691,-0.877,3.0
13.14,-0.923,-0.805,1.0
12.36,-0.868,-0.822,0.0
11.674,-0.82,-0.838,0.0
11.049,-0.776,-0.852,0.0
10.521,-0.738,-0.867,0.0
9.936,-0.697,-0.872,2.0
13.399,-0.938,-0.8,1.0
12.585,-0.881,-0.817,1.0
11.876,-0.831,-0.834,0.0
11.241,-0.786,-0.849,0.0
10.662,-0.746,-0.862,0.0
10.108,-0.707,-0.871,0.0
13.626,-0.95,-0.792,1.0
12.811,-0.893,-0.812,1.0
12.079,-0.842,-0.829,0.0
11.419,-0.795,-0.845,0.0
10.842,-0.755,-0.859,0.0
10.314,-0.718,-0.872,0.0
13.9,-0.965,-0.786,1.0
13.076,-0.907,-0.808,1.0
12.284,-0.852,-0.824,0.0
11.617,-0.805,-0.841,0.0
11.011,-0.763,-0.855,0.0
10.461,-0.725,-0.868,0.0
14.167,-0.978,-0.779,1.0
13.319,-0.919,-0.802,0.0
12.516,-0.863,-0.819,1.0
11.798,-0.813,-0.835,0.0
11.197,-0.771,-0.852,0.0
10.646,-0.733,-0.866,0.0
14.506,-0.996,-0.774,1.0
13.577,-0.932,-0.796,1.0
12.755,-0.875,-0.815,0.0
12.042,-0.825,-0.834,1.0
11.398,-0.78,-0.849,0.0
10.798,-0.739,-0.861,0.0
14.868,-1.015,-0.77,1.0
13.83,-0.943,-0.788,1.0
13.01,-0.886,-0.81,0.0
12.21,-0.831,-0.825,1.0
11.578,-0.787,-0.844,0.0
10.987,-0.746,-0.858,0.0
15.23,-1.032,-0.764,2.0
14.098,-0.954,-0.781,1.0
13.277,-0.898,-0.805,1.0
12.447,-0.841,-0.822,0.0
11.767,-0.794,-0.838,0.0
11.153,-0.752,-0.853,0.0
15.544,-1.045,-0.755,4.0
14.45,-0.97,-0.778,0.0
13.516,-0.907,-0.798,1.0
12.692,-0.85,-0.817,1.0
12.002,-0.803,-0.836,1.0
11.346,-0.759,-0.85,0.0
15.889,-1.06,-0.747,7.0
14.755,-0.983,-0.771,1.0
13.769,-0.916,-0.791,1.0
12.94,-0.86,-0.813,0.0
12.187,-0.808,-0.829,0.0
11.538,-0.764,-0.846,0.0
16.234,-1.073,-0.737,4.0
15.107,-0.997,-0.765,1.0
14.062,-0.926,-0.785,1.0
13.209,-0.869,-0.808,1.0
12.419,-0.816,-0.825,0.0
11.725,-0.769,-0.84,0.0
16.672,-1.091,-0.73,4.0
15.444,-1.009,-0.757,1.0
14.365,-0.937,-0.779,1.0
13.456,-0.876,-0.801,1.0
12.654,-0.823,-0.82,1.0
11.954,-0.776,-0.837,0.0
16.938,-1.096,-0.714,1.0
15.809,-1.022,-0.749,1.0
14.687,-0.948,-0.773,1.0
13.689,-0.882,-0.793,1.0
12.886,-0.828,-0.814,0.0
12.167,-0.781,-0.833,0.0
17.529,-1.122,-0.711,0.0
16.219,-1.036,-0.742,1.0
15.048,-0.96,-0.767,1.0
13.982,-0.89,-0.788,1.0
13.167,-0.836,-0.811,0.0
12.383,-0.785,-0.827,0.0
18.015,-1.139,-0.701,0.0
16.646,-1.05,-0.735,1.0
15.394,-0.969,-0.76,1.0
14.281,-0.897,-0.781,1.0
13.426,-0.842,-0.805,0.0
12.602,-0.789,-0.822,1.0
18.587,-1.16,-0.694,2.0
17.095,-1.065,-0.727,1.0
15.753,-0.979,-0.752,1.0
14.612,-0.906,-0.776,1.0
13.675,-0.846,-0.798,1.0
12.857,-0.794,-0.817,0.0
19.062,-1.173,-0.681,3.0
17.566,-1.079,-0.719,1.0
16.116,-0.987,-0.744,1.0
14.962,-0.914,-0.771,1.0
13.946,-0.85,-0.791,1.0
13.11,-0.797,-0.812,0.0
19.565,-1.187,-0.668,3.0
18.048,-1.092,-0.71,2.0
16.557,-0.999,-0.738,1.0
15.283,-0.92,-0.762,1.0
14.211,-0.853,-0.783,0.0
13.358,-0.8,-0.806,1.0
20.164,-1.204,-0.656,3.0
18.515,-1.103,-0.699,2.0
16.975,-1.008,-0.73,1.0
15.652,-0.927,-0.756,1.0
14.551,-0.859,-0.779,1.0
13.61,-0.802,-0.8,1.0
20.786,-1.221,-0.643,4.0
19.009,-1.113,-0.687,2.0
17.434,-1.018,-0.721,1.0
16.012,-0.932,-0.748,1.0
14.921,-0.866,-0.775,1.0
13.88,-0.803,-0.794,1.0
21.529,-1.242,-0.632,4.0
19.504,-1.122,-0.674,1.0
17.863,-1.024,-0.711,1.0
16.449,-0.94,-0.742,1.0
15.215,-0.867,-0.766,1.0
14.142,-0.803,-0.786,1.0
22.135,-1.254,-0.615,6.0
20.086,-1.134,-0.663,2.0
18.333,-1.031,-0.701,1.0
16.842,-0.944,-0.734,1.0
15.568,-0.87,-0.76,1.0
14.47,-0.806,-0.782,1.0
22.951,-1.274,-0.602,8.0
20.644,-1.142,-0.649,1.0
18.799,-1.036,-0.69,2.0
17.28,-0.949,-0.726,1.0
15.923,-0.872,-0.752,1.0
14.775,-0.806,-0.776,1.0
23.593,-1.283,-0.583,13.0
21.339,-1.156,-0.638,1.0
19.311,-1.042,-0.679,1.0
17.678,-0.951,-0.716,1.0
16.29,-0.873,-0.745,1.0
15.122,-0.807,-0.77,1.0
24.308,-1.293,-0.563,5.0
21.958,-1.164,-0.623,1.0
19.81,-1.046,-0.666,1.0
18.132,-0.953,-0.706,1.0
16.73,-0.876,-0.739,1.0
15.432,-0.805,-0.763,1.0
25.391,-1.32,-0.549,1.0
22.693,-1.175,-0.61,1.0
20.451,-1.055,-0.657,1.0
18.586,-0.954,-0.696,1.0
17.094,-0.874,-0.73,1.0
15.788,-0.804,-0.757,1.0
26.189,-1.329,-0.528,1.0
23.368,-1.181,-0.593,2.0
21.013,-1.057,-0.643,1.0
19.067,-0.955,-0.686,1.0
17.553,-0.875,-0.723,1.0
16.135,-0.801,-0.749,1.0
27.17,-1.344,-0.507,2.0
24.085,-1.186,-0.576,1.0
21.669,-1.062,-0.631,1.0
19.594,-0.956,-0.676,1.0
17.971,-0.872,-0.714,1.0
16.514,-0.798,-0.743,1.0
28.281,-1.362,-0.486,7.0
25.067,-1.201,-0.562,1.0
22.347,-1.065,-0.619,1.0
20.08,-0.953,-0.663,1.0
18.344,-0.866,-0.702,1.0
16.9,-0.794,-0.736,1.0
29.162,-1.364,-0.459,6.0
25.785,-1.2,-0.541,1.0
23.052,-1.067,-0.605,1.0
20.695,-0.953,-0.654,1.0
18.804,-0.861,-0.693,1.0
17.313,-0.789,-0.729,1.0
29.892,-1.357,-0.428,2.0
26.589,-1.2,-0.52,1.0
23.618,-1.06,-0.586,1.0
21.239,-0.948,-0.64,1.0
19.3,-0.856,-0.683,1.0
17.713,-0.782,-0.72,1.0
30.917,-1.359,-0.399,1.0
27.347,-1.195,-0.496,1.0
24.442,-1.062,-0.572,1.0
21.867,-0.944,-0.629,1.0
19.796,-0.85,-0.673,1.0
18.07,-0.771,-0.709,1.0
32.271,-1.371,-0.371,1.0
28.405,-1.199,-0.476,1.0
25.256,-1.06,-0.556,1.0
22.511,-0.939,-0.616,1.0
20.302,-0.841,-0.662,1.0
18.499,-0.762,-0.701,2.0
35.24,-1.445,-0.357,0.0
29.207,-1.189,-0.449,1.0
26.014,-1.052,-0.537,1.0
23.158,-0.931,-0.602,1.0
20.831,-0.832,-0.651,1.0
18.938,-0.751,-0.692,1.0
37.745,-1.489,-0.331,29.0
30.041,-1.177,-0.422,1.0
26.747,-1.041,-0.516,2.0
23.768,-0.918,-0.586,1.0
21.421,-0.821,-0.641,1.0
19.381,-0.738,-0.682,1.0
40.08,-1.519,-0.298,41.0
31.066,-1.168,-0.394,1.0
27.497,-1.027,-0.494,1.0
24.576,-0.91,-0.573,1.0
21.966,-0.808,-0.628,1.0
19.838,-0.724,-0.672,1.0
40.118,-1.456,-0.246,3.0
32.448,-1.168,-0.37,1.0
28.471,-1.017,-0.474,1.0
25.248,-0.895,-0.556,1.0
22.575,-0.794,-0.616,1.0
20.309,-0.708,-0.662,1.0
0.0,0.0,0.0,0.0
34.154,-1.174,-0.345,0.0
29.161,-0.994,-0.449,1.0
25.911,-0.876,-0.538,1.0
23.228,-0.778,-0.605,2.0
20.813,-0.691,-0.652,1.0
0.0,0.0,0.0,0.0
36.544,-1.195,-0.323,0.0
30.043,-0.973,-0.424,1.0
26.653,-0.856,-0.52,1.0
23.699,-0.754,-0.587,1.0
21.35,-0.673,-0.642,1.0
0.0,0.0,0.0,0.0
40.35,-1.252,-0.307,3.0
30.894,-0.949,-0.399,1.0
27.289,-0.83,-0.499,1.0
24.421,-0.736,-0.576,1.0
21.886,-0.653,-0.632,1.0
40.223,-1.191,-0.045,48.0
40.171,-1.177,-0.258,18.0
32.163,-0.933,-0.376,1.0
28.083,-0.806,-0.48,1.0
25.101,-0.713,-0.562,1.0
22.426,-0.63,-0.621,1.0
40.197,-1.12,0.001,69.0
40.988,-1.129,-0.215,111.0
33.302,-0.908,-0.351,1.0
28.846,-0.777,-0.459,1.0
25.667,-0.684,-0.545,1.0
23.006,-0.606,-0.61,1.0
40.301,-1.052,0.048,1.0
40.999,-1.057,-0.168,155.0
0.0,0.0,0.0,0.0
29.561,-0.744,-0.437,1.0
26.309,-0.654,-0.529,1.0
23.503,-0.577,-0.597,2.0
40.297,-0.979,0.093,40.0
40.311,-0.966,-0.119,150.0
40.264,-0.952,-0.333,12.0
30.152,-0.704,-0.412,1.0
27.032,-0.622,-0.513,6.0
23.962,-0.544,-0.582,1.0
40.304,-0.905,0.138,1.0
0.0,0.0,0.0,0.0
40.226,-0.878,-0.289,6.0
31.091,-0.669,-0.391,1.0
27.544,-0.584,-0.493,1.0
24.666,-0.515,-0.573,1.0
40.3,-0.831,0.181,0.0
56.535,-1.147,-0.045,0.0
40.206,-0.804,-0.246,2.0
32.223,-0.634,-0.372,1.0
28.31,-0.548,-0.477,1.0
25.174,-0.479,-0.558,2.0
40.258,-0.755,0.222,54.0
40.289,-0.743,0.008,70.0
40.299,-0.73,-0.206,37.0
33.596,-0.598,-0.354,1.0
28.967,-0.506,-0.459,1.0
25.737,-0.442,-0.545,1.0
40.307,-0.681,0.263,19.0
40.341,-0.668,0.048,2.0
46.34,-0.753,-0.191,2.0
34.625,-0.551,-0.331,1.0
29.492,-0.46,-0.439,1.0
26.254,-0.401,-0.531,1.0
87.756,-1.318,0.657,4.0
0.0,0.0,0.0,0.0
49.473,-0.71,-0.157,3.0
36.442,-0.511,-0.313,1.0
30.09,-0.412,-0.419,2.0
26.787,-0.358,-0.516,1.0
80.007,-1.047,0.674,24.0
79.161,-1.009,0.245,2.0
54.486,-0.676,-0.122,2.0
0.0,0.0,0.0,0.0
30.748,-0.361,-0.4,2.0
27.32,-0.312,-0.502,1.0
79.454,-0.885,0.742,156.0
77.395,-0.836,0.309,1.0
54.43,-0.569,-0.073,4.0
38.545,-0.39,-0.261,3.0
31.266,-0.306,-0.379,1.0
27.971,-0.264,-0.489,3.0
79.456,-0.728,0.812,175.0
77.136,-0.682,0.375,8.0
49.107,-0.417,-0.023,4.0
43.944,-0.358,-0.26,4.0
32.416,-0.253,-0.366,1.0
28.453,-0.213,-0.473,1.0
79.458,-0.571,0.879,185.0
76.862,-0.526,0.438,13.0
50.731,-0.331,0.017,24.0
40.69,-0.251,-0.208,3.0
33.267,-0.194,-0.348,1.0
29.102,-0.16,-0.461,3.0
79.463,-0.412,0.943,152.0
79.057,-0.384,0.514,10.0
0.0,0.0,0.0,0.0
41.181,-0.173,-0.178,7.0
33.84,-0.13,-0.328,0.0
29.462,-0.103,-0.444,2.0
79.462,-0.255,1.004,151.0
79.326,-0.227,0.576,43.0
0.0,0.0,0.0,0.0
41.063,-0.09,-0.147,19.0
37.263,-0.069,-0.334,1.0
29.823,-0.045,-0.427,2.0
79.463,-0.094,1.062,151.0
79.371,-0.067,0.634,86.0
55.808,-0.029,0.145,29.0
43.747,-0.007,-0.125,5.0
38.224,0.006,-0.315,3.0
30.252,0.015,-0.412,2.0
79.465,0.067,1.118,151.0
79.442,0.094,0.69,150.0
58.824,0.09,0.194,7.0
0.0,0.0,0.0,0.0
38.137,0.084,-0.288,6.0
30.708,0.078,-0.398,2.0
79.466,0.23,1.171,151.0
79.422,0.258,0.743,150.0
59.343,0.212,0.234,21.0
44.852,0.175,-0.068,22.0
38.141,0.162,-0.264,13.0
31.341,0.144,-0.386,1.0
59.287,0.294,0.911,19.0
48.224,0.256,0.481,42.0
55.027,0.311,0.252,13.0
0.0,0.0,0.0,0.0
38.207,0.242,-0.241,14.0
31.894,0.213,-0.374,1.0
48.098,0.339,0.768,106.0
48.08,0.354,0.508,105.0
48.048,0.371,0.248,95.0
46.757,0.377,-0.016,31.0
38.212,0.321,-0.219,37.0
32.432,0.283,-0.362,1.0
48.108,0.439,0.795,110.0
48.081,0.455,0.534,102.0
48.046,0.471,0.274,100.0
47.384,0.481,0.009,48.0
38.302,0.402,-0.2,47.0
32.972,0.357,-0.35,1.0
48.166,0.541,0.821,60.0
48.123,0.556,0.56,80.0
48.076,0.572,0.298,80.0
47.77,0.585,0.033,53.0
38.498,0.484,-0.182,51.0
33.415,0.432,-0.339,1.0
189.177,2.52,3.319,18.0
121.194,1.656,1.468,16.0
75.246,1.053,0.503,10.0
47.926,0.687,0.055,54.0
38.747,0.569,-0.165,51.0
36.942,0.554,-0.358,0.0
189.718,2.926,3.413,19.0
121.192,1.91,1.521,12.0
77.695,1.251,0.553,13.0
47.933,0.787,0.075,14.0
39.088,0.655,-0.15,43.0
36.829,0.63,-0.342,5.0
128.113,2.247,2.357,23.0
126.188,2.254,1.635,15.0
77.671,1.414,0.583,14.0
0.0,0.0,0.0,0.0
39.378,0.743,-0.136,40.0
36.753,0.706,-0.327,7.0
106.441,2.09,1.998,4.0
0.0,0.0,0.0,0.0
77.871,1.582,0.613,18.0
52.398,1.082,0.121,7.0
39.491,0.829,-0.123,41.0
36.672,0.782,-0.314,6.0
106.204,2.31,2.029,9.0
106.11,2.345,1.448,5.0
77.839,1.746,0.637,25.0
0.0,0.0,0.0,0.0
39.628,0.915,-0.111,27.0
36.591,0.857,-0.303,6.0
0.0,0.0,0.0,0.0
106.059,2.566,1.478,21.0
77.92,1.91,0.66,26.0
54.527,1.355,0.158,14.0
42.728,1.077,-0.109,4.0
36.546,0.933,-0.293,8.0
0.0,0.0,0.0,0.0
106.091,2.791,1.505,12.0
77.969,2.079,0.679,35.0
54.865,1.48,0.172,20.0
0.0,0.0,0.0,0.0
36.492,1.008,-0.284,9.0
0.0,0.0,0.0,0.0
100.652,2.859,1.449,2.0
77.875,2.238,0.694,40.0
54.819,1.593,0.183,19.0
40.603,1.193,-0.086,15.0
36.451,1.083,-0.277,12.0
0.0,0.0,0.0,0.0
100.639,3.07,1.466,3.0
77.934,2.402,0.707,29.0
55.016,1.713,0.192,28.0
42.891,1.35,-0.085,3.0
36.372,1.157,-0.271,11.0
0.0,0.0,0.0,0.0
100.754,3.284,1.481,1.0
78.004,2.569,0.718,36.0
55.051,1.83,0.199,28.0
0.0,0.0,0.0,0.0
36.281,1.23,-0.267,12.0
0.0,0.0,0.0,0.0
100.756,3.497,1.491,2.0
78.033,2.732,0.726,54.0
54.996,1.943,0.203,29.0
41.679,1.486,-0.074,19.0
36.214,1.303,-0.264,12.0
0.0,0.0,0.0,0.0
100.97,3.714,1.501,1.0
77.967,2.894,0.729,25.0
55.027,2.059,0.206,29.0
41.537,1.567,-0.072,17.0
36.185,1.377,-0.262,12.0
0.0,0.0,0.0,0.0
101.154,3.932,1.505,2.0
77.915,3.053,0.73,22.0
54.892,2.168,0.206,29.0
41.414,1.649,-0.072,17.0
36.116,1.449,-0.262,13.0
0.0,0.0,0.0,0.0
101.185,4.143,1.504,1.0
77.834,3.212,0.727,33.0
54.643,2.272,0.203,29.0
41.351,1.733,-0.074,19.0
35.978,1.519,-0.262,12.0
0.0,0.0,0.0,0.0
101.325,4.359,1.501,1.0
77.626,3.363,0.721,24.0
54.452,2.376,0.199,29.0
41.29,1.815,-0.076,19.0
35.877,1.588,-0.265,12.0
0.0,0.0,0.0,0.0
0.0,0.0,0.0,0.0
77.699,3.525,0.714,34.0
54.427,2.486,0.193,28.0
40.866,1.879,-0.08,39.0
35.765,1.656,-0.268,11.0
0.0,0.0,0.0,0.0
105.836,4.984,1.545,7.0
77.3,3.664,0.7,44.0
54.421,2.596,0.185,28.0
40.791,1.959,-0.086,50.0
35.673,1.724,-0.273,10.0
0.0,0.0,0.0,0.0
105.8,5.198,1.526,18.0
76.586,3.786,0.68,29.0
54.322,2.702,0.176,28.0
40.595,2.031,-0.093,45.0
35.608,1.792,-0.279,4.0
167.321,8.508,3.31,3.0
105.818,5.413,1.506,71.0
75.661,3.892,0.656,21.0
54.133,2.801,0.163,18.0
40.445,2.105,-0.102,47.0
35.485,1.857,-0.286,8.0
162.584,8.596,3.177,9.0
105.759,5.622,1.479,20.0
75.044,4.012,0.632,22.0
54.088,2.907,0.149,12.0
40.418,2.184,-0.112,40.0
35.422,1.925,-0.295,7.0
162.702,8.927,3.136,8.0
105.733,5.831,1.449,2.0
74.436,4.126,0.606,23.0
0.0,0.0,0.0,0.0
40.169,2.25,-0.123,6.0
35.358,1.991,-0.305,7.0
163.881,9.316,3.108,3.0
96.507,5.512,1.293,6.0
74.133,4.256,0.58,27.0
0.0,0.0,0.0,0.0
40.239,2.333,-0.137,21.0
35.291,2.056,-0.317,6.0
162.02,9.526,3.018,14.0
120.883,7.142,1.577,15.0
73.804,4.38,0.551,23.0
47.383,2.825,0.085,4.0
40.042,2.399,-0.151,8.0
0.0,0.0,0.0,0.0
33.445,2.03,0.61,3.0
33.444,2.039,0.424,31.0
33.443,2.049,0.237,31.0
33.415,2.056,0.047,18.0
33.167,2.05,-0.138,5.0
32.972,2.047,-0.321,2.0
139.61,8.743,2.492,35.0
33.449,2.103,0.41,0.0
73.552,4.646,0.49,10.0
42.99,2.727,0.042,18.0
36.11,2.3,-0.166,37.0
35.141,2.249,-0.358,0.0
139.583,9.005,2.429,90.0
80.88,5.239,0.955,5.0
58.246,3.789,0.362,14.0
44.267,2.891,0.023,13.0
36.064,2.365,-0.182,33.0
32.263,2.125,-0.344,1.0
139.663,9.272,2.364,19.0
78.205,5.212,0.886,8.0
0.0,0.0,0.0,0.0
41.956,2.818,0.001,30.0
35.647,2.404,-0.198,21.0
31.647,2.143,-0.353,1.0
114.683,7.827,1.881,15.0
77.913,5.337,0.842,6.0
0.0,0.0,0.0,0.0
41.534,2.867,-0.02,41.0
35.397,2.453,-0.216,27.0
31.046,2.16,-0.363,1.0
114.682,8.038,1.819,14.0
74.603,5.248,0.764,19.0
54.69,3.861,0.253,28.0
41.274,2.925,-0.044,46.0
34.952,2.486,-0.233,11.0
30.645,2.187,-0.376,2.0
139.623,10.038,2.134,16.0
74.334,5.363,0.718,36.0
54.121,3.918,0.219,28.0
41.152,2.989,-0.068,31.0
0.0,0.0,0.0,0.0
30.231,2.211,-0.39,1.0
31.946,2.353,0.468,63.0
66.56,4.921,0.602,172.0
53.81,3.991,0.185,11.0
38.953,2.898,-0.089,27.0
34.935,2.608,-0.276,11.0
29.855,2.236,-0.403,2.0
31.812,2.399,0.446,71.0
31.907,2.414,0.268,30.0
31.861,2.418,0.088,8.0
36.455,2.776,-0.107,3.0
31.657,2.418,-0.271,16.0
29.395,2.253,-0.417,2.0
31.724,2.447,0.424,57.0
31.872,2.466,0.246,29.0
31.793,2.468,0.066,22.0
31.653,2.465,-0.115,21.0
31.635,2.471,-0.293,34.0
25.179,1.973,-0.375,1.0
31.703,2.5,0.401,46.0
31.855,2.519,0.223,36.0
31.782,2.521,0.044,10.0
31.619,2.516,-0.137,21.0
31.691,2.529,-0.316,3.0
24.822,1.987,-0.388,4.0
31.722,2.554,0.378,47.0
31.883,2.574,0.2,27.0
31.865,2.58,0.02,17.0
35.466,2.879,-0.18,26.0
31.822,2.591,-0.341,1.0
24.233,1.979,-0.397,5.0
31.756,2.609,0.354,37.0
31.966,2.633,0.176,46.0
32.004,2.644,-0.004,43.0
32.019,2.652,-0.188,32.0
31.017,2.576,-0.357,1.0
23.475,1.955,-0.403,5.0
31.801,2.664,0.329,31.0
31.899,2.679,0.15,31.0
31.951,2.69,-0.029,45.0
31.952,2.698,-0.213,24.0
30.415,2.575,-0.375,2.0
22.724,1.929,-0.408,4.0
31.866,2.719,0.304,31.0
31.945,2.733,0.124,26.0
31.93,2.738,-0.055,42.0
31.964,2.748,-0.24,23.0
29.94,2.581,-0.394,1.0
22.219,1.92,-0.418,4.0
31.954,2.776,0.278,10.0
31.991,2.786,0.097,35.0
31.997,2.793,-0.083,25.0
32.006,2.801,-0.267,11.0
29.519,2.59,-0.414,1.0
21.713,1.909,-0.427,4.0
65.219,5.765,0.511,10.0
46.548,4.124,0.101,7.0
36.417,3.234,-0.126,34.0
13.886,1.236,-0.128,5.0
13.89,1.239,-0.207,11.0
13.892,1.242,-0.285,11.0
56.929,5.116,0.395,32.0
13.887,1.25,0.017,5.0
36.22,3.269,-0.158,4.0
13.874,1.255,-0.14,20.0
13.867,1.257,-0.219,25.0
13.844,1.258,-0.297,19.0
13.875,1.267,0.083,10.0
13.864,1.268,0.005,20.0
13.847,1.269,-0.073,25.0
13.851,1.272,-0.153,27.0
13.847,1.275,-0.232,31.0
13.819,1.275,-0.31,26.0
13.851,1.284,0.07,29.0
13.852,1.287,-0.008,32.0
13.829,1.287,-0.086,29.0
13.832,1.29,-0.166,32.0
13.822,1.292,-0.245,33.0
13.807,1.293,-0.323,32.0
13.835,1.302,0.056,36.0
13.817,1.302,-0.021,37.0
13.82,1.305,-0.1,36.0
13.807,1.307,-0.179,36.0
13.815,1.31,-0.258,36.0
13.792,1.311,-0.336,32.0
13.821,1.319,0.043,37.0
13.82,1.321,-0.035,63.0
13.803,1.322,-0.113,39.0
13.799,1.324,-0.193,37.0
13.795,1.326,-0.271,34.0
13.775,1.327,-0.35,32.0
13.803,1.335,0.029,40.0
13.808,1.338,-0.049,125.0
13.789,1.338,-0.127,93.0
13.789,1.341,-0.207,34.0
13.778,1.342,-0.285,39.0
13.762,1.343,-0.363,35.0
13.793,1.351,0.014,65.0
13.795,1.354,-0.063,136.0
13.784,1.355,-0.142,71.0
13.774,1.356,-0.221,78.0
13.776,1.359,-0.3,82.0
13.762,1.36,-0.378,37.0
13.794,1.368,0.0,60.0
13.786,1.37,-0.078,93.0
13.782,1.372,-0.156,54.0
13.776,1.373,-0.236,75.0
13.78,1.376,-0.315,94.0
13.767,1.377,-0.393,36.0
13.786,1.384,-0.014,64.0
13.776,1.385,-0.092,87.0
13.772,1.387,-0.171,53.0
13.769,1.389,-0.251,66.0
13.778,1.392,-0.329,72.0
13.76,1.393,-0.408,31.0
13.78,1.399,-0.029,40.0
13.768,1.4,-0.108,150.0
13.774,1.403,-0.186,63.0
13.767,1.404,-0.266,40.0
13.774,1.407,-0.345,46.0
13.765,1.408,-0.423,31.0
13.773,1.413,-0.044,41.0
13.774,1.416,-0.123,125.0
13.773,1.417,-0.201,111.0
13.771,1.419,-0.281,46.0
13.767,1.421,-0.36,30.0
13.763,1.423,-0.438,31.0
13.773,1.428,-0.059,49.0
13.771,1.43,-0.138,114.0
13.774,1.432,-0.217,116.0
13.768,1.433,-0.296,38.0
13.76,1.434,-0.375,28.0
13.763,1.437,-0.454,30.0
13.784,1.443,-0.075,39.0
13.777,1.444,-0.154,118.0
13.783,1.447,-0.232,93.0
13.777,1.448,-0.312,35.0
13.766,1.449,-0.391,30.0
13.761,1.45,-0.469,30.0
13.777,1.456,-0.091,38.0
13.78,1.458,-0.17,73.0
13.78,1.46,-0.248,73.0
13.78,1.462,-0.329,36.0
13.769,1.462,-0.407,35.0
13.754,1.463,-0.485,27.0
13.784,1.469,-0.107,36.0
13.786,1.471,-0.186,58.0
13.784,1.473,-0.264,39.0
13.775,1.474,-0.344,32.0
13.775,1.476,-0.423,35.0
13.722,1.472,-0.5,21.0
13.788,1.482,-0.123,34.0
13.795,1.484,-0.202,39.0
13.799,1.486,-0.281,40.0
13.764,1.484,-0.36,28.0
13.762,1.486,-0.439,32.0
13.714,1.483,-0.516,21.0
13.802,1.495,-0.14,32.0
13.801,1.497,-0.218,35.0
13.792,1.497,-0.297,38.0
13.762,1.496,-0.377,30.0
13.762,1.497,-0.456,28.0
13.695,1.492,-0.532,17.0
13.81,1.507,-0.156,26.0
13.802,1.508,-0.235,30.0
13.807,1.51,-0.314,37.0
13.789,1.51,-0.394,32.0
13.741,1.506,-0.471,24.0
13.646,1.497,-0.546,11.0
13.813,1.518,-0.173,21.0
13.801,1.518,-0.252,25.0
13.806,1.52,-0.331,31.0
13.781,1.519,-0.411,28.0
13.731,1.515,-0.488,19.0
13.531,1.495,-0.558,9.0
13.828,1.53,-0.19,18.0
13.813,1.529,-0.269,22.0
13.796,1.529,-0.347,27.0
13.763,1.527,-0.427,21.0
13.72,1.523,-0.504,19.0
13.402,1.49,-0.569,9.0
13.838,1.54,-0.207,16.0
13.812,1.538,-0.286,19.0
13.793,1.538,-0.364,20.0
13.762,1.536,-0.444,17.0
13.724,1.533,-0.521,16.0
13.319,1.489,-0.582,10.0
13.853,1.55,-0.224,15.0
13.82,1.548,-0.303,19.0
13.794,1.546,-0.381,18.0
13.757,1.543,-0.461,18.0
13.694,1.538,-0.537,15.0
13.224,1.486,-0.594,9.0
13.863,1.559,-0.241,13.0
13.824,1.556,-0.32,17.0
13.789,1.553,-0.398,18.0
13.744,1.55,-0.477,16.0
13.615,1.536,-0.55,11.0
13.088,1.478,-0.604,9.0
13.878,1.569,-0.258,10.0
13.83,1.564,-0.337,16.0
13.795,1.561,-0.415,18.0
13.741,1.556,-0.494,13.0
13.472,1.527,-0.561,8.0
13.071,1.483,-0.62,11.0
20.773,2.358,-0.413,1.0
13.837,1.572,-0.354,14.0
13.794,1.568,-0.432,19.0
13.733,1.562,-0.51,15.0
13.371,1.522,-0.574,8.0
13.043,1.486,-0.635,16.0
20.314,2.315,-0.429,1.0
13.837,1.578,-0.371,15.0
13.794,1.574,-0.449,14.0
13.718,1.566,-0.527,15.0
13.276,1.517,-0.586,10.0
12.965,1.482,-0.647,6.0
19.841,2.269,-0.443,1.0
13.844,1.584,-0.389,13.0
13.787,1.578,-0.466,13.0
13.661,1.565,-0.542,11.0
13.109,1.503,-0.595,8.0
12.743,1.462,-0.652,3.0
13.855,1.589,-0.327,6.0
13.829,1.587,-0.405,12.0
13.765,1.58,-0.482,11.0
13.515,1.553,-0.552,8.0
13.072,1.503,-0.61,9.0
12.487,1.436,-0.654,1.0
13.846,1.592,-0.343,8.0
13.842,1.593,-0.423,10.0
13.744,1.582,-0.498,8.0
13.432,1.547,-0.566,6.0
13.072,1.506,-0.626,8.0
12.281,1.416,-0.659,2.0
13.845,1.596,-0.36,6.0
13.813,1.593,-0.439,8.0
13.737,1.585,-0.515,7.0
13.326,1.538,-0.578,6.0
13.034,1.505,-0.64,6.0
10.027,1.158,-0.55,2.0
13.848,1.599,-0.377,5.0
13.802,1.594,-0.456,7.0
13.711,1.584,-0.531,7.0
13.2,1.526,-0.588,5.0
12.907,1.493,-0.65,2.0
10.027,1.16,-0.562,2.0
13.852,1.602,-0.395,7.0
13.787,1.595,-0.472,7.0
13.611,1.575,-0.544,5.0
13.074,1.514,-0.599,4.0
10.01,1.159,-0.516,3.0
10.031,1.162,-0.575,3.0
13.838,1.602,-0.411,8.0
13.776,1.595,-0.488,7.0
13.499,1.564,-0.556,5.0
13.06,1.513,-0.614,5.0
10.0,1.159,-0.528,3.0
10.073,1.168,-0.59,4.0
13.831,1.602,-0.428,8.0
13.76,1.595,-0.504,6.0
13.408,1.554,-0.569,6.0
13.055,1.513,-0.63,6.0
10.003,1.16,-0.54,3.0
10.17,1.18,-0.608,4.0
13.815,1.601,-0.444,7.0
13.732,1.592,-0.52,7.0
13.288,1.54,-0.579,6.0
13.01,1.508,-0.643,4.0
10.002,1.16,-0.552,3.0
10.277,1.192,-0.627,4.0
13.79,1.598,-0.46,7.0
13.689,1.586,-0.535,7.0
13.182,1.528,-0.591,5.0
10.005,1.16,-0.507,3.0
10.017,1.161,-0.565,2.0
10.178,1.18,-0.632,3.0
13.785,1.597,-0.476,7.0
13.571,1.572,-0.546,5.0
13.07,1.514,-0.601,5.0
10.01,1.159,-0.519,3.0
10.059,1.165,-0.579,4.0
10.187,1.18,-0.645,3.0
13.764,1.593,-0.491,8.0
13.47,1.559,-0.558,6.0
13.061,1.511,-0.616,6.0
10.022,1.16,-0.531,2.0
10.368,1.2,-0.609,4.0
10.227,1.184,-0.659,2.0
13.751,1.589,-0.506,7.0
13.394,1.548,-0.57,6.0
13.05,1.508,-0.63,7.0
12.189,1.409,-0.66,0.0
10.559,1.22,-0.632,3.0
10.341,1.195,-0.679,2.0
13.725,1.584,-0.521,8.0
13.28,1.532,-0.58,7.0
12.985,1.498,-0.642,5.0
11.987,1.383,-0.662,0.0
10.802,1.246,-0.659,2.0
10.331,1.192,-0.69,2.0
13.69,1.576,-0.535,9.0
13.156,1.514,-0.59,7.0
12.793,1.472,-0.647,3.0
11.782,1.356,-0.664,1.0
10.955,1.261,-0.681,1.0
10.184,1.172,-0.692,3.0
13.584,1.56,-0.546,10.0
13.084,1.502,-0.601,9.0
12.584,1.445,-0.65,1.0
11.62,1.334,-0.668,2.0
10.835,1.244,-0.685,0.0
10.095,1.159,-0.697,3.0
13.494,1.545,-0.557,10.0
13.067,1.496,-0.615,12.0
12.352,1.414,-0.652,1.0
11.46,1.312,-0.672,1.0
10.675,1.222,-0.687,1.0
10.005,1.145,-0.701,3.0
13.395,1.529,-0.568,8.0
13.055,1.49,-0.628,15.0
12.207,1.393,-0.657,2.0
11.277,1.286,-0.673,1.0
10.541,1.202,-0.69,1.0
9.888,1.128,-0.704,2.0
13.31,1.514,-0.578,10.0
13.044,1.483,-0.641,10.0
12.078,1.373,-0.663,1.0
11.132,1.265,-0.676,2.0
10.383,1.18,-0.69,2.0
9.765,1.109,-0.705,2.0
13.227,1.498,-0.588,10.0
12.886,1.459,-0.647,4.0
11.902,1.347,-0.666,1.0
11.036,1.249,-0.682,2.0
10.267,1.162,-0.693,2.0
9.711,1.098,-0.712,2.0
13.109,1.479,-0.596,9.0
12.664,1.428,-0.649,2.0
11.682,1.317,-0.665,1.0
10.868,1.224,-0.682,2.0
10.173,1.146,-0.697,2.0
9.653,1.087,-0.717,1.0
13.076,1.468,-0.608,11.0
12.48,1.4,-0.652,1.0
11.538,1.294,-0.669,1.0
10.757,1.206,-0.686,1.0
10.063,1.128,-0.7,2.0
9.577,1.073,-0.721,1.0
13.085,1.461,-0.621,11.0
12.289,1.371,-0.654,1.0
11.407,1.272,-0.672,1.0
10.635,1.186,-0.689,1.0
9.961,1.11,-0.702,2.0
9.47,1.055,-0.722,0.0
13.086,1.453,-0.634,11.0
12.187,1.353,-0.66,1.0
11.286,1.252,-0.676,1.0
10.525,1.167,-0.692,1.0
9.856,1.092,-0.704,2.0
9.362,1.037,-0.723,1.0
13.038,1.439,-0.644,9.0
12.024,1.326,-0.663,2.0
11.153,1.23,-0.678,1.0
10.387,1.145,-0.692,1.0
9.766,1.076,-0.707,2.0
9.283,1.022,-0.725,1.0
12.882,1.413,-0.648,4.0
11.908,1.305,-0.667,2.0
10.997,1.205,-0.679,1.0
10.269,1.124,-0.694,2.0
9.714,1.063,-0.712,1.0
9.227,1.009,-0.729,1.0
12.722,1.386,-0.651,2.0
11.741,1.278,-0.668,1.0
10.9,1.186,-0.682,1.0
10.187,1.108,-0.697,2.0
9.669,1.051,-0.717,1.0
9.171,0.996,-0.733,1.0
12.576,1.361,-0.654,2.0
11.611,1.255,-0.67,1.0
10.821,1.169,-0.686,1.0
10.096,1.09,-0.699,2.0
9.596,1.035,-0.719,1.0
9.104,0.982,-0.735,1.0
12.406,1.332,-0.655,2.0
11.535,1.238,-0.675,1.0
10.72,1.149,-0.689,1.0
10.013,1.073,-0.702,2.0
9.528,1.02,-0.722,1.0
9.039,0.967,-0.737,1.0
12.315,1.312,-0.66,3.0
11.37,1.21,-0.675,1.0
10.602,1.128,-0.689,1.0
9.942,1.057,-0.704,2.0
9.434,1.002,-0.722,1.0
8.962,0.951,-0.737,0.0
12.2,1.289,-0.663,2.0
11.268,1.189,-0.677,1.0
10.503,1.108,-0.691,2.0
9.868,1.04,-0.707,2.0
9.377,0.987,-0.725,1.0
8.896,0.936,-0.739,1.0
12.073,1.265,-0.665,2.0
11.171,1.169,-0.679,1.0
10.422,1.089,-0.693,2.0
9.782,1.022,-0.707,1.0
9.324,0.973,-0.728,1.0
8.802,0.918,-0.737,1.0
11.966,1.242,-0.668,2.0
11.092,1.15,-0.682,1.0
10.333,1.07,-0.694,2.0
9.723,1.006,-0.71,2.0
9.278,0.959,-0.73,1.0
8.779,0.907,-0.741,1.0
11.86,1.219,-0.67,1.0
11.017,1.131,-0.685,2.0
10.272,1.054,-0.697,2.0
9.686,0.993,-0.714,1.0
9.269,0.949,-0.736,1.0
8.729,0.893,-0.743,1.0
11.728,1.194,-0.67,2.0
10.924,1.111,-0.686,2.0
10.231,1.039,-0.701,2.0
9.656,0.98,-0.717,2.0
9.197,0.932,-0.736,0.0
8.509,0.861,-0.729,1.0
11.658,1.174,-0.673,2.0
10.853,1.092,-0.688,2.0
10.139,1.019,-0.701,2.0
9.638,0.967,-0.722,1.0
9.125,0.915,-0.735,1.0
8.354,0.837,-0.721,1.0
11.593,1.155,-0.676,2.0
10.795,1.075,-0.691,2.0
10.077,1.002,-0.702,2.0
9.602,0.953,-0.724,1.0
9.076,0.9,-0.736,1.0
8.199,0.812,-0.712,1.0
11.539,1.137,-0.679,1.0
10.744,1.057,-0.693,1.0
10.015,0.984,-0.703,2.0
9.557,0.938,-0.726,1.0
9.042,0.886,-0.739,1.0
8.067,0.79,-0.705,2.0
11.426,1.113,-0.678,1.0
10.685,1.039,-0.695,0.0
9.957,0.967,-0.704,2.0
9.5,0.921,-0.726,1.0
8.991,0.871,-0.739,1.0
8.024,0.776,-0.705,2.0
11.367,1.094,-0.68,1.0
10.621,1.02,-0.696,0.0
9.915,0.951,-0.705,2.0
9.459,0.906,-0.728,1.0
8.97,0.858,-0.741,1.0
7.968,0.761,-0.704,3.0
11.328,1.077,-0.683,2.0
10.549,1.001,-0.695,1.0
9.899,0.938,-0.708,2.0
9.426,0.892,-0.729,1.0
8.961,0.846,-0.744,0.0
7.95,0.75,-0.705,3.0
11.296,1.06,-0.685,2.0
10.505,0.984,-0.697,1.0
9.865,0.922,-0.71,2.0
9.404,0.878,-0.731,1.0
8.916,0.831,-0.743,0.0
7.947,0.74,-0.708,3.0
11.26,1.042,-0.687,2.0
10.473,0.968,-0.698,2.0
9.846,0.908,-0.712,2.0
9.386,0.864,-0.733,1.0
8.883,0.817,-0.744,0.0
7.919,0.727,-0.708,4.0
11.238,1.026,-0.689,1.0
10.462,0.953,-0.701,2.0
9.808,0.892,-0.712,2.0
9.366,0.85,-0.734,1.0
8.866,0.804,-0.745,1.0
7.908,0.716,-0.709,3.0
11.185,1.007,-0.689,2.0
10.444,0.938,-0.702,2.0
9.782,0.877,-0.713,1.0
9.349,0.837,-0.735,0.0
8.841,0.79,-0.745,1.0
7.909,0.705,-0.711,4.0
11.152,0.989,-0.69,2.0
10.44,0.924,-0.705,1.0
9.76,0.862,-0.714,2.0
9.328,0.822,-0.736,0.0
8.843,0.778,-0.747,1.0
7.895,0.693,-0.712,4.0
11.148,0.973,-0.692,2.0
10.384,0.905,-0.703,1.0
9.753,0.848,-0.715,2.0
9.306,0.808,-0.736,1.0
8.83,0.765,-0.748,1.0
7.908,0.684,-0.714,3.0
11.136,0.957,-0.693,2.0
10.376,0.89,-0.704,2.0
9.741,0.834,-0.716,2.0
9.296,0.794,-0.736,1.0
8.823,0.752,-0.748,1.0
7.946,0.676,-0.719,4.0
11.149,0.943,-0.695,2.0
10.379,0.876,-0.705,2.0
9.744,0.82,-0.717,1.0
9.292,0.781,-0.737,1.0
8.837,0.741,-0.75,1.0
7.975,0.667,-0.722,3.0
11.142,0.927,-0.696,2.0
10.375,0.861,-0.706,2.0
9.732,0.806,-0.717,1.0
9.3,0.768,-0.738,1.0
8.852,0.73,-0.752,0.0
7.996,0.658,-0.724,4.0
11.164,0.913,-0.698,1.0
10.388,0.847,-0.707,2.0
9.75,0.793,-0.718,1.0
9.302,0.755,-0.738,1.0
8.839,0.716,-0.751,0.0
8.009,0.647,-0.726,4.0
11.166,0.897,-0.698,1.0
10.389,0.832,-0.707,2.0
9.772,0.781,-0.72,1.0
9.318,0.743,-0.739,1.0
8.848,0.704,-0.752,1.0
8.042,0.638,-0.728,4.0
11.169,0.881,-0.697,2.0
10.427,0.82,-0.709,2.0
9.779,0.767,-0.72,1.0
9.338,0.731,-0.741,1.0
8.861,0.692,-0.752,1.0
8.057,0.627,-0.729,4.0
11.192,0.866,-0.698,2.0
10.456,0.807,-0.71,1.0
9.792,0.754,-0.72,1.0
9.367,0.719,-0.742,0.0
8.884,0.68,-0.753,1.0
8.158,0.623,-0.737,3.0
11.209,0.851,-0.697,2.0
10.459,0.792,-0.709,1.0
9.814,0.741,-0.72,1.0
9.375,0.706,-0.741,1.0
8.892,0.667,-0.752,1.0
8.241,0.617,-0.744,3.0
11.248,0.837,-0.698,2.0
10.492,0.778,-0.709,2.0
9.823,0.727,-0.719,1.0
9.403,0.694,-0.741,1.0
8.92,0.656,-0.753,1.0
8.434,0.619,-0.759,3.0
11.287,0.823,-0.698,2.0
10.547,0.766,-0.711,2.0
9.852,0.714,-0.719,2.0
9.433,0.681,-0.742,2.0
8.966,0.646,-0.755,1.0
8.48,0.609,-0.761,4.0
11.367,0.811,-0.7,2.0
10.601,0.754,-0.712,2.0
9.902,0.702,-0.72,1.0
9.446,0.668,-0.74,2.0
8.988,0.634,-0.754,2.0
8.516,0.599,-0.762,5.0
11.429,0.798,-0.701,2.0
10.646,0.741,-0.711,2.0
9.96,0.691,-0.721,1.0
9.491,0.656,-0.741,2.0
9.028,0.623,-0.755,2.0
8.571,0.589,-0.764,4.0
11.503,0.786,-0.701,2.0
10.69,0.728,-0.711,2.0
10.016,0.679,-0.721,2.0
9.529,0.644,-0.74,2.0
9.077,0.612,-0.755,2.0
8.621,0.579,-0.765,4.0
11.539,0.77,-0.699,2.0
10.782,0.717,-0.713,2.0
10.06,0.667,-0.721,2.0
9.564,0.632,-0.739,3.0
9.121,0.601,-0.755,2.0
8.668,0.569,-0.766,2.0
11.569,0.754,-0.696,2.0
10.851,0.705,-0.713,3.0
10.113,0.655,-0.72,2.0
9.602,0.619,-0.738,4.0
9.192,0.591,-0.757,2.0
8.707,0.558,-0.765,1.0
11.671,0.743,-0.697,1.0
10.917,0.692,-0.712,2.0
10.174,0.643,-0.719,2.0
9.615,0.605,-0.734,4.0
9.249,0.58,-0.757,1.0
8.739,0.546,-0.764,1.0
11.802,0.733,-0.699,1.0
10.993,0.68,-0.711,1.0
10.269,0.633,-0.721,2.0
9.653,0.592,-0.732,3.0
9.3,0.569,-0.756,1.0
8.786,0.535,-0.763,1.0
11.922,0.721,-0.699,2.0
11.092,0.669,-0.711,1.0
10.359,0.622,-0.721,2.0
9.755,0.583,-0.734,2.0
9.334,0.556,-0.753,1.0
8.829,0.524,-0.761,2.0
12.031,0.709,-0.698,2.0
11.163,0.655,-0.709,2.0
10.475,0.612,-0.723,2.0
9.876,0.575,-0.737,2.0
9.376,0.544,-0.751,1.0
8.899,0.514,-0.762,2.0
12.154,0.697,-0.698,2.0
11.273,0.644,-0.709,2.0
10.555,0.6,-0.721,3.0
9.991,0.566,-0.739,2.0
9.444,0.533,-0.75,1.0
8.959,0.503,-0.761,2.0
12.286,0.686,-0.697,2.0
11.382,0.632,-0.708,2.0
10.654,0.589,-0.721,2.0
10.089,0.556,-0.739,2.0
9.525,0.522,-0.75,2.0
9.03,0.493,-0.76,2.0
12.429,0.674,-0.696,3.0
11.515,0.622,-0.708,2.0
10.794,0.58,-0.722,2.0
10.173,0.545,-0.737,2.0
9.604,0.512,-0.749,2.0
9.136,0.485,-0.762,2.0
12.584,0.663,-0.695,2.0
11.671,0.612,-0.708,2.0
10.933,0.571,-0.723,2.0
10.263,0.533,-0.736,2.0
9.684,0.501,-0.747,2.0
9.231,0.475,-0.763,2.0
12.826,0.655,-0.698,2.0
11.815,0.601,-0.707,3.0
11.051,0.56,-0.722,3.0
10.364,0.522,-0.734,2.0
9.782,0.491,-0.746,2.0
9.335,0.466,-0.763,2.0
12.994,0.644,-0.696,4.0
11.949,0.589,-0.705,3.0
11.147,0.547,-0.718,3.0
10.487,0.512,-0.734,2.0
9.888,0.48,-0.746,2.0
9.485,0.459,-0.767,2.0
13.036,0.626,-0.687,8.0
12.144,0.58,-0.706,3.0
11.352,0.54,-0.721,2.0
10.615,0.502,-0.733,2.0
9.994,0.47,-0.745,2.0
9.667,0.453,-0.773,2.0
13.071,0.607,-0.677,11.0
12.318,0.569,-0.704,4.0
11.536,0.531,-0.722,2.0
10.731,0.491,-0.731,2.0
10.117,0.46,-0.744,2.0
9.871,0.447,-0.78,2.0
13.053,0.587,-0.663,12.0
12.492,0.558,-0.702,3.0
11.688,0.52,-0.72,2.0
10.877,0.481,-0.73,2.0
10.237,0.45,-0.743,2.0
10.087,0.441,-0.786,2.0
13.117,0.57,-0.653,10.0
12.725,0.549,-0.702,3.0
11.844,0.509,-0.718,2.0
11.014,0.47,-0.728,2.0
10.439,0.443,-0.746,2.0
10.337,0.436,-0.795,2.0
13.283,0.557,-0.648,12.0
12.901,0.537,-0.699,6.0
12.005,0.497,-0.715,2.0
11.164,0.46,-0.726,3.0
10.641,0.436,-0.749,2.0
10.61,0.432,-0.804,2.0
13.488,0.545,-0.643,11.0
13.058,0.524,-0.693,9.0
12.222,0.488,-0.714,2.0
11.331,0.45,-0.724,3.0
10.862,0.428,-0.753,3.0
10.866,0.426,-0.811,2.0
13.766,0.535,-0.641,7.0
13.068,0.505,-0.678,12.0
12.428,0.477,-0.712,2.0
11.52,0.44,-0.723,3.0
11.104,0.421,-0.757,3.0
11.105,0.419,-0.816,1.0
13.863,0.519,-0.629,5.0
13.092,0.487,-0.664,6.0
12.647,0.467,-0.709,3.0
11.716,0.43,-0.721,3.0
11.368,0.414,-0.761,3.0
11.401,0.413,-0.824,1.0
14.215,0.511,-0.628,3.0
13.393,0.478,-0.663,3.0
12.866,0.456,-0.706,4.0
11.95,0.421,-0.721,3.0
11.664,0.408,-0.766,2.0
11.691,0.406,-0.831,1.0
14.418,0.497,-0.619,1.0
13.685,0.469,-0.661,3.0
13.1,0.446,-0.702,6.0
12.188,0.412,-0.72,3.0
12.001,0.403,-0.773,2.0
12.061,0.402,-0.842,0.0
14.526,0.48,-0.605,1.0
13.954,0.458,-0.656,4.0
13.326,0.434,-0.697,5.0
12.486,0.404,-0.721,3.0
12.359,0.397,-0.78,2.0
12.411,0.396,-0.849,0.0
14.738,0.466,-0.594,6.0
14.283,0.448,-0.652,4.0
13.597,0.423,-0.693,4.0
12.745,0.394,-0.719,4.0
12.653,0.388,-0.781,3.0
12.794,0.39,-0.858,0.0
15.308,0.462,-0.597,3.0
14.517,0.435,-0.643,4.0
13.846,0.412,-0.687,4.0
13.015,0.384,-0.716,5.0
12.94,0.379,-0.781,3.0
13.029,0.379,-0.856,1.0
16.062,0.463,-0.604,5.0
14.936,0.427,-0.641,3.0
14.098,0.4,-0.68,4.0
13.316,0.375,-0.714,4.0
13.267,0.37,-0.782,1.0
13.385,0.37,-0.86,1.0
16.494,0.453,-0.597,3.0
15.224,0.414,-0.631,3.0
14.337,0.387,-0.67,5.0
13.658,0.366,-0.713,4.0
13.624,0.362,-0.783,1.0
13.4,0.353,-0.841,0.0
16.98,0.443,-0.589,3.0
15.531,0.402,-0.621,2.0
14.498,0.372,-0.657,5.0
14.038,0.357,-0.712,4.0
14.063,0.354,-0.787,0.0
13.458,0.336,-0.825,0.0
17.433,0.432,-0.579,5.0
15.913,0.391,-0.613,2.0
14.776,0.359,-0.647,5.0
14.396,0.347,-0.708,5.0
14.502,0.346,-0.79,0.0
13.622,0.322,-0.814,0.0
17.845,0.419,-0.566,5.0
16.367,0.38,-0.605,2.0
15.118,0.348,-0.639,4.0
14.802,0.337,-0.705,4.0
14.899,0.336,-0.788,0.0
13.905,0.311,-0.809,0.0
18.444,0.409,-0.556,5.0
16.809,0.369,-0.595,2.0
15.456,0.336,-0.629,3.0
15.252,0.328,-0.702,2.0
15.227,0.324,-0.782,0.0
15.44,0.326,-0.874,0.0
18.913,0.396,-0.54,9.0
17.323,0.359,-0.586,2.0
15.862,0.325,-0.62,4.0
15.69,0.318,-0.698,2.0
15.714,0.315,-0.782,1.0
15.857,0.315,-0.872,1.0
19.555,0.385,-0.527,7.0
17.843,0.347,-0.574,3.0
16.312,0.314,-0.611,3.0
16.048,0.306,-0.687,2.0
16.052,0.302,-0.772,1.0
0.0,0.0,0.0,0.0
20.161,0.372,-0.51,8.0
18.528,0.338,-0.566,4.0
16.809,0.303,-0.602,2.0
16.494,0.294,-0.679,2.0
16.224,0.286,-0.753,2.0
15.044,0.262,-0.777,1.0
21.103,0.364,-0.498,4.0
19.048,0.325,-0.55,3.0
17.455,0.294,-0.595,2.0
16.941,0.282,-0.668,5.0
17.158,0.282,-0.767,1.0
15.349,0.25,-0.767,0.0
21.841,0.352,-0.479,4.0
19.738,0.314,-0.536,3.0
17.994,0.283,-0.583,3.0
17.545,0.272,-0.662,4.0
17.766,0.272,-0.763,1.0
15.702,0.237,-0.757,0.0
26.189,0.392,-0.529,1.0
20.523,0.303,-0.521,4.0
18.617,0.271,-0.57,3.0
18.168,0.261,-0.653,5.0
18.43,0.261,-0.759,2.0
18.174,0.254,-0.844,0.0
27.016,0.374,-0.498,2.0
21.311,0.291,-0.504,4.0
19.266,0.259,-0.556,3.0
18.873,0.251,-0.645,3.0
19.124,0.25,-0.754,2.0
28.095,0.359,-0.467,1.0
22.13,0.278,-0.483,3.0
19.979,0.248,-0.54,3.0
19.551,0.239,-0.633,4.0
19.722,0.237,-0.742,2.0
29.293,0.343,-0.434,2.0
26.221,0.302,-0.525,3.0
20.809,0.236,-0.525,4.0
20.206,0.226,-0.617,3.0
20.137,0.221,-0.72,1.0
48.182,0.522,-1.974,34.0
30.34,0.324,-0.393,2.0
27.157,0.285,-0.493,1.0
21.629,0.223,-0.505,4.0
20.989,0.213,-0.602,4.0
21.18,0.212,-0.718,2.0
48.187,0.474,-1.885,7.0
32.069,0.311,-0.356,1.0
28.412,0.271,-0.464,1.0
25.556,0.239,-0.55,1.0
21.797,0.2,-0.585,4.0
20.95,0.189,-0.671,2.0
18.874,0.167,-0.702,1.0
33.627,0.294,-0.311,0.0
29.575,0.254,-0.427,2.0
26.519,0.223,-0.52,2.0
23.717,0.196,-0.591,2.0
21.677,0.175,-0.653,3.0
19.481,0.154,-0.688,1.0
37.632,0.294,-0.277,6.0
30.889,0.236,-0.387,2.0
27.493,0.206,-0.487,1.0
24.499,0.18,-0.564,1.0
22.317,0.16,-0.63,1.0
20.237,0.142,-0.676,0.0
38.382,0.266,-0.209,30.0
32.615,0.221,-0.347,1.0
28.847,0.191,-0.456,2.0
25.777,0.167,-0.544,1.0
23.155,0.146,-0.609,2.0
21.034,0.13,-0.662,1.0
39.485,0.239,-0.138,42.0
37.642,0.222,-0.327,1.0
30.021,0.173,-0.416,2.0
26.774,0.15,-0.512,2.0
23.873,0.13,-0.58,2.0
21.858,0.116,-0.645,1.0
44.572,0.232,-0.068,19.0
38.082,0.193,-0.255,13.0
31.428,0.155,-0.373,1.0
28.028,0.134,-0.48,1.0
25.087,0.116,-0.56,1.0
22.681,0.102,-0.623,2.0
47.473,0.209,0.021,32.0
39.047,0.167,-0.184,43.0
33.641,0.139,-0.332,1.0
29.254,0.117,-0.443,2.0
26.262,0.101,-0.534,2.0
23.489,0.088,-0.599,2.0
54.572,0.198,0.133,29.0
40.643,0.143,-0.11,16.0
37.969,0.128,-0.299,4.0
30.47,0.099,-0.401,2.0
27.243,0.085,-0.499,1.0
24.364,0.073,-0.572,2.0
59.2,0.172,0.264,10.0
0.0,0.0,0.0,0.0
38.72,0.103,-0.226,14.0
32.356,0.082,-0.359,1.0
28.615,0.069,-0.465,2.0
25.696,0.059,-0.551,2.0
76.253,0.168,0.495,23.0
0.0,0.0,0.0,0.0
40.004,0.078,-0.152,32.0
37.257,0.069,-0.338,1.0
29.789,0.052,-0.424,1.0
26.743,0.043,-0.519,2.0
79.443,0.122,0.679,150.0
0.0,0.0,0.0,0.0
0.0,0.0,0.0,0.0
38.394,0.046,-0.27,9.0
31.266,0.034,-0.381,1.0
27.962,0.028,-0.485,1.0
79.479,0.072,0.842,151.0
75.987,0.061,0.413,14.0
47.691,0.033,0.013,21.0
39.451,0.023,-0.196,34.0
33.382,0.016,-0.337,1.0
29.304,0.012,-0.447,2.0
79.462,0.025,1.005,151.0
79.302,0.017,0.595,24.0
0.0,0.0,0.0,0.0
0.0,0.0,0.0,0.0
38.356,-0.002,-0.308,4.0
30.637,-0.004,-0.404,1.0
79.462,-0.018,1.17,151.0
79.462,-0.025,0.761,151.0
61.682,-0.025,0.271,11.0
45.919,-0.022,-0.038,20.0
39.133,-0.022,-0.234,14.0
32.74,-0.021,-0.364,1.0
79.447,-0.06,1.335,158.0
79.466,-0.066,0.926,156.0
76.494,-0.07,0.497,16.0
51.105,-0.05,0.064,7.0
40.43,-0.043,-0.157,16.0
37.171,-0.042,-0.335,1.0
79.446,-0.098,1.501,163.0
79.47,-0.104,1.092,155.0
79.457,-0.11,0.684,150.0
61.576,-0.09,0.208,12.0
0.0,0.0,0.0,0.0
38.84,-0.062,-0.268,6.0
79.446,-0.134,1.67,151.0
79.458,-0.139,1.26,156.0
79.46,-0.144,0.85,152.0
76.341,-0.144,0.417,13.0
48.179,-0.094,0.015,10.0
40.086,-0.08,-0.193,16.0
79.446,-0.167,1.837,151.0
79.441,-0.171,1.428,180.0
79.455,-0.176,1.02,152.0
79.366,-0.18,0.601,101.0
56.074,-0.131,0.136,29.0
42.163,-0.1,-0.114,17.0
79.448,-0.196,2.004,151.0
79.441,-0.2,1.595,177.0
79.456,-0.205,1.187,155.0
79.458,-0.209,0.77,151.0
76.328,-0.204,0.346,8.0
46.144,-0.125,-0.027,10.0
79.432,-0.223,2.173,151.0
79.44,-0.227,1.763,155.0
79.448,-0.23,1.354,175.0
79.46,-0.233,0.936,151.0
79.205,-0.236,0.526,23.0
0.0,0.0,0.0,0.0
79.43,-0.247,2.34,150.0
79.448,-0.25,1.931,151.0
79.399,-0.252,1.521,255.0
79.459,-0.256,1.106,151.0
79.447,-0.258,0.696,150.0
61.384,-0.202,0.223,13.0
79.424,-0.267,2.508,150.0
79.436,-0.27,2.1,151.0
79.438,-0.272,1.69,168.0
79.446,-0.275,1.274,161.0
79.455,-0.277,0.865,151.0
76.626,-0.269,0.439,14.0
79.421,-0.285,2.676,150.0
79.423,-0.287,2.268,151.0
79.431,-0.289,1.858,155.0
79.416,-0.29,1.441,255.0
79.455,-0.292,1.033,151.0
79.419,-0.293,0.623,150.0
79.42,-0.3,2.844,150.0
79.421,-0.301,2.434,150.0
79.434,-0.302,2.025,151.0
79.394,-0.303,1.608,255.0
79.451,-0.305,1.2,157.0
79.451,-0.305,0.791,151.0
79.422,-0.311,3.011,150.0
79.419,-0.312,2.601,150.0
79.426,-0.313,2.192,151.0
79.443,-0.313,1.776,156.0
79.441,-0.314,1.368,164.0
79.457,-0.314,0.96,151.0
59.452,-0.24,2.382,89.0
79.424,-0.32,2.772,150.0
79.415,-0.32,2.362,150.0
79.439,-0.321,1.946,151.0
79.39,-0.32,1.535,255.0
79.456,-0.32,1.128,151.0
59.473,-0.244,2.508,96.0
79.417,-0.325,2.939,150.0
79.412,-0.325,2.529,150.0
79.437,-0.325,2.113,151.0
79.443,-0.324,1.705,166.0
79.448,-0.323,1.298,160.0
59.475,-0.246,2.634,102.0
79.418,-0.328,3.109,66.0
79.424,-0.327,2.699,150.0
79.427,-0.325,2.281,151.0
79.442,-0.324,1.872,151.0
79.427,-0.323,1.464,216.0
59.482,-0.246,2.76,101.0
59.462,-0.245,2.452,91.0
79.427,-0.325,2.865,150.0
79.425,-0.323,2.447,150.0
79.438,-0.322,2.038,151.0
79.411,-0.32,1.628,246.0
59.471,-0.243,2.883,110.0
59.477,-0.242,2.576,98.0
79.403,-0.321,3.029,150.0
79.416,-0.318,2.611,150.0
79.431,-0.316,2.203,151.0
79.444,-0.314,1.793,151.0
59.466,-0.239,3.007,110.0
59.47,-0.237,2.7,100.0
59.452,-0.234,2.392,90.0
79.412,-0.311,2.777,150.0
79.418,-0.307,2.368,150.0
79.44,-0.304,1.959,151.0
59.456,-0.232,3.131,108.0
59.47,-0.229,2.824,102.0
59.468,-0.227,2.517,95.0
79.419,-0.299,2.943,150.0
79.416,-0.296,2.533,150.0
79.438,-0.293,2.124,151.0
59.44,-0.223,3.255,111.0
59.464,-0.22,2.947,103.0
59.472,-0.217,2.64,98.0
79.408,-0.286,3.108,81.0
79.419,-0.281,2.697,150.0
79.424,-0.277,2.287,150.0
59.429,-0.211,3.376,105.0
59.453,-0.208,3.07,102.0
59.471,-0.205,2.763,100.0
59.449,-0.201,2.448,93.0
79.411,-0.265,2.859,150.0
79.419,-0.26,2.45,150.0
59.415,-0.198,3.497,75.0
59.439,-0.194,3.19,101.0
59.454,-0.19,2.883,101.0
59.458,-0.186,2.57,97.0
79.421,-0.244,3.021,150.0
79.415,-0.239,2.611,150.0
77.778,-0.238,4.738,39.0
59.423,-0.178,3.31,100.0
59.456,-0.174,3.004,102.0
59.467,-0.17,2.69,99.0
59.454,-0.165,2.381,90.0
79.424,-0.215,2.77,150.0
63.059,-0.174,3.968,66.0
59.407,-0.16,3.43,100.0
59.441,-0.155,3.124,108.0
59.459,-0.15,2.81,99.0
59.454,-0.146,2.502,96.0
79.416,-0.188,2.932,150.0
62.837,-0.152,4.083,39.0
77.742,-0.182,4.647,33.0
59.433,-0.134,3.244,110.0
59.455,-0.129,2.93,105.0
59.456,-0.124,2.622,95.0
79.418,-0.159,3.091,150.0
48.821,-0.1,3.269,44.0
62.896,-0.123,3.884,61.0
59.408,-0.111,3.359,101.0
59.436,-0.105,3.046,107.0
59.455,-0.1,2.738,97.0
59.444,-0.095,2.43,89.0
48.409,-0.079,3.336,54.0
63.077,-0.097,4.019,58.0
59.397,-0.086,3.475,81.0
59.42,-0.081,3.161,104.0
59.449,-0.074,2.853,105.0
59.454,-0.068,2.545,92.0
47.838,-0.057,3.391,89.0
63.785,-0.07,4.188,8.0
62.965,-0.062,3.807,61.0
59.406,-0.053,3.276,108.0
59.442,-0.047,2.969,106.0
59.457,-0.04,2.659,98.0
47.811,-0.034,3.482,103.0
48.254,-0.03,3.262,36.0
63.589,-0.032,3.965,47.0
59.39,-0.023,3.388,98.0
59.437,-0.017,3.081,105.0
59.447,-0.01,2.772,94.0
47.804,-0.01,3.572,88.0
47.919,-0.005,3.33,80.0
63.781,0.0,4.098,41.0
63.051,0.007,3.716,9.0
59.417,0.014,3.192,111.0
59.43,0.021,2.882,104.0
47.858,0.015,3.666,39.0
47.868,0.021,3.416,86.0
48.168,0.027,3.185,61.0
75.728,0.051,4.604,42.0
85.035,0.068,4.726,26.0
59.438,0.055,2.992,77.0
54.653,0.049,4.289,13.0
54.636,0.056,4.001,6.0
47.992,0.055,3.262,71.0
63.695,0.081,3.99,20.0
63.124,0.088,3.624,59.0
77.377,0.118,4.037,104.0
40.032,0.06,3.215,65.0
54.591,0.089,4.097,86.0
47.954,0.084,3.347,76.0
48.189,0.091,3.106,60.0
75.712,0.153,4.483,16.0
77.386,0.167,4.178,20.0
39.925,0.085,3.279,44.0
54.381,0.124,4.18,57.0
54.73,0.132,3.919,8.0
48.075,0.123,3.186,88.0
48.221,0.13,2.942,60.0
48.235,0.136,2.69,54.0
39.899,0.112,3.349,77.0
54.027,0.16,4.25,66.0
54.721,0.17,4.016,63.0
48.028,0.156,3.268,91.0
48.156,0.163,3.023,84.0
48.197,0.17,2.772,90.0
39.926,0.14,3.422,58.0
59.221,0.217,4.762,10.0
54.219,0.207,4.074,61.0
48.048,0.19,3.353,71.0
48.113,0.197,3.104,105.0
48.17,0.205,2.854,101.0
54.694,0.232,4.782,13.0
39.941,0.175,3.28,70.0
59.254,0.27,4.554,39.0
48.33,0.227,3.455,53.0
48.103,0.234,3.185,108.0
48.161,0.241,2.935,105.0
40.291,0.202,3.591,30.0
39.934,0.206,3.348,39.0
