X,Y,Z,Reflectivity
9.971,1.241,0.157,150.0
9.973,1.241,0.099,150.0
9.971,1.242,0.041,118.0
9.974,1.243,-0.015,19.0
9.971,1.243,-0.072,57.0
9.97,1.245,0.203,96.0
9.974,1.246,0.146,150.0
9.977,1.247,0.089,150.0
9.971,1.247,0.031,105.0
9.978,1.248,-0.025,64.0
9.975,1.248,-0.083,69.0
9.971,1.25,0.192,107.0
9.975,1.251,0.135,150.0
9.977,1.251,0.078,150.0
9.973,1.251,0.02,110.0
9.977,1.252,-0.037,108.0
9.967,1.252,-0.094,63.0
9.974,1.254,0.181,100.0
9.977,1.255,0.124,150.0
9.976,1.255,0.067,150.0
9.972,1.255,0.009,93.0
9.974,1.256,-0.048,103.0
9.969,1.256,-0.105,62.0
9.971,1.258,0.17,88.0
9.976,1.259,0.113,144.0
9.973,1.259,0.056,150.0
9.971,1.259,-0.002,93.0
9.97,1.259,-0.059,107.0
9.968,1.259,-0.116,66.0
9.977,1.262,0.159,71.0
9.977,1.262,0.102,138.0
9.974,1.262,0.044,150.0
9.971,1.262,-0.013,85.0
9.971,1.262,-0.07,100.0
9.972,1.263,-0.127,60.0
9.977,1.265,0.148,65.0
9.975,1.264,0.09,134.0
9.974,1.265,0.033,127.0
9.963,1.264,-0.024,79.0
9.977,1.266,-0.081,95.0
9.976,1.266,-0.138,51.0
9.98,1.267,0.136,69.0
9.979,1.267,0.079,137.0
9.969,1.266,0.022,106.0
9.966,1.266,-0.035,82.0
9.978,1.268,-0.092,88.0
9.976,1.268,-0.15,48.0
9.981,1.269,0.125,63.0
9.985,1.27,0.068,144.0
9.976,1.269,0.011,84.0
9.966,1.268,-0.046,69.0
9.97,1.269,-0.104,78.0
9.972,1.269,-0.161,48.0
9.979,1.27,0.114,64.0
9.976,1.27,0.057,129.0
9.978,1.27,0.0,116.0
9.972,1.27,-0.058,74.0
9.977,1.271,-0.115,82.0
9.978,1.271,-0.172,45.0
9.984,1.272,0.103,68.0
9.984,1.272,0.045,145.0
9.974,1.271,-0.011,124.0
9.974,1.271,-0.069,78.0
9.979,1.272,-0.126,75.0
9.98,1.272,-0.184,44.0
9.982,1.272,0.091,68.0
9.988,1.273,0.034,139.0
9.975,1.271,-0.022,126.0
9.965,1.27,-0.081,72.0
9.978,1.272,-0.138,84.0
9.973,1.271,-0.195,44.0
9.982,1.272,0.08,67.0
9.981,1.272,0.022,132.0
9.976,1.271,-0.034,135.0
9.969,1.271,-0.092,75.0
9.974,1.271,-0.149,81.0
9.972,1.271,-0.206,44.0
9.975,1.271,0.068,63.0
9.982,1.272,0.011,91.0
9.975,1.271,-0.045,141.0
9.969,1.27,-0.103,71.0
9.973,1.27,-0.16,92.0
9.974,1.271,-0.218,48.0
9.979,1.271,0.057,66.0
9.98,1.27,0.0,132.0
9.97,1.269,-0.056,125.0
9.962,1.268,-0.114,79.0
9.977,1.27,-0.172,89.0
9.975,1.27,-0.229,54.0
9.981,1.269,0.046,70.0
9.985,1.27,-0.01,143.0
9.976,1.268,-0.068,129.0
9.968,1.267,-0.126,92.0
9.972,1.268,-0.183,101.0
9.974,1.268,-0.24,65.0
9.975,1.267,0.035,71.0
9.977,1.267,-0.022,140.0
9.975,1.266,-0.079,150.0
9.967,1.265,-0.137,97.0
9.971,1.265,-0.194,118.0
9.97,1.265,-0.251,60.0
9.975,1.265,0.023,71.0
9.972,1.264,-0.033,150.0
9.972,1.264,-0.09,150.0
9.97,1.263,-0.148,102.0
9.971,1.263,-0.205,117.0
9.968,1.262,-0.262,75.0
9.976,1.262,0.012,76.0
9.973,1.261,-0.044,150.0
9.975,1.261,-0.101,150.0
9.969,1.26,-0.159,105.0
9.968,1.26,-0.216,108.0
9.977,1.261,-0.274,58.0
9.975,1.259,0.001,90.0
9.976,1.258,-0.055,150.0
9.975,1.258,-0.112,150.0
9.971,1.257,-0.17,105.0
9.975,1.257,-0.227,118.0
9.969,1.256,-0.284,58.0
9.974,1.255,-0.009,48.0
9.977,1.255,-0.066,150.0
9.975,1.254,-0.123,150.0
9.969,1.253,-0.181,103.0
9.972,1.253,-0.238,111.0
9.97,1.252,-0.295,56.0
9.97,1.25,-0.019,54.0
9.969,1.25,-0.077,150.0
9.979,1.25,-0.134,150.0
9.97,1.249,-0.192,109.0
9.972,1.249,-0.249,110.0
9.971,1.248,-0.306,58.0
9.974,1.246,-0.03,93.0
9.971,1.245,-0.087,150.0
9.967,1.244,-0.144,150.0
9.97,1.244,-0.202,106.0
9.969,1.243,-0.259,105.0
9.965,1.242,-0.316,70.0
9.974,1.241,-0.041,93.0
9.973,1.24,-0.098,150.0
9.972,1.24,-0.155,150.0
9.969,1.239,-0.213,106.0
9.972,1.239,-0.27,111.0
9.965,1.237,-0.327,66.0
9.968,1.235,-0.051,109.0
9.969,1.234,-0.108,150.0
9.974,1.234,-0.165,150.0
9.971,1.233,-0.223,103.0
9.973,1.233,-0.28,114.0
9.967,1.232,-0.337,72.0
9.97,1.229,-0.062,109.0
9.973,1.229,-0.118,150.0
9.976,1.229,-0.176,150.0
9.967,1.227,-0.233,103.0
9.973,1.227,-0.291,116.0
9.972,1.226,-0.348,60.0
9.969,1.223,-0.072,113.0
9.97,1.222,-0.129,150.0
9.976,1.222,-0.186,150.0
9.966,1.22,-0.243,105.0
9.972,1.22,-0.301,100.0
9.97,1.219,-0.358,53.0
9.968,1.216,-0.082,100.0
9.977,1.216,-0.139,150.0
9.977,1.215,-0.196,150.0
9.966,1.213,-0.253,99.0
9.975,1.214,-0.311,102.0
9.977,1.213,-0.368,48.0
9.973,1.209,-0.091,89.0
9.973,1.209,-0.148,150.0
9.976,1.208,-0.205,150.0
9.98,1.208,-0.264,79.0
9.984,1.207,-0.321,86.0
9.985,1.207,-0.378,38.0
9.981,1.203,-0.101,85.0
9.983,1.202,-0.158,132.0
9.989,1.202,-0.215,138.0
9.978,1.2,-0.273,63.0
9.989,1.2,-0.33,74.0
9.983,1.199,-0.387,32.0
9.984,1.195,-0.111,66.0
9.992,1.195,-0.168,139.0
9.985,1.193,-0.225,128.0
9.983,1.192,-0.283,65.0
10.002,1.193,-0.34,67.0
10.002,1.193,-0.397,32.0
9.992,1.188,-0.12,67.0
10.002,1.188,-0.177,145.0
9.999,1.186,-0.234,116.0
9.995,1.185,-0.292,56.0
10.001,1.185,-0.349,64.0
10.007,1.184,-0.407,21.0
10.003,1.18,-0.129,73.0
10.008,1.18,-0.186,125.0
10.005,1.178,-0.243,89.0
10.012,1.178,-0.302,22.0
10.023,1.178,-0.359,20.0
10.005,1.175,-0.416,17.0
10.015,1.172,-0.138,25.0
10.012,1.171,-0.195,20.0
10.002,1.168,-0.252,17.0
13.847,1.616,-0.429,4.0
13.776,1.606,-0.506,5.0
13.421,1.564,-0.569,6.0
10.02,1.163,-0.147,15.0
20.505,2.378,-0.418,1.0
13.855,1.605,-0.361,4.0
13.808,1.598,-0.44,8.0
13.74,1.589,-0.516,7.0
13.34,1.541,-0.577,7.0
10.021,1.153,-0.155,3.0
20.259,2.329,-0.43,2.0
13.829,1.588,-0.372,9.0
13.791,1.582,-0.451,14.0
13.722,1.572,-0.527,15.0
13.281,1.52,-0.586,10.0
22.541,2.571,-0.369,4.0
13.835,1.576,-0.305,8.0
13.819,1.572,-0.383,16.0
13.772,1.565,-0.461,14.0
13.692,1.554,-0.537,15.0
13.207,1.498,-0.593,9.0
13.862,1.566,-0.237,12.0
13.82,1.559,-0.315,17.0
13.789,1.554,-0.393,20.0
13.751,1.548,-0.471,18.0
13.64,1.534,-0.545,11.0
13.13,1.475,-0.6,8.0
13.834,1.547,-0.247,16.0
13.805,1.542,-0.325,22.0
13.775,1.537,-0.403,24.0
13.739,1.531,-0.481,20.0
13.574,1.511,-0.553,9.0
13.085,1.455,-0.607,9.0
13.822,1.53,-0.257,27.0
13.802,1.526,-0.335,32.0
13.778,1.521,-0.413,31.0
13.723,1.513,-0.491,19.0
13.485,1.485,-0.559,9.0
13.072,1.438,-0.616,10.0
13.81,1.512,-0.267,35.0
13.797,1.509,-0.345,33.0
13.773,1.504,-0.422,33.0
13.711,1.495,-0.5,19.0
13.379,1.457,-0.564,11.0
13.083,1.423,-0.625,10.0
13.802,1.494,-0.276,37.0
13.78,1.49,-0.354,30.0
13.772,1.487,-0.432,38.0
13.71,1.478,-0.509,19.0
13.288,1.431,-0.569,14.0
13.083,1.407,-0.634,10.0
13.793,1.476,-0.285,39.0
13.78,1.472,-0.363,36.0
13.767,1.469,-0.44,39.0
13.71,1.461,-0.518,17.0
13.281,1.413,-0.577,11.0
13.066,1.388,-0.642,9.0
13.786,1.457,-0.294,38.0
13.775,1.454,-0.371,33.0
13.776,1.452,-0.449,36.0
13.699,1.441,-0.526,15.0
13.261,1.393,-0.584,9.0
13.054,1.37,-0.649,8.0
13.782,1.439,-0.302,39.0
13.764,1.435,-0.379,32.0
13.75,1.431,-0.456,28.0
13.67,1.42,-0.532,12.0
13.238,1.373,-0.59,11.0
13.034,1.35,-0.655,8.0
13.772,1.419,-0.309,89.0
13.768,1.416,-0.387,32.0
13.731,1.41,-0.463,26.0
13.657,1.4,-0.539,11.0
13.187,1.35,-0.595,12.0
12.943,1.323,-0.658,6.0
13.774,1.4,-0.316,67.0
13.77,1.398,-0.394,43.0
13.75,1.393,-0.471,32.0
13.594,1.375,-0.544,9.0
13.156,1.328,-0.601,9.0
12.856,1.296,-0.66,3.0
13.776,1.381,-0.323,86.0
13.771,1.378,-0.401,150.0
13.726,1.371,-0.477,22.0
13.626,1.358,-0.552,10.0
13.122,1.306,-0.605,7.0
12.763,1.268,-0.661,2.0
13.775,1.361,-0.33,46.0
13.775,1.358,-0.407,101.0
13.718,1.35,-0.483,20.0
13.605,1.336,-0.557,10.0
13.089,1.283,-0.61,7.0
12.678,1.241,-0.662,2.0
13.786,1.341,-0.336,38.0
13.769,1.337,-0.413,36.0
13.724,1.33,-0.489,19.0
13.589,1.314,-0.562,11.0
13.087,1.263,-0.615,9.0
12.612,1.215,-0.664,2.0
13.795,1.322,-0.342,35.0
13.773,1.317,-0.418,27.0
13.74,1.311,-0.495,25.0
13.57,1.292,-0.566,10.0
13.079,1.243,-0.619,9.0
12.571,1.192,-0.666,4.0
13.812,1.302,-0.347,34.0
13.782,1.296,-0.424,23.0
13.744,1.29,-0.5,22.0
13.531,1.267,-0.569,10.0
13.076,1.222,-0.624,9.0
12.533,1.169,-0.668,4.0
13.832,1.283,-0.352,34.0
13.808,1.277,-0.429,21.0
13.762,1.27,-0.504,16.0
13.55,1.248,-0.574,10.0
13.075,1.202,-0.627,10.0
12.514,1.148,-0.671,3.0
13.836,1.261,-0.356,27.0
13.831,1.258,-0.433,23.0
13.777,1.25,-0.509,15.0
13.512,1.223,-0.576,11.0
13.071,1.18,-0.631,10.0
12.487,1.125,-0.673,3.0
13.873,1.242,-0.36,17.0
13.864,1.238,-0.438,15.0
13.793,1.229,-0.513,15.0
13.525,1.202,-0.58,12.0
13.071,1.159,-0.634,10.0
12.463,1.103,-0.674,4.0
18.852,1.658,-0.494,0.0
13.903,1.219,-0.442,8.0
13.832,1.21,-0.517,13.0
13.539,1.182,-0.583,10.0
13.068,1.138,-0.636,10.0
12.426,1.079,-0.674,4.0
18.66,1.61,-0.492,3.0
16.879,1.453,-0.539,2.0
13.866,1.19,-0.52,12.0
13.56,1.161,-0.586,10.0
13.054,1.115,-0.637,7.0
12.421,1.058,-0.676,4.0
18.664,1.58,-0.495,3.0
16.842,1.421,-0.54,2.0
13.93,1.172,-0.525,12.0
13.515,1.134,-0.586,8.0
13.069,1.094,-0.639,9.0
12.42,1.037,-0.677,4.0
18.676,1.549,-0.497,2.0
16.822,1.391,-0.541,2.0
14.129,1.165,-0.533,9.0
13.527,1.112,-0.587,11.0
13.071,1.072,-0.64,9.0
12.435,1.017,-0.679,3.0
18.637,1.514,-0.497,3.0
16.838,1.364,-0.543,2.0
14.325,1.157,-0.541,7.0
13.537,1.09,-0.588,12.0
13.068,1.049,-0.641,9.0
12.453,0.997,-0.68,2.0
18.677,1.485,-0.499,3.0
16.837,1.335,-0.543,2.0
14.627,1.156,-0.553,6.0
13.545,1.067,-0.589,11.0
13.062,1.026,-0.64,9.0
12.445,0.975,-0.679,3.0
18.716,1.456,-0.499,3.0
16.9,1.31,-0.545,3.0
14.806,1.144,-0.559,6.0
13.566,1.045,-0.589,11.0
13.073,1.004,-0.64,9.0
12.477,0.955,-0.681,3.0
18.778,1.428,-0.5,3.0
16.96,1.285,-0.546,2.0
14.956,1.129,-0.564,6.0
13.644,1.027,-0.591,11.0
13.069,0.981,-0.639,9.0
12.515,0.936,-0.681,3.0
18.799,1.396,-0.499,3.0
17.022,1.26,-0.546,2.0
14.951,1.103,-0.562,2.0
13.719,1.009,-0.593,12.0
13.082,0.958,-0.638,9.0
12.548,0.916,-0.682,3.0
18.867,1.367,-0.498,4.0
17.091,1.234,-0.546,2.0
15.119,1.088,-0.566,2.0
13.801,0.99,-0.595,12.0
13.081,0.935,-0.636,9.0
12.619,0.899,-0.683,3.0
19.042,1.346,-0.499,3.0
17.134,1.207,-0.544,2.0
15.251,1.07,-0.568,2.0
13.861,0.969,-0.594,13.0
13.107,0.913,-0.635,9.0
12.716,0.883,-0.686,2.0
19.162,1.32,-0.499,3.0
17.213,1.181,-0.543,2.0
15.467,1.057,-0.573,2.0
13.931,0.949,-0.594,14.0
13.14,0.892,-0.633,8.0
12.785,0.864,-0.686,2.0
19.249,1.291,-0.496,3.0
17.337,1.158,-0.542,2.0
15.754,1.048,-0.579,2.0
14.059,0.932,-0.596,14.0
13.225,0.873,-0.633,10.0
12.845,0.845,-0.686,3.0
19.388,1.265,-0.494,3.0
17.494,1.137,-0.542,2.0
15.949,1.032,-0.581,2.0
14.284,0.92,-0.601,13.0
13.267,0.852,-0.631,8.0
12.934,0.827,-0.686,4.0
19.54,1.239,-0.491,3.0
17.641,1.114,-0.54,2.0
16.004,1.007,-0.578,4.0
14.488,0.907,-0.604,16.0
13.458,0.839,-0.635,11.0
13.007,0.808,-0.685,6.0
19.754,1.217,-0.489,3.0
17.754,1.089,-0.537,4.0
16.126,0.985,-0.576,3.0
14.595,0.888,-0.603,17.0
13.541,0.82,-0.634,11.0
13.06,0.787,-0.683,10.0
20.017,1.197,-0.487,3.0
17.901,1.065,-0.534,3.0
16.249,0.962,-0.573,3.0
14.635,0.863,-0.598,19.0
13.593,0.798,-0.63,11.0
13.064,0.763,-0.677,10.0
20.218,1.171,-0.483,4.0
18.113,1.044,-0.532,3.0
16.39,0.94,-0.571,4.0
14.654,0.837,-0.592,20.0
13.638,0.775,-0.625,13.0
13.064,0.739,-0.671,10.0
20.396,1.144,-0.477,4.0
18.344,1.024,-0.529,3.0
16.565,0.92,-0.568,2.0
14.674,0.811,-0.585,15.0
13.75,0.756,-0.623,16.0
13.063,0.714,-0.663,10.0
20.641,1.12,-0.472,4.0
18.569,1.002,-0.526,3.0
16.799,0.902,-0.567,2.0
14.69,0.784,-0.577,8.0
13.992,0.743,-0.626,14.0
13.069,0.691,-0.656,10.0
20.921,1.096,-0.466,4.0
18.843,0.982,-0.522,3.0
17.058,0.884,-0.566,2.0
15.03,0.775,-0.582,5.0
14.218,0.729,-0.628,15.0
13.148,0.67,-0.652,9.0
21.277,1.075,-0.461,4.0
19.157,0.963,-0.519,3.0
17.305,0.865,-0.563,4.0
15.39,0.765,-0.586,2.0
14.488,0.716,-0.63,15.0
13.341,0.655,-0.653,10.0
21.656,1.054,-0.455,4.0
19.341,0.936,-0.511,3.0
17.468,0.841,-0.557,4.0
15.874,0.759,-0.594,2.0
14.602,0.694,-0.625,26.0
13.452,0.636,-0.649,12.0
22.074,1.034,-0.448,4.0
19.656,0.915,-0.506,3.0
17.743,0.821,-0.553,5.0
16.073,0.739,-0.589,2.0
14.633,0.669,-0.616,25.0
13.591,0.617,-0.646,16.0
22.553,1.015,-0.442,5.0
20.023,0.895,-0.5,3.0
18.011,0.8,-0.548,4.0
16.328,0.721,-0.586,2.0
14.656,0.643,-0.606,21.0
13.75,0.599,-0.643,14.0
23.251,1.004,-0.437,5.0
20.443,0.876,-0.495,4.0
18.326,0.78,-0.542,3.0
16.554,0.7,-0.581,2.0
14.647,0.615,-0.593,12.0
13.945,0.582,-0.641,15.0
24.015,0.992,-0.432,5.0
20.759,0.852,-0.485,4.0
18.669,0.761,-0.537,3.0
16.899,0.684,-0.579,2.0
14.83,0.596,-0.588,6.0
14.186,0.566,-0.64,15.0
24.506,0.968,-0.42,2.0
21.117,0.828,-0.476,4.0
19.032,0.741,-0.531,3.0
17.268,0.667,-0.577,2.0
15.375,0.59,-0.596,3.0
14.245,0.542,-0.629,14.0
28.195,1.063,-0.459,1.0
21.61,0.808,-0.467,4.0
19.406,0.72,-0.524,3.0
17.465,0.643,-0.568,4.0
15.902,0.581,-0.602,2.0
14.537,0.527,-0.629,13.0
28.712,1.03,-0.44,2.0
22.249,0.792,-0.461,4.0
19.687,0.695,-0.513,3.0
17.819,0.624,-0.562,3.0
16.212,0.563,-0.599,3.0
14.577,0.502,-0.616,4.0
29.363,1.001,-0.422,2.0
23.097,0.78,-0.456,5.0
20.145,0.675,-0.505,3.0
18.127,0.602,-0.554,3.0
16.527,0.544,-0.594,2.0
14.657,0.478,-0.605,2.0
29.964,0.967,-0.4,2.0
23.858,0.763,-0.446,5.0
20.635,0.654,-0.497,4.0
18.533,0.582,-0.547,3.0
16.867,0.525,-0.588,2.0
14.857,0.458,-0.598,7.0
30.636,0.935,-0.378,2.0
27.516,0.832,-0.486,1.0
21.134,0.633,-0.486,4.0
18.94,0.562,-0.539,3.0
17.237,0.506,-0.583,4.0
15.721,0.457,-0.616,3.0
31.68,0.911,-0.357,2.0
27.972,0.796,-0.464,1.0
21.704,0.612,-0.476,4.0
19.412,0.542,-0.531,3.0
17.587,0.486,-0.575,7.0
16.025,0.438,-0.61,3.0
32.744,0.884,-0.332,1.0
28.725,0.767,-0.445,1.0
22.328,0.59,-0.465,4.0
19.867,0.519,-0.521,3.0
17.916,0.463,-0.566,4.0
16.42,0.42,-0.606,3.0
36.516,0.922,-0.329,1.0
29.452,0.735,-0.422,1.0
23.452,0.579,-0.461,3.0
20.422,0.498,-0.512,4.0
18.396,0.444,-0.559,3.0
16.806,0.401,-0.6,3.0
36.605,0.861,-0.286,7.0
30.277,0.704,-0.397,2.0
26.991,0.62,-0.498,2.0
20.991,0.476,-0.501,4.0
18.884,0.423,-0.551,4.0
17.128,0.379,-0.591,2.0
37.004,0.807,-0.244,16.0
31.213,0.672,-0.372,1.0
27.598,0.586,-0.475,1.0
21.6,0.453,-0.489,4.0
19.255,0.398,-0.538,7.0
17.594,0.359,-0.585,2.0
37.489,0.754,-0.2,39.0
32.531,0.646,-0.346,1.0
28.513,0.558,-0.455,1.0
22.242,0.429,-0.475,4.0
19.818,0.377,-0.528,9.0
18.036,0.338,-0.576,3.0
38.373,0.708,-0.156,45.0
36.85,0.67,-0.345,2.0
29.398,0.526,-0.431,2.0
26.359,0.464,-0.528,1.0
20.35,0.353,-0.516,4.0
18.527,0.316,-0.568,4.0
39.439,0.662,-0.108,38.0
36.99,0.611,-0.297,6.0
30.289,0.492,-0.404,2.0
26.886,0.43,-0.503,1.0
21.192,0.333,-0.508,7.0
19.018,0.294,-0.557,3.0
44.29,0.671,-0.062,17.0
37.414,0.557,-0.25,13.0
31.35,0.458,-0.375,1.0
27.646,0.397,-0.479,1.0
21.852,0.307,-0.494,4.0
19.568,0.27,-0.546,3.0
0.0,0.0,0.0,0.0
37.975,0.504,-0.201,40.0
32.685,0.425,-0.345,1.0
28.663,0.365,-0.457,2.0
25.853,0.323,-0.549,1.0
20.234,0.247,-0.536,4.0
47.83,0.572,0.066,59.0
38.813,0.454,-0.15,50.0
37.178,0.425,-0.34,0.0
29.488,0.329,-0.428,2.0
26.457,0.288,-0.523,2.0
21.008,0.224,-0.526,4.0
48.004,0.498,0.135,78.0
39.749,0.403,-0.097,15.0
37.422,0.369,-0.288,6.0
30.485,0.293,-0.398,1.0
27.153,0.254,-0.497,2.0
21.993,0.2,-0.518,3.0
48.043,0.424,0.206,100.0
44.778,0.384,-0.043,21.0
38.011,0.316,-0.236,14.0
31.647,0.255,-0.366,1.0
28.138,0.22,-0.473,1.0
25.207,0.19,-0.556,1.0
48.152,0.352,0.279,56.0
47.421,0.335,0.026,43.0
38.818,0.264,-0.182,44.0
33.167,0.217,-0.333,1.0
29.171,0.184,-0.446,2.0
26.098,0.158,-0.536,2.0
59.322,0.345,0.434,6.0
54.719,0.304,0.113,28.0
39.877,0.211,-0.125,18.0
37.644,0.191,-0.32,10.0
30.017,0.144,-0.412,2.0
26.814,0.122,-0.509,2.0
77.173,0.335,0.685,50.0
59.283,0.242,0.216,6.0
0.0,0.0,0.0,0.0
38.123,0.137,-0.263,10.0
31.096,0.104,-0.378,1.0
27.797,0.086,-0.483,1.0
79.465,0.229,0.833,151.0
75.861,0.201,0.397,9.0
47.007,0.113,0.0,23.0
38.934,0.084,-0.207,23.0
32.936,0.063,-0.347,1.0
28.943,0.049,-0.457,2.0
79.466,0.117,0.96,151.0
76.361,0.094,0.523,20.0
0.0,0.0,0.0,0.0
40.213,0.03,-0.148,24.0
37.978,0.02,-0.338,0.0
29.804,0.008,-0.421,2.0
79.465,0.006,1.09,151.0
79.432,-0.011,0.674,150.0
56.149,-0.021,0.183,13.0
0.0,0.0,0.0,0.0
38.603,-0.032,-0.28,4.0
30.955,-0.032,-0.386,1.0
79.454,-0.101,1.221,151.0
79.469,-0.119,0.806,151.0
76.212,-0.131,0.375,9.0
46.051,-0.089,-0.017,17.0
39.489,-0.085,-0.221,14.0
32.541,-0.077,-0.352,2.0
79.451,-0.207,1.354,158.0
79.465,-0.224,0.94,151.0
76.692,-0.233,0.507,13.0
54.459,-0.177,0.07,5.0
41.723,-0.145,-0.163,12.0
36.657,-0.135,-0.334,0.0
79.443,-0.31,1.489,206.0
79.465,-0.327,1.075,151.0
79.465,-0.344,0.661,151.0
61.198,-0.277,0.184,9.0
46.233,-0.22,-0.101,4.0
39.637,-0.197,-0.292,2.0
79.42,-0.411,1.625,214.0
79.459,-0.427,1.212,169.0
79.45,-0.444,0.799,189.0
76.696,-0.444,0.363,8.0
50.908,-0.305,-0.023,3.0
42.212,-0.262,-0.238,9.0
79.425,-0.509,1.763,199.0
79.445,-0.525,1.35,173.0
79.448,-0.542,0.938,190.0
77.097,-0.542,0.502,11.0
55.023,-0.397,0.071,9.0
47.382,-0.352,-0.184,21.0
79.435,-0.606,1.905,177.0
79.438,-0.621,1.491,180.0
79.444,-0.637,1.079,188.0
79.422,-0.653,0.658,150.0
60.684,-0.51,0.187,9.0
50.553,-0.435,-0.106,8.0
79.441,-0.699,2.046,151.0
79.438,-0.715,1.634,185.0
79.44,-0.729,1.22,218.0
79.451,-0.745,0.801,167.0
77.47,-0.741,0.379,7.0
56.709,-0.553,-0.016,5.0
79.441,-0.791,2.19,151.0
79.416,-0.805,1.777,206.0
79.437,-0.821,1.366,206.0
79.456,-0.835,0.945,157.0
78.935,-0.844,0.53,41.0
0.0,0.0,0.0,0.0
79.444,-0.88,2.336,151.0
79.446,-0.894,1.924,151.0
79.438,-0.908,1.511,173.0
79.44,-0.922,1.091,176.0
79.352,-0.935,0.678,4.0
0.0,0.0,0.0,0.0
79.472,-0.965,2.482,1.0
0.0,0.0,0.0,0.0
86.941,-1.086,1.813,1.0
86.947,-1.101,1.354,44.0
86.964,-1.116,0.904,146.0
78.553,-1.021,0.41,6.0
86.953,-1.147,2.877,8.0
86.926,-1.161,2.425,71.0
86.912,-1.176,1.975,13.0
183.377,-2.51,3.198,84.0
148.215,-2.053,1.818,18.0
87.844,-1.231,0.623,5.0
183.398,-2.605,6.411,34.0
151.5,-2.175,4.51,91.0
187.085,-2.717,4.601,18.0
187.096,-2.745,3.612,72.0
205.368,-3.046,2.903,17.0
99.036,-1.484,0.887,5.0
128.978,-1.958,4.752,21.0
151.461,-2.321,4.795,105.0
151.45,-2.344,4.01,54.0
261.956,-4.095,5.555,54.0
205.368,-3.242,3.294,38.0
123.927,-1.974,1.347,8.0
128.079,-2.064,4.962,19.0
151.393,-2.462,5.08,56.0
151.482,-2.485,4.298,92.0
264.542,-4.377,6.111,58.0
0.0,0.0,0.0,0.0
205.442,-3.457,2.62,18.0
128.596,-2.188,5.226,22.0
184.396,-3.164,6.54,46.0
151.44,-2.619,4.588,43.0
40.246,-0.701,1.006,44.0
40.192,-0.705,0.797,44.0
40.184,-0.711,0.589,4.0
128.488,-2.297,5.467,36.0
185.672,-3.344,6.94,24.0
184.605,-3.349,5.946,34.0
40.249,-0.735,1.083,57.0
40.208,-0.739,0.874,52.0
40.167,-0.744,0.666,46.0
92.957,-1.738,4.133,14.0
188.502,-3.548,7.405,23.0
184.632,-3.499,6.299,49.0
40.286,-0.768,1.161,54.0
40.248,-0.772,0.952,43.0
40.2,-0.776,0.743,36.0
92.931,-1.81,4.31,26.0
183.994,-3.607,7.583,23.0
184.584,-3.64,6.653,39.0
40.319,-0.799,1.24,32.0
40.247,-0.802,1.03,51.0
40.218,-0.806,0.821,48.0
90.652,-1.834,4.381,26.0
128.846,-2.621,5.559,14.0
191.338,-3.914,7.267,28.0
185.604,-3.817,6.072,46.0
40.229,-0.831,1.108,42.0
40.218,-0.835,0.9,53.0
92.021,-1.928,4.627,54.0
99.029,-2.085,4.466,10.0
191.368,-4.048,7.639,28.0
185.54,-3.944,6.43,52.0
40.25,-0.859,1.186,38.0
40.213,-0.862,0.978,58.0
92.097,-1.992,4.809,21.0
90.617,-1.968,4.263,47.0
129.536,-2.826,5.425,15.0
185.507,-4.065,6.792,41.0
40.292,-0.886,1.266,16.0
40.206,-0.888,1.056,57.0
92.166,-2.053,4.995,57.0
90.603,-2.025,4.44,27.0
129.745,-2.911,5.688,30.0
185.816,-4.184,7.164,6.0
40.29,-0.91,1.345,4.0
40.226,-0.912,1.135,50.0
92.144,-2.107,5.174,23.0
92.136,-2.113,4.696,49.0
129.356,-2.978,5.923,28.0
129.52,-2.992,5.248,36.0
40.231,-0.932,1.422,42.0
40.255,-0.936,1.215,52.0
92.207,-2.16,5.358,26.0
99.004,-2.326,5.24,15.0
93.054,-2.192,4.442,23.0
128.936,-3.047,5.476,42.0
40.221,-0.953,1.5,36.0
40.263,-0.956,1.293,55.0
98.001,-2.346,5.886,20.0
83.663,-2.008,4.591,26.0
90.529,-2.179,4.5,41.0
129.058,-3.114,5.734,41.0
40.265,-0.974,1.58,6.0
40.197,-0.975,1.37,53.0
97.865,-2.391,6.07,28.0
83.637,-2.047,4.754,54.0
90.505,-2.22,4.676,19.0
129.297,-3.179,5.999,35.0
128.915,-3.177,5.313,54.0
40.194,-0.992,1.448,49.0
97.748,-2.431,6.255,36.0
92.262,-2.298,5.424,37.0
99.023,-2.471,5.309,43.0
93.086,-2.328,4.5,31.0
128.807,-3.227,5.559,40.0
40.207,-1.009,1.527,27.0
97.636,-2.467,6.437,12.0
92.312,-2.336,5.607,13.0
98.992,-2.509,5.499,45.0
93.079,-2.362,4.678,35.0
129.031,-3.279,5.817,46.0
129.164,-3.288,5.154,39.0
129.46,-3.318,8.787,24.0
92.357,-2.369,5.788,4.0
83.582,-2.147,4.805,55.0
90.517,-2.328,4.725,40.0
177.867,-4.581,8.364,23.0
128.99,-3.325,5.397,27.0
82.301,-2.136,5.746,3.0
129.398,-3.361,8.364,25.0
92.304,-2.4,5.486,34.0
128.784,-3.351,6.972,29.0
93.083,-2.424,4.557,25.0
128.858,-3.359,5.643,31.0
93.431,-2.451,6.705,5.0
129.204,-3.391,8.601,22.0
92.303,-2.424,5.664,52.0
83.605,-2.197,4.689,10.0
93.081,-2.448,4.739,33.0
129.007,-3.394,5.898,43.0
41.276,-1.093,3.042,1.0
129.387,-3.428,8.864,21.0
92.335,-2.447,5.846,68.0
83.52,-2.213,4.845,48.0
90.479,-2.398,4.78,47.0
178.106,-4.722,8.484,29.0
41.203,-1.099,3.116,28.0
93.399,-2.492,6.579,4.0
92.333,-2.464,6.024,40.0
83.508,-2.228,5.005,44.0
128.523,-3.429,7.036,21.0
93.061,-2.483,4.611,13.0
41.349,-1.11,3.207,37.0
97.292,-2.611,7.04,4.0
129.17,-3.466,8.674,25.0
92.322,-2.476,5.709,30.0
90.341,-2.423,5.117,19.0
93.09,-2.496,4.79,20.0
41.241,-1.112,3.278,39.0
41.261,-1.112,3.064,22.0
82.538,-2.224,5.699,3.0
92.313,-2.485,5.884,62.0
83.507,-2.247,4.889,46.0
90.47,-2.433,4.826,38.0
54.65,-1.479,4.447,7.0
41.256,-1.115,3.141,29.0
93.396,-2.523,6.625,4.0
92.33,-2.492,6.058,39.0
83.479,-2.251,5.042,33.0
90.396,-2.436,4.991,11.0
54.47,-1.476,4.534,19.0
41.358,-1.12,3.227,34.0
41.296,-1.117,3.006,6.0
129.255,-3.492,8.724,23.0
92.348,-2.492,5.751,31.0
90.319,-2.434,5.154,30.0
53.508,-1.451,4.555,11.0
41.199,-1.115,3.291,43.0
41.265,-1.115,3.081,39.0
93.327,-2.52,6.47,3.0
92.323,-2.489,5.918,66.0
83.507,-2.248,4.919,50.0
53.668,-1.454,4.667,11.0
54.636,-1.478,4.465,11.0
41.316,-1.115,3.16,25.0
97.323,-2.623,6.926,2.0
92.351,-2.484,6.089,22.0
83.499,-2.242,5.07,15.0
40.976,-1.107,3.639,21.0
53.68,-1.448,4.485,8.0
41.341,-1.112,3.238,39.0
41.27,-1.108,3.012,1.0
94.413,-2.531,6.396,3.0
92.325,-2.47,5.774,54.0
40.905,-1.101,3.707,46.0
53.585,-1.439,4.575,8.0
41.197,-1.104,3.301,47.0
41.23,-1.102,3.083,13.0
93.406,-2.491,6.497,3.0
92.332,-2.457,5.94,45.0
40.983,-1.097,3.788,49.0
53.788,-1.436,4.688,13.0
54.633,-1.455,4.475,14.0
41.151,-1.093,3.151,46.0
93.418,-2.476,6.663,5.0
129.11,-3.413,8.534,18.0
40.962,-1.089,3.859,66.0
56.958,-1.51,5.066,6.0
53.574,-1.417,4.483,8.0
41.232,-1.087,3.23,30.0
97.102,-2.553,7.096,3.0
97.577,-2.559,6.619,3.0
40.661,-1.072,3.903,38.0
40.888,-1.075,3.709,48.0
53.905,-1.413,4.605,6.0
41.175,-1.076,3.297,58.0
41.224,-1.074,3.084,25.0
82.26,-2.136,5.723,3.0
40.083,-1.047,3.917,66.0
41.021,-1.068,3.791,50.0
53.854,-1.397,4.694,9.0
41.191,-1.065,3.369,36.0
41.184,-1.061,3.152,46.0
97.354,-2.501,6.941,28.0
39.923,-1.031,3.97,51.0
40.565,-1.044,3.819,49.0
40.753,-1.045,3.622,45.0
53.624,-1.37,4.478,10.0
41.224,-1.049,3.226,44.0
84.79,-2.15,6.19,3.0
39.75,-1.013,4.021,66.0
39.896,-1.013,3.825,63.0
40.903,-1.035,3.705,40.0
53.778,-1.354,4.582,15.0
41.19,-1.033,3.292,63.0
41.226,-1.03,3.078,26.0
39.53,-0.994,4.066,75.0
39.981,-1.0,3.9,51.0
40.823,-1.017,3.766,46.0
64.204,-1.593,5.577,13.0
41.27,-1.019,3.366,41.0
41.23,-1.014,3.146,61.0
39.337,-0.973,4.111,65.0
40.213,-0.99,3.988,59.0
40.394,-0.99,3.792,36.0
54.286,-1.325,4.803,15.0
53.719,-1.305,4.469,2.0
41.157,-0.995,3.206,48.0
39.051,-0.949,4.144,76.0
39.728,-0.961,4.004,45.0
39.693,-0.955,3.79,59.0
40.806,-0.977,3.675,57.0
53.971,-1.287,4.575,12.0
41.119,-0.975,3.268,51.0
39.138,-0.933,4.216,48.0
39.477,-0.936,4.041,64.0
39.916,-0.942,3.874,62.0
49.063,-1.151,4.496,16.0
64.227,-1.5,5.545,14.0
41.187,-0.956,3.338,30.0
39.153,-0.914,4.279,61.0
39.309,-0.912,4.086,61.0
39.887,-0.921,3.934,59.0
49.042,-1.126,4.57,5.0
54.245,-1.238,4.767,31.0
41.258,-0.936,3.407,9.0
39.06,-0.891,4.329,72.0
39.228,-0.889,4.138,61.0
39.595,-0.892,3.965,48.0
40.399,-0.905,3.826,36.0
40.775,-0.908,3.644,49.0
54.194,-1.2,4.556,55.0
39.277,-0.874,4.413,54.0
39.132,-0.865,4.187,56.0
39.796,-0.874,4.045,42.0
39.3,-0.858,3.781,64.0
49.092,-1.065,4.461,8.0
54.235,-1.169,4.639,14.0
39.466,-0.854,4.492,59.0
39.038,-0.84,4.234,65.0
39.621,-0.847,4.084,51.0
39.267,-0.834,3.834,56.0
40.015,-0.844,3.693,41.0
40.673,-0.851,3.537,32.0
39.414,-0.829,4.543,53.0
38.982,-0.814,4.284,63.0
39.357,-0.816,4.114,71.0
39.196,-0.807,3.883,50.0
39.753,-0.812,3.726,58.0
40.619,-0.824,3.591,50.0
39.222,-0.799,4.577,65.0
39.015,-0.789,4.343,61.0
39.252,-0.787,4.158,47.0
39.491,-0.786,3.967,59.0
39.404,-0.778,3.748,70.0
49.133,-0.963,4.41,4.0
39.365,-0.775,4.648,62.0
39.211,-0.766,4.418,63.0
39.113,-0.758,4.197,56.0
39.657,-0.762,4.038,55.0
39.517,-0.753,3.812,39.0
39.768,-0.751,3.623,71.0
39.36,-0.747,4.701,55.0
39.277,-0.739,4.479,72.0
39.168,-0.73,4.255,57.0
39.249,-0.726,4.048,64.0
39.446,-0.723,3.857,50.0
40.022,-0.727,3.698,41.0
39.282,-0.716,4.743,57.0
39.38,-0.712,4.542,62.0
39.012,-0.698,4.288,62.0
39.21,-0.695,4.095,70.0
39.528,-0.694,3.915,52.0
48.2,-0.839,4.515,8.0
39.317,-0.687,4.798,57.0
39.733,-0.687,4.633,53.0
39.156,-0.671,4.354,41.0
39.259,-0.666,4.149,58.0
39.427,-0.662,3.954,63.0
48.192,-0.802,4.573,7.0
39.403,-0.657,4.857,55.0
39.441,-0.651,4.647,53.0
39.274,-0.642,4.415,55.0
39.555,-0.639,4.228,50.0
39.457,-0.631,4.004,43.0
40.848,-0.646,3.925,44.0
39.47,-0.626,4.913,50.0
39.453,-0.619,4.696,55.0
39.387,-0.611,4.474,57.0
39.672,-0.608,4.288,39.0
39.372,-0.597,4.042,46.0
39.499,-0.592,3.841,60.0
39.7,-0.596,4.988,40.0
40.033,-0.594,4.811,56.0
39.768,-0.583,4.563,52.0
39.263,-0.569,4.288,19.0
39.419,-0.564,4.092,53.0
39.651,-0.56,3.901,59.0
39.896,-0.564,5.058,63.0
40.183,-0.561,4.875,49.0
39.961,-0.551,4.63,50.0
39.514,-0.537,4.359,55.0
39.25,-0.526,4.117,43.0
40.001,-0.53,3.979,39.0
40.089,-0.531,5.126,42.0
40.062,-0.524,4.904,40.0
39.998,-0.515,4.677,58.0
39.691,-0.504,4.421,42.0
39.458,-0.494,4.18,49.0
39.692,-0.49,3.99,37.0
39.994,-0.494,5.156,61.0
39.945,-0.486,4.931,52.0
39.905,-0.478,4.708,54.0
40.023,-0.471,4.499,45.0
39.658,-0.46,4.242,58.0
39.434,-0.45,4.004,42.0
39.953,-0.456,5.192,71.0
39.982,-0.448,4.976,32.0
40.274,-0.444,4.792,27.0
39.788,-0.431,4.512,55.0
39.327,-0.419,4.245,66.0
39.493,-0.413,4.048,33.0
39.882,-0.417,5.221,69.0
39.988,-0.41,5.015,49.0
42.32,-0.426,5.075,2.0
40.423,-0.399,4.622,49.0
39.574,-0.383,4.308,70.0
39.538,-0.375,4.089,55.0
39.966,-0.378,5.27,58.0
39.695,-0.368,5.015,50.0
40.122,-0.365,4.848,34.0
40.132,-0.356,4.625,33.0
39.955,-0.348,4.386,32.0
39.455,-0.336,4.115,50.0
40.153,-0.34,5.33,27.0
39.652,-0.329,5.045,67.0
39.714,-0.321,4.833,58.0
43.463,-0.343,5.046,3.0
40.327,-0.311,4.461,46.0
39.801,-0.299,4.185,34.0
39.66,-0.296,5.298,61.0
42.291,-0.307,5.416,3.0
39.687,-0.281,4.863,50.0
39.697,-0.273,4.642,40.0
40.146,-0.268,4.473,55.0
40.314,-0.262,4.271,50.0
39.529,-0.254,5.312,62.0
39.692,-0.248,5.114,64.0
43.705,-0.265,5.39,3.0
39.662,-0.232,4.668,43.0
40.3,-0.228,4.521,55.0
40.576,-0.222,4.329,50.0
39.616,-0.214,5.354,57.0
39.559,-0.206,5.127,48.0
39.648,-0.199,4.919,58.0
39.7,-0.191,4.702,34.0
40.584,-0.187,4.582,43.0
40.921,-0.181,4.395,31.0
39.457,-0.171,5.361,73.0
39.604,-0.164,5.161,65.0
39.637,-0.157,4.945,68.0
39.781,-0.15,4.738,41.0
46.899,-0.167,5.327,10.0
40.551,-0.137,4.382,47.0
39.537,-0.13,5.398,64.0
39.383,-0.121,5.158,63.0
39.669,-0.114,4.975,67.0
39.647,-0.106,4.748,32.0
39.857,-0.099,4.552,60.0
40.514,-0.093,4.404,48.0
39.468,-0.086,5.414,65.0
39.667,-0.079,5.219,50.0
39.801,-0.072,5.016,47.0
39.565,-0.063,4.762,71.0
39.852,-0.056,4.575,46.0
40.869,-0.05,4.466,36.0
39.546,-0.043,5.447,68.0
39.582,-0.036,5.231,56.0
39.637,-0.028,5.017,52.0
39.618,-0.02,4.79,66.0
39.667,-0.012,4.576,52.0
40.141,-0.005,4.408,43.0
39.89,0.0,5.516,60.0
39.615,0.007,5.256,61.0
39.462,0.015,5.015,61.0
54.591,0.031,6.628,10.0
39.674,0.03,4.596,40.0
40.08,0.039,4.421,47.0
39.899,0.044,5.537,65.0
39.879,0.051,5.31,46.0
39.432,0.058,5.03,67.0
39.513,0.066,4.816,32.0
39.601,0.074,4.606,44.0
40.065,0.083,4.437,43.0
39.894,0.088,5.554,36.0
39.832,0.096,5.321,54.0
39.725,0.103,5.084,47.0
43.052,0.121,5.265,19.0
39.664,0.119,4.629,38.0
40.343,0.129,4.484,43.0
39.976,0.134,5.581,37.0
40.301,0.142,5.4,68.0
39.619,0.148,5.086,51.0
0.0,0.0,0.0,0.0
43.517,0.179,5.095,29.0
40.354,0.174,4.499,51.0
39.886,0.178,5.583,55.0
39.67,0.184,5.329,66.0
39.578,0.192,5.094,51.0
43.859,0.221,5.394,3.0
43.846,0.229,5.147,6.0
40.621,0.22,4.542,41.0
40.401,0.226,5.667,53.0
39.449,0.228,5.311,54.0
0.0,0.0,0.0,0.0
39.957,0.247,4.925,52.0
40.109,0.255,4.719,34.0
40.361,0.264,4.523,57.0
40.298,0.272,5.663,40.0
39.46,0.274,5.322,65.0
40.144,0.286,5.188,71.0
39.825,0.291,4.918,65.0
40.12,0.301,4.73,61.0
40.015,0.308,4.493,56.0
40.024,0.315,5.633,29.0
39.374,0.318,5.318,64.0
39.517,0.327,5.115,42.0
46.986,0.397,5.812,7.0
39.851,0.345,4.705,56.0
40.512,0.358,4.556,47.0
39.291,0.355,5.536,58.0
39.352,0.363,5.322,61.0
39.435,0.371,5.11,51.0
39.835,0.382,4.933,20.0
39.916,0.39,4.718,49.0
40.799,0.406,4.593,25.0
39.279,0.4,5.539,53.0
38.671,0.401,5.234,52.0
39.399,0.416,5.109,61.0
40.172,0.431,4.978,60.0
39.979,0.436,4.729,43.0
40.446,0.449,4.557,51.0
39.142,0.444,5.523,69.0
38.677,0.446,5.237,58.0
39.094,0.457,5.072,48.0
40.237,0.478,4.988,25.0
40.459,0.488,4.787,15.0
40.661,0.498,4.582,50.0
39.241,0.49,5.538,61.0
38.61,0.489,5.229,53.0
38.973,0.5,5.056,58.0
0.0,0.0,0.0,0.0
40.832,0.539,4.831,17.0
40.991,0.549,4.619,31.0
38.844,0.529,5.481,47.0
38.661,0.534,5.234,53.0
39.002,0.546,5.059,51.0
39.911,0.565,4.946,22.0
41.403,0.594,4.896,16.0
41.433,0.601,4.666,40.0
38.515,0.569,5.431,62.0
38.625,0.578,5.227,49.0
38.823,0.588,5.032,55.0
39.378,0.603,4.876,32.0
41.0,0.635,4.845,47.0
41.345,0.648,4.651,47.0
38.384,0.611,5.408,48.0
38.62,0.621,5.221,58.0
38.37,0.624,4.968,72.0
39.374,0.648,4.87,39.0
41.565,0.69,4.905,47.0
41.241,0.692,4.633,36.0
38.237,0.652,5.382,62.0
38.889,0.67,5.251,46.0
38.686,0.673,5.002,46.0
39.199,0.688,4.841,59.0
41.636,0.739,4.906,48.0
41.331,0.74,4.635,53.0
38.259,0.695,5.376,58.0
38.945,0.714,5.25,37.0
38.758,0.718,5.003,48.0
39.232,0.733,4.836,59.0
47.422,0.893,5.576,5.0
41.743,0.794,4.671,34.0
38.166,0.737,5.353,74.0
38.825,0.756,5.223,45.0
38.93,0.764,5.014,43.0
39.404,0.78,4.846,46.0
42.11,0.841,4.939,40.0
41.772,0.841,4.662,21.0
38.531,0.786,5.393,39.0
39.105,0.804,5.249,46.0
39.06,0.81,5.019,42.0
39.438,0.824,4.838,56.0
41.711,0.878,4.879,16.0
48.534,1.03,5.401,57.0
38.582,0.83,5.386,46.0
39.0,0.845,5.22,46.0
38.836,0.847,4.976,38.0
43.192,0.95,5.282,5.0
41.781,0.925,4.871,44.0
41.32,0.921,4.582,45.0
38.744,0.876,5.394,56.0
38.862,0.884,5.186,44.0
38.339,0.878,4.896,56.0
38.0,0.876,4.631,56.0
41.71,0.968,4.845,41.0
49.201,1.15,5.435,4.0
38.495,0.911,5.342,58.0
38.698,0.922,5.147,54.0
38.016,0.911,4.838,50.0
0.0,0.0,0.0,0.0
41.754,1.013,4.831,19.0
53.809,1.313,5.919,17.0
38.86,0.961,5.374,39.0
38.683,0.962,5.126,38.0
37.929,0.949,4.808,62.0
37.892,0.953,4.582,64.0
42.38,1.072,4.882,30.0
49.746,1.265,5.446,15.0
39.122,1.008,5.389,44.0
47.03,1.219,6.207,5.0
37.898,0.987,4.783,46.0
37.988,0.995,4.573,61.0
38.016,1.001,4.358,32.0
49.657,1.314,5.409,8.0
38.734,1.038,5.314,47.0
41.057,1.106,5.395,4.0
37.798,1.023,4.749,49.0
38.022,1.035,4.554,51.0
49.837,1.363,5.683,6.0
41.169,1.131,4.459,42.0
38.834,1.08,5.303,63.0
37.958,1.061,4.964,38.0
37.809,1.062,4.726,57.0
41.447,1.169,4.938,18.0
49.557,1.405,5.62,5.0
41.252,1.174,4.442,25.0
38.502,1.109,5.232,44.0
37.891,1.096,4.93,65.0
37.91,1.102,4.713,57.0
41.64,1.216,4.933,16.0
42.191,1.237,4.755,17.0
41.499,1.222,4.439,48.0
38.462,1.146,5.199,27.0
38.501,1.152,4.982,35.0
37.799,1.135,4.672,53.0
37.96,1.145,4.469,38.0
41.482,1.256,4.645,22.0
42.434,1.29,4.508,17.0
37.775,1.162,5.078,60.0
38.417,1.186,4.942,47.0
37.706,1.169,4.632,63.0
37.8,1.176,4.421,61.0
38.335,1.197,4.263,35.0
41.568,1.303,4.384,3.0
37.84,1.2,5.057,39.0
38.49,1.225,4.92,42.0
37.905,1.21,4.626,48.0
37.835,1.212,4.395,57.0
38.196,1.228,4.217,52.0
41.478,1.338,4.341,24.0
37.977,1.239,5.043,61.0
37.949,1.241,4.819,48.0
37.814,1.241,4.583,59.0
37.876,1.248,4.368,63.0
38.308,1.266,4.197,54.0
41.572,1.378,4.315,14.0
37.903,1.27,5.001,59.0
37.803,1.271,4.768,57.0
37.931,1.279,4.564,43.0
38.037,1.286,4.353,60.0
38.379,1.302,4.17,50.0
60.795,2.069,6.256,12.0
38.036,1.308,4.983,64.0
37.946,1.308,4.751,54.0
37.705,1.304,4.502,52.0
37.992,1.317,4.312,64.0
38.433,1.337,4.14,18.0
41.213,1.437,4.202,28.0
38.116,1.343,4.957,52.0
38.045,1.344,4.726,44.0
37.683,1.335,4.463,53.0
37.948,1.347,4.271,55.0
38.58,1.373,4.119,11.0
0.0,0.0,0.0,0.0
37.958,1.369,4.898,51.0
37.786,1.366,4.656,56.0
37.737,1.367,4.431,58.0
55.488,2.015,6.189,6.0
55.596,2.023,5.88,6.0
55.758,2.035,5.575,49.0
37.814,1.394,4.841,61.0
37.806,1.396,4.62,69.0
37.789,1.399,4.398,41.0
42.457,1.575,4.691,3.0
41.677,1.55,4.364,20.0
62.043,2.312,6.139,25.0
37.851,1.424,4.805,67.0
37.919,1.429,4.593,43.0
37.685,1.424,4.346,61.0
41.915,1.587,4.586,18.0
62.007,2.352,6.426,9.0
55.91,2.126,5.471,8.0
37.957,1.456,4.777,51.0
37.872,1.456,4.545,57.0
37.77,1.454,4.314,57.0
42.336,1.633,4.585,35.0
0.0,0.0,0.0,0.0
55.993,2.168,5.417,27.0
37.945,1.483,4.732,57.0
43.031,1.684,5.115,18.0
37.695,1.478,4.262,59.0
41.123,1.615,4.406,40.0
56.375,2.218,5.714,8.0
53.287,2.1,5.093,19.0
37.884,1.506,4.679,64.0
43.056,1.715,5.067,5.0
37.916,1.512,4.242,59.0
41.227,1.647,4.368,44.0
53.102,2.125,5.319,23.0
53.162,2.131,5.018,57.0
37.865,1.531,4.631,65.0
37.686,1.526,4.389,49.0
38.349,1.554,4.243,46.0
53.019,2.152,5.553,56.0
53.086,2.158,5.252,16.0
53.196,2.166,4.956,62.0
37.881,1.555,4.586,58.0
37.684,1.548,4.342,56.0
42.427,1.746,4.641,2.0
56.06,2.31,5.802,14.0
41.309,1.704,4.036,11.0
53.216,2.198,4.891,16.0
37.99,1.582,4.551,60.0
37.689,1.571,4.295,65.0
41.407,1.728,4.477,6.0
41.145,1.719,4.205,16.0
54.563,2.282,5.26,21.0
56.017,2.346,5.077,5.0
38.006,1.604,4.503,41.0
38.202,1.613,4.303,34.0
41.981,1.775,4.484,22.0
41.282,1.747,4.165,38.0
54.578,2.312,5.19,14.0
54.543,2.312,4.871,4.0
37.729,1.612,4.419,9.0
41.422,1.771,4.61,26.0
54.626,2.338,5.761,11.0
41.323,1.77,4.114,49.0
68.191,2.923,6.393,35.0
54.474,2.337,4.791,83.0
55.797,2.412,6.46,13.0
42.432,1.835,4.664,15.0
63.527,2.749,6.613,30.0
41.29,1.788,4.054,66.0
67.998,2.947,6.282,16.0
54.62,2.369,4.729,23.0
53.337,2.33,6.1,11.0
41.894,1.831,4.546,20.0
41.417,1.811,4.253,29.0
41.365,1.81,4.003,26.0
54.468,2.385,4.954,57.0
64.578,2.83,5.5,30.0
41.676,1.838,4.706,17.0
41.648,1.838,4.46,39.0
41.364,1.826,4.188,30.0
60.933,2.692,5.809,6.0
54.658,2.415,4.894,28.0
64.555,2.854,5.405,25.0
54.541,2.427,6.08,8.0
41.706,1.857,4.405,30.0
41.301,1.839,4.121,48.0
53.794,2.396,5.05,30.0
55.441,2.471,4.882,17.0
64.514,2.876,5.308,37.0
42.195,1.893,4.641,17.0
41.648,1.869,4.337,16.0
41.357,1.856,4.066,36.0
54.421,2.442,5.028,53.0
64.368,2.89,5.573,25.0
64.396,2.892,5.202,27.0
42.224,1.908,4.58,23.0
41.499,1.875,4.259,24.0
41.422,1.871,4.009,13.0
65.06,2.94,5.912,15.0
64.509,2.915,5.488,30.0
74.252,3.357,5.886,11.0
41.888,1.905,4.479,29.0
41.43,1.884,4.188,25.0
53.858,2.448,5.13,29.0
65.042,2.957,5.811,10.0
64.438,2.929,5.382,33.0
74.18,3.372,5.766,31.0
64.114,2.932,6.757,16.0
41.333,1.889,4.114,43.0
67.971,3.106,6.369,15.0
55.579,2.539,4.878,5.0
64.37,2.941,5.276,17.0
64.584,2.95,4.919,23.0
52.921,2.431,5.493,15.0
41.399,1.901,4.055,28.0
68.071,3.124,6.271,34.0
67.984,3.119,5.86,8.0
71.368,3.274,5.737,8.0
64.803,2.972,4.833,11.0
41.532,1.914,4.245,5.0
54.261,2.5,5.229,28.0
68.063,3.135,6.162,11.0
64.664,2.977,5.471,30.0
73.986,3.405,5.83,19.0
65.621,3.019,4.79,8.0
41.461,1.917,4.17,24.0
53.246,2.46,5.044,22.0
55.542,2.565,4.937,24.0
64.506,2.978,5.352,23.0
73.93,3.411,5.704,12.0
74.038,3.414,5.283,20.0
54.39,2.52,5.381,18.0
68.177,3.156,6.347,31.0
64.967,3.005,5.669,21.0
64.639,2.989,5.258,6.0
64.506,2.981,4.872,22.0
73.67,3.402,5.137,24.0
54.386,2.523,5.291,17.0
68.091,3.156,6.227,11.0
68.007,3.149,5.822,9.0
71.254,3.298,5.678,22.0
76.057,3.517,5.618,2.0
122.944,5.681,8.367,16.0
53.238,2.47,5.089,24.0
70.874,3.286,6.361,10.0
67.969,3.148,5.703,15.0
73.98,3.423,5.77,14.0
74.072,3.424,5.346,18.0
123.023,5.684,8.167,9.0
68.171,3.162,6.401,31.0
64.949,3.009,5.72,9.0
55.415,2.565,4.557,7.0
64.503,2.982,4.923,34.0
73.775,3.407,5.201,35.0
127.801,5.898,8.269,21.0
68.148,3.156,6.283,20.0
64.944,3.004,5.609,37.0
74.264,3.432,5.98,12.0
64.666,2.985,4.825,8.0
73.648,3.395,5.066,15.0
127.786,5.887,8.049,22.0
55.048,2.544,4.98,30.0
67.981,3.138,5.752,9.0
73.989,3.41,5.83,19.0
74.042,3.408,5.395,10.0
73.668,3.388,4.94,8.0
73.34,3.368,4.492,32.0
55.565,2.56,4.93,16.0
64.455,2.966,5.342,25.0
73.947,3.397,5.698,13.0
73.928,3.392,5.259,16.0
127.733,5.853,8.344,22.0
73.32,3.355,4.364,44.0
64.52,2.961,5.611,20.0
64.492,2.955,5.232,6.0
64.591,2.955,4.863,14.0
73.692,3.366,5.113,17.0
127.715,5.826,8.117,27.0
73.296,3.338,4.233,10.0
64.546,2.948,5.499,29.0
74.159,3.381,5.886,19.0
65.433,2.978,4.811,6.0
73.594,3.344,4.976,2.0
73.256,3.324,4.527,38.0
73.292,3.32,4.104,10.0
64.388,2.923,5.371,31.0
74.262,3.365,5.761,15.0
65.962,2.984,4.733,4.0
73.604,3.324,4.846,4.0
73.295,3.304,4.4,32.0
73.338,3.3,3.977,14.0
64.331,2.901,5.251,23.0
64.513,2.903,4.889,27.0
73.367,3.295,5.133,10.0
73.159,3.28,4.686,18.0
123.923,5.546,7.22,20.0
123.279,5.506,6.466,26.0
64.544,2.888,5.153,27.0
65.485,2.924,4.847,34.0
73.416,3.271,5.007,15.0
73.205,3.256,4.559,41.0
73.461,3.26,4.149,33.0
123.301,5.462,6.25,9.0
64.251,2.85,5.015,27.0
64.906,2.873,4.688,9.0
73.473,3.245,4.88,7.0
73.245,3.228,4.431,29.0
73.239,3.221,4.005,18.0
129.594,5.687,6.337,12.0
64.191,2.82,4.895,8.0
64.897,2.845,4.571,8.0
73.241,3.203,4.732,15.0
73.811,3.221,4.333,32.0
123.192,5.363,6.517,24.0
130.353,5.661,6.141,10.0
73.75,3.205,5.491,13.0
73.404,3.182,5.037,21.0
73.194,3.166,4.597,44.0
73.309,3.163,4.171,47.0
124.237,5.346,6.347,24.0
124.456,5.344,5.638,25.0
73.608,3.162,5.346,6.0
73.431,3.146,4.905,9.0
73.276,3.13,4.469,33.0
73.249,3.122,4.035,44.0
124.356,5.286,6.129,21.0
124.206,5.267,5.403,44.0
73.34,3.11,5.195,25.0
65.157,2.755,4.236,24.0
73.874,3.115,4.372,16.0
123.182,5.18,6.563,22.0
124.95,5.24,5.934,25.0
124.231,5.195,5.18,44.0
73.46,3.072,5.071,28.0
73.287,3.056,4.632,31.0
73.355,3.049,4.209,50.0
123.216,5.108,6.344,27.0
124.508,5.146,5.688,35.0
157.641,6.496,6.288,16.0
73.543,3.029,4.941,20.0
73.318,3.01,4.5,13.0
73.28,2.999,4.073,30.0
124.128,5.064,6.165,15.0
124.427,5.061,5.46,17.0
161.224,6.538,6.14,9.0
73.252,2.968,4.79,18.0
73.537,2.969,4.381,17.0
123.067,4.953,6.616,23.0
123.992,4.973,5.934,26.0
124.222,4.966,5.225,26.0
157.785,6.287,5.723,17.0
65.326,2.6,4.152,17.0
65.152,2.584,3.762,32.0
73.731,2.913,3.829,18.0
124.558,4.904,5.734,22.0
124.218,4.875,4.999,18.0
157.077,6.143,5.413,9.0
73.303,2.862,4.526,15.0
73.468,2.857,4.109,51.0
124.392,4.821,6.236,21.0
159.984,6.177,7.076,16.0
157.971,6.076,6.073,9.0
162.519,6.229,5.309,3.0
64.978,2.485,3.895,35.0
73.599,2.804,3.984,34.0
123.775,4.698,5.983,10.0
124.33,4.7,5.276,23.0
153.011,5.761,5.608,17.0
158.301,5.937,4.886,6.0
73.605,2.754,4.278,17.0
73.794,2.75,3.861,30.0
123.802,4.594,5.761,22.0
152.465,5.635,6.197,25.0
153.705,5.657,5.357,18.0
160.184,5.87,4.658,16.0
73.637,2.692,4.15,36.0
73.851,2.687,3.733,10.0
153.21,5.55,6.856,30.0
152.439,5.499,5.925,40.0
157.311,5.65,5.205,10.0
160.378,5.734,4.378,5.0
73.794,2.63,4.027,37.0
124.238,4.409,6.06,26.0
158.434,5.595,6.81,14.0
152.761,5.369,5.665,33.0
158.885,5.559,4.973,5.0
0.0,0.0,0.0,0.0
74.023,2.568,3.908,24.0
124.056,4.284,5.832,38.0
152.729,5.248,6.294,31.0
152.734,5.221,5.395,28.0
159.003,5.41,4.698,12.0
0.0,0.0,0.0,0.0
124.802,4.208,6.369,25.0
152.477,5.116,6.899,32.0
152.828,5.1,6.029,28.0
153.518,5.095,5.153,4.0
159.077,5.252,4.421,10.0
0.0,0.0,0.0,0.0
133.714,4.372,6.589,36.0
152.571,4.96,6.634,33.0
152.544,4.933,5.751,35.0
158.86,5.108,5.054,7.0
0.0,0.0,0.0,0.0
0.0,0.0,0.0,0.0
133.59,4.225,6.346,40.0
152.208,4.786,6.352,37.0
152.401,4.764,5.479,28.0
158.485,4.926,4.767,14.0
0.0,0.0,0.0,0.0
0.0,0.0,0.0,0.0
133.649,4.081,6.119,20.0
152.082,4.615,6.084,42.0
152.358,4.594,5.215,23.0
158.397,4.745,4.49,9.0
0.0,0.0,0.0,0.0
0.0,0.0,0.0,0.0
151.861,4.468,6.695,38.0
152.013,4.441,5.822,42.0
0.0,0.0,0.0,0.0
154.037,4.439,4.104,32.0
0.0,0.0,0.0,0.0
105.957,3.012,1.6,1.0
151.965,4.291,6.438,31.0
152.09,4.266,5.566,45.0
153.974,4.287,4.746,29.0
0.0,0.0,0.0,0.0
0.0,0.0,0.0,0.0
106.06,2.889,1.423,32.0
152.049,4.111,6.185,46.0
152.487,4.091,5.321,20.0
154.089,4.101,4.487,19.0
0.0,0.0,0.0,0.0
0.0,0.0,0.0,0.0
93.0,2.419,1.091,2.0
152.14,3.926,5.934,46.0
158.891,4.066,5.281,14.0
138.059,3.503,3.791,37.0
100.321,2.524,2.166,53.0
100.435,2.506,1.591,6.0
78.222,1.935,0.788,20.0
152.538,3.741,5.696,39.0
158.492,3.852,5.003,18.0
146.519,3.528,3.779,26.0
0.0,0.0,0.0,0.0
106.19,2.512,1.506,5.0
77.808,1.823,0.655,20.0
152.621,3.543,5.448,42.0
159.139,3.658,4.762,23.0
0.0,0.0,0.0,0.0
106.073,2.391,1.942,2.0
89.912,2.007,1.128,5.0
74.623,1.648,0.506,21.0
160.658,3.514,5.474,8.0
128.091,2.772,3.626,10.0
128.178,2.746,2.891,28.0
106.182,2.25,1.772,8.0
80.405,1.685,0.879,11.0
60.341,1.251,0.312,34.0
128.037,2.624,4.156,63.0
128.035,2.594,3.419,53.0
128.026,2.564,2.681,30.0
0.0,0.0,0.0,0.0
77.947,1.525,0.728,21.0
57.63,1.114,0.207,7.0
128.042,2.444,3.954,28.0
128.111,2.414,3.218,24.0
128.057,2.383,2.48,25.0
126.086,2.317,1.705,13.0
75.093,1.362,0.583,11.0
47.987,0.859,0.097,13.0
160.185,2.827,4.696,17.0
0.0,0.0,0.0,0.0
127.821,2.193,2.276,27.0
94.392,1.597,1.129,4.0
61.818,1.03,0.384,16.0
46.861,0.769,0.021,33.0
159.794,2.583,4.437,13.0
190.079,3.027,4.185,24.0
127.126,1.993,2.069,37.0
89.661,1.383,0.935,8.0
0.0,0.0,0.0,0.0
44.672,0.667,-0.046,19.0
176.343,2.588,4.63,23.0
190.175,2.742,3.9,25.0
126.479,1.792,1.867,36.0
77.88,1.084,0.695,35.0
48.029,0.656,0.152,59.0
39.479,0.529,-0.1,28.0
55.114,0.724,1.364,22.0
55.114,0.71,1.048,1.0
48.183,0.608,0.639,14.0
48.069,0.595,0.358,80.0
47.855,0.58,0.081,58.0
38.505,0.456,-0.155,49.0
48.192,0.558,1.122,51.0
48.144,0.545,0.845,81.0
48.093,0.532,0.568,103.0
48.037,0.519,0.288,90.0
0.0,0.0,0.0,0.0
37.948,0.39,-0.207,27.0
48.116,0.482,1.052,108.0
48.099,0.469,0.776,109.0
48.067,0.456,0.5,97.0
48.018,0.443,0.22,99.0
44.321,0.397,-0.051,18.0
37.528,0.326,-0.258,7.0
48.114,0.405,0.984,129.0
48.089,0.391,0.708,115.0
48.072,0.378,0.432,98.0
48.028,0.365,0.152,64.0
39.72,0.291,-0.101,23.0
37.477,0.264,-0.31,2.0
48.128,0.326,0.917,94.0
48.145,0.313,0.642,51.0
48.183,0.3,0.367,52.0
47.992,0.285,0.085,40.0
39.017,0.221,-0.153,48.0
33.091,0.178,-0.319,1.0
59.295,0.303,1.05,87.0
59.296,0.287,0.711,120.0
59.335,0.271,0.372,79.0
46.882,0.2,0.021,29.0
38.58,0.154,-0.203,15.0
31.712,0.118,-0.348,1.0
79.452,0.273,1.301,157.0
79.463,0.251,0.847,150.0
59.15,0.17,0.293,13.0
0.0,0.0,0.0,0.0
38.193,0.088,-0.251,6.0
30.72,0.062,-0.377,1.0
79.459,0.138,1.198,151.0
79.452,0.115,0.744,150.0
58.295,0.067,0.213,5.0
43.788,0.038,-0.093,4.0
38.174,0.022,-0.299,2.0
29.814,0.009,-0.404,2.0
79.463,0.002,1.099,151.0
79.238,-0.02,0.643,20.0
0.0,0.0,0.0,0.0
40.086,-0.033,-0.136,25.0
33.662,-0.037,-0.306,1.0
29.214,-0.041,-0.432,2.0
79.462,-0.136,1.0,151.0
76.417,-0.154,0.526,16.0
48.241,-0.111,0.057,10.0
39.726,-0.103,-0.183,15.0
32.547,-0.094,-0.336,2.0
28.368,-0.09,-0.454,2.0
79.47,-0.277,0.904,151.0
76.496,-0.289,0.434,10.0
46.288,-0.189,-0.001,21.0
39.395,-0.172,-0.229,5.0
31.157,-0.146,-0.358,1.0
27.55,-0.137,-0.474,2.0
79.458,-0.421,0.81,165.0
61.381,-0.343,0.276,17.0
45.711,-0.269,-0.054,7.0
39.579,-0.245,-0.276,8.0
30.317,-0.197,-0.384,1.0
26.844,-0.183,-0.493,2.0
79.439,-0.564,0.719,150.0
0.0,0.0,0.0,0.0
47.471,-0.366,-0.11,18.0
36.699,-0.294,-0.298,0.0
29.613,-0.247,-0.409,2.0
26.228,-0.227,-0.511,3.0
0.0,0.0,0.0,0.0
54.407,-0.503,0.122,4.0
50.841,-0.486,-0.174,4.0
33.493,-0.33,-0.308,1.0
29.016,-0.295,-0.432,5.0
25.63,-0.269,-0.528,1.0
78.098,-0.842,0.535,16.0
79.393,-0.881,0.093,11.0
43.299,-0.494,-0.195,2.0
32.688,-0.383,-0.336,1.0
28.371,-0.341,-0.453,2.0
25.099,-0.31,-0.543,1.0
78.316,-0.99,0.455,4.0
60.932,-0.789,0.008,3.0
42.221,-0.56,-0.233,3.0
31.452,-0.427,-0.355,1.0
27.669,-0.384,-0.47,1.0
24.473,-0.348,-0.554,2.0
81.752,-1.187,0.392,1.0
55.423,-0.822,-0.047,1.0
38.161,-0.578,-0.249,0.0
30.529,-0.472,-0.375,1.0
26.966,-0.426,-0.485,1.0
23.878,-0.385,-0.565,1.0
40.32,-0.661,0.154,21.0
40.341,-0.675,-0.074,36.0
40.167,-0.685,-0.301,2.0
29.909,-0.52,-0.397,1.0
26.453,-0.468,-0.501,1.0
23.494,-0.423,-0.578,1.0
40.28,-0.737,0.116,70.0
40.32,-0.751,-0.111,45.0
34.909,-0.662,-0.294,0.0
29.414,-0.567,-0.417,2.0
26.023,-0.51,-0.517,1.0
22.993,-0.458,-0.586,2.0
0.0,0.0,0.0,0.0
47.12,-0.968,-0.172,0.0
33.712,-0.703,-0.314,1.0
28.917,-0.613,-0.436,1.0
25.61,-0.551,-0.531,1.0
22.588,-0.494,-0.596,3.0
40.314,-0.892,0.045,3.0
40.276,-0.905,-0.182,6.0
32.896,-0.75,-0.334,1.0
28.134,-0.651,-0.448,1.0
25.12,-0.589,-0.542,1.0
22.247,-0.529,-0.606,1.0
40.287,-0.97,0.011,2.0
40.262,-0.983,-0.215,5.0
32.014,-0.792,-0.352,1.0
27.576,-0.692,-0.462,3.0
24.698,-0.628,-0.553,1.0
21.876,-0.564,-0.613,1.0
41.003,-1.067,-0.02,156.0
40.58,-1.07,-0.249,44.0
31.204,-0.833,-0.368,1.0
27.28,-0.738,-0.478,1.0
24.171,-0.662,-0.56,1.0
21.583,-0.599,-0.622,1.0
40.223,-1.126,-0.05,64.0
39.99,-1.133,-0.276,7.0
30.57,-0.876,-0.383,1.0
26.866,-0.78,-0.491,1.0
23.788,-0.699,-0.569,1.0
21.258,-0.632,-0.628,1.0
40.289,-1.207,-0.08,0.0
40.318,-1.222,-0.307,0.0
29.951,-0.918,-0.397,1.0
26.47,-0.82,-0.502,1.0
23.47,-0.736,-0.578,2.0
20.912,-0.663,-0.633,1.0
0.0,0.0,0.0,0.0
36.038,-1.163,-0.299,0.0
29.633,-0.967,-0.412,1.0
26.105,-0.861,-0.513,1.0
23.172,-0.772,-0.586,1.0
20.643,-0.695,-0.638,1.0
0.0,0.0,0.0,0.0
0.0,0.0,0.0,0.0
29.273,-1.013,-0.426,1.0
25.811,-0.903,-0.523,1.0
22.889,-0.808,-0.593,2.0
20.392,-0.727,-0.643,1.0
49.807,-1.788,-0.195,0.0
33.664,-1.22,-0.321,0.0
28.828,-1.055,-0.437,2.0
25.512,-0.943,-0.532,1.0
22.615,-0.844,-0.599,1.0
20.197,-0.761,-0.649,1.0
40.126,-1.521,-0.18,150.0
33.296,-1.273,-0.336,1.0
28.537,-1.101,-0.448,2.0
25.215,-0.982,-0.54,1.0
22.371,-0.879,-0.605,1.0
19.999,-0.793,-0.653,1.0
37.799,-1.506,-0.189,154.0
32.513,-1.307,-0.345,1.0
28.318,-1.148,-0.459,1.0
24.937,-1.02,-0.547,1.0
22.132,-0.913,-0.61,1.0
19.856,-0.827,-0.658,1.0
42.06,-1.76,-0.232,4.0
32.063,-1.353,-0.356,1.0
28.027,-1.193,-0.468,1.0
24.659,-1.058,-0.553,1.0
21.908,-0.948,-0.614,1.0
19.688,-0.859,-0.662,1.0
39.785,-1.744,-0.237,0.0
31.93,-1.411,-0.369,2.0
27.681,-1.233,-0.475,2.0
24.404,-1.096,-0.558,1.0
21.694,-0.982,-0.617,1.0
19.539,-0.892,-0.665,1.0
0.0,0.0,0.0,0.0
31.4,-1.45,-0.376,2.0
27.395,-1.275,-0.481,1.0
24.145,-1.132,-0.561,1.0
21.556,-1.018,-0.622,1.0
19.43,-0.925,-0.669,1.0
39.852,-1.905,-0.269,0.0
30.99,-1.492,-0.382,1.0
27.498,-1.334,-0.493,2.0
23.984,-1.172,-0.566,1.0
21.432,-1.055,-0.626,1.0
19.283,-0.956,-0.671,1.0
38.361,-1.91,-0.272,0.0
30.701,-1.539,-0.389,1.0
27.06,-1.366,-0.494,2.0
23.798,-1.21,-0.569,1.0
21.299,-1.091,-0.628,1.0
19.157,-0.988,-0.672,1.0
37.875,-1.96,-0.28,0.0
30.456,-1.587,-0.394,1.0
26.851,-1.408,-0.497,2.0
23.611,-1.247,-0.571,11.0
21.187,-1.127,-0.631,1.0
19.085,-1.022,-0.675,1.0
0.0,0.0,0.0,0.0
30.243,-1.636,-0.399,1.0
26.692,-1.453,-0.501,1.0
23.488,-1.287,-0.574,13.0
21.237,-1.171,-0.637,4.0
19.023,-1.056,-0.677,2.0
37.636,-2.095,-0.296,0.0
30.121,-1.688,-0.404,1.0
26.617,-1.501,-0.505,1.0
23.428,-1.329,-0.577,10.0
20.947,-1.196,-0.633,4.0
18.949,-1.089,-0.678,2.0
37.894,-2.184,-0.305,0.0
30.142,-1.748,-0.41,1.0
26.575,-1.55,-0.509,1.0
23.375,-1.372,-0.58,5.0
20.883,-1.233,-0.634,4.0
18.945,-1.126,-0.681,6.0
37.281,-2.22,-0.305,0.0
30.108,-1.804,-0.413,1.0
26.488,-1.596,-0.51,1.0
23.39,-1.418,-0.583,1.0
20.846,-1.271,-0.635,3.0
18.874,-1.158,-0.68,3.0
0.0,0.0,0.0,0.0
30.085,-1.861,-0.416,1.0
26.485,-1.647,-0.513,3.0
23.391,-1.463,-0.585,1.0
20.774,-1.307,-0.635,1.0
18.921,-1.197,-0.683,3.0
37.518,-2.38,-0.313,1.0
30.008,-1.914,-0.417,1.0
26.468,-1.697,-0.514,2.0
23.351,-1.505,-0.585,1.0
21.027,-1.363,-0.643,3.0
18.905,-1.233,-0.683,1.0
37.48,-2.448,-0.314,0.0
29.999,-1.97,-0.417,1.0
26.401,-1.743,-0.513,1.0
23.363,-1.551,-0.586,1.0
20.861,-1.392,-0.639,0.0
18.86,-1.265,-0.682,2.0
37.603,-2.526,-0.314,0.0
30.156,-2.037,-0.419,1.0
26.403,-1.793,-0.513,1.0
23.37,-1.595,-0.585,1.0
20.93,-1.436,-0.64,0.0
18.901,-1.304,-0.682,0.0
37.545,-2.594,-0.312,1.0
30.166,-2.094,-0.417,1.0
26.444,-1.845,-0.512,1.0
23.367,-1.639,-0.584,1.0
20.964,-1.478,-0.639,0.0
18.918,-1.341,-0.682,0.0
37.301,-2.647,-0.307,0.0
30.409,-2.168,-0.418,1.0
26.492,-1.899,-0.51,1.0
23.444,-1.689,-0.583,1.0
20.992,-1.52,-0.638,0.0
18.931,-1.377,-0.68,1.0
37.352,-2.72,-0.303,0.0
30.401,-2.224,-0.414,1.0
26.644,-1.959,-0.509,1.0
23.485,-1.735,-0.581,1.0
21.045,-1.562,-0.636,0.0
18.981,-1.416,-0.679,1.0
37.715,-2.816,-0.299,0.0
30.514,-2.288,-0.41,1.0
26.723,-2.013,-0.506,1.0
23.601,-1.786,-0.579,1.0
21.168,-1.61,-0.636,0.0
19.064,-1.457,-0.678,1.0
39.294,-3.005,-0.304,0.0
30.818,-2.367,-0.408,1.0
26.829,-2.07,-0.503,1.0
23.683,-1.835,-0.576,1.0
21.253,-1.655,-0.634,1.0
19.105,-1.494,-0.675,1.0
39.777,-3.113,-0.299,0.0
