X,Y,Z,Reflectivity
13.806,1.327,0.127,94.0
13.799,1.329,0.047,40.0
13.801,1.332,-0.03,37.0
13.798,1.334,-0.108,35.0
13.792,1.34,0.272,39.0
13.795,1.343,0.194,81.0
13.794,1.346,0.116,123.0
13.797,1.349,0.037,62.0
13.792,1.351,-0.04,65.0
13.791,1.354,-0.119,36.0
13.777,1.359,0.261,44.0
13.781,1.362,0.183,139.0
13.796,1.366,0.105,150.0
13.783,1.367,0.025,81.0
13.789,1.37,-0.052,66.0
13.773,1.371,-0.13,35.0
13.775,1.378,0.25,40.0
13.772,1.38,0.172,134.0
13.781,1.383,0.094,150.0
13.779,1.386,0.014,93.0
13.776,1.388,-0.063,37.0
13.766,1.389,-0.141,34.0
13.77,1.396,0.238,57.0
13.769,1.399,0.16,113.0
13.78,1.402,0.082,149.0
13.774,1.404,0.002,69.0
13.768,1.406,-0.075,39.0
13.759,1.407,-0.153,35.0
13.762,1.414,0.226,68.0
13.776,1.417,0.148,105.0
13.777,1.42,0.07,142.0
13.764,1.421,-0.009,56.0
13.771,1.424,-0.087,40.0
13.761,1.425,-0.165,35.0
13.773,1.432,0.214,40.0
13.782,1.435,0.136,119.0
13.777,1.437,0.058,77.0
13.77,1.439,-0.021,39.0
13.767,1.44,-0.099,37.0
13.767,1.443,-0.177,35.0
13.779,1.45,0.202,39.0
13.792,1.453,0.123,134.0
13.78,1.454,0.045,87.0
13.781,1.457,-0.034,37.0
13.777,1.459,-0.112,35.0
13.776,1.461,-0.19,34.0
13.787,1.468,0.189,38.0
13.79,1.47,0.111,89.0
13.786,1.472,0.032,78.0
13.785,1.474,-0.047,34.0
13.783,1.476,-0.125,34.0
13.78,1.478,-0.204,34.0
13.798,1.485,0.176,38.0
13.791,1.486,0.097,37.0
13.793,1.488,0.019,39.0
13.785,1.489,-0.06,27.0
13.784,1.492,-0.139,30.0
13.795,1.495,-0.217,30.0
13.805,1.501,0.163,34.0
13.804,1.503,0.084,31.0
13.808,1.505,0.005,31.0
13.807,1.507,-0.074,25.0
13.786,1.507,-0.152,21.0
13.803,1.511,-0.231,26.0
13.821,1.518,0.149,25.0
13.804,1.518,0.07,18.0
13.816,1.521,-0.008,20.0
13.817,1.523,-0.088,18.0
13.818,1.525,-0.166,14.0
13.81,1.526,-0.245,19.0
13.841,1.535,0.135,12.0
13.861,1.539,0.057,12.0
13.857,1.54,-0.021,15.0
13.845,1.541,-0.102,11.0
13.854,1.543,-0.181,11.0
13.824,1.542,-0.259,16.0
13.855,1.55,0.121,2.0
41.199,4.615,0.127,7.0
36.995,4.149,-0.097,5.0
34.462,3.869,-0.29,18.0
13.857,1.557,-0.195,5.0
13.849,1.558,-0.274,15.0
56.666,6.396,0.438,24.0
40.859,4.616,0.083,29.0
36.733,4.155,-0.134,31.0
0.0,0.0,0.0,0.0
23.721,2.689,-0.36,5.0
20.587,2.336,-0.43,1.0
33.882,3.855,0.226,43.0
33.919,3.863,0.032,68.0
35.763,4.077,-0.169,16.0
10.032,1.145,-0.105,0.0
22.873,2.613,-0.371,4.0
20.14,2.304,-0.442,2.0
33.868,3.884,0.189,42.0
33.905,3.891,-0.003,77.0
35.194,4.043,-0.204,11.0
10.002,1.15,-0.116,5.0
22.148,2.549,-0.383,1.0
19.668,2.266,-0.453,1.0
10.017,1.157,0.045,16.0
10.008,1.157,-0.011,15.0
34.482,3.99,-0.238,3.0
9.996,1.157,-0.127,13.0
10.005,1.159,-0.184,13.0
10.003,1.161,-0.241,14.0
10.015,1.164,0.034,21.0
10.007,1.164,-0.022,39.0
10.009,1.166,-0.08,31.0
10.012,1.167,-0.138,19.0
10.014,1.168,-0.195,18.0
10.003,1.168,-0.252,18.0
10.014,1.172,0.023,68.0
10.007,1.172,-0.034,119.0
10.002,1.172,-0.091,111.0
9.999,1.173,-0.149,51.0
10.011,1.175,-0.207,55.0
10.005,1.176,-0.264,21.0
10.001,1.177,0.011,74.0
9.999,1.178,-0.045,134.0
9.995,1.178,-0.102,112.0
9.994,1.179,-0.16,70.0
10.003,1.181,-0.218,70.0
10.0,1.182,-0.275,21.0
9.992,1.183,0.0,71.0
9.997,1.184,-0.056,150.0
9.992,1.184,-0.113,126.0
9.987,1.185,-0.171,77.0
9.993,1.186,-0.229,75.0
9.995,1.188,-0.286,29.0
9.986,1.188,-0.01,63.0
9.994,1.19,-0.068,142.0
9.984,1.19,-0.125,127.0
9.982,1.19,-0.183,73.0
9.991,1.192,-0.24,76.0
9.994,1.193,-0.298,35.0
9.98,1.193,-0.022,79.0
9.988,1.195,-0.079,134.0
9.975,1.194,-0.136,119.0
9.977,1.195,-0.194,71.0
9.98,1.196,-0.251,71.0
9.983,1.198,-0.309,36.0
9.976,1.198,-0.033,84.0
9.98,1.199,-0.09,145.0
9.98,1.2,-0.148,133.0
9.973,1.2,-0.206,92.0
9.985,1.202,-0.263,73.0
9.983,1.203,-0.32,41.0
9.974,1.203,-0.045,90.0
9.981,1.204,-0.102,150.0
9.976,1.204,-0.159,150.0
9.973,1.204,-0.217,96.0
9.981,1.206,-0.275,91.0
9.979,1.207,-0.332,37.0
9.974,1.207,-0.056,88.0
9.969,1.207,-0.113,150.0
9.975,1.208,-0.171,150.0
9.97,1.208,-0.229,99.0
9.979,1.21,-0.286,100.0
9.976,1.21,-0.344,46.0
9.973,1.211,-0.068,89.0
9.978,1.212,-0.125,150.0
9.969,1.211,-0.182,150.0
9.974,1.212,-0.241,100.0
9.973,1.213,-0.298,103.0
9.975,1.214,-0.355,56.0
9.973,1.214,-0.08,97.0
9.971,1.214,-0.137,150.0
9.971,1.215,-0.194,150.0
9.968,1.215,-0.253,103.0
9.974,1.216,-0.31,104.0
9.974,1.217,-0.367,61.0
9.974,1.217,-0.092,113.0
9.977,1.218,-0.149,150.0
9.971,1.218,-0.206,150.0
9.966,1.217,-0.264,101.0
9.972,1.219,-0.321,106.0
9.972,1.219,-0.379,52.0
9.973,1.22,-0.104,112.0
9.97,1.22,-0.161,150.0
9.972,1.22,-0.218,150.0
9.962,1.219,-0.276,95.0
9.971,1.221,-0.333,106.0
9.973,1.222,-0.391,48.0
9.969,1.221,-0.115,110.0
9.968,1.221,-0.172,150.0
9.975,1.223,-0.23,150.0
9.97,1.222,-0.288,94.0
9.973,1.223,-0.345,112.0
9.97,1.223,-0.402,60.0
9.97,1.223,-0.127,112.0
9.969,1.223,-0.184,150.0
9.977,1.224,-0.241,150.0
9.969,1.224,-0.299,103.0
9.97,1.224,-0.357,103.0
9.973,1.225,-0.414,57.0
9.973,1.224,-0.139,118.0
9.968,1.224,-0.196,150.0
9.972,1.225,-0.253,150.0
9.963,1.224,-0.311,101.0
9.97,1.225,-0.368,105.0
9.968,1.225,-0.426,54.0
9.976,1.225,-0.15,110.0
9.972,1.225,-0.207,150.0
9.977,1.226,-0.265,150.0
9.968,1.225,-0.323,107.0
9.972,1.226,-0.38,100.0
9.971,1.226,-0.437,47.0
9.969,1.225,-0.162,114.0
9.97,1.225,-0.219,150.0
9.969,1.225,-0.276,150.0
9.967,1.225,-0.334,103.0
9.977,1.226,-0.392,110.0
9.975,1.226,-0.449,50.0
9.979,1.226,-0.173,117.0
9.968,1.224,-0.23,150.0
9.979,1.226,-0.288,150.0
9.97,1.225,-0.346,106.0
9.978,1.226,-0.403,109.0
9.973,1.226,-0.46,57.0
9.973,1.224,-0.185,114.0
9.967,1.223,-0.242,150.0
9.973,1.224,-0.299,150.0
9.97,1.224,-0.357,97.0
9.978,1.225,-0.415,107.0
9.976,1.225,-0.472,46.0
9.972,1.223,-0.196,114.0
9.967,1.222,-0.253,150.0
9.973,1.223,-0.31,150.0
9.962,1.222,-0.368,99.0
9.977,1.224,-0.426,98.0
9.974,1.223,-0.483,21.0
9.971,1.221,-0.207,96.0
9.978,1.222,-0.265,150.0
9.976,1.222,-0.322,150.0
9.969,1.221,-0.38,98.0
9.977,1.222,-0.437,95.0
9.975,1.221,-0.495,23.0
9.968,1.219,-0.219,100.0
9.968,1.219,-0.276,150.0
9.975,1.219,-0.333,150.0
9.968,1.218,-0.391,100.0
9.975,1.219,-0.448,99.0
9.975,1.219,-0.506,50.0
9.973,1.217,-0.23,90.0
9.966,1.216,-0.286,150.0
9.973,1.216,-0.344,150.0
9.969,1.216,-0.402,97.0
9.975,1.216,-0.459,95.0
9.976,1.216,-0.517,52.0
9.969,1.213,-0.24,90.0
9.979,1.214,-0.298,150.0
9.974,1.214,-0.355,150.0
9.977,1.214,-0.413,94.0
9.983,1.214,-0.471,76.0
9.982,1.214,-0.528,39.0
9.971,1.21,-0.251,85.0
9.979,1.211,-0.309,150.0
9.973,1.21,-0.366,148.0
9.97,1.209,-0.424,85.0
9.99,1.211,-0.482,57.0
9.987,1.211,-0.539,27.0
9.981,1.208,-0.262,82.0
9.975,1.206,-0.319,144.0
9.977,1.206,-0.376,135.0
9.985,1.207,-0.435,68.0
9.993,1.208,-0.492,61.0
9.988,1.207,-0.55,33.0
9.989,1.204,-0.273,71.0
9.982,1.203,-0.33,144.0
9.988,1.203,-0.387,137.0
9.985,1.203,-0.445,66.0
9.996,1.204,-0.503,71.0
9.994,1.203,-0.56,34.0
9.988,1.199,-0.283,74.0
9.992,1.199,-0.34,150.0
9.989,1.198,-0.397,135.0
9.991,1.198,-0.456,65.0
10.002,1.199,-0.514,77.0
9.999,1.199,-0.571,36.0
9.991,1.195,-0.293,75.0
9.999,1.195,-0.351,145.0
9.989,1.193,-0.408,133.0
9.996,1.194,-0.466,65.0
10.0,1.194,-0.524,80.0
10.0,1.193,-0.581,36.0
9.996,1.19,-0.303,69.0
10.002,1.19,-0.361,143.0
9.998,1.189,-0.418,129.0
10.001,1.188,-0.476,63.0
10.003,1.188,-0.534,68.0
10.007,1.188,-0.592,21.0
10.003,1.184,-0.314,78.0
10.006,1.184,-0.371,118.0
10.007,1.184,-0.428,102.0
10.005,1.183,-0.486,34.0
10.011,1.183,-0.544,22.0
10.001,1.181,-0.601,18.0
10.009,1.179,-0.323,39.0
10.01,1.178,-0.381,66.0
10.01,1.177,-0.438,29.0
10.009,1.177,-0.496,18.0
10.007,1.176,-0.553,17.0
10.034,1.178,-0.612,16.0
10.019,1.173,-0.333,19.0
10.019,1.172,-0.391,18.0
10.007,1.17,-0.447,43.0
10.007,1.169,-0.506,16.0
9.991,1.167,-0.562,10.0
10.028,1.17,-0.621,7.0
13.796,1.605,-0.472,6.0
13.61,1.582,-0.543,5.0
13.088,1.521,-0.597,5.0
10.004,1.161,-0.514,3.0
10.035,1.164,-0.573,3.0
10.214,1.184,-0.642,3.0
13.769,1.591,-0.483,8.0
13.515,1.561,-0.551,5.0
13.061,1.507,-0.607,7.0
12.43,1.433,-0.65,0.0
11.55,1.331,-0.67,2.0
10.731,1.236,-0.684,0.0
13.751,1.578,-0.494,13.0
13.463,1.544,-0.561,9.0
13.07,1.498,-0.619,12.0
12.32,1.411,-0.655,2.0
11.421,1.307,-0.673,1.0
10.644,1.217,-0.688,1.0
13.749,1.566,-0.506,18.0
13.374,1.522,-0.568,8.0
13.046,1.484,-0.629,16.0
12.201,1.386,-0.659,2.0
11.289,1.282,-0.674,1.0
10.545,1.197,-0.69,1.0
13.724,1.551,-0.516,18.0
13.342,1.507,-0.578,9.0
13.041,1.472,-0.639,10.0
12.109,1.365,-0.664,1.0
11.192,1.261,-0.677,1.0
10.452,1.177,-0.692,1.0
13.714,1.538,-0.527,15.0
13.262,1.486,-0.585,11.0
12.975,1.452,-0.646,5.0
11.981,1.34,-0.666,1.0
11.096,1.239,-0.68,2.0
10.361,1.156,-0.694,1.0
13.673,1.52,-0.535,13.0
13.173,1.463,-0.591,8.0
12.856,1.426,-0.65,3.0
11.876,1.316,-0.669,2.0
10.974,1.215,-0.681,1.0
10.264,1.136,-0.695,2.0
13.625,1.501,-0.543,12.0
13.093,1.441,-0.597,8.0
12.731,1.4,-0.653,2.0
11.719,1.287,-0.669,1.0
10.891,1.195,-0.683,2.0
10.175,1.115,-0.697,2.0
13.578,1.482,-0.551,11.0
13.077,1.426,-0.605,9.0
12.581,1.37,-0.654,1.0
11.611,1.263,-0.671,1.0
10.839,1.178,-0.688,2.0
10.119,1.098,-0.7,2.0
13.472,1.456,-0.556,12.0
13.081,1.412,-0.614,9.0
12.482,1.346,-0.657,1.0
11.567,1.246,-0.676,1.0
10.766,1.158,-0.69,1.0
10.054,1.08,-0.702,2.0
13.383,1.432,-0.561,15.0
13.083,1.398,-0.623,10.0
12.368,1.32,-0.659,3.0
11.476,1.223,-0.678,1.0
10.672,1.136,-0.691,1.0
9.997,1.063,-0.704,2.0
13.4,1.418,-0.57,11.0
13.07,1.382,-0.63,10.0
12.305,1.299,-0.663,3.0
11.354,1.197,-0.677,1.0
10.6,1.116,-0.693,2.0
9.951,1.047,-0.707,2.0
13.355,1.398,-0.576,10.0
13.077,1.367,-0.638,10.0
12.198,1.273,-0.664,2.0
11.283,1.176,-0.679,1.0
10.534,1.097,-0.694,2.0
9.891,1.029,-0.708,2.0
13.273,1.374,-0.579,12.0
13.047,1.348,-0.643,12.0
12.129,1.252,-0.667,1.0
11.221,1.157,-0.682,1.0
10.479,1.079,-0.696,2.0
9.819,1.009,-0.708,2.0
13.23,1.353,-0.584,14.0
13.047,1.333,-0.65,11.0
12.093,1.233,-0.671,2.0
11.174,1.138,-0.684,2.0
10.421,1.06,-0.697,2.0
9.803,0.995,-0.712,2.0
13.221,1.336,-0.59,12.0
12.981,1.31,-0.653,7.0
12.029,1.212,-0.673,1.0
11.117,1.118,-0.686,1.0
10.373,1.042,-0.699,1.0
9.76,0.979,-0.713,2.0
13.229,1.32,-0.596,10.0
12.929,1.288,-0.656,4.0
11.952,1.188,-0.674,1.0
11.054,1.097,-0.687,1.0
10.326,1.024,-0.7,1.0
9.728,0.963,-0.715,2.0
13.209,1.3,-0.601,10.0
12.865,1.264,-0.658,2.0
11.892,1.167,-0.675,1.0
11.005,1.078,-0.688,1.0
10.276,1.005,-0.701,2.0
9.703,0.947,-0.716,2.0
13.177,1.28,-0.604,9.0
12.792,1.24,-0.659,2.0
11.833,1.145,-0.676,1.0
10.97,1.06,-0.69,1.0
10.253,0.989,-0.703,2.0
9.685,0.932,-0.718,2.0
13.149,1.259,-0.608,9.0
12.716,1.215,-0.659,3.0
11.822,1.128,-0.679,1.0
10.955,1.043,-0.692,1.0
10.227,0.972,-0.704,2.0
9.672,0.918,-0.721,2.0
13.115,1.237,-0.61,10.0
12.634,1.19,-0.659,4.0
11.744,1.104,-0.678,1.0
10.912,1.024,-0.693,1.0
10.208,0.956,-0.706,2.0
9.659,0.903,-0.722,1.0
13.102,1.217,-0.613,9.0
12.616,1.17,-0.661,4.0
11.721,1.085,-0.68,2.0
10.887,1.005,-0.694,1.0
10.198,0.94,-0.707,2.0
9.656,0.889,-0.724,2.0
13.088,1.197,-0.615,10.0
12.605,1.151,-0.663,4.0
11.688,1.065,-0.681,2.0
10.858,0.987,-0.694,2.0
10.206,0.926,-0.71,1.0
9.647,0.874,-0.725,1.0
13.102,1.18,-0.618,11.0
12.593,1.131,-0.665,4.0
11.686,1.048,-0.682,1.0
10.869,0.972,-0.697,2.0
10.173,0.908,-0.709,2.0
9.63,0.858,-0.726,1.0
13.087,1.159,-0.619,10.0
12.57,1.111,-0.665,3.0
11.698,1.031,-0.685,2.0
10.841,0.954,-0.696,2.0
10.168,0.893,-0.71,2.0
9.622,0.843,-0.726,1.0
13.077,1.138,-0.62,10.0
12.555,1.09,-0.666,3.0
11.668,1.011,-0.684,2.0
10.858,0.939,-0.699,2.0
10.169,0.877,-0.711,2.0
9.643,0.83,-0.729,1.0
13.094,1.12,-0.622,9.0
12.562,1.072,-0.667,3.0
11.634,0.99,-0.683,2.0
10.873,0.923,-0.7,1.0
10.176,0.862,-0.712,2.0
9.634,0.814,-0.728,1.0
13.085,1.099,-0.622,10.0
12.565,1.052,-0.667,3.0
11.673,0.975,-0.685,2.0
10.898,0.908,-0.702,1.0
10.187,0.847,-0.713,2.0
9.641,0.8,-0.729,2.0
13.107,1.08,-0.623,10.0
12.592,1.035,-0.669,3.0
11.722,0.961,-0.688,2.0
10.878,0.889,-0.7,2.0
10.203,0.832,-0.714,2.0
9.638,0.784,-0.728,1.0
13.087,1.058,-0.621,8.0
12.64,1.019,-0.671,3.0
11.739,0.944,-0.688,2.0
10.894,0.874,-0.7,2.0
10.242,0.819,-0.716,2.0
9.637,0.769,-0.727,1.0
13.089,1.037,-0.62,8.0
12.68,1.002,-0.671,3.0
11.778,0.928,-0.689,2.0
10.919,0.858,-0.701,2.0
10.257,0.804,-0.715,2.0
9.637,0.753,-0.726,1.0
13.145,1.021,-0.621,9.0
12.75,0.987,-0.673,3.0
11.829,0.913,-0.69,2.0
10.939,0.842,-0.7,2.0
10.283,0.789,-0.715,2.0
9.661,0.739,-0.726,1.0
13.142,0.999,-0.619,7.0
12.817,0.972,-0.675,4.0
11.886,0.898,-0.691,1.0
10.995,0.828,-0.702,1.0
10.297,0.774,-0.714,2.0
9.679,0.725,-0.725,1.0
13.198,0.982,-0.619,8.0
12.889,0.956,-0.675,5.0
11.934,0.882,-0.691,1.0
11.074,0.816,-0.704,1.0
10.33,0.759,-0.714,2.0
9.706,0.711,-0.725,1.0
13.316,0.969,-0.621,10.0
12.952,0.94,-0.675,7.0
11.993,0.867,-0.692,2.0
11.147,0.803,-0.706,1.0
10.379,0.746,-0.715,2.0
9.725,0.697,-0.723,2.0
13.364,0.951,-0.619,12.0
12.997,0.921,-0.674,7.0
12.03,0.85,-0.69,2.0
11.188,0.788,-0.705,1.0
10.455,0.734,-0.716,2.0
9.761,0.683,-0.723,2.0
13.384,0.93,-0.615,12.0
13.055,0.904,-0.672,10.0
12.137,0.838,-0.692,2.0
11.262,0.774,-0.705,1.0
10.506,0.72,-0.716,2.0
9.803,0.67,-0.722,2.0
13.487,0.915,-0.615,13.0
13.069,0.883,-0.668,11.0
12.22,0.823,-0.692,2.0
11.335,0.76,-0.705,1.0
10.599,0.709,-0.718,2.0
9.871,0.658,-0.723,2.0
13.55,0.896,-0.612,13.0
13.06,0.861,-0.662,11.0
12.298,0.807,-0.691,2.0
11.417,0.747,-0.705,2.0
10.69,0.697,-0.719,1.0
9.952,0.646,-0.724,2.0
13.667,0.881,-0.611,12.0
13.075,0.839,-0.656,10.0
12.384,0.792,-0.689,2.0
11.464,0.73,-0.702,2.0
10.767,0.683,-0.719,1.0
10.034,0.635,-0.725,2.0
13.748,0.863,-0.608,13.0
13.074,0.817,-0.649,10.0
12.467,0.776,-0.688,4.0
11.554,0.717,-0.702,1.0
10.821,0.668,-0.717,2.0
10.098,0.621,-0.724,2.0
13.95,0.852,-0.609,13.0
13.086,0.796,-0.643,9.0
12.622,0.765,-0.689,2.0
11.672,0.704,-0.702,1.0
10.897,0.655,-0.715,2.0
10.19,0.61,-0.725,2.0
14.221,0.845,-0.612,15.0
13.165,0.779,-0.639,7.0
12.774,0.752,-0.689,2.0
11.797,0.692,-0.703,1.0
11.007,0.643,-0.716,2.0
10.302,0.599,-0.726,2.0
14.485,0.836,-0.615,18.0
13.338,0.766,-0.639,10.0
12.947,0.741,-0.69,4.0
11.941,0.68,-0.703,1.0
11.112,0.63,-0.715,2.0
10.431,0.589,-0.728,2.0
14.605,0.818,-0.61,21.0
13.431,0.749,-0.634,13.0
13.012,0.722,-0.685,7.0
12.095,0.668,-0.704,1.0
11.221,0.617,-0.714,3.0
10.55,0.578,-0.729,2.0
14.638,0.796,-0.601,25.0
13.53,0.732,-0.629,15.0
13.057,0.703,-0.678,11.0
12.256,0.657,-0.704,1.0
11.341,0.605,-0.713,2.0
10.689,0.567,-0.731,2.0
14.655,0.771,-0.59,21.0
13.674,0.716,-0.625,14.0
13.063,0.681,-0.668,12.0
12.361,0.641,-0.701,1.0
11.453,0.591,-0.711,2.0
10.823,0.556,-0.731,2.0
14.688,0.749,-0.58,11.0
13.975,0.709,-0.628,14.0
13.077,0.66,-0.658,10.0
12.505,0.628,-0.698,2.0
11.641,0.581,-0.713,2.0
10.935,0.543,-0.73,2.0
14.996,0.739,-0.579,6.0
14.318,0.702,-0.631,15.0
13.145,0.641,-0.65,8.0
12.719,0.617,-0.699,3.0
11.81,0.57,-0.713,3.0
11.046,0.53,-0.727,2.0
15.521,0.739,-0.586,2.0
14.538,0.689,-0.628,20.0
13.386,0.63,-0.65,11.0
12.912,0.605,-0.698,4.0
11.973,0.558,-0.712,2.0
11.172,0.518,-0.725,2.0
15.967,0.734,-0.588,3.0
14.62,0.668,-0.618,26.0
13.559,0.616,-0.646,15.0
13.016,0.588,-0.692,7.0
12.224,0.549,-0.716,2.0
11.308,0.505,-0.723,2.0
16.285,0.722,-0.585,2.0
14.65,0.645,-0.605,26.0
13.679,0.599,-0.638,14.0
13.043,0.568,-0.68,10.0
12.418,0.537,-0.715,2.0
11.481,0.494,-0.723,2.0
16.576,0.707,-0.578,3.0
14.685,0.623,-0.592,12.0
14.043,0.592,-0.641,14.0
13.061,0.547,-0.668,9.0
12.633,0.526,-0.714,5.0
11.653,0.482,-0.722,2.0
16.928,0.694,-0.573,2.0
14.972,0.61,-0.588,5.0
14.327,0.58,-0.639,15.0
13.066,0.526,-0.654,6.0
12.78,0.511,-0.709,6.0
11.823,0.47,-0.719,2.0
17.376,0.684,-0.57,3.0
15.712,0.615,-0.599,6.0
14.474,0.563,-0.63,15.0
13.165,0.508,-0.645,1.0
12.976,0.498,-0.705,7.0
12.035,0.458,-0.719,2.0
17.636,0.666,-0.559,6.0
16.056,0.602,-0.595,2.0
14.583,0.543,-0.618,19.0
13.358,0.494,-0.639,1.0
13.112,0.482,-0.698,5.0
12.239,0.447,-0.717,3.0
18.114,0.655,-0.553,3.0
16.437,0.59,-0.59,2.0
14.636,0.522,-0.603,13.0
13.603,0.481,-0.635,1.0
13.389,0.47,-0.697,4.0
12.472,0.435,-0.716,3.0
18.582,0.642,-0.545,3.0
16.856,0.578,-0.585,3.0
14.867,0.506,-0.595,3.0
13.84,0.468,-0.629,2.0
13.624,0.457,-0.692,3.0
12.689,0.423,-0.713,4.0
19.063,0.629,-0.536,3.0
17.275,0.565,-0.578,3.0
15.526,0.504,-0.602,2.0
14.096,0.454,-0.623,2.0
13.856,0.443,-0.687,4.0
12.937,0.41,-0.71,4.0
19.587,0.615,-0.526,3.0
17.661,0.551,-0.568,4.0
16.067,0.497,-0.603,3.0
14.438,0.443,-0.62,2.0
14.102,0.429,-0.681,4.0
13.169,0.397,-0.706,5.0
20.087,0.6,-0.513,3.0
18.171,0.538,-0.561,3.0
16.469,0.484,-0.596,2.0
14.994,0.437,-0.624,2.0
14.332,0.414,-0.673,5.0
13.451,0.385,-0.703,5.0
20.662,0.586,-0.501,4.0
18.58,0.522,-0.549,3.0
16.928,0.472,-0.59,2.0
15.505,0.428,-0.624,3.0
14.456,0.395,-0.659,5.0
13.736,0.373,-0.699,4.0
21.221,0.57,-0.486,4.0
19.145,0.509,-0.54,3.0
17.357,0.458,-0.581,4.0
15.838,0.413,-0.616,2.0
14.686,0.38,-0.649,5.0
14.075,0.361,-0.697,4.0
21.937,0.556,-0.472,4.0
19.71,0.495,-0.528,3.0
17.783,0.442,-0.57,5.0
16.268,0.4,-0.609,2.0
14.99,0.365,-0.641,4.0
14.457,0.349,-0.695,5.0
23.257,0.555,-0.466,5.0
20.364,0.482,-0.516,3.0
18.315,0.428,-0.561,3.0
16.658,0.386,-0.6,2.0
15.311,0.351,-0.632,3.0
14.868,0.337,-0.693,4.0
26.924,0.604,-0.501,2.0
20.988,0.466,-0.501,4.0
18.86,0.414,-0.55,5.0
17.067,0.371,-0.589,2.0
15.675,0.337,-0.624,3.0
15.351,0.326,-0.692,2.0
27.616,0.58,-0.472,1.0
21.687,0.45,-0.485,4.0
19.35,0.397,-0.535,6.0
17.634,0.358,-0.582,2.0
16.084,0.322,-0.616,3.0
15.828,0.314,-0.69,3.0
28.803,0.564,-0.449,2.0
22.546,0.436,-0.47,3.0
19.989,0.382,-0.522,6.0
18.204,0.344,-0.573,3.0
16.528,0.308,-0.607,4.0
16.26,0.3,-0.683,3.0
29.655,0.54,-0.416,2.0
26.691,0.48,-0.515,1.0
20.702,0.367,-0.508,4.0
18.734,0.328,-0.56,6.0
17.137,0.296,-0.602,2.0
16.802,0.287,-0.679,4.0
30.807,0.519,-0.383,2.0
27.387,0.455,-0.484,1.0
21.493,0.352,-0.493,4.0
19.331,0.312,-0.547,3.0
17.714,0.282,-0.594,4.0
17.485,0.275,-0.678,4.0
32.274,0.5,-0.349,1.0
28.525,0.436,-0.458,1.0
22.129,0.333,-0.471,3.0
19.971,0.296,-0.532,3.0
18.344,0.268,-0.585,4.0
18.248,0.262,-0.678,3.0
37.057,0.526,-0.34,0.0
29.562,0.413,-0.426,2.0
26.468,0.363,-0.519,1.0
20.766,0.281,-0.519,4.0
19.033,0.253,-0.575,4.0
19.012,0.249,-0.674,3.0
37.26,0.48,-0.278,6.0
30.603,0.388,-0.389,2.0
27.292,0.34,-0.489,1.0
21.567,0.264,-0.502,4.0
19.776,0.237,-0.563,6.0
19.856,0.234,-0.67,2.0
37.857,0.44,-0.218,27.0
32.185,0.367,-0.354,1.0
28.5,0.319,-0.462,1.0
22.182,0.244,-0.478,1.0
20.621,0.222,-0.552,3.0
20.659,0.218,-0.661,2.0
38.764,0.403,-0.157,52.0
33.975,0.346,-0.315,1.0
29.519,0.294,-0.427,2.0
26.45,0.258,-0.524,2.0
21.559,0.206,-0.539,4.0
21.387,0.2,-0.647,2.0
43.976,0.404,-0.101,5.0
37.518,0.337,-0.282,6.0
30.666,0.269,-0.391,1.0
27.281,0.234,-0.492,1.0
24.347,0.204,-0.566,1.0
22.199,0.181,-0.632,3.0
0.0,0.0,0.0,0.0
38.225,0.298,-0.219,19.0
32.336,0.246,-0.354,1.0
28.577,0.212,-0.464,1.0
25.616,0.185,-0.55,1.0
23.023,0.162,-0.614,1.0
47.934,0.329,0.06,54.0
39.245,0.261,-0.154,46.0
34.546,0.224,-0.315,0.0
29.596,0.186,-0.427,2.0
26.612,0.162,-0.522,2.0
23.749,0.14,-0.589,2.0
54.871,0.315,0.169,58.0
44.014,0.244,-0.092,9.0
37.853,0.203,-0.276,7.0
30.861,0.16,-0.388,1.0
27.531,0.138,-0.49,1.0
24.594,0.118,-0.565,1.0
59.352,0.276,0.292,48.0
46.67,0.209,-0.012,22.0
38.718,0.166,-0.21,26.0
32.83,0.135,-0.352,1.0
28.805,0.113,-0.458,2.0
25.825,0.097,-0.545,3.0
76.535,0.275,0.521,57.0
54.13,0.185,0.087,28.0
39.901,0.129,-0.142,25.0
37.937,0.117,-0.336,0.0
29.911,0.087,-0.42,2.0
26.758,0.073,-0.514,3.0
79.444,0.204,0.69,150.0
55.262,0.133,0.193,8.0
0.0,0.0,0.0,0.0
38.298,0.079,-0.266,8.0
31.327,0.059,-0.38,1.0
27.884,0.048,-0.483,2.0
79.467,0.125,0.842,151.0
75.95,0.107,0.411,14.0
47.564,0.059,0.011,21.0
39.291,0.042,-0.197,27.0
33.307,0.031,-0.34,1.0
29.205,0.022,-0.449,2.0
79.462,0.049,0.995,151.0
79.308,0.036,0.583,20.0
0.0,0.0,0.0,0.0
40.904,0.005,-0.126,17.0
38.268,0.0,-0.316,3.0
30.375,-0.004,-0.408,1.0
79.465,-0.024,1.151,151.0
79.448,-0.037,0.74,150.0
61.766,-0.038,0.255,14.0
45.2,-0.034,-0.051,21.0
39.071,-0.035,-0.246,14.0
32.223,-0.034,-0.369,1.0
79.45,-0.095,1.305,152.0
79.472,-0.107,0.895,155.0
76.382,-0.114,0.466,17.0
0.0,0.0,0.0,0.0
40.219,-0.071,-0.174,16.0
33.855,-0.064,-0.321,0.0
79.442,-0.163,1.461,167.0
79.454,-0.174,1.052,153.0
79.43,-0.185,0.641,150.0
56.138,-0.138,0.158,18.0
42.488,-0.111,-0.099,17.0
38.948,-0.106,-0.292,3.0
79.436,-0.229,1.621,198.0
79.457,-0.239,1.211,156.0
79.457,-0.249,0.8,151.0
76.385,-0.25,0.367,10.0
46.206,-0.157,-0.016,5.0
39.358,-0.139,-0.216,6.0
79.443,-0.292,1.781,154.0
79.441,-0.302,1.37,171.0
79.461,-0.312,0.961,151.0
79.16,-0.32,0.541,29.0
0.0,0.0,0.0,0.0
41.937,-0.179,-0.146,7.0
79.444,-0.351,1.94,161.0
79.423,-0.36,1.529,211.0
79.452,-0.37,1.12,161.0
79.464,-0.379,0.702,164.0
61.312,-0.299,0.225,15.0
46.487,-0.232,-0.068,20.0
79.427,-0.408,2.1,163.0
79.421,-0.417,1.69,219.0
79.442,-0.425,1.281,170.0
79.461,-0.434,0.863,177.0
76.784,-0.428,0.438,12.0
0.0,0.0,0.0,0.0
79.436,-0.462,2.262,151.0
79.426,-0.47,1.852,189.0
79.439,-0.478,1.442,179.0
79.452,-0.486,1.025,165.0
79.403,-0.494,0.615,130.0
61.097,-0.386,0.158,12.0
79.424,-0.512,2.423,150.0
79.432,-0.52,2.014,171.0
79.435,-0.528,1.605,186.0
79.452,-0.535,1.186,167.0
79.457,-0.543,0.777,175.0
76.928,-0.533,0.357,7.0
79.42,-0.56,2.585,150.0
79.443,-0.568,2.176,151.0
79.423,-0.575,1.767,203.0
79.451,-0.582,1.35,167.0
79.451,-0.589,0.941,178.0
0.0,0.0,0.0,0.0
79.422,-0.606,2.75,150.0
79.422,-0.612,2.34,150.0
79.432,-0.619,1.93,171.0
79.446,-0.625,1.513,167.0
79.448,-0.632,1.105,178.0
79.456,-0.638,0.695,151.0
79.439,-0.648,2.913,151.0
79.424,-0.654,2.503,150.0
79.438,-0.66,2.095,151.0
79.433,-0.665,1.676,176.0
79.444,-0.671,1.267,180.0
79.451,-0.677,0.859,173.0
79.431,-0.687,3.077,200.0
79.428,-0.692,2.667,151.0
79.41,-0.697,2.257,151.0
79.43,-0.703,1.84,178.0
79.438,-0.708,1.431,175.0
79.448,-0.713,1.022,167.0
89.543,-0.815,3.652,18.0
79.437,-0.728,2.83,151.0
79.422,-0.732,2.419,150.0
79.431,-0.737,2.002,151.0
79.435,-0.741,1.593,176.0
79.437,-0.745,1.183,196.0
85.97,-0.818,3.683,39.0
79.434,-0.759,2.992,178.0
79.432,-0.764,2.582,151.0
79.439,-0.768,2.165,151.0
79.425,-0.771,1.755,186.0
79.439,-0.775,1.346,181.0
85.861,-0.849,3.854,150.0
79.443,-0.789,3.157,154.0
79.428,-0.792,2.746,151.0
79.44,-0.796,2.329,151.0
79.444,-0.8,1.92,160.0
79.427,-0.803,1.511,181.0
79.276,-0.811,3.724,192.0
87.724,-0.901,3.667,3.0
79.434,-0.819,2.912,155.0
79.419,-0.821,2.493,150.0
79.444,-0.824,2.084,153.0
79.425,-0.827,1.676,202.0
83.762,-0.882,4.11,97.0
85.867,-0.907,3.77,150.0
79.421,-0.841,3.076,173.0
79.422,-0.844,2.658,151.0
79.444,-0.846,2.249,153.0
79.436,-0.848,1.839,164.0
83.726,-0.904,4.279,102.0
0.0,0.0,0.0,0.0
79.388,-0.861,3.238,150.0
79.409,-0.863,2.822,150.0
79.436,-0.865,2.413,151.0
79.439,-0.866,2.003,153.0
83.681,-0.922,4.45,48.0
79.223,-0.875,3.804,155.0
85.937,-0.95,3.681,50.0
79.431,-0.879,2.984,151.0
79.423,-0.88,2.575,151.0
79.435,-0.881,2.166,151.0
83.519,-0.936,4.613,49.0
83.753,-0.939,4.194,63.0
85.862,-0.964,3.855,14.0
79.422,-0.892,3.148,151.0
79.417,-0.892,2.738,150.0
79.433,-0.893,2.33,151.0
83.296,-0.946,4.774,49.0
83.715,-0.951,4.366,46.0
0.0,0.0,0.0,0.0
79.39,-0.902,3.311,150.0
79.42,-0.902,2.902,150.0
79.414,-0.901,2.492,150.0
83.117,-0.953,4.934,49.0
83.63,-0.959,4.532,52.0
83.823,-0.96,4.107,16.0
79.38,-0.908,3.471,150.0
79.414,-0.908,3.063,150.0
79.406,-0.907,2.653,150.0
83.095,-0.959,5.102,11.0
83.388,-0.961,4.687,41.0
83.789,-0.965,4.277,51.0
0.0,0.0,0.0,0.0
79.387,-0.911,3.222,150.0
79.404,-0.91,2.812,150.0
86.07,-0.996,5.459,46.0
83.212,-0.961,4.846,57.0
83.687,-0.965,4.44,53.0
79.221,-0.911,3.784,158.0
79.388,-0.912,3.382,150.0
79.406,-0.91,2.972,150.0
86.082,-0.996,5.634,45.0
83.052,-0.959,5.004,38.0
83.537,-0.962,4.6,43.0
83.815,-0.962,4.174,51.0
0.0,0.0,0.0,0.0
79.42,-0.907,3.132,150.0
86.11,-0.993,5.81,40.0
86.079,-0.989,5.361,38.0
83.304,-0.954,4.756,61.0
83.718,-0.956,4.337,49.0
0.0,0.0,0.0,0.0
79.393,-0.9,3.29,125.0
63.233,-0.724,4.393,52.0
86.081,-0.982,5.533,47.0
83.13,-0.944,4.91,54.0
83.637,-0.947,4.497,66.0
83.806,-0.945,4.072,11.0
85.908,-0.964,3.729,150.0
62.697,-0.71,4.48,76.0
86.116,-0.972,5.704,54.0
83.052,-0.933,5.07,23.0
83.419,-0.932,4.651,52.0
83.74,-0.932,4.235,75.0
0.0,0.0,0.0,0.0
62.64,-0.7,4.6,78.0
63.418,-0.705,4.327,38.0
86.068,-0.952,5.424,55.0
83.236,-0.916,4.803,58.0
83.686,-0.916,4.394,60.0
79.245,-0.863,3.749,151.0
41.402,-0.455,3.12,56.0
62.792,-0.686,4.406,65.0
90.516,-0.983,5.879,30.0
83.088,-0.896,4.955,59.0
83.547,-0.896,4.549,51.0
83.744,-0.893,4.124,97.0
41.412,-0.445,3.202,62.0
62.667,-0.67,4.518,68.0
77.853,-0.827,5.207,15.0
86.075,-0.908,5.298,16.0
83.434,-0.874,4.702,15.0
83.715,-0.871,4.282,89.0
0.0,0.0,0.0,0.0
41.532,-0.432,3.074,32.0
62.977,-0.651,4.332,37.0
77.743,-0.798,4.935,29.0
85.956,-0.875,5.007,22.0
93.863,-0.948,4.98,28.0
40.257,-0.41,3.267,67.0
54.24,-0.549,4.117,7.0
62.702,-0.629,4.431,59.0
77.821,-0.774,5.085,58.0
83.041,-0.819,4.994,37.0
98.29,-0.961,5.398,21.0
40.042,-0.395,3.325,60.0
41.366,-0.404,3.217,72.0
81.604,-0.79,5.92,5.0
76.803,-0.737,5.162,14.0
77.41,-0.736,4.799,50.0
85.893,-0.808,4.877,38.0
40.593,-0.385,3.446,66.0
0.0,0.0,0.0,0.0
41.541,-0.386,3.09,39.0
76.761,-0.707,5.301,14.0
77.729,-0.708,4.96,35.0
98.234,-0.885,5.756,52.0
41.055,-0.373,3.56,38.0
40.567,-0.365,3.305,68.0
41.38,-0.368,3.154,63.0
62.719,-0.551,4.445,6.0
76.832,-0.667,5.043,24.0
77.52,-0.665,4.682,15.0
40.237,-0.348,3.563,57.0
40.109,-0.343,3.34,56.0
41.419,-0.349,3.231,44.0
75.605,-0.629,5.495,45.0
63.453,-0.522,4.279,39.0
77.022,-0.624,4.79,25.0
40.008,-0.327,3.614,55.0
40.505,-0.327,3.446,65.0
47.91,-0.381,3.823,22.0
41.622,-0.326,3.099,48.0
75.631,-0.584,5.234,19.0
63.498,-0.483,4.061,33.0
40.188,-0.308,3.702,54.0
40.049,-0.302,3.478,53.0
40.147,-0.298,3.275,74.0
47.886,-0.35,3.65,4.0
75.63,-0.544,5.366,34.0
76.914,-0.544,5.054,12.0
42.568,-0.303,3.997,3.0
40.119,-0.281,3.555,33.0
40.099,-0.276,3.341,74.0
47.891,-0.323,3.733,5.0
48.716,-0.323,3.54,57.0
63.397,-0.412,4.274,56.0
39.597,-0.26,3.786,67.0
40.095,-0.258,3.622,59.0
39.919,-0.251,3.394,58.0
40.137,-0.247,3.197,65.0
47.86,-0.289,3.56,25.0
49.025,-0.289,3.388,60.0
42.377,-0.252,4.124,19.0
42.881,-0.25,3.945,4.0
40.119,-0.228,3.478,43.0
40.584,-0.225,3.3,66.0
47.848,-0.259,3.638,7.0
48.997,-0.259,3.466,77.0
39.452,-0.21,3.905,69.0
42.49,-0.22,3.979,2.0
39.85,-0.201,3.521,53.0
40.407,-0.198,3.352,70.0
49.146,-0.234,3.817,16.0
48.043,-0.222,3.478,81.0
40.135,-0.187,4.038,43.0
42.52,-0.192,4.052,3.0
0.0,0.0,0.0,0.0
40.536,-0.171,3.429,54.0
40.51,-0.165,3.212,66.0
47.78,-0.187,3.535,11.0
39.732,-0.157,4.062,68.0
39.939,-0.152,3.871,57.0
42.012,-0.154,3.848,26.0
39.886,-0.14,3.437,45.0
41.362,-0.139,3.345,35.0
47.853,-0.153,3.617,7.0
39.967,-0.129,4.15,43.0
40.076,-0.123,3.947,54.0
41.608,-0.122,3.876,42.0
53.769,-0.149,4.718,6.0
39.859,-0.104,3.285,52.0
47.864,-0.118,3.691,35.0
40.984,-0.101,4.319,42.0
40.823,-0.095,4.084,24.0
40.217,-0.087,3.808,28.0
0.0,0.0,0.0,0.0
39.797,-0.073,3.341,62.0
40.03,-0.067,3.147,38.0
41.035,-0.07,4.387,42.0
40.718,-0.063,4.135,43.0
40.896,-0.056,3.934,18.0
40.502,-0.049,3.676,68.0
39.785,-0.041,3.399,53.0
39.919,-0.035,3.197,52.0
41.023,-0.036,4.447,44.0
40.373,-0.029,4.16,61.0
41.083,-0.023,4.012,34.0
40.295,-0.015,3.716,28.0
47.756,-0.011,4.149,9.0
39.808,-0.002,3.246,59.0
40.18,-0.002,4.414,51.0
40.259,0.004,4.206,46.0
40.549,0.011,4.019,55.0
0.0,0.0,0.0,0.0
0.0,0.0,0.0,0.0
39.83,0.031,3.304,64.0
40.146,0.031,4.467,55.0
40.825,0.039,4.322,21.0
40.321,0.046,4.052,55.0
54.692,0.072,5.198,7.0
47.76,0.071,4.282,9.0
39.877,0.066,3.362,50.0
40.22,0.067,4.531,32.0
40.215,0.075,4.313,75.0
40.004,0.081,4.075,70.0
40.128,0.088,3.868,70.0
54.68,0.13,4.976,22.0
39.93,0.102,3.42,58.0
39.549,0.102,4.508,70.0
40.121,0.111,4.356,47.0
40.04,0.118,4.131,59.0
40.181,0.125,3.925,47.0
54.692,0.18,5.049,10.0
40.026,0.14,3.48,39.0
39.578,0.139,4.563,69.0
40.328,0.149,4.431,48.0
40.245,0.156,4.205,58.0
40.194,0.164,3.978,56.0
47.647,0.202,4.459,57.0
54.721,0.243,4.827,17.0
43.526,0.195,5.074,21.0
40.288,0.188,4.478,49.0
40.312,0.195,4.262,59.0
40.302,0.202,4.039,36.0
47.625,0.248,4.516,30.0
40.306,0.217,3.604,41.0
39.747,0.217,4.682,43.0
40.568,0.228,4.558,29.0
40.18,0.233,4.296,58.0
40.24,0.241,4.081,54.0
47.513,0.294,4.561,10.0
57.264,0.365,5.189,18.0
39.586,0.255,4.71,59.0
40.126,0.266,4.556,51.0
40.221,0.274,4.348,67.0
40.129,0.281,4.116,68.0
47.443,0.341,4.61,54.0
40.016,0.295,3.671,52.0
40.289,0.3,4.84,23.0
40.14,0.306,4.603,39.0
40.656,0.319,4.441,33.0
40.411,0.325,4.191,34.0
47.402,0.39,4.659,23.0
40.052,0.337,3.719,18.0
0.0,0.0,0.0,0.0
40.161,0.349,4.65,55.0
40.038,0.355,4.418,46.0
47.272,0.429,4.954,5.0
0.0,0.0,0.0,0.0
40.381,0.382,3.793,5.0
43.81,0.418,5.36,5.0
40.393,0.394,4.721,37.0
40.815,0.406,4.547,27.0
41.119,0.417,4.352,23.0
39.938,0.412,4.01,43.0
64.416,0.679,6.117,14.0
40.15,0.427,4.953,46.0
39.949,0.432,4.709,55.0
40.542,0.446,4.557,45.0
41.055,0.46,4.386,17.0
39.936,0.455,4.048,47.0
56.246,0.652,5.396,9.0
42.638,0.499,5.302,21.0
40.144,0.477,4.771,38.0
40.538,0.49,4.596,55.0
41.173,0.506,4.438,16.0
47.671,0.595,4.878,6.0
40.319,0.512,3.906,15.0
39.853,0.51,4.993,15.0
40.068,0.521,4.8,34.0
40.416,0.534,4.619,51.0
41.543,0.557,4.516,16.0
47.652,0.648,4.92,3.0
52.489,0.724,5.132,6.0
39.429,0.549,4.976,58.0
43.923,0.62,5.301,5.0
41.305,0.591,4.758,50.0
47.582,0.69,5.214,6.0
41.218,0.606,4.291,15.0
40.812,0.608,4.025,52.0
38.948,0.586,4.949,61.0
41.244,0.628,5.012,37.0
40.937,0.632,4.75,54.0
41.492,0.649,4.581,40.0
41.218,0.653,4.325,14.0
40.208,0.644,3.998,49.0
38.908,0.63,4.975,45.0
39.575,0.649,4.842,43.0
41.348,0.685,4.83,35.0
41.219,0.692,4.584,41.0
41.325,0.701,4.368,22.0
40.06,0.688,4.014,52.0
38.616,0.669,4.968,49.0
39.168,0.687,4.822,59.0
41.674,0.739,4.9,48.0
41.287,0.74,4.622,56.0
0.0,0.0,0.0,0.0
43.022,0.789,4.342,22.0
38.476,0.711,4.978,57.0
39.033,0.73,4.833,71.0
41.862,0.791,4.951,35.0
41.577,0.794,4.684,37.0
0.0,0.0,0.0,0.0
48.447,0.944,4.923,42.0
38.578,0.759,5.018,49.0
38.891,0.773,4.842,53.0
0.0,0.0,0.0,0.0
40.923,0.829,4.637,42.0
48.548,0.993,5.232,11.0
48.486,1.002,4.958,32.0
39.024,0.814,5.101,52.0
38.026,0.8,4.758,65.0
40.816,0.867,4.88,44.0
41.288,0.885,4.703,55.0
48.517,1.05,5.258,10.0
41.162,0.898,4.233,24.0
38.903,0.857,5.107,36.0
38.039,0.845,4.782,65.0
41.563,0.931,4.993,11.0
41.249,0.932,4.722,48.0
41.11,0.937,4.478,52.0
41.253,0.948,4.265,32.0
38.712,0.899,5.104,53.0
37.939,0.888,4.79,60.0
38.109,0.899,4.598,60.0
41.51,0.988,4.773,54.0
42.475,1.019,4.648,14.0
41.306,0.999,4.291,28.0
38.712,0.945,5.123,52.0
38.046,0.936,4.822,65.0
37.855,0.938,4.586,56.0
42.402,1.059,4.896,28.0
57.095,1.438,6.275,12.0
41.342,1.049,4.314,32.0
41.067,1.051,5.453,32.0
38.005,0.98,4.833,47.0
37.853,0.983,4.602,52.0
42.418,1.11,4.916,18.0
49.761,1.312,5.49,13.0
41.254,1.095,4.322,21.0
0.0,0.0,0.0,0.0
37.991,1.025,4.847,69.0
37.8,1.027,4.611,64.0
38.0,1.04,4.419,22.0
42.017,1.158,4.651,34.0
41.302,1.146,4.342,29.0
38.377,1.075,5.126,61.0
38.352,1.081,4.906,55.0
37.801,1.072,4.624,72.0
37.917,1.083,4.422,13.0
42.286,1.216,4.695,20.0
41.251,1.193,4.35,38.0
38.325,1.119,5.131,65.0
38.208,1.122,4.9,62.0
37.893,1.12,4.646,45.0
37.942,1.129,4.436,34.0
42.253,1.265,4.703,12.0
41.844,1.261,4.424,17.0
37.896,1.152,5.084,54.0
38.541,1.179,4.953,44.0
37.643,1.158,4.625,68.0
37.901,1.173,4.44,42.0
38.319,1.193,4.274,38.0
38.311,1.2,4.059,22.0
0.0,0.0,0.0,0.0
38.456,1.222,4.95,48.0
37.835,1.209,4.657,55.0
37.888,1.217,4.446,41.0
38.152,1.233,4.263,36.0
38.345,1.246,4.07,40.0
38.454,1.261,5.174,35.0
38.359,1.264,4.944,37.0
37.772,1.252,4.655,47.0
37.712,1.257,4.431,50.0
37.975,1.272,4.249,60.0
38.388,1.293,4.08,25.0
37.843,1.286,5.097,67.0
38.154,1.304,4.922,58.0
37.927,1.302,4.679,50.0
37.719,1.302,4.436,46.0
37.964,1.317,4.251,66.0
41.677,1.454,4.433,4.0
37.424,1.317,5.044,63.0
38.162,1.349,4.927,53.0
38.194,1.357,4.714,42.0
37.73,1.347,4.44,51.0
37.982,1.362,4.255,63.0
38.571,1.391,4.104,27.0
37.405,1.361,5.042,68.0
38.055,1.391,4.914,54.0
38.028,1.396,4.695,50.0
37.887,1.397,4.459,33.0
37.631,1.394,4.216,62.0
41.613,1.549,4.428,6.0
37.554,1.41,5.062,56.0
37.921,1.431,4.896,48.0
37.859,1.434,4.673,48.0
37.817,1.439,4.45,52.0
38.034,1.454,4.26,47.0
41.384,1.589,4.402,27.0
37.727,1.461,5.084,60.0
38.03,1.479,4.908,35.0
37.909,1.481,4.676,57.0
42.771,1.677,5.029,18.0
37.704,1.485,4.22,58.0
41.149,1.628,4.373,48.0
37.617,1.501,5.065,56.0
37.777,1.513,4.871,51.0
37.887,1.523,4.669,63.0
42.989,1.735,5.05,14.0
37.993,1.539,4.247,57.0
41.222,1.677,4.375,33.0
37.69,1.547,5.069,47.0
37.543,1.546,4.835,55.0
37.913,1.567,4.667,44.0
41.356,1.716,4.851,3.0
38.008,1.583,4.242,29.0
41.488,1.735,4.396,27.0
37.597,1.586,5.049,45.0
37.9,1.604,4.873,45.0
37.836,1.608,4.649,60.0
38.022,1.621,4.452,9.0
41.387,1.771,4.61,26.0
41.979,1.803,4.439,26.0
37.497,1.624,5.027,52.0
37.827,1.644,4.855,47.0
37.86,1.651,4.643,58.0
55.738,2.439,6.512,6.0
41.476,1.821,4.609,5.0
41.692,1.836,4.397,30.0
37.771,1.678,5.053,57.0
37.861,1.687,4.848,50.0
38.111,1.704,4.662,33.0
38.0,1.704,4.428,54.0
41.957,1.888,4.65,16.0
41.867,1.89,4.402,23.0
38.088,1.734,5.083,42.0
38.004,1.735,4.854,46.0
37.954,1.738,4.63,52.0
54.518,2.504,6.334,11.0
63.422,2.922,7.007,26.0
41.814,1.933,4.382,11.0
38.032,1.772,5.061,39.0
37.841,1.769,4.818,59.0
37.882,1.775,4.607,63.0
38.01,1.787,4.401,11.0
61.674,2.908,6.789,8.0
53.674,2.538,5.603,30.0
37.799,1.802,5.014,61.0
37.941,1.814,4.815,41.0
37.921,1.817,4.595,71.0
42.035,2.02,4.849,17.0
41.752,2.012,4.578,9.0
41.78,2.019,4.343,3.0
37.65,1.834,4.977,61.0
37.725,1.842,4.77,59.0
37.971,1.859,4.583,57.0
41.702,2.047,4.79,42.0
42.148,2.075,4.601,9.0
41.562,2.051,4.3,18.0
37.578,1.869,4.949,64.0
37.777,1.884,4.757,42.0
38.128,1.906,4.582,47.0
41.829,2.096,4.783,23.0
41.83,2.101,4.544,14.0
41.524,2.091,4.274,22.0
37.885,1.923,4.969,44.0
37.66,1.915,4.722,59.0
41.745,2.128,4.994,16.0
41.953,2.143,4.774,17.0
41.634,2.132,4.499,33.0
63.049,3.236,6.454,10.0
38.103,1.971,4.975,38.0
37.726,1.956,4.708,61.0
42.314,2.198,5.037,16.0
41.87,2.18,4.739,26.0
41.763,2.179,4.488,20.0
63.03,3.296,6.413,30.0
38.137,2.009,4.955,51.0
37.749,1.993,4.687,60.0
41.946,2.219,4.967,24.0
41.746,2.213,4.699,23.0
41.906,2.226,4.476,23.0
53.507,2.848,5.409,9.0
38.46,2.063,4.972,53.0
37.742,2.028,4.661,40.0
41.728,2.246,4.912,16.0
38.417,2.072,4.298,40.0
41.357,2.235,4.389,36.0
52.6,2.848,5.281,11.0
42.33,2.309,5.442,9.0
37.765,2.063,4.637,45.0
44.525,2.437,5.21,14.0
38.343,2.102,4.262,66.0
41.567,2.283,4.381,16.0
63.0,3.467,6.28,10.0
45.99,2.55,5.878,17.0
41.329,2.295,5.043,6.0
38.278,2.129,4.45,41.0
38.365,2.138,4.235,67.0
63.179,3.527,6.61,15.0
0.0,0.0,0.0,0.0
38.049,2.143,4.833,37.0
41.292,2.329,5.005,37.0
38.207,2.158,4.41,34.0
38.469,2.176,4.215,33.0
63.373,3.591,6.579,9.0
64.333,3.652,6.31,17.0
37.999,2.172,4.794,58.0
38.683,2.214,4.657,10.0
38.198,2.19,4.377,60.0
38.452,2.207,4.181,38.0
63.218,3.635,6.51,14.0
41.513,2.39,4.036,48.0
37.971,2.202,4.758,67.0
52.57,3.052,6.283,11.0
38.283,2.225,4.354,61.0
41.948,2.442,4.524,12.0
53.19,3.1,5.43,18.0
41.452,2.42,3.993,66.0
38.114,2.24,4.741,51.0
41.322,2.431,4.901,2.0
38.173,2.249,4.306,58.0
41.929,2.473,4.484,13.0
63.355,3.742,6.41,15.0
41.463,2.452,3.957,46.0
38.101,2.268,4.704,32.0
38.381,2.287,4.516,9.0
38.232,2.28,4.277,65.0
41.932,2.504,4.444,5.0
41.428,2.477,4.152,34.0
41.388,2.477,3.91,58.0
38.47,2.318,4.712,17.0
44.722,2.697,5.218,4.0
38.267,2.31,4.243,59.0
63.404,3.832,6.657,33.0
41.377,2.503,4.106,50.0
63.764,3.862,5.96,15.0
41.333,2.519,5.021,3.0
38.113,2.325,4.408,54.0
38.307,2.339,4.208,67.0
63.297,3.868,6.581,38.0
41.431,2.534,4.069,35.0
63.705,3.902,5.889,25.0
38.159,2.351,4.595,48.0
38.112,2.35,4.367,72.0
38.304,2.364,4.167,61.0
63.378,3.915,6.522,28.0
63.588,3.931,6.177,25.0
65.102,4.029,5.949,14.0
38.129,2.374,4.549,62.0
38.238,2.382,4.34,60.0
38.426,2.395,4.139,36.0
63.78,3.979,6.494,39.0
63.535,3.967,6.102,11.0
64.859,4.053,5.855,24.0
38.125,2.396,4.506,66.0
38.395,2.415,4.315,45.0
38.32,2.412,4.084,11.0
63.387,3.992,6.382,31.0
54.37,3.426,5.161,6.0
0.0,0.0,0.0,0.0
38.104,2.417,4.46,62.0
38.373,2.435,4.268,64.0
64.097,4.07,6.758,39.0
63.349,4.025,6.305,24.0
63.66,4.047,5.968,7.0
64.943,4.131,5.714,40.0
38.147,2.44,4.42,64.0
38.374,2.456,4.223,62.0
63.732,4.08,6.644,38.0
63.351,4.058,6.23,14.0
70.269,4.503,6.504,33.0
64.818,4.156,5.626,25.0
38.23,2.464,4.383,60.0
38.308,2.47,4.169,62.0
64.215,4.142,6.616,15.0
63.377,4.09,6.155,13.0
70.496,4.552,6.439,22.0
65.753,4.248,5.626,33.0
38.288,2.486,4.342,65.0
38.324,2.489,4.123,43.0
64.13,4.167,6.526,39.0
63.439,4.123,6.082,27.0
70.145,4.56,6.319,15.0
65.621,4.268,5.533,41.0
38.354,2.507,4.301,66.0
38.758,2.533,4.12,37.0
64.035,4.187,6.436,10.0
63.329,4.142,5.991,38.0
70.075,4.584,6.224,22.0
64.923,4.248,5.392,28.0
38.466,2.529,4.263,64.0
64.183,4.221,6.74,31.0
54.382,3.576,5.395,2.0
70.374,4.628,6.566,13.0
64.713,4.257,5.664,31.0
65.179,4.288,5.328,34.0
38.723,2.56,4.241,58.0
66.422,4.391,6.888,8.0
70.502,4.66,6.901,16.0
70.39,4.654,6.475,9.0
65.077,4.302,5.61,33.0
65.681,4.343,5.283,38.0
38.842,2.58,4.202,51.0
64.405,4.277,6.592,18.0
63.456,4.214,6.127,12.0
63.414,4.211,5.749,33.0
65.33,4.338,5.544,36.0
65.818,4.37,5.205,28.0
64.185,4.282,6.856,12.0
71.025,4.737,7.173,11.0
70.423,4.695,6.703,10.0
0.0,0.0,0.0,0.0
65.294,4.353,5.451,40.0
65.85,4.389,5.118,32.0
64.193,4.297,6.768,15.0
70.848,4.741,7.057,40.0
63.299,4.235,5.937,30.0
64.971,4.346,5.71,25.0
65.104,4.354,5.345,27.0
65.764,4.397,5.019,21.0
64.208,4.311,6.678,24.0
0.0,0.0,0.0,0.0
63.272,4.245,5.845,23.0
65.02,4.361,5.623,37.0
65.349,4.382,5.272,23.0
67.131,4.501,5.028,43.0
64.201,4.321,6.585,28.0
0.0,0.0,0.0,0.0
70.585,4.746,6.419,11.0
65.206,4.383,5.545,26.0
0.0,0.0,0.0,0.0
67.284,4.52,4.943,33.0
71.382,4.812,7.219,16.0
70.542,4.753,6.723,21.0
65.095,4.384,5.826,22.0
65.289,4.395,5.457,31.0
66.265,4.459,5.155,41.0
67.311,4.528,4.847,41.0
70.995,4.792,7.074,49.0
70.49,4.755,6.614,16.0
65.003,4.383,5.721,35.0
65.285,4.399,5.361,27.0
66.696,4.492,5.09,42.0
67.214,4.525,4.74,42.0
64.906,4.384,6.37,11.0
70.567,4.763,6.515,13.0
64.979,4.383,5.622,36.0
65.328,4.404,5.266,37.0
67.19,4.527,5.027,42.0
67.286,4.531,4.644,43.0
0.0,0.0,0.0,0.0
70.586,4.764,6.408,9.0
65.181,4.396,5.539,26.0
65.557,4.418,5.185,21.0
67.246,4.529,4.929,32.0
67.286,4.529,4.543,43.0
70.542,4.762,6.708,27.0
65.123,4.392,5.814,26.0
65.313,4.402,5.451,27.0
66.297,4.464,5.142,43.0
67.321,4.53,4.831,42.0
67.299,4.525,4.44,43.0
70.468,4.751,6.592,11.0
64.969,4.376,5.699,38.0
65.257,4.392,5.345,28.0
66.879,4.497,5.083,43.0
67.278,4.52,4.724,42.0
67.394,4.524,4.342,42.0
70.583,4.75,6.492,17.0
65.077,4.375,5.606,34.0
65.59,4.405,5.269,35.0
67.234,4.511,5.004,43.0
67.3,4.511,4.62,42.0
67.484,4.52,4.242,24.0
65.056,4.367,5.88,15.0
65.286,4.378,5.52,28.0
66.405,4.448,5.229,43.0
67.345,4.507,4.906,23.0
67.266,4.497,4.511,42.0
67.342,4.497,4.128,31.0
65.001,4.35,5.772,19.0
65.099,4.351,5.402,39.0
66.012,4.407,5.095,41.0
71.226,4.75,5.077,9.0
67.102,4.471,4.394,42.0
67.223,4.474,4.013,36.0
64.954,4.33,5.664,34.0
65.183,4.34,5.305,36.0
67.038,4.458,5.066,43.0
67.172,4.462,4.68,43.0
67.265,4.463,4.297,42.0
67.077,4.445,3.897,22.0
65.268,4.332,5.585,28.0
65.883,4.367,5.255,36.0
67.321,4.456,4.979,39.0
67.142,4.439,4.57,43.0
67.376,4.449,4.196,42.0
67.0,4.419,3.786,11.0
65.173,4.304,5.472,41.0
65.861,4.343,5.147,31.0
67.248,4.428,4.865,26.0
66.957,4.403,4.449,36.0
67.171,4.412,4.075,34.0
128.049,8.399,7.03,26.0
65.09,4.274,5.359,33.0
0.0,0.0,0.0,0.0
67.27,4.404,4.758,22.0
66.972,4.378,4.343,31.0
67.012,4.375,3.957,21.0
33.443,2.18,1.782,2.0
65.926,4.301,5.321,42.0
78.474,5.111,5.878,19.0
67.386,4.383,4.656,43.0
66.991,4.35,4.234,43.0
128.414,8.326,7.374,28.0
33.41,2.163,1.725,17.0
65.864,4.267,5.208,24.0
67.322,4.353,4.932,26.0
67.246,4.342,4.537,43.0
66.995,4.318,4.125,39.0
128.15,8.247,7.151,20.0
158.007,10.152,7.905,28.0
78.658,5.056,6.091,14.0
67.275,4.316,4.82,37.0
66.962,4.288,4.408,37.0
66.972,4.282,4.015,37.0
128.431,8.198,6.956,28.0
158.003,10.068,7.645,40.0
78.5,5.002,5.949,16.0
67.182,4.273,4.701,32.0
67.059,4.257,4.304,27.0
67.151,4.255,3.914,9.0
128.105,8.103,6.728,42.0
158.041,9.98,7.389,24.0
78.465,4.954,5.817,13.0
67.138,4.23,4.587,42.0
67.037,4.216,4.192,37.0
128.349,8.056,7.273,22.0
128.298,8.037,6.529,27.0
158.03,9.883,7.132,20.0
67.029,4.19,4.859,32.0
67.168,4.189,4.479,28.0
67.141,4.18,4.089,18.0
128.406,7.977,7.065,24.0
127.751,7.92,6.291,23.0
157.986,9.774,6.868,13.0
67.135,4.152,4.756,33.0
71.108,4.387,4.625,9.0
128.531,7.913,7.616,25.0
128.389,7.886,6.852,32.0
127.727,7.83,6.08,17.0
33.445,2.046,1.399,4.0
67.094,4.1,4.642,24.0
67.045,4.088,4.251,36.0
128.803,7.836,7.42,30.0
127.946,7.766,6.619,45.0
158.444,9.597,7.284,12.0
158.315,9.568,6.366,10.0
127.204,7.679,8.593,22.0
67.023,4.036,4.139,16.0
128.579,7.724,7.198,35.0
127.575,7.645,6.391,34.0
33.464,2.0,1.483,1.0
158.274,9.442,6.104,14.0
127.401,7.589,8.397,21.0
127.806,7.593,7.683,33.0
128.398,7.61,6.976,32.0
161.905,9.571,7.845,33.0
161.999,9.553,6.916,12.0
157.873,9.288,5.831,20.0
127.682,7.499,8.205,29.0
127.237,7.452,7.441,35.0
33.425,1.952,1.761,9.0
161.977,9.437,7.585,29.0
157.188,9.134,6.455,16.0
157.809,9.146,5.573,12.0
127.648,7.385,7.996,25.0
128.348,7.404,7.297,28.0
33.432,1.923,1.707,107.0
162.211,9.307,7.334,13.0
158.154,9.049,6.24,14.0
157.176,8.968,5.296,11.0
127.88,7.282,7.803,29.0
127.271,7.225,7.031,33.0
33.449,1.893,1.655,19.0
162.267,9.159,7.076,13.0
158.28,8.908,5.991,16.0
157.082,8.815,5.041,5.0
127.363,7.131,7.567,34.0
33.444,1.866,1.793,2.0
33.433,1.86,1.6,1.0
157.859,8.757,6.63,10.0
158.046,8.74,5.728,14.0
162.488,8.96,4.954,8.0
127.198,6.995,7.352,27.0
33.437,1.832,1.739,33.0
162.371,8.87,7.51,33.0
157.524,8.579,6.363,13.0
157.328,8.541,5.451,13.0
157.047,8.498,4.537,12.0
128.889,6.954,7.244,9.0
33.474,1.799,1.688,64.0
162.441,8.704,7.254,6.0
157.309,8.399,6.103,11.0
162.287,8.636,5.361,9.0
162.569,8.623,4.437,11.0
150.213,7.941,8.2,35.0
33.471,1.762,1.634,3.0
159.889,8.39,6.883,19.0
157.466,8.236,5.858,14.0
156.862,8.174,4.933,5.0
156.488,8.126,4.021,7.0
154.927,8.017,8.211,21.0
132.159,6.812,6.242,13.0
157.672,8.097,6.54,6.0
156.711,8.017,5.582,16.0
157.055,8.006,4.693,18.0
167.146,8.489,4.033,21.0
154.586,7.819,7.949,16.0
132.038,6.653,6.03,29.0
167.094,8.386,6.669,15.0
156.439,7.82,5.329,16.0
156.398,7.789,4.43,13.0
0.0,0.0,0.0,0.0
129.366,6.39,6.453,19.0
160.154,7.879,7.067,16.0
157.459,7.714,6.042,17.0
156.197,7.62,5.079,17.0
156.333,7.595,4.185,3.0
0.0,0.0,0.0,0.0
132.283,6.371,6.393,11.0
129.852,6.226,5.528,10.0
156.838,7.487,5.776,18.0
156.283,7.429,4.842,16.0
0.0,0.0,0.0,0.0
0.0,0.0,0.0,0.0
129.643,6.078,6.066,33.0
124.202,5.797,5.098,11.0
156.798,7.285,5.535,15.0
174.004,8.047,5.127,4.0
0.0,0.0,0.0,0.0
0.0,0.0,0.0,0.0
129.726,5.913,5.875,33.0
124.35,5.642,4.917,24.0
157.152,7.096,5.312,13.0
173.78,7.808,4.858,25.0
0.0,0.0,0.0,0.0
0.0,0.0,0.0,0.0
124.33,5.501,5.445,30.0
157.086,6.917,5.979,19.0
157.375,6.894,5.086,8.0
173.488,7.56,4.593,8.0
0.0,0.0,0.0,0.0
101.28,4.37,1.522,1.0
124.217,5.327,5.258,51.0
157.174,6.706,5.752,17.0
158.047,6.707,4.879,16.0
0.0,0.0,0.0,0.0
0.0,0.0,0.0,0.0
96.034,4.01,1.304,3.0
124.178,5.151,5.076,16.0
158.079,6.519,5.554,6.0
173.155,7.103,5.093,6.0
0.0,0.0,0.0,0.0
0.0,0.0,0.0,0.0
93.498,3.769,1.133,7.0
158.075,6.329,6.233,12.0
158.564,6.31,5.343,5.0
158.475,6.269,4.433,6.0
0.0,0.0,0.0,0.0
0.0,0.0,0.0,0.0
78.714,3.058,0.842,20.0
152.766,5.889,5.806,9.0
162.595,6.23,5.25,5.0
158.418,6.031,4.207,3.0
0.0,0.0,0.0,0.0
100.884,3.792,1.515,1.0
77.79,2.905,0.724,36.0
153.519,5.688,5.621,22.0
160.464,5.904,4.956,16.0
0.0,0.0,0.0,0.0
0.0,0.0,0.0,0.0
95.735,3.452,1.306,5.0
74.373,2.663,0.589,10.0
152.865,5.428,5.386,24.0
159.102,5.608,4.695,14.0
0.0,0.0,0.0,0.0
0.0,0.0,0.0,0.0
95.402,3.291,1.171,4.0
73.968,2.533,0.485,9.0
157.53,5.344,5.337,5.0
159.026,5.351,4.476,6.0
0.0,0.0,0.0,0.0
0.0,0.0,0.0,0.0
78.33,2.576,0.855,8.0
58.985,1.925,0.308,32.0
159.142,5.145,5.181,5.0
0.0,0.0,0.0,0.0
0.0,0.0,0.0,0.0
100.601,3.174,1.542,1.0
77.935,2.438,0.75,42.0
54.731,1.698,0.215,22.0
158.203,4.857,4.944,12.0
0.0,0.0,0.0,0.0
0.0,0.0,0.0,0.0
100.549,3.007,1.412,5.0
77.714,2.303,0.648,11.0
0.0,0.0,0.0,0.0
154.026,4.474,4.618,38.0
0.0,0.0,0.0,0.0
0.0,0.0,0.0,0.0
105.976,2.991,1.353,21.0
74.503,2.083,0.527,16.0
48.257,1.335,0.066,22.0
154.057,4.212,4.424,42.0
0.0,0.0,0.0,0.0
0.0,0.0,0.0,0.0
93.142,2.47,1.074,5.0
60.577,1.589,0.353,34.0
0.0,0.0,0.0,0.0
138.082,3.54,3.797,16.0
100.336,2.544,2.187,58.0
100.392,2.517,1.617,6.0
78.286,1.94,0.807,17.0
58.924,1.444,0.272,32.0
45.393,1.099,-0.048,13.0
146.569,3.503,3.855,22.0
0.0,0.0,0.0,0.0
106.267,2.478,1.585,7.0
77.893,1.795,0.711,39.0
57.959,1.318,0.199,7.0
39.584,0.889,-0.088,27.0
0.0,0.0,0.0,0.0
106.198,2.319,2.065,13.0
89.882,1.936,1.236,2.0
74.987,1.594,0.598,13.0
52.249,1.096,0.12,10.0
38.926,0.805,-0.131,39.0
128.032,2.603,3.071,45.0
106.236,2.13,1.945,2.0
120.856,2.387,1.526,6.0
74.74,1.454,0.512,13.0
47.708,0.915,0.056,24.0
37.962,0.716,-0.17,41.0
128.148,2.373,2.931,24.0
127.582,2.326,2.195,35.0
89.776,1.61,1.035,8.0
61.281,1.081,0.353,35.0
0.0,0.0,0.0,0.0
37.573,0.639,-0.209,32.0
190.068,3.172,4.143,22.0
126.994,2.081,2.048,34.0
89.604,1.44,0.937,9.0
0.0,0.0,0.0,0.0
44.279,0.685,-0.043,18.0
37.292,0.566,-0.247,12.0
190.076,2.818,3.944,33.0
126.586,1.839,1.91,41.0
78.157,1.111,0.736,16.0
48.041,0.669,0.175,55.0
44.043,0.599,-0.088,3.0
37.184,0.494,-0.284,5.0
55.11,0.713,1.087,5.0
48.2,0.609,0.678,21.0
48.098,0.592,0.404,81.0
47.977,0.576,0.127,69.0
39.181,0.459,-0.117,40.0
37.126,0.423,-0.321,1.0
48.138,0.531,0.902,96.0
48.099,0.516,0.629,104.0
48.059,0.5,0.357,100.0
47.847,0.483,0.08,53.0
38.684,0.378,-0.153,48.0
33.215,0.315,-0.319,1.0
48.106,0.439,0.856,115.0
48.075,0.423,0.583,108.0
48.047,0.407,0.311,100.0
47.14,0.384,0.034,42.0
38.348,0.301,-0.188,38.0
32.23,0.242,-0.34,1.0
48.118,0.345,0.811,95.0
48.137,0.33,0.54,51.0
48.179,0.315,0.268,62.0
0.0,0.0,0.0,0.0
38.254,0.225,-0.222,13.0
31.477,0.175,-0.36,1.0
59.293,0.309,0.947,132.0
59.316,0.29,0.613,106.0
59.364,0.271,0.278,12.0
0.0,0.0,0.0,0.0
37.907,0.148,-0.253,15.0
30.68,0.11,-0.377,1.0
79.472,0.259,1.202,151.0
79.44,0.232,0.754,150.0
55.169,0.143,0.212,15.0
43.775,0.099,-0.082,6.0
38.086,0.074,-0.286,3.0
30.103,0.048,-0.395,1.0
79.453,0.1,1.136,151.0
79.402,0.073,0.688,72.0
55.132,0.032,0.167,24.0
40.734,0.01,-0.109,17.0
37.92,-0.002,-0.315,2.0
29.575,-0.012,-0.412,2.0
79.461,-0.058,1.074,152.0
79.274,-0.085,0.625,30.0
0.0,0.0,0.0,0.0
40.211,-0.071,-0.139,16.0
33.719,-0.071,-0.306,0.0
29.284,-0.071,-0.43,3.0
79.461,-0.22,1.014,151.0
76.637,-0.239,0.547,15.0
0.0,0.0,0.0,0.0
39.544,-0.15,-0.166,4.0
33.155,-0.137,-0.325,1.0
28.835,-0.129,-0.445,2.0
79.462,-0.381,0.957,155.0
76.694,-0.394,0.493,14.0
0.0,0.0,0.0,0.0
41.194,-0.239,-0.201,4.0
32.515,-0.2,-0.341,1.0
28.326,-0.184,-0.456,1.0
79.457,-0.543,0.904,182.0
76.966,-0.553,0.443,9.0
48.263,-0.363,0.007,4.0
42.082,-0.331,-0.233,3.0
31.812,-0.261,-0.355,1.0
27.903,-0.239,-0.468,2.0
79.446,-0.705,0.853,172.0
77.179,-0.712,0.396,3.0
50.845,-0.486,-0.024,5.0
38.559,-0.382,-0.238,9.0
31.007,-0.319,-0.365,2.0
27.566,-0.293,-0.479,2.0
79.447,-0.869,0.805,150.0
77.613,-0.877,0.351,0.0
54.474,-0.635,-0.058,2.0
41.985,-0.503,-0.284,1.0
30.664,-0.378,-0.379,1.0
27.11,-0.344,-0.487,1.0
86.947,-1.131,0.831,47.0
0.0,0.0,0.0,0.0
53.544,-0.734,-0.087,1.0
38.759,-0.545,-0.283,0.0
30.241,-0.436,-0.39,1.0
26.787,-0.396,-0.495,1.0
99.016,-1.493,0.894,5.0
248.41,-3.836,0.855,90.0
51.585,-0.814,-0.11,0.0
40.185,-0.649,-0.314,0.0
29.908,-0.494,-0.401,1.0
26.548,-0.448,-0.504,1.0
40.262,-0.692,0.343,50.0
40.269,-0.706,0.118,68.0
40.307,-0.721,-0.106,66.0
36.137,-0.66,-0.3,0.0
29.664,-0.552,-0.412,1.0
26.271,-0.498,-0.511,1.0
40.262,-0.775,0.325,54.0
40.316,-0.79,0.101,6.0
46.722,-0.933,-0.143,1.0
0.0,0.0,0.0,0.0
29.402,-0.608,-0.421,1.0
26.001,-0.547,-0.517,1.0
0.0,0.0,0.0,0.0
40.348,-0.875,0.084,0.0
40.298,-0.889,-0.14,2.0
33.758,-0.757,-0.308,0.0
29.26,-0.667,-0.43,1.0
25.859,-0.599,-0.524,1.0
40.317,-0.944,0.293,150.0
40.289,-0.958,0.069,41.0
40.348,-0.974,-0.155,0.0
33.637,-0.824,-0.319,0.0
28.955,-0.72,-0.436,1.0
25.643,-0.647,-0.529,1.0
40.199,-1.025,0.279,57.0
40.681,-1.052,0.056,16.0
40.996,-1.075,-0.171,159.0
33.102,-0.88,-0.325,1.0
28.722,-0.774,-0.442,1.0
25.495,-0.697,-0.534,1.0
40.205,-1.11,0.267,60.0
40.193,-1.124,0.043,67.0
40.209,-1.139,-0.179,51.0
33.01,-0.947,-0.334,1.0
28.579,-0.83,-0.448,2.0
25.366,-0.747,-0.538,1.0
0.0,0.0,0.0,0.0
0.0,0.0,0.0,0.0
40.233,-1.223,-0.189,0.0
33.0,-1.016,-0.342,1.0
28.504,-0.888,-0.453,1.0
25.266,-0.796,-0.542,1.0
0.0,0.0,0.0,0.0
0.0,0.0,0.0,0.0
