X,Y,Z,Reflectivity
64.046,1.63,5.549,38.0
53.267,1.356,4.299,19.0
61.647,1.57,4.616,13.0
55.724,1.419,3.847,47.0
56.794,1.46,5.487,13.0
40.244,1.034,3.652,56.0
64.01,1.646,5.434,31.0
56.591,1.455,4.469,22.0
61.656,1.585,4.509,14.0
0.0,0.0,0.0,0.0
56.792,1.473,5.387,40.0
40.318,1.046,3.588,48.0
56.702,1.471,4.714,10.0
56.567,1.467,4.367,56.0
55.826,1.448,3.984,57.0
54.081,1.402,3.545,47.0
56.775,1.485,5.285,24.0
56.724,1.483,4.948,65.0
56.678,1.481,4.612,19.0
61.579,1.608,4.645,59.0
55.752,1.456,3.881,64.0
54.265,1.416,3.462,73.0
56.732,1.493,5.18,16.0
56.708,1.491,4.845,24.0
56.6,1.488,4.505,70.0
61.636,1.619,4.539,15.0
0.0,0.0,0.0,0.0
54.362,1.427,3.37,94.0
40.251,1.064,3.602,53.0
56.68,1.498,4.74,49.0
56.593,1.494,4.402,71.0
55.813,1.472,4.009,67.0
54.098,1.426,3.57,42.0
54.567,1.438,3.284,28.0
56.72,1.505,4.971,74.0
56.65,1.502,4.633,56.0
61.541,1.63,4.672,49.0
55.767,1.475,3.903,68.0
54.246,1.434,3.48,70.0
122.299,3.231,7.133,22.0
56.71,1.508,4.864,24.0
56.611,1.504,4.524,90.0
61.678,1.636,4.569,13.0
0.0,0.0,0.0,0.0
54.353,1.438,3.386,94.0
122.222,3.232,6.903,24.0
56.7,1.508,4.758,40.0
56.597,1.503,4.418,74.0
55.82,1.481,4.031,68.0
54.086,1.433,3.584,34.0
54.526,1.443,3.295,37.0
122.863,3.247,6.709,24.0
56.655,1.506,4.647,60.0
61.554,1.634,4.688,50.0
55.784,1.478,3.922,72.0
54.22,1.434,3.49,66.0
122.244,3.229,7.156,23.0
123.119,3.248,6.49,34.0
56.615,1.501,4.535,87.0
61.667,1.632,4.579,18.0
55.645,1.47,3.807,47.0
54.336,1.433,3.395,97.0
122.235,3.219,6.924,22.0
122.495,3.22,6.224,42.0
56.601,1.495,4.426,78.0
55.838,1.472,4.04,58.0
54.081,1.423,3.596,35.0
54.515,1.431,3.301,55.0
122.706,3.216,6.718,26.0
122.567,3.206,5.997,46.0
61.553,1.617,4.696,52.0
55.781,1.462,3.93,67.0
54.223,1.418,3.503,64.0
55.313,1.444,3.245,6.0
123.088,3.206,6.505,36.0
122.669,3.188,5.768,23.0
61.635,1.608,4.584,42.0
0.0,0.0,0.0,0.0
54.344,1.411,3.406,101.0
122.08,3.162,6.927,20.0
122.46,3.165,6.236,30.0
130.109,3.354,5.869,19.0
55.854,1.445,4.046,50.0
54.048,1.394,3.599,42.0
54.536,1.403,3.313,94.0
122.951,3.156,6.741,25.0
122.604,3.138,6.007,30.0
152.663,3.899,6.592,30.0
55.788,1.429,3.933,45.0
54.274,1.386,3.509,52.0
55.176,1.405,3.246,66.0
123.093,3.126,6.511,37.0
152.848,3.87,7.195,15.0
152.278,3.845,6.282,19.0
0.0,0.0,0.0,0.0
54.357,1.371,3.409,85.0
55.431,1.394,3.154,35.0
122.374,3.069,6.236,34.0
130.233,3.256,5.878,21.0
152.29,3.795,5.986,30.0
53.98,1.348,3.596,67.0
54.405,1.354,3.306,87.0
55.426,1.375,3.045,11.0
122.649,3.033,6.01,33.0
130.618,3.219,5.64,21.0
152.443,3.744,5.696,41.0
54.943,1.352,3.553,46.0
55.011,1.348,3.236,70.0
122.695,2.996,6.501,15.0
127.588,3.104,6.003,9.0
130.593,3.165,5.383,24.0
152.611,3.686,5.404,34.0
54.45,1.316,3.413,86.0
55.394,1.334,3.149,54.0
122.568,2.94,6.252,32.0
130.16,3.11,5.869,24.0
152.741,3.635,5.998,18.0
152.71,3.621,5.108,11.0
54.404,1.291,3.304,93.0
55.415,1.309,3.042,38.0
122.75,2.888,6.023,21.0
130.282,3.052,5.62,25.0
152.626,3.56,5.694,36.0
158.72,3.686,4.997,20.0
54.91,1.275,3.226,49.0
55.407,1.281,2.932,8.0
127.478,2.934,6.002,25.0
130.87,2.998,5.386,9.0
152.588,3.479,5.392,39.0
159.205,3.614,4.7,23.0
55.363,1.256,3.143,67.0
122.838,2.773,6.259,29.0
127.689,2.868,5.759,28.0
152.379,3.406,5.971,33.0
159.59,3.55,5.324,30.0
169.319,3.747,4.663,3.0
55.372,1.224,3.035,79.0
127.165,2.797,6.229,5.0
127.868,2.798,5.519,23.0
152.549,3.32,5.68,42.0
128.191,2.776,4.028,9.0
128.183,2.76,3.282,8.0
55.36,1.19,2.926,12.0
127.686,2.729,6.003,18.0
127.957,2.72,5.272,30.0
128.099,2.707,4.52,32.0
128.076,2.691,3.773,34.0
128.109,2.677,3.029,45.0
125.256,2.611,6.374,8.0
127.725,2.646,5.756,28.0
127.989,2.635,5.022,40.0
128.013,2.62,4.266,57.0
128.062,2.605,3.522,58.0
128.037,2.588,2.778,45.0
128.121,2.582,6.27,6.0
127.84,2.56,5.513,26.0
128.002,2.546,4.773,41.0
128.01,2.53,4.018,45.0
128.026,2.513,3.273,41.0
128.052,2.497,2.53,18.0
128.13,2.49,6.024,15.0
127.926,2.468,5.268,22.0
127.997,2.452,4.525,27.0
128.044,2.435,3.77,31.0
128.074,2.418,3.026,27.0
127.869,2.397,2.279,30.0
128.266,2.395,5.782,9.0
128.012,2.372,5.025,17.0
128.074,2.354,4.281,14.0
128.164,2.337,3.526,13.0
128.142,2.318,2.78,23.0
126.902,2.278,2.016,36.0
130.322,2.327,5.62,24.0
161.381,2.858,6.021,15.0
163.098,2.866,5.138,11.0
160.181,2.79,4.098,6.0
128.138,2.212,2.533,8.0
126.254,2.161,1.762,27.0
59.331,1.009,2.444,5.0
132.635,2.237,4.693,29.0
159.838,2.67,4.725,17.0
181.286,3.0,4.286,13.0
127.791,2.096,2.281,15.0
121.092,1.967,1.457,10.0
132.347,2.135,5.197,5.0
132.914,2.124,4.448,34.0
159.862,2.529,4.421,14.0
190.05,2.977,4.134,28.0
127.052,1.971,2.027,38.0
89.608,1.375,0.909,8.0
163.119,2.482,6.096,21.0
162.613,2.448,5.133,16.0
176.263,2.625,4.54,22.0
189.971,2.799,3.771,34.0
126.322,1.84,1.773,26.0
0.0,0.0,0.0,0.0
55.108,0.786,1.956,48.0
55.075,0.776,1.634,1.0
190.17,2.649,4.539,18.0
189.016,2.6,3.394,11.0
121.133,1.647,1.473,11.0
48.142,0.646,0.306,23.0
55.04,0.73,1.849,102.0
55.082,0.722,1.531,52.0
55.091,0.712,1.212,5.0
48.237,0.615,0.776,9.0
48.152,0.606,0.496,26.0
48.057,0.596,0.216,76.0
55.018,0.675,1.747,118.0
55.026,0.665,1.428,81.0
55.089,0.656,1.109,20.0
48.132,0.564,0.685,59.0
48.08,0.554,0.405,74.0
47.986,0.545,0.126,70.0
48.212,0.539,1.44,51.0
48.164,0.53,1.159,76.0
48.127,0.521,0.879,92.0
48.079,0.511,0.594,101.0
48.044,0.502,0.315,92.0
47.286,0.485,0.036,39.0
48.143,0.486,1.349,95.0
48.117,0.476,1.069,104.0
48.098,0.467,0.79,106.0
48.06,0.457,0.506,95.0
48.028,0.448,0.227,94.0
0.0,0.0,0.0,0.0
48.136,0.431,1.261,122.0
48.097,0.421,0.981,112.0
48.085,0.412,0.703,113.0
48.04,0.403,0.419,101.0
48.018,0.393,0.141,76.0
39.493,0.315,-0.112,34.0
48.126,0.375,1.175,123.0
48.098,0.366,0.896,111.0
48.081,0.356,0.617,97.0
48.086,0.347,0.334,48.0
47.633,0.334,0.055,49.0
38.565,0.263,-0.178,38.0
48.134,0.319,1.09,101.0
48.126,0.309,0.811,66.0
48.17,0.299,0.533,50.0
55.022,0.331,0.285,12.0
44.862,0.26,-0.027,20.0
37.949,0.212,-0.242,9.0
48.201,0.26,1.007,49.0
59.287,0.308,0.895,73.0
59.296,0.296,0.552,133.0
54.821,0.262,0.188,56.0
40.4,0.184,-0.094,16.0
37.721,0.164,-0.306,7.0
79.418,0.329,1.521,49.0
79.425,0.313,1.062,150.0
76.761,0.286,0.582,56.0
53.839,0.189,0.092,19.0
39.124,0.129,-0.158,44.0
33.067,0.102,-0.325,1.0
79.454,0.228,1.385,163.0
79.471,0.211,0.926,151.0
75.837,0.185,0.446,10.0
0.0,0.0,0.0,0.0
38.526,0.077,-0.222,13.0
31.3,0.055,-0.361,1.0
79.461,0.123,1.251,152.0
79.455,0.107,0.793,150.0
61.626,0.068,0.258,5.0
43.872,0.039,-0.074,10.0
38.188,0.025,-0.285,3.0
29.934,0.013,-0.396,2.0
79.467,0.017,1.118,151.0
79.296,-0.001,0.657,27.0
0.0,0.0,0.0,0.0
40.042,-0.018,-0.134,20.0
33.562,-0.023,-0.306,1.0
29.062,-0.026,-0.433,2.0
79.464,-0.091,0.988,152.0
76.268,-0.105,0.507,18.0
47.68,-0.076,0.042,21.0
39.331,-0.072,-0.196,15.0
32.244,-0.067,-0.347,2.0
28.027,-0.065,-0.463,2.0
79.47,-0.203,0.858,151.0
61.573,-0.172,0.309,12.0
45.768,-0.138,-0.033,19.0
38.968,-0.127,-0.257,3.0
30.432,-0.107,-0.377,1.0
26.966,-0.101,-0.489,2.0
79.433,-0.317,0.73,150.0
55.997,-0.236,0.192,22.0
42.002,-0.188,-0.098,5.0
37.055,-0.175,-0.304,1.0
29.486,-0.146,-0.412,2.0
26.183,-0.136,-0.517,2.0
79.18,-0.432,0.602,14.0
50.023,-0.285,0.092,6.0
41.191,-0.245,-0.161,4.0
33.111,-0.205,-0.324,1.0
28.623,-0.184,-0.445,1.0
25.204,-0.168,-0.537,1.0
76.872,-0.534,0.465,10.0
47.044,-0.339,0.013,4.0
41.019,-0.305,-0.223,15.0
31.223,-0.24,-0.353,1.0
27.576,-0.219,-0.471,2.0
24.353,-0.199,-0.556,2.0
61.376,-0.518,0.279,7.0
50.633,-0.44,-0.06,12.0
42.106,-0.376,-0.292,0.0
30.194,-0.278,-0.387,2.0
26.635,-0.252,-0.494,1.0
23.581,-0.229,-0.573,2.0
56.626,-0.564,0.174,3.0
50.826,-0.519,-0.136,7.0
38.527,-0.403,-0.324,2.0
29.353,-0.315,-0.419,5.0
25.91,-0.285,-0.519,1.0
22.94,-0.258,-0.591,1.0
79.381,-0.915,0.127,7.0
44.471,-0.524,-0.184,2.0
32.954,-0.397,-0.326,1.0
28.38,-0.349,-0.446,2.0
25.143,-0.316,-0.54,2.0
22.23,-0.285,-0.605,1.0
54.474,-0.714,0.009,2.0
42.197,-0.564,-0.235,3.0
31.315,-0.427,-0.354,1.0
27.474,-0.382,-0.471,1.0
24.275,-0.344,-0.556,2.0
21.616,-0.312,-0.619,1.0
50.841,-0.747,-0.062,2.0
37.952,-0.568,-0.264,1.0
30.124,-0.459,-0.382,1.0
26.662,-0.413,-0.494,1.0
23.574,-0.372,-0.572,1.0
21.011,-0.337,-0.631,1.0
40.376,-0.658,-0.104,0.0
34.486,-0.572,-0.287,0.0
29.392,-0.496,-0.413,1.0
25.917,-0.444,-0.515,1.0
23.012,-0.401,-0.59,1.0
20.431,-0.362,-0.641,1.0
40.312,-0.724,-0.158,42.0
33.396,-0.609,-0.322,1.0
28.493,-0.527,-0.438,1.0
25.208,-0.474,-0.535,1.0
22.366,-0.427,-0.603,2.0
19.99,-0.387,-0.653,2.0
40.221,-0.789,-0.21,4.0
31.88,-0.635,-0.349,1.0
27.708,-0.56,-0.462,1.0
24.473,-0.501,-0.551,1.0
21.845,-0.454,-0.617,2.0
19.557,-0.412,-0.665,1.0
40.158,-0.856,-0.261,5.0
30.531,-0.659,-0.373,1.0
26.97,-0.59,-0.484,1.0
23.776,-0.527,-0.565,2.0
21.204,-0.476,-0.626,1.0
19.076,-0.434,-0.672,1.0
40.237,-0.926,-0.311,1.0
29.697,-0.692,-0.399,1.0
26.264,-0.619,-0.504,1.0
23.235,-0.555,-0.581,2.0
20.728,-0.501,-0.637,2.0
18.672,-0.457,-0.681,1.0
33.813,-0.836,-0.302,0.0
29.014,-0.725,-0.425,1.0
25.635,-0.649,-0.522,1.0
22.727,-0.582,-0.595,1.0
20.338,-0.527,-0.649,2.0
18.35,-0.481,-0.691,1.0
32.651,-0.864,-0.33,1.0
28.324,-0.758,-0.448,1.0
25.046,-0.678,-0.539,1.0
22.135,-0.605,-0.605,1.0
19.847,-0.549,-0.656,1.0
17.998,-0.503,-0.698,1.0
31.564,-0.89,-0.354,1.0
27.561,-0.785,-0.467,1.0
24.423,-0.703,-0.553,1.0
21.686,-0.631,-0.617,1.0
19.449,-0.572,-0.665,1.0
17.726,-0.526,-0.707,1.0
30.499,-0.913,-0.376,1.0
26.902,-0.813,-0.485,1.0
23.746,-0.725,-0.563,1.0
21.166,-0.653,-0.625,1.0
19.037,-0.593,-0.671,1.0
17.418,-0.548,-0.713,1.0
29.87,-0.947,-0.4,1.0
26.382,-0.844,-0.503,1.0
23.341,-0.754,-0.578,2.0
20.705,-0.676,-0.633,1.0
18.738,-0.617,-0.68,2.0
17.096,-0.569,-0.718,1.0
29.233,-0.979,-0.421,1.0
25.772,-0.871,-0.518,1.0
22.849,-0.779,-0.589,1.0
20.34,-0.7,-0.643,1.0
18.432,-0.64,-0.688,1.0
16.843,-0.591,-0.724,1.0
28.617,-1.01,-0.44,2.0
25.253,-0.899,-0.532,1.0
22.385,-0.804,-0.599,1.0
19.927,-0.722,-0.649,1.0
18.13,-0.663,-0.694,1.0
16.576,-0.611,-0.729,1.0
28.062,-1.041,-0.458,2.0
24.836,-0.929,-0.547,1.0
21.977,-0.829,-0.609,1.0
19.641,-0.747,-0.658,1.0
17.867,-0.685,-0.7,2.0
16.3,-0.63,-0.731,1.0
27.396,-1.065,-0.472,2.0
24.252,-0.951,-0.556,1.0
21.581,-0.853,-0.617,1.0
19.333,-0.77,-0.665,1.0
17.635,-0.708,-0.707,1.0
16.104,-0.652,-0.737,1.0
26.923,-1.096,-0.488,2.0
23.768,-0.975,-0.565,2.0
21.18,-0.876,-0.624,1.0
19.059,-0.794,-0.672,1.0
17.374,-0.73,-0.711,1.0
15.881,-0.672,-0.74,1.0
26.436,-1.124,-0.501,1.0
23.353,-1.001,-0.575,2.0
20.841,-0.9,-0.631,1.0
18.776,-0.817,-0.677,1.0
17.186,-0.753,-0.717,1.0
15.698,-0.693,-0.745,1.0
26.002,-1.154,-0.514,1.0
23.044,-1.03,-0.585,2.0
20.519,-0.924,-0.638,1.0
18.543,-0.841,-0.683,1.0
16.952,-0.775,-0.721,1.0
15.553,-0.716,-0.75,1.0
25.613,-1.184,-0.525,1.0
22.682,-1.056,-0.594,1.0
20.24,-0.949,-0.644,1.0
18.313,-0.865,-0.689,1.0
16.775,-0.798,-0.726,1.0
15.384,-0.737,-0.753,1.0
25.24,-1.213,-0.536,1.0
22.378,-1.083,-0.601,1.0
19.97,-0.973,-0.65,1.0
18.133,-0.889,-0.694,1.0
16.56,-0.818,-0.728,1.0
15.244,-0.758,-0.756,1.0
24.855,-1.24,-0.544,1.0
22.024,-1.106,-0.607,1.0
19.736,-0.998,-0.655,1.0
17.946,-0.914,-0.699,1.0
16.368,-0.839,-0.73,1.0
15.091,-0.779,-0.759,1.0
24.304,-1.258,-0.548,5.0
21.708,-1.131,-0.612,1.0
19.558,-1.025,-0.662,1.0
17.786,-0.939,-0.704,1.0
16.222,-0.861,-0.734,1.0
14.981,-0.801,-0.762,1.0
23.953,-1.284,-0.554,9.0
21.554,-1.163,-0.62,2.0
19.332,-1.05,-0.666,2.0
17.581,-0.96,-0.706,1.0
16.088,-0.884,-0.737,1.0
14.867,-0.822,-0.765,1.0
23.702,-1.315,-0.562,10.0
21.277,-1.187,-0.624,5.0
19.132,-1.074,-0.669,2.0
17.438,-0.985,-0.71,1.0
15.956,-0.907,-0.74,1.0
14.746,-0.843,-0.767,1.0
23.482,-1.345,-0.569,9.0
21.0,-1.21,-0.627,4.0
19.008,-1.102,-0.674,2.0
17.327,-1.011,-0.714,1.0
15.866,-0.931,-0.743,1.0
14.66,-0.865,-0.769,1.0
23.272,-1.377,-0.575,5.0
20.79,-1.236,-0.63,4.0
18.835,-1.127,-0.677,4.0
17.154,-1.032,-0.715,1.0
15.748,-0.953,-0.745,1.0
14.566,-0.887,-0.771,1.0
23.277,-1.419,-0.585,1.0
20.633,-1.265,-0.634,2.0
18.718,-1.154,-0.681,3.0
17.085,-1.059,-0.719,1.0
15.649,-0.976,-0.747,1.0
14.465,-0.907,-0.772,1.0
23.137,-1.453,-0.591,0.0
20.488,-1.294,-0.638,1.0
18.662,-1.185,-0.686,1.0
16.911,-1.079,-0.718,2.0
15.581,-1.0,-0.749,1.0
14.404,-0.929,-0.774,1.0
22.907,-1.48,-0.593,1.0
20.39,-1.324,-0.642,0.0
18.464,-1.205,-0.685,0.0
16.714,-1.097,-0.715,2.0
15.541,-1.025,-0.752,1.0
14.354,-0.952,-0.776,0.0
22.74,-1.511,-0.596,1.0
20.368,-1.36,-0.648,0.0
18.356,-1.232,-0.686,1.0
16.724,-1.128,-0.721,4.0
15.428,-1.046,-0.751,3.0
14.28,-0.973,-0.776,1.0
22.551,-1.539,-0.597,1.0
20.23,-1.387,-0.649,0.0
18.223,-1.256,-0.686,1.0
16.648,-1.153,-0.722,3.0
15.341,-1.068,-0.751,0.0
14.247,-0.997,-0.777,1.0
22.423,-1.571,-0.599,1.0
20.178,-1.42,-0.652,0.0
18.182,-1.286,-0.689,0.0
16.619,-1.181,-0.724,3.0
15.316,-1.094,-0.753,0.0
14.147,-1.015,-0.775,2.0
22.33,-1.604,-0.601,1.0
20.071,-1.449,-0.652,0.0
18.177,-1.318,-0.692,0.0
16.558,-1.206,-0.724,2.0
15.26,-1.117,-0.753,1.0
14.07,-1.035,-0.773,0.0
22.28,-1.64,-0.603,1.0
20.025,-1.481,-0.653,0.0
18.134,-1.347,-0.693,1.0
16.36,-1.221,-0.718,0.0
15.267,-1.145,-0.755,1.0
14.076,-1.06,-0.775,0.0
22.227,-1.676,-0.604,1.0
19.983,-1.513,-0.654,0.0
18.107,-1.377,-0.694,0.0
16.396,-1.252,-0.721,0.0
15.25,-1.17,-0.756,1.0
14.07,-1.085,-0.776,1.0
22.209,-1.713,-0.605,1.0
19.961,-1.546,-0.655,0.0
18.073,-1.406,-0.693,0.0
16.355,-1.278,-0.72,0.0
15.133,-1.188,-0.751,0.0
14.048,-1.107,-0.775,4.0
22.183,-1.749,-0.605,1.0
19.95,-1.58,-0.655,0.0
18.085,-1.438,-0.694,1.0
16.341,-1.305,-0.72,1.0
15.261,-1.224,-0.757,0.0
14.015,-1.129,-0.773,2.0
22.23,-1.792,-0.606,1.0
19.989,-1.617,-0.656,0.0
18.102,-1.471,-0.695,0.0
16.332,-1.333,-0.719,1.0
15.348,-1.257,-0.761,0.0
14.019,-1.153,-0.773,1.0
22.242,-1.83,-0.606,1.0
20.033,-1.655,-0.657,0.0
18.087,-1.5,-0.693,0.0
16.298,-1.357,-0.717,1.0
15.318,-1.281,-0.759,0.0
13.967,-1.173,-0.769,0.0
22.295,-1.872,-0.605,1.0
20.036,-1.689,-0.655,0.0
18.142,-1.535,-0.694,0.0
16.307,-1.385,-0.715,5.0
15.316,-1.306,-0.757,0.0
14.132,-1.21,-0.777,0.0
22.328,-1.912,-0.604,1.0
20.07,-1.725,-0.654,0.0
18.205,-1.571,-0.694,0.0
16.31,-1.413,-0.713,9.0
15.346,-1.334,-0.756,0.0
14.2,-1.239,-0.779,0.0
22.476,-1.962,-0.604,1.0
20.134,-1.764,-0.653,1.0
18.205,-1.601,-0.691,0.0
16.323,-1.44,-0.711,9.0
15.358,-1.36,-0.754,0.0
14.239,-1.266,-0.778,0.0
22.511,-2.001,-0.601,1.0
20.112,-1.794,-0.648,1.0
18.309,-1.639,-0.691,0.0
16.325,-1.467,-0.708,8.0
15.44,-1.393,-0.755,0.0
14.308,-1.295,-0.779,0.0
22.658,-2.051,-0.6,1.0
20.327,-1.846,-0.65,1.0
18.388,-1.676,-0.689,0.0
16.356,-1.496,-0.705,12.0
15.489,-1.422,-0.753,0.0
14.374,-1.324,-0.778,1.0
22.799,-2.099,-0.597,1.0
20.453,-1.89,-0.648,1.0
18.495,-1.715,-0.688,0.0
16.361,-1.522,-0.701,12.0
15.576,-1.454,-0.753,0.0
14.415,-1.35,-0.776,1.0
22.979,-2.152,-0.595,1.0
20.565,-1.932,-0.646,0.0
18.567,-1.75,-0.685,0.0
16.37,-1.548,-0.696,6.0
15.626,-1.483,-0.75,1.0
14.454,-1.376,-0.774,1.0
23.129,-2.202,-0.591,1.0
20.715,-1.978,-0.643,1.0
18.717,-1.793,-0.684,0.0
16.389,-1.575,-0.691,6.0
15.726,-1.516,-0.749,1.0
14.543,-1.407,-0.773,0.0
23.293,-2.252,-0.586,1.0
20.829,-2.02,-0.639,1.0
18.862,-1.835,-0.682,1.0
16.433,-1.604,-0.686,4.0
15.852,-1.552,-0.749,1.0
14.6,-1.434,-0.77,1.0
23.57,-2.314,-0.584,1.0
20.88,-2.056,-0.631,3.0
18.986,-1.875,-0.678,1.0
16.652,-1.65,-0.688,2.0
15.978,-1.588,-0.748,1.0
14.703,-1.466,-0.769,1.0
23.947,-2.386,-0.582,9.0
21.079,-2.107,-0.628,2.0
19.158,-1.92,-0.676,0.0
17.368,-1.746,-0.71,0.0
16.12,-1.625,-0.747,1.0
14.788,-1.496,-0.766,0.0
23.868,-2.413,-0.569,19.0
21.451,-2.175,-0.629,1.0
19.354,-1.967,-0.673,0.0
17.576,-1.792,-0.709,0.0
16.212,-1.657,-0.743,2.0
14.913,-1.529,-0.765,0.0
24.013,-2.461,-0.56,18.0
21.675,-2.227,-0.624,1.0
19.647,-2.024,-0.673,1.0
17.756,-1.834,-0.707,0.0
16.243,-1.683,-0.736,2.0
15.043,-1.563,-0.764,0.0
24.196,-2.513,-0.551,7.0
22.104,-2.301,-0.624,2.0
20.11,-2.1,-0.678,3.0
17.92,-1.876,-0.704,0.0
16.28,-1.709,-0.728,2.0
15.175,-1.597,-0.762,0.0
24.586,-2.586,-0.546,3.0
22.353,-2.357,-0.618,6.0
20.222,-2.138,-0.67,11.0
18.085,-1.917,-0.699,0.0
16.301,-1.732,-0.72,1.0
15.332,-1.634,-0.76,0.0
25.425,-2.708,-0.549,1.0
22.489,-2.401,-0.608,13.0
20.277,-2.17,-0.659,18.0
18.225,-1.955,-0.694,0.0
16.333,-1.757,-0.711,1.0
15.45,-1.666,-0.757,0.0
25.789,-2.779,-0.54,1.0
22.78,-2.461,-0.602,17.0
20.375,-2.206,-0.649,14.0
18.516,-2.01,-0.693,1.0
16.373,-1.782,-0.702,1.0
15.623,-1.704,-0.755,1.0
26.137,-2.849,-0.531,1.0
23.048,-2.518,-0.593,21.0
20.64,-2.26,-0.643,5.0
18.714,-2.054,-0.687,1.0
16.475,-1.812,-0.695,0.0
15.765,-1.738,-0.751,1.0
26.485,-2.919,-0.519,1.0
23.417,-2.586,-0.586,29.0
21.043,-2.329,-0.641,9.0
19.001,-2.108,-0.684,1.0
17.178,-1.91,-0.712,0.0
15.981,-1.781,-0.749,1.0
27.063,-3.014,-0.511,1.0
23.636,-2.638,-0.575,26.0
21.347,-2.387,-0.635,12.0
19.491,-2.184,-0.688,3.0
17.568,-1.973,-0.716,0.0
16.185,-1.822,-0.747,1.0
27.554,-3.099,-0.5,1.0
23.846,-2.688,-0.562,5.0
21.69,-2.45,-0.629,15.0
19.61,-2.22,-0.677,6.0
17.796,-2.018,-0.711,1.0
16.245,-1.847,-0.737,4.0
28.236,-3.207,-0.491,1.0
24.868,-2.83,-0.567,1.0
21.988,-2.507,-0.62,20.0
19.85,-2.268,-0.67,9.0
18.019,-2.063,-0.706,1.0
16.269,-1.867,-0.725,2.0
28.841,-3.307,-0.478,1.0
25.244,-2.9,-0.555,1.0
22.342,-2.571,-0.612,26.0
20.103,-2.318,-0.662,17.0
18.238,-2.107,-0.699,1.0
16.322,-1.889,-0.714,4.0
29.476,-3.41,-0.464,1.0
25.774,-2.986,-0.545,1.0
22.68,-2.633,-0.602,29.0
20.35,-2.367,-0.653,14.0
18.56,-2.162,-0.696,0.0
16.368,-1.911,-0.702,6.0
30.03,-3.503,-0.447,1.0
26.283,-3.071,-0.533,1.0
22.978,-2.689,-0.59,22.0
20.741,-2.432,-0.647,13.0
19.072,-2.24,-0.698,3.0
16.474,-1.939,-0.692,2.0
31.33,-3.684,-0.439,1.0
26.825,-3.16,-0.521,1.0
23.351,-2.755,-0.579,6.0
21.12,-2.496,-0.64,17.0
19.251,-2.279,-0.688,9.0
17.288,-2.05,-0.711,1.0
32.29,-3.826,-0.424,1.0
27.551,-3.27,-0.51,1.0
23.771,-2.825,-0.568,2.0
21.479,-2.557,-0.632,22.0
19.49,-2.324,-0.679,11.0
17.771,-2.122,-0.715,1.0
33.374,-3.984,-0.407,1.0
28.144,-3.364,-0.495,1.0
24.837,-2.973,-0.571,1.0
21.762,-2.609,-0.62,18.0
19.806,-2.378,-0.671,13.0
18.026,-2.168,-0.708,1.0
37.172,-4.468,-0.418,0.0
28.974,-3.487,-0.482,1.0
25.347,-3.055,-0.558,1.0
22.505,-2.716,-0.62,5.0
20.139,-2.434,-0.663,12.0
18.316,-2.217,-0.702,1.0
37.412,-4.526,-0.385,2.0
29.753,-3.604,-0.467,1.0
25.942,-3.146,-0.547,1.0
22.955,-2.787,-0.61,14.0
20.533,-2.497,-0.656,16.0
18.851,-2.296,-0.704,3.0
37.383,-4.549,-0.349,3.0
30.492,-3.715,-0.449,1.0
26.496,-3.232,-0.532,1.0
23.153,-2.828,-0.592,13.0
20.903,-2.556,-0.647,19.0
19.034,-2.331,-0.692,9.0
39.27,-4.806,-0.328,0.0
31.925,-3.912,-0.438,1.0
27.232,-3.34,-0.52,1.0
23.592,-2.897,-0.58,4.0
21.15,-2.6,-0.634,12.0
19.305,-2.377,-0.683,17.0
0.0,0.0,0.0,0.0
32.852,-4.046,-0.418,1.0
27.966,-3.448,-0.506,1.0
24.542,-3.029,-0.578,1.0
21.659,-2.676,-0.627,1.0
19.601,-2.425,-0.673,18.0
45.269,-5.597,-0.286,1.0
35.884,-4.441,-0.419,1.0
28.816,-3.57,-0.491,1.0
25.096,-3.112,-0.565,1.0
22.639,-2.81,-0.632,4.0
20.06,-2.493,-0.668,16.0
45.327,-5.63,-0.239,9.0
35.971,-4.472,-0.383,6.0
29.666,-3.691,-0.475,1.0
25.734,-3.205,-0.553,1.0
22.894,-2.854,-0.615,13.0
20.444,-2.551,-0.659,18.0
45.327,-5.654,-0.191,4.0
36.243,-4.524,-0.347,1.0
30.432,-3.802,-0.455,1.0
26.397,-3.301,-0.539,1.0
23.088,-2.889,-0.595,12.0
20.749,-2.599,-0.646,7.0
50.409,-6.312,-0.158,6.0
39.611,-4.963,-0.337,0.0
32.03,-4.016,-0.445,1.0
27.092,-3.4,-0.524,1.0
23.524,-2.954,-0.581,2.0
21.286,-2.675,-0.64,1.0
50.465,-6.341,-0.104,3.0
41.636,-5.234,-0.309,0.0
33.187,-4.175,-0.425,1.0
27.923,-3.515,-0.51,1.0
24.571,-3.095,-0.58,1.0
21.938,-2.766,-0.636,1.0
0.0,0.0,0.0,0.0
45.328,-5.716,-0.287,1.0
34.334,-4.332,-0.401,0.0
28.807,-3.637,-0.494,1.0
25.308,-3.197,-0.57,0.0
22.699,-2.869,-0.633,4.0
0.0,0.0,0.0,0.0
0.0,0.0,0.0,0.0
36.002,-4.554,-0.381,0.0
29.877,-3.781,-0.48,1.0
25.952,-3.286,-0.556,1.0
22.91,-2.903,-0.613,16.0
0.0,0.0,0.0,0.0
50.422,-6.389,-0.208,4.0
38.311,-4.857,-0.363,1.0
30.88,-3.916,-0.461,1.0
26.574,-3.372,-0.539,1.0
23.156,-2.94,-0.594,9.0
0.0,0.0,0.0,0.0
50.437,-6.403,-0.151,7.0
40.677,-5.166,-0.339,0.0
32.242,-4.096,-0.446,1.0
27.352,-3.476,-0.524,1.0
23.794,-3.025,-0.583,1.0
89.194,-11.338,0.309,1.0
50.514,-6.423,-0.095,1.0
41.329,-5.256,-0.299,0.0
33.271,-4.232,-0.422,1.0
28.148,-3.582,-0.508,1.0
24.816,-3.159,-0.581,1.0
89.061,-11.335,0.41,5.0
0.0,0.0,0.0,0.0
0.0,0.0,0.0,0.0
34.856,-4.438,-0.403,0.0
29.044,-3.699,-0.491,1.0
25.348,-3.229,-0.565,1.0
89.02,-11.34,0.51,4.0
0.0,0.0,0.0,0.0
50.342,-6.414,-0.25,0.0
36.67,-4.672,-0.382,0.0
29.997,-3.823,-0.473,1.0
26.02,-3.316,-0.55,1.0
99.366,-12.664,0.681,15.0
0.0,0.0,0.0,0.0
50.391,-6.422,-0.193,4.0
38.727,-4.936,-0.36,1.0
31.502,-4.015,-0.461,1.0
26.722,-3.406,-0.534,1.0
99.531,-12.687,0.796,47.0
0.0,0.0,0.0,0.0
50.445,-6.429,-0.137,4.0
40.383,-5.146,-0.33,1.0
32.611,-4.156,-0.441,1.0
27.699,-3.53,-0.522,1.0
99.65,-12.699,0.91,57.0
88.892,-11.326,0.335,2.0
50.588,-6.444,-0.08,0.0
41.194,-5.247,-0.29,0.0
33.716,-4.294,-0.418,1.0
28.556,-3.637,-0.507,1.0
99.663,-12.693,1.022,63.0
89.048,-11.338,0.436,4.0
0.0,0.0,0.0,0.0
45.01,-5.728,-0.265,0.0
35.465,-4.513,-0.398,0.0
29.41,-3.742,-0.488,1.0
99.662,-12.68,1.137,64.0
99.222,-12.62,0.599,6.0
0.0,0.0,0.0,0.0
50.381,-6.404,-0.239,1.0
37.681,-4.788,-0.381,2.0
30.308,-3.85,-0.468,1.0
99.673,-12.664,1.251,71.0
99.452,-12.631,0.715,26.0
0.0,0.0,0.0,0.0
50.41,-6.397,-0.182,7.0
38.815,-4.924,-0.348,0.0
31.86,-4.041,-0.456,1.0
99.645,-12.639,1.362,78.0
99.602,-12.627,0.828,61.0
89.442,-11.334,0.265,2.0
50.438,-6.388,-0.125,4.0
41.276,-5.226,-0.323,0.0
33.025,-4.179,-0.435,1.0
99.638,-12.612,1.475,84.0
99.64,-12.605,0.942,78.0
89.575,-11.325,0.367,8.0
0.0,0.0,0.0,0.0
45.258,-5.716,-0.304,1.0
33.951,-4.286,-0.409,0.0
99.616,-12.578,1.587,78.0
99.662,-12.575,1.055,92.0
90.01,-11.35,0.472,5.0
0.0,0.0,0.0,0.0
45.334,-5.709,-0.253,3.0
36.974,-4.654,-0.404,2.0
99.626,-12.543,1.7,74.0
99.677,-12.54,1.167,92.0
99.442,-12.502,0.63,12.0
0.0,0.0,0.0,0.0
50.398,-6.327,-0.224,3.0
36.985,-4.64,-0.363,2.0
99.64,-12.504,1.812,59.0
99.717,-12.504,1.278,66.0
99.531,-12.47,0.743,28.0
0.0,0.0,0.0,0.0
50.425,-6.308,-0.169,6.0
39.383,-4.923,-0.343,0.0
99.655,-12.461,1.923,21.0
99.769,-12.464,1.39,15.0
99.715,-12.446,0.854,38.0
0.0,0.0,0.0,0.0
50.502,-6.293,-0.114,1.0
42.661,-5.312,-0.325,0.0
207.669,-25.866,4.233,10.0
86.412,-10.752,1.297,11.0
86.399,-10.74,0.833,150.0
0.0,0.0,0.0,0.0
0.0,0.0,0.0,0.0
45.309,-5.617,-0.296,2.0
203.187,-25.197,4.359,17.0
86.343,-10.696,1.39,14.0
86.386,-10.69,0.926,166.0
0.0,0.0,0.0,0.0
0.0,0.0,0.0,0.0
45.301,-5.589,-0.248,3.0
203.215,-25.083,4.576,33.0
86.39,-10.65,1.481,21.0
86.332,-10.631,1.016,105.0
86.702,-10.665,0.546,1.0
0.0,0.0,0.0,0.0
50.315,-6.176,-0.222,1.0
203.003,-24.929,4.785,42.0
86.418,-10.599,1.573,31.0
86.311,-10.573,1.106,65.0
86.671,-10.604,0.637,4.0
0.0,0.0,0.0,0.0
50.401,-6.153,-0.171,1.0
203.069,-24.802,4.996,25.0
86.46,-10.545,1.662,9.0
86.275,-10.509,1.194,57.0
86.301,-10.499,0.722,150.0
87.148,-10.589,0.261,1.0
0.0,0.0,0.0,0.0
188.188,-22.85,4.823,34.0
0.0,0.0,0.0,0.0
86.245,-10.442,1.282,55.0
86.258,-10.43,0.809,150.0
0.0,0.0,0.0,0.0
0.0,0.0,0.0,0.0
188.128,-22.702,5.007,29.0
86.747,-10.452,1.841,5.0
86.254,-10.377,1.367,43.0
86.215,-10.358,0.894,55.0
89.685,-10.76,0.447,1.0
0.0,0.0,0.0,0.0
189.465,-22.711,5.231,21.0
86.817,-10.39,1.928,7.0
86.272,-10.31,1.452,46.0
86.219,-10.287,0.978,56.0
87.353,-10.407,0.521,6.0
0.0,0.0,0.0,0.0
189.065,-22.504,5.404,34.0
188.241,-22.369,4.365,24.0
86.265,-10.234,1.535,49.0
86.239,-10.215,1.062,60.0
87.324,-10.327,0.604,11.0
0.0,0.0,0.0,0.0
188.712,-22.296,5.573,26.0
188.339,-22.213,4.546,46.0
86.27,-10.157,1.617,22.0
86.255,-10.137,1.143,151.0
86.974,-10.205,0.685,10.0
0.0,0.0,0.0,0.0
188.589,-22.104,5.748,25.0
188.722,-22.079,4.733,37.0
86.308,-10.079,1.699,3.0
86.27,-10.057,1.224,154.0
86.226,-10.034,0.758,20.0
0.0,0.0,0.0,0.0
188.458,-21.907,5.916,25.0
188.55,-21.876,4.899,28.0
86.605,-10.029,1.783,11.0
86.189,-9.962,1.301,75.0
86.23,-9.948,0.835,87.0
0.0,0.0,0.0,0.0
115.981,-13.366,3.744,22.0
115.873,-13.327,3.114,20.0
86.76,-9.959,1.863,28.0
86.212,-9.876,1.377,63.0
86.214,-9.857,0.911,150.0
87.328,-9.965,0.451,1.0
115.915,-13.235,3.845,71.0
107.42,-12.24,2.981,63.0
86.658,-9.854,1.935,13.0
86.248,-9.788,1.451,57.0
86.26,-9.77,0.985,153.0
87.289,-9.867,0.525,3.0
115.944,-13.114,3.942,43.0
107.371,-12.118,3.068,74.0
115.848,-13.047,2.685,22.0
86.273,-9.695,1.524,60.0
86.261,-9.673,1.057,169.0
87.277,-9.767,0.598,8.0
107.307,-12.016,3.737,35.0
107.428,-12.002,3.16,57.0
187.68,-20.921,4.503,22.0
86.301,-9.599,1.594,44.0
86.253,-9.573,1.127,81.0
87.205,-9.658,0.667,14.0
107.002,-11.857,3.812,55.0
107.52,-11.886,3.248,12.0
187.356,-20.665,4.643,34.0
86.387,-9.506,1.664,12.0
86.283,-9.473,1.194,134.0
86.325,-9.457,0.727,11.0
106.905,-11.718,3.891,53.0
123.426,-13.497,3.823,65.0
123.57,-13.481,3.156,23.0
86.438,-9.407,1.73,1.0
86.291,-9.368,1.259,63.0
86.298,-9.347,0.792,62.0
107.023,-11.599,3.976,71.0
123.398,-13.339,3.914,69.0
123.513,-13.319,3.247,111.0
86.9,-9.348,1.803,1.0
86.327,-9.263,1.322,52.0
86.337,-9.243,0.854,151.0
123.905,-13.272,4.692,46.0
188.071,-20.092,6.098,17.0
123.558,-13.164,3.335,17.0
123.736,-13.15,2.656,2.0
86.404,-9.159,1.385,41.0
86.384,-9.134,0.915,150.0
107.313,-11.352,4.139,54.0
189.233,-19.965,6.269,25.0
187.601,-19.739,5.194,26.0
188.4,-19.771,4.171,26.0
86.704,-9.075,1.448,5.0
86.499,-9.03,0.974,98.0
122.881,-12.835,4.821,64.0
189.595,-19.748,6.404,33.0
188.105,-19.538,5.331,43.0
157.673,-16.333,3.593,61.0
88.011,-9.091,1.526,8.0
87.641,-9.029,1.044,4.0
124.074,-12.789,4.946,22.0
148.436,-15.255,5.108,15.0
188.049,-19.272,5.444,51.0
188.072,-19.217,4.404,53.0
0.0,0.0,0.0,0.0
94.565,-9.608,1.183,3.0
124.783,-12.685,5.05,29.0
148.36,-15.037,5.195,89.0
188.192,-19.018,5.562,52.0
187.915,-18.933,4.509,47.0
0.0,0.0,0.0,0.0
94.955,-9.511,1.244,5.0
147.813,-14.815,6.066,34.0
148.263,-14.813,5.274,13.0
188.056,-18.731,5.665,38.0
187.587,-18.628,4.606,47.0
0.0,0.0,0.0,0.0
96.25,-9.501,1.312,3.0
0.0,0.0,0.0,0.0
189.043,-18.609,6.827,25.0
148.771,-14.598,4.56,39.0
187.596,-18.351,4.704,46.0
149.461,-14.576,2.93,19.0
97.604,-9.49,1.38,2.0
147.887,-14.384,6.225,43.0
150.648,-14.603,5.516,19.0
149.184,-14.416,4.646,34.0
149.407,-14.39,3.82,75.0
108.801,-10.446,2.186,11.0
100.835,-9.65,1.474,1.0
203.939,-19.525,8.681,18.0
190.328,-18.159,7.058,9.0
149.72,-14.238,4.732,29.0
149.487,-14.167,3.891,31.0
108.803,-10.277,2.236,6.0
108.508,-10.216,1.635,2.0
156.618,-14.749,6.736,50.0
148.574,-13.943,5.576,38.0
148.826,-13.918,4.767,36.0
188.055,-17.526,4.974,37.0
188.409,-17.501,3.951,33.0
108.618,-10.054,1.682,20.0
147.713,-13.677,6.413,49.0
148.61,-13.711,5.637,51.0
188.496,-17.329,6.113,36.0
188.172,-17.237,5.05,35.0
188.338,-17.193,4.022,48.0
108.866,-9.903,1.727,7.0
205.707,-18.717,9.008,9.0
164.049,-14.871,6.283,22.0
188.738,-17.045,6.19,36.0
188.256,-16.94,5.12,44.0
188.433,-16.894,4.089,46.0
109.845,-9.814,1.781,2.0
150.459,-13.443,6.64,19.0
204.343,-18.189,7.892,21.0
149.621,-13.267,4.956,55.0
188.568,-16.657,5.19,36.0
157.259,-13.84,3.462,47.0
0.0,0.0,0.0,0.0
166.042,-14.558,7.378,46.0
158.153,-13.814,6.156,21.0
156.949,-13.654,5.244,16.0
157.36,-13.638,4.374,91.0
157.365,-13.586,3.509,14.0
0.0,0.0,0.0,0.0
205.184,-17.646,9.172,13.0
150.065,-12.853,5.881,9.0
157.425,-13.43,5.3,25.0
164.993,-14.019,4.628,48.0
165.05,-13.969,3.719,101.0
0.0,0.0,0.0,0.0
166.852,-14.066,7.497,13.0
149.98,-12.59,5.91,67.0
164.111,-13.721,5.561,36.0
165.079,-13.744,4.666,51.0
201.511,-16.708,4.583,11.0
0.0,0.0,0.0,0.0
158.694,-13.101,7.161,29.0
156.332,-12.852,6.19,14.0
157.42,-12.887,5.362,50.0
203.314,-16.571,5.782,17.0
0.0,0.0,0.0,0.0
0.0,0.0,0.0,0.0
149.586,-12.088,6.773,18.0
158.016,-12.713,6.28,30.0
156.915,-12.569,5.369,22.0
204.894,-16.342,5.855,9.0
214.77,-17.055,4.949,16.0
0.0,0.0,0.0,0.0
163.005,-12.884,7.401,15.0
156.798,-12.338,6.249,29.0
164.334,-12.875,5.639,27.0
213.066,-16.617,6.11,19.0
291.347,-22.623,6.741,19.0
148.481,-11.478,2.613,62.0
150.229,-11.606,6.831,5.0
165.538,-12.729,6.61,58.0
195.603,-14.973,6.725,9.0
196.677,-14.985,5.651,66.0
196.988,-14.942,4.569,80.0
148.639,-11.223,2.624,5.0
157.949,-11.917,7.189,4.0
208.744,-15.677,8.343,14.0
197.255,-14.743,6.788,15.0
208.016,-15.474,5.982,28.0
292.027,-21.621,6.778,19.0
0.0,0.0,0.0,0.0
156.248,-11.506,7.113,12.0
197.501,-14.471,7.892,24.0
195.324,-14.243,6.718,50.0
204.896,-14.868,5.89,15.0
204.896,-14.793,4.752,67.0
154.693,-11.116,2.728,6.0
156.396,-11.229,7.114,5.0
194.986,-13.931,7.783,22.0
196.238,-13.949,6.741,23.0
204.633,-14.471,5.87,16.0
212.863,-14.981,4.924,54.0
0.0,0.0,0.0,0.0
156.062,-10.916,7.086,3.0
195.372,-13.593,7.782,9.0
204.099,-14.129,6.994,8.0
212.678,-14.644,6.082,13.0
228.572,-15.659,5.264,44.0
187.129,-12.756,3.269,18.0
197.759,-13.466,8.957,9.0
205.171,-13.895,8.148,13.0
208.213,-14.025,7.107,34.0
209.159,-14.016,5.953,30.0
237.172,-15.811,5.428,37.0
187.205,-12.413,3.242,151.0
212.702,-14.087,9.601,5.0
205.317,-13.524,8.12,22.0
208.382,-13.65,7.078,33.0
248.333,-16.178,7.026,159.0
248.203,-16.083,5.637,9.0
187.201,-12.065,3.207,92.0
204.87,-13.186,9.208,6.0
205.572,-13.158,8.089,6.0
228.071,-14.515,7.702,12.0
244.391,-15.465,6.863,40.0
265.21,-16.69,5.966,10.0
187.319,-11.725,3.169,17.0
0.0,0.0,0.0,0.0
237.038,-14.722,9.271,9.0
212.119,-13.099,7.109,22.0
263.426,-16.176,7.331,126.0
0.0,0.0,0.0,0.0
0.0,0.0,0.0,0.0
0.0,0.0,0.0,0.0
212.254,-12.781,8.243,8.0
212.41,-12.719,7.061,6.0
271.698,-16.17,7.483,150.0
271.753,-16.079,5.963,102.0
0.0,0.0,0.0,0.0
211.802,-12.433,9.347,10.0
0.0,0.0,0.0,0.0
0.0,0.0,0.0,0.0
0.0,0.0,0.0,0.0
227.946,-12.977,3.651,152.0
0.0,0.0,0.0,0.0
212.315,-11.982,8.102,7.0
278.96,-15.646,9.082,19.0
228.063,-12.548,3.565,26.0
0.0,0.0,0.0,0.0
0.0,0.0,0.0,0.0
0.0,0.0,0.0,0.0
0.0,0.0,0.0,0.0
0.0,0.0,0.0,0.0
0.0,0.0,0.0,0.0
0.0,0.0,0.0,0.0
0.0,0.0,0.0,0.0
0.0,0.0,0.0,0.0
0.0,0.0,0.0,0.0
0.0,0.0,0.0,0.0
0.0,0.0,0.0,0.0
0.0,0.0,0.0,0.0
0.0,0.0,0.0,0.0
0.0,0.0,0.0,0.0
0.0,0.0,0.0,0.0
0.0,0.0,0.0,0.0
0.0,0.0,0.0,0.0
0.0,0.0,0.0,0.0
0.0,0.0,0.0,0.0
0.0,0.0,0.0,0.0
0.0,0.0,0.0,0.0
0.0,0.0,0.0,0.0
0.0,0.0,0.0,0.0
0.0,0.0,0.0,0.0
0.0,0.0,0.0,0.0
0.0,0.0,0.0,0.0
0.0,0.0,0.0,0.0
0.0,0.0,0.0,0.0
0.0,0.0,0.0,0.0
0.0,0.0,0.0,0.0
0.0,0.0,0.0,0.0
0.0,0.0,0.0,0.0
0.0,0.0,0.0,0.0
0.0,0.0,0.0,0.0
0.0,0.0,0.0,0.0
0.0,0.0,0.0,0.0
0.0,0.0,0.0,0.0
0.0,0.0,0.0,0.0
135.5,-5.435,2.281,6.0
0.0,0.0,0.0,0.0
0.0,0.0,0.0,0.0
0.0,0.0,0.0,0.0
0.0,0.0,0.0,0.0
0.0,0.0,0.0,0.0
135.3,-5.167,2.178,53.0
0.0,0.0,0.0,0.0
0.0,0.0,0.0,0.0
0.0,0.0,0.0,0.0
0.0,0.0,0.0,0.0
135.652,-4.968,2.848,8.0
135.208,-4.905,2.073,33.0
126.399,-4.543,1.223,2.0
0.0,0.0,0.0,0.0
0.0,0.0,0.0,0.0
0.0,0.0,0.0,0.0
0.0,0.0,0.0,0.0
0.0,0.0,0.0,0.0
0.0,0.0,0.0,0.0
0.0,0.0,0.0,0.0
0.0,0.0,0.0,0.0
0.0,0.0,0.0,0.0
0.0,0.0,0.0,0.0
40.365,-1.31,0.552,5.0
0.0,0.0,0.0,0.0
0.0,0.0,0.0,0.0
0.0,0.0,0.0,0.0
40.303,-1.259,0.977,28.0
40.316,-1.247,0.745,24.0
40.406,-1.236,0.517,2.0
0.0,0.0,0.0,0.0
0.0,0.0,0.0,0.0
40.291,-1.196,1.169,24.0
40.365,-1.186,0.942,23.0
0.0,0.0,0.0,0.0
40.265,-1.156,0.478,1.0
40.194,-1.141,0.249,57.0
40.306,-1.135,1.361,1.0
40.219,-1.119,1.129,43.0
40.206,-1.105,0.9,46.0
40.233,-1.093,0.668,41.0
40.214,-1.079,0.439,52.0
40.191,-1.066,0.21,49.0
40.265,-1.059,1.32,54.0
40.203,-1.044,1.089,56.0
40.175,-1.03,0.86,50.0
40.2,-1.018,0.628,65.0
40.242,-1.006,0.399,25.0
40.29,-0.994,0.17,6.0
40.261,-0.984,1.279,66.0
40.203,-0.97,1.048,59.0
40.185,-0.956,0.819,55.0
40.288,-0.946,0.588,51.0
40.316,-0.934,0.359,89.0
40.304,-0.921,0.129,4.0
40.261,-0.909,1.237,39.0
40.206,-0.896,1.006,63.0
40.211,-0.883,0.777,57.0
40.241,-0.871,0.544,52.0
40.289,-0.859,0.315,8.0
66.886,-1.407,0.143,2.0
40.308,-0.837,1.195,51.0
40.247,-0.823,0.963,56.0
40.191,-0.81,0.733,37.0
40.237,-0.798,0.5,44.0
40.253,-0.786,0.271,56.0
40.288,-0.774,0.041,62.0
40.289,-0.764,1.149,53.0
40.209,-0.75,0.918,51.0
40.185,-0.738,0.688,37.0
40.265,-0.727,0.455,22.0
40.25,-0.714,0.225,49.0
40.307,-0.703,-0.003,51.0
151.442,-2.605,4.149,69.0
248.35,-4.194,5.384,58.0
205.417,-3.407,3.28,50.0
123.807,-2.016,1.258,12.0
0.0,0.0,0.0,0.0
55.391,-0.868,-0.069,2.0
151.477,-2.334,3.969,25.0
183.387,-2.771,3.758,51.0
183.402,-2.717,2.71,50.0
87.921,-1.275,0.787,12.0
183.476,-2.606,0.594,7.0
51.292,-0.714,-0.126,3.0
80.039,-1.092,1.999,9.0
86.869,-1.16,1.673,3.0
79.437,-1.037,1.075,127.0
79.084,-1.01,0.611,25.0
79.314,-0.989,0.159,4.0
46.843,-0.571,-0.173,1.0
79.439,-0.946,1.885,162.0
79.43,-0.922,1.43,208.0
79.444,-0.899,0.975,166.0
77.812,-0.857,0.502,10.0
57.141,-0.614,0.042,4.0
43.941,-0.459,-0.218,3.0
79.423,-0.808,1.782,182.0
79.434,-0.785,1.327,204.0
79.448,-0.763,0.873,190.0
77.201,-0.719,0.398,8.0
50.076,-0.451,-0.028,4.0
42.124,-0.367,-0.265,3.0
79.435,-0.672,1.676,172.0
79.444,-0.65,1.222,183.0
79.461,-0.628,0.767,170.0
61.272,-0.466,0.234,15.0
45.115,-0.331,-0.085,4.0
39.577,-0.279,-0.302,5.0
79.444,-0.539,1.57,177.0
79.455,-0.518,1.115,168.0
79.411,-0.495,0.659,150.0
55.802,-0.332,0.137,29.0
41.705,-0.237,-0.135,3.0
37.014,-0.2,-0.332,0.0
79.441,-0.409,1.461,179.0
79.459,-0.386,1.005,151.0
76.767,-0.353,0.532,11.0
0.0,0.0,0.0,0.0
39.409,-0.16,-0.182,4.0
32.885,-0.124,-0.341,1.0
79.452,-0.279,1.35,156.0
79.464,-0.259,0.895,151.0
76.34,-0.228,0.421,12.0
46.412,-0.125,-0.014,21.0
39.086,-0.095,-0.237,13.0
31.603,-0.068,-0.373,2.0
79.456,-0.152,1.236,151.0
79.458,-0.131,0.78,150.0
61.66,-0.085,0.251,14.0
0.0,0.0,0.0,0.0
38.392,-0.032,-0.288,4.0
30.235,-0.017,-0.4,2.0
79.465,-0.025,1.119,151.0
79.387,-0.003,0.661,50.0
54.612,0.011,0.141,22.0
40.339,0.018,-0.131,17.0
34.063,0.024,-0.306,0.0
29.32,0.028,-0.432,2.0
79.466,0.098,1.001,151.0
76.242,0.113,0.522,22.0
47.93,0.083,0.052,21.0
39.003,0.078,-0.185,33.0
32.704,0.073,-0.343,1.0
28.464,0.071,-0.462,2.0
79.464,0.219,0.881,151.0
59.272,0.178,0.316,10.0
0.0,0.0,0.0,0.0
38.212,0.133,-0.239,14.0
31.123,0.117,-0.374,1.0
27.346,0.109,-0.486,1.0
59.315,0.252,0.566,115.0
54.992,0.247,0.208,62.0
43.968,0.208,-0.085,6.0
37.716,0.188,-0.294,5.0
30.0,0.156,-0.406,2.0
26.61,0.145,-0.514,2.0
48.185,0.275,0.385,58.0
48.08,0.286,0.107,55.0
39.276,0.243,-0.138,43.0
33.456,0.215,-0.314,0.0
29.18,0.194,-0.441,2.0
25.729,0.178,-0.538,1.0
48.07,0.344,0.307,78.0
47.153,0.349,0.029,41.0
38.28,0.292,-0.196,37.0
32.062,0.252,-0.352,1.0
28.013,0.227,-0.469,1.0
22.025,0.184,-0.496,2.0
48.028,0.412,0.228,104.0
0.0,0.0,0.0,0.0
37.549,0.34,-0.253,11.0
30.499,0.283,-0.385,2.0
27.002,0.257,-0.496,2.0
21.237,0.207,-0.513,4.0
48.02,0.478,0.151,80.0
39.539,0.403,-0.103,22.0
37.239,0.388,-0.312,2.0
29.483,0.313,-0.42,1.0
26.172,0.284,-0.524,4.0
20.404,0.226,-0.526,3.0
47.753,0.54,0.071,59.0
38.364,0.442,-0.163,49.0
32.902,0.386,-0.33,1.0
28.557,0.342,-0.454,2.0
22.122,0.27,-0.48,2.0
19.672,0.244,-0.54,4.0
0.0,0.0,0.0,0.0
37.608,0.483,-0.224,13.0
31.265,0.408,-0.366,1.0
27.277,0.362,-0.48,2.0
21.384,0.288,-0.499,5.0
19.014,0.26,-0.554,3.0
44.062,0.613,-0.082,3.0
37.072,0.523,-0.283,6.0
29.997,0.43,-0.402,1.0
26.528,0.386,-0.511,1.0
20.594,0.303,-0.516,3.0
18.427,0.276,-0.568,4.0
38.58,0.585,-0.138,45.0
33.425,0.514,-0.313,1.0
28.994,0.452,-0.439,1.0
22.295,0.352,-0.468,4.0
19.832,0.317,-0.531,3.0
17.779,0.288,-0.579,4.0
37.594,0.616,-0.2,37.0
31.709,0.526,-0.352,1.0
27.759,0.466,-0.468,1.0
21.405,0.364,-0.487,4.0
19.084,0.328,-0.544,3.0
17.261,0.3,-0.592,2.0
36.935,0.65,-0.262,9.0
30.251,0.538,-0.389,2.0
26.812,0.482,-0.499,1.0
20.595,0.374,-0.505,4.0
18.568,0.341,-0.562,5.0
16.634,0.308,-0.6,3.0
36.739,0.688,-0.325,2.0
29.25,0.554,-0.428,2.0
22.761,0.435,-0.464,2.0
19.829,0.383,-0.521,3.0
17.873,0.348,-0.573,2.0
16.103,0.317,-0.609,4.0
32.061,0.637,-0.34,1.0
27.973,0.561,-0.459,1.0
21.639,0.437,-0.48,4.0
19.097,0.39,-0.536,5.0
17.256,0.355,-0.584,2.0
15.655,0.325,-0.621,4.0
30.5,0.639,-0.379,2.0
26.978,0.57,-0.491,1.0
20.854,0.444,-0.5,4.0
18.511,0.397,-0.553,3.0
16.673,0.361,-0.594,2.0
15.234,0.332,-0.631,4.0
29.346,0.645,-0.417,2.0
23.033,0.51,-0.461,4.0
19.981,0.446,-0.515,3.0
17.804,0.4,-0.564,5.0
16.17,0.366,-0.606,2.0
14.875,0.34,-0.643,4.0
28.167,0.647,-0.451,1.0
21.589,0.5,-0.471,4.0
19.276,0.449,-0.532,3.0
17.359,0.408,-0.581,3.0
15.672,0.371,-0.616,2.0
14.541,0.346,-0.656,5.0
27.129,0.65,-0.485,1.0
20.813,0.502,-0.493,5.0
18.588,0.451,-0.547,3.0
16.783,0.41,-0.593,2.0
15.255,0.376,-0.628,3.0
14.325,0.355,-0.673,5.0
22.789,0.567,-0.449,5.0
20.02,0.502,-0.511,3.0
17.88,0.451,-0.56,4.0
16.196,0.411,-0.602,2.0
14.864,0.379,-0.639,4.0
14.006,0.36,-0.684,4.0
21.749,0.561,-0.469,4.0
19.33,0.502,-0.529,3.0
17.373,0.453,-0.576,4.0
15.695,0.412,-0.613,3.0
14.534,0.384,-0.652,5.0
13.709,0.364,-0.695,4.0
20.837,0.556,-0.488,4.0
18.598,0.499,-0.544,3.0
16.781,0.452,-0.588,2.0
15.337,0.416,-0.628,3.0
14.318,0.39,-0.669,4.0
13.397,0.367,-0.704,4.0
19.993,0.55,-0.506,3.0
17.976,0.497,-0.559,3.0
16.14,0.448,-0.595,4.0
14.91,0.416,-0.638,3.0
13.991,0.392,-0.68,4.0
13.122,0.37,-0.714,5.0
19.255,0.544,-0.523,3.0
17.342,0.493,-0.572,3.0
15.693,0.448,-0.608,2.0
14.504,0.416,-0.648,4.0
13.659,0.394,-0.69,4.0
12.927,0.374,-0.728,5.0
18.608,0.54,-0.54,5.0
16.781,0.489,-0.584,2.0
14.798,0.433,-0.601,3.0
14.318,0.421,-0.666,5.0
13.323,0.393,-0.697,4.0
12.748,0.378,-0.741,5.0
17.924,0.533,-0.554,3.0
16.17,0.482,-0.594,2.0
14.418,0.432,-0.613,2.0
13.997,0.421,-0.678,4.0
12.991,0.393,-0.705,4.0
12.578,0.382,-0.755,3.0
17.423,0.529,-0.571,3.0
15.282,0.466,-0.59,2.0
14.28,0.437,-0.634,2.0
13.668,0.42,-0.687,4.0
12.679,0.391,-0.711,3.0
12.431,0.385,-0.77,3.0
16.758,0.52,-0.581,2.0
14.691,0.457,-0.594,4.0
14.121,0.441,-0.653,4.0
13.319,0.417,-0.695,4.0
12.441,0.391,-0.721,3.0
12.284,0.388,-0.784,2.0
16.179,0.511,-0.591,2.0
14.212,0.45,-0.602,1.0
13.947,0.443,-0.671,3.0
12.991,0.415,-0.702,5.0
12.221,0.391,-0.732,2.0
12.155,0.391,-0.799,1.0
15.383,0.494,-0.591,2.0
13.96,0.45,-0.617,2.0
13.67,0.442,-0.684,3.0
12.648,0.41,-0.707,3.0
12.068,0.393,-0.745,2.0
12.022,0.393,-0.812,1.0
14.689,0.479,-0.591,3.0
13.836,0.453,-0.638,3.0
13.333,0.438,-0.692,4.0
12.323,0.406,-0.712,3.0
11.941,0.394,-0.76,2.0
11.943,0.396,-0.83,0.0
14.368,0.476,-0.606,1.0
13.748,0.456,-0.659,3.0
13.019,0.433,-0.7,6.0
12.062,0.403,-0.72,3.0
11.831,0.396,-0.775,2.0
11.86,0.398,-0.846,0.0
13.882,0.465,-0.611,1.0
13.619,0.458,-0.679,3.0
12.674,0.427,-0.705,4.0
11.829,0.4,-0.728,2.0
11.739,0.398,-0.791,2.0
11.771,0.4,-0.862,0.0
13.661,0.463,-0.627,2.0
13.363,0.454,-0.691,4.0
12.332,0.42,-0.709,3.0
11.701,0.4,-0.742,2.0
11.661,0.399,-0.807,1.0
11.613,0.399,-0.872,0.0
13.546,0.464,-0.647,3.0
13.028,0.447,-0.698,5.0
12.014,0.414,-0.713,3.0
11.61,0.401,-0.758,2.0
11.59,0.401,-0.825,1.0
11.594,0.402,-0.893,0.0
13.448,0.465,-0.667,3.0
12.696,0.44,-0.704,4.0
11.75,0.408,-0.72,3.0
11.567,0.402,-0.777,2.0
11.542,0.403,-0.843,0.0
11.509,0.402,-0.907,0.0
13.343,0.465,-0.687,4.0
12.351,0.431,-0.708,3.0
11.571,0.405,-0.73,3.0
11.503,0.403,-0.794,1.0
11.549,0.406,-0.865,0.0
11.446,0.403,-0.924,0.0
13.047,0.458,-0.696,6.0
12.041,0.423,-0.712,3.0
11.498,0.405,-0.747,2.0
11.456,0.404,-0.812,1.0
11.469,0.405,-0.88,0.0
11.295,0.4,-0.932,0.0
12.735,0.449,-0.702,4.0
11.744,0.415,-0.716,3.0
11.455,0.405,-0.765,2.0
11.434,0.405,-0.831,0.0
11.441,0.406,-0.899,0.0
10.33,0.367,-0.872,0.0
12.405,0.439,-0.707,3.0
11.544,0.409,-0.725,3.0
11.407,0.405,-0.782,2.0
11.509,0.409,-0.858,0.0
11.372,0.405,-0.914,0.0
10.188,0.363,-0.878,0.0
12.093,0.43,-0.711,3.0
11.435,0.407,-0.738,3.0
11.408,0.406,-0.803,2.0
11.426,0.408,-0.872,0.0
11.318,0.404,-0.93,0.0
10.033,0.359,-0.883,0.0
11.777,0.419,-0.713,3.0
11.412,0.407,-0.757,2.0
11.387,0.406,-0.822,1.0
11.383,0.407,-0.889,0.0
10.383,0.371,-0.872,0.0
9.844,0.353,-0.884,0.0
11.558,0.412,-0.721,3.0
11.389,0.406,-0.776,2.0
11.471,0.41,-0.849,0.0
11.364,0.406,-0.908,0.0
10.247,0.367,-0.879,0.0
9.693,0.347,-0.888,0.0
11.443,0.408,-0.734,3.0
11.401,0.407,-0.797,2.0
11.454,0.409,-0.868,0.0
11.341,0.405,-0.927,0.0
10.065,0.36,-0.881,0.0
9.393,0.336,-0.877,0.0
11.428,0.407,-0.753,3.0
11.406,0.406,-0.818,1.0
11.434,0.407,-0.886,0.0
10.493,0.374,-0.876,0.0
9.864,0.352,-0.881,0.0
9.343,0.334,-0.889,2.0
11.435,0.406,-0.773,2.0
11.48,0.408,-0.843,0.0
11.433,0.406,-0.906,0.0
10.27,0.365,-0.875,0.0
9.689,0.345,-0.882,0.0
9.302,0.331,-0.901,0.0
11.466,0.406,-0.795,2.0
11.5,0.407,-0.864,0.0
11.423,0.404,-0.925,0.0
10.103,0.358,-0.878,0.0
9.546,0.338,-0.885,0.0
9.109,0.323,-0.898,0.0
11.477,0.404,-0.815,1.0
11.513,0.406,-0.885,0.0
11.027,0.388,-0.912,0.0
9.932,0.35,-0.88,0.0
9.355,0.33,-0.884,1.0
8.961,0.316,-0.899,0.0
11.51,0.403,-0.837,0.0
11.528,0.404,-0.905,0.0
10.282,0.36,-0.867,0.0
9.779,0.342,-0.883,0.0
9.312,0.326,-0.895,0.0
8.841,0.31,-0.902,0.0
11.572,0.403,-0.861,0.0
11.49,0.4,-0.921,0.0
10.162,0.353,-0.874,0.0
9.623,0.335,-0.885,0.0
9.168,0.319,-0.896,0.0
8.722,0.303,-0.904,0.0
11.65,0.402,-0.886,0.0
11.393,0.393,-0.932,0.0
10.017,0.345,-0.878,0.0
9.416,0.325,-0.881,0.0
9.022,0.311,-0.897,0.0
8.6,0.296,-0.905,0.0
11.685,0.4,-0.907,0.0
10.331,0.353,-0.862,0.0
9.84,0.336,-0.878,0.0
9.324,0.319,-0.887,0.0
8.92,0.305,-0.901,0.0
8.479,0.289,-0.906,0.0
11.629,0.394,-0.921,0.0
10.241,0.347,-0.87,0.0
9.698,0.328,-0.881,0.0
9.258,0.313,-0.896,0.0
8.769,0.296,-0.9,0.0
8.38,0.283,-0.909,0.0
10.78,0.361,-0.87,0.0
10.106,0.338,-0.875,0.0
9.559,0.32,-0.883,0.0
9.113,0.304,-0.896,0.0
8.681,0.29,-0.904,0.0
8.246,0.275,-0.907,0.0
10.471,0.346,-0.861,0.0
9.953,0.329,-0.877,0.0
9.404,0.31,-0.883,0.0
8.99,0.296,-0.897,0.0
8.554,0.282,-0.904,0.0
8.136,0.268,-0.907,0.0
10.342,0.338,-0.866,0.0
9.824,0.32,-0.88,0.0
9.25,0.301,-0.882,0.0
8.875,0.289,-0.899,0.0
8.46,0.275,-0.906,0.0
8.105,0.263,-0.916,1.0
10.209,0.328,-0.87,0.0
9.707,0.312,-0.884,0.0
9.165,0.294,-0.888,0.0
8.768,0.281,-0.901,0.0
8.364,0.268,-0.908,0.0
8.037,0.257,-0.92,0.0
10.062,0.318,-0.872,0.0
9.553,0.302,-0.883,0.0
9.047,0.285,-0.889,1.0
8.67,0.273,-0.904,0.0
8.233,0.259,-0.906,0.0
7.971,0.25,-0.924,0.0
9.943,0.309,-0.876,0.0
9.403,0.292,-0.883,0.0
8.991,0.279,-0.896,0.0
8.572,0.265,-0.905,0.0
8.183,0.253,-0.912,0.0
7.848,0.242,-0.92,0.0
9.831,0.3,-0.879,0.0
9.27,0.283,-0.883,0.0
8.909,0.271,-0.9,0.0
8.466,0.257,-0.906,0.0
8.121,0.246,-0.916,0.0
7.784,0.235,-0.924,0.0
9.7,0.29,-0.881,0.0
9.125,0.273,-0.881,0.0
8.776,0.262,-0.899,0.0
8.348,0.248,-0.904,0.0
8.01,0.238,-0.914,0.0
7.704,0.228,-0.924,0.0
9.574,0.281,-0.882,0.0
9.029,0.264,-0.884,2.0
8.692,0.253,-0.901,0.0
8.211,0.239,-0.9,1.0
7.974,0.231,-0.921,0.0
7.623,0.221,-0.925,0.0
9.465,0.271,-0.884,0.0
9.014,0.257,-0.894,2.0
8.485,0.242,-0.891,0.0
8.176,0.232,-0.907,1.0
7.903,0.224,-0.923,0.0
7.582,0.214,-0.929,0.0
9.362,0.262,-0.886,0.0
8.943,0.249,-0.898,0.0
8.351,0.232,-0.887,0.0
8.134,0.225,-0.912,0.0
7.847,0.217,-0.926,0.0
7.5,0.207,-0.929,0.0
9.264,0.252,-0.888,0.0
8.822,0.239,-0.897,0.0
8.296,0.225,-0.891,0.0
8.063,0.218,-0.914,0.0
7.73,0.208,-0.921,0.0
7.439,0.199,-0.93,0.0
9.128,0.242,-0.886,0.0
8.733,0.231,-0.898,0.0
8.231,0.217,-0.894,1.0
7.988,0.209,-0.915,0.0
7.674,0.201,-0.924,0.0
7.372,0.192,-0.93,0.0
9.046,0.233,-0.888,0.0
8.614,0.221,-0.896,0.0
8.192,0.209,-0.899,2.0
7.94,0.202,-0.918,0.0
7.619,0.193,-0.926,0.0
7.321,0.185,-0.932,0.0
8.994,0.224,-0.893,0.0
8.574,0.213,-0.901,0.0
8.18,0.202,-0.907,0.0
7.868,0.194,-0.919,0.0
7.569,0.186,-0.928,0.0
7.246,0.177,-0.93,0.0
8.911,0.215,-0.894,0.0
8.482,0.203,-0.9,0.0
8.152,0.195,-0.912,0.0
7.831,0.186,-0.923,0.0
7.493,0.177,-0.926,0.0
7.208,0.17,-0.933,0.0
8.81,0.205,-0.893,0.0
8.441,0.195,-0.905,0.0
8.087,0.186,-0.913,0.0
7.744,0.177,-0.92,0.0
7.471,0.17,-0.931,0.0
7.177,0.163,-0.936,0.0
8.751,0.196,-0.896,0.0
8.367,0.186,-0.905,0.0
8.031,0.178,-0.915,0.0
7.709,0.17,-0.924,0.0
7.417,0.163,-0.932,0.0
7.118,0.155,-0.936,0.0
8.706,0.187,-0.9,0.0
8.275,0.177,-0.903,0.0
7.962,0.169,-0.915,0.0
7.671,0.162,-0.926,0.0
7.332,0.154,-0.928,0.0
7.093,0.148,-0.939,0.0
8.61,0.177,-0.898,0.0
8.236,0.168,-0.906,0.0
7.931,0.161,-0.918,0.0
7.586,0.153,-0.923,0.0
7.29,0.146,-0.929,0.0
7.04,0.14,-0.938,0.0
8.531,0.167,-0.897,0.0
8.184,0.16,-0.907,0.0
7.857,0.152,-0.916,0.0
7.529,0.145,-0.922,0.0
7.257,0.139,-0.931,0.0
6.993,0.133,-0.938,0.0
8.489,0.158,-0.9,0.0
8.134,0.151,-0.909,0.0
7.808,0.144,-0.917,0.0
7.502,0.137,-0.925,0.0
7.234,0.131,-0.934,0.0
6.957,0.125,-0.939,0.0
8.446,0.15,-0.902,0.0
8.093,0.142,-0.91,0.0
7.784,0.136,-0.92,0.0
7.462,0.129,-0.926,0.0
7.179,0.123,-0.933,0.0
6.95,0.118,-0.943,0.0
8.389,0.14,-0.902,0.0
8.047,0.133,-0.911,0.0
7.733,0.127,-0.92,0.0
7.349,0.12,-0.918,0.0
7.165,0.116,-0.936,0.0
6.889,0.11,-0.94,0.0
8.338,0.131,-0.902,0.0
8.025,0.125,-0.914,0.0
7.702,0.119,-0.922,0.0
7.321,0.112,-0.919,1.0
7.124,0.108,-0.935,0.0
6.849,0.103,-0.939,0.0
8.306,0.122,-0.904,0.0
7.985,0.116,-0.915,0.0
7.647,0.11,-0.92,0.0
7.289,0.104,-0.92,1.0
7.093,0.1,-0.936,0.0
6.826,0.095,-0.94,0.0
8.282,0.113,-0.907,0.0
7.949,0.107,-0.916,0.0
7.627,0.102,-0.922,0.0
7.293,0.096,-0.925,1.0
7.08,0.092,-0.938,0.0
6.784,0.088,-0.938,0.0
8.232,0.104,-0.906,0.0
7.907,0.099,-0.915,0.0
7.595,0.094,-0.923,0.0
7.294,0.089,-0.929,1.0
7.046,0.085,-0.938,0.0
6.783,0.08,-0.942,0.0
8.218,0.095,-0.909,0.0
7.898,0.09,-0.918,0.0
7.558,0.085,-0.922,0.0
7.283,0.081,-0.931,0.0
7.028,0.077,-0.939,0.0
6.757,0.073,-0.942,0.0
8.172,0.086,-0.908,0.0
7.868,0.081,-0.919,0.0
7.531,0.077,-0.922,0.0
7.279,0.073,-0.934,0.0
7.003,0.069,-0.939,0.0
6.735,0.065,-0.942,0.0
8.14,0.077,-0.908,0.0
7.829,0.072,-0.918,0.0
7.52,0.068,-0.924,0.0
7.236,0.064,-0.932,0.0
6.978,0.061,-0.938,0.0
6.718,0.058,-0.942,0.0
8.122,0.068,-0.909,0.0
7.809,0.064,-0.918,0.0
7.512,0.06,-0.926,0.0
7.211,0.056,-0.931,0.0
6.983,0.053,-0.942,0.0
6.695,0.05,-0.941,0.0
8.085,0.058,-0.908,0.0
7.802,0.055,-0.92,0.0
7.465,0.051,-0.923,0.0
7.209,0.048,-0.933,0.0
6.979,0.045,-0.943,0.0
6.684,0.042,-0.942,0.0
8.08,0.049,-0.909,0.0
7.805,0.046,-0.923,0.0
7.465,0.043,-0.925,0.0
7.213,0.04,-0.936,0.0
6.93,0.037,-0.939,0.0
6.67,0.035,-0.942,0.0
8.075,0.04,-0.911,0.0
7.754,0.037,-0.919,0.0
7.457,0.034,-0.926,0.0
7.171,0.032,-0.932,0.0
6.913,0.029,-0.938,0.0
6.673,0.027,-0.944,0.0
8.064,0.031,-0.911,0.0
7.774,0.029,-0.923,0.0
7.443,0.026,-0.926,0.0
7.171,0.024,-0.933,0.0
6.922,0.022,-0.94,0.0
6.678,0.02,-0.946,0.0
8.056,0.022,-0.912,0.0
7.774,0.02,-0.924,0.0
7.45,0.018,-0.928,0.0
7.144,0.016,-0.931,0.0
6.906,0.014,-0.939,0.0
6.652,0.012,-0.943,0.0
8.045,0.013,-0.912,0.0
7.754,0.011,-0.922,0.0
7.435,0.009,-0.927,0.0
7.168,0.007,-0.935,0.0
6.901,0.006,-0.939,0.0
6.649,0.004,-0.943,0.0
8.046,0.004,-0.912,0.0
7.759,0.002,-0.924,0.0
7.421,0.001,-0.925,0.0
7.168,0.0,-0.935,0.0
6.916,-0.001,-0.942,0.0
6.656,-0.002,-0.944,0.0
8.034,-0.004,-0.911,0.0
7.743,-0.006,-0.922,0.0
7.434,-0.007,-0.927,0.0
7.147,-0.008,-0.932,0.0
6.916,-0.009,-0.942,0.0
6.649,-0.01,-0.943,0.0
8.03,-0.013,-0.911,0.0
7.753,-0.014,-0.923,0.0
7.432,-0.015,-0.927,0.0
7.148,-0.016,-0.932,0.0
6.923,-0.017,-0.942,0.0
6.657,-0.017,-0.944,0.0
8.032,-0.022,-0.91,0.0
7.735,-0.023,-0.92,0.0
7.437,-0.024,-0.927,0.0
7.168,-0.024,-0.934,0.0
6.934,-0.025,-0.943,0.0
6.653,-0.025,-0.943,0.0
8.053,-0.031,-0.912,0.0
7.759,-0.032,-0.922,0.0
7.451,-0.032,-0.927,0.0
7.168,-0.032,-0.933,0.0
6.944,-0.033,-0.943,0.0
6.674,-0.033,-0.945,0.0
8.055,-0.04,-0.911,0.0
7.753,-0.041,-0.92,0.0
7.46,-0.04,-0.927,0.0
7.185,-0.04,-0.934,0.0
6.917,-0.04,-0.938,0.0
6.668,-0.04,-0.942,0.0
8.059,-0.049,-0.91,0.0
7.781,-0.049,-0.922,0.0
7.46,-0.049,-0.926,0.0
7.198,-0.048,-0.934,0.0
6.939,-0.048,-0.94,0.0
6.686,-0.048,-0.943,0.0
8.073,-0.059,-0.909,0.0
7.792,-0.058,-0.921,0.0
7.502,-0.057,-0.929,0.0
7.187,-0.056,-0.931,0.0
6.962,-0.056,-0.941,0.0
6.682,-0.055,-0.941,0.0
8.095,-0.068,-0.909,0.0
7.806,-0.067,-0.92,0.0
7.506,-0.066,-0.927,0.0
7.214,-0.065,-0.932,0.0
6.983,-0.064,-0.941,0.0
6.713,-0.063,-0.943,0.0
8.125,-0.077,-0.91,0.0
7.809,-0.076,-0.918,0.0
7.519,-0.074,-0.926,0.0
7.225,-0.073,-0.931,0.0
7.009,-0.072,-0.942,0.0
6.727,-0.071,-0.942,0.0
8.154,-0.086,-0.91,0.0
7.841,-0.084,-0.919,0.0
7.541,-0.083,-0.926,0.0
7.274,-0.081,-0.934,0.0
7.004,-0.08,-0.939,0.0
6.747,-0.078,-0.942,0.0
8.167,-0.095,-0.908,0.0
7.859,-0.093,-0.917,0.0
7.561,-0.091,-0.925,0.0
7.271,-0.089,-0.931,0.0
7.028,-0.087,-0.939,0.0
6.781,-0.086,-0.944,0.0
8.185,-0.104,-0.906,0.0
7.886,-0.102,-0.917,0.0
7.596,-0.1,-0.925,0.0
7.326,-0.098,-0.934,0.0
7.055,-0.095,-0.939,0.0
6.788,-0.093,-0.941,0.0
8.239,-0.113,-0.908,0.0
7.919,-0.111,-0.916,0.0
7.631,-0.108,-0.925,0.0
7.32,-0.105,-0.929,0.0
7.076,-0.103,-0.938,0.0
6.837,-0.101,-0.944,0.0
8.254,-0.122,-0.905,0.0
7.961,-0.12,-0.917,0.0
7.654,-0.116,-0.924,0.0
7.371,-0.114,-0.931,0.0
7.124,-0.111,-0.94,0.0
6.859,-0.108,-0.943,0.0
8.303,-0.132,-0.905,0.0
