X,Y,Z,Reflectivity
13.653,0.006,-0.795,1.0
12.833,0.004,-0.816,0.0
12.108,0.003,-0.833,0.0
11.471,0.001,-0.849,0.0
15.906,0.002,-0.73,7.0
15.034,0.0,-0.769,1.0
13.993,0.0,-0.788,1.0
13.124,-0.002,-0.809,0.0
12.357,-0.003,-0.826,0.0
11.688,-0.004,-0.843,0.0
16.729,-0.005,-0.737,0.0
15.392,-0.006,-0.758,1.0
14.373,-0.007,-0.782,1.0
13.435,-0.008,-0.803,1.0
12.645,-0.009,-0.821,1.0
11.929,-0.01,-0.837,0.0
17.237,-0.014,-0.726,1.0
15.826,-0.014,-0.749,3.0
14.738,-0.014,-0.774,1.0
13.734,-0.015,-0.794,1.0
12.948,-0.015,-0.816,0.0
12.201,-0.015,-0.833,0.0
17.761,-0.022,-0.714,1.0
16.215,-0.021,-0.736,0.0
15.131,-0.021,-0.765,1.0
14.079,-0.021,-0.786,1.0
13.248,-0.021,-0.809,1.0
12.466,-0.021,-0.826,0.0
18.335,-0.03,-0.701,2.0
16.857,-0.029,-0.732,1.0
15.542,-0.028,-0.755,1.0
14.505,-0.027,-0.782,1.0
13.576,-0.027,-0.802,1.0
12.769,-0.026,-0.821,0.0
18.928,-0.038,-0.686,2.0
17.382,-0.036,-0.72,1.0
15.994,-0.035,-0.745,1.0
14.892,-0.033,-0.773,1.0
13.882,-0.032,-0.792,1.0
13.078,-0.031,-0.814,1.0
19.607,-0.046,-0.671,3.0
17.948,-0.044,-0.707,2.0
16.567,-0.041,-0.739,1.0
15.285,-0.039,-0.762,1.0
14.272,-0.038,-0.786,1.0
13.397,-0.036,-0.807,1.0
20.438,-0.055,-0.659,2.0
18.533,-0.051,-0.693,2.0
17.088,-0.048,-0.727,1.0
15.731,-0.045,-0.753,1.0
14.679,-0.043,-0.778,1.0
13.686,-0.041,-0.797,1.0
21.23,-0.062,-0.641,2.0
19.253,-0.058,-0.68,2.0
17.689,-0.054,-0.716,1.0
16.18,-0.05,-0.741,1.0
15.085,-0.048,-0.769,1.0
14.078,-0.045,-0.79,1.0
22.173,-0.07,-0.624,3.0
19.995,-0.064,-0.666,2.0
18.269,-0.06,-0.703,2.0
16.821,-0.056,-0.736,1.0
15.502,-0.052,-0.758,1.0
14.506,-0.05,-0.784,1.0
23.026,-0.077,-0.6,1.0
20.829,-0.071,-0.651,3.0
18.922,-0.065,-0.689,2.0
17.375,-0.061,-0.724,1.0
15.998,-0.057,-0.749,1.0
14.888,-0.053,-0.774,1.0
23.97,-0.084,-0.575,1.0
21.713,-0.077,-0.633,2.0
19.633,-0.071,-0.674,2.0
18.001,-0.065,-0.712,2.0
16.575,-0.061,-0.742,1.0
15.316,-0.057,-0.765,1.0
25.142,-0.092,-0.552,1.0
22.644,-0.083,-0.613,2.0
20.439,-0.076,-0.659,2.0
18.518,-0.069,-0.695,2.0
17.12,-0.064,-0.73,1.0
15.755,-0.06,-0.754,1.0
26.264,-0.098,-0.522,2.0
23.505,-0.088,-0.588,1.0
21.265,-0.08,-0.642,2.0
19.251,-0.073,-0.682,2.0
17.723,-0.068,-0.719,1.0
16.277,-0.062,-0.744,1.0
27.474,-0.104,-0.488,1.0
24.654,-0.093,-0.565,1.0
22.23,-0.085,-0.624,2.0
20.032,-0.076,-0.667,2.0
18.329,-0.07,-0.705,2.0
16.884,-0.065,-0.736,1.0
28.942,-0.11,-0.453,2.0
25.929,-0.098,-0.539,1.0
23.172,-0.088,-0.601,1.0
20.917,-0.08,-0.652,2.0
18.994,-0.072,-0.69,2.0
17.459,-0.067,-0.724,1.0
30.092,-0.113,-0.406,2.0
27.01,-0.102,-0.504,1.0
24.247,-0.091,-0.577,1.0
21.846,-0.082,-0.635,3.0
19.729,-0.074,-0.675,3.0
18.127,-0.068,-0.713,2.0
31.911,-0.118,-0.364,1.0
28.366,-0.105,-0.47,1.0
25.414,-0.093,-0.552,1.0
22.776,-0.084,-0.614,2.0
20.561,-0.075,-0.66,2.0
18.657,-0.068,-0.695,3.0
34.053,-0.122,-0.317,1.0
29.642,-0.106,-0.429,2.0
26.618,-0.095,-0.522,2.0
23.701,-0.084,-0.588,1.0
21.444,-0.076,-0.643,2.0
19.441,-0.068,-0.683,2.0
39.064,-0.135,-0.281,3.0
31.121,-0.107,-0.383,1.0
27.836,-0.095,-0.486,1.0
24.739,-0.084,-0.562,1.0
22.418,-0.075,-0.624,2.0
20.241,-0.067,-0.668,2.0
39.763,-0.13,-0.201,13.0
33.188,-0.107,-0.339,1.0
29.187,-0.094,-0.448,2.0
26.11,-0.083,-0.538,2.0
23.358,-0.073,-0.601,1.0
21.108,-0.066,-0.652,2.0
41.68,-0.127,-0.123,18.0
38.64,-0.116,-0.313,2.0
30.41,-0.09,-0.402,1.0
27.201,-0.08,-0.502,1.0
24.322,-0.071,-0.574,2.0
22.073,-0.063,-0.635,3.0
45.963,-0.128,-0.038,21.0
39.224,-0.108,-0.234,10.0
32.494,-0.088,-0.361,2.0
28.654,-0.076,-0.468,2.0
25.663,-0.067,-0.552,1.0
22.976,-0.059,-0.612,2.0
51.677,-0.129,0.067,9.0
40.873,-0.1,-0.157,16.0
36.937,-0.088,-0.331,0.0
29.801,-0.07,-0.424,2.0
26.759,-0.061,-0.518,2.0
23.954,-0.054,-0.587,2.0
61.455,-0.133,0.209,10.0
45.685,-0.096,-0.079,19.0
38.893,-0.08,-0.268,6.0
31.682,-0.063,-0.384,2.0
28.074,-0.054,-0.485,1.0
25.104,-0.047,-0.562,1.0
76.28,-0.137,0.421,13.0
48.135,-0.084,0.017,11.0
39.928,-0.067,-0.19,15.0
33.62,-0.054,-0.337,1.0
29.375,-0.045,-0.445,2.0
26.343,-0.039,-0.535,2.0
79.34,-0.111,0.604,54.0
55.941,-0.074,0.137,29.0
0.0,0.0,0.0,0.0
38.482,-0.045,-0.304,3.0
30.606,-0.034,-0.4,1.0
27.425,-0.028,-0.499,1.0
79.465,-0.076,0.772,151.0
61.824,-0.054,0.281,10.0
45.949,-0.037,-0.026,14.0
39.217,-0.028,-0.229,15.0
32.957,-0.021,-0.362,1.0
28.921,-0.016,-0.466,2.0
79.464,-0.038,0.936,153.0
76.572,-0.03,0.509,16.0
55.144,-0.017,0.082,18.0
40.577,-0.009,-0.152,17.0
38.169,-0.005,-0.34,2.0
30.116,-0.001,-0.423,1.0
79.46,0.002,1.102,151.0
79.468,0.009,0.693,151.0
61.609,0.012,0.22,13.0
0.0,0.0,0.0,0.0
38.743,0.015,-0.264,14.0
31.603,0.015,-0.378,1.0
79.452,0.046,1.268,158.0
79.462,0.053,0.858,156.0
76.085,0.058,0.429,16.0
47.865,0.041,0.018,21.0
39.57,0.038,-0.189,40.0
33.457,0.036,-0.332,0.0
79.453,0.093,1.432,160.0
79.469,0.101,1.022,155.0
79.45,0.109,0.612,51.0
58.107,0.086,0.142,6.0
43.908,0.069,-0.119,11.0
38.211,0.064,-0.301,5.0
79.454,0.142,1.594,151.0
79.464,0.151,1.184,157.0
79.444,0.159,0.774,151.0
75.778,0.161,0.34,7.0
0.0,0.0,0.0,0.0
38.864,0.091,-0.226,24.0
79.444,0.194,1.757,150.0
79.453,0.204,1.347,169.0
79.464,0.213,0.935,151.0
76.672,0.214,0.499,28.0
54.197,0.158,0.073,28.0
40.068,0.121,-0.152,16.0
79.444,0.249,1.917,150.0
79.46,0.259,1.507,151.0
79.468,0.268,1.095,152.0
79.426,0.278,0.676,150.0
59.231,0.215,0.199,7.0
0.0,0.0,0.0,0.0
79.439,0.307,2.077,150.0
79.423,0.317,1.666,150.0
79.439,0.328,1.256,150.0
59.322,0.252,0.624,73.0
59.321,0.26,0.318,77.0
47.776,0.216,0.009,28.0
59.275,0.274,1.668,92.0
59.289,0.282,1.361,137.0
59.293,0.29,1.055,112.0
59.292,0.299,0.742,138.0
59.304,0.307,0.435,106.0
54.768,0.291,0.118,46.0
48.18,0.261,1.451,70.0
48.171,0.268,1.202,64.0
48.169,0.275,0.952,60.0
48.181,0.282,0.698,48.0
48.19,0.289,0.449,54.0
55.034,0.338,0.227,5.0
48.146,0.301,1.546,95.0
48.131,0.308,1.295,101.0
48.132,0.315,1.046,94.0
48.117,0.322,0.791,81.0
48.113,0.33,0.542,55.0
48.124,0.337,0.292,48.0
48.128,0.343,1.639,103.0
48.117,0.35,1.388,109.0
48.112,0.357,1.138,109.0
48.076,0.364,0.883,110.0
48.084,0.372,0.633,105.0
48.075,0.379,0.383,94.0
48.112,0.385,1.73,102.0
48.113,0.393,1.481,116.0
48.112,0.401,1.23,115.0
48.084,0.408,0.975,112.0
48.087,0.416,0.726,110.0
48.071,0.424,0.476,105.0
48.141,0.43,1.824,110.0
48.12,0.438,1.573,83.0
48.123,0.446,1.322,108.0
48.098,0.454,1.067,104.0
48.097,0.462,0.817,102.0
48.088,0.47,0.567,98.0
48.19,0.477,1.917,87.0
48.156,0.485,1.665,95.0
48.151,0.493,1.414,92.0
48.129,0.501,1.158,92.0
48.124,0.509,0.906,95.0
48.104,0.517,0.656,98.0
55.038,0.599,2.292,90.0
55.029,0.609,2.004,48.0
55.031,0.619,1.717,30.0
48.186,0.55,1.248,58.0
48.185,0.559,0.996,48.0
48.158,0.567,0.745,49.0
55.006,0.655,2.392,127.0
55.013,0.665,2.105,120.0
55.007,0.675,1.817,112.0
55.022,0.685,1.525,107.0
55.082,0.696,1.24,55.0
189.154,2.427,3.272,17.0
55.003,0.714,2.493,124.0
55.011,0.724,2.205,111.0
55.027,0.734,1.918,100.0
55.064,0.745,1.626,59.0
176.317,2.419,4.287,24.0
190.253,2.646,3.632,17.0
55.013,0.773,2.592,114.0
55.026,0.784,2.304,116.0
55.096,0.795,2.019,57.0
133.003,1.946,4.166,31.0
176.322,2.613,4.598,11.0
190.06,2.854,3.964,29.0
55.007,0.834,2.689,119.0
55.05,0.846,2.403,72.0
59.353,0.923,2.279,4.0
132.85,2.092,4.392,36.0
159.843,2.549,4.449,16.0
190.04,3.068,4.293,7.0
55.018,0.897,2.786,60.0
55.071,0.909,2.499,6.0
174.239,2.912,6.995,19.0
132.643,2.242,4.614,30.0
163.229,2.793,4.824,14.0
160.227,2.774,3.896,3.0
55.114,0.963,2.885,43.0
129.987,2.297,6.122,22.0
130.351,2.33,5.453,23.0
161.347,2.917,5.886,11.0
128.154,2.342,4.002,10.0
128.092,2.368,3.328,21.0
55.178,1.029,2.981,27.0
128.372,2.421,6.259,12.0
128.163,2.444,5.575,13.0
127.98,2.467,4.881,27.0
128.008,2.494,4.209,41.0
128.058,2.521,3.537,45.0
54.739,1.088,3.048,18.0
55.288,1.11,2.787,3.0
127.752,2.592,5.767,24.0
127.879,2.622,5.087,28.0
128.038,2.653,4.418,62.0
128.066,2.68,3.745,46.0
54.584,1.152,3.128,54.0
55.36,1.18,2.88,20.0
127.748,2.751,5.972,13.0
127.854,2.781,5.29,21.0
152.606,3.351,5.508,43.0
159.217,3.532,4.909,22.0
54.443,1.218,3.207,55.0
55.378,1.251,2.969,63.0
122.716,2.798,5.93,22.0
130.381,3.0,5.599,18.0
152.549,3.545,5.744,35.0
152.732,3.582,4.945,6.0
54.406,1.286,3.289,93.0
55.401,1.322,3.056,53.0
122.626,2.953,6.115,34.0
130.132,3.163,5.788,11.0
152.201,3.733,5.963,15.0
152.667,3.779,5.175,31.0
54.388,1.357,3.371,98.0
55.425,1.395,3.142,67.0
122.925,3.123,6.316,25.0
152.823,3.916,7.027,11.0
152.124,3.933,6.19,35.0
152.285,3.972,5.392,39.0
54.262,1.427,3.445,78.0
122.298,3.244,7.116,24.0
123.209,3.296,6.515,26.0
122.613,3.308,5.821,49.0
151.901,4.133,6.405,37.0
152.055,4.171,5.606,44.0
54.207,1.499,3.522,52.0
123.761,3.451,7.382,23.0
123.228,3.464,6.695,11.0
122.659,3.476,6.0,48.0
151.896,4.338,6.621,33.0
151.919,4.375,5.817,40.0
73.898,2.145,4.907,20.0
124.287,3.635,7.589,37.0
124.151,3.659,6.919,18.0
123.137,3.658,6.195,20.0
152.179,4.555,6.845,19.0
152.088,4.588,6.033,34.0
73.777,2.244,5.002,29.0
54.268,1.662,3.389,14.0
73.95,2.283,4.223,37.0
123.047,3.826,6.359,15.0
133.583,4.186,6.192,39.0
152.302,4.809,6.248,40.0
55.175,1.756,3.815,74.0
54.258,1.739,3.462,39.0
73.801,2.382,4.313,44.0
125.469,4.079,6.651,29.0
133.739,4.379,6.376,35.0
152.704,5.036,6.465,33.0
55.203,1.835,3.89,24.0
54.243,1.815,3.532,78.0
64.976,2.189,3.882,13.0
73.922,2.509,4.014,40.0
133.789,4.57,6.548,15.0
152.579,5.249,6.654,18.0
55.212,1.914,3.961,7.0
54.217,1.892,3.599,49.0
64.948,2.282,3.963,33.0
73.772,2.609,4.099,36.0
73.875,2.63,3.708,19.0
123.907,4.442,5.557,15.0
65.42,2.364,4.776,33.0
54.2,1.971,3.665,92.0
73.33,2.683,4.564,21.0
73.697,2.714,4.184,22.0
73.75,2.733,3.792,31.0
123.78,4.617,5.7,23.0
54.221,2.039,4.024,54.0
54.163,2.049,3.728,75.0
73.318,2.79,4.652,15.0
73.298,2.807,4.248,13.0
73.586,2.836,3.87,35.0
123.523,4.791,5.833,20.0
53.799,2.102,4.055,90.0
73.638,2.894,5.154,25.0
73.256,2.897,4.732,24.0
65.195,2.593,3.853,17.0
73.498,2.942,3.949,12.0
124.145,4.999,6.004,18.0
65.238,2.647,4.992,16.0
73.651,3.005,5.237,39.0
73.541,3.018,4.832,15.0
73.339,3.027,4.416,30.0
73.303,3.044,4.019,50.0
124.301,5.191,6.146,20.0
71.465,3.007,5.546,24.0
73.529,3.111,5.308,45.0
73.483,3.127,4.908,17.0
73.247,3.134,4.488,38.0
73.292,3.154,4.096,46.0
132.411,5.731,6.686,14.0
64.427,2.809,5.068,30.0
73.807,3.235,5.406,16.0
73.358,3.233,4.976,31.0
73.155,3.242,4.559,44.0
73.499,3.275,4.183,9.0
123.233,5.52,6.347,28.0
64.549,2.914,5.144,25.0
64.533,2.928,4.792,34.0
73.664,3.36,5.071,16.0
127.742,5.858,8.088,26.0
73.371,3.382,4.248,32.0
123.226,5.709,6.468,27.0
74.049,3.457,5.973,17.0
64.587,3.03,4.859,11.0
73.759,3.478,5.148,42.0
127.945,6.063,8.221,17.0
73.3,3.491,4.312,20.0
123.259,5.9,6.584,50.0
68.102,3.284,5.557,20.0
64.7,3.135,4.927,34.0
73.637,3.586,5.207,30.0
149.685,7.324,9.755,22.0
73.43,3.61,4.386,23.0
123.344,6.094,6.698,23.0
64.89,3.23,5.353,34.0
65.175,3.259,5.021,7.0
73.835,3.71,5.285,39.0
149.869,7.566,9.897,21.0
73.433,3.724,4.449,10.0
128.967,6.573,7.113,16.0
64.467,3.309,5.373,24.0
65.244,3.364,5.081,16.0
124.645,6.456,9.026,24.0
124.659,6.485,8.334,17.0
127.663,6.671,7.838,28.0
73.318,3.849,4.102,16.0
64.745,3.424,5.449,31.0
78.296,4.159,6.159,17.0
124.887,6.662,9.142,20.0
124.622,6.676,8.429,34.0
128.086,6.893,7.963,19.0
128.76,6.96,7.303,18.0
64.806,3.529,5.503,18.0
78.309,4.282,6.221,16.0
71.878,3.947,5.315,36.0
71.951,3.968,4.92,19.0
154.918,8.581,9.747,20.0
127.345,7.083,7.317,30.0
64.495,3.613,5.524,13.0
64.948,3.654,5.206,15.0
71.553,4.042,5.343,21.0
71.838,4.075,4.963,39.0
127.911,7.286,8.137,18.0
127.434,7.288,7.408,35.0
64.524,3.717,5.571,28.0
75.768,4.381,6.125,27.0
71.886,4.173,5.415,30.0
71.778,4.182,5.006,17.0
127.321,7.449,8.18,31.0
127.824,7.508,7.512,35.0
64.303,3.803,5.592,28.0
64.469,3.827,5.251,25.0
78.605,4.684,5.97,11.0
78.549,4.699,5.525,13.0
71.174,4.274,4.615,28.0
128.028,7.718,7.6,28.0
64.251,3.9,5.625,28.0
64.487,3.929,5.29,39.0
78.713,4.814,6.023,25.0
67.118,4.119,4.76,27.0
67.289,4.146,4.402,33.0
67.168,4.153,4.024,14.0
64.155,3.995,5.653,32.0
64.589,4.037,5.334,28.0
78.615,4.93,6.058,33.0
67.136,4.226,4.796,22.0
67.054,4.235,4.421,33.0
66.974,4.246,4.047,37.0
65.152,4.159,5.774,22.0
74.059,4.744,6.154,11.0
65.921,4.237,5.112,22.0
67.279,4.338,4.839,38.0
67.148,4.345,4.459,42.0
67.165,4.36,4.09,39.0
70.072,4.581,6.243,25.0
65.195,4.277,5.446,40.0
65.849,4.333,5.136,29.0
67.291,4.443,4.869,34.0
67.193,4.452,4.491,42.0
67.407,4.482,4.133,31.0
65.038,4.354,5.822,17.0
65.258,4.382,5.479,27.0
66.251,4.463,5.195,43.0
71.162,4.808,5.178,10.0
67.476,4.574,4.536,34.0
67.372,4.583,4.157,27.0
65.207,4.466,5.862,27.0
65.277,4.484,5.505,35.0
65.634,4.523,5.17,36.0
71.107,4.914,5.2,11.0
67.6,4.686,4.568,23.0
67.296,4.68,4.175,8.0
71.698,5.021,6.47,20.0
63.848,4.484,5.406,26.0
64.429,4.539,5.096,40.0
71.13,5.025,5.224,11.0
67.518,4.785,4.584,39.0
70.871,5.037,4.418,21.0
71.224,5.097,6.448,10.0
63.869,4.583,5.426,39.0
64.158,4.617,5.093,39.0
67.463,4.869,4.972,16.0
70.808,5.125,4.826,12.0
70.858,5.143,4.436,16.0
63.799,4.662,5.791,32.0
63.725,4.669,5.429,36.0
63.941,4.698,5.091,27.0
64.403,4.746,4.761,12.0
70.752,5.228,4.837,45.0
70.902,5.254,4.454,16.0
64.017,4.775,5.825,40.0
63.904,4.779,5.457,39.0
0.0,0.0,0.0,0.0
67.765,5.095,5.023,7.0
70.743,5.333,4.85,12.0
70.891,5.359,4.465,7.0
63.954,4.866,5.83,31.0
64.003,4.882,5.476,39.0
0.0,0.0,0.0,0.0
67.901,5.206,5.042,8.0
67.589,5.195,4.642,23.0
129.756,10.0,8.189,13.0
63.876,4.955,5.83,40.0
63.659,4.95,5.453,38.0
63.528,4.952,5.086,33.0
65.421,5.112,4.865,20.0
67.78,5.309,4.662,33.0
75.457,5.926,4.769,6.0
63.774,5.04,5.826,38.0
63.746,5.05,5.465,38.0
63.507,5.043,5.089,33.0
65.452,5.209,4.871,20.0
74.593,5.951,5.134,26.0
74.532,5.96,4.714,19.0
64.21,5.168,5.868,41.0
63.659,5.135,5.46,38.0
66.415,5.369,5.323,9.0
65.487,5.307,4.875,16.0
74.623,6.061,5.137,19.0
74.505,6.066,4.712,25.0
64.372,5.273,5.883,38.0
63.982,5.253,5.487,39.0
66.158,5.443,5.302,42.0
65.964,5.439,4.908,31.0
75.962,6.277,5.227,42.0
74.748,6.191,4.724,9.0
64.332,5.361,5.877,25.0
64.238,5.364,5.505,38.0
66.886,5.597,5.356,30.0
65.942,5.529,4.903,22.0
74.684,6.277,5.133,23.0
75.877,6.391,4.79,22.0
47.384,4.015,4.324,36.0
64.421,5.47,5.515,17.0
66.552,5.663,5.322,42.0
66.259,5.649,4.919,42.0
72.584,6.2,4.98,13.0
75.915,6.499,4.783,27.0
47.347,4.078,4.314,41.0
47.584,4.106,4.067,27.0
66.418,5.742,5.303,33.0
66.347,5.747,4.916,30.0
72.659,6.306,4.975,17.0
75.802,6.593,4.764,11.0
47.465,4.153,4.317,21.0
47.667,4.178,4.066,21.0
66.017,5.797,5.258,23.0
66.382,5.839,4.906,38.0
74.316,6.55,5.074,9.0
75.807,6.695,4.749,16.0
47.5,4.219,4.311,18.0
47.772,4.25,4.065,56.0
66.469,5.925,5.28,12.0
72.155,6.443,5.317,5.0
74.168,6.635,5.047,7.0
75.947,6.807,4.74,12.0
47.615,4.292,4.309,30.0
47.724,4.309,4.048,52.0
66.312,5.997,5.25,40.0
66.357,6.011,4.872,42.0
66.13,6.002,4.481,12.0
76.106,6.919,4.729,24.0
48.017,4.39,4.332,22.0
47.692,4.367,4.032,25.0
66.239,6.076,5.224,25.0
66.483,6.108,4.86,23.0
13.837,1.273,0.933,4.0
13.832,1.275,0.855,3.0
13.875,1.286,1.247,13.0
13.842,1.285,1.165,8.0
13.813,1.284,1.084,9.0
13.805,1.286,1.004,9.0
13.815,1.289,0.927,20.0
13.807,1.29,0.848,17.0
13.842,1.3,1.239,17.0
13.822,1.3,1.158,15.0
13.8,1.3,1.078,26.0
13.805,1.303,0.999,24.0
13.814,1.305,0.921,30.0
13.822,1.308,0.844,31.0
13.814,1.314,1.231,28.0
13.801,1.315,1.151,30.0
13.805,1.317,1.073,35.0
13.799,1.319,0.993,30.0
13.792,1.32,0.914,35.0
13.801,1.323,0.836,35.0
13.796,1.329,1.223,37.0
13.789,1.33,1.144,39.0
13.79,1.332,1.065,32.0
13.785,1.333,0.985,34.0
13.788,1.336,0.907,38.0
13.795,1.338,0.83,35.0
13.783,1.344,1.215,45.0
13.776,1.345,1.136,144.0
13.773,1.347,1.057,44.0
13.767,1.348,0.977,37.0
13.772,1.35,0.899,36.0
13.78,1.353,0.822,35.0
13.781,1.36,1.208,81.0
13.769,1.36,1.128,150.0
13.767,1.361,1.05,111.0
13.756,1.362,0.969,37.0
13.764,1.364,0.891,41.0
13.772,1.367,0.814,38.0
13.778,1.375,1.2,98.0
13.761,1.374,1.12,150.0
13.757,1.376,1.041,39.0
13.751,1.377,0.961,36.0
13.759,1.379,0.883,81.0
13.77,1.382,0.806,48.0
13.772,1.389,1.192,63.0
13.758,1.389,1.112,150.0
13.754,1.39,1.033,37.0
13.746,1.39,0.952,47.0
13.758,1.393,0.875,91.0
13.768,1.396,0.797,57.0
13.774,1.403,1.183,39.0
13.753,1.403,1.103,150.0
13.754,1.404,1.024,39.0
13.747,1.405,0.944,59.0
13.757,1.407,0.866,93.0
13.767,1.41,0.788,51.0
13.772,1.417,1.174,39.0
13.751,1.416,1.093,150.0
13.746,1.417,1.014,39.0
13.747,1.418,0.935,50.0
13.755,1.421,0.857,97.0
13.761,1.423,0.779,39.0
13.769,1.43,1.164,35.0
13.745,1.429,1.083,150.0
13.756,1.431,1.006,80.0
13.75,1.432,0.925,52.0
13.755,1.434,0.847,104.0
13.761,1.436,0.769,50.0
13.747,1.441,1.152,30.0
13.749,1.442,1.074,146.0
13.758,1.444,0.996,150.0
13.746,1.444,0.915,40.0
13.757,1.447,0.837,125.0
13.761,1.449,0.759,39.0
13.734,1.452,1.141,19.0
13.76,1.456,1.064,138.0
13.76,1.457,0.985,150.0
13.761,1.458,0.905,98.0
13.767,1.46,0.827,148.0
13.771,1.462,0.749,39.0
13.746,1.465,1.131,33.0
13.762,1.468,1.054,129.0
13.77,1.47,0.975,150.0
13.751,1.469,0.894,116.0
13.764,1.472,0.816,94.0
13.775,1.474,0.738,38.0
13.753,1.477,1.121,42.0
13.773,1.481,1.043,150.0
13.76,1.48,0.963,150.0
13.744,1.479,0.882,49.0
13.766,1.483,0.805,89.0
13.774,1.485,0.727,36.0
13.75,1.488,1.109,41.0
13.773,1.492,1.032,150.0
13.756,1.491,0.951,120.0
13.742,1.49,0.87,31.0
13.773,1.494,0.793,88.0
13.782,1.496,0.715,33.0
13.758,1.499,1.098,41.0
13.781,1.503,1.02,129.0
13.761,1.501,0.94,131.0
13.74,1.5,0.858,32.0
13.773,1.505,0.782,71.0
13.781,1.506,0.703,32.0
13.761,1.51,1.086,69.0
13.778,1.512,1.008,114.0
13.755,1.51,0.927,120.0
13.741,1.51,0.846,37.0
13.778,1.515,0.769,38.0
13.791,1.517,0.691,31.0
13.766,1.52,1.073,77.0
13.787,1.522,0.996,61.0
13.752,1.519,0.914,102.0
13.749,1.52,0.834,58.0
13.796,1.526,0.758,33.0
13.806,1.528,0.679,28.0
13.771,1.529,1.061,71.0
13.783,1.531,0.982,36.0
13.739,1.527,0.9,104.0
13.766,1.53,0.822,51.0
13.803,1.535,0.745,30.0
13.802,1.536,0.666,22.0
13.788,1.539,1.049,41.0
13.773,1.538,0.968,28.0
13.748,1.536,0.887,70.0
13.768,1.539,0.808,35.0
13.808,1.544,0.731,23.0
13.826,1.546,0.653,11.0
13.795,1.548,1.035,37.0
13.775,1.546,0.955,26.0
13.759,1.545,0.874,38.0
13.786,1.548,0.796,31.0
13.824,1.553,0.718,10.0
35.868,4.032,1.66,32.0
13.786,1.554,1.021,21.0
13.752,1.551,0.939,14.0
13.762,1.552,0.861,31.0
36.418,4.109,2.065,150.0
36.069,4.071,1.839,44.0
35.866,4.049,1.623,150.0
13.787,1.561,1.006,14.0
13.786,1.561,0.927,9.0
13.751,1.557,0.846,15.0
13.794,1.562,0.768,7.0
13.893,1.574,0.693,0.0
35.87,4.066,1.586,150.0
13.794,1.567,0.992,13.0
13.747,1.562,0.91,12.0
13.758,1.564,0.832,13.0
10.005,1.137,0.546,5.0
9.99,1.136,0.488,4.0
35.838,4.077,1.546,32.0
13.802,1.574,0.978,8.0
13.748,1.568,0.895,11.0
13.796,1.573,0.819,9.0
9.987,1.139,0.535,8.0
10.001,1.141,0.478,8.0
10.003,1.141,0.42,6.0
13.791,1.577,0.962,5.0
13.764,1.574,0.881,8.0
13.796,1.578,0.804,4.0
9.978,1.141,0.523,11.0
35.846,4.102,1.674,6.0
32.939,3.77,1.35,2.0
10.008,1.148,0.687,19.0
13.759,1.578,0.866,5.0
9.989,1.145,0.571,15.0
9.991,1.146,0.512,13.0
35.841,4.111,1.634,13.0
32.988,3.785,1.315,4.0
10.009,1.15,0.676,20.0
10.007,1.15,0.618,19.0
9.995,1.149,0.56,18.0
9.991,1.148,0.501,15.0
10.0,1.149,0.444,14.0
10.002,1.15,0.387,13.0
10.007,1.152,0.664,22.0
10.005,1.152,0.607,34.0
9.999,1.151,0.549,19.0
10.004,1.152,0.49,17.0
9.999,1.151,0.433,15.0
9.989,1.15,0.375,14.0
10.008,1.154,0.653,36.0
10.01,1.154,0.595,54.0
10.011,1.154,0.537,23.0
10.005,1.153,0.479,18.0
10.007,1.154,0.421,16.0
9.996,1.152,0.363,15.0
10.0,1.155,0.64,36.0
10.006,1.155,0.583,75.0
10.005,1.155,0.525,30.0
10.0,1.154,0.467,19.0
10.005,1.154,0.409,17.0
10.003,1.154,0.352,16.0
10.001,1.156,0.629,40.0
10.005,1.156,0.571,72.0
10.007,1.156,0.514,41.0
9.996,1.154,0.455,18.0
10.005,1.155,0.398,17.0
10.001,1.155,0.34,16.0
10.003,1.156,0.617,38.0
10.008,1.156,0.559,71.0
10.001,1.155,0.501,41.0
10.001,1.155,0.443,18.0
10.008,1.156,0.386,17.0
9.999,1.154,0.328,16.0
10.003,1.156,0.605,41.0
10.0,1.155,0.547,71.0
10.0,1.155,0.489,27.0
10.0,1.155,0.431,18.0
9.996,1.154,0.373,16.0
33.891,3.913,1.072,8.0
10.0,1.155,0.592,35.0
10.004,1.155,0.535,55.0
10.007,1.155,0.477,20.0
9.99,1.153,0.418,17.0
10.006,1.154,0.361,16.0
33.924,3.914,1.031,22.0
10.012,1.156,0.58,30.0
10.004,1.154,0.522,21.0
9.998,1.153,0.465,18.0
9.999,1.153,0.406,15.0
10.005,1.153,0.349,15.0
33.934,3.911,0.99,6.0
10.011,1.154,0.568,20.0
10.009,1.153,0.51,19.0
9.996,1.151,0.452,16.0
9.995,1.151,0.394,14.0
9.995,1.15,0.336,14.0
9.999,1.15,0.279,13.0
10.012,1.152,0.556,19.0
10.011,1.151,0.498,17.0
9.987,1.148,0.44,13.0
33.127,3.808,1.265,3.0
9.999,1.149,0.324,12.0
9.992,1.147,0.267,10.0
10.016,1.15,0.544,16.0
9.999,1.148,0.485,14.0
9.979,1.145,0.427,11.0
33.1,3.796,1.223,5.0
9.992,1.145,0.312,9.0
10.001,1.146,0.254,6.0
10.02,1.148,0.531,14.0
9.989,1.144,0.472,11.0
9.993,1.143,0.415,8.0
33.074,3.783,1.181,6.0
10.015,1.145,0.3,5.0
9.995,1.142,0.242,3.0
10.008,1.143,0.518,11.0
35.837,4.092,1.651,61.0
32.983,3.764,1.33,2.0
33.062,3.771,1.14,7.0
10.01,1.141,0.287,2.0
10.013,1.14,0.23,1.0
10.014,1.14,0.506,6.0
35.853,4.08,1.607,128.0
10.009,1.138,0.391,1.0
33.176,3.771,1.102,10.0
10.026,1.139,0.275,0.0
96.913,11.003,2.109,28.0
10.018,1.136,0.494,1.0
35.878,4.068,1.564,150.0
33.496,3.795,1.267,5.0
96.901,10.972,3.101,25.0
96.92,10.967,2.546,37.0
96.913,10.96,1.99,23.0
13.851,1.565,0.666,3.0
35.88,4.051,1.519,150.0
35.881,4.048,1.313,4.0
96.871,10.922,2.98,19.0
13.87,1.562,0.347,1.0
13.812,1.555,0.266,4.0
35.854,4.033,1.679,28.0
35.88,4.033,1.474,98.0
35.895,4.031,1.269,3.0
35.912,4.03,1.06,3.0
13.84,1.552,0.329,4.0
13.813,1.547,0.249,8.0
35.87,4.015,1.636,54.0
35.878,4.012,1.43,54.0
13.803,1.542,0.471,7.0
13.803,1.541,0.39,6.0
13.834,1.543,0.312,13.0
13.821,1.54,0.232,16.0
13.816,1.538,0.613,18.0
13.824,1.537,0.534,14.0
13.82,1.535,0.454,13.0
13.822,1.534,0.373,13.0
13.804,1.531,0.294,17.0
13.809,1.53,0.215,18.0
13.815,1.529,0.595,27.0
13.8,1.526,0.516,21.0
13.798,1.524,0.437,20.0
13.804,1.523,0.356,22.0
13.788,1.52,0.277,25.0
13.799,1.52,0.198,22.0
13.803,1.518,0.578,30.0
13.804,1.517,0.499,31.0
13.797,1.514,0.42,30.0
13.808,1.514,0.34,31.0
13.791,1.511,0.26,32.0
13.799,1.51,0.181,28.0
13.798,1.507,0.561,34.0
13.802,1.506,0.482,38.0
13.794,1.504,0.403,36.0
13.799,1.503,0.323,33.0
13.792,1.5,0.244,34.0
13.797,1.499,0.165,32.0
13.79,1.496,0.544,36.0
13.8,1.495,0.465,51.0
13.79,1.492,0.386,39.0
13.786,1.49,0.306,35.0
13.785,1.489,0.227,35.0
13.787,1.487,0.148,33.0
13.785,1.484,0.528,40.0
13.788,1.483,0.449,105.0
13.785,1.48,0.37,65.0
13.772,1.477,0.289,35.0
13.782,1.477,0.211,37.0
13.788,1.476,0.132,34.0
13.784,1.472,0.511,47.0
13.776,1.469,0.432,120.0
13.781,1.468,0.353,109.0
13.774,1.465,0.273,36.0
13.772,1.464,0.194,36.0
13.786,1.463,0.116,37.0
13.779,1.459,0.495,74.0
13.784,1.458,0.416,149.0
13.779,1.455,0.337,92.0
13.764,1.452,0.257,37.0
13.781,1.452,0.178,35.0
13.788,1.451,0.099,37.0
13.777,1.446,0.479,76.0
13.78,1.444,0.4,137.0
13.769,1.441,0.321,73.0
13.759,1.438,0.24,38.0
13.762,1.436,0.162,35.0
13.777,1.436,0.083,37.0
13.776,1.432,0.462,78.0
13.776,1.43,0.384,148.0
13.756,1.426,0.305,101.0
13.762,1.424,0.225,40.0
13.772,1.423,0.146,46.0
13.774,1.422,0.068,37.0
13.776,1.418,0.447,71.0
13.778,1.416,0.368,150.0
13.759,1.412,0.289,149.0
13.771,1.411,0.209,45.0
13.778,1.409,0.131,48.0
13.774,1.407,0.052,39.0
13.779,1.403,0.432,57.0
13.78,1.401,0.353,110.0
13.766,1.397,0.274,108.0
13.77,1.396,0.194,42.0
13.78,1.395,0.116,68.0
13.778,1.392,0.037,37.0
13.788,1.389,0.417,54.0
13.78,1.386,0.338,119.0
13.767,1.382,0.259,100.0
13.778,1.381,0.179,48.0
13.791,1.38,0.101,74.0
13.783,1.377,0.022,37.0
13.786,1.373,0.401,61.0
13.786,1.37,0.323,88.0
13.777,1.367,0.244,114.0
13.779,1.365,0.164,39.0
13.793,1.364,0.086,65.0
13.791,1.361,0.007,36.0
13.798,1.357,0.387,41.0
13.782,1.353,0.308,80.0
13.786,1.351,0.229,84.0
13.785,1.349,0.15,38.0
13.8,1.348,0.071,53.0
13.801,1.346,-0.006,34.0
13.808,1.341,0.373,40.0
13.785,1.336,0.293,42.0
13.799,1.335,0.215,38.0
13.802,1.333,0.135,38.0
13.808,1.331,0.057,38.0
13.807,1.329,-0.021,33.0
13.822,1.325,0.359,37.0
13.812,1.321,0.28,39.0
13.815,1.319,0.201,34.0
13.821,1.317,0.121,36.0
13.819,1.314,0.043,35.0
13.822,1.312,-0.035,31.0
13.832,1.308,0.345,35.0
13.829,1.304,0.266,30.0
13.822,1.301,0.187,27.0
13.833,1.3,0.107,30.0
13.85,1.299,0.029,32.0
13.836,1.295,-0.049,28.0
13.851,1.291,0.331,28.0
13.856,1.288,0.253,15.0
13.854,1.285,0.174,18.0
13.853,1.283,0.094,17.0
13.853,1.28,0.015,20.0
13.864,1.279,-0.062,24.0
27.552,2.53,0.633,16.0
27.539,2.523,0.477,25.0
27.539,2.518,0.32,21.0
27.641,2.521,0.162,5.0
27.635,2.516,0.005,4.0
27.451,2.493,-0.15,1.0
27.539,2.49,0.607,49.0
27.525,2.483,0.451,44.0
27.519,2.476,0.294,56.0
27.652,2.483,0.136,15.0
27.59,2.472,-0.02,17.0
27.447,2.454,-0.175,19.0
27.512,2.447,0.581,55.0
27.477,2.438,0.424,43.0
27.468,2.431,0.268,57.0
27.634,2.441,0.111,20.0
27.576,2.43,-0.045,16.0
27.481,2.416,-0.2,13.0
27.496,2.405,0.556,45.0
27.452,2.395,0.4,36.0
27.438,2.388,0.244,38.0
27.635,2.399,0.086,20.0
27.613,2.391,-0.069,11.0
34.754,3.003,-0.284,8.0
27.474,2.362,0.532,43.0
27.458,2.354,0.376,49.0
27.438,2.346,0.22,51.0
27.636,2.357,0.063,29.0
36.334,3.091,-0.122,12.0
27.666,2.348,-0.249,33.0
27.45,2.317,0.508,63.0
27.435,2.309,0.352,60.0
27.446,2.304,0.197,31.0
27.644,2.315,0.04,23.0
27.631,2.307,-0.115,25.0
27.616,2.3,-0.271,29.0
27.457,2.274,0.486,60.0
27.473,2.269,0.331,55.0
27.524,2.267,0.176,28.0
27.641,2.27,0.018,21.0
27.628,2.263,-0.138,50.0
27.636,2.257,-0.294,41.0
27.481,2.231,0.464,61.0
27.497,2.226,0.309,46.0
27.574,2.226,0.154,18.0
27.639,2.224,-0.003,24.0
27.656,2.219,-0.159,41.0
27.69,2.216,-0.316,34.0
27.505,2.188,0.443,51.0
27.513,2.182,0.288,30.0
27.632,2.185,0.134,14.0
27.659,2.18,-0.024,21.0
34.936,2.746,-0.227,2.0
30.326,2.377,-0.368,2.0
27.536,2.144,0.424,55.0
27.572,2.14,0.269,25.0
27.731,2.145,0.114,29.0
0.0,0.0,0.0,0.0
34.959,2.688,-0.252,10.0
29.975,2.298,-0.385,2.0
27.613,2.103,0.405,34.0
73.846,5.606,0.669,13.0
51.066,3.864,0.175,4.0
38.896,2.933,-0.088,24.0
34.77,2.613,-0.275,11.0
29.668,2.223,-0.401,1.0
66.529,4.952,0.932,150.0
66.332,4.921,0.557,12.0
47.401,3.504,0.131,22.0
38.769,2.856,-0.114,20.0
34.89,2.562,-0.299,9.0
29.245,2.14,-0.414,1.0
97.025,7.052,1.298,2.0
73.779,5.343,0.572,9.0
46.565,3.36,0.099,21.0
36.244,2.606,-0.129,38.0
34.87,2.499,-0.32,7.0
29.014,2.072,-0.429,1.0
80.65,5.718,1.03,6.0
58.398,4.125,0.418,17.0
46.098,3.244,0.07,6.0
35.839,2.513,-0.149,11.0
34.991,2.444,-0.342,0.0
24.789,1.725,-0.381,1.0
80.785,5.581,0.984,5.0
57.988,3.991,0.381,31.0
42.183,2.892,0.04,17.0
35.845,2.448,-0.169,25.0
32.09,2.183,-0.331,1.0
24.652,1.67,-0.392,2.0
78.081,5.252,0.908,10.0
0.0,0.0,0.0,0.0
42.337,2.824,0.018,17.0
0.0,0.0,0.0,0.0
31.624,2.093,-0.343,1.0
24.512,1.615,-0.403,5.0
77.952,5.097,0.867,16.0
55.256,3.597,0.305,19.0
41.647,2.7,-0.003,35.0
35.587,2.297,-0.205,21.0
31.107,1.999,-0.353,1.0
24.104,1.543,-0.408,5.0
33.454,2.125,0.356,1.0
33.471,2.116,0.169,3.0
41.349,2.602,-0.022,16.0
33.399,2.093,-0.208,18.0
30.755,1.919,-0.363,2.0
23.695,1.471,-0.412,5.0
33.454,2.061,0.34,5.0
55.04,3.375,0.253,14.0
41.026,2.503,-0.04,50.0
35.45,2.153,-0.236,11.0
30.553,1.847,-0.374,2.0
23.585,1.419,-0.42,5.0
75.418,4.501,0.737,22.0
54.639,3.245,0.229,28.0
40.736,2.407,-0.056,48.0
35.334,2.078,-0.249,8.0
30.351,1.776,-0.383,2.0
23.331,1.359,-0.424,5.0
75.166,4.34,0.706,24.0
54.233,3.115,0.207,17.0
40.351,2.306,-0.07,15.0
35.399,2.013,-0.262,10.0
30.091,1.702,-0.39,2.0
23.009,1.294,-0.427,5.0
74.938,4.178,0.678,29.0
54.204,3.006,0.189,15.0
40.531,2.235,-0.084,33.0
35.428,1.944,-0.274,10.0
29.895,1.631,-0.397,1.0
22.855,1.241,-0.431,5.0
74.837,4.025,0.654,24.0
54.136,2.895,0.172,9.0
40.449,2.151,-0.096,36.0
35.467,1.876,-0.284,9.0
29.736,1.563,-0.404,2.0
22.653,1.185,-0.433,4.0
74.676,3.868,0.632,22.0
48.368,2.49,0.141,23.0
40.354,2.065,-0.106,29.0
0.0,0.0,0.0,0.0
29.535,1.494,-0.408,1.0
22.674,1.14,-0.439,4.0
0.0,0.0,0.0,0.0
48.517,2.4,0.13,23.0
40.277,1.98,-0.115,34.0
35.601,1.739,-0.302,4.0
29.524,1.433,-0.414,2.0
22.555,1.088,-0.442,4.0
73.588,3.514,0.591,9.0
48.39,2.295,0.12,24.0
40.263,1.898,-0.122,28.0
35.558,1.665,-0.308,7.0
29.376,1.366,-0.417,2.0
22.578,1.044,-0.446,4.0
73.817,3.376,0.581,14.0
48.418,2.199,0.113,23.0
40.012,1.805,-0.127,42.0
35.632,1.596,-0.314,4.0
29.315,1.304,-0.42,2.0
22.444,0.991,-0.446,4.0
73.759,3.222,0.571,14.0
48.459,2.101,0.107,23.0
40.023,1.723,-0.132,42.0
35.627,1.522,-0.318,3.0
29.335,1.244,-0.424,2.0
22.21,0.935,-0.443,4.0
73.845,3.074,0.566,11.0
48.587,2.007,0.104,23.0
39.936,1.636,-0.134,47.0
35.659,1.45,-0.32,3.0
29.301,1.182,-0.425,2.0
22.691,0.908,-0.454,4.0
73.999,2.926,0.563,15.0
48.6,1.906,0.102,23.0
39.702,1.544,-0.135,55.0
35.719,1.378,-0.322,3.0
29.207,1.117,-0.424,2.0
22.653,0.859,-0.454,4.0
74.044,2.775,0.562,12.0
48.666,1.807,0.101,23.0
39.694,1.461,-0.135,52.0
35.793,1.306,-0.322,3.0
29.28,1.059,-0.425,2.0
22.876,0.82,-0.458,5.0
74.121,2.622,0.565,13.0
48.762,1.709,0.103,23.0
39.654,1.377,-0.133,47.0
0.0,0.0,0.0,0.0
29.369,1.001,-0.424,2.0
22.947,0.774,-0.458,5.0
74.253,2.473,0.571,16.0
48.841,1.61,0.107,23.0
39.641,1.293,-0.13,42.0
35.861,1.158,-0.318,3.0
29.41,0.94,-0.422,1.0
23.022,0.728,-0.457,5.0
74.43,2.322,0.58,13.0
48.925,1.51,0.112,22.0
0.0,0.0,0.0,0.0
36.172,1.092,-0.317,7.0
29.476,0.88,-0.42,2.0
23.342,0.689,-0.46,5.0
74.645,2.171,0.592,17.0
52.191,1.501,0.127,6.0
39.383,1.119,-0.119,47.0
36.272,1.019,-0.312,5.0
29.565,0.821,-0.416,1.0
23.54,0.645,-0.46,4.0
74.909,2.022,0.607,17.0
0.0,0.0,0.0,0.0
39.408,1.038,-0.111,38.0
36.383,0.945,-0.305,6.0
29.665,0.761,-0.411,2.0
23.579,0.597,-0.456,1.0
74.969,1.867,0.624,14.0
0.0,0.0,0.0,0.0
39.471,0.956,-0.102,37.0
36.543,0.873,-0.298,6.0
29.931,0.706,-0.408,2.0
26.824,0.623,-0.512,1.0
77.809,1.775,0.667,22.0
0.0,0.0,0.0,0.0
39.559,0.876,-0.092,33.0
36.689,0.8,-0.289,7.0
30.157,0.647,-0.402,2.0
26.867,0.568,-0.505,1.0
77.86,1.613,0.69,33.0
57.588,1.174,0.196,7.0
39.83,0.798,-0.081,17.0
36.815,0.725,-0.279,10.0
30.425,0.589,-0.396,2.0
26.947,0.513,-0.498,2.0
77.895,1.451,0.716,22.0
57.8,1.056,0.216,10.0
40.008,0.717,-0.067,15.0
37.018,0.651,-0.268,10.0
30.599,0.528,-0.388,2.0
27.136,0.459,-0.491,2.0
78.068,1.289,0.746,20.0
57.935,0.937,0.238,9.0
44.459,0.703,-0.058,18.0
37.283,0.577,-0.255,13.0
30.866,0.467,-0.379,2.0
27.287,0.404,-0.483,1.0
89.686,1.291,0.894,5.0
48.084,0.676,0.218,50.0
44.131,0.606,-0.039,18.0
37.527,0.502,-0.241,13.0
31.279,0.407,-0.37,1.0
27.623,0.351,-0.477,1.0
48.113,0.592,0.5,97.0
48.041,0.575,0.239,89.0
0.0,0.0,0.0,0.0
37.775,0.427,-0.225,13.0
31.776,0.348,-0.361,1.0
27.96,0.296,-0.47,1.0
48.086,0.492,0.523,103.0
48.039,0.475,0.262,104.0
0.0,0.0,0.0,0.0
38.087,0.35,-0.208,28.0
32.316,0.286,-0.351,1.0
28.349,0.241,-0.462,1.0
48.08,0.392,0.548,110.0
48.085,0.375,0.288,53.0
47.25,0.353,0.027,42.0
38.513,0.274,-0.189,38.0
32.768,0.222,-0.338,1.0
28.739,0.184,-0.452,2.0
48.229,0.293,0.576,41.0
55.091,0.315,0.361,44.0
47.896,0.258,0.055,32.0
38.957,0.197,-0.169,46.0
33.42,0.157,-0.326,1.0
29.133,0.127,-0.441,2.0
79.469,0.319,0.997,151.0
76.58,0.282,0.547,55.0
54.191,0.18,0.094,28.0
39.479,0.118,-0.148,37.0
33.676,0.089,-0.308,0.0
29.451,0.069,-0.428,2.0
79.465,0.157,1.046,151.0
79.376,0.13,0.617,15.0
0.0,0.0,0.0,0.0
40.537,0.039,-0.125,17.0
38.197,0.023,-0.324,0.0
29.818,0.007,-0.413,2.0
79.454,-0.004,1.098,151.0
79.379,-0.032,0.67,99.0
55.98,-0.041,0.171,29.0
0.0,0.0,0.0,0.0
38.338,-0.054,-0.299,2.0
30.21,-0.053,-0.398,1.0
79.464,-0.167,1.154,151.0
79.463,-0.193,0.726,150.0
61.358,-0.17,0.231,11.0
42.681,-0.132,-0.072,17.0
39.087,-0.135,-0.276,3.0
30.737,-0.116,-0.382,1.0
79.451,-0.327,1.212,153.0
79.465,-0.354,0.785,173.0
61.366,-0.295,0.277,10.0
46.429,-0.238,-0.044,20.0
40.18,-0.22,-0.253,4.0
31.364,-0.182,-0.366,1.0
79.453,-0.488,1.274,163.0
79.45,-0.515,0.848,191.0
76.988,-0.524,0.408,9.0
47.724,-0.341,-0.007,3.0
0.0,0.0,0.0,0.0
32.479,-0.254,-0.353,1.0
79.447,-0.647,1.338,178.0
79.444,-0.673,0.912,193.0
77.456,-0.683,0.474,16.0
54.48,-0.498,0.036,6.0
43.845,-0.415,-0.205,3.0
33.367,-0.328,-0.334,1.0
79.438,-0.804,1.404,192.0
79.45,-0.83,0.979,165.0
78.854,-0.849,0.549,35.0
62.541,-0.695,0.095,4.0
46.271,-0.529,-0.177,2.0
35.187,-0.414,-0.322,1.0
79.42,-0.959,1.473,22.0
86.951,-1.079,1.148,15.0
79.137,-1.008,0.621,8.0
0.0,0.0,0.0,0.0
50.87,-0.682,-0.148,1.0
36.364,-0.499,-0.3,1.0
183.406,-2.571,3.568,82.0
187.103,-2.684,2.64,12.0
98.999,-1.453,0.868,3.0
248.34,-3.724,0.827,64.0
51.317,-0.787,-0.102,0.0
40.133,-0.628,-0.294,4.0
248.461,-3.959,5.066,9.0
205.401,-3.341,3.092,65.0
40.285,-0.667,0.391,13.0
40.266,-0.68,0.172,50.0
40.299,-0.694,-0.042,64.0
40.206,-0.706,-0.256,11.0
40.203,-0.717,0.858,59.0
40.183,-0.729,0.644,27.0
40.228,-0.743,0.43,44.0
40.262,-0.756,0.212,48.0
40.314,-0.77,-0.002,10.0
46.679,-0.907,-0.251,2.0
40.233,-0.792,0.899,53.0
40.236,-0.805,0.684,59.0
40.245,-0.818,0.47,43.0
85.662,-1.769,0.537,1.0
0.0,0.0,0.0,0.0
0.0,0.0,0.0,0.0
40.211,-0.866,0.939,62.0
40.213,-0.879,0.726,52.0
40.297,-0.893,0.513,55.0
40.306,-0.906,0.294,150.0
40.287,-0.918,0.08,78.0
40.312,-0.932,-0.133,150.0
40.207,-0.94,0.982,58.0
40.189,-0.952,0.768,61.0
40.218,-0.966,0.555,56.0
40.247,-0.979,0.338,24.0
0.0,0.0,0.0,0.0
40.998,-1.022,-0.09,99.0
40.21,-1.013,1.026,59.0
40.192,-1.025,0.812,47.0
40.215,-1.038,0.599,54.0
40.183,-1.049,0.381,47.0
40.195,-1.061,0.168,45.0
40.867,-1.092,-0.045,150.0
40.211,-1.085,1.071,47.0
40.278,-1.099,0.859,12.0
0.0,0.0,0.0,0.0
40.229,-1.122,0.428,13.0
40.207,-1.134,0.214,43.0
40.201,-1.146,0.001,55.0
40.297,-1.158,1.12,34.0
40.338,-1.171,0.907,23.0
154.026,-4.521,2.649,150.0
0.0,0.0,0.0,0.0
0.0,0.0,0.0,0.0
0.0,0.0,0.0,0.0
40.334,-1.23,1.168,5.0
40.312,-1.241,0.954,24.0
40.334,-1.253,0.741,19.0
40.338,-1.265,0.524,10.0
0.0,0.0,0.0,0.0
0.0,0.0,0.0,0.0
0.0,0.0,0.0,0.0
0.0,0.0,0.0,0.0
0.0,0.0,0.0,0.0
0.0,0.0,0.0,0.0
0.0,0.0,0.0,0.0
0.0,0.0,0.0,0.0
0.0,0.0,0.0,0.0
0.0,0.0,0.0,0.0
0.0,0.0,0.0,0.0
0.0,0.0,0.0,0.0
0.0,0.0,0.0,0.0
0.0,0.0,0.0,0.0
0.0,0.0,0.0,0.0
0.0,0.0,0.0,0.0
0.0,0.0,0.0,0.0
0.0,0.0,0.0,0.0
0.0,0.0,0.0,0.0
0.0,0.0,0.0,0.0
0.0,0.0,0.0,0.0
0.0,0.0,0.0,0.0
0.0,0.0,0.0,0.0
0.0,0.0,0.0,0.0
0.0,0.0,0.0,0.0
0.0,0.0,0.0,0.0
0.0,0.0,0.0,0.0
0.0,0.0,0.0,0.0
0.0,0.0,0.0,0.0
0.0,0.0,0.0,0.0
0.0,0.0,0.0,0.0
0.0,0.0,0.0,0.0
0.0,0.0,0.0,0.0
0.0,0.0,0.0,0.0
0.0,0.0,0.0,0.0
0.0,0.0,0.0,0.0
0.0,0.0,0.0,0.0
0.0,0.0,0.0,0.0
0.0,0.0,0.0,0.0
0.0,0.0,0.0,0.0
0.0,0.0,0.0,0.0
0.0,0.0,0.0,0.0
0.0,0.0,0.0,0.0
0.0,0.0,0.0,0.0
0.0,0.0,0.0,0.0
0.0,0.0,0.0,0.0
0.0,0.0,0.0,0.0
0.0,0.0,0.0,0.0
0.0,0.0,0.0,0.0
0.0,0.0,0.0,0.0
0.0,0.0,0.0,0.0
0.0,0.0,0.0,0.0
0.0,0.0,0.0,0.0
0.0,0.0,0.0,0.0
0.0,0.0,0.0,0.0
0.0,0.0,0.0,0.0
0.0,0.0,0.0,0.0
0.0,0.0,0.0,0.0
0.0,0.0,0.0,0.0
156.55,-7.427,2.465,88.0
0.0,0.0,0.0,0.0
0.0,0.0,0.0,0.0
0.0,0.0,0.0,0.0
156.612,-7.642,2.691,64.0
0.0,0.0,0.0,0.0
0.0,0.0,0.0,0.0
0.0,0.0,0.0,0.0
0.0,0.0,0.0,0.0
156.776,-7.858,2.922,68.0
0.0,0.0,0.0,0.0
0.0,0.0,0.0,0.0
0.0,0.0,0.0,0.0
0.0,0.0,0.0,0.0
0.0,0.0,0.0,0.0
0.0,0.0,0.0,0.0
0.0,0.0,0.0,0.0
0.0,0.0,0.0,0.0
0.0,0.0,0.0,0.0
0.0,0.0,0.0,0.0
0.0,0.0,0.0,0.0
0.0,0.0,0.0,0.0
0.0,0.0,0.0,0.0
0.0,0.0,0.0,0.0
0.0,0.0,0.0,0.0
279.094,-15.255,9.797,12.0
0.0,0.0,0.0,0.0
0.0,0.0,0.0,0.0
0.0,0.0,0.0,0.0
0.0,0.0,0.0,0.0
0.0,0.0,0.0,0.0
0.0,0.0,0.0,0.0
278.713,-15.611,8.753,25.0
0.0,0.0,0.0,0.0
0.0,0.0,0.0,0.0
205.203,-11.61,10.006,10.0
0.0,0.0,0.0,0.0
212.231,-12.085,8.104,6.0
0.0,0.0,0.0,0.0
0.0,0.0,0.0,0.0
0.0,0.0,0.0,0.0
0.0,0.0,0.0,0.0
211.727,-12.246,9.542,9.0
0.0,0.0,0.0,0.0
212.422,-12.36,7.328,10.0
272.302,-15.894,7.97,24.0
163.314,-9.563,9.329,4.0
150.182,-8.819,7.79,15.0
0.0,0.0,0.0,0.0
211.922,-12.515,8.752,10.0
212.056,-12.56,7.65,11.0
271.931,-16.155,8.39,35.0
165.145,-9.841,9.695,4.0
147.729,-8.826,7.898,3.0
0.0,0.0,0.0,0.0
0.0,0.0,0.0,0.0
227.566,-13.708,8.572,16.0
212.227,-12.817,6.886,20.0
202.667,-12.277,12.22,9.0
204.32,-12.408,11.247,7.0
149.949,-9.128,7.469,5.0
0.0,0.0,0.0,0.0
212.969,-13.03,8.356,10.0
227.901,-13.977,7.753,11.0
148.415,-9.13,9.184,2.0
147.832,-9.115,8.372,10.0
149.12,-9.215,7.664,7.0
197.4,-12.228,9.092,5.0
213.984,-13.287,8.738,6.0
212.979,-13.257,7.585,19.0
0.0,0.0,0.0,0.0
148.648,-9.299,8.657,5.0
149.552,-9.376,7.925,5.0
157.598,-9.902,7.511,7.0
222.39,-14.002,9.437,9.0
208.733,-13.172,7.766,17.0
203.26,-12.865,13.23,12.0
163.645,-10.376,9.792,4.0
165.836,-10.537,9.055,4.0
148.757,-9.471,7.329,5.0
204.951,-13.076,9.025,5.0
208.524,-13.329,8.093,13.0
0.0,0.0,0.0,0.0
210.363,-13.512,12.927,11.0
148.46,-9.552,8.344,4.0
164.884,-10.628,8.388,6.0
203.569,-13.147,9.292,6.0
205.129,-13.271,8.29,8.0
148.058,-9.607,10.114,3.0
156.946,-10.201,9.899,6.0
163.413,-10.64,9.448,4.0
156.182,-10.185,8.196,5.0
150.01,-9.8,7.087,5.0
203.605,-13.324,8.554,16.0
0.0,0.0,0.0,0.0
209.764,-13.787,13.567,7.0
210.025,-13.826,12.484,9.0
148.335,-9.78,8.024,7.0
158.092,-10.438,7.725,4.0
212.648,-14.064,9.277,7.0
0.0,0.0,0.0,0.0
157.678,-10.471,10.452,9.0
156.985,-10.44,9.583,4.0
165.23,-11.004,9.205,3.0
164.777,-10.988,8.316,6.0
158.445,-10.582,7.167,4.0
148.443,-9.943,10.859,4.0
210.131,-14.09,14.268,7.0
157.783,-10.593,9.884,6.0
163.179,-10.969,9.349,4.0
147.72,-9.942,7.69,9.0
149.881,-10.101,7.018,3.0
0.0,0.0,0.0,0.0
150.814,-10.205,10.483,4.0
148.269,-10.042,9.528,11.0
157.056,-10.649,9.252,8.0
148.715,-10.096,7.982,4.0
156.488,-10.636,7.581,5.0
109.051,-7.434,8.331,5.0
208.344,-14.214,14.822,7.0
150.589,-10.284,9.92,4.0
156.507,-10.698,9.474,4.0
154.949,-10.601,8.566,3.0
0.0,0.0,0.0,0.0
0.0,0.0,0.0,0.0
0.0,0.0,0.0,0.0
150.686,-10.366,10.168,5.0
148.398,-10.218,9.22,13.0
162.968,-11.231,9.271,7.0
148.622,-10.251,7.675,3.0
0.0,0.0,0.0,0.0
109.103,-7.552,8.111,7.0
207.753,-14.389,14.351,24.0
157.372,-10.907,10.028,11.0
149.303,-10.356,8.729,3.0
164.406,-11.411,8.752,9.0
0.0,0.0,0.0,0.0
0.0,0.0,0.0,0.0
207.64,-14.471,14.678,28.0
0.0,0.0,0.0,0.0
157.422,-10.983,9.457,10.0
162.976,-11.378,8.937,4.0
0.0,0.0,0.0,0.0
0.0,0.0,0.0,0.0
207.594,-14.546,15.004,27.0
207.482,-14.545,13.884,8.0
150.362,-10.546,9.27,3.0
156.586,-10.987,8.833,5.0
0.0,0.0,0.0,0.0
0.0,0.0,0.0,0.0
108.982,-7.673,8.048,6.0
207.136,-14.588,14.186,21.0
150.461,-10.601,9.514,5.0
157.601,-11.108,9.138,5.0
0.0,0.0,0.0,0.0
108.886,-7.698,8.79,1.0
0.0,0.0,0.0,0.0
206.901,-14.632,14.498,22.0
149.779,-10.595,9.707,4.0
148.381,-10.498,8.836,4.0
0.0,0.0,0.0,0.0
0.0,0.0,0.0,0.0
0.0,0.0,0.0,0.0
207.346,-14.714,14.851,17.0
207.17,-14.703,13.746,12.0
150.374,-10.672,9.187,8.0
0.0,0.0,0.0,0.0
108.848,-7.747,9.127,4.0
109.031,-7.759,8.565,2.0
109.112,-7.764,7.985,4.0
206.974,-14.729,14.053,17.0
147.274,-10.479,9.223,2.0
0.0,0.0,0.0,0.0
108.921,-7.772,9.299,6.0
108.87,-7.766,8.718,4.0
209.258,-14.924,15.631,8.0
206.837,-14.75,14.36,14.0
207.641,-14.806,13.32,7.0
0.0,0.0,0.0,0.0
0.0,0.0,0.0,0.0
108.775,-7.773,8.878,10.0
0.0,0.0,0.0,0.0
207.069,-14.79,14.691,21.0
207.02,-14.781,13.596,10.0
0.0,0.0,0.0,0.0
0.0,0.0,0.0,0.0
108.823,-7.786,9.047,6.0
108.836,-7.783,8.462,3.0
108.969,-7.789,7.896,7.0
206.989,-14.792,13.907,9.0
0.0,0.0,0.0,0.0
0.0,0.0,0.0,0.0
0.0,0.0,0.0,0.0
108.883,-7.791,8.627,6.0
0.0,0.0,0.0,0.0
148.806,-10.636,10.217,7.0
0.0,0.0,0.0,0.0
0.0,0.0,0.0,0.0
0.0,0.0,0.0,0.0
108.811,-7.784,8.782,10.0
0.0,0.0,0.0,0.0
206.886,-14.783,14.509,19.0
0.0,0.0,0.0,0.0
0.0,0.0,0.0,0.0
0.0,0.0,0.0,0.0
108.855,-7.782,8.944,9.0
108.808,-7.773,8.362,1.0
207.374,-14.805,14.84,14.0
0.0,0.0,0.0,0.0
0.0,0.0,0.0,0.0
0.0,0.0,0.0,0.0
108.841,-7.771,9.099,8.0
108.961,-7.773,8.531,2.0
108.995,-7.77,7.954,5.0
0.0,0.0,0.0,0.0
0.0,0.0,0.0,0.0
0.0,0.0,0.0,0.0
108.9,-7.762,9.258,2.0
108.82,-7.748,8.673,2.0
209.314,-14.891,15.57,9.0
0.0,0.0,0.0,0.0
0.0,0.0,0.0,0.0
0.0,0.0,0.0,0.0
0.0,0.0,0.0,0.0
0.0,0.0,0.0,0.0
0.0,0.0,0.0,0.0
0.0,0.0,0.0,0.0
0.0,0.0,0.0,0.0
0.0,0.0,0.0,0.0
0.0,0.0,0.0,0.0
0.0,0.0,0.0,0.0
0.0,0.0,0.0,0.0
0.0,0.0,0.0,0.0
0.0,0.0,0.0,0.0
0.0,0.0,0.0,0.0
0.0,0.0,0.0,0.0
0.0,0.0,0.0,0.0
0.0,0.0,0.0,0.0
0.0,0.0,0.0,0.0
0.0,0.0,0.0,0.0
0.0,0.0,0.0,0.0
0.0,0.0,0.0,0.0
0.0,0.0,0.0,0.0
0.0,0.0,0.0,0.0
0.0,0.0,0.0,0.0
0.0,0.0,0.0,0.0
0.0,0.0,0.0,0.0
0.0,0.0,0.0,0.0
0.0,0.0,0.0,0.0
0.0,0.0,0.0,0.0
0.0,0.0,0.0,0.0
0.0,0.0,0.0,0.0
0.0,0.0,0.0,0.0
0.0,0.0,0.0,0.0
0.0,0.0,0.0,0.0
0.0,0.0,0.0,0.0
0.0,0.0,0.0,0.0
0.0,0.0,0.0,0.0
0.0,0.0,0.0,0.0
0.0,0.0,0.0,0.0
0.0,0.0,0.0,0.0
0.0,0.0,0.0,0.0
0.0,0.0,0.0,0.0
0.0,0.0,0.0,0.0
0.0,0.0,0.0,0.0
0.0,0.0,0.0,0.0
0.0,0.0,0.0,0.0
0.0,0.0,0.0,0.0
0.0,0.0,0.0,0.0
0.0,0.0,0.0,0.0
0.0,0.0,0.0,0.0
0.0,0.0,0.0,0.0
0.0,0.0,0.0,0.0
0.0,0.0,0.0,0.0
0.0,0.0,0.0,0.0
0.0,0.0,0.0,0.0
0.0,0.0,0.0,0.0
0.0,0.0,0.0,0.0
0.0,0.0,0.0,0.0
0.0,0.0,0.0,0.0
0.0,0.0,0.0,0.0
0.0,0.0,0.0,0.0
0.0,0.0,0.0,0.0
0.0,0.0,0.0,0.0
0.0,0.0,0.0,0.0
0.0,0.0,0.0,0.0
0.0,0.0,0.0,0.0
0.0,0.0,0.0,0.0
0.0,0.0,0.0,0.0
0.0,0.0,0.0,0.0
0.0,0.0,0.0,0.0
0.0,0.0,0.0,0.0
0.0,0.0,0.0,0.0
0.0,0.0,0.0,0.0
0.0,0.0,0.0,0.0
0.0,0.0,0.0,0.0
0.0,0.0,0.0,0.0
0.0,0.0,0.0,0.0
0.0,0.0,0.0,0.0
0.0,0.0,0.0,0.0
0.0,0.0,0.0,0.0
0.0,0.0,0.0,0.0
0.0,0.0,0.0,0.0
0.0,0.0,0.0,0.0
48.224,-3.151,5.772,1.0
0.0,0.0,0.0,0.0
0.0,0.0,0.0,0.0
0.0,0.0,0.0,0.0
0.0,0.0,0.0,0.0
0.0,0.0,0.0,0.0
49.029,-3.17,5.918,5.0
0.0,0.0,0.0,0.0
0.0,0.0,0.0,0.0
0.0,0.0,0.0,0.0
0.0,0.0,0.0,0.0
0.0,0.0,0.0,0.0
0.0,0.0,0.0,0.0
0.0,0.0,0.0,0.0
0.0,0.0,0.0,0.0
0.0,0.0,0.0,0.0
0.0,0.0,0.0,0.0
0.0,0.0,0.0,0.0
48.676,-3.076,5.967,24.0
0.0,0.0,0.0,0.0
49.275,-3.095,5.5,1.0
0.0,0.0,0.0,0.0
0.0,0.0,0.0,0.0
0.0,0.0,0.0,0.0
48.18,-3.007,5.949,2.0
49.172,-3.059,5.801,2.0
49.272,-3.056,5.542,4.0
0.0,0.0,0.0,0.0
0.0,0.0,0.0,0.0
0.0,0.0,0.0,0.0
48.125,-2.965,5.983,4.0
49.052,-3.012,5.829,8.0
49.225,-3.013,5.578,1.0
0.0,0.0,0.0,0.0
0.0,0.0,0.0,0.0
0.0,0.0,0.0,0.0
49.199,-2.99,6.157,3.0
48.738,-2.952,5.831,23.0
0.0,0.0,0.0,0.0
0.0,0.0,0.0,0.0
0.0,0.0,0.0,0.0
0.0,0.0,0.0,0.0
51.206,-3.068,6.449,1.0
48.51,-2.896,5.841,15.0
0.0,0.0,0.0,0.0
49.329,-2.925,5.391,1.0
0.0,0.0,0.0,0.0
0.0,0.0,0.0,0.0
0.0,0.0,0.0,0.0
48.151,-2.832,5.833,1.0
48.207,-2.825,5.573,1.0
49.314,-2.88,5.424,5.0
0.0,0.0,0.0,0.0
0.0,0.0,0.0,0.0
0.0,0.0,0.0,0.0
48.002,-2.779,5.848,4.0
50.478,-2.912,5.87,4.0
49.348,-2.837,5.461,4.0
0.0,0.0,0.0,0.0
0.0,0.0,0.0,0.0
48.968,-2.801,6.27,0.0
47.751,-2.721,5.848,2.0
48.563,-2.756,5.679,22.0
0.0,0.0,0.0,0.0
0.0,0.0,0.0,0.0
0.0,0.0,0.0,0.0
48.823,-2.745,6.281,3.0
0.0,0.0,0.0,0.0
48.684,-2.717,5.722,23.0
0.0,0.0,0.0,0.0
49.364,-2.734,5.25,0.0
56.563,-3.121,5.703,5.0
48.902,-2.702,6.32,4.0
0.0,0.0,0.0,0.0
49.168,-2.695,5.807,23.0
56.846,-3.104,6.392,3.0
49.47,-2.69,5.289,1.0
0.0,0.0,0.0,0.0
48.979,-2.656,6.357,4.0
51.011,-2.755,6.336,3.0
47.833,-2.573,5.674,5.0
50.237,-2.691,5.675,4.0
49.416,-2.637,5.308,4.0
0.0,0.0,0.0,0.0
29.192,-1.553,3.803,2.0
0.0,0.0,0.0,0.0
0.0,0.0,0.0,0.0
48.318,-2.539,5.481,5.0
49.432,-2.586,5.333,5.0
92.572,-4.824,9.474,2.0
0.0,0.0,0.0,0.0
0.0,0.0,0.0,0.0
48.789,-2.523,5.833,22.0
48.3,-2.487,5.5,12.0
49.486,-2.537,5.359,3.0
55.201,-2.818,5.672,2.0
47.547,-2.429,6.236,6.0
46.485,-2.364,5.836,1.0
49.027,-2.482,5.881,5.0
48.337,-2.436,5.523,14.0
54.821,-2.752,5.958,8.0
55.205,-2.759,5.693,3.0
47.776,-2.389,6.284,12.0
46.54,-2.317,5.86,4.0
48.949,-2.425,5.888,5.0
48.48,-2.391,5.556,19.0
50.012,-2.456,5.452,2.0
57.42,-2.808,5.94,2.0
48.09,-2.352,6.341,14.0
46.564,-2.266,5.878,6.0
48.916,-2.37,5.899,5.0
50.858,-2.453,5.843,7.0
56.609,-2.717,6.188,10.0
55.016,-2.629,5.706,9.0
48.068,-2.297,6.351,8.0
48.616,-2.312,6.15,13.0
48.939,-2.316,5.915,3.0
48.807,-2.3,5.62,13.0
55.096,-2.583,6.036,11.0
0.0,0.0,0.0,0.0
56.781,-2.649,7.516,7.0
48.509,-2.252,6.147,21.0
50.59,-2.337,6.126,2.0
48.708,-2.239,5.619,12.0
40.604,-1.857,4.456,39.0
55.284,-2.516,5.758,7.0
51.452,-2.341,6.82,5.0
48.342,-2.188,6.135,22.0
46.074,-2.075,5.587,6.0
62.839,-2.817,7.26,7.0
40.518,-1.807,4.453,57.0
55.21,-2.45,5.759,5.0
56.986,-2.527,7.563,1.0
48.216,-2.127,6.125,13.0
46.746,-2.051,5.674,4.0
57.307,-2.502,6.628,2.0
40.571,-1.762,4.464,45.0
53.077,-2.294,5.542,2.0
42.218,-1.823,5.607,21.0
57.008,-2.448,7.248,5.0
40.415,-1.726,4.909,21.0
40.453,-1.719,4.681,3.0
40.522,-1.712,4.461,45.0
40.53,-1.704,4.234,6.0
42.268,-1.775,5.616,46.0
56.971,-2.38,7.245,7.0
40.373,-1.677,4.906,42.0
40.705,-1.681,4.712,46.0
40.498,-1.663,4.459,57.0
53.258,-2.176,5.565,11.0
42.265,-1.724,5.615,50.0
42.083,-1.707,5.352,11.0
40.338,-1.627,4.901,67.0
40.759,-1.634,4.717,21.0
40.579,-1.618,4.467,47.0
43.208,-1.713,4.513,3.0
42.192,-1.671,5.604,64.0
42.127,-1.658,5.356,32.0
40.379,-1.581,4.904,54.0
40.5,-1.577,4.685,37.0
40.499,-1.567,4.456,52.0
43.259,-1.664,4.515,3.0
42.258,-1.623,5.609,65.0
49.548,-1.892,6.294,6.0
40.361,-1.531,4.898,52.0
40.275,-1.519,4.654,58.0
40.577,-1.522,4.459,36.0
40.09,-1.494,4.179,52.0
42.388,-1.576,5.621,48.0
43.749,-1.617,5.552,21.0
40.399,-1.484,4.896,51.0
40.199,-1.468,4.639,55.0
40.372,-1.466,4.43,37.0
40.143,-1.448,4.178,52.0
42.364,-1.525,5.61,53.0
43.629,-1.56,5.528,27.0
40.413,-1.436,4.89,60.0
40.257,-1.422,4.638,57.0
40.285,-1.414,4.412,38.0
40.037,-1.397,4.158,60.0
42.154,-1.465,5.573,53.0
43.182,-1.492,5.462,18.0
40.62,-1.394,4.905,40.0
40.448,-1.379,4.65,40.0
39.982,-1.355,4.369,67.0
40.167,-1.352,4.161,58.0
42.021,-1.41,5.544,55.0
40.712,-1.356,5.138,53.0
40.584,-1.344,4.89,56.0
40.16,-1.321,4.605,57.0
39.975,-1.306,4.357,47.0
39.991,-1.298,4.131,60.0
41.965,-1.357,5.523,54.0
40.588,-1.303,5.109,58.0
40.544,-1.293,4.871,49.0
39.933,-1.265,4.566,55.0
39.74,-1.25,4.317,57.0
39.843,-1.245,4.102,44.0
47.281,-1.471,6.206,4.0
40.365,-1.247,5.066,48.0
40.451,-1.241,4.845,56.0
39.687,-1.209,4.522,56.0
39.526,-1.196,4.278,65.0
39.451,-1.185,4.046,50.0
42.016,-1.256,5.498,40.0
40.387,-1.199,5.052,53.0
40.042,-1.18,4.779,58.0
39.376,-1.152,4.47,70.0
39.277,-1.141,4.235,66.0
39.497,-1.139,4.033,42.0
41.972,-1.204,5.473,39.0
40.145,-1.143,5.003,57.0
39.456,-1.115,4.691,64.0
39.383,-1.105,4.452,56.0
39.592,-1.102,4.249,48.0
39.438,-1.09,4.008,61.0
42.058,-1.155,5.463,61.0
39.627,-1.08,4.919,56.0
39.331,-1.063,4.655,54.0
39.412,-1.058,4.435,56.0
39.216,-1.044,4.188,59.0
39.63,-1.047,4.006,65.0
39.499,-1.037,5.109,41.0
39.776,-1.035,4.915,55.0
39.319,-1.015,4.632,58.0
39.459,-1.011,4.418,43.0
39.103,-0.994,4.154,61.0
39.629,-0.999,3.983,54.0
39.542,-0.99,5.091,53.0
39.949,-0.992,4.912,59.0
39.21,-0.965,4.596,60.0
39.551,-0.966,4.404,56.0
39.017,-0.945,4.121,62.0
39.664,-0.953,3.962,60.0
39.487,-0.942,5.059,56.0
39.634,-0.937,4.848,70.0
39.5,-0.926,4.604,54.0
39.003,-0.906,4.317,63.0
39.257,-0.905,4.12,55.0
39.416,-0.901,3.911,55.0
39.493,-0.894,5.032,61.0
39.659,-0.89,4.824,66.0
39.296,-0.874,4.553,56.0
38.966,-0.859,4.286,58.0
39.462,-0.862,4.113,54.0
39.201,-0.849,3.861,56.0
39.533,-0.848,5.008,58.0
39.25,-0.834,4.745,67.0
39.223,-0.826,4.515,66.0
38.989,-0.814,4.259,65.0
39.272,-0.812,4.064,57.0
39.232,-0.804,3.835,63.0
39.464,-0.8,4.969,48.0
39.269,-0.789,4.717,57.0
39.267,-0.781,4.49,69.0
39.097,-0.771,4.24,55.0
39.292,-0.767,4.035,67.0
39.407,-0.762,3.82,59.0
39.528,-0.755,4.945,41.0
39.278,-0.744,4.686,59.0
39.395,-0.738,4.472,59.0
39.093,-0.725,4.208,65.0
39.436,-0.724,4.017,64.0
40.247,-0.732,3.868,68.0
39.402,-0.707,4.895,52.0
39.768,-0.707,4.71,57.0
39.235,-0.69,4.419,65.0
39.304,-0.684,4.195,47.0
39.419,-0.679,3.98,62.0
48.19,-0.821,4.589,5.0
39.462,-0.663,4.867,61.0
39.508,-0.657,4.643,51.0
39.372,-0.648,4.399,51.0
39.473,-0.642,4.177,48.0
39.399,-0.634,3.942,65.0
48.137,-0.766,4.539,7.0
39.703,-0.623,4.859,69.0
39.623,-0.614,4.618,54.0
39.452,-0.605,4.37,45.0
39.258,-0.594,4.117,56.0
40.018,-0.599,3.965,69.0
47.716,-0.707,4.453,4.0
40.274,-0.586,4.889,51.0
39.922,-0.575,4.614,55.0
39.529,-0.562,4.339,61.0
39.232,-0.551,4.075,66.0
39.683,-0.551,3.892,47.0
47.717,-0.655,4.405,12.0
43.741,-0.589,5.265,19.0
39.75,-0.529,4.553,56.0
39.726,-0.522,4.319,62.0
39.455,-0.511,4.057,43.0
39.552,-0.506,3.838,40.0
40.506,-0.512,3.697,19.0
39.967,-0.495,4.767,58.0
39.974,-0.488,4.535,47.0
39.407,-0.475,4.242,41.0
39.315,-0.468,4.0,48.0
39.87,-0.468,3.825,14.0
39.945,-0.463,3.602,71.0
40.094,-0.454,4.738,45.0
39.733,-0.443,4.464,54.0
39.336,-0.433,4.19,62.0
39.272,-0.426,3.951,54.0
39.593,-0.423,3.754,52.0
47.883,-0.504,4.263,34.0
40.165,-0.412,4.7,50.0
39.895,-0.403,4.435,63.0
39.622,-0.395,4.175,54.0
39.323,-0.385,3.91,69.0
40.335,-0.389,3.777,41.0
40.869,-0.389,3.59,33.0
40.124,-0.371,4.647,40.0
40.006,-0.363,4.4,42.0
39.458,-0.353,4.11,50.0
39.426,-0.346,3.873,68.0
40.284,-0.348,3.724,48.0
40.335,-0.343,3.495,45.0
40.338,-0.331,4.622,64.0
40.903,-0.33,4.448,16.0
39.572,-0.314,4.072,52.0
39.522,-0.308,3.833,56.0
40.121,-0.306,3.658,48.0
39.916,-0.299,3.408,56.0
40.624,-0.294,4.603,55.0
40.362,-0.286,4.337,37.0
39.79,-0.276,4.044,50.0
39.751,-0.271,3.804,43.0
40.007,-0.267,3.596,47.0
