X,Y,Z,Reflectivity
99.458,-12.598,2.998,54.0
99.523,-12.601,2.468,72.0
99.572,-12.603,1.935,90.0
99.636,-12.607,1.392,96.0
99.626,-12.602,0.857,71.0
89.482,-11.316,0.292,4.0
99.465,-12.584,3.111,52.0
99.513,-12.584,2.578,76.0
99.561,-12.584,2.046,90.0
99.628,-12.588,1.502,96.0
99.646,-12.585,0.97,78.0
89.637,-11.317,0.391,6.0
99.467,-12.565,3.221,65.0
99.506,-12.562,2.69,80.0
99.551,-12.562,2.157,77.0
99.623,-12.565,1.613,88.0
99.665,-12.564,1.079,86.0
90.408,-11.392,0.495,3.0
99.483,-12.543,3.332,69.0
99.528,-12.54,2.8,71.0
99.564,-12.537,2.265,83.0
99.595,-12.534,1.722,78.0
99.673,-12.537,1.189,79.0
99.411,-12.498,0.653,17.0
99.514,-12.518,3.442,61.0
99.536,-12.512,2.909,70.0
99.582,-12.509,2.375,75.0
99.61,-12.504,1.831,68.0
99.689,-12.506,1.298,72.0
99.593,-12.487,0.763,40.0
99.541,-12.488,3.553,41.0
99.555,-12.48,3.019,48.0
99.603,-12.476,2.485,60.0
99.635,-12.471,1.941,41.0
99.722,-12.473,1.407,32.0
99.734,-12.466,0.872,46.0
99.547,-12.451,3.661,17.0
99.584,-12.444,3.127,9.0
99.67,-12.445,2.593,7.0
99.721,-12.441,2.05,6.0
99.812,-12.443,1.515,3.0
86.404,-10.763,0.848,37.0
99.544,-12.408,3.767,20.0
205.165,-25.55,6.66,27.0
203.588,-25.33,5.514,42.0
207.865,-25.839,4.492,10.0
86.428,-10.734,1.402,4.0
86.396,-10.721,0.938,151.0
99.503,-12.356,3.871,28.0
205.099,-25.444,6.874,40.0
203.429,-25.211,5.721,53.0
203.147,-25.152,4.603,15.0
86.413,-10.689,1.492,13.0
86.369,-10.673,1.028,52.0
99.456,-12.3,3.972,40.0
205.127,-25.339,7.09,41.0
203.239,-25.079,5.929,42.0
210.032,-25.889,4.976,19.0
86.46,-10.646,1.583,10.0
86.331,-10.62,1.117,54.0
99.364,-12.232,4.072,46.0
204.651,-25.163,7.284,34.0
203.204,-24.957,6.136,46.0
203.1,-24.915,5.021,28.0
86.603,-10.612,1.674,8.0
86.286,-10.562,1.203,51.0
99.201,-12.152,4.166,43.0
204.507,-25.021,7.485,43.0
203.22,-24.832,6.342,48.0
188.178,-22.966,4.84,26.0
203.041,-24.75,4.129,13.0
86.269,-10.504,1.289,41.0
99.023,-12.066,4.256,57.0
204.297,-24.86,7.682,34.0
203.237,-24.699,6.544,40.0
188.089,-22.829,5.023,20.0
86.82,-10.524,1.849,3.0
86.305,-10.449,1.373,30.0
98.978,-11.993,4.351,66.0
204.111,-24.698,7.869,31.0
203.343,-24.571,6.74,27.0
189.441,-22.858,5.24,24.0
86.773,-10.456,1.932,4.0
86.28,-10.383,1.455,32.0
98.995,-11.924,4.446,49.0
203.989,-24.532,8.059,36.0
203.737,-24.465,6.949,38.0
189.574,-22.731,5.421,28.0
188.231,-22.538,4.369,21.0
86.289,-10.317,1.536,41.0
99.027,-11.851,4.539,50.0
203.78,-24.348,8.242,39.0
203.581,-24.287,7.131,27.0
188.929,-22.503,5.577,27.0
188.322,-22.397,4.544,43.0
86.316,-10.25,1.616,13.0
99.036,-11.771,4.632,51.0
203.786,-24.18,8.428,31.0
190.558,-22.574,6.849,18.0
188.741,-22.322,5.744,22.0
188.468,-22.255,4.715,44.0
86.512,-10.2,1.697,1.0
98.879,-11.669,4.712,40.0
116.336,-13.704,4.915,32.0
203.96,-23.985,7.51,26.0
189.102,-22.201,5.918,21.0
188.586,-22.104,4.882,36.0
86.626,-10.136,1.775,10.0
98.761,-11.566,4.793,41.0
116.334,-13.6,5.015,13.0
204.102,-23.816,7.692,28.0
189.179,-22.036,6.083,28.0
188.337,-21.899,5.036,23.0
86.634,-10.056,1.848,16.0
98.702,-11.468,4.873,52.0
115.513,-13.395,5.077,26.0
116.508,-13.484,4.488,51.0
189.613,-21.905,6.255,11.0
188.256,-21.709,5.191,25.0
86.661,-9.975,1.92,22.0
108.34,-12.482,5.439,22.0
115.384,-13.267,5.166,37.0
115.602,-13.265,4.548,39.0
115.91,-13.275,3.918,68.0
107.438,-12.282,3.047,22.0
107.472,-12.262,2.467,50.0
105.277,-12.023,5.369,26.0
99.623,-11.353,4.539,17.0
115.904,-13.18,4.651,25.0
115.91,-13.154,4.009,70.0
107.367,-12.161,3.131,65.0
107.488,-12.151,2.55,47.0
104.944,-11.874,5.433,23.0
99.994,-11.289,4.634,18.0
107.645,-12.126,4.402,17.0
115.951,-13.035,4.098,49.0
107.373,-12.045,3.211,70.0
187.79,-21.023,4.599,21.0
98.64,-11.053,5.181,2.0
100.09,-11.19,4.712,29.0
106.11,-11.836,4.417,49.0
106.832,-11.89,3.856,53.0
107.404,-11.928,3.291,47.0
187.356,-20.764,4.721,33.0
108.484,-12.033,5.776,17.0
108.203,-11.974,5.172,45.0
105.869,-11.689,4.482,31.0
106.7,-11.753,3.925,53.0
123.441,-13.566,3.868,28.0
187.395,-20.549,4.854,32.0
100.134,-10.99,5.401,56.0
108.185,-11.846,5.244,27.0
105.827,-11.559,4.553,16.0
106.87,-11.646,4.003,60.0
123.363,-13.412,3.948,65.0
123.517,-13.397,3.28,84.0
100.191,-10.877,5.471,24.0
105.317,-11.405,5.174,11.0
115.509,-12.477,5.044,22.0
106.847,-11.512,4.071,25.0
123.386,-13.262,4.028,64.0
123.518,-13.244,3.36,74.0
90.724,-9.737,5.011,5.0
105.084,-11.249,5.229,22.0
107.947,-11.526,4.78,63.0
123.91,-13.198,4.796,33.0
189.146,-20.097,6.289,29.0
187.665,-19.89,5.215,25.0
104.582,-11.092,5.839,17.0
115.086,-12.174,5.795,38.0
108.063,-11.401,4.85,13.0
107.233,-11.284,4.214,77.0
189.474,-19.887,6.408,22.0
187.959,-19.678,5.331,31.0
99.247,-10.398,5.598,13.0
108.476,-11.333,5.523,25.0
107.198,-11.168,4.871,58.0
122.876,-12.767,4.896,35.0
189.602,-19.649,6.518,33.0
187.981,-19.428,5.433,51.0
105.115,-10.873,5.984,14.0
107.163,-11.053,5.513,80.0
107.954,-11.103,4.961,83.0
123.023,-12.619,4.965,9.0
148.413,-15.181,5.178,50.0
188.1,-19.189,5.53,50.0
99.313,-10.138,5.704,21.0
115.016,-11.706,5.973,18.0
0.0,0.0,0.0,0.0
124.832,-12.631,5.1,49.0
148.34,-14.968,5.245,54.0
188.109,-18.927,5.62,49.0
99.413,-10.01,5.757,44.0
116.138,-11.658,6.086,20.0
106.723,-10.682,5.004,51.0
147.741,-14.743,6.102,12.0
188.86,-18.792,6.762,24.0
187.981,-18.651,5.697,28.0
99.168,-9.846,5.786,58.0
106.769,-10.568,5.64,44.0
106.673,-10.525,5.047,34.0
205.382,-20.202,8.566,21.0
189.149,-18.55,6.849,19.0
148.795,-14.548,4.57,43.0
85.716,-8.386,5.035,4.0
107.93,-10.526,5.744,25.0
106.569,-10.359,5.084,26.0
147.889,-14.33,6.225,33.0
150.651,-14.553,5.511,38.0
149.497,-14.397,4.647,36.0
116.701,-11.244,6.898,16.0
108.025,-10.375,5.787,26.0
106.459,-10.191,5.117,16.0
151.173,-14.425,6.415,30.0
190.101,-18.08,7.019,15.0
148.899,-14.116,4.677,34.0
106.933,-10.143,6.355,20.0
115.411,-10.91,6.221,20.0
106.237,-10.009,5.139,25.0
156.395,-14.686,6.686,45.0
148.584,-13.908,5.531,73.0
187.978,-17.537,5.961,24.0
106.354,-9.926,6.351,30.0
106.269,-9.884,5.758,19.0
108.518,-10.059,5.279,8.0
147.766,-13.65,6.356,37.0
148.647,-13.686,5.573,26.0
188.442,-17.289,6.025,38.0
115.321,-10.585,6.916,12.0
122.508,-11.206,6.668,10.0
147.135,-13.411,7.193,11.0
148.457,-13.483,6.42,11.0
164.088,-14.85,6.188,20.0
188.692,-17.02,6.074,31.0
105.844,-9.551,6.37,12.0
122.519,-11.014,6.693,9.0
105.737,-9.472,5.19,2.0
148.544,-13.259,6.453,31.0
157.008,-13.965,5.952,15.0
149.657,-13.264,4.845,35.0
105.638,-9.366,6.377,8.0
108.487,-9.583,5.946,9.0
150.334,-13.229,7.404,7.0
165.986,-14.551,7.237,53.0
158.145,-13.814,6.019,19.0
190.428,-16.572,6.193,18.0
115.382,-10.043,6.981,7.0
108.494,-9.407,5.96,8.0
148.603,-12.835,7.339,30.0
205.268,-17.663,8.975,23.0
149.949,-12.855,5.723,26.0
157.342,-13.438,5.134,41.0
115.37,-9.854,6.992,3.0
108.457,-9.227,5.968,5.0
148.425,-12.577,7.343,10.0
166.803,-14.079,7.308,41.0
149.963,-12.609,5.736,50.0
157.594,-13.201,5.152,34.0
122.504,-10.263,7.432,8.0
106.461,-8.882,5.865,6.0
159.072,-13.217,7.876,7.0
158.587,-13.123,6.953,22.0
156.395,-12.891,5.988,24.0
157.253,-12.911,5.146,64.0
108.514,-8.907,6.585,9.0
150.925,-12.338,8.317,17.0
150.575,-12.259,7.457,9.0
150.036,-12.166,6.578,31.0
158.054,-12.762,6.052,45.0
164.577,-13.236,5.385,44.0
148.517,-11.943,9.01,5.0
108.971,-8.726,6.003,5.0
149.878,-11.95,7.419,14.0
163.307,-12.967,7.155,38.0
156.849,-12.401,5.999,25.0
207.931,-16.373,6.793,9.0
106.441,-8.378,6.452,3.0
148.329,-11.624,8.162,10.0
149.306,-11.651,7.38,10.0
156.365,-12.148,6.84,9.0
165.547,-12.807,6.316,46.0
196.297,-15.12,6.397,46.0
149.405,-11.505,9.042,9.0
157.306,-12.058,8.638,6.0
149.293,-11.392,7.364,6.0
156.341,-11.878,6.821,12.0
163.938,-12.399,6.236,30.0
197.165,-14.848,6.398,39.0
161.957,-12.19,9.78,3.0
150.155,-11.249,8.225,10.0
149.095,-11.117,7.331,9.0
155.587,-11.549,6.763,20.0
164.515,-12.156,6.232,27.0
195.861,-14.407,6.324,27.0
146.984,-10.805,8.849,6.0
0.0,0.0,0.0,0.0
158.423,-11.537,7.76,14.0
205.831,-14.921,8.907,23.0
195.008,-14.069,7.346,23.0
196.422,-14.106,6.302,27.0
148.216,-10.636,8.891,7.0
163.008,-11.64,8.861,4.0
148.812,-10.575,7.255,5.0
0.0,0.0,0.0,0.0
0.0,0.0,0.0,0.0
204.185,-14.305,6.5,47.0
149.015,-10.431,8.9,4.0
150.718,-10.497,8.154,4.0
156.401,-10.838,7.582,6.0
195.337,-13.469,8.352,7.0
203.597,-13.971,7.564,21.0
208.386,-14.232,6.572,22.0
157.038,-10.713,9.331,6.0
147.097,-9.984,7.913,4.0
155.666,-10.512,7.498,4.0
194.443,-13.065,8.252,10.0
204.204,-13.649,7.521,25.0
209.105,-13.908,6.527,29.0
210.091,-13.956,12.413,8.0
0.0,0.0,0.0,0.0
157.42,-10.348,7.527,3.0
204.818,-13.393,8.62,18.0
208.578,-13.568,7.604,32.0
209.0,-13.525,6.444,27.0
148.381,-9.587,8.709,3.0
148.105,-9.519,7.858,5.0
150.133,-9.599,7.118,3.0
222.402,-14.143,9.269,9.0
213.067,-13.48,7.682,6.0
244.224,-15.371,7.431,28.0
148.831,-9.351,8.672,2.0
164.984,-10.309,8.683,7.0
223.014,-13.857,10.478,7.0
213.132,-13.172,8.789,7.0
227.958,-14.014,8.118,45.0
271.95,-16.627,8.152,9.0
164.858,-10.06,9.53,3.0
164.569,-9.985,8.582,4.0
0.0,0.0,0.0,0.0
212.278,-12.736,8.652,7.0
212.434,-12.673,7.459,8.0
272.149,-16.144,8.021,25.0
163.282,-9.666,9.355,3.0
0.0,0.0,0.0,0.0
0.0,0.0,0.0,0.0
0.0,0.0,0.0,0.0
244.382,-14.136,8.45,11.0
0.0,0.0,0.0,0.0
165.022,-9.469,9.365,5.0
0.0,0.0,0.0,0.0
0.0,0.0,0.0,0.0
0.0,0.0,0.0,0.0
0.0,0.0,0.0,0.0
0.0,0.0,0.0,0.0
0.0,0.0,0.0,0.0
0.0,0.0,0.0,0.0
0.0,0.0,0.0,0.0
0.0,0.0,0.0,0.0
0.0,0.0,0.0,0.0
212.042,-11.33,10.572,7.0
211.514,-11.232,9.346,7.0
0.0,0.0,0.0,0.0
0.0,0.0,0.0,0.0
0.0,0.0,0.0,0.0
0.0,0.0,0.0,0.0
0.0,0.0,0.0,0.0
0.0,0.0,0.0,0.0
0.0,0.0,0.0,0.0
0.0,0.0,0.0,0.0
0.0,0.0,0.0,0.0
0.0,0.0,0.0,0.0
0.0,0.0,0.0,0.0
0.0,0.0,0.0,0.0
0.0,0.0,0.0,0.0
0.0,0.0,0.0,0.0
0.0,0.0,0.0,0.0
0.0,0.0,0.0,0.0
0.0,0.0,0.0,0.0
0.0,0.0,0.0,0.0
0.0,0.0,0.0,0.0
0.0,0.0,0.0,0.0
0.0,0.0,0.0,0.0
0.0,0.0,0.0,0.0
0.0,0.0,0.0,0.0
0.0,0.0,0.0,0.0
0.0,0.0,0.0,0.0
0.0,0.0,0.0,0.0
0.0,0.0,0.0,0.0
0.0,0.0,0.0,0.0
0.0,0.0,0.0,0.0
0.0,0.0,0.0,0.0
0.0,0.0,0.0,0.0
0.0,0.0,0.0,0.0
0.0,0.0,0.0,0.0
0.0,0.0,0.0,0.0
0.0,0.0,0.0,0.0
0.0,0.0,0.0,0.0
0.0,0.0,0.0,0.0
0.0,0.0,0.0,0.0
0.0,0.0,0.0,0.0
0.0,0.0,0.0,0.0
0.0,0.0,0.0,0.0
0.0,0.0,0.0,0.0
0.0,0.0,0.0,0.0
0.0,0.0,0.0,0.0
0.0,0.0,0.0,0.0
0.0,0.0,0.0,0.0
0.0,0.0,0.0,0.0
0.0,0.0,0.0,0.0
0.0,0.0,0.0,0.0
0.0,0.0,0.0,0.0
0.0,0.0,0.0,0.0
0.0,0.0,0.0,0.0
0.0,0.0,0.0,0.0
0.0,0.0,0.0,0.0
0.0,0.0,0.0,0.0
0.0,0.0,0.0,0.0
0.0,0.0,0.0,0.0
0.0,0.0,0.0,0.0
0.0,0.0,0.0,0.0
0.0,0.0,0.0,0.0
0.0,0.0,0.0,0.0
148.0,-5.006,5.961,13.0
0.0,0.0,0.0,0.0
0.0,0.0,0.0,0.0
0.0,0.0,0.0,0.0
40.229,-1.311,0.696,0.0
0.0,0.0,0.0,0.0
0.0,0.0,0.0,0.0
0.0,0.0,0.0,0.0
40.316,-1.269,1.113,17.0
40.295,-1.256,0.882,27.0
40.339,-1.245,0.652,46.0
0.0,0.0,0.0,0.0
0.0,0.0,0.0,0.0
0.0,0.0,0.0,0.0
40.282,-1.199,1.066,31.0
40.364,-1.189,0.837,3.0
0.0,0.0,0.0,0.0
148.407,-4.299,6.323,12.0
40.264,-1.154,1.484,0.0
40.268,-1.142,1.253,12.0
40.211,-1.129,1.017,44.0
40.249,-1.118,0.787,42.0
40.238,-1.106,0.556,46.0
129.041,-3.518,5.341,35.0
40.198,-1.084,1.433,50.0
40.248,-1.073,1.203,39.0
40.179,-1.06,0.967,59.0
40.19,-1.049,0.737,60.0
40.206,-1.038,0.507,57.0
40.244,-1.03,1.615,3.0
40.202,-1.017,1.383,57.0
40.22,-1.006,1.153,48.0
40.178,-0.993,0.917,57.0
40.211,-0.982,0.686,65.0
40.307,-0.973,0.457,150.0
40.254,-0.963,1.564,4.0
40.301,-0.953,1.335,12.0
40.21,-0.939,1.101,59.0
40.189,-0.927,0.865,56.0
40.297,-0.918,0.636,16.0
40.207,-0.905,0.404,0.0
185.554,-4.133,6.968,41.0
40.291,-0.886,1.281,14.0
40.21,-0.872,1.047,55.0
40.201,-0.861,0.812,56.0
40.231,-0.851,0.581,57.0
40.266,-0.84,0.35,47.0
184.631,-3.811,6.685,39.0
40.296,-0.82,1.226,48.0
40.24,-0.808,0.993,44.0
40.173,-0.796,0.757,44.0
40.254,-0.786,0.527,43.0
40.237,-0.775,0.295,60.0
184.566,-3.513,6.428,50.0
40.293,-0.756,1.171,46.0
40.212,-0.743,0.937,51.0
40.175,-0.731,0.701,29.0
40.278,-0.723,0.471,12.0
40.264,-0.712,0.239,50.0
151.404,-2.64,5.058,80.0
151.441,-2.601,4.187,78.0
248.327,-4.2,5.437,67.0
205.384,-3.42,3.293,63.0
123.825,-2.028,1.272,13.0
0.0,0.0,0.0,0.0
151.45,-2.404,4.841,91.0
151.45,-2.365,3.968,29.0
187.128,-2.874,3.825,31.0
183.414,-2.766,2.672,26.0
87.873,-1.303,0.775,9.0
183.504,-2.674,0.561,15.0
86.92,-1.245,2.649,59.0
86.946,-1.222,2.148,52.0
86.947,-1.201,1.648,122.0
86.965,-1.179,1.138,69.0
79.075,-1.051,0.579,24.0
60.658,-0.792,0.095,4.0
79.421,-1.017,2.302,8.0
79.402,-0.997,1.843,150.0
79.392,-0.976,1.385,255.0
79.462,-0.958,0.92,151.0
77.925,-0.92,0.453,10.0
79.972,-0.924,0.004,8.0
79.438,-0.899,2.181,153.0
79.419,-0.879,1.722,209.0
79.443,-0.859,1.263,199.0
79.451,-0.84,0.797,165.0
77.166,-0.797,0.329,1.0
50.851,-0.512,-0.076,15.0
79.443,-0.781,2.056,151.0
79.436,-0.762,1.597,181.0
79.448,-0.743,1.139,189.0
79.43,-0.724,0.672,150.0
58.082,-0.515,0.156,4.0
47.399,-0.408,-0.146,16.0
79.433,-0.667,1.93,180.0
79.441,-0.648,1.471,176.0
79.454,-0.629,1.012,183.0
77.031,-0.592,0.529,12.0
52.529,-0.391,0.057,14.0
44.267,-0.319,-0.207,4.0
79.432,-0.554,1.801,203.0
79.448,-0.535,1.342,172.0
79.45,-0.516,0.882,191.0
76.681,-0.481,0.401,9.0
46.819,-0.283,-0.024,20.0
39.69,-0.23,-0.25,4.0
79.432,-0.443,1.67,192.0
79.449,-0.426,1.213,164.0
79.468,-0.408,0.753,162.0
61.268,-0.3,0.22,10.0
0.0,0.0,0.0,0.0
37.259,-0.165,-0.297,1.0
79.409,-0.335,1.538,255.0
79.458,-0.318,1.079,151.0
79.317,-0.299,0.618,53.0
0.0,0.0,0.0,0.0
40.632,-0.135,-0.157,16.0
33.257,-0.103,-0.321,1.0
79.449,-0.23,1.405,158.0
79.465,-0.213,0.945,152.0
76.36,-0.187,0.466,13.0
46.148,-0.103,0.009,6.0
39.21,-0.079,-0.218,14.0
31.943,-0.057,-0.362,1.0
79.458,-0.126,1.268,151.0
79.475,-0.11,0.809,151.0
61.685,-0.072,0.271,16.0
43.84,-0.042,-0.065,19.0
38.416,-0.028,-0.279,5.0
30.32,-0.016,-0.396,2.0
79.464,-0.025,1.131,151.0
79.381,-0.009,0.67,49.0
54.581,0.004,0.145,21.0
40.295,0.012,-0.13,27.0
33.62,0.016,-0.303,0.0
29.25,0.02,-0.433,2.0
79.472,0.073,0.991,151.0
76.179,0.085,0.509,22.0
47.739,0.062,0.043,21.0
38.91,0.059,-0.194,23.0
32.361,0.056,-0.349,1.0
28.194,0.054,-0.468,2.0
79.456,0.169,0.85,150.0
59.14,0.137,0.289,10.0
0.0,0.0,0.0,0.0
38.08,0.103,-0.258,8.0
30.565,0.089,-0.384,1.0
26.942,0.084,-0.495,2.0
77.16,0.254,0.687,46.0
54.682,0.191,0.17,28.0
40.225,0.148,-0.107,16.0
36.048,0.139,-0.309,0.0
29.51,0.12,-0.424,2.0
26.114,0.111,-0.526,2.0
59.309,0.263,0.421,80.0
47.88,0.221,0.062,33.0
38.836,0.186,-0.173,42.0
32.709,0.163,-0.339,1.0
28.357,0.147,-0.459,1.0
25.047,0.134,-0.55,1.0
55.027,0.305,0.29,11.0
0.0,0.0,0.0,0.0
37.995,0.224,-0.239,13.0
30.884,0.188,-0.377,2.0
27.114,0.17,-0.488,1.0
23.94,0.154,-0.57,2.0
48.096,0.318,0.165,46.0
39.822,0.27,-0.094,15.0
37.535,0.262,-0.306,2.0
29.612,0.212,-0.416,2.0
26.242,0.192,-0.521,2.0
23.237,0.174,-0.596,1.0
47.824,0.366,0.075,56.0
38.6,0.302,-0.163,48.0
32.954,0.263,-0.33,1.0
28.536,0.233,-0.454,1.0
22.055,0.184,-0.479,0.0
21.648,0.184,-0.596,3.0
0.0,0.0,0.0,0.0
37.781,0.334,-0.23,13.0
30.908,0.278,-0.368,1.0
27.183,0.249,-0.484,1.0
21.411,0.2,-0.506,4.0
20.837,0.198,-0.613,4.0
39.65,0.383,-0.087,15.0
37.281,0.366,-0.299,2.0
29.641,0.296,-0.409,2.0
26.277,0.266,-0.518,1.0
20.604,0.212,-0.526,3.0
20.189,0.211,-0.633,3.0
38.416,0.407,-0.158,51.0
33.02,0.355,-0.327,1.0
28.619,0.312,-0.45,1.0
22.115,0.244,-0.478,3.0
19.867,0.222,-0.545,5.0
19.581,0.222,-0.651,3.0
37.631,0.433,-0.227,13.0
30.921,0.36,-0.366,1.0
27.211,0.321,-0.48,1.0
21.264,0.254,-0.501,4.0
19.239,0.233,-0.565,4.0
18.995,0.233,-0.668,2.0
36.98,0.457,-0.294,3.0
29.667,0.371,-0.409,2.0
26.285,0.333,-0.515,1.0
20.328,0.26,-0.518,3.0
18.646,0.241,-0.584,5.0
18.546,0.243,-0.689,2.0
32.834,0.433,-0.325,1.0
28.581,0.381,-0.449,1.0
22.066,0.297,-0.475,4.0
19.527,0.266,-0.536,3.0
18.12,0.249,-0.603,5.0
18.115,0.252,-0.708,1.0
30.846,0.432,-0.366,1.0
27.185,0.384,-0.481,1.0
21.262,0.303,-0.5,6.0
18.82,0.271,-0.554,3.0
17.667,0.257,-0.623,4.0
17.681,0.259,-0.726,2.0
29.531,0.436,-0.409,2.0
26.273,0.391,-0.516,1.0
20.253,0.304,-0.516,3.0
18.152,0.275,-0.57,3.0
17.25,0.263,-0.642,5.0
17.227,0.265,-0.742,2.0
28.305,0.438,-0.447,2.0
21.854,0.341,-0.472,4.0
19.498,0.307,-0.535,3.0
17.533,0.278,-0.585,3.0
16.906,0.27,-0.663,5.0
16.818,0.271,-0.757,2.0
27.033,0.437,-0.481,2.0
20.985,0.342,-0.495,4.0
18.738,0.307,-0.551,3.0
16.944,0.28,-0.599,2.0
16.642,0.277,-0.685,2.0
16.149,0.27,-0.759,2.0
26.285,0.442,-0.519,1.0
19.974,0.338,-0.511,11.0
18.042,0.307,-0.566,3.0
16.483,0.283,-0.615,3.0
16.382,0.283,-0.707,2.0
15.876,0.276,-0.778,0.0
21.718,0.378,-0.472,4.0
19.397,0.34,-0.534,3.0
17.467,0.308,-0.583,2.0
16.21,0.287,-0.637,3.0
16.16,0.288,-0.729,1.0
15.128,0.272,-0.771,1.0
20.792,0.374,-0.494,4.0
18.663,0.338,-0.552,5.0
16.747,0.305,-0.593,2.0
16.022,0.293,-0.662,3.0
16.012,0.294,-0.755,1.0
15.868,0.293,-0.841,1.0
19.878,0.368,-0.512,6.0
17.915,0.333,-0.565,3.0
16.201,0.303,-0.606,3.0
15.902,0.299,-0.689,2.0
15.806,0.299,-0.777,1.0
15.879,0.302,-0.873,1.0
19.006,0.361,-0.527,11.0
17.312,0.331,-0.581,2.0
15.831,0.304,-0.624,4.0
15.745,0.304,-0.713,2.0
15.222,0.295,-0.778,0.0
13.868,0.27,-0.79,0.0
18.561,0.361,-0.552,10.0
16.651,0.325,-0.592,3.0
15.66,0.307,-0.648,2.0
15.617,0.308,-0.739,1.0
15.578,0.309,-0.828,0.0
13.6,0.271,-0.802,0.0
17.851,0.355,-0.566,3.0
16.078,0.321,-0.604,3.0
15.52,0.311,-0.673,2.0
15.505,0.312,-0.764,1.0
15.503,0.313,-0.855,0.0
13.301,0.27,-0.811,0.0
17.154,0.347,-0.578,2.0
15.633,0.318,-0.617,3.0
15.388,0.314,-0.697,2.0
15.217,0.311,-0.78,0.0
13.852,0.285,-0.791,0.0
12.989,0.268,-0.818,0.0
16.598,0.342,-0.592,3.0
15.373,0.317,-0.638,2.0
15.292,0.317,-0.723,1.0
15.263,0.317,-0.813,0.0
13.584,0.283,-0.803,0.0
12.673,0.265,-0.823,0.0
16.024,0.335,-0.603,3.0
15.213,0.318,-0.661,3.0
15.19,0.319,-0.749,1.0
15.194,0.32,-0.839,0.0
13.288,0.281,-0.812,0.0
12.419,0.263,-0.831,0.0
15.54,0.328,-0.616,3.0
15.125,0.321,-0.687,2.0
15.112,0.321,-0.775,0.0
13.85,0.295,-0.793,0.0
12.969,0.277,-0.818,0.0
12.154,0.26,-0.838,0.0
15.236,0.325,-0.634,4.0
15.056,0.322,-0.714,2.0
15.074,0.324,-0.803,0.0
13.567,0.292,-0.803,0.0
12.67,0.273,-0.824,0.0
11.887,0.257,-0.842,0.0
15.046,0.324,-0.655,4.0
14.95,0.323,-0.738,1.0
15.024,0.325,-0.829,0.0
13.221,0.287,-0.808,0.0
12.403,0.269,-0.831,0.0
11.646,0.254,-0.848,0.0
14.978,0.325,-0.681,4.0
14.924,0.324,-0.766,0.0
0.0,0.0,0.0,0.0
12.926,0.282,-0.815,0.0
12.132,0.265,-0.836,0.0
11.383,0.249,-0.851,0.0
14.911,0.325,-0.707,4.0
14.933,0.326,-0.795,0.0
13.56,0.296,-0.801,0.0
12.647,0.277,-0.822,0.0
11.884,0.26,-0.842,0.0
11.136,0.244,-0.854,0.0
14.889,0.325,-0.735,1.0
14.938,0.327,-0.824,0.0
13.252,0.29,-0.808,0.0
12.382,0.272,-0.829,0.0
11.624,0.255,-0.846,0.0
10.911,0.24,-0.858,0.0
14.917,0.326,-0.764,0.0
14.416,0.316,-0.823,0.0
12.953,0.284,-0.815,0.0
12.128,0.266,-0.835,0.0
11.385,0.25,-0.85,0.0
10.614,0.233,-0.855,0.0
14.944,0.326,-0.794,0.0
13.566,0.297,-0.8,0.0
12.665,0.277,-0.821,0.0
11.87,0.26,-0.84,0.0
11.133,0.244,-0.853,0.0
10.41,0.229,-0.858,5.0
14.97,0.326,-0.824,0.0
13.239,0.289,-0.806,0.0
12.394,0.27,-0.827,0.0
11.651,0.254,-0.846,0.0
10.926,0.239,-0.857,0.0
10.311,0.226,-0.87,2.0
14.372,0.312,-0.818,0.0
12.968,0.281,-0.813,0.0
12.131,0.263,-0.832,0.0
11.398,0.248,-0.849,0.0
10.661,0.232,-0.856,0.0
10.132,0.22,-0.873,0.0
13.596,0.293,-0.799,0.0
12.702,0.274,-0.82,0.0
11.923,0.257,-0.839,0.0
11.151,0.241,-0.851,0.0
10.413,0.225,-0.856,4.0
9.975,0.215,-0.878,0.0
13.308,0.285,-0.806,0.0
12.431,0.266,-0.825,0.0
11.675,0.25,-0.843,0.0
10.947,0.234,-0.856,0.0
10.337,0.221,-0.869,2.0
9.789,0.21,-0.88,0.0
13.024,0.276,-0.812,0.0
12.189,0.259,-0.831,0.0
11.421,0.242,-0.846,0.0
10.714,0.227,-0.857,0.0
10.182,0.216,-0.874,0.0
9.634,0.204,-0.883,0.0
12.733,0.267,-0.817,0.0
11.962,0.251,-0.837,0.0
11.204,0.235,-0.849,0.0
10.419,0.218,-0.852,4.0
9.981,0.209,-0.874,0.0
9.46,0.198,-0.884,0.0
12.476,0.258,-0.823,0.0
11.733,0.243,-0.842,0.0
10.978,0.227,-0.852,0.0
10.369,0.214,-0.866,2.0
9.828,0.203,-0.878,0.0
9.334,0.192,-0.889,0.0
12.251,0.25,-0.829,0.0
11.482,0.234,-0.844,0.0
10.782,0.219,-0.855,0.0
10.203,0.207,-0.87,0.0
9.67,0.196,-0.881,0.0
9.162,0.186,-0.889,0.0
12.0,0.241,-0.833,0.0
11.262,0.226,-0.847,0.0
10.481,0.21,-0.85,3.0
10.028,0.2,-0.873,0.0
9.518,0.19,-0.884,0.0
9.036,0.18,-0.892,0.0
11.785,0.232,-0.838,0.0
11.06,0.217,-0.851,0.0
10.41,0.204,-0.862,3.0
9.873,0.193,-0.876,0.0
9.384,0.183,-0.888,0.0
8.927,0.174,-0.897,0.0
11.545,0.222,-0.841,0.0
10.854,0.209,-0.854,0.0
10.279,0.197,-0.868,0.0
9.724,0.186,-0.879,0.0
9.221,0.176,-0.888,0.0
8.783,0.168,-0.897,0.0
11.352,0.214,-0.845,0.0
10.524,0.198,-0.845,2.0
10.109,0.189,-0.871,0.0
9.566,0.179,-0.881,0.0
9.094,0.169,-0.891,0.0
8.659,0.161,-0.899,0.0
11.129,0.204,-0.847,0.0
10.457,0.191,-0.857,8.0
9.935,0.181,-0.872,0.0
9.419,0.171,-0.883,0.0
8.966,0.163,-0.893,0.0
8.54,0.154,-0.9,0.0
10.94,0.195,-0.85,0.0
10.364,0.184,-0.866,2.0
9.802,0.174,-0.876,0.0
9.292,0.164,-0.886,0.0
8.826,0.155,-0.893,0.0
8.455,0.148,-0.905,0.0
10.702,0.185,-0.849,1.0
10.214,0.176,-0.869,0.0
9.659,0.166,-0.878,0.0
9.176,0.157,-0.889,0.0
8.722,0.149,-0.896,0.0
8.338,0.142,-0.905,0.0
10.476,0.175,-0.847,9.0
10.047,0.167,-0.871,0.0
9.506,0.158,-0.879,0.0
9.048,0.149,-0.891,0.0
8.602,0.141,-0.897,0.0
8.246,0.135,-0.908,0.0
10.432,0.168,-0.859,7.0
9.868,0.158,-0.87,0.0
9.367,0.15,-0.88,0.0
8.924,0.142,-0.892,0.0
8.507,0.135,-0.9,0.0
8.178,0.129,-0.913,0.0
10.342,0.16,-0.867,1.0
9.759,0.15,-0.875,0.0
9.249,0.142,-0.883,0.0
8.792,0.134,-0.892,0.0
8.431,0.128,-0.904,0.0
8.074,0.122,-0.913,0.0
10.179,0.151,-0.868,0.0
9.635,0.142,-0.878,0.0
9.142,0.134,-0.886,0.0
8.691,0.126,-0.894,0.0
8.338,0.121,-0.906,0.0
8.004,0.115,-0.917,0.0
10.013,0.141,-0.868,0.0
9.511,0.133,-0.88,0.0
9.03,0.126,-0.888,0.0
8.597,0.119,-0.896,0.0
8.228,0.113,-0.906,0.0
7.931,0.109,-0.92,0.0
9.887,0.132,-0.871,0.0
9.392,0.125,-0.882,0.0
8.931,0.118,-0.89,0.0
8.501,0.112,-0.898,0.0
8.154,0.106,-0.909,0.0
7.826,0.101,-0.918,0.0
9.748,0.123,-0.872,0.0
9.291,0.117,-0.885,0.0
8.808,0.11,-0.89,0.0
8.419,0.104,-0.901,0.0
8.098,0.099,-0.914,0.0
7.785,0.095,-0.924,0.0
9.612,0.114,-0.873,0.0
9.161,0.108,-0.885,0.0
8.72,0.102,-0.893,0.0
8.35,0.096,-0.904,0.0
8.018,0.092,-0.915,0.0
7.707,0.088,-0.925,0.0
9.515,0.105,-0.876,0.0
9.07,0.099,-0.888,0.0
8.64,0.094,-0.896,0.0
8.272,0.089,-0.906,0.0
7.944,0.085,-0.917,0.0
7.647,0.081,-0.927,0.0
9.402,0.096,-0.877,0.0
8.971,0.091,-0.889,0.0
8.529,0.085,-0.895,0.0
8.174,0.081,-0.906,0.0
7.892,0.077,-0.921,0.0
7.558,0.073,-0.926,0.0
9.337,0.088,-0.883,0.0
8.871,0.082,-0.89,0.0
8.472,0.078,-0.899,0.0
8.119,0.073,-0.91,0.0
7.838,0.07,-0.924,0.0
7.506,0.066,-0.928,0.0
9.208,0.078,-0.881,0.0
8.802,0.074,-0.893,0.0
8.415,0.07,-0.903,0.0
8.06,0.066,-0.912,0.0
7.749,0.062,-0.922,0.0
7.437,0.059,-0.928,0.0
9.141,0.07,-0.885,0.0
8.711,0.065,-0.894,0.0
8.329,0.061,-0.903,0.0
7.996,0.058,-0.914,0.0
7.691,0.055,-0.924,0.0
7.383,0.052,-0.93,0.0
9.049,0.061,-0.886,0.0
8.617,0.057,-0.894,0.0
8.274,0.053,-0.906,0.0
7.945,0.05,-0.917,0.0
7.623,0.047,-0.924,0.0
7.338,0.044,-0.932,0.0
8.966,0.052,-0.888,0.0
8.54,0.048,-0.895,0.0
8.208,0.045,-0.907,0.0
7.89,0.042,-0.919,0.0
7.594,0.04,-0.928,0.0
7.289,0.037,-0.934,0.0
8.895,0.043,-0.89,0.0
8.483,0.04,-0.897,0.0
8.144,0.037,-0.909,0.0
7.826,0.034,-0.919,0.0
7.523,0.032,-0.927,0.0
7.23,0.03,-0.933,0.0
8.825,0.034,-0.891,0.0
8.427,0.031,-0.9,0.0
8.09,0.029,-0.91,0.0
7.781,0.026,-0.921,0.0
7.481,0.024,-0.929,0.0
7.161,0.022,-0.931,0.0
8.747,0.025,-0.892,0.0
8.37,0.022,-0.901,0.0
8.038,0.02,-0.912,0.0
7.718,0.018,-0.921,0.0
7.424,0.017,-0.929,0.0
7.135,0.015,-0.934,0.0
8.69,0.016,-0.893,0.0
8.338,0.014,-0.905,0.0
7.994,0.012,-0.914,0.0
7.671,0.01,-0.922,0.0
7.381,0.009,-0.93,0.0
7.102,0.008,-0.936,0.0
8.631,0.007,-0.895,0.0
8.28,0.005,-0.906,0.0
7.965,0.004,-0.917,0.0
7.638,0.003,-0.925,0.0
7.331,0.001,-0.93,0.0
7.07,0.0,-0.938,0.0
8.571,-0.001,-0.895,0.0
8.235,-0.002,-0.908,0.0
7.905,-0.004,-0.917,0.0
7.588,-0.004,-0.925,0.0
7.306,-0.005,-0.933,0.0
7.029,-0.006,-0.938,0.0
8.518,-0.01,-0.897,0.0
8.189,-0.011,-0.909,0.0
7.866,-0.012,-0.918,0.0
7.535,-0.013,-0.924,0.0
7.269,-0.013,-0.933,0.0
7.002,-0.014,-0.939,0.0
8.475,-0.019,-0.898,0.0
8.136,-0.02,-0.909,0.0
7.824,-0.02,-0.919,0.0
7.527,-0.021,-0.928,0.0
7.214,-0.021,-0.931,0.0
6.97,-0.021,-0.94,0.0
8.433,-0.028,-0.899,0.0
8.11,-0.028,-0.911,0.0
7.794,-0.029,-0.921,0.0
7.498,-0.029,-0.93,0.0
7.182,-0.029,-0.932,0.0
6.939,-0.029,-0.941,0.0
8.394,-0.037,-0.901,0.0
8.054,-0.037,-0.91,0.0
7.758,-0.037,-0.921,0.0
7.449,-0.037,-0.928,0.0
7.166,-0.037,-0.934,0.0
6.909,-0.037,-0.941,0.0
8.343,-0.046,-0.9,0.0
8.028,-0.046,-0.912,0.0
7.719,-0.046,-0.921,0.0
7.388,-0.045,-0.925,0.0
7.133,-0.045,-0.934,0.0
6.87,-0.044,-0.939,0.0
8.321,-0.056,-0.902,0.0
7.996,-0.055,-0.913,0.0
7.674,-0.054,-0.92,0.0
7.389,-0.053,-0.929,0.0
7.097,-0.052,-0.933,0.0
6.857,-0.052,-0.941,0.0
8.284,-0.065,-0.902,0.0
7.971,-0.064,-0.914,0.0
7.666,-0.063,-0.923,0.0
7.346,-0.061,-0.927,0.0
7.097,-0.06,-0.936,0.0
6.835,-0.059,-0.941,0.0
8.264,-0.074,-0.904,0.0
7.955,-0.072,-0.916,0.0
7.631,-0.071,-0.922,0.0
7.336,-0.07,-0.929,0.0
7.084,-0.068,-0.938,0.0
6.824,-0.067,-0.943,0.0
8.248,-0.083,-0.906,0.0
7.927,-0.081,-0.916,0.0
7.623,-0.08,-0.924,0.0
7.325,-0.078,-0.931,0.0
7.067,-0.076,-0.938,0.0
6.793,-0.075,-0.941,0.0
8.218,-0.092,-0.905,0.0
7.902,-0.09,-0.916,0.0
7.594,-0.088,-0.923,0.0
7.294,-0.086,-0.929,0.0
7.047,-0.084,-0.938,0.0
6.773,-0.082,-0.94,0.0
8.193,-0.101,-0.905,0.0
7.9,-0.099,-0.918,0.0
7.572,-0.096,-0.923,0.0
7.288,-0.094,-0.93,0.0
7.047,-0.092,-0.94,0.0
6.76,-0.09,-0.94,0.0
8.17,-0.11,-0.905,0.0
7.865,-0.108,-0.916,0.0
7.572,-0.105,-0.925,0.0
7.285,-0.103,-0.932,0.0
7.021,-0.1,-0.938,0.0
6.755,-0.098,-0.941,0.0
8.161,-0.12,-0.906,0.0
7.871,-0.117,-0.918,0.0
7.558,-0.114,-0.925,0.0
7.264,-0.111,-0.931,0.0
7.004,-0.108,-0.937,0.0
6.748,-0.106,-0.942,0.0
8.14,-0.129,-0.905,0.0
7.864,-0.126,-0.919,0.0
7.549,-0.122,-0.925,0.0
7.252,-0.119,-0.93,0.0
7.01,-0.116,-0.939,0.0
6.738,-0.113,-0.941,0.0
8.154,-0.138,-0.908,0.0
7.858,-0.135,-0.919,0.0
7.56,-0.131,-0.927,0.0
7.258,-0.127,-0.932,0.0
7.004,-0.124,-0.939,0.0
6.723,-0.121,-0.94,0.0
8.129,-0.147,-0.906,0.0
7.831,-0.143,-0.916,0.0
7.53,-0.139,-0.924,0.0
7.284,-0.136,-0.936,0.0
6.986,-0.132,-0.937,0.0
6.73,-0.129,-0.941,0.0
8.139,-0.157,-0.907,0.0
7.846,-0.153,-0.919,0.0
7.54,-0.148,-0.925,0.0
7.253,-0.144,-0.932,0.0
7.001,-0.14,-0.939,0.0
6.722,-0.136,-0.94,0.0
8.134,-0.166,-0.906,0.0
7.845,-0.162,-0.918,0.0
7.543,-0.157,-0.926,0.0
7.266,-0.153,-0.933,0.0
7.009,-0.149,-0.94,0.0
6.733,-0.144,-0.941,0.0
8.151,-0.176,-0.908,0.0
7.831,-0.17,-0.916,0.0
7.541,-0.166,-0.925,0.0
7.244,-0.16,-0.93,0.0
7.004,-0.157,-0.939,0.0
6.748,-0.152,-0.943,0.0
8.157,-0.185,-0.908,0.0
7.856,-0.18,-0.918,0.0
7.544,-0.174,-0.924,0.0
7.258,-0.169,-0.931,0.0
7.034,-0.165,-0.942,0.0
6.757,-0.16,-0.943,0.0
8.164,-0.194,-0.907,0.0
7.866,-0.189,-0.918,0.0
7.56,-0.183,-0.925,0.0
7.285,-0.178,-0.933,0.0
7.03,-0.173,-0.94,0.0
6.764,-0.168,-0.943,0.0
8.183,-0.204,-0.908,0.0
7.896,-0.198,-0.92,0.0
7.565,-0.192,-0.924,0.0
7.275,-0.186,-0.93,0.0
7.024,-0.181,-0.938,0.0
6.777,-0.176,-0.943,0.0
8.187,-0.213,-0.906,0.0
7.892,-0.207,-0.918,0.0
7.584,-0.2,-0.925,0.0
7.286,-0.194,-0.93,0.0
7.048,-0.189,-0.939,0.0
6.776,-0.183,-0.941,0.0
8.195,-0.222,-0.905,0.0
7.903,-0.216,-0.917,0.0
7.603,-0.209,-0.925,0.0
7.31,-0.203,-0.931,0.0
7.056,-0.197,-0.938,0.0
6.812,-0.192,-0.944,0.0
8.214,-0.232,-0.905,0.0
7.905,-0.225,-0.915,0.0
7.629,-0.218,-0.925,0.0
7.316,-0.211,-0.929,0.0
7.068,-0.205,-0.937,0.0
6.824,-0.2,-0.943,0.0
8.246,-0.241,-0.905,0.0
7.929,-0.234,-0.914,0.0
7.647,-0.227,-0.924,0.0
7.339,-0.219,-0.929,0.0
7.085,-0.213,-0.936,0.0
6.855,-0.208,-0.945,0.0
8.262,-0.251,-0.903,0.0
7.957,-0.243,-0.914,0.0
7.664,-0.236,-0.923,0.0
7.358,-0.228,-0.928,0.0
7.108,-0.222,-0.936,0.0
6.849,-0.215,-0.94,0.0
8.308,-0.261,-0.905,0.0
7.975,-0.252,-0.913,0.0
7.709,-0.245,-0.925,0.0
7.377,-0.236,-0.927,0.0
7.118,-0.229,-0.934,0.0
6.892,-0.223,-0.943,0.0
8.332,-0.27,-0.903,0.0
8.03,-0.262,-0.915,0.0
7.723,-0.253,-0.923,0.0
7.429,-0.245,-0.93,0.0
7.16,-0.238,-0.936,0.0
6.928,-0.232,-0.944,0.0
8.357,-0.279,-0.901,0.0
8.064,-0.271,-0.914,0.0
7.738,-0.262,-0.92,0.0
7.451,-0.254,-0.928,0.0
7.19,-0.246,-0.935,0.0
6.963,-0.24,-0.945,0.0
8.407,-0.29,-0.902,0.0
8.092,-0.28,-0.913,0.0
7.781,-0.271,-0.92,0.0
7.493,-0.263,-0.929,0.0
7.215,-0.254,-0.934,0.0
6.984,-0.248,-0.943,0.0
8.435,-0.299,-0.899,0.0
8.109,-0.289,-0.909,0.0
7.805,-0.28,-0.918,0.0
7.51,-0.27,-0.926,0.0
7.235,-0.262,-0.932,0.0
7.001,-0.255,-0.941,0.0
8.482,-0.309,-0.899,0.0
8.154,-0.298,-0.909,0.0
7.847,-0.289,-0.918,0.0
7.547,-0.279,-0.925,0.0
7.279,-0.271,-0.933,0.0
7.027,-0.263,-0.939,0.0
8.533,-0.319,-0.898,0.0
8.19,-0.307,-0.907,0.0
7.888,-0.297,-0.917,0.0
7.582,-0.287,-0.924,0.0
7.321,-0.279,-0.932,0.0
7.061,-0.27,-0.938,0.0
8.592,-0.329,-0.898,0.0
8.252,-0.317,-0.908,0.0
7.941,-0.307,-0.917,0.0
7.645,-0.297,-0.925,0.0
7.348,-0.287,-0.93,0.0
7.103,-0.278,-0.938,0.0
8.639,-0.338,-0.896,0.0
8.287,-0.326,-0.905,0.0
7.967,-0.315,-0.913,0.0
7.686,-0.305,-0.924,0.0
7.394,-0.295,-0.93,0.0
7.143,-0.286,-0.938,0.0
8.71,-0.348,-0.896,0.0
8.35,-0.336,-0.905,0.0
8.016,-0.324,-0.912,0.0
7.719,-0.313,-0.922,0.0
7.446,-0.304,-0.93,0.0
7.178,-0.294,-0.936,0.0
8.754,-0.358,-0.893,0.0
8.415,-0.345,-0.904,0.0
8.067,-0.333,-0.911,0.0
7.767,-0.322,-0.92,0.0
7.495,-0.312,-0.929,0.0
7.237,-0.302,-0.937,0.0
8.818,-0.368,-0.891,0.0
8.455,-0.354,-0.901,0.0
8.12,-0.341,-0.909,0.0
7.824,-0.33,-0.92,0.0
7.544,-0.32,-0.928,0.0
7.272,-0.31,-0.934,0.0
8.915,-0.379,-0.893,0.0
8.516,-0.364,-0.899,0.0
8.205,-0.352,-0.911,0.0
7.889,-0.34,-0.919,0.0
7.595,-0.328,-0.927,0.0
7.307,-0.317,-0.932,0.0
8.989,-0.389,-0.891,0.0
8.606,-0.374,-0.9,0.0
8.26,-0.36,-0.908,0.0
7.946,-0.348,-0.918,0.0
7.657,-0.337,-0.926,0.0
7.368,-0.325,-0.932,0.0
9.072,-0.4,-0.89,0.0
8.668,-0.383,-0.897,0.0
8.316,-0.369,-0.906,0.0
7.989,-0.356,-0.915,0.0
7.715,-0.345,-0.925,0.0
7.423,-0.333,-0.931,0.0
9.157,-0.41,-0.889,0.0
8.732,-0.392,-0.895,0.0
8.374,-0.378,-0.903,0.0
8.058,-0.365,-0.914,0.0
7.76,-0.352,-0.922,0.0
7.478,-0.341,-0.929,0.0
9.253,-0.421,-0.888,0.0
8.828,-0.403,-0.895,0.0
8.475,-0.388,-0.905,0.0
8.12,-0.373,-0.912,0.0
7.821,-0.36,-0.921,0.0
7.524,-0.348,-0.927,0.0
9.349,-0.431,-0.886,0.0
8.901,-0.412,-0.892,0.0
8.535,-0.396,-0.901,0.0
8.197,-0.382,-0.911,0.0
7.905,-0.37,-0.921,0.0
7.613,-0.357,-0.928,0.0
9.419,-0.44,-0.882,0.0
9.009,-0.423,-0.892,0.0
8.609,-0.405,-0.899,0.0
8.245,-0.389,-0.906,0.0
7.951,-0.377,-0.917,0.0
7.678,-0.365,-0.927,0.0
9.527,-0.451,-0.881,0.0
9.109,-0.433,-0.891,0.0
8.697,-0.415,-0.897,0.0
8.333,-0.398,-0.906,0.0
8.017,-0.384,-0.915,0.0
7.727,-0.372,-0.923,0.0
9.652,-0.463,-0.88,0.0
9.201,-0.442,-0.888,0.0
8.783,-0.423,-0.895,0.0
8.409,-0.407,-0.903,0.0
8.094,-0.393,-0.913,0.0
7.81,-0.38,-0.923,0.0
9.762,-0.473,-0.878,2.0
9.308,-0.453,-0.887,0.0
8.889,-0.433,-0.895,0.0
8.5,-0.415,-0.902,0.0
8.186,-0.401,-0.913,0.0
7.885,-0.388,-0.922,0.0
9.84,-0.482,-0.872,2.0
9.42,-0.463,-0.885,0.0
8.989,-0.443,-0.893,0.0
8.602,-0.425,-0.902,0.0
8.245,-0.408,-0.908,0.0
7.966,-0.395,-0.92,0.0
9.952,-0.492,-0.869,2.0
9.521,-0.472,-0.882,0.0
9.099,-0.452,-0.892,0.0
8.69,-0.433,-0.899,0.0
8.316,-0.415,-0.905,0.0
8.007,-0.401,-0.914,0.0
10.081,-0.503,-0.867,0.0
9.642,-0.482,-0.88,0.0
9.206,-0.462,-0.89,0.0
8.763,-0.44,-0.894,0.0
8.414,-0.424,-0.904,0.0
8.087,-0.408,-0.912,0.0
10.236,-0.515,-0.866,0.0
9.764,-0.492,-0.878,2.0
9.314,-0.471,-0.887,0.0
8.906,-0.451,-0.897,0.0
8.521,-0.432,-0.903,0.0
8.171,-0.416,-0.91,0.0
10.385,-0.526,-0.864,0.0
9.859,-0.501,-0.872,2.0
9.431,-0.48,-0.885,0.0
9.009,-0.459,-0.894,0.0
8.623,-0.441,-0.902,0.0
8.287,-0.424,-0.911,0.0
10.548,-0.538,-0.862,0.0
9.983,-0.51,-0.869,1.0
9.541,-0.489,-0.881,0.0
9.13,-0.468,-0.893,0.0
8.729,-0.449,-0.9,0.0
8.366,-0.431,-0.908,0.0
10.707,-0.549,-0.86,0.0
10.133,-0.521,-0.867,0.0
9.711,-0.5,-0.883,0.0
9.258,-0.477,-0.892,0.0
8.837,-0.456,-0.898,0.0
8.462,-0.438,-0.905,0.0
10.846,-0.559,-0.855,0.0
10.309,-0.532,-0.867,0.0
9.783,-0.506,-0.875,2.0
9.361,-0.485,-0.888,0.0
8.939,-0.464,-0.895,0.0
8.571,-0.446,-0.904,0.0
11.029,-0.571,-0.853,0.0
10.463,-0.543,-0.864,0.0
9.908,-0.515,-0.871,1.0
9.485,-0.493,-0.885,0.0
9.047,-0.471,-0.892,0.0
8.679,-0.453,-0.902,0.0
11.204,-0.582,-0.849,0.0
10.625,-0.553,-0.861,0.0
10.061,-0.524,-0.869,0.0
9.644,-0.503,-0.885,0.0
9.19,-0.48,-0.892,0.0
8.774,-0.459,-0.898,0.0
11.358,-0.592,-0.843,0.0
10.791,-0.563,-0.858,0.0
10.247,-0.535,-0.869,0.0
9.755,-0.51,-0.88,1.0
9.316,-0.488,-0.89,0.0
8.907,-0.467,-0.898,0.0
11.552,-0.603,-0.84,0.0
10.972,-0.574,-0.855,0.0
10.413,-0.545,-0.867,0.0
9.858,-0.516,-0.874,2.0
9.448,-0.495,-0.887,0.0
9.031,-0.474,-0.896,0.0
11.74,-0.614,-0.835,0.0
11.148,-0.584,-0.851,0.0
10.587,-0.555,-0.864,0.0
10.006,-0.525,-0.871,0.0
9.592,-0.503,-0.885,0.0
9.179,-0.482,-0.896,0.0
11.955,-0.626,-0.831,0.0
11.31,-0.592,-0.845,0.0
10.749,-0.563,-0.86,0.0
10.199,-0.535,-0.871,0.0
9.755,-0.512,-0.884,1.0
9.296,-0.488,-0.892,0.0
12.182,-0.637,-0.827,0.0
11.5,-0.602,-0.841,0.0
10.921,-0.572,-0.856,0.0
10.389,-0.544,-0.87,0.0
9.844,-0.516,-0.876,2.0
9.437,-0.495,-0.89,0.0
12.409,-0.649,-0.822,1.0
11.703,-0.612,-0.836,0.0
11.104,-0.581,-0.852,0.0
10.549,-0.552,-0.866,0.0
9.988,-0.523,-0.872,1.0
9.567,-0.501,-0.886,0.0
12.64,-0.66,-0.816,0.0
11.924,-0.622,-0.832,0.0
11.307,-0.59,-0.849,0.0
10.709,-0.559,-0.861,0.0
10.185,-0.532,-0.872,0.0
9.752,-0.509,-0.887,1.0
12.908,-0.672,-0.812,1.0
12.149,-0.632,-0.827,0.0
11.491,-0.598,-0.843,0.0
10.898,-0.567,-0.858,0.0
10.363,-0.54,-0.87,0.0
9.828,-0.512,-0.877,2.0
13.158,-0.683,-0.805,1.0
12.379,-0.642,-0.822,1.0
11.691,-0.606,-0.838,0.0
11.111,-0.576,-0.856,0.0
10.557,-0.548,-0.868,0.0
9.967,-0.517,-0.872,1.0
13.427,-0.694,-0.799,1.0
12.632,-0.653,-0.818,1.0
11.901,-0.615,-0.833,0.0
11.283,-0.583,-0.85,0.0
10.71,-0.553,-0.863,0.0
10.186,-0.526,-0.874,0.0
13.687,-0.704,-0.791,1.0
12.892,-0.663,-0.812,1.0
12.146,-0.624,-0.829,0.0
11.491,-0.59,-0.845,0.0
10.912,-0.56,-0.86,0.0
10.373,-0.532,-0.872,0.0
13.991,-0.715,-0.784,1.0
13.17,-0.673,-0.807,0.0
12.389,-0.633,-0.824,0.0
11.707,-0.597,-0.841,0.0
11.112,-0.567,-0.856,0.0
10.557,-0.538,-0.869,0.0
14.329,-0.728,-0.779,1.0
13.436,-0.682,-0.8,0.0
12.624,-0.64,-0.818,1.0
11.919,-0.604,-0.835,0.0
11.3,-0.572,-0.851,0.0
10.726,-0.543,-0.864,0.0
14.663,-0.739,-0.771,1.0
13.711,-0.69,-0.792,1.0
12.91,-0.649,-0.813,0.0
12.156,-0.611,-0.831,0.0
11.511,-0.578,-0.847,0.0
10.93,-0.548,-0.861,0.0
15.028,-0.751,-0.764,1.0
14.001,-0.699,-0.785,1.0
13.197,-0.658,-0.808,0.0
12.4,-0.618,-0.826,0.0
11.715,-0.583,-0.841,0.0
11.112,-0.552,-0.856,0.0
15.414,-0.763,-0.757,1.0
14.339,-0.709,-0.778,1.0
13.457,-0.665,-0.801,1.0
12.632,-0.623,-0.819,1.0
11.931,-0.588,-0.836,0.0
11.316,-0.557,-0.852,0.0
15.815,-0.775,-0.748,1.0
14.706,-0.72,-0.773,1.0
13.727,-0.671,-0.793,1.0
12.911,-0.63,-0.814,0.0
12.177,-0.594,-0.831,0.0
11.531,-0.561,-0.847,0.0
16.236,-0.787,-0.74,1.0
15.077,-0.73,-0.765,1.0
14.041,-0.678,-0.786,1.0
13.201,-0.637,-0.809,0.0
12.421,-0.598,-0.826,0.0
11.723,-0.564,-0.841,0.0
16.718,-0.801,-0.732,1.0
15.469,-0.739,-0.758,1.0
14.393,-0.687,-0.78,1.0
13.47,-0.641,-0.802,1.0
12.668,-0.602,-0.82,0.0
11.97,-0.568,-0.837,0.0
17.212,-0.814,-0.724,1.0
15.834,-0.747,-0.748,1.0
14.726,-0.693,-0.772,1.0
13.746,-0.646,-0.794,1.0
12.944,-0.607,-0.815,0.0
12.197,-0.571,-0.831,0.0
17.705,-0.825,-0.713,1.0
16.302,-0.758,-0.741,1.0
15.117,-0.701,-0.766,1.0
14.058,-0.651,-0.787,1.0
13.234,-0.611,-0.81,1.0
12.456,-0.574,-0.827,0.0
18.185,-0.834,-0.7,1.0
16.778,-0.768,-0.733,1.0
15.48,-0.707,-0.757,1.0
14.387,-0.655,-0.78,1.0
13.52,-0.614,-0.803,1.0
12.692,-0.575,-0.82,1.0
18.725,-0.845,-0.688,1.0
17.254,-0.777,-0.724,1.0
15.873,-0.713,-0.748,1.0
14.747,-0.66,-0.774,1.0
13.791,-0.616,-0.795,1.0
12.966,-0.578,-0.815,0.0
19.315,-0.857,-0.676,1.0
17.729,-0.784,-0.713,1.0
16.326,-0.72,-0.741,1.0
15.127,-0.665,-0.767,1.0
14.097,-0.618,-0.788,1.0
13.257,-0.579,-0.81,1.0
19.898,-0.866,-0.662,1.0
18.25,-0.792,-0.702,1.0
16.779,-0.726,-0.732,1.0
15.532,-0.67,-0.76,1.0
14.424,-0.62,-0.781,1.0
13.534,-0.58,-0.804,1.0
20.57,-0.877,-0.648,1.0
18.793,-0.799,-0.69,1.0
17.278,-0.732,-0.724,1.0
15.89,-0.671,-0.75,1.0
14.784,-0.622,-0.775,1.0
13.825,-0.58,-0.797,0.0
21.299,-0.889,-0.635,1.0
19.386,-0.806,-0.678,1.0
17.773,-0.737,-0.714,1.0
16.331,-0.674,-0.743,1.0
15.169,-0.624,-0.769,1.0
14.103,-0.578,-0.788,1.0
22.092,-0.901,-0.62,1.0
19.965,-0.812,-0.664,1.0
18.264,-0.739,-0.702,1.0
16.779,-0.676,-0.734,1.0
15.525,-0.623,-0.76,1.0
14.451,-0.578,-0.783,1.0
22.9,-0.912,-0.603,1.0
20.601,-0.817,-0.649,1.0
18.809,-0.742,-0.691,1.0
17.279,-0.679,-0.726,1.0
15.901,-0.622,-0.751,1.0
14.799,-0.577,-0.776,1.0
23.645,-0.917,-0.582,1.0
21.385,-0.826,-0.637,1.0
19.37,-0.744,-0.678,1.0
17.771,-0.68,-0.716,1.0
16.316,-0.621,-0.743,1.0
15.179,-0.575,-0.77,1.0
24.711,-0.932,-0.566,1.0
22.072,-0.828,-0.62,1.0
19.953,-0.745,-0.665,1.0
18.25,-0.678,-0.705,1.0
16.817,-0.622,-0.737,1.0
15.504,-0.571,-0.76,1.0
25.576,-0.937,-0.543,1.0
22.917,-0.835,-0.605,1.0
20.595,-0.746,-0.651,1.0
18.753,-0.676,-0.692,1.0
17.275,-0.619,-0.728,1.0
15.899,-0.567,-0.753,1.0
26.495,-0.94,-0.517,1.0
23.675,-0.835,-0.585,1.0
21.285,-0.747,-0.637,1.0
19.302,-0.673,-0.68,1.0
17.744,-0.615,-0.718,1.0
16.307,-0.562,-0.745,1.0
27.335,-0.938,-0.488,2.0
24.671,-0.841,-0.569,1.0
22.022,-0.746,-0.623,1.0
19.9,-0.67,-0.669,1.0
18.207,-0.61,-0.707,1.0
16.77,-0.558,-0.738,1.0
28.543,-0.945,-0.463,2.0
25.515,-0.839,-0.547,1.0
22.841,-0.746,-0.609,1.0
20.484,-0.665,-0.655,1.0
18.704,-0.603,-0.695,2.0
17.25,-0.553,-0.731,1.0
29.568,-0.942,-0.431,1.0
26.393,-0.835,-0.522,1.0
23.566,-0.74,-0.59,1.0
21.165,-0.66,-0.642,1.0
19.245,-0.596,-0.684,1.0
17.671,-0.544,-0.72,1.0
30.676,-0.938,-0.398,1.0
27.256,-0.827,-0.496,1.0
24.463,-0.737,-0.572,1.0
21.85,-0.653,-0.627,1.0
19.826,-0.588,-0.672,1.0
18.128,-0.534,-0.71,1.0
32.439,-0.949,-0.368,1.0
28.345,-0.822,-0.47,1.0
25.361,-0.73,-0.553,1.0
22.679,-0.647,-0.615,1.0
20.445,-0.579,-0.661,2.0
18.581,-0.522,-0.698,1.0
35.043,-0.977,-0.342,0.0
29.385,-0.813,-0.441,1.0
26.133,-0.716,-0.528,1.0
23.376,-0.635,-0.597,1.0
20.879,-0.563,-0.642,3.0
19.123,-0.511,-0.688,1.0
40.042,-1.062,-0.329,3.0
30.322,-0.797,-0.408,1.0
27.04,-0.704,-0.505,1.0
24.062,-0.621,-0.577,1.0
21.722,-0.555,-0.635,1.0
19.669,-0.498,-0.678,1.0
40.711,-1.022,-0.272,10.0
31.904,-0.793,-0.38,1.0
27.585,-0.678,-0.472,5.0
25.048,-0.61,-0.562,1.0
22.413,-0.54,-0.621,1.0
20.21,-0.482,-0.666,1.0
40.298,-0.953,-0.207,150.0
33.572,-0.785,-0.348,1.0
29.025,-0.671,-0.452,1.0
25.855,-0.591,-0.541,1.0
23.119,-0.523,-0.605,1.0
20.811,-0.465,-0.654,1.0
0.0,0.0,0.0,0.0
35.726,-0.782,-0.317,0.0
29.897,-0.647,-0.422,1.0
26.591,-0.568,-0.517,1.0
23.819,-0.503,-0.588,1.0
21.448,-0.447,-0.642,1.0
53.824,-1.111,-0.116,0.0
40.157,-0.818,-0.297,4.0
31.018,-0.624,-0.392,1.0
27.435,-0.544,-0.493,1.0
24.668,-0.483,-0.573,1.0
22.074,-0.426,-0.628,1.0
40.312,-0.769,-0.028,57.0
40.293,-0.758,-0.239,13.0
32.717,-0.607,-0.366,1.0
28.417,-0.52,-0.47,1.0
25.419,-0.458,-0.554,1.0
22.748,-0.404,-0.615,1.0
40.305,-0.706,0.029,62.0
40.323,-0.695,-0.182,36.0
34.228,-0.581,-0.334,1.0
29.295,-0.49,-0.443,2.0
26.217,-0.431,-0.534,1.0
23.385,-0.378,-0.6,2.0
248.383,-3.958,0.529,90.0
50.354,-0.788,-0.157,0.0
36.439,-0.56,-0.305,0.0
30.121,-0.455,-0.414,1.0
26.937,-0.399,-0.512,1.0
24.058,-0.35,-0.584,2.0
0.0,0.0,0.0,0.0
53.771,-0.754,-0.094,2.0
42.204,-0.58,-0.296,1.0
31.233,-0.42,-0.386,1.0
27.78,-0.366,-0.49,1.0
24.889,-0.321,-0.57,1.0
78.065,-0.987,0.38,3.0
60.802,-0.751,-0.023,5.0
42.718,-0.516,-0.242,3.0
32.501,-0.383,-0.358,1.0
28.675,-0.329,-0.467,2.0
25.472,-0.285,-0.549,1.0
78.329,-0.858,0.486,22.0
58.086,-0.62,0.053,4.0
50.855,-0.528,-0.221,3.0
34.041,-0.344,-0.331,1.0
29.455,-0.289,-0.442,3.0
26.247,-0.25,-0.532,3.0
79.205,-0.734,0.593,60.0
60.466,-0.542,0.133,3.0
47.417,-0.412,-0.145,4.0
36.872,-0.309,-0.311,0.0
30.24,-0.245,-0.415,1.0
26.972,-0.211,-0.513,3.0
79.465,-0.6,0.695,151.0
61.218,-0.443,0.213,17.0
45.252,-0.314,-0.081,3.0
39.61,-0.264,-0.285,6.0
31.212,-0.198,-0.39,1.0
27.706,-0.168,-0.492,1.0
79.456,-0.461,0.794,174.0
76.648,-0.421,0.36,8.0
47.032,-0.245,-0.027,22.0
39.519,-0.194,-0.236,6.0
32.632,-0.15,-0.368,1.0
28.556,-0.123,-0.473,1.0
79.463,-0.32,0.89,151.0
76.586,-0.285,0.452,17.0
51.405,-0.176,0.031,6.0
40.212,-0.125,-0.192,16.0
33.542,-0.094,-0.338,1.0
29.3,-0.073,-0.451,2.0
79.466,-0.176,0.984,151.0
79.26,-0.151,0.561,25.0
0.0,0.0,0.0,0.0
40.689,-0.053,-0.147,17.0
37.861,-0.038,-0.338,1.0
29.895,-0.021,-0.426,2.0
79.461,-0.032,1.075,151.0
79.417,-0.008,0.653,144.0
56.004,0.01,0.162,7.0
43.881,0.021,-0.11,14.0
38.264,0.03,-0.299,5.0
30.683,0.033,-0.403,1.0
79.469,0.111,1.163,151.0
79.446,0.136,0.74,150.0
59.13,0.12,0.237,8.0
0.0,0.0,0.0,0.0
38.4,0.102,-0.258,13.0
31.561,0.093,-0.38,1.0
79.452,0.26,1.25,157.0
79.437,0.284,0.826,150.0
59.36,0.23,0.301,52.0
46.905,0.197,-0.015,29.0
38.628,0.174,-0.218,34.0
32.77,0.158,-0.36,1.0
48.211,0.249,0.809,38.0
48.224,0.264,0.552,40.0
48.197,0.278,0.295,39.0
47.869,0.292,0.033,52.0
39.044,0.25,-0.181,48.0
33.472,0.225,-0.333,0.0
48.106,0.338,0.856,108.0
48.083,0.354,0.599,103.0
48.053,0.368,0.342,99.0
47.987,0.383,0.081,69.0
39.478,0.327,-0.144,37.0
37.384,0.322,-0.336,2.0
48.11,0.431,0.904,113.0
48.092,0.446,0.647,110.0
48.066,0.461,0.389,97.0
48.008,0.476,0.127,78.0
43.788,0.447,-0.117,5.0
37.342,0.393,-0.3,6.0
48.155,0.524,0.951,78.0
48.124,0.538,0.692,74.0
48.102,0.553,0.434,88.0
48.032,0.567,0.172,80.0
44.518,0.54,-0.079,18.0
37.569,0.468,-0.267,13.0
55.129,0.707,1.139,1.0
127.093,1.669,1.945,34.0
89.738,1.207,0.892,6.0
48.156,0.662,0.215,20.0
0.0,0.0,0.0,0.0
37.746,0.543,-0.235,34.0
190.072,2.805,4.094,26.0
127.472,1.923,2.062,32.0
94.371,1.452,1.019,5.0
61.906,0.972,0.33,18.0
47.13,0.755,-0.001,40.0
37.954,0.62,-0.205,45.0
190.1,3.178,4.255,6.0
127.787,2.177,2.173,29.0
121.103,2.1,1.408,15.0
74.859,1.321,0.46,16.0
47.927,0.86,0.036,21.0
38.5,0.704,-0.177,39.0
128.09,2.391,2.969,28.0
128.03,2.43,2.278,23.0
120.969,2.334,1.502,5.0
75.0,1.472,0.52,15.0
52.032,1.038,0.081,9.0
39.184,0.794,-0.15,41.0
128.116,2.648,3.07,53.0
106.209,2.23,1.973,15.0
89.89,1.915,1.185,8.0
77.827,1.682,0.598,17.0
52.435,1.15,0.12,7.0
39.563,0.881,-0.122,33.0
170.49,3.863,4.21,4.0
0.0,0.0,0.0,0.0
106.218,2.475,1.477,6.0
77.914,1.841,0.655,37.0
54.691,1.309,0.164,8.0
42.698,1.035,-0.101,4.0
100.332,2.475,2.548,14.0
100.34,2.505,2.005,45.0
100.326,2.538,1.463,14.0
78.085,2.0,0.709,33.0
0.0,0.0,0.0,0.0
0.0,0.0,0.0,0.0
154.078,4.111,4.015,21.0
0.0,0.0,0.0,0.0
0.0,0.0,0.0,0.0
78.277,2.162,0.761,19.0
59.186,1.654,0.255,32.0
0.0,0.0,0.0,0.0
154.104,4.422,4.112,37.0
0.0,0.0,0.0,0.0
0.0,0.0,0.0,0.0
78.69,2.332,0.812,9.0
59.678,1.788,0.293,33.0
47.049,1.425,-0.023,23.0
158.567,4.872,4.325,7.0
0.0,0.0,0.0,0.0
0.0,0.0,0.0,0.0
79.812,2.527,0.869,5.0
60.252,1.927,0.329,22.0
47.631,1.538,0.001,22.0
158.988,5.204,4.423,5.0
0.0,0.0,0.0,0.0
0.0,0.0,0.0,0.0
93.401,3.146,1.066,5.0
73.976,2.514,0.442,10.0
47.99,1.646,0.026,23.0
159.167,5.532,4.509,14.0
0.0,0.0,0.0,0.0
0.0,0.0,0.0,0.0
94.243,3.364,1.122,8.0
73.967,2.664,0.478,12.0
48.438,1.759,0.049,23.0
160.244,5.894,4.615,15.0
0.0,0.0,0.0,0.0
0.0,0.0,0.0,0.0
93.327,3.52,1.152,6.0
74.194,2.822,0.512,14.0
48.741,1.868,0.07,23.0
158.375,6.145,4.629,13.0
0.0,0.0,0.0,0.0
0.0,0.0,0.0,0.0
95.655,3.799,1.22,3.0
74.208,2.97,0.541,10.0
54.166,2.184,0.1,6.0
173.138,7.066,5.129,12.0
0.0,0.0,0.0,0.0
0.0,0.0,0.0,0.0
96.506,4.026,1.267,10.0
0.0,0.0,0.0,0.0
54.166,2.293,0.119,14.0
157.535,6.748,4.723,10.0
0.0,0.0,0.0,0.0
0.0,0.0,0.0,0.0
101.274,4.431,1.363,2.0
76.876,3.388,0.614,27.0
54.261,2.408,0.137,24.0
157.668,7.075,4.776,5.0
0.0,0.0,0.0,0.0
0.0,0.0,0.0,0.0
101.371,4.639,1.394,2.0
0.0,0.0,0.0,0.0
54.289,2.518,0.152,24.0
156.273,7.326,4.777,15.0
0.0,0.0,0.0,0.0
0.0,0.0,0.0,0.0
105.948,5.061,1.484,5.0
0.0,0.0,0.0,0.0
54.368,2.63,0.165,27.0
156.28,7.638,4.815,12.0
0.0,0.0,0.0,0.0
0.0,0.0,0.0,0.0
105.789,5.266,1.506,21.0
76.542,3.832,0.668,24.0
54.346,2.737,0.176,28.0
157.736,8.025,4.891,13.0
167.088,8.55,4.262,8.0
162.994,8.39,3.262,4.0
105.831,5.479,1.525,74.0
76.295,3.972,0.679,28.0
54.483,2.853,0.185,28.0
162.365,8.586,5.062,11.0
162.557,8.642,4.172,11.0
162.537,8.689,3.276,17.0
105.818,5.689,1.54,9.0
75.743,4.093,0.684,13.0
54.457,2.96,0.192,28.0
162.422,8.914,5.083,10.0
163.122,8.998,4.206,21.0
163.076,9.043,3.305,38.0
0.0,0.0,0.0,0.0
75.943,4.255,0.694,22.0
54.502,3.07,0.197,28.0
162.385,9.231,5.096,10.0
157.465,8.999,4.072,6.0
163.732,9.402,3.329,4.0
0.0,0.0,0.0,0.0
75.74,4.393,0.696,14.0
54.743,3.191,0.201,29.0
162.148,9.538,5.096,7.0
157.226,9.292,4.072,6.0
164.266,9.753,3.346,4.0
147.894,8.824,2.18,13.0
75.572,4.53,0.696,23.0
54.796,3.301,0.202,28.0
33.413,2.03,1.05,1.0
33.456,2.043,0.866,5.0
33.449,2.051,0.681,118.0
33.419,2.059,0.492,173.0
33.468,2.071,0.307,155.0
33.444,2.08,0.122,23.0
158.066,9.915,4.965,12.0
157.934,9.949,4.085,20.0
139.652,8.838,2.838,13.0
139.648,8.876,2.05,9.0
74.925,4.784,0.685,18.0
54.532,3.497,0.196,28.0
158.18,10.229,4.957,38.0
28.68,1.862,0.739,6.0
139.702,9.11,2.827,22.0
139.575,9.141,2.036,83.0
74.412,4.894,0.673,15.0
48.168,3.181,0.168,2.0
28.622,1.906,0.893,3.0
28.594,1.912,0.734,15.0
139.667,9.376,2.81,17.0
113.803,7.669,1.646,9.0
74.249,5.025,0.661,22.0
54.267,3.687,0.182,26.0
28.54,1.955,0.887,15.0
28.484,1.958,0.727,164.0
28.584,1.973,0.57,18.0
28.634,1.984,0.409,18.0
28.703,1.997,0.251,5.0
54.16,3.782,0.172,22.0
28.44,2.001,0.879,194.0
28.463,2.01,0.721,166.0
28.503,2.02,0.563,34.0
28.522,2.029,0.402,32.0
28.61,2.044,0.244,19.0
28.723,2.059,0.085,14.0
28.466,2.056,0.873,38.0
28.487,2.065,0.715,159.0
28.495,2.073,0.557,55.0
28.481,2.08,0.394,37.0
28.548,2.092,0.236,21.0
28.682,2.109,0.078,19.0
28.45,2.108,0.866,32.0
28.502,2.119,0.708,152.0
28.481,2.124,0.549,58.0
28.491,2.132,0.387,49.0
28.504,2.14,0.228,30.0
28.664,2.16,0.069,28.0
28.435,2.159,0.857,36.0
28.474,2.168,0.699,69.0
28.467,2.175,0.54,60.0
28.473,2.183,0.378,50.0
28.475,2.19,0.219,37.0
28.685,2.214,0.06,26.0
28.443,2.211,0.848,27.0
28.473,2.22,0.689,58.0
28.467,2.226,0.53,59.0
28.471,2.234,0.368,55.0
28.471,2.241,0.209,38.0
28.638,2.261,0.05,36.0
28.476,2.264,0.839,38.0
28.475,2.27,0.679,48.0
28.473,2.277,0.52,54.0
28.47,2.284,0.358,53.0
28.504,2.293,0.198,36.0
28.607,2.309,0.039,25.0
28.52,2.318,0.829,153.0
28.486,2.322,0.668,48.0
28.515,2.33,0.509,44.0
28.483,2.335,0.346,46.0
28.57,2.349,0.187,29.0
28.595,2.358,0.027,27.0
28.543,2.369,0.817,154.0
28.486,2.371,0.656,37.0
28.52,2.38,0.497,49.0
28.514,2.386,0.334,28.0
28.673,2.407,0.175,5.0
28.604,2.408,0.014,19.0
28.584,2.422,0.805,154.0
34.253,2.91,0.772,53.0
28.605,2.436,0.484,37.0
28.632,2.445,0.321,6.0
34.294,2.937,0.192,2.0
34.289,2.945,0.0,47.0
28.628,2.474,0.792,28.0
120.591,10.449,2.66,22.0
34.173,2.968,0.561,6.0
74.544,6.492,0.798,11.0
54.582,4.766,0.278,28.0
41.268,3.613,-0.021,44.0
28.717,2.529,0.779,4.0
120.656,10.654,2.597,52.0
34.138,3.021,0.543,3.0
74.48,6.609,0.757,12.0
53.599,4.768,0.243,27.0
41.081,3.664,-0.044,38.0
115.73,10.385,3.077,9.0
115.729,10.408,2.426,9.0
34.112,3.075,0.522,0.0
65.404,5.91,0.627,8.0
13.867,1.256,0.055,6.0
13.883,1.26,-0.023,13.0
13.856,1.265,0.36,6.0
13.856,1.268,0.282,8.0
13.862,1.271,0.204,11.0
13.856,1.274,0.124,14.0
13.851,1.276,0.046,23.0
13.853,1.28,-0.031,26.0
13.85,1.286,0.351,31.0
13.832,1.287,0.272,26.0
13.836,1.291,0.194,26.0
13.836,1.294,0.115,32.0
13.842,1.297,0.037,32.0
13.826,1.299,-0.04,30.0
13.83,1.306,0.342,35.0
13.82,1.308,0.263,37.0
13.815,1.31,0.185,35.0
13.812,1.312,0.105,38.0
13.819,1.316,0.028,35.0
13.808,1.318,-0.049,34.0
13.81,1.325,0.331,37.0
13.808,1.327,0.253,58.0
13.79,1.328,0.175,39.0
13.803,1.332,0.096,52.0
13.799,1.335,0.018,38.0
13.798,1.338,-0.059,36.0
13.79,1.343,0.321,39.0
13.79,1.346,0.243,104.0
13.786,1.348,0.165,99.0
13.792,1.352,0.086,65.0
13.794,1.354,0.008,41.0
13.785,1.356,-0.069,36.0
13.78,1.363,0.311,40.0
13.786,1.366,0.233,129.0
13.784,1.368,0.155,110.0
13.776,1.37,0.075,86.0
13.787,1.374,-0.002,80.0
13.783,1.376,-0.08,34.0
13.774,1.381,0.3,43.0
13.778,1.384,0.222,139.0
13.782,1.387,0.144,124.0
13.78,1.39,0.064,107.0
13.785,1.392,-0.013,74.0
13.762,1.393,-0.091,35.0
13.767,1.4,0.289,75.0
13.768,1.402,0.211,147.0
13.781,1.406,0.133,128.0
13.776,1.408,0.053,87.0
13.775,1.41,-0.024,45.0
13.762,1.411,-0.102,37.0
13.763,1.418,0.278,47.0
13.769,1.42,0.199,131.0
13.77,1.423,0.121,116.0
13.777,1.426,0.042,63.0
13.766,1.427,-0.035,39.0
13.761,1.429,-0.113,35.0
13.776,1.437,0.266,38.0
13.778,1.439,0.188,95.0
13.785,1.442,0.11,143.0
13.777,1.444,0.03,45.0
13.775,1.446,-0.047,37.0
13.77,1.448,-0.125,34.0
13.784,1.455,0.254,39.0
