X,Y,Z,Reflectivity
76.111,-0.02,0.403,14.0
47.599,-0.014,0.002,21.0
39.56,-0.013,-0.201,25.0
33.629,-0.012,-0.344,1.0
79.44,-0.032,1.407,163.0
79.459,-0.035,1.0,157.0
79.281,-0.037,0.589,29.0
55.591,-0.027,0.122,29.0
0.0,0.0,0.0,0.0
38.439,-0.021,-0.311,3.0
79.456,-0.046,1.577,151.0
79.458,-0.048,1.168,156.0
79.467,-0.05,0.759,151.0
61.754,-0.04,0.266,11.0
45.882,-0.03,-0.037,19.0
39.199,-0.026,-0.233,14.0
79.451,-0.057,1.748,151.0
79.451,-0.058,1.339,169.0
79.464,-0.06,0.931,158.0
79.197,-0.06,0.514,10.0
0.0,0.0,0.0,0.0
40.591,-0.032,-0.154,16.0
79.439,-0.065,1.919,151.0
79.442,-0.066,1.511,172.0
79.458,-0.066,1.102,156.0
79.422,-0.067,0.685,150.0
61.651,-0.052,0.215,14.0
44.923,-0.038,-0.073,22.0
79.43,-0.07,2.09,150.0
79.457,-0.07,1.682,151.0
79.45,-0.07,1.274,158.0
79.456,-0.07,0.858,152.0
76.259,-0.067,0.432,18.0
48.395,-0.042,0.025,5.0
79.437,-0.072,2.263,150.0
79.445,-0.072,1.854,151.0
79.443,-0.071,1.444,176.0
79.454,-0.07,1.028,152.0
79.399,-0.07,0.619,132.0
56.131,-0.048,0.149,17.0
79.431,-0.071,2.432,150.0
79.432,-0.07,2.024,150.0
79.446,-0.069,1.615,152.0
79.456,-0.068,1.199,152.0
79.465,-0.066,0.79,151.0
76.101,-0.062,0.366,15.0
79.424,-0.067,2.603,150.0
79.431,-0.066,2.193,150.0
79.441,-0.064,1.785,151.0
79.441,-0.062,1.368,164.0
79.462,-0.06,0.959,153.0
79.301,-0.058,0.548,23.0
79.438,-0.06,2.772,151.0
79.43,-0.058,2.363,150.0
79.431,-0.056,1.954,150.0
79.44,-0.053,1.536,154.0
79.46,-0.051,1.128,152.0
79.444,-0.048,0.719,150.0
79.445,-0.05,2.941,151.0
79.429,-0.048,2.53,150.0
79.425,-0.045,2.122,150.0
79.448,-0.042,1.704,151.0
79.449,-0.039,1.296,160.0
79.471,-0.036,0.887,151.0
79.409,-0.038,3.109,150.0
79.429,-0.034,2.7,150.0
79.431,-0.031,2.29,150.0
79.42,-0.027,1.873,150.0
79.452,-0.023,1.463,163.0
79.458,-0.02,1.054,151.0
59.443,-0.016,2.452,94.0
79.445,-0.018,2.866,151.0
79.434,-0.014,2.457,150.0
79.427,-0.01,2.038,150.0
79.46,-0.006,1.63,151.0
79.452,-0.001,1.22,151.0
59.454,-0.002,2.578,98.0
79.427,0.0,3.034,150.0
79.432,0.005,2.622,150.0
79.434,0.01,2.205,150.0
79.435,0.015,1.796,150.0
79.454,0.02,1.387,159.0
59.444,0.013,2.702,108.0
59.432,0.017,2.394,94.0
79.437,0.028,2.789,151.0
79.439,0.033,2.371,150.0
79.434,0.038,1.961,150.0
79.451,0.044,1.552,151.0
59.451,0.032,2.825,107.0
59.433,0.036,2.517,97.0
79.433,0.053,2.953,151.0
79.428,0.059,2.535,150.0
79.427,0.065,2.124,150.0
79.439,0.071,1.715,150.0
59.442,0.052,2.948,99.0
59.444,0.057,2.639,97.0
79.411,0.082,3.116,137.0
79.439,0.088,2.697,151.0
79.439,0.094,2.286,150.0
79.434,0.101,1.876,150.0
77.402,0.097,3.996,58.0
79.258,0.106,3.68,150.0
59.432,0.084,2.452,81.0
79.449,0.12,2.86,151.0
79.433,0.127,2.448,150.0
79.438,0.134,2.038,150.0
77.384,0.13,4.154,77.0
91.686,0.162,4.445,39.0
82.809,0.154,3.586,36.0
79.422,0.155,3.02,150.0
79.441,0.162,2.61,150.0
79.439,0.17,2.198,150.0
63.163,0.135,3.519,16.0
77.335,0.172,3.906,49.0
79.406,0.184,3.599,150.0
79.417,0.193,3.18,99.0
79.447,0.201,2.77,151.0
79.433,0.208,2.357,150.0
48.27,0.126,2.785,49.0
77.358,0.211,4.063,18.0
79.23,0.224,3.749,150.0
86.011,0.252,3.614,25.0
79.443,0.241,2.926,151.0
79.434,0.25,2.514,150.0
48.224,0.151,2.879,73.0
48.23,0.156,2.628,60.0
62.587,0.21,3.085,12.0
79.519,0.276,3.499,18.0
79.418,0.284,3.083,150.0
79.437,0.294,2.671,150.0
48.175,0.178,2.972,101.0
48.188,0.184,2.721,100.0
48.184,0.189,2.471,77.0
48.207,0.195,2.216,63.0
48.224,0.201,1.966,44.0
59.302,0.254,2.11,9.0
48.129,0.206,3.063,111.0
48.161,0.212,2.814,103.0
48.165,0.218,2.563,106.0
48.155,0.224,2.307,83.0
48.175,0.23,2.057,72.0
48.181,0.236,1.807,73.0
48.119,0.236,3.156,113.0
48.153,0.243,2.907,110.0
48.162,0.249,2.656,110.0
48.13,0.255,2.398,95.0
48.146,0.261,2.148,88.0
48.151,0.268,1.898,83.0
48.109,0.268,3.248,105.0
48.153,0.275,2.998,108.0
48.165,0.281,2.748,111.0
48.119,0.288,2.489,109.0
48.131,0.294,2.238,103.0
48.138,0.3,1.987,92.0
48.138,0.302,3.341,59.0
48.148,0.308,3.088,107.0
48.169,0.315,2.838,116.0
48.161,0.321,2.581,126.0
48.13,0.328,2.327,105.0
48.132,0.335,2.076,100.0
48.249,0.337,3.438,61.0
48.151,0.343,3.178,93.0
48.171,0.35,2.927,87.0
48.144,0.357,2.669,106.0
48.137,0.364,2.417,111.0
48.137,0.371,2.166,106.0
48.304,0.374,3.531,80.0
48.21,0.38,3.271,45.0
48.219,0.387,3.018,76.0
48.195,0.395,2.759,72.0
48.157,0.401,2.505,78.0
48.152,0.409,2.253,99.0
48.369,0.412,3.623,75.0
55.743,0.484,3.883,10.0
54.923,0.485,3.537,14.0
59.369,0.534,3.506,20.0
59.412,0.543,3.197,8.0
48.213,0.448,2.341,66.0
48.413,0.452,3.714,104.0
55.785,0.53,3.986,15.0
75.401,0.728,4.989,21.0
54.91,0.539,3.339,103.0
59.375,0.592,3.299,112.0
59.386,0.602,2.988,118.0
48.421,0.493,3.799,112.0
56.085,0.58,4.104,22.0
55.76,0.586,3.786,15.0
77.824,0.83,4.867,28.0
59.358,0.643,3.4,45.0
59.38,0.653,3.09,62.0
48.446,0.535,3.885,97.0
56.113,0.629,4.203,50.0
55.816,0.635,3.887,38.0
99.446,1.149,6.39,25.0
54.959,0.644,3.242,102.0
55.061,0.655,2.958,50.0
48.478,0.579,3.97,81.0
56.126,0.681,4.3,89.0
55.943,0.688,3.99,24.0
91.32,1.138,6.02,5.0
54.98,0.694,3.334,64.0
54.999,0.704,3.045,72.0
56.201,0.723,4.696,68.0
61.646,0.804,4.824,15.0
64.143,0.848,4.68,62.0
64.144,0.859,4.333,27.0
91.743,1.245,5.713,44.0
54.975,0.755,3.132,110.0
56.19,0.776,4.786,67.0
64.455,0.902,5.148,29.0
64.178,0.909,4.785,32.0
64.14,0.92,4.436,46.0
64.043,0.931,4.091,70.0
54.979,0.808,3.221,104.0
39.89,0.59,3.462,65.0
76.472,1.145,6.23,7.0
91.771,1.391,6.989,30.0
91.675,1.406,6.485,47.0
91.817,1.425,6.008,37.0
63.671,1.0,3.83,24.0
39.882,0.63,3.524,45.0
39.895,0.637,3.312,31.0
78.045,1.261,6.065,11.0
89.304,1.46,6.457,2.0
91.807,1.518,6.15,12.0
76.411,1.278,4.713,11.0
39.976,0.672,3.594,11.0
39.876,0.678,3.372,75.0
77.1,1.325,6.109,54.0
77.316,1.344,5.707,47.0
77.272,1.358,5.292,45.0
62.374,1.108,3.941,66.0
40.051,0.716,3.662,42.0
39.925,0.721,3.436,59.0
53.285,0.972,4.301,69.0
53.346,0.984,4.017,62.0
76.346,1.423,5.342,43.0
62.307,1.174,4.028,71.0
40.065,0.759,3.722,70.0
40.059,0.766,3.507,44.0
40.044,0.774,3.291,60.0
77.004,1.504,5.909,45.0
74.334,1.466,5.308,41.0
62.264,1.24,4.115,83.0
40.082,0.803,3.781,33.0
40.141,0.812,3.571,41.0
39.971,0.817,3.342,60.0
77.25,1.595,6.038,8.0
74.234,1.547,5.406,29.0
62.255,1.31,4.201,27.0
40.011,0.847,3.831,52.0
39.997,0.854,3.614,68.0
39.949,0.861,3.396,52.0
53.91,1.173,4.288,30.0
53.602,1.177,3.977,57.0
53.895,1.195,3.71,24.0
40.188,0.897,3.903,37.0
40.104,0.903,3.679,47.0
40.149,0.912,3.467,62.0
53.888,1.235,4.359,89.0
53.849,1.245,4.067,78.0
53.658,1.251,3.765,69.0
40.304,0.946,3.968,56.0
40.25,0.952,3.745,23.0
40.15,0.958,3.519,53.0
61.358,1.476,5.042,23.0
53.388,1.295,4.1,46.0
62.138,1.521,4.439,15.0
40.538,0.999,4.043,51.0
66.863,1.661,6.307,16.0
40.255,1.008,3.58,66.0
67.537,1.705,5.635,20.0
61.468,1.564,4.798,24.0
61.661,1.582,4.482,14.0
49.248,1.272,4.973,13.0
56.774,1.478,5.426,13.0
56.733,1.489,5.115,10.0
56.702,1.5,4.801,39.0
56.609,1.509,4.488,81.0
63.728,1.713,4.711,11.0
49.329,1.335,5.042,6.0
40.673,1.109,3.937,72.0
42.965,1.18,3.926,44.0
40.251,1.114,3.456,60.0
56.619,1.58,4.556,70.0
73.68,2.071,5.532,11.0
41.003,1.16,4.24,55.0
40.556,1.156,3.973,42.0
42.973,1.233,3.976,9.0
40.248,1.164,3.502,61.0
62.882,1.832,5.132,87.0
61.442,1.803,4.683,9.0
41.021,1.212,4.288,71.0
40.876,1.216,4.05,49.0
42.951,1.286,4.023,41.0
40.347,1.217,3.555,46.0
55.846,1.696,4.619,7.0
55.814,1.707,4.314,93.0
42.122,1.297,4.449,18.0
40.894,1.267,4.096,36.0
42.74,1.333,4.048,24.0
40.311,1.266,3.595,54.0
61.158,1.935,5.123,18.0
55.81,1.777,4.372,85.0
38.283,1.227,4.084,49.0
0.0,0.0,0.0,0.0
63.646,2.068,6.095,8.0
40.285,1.317,3.634,46.0
55.934,1.84,4.742,58.0
74.114,2.454,5.881,32.0
38.283,1.276,4.123,69.0
0.0,0.0,0.0,0.0
42.612,1.439,4.122,28.0
60.958,2.071,5.559,80.0
56.025,1.915,4.804,67.0
71.919,2.474,5.776,31.0
38.4,1.33,4.172,57.0
41.371,1.441,4.268,28.0
42.674,1.496,4.169,6.0
67.726,2.389,6.241,30.0
56.054,1.989,4.859,51.0
62.195,2.22,5.052,51.0
38.387,1.379,4.207,60.0
41.68,1.506,4.338,28.0
42.569,1.547,4.197,6.0
42.626,1.558,3.965,2.0
62.173,2.286,5.444,21.0
62.192,2.3,5.106,21.0
38.491,1.434,4.252,29.0
41.647,1.56,4.371,17.0
61.93,2.333,6.16,85.0
55.911,2.118,5.249,76.0
67.975,2.589,6.009,17.0
64.651,2.476,5.362,7.0
38.364,1.48,4.27,56.0
41.446,1.607,4.385,30.0
56.363,2.198,5.653,16.0
62.177,2.437,5.888,2.0
67.983,2.68,6.065,21.0
53.342,2.114,4.467,58.0
37.758,1.506,4.233,64.0
41.109,1.649,4.381,48.0
53.071,2.14,5.364,19.0
41.202,1.67,3.933,3.0
53.231,2.169,4.79,83.0
53.669,2.198,4.534,27.0
38.031,1.569,4.292,59.0
41.651,1.726,4.47,17.0
41.452,1.727,4.22,16.0
41.297,1.729,3.972,5.0
53.233,2.239,4.828,6.0
54.435,2.301,4.637,66.0
37.81,1.61,4.293,46.0
42.262,1.807,4.565,21.0
41.505,1.784,4.254,25.0
41.296,1.783,4.0,44.0
54.342,2.358,4.964,27.0
67.832,2.958,5.824,8.0
37.577,1.65,4.292,31.0
50.062,2.208,5.44,8.0
41.525,1.84,4.282,18.0
41.34,1.841,4.031,48.0
54.222,2.425,4.988,54.0
0.0,0.0,0.0,0.0
41.213,1.865,4.733,1.0
42.048,1.911,4.595,17.0
52.928,2.417,5.49,9.0
41.34,1.896,4.055,39.0
68.058,3.136,6.3,43.0
64.982,3.007,5.656,9.0
41.531,1.935,4.793,7.0
0.0,0.0,0.0,0.0
52.931,2.488,5.52,16.0
41.454,1.957,4.088,48.0
61.973,2.938,5.77,5.0
55.564,2.645,4.866,3.0
42.076,2.017,4.878,17.0
41.813,2.013,4.614,16.0
41.841,2.022,4.384,12.0
54.738,2.657,5.427,10.0
0.0,0.0,0.0,0.0
64.667,3.165,5.694,14.0
41.693,2.055,4.854,41.0
54.267,2.685,6.015,6.0
41.652,2.069,4.384,20.0
41.394,2.065,4.122,57.0
53.989,2.704,5.077,6.0
0.0,0.0,0.0,0.0
41.713,2.112,4.874,45.0
41.863,2.128,4.657,36.0
41.623,2.124,4.398,35.0
63.475,3.252,6.348,17.0
63.055,3.242,5.955,37.0
0.0,0.0,0.0,0.0
42.039,2.185,4.929,49.0
41.859,2.184,4.673,18.0
41.615,2.178,4.413,25.0
63.236,3.322,6.346,38.0
53.756,2.834,5.096,6.0
64.423,3.41,5.749,39.0
42.128,2.245,4.954,31.0
38.391,2.054,4.298,43.0
41.4,2.222,4.404,40.0
53.242,2.868,5.36,22.0
41.377,2.237,3.935,19.0
64.145,3.48,5.743,24.0
41.62,2.274,4.906,9.0
38.309,2.1,4.301,69.0
41.762,2.297,4.454,16.0
63.065,3.481,6.367,11.0
41.291,2.286,3.938,12.0
64.32,3.574,5.776,19.0
38.581,2.159,4.558,11.0
38.372,2.154,4.317,56.0
41.902,2.36,4.479,13.0
63.032,3.562,6.378,17.0
41.364,2.345,3.954,38.0
64.391,3.663,5.796,21.0
38.38,2.198,4.542,6.0
38.321,2.202,4.319,41.0
41.93,2.416,4.49,16.0
41.59,2.404,4.216,12.0
41.525,2.408,3.976,66.0
64.34,3.743,5.802,13.0
41.409,2.425,4.907,2.0
38.19,2.244,4.31,63.0
41.93,2.471,4.496,11.0
63.355,3.745,6.431,18.0
41.483,2.459,3.978,56.0
64.151,3.814,5.793,39.0
38.311,2.293,4.544,24.0
38.126,2.289,4.307,72.0
38.385,2.311,4.12,42.0
70.525,4.258,7.166,25.0
41.482,2.512,3.981,51.0
63.951,3.883,5.78,26.0
38.118,2.33,4.524,60.0
38.25,2.345,4.324,53.0
38.413,2.362,4.125,44.0
63.462,3.912,6.451,26.0
63.619,3.933,6.109,16.0
65.057,4.033,5.882,14.0
38.145,2.382,4.528,57.0
38.407,2.404,4.342,52.0
38.236,2.399,4.107,33.0
63.598,4.001,6.465,23.0
63.463,4.004,6.094,8.0
66.166,4.185,5.982,29.0
38.155,2.43,4.529,65.0
38.329,2.447,4.332,59.0
38.443,2.46,4.128,54.0
63.806,4.094,6.484,19.0
63.46,4.082,6.091,11.0
66.821,4.311,6.037,20.0
38.203,2.481,4.532,62.0
38.264,2.49,4.322,74.0
38.768,2.529,4.16,30.0
70.817,4.632,7.191,14.0
63.447,4.16,6.084,19.0
70.205,4.615,6.337,11.0
38.366,2.539,4.548,27.0
38.232,2.536,4.314,72.0
38.817,2.58,4.16,42.0
71.445,4.76,7.246,11.0
63.402,4.235,6.071,16.0
70.508,4.72,6.354,8.0
38.464,2.592,4.554,65.0
38.271,2.585,4.313,64.0
64.114,4.34,6.861,27.0
64.275,4.36,6.508,26.0
70.521,4.794,6.741,41.0
65.481,4.461,5.89,36.0
38.441,2.636,4.544,63.0
38.335,2.634,4.312,49.0
64.106,4.414,6.848,10.0
64.196,4.43,6.486,22.0
70.778,4.895,6.75,46.0
70.639,4.896,6.338,11.0
38.45,2.682,4.536,62.0
38.294,2.677,4.299,51.0
64.397,4.51,6.862,18.0
67.58,4.743,6.811,32.0
70.914,4.987,6.745,31.0
63.98,4.509,5.723,25.0
38.467,2.728,4.527,58.0
38.324,2.723,4.291,35.0
64.107,4.565,6.813,21.0
67.484,4.814,6.781,19.0
71.083,5.081,6.739,19.0
63.855,4.573,5.692,25.0
38.913,2.804,4.567,18.0
41.92,3.026,4.68,26.0
41.613,3.009,4.409,29.0
38.864,2.815,3.892,14.0
71.226,5.17,6.729,34.0
63.993,4.654,5.682,12.0
41.727,3.054,4.882,3.0
41.0,3.005,4.563,6.0
38.611,2.835,4.076,45.0
38.817,2.855,3.873,32.0
64.371,4.743,6.056,23.0
64.324,4.749,5.687,39.0
39.057,2.901,4.554,38.0
40.996,3.05,4.545,23.0
38.534,2.871,4.052,57.0
67.676,5.052,6.724,14.0
64.062,4.79,6.0,38.0
63.993,4.794,5.629,39.0
39.072,2.945,4.538,41.0
41.618,3.141,4.595,2.0
38.396,2.903,4.02,55.0
38.708,2.931,3.827,47.0
63.921,4.848,5.956,27.0
63.959,4.858,5.597,39.0
38.596,2.95,4.464,38.0
38.766,2.967,4.261,40.0
38.374,2.941,3.998,64.0
38.704,2.971,3.807,62.0
63.878,4.911,5.92,23.0
63.802,4.913,5.55,38.0
38.625,2.992,4.447,24.0
38.632,2.997,4.226,61.0
38.404,2.983,3.981,65.0
38.71,3.011,3.787,22.0
63.966,4.982,5.893,35.0
63.653,4.966,5.502,32.0
38.627,3.031,4.425,39.0
38.595,3.032,4.2,36.0
38.426,3.023,3.961,63.0
38.661,3.045,3.76,59.0
63.884,5.039,5.848,38.0
63.747,5.035,5.472,38.0
38.562,3.063,4.394,34.0
41.695,3.316,4.512,28.0
38.359,3.054,3.93,67.0
38.642,3.081,3.734,66.0
64.052,5.113,5.824,38.0
63.59,5.083,5.419,32.0
38.519,3.096,4.365,57.0
38.712,3.115,4.164,43.0
38.39,3.093,3.908,58.0
38.661,3.118,3.711,62.0
64.355,5.197,5.809,39.0
63.464,5.132,5.366,29.0
38.541,3.134,4.341,62.0
38.59,3.141,4.124,50.0
65.001,5.296,6.573,34.0
64.78,5.284,6.173,23.0
64.118,5.236,5.742,39.0
63.52,5.193,5.326,8.0
38.488,3.163,4.307,62.0
38.557,3.172,4.093,47.0
64.557,5.317,6.482,21.0
64.666,5.331,6.115,13.0
64.057,5.286,5.691,39.0
66.206,5.469,5.503,21.0
38.473,3.195,4.277,56.0
38.581,3.207,4.066,41.0
38.622,3.213,3.848,36.0
64.703,5.388,6.069,12.0
64.089,5.342,5.644,38.0
0.0,0.0,0.0,0.0
38.281,3.211,4.225,52.0
41.358,3.472,4.326,36.0
47.927,4.026,4.738,17.0
64.647,5.435,6.013,19.0
63.973,5.384,5.583,10.0
66.58,5.609,5.429,30.0
38.321,3.244,4.198,52.0
41.335,3.502,4.29,34.0
47.938,4.065,4.699,47.0
47.304,4.014,4.36,21.0
64.5,5.478,5.576,16.0
66.44,5.649,5.362,42.0
38.251,3.268,4.158,61.0
38.498,3.291,3.962,48.0
47.858,4.094,4.65,46.0
47.344,4.053,4.323,38.0
47.618,4.079,4.075,9.0
66.831,5.73,5.336,43.0
38.294,3.299,4.129,53.0
38.509,3.32,3.929,41.0
47.743,4.118,4.597,23.0
47.39,4.091,4.285,40.0
47.632,4.114,4.033,20.0
66.573,5.754,5.256,42.0
38.221,3.32,4.086,67.0
47.53,4.13,4.806,21.0
47.638,4.142,4.542,13.0
47.364,4.12,4.239,38.0
66.433,5.783,5.564,14.0
66.48,5.791,5.187,34.0
38.27,3.349,4.055,66.0
47.541,4.162,4.762,22.0
47.411,4.153,4.475,21.0
47.477,4.16,4.204,50.0
71.018,6.228,5.879,10.0
66.527,5.838,5.126,40.0
38.309,3.376,4.021,61.0
47.744,4.21,4.735,13.0
47.474,4.188,4.435,21.0
47.541,4.195,4.162,45.0
70.973,6.267,5.805,14.0
66.35,5.862,5.046,40.0
38.459,3.412,3.998,50.0
62.173,5.518,6.104,11.0
47.627,4.229,4.4,21.0
66.936,5.945,5.792,14.0
70.96,6.306,5.732,17.0
66.41,5.904,4.983,10.0
38.464,3.434,3.958,44.0
61.943,5.532,6.016,8.0
47.573,4.249,4.346,26.0
47.711,4.263,4.078,58.0
66.512,5.946,5.303,16.0
66.797,5.974,4.942,9.0
48.001,4.31,4.888,7.0
61.99,5.568,5.954,33.0
47.569,4.273,4.294,21.0
47.747,4.291,4.03,54.0
66.228,5.953,5.209,14.0
72.088,6.482,5.256,9.0
62.272,5.621,6.273,11.0
62.044,5.602,5.891,9.0
47.684,4.306,4.252,31.0
47.724,4.31,3.976,37.0
66.615,6.018,5.166,41.0
0.0,0.0,0.0,0.0
48.04,4.357,4.786,31.0
47.532,4.312,4.46,19.0
47.782,4.335,4.207,41.0
47.651,4.324,3.916,3.0
66.198,6.008,5.059,31.0
65.585,5.953,4.636,11.0
61.944,5.643,6.1,10.0
47.61,4.337,4.413,21.0
47.753,4.351,4.15,15.0
66.726,6.08,5.407,11.0
65.86,6.002,4.957,33.0
65.557,5.975,4.558,15.0
47.378,4.333,4.61,22.0
47.826,4.374,4.377,22.0
47.672,4.36,4.087,19.0
66.264,6.06,5.293,18.0
66.238,6.058,4.909,24.0
66.068,6.044,4.516,27.0
47.572,4.366,4.572,22.0
47.95,4.4,4.331,11.0
47.61,4.369,4.025,21.0
66.148,6.069,5.204,21.0
66.638,6.115,4.858,10.0
66.301,6.084,4.452,21.0
47.799,4.4,4.536,7.0
13.883,1.277,1.237,4.0
47.416,4.364,3.951,18.0
66.145,6.087,5.123,21.0
13.893,1.278,0.995,1.0
66.342,6.105,4.373,12.0
41.561,3.836,3.893,3.0
41.327,3.813,3.631,7.0
13.898,1.282,1.14,3.0
13.831,1.275,1.054,2.0
13.835,1.276,0.974,7.0
13.838,1.276,0.895,4.0
13.888,1.284,1.283,9.0
13.855,1.281,1.2,11.0
13.836,1.279,1.118,3.0
13.822,1.277,1.036,4.0
13.848,1.279,0.958,12.0
13.835,1.278,0.877,6.0
13.891,1.287,1.266,12.0
13.834,1.281,1.18,8.0
13.816,1.279,1.099,4.0
13.821,1.279,1.018,5.0
13.822,1.279,0.938,8.0
13.829,1.279,0.859,6.0
13.884,1.288,1.247,12.0
13.857,1.284,1.164,6.0
13.807,1.279,1.08,5.0
65.947,6.11,4.774,13.0
13.809,1.279,0.92,8.0
13.827,1.28,0.841,5.0
13.872,1.287,1.227,13.0
13.854,1.285,1.146,5.0
13.815,1.281,1.063,6.0
13.826,1.281,0.982,8.0
13.815,1.28,0.902,8.0
13.825,1.281,0.823,4.0
13.849,1.286,1.207,15.0
13.817,1.282,1.124,5.0
13.816,1.281,1.044,7.0
13.833,1.282,0.964,13.0
13.819,1.28,0.884,8.0
13.843,1.282,0.805,1.0
13.847,1.285,1.188,11.0
13.804,1.28,1.105,5.0
13.818,1.281,1.026,6.0
13.83,1.282,0.945,10.0
13.82,1.28,0.865,7.0
114.751,10.627,6.525,13.0
13.86,1.286,1.17,7.0
13.814,1.281,1.087,6.0
65.895,6.106,4.804,11.0
13.81,1.279,0.925,7.0
13.824,1.279,0.846,5.0
114.735,10.616,6.368,14.0
13.863,1.284,1.152,4.0
13.822,1.28,1.068,5.0
13.836,1.28,0.989,6.0
13.82,1.278,0.907,5.0
13.838,1.279,0.828,3.0
114.724,10.599,6.211,17.0
13.848,1.281,1.131,3.0
13.83,1.278,1.05,4.0
13.849,1.279,0.971,12.0
13.819,1.276,0.888,5.0
13.903,1.282,0.813,0.0
114.689,10.576,6.05,24.0
13.859,1.279,1.113,3.0
13.846,1.277,1.032,2.0
13.835,1.275,0.951,7.0
13.847,1.275,0.87,0.0
114.683,10.558,6.551,24.0
114.706,10.553,5.891,23.0
66.229,6.099,5.227,15.0
66.507,6.12,4.864,18.0
66.261,6.092,4.463,15.0
75.952,6.977,4.67,11.0
114.694,10.529,6.39,27.0
103.201,9.468,5.156,18.0
66.025,6.062,5.117,29.0
13.896,1.274,0.996,0.0
66.284,6.075,4.371,5.0
114.699,10.503,6.891,15.0
114.725,10.497,6.231,31.0
103.2,9.436,5.01,17.0
65.962,6.035,5.019,33.0
65.54,5.99,4.606,11.0
76.176,6.956,4.915,25.0
114.743,10.469,6.73,22.0
114.752,10.46,6.07,46.0
103.21,9.4,4.865,19.0
66.064,6.02,4.931,43.0
65.952,6.003,4.541,18.0
76.106,6.921,4.8,32.0
114.706,10.421,6.563,31.0
114.758,10.415,5.906,20.0
109.397,9.921,5.0,5.0
66.574,6.039,4.873,43.0
67.618,6.127,4.559,31.0
75.91,6.871,4.681,35.0
114.97,10.396,6.414,13.0
104.727,9.46,5.24,8.0
109.47,9.878,4.848,10.0
65.546,5.916,4.705,10.0
76.197,6.869,5.028,20.0
75.915,6.835,4.572,28.0
115.449,10.383,6.275,8.0
103.186,9.271,5.014,18.0
115.726,10.387,4.957,6.0
65.612,5.888,4.613,18.0
115.166,10.323,7.434,14.0
117.247,10.497,6.892,30.0
117.281,10.488,6.206,23.0
103.211,9.219,4.868,18.0
120.755,10.774,4.999,11.0
66.167,5.902,4.557,11.0
117.247,10.445,7.399,15.0
103.145,9.178,5.915,4.0
157.109,13.962,8.088,3.0
106.264,9.431,4.859,12.0
120.59,10.69,4.822,42.0
74.215,6.577,5.005,32.0
75.865,6.713,4.679,10.0
103.213,9.121,5.769,6.0
103.054,9.094,5.157,2.0
109.423,9.644,4.846,6.0
120.607,10.618,4.648,49.0
76.518,6.732,5.049,11.0
75.945,6.672,4.573,17.0
119.081,10.447,6.486,16.0
103.151,9.036,5.014,20.0
115.138,10.074,4.935,9.0
120.621,10.54,4.476,49.0
75.996,6.635,4.906,15.0
120.803,10.53,7.102,10.0
120.796,10.514,6.405,13.0
103.169,8.967,4.867,14.0
120.582,10.465,4.996,8.0
120.619,10.455,4.304,45.0
120.799,10.459,7.626,10.0
120.769,10.44,6.927,14.0
120.728,10.421,6.23,13.0
106.31,9.162,4.863,9.0
120.582,10.376,4.824,31.0
34.281,2.946,1.174,3.0
120.792,10.367,7.452,23.0
120.821,10.352,6.758,29.0
103.164,8.824,5.176,11.0
34.24,2.924,1.517,55.0
34.283,2.923,1.322,88.0
34.275,2.918,1.125,46.0
120.843,10.273,7.282,27.0
120.895,10.26,6.589,20.0
103.171,8.74,5.029,23.0
34.267,2.898,1.47,23.0
34.253,2.892,1.272,2.0
28.767,2.425,0.904,13.0
121.586,10.233,7.153,9.0
121.946,10.245,6.473,9.0
74.615,6.257,3.531,9.0
74.575,6.243,3.093,9.0
122.752,10.258,4.386,8.0
28.696,2.394,0.861,32.0
74.538,6.207,4.279,15.0
74.554,6.196,3.851,29.0
74.538,6.184,3.422,28.0
74.519,6.17,2.985,28.0
28.745,2.376,0.986,15.0
28.661,2.365,0.819,170.0
74.536,6.137,4.174,28.0
74.534,6.125,3.745,32.0
74.525,6.113,3.317,36.0
74.495,6.098,2.88,34.0
28.7,2.344,0.944,25.0
28.696,2.34,0.78,159.0
74.569,6.067,4.071,30.0
74.559,6.054,3.642,29.0
74.554,6.041,3.214,30.0
74.522,6.026,2.777,29.0
28.664,2.313,0.904,23.0
28.657,2.308,0.739,40.0
74.628,5.997,3.97,19.0
74.67,5.987,3.544,11.0
74.638,5.971,3.114,10.0
28.666,2.288,1.029,25.0
28.689,2.286,0.865,151.0
28.658,2.278,0.7,46.0
127.563,10.116,6.612,18.0
109.378,8.654,5.041,12.0
128.37,10.133,5.18,12.0
28.606,2.253,0.987,182.0
28.635,2.25,0.824,172.0
28.653,2.247,0.661,51.0
109.455,8.559,5.524,1.0
115.141,8.983,5.15,9.0
28.644,2.229,1.117,3.0
28.619,2.222,0.949,40.0
28.631,2.218,0.785,170.0
28.673,2.216,0.622,37.0
0.0,0.0,0.0,0.0
28.778,2.212,1.248,1.0
28.606,2.194,1.077,184.0
28.619,2.189,0.91,40.0
28.679,2.188,0.748,122.0
28.669,2.183,0.584,50.0
109.341,8.297,5.222,22.0
28.742,2.175,1.207,5.0
28.68,2.165,1.041,158.0
28.628,2.156,0.872,30.0
28.66,2.153,0.709,56.0
28.662,2.148,0.546,56.0
109.435,8.172,5.081,10.0
28.662,2.134,1.166,110.0
28.662,2.129,1.002,14.0
28.665,2.123,0.836,163.0
28.671,2.118,0.672,55.0
28.676,2.113,0.508,62.0
28.775,2.112,1.298,2.0
28.625,2.095,1.127,170.0
28.653,2.092,0.965,18.0
28.656,2.086,0.798,177.0
28.676,2.082,0.635,58.0
28.685,2.077,0.471,49.0
28.784,2.075,1.261,4.0
28.636,2.059,1.09,178.0
28.67,2.055,0.928,38.0
28.71,2.052,0.762,157.0
28.684,2.045,0.598,50.0
28.722,2.042,0.435,37.0
28.793,2.038,1.224,3.0
28.649,2.021,1.054,188.0
28.676,2.018,0.892,33.0
28.682,2.012,0.725,40.0
28.713,2.008,0.562,20.0
28.777,2.007,0.4,25.0
157.864,10.96,6.515,41.0
28.666,1.983,1.019,216.0
28.728,1.981,0.857,52.0
28.709,1.974,0.69,36.0
28.875,1.979,0.529,44.0
28.898,1.975,0.365,0.0
158.003,10.748,6.323,42.0
28.727,1.947,0.985,46.0
28.762,1.943,0.823,158.0
114.443,7.71,2.612,32.0
139.544,9.369,2.388,10.0
78.053,5.224,0.891,9.0
158.052,10.526,6.133,38.0
28.815,1.912,0.953,4.0
28.811,1.905,0.789,16.0
114.619,7.555,2.476,19.0
139.578,9.169,2.221,22.0
78.11,5.114,0.799,5.0
158.142,10.296,5.946,36.0
158.124,10.26,5.044,37.0
114.818,7.423,3.009,8.0
139.632,8.997,2.851,28.0
120.901,7.763,1.781,11.0
74.482,4.765,0.673,26.0
33.418,2.126,1.217,0.0
158.031,10.017,4.857,14.0
33.412,2.11,0.836,0.0
33.448,2.104,0.644,7.0
33.466,2.098,0.454,150.0
33.472,2.091,0.264,151.0
33.455,2.077,1.18,151.0
33.446,2.069,0.989,97.0
33.431,2.06,0.799,6.0
33.429,2.052,0.605,2.0
33.436,2.044,0.415,4.0
73.513,4.478,0.497,9.0
157.47,9.532,5.377,5.0
0.0,0.0,0.0,0.0
164.027,9.847,3.736,11.0
140.247,8.386,2.383,27.0
78.275,4.661,0.885,9.0
55.583,3.296,0.313,10.0
157.239,9.265,5.193,11.0
157.437,9.237,4.306,6.0
162.493,9.492,3.521,11.0
0.0,0.0,0.0,0.0
76.002,4.402,0.776,9.0
54.637,3.151,0.248,28.0
162.27,9.295,5.183,10.0
162.236,9.25,4.26,6.0
163.425,9.278,3.365,27.0
0.0,0.0,0.0,0.0
75.108,4.226,0.687,22.0
54.098,3.031,0.188,16.0
162.515,9.039,5.019,9.0
163.091,9.027,4.111,20.0
162.724,8.966,3.179,10.0
106.074,5.817,1.46,6.0
73.928,4.035,0.599,22.0
0.0,0.0,0.0,0.0
162.421,8.759,4.847,9.0
162.472,8.717,3.928,16.0
105.76,5.648,1.957,55.0
81.955,4.355,1.045,8.0
73.558,3.889,0.521,16.0
0.0,0.0,0.0,0.0
156.704,8.181,4.519,17.0
167.155,8.68,3.873,4.0
105.759,5.465,1.853,70.0
81.878,4.209,0.962,9.0
73.494,3.759,0.448,6.0
0.0,0.0,0.0,0.0
156.493,7.898,4.36,14.0
0.0,0.0,0.0,0.0
0.0,0.0,0.0,0.0
78.227,3.883,0.844,22.0
55.009,2.715,0.282,21.0
41.424,2.033,-0.021,17.0
159.401,7.76,4.288,3.0
0.0,0.0,0.0,0.0
106.029,5.102,1.654,2.0
77.625,3.714,0.764,44.0
54.497,2.592,0.228,28.0
40.89,1.933,-0.059,44.0
0.0,0.0,0.0,0.0
0.0,0.0,0.0,0.0
101.467,4.698,1.489,2.0
76.936,3.54,0.687,31.0
54.347,2.485,0.179,17.0
40.332,1.833,-0.094,49.0
0.0,0.0,0.0,0.0
0.0,0.0,0.0,0.0
96.004,4.267,1.324,2.0
73.665,3.254,0.593,8.0
48.748,2.139,0.117,23.0
39.906,1.74,-0.128,45.0
0.0,0.0,0.0,0.0
0.0,0.0,0.0,0.0
96.331,4.102,1.246,8.0
73.672,3.115,0.53,14.0
47.916,2.012,0.074,25.0
39.762,1.658,-0.161,27.0
0.0,0.0,0.0,0.0
0.0,0.0,0.0,0.0
80.072,3.259,0.969,5.0
59.587,2.408,0.38,20.0
0.0,0.0,0.0,0.0
36.543,1.455,-0.177,34.0
0.0,0.0,0.0,0.0
0.0,0.0,0.0,0.0
79.445,3.082,0.899,10.0
59.166,2.278,0.331,33.0
46.894,1.791,-0.001,20.0
36.381,1.379,-0.205,29.0
0.0,0.0,0.0,0.0
0.0,0.0,0.0,0.0
78.163,2.881,0.825,16.0
58.758,2.148,0.284,13.0
42.139,1.527,-0.032,17.0
36.328,1.306,-0.232,17.0
0.0,0.0,0.0,0.0
100.776,3.549,1.556,1.0
78.006,2.724,0.767,40.0
54.97,1.902,0.226,29.0
42.523,1.458,-0.063,5.0
36.218,1.231,-0.257,9.0
0.0,0.0,0.0,0.0
100.67,3.349,1.485,4.0
77.788,2.563,0.71,23.0
54.473,1.778,0.186,28.0
40.08,1.295,-0.087,37.0
36.236,1.16,-0.282,7.0
0.0,0.0,0.0,0.0
100.621,3.147,1.416,4.0
77.687,2.405,0.658,10.0
54.137,1.659,0.15,23.0
39.653,1.202,-0.112,46.0
36.217,1.087,-0.305,7.0
0.0,0.0,0.0,0.0
100.519,2.942,1.351,2.0
74.63,2.161,0.585,14.0
52.101,1.492,0.112,6.0
0.0,0.0,0.0,0.0
35.992,1.008,-0.325,3.0
0.0,0.0,0.0,0.0
106.078,2.891,1.363,36.0
74.716,2.012,0.541,16.0
48.385,1.287,0.075,22.0
38.231,1.004,-0.154,39.0
33.269,0.863,-0.32,1.0
100.348,2.563,1.793,58.0
106.09,2.676,1.303,48.0
74.569,1.855,0.498,13.0
47.881,1.176,0.048,23.0
0.0,0.0,0.0,0.0
32.87,0.786,-0.334,1.0
106.132,2.494,1.84,2.0
89.818,2.081,1.055,4.0
61.387,1.402,0.378,21.0
47.098,1.06,0.023,23.0
37.457,0.83,-0.19,45.0
32.251,0.704,-0.344,1.0
106.14,2.274,1.786,8.0
80.699,1.702,0.908,9.0
60.84,1.264,0.345,35.0
0.0,0.0,0.0,0.0
37.339,0.75,-0.207,32.0
31.907,0.63,-0.355,1.0
127.72,2.473,2.09,12.0
89.809,1.709,0.969,11.0
60.732,1.134,0.317,35.0
0.0,0.0,0.0,0.0
37.346,0.673,-0.224,23.0
31.366,0.554,-0.363,1.0
126.862,2.191,2.022,39.0
89.597,1.518,0.929,10.0
0.0,0.0,0.0,0.0
44.92,0.73,-0.038,21.0
37.377,0.595,-0.239,13.0
31.088,0.484,-0.372,2.0
126.778,1.925,1.971,37.0
78.289,1.162,0.781,7.0
48.126,0.698,0.213,32.0
44.172,0.625,-0.054,18.0
37.334,0.515,-0.253,12.0
30.755,0.414,-0.379,2.0
48.248,0.63,0.732,6.0
48.128,0.612,0.463,61.0
48.037,0.594,0.196,79.0
44.134,0.531,-0.069,9.0
37.358,0.436,-0.266,7.0
30.578,0.346,-0.387,2.0
48.106,0.526,0.715,106.0
48.085,0.509,0.448,99.0
48.012,0.492,0.181,81.0
43.836,0.433,-0.082,7.0
37.425,0.356,-0.277,6.0
30.31,0.278,-0.393,2.0
48.099,0.423,0.701,128.0
48.069,0.406,0.434,100.0
48.041,0.388,0.167,94.0
43.906,0.339,-0.094,5.0
37.621,0.277,-0.289,4.0
30.131,0.211,-0.398,2.0
48.161,0.32,0.69,55.0
48.204,0.303,0.424,55.0
54.893,0.326,0.179,48.0
40.307,0.225,-0.095,15.0
37.721,0.197,-0.298,6.0
29.946,0.146,-0.402,2.0
79.424,0.358,1.121,100.0
77.128,0.32,0.662,56.0
54.727,0.207,0.167,28.0
40.374,0.139,-0.103,16.0
38.021,0.117,-0.307,1.0
29.85,0.081,-0.406,2.0
79.469,0.188,1.108,151.0
79.441,0.16,0.669,28.0
54.891,0.09,0.159,28.0
40.62,0.052,-0.11,17.0
37.823,0.034,-0.311,2.0
29.842,0.017,-0.41,2.0
79.465,0.016,1.098,151.0
79.266,-0.012,0.657,33.0
55.538,-0.028,0.154,29.0
40.852,-0.035,-0.115,17.0
37.485,-0.046,-0.312,1.0
29.73,-0.047,-0.412,2.0
79.468,-0.154,1.09,151.0
79.341,-0.182,0.651,59.0
0.0,0.0,0.0,0.0
41.483,-0.125,-0.12,18.0
37.17,-0.125,-0.312,0.0
29.738,-0.111,-0.414,3.0
79.462,-0.324,1.085,151.0
79.336,-0.351,0.647,89.0
55.805,-0.268,0.148,29.0
41.949,-0.217,-0.123,9.0
0.0,0.0,0.0,0.0
29.738,-0.175,-0.415,2.0
79.454,-0.495,1.084,164.0
79.284,-0.523,0.645,60.0
53.975,-0.376,0.142,6.0
47.234,-0.345,-0.139,12.0
36.636,-0.281,-0.309,0.0
29.681,-0.238,-0.413,2.0
79.453,-0.664,1.085,176.0
79.276,-0.691,0.647,59.0
61.128,-0.555,0.163,2.0
50.834,-0.48,-0.148,13.0
38.517,-0.378,-0.323,5.0
29.746,-0.303,-0.413,4.0
79.444,-0.836,1.089,168.0
79.309,-0.863,0.652,59.0
79.289,-0.891,0.217,6.0
47.188,-0.547,-0.134,1.0
35.532,-0.425,-0.295,0.0
29.75,-0.367,-0.41,2.0
86.958,-1.101,1.2,43.0
87.84,-1.145,0.731,4.0
183.476,-2.456,0.522,6.0
49.275,-0.678,-0.134,3.0
36.226,-0.511,-0.297,1.0
29.809,-0.431,-0.408,1.0
186.973,-2.766,2.605,8.0
99.046,-1.501,0.837,5.0
248.401,-3.851,0.741,69.0
51.732,-0.82,-0.133,0.0
40.103,-0.651,-0.323,0.0
29.912,-0.496,-0.404,1.0
205.39,-3.472,2.896,34.0
40.249,-0.694,0.347,46.0
40.264,-0.709,0.127,66.0
40.296,-0.725,-0.096,64.0
40.196,-0.738,-0.316,1.0
30.014,-0.562,-0.4,1.0
40.25,-0.765,0.575,50.0
40.239,-0.779,0.355,51.0
40.343,-0.796,0.136,1.0
56.483,-1.136,-0.123,0.0
40.184,-0.823,-0.307,1.0
30.25,-0.631,-0.396,1.0
40.262,-0.851,0.585,48.0
0.0,0.0,0.0,0.0
40.336,-0.882,0.146,1.0
40.277,-0.896,-0.077,70.0
40.224,-0.909,-0.296,13.0
30.56,-0.702,-0.391,1.0
40.307,-0.937,0.597,138.0
40.295,-0.951,0.377,75.0
40.261,-0.965,0.157,0.0
40.824,-0.994,-0.066,0.0
40.636,-1.005,-0.287,4.0
30.946,-0.777,-0.387,1.0
40.219,-1.02,0.608,58.0
40.19,-1.034,0.389,47.0
40.216,-1.049,0.171,48.0
40.984,-1.084,-0.052,159.0
40.609,-1.089,-0.273,15.0
31.202,-0.848,-0.379,1.0
40.317,-1.107,0.624,1.0
40.228,-1.119,0.404,39.0
40.202,-1.132,0.185,44.0
40.196,-1.147,-0.037,61.0
40.147,-1.16,-0.255,13.0
31.699,-0.928,-0.373,1.0
154.026,-4.549,2.445,150.0
0.0,0.0,0.0,0.0
0.0,0.0,0.0,0.0
0.0,0.0,0.0,0.0
40.359,-1.251,-0.239,4.0
32.218,-1.01,-0.366,1.0
40.349,-1.275,0.657,6.0
0.0,0.0,0.0,0.0
0.0,0.0,0.0,0.0
59.013,-1.929,-0.004,0.0
41.562,-1.373,-0.228,0.0
32.534,-1.087,-0.355,1.0
0.0,0.0,0.0,0.0
0.0,0.0,0.0,0.0
0.0,0.0,0.0,0.0
0.0,0.0,0.0,0.0
41.958,-1.471,-0.21,0.0
33.107,-1.173,-0.345,1.0
0.0,0.0,0.0,0.0
0.0,0.0,0.0,0.0
0.0,0.0,0.0,0.0
0.0,0.0,0.0,0.0
40.133,-1.488,-0.18,150.0
34.165,-1.279,-0.338,0.0
0.0,0.0,0.0,0.0
0.0,0.0,0.0,0.0
0.0,0.0,0.0,0.0
0.0,0.0,0.0,0.0
37.789,-1.477,-0.149,164.0
37.731,-1.488,-0.353,4.0
0.0,0.0,0.0,0.0
0.0,0.0,0.0,0.0
0.0,0.0,0.0,0.0
0.0,0.0,0.0,0.0
37.71,-1.55,-0.126,0.0
37.719,-1.563,-0.33,7.0
0.0,0.0,0.0,0.0
0.0,0.0,0.0,0.0
0.0,0.0,0.0,0.0
0.0,0.0,0.0,0.0
50.463,-2.173,-0.138,2.0
37.927,-1.647,-0.308,2.0
0.0,0.0,0.0,0.0
0.0,0.0,0.0,0.0
0.0,0.0,0.0,0.0
0.0,0.0,0.0,0.0
50.418,-2.269,-0.105,2.0
37.993,-1.723,-0.284,0.0
0.0,0.0,0.0,0.0
0.0,0.0,0.0,0.0
0.0,0.0,0.0,0.0
0.0,0.0,0.0,0.0
50.471,-2.368,-0.071,3.0
0.0,0.0,0.0,0.0
149.424,-7.093,3.126,5.0
149.117,-7.13,2.317,78.0
0.0,0.0,0.0,0.0
0.0,0.0,0.0,0.0
59.989,-2.93,-0.041,1.0
41.064,-2.019,-0.249,0.0
149.224,-7.366,3.23,18.0
148.714,-7.392,2.419,43.0
0.0,0.0,0.0,0.0
0.0,0.0,0.0,0.0
59.699,-3.028,0.003,4.0
0.0,0.0,0.0,0.0
149.122,-7.69,2.54,33.0
0.0,0.0,0.0,0.0
0.0,0.0,0.0,0.0
59.537,-3.13,0.049,5.0
0.0,0.0,0.0,0.0
233.914,-12.5,4.172,33.0
0.0,0.0,0.0,0.0
0.0,0.0,0.0,0.0
0.0,0.0,0.0,0.0
50.374,-2.759,-0.186,1.0
0.0,0.0,0.0,0.0
228.022,-12.601,4.256,8.0
0.0,0.0,0.0,0.0
0.0,0.0,0.0,0.0
0.0,0.0,0.0,0.0
50.47,-2.856,-0.144,1.0
0.0,0.0,0.0,0.0
0.0,0.0,0.0,0.0
0.0,0.0,0.0,0.0
0.0,0.0,0.0,0.0
0.0,0.0,0.0,0.0
50.476,-2.947,-0.099,7.0
271.713,-15.903,7.003,151.0
279.091,-16.425,5.7,12.0
0.0,0.0,0.0,0.0
0.0,0.0,0.0,0.0
0.0,0.0,0.0,0.0
50.544,-3.04,-0.053,1.0
263.557,-15.889,7.033,150.0
0.0,0.0,0.0,0.0
187.382,-11.416,2.997,255.0
126.536,-7.749,1.336,2.0
0.0,0.0,0.0,0.0
62.39,-3.86,-0.007,1.0
263.316,-16.333,7.276,62.0
265.333,-16.536,5.913,28.0
187.256,-11.727,3.172,29.0
0.0,0.0,0.0,0.0
0.0,0.0,0.0,0.0
62.384,-3.965,0.051,6.0
248.34,-15.821,7.101,255.0
248.459,-15.902,5.779,11.0
187.197,-12.038,3.354,151.0
0.0,0.0,0.0,0.0
0.0,0.0,0.0,0.0
62.173,-4.055,0.113,3.0
209.0,-13.662,6.184,30.0
244.439,-16.05,5.928,47.0
187.14,-12.341,3.54,17.0
0.0,0.0,0.0,0.0
0.0,0.0,0.0,0.0
0.0,0.0,0.0,0.0
208.866,-13.991,6.392,34.0
228.52,-15.374,5.774,76.0
0.0,0.0,0.0,0.0
0.0,0.0,0.0,0.0
0.0,0.0,0.0,0.0
0.0,0.0,0.0,0.0
204.549,-14.026,6.471,29.0
212.792,-14.651,5.597,72.0
212.979,-14.726,4.469,57.0
0.0,0.0,0.0,0.0
0.0,0.0,0.0,0.0
0.0,0.0,0.0,0.0
208.388,-14.612,6.813,14.0
204.923,-14.427,5.609,13.0
204.986,-14.49,4.52,11.0
0.0,0.0,0.0,0.0
0.0,0.0,0.0,0.0
0.0,0.0,0.0,0.0
208.321,-14.926,7.039,13.0
204.921,-14.739,5.834,8.0
204.936,-14.796,4.744,25.0
0.0,0.0,0.0,0.0
148.855,-10.829,1.849,3.0
0.0,0.0,0.0,0.0
197.141,-14.421,6.88,16.0
196.347,-14.414,5.809,23.0
292.038,-21.517,7.086,14.0
0.0,0.0,0.0,0.0
148.518,-11.022,2.011,153.0
0.0,0.0,0.0,0.0
197.266,-14.719,7.109,43.0
196.755,-14.732,6.045,30.0
196.927,-14.794,5.004,72.0
196.981,-14.85,3.939,26.0
148.422,-11.229,2.181,150.0
0.0,0.0,0.0,0.0
164.113,-12.478,6.104,45.0
196.678,-15.005,6.271,53.0
213.149,-16.316,5.665,38.0
284.815,-21.872,6.029,19.0
148.494,-11.442,2.356,11.0
129.051,-9.978,1.363,2.0
165.515,-12.818,6.352,39.0
196.659,-15.275,6.503,11.0
212.706,-16.574,5.904,15.0
214.775,-16.786,4.8,10.0
0.0,0.0,0.0,0.0
0.0,0.0,0.0,0.0
157.059,-12.372,6.214,41.0
164.371,-12.988,5.632,33.0
204.846,-16.234,5.931,24.0
214.797,-17.075,5.057,10.0
0.0,0.0,0.0,0.0
128.088,-10.245,1.66,1.0
163.795,-13.12,6.68,21.0
157.676,-12.666,5.595,24.0
164.778,-13.272,4.971,39.0
202.24,-16.338,5.01,7.0
0.0,0.0,0.0,0.0
122.206,-9.929,1.732,87.0
150.194,-12.221,6.309,28.0
163.799,-13.362,6.011,35.0
157.294,-12.867,4.938,62.0
193.586,-15.88,5.033,28.0
201.762,-16.595,4.177,25.0
122.029,-10.066,1.882,7.0
149.794,-12.374,6.48,24.0
163.816,-13.567,6.217,29.0
157.59,-13.084,5.146,40.0
165.051,-13.74,4.499,80.0
165.1,-13.781,3.627,60.0
0.0,0.0,0.0,0.0
166.849,-13.982,7.429,29.0
149.907,-12.594,5.88,54.0
164.305,-13.838,5.575,17.0
164.994,-13.929,4.708,39.0
165.091,-13.973,3.837,45.0
0.0,0.0,0.0,0.0
158.523,-13.468,7.26,33.0
209.228,-17.816,8.47,7.0
156.958,-13.395,5.524,36.0
157.364,-13.463,4.691,94.0
157.395,-13.497,3.858,35.0
0.0,0.0,0.0,0.0
158.864,-13.674,7.479,3.0
204.952,-17.68,8.564,20.0
149.791,-12.951,5.466,32.0
190.705,-16.525,5.93,20.0
157.379,-13.667,4.063,90.0
157.235,-13.686,3.228,51.0
148.512,-12.945,7.188,18.0
166.067,-14.505,7.157,34.0
157.9,-13.82,5.97,33.0
189.228,-16.597,6.133,19.0
188.658,-16.583,5.118,39.0
188.524,-16.605,4.118,40.0
148.413,-13.09,7.378,18.0
148.527,-13.126,6.596,48.0
204.385,-18.095,7.995,20.0
149.595,-13.271,5.046,43.0
188.478,-16.755,5.36,33.0
188.37,-16.778,4.364,41.0
106.445,-9.494,5.432,8.0
145.385,-12.991,6.649,3.0
148.582,-13.3,6.009,14.0
164.062,-14.714,5.751,22.0
149.469,-13.431,4.452,40.0
188.406,-16.963,4.616,51.0
108.518,-9.782,5.684,5.0
147.095,-13.283,6.926,5.0
148.562,-13.439,6.209,43.0
163.993,-14.861,5.969,13.0
188.398,-17.102,5.864,45.0
188.278,-17.122,4.865,43.0
122.559,-11.161,6.585,25.0
147.229,-13.43,7.131,24.0
150.437,-13.743,6.49,31.0
148.629,-13.601,5.611,28.0
188.597,-17.288,6.125,36.0
149.423,-13.72,4.064,22.0
115.347,-10.606,6.355,16.0
108.502,-9.991,5.404,18.0
147.611,-13.613,6.572,42.0
148.406,-13.707,5.806,46.0
148.77,-13.763,5.035,30.0
149.4,-13.842,4.269,24.0
106.258,-9.858,6.0,44.0
106.28,-9.874,5.437,30.0
122.747,-11.419,5.631,9.0
157.054,-14.631,6.358,50.0
148.739,-13.877,5.236,60.0
187.891,-17.554,5.624,29.0
108.049,-10.109,6.249,43.0
106.263,-9.954,5.583,21.0
122.822,-11.52,5.802,22.0
157.437,-14.785,6.59,57.0
189.655,-17.836,6.937,21.0
148.847,-14.017,4.658,45.0
106.963,-10.088,6.334,21.0
108.114,-10.208,5.829,17.0
106.343,-10.051,5.171,29.0
151.207,-14.31,6.538,39.0
204.743,-19.4,7.772,14.0
149.839,-14.216,4.895,66.0
85.756,-8.147,5.197,4.0
108.1,-10.281,5.979,19.0
122.866,-11.697,6.144,12.0
122.968,-11.719,5.486,33.0
150.881,-14.395,5.932,12.0
150.298,-14.356,5.116,21.0
86.403,-8.265,5.355,6.0
106.861,-10.231,6.056,10.0
115.564,-11.074,5.937,29.0
147.794,-14.176,6.794,25.0
147.933,-14.204,6.019,32.0
150.536,-14.468,5.329,29.0
99.286,-9.557,6.289,14.0
107.331,-10.34,6.229,28.0
107.951,-10.409,5.693,43.0
106.547,-10.282,5.045,25.0
147.916,-14.287,6.223,38.0
189.924,-18.362,6.987,16.0
81.773,-7.918,5.293,7.0
107.822,-10.448,6.408,43.0
107.875,-10.46,5.839,23.0
0.0,0.0,0.0,0.0
123.128,-11.958,5.349,26.0
148.104,-14.395,5.651,25.0
98.887,-9.626,6.539,41.0
99.161,-9.659,6.03,14.0
106.844,-10.413,5.931,17.0
108.046,-10.537,5.414,76.0
157.992,-15.42,7.08,8.0
0.0,0.0,0.0,0.0
83.822,-8.2,5.658,2.0
99.074,-9.696,6.162,33.0
106.878,-10.466,6.079,17.0
124.258,-12.174,6.397,12.0
106.607,-10.451,4.923,21.0
205.274,-20.137,8.395,9.0
99.345,-9.76,6.842,9.0
99.053,-9.735,6.296,22.0
99.185,-9.753,5.777,18.0
106.804,-10.506,5.643,39.0
106.656,-10.497,5.071,26.0
123.187,-12.131,5.205,13.0
99.671,-9.831,7.001,24.0
99.29,-9.796,6.447,16.0
99.126,-9.783,5.909,63.0
85.418,-8.433,4.629,12.0
124.209,-12.269,6.075,38.0
123.152,-12.169,5.371,32.0
82.457,-8.161,5.905,5.0
84.088,-8.324,5.574,25.0
86.197,-8.535,5.256,9.0
99.218,-9.827,5.513,11.0
106.761,-10.577,5.365,48.0
106.712,-10.575,4.798,15.0
84.577,-8.396,6.172,3.0
84.061,-8.345,5.686,41.0
99.508,-9.88,6.201,13.0
99.154,-9.847,5.642,53.0
106.761,-10.604,5.508,17.0
106.704,-10.6,4.94,50.0
84.546,-8.414,6.283,8.0
82.787,-8.239,5.711,10.0
99.465,-9.899,6.332,18.0
99.286,-9.882,5.783,30.0
116.154,-11.562,6.148,12.0
106.75,-10.627,5.085,44.0
68.481,-6.829,5.182,2.0
82.718,-8.248,5.818,9.0
81.719,-8.148,5.312,3.0
99.483,-9.919,5.927,26.0
99.243,-9.895,5.385,14.0
106.737,-10.643,5.225,27.0
96.754,-9.664,7.451,4.0
106.852,-10.671,7.657,9.0
84.083,-8.396,5.577,5.0
99.482,-9.932,6.059,24.0
99.186,-9.901,5.515,44.0
116.183,-11.598,5.842,7.0
96.838,-9.684,7.586,5.0
82.866,-8.284,6.048,10.0
83.879,-8.383,5.675,11.0
99.433,-9.936,6.188,21.0
99.26,-9.917,5.649,45.0
116.157,-11.604,5.992,22.0
98.42,-9.849,7.84,6.0
84.551,-8.458,6.283,4.0
82.829,-8.283,5.713,9.0
99.462,-9.943,6.32,19.0
99.457,-9.94,5.789,31.0
116.173,-11.608,6.144,8.0
84.517,-8.461,6.843,5.0
97.019,-9.707,7.337,8.0
106.803,-10.682,7.505,8.0
81.614,-8.159,5.291,4.0
99.471,-9.941,5.917,29.0
99.255,-9.916,5.376,17.0
69.58,-6.964,5.723,2.0
96.795,-9.683,7.442,6.0
82.728,-8.271,5.917,9.0
84.103,-8.405,5.558,3.0
99.468,-9.935,6.043,28.0
99.214,-9.906,5.498,40.0
76.319,-7.634,6.373,3.0
96.803,-9.677,7.565,4.0
82.873,-8.279,6.032,10.0
84.027,-8.39,5.658,10.0
99.448,-9.924,6.166,20.0
99.193,-9.893,5.622,44.0
76.345,-7.629,6.472,4.0
98.618,-9.847,7.83,3.0
84.589,-8.441,6.262,7.0
82.779,-8.255,5.677,5.0
99.479,-9.914,6.291,19.0
99.236,-9.883,5.745,35.0
77.786,-7.762,6.69,6.0
83.815,-8.357,6.758,5.0
84.533,-8.421,6.363,4.0
82.737,-8.236,5.776,22.0
99.64,-9.912,6.422,21.0
99.303,-9.871,5.87,18.0
78.232,-7.791,6.824,6.0
69.51,-6.916,5.69,2.0
68.403,-6.8,5.232,2.0
82.637,-8.208,5.869,10.0
84.078,-8.344,5.521,21.0
99.295,-9.847,5.989,14.0
68.609,-6.817,6.068,7.0
69.661,-6.914,5.786,2.0
96.727,-9.592,7.515,4.0
82.501,-8.174,5.957,6.0
84.041,-8.319,5.618,41.0
86.299,-8.534,5.307,10.0
85.1,-8.432,7.628,11.0
76.318,-7.554,6.429,3.0
96.796,-9.571,7.633,6.0
81.706,-8.071,5.995,3.0
0.0,0.0,0.0,0.0
99.196,-9.779,6.214,14.0
68.513,-6.767,6.221,3.0
76.219,-7.52,6.509,3.0
96.737,-9.533,7.74,5.0
97.445,-9.592,7.262,7.0
99.559,-9.789,6.885,10.0
98.975,-9.722,6.313,28.0
85.187,-8.384,7.832,4.0
77.78,-7.646,6.731,3.0
98.702,-9.69,8.01,5.0
84.568,-8.292,6.398,3.0
99.688,-9.764,7.005,9.0
98.871,-9.672,6.417,37.0
85.162,-8.348,7.926,9.0
76.137,-7.453,6.674,5.0
92.295,-9.023,7.592,3.0
91.62,-8.945,7.033,3.0
86.728,-8.457,6.19,3.0
92.108,-8.97,6.078,1.0
84.499,-8.246,7.958,9.0
83.723,-8.158,7.431,4.0
81.011,-7.882,6.752,2.0
84.878,-8.247,6.607,7.0
96.358,-9.351,6.98,6.0
98.851,-9.579,6.629,22.0
85.009,-8.255,8.097,4.0
83.618,-8.107,7.511,5.0
96.805,-9.372,8.171,2.0
96.304,-9.309,7.598,6.0
84.617,-8.168,6.218,5.0
98.744,-9.519,6.723,17.0
80.964,-7.82,7.797,5.0
109.837,-10.592,9.98,10.0
96.798,-9.32,8.27,4.0
100.906,-9.7,8.064,6.0
84.659,-8.125,6.309,9.0
84.086,-8.058,5.812,17.0
81.015,-7.78,7.884,7.0
84.474,-8.098,7.761,7.0
96.84,-9.268,8.372,3.0
101.006,-9.652,8.173,5.0
98.213,-9.37,7.415,19.0
86.878,-8.275,6.09,2.0
81.113,-7.741,7.974,5.0
84.367,-8.037,7.834,13.0
80.399,-7.646,7.029,3.0
101.01,-9.589,8.272,7.0
85.791,-8.131,6.559,4.0
98.824,-9.351,7.021,14.0
81.045,-7.684,8.045,7.0
99.743,-9.44,9.357,8.0
99.224,-9.372,8.768,13.0
96.604,-9.109,8.001,4.0
97.33,-9.162,7.532,9.0
86.948,-8.17,6.257,3.0
81.039,-7.63,8.12,10.0
99.888,-9.387,9.462,18.0
98.713,-9.258,8.813,8.0
96.344,-9.019,8.066,5.0
99.801,-9.325,7.813,8.0
86.681,-8.085,6.315,2.0
80.931,-7.563,8.182,13.0
107.785,-10.052,10.307,8.0
98.05,-9.126,8.841,20.0
85.611,-7.952,7.243,12.0
97.128,-9.004,7.689,8.0
96.722,-8.95,7.131,3.0
80.997,-7.509,8.26,8.0
97.738,-9.042,9.432,16.0
98.601,-9.103,8.975,2.0
95.837,-8.83,8.19,15.0
97.128,-8.93,7.771,6.0
84.737,-7.776,6.318,5.0
80.896,-7.437,8.317,14.0
98.433,-9.029,9.581,7.0
98.665,-9.031,9.063,14.0
104.849,-9.577,9.046,10.0
96.995,-8.841,7.839,6.0
84.71,-7.705,6.385,15.0
80.95,-7.377,8.388,4.0
107.664,-9.789,10.565,5.0
83.188,-7.547,7.706,6.0
85.473,-7.736,7.442,5.0
105.13,-9.494,8.579,6.0
84.721,-7.635,6.45,22.0
80.904,-7.305,8.446,3.0
98.597,-8.881,9.751,10.0
83.2,-7.477,7.771,6.0
84.712,-7.595,7.439,11.0
96.945,-8.672,7.982,5.0
84.785,-7.567,6.518,7.0
98.481,-8.806,10.354,9.0
84.741,-7.559,8.442,3.0
83.268,-7.409,7.838,5.0
84.36,-7.488,7.468,11.0
96.95,-8.586,8.051,2.0
84.707,-7.483,6.571,12.0
80.81,-7.152,8.554,5.0
84.769,-7.484,8.505,5.0
99.695,-8.779,9.453,13.0
84.481,-7.421,7.537,12.0
115.896,-10.157,9.703,16.0
84.793,-7.413,6.634,8.0
80.692,-7.066,8.595,2.0
84.774,-7.404,8.562,10.0
99.404,-8.66,9.49,6.0
96.485,-8.385,8.67,7.0
108.138,-9.374,9.122,3.0
105.794,-9.148,8.343,19.0
105.441,-9.132,11.298,2.0
84.827,-7.327,8.62,10.0
99.472,-8.569,9.558,8.0
105.694,-9.082,9.561,12.0
106.366,-9.115,9.037,15.0
84.646,-7.236,6.726,12.0
108.098,-9.255,11.647,2.0
84.753,-7.236,8.662,6.0
108.074,-9.202,10.447,4.0
106.264,-9.023,9.674,11.0
106.284,-9.002,9.089,14.0
97.31,-8.22,7.786,8.0
0.0,0.0,0.0,0.0
105.596,-8.907,10.851,6.0
106.631,-8.969,10.365,8.0
106.442,-8.927,9.748,5.0
97.187,-8.13,8.363,5.0
84.619,-7.06,6.814,6.0
0.0,0.0,0.0,0.0
99.64,-8.3,10.289,5.0
106.473,-8.845,10.403,1.0
106.183,-8.795,9.776,6.0
105.463,-8.712,9.125,9.0
107.031,-8.815,8.67,5.0
0.0,0.0,0.0,0.0
0.0,0.0,0.0,0.0
0.0,0.0,0.0,0.0
106.615,-8.715,9.865,1.0
98.376,-8.018,8.557,3.0
107.592,-8.743,8.764,12.0
0.0,0.0,0.0,0.0
0.0,0.0,0.0,0.0
0.0,0.0,0.0,0.0
105.354,-8.493,9.792,4.0
107.843,-8.669,9.425,12.0
105.967,-8.493,8.674,6.0
0.0,0.0,0.0,0.0
0.0,0.0,0.0,0.0
0.0,0.0,0.0,0.0
105.356,-8.374,9.832,5.0
107.322,-8.504,9.419,6.0
108.342,-8.56,8.907,3.0
0.0,0.0,0.0,0.0
0.0,0.0,0.0,0.0
0.0,0.0,0.0,0.0
108.726,-8.516,10.183,1.0
105.913,-8.27,9.33,2.0
108.799,-8.467,8.981,5.0
0.0,0.0,0.0,0.0
0.0,0.0,0.0,0.0
0.0,0.0,0.0,0.0
0.0,0.0,0.0,0.0
106.214,-8.167,9.388,7.0
148.556,-11.387,12.303,2.0
0.0,0.0,0.0,0.0
0.0,0.0,0.0,0.0
0.0,0.0,0.0,0.0
0.0,0.0,0.0,0.0
0.0,0.0,0.0,0.0
108.438,-8.182,9.007,6.0
0.0,0.0,0.0,0.0
0.0,0.0,0.0,0.0
0.0,0.0,0.0,0.0
0.0,0.0,0.0,0.0
108.623,-8.09,9.65,9.0
108.67,-8.067,9.048,2.0
0.0,0.0,0.0,0.0
0.0,0.0,0.0,0.0
0.0,0.0,0.0,0.0
0.0,0.0,0.0,0.0
0.0,0.0,0.0,0.0
0.0,0.0,0.0,0.0
0.0,0.0,0.0,0.0
0.0,0.0,0.0,0.0
0.0,0.0,0.0,0.0
0.0,0.0,0.0,0.0
0.0,0.0,0.0,0.0
108.882,-7.812,9.094,6.0
0.0,0.0,0.0,0.0
0.0,0.0,0.0,0.0
0.0,0.0,0.0,0.0
0.0,0.0,0.0,0.0
0.0,0.0,0.0,0.0
0.0,0.0,0.0,0.0
0.0,0.0,0.0,0.0
0.0,0.0,0.0,0.0
0.0,0.0,0.0,0.0
0.0,0.0,0.0,0.0
0.0,0.0,0.0,0.0
0.0,0.0,0.0,0.0
0.0,0.0,0.0,0.0
0.0,0.0,0.0,0.0
0.0,0.0,0.0,0.0
0.0,0.0,0.0,0.0
0.0,0.0,0.0,0.0
0.0,0.0,0.0,0.0
0.0,0.0,0.0,0.0
0.0,0.0,0.0,0.0
0.0,0.0,0.0,0.0
0.0,0.0,0.0,0.0
0.0,0.0,0.0,0.0
0.0,0.0,0.0,0.0
0.0,0.0,0.0,0.0
0.0,0.0,0.0,0.0
0.0,0.0,0.0,0.0
0.0,0.0,0.0,0.0
0.0,0.0,0.0,0.0
0.0,0.0,0.0,0.0
0.0,0.0,0.0,0.0
0.0,0.0,0.0,0.0
0.0,0.0,0.0,0.0
0.0,0.0,0.0,0.0
0.0,0.0,0.0,0.0
0.0,0.0,0.0,0.0
49.285,-3.147,5.497,0.0
0.0,0.0,0.0,0.0
0.0,0.0,0.0,0.0
0.0,0.0,0.0,0.0
0.0,0.0,0.0,0.0
0.0,0.0,0.0,0.0
49.272,-3.08,5.486,0.0
0.0,0.0,0.0,0.0
0.0,0.0,0.0,0.0
0.0,0.0,0.0,0.0
0.0,0.0,0.0,0.0
0.0,0.0,0.0,0.0
49.304,-3.014,5.477,3.0
0.0,0.0,0.0,0.0
0.0,0.0,0.0,0.0
0.0,0.0,0.0,0.0
0.0,0.0,0.0,0.0
0.0,0.0,0.0,0.0
49.297,-2.946,5.462,3.0
0.0,0.0,0.0,0.0
0.0,0.0,0.0,0.0
0.0,0.0,0.0,0.0
0.0,0.0,0.0,0.0
0.0,0.0,0.0,0.0
49.352,-2.881,5.452,5.0
0.0,0.0,0.0,0.0
0.0,0.0,0.0,0.0
0.0,0.0,0.0,0.0
0.0,0.0,0.0,0.0
0.0,0.0,0.0,0.0
49.371,-2.814,5.435,5.0
56.554,-3.208,5.903,4.0
0.0,0.0,0.0,0.0
0.0,0.0,0.0,0.0
0.0,0.0,0.0,0.0
0.0,0.0,0.0,0.0
49.382,-2.746,5.416,4.0
0.0,0.0,0.0,0.0
56.864,-3.132,5.586,1.0
90.686,-4.971,8.382,1.0
0.0,0.0,0.0,0.0
82.991,-4.507,6.726,2.0
49.406,-2.679,5.395,5.0
0.0,0.0,0.0,0.0
56.553,-3.036,5.528,4.0
90.806,-4.851,8.349,2.0
92.485,-4.918,7.976,1.0
91.958,-4.866,7.407,1.0
49.412,-2.61,5.371,5.0
0.0,0.0,0.0,0.0
56.666,-2.963,5.509,4.0
90.682,-4.719,8.29,5.0
92.093,-4.769,7.893,12.0
83.189,-4.287,6.656,9.0
49.455,-2.543,5.348,5.0
92.862,-4.751,9.509,4.0
63.667,-3.241,6.154,3.0
90.792,-4.598,8.247,4.0
91.88,-4.63,7.822,11.0
83.612,-4.192,6.64,9.0
54.872,-2.745,5.901,6.0
55.163,-2.745,5.615,1.0
92.701,-4.589,8.904,5.0
56.666,-2.791,5.112,2.0
92.061,-4.511,7.78,5.0
91.282,-4.45,7.192,3.0
49.541,-2.409,5.296,5.0
90.773,-4.391,9.18,10.0
92.619,-4.457,8.836,7.0
56.726,-2.715,5.08,3.0
91.836,-4.372,7.698,2.0
91.229,-4.321,7.127,2.0
63.556,-3.002,6.75,7.0
57.94,-2.722,5.82,4.0
91.066,-4.255,8.623,7.0
56.722,-2.635,5.039,4.0
97.648,-4.513,8.116,5.0
88.962,-4.089,6.885,4.0
55.25,-2.531,5.827,5.0
55.015,-2.507,5.484,13.0
82.898,-3.756,7.788,3.0
83.317,-3.755,7.34,9.0
83.854,-3.759,6.906,9.0
84.697,-3.776,6.491,4.0
0.0,0.0,0.0,0.0
55.017,-2.431,5.442,7.0
82.772,-3.637,7.711,12.0
84.292,-3.684,7.359,6.0
92.887,-4.037,7.576,8.0
96.265,-4.161,7.3,4.0
56.625,-2.438,5.881,3.0
57.278,-2.452,5.619,15.0
54.898,-2.337,5.069,1.0
84.288,-3.568,7.288,3.0
92.786,-3.905,7.49,15.0
90.398,-3.784,6.779,4.0
53.292,-2.221,5.489,3.0
57.234,-2.371,5.564,6.0
54.975,-2.265,5.028,8.0
91.095,-3.731,7.797,4.0
83.381,-3.395,6.657,13.0
92.45,-3.743,6.85,12.0
53.328,-2.149,5.444,6.0
57.508,-2.304,5.538,5.0
54.934,-2.188,4.973,9.0
82.868,-3.281,7.017,12.0
83.423,-3.283,6.583,4.0
90.523,-3.543,6.623,7.0
40.461,-1.576,4.093,39.0
63.626,-2.462,6.067,23.0
40.774,-1.568,3.652,13.0
91.276,-3.49,7.64,9.0
91.629,-3.483,7.142,4.0
93.081,-3.518,6.72,16.0
53.094,-1.996,5.317,27.0
63.884,-2.387,6.029,28.0
40.78,-1.514,3.612,7.0
82.18,-3.032,6.796,6.0
92.149,-3.379,7.09,9.0
90.606,-3.303,6.449,4.0
52.672,-1.909,5.221,10.0
64.179,-2.311,5.989,18.0
54.825,-1.962,4.798,13.0
90.064,-3.203,7.354,13.0
91.802,-3.244,6.966,22.0
83.012,-2.915,5.82,23.0
40.953,-1.43,4.015,9.0
40.694,-1.412,3.753,46.0
41.049,-1.415,3.548,26.0
98.447,-3.372,7.932,4.0
92.636,-3.152,6.928,57.0
83.08,-2.809,5.734,20.0
0.0,0.0,0.0,0.0
40.735,-1.359,3.712,60.0
41.049,-1.361,3.502,10.0
0.0,0.0,0.0,0.0
83.254,-2.724,6.132,8.0
83.189,-2.704,5.647,52.0
40.815,-1.318,3.908,19.0
40.818,-1.309,3.672,46.0
54.723,-1.743,4.605,4.0
83.039,-2.627,6.499,12.0
83.193,-2.615,6.029,18.0
83.461,-2.605,5.567,39.0
40.74,-1.263,3.853,56.0
40.796,-1.256,3.621,71.0
54.655,-1.671,4.534,2.0
84.067,-2.554,6.479,12.0
85.844,-2.589,6.118,2.0
83.585,-2.503,5.475,25.0
40.73,-1.21,3.802,57.0
53.295,-1.573,4.664,11.0
41.216,-1.208,3.367,2.0
83.635,-2.434,6.341,14.0
92.427,-2.672,6.472,18.0
98.753,-2.834,6.345,22.0
40.916,-1.165,3.767,40.0
53.407,-1.51,4.607,11.0
41.19,-1.156,3.314,42.0
41.292,-1.151,3.078,57.0
82.492,-2.282,5.671,4.0
92.343,-2.537,5.815,51.0
40.848,-1.112,3.707,57.0
53.557,-1.448,4.549,8.0
41.257,-1.107,3.264,40.0
97.208,-2.589,7.117,11.0
129.467,-3.422,8.728,27.0
129.152,-3.389,7.958,30.0
40.766,-1.06,3.644,52.0
53.637,-1.384,4.483,10.0
41.175,-1.054,3.201,49.0
128.65,-3.27,9.243,27.0
91.642,-2.311,6.052,7.0
97.941,-2.452,5.902,22.0
64.195,-1.592,5.65,10.0
41.305,-1.016,3.395,21.0
41.256,-1.007,3.151,38.0
41.288,-1.0,2.909,1.0
84.319,-2.027,5.451,12.0
91.492,-2.183,5.386,16.0
54.254,-1.282,4.699,18.0
41.167,-0.965,3.325,43.0
41.264,-0.959,3.093,29.0
84.188,-1.942,5.812,58.0
84.1,-1.924,5.317,26.0
91.413,-2.075,5.248,86.0
54.211,-1.217,4.616,74.0
41.124,-0.916,3.261,49.0
41.21,-0.91,3.028,13.0
84.706,-1.855,5.722,27.0
91.496,-1.988,5.65,18.0
91.37,-1.969,5.111,29.0
54.184,-1.154,4.532,50.0
41.261,-0.871,3.21,34.0
83.851,-1.757,6.035,5.0
129.814,-2.698,8.575,20.0
84.125,-1.733,5.068,33.0
83.783,-1.712,4.561,35.0
54.199,-1.094,4.45,8.0
41.261,-0.825,3.147,42.0
126.499,-2.51,8.912,27.0
85.723,-1.686,5.531,70.0
84.106,-1.64,4.937,25.0
127.135,-2.458,6.725,38.0
54.227,-1.035,4.368,17.0
81.86,-1.549,6.116,8.0
126.333,-2.369,8.702,33.0
85.266,-1.584,5.367,66.0
84.103,-1.548,4.804,16.0
127.156,-2.32,6.523,32.0
54.251,-0.976,4.282,38.0
63.895,-1.139,4.67,59.0
126.376,-2.233,8.5,31.0
85.205,-1.492,5.225,51.0
83.835,-1.454,4.652,33.0
90.784,-1.561,4.51,16.0
54.286,-0.92,4.196,23.0
63.732,-1.07,4.554,38.0
124.919,-2.078,8.197,32.0
126.337,-2.082,7.542,27.0
83.88,-1.369,4.519,54.0
90.896,-1.47,4.367,56.0
41.094,-0.654,3.109,42.0
63.324,-0.999,4.42,12.0
124.948,-1.952,7.991,20.0
126.147,-1.951,7.321,18.0
83.881,-1.285,4.379,27.0
85.79,-1.302,3.981,110.0
82.144,-1.228,6.077,10.0
94.26,-1.394,6.422,61.0
94.256,-1.38,5.87,35.0
127.325,-1.845,7.173,23.0
151.286,-2.17,7.642,21.0
85.799,-1.218,3.834,150.0
82.384,-1.15,5.952,21.0
82.555,-1.141,5.482,64.0
82.738,-1.132,5.011,46.0
83.617,-1.132,4.567,24.0
90.827,-1.217,4.432,14.0
86.016,-1.14,3.696,150.0
63.464,-0.827,4.475,55.0
86.074,-1.11,5.566,11.0
85.439,-1.089,5.025,14.0
90.36,-1.14,4.778,18.0
79.237,-0.989,3.729,165.0
