X,Y,Z,Reflectivity
106.031,3.014,1.456,16.0
74.82,2.104,0.596,16.0
48.948,1.361,0.113,11.0
0.0,0.0,0.0,0.0
0.0,0.0,0.0,0.0
0.0,0.0,0.0,0.0
106.035,2.817,1.352,49.0
74.441,1.954,0.52,13.0
48.185,1.25,0.064,22.0
0.0,0.0,0.0,0.0
100.322,2.534,2.316,41.0
100.365,2.504,1.75,5.0
93.183,2.297,1.098,4.0
61.138,1.488,0.369,35.0
46.941,1.129,0.018,22.0
37.218,0.884,-0.195,33.0
0.0,0.0,0.0,0.0
106.071,2.447,1.753,4.0
79.488,1.809,0.864,11.0
59.837,1.344,0.307,34.0
0.0,0.0,0.0,0.0
37.062,0.809,-0.227,23.0
128.154,2.752,2.727,13.0
106.234,2.247,1.661,1.0
78.14,1.629,0.781,11.0
0.0,0.0,0.0,0.0
40.02,0.809,-0.055,14.0
36.923,0.734,-0.259,11.0
128.053,2.499,2.613,29.0
126.26,2.423,1.864,2.0
77.85,1.47,0.711,19.0
54.56,1.013,0.185,17.0
39.679,0.724,-0.088,27.0
36.846,0.661,-0.289,8.0
128.177,2.251,2.509,9.0
126.255,2.176,1.76,26.0
77.789,1.317,0.647,24.0
0.0,0.0,0.0,0.0
39.137,0.637,-0.119,46.0
36.919,0.588,-0.32,1.0
189.622,2.955,3.56,24.0
121.209,1.849,1.593,14.0
0.0,0.0,0.0,0.0
47.919,0.699,0.086,56.0
38.582,0.551,-0.147,51.0
33.522,0.467,-0.316,1.0
127.913,1.738,2.303,9.0
121.231,1.607,1.501,12.0
48.081,0.622,0.325,66.0
47.532,0.599,0.049,45.0
38.208,0.468,-0.174,46.0
32.724,0.39,-0.333,1.0
48.147,0.557,0.831,78.0
48.098,0.54,0.56,102.0
48.045,0.523,0.29,91.0
46.662,0.493,0.015,30.0
38.023,0.388,-0.201,34.0
32.076,0.317,-0.349,1.0
48.102,0.458,0.797,111.0
48.065,0.441,0.526,109.0
48.038,0.425,0.257,100.0
0.0,0.0,0.0,0.0
37.968,0.31,-0.226,13.0
31.353,0.245,-0.362,1.0
48.102,0.359,0.765,102.0
48.11,0.343,0.495,53.0
48.16,0.327,0.226,60.0
44.65,0.288,-0.044,20.0
37.887,0.232,-0.25,8.0
30.842,0.178,-0.376,1.0
59.292,0.322,0.906,88.0
59.304,0.301,0.574,120.0
55.011,0.26,0.224,35.0
43.999,0.193,-0.071,14.0
37.836,0.152,-0.273,18.0
30.359,0.112,-0.389,1.0
79.466,0.265,1.166,151.0
79.438,0.237,0.721,150.0
55.072,0.146,0.192,26.0
43.825,0.101,-0.096,4.0
38.022,0.075,-0.295,2.0
29.973,0.049,-0.4,1.0
79.46,0.101,1.122,151.0
79.406,0.073,0.678,54.0
0.0,0.0,0.0,0.0
40.741,0.009,-0.111,17.0
38.325,-0.004,-0.318,1.0
29.671,-0.013,-0.412,2.0
79.463,-0.063,1.081,151.0
79.264,-0.091,0.636,32.0
0.0,0.0,0.0,0.0
40.556,-0.075,-0.131,16.0
34.513,-0.075,-0.304,0.0
29.451,-0.075,-0.423,4.0
79.471,-0.231,1.043,151.0
79.207,-0.258,0.598,31.0
0.0,0.0,0.0,0.0
40.011,-0.158,-0.148,2.0
33.692,-0.145,-0.312,1.0
29.247,-0.136,-0.434,3.0
79.464,-0.398,1.007,157.0
76.802,-0.411,0.546,14.0
0.0,0.0,0.0,0.0
41.834,-0.253,-0.172,4.0
33.264,-0.213,-0.322,1.0
28.906,-0.196,-0.441,2.0
79.453,-0.564,0.975,185.0
77.237,-0.577,0.518,18.0
49.391,-0.386,0.056,2.0
44.279,-0.362,-0.2,3.0
33.051,-0.282,-0.333,1.0
28.674,-0.255,-0.448,3.0
79.452,-0.733,0.945,176.0
77.618,-0.745,0.492,14.0
57.116,-0.568,0.044,3.0
0.0,0.0,0.0,0.0
32.608,-0.348,-0.34,1.0
28.512,-0.315,-0.456,2.0
79.464,-0.903,0.919,150.0
78.245,-0.917,0.47,9.0
60.69,-0.733,0.027,4.0
42.155,-0.525,-0.218,2.0
32.223,-0.412,-0.346,1.0
28.225,-0.371,-0.459,2.0
123.575,-1.667,1.393,15.0
82.048,-1.137,0.469,1.0
57.844,-0.821,0.01,1.0
43.535,-0.634,-0.238,0.0
32.039,-0.478,-0.352,1.0
28.082,-0.429,-0.465,1.0
123.823,-1.93,1.364,12.0
40.3,-0.642,0.22,0.0
40.331,-0.658,-0.002,16.0
40.222,-0.671,-0.229,14.0
31.613,-0.539,-0.355,1.0
27.957,-0.487,-0.469,1.0
40.253,-0.713,0.434,48.0
40.266,-0.728,0.211,48.0
40.3,-0.744,-0.011,60.0
40.201,-0.757,-0.237,5.0
31.612,-0.607,-0.361,1.0
27.82,-0.544,-0.472,1.0
40.246,-0.798,0.427,48.0
0.0,0.0,0.0,0.0
56.602,-1.165,-0.025,1.0
40.198,-0.842,-0.244,6.0
31.557,-0.673,-0.366,1.0
27.553,-0.598,-0.472,2.0
40.317,-0.886,0.422,3.0
40.291,-0.9,0.199,64.0
40.285,-0.916,-0.023,39.0
40.245,-0.929,-0.249,80.0
31.322,-0.735,-0.367,1.0
27.415,-0.653,-0.472,6.0
40.273,-0.971,0.417,16.0
0.0,0.0,0.0,0.0
40.975,-1.018,-0.027,1.0
40.807,-1.029,-0.256,24.0
31.421,-0.804,-0.371,1.0
27.573,-0.716,-0.477,1.0
40.202,-1.055,0.413,51.0
40.188,-1.069,0.192,47.0
40.456,-1.09,-0.029,84.0
40.529,-1.108,-0.257,16.0
31.496,-0.872,-0.373,1.0
27.574,-0.774,-0.478,1.0
40.248,-1.141,0.413,6.0
40.226,-1.155,0.191,20.0
40.213,-1.169,-0.03,46.0
40.179,-1.183,-0.255,15.0
31.498,-0.939,-0.373,1.0
27.644,-0.835,-0.48,1.0
0.0,0.0,0.0,0.0
0.0,0.0,0.0,0.0
0.0,0.0,0.0,0.0
40.369,-1.274,-0.255,6.0
31.616,-1.009,-0.374,1.0
27.583,-0.891,-0.478,1.0
0.0,0.0,0.0,0.0
0.0,0.0,0.0,0.0
0.0,0.0,0.0,0.0
40.946,-1.378,-0.256,1.0
31.633,-1.076,-0.372,1.0
27.703,-0.953,-0.478,2.0
0.0,0.0,0.0,0.0
0.0,0.0,0.0,0.0
55.406,-1.96,-0.032,1.0
40.119,-1.434,-0.247,7.0
31.718,-1.146,-0.369,1.0
27.851,-1.016,-0.477,2.0
0.0,0.0,0.0,0.0
0.0,0.0,0.0,0.0
40.115,-1.503,-0.018,45.0
40.089,-1.517,-0.241,49.0
31.928,-1.22,-0.367,1.0
27.967,-1.079,-0.475,2.0
126.467,-4.906,1.349,2.0
0.0,0.0,0.0,0.0
37.795,-1.494,-0.01,21.0
37.797,-1.508,-0.221,151.0
32.12,-1.293,-0.364,1.0
28.06,-1.14,-0.471,2.0
0.0,0.0,0.0,0.0
0.0,0.0,0.0,0.0
0.0,0.0,0.0,0.0
42.097,-1.765,-0.237,3.0
32.176,-1.361,-0.357,1.0
28.296,-1.208,-0.469,2.0
0.0,0.0,0.0,0.0
0.0,0.0,0.0,0.0
0.0,0.0,0.0,0.0
0.0,0.0,0.0,0.0
33.501,-1.486,-0.363,7.0
28.43,-1.272,-0.464,2.0
0.0,0.0,0.0,0.0
0.0,0.0,0.0,0.0
0.0,0.0,0.0,0.0
0.0,0.0,0.0,0.0
33.589,-1.559,-0.355,10.0
28.919,-1.353,-0.463,7.0
0.0,0.0,0.0,0.0
0.0,0.0,0.0,0.0
60.048,-2.864,0.045,0.0
44.8,-2.153,-0.214,0.0
33.219,-1.608,-0.34,1.0
28.791,-1.405,-0.452,8.0
0.0,0.0,0.0,0.0
0.0,0.0,0.0,0.0
59.888,-2.975,0.066,3.0
45.194,-2.261,-0.2,0.0
34.72,-1.75,-0.343,0.0
29.038,-1.474,-0.445,8.0
0.0,0.0,0.0,0.0
0.0,0.0,0.0,0.0
62.844,-3.246,0.093,4.0
46.306,-2.408,-0.187,0.0
35.143,-1.841,-0.333,0.0
29.391,-1.55,-0.438,1.0
0.0,0.0,0.0,0.0
0.0,0.0,0.0,0.0
61.306,-3.286,0.116,7.0
50.439,-2.722,-0.183,0.0
35.94,-1.952,-0.325,0.0
29.663,-1.622,-0.43,1.0
0.0,0.0,0.0,0.0
0.0,0.0,0.0,0.0
61.943,-3.44,0.146,2.0
50.405,-2.818,-0.159,1.0
37.55,-2.113,-0.322,0.0
30.008,-1.7,-0.42,1.0
0.0,0.0,0.0,0.0
0.0,0.0,0.0,0.0
63.145,-3.631,0.18,0.0
50.457,-2.918,-0.134,8.0
37.778,-2.198,-0.306,0.0
30.63,-1.793,-0.414,1.0
0.0,0.0,0.0,0.0
0.0,0.0,0.0,0.0
0.0,0.0,0.0,0.0
50.49,-3.017,-0.108,9.0
40.662,-2.444,-0.307,0.0
31.097,-1.88,-0.403,1.0
187.381,-11.355,2.764,188.0
0.0,0.0,0.0,0.0
0.0,0.0,0.0,0.0
50.456,-3.11,-0.08,4.0
0.0,0.0,0.0,0.0
31.723,-1.977,-0.393,1.0
187.094,-11.687,2.867,8.0
0.0,0.0,0.0,0.0
0.0,0.0,0.0,0.0
0.0,0.0,0.0,0.0
40.515,-2.587,-0.259,0.0
32.384,-2.079,-0.382,0.0
187.198,-12.044,2.984,150.0
0.0,0.0,0.0,0.0
0.0,0.0,0.0,0.0
62.081,-4.057,-0.022,1.0
0.0,0.0,0.0,0.0
33.326,-2.201,-0.372,1.0
187.22,-12.39,3.107,151.0
0.0,0.0,0.0,0.0
0.0,0.0,0.0,0.0
62.118,-4.173,0.018,2.0
0.0,0.0,0.0,0.0
34.254,-2.324,-0.359,1.0
187.15,-12.721,3.232,8.0
0.0,0.0,0.0,0.0
0.0,0.0,0.0,0.0
62.048,-4.28,0.061,5.0
0.0,0.0,0.0,0.0
35.414,-2.466,-0.346,0.0
0.0,0.0,0.0,0.0
152.023,-10.653,1.913,5.0
0.0,0.0,0.0,0.0
61.203,-4.329,0.104,5.0
50.385,-3.581,-0.185,2.0
37.875,-2.704,-0.343,0.0
154.862,-11.073,2.898,7.0
149.621,-10.746,1.993,5.0
0.0,0.0,0.0,0.0
0.0,0.0,0.0,0.0
50.324,-3.663,-0.147,1.0
0.0,0.0,0.0,0.0
0.0,0.0,0.0,0.0
148.591,-10.927,2.095,50.0
0.0,0.0,0.0,0.0
0.0,0.0,0.0,0.0
50.403,-3.755,-0.107,1.0
40.116,-3.002,-0.301,0.0
197.038,-14.763,3.994,23.0
148.426,-11.166,2.212,107.0
0.0,0.0,0.0,0.0
0.0,0.0,0.0,0.0
0.0,0.0,0.0,0.0
0.0,0.0,0.0,0.0
284.923,-21.823,6.012,14.0
148.294,-11.403,2.332,5.0
129.012,-9.959,1.336,2.0
0.0,0.0,0.0,0.0
0.0,0.0,0.0,0.0
0.0,0.0,0.0,0.0
0.0,0.0,0.0,0.0
128.148,-10.062,2.125,14.0
128.001,-10.089,1.435,2.0
0.0,0.0,0.0,0.0
0.0,0.0,0.0,0.0
0.0,0.0,0.0,0.0
291.219,-23.251,6.651,15.0
0.0,0.0,0.0,0.0
0.0,0.0,0.0,0.0
87.202,-7.039,0.579,6.0
0.0,0.0,0.0,0.0
50.385,-4.098,-0.204,1.0
202.028,-16.446,4.796,29.0
0.0,0.0,0.0,0.0
122.115,-10.012,1.591,60.0
0.0,0.0,0.0,0.0
0.0,0.0,0.0,0.0
50.401,-4.177,-0.157,1.0
165.133,-13.697,4.075,14.0
0.0,0.0,0.0,0.0
122.021,-10.19,1.704,31.0
0.0,0.0,0.0,0.0
0.0,0.0,0.0,0.0
50.423,-4.254,-0.11,1.0
165.078,-13.941,4.23,62.0
165.102,-13.989,3.348,17.0
0.0,0.0,0.0,0.0
121.819,-10.389,1.154,2.0
121.789,-10.422,0.503,2.0
0.0,0.0,0.0,0.0
157.383,-13.523,4.188,62.0
157.28,-13.556,3.343,28.0
0.0,0.0,0.0,0.0
121.7,-10.554,1.274,8.0
89.774,-7.811,0.46,1.0
0.0,0.0,0.0,0.0
157.405,-13.749,4.346,29.0
157.285,-13.781,3.503,37.0
110.833,-9.74,1.875,5.0
109.958,-9.693,1.262,6.0
0.0,0.0,0.0,0.0
0.0,0.0,0.0,0.0
188.543,-16.735,5.4,33.0
188.395,-16.769,4.391,43.0
0.0,0.0,0.0,0.0
108.696,-9.731,1.361,38.0
0.0,0.0,0.0,0.0
0.0,0.0,0.0,0.0
149.444,-13.467,4.436,34.0
188.478,-17.032,4.589,37.0
0.0,0.0,0.0,0.0
108.581,-9.866,1.474,68.0
108.805,-9.914,0.896,1.0
0.0,0.0,0.0,0.0
188.252,-17.214,5.791,36.0
188.542,-17.287,4.794,29.0
188.775,-17.355,3.793,13.0
108.539,-10.005,1.591,53.0
108.741,-10.05,1.016,7.0
0.0,0.0,0.0,0.0
187.984,-17.435,5.989,31.0
187.84,-17.465,4.981,39.0
188.306,-17.551,3.991,38.0
108.565,-10.144,1.71,7.0
108.58,-10.171,1.132,148.0
0.0,0.0,0.0,0.0
149.011,-14.003,4.91,33.0
149.373,-14.071,4.126,39.0
188.13,-17.765,4.194,45.0
0.0,0.0,0.0,0.0
100.714,-9.556,1.162,2.0
90.984,-8.655,0.566,1.0
150.068,-14.286,5.115,36.0
148.97,-14.214,4.284,58.0
149.481,-14.296,3.503,98.0
108.77,-10.427,1.959,1.0
100.749,-9.679,1.278,150.0
97.683,-9.407,0.719,1.0
188.444,-18.16,6.64,23.0
148.943,-14.384,4.455,51.0
149.509,-14.47,3.673,55.0
149.542,-14.505,2.863,5.0
0.0,0.0,0.0,0.0
96.999,-9.45,0.825,1.0
189.048,-18.432,6.879,25.0
148.785,-14.535,4.621,44.0
187.69,-18.374,4.831,47.0
187.662,-18.409,3.811,17.0
96.356,-9.473,1.444,6.0
95.92,-9.449,0.928,3.0
148.187,-14.609,5.566,31.0
148.717,-14.691,4.795,50.0
188.039,-18.61,5.063,48.0
188.018,-18.644,4.042,33.0
95.796,-9.518,1.549,8.0
94.948,-9.454,1.031,3.0
148.042,-14.75,5.737,15.0
148.551,-14.828,4.965,47.0
188.016,-18.802,5.284,52.0
188.486,-18.883,4.276,27.0
95.597,-9.595,1.66,10.0
94.499,-9.503,1.139,20.0
124.801,-12.56,4.986,46.0
148.386,-14.959,5.138,93.0
188.185,-19.004,5.515,59.0
188.031,-19.023,4.492,53.0
95.935,-9.722,1.782,1.0
89.449,-9.081,1.186,5.0
123.128,-12.509,5.067,12.0
148.418,-15.103,5.319,45.0
188.096,-19.172,5.739,43.0
187.866,-19.18,4.716,37.0
96.101,-9.828,1.902,4.0
88.302,-9.046,1.279,6.0
106.577,-10.927,4.518,42.0
148.432,-15.24,5.502,45.0
187.896,-19.322,5.967,27.0
157.493,-16.221,4.147,150.0
96.132,-9.916,2.02,7.0
87.072,-8.996,1.368,11.0
107.223,-11.087,4.678,80.0
122.935,-12.73,4.708,29.0
189.645,-19.665,6.256,19.0
187.71,-19.492,5.174,44.0
188.452,-19.599,4.195,24.0
86.774,-9.037,1.47,6.0
107.222,-11.176,4.81,20.0
122.879,-12.825,4.858,56.0
189.422,-19.796,6.484,26.0
187.786,-19.652,5.412,31.0
188.259,-19.729,4.424,32.0
86.587,-9.087,1.574,12.0
116.186,-12.202,5.358,9.0
107.186,-11.271,4.372,87.0
189.625,-19.965,6.727,22.0
188.094,-19.829,5.655,27.0
188.148,-19.859,4.657,26.0
86.687,-9.162,1.686,10.0
115.353,-12.202,5.464,21.0
107.832,-11.418,4.534,74.0
107.366,-11.382,3.944,73.0
188.163,-19.971,5.894,35.0
123.592,-13.132,3.215,35.0
86.84,-9.239,1.798,8.0
100.181,-10.667,4.872,4.0
107.937,-11.504,4.675,68.0
123.917,-13.221,4.708,47.0
123.403,-13.18,4.02,23.0
123.492,-13.203,3.368,81.0
87.134,-9.327,1.914,7.0
105.223,-11.274,5.252,42.0
108.023,-11.584,4.816,29.0
106.956,-11.48,4.2,50.0
123.305,-13.247,4.174,52.0
123.466,-13.278,3.524,101.0
123.555,-13.301,2.871,36.0
99.288,-10.698,5.082,17.0
108.216,-11.67,4.964,9.0
107.668,-11.621,4.365,53.0
107.306,-11.592,3.769,50.0
123.427,-13.345,3.681,88.0
123.579,-13.374,3.03,48.0
99.221,-10.748,5.206,51.0
105.461,-11.433,4.972,17.0
115.72,-12.554,4.841,20.0
106.991,-11.616,3.896,81.0
123.395,-13.408,3.836,76.0
123.546,-13.435,3.185,28.0
100.029,-10.888,5.376,66.0
108.184,-11.783,5.239,27.0
105.841,-11.535,4.562,19.0
106.879,-11.656,4.028,57.0
123.406,-13.469,3.995,69.0
187.497,-20.479,5.075,19.0
100.108,-10.945,5.51,21.0
108.272,-11.844,5.383,11.0
105.834,-11.584,4.697,30.0
106.459,-11.659,4.148,30.0
107.321,-11.76,3.612,34.0
187.676,-20.579,5.319,27.0
108.422,-11.901,6.107,10.0
99.233,-10.897,5.06,41.0
148.178,-16.279,6.767,14.0
106.4,-11.695,4.283,28.0
107.127,-11.781,3.742,59.0
187.589,-20.641,5.555,24.0
99.512,-10.962,5.732,4.0
99.326,-10.944,5.192,44.0
108.229,-11.93,5.08,21.0
106.04,-11.694,4.401,32.0
106.82,-11.784,3.866,52.0
107.453,-11.86,3.318,35.0
86.086,-9.511,5.068,11.0
108.54,-11.996,5.81,13.0
108.207,-11.962,5.216,52.0
105.823,-11.703,4.526,44.0
106.475,-11.778,3.987,59.0
107.362,-11.881,3.45,66.0
98.281,-10.889,5.911,41.0
108.539,-12.027,5.95,23.0
99.363,-11.012,4.916,46.0
105.736,-11.721,4.656,58.0
106.412,-11.799,4.12,65.0
107.297,-11.9,3.583,64.0
98.257,-10.911,6.034,43.0
90.677,-10.069,5.084,11.0
99.246,-11.022,5.034,50.0
105.691,-11.739,4.789,55.0
106.306,-11.81,4.249,61.0
107.18,-11.909,3.715,48.0
91.42,-10.17,5.73,20.0
98.346,-10.941,5.637,27.0
108.105,-12.026,5.621,40.0
105.705,-11.76,4.922,28.0
106.186,-11.814,4.379,52.0
106.918,-11.897,3.839,29.0
91.372,-10.179,5.842,14.0
98.369,-10.958,5.763,49.0
107.979,-12.028,5.75,24.0
100.018,-11.14,4.782,63.0
105.975,-11.804,4.501,36.0
106.547,-11.868,3.957,38.0
81.528,-9.092,5.314,12.0
98.301,-10.961,5.88,27.0
107.788,-12.016,5.872,16.0
99.569,-11.099,4.882,96.0
105.875,-11.8,4.627,54.0
106.463,-11.865,4.085,56.0
81.675,-9.115,5.425,3.0
98.301,-10.967,6.003,7.0
98.38,-10.973,5.481,20.0
99.254,-11.067,4.99,51.0
105.863,-11.802,4.756,84.0
106.374,-11.858,4.212,58.0
86.391,-9.643,5.844,5.0
98.344,-10.973,6.125,6.0
98.363,-10.972,5.6,40.0
108.213,-12.067,5.572,34.0
105.702,-11.783,4.878,49.0
106.248,-11.841,4.335,42.0
86.317,-9.633,5.944,10.0
91.4,-10.196,5.804,9.0
98.368,-10.968,5.72,50.0
107.977,-12.035,5.689,41.0
100.121,-11.155,4.74,37.0
106.044,-11.811,4.454,35.0
86.341,-9.63,6.05,3.0
81.517,-9.087,5.274,14.0
98.313,-10.954,5.834,45.0
98.749,-10.997,5.32,6.0
99.843,-11.114,4.845,89.0
105.806,-11.773,4.568,48.0
68.315,-7.612,4.867,5.0
81.513,-9.077,5.37,11.0
98.274,-10.937,5.947,31.0
90.627,-10.08,4.99,10.0
99.357,-11.045,4.938,68.0
105.73,-11.748,4.689,61.0
68.4,-7.611,4.954,8.0
101.325,-11.267,6.795,15.0
98.253,-10.918,6.061,42.0
107.753,-11.966,6.059,13.0
99.255,-11.016,5.048,50.0
105.741,-11.728,4.813,20.0
83.005,-9.22,6.11,3.0
86.297,-9.578,5.888,8.0
98.189,-10.89,6.171,37.0
98.324,-10.896,5.643,5.0
99.467,-11.015,5.175,23.0
108.268,-11.982,5.052,12.0
84.471,-9.363,6.315,18.0
86.246,-9.55,5.984,6.0
81.516,-9.019,5.218,10.0
86.026,-9.51,5.034,9.0
99.449,-10.986,5.286,20.0
108.218,-11.945,5.172,53.0
69.208,-7.651,5.253,5.0
68.418,-7.556,4.824,2.0
97.949,-10.808,6.379,17.0
86.019,-9.483,5.131,13.0
90.6,-9.979,4.917,6.0
108.198,-11.908,5.291,46.0
83.935,-9.251,6.465,22.0
68.387,-7.53,4.898,5.0
97.746,-10.752,6.474,23.0
98.249,-10.796,5.968,7.0
90.5,-9.935,5.011,11.0
99.268,-10.887,4.964,18.0
83.96,-9.223,6.559,18.0
68.316,-7.496,4.968,4.0
97.709,-10.709,6.578,21.0
98.224,-10.754,6.074,8.0
125.608,-13.739,7.09,13.0
99.229,-10.842,5.067,48.0
83.889,-9.18,6.645,15.0
84.087,-9.191,6.206,16.0
97.682,-10.664,6.68,17.0
98.421,-10.733,6.19,12.0
90.11,-9.815,5.182,4.0
99.253,-10.799,5.173,48.0
83.8,-9.132,6.726,16.0
82.712,-9.002,6.19,7.0
97.676,-10.617,6.783,14.0
81.569,-8.856,5.214,10.0
86.052,-9.331,5.037,8.0
99.27,-10.752,5.276,30.0
83.721,-9.082,6.806,13.0
82.562,-8.945,6.263,6.0
86.116,-9.317,6.067,2.0
81.423,-8.798,5.287,9.0
86.051,-9.286,5.122,8.0
99.58,-10.733,5.391,7.0
69.009,-7.45,5.678,10.0
69.286,-7.468,5.325,4.0
97.527,-10.498,6.967,12.0
99.17,-10.66,6.537,9.0
100.234,-10.76,6.065,24.0
90.695,-9.723,4.997,7.0
83.616,-8.978,6.963,11.0
82.368,-8.831,6.411,15.0
68.462,-7.329,4.957,4.0
86.489,-9.245,5.784,3.0
100.092,-10.684,6.153,44.0
90.689,-9.666,5.084,7.0
69.048,-7.372,5.815,10.0
68.866,-7.34,5.425,10.0
82.535,-8.783,6.054,6.0
86.293,-9.169,5.853,6.0
99.224,-10.527,6.191,21.0
102.06,-10.812,5.816,6.0
69.018,-7.324,5.877,9.0
68.834,-7.291,5.487,13.0
82.372,-8.711,6.118,8.0
86.203,-9.101,5.924,9.0
81.459,-8.587,5.156,7.0
99.245,-10.445,5.744,41.0
68.997,-7.273,5.938,6.0
68.786,-7.238,5.545,8.0
82.933,-8.712,6.233,4.0
86.201,-9.039,6.002,7.0
81.562,-8.538,5.236,7.0
99.281,-10.376,5.834,6.0
78.252,-8.191,6.804,3.0
68.883,-7.197,5.613,7.0
82.951,-8.651,6.307,3.0
86.132,-8.966,6.071,9.0
81.455,-8.465,5.298,4.0
86.248,-8.947,5.142,12.0
78.288,-8.135,6.873,3.0
68.741,-7.129,5.659,7.0
83.822,-8.676,6.443,8.0
82.574,-8.531,5.889,11.0
89.579,-9.237,5.9,1.0
86.153,-8.868,5.206,10.0
83.408,-8.599,7.392,3.0
68.878,-7.087,5.727,9.0
84.392,-8.666,6.555,3.0
68.123,-6.982,4.913,5.0
99.351,-10.163,6.623,6.0
86.25,-8.806,5.279,8.0
84.961,-8.689,7.596,20.0
68.858,-7.027,5.778,11.0
84.442,-8.6,6.624,5.0
84.439,-8.581,6.154,3.0
99.324,-10.075,6.696,5.0
99.405,-10.063,6.159,18.0
85.003,-8.619,7.664,10.0
68.646,-6.945,5.813,4.0
98.205,-9.914,7.777,9.0
84.532,-8.516,6.222,3.0
98.771,-9.929,6.731,14.0
99.43,-9.975,6.233,23.0
84.982,-8.54,7.724,3.0
77.724,-7.792,6.637,5.0
83.895,-8.392,6.704,2.0
84.544,-8.438,6.283,8.0
82.79,-8.245,5.699,13.0
99.657,-9.904,6.316,17.0
84.936,-8.454,7.779,2.0
77.74,-7.72,6.692,4.0
84.133,-8.335,6.78,4.0
97.454,-9.632,7.309,7.0
99.567,-9.819,6.921,17.0
98.961,-9.738,6.337,27.0
85.194,-8.397,7.859,4.0
76.124,-7.484,6.603,3.0
98.773,-9.687,8.024,6.0
84.75,-8.293,6.41,2.0
86.691,-8.462,6.081,4.0
98.896,-9.632,6.396,22.0
84.702,-8.261,7.868,6.0
77.86,-7.575,6.802,3.0
96.633,-9.379,7.909,2.0
85.139,-8.243,6.491,6.0
84.076,-8.12,5.948,13.0
84.806,-8.172,5.533,8.0
85.114,-8.214,7.956,5.0
80.436,-7.742,7.074,3.0
96.474,-9.262,7.952,6.0
97.188,-9.307,7.465,15.0
98.438,-9.403,7.019,20.0
98.567,-9.392,6.487,9.0
84.456,-8.06,7.941,11.0
99.919,-9.509,8.843,18.0
81.183,-7.705,6.736,2.0
85.882,-8.13,6.643,3.0
98.926,-9.341,7.106,14.0
98.808,-9.306,6.554,8.0
99.815,-9.414,9.438,6.0
98.655,-9.28,8.781,9.0
96.256,-9.029,8.035,6.0
99.479,-9.307,7.744,16.0
86.647,-8.085,6.267,2.0
86.36,-8.038,5.769,7.0
98.055,-9.137,9.319,6.0
98.303,-9.135,8.796,8.0
98.739,-9.15,8.288,14.0
83.962,-7.759,6.574,4.0
86.978,-8.016,6.33,3.0
98.608,-9.063,6.632,12.0
98.015,-9.02,9.359,6.0
96.368,-8.843,8.666,5.0
85.795,-7.851,7.238,4.0
105.783,-9.652,8.328,14.0
84.162,-7.657,6.16,5.0
86.522,-7.85,5.855,2.0
98.661,-8.963,9.46,25.0
84.557,-7.658,7.637,10.0
99.671,-9.001,8.449,3.0
105.292,-9.481,8.33,9.0
84.598,-7.595,6.224,3.0
106.049,-9.495,7.215,20.0
98.242,-8.805,9.457,11.0
99.678,-8.907,9.039,16.0
96.92,-8.634,8.249,8.0
85.129,-7.561,6.764,11.0
97.506,-8.634,7.207,13.0
106.075,-9.366,7.252,6.0
83.261,-7.359,8.042,3.0
84.483,-7.444,7.689,4.0
96.907,-8.512,8.279,7.0
108.116,-9.468,8.624,16.0
86.42,-7.546,6.413,8.0
97.737,-8.508,6.711,6.0
99.825,-8.698,9.671,4.0
96.656,-8.395,8.823,6.0
96.849,-8.385,8.301,1.0
106.042,-9.153,8.487,23.0
97.137,-8.358,7.233,5.0
84.459,-7.245,5.82,7.0
105.647,-9.07,10.261,14.0
105.689,-9.045,9.673,3.0
106.615,-9.095,9.163,20.0
84.555,-7.189,6.786,7.0
85.107,-7.213,6.356,16.0
108.013,-9.125,7.466,10.0
99.234,-8.39,9.659,4.0
106.605,-8.983,9.779,6.0
97.269,-8.17,8.378,9.0
96.836,-8.106,7.79,6.0
97.959,-8.174,7.334,8.0
100.83,-8.386,6.987,5.0
108.719,-9.049,10.6,1.0
106.324,-8.819,9.77,6.0
105.38,-8.711,9.093,10.0
107.047,-8.819,8.627,8.0
97.987,-8.046,7.349,10.0
100.948,-8.262,7.008,4.0
99.611,-8.158,9.724,3.0
105.338,-8.596,9.692,14.0
108.494,-8.823,9.374,4.0
105.892,-8.581,8.545,6.0
108.023,-8.724,8.113,6.0
114.671,-9.231,7.971,5.0
0.0,0.0,0.0,0.0
105.403,-8.459,9.706,8.0
107.685,-8.612,9.311,2.0
98.443,-7.844,7.95,9.0
100.506,-7.981,7.554,7.0
108.569,-8.592,7.552,8.0
0.0,0.0,0.0,0.0
108.571,-8.564,10.002,7.0
106.221,-8.348,9.188,14.0
97.798,-7.659,7.899,7.0
147.51,-11.509,11.089,7.0
108.871,-8.465,7.574,14.0
0.0,0.0,0.0,0.0
0.0,0.0,0.0,0.0
106.252,-8.202,9.189,1.0
107.902,-8.298,8.714,12.0
148.37,-11.368,11.149,13.0
108.216,-8.262,7.525,15.0
0.0,0.0,0.0,0.0
0.0,0.0,0.0,0.0
108.484,-8.221,9.376,4.0
105.577,-7.971,8.519,4.0
148.18,-11.145,11.124,3.0
109.108,-8.175,7.579,3.0
0.0,0.0,0.0,0.0
0.0,0.0,0.0,0.0
108.498,-8.068,9.366,2.0
108.883,-8.064,8.775,6.0
108.834,-8.031,8.158,9.0
109.377,-8.04,7.584,2.0
0.0,0.0,0.0,0.0
0.0,0.0,0.0,0.0
0.0,0.0,0.0,0.0
108.435,-7.875,8.723,2.0
209.364,-15.145,15.662,10.0
206.873,-14.909,14.311,16.0
0.0,0.0,0.0,0.0
0.0,0.0,0.0,0.0
0.0,0.0,0.0,0.0
108.926,-7.752,8.741,3.0
109.012,-7.727,8.133,2.0
207.377,-14.644,14.304,17.0
0.0,0.0,0.0,0.0
0.0,0.0,0.0,0.0
0.0,0.0,0.0,0.0
0.0,0.0,0.0,0.0
108.997,-7.567,8.105,5.0
150.608,-10.413,10.351,10.0
0.0,0.0,0.0,0.0
0.0,0.0,0.0,0.0
0.0,0.0,0.0,0.0
0.0,0.0,0.0,0.0
0.0,0.0,0.0,0.0
209.946,-14.207,14.369,5.0
0.0,0.0,0.0,0.0
0.0,0.0,0.0,0.0
0.0,0.0,0.0,0.0
0.0,0.0,0.0,0.0
0.0,0.0,0.0,0.0
148.156,-9.81,10.09,2.0
0.0,0.0,0.0,0.0
0.0,0.0,0.0,0.0
0.0,0.0,0.0,0.0
0.0,0.0,0.0,0.0
0.0,0.0,0.0,0.0
0.0,0.0,0.0,0.0
0.0,0.0,0.0,0.0
0.0,0.0,0.0,0.0
0.0,0.0,0.0,0.0
0.0,0.0,0.0,0.0
0.0,0.0,0.0,0.0
0.0,0.0,0.0,0.0
0.0,0.0,0.0,0.0
0.0,0.0,0.0,0.0
0.0,0.0,0.0,0.0
0.0,0.0,0.0,0.0
0.0,0.0,0.0,0.0
0.0,0.0,0.0,0.0
0.0,0.0,0.0,0.0
0.0,0.0,0.0,0.0
0.0,0.0,0.0,0.0
0.0,0.0,0.0,0.0
0.0,0.0,0.0,0.0
0.0,0.0,0.0,0.0
0.0,0.0,0.0,0.0
0.0,0.0,0.0,0.0
0.0,0.0,0.0,0.0
0.0,0.0,0.0,0.0
0.0,0.0,0.0,0.0
0.0,0.0,0.0,0.0
0.0,0.0,0.0,0.0
0.0,0.0,0.0,0.0
0.0,0.0,0.0,0.0
0.0,0.0,0.0,0.0
0.0,0.0,0.0,0.0
0.0,0.0,0.0,0.0
0.0,0.0,0.0,0.0
0.0,0.0,0.0,0.0
0.0,0.0,0.0,0.0
92.864,-5.223,7.053,1.0
0.0,0.0,0.0,0.0
0.0,0.0,0.0,0.0
0.0,0.0,0.0,0.0
0.0,0.0,0.0,0.0
0.0,0.0,0.0,0.0
92.95,-5.087,6.998,4.0
92.949,-5.061,6.467,3.0
0.0,0.0,0.0,0.0
0.0,0.0,0.0,0.0
0.0,0.0,0.0,0.0
0.0,0.0,0.0,0.0
92.967,-4.947,6.932,4.0
92.99,-4.922,6.403,3.0
0.0,0.0,0.0,0.0
90.681,-4.764,8.264,4.0
92.675,-4.842,7.912,3.0
83.463,-4.338,6.648,1.0
93.006,-4.808,6.865,7.0
92.986,-4.782,6.331,4.0
0.0,0.0,0.0,0.0
90.773,-4.632,8.201,4.0
92.469,-4.692,7.823,5.0
83.613,-4.22,6.594,4.0
93.007,-4.669,6.792,5.0
93.028,-4.645,6.26,1.0
0.0,0.0,0.0,0.0
90.849,-4.5,8.134,3.0
91.503,-4.507,7.667,11.0
83.549,-4.092,6.52,5.0
89.963,-4.382,6.494,4.0
91.108,-4.414,6.054,1.0
83.287,-4.013,5.059,1.0
90.46,-4.345,8.021,7.0
92.629,-4.423,7.68,2.0
92.196,-4.378,7.114,1.0
83.042,-3.921,5.922,3.0
0.0,0.0,0.0,0.0
83.331,-3.89,4.986,0.0
93.484,-4.349,8.205,6.0
97.794,-4.523,8.019,3.0
89.069,-4.095,6.79,3.0
93.068,-4.254,6.55,8.0
90.738,-4.123,5.864,1.0
83.176,-3.759,4.899,1.0
83.325,-3.752,7.233,12.0
90.278,-4.04,7.315,11.0
89.168,-3.967,6.712,2.0
91.296,-4.038,6.337,4.0
92.514,-4.068,5.89,1.0
83.204,-3.637,4.82,2.0
83.557,-3.639,7.171,6.0
83.811,-3.628,6.708,5.0
92.717,-3.988,6.887,4.0
91.258,-3.902,6.243,6.0
92.572,-3.934,5.8,1.0
0.0,0.0,0.0,0.0
84.268,-3.544,7.143,7.0
92.876,-3.882,7.337,9.0
96.447,-4.007,7.063,4.0
90.134,-3.722,6.071,6.0
92.785,-3.807,5.716,13.0
0.0,0.0,0.0,0.0
84.239,-3.42,7.051,6.0
83.533,-3.37,6.51,12.0
83.477,-3.346,6.023,5.0
90.069,-3.587,5.969,7.0
97.477,-3.859,5.899,2.0
0.0,0.0,0.0,0.0
84.061,-3.291,6.943,9.0
83.334,-3.241,6.4,11.0
92.832,-3.586,6.592,8.0
83.28,-3.197,5.426,6.0
97.833,-3.732,5.81,4.0
0.0,0.0,0.0,0.0
91.432,-3.449,7.447,14.0
83.35,-3.123,6.305,15.0
83.248,-3.099,5.817,12.0
93.062,-3.441,5.956,14.0
175.537,-6.449,10.221,7.0
0.0,0.0,0.0,0.0
83.109,-3.016,6.67,17.0
0.0,0.0,0.0,0.0
83.267,-2.981,5.718,12.0
174.537,-6.205,10.96,38.0
175.477,-6.198,10.006,13.0
0.0,0.0,0.0,0.0
92.575,-3.229,7.316,14.0
83.282,-2.885,6.099,13.0
83.332,-2.867,5.62,10.0
174.6,-5.967,10.75,38.0
0.0,0.0,0.0,0.0
0.0,0.0,0.0,0.0
82.951,-2.778,6.451,14.0
92.391,-3.072,6.649,69.0
90.423,-2.985,5.983,7.0
93.374,-3.061,5.629,5.0
90.551,-2.947,4.935,2.0
0.0,0.0,0.0,0.0
83.092,-2.667,6.352,40.0
83.202,-2.652,5.879,30.0
92.902,-2.939,6.025,41.0
93.245,-2.928,5.497,14.0
90.452,-2.82,4.81,4.0
0.0,0.0,0.0,0.0
90.696,-2.788,6.812,3.0
83.56,-2.55,5.792,12.0
83.392,-2.525,5.296,62.0
93.2,-2.801,5.369,24.0
0.0,0.0,0.0,0.0
0.0,0.0,0.0,0.0
83.574,-2.457,6.163,26.0
90.608,-2.643,6.156,25.0
83.421,-2.415,5.183,45.0
90.44,-2.598,5.085,15.0
129.151,-3.683,6.516,31.0
128.928,-3.65,5.759,9.0
85.829,-2.411,6.209,1.0
92.312,-2.573,6.142,30.0
83.496,-2.308,5.07,43.0
90.472,-2.482,4.961,11.0
129.164,-3.516,6.333,13.0
128.798,-3.478,5.569,24.0
85.896,-2.3,6.089,4.0
129.343,-3.434,8.416,27.0
92.292,-2.431,5.47,38.0
128.962,-3.369,6.881,32.0
129.097,-3.346,6.14,27.0
128.853,-3.313,5.381,49.0
97.547,-2.485,6.77,4.0
97.802,-2.471,6.218,31.0
83.624,-2.095,4.83,39.0
99.043,-2.461,5.137,28.0
129.124,-3.183,5.948,46.0
129.418,-3.165,5.212,32.0
85.054,-2.06,5.775,7.0
129.583,-3.111,8.043,31.0
92.182,-2.195,5.185,19.0
98.717,-2.331,4.971,30.0
129.693,-3.036,5.777,34.0
185.794,-4.313,7.199,10.0
84.15,-1.933,5.583,49.0
91.455,-2.082,5.534,46.0
83.715,-1.89,4.579,36.0
90.605,-2.028,4.421,26.0
128.845,-2.859,5.539,27.0
185.658,-4.083,6.904,35.0
84.397,-1.836,5.465,47.0
101.372,-2.185,5.974,5.0
91.401,-1.953,4.855,78.0
90.604,-1.918,4.276,46.0
184.062,-3.862,7.62,21.0
185.193,-3.85,6.591,40.0
84.953,-1.746,5.364,54.0
101.406,-2.065,5.812,19.0
91.361,-1.843,4.704,64.0
92.929,-1.857,4.235,36.0
188.464,-3.732,7.495,18.0
184.659,-3.623,6.273,51.0
125.765,-2.438,7.735,29.0
83.815,-1.609,4.666,33.0
91.17,-1.733,4.545,79.0
128.406,-2.418,5.641,37.0
185.823,-3.466,7.083,21.0
151.41,-2.796,4.892,18.0
84.106,-1.533,5.032,27.0
83.859,-1.514,4.528,26.0
90.843,-1.623,4.375,44.0
128.437,-2.272,5.424,33.0
184.315,-3.228,6.714,24.0
151.454,-2.627,4.637,95.0
84.075,-1.439,4.887,37.0
101.139,-1.713,5.289,32.0
91.409,-1.532,4.246,77.0
128.055,-2.124,5.192,24.0
151.399,-2.486,5.258,23.0
151.474,-2.461,4.379,90.0
83.974,-1.345,4.736,36.0
90.825,-1.439,4.592,20.0
91.427,-1.433,4.089,41.0
128.282,-1.99,4.977,39.0
151.458,-2.323,4.995,84.0
151.496,-2.299,4.116,65.0
83.885,-1.254,4.582,37.0
79.199,-1.17,3.864,151.0
91.117,-1.331,3.914,78.0
99.548,-1.438,3.686,25.0
86.927,-1.241,2.712,56.0
86.946,-1.227,2.206,75.0
83.891,-1.166,4.432,58.0
85.782,-1.178,4.03,150.0
91.068,-1.236,3.747,64.0
0.0,0.0,0.0,0.0
0.0,0.0,0.0,0.0
79.506,-1.042,1.875,1.0
83.887,-1.081,4.279,103.0
79.415,-1.01,3.586,114.0
79.399,-0.998,3.123,130.0
79.389,-0.985,2.651,150.0
79.424,-0.974,2.189,150.0
79.44,-0.962,1.728,157.0
79.209,-0.943,3.895,151.0
86.044,-1.012,3.729,26.0
79.427,-0.922,2.979,151.0
79.419,-0.909,2.506,151.0
79.439,-0.898,2.044,158.0
79.426,-0.886,1.581,204.0
0.0,0.0,0.0,0.0
79.398,-0.858,3.292,130.0
79.436,-0.847,2.831,151.0
79.435,-0.835,2.359,151.0
79.44,-0.824,1.896,174.0
79.436,-0.813,1.432,173.0
85.892,-0.862,3.902,150.0
79.418,-0.786,3.144,179.0
79.421,-0.774,2.679,151.0
79.431,-0.763,2.209,151.0
79.434,-0.753,1.746,179.0
79.444,-0.742,1.283,175.0
85.96,-0.786,3.74,47.0
79.432,-0.715,2.992,178.0
79.411,-0.704,2.527,150.0
79.431,-0.693,2.055,155.0
79.441,-0.683,1.592,168.0
79.444,-0.673,1.13,169.0
89.554,-0.742,3.724,22.0
79.42,-0.647,2.838,150.0
79.418,-0.637,2.374,150.0
79.422,-0.627,1.903,183.0
79.443,-0.616,1.438,166.0
79.452,-0.606,0.975,169.0
79.434,-0.592,3.148,151.0
79.415,-0.582,2.684,150.0
79.428,-0.572,2.219,155.0
79.421,-0.562,1.747,206.0
79.448,-0.552,1.283,164.0
79.456,-0.543,0.82,172.0
79.416,-0.529,2.992,150.0
79.425,-0.52,2.527,151.0
79.428,-0.51,2.062,175.0
79.429,-0.5,1.59,190.0
79.462,-0.491,1.126,160.0
79.386,-0.481,0.662,150.0
79.424,-0.469,2.833,150.0
79.429,-0.459,2.369,156.0
79.421,-0.45,1.905,185.0
79.437,-0.441,1.433,181.0
79.46,-0.433,0.97,155.0
76.682,-0.409,0.488,14.0
79.41,-0.411,2.674,150.0
79.443,-0.402,2.21,151.0
79.435,-0.393,1.745,196.0
79.447,-0.385,1.273,160.0
79.446,-0.376,0.809,151.0
61.271,-0.283,0.266,11.0
79.424,-0.356,2.514,150.0
79.442,-0.348,2.05,151.0
79.433,-0.34,1.585,255.0
79.45,-0.331,1.113,151.0
79.268,-0.322,0.647,110.0
0.0,0.0,0.0,0.0
79.44,-0.304,2.352,150.0
79.446,-0.296,1.888,153.0
79.447,-0.288,1.422,181.0
79.46,-0.28,0.95,151.0
76.506,-0.262,0.469,14.0
46.184,-0.154,0.012,5.0
79.437,-0.255,2.189,151.0
79.445,-0.247,1.725,157.0
79.457,-0.24,1.261,155.0
79.451,-0.232,0.788,150.0
61.644,-0.175,0.252,16.0
45.635,-0.125,-0.08,3.0
79.443,-0.208,2.026,151.0
79.436,-0.201,1.561,175.0
79.456,-0.194,1.096,154.0
79.27,-0.186,0.622,41.0
0.0,0.0,0.0,0.0
40.093,-0.087,-0.153,16.0
79.444,-0.164,1.862,151.0
79.456,-0.158,1.397,163.0
79.466,-0.151,0.933,156.0
76.084,-0.138,0.44,15.0
46.361,-0.08,-0.003,20.0
38.999,-0.064,-0.23,14.0
79.445,-0.123,1.696,151.0
79.464,-0.117,1.231,156.0
79.461,-0.111,0.767,150.0
56.166,-0.074,0.208,14.0
0.0,0.0,0.0,0.0
38.21,-0.044,-0.305,2.0
79.446,-0.085,1.53,165.0
79.458,-0.079,1.064,157.0
79.168,-0.073,0.597,12.0
50.816,-0.043,0.081,3.0
39.588,-0.031,-0.168,29.0
33.102,-0.023,-0.334,1.0
79.455,-0.05,1.362,156.0
79.463,-0.045,0.899,194.0
75.967,-0.037,0.414,10.0
45.139,-0.019,-0.022,22.0
38.596,-0.014,-0.244,10.0
30.811,-0.009,-0.375,1.0
79.464,-0.018,1.197,151.0
79.419,-0.013,0.731,150.0
55.793,-0.005,0.187,28.0
40.752,-0.001,-0.106,17.0
38.019,0.0,-0.321,0.0
29.476,0.002,-0.421,2.0
79.465,0.01,1.028,151.0
76.316,0.014,0.542,18.0
47.848,0.011,0.059,20.0
39.175,0.011,-0.183,21.0
32.513,0.011,-0.342,1.0
28.169,0.011,-0.462,1.0
79.467,0.037,0.86,151.0
61.944,0.032,0.308,6.0
0.0,0.0,0.0,0.0
38.269,0.023,-0.261,6.0
30.416,0.02,-0.385,1.0
26.822,0.019,-0.497,2.0
79.431,0.06,0.692,70.0
54.446,0.043,0.155,28.0
40.164,0.034,-0.12,16.0
33.551,0.03,-0.3,0.0
29.184,0.027,-0.432,2.0
25.752,0.025,-0.532,1.0
75.988,0.077,0.499,18.0
0.0,0.0,0.0,0.0
38.874,0.042,-0.2,14.0
31.569,0.036,-0.35,1.0
27.659,0.032,-0.468,1.0
24.336,0.029,-0.555,2.0
58.59,0.072,0.259,10.0
43.936,0.056,-0.062,17.0
38.121,0.05,-0.277,3.0
29.899,0.04,-0.395,1.0
26.541,0.036,-0.506,2.0
23.438,0.033,-0.584,2.0
0.0,0.0,0.0,0.0
39.518,0.057,-0.141,38.0
33.333,0.049,-0.313,1.0
28.794,0.043,-0.442,2.0
25.397,0.039,-0.539,1.0
22.549,0.035,-0.61,2.0
0.0,0.0,0.0,0.0
38.553,0.061,-0.218,14.0
31.346,0.05,-0.361,1.0
27.34,0.044,-0.477,1.0
24.053,0.04,-0.561,2.0
21.587,0.036,-0.63,3.0
40.876,0.068,-0.079,17.0
37.945,0.064,-0.295,1.0
29.686,0.05,-0.405,2.0
26.263,0.045,-0.515,3.0
23.239,0.04,-0.592,3.0
20.81,0.036,-0.652,2.0
39.123,0.068,-0.16,39.0
32.923,0.058,-0.327,1.0
28.383,0.05,-0.448,1.0
25.001,0.044,-0.544,1.0
22.332,0.04,-0.616,2.0
19.933,0.036,-0.667,2.0
38.257,0.067,-0.238,7.0
30.671,0.054,-0.37,1.0
26.975,0.048,-0.484,2.0
23.773,0.043,-0.568,3.0
21.348,0.038,-0.635,3.0
18.956,0.034,-0.675,4.0
34.29,0.06,-0.286,1.0
29.324,0.052,-0.416,2.0
25.982,0.046,-0.521,2.0
22.97,0.041,-0.597,2.0
20.544,0.036,-0.654,2.0
18.493,0.033,-0.697,2.0
32.127,0.055,-0.336,1.0
27.979,0.048,-0.456,1.0
24.585,0.042,-0.545,1.0
22.03,0.038,-0.62,2.0
19.58,0.033,-0.665,3.0
17.824,0.03,-0.71,1.0
30.139,0.049,-0.379,1.0
26.735,0.044,-0.493,2.0
23.562,0.038,-0.572,3.0
21.138,0.034,-0.639,3.0
18.864,0.03,-0.681,5.0
17.246,0.027,-0.723,1.0
29.091,0.044,-0.427,2.0
25.636,0.039,-0.526,1.0
22.795,0.034,-0.601,2.0
20.281,0.03,-0.656,2.0
18.276,0.027,-0.698,1.0
15.984,0.023,-0.704,0.0
27.543,0.038,-0.462,1.0
24.271,0.033,-0.549,2.0
21.811,0.029,-0.621,3.0
19.316,0.025,-0.665,3.0
17.67,0.023,-0.712,1.0
15.878,0.02,-0.733,16.0
26.45,0.031,-0.499,2.0
23.369,0.027,-0.578,2.0
20.955,0.024,-0.641,2.0
18.752,0.021,-0.685,3.0
17.15,0.018,-0.727,0.0
15.735,0.016,-0.759,2.0
25.293,0.024,-0.53,1.0
22.523,0.02,-0.604,3.0
20.082,0.018,-0.656,2.0
18.113,0.015,-0.7,1.0
15.924,0.013,-0.708,3.0
15.079,0.012,-0.759,1.0
24.013,0.016,-0.553,2.0
21.576,0.014,-0.624,4.0
19.246,0.012,-0.669,3.0
17.514,0.01,-0.713,1.0
15.884,0.008,-0.74,16.0
14.69,0.007,-0.77,1.0
23.182,0.008,-0.582,3.0
20.778,0.007,-0.643,2.0
18.641,0.005,-0.686,2.0
16.993,0.004,-0.727,0.0
15.534,0.003,-0.755,1.0
14.296,0.002,-0.779,0.0
22.38,0.001,-0.608,3.0
19.89,0.0,-0.656,2.0
18.002,0.0,-0.699,1.0
15.9,-0.001,-0.712,4.0
15.034,-0.001,-0.761,1.0
13.875,-0.002,-0.784,1.0
21.453,-0.006,-0.626,2.0
19.091,-0.007,-0.668,3.0
17.457,-0.007,-0.713,1.0
15.862,-0.007,-0.743,8.0
14.619,-0.007,-0.77,1.0
13.538,-0.007,-0.792,1.0
20.594,-0.014,-0.642,2.0
18.54,-0.014,-0.686,2.0
16.92,-0.014,-0.725,0.0
15.37,-0.013,-0.75,1.0
14.213,-0.013,-0.777,1.0
13.229,-0.013,-0.801,0.0
19.801,-0.023,-0.656,3.0
17.938,-0.021,-0.699,1.0
16.073,-0.02,-0.72,0.0
14.955,-0.02,-0.759,1.0
13.849,-0.019,-0.784,1.0
12.921,-0.018,-0.808,0.0
19.056,-0.031,-0.669,2.0
17.352,-0.029,-0.71,1.0
15.771,-0.027,-0.738,1.0
14.603,-0.026,-0.77,1.0
13.518,-0.025,-0.792,1.0
12.621,-0.024,-0.814,0.0
18.443,-0.039,-0.684,2.0
16.788,-0.037,-0.72,1.0
15.323,-0.035,-0.747,1.0
14.16,-0.033,-0.775,1.0
13.2,-0.032,-0.8,1.0
12.345,-0.03,-0.82,0.0
17.833,-0.048,-0.696,1.0
16.184,-0.045,-0.726,1.0
14.926,-0.042,-0.757,1.0
13.826,-0.04,-0.783,1.0
12.903,-0.038,-0.807,0.0
12.077,-0.037,-0.826,0.0
17.294,-0.056,-0.708,1.0
15.771,-0.053,-0.738,1.0
14.575,-0.05,-0.767,1.0
13.491,-0.047,-0.79,1.0
12.618,-0.045,-0.813,1.0
11.823,-0.043,-0.831,0.0
16.765,-0.065,-0.718,1.0
15.354,-0.061,-0.747,1.0
14.198,-0.057,-0.774,1.0
13.217,-0.054,-0.799,1.0
12.371,-0.052,-0.82,0.0
11.605,-0.05,-0.837,0.0
16.266,-0.073,-0.727,1.0
14.964,-0.069,-0.756,1.0
13.835,-0.065,-0.78,1.0
12.928,-0.062,-0.806,0.0
12.095,-0.059,-0.825,0.0
11.384,-0.056,-0.843,0.0
15.789,-0.082,-0.735,1.0
14.617,-0.077,-0.766,1.0
13.547,-0.073,-0.789,1.0
12.652,-0.069,-0.812,0.0
11.838,-0.066,-0.829,0.0
11.137,-0.063,-0.845,0.0
15.381,-0.091,-0.744,1.0
14.228,-0.085,-0.771,1.0
13.258,-0.081,-0.796,1.0
12.388,-0.077,-0.817,0.0
11.648,-0.073,-0.837,0.0
10.962,-0.07,-0.852,0.0
15.022,-0.1,-0.754,1.0
13.889,-0.094,-0.778,1.0
12.989,-0.089,-0.803,1.0
12.124,-0.084,-0.822,0.0
11.421,-0.08,-0.841,0.0
10.714,-0.077,-0.852,1.0
14.662,-0.109,-0.762,1.0
13.589,-0.102,-0.785,1.0
12.714,-0.097,-0.809,0.0
11.881,-0.092,-0.827,0.0
11.201,-0.088,-0.845,0.0
10.604,-0.084,-0.862,1.0
14.307,-0.117,-0.769,1.0
13.326,-0.111,-0.793,1.0
12.461,-0.105,-0.815,0.0
11.687,-0.1,-0.834,0.0
11.026,-0.096,-0.851,0.0
10.417,-0.091,-0.865,0.0
13.992,-0.126,-0.776,1.0
13.064,-0.12,-0.8,1.0
12.219,-0.113,-0.82,0.0
11.494,-0.108,-0.839,0.0
10.767,-0.102,-0.849,1.0
10.239,-0.099,-0.868,0.0
13.694,-0.135,-0.782,0.0
12.815,-0.128,-0.807,1.0
11.98,-0.121,-0.824,1.0
11.291,-0.116,-0.843,0.0
10.655,-0.11,-0.858,0.0
10.079,-0.106,-0.871,0.0
13.437,-0.145,-0.79,1.0
12.545,-0.137,-0.81,0.0
11.784,-0.13,-0.83,1.0
11.096,-0.124,-0.847,0.0
10.488,-0.118,-0.862,0.0
9.893,-0.113,-0.871,1.0
13.202,-0.154,-0.797,0.0
12.338,-0.146,-0.817,0.0
11.583,-0.138,-0.834,0.0
10.928,-0.132,-0.852,0.0
10.296,-0.126,-0.863,0.0
9.78,-0.121,-0.877,1.0
12.948,-0.163,-0.803,0.0
12.118,-0.154,-0.822,0.0
11.397,-0.147,-0.839,0.0
10.749,-0.14,-0.855,0.0
10.126,-0.133,-0.865,1.0
9.639,-0.128,-0.879,0.0
12.709,-0.172,-0.808,0.0
11.907,-0.163,-0.826,1.0
11.22,-0.155,-0.843,0.0
10.588,-0.148,-0.859,0.0
10.001,-0.141,-0.87,1.0
9.514,-0.136,-0.883,0.0
12.483,-0.182,-0.812,0.0
11.721,-0.172,-0.831,0.0
11.053,-0.164,-0.848,0.0
10.436,-0.156,-0.862,0.0
9.865,-0.149,-0.873,1.0
9.381,-0.143,-0.885,0.0
12.299,-0.191,-0.819,0.0
11.549,-0.182,-0.836,0.0
10.873,-0.172,-0.85,0.0
10.274,-0.165,-0.864,0.0
9.762,-0.158,-0.878,1.0
9.285,-0.152,-0.889,0.0
12.068,-0.2,-0.821,0.0
11.378,-0.191,-0.84,0.0
10.724,-0.181,-0.854,0.0
10.083,-0.172,-0.863,1.0
9.618,-0.166,-0.879,0.0
9.168,-0.159,-0.891,0.0
11.891,-0.21,-0.826,1.0
11.191,-0.199,-0.842,0.0
10.572,-0.19,-0.857,0.0
9.979,-0.181,-0.868,2.0
9.496,-0.174,-0.881,0.0
9.034,-0.167,-0.891,0.0
11.714,-0.219,-0.83,1.0
11.062,-0.209,-0.848,0.0
10.446,-0.199,-0.861,0.0
9.831,-0.189,-0.868,2.0
9.378,-0.182,-0.883,0.0
8.934,-0.175,-0.893,0.0
11.572,-0.229,-0.835,0.0
10.896,-0.218,-0.85,0.0
10.307,-0.208,-0.863,0.0
9.762,-0.198,-0.875,2.0
9.282,-0.19,-0.887,0.0
8.825,-0.182,-0.894,0.0
11.43,-0.239,-0.84,0.0
10.767,-0.227,-0.854,0.0
10.142,-0.216,-0.863,0.0
9.666,-0.207,-0.879,0.0
9.179,-0.198,-0.889,0.0
8.745,-0.191,-0.897,0.0
11.255,-0.248,-0.841,0.0
10.62,-0.236,-0.855,0.0
9.999,-0.224,-0.863,0.0
9.536,-0.215,-0.88,0.0
9.085,-0.207,-0.891,0.0
8.645,-0.198,-0.898,0.0
11.115,-0.258,-0.845,0.0
10.514,-0.246,-0.86,0.0
9.886,-0.233,-0.866,1.0
9.441,-0.224,-0.883,0.0
8.982,-0.215,-0.892,0.0
8.555,-0.206,-0.899,0.0
10.988,-0.268,-0.848,0.0
10.38,-0.255,-0.861,0.0
9.808,-0.243,-0.871,2.0
9.344,-0.233,-0.884,0.0
8.904,-0.224,-0.895,0.0
8.494,-0.215,-0.903,0.0
10.851,-0.277,-0.85,0.0
10.26,-0.264,-0.863,0.0
9.765,-0.253,-0.878,1.0
9.248,-0.242,-0.886,0.0
8.81,-0.232,-0.895,0.0
8.435,-0.224,-0.906,0.0
10.723,-0.287,-0.852,0.0
10.128,-0.273,-0.863,0.0
9.635,-0.261,-0.877,0.0
9.149,-0.25,-0.887,0.0
8.717,-0.24,-0.895,0.0
8.336,-0.231,-0.905,0.0
10.616,-0.297,-0.855,0.0
10.008,-0.282,-0.864,0.0
9.544,-0.271,-0.879,0.0
9.079,-0.259,-0.889,0.0
8.646,-0.249,-0.897,0.0
8.26,-0.239,-0.905,0.0
10.515,-0.307,-0.858,0.0
9.906,-0.291,-0.865,1.0
9.454,-0.28,-0.88,0.0
9.008,-0.268,-0.892,0.0
8.584,-0.258,-0.9,0.0
8.211,-0.248,-0.908,0.0
10.438,-0.318,-0.862,0.0
9.826,-0.301,-0.868,2.0
9.386,-0.289,-0.883,0.0
8.917,-0.277,-0.891,0.0
8.52,-0.266,-0.901,0.0
8.158,-0.257,-0.91,0.0
10.303,-0.326,-0.861,0.0
9.782,-0.312,-0.873,1.0
9.326,-0.299,-0.887,0.0
8.846,-0.286,-0.893,0.0
8.46,-0.275,-0.903,0.0
8.1,-0.265,-0.911,0.0
10.204,-0.336,-0.862,0.0
9.713,-0.322,-0.876,0.0
9.234,-0.308,-0.886,0.0
8.753,-0.294,-0.891,0.0
8.417,-0.285,-0.906,0.0
8.052,-0.274,-0.913,0.0
10.119,-0.346,-0.863,0.0
9.627,-0.332,-0.877,0.0
9.157,-0.317,-0.887,0.0
8.706,-0.304,-0.894,0.0
8.339,-0.293,-0.904,0.0
8.008,-0.283,-0.915,0.0
10.017,-0.356,-0.863,0.0
9.555,-0.341,-0.878,0.0
9.08,-0.326,-0.887,0.0
8.664,-0.313,-0.897,0.0
8.29,-0.302,-0.906,0.0
7.963,-0.291,-0.916,0.0
9.945,-0.366,-0.865,1.0
9.486,-0.351,-0.879,0.0
9.035,-0.336,-0.889,0.0
8.611,-0.323,-0.898,0.0
8.245,-0.311,-0.907,0.0
7.926,-0.3,-0.918,0.0
9.874,-0.376,-0.866,2.0
9.425,-0.361,-0.88,0.0
8.954,-0.345,-0.888,0.0
8.551,-0.331,-0.898,0.0
8.184,-0.319,-0.906,0.0
7.89,-0.309,-0.919,0.0
9.815,-0.386,-0.867,3.0
9.37,-0.371,-0.881,0.0
8.92,-0.355,-0.89,0.0
8.521,-0.341,-0.9,0.0
8.165,-0.329,-0.91,0.0
7.836,-0.318,-0.918,0.0
9.797,-0.398,-0.872,3.0
9.324,-0.381,-0.883,0.0
8.872,-0.365,-0.891,0.0
8.478,-0.351,-0.901,0.0
8.123,-0.338,-0.91,0.0
7.813,-0.327,-0.92,0.0
9.766,-0.41,-0.875,2.0
9.277,-0.391,-0.884,0.0
8.807,-0.374,-0.89,0.0
8.432,-0.36,-0.901,0.0
8.06,-0.346,-0.908,0.0
7.781,-0.336,-0.921,0.0
9.723,-0.421,-0.877,1.0
9.233,-0.402,-0.885,0.0
8.771,-0.384,-0.891,0.0
8.373,-0.368,-0.899,0.0
8.04,-0.355,-0.91,0.0
7.748,-0.344,-0.921,0.0
9.677,-0.431,-0.878,0.0
9.193,-0.412,-0.886,0.0
8.748,-0.394,-0.893,0.0
8.378,-0.379,-0.904,0.0
8.034,-0.366,-0.913,0.0
7.725,-0.354,-0.922,0.0
9.614,-0.441,-0.876,0.0
9.151,-0.422,-0.886,0.0
8.698,-0.403,-0.892,0.0
8.325,-0.388,-0.902,0.0
7.999,-0.375,-0.913,0.0
7.702,-0.363,-0.923,0.0
9.572,-0.452,-0.877,0.0
9.114,-0.432,-0.887,0.0
8.685,-0.414,-0.894,0.0
8.312,-0.398,-0.904,0.0
7.988,-0.385,-0.915,0.0
7.662,-0.371,-0.921,0.0
9.538,-0.462,-0.877,0.0
9.088,-0.443,-0.887,0.0
8.655,-0.424,-0.894,0.0
8.281,-0.407,-0.904,0.0
7.964,-0.394,-0.915,0.0
7.652,-0.38,-0.923,0.0
9.514,-0.474,-0.878,0.0
9.076,-0.454,-0.889,0.0
8.634,-0.434,-0.895,0.0
8.292,-0.419,-0.908,0.0
7.937,-0.403,-0.914,0.0
7.642,-0.39,-0.924,0.0
9.477,-0.484,-0.878,0.0
9.033,-0.464,-0.888,0.0
8.618,-0.444,-0.896,0.0
8.242,-0.427,-0.904,0.0
7.915,-0.412,-0.914,0.0
7.632,-0.399,-0.925,0.0
9.464,-0.496,-0.879,0.0
9.03,-0.475,-0.89,0.0
8.599,-0.455,-0.896,0.0
8.237,-0.437,-0.906,0.0
7.922,-0.423,-0.916,0.0
7.626,-0.409,-0.925,0.0
9.448,-0.507,-0.879,0.0
9.005,-0.485,-0.889,0.0
8.572,-0.464,-0.895,0.0
8.226,-0.447,-0.906,0.0
7.91,-0.432,-0.916,0.0
7.613,-0.418,-0.925,0.0
9.434,-0.518,-0.879,0.0
9.009,-0.497,-0.891,0.0
8.58,-0.475,-0.897,0.0
8.218,-0.457,-0.906,0.0
7.893,-0.441,-0.915,0.0
7.604,-0.427,-0.925,0.0
9.441,-0.531,-0.881,0.0
8.999,-0.508,-0.891,0.0
8.565,-0.485,-0.896,0.0
8.207,-0.467,-0.906,0.0
7.881,-0.451,-0.914,0.0
7.594,-0.436,-0.924,0.0
9.434,-0.542,-0.881,0.0
8.994,-0.519,-0.891,0.0
8.56,-0.496,-0.896,0.0
8.203,-0.477,-0.906,0.0
7.885,-0.461,-0.915,0.0
7.589,-0.445,-0.924,0.0
9.426,-0.553,-0.881,0.0
8.986,-0.53,-0.89,0.0
8.586,-0.508,-0.899,0.0
8.205,-0.488,-0.906,0.0
7.88,-0.47,-0.915,0.0
7.586,-0.455,-0.923,0.0
9.415,-0.564,-0.88,0.0
8.987,-0.541,-0.89,0.0
8.576,-0.518,-0.897,0.0
8.228,-0.499,-0.908,0.0
7.886,-0.48,-0.915,0.0
7.594,-0.465,-0.924,0.0
9.428,-0.577,-0.88,0.0
9.004,-0.553,-0.891,0.0
8.584,-0.529,-0.898,0.0
8.211,-0.508,-0.906,0.0
7.906,-0.491,-0.916,0.0
7.594,-0.474,-0.923,0.0
9.441,-0.589,-0.88,0.0
8.998,-0.563,-0.889,0.0
8.592,-0.54,-0.897,0.0
8.227,-0.519,-0.906,0.0
7.921,-0.502,-0.917,0.0
7.605,-0.484,-0.923,0.0
9.46,-0.601,-0.881,0.0
9.017,-0.575,-0.89,0.0
8.6,-0.551,-0.897,0.0
8.235,-0.529,-0.906,0.0
7.919,-0.511,-0.915,0.0
7.612,-0.493,-0.923,0.0
9.461,-0.612,-0.879,0.0
9.022,-0.586,-0.888,0.0
8.613,-0.561,-0.896,0.0
8.248,-0.54,-0.905,0.0
7.929,-0.521,-0.915,0.0
7.63,-0.503,-0.923,0.0
9.493,-0.625,-0.88,0.0
9.061,-0.599,-0.89,0.0
8.632,-0.573,-0.896,0.0
8.273,-0.551,-0.906,0.0
7.94,-0.531,-0.914,0.0
7.646,-0.513,-0.923,0.0
9.511,-0.638,-0.879,0.0
9.072,-0.61,-0.889,0.0
8.647,-0.584,-0.895,0.0
8.287,-0.561,-0.905,0.0
7.979,-0.542,-0.916,0.0
7.641,-0.521,-0.92,0.0
9.534,-0.65,-0.878,0.0
9.088,-0.622,-0.887,0.0
8.675,-0.595,-0.895,0.0
8.314,-0.572,-0.905,0.0
7.983,-0.552,-0.914,0.0
7.669,-0.532,-0.921,0.0
9.578,-0.664,-0.878,0.0
9.123,-0.634,-0.887,0.0
8.699,-0.607,-0.894,0.0
8.33,-0.583,-0.904,0.0
7.999,-0.561,-0.912,0.0
7.699,-0.542,-0.921,0.0
9.606,-0.676,-0.877,0.0
9.175,-0.648,-0.888,0.0
8.744,-0.619,-0.895,0.0
8.367,-0.594,-0.904,0.0
8.031,-0.573,-0.912,0.0
7.727,-0.553,-0.921,0.0
9.656,-0.69,-0.877,0.0
9.192,-0.659,-0.886,0.0
8.755,-0.629,-0.892,0.0
8.394,-0.605,-0.903,0.0
8.066,-0.583,-0.912,0.0
7.772,-0.564,-0.923,0.0
9.716,-0.704,-0.878,1.0
9.25,-0.672,-0.887,0.0
8.812,-0.642,-0.894,0.0
8.441,-0.617,-0.904,0.0
8.068,-0.592,-0.909,0.0
7.775,-0.572,-0.919,0.0
9.759,-0.717,-0.877,2.0
9.275,-0.683,-0.884,0.0
8.848,-0.654,-0.893,0.0
8.471,-0.628,-0.902,0.0
8.119,-0.604,-0.91,0.0
7.826,-0.584,-0.92,0.0
9.789,-0.729,-0.874,2.0
9.339,-0.697,-0.885,0.0
8.903,-0.667,-0.893,0.0
8.513,-0.639,-0.902,0.0
8.168,-0.615,-0.91,0.0
7.844,-0.593,-0.918,0.0
9.812,-0.74,-0.87,3.0
9.385,-0.71,-0.884,0.0
8.938,-0.678,-0.891,0.0
8.542,-0.65,-0.899,0.0
8.206,-0.626,-0.909,0.0
7.886,-0.603,-0.917,0.0
9.861,-0.753,-0.868,2.0
9.444,-0.723,-0.883,0.0
8.994,-0.691,-0.89,0.0
8.587,-0.661,-0.898,0.0
8.227,-0.635,-0.906,0.0
7.925,-0.614,-0.917,0.0
9.925,-0.767,-0.867,2.0
9.488,-0.735,-0.881,0.0
9.065,-0.704,-0.891,0.0
8.642,-0.673,-0.898,0.0
8.283,-0.647,-0.906,0.0
7.965,-0.624,-0.915,0.0
9.969,-0.779,-0.863,1.0
9.551,-0.748,-0.88,0.0
9.112,-0.716,-0.889,0.0
8.685,-0.684,-0.896,0.0
8.327,-0.658,-0.905,0.0
7.997,-0.633,-0.913,0.0
10.062,-0.795,-0.864,0.0
9.624,-0.762,-0.879,0.0
9.141,-0.726,-0.885,0.0
8.746,-0.696,-0.895,0.0
8.397,-0.67,-0.906,0.0
8.044,-0.644,-0.912,0.0
10.158,-0.811,-0.864,0.0
9.716,-0.778,-0.88,0.0
9.24,-0.741,-0.887,0.0
8.793,-0.707,-0.893,0.0
8.441,-0.68,-0.904,0.0
8.093,-0.654,-0.911,0.0
10.267,-0.828,-0.865,0.0
9.757,-0.789,-0.875,2.0
9.308,-0.754,-0.886,0.0
8.874,-0.721,-0.894,0.0
8.492,-0.691,-0.902,0.0
8.164,-0.666,-0.912,0.0
10.345,-0.842,-0.863,0.0
9.803,-0.8,-0.871,3.0
9.396,-0.768,-0.886,0.0
8.952,-0.733,-0.894,0.0
8.545,-0.702,-0.9,0.0
8.201,-0.675,-0.908,0.0
10.463,-0.859,-0.863,0.0
9.867,-0.812,-0.867,2.0
9.451,-0.779,-0.882,0.0
9.019,-0.745,-0.892,0.0
8.636,-0.715,-0.901,0.0
8.255,-0.685,-0.907,0.0
10.541,-0.873,-0.86,0.0
9.949,-0.826,-0.865,1.0
9.532,-0.793,-0.881,0.0
9.079,-0.756,-0.889,0.0
8.664,-0.723,-0.896,0.0
8.328,-0.697,-0.907,0.0
10.635,-0.888,-0.857,0.0
10.045,-0.84,-0.864,0.0
9.636,-0.807,-0.881,0.0
9.171,-0.77,-0.889,0.0
8.743,-0.735,-0.895,0.0
8.393,-0.707,-0.905,0.0
10.75,-0.904,-0.856,0.0
10.175,-0.857,-0.865,0.0
9.743,-0.822,-0.881,1.0
9.253,-0.782,-0.888,0.0
8.82,-0.747,-0.894,0.0
8.464,-0.718,-0.904,0.0
10.854,-0.919,-0.853,0.0
10.29,-0.873,-0.864,0.0
9.786,-0.832,-0.875,2.0
9.327,-0.794,-0.885,0.0
8.912,-0.76,-0.894,0.0
8.53,-0.729,-0.902,0.0
10.985,-0.936,-0.852,1.0
10.398,-0.888,-0.863,0.0
9.854,-0.843,-0.871,2.0
9.4,-0.805,-0.882,0.0
9.019,-0.774,-0.895,0.0
8.604,-0.739,-0.901,0.0
11.075,-0.95,-0.847,2.0
10.517,-0.903,-0.861,0.0
9.928,-0.854,-0.866,2.0
9.524,-0.821,-0.883,0.0
9.086,-0.784,-0.892,0.0
8.669,-0.749,-0.898,0.0
11.169,-0.963,-0.842,2.0
10.642,-0.919,-0.86,0.0
10.04,-0.868,-0.865,0.0
9.623,-0.833,-0.882,0.0
9.198,-0.798,-0.893,0.0
8.757,-0.761,-0.897,0.0
11.299,-0.979,-0.839,1.0
10.739,-0.932,-0.855,1.0
10.205,-0.887,-0.868,0.0
9.744,-0.848,-0.882,2.0
9.278,-0.809,-0.89,0.0
8.849,-0.772,-0.896,0.0
11.433,-0.996,-0.836,0.0
10.854,-0.946,-0.852,0.0
10.32,-0.901,-0.865,0.0
9.789,-0.856,-0.875,3.0
9.376,-0.82,-0.888,0.0
8.938,-0.783,-0.895,0.0
11.591,-1.014,-0.834,0.0
10.981,-0.961,-0.849,1.0
10.466,-0.917,-0.865,0.0
9.879,-0.867,-0.871,2.0
9.463,-0.831,-0.885,0.0
9.05,-0.796,-0.895,0.0
11.738,-1.03,-0.83,0.0
11.107,-0.976,-0.845,1.0
10.548,-0.928,-0.859,1.0
9.969,-0.878,-0.867,1.0
9.568,-0.843,-0.883,0.0
9.132,-0.806,-0.892,0.0
11.894,-1.047,-0.827,0.0
11.226,-0.989,-0.84,0.0
10.669,-0.941,-0.856,1.0
10.123,-0.894,-0.867,0.0
9.702,-0.858,-0.883,1.0
9.238,-0.818,-0.891,0.0
12.075,-1.066,-0.824,0.0
11.374,-1.005,-0.837,0.0
10.776,-0.953,-0.851,0.0
10.295,-0.911,-0.869,0.0
9.778,-0.866,-0.878,2.0
9.339,-0.828,-0.888,0.0
12.227,-1.082,-0.819,0.0
11.554,-1.023,-0.836,0.0
10.949,-0.97,-0.85,0.0
10.41,-0.923,-0.865,1.0
9.865,-0.876,-0.873,2.0
9.452,-0.84,-0.887,0.0
12.416,-1.101,-0.816,0.0
11.719,-1.04,-0.832,0.0
11.088,-0.984,-0.847,0.0
10.526,-0.935,-0.861,1.0
9.96,-0.886,-0.868,1.0
9.572,-0.852,-0.885,0.0
12.622,-1.121,-0.813,1.0
11.884,-1.056,-0.829,0.0
11.22,-0.997,-0.842,0.0
10.652,-0.947,-0.857,1.0
10.133,-0.902,-0.87,0.0
9.704,-0.864,-0.885,1.0
12.753,-1.133,-0.805,1.0
12.058,-1.072,-0.825,0.0
11.405,-1.014,-0.841,0.0
10.782,-0.959,-0.853,0.0
10.303,-0.917,-0.871,0.0
9.786,-0.872,-0.879,3.0
12.883,-1.145,-0.796,0.0
12.248,-1.089,-0.821,0.0
11.549,-1.027,-0.836,0.0
10.978,-0.977,-0.854,0.0
10.41,-0.927,-0.866,1.0
9.867,-0.879,-0.873,2.0
13.344,-1.186,-0.806,0.0
12.415,-1.104,-0.816,0.0
11.732,-1.043,-0.833,0.0
11.105,-0.988,-0.849,0.0
10.537,-0.938,-0.862,1.0
9.988,-0.889,-0.87,1.0
13.502,-1.199,-0.797,0.0
12.638,-1.123,-0.813,1.0
11.914,-1.059,-0.83,0.0
11.244,-0.999,-0.844,0.0
10.661,-0.948,-0.857,1.0
10.177,-0.905,-0.872,0.0
13.693,-1.215,-0.79,0.0
12.801,-1.136,-0.806,1.0
12.079,-1.072,-0.825,0.0
11.425,-1.014,-0.842,0.0
10.823,-0.961,-0.855,0.0
10.318,-0.916,-0.87,1.0
13.934,-1.235,-0.784,0.0
12.945,-1.147,-0.797,0.0
12.3,-1.09,-0.822,0.0
11.598,-1.028,-0.838,0.0
11.014,-0.976,-0.854,0.0
10.45,-0.926,-0.866,2.0
14.137,-1.25,-0.776,0.0
13.359,-1.181,-0.803,0.0
12.465,-1.102,-0.816,0.0
11.776,-1.041,-0.834,0.0
11.144,-0.985,-0.849,0.0
10.581,-0.935,-0.862,1.0
14.515,-1.28,-0.776,0.0
13.563,-1.196,-0.796,0.0
12.703,-1.12,-0.813,1.0
11.955,-1.054,-0.83,0.0
11.301,-0.996,-0.844,0.0
10.734,-0.946,-0.859,1.0
14.735,-1.296,-0.766,0.0
13.786,-1.212,-0.79,0.0
12.898,-1.133,-0.807,1.0
12.146,-1.067,-0.826,0.0
11.499,-1.01,-0.842,0.0
10.884,-0.956,-0.855,0.0
15.097,-1.323,-0.764,0.0
14.001,-1.226,-0.782,0.0
13.106,-1.147,-0.801,0.0
12.317,-1.078,-0.819,0.0
11.669,-1.021,-0.838,0.0
11.052,-0.966,-0.852,1.0
15.401,-1.344,-0.757,0.0
14.326,-1.25,-0.78,0.0
13.32,-1.161,-0.795,0.0
12.572,-1.095,-0.818,0.0
11.861,-1.033,-0.835,0.0
11.194,-0.974,-0.847,1.0
15.722,-1.366,-0.75,0.0
14.611,-1.268,-0.774,0.0
13.569,-1.177,-0.79,0.0
12.77,-1.107,-0.812,0.0
12.031,-1.042,-0.829,0.0
11.379,-0.985,-0.844,0.0
16.185,-1.399,-0.748,2.0
14.894,-1.286,-0.767,0.0
13.846,-1.195,-0.786,0.0
13.024,-1.123,-0.81,1.0
12.232,-1.054,-0.825,0.0
11.547,-0.994,-0.84,0.0
16.294,-1.401,-0.73,10.0
15.213,-1.306,-0.761,0.0
14.011,-1.202,-0.775,0.0
13.229,-1.134,-0.803,1.0
12.433,-1.065,-0.82,0.0
11.755,-1.006,-0.838,0.0
16.352,-1.397,-0.708,7.0
15.527,-1.325,-0.754,0.0
14.5,-1.236,-0.781,0.0
13.471,-1.147,-0.798,1.0
12.661,-1.077,-0.817,0.0
11.94,-1.015,-0.833,0.0
16.472,-1.398,-0.689,2.0
15.9,-1.347,-0.749,0.0
14.693,-1.244,-0.77,0.0
13.684,-1.157,-0.79,1.0
12.883,-1.088,-0.812,0.0
12.101,-1.021,-0.827,0.0
17.631,-1.485,-0.712,0.0
16.232,-1.365,-0.741,1.0
15.077,-1.267,-0.768,0.0
13.865,-1.164,-0.78,1.0
13.117,-1.099,-0.808,0.0
12.311,-1.031,-0.823,0.0
18.02,-1.506,-0.702,0.0
16.29,-1.359,-0.72,1.0
15.383,-1.282,-0.761,0.0
14.106,-1.174,-0.773,0.0
13.377,-1.112,-0.804,1.0
12.518,-1.039,-0.818,0.0
18.515,-1.534,-0.694,1.0
16.398,-1.357,-0.701,1.0
15.709,-1.298,-0.754,0.0
14.501,-1.196,-0.774,0.0
13.602,-1.121,-0.798,2.0
12.743,-1.049,-0.815,0.0
18.945,-1.556,-0.683,1.0
17.244,-1.414,-0.712,0.0
16.066,-1.315,-0.748,0.0
14.696,-1.201,-0.763,0.0
13.793,-1.126,-0.789,3.0
12.99,-1.058,-0.811,0.0
19.47,-1.583,-0.673,0.0
17.808,-1.446,-0.709,0.0
16.288,-1.32,-0.734,1.0
15.218,-1.231,-0.768,0.0
13.997,-1.131,-0.78,1.0
