X,Y,Z,Reflectivity
27.274,-1.77,-0.504,1.0
24.278,-1.568,-0.58,1.0
21.667,-1.393,-0.632,0.0
19.556,-1.252,-0.674,3.0
40.659,-2.599,-0.274,0.0
32.363,-2.058,-0.389,1.0
28.073,-1.777,-0.487,2.0
24.99,-1.575,-0.568,1.0
22.148,-1.39,-0.621,0.0
19.917,-1.244,-0.665,3.0
0.0,0.0,0.0,0.0
33.647,-2.087,-0.367,0.0
28.789,-1.777,-0.467,1.0
25.495,-1.566,-0.552,1.0
22.557,-1.379,-0.608,0.0
20.475,-1.245,-0.661,2.0
0.0,0.0,0.0,0.0
35.493,-2.143,-0.349,1.0
29.483,-1.771,-0.446,1.0
26.11,-1.561,-0.537,1.0
23.229,-1.381,-0.601,5.0
20.855,-1.234,-0.651,4.0
50.456,-2.979,-0.174,4.0
37.605,-2.209,-0.33,0.0
30.215,-1.766,-0.426,1.0
26.662,-1.55,-0.52,2.0
23.608,-1.365,-0.587,6.0
21.321,-1.226,-0.643,4.0
50.485,-2.896,-0.122,3.0
0.0,0.0,0.0,0.0
31.386,-1.78,-0.41,1.0
27.276,-1.539,-0.504,1.0
24.114,-1.353,-0.574,5.0
21.696,-1.211,-0.632,6.0
58.915,-3.28,-0.083,3.0
40.763,-2.256,-0.275,0.0
32.352,-1.78,-0.39,1.0
27.959,-1.529,-0.489,1.0
24.602,-1.338,-0.562,3.0
22.358,-1.209,-0.63,4.0
59.613,-3.214,-0.026,6.0
0.0,0.0,0.0,0.0
33.216,-1.77,-0.368,1.0
28.506,-1.51,-0.471,7.0
25.449,-1.339,-0.556,1.0
22.673,-1.186,-0.617,2.0
59.591,-3.108,0.03,4.0
0.0,0.0,0.0,0.0
34.545,-1.778,-0.35,0.0
29.127,-1.49,-0.454,8.0
25.906,-1.317,-0.542,1.0
23.115,-1.167,-0.607,2.0
60.156,-3.028,0.087,0.0
50.49,-2.524,-0.196,3.0
36.922,-1.834,-0.34,0.0
29.511,-1.456,-0.432,6.0
26.392,-1.293,-0.528,1.0
23.53,-1.145,-0.597,2.0
0.0,0.0,0.0,0.0
50.483,-2.432,-0.151,7.0
37.323,-1.786,-0.311,0.0
30.152,-1.433,-0.416,1.0
26.869,-1.268,-0.514,1.0
23.906,-1.12,-0.585,1.0
0.0,0.0,0.0,0.0
50.451,-2.338,-0.107,2.0
0.0,0.0,0.0,0.0
31.048,-1.418,-0.402,1.0
27.332,-1.239,-0.5,2.0
24.419,-1.099,-0.578,1.0
0.0,0.0,0.0,0.0
50.427,-2.243,-0.066,0.0
39.939,-1.763,-0.266,0.0
31.834,-1.394,-0.386,1.0
27.997,-1.217,-0.49,2.0
24.905,-1.074,-0.569,1.0
0.0,0.0,0.0,0.0
0.0,0.0,0.0,0.0
42.295,-1.787,-0.249,3.0
32.846,-1.376,-0.373,1.0
28.457,-1.183,-0.476,1.0
25.218,-1.04,-0.557,2.0
0.0,0.0,0.0,0.0
0.0,0.0,0.0,0.0
37.792,-1.524,-0.193,161.0
33.561,-1.342,-0.356,1.0
28.897,-1.146,-0.461,1.0
25.734,-1.012,-0.549,1.0
0.0,0.0,0.0,0.0
40.109,-1.554,0.039,0.0
40.133,-1.54,-0.176,158.0
37.735,-1.436,-0.372,2.0
29.324,-1.105,-0.447,1.0
26.018,-0.972,-0.536,1.0
0.0,0.0,0.0,0.0
0.0,0.0,0.0,0.0
49.969,-1.821,-0.185,2.0
36.779,-1.327,-0.337,0.0
29.799,-1.065,-0.434,1.0
26.455,-0.936,-0.528,1.0
0.0,0.0,0.0,0.0
0.0,0.0,0.0,0.0
0.0,0.0,0.0,0.0
37.974,-1.295,-0.323,0.0
30.197,-1.019,-0.42,1.0
26.808,-0.895,-0.517,1.0
0.0,0.0,0.0,0.0
0.0,0.0,0.0,0.0
0.0,0.0,0.0,0.0
40.216,-1.291,-0.318,3.0
30.838,-0.98,-0.41,1.0
27.09,-0.851,-0.506,2.0
0.0,0.0,0.0,0.0
0.0,0.0,0.0,0.0
40.26,-1.226,-0.073,0.0
40.154,-1.208,-0.293,11.0
31.081,-0.924,-0.395,1.0
27.523,-0.808,-0.498,1.0
40.293,-1.173,0.385,1.0
40.212,-1.156,0.167,43.0
40.204,-1.141,-0.05,62.0
40.476,-1.135,-0.273,16.0
31.664,-0.876,-0.385,2.0
27.833,-0.761,-0.489,1.0
40.207,-1.088,0.406,49.0
40.198,-1.074,0.188,52.0
40.993,-1.08,-0.029,113.0
40.855,-1.062,-0.254,55.0
32.209,-0.825,-0.375,1.0
27.77,-0.702,-0.473,3.0
40.236,-1.006,0.426,40.0
40.324,-0.994,0.209,1.0
40.305,-0.978,-0.009,118.0
40.293,-0.964,-0.231,131.0
32.718,-0.771,-0.365,1.0
28.349,-0.658,-0.47,1.0
40.302,-0.923,0.446,24.0
40.32,-0.91,0.227,1.0
0.0,0.0,0.0,0.0
40.141,-0.877,-0.212,0.0
33.41,-0.718,-0.358,1.0
28.684,-0.606,-0.463,1.0
40.238,-0.84,0.462,43.0
40.283,-0.826,0.244,36.0
40.337,-0.812,0.025,3.0
46.696,-0.924,-0.228,5.0
33.534,-0.651,-0.346,1.0
28.924,-0.551,-0.455,1.0
40.273,-0.756,0.479,26.0
40.247,-0.741,0.259,55.0
40.284,-0.727,0.041,66.0
40.301,-0.713,-0.182,41.0
33.98,-0.589,-0.338,1.0
29.192,-0.495,-0.449,2.0
149.209,-2.489,1.828,10.0
91.571,-1.493,0.623,7.0
61.596,-0.981,0.084,5.0
46.269,-0.72,-0.193,2.0
34.733,-0.529,-0.334,1.0
29.327,-0.435,-0.441,1.0
148.15,-2.155,1.863,20.0
87.909,-1.246,0.626,8.0
60.815,-0.84,0.102,2.0
46.605,-0.627,-0.18,1.0
35.166,-0.46,-0.327,1.0
29.545,-0.376,-0.436,2.0
79.45,-0.987,1.022,150.0
79.083,-0.956,0.585,38.0
62.451,-0.731,0.121,3.0
47.294,-0.536,-0.17,2.0
38.479,-0.422,-0.348,3.0
29.636,-0.315,-0.43,3.0
79.447,-0.819,1.041,170.0
79.27,-0.788,0.606,59.0
60.946,-0.584,0.133,2.0
50.482,-0.465,-0.17,8.0
36.693,-0.324,-0.324,0.0
29.727,-0.252,-0.425,2.0
79.451,-0.647,1.058,175.0
79.371,-0.618,0.623,60.0
53.383,-0.396,0.127,5.0
44.464,-0.313,-0.141,4.0
39.576,-0.265,-0.342,2.0
29.925,-0.189,-0.422,2.0
79.463,-0.476,1.072,156.0
79.453,-0.448,0.637,150.0
0.0,0.0,0.0,0.0
42.056,-0.207,-0.127,5.0
37.365,-0.17,-0.317,0.0
29.941,-0.126,-0.418,2.0
79.459,-0.307,1.083,151.0
79.399,-0.277,0.647,150.0
56.061,-0.176,0.15,25.0
41.733,-0.116,-0.121,19.0
0.0,0.0,0.0,0.0
30.046,-0.062,-0.416,2.0
79.459,-0.136,1.091,151.0
79.403,-0.107,0.655,145.0
55.879,-0.055,0.154,29.0
0.0,0.0,0.0,0.0
38.219,-0.01,-0.317,3.0
30.051,0.002,-0.414,2.0
79.461,0.035,1.096,151.0
79.446,0.062,0.66,130.0
55.255,0.063,0.155,17.0
43.815,0.066,-0.121,4.0
37.99,0.071,-0.314,3.0
30.079,0.067,-0.414,2.0
79.461,0.206,1.098,151.0
79.446,0.235,0.661,26.0
54.858,0.182,0.155,28.0
40.586,0.149,-0.112,16.0
37.715,0.152,-0.312,11.0
30.053,0.131,-0.414,2.0
59.302,0.283,0.819,91.0
48.248,0.246,0.4,17.0
54.973,0.3,0.153,21.0
40.011,0.232,-0.112,15.0
37.648,0.232,-0.313,3.0
30.046,0.196,-0.415,2.0
48.099,0.332,0.661,102.0
48.073,0.349,0.396,99.0
48.032,0.365,0.131,85.0
39.739,0.317,-0.114,15.0
37.423,0.312,-0.314,3.0
29.956,0.259,-0.416,2.0
48.099,0.436,0.657,113.0
48.07,0.453,0.392,97.0
48.009,0.47,0.126,76.0
39.622,0.402,-0.118,15.0
37.278,0.39,-0.317,4.0
29.944,0.324,-0.42,2.0
48.135,0.54,0.652,69.0
48.091,0.556,0.385,81.0
48.014,0.572,0.119,65.0
39.382,0.482,-0.123,30.0
37.121,0.467,-0.321,4.0
29.87,0.386,-0.423,2.0
126.344,1.686,1.691,24.0
0.0,0.0,0.0,0.0
48.051,0.674,0.111,60.0
39.299,0.564,-0.13,39.0
37.011,0.545,-0.327,3.0
29.691,0.447,-0.426,2.0
126.242,1.954,1.664,15.0
77.729,1.229,0.594,21.0
0.0,0.0,0.0,0.0
39.134,0.645,-0.138,40.0
36.84,0.62,-0.334,4.0
29.564,0.508,-0.431,2.0
126.145,2.222,1.633,12.0
75.07,1.347,0.555,11.0
48.06,0.879,0.089,8.0
39.007,0.727,-0.147,36.0
36.746,0.697,-0.342,3.0
29.428,0.569,-0.437,2.0
120.974,2.39,1.532,7.0
74.901,1.504,0.533,16.0
48.177,0.984,0.075,10.0
38.593,0.801,-0.157,43.0
36.616,0.772,-0.352,0.0
29.22,0.626,-0.443,2.0
89.898,1.964,1.111,5.0
74.614,1.654,0.507,17.0
48.252,1.086,0.06,21.0
38.241,0.873,-0.168,43.0
33.363,0.773,-0.332,1.0
29.031,0.682,-0.45,1.0
106.05,2.539,1.274,26.0
74.581,1.809,0.481,14.0
48.228,1.186,0.042,23.0
0.0,0.0,0.0,0.0
33.012,0.834,-0.341,1.0
28.722,0.735,-0.456,2.0
89.499,2.331,1.04,4.0
61.253,1.615,0.371,15.0
47.802,1.276,0.023,22.0
37.055,1.002,-0.191,27.0
32.449,0.888,-0.348,1.0
28.462,0.788,-0.464,1.0
89.399,2.515,1.001,3.0
60.056,1.708,0.338,15.0
47.663,1.371,0.002,22.0
36.838,1.072,-0.206,32.0
31.797,0.936,-0.355,1.0
28.1,0.836,-0.471,1.0
88.9,2.684,0.955,5.0
59.43,1.814,0.307,33.0
47.158,1.454,-0.019,22.0
36.674,1.142,-0.223,27.0
31.571,0.994,-0.368,1.0
27.813,0.884,-0.479,1.0
78.379,2.528,0.803,24.0
59.091,1.925,0.275,33.0
42.608,1.401,-0.039,9.0
36.429,1.21,-0.24,18.0
30.976,1.039,-0.377,1.0
27.768,0.94,-0.493,1.0
78.097,2.678,0.759,34.0
58.733,2.033,0.242,7.0
41.669,1.455,-0.06,18.0
36.193,1.275,-0.258,12.0
30.653,1.089,-0.39,2.0
24.167,0.867,-0.443,4.0
77.797,2.824,0.713,55.0
54.561,1.998,0.194,28.0
41.067,1.517,-0.083,16.0
36.028,1.342,-0.278,10.0
30.287,1.138,-0.403,2.0
23.794,0.901,-0.45,5.0
77.628,2.975,0.664,30.0
54.339,2.099,0.161,28.0
40.262,1.567,-0.106,36.0
35.884,1.408,-0.299,7.0
29.814,1.179,-0.415,2.0
23.181,0.924,-0.453,5.0
74.244,2.993,0.588,10.0
49.119,1.994,0.114,23.0
40.083,1.639,-0.131,52.0
35.749,1.473,-0.321,5.0
29.422,1.221,-0.429,2.0
22.303,0.932,-0.45,4.0
73.706,3.114,0.536,12.0
48.185,2.05,0.08,23.0
39.811,1.706,-0.157,35.0
35.392,1.527,-0.342,3.0
28.988,1.259,-0.443,2.0
22.012,0.963,-0.459,4.0
73.629,3.253,0.484,12.0
46.728,2.078,0.044,22.0
36.486,1.634,-0.169,39.0
32.432,1.462,-0.336,1.0
28.572,1.296,-0.457,1.0
21.596,0.986,-0.466,4.0
58.568,2.701,0.342,9.0
26.704,1.239,0.006,1.0
36.245,1.693,-0.195,37.0
31.827,1.495,-0.354,1.0
24.809,1.173,-0.415,1.0
21.24,1.01,-0.475,4.0
55.227,2.653,0.28,18.0
41.646,2.012,-0.022,17.0
35.916,1.745,-0.221,30.0
31.028,1.517,-0.369,2.0
24.463,1.202,-0.428,5.0
20.927,1.035,-0.484,4.0
54.519,2.721,0.233,29.0
40.96,2.055,-0.054,33.0
35.734,1.803,-0.249,9.0
30.393,1.542,-0.386,2.0
23.633,1.206,-0.433,5.0
20.511,1.052,-0.491,3.0
54.197,2.804,0.187,18.0
40.495,2.107,-0.087,43.0
35.477,1.855,-0.276,9.0
29.891,1.571,-0.405,2.0
22.806,1.205,-0.437,4.0
20.109,1.068,-0.499,3.0
0.0,0.0,0.0,0.0
40.275,2.168,-0.122,22.0
35.366,1.914,-0.306,7.0
29.238,1.59,-0.421,3.0
22.176,1.211,-0.444,4.0
19.733,1.084,-0.507,3.0
45.995,2.547,0.079,21.0
36.687,2.04,-0.143,22.0
35.261,1.971,-0.337,1.0
28.801,1.617,-0.441,1.0
21.601,1.219,-0.452,4.0
19.329,1.096,-0.514,3.0
43.12,2.463,0.035,18.0
36.124,2.073,-0.174,27.0
32.387,1.867,-0.339,1.0
24.808,1.436,-0.402,2.0
21.138,1.229,-0.462,4.0
18.937,1.106,-0.521,3.0
41.622,2.45,-0.004,36.0
35.778,2.115,-0.206,28.0
31.127,1.848,-0.355,1.0
24.188,1.442,-0.415,5.0
20.729,1.241,-0.473,4.0
18.511,1.113,-0.527,4.0
41.004,2.484,-0.044,54.0
35.427,2.155,-0.239,4.0
30.484,1.862,-0.378,2.0
23.284,1.428,-0.423,5.0
20.304,1.25,-0.483,3.0
18.164,1.123,-0.535,5.0
40.158,2.5,-0.083,16.0
0.0,0.0,0.0,0.0
29.818,1.871,-0.399,2.0
22.533,1.419,-0.431,4.0
19.827,1.253,-0.492,3.0
17.79,1.129,-0.542,3.0
36.643,2.341,-0.113,15.0
35.104,2.252,-0.307,8.0
29.319,1.887,-0.423,1.0
21.767,1.406,-0.439,4.0
19.393,1.258,-0.501,3.0
17.412,1.133,-0.549,3.0
36.226,2.373,-0.149,40.0
32.793,2.156,-0.321,1.0
25.013,1.65,-0.386,3.0
21.211,1.404,-0.45,4.0
18.985,1.262,-0.511,3.0
17.062,1.138,-0.556,2.0
35.665,2.393,-0.185,18.0
31.598,2.127,-0.343,1.0
24.241,1.637,-0.401,4.0
20.8,1.41,-0.464,4.0
18.536,1.261,-0.519,3.0
16.759,1.144,-0.564,4.0
35.307,2.424,-0.222,19.0
30.59,2.107,-0.366,1.0
23.41,1.617,-0.413,5.0
20.343,1.41,-0.476,3.0
18.096,1.258,-0.527,3.0
16.406,1.145,-0.571,2.0
35.07,2.461,-0.259,9.0
29.978,2.11,-0.392,2.0
22.485,1.588,-0.422,4.0
19.813,1.403,-0.486,3.0
17.684,1.257,-0.535,4.0
16.0,1.141,-0.575,2.0
34.956,2.505,-0.299,9.0
29.199,2.098,-0.415,1.0
21.786,1.57,-0.434,4.0
19.288,1.394,-0.496,3.0
17.348,1.258,-0.545,2.0
15.597,1.134,-0.578,2.0
32.642,2.387,-0.317,1.0
24.827,1.82,-0.382,2.0
21.134,1.554,-0.445,4.0
18.817,1.387,-0.506,3.0
16.974,1.255,-0.553,2.0
14.719,1.091,-0.563,5.0
31.32,2.334,-0.341,1.0
24.011,1.794,-0.398,5.0
20.623,1.545,-0.459,4.0
18.364,1.38,-0.515,3.0
16.589,1.25,-0.56,2.0
14.335,1.083,-0.566,10.0
30.518,2.316,-0.368,2.0
22.885,1.741,-0.407,5.0
20.114,1.534,-0.472,3.0
17.915,1.37,-0.524,3.0
16.24,1.245,-0.568,2.0
13.927,1.071,-0.567,13.0
29.668,2.291,-0.394,2.0
22.133,1.713,-0.42,4.0
19.629,1.523,-0.485,3.0
17.467,1.359,-0.532,3.0
15.88,1.238,-0.575,2.0
13.765,1.076,-0.577,9.0
25.092,1.97,-0.364,1.0
21.338,1.679,-0.431,4.0
19.054,1.503,-0.494,3.0
17.108,1.353,-0.543,2.0
14.91,1.182,-0.558,2.0
13.598,1.08,-0.587,11.0
24.444,1.95,-0.385,5.0
20.808,1.664,-0.446,4.0
18.539,1.486,-0.504,3.0
16.696,1.341,-0.551,2.0
14.158,1.14,-0.548,12.0
13.495,1.089,-0.599,12.0
23.216,1.88,-0.395,5.0
20.281,1.646,-0.461,3.0
18.065,1.469,-0.514,3.0
16.301,1.329,-0.558,2.0
13.907,1.136,-0.556,13.0
13.314,1.09,-0.608,10.0
22.297,1.832,-0.408,4.0
19.753,1.626,-0.474,3.0
17.63,1.455,-0.524,2.0
15.943,1.318,-0.567,2.0
13.771,1.141,-0.568,11.0
13.18,1.095,-0.619,9.0
21.595,1.799,-0.423,4.0
19.212,1.604,-0.486,3.0
17.247,1.443,-0.535,2.0
13.922,1.167,-0.513,10.0
13.636,1.145,-0.58,11.0
13.077,1.101,-0.632,9.0
20.902,1.765,-0.437,4.0
18.649,1.577,-0.496,3.0
16.771,1.421,-0.542,2.0
13.868,1.177,-0.529,13.0
13.509,1.149,-0.593,10.0
13.066,1.114,-0.648,9.0
20.346,1.739,-0.452,4.0
18.153,1.555,-0.507,3.0
13.911,1.193,-0.468,4.0
13.804,1.186,-0.545,12.0
13.342,1.149,-0.603,8.0
13.047,1.126,-0.665,9.0
19.807,1.713,-0.467,3.0
13.941,1.208,-0.408,5.0
13.871,1.204,-0.485,13.0
13.745,1.195,-0.561,11.0
13.161,1.146,-0.613,8.0
12.813,1.118,-0.67,3.0
19.357,1.693,-0.482,1.0
13.912,1.219,-0.426,13.0
13.824,1.213,-0.502,15.0
13.581,1.194,-0.573,10.0
13.068,1.151,-0.626,9.0
12.546,1.107,-0.673,3.0
13.88,1.227,-0.364,13.0
13.864,1.228,-0.443,14.0
13.793,1.223,-0.52,14.0
13.477,1.197,-0.587,12.0
13.074,1.163,-0.644,10.0
12.355,1.101,-0.68,3.0
13.867,1.238,-0.383,17.0
13.824,1.237,-0.461,22.0
13.76,1.233,-0.538,13.0
13.342,1.197,-0.599,11.0
13.036,1.172,-0.66,9.0
12.059,1.086,-0.68,2.0
13.845,1.248,-0.401,20.0
13.809,1.247,-0.479,18.0
13.718,1.241,-0.555,12.0
13.164,1.192,-0.61,7.0
12.768,1.158,-0.665,4.0
11.797,1.072,-0.682,2.0
13.843,1.259,-0.42,25.0
13.775,1.255,-0.497,17.0
13.584,1.239,-0.568,9.0
13.083,1.195,-0.624,9.0
12.534,1.147,-0.67,4.0
11.583,1.061,-0.686,2.0
13.823,1.268,-0.439,25.0
13.763,1.264,-0.516,16.0
13.471,1.239,-0.582,11.0
13.07,1.204,-0.641,12.0
12.336,1.138,-0.676,3.0
11.363,1.05,-0.688,2.0
13.808,1.277,-0.457,27.0
13.732,1.271,-0.534,14.0
13.336,1.236,-0.595,10.0
13.046,1.211,-0.658,10.0
12.087,1.123,-0.679,1.0
11.191,1.042,-0.694,1.0
13.779,1.284,-0.476,26.0
13.68,1.276,-0.551,12.0
13.17,1.23,-0.606,8.0
12.753,1.192,-0.661,3.0
11.821,1.106,-0.681,1.0
10.96,1.027,-0.695,1.0
13.767,1.291,-0.494,29.0
13.562,1.273,-0.565,10.0
13.091,1.23,-0.62,9.0
12.505,1.177,-0.666,4.0
11.59,1.092,-0.684,1.0
10.788,1.018,-0.699,1.0
13.745,1.297,-0.513,20.0
13.456,1.271,-0.579,11.0
13.066,1.236,-0.638,11.0
12.306,1.165,-0.672,2.0
11.349,1.076,-0.685,1.0
10.565,1.002,-0.699,1.0
13.724,1.303,-0.531,14.0
13.313,1.265,-0.592,11.0
13.051,1.241,-0.655,8.0
12.061,1.148,-0.676,2.0
11.166,1.064,-0.69,1.0
10.378,0.99,-0.701,1.0
13.681,1.305,-0.548,14.0
13.177,1.259,-0.604,8.0
12.788,1.223,-0.66,2.0
11.834,1.132,-0.68,1.0
10.946,1.048,-0.692,1.0
10.217,0.98,-0.705,2.0
13.567,1.301,-0.563,12.0
13.082,1.255,-0.618,10.0
12.514,1.202,-0.663,2.0
11.601,1.115,-0.682,1.0
10.789,1.038,-0.697,1.0
10.035,0.966,-0.706,2.0
13.45,1.295,-0.576,11.0
13.061,1.259,-0.635,12.0
12.307,1.187,-0.669,3.0
11.341,1.095,-0.683,1.0
10.601,1.024,-0.7,1.0
9.887,0.956,-0.709,3.0
13.309,1.286,-0.589,12.0
13.031,1.261,-0.651,7.0
12.076,1.169,-0.673,2.0
11.173,1.082,-0.688,1.0
10.376,1.006,-0.699,1.0
9.769,0.948,-0.715,2.0
13.176,1.278,-0.601,8.0
12.82,1.244,-0.658,2.0
11.817,1.148,-0.675,1.0
10.94,1.063,-0.689,1.0
10.224,0.994,-0.703,2.0
9.668,0.941,-0.72,2.0
13.079,1.272,-0.614,10.0
12.538,1.22,-0.661,2.0
11.618,1.131,-0.679,1.0
10.803,1.053,-0.695,1.0
10.05,0.98,-0.705,2.0
9.592,0.936,-0.728,1.0
13.065,1.274,-0.631,12.0
12.325,1.202,-0.667,2.0
11.381,1.111,-0.681,1.0
10.618,1.037,-0.698,1.0
9.892,0.967,-0.707,3.0
9.441,0.923,-0.729,1.0
13.061,1.276,-0.649,11.0
12.122,1.185,-0.672,2.0
11.211,1.096,-0.686,1.0
10.398,1.017,-0.697,1.0
9.793,0.959,-0.713,2.0
9.293,0.91,-0.73,1.0
12.885,1.261,-0.657,3.0
11.86,1.161,-0.673,1.0
10.973,1.074,-0.686,1.0
10.249,1.004,-0.701,2.0
9.675,0.948,-0.717,2.0
9.197,0.902,-0.735,1.0
12.587,1.233,-0.659,2.0
11.641,1.14,-0.676,1.0
10.836,1.062,-0.692,2.0
10.091,0.989,-0.703,2.0
9.619,0.944,-0.726,1.0
9.078,0.891,-0.738,1.0
12.376,1.213,-0.664,3.0
11.446,1.122,-0.68,1.0
10.66,1.045,-0.694,1.0
9.912,0.972,-0.704,3.0
9.48,0.93,-0.728,1.0
8.964,0.88,-0.74,1.0
12.174,1.193,-0.669,2.0
11.253,1.103,-0.683,2.0
10.488,1.028,-0.697,1.0
9.827,0.964,-0.711,2.0
9.326,0.915,-0.728,1.0
8.85,0.869,-0.742,1.0
11.953,1.171,-0.672,2.0
11.068,1.084,-0.686,1.0
10.289,1.008,-0.697,2.0
9.707,0.952,-0.714,2.0
9.238,0.906,-0.733,1.0
8.708,0.854,-0.741,1.0
11.727,1.148,-0.674,1.0
10.885,1.066,-0.688,2.0
10.159,0.995,-0.701,2.0
9.644,0.945,-0.722,1.0
9.108,0.892,-0.734,1.0
8.302,0.814,-0.717,1.0
11.546,1.129,-0.678,1.0
10.748,1.051,-0.693,1.0
9.997,0.978,-0.702,2.0
9.553,0.934,-0.727,1.0
9.01,0.881,-0.738,1.0
8.035,0.786,-0.704,2.0
11.336,1.107,-0.68,2.0
10.595,1.034,-0.696,1.0
9.878,0.964,-0.706,3.0
9.408,0.918,-0.727,1.0
8.903,0.869,-0.74,1.0
7.891,0.771,-0.701,4.0
11.189,1.09,-0.684,2.0
10.391,1.012,-0.695,1.0
9.777,0.952,-0.711,2.0
9.286,0.905,-0.729,1.0
8.817,0.859,-0.743,1.0
7.784,0.758,-0.701,4.0
10.992,1.068,-0.685,1.0
10.251,0.996,-0.698,2.0
9.687,0.941,-0.716,2.0
9.213,0.895,-0.735,1.0
8.575,0.833,-0.733,0.0
7.713,0.749,-0.704,4.0
10.864,1.053,-0.69,2.0
10.128,0.981,-0.702,2.0
9.62,0.932,-0.722,1.0
9.099,0.881,-0.736,1.0
8.176,0.792,-0.709,1.0
7.652,0.741,-0.708,4.0
10.721,1.035,-0.694,1.0
9.972,0.963,-0.703,2.0
9.514,0.918,-0.725,1.0
8.986,0.867,-0.738,1.0
8.006,0.773,-0.703,2.0
7.563,0.73,-0.708,4.0
10.553,1.015,-0.695,1.0
9.874,0.95,-0.707,2.0
9.396,0.903,-0.727,1.0
8.907,0.856,-0.741,1.0
7.893,0.759,-0.702,4.0
7.509,0.722,-0.711,4.0
10.395,0.996,-0.696,2.0
9.78,0.936,-0.711,2.0
9.311,0.891,-0.73,1.0
8.827,0.845,-0.744,0.0
7.803,0.747,-0.703,4.0
7.485,0.716,-0.717,4.0
10.279,0.98,-0.699,2.0
9.685,0.923,-0.714,2.0
9.213,0.878,-0.733,1.0
8.663,0.825,-0.74,0.0
7.738,0.737,-0.705,4.0
7.464,0.711,-0.723,4.0
10.154,0.963,-0.702,2.0
9.623,0.912,-0.72,1.0
9.124,0.865,-0.735,1.0
8.299,0.786,-0.717,1.0
7.677,0.727,-0.708,4.0
7.413,0.702,-0.726,4.0
10.04,0.947,-0.704,2.0
9.536,0.899,-0.724,1.0
9.032,0.851,-0.737,1.0
8.126,0.766,-0.711,2.0
7.607,0.716,-0.709,4.0
7.383,0.695,-0.731,3.0
9.931,0.931,-0.707,2.0
9.442,0.885,-0.726,1.0
8.988,0.842,-0.743,0.0
7.968,0.746,-0.705,3.0
7.535,0.705,-0.71,3.0
7.341,0.687,-0.734,3.0
9.837,0.917,-0.71,2.0
9.361,0.872,-0.729,1.0
8.875,0.826,-0.742,0.0
7.88,0.733,-0.705,4.0
7.502,0.697,-0.714,4.0
7.288,0.677,-0.736,3.0
9.746,0.902,-0.712,2.0
9.283,0.858,-0.732,1.0
8.781,0.811,-0.743,0.0
7.802,0.721,-0.705,4.0
7.479,0.69,-0.719,4.0
7.205,0.665,-0.734,3.0
9.68,0.889,-0.717,2.0
9.231,0.847,-0.736,0.0
8.613,0.79,-0.736,1.0
7.736,0.709,-0.707,4.0
7.453,0.683,-0.724,4.0
7.142,0.654,-0.735,3.0
9.624,0.877,-0.721,1.0
9.16,0.834,-0.739,0.0
8.464,0.77,-0.731,1.0
7.677,0.698,-0.708,4.0
7.438,0.676,-0.729,4.0
7.082,0.643,-0.735,3.0
9.549,0.863,-0.724,1.0
9.061,0.818,-0.739,0.0
8.269,0.746,-0.721,1.0
7.612,0.686,-0.708,4.0
7.431,0.67,-0.734,4.0
7.06,0.636,-0.738,3.0
9.501,0.852,-0.728,1.0
8.973,0.804,-0.739,1.0
8.09,0.724,-0.712,2.0
7.561,0.676,-0.71,4.0
7.403,0.661,-0.738,4.0
7.045,0.629,-0.743,3.0
9.456,0.84,-0.732,1.0
8.911,0.791,-0.741,1.0
7.98,0.707,-0.709,3.0
7.511,0.665,-0.711,4.0
7.392,0.654,-0.742,3.0
7.03,0.622,-0.746,3.0
9.371,0.824,-0.733,0.0
8.849,0.778,-0.742,1.0
7.895,0.693,-0.707,3.0
7.508,0.659,-0.717,4.0
7.365,0.645,-0.745,3.0
7.033,0.616,-0.752,3.0
9.3,0.81,-0.734,1.0
8.816,0.767,-0.746,1.0
7.872,0.684,-0.711,4.0
7.496,0.651,-0.721,4.0
7.339,0.637,-0.748,3.0
6.999,0.606,-0.753,2.0
9.24,0.797,-0.735,1.0
8.769,0.755,-0.748,1.0
7.823,0.673,-0.712,4.0
7.505,0.645,-0.727,4.0
7.326,0.629,-0.751,3.0
6.966,0.597,-0.755,2.0
9.183,0.783,-0.737,1.0
8.714,0.742,-0.749,1.0
7.78,0.662,-0.713,4.0
7.52,0.639,-0.733,4.0
7.307,0.62,-0.754,3.0
6.95,0.589,-0.757,3.0
9.127,0.77,-0.738,1.0
8.666,0.73,-0.75,1.0
7.744,0.651,-0.715,4.0
7.541,0.633,-0.74,3.0
7.32,0.614,-0.76,3.0
6.95,0.582,-0.761,2.0
9.074,0.756,-0.739,1.0
8.604,0.716,-0.75,1.0
7.708,0.641,-0.716,4.0
7.58,0.629,-0.748,3.0
7.33,0.608,-0.765,3.0
6.952,0.575,-0.765,2.0
9.034,0.744,-0.741,1.0
8.461,0.695,-0.742,1.0
7.744,0.636,-0.723,4.0
7.594,0.622,-0.753,3.0
7.326,0.6,-0.768,2.0
6.949,0.568,-0.769,2.0
8.997,0.731,-0.742,1.0
8.259,0.67,-0.728,2.0
7.767,0.629,-0.729,4.0
7.586,0.614,-0.756,3.0
7.31,0.591,-0.77,2.0
6.936,0.56,-0.771,1.0
8.977,0.72,-0.745,1.0
8.201,0.657,-0.727,2.0
7.821,0.625,-0.738,4.0
7.568,0.604,-0.758,2.0
7.289,0.581,-0.771,1.0
6.927,0.551,-0.773,1.0
8.936,0.707,-0.745,1.0
8.149,0.644,-0.726,3.0
7.833,0.618,-0.742,4.0
7.548,0.594,-0.759,2.0
7.259,0.571,-0.771,1.0
6.92,0.543,-0.775,1.0
8.906,0.695,-0.746,1.0
8.113,0.632,-0.726,3.0
7.845,0.61,-0.746,4.0
7.527,0.584,-0.76,2.0
7.259,0.562,-0.774,1.0
6.9,0.534,-0.775,1.0
8.89,0.684,-0.748,2.0
8.143,0.625,-0.731,3.0
7.856,0.602,-0.75,4.0
7.513,0.574,-0.761,2.0
7.223,0.551,-0.773,1.0
6.9,0.526,-0.777,1.0
8.875,0.672,-0.75,1.0
8.174,0.618,-0.737,4.0
7.847,0.592,-0.752,4.0
7.52,0.566,-0.764,2.0
7.204,0.541,-0.773,1.0
6.928,0.52,-0.782,1.0
8.852,0.66,-0.75,2.0
8.196,0.61,-0.741,4.0
7.866,0.584,-0.755,4.0
7.518,0.557,-0.765,1.0
7.199,0.532,-0.774,1.0
6.958,0.514,-0.788,1.0
8.846,0.649,-0.752,1.0
8.264,0.605,-0.749,4.0
7.908,0.578,-0.761,3.0
7.539,0.549,-0.769,1.0
7.192,0.523,-0.775,1.0
7.017,0.509,-0.796,1.0
8.841,0.638,-0.753,2.0
8.298,0.597,-0.753,5.0
7.889,0.567,-0.761,2.0
7.545,0.541,-0.771,1.0
7.218,0.516,-0.779,1.0
7.083,0.505,-0.804,1.0
8.817,0.625,-0.752,2.0
8.34,0.59,-0.758,4.0
7.908,0.558,-0.764,2.0
7.551,0.532,-0.773,1.0
7.245,0.509,-0.782,1.0
7.179,0.503,-0.816,1.0
8.802,0.613,-0.752,3.0
8.345,0.58,-0.76,4.0
7.927,0.549,-0.766,1.0
7.544,0.522,-0.772,1.0
7.311,0.504,-0.79,1.0
7.302,0.503,-0.83,1.0
8.815,0.603,-0.753,4.0
8.367,0.571,-0.762,3.0
7.945,0.541,-0.768,1.0
7.566,0.514,-0.775,1.0
7.393,0.501,-0.799,1.0
7.412,0.501,-0.843,1.0
8.826,0.592,-0.754,5.0
8.392,0.562,-0.764,2.0
7.945,0.53,-0.768,1.0
7.596,0.506,-0.778,1.0
7.497,0.498,-0.81,1.0
7.512,0.497,-0.854,1.0
8.861,0.583,-0.757,4.0
8.402,0.551,-0.765,1.0
7.951,0.52,-0.769,1.0
7.643,0.499,-0.782,1.0
7.622,0.496,-0.823,1.0
7.625,0.495,-0.867,1.0
8.868,0.572,-0.757,3.0
8.407,0.541,-0.765,1.0
7.965,0.511,-0.769,1.0
7.726,0.494,-0.79,1.0
7.732,0.493,-0.834,1.0
7.741,0.492,-0.879,0.0
8.895,0.562,-0.758,2.0
8.425,0.531,-0.765,1.0
8.005,0.503,-0.772,1.0
7.82,0.49,-0.799,1.0
7.852,0.49,-0.846,1.0
7.866,0.49,-0.892,0.0
8.904,0.551,-0.758,2.0
8.44,0.521,-0.765,1.0
8.055,0.495,-0.775,1.0
7.95,0.487,-0.811,1.0
7.977,0.488,-0.858,0.0
7.992,0.487,-0.905,0.0
8.907,0.539,-0.756,2.0
8.447,0.51,-0.764,1.0
8.121,0.488,-0.78,1.0
8.088,0.485,-0.823,1.0
8.091,0.484,-0.869,0.0
8.104,0.483,-0.916,0.0
8.932,0.529,-0.756,2.0
8.479,0.5,-0.765,2.0
8.22,0.483,-0.787,1.0
8.234,0.483,-0.836,1.0
8.226,0.48,-0.881,0.0
8.287,0.483,-0.934,0.0
8.96,0.518,-0.756,2.0
8.521,0.491,-0.766,2.0
8.372,0.481,-0.8,2.0
8.392,0.48,-0.849,1.0
8.4,0.479,-0.897,0.0
8.369,0.476,-0.94,0.0
8.982,0.507,-0.755,2.0
8.584,0.483,-0.769,2.0
8.506,0.477,-0.809,2.0
8.511,0.476,-0.858,1.0
8.582,0.478,-0.913,0.0
8.54,0.474,-0.956,0.0
9.027,0.497,-0.755,2.0
8.67,0.476,-0.773,2.0
8.618,0.471,-0.816,2.0
8.634,0.47,-0.867,0.0
8.674,0.471,-0.919,0.0
8.672,0.469,-0.967,0.0
9.083,0.488,-0.756,2.0
8.803,0.471,-0.781,2.0
8.788,0.469,-0.829,2.0
8.826,0.469,-0.882,0.0
8.824,0.467,-0.931,0.0
8.807,0.464,-0.978,0.0
9.148,0.479,-0.757,2.0
8.959,0.467,-0.791,2.0
8.99,0.467,-0.843,1.0
9.03,0.467,-0.898,0.0
9.015,0.465,-0.947,0.0
8.856,0.455,-0.979,0.0
9.237,0.471,-0.76,2.0
9.114,0.463,-0.8,2.0
9.132,0.462,-0.852,0.0
9.195,0.463,-0.91,0.0
9.148,0.459,-0.956,0.0
8.899,0.444,-0.979,0.0
9.34,0.463,-0.763,2.0
9.274,0.458,-0.809,2.0
9.295,0.457,-0.862,0.0
9.327,0.457,-0.917,0.0
9.292,0.453,-0.965,0.0
8.43,0.41,-0.922,0.0
9.49,0.458,-0.77,2.0
9.448,0.454,-0.818,2.0
9.506,0.455,-0.876,0.0
9.519,0.453,-0.93,0.0
9.368,0.444,-0.967,0.0
8.419,0.397,-0.916,0.0
9.64,0.452,-0.776,2.0
9.662,0.451,-0.83,1.0
9.689,0.45,-0.886,0.0
9.671,0.447,-0.939,0.0
9.37,0.431,-0.961,0.0
8.421,0.386,-0.91,0.0
9.839,0.448,-0.785,2.0
9.878,0.448,-0.842,1.0
9.91,0.447,-0.899,0.0
9.862,0.443,-0.95,0.0
9.124,0.408,-0.929,0.0
8.481,0.377,-0.911,0.0
10.039,0.443,-0.794,2.0
10.124,0.445,-0.856,2.0
10.066,0.44,-0.906,0.0
9.971,0.434,-0.953,0.0
8.92,0.386,-0.902,0.0
8.533,0.368,-0.91,0.0
10.237,0.438,-0.801,2.0
10.214,0.435,-0.855,6.0
10.243,0.434,-0.914,0.0
9.951,0.42,-0.943,0.0
8.997,0.377,-0.902,0.0
8.608,0.359,-0.911,0.0
10.446,0.433,-0.809,1.0
10.244,0.423,-0.849,3.0
10.289,0.422,-0.909,1.0
9.417,0.384,-0.885,0.0
9.077,0.369,-0.903,0.0
8.65,0.349,-0.908,0.0
10.699,0.429,-0.82,1.0
10.628,0.424,-0.872,0.0
10.398,0.413,-0.91,1.0
9.419,0.372,-0.877,0.0
9.171,0.36,-0.904,0.0
8.712,0.34,-0.906,0.0
10.909,0.423,-0.826,0.0
10.974,0.423,-0.891,0.0
10.594,0.406,-0.917,0.0
9.634,0.367,-0.888,0.0
9.301,0.353,-0.908,0.0
8.8,0.332,-0.907,0.0
11.139,0.417,-0.833,0.0
11.185,0.416,-0.897,0.0
10.277,0.38,-0.88,0.0
9.737,0.358,-0.888,0.0
9.321,0.341,-0.901,0.0
8.864,0.322,-0.905,0.0
11.473,0.414,-0.846,0.0
11.451,0.411,-0.907,0.0
10.319,0.368,-0.873,0.0
9.823,0.348,-0.886,0.0
9.334,0.329,-0.892,1.0
8.939,0.313,-0.903,0.0
11.699,0.407,-0.851,0.0
11.683,0.404,-0.913,0.0
10.357,0.356,-0.865,0.0
9.909,0.338,-0.883,0.0
9.389,0.318,-0.887,0.0
9.029,0.304,-0.903,0.0
12.035,0.403,-0.863,0.0
11.901,0.396,-0.917,0.0
10.551,0.349,-0.87,0.0
10.019,0.329,-0.882,0.0
9.534,0.311,-0.891,0.0
9.051,0.293,-0.895,0.0
12.33,0.397,-0.87,0.0
12.138,0.388,-0.922,0.0
10.622,0.337,-0.864,0.0
10.102,0.319,-0.878,0.0
9.65,0.302,-0.89,0.0
9.083,0.283,-0.887,1.0
12.63,0.391,-0.877,1.0
10.778,0.329,-0.864,0.0
10.202,0.309,-0.874,0.0
9.752,0.293,-0.888,0.0
9.275,0.277,-0.895,0.0
12.939,0.384,-0.883,1.0
10.922,0.319,-0.863,0.0
10.36,0.3,-0.875,0.0
9.867,0.284,-0.887,0.0
9.388,0.268,-0.894,0.0
13.058,0.371,-0.875,1.0
11.064,0.309,-0.86,0.0
10.398,0.289,-0.865,3.0
9.954,0.274,-0.882,0.0
9.485,0.259,-0.891,0.0
13.197,0.359,-0.867,0.0
11.182,0.299,-0.855,0.0
10.447,0.277,-0.856,2.0
10.066,0.265,-0.879,0.0
9.61,0.251,-0.89,0.0
13.315,0.346,-0.858,0.0
12.119,0.312,-0.845,0.0
11.337,0.289,-0.851,0.0
10.683,0.27,-0.861,0.0
10.216,0.257,-0.878,0.0
9.729,0.242,-0.888,0.0
13.013,0.322,-0.821,0.0
12.224,0.3,-0.836,0.0
11.548,0.281,-0.852,0.0
10.878,0.263,-0.862,0.0
10.337,0.247,-0.874,3.0
9.847,0.234,-0.886,0.0
13.18,0.311,-0.813,0.0
12.417,0.29,-0.832,0.0
11.694,0.271,-0.846,0.0
11.031,0.253,-0.858,0.0
10.399,0.237,-0.865,5.0
9.975,0.225,-0.883,0.0
13.434,0.301,-0.81,0.0
12.597,0.28,-0.826,0.0
11.912,0.262,-0.845,0.0
11.207,0.245,-0.856,0.0
10.473,0.226,-0.856,2.0
10.101,0.216,-0.879,0.0
13.629,0.29,-0.802,0.0
12.819,0.27,-0.822,0.0
12.085,0.253,-0.839,0.0
11.381,0.236,-0.852,0.0
10.763,0.221,-0.863,0.0
10.238,0.208,-0.876,0.0
13.823,0.279,-0.793,0.0
13.043,0.261,-0.817,0.0
12.297,0.243,-0.836,0.0
11.581,0.227,-0.85,0.0
10.935,0.212,-0.86,0.0
10.402,0.2,-0.874,3.0
13.273,0.251,-0.811,1.0
12.491,0.234,-0.83,0.0
11.779,0.218,-0.846,0.0
11.107,0.203,-0.857,0.0
10.456,0.189,-0.862,9.0
13.525,0.241,-0.805,1.0
12.717,0.224,-0.825,1.0
11.988,0.209,-0.842,0.0
11.304,0.195,-0.854,0.0
10.531,0.18,-0.851,2.0
14.901,0.253,-0.785,0.0
13.754,0.231,-0.797,0.0
12.944,0.215,-0.818,1.0
12.189,0.2,-0.836,0.0
11.522,0.187,-0.852,0.0
10.877,0.174,-0.861,0.0
15.086,0.241,-0.77,1.0
14.077,0.222,-0.793,0.0
13.204,0.206,-0.813,1.0
12.402,0.191,-0.83,1.0
11.727,0.178,-0.847,0.0
11.043,0.166,-0.856,1.0
15.328,0.229,-0.757,0.0
14.475,0.214,-0.791,0.0
13.472,0.197,-0.807,1.0
12.645,0.182,-0.826,1.0
11.927,0.17,-0.842,1.0
11.259,0.158,-0.854,0.0
15.726,0.22,-0.75,0.0
14.796,0.204,-0.784,1.0
13.769,0.188,-0.802,1.0
12.901,0.174,-0.821,1.0
12.134,0.161,-0.836,1.0
11.494,0.151,-0.852,0.0
16.168,0.211,-0.744,0.0
15.058,0.194,-0.772,2.0
14.019,0.178,-0.792,1.0
13.153,0.165,-0.814,1.0
12.382,0.153,-0.832,1.0
11.687,0.143,-0.846,0.0
15.306,0.183,-0.758,0.0
14.442,0.171,-0.791,0.0
13.42,0.156,-0.807,1.0
12.64,0.145,-0.826,1.0
11.915,0.135,-0.842,1.0
15.714,0.175,-0.751,0.0
14.784,0.162,-0.784,1.0
13.805,0.149,-0.805,1.0
12.888,0.137,-0.819,1.0
12.138,0.127,-0.835,1.0
48.185,0.502,-1.963,38.0
16.218,0.166,-0.745,0.0
15.066,0.152,-0.771,2.0
13.966,0.139,-0.79,3.0
13.18,0.129,-0.814,1.0
12.413,0.12,-0.832,1.0
48.189,0.463,-1.877,9.0
16.926,0.16,-0.747,1.0
15.363,0.143,-0.759,0.0
14.439,0.132,-0.79,1.0
13.457,0.121,-0.807,1.0
12.663,0.112,-0.825,1.0
18.817,0.166,-0.698,1.0
15.804,0.134,-0.751,0.0
14.813,0.124,-0.783,1.0
13.805,0.113,-0.802,1.0
12.938,0.104,-0.819,1.0
19.37,0.156,-0.682,1.0
48.185,0.381,-1.949,9.0
16.348,0.127,-0.746,0.0
15.081,0.115,-0.768,1.0
14.145,0.106,-0.795,1.0
13.236,0.097,-0.813,1.0
20.191,0.147,-0.673,0.0
18.386,0.132,-0.708,1.0
17.1,0.12,-0.747,2.0
15.68,0.108,-0.769,2.0
14.528,0.098,-0.788,1.0
13.546,0.09,-0.805,1.0
20.908,0.138,-0.657,1.0
18.923,0.122,-0.692,2.0
17.273,0.109,-0.722,27.0
15.797,0.098,-0.744,17.0
14.911,0.09,-0.78,1.0
13.874,0.082,-0.798,1.0
21.718,0.129,-0.64,1.0
19.639,0.114,-0.68,1.0
17.499,0.099,-0.697,2.0
16.204,0.09,-0.731,0.0
15.194,0.082,-0.765,1.0
14.258,0.076,-0.792,1.0
22.554,0.119,-0.621,2.0
20.422,0.106,-0.668,1.0
18.64,0.094,-0.706,2.0
17.254,0.085,-0.745,6.0
15.777,0.076,-0.763,12.0
14.669,0.069,-0.786,1.0
23.345,0.109,-0.596,2.0
21.161,0.097,-0.65,2.0
19.041,0.085,-0.684,3.0
17.279,0.075,-0.712,14.0
15.797,0.067,-0.733,4.0
15.031,0.062,-0.775,2.0
24.095,0.099,-0.567,2.0
22.067,0.088,-0.634,2.0
19.924,0.078,-0.675,1.0
18.212,0.069,-0.713,1.0
17.039,0.063,-0.756,0.0
15.547,0.056,-0.77,1.0
25.462,0.091,-0.548,2.0
22.912,0.08,-0.611,2.0
20.803,0.07,-0.663,2.0
18.795,0.062,-0.698,5.0
17.332,0.055,-0.733,1.0
15.843,0.049,-0.753,3.0
26.537,0.082,-0.517,2.0
23.652,0.071,-0.583,2.0
21.494,0.062,-0.641,2.0
19.344,0.054,-0.679,3.0
17.912,0.048,-0.721,1.0
15.913,0.042,-0.723,1.0
27.589,0.072,-0.482,2.0
24.729,0.062,-0.559,1.0
22.517,0.055,-0.625,2.0
20.314,0.048,-0.671,2.0
18.55,0.042,-0.709,2.0
17.095,0.037,-0.742,0.0
29.077,0.064,-0.448,2.0
26.029,0.055,-0.535,2.0
23.344,0.047,-0.6,3.0
21.096,0.041,-0.653,2.0
19.002,0.035,-0.687,3.0
17.608,0.031,-0.727,1.0
30.227,0.054,-0.403,1.0
27.102,0.047,-0.501,1.0
24.184,0.04,-0.572,2.0
21.998,0.035,-0.636,4.0
19.906,0.03,-0.678,2.0
18.221,0.026,-0.715,1.0
31.938,0.046,-0.359,1.0
28.449,0.039,-0.466,2.0
25.511,0.033,-0.549,1.0
22.953,0.028,-0.615,5.0
20.765,0.024,-0.663,2.0
18.796,0.021,-0.698,3.0
35.344,0.039,-0.323,0.0
29.64,0.031,-0.423,2.0
26.654,0.026,-0.518,2.0
23.722,0.022,-0.586,2.0
21.615,0.019,-0.645,4.0
19.543,0.016,-0.684,2.0
38.393,0.032,-0.27,7.0
31.265,0.024,-0.381,1.0
27.842,0.02,-0.483,1.0
24.869,0.017,-0.561,1.0
22.554,0.014,-0.626,4.0
20.422,0.012,-0.672,2.0
39.346,0.023,-0.194,34.0
33.352,0.018,-0.336,1.0
29.24,0.014,-0.445,2.0
26.154,0.012,-0.535,2.0
23.384,0.009,-0.599,2.0
21.227,0.008,-0.653,2.0
40.972,0.015,-0.115,17.0
38.335,0.013,-0.305,3.0
30.507,0.009,-0.399,1.0
27.213,0.007,-0.499,2.0
24.29,0.005,-0.57,2.0
22.175,0.004,-0.635,2.0
0.0,0.0,0.0,0.0
39.066,0.006,-0.227,14.0
32.62,0.004,-0.358,1.0
28.703,0.003,-0.465,1.0
25.732,0.002,-0.549,1.0
23.089,0.001,-0.612,3.0
0.0,0.0,0.0,0.0
40.48,0.001,-0.149,17.0
38.026,0.0,-0.335,2.0
29.96,0.0,-0.421,1.0
26.85,0.0,-0.515,2.0
23.977,0.0,-0.583,2.0
61.514,-0.001,0.222,13.0
44.706,-0.002,-0.067,22.0
38.793,-0.002,-0.258,14.0
31.555,-0.002,-0.375,1.0
28.164,-0.002,-0.48,1.0
25.245,-0.002,-0.56,1.0
76.173,-0.006,0.44,17.0
47.967,-0.004,0.031,9.0
39.815,-0.004,-0.179,32.0
33.895,-0.003,-0.33,1.0
29.542,-0.003,-0.44,2.0
26.487,-0.003,-0.531,1.0
79.351,-0.009,0.628,57.0
55.909,-0.006,0.154,29.0
0.0,0.0,0.0,0.0
38.446,-0.004,-0.292,5.0
30.88,-0.003,-0.394,1.0
27.58,-0.003,-0.494,1.0
79.456,-0.008,0.797,167.0
76.041,-0.007,0.372,11.0
0.0,0.0,0.0,0.0
39.311,-0.003,-0.215,18.0
33.219,-0.002,-0.352,1.0
29.058,-0.002,-0.458,2.0
79.463,-0.004,0.968,153.0
79.184,-0.003,0.557,13.0
0.0,0.0,0.0,0.0
40.902,0.0,-0.136,17.0
38.256,0.0,-0.324,3.0
30.325,0.0,-0.413,2.0
79.46,0.002,1.139,151.0
79.468,0.004,0.73,170.0
61.761,0.004,0.249,17.0
0.0,0.0,0.0,0.0
38.937,0.004,-0.246,14.0
32.037,0.004,-0.367,1.0
79.449,0.012,1.308,157.0
79.459,0.014,0.9,182.0
76.251,0.016,0.471,18.0
54.514,0.013,0.051,4.0
40.112,0.01,-0.168,27.0
38.186,0.011,-0.356,0.0
79.453,0.025,1.479,159.0
79.461,0.028,1.07,155.0
79.439,0.03,0.662,150.0
56.189,0.023,0.173,10.0
0.0,0.0,0.0,0.0
38.54,0.019,-0.276,9.0
79.454,0.041,1.651,151.0
79.455,0.044,1.242,159.0
79.462,0.048,0.833,160.0
75.983,0.049,0.398,15.0
47.677,0.032,0.005,21.0
39.467,0.029,-0.198,31.0
79.441,0.06,1.82,150.0
79.45,0.064,1.412,171.0
79.46,0.068,1.004,155.0
79.362,0.071,0.585,33.0
54.822,0.052,0.122,11.0
43.933,0.044,-0.127,8.0
79.442,0.082,1.991,150.0
79.456,0.086,1.583,151.0
79.453,0.091,1.172,157.0
79.445,0.095,0.756,150.0
61.77,0.078,0.27,10.0
0.0,0.0,0.0,0.0
79.442,0.107,2.159,150.0
79.439,0.111,1.749,150.0
79.447,0.116,1.34,171.0
79.462,0.121,0.922,151.0
76.449,0.122,0.494,19.0
0.0,0.0,0.0,0.0
79.452,0.134,2.327,150.0
79.446,0.14,1.917,150.0
79.457,0.145,1.509,151.0
79.455,0.151,1.092,152.0
79.436,0.157,0.682,150.0
58.944,0.121,0.203,10.0
79.439,0.165,2.496,150.0
79.443,0.171,2.086,150.0
79.434,0.177,1.675,150.0
79.447,0.183,1.259,159.0
79.472,0.19,0.848,151.0
76.024,0.188,0.42,17.0
79.446,0.198,2.662,151.0
79.445,0.205,2.25,150.0
79.431,0.212,1.841,150.0
79.454,0.218,1.424,151.0
79.46,0.225,1.014,151.0
79.455,0.232,0.603,31.0
79.453,0.235,2.827,151.0
79.44,0.242,2.415,150.0
79.44,0.249,2.004,150.0
79.446,0.256,1.587,151.0
79.466,0.263,1.178,158.0
79.445,0.271,0.766,150.0
79.447,0.274,2.99,151.0
79.441,0.281,2.58,150.0
79.44,0.289,2.169,150.0
79.445,0.297,1.751,150.0
79.459,0.305,1.34,157.0
79.45,0.313,0.931,150.0
59.299,0.236,2.355,23.0
59.291,0.242,2.047,80.0
59.299,0.248,1.74,96.0
59.294,0.254,1.427,94.0
59.312,0.26,1.121,92.0
59.316,0.267,0.815,87.0
48.204,0.219,2.013,80.0
48.203,0.224,1.762,89.0
48.235,0.229,1.514,20.0
59.274,0.288,1.548,61.0
59.275,0.295,1.241,88.0
59.288,0.302,0.935,109.0
48.174,0.247,2.109,82.0
48.165,0.253,1.859,86.0
48.172,0.258,1.61,83.0
48.173,0.264,1.355,62.0
48.171,0.27,1.106,53.0
48.186,0.276,0.857,52.0
48.149,0.278,2.206,102.0
48.149,0.284,1.956,90.0
48.12,0.289,1.705,75.0
48.126,0.295,1.45,101.0
48.133,0.301,1.201,91.0
48.141,0.308,0.952,86.0
48.139,0.31,2.301,110.0
48.13,0.316,2.05,98.0
48.127,0.322,1.8,94.0
48.111,0.328,1.545,97.0
48.12,0.334,1.295,104.0
48.114,0.341,1.046,99.0
48.136,0.344,2.395,115.0
48.14,0.35,2.145,114.0
48.112,0.356,1.893,107.0
48.088,0.363,1.638,99.0
48.11,0.369,1.389,109.0
48.102,0.376,1.14,105.0
48.149,0.379,2.491,107.0
48.139,0.386,2.239,102.0
48.119,0.392,1.988,106.0
48.099,0.399,1.731,90.0
48.112,0.405,1.482,110.0
48.125,0.412,1.232,117.0
48.207,0.416,2.586,62.0
48.166,0.423,2.333,86.0
48.148,0.43,2.08,95.0
48.114,0.436,1.824,106.0
48.115,0.444,1.574,84.0
48.13,0.451,1.324,102.0
59.375,0.56,3.299,109.0
59.398,0.569,2.99,18.0
48.201,0.469,2.174,60.0
48.163,0.476,1.917,85.0
48.15,0.483,1.665,97.0
48.154,0.491,1.415,88.0
59.368,0.609,3.411,86.0
59.387,0.619,3.101,107.0
59.423,0.628,2.792,8.0
55.043,0.59,2.294,65.0
48.214,0.525,1.757,43.0
48.208,0.532,1.506,43.0
54.969,0.612,3.261,99.0
59.376,0.67,3.211,78.0
55.038,0.63,2.688,80.0
55.0,0.638,2.393,117.0
55.006,0.647,2.107,113.0
55.016,0.657,1.82,114.0
54.972,0.661,3.362,66.0
55.02,0.67,3.077,74.0
55.027,0.679,2.789,114.0
54.99,0.688,2.493,128.0
54.997,0.698,2.206,83.0
55.024,0.707,1.92,110.0
91.549,1.185,5.767,39.0
54.984,0.721,3.174,107.0
54.983,0.73,2.886,104.0
54.987,0.739,2.592,123.0
55.007,0.749,2.305,111.0
55.043,0.759,2.019,93.0
64.085,0.89,4.151,72.0
54.977,0.773,3.272,104.0
54.954,0.782,2.981,124.0
54.99,0.792,2.689,118.0
55.018,0.802,2.401,110.0
55.096,0.813,2.116,49.0
91.828,1.365,6.109,38.0
63.845,0.96,3.911,34.0
54.932,0.836,3.076,109.0
54.98,0.847,2.784,106.0
55.03,0.857,2.498,80.0
59.358,0.936,2.383,6.0
91.794,1.458,6.266,60.0
76.42,1.227,4.814,39.0
54.921,0.892,3.17,67.0
54.969,0.902,2.878,76.0
55.063,0.914,2.593,51.0
130.258,2.187,5.451,26.0
91.771,1.552,6.421,40.0
76.388,1.306,4.942,9.0
62.46,1.079,3.711,62.0
54.939,0.96,2.969,59.0
55.175,0.974,2.691,15.0
129.803,2.317,5.648,29.0
76.971,1.383,5.515,58.0
77.019,1.398,5.11,57.0
62.429,1.145,3.812,92.0
54.776,1.015,3.051,63.0
55.224,1.034,2.784,39.0
128.298,2.429,5.794,13.0
74.341,1.417,5.449,31.0
76.762,1.478,5.221,47.0
62.458,1.215,3.918,89.0
54.663,1.074,3.134,50.0
55.287,1.097,2.877,64.0
127.909,2.564,5.983,13.0
53.461,1.079,4.006,52.0
74.344,1.515,5.176,8.0
62.404,1.283,4.013,96.0
54.532,1.132,3.213,49.0
55.333,1.16,2.968,63.0
128.427,2.72,6.211,7.0
77.939,1.661,5.963,3.0
74.362,1.6,5.295,17.0
62.261,1.352,4.102,79.0
54.413,1.193,3.291,80.0
55.36,1.225,3.055,52.0
122.877,2.743,6.131,33.0
53.901,1.212,4.208,116.0
53.514,1.214,3.893,66.0
53.831,1.232,3.63,82.0
54.863,1.267,3.402,30.0
55.161,1.285,3.128,57.0
122.746,2.885,6.309,19.0
53.919,1.275,4.291,15.0
53.473,1.276,3.971,59.0
53.752,1.294,3.704,56.0
55.182,1.34,3.504,62.0
54.853,1.343,3.192,87.0
122.986,3.038,6.504,17.0
53.277,1.325,4.319,20.0
56.48,1.416,4.277,27.0
61.886,1.564,4.356,39.0
54.05,1.378,3.511,40.0
54.539,1.401,3.252,94.0
122.739,3.181,6.667,22.0
40.255,1.05,3.322,3.0
56.585,1.488,4.366,76.0
55.857,1.481,4.011,52.0
54.08,1.445,3.589,18.0
54.39,1.465,3.32,74.0
122.327,3.321,6.815,9.0
56.729,1.55,4.761,9.0
62.815,1.73,4.935,13.0
73.723,2.046,5.397,21.0
62.216,1.74,4.216,13.0
54.407,1.533,3.396,54.0
124.297,3.53,7.094,21.0
62.863,1.797,5.361,10.0
62.857,1.811,5.024,62.0
55.826,1.62,4.162,71.0
73.877,2.16,5.105,51.0
54.287,1.599,3.461,95.0
124.108,3.682,7.249,28.0
40.294,1.204,3.49,47.0
61.297,1.844,4.98,35.0
55.817,1.691,4.235,106.0
73.842,2.253,5.199,52.0
54.388,1.671,3.537,92.0
74.065,2.293,4.421,9.0
67.701,2.11,5.952,23.0
55.835,1.752,4.608,83.0
55.813,1.764,4.306,82.0
73.79,2.348,5.288,40.0
73.581,2.358,4.878,28.0
73.966,2.386,4.507,16.0
61.06,1.983,5.445,27.0
55.884,1.827,4.682,61.0
74.092,2.44,5.808,32.0
55.22,1.83,4.026,19.0
73.537,2.453,4.966,29.0
64.963,2.182,4.037,9.0
61.003,2.063,5.515,79.0
55.991,1.905,4.759,36.0
71.967,2.465,5.728,19.0
65.152,2.246,4.827,15.0
73.537,2.551,5.053,9.0
73.341,2.56,4.645,28.0
67.734,2.381,6.204,32.0
56.06,1.983,4.83,29.0
62.193,2.214,5.023,42.0
55.361,1.983,4.166,48.0
65.347,2.356,4.565,17.0
73.286,2.658,4.725,11.0
55.98,2.044,5.191,5.0
62.171,2.284,5.427,38.0
62.195,2.298,5.092,22.0
54.381,2.021,4.152,25.0
54.106,2.023,3.839,47.0
73.391,2.761,4.811,20.0
55.924,2.119,5.247,72.0
67.995,2.591,6.009,19.0
55.423,2.123,4.597,64.0
54.021,2.081,4.183,64.0
53.963,2.091,3.885,43.0
65.313,2.546,4.35,22.0
62.134,2.439,5.894,3.0
67.991,2.683,6.08,20.0
53.344,2.117,4.48,67.0
53.67,2.142,4.211,62.0
65.525,2.629,4.785,40.0
73.551,2.968,4.973,22.0
41.242,1.676,3.954,5.0
53.22,2.174,4.812,70.0
54.329,2.232,4.617,29.0
54.383,2.246,4.32,28.0
73.756,3.063,5.459,35.0
73.438,3.067,5.037,31.0
54.579,2.294,5.286,25.0
53.233,2.249,4.865,6.0
54.458,2.313,4.68,82.0
64.501,2.754,5.185,31.0
73.861,3.169,5.536,26.0
73.448,3.169,5.105,38.0
41.312,1.795,4.04,71.0
67.891,2.964,6.268,11.0
67.799,2.975,5.888,13.0
64.737,2.855,5.262,40.0
64.258,2.847,4.873,16.0
64.95,2.894,4.573,10.0
41.336,1.854,4.079,51.0
53.9,2.429,5.023,48.0
64.936,2.941,5.697,9.0
64.376,2.93,5.289,38.0
74.021,3.386,5.677,24.0
74.063,3.404,5.277,15.0
41.45,1.918,4.126,26.0
53.112,2.47,4.995,15.0
70.87,3.311,6.276,21.0
68.025,3.193,5.645,20.0
73.905,3.486,5.729,8.0
73.926,3.503,5.326,12.0
41.485,1.98,4.163,25.0
53.087,2.544,5.035,9.0
54.687,2.633,4.886,7.0
64.821,3.135,5.429,14.0
73.901,3.591,5.785,32.0
73.818,3.603,5.375,14.0
41.458,2.038,4.191,34.0
53.053,2.619,5.072,10.0
64.345,3.19,5.797,9.0
64.532,3.213,5.452,30.0
73.909,3.697,5.839,15.0
123.788,6.217,9.101,29.0
41.447,2.096,4.22,42.0
63.261,3.213,6.092,20.0
64.212,3.275,5.83,24.0
64.488,3.303,5.494,31.0
65.074,3.348,5.186,9.0
124.18,6.416,9.215,34.0
62.998,3.278,6.458,9.0
63.177,3.3,6.127,31.0
64.22,3.368,5.873,39.0
64.3,3.386,5.519,32.0
74.287,3.927,5.968,26.0
124.815,6.627,9.34,27.0
41.65,2.226,4.295,3.0
63.345,3.399,6.182,23.0
54.452,2.934,5.013,13.0
67.932,3.674,5.872,14.0
55.12,2.993,4.461,4.0
124.722,6.8,9.406,18.0
41.757,2.292,4.331,1.0
63.981,3.525,6.281,39.0
54.427,3.01,5.041,14.0
64.289,3.569,5.593,17.0
75.605,4.214,6.16,13.0
78.355,4.384,5.952,19.0
53.8,3.031,5.609,8.0
64.419,3.642,6.358,25.0
41.603,2.36,3.875,16.0
64.442,3.67,5.64,40.0
64.592,3.692,5.295,26.0
78.306,4.493,5.988,17.0
0.0,0.0,0.0,0.0
41.471,2.404,4.114,35.0
41.559,2.418,3.891,47.0
64.252,3.752,5.653,30.0
64.367,3.773,5.307,38.0
71.987,4.234,5.538,25.0
53.002,3.139,5.576,27.0
41.414,2.461,4.126,39.0
41.406,2.469,3.895,59.0
64.288,3.846,5.684,37.0
64.249,3.856,5.324,36.0
71.588,4.311,5.536,7.0
41.984,2.546,4.434,2.0
63.409,3.857,6.343,19.0
41.392,2.526,3.91,59.0
64.241,3.933,5.704,25.0
64.494,3.962,5.369,19.0
64.597,3.981,5.019,14.0
38.302,2.377,4.059,39.0
63.428,3.949,6.368,38.0
54.364,3.395,5.154,8.0
64.547,4.043,5.753,37.0
0.0,0.0,0.0,0.0
78.492,4.948,6.124,21.0
64.104,4.068,6.814,40.0
63.534,4.045,6.398,22.0
63.535,4.057,6.043,18.0
66.727,4.273,5.968,37.0
65.845,4.229,5.522,20.0
65.853,4.242,5.156,24.0
64.125,4.16,6.835,20.0
64.173,4.175,6.479,40.0
63.42,4.137,6.049,26.0
70.116,4.587,6.288,23.0
65.477,4.296,5.507,40.0
65.796,4.33,5.167,24.0
38.794,2.57,4.143,56.0
64.447,4.283,6.522,29.0
63.371,4.223,6.057,10.0
63.484,4.242,5.707,15.0
65.293,4.375,5.505,26.0
0.0,0.0,0.0,0.0
64.134,4.339,6.862,27.0
64.265,4.36,6.515,28.0
70.505,4.796,6.751,39.0
65.458,4.465,5.895,39.0
65.193,4.458,5.506,39.0
65.68,4.504,5.181,41.0
64.089,4.425,6.866,19.0
64.197,4.443,6.516,21.0
70.81,4.914,6.79,41.0
70.84,4.929,6.388,11.0
63.789,4.45,5.395,21.0
64.21,4.491,5.072,37.0
64.202,4.52,6.885,16.0
67.692,4.777,6.877,23.0
70.895,5.016,6.804,29.0
64.051,4.543,5.781,27.0
63.842,4.54,5.404,31.0
0.0,0.0,0.0,0.0
41.695,2.992,4.473,49.0
67.446,4.851,6.856,14.0
64.058,4.618,6.15,19.0
63.974,4.623,5.776,39.0
63.635,4.609,5.388,33.0
64.068,4.652,5.065,32.0
41.651,3.044,4.469,39.0
38.589,2.826,3.922,47.0
64.174,4.712,6.161,39.0
63.907,4.703,5.769,39.0
63.732,4.701,5.395,30.0
66.626,4.927,5.266,8.0
38.575,2.87,4.138,43.0
38.627,2.88,3.925,33.0
64.044,4.786,6.146,33.0
64.03,4.795,5.777,39.0
63.77,4.787,5.395,35.0
64.452,4.849,5.09,27.0
38.384,2.906,4.114,62.0
38.577,2.926,3.917,38.0
64.197,4.88,6.155,24.0
64.07,4.88,5.775,39.0
64.096,4.893,5.416,38.0
65.182,4.987,5.141,36.0
38.324,2.95,4.104,60.0
38.493,2.969,3.903,53.0
38.684,2.99,3.704,39.0
64.328,4.982,5.789,42.0
63.964,4.964,5.395,38.0
0.0,0.0,0.0,0.0
38.342,3.0,4.099,53.0
38.512,3.02,3.899,13.0
38.654,3.036,3.694,42.0
63.973,5.035,5.746,39.0
63.466,5.005,5.342,32.0
65.09,5.144,5.111,12.0
38.327,3.047,4.09,34.0
38.469,3.064,3.886,69.0
64.793,5.17,6.179,9.0
64.204,5.133,5.752,40.0
63.494,5.086,5.33,29.0
66.209,5.314,5.184,31.0
38.712,3.126,4.122,25.0
38.523,3.116,3.882,24.0
64.958,5.263,6.178,10.0
64.179,5.209,5.733,40.0
63.439,5.159,5.308,18.0
66.536,5.42,5.191,42.0
38.572,3.161,4.096,58.0
47.771,3.921,4.801,12.0
64.513,5.303,6.117,22.0
63.988,5.27,5.697,40.0
66.155,5.457,5.515,13.0
66.69,5.511,5.183,42.0
38.55,3.204,4.081,51.0
47.758,3.976,4.784,16.0
64.677,5.394,6.11,23.0
63.993,5.345,5.676,39.0
66.414,5.557,5.513,23.0
66.555,5.577,5.149,42.0
41.329,3.484,4.36,47.0
47.756,4.031,4.766,18.0
64.889,5.486,6.106,8.0
47.584,4.029,4.202,21.0
0.0,0.0,0.0,0.0
66.038,5.61,5.082,32.0
38.436,3.284,4.039,49.0
47.686,4.08,4.739,31.0
47.604,4.078,4.459,17.0
47.6,4.084,4.184,37.0
66.364,5.702,5.456,41.0
66.366,5.711,5.079,39.0
38.431,3.325,4.022,71.0
47.765,4.139,4.726,5.0
47.531,4.124,4.431,21.0
47.529,4.13,4.156,52.0
66.083,5.75,5.402,27.0
66.409,5.788,5.052,39.0
38.446,3.369,4.005,47.0
47.756,4.19,4.701,58.0
47.404,4.164,4.396,21.0
47.554,4.183,4.134,51.0
70.965,6.25,5.766,10.0
66.295,5.847,5.01,39.0
38.473,3.412,3.988,53.0
62.178,5.521,6.089,16.0
47.628,4.234,4.392,21.0
66.93,5.957,5.783,9.0
71.019,6.329,5.732,11.0
66.386,5.924,4.981,17.0
41.393,3.714,4.267,9.0
62.004,5.569,6.037,23.0
47.583,4.279,4.361,23.0
47.697,4.294,4.094,32.0
66.381,5.983,5.32,25.0
66.009,5.957,4.914,21.0
41.125,3.731,4.215,30.0
61.892,5.621,5.989,26.0
47.707,4.338,4.343,40.0
47.667,4.338,4.062,39.0
66.164,6.029,5.261,26.0
66.111,6.032,4.88,32.0
41.117,3.77,4.189,9.0
47.435,4.353,4.56,21.0
47.956,4.406,4.336,8.0
47.658,4.383,4.031,14.0
13.853,1.275,1.092,1.0
66.003,6.084,4.83,14.0
13.902,1.288,1.407,16.0
13.872,1.286,1.324,8.0
13.886,1.288,1.246,11.0
13.846,1.286,1.161,7.0
13.83,1.286,1.081,10.0
13.831,1.287,1.002,9.0
13.865,1.297,1.393,20.0
13.867,1.298,1.314,15.0
13.848,1.297,1.233,13.0
13.81,1.295,1.149,15.0
13.818,1.297,1.07,25.0
13.815,1.298,0.991,21.0
13.854,1.308,1.382,29.0
13.837,1.307,1.301,19.0
13.817,1.306,1.22,17.0
13.8,1.306,1.138,30.0
13.814,1.308,1.06,31.0
13.812,1.309,0.981,27.0
13.839,1.318,1.37,23.0
13.819,1.317,1.288,26.0
13.797,1.316,1.207,28.0
13.796,1.317,1.126,30.0
13.81,1.319,1.049,33.0
13.793,1.319,0.969,32.0
13.832,1.329,1.358,31.0
13.814,1.328,1.277,33.0
13.798,1.327,1.196,34.0
13.781,1.326,1.114,35.0
13.79,1.328,1.036,28.0
13.79,1.329,0.957,34.0
13.83,1.339,1.346,38.0
13.812,1.338,1.265,36.0
13.786,1.337,1.183,39.0
13.771,1.336,1.102,38.0
13.786,1.338,1.024,32.0
13.778,1.339,0.944,34.0
13.817,1.348,1.333,41.0
13.798,1.347,1.252,68.0
13.775,1.346,1.17,82.0
13.774,1.346,1.09,34.0
13.783,1.348,1.012,35.0
13.774,1.348,0.932,36.0
13.806,1.357,1.32,50.0
13.789,1.356,1.239,150.0
13.774,1.355,1.158,150.0
13.769,1.356,1.077,38.0
13.766,1.356,0.998,31.0
13.766,1.357,0.919,35.0
13.809,1.367,1.307,41.0
13.788,1.365,1.226,150.0
13.768,1.364,1.145,138.0
13.758,1.363,1.063,54.0
13.757,1.364,0.984,31.0
13.761,1.365,0.906,36.0
13.785,1.373,1.292,36.0
13.783,1.373,1.212,150.0
13.76,1.372,1.131,146.0
13.748,1.371,1.049,39.0
13.748,1.372,0.97,35.0
13.75,1.373,0.892,37.0
13.769,1.38,1.277,28.0
13.775,1.381,1.198,123.0
13.757,1.379,1.117,150.0
13.752,1.379,1.036,33.0
13.75,1.38,0.957,37.0
13.75,1.38,0.878,37.0
13.765,1.387,1.263,29.0
13.774,1.388,1.184,94.0
13.752,1.386,1.103,150.0
13.738,1.385,1.021,28.0
13.754,1.388,0.943,79.0
13.756,1.388,0.865,37.0
13.78,1.396,1.25,38.0
13.771,1.395,1.169,84.0
13.754,1.393,1.089,150.0
13.738,1.392,1.007,30.0
13.754,1.394,0.929,69.0
13.755,1.395,0.85,38.0
13.771,1.401,1.234,39.0
13.762,1.4,1.154,62.0
13.745,1.399,1.073,136.0
13.748,1.4,0.993,35.0
13.755,1.401,0.914,99.0
13.761,1.402,0.836,45.0
13.78,1.408,1.22,39.0
13.752,1.405,1.138,90.0
13.749,1.405,1.059,148.0
13.754,1.406,0.979,58.0
13.755,1.406,0.9,101.0
13.765,1.408,0.821,57.0
13.773,1.413,1.204,40.0
13.747,1.41,1.123,150.0
13.756,1.411,1.044,129.0
13.753,1.411,0.963,62.0
13.756,1.412,0.884,82.0
13.761,1.412,0.806,71.0
13.776,1.418,1.189,46.0
13.752,1.416,1.108,150.0
13.752,1.416,1.028,80.0
13.748,1.415,0.947,55.0
13.755,1.416,0.869,98.0
13.762,1.417,0.79,40.0
13.771,1.422,1.173,39.0
13.753,1.42,1.092,150.0
13.749,1.42,1.012,38.0
13.749,1.419,0.932,55.0
13.762,1.421,0.853,92.0
13.762,1.421,0.774,39.0
13.762,1.425,1.156,41.0
13.744,1.423,1.075,150.0
13.747,1.423,0.996,40.0
13.746,1.423,0.915,55.0
13.758,1.424,0.837,117.0
13.766,1.425,0.758,39.0
13.754,1.427,1.139,40.0
13.749,1.426,1.059,150.0
13.761,1.427,0.98,128.0
13.748,1.426,0.899,97.0
13.761,1.427,0.821,117.0
13.76,1.427,0.742,39.0
13.75,1.429,1.122,57.0
13.755,1.429,1.043,106.0
13.757,1.429,0.964,141.0
13.741,1.428,0.882,103.0
13.762,1.43,0.804,117.0
13.764,1.43,0.725,39.0
13.746,1.431,1.105,136.0
13.759,1.432,1.026,114.0
13.754,1.431,0.947,126.0
13.742,1.429,0.865,105.0
13.768,1.432,0.788,115.0
13.763,1.431,0.708,38.0
13.747,1.432,1.088,111.0
13.767,1.434,1.01,77.0
13.751,1.432,0.929,87.0
13.747,1.431,0.849,150.0
13.774,1.434,0.771,97.0
13.76,1.432,0.691,38.0
13.749,1.433,1.071,84.0
13.762,1.434,0.992,148.0
13.75,1.432,0.912,124.0
13.754,1.432,0.831,129.0
13.77,1.434,0.753,100.0
13.756,1.432,0.673,38.0
13.751,1.434,1.053,41.0
13.755,1.433,0.974,150.0
13.753,1.433,0.895,150.0
13.756,1.432,0.814,131.0
13.772,1.434,0.736,97.0
13.755,1.431,0.656,37.0
13.756,1.434,1.036,39.0
13.759,1.433,0.957,141.0
13.752,1.432,0.877,150.0
13.762,1.432,0.797,116.0
13.775,1.433,0.719,95.0
13.754,1.431,0.638,32.0
13.762,1.433,1.019,40.0
13.75,1.431,0.939,101.0
13.751,1.431,0.859,150.0
13.762,1.431,0.779,101.0
13.771,1.431,0.701,85.0
13.748,1.429,0.621,33.0
13.764,1.432,1.001,40.0
13.758,1.43,0.921,110.0
13.757,1.429,0.842,150.0
13.766,1.43,0.762,111.0
13.768,1.429,0.683,80.0
13.755,1.427,0.603,35.0
13.762,1.429,0.983,80.0
13.756,1.428,0.903,150.0
13.761,1.427,0.824,150.0
13.764,1.427,0.744,106.0
13.767,1.426,0.664,76.0
13.766,1.426,0.585,34.0
13.763,1.426,0.965,63.0
13.758,1.425,0.885,150.0
13.77,1.425,0.806,150.0
13.771,1.424,0.726,95.0
13.761,1.423,0.646,37.0
13.767,1.422,0.567,37.0
13.755,1.422,0.946,49.0
13.759,1.421,0.867,150.0
13.766,1.421,0.788,150.0
13.762,1.42,0.707,95.0
13.747,1.417,0.627,33.0
13.763,1.418,0.549,37.0
13.751,1.417,0.927,49.0
13.757,1.417,0.848,150.0
13.764,1.416,0.769,150.0
13.764,1.416,0.689,78.0
13.752,1.413,0.609,36.0
13.766,1.414,0.531,37.0
13.754,1.413,0.909,69.0
13.765,1.413,0.83,150.0
13.772,1.412,0.751,150.0
13.76,1.41,0.67,76.0
13.754,1.408,0.591,36.0
13.766,1.409,0.512,38.0
13.758,1.408,0.891,72.0
13.771,1.408,0.812,150.0
13.772,1.407,0.733,150.0
13.762,1.405,0.652,45.0
13.777,1.405,0.574,64.0
13.767,1.403,0.494,38.0
13.756,1.402,0.872,68.0
13.77,1.402,0.794,150.0
13.776,1.401,0.715,150.0
13.752,1.397,0.633,36.0
