X,Y,Z,Reflectivity
74.57,5.907,1.68,30.0
74.559,5.925,1.265,30.0
74.628,5.972,3.345,15.0
74.532,5.982,2.924,25.0
74.526,5.998,2.508,33.0
74.512,6.016,2.085,35.0
74.531,6.035,1.67,33.0
74.519,6.052,1.254,33.0
74.541,6.096,3.329,30.0
74.516,6.111,2.912,28.0
74.544,6.13,2.497,32.0
74.579,6.151,2.074,25.0
74.643,6.174,1.66,12.0
120.156,9.969,2.002,22.0
74.622,6.232,3.319,6.0
122.184,10.233,4.752,11.0
122.054,10.25,4.064,8.0
34.26,2.885,0.946,47.0
34.26,2.892,0.754,45.0
120.25,10.183,1.977,16.0
34.276,2.922,1.517,27.0
34.277,2.929,1.325,8.0
120.659,10.337,3.99,30.0
34.271,2.944,0.938,39.0
34.287,2.953,0.746,8.0
34.194,2.953,0.553,6.0
112.22,9.756,4.939,8.0
120.622,10.511,4.632,54.0
120.649,10.54,3.957,50.0
120.656,10.568,3.269,52.0
120.685,10.598,2.595,48.0
34.161,3.007,0.543,3.0
115.207,10.207,5.036,13.0
120.652,10.715,4.598,42.0
120.656,10.741,3.92,38.0
120.63,10.766,3.231,32.0
120.639,10.794,2.555,23.0
120.718,10.829,1.88,8.0
112.223,10.128,4.868,6.0
114.981,10.402,4.342,17.0
114.917,10.42,3.694,20.0
33.473,3.042,0.885,5.0
33.479,3.05,0.697,8.0
33.541,3.063,0.51,6.0
13.85,1.272,0.595,7.0
13.853,1.275,0.518,5.0
13.848,1.278,0.44,15.0
13.835,1.279,0.36,21.0
13.83,1.282,0.282,20.0
13.843,1.286,0.205,22.0
13.837,1.293,0.589,26.0
13.843,1.297,0.512,31.0
13.835,1.298,0.433,35.0
13.823,1.3,0.354,34.0
13.823,1.303,0.276,32.0
13.815,1.305,0.198,29.0
13.825,1.314,0.583,36.0
13.823,1.316,0.505,39.0
13.822,1.319,0.427,57.0
13.808,1.32,0.347,37.0
13.801,1.322,0.269,37.0
13.797,1.325,0.192,33.0
13.8,1.333,0.575,38.0
13.812,1.336,0.498,71.0
13.796,1.337,0.419,76.0
13.79,1.34,0.34,39.0
13.792,1.342,0.263,38.0
13.783,1.344,0.185,35.0
13.784,1.352,0.568,40.0
13.802,1.356,0.491,141.0
13.793,1.358,0.412,122.0
13.775,1.359,0.333,47.0
13.774,1.361,0.255,48.0
13.773,1.364,0.177,37.0
13.777,1.372,0.56,59.0
13.787,1.375,0.482,150.0
13.787,1.378,0.405,143.0
13.774,1.379,0.325,44.0
13.769,1.381,0.247,39.0
13.766,1.383,0.17,36.0
13.775,1.391,0.552,92.0
13.785,1.395,0.475,150.0
13.782,1.397,0.397,130.0
13.758,1.397,0.317,54.0
13.759,1.4,0.239,65.0
13.755,1.402,0.161,35.0
13.773,1.411,0.544,62.0
13.784,1.414,0.466,150.0
13.774,1.416,0.388,119.0
13.765,1.417,0.309,51.0
13.77,1.42,0.231,65.0
13.77,1.423,0.153,35.0
13.774,1.43,0.535,67.0
13.782,1.433,0.457,150.0
13.772,1.435,0.379,126.0
13.761,1.436,0.3,38.0
13.768,1.439,0.222,38.0
13.768,1.441,0.144,36.0
13.767,1.448,0.526,60.0
13.78,1.452,0.448,150.0
13.782,1.454,0.37,113.0
13.766,1.454,0.291,37.0
13.768,1.457,0.213,38.0
13.784,1.461,0.135,36.0
13.782,1.468,0.517,57.0
13.789,1.471,0.439,131.0
13.783,1.472,0.361,105.0
13.78,1.474,0.281,37.0
13.782,1.476,0.203,38.0
13.784,1.479,0.125,34.0
13.795,1.487,0.508,38.0
13.796,1.489,0.43,63.0
13.803,1.492,0.352,51.0
13.791,1.493,0.272,35.0
13.798,1.496,0.193,34.0
13.798,1.498,0.115,32.0
13.8,1.505,0.498,33.0
13.8,1.507,0.419,34.0
13.805,1.509,0.341,34.0
13.788,1.51,0.261,33.0
13.78,1.511,0.183,24.0
13.801,1.515,0.105,22.0
24.799,2.735,0.875,2.0
13.81,1.525,0.409,18.0
13.812,1.527,0.33,15.0
13.806,1.528,0.251,25.0
13.833,1.533,0.172,12.0
24.95,2.77,0.17,3.0
24.822,2.767,0.857,153.0
24.761,2.763,0.714,25.0
24.765,2.767,0.573,13.0
24.757,2.769,0.43,14.0
24.893,2.788,0.29,28.0
24.941,2.797,0.149,34.0
24.834,2.796,0.837,151.0
24.764,2.791,0.693,30.0
24.78,2.796,0.553,43.0
24.781,2.8,0.41,44.0
24.913,2.818,0.27,43.0
24.904,2.821,0.128,27.0
24.788,2.819,0.814,21.0
24.774,2.82,0.673,16.0
24.755,2.821,0.531,20.0
24.757,2.824,0.388,20.0
24.895,2.843,0.249,15.0
24.91,2.849,0.107,14.0
24.807,2.847,0.793,8.0
24.78,2.847,0.651,4.0
24.781,2.85,0.51,6.0
24.789,2.854,0.366,5.0
24.923,2.873,0.227,2.0
24.897,2.873,0.085,3.0
10.011,1.159,0.311,33.0
10.007,1.16,0.254,55.0
10.009,1.161,0.197,46.0
10.001,1.161,0.138,20.0
10.011,1.164,0.082,20.0
10.007,1.165,0.025,19.0
9.999,1.168,0.301,77.0
10.004,1.169,0.245,135.0
9.995,1.169,0.187,117.0
9.997,1.171,0.129,78.0
10.003,1.172,0.072,77.0
10.004,1.174,0.015,25.0
9.992,1.176,0.292,78.0
9.998,1.178,0.235,150.0
9.986,1.177,0.178,132.0
9.989,1.179,0.12,73.0
9.992,1.18,0.063,75.0
9.992,1.182,0.006,21.0
9.985,1.184,0.282,71.0
9.988,1.186,0.225,141.0
9.979,1.185,0.168,131.0
9.979,1.187,0.11,92.0
9.988,1.189,0.053,77.0
9.986,1.19,-0.003,29.0
9.975,1.192,0.272,91.0
9.981,1.193,0.215,150.0
9.979,1.194,0.158,150.0
9.977,1.195,0.1,107.0
9.979,1.196,0.043,100.0
9.976,1.197,-0.013,55.0
9.972,1.2,0.262,109.0
9.973,1.2,0.205,150.0
9.976,1.202,0.148,150.0
9.971,1.202,0.09,109.0
9.979,1.204,0.033,105.0
9.978,1.205,-0.023,59.0
9.973,1.207,0.252,116.0
9.969,1.208,0.195,150.0
9.976,1.209,0.138,150.0
9.966,1.209,0.08,111.0
9.975,1.211,0.023,98.0
9.972,1.212,-0.033,59.0
9.973,1.215,0.242,113.0
9.976,1.216,0.185,150.0
9.976,1.216,0.128,150.0
9.97,1.217,0.07,120.0
9.973,1.218,0.013,93.0
9.969,1.218,-0.043,61.0
9.972,1.221,0.232,119.0
9.973,1.222,0.175,150.0
9.974,1.223,0.118,150.0
9.973,1.224,0.06,122.0
9.967,1.224,0.003,88.0
9.974,1.226,-0.053,72.0
9.972,1.228,0.221,106.0
9.975,1.229,0.164,150.0
9.974,1.229,0.107,150.0
9.97,1.229,0.049,112.0
9.973,1.231,-0.007,49.0
9.971,1.231,-0.064,71.0
9.974,1.234,0.211,98.0
9.968,1.234,0.153,150.0
9.974,1.235,0.097,150.0
9.972,1.236,0.039,118.0
9.978,1.237,-0.018,20.0
9.972,1.237,-0.075,62.0
9.97,1.239,0.2,99.0
9.973,1.24,0.143,150.0
9.973,1.241,0.086,150.0
9.97,1.241,0.028,120.0
9.971,1.242,-0.029,85.0
9.97,1.242,-0.086,62.0
9.972,1.244,0.189,101.0
9.975,1.245,0.132,150.0
9.98,1.246,0.075,150.0
9.964,1.245,0.017,96.0
9.972,1.247,-0.039,110.0
9.974,1.248,-0.096,75.0
9.969,1.249,0.178,108.0
9.969,1.249,0.121,150.0
9.975,1.25,0.064,150.0
9.969,1.25,0.006,94.0
9.975,1.251,-0.05,103.0
9.972,1.252,-0.108,69.0
9.971,1.253,0.167,99.0
9.977,1.254,0.11,150.0
9.98,1.255,0.053,150.0
9.972,1.254,-0.004,85.0
9.971,1.255,-0.061,108.0
9.969,1.255,-0.119,65.0
9.977,1.258,0.156,92.0
9.977,1.258,0.099,149.0
9.973,1.258,0.042,150.0
9.964,1.257,-0.015,89.0
9.974,1.259,-0.073,106.0
9.971,1.259,-0.13,67.0
9.972,1.26,0.145,71.0
9.977,1.261,0.088,138.0
9.974,1.261,0.031,150.0
9.971,1.261,-0.027,96.0
9.975,1.262,-0.084,106.0
9.972,1.262,-0.141,61.0
9.974,1.263,0.134,63.0
9.979,1.264,0.076,138.0
9.974,1.264,0.019,115.0
9.967,1.263,-0.038,92.0
9.977,1.265,-0.095,96.0
9.972,1.265,-0.152,58.0
9.975,1.266,0.122,66.0
9.987,1.267,0.065,139.0
9.972,1.266,0.008,117.0
9.971,1.266,-0.049,99.0
9.975,1.267,-0.107,90.0
9.972,1.267,-0.164,58.0
9.975,1.268,0.111,64.0
9.984,1.269,0.054,138.0
9.975,1.268,-0.002,129.0
9.967,1.267,-0.061,83.0
9.977,1.269,-0.118,90.0
9.975,1.269,-0.175,49.0
9.978,1.27,0.1,69.0
9.983,1.27,0.042,139.0
9.975,1.269,-0.014,125.0
9.972,1.269,-0.072,79.0
9.975,1.27,-0.129,87.0
9.975,1.27,-0.186,49.0
9.977,1.27,0.088,65.0
9.98,1.271,0.031,140.0
9.975,1.27,-0.025,132.0
9.971,1.27,-0.083,75.0
9.975,1.27,-0.141,79.0
9.975,1.271,-0.198,42.0
9.977,1.271,0.077,66.0
9.985,1.272,0.02,112.0
9.98,1.271,-0.037,124.0
9.968,1.27,-0.095,71.0
9.978,1.271,-0.152,83.0
9.974,1.271,-0.209,47.0
9.973,1.27,0.065,62.0
9.982,1.271,0.008,103.0
9.976,1.27,-0.048,135.0
9.965,1.269,-0.106,81.0
9.976,1.271,-0.163,91.0
9.974,1.27,-0.22,48.0
9.981,1.271,0.054,64.0
9.983,1.271,-0.002,124.0
9.975,1.27,-0.059,137.0
9.968,1.269,-0.117,78.0
9.973,1.27,-0.175,89.0
9.971,1.269,-0.232,51.0
9.976,1.269,0.043,60.0
9.983,1.27,-0.013,143.0
9.973,1.268,-0.071,135.0
9.966,1.268,-0.129,95.0
9.969,1.268,-0.186,103.0
9.976,1.269,-0.243,61.0
9.977,1.268,0.031,74.0
9.973,1.267,-0.025,140.0
9.973,1.267,-0.082,149.0
9.968,1.266,-0.14,103.0
9.97,1.266,-0.197,110.0
9.97,1.266,-0.254,59.0
9.976,1.266,0.02,65.0
9.977,1.266,-0.036,143.0
9.975,1.265,-0.093,150.0
9.97,1.265,-0.151,104.0
9.971,1.265,-0.208,102.0
9.972,1.265,-0.266,64.0
9.981,1.264,0.009,66.0
9.981,1.264,-0.047,148.0
9.978,1.263,-0.104,150.0
9.967,1.262,-0.162,104.0
9.975,1.262,-0.22,112.0
9.973,1.262,-0.277,61.0
9.974,1.261,-0.001,79.0
9.977,1.261,-0.058,150.0
9.978,1.26,-0.115,150.0
9.971,1.259,-0.173,108.0
9.968,1.259,-0.231,106.0
9.972,1.259,-0.288,59.0
9.972,1.257,-0.012,69.0
9.972,1.257,-0.069,150.0
9.973,1.256,-0.126,150.0
9.969,1.256,-0.184,104.0
9.974,1.256,-0.242,107.0
9.969,1.255,-0.299,71.0
9.975,1.254,-0.023,84.0
9.969,1.253,-0.08,150.0
9.977,1.253,-0.137,150.0
9.969,1.252,-0.195,115.0
9.974,1.252,-0.253,116.0
9.973,1.252,-0.31,61.0
9.977,1.25,-0.034,102.0
9.976,1.249,-0.091,150.0
9.976,1.249,-0.148,150.0
9.968,1.247,-0.206,104.0
9.972,1.247,-0.263,112.0
9.97,1.247,-0.32,64.0
9.971,1.245,-0.045,108.0
9.972,1.244,-0.102,150.0
9.97,1.243,-0.159,150.0
9.97,1.243,-0.217,106.0
9.971,1.242,-0.274,111.0
9.963,1.241,-0.331,66.0
9.974,1.24,-0.055,103.0
9.972,1.239,-0.112,150.0
9.967,1.238,-0.169,150.0
9.969,1.237,-0.227,106.0
9.979,1.238,-0.285,118.0
9.971,1.237,-0.342,60.0
9.973,1.234,-0.066,113.0
9.969,1.233,-0.123,150.0
9.981,1.234,-0.18,150.0
9.963,1.231,-0.238,100.0
9.972,1.232,-0.295,110.0
9.965,1.23,-0.352,66.0
9.974,1.228,-0.076,114.0
9.968,1.227,-0.133,150.0
9.972,1.227,-0.19,150.0
9.963,1.225,-0.248,127.0
9.969,1.225,-0.305,108.0
9.973,1.225,-0.362,59.0
9.976,1.222,-0.086,116.0
9.97,1.221,-0.143,150.0
9.976,1.221,-0.2,150.0
9.966,1.219,-0.258,102.0
9.973,1.219,-0.315,101.0
9.974,1.218,-0.372,51.0
9.966,1.214,-0.096,100.0
9.977,1.215,-0.153,150.0
9.976,1.214,-0.21,150.0
9.974,1.213,-0.268,104.0
9.976,1.212,-0.325,102.0
9.982,1.212,-0.382,48.0
9.976,1.208,-0.106,94.0
9.977,1.208,-0.163,150.0
9.976,1.207,-0.22,149.0
9.977,1.206,-0.278,75.0
9.987,1.206,-0.335,82.0
9.981,1.205,-0.392,37.0
9.979,1.201,-0.115,84.0
9.986,1.201,-0.172,139.0
9.977,1.199,-0.229,134.0
9.982,1.199,-0.287,69.0
9.995,1.199,-0.345,82.0
9.993,1.198,-0.402,32.0
9.982,1.194,-0.125,66.0
9.995,1.194,-0.182,143.0
9.991,1.192,-0.239,132.0
9.988,1.191,-0.297,63.0
9.995,1.191,-0.354,68.0
10.004,1.191,-0.412,33.0
9.994,1.186,-0.134,70.0
10.003,1.186,-0.191,127.0
9.995,1.184,-0.248,108.0
10.001,1.184,-0.306,59.0
10.004,1.184,-0.364,68.0
10.007,1.183,-0.421,20.0
10.007,1.179,-0.143,69.0
10.003,1.177,-0.2,91.0
10.001,1.176,-0.257,81.0
10.014,1.177,-0.316,20.0
10.009,1.175,-0.373,18.0
10.006,1.174,-0.43,16.0
10.013,1.17,-0.152,20.0
10.018,1.17,-0.209,18.0
9.997,1.166,-0.266,15.0
13.812,1.61,-0.448,5.0
13.731,1.599,-0.523,5.0
13.296,1.547,-0.583,6.0
10.012,1.161,-0.161,13.0
19.965,2.313,-0.435,1.0
13.846,1.602,-0.38,5.0
13.785,1.593,-0.458,7.0
13.695,1.581,-0.533,8.0
13.217,1.525,-0.59,8.0
22.142,2.545,-0.374,3.0
19.759,2.269,-0.447,0.0
13.83,1.586,-0.391,13.0
13.777,1.578,-0.469,13.0
13.647,1.562,-0.543,11.0
13.127,1.501,-0.597,8.0
21.874,2.492,-0.388,2.0
13.848,1.575,-0.324,14.0
13.799,1.568,-0.401,18.0
13.756,1.561,-0.48,15.0
13.58,1.54,-0.551,10.0
13.087,1.482,-0.605,9.0
13.853,1.563,-0.256,17.0
13.815,1.557,-0.334,20.0
13.78,1.551,-0.411,17.0
13.74,1.544,-0.49,18.0
13.475,1.513,-0.557,8.0
13.067,1.466,-0.614,9.0
13.826,1.544,-0.266,20.0
13.804,1.54,-0.344,27.0
13.764,1.533,-0.421,21.0
13.721,1.527,-0.499,20.0
13.41,1.49,-0.564,8.0
13.081,1.452,-0.625,10.0
13.814,1.527,-0.276,29.0
13.788,1.522,-0.353,28.0
13.764,1.517,-0.431,27.0
13.711,1.51,-0.509,19.0
13.386,1.472,-0.573,10.0
13.065,1.435,-0.633,11.0
13.809,1.51,-0.285,36.0
13.782,1.505,-0.363,28.0
13.761,1.501,-0.44,31.0
13.697,1.492,-0.517,19.0
13.262,1.442,-0.576,13.0
13.059,1.419,-0.642,12.0
13.796,1.492,-0.294,38.0
13.782,1.488,-0.372,35.0
13.758,1.483,-0.45,38.0
13.695,1.474,-0.526,17.0
13.223,1.422,-0.583,13.0
13.038,1.4,-0.649,9.0
13.791,1.474,-0.303,38.0
13.777,1.47,-0.381,37.0
13.757,1.466,-0.458,37.0
13.676,1.455,-0.534,15.0
13.198,1.402,-0.59,11.0
12.926,1.371,-0.652,6.0
13.78,1.455,-0.311,37.0
13.771,1.451,-0.389,34.0
13.768,1.449,-0.467,35.0
13.663,1.436,-0.542,12.0
13.188,1.384,-0.598,9.0
12.869,1.348,-0.656,4.0
13.778,1.436,-0.319,39.0
13.757,1.432,-0.397,31.0
13.73,1.427,-0.473,23.0
13.631,1.414,-0.548,11.0
13.112,1.358,-0.602,8.0
12.794,1.323,-0.66,3.0
13.776,1.417,-0.327,63.0
13.766,1.414,-0.404,35.0
13.724,1.407,-0.481,22.0
13.574,1.39,-0.553,11.0
13.074,1.336,-0.607,8.0
12.663,1.292,-0.66,2.0
13.775,1.398,-0.334,69.0
13.767,1.395,-0.411,37.0
13.725,1.388,-0.488,21.0
13.537,1.367,-0.559,12.0
13.084,1.319,-0.614,8.0
12.573,1.265,-0.661,2.0
13.773,1.378,-0.341,61.0
13.771,1.376,-0.418,150.0
13.723,1.368,-0.494,16.0
13.533,1.347,-0.565,12.0
13.072,1.299,-0.62,9.0
12.518,1.241,-0.664,2.0
13.774,1.358,-0.347,47.0
13.773,1.356,-0.424,96.0
13.719,1.348,-0.5,16.0
13.487,1.322,-0.569,11.0
13.072,1.279,-0.625,10.0
12.451,1.217,-0.666,2.0
13.784,1.339,-0.353,37.0
13.77,1.335,-0.43,36.0
13.723,1.328,-0.506,17.0
13.484,1.302,-0.574,11.0
13.067,1.259,-0.63,11.0
12.396,1.192,-0.668,3.0
13.791,1.319,-0.358,34.0
13.777,1.315,-0.435,33.0
13.723,1.307,-0.511,18.0
13.461,1.279,-0.578,11.0
13.066,1.239,-0.635,10.0
12.377,1.172,-0.671,3.0
13.81,1.3,-0.364,33.0
13.792,1.295,-0.441,30.0
13.745,1.288,-0.516,16.0
13.404,1.254,-0.58,12.0
13.062,1.219,-0.639,11.0
12.364,1.152,-0.674,3.0
13.822,1.28,-0.368,31.0
13.804,1.275,-0.445,25.0
13.761,1.268,-0.521,16.0
13.441,1.236,-0.586,11.0
13.056,1.198,-0.642,11.0
12.349,1.131,-0.677,3.0
13.834,1.259,-0.372,21.0
13.823,1.255,-0.45,25.0
13.771,1.247,-0.525,16.0
13.415,1.212,-0.588,12.0
13.061,1.177,-0.646,10.0
12.337,1.11,-0.679,2.0
13.884,1.241,-0.377,13.0
13.848,1.235,-0.453,17.0
13.779,1.226,-0.528,13.0
13.466,1.195,-0.593,11.0
13.069,1.157,-0.649,10.0
12.33,1.089,-0.681,3.0
18.404,1.615,-0.504,0.0
13.896,1.217,-0.458,9.0
13.807,1.206,-0.532,13.0
13.468,1.173,-0.596,10.0
13.06,1.135,-0.651,10.0
12.321,1.068,-0.683,3.0
18.254,1.572,-0.502,3.0
16.619,1.428,-0.55,1.0
13.837,1.186,-0.535,12.0
13.422,1.147,-0.595,8.0
13.066,1.114,-0.653,9.0
12.296,1.045,-0.683,3.0
18.262,1.543,-0.505,3.0
16.551,1.394,-0.55,2.0
13.895,1.167,-0.539,12.0
13.386,1.122,-0.595,8.0
13.074,1.093,-0.654,10.0
12.328,1.028,-0.686,2.0
18.204,1.507,-0.505,3.0
16.531,1.365,-0.55,2.0
14.013,1.154,-0.545,11.0
13.453,1.104,-0.599,11.0
13.083,1.071,-0.656,10.0
12.312,1.005,-0.686,2.0
18.251,1.48,-0.507,3.0
16.489,1.333,-0.55,2.0
14.171,1.143,-0.551,11.0
13.482,1.084,-0.601,12.0
13.064,1.047,-0.655,10.0
12.264,0.98,-0.683,3.0
18.298,1.453,-0.509,3.0
16.543,1.31,-0.552,2.0
14.252,1.125,-0.555,10.0
13.464,1.059,-0.6,12.0
13.07,1.025,-0.655,10.0
12.297,0.962,-0.685,4.0
18.335,1.424,-0.509,3.0
16.602,1.285,-0.553,2.0
14.275,1.102,-0.555,10.0
13.456,1.035,-0.599,11.0
13.066,1.002,-0.654,10.0
12.314,0.941,-0.685,3.0
18.376,1.395,-0.509,3.0
16.654,1.26,-0.554,2.0
14.425,1.088,-0.559,9.0
13.536,1.018,-0.601,11.0
13.053,0.978,-0.652,10.0
12.355,0.923,-0.686,3.0
18.455,1.369,-0.509,3.0
16.716,1.235,-0.554,2.0
14.528,1.07,-0.562,9.0
13.583,0.997,-0.602,12.0
13.061,0.956,-0.651,10.0
12.398,0.904,-0.687,3.0
18.591,1.346,-0.51,4.0
16.754,1.209,-0.552,2.0
14.611,1.051,-0.562,9.0
13.63,0.976,-0.601,12.0
13.067,0.933,-0.649,10.0
12.448,0.886,-0.687,2.0
18.686,1.32,-0.509,3.0
16.836,1.185,-0.552,3.0
14.716,1.032,-0.563,6.0
13.709,0.958,-0.602,12.0
13.071,0.91,-0.646,9.0
12.491,0.866,-0.687,2.0
18.727,1.289,-0.506,3.0
16.934,1.161,-0.551,3.0
14.84,1.014,-0.565,4.0
13.771,0.937,-0.601,13.0
13.074,0.886,-0.643,9.0
12.527,0.846,-0.685,2.0
18.881,1.265,-0.505,3.0
17.07,1.139,-0.551,2.0
15.084,1.003,-0.57,2.0
13.866,0.918,-0.601,14.0
13.089,0.864,-0.64,9.0
12.619,0.829,-0.687,2.0
19.049,1.242,-0.504,3.0
17.2,1.117,-0.549,2.0
15.227,0.985,-0.57,2.0
13.935,0.898,-0.6,13.0
13.11,0.841,-0.636,7.0
12.72,0.813,-0.687,2.0
19.233,1.219,-0.502,3.0
17.366,1.096,-0.549,2.0
15.658,0.984,-0.581,2.0
14.086,0.881,-0.601,13.0
13.217,0.823,-0.636,8.0
12.851,0.797,-0.69,3.0
19.402,1.194,-0.499,3.0
17.498,1.072,-0.546,4.0
15.884,0.969,-0.583,2.0
14.466,0.878,-0.611,16.0
13.339,0.806,-0.637,8.0
12.979,0.781,-0.691,4.0
19.586,1.17,-0.495,3.0
17.636,1.048,-0.542,3.0
15.993,0.946,-0.579,2.0
14.575,0.858,-0.609,15.0
13.495,0.791,-0.638,10.0
13.017,0.76,-0.687,7.0
19.746,1.143,-0.49,3.0
17.808,1.026,-0.539,3.0
16.166,0.927,-0.578,2.0
14.631,0.835,-0.604,20.0
13.5,0.767,-0.632,12.0
13.066,0.738,-0.683,9.0
20.015,1.122,-0.486,3.0
18.035,1.006,-0.537,4.0
16.342,0.907,-0.575,3.0
14.647,0.808,-0.597,21.0
13.581,0.746,-0.628,15.0
13.063,0.714,-0.675,11.0
20.291,1.1,-0.482,4.0
18.261,0.985,-0.533,3.0
16.475,0.884,-0.571,2.0
14.664,0.782,-0.589,16.0
13.69,0.726,-0.625,14.0
13.064,0.69,-0.668,12.0
20.621,1.08,-0.478,4.0
18.553,0.966,-0.531,3.0
16.675,0.864,-0.568,2.0
14.662,0.755,-0.58,9.0
13.962,0.715,-0.629,14.0
13.071,0.666,-0.66,10.0
20.95,1.058,-0.472,4.0
18.752,0.942,-0.524,3.0
17.039,0.851,-0.569,3.0
14.954,0.743,-0.582,5.0
14.265,0.705,-0.633,14.0
13.114,0.644,-0.653,9.0
21.246,1.034,-0.465,4.0
18.974,0.918,-0.518,3.0
17.278,0.832,-0.565,5.0
15.348,0.734,-0.587,2.0
14.492,0.689,-0.633,18.0
13.333,0.63,-0.655,10.0
21.53,1.008,-0.455,4.0
19.35,0.901,-0.514,3.0
17.506,0.81,-0.56,4.0
15.851,0.729,-0.594,2.0
14.605,0.668,-0.627,23.0
13.458,0.611,-0.651,14.0
22.022,0.991,-0.449,4.0
19.685,0.88,-0.508,3.0
17.749,0.789,-0.554,4.0
16.075,0.71,-0.59,2.0
14.63,0.642,-0.617,22.0
13.551,0.591,-0.645,14.0
22.302,0.963,-0.437,5.0
20.089,0.862,-0.502,3.0
18.075,0.77,-0.55,3.0
16.343,0.692,-0.587,2.0
14.653,0.616,-0.605,15.0
13.614,0.568,-0.636,14.0
23.342,0.966,-0.439,5.0
20.517,0.843,-0.496,4.0
18.373,0.749,-0.543,3.0
16.614,0.673,-0.583,2.0
14.651,0.59,-0.593,10.0
14.007,0.56,-0.643,15.0
24.069,0.952,-0.432,5.0
20.829,0.818,-0.486,4.0
18.727,0.73,-0.537,3.0
16.981,0.657,-0.581,2.0
14.957,0.575,-0.592,5.0
14.083,0.537,-0.633,13.0
24.488,0.925,-0.417,1.0
21.219,0.795,-0.475,4.0
19.066,0.709,-0.53,3.0
17.279,0.638,-0.575,6.0
15.567,0.57,-0.602,3.0
14.213,0.516,-0.626,7.0
28.24,1.016,-0.455,1.0
21.681,0.773,-0.465,4.0
19.403,0.687,-0.52,3.0
17.57,0.617,-0.567,3.0
16.022,0.558,-0.604,3.0
14.486,0.5,-0.623,1.0
28.868,0.987,-0.436,1.0
22.426,0.76,-0.459,4.0
19.849,0.667,-0.513,3.0
17.881,0.596,-0.56,4.0
16.285,0.538,-0.597,2.0
14.51,0.475,-0.61,1.0
29.513,0.957,-0.416,2.0
23.345,0.75,-0.454,5.0
20.355,0.648,-0.505,3.0
18.253,0.576,-0.552,4.0
16.641,0.52,-0.593,2.0
14.701,0.456,-0.602,5.0
30.188,0.925,-0.394,2.0
23.952,0.727,-0.441,2.0
20.848,0.627,-0.495,4.0
18.704,0.557,-0.546,4.0
17.067,0.503,-0.589,3.0
15.494,0.453,-0.618,4.0
30.932,0.893,-0.37,2.0
27.562,0.788,-0.477,1.0
21.378,0.605,-0.484,4.0
19.16,0.537,-0.538,3.0
17.398,0.483,-0.581,5.0
15.855,0.436,-0.615,3.0
32.06,0.87,-0.347,2.0
28.291,0.76,-0.457,1.0
21.999,0.585,-0.473,4.0
19.627,0.516,-0.528,3.0
17.7,0.46,-0.571,6.0
16.214,0.417,-0.609,3.0
33.278,0.846,-0.322,1.0
29.111,0.731,-0.437,2.0
22.979,0.571,-0.467,5.0
20.137,0.495,-0.518,3.0
18.13,0.44,-0.563,4.0
16.599,0.399,-0.604,3.0
36.592,0.867,-0.311,3.0
29.808,0.698,-0.411,2.0
26.841,0.621,-0.513,1.0
20.771,0.475,-0.51,4.0
18.614,0.421,-0.556,5.0
16.891,0.377,-0.594,2.0
36.828,0.81,-0.267,11.0
30.696,0.667,-0.385,2.0
27.277,0.585,-0.487,1.0
21.316,0.451,-0.496,4.0
18.994,0.397,-0.543,8.0
17.361,0.358,-0.588,2.0
37.229,0.756,-0.223,24.0
31.767,0.636,-0.358,1.0
28.07,0.555,-0.465,1.0
21.907,0.427,-0.481,4.0
19.554,0.376,-0.533,8.0
17.802,0.337,-0.58,3.0
37.892,0.707,-0.177,52.0
33.169,0.609,-0.331,1.0
29.103,0.527,-0.444,2.0
22.435,0.4,-0.463,1.0
20.067,0.352,-0.521,9.0
18.317,0.317,-0.572,4.0
39.03,0.664,-0.13,50.0
36.94,0.618,-0.319,2.0
29.909,0.492,-0.416,2.0
26.622,0.431,-0.514,1.0
20.936,0.333,-0.515,4.0
18.787,0.294,-0.561,4.0
44.047,0.678,-0.087,4.0
37.158,0.562,-0.27,8.0
30.676,0.456,-0.385,1.0
27.294,0.398,-0.489,1.0
21.546,0.309,-0.5,4.0
19.346,0.272,-0.551,3.0
0.0,0.0,0.0,0.0
37.747,0.51,-0.221,24.0
32.026,0.425,-0.357,1.0
28.314,0.368,-0.467,1.0
22.166,0.282,-0.483,2.0
19.999,0.25,-0.541,4.0
47.543,0.58,0.039,59.0
38.473,0.46,-0.171,50.0
33.567,0.393,-0.326,1.0
29.255,0.335,-0.441,1.0
26.165,0.292,-0.532,2.0
20.776,0.227,-0.532,4.0
47.987,0.511,0.109,70.0
39.484,0.41,-0.117,32.0
37.382,0.379,-0.308,4.0
30.07,0.297,-0.409,2.0
26.855,0.259,-0.506,1.0
21.81,0.204,-0.526,4.0
48.023,0.438,0.18,102.0
0.0,0.0,0.0,0.0
37.757,0.325,-0.254,13.0
31.17,0.261,-0.377,1.0
27.713,0.225,-0.481,1.0
24.766,0.195,-0.56,1.0
48.11,0.366,0.253,46.0
46.834,0.345,0.0,32.0
38.497,0.274,-0.201,37.0
32.758,0.225,-0.346,1.0
28.777,0.19,-0.455,1.0
25.821,0.164,-0.544,2.0
55.084,0.338,0.375,19.0
54.657,0.322,0.085,15.0
39.485,0.222,-0.145,39.0
37.619,0.203,-0.338,2.0
29.712,0.153,-0.423,2.0
26.625,0.13,-0.518,2.0
59.339,0.277,0.497,82.0
54.945,0.243,0.173,28.0
43.92,0.183,-0.09,10.0
37.876,0.149,-0.281,12.0
30.917,0.114,-0.391,1.0
27.419,0.095,-0.49,1.0
79.465,0.256,0.794,150.0
59.176,0.177,0.281,8.0
0.0,0.0,0.0,0.0
38.705,0.097,-0.224,14.0
32.374,0.074,-0.357,1.0
28.616,0.058,-0.465,1.0
79.472,0.145,0.922,151.0
76.131,0.122,0.485,22.0
48.044,0.065,0.055,9.0
39.762,0.045,-0.165,36.0
33.763,0.03,-0.316,0.0
29.529,0.02,-0.431,2.0
79.46,0.035,1.053,151.0
79.334,0.017,0.638,53.0
55.756,0.0,0.156,29.0
0.0,0.0,0.0,0.0
38.414,-0.017,-0.297,3.0
30.505,-0.02,-0.395,1.0
79.459,-0.071,1.186,151.0
79.457,-0.089,0.772,151.0
61.735,-0.082,0.277,11.0
45.869,-0.071,-0.037,20.0
39.26,-0.069,-0.237,14.0
32.334,-0.064,-0.364,2.0
79.454,-0.175,1.319,153.0
79.463,-0.192,0.906,151.0
76.493,-0.202,0.473,13.0
0.0,0.0,0.0,0.0
40.93,-0.125,-0.177,16.0
33.893,-0.111,-0.322,0.0
79.416,-0.278,1.456,255.0
79.458,-0.294,1.042,151.0
79.352,-0.311,0.628,113.0
56.05,-0.231,0.146,24.0
42.106,-0.183,-0.108,3.0
39.421,-0.179,-0.307,1.0
79.431,-0.378,1.595,201.0
79.459,-0.395,1.182,165.0
79.456,-0.411,0.769,179.0
61.772,-0.332,0.27,9.0
46.282,-0.258,-0.037,4.0
41.527,-0.24,-0.25,3.0
79.43,-0.476,1.735,206.0
79.45,-0.492,1.322,172.0
79.446,-0.508,0.909,191.0
77.012,-0.508,0.475,14.0
52.951,-0.359,0.05,7.0
46.718,-0.326,-0.197,3.0
79.427,-0.571,1.877,185.0
79.439,-0.587,1.464,179.0
79.452,-0.602,1.052,185.0
79.407,-0.617,0.631,108.0
58.146,-0.463,0.16,6.0
50.278,-0.41,-0.122,6.0
79.436,-0.664,2.02,153.0
79.433,-0.679,1.608,180.0
79.441,-0.694,1.196,193.0
79.453,-0.709,0.776,166.0
77.259,-0.704,0.353,4.0
54.608,-0.508,-0.032,4.0
79.44,-0.755,2.166,151.0
79.423,-0.768,1.752,195.0
79.434,-0.783,1.341,201.0
79.449,-0.797,0.921,161.0
78.683,-0.804,0.504,28.0
59.337,-0.616,0.072,4.0
79.437,-0.841,2.311,151.0
79.435,-0.854,1.898,172.0
79.436,-0.868,1.486,185.0
79.415,-0.882,1.066,255.0
79.394,-0.896,0.654,66.0
79.249,-0.907,0.242,2.0
79.401,-0.924,2.455,150.0
79.406,-0.938,2.044,21.0
79.416,-0.951,1.633,10.0
79.451,-0.966,1.215,151.0
80.15,-0.987,0.809,28.0
78.351,-0.978,0.385,6.0
109.524,-1.388,3.592,8.0
109.644,-1.407,3.028,6.0
86.936,-1.129,1.95,48.0
86.94,-1.144,1.492,150.0
124.434,-1.657,1.49,5.0
87.902,-1.185,0.598,7.0
86.913,-1.188,3.014,18.0
151.485,-2.094,4.469,19.0
183.399,-2.564,4.461,82.0
183.378,-2.593,3.495,61.0
187.197,-2.675,2.598,11.0
123.681,-1.787,1.078,3.0
129.203,-1.89,4.727,26.0
151.481,-2.239,4.759,99.0
151.446,-2.26,3.972,45.0
261.936,-3.948,5.487,12.0
205.401,-3.124,3.238,25.0
123.86,-1.902,1.313,12.0
128.125,-1.991,4.93,29.0
151.419,-2.376,5.043,73.0
151.471,-2.397,4.26,90.0
248.322,-3.966,5.677,64.0
0.0,0.0,0.0,0.0
149.484,-2.428,1.87,10.0
184.261,-3.027,7.444,24.0
184.353,-3.053,6.492,44.0
151.471,-2.528,4.548,91.0
40.272,-0.677,0.997,20.0
40.213,-0.682,0.787,6.0
205.438,-3.51,2.961,64.0
128.552,-2.22,5.438,30.0
185.868,-3.234,6.902,26.0
151.417,-2.653,4.838,44.0
40.249,-0.71,1.073,43.0
40.198,-0.714,0.864,49.0
40.166,-0.718,0.656,44.0
92.978,-1.68,4.112,23.0
188.417,-3.429,7.36,16.0
184.504,-3.378,6.251,46.0
40.274,-0.742,1.152,50.0
40.231,-0.746,0.943,51.0
40.176,-0.75,0.735,54.0
92.964,-1.753,4.295,36.0
128.694,-2.441,5.279,16.0
184.586,-3.522,6.618,49.0
40.313,-0.773,1.232,35.0
40.259,-0.777,1.023,43.0
40.225,-0.78,0.814,43.0
90.724,-1.777,4.367,47.0
128.612,-2.533,5.525,34.0
184.544,-3.653,6.973,17.0
40.379,-0.803,1.312,2.0
40.277,-0.805,1.101,49.0
40.221,-0.808,0.891,46.0
91.745,-1.86,4.594,82.0
129.021,-2.628,5.792,9.0
191.223,-3.915,7.596,32.0
185.623,-3.818,6.397,53.0
40.254,-0.832,1.179,37.0
40.216,-0.835,0.97,54.0
91.481,-1.915,4.761,57.0
90.593,-1.905,4.246,43.0
191.704,-4.049,7.993,22.0
185.615,-3.936,6.758,43.0
40.298,-0.858,1.259,15.0
40.209,-0.86,1.049,54.0
83.742,-1.806,4.523,22.0
99.102,-2.144,4.839,19.0
128.799,-2.798,5.622,21.0
191.41,-4.174,7.347,19.0
185.556,-4.061,6.163,28.0
40.227,-0.883,1.128,51.0
91.743,-2.031,5.136,69.0
92.102,-2.045,4.678,51.0
129.562,-2.887,5.91,24.0
129.635,-2.899,5.229,27.0
40.285,-0.903,1.416,5.0
40.251,-0.906,1.208,43.0
91.479,-2.075,5.3,59.0
92.151,-2.096,4.863,67.0
90.583,-2.066,4.31,46.0
129.329,-2.959,5.473,33.0
40.253,-0.923,1.495,13.0
40.299,-0.927,1.289,38.0
91.416,-2.119,5.478,9.0
83.677,-1.945,4.581,49.0
90.572,-2.111,4.489,48.0
129.388,-3.023,5.729,33.0
40.29,-0.943,1.575,2.0
40.232,-0.944,1.366,48.0
129.292,-3.058,8.003,27.0
83.669,-1.983,4.745,43.0
99.036,-2.352,5.102,54.0
129.135,-3.074,5.972,35.0
129.267,-3.084,5.31,38.0
40.203,-0.961,1.444,45.0
130.255,-3.136,8.318,25.0
92.23,-2.224,5.412,37.0
99.043,-2.393,5.299,57.0
93.071,-2.253,4.488,37.0
128.771,-3.122,5.542,41.0
40.229,-0.977,1.523,29.0
91.72,-2.244,6.038,13.0
97.922,-2.398,5.938,19.0
83.639,-2.051,4.638,35.0
90.503,-2.223,4.541,43.0
129.174,-3.177,5.811,46.0
129.324,-3.186,5.15,45.0
97.584,-2.42,6.616,11.0
97.827,-2.429,6.123,21.0
83.619,-2.078,4.8,43.0
90.509,-2.252,4.717,22.0
129.21,-3.219,6.066,31.0
128.783,-3.212,5.38,48.0
97.476,-2.447,6.798,13.0
97.704,-2.455,6.307,16.0
92.248,-2.32,5.476,43.0
99.003,-2.491,5.352,40.0
93.068,-2.344,4.549,43.0
128.869,-3.249,5.633,43.0
97.306,-2.469,6.975,17.0
97.586,-2.477,6.488,9.0
129.214,-3.282,7.921,32.0
98.977,-2.514,5.542,33.0
90.518,-2.301,4.6,43.0
129.034,-3.282,5.888,39.0
41.314,-1.057,3.042,2.0
129.437,-3.314,8.856,19.0
128.933,-3.302,8.15,33.0
83.568,-2.14,4.84,44.0
90.55,-2.319,4.774,16.0
177.729,-4.554,8.449,18.0
41.209,-1.062,3.113,37.0
85.912,-2.215,6.043,2.0
129.411,-3.336,8.43,24.0
92.278,-2.379,5.521,50.0
128.939,-3.323,7.044,25.0
93.077,-2.398,4.602,49.0
41.175,-1.068,3.189,32.0
97.305,-2.522,7.029,11.0
129.446,-3.354,8.678,24.0
92.31,-2.391,5.699,26.0
83.615,-2.165,4.727,45.0
90.541,-2.343,4.649,38.0
41.247,-1.074,3.274,55.0
41.211,-1.072,3.056,9.0
82.226,-2.138,5.669,3.0
129.171,-3.357,8.219,28.0
83.553,-2.17,4.881,43.0
128.717,-3.339,6.851,28.0
54.658,-1.427,4.442,7.0
41.148,-1.073,3.129,50.0
93.453,-2.436,6.619,3.0
129.44,-3.37,8.48,25.0
92.301,-2.401,5.565,51.0
128.856,-3.347,7.098,22.0
53.825,-1.407,4.475,6.0
41.274,-1.077,3.216,25.0
97.236,-2.535,7.068,7.0
129.44,-3.371,8.721,26.0
92.337,-2.401,5.74,24.0
83.615,-2.172,4.764,51.0
63.465,-1.659,5.397,6.0
41.239,-1.076,3.291,57.0
41.186,-1.073,3.071,20.0
82.222,-2.139,5.693,3.0
129.289,-3.358,8.28,25.0
92.283,-2.392,5.428,25.0
53.866,-1.405,4.68,11.0
54.627,-1.423,4.46,10.0
41.147,-1.069,3.143,42.0
97.386,-2.527,6.922,6.0
129.458,-3.352,8.524,19.0
92.312,-2.386,5.597,35.0
40.794,-1.061,3.619,50.0
53.591,-1.391,4.473,6.0
41.248,-1.068,3.227,41.0
97.226,-2.512,7.087,22.0
129.473,-3.338,8.762,25.0
92.372,-2.376,5.768,4.0
40.94,-1.059,3.706,44.0
53.893,-1.391,4.596,6.0
41.196,-1.061,3.297,67.0
41.222,-1.059,3.079,22.0
97.419,-2.497,6.766,18.0
128.992,-3.298,8.286,31.0
40.976,-1.054,3.784,51.0
53.859,-1.382,4.69,10.0
41.208,-1.054,3.372,27.0
41.194,-1.051,3.15,50.0
97.328,-2.477,6.934,15.0
97.607,-2.477,6.444,21.0
40.512,-1.034,3.814,47.0
40.757,-1.037,3.622,48.0
53.628,-1.36,4.484,10.0
41.302,-1.045,3.232,45.0
41.262,-1.04,3.013,0.0
97.536,-2.452,6.611,19.0
39.893,-1.009,3.826,60.0
40.925,-1.032,3.709,37.0
53.806,-1.352,4.594,17.0
41.207,-1.032,3.297,59.0
41.249,-1.029,3.084,30.0
85.74,-2.133,5.959,3.0
39.999,-1.0,3.906,51.0
40.796,-1.017,3.769,47.0
64.141,-1.594,5.587,10.0
41.278,-1.021,3.373,16.0
41.185,-1.016,3.149,55.0
91.726,-2.255,6.533,21.0
40.252,-0.994,4.0,63.0
49.057,-1.208,4.616,5.0
40.865,-1.002,3.629,57.0
41.28,-1.008,3.444,3.0
41.193,-1.002,3.22,59.0
84.916,-2.058,6.191,16.0
39.74,-0.969,4.017,52.0
39.65,-0.962,3.797,61.0
40.919,-0.989,3.702,44.0
53.961,-1.298,4.592,14.0
41.215,-0.988,3.29,50.0
41.292,-0.986,3.078,7.0
39.454,-0.947,4.053,62.0
39.968,-0.955,3.894,58.0
40.825,-0.971,3.762,50.0
64.377,-1.524,5.585,17.0
41.272,-0.972,3.362,30.0
41.216,-0.967,3.14,59.0
39.311,-0.927,4.104,63.0
39.629,-0.93,3.926,61.0
40.165,-0.938,3.767,42.0
54.264,-1.261,4.796,24.0
54.025,-1.25,4.489,5.0
41.163,-0.947,3.203,65.0
39.236,-0.908,4.16,67.0
39.523,-0.91,3.981,49.0
39.894,-0.914,3.806,47.0
49.086,-1.118,4.417,13.0
54.158,-1.227,4.587,26.0
41.162,-0.928,3.268,44.0
39.087,-0.886,4.207,62.0
39.666,-0.894,4.058,48.0
39.283,-0.88,3.81,69.0
49.06,-1.093,4.492,51.0
54.244,-1.202,4.679,58.0
41.257,-0.909,3.34,38.0
39.019,-0.864,4.261,69.0
39.598,-0.872,4.112,46.0
39.257,-0.859,3.868,54.0
39.837,-0.867,3.709,46.0
40.72,-0.881,3.575,35.0
54.17,-1.165,4.468,30.0
38.974,-0.842,4.316,66.0
39.366,-0.845,4.148,56.0
39.349,-0.84,3.936,51.0
39.625,-0.84,3.749,47.0
40.36,-0.85,3.603,47.0
63.791,-1.336,5.357,15.0
39.065,-0.822,4.385,66.0
39.441,-0.824,4.215,48.0
39.666,-0.823,4.027,50.0
39.343,-0.811,3.781,69.0
39.77,-0.814,3.61,66.0
53.715,-1.092,4.589,5.0
39.301,-0.803,4.469,65.0
39.105,-0.793,4.237,62.0
39.577,-0.797,4.076,57.0
39.419,-0.788,3.845,54.0
39.714,-0.788,3.661,68.0
40.635,-0.801,3.53,61.0
39.284,-0.778,4.524,66.0
39.118,-0.769,4.294,48.0
39.25,-0.765,4.098,60.0
39.317,-0.761,3.891,67.0
39.891,-0.766,3.734,54.0
49.107,-0.936,4.334,5.0
39.646,-0.759,4.622,54.0
39.047,-0.741,4.341,57.0
39.227,-0.738,4.151,66.0
39.644,-0.74,3.978,55.0
39.496,-0.731,3.751,72.0
40.042,-0.735,3.589,66.0
39.197,-0.723,4.624,66.0
39.295,-0.719,4.423,53.0
39.203,-0.71,4.202,64.0
39.654,-0.712,4.033,49.0
40.327,-0.718,3.884,64.0
40.196,-0.71,3.656,45.0
39.552,-0.701,4.719,53.0
39.359,-0.691,4.483,62.0
39.531,-0.688,4.289,41.0
39.305,-0.678,4.049,39.0
40.348,-0.689,3.939,42.0
40.293,-0.681,3.718,58.0
39.669,-0.673,4.785,61.0
39.666,-0.667,4.57,58.0
39.113,-0.651,4.294,54.0
39.236,-0.646,4.092,60.0
39.979,-0.652,3.955,69.0
48.133,-0.777,4.503,32.0
39.772,-0.644,4.848,46.0
39.772,-0.637,4.632,58.0
39.392,-0.624,4.375,47.0
39.319,-0.617,4.151,50.0
39.398,-0.611,3.946,55.0
39.899,-0.612,3.781,41.0
39.679,-0.611,4.886,67.0
39.591,-0.602,4.66,58.0
39.236,-0.59,4.406,53.0
39.663,-0.59,4.235,37.0
39.468,-0.58,4.001,47.0
39.475,-0.573,3.789,68.0
39.78,-0.579,4.947,36.0
40.059,-0.576,4.764,47.0
39.744,-0.565,4.51,51.0
39.903,-0.56,4.307,30.0
39.627,-0.549,4.063,52.0
39.56,-0.541,3.842,51.0
40.017,-0.549,5.023,38.0
40.318,-0.545,4.84,47.0
39.8,-0.532,4.562,62.0
39.728,-0.523,4.334,46.0
39.375,-0.511,4.082,44.0
39.708,-0.508,3.901,32.0
39.991,-0.513,5.065,62.0
43.503,-0.551,5.272,3.0
39.972,-0.499,4.626,61.0
39.323,-0.483,4.333,51.0
39.347,-0.476,4.122,57.0
39.957,-0.476,3.969,53.0
40.007,-0.478,5.11,43.0
40.092,-0.471,4.902,42.0
39.944,-0.462,4.665,59.0
39.632,-0.451,4.409,46.0
39.371,-0.441,4.166,66.0
39.292,-0.433,3.944,58.0
39.921,-0.44,5.141,68.0
39.88,-0.432,4.918,39.0
40.322,-0.429,4.751,34.0
39.878,-0.417,4.477,45.0
39.385,-0.404,4.207,62.0
39.328,-0.396,3.987,59.0
39.936,-0.402,5.184,67.0
39.964,-0.395,4.968,48.0
40.297,-0.391,4.788,29.0
40.374,-0.384,4.573,45.0
39.996,-0.372,4.312,49.0
39.44,-0.36,4.037,64.0
40.078,-0.365,5.241,53.0
39.852,-0.355,4.992,55.0
42.239,-0.369,5.059,3.0
40.839,-0.348,4.664,63.0
40.793,-0.341,4.435,21.0
39.55,-0.323,4.084,59.0
40.247,-0.327,5.301,61.0
39.632,-0.315,5.001,67.0
39.755,-0.308,4.798,52.0
40.21,-0.304,4.628,57.0
44.064,-0.324,4.83,3.0
39.533,-0.283,4.117,55.0
40.001,-0.285,5.304,37.0
39.619,-0.274,5.035,47.0
39.653,-0.267,4.82,58.0
42.0,-0.275,4.87,3.0
40.069,-0.254,4.426,60.0
39.602,-0.244,4.158,54.0
39.418,-0.241,5.26,62.0
39.679,-0.234,5.075,60.0
39.617,-0.227,4.848,57.0
39.681,-0.219,4.634,42.0
40.084,-0.214,4.46,57.0
40.035,-0.206,4.235,43.0
39.508,-0.2,5.304,57.0
39.733,-0.194,5.114,51.0
39.551,-0.185,4.871,59.0
39.59,-0.178,4.653,59.0
40.292,-0.173,4.514,55.0
40.434,-0.166,4.308,37.0
39.43,-0.158,5.323,66.0
39.508,-0.151,5.114,60.0
39.615,-0.144,4.909,46.0
39.702,-0.136,4.696,38.0
40.276,-0.13,4.542,42.0
40.894,-0.124,4.386,44.0
39.539,-0.117,5.366,62.0
39.439,-0.109,5.133,70.0
39.644,-0.102,4.94,64.0
39.849,-0.094,4.74,42.0
40.158,-0.087,4.555,35.0
40.853,-0.081,4.409,46.0
39.462,-0.075,5.382,69.0
39.744,-0.067,5.199,48.0
39.686,-0.059,4.971,52.0
39.739,-0.052,4.753,53.0
39.988,-0.044,4.561,39.0
41.028,-0.037,4.453,44.0
39.572,-0.032,5.422,53.0
39.675,-0.024,5.214,55.0
39.603,-0.016,4.984,36.0
39.778,-0.009,4.781,59.0
39.708,-0.001,4.552,59.0
40.56,0.006,4.426,59.0
39.839,0.01,5.481,56.0
39.647,0.018,5.233,54.0
39.52,0.025,4.996,52.0
54.612,0.046,6.594,10.0
39.722,0.042,4.575,42.0
40.023,0.05,4.388,60.0
39.944,0.055,5.517,50.0
39.874,0.062,5.284,46.0
39.505,0.07,5.014,55.0
39.7,0.078,4.814,15.0
39.529,0.085,4.573,64.0
40.056,0.094,4.412,50.0
39.775,0.099,5.513,70.0
40.113,0.107,5.335,25.0
39.843,0.115,5.076,36.0
43.37,0.133,5.279,24.0
39.591,0.129,4.598,59.0
40.304,0.139,4.457,44.0
39.772,0.143,5.53,60.0
40.427,0.153,5.394,21.0
39.821,0.159,5.09,35.0
43.717,0.184,5.339,6.0
0.0,0.0,0.0,0.0
40.209,0.185,4.462,52.0
40.162,0.19,5.6,58.0
39.721,0.196,5.315,52.0
0.0,0.0,0.0,0.0
40.664,0.217,4.981,16.0
40.263,0.222,4.707,15.0
40.465,0.231,4.505,61.0
40.23,0.236,5.624,65.0
39.592,0.24,5.312,52.0
40.449,0.253,5.199,43.0
40.572,0.262,4.983,41.0
40.256,0.268,4.719,43.0
40.597,0.278,4.532,45.0
40.054,0.281,5.612,42.0
39.444,0.285,5.303,63.0
39.971,0.296,5.149,31.0
40.623,0.309,5.001,25.0
40.388,0.315,4.745,37.0
40.066,0.32,4.483,57.0
39.342,0.322,5.522,55.0
39.395,0.329,5.306,62.0
39.596,0.338,5.11,45.0
46.971,0.411,5.793,12.0
39.876,0.356,4.694,58.0
40.216,0.366,4.509,50.0
39.228,0.366,5.514,61.0
38.931,0.37,5.252,57.0
39.421,0.382,5.095,63.0
40.807,0.403,5.04,17.0
40.204,0.404,4.74,52.0
41.047,0.421,4.609,37.0
39.231,0.41,5.521,56.0
38.704,0.412,5.227,63.0
39.178,0.424,5.07,58.0
40.233,0.444,4.975,52.0
40.178,0.451,4.742,26.0
40.702,0.464,4.575,52.0
39.014,0.453,5.495,62.0
38.666,0.456,5.226,60.0
39.046,0.467,5.056,58.0
40.316,0.49,4.989,30.0
41.22,0.509,4.868,15.0
40.937,0.513,4.605,28.0
38.928,0.496,5.485,57.0
38.731,0.501,5.237,55.0
39.016,0.512,5.055,54.0
42.581,0.567,5.271,4.0
41.184,0.556,4.865,17.0
41.221,0.563,4.638,32.0
38.685,0.538,5.452,65.0
38.728,0.546,5.238,50.0
38.669,0.552,5.01,59.0
43.325,0.627,5.363,4.0
41.4,0.606,4.891,26.0
41.387,0.613,4.656,48.0
38.372,0.578,5.407,53.0
38.659,0.589,5.227,53.0
38.7,0.596,5.012,52.0
39.349,0.613,4.869,54.0
41.067,0.647,4.849,45.0
41.28,0.658,4.641,42.0
38.2,0.619,5.38,67.0
38.725,0.634,5.233,52.0
38.434,0.636,4.974,51.0
39.202,0.655,4.847,48.0
41.479,0.701,4.893,48.0
41.188,0.703,4.626,35.0
38.226,0.662,5.379,56.0
38.778,0.679,5.235,53.0
38.664,0.684,4.999,44.0
39.218,0.7,4.843,71.0
41.805,0.753,4.926,40.0
41.439,0.754,4.648,47.0
38.194,0.705,5.368,67.0
38.865,0.724,5.24,38.0
38.863,0.73,5.018,42.0
39.33,0.745,4.85,54.0
41.694,0.797,4.905,40.0
41.74,0.805,4.673,37.0
38.347,0.75,5.382,45.0
38.901,0.768,5.237,42.0
39.006,0.776,5.028,39.0
39.528,0.793,4.865,63.0
42.126,0.852,4.945,37.0
48.547,0.99,5.424,8.0
38.592,0.798,5.406,44.0
38.933,0.812,5.23,49.0
38.983,0.819,5.014,18.0
39.877,0.844,4.897,34.0
41.52,0.885,4.862,39.0
48.542,1.044,5.409,38.0
38.615,0.842,5.398,59.0
38.856,0.853,5.208,67.0
38.942,0.861,4.996,31.0
41.331,0.921,5.062,4.0
41.822,0.938,4.884,39.0
41.335,0.934,4.592,32.0
38.789,0.888,5.408,48.0
39.041,0.9,5.219,48.0
38.165,0.886,4.883,44.0
37.905,0.885,4.629,56.0
41.73,0.981,4.857,32.0
41.813,0.99,4.629,12.0
38.49,0.923,5.351,69.0
38.792,0.936,5.17,61.0
38.364,0.931,4.893,55.0
37.876,0.925,4.609,56.0
53.734,1.321,6.232,9.0
53.809,1.331,5.934,9.0
38.598,0.967,5.349,54.0
41.017,1.033,5.448,28.0
37.976,0.962,4.826,56.0
37.791,0.963,4.582,64.0
42.424,1.087,4.901,10.0
49.767,1.283,5.465,11.0
39.013,1.018,5.388,54.0
0.0,0.0,0.0,0.0
38.09,1.005,4.821,51.0
37.889,1.005,4.575,65.0
38.01,1.013,4.372,43.0
49.736,1.333,5.436,7.0
38.438,1.043,5.288,63.0
40.588,1.107,5.349,18.0
37.866,1.038,4.773,59.0
37.961,1.046,4.562,49.0
38.039,1.054,4.354,62.0
41.485,1.155,4.511,33.0
38.954,1.097,5.336,56.0
0.0,0.0,0.0,0.0
37.81,1.075,4.743,52.0
41.764,1.193,4.995,16.0
42.143,1.209,4.798,18.0
41.368,1.193,4.474,4.0
38.71,1.13,5.279,47.0
38.702,1.134,5.054,15.0
37.917,1.116,4.733,44.0
38.315,1.133,4.558,19.0
42.023,1.248,4.758,3.0
41.543,1.239,4.466,16.0
38.294,1.156,5.197,64.0
38.98,1.181,5.065,28.0
37.792,1.15,4.692,54.0
37.962,1.16,4.49,49.0
41.895,1.285,4.715,16.0
42.351,1.305,4.523,6.0
37.673,1.174,5.086,34.0
38.628,1.208,4.991,51.0
37.641,1.181,4.646,61.0
37.859,1.192,4.451,58.0
38.285,1.211,4.281,36.0
38.284,1.215,4.061,36.0
38.148,1.224,5.122,58.0
38.295,1.234,4.919,50.0
37.778,1.222,4.634,64.0
37.826,1.227,4.418,51.0
38.149,1.242,4.236,47.0
41.557,1.359,4.376,5.0
37.934,1.254,5.063,59.0
37.85,1.255,4.832,55.0
37.791,1.257,4.606,63.0
37.757,1.26,4.38,73.0
38.242,1.28,4.216,42.0
41.597,1.397,4.347,17.0
37.717,1.281,5.003,60.0
37.777,1.287,4.791,68.0
37.772,1.29,4.572,52.0
38.021,1.303,4.378,57.0
38.387,1.32,4.199,53.0
41.366,1.426,4.287,31.0
37.817,1.318,4.983,66.0
37.881,1.324,4.771,61.0
37.809,1.325,4.543,60.0
38.083,1.338,4.352,52.0
38.426,1.355,4.169,40.0
41.385,1.463,4.252,34.0
37.921,1.354,4.962,58.0
37.98,1.36,4.749,37.0
37.786,1.357,4.505,37.0
37.963,1.367,4.303,52.0
38.557,1.392,4.148,49.0
55.72,2.017,5.673,15.0
38.058,1.391,4.943,58.0
38.004,1.393,4.715,51.0
37.843,1.39,4.476,41.0
38.19,1.407,4.292,56.0
55.622,2.054,5.929,12.0
55.766,2.064,5.624,8.0
37.926,1.418,4.889,56.0
37.952,1.422,4.671,36.0
37.802,1.419,4.433,32.0
37.879,1.425,4.219,37.0
61.976,2.338,6.545,12.0
62.045,2.346,6.194,29.0
37.995,1.45,4.858,46.0
37.864,1.448,4.621,44.0
37.754,1.447,4.388,42.0
38.461,1.477,4.244,40.0
41.643,1.603,4.354,16.0
56.225,2.169,5.554,37.0
37.959,1.478,4.813,60.0
37.869,1.477,4.581,70.0
37.73,1.475,4.345,49.0
42.439,1.662,4.637,7.0
56.353,2.212,5.831,62.0
55.877,2.197,5.459,13.0
37.953,1.506,4.77,56.0
37.945,1.508,4.548,50.0
37.715,1.501,4.301,41.0
41.101,1.64,4.444,6.0
56.37,2.253,5.77,7.0
53.117,2.126,5.13,32.0
37.907,1.531,4.721,53.0
56.246,2.275,6.678,7.0
37.854,1.533,4.274,64.0
41.258,1.674,4.414,32.0
41.108,1.671,4.16,42.0
53.278,2.169,5.084,2.0
37.882,1.556,4.673,56.0
41.579,1.71,4.887,31.0
38.231,1.574,4.271,53.0
41.786,1.723,4.422,14.0
53.085,2.192,5.31,5.0
62.01,2.565,5.844,6.0
37.936,1.582,4.635,38.0
52.856,2.207,6.149,20.0
41.112,1.719,4.543,3.0
62.146,2.602,6.501,10.0
41.34,1.733,4.085,18.0
67.98,2.855,6.324,12.0
37.954,1.606,4.589,40.0
37.741,1.599,4.343,53.0
38.58,1.637,4.215,31.0
54.634,2.321,5.647,24.0
41.299,1.756,4.029,22.0
54.182,2.307,4.972,28.0
37.987,1.63,4.545,50.0
37.741,1.621,4.295,58.0
42.245,1.817,4.562,21.0
53.012,2.282,5.411,6.0
41.319,1.78,3.978,12.0
54.481,2.35,4.929,58.0
55.76,2.424,6.598,21.0
37.822,1.646,4.255,13.0
41.942,1.826,4.474,31.0
41.343,1.802,4.165,46.0
67.93,2.964,6.449,19.0
54.521,2.381,4.861,68.0
53.349,2.347,6.241,10.0
54.55,2.401,6.063,12.0
63.356,2.791,6.673,11.0
41.32,1.822,4.107,43.0
67.845,2.994,6.35,10.0
64.759,2.86,5.687,10.0
42.724,1.9,4.94,12.0
63.793,2.839,7.003,13.0
41.508,1.848,4.315,35.0
41.341,1.842,4.053,40.0
54.418,2.427,5.019,51.0
64.547,2.88,5.579,14.0
41.248,1.853,4.712,3.0
42.287,1.901,4.583,17.0
41.5,1.866,4.256,29.0
41.435,1.865,4.004,25.0
65.005,2.927,5.905,11.0
64.53,2.906,5.488,27.0
41.381,1.877,4.668,2.0
41.921,1.902,4.484,24.0
41.43,1.88,4.189,22.0
53.832,2.444,5.125,29.0
65.052,2.955,5.815,16.0
64.474,2.93,5.39,29.0
42.825,1.959,4.768,0.0
64.032,2.93,6.755,11.0
41.346,1.892,4.121,39.0
67.951,3.111,6.37,20.0
55.57,2.544,4.886,10.0
64.442,2.952,5.293,21.0
62.519,2.882,6.868,39.0
52.929,2.44,5.505,15.0
54.371,2.507,5.338,9.0
68.114,3.141,6.284,33.0
64.907,2.993,5.611,21.0
71.422,3.294,5.761,6.0
41.947,1.946,4.545,20.0
56.971,2.643,5.841,6.0
54.328,2.521,5.253,13.0
54.73,2.539,4.968,29.0
68.002,3.155,5.777,13.0
74.257,3.446,5.879,11.0
41.699,1.946,4.455,39.0
41.476,1.935,4.189,25.0
53.001,2.473,5.044,12.0
70.871,3.307,6.325,21.0
67.969,3.171,5.671,20.0
64.749,3.021,5.026,15.0
52.912,2.482,5.571,12.0
41.455,1.944,4.122,47.0
68.045,3.19,6.37,41.0
64.959,3.046,5.696,18.0
67.89,3.182,5.559,7.0
64.68,3.031,4.92,18.0
0.0,0.0,0.0,0.0
41.431,1.951,4.055,29.0
54.405,2.561,5.007,15.0
64.949,3.057,5.594,40.0
64.97,3.057,5.218,5.0
64.7,3.043,4.821,7.0
54.363,2.57,5.551,41.0
53.19,2.513,5.121,18.0
54.989,2.597,4.974,29.0
64.981,3.068,5.493,36.0
73.887,3.486,5.817,12.0
74.014,3.491,5.397,7.0
41.484,1.966,4.17,26.0
53.045,2.513,5.022,8.0
55.593,2.632,4.939,3.0
68.014,3.218,5.64,13.0
73.839,3.492,5.693,10.0
73.959,3.496,5.274,27.0
41.465,1.969,4.1,11.0
54.141,2.569,5.037,5.0
64.86,3.075,5.657,10.0
64.389,3.051,5.234,8.0
123.576,5.852,9.328,25.0
73.624,3.484,5.13,30.0
41.414,1.969,4.027,34.0
54.839,2.604,5.012,29.0
64.924,3.081,5.556,40.0
73.906,3.505,5.887,27.0
73.947,3.504,5.46,7.0
73.624,3.486,5.008,6.0
53.066,2.523,5.071,12.0
70.769,3.362,6.35,18.0
68.076,3.23,5.711,8.0
73.827,3.501,5.757,20.0
74.013,3.506,5.341,15.0
149.498,7.076,9.922,16.0
62.017,2.946,5.822,5.0
55.563,2.637,4.892,11.0
64.366,3.052,5.292,11.0
123.542,5.851,9.425,27.0
73.747,3.49,5.198,43.0
127.915,6.047,8.273,17.0
54.553,2.588,5.028,22.0
64.929,3.076,5.606,40.0
73.964,3.501,5.954,27.0
64.776,3.062,4.831,7.0
73.593,3.475,5.061,12.0
73.547,3.47,4.632,5.0
70.765,3.35,6.401,13.0
64.968,3.071,5.497,33.0
73.878,3.487,5.821,9.0
74.028,3.491,5.394,10.0
128.037,6.03,8.585,10.0
73.433,3.454,4.498,36.0
55.561,2.621,4.929,10.0
67.855,3.197,5.623,14.0
65.062,3.061,5.013,11.0
73.921,3.473,5.258,18.0
127.761,5.994,8.344,24.0
73.403,3.439,4.369,30.0
64.942,3.051,5.647,38.0
73.968,3.47,6.001,28.0
64.551,3.024,4.861,13.0
73.577,3.441,5.105,24.0
73.619,3.438,4.68,8.0
73.363,3.421,4.239,31.0
64.975,3.038,5.536,25.0
71.263,3.326,5.657,11.0
64.917,3.025,4.775,5.0
122.95,5.72,8.315,13.0
73.443,3.411,4.54,27.0
123.261,5.716,6.905,28.0
67.993,3.16,5.674,17.0
64.589,2.997,5.013,26.0
74.064,3.43,5.317,21.0
73.658,3.405,4.852,7.0
73.34,3.385,4.405,42.0
123.162,5.675,6.685,40.0
64.684,2.986,5.283,7.0
64.621,2.978,4.901,28.0
73.69,3.389,5.16,24.0
127.819,5.867,8.193,26.0
73.304,3.358,4.274,19.0
123.357,5.642,6.476,23.0
74.016,3.39,5.912,13.0
65.18,2.979,4.827,6.0
73.651,3.36,5.026,9.0
73.238,3.334,4.565,30.0
123.517,5.612,6.981,14.0
123.362,5.595,6.258,14.0
74.25,3.372,5.799,26.0
65.821,2.982,4.756,5.0
73.622,3.328,4.892,4.0
73.266,3.305,4.436,40.0
73.327,3.301,4.014,21.0
129.69,5.826,6.347,17.0
64.476,2.9,4.92,26.0
73.365,3.292,5.17,10.0
73.172,3.275,4.731,11.0
123.818,5.529,7.274,19.0
123.312,5.495,6.529,29.0
130.091,5.784,6.133,17.0
65.542,2.916,4.883,21.0
73.358,3.255,5.037,31.0
73.158,3.239,4.598,38.0
73.602,3.25,4.19,52.0
123.219,5.428,6.3,12.0
124.387,5.466,5.64,21.0
73.791,3.245,5.363,6.0
73.428,3.22,4.909,10.0
73.267,3.204,4.472,36.0
73.18,3.192,4.034,41.0
159.394,6.936,7.863,6.0
124.302,5.395,5.412,33.0
73.423,3.187,5.203,35.0
73.324,3.173,4.769,33.0
73.712,3.182,4.366,18.0
123.152,5.301,6.567,31.0
130.406,5.598,6.197,14.0
124.24,5.318,5.185,51.0
73.385,3.141,5.068,35.0
73.26,3.126,4.633,18.0
73.439,3.124,4.218,47.0
124.287,5.273,6.404,21.0
124.625,5.272,5.7,20.0
124.393,5.247,4.968,18.0
73.482,3.097,4.941,20.0
73.37,3.084,4.508,19.0
73.298,3.071,4.077,50.0
132.326,5.528,6.581,10.0
124.305,5.177,5.462,32.0
157.616,6.544,6.015,16.0
73.352,3.043,4.802,18.0
65.195,2.695,3.889,19.0
123.062,5.073,6.627,29.0
123.847,5.088,5.938,34.0
124.124,5.082,5.233,28.0
157.874,6.445,5.744,12.0
73.226,2.985,4.662,30.0
73.4,2.982,4.246,32.0
123.356,4.993,6.422,30.0
124.177,5.01,5.733,36.0
124.193,4.993,5.014,8.0
158.358,6.345,5.476,5.0
65.236,2.61,4.036,19.0
73.351,2.923,4.112,51.0
124.041,4.926,6.235,18.0
124.389,4.921,5.518,16.0
158.149,6.235,6.1,14.0
158.389,6.221,5.193,3.0
65.072,2.551,3.909,32.0
73.551,2.872,3.991,47.0
123.554,4.806,5.987,20.0
124.317,4.816,5.292,19.0
157.4,6.074,5.789,18.0
162.251,6.237,5.028,5.0
73.343,2.813,4.274,29.0
73.712,2.815,3.867,30.0
123.85,4.711,5.78,30.0
124.361,4.71,5.071,9.0
153.644,5.797,5.377,6.0
160.298,6.023,4.683,5.0
73.456,2.752,4.149,42.0
133.523,4.982,6.768,17.0
123.883,4.602,5.562,20.0
152.47,5.639,5.947,34.0
160.154,5.897,5.319,5.0
160.526,5.886,4.406,9.0
73.742,2.695,4.034,41.0
124.015,4.511,6.065,28.0
152.887,5.538,6.593,27.0
152.641,5.502,5.681,34.0
160.552,5.76,5.048,13.0
0.0,0.0,0.0,0.0
73.853,2.628,3.909,31.0
124.012,4.392,5.846,30.0
158.434,5.583,6.551,10.0
152.701,5.357,5.417,21.0
159.121,5.554,4.724,12.0
0.0,0.0,0.0,0.0
133.741,4.626,6.844,10.0
152.493,5.248,6.92,23.0
152.818,5.232,6.051,38.0
157.747,5.372,5.318,5.0
159.011,5.387,4.441,13.0
0.0,0.0,0.0,0.0
133.816,4.49,6.613,21.0
152.853,5.102,6.67,34.0
152.74,5.071,5.783,24.0
159.003,5.249,5.086,10.0
0.0,0.0,0.0,0.0
0.0,0.0,0.0,0.0
133.684,4.344,6.376,47.0
152.331,4.922,6.386,41.0
152.708,4.905,5.518,24.0
158.465,5.06,4.795,8.0
0.0,0.0,0.0,0.0
0.0,0.0,0.0,0.0
133.592,4.194,6.143,38.0
152.049,4.744,6.113,45.0
152.472,4.728,5.249,24.0
158.424,4.881,4.523,13.0
0.0,0.0,0.0,0.0
0.0,0.0,0.0,0.0
151.8,4.592,6.72,42.0
152.103,4.572,5.856,43.0
152.872,4.565,5.003,18.0
154.111,4.571,4.139,20.0
0.0,0.0,0.0,0.0
100.582,2.944,1.541,1.0
151.944,4.418,6.471,38.0
152.033,4.389,5.595,44.0
153.939,4.413,4.777,22.0
0.0,0.0,0.0,0.0
0.0,0.0,0.0,0.0
106.02,2.974,1.445,23.0
151.929,4.233,6.214,40.0
152.372,4.213,5.353,40.0
154.03,4.226,4.521,40.0
0.0,0.0,0.0,0.0
0.0,0.0,0.0,0.0
89.574,2.402,1.071,4.0
152.075,4.046,5.966,43.0
152.711,4.031,5.11,31.0
138.047,3.613,3.822,10.0
100.19,2.601,2.187,1.0
100.311,2.583,1.612,12.0
78.285,1.999,0.807,14.0
152.33,3.857,5.725,42.0
158.646,3.981,5.046,19.0
100.366,2.497,2.615,2.0
100.408,2.476,2.027,3.0
106.077,2.593,1.531,22.0
77.827,1.885,0.675,20.0
152.655,3.664,5.489,44.0
159.142,3.783,4.804,22.0
146.707,3.454,3.582,5.0
0.0,0.0,0.0,0.0
106.508,2.461,1.365,3.0
74.655,1.709,0.528,19.0
160.039,3.627,5.498,19.0
159.149,3.569,4.55,12.0
0.0,0.0,0.0,0.0
106.077,2.331,1.801,3.0
80.645,1.754,0.906,11.0
60.629,1.304,0.332,35.0
128.089,2.726,4.197,41.0
128.088,2.696,3.46,47.0
128.099,2.667,2.724,28.0
106.073,2.183,1.634,1.0
78.064,1.588,0.754,15.0
57.748,1.161,0.225,9.0
128.013,2.544,3.994,42.0
128.03,2.513,3.258,36.0
128.076,2.482,2.522,26.0
106.546,2.039,1.474,2.0
77.693,1.469,0.629,11.0
52.184,0.974,0.123,7.0
128.144,2.359,3.799,12.0
128.13,2.327,3.061,17.0
127.882,2.292,2.32,29.0
121.059,2.14,1.489,14.0
74.803,1.304,0.491,11.0
47.398,0.815,0.038,32.0
160.07,2.71,4.5,14.0
190.078,3.17,4.251,23.0
127.274,2.093,2.116,32.0
89.704,1.452,0.967,9.0
60.68,0.967,0.306,34.0
44.229,0.694,-0.03,18.0
176.394,2.722,4.695,10.0
190.105,2.886,3.969,30.0
126.669,1.892,1.918,40.0
77.993,1.145,0.725,19.0
48.078,0.693,0.171,52.0
39.727,0.563,-0.086,15.0
176.29,2.45,4.432,24.0
189.896,2.591,3.685,22.0
126.287,1.69,1.725,19.0
48.13,0.631,0.376,34.0
47.952,0.617,0.1,57.0
38.76,0.489,-0.14,50.0
55.055,0.679,1.304,76.0
48.205,0.582,0.865,31.0
48.115,0.568,0.588,91.0
48.041,0.555,0.307,77.0
47.008,0.531,0.031,41.0
38.028,0.419,-0.192,36.0
48.149,0.517,1.072,99.0
48.105,0.504,0.795,101.0
48.08,0.491,0.519,98.0
48.025,0.478,0.239,84.0
44.239,0.428,-0.032,19.0
37.641,0.354,-0.243,11.0
48.104,0.439,1.004,114.0
48.088,0.427,0.728,112.0
48.059,0.413,0.452,105.0
48.019,0.4,0.173,85.0
43.874,0.353,-0.092,4.0
37.54,0.292,-0.294,2.0
48.11,0.361,0.938,110.0
48.097,0.348,0.663,85.0
48.133,0.334,0.388,49.0
48.04,0.32,0.107,52.0
39.245,0.251,-0.136,45.0
33.445,0.204,-0.307,0.0
48.179,0.281,0.874,56.0
59.294,0.329,0.737,16.0
59.342,0.313,0.399,9.0
47.378,0.236,0.042,34.0
38.648,0.181,-0.186,35.0
32.449,0.143,-0.341,1.0
79.439,0.328,1.337,150.0
79.435,0.306,0.883,150.0
59.206,0.212,0.32,9.0
0.0,0.0,0.0,0.0
38.31,0.115,-0.233,13.0
31.119,0.085,-0.367,1.0
79.456,0.194,1.236,151.0
79.439,0.17,0.782,150.0
58.773,0.11,0.243,7.0
0.0,0.0,0.0,0.0
38.197,0.048,-0.281,4.0
30.114,0.03,-0.393,2.0
79.465,0.056,1.137,151.0
79.368,0.032,0.682,50.0
0.0,0.0,0.0,0.0
40.531,-0.006,-0.117,17.0
0.0,0.0,0.0,0.0
29.428,-0.022,-0.421,3.0
79.464,-0.083,1.039,152.0
76.532,-0.103,0.564,17.0
0.0,0.0,0.0,0.0
39.813,-0.078,-0.164,15.0
32.637,-0.073,-0.32,1.0
28.772,-0.073,-0.446,2.0
79.462,-0.226,0.943,151.0
76.454,-0.239,0.472,12.0
0.0,0.0,0.0,0.0
39.232,-0.146,-0.208,6.0
31.724,-0.128,-0.349,1.0
27.869,-0.121,-0.465,1.0
79.46,-0.369,0.851,162.0
61.433,-0.303,0.308,9.0
46.511,-0.244,-0.031,20.0
39.833,-0.221,-0.257,2.0
30.673,-0.179,-0.373,1.0
27.126,-0.167,-0.484,1.0
79.48,-0.513,0.761,153.0
60.926,-0.412,0.237,11.0
46.139,-0.326,-0.082,7.0
40.432,-0.298,-0.306,2.0
29.979,-0.23,-0.397,1.0
26.559,-0.213,-0.503,3.0
79.308,-0.658,0.672,61.0
