X,Y,Z,Reflectivity
10.012,1.157,-0.232,5.0
13.826,1.597,-0.399,8.0
13.759,1.587,-0.477,8.0
13.573,1.564,-0.548,8.0
13.085,1.507,-0.603,9.0
21.543,2.471,-0.395,4.0
13.851,1.587,-0.332,9.0
13.809,1.58,-0.41,19.0
13.763,1.574,-0.488,13.0
13.505,1.542,-0.556,8.0
13.072,1.492,-0.613,10.0
13.854,1.574,-0.265,8.0
13.83,1.57,-0.343,16.0
13.79,1.564,-0.42,17.0
13.741,1.556,-0.498,14.0
13.426,1.519,-0.563,8.0
13.07,1.477,-0.623,12.0
13.837,1.558,-0.275,18.0
13.811,1.553,-0.353,22.0
13.77,1.546,-0.43,17.0
13.725,1.539,-0.508,17.0
13.374,1.498,-0.571,9.0
13.07,1.463,-0.633,10.0
13.823,1.54,-0.285,23.0
13.792,1.535,-0.363,24.0
13.754,1.529,-0.44,21.0
13.711,1.522,-0.518,16.0
13.326,1.478,-0.579,10.0
13.061,1.447,-0.642,10.0
13.807,1.523,-0.295,32.0
13.781,1.518,-0.372,28.0
13.751,1.513,-0.449,25.0
13.691,1.504,-0.527,17.0
13.28,1.457,-0.586,10.0
13.029,1.428,-0.649,9.0
13.802,1.506,-0.304,36.0
13.77,1.5,-0.381,34.0
13.754,1.496,-0.459,30.0
13.676,1.486,-0.535,15.0
13.217,1.434,-0.592,9.0
12.921,1.4,-0.652,5.0
13.789,1.487,-0.313,37.0
13.767,1.483,-0.39,40.0
13.759,1.48,-0.468,33.0
13.659,1.467,-0.543,12.0
13.117,1.407,-0.596,8.0
12.77,1.368,-0.653,4.0
13.79,1.47,-0.322,38.0
13.776,1.466,-0.399,39.0
13.754,1.462,-0.476,31.0
13.628,1.446,-0.551,10.0
13.08,1.386,-0.603,7.0
12.684,1.343,-0.656,4.0
13.777,1.451,-0.329,35.0
13.771,1.448,-0.407,35.0
13.741,1.443,-0.484,30.0
13.588,1.425,-0.557,10.0
13.087,1.37,-0.611,8.0
12.636,1.321,-0.661,2.0
13.773,1.432,-0.337,36.0
13.771,1.43,-0.415,34.0
13.722,1.422,-0.491,23.0
13.507,1.398,-0.561,11.0
13.065,1.35,-0.617,9.0
12.504,1.29,-0.661,2.0
13.778,1.414,-0.345,39.0
13.768,1.411,-0.422,36.0
13.715,1.403,-0.498,15.0
13.439,1.373,-0.565,11.0
13.066,1.332,-0.623,9.0
12.432,1.266,-0.664,2.0
13.774,1.395,-0.352,53.0
13.761,1.391,-0.429,39.0
13.718,1.384,-0.505,13.0
13.462,1.356,-0.573,10.0
13.072,1.315,-0.63,10.0
12.384,1.243,-0.667,2.0
13.773,1.375,-0.358,85.0
13.761,1.371,-0.435,145.0
13.721,1.365,-0.511,14.0
13.414,1.332,-0.577,10.0
13.074,1.296,-0.636,11.0
12.331,1.22,-0.669,2.0
13.77,1.355,-0.364,40.0
13.76,1.351,-0.441,70.0
13.719,1.345,-0.517,16.0
13.366,1.308,-0.58,9.0
13.056,1.275,-0.641,12.0
12.275,1.197,-0.672,3.0
13.785,1.336,-0.37,36.0
13.761,1.331,-0.447,33.0
13.718,1.324,-0.522,16.0
13.374,1.289,-0.586,10.0
13.062,1.256,-0.646,12.0
12.239,1.175,-0.674,2.0
13.799,1.317,-0.375,32.0
13.77,1.312,-0.452,31.0
13.72,1.304,-0.527,13.0
13.345,1.266,-0.589,11.0
13.053,1.235,-0.65,13.0
12.198,1.152,-0.676,2.0
13.804,1.296,-0.38,30.0
13.791,1.292,-0.457,30.0
13.735,1.284,-0.532,13.0
13.34,1.245,-0.594,11.0
13.051,1.215,-0.654,13.0
12.164,1.13,-0.678,2.0
13.826,1.277,-0.385,26.0
13.798,1.272,-0.461,26.0
13.747,1.264,-0.537,14.0
13.342,1.224,-0.597,11.0
13.038,1.194,-0.657,11.0
12.134,1.109,-0.679,2.0
13.842,1.257,-0.389,20.0
13.828,1.253,-0.466,25.0
13.762,1.244,-0.541,14.0
13.331,1.202,-0.6,12.0
13.04,1.173,-0.66,9.0
12.089,1.085,-0.68,2.0
13.89,1.239,-0.393,14.0
13.853,1.232,-0.47,18.0
13.777,1.223,-0.544,13.0
13.338,1.181,-0.603,9.0
13.043,1.152,-0.663,10.0
12.073,1.064,-0.681,1.0
13.94,1.221,-0.397,5.0
13.887,1.213,-0.474,11.0
13.786,1.201,-0.547,13.0
13.279,1.154,-0.603,8.0
13.029,1.13,-0.664,8.0
12.043,1.041,-0.681,2.0
17.842,1.533,-0.512,3.0
13.924,1.193,-0.477,5.0
13.811,1.181,-0.55,13.0
13.272,1.132,-0.604,8.0
13.048,1.109,-0.667,10.0
12.068,1.023,-0.684,1.0
17.816,1.501,-0.513,3.0
16.204,1.362,-0.557,1.0
13.849,1.16,-0.553,12.0
13.294,1.111,-0.606,10.0
13.036,1.087,-0.667,8.0
12.064,1.003,-0.685,1.0
17.828,1.473,-0.514,3.0
16.175,1.332,-0.557,3.0
13.892,1.141,-0.555,13.0
13.324,1.091,-0.608,10.0
13.005,1.062,-0.666,7.0
12.081,0.984,-0.686,2.0
17.892,1.447,-0.517,3.0
16.192,1.306,-0.558,3.0
13.964,1.123,-0.559,11.0
13.335,1.069,-0.609,8.0
13.015,1.04,-0.667,7.0
12.103,0.965,-0.688,3.0
17.914,1.418,-0.517,3.0
16.25,1.283,-0.56,2.0
13.987,1.101,-0.559,12.0
13.34,1.047,-0.609,11.0
13.029,1.019,-0.667,8.0
12.124,0.946,-0.688,3.0
17.959,1.391,-0.518,3.0
16.298,1.258,-0.56,2.0
14.021,1.079,-0.56,13.0
13.332,1.023,-0.608,11.0
13.052,0.998,-0.667,10.0
12.178,0.928,-0.69,3.0
18.021,1.364,-0.518,3.0
16.279,1.228,-0.558,2.0
14.207,1.068,-0.566,10.0
13.386,1.003,-0.609,9.0
13.043,0.975,-0.665,11.0
12.211,0.909,-0.691,2.0
18.097,1.338,-0.518,3.0
16.345,1.205,-0.558,2.0
14.332,1.053,-0.569,11.0
13.485,0.987,-0.611,12.0
13.072,0.954,-0.665,11.0
12.265,0.892,-0.692,1.0
18.182,1.313,-0.518,3.0
16.493,1.186,-0.561,2.0
14.578,1.045,-0.576,18.0
13.488,0.963,-0.609,13.0
13.064,0.93,-0.662,10.0
12.27,0.87,-0.69,2.0
18.256,1.285,-0.516,3.0
16.586,1.163,-0.56,2.0
14.631,1.022,-0.575,14.0
13.543,0.943,-0.608,10.0
13.06,0.906,-0.659,10.0
12.326,0.852,-0.69,3.0
18.384,1.262,-0.515,3.0
16.666,1.139,-0.559,3.0
14.672,0.999,-0.573,12.0
13.626,0.924,-0.608,12.0
13.07,0.883,-0.656,10.0
12.379,0.834,-0.689,3.0
18.549,1.239,-0.515,3.0
16.806,1.118,-0.559,2.0
14.684,0.973,-0.569,9.0
13.723,0.906,-0.609,12.0
13.071,0.86,-0.652,10.0
12.439,0.815,-0.689,2.0
18.695,1.215,-0.513,3.0
16.915,1.095,-0.557,2.0
14.724,0.949,-0.565,6.0
13.774,0.884,-0.606,12.0
13.073,0.836,-0.647,9.0
12.528,0.798,-0.689,2.0
18.806,1.188,-0.509,3.0
17.027,1.071,-0.554,2.0
14.971,0.938,-0.569,2.0
13.894,0.867,-0.606,12.0
13.08,0.813,-0.642,8.0
12.594,0.779,-0.688,3.0
18.994,1.166,-0.506,3.0
17.229,1.053,-0.553,2.0
15.281,0.93,-0.575,2.0
14.188,0.859,-0.613,14.0
13.131,0.792,-0.639,7.0
12.8,0.769,-0.693,2.0
19.2,1.144,-0.503,3.0
17.397,1.031,-0.551,2.0
15.721,0.928,-0.584,2.0
14.412,0.847,-0.616,14.0
13.272,0.776,-0.639,8.0
12.927,0.752,-0.694,3.0
19.453,1.123,-0.5,3.0
17.579,1.01,-0.548,3.0
15.924,0.911,-0.583,2.0
14.545,0.828,-0.614,19.0
13.418,0.76,-0.64,12.0
12.987,0.732,-0.69,6.0
19.706,1.102,-0.496,3.0
17.786,0.99,-0.545,4.0
16.07,0.89,-0.58,3.0
14.614,0.805,-0.609,21.0
13.464,0.738,-0.634,15.0
13.045,0.712,-0.686,9.0
19.978,1.081,-0.492,3.0
17.983,0.968,-0.541,3.0
16.236,0.869,-0.577,2.0
14.636,0.78,-0.601,20.0
13.544,0.717,-0.63,14.0
13.066,0.689,-0.679,11.0
20.274,1.059,-0.487,4.0
18.166,0.944,-0.535,3.0
16.436,0.85,-0.573,3.0
14.65,0.753,-0.592,17.0
13.745,0.703,-0.63,13.0
13.057,0.664,-0.67,11.0
20.586,1.038,-0.481,4.0
18.451,0.925,-0.531,3.0
16.705,0.833,-0.572,2.0
14.656,0.726,-0.583,10.0
14.034,0.692,-0.634,13.0
13.075,0.641,-0.662,10.0
20.867,1.014,-0.473,4.0
18.708,0.904,-0.526,3.0
17.028,0.818,-0.571,2.0
14.905,0.712,-0.582,5.0
14.331,0.68,-0.637,15.0
13.126,0.62,-0.655,9.0
21.166,0.99,-0.465,4.0
19.028,0.884,-0.521,3.0
17.288,0.799,-0.567,4.0
15.396,0.707,-0.59,2.0
14.518,0.662,-0.635,19.0
13.358,0.606,-0.656,11.0
21.561,0.969,-0.457,4.0
19.385,0.866,-0.515,3.0
17.525,0.778,-0.561,4.0
15.863,0.699,-0.595,3.0
14.607,0.64,-0.627,19.0
13.433,0.585,-0.649,14.0
21.661,0.934,-0.441,10.0
19.787,0.847,-0.51,3.0
17.81,0.758,-0.555,3.0
16.13,0.682,-0.592,2.0
14.64,0.615,-0.616,14.0
13.47,0.562,-0.64,15.0
22.764,0.94,-0.445,5.0
20.188,0.828,-0.503,3.0
18.046,0.735,-0.547,3.0
16.348,0.661,-0.585,2.0
14.662,0.589,-0.604,13.0
13.813,0.551,-0.644,12.0
23.553,0.93,-0.439,5.0
20.561,0.806,-0.494,4.0
18.449,0.718,-0.543,3.0
16.688,0.645,-0.582,2.0
14.673,0.563,-0.591,8.0
13.877,0.528,-0.634,8.0
24.274,0.915,-0.431,5.0
20.924,0.783,-0.484,4.0
18.783,0.697,-0.535,3.0
17.084,0.629,-0.58,5.0
15.185,0.555,-0.597,4.0
14.095,0.511,-0.63,3.0
27.98,1.005,-0.469,1.0
21.345,0.76,-0.473,4.0
19.232,0.68,-0.529,3.0
17.381,0.609,-0.573,4.0
15.831,0.55,-0.607,2.0
14.21,0.49,-0.621,1.0
28.329,0.966,-0.447,2.0
21.904,0.741,-0.463,4.0
19.608,0.658,-0.519,3.0
17.689,0.588,-0.565,4.0
16.121,0.532,-0.601,2.0
14.274,0.467,-0.609,1.0
29.124,0.942,-0.429,2.0
22.726,0.729,-0.457,4.0
20.069,0.638,-0.511,3.0
18.026,0.568,-0.557,5.0
16.426,0.513,-0.596,2.0
14.587,0.452,-0.607,3.0
29.782,0.912,-0.408,2.0
23.679,0.718,-0.45,5.0
20.567,0.618,-0.501,4.0
18.513,0.551,-0.552,3.0
16.855,0.497,-0.593,2.0
15.256,0.446,-0.618,3.0
30.517,0.881,-0.384,2.0
27.341,0.782,-0.49,1.0
21.112,0.598,-0.491,4.0
18.925,0.531,-0.543,3.0
17.226,0.478,-0.586,4.0
15.704,0.432,-0.618,3.0
31.417,0.853,-0.36,2.0
27.799,0.747,-0.466,1.0
21.743,0.578,-0.48,4.0
19.438,0.511,-0.535,3.0
17.547,0.457,-0.576,6.0
16.065,0.414,-0.613,3.0
32.809,0.834,-0.337,1.0
28.731,0.723,-0.448,1.0
22.55,0.561,-0.471,4.0
19.907,0.489,-0.524,3.0
17.932,0.436,-0.567,5.0
16.438,0.395,-0.607,3.0
36.61,0.868,-0.331,1.0
29.454,0.69,-0.423,2.0
23.38,0.541,-0.46,1.0
20.584,0.471,-0.516,4.0
18.431,0.416,-0.56,4.0
16.758,0.374,-0.598,2.0
36.691,0.808,-0.285,6.0
30.247,0.658,-0.396,2.0
27.058,0.581,-0.498,1.0
21.066,0.446,-0.501,4.0
18.812,0.394,-0.548,9.0
17.182,0.355,-0.591,2.0
37.112,0.755,-0.241,14.0
31.309,0.629,-0.369,2.0
27.683,0.548,-0.473,1.0
21.622,0.422,-0.486,4.0
19.354,0.373,-0.538,9.0
17.658,0.335,-0.584,4.0
37.636,0.704,-0.195,44.0
32.752,0.604,-0.343,2.0
28.699,0.522,-0.453,2.0
22.275,0.399,-0.471,4.0
19.908,0.351,-0.527,10.0
18.148,0.315,-0.576,3.0
38.641,0.66,-0.148,52.0
36.901,0.62,-0.337,1.0
29.537,0.488,-0.425,2.0
26.356,0.429,-0.522,1.0
20.69,0.331,-0.519,4.0
18.663,0.294,-0.567,4.0
39.645,0.613,-0.097,26.0
37.082,0.564,-0.287,6.0
30.384,0.454,-0.395,2.0
27.051,0.397,-0.498,1.0
21.385,0.308,-0.506,4.0
19.194,0.272,-0.556,3.0
44.313,0.615,-0.047,19.0
37.595,0.512,-0.238,13.0
31.679,0.423,-0.367,1.0
28.007,0.367,-0.475,1.0
22.097,0.284,-0.491,4.0
19.829,0.249,-0.545,4.0
47.005,0.579,0.018,45.0
38.24,0.461,-0.186,46.0
33.065,0.39,-0.335,1.0
28.973,0.335,-0.449,1.0
25.963,0.293,-0.539,1.0
20.654,0.228,-0.537,4.0
47.954,0.517,0.088,61.0
39.203,0.412,-0.133,43.0
37.328,0.383,-0.323,2.0
29.811,0.299,-0.418,2.0
26.69,0.261,-0.514,1.0
21.679,0.206,-0.532,4.0
48.02,0.445,0.16,98.0
44.029,0.397,-0.083,13.0
37.607,0.329,-0.269,8.0
30.855,0.263,-0.386,1.0
27.394,0.226,-0.486,1.0
24.487,0.196,-0.563,1.0
48.087,0.373,0.235,51.0
0.0,0.0,0.0,0.0
38.347,0.279,-0.215,25.0
32.311,0.227,-0.354,1.0
28.596,0.194,-0.463,1.0
25.632,0.168,-0.55,1.0
55.072,0.348,0.353,9.0
47.96,0.291,0.056,37.0
39.253,0.229,-0.159,46.0
33.85,0.189,-0.318,1.0
29.523,0.158,-0.432,2.0
26.481,0.135,-0.526,2.0
59.328,0.29,0.474,98.0
54.691,0.254,0.151,29.0
43.906,0.193,-0.108,4.0
37.832,0.157,-0.294,21.0
30.512,0.12,-0.397,1.0
27.169,0.1,-0.496,2.0
79.463,0.274,0.765,150.0
59.13,0.19,0.26,14.0
0.0,0.0,0.0,0.0
38.562,0.106,-0.237,14.0
31.969,0.08,-0.364,1.0
28.372,0.064,-0.471,2.0
79.465,0.163,0.895,151.0
76.046,0.139,0.459,18.0
47.842,0.076,0.039,18.0
39.419,0.054,-0.177,36.0
33.458,0.038,-0.325,0.0
29.408,0.027,-0.439,2.0
79.466,0.056,1.026,151.0
79.338,0.038,0.61,28.0
0.0,0.0,0.0,0.0
41.164,0.001,-0.117,17.0
38.386,-0.006,-0.309,3.0
30.381,-0.012,-0.403,2.0
79.467,-0.048,1.16,151.0
79.454,-0.066,0.745,150.0
61.686,-0.065,0.257,15.0
0.0,0.0,0.0,0.0
39.041,-0.058,-0.248,14.0
32.169,-0.054,-0.372,2.0
79.45,-0.152,1.296,151.0
79.466,-0.169,0.881,151.0
76.465,-0.179,0.45,14.0
48.364,-0.123,0.027,10.0
40.371,-0.111,-0.187,15.0
33.715,-0.1,-0.331,1.0
79.42,-0.252,1.431,255.0
79.461,-0.268,1.017,151.0
0.0,0.0,0.0,0.0
55.75,-0.211,0.127,29.0
42.07,-0.168,-0.122,4.0
39.312,-0.165,-0.318,0.0
79.43,-0.351,1.571,193.0
79.45,-0.368,1.159,162.0
79.458,-0.383,0.744,174.0
61.386,-0.308,0.249,13.0
46.507,-0.242,-0.052,20.0
40.233,-0.218,-0.255,3.0
79.426,-0.447,1.711,207.0
79.447,-0.462,1.297,172.0
79.453,-0.478,0.885,191.0
76.876,-0.477,0.449,12.0
52.289,-0.334,0.033,18.0
44.611,-0.294,-0.203,7.0
79.427,-0.54,1.852,192.0
79.44,-0.555,1.441,177.0
79.451,-0.57,1.027,183.0
79.329,-0.584,0.605,60.0
56.451,-0.426,0.138,7.0
47.585,-0.368,-0.13,7.0
79.435,-0.631,1.996,157.0
79.438,-0.646,1.584,179.0
79.443,-0.66,1.171,192.0
79.461,-0.675,0.751,164.0
61.175,-0.531,0.261,4.0
53.068,-0.469,-0.049,4.0
79.444,-0.719,2.141,151.0
79.427,-0.733,1.728,191.0
79.438,-0.747,1.316,212.0
79.448,-0.761,0.897,167.0
77.715,-0.759,0.475,9.0
57.424,-0.571,0.053,4.0
79.44,-0.805,2.289,151.0
79.43,-0.818,1.876,181.0
79.425,-0.832,1.464,216.0
79.446,-0.846,1.045,178.0
79.396,-0.859,0.634,139.0
79.323,-0.872,0.222,2.0
79.426,-0.888,2.436,150.0
79.42,-0.901,2.024,150.0
79.433,-0.914,1.613,160.0
79.433,-0.927,1.193,201.0
79.664,-0.942,0.783,3.0
78.042,-0.936,0.363,3.0
79.457,-0.968,2.585,1.0
0.0,0.0,0.0,0.0
0.0,0.0,0.0,0.0
86.939,-1.1,1.468,39.0
86.971,-1.114,1.018,116.0
79.115,-1.026,0.518,10.0
87.019,-1.145,2.995,1.0
86.919,-1.156,2.54,52.0
86.948,-1.17,2.091,43.0
183.369,-2.495,3.443,67.0
183.425,-2.524,2.496,22.0
87.901,-1.222,0.742,10.0
99.671,-1.404,3.619,21.0
151.463,-2.157,4.717,66.0
151.5,-2.178,3.932,33.0
187.084,-2.718,3.87,29.0
187.135,-2.746,2.905,78.0
123.727,-1.834,1.282,12.0
128.188,-1.922,4.901,31.0
151.432,-2.292,5.005,77.0
151.474,-2.314,4.225,90.0
262.04,-4.038,5.925,27.0
0.0,0.0,0.0,0.0
149.07,-2.338,1.83,8.0
128.118,-2.032,5.145,25.0
184.626,-2.953,6.459,32.0
151.47,-2.442,4.514,100.0
248.271,-4.036,6.093,39.0
0.0,0.0,0.0,0.0
205.409,-3.393,2.92,68.0
128.403,-2.143,5.405,25.0
185.809,-3.125,6.86,17.0
151.436,-2.565,4.807,94.0
40.275,-0.687,1.066,22.0
40.231,-0.691,0.857,34.0
40.179,-0.695,0.649,7.0
93.002,-1.626,4.096,29.0
184.838,-3.254,7.184,24.0
184.522,-3.27,6.217,42.0
40.289,-0.718,1.145,44.0
40.219,-0.722,0.935,49.0
40.186,-0.726,0.727,62.0
92.98,-1.695,4.275,40.0
184.066,-3.377,7.512,28.0
184.717,-3.41,6.585,41.0
40.313,-0.748,1.224,37.0
40.246,-0.751,1.014,52.0
40.197,-0.755,0.805,44.0
90.74,-1.719,4.349,58.0
128.514,-2.448,5.494,35.0
185.467,-3.553,6.971,20.0
40.332,-0.776,1.303,3.0
40.281,-0.779,1.093,51.0
40.243,-0.783,0.885,47.0
91.649,-1.799,4.573,82.0
128.918,-2.542,5.765,21.0
148.749,-2.948,5.882,5.0
184.968,-3.682,6.337,45.0
40.298,-0.806,1.172,43.0
40.224,-0.808,0.963,49.0
91.405,-1.853,4.74,88.0
90.631,-1.844,4.23,38.0
184.083,-3.763,7.642,23.0
185.597,-3.81,6.726,46.0
40.298,-0.83,1.253,15.0
40.214,-0.832,1.042,50.0
91.422,-1.908,4.921,36.0
0.0,0.0,0.0,0.0
128.888,-2.711,5.606,22.0
191.253,-4.037,7.31,29.0
185.627,-3.933,6.138,44.0
40.23,-0.855,1.122,46.0
91.39,-1.959,5.102,48.0
92.063,-1.981,4.663,66.0
90.652,-1.956,4.122,9.0
191.478,-4.146,7.698,22.0
185.454,-4.029,6.497,50.0
40.252,-0.877,1.202,37.0
91.397,-2.007,5.282,70.0
92.173,-2.03,4.85,51.0
90.598,-2.001,4.299,54.0
185.119,-4.101,7.808,19.0
185.617,-4.124,6.869,35.0
40.294,-0.897,1.283,10.0
91.422,-2.052,5.465,49.0
92.147,-2.073,5.031,30.0
98.93,-2.232,4.889,21.0
129.755,-2.934,5.727,29.0
129.634,-2.938,5.051,17.0
40.282,-0.915,1.362,10.0
91.558,-2.096,5.653,12.0
92.144,-2.113,5.212,36.0
92.144,-2.118,4.734,60.0
129.442,-2.981,5.966,26.0
129.478,-2.988,5.298,35.0
40.242,-0.93,1.439,37.0
91.605,-2.134,5.836,5.0
92.188,-2.151,5.394,12.0
83.748,-1.958,4.467,8.0
90.556,-2.12,4.353,32.0
129.289,-3.032,5.544,32.0
40.244,-0.945,1.518,24.0
91.615,-2.168,6.017,14.0
97.946,-2.32,5.923,5.0
83.677,-1.985,4.627,55.0
90.544,-2.151,4.528,51.0
129.223,-3.075,5.794,49.0
129.561,-3.086,5.14,25.0
91.693,-2.199,6.202,34.0
129.834,-3.118,8.109,28.0
92.233,-2.217,5.283,20.0
99.04,-2.383,5.148,58.0
93.081,-2.242,4.357,13.0
129.114,-3.113,5.376,39.0
91.722,-2.227,6.385,48.0
128.99,-3.134,8.308,7.0
92.233,-2.242,5.462,29.0
99.031,-2.409,5.342,51.0
93.083,-2.266,4.539,30.0
128.898,-3.14,5.617,41.0
91.723,-2.25,6.565,11.0
91.679,-2.25,6.085,14.0
97.877,-2.402,5.987,25.0
83.648,-2.054,4.675,53.0
90.526,-2.223,4.59,45.0
129.226,-3.176,5.884,48.0
84.518,-2.091,6.214,5.0
97.592,-2.414,6.667,5.0
97.759,-2.419,6.169,38.0
92.262,-2.282,5.334,20.0
99.028,-2.45,5.211,32.0
93.114,-2.303,4.416,14.0
41.297,-1.028,3.115,37.0
85.771,-2.136,6.022,4.0
97.698,-2.431,6.351,22.0
92.246,-2.295,5.509,31.0
99.004,-2.463,5.399,56.0
93.102,-2.316,4.594,30.0
41.212,-1.031,3.188,53.0
97.27,-2.434,7.017,2.0
97.592,-2.441,6.533,20.0
129.154,-3.228,7.959,27.0
83.632,-2.089,4.72,50.0
90.51,-2.259,4.639,42.0
41.286,-1.037,3.273,62.0
41.317,-1.037,3.06,5.0
97.491,-2.446,6.711,16.0
97.722,-2.449,6.209,18.0
92.242,-2.309,5.381,33.0
99.02,-2.477,5.262,30.0
41.268,-1.039,3.35,53.0
41.278,-1.038,3.135,42.0
97.378,-2.446,6.887,6.0
97.64,-2.45,6.388,27.0
92.282,-2.313,5.556,14.0
99.03,-2.479,5.448,47.0
53.637,-1.351,4.455,9.0
41.211,-1.037,3.207,54.0
84.841,-2.131,6.159,3.0
97.589,-2.448,6.567,30.0
128.957,-3.23,8.006,23.0
83.633,-2.091,4.756,53.0
53.783,-1.353,4.568,12.0
41.28,-1.037,3.29,66.0
41.302,-1.036,3.076,12.0
97.477,-2.441,6.74,10.0
97.705,-2.442,6.247,32.0
92.259,-2.302,5.418,38.0
53.867,-1.352,4.675,15.0
41.289,-1.034,3.367,41.0
41.242,-1.031,3.147,49.0
97.375,-2.43,6.912,3.0
97.631,-2.432,6.42,14.0
129.6,-3.22,7.846,27.0
40.778,-1.019,3.614,53.0
53.647,-1.338,4.473,6.0
41.226,-1.026,3.221,57.0
84.712,-2.104,6.166,3.0
129.041,-3.197,8.72,11.0
97.827,-2.418,6.1,32.0
40.846,-1.016,3.694,43.0
53.926,-1.337,4.594,11.0
41.242,-1.02,3.297,58.0
41.279,-1.018,3.08,15.0
91.722,-2.257,6.363,29.0
97.699,-2.398,6.268,10.0
40.867,-1.009,3.771,48.0
64.15,-1.579,5.581,11.0
41.325,-1.014,3.378,31.0
41.319,-1.011,3.156,44.0
91.725,-2.238,6.527,43.0
91.674,-2.231,6.043,28.0
49.086,-1.202,4.617,6.0
40.921,-0.998,3.633,49.0
41.319,-1.005,3.451,3.0
41.187,-0.998,3.219,55.0
41.312,-0.998,3.013,22.0
91.711,-2.209,6.209,32.0
39.728,-0.962,3.807,70.0
40.898,-0.987,3.703,47.0
53.933,-1.298,4.6,12.0
41.18,-0.987,3.291,58.0
41.295,-0.986,3.084,11.0
91.726,-2.183,6.37,9.0
40.133,-0.961,3.917,59.0
40.816,-0.974,3.767,51.0
64.337,-1.528,5.599,13.0
41.304,-0.977,3.373,35.0
41.24,-0.972,3.15,45.0
41.271,-0.969,2.936,26.0
39.774,-0.94,3.95,65.0
39.83,-0.937,3.745,60.0
54.278,-1.272,4.816,16.0
54.009,-1.26,4.502,5.0
41.201,-0.957,3.217,69.0
41.291,-0.955,3.007,9.0
39.546,-0.92,3.994,44.0
39.636,-0.918,3.793,53.0
49.106,-1.132,4.44,11.0
54.068,-1.241,4.598,20.0
41.203,-0.942,3.286,47.0
41.296,-0.939,3.075,54.0
39.371,-0.901,4.042,66.0
39.314,-0.895,3.828,58.0
49.065,-1.112,4.517,36.0
54.238,-1.223,4.701,56.0
41.32,-0.927,3.363,45.0
41.292,-0.922,3.143,11.0
39.342,-0.883,4.104,57.0
39.446,-0.881,3.906,49.0
40.087,-0.891,3.756,55.0
40.747,-0.901,3.598,35.0
54.145,-1.19,4.495,21.0
41.259,-0.902,3.208,18.0
39.145,-0.861,4.148,55.0
39.84,-0.871,4.01,45.0
39.58,-0.861,3.774,52.0
40.138,-0.868,3.609,58.0
54.243,-1.167,4.59,47.0
41.219,-0.881,3.27,42.0
39.085,-0.84,4.204,52.0
39.599,-0.846,4.048,53.0
39.293,-0.835,3.807,62.0
49.072,-1.037,4.489,4.0
40.664,-0.854,3.504,32.0
54.226,-1.131,4.386,13.0
39.106,-0.82,4.268,55.0
39.328,-0.82,4.082,71.0
39.258,-0.813,3.865,59.0
39.857,-0.82,3.708,53.0
40.695,-0.832,3.569,45.0
40.884,-0.83,3.369,26.0
39.045,-0.797,4.321,66.0
39.224,-0.795,4.131,50.0
39.536,-0.796,3.953,57.0
39.433,-0.789,3.728,68.0
40.06,-0.796,3.574,51.0
63.805,-1.259,5.354,14.0
39.259,-0.778,4.404,64.0
39.109,-0.77,4.178,55.0
39.629,-0.774,4.021,61.0
39.555,-0.767,3.798,47.0
39.759,-0.766,3.606,64.0
64.235,-1.228,5.484,16.0
39.27,-0.754,4.463,74.0
39.146,-0.746,4.239,55.0
39.258,-0.743,4.041,61.0
39.387,-0.739,3.839,57.0
39.943,-0.744,3.68,50.0
49.104,-0.907,4.262,27.0
39.379,-0.731,4.533,57.0
39.02,-0.718,4.282,60.0
39.219,-0.716,4.093,74.0
39.587,-0.717,3.915,56.0
40.12,-0.72,3.753,43.0
49.095,-0.874,4.331,46.0
39.536,-0.707,4.607,55.0
39.233,-0.695,4.36,48.0
39.359,-0.692,4.163,52.0
39.53,-0.688,3.965,53.0
48.207,-0.831,4.577,5.0
40.331,-0.69,3.613,53.0
39.597,-0.68,4.669,52.0
39.446,-0.671,4.438,59.0
39.267,-0.661,4.207,48.0
39.371,-0.657,4.002,51.0
40.579,-0.67,3.907,39.0
40.412,-0.662,3.674,43.0
39.607,-0.651,4.724,60.0
39.619,-0.644,4.511,53.0
39.425,-0.635,4.276,57.0
39.482,-0.63,4.065,33.0
40.324,-0.636,3.935,39.0
48.138,-0.752,4.439,10.0
40.124,-0.629,4.838,54.0
39.663,-0.615,4.567,70.0
39.583,-0.607,4.344,54.0
39.224,-0.595,4.089,62.0
39.581,-0.594,3.913,63.0
39.578,-0.587,3.7,37.0
39.636,-0.59,4.829,69.0
39.72,-0.585,4.624,61.0
39.227,-0.571,4.354,59.0
39.525,-0.568,4.169,42.0
39.53,-0.561,3.957,52.0
39.489,-0.554,3.74,51.0
40.044,-0.564,4.929,45.0
39.96,-0.555,4.701,50.0
39.756,-0.546,4.461,48.0
39.98,-0.542,4.266,42.0
39.709,-0.531,4.023,49.0
39.478,-0.521,3.786,54.0
40.03,-0.529,4.975,40.0
40.221,-0.525,4.78,36.0
39.722,-0.512,4.505,51.0
39.645,-0.503,4.277,62.0
39.459,-0.494,4.043,51.0
41.919,-0.518,4.069,4.0
39.964,-0.494,5.013,68.0
40.025,-0.488,4.803,53.0
40.025,-0.481,4.585,57.0
39.353,-0.465,4.29,48.0
39.326,-0.458,4.074,67.0
39.383,-0.452,3.866,35.0
39.998,-0.459,5.063,37.0
39.942,-0.451,4.837,30.0
40.0,-0.445,4.626,59.0
39.355,-0.431,4.333,56.0
39.252,-0.422,4.109,67.0
39.376,-0.417,3.908,52.0
39.942,-0.423,5.099,46.0
39.825,-0.414,4.866,52.0
40.186,-0.41,4.691,50.0
39.866,-0.399,4.432,59.0
39.468,-0.388,4.173,55.0
39.36,-0.379,3.948,61.0
39.916,-0.385,5.138,64.0
39.714,-0.375,4.894,67.0
40.249,-0.373,4.74,26.0
40.267,-0.365,4.517,50.0
40.109,-0.356,4.281,56.0
39.485,-0.344,4.0,65.0
40.104,-0.348,5.202,36.0
39.654,-0.337,4.926,49.0
40.253,-0.335,4.78,30.0
40.493,-0.328,4.583,60.0
40.665,-0.322,4.38,28.0
39.537,-0.306,4.043,53.0
39.849,-0.307,5.208,43.0
39.616,-0.298,4.959,58.0
39.769,-0.292,4.76,54.0
40.332,-0.288,4.602,58.0
43.981,-0.306,4.778,3.0
39.451,-0.267,4.07,56.0
39.633,-0.267,5.216,57.0
39.626,-0.259,4.997,55.0
39.676,-0.252,4.785,45.0
42.043,-0.259,4.835,22.0
39.977,-0.238,4.378,60.0
39.804,-0.229,4.142,51.0
39.507,-0.226,5.234,62.0
39.876,-0.221,5.063,48.0
39.584,-0.211,4.808,51.0
39.608,-0.204,4.589,51.0
40.086,-0.198,4.424,57.0
40.314,-0.191,4.228,42.0
39.425,-0.185,5.257,61.0
39.58,-0.178,5.059,60.0
39.591,-0.17,4.841,59.0
39.605,-0.162,4.621,60.0
40.192,-0.157,4.468,56.0
40.463,-0.15,4.276,39.0
39.545,-0.145,5.305,61.0
39.406,-0.136,5.067,74.0
39.6,-0.129,4.873,53.0
39.811,-0.122,4.675,41.0
40.227,-0.115,4.502,42.0
41.107,-0.11,4.375,36.0
39.705,-0.103,5.356,57.0
39.64,-0.095,5.127,50.0
39.618,-0.087,4.904,68.0
39.867,-0.08,4.711,45.0
40.243,-0.073,4.533,40.0
41.063,-0.066,4.399,41.0
39.659,-0.061,5.378,61.0
39.714,-0.053,5.164,58.0
39.666,-0.045,4.938,62.0
39.829,-0.038,4.733,50.0
39.895,-0.03,4.52,55.0
41.008,-0.023,4.42,46.0
39.781,-0.018,5.42,55.0
39.524,-0.01,5.165,55.0
39.473,-0.002,4.939,63.0
39.764,0.004,4.75,44.0
39.708,0.012,4.524,59.0
40.309,0.02,4.37,62.0
39.867,0.024,5.457,57.0
39.652,0.032,5.206,56.0
39.386,0.039,4.951,62.0
39.706,0.047,4.767,47.0
39.666,0.055,4.542,54.0
39.975,0.063,4.356,62.0
39.918,0.068,5.486,49.0
39.875,0.076,5.257,47.0
39.444,0.083,4.981,50.0
43.559,0.1,5.253,15.0
39.603,0.098,4.556,49.0
40.032,0.107,4.384,51.0
39.758,0.112,5.485,69.0
40.382,0.122,5.345,16.0
40.391,0.129,5.121,73.0
43.662,0.148,5.288,33.0
39.59,0.143,4.574,53.0
40.182,0.152,4.419,50.0
39.778,0.156,5.507,40.0
40.362,0.166,5.362,26.0
39.822,0.172,5.067,33.0
43.79,0.198,5.323,29.0
40.513,0.19,4.699,25.0
40.262,0.197,4.446,53.0
39.916,0.202,5.544,48.0
39.645,0.208,5.283,48.0
0.0,0.0,0.0,0.0
40.484,0.228,4.937,15.0
40.516,0.236,4.715,16.0
40.469,0.243,4.484,58.0
40.187,0.248,5.597,59.0
39.536,0.252,5.284,59.0
40.316,0.264,5.162,29.0
40.522,0.274,4.957,65.0
40.272,0.28,4.701,56.0
40.55,0.29,4.507,40.0
39.92,0.292,5.574,42.0
39.419,0.296,5.282,60.0
39.81,0.307,5.11,35.0
39.943,0.316,4.899,17.0
40.167,0.325,4.701,59.0
40.221,0.333,4.483,56.0
39.357,0.333,5.507,53.0
39.39,0.341,5.289,60.0
39.534,0.35,5.086,43.0
46.979,0.424,5.775,6.0
39.99,0.369,4.691,49.0
40.387,0.38,4.512,52.0
39.219,0.376,5.497,57.0
38.833,0.38,5.224,60.0
39.407,0.393,5.079,63.0
40.219,0.41,4.953,18.0
40.007,0.415,4.702,61.0
40.898,0.432,4.578,46.0
39.261,0.422,5.511,59.0
38.645,0.423,5.206,65.0
39.269,0.437,5.068,61.0
40.326,0.457,4.973,31.0
40.567,0.467,4.775,22.0
40.769,0.477,4.57,52.0
39.043,0.465,5.487,63.0
38.661,0.468,5.214,59.0
39.017,0.479,5.041,60.0
40.256,0.502,4.97,25.0
40.899,0.518,4.819,18.0
41.074,0.527,4.609,16.0
38.866,0.508,5.467,53.0
38.715,0.513,5.226,59.0
39.01,0.524,5.044,55.0
39.835,0.542,4.922,23.0
41.236,0.569,4.862,16.0
41.405,0.579,4.649,23.0
38.66,0.55,5.44,67.0
38.701,0.557,5.226,48.0
38.763,0.565,5.014,63.0
39.398,0.582,4.869,29.0
41.182,0.615,4.857,46.0
41.379,0.626,4.647,47.0
38.355,0.589,5.398,52.0
38.635,0.6,5.217,56.0
38.49,0.605,4.979,52.0
39.35,0.625,4.863,45.0
41.379,0.665,4.88,44.0
41.168,0.669,4.623,46.0
38.159,0.63,5.369,66.0
38.702,0.645,5.225,48.0
38.389,0.647,4.964,46.0
39.084,0.666,4.828,55.0
41.461,0.713,4.887,53.0
41.142,0.715,4.617,47.0
38.176,0.674,5.369,62.0
38.767,0.69,5.23,55.0
38.554,0.693,4.982,47.0
39.152,0.711,4.833,68.0
47.412,0.869,5.584,4.0
41.497,0.768,4.652,43.0
38.208,0.717,5.368,67.0
38.855,0.736,5.237,43.0
38.703,0.739,4.996,46.0
39.254,0.757,4.84,54.0
41.747,0.812,4.91,39.0
41.717,0.819,4.67,37.0
38.347,0.763,5.382,50.0
38.833,0.779,5.227,46.0
39.064,0.791,5.035,34.0
38.89,0.793,4.787,46.0
41.981,0.863,4.929,42.0
48.564,1.007,5.427,10.0
38.491,0.809,5.393,58.0
38.946,0.826,5.234,47.0
39.08,0.835,5.028,29.0
43.431,0.935,5.336,5.0
41.605,0.902,4.875,46.0
48.551,1.061,5.413,9.0
38.621,0.856,5.401,55.0
38.843,0.866,5.21,56.0
48.071,1.08,6.172,12.0
37.945,0.859,4.651,42.0
48.519,1.105,5.671,5.0
41.311,0.947,4.594,30.0
38.761,0.901,5.409,47.0
38.959,0.911,5.213,47.0
38.523,0.907,4.934,35.0
37.965,0.9,4.641,48.0
41.701,0.995,4.86,36.0
53.8,1.292,5.965,14.0
38.57,0.939,5.369,59.0
38.891,0.952,5.19,55.0
38.323,0.944,4.894,58.0
37.81,0.937,4.608,52.0
42.373,1.057,4.923,42.0
57.093,1.433,6.308,12.0
38.541,0.979,5.349,67.0
41.084,1.05,5.466,36.0
37.985,0.976,4.835,45.0
37.88,0.979,4.601,51.0
42.407,1.103,4.909,18.0
49.755,1.301,5.476,7.0
38.616,1.022,5.343,54.0
40.437,1.076,5.362,36.0
38.036,1.018,4.825,65.0
37.823,1.018,4.577,57.0
37.997,1.027,4.381,38.0
41.416,1.126,4.538,31.0
38.534,1.06,5.313,60.0
38.787,1.073,5.124,17.0
37.99,1.056,4.8,54.0
37.826,1.057,4.558,71.0
38.038,1.068,4.366,37.0
41.843,1.181,4.564,17.0
38.842,1.109,5.335,53.0
40.144,1.152,5.282,7.0
37.859,1.091,4.763,62.0
38.008,1.101,4.559,28.0
37.818,1.1,4.32,52.0
41.176,1.204,4.468,38.0
38.918,1.151,5.322,49.0
43.741,1.3,5.729,9.0
37.996,1.134,4.758,48.0
38.228,1.146,4.563,35.0
37.86,1.14,4.302,33.0
38.376,1.16,4.141,26.0
38.665,1.183,5.264,49.0
38.262,1.175,4.988,14.0
37.776,1.166,4.706,64.0
38.055,1.179,4.518,43.0
38.095,1.185,4.304,56.0
38.286,1.195,4.106,42.0
0.0,0.0,0.0,0.0
40.611,1.287,5.267,26.0
38.04,1.211,4.713,55.0
37.95,1.212,4.48,41.0
38.179,1.224,4.288,35.0
38.377,1.235,4.09,31.0
39.298,1.279,5.296,24.0
38.313,1.251,4.942,45.0
37.735,1.237,4.649,44.0
37.657,1.239,4.418,62.0
38.002,1.255,4.24,50.0
38.281,1.268,4.052,46.0
38.073,1.275,5.102,42.0
38.129,1.282,4.889,44.0
37.748,1.273,4.621,62.0
37.688,1.275,4.393,57.0
38.18,1.296,4.23,36.0
41.58,1.417,4.368,4.0
37.499,1.291,4.996,60.0
37.955,1.311,4.836,57.0
37.905,1.313,4.61,57.0
37.827,1.315,4.378,53.0
38.194,1.332,4.201,58.0
41.619,1.456,4.339,19.0
37.527,1.326,4.968,73.0
37.71,1.337,4.773,59.0
37.81,1.344,4.567,57.0
37.834,1.348,4.348,59.0
38.416,1.373,4.193,64.0
42.268,1.515,4.37,25.0
37.601,1.362,4.945,68.0
37.829,1.374,4.755,65.0
37.871,1.379,4.541,42.0
37.858,1.383,4.317,55.0
38.533,1.411,4.171,12.0
55.704,2.046,5.71,17.0
37.703,1.398,4.924,75.0
37.98,1.412,4.739,56.0
37.933,1.414,4.513,40.0
37.647,1.407,4.258,64.0
61.982,2.322,6.652,30.0
61.981,2.328,6.295,27.0
37.992,1.441,4.925,53.0
37.829,1.438,4.684,54.0
37.839,1.441,4.466,51.0
38.092,1.455,4.271,48.0
41.448,1.587,4.408,28.0
41.118,1.578,4.136,10.0
38.047,1.474,4.895,40.0
37.887,1.471,4.654,56.0
42.553,1.655,4.98,8.0
37.967,1.48,4.22,65.0
41.299,1.613,4.351,43.0
56.064,2.195,5.584,24.0
38.056,1.504,4.857,52.0
37.87,1.499,4.613,70.0
37.695,1.495,4.373,25.0
38.239,1.52,4.21,29.0
56.356,2.244,5.879,15.0
53.138,2.121,5.237,57.0
38.091,1.533,4.821,44.0
37.888,1.528,4.575,56.0
37.7,1.524,4.333,58.0
38.473,1.557,4.195,41.0
53.042,2.152,5.476,49.0
41.311,1.679,4.026,10.0
42.946,1.761,5.388,6.0
37.964,1.559,4.542,49.0
37.622,1.547,4.282,70.0
41.753,1.72,4.506,17.0
41.485,1.712,4.237,16.0
41.271,1.706,3.977,3.0
37.98,1.584,4.722,40.0
38.005,1.587,4.503,56.0
38.083,1.593,4.291,42.0
41.592,1.742,4.441,16.0
41.277,1.731,4.168,26.0
54.574,2.293,5.195,65.0
37.839,1.603,4.66,61.0
38.032,1.614,4.461,12.0
53.346,2.266,5.948,5.0
54.603,2.323,5.765,7.0
41.345,1.761,4.126,40.0
68.033,2.903,6.396,28.0
38.034,1.636,4.637,31.0
55.756,2.401,6.473,18.0
41.615,1.794,4.589,10.0
63.468,2.74,6.624,21.0
41.303,1.785,4.071,66.0
53.15,2.3,4.932,6.0
38.043,1.66,4.591,36.0
42.251,1.845,4.853,3.0
41.768,1.826,4.554,22.0
63.399,2.774,6.538,14.0
41.343,1.811,4.024,42.0
54.469,2.389,4.986,48.0
37.968,1.678,4.534,51.0
41.745,1.847,4.741,29.0
41.952,1.857,4.521,17.0
52.961,2.348,5.394,10.0
41.414,1.837,3.977,32.0
54.479,2.42,4.917,33.0
37.979,1.699,4.485,67.0
54.554,2.443,6.125,12.0
41.922,1.879,4.462,25.0
41.395,1.857,4.161,40.0
53.294,2.392,5.048,15.0
55.028,2.473,4.894,29.0
37.972,1.718,4.434,34.0
63.679,2.884,7.064,17.0
41.892,1.899,4.403,12.0
41.348,1.875,4.101,43.0
53.903,2.447,5.033,42.0
64.636,2.936,5.661,10.0
54.506,2.493,6.29,16.0
63.284,2.896,6.933,21.0
52.942,2.424,5.492,14.0
41.39,1.896,4.048,30.0
68.064,3.12,6.262,32.0
64.69,2.968,5.577,20.0
63.935,2.953,7.288,11.0
41.974,1.939,4.54,27.0
56.978,2.634,5.83,4.0
54.293,2.511,5.234,15.0
54.739,2.533,4.959,28.0
67.995,3.148,5.767,11.0
41.568,1.937,4.679,1.0
41.714,1.944,4.452,35.0
41.495,1.934,4.187,23.0
52.992,2.471,5.033,12.0
70.88,3.307,6.321,23.0
67.81,3.165,5.654,20.0
42.862,2.013,4.763,10.0
52.928,2.486,5.572,14.0
41.458,1.948,4.122,46.0
62.004,2.914,5.799,4.0
64.928,3.052,5.695,8.0
68.001,3.198,5.57,12.0
42.035,1.988,4.608,17.0
0.0,0.0,0.0,0.0
41.442,1.961,4.059,32.0
54.409,2.574,5.008,20.0
64.905,3.072,5.597,31.0
73.981,3.502,5.95,20.0
41.797,1.99,4.519,19.0
54.406,2.591,5.565,12.0
53.051,2.526,5.117,8.0
55.012,2.619,4.981,29.0
64.879,3.089,5.497,39.0
73.958,3.521,5.838,11.0
41.787,2.0,4.455,28.0
41.475,1.985,4.179,23.0
53.079,2.54,5.039,6.0
64.604,3.092,5.751,1.0
67.971,3.252,5.656,18.0
64.84,3.103,5.019,21.0
41.902,2.016,4.402,6.0
54.776,2.634,5.434,9.0
0.0,0.0,0.0,0.0
64.933,3.121,5.679,12.0
68.086,3.272,5.559,16.0
64.704,3.109,4.907,28.0
41.459,2.002,4.29,3.0
41.431,2.0,4.045,3.0
68.063,3.284,6.249,10.0
64.834,3.127,5.568,22.0
73.9,3.564,5.917,27.0
73.898,3.563,5.489,21.0
41.462,2.009,4.224,21.0
53.065,2.57,5.097,17.0
54.652,2.645,4.93,10.0
64.67,3.128,5.451,12.0
73.881,3.572,5.798,24.0
73.82,3.568,5.365,20.0
41.498,2.015,4.161,12.0
55.232,2.68,5.215,29.0
70.597,3.424,6.255,23.0
68.017,3.297,5.623,16.0
64.728,3.135,4.975,32.0
73.633,3.565,5.232,28.0
41.508,2.019,4.094,4.0
54.483,2.648,5.056,24.0
64.711,3.143,5.628,9.0
64.785,3.144,5.25,15.0
64.692,3.137,4.866,8.0
73.643,3.569,5.113,18.0
53.208,2.59,5.161,27.0
68.052,3.309,6.203,10.0
64.612,3.139,5.513,16.0
73.887,3.587,5.866,42.0
73.864,3.583,5.436,17.0
149.688,7.256,10.148,29.0
55.461,2.699,5.287,10.0
64.682,3.145,5.788,4.0
67.971,3.301,5.686,9.0
64.738,3.142,5.032,26.0
73.65,3.571,5.297,19.0
65.242,3.16,4.314,7.0
0.0,0.0,0.0,0.0
64.796,3.147,5.688,8.0
68.079,3.303,5.579,8.0
64.688,3.135,4.918,23.0
73.657,3.566,5.172,31.0
65.266,3.156,4.205,2.0
68.056,3.303,6.256,10.0
64.735,3.138,5.573,16.0
73.879,3.577,5.929,28.0
73.883,3.573,5.493,26.0
73.665,3.559,5.049,3.0
73.549,3.55,4.614,2.0
54.715,2.649,4.936,6.0
64.772,3.132,5.465,9.0
73.871,3.567,5.802,19.0
73.735,3.555,5.355,25.0
149.701,7.211,10.004,30.0
73.485,3.535,4.485,5.0
70.77,3.415,6.262,16.0
68.057,3.279,5.625,26.0
64.716,3.113,4.971,35.0
73.582,3.535,5.216,34.0
128.025,6.142,8.332,3.0
73.266,3.51,4.343,24.0
64.896,3.118,5.628,20.0
55.32,2.653,4.475,3.0
64.857,3.106,4.868,10.0
73.586,3.518,5.087,11.0
149.331,7.129,9.458,14.0
73.375,3.498,4.222,31.0
64.86,3.099,5.511,38.0
73.945,3.527,5.851,10.0
73.951,3.522,5.422,15.0
149.604,7.114,10.083,22.0
73.472,3.488,4.525,9.0
123.192,5.84,6.873,40.0
68.08,3.234,5.664,13.0
73.843,3.501,5.713,13.0
73.916,3.499,5.289,36.0
127.871,6.042,8.392,19.0
73.346,3.459,4.388,34.0
123.321,5.806,6.663,28.0
64.585,3.047,5.259,7.0
64.642,3.043,4.887,7.0
73.592,3.458,5.136,21.0
127.798,5.995,8.163,13.0
73.342,3.433,4.258,39.0
123.503,5.771,6.456,24.0
71.267,3.335,5.677,11.0
64.896,3.031,4.791,6.0
128.327,5.981,8.729,15.0
73.477,3.417,4.563,25.0
123.258,5.722,6.939,25.0
123.407,5.718,6.233,23.0
64.616,2.997,5.032,21.0
74.082,3.428,5.338,21.0
73.639,3.401,4.877,6.0
73.346,3.38,4.425,39.0
123.175,5.665,6.717,46.0
129.518,5.944,6.312,13.0
64.643,2.969,4.919,26.0
73.681,3.377,5.179,16.0
127.767,5.842,8.237,23.0
73.307,3.344,4.293,25.0
123.364,5.616,6.51,23.0
130.011,5.905,6.108,22.0
64.752,2.943,4.813,13.0
127.99,5.803,8.769,12.0
73.253,3.313,4.592,18.0
73.269,3.306,4.161,10.0
123.262,5.548,6.286,12.0
129.478,5.814,5.853,24.0
65.05,2.922,4.718,12.0
65.205,2.921,4.351,5.0
73.243,3.273,4.461,29.0
73.285,3.266,4.03,27.0
129.747,5.768,6.384,15.0
124.295,5.512,5.397,27.0
64.95,2.88,4.595,12.0
73.183,3.236,4.751,11.0
73.705,3.25,4.356,8.0
123.259,5.421,6.559,29.0
124.659,5.467,5.91,9.0
124.355,5.439,5.176,35.0
73.342,3.207,5.056,14.0
73.194,3.191,4.62,20.0
73.565,3.197,4.216,51.0
132.413,5.74,6.808,15.0
124.523,5.382,5.68,23.0
124.278,5.355,4.948,22.0
73.39,3.16,4.926,18.0
73.273,3.145,4.492,33.0
73.233,3.134,4.065,49.0
124.342,5.305,6.167,21.0
124.188,5.282,5.441,40.0
157.407,6.674,5.984,16.0
65.154,2.76,4.256,21.0
73.588,3.107,4.379,13.0
123.293,5.189,6.621,18.0
125.007,5.243,5.975,23.0
124.168,5.192,5.217,41.0
157.298,6.556,5.698,17.0
73.298,3.051,4.656,28.0
73.347,3.043,4.233,51.0
123.193,5.093,6.396,31.0
124.425,5.125,5.726,39.0
157.959,6.484,6.353,12.0
173.243,7.088,5.966,6.0
73.283,2.993,4.523,13.0
73.285,2.982,4.098,30.0
123.966,5.027,6.214,15.0
124.585,5.033,5.51,18.0
161.303,6.493,6.201,13.0
173.138,6.943,5.654,4.0
73.313,2.935,4.395,18.0
123.143,4.91,6.668,22.0
123.965,4.925,5.994,25.0
124.186,4.914,5.272,33.0
157.7,6.216,5.782,19.0
161.932,6.358,5.001,10.0
73.333,2.872,4.265,12.0
73.669,2.874,3.858,26.0
124.07,4.82,5.777,15.0
124.269,4.808,5.055,18.0
157.251,6.061,5.489,12.0
173.387,6.655,5.049,6.0
73.433,2.81,4.141,41.0
73.661,2.807,3.727,6.0
153.13,5.811,6.86,13.0
152.66,5.767,5.94,21.0
157.045,5.907,5.203,5.0
160.168,6.001,4.383,9.0
73.66,2.751,4.024,48.0
133.797,4.973,6.534,18.0
124.247,4.598,5.348,21.0
152.871,5.631,5.681,27.0
160.351,5.879,5.032,13.0
0.0,0.0,0.0,0.0
73.797,2.684,3.902,45.0
123.902,4.484,5.833,26.0
152.526,5.493,6.297,22.0
153.558,5.505,5.437,24.0
159.405,5.687,4.724,16.0
0.0,0.0,0.0,0.0
73.887,2.613,3.778,9.0
152.943,5.38,6.934,22.0
152.73,5.345,6.041,33.0
157.717,5.491,5.31,13.0
159.176,5.514,4.44,13.0
0.0,0.0,0.0,0.0
124.146,4.258,6.129,28.0
152.805,5.213,6.661,23.0
152.706,5.183,5.775,40.0
159.396,5.38,5.092,5.0
0.0,0.0,0.0,0.0
0.0,0.0,0.0,0.0
133.705,4.442,6.373,33.0
152.461,5.038,6.386,33.0
152.841,5.021,5.52,15.0
158.842,5.19,4.805,12.0
0.0,0.0,0.0,0.0
0.0,0.0,0.0,0.0
133.572,4.289,6.14,35.0
152.219,4.859,6.118,36.0
152.665,4.843,5.253,22.0
0.0,0.0,0.0,0.0
0.0,0.0,0.0,0.0
0.0,0.0,0.0,0.0
151.927,4.703,6.726,26.0
152.056,4.675,5.852,41.0
157.924,4.825,5.166,17.0
168.92,5.127,4.535,3.0
0.0,0.0,0.0,0.0
100.564,3.011,1.539,2.0
152.04,4.524,6.472,36.0
152.121,4.495,5.598,38.0
153.997,4.518,4.779,36.0
0.0,0.0,0.0,0.0
0.0,0.0,0.0,0.0
105.977,3.044,1.446,1.0
151.998,4.337,6.219,36.0
152.276,4.312,5.351,36.0
153.992,4.327,4.522,34.0
0.0,0.0,0.0,0.0
0.0,0.0,0.0,0.0
89.674,2.462,1.073,1.0
152.054,4.143,5.966,51.0
152.727,4.128,5.112,34.0
154.092,4.132,4.27,32.0
0.0,0.0,0.0,0.0
0.0,0.0,0.0,0.0
78.326,2.049,0.809,14.0
152.136,3.949,5.722,45.0
158.673,4.083,5.054,6.0
100.322,2.559,2.617,9.0
100.337,2.538,2.03,51.0
106.107,2.661,1.537,51.0
77.894,1.936,0.68,22.0
152.566,3.757,5.493,35.0
159.045,3.881,4.81,28.0
146.485,3.541,3.586,13.0
0.0,0.0,0.0,0.0
106.073,2.516,1.365,2.0
74.612,1.752,0.53,16.0
152.652,3.548,5.249,21.0
159.224,3.664,4.559,11.0
0.0,0.0,0.0,0.0
106.072,2.392,1.806,2.0
80.549,1.798,0.909,9.0
60.542,1.338,0.335,34.0
159.537,3.486,5.235,15.0
128.214,2.771,3.47,13.0
128.125,2.74,2.732,14.0
106.319,2.248,1.644,1.0
78.043,1.631,0.758,17.0
57.908,1.197,0.23,7.0
128.032,2.615,4.003,57.0
128.028,2.584,3.267,43.0
128.024,2.551,2.529,9.0
106.583,2.099,1.483,1.0
77.807,1.514,0.635,14.0
48.068,0.923,0.116,5.0
128.083,2.427,3.806,26.0
128.05,2.395,3.07,24.0
127.905,2.362,2.332,29.0
121.052,2.206,1.5,14.0
74.735,1.344,0.497,11.0
47.486,0.842,0.043,28.0
160.308,2.799,4.523,22.0
190.213,3.276,4.276,11.0
127.272,2.16,2.13,32.0
89.613,1.498,0.976,11.0
60.786,1.001,0.314,34.0
0.0,0.0,0.0,0.0
160.034,2.553,4.279,5.0
190.054,2.983,3.99,27.0
126.65,1.957,1.933,38.0
78.099,1.187,0.736,22.0
48.067,0.718,0.177,17.0
44.019,0.646,-0.089,4.0
176.499,2.542,4.46,29.0
189.923,2.686,3.711,25.0
126.351,1.753,1.743,22.0
0.0,0.0,0.0,0.0
47.962,0.641,0.107,55.0
38.807,0.508,-0.135,47.0
55.093,0.705,1.312,52.0
55.099,0.692,0.997,11.0
48.143,0.591,0.595,56.0
48.064,0.577,0.314,74.0
47.224,0.555,0.038,49.0
38.068,0.437,-0.186,38.0
48.16,0.54,1.079,76.0
48.119,0.527,0.803,98.0
48.089,0.513,0.527,104.0
48.03,0.5,0.247,92.0
0.0,0.0,0.0,0.0
37.687,0.372,-0.237,13.0
48.113,0.461,1.012,109.0
48.094,0.448,0.736,111.0
48.066,0.434,0.461,108.0
48.008,0.421,0.181,96.0
44.007,0.373,-0.085,6.0
37.489,0.307,-0.287,3.0
48.118,0.381,0.947,126.0
48.079,0.367,0.671,105.0
48.088,0.354,0.395,59.0
48.028,0.34,0.116,44.0
39.302,0.267,-0.129,44.0
33.679,0.219,-0.303,0.0
48.161,0.3,0.883,72.0
48.205,0.287,0.608,47.0
55.082,0.312,0.38,53.0
47.64,0.256,0.052,37.0
38.717,0.197,-0.178,36.0
32.608,0.157,-0.336,1.0
59.3,0.269,1.01,105.0
59.33,0.252,0.672,61.0
59.335,0.235,0.333,28.0
0.0,0.0,0.0,0.0
38.387,0.13,-0.226,13.0
31.25,0.097,-0.362,1.0
79.463,0.223,1.253,154.0
79.478,0.199,0.8,150.0
58.971,0.131,0.257,6.0
0.0,0.0,0.0,0.0
38.18,0.062,-0.273,4.0
30.244,0.041,-0.388,1.0
79.465,0.083,1.155,151.0
79.405,0.059,0.7,92.0
54.752,0.024,0.17,8.0
40.632,0.006,-0.108,16.0
38.256,-0.005,-0.32,0.0
29.486,-0.012,-0.415,2.0
79.466,-0.058,1.058,152.0
79.223,-0.081,0.603,15.0
0.0,0.0,0.0,0.0
39.898,-0.065,-0.154,15.0
33.031,-0.063,-0.316,1.0
28.896,-0.064,-0.441,2.0
79.474,-0.201,0.964,151.0
76.458,-0.217,0.492,13.0
47.582,-0.149,0.035,21.0
39.242,-0.135,-0.198,7.0
32.249,-0.12,-0.346,1.0
28.018,-0.113,-0.46,1.0
79.466,-0.344,0.873,151.0
61.624,-0.286,0.326,5.0
46.752,-0.23,-0.017,21.0
39.674,-0.207,-0.244,3.0
30.86,-0.171,-0.366,1.0
27.286,-0.159,-0.478,1.0
79.464,-0.489,0.785,164.0
61.333,-0.396,0.257,14.0
45.448,-0.307,-0.067,4.0
40.005,-0.283,-0.29,3.0
30.218,-0.223,-0.391,2.0
26.755,-0.206,-0.498,3.0
79.411,-0.635,0.699,123.0
57.79,-0.48,0.18,6.0
50.506,-0.435,-0.128,9.0
36.504,-0.326,-0.304,0.0
29.498,-0.273,-0.413,3.0
26.183,-0.25,-0.515,2.0
78.961,-0.778,0.613,53.0
57.586,-0.586,0.119,4.0
47.283,-0.496,-0.169,2.0
33.437,-0.361,-0.313,1.0
29.023,-0.322,-0.436,3.0
25.561,-0.292,-0.529,1.0
78.522,-0.921,0.53,16.0
60.748,-0.732,0.065,7.0
42.795,-0.53,-0.196,2.0
32.486,-0.413,-0.336,1.0
28.334,-0.369,-0.454,2.0
25.051,-0.334,-0.543,1.0
78.682,-1.073,0.454,3.0
58.138,-0.811,0.006,1.0
42.103,-0.601,-0.234,1.0
31.37,-0.458,-0.355,1.0
27.703,-0.414,-0.471,1.0
24.499,-0.374,-0.555,2.0
0.0,0.0,0.0,0.0
51.606,-0.819,-0.043,0.0
40.167,-0.65,-0.26,5.0
30.66,-0.507,-0.375,1.0
27.05,-0.456,-0.484,1.0
23.971,-0.412,-0.565,2.0
40.275,-0.704,0.157,64.0
40.311,-0.717,-0.07,69.0
40.189,-0.728,-0.297,2.0
29.923,-0.552,-0.393,1.0
26.568,-0.499,-0.499,1.0
23.547,-0.45,-0.576,2.0
40.309,-0.782,0.123,40.0
46.648,-0.92,-0.121,1.0
35.465,-0.711,-0.292,0.0
29.519,-0.602,-0.413,1.0
26.118,-0.542,-0.513,1.0
23.062,-0.486,-0.584,2.0
68.07,-1.453,0.15,0.0
0.0,0.0,0.0,0.0
35.276,-0.777,-0.32,0.0
29.044,-0.649,-0.43,1.0
25.682,-0.582,-0.525,1.0
22.813,-0.525,-0.596,2.0
40.314,-0.939,0.056,150.0
40.302,-0.953,-0.17,150.0
33.071,-0.793,-0.326,1.0
28.437,-0.692,-0.444,2.0
25.286,-0.624,-0.537,1.0
22.434,-0.561,-0.603,2.0
40.934,-1.035,0.026,0.0
40.867,-1.047,-0.204,83.0
32.384,-0.841,-0.344,1.0
28.091,-0.739,-0.459,1.0
24.957,-0.665,-0.549,1.0
22.112,-0.597,-0.611,1.0
40.223,-1.096,-0.003,66.0
40.482,-1.117,-0.231,15.0
31.637,-0.884,-0.359,1.0
27.618,-0.781,-0.471,1.0
24.459,-0.7,-0.555,1.0
21.791,-0.632,-0.617,1.0
40.229,-1.177,-0.031,49.0
40.167,-1.188,-0.256,12.0
31.095,-0.931,-0.373,1.0
27.219,-0.824,-0.483,1.0
24.115,-0.738,-0.563,1.0
21.52,-0.667,-0.624,1.0
0.0,0.0,0.0,0.0
40.342,-1.274,-0.284,2.0
30.552,-0.976,-0.387,1.0
26.854,-0.867,-0.493,1.0
23.732,-0.775,-0.57,2.0
21.226,-0.7,-0.629,1.0
0.0,0.0,0.0,0.0
37.865,-1.271,-0.289,0.0
30.126,-1.022,-0.399,1.0
26.49,-0.908,-0.503,1.0
23.465,-0.812,-0.577,2.0
21.006,-0.735,-0.635,1.0
52.329,-1.843,-0.136,0.0
40.022,-1.423,-0.329,0.0
29.727,-1.068,-0.411,1.0
26.206,-0.95,-0.512,1.0
23.262,-0.852,-0.585,2.0
20.736,-0.767,-0.638,1.0
40.141,-1.493,-0.126,152.0
37.771,-1.418,-0.33,4.0
29.494,-1.118,-0.423,2.0
25.918,-0.991,-0.519,1.0
23.051,-0.89,-0.591,1.0
20.525,-0.8,-0.642,1.0
37.795,-1.481,-0.137,162.0
37.652,-1.489,-0.347,0.0
29.131,-1.162,-0.432,1.0
25.655,-1.033,-0.526,1.0
22.845,-0.928,-0.597,1.0
20.358,-0.834,-0.646,1.0
37.795,-1.556,-0.154,1.0
34.072,-1.415,-0.33,1.0
28.837,-1.208,-0.44,1.0
25.409,-1.073,-0.533,1.0
22.588,-0.962,-0.6,1.0
20.194,-0.868,-0.649,1.0
0.0,0.0,0.0,0.0
33.833,-1.473,-0.341,4.0
28.619,-1.256,-0.449,1.0
25.308,-1.12,-0.541,1.0
22.444,-1.001,-0.605,2.0
20.057,-0.902,-0.653,1.0
0.0,0.0,0.0,0.0
33.499,-1.525,-0.351,9.0
28.419,-1.304,-0.456,1.0
25.084,-1.16,-0.545,1.0
22.262,-1.037,-0.608,1.0
19.92,-0.936,-0.655,1.0
0.0,0.0,0.0,0.0
33.249,-1.58,-0.359,8.0
28.398,-1.36,-0.465,7.0
24.958,-1.204,-0.551,1.0
22.13,-1.076,-0.612,1.0
19.839,-0.972,-0.659,1.0
0.0,0.0,0.0,0.0
32.319,-1.6,-0.359,1.0
28.232,-1.408,-0.471,7.0
24.783,-1.245,-0.554,1.0
21.951,-1.111,-0.613,1.0
19.723,-1.005,-0.661,1.0
41.268,-2.11,-0.239,0.0
32.052,-1.651,-0.364,1.0
28.149,-1.46,-0.477,7.0
24.288,-1.268,-0.549,5.0
21.821,-1.148,-0.615,1.0
19.656,-1.041,-0.663,1.0
41.788,-2.22,-0.252,0.0
32.201,-1.723,-0.373,1.0
27.825,-1.499,-0.477,1.0
24.249,-1.315,-0.553,5.0
21.863,-1.193,-0.62,5.0
19.581,-1.076,-0.665,1.0
41.401,-2.282,-0.257,0.0
31.886,-1.769,-0.375,1.0
27.646,-1.544,-0.479,1.0
24.187,-1.359,-0.556,5.0
21.702,-1.228,-0.619,4.0
19.561,-1.114,-0.667,1.0
40.848,-2.332,-0.26,0.0
31.798,-1.827,-0.379,1.0
27.528,-1.591,-0.481,2.0
24.103,-1.402,-0.557,2.0
21.657,-1.268,-0.621,4.0
19.43,-1.144,-0.665,6.0
0.0,0.0,0.0,0.0
31.719,-1.884,-0.381,1.0
27.476,-1.642,-0.482,2.0
24.25,-1.458,-0.563,1.0
21.663,-1.31,-0.623,4.0
19.457,-1.184,-0.667,3.0
40.535,-2.472,-0.265,0.0
31.687,-1.943,-0.383,1.0
27.449,-1.693,-0.484,2.0
24.338,-1.51,-0.566,1.0
21.409,-1.337,-0.616,1.0
19.426,-1.22,-0.667,3.0
40.675,-2.56,-0.268,0.0
31.987,-2.024,-0.387,1.0
27.417,-1.745,-0.484,2.0
24.311,-1.556,-0.566,1.0
21.309,-1.372,-0.614,1.0
19.463,-1.26,-0.668,3.0
40.701,-2.639,-0.268,1.0
32.007,-2.087,-0.387,1.0
27.456,-1.8,-0.484,2.0
24.347,-1.605,-0.566,1.0
21.753,-1.442,-0.626,0.0
19.337,-1.289,-0.663,1.0
0.0,0.0,0.0,0.0
31.945,-2.144,-0.385,1.0
27.479,-1.854,-0.483,1.0
24.405,-1.656,-0.566,1.0
21.728,-1.482,-0.624,0.0
19.51,-1.338,-0.668,0.0
40.177,-2.759,-0.259,0.0
32.113,-2.216,-0.384,1.0
27.556,-1.912,-0.481,1.0
24.496,-1.708,-0.566,1.0
21.755,-1.525,-0.622,1.0
19.581,-1.38,-0.668,0.0
40.382,-2.849,-0.255,0.0
32.367,-2.295,-0.383,1.0
27.599,-1.967,-0.478,1.0
24.536,-1.757,-0.563,1.0
21.806,-1.569,-0.621,1.0
19.583,-1.416,-0.665,0.0
40.62,-2.941,-0.251,0.0
32.397,-2.357,-0.378,1.0
27.97,-2.045,-0.48,1.0
24.677,-1.813,-0.562,1.0
21.88,-1.615,-0.619,1.0
19.684,-1.46,-0.665,0.0
0.0,0.0,0.0,0.0
32.841,-2.45,-0.377,1.0
28.376,-2.127,-0.482,1.0
24.785,-1.866,-0.559,1.0
22.0,-1.664,-0.617,1.0
19.771,-1.503,-0.664,0.0
41.936,-3.19,-0.241,0.0
33.108,-2.53,-0.372,1.0
28.178,-2.163,-0.471,1.0
24.95,-1.924,-0.557,1.0
22.106,-1.712,-0.615,1.0
19.918,-1.55,-0.663,0.0
42.697,-3.325,-0.234,0.0
33.679,-2.634,-0.369,1.0
28.508,-2.239,-0.469,1.0
25.117,-1.982,-0.554,1.0
22.227,-1.762,-0.612,1.0
20.003,-1.592,-0.66,0.0
0.0,0.0,0.0,0.0
33.865,-2.709,-0.361,1.0
28.864,-2.318,-0.466,1.0
25.322,-2.043,-0.55,1.0
22.432,-1.818,-0.61,1.0
20.154,-1.64,-0.659,0.0
0.0,0.0,0.0,0.0
34.808,-2.845,-0.359,1.0
29.0,-2.38,-0.458,1.0
25.492,-2.101,-0.545,2.0
22.615,-1.872,-0.607,1.0
20.284,-1.686,-0.656,0.0
0.0,0.0,0.0,0.0
34.999,-2.922,-0.348,0.0
29.204,-2.448,-0.45,1.0
25.693,-2.162,-0.539,1.0
22.812,-1.927,-0.603,1.0
20.422,-1.733,-0.652,0.0
0.0,0.0,0.0,0.0
36.162,-3.081,-0.345,0.0
29.671,-2.538,-0.445,1.0
25.829,-2.218,-0.531,1.0
23.055,-1.987,-0.6,1.0
20.602,-1.783,-0.649,0.0
50.332,-4.357,-0.183,0.0
0.0,0.0,0.0,0.0
29.866,-2.605,-0.434,1.0
26.167,-2.291,-0.526,1.0
23.22,-2.041,-0.594,1.0
20.837,-1.838,-0.646,1.0
50.42,-4.45,-0.159,4.0
38.107,-3.375,-0.328,0.0
30.993,-2.755,-0.436,7.0
26.465,-2.361,-0.519,1.0
23.548,-2.108,-0.59,1.0
21.038,-1.89,-0.642,1.0
50.439,-4.533,-0.134,7.0
0.0,0.0,0.0,0.0
31.119,-2.816,-0.422,2.0
26.814,-2.435,-0.512,1.0
23.727,-2.163,-0.582,1.0
21.276,-1.946,-0.638,1.0
50.424,-4.613,-0.107,7.0
40.2,-3.69,-0.304,0.0
31.723,-2.922,-0.412,1.0
27.245,-2.518,-0.505,1.0
24.114,-2.237,-0.578,1.0
21.474,-1.999,-0.632,1.0
50.544,-4.705,-0.077,0.0
0.0,0.0,0.0,0.0
32.404,-3.036,-0.402,1.0
27.725,-2.606,-0.497,1.0
24.517,-2.313,-0.573,1.0
21.753,-2.059,-0.627,1.0
0.0,0.0,0.0,0.0
41.273,-3.919,-0.263,0.0
33.078,-3.151,-0.39,1.0
28.199,-2.695,-0.488,1.0
24.834,-2.381,-0.565,1.0
22.021,-2.118,-0.621,1.0
0.0,0.0,0.0,0.0
0.0,0.0,0.0,0.0
33.583,-3.25,-0.374,0.0
28.694,-2.785,-0.478,1.0
25.155,-2.449,-0.556,1.0
22.309,-2.179,-0.614,1.0
0.0,0.0,0.0,0.0
44.581,-4.367,-0.226,0.0
34.267,-3.366,-0.359,0.0
29.133,-2.871,-0.466,1.0
25.575,-2.527,-0.548,1.0
22.738,-2.254,-0.61,1.0
0.0,0.0,0.0,0.0
50.327,-5.002,-0.22,0.0
0.0,0.0,0.0,0.0
29.787,-2.977,-0.456,1.0
26.019,-2.608,-0.539,1.0
23.379,-2.351,-0.611,5.0
0.0,0.0,0.0,0.0
50.458,-5.087,-0.184,2.0
0.0,0.0,0.0,0.0
30.251,-3.067,-0.441,1.0
26.48,-2.692,-0.529,1.0
23.478,-2.393,-0.596,16.0
0.0,0.0,0.0,0.0
50.364,-5.147,-0.146,0.0
39.413,-4.038,-0.327,0.0
31.072,-3.193,-0.429,1.0
26.975,-2.779,-0.518,1.0
23.723,-2.451,-0.584,26.0
0.0,0.0,0.0,0.0
0.0,0.0,0.0,0.0
39.976,-4.15,-0.301,1.0
32.304,-3.362,-0.421,1.0
27.467,-2.866,-0.506,1.0
23.885,-2.499,-0.569,23.0
0.0,0.0,0.0,0.0
0.0,0.0,0.0,0.0
0.0,0.0,0.0,0.0
33.045,-3.482,-0.404,1.0
28.042,-2.962,-0.494,1.0
24.245,-2.568,-0.558,5.0
0.0,0.0,0.0,0.0
0.0,0.0,0.0,0.0
41.88,-4.456,-0.246,0.0
34.305,-3.659,-0.39,1.0
28.779,-3.077,-0.483,1.0
25.262,-2.707,-0.56,1.0
79.736,-8.544,0.458,0.0
0.0,0.0,0.0,0.0
45.206,-4.866,-0.227,0.0
34.653,-3.738,-0.364,0.0
29.496,-3.189,-0.469,1.0
25.788,-2.795,-0.549,1.0
87.305,-9.46,0.577,4.0
0.0,0.0,0.0,0.0
0.0,0.0,0.0,0.0
36.829,-4.017,-0.355,0.0
30.139,-3.294,-0.453,1.0
26.275,-2.879,-0.536,1.0
87.295,-9.562,0.655,9.0
0.0,0.0,0.0,0.0
0.0,0.0,0.0,0.0
39.238,-4.325,-0.342,1.0
31.189,-3.445,-0.44,1.0
26.762,-2.962,-0.522,1.0
87.004,-9.63,0.733,12.0
73.163,-8.113,0.223,2.0
0.0,0.0,0.0,0.0
39.685,-4.418,-0.31,0.0
32.289,-3.602,-0.425,1.0
27.574,-3.083,-0.512,1.0
86.261,-9.642,0.807,22.0
0.0,0.0,0.0,0.0
0.0,0.0,0.0,0.0
41.262,-4.638,-0.283,0.0
33.417,-3.764,-0.409,1.0
28.397,-3.205,-0.5,1.0
86.236,-9.731,0.891,57.0
0.0,0.0,0.0,0.0
0.0,0.0,0.0,0.0
44.872,-5.091,-0.264,0.0
35.028,-3.981,-0.394,0.0
29.148,-3.319,-0.485,1.0
86.238,-9.819,0.976,150.0
87.214,-9.947,0.518,1.0
0.0,0.0,0.0,0.0
45.25,-5.178,-0.222,0.0
36.915,-4.232,-0.379,0.0
29.852,-3.428,-0.467,0.0
86.247,-9.904,1.061,165.0
87.19,-10.028,0.604,8.0
0.0,0.0,0.0,0.0
50.389,-5.814,-0.196,3.0
38.447,-4.444,-0.356,0.0
30.844,-3.571,-0.451,0.0
86.242,-9.984,1.148,165.0
87.249,-10.116,0.694,62.0
0.0,0.0,0.0,0.0
50.447,-5.867,-0.145,10.0
39.556,-4.608,-0.326,0.0
32.123,-3.748,-0.437,1.0
86.261,-10.064,1.238,158.0
86.244,-10.077,0.775,15.0
0.0,0.0,0.0,0.0
50.495,-5.917,-0.091,2.0
0.0,0.0,0.0,0.0
33.301,-3.914,-0.418,1.0
86.214,-10.132,1.327,52.0
86.201,-10.144,0.865,38.0
0.0,0.0,0.0,0.0
0.0,0.0,0.0,0.0
44.29,-5.234,-0.271,0.0
36.284,-4.294,-0.417,1.0
86.241,-10.205,1.42,45.0
86.2,-10.213,0.958,53.0
96.692,-11.471,0.555,6.0
0.0,0.0,0.0,0.0
45.88,-5.457,-0.231,0.0
37.114,-4.421,-0.386,2.0
86.285,-10.276,1.514,43.0
86.236,-10.283,1.051,55.0
87.602,-10.458,0.599,11.0
0.0,0.0,0.0,0.0
50.263,-6.015,-0.2,1.0
37.747,-4.523,-0.352,1.0
86.293,-10.34,1.608,29.0
86.24,-10.345,1.144,63.0
86.48,-10.385,0.685,9.0
0.0,0.0,0.0,0.0
50.408,-6.067,-0.145,1.0
39.4,-4.748,-0.324,0.0
86.412,-10.413,1.705,3.0
86.248,-10.403,1.239,62.0
86.266,-10.416,0.779,150.0
0.0,0.0,0.0,0.0
0.0,0.0,0.0,0.0
41.375,-5.012,-0.295,0.0
86.824,-10.518,1.811,1.0
86.279,-10.461,1.338,47.0
86.277,-10.471,0.875,186.0
87.14,-10.586,0.409,4.0
0.0,0.0,0.0,0.0
44.037,-5.36,-0.263,0.0
203.05,-24.719,4.463,46.0
86.322,-10.516,1.435,28.0
86.298,-10.523,0.973,163.0
86.752,-10.587,0.504,1.0
66.304,-8.099,0.031,0.0
0.0,0.0,0.0,0.0
