X,Y,Z,Reflectivity
9.7,-0.243,-0.878,0.0
9.192,-0.232,-0.885,0.0
8.735,-0.222,-0.893,0.0
8.366,-0.215,-0.904,0.0
8.012,-0.207,-0.912,0.0
10.052,-0.262,-0.862,0.0
9.58,-0.252,-0.877,0.0
9.129,-0.242,-0.888,0.0
8.676,-0.231,-0.895,0.0
8.305,-0.223,-0.905,0.0
7.969,-0.216,-0.915,0.0
9.965,-0.272,-0.865,1.0
9.478,-0.26,-0.877,0.0
9.05,-0.251,-0.889,0.0
8.626,-0.241,-0.899,0.0
8.259,-0.232,-0.908,0.0
7.924,-0.224,-0.917,0.0
9.861,-0.281,-0.865,2.0
9.428,-0.271,-0.881,0.0
8.975,-0.259,-0.89,0.0
8.545,-0.249,-0.898,0.0
8.179,-0.24,-0.907,0.0
7.874,-0.233,-0.919,0.0
9.805,-0.292,-0.868,2.0
9.358,-0.28,-0.883,0.0
8.897,-0.268,-0.89,0.0
8.496,-0.258,-0.9,0.0
8.145,-0.249,-0.91,0.0
7.833,-0.241,-0.921,0.0
9.764,-0.303,-0.873,1.0
9.281,-0.289,-0.883,0.0
8.846,-0.278,-0.893,0.0
8.446,-0.267,-0.902,0.0
8.085,-0.257,-0.91,0.0
7.787,-0.249,-0.922,0.0
9.715,-0.313,-0.876,0.0
9.206,-0.299,-0.883,0.0
8.786,-0.287,-0.894,0.0
8.375,-0.275,-0.901,0.0
8.06,-0.267,-0.913,0.0
7.748,-0.258,-0.923,0.0
9.633,-0.323,-0.876,0.0
9.158,-0.309,-0.886,0.0
8.718,-0.296,-0.893,0.0
8.337,-0.285,-0.903,0.0
8.007,-0.275,-0.913,0.0
7.713,-0.267,-0.924,0.0
9.563,-0.332,-0.877,0.0
9.105,-0.318,-0.887,0.0
8.684,-0.306,-0.896,0.0
8.307,-0.294,-0.905,0.0
7.968,-0.284,-0.914,0.0
7.671,-0.275,-0.924,0.0
9.533,-0.343,-0.88,0.0
9.06,-0.328,-0.889,0.0
8.63,-0.315,-0.896,0.0
8.264,-0.303,-0.906,0.0
7.947,-0.293,-0.917,0.0
7.629,-0.283,-0.924,0.0
9.463,-0.353,-0.88,0.0
9.005,-0.338,-0.889,0.0
8.589,-0.324,-0.897,0.0
8.221,-0.312,-0.906,0.0
7.919,-0.302,-0.919,0.0
7.604,-0.292,-0.926,0.0
9.42,-0.363,-0.881,0.0
8.96,-0.348,-0.889,0.0
8.547,-0.333,-0.897,0.0
8.188,-0.321,-0.907,0.0
7.892,-0.311,-0.92,0.0
7.57,-0.3,-0.926,0.0
9.376,-0.374,-0.882,0.0
8.921,-0.357,-0.89,0.0
8.503,-0.343,-0.897,0.0
8.144,-0.33,-0.907,0.0
7.858,-0.32,-0.92,0.0
7.542,-0.309,-0.926,0.0
9.325,-0.383,-0.882,0.0
8.875,-0.367,-0.89,0.0
8.472,-0.352,-0.898,0.0
8.124,-0.339,-0.908,0.0
7.818,-0.328,-0.919,0.0
7.506,-0.317,-0.925,0.0
9.29,-0.394,-0.883,0.0
8.843,-0.377,-0.89,0.0
8.461,-0.362,-0.9,0.0
8.091,-0.348,-0.908,0.0
7.794,-0.337,-0.919,0.0
7.489,-0.326,-0.926,0.0
9.266,-0.404,-0.884,0.0
8.814,-0.387,-0.891,0.0
8.44,-0.372,-0.901,0.0
8.065,-0.358,-0.908,0.0
7.771,-0.346,-0.919,0.0
7.462,-0.334,-0.925,0.0
9.233,-0.415,-0.884,0.0
8.79,-0.397,-0.892,0.0
8.407,-0.381,-0.9,0.0
8.053,-0.367,-0.909,0.0
7.754,-0.356,-0.92,0.0
7.454,-0.344,-0.927,0.0
9.199,-0.425,-0.884,0.0
8.763,-0.407,-0.891,0.0
8.38,-0.391,-0.9,0.0
8.041,-0.377,-0.91,0.0
7.744,-0.365,-0.921,0.0
7.434,-0.352,-0.926,0.0
9.186,-0.436,-0.885,0.0
8.743,-0.417,-0.892,0.0
8.366,-0.401,-0.901,0.0
8.028,-0.387,-0.911,0.0
7.727,-0.374,-0.92,0.0
7.442,-0.362,-0.929,0.0
9.181,-0.447,-0.886,0.0
8.734,-0.428,-0.893,0.0
8.354,-0.411,-0.901,0.0
8.007,-0.396,-0.91,0.0
7.715,-0.383,-0.921,0.0
7.415,-0.37,-0.927,0.0
9.17,-0.458,-0.887,0.0
8.726,-0.438,-0.893,0.0
8.345,-0.421,-0.901,0.0
8.01,-0.406,-0.911,0.0
7.711,-0.393,-0.921,0.0
7.417,-0.379,-0.928,0.0
9.145,-0.468,-0.886,0.0
8.722,-0.449,-0.894,0.0
8.352,-0.432,-0.903,0.0
7.985,-0.415,-0.909,0.0
7.716,-0.402,-0.923,0.0
7.412,-0.388,-0.928,0.0
9.131,-0.479,-0.885,0.0
8.706,-0.459,-0.893,0.0
8.336,-0.441,-0.902,0.0
7.985,-0.424,-0.91,0.0
7.693,-0.411,-0.92,0.0
7.415,-0.398,-0.929,0.0
9.135,-0.49,-0.886,0.0
8.701,-0.469,-0.893,0.0
8.323,-0.451,-0.901,0.0
8.0,-0.435,-0.912,0.0
7.699,-0.421,-0.921,0.0
7.408,-0.406,-0.928,0.0
9.148,-0.502,-0.887,0.0
8.725,-0.481,-0.895,0.0
8.347,-0.462,-0.903,0.0
8.001,-0.445,-0.912,0.0
7.694,-0.43,-0.92,0.0
7.431,-0.417,-0.931,0.0
9.137,-0.513,-0.885,0.0
8.712,-0.491,-0.893,0.0
8.338,-0.472,-0.902,0.0
7.991,-0.454,-0.91,0.0
7.711,-0.44,-0.921,0.0
7.418,-0.425,-0.928,0.0
9.156,-0.525,-0.886,0.0
8.721,-0.502,-0.893,0.0
8.358,-0.483,-0.903,0.0
8.016,-0.465,-0.912,0.0
7.708,-0.449,-0.92,0.0
7.43,-0.435,-0.929,0.0
9.164,-0.536,-0.886,0.0
8.731,-0.513,-0.893,0.0
8.359,-0.493,-0.902,0.0
8.023,-0.475,-0.911,0.0
7.729,-0.459,-0.921,0.0
7.426,-0.443,-0.927,0.0
9.179,-0.547,-0.886,0.0
8.744,-0.524,-0.892,0.0
8.364,-0.503,-0.9,0.0
8.028,-0.484,-0.91,0.0
7.748,-0.469,-0.922,0.0
7.449,-0.453,-0.928,0.0
9.2,-0.559,-0.886,0.0
8.758,-0.534,-0.892,0.0
8.369,-0.513,-0.899,0.0
8.035,-0.494,-0.909,0.0
7.745,-0.478,-0.92,0.0
7.468,-0.463,-0.928,0.0
9.213,-0.571,-0.884,0.0
8.811,-0.548,-0.895,0.0
8.415,-0.525,-0.901,0.0
8.055,-0.504,-0.909,0.0
7.754,-0.487,-0.918,0.0
7.47,-0.471,-0.927,0.0
9.25,-0.583,-0.885,0.0
8.826,-0.558,-0.893,0.0
8.425,-0.535,-0.9,0.0
8.073,-0.514,-0.908,0.0
7.784,-0.498,-0.919,0.0
7.491,-0.481,-0.926,0.0
9.277,-0.595,-0.884,0.0
8.831,-0.568,-0.891,0.0
8.453,-0.546,-0.9,0.0
8.099,-0.525,-0.908,0.0
7.818,-0.508,-0.92,0.0
7.516,-0.491,-0.926,0.0
9.311,-0.607,-0.884,0.0
8.882,-0.581,-0.892,0.0
8.489,-0.557,-0.9,0.0
8.118,-0.535,-0.907,0.0
7.837,-0.518,-0.919,0.0
7.527,-0.499,-0.925,0.0
9.344,-0.619,-0.883,0.0
8.905,-0.592,-0.891,0.0
8.53,-0.569,-0.9,0.0
8.163,-0.546,-0.908,0.0
7.858,-0.528,-0.918,0.0
7.551,-0.509,-0.924,0.0
9.395,-0.632,-0.883,0.0
8.948,-0.604,-0.891,0.0
8.555,-0.579,-0.899,0.0
8.179,-0.556,-0.905,0.0
7.881,-0.537,-0.916,0.0
7.59,-0.519,-0.925,0.0
9.418,-0.643,-0.88,0.0
9.007,-0.617,-0.892,0.0
8.59,-0.59,-0.898,0.0
8.238,-0.568,-0.908,0.0
7.922,-0.548,-0.917,0.0
7.608,-0.528,-0.923,0.0
9.494,-0.658,-0.882,0.0
9.036,-0.628,-0.889,0.0
8.625,-0.601,-0.897,0.0
8.256,-0.577,-0.905,0.0
7.951,-0.558,-0.915,0.0
7.638,-0.537,-0.922,0.0
9.535,-0.67,-0.88,0.0
9.091,-0.641,-0.889,0.0
8.674,-0.613,-0.896,0.0
8.312,-0.589,-0.906,0.0
7.974,-0.567,-0.913,0.0
7.675,-0.547,-0.921,0.0
9.573,-0.681,-0.878,0.0
9.131,-0.652,-0.887,0.0
8.706,-0.623,-0.894,0.0
8.34,-0.599,-0.903,0.0
8.002,-0.576,-0.911,0.0
7.722,-0.558,-0.922,0.0
9.639,-0.695,-0.877,0.0
9.183,-0.664,-0.886,0.0
8.761,-0.635,-0.894,0.0
8.388,-0.61,-0.903,0.0
8.067,-0.588,-0.913,0.0
7.771,-0.568,-0.922,0.0
9.733,-0.71,-0.879,1.0
9.255,-0.677,-0.887,0.0
8.827,-0.648,-0.894,0.0
8.468,-0.623,-0.905,0.0
8.106,-0.598,-0.911,0.0
7.799,-0.577,-0.919,0.0
9.777,-0.722,-0.876,2.0
9.307,-0.689,-0.884,0.0
8.863,-0.658,-0.891,0.0
8.487,-0.631,-0.9,0.0
8.144,-0.608,-0.909,0.0
7.838,-0.586,-0.918,0.0
9.815,-0.733,-0.871,3.0
9.385,-0.702,-0.884,0.0
8.938,-0.671,-0.891,0.0
8.564,-0.644,-0.902,0.0
8.209,-0.619,-0.909,0.0
7.884,-0.596,-0.917,0.0
9.871,-0.745,-0.868,2.0
9.445,-0.714,-0.882,0.0
8.996,-0.682,-0.889,0.0
8.604,-0.654,-0.898,0.0
8.24,-0.628,-0.906,0.0
7.941,-0.607,-0.916,0.0
9.945,-0.758,-0.866,2.0
9.511,-0.727,-0.88,0.0
9.096,-0.697,-0.891,0.0
8.658,-0.665,-0.896,0.0
8.325,-0.641,-0.908,0.0
7.995,-0.617,-0.915,0.0
10.024,-0.772,-0.864,1.0
9.605,-0.741,-0.88,0.0
9.157,-0.708,-0.889,0.0
8.725,-0.676,-0.895,0.0
8.354,-0.649,-0.903,0.0
8.043,-0.626,-0.913,0.0
10.133,-0.787,-0.864,0.0
9.705,-0.755,-0.88,0.0
9.223,-0.719,-0.887,0.0
8.812,-0.689,-0.896,0.0
8.443,-0.661,-0.904,0.0
8.099,-0.636,-0.912,0.0
10.265,-0.804,-0.866,0.0
9.773,-0.767,-0.877,2.0
9.308,-0.732,-0.886,0.0
8.886,-0.7,-0.895,0.0
8.494,-0.671,-0.902,0.0
8.16,-0.646,-0.911,0.0
10.364,-0.819,-0.864,0.0
9.817,-0.777,-0.871,3.0
9.398,-0.745,-0.885,0.0
8.955,-0.711,-0.893,0.0
8.576,-0.683,-0.902,0.0
8.226,-0.656,-0.909,0.0
10.474,-0.834,-0.862,0.0
9.897,-0.789,-0.868,2.0
9.5,-0.759,-0.885,0.0
9.046,-0.724,-0.892,0.0
8.643,-0.693,-0.899,0.0
8.274,-0.665,-0.906,0.0
10.569,-0.847,-0.859,0.0
9.985,-0.802,-0.865,1.0
9.573,-0.77,-0.881,0.0
9.127,-0.735,-0.89,0.0
8.715,-0.703,-0.897,0.0
8.348,-0.675,-0.905,0.0
10.676,-0.861,-0.856,0.0
10.103,-0.816,-0.864,0.0
9.685,-0.784,-0.881,0.0
9.22,-0.748,-0.889,0.0
8.804,-0.715,-0.897,0.0
8.427,-0.686,-0.904,0.0
10.811,-0.878,-0.855,0.0
10.26,-0.834,-0.866,0.0
9.762,-0.795,-0.877,2.0
9.317,-0.76,-0.888,0.0
8.891,-0.726,-0.895,0.0
8.503,-0.696,-0.902,0.0
10.942,-0.893,-0.852,0.0
10.379,-0.849,-0.864,0.0
9.829,-0.805,-0.871,2.0
9.397,-0.771,-0.885,0.0
8.989,-0.738,-0.895,0.0
8.593,-0.707,-0.902,0.0
11.05,-0.907,-0.848,0.0
10.502,-0.863,-0.862,0.0
9.921,-0.816,-0.868,2.0
9.51,-0.784,-0.884,0.0
9.081,-0.749,-0.893,0.0
8.669,-0.716,-0.899,0.0
11.191,-0.923,-0.846,0.0
10.623,-0.877,-0.859,0.0
10.038,-0.83,-0.866,0.0
9.605,-0.795,-0.881,0.0
9.177,-0.76,-0.891,0.0
8.755,-0.727,-0.898,0.0
11.338,-0.939,-0.843,0.0
10.748,-0.891,-0.857,0.0
10.203,-0.847,-0.868,0.0
9.741,-0.809,-0.882,1.0
9.255,-0.77,-0.887,0.0
8.855,-0.738,-0.897,0.0
11.481,-0.954,-0.839,2.0
10.891,-0.906,-0.854,0.0
10.333,-0.86,-0.866,0.0
9.792,-0.816,-0.874,2.0
9.377,-0.783,-0.887,0.0
8.95,-0.748,-0.895,0.0
11.61,-0.968,-0.834,1.0
11.046,-0.922,-0.852,0.0
10.47,-0.874,-0.864,0.0
9.904,-0.828,-0.871,2.0
9.487,-0.794,-0.885,0.0
9.061,-0.759,-0.894,0.0
11.756,-0.983,-0.829,1.0
11.176,-0.935,-0.848,0.0
10.584,-0.886,-0.86,0.0
9.998,-0.838,-0.867,0.0
9.601,-0.805,-0.884,0.0
9.17,-0.77,-0.893,0.0
11.929,-0.999,-0.826,1.0
11.327,-0.95,-0.845,2.0
10.727,-0.9,-0.857,0.0
10.165,-0.853,-0.868,0.0
9.739,-0.818,-0.883,1.0
9.263,-0.779,-0.89,0.0
12.081,-1.014,-0.821,0.0
11.446,-0.961,-0.839,1.0
10.874,-0.914,-0.855,0.0
10.334,-0.869,-0.868,0.0
9.8,-0.825,-0.876,2.0
9.362,-0.788,-0.887,0.0
12.28,-1.032,-0.818,0.0
11.601,-0.975,-0.834,0.0
11.018,-0.927,-0.851,0.0
10.469,-0.881,-0.865,0.0
9.906,-0.834,-0.872,2.0
9.496,-0.8,-0.886,0.0
12.472,-1.049,-0.814,0.0
11.784,-0.991,-0.831,0.0
11.177,-0.941,-0.848,1.0
10.605,-0.893,-0.862,0.0
10.024,-0.844,-0.868,0.0
9.621,-0.811,-0.885,0.0
12.684,-1.067,-0.81,0.0
11.957,-1.006,-0.827,1.0
11.316,-0.952,-0.843,2.0
10.768,-0.907,-0.86,0.0
10.223,-0.861,-0.871,0.0
9.756,-0.822,-0.883,2.0
12.883,-1.083,-0.805,0.0
12.13,-1.02,-0.822,0.0
11.468,-0.965,-0.838,1.0
10.909,-0.918,-0.856,0.0
10.361,-0.872,-0.868,0.0
9.824,-0.827,-0.875,2.0
13.141,-1.104,-0.802,0.0
12.316,-1.035,-0.817,0.0
11.646,-0.979,-0.835,0.0
11.09,-0.932,-0.855,0.0
10.5,-0.883,-0.865,0.0
9.935,-0.835,-0.871,2.0
13.372,-1.122,-0.798,1.0
12.543,-1.052,-0.815,0.0
11.847,-0.994,-0.832,1.0
11.239,-0.943,-0.85,1.0
10.667,-0.895,-0.863,0.0
10.1,-0.848,-0.871,0.0
13.6,-1.139,-0.792,2.0
12.74,-1.067,-0.809,0.0
12.007,-1.005,-0.826,1.0
11.37,-0.952,-0.843,2.0
10.803,-0.905,-0.859,0.0
10.284,-0.861,-0.872,0.0
13.8,-1.153,-0.783,1.0
12.971,-1.084,-0.805,0.0
12.176,-1.017,-0.82,0.0
11.535,-0.963,-0.839,1.0
10.976,-0.917,-0.856,0.0
10.416,-0.87,-0.868,0.0
13.983,-1.165,-0.773,0.0
13.243,-1.103,-0.802,1.0
12.42,-1.034,-0.818,0.0
11.734,-0.977,-0.836,1.0
11.133,-0.927,-0.852,0.0
10.581,-0.881,-0.866,0.0
14.249,-1.183,-0.767,0.0
13.477,-1.119,-0.797,1.0
12.637,-1.048,-0.814,0.0
11.906,-0.987,-0.831,1.0
11.306,-0.937,-0.849,0.0
10.723,-0.889,-0.862,0.0
14.645,-1.211,-0.767,0.0
13.699,-1.132,-0.789,2.0
12.868,-1.063,-0.809,0.0
12.088,-0.998,-0.825,1.0
11.497,-0.949,-0.846,0.0
10.891,-0.899,-0.859,0.0
15.092,-1.243,-0.768,0.0
13.903,-1.144,-0.781,1.0
13.091,-1.077,-0.804,0.0
12.285,-1.01,-0.821,0.0
11.668,-0.958,-0.841,1.0
11.065,-0.908,-0.856,0.0
15.386,-1.26,-0.76,0.0
14.143,-1.158,-0.773,0.0
13.346,-1.092,-0.8,1.0
12.492,-1.021,-0.816,0.0
11.84,-0.967,-0.836,1.0
11.228,-0.917,-0.852,0.0
15.711,-1.28,-0.753,0.0
14.484,-1.179,-0.77,0.0
13.626,-1.108,-0.796,1.0
12.749,-1.036,-0.813,0.0
12.027,-0.977,-0.831,2.0
11.393,-0.924,-0.847,0.0
16.066,-1.301,-0.746,0.0
14.667,-1.186,-0.758,0.0
13.822,-1.117,-0.787,3.0
12.975,-1.047,-0.808,0.0
12.207,-0.985,-0.825,2.0
11.587,-0.934,-0.844,0.0
16.292,-1.31,-0.731,1.0
15.103,-1.213,-0.757,0.0
14.005,-1.124,-0.776,2.0
13.224,-1.06,-0.804,0.0
12.384,-0.992,-0.818,1.0
11.78,-0.942,-0.84,0.0
16.4,-1.309,-0.712,1.0
15.625,-1.246,-0.76,0.0
14.368,-1.144,-0.775,1.0
13.456,-1.07,-0.797,1.0
12.598,-1.001,-0.813,1.0
11.959,-0.949,-0.835,0.0
17.078,-1.353,-0.716,0.0
15.919,-1.259,-0.75,0.0
14.677,-1.159,-0.769,1.0
13.748,-1.085,-0.794,1.0
12.835,-1.011,-0.809,0.0
12.175,-0.958,-0.832,0.0
17.642,-1.386,-0.713,1.0
16.288,-1.277,-0.743,0.0
14.978,-1.173,-0.762,1.0
13.984,-1.094,-0.787,2.0
13.124,-1.025,-0.807,0.0
12.371,-0.965,-0.826,0.0
18.036,-1.404,-0.701,0.0
16.379,-1.273,-0.723,0.0
15.307,-1.187,-0.756,1.0
14.293,-1.107,-0.782,1.0
13.402,-1.037,-0.804,1.0
12.607,-0.974,-0.823,1.0
18.5,-1.426,-0.692,0.0
16.981,-1.306,-0.724,0.0
15.653,-1.202,-0.75,1.0
14.561,-1.116,-0.775,3.0
13.574,-1.039,-0.794,1.0
12.827,-0.98,-0.818,1.0
18.978,-1.447,-0.681,1.0
17.449,-1.328,-0.718,0.0
15.961,-1.213,-0.74,5.0
14.808,-1.123,-0.766,1.0
13.832,-1.047,-0.789,1.0
13.066,-0.987,-0.814,1.0
19.489,-1.47,-0.67,0.0
17.901,-1.347,-0.71,0.0
16.198,-1.217,-0.727,2.0
15.194,-1.139,-0.764,1.0
14.083,-1.054,-0.782,0.0
13.3,-0.993,-0.808,2.0
20.078,-1.496,-0.661,0.0
18.311,-1.362,-0.699,1.0
16.614,-1.233,-0.721,0.0
15.588,-1.154,-0.76,2.0
14.452,-1.068,-0.781,0.0
13.543,-0.999,-0.803,1.0
20.645,-1.519,-0.649,1.0
18.77,-1.378,-0.688,0.0
17.039,-1.248,-0.714,0.0
15.892,-1.161,-0.751,9.0
14.698,-1.072,-0.772,0.0
13.782,-1.003,-0.796,1.0
21.311,-1.547,-0.638,1.0
19.273,-1.396,-0.678,0.0
17.635,-1.274,-0.713,0.0
16.103,-1.161,-0.737,4.0
15.042,-1.082,-0.768,0.0
14.036,-1.007,-0.79,2.0
21.903,-1.568,-0.623,1.0
19.778,-1.412,-0.667,0.0
18.096,-1.289,-0.705,0.0
16.597,-1.179,-0.736,2.0
15.352,-1.088,-0.761,0.0
14.33,-1.013,-0.786,1.0
22.57,-1.593,-0.61,1.0
20.383,-1.434,-0.658,0.0
18.511,-1.299,-0.695,0.0
16.84,-1.179,-0.722,1.0
15.837,-1.105,-0.762,1.0
14.634,-1.019,-0.781,1.0
23.26,-1.616,-0.595,1.0
20.94,-1.45,-0.646,0.0
18.967,-1.31,-0.684,0.0
17.389,-1.197,-0.721,0.0
15.981,-1.098,-0.746,7.0
14.94,-1.023,-0.776,2.0
23.975,-1.638,-0.579,1.0
21.586,-1.47,-0.634,0.0
19.343,-1.314,-0.67,0.0
17.765,-1.203,-0.71,0.0
16.35,-1.104,-0.74,2.0
15.236,-1.026,-0.77,1.0
24.874,-1.67,-0.565,1.0
22.161,-1.483,-0.62,0.0
19.767,-1.319,-0.657,0.0
18.163,-1.208,-0.701,0.0
16.705,-1.108,-0.733,3.0
15.532,-1.026,-0.763,1.0
25.539,-1.684,-0.544,1.0
22.877,-1.503,-0.608,1.0
20.942,-1.372,-0.667,1.0
18.658,-1.218,-0.694,0.0
16.93,-1.101,-0.719,0.0
15.812,-1.025,-0.755,1.0
26.419,-1.709,-0.527,2.0
23.498,-1.515,-0.592,1.0
21.001,-1.349,-0.639,1.0
19.124,-1.224,-0.685,3.0
17.37,-1.108,-0.713,0.0
16.117,-1.024,-0.747,1.0
27.102,-1.719,-0.503,2.0
24.24,-1.531,-0.577,1.0
21.554,-1.357,-0.627,0.0
19.534,-1.225,-0.673,3.0
17.86,-1.116,-0.709,2.0
16.492,-1.026,-0.742,1.0
28.051,-1.742,-0.482,2.0
25.078,-1.551,-0.563,1.0
22.026,-1.357,-0.611,1.0
19.978,-1.226,-0.661,2.0
18.326,-1.12,-0.703,4.0
16.855,-1.026,-0.736,1.0
28.899,-1.756,-0.459,1.0
25.744,-1.558,-0.544,1.0
22.818,-1.375,-0.602,2.0
20.59,-1.236,-0.654,3.0
18.815,-1.124,-0.697,4.0
17.209,-1.024,-0.728,1.0
29.817,-1.77,-0.434,1.0
26.401,-1.56,-0.523,1.0
23.458,-1.38,-0.588,5.0
21.119,-1.237,-0.643,4.0
19.256,-1.123,-0.688,3.0
17.575,-1.021,-0.721,1.0
30.837,-1.786,-0.408,1.0
27.228,-1.57,-0.504,1.0
24.102,-1.383,-0.573,5.0
21.689,-1.239,-0.632,4.0
19.61,-1.115,-0.675,1.0
17.98,-1.018,-0.714,1.0
32.216,-1.819,-0.385,1.0
28.111,-1.579,-0.484,1.0
24.806,-1.387,-0.558,2.0
22.176,-1.234,-0.618,4.0
20.096,-1.113,-0.666,1.0
18.332,-1.01,-0.705,1.0
33.678,-1.85,-0.36,1.0
28.881,-1.579,-0.461,2.0
25.702,-1.398,-0.546,1.0
22.83,-1.235,-0.608,7.0
20.56,-1.107,-0.656,1.0
18.724,-1.003,-0.697,1.0
0.0,0.0,0.0,0.0
29.628,-1.574,-0.436,1.0
26.397,-1.395,-0.528,1.0
23.573,-1.239,-0.599,8.0
21.09,-1.103,-0.647,1.0
19.115,-0.994,-0.688,1.0
37.59,-1.949,-0.309,0.0
30.509,-1.573,-0.412,1.0
27.182,-1.394,-0.511,2.0
23.986,-1.223,-0.58,1.0
21.542,-1.093,-0.635,1.0
19.509,-0.984,-0.679,1.0
40.063,-2.014,-0.282,0.0
31.913,-1.595,-0.394,1.0
28.154,-1.399,-0.496,7.0
24.802,-1.225,-0.571,1.0
22.132,-1.087,-0.627,1.0
19.925,-0.973,-0.67,1.0
0.0,0.0,0.0,0.0
33.287,-1.61,-0.372,4.0
28.651,-1.377,-0.472,7.0
25.332,-1.21,-0.554,1.0
22.689,-1.077,-0.617,1.0
20.347,-0.96,-0.661,1.0
0.0,0.0,0.0,0.0
33.968,-1.587,-0.341,3.0
29.351,-1.362,-0.45,2.0
26.027,-1.2,-0.54,1.0
23.169,-1.061,-0.604,2.0
20.803,-0.947,-0.652,1.0
50.446,-2.287,-0.183,1.0
37.784,-1.701,-0.337,2.0
30.181,-1.349,-0.429,2.0
26.604,-1.181,-0.522,1.0
23.649,-1.043,-0.59,1.0
21.29,-0.932,-0.644,1.0
50.49,-2.201,-0.127,2.0
37.96,-1.643,-0.297,2.0
30.864,-1.326,-0.405,1.0
27.192,-1.16,-0.504,1.0
24.196,-1.024,-0.577,1.0
21.718,-0.913,-0.633,1.0
50.562,-2.116,-0.073,0.0
37.791,-1.569,-0.255,9.0
31.839,-1.312,-0.384,1.0
27.925,-1.142,-0.488,1.0
24.936,-1.012,-0.569,1.0
22.206,-0.894,-0.625,1.0
37.806,-1.514,-0.015,8.0
37.789,-1.501,-0.216,157.0
33.134,-1.306,-0.366,1.0
28.543,-1.116,-0.47,2.0
25.416,-0.986,-0.554,1.0
22.703,-0.873,-0.615,1.0
40.136,-1.535,0.024,2.0
40.14,-1.523,-0.189,154.0
37.719,-1.419,-0.378,0.0
29.135,-1.086,-0.45,1.0
25.951,-0.959,-0.539,1.0
23.173,-0.849,-0.605,2.0
0.0,0.0,0.0,0.0
51.405,-1.855,-0.191,0.0
36.556,-1.307,-0.331,0.0
29.833,-1.057,-0.432,1.0
26.509,-0.931,-0.525,1.0
23.581,-0.82,-0.593,2.0
0.0,0.0,0.0,0.0
0.0,0.0,0.0,0.0
0.0,0.0,0.0,0.0
30.353,-1.019,-0.411,1.0
27.01,-0.898,-0.51,1.0
24.016,-0.79,-0.582,1.0
0.0,0.0,0.0,0.0
0.0,0.0,0.0,0.0
40.307,-1.291,-0.29,5.0
31.227,-0.99,-0.395,1.0
27.546,-0.864,-0.495,1.0
24.594,-0.763,-0.574,1.0
0.0,0.0,0.0,0.0
0.0,0.0,0.0,0.0
40.206,-1.211,-0.254,24.0
32.27,-0.961,-0.379,1.0
28.147,-0.829,-0.482,2.0
25.104,-0.731,-0.564,1.0
40.227,-1.162,0.21,44.0
40.201,-1.147,-0.004,67.0
40.383,-1.139,-0.221,25.0
32.805,-0.914,-0.358,1.0
28.641,-0.788,-0.466,1.0
25.483,-0.692,-0.551,1.0
40.181,-1.083,0.243,61.0
40.564,-1.079,0.028,40.0
40.995,-1.077,-0.191,158.0
34.067,-0.883,-0.344,0.0
29.175,-0.746,-0.451,1.0
25.908,-0.654,-0.54,1.0
40.265,-1.006,0.276,2.0
40.281,-0.993,0.059,1.0
40.292,-0.979,-0.156,81.0
35.127,-0.841,-0.328,0.0
29.556,-0.698,-0.434,1.0
26.396,-0.614,-0.53,2.0
40.31,-0.927,0.307,150.0
40.277,-0.913,0.09,6.0
0.0,0.0,0.0,0.0
40.184,-0.882,-0.345,0.0
30.006,-0.648,-0.418,1.0
26.723,-0.568,-0.516,1.0
40.289,-0.846,0.336,31.0
66.854,-1.38,0.199,1.0
0.0,0.0,0.0,0.0
40.143,-0.8,-0.316,2.0
30.492,-0.597,-0.404,1.0
27.077,-0.521,-0.504,1.0
40.238,-0.764,0.364,55.0
40.269,-0.75,0.147,57.0
40.298,-0.736,-0.068,69.0
40.174,-0.719,-0.288,10.0
31.04,-0.545,-0.39,1.0
27.46,-0.473,-0.493,1.0
123.968,-2.101,1.204,8.0
40.295,-0.669,0.174,1.0
54.807,-0.89,-0.057,0.0
40.253,-0.639,-0.263,1.0
31.616,-0.491,-0.377,1.0
27.946,-0.424,-0.484,1.0
123.634,-1.843,1.279,11.0
81.989,-1.193,0.406,1.0
57.844,-0.821,-0.025,2.0
42.39,-0.586,-0.251,3.0
32.248,-0.435,-0.365,1.0
28.359,-0.373,-0.474,2.0
80.059,-1.028,0.875,7.0
78.4,-0.979,0.434,10.0
60.809,-0.738,0.008,3.0
43.38,-0.511,-0.232,2.0
32.986,-0.377,-0.355,1.0
28.787,-0.318,-0.465,5.0
79.458,-0.856,0.913,160.0
77.683,-0.808,0.473,11.0
54.974,-0.552,0.037,5.0
43.875,-0.426,-0.211,2.0
33.623,-0.314,-0.344,1.0
29.071,-0.261,-0.455,3.0
79.451,-0.691,0.954,183.0
77.243,-0.644,0.51,11.0
54.999,-0.439,0.065,6.0
0.0,0.0,0.0,0.0
33.911,-0.247,-0.33,1.0
29.425,-0.204,-0.446,2.0
79.459,-0.526,0.993,163.0
79.246,-0.497,0.561,34.0
55.911,-0.33,0.092,12.0
41.268,-0.229,-0.159,4.0
34.293,-0.178,-0.318,0.0
29.58,-0.143,-0.435,2.0
79.461,-0.358,1.029,151.0
0.0,0.0,0.0,0.0
55.754,-0.211,0.116,29.0
41.319,-0.142,-0.141,18.0
37.219,-0.115,-0.329,1.0
29.794,-0.081,-0.425,2.0
79.468,-0.19,1.062,151.0
79.378,-0.163,0.629,119.0
55.804,-0.095,0.139,29.0
0.0,0.0,0.0,0.0
38.173,-0.038,-0.323,2.0
30.034,-0.019,-0.417,1.0
79.458,-0.022,1.092,151.0
79.426,0.004,0.659,124.0
59.021,0.024,0.168,6.0
43.793,0.033,-0.117,6.0
38.129,0.042,-0.309,3.0
30.267,0.044,-0.41,1.0
79.467,0.145,1.119,151.0
79.44,0.172,0.685,150.0
59.108,0.149,0.188,7.0
43.85,0.126,-0.103,11.0
37.87,0.123,-0.295,16.0
30.473,0.109,-0.404,2.0
59.321,0.235,0.853,97.0
59.311,0.256,0.529,105.0
55.009,0.257,0.191,59.0
44.454,0.223,-0.092,19.0
37.795,0.203,-0.284,6.0
30.677,0.175,-0.398,2.0
48.138,0.293,0.705,64.0
48.116,0.31,0.442,52.0
48.099,0.327,0.179,44.0
0.0,0.0,0.0,0.0
37.672,0.282,-0.274,9.0
30.767,0.242,-0.392,2.0
48.098,0.397,0.715,123.0
48.059,0.414,0.452,106.0
48.027,0.43,0.189,97.0
44.001,0.41,-0.071,19.0
37.631,0.363,-0.267,13.0
31.079,0.311,-0.39,1.0
48.112,0.501,0.725,101.0
48.091,0.517,0.461,91.0
48.028,0.533,0.197,89.0
44.711,0.512,-0.064,20.0
37.606,0.444,-0.26,13.0
31.11,0.378,-0.386,1.0
126.841,1.593,1.931,27.0
79.787,1.029,0.777,12.0
48.088,0.637,0.204,43.0
44.893,0.61,-0.059,20.0
37.492,0.523,-0.255,13.0
31.354,0.447,-0.385,1.0
126.924,1.864,1.946,44.0
89.603,1.347,0.882,9.0
60.466,0.93,0.263,34.0
45.164,0.71,-0.055,23.0
37.412,0.601,-0.251,20.0
31.282,0.514,-0.381,1.0
126.835,2.136,1.954,35.0
89.614,1.54,0.889,8.0
60.365,1.057,0.267,34.0
0.0,0.0,0.0,0.0
37.261,0.678,-0.248,18.0
31.371,0.581,-0.381,1.0
0.0,0.0,0.0,0.0
80.592,1.555,0.802,10.0
0.0,0.0,0.0,0.0
0.0,0.0,0.0,0.0
37.086,0.754,-0.246,24.0
31.411,0.649,-0.381,2.0
89.901,1.896,1.389,8.0
0.0,0.0,0.0,0.0
59.769,1.301,0.265,34.0
0.0,0.0,0.0,0.0
37.013,0.83,-0.247,23.0
31.389,0.715,-0.382,2.0
106.238,2.467,1.638,6.0
78.528,1.852,0.777,18.0
59.383,1.419,0.26,33.0
45.082,1.092,-0.055,7.0
36.906,0.906,-0.248,21.0
31.181,0.776,-0.382,2.0
100.303,2.543,1.539,9.0
78.294,2.012,0.769,19.0
58.844,1.531,0.253,32.0
42.628,1.123,-0.056,17.0
36.761,0.981,-0.251,20.0
31.082,0.84,-0.384,1.0
0.0,0.0,0.0,0.0
78.118,2.171,0.758,27.0
58.998,1.66,0.246,27.0
44.963,1.279,-0.065,4.0
36.615,1.054,-0.255,18.0
31.035,0.904,-0.388,2.0
100.547,2.976,1.516,2.0
78.063,2.335,0.745,27.0
58.937,1.782,0.236,17.0
40.673,1.243,-0.065,15.0
36.482,1.128,-0.26,12.0
30.686,0.958,-0.389,2.0
100.711,3.192,1.5,2.0
78.0,2.497,0.73,34.0
58.653,1.897,0.223,9.0
42.65,1.393,-0.077,5.0
36.286,1.197,-0.267,12.0
30.622,1.02,-0.395,2.0
100.776,3.404,1.478,2.0
77.889,2.656,0.711,48.0
54.836,1.888,0.196,28.0
41.177,1.43,-0.084,18.0
36.147,1.267,-0.275,10.0
30.49,1.079,-0.401,2.0
100.97,3.622,1.455,3.0
77.799,2.815,0.689,52.0
54.479,1.988,0.18,28.0
40.724,1.499,-0.095,25.0
36.025,1.337,-0.284,9.0
30.285,1.134,-0.407,2.0
101.048,3.833,1.426,2.0
77.633,2.968,0.664,32.0
54.451,2.099,0.163,28.0
40.288,1.566,-0.106,36.0
35.918,1.407,-0.295,7.0
29.998,1.185,-0.413,2.0
101.093,4.041,1.394,3.0
77.43,3.118,0.637,15.0
54.304,2.204,0.144,19.0
40.147,1.642,-0.12,48.0
35.828,1.476,-0.307,7.0
29.732,1.235,-0.42,2.0
96.434,4.051,1.294,8.0
0.0,0.0,0.0,0.0
54.178,2.309,0.123,7.0
39.957,1.715,-0.135,52.0
35.651,1.541,-0.319,7.0
29.461,1.283,-0.428,2.0
95.957,4.225,1.249,2.0
73.882,3.275,0.55,13.0
48.346,2.157,0.09,23.0
40.069,1.8,-0.152,26.0
35.6,1.61,-0.334,5.0
29.234,1.331,-0.437,2.0
96.176,4.426,1.21,5.0
73.619,3.41,0.515,14.0
0.0,0.0,0.0,0.0
36.68,1.721,-0.156,24.0
35.523,1.677,-0.349,0.0
28.936,1.375,-0.446,2.0
81.991,3.935,0.993,9.0
73.567,3.553,0.48,10.0
0.0,0.0,0.0,0.0
36.386,1.779,-0.172,42.0
32.722,1.609,-0.338,1.0
28.728,1.421,-0.457,1.0
81.921,4.093,0.951,10.0
73.493,3.692,0.442,8.0
42.779,2.161,0.018,17.0
36.128,1.836,-0.19,41.0
32.314,1.651,-0.35,2.0
25.017,1.286,-0.411,1.0
78.875,4.093,0.873,14.0
55.742,2.909,0.305,6.0
42.069,2.208,-0.005,17.0
35.787,1.888,-0.208,16.0
31.502,1.671,-0.359,2.0
24.753,1.32,-0.421,4.0
78.092,4.204,0.819,21.0
54.868,2.969,0.268,16.0
41.483,2.256,-0.029,17.0
35.629,1.947,-0.228,22.0
30.856,1.696,-0.37,2.0
24.172,1.335,-0.426,5.0
76.123,4.241,0.753,11.0
54.583,3.057,0.234,28.0
41.352,2.327,-0.054,17.0
35.43,2.004,-0.249,12.0
30.578,1.738,-0.386,2.0
23.601,1.348,-0.43,5.0
75.574,4.354,0.699,30.0
54.489,3.154,0.198,28.0
40.591,2.361,-0.079,49.0
35.323,2.064,-0.271,8.0
30.119,1.768,-0.4,1.0
22.91,1.351,-0.433,5.0
74.398,4.424,0.638,26.0
0.0,0.0,0.0,0.0
40.16,2.41,-0.106,36.0
35.254,2.125,-0.295,8.0
29.608,1.793,-0.414,1.0
22.453,1.366,-0.44,4.0
33.456,2.051,0.263,112.0
33.454,2.06,0.075,87.0
33.17,2.051,-0.111,2.0
32.968,2.047,-0.299,1.0
29.178,1.82,-0.429,2.0
21.934,1.374,-0.446,4.0
73.565,4.645,0.525,12.0
0.0,0.0,0.0,0.0
36.262,2.309,-0.149,31.0
35.111,2.244,-0.345,0.0
25.1,1.611,-0.388,2.0
21.434,1.381,-0.452,4.0
58.137,3.774,0.37,16.0
0.0,0.0,0.0,0.0
36.065,2.36,-0.176,33.0
32.161,2.113,-0.341,1.0
24.83,1.638,-0.403,5.0
21.081,1.396,-0.461,5.0
57.843,3.858,0.322,8.0
41.928,2.806,-0.002,29.0
35.479,2.384,-0.202,18.0
31.182,2.103,-0.356,1.0
24.087,1.631,-0.411,5.0
20.723,1.408,-0.47,4.0
54.725,3.744,0.26,30.0
41.238,2.832,-0.036,48.0
35.318,2.434,-0.23,17.0
30.524,2.111,-0.374,2.0
23.325,1.619,-0.418,5.0
20.374,1.419,-0.48,3.0
54.193,3.8,0.211,24.0
41.044,2.888,-0.071,31.0
35.062,2.476,-0.259,10.0
30.024,2.127,-0.394,2.0
22.555,1.603,-0.424,4.0
19.943,1.423,-0.487,3.0
47.59,3.417,0.143,22.0
38.835,2.797,-0.102,25.0
34.964,2.527,-0.289,10.0
29.458,2.136,-0.413,2.0
22.049,1.604,-0.434,4.0
19.521,1.425,-0.494,3.0
29.635,2.176,0.062,9.0
29.668,2.185,-0.104,13.0
29.79,2.201,-0.273,21.0
25.15,1.864,-0.375,1.0
21.494,1.598,-0.443,4.0
19.158,1.429,-0.503,3.0
29.551,2.217,0.035,11.0
29.647,2.232,-0.132,18.0
29.706,2.242,-0.301,21.0
24.751,1.874,-0.393,5.0
21.014,1.596,-0.453,4.0
18.774,1.43,-0.511,3.0
29.565,2.265,0.006,24.0
29.641,2.278,-0.161,28.0
29.716,2.29,-0.329,26.0
23.795,1.839,-0.401,5.0
20.556,1.593,-0.463,3.0
18.357,1.427,-0.517,3.0
29.452,2.302,-0.022,10.0
29.316,2.298,-0.188,20.0
29.368,2.308,-0.354,21.0
22.857,1.801,-0.408,5.0
20.103,1.589,-0.473,3.0
17.975,1.425,-0.525,3.0
29.333,2.337,-0.051,14.0
29.278,2.339,-0.217,25.0
29.239,2.342,-0.383,18.0
22.183,1.781,-0.418,4.0
19.671,1.584,-0.483,3.0
17.641,1.424,-0.533,2.0
29.304,2.378,-0.081,23.0
29.251,2.379,-0.247,23.0
29.222,2.383,-0.412,7.0
21.599,1.766,-0.43,4.0
19.244,1.577,-0.492,3.0
17.314,1.423,-0.541,2.0
29.312,2.421,-0.112,16.0
29.276,2.423,-0.278,23.0
24.695,2.049,-0.375,5.0
21.071,1.753,-0.442,4.0
18.825,1.57,-0.502,3.0
16.9,1.413,-0.547,2.0
35.151,2.952,-0.172,6.0
31.557,2.656,-0.334,1.0
23.975,2.023,-0.39,5.0
20.537,1.737,-0.453,4.0
18.381,1.558,-0.51,3.0
16.599,1.41,-0.555,2.0
34.893,2.978,-0.209,9.0
30.643,2.621,-0.358,1.0
22.974,1.969,-0.399,5.0
20.133,1.73,-0.466,3.0
17.929,1.544,-0.517,3.0
13.904,1.2,-0.48,10.0
34.769,3.014,-0.247,9.0
30.03,2.608,-0.384,2.0
22.292,1.94,-0.412,4.0
19.616,1.711,-0.476,3.0
13.913,1.216,-0.417,12.0
13.837,1.212,-0.494,19.0
34.719,3.055,-0.286,8.0
13.937,1.228,-0.194,0.0
21.575,1.906,-0.423,1.0
13.869,1.227,-0.352,10.0
13.873,1.231,-0.432,15.0
13.803,1.227,-0.508,17.0
13.908,1.241,-0.13,9.0
13.895,1.242,-0.209,14.0
13.895,1.244,-0.289,13.0
13.833,1.241,-0.368,18.0
13.831,1.244,-0.447,22.0
13.768,1.241,-0.523,16.0
13.887,1.256,-0.147,26.0
13.855,1.255,-0.225,25.0
13.845,1.257,-0.304,17.0
13.812,1.256,-0.383,19.0
13.807,1.258,-0.462,24.0
13.748,1.255,-0.539,15.0
13.87,1.271,-0.163,30.0
13.844,1.271,-0.242,31.0
13.815,1.27,-0.32,25.0
13.798,1.271,-0.4,20.0
13.783,1.272,-0.478,24.0
13.698,1.267,-0.553,12.0
13.842,1.284,-0.179,31.0
13.83,1.285,-0.258,36.0
13.808,1.285,-0.336,32.0
13.779,1.285,-0.416,21.0
13.755,1.285,-0.494,23.0
13.601,1.273,-0.566,10.0
13.832,1.298,-0.196,35.0
13.812,1.298,-0.275,38.0
13.801,1.3,-0.353,34.0
13.765,1.298,-0.432,26.0
13.734,1.298,-0.51,23.0
13.522,1.28,-0.579,10.0
13.818,1.311,-0.213,38.0
13.802,1.312,-0.291,39.0
13.787,1.313,-0.37,34.0
13.754,1.311,-0.449,27.0
13.719,1.31,-0.526,16.0
13.374,1.279,-0.59,10.0
13.804,1.324,-0.229,37.0
13.783,1.324,-0.308,42.0
13.772,1.325,-0.386,35.0
13.741,1.324,-0.465,26.0
13.698,1.322,-0.542,17.0
13.272,1.283,-0.602,10.0
13.794,1.336,-0.246,35.0
13.781,1.337,-0.325,83.0
13.763,1.337,-0.403,35.0
13.731,1.336,-0.483,22.0
13.646,1.33,-0.558,11.0
13.106,1.279,-0.611,8.0
13.781,1.348,-0.264,40.0
13.777,1.349,-0.342,131.0
13.767,1.35,-0.421,86.0
13.72,1.347,-0.499,16.0
13.517,1.329,-0.57,11.0
13.06,1.286,-0.625,9.0
13.785,1.361,-0.281,56.0
13.775,1.361,-0.36,150.0
13.764,1.362,-0.438,102.0
13.711,1.358,-0.517,13.0
13.376,1.327,-0.581,9.0
13.065,1.298,-0.642,11.0
13.782,1.372,-0.299,81.0
13.768,1.372,-0.377,150.0
13.75,1.372,-0.456,36.0
13.674,1.366,-0.533,9.0
13.249,1.325,-0.592,11.0
13.023,1.304,-0.657,9.0
13.78,1.383,-0.317,68.0
13.762,1.382,-0.395,86.0
13.752,1.383,-0.473,32.0
13.586,1.368,-0.547,9.0
13.143,1.325,-0.605,8.0
12.775,1.29,-0.661,3.0
13.774,1.392,-0.334,48.0
13.77,1.393,-0.413,37.0
13.726,1.391,-0.491,19.0
13.497,1.369,-0.561,12.0
13.075,1.328,-0.619,9.0
12.5,1.271,-0.663,2.0
13.777,1.402,-0.352,39.0
13.764,1.402,-0.431,35.0
13.716,1.399,-0.508,12.0
13.339,1.362,-0.572,10.0
13.08,1.337,-0.636,11.0
12.288,1.258,-0.668,1.0
13.773,1.411,-0.37,31.0
13.756,1.411,-0.449,29.0
13.696,1.406,-0.525,10.0
13.241,1.361,-0.585,11.0
13.034,1.341,-0.651,10.0
12.07,1.243,-0.672,2.0
13.765,1.419,-0.388,29.0
13.751,1.419,-0.466,25.0
13.659,1.411,-0.542,11.0
13.14,1.358,-0.598,8.0
12.851,1.33,-0.659,3.0
11.836,1.226,-0.675,2.0
13.776,1.428,-0.406,32.0
13.742,1.426,-0.484,27.0
13.578,1.41,-0.556,9.0
13.054,1.357,-0.611,8.0
12.582,1.309,-0.661,2.0
11.627,1.211,-0.678,2.0
13.773,1.435,-0.424,36.0
13.725,1.431,-0.501,23.0
13.442,1.403,-0.568,8.0
13.069,1.365,-0.629,9.0
12.321,1.288,-0.664,2.0
11.408,1.194,-0.68,1.0
13.772,1.441,-0.442,35.0
13.708,1.436,-0.519,16.0
13.277,1.392,-0.579,9.0
13.027,1.367,-0.644,8.0
12.13,1.274,-0.669,1.0
11.211,1.178,-0.683,1.0
13.767,1.447,-0.46,35.0
13.683,1.439,-0.536,13.0
13.2,1.389,-0.592,10.0
12.857,1.354,-0.652,4.0
11.863,1.251,-0.67,2.0
11.008,1.161,-0.685,1.0
13.768,1.453,-0.478,31.0
13.635,1.44,-0.552,10.0
13.079,1.382,-0.604,8.0
12.62,1.334,-0.657,3.0
11.682,1.236,-0.675,2.0
10.86,1.15,-0.69,1.0
13.738,1.454,-0.495,23.0
13.498,1.43,-0.564,10.0
13.072,1.385,-0.621,10.0
12.371,1.312,-0.66,3.0
11.493,1.22,-0.679,1.0
10.675,1.134,-0.692,1.0
13.723,1.457,-0.512,20.0
13.29,1.412,-0.572,12.0
13.069,1.389,-0.638,9.0
12.188,1.296,-0.666,1.0
11.254,1.197,-0.68,1.0
10.494,1.117,-0.694,2.0
13.697,1.458,-0.529,16.0
13.194,1.405,-0.585,12.0
12.958,1.38,-0.649,5.0
11.948,1.273,-0.668,1.0
11.057,1.179,-0.682,1.0
10.31,1.1,-0.696,2.0
13.647,1.455,-0.544,12.0
13.095,1.397,-0.598,8.0
12.681,1.353,-0.652,4.0
11.717,1.251,-0.671,2.0
10.894,1.164,-0.686,1.0
10.174,1.088,-0.7,2.0
13.495,1.442,-0.556,12.0
13.087,1.398,-0.614,9.0
12.452,1.331,-0.656,2.0
11.579,1.238,-0.678,1.0
10.752,1.15,-0.691,1.0
10.033,1.074,-0.703,2.0
13.291,1.421,-0.564,18.0
13.07,1.398,-0.63,11.0
12.266,1.313,-0.662,2.0
11.319,1.212,-0.677,1.0
10.567,1.132,-0.693,1.0
9.908,1.062,-0.707,2.0
13.223,1.415,-0.578,16.0
13.024,1.394,-0.644,8.0
12.051,1.29,-0.665,1.0
11.146,1.194,-0.681,1.0
10.382,1.112,-0.694,2.0
9.75,1.045,-0.708,1.0
13.167,1.41,-0.592,9.0
12.8,1.371,-0.649,4.0
11.836,1.268,-0.668,1.0
10.958,1.174,-0.683,1.0
10.245,1.098,-0.698,2.0
9.7,1.04,-0.716,1.0
13.101,1.403,-0.606,10.0
12.589,1.348,-0.654,2.0
11.652,1.248,-0.673,2.0
10.825,1.159,-0.688,1.0
10.093,1.081,-0.7,2.0
9.584,1.027,-0.72,1.0
13.084,1.4,-0.621,11.0
12.37,1.324,-0.658,2.0
11.458,1.226,-0.675,1.0
10.67,1.142,-0.691,1.0
9.979,1.068,-0.704,2.0
9.466,1.014,-0.723,1.0
13.068,1.397,-0.636,12.0
12.178,1.302,-0.663,2.0
11.254,1.203,-0.677,1.0
10.487,1.121,-0.692,1.0
9.834,1.052,-0.706,1.0
9.349,1.0,-0.725,1.0
12.944,1.382,-0.646,7.0
11.975,1.278,-0.666,1.0
11.073,1.182,-0.679,1.0
10.314,1.101,-0.693,2.0
9.726,1.039,-0.71,1.0
9.254,0.988,-0.729,1.0
12.722,1.356,-0.649,4.0
11.756,1.253,-0.668,2.0
10.916,1.163,-0.683,1.0
10.206,1.088,-0.698,2.0
9.662,1.03,-0.716,1.0
9.175,0.978,-0.733,1.0
12.521,1.332,-0.654,3.0
11.631,1.237,-0.674,2.0
10.806,1.149,-0.688,1.0
10.07,1.071,-0.7,2.0
9.572,1.018,-0.721,1.0
9.076,0.965,-0.736,1.0
12.344,1.309,-0.659,3.0
11.395,1.209,-0.673,1.0
10.616,1.126,-0.688,1.0
9.957,1.056,-0.704,2.0
9.459,1.003,-0.723,1.0
8.973,0.952,-0.738,0.0
12.173,1.288,-0.663,2.0
11.246,1.189,-0.677,1.0
10.484,1.108,-0.692,2.0
9.836,1.04,-0.706,1.0
9.344,0.988,-0.725,1.0
8.86,0.937,-0.739,1.0
11.955,1.26,-0.664,2.0
11.08,1.168,-0.68,1.0
10.336,1.089,-0.693,2.0
9.728,1.025,-0.709,2.0
9.272,0.977,-0.73,1.0
8.749,0.921,-0.739,1.0
11.799,1.239,-0.669,2.0
10.96,1.151,-0.684,1.0
10.234,1.074,-0.698,2.0
9.678,1.016,-0.716,1.0
9.184,0.964,-0.733,1.0
8.374,0.878,-0.716,1.0
11.638,1.217,-0.672,2.0
10.825,1.132,-0.687,1.0
10.114,1.057,-0.7,2.0
9.591,1.002,-0.72,1.0
9.108,0.951,-0.736,0.0
8.131,0.849,-0.704,2.0
11.481,1.195,-0.675,2.0
10.672,1.111,-0.688,1.0
9.996,1.04,-0.702,2.0
9.489,0.987,-0.722,1.0
8.986,0.934,-0.736,1.0
7.969,0.828,-0.698,3.0
11.314,1.172,-0.677,1.0
10.56,1.093,-0.692,2.0
9.892,1.024,-0.705,2.0
9.398,0.972,-0.725,1.0
8.893,0.92,-0.737,1.0
7.828,0.809,-0.694,4.0
11.183,1.152,-0.68,1.0
10.399,1.071,-0.692,2.0
9.784,1.007,-0.707,2.0
9.328,0.96,-0.729,1.0
8.818,0.907,-0.739,1.0
7.757,0.798,-0.695,4.0
11.062,1.133,-0.683,1.0
10.302,1.055,-0.695,2.0
9.711,0.994,-0.711,1.0
9.286,0.95,-0.734,0.0
8.742,0.894,-0.742,1.0
7.718,0.789,-0.699,4.0
10.929,1.113,-0.685,2.0
10.231,1.041,-0.7,2.0
9.655,0.982,-0.716,2.0
9.18,0.933,-0.734,0.0
8.469,0.86,-0.726,1.0
7.641,0.776,-0.699,4.0
10.809,1.093,-0.688,2.0
10.104,1.021,-0.701,2.0
9.599,0.969,-0.721,1.0
9.06,0.914,-0.733,1.0
8.261,0.833,-0.716,1.0
7.581,0.764,-0.701,3.0
10.706,1.075,-0.691,2.0
9.98,1.001,-0.701,2.0
9.53,0.956,-0.724,1.0
8.994,0.901,-0.736,1.0
8.025,0.804,-0.702,2.0
7.535,0.754,-0.703,4.0
10.603,1.057,-0.693,2.0
9.888,0.985,-0.703,3.0
9.452,0.941,-0.726,0.0
8.917,0.887,-0.737,1.0
7.899,0.785,-0.698,3.0
7.494,0.744,-0.705,4.0
10.508,1.039,-0.696,1.0
9.831,0.971,-0.707,3.0
9.35,0.923,-0.726,1.0
8.857,0.874,-0.739,1.0
7.842,0.773,-0.7,4.0
7.481,0.737,-0.71,4.0
10.374,1.017,-0.695,1.0
9.758,0.956,-0.71,2.0
9.288,0.909,-0.729,1.0
8.808,0.862,-0.742,1.0
7.788,0.761,-0.701,4.0
7.47,0.73,-0.715,4.0
10.282,1.0,-0.697,2.0
9.699,0.942,-0.713,2.0
9.251,0.898,-0.732,1.0
8.7,0.844,-0.74,0.0
7.75,0.751,-0.703,4.0
7.454,0.721,-0.719,4.0
10.217,0.984,-0.7,2.0
9.664,0.93,-0.717,2.0
9.18,0.883,-0.734,1.0
8.494,0.816,-0.728,0.0
7.711,0.74,-0.705,4.0
7.448,0.714,-0.724,4.0
10.157,0.969,-0.703,2.0
9.625,0.918,-0.721,1.0
9.12,0.868,-0.735,1.0
8.314,0.791,-0.718,1.0
7.68,0.73,-0.708,4.0
7.422,0.705,-0.726,4.0
10.064,0.951,-0.703,2.0
9.563,0.903,-0.722,1.0
9.056,0.854,-0.736,1.0
8.237,0.776,-0.717,1.0
7.638,0.718,-0.709,4.0
7.408,0.696,-0.73,4.0
10.012,0.936,-0.706,2.0
9.517,0.889,-0.725,1.0
9.029,0.842,-0.739,0.0
8.103,0.755,-0.711,2.0
7.592,0.707,-0.709,4.0
7.387,0.687,-0.732,4.0
9.937,0.919,-0.706,2.0
9.479,0.876,-0.728,1.0
8.991,0.83,-0.741,0.0
8.011,0.738,-0.707,3.0
7.546,0.695,-0.709,4.0
7.386,0.679,-0.736,4.0
9.884,0.904,-0.708,2.0
9.425,0.861,-0.729,1.0
8.908,0.813,-0.739,0.0
7.966,0.726,-0.708,3.0
7.517,0.684,-0.711,4.0
7.357,0.669,-0.737,3.0
9.843,0.89,-0.71,2.0
9.401,0.849,-0.732,1.0
8.88,0.801,-0.742,1.0
7.929,0.714,-0.708,3.0
7.511,0.675,-0.714,4.0
7.354,0.66,-0.741,3.0
9.802,0.875,-0.712,2.0
9.369,0.836,-0.734,0.0
8.846,0.788,-0.743,1.0
7.895,0.702,-0.709,4.0
7.496,0.666,-0.716,4.0
7.36,0.653,-0.745,3.0
9.749,0.86,-0.713,2.0
9.322,0.821,-0.734,0.0
8.814,0.775,-0.744,1.0
7.875,0.691,-0.711,4.0
7.499,0.657,-0.719,5.0
7.351,0.644,-0.747,3.0
9.72,0.846,-0.715,2.0
9.28,0.807,-0.735,1.0
8.802,0.764,-0.747,1.0
7.862,0.681,-0.712,4.0
7.512,0.65,-0.723,4.0
7.353,0.635,-0.75,3.0
9.692,0.833,-0.716,2.0
9.25,0.793,-0.736,1.0
8.781,0.752,-0.748,1.0
7.868,0.672,-0.716,4.0
7.517,0.641,-0.727,4.0
7.359,0.627,-0.753,3.0
9.676,0.819,-0.718,2.0
9.228,0.78,-0.737,1.0
8.779,0.741,-0.751,1.0
7.845,0.661,-0.716,4.0
7.546,0.635,-0.732,4.0
7.361,0.618,-0.756,3.0
9.665,0.807,-0.72,2.0
9.211,0.768,-0.738,1.0
8.752,0.728,-0.751,0.0
7.85,0.652,-0.719,4.0
7.606,0.63,-0.74,4.0
7.374,0.61,-0.759,3.0
9.661,0.795,-0.722,2.0
9.198,0.755,-0.74,1.0
8.744,0.716,-0.753,0.0
7.872,0.644,-0.723,4.0
7.663,0.626,-0.747,4.0
7.389,0.602,-0.762,3.0
9.648,0.782,-0.724,2.0
9.191,0.743,-0.741,1.0
8.719,0.703,-0.752,1.0
7.891,0.635,-0.726,4.0
7.691,0.618,-0.751,4.0
7.393,0.593,-0.764,3.0
9.626,0.767,-0.724,2.0
9.187,0.731,-0.742,1.0
8.709,0.691,-0.753,1.0
7.93,0.628,-0.731,4.0
7.712,0.61,-0.754,3.0
7.406,0.584,-0.766,3.0
9.626,0.755,-0.725,2.0
9.201,0.72,-0.745,0.0
8.682,0.678,-0.751,1.0
7.959,0.62,-0.734,4.0
7.739,0.602,-0.758,4.0
7.406,0.575,-0.767,3.0
9.624,0.742,-0.726,2.0
9.189,0.707,-0.744,0.0
8.706,0.668,-0.754,1.0
7.972,0.611,-0.736,5.0
7.755,0.593,-0.76,4.0
7.426,0.566,-0.77,2.0
9.623,0.729,-0.726,2.0
9.176,0.694,-0.744,1.0
8.71,0.657,-0.755,1.0
7.999,0.602,-0.739,4.0
7.788,0.585,-0.763,4.0
7.424,0.556,-0.77,2.0
9.625,0.716,-0.726,2.0
9.192,0.683,-0.745,1.0
8.697,0.644,-0.754,2.0
8.043,0.594,-0.743,4.0
7.8,0.575,-0.764,3.0
7.439,0.547,-0.771,1.0
9.626,0.703,-0.726,2.0
9.195,0.67,-0.745,2.0
8.692,0.632,-0.753,2.0
8.101,0.587,-0.748,4.0
7.809,0.565,-0.765,2.0
7.463,0.538,-0.773,1.0
9.632,0.691,-0.726,3.0
9.208,0.658,-0.745,2.0
8.694,0.62,-0.752,2.0
8.21,0.584,-0.757,4.0
7.829,0.555,-0.766,2.0
7.496,0.53,-0.775,1.0
9.637,0.678,-0.725,4.0
9.217,0.646,-0.745,2.0
8.722,0.61,-0.753,3.0
8.268,0.576,-0.761,4.0
7.872,0.547,-0.769,1.0
7.512,0.521,-0.776,1.0
9.642,0.664,-0.724,4.0
9.238,0.635,-0.745,2.0
8.75,0.599,-0.754,4.0
8.314,0.568,-0.764,2.0
7.908,0.539,-0.771,1.0
7.544,0.513,-0.778,1.0
9.649,0.651,-0.722,4.0
9.273,0.624,-0.746,2.0
8.799,0.59,-0.756,5.0
8.351,0.559,-0.765,1.0
7.929,0.529,-0.771,1.0
7.593,0.505,-0.781,1.0
9.664,0.639,-0.721,3.0
9.304,0.613,-0.746,2.0
8.829,0.58,-0.757,3.0
8.386,0.549,-0.766,1.0
7.956,0.519,-0.771,1.0
7.667,0.499,-0.786,1.0
9.698,0.627,-0.72,2.0
9.37,0.604,-0.748,2.0
8.869,0.57,-0.757,3.0
8.414,0.539,-0.766,1.0
7.99,0.51,-0.772,1.0
7.76,0.494,-0.793,1.0
9.749,0.616,-0.721,2.0
9.432,0.594,-0.75,2.0
8.919,0.56,-0.758,1.0
8.454,0.529,-0.767,1.0
8.033,0.501,-0.773,1.0
7.876,0.49,-0.802,1.0
9.821,0.607,-0.723,2.0
9.476,0.583,-0.75,2.0
8.948,0.549,-0.757,1.0
8.488,0.519,-0.766,1.0
8.11,0.494,-0.777,1.0
8.015,0.487,-0.813,1.0
9.902,0.597,-0.724,2.0
9.512,0.572,-0.748,2.0
8.996,0.539,-0.757,1.0
8.525,0.509,-0.766,2.0
8.199,0.487,-0.782,1.0
8.155,0.483,-0.823,1.0
10.005,0.589,-0.727,2.0
9.556,0.56,-0.747,2.0
9.025,0.527,-0.756,2.0
8.576,0.499,-0.766,2.0
8.328,0.483,-0.79,1.0
8.346,0.482,-0.838,1.0
10.115,0.581,-0.73,2.0
9.589,0.548,-0.745,2.0
9.082,0.517,-0.755,1.0
8.636,0.49,-0.767,2.0
8.464,0.478,-0.798,2.0
8.488,0.478,-0.848,1.0
10.233,0.572,-0.733,3.0
9.645,0.537,-0.744,1.0
9.144,0.507,-0.755,2.0
8.712,0.482,-0.768,1.0
8.612,0.474,-0.807,2.0
8.593,0.471,-0.853,1.0
10.307,0.561,-0.732,3.0
9.714,0.527,-0.743,2.0
9.202,0.497,-0.754,2.0
8.818,0.474,-0.772,2.0
8.749,0.469,-0.814,2.0
8.779,0.469,-0.866,0.0
10.388,0.551,-0.731,2.0
9.784,0.517,-0.742,2.0
9.264,0.487,-0.753,2.0
8.971,0.47,-0.78,2.0
8.969,0.467,-0.829,2.0
8.966,0.465,-0.878,0.0
10.505,0.542,-0.732,2.0
9.862,0.506,-0.741,2.0
9.338,0.477,-0.753,2.0
9.13,0.465,-0.787,2.0
9.119,0.462,-0.836,1.0
9.171,0.463,-0.891,0.0
10.586,0.53,-0.73,2.0
9.957,0.497,-0.741,2.0
9.446,0.469,-0.754,2.0
9.276,0.459,-0.793,2.0
9.301,0.458,-0.846,1.0
9.365,0.459,-0.903,0.0
10.688,0.52,-0.728,2.0
10.045,0.486,-0.74,2.0
9.555,0.46,-0.756,2.0
9.477,0.455,-0.802,2.0
9.503,0.454,-0.856,0.0
9.557,0.454,-0.914,0.0
10.802,0.51,-0.727,2.0
10.14,0.476,-0.738,2.0
9.704,0.454,-0.759,2.0
9.68,0.45,-0.811,1.0
9.736,0.451,-0.869,0.0
9.712,0.447,-0.92,0.0
10.916,0.499,-0.726,3.0
10.238,0.466,-0.736,2.0
9.881,0.447,-0.764,2.0
9.909,0.447,-0.822,1.0
9.995,0.448,-0.883,0.0
9.93,0.443,-0.932,0.0
11.047,0.49,-0.724,3.0
10.384,0.458,-0.737,2.0
10.085,0.442,-0.771,2.0
10.101,0.441,-0.828,1.0
10.175,0.442,-0.89,2.0
10.14,0.438,-0.942,0.0
11.171,0.479,-0.722,3.0
10.54,0.45,-0.739,2.0
10.301,0.437,-0.778,2.0
10.297,0.435,-0.834,1.0
10.22,0.429,-0.884,6.0
10.34,0.432,-0.95,0.0
11.307,0.469,-0.72,3.0
10.683,0.441,-0.738,2.0
10.561,0.433,-0.787,2.0
10.54,0.43,-0.844,0.0
10.231,0.415,-0.874,8.0
10.493,0.424,-0.954,0.0
11.488,0.46,-0.72,3.0
10.87,0.433,-0.74,3.0
10.782,0.427,-0.792,2.0
10.846,0.427,-0.857,0.0
10.36,0.406,-0.874,1.0
10.701,0.417,-0.961,0.0
11.662,0.451,-0.718,3.0
11.054,0.425,-0.741,3.0
11.031,0.422,-0.798,2.0
11.055,0.42,-0.861,0.0
10.984,0.415,-0.915,0.0
10.36,0.389,-0.919,0.0
11.832,0.441,-0.716,3.0
11.267,0.418,-0.742,3.0
11.278,0.415,-0.804,2.0
11.361,0.416,-0.872,0.0
11.325,0.412,-0.931,0.0
10.093,0.365,-0.884,0.0
12.054,0.433,-0.715,3.0
11.539,0.412,-0.747,3.0
11.542,0.409,-0.809,1.0
11.577,0.408,-0.875,0.0
11.504,0.403,-0.932,0.0
10.192,0.355,-0.881,0.0
12.272,0.424,-0.714,3.0
11.807,0.405,-0.75,2.0
11.844,0.404,-0.816,1.0
11.892,0.403,-0.885,0.0
11.627,0.391,-0.927,0.0
10.265,0.343,-0.874,0.0
12.508,0.415,-0.712,4.0
12.139,0.4,-0.756,2.0
12.114,0.397,-0.82,0.0
12.278,0.399,-0.898,0.0
10.402,0.334,-0.873,0.0
12.734,0.406,-0.709,4.0
12.454,0.394,-0.76,4.0
12.484,0.392,-0.829,0.0
12.56,0.392,-0.903,1.0
10.485,0.323,-0.866,0.0
12.99,0.397,-0.707,5.0
12.736,0.386,-0.761,5.0
12.828,0.387,-0.835,0.0
12.836,0.384,-0.906,1.0
10.69,0.315,-0.869,0.0
13.231,0.387,-0.702,6.0
13.001,0.378,-0.759,5.0
13.104,0.378,-0.835,0.0
13.052,0.373,-0.903,1.0
10.791,0.304,-0.862,0.0
13.526,0.379,-0.7,4.0
13.3,0.37,-0.759,3.0
13.37,0.369,-0.834,0.0
12.795,0.35,-0.868,0.0
10.995,0.296,-0.863,0.0
13.806,0.369,-0.695,4.0
13.647,0.362,-0.759,1.0
13.646,0.359,-0.832,0.0
12.579,0.328,-0.835,0.0
11.177,0.287,-0.861,0.0
14.107,0.36,-0.689,4.0
13.99,0.354,-0.758,1.0
13.872,0.348,-0.825,0.0
12.777,0.318,-0.829,0.0
12.052,0.297,-0.846,0.0
11.345,0.277,-0.857,0.0
14.439,0.35,-0.684,5.0
14.359,0.345,-0.756,1.0
14.262,0.34,-0.827,0.0
12.971,0.306,-0.822,0.0
12.23,0.286,-0.84,0.0
11.551,0.268,-0.855,0.0
14.766,0.34,-0.677,5.0
14.761,0.337,-0.755,1.0
14.879,0.337,-0.84,0.0
13.19,0.296,-0.816,0.0
12.44,0.276,-0.835,0.0
11.752,0.259,-0.851,0.0
15.144,0.331,-0.671,3.0
15.195,0.329,-0.754,1.0
15.304,0.328,-0.84,0.0
13.471,0.286,-0.812,0.0
12.655,0.266,-0.83,0.0
11.931,0.249,-0.846,0.0
15.544,0.322,-0.664,3.0
15.598,0.32,-0.749,1.0
15.637,0.318,-0.833,1.0
13.7,0.275,-0.804,0.0
12.867,0.256,-0.823,0.0
12.168,0.24,-0.843,0.0
15.87,0.311,-0.653,4.0
15.933,0.309,-0.739,2.0
15.181,0.291,-0.784,1.0
13.151,0.247,-0.82,1.0
12.362,0.23,-0.836,0.0
16.226,0.3,-0.641,4.0
16.29,0.298,-0.729,2.0
15.513,0.28,-0.776,0.0
13.429,0.237,-0.814,1.0
12.597,0.22,-0.83,1.0
16.673,0.29,-0.63,4.0
16.77,0.288,-0.722,2.0
16.395,0.279,-0.792,1.0
14.751,0.248,-0.792,0.0
13.639,0.227,-0.804,1.0
12.85,0.211,-0.825,0.0
17.182,0.28,-0.62,4.0
17.255,0.278,-0.713,2.0
17.151,0.273,-0.799,1.0
15.017,0.237,-0.78,2.0
13.945,0.217,-0.798,0.0
13.114,0.202,-0.819,1.0
17.721,0.271,-0.609,4.0
17.847,0.27,-0.707,2.0
17.914,0.267,-0.804,2.0
15.211,0.224,-0.764,0.0
14.354,0.209,-0.796,0.0
13.388,0.193,-0.813,1.0
18.277,0.261,-0.596,6.0
18.423,0.26,-0.697,2.0
18.502,0.258,-0.797,2.0
15.659,0.215,-0.758,0.0
14.702,0.2,-0.789,1.0
13.682,0.183,-0.806,1.0
18.935,0.252,-0.584,5.0
18.975,0.249,-0.684,2.0
19.148,0.248,-0.79,2.0
16.09,0.206,-0.75,0.0
15.021,0.189,-0.779,2.0
13.972,0.174,-0.797,1.0
19.527,0.241,-0.567,7.0
19.568,0.238,-0.67,2.0
19.736,0.237,-0.779,2.0
15.241,0.178,-0.762,1.0
14.398,0.166,-0.795,0.0
20.164,0.231,-0.549,5.0
20.198,0.228,-0.655,3.0
20.109,0.223,-0.756,2.0
15.681,0.169,-0.755,0.0
14.765,0.157,-0.788,1.0
20.904,0.22,-0.529,4.0
20.746,0.216,-0.634,4.0
19.201,0.196,-0.686,0.0
48.183,0.486,-1.978,35.0
16.25,0.161,-0.752,0.0
15.062,0.147,-0.775,3.0
21.676,0.21,-0.508,4.0
21.443,0.205,-0.614,3.0
21.574,0.203,-0.73,3.0
48.164,0.446,-1.886,3.0
16.959,0.154,-0.752,1.0
15.371,0.137,-0.762,1.0
25.503,0.226,-0.55,1.0
22.132,0.193,-0.592,3.0
21.009,0.18,-0.671,0.0
18.817,0.159,-0.701,1.0
15.851,0.129,-0.755,0.0
26.445,0.214,-0.519,2.0
23.706,0.188,-0.588,2.0
21.677,0.169,-0.65,4.0
19.411,0.149,-0.685,1.0
17.497,0.131,-0.708,0.0
16.291,0.12,-0.744,0.0
27.437,0.201,-0.485,1.0
24.609,0.177,-0.562,1.0
22.319,0.157,-0.626,1.0
20.237,0.14,-0.674,0.0
18.462,0.125,-0.711,1.0
17.191,0.114,-0.751,6.0
28.771,0.189,-0.451,2.0
25.83,0.167,-0.539,2.0
23.22,0.147,-0.605,1.0
21.024,0.13,-0.659,1.0
18.991,0.115,-0.693,2.0
17.268,0.103,-0.72,30.0
29.943,0.176,-0.41,2.0
26.821,0.155,-0.506,2.0
23.921,0.135,-0.576,2.0
21.896,0.121,-0.642,1.0
19.749,0.107,-0.682,1.0
17.698,0.093,-0.703,2.0
31.493,0.165,-0.369,1.0
28.094,0.144,-0.475,1.0
25.236,0.126,-0.557,1.0
22.702,0.111,-0.621,2.0
20.575,0.098,-0.669,1.0
18.752,0.087,-0.707,3.0
33.493,0.154,-0.325,1.0
29.363,0.132,-0.437,2.0
26.361,0.116,-0.528,2.0
23.537,0.101,-0.596,2.0
21.288,0.089,-0.649,3.0
19.228,0.078,-0.686,3.0
37.836,0.152,-0.29,22.0
30.602,0.12,-0.393,1.0
27.303,0.104,-0.492,1.0
24.399,0.09,-0.568,1.0
22.296,0.08,-0.634,2.0
20.156,0.071,-0.678,2.0
38.68,0.134,-0.218,17.0
32.683,0.11,-0.353,1.0
28.792,0.094,-0.459,2.0
25.765,0.081,-0.546,1.0
23.141,0.071,-0.61,3.0
21.028,0.062,-0.663,3.0
39.851,0.117,-0.141,32.0
37.895,0.108,-0.33,1.0
29.944,0.082,-0.415,2.0
26.776,0.071,-0.512,3.0
23.923,0.061,-0.581,2.0
21.817,0.054,-0.642,3.0
0.0,0.0,0.0,0.0
38.418,0.09,-0.254,13.0
31.682,0.072,-0.372,1.0
28.086,0.061,-0.478,2.0
25.188,0.053,-0.559,1.0
22.757,0.046,-0.622,2.0
47.825,0.095,0.028,22.0
39.381,0.075,-0.178,39.0
33.618,0.062,-0.325,1.0
29.44,0.052,-0.439,2.0
26.411,0.044,-0.53,2.0
23.554,0.038,-0.594,2.0
54.856,0.086,0.149,8.0
43.835,0.066,-0.107,8.0
38.237,0.055,-0.29,5.0
30.777,0.042,-0.395,1.0
27.463,0.035,-0.493,2.0
24.622,0.03,-0.569,1.0
61.879,0.074,0.298,11.0
46.822,0.053,-0.014,24.0
39.113,0.042,-0.214,17.0
33.029,0.033,-0.353,1.0
28.942,0.027,-0.459,2.0
25.93,0.023,-0.545,1.0
79.33,0.068,0.55,10.0
0.0,0.0,0.0,0.0
40.666,0.03,-0.135,16.0
38.036,0.026,-0.327,2.0
30.174,0.019,-0.414,1.0
27.014,0.015,-0.509,2.0
79.471,0.044,0.72,151.0
61.688,0.031,0.242,18.0
0.0,0.0,0.0,0.0
38.823,0.015,-0.25,14.0
32.024,0.011,-0.371,1.0
28.446,0.009,-0.476,2.0
79.459,0.022,0.888,172.0
76.206,0.018,0.46,16.0
48.166,0.009,0.042,5.0
39.871,0.006,-0.173,32.0
33.774,0.004,-0.32,0.0
29.684,0.002,-0.434,2.0
79.461,0.004,1.057,151.0
79.406,0.001,0.649,131.0
56.108,0.0,0.17,16.0
0.0,0.0,0.0,0.0
38.503,-0.003,-0.282,6.0
31.165,-0.003,-0.389,1.0
79.459,-0.011,1.23,151.0
79.464,-0.013,0.821,163.0
76.109,-0.014,0.395,14.0
47.498,-0.01,-0.002,21.0
39.524,-0.009,-0.204,21.0
33.435,-0.008,-0.345,1.0
79.444,-0.023,1.399,162.0
79.464,-0.025,0.991,157.0
79.244,-0.026,0.579,26.0
55.466,-0.019,0.115,29.0
43.806,-0.016,-0.134,3.0
38.398,-0.014,-0.315,3.0
79.452,-0.033,1.569,151.0
79.458,-0.034,1.161,155.0
79.468,-0.035,0.751,151.0
61.726,-0.028,0.26,12.0
46.106,-0.021,-0.041,20.0
39.138,-0.018,-0.236,14.0
79.451,-0.039,1.739,151.0
79.451,-0.04,1.331,168.0
79.458,-0.04,0.922,159.0
76.46,-0.039,0.487,20.0
0.0,0.0,0.0,0.0
40.534,-0.02,-0.158,17.0
79.441,-0.043,1.91,151.0
79.446,-0.043,1.501,171.0
79.457,-0.043,1.092,157.0
79.419,-0.042,0.675,150.0
61.628,-0.032,0.207,15.0
0.0,0.0,0.0,0.0
79.435,-0.043,2.08,150.0
79.45,-0.043,1.671,151.0
79.448,-0.042,1.262,159.0
79.459,-0.041,0.847,155.0
76.184,-0.038,0.419,17.0
48.067,-0.023,0.017,7.0
79.434,-0.041,2.25,150.0
79.448,-0.04,1.842,151.0
79.442,-0.038,1.432,175.0
79.456,-0.037,1.016,152.0
79.363,-0.035,0.606,66.0
55.954,-0.024,0.139,27.0
79.431,-0.036,2.419,150.0
79.429,-0.034,2.01,150.0
79.444,-0.032,1.601,152.0
79.458,-0.03,1.185,152.0
79.464,-0.028,0.776,151.0
76.034,-0.025,0.352,11.0
79.433,-0.027,2.589,150.0
79.422,-0.025,2.18,150.0
79.435,-0.022,1.772,151.0
79.448,-0.02,1.355,164.0
79.467,-0.017,0.946,154.0
79.168,-0.014,0.534,14.0
79.441,-0.016,2.758,151.0
79.436,-0.013,2.349,150.0
79.436,-0.01,1.939,150.0
79.448,-0.007,1.521,151.0
79.457,-0.004,1.113,152.0
79.478,0.0,0.704,159.0
79.443,-0.002,2.928,151.0
79.433,0.001,2.517,150.0
79.432,0.004,2.107,150.0
79.448,0.008,1.69,151.0
79.452,0.012,1.281,158.0
79.458,0.016,0.871,163.0
79.411,0.014,3.093,150.0
79.428,0.018,2.683,150.0
79.436,0.022,2.274,150.0
79.436,0.027,1.857,150.0
79.455,0.031,1.446,161.0
79.455,0.036,1.038,151.0
59.434,0.026,2.44,91.0
79.445,0.039,2.851,151.0
79.436,0.044,2.44,150.0
79.425,0.048,2.022,150.0
79.451,0.054,1.613,151.0
79.459,0.058,1.203,151.0
59.44,0.043,2.565,99.0
79.422,0.063,3.017,150.0
79.432,0.068,2.606,150.0
79.436,0.073,2.188,150.0
79.417,0.079,1.778,150.0
79.446,0.084,1.368,159.0
59.448,0.062,2.689,97.0
59.421,0.067,2.38,91.0
79.445,0.095,2.773,151.0
79.436,0.101,2.353,150.0
79.432,0.107,1.942,150.0
79.456,0.113,1.533,151.0
79.265,0.112,3.749,150.0
59.438,0.088,2.503,52.0
79.437,0.124,2.933,151.0
79.43,0.131,2.515,150.0
79.434,0.137,2.104,150.0
79.446,0.144,1.694,150.0
91.656,0.166,4.522,41.0
85.945,0.162,3.795,113.0
79.422,0.157,3.094,150.0
79.441,0.164,2.677,151.0
79.437,0.171,2.266,150.0
79.435,0.178,1.856,150.0
77.353,0.173,3.975,79.0
79.304,0.185,3.665,150.0
89.541,0.217,3.673,17.0
79.436,0.2,2.84,151.0
79.446,0.208,2.429,150.0
79.435,0.215,2.017,150.0
62.482,0.169,3.338,21.0
79.205,0.223,3.821,103.0
85.946,0.25,3.701,84.0
79.427,0.239,3.0,151.0
79.433,0.247,2.589,150.0
79.443,0.255,2.178,150.0
48.226,0.155,2.674,71.0
48.252,0.16,2.425,31.0
77.192,0.265,3.479,3.0
79.414,0.281,3.159,99.0
79.432,0.29,2.748,150.0
79.432,0.298,2.336,150.0
48.183,0.181,2.768,99.0
48.185,0.186,2.517,74.0
48.202,0.192,2.267,65.0
