X,Y,Z,Reflectivity
115.478,-13.243,4.875,61.0
115.892,-13.266,4.265,71.0
115.904,-13.244,3.637,79.0
86.07,-9.846,5.118,12.0
100.865,-11.516,5.447,23.0
99.307,-11.315,4.824,44.0
107.714,-12.25,4.635,17.0
115.95,-13.163,4.358,27.0
115.925,-13.136,3.729,44.0
101.082,-11.466,6.091,29.0
100.862,-11.418,5.526,12.0
99.274,-11.215,4.899,46.0
105.577,-11.904,4.624,10.0
107.667,-12.116,4.129,13.0
107.358,-12.057,3.535,48.0
101.219,-11.381,6.176,12.0
98.424,-11.043,5.467,61.0
99.246,-11.112,4.972,42.0
105.875,-11.83,4.717,77.0
106.39,-11.864,4.159,71.0
107.27,-11.938,3.61,54.0
98.243,-10.945,6.067,32.0
90.654,-10.077,5.102,7.0
99.253,-11.009,5.044,57.0
148.884,-16.478,6.739,14.0
106.393,-11.75,4.236,38.0
107.219,-11.817,3.685,55.0
98.208,-10.835,6.134,34.0
108.286,-11.919,6.171,12.0
99.27,-10.902,5.115,57.0
148.165,-16.235,6.811,17.0
124.193,-13.579,5.03,11.0
107.224,-11.699,3.759,76.0
98.465,-10.754,6.217,11.0
90.128,-9.82,5.196,3.0
99.213,-10.785,5.177,53.0
105.377,-11.429,4.913,19.0
107.84,-11.669,4.438,29.0
107.327,-11.587,3.831,61.0
81.476,-8.805,5.197,6.0
100.291,-10.812,5.847,44.0
99.214,-10.67,5.241,48.0
108.161,-11.604,5.111,23.0
107.871,-11.546,4.506,50.0
107.35,-11.463,3.898,60.0
81.503,-8.712,5.249,10.0
86.041,-9.174,5.069,11.0
99.203,-10.551,5.3,38.0
115.263,-12.228,5.516,33.0
107.955,-11.425,4.574,54.0
107.351,-11.335,3.961,39.0
81.579,-8.622,5.301,9.0
99.253,-10.464,5.904,24.0
99.144,-10.425,5.354,57.0
116.461,-12.214,5.638,6.0
107.215,-11.215,4.603,73.0
122.882,-12.823,4.602,37.0
89.439,-9.342,5.862,2.0
86.197,-8.979,5.174,9.0
99.152,-10.302,5.406,30.0
107.173,-11.105,5.245,61.0
106.682,-11.025,4.636,57.0
124.31,-12.815,4.72,40.0
89.438,-9.228,5.907,3.0
86.19,-8.867,5.218,11.0
99.215,-10.18,5.461,41.0
116.074,-11.877,5.739,12.0
106.661,-10.885,4.687,35.0
124.661,-12.689,4.794,28.0
89.395,-9.107,5.948,3.0
99.386,-10.096,6.065,14.0
99.256,-10.054,5.51,48.0
116.11,-11.729,5.794,17.0
106.673,-10.746,4.736,26.0
147.987,-14.866,5.758,41.0
84.083,-8.454,5.633,7.0
99.465,-9.971,6.114,22.0
99.195,-9.915,5.549,45.0
106.762,-10.642,5.374,51.0
106.721,-10.607,4.784,13.0
210.154,-20.827,8.264,16.0
84.02,-8.334,5.663,50.0
99.184,-9.809,6.136,20.0
106.88,-10.538,6.022,14.0
108.053,-10.621,5.481,21.0
157.96,-15.481,7.143,8.0
148.113,-14.475,5.881,2.0
81.016,-7.924,5.49,2.0
86.385,-8.422,5.377,11.0
107.431,-10.443,6.092,47.0
115.538,-11.196,5.902,23.0
147.747,-14.275,6.732,20.0
150.868,-14.532,6.042,17.0
98.62,-9.506,6.718,19.0
99.251,-9.537,6.21,7.0
106.899,-10.24,6.097,15.0
115.583,-11.036,5.941,30.0
122.862,-11.694,5.636,45.0
157.432,-14.939,6.354,27.0
98.685,-9.372,6.752,13.0
99.173,-9.386,6.235,12.0
108.047,-10.193,6.195,57.0
106.275,-9.993,5.493,55.0
122.815,-11.511,5.668,27.0
156.464,-14.619,6.357,50.0
109.932,-10.277,7.552,10.0
106.77,-9.948,6.741,16.0
106.242,-9.864,6.118,22.0
108.552,-10.045,5.638,7.0
147.237,-13.581,6.831,18.0
148.455,-13.65,6.067,33.0
86.424,-7.951,5.956,5.0
106.128,-9.73,6.724,24.0
115.257,-10.531,6.662,23.0
108.418,-9.873,5.653,8.0
106.367,-9.653,4.957,3.0
148.586,-13.442,6.1,45.0
98.429,-8.908,6.801,6.0
99.157,-8.943,6.3,9.0
122.197,-10.981,7.084,14.0
106.444,-9.532,5.568,9.0
106.369,-9.493,4.974,2.0
158.328,-14.082,6.525,18.0
98.234,-8.741,6.803,12.0
106.046,-9.401,6.753,8.0
114.344,-10.099,6.645,3.0
106.322,-9.357,5.576,8.0
148.545,-13.027,6.965,14.0
166.068,-14.513,6.865,46.0
84.455,-7.383,5.859,4.0
108.081,-9.412,6.894,3.0
122.491,-10.628,7.131,9.0
106.347,-9.193,5.588,3.0
158.619,-13.663,7.451,17.0
162.871,-13.98,6.744,10.0
84.421,-7.247,5.863,8.0
97.493,-8.337,6.226,4.0
122.64,-10.448,7.146,10.0
148.577,-12.611,7.815,14.0
146.464,-12.385,6.887,2.0
166.791,-14.053,6.914,23.0
108.031,-9.104,7.506,6.0
115.342,-9.681,7.368,6.0
108.524,-9.073,6.326,4.0
145.613,-12.128,7.661,2.0
0.0,0.0,0.0,0.0
150.008,-12.399,6.219,39.0
100.814,-8.332,7.004,4.0
121.382,-9.992,7.753,5.0
108.585,-8.902,6.328,13.0
150.895,-12.323,7.934,16.0
158.695,-12.911,7.459,15.0
163.722,-13.267,6.782,21.0
108.989,-8.832,7.566,11.0
122.368,-9.876,7.81,5.0
106.389,-8.552,6.193,3.0
148.533,-11.892,7.801,4.0
149.576,-11.929,7.019,19.0
163.207,-12.963,6.749,17.0
108.751,-8.637,7.541,9.0
124.149,-9.819,7.911,7.0
121.672,-9.584,7.072,3.0
0.0,0.0,0.0,0.0
156.265,-12.209,7.317,12.0
157.852,-12.282,6.508,22.0
108.828,-8.465,7.532,13.0
106.634,-8.258,6.781,4.0
107.978,-8.326,6.26,2.0
148.228,-11.381,7.748,10.0
158.021,-12.082,7.374,19.0
165.507,-12.6,6.797,11.0
107.499,-8.182,7.423,4.0
149.264,-11.309,9.467,8.0
0.0,0.0,0.0,0.0
148.803,-11.176,7.749,4.0
157.993,-11.816,7.343,14.0
197.371,-14.697,8.066,16.0
149.217,-11.105,10.271,12.0
148.142,-10.976,9.362,4.0
148.227,-10.932,8.535,9.0
157.792,-11.586,8.182,7.0
157.698,-11.528,7.293,11.0
205.982,-14.992,8.369,13.0
206.648,-15.031,14.173,6.0
149.747,-10.84,9.426,4.0
148.308,-10.688,8.501,7.0
148.7,-10.668,7.671,4.0
156.509,-11.178,7.195,7.0
195.058,-13.87,7.87,14.0
207.241,-14.724,14.153,22.0
150.431,-10.638,9.425,8.0
0.0,0.0,0.0,0.0
164.469,-11.522,8.433,13.0
156.176,-10.891,7.13,3.0
197.638,-13.718,7.911,12.0
150.703,-10.45,10.242,11.0
164.414,-11.344,10.244,12.0
0.0,0.0,0.0,0.0
147.731,-10.096,7.523,5.0
211.829,-14.406,9.594,6.0
205.166,-13.888,8.136,11.0
148.365,-10.032,10.028,12.0
158.035,-10.633,9.787,5.0
165.156,-11.059,9.294,4.0
164.735,-10.975,8.325,9.0
0.0,0.0,0.0,0.0
205.286,-13.545,8.059,22.0
210.144,-13.85,14.116,11.0
210.408,-13.796,12.942,18.0
148.517,-9.689,8.294,6.0
148.838,-9.66,7.457,5.0
203.134,-13.12,9.03,5.0
208.698,-13.411,8.1,9.0
148.564,-9.533,9.912,3.0
203.267,-12.976,12.409,8.0
0.0,0.0,0.0,0.0
149.759,-9.46,7.431,14.0
0.0,0.0,0.0,0.0
0.0,0.0,0.0,0.0
0.0,0.0,0.0,0.0
0.0,0.0,0.0,0.0
147.874,-9.136,8.114,13.0
150.087,-9.223,7.37,3.0
0.0,0.0,0.0,0.0
227.547,-13.838,8.601,19.0
202.432,-12.29,13.294,6.0
0.0,0.0,0.0,0.0
163.752,-9.832,8.895,4.0
0.0,0.0,0.0,0.0
211.757,-12.579,9.081,8.0
229.002,-13.533,8.527,8.0
0.0,0.0,0.0,0.0
0.0,0.0,0.0,0.0
164.611,-9.597,8.843,4.0
211.581,-12.267,10.146,15.0
0.0,0.0,0.0,0.0
212.451,-12.182,7.779,5.0
0.0,0.0,0.0,0.0
0.0,0.0,0.0,0.0
0.0,0.0,0.0,0.0
0.0,0.0,0.0,0.0
0.0,0.0,0.0,0.0
0.0,0.0,0.0,0.0
0.0,0.0,0.0,0.0
0.0,0.0,0.0,0.0
0.0,0.0,0.0,0.0
0.0,0.0,0.0,0.0
0.0,0.0,0.0,0.0
0.0,0.0,0.0,0.0
0.0,0.0,0.0,0.0
0.0,0.0,0.0,0.0
0.0,0.0,0.0,0.0
0.0,0.0,0.0,0.0
0.0,0.0,0.0,0.0
0.0,0.0,0.0,0.0
0.0,0.0,0.0,0.0
0.0,0.0,0.0,0.0
0.0,0.0,0.0,0.0
0.0,0.0,0.0,0.0
0.0,0.0,0.0,0.0
0.0,0.0,0.0,0.0
0.0,0.0,0.0,0.0
0.0,0.0,0.0,0.0
0.0,0.0,0.0,0.0
0.0,0.0,0.0,0.0
0.0,0.0,0.0,0.0
83.272,-4.039,5.055,2.0
0.0,0.0,0.0,0.0
0.0,0.0,0.0,0.0
0.0,0.0,0.0,0.0
0.0,0.0,0.0,0.0
0.0,0.0,0.0,0.0
83.369,-3.898,4.988,2.0
0.0,0.0,0.0,0.0
0.0,0.0,0.0,0.0
0.0,0.0,0.0,0.0
0.0,0.0,0.0,0.0
0.0,0.0,0.0,0.0
83.267,-3.749,4.906,3.0
0.0,0.0,0.0,0.0
0.0,0.0,0.0,0.0
0.0,0.0,0.0,0.0
0.0,0.0,0.0,0.0
0.0,0.0,0.0,0.0
0.0,0.0,0.0,0.0
0.0,0.0,0.0,0.0
0.0,0.0,0.0,0.0
0.0,0.0,0.0,0.0
0.0,0.0,0.0,0.0
0.0,0.0,0.0,0.0
0.0,0.0,0.0,0.0
0.0,0.0,0.0,0.0
0.0,0.0,0.0,0.0
0.0,0.0,0.0,0.0
0.0,0.0,0.0,0.0
0.0,0.0,0.0,0.0
0.0,0.0,0.0,0.0
0.0,0.0,0.0,0.0
0.0,0.0,0.0,0.0
0.0,0.0,0.0,0.0
0.0,0.0,0.0,0.0
0.0,0.0,0.0,0.0
0.0,0.0,0.0,0.0
0.0,0.0,0.0,0.0
0.0,0.0,0.0,0.0
0.0,0.0,0.0,0.0
0.0,0.0,0.0,0.0
0.0,0.0,0.0,0.0
0.0,0.0,0.0,0.0
0.0,0.0,0.0,0.0
0.0,0.0,0.0,0.0
0.0,0.0,0.0,0.0
0.0,0.0,0.0,0.0
0.0,0.0,0.0,0.0
0.0,0.0,0.0,0.0
0.0,0.0,0.0,0.0
148.111,-5.085,6.098,5.0
0.0,0.0,0.0,0.0
0.0,0.0,0.0,0.0
0.0,0.0,0.0,0.0
0.0,0.0,0.0,0.0
0.0,0.0,0.0,0.0
148.06,-4.843,5.921,14.0
0.0,0.0,0.0,0.0
0.0,0.0,0.0,0.0
40.328,-1.284,0.914,22.0
0.0,0.0,0.0,0.0
0.0,0.0,0.0,0.0
0.0,0.0,0.0,0.0
0.0,0.0,0.0,0.0
40.28,-1.228,1.094,32.0
40.31,-1.218,0.863,24.0
0.0,0.0,0.0,0.0
148.137,-4.403,6.408,4.0
0.0,0.0,0.0,0.0
40.304,-1.175,1.275,2.0
40.34,-1.166,1.045,35.0
0.0,0.0,0.0,0.0
178.389,-5.065,8.513,11.0
129.067,-3.628,5.415,27.0
40.239,-1.12,1.456,35.0
40.25,-1.109,1.221,31.0
40.195,-1.097,0.988,57.0
40.212,-1.087,0.758,41.0
129.036,-3.46,5.988,44.0
129.185,-3.428,5.249,39.0
40.201,-1.056,1.402,58.0
40.224,-1.045,1.167,44.0
40.188,-1.034,0.934,56.0
40.203,-1.024,0.703,65.0
128.999,-3.257,5.812,48.0
40.23,-1.004,1.58,13.0
40.235,-0.994,1.348,55.0
40.21,-0.983,1.112,57.0
40.193,-0.972,0.88,58.0
40.3,-0.964,0.65,107.0
129.545,-3.068,5.655,31.0
40.289,-0.943,1.526,1.0
40.286,-0.933,1.293,18.0
40.198,-0.92,1.055,59.0
40.195,-0.909,0.823,55.0
40.264,-0.901,0.593,56.0
128.895,-2.855,5.443,12.0
185.634,-4.063,6.765,44.0
40.269,-0.871,1.235,31.0
40.208,-0.859,0.997,54.0
40.228,-0.849,0.765,55.0
40.231,-0.839,0.534,61.0
183.964,-3.796,7.5,17.0
184.685,-3.763,6.461,50.0
40.289,-0.81,1.176,57.0
40.225,-0.799,0.938,43.0
40.161,-0.787,0.705,52.0
40.245,-0.779,0.474,34.0
188.425,-3.606,7.399,19.0
184.583,-3.486,6.18,54.0
40.262,-0.75,1.116,45.0
40.2,-0.739,0.877,43.0
40.199,-0.729,0.645,4.0
40.263,-0.72,0.414,38.0
185.799,-3.284,7.015,22.0
151.442,-2.639,4.841,105.0
151.472,-2.602,3.965,33.0
248.458,-4.207,5.042,11.0
205.42,-3.43,2.985,69.0
98.92,-1.628,0.866,1.0
129.185,-2.097,4.677,12.0
151.464,-2.422,4.608,110.0
187.084,-2.948,4.609,17.0
187.133,-2.904,3.511,69.0
148.408,-2.267,1.925,13.0
87.893,-1.322,0.632,3.0
100.532,-1.489,3.48,4.0
151.452,-2.207,4.366,14.0
86.915,-1.246,2.003,18.0
86.94,-1.226,1.492,72.0
86.954,-1.206,0.989,136.0
78.546,-1.072,0.44,7.0
109.5,-1.469,3.616,7.0
79.457,-1.047,2.163,1.0
79.437,-1.03,1.703,7.0
79.435,-1.012,1.236,170.0
79.536,-0.995,0.778,3.0
0.0,0.0,0.0,0.0
79.417,-0.957,2.493,150.0
79.433,-0.939,2.033,161.0
79.436,-0.922,1.574,202.0
79.434,-0.904,1.105,176.0
79.392,-0.885,0.644,150.0
57.991,-0.633,0.135,3.0
79.437,-0.851,2.361,151.0
79.422,-0.833,1.901,187.0
79.442,-0.816,1.441,192.0
79.449,-0.799,0.973,171.0
77.396,-0.761,0.499,12.0
52.722,-0.507,0.034,4.0
79.435,-0.746,2.227,151.0
79.433,-0.729,1.766,190.0
79.451,-0.712,1.306,187.0
79.454,-0.695,0.837,178.0
61.767,-0.528,0.294,6.0
48.095,-0.4,-0.049,5.0
79.438,-0.644,2.091,154.0
79.433,-0.628,1.631,181.0
79.449,-0.611,1.17,178.0
79.459,-0.594,0.701,150.0
60.878,-0.442,0.184,7.0
44.312,-0.312,-0.122,3.0
79.431,-0.544,1.953,176.0
79.436,-0.527,1.491,182.0
79.453,-0.511,1.031,168.0
79.064,-0.493,0.56,13.0
50.545,-0.304,0.064,23.0
39.888,-0.232,-0.18,4.0
79.426,-0.446,1.812,184.0
79.437,-0.431,1.352,180.0
79.457,-0.415,0.891,163.0
76.597,-0.385,0.407,10.0
46.309,-0.223,-0.022,20.0
39.273,-0.181,-0.246,5.0
79.406,-0.351,1.67,255.0
79.452,-0.336,1.21,155.0
79.453,-0.321,0.749,150.0
61.203,-0.235,0.215,10.0
42.096,-0.153,-0.095,17.0
38.684,-0.133,-0.312,0.0
79.432,-0.258,1.527,179.0
79.468,-0.243,1.066,152.0
79.286,-0.227,0.602,39.0
54.35,-0.146,0.092,5.0
40.048,-0.1,-0.163,15.0
32.989,-0.076,-0.326,1.0
79.449,-0.169,1.383,153.0
79.474,-0.154,0.921,155.0
76.149,-0.134,0.441,19.0
46.386,-0.073,-0.005,21.0
38.945,-0.054,-0.229,14.0
31.216,-0.038,-0.365,1.0
79.456,-0.082,1.237,151.0
79.452,-0.068,0.777,150.0
56.186,-0.038,0.223,8.0
0.0,0.0,0.0,0.0
38.324,-0.012,-0.296,2.0
29.91,-0.004,-0.405,2.0
79.461,0.002,1.09,151.0
79.319,0.015,0.628,23.0
0.0,0.0,0.0,0.0
39.589,0.022,-0.15,34.0
33.38,0.024,-0.32,1.0
28.86,0.025,-0.445,2.0
79.471,0.084,0.941,151.0
75.966,0.094,0.457,14.0
0.0,0.0,0.0,0.0
38.611,0.06,-0.219,14.0
31.658,0.055,-0.364,1.0
27.538,0.052,-0.477,2.0
79.446,0.164,0.789,150.0
59.077,0.132,0.244,11.0
43.892,0.105,-0.073,9.0
37.946,0.097,-0.288,3.0
29.957,0.081,-0.402,1.0
26.562,0.077,-0.511,2.0
76.897,0.234,0.617,57.0
54.252,0.173,0.12,28.0
39.469,0.132,-0.141,40.0
33.368,0.117,-0.317,1.0
28.895,0.106,-0.443,2.0
25.542,0.098,-0.54,1.0
59.346,0.236,0.362,76.0
46.753,0.193,0.013,25.0
38.425,0.164,-0.212,14.0
31.479,0.139,-0.36,1.0
27.559,0.126,-0.475,1.0
24.265,0.115,-0.56,1.0
55.006,0.268,0.229,61.0
43.961,0.221,-0.072,6.0
37.765,0.195,-0.281,4.0
30.005,0.159,-0.401,2.0
26.574,0.145,-0.51,1.0
23.512,0.131,-0.588,2.0
48.065,0.275,0.107,53.0
39.149,0.23,-0.14,48.0
33.45,0.201,-0.315,1.0
28.89,0.178,-0.443,2.0
25.517,0.161,-0.54,1.0
22.695,0.146,-0.612,1.0
0.0,0.0,0.0,0.0
38.131,0.255,-0.212,14.0
31.467,0.215,-0.358,1.0
27.357,0.191,-0.473,1.0
24.175,0.172,-0.559,2.0
21.835,0.158,-0.632,4.0
43.897,0.323,-0.075,6.0
37.518,0.281,-0.283,3.0
29.939,0.228,-0.4,2.0
26.432,0.205,-0.51,2.0
22.162,0.175,-0.556,3.0
21.113,0.169,-0.653,1.0
38.828,0.315,-0.144,52.0
33.17,0.273,-0.316,1.0
28.831,0.241,-0.442,2.0
25.503,0.217,-0.542,1.0
21.606,0.186,-0.585,4.0
21.275,0.186,-0.7,4.0
37.882,0.335,-0.216,14.0
31.203,0.28,-0.36,1.0
27.351,0.249,-0.475,1.0
21.544,0.198,-0.501,4.0
21.036,0.196,-0.612,3.0
21.027,0.198,-0.735,0.0
37.338,0.356,-0.288,3.0
29.754,0.287,-0.403,2.0
26.398,0.258,-0.511,1.0
20.837,0.206,-0.527,4.0
20.514,0.205,-0.639,2.0
0.0,0.0,0.0,0.0
32.831,0.334,-0.32,1.0
28.645,0.295,-0.446,1.0
22.106,0.23,-0.473,2.0
20.2,0.212,-0.552,5.0
20.18,0.214,-0.669,2.0
48.231,0.518,-1.882,5.0
30.971,0.334,-0.365,2.0
27.163,0.296,-0.478,1.0
21.3,0.234,-0.499,4.0
19.743,0.219,-0.579,8.0
19.728,0.221,-0.694,1.0
48.241,0.546,-1.98,13.0
29.548,0.336,-0.407,3.0
26.178,0.3,-0.514,2.0
20.349,0.235,-0.518,3.0
19.412,0.226,-0.609,5.0
19.449,0.229,-0.724,3.0
28.343,0.337,-0.448,1.0
22.026,0.264,-0.477,4.0
19.607,0.237,-0.539,3.0
19.095,0.233,-0.638,3.0
19.152,0.235,-0.752,2.0
26.95,0.334,-0.482,1.0
21.04,0.263,-0.498,4.0
19.022,0.239,-0.561,3.0
18.796,0.238,-0.666,3.0
18.857,0.241,-0.779,2.0
15.814,0.203,-0.746,0.0
26.065,0.335,-0.519,1.0
20.177,0.261,-0.52,3.0
18.597,0.242,-0.587,5.0
18.637,0.244,-0.7,2.0
18.421,0.243,-0.799,1.0
15.339,0.204,-0.755,0.0
21.836,0.29,-0.48,4.0
19.354,0.259,-0.538,3.0
18.31,0.246,-0.616,6.0
18.397,0.249,-0.728,2.0
18.092,0.246,-0.822,0.0
15.046,0.206,-0.771,1.0
20.912,0.286,-0.502,4.0
18.685,0.257,-0.557,3.0
18.103,0.25,-0.646,4.0
18.142,0.252,-0.755,1.0
15.735,0.22,-0.747,0.0
14.711,0.206,-0.784,0.0
19.96,0.28,-0.519,3.0
18.133,0.255,-0.577,3.0
17.902,0.253,-0.674,3.0
17.984,0.256,-0.785,3.0
15.272,0.218,-0.756,0.0
14.285,0.205,-0.79,0.0
19.189,0.275,-0.538,3.0
17.809,0.256,-0.604,4.0
17.869,0.258,-0.71,2.0
17.663,0.256,-0.807,2.0
15.015,0.219,-0.774,1.0
13.857,0.203,-0.795,0.0
18.515,0.27,-0.557,3.0
17.661,0.258,-0.634,4.0
17.727,0.26,-0.74,1.0
15.676,0.231,-0.748,0.0
14.665,0.217,-0.785,0.0
13.519,0.201,-0.803,1.0
17.911,0.265,-0.576,4.0
17.535,0.261,-0.666,2.0
17.604,0.263,-0.771,2.0
15.234,0.228,-0.758,1.0
14.181,0.213,-0.788,0.0
13.18,0.199,-0.81,1.0
17.527,0.263,-0.599,4.0
17.463,0.263,-0.698,2.0
17.391,0.262,-0.797,1.0
14.992,0.227,-0.776,1.0
13.815,0.21,-0.796,0.0
12.88,0.196,-0.817,0.0
17.391,0.263,-0.628,4.0
17.449,0.265,-0.732,1.0
15.622,0.238,-0.747,0.0
14.619,0.223,-0.786,0.0
13.467,0.206,-0.803,1.0
12.582,0.193,-0.824,0.0
17.344,0.265,-0.661,3.0
17.37,0.266,-0.764,2.0
15.198,0.233,-0.757,1.0
14.116,0.217,-0.787,0.0
13.161,0.203,-0.811,1.0
12.283,0.19,-0.829,1.0
17.352,0.266,-0.696,2.0
0.0,0.0,0.0,0.0
14.961,0.23,-0.775,1.0
13.761,0.212,-0.795,0.0
12.844,0.198,-0.817,1.0
12.034,0.186,-0.836,0.0
17.367,0.267,-0.732,1.0
15.633,0.241,-0.75,0.0
14.581,0.225,-0.784,0.0
13.444,0.208,-0.803,1.0
12.543,0.194,-0.823,0.0
11.768,0.182,-0.841,0.0
17.358,0.267,-0.765,2.0
15.159,0.233,-0.757,1.0
14.067,0.217,-0.785,0.0
13.109,0.202,-0.809,1.0
12.281,0.19,-0.83,0.0
11.528,0.178,-0.847,0.0
0.0,0.0,0.0,0.0
14.922,0.229,-0.774,1.0
13.744,0.211,-0.793,0.0
12.808,0.197,-0.816,1.0
12.009,0.185,-0.835,0.0
11.249,0.173,-0.848,0.0
15.561,0.237,-0.747,0.0
14.549,0.222,-0.783,0.0
13.446,0.205,-0.802,1.0
12.515,0.191,-0.821,1.0
11.754,0.18,-0.84,0.0
11.007,0.168,-0.851,0.0
15.161,0.229,-0.757,1.0
14.072,0.213,-0.785,0.0
13.105,0.198,-0.808,1.0
12.258,0.186,-0.828,0.0
11.515,0.174,-0.846,0.0
10.771,0.163,-0.854,0.0
14.923,0.224,-0.774,1.0
13.705,0.205,-0.791,1.0
12.818,0.192,-0.814,1.0
11.993,0.18,-0.833,1.0
11.245,0.168,-0.847,0.0
10.459,0.157,-0.849,6.0
14.541,0.215,-0.782,0.0
13.441,0.199,-0.801,1.0
12.541,0.185,-0.82,1.0
11.754,0.174,-0.839,0.0
11.009,0.162,-0.85,0.0
10.407,0.154,-0.865,3.0
14.1,0.205,-0.785,0.0
13.11,0.191,-0.806,1.0
12.272,0.178,-0.826,1.0
11.513,0.167,-0.843,0.0
10.802,0.157,-0.855,0.0
10.264,0.149,-0.872,0.0
13.755,0.197,-0.791,1.0
12.845,0.183,-0.814,1.0
12.033,0.172,-0.832,1.0
11.253,0.16,-0.845,0.0
10.487,0.149,-0.849,3.0
10.06,0.143,-0.874,0.0
13.449,0.188,-0.798,1.0
12.562,0.176,-0.819,1.0
11.798,0.165,-0.838,0.0
11.034,0.154,-0.849,1.0
10.427,0.145,-0.863,3.0
9.877,0.137,-0.876,0.0
13.151,0.18,-0.804,1.0
12.306,0.168,-0.824,1.0
11.553,0.157,-0.841,0.0
10.827,0.147,-0.853,0.0
10.302,0.14,-0.872,0.0
9.71,0.131,-0.879,0.0
12.864,0.171,-0.81,1.0
12.042,0.16,-0.828,1.0
11.294,0.149,-0.843,0.0
10.607,0.14,-0.855,1.0
10.088,0.133,-0.872,0.0
9.531,0.125,-0.88,0.0
12.619,0.163,-0.817,1.0
11.81,0.152,-0.833,1.0
11.067,0.142,-0.845,1.0
10.474,0.134,-0.862,1.0
9.907,0.126,-0.874,0.0
9.382,0.119,-0.882,0.0
12.361,0.154,-0.822,0.0
11.591,0.144,-0.838,0.0
10.86,0.134,-0.849,1.0
10.37,0.128,-0.872,0.0
9.739,0.12,-0.876,0.0
9.269,0.113,-0.888,0.0
12.1,0.145,-0.825,1.0
11.351,0.136,-0.841,0.0
10.73,0.128,-0.857,0.0
10.1,0.12,-0.867,0.0
9.569,0.113,-0.877,0.0
9.109,0.107,-0.889,0.0
11.879,0.137,-0.831,1.0
11.134,0.127,-0.843,1.0
10.549,0.12,-0.861,0.0
9.964,0.113,-0.872,0.0
9.44,0.106,-0.882,0.0
8.988,0.101,-0.892,0.0
11.675,0.128,-0.836,0.0
10.961,0.12,-0.849,1.0
10.425,0.113,-0.868,0.0
9.798,0.106,-0.874,0.0
9.317,0.1,-0.886,0.0
8.858,0.094,-0.894,0.0
11.467,0.119,-0.84,0.0
10.797,0.111,-0.854,0.0
10.191,0.105,-0.865,0.0
9.647,0.098,-0.876,0.0
9.165,0.093,-0.886,0.0
8.739,0.088,-0.896,0.0
11.25,0.11,-0.842,0.0
10.613,0.103,-0.856,0.0
10.05,0.097,-0.87,0.0
9.511,0.091,-0.879,0.0
9.068,0.086,-0.891,0.0
8.622,0.081,-0.898,0.0
11.074,0.102,-0.847,0.0
10.432,0.095,-0.858,0.0
9.88,0.089,-0.87,0.0
9.388,0.084,-0.883,0.0
8.923,0.079,-0.891,0.0
8.502,0.075,-0.899,0.0
10.89,0.093,-0.85,0.0
10.292,0.087,-0.863,0.0
9.762,0.081,-0.875,0.0
9.24,0.076,-0.883,0.0
8.806,0.072,-0.893,0.0
8.421,0.068,-0.904,0.0
10.712,0.084,-0.852,0.0
10.151,0.078,-0.867,0.0
9.617,0.074,-0.877,0.0
9.13,0.069,-0.887,0.0
8.7,0.065,-0.896,0.0
8.329,0.062,-0.906,0.0
10.548,0.075,-0.855,0.0
9.989,0.07,-0.868,0.0
9.489,0.066,-0.879,0.0
9.034,0.062,-0.891,0.0
8.592,0.058,-0.898,0.0
8.245,0.055,-0.909,0.0
10.411,0.066,-0.859,0.0
9.871,0.062,-0.872,0.0
9.369,0.058,-0.882,0.0
8.89,0.054,-0.89,0.0
8.493,0.051,-0.9,0.0
8.16,0.048,-0.912,0.0
10.272,0.057,-0.862,0.0
9.743,0.054,-0.874,0.0
9.256,0.05,-0.885,0.0
8.79,0.046,-0.892,0.0
8.403,0.044,-0.902,0.0
8.067,0.041,-0.913,0.0
10.143,0.049,-0.866,0.0
9.612,0.045,-0.876,0.0
9.138,0.042,-0.886,0.0
8.686,0.039,-0.894,0.0
8.322,0.036,-0.905,0.0
8.0,0.034,-0.917,0.0
9.989,0.04,-0.866,0.0
9.497,0.037,-0.879,0.0
9.034,0.034,-0.888,0.0
8.609,0.031,-0.898,0.0
8.279,0.029,-0.912,0.0
7.917,0.027,-0.918,0.0
9.882,0.031,-0.87,0.0
9.385,0.028,-0.881,0.0
8.927,0.026,-0.89,0.0
8.504,0.023,-0.898,0.0
8.166,0.022,-0.91,0.0
7.856,0.02,-0.921,0.0
9.754,0.022,-0.872,0.0
9.29,0.02,-0.884,0.0
8.823,0.018,-0.891,0.0
8.432,0.016,-0.901,0.0
8.086,0.014,-0.911,0.0
7.788,0.013,-0.923,0.0
9.653,0.013,-0.875,0.0
9.191,0.011,-0.886,0.0
8.754,0.01,-0.895,0.0
8.366,0.008,-0.905,0.0
8.034,0.007,-0.916,0.0
7.724,0.005,-0.925,0.0
9.548,0.004,-0.877,0.0
9.089,0.003,-0.887,0.0
8.673,0.001,-0.897,0.0
8.287,0.0,-0.906,0.0
7.965,0.0,-0.917,0.0
7.649,-0.001,-0.925,0.0
9.474,-0.004,-0.881,0.0
9.005,-0.005,-0.89,0.0
8.57,-0.006,-0.896,0.0
8.191,-0.007,-0.905,0.0
7.9,-0.007,-0.919,0.0
7.581,-0.008,-0.926,0.0
9.366,-0.013,-0.882,0.0
8.911,-0.013,-0.891,0.0
8.491,-0.014,-0.898,0.0
8.127,-0.014,-0.907,0.0
7.834,-0.015,-0.92,0.0
7.53,-0.015,-0.928,0.0
9.275,-0.022,-0.884,0.0
8.836,-0.022,-0.893,0.0
8.436,-0.022,-0.901,0.0
8.095,-0.022,-0.913,0.0
7.774,-0.023,-0.922,0.0
7.454,-0.023,-0.927,0.0
9.195,-0.031,-0.886,0.0
8.746,-0.031,-0.893,0.0
8.369,-0.03,-0.903,0.0
8.035,-0.03,-0.914,0.0
7.717,-0.03,-0.923,0.0
7.412,-0.03,-0.93,0.0
9.105,-0.04,-0.886,0.0
8.675,-0.039,-0.895,0.0
8.287,-0.039,-0.903,0.0
7.974,-0.038,-0.915,0.0
7.671,-0.038,-0.925,0.0
7.355,-0.038,-0.93,0.0
9.035,-0.049,-0.888,0.0
8.595,-0.048,-0.895,0.0
8.24,-0.047,-0.905,0.0
7.91,-0.046,-0.916,0.0
7.605,-0.046,-0.925,0.0
7.294,-0.045,-0.929,0.0
8.952,-0.058,-0.889,0.0
8.526,-0.056,-0.896,0.0
8.189,-0.055,-0.907,0.0
7.861,-0.054,-0.917,0.0
7.554,-0.053,-0.925,0.0
7.248,-0.052,-0.93,0.0
8.885,-0.067,-0.89,0.0
8.48,-0.065,-0.898,0.0
8.128,-0.064,-0.908,0.0
7.848,-0.063,-0.923,0.0
7.505,-0.061,-0.926,0.0
7.227,-0.06,-0.934,0.0
8.816,-0.076,-0.891,0.0
8.444,-0.074,-0.902,0.0
8.073,-0.072,-0.909,0.0
7.783,-0.071,-0.922,0.0
7.469,-0.069,-0.928,0.0
7.184,-0.068,-0.934,0.0
8.769,-0.085,-0.893,0.0
8.378,-0.082,-0.901,0.0
8.03,-0.08,-0.91,0.0
7.724,-0.079,-0.921,0.0
7.424,-0.077,-0.928,0.0
7.129,-0.075,-0.932,0.0
8.701,-0.094,-0.893,0.0
8.331,-0.091,-0.903,0.0
8.0,-0.089,-0.913,0.0
7.692,-0.087,-0.923,0.0
7.405,-0.085,-0.931,0.0
7.095,-0.083,-0.933,0.0
8.647,-0.103,-0.894,0.0
8.285,-0.1,-0.904,0.0
7.947,-0.097,-0.912,0.0
7.653,-0.095,-0.924,0.0
7.355,-0.093,-0.93,0.0
7.089,-0.091,-0.937,0.0
8.61,-0.112,-0.896,0.0
8.235,-0.109,-0.904,0.0
7.917,-0.106,-0.914,0.0
7.601,-0.103,-0.922,0.0
7.334,-0.101,-0.932,0.0
7.046,-0.098,-0.936,0.0
8.558,-0.121,-0.896,0.0
8.196,-0.118,-0.905,0.0
7.885,-0.115,-0.915,0.0
7.566,-0.111,-0.923,0.0
7.306,-0.109,-0.933,0.0
7.035,-0.106,-0.939,0.0
8.528,-0.13,-0.898,0.0
8.181,-0.127,-0.908,0.0
7.854,-0.123,-0.916,0.0
7.562,-0.12,-0.927,0.0
7.259,-0.116,-0.931,0.0
7.018,-0.114,-0.941,0.0
8.48,-0.139,-0.897,0.0
8.151,-0.136,-0.909,0.0
7.825,-0.132,-0.917,0.0
7.519,-0.128,-0.925,0.0
7.239,-0.125,-0.933,0.0
6.98,-0.121,-0.939,0.0
8.437,-0.149,-0.897,0.0
8.114,-0.144,-0.909,0.0
7.801,-0.14,-0.918,0.0
7.506,-0.137,-0.927,0.0
7.211,-0.132,-0.932,0.0
6.96,-0.129,-0.94,0.0
8.409,-0.158,-0.898,0.0
8.082,-0.153,-0.909,0.0
7.769,-0.149,-0.918,0.0
7.486,-0.145,-0.928,0.0
7.204,-0.141,-0.934,0.0
6.943,-0.137,-0.941,0.0
8.394,-0.167,-0.899,0.0
8.062,-0.162,-0.91,0.0
7.762,-0.158,-0.92,0.0
7.45,-0.153,-0.927,0.0
7.184,-0.149,-0.935,0.0
6.943,-0.145,-0.943,0.0
8.381,-0.177,-0.901,0.0
8.055,-0.172,-0.912,0.0
7.736,-0.166,-0.92,0.0
7.428,-0.161,-0.926,0.0
7.162,-0.157,-0.934,0.0
6.914,-0.153,-0.942,0.0
8.359,-0.186,-0.901,0.0
8.04,-0.181,-0.913,0.0
7.712,-0.175,-0.919,0.0
7.419,-0.17,-0.928,0.0
7.143,-0.165,-0.934,0.0
6.903,-0.161,-0.942,0.0
8.339,-0.195,-0.902,0.0
8.012,-0.189,-0.912,0.0
7.701,-0.184,-0.92,0.0
7.401,-0.178,-0.927,0.0
7.143,-0.173,-0.936,0.0
6.897,-0.169,-0.943,0.0
8.325,-0.205,-0.902,0.0
8.001,-0.199,-0.912,0.0
7.698,-0.193,-0.921,0.0
7.42,-0.187,-0.931,0.0
7.126,-0.181,-0.935,0.0
6.891,-0.177,-0.943,0.0
8.315,-0.214,-0.902,0.0
7.991,-0.208,-0.912,0.0
7.697,-0.202,-0.923,0.0
7.402,-0.195,-0.93,0.0
7.132,-0.19,-0.937,0.0
6.878,-0.184,-0.943,0.0
8.313,-0.224,-0.903,0.0
7.996,-0.217,-0.914,0.0
7.669,-0.21,-0.92,0.0
7.394,-0.204,-0.93,0.0
7.133,-0.198,-0.938,0.0
6.867,-0.192,-0.942,0.0
8.3,-0.233,-0.903,0.0
7.986,-0.226,-0.914,0.0
7.68,-0.219,-0.922,0.0
7.385,-0.212,-0.929,0.0
7.126,-0.206,-0.937,0.0
6.872,-0.2,-0.943,0.0
8.311,-0.243,-0.904,0.0
7.974,-0.235,-0.913,0.0
7.695,-0.228,-0.924,0.0
7.379,-0.221,-0.929,0.0
7.109,-0.214,-0.935,0.0
6.884,-0.209,-0.945,0.0
8.287,-0.252,-0.902,0.0
7.97,-0.244,-0.912,0.0
7.686,-0.237,-0.923,0.0
7.379,-0.229,-0.928,0.0
7.109,-0.222,-0.935,0.0
6.859,-0.216,-0.941,0.0
8.294,-0.262,-0.902,0.0
7.986,-0.254,-0.913,0.0
7.684,-0.246,-0.922,0.0
7.387,-0.238,-0.929,0.0
7.111,-0.231,-0.935,0.0
6.873,-0.224,-0.942,0.0
8.307,-0.272,-0.903,0.0
8.003,-0.263,-0.915,0.0
7.707,-0.255,-0.924,0.0
7.41,-0.247,-0.931,0.0
7.128,-0.239,-0.936,0.0
6.886,-0.233,-0.943,0.0
8.324,-0.282,-0.903,0.0
8.013,-0.273,-0.915,0.0
7.694,-0.264,-0.921,0.0
7.406,-0.255,-0.929,0.0
7.138,-0.248,-0.936,0.0
6.914,-0.241,-0.946,0.0
8.331,-0.291,-0.903,0.0
8.015,-0.282,-0.913,0.0
7.701,-0.272,-0.921,0.0
7.42,-0.264,-0.93,0.0
7.139,-0.256,-0.934,0.0
6.886,-0.248,-0.94,0.0
8.333,-0.301,-0.901,0.0
8.012,-0.291,-0.911,0.0
7.719,-0.282,-0.921,0.0
7.428,-0.273,-0.929,0.0
7.16,-0.264,-0.935,0.0
6.908,-0.257,-0.941,0.0
8.366,-0.311,-0.902,0.0
8.039,-0.301,-0.912,0.0
7.731,-0.291,-0.92,0.0
7.443,-0.282,-0.928,0.0
7.171,-0.273,-0.935,0.0
6.924,-0.265,-0.941,0.0
8.388,-0.321,-0.902,0.0
8.055,-0.31,-0.911,0.0
7.753,-0.3,-0.92,0.0
7.458,-0.29,-0.928,0.0
7.199,-0.282,-0.936,0.0
6.937,-0.273,-0.941,0.0
8.408,-0.331,-0.901,0.0
8.072,-0.319,-0.91,0.0
7.767,-0.309,-0.919,0.0
7.469,-0.299,-0.926,0.0
7.202,-0.289,-0.933,0.0
6.955,-0.281,-0.94,0.0
8.427,-0.341,-0.9,0.0
8.08,-0.328,-0.907,0.0
7.797,-0.318,-0.919,0.0
7.5,-0.308,-0.927,0.0
7.225,-0.298,-0.933,0.0
6.97,-0.289,-0.939,0.0
8.45,-0.35,-0.898,0.0
8.118,-0.338,-0.908,0.0
7.825,-0.328,-0.919,0.0
7.525,-0.317,-0.926,0.0
7.274,-0.308,-0.936,0.0
7.004,-0.298,-0.94,0.0
8.501,-0.361,-0.9,0.0
8.141,-0.347,-0.907,0.0
7.856,-0.337,-0.918,0.0
7.547,-0.325,-0.925,0.0
7.301,-0.316,-0.935,0.0
7.024,-0.306,-0.939,0.0
8.529,-0.371,-0.898,0.0
8.167,-0.357,-0.905,0.0
7.893,-0.347,-0.918,0.0
7.591,-0.335,-0.926,0.0
7.283,-0.323,-0.929,0.0
7.064,-0.315,-0.94,0.0
8.572,-0.381,-0.898,0.0
8.213,-0.367,-0.905,0.0
7.907,-0.355,-0.915,0.0
7.621,-0.344,-0.925,0.0
7.335,-0.332,-0.931,0.0
7.095,-0.323,-0.94,0.0
8.612,-0.391,-0.896,0.0
8.258,-0.377,-0.905,0.0
7.947,-0.364,-0.915,0.0
7.646,-0.352,-0.923,0.0
7.361,-0.341,-0.93,0.0
7.111,-0.33,-0.938,0.0
8.655,-0.402,-0.895,0.0
8.303,-0.387,-0.904,0.0
7.992,-0.374,-0.915,0.0
7.678,-0.361,-0.922,0.0
7.408,-0.35,-0.93,0.0
7.146,-0.339,-0.937,0.0
8.709,-0.412,-0.895,0.0
8.356,-0.397,-0.904,0.0
8.023,-0.383,-0.912,0.0
7.705,-0.369,-0.919,0.0
7.44,-0.358,-0.929,0.0
7.167,-0.346,-0.934,0.0
8.751,-0.422,-0.892,0.0
8.401,-0.407,-0.903,0.0
8.034,-0.391,-0.907,0.0
7.77,-0.379,-0.921,0.0
7.471,-0.366,-0.927,0.0
7.223,-0.355,-0.936,0.0
8.799,-0.432,-0.891,0.0
8.433,-0.416,-0.9,0.0
8.097,-0.401,-0.908,0.0
7.805,-0.388,-0.919,0.0
7.517,-0.375,-0.927,0.0
7.258,-0.363,-0.935,0.0
8.881,-0.444,-0.892,0.0
8.488,-0.426,-0.898,0.0
8.145,-0.41,-0.907,0.0
7.847,-0.396,-0.917,0.0
7.559,-0.383,-0.925,0.0
7.281,-0.371,-0.931,0.0
8.942,-0.454,-0.89,0.0
8.576,-0.437,-0.9,0.0
8.219,-0.42,-0.908,0.0
7.893,-0.405,-0.916,0.0
7.628,-0.393,-0.927,0.0
7.324,-0.379,-0.93,0.0
9.019,-0.465,-0.89,0.0
8.629,-0.447,-0.898,0.0
8.256,-0.429,-0.904,0.0
7.959,-0.415,-0.916,0.0
7.674,-0.402,-0.925,0.0
7.39,-0.388,-0.932,0.0
9.099,-0.477,-0.889,0.0
8.681,-0.456,-0.895,0.0
8.321,-0.439,-0.904,0.0
7.991,-0.423,-0.912,0.0
7.714,-0.409,-0.923,0.0
7.43,-0.396,-0.929,0.0
9.172,-0.487,-0.887,0.0
8.742,-0.466,-0.893,0.0
8.398,-0.449,-0.904,0.0
8.046,-0.432,-0.91,0.0
7.797,-0.42,-0.925,0.0
7.501,-0.405,-0.931,0.0
9.258,-0.499,-0.886,0.0
8.825,-0.477,-0.893,0.0
8.459,-0.458,-0.901,0.0
8.106,-0.44,-0.909,0.0
7.839,-0.427,-0.922,0.0
7.551,-0.413,-0.929,0.0
9.325,-0.508,-0.883,0.0
8.91,-0.487,-0.892,0.0
8.541,-0.468,-0.901,0.0
8.19,-0.45,-0.91,0.0
7.884,-0.435,-0.918,0.0
7.597,-0.42,-0.926,0.0
9.439,-0.521,-0.884,0.0
9.007,-0.498,-0.892,0.0
8.591,-0.477,-0.897,0.0
8.267,-0.46,-0.909,0.0
7.937,-0.443,-0.916,0.0
7.666,-0.429,-0.926,0.0
9.541,-0.533,-0.883,0.0
9.09,-0.509,-0.89,0.0
8.704,-0.488,-0.899,0.0
8.334,-0.469,-0.907,0.0
8.002,-0.451,-0.914,0.0
7.701,-0.436,-0.922,0.0
9.621,-0.543,-0.879,0.0
9.171,-0.519,-0.888,0.0
8.77,-0.497,-0.896,0.0
8.402,-0.478,-0.905,0.0
8.084,-0.461,-0.914,0.0
7.79,-0.445,-0.923,0.0
9.742,-0.555,-0.879,1.0
9.261,-0.529,-0.886,0.0
8.842,-0.506,-0.893,0.0
8.472,-0.486,-0.902,0.0
8.147,-0.469,-0.912,0.0
7.85,-0.453,-0.921,0.0
9.799,-0.563,-0.873,2.0
9.37,-0.54,-0.885,0.0
8.937,-0.516,-0.892,0.0
8.571,-0.496,-0.902,0.0
8.221,-0.477,-0.91,0.0
7.918,-0.461,-0.919,0.0
9.91,-0.575,-0.87,2.0
9.472,-0.551,-0.883,0.0
9.056,-0.528,-0.892,0.0
8.645,-0.505,-0.899,0.0
8.299,-0.486,-0.908,0.0
7.988,-0.468,-0.917,0.0
10.005,-0.585,-0.866,1.0
9.579,-0.561,-0.88,0.0
9.162,-0.538,-0.891,0.0
8.726,-0.513,-0.897,0.0
8.371,-0.493,-0.905,0.0
8.054,-0.476,-0.914,0.0
10.162,-0.598,-0.866,0.0
9.731,-0.574,-0.882,0.0
9.246,-0.547,-0.887,0.0
8.849,-0.524,-0.898,0.0
8.485,-0.504,-0.906,0.0
8.138,-0.484,-0.913,0.0
10.314,-0.612,-0.866,0.0
9.797,-0.582,-0.875,2.0
9.369,-0.557,-0.887,0.0
8.936,-0.533,-0.894,0.0
8.574,-0.512,-0.904,0.0
8.229,-0.492,-0.912,0.0
10.459,-0.624,-0.864,0.0
9.896,-0.591,-0.87,2.0
9.477,-0.567,-0.884,0.0
9.062,-0.543,-0.895,0.0
8.64,-0.519,-0.899,0.0
8.308,-0.5,-0.909,0.0
10.591,-0.635,-0.86,0.0
10.036,-0.603,-0.869,1.0
9.595,-0.577,-0.882,0.0
9.177,-0.553,-0.893,0.0
8.752,-0.528,-0.899,0.0
8.383,-0.507,-0.906,0.0
10.756,-0.648,-0.859,0.0
10.193,-0.615,-0.868,0.0
9.74,-0.589,-0.881,1.0
9.277,-0.561,-0.89,0.0
8.855,-0.537,-0.897,0.0
8.492,-0.515,-0.905,0.0
10.884,-0.658,-0.854,0.0
10.371,-0.628,-0.868,0.0
9.806,-0.595,-0.873,2.0
9.39,-0.57,-0.887,0.0
8.957,-0.545,-0.894,0.0
8.59,-0.523,-0.903,0.0
11.056,-0.671,-0.851,0.0
10.483,-0.637,-0.862,0.0
9.933,-0.605,-0.87,1.0
9.516,-0.58,-0.885,0.0
9.129,-0.557,-0.898,0.0
8.684,-0.53,-0.9,0.0
11.221,-0.683,-0.847,0.0
10.643,-0.649,-0.86,0.0
10.072,-0.614,-0.867,0.0
9.663,-0.59,-0.884,0.0
9.23,-0.564,-0.894,0.0
8.788,-0.538,-0.898,0.0
11.394,-0.695,-0.844,0.0
10.806,-0.66,-0.857,0.0
10.269,-0.628,-0.869,0.0
9.762,-0.597,-0.879,2.0
9.34,-0.572,-0.891,0.0
8.915,-0.547,-0.897,0.0
11.559,-0.706,-0.839,0.0
10.967,-0.671,-0.854,0.0
10.425,-0.638,-0.867,0.0
9.867,-0.604,-0.873,2.0
9.444,-0.579,-0.886,0.0
9.05,-0.555,-0.897,0.0
11.741,-0.718,-0.834,0.0
11.129,-0.681,-0.849,0.0
10.561,-0.647,-0.862,0.0
10.007,-0.613,-0.87,1.0
9.584,-0.588,-0.884,0.0
9.166,-0.563,-0.894,0.0
11.94,-0.731,-0.83,0.0
11.315,-0.693,-0.846,0.0
10.745,-0.658,-0.86,0.0
10.171,-0.623,-0.869,0.0
9.751,-0.598,-0.884,1.0
9.288,-0.57,-0.892,0.0
12.16,-0.744,-0.826,0.0
11.511,-0.704,-0.842,0.0
10.882,-0.666,-0.854,0.0
10.352,-0.634,-0.868,0.0
9.821,-0.602,-0.875,2.0
9.41,-0.577,-0.888,0.0
12.376,-0.756,-0.821,0.0
11.686,-0.714,-0.837,0.0
11.074,-0.677,-0.851,0.0
10.513,-0.643,-0.865,0.0
9.967,-0.61,-0.872,1.0
9.547,-0.584,-0.886,0.0
12.601,-0.768,-0.816,1.0
11.878,-0.724,-0.832,0.0
11.264,-0.687,-0.848,0.0
10.696,-0.653,-0.862,0.0
10.14,-0.619,-0.871,0.0
9.727,-0.594,-0.887,0.0
12.83,-0.78,-0.81,0.0
12.103,-0.736,-0.828,0.0
11.466,-0.697,-0.844,0.0
10.836,-0.659,-0.856,0.0
10.352,-0.63,-0.872,0.0
9.804,-0.596,-0.878,3.0
13.103,-0.795,-0.806,0.0
12.321,-0.747,-0.823,1.0
11.651,-0.706,-0.839,0.0
11.045,-0.669,-0.854,0.0
10.491,-0.636,-0.867,0.0
9.942,-0.603,-0.874,2.0
13.368,-0.808,-0.801,1.0
12.561,-0.759,-0.818,1.0
11.838,-0.715,-0.833,0.0
11.226,-0.678,-0.85,0.0
10.672,-0.644,-0.864,0.0
10.117,-0.61,-0.873,0.0
13.615,-0.819,-0.793,1.0
12.804,-0.77,-0.813,1.0
12.066,-0.725,-0.829,0.0
11.414,-0.686,-0.846,0.0
10.836,-0.651,-0.86,0.0
10.301,-0.618,-0.871,0.0
13.888,-0.831,-0.786,1.0
13.072,-0.781,-0.808,0.0
12.289,-0.734,-0.824,1.0
11.624,-0.694,-0.842,0.0
11.032,-0.658,-0.857,0.0
10.481,-0.625,-0.869,0.0
14.201,-0.844,-0.78,1.0
13.346,-0.793,-0.803,1.0
12.531,-0.744,-0.82,1.0
11.815,-0.701,-0.836,0.0
11.202,-0.664,-0.851,0.0
10.653,-0.631,-0.866,0.0
14.528,-0.858,-0.774,1.0
13.58,-0.801,-0.795,1.0
12.781,-0.754,-0.815,1.0
12.037,-0.709,-0.832,1.0
11.404,-0.671,-0.848,0.0
10.824,-0.637,-0.861,0.0
14.883,-0.872,-0.768,1.0
13.876,-0.813,-0.789,1.0
13.035,-0.763,-0.809,0.0
12.264,-0.717,-0.827,0.0
11.62,-0.678,-0.844,0.0
10.992,-0.641,-0.856,0.0
15.235,-0.886,-0.761,1.0
14.159,-0.822,-0.781,1.0
13.316,-0.772,-0.804,1.0
12.523,-0.726,-0.823,1.0
11.815,-0.684,-0.838,0.0
11.207,-0.648,-0.854,0.0
15.616,-0.9,-0.753,1.0
14.519,-0.835,-0.776,1.0
13.574,-0.78,-0.797,1.0
12.755,-0.732,-0.817,1.0
12.034,-0.69,-0.833,0.0
11.387,-0.652,-0.848,0.0
15.965,-0.911,-0.744,1.0
14.868,-0.847,-0.77,1.0
13.871,-0.789,-0.791,1.0
13.024,-0.74,-0.812,1.0
12.276,-0.696,-0.829,0.0
11.618,-0.658,-0.846,0.0
16.439,-0.928,-0.738,1.0
15.218,-0.858,-0.763,1.0
14.145,-0.796,-0.783,1.0
13.296,-0.747,-0.806,1.0
12.495,-0.701,-0.823,0.0
11.797,-0.66,-0.839,0.0
16.85,-0.94,-0.728,1.0
15.611,-0.87,-0.756,1.0
14.512,-0.807,-0.778,1.0
13.563,-0.753,-0.8,1.0
12.755,-0.706,-0.819,1.0
12.025,-0.665,-0.835,0.0
17.309,-0.954,-0.719,1.0
15.981,-0.879,-0.747,1.0
14.845,-0.815,-0.771,1.0
13.819,-0.757,-0.791,1.0
13.016,-0.712,-0.813,0.0
12.248,-0.668,-0.829,0.0
17.821,-0.969,-0.71,1.0
16.376,-0.888,-0.738,1.0
15.187,-0.822,-0.763,1.0
14.137,-0.764,-0.786,1.0
13.281,-0.716,-0.807,1.0
12.498,-0.672,-0.825,0.0
18.3,-0.981,-0.698,1.0
16.848,-0.901,-0.73,1.0
15.554,-0.83,-0.755,1.0
14.467,-0.77,-0.78,1.0
13.547,-0.719,-0.801,1.0
12.743,-0.675,-0.82,0.0
18.806,-0.993,-0.686,1.0
17.358,-0.914,-0.723,1.0
15.949,-0.838,-0.748,1.0
14.803,-0.775,-0.773,1.0
13.826,-0.722,-0.794,1.0
13.016,-0.678,-0.815,1.0
19.388,-1.007,-0.674,1.0
17.816,-0.923,-0.712,1.0
16.352,-0.844,-0.739,1.0
15.161,-0.781,-0.766,1.0
14.105,-0.724,-0.786,1.0
13.274,-0.68,-0.809,1.0
19.955,-1.018,-0.661,1.0
18.277,-0.93,-0.7,1.0
16.848,-0.855,-0.734,1.0
15.519,-0.785,-0.758,1.0
14.462,-0.729,-0.782,1.0
13.555,-0.682,-0.804,1.0
20.59,-1.032,-0.648,1.0
18.775,-0.938,-0.688,1.0
17.306,-0.861,-0.725,1.0
15.908,-0.789,-0.751,1.0
14.8,-0.732,-0.775,1.0
13.797,-0.68,-0.795,1.0
21.314,-1.047,-0.635,1.0
19.331,-0.946,-0.677,1.0
17.773,-0.867,-0.715,1.0
16.319,-0.793,-0.743,1.0
15.137,-0.734,-0.768,1.0
14.08,-0.68,-0.788,1.0
22.099,-1.063,-0.622,1.0
19.906,-0.954,-0.664,1.0
18.242,-0.871,-0.704,1.0
16.78,-0.799,-0.737,1.0
15.501,-0.735,-0.761,1.0
14.42,-0.681,-0.783,1.0
22.815,-1.074,-0.605,2.0
20.523,-0.962,-0.651,1.0
18.719,-0.874,-0.691,1.0
17.209,-0.801,-0.727,1.0
15.826,-0.733,-0.752,1.0
14.741,-0.68,-0.777,1.0
23.529,-1.082,-0.586,2.0
21.226,-0.972,-0.639,1.0
19.275,-0.879,-0.681,1.0
17.688,-0.803,-0.719,1.0
16.241,-0.734,-0.745,1.0
15.109,-0.68,-0.772,1.0
24.498,-1.099,-0.57,1.0
21.899,-0.978,-0.624,1.0
19.81,-0.881,-0.668,1.0
18.106,-0.801,-0.706,1.0
16.694,-0.735,-0.739,1.0
15.433,-0.677,-0.763,1.0
25.359,-1.107,-0.549,1.0
22.675,-0.986,-0.609,1.0
20.409,-0.883,-0.655,1.0
18.604,-0.801,-0.696,1.0
17.131,-0.734,-0.731,1.0
15.784,-0.673,-0.756,1.0
26.278,-1.116,-0.528,1.0
23.414,-0.99,-0.592,2.0
21.034,-0.884,-0.642,1.0
19.154,-0.801,-0.686,1.0
17.567,-0.731,-0.721,1.0
16.137,-0.668,-0.747,1.0
27.112,-1.118,-0.502,2.0
24.266,-0.995,-0.575,1.0
21.758,-0.887,-0.629,1.0
19.655,-0.797,-0.673,1.0
17.995,-0.726,-0.711,1.0
16.581,-0.665,-0.741,1.0
28.218,-1.127,-0.478,2.0
25.108,-0.997,-0.556,1.0
22.475,-0.887,-0.615,1.0
20.199,-0.793,-0.661,1.0
18.496,-0.722,-0.702,1.0
17.008,-0.66,-0.734,1.0
29.132,-1.125,-0.448,1.0
26.014,-0.999,-0.536,1.0
23.214,-0.886,-0.6,1.0
20.813,-0.789,-0.648,0.0
18.945,-0.714,-0.69,1.0
17.439,-0.654,-0.726,1.0
30.111,-1.122,-0.417,1.0
26.833,-0.994,-0.512,1.0
23.881,-0.879,-0.58,1.0
21.472,-0.785,-0.636,1.0
19.495,-0.708,-0.68,1.0
17.859,-0.645,-0.717,1.0
31.525,-1.132,-0.389,1.0
27.762,-0.99,-0.488,1.0
24.803,-0.878,-0.566,1.0
22.16,-0.779,-0.624,1.0
20.003,-0.698,-0.668,1.0
18.287,-0.634,-0.706,1.0
32.873,-1.133,-0.356,1.0
28.7,-0.982,-0.461,1.0
25.597,-0.869,-0.546,1.0
22.855,-0.771,-0.609,1.0
20.562,-0.688,-0.656,1.0
18.727,-0.622,-0.696,2.0
35.425,-1.17,-0.332,0.0
29.626,-0.97,-0.433,1.0
26.382,-0.858,-0.524,1.0
23.52,-0.758,-0.593,1.0
21.164,-0.677,-0.644,1.0
19.185,-0.609,-0.685,1.0
40.34,-1.272,-0.32,1.0
30.666,-0.959,-0.404,1.0
27.176,-0.843,-0.5,1.0
24.272,-0.747,-0.577,1.0
21.769,-0.664,-0.631,1.0
19.72,-0.596,-0.676,1.0
40.2,-1.207,-0.261,20.0
32.23,-0.959,-0.379,1.0
28.166,-0.83,-0.479,2.0
25.1,-0.733,-0.561,1.0
22.445,-0.65,-0.619,1.0
20.255,-0.581,-0.665,1.0
40.223,-1.145,-0.205,45.0
33.371,-0.941,-0.345,1.0
29.003,-0.81,-0.452,1.0
25.795,-0.714,-0.541,1.0
23.107,-0.633,-0.606,1.0
20.754,-0.563,-0.653,3.0
40.985,-1.103,-0.152,165.0
0.0,0.0,0.0,0.0
29.862,-0.787,-0.425,1.0
26.564,-0.692,-0.52,1.0
23.723,-0.612,-0.589,1.0
21.129,-0.539,-0.636,2.0
41.006,-1.038,-0.097,11.0
40.229,-1.007,-0.307,2.0
30.781,-0.762,-0.397,1.0
27.328,-0.669,-0.499,7.0
24.494,-0.592,-0.576,1.0
21.904,-0.524,-0.631,1.0
40.302,-0.954,-0.041,150.0
40.277,-0.942,-0.254,57.0
32.38,-0.748,-0.374,1.0
28.08,-0.641,-0.476,2.0
25.196,-0.568,-0.56,1.0
22.51,-0.501,-0.619,3.0
0.0,0.0,0.0,0.0
0.0,0.0,0.0,0.0
33.437,-0.717,-0.344,1.0
28.98,-0.613,-0.453,1.0
25.866,-0.539,-0.541,1.0
23.044,-0.474,-0.604,2.0
65.009,-1.322,0.1,0.0
46.719,-0.936,-0.174,2.0
0.0,0.0,0.0,0.0
29.698,-0.577,-0.427,2.0
26.53,-0.508,-0.522,1.0
23.68,-0.447,-0.591,1.0
40.286,-0.75,0.112,67.0
40.306,-0.739,-0.1,67.0
40.147,-0.724,-0.312,5.0
30.55,-0.541,-0.402,1.0
27.186,-0.474,-0.501,1.0
24.345,-0.417,-0.578,1.0
40.307,-0.68,0.161,37.0
40.322,-0.668,-0.051,1.0
40.144,-0.653,-0.263,5.0
31.647,-0.506,-0.378,1.0
28.045,-0.439,-0.483,1.0
25.047,-0.385,-0.564,2.0
81.705,-1.236,0.425,3.0
58.038,-0.86,-0.004,1.0
43.1,-0.625,-0.231,1.0
32.992,-0.469,-0.355,1.0
28.755,-0.399,-0.462,2.0
25.661,-0.348,-0.548,2.0
78.923,-1.05,0.504,15.0
60.823,-0.791,0.065,6.0
45.988,-0.584,-0.193,2.0
35.015,-0.433,-0.336,1.0
29.398,-0.355,-0.438,2.0
26.309,-0.309,-0.532,1.0
79.237,-0.911,0.596,59.0
60.558,-0.676,0.135,6.0
50.836,-0.552,-0.156,2.0
38.458,-0.406,-0.326,14.0
30.101,-0.308,-0.415,2.0
26.906,-0.267,-0.514,1.0
79.448,-0.767,0.686,150.0
60.984,-0.569,0.203,9.0
50.66,-0.457,-0.1,9.0
42.224,-0.368,-0.312,1.0
30.854,-0.259,-0.392,1.0
27.552,-0.223,-0.497,3.0
79.455,-0.621,0.771,169.0
61.947,-0.464,0.272,6.0
46.629,-0.335,-0.043,3.0
42.197,-0.289,-0.268,11.0
32.084,-0.21,-0.374,1.0
28.297,-0.176,-0.481,2.0
79.455,-0.472,0.854,176.0
76.684,-0.431,0.416,12.0
47.69,-0.253,0.004,10.0
39.609,-0.198,-0.211,6.0
33.286,-0.155,-0.354,1.0
28.968,-0.126,-0.463,2.0
79.47,-0.322,0.934,151.0
76.643,-0.285,0.493,13.0
54.386,-0.185,0.059,4.0
40.456,-0.125,-0.175,16.0
34.08,-0.094,-0.329,0.0
29.506,-0.072,-0.442,2.0
79.469,-0.17,1.012,151.0
79.32,-0.144,0.587,34.0
55.591,-0.083,0.114,29.0
40.932,-0.048,-0.138,17.0
38.106,-0.032,-0.332,2.0
29.997,-0.015,-0.421,2.0
79.468,-0.016,1.088,151.0
79.436,0.009,0.662,150.0
59.276,0.026,0.177,12.0
43.936,0.033,-0.107,14.0
38.236,0.041,-0.298,5.0
30.734,0.043,-0.404,1.0
79.462,0.138,1.16,151.0
79.47,0.165,0.735,150.0
59.076,0.141,0.23,14.0
0.0,0.0,0.0,0.0
38.278,0.116,-0.264,13.0
31.406,0.106,-0.385,1.0
79.457,0.296,1.231,150.0
59.324,0.24,0.601,90.0
59.326,0.259,0.283,19.0
0.0,0.0,0.0,0.0
38.442,0.193,-0.232,20.0
32.162,0.172,-0.367,1.0
48.177,0.275,0.787,63.0
48.168,0.291,0.528,49.0
48.155,0.306,0.269,62.0
47.387,0.317,0.006,42.0
38.6,0.271,-0.201,43.0
33.076,0.243,-0.35,1.0
48.105,0.371,0.825,127.0
48.079,0.386,0.566,110.0
48.043,0.402,0.307,105.0
47.857,0.416,0.044,55.0
38.901,0.351,-0.172,47.0
33.711,0.315,-0.331,1.0
48.118,0.468,0.862,101.0
48.107,0.483,0.603,105.0
48.065,0.499,0.344,95.0
47.957,0.513,0.08,62.0
39.223,0.433,-0.144,41.0
37.194,0.423,-0.337,2.0
55.084,0.647,1.028,37.0
48.195,0.582,0.64,27.0
48.118,0.597,0.38,48.0
48.015,0.611,0.115,64.0
43.972,0.574,-0.131,3.0
37.138,0.497,-0.311,5.0
190.151,2.617,3.682,22.0
126.469,1.783,1.767,36.0
78.018,1.124,0.668,19.0
48.066,0.709,0.148,4.0
44.327,0.668,-0.102,10.0
37.15,0.572,-0.286,10.0
190.022,3.001,3.806,25.0
126.638,2.041,1.852,39.0
78.124,1.285,0.72,9.0
0.0,0.0,0.0,0.0
44.277,0.757,-0.074,18.0
37.234,0.649,-0.263,15.0
128.149,2.287,2.648,25.0
126.992,2.309,1.937,22.0
89.803,1.661,0.883,9.0
60.358,1.137,0.261,35.0
0.0,0.0,0.0,0.0
37.286,0.727,-0.241,29.0
128.051,2.549,2.721,48.0
106.325,2.151,1.684,2.0
80.516,1.654,0.838,10.0
60.725,1.268,0.297,35.0
0.0,0.0,0.0,0.0
37.302,0.803,-0.221,39.0
0.0,0.0,0.0,0.0
0.0,0.0,0.0,0.0
89.769,2.031,0.984,5.0
61.332,1.407,0.333,28.0
47.472,1.105,0.0,22.0
0.0,0.0,0.0,0.0
100.489,2.415,2.243,3.0
100.405,2.445,1.695,5.0
106.097,2.618,1.215,42.0
61.541,1.539,0.364,9.0
48.072,1.217,0.023,22.0
38.137,0.978,-0.188,36.0
0.0,0.0,0.0,0.0
0.0,0.0,0.0,0.0
106.078,2.835,1.264,27.0
74.461,2.015,0.475,15.0
48.472,1.327,0.045,22.0
0.0,0.0,0.0,0.0
0.0,0.0,0.0,0.0
0.0,0.0,0.0,0.0
100.627,2.898,1.242,2.0
74.376,2.166,0.505,16.0
48.642,1.432,0.065,22.0
0.0,0.0,0.0,0.0
0.0,0.0,0.0,0.0
0.0,0.0,0.0,0.0
95.826,2.958,1.22,4.0
74.494,2.324,0.534,17.0
48.958,1.543,0.084,22.0
39.706,1.265,-0.147,43.0
0.0,0.0,0.0,0.0
0.0,0.0,0.0,0.0
100.698,3.317,1.317,4.0
74.559,2.481,0.561,12.0
54.287,1.823,0.111,18.0
39.725,1.347,-0.134,43.0
0.0,0.0,0.0,0.0
0.0,0.0,0.0,0.0
100.843,3.53,1.35,3.0
77.543,2.74,0.607,17.0
54.371,1.938,0.128,27.0
40.189,1.445,-0.124,42.0
0.0,0.0,0.0,0.0
0.0,0.0,0.0,0.0
101.013,3.746,1.381,2.0
77.556,2.901,0.627,19.0
54.294,2.048,0.142,27.0
40.301,1.534,-0.115,35.0
0.0,0.0,0.0,0.0
0.0,0.0,0.0,0.0
101.011,3.955,1.404,4.0
0.0,0.0,0.0,0.0
54.463,2.166,0.154,27.0
40.531,1.625,-0.107,33.0
0.0,0.0,0.0,0.0
0.0,0.0,0.0,0.0
101.214,4.174,1.427,2.0
77.422,3.217,0.658,55.0
54.373,2.276,0.164,28.0
40.792,1.72,-0.1,48.0
0.0,0.0,0.0,0.0
0.0,0.0,0.0,0.0
101.208,4.38,1.442,2.0
77.334,3.372,0.669,42.0
54.376,2.388,0.172,28.0
40.735,1.802,-0.095,38.0
0.0,0.0,0.0,0.0
0.0,0.0,0.0,0.0
101.267,4.593,1.456,1.0
77.41,3.533,0.678,51.0
54.409,2.501,0.177,27.0
40.731,1.885,-0.09,41.0
0.0,0.0,0.0,0.0
0.0,0.0,0.0,0.0
105.772,5.013,1.528,6.0
77.074,3.677,0.681,39.0
54.46,2.615,0.181,27.0
40.808,1.972,-0.088,51.0
0.0,0.0,0.0,0.0
0.0,0.0,0.0,0.0
105.81,5.229,1.533,16.0
76.796,3.819,0.681,33.0
54.35,2.72,0.182,27.0
40.736,2.05,-0.087,44.0
167.169,8.5,4.27,13.0
167.145,8.549,3.347,4.0
105.802,5.444,1.534,81.0
75.944,3.929,0.673,22.0
54.342,2.828,0.182,27.0
40.672,2.129,-0.088,43.0
162.523,8.595,4.148,14.0
162.577,8.643,3.25,13.0
105.764,5.655,1.529,8.0
75.667,4.068,0.668,22.0
54.283,2.935,0.179,27.0
40.644,2.209,-0.09,42.0
163.19,8.958,4.155,18.0
163.065,8.998,3.25,23.0
105.791,5.867,1.522,2.0
75.336,4.2,0.659,23.0
54.222,3.039,0.174,19.0
40.473,2.28,-0.094,15.0
0.0,0.0,0.0,0.0
163.763,9.361,3.247,10.0
0.0,0.0,0.0,0.0
75.211,4.342,0.649,33.0
54.403,3.156,0.168,25.0
40.427,2.358,-0.098,46.0
164.105,9.657,4.14,7.0
0.0,0.0,0.0,0.0
120.928,7.185,1.709,7.0
74.703,4.461,0.633,29.0
54.494,3.269,0.159,22.0
40.224,2.425,-0.105,43.0
33.452,2.034,0.838,1.0
33.439,2.042,0.652,11.0
33.472,2.054,0.467,155.0
33.46,2.063,0.277,159.0
33.453,2.071,0.091,143.0
40.366,2.512,-0.113,9.0
157.934,9.911,3.926,14.0
139.635,8.802,2.694,47.0
120.898,7.654,1.659,19.0
74.098,4.712,0.597,50.0
47.14,3.011,0.118,11.0
0.0,0.0,0.0,0.0
114.735,7.421,2.824,28.0
139.622,9.069,2.659,34.0
114.953,7.499,1.549,3.0
73.863,4.839,0.576,37.0
46.583,3.065,0.103,20.0
40.578,2.681,-0.135,2.0
114.636,7.636,2.789,52.0
139.65,9.34,2.618,16.0
113.709,7.635,1.498,5.0
73.774,4.974,0.553,26.0
0.0,0.0,0.0,0.0
36.51,2.481,-0.133,27.0
114.386,7.837,2.746,34.0
114.727,7.89,2.115,15.0
96.72,6.677,1.242,3.0
73.681,5.106,0.528,11.0
0.0,0.0,0.0,0.0
36.588,2.555,-0.146,12.0
29.488,2.075,0.697,46.0
29.501,2.084,0.533,52.0
29.504,2.092,0.368,16.0
58.759,4.182,0.399,20.0
46.535,3.324,0.056,14.0
36.121,2.59,-0.158,40.0
29.374,2.122,0.683,23.0
29.389,2.13,0.519,33.0
29.426,2.141,0.355,14.0
29.558,2.158,0.188,7.0
29.628,2.171,0.023,6.0
29.667,2.182,-0.142,13.0
29.336,2.173,0.67,26.0
29.334,2.18,0.505,24.0
29.386,2.192,0.342,16.0
29.499,2.208,0.175,13.0
29.54,2.218,0.01,11.0
29.634,2.233,-0.155,18.0
29.31,2.224,0.656,40.0
29.319,2.232,0.492,28.0
29.354,2.241,0.328,21.0
29.463,2.257,0.161,21.0
29.554,2.272,-0.003,21.0
29.624,2.285,-0.169,25.0
29.32,2.277,0.642,58.0
29.304,2.282,0.477,41.0
29.343,2.292,0.313,32.0
29.407,2.305,0.146,15.0
29.389,2.31,-0.018,10.0
29.293,2.311,-0.183,26.0
29.331,2.329,0.627,47.0
29.296,2.333,0.461,39.0
29.333,2.343,0.297,37.0
29.369,2.353,0.13,33.0
29.319,2.356,-0.034,20.0
29.259,2.358,-0.198,26.0
29.305,2.378,0.61,34.0
29.308,2.384,0.445,38.0
29.34,2.394,0.281,40.0
29.368,2.403,0.113,35.0
29.3,2.404,-0.051,22.0
29.269,2.409,-0.215,32.0
29.337,2.43,0.594,22.0
29.319,2.435,0.428,32.0
29.366,2.445,0.264,33.0
29.403,2.455,0.096,35.0
29.332,2.456,-0.069,31.0
34.827,2.925,-0.278,8.0
29.379,2.482,0.576,43.0
29.369,2.488,0.411,24.0
65.486,5.563,0.547,18.0
34.229,2.915,0.09,0.0
0.0,0.0,0.0,0.0
34.753,2.976,-0.299,8.0
29.481,2.54,0.559,43.0
29.45,2.543,0.393,20.0
65.303,5.655,0.503,6.0
46.391,4.027,0.091,20.0
38.307,3.334,-0.14,20.0
34.634,3.022,-0.322,7.0
120.63,10.587,2.208,20.0
102.79,9.043,1.301,31.0
57.385,5.061,0.403,31.0
41.923,3.706,0.053,17.0
35.968,3.187,-0.156,38.0
13.906,1.235,-0.139,4.0
120.713,10.785,2.124,28.0
96.716,8.661,1.155,5.0
0.0,0.0,0.0,0.0
41.338,3.719,0.022,5.0
13.88,1.252,-0.07,9.0
13.887,1.255,-0.149,21.0
13.892,1.263,0.234,4.0
13.867,1.263,0.155,6.0
13.86,1.265,0.077,9.0
13.854,1.268,-0.002,20.0
13.854,1.271,-0.081,25.0
13.85,1.273,-0.159,26.0
13.854,1.28,0.223,18.0
13.839,1.282,0.144,24.0
13.828,1.283,0.066,27.0
13.841,1.287,-0.013,30.0
13.835,1.29,-0.091,29.0
13.831,1.292,-0.169,30.0
13.842,1.3,0.211,30.0
13.836,1.302,0.133,37.0
13.83,1.304,0.055,38.0
13.821,1.306,-0.024,34.0
13.818,1.308,-0.102,34.0
13.816,1.311,-0.181,34.0
13.821,1.318,0.2,35.0
13.827,1.321,0.121,87.0
13.804,1.322,0.043,60.0
13.807,1.324,-0.036,38.0
13.804,1.327,-0.114,36.0
13.793,1.328,-0.192,33.0
13.8,1.336,0.188,38.0
13.812,1.339,0.11,139.0
13.8,1.34,0.031,119.0
13.789,1.342,-0.047,56.0
13.794,1.345,-0.126,39.0
13.779,1.346,-0.204,33.0
13.785,1.353,0.176,41.0
13.796,1.357,0.097,144.0
13.789,1.358,0.019,139.0
13.788,1.361,-0.059,60.0
13.778,1.362,-0.138,39.0
13.775,1.365,-0.216,38.0
13.783,1.372,0.163,41.0
13.79,1.375,0.085,150.0
13.787,1.377,0.007,150.0
13.767,1.377,-0.072,37.0
13.779,1.381,-0.15,37.0
13.771,1.383,-0.228,37.0
13.775,1.389,0.15,41.0
13.789,1.393,0.072,150.0
13.783,1.394,-0.005,136.0
13.77,1.395,-0.085,39.0
13.774,1.398,-0.163,38.0
13.779,1.401,-0.241,36.0
13.773,1.406,0.138,43.0
13.786,1.41,0.059,150.0
13.775,1.411,-0.018,120.0
13.764,1.412,-0.098,51.0
13.772,1.415,-0.176,41.0
13.777,1.418,-0.255,35.0
13.779,1.424,0.124,41.0
13.786,1.427,0.046,145.0
13.778,1.428,-0.031,90.0
13.768,1.429,-0.111,40.0
13.779,1.433,-0.19,49.0
13.77,1.434,-0.268,34.0
13.785,1.441,0.111,57.0
13.79,1.444,0.032,108.0
13.776,1.444,-0.045,70.0
13.76,1.445,-0.125,37.0
13.782,1.449,-0.204,43.0
13.779,1.451,-0.282,33.0
13.787,1.457,0.097,42.0
13.791,1.46,0.019,97.0
13.779,1.461,-0.059,39.0
13.77,1.462,-0.139,35.0
13.78,1.465,-0.218,36.0
13.787,1.468,-0.296,34.0
13.785,1.473,0.083,37.0
13.797,1.476,0.004,43.0
13.786,1.477,-0.073,34.0
13.781,1.478,-0.153,34.0
13.792,1.481,-0.232,35.0
13.786,1.483,-0.31,34.0
13.799,1.489,0.069,35.0
13.796,1.491,-0.009,34.0
13.786,1.491,-0.088,25.0
13.786,1.493,-0.168,30.0
13.8,1.497,-0.247,31.0
13.786,1.498,-0.325,31.0
13.802,1.504,0.054,30.0
13.815,1.507,-0.024,30.0
13.799,1.507,-0.102,22.0
13.78,1.507,-0.182,23.0
13.806,1.512,-0.262,29.0
13.797,1.513,-0.34,29.0
13.816,1.519,0.039,22.0
13.826,1.522,-0.039,21.0
13.823,1.523,-0.118,16.0
13.799,1.522,-0.198,19.0
13.808,1.525,-0.276,24.0
13.8,1.526,-0.355,24.0
13.848,1.536,0.024,15.0
13.854,1.538,-0.054,14.0
13.859,1.54,-0.133,9.0
13.819,1.538,-0.213,15.0
13.803,1.538,-0.292,20.0
13.802,1.539,-0.371,21.0
13.853,1.549,0.009,8.0
32.845,3.677,-0.165,3.0
13.86,1.553,-0.148,4.0
13.861,1.555,-0.229,13.0
13.819,1.552,-0.308,18.0
13.796,1.551,-0.386,18.0
39.634,4.467,-0.017,16.0
32.871,3.708,-0.202,6.0
13.891,1.568,-0.165,0.0
13.837,1.564,-0.244,7.0
13.839,1.566,-0.324,16.0
13.8,1.563,-0.402,18.0
38.265,4.344,-0.06,30.0
34.493,3.919,-0.25,34.0
25.151,2.86,-0.327,1.0
21.51,2.449,-0.404,3.0
13.856,1.579,-0.34,13.0
13.816,1.576,-0.418,21.0
36.932,4.222,-0.1,8.0
34.449,3.941,-0.289,15.0
10.018,1.147,-0.141,2.0
20.813,2.385,-0.415,3.0
13.837,1.587,-0.355,8.0
13.819,1.587,-0.434,12.0
36.61,4.212,-0.141,13.0
9.999,1.151,-0.095,7.0
10.005,1.153,-0.153,7.0
20.407,2.354,-0.431,1.0
13.872,1.601,-0.372,4.0
13.818,1.597,-0.45,7.0
10.025,1.16,-0.05,15.0
10.01,1.159,-0.107,16.0
9.994,1.158,-0.164,14.0
9.992,1.159,-0.223,13.0
10.004,1.161,-0.28,14.0
13.815,1.606,-0.466,4.0
10.011,1.165,-0.062,20.0
10.01,1.166,-0.119,20.0
10.014,1.167,-0.176,20.0
10.005,1.167,-0.234,18.0
10.012,1.169,-0.292,17.0
10.003,1.169,-0.349,16.0
10.016,1.172,-0.073,52.0
10.01,1.172,-0.131,90.0
10.011,1.173,-0.188,77.0
10.001,1.172,-0.246,35.0
10.01,1.174,-0.304,25.0
10.01,1.175,-0.361,19.0
10.007,1.176,-0.085,74.0
10.007,1.177,-0.142,116.0
10.001,1.177,-0.2,110.0
9.997,1.177,-0.258,51.0
10.007,1.179,-0.316,61.0
10.007,1.18,-0.373,22.0
9.999,1.18,-0.097,67.0
10.005,1.182,-0.154,127.0
9.996,1.181,-0.211,116.0
9.991,1.181,-0.269,50.0
10.002,1.183,-0.327,64.0
10.003,1.184,-0.385,32.0
9.991,1.184,-0.109,70.0
9.999,1.185,-0.166,148.0
9.993,1.185,-0.223,114.0
9.992,1.186,-0.281,62.0
10.004,1.188,-0.339,69.0
10.0,1.188,-0.397,31.0
9.991,1.188,-0.121,73.0
9.997,1.189,-0.178,146.0
