X,Y,Z,Reflectivity
79.38,-0.438,3.204,17.0
79.414,-0.431,2.739,150.0
79.429,-0.423,2.267,156.0
79.438,-0.416,1.802,176.0
79.443,-0.409,1.337,163.0
59.481,-0.296,2.628,101.0
79.412,-0.389,3.044,150.0
79.422,-0.382,2.579,150.0
79.437,-0.375,2.107,151.0
79.384,-0.368,1.641,255.0
79.449,-0.362,1.179,151.0
59.462,-0.262,2.507,93.0
79.415,-0.343,2.883,150.0
79.416,-0.336,2.419,150.0
79.437,-0.33,1.946,151.0
79.424,-0.323,1.481,255.0
79.454,-0.317,1.016,151.0
79.403,-0.306,3.185,98.0
79.429,-0.299,2.721,150.0
79.414,-0.293,2.255,151.0
79.437,-0.287,1.782,154.0
79.464,-0.281,1.319,156.0
79.457,-0.275,0.853,151.0
79.415,-0.264,3.021,150.0
79.425,-0.259,2.556,150.0
79.433,-0.253,2.092,151.0
79.431,-0.247,1.619,175.0
79.454,-0.242,1.154,151.0
79.426,-0.236,0.69,150.0
79.425,-0.226,2.858,150.0
79.43,-0.221,2.392,150.0
79.439,-0.215,1.926,151.0
79.444,-0.21,1.454,165.0
79.465,-0.205,0.989,151.0
76.465,-0.192,0.504,15.0
79.436,-0.191,2.691,150.0
79.427,-0.186,2.226,150.0
79.442,-0.181,1.761,152.0
79.456,-0.176,1.288,152.0
79.467,-0.171,0.824,151.0
61.704,-0.129,0.279,14.0
79.426,-0.158,2.527,150.0
79.422,-0.154,2.061,151.0
79.436,-0.149,1.595,168.0
79.453,-0.145,1.122,153.0
79.36,-0.14,0.655,60.0
0.0,0.0,0.0,0.0
79.429,-0.128,2.357,150.0
79.446,-0.124,1.893,151.0
79.445,-0.12,1.427,171.0
79.447,-0.116,0.955,153.0
76.19,-0.108,0.47,20.0
46.085,-0.063,0.015,8.0
79.433,-0.102,2.191,150.0
79.446,-0.098,1.725,151.0
79.456,-0.094,1.26,158.0
79.441,-0.091,0.786,150.0
61.603,-0.068,0.249,13.0
0.0,0.0,0.0,0.0
79.431,-0.078,2.023,150.0
79.447,-0.075,1.557,170.0
79.459,-0.072,1.092,158.0
79.203,-0.068,0.617,18.0
0.0,0.0,0.0,0.0
39.816,-0.031,-0.156,28.0
79.444,-0.057,1.853,151.0
79.45,-0.054,1.387,165.0
79.456,-0.051,0.921,175.0
76.025,-0.047,0.429,11.0
0.0,0.0,0.0,0.0
38.774,-0.021,-0.235,14.0
79.45,-0.039,1.682,151.0
79.458,-0.037,1.215,155.0
79.464,-0.034,0.75,150.0
55.96,-0.022,0.196,29.0
43.796,-0.016,-0.103,3.0
38.128,-0.013,-0.312,2.0
79.455,-0.024,1.512,161.0
79.469,-0.022,1.047,157.0
76.439,-0.019,0.558,16.0
48.031,-0.011,0.064,10.0
39.416,-0.008,-0.177,32.0
32.729,-0.006,-0.338,1.0
79.455,-0.012,1.342,155.0
79.455,-0.011,0.877,178.0
61.782,-0.007,0.319,12.0
0.0,0.0,0.0,0.0
38.444,-0.003,-0.255,6.0
30.571,-0.001,-0.382,1.0
79.47,-0.003,1.171,151.0
79.413,-0.002,0.706,101.0
0.0,0.0,0.0,0.0
40.444,0.0,-0.118,16.0
34.509,0.0,-0.302,1.0
29.243,0.0,-0.427,2.0
79.46,0.002,1.002,155.0
76.112,0.002,0.514,18.0
47.564,0.002,0.042,21.0
39.048,0.002,-0.196,15.0
31.855,0.002,-0.347,1.0
27.845,0.001,-0.466,2.0
79.467,0.005,0.833,151.0
0.0,0.0,0.0,0.0
0.0,0.0,0.0,0.0
38.304,0.003,-0.275,3.0
30.081,0.002,-0.392,2.0
26.673,0.002,-0.504,2.0
79.336,0.005,0.662,25.0
0.0,0.0,0.0,0.0
39.969,0.002,-0.134,33.0
33.403,0.002,-0.311,1.0
28.911,0.001,-0.439,2.0
25.49,0.001,-0.536,1.0
76.007,0.002,0.47,13.0
0.0,0.0,0.0,0.0
38.871,0.0,-0.214,14.0
31.31,0.0,-0.359,1.0
27.462,0.0,-0.475,1.0
24.158,0.0,-0.56,2.0
56.17,-0.002,0.227,11.0
0.0,0.0,0.0,0.0
38.307,-0.002,-0.293,2.0
29.676,-0.002,-0.404,2.0
26.326,-0.002,-0.512,2.0
23.216,-0.002,-0.588,3.0
0.0,0.0,0.0,0.0
39.587,-0.006,-0.156,36.0
33.053,-0.006,-0.323,1.0
28.494,-0.005,-0.448,2.0
25.049,-0.005,-0.541,1.0
22.356,-0.005,-0.614,3.0
0.0,0.0,0.0,0.0
38.576,-0.012,-0.234,9.0
30.811,-0.01,-0.367,1.0
27.058,-0.009,-0.484,1.0
23.852,-0.009,-0.566,2.0
21.408,-0.008,-0.634,2.0
40.769,-0.019,-0.096,17.0
38.206,-0.019,-0.313,0.0
29.425,-0.015,-0.413,2.0
25.961,-0.014,-0.519,1.0
22.978,-0.013,-0.594,3.0
20.536,-0.012,-0.652,2.0
39.3,-0.027,-0.176,15.0
32.193,-0.023,-0.332,1.0
28.102,-0.021,-0.455,1.0
24.643,-0.019,-0.545,2.0
22.104,-0.018,-0.619,3.0
19.667,-0.017,-0.666,2.0
38.462,-0.037,-0.253,4.0
30.365,-0.03,-0.378,1.0
26.785,-0.027,-0.49,1.0
23.568,-0.025,-0.572,2.0
21.115,-0.023,-0.636,2.0
18.882,-0.022,-0.679,3.0
33.65,-0.042,-0.293,1.0
29.122,-0.038,-0.424,2.0
25.624,-0.034,-0.523,1.0
22.76,-0.031,-0.6,3.0
20.29,-0.029,-0.654,3.0
18.271,-0.027,-0.696,2.0
31.792,-0.05,-0.343,1.0
27.704,-0.045,-0.461,1.0
24.352,-0.041,-0.548,2.0
21.811,-0.038,-0.621,3.0
19.412,-0.034,-0.666,3.0
17.643,-0.032,-0.709,1.0
29.987,-0.058,-0.386,2.0
26.558,-0.053,-0.498,2.0
23.416,-0.048,-0.576,2.0
20.904,-0.044,-0.638,2.0
18.738,-0.04,-0.682,2.0
17.04,-0.038,-0.72,1.0
28.824,-0.068,-0.431,2.0
25.401,-0.061,-0.529,1.0
22.549,-0.056,-0.602,3.0
20.036,-0.051,-0.654,2.0
18.086,-0.047,-0.696,2.0
16.473,-0.044,-0.73,1.0
27.408,-0.077,-0.466,1.0
24.147,-0.069,-0.552,2.0
21.629,-0.063,-0.621,3.0
19.267,-0.057,-0.668,2.0
17.496,-0.053,-0.709,1.0
15.942,-0.05,-0.739,1.0
26.366,-0.086,-0.502,2.0
23.246,-0.078,-0.579,2.0
20.738,-0.071,-0.638,2.0
18.564,-0.064,-0.681,2.0
16.93,-0.06,-0.72,1.0
15.455,-0.056,-0.748,1.0
25.141,-0.095,-0.53,1.0
22.338,-0.086,-0.601,2.0
19.906,-0.078,-0.652,2.0
18.038,-0.072,-0.698,2.0
16.368,-0.067,-0.73,1.0
15.046,-0.062,-0.759,1.0
24.068,-0.104,-0.556,1.0
21.399,-0.094,-0.619,3.0
19.147,-0.086,-0.666,2.0
17.423,-0.079,-0.709,1.0
15.855,-0.073,-0.738,1.0
14.655,-0.069,-0.768,1.0
23.121,-0.113,-0.58,2.0
20.577,-0.102,-0.636,2.0
18.493,-0.094,-0.68,2.0
16.879,-0.087,-0.721,1.0
15.412,-0.081,-0.748,1.0
14.244,-0.076,-0.775,0.0
22.227,-0.123,-0.601,2.0
19.842,-0.111,-0.653,2.0
17.956,-0.102,-0.695,1.0
16.307,-0.094,-0.729,1.0
15.02,-0.088,-0.759,1.0
13.883,-0.083,-0.783,0.0
21.361,-0.131,-0.619,3.0
19.09,-0.119,-0.665,1.0
17.379,-0.11,-0.707,1.0
15.824,-0.102,-0.738,1.0
14.602,-0.095,-0.766,1.0
13.572,-0.09,-0.792,1.0
20.489,-0.14,-0.634,2.0
18.473,-0.128,-0.68,2.0
16.87,-0.119,-0.719,1.0
15.393,-0.11,-0.748,1.0
14.228,-0.103,-0.774,1.0
13.251,-0.097,-0.799,1.0
19.806,-0.15,-0.651,2.0
17.935,-0.137,-0.694,1.0
16.306,-0.126,-0.726,1.0
15.007,-0.118,-0.757,1.0
13.89,-0.111,-0.782,1.0
12.975,-0.105,-0.807,0.0
19.13,-0.159,-0.665,1.0
17.431,-0.146,-0.707,1.0
15.885,-0.135,-0.737,1.0
14.632,-0.126,-0.766,1.0
13.573,-0.118,-0.79,1.0
12.673,-0.112,-0.812,1.0
18.499,-0.168,-0.677,1.0
16.885,-0.155,-0.717,1.0
15.426,-0.143,-0.745,1.0
14.252,-0.134,-0.773,1.0
13.282,-0.126,-0.798,0.0
12.415,-0.12,-0.818,0.0
17.971,-0.177,-0.691,1.0
16.346,-0.163,-0.724,1.0
15.066,-0.152,-0.755,1.0
13.928,-0.142,-0.781,0.0
13.009,-0.134,-0.805,0.0
12.169,-0.127,-0.824,0.0
17.492,-0.187,-0.704,1.0
15.955,-0.173,-0.735,1.0
14.69,-0.161,-0.763,1.0
13.605,-0.151,-0.787,1.0
12.721,-0.142,-0.81,0.0
11.924,-0.135,-0.829,1.0
16.957,-0.196,-0.713,1.0
15.478,-0.181,-0.741,1.0
14.325,-0.169,-0.769,1.0
13.34,-0.159,-0.796,1.0
12.468,-0.151,-0.817,0.0
11.701,-0.143,-0.835,0.0
16.449,-0.205,-0.721,1.0
15.13,-0.191,-0.751,1.0
14.012,-0.178,-0.777,1.0
13.064,-0.168,-0.802,1.0
12.234,-0.159,-0.823,0.0
11.496,-0.151,-0.84,0.0
16.016,-0.214,-0.73,1.0
14.781,-0.2,-0.76,1.0
13.701,-0.187,-0.784,0.0
12.8,-0.177,-0.808,0.0
11.994,-0.167,-0.828,1.0
11.291,-0.159,-0.845,0.0
15.643,-0.224,-0.74,1.0
14.422,-0.209,-0.766,1.0
13.433,-0.196,-0.792,1.0
12.533,-0.185,-0.813,0.0
11.753,-0.175,-0.831,0.0
11.093,-0.167,-0.849,0.0
15.27,-0.234,-0.748,1.0
14.106,-0.218,-0.773,1.0
13.154,-0.205,-0.797,0.0
12.321,-0.194,-0.82,0.0
11.57,-0.184,-0.837,0.0
10.908,-0.175,-0.853,0.0
14.946,-0.244,-0.756,1.0
13.824,-0.228,-0.78,1.0
12.911,-0.214,-0.803,0.0
12.09,-0.203,-0.824,0.0
11.378,-0.193,-0.842,0.0
10.736,-0.183,-0.857,0.0
14.632,-0.254,-0.764,1.0
13.564,-0.237,-0.787,1.0
12.672,-0.224,-0.809,1.0
11.861,-0.211,-0.828,1.0
11.201,-0.201,-0.847,0.0
10.584,-0.192,-0.862,0.0
14.289,-0.263,-0.769,1.0
13.332,-0.247,-0.795,1.0
12.464,-0.233,-0.815,0.0
11.678,-0.22,-0.833,1.0
11.027,-0.21,-0.851,0.0
10.434,-0.2,-0.866,0.0
13.987,-0.272,-0.774,1.0
13.082,-0.257,-0.8,0.0
12.243,-0.242,-0.82,0.0
11.511,-0.23,-0.839,0.0
10.84,-0.218,-0.853,0.0
10.244,-0.208,-0.866,0.0
13.736,-0.283,-0.781,1.0
12.863,-0.267,-0.806,1.0
12.015,-0.251,-0.823,0.0
11.334,-0.239,-0.843,0.0
10.688,-0.227,-0.857,0.0
10.042,-0.215,-0.864,0.0
13.502,-0.293,-0.788,1.0
12.629,-0.276,-0.81,0.0
11.841,-0.261,-0.828,1.0
11.158,-0.248,-0.847,0.0
10.562,-0.237,-0.863,0.0
9.923,-0.224,-0.869,1.0
13.291,-0.303,-0.795,0.0
12.398,-0.285,-0.813,0.0
11.675,-0.271,-0.834,0.0
10.985,-0.257,-0.849,0.0
10.381,-0.245,-0.863,0.0
9.798,-0.233,-0.872,2.0
13.066,-0.314,-0.8,1.0
12.212,-0.295,-0.818,0.0
11.511,-0.281,-0.838,0.0
10.83,-0.266,-0.852,0.0
10.246,-0.254,-0.866,0.0
9.745,-0.243,-0.881,1.0
12.845,-0.323,-0.804,0.0
12.025,-0.305,-0.822,1.0
11.317,-0.289,-0.839,0.0
10.684,-0.275,-0.855,0.0
10.077,-0.261,-0.865,0.0
9.593,-0.251,-0.88,0.0
12.654,-0.334,-0.809,0.0
11.849,-0.315,-0.826,0.0
11.174,-0.299,-0.844,0.0
10.559,-0.285,-0.86,0.0
9.934,-0.27,-0.866,1.0
9.469,-0.259,-0.881,0.0
12.463,-0.344,-0.813,0.0
11.685,-0.325,-0.83,0.0
11.031,-0.309,-0.847,0.0
10.428,-0.294,-0.862,0.0
9.827,-0.279,-0.87,2.0
9.398,-0.269,-0.887,0.0
12.299,-0.355,-0.818,1.0
11.549,-0.335,-0.835,0.0
10.887,-0.318,-0.85,0.0
10.29,-0.303,-0.864,0.0
9.763,-0.29,-0.876,1.0
9.285,-0.277,-0.887,0.0
12.125,-0.365,-0.821,0.0
11.391,-0.345,-0.837,0.0
10.754,-0.328,-0.852,0.0
10.166,-0.312,-0.866,0.0
9.651,-0.298,-0.878,0.0
9.183,-0.286,-0.889,0.0
11.962,-0.375,-0.824,0.0
11.269,-0.356,-0.841,0.0
10.644,-0.338,-0.856,0.0
10.021,-0.321,-0.865,0.0
9.554,-0.308,-0.88,0.0
9.089,-0.295,-0.89,0.0
11.812,-0.386,-0.827,0.0
11.133,-0.366,-0.844,0.0
10.526,-0.348,-0.859,0.0
9.908,-0.33,-0.867,1.0
9.462,-0.317,-0.883,0.0
8.997,-0.304,-0.891,0.0
11.678,-0.397,-0.831,0.0
11.025,-0.377,-0.848,0.0
10.418,-0.358,-0.862,0.0
9.812,-0.34,-0.869,2.0
9.372,-0.327,-0.885,0.0
8.925,-0.313,-0.894,0.0
11.537,-0.407,-0.833,0.0
10.89,-0.386,-0.849,0.0
10.314,-0.368,-0.864,0.0
9.764,-0.351,-0.875,2.0
9.282,-0.336,-0.886,0.0
8.827,-0.321,-0.894,0.0
11.425,-0.418,-0.837,0.0
10.778,-0.397,-0.852,0.0
10.178,-0.377,-0.863,0.0
9.685,-0.361,-0.878,0.0
9.222,-0.346,-0.889,0.0
8.77,-0.331,-0.897,0.0
11.297,-0.428,-0.839,0.0
10.679,-0.407,-0.854,0.0
10.063,-0.386,-0.863,0.0
9.584,-0.37,-0.878,0.0
9.13,-0.355,-0.889,0.0
8.698,-0.34,-0.898,0.0
11.201,-0.44,-0.842,0.0
10.574,-0.418,-0.856,0.0
9.96,-0.396,-0.863,1.0
9.508,-0.38,-0.88,0.0
9.065,-0.364,-0.891,0.0
8.635,-0.349,-0.899,0.0
11.092,-0.451,-0.844,0.0
10.486,-0.428,-0.858,0.0
9.892,-0.406,-0.866,2.0
9.425,-0.389,-0.881,0.0
8.981,-0.373,-0.891,0.0
8.583,-0.359,-0.901,0.0
10.989,-0.461,-0.845,0.0
10.407,-0.439,-0.86,0.0
9.815,-0.417,-0.868,3.0
9.382,-0.401,-0.884,0.0
8.911,-0.383,-0.891,0.0
8.506,-0.367,-0.9,0.0
10.919,-0.473,-0.849,0.0
10.309,-0.449,-0.861,0.0
9.773,-0.428,-0.872,2.0
9.314,-0.41,-0.886,0.0
8.842,-0.392,-0.892,0.0
8.464,-0.377,-0.902,0.0
10.838,-0.485,-0.851,0.0
10.23,-0.46,-0.862,0.0
9.734,-0.44,-0.876,1.0
9.254,-0.421,-0.887,0.0
8.785,-0.401,-0.892,0.0
8.407,-0.386,-0.902,0.0
10.744,-0.495,-0.852,0.0
10.152,-0.47,-0.863,0.0
9.678,-0.451,-0.878,0.0
9.196,-0.431,-0.888,0.0
8.741,-0.412,-0.894,0.0
8.363,-0.396,-0.904,0.0
10.683,-0.507,-0.854,0.0
10.084,-0.481,-0.864,0.0
9.609,-0.461,-0.878,0.0
9.153,-0.441,-0.89,0.0
8.708,-0.422,-0.897,0.0
8.339,-0.406,-0.907,0.0
10.617,-0.519,-0.856,0.0
10.005,-0.491,-0.863,1.0
9.536,-0.471,-0.877,0.0
9.075,-0.45,-0.888,0.0
8.651,-0.431,-0.896,0.0
8.29,-0.415,-0.906,0.0
10.544,-0.53,-0.856,0.0
9.949,-0.502,-0.864,1.0
9.501,-0.482,-0.88,0.0
9.031,-0.461,-0.889,0.0
8.617,-0.442,-0.897,0.0
8.245,-0.425,-0.906,0.0
10.503,-0.542,-0.859,0.0
9.902,-0.514,-0.866,2.0
9.448,-0.492,-0.88,0.0
9.006,-0.472,-0.891,0.0
8.589,-0.452,-0.899,0.0
8.222,-0.435,-0.908,0.0
10.462,-0.555,-0.86,0.0
9.864,-0.526,-0.867,2.0
9.42,-0.504,-0.882,0.0
8.95,-0.481,-0.89,0.0
8.553,-0.462,-0.899,0.0
8.202,-0.445,-0.909,0.0
10.414,-0.567,-0.861,0.0
9.818,-0.537,-0.868,2.0
9.375,-0.515,-0.882,0.0
8.928,-0.493,-0.892,0.0
8.504,-0.471,-0.898,0.0
8.16,-0.455,-0.908,0.0
10.364,-0.578,-0.862,0.0
9.801,-0.549,-0.87,2.0
9.339,-0.526,-0.882,0.0
8.897,-0.503,-0.892,0.0
8.5,-0.483,-0.901,0.0
8.146,-0.465,-0.91,0.0
10.346,-0.591,-0.864,0.0
9.774,-0.561,-0.872,2.0
9.322,-0.538,-0.884,0.0
8.867,-0.514,-0.892,0.0
8.481,-0.494,-0.902,0.0
8.127,-0.475,-0.911,0.0
10.273,-0.601,-0.861,0.0
9.769,-0.574,-0.874,2.0
9.298,-0.549,-0.885,0.0
8.819,-0.523,-0.89,0.0
8.452,-0.504,-0.901,0.0
8.111,-0.485,-0.911,0.0
10.238,-0.613,-0.861,0.0
9.762,-0.587,-0.876,1.0
9.266,-0.56,-0.884,0.0
8.831,-0.536,-0.894,0.0
8.434,-0.514,-0.902,0.0
8.081,-0.495,-0.91,0.0
10.218,-0.626,-0.862,0.0
9.747,-0.599,-0.877,1.0
9.256,-0.572,-0.886,0.0
8.809,-0.546,-0.893,0.0
8.436,-0.526,-0.903,0.0
8.085,-0.506,-0.912,0.0
10.192,-0.638,-0.862,0.0
9.715,-0.611,-0.876,1.0
9.228,-0.582,-0.884,0.0
8.799,-0.558,-0.894,0.0
8.405,-0.535,-0.902,0.0
8.07,-0.516,-0.911,0.0
10.17,-0.65,-0.861,0.0
9.694,-0.622,-0.876,1.0
9.237,-0.595,-0.887,0.0
8.793,-0.569,-0.894,0.0
8.409,-0.546,-0.903,0.0
8.06,-0.526,-0.911,0.0
10.171,-0.663,-0.863,0.0
9.704,-0.636,-0.878,0.0
9.228,-0.607,-0.887,0.0
8.77,-0.579,-0.893,0.0
8.398,-0.557,-0.902,0.0
8.042,-0.535,-0.91,0.0
10.16,-0.676,-0.862,0.0
9.694,-0.648,-0.877,0.0
9.212,-0.618,-0.885,0.0
8.772,-0.59,-0.894,0.0
8.388,-0.567,-0.902,0.0
8.06,-0.547,-0.912,0.0
10.144,-0.688,-0.861,0.0
9.704,-0.661,-0.878,0.0
9.226,-0.631,-0.887,0.0
8.753,-0.6,-0.891,0.0
8.4,-0.579,-0.903,0.0
8.048,-0.556,-0.911,0.0
10.162,-0.703,-0.862,0.0
9.706,-0.673,-0.878,0.0
9.226,-0.642,-0.886,0.0
8.787,-0.614,-0.895,0.0
8.412,-0.59,-0.904,0.0
8.049,-0.567,-0.91,0.0
10.158,-0.715,-0.861,0.0
9.71,-0.686,-0.878,0.0
9.213,-0.653,-0.885,0.0
8.794,-0.626,-0.894,0.0
8.417,-0.601,-0.903,0.0
8.06,-0.578,-0.911,0.0
10.201,-0.731,-0.864,0.0
9.711,-0.698,-0.877,1.0
9.228,-0.666,-0.885,0.0
8.796,-0.637,-0.894,0.0
8.433,-0.613,-0.904,0.0
8.059,-0.588,-0.909,0.0
10.205,-0.744,-0.863,0.0
9.723,-0.711,-0.876,1.0
9.248,-0.679,-0.885,0.0
8.792,-0.647,-0.892,0.0
8.439,-0.624,-0.903,0.0
8.068,-0.598,-0.909,0.0
10.228,-0.758,-0.863,0.0
9.738,-0.724,-0.876,1.0
9.26,-0.691,-0.884,0.0
8.845,-0.662,-0.895,0.0
8.451,-0.635,-0.902,0.0
8.093,-0.61,-0.91,0.0
10.248,-0.772,-0.862,0.0
9.758,-0.737,-0.875,2.0
9.287,-0.704,-0.885,0.0
8.845,-0.673,-0.893,0.0
8.478,-0.647,-0.903,0.0
8.107,-0.621,-0.909,0.0
10.282,-0.786,-0.862,0.0
9.779,-0.75,-0.874,2.0
9.32,-0.717,-0.885,0.0
8.89,-0.686,-0.895,0.0
8.498,-0.658,-0.903,0.0
8.134,-0.632,-0.91,0.0
10.347,-0.803,-0.864,0.0
9.783,-0.762,-0.871,2.0
9.341,-0.73,-0.884,0.0
8.887,-0.696,-0.891,0.0
8.499,-0.668,-0.9,0.0
8.152,-0.643,-0.909,0.0
10.359,-0.816,-0.861,0.0
9.798,-0.774,-0.869,3.0
9.375,-0.743,-0.884,0.0
8.935,-0.71,-0.893,0.0
8.535,-0.68,-0.9,0.0
8.195,-0.655,-0.91,0.0
10.408,-0.831,-0.861,0.0
9.834,-0.788,-0.868,3.0
9.413,-0.756,-0.883,0.0
8.981,-0.724,-0.894,0.0
8.57,-0.693,-0.9,0.0
8.215,-0.666,-0.909,0.0
10.45,-0.846,-0.86,0.0
9.869,-0.801,-0.867,2.0
9.458,-0.77,-0.883,0.0
8.998,-0.735,-0.891,0.0
8.583,-0.703,-0.898,0.0
8.228,-0.676,-0.906,0.0
10.513,-0.862,-0.861,0.0
9.903,-0.815,-0.865,2.0
9.488,-0.783,-0.881,0.0
9.038,-0.748,-0.89,0.0
8.634,-0.716,-0.899,0.0
8.276,-0.689,-0.907,0.0
10.551,-0.877,-0.858,0.0
9.955,-0.829,-0.865,2.0
9.527,-0.796,-0.88,0.0
9.09,-0.761,-0.891,0.0
8.673,-0.728,-0.898,0.0
8.293,-0.698,-0.904,0.0
10.625,-0.894,-0.858,0.0
10.004,-0.843,-0.863,1.0
9.576,-0.809,-0.879,0.0
9.133,-0.774,-0.89,0.0
8.713,-0.74,-0.897,0.0
8.331,-0.71,-0.904,0.0
10.683,-0.909,-0.857,0.0
10.077,-0.859,-0.863,0.0
9.638,-0.824,-0.879,0.0
9.184,-0.787,-0.889,0.0
8.755,-0.753,-0.896,0.0
8.406,-0.724,-0.906,0.0
10.745,-0.924,-0.855,0.0
10.162,-0.876,-0.864,0.0
9.711,-0.84,-0.879,1.0
9.245,-0.801,-0.889,0.0
8.792,-0.764,-0.894,0.0
8.441,-0.735,-0.905,0.0
10.781,-0.938,-0.851,1.0
10.258,-0.894,-0.866,0.0
9.76,-0.853,-0.877,2.0
9.3,-0.814,-0.888,0.0
8.867,-0.778,-0.895,0.0
8.474,-0.746,-0.902,0.0
10.855,-0.954,-0.849,1.0
10.326,-0.909,-0.864,0.0
9.781,-0.863,-0.872,3.0
9.35,-0.827,-0.886,0.0
8.934,-0.792,-0.895,0.0
8.536,-0.759,-0.903,0.0
10.96,-0.972,-0.849,0.0
10.397,-0.924,-0.862,1.0
9.832,-0.876,-0.869,3.0
9.415,-0.841,-0.885,0.0
8.983,-0.804,-0.893,0.0
8.587,-0.77,-0.901,0.0
11.04,-0.989,-0.847,0.0
10.468,-0.939,-0.86,1.0
9.886,-0.889,-0.866,2.0
9.463,-0.853,-0.882,0.0
9.045,-0.817,-0.892,0.0
8.656,-0.784,-0.902,0.0
11.112,-1.004,-0.843,0.0
10.511,-0.952,-0.855,1.0
9.963,-0.904,-0.865,1.0
9.543,-0.868,-0.881,0.0
9.095,-0.829,-0.89,0.0
8.695,-0.794,-0.898,0.0
11.199,-1.021,-0.841,0.0
10.605,-0.968,-0.854,0.0
10.067,-0.921,-0.865,0.0
9.62,-0.882,-0.88,0.0
9.18,-0.843,-0.89,0.0
8.75,-0.805,-0.896,0.0
11.284,-1.037,-0.837,0.0
10.706,-0.985,-0.853,0.0
10.134,-0.934,-0.862,0.0
9.736,-0.899,-0.882,1.0
9.244,-0.856,-0.888,0.0
8.836,-0.819,-0.897,0.0
11.417,-1.057,-0.837,0.0
10.796,-1.001,-0.85,0.0
10.24,-0.951,-0.862,0.0
9.769,-0.909,-0.876,2.0
9.33,-0.87,-0.888,0.0
8.893,-0.831,-0.895,0.0
11.528,-1.075,-0.835,0.0
10.924,-1.02,-0.85,0.0
10.361,-0.969,-0.862,0.0
9.813,-0.919,-0.871,3.0
9.407,-0.883,-0.886,0.0
8.972,-0.844,-0.894,0.0
11.656,-1.094,-0.833,0.0
11.011,-1.035,-0.846,0.0
10.458,-0.985,-0.86,0.0
9.902,-0.934,-0.869,2.0
9.489,-0.896,-0.885,0.0
9.064,-0.858,-0.894,0.0
11.78,-1.113,-0.83,0.0
11.126,-1.052,-0.844,0.0
10.55,-0.999,-0.857,0.0
9.991,-0.948,-0.867,1.0
9.57,-0.909,-0.883,0.0
9.144,-0.87,-0.893,0.0
11.864,-1.127,-0.824,0.0
11.237,-1.069,-0.841,0.0
10.67,-1.016,-0.856,0.0
10.09,-0.963,-0.865,0.0
9.685,-0.925,-0.883,0.0
9.221,-0.883,-0.891,0.0
12.061,-1.152,-0.825,0.0
11.374,-1.088,-0.839,0.0
10.754,-1.03,-0.852,0.0
10.186,-0.977,-0.863,0.0
9.754,-0.937,-0.879,2.0
9.319,-0.896,-0.89,0.0
12.215,-1.173,-0.823,0.0
11.5,-1.105,-0.836,0.0
10.862,-1.045,-0.849,0.0
10.325,-0.995,-0.863,0.0
9.817,-0.947,-0.874,3.0
9.397,-0.908,-0.887,0.0
12.344,-1.191,-0.818,0.0
11.587,-1.119,-0.83,0.0
11.015,-1.065,-0.848,0.0
10.449,-1.011,-0.862,0.0
9.895,-0.959,-0.87,2.0
9.497,-0.921,-0.886,0.0
12.495,-1.21,-0.814,0.0
11.812,-1.145,-0.833,0.0
11.123,-1.08,-0.844,0.0
10.545,-1.025,-0.858,0.0
10.025,-0.975,-0.87,2.0
9.586,-0.934,-0.884,0.0
12.682,-1.233,-0.812,0.0
11.966,-1.164,-0.83,0.0
11.242,-1.095,-0.84,0.0
10.68,-1.041,-0.857,0.0
10.109,-0.987,-0.865,1.0
9.714,-0.949,-0.884,1.0
12.845,-1.253,-0.807,0.0
12.093,-1.18,-0.825,0.0
11.377,-1.112,-0.837,0.0
10.796,-1.056,-0.853,0.0
10.234,-1.002,-0.864,0.0
9.774,-0.958,-0.878,3.0
13.027,-1.274,-0.804,0.0
12.275,-1.202,-0.823,0.0
11.54,-1.13,-0.835,0.0
10.932,-1.072,-0.851,0.0
10.371,-1.018,-0.863,0.0
9.863,-0.969,-0.874,3.0
13.22,-1.296,-0.8,0.0
12.404,-1.217,-0.817,0.0
11.765,-1.155,-0.837,0.0
11.089,-1.09,-0.85,0.0
10.504,-1.033,-0.861,0.0
9.949,-0.979,-0.869,2.0
13.425,-1.319,-0.796,0.0
12.623,-1.241,-0.816,0.0
11.909,-1.171,-0.833,0.0
11.185,-1.101,-0.843,0.0
10.654,-1.049,-0.86,0.0
10.081,-0.994,-0.868,1.0
13.627,-1.341,-0.791,0.0
12.773,-1.257,-0.81,0.0
12.049,-1.187,-0.828,0.0
11.296,-1.113,-0.838,0.0
10.765,-1.062,-0.856,0.0
10.19,-1.006,-0.865,0.0
13.84,-1.363,-0.786,0.0
12.993,-1.281,-0.807,0.0
12.217,-1.205,-0.824,0.0
11.54,-1.138,-0.841,0.0
10.914,-1.077,-0.854,0.0
10.354,-1.022,-0.865,0.0
14.062,-1.386,-0.78,0.0
13.189,-1.3,-0.802,0.0
12.374,-1.221,-0.819,0.0
11.742,-1.159,-0.841,0.0
11.059,-1.092,-0.851,0.0
10.488,-1.036,-0.863,0.0
14.326,-1.413,-0.777,0.0
13.42,-1.324,-0.799,0.0
12.578,-1.241,-0.816,0.0
11.891,-1.173,-0.836,0.0
11.184,-1.104,-0.846,0.0
10.652,-1.052,-0.863,0.0
14.561,-1.435,-0.771,1.0
13.612,-1.342,-0.793,0.0
12.764,-1.259,-0.811,0.0
12.022,-1.186,-0.829,0.0
11.299,-1.115,-0.839,0.0
10.748,-1.061,-0.856,1.0
14.823,-1.46,-0.765,0.0
13.858,-1.365,-0.789,1.0
12.991,-1.28,-0.808,0.0
12.207,-1.203,-0.826,0.0
11.531,-1.136,-0.841,0.0
10.912,-1.076,-0.855,0.0
15.122,-1.488,-0.76,0.0
14.029,-1.38,-0.78,0.0
13.202,-1.299,-0.804,0.0
12.373,-1.218,-0.82,0.0
11.748,-1.156,-0.842,0.0
11.078,-1.09,-0.853,0.0
15.439,-1.517,-0.756,0.0
14.336,-1.408,-0.778,0.0
13.382,-1.315,-0.797,0.0
12.564,-1.234,-0.816,0.0
11.91,-1.17,-0.837,0.0
11.192,-1.099,-0.846,0.0
15.748,-1.544,-0.75,1.0
14.591,-1.43,-0.772,1.0
13.634,-1.336,-0.793,0.0
12.78,-1.252,-0.813,0.0
12.03,-1.179,-0.829,0.0
11.354,-1.112,-0.843,0.0
16.163,-1.581,-0.747,2.0
14.858,-1.453,-0.766,0.0
13.86,-1.355,-0.788,0.0
12.996,-1.27,-0.809,0.0
12.223,-1.194,-0.826,0.0
11.474,-1.121,-0.836,0.0
16.28,-1.588,-0.731,10.0
15.163,-1.478,-0.761,0.0
14.094,-1.374,-0.782,0.0
13.217,-1.288,-0.805,0.0
12.433,-1.211,-0.823,0.0
11.772,-1.146,-0.842,0.0
16.329,-1.587,-0.711,9.0
15.48,-1.504,-0.755,0.0
14.384,-1.397,-0.778,0.0
13.453,-1.306,-0.8,0.0
12.638,-1.226,-0.819,0.0
11.942,-1.158,-0.837,0.0
16.408,-1.589,-0.691,6.0
15.805,-1.53,-0.749,1.0
14.619,-1.414,-0.771,0.0
13.668,-1.321,-0.794,1.0
12.862,-1.242,-0.816,0.0
12.089,-1.167,-0.831,0.0
16.919,-1.631,-0.689,1.0
16.218,-1.562,-0.747,2.0
14.95,-1.439,-0.767,0.0
13.895,-1.337,-0.788,0.0
13.068,-1.256,-0.811,0.0
12.3,-1.182,-0.828,0.0
17.897,-1.717,-0.705,0.0
16.285,-1.561,-0.727,11.0
15.228,-1.459,-0.761,0.0
14.145,-1.354,-0.783,0.0
13.276,-1.27,-0.805,0.0
12.44,-1.189,-0.821,0.0
18.344,-1.751,-0.697,0.0
16.345,-1.559,-0.707,8.0
15.564,-1.483,-0.756,0.0
14.431,-1.374,-0.779,1.0
13.471,-1.281,-0.798,0.0
12.687,-1.206,-0.819,0.0
18.762,-1.78,-0.687,1.0
16.453,-1.56,-0.689,3.0
15.933,-1.509,-0.752,1.0
14.661,-1.387,-0.771,0.0
13.728,-1.297,-0.794,1.0
12.917,-1.22,-0.816,0.0
19.227,-1.813,-0.677,1.0
17.446,-1.643,-0.707,0.0
16.237,-1.527,-0.743,6.0
14.992,-1.409,-0.767,0.0
13.946,-1.309,-0.787,0.0
13.127,-1.231,-0.811,0.0
19.77,-1.851,-0.669,0.0
17.986,-1.682,-0.703,0.0
16.299,-1.523,-0.723,10.0
15.312,-1.429,-0.762,0.0
14.225,-1.326,-0.784,0.0
13.357,-1.243,-0.806,0.0
20.31,-1.888,-0.659,0.0
18.465,-1.714,-0.697,0.0
16.391,-1.52,-0.705,12.0
15.622,-1.446,-0.756,0.0
14.493,-1.34,-0.778,1.0
13.562,-1.253,-0.8,0.0
20.853,-1.923,-0.648,1.0
18.857,-1.737,-0.686,0.0
16.515,-1.519,-0.688,2.0
16.038,-1.473,-0.754,1.0
14.745,-1.352,-0.771,0.0
13.78,-1.262,-0.794,0.0
21.393,-1.956,-0.635,1.0
19.369,-1.769,-0.678,0.0
17.668,-1.611,-0.711,0.0
16.25,-1.479,-0.742,8.0
15.064,-1.369,-0.767,0.0
14.009,-1.272,-0.788,0.0
21.996,-1.994,-0.624,1.0
19.899,-1.801,-0.669,0.0
18.077,-1.633,-0.703,0.0
16.302,-1.47,-0.722,9.0
15.371,-1.384,-0.762,0.0
14.332,-1.289,-0.787,0.0
22.626,-2.032,-0.611,1.0
20.337,-1.823,-0.656,1.0
18.536,-1.658,-0.696,0.0
16.37,-1.462,-0.703,7.0
15.68,-1.398,-0.756,0.0
14.564,-1.296,-0.779,0.0
23.253,-2.067,-0.596,1.0
20.917,-1.855,-0.647,1.0
18.942,-1.677,-0.686,1.0
16.583,-1.466,-0.689,2.0
16.095,-1.42,-0.754,1.0
14.801,-1.303,-0.772,0.0
23.914,-2.103,-0.581,1.0
21.508,-1.887,-0.636,1.0
19.472,-1.705,-0.679,0.0
17.721,-1.549,-0.713,0.0
16.274,-1.42,-0.741,8.0
15.14,-1.318,-0.769,0.0
24.836,-2.159,-0.57,1.0
22.094,-1.917,-0.623,1.0
19.963,-1.728,-0.669,0.0
18.127,-1.566,-0.705,0.0
16.322,-1.407,-0.721,8.0
15.41,-1.326,-0.762,0.0
25.5,-2.191,-0.551,2.0
22.662,-1.942,-0.61,1.0
20.44,-1.748,-0.658,0.0
18.523,-1.581,-0.696,0.0
16.388,-1.395,-0.702,4.0
15.726,-1.336,-0.757,0.0
26.136,-2.217,-0.531,1.0
23.303,-1.972,-0.596,1.0
20.977,-1.771,-0.648,1.0
18.965,-1.597,-0.687,1.0
17.063,-1.434,-0.709,0.0
16.056,-1.346,-0.752,1.0
26.918,-2.254,-0.511,1.0
23.95,-2.0,-0.581,1.0
21.51,-1.792,-0.636,1.0
19.391,-1.611,-0.678,0.0
17.766,-1.473,-0.715,0.0
16.268,-1.345,-0.741,1.0
27.889,-2.303,-0.494,1.0
24.796,-2.042,-0.57,1.0
22.007,-1.808,-0.622,1.0
19.949,-1.634,-0.672,0.0
18.145,-1.482,-0.707,0.0
16.345,-1.332,-0.723,1.0
28.771,-2.342,-0.473,1.0
25.49,-2.069,-0.554,1.0
22.697,-1.837,-0.613,1.0
20.377,-1.644,-0.66,0.0
18.528,-1.491,-0.698,0.0
16.532,-1.327,-0.711,1.0
29.619,-2.374,-0.45,1.0
26.143,-2.089,-0.535,1.0
23.27,-1.854,-0.599,1.0
20.918,-1.662,-0.652,1.0
18.937,-1.5,-0.69,1.0
17.376,-1.373,-0.726,0.0
30.719,-2.424,-0.428,1.0
26.673,-2.098,-0.513,1.0
23.822,-1.868,-0.584,1.0
21.408,-1.674,-0.641,1.0
19.31,-1.505,-0.68,0.0
17.733,-1.378,-0.719,0.0
31.829,-2.47,-0.405,1.0
27.742,-2.146,-0.5,1.0
24.611,-1.897,-0.574,1.0
21.867,-1.68,-0.628,1.0
19.767,-1.514,-0.672,0.0
18.083,-1.381,-0.711,1.0
33.292,-2.539,-0.384,1.0
28.605,-2.174,-0.481,1.0
25.284,-1.915,-0.559,1.0
22.459,-1.695,-0.618,1.0
20.227,-1.522,-0.664,0.0
18.392,-1.379,-0.701,1.0
35.131,-2.63,-0.363,1.0
29.222,-2.18,-0.457,1.0
25.937,-1.928,-0.543,1.0
23.064,-1.709,-0.608,1.0
20.695,-1.528,-0.655,0.0
18.773,-1.381,-0.694,1.0
36.621,-2.69,-0.336,0.0
30.083,-2.202,-0.435,1.0
26.527,-1.934,-0.525,1.0
23.612,-1.715,-0.595,1.0
21.177,-1.533,-0.646,0.0
19.158,-1.382,-0.686,0.0
39.699,-2.859,-0.319,0.0
30.98,-2.222,-0.413,1.0
27.201,-1.944,-0.507,1.0
24.124,-1.717,-0.58,1.0
21.67,-1.536,-0.636,0.0
19.548,-1.381,-0.678,0.0
41.63,-2.936,-0.288,0.0
32.414,-2.277,-0.396,1.0
27.909,-1.953,-0.489,1.0
24.873,-1.733,-0.571,1.0
22.107,-1.534,-0.625,1.0
19.992,-1.382,-0.671,0.0
42.704,-2.947,-0.248,0.0
33.741,-2.319,-0.375,1.0
28.763,-1.968,-0.473,1.0
25.455,-1.734,-0.556,1.0
22.647,-1.537,-0.615,1.0
20.357,-1.376,-0.661,0.0
45.066,-3.04,-0.214,0.0
35.319,-2.372,-0.355,0.0
29.503,-1.973,-0.453,1.0
26.008,-1.731,-0.54,1.0
23.245,-1.54,-0.607,1.0
20.978,-1.384,-0.659,0.0
50.303,-3.314,-0.185,0.0
37.621,-2.467,-0.339,0.0
30.207,-1.971,-0.432,1.0
26.598,-1.728,-0.525,2.0
23.631,-1.528,-0.593,1.0
21.042,-1.355,-0.64,1.0
50.447,-3.242,-0.134,2.0
40.313,-2.578,-0.322,0.0
31.228,-1.988,-0.415,1.0
27.134,-1.719,-0.508,2.0
24.191,-1.525,-0.582,1.0
21.448,-1.346,-0.631,1.0
50.472,-3.16,-0.084,0.0
40.581,-2.529,-0.283,0.0
32.005,-1.984,-0.394,1.0
27.869,-1.719,-0.494,2.0
24.847,-1.525,-0.573,1.0
22.012,-1.344,-0.625,3.0
59.955,-3.653,-0.04,1.0
41.849,-2.536,-0.251,0.0
33.205,-2.002,-0.376,1.0
28.479,-1.708,-0.478,2.0
25.285,-1.508,-0.559,1.0
22.474,-1.334,-0.617,4.0
59.536,-3.525,0.016,8.0
0.0,0.0,0.0,0.0
34.378,-2.013,-0.357,0.0
29.15,-1.698,-0.462,2.0
25.801,-1.495,-0.546,1.0
22.993,-1.325,-0.61,6.0
62.893,-3.615,0.075,2.0
45.942,-2.626,-0.19,0.0
0.0,0.0,0.0,0.0
29.656,-1.675,-0.442,1.0
26.286,-1.476,-0.533,1.0
23.342,-1.303,-0.598,11.0
62.793,-3.496,0.132,5.0
50.365,-2.788,-0.163,1.0
37.805,-2.08,-0.324,1.0
30.31,-1.657,-0.425,1.0
26.772,-1.455,-0.519,1.0
23.711,-1.281,-0.586,11.0
0.0,0.0,0.0,0.0
50.438,-2.7,-0.119,3.0
0.0,0.0,0.0,0.0
31.025,-1.64,-0.409,1.0
27.676,-1.454,-0.513,4.0
24.203,-1.264,-0.578,5.0
0.0,0.0,0.0,0.0
50.507,-2.612,-0.077,3.0
40.531,-2.083,-0.279,0.0
32.131,-1.64,-0.397,1.0
28.131,-1.426,-0.498,7.0
24.819,-1.25,-0.573,1.0
0.0,0.0,0.0,0.0
59.949,-2.99,-0.044,1.0
0.0,0.0,0.0,0.0
32.913,-1.618,-0.38,1.0
28.431,-1.389,-0.481,7.0
25.206,-1.222,-0.562,1.0
0.0,0.0,0.0,0.0
60.115,-2.885,0.002,0.0
0.0,0.0,0.0,0.0
33.678,-1.592,-0.363,10.0
29.091,-1.366,-0.47,6.0
25.579,-1.192,-0.551,1.0
0.0,0.0,0.0,0.0
0.0,0.0,0.0,0.0
0.0,0.0,0.0,0.0
34.116,-1.549,-0.343,2.0
29.28,-1.319,-0.452,1.0
25.963,-1.16,-0.54,1.0
0.0,0.0,0.0,0.0
0.0,0.0,0.0,0.0
50.453,-2.211,-0.196,1.0
37.728,-1.64,-0.353,1.0
29.732,-1.282,-0.439,1.0
26.418,-1.13,-0.532,1.0
0.0,0.0,0.0,0.0
0.0,0.0,0.0,0.0
37.799,-1.584,-0.122,0.0
37.756,-1.568,-0.329,13.0
30.061,-1.238,-0.424,1.0
26.714,-1.091,-0.521,1.0
0.0,0.0,0.0,0.0
0.0,0.0,0.0,0.0
37.806,-1.509,-0.097,157.0
37.728,-1.493,-0.304,66.0
30.628,-1.201,-0.412,1.0
27.034,-1.05,-0.51,2.0
0.0,0.0,0.0,0.0
0.0,0.0,0.0,0.0
40.135,-1.523,-0.079,152.0
40.077,-1.506,-0.299,41.0
31.149,-1.159,-0.401,1.0
27.39,-1.01,-0.501,1.0
0.0,0.0,0.0,0.0
0.0,0.0,0.0,0.0
51.857,-1.865,-0.073,1.0
40.085,-1.427,-0.277,3.0
31.704,-1.117,-0.39,1.0
27.702,-0.966,-0.491,2.0
0.0,0.0,0.0,0.0
0.0,0.0,0.0,0.0
60.019,-2.035,-0.052,1.0
0.0,0.0,0.0,0.0
32.285,-1.072,-0.381,1.0
28.059,-0.921,-0.483,1.0
126.606,-4.128,1.324,2.0
0.0,0.0,0.0,0.0
0.0,0.0,0.0,0.0
40.385,-1.272,-0.237,2.0
32.525,-1.013,-0.367,1.0
28.39,-0.874,-0.475,1.0
0.0,0.0,0.0,0.0
0.0,0.0,0.0,0.0
40.209,-1.198,0.003,34.0
40.196,-1.183,-0.218,41.0
32.861,-0.956,-0.356,1.0
28.681,-0.824,-0.467,1.0
40.254,-1.146,0.458,9.0
40.183,-1.129,0.239,56.0
40.193,-1.115,0.021,64.0
40.999,-1.122,-0.205,151.0
33.286,-0.899,-0.347,1.0
28.865,-0.769,-0.458,1.0
40.206,-1.06,0.474,64.0
40.191,-1.045,0.255,53.0
0.0,0.0,0.0,0.0
40.963,-1.036,-0.189,4.0
33.595,-0.837,-0.337,0.0
29.099,-0.714,-0.45,1.0
40.314,-0.979,0.49,112.0
40.304,-0.964,0.271,150.0
40.293,-0.949,0.051,70.0
40.327,-0.935,-0.171,150.0
34.505,-0.788,-0.334,0.0
29.323,-0.659,-0.444,1.0
40.289,-0.894,0.503,32.0
0.0,0.0,0.0,0.0
68.106,-1.462,0.109,1.0
47.09,-0.994,-0.185,0.0
34.609,-0.718,-0.325,0.0
29.477,-0.601,-0.437,1.0
40.242,-0.809,0.515,63.0
40.255,-0.794,0.295,53.0
40.279,-0.78,0.076,57.0
40.319,-0.767,-0.147,48.0
36.245,-0.676,-0.33,0.0
29.631,-0.542,-0.432,1.0
205.408,-3.699,2.682,21.0
40.264,-0.709,0.306,46.0
40.294,-0.695,0.086,45.0
40.352,-0.681,-0.138,1.0
35.32,-0.584,-0.313,0.0
29.767,-0.481,-0.427,2.0
148.859,-2.364,1.977,8.0
87.864,-1.363,0.686,1.0
67.101,-1.016,0.157,1.0
0.0,0.0,0.0,0.0
36.009,-0.519,-0.312,1.0
29.829,-0.419,-0.422,2.0
86.945,-1.195,1.171,150.0
79.419,-1.062,0.635,11.0
79.297,-1.031,0.2,3.0
48.236,-0.609,-0.146,0.0
35.923,-0.44,-0.306,0.0
29.939,-0.356,-0.419,2.0
79.422,-0.92,1.082,217.0
79.449,-0.891,0.647,150.0
58.214,-0.631,0.155,3.0
50.846,-0.533,-0.148,21.0
38.487,-0.389,-0.323,3.0
30.055,-0.293,-0.417,2.0
79.453,-0.75,1.091,177.0
79.419,-0.721,0.655,150.0
58.099,-0.506,0.16,5.0
47.61,-0.397,-0.134,15.0
40.414,-0.323,-0.335,2.0
30.068,-0.229,-0.414,1.0
79.448,-0.579,1.097,167.0
79.426,-0.55,0.661,150.0
56.074,-0.368,0.158,8.0
42.115,-0.261,-0.116,4.0
37.282,-0.217,-0.307,1.0
30.052,-0.164,-0.413,2.0
79.455,-0.409,1.1,152.0
79.436,-0.381,0.663,150.0
56.085,-0.248,0.16,15.0
42.414,-0.172,-0.116,18.0
38.403,-0.142,-0.316,2.0
30.047,-0.1,-0.413,2.0
79.461,-0.238,1.1,151.0
79.439,-0.211,0.663,150.0
56.044,-0.128,0.159,19.0
41.87,-0.081,-0.115,18.0
38.09,-0.06,-0.314,2.0
30.072,-0.037,-0.414,2.0
79.461,-0.069,1.097,151.0
79.401,-0.041,0.659,119.0
55.845,-0.008,0.156,25.0
43.832,0.008,-0.123,3.0
38.142,0.021,-0.317,2.0
29.964,0.027,-0.414,1.0
79.461,0.101,1.092,151.0
79.447,0.129,0.653,93.0
54.948,0.108,0.148,28.0
40.611,0.095,-0.118,17.0
37.912,0.102,-0.319,2.0
30.028,0.091,-0.418,1.0
79.453,0.272,1.083,150.0
59.339,0.224,0.481,72.0
54.69,0.225,0.141,45.0
40.246,0.18,-0.122,16.0
37.768,0.182,-0.323,2.0
29.887,0.154,-0.42,2.0
48.186,0.267,0.649,55.0
48.172,0.283,0.383,61.0
48.109,0.3,0.116,50.0
39.695,0.262,-0.127,25.0
37.528,0.26,-0.327,2.0
29.822,0.217,-0.425,2.0
48.09,0.368,0.639,125.0
48.051,0.384,0.373,104.0
48.0,0.4,0.107,81.0
39.416,0.342,-0.134,32.0
37.367,0.338,-0.333,1.0
29.677,0.279,-0.429,2.0
48.102,0.47,0.629,105.0
48.066,0.487,0.362,97.0
47.979,0.503,0.095,63.0
39.105,0.423,-0.142,41.0
37.233,0.416,-0.341,1.0
29.488,0.34,-0.434,2.0
48.181,0.574,0.617,36.0
48.106,0.589,0.35,56.0
47.971,0.605,0.082,56.0
38.874,0.504,-0.152,48.0
37.061,0.493,-0.35,0.0
29.372,0.4,-0.441,2.0
121.165,1.703,1.517,16.0
75.201,1.083,0.524,11.0
47.936,0.706,0.068,39.0
38.546,0.581,-0.163,46.0
33.677,0.519,-0.329,1.0
29.189,0.459,-0.447,2.0
121.08,1.956,1.476,14.0
74.852,1.235,0.496,12.0
47.856,0.806,0.051,21.0
38.187,0.656,-0.175,40.0
33.114,0.58,-0.336,1.0
28.982,0.518,-0.455,2.0
94.848,1.733,1.121,2.0
74.73,1.39,0.467,11.0
47.669,0.903,0.032,22.0
37.89,0.73,-0.188,42.0
32.836,0.644,-0.346,1.0
28.662,0.572,-0.461,1.0
90.006,1.834,1.027,5.0
61.4,1.272,0.358,18.0
47.441,0.998,0.013,22.0
37.469,0.801,-0.202,45.0
32.38,0.703,-0.355,1.0
28.384,0.626,-0.469,2.0
80.628,1.811,0.884,8.0
60.947,1.389,0.328,35.0
46.754,1.081,-0.008,23.0
37.018,0.868,-0.216,30.0
31.959,0.76,-0.365,1.0
27.987,0.675,-0.476,1.0
78.639,1.931,0.824,12.0
59.695,1.485,0.292,34.0
0.0,0.0,0.0,0.0
36.888,0.942,-0.234,26.0
31.381,0.811,-0.374,2.0
27.572,0.722,-0.483,1.0
78.236,2.082,0.78,25.0
58.894,1.586,0.258,32.0
42.446,1.157,-0.051,17.0
36.63,1.01,-0.252,12.0
30.845,0.86,-0.384,1.0
27.417,0.774,-0.495,1.0
77.967,2.236,0.734,44.0
54.934,1.592,0.21,12.0
40.634,1.19,-0.071,16.0
36.421,1.079,-0.271,12.0
30.521,0.913,-0.398,2.0
23.989,0.725,-0.447,2.0
77.768,2.387,0.687,22.0
54.429,1.687,0.176,28.0
40.215,1.259,-0.094,31.0
36.227,1.146,-0.291,7.0
30.103,0.962,-0.411,2.0
23.766,0.766,-0.457,5.0
77.738,2.542,0.639,10.0
54.506,1.799,0.142,21.0
39.784,1.326,-0.118,47.0
36.049,1.212,-0.313,7.0
29.609,1.005,-0.423,2.0
23.205,0.795,-0.461,5.0
74.231,2.576,0.561,13.0
48.805,1.708,0.095,23.0
39.724,1.403,-0.144,41.0
0.0,0.0,0.0,0.0
29.217,1.049,-0.437,2.0
22.561,0.817,-0.464,4.0
73.911,2.711,0.508,11.0
48.141,1.78,0.061,24.0
39.485,1.472,-0.171,29.0
33.037,1.241,-0.332,1.0
28.733,1.088,-0.45,2.0
21.978,0.839,-0.468,4.0
59.841,2.312,0.368,29.0
0.0,0.0,0.0,0.0
36.576,1.434,-0.185,38.0
32.037,1.266,-0.345,1.0
28.328,1.128,-0.465,1.0
21.475,0.862,-0.473,4.0
58.928,2.39,0.318,24.0
42.628,1.742,-0.009,17.0
36.295,1.493,-0.211,34.0
31.531,1.306,-0.364,2.0
24.688,1.03,-0.424,2.0
21.167,0.89,-0.483,11.0
55.037,2.337,0.254,29.0
41.731,1.784,-0.041,18.0
36.054,1.552,-0.239,14.0
30.702,1.331,-0.379,2.0
24.216,1.056,-0.435,5.0
20.808,0.914,-0.491,4.0
54.364,2.412,0.207,29.0
40.772,1.82,-0.074,43.0
35.756,1.606,-0.266,9.0
30.171,1.364,-0.397,2.0
23.479,1.068,-0.442,5.0
20.45,0.936,-0.5,3.0
54.179,2.504,0.16,11.0
40.379,1.878,-0.107,43.0
35.627,1.666,-0.295,8.0
29.651,1.395,-0.416,2.0
22.68,1.074,-0.446,4.0
20.025,0.954,-0.507,3.0
48.062,2.31,0.1,26.0
40.149,1.941,-0.142,7.0
33.725,1.64,-0.31,2.0
29.056,1.421,-0.434,2.0
22.025,1.083,-0.453,4.0
19.594,0.969,-0.514,3.0
0.0,0.0,0.0,0.0
36.384,1.825,-0.162,37.0
32.69,1.648,-0.33,1.0
28.618,1.451,-0.453,1.0
21.498,1.096,-0.462,4.0
19.206,0.984,-0.521,4.0
42.194,2.181,0.01,18.0
36.24,1.882,-0.195,12.0
31.795,1.659,-0.351,2.0
24.723,1.297,-0.415,3.0
21.031,1.109,-0.472,4.0
18.802,0.996,-0.528,3.0
41.304,2.207,-0.029,34.0
35.664,1.915,-0.226,23.0
30.8,1.661,-0.37,2.0
23.887,1.295,-0.424,5.0
20.583,1.121,-0.482,3.0
18.388,1.006,-0.535,4.0
40.925,2.257,-0.069,20.0
35.443,1.964,-0.26,10.0
30.196,1.681,-0.393,2.0
22.927,1.282,-0.43,5.0
20.128,1.13,-0.492,3.0
18.018,1.016,-0.542,3.0
40.265,2.289,-0.108,28.0
35.337,2.017,-0.295,7.0
29.43,1.687,-0.412,2.0
22.191,1.278,-0.439,4.0
19.68,1.138,-0.501,3.0
17.655,1.025,-0.549,4.0
36.399,2.129,-0.135,30.0
0.0,0.0,0.0,0.0
28.912,1.705,-0.435,1.0
21.602,1.28,-0.45,4.0
19.231,1.144,-0.51,3.0
17.341,1.036,-0.558,3.0
35.923,2.16,-0.172,42.0
32.131,1.94,-0.336,1.0
24.768,1.501,-0.4,3.0
21.086,1.283,-0.462,4.0
18.78,1.147,-0.518,3.0
16.924,1.038,-0.563,2.0
33.439,2.064,-0.197,38.0
31.001,1.921,-0.358,2.0
23.895,1.486,-0.412,5.0
20.602,1.286,-0.474,4.0
18.348,1.15,-0.526,4.0
16.537,1.04,-0.568,3.0
35.269,2.233,-0.246,9.0
30.167,1.917,-0.382,1.0
23.007,1.467,-0.422,5.0
20.13,1.288,-0.486,3.0
17.977,1.155,-0.536,3.0
16.201,1.045,-0.575,4.0
35.156,2.28,-0.286,8.0
29.537,1.922,-0.408,1.0
22.151,1.447,-0.432,4.0
19.591,1.284,-0.495,3.0
17.552,1.154,-0.543,2.0
15.929,1.051,-0.584,2.0
35.04,2.325,-0.325,1.0
28.957,1.928,-0.434,1.0
21.399,1.429,-0.442,4.0
19.109,1.28,-0.505,3.0
17.155,1.153,-0.551,2.0
15.181,1.024,-0.574,2.0
31.902,2.164,-0.334,1.0
24.436,1.663,-0.395,5.0
20.927,1.428,-0.457,4.0
18.636,1.276,-0.515,3.0
16.797,1.154,-0.56,3.0
14.656,1.01,-0.572,9.0
30.689,2.126,-0.358,2.0
23.535,1.635,-0.408,5.0
20.452,1.425,-0.471,3.0
18.12,1.267,-0.523,3.0
16.46,1.154,-0.569,2.0
14.528,1.022,-0.585,18.0
29.983,2.119,-0.386,2.0
22.493,1.594,-0.418,4.0
19.872,1.412,-0.482,3.0
17.679,1.26,-0.532,3.0
16.01,1.144,-0.573,2.0
14.002,1.004,-0.581,12.0
28.705,2.068,-0.406,3.0
21.741,1.571,-0.431,4.0
19.274,1.396,-0.492,3.0
17.335,1.259,-0.543,2.0
15.528,1.131,-0.575,2.0
13.804,1.009,-0.59,11.0
28.571,2.097,-0.44,3.0
21.07,1.55,-0.445,4.0
18.803,1.387,-0.504,3.0
16.948,1.254,-0.553,2.0
14.632,1.085,-0.561,6.0
13.598,1.011,-0.599,11.0
23.726,1.772,-0.396,5.0
20.521,1.536,-0.459,4.0
18.312,1.374,-0.515,3.0
16.498,1.241,-0.56,2.0
14.273,1.077,-0.566,11.0
13.417,1.015,-0.608,10.0
22.656,1.72,-0.407,5.0
20.011,1.523,-0.474,3.0
17.843,1.361,-0.525,3.0
16.134,1.234,-0.568,2.0
13.889,1.065,-0.569,12.0
13.22,1.016,-0.617,11.0
21.847,1.685,-0.421,4.0
19.366,1.497,-0.484,3.0
17.386,1.348,-0.534,3.0
15.638,1.215,-0.571,2.0
13.723,1.069,-0.58,9.0
13.096,1.022,-0.629,8.0
21.095,1.652,-0.435,4.0
18.838,1.479,-0.496,3.0
16.946,1.333,-0.543,2.0
14.53,1.146,-0.55,6.0
13.542,1.07,-0.591,11.0
13.071,1.036,-0.645,9.0
20.577,1.636,-0.452,4.0
18.361,1.462,-0.508,3.0
16.532,1.319,-0.552,2.0
14.147,1.131,-0.555,12.0
13.452,1.078,-0.605,11.0
13.063,1.049,-0.662,9.0
20.01,1.612,-0.467,3.0
17.853,1.441,-0.518,3.0
16.131,1.305,-0.561,3.0
13.855,1.123,-0.562,13.0
13.273,1.078,-0.615,10.0
12.917,1.052,-0.673,4.0
19.427,1.586,-0.48,3.0
17.473,1.429,-0.531,2.0
0.0,0.0,0.0,0.0
13.667,1.122,-0.573,8.0
13.07,1.075,-0.623,8.0
12.581,1.037,-0.672,3.0
18.899,1.562,-0.493,3.0
16.936,1.402,-0.538,2.0
13.994,1.161,-0.525,9.0
13.518,1.123,-0.586,8.0
13.073,1.089,-0.642,9.0
12.387,1.033,-0.679,4.0
18.389,1.538,-0.505,3.0
16.573,1.388,-0.55,2.0
13.862,1.163,-0.539,12.0
13.368,1.124,-0.598,8.0
13.064,1.1,-0.66,11.0
12.167,1.027,-0.684,2.0
17.798,1.505,-0.513,3.0
13.939,1.181,-0.482,5.0
13.792,1.17,-0.556,12.0
13.216,1.123,-0.61,8.0
12.94,1.102,-0.671,4.0
11.855,1.011,-0.683,2.0
17.39,1.486,-0.526,2.0
13.869,1.187,-0.499,14.0
13.674,1.172,-0.57,9.0
13.061,1.121,-0.621,8.0
12.563,1.08,-0.67,3.0
11.656,1.004,-0.688,2.0
13.943,1.203,-0.441,4.0
13.836,1.196,-0.517,13.0
13.533,1.171,-0.583,10.0
13.062,1.132,-0.639,10.0
12.388,1.075,-0.678,3.0
11.445,0.995,-0.692,2.0
13.903,1.211,-0.459,11.0
13.797,1.203,-0.535,13.0
13.418,1.172,-0.597,10.0
13.055,1.142,-0.658,11.0
12.128,1.062,-0.681,1.0
11.216,0.984,-0.694,2.0
13.852,1.217,-0.477,18.0
13.761,1.21,-0.553,12.0
13.233,1.166,-0.608,8.0
12.864,1.135,-0.666,4.0
11.883,1.05,-0.684,1.0
11.006,0.974,-0.697,2.0
13.82,1.224,-0.495,20.0
13.622,1.208,-0.567,10.0
13.097,1.163,-0.62,9.0
12.58,1.118,-0.669,4.0
11.633,1.036,-0.686,1.0
10.81,0.964,-0.7,2.0
13.796,1.231,-0.514,17.0
13.482,1.204,-0.58,13.0
13.062,1.168,-0.637,9.0
12.38,1.109,-0.676,2.0
11.426,1.025,-0.69,1.0
10.604,0.952,-0.701,1.0
13.758,1.236,-0.532,16.0
13.363,1.202,-0.594,12.0
13.052,1.176,-0.655,9.0
12.082,1.089,-0.677,2.0
11.207,1.012,-0.693,2.0
10.428,0.943,-0.705,2.0
13.726,1.241,-0.551,13.0
13.206,1.196,-0.606,8.0
12.827,1.163,-0.662,3.0
11.842,1.074,-0.681,2.0
10.977,0.997,-0.694,1.0
10.252,0.932,-0.707,1.0
13.617,1.239,-0.566,10.0
13.09,1.192,-0.619,9.0
12.549,1.144,-0.665,4.0
11.601,1.059,-0.683,1.0
10.81,0.988,-0.699,1.0
10.079,0.922,-0.71,1.0
13.492,1.234,-0.58,12.0
13.069,1.197,-0.637,11.0
12.342,1.131,-0.672,3.0
11.385,1.044,-0.687,2.0
10.577,0.971,-0.699,1.0
9.913,0.911,-0.712,2.0
13.355,1.228,-0.593,11.0
13.044,1.2,-0.654,12.0
12.108,1.115,-0.676,1.0
11.214,1.034,-0.692,1.0
10.402,0.96,-0.702,2.0
9.781,0.903,-0.717,2.0
13.182,1.217,-0.603,7.0
12.803,1.183,-0.66,4.0
11.847,1.096,-0.679,1.0
10.976,1.016,-0.693,1.0
10.229,0.948,-0.705,2.0
9.666,0.896,-0.722,1.0
13.083,1.213,-0.617,11.0
12.545,1.164,-0.664,4.0
11.598,1.077,-0.681,1.0
10.793,1.003,-0.697,1.0
10.063,0.936,-0.708,2.0
9.554,0.889,-0.727,1.0
13.063,1.215,-0.635,12.0
12.33,1.148,-0.67,3.0
11.379,1.06,-0.684,2.0
10.57,0.985,-0.697,1.0
9.912,0.925,-0.711,2.0
9.428,0.88,-0.731,1.0
13.055,1.218,-0.652,11.0
12.092,1.129,-0.674,2.0
11.212,1.047,-0.689,1.0
10.395,0.972,-0.7,2.0
9.769,0.914,-0.714,1.0
9.3,0.871,-0.734,1.0
12.797,1.197,-0.657,3.0
11.853,1.109,-0.677,1.0
10.991,1.029,-0.691,1.0
10.23,0.959,-0.703,2.0
9.671,0.907,-0.721,1.0
9.189,0.862,-0.738,1.0
12.557,1.177,-0.662,5.0
11.633,1.091,-0.68,1.0
10.827,1.016,-0.696,1.0
10.056,0.944,-0.705,2.0
9.557,0.898,-0.725,1.0
9.051,0.851,-0.74,1.0
12.369,1.161,-0.669,3.0
11.383,1.069,-0.681,1.0
10.59,0.995,-0.695,1.0
9.911,0.932,-0.709,2.0
9.436,0.887,-0.729,1.0
8.95,0.842,-0.743,0.0
12.115,1.138,-0.672,2.0
11.22,1.055,-0.687,1.0
10.422,0.98,-0.698,2.0
9.791,0.921,-0.713,1.0
9.319,0.877,-0.733,1.0
8.833,0.832,-0.746,0.0
11.903,1.119,-0.676,2.0
11.01,1.035,-0.689,1.0
10.26,0.965,-0.701,2.0
9.681,0.911,-0.718,1.0
9.205,0.867,-0.736,1.0
8.538,0.804,-0.732,0.0
11.674,1.098,-0.679,2.0
10.854,1.021,-0.693,1.0
10.106,0.951,-0.704,2.0
9.588,0.902,-0.724,1.0
9.08,0.855,-0.738,1.0
8.233,0.775,-0.717,1.0
11.446,1.076,-0.68,2.0
10.655,1.002,-0.694,0.0
9.968,0.937,-0.707,2.0
9.467,0.89,-0.727,1.0
9.001,0.847,-0.743,1.0
7.996,0.753,-0.707,3.0
11.277,1.059,-0.685,2.0
10.476,0.984,-0.696,1.0
9.827,0.923,-0.71,1.0
9.35,0.879,-0.73,1.0
8.884,0.835,-0.745,0.0
7.871,0.74,-0.706,4.0
11.102,1.041,-0.688,1.0
10.332,0.969,-0.7,2.0
9.713,0.911,-0.714,1.0
9.246,0.868,-0.734,1.0
8.667,0.814,-0.738,0.0
7.757,0.728,-0.705,4.0
10.934,1.024,-0.692,1.0
10.173,0.953,-0.702,2.0
9.639,0.903,-0.721,1.0
9.136,0.856,-0.737,1.0
8.443,0.791,-0.73,1.0
7.69,0.721,-0.709,4.0
10.772,1.007,-0.695,1.0
10.044,0.939,-0.705,2.0
9.539,0.891,-0.725,1.0
9.037,0.844,-0.74,0.0
8.149,0.762,-0.714,2.0
7.595,0.71,-0.71,4.0
10.582,0.986,-0.695,1.0
9.905,0.923,-0.708,2.0
9.424,0.878,-0.728,1.0
8.938,0.833,-0.742,0.0
7.933,0.739,-0.705,3.0
7.528,0.702,-0.712,4.0
10.427,0.969,-0.697,2.0
9.804,0.911,-0.712,2.0
9.316,0.865,-0.73,1.0
8.835,0.821,-0.745,0.0
7.835,0.728,-0.706,4.0
7.496,0.696,-0.718,4.0
10.289,0.953,-0.7,2.0
9.698,0.898,-0.716,1.0
9.237,0.855,-0.735,1.0
8.693,0.805,-0.743,1.0
7.747,0.717,-0.707,4.0
7.464,0.691,-0.724,4.0
10.162,0.937,-0.703,2.0
9.615,0.887,-0.721,1.0
9.131,0.842,-0.737,0.0
8.314,0.766,-0.72,1.0
7.674,0.707,-0.709,4.0
7.428,0.685,-0.729,4.0
10.035,0.922,-0.706,2.0
9.518,0.874,-0.724,1.0
9.043,0.83,-0.74,0.0
8.092,0.743,-0.71,2.0
7.581,0.695,-0.709,4.0
7.399,0.679,-0.734,4.0
9.907,0.906,-0.708,2.0
9.436,0.862,-0.728,1.0
8.919,0.815,-0.74,0.0
7.96,0.727,-0.707,3.0
7.514,0.686,-0.711,4.0
7.35,0.671,-0.738,3.0
9.815,0.892,-0.712,2.0
9.34,0.849,-0.731,1.0
8.839,0.803,-0.743,1.0
7.866,0.714,-0.707,4.0
7.49,0.68,-0.717,4.0
7.304,0.663,-0.741,3.0
9.707,0.877,-0.714,2.0
9.268,0.837,-0.735,0.0
8.741,0.789,-0.744,1.0
7.759,0.7,-0.706,4.0
7.47,0.674,-0.722,5.0
7.209,0.65,-0.739,3.0
9.654,0.867,-0.72,2.0
9.169,0.823,-0.737,0.0
8.473,0.76,-0.73,1.0
7.69,0.69,-0.707,4.0
7.44,0.667,-0.727,4.0
7.136,0.64,-0.739,3.0
9.573,0.854,-0.724,1.0
9.082,0.81,-0.739,1.0
8.334,0.743,-0.726,1.0
7.634,0.68,-0.71,4.0
7.433,0.662,-0.734,4.0
7.095,0.631,-0.741,3.0
9.515,0.843,-0.729,1.0
8.998,0.797,-0.741,1.0
8.116,0.718,-0.715,2.0
7.551,0.668,-0.709,4.0
7.412,0.655,-0.739,3.0
7.067,0.624,-0.745,3.0
9.459,0.832,-0.733,0.0
8.91,0.783,-0.742,1.0
7.955,0.699,-0.708,2.0
7.521,0.66,-0.713,4.0
7.392,0.648,-0.744,3.0
7.062,0.619,-0.751,3.0
9.336,0.815,-0.732,0.0
8.836,0.77,-0.744,1.0
7.886,0.687,-0.709,3.0
7.509,0.654,-0.719,4.0
7.353,0.64,-0.746,3.0
7.026,0.611,-0.754,2.0
9.261,0.801,-0.734,1.0
8.788,0.76,-0.747,1.0
7.826,0.676,-0.71,4.0
7.498,0.647,-0.724,4.0
7.308,0.63,-0.748,3.0
6.974,0.601,-0.754,2.0
9.188,0.788,-0.736,1.0
8.721,0.747,-0.749,1.0
7.779,0.666,-0.712,4.0
7.483,0.64,-0.729,4.0
7.297,0.624,-0.753,3.0
6.943,0.593,-0.756,3.0
9.116,0.775,-0.738,1.0
8.654,0.735,-0.75,1.0
7.721,0.655,-0.713,4.0
7.526,0.638,-0.739,3.0
7.278,0.616,-0.757,3.0
6.934,0.586,-0.761,3.0
9.043,0.761,-0.739,1.0
8.565,0.72,-0.749,1.0
7.678,0.645,-0.715,4.0
7.543,0.633,-0.747,3.0
7.294,0.611,-0.764,3.0
6.926,0.58,-0.765,3.0
8.975,0.748,-0.74,2.0
8.396,0.699,-0.74,1.0
7.675,0.638,-0.721,4.0
7.528,0.625,-0.751,3.0
7.288,0.604,-0.769,2.0
6.923,0.574,-0.77,2.0
8.934,0.736,-0.743,1.0
8.158,0.671,-0.725,2.0
7.691,0.632,-0.727,4.0
7.519,0.617,-0.755,3.0
7.255,0.595,-0.77,1.0
6.908,0.566,-0.773,1.0
8.908,0.726,-0.747,1.0
8.056,0.655,-0.721,3.0
7.711,0.627,-0.734,4.0
7.482,0.607,-0.756,3.0
7.209,0.584,-0.77,1.0
6.884,0.557,-0.775,1.0
8.858,0.713,-0.748,1.0
8.0,0.643,-0.721,4.0
7.747,0.622,-0.743,4.0
7.449,0.597,-0.758,3.0
7.174,0.575,-0.771,0.0
6.84,0.547,-0.774,1.0
8.801,0.7,-0.749,1.0
7.977,0.634,-0.724,4.0
7.746,0.614,-0.747,4.0
7.427,0.588,-0.76,3.0
7.147,0.565,-0.772,1.0
6.815,0.538,-0.775,1.0
8.765,0.689,-0.75,1.0
7.967,0.625,-0.727,5.0
7.755,0.607,-0.752,4.0
7.404,0.579,-0.761,3.0
7.115,0.556,-0.772,1.0
6.805,0.531,-0.778,0.0
8.735,0.677,-0.752,2.0
7.97,0.617,-0.732,5.0
7.737,0.598,-0.754,4.0
7.405,0.571,-0.765,2.0
7.091,0.546,-0.773,1.0
6.806,0.524,-0.781,1.0
8.698,0.665,-0.753,2.0
7.975,0.609,-0.736,5.0
7.761,0.592,-0.76,3.0
7.393,0.563,-0.767,2.0
7.062,0.537,-0.773,1.0
6.826,0.518,-0.786,1.0
8.664,0.653,-0.754,2.0
7.982,0.601,-0.74,5.0
7.76,0.583,-0.764,2.0
7.369,0.553,-0.768,1.0
7.05,0.528,-0.775,1.0
6.854,0.512,-0.792,1.0
8.626,0.641,-0.754,2.0
7.997,0.593,-0.745,5.0
7.746,0.574,-0.765,2.0
7.365,0.544,-0.77,1.0
7.057,0.521,-0.778,1.0
6.916,0.509,-0.802,1.0
8.6,0.63,-0.755,3.0
7.997,0.584,-0.747,5.0
7.742,0.565,-0.768,2.0
7.348,0.535,-0.771,1.0
7.08,0.514,-0.783,1.0
7.005,0.508,-0.815,0.0
8.59,0.619,-0.757,4.0
8.02,0.577,-0.752,4.0
7.724,0.554,-0.768,1.0
7.341,0.526,-0.772,1.0
7.12,0.509,-0.79,1.0
7.103,0.507,-0.828,1.0
8.561,0.607,-0.757,5.0
8.032,0.568,-0.755,4.0
7.701,0.544,-0.768,1.0
7.346,0.518,-0.775,1.0
7.164,0.504,-0.796,1.0
7.174,0.503,-0.838,1.0
8.547,0.596,-0.758,5.0
8.056,0.561,-0.76,4.0
7.697,0.534,-0.769,1.0
7.373,0.511,-0.779,1.0
7.269,0.502,-0.81,1.0
7.284,0.502,-0.853,1.0
8.547,0.586,-0.759,5.0
8.087,0.553,-0.764,4.0
7.685,0.524,-0.769,1.0
7.411,0.504,-0.785,1.0
7.377,0.501,-0.823,1.0
7.384,0.5,-0.866,0.0
8.557,0.576,-0.761,3.0
8.078,0.542,-0.764,3.0
7.696,0.516,-0.771,1.0
7.474,0.499,-0.792,1.0
7.491,0.499,-0.837,1.0
7.483,0.498,-0.878,0.0
8.567,0.566,-0.763,2.0
8.09,0.533,-0.766,2.0
7.717,0.507,-0.774,1.0
7.562,0.496,-0.802,1.0
7.581,0.496,-0.847,1.0
7.614,0.497,-0.894,0.0
8.557,0.555,-0.763,1.0
8.09,0.523,-0.767,1.0
7.756,0.5,-0.779,1.0
7.675,0.494,-0.815,1.0
7.696,0.494,-0.86,0.0
7.704,0.493,-0.905,0.0
8.553,0.544,-0.763,1.0
8.102,0.514,-0.768,1.0
7.804,0.493,-0.783,1.0
7.791,0.491,-0.827,1.0
7.805,0.491,-0.872,0.0
7.836,0.492,-0.92,0.0
8.547,0.533,-0.762,1.0
8.115,0.504,-0.769,1.0
7.893,0.489,-0.792,1.0
7.909,0.489,-0.839,1.0
7.925,0.488,-0.885,0.0
7.939,0.488,-0.932,0.0
8.555,0.522,-0.762,2.0
8.152,0.496,-0.772,1.0
8.007,0.486,-0.803,1.0
8.029,0.486,-0.851,1.0
8.055,0.486,-0.899,0.0
8.007,0.482,-0.939,0.0
8.57,0.512,-0.762,2.0
8.208,0.489,-0.776,1.0
8.126,0.482,-0.814,1.0
8.167,0.483,-0.865,0.0
8.167,0.482,-0.911,0.0
8.123,0.478,-0.951,0.0
8.58,0.501,-0.762,2.0
8.303,0.484,-0.784,1.0
8.303,0.482,-0.83,1.0
8.272,0.479,-0.874,0.0
8.352,0.482,-0.93,0.0
8.297,0.477,-0.97,0.0
8.623,0.493,-0.764,2.0
8.424,0.48,-0.793,2.0
8.455,0.48,-0.844,1.0
8.421,0.476,-0.888,0.0
8.449,0.476,-0.939,0.0
8.433,0.474,-0.984,0.0
8.665,0.484,-0.766,2.0
8.553,0.476,-0.803,2.0
8.546,0.474,-0.85,1.0
8.589,0.475,-0.904,0.0
8.563,0.471,-0.949,0.0
8.464,0.465,-0.985,0.0
8.742,0.476,-0.77,2.0
8.67,0.471,-0.812,2.0
8.678,0.47,-0.861,0.0
8.73,0.471,-0.916,0.0
8.668,0.466,-0.958,0.0
8.466,0.453,-0.983,0.0
8.856,0.471,-0.777,2.0
8.825,0.467,-0.823,2.0
8.867,0.468,-0.877,0.0
8.867,0.466,-0.927,0.0
8.86,0.464,-0.976,0.0
8.187,0.427,-0.947,0.0
9.003,0.466,-0.786,2.0
9.029,0.466,-0.839,1.0
9.046,0.465,-0.891,0.0
9.045,0.463,-0.942,0.0
8.937,0.456,-0.98,0.0
7.985,0.406,-0.921,0.0
9.165,0.463,-0.797,3.0
9.165,0.461,-0.847,1.0
9.202,0.461,-0.902,0.0
9.162,0.457,-0.95,0.0
8.922,0.443,-0.975,0.0
8.023,0.397,-0.921,0.0
9.313,0.457,-0.805,2.0
9.342,0.457,-0.859,0.0
9.381,0.457,-0.915,0.0
9.336,0.453,-0.963,0.0
8.508,0.411,-0.925,0.0
8.015,0.386,-0.916,0.0
9.504,0.454,-0.817,2.0
9.542,0.454,-0.873,0.0
9.517,0.451,-0.923,0.0
9.401,0.444,-0.965,0.0
8.461,0.397,-0.915,0.0
8.112,0.379,-0.923,0.0
9.698,0.45,-0.828,1.0
9.739,0.45,-0.885,0.0
9.699,0.446,-0.935,0.0
9.48,0.434,-0.967,0.0
8.45,0.385,-0.909,0.0
8.149,0.37,-0.922,0.0
9.919,0.447,-0.841,1.0
9.928,0.446,-0.896,0.0
9.901,0.442,-0.949,0.0
9.084,0.404,-0.921,0.0
8.509,0.377,-0.91,0.0
8.166,0.36,-0.919,0.0
10.141,0.444,-0.853,2.0
10.091,0.439,-0.905,0.0
10.021,0.434,-0.953,0.0
8.911,0.384,-0.898,0.0
8.557,0.367,-0.909,0.0
8.205,0.35,-0.917,0.0
10.232,0.434,-0.854,6.0
10.226,0.432,-0.909,0.0
10.004,0.42,-0.945,0.0
8.98,0.375,-0.898,0.0
8.617,0.358,-0.909,0.0
8.266,0.342,-0.918,0.0
10.262,0.422,-0.849,2.0
10.301,0.421,-0.908,1.0
9.437,0.384,-0.884,0.0
9.047,0.366,-0.898,0.0
8.644,0.348,-0.906,0.0
8.316,0.333,-0.917,0.0
10.697,0.425,-0.876,0.0
10.431,0.412,-0.912,1.0
9.409,0.37,-0.874,0.0
9.19,0.359,-0.905,0.0
8.757,0.341,-0.91,0.0
8.348,0.323,-0.914,0.0
10.991,0.422,-0.892,0.0
10.645,0.407,-0.922,0.0
9.622,0.366,-0.886,0.0
9.283,0.351,-0.906,0.0
8.789,0.33,-0.906,0.0
8.41,0.314,-0.913,0.0
11.215,0.416,-0.9,0.0
10.26,0.379,-0.879,0.0
9.733,0.357,-0.887,0.0
9.33,0.34,-0.902,0.0
8.832,0.32,-0.902,0.0
8.465,0.305,-0.911,0.0
11.462,0.41,-0.909,0.0
10.289,0.366,-0.872,0.0
9.798,0.347,-0.884,0.0
9.329,0.328,-0.894,0.0
8.899,0.311,-0.901,0.0
8.519,0.296,-0.909,0.0
11.683,0.403,-0.916,0.0
10.341,0.355,-0.867,0.0
9.897,0.337,-0.884,0.0
9.344,0.316,-0.886,0.0
8.985,0.303,-0.901,0.0
