X,Y,Z,Reflectivity
98.642,-9.473,6.672,18.0
83.592,-8.04,8.015,3.0
83.518,-8.012,7.547,5.0
99.866,-9.558,8.474,15.0
85.334,-8.148,6.763,1.0
84.669,-8.065,6.245,8.0
98.641,-9.375,6.734,18.0
76.916,-7.321,7.422,1.0
99.842,-9.479,9.084,12.0
85.738,-8.119,7.328,1.0
84.433,-7.975,6.743,12.0
84.724,-7.983,6.3,5.0
98.578,-9.266,6.789,12.0
84.918,-7.994,8.246,3.0
84.058,-7.893,7.697,15.0
96.582,-9.046,8.31,3.0
97.367,-9.096,7.831,7.0
98.829,-9.21,7.403,12.0
98.277,-9.136,6.822,13.0
100.005,-9.31,9.766,4.0
97.944,-9.094,9.021,14.0
96.516,-8.938,8.356,11.0
97.055,-8.964,7.857,12.0
84.711,-7.803,6.39,11.0
106.732,-9.808,7.463,6.0
98.152,-9.03,9.636,13.0
83.317,-7.645,7.716,9.0
83.681,-7.657,7.287,4.0
97.001,-8.852,7.9,9.0
84.696,-7.709,6.43,16.0
97.949,-8.892,6.896,11.0
84.885,-7.716,8.374,4.0
83.256,-7.546,7.751,8.0
85.38,-7.716,7.475,4.0
96.982,-8.741,7.943,5.0
84.738,-7.616,6.472,11.0
97.757,-8.763,6.926,5.0
101.262,-9.089,10.034,5.0
96.406,-8.628,9.017,5.0
97.469,-8.697,8.575,3.0
105.466,-9.384,8.682,14.0
84.591,-7.505,6.495,9.0
86.41,-7.645,6.158,5.0
99.361,-8.801,9.887,12.0
85.367,-7.539,8.018,10.0
84.408,-7.433,7.459,6.0
108.182,-9.498,8.948,1.0
84.579,-7.404,6.526,7.0
97.554,-8.516,6.987,9.0
84.785,-7.409,8.467,6.0
85.363,-7.437,8.048,12.0
96.814,-8.409,8.588,2.0
105.682,-9.152,8.776,5.0
105.444,-9.103,8.172,11.0
98.401,-8.471,7.08,14.0
105.481,-9.09,10.567,3.0
105.742,-9.083,10.003,19.0
108.203,-9.266,9.632,3.0
106.447,-9.087,8.872,19.0
84.229,-7.169,6.552,8.0
98.691,-8.374,7.129,7.0
108.011,-9.174,10.852,6.0
106.531,-9.019,10.107,6.0
108.928,-9.192,9.726,3.0
97.429,-8.196,8.146,5.0
96.904,-8.127,7.563,5.0
99.72,-8.337,7.228,4.0
99.237,-8.304,9.995,9.0
106.551,-8.886,10.134,5.0
106.087,-8.818,9.497,2.0
84.79,-7.025,7.108,8.0
99.99,-8.258,7.824,3.0
96.606,-7.953,7.022,5.0
100.102,-8.247,10.103,3.0
106.663,-8.758,10.166,2.0
105.365,-8.622,9.452,14.0
109.458,-8.926,9.197,5.0
107.911,-8.772,8.464,16.0
100.367,-8.131,7.312,3.0
0.0,0.0,0.0,0.0
0.0,0.0,0.0,0.0
98.407,-7.923,8.843,6.0
107.354,-8.614,9.034,8.0
98.094,-7.844,7.706,12.0
100.919,-8.043,7.366,6.0
0.0,0.0,0.0,0.0
0.0,0.0,0.0,0.0
0.0,0.0,0.0,0.0
105.981,-8.362,8.929,6.0
108.032,-8.494,8.497,5.0
147.602,-11.566,10.785,6.0
0.0,0.0,0.0,0.0
0.0,0.0,0.0,0.0
0.0,0.0,0.0,0.0
108.651,-8.425,9.16,5.0
107.825,-8.332,8.487,6.0
148.379,-11.427,10.848,13.0
0.0,0.0,0.0,0.0
0.0,0.0,0.0,0.0
108.43,-8.291,9.764,1.0
148.134,-11.287,12.491,3.0
148.001,-11.236,11.649,3.0
107.76,-8.151,7.877,3.0
0.0,0.0,0.0,0.0
0.0,0.0,0.0,0.0
0.0,0.0,0.0,0.0
108.511,-8.117,9.146,6.0
148.689,-11.08,11.699,4.0
206.902,-15.361,15.118,20.0
0.0,0.0,0.0,0.0
0.0,0.0,0.0,0.0
0.0,0.0,0.0,0.0
0.0,0.0,0.0,0.0
108.537,-7.935,8.53,7.0
207.106,-15.086,15.113,10.0
0.0,0.0,0.0,0.0
0.0,0.0,0.0,0.0
0.0,0.0,0.0,0.0
108.876,-7.837,9.158,2.0
108.995,-7.815,8.553,2.0
109.097,-7.793,7.947,7.0
0.0,0.0,0.0,0.0
0.0,0.0,0.0,0.0
0.0,0.0,0.0,0.0
0.0,0.0,0.0,0.0
0.0,0.0,0.0,0.0
0.0,0.0,0.0,0.0
0.0,0.0,0.0,0.0
0.0,0.0,0.0,0.0
0.0,0.0,0.0,0.0
0.0,0.0,0.0,0.0
109.089,-7.513,8.52,6.0
162.51,-11.146,11.776,8.0
0.0,0.0,0.0,0.0
0.0,0.0,0.0,0.0
0.0,0.0,0.0,0.0
0.0,0.0,0.0,0.0
0.0,0.0,0.0,0.0
0.0,0.0,0.0,0.0
0.0,0.0,0.0,0.0
0.0,0.0,0.0,0.0
0.0,0.0,0.0,0.0
0.0,0.0,0.0,0.0
0.0,0.0,0.0,0.0
0.0,0.0,0.0,0.0
0.0,0.0,0.0,0.0
0.0,0.0,0.0,0.0
0.0,0.0,0.0,0.0
0.0,0.0,0.0,0.0
0.0,0.0,0.0,0.0
0.0,0.0,0.0,0.0
0.0,0.0,0.0,0.0
0.0,0.0,0.0,0.0
0.0,0.0,0.0,0.0
0.0,0.0,0.0,0.0
0.0,0.0,0.0,0.0
0.0,0.0,0.0,0.0
0.0,0.0,0.0,0.0
0.0,0.0,0.0,0.0
0.0,0.0,0.0,0.0
0.0,0.0,0.0,0.0
0.0,0.0,0.0,0.0
0.0,0.0,0.0,0.0
0.0,0.0,0.0,0.0
0.0,0.0,0.0,0.0
0.0,0.0,0.0,0.0
0.0,0.0,0.0,0.0
0.0,0.0,0.0,0.0
0.0,0.0,0.0,0.0
0.0,0.0,0.0,0.0
0.0,0.0,0.0,0.0
0.0,0.0,0.0,0.0
0.0,0.0,0.0,0.0
0.0,0.0,0.0,0.0
0.0,0.0,0.0,0.0
0.0,0.0,0.0,0.0
0.0,0.0,0.0,0.0
0.0,0.0,0.0,0.0
93.062,-5.343,7.496,2.0
0.0,0.0,0.0,0.0
0.0,0.0,0.0,0.0
0.0,0.0,0.0,0.0
0.0,0.0,0.0,0.0
0.0,0.0,0.0,0.0
0.0,0.0,0.0,0.0
0.0,0.0,0.0,0.0
0.0,0.0,0.0,0.0
56.819,-3.14,5.489,1.0
92.371,-5.079,8.393,5.0
0.0,0.0,0.0,0.0
82.913,-4.513,6.576,2.0
91.414,-4.951,6.728,2.0
0.0,0.0,0.0,0.0
56.875,-3.059,5.456,2.0
90.69,-4.852,8.179,4.0
0.0,0.0,0.0,0.0
92.62,-4.905,7.283,2.0
91.472,-4.819,6.669,5.0
90.266,-4.731,6.066,1.0
56.611,-2.96,5.391,3.0
0.0,0.0,0.0,0.0
93.407,-4.832,7.821,5.0
83.101,-4.277,6.473,5.0
91.366,-4.678,6.595,4.0
90.525,-4.61,6.017,1.0
56.655,-2.878,5.352,7.0
90.772,-4.587,8.053,2.0
93.115,-4.68,7.726,5.0
83.573,-4.177,6.446,2.0
91.449,-4.548,6.53,2.0
90.571,-4.479,5.948,1.0
63.605,-3.136,5.958,0.0
90.828,-4.455,7.985,2.0
91.237,-4.45,7.496,2.0
83.581,-4.055,6.379,8.0
89.751,-4.331,6.335,6.0
90.568,-4.347,5.874,1.0
56.728,-2.714,5.266,5.0
83.963,-3.995,7.311,6.0
92.129,-4.358,7.491,9.0
83.504,-3.929,6.301,7.0
89.808,-4.202,6.262,7.0
90.651,-4.218,5.802,1.0
63.433,-2.941,5.832,6.0
83.814,-3.864,7.223,9.0
92.684,-4.248,7.454,4.0
83.475,-3.805,6.225,6.0
91.423,-4.144,6.293,3.0
92.41,-4.165,5.831,1.0
63.448,-2.849,5.775,4.0
92.726,-4.14,7.906,10.0
90.225,-4.005,7.173,7.0
83.516,-3.686,6.15,6.0
89.863,-3.944,6.102,4.0
0.0,0.0,0.0,0.0
56.775,-2.468,5.114,4.0
83.269,-3.598,7.02,12.0
89.242,-3.833,7.008,11.0
83.458,-3.563,6.064,6.0
89.91,-3.816,6.017,4.0
83.26,-3.514,5.093,3.0
56.787,-2.386,5.058,5.0
98.426,-4.111,8.199,4.0
91.333,-3.792,7.08,2.0
83.766,-3.457,6.002,8.0
90.236,-3.701,5.947,7.0
97.461,-3.974,5.862,3.0
56.821,-2.306,5.002,7.0
84.067,-3.391,6.914,6.0
92.796,-3.72,7.096,17.0
83.427,-3.323,5.889,12.0
93.071,-3.684,6.033,5.0
97.994,-3.856,5.789,2.0
63.448,-2.485,5.516,6.0
83.996,-3.268,6.816,10.0
92.871,-3.591,7.0,9.0
83.349,-3.202,5.792,12.0
93.237,-3.56,5.942,6.0
98.377,-3.733,5.702,2.0
63.45,-2.394,5.445,4.0
91.526,-3.432,7.324,10.0
83.227,-3.101,6.178,8.0
83.426,-3.089,5.703,8.0
174.665,-6.427,10.933,32.0
0.0,0.0,0.0,0.0
90.004,-3.271,7.619,7.0
83.485,-3.015,6.583,12.0
0.0,0.0,0.0,0.0
93.147,-3.319,6.258,8.0
174.7,-6.185,10.728,37.0
0.0,0.0,0.0,0.0
82.806,-2.895,6.91,9.0
92.588,-3.214,7.189,29.0
83.13,-2.867,5.973,7.0
90.268,-3.092,5.954,6.0
174.604,-5.942,10.51,29.0
0.0,0.0,0.0,0.0
82.907,-2.784,6.814,11.0
90.281,-3.01,6.896,12.0
92.621,-3.067,6.539,65.0
172.526,-5.673,11.163,34.0
174.533,-5.699,10.283,28.0
0.0,0.0,0.0,0.0
83.0,-2.674,6.716,37.0
83.124,-2.659,6.243,35.0
83.244,-2.644,5.769,14.0
92.961,-2.933,5.895,54.0
93.195,-2.919,5.37,5.0
0.0,0.0,0.0,0.0
83.081,-2.566,6.613,7.0
172.717,-5.298,12.747,20.0
83.607,-2.545,5.685,36.0
90.582,-2.737,5.624,26.0
90.537,-2.717,5.097,39.0
0.0,0.0,0.0,0.0
83.45,-2.467,6.53,13.0
83.614,-2.454,6.057,40.0
98.733,-2.876,6.578,15.0
83.425,-2.412,5.066,63.0
90.462,-2.595,4.969,53.0
178.418,-5.083,8.768,20.0
41.266,-1.166,3.171,14.0
83.163,-2.332,5.908,2.0
92.324,-2.57,6.022,59.0
83.513,-2.306,4.954,59.0
90.479,-2.479,4.843,45.0
129.124,-3.511,6.163,22.0
41.186,-1.11,3.106,26.0
82.274,-2.202,5.727,3.0
128.963,-3.424,8.227,31.0
83.58,-2.202,4.838,58.0
90.514,-2.366,4.714,50.0
129.104,-3.347,5.976,39.0
83.782,-2.153,6.196,2.0
97.559,-2.487,6.646,10.0
97.841,-2.474,6.098,34.0
83.664,-2.098,4.719,56.0
90.514,-2.251,4.579,41.0
129.001,-3.183,5.779,44.0
41.197,-1.007,2.984,42.0
84.922,-2.059,5.658,12.0
129.751,-3.12,7.89,27.0
83.695,-1.996,4.595,48.0
90.581,-2.142,4.446,54.0
129.547,-3.037,5.607,23.0
84.3,-1.957,5.977,69.0
84.108,-1.936,5.473,39.0
91.391,-2.086,5.416,51.0
92.139,-2.085,4.915,24.0
90.594,-2.033,4.306,53.0
191.739,-4.267,8.005,15.0
83.98,-1.849,5.824,24.0
84.153,-1.836,5.344,55.0
91.394,-1.977,5.273,13.0
91.558,-1.964,4.741,80.0
90.634,-1.926,4.165,13.0
191.4,-4.033,7.688,26.0
93.944,-1.958,6.365,5.0
84.139,-1.737,5.209,48.0
83.787,-1.715,4.7,11.0
91.603,-1.858,4.597,80.0
128.734,-2.587,5.71,33.0
188.497,-3.753,7.265,15.0
85.893,-1.69,5.678,59.0
84.108,-1.64,5.07,47.0
83.791,-1.618,4.562,34.0
90.846,-1.739,4.41,79.0
128.335,-2.433,5.482,32.0
185.845,-3.49,6.858,16.0
85.493,-1.585,5.509,31.0
84.108,-1.545,4.929,50.0
127.178,-2.314,6.713,31.0
99.183,-1.787,4.648,18.0
128.551,-2.294,5.275,25.0
184.379,-3.259,6.497,45.0
85.293,-1.488,5.353,57.0
84.048,-1.451,4.783,19.0
127.013,-2.172,6.488,28.0
91.441,-1.548,4.13,23.0
128.111,-2.147,5.04,27.0
151.397,-2.513,5.077,79.0
85.338,-1.397,5.209,28.0
83.889,-1.359,4.63,66.0
90.836,-1.456,4.484,50.0
91.437,-1.45,3.972,90.0
128.944,-2.025,4.85,28.0
151.468,-2.354,4.816,87.0
85.375,-1.308,5.063,13.0
83.876,-1.271,4.483,66.0
79.179,-1.187,3.77,150.0
91.468,-1.356,3.812,67.0
99.739,-1.463,3.576,19.0
86.907,-1.261,2.61,10.0
128.99,-1.845,7.419,10.0
83.894,-1.186,4.335,41.0
85.79,-1.2,3.933,150.0
91.083,-1.26,3.635,34.0
109.489,-1.498,3.733,3.0
109.513,-1.481,3.096,3.0
83.652,-1.113,4.661,25.0
83.9,-1.104,4.186,18.0
85.884,-1.117,3.783,108.0
79.401,-1.02,3.025,9.0
79.406,-1.008,2.562,32.0
79.404,-0.996,2.1,93.0
83.684,-1.033,4.51,43.0
79.226,-0.966,3.806,169.0
79.391,-0.955,3.349,150.0
79.408,-0.944,2.88,150.0
79.434,-0.933,2.418,151.0
79.44,-0.922,1.954,158.0
83.725,-0.955,4.357,110.0
85.798,-0.966,3.964,150.0
79.419,-0.883,3.205,157.0
79.421,-0.872,2.733,151.0
79.439,-0.861,2.27,152.0
79.429,-0.85,1.807,178.0
83.787,-0.88,4.204,22.0
85.905,-0.89,3.808,150.0
79.42,-0.812,3.056,181.0
79.425,-0.801,2.584,151.0
79.439,-0.791,2.121,151.0
79.435,-0.78,1.658,166.0
79.233,-0.762,3.824,156.0
79.326,-0.753,3.363,2.0
79.436,-0.743,2.905,151.0
79.412,-0.733,2.432,150.0
79.439,-0.722,1.968,162.0
79.441,-0.712,1.504,164.0
82.082,-0.72,3.802,150.0
79.434,-0.687,3.215,158.0
79.421,-0.676,2.75,150.0
79.417,-0.667,2.279,150.0
79.428,-0.657,1.815,192.0
79.446,-0.647,1.352,163.0
82.895,-0.66,3.678,45.0
79.431,-0.623,3.061,161.0
79.415,-0.613,2.596,150.0
79.432,-0.604,2.124,156.0
79.438,-0.595,1.661,178.0
79.457,-0.585,1.197,162.0
59.482,-0.427,2.523,91.0
79.425,-0.562,2.905,150.0
79.409,-0.552,2.44,150.0
79.428,-0.543,1.968,174.0
79.439,-0.534,1.504,173.0
79.457,-0.525,1.04,159.0
79.398,-0.511,3.21,68.0
79.434,-0.503,2.747,150.0
79.432,-0.494,2.282,159.0
79.424,-0.485,1.81,194.0
79.444,-0.477,1.346,165.0
79.459,-0.468,0.882,166.0
79.395,-0.455,3.051,150.0
79.437,-0.447,2.589,151.0
79.431,-0.438,2.123,172.0
79.426,-0.43,1.651,196.0
79.45,-0.422,1.188,157.0
79.48,-0.414,0.723,151.0
79.417,-0.401,2.892,150.0
79.432,-0.393,2.427,151.0
79.437,-0.385,1.963,158.0
79.442,-0.377,1.491,181.0
79.467,-0.37,1.026,151.0
79.102,-0.36,0.56,15.0
79.419,-0.35,2.731,150.0
79.427,-0.342,2.265,151.0
79.437,-0.335,1.802,161.0
79.441,-0.328,1.33,161.0
79.461,-0.321,0.866,151.0
76.31,-0.301,0.386,8.0
79.434,-0.302,2.569,150.0
79.438,-0.295,2.104,151.0
79.419,-0.288,1.639,232.0
79.459,-0.281,1.166,151.0
79.42,-0.274,0.702,150.0
56.0,-0.188,0.167,25.0
79.426,-0.257,2.406,150.0
79.44,-0.25,1.94,151.0
79.441,-0.243,1.476,181.0
79.459,-0.237,1.003,151.0
76.518,-0.222,0.519,16.0
48.32,-0.136,0.045,10.0
79.434,-0.214,2.242,150.0
79.448,-0.208,1.777,153.0
79.447,-0.202,1.312,159.0
79.46,-0.195,0.838,151.0
61.734,-0.147,0.289,12.0
0.0,0.0,0.0,0.0
79.447,-0.174,2.075,151.0
79.442,-0.168,1.609,169.0
79.453,-0.162,1.144,155.0
79.388,-0.156,0.671,109.0
0.0,0.0,0.0,0.0
40.563,-0.074,-0.131,16.0
79.449,-0.137,1.908,151.0
79.452,-0.132,1.443,171.0
79.458,-0.126,0.979,157.0
76.176,-0.116,0.485,17.0
46.98,-0.068,0.024,20.0
39.177,-0.054,-0.209,14.0
79.451,-0.104,1.743,151.0
79.46,-0.098,1.277,157.0
79.462,-0.093,0.811,151.0
61.628,-0.068,0.261,18.0
0.0,0.0,0.0,0.0
38.364,-0.038,-0.285,3.0
79.442,-0.072,1.573,160.0
79.46,-0.068,1.11,156.0
79.233,-0.063,0.642,21.0
55.034,-0.04,0.119,16.0
39.915,-0.027,-0.147,31.0
33.516,-0.021,-0.319,1.0
79.458,-0.044,1.406,158.0
79.459,-0.04,0.942,191.0
76.086,-0.034,0.456,16.0
0.0,0.0,0.0,0.0
38.827,-0.013,-0.225,14.0
31.187,-0.009,-0.363,1.0
79.463,-0.019,1.239,151.0
79.475,-0.015,0.775,152.0
56.155,-0.008,0.217,10.0
43.74,-0.004,-0.09,9.0
38.231,-0.002,-0.303,1.0
29.769,0.0,-0.41,2.0
79.461,0.002,1.069,151.0
79.345,0.006,0.602,8.0
48.1,0.005,0.083,5.0
39.413,0.006,-0.166,33.0
32.866,0.006,-0.331,1.0
28.464,0.007,-0.453,2.0
79.459,0.022,0.899,151.0
75.9,0.024,0.413,8.0
0.0,0.0,0.0,0.0
38.4,0.015,-0.244,8.0
30.719,0.013,-0.375,1.0
27.028,0.012,-0.488,2.0
79.434,0.038,0.728,150.0
54.818,0.028,0.182,9.0
40.655,0.022,-0.102,17.0
37.89,0.022,-0.321,0.0
29.38,0.017,-0.421,2.0
25.983,0.016,-0.524,1.0
76.1,0.049,0.534,23.0
47.796,0.032,0.056,21.0
39.098,0.027,-0.183,24.0
32.102,0.023,-0.341,1.0
28.065,0.021,-0.463,1.0
24.628,0.019,-0.55,2.0
61.714,0.048,0.3,8.0
0.0,0.0,0.0,0.0
38.24,0.031,-0.261,5.0
30.173,0.025,-0.385,1.0
26.721,0.023,-0.498,3.0
23.558,0.02,-0.577,2.0
0.0,0.0,0.0,0.0
39.998,0.035,-0.124,28.0
33.517,0.03,-0.3,0.0
29.015,0.026,-0.432,2.0
25.625,0.024,-0.532,2.0
22.787,0.021,-0.607,3.0
0.0,0.0,0.0,0.0
38.773,0.036,-0.203,14.0
31.617,0.03,-0.351,1.0
27.508,0.026,-0.469,2.0
24.282,0.023,-0.556,2.0
21.771,0.021,-0.626,4.0
0.0,0.0,0.0,0.0
38.164,0.036,-0.282,2.0
29.866,0.028,-0.395,1.0
26.423,0.025,-0.507,2.0
23.315,0.022,-0.584,3.0
20.93,0.02,-0.647,2.0
39.396,0.036,-0.145,38.0
33.208,0.031,-0.316,1.0
28.657,0.026,-0.441,2.0
25.193,0.023,-0.538,1.0
22.455,0.02,-0.611,3.0
20.057,0.018,-0.663,2.0
38.497,0.033,-0.224,13.0
30.987,0.027,-0.362,1.0
27.178,0.023,-0.476,1.0
23.886,0.02,-0.561,2.0
21.503,0.018,-0.631,3.0
19.111,0.016,-0.673,3.0
38.035,0.029,-0.302,0.0
29.547,0.022,-0.408,2.0
26.171,0.019,-0.514,2.0
23.103,0.017,-0.592,4.0
20.658,0.015,-0.65,2.0
18.569,0.013,-0.693,2.0
32.718,0.021,-0.33,1.0
28.295,0.017,-0.45,1.0
24.85,0.015,-0.541,1.0
22.174,0.013,-0.615,4.0
19.802,0.011,-0.665,2.0
17.909,0.01,-0.706,1.0
30.439,0.014,-0.371,1.0
26.916,0.012,-0.485,2.0
23.72,0.01,-0.566,2.0
21.306,0.008,-0.636,3.0
18.981,0.007,-0.677,3.0
17.322,0.006,-0.72,1.0
29.208,0.007,-0.417,2.0
25.835,0.006,-0.52,1.0
22.864,0.005,-0.594,4.0
20.431,0.003,-0.653,2.0
18.381,0.003,-0.695,2.0
16.345,0.002,-0.714,0.0
27.874,0.0,-0.457,2.0
24.517,0.0,-0.545,1.0
22.015,0.0,-0.618,2.0
19.532,-0.001,-0.665,3.0
17.772,-0.001,-0.709,1.0
15.895,-0.001,-0.727,11.0
26.696,-0.006,-0.492,2.0
23.506,-0.006,-0.571,2.0
21.062,-0.006,-0.635,2.0
18.835,-0.006,-0.68,3.0
17.179,-0.006,-0.721,1.0
15.803,-0.006,-0.756,3.0
25.552,-0.014,-0.524,1.0
22.715,-0.013,-0.599,3.0
20.246,-0.013,-0.652,2.0
18.217,-0.012,-0.696,2.0
16.558,-0.012,-0.729,0.0
15.169,-0.011,-0.757,1.0
24.246,-0.022,-0.548,2.0
21.806,-0.021,-0.62,4.0
19.364,-0.019,-0.664,3.0
17.614,-0.018,-0.709,1.0
15.909,-0.017,-0.734,5.0
14.762,-0.017,-0.767,1.0
23.353,-0.03,-0.576,2.0
20.886,-0.028,-0.637,3.0
18.725,-0.026,-0.681,3.0
17.059,-0.025,-0.722,1.0
15.518,-0.023,-0.747,1.0
14.35,-0.022,-0.775,1.0
22.515,-0.039,-0.601,3.0
20.059,-0.035,-0.652,2.0
18.086,-0.033,-0.694,1.0
16.393,-0.031,-0.727,0.0
15.075,-0.029,-0.757,1.0
13.945,-0.028,-0.782,1.0
21.594,-0.047,-0.62,3.0
19.264,-0.043,-0.665,2.0
17.499,-0.04,-0.707,1.0
15.903,-0.037,-0.737,1.0
14.696,-0.035,-0.767,1.0
13.608,-0.034,-0.79,1.0
20.754,-0.055,-0.637,2.0
18.612,-0.051,-0.68,2.0
16.94,-0.047,-0.718,1.0
15.448,-0.044,-0.746,1.0
14.303,-0.042,-0.775,1.0
13.303,-0.04,-0.799,1.0
19.931,-0.064,-0.651,2.0
18.006,-0.059,-0.693,2.0
16.366,-0.054,-0.726,1.0
15.064,-0.051,-0.758,1.0
13.927,-0.048,-0.782,1.0
13.006,-0.046,-0.807,0.0
19.205,-0.072,-0.665,2.0
17.448,-0.067,-0.706,1.0
15.902,-0.062,-0.736,1.0
14.673,-0.058,-0.766,1.0
13.602,-0.055,-0.79,1.0
12.706,-0.052,-0.813,0.0
18.521,-0.08,-0.676,2.0
16.909,-0.075,-0.716,1.0
15.438,-0.069,-0.744,1.0
14.262,-0.065,-0.772,1.0
13.292,-0.062,-0.798,1.0
12.42,-0.059,-0.818,0.0
18.041,-0.089,-0.693,2.0
16.381,-0.083,-0.725,1.0
15.044,-0.077,-0.754,1.0
13.9,-0.073,-0.78,0.0
13.002,-0.069,-0.805,0.0
12.162,-0.066,-0.825,0.0
17.468,-0.098,-0.705,1.0
15.899,-0.091,-0.734,1.0
14.66,-0.085,-0.762,1.0
13.591,-0.08,-0.788,1.0
12.705,-0.076,-0.811,0.0
11.913,-0.072,-0.83,0.0
16.965,-0.107,-0.716,1.0
15.483,-0.099,-0.744,1.0
14.303,-0.093,-0.771,1.0
13.296,-0.088,-0.796,1.0
12.444,-0.083,-0.817,0.0
11.678,-0.079,-0.836,0.0
16.396,-0.115,-0.723,1.0
15.093,-0.108,-0.753,1.0
13.964,-0.101,-0.778,1.0
13.05,-0.096,-0.805,0.0
12.186,-0.091,-0.823,0.0
11.466,-0.087,-0.842,0.0
15.982,-0.124,-0.733,1.0
14.731,-0.116,-0.762,1.0
13.625,-0.109,-0.784,1.0
12.752,-0.103,-0.81,1.0
11.929,-0.098,-0.827,0.0
11.226,-0.094,-0.844,0.0
15.534,-0.133,-0.741,1.0
14.353,-0.125,-0.768,1.0
13.375,-0.118,-0.794,1.0
12.485,-0.111,-0.815,0.0
11.712,-0.106,-0.833,0.0
11.038,-0.101,-0.85,0.0
15.158,-0.142,-0.749,1.0
14.009,-0.133,-0.774,1.0
13.098,-0.126,-0.8,0.0
12.237,-0.119,-0.82,0.0
11.523,-0.114,-0.84,0.0
10.794,-0.108,-0.85,0.0
14.807,-0.151,-0.758,1.0
13.723,-0.142,-0.782,1.0
12.84,-0.134,-0.807,0.0
12.0,-0.127,-0.825,1.0
11.304,-0.121,-0.843,0.0
10.669,-0.116,-0.859,0.0
14.449,-0.16,-0.764,1.0
13.43,-0.151,-0.788,1.0
12.585,-0.143,-0.812,0.0
11.78,-0.135,-0.83,0.0
11.104,-0.129,-0.847,0.0
10.502,-0.123,-0.863,0.0
14.138,-0.169,-0.771,1.0
13.212,-0.16,-0.798,0.0
12.337,-0.151,-0.817,0.0
11.593,-0.144,-0.836,0.0
10.936,-0.137,-0.853,0.0
10.302,-0.13,-0.864,0.0
13.839,-0.179,-0.778,1.0
12.94,-0.169,-0.803,0.0
12.091,-0.16,-0.82,0.0
11.4,-0.152,-0.841,0.0
10.747,-0.145,-0.856,0.0
10.135,-0.138,-0.867,1.0
13.571,-0.188,-0.785,1.0
12.701,-0.178,-0.808,0.0
11.912,-0.169,-0.828,1.0
11.205,-0.16,-0.845,0.0
10.589,-0.153,-0.86,0.0
9.994,-0.146,-0.87,0.0
13.339,-0.198,-0.793,1.0
12.46,-0.187,-0.813,0.0
11.703,-0.177,-0.832,0.0
11.031,-0.169,-0.849,0.0
10.44,-0.161,-0.865,0.0
9.851,-0.154,-0.874,2.0
13.097,-0.208,-0.799,0.0
12.263,-0.196,-0.819,0.0
11.543,-0.186,-0.838,0.0
10.852,-0.177,-0.852,0.0
10.232,-0.168,-0.863,0.0
9.76,-0.162,-0.88,1.0
12.866,-0.217,-0.804,1.0
12.032,-0.205,-0.822,1.0
11.337,-0.195,-0.841,0.0
10.699,-0.186,-0.856,0.0
10.062,-0.176,-0.864,2.0
9.598,-0.17,-0.88,0.0
12.632,-0.226,-0.808,0.0
11.85,-0.214,-0.827,1.0
11.167,-0.204,-0.844,0.0
10.532,-0.194,-0.859,0.0
9.947,-0.185,-0.869,1.0
9.483,-0.178,-0.884,0.0
12.423,-0.236,-0.813,0.0
11.642,-0.223,-0.829,0.0
11.019,-0.213,-0.849,0.0
10.415,-0.203,-0.864,0.0
9.798,-0.193,-0.87,2.0
9.363,-0.186,-0.886,0.0
12.233,-0.246,-0.818,0.0
11.519,-0.233,-0.837,0.0
10.844,-0.221,-0.851,0.0
10.249,-0.211,-0.865,0.0
9.746,-0.202,-0.879,1.0
9.25,-0.194,-0.888,0.0
12.043,-0.255,-0.822,1.0
11.34,-0.242,-0.84,0.0
10.709,-0.231,-0.855,0.0
10.076,-0.219,-0.864,0.0
9.625,-0.211,-0.881,0.0
9.14,-0.202,-0.89,0.0
11.872,-0.265,-0.826,0.0
11.185,-0.252,-0.843,0.0
10.584,-0.24,-0.859,0.0
9.944,-0.227,-0.866,1.0
9.488,-0.219,-0.881,0.0
9.03,-0.21,-0.891,0.0
11.7,-0.275,-0.829,0.0
11.04,-0.261,-0.846,0.0
10.434,-0.249,-0.86,0.0
9.835,-0.236,-0.869,2.0
9.39,-0.227,-0.884,0.0
8.94,-0.218,-0.894,0.0
11.579,-0.285,-0.835,1.0
10.892,-0.27,-0.849,0.0
10.3,-0.258,-0.862,0.0
9.763,-0.246,-0.875,1.0
9.293,-0.236,-0.887,0.0
8.835,-0.226,-0.895,0.0
11.412,-0.295,-0.837,0.0
10.761,-0.28,-0.852,0.0
10.155,-0.266,-0.863,0.0
9.678,-0.255,-0.879,0.0
9.186,-0.244,-0.888,0.0
8.75,-0.234,-0.897,0.0
11.276,-0.305,-0.841,0.0
10.65,-0.29,-0.856,0.0
10.026,-0.275,-0.864,0.0
9.556,-0.264,-0.88,0.0
9.103,-0.253,-0.891,0.0
8.658,-0.242,-0.897,0.0
11.146,-0.315,-0.844,0.0
10.528,-0.299,-0.858,0.0
9.909,-0.284,-0.865,1.0
9.441,-0.272,-0.879,0.0
9.02,-0.262,-0.893,0.0
8.58,-0.251,-0.899,0.0
11.016,-0.325,-0.846,0.0
10.434,-0.309,-0.862,0.0
9.823,-0.293,-0.868,2.0
9.369,-0.282,-0.883,0.0
8.945,-0.271,-0.895,0.0
8.519,-0.26,-0.902,0.0
10.906,-0.335,-0.849,0.0
10.31,-0.319,-0.862,0.0
9.776,-0.304,-0.874,1.0
9.289,-0.291,-0.885,0.0
8.843,-0.279,-0.894,0.0
8.453,-0.268,-0.904,0.0
10.802,-0.345,-0.852,0.0
10.188,-0.328,-0.863,0.0
9.695,-0.314,-0.877,0.0
9.205,-0.3,-0.887,0.0
8.773,-0.288,-0.896,0.0
8.396,-0.277,-0.906,0.0
10.672,-0.355,-0.853,0.0
10.087,-0.337,-0.864,0.0
9.603,-0.323,-0.878,0.0
9.122,-0.309,-0.888,0.0
8.693,-0.296,-0.896,0.0
8.313,-0.285,-0.905,0.0
10.593,-0.365,-0.857,0.0
9.973,-0.346,-0.864,0.0
9.528,-0.333,-0.88,0.0
9.066,-0.319,-0.891,0.0
8.623,-0.305,-0.897,0.0
8.251,-0.294,-0.906,0.0
10.493,-0.376,-0.858,0.0
9.902,-0.357,-0.866,1.0
9.444,-0.342,-0.881,0.0
8.978,-0.327,-0.89,0.0
8.571,-0.314,-0.899,0.0
8.211,-0.303,-0.909,0.0
10.41,-0.386,-0.86,0.0
9.817,-0.366,-0.867,2.0
9.364,-0.351,-0.881,0.0
8.92,-0.337,-0.892,0.0
8.527,-0.324,-0.902,0.0
8.154,-0.312,-0.909,0.0
10.327,-0.396,-0.862,0.0
9.774,-0.377,-0.872,2.0
9.287,-0.361,-0.881,0.0
8.853,-0.346,-0.892,0.0
8.462,-0.332,-0.902,0.0
8.113,-0.321,-0.911,0.0
10.238,-0.407,-0.862,0.0
9.746,-0.389,-0.877,1.0
9.255,-0.372,-0.886,0.0
8.796,-0.355,-0.893,0.0
8.413,-0.342,-0.903,0.0
8.049,-0.329,-0.91,0.0
10.144,-0.416,-0.862,0.0
9.677,-0.399,-0.877,0.0
9.195,-0.381,-0.886,0.0
8.726,-0.364,-0.892,0.0
8.366,-0.351,-0.904,0.0
8.019,-0.338,-0.912,0.0
10.072,-0.426,-0.863,0.0
9.614,-0.409,-0.878,0.0
9.13,-0.391,-0.886,0.0
8.682,-0.374,-0.894,0.0
8.311,-0.36,-0.903,0.0
7.986,-0.347,-0.914,0.0
9.993,-0.436,-0.862,1.0
9.54,-0.419,-0.878,0.0
9.084,-0.401,-0.888,0.0
8.658,-0.384,-0.897,0.0
8.282,-0.37,-0.905,0.0
7.947,-0.357,-0.914,0.0
9.938,-0.447,-0.863,2.0
9.483,-0.429,-0.878,0.0
9.036,-0.411,-0.888,0.0
8.611,-0.394,-0.897,0.0
8.25,-0.379,-0.906,0.0
7.927,-0.366,-0.917,0.0
9.899,-0.459,-0.866,2.0
9.448,-0.44,-0.88,0.0
8.997,-0.421,-0.889,0.0
8.59,-0.404,-0.899,0.0
8.218,-0.389,-0.907,0.0
7.897,-0.376,-0.917,0.0
9.865,-0.47,-0.868,2.0
9.41,-0.451,-0.881,0.0
8.948,-0.431,-0.889,0.0
8.551,-0.414,-0.899,0.0
8.192,-0.399,-0.909,0.0
7.858,-0.384,-0.916,0.0
9.83,-0.482,-0.869,2.0
9.364,-0.461,-0.881,0.0
8.923,-0.441,-0.891,0.0
8.527,-0.424,-0.901,0.0
8.158,-0.408,-0.908,0.0
7.84,-0.394,-0.918,0.0
9.796,-0.493,-0.87,2.0
9.335,-0.472,-0.882,0.0
8.877,-0.451,-0.89,0.0
8.501,-0.434,-0.901,0.0
8.147,-0.418,-0.91,0.0
7.822,-0.403,-0.919,0.0
9.78,-0.505,-0.873,2.0
9.305,-0.483,-0.883,0.0
8.855,-0.462,-0.891,0.0
8.468,-0.444,-0.901,0.0
8.107,-0.427,-0.909,0.0
7.804,-0.413,-0.919,0.0
9.757,-0.517,-0.874,2.0
9.275,-0.493,-0.883,0.0
8.833,-0.472,-0.891,0.0
8.463,-0.454,-0.903,0.0
8.101,-0.437,-0.91,0.0
7.78,-0.422,-0.919,0.0
9.747,-0.529,-0.876,2.0
9.25,-0.504,-0.884,0.0
8.813,-0.483,-0.892,0.0
8.415,-0.463,-0.9,0.0
8.086,-0.447,-0.911,0.0
7.779,-0.432,-0.921,0.0
9.726,-0.541,-0.876,1.0
9.235,-0.516,-0.884,0.0
8.795,-0.493,-0.892,0.0
8.412,-0.474,-0.902,0.0
8.062,-0.456,-0.91,0.0
7.771,-0.442,-0.921,0.0
9.715,-0.553,-0.877,1.0
9.235,-0.528,-0.886,0.0
8.781,-0.504,-0.892,0.0
8.411,-0.485,-0.903,0.0
8.056,-0.466,-0.911,0.0
7.742,-0.45,-0.919,0.0
9.713,-0.565,-0.879,0.0
9.22,-0.539,-0.886,0.0
8.776,-0.515,-0.893,0.0
8.383,-0.494,-0.901,0.0
8.045,-0.476,-0.91,0.0
7.742,-0.46,-0.92,0.0
9.692,-0.577,-0.878,0.0
9.207,-0.55,-0.886,0.0
8.776,-0.527,-0.894,0.0
8.384,-0.505,-0.902,0.0
8.054,-0.487,-0.912,0.0
7.741,-0.47,-0.921,0.0
9.69,-0.589,-0.878,0.0
9.203,-0.561,-0.886,0.0
8.766,-0.537,-0.893,0.0
8.366,-0.515,-0.901,0.0
8.039,-0.496,-0.911,0.0
7.746,-0.48,-0.921,0.0
9.671,-0.6,-0.877,0.0
9.209,-0.573,-0.887,0.0
8.765,-0.548,-0.893,0.0
8.374,-0.526,-0.901,0.0
8.065,-0.508,-0.914,0.0
7.739,-0.49,-0.921,0.0
9.691,-0.613,-0.878,0.0
9.2,-0.584,-0.885,0.0
8.783,-0.56,-0.895,0.0
8.363,-0.535,-0.9,0.0
8.046,-0.517,-0.911,0.0
7.731,-0.499,-0.919,0.0
9.674,-0.624,-0.876,0.0
9.204,-0.596,-0.885,0.0
8.769,-0.57,-0.892,0.0
8.383,-0.547,-0.901,0.0
8.042,-0.527,-0.91,0.0
7.75,-0.51,-0.921,0.0
9.69,-0.637,-0.877,0.0
9.216,-0.608,-0.885,0.0
8.783,-0.582,-0.893,0.0
8.401,-0.558,-0.902,0.0
8.056,-0.538,-0.91,0.0
7.757,-0.52,-0.92,0.0
9.716,-0.651,-0.877,1.0
9.234,-0.621,-0.886,0.0
8.774,-0.592,-0.891,0.0
8.399,-0.568,-0.9,0.0
8.079,-0.549,-0.911,0.0
7.771,-0.53,-0.92,0.0
9.74,-0.664,-0.878,1.0
9.239,-0.632,-0.884,0.0
8.802,-0.604,-0.891,0.0
8.449,-0.582,-0.904,0.0
8.083,-0.559,-0.91,0.0
7.782,-0.54,-0.92,0.0
9.761,-0.676,-0.877,2.0
9.268,-0.644,-0.885,0.0
8.819,-0.615,-0.891,0.0
8.455,-0.592,-0.902,0.0
8.111,-0.57,-0.911,0.0
7.793,-0.55,-0.919,0.0
9.766,-0.688,-0.875,2.0
9.302,-0.657,-0.885,0.0
8.836,-0.627,-0.89,0.0
8.463,-0.602,-0.901,0.0
8.12,-0.58,-0.909,0.0
7.787,-0.558,-0.916,0.0
9.779,-0.7,-0.873,2.0
9.319,-0.669,-0.884,0.0
8.865,-0.639,-0.89,0.0
8.49,-0.614,-0.901,0.0
8.133,-0.59,-0.908,0.0
7.829,-0.57,-0.918,0.0
9.796,-0.712,-0.871,3.0
9.351,-0.682,-0.883,0.0
8.914,-0.652,-0.892,0.0
8.525,-0.626,-0.901,0.0
8.173,-0.602,-0.909,0.0
7.863,-0.581,-0.919,0.0
9.817,-0.724,-0.869,3.0
9.395,-0.695,-0.884,0.0
8.95,-0.665,-0.891,0.0
8.542,-0.636,-0.899,0.0
8.207,-0.613,-0.91,0.0
7.868,-0.59,-0.916,0.0
9.852,-0.738,-0.868,2.0
9.418,-0.707,-0.881,0.0
8.979,-0.676,-0.89,0.0
8.557,-0.646,-0.897,0.0
8.21,-0.622,-0.906,0.0
7.914,-0.601,-0.917,0.0
9.888,-0.751,-0.866,2.0
9.47,-0.721,-0.882,0.0
9.012,-0.688,-0.889,0.0
8.606,-0.659,-0.897,0.0
8.261,-0.634,-0.907,0.0
7.932,-0.611,-0.915,0.0
9.937,-0.764,-0.865,2.0
9.502,-0.733,-0.88,0.0
9.063,-0.701,-0.889,0.0
8.658,-0.672,-0.898,0.0
8.299,-0.646,-0.907,0.0
7.961,-0.621,-0.914,0.0
9.97,-0.777,-0.863,1.0
9.562,-0.747,-0.88,0.0
9.094,-0.712,-0.887,0.0
8.682,-0.682,-0.896,0.0
8.347,-0.657,-0.907,0.0
7.988,-0.631,-0.912,0.0
10.028,-0.791,-0.862,0.0
9.611,-0.76,-0.879,0.0
9.156,-0.726,-0.887,0.0
8.722,-0.693,-0.894,0.0
8.361,-0.666,-0.904,0.0
8.037,-0.642,-0.913,0.0
10.127,-0.808,-0.864,0.0
9.678,-0.774,-0.879,0.0
9.218,-0.739,-0.888,0.0
8.78,-0.706,-0.895,0.0
8.422,-0.679,-0.904,0.0
8.071,-0.653,-0.911,0.0
10.207,-0.824,-0.864,0.0
9.745,-0.789,-0.878,1.0
9.275,-0.752,-0.887,0.0
8.841,-0.719,-0.895,0.0
8.469,-0.691,-0.904,0.0
8.111,-0.663,-0.91,0.0
10.3,-0.84,-0.864,0.0
9.775,-0.8,-0.874,2.0
9.329,-0.765,-0.885,0.0
8.905,-0.732,-0.894,0.0
8.508,-0.701,-0.901,0.0
8.162,-0.674,-0.91,0.0
10.361,-0.854,-0.862,0.0
9.811,-0.811,-0.87,3.0
9.366,-0.776,-0.881,0.0
8.952,-0.743,-0.892,0.0
8.558,-0.712,-0.9,0.0
8.209,-0.685,-0.909,0.0
10.46,-0.871,-0.862,0.0
9.889,-0.825,-0.869,2.0
9.477,-0.793,-0.884,0.0
9.013,-0.756,-0.891,0.0
8.622,-0.725,-0.9,0.0
8.267,-0.696,-0.908,0.0
10.536,-0.886,-0.859,0.0
9.951,-0.838,-0.866,2.0
9.528,-0.804,-0.881,0.0
9.107,-0.771,-0.893,0.0
8.691,-0.737,-0.9,0.0
8.316,-0.707,-0.906,0.0
10.613,-0.9,-0.857,0.0
10.032,-0.853,-0.864,0.0
9.618,-0.819,-0.881,0.0
9.154,-0.781,-0.89,0.0
8.747,-0.748,-0.898,0.0
8.371,-0.718,-0.905,0.0
10.715,-0.917,-0.856,0.0
10.141,-0.869,-0.865,0.0
9.705,-0.834,-0.88,0.0
9.234,-0.795,-0.889,0.0
8.807,-0.76,-0.896,0.0
8.431,-0.729,-0.904,0.0
10.81,-0.932,-0.853,1.0
10.253,-0.886,-0.865,0.0
9.763,-0.845,-0.877,2.0
9.304,-0.807,-0.887,0.0
8.886,-0.772,-0.896,0.0
8.498,-0.74,-0.903,0.0
10.914,-0.949,-0.851,1.0
10.346,-0.901,-0.863,0.0
9.808,-0.856,-0.871,3.0
9.38,-0.82,-0.885,0.0
8.963,-0.785,-0.894,0.0
8.566,-0.751,-0.902,0.0
10.997,-0.963,-0.847,1.0
10.479,-0.919,-0.864,1.0
9.885,-0.868,-0.868,2.0
9.463,-0.833,-0.884,0.0
9.046,-0.797,-0.894,0.0
8.662,-0.765,-0.903,0.0
11.109,-0.979,-0.844,0.0
10.536,-0.93,-0.858,2.0
9.959,-0.881,-0.865,1.0
9.549,-0.846,-0.882,0.0
9.121,-0.809,-0.892,0.0
8.705,-0.774,-0.898,0.0
11.208,-0.994,-0.84,0.0
10.645,-0.946,-0.856,1.0
10.103,-0.899,-0.867,0.0
9.657,-0.86,-0.881,0.0
9.209,-0.822,-0.891,0.0
8.771,-0.784,-0.896,0.0
11.327,-1.01,-0.837,0.0
10.752,-0.96,-0.853,0.0
10.239,-0.916,-0.867,0.0
9.76,-0.874,-0.88,2.0
9.304,-0.835,-0.89,0.0
8.853,-0.796,-0.894,0.0
11.471,-1.029,-0.835,0.0
10.887,-0.978,-0.851,0.0
10.368,-0.932,-0.867,0.0
9.796,-0.882,-0.873,3.0
9.4,-0.848,-0.888,0.0
8.959,-0.809,-0.895,0.0
11.611,-1.046,-0.833,0.0
11.011,-0.994,-0.849,0.0
10.433,-0.943,-0.86,1.0
9.884,-0.894,-0.869,2.0
9.486,-0.859,-0.886,0.0
9.047,-0.821,-0.893,0.0
11.768,-1.065,-0.831,0.0
11.125,-1.008,-0.845,0.0
10.534,-0.956,-0.857,0.0
9.997,-0.908,-0.868,1.0
9.593,-0.873,-0.884,0.0
9.15,-0.833,-0.893,0.0
11.922,-1.084,-0.828,0.0
11.26,-1.024,-0.842,0.0
10.657,-0.971,-0.854,0.0
10.114,-0.922,-0.866,0.0
9.707,-0.886,-0.883,0.0
9.236,-0.844,-0.89,0.0
12.067,-1.101,-0.823,0.0
11.405,-1.041,-0.839,0.0
10.794,-0.986,-0.852,0.0
10.257,-0.938,-0.866,0.0
9.781,-0.896,-0.878,2.0
9.331,-0.855,-0.888,0.0
12.242,-1.12,-0.821,1.0
11.549,-1.057,-0.836,0.0
10.934,-1.002,-0.85,0.0
10.4,-0.954,-0.865,0.0
9.846,-0.904,-0.872,3.0
9.444,-0.868,-0.887,0.0
12.354,-1.133,-0.813,0.0
11.711,-1.075,-0.833,0.0
11.081,-1.018,-0.848,0.0
10.517,-0.967,-0.862,0.0
9.958,-0.916,-0.87,2.0
9.559,-0.881,-0.886,0.0
12.484,-1.148,-0.806,0.0
11.88,-1.093,-0.831,0.0
11.215,-1.032,-0.844,0.0
10.599,-0.976,-0.855,0.0
10.081,-0.929,-0.868,0.0
9.672,-0.892,-0.884,0.0
12.807,-1.179,-0.811,0.0
12.051,-1.11,-0.827,1.0
11.36,-1.047,-0.84,0.0
10.771,-0.994,-0.855,0.0
10.207,-0.942,-0.865,0.0
9.769,-0.903,-0.88,2.0
13.048,-1.203,-0.809,0.0
12.194,-1.125,-0.821,1.0
11.529,-1.064,-0.838,0.0
10.911,-1.008,-0.852,0.0
10.375,-0.959,-0.866,0.0
9.844,-0.91,-0.874,3.0
13.239,-1.222,-0.804,0.0
12.323,-1.138,-0.814,0.0
11.701,-1.081,-0.835,0.0
11.071,-1.023,-0.85,0.0
10.507,-0.971,-0.863,0.0
9.946,-0.92,-0.87,2.0
13.442,-1.241,-0.798,0.0
12.552,-1.159,-0.812,0.0
11.878,-1.097,-0.831,0.0
11.199,-1.035,-0.845,0.0
10.617,-0.981,-0.857,0.0
10.075,-0.932,-0.868,0.0
13.633,-1.258,-0.791,0.0
12.786,-1.18,-0.81,0.0
12.033,-1.111,-0.826,1.0
11.366,-1.05,-0.842,0.0
10.776,-0.996,-0.856,0.0
10.235,-0.946,-0.867,0.0
13.83,-1.276,-0.784,0.0
13.002,-1.199,-0.806,0.0
12.213,-1.127,-0.822,0.0
11.555,-1.066,-0.84,0.0
10.936,-1.009,-0.854,0.0
10.387,-0.959,-0.866,0.0
14.093,-1.298,-0.78,0.0
13.298,-1.225,-0.806,0.0
12.352,-1.138,-0.814,0.0
11.716,-1.08,-0.836,0.0
11.089,-1.022,-0.85,0.0
10.522,-0.97,-0.863,0.0
14.386,-1.323,-0.776,1.0
13.47,-1.239,-0.798,0.0
12.539,-1.153,-0.81,0.0
11.884,-1.093,-0.832,0.0
11.23,-1.033,-0.846,0.0
10.654,-0.98,-0.859,0.0
14.6,-1.34,-0.768,1.0
13.674,-1.255,-0.791,0.0
12.81,-1.176,-0.809,0.0
12.074,-1.108,-0.828,0.0
11.416,-1.048,-0.843,0.0
10.811,-0.992,-0.856,0.0
14.905,-1.365,-0.763,0.0
13.902,-1.273,-0.785,0.0
13.117,-1.201,-0.81,0.0
12.263,-1.122,-0.824,1.0
11.569,-1.058,-0.838,0.0
10.979,-1.004,-0.854,0.0
15.236,-1.391,-0.758,0.0
14.149,-1.291,-0.779,0.0
13.348,-1.218,-0.806,0.0
12.405,-1.131,-0.816,0.0
11.77,-1.073,-0.836,0.0
11.126,-1.014,-0.85,0.0
15.564,-1.416,-0.753,0.0
14.466,-1.316,-0.776,1.0
13.514,-1.229,-0.796,0.0
12.585,-1.144,-0.81,0.0
11.972,-1.087,-0.834,0.0
11.3,-1.026,-0.847,0.0
16.023,-1.452,-0.752,1.0
14.701,-1.331,-0.768,0.0
13.737,-1.244,-0.79,0.0
12.845,-1.162,-0.808,0.0
12.126,-1.096,-0.827,0.0
11.467,-1.036,-0.843,0.0
16.245,-1.466,-0.74,7.0
15.053,-1.357,-0.765,0.0
13.981,-1.26,-0.784,0.0
13.219,-1.19,-0.813,0.0
12.34,-1.111,-0.824,0.0
11.645,-1.047,-0.839,0.0
16.31,-1.464,-0.719,10.0
15.36,-1.378,-0.759,0.0
14.294,-1.281,-0.781,0.0
13.433,-1.203,-0.807,0.0
12.537,-1.122,-0.819,1.0
11.813,-1.057,-0.834,0.0
16.383,-1.463,-0.699,8.0
15.689,-1.399,-0.752,0.0
14.565,-1.298,-0.775,0.0
13.577,-1.209,-0.796,0.0
12.713,-1.131,-0.812,1.0
12.015,-1.068,-0.831,0.0
16.563,-1.47,-0.683,2.0
16.125,-1.43,-0.75,1.0
14.837,-1.314,-0.768,0.0
13.821,-1.223,-0.79,0.0
12.921,-1.142,-0.807,0.0
12.204,-1.078,-0.827,0.0
17.792,-1.569,-0.708,0.0
16.284,-1.434,-0.734,9.0
15.143,-1.332,-0.762,0.0
14.009,-1.231,-0.781,0.0
13.148,-1.154,-0.802,0.0
12.393,-1.087,-0.822,0.0
18.208,-1.594,-0.699,0.0
16.336,-1.428,-0.713,8.0
15.498,-1.353,-0.758,0.0
14.408,-1.257,-0.782,0.0
13.403,-1.168,-0.798,0.0
12.63,-1.099,-0.819,0.0
18.668,-1.622,-0.69,1.0
16.406,-1.423,-0.692,5.0
15.833,-1.372,-0.751,1.0
14.62,-1.265,-0.773,0.0
13.659,-1.18,-0.794,0.0
12.824,-1.107,-0.813,0.0
19.127,-1.648,-0.679,1.0
0.0,0.0,0.0,0.0
16.229,-1.394,-0.747,3.0
14.992,-1.286,-0.77,0.0
13.897,-1.19,-0.787,0.0
13.081,-1.119,-0.81,1.0
19.703,-1.682,-0.671,0.0
17.998,-1.534,-0.708,0.0
16.292,-1.387,-0.726,5.0
15.286,-1.299,-0.764,0.0
14.093,-1.196,-0.779,0.0
13.304,-1.127,-0.805,1.0
20.198,-1.709,-0.659,0.0
18.35,-1.55,-0.695,0.0
16.373,-1.38,-0.707,1.0
15.604,-1.313,-0.757,0.0
14.564,-1.224,-0.784,0.0
13.536,-1.135,-0.8,2.0
20.792,-1.741,-0.649,1.0
18.888,-1.579,-0.689,1.0
16.657,-1.39,-0.695,0.0
15.922,-1.326,-0.75,0.0
14.718,-1.224,-0.771,0.0
13.737,-1.14,-0.792,3.0
21.328,-1.767,-0.635,1.0
19.279,-1.594,-0.676,0.0
17.688,-1.46,-0.713,1.0
16.241,-1.338,-0.742,1.0
15.076,-1.239,-0.768,0.0
13.963,-1.146,-0.785,1.0
21.953,-1.799,-0.623,1.0
19.831,-1.621,-0.667,0.0
18.096,-1.476,-0.704,0.0
16.353,-1.331,-0.724,1.0
15.438,-1.254,-0.765,0.0
14.219,-1.153,-0.78,0.0
22.612,-1.831,-0.61,1.0
20.401,-1.648,-0.658,0.0
18.583,-1.498,-0.697,0.0
16.491,-1.326,-0.707,1.0
15.743,-1.263,-0.758,0.0
14.562,-1.166,-0.778,1.0
23.237,-1.858,-0.595,1.0
20.969,-1.672,-0.647,1.0
18.95,-1.508,-0.685,1.0
17.413,-1.382,-0.723,0.0
16.064,-1.272,-0.751,0.0
14.785,-1.168,-0.77,1.0
23.908,-1.886,-0.579,1.0
21.524,-1.694,-0.635,1.0
19.445,-1.527,-0.676,0.0
17.781,-1.393,-0.714,0.0
16.333,-1.276,-0.742,0.0
15.13,-1.179,-0.767,1.0
24.778,-1.928,-0.566,1.0
22.062,-1.712,-0.621,1.0
19.969,-1.546,-0.667,0.0
18.145,-1.401,-0.703,0.0
16.428,-1.265,-0.724,0.0
15.423,-1.185,-0.761,1.0
25.523,-1.957,-0.549,1.0
22.724,-1.738,-0.609,1.0
20.49,-1.563,-0.657,0.0
18.595,-1.414,-0.696,1.0
17.162,-1.302,-0.733,0.0
15.834,-1.198,-0.76,4.0
26.298,-1.986,-0.531,1.0
23.382,-1.76,-0.595,1.0
21.012,-1.577,-0.645,0.0
18.971,-1.42,-0.685,0.0
17.513,-1.307,-0.725,0.0
15.986,-1.19,-0.746,13.0
26.918,-2.0,-0.507,1.0
24.083,-1.784,-0.581,1.0
21.573,-1.593,-0.634,0.0
19.46,-1.432,-0.676,0.0
17.906,-1.314,-0.717,0.0
16.254,-1.189,-0.737,3.0
27.875,-2.036,-0.488,1.0
24.905,-1.813,-0.568,1.0
22.2,-1.611,-0.623,1.0
19.993,-1.446,-0.669,0.0
18.223,-1.314,-0.706,0.0
16.702,-1.2,-0.735,2.0
28.917,-2.075,-0.469,1.0
25.52,-1.825,-0.549,1.0
22.841,-1.627,-0.611,1.0
20.453,-1.453,-0.658,0.0
18.659,-1.321,-0.699,0.0
16.997,-1.199,-0.726,1.0
29.6,-2.084,-0.442,1.0
26.219,-1.84,-0.53,1.0
23.371,-1.634,-0.596,1.0
21.008,-1.463,-0.649,0.0
19.072,-1.324,-0.69,0.0
17.438,-1.206,-0.723,1.0
30.79,-2.126,-0.421,1.0
27.018,-1.858,-0.512,1.0
24.034,-1.647,-0.582,1.0
21.542,-1.47,-0.638,0.0
19.334,-1.315,-0.675,0.0
17.763,-1.204,-0.714,0.0
32.034,-2.166,-0.398,1.0
27.734,-1.868,-0.491,1.0
24.815,-1.665,-0.57,1.0
22.04,-1.473,-0.625,1.0
19.617,-1.306,-0.66,0.0
18.105,-1.2,-0.705,0.0
33.571,-2.222,-0.375,1.0
28.634,-1.887,-0.471,1.0
25.45,-1.67,-0.554,1.0
22.631,-1.479,-0.614,0.0
20.257,-1.319,-0.657,1.0
18.553,-1.203,-0.7,1.0
34.811,-2.252,-0.347,0.0
29.479,-1.899,-0.45,1.0
26.184,-1.68,-0.538,1.0
23.266,-1.486,-0.604,1.0
20.717,-1.317,-0.647,1.0
18.958,-1.2,-0.693,3.0
37.501,-2.37,-0.33,0.0
30.267,-1.904,-0.426,1.0
26.687,-1.671,-0.517,3.0
23.682,-1.476,-0.587,1.0
21.369,-1.326,-0.643,3.0
19.286,-1.191,-0.682,3.0
40.544,-2.499,-0.309,0.0
31.51,-1.933,-0.407,1.0
27.426,-1.675,-0.5,2.0
24.436,-1.485,-0.577,1.0
21.829,-1.321,-0.632,4.0
19.667,-1.184,-0.674,3.0
0.0,0.0,0.0,0.0
32.635,-1.951,-0.385,1.0
28.192,-1.677,-0.482,1.0
25.096,-1.485,-0.565,1.0
22.239,-1.31,-0.619,4.0
20.023,-1.173,-0.663,3.0
0.0,0.0,0.0,0.0
34.135,-1.985,-0.364,1.0
28.979,-1.676,-0.463,2.0
25.661,-1.476,-0.549,1.0
22.84,-1.308,-0.61,4.0
20.623,-1.175,-0.66,4.0
45.662,-2.593,-0.196,0.0
35.584,-2.011,-0.341,0.0
29.554,-1.661,-0.441,2.0
26.168,-1.463,-0.532,1.0
23.294,-1.295,-0.597,11.0
21.083,-1.166,-0.653,2.0
50.404,-2.78,-0.163,1.0
37.809,-2.073,-0.323,0.0
30.394,-1.657,-0.421,1.0
26.818,-1.454,-0.517,1.0
23.766,-1.281,-0.584,10.0
21.429,-1.149,-0.641,1.0
50.486,-2.698,-0.111,3.0
39.106,-2.077,-0.294,0.0
31.423,-1.659,-0.403,1.0
27.798,-1.459,-0.507,6.0
24.304,-1.269,-0.573,5.0
21.843,-1.133,-0.631,1.0
50.503,-2.612,-0.06,2.0
41.691,-2.143,-0.271,0.0
32.461,-1.658,-0.384,1.0
28.275,-1.435,-0.488,7.0
25.017,-1.262,-0.565,1.0
22.304,-1.118,-0.623,1.0
59.892,-2.993,-0.012,2.0
0.0,0.0,0.0,0.0
33.347,-1.645,-0.363,1.0
28.688,-1.406,-0.468,8.0
25.528,-1.243,-0.552,1.0
22.78,-1.102,-0.615,2.0
60.315,-2.907,0.044,0.0
0.0,0.0,0.0,0.0
34.024,-1.618,-0.338,1.0
29.315,-1.384,-0.451,8.0
26.007,-1.22,-0.539,1.0
23.2,-1.081,-0.605,2.0
0.0,0.0,0.0,0.0
50.422,-2.323,-0.186,1.0
37.247,-1.704,-0.336,0.0
29.975,-1.362,-0.434,2.0
26.52,-1.196,-0.526,1.0
23.531,-1.053,-0.592,2.0
0.0,0.0,0.0,0.0
50.432,-2.231,-0.141,3.0
38.034,-1.67,-0.31,2.0
30.605,-1.333,-0.416,1.0
27.008,-1.168,-0.511,1.0
23.977,-1.029,-0.582,1.0
0.0,0.0,0.0,0.0
50.585,-2.143,-0.098,0.0
37.726,-1.586,-0.275,3.0
31.298,-1.305,-0.399,1.0
27.549,-1.139,-0.498,2.0
24.603,-1.009,-0.577,1.0
0.0,0.0,0.0,0.0
37.813,-1.531,-0.042,20.0
37.793,-1.517,-0.244,152.0
32.083,-1.277,-0.383,1.0
28.144,-1.111,-0.486,2.0
24.99,-0.978,-0.566,1.0
0.0,0.0,0.0,0.0
40.132,-1.549,-0.012,29.0
40.113,-1.534,-0.227,150.0
32.942,-1.248,-0.367,1.0
28.58,-1.073,-0.472,2.0
25.363,-0.944,-0.555,1.0
0.0,0.0,0.0,0.0
0.0,0.0,0.0,0.0
0.0,0.0,0.0,0.0
33.794,-1.216,-0.351,1.0
28.998,-1.033,-0.457,1.0
25.813,-0.911,-0.545,1.0
0.0,0.0,0.0,0.0
0.0,0.0,0.0,0.0
0.0,0.0,0.0,0.0
0.0,0.0,0.0,0.0
29.506,-0.993,-0.444,1.0
26.147,-0.871,-0.534,1.0
0.0,0.0,0.0,0.0
0.0,0.0,0.0,0.0
0.0,0.0,0.0,0.0
0.0,0.0,0.0,0.0
29.858,-0.945,-0.428,1.0
26.587,-0.833,-0.525,1.0
0.0,0.0,0.0,0.0
0.0,0.0,0.0,0.0
40.219,-1.222,-0.114,4.0
40.138,-1.205,-0.334,1.0
30.353,-0.901,-0.416,1.0
26.862,-0.787,-0.513,1.0
40.253,-1.17,0.345,8.0
40.194,-1.154,0.128,47.0
40.251,-1.141,-0.088,63.0
40.272,-1.127,-0.31,6.0
30.607,-0.846,-0.4,2.0
27.209,-0.743,-0.503,1.0
40.199,-1.087,0.369,57.0
40.214,-1.074,0.152,46.0
41.006,-1.08,-0.066,157.0
40.743,-1.058,-0.289,19.0
31.288,-0.801,-0.391,1.0
27.428,-0.693,-0.491,5.0
40.241,-1.006,0.392,35.0
40.302,-0.993,0.175,1.0
40.303,-0.978,-0.042,115.0
40.262,-0.963,-0.263,79.0
31.974,-0.753,-0.382,1.0
27.541,-0.639,-0.478,3.0
40.302,-0.925,0.415,31.0
40.302,-0.911,0.196,1.0
56.448,-1.255,-0.029,0.0
40.257,-0.88,-0.243,3.0
32.835,-0.706,-0.376,1.0
28.285,-0.598,-0.477,1.0
40.258,-0.84,0.434,39.0
40.295,-0.826,0.216,18.0
40.333,-0.813,-0.001,1.0
46.684,-0.924,-0.259,2.0
33.088,-0.643,-0.363,1.0
28.448,-0.543,-0.466,1.0
40.249,-0.756,0.453,33.0
40.248,-0.742,0.235,53.0
40.276,-0.728,0.016,64.0
40.289,-0.714,-0.205,33.0
33.541,-0.582,-0.353,1.0
28.846,-0.49,-0.46,1.0
149.073,-2.492,1.742,5.0
91.571,-1.498,0.573,7.0
61.602,-0.985,0.051,6.0
46.199,-0.722,-0.217,1.0
33.968,-0.518,-0.344,1.0
29.056,-0.433,-0.452,1.0
148.077,-2.165,1.789,14.0
87.952,-1.254,0.584,4.0
60.773,-0.845,0.073,3.0
46.04,-0.623,-0.199,2.0
33.839,-0.446,-0.33,1.0
29.291,-0.375,-0.445,2.0
79.423,-0.993,0.988,79.0
78.982,-0.959,0.552,37.0
62.493,-0.737,0.097,6.0
47.284,-0.54,-0.188,2.0
38.499,-0.426,-0.363,0.0
29.497,-0.316,-0.439,4.0
79.452,-0.825,1.014,167.0
79.06,-0.792,0.578,51.0
60.961,-0.59,0.113,1.0
50.495,-0.47,-0.186,7.0
34.796,-0.311,-0.318,0.0
29.549,-0.253,-0.431,2.0
79.448,-0.657,1.036,175.0
79.232,-0.626,0.601,59.0
53.422,-0.403,0.113,7.0
44.767,-0.321,-0.153,4.0
39.58,-0.269,-0.351,1.0
29.81,-0.192,-0.427,2.0
79.459,-0.486,1.056,156.0
79.357,-0.458,0.621,143.0
55.923,-0.302,0.132,29.0
42.047,-0.212,-0.134,8.0
37.385,-0.175,-0.323,1.0
29.876,-0.129,-0.422,2.0
79.455,-0.316,1.072,151.0
79.398,-0.288,0.637,150.0
55.95,-0.182,0.143,29.0
41.649,-0.121,-0.125,19.0
38.188,-0.097,-0.323,2.0
29.961,-0.065,-0.418,2.0
79.461,-0.146,1.086,151.0
79.414,-0.117,0.651,139.0
55.963,-0.062,0.152,29.0
0.0,0.0,0.0,0.0
38.257,-0.015,-0.318,3.0
30.104,0.0,-0.415,2.0
79.461,0.026,1.097,151.0
79.426,0.053,0.661,140.0
58.149,0.06,0.165,5.0
43.795,0.061,-0.119,5.0
38.069,0.067,-0.312,3.0
30.149,0.063,-0.413,2.0
79.468,0.197,1.105,151.0
79.455,0.224,0.668,105.0
54.954,0.174,0.161,28.0
43.782,0.154,-0.116,3.0
37.782,0.146,-0.307,12.0
30.164,0.127,-0.411,2.0
59.309,0.273,0.828,141.0
59.309,0.294,0.502,26.0
54.938,0.292,0.163,49.0
43.915,0.249,-0.115,4.0
37.693,0.227,-0.305,4.0
30.235,0.192,-0.411,2.0
48.108,0.325,0.672,97.0
48.081,0.342,0.408,91.0
48.047,0.359,0.143,93.0
43.905,0.343,-0.114,4.0
37.501,0.306,-0.304,4.0
30.252,0.258,-0.412,2.0
48.08,0.428,0.671,113.0
48.06,0.445,0.406,95.0
48.013,0.461,0.141,75.0
39.836,0.396,-0.105,15.0
37.318,0.384,-0.304,6.0
30.208,0.321,-0.413,2.0
48.132,0.531,0.67,81.0
48.09,0.546,0.404,79.0
48.021,0.563,0.138,75.0
39.782,0.48,-0.108,15.0
37.175,0.461,-0.306,6.0
30.164,0.385,-0.414,2.0
126.433,1.665,1.748,28.0
77.833,1.051,0.646,32.0
48.057,0.665,0.134,56.0
39.719,0.564,-0.112,17.0
37.055,0.539,-0.309,5.0
30.086,0.448,-0.417,2.0
126.33,1.934,1.731,28.0
77.814,1.218,0.636,57.0
54.519,0.872,0.144,28.0
39.543,0.646,-0.117,32.0
36.913,0.615,-0.313,5.0
29.946,0.509,-0.42,2.0
126.244,2.201,1.709,27.0
77.718,1.382,0.622,17.0
0.0,0.0,0.0,0.0
39.417,0.728,-0.124,38.0
36.773,0.691,-0.319,10.0
29.816,0.571,-0.424,2.0
0.0,0.0,0.0,0.0
77.665,1.546,0.605,13.0
52.26,1.058,0.118,9.0
39.245,0.808,-0.132,44.0
36.664,0.767,-0.327,3.0
29.657,0.63,-0.428,2.0
89.857,1.949,1.176,8.0
74.929,1.651,0.565,14.0
52.145,1.166,0.104,8.0
39.039,0.886,-0.142,48.0
36.395,0.838,-0.334,3.0
29.435,0.688,-0.433,2.0
106.066,2.524,1.36,37.0
74.823,1.806,0.544,22.0
48.888,1.196,0.084,14.0
38.696,0.959,-0.152,44.0
36.132,0.908,-0.342,3.0
29.295,0.746,-0.44,2.0
106.061,2.748,1.326,50.0
74.673,1.959,0.519,15.0
48.619,1.292,0.067,22.0
0.0,0.0,0.0,0.0
36.26,0.987,-0.356,0.0
29.066,0.801,-0.447,2.0
105.975,2.968,1.288,6.0
74.302,2.104,0.49,11.0
48.328,1.384,0.05,22.0
0.0,0.0,0.0,0.0
33.231,0.973,-0.338,1.0
28.861,0.855,-0.454,1.0
88.958,2.675,1.047,6.0
60.922,1.851,0.378,11.0
47.882,1.47,0.03,23.0
36.923,1.146,-0.185,28.0
32.729,1.026,-0.346,1.0
28.507,0.903,-0.461,1.0
79.883,2.567,0.906,7.0
60.03,1.948,0.347,30.0
47.313,1.551,0.009,23.0
36.689,1.214,-0.2,31.0
32.124,1.073,-0.354,1.0
28.213,0.952,-0.469,1.0
78.417,2.68,0.854,5.0
59.385,2.049,0.315,33.0
47.063,1.639,-0.012,22.0
36.461,1.281,-0.216,29.0
31.608,1.12,-0.364,1.0
28.012,1.002,-0.479,1.0
78.442,2.842,0.816,20.0
58.918,2.153,0.283,18.0
46.973,1.731,-0.036,6.0
36.29,1.348,-0.234,21.0
31.139,1.167,-0.375,2.0
24.467,0.925,-0.431,2.0
78.179,2.99,0.772,34.0
55.182,2.128,0.236,28.0
0.0,0.0,0.0,0.0
36.125,1.415,-0.252,12.0
30.756,1.214,-0.387,2.0
24.266,0.965,-0.441,5.0
77.807,3.131,0.725,59.0
54.663,2.216,0.203,29.0
41.031,1.675,-0.076,19.0
35.906,1.477,-0.271,10.0
30.279,1.255,-0.398,2.0
23.824,0.994,-0.447,5.0
0.0,0.0,0.0,0.0
54.355,2.31,0.17,28.0
40.395,1.728,-0.099,54.0
35.743,1.54,-0.292,10.0
29.87,1.296,-0.411,2.0
23.27,1.017,-0.451,5.0
0.0,0.0,0.0,0.0
54.142,2.408,0.134,7.0
40.214,1.801,-0.125,49.0
35.637,1.606,-0.314,7.0
29.521,1.339,-0.426,2.0
22.598,1.032,-0.453,4.0
73.67,3.398,0.547,18.0
48.013,2.229,0.087,24.0
40.11,1.873,-0.152,7.0
0.0,0.0,0.0,0.0
29.059,1.375,-0.439,2.0
22.044,1.049,-0.457,4.0
73.524,3.533,0.495,10.0
0.0,0.0,0.0,0.0
36.467,1.773,-0.163,40.0
33.033,1.615,-0.337,2.0
28.648,1.409,-0.453,1.0
21.608,1.069,-0.463,4.0
58.525,2.923,0.351,7.0
42.648,2.142,0.016,17.0
36.11,1.824,-0.188,40.0
31.995,1.625,-0.35,2.0
24.82,1.268,-0.411,1.0
21.224,1.09,-0.471,4.0
55.466,2.875,0.291,17.0
41.783,2.177,-0.015,17.0
35.707,1.87,-0.214,12.0
31.232,1.645,-0.366,2.0
24.396,1.292,-0.423,5.0
20.825,1.108,-0.478,4.0
54.518,2.926,0.243,29.0
41.033,2.213,-0.047,40.0
35.598,1.93,-0.241,21.0
30.45,1.659,-0.381,2.0
23.699,1.298,-0.43,5.0
20.463,1.126,-0.487,3.0
54.149,3.004,0.198,19.0
40.781,2.273,-0.08,16.0
35.375,1.981,-0.269,9.0
30.027,1.69,-0.401,2.0
22.825,1.291,-0.433,4.0
20.086,1.141,-0.495,3.0
0.0,0.0,0.0,0.0
40.265,2.317,-0.114,29.0
35.278,2.039,-0.299,8.0
29.394,1.707,-0.418,2.0
22.215,1.296,-0.441,4.0
19.73,1.156,-0.503,3.0
47.017,2.776,0.09,18.0
36.485,2.164,-0.135,22.0
0.0,0.0,0.0,0.0
28.925,1.73,-0.437,1.0
21.63,1.299,-0.449,4.0
19.362,1.168,-0.511,3.0
42.511,2.584,0.043,18.0
36.026,2.199,-0.166,29.0
32.559,1.996,-0.334,1.0
24.831,1.528,-0.398,1.0
21.167,1.308,-0.459,4.0
18.938,1.176,-0.518,3.0
41.775,2.612,0.003,30.0
35.693,2.24,-0.198,33.0
31.338,1.974,-0.351,1.0
24.234,1.533,-0.411,5.0
20.746,1.318,-0.469,4.0
18.515,1.18,-0.524,3.0
41.126,2.64,-0.035,50.0
35.354,2.278,-0.23,11.0
30.567,1.977,-0.372,2.0
23.381,1.518,-0.419,5.0
20.322,1.325,-0.48,3.0
18.194,1.191,-0.533,3.0
39.045,2.572,-0.072,4.0
35.148,2.323,-0.264,10.0
29.876,1.982,-0.394,2.0
22.5,1.498,-0.426,4.0
19.842,1.326,-0.488,3.0
17.813,1.194,-0.539,3.0
36.572,2.468,-0.105,23.0
35.037,2.373,-0.299,9.0
29.326,1.993,-0.417,2.0
21.85,1.49,-0.436,4.0
19.445,1.33,-0.499,3.0
17.452,1.198,-0.547,3.0
36.013,2.487,-0.141,10.0
35.07,2.431,-0.336,1.0
24.915,1.733,-0.38,1.0
21.307,1.487,-0.448,4.0
19.026,1.332,-0.508,3.0
17.086,1.2,-0.553,2.0
0.0,0.0,0.0,0.0
31.607,2.24,-0.337,1.0
24.35,1.731,-0.398,5.0
20.822,1.485,-0.46,4.0
18.626,1.332,-0.517,4.0
16.752,1.202,-0.561,2.0
0.0,0.0,0.0,0.0
30.771,2.227,-0.361,1.0
23.281,1.69,-0.406,5.0
20.336,1.481,-0.472,3.0
18.166,1.327,-0.525,3.0
16.356,1.199,-0.566,2.0
34.838,2.566,-0.25,11.0
30.293,2.238,-0.389,7.0
22.481,1.665,-0.417,4.0
19.817,1.472,-0.482,3.0
17.722,1.321,-0.532,2.0
16.045,1.199,-0.573,4.0
30.376,2.282,-0.252,24.0
29.4,2.214,-0.411,1.0
21.792,1.646,-0.429,4.0
19.311,1.463,-0.492,3.0
17.348,1.318,-0.541,2.0
15.612,1.189,-0.575,3.0
30.324,2.321,-0.287,28.0
24.823,1.905,-0.376,1.0
21.189,1.63,-0.441,4.0
18.863,1.455,-0.502,3.0
16.958,1.312,-0.548,2.0
14.777,1.146,-0.562,5.0
30.332,2.363,-0.322,16.0
24.122,1.884,-0.393,5.0
20.713,1.622,-0.456,4.0
18.404,1.445,-0.512,3.0
16.599,1.306,-0.556,2.0
14.219,1.122,-0.557,11.0
30.412,2.41,-0.359,3.0
22.971,1.825,-0.402,4.0
20.161,1.605,-0.468,3.0
17.964,1.434,-0.521,3.0
16.224,1.298,-0.563,3.0
13.948,1.119,-0.564,12.0
29.831,2.403,-0.388,2.0
22.163,1.789,-0.414,4.0
19.633,1.589,-0.479,3.0
17.588,1.427,-0.531,2.0
0.0,0.0,0.0,0.0
13.772,1.122,-0.573,10.0
29.199,2.389,-0.415,1.0
21.472,1.76,-0.428,4.0
19.114,1.571,-0.49,3.0
17.171,1.414,-0.54,2.0
14.124,1.166,-0.525,4.0
13.612,1.126,-0.583,10.0
24.409,2.027,-0.377,5.0
20.885,1.738,-0.442,4.0
18.65,1.555,-0.501,3.0
16.761,1.401,-0.548,2.0
13.907,1.165,-0.534,12.0
13.5,1.133,-0.595,9.0
23.414,1.972,-0.391,5.0
20.351,1.717,-0.456,3.0
18.135,1.533,-0.51,3.0
16.408,1.39,-0.557,1.0
13.832,1.174,-0.549,13.0
13.325,1.134,-0.605,8.0
22.359,1.909,-0.402,4.0
19.839,1.697,-0.47,3.0
17.692,1.516,-0.52,2.0
13.896,1.193,-0.489,12.0
13.761,1.184,-0.563,11.0
13.192,1.137,-0.616,9.0
21.682,1.875,-0.418,4.0
19.275,1.67,-0.481,3.0
13.895,1.206,-0.426,6.0
13.838,1.203,-0.505,15.0
13.6,1.185,-0.574,8.0
13.075,1.142,-0.627,9.0
21.03,1.841,-0.432,4.0
13.89,1.218,-0.365,5.0
13.89,1.22,-0.444,12.0
13.791,1.214,-0.521,13.0
13.506,1.191,-0.588,12.0
13.075,1.155,-0.644,10.0
13.893,1.23,-0.304,7.0
13.888,1.232,-0.383,11.0
13.84,1.23,-0.461,20.0
13.767,1.226,-0.539,13.0
13.365,1.192,-0.599,11.0
13.047,1.166,-0.66,10.0
13.88,1.243,-0.321,15.0
13.853,1.243,-0.4,17.0
13.807,1.24,-0.478,21.0
13.723,1.235,-0.555,13.0
13.196,1.19,-0.609,8.0
12.827,1.158,-0.666,4.0
13.845,1.253,-0.339,26.0
13.833,1.254,-0.418,22.0
13.783,1.251,-0.495,15.0
13.579,1.235,-0.567,9.0
13.081,1.191,-0.622,9.0
12.58,1.148,-0.67,4.0
13.828,1.264,-0.357,31.0
13.815,1.264,-0.436,26.0
13.75,1.26,-0.513,16.0
13.487,1.238,-0.582,11.0
13.063,1.201,-0.638,11.0
12.366,1.139,-0.676,3.0
13.823,1.275,-0.376,30.0
13.796,1.275,-0.454,26.0
13.743,1.271,-0.531,14.0
13.348,1.237,-0.594,10.0
13.056,1.212,-0.656,11.0
12.116,1.126,-0.678,2.0
13.806,1.285,-0.394,27.0
13.767,1.283,-0.472,24.0
13.699,1.279,-0.548,12.0
13.216,1.235,-0.606,9.0
12.853,1.203,-0.663,3.0
11.895,1.115,-0.682,1.0
13.786,1.294,-0.412,25.0
13.758,1.293,-0.49,28.0
13.58,1.278,-0.562,9.0
13.091,1.233,-0.618,9.0
12.565,1.185,-0.666,4.0
11.662,1.102,-0.685,1.0
13.791,1.304,-0.431,30.0
13.732,1.3,-0.508,21.0
13.513,1.281,-0.578,9.0
13.068,1.241,-0.635,11.0
12.343,1.173,-0.671,3.0
11.385,1.084,-0.684,1.0
13.773,1.312,-0.45,29.0
13.721,1.309,-0.526,16.0
13.355,1.275,-0.589,10.0
13.048,1.247,-0.652,10.0
12.115,1.16,-0.675,2.0
11.217,1.075,-0.69,1.0
13.75,1.319,-0.468,27.0
13.702,1.316,-0.545,15.0
13.243,1.273,-0.602,9.0
12.887,1.24,-0.661,3.0
11.891,1.145,-0.679,1.0
10.992,1.06,-0.691,1.0
13.743,1.326,-0.486,21.0
13.598,1.314,-0.559,11.0
13.071,1.264,-0.613,8.0
12.565,1.216,-0.662,2.0
11.652,1.129,-0.681,1.0
10.839,1.052,-0.696,2.0
13.736,1.333,-0.505,18.0
13.474,1.309,-0.573,10.0
13.065,1.271,-0.63,11.0
12.346,1.202,-0.668,2.0
11.408,1.112,-0.683,1.0
10.647,1.039,-0.699,1.0
13.721,1.339,-0.523,17.0
13.322,1.301,-0.584,9.0
13.044,1.275,-0.647,11.0
12.125,1.186,-0.673,2.0
11.235,1.1,-0.688,1.0
10.452,1.025,-0.7,1.0
13.691,1.342,-0.541,13.0
13.25,1.3,-0.599,10.0
12.911,1.268,-0.658,3.0
11.892,1.169,-0.676,1.0
11.005,1.083,-0.689,1.0
10.26,1.01,-0.702,2.0
13.599,1.339,-0.556,12.0
13.072,1.288,-0.609,8.0
12.594,1.242,-0.659,1.0
11.643,1.149,-0.678,1.0
10.836,1.07,-0.693,2.0
10.112,1.0,-0.705,2.0
13.482,1.332,-0.569,12.0
13.071,1.293,-0.627,11.0
12.374,1.225,-0.665,2.0
11.446,1.134,-0.682,1.0
10.656,1.056,-0.696,1.0
9.919,0.984,-0.705,3.0
13.336,1.322,-0.581,11.0
13.053,1.295,-0.644,11.0
12.158,1.207,-0.67,2.0
11.24,1.117,-0.685,1.0
