X,Y,Z,Reflectivity
79.462,0.134,1.249,156.0
79.474,0.153,0.834,151.0
75.893,0.164,0.398,12.0
47.435,0.113,-0.004,22.0
39.024,0.103,-0.207,38.0
33.225,0.096,-0.35,1.0
79.457,0.248,1.375,160.0
79.469,0.268,0.959,151.0
76.801,0.277,0.525,56.0
54.388,0.21,0.081,29.0
39.956,0.164,-0.149,21.0
37.671,0.164,-0.338,9.0
59.289,0.272,1.119,119.0
59.294,0.287,0.808,141.0
59.289,0.302,0.497,95.0
54.978,0.294,0.167,59.0
44.588,0.249,-0.098,19.0
37.896,0.221,-0.282,8.0
48.156,0.293,0.983,93.0
48.13,0.305,0.73,62.0
48.126,0.317,0.477,50.0
48.127,0.329,0.219,51.0
46.596,0.331,-0.031,26.0
38.346,0.282,-0.227,32.0
48.108,0.367,1.056,115.0
48.093,0.379,0.802,113.0
48.077,0.391,0.549,109.0
48.028,0.403,0.291,106.0
47.882,0.414,0.038,59.0
38.977,0.347,-0.173,44.0
48.124,0.441,1.127,105.0
48.113,0.453,0.873,106.0
48.095,0.465,0.619,103.0
48.052,0.478,0.361,99.0
48.009,0.489,0.108,78.0
43.784,0.458,-0.131,3.0
48.175,0.518,1.199,76.0
48.141,0.53,0.944,76.0
48.113,0.542,0.69,78.0
48.091,0.555,0.431,85.0
48.038,0.566,0.177,78.0
44.892,0.541,-0.071,20.0
55.044,0.679,1.448,97.0
55.087,0.694,1.158,24.0
127.358,1.639,2.006,23.0
89.77,1.179,0.931,4.0
48.122,0.645,0.245,27.0
47.293,0.646,-0.008,41.0
163.017,2.277,4.518,13.0
190.083,2.705,4.263,23.0
128.191,1.859,2.198,11.0
121.139,1.789,1.424,18.0
75.281,1.133,0.487,12.0
47.992,0.735,0.057,33.0
163.074,2.547,4.744,13.0
180.789,2.873,4.303,5.0
189.771,3.067,3.512,21.0
126.273,2.075,1.655,28.0
77.775,1.298,0.607,28.0
0.0,0.0,0.0,0.0
163.257,2.817,4.964,11.0
160.137,2.808,4.021,7.0
128.169,2.282,2.539,22.0
126.47,2.285,1.821,31.0
80.531,1.478,0.733,7.0
0.0,0.0,0.0,0.0
128.074,2.426,4.061,27.0
128.07,2.459,3.38,38.0
128.04,2.493,2.699,38.0
0.0,0.0,0.0,0.0
80.878,1.621,0.839,6.0
61.187,1.243,0.31,25.0
128.042,2.642,4.222,52.0
128.101,2.677,3.542,41.0
128.157,2.713,2.862,32.0
106.184,2.278,1.797,11.0
89.833,1.951,1.042,5.0
74.664,1.643,0.469,22.0
152.716,3.412,5.224,28.0
159.347,3.603,4.601,24.0
0.0,0.0,0.0,0.0
0.0,0.0,0.0,0.0
106.118,2.489,1.36,4.0
77.796,1.847,0.582,17.0
152.596,3.673,5.403,37.0
158.628,3.864,4.771,20.0
100.414,2.473,2.484,2.0
100.327,2.499,1.937,47.0
100.313,2.528,1.403,22.0
78.015,1.989,0.675,39.0
152.108,3.929,5.563,46.0
152.817,3.991,4.773,26.0
154.067,4.066,3.99,17.0
0.0,0.0,0.0,0.0
0.0,0.0,0.0,0.0
78.338,2.133,0.766,12.0
152.063,4.195,5.732,41.0
152.643,4.253,4.938,35.0
154.022,4.336,4.16,45.0
0.0,0.0,0.0,0.0
0.0,0.0,0.0,0.0
81.64,2.368,0.887,1.0
151.973,4.463,5.896,45.0
152.397,4.517,5.095,28.0
158.436,4.741,4.449,16.0
0.0,0.0,0.0,0.0
0.0,0.0,0.0,0.0
100.664,3.099,1.2,1.0
152.087,4.738,6.061,41.0
152.621,4.798,5.264,29.0
158.567,5.03,4.618,13.0
0.0,0.0,0.0,0.0
0.0,0.0,0.0,0.0
100.693,3.28,1.304,3.0
152.448,5.026,6.232,37.0
152.885,5.082,5.428,27.0
159.26,5.34,4.799,12.0
0.0,0.0,0.0,0.0
0.0,0.0,0.0,0.0
100.791,3.465,1.404,2.0
158.517,5.512,6.636,12.0
152.8,5.358,5.575,34.0
157.382,5.561,4.895,4.0
0.0,0.0,0.0,0.0
0.0,0.0,0.0,0.0
0.0,0.0,0.0,0.0
124.237,4.546,5.318,17.0
152.674,5.628,5.712,31.0
160.524,5.964,5.141,4.0
160.237,6.0,4.254,9.0
0.0,0.0,0.0,0.0
0.0,0.0,0.0,0.0
160.089,6.152,6.999,15.0
158.087,6.121,6.059,12.0
156.971,6.123,5.169,5.0
158.431,6.226,4.346,5.0
0.0,0.0,0.0,0.0
0.0,0.0,0.0,0.0
124.437,5.013,5.549,27.0
158.016,6.408,6.191,11.0
158.816,6.487,5.365,6.0
158.331,6.513,4.478,8.0
0.0,0.0,0.0,0.0
0.0,0.0,0.0,0.0
124.616,5.251,5.661,23.0
124.248,5.271,4.972,36.0
157.074,6.708,5.435,13.0
157.335,6.763,4.577,7.0
0.0,0.0,0.0,0.0
0.0,0.0,0.0,0.0
129.974,5.72,6.009,10.0
124.215,5.5,5.068,45.0
159.628,7.114,5.648,5.0
155.94,6.991,4.655,5.0
0.0,0.0,0.0,0.0
0.0,0.0,0.0,0.0
129.555,5.942,6.086,15.0
124.24,5.731,5.161,11.0
157.37,7.305,5.684,22.0
156.245,7.296,4.78,14.0
0.0,0.0,0.0,0.0
0.0,0.0,0.0,0.0
129.698,6.189,6.185,15.0
129.733,6.226,5.482,11.0
157.506,7.603,5.798,16.0
156.185,7.582,4.885,16.0
156.068,7.622,4.034,3.0
0.0,0.0,0.0,0.0
129.498,6.419,6.262,22.0
132.128,6.584,5.669,11.0
157.616,7.899,5.905,17.0
156.412,7.885,4.993,11.0
167.226,8.477,4.429,8.0
167.154,8.52,3.519,13.0
154.561,7.952,7.572,13.0
160.045,8.277,6.968,16.0
157.599,8.195,6.003,14.0
156.708,8.191,5.098,14.0
162.35,8.53,4.397,8.0
162.549,8.588,3.518,18.0
33.458,1.783,1.659,61.0
162.467,8.704,7.168,11.0
157.459,8.478,6.088,14.0
156.694,8.481,5.188,7.0
163.177,8.878,4.511,12.0
162.86,8.908,3.614,23.0
33.46,1.846,1.677,65.0
162.254,8.997,7.249,14.0
157.938,8.799,6.191,22.0
157.203,8.802,5.287,22.0
163.375,9.191,4.601,18.0
163.364,9.236,3.709,19.0
33.443,1.906,1.694,115.0
33.485,1.918,1.512,1.0
157.931,9.089,6.269,21.0
157.691,9.118,5.38,15.0
162.18,9.422,4.645,11.0
162.347,9.476,3.762,15.0
33.443,1.968,1.709,36.0
161.945,9.574,7.389,32.0
158.098,9.387,6.345,16.0
157.521,9.396,5.443,16.0
161.985,9.706,4.711,11.0
157.338,9.47,3.713,7.0
128.168,7.779,6.606,36.0
158.255,9.646,7.288,12.0
33.437,2.047,1.356,2.0
33.432,2.056,1.169,91.0
33.465,2.067,0.986,151.0
33.456,2.076,0.802,60.0
128.227,8.023,6.66,41.0
158.052,9.929,7.34,23.0
158.133,9.976,6.473,14.0
158.08,10.014,5.586,38.0
158.131,10.061,4.72,44.0
114.88,7.339,2.798,12.0
33.416,2.152,1.747,4.0
157.98,10.216,7.391,37.0
158.03,10.26,6.523,48.0
158.106,10.305,5.639,41.0
158.138,10.35,4.77,87.0
114.746,7.541,2.83,29.0
33.411,2.213,1.757,4.0
33.423,2.222,1.573,2.0
157.928,10.543,6.565,46.0
158.001,10.589,5.682,40.0
158.054,10.632,4.812,81.0
114.716,7.748,2.861,26.0
33.403,2.274,1.766,2.0
33.42,2.283,1.582,2.0
157.859,10.826,6.602,42.0
157.941,10.873,5.718,42.0
157.971,10.915,4.848,60.0
114.586,7.946,2.884,41.0
33.407,2.334,1.774,1.0
121.092,8.492,5.761,5.0
157.798,11.107,6.633,34.0
157.861,11.15,5.748,33.0
31.654,2.244,0.977,7.0
31.632,2.25,0.802,97.0
157.367,11.282,8.387,19.0
112.057,8.061,5.351,8.0
157.361,11.359,6.644,8.0
31.559,2.286,1.154,35.0
31.573,2.295,0.98,101.0
31.547,2.3,0.804,33.0
134.683,9.897,7.198,11.0
115.165,8.491,5.516,8.0
66.533,4.921,2.818,38.0
31.528,2.339,1.157,178.0
31.511,2.346,0.982,24.0
31.506,2.353,0.807,39.0
132.266,9.954,7.083,10.0
107.802,8.138,5.174,16.0
118.129,8.945,5.013,7.0
31.507,2.393,1.159,177.0
31.483,2.399,0.983,37.0
31.499,2.408,0.809,51.0
130.015,10.014,6.971,11.0
106.246,8.208,5.106,13.0
118.12,9.154,5.02,6.0
31.474,2.446,1.159,177.0
31.463,2.453,0.984,38.0
31.476,2.462,0.81,38.0
127.69,10.06,6.851,10.0
109.448,8.649,5.263,7.0
118.15,9.363,5.023,8.0
31.443,2.499,1.158,176.0
31.464,2.508,0.984,30.0
31.459,2.516,0.809,43.0
74.589,6.007,4.001,27.0
74.583,6.023,3.585,35.0
74.532,6.036,3.167,33.0
31.57,2.564,1.162,26.0
31.472,2.563,0.983,22.0
31.456,2.57,0.808,50.0
74.563,6.133,3.996,30.0
74.555,6.149,3.579,26.0
74.541,6.164,3.163,28.0
74.578,6.184,2.741,10.0
31.48,2.617,0.981,32.0
31.461,2.623,0.805,36.0
121.54,10.205,6.504,12.0
103.195,8.687,4.945,21.0
34.271,2.893,1.45,52.0
34.288,2.901,1.256,80.0
31.489,2.672,0.978,36.0
31.502,2.68,0.803,62.0
103.167,8.838,5.507,15.0
103.147,8.857,4.928,20.0
115.129,9.911,4.857,8.0
120.617,10.41,4.403,53.0
31.536,2.728,0.974,14.0
31.632,2.744,0.801,25.0
119.078,10.398,6.337,24.0
103.201,9.033,4.914,21.0
115.141,10.104,4.837,8.0
120.619,10.611,4.38,54.0
31.565,2.783,0.969,7.0
31.612,2.794,0.794,20.0
117.294,10.434,6.219,24.0
103.221,9.204,4.893,22.0
115.854,10.354,4.842,9.0
120.495,10.794,4.349,7.0
115.719,10.392,3.529,9.0
31.631,2.847,0.787,2.0
114.776,10.396,6.058,44.0
103.201,9.367,4.868,20.0
114.798,10.443,4.77,42.0
114.766,10.464,4.113,33.0
13.859,1.266,0.419,7.0
13.851,1.269,0.341,8.0
114.699,10.571,6.022,18.0
13.85,1.279,0.649,5.0
13.833,1.28,0.57,7.0
13.842,1.284,0.492,16.0
13.845,1.287,0.414,26.0
13.839,1.289,0.336,29.0
13.825,1.296,0.721,14.0
13.814,1.297,0.643,22.0
13.825,1.301,0.566,28.0
13.833,1.304,0.487,33.0
13.833,1.307,0.409,34.0
13.817,1.309,0.331,31.0
13.816,1.316,0.716,36.0
13.809,1.318,0.638,39.0
13.807,1.32,0.56,39.0
13.809,1.323,0.481,37.0
13.814,1.326,0.403,37.0
13.793,1.327,0.325,34.0
13.799,1.335,0.71,40.0
13.792,1.337,0.632,64.0
13.786,1.339,0.554,74.0
13.794,1.342,0.475,39.0
13.798,1.346,0.397,38.0
13.783,1.347,0.319,34.0
13.782,1.354,0.703,60.0
13.78,1.356,0.625,100.0
13.785,1.359,0.548,126.0
13.784,1.362,0.469,65.0
13.788,1.365,0.391,64.0
13.772,1.366,0.313,35.0
13.772,1.373,0.696,88.0
13.759,1.375,0.618,81.0
13.778,1.379,0.541,150.0
13.782,1.382,0.462,87.0
13.787,1.385,0.385,86.0
13.766,1.385,0.306,36.0
13.769,1.393,0.689,96.0
13.755,1.394,0.611,59.0
13.773,1.398,0.534,150.0
13.772,1.4,0.455,90.0
13.78,1.403,0.377,76.0
13.759,1.404,0.299,37.0
13.767,1.412,0.682,92.0
13.76,1.413,0.604,86.0
13.772,1.417,0.527,150.0
13.786,1.421,0.448,103.0
13.779,1.423,0.37,72.0
13.756,1.423,0.292,36.0
13.771,1.431,0.675,76.0
13.765,1.433,0.597,98.0
13.773,1.436,0.519,144.0
13.771,1.438,0.44,87.0
13.779,1.441,0.362,48.0
13.759,1.442,0.284,34.0
13.771,1.45,0.667,65.0
13.778,1.453,0.589,109.0
13.778,1.455,0.511,144.0
13.77,1.456,0.431,61.0
13.781,1.46,0.354,48.0
13.774,1.462,0.275,34.0
13.782,1.469,0.659,66.0
13.784,1.472,0.581,109.0
13.783,1.473,0.503,77.0
13.774,1.475,0.423,39.0
13.783,1.478,0.345,43.0
13.783,1.48,0.267,33.0
13.791,1.488,0.651,40.0
13.791,1.49,0.572,48.0
13.787,1.491,0.494,38.0
13.787,1.493,0.414,35.0
13.796,1.497,0.336,35.0
13.793,1.498,0.258,32.0
13.801,1.506,0.642,36.0
13.8,1.508,0.563,32.0
13.804,1.51,0.485,31.0
13.799,1.512,0.405,28.0
13.807,1.515,0.327,29.0
13.794,1.516,0.248,29.0
13.814,1.524,0.632,30.0
13.807,1.526,0.554,21.0
13.803,1.527,0.475,17.0
13.816,1.53,0.396,12.0
13.825,1.533,0.317,14.0
13.817,1.535,0.239,18.0
35.862,4.001,1.616,29.0
32.158,3.591,1.266,2.0
32.0,3.578,1.078,8.0
31.907,3.572,0.89,17.0
32.035,3.591,0.711,8.0
31.996,3.591,0.529,28.0
35.856,4.041,1.588,90.0
32.145,3.627,1.241,15.0
31.953,3.609,1.052,27.0
31.924,3.61,0.866,24.0
31.998,3.622,0.686,39.0
32.0,3.627,0.504,42.0
35.853,4.08,1.56,18.0
32.121,3.659,1.214,8.0
31.962,3.645,1.026,7.0
31.941,3.647,0.841,12.0
31.975,3.654,0.66,13.0
31.991,3.661,0.478,11.0
10.013,1.15,0.427,15.0
10.005,1.15,0.37,16.0
9.999,1.151,0.313,16.0
10.0,1.152,0.255,14.0
31.969,3.687,0.633,4.0
32.0,3.695,0.452,3.0
10.009,1.16,0.419,36.0
10.01,1.161,0.362,100.0
10.001,1.161,0.304,91.0
10.004,1.162,0.246,39.0
10.008,1.164,0.189,37.0
10.008,1.165,0.132,20.0
10.002,1.169,0.41,85.0
10.0,1.17,0.352,128.0
9.996,1.17,0.295,127.0
9.987,1.17,0.237,81.0
10.001,1.173,0.18,74.0
10.001,1.174,0.124,28.0
9.988,1.176,0.4,70.0
9.992,1.178,0.343,140.0
9.99,1.179,0.286,142.0
9.981,1.179,0.228,86.0
9.993,1.181,0.171,75.0
9.989,1.182,0.114,44.0
9.982,1.185,0.391,85.0
9.977,1.185,0.334,143.0
9.98,1.186,0.277,140.0
9.977,1.187,0.219,95.0
9.986,1.189,0.162,83.0
9.98,1.189,0.105,38.0
9.98,1.193,0.382,97.0
9.971,1.193,0.324,150.0
9.974,1.194,0.268,150.0
9.97,1.194,0.21,116.0
9.976,1.196,0.153,98.0
9.978,1.198,0.096,54.0
9.972,1.2,0.372,108.0
9.979,1.202,0.315,150.0
9.977,1.202,0.258,150.0
9.966,1.202,0.2,113.0
9.973,1.204,0.143,99.0
9.977,1.205,0.086,60.0
9.975,1.208,0.363,117.0
9.974,1.209,0.305,150.0
9.975,1.21,0.248,150.0
9.967,1.21,0.19,130.0
9.974,1.211,0.133,106.0
9.971,1.212,0.076,63.0
9.965,1.215,0.352,119.0
9.971,1.216,0.295,150.0
9.977,1.217,0.239,150.0
9.97,1.217,0.18,126.0
9.975,1.219,0.123,108.0
9.968,1.219,0.066,61.0
9.976,1.223,0.343,105.0
9.976,1.223,0.286,150.0
9.976,1.224,0.229,150.0
9.972,1.224,0.17,123.0
9.973,1.225,0.113,108.0
9.97,1.226,0.056,62.0
9.974,1.229,0.333,104.0
9.974,1.229,0.275,150.0
9.969,1.23,0.218,150.0
9.971,1.23,0.16,119.0
9.973,1.231,0.103,113.0
9.968,1.232,0.046,58.0
9.97,1.234,0.322,104.0
9.977,1.236,0.265,150.0
9.972,1.236,0.208,150.0
9.964,1.235,0.15,120.0
9.973,1.237,0.093,104.0
9.969,1.237,0.036,59.0
9.973,1.24,0.312,101.0
9.972,1.241,0.255,150.0
9.979,1.242,0.198,150.0
9.967,1.241,0.139,118.0
9.975,1.243,0.082,106.0
9.968,1.243,0.025,65.0
9.972,1.245,0.301,101.0
9.974,1.246,0.244,150.0
9.976,1.247,0.187,150.0
9.97,1.247,0.129,116.0
9.974,1.248,0.072,114.0
9.977,1.249,0.015,49.0
9.97,1.25,0.29,98.0
9.968,1.25,0.233,150.0
9.979,1.252,0.176,150.0
9.969,1.251,0.118,109.0
9.979,1.253,0.061,116.0
9.971,1.252,0.004,43.0
9.977,1.255,0.28,89.0
9.976,1.255,0.223,150.0
9.979,1.256,0.166,150.0
9.972,1.255,0.107,109.0
9.973,1.256,0.05,109.0
9.972,1.256,-0.006,43.0
9.975,1.258,0.269,68.0
9.976,1.259,0.212,137.0
9.973,1.259,0.154,148.0
9.968,1.258,0.096,101.0
9.972,1.259,0.039,95.0
9.974,1.26,-0.017,44.0
9.98,1.263,0.258,71.0
9.973,1.262,0.201,136.0
9.968,1.261,0.143,130.0
9.97,1.262,0.085,86.0
9.976,1.263,0.028,90.0
9.972,1.263,-0.028,41.0
9.98,1.265,0.247,68.0
9.972,1.264,0.189,134.0
9.974,1.265,0.132,127.0
9.966,1.264,0.074,86.0
9.973,1.265,0.017,56.0
9.969,1.265,-0.039,38.0
9.977,1.267,0.236,67.0
9.979,1.268,0.178,134.0
9.976,1.268,0.121,118.0
9.97,1.267,0.063,74.0
9.974,1.268,0.006,54.0
9.974,1.268,-0.05,41.0
9.983,1.27,0.225,67.0
9.979,1.27,0.167,133.0
9.973,1.269,0.11,120.0
9.97,1.269,0.052,70.0
9.979,1.27,-0.004,69.0
9.976,1.27,-0.062,39.0
9.986,1.272,0.213,66.0
9.984,1.272,0.156,122.0
9.977,1.271,0.099,122.0
9.97,1.27,0.04,71.0
9.979,1.271,-0.016,70.0
9.975,1.271,-0.073,41.0
9.99,1.274,0.202,68.0
9.984,1.273,0.145,121.0
9.973,1.271,0.087,119.0
9.977,1.272,0.029,80.0
9.973,1.271,-0.027,65.0
9.973,1.272,-0.084,38.0
9.987,1.274,0.191,73.0
9.98,1.273,0.133,125.0
9.975,1.272,0.076,130.0
9.978,1.272,0.018,53.0
9.982,1.273,-0.039,71.0
9.973,1.272,-0.096,40.0
9.987,1.274,0.179,67.0
9.985,1.273,0.122,120.0
9.976,1.272,0.065,115.0
9.967,1.271,0.006,42.0
9.972,1.272,-0.05,68.0
9.972,1.272,-0.107,39.0
9.987,1.273,0.168,71.0
9.98,1.272,0.11,132.0
9.977,1.272,0.053,128.0
9.976,1.271,-0.004,64.0
9.977,1.272,-0.061,71.0
9.975,1.271,-0.118,40.0
9.98,1.272,0.156,62.0
9.98,1.271,0.099,141.0
9.977,1.271,0.042,126.0
9.97,1.27,-0.015,69.0
9.974,1.27,-0.073,73.0
9.97,1.27,-0.13,42.0
9.979,1.27,0.145,66.0
9.979,1.27,0.088,142.0
9.976,1.269,0.031,136.0
9.966,1.268,-0.027,70.0
9.974,1.269,-0.084,82.0
9.976,1.269,-0.141,47.0
9.98,1.269,0.134,65.0
9.982,1.268,0.077,139.0
9.978,1.268,0.019,101.0
9.97,1.266,-0.038,84.0
9.977,1.267,-0.095,96.0
9.975,1.267,-0.152,52.0
9.974,1.265,0.122,60.0
9.973,1.265,0.065,139.0
9.973,1.265,0.008,118.0
9.967,1.264,-0.049,101.0
9.969,1.263,-0.106,107.0
9.969,1.263,-0.163,67.0
9.972,1.263,0.111,67.0
9.977,1.263,0.054,134.0
9.974,1.262,-0.002,134.0
9.966,1.26,-0.06,98.0
9.973,1.261,-0.118,112.0
9.973,1.261,-0.175,63.0
9.975,1.26,0.1,90.0
9.973,1.259,0.043,150.0
9.971,1.258,-0.013,135.0
9.972,1.258,-0.071,109.0
9.966,1.257,-0.129,100.0
9.967,1.257,-0.186,67.0
9.97,1.256,0.089,99.0
9.977,1.256,0.032,150.0
9.975,1.255,-0.024,150.0
9.97,1.254,-0.082,101.0
9.973,1.254,-0.14,112.0
9.971,1.253,-0.197,65.0
9.976,1.252,0.078,108.0
9.974,1.251,0.021,150.0
9.975,1.251,-0.035,150.0
9.971,1.25,-0.093,104.0
9.98,1.251,-0.151,113.0
9.973,1.249,-0.208,76.0
9.971,1.247,0.067,102.0
9.975,1.247,0.01,139.0
9.975,1.246,-0.046,150.0
9.973,1.245,-0.104,107.0
9.981,1.246,-0.161,109.0
9.966,1.243,-0.218,61.0
9.972,1.242,0.056,100.0
9.978,1.242,0.0,117.0
9.97,1.241,-0.057,150.0
9.97,1.24,-0.115,104.0
9.972,1.24,-0.172,113.0
9.973,1.239,-0.229,71.0
9.975,1.237,0.046,102.0
9.975,1.236,-0.011,43.0
9.969,1.235,-0.068,150.0
9.964,1.234,-0.126,102.0
9.973,1.234,-0.183,107.0
9.972,1.233,-0.24,69.0
9.967,1.23,0.035,106.0
9.968,1.23,-0.021,125.0
9.971,1.229,-0.078,150.0
9.965,1.228,-0.136,98.0
9.973,1.228,-0.193,107.0
9.973,1.227,-0.25,60.0
9.976,1.225,0.024,103.0
9.974,1.224,-0.032,150.0
9.979,1.224,-0.089,150.0
9.974,1.222,-0.147,100.0
9.972,1.221,-0.203,103.0
9.967,1.22,-0.261,59.0
9.972,1.218,0.014,86.0
9.976,1.217,-0.042,150.0
9.975,1.216,-0.099,150.0
9.968,1.215,-0.157,96.0
9.973,1.215,-0.214,95.0
9.971,1.214,-0.271,51.0
9.974,1.211,0.004,85.0
9.975,1.21,-0.052,150.0
9.979,1.21,-0.109,150.0
9.968,1.207,-0.167,98.0
9.976,1.207,-0.224,96.0
9.984,1.208,-0.281,43.0
9.977,1.204,-0.005,90.0
9.98,1.203,-0.062,150.0
9.98,1.202,-0.119,148.0
9.979,1.201,-0.177,77.0
9.983,1.2,-0.234,72.0
9.99,1.201,-0.291,34.0
9.987,1.197,-0.015,80.0
9.984,1.195,-0.072,137.0
9.984,1.194,-0.129,135.0
9.981,1.193,-0.187,73.0
9.993,1.193,-0.244,78.0
9.997,1.193,-0.301,31.0
9.989,1.189,-0.025,69.0
10.003,1.189,-0.082,146.0
9.993,1.187,-0.139,119.0
9.985,1.185,-0.196,63.0
10.004,1.186,-0.254,57.0
10.0,1.185,-0.311,21.0
9.996,1.18,-0.034,68.0
10.005,1.18,-0.091,140.0
9.998,1.178,-0.148,107.0
10.001,1.178,-0.206,47.0
10.006,1.177,-0.263,32.0
10.003,1.176,-0.32,19.0
10.011,1.173,-0.043,49.0
10.004,1.171,-0.1,73.0
10.013,1.171,-0.157,21.0
10.006,1.169,-0.215,16.0
10.008,1.168,-0.273,15.0
13.82,1.612,-0.455,4.0
10.014,1.164,-0.052,16.0
10.007,1.162,-0.109,14.0
9.993,1.159,-0.166,10.0
19.714,2.284,-0.443,1.0
13.848,1.603,-0.39,6.0
13.781,1.593,-0.466,7.0
34.627,3.99,-0.213,8.0
10.011,1.152,-0.118,3.0
21.943,2.522,-0.385,3.0
13.834,1.588,-0.323,6.0
13.82,1.585,-0.401,15.0
13.775,1.578,-0.478,14.0
34.506,3.939,-0.243,39.0
25.099,2.862,-0.319,1.0
21.58,2.457,-0.397,1.0
13.835,1.574,-0.334,16.0
13.798,1.568,-0.412,19.0
13.745,1.56,-0.489,15.0
34.477,3.899,-0.271,25.0
13.864,1.565,-0.188,4.0
13.843,1.561,-0.266,15.0
13.807,1.555,-0.345,21.0
13.775,1.55,-0.423,17.0
13.738,1.544,-0.5,18.0
32.332,3.62,-0.281,2.0
13.84,1.547,-0.198,14.0
13.808,1.542,-0.276,18.0
13.798,1.539,-0.356,26.0
13.76,1.532,-0.433,21.0
13.718,1.526,-0.51,19.0
13.836,1.533,-0.131,16.0
13.799,1.527,-0.209,23.0
13.806,1.525,-0.287,30.0
13.773,1.519,-0.366,23.0
13.765,1.517,-0.444,25.0
13.705,1.508,-0.52,19.0
13.807,1.513,-0.141,25.0
13.8,1.51,-0.219,33.0
13.798,1.508,-0.298,39.0
13.773,1.503,-0.376,29.0
13.757,1.499,-0.454,29.0
13.685,1.489,-0.53,19.0
13.795,1.495,-0.151,34.0
13.788,1.492,-0.229,39.0
13.78,1.489,-0.307,45.0
13.773,1.486,-0.386,32.0
13.76,1.482,-0.464,33.0
13.667,1.47,-0.539,15.0
13.78,1.476,-0.161,37.0
13.789,1.474,-0.239,65.0
13.774,1.47,-0.317,39.0
13.771,1.468,-0.396,35.0
13.763,1.465,-0.474,31.0
13.656,1.451,-0.548,11.0
13.779,1.458,-0.17,39.0
13.785,1.456,-0.248,83.0
13.774,1.452,-0.326,37.0
13.769,1.449,-0.405,31.0
13.743,1.444,-0.482,28.0
13.607,1.428,-0.555,10.0
13.773,1.439,-0.179,40.0
13.781,1.437,-0.257,56.0
13.764,1.433,-0.334,38.0
13.755,1.429,-0.414,30.0
13.725,1.424,-0.49,24.0
13.552,1.404,-0.561,11.0
13.774,1.42,-0.188,40.0
13.778,1.417,-0.266,107.0
13.769,1.414,-0.343,104.0
13.761,1.411,-0.422,32.0
13.725,1.405,-0.499,17.0
13.455,1.375,-0.565,12.0
13.782,1.401,-0.196,37.0
13.781,1.398,-0.274,150.0
13.769,1.395,-0.351,119.0
13.753,1.391,-0.43,35.0
13.713,1.384,-0.506,13.0
13.48,1.358,-0.574,10.0
13.783,1.381,-0.204,41.0
13.781,1.379,-0.281,150.0
13.767,1.375,-0.359,150.0
13.761,1.372,-0.438,39.0
13.715,1.364,-0.514,14.0
13.422,1.333,-0.578,10.0
13.791,1.362,-0.211,55.0
13.789,1.359,-0.289,129.0
13.768,1.354,-0.366,94.0
13.755,1.351,-0.444,35.0
13.722,1.345,-0.521,16.0
13.396,1.31,-0.584,9.0
13.799,1.342,-0.218,35.0
13.786,1.338,-0.295,80.0
13.768,1.334,-0.372,36.0
13.753,1.33,-0.451,28.0
13.72,1.324,-0.527,16.0
13.364,1.287,-0.589,10.0
13.816,1.323,-0.225,37.0
13.811,1.32,-0.302,39.0
13.775,1.313,-0.379,30.0
13.762,1.31,-0.458,28.0
13.714,1.302,-0.533,13.0
13.329,1.263,-0.593,11.0
13.826,1.303,-0.231,33.0
13.813,1.298,-0.308,36.0
13.788,1.293,-0.385,27.0
13.781,1.29,-0.464,27.0
13.732,1.282,-0.539,13.0
13.331,1.242,-0.599,10.0
13.853,1.283,-0.237,31.0
13.827,1.278,-0.314,27.0
13.797,1.272,-0.391,23.0
13.793,1.269,-0.469,23.0
13.743,1.261,-0.545,13.0
13.324,1.22,-0.603,10.0
13.87,1.262,-0.242,22.0
13.852,1.258,-0.32,19.0
13.837,1.253,-0.397,16.0
13.807,1.248,-0.475,22.0
13.751,1.24,-0.55,13.0
13.297,1.196,-0.606,11.0
13.892,1.242,-0.247,7.0
13.878,1.238,-0.325,8.0
13.894,1.236,-0.403,13.0
13.834,1.228,-0.48,17.0
13.748,1.217,-0.554,12.0
13.274,1.173,-0.609,9.0
22.319,1.96,-0.404,4.0
19.729,1.727,-0.467,3.0
13.932,1.217,-0.408,4.0
13.879,1.209,-0.485,13.0
13.774,1.197,-0.559,12.0
13.206,1.144,-0.61,8.0
22.118,1.904,-0.406,4.0
19.677,1.69,-0.471,3.0
17.643,1.511,-0.521,2.0
13.911,1.188,-0.49,8.0
13.77,1.173,-0.562,11.0
13.223,1.123,-0.614,10.0
22.025,1.859,-0.409,4.0
19.608,1.65,-0.473,3.0
17.587,1.476,-0.523,2.0
15.967,1.336,-0.565,0.0
13.795,1.151,-0.566,11.0
13.213,1.1,-0.616,10.0
22.018,1.821,-0.413,4.0
19.584,1.614,-0.476,3.0
17.608,1.447,-0.526,2.0
0.0,0.0,0.0,0.0
13.8,1.128,-0.568,12.0
13.228,1.078,-0.618,9.0
21.961,1.778,-0.415,4.0
19.549,1.578,-0.478,3.0
17.527,1.41,-0.526,2.0
15.942,1.279,-0.569,2.0
13.808,1.104,-0.57,10.0
13.204,1.053,-0.619,7.0
21.961,1.739,-0.417,4.0
19.592,1.547,-0.481,3.0
17.508,1.378,-0.527,2.0
15.934,1.25,-0.57,2.0
13.811,1.08,-0.571,10.0
13.19,1.028,-0.619,9.0
21.957,1.7,-0.419,4.0
19.514,1.506,-0.481,3.0
17.564,1.351,-0.53,2.0
15.925,1.221,-0.571,3.0
13.868,1.06,-0.574,11.0
13.213,1.006,-0.621,8.0
21.944,1.66,-0.419,4.0
19.52,1.471,-0.481,3.0
17.556,1.319,-0.53,2.0
15.94,1.194,-0.571,2.0
13.912,1.038,-0.576,9.0
13.265,0.987,-0.623,8.0
22.065,1.629,-0.421,4.0
19.603,1.443,-0.483,3.0
17.608,1.291,-0.531,2.0
15.987,1.168,-0.573,2.0
13.977,1.018,-0.578,12.0
13.297,0.965,-0.624,10.0
22.098,1.592,-0.421,4.0
19.649,1.41,-0.483,3.0
17.651,1.262,-0.532,4.0
15.963,1.137,-0.571,2.0
14.123,1.003,-0.583,13.0
13.324,0.943,-0.624,10.0
22.121,1.553,-0.419,4.0
19.671,1.376,-0.482,3.0
17.71,1.234,-0.532,3.0
16.081,1.117,-0.573,2.0
14.262,0.987,-0.587,14.0
13.38,0.922,-0.625,10.0
22.272,1.523,-0.42,4.0
19.807,1.349,-0.482,3.0
17.819,1.209,-0.532,3.0
16.117,1.089,-0.572,3.0
14.433,0.971,-0.592,17.0
13.388,0.898,-0.623,12.0
22.486,1.496,-0.42,4.0
19.983,1.324,-0.483,3.0
17.844,1.177,-0.53,3.0
16.185,1.064,-0.572,4.0
14.607,0.956,-0.596,15.0
13.455,0.877,-0.624,11.0
22.702,1.468,-0.419,5.0
20.078,1.293,-0.482,3.0
18.033,1.156,-0.532,4.0
16.253,1.037,-0.57,4.0
14.638,0.93,-0.594,18.0
13.563,0.858,-0.625,12.0
22.91,1.438,-0.418,5.0
20.158,1.26,-0.478,3.0
18.144,1.129,-0.53,3.0
16.328,1.011,-0.569,4.0
14.648,0.903,-0.591,21.0
13.634,0.837,-0.625,12.0
23.224,1.414,-0.417,5.0
20.347,1.234,-0.477,3.0
18.262,1.102,-0.528,3.0
16.408,0.986,-0.566,2.0
14.66,0.876,-0.587,19.0
13.702,0.815,-0.624,12.0
23.618,1.394,-0.416,5.0
20.545,1.207,-0.475,4.0
18.414,1.076,-0.526,3.0
16.592,0.965,-0.567,2.0
14.677,0.85,-0.582,14.0
13.744,0.792,-0.621,11.0
23.925,1.367,-0.413,5.0
20.758,1.18,-0.472,4.0
18.537,1.048,-0.523,3.0
16.741,0.942,-0.566,2.0
14.685,0.822,-0.577,8.0
13.804,0.769,-0.618,16.0
24.288,1.341,-0.41,5.0
20.95,1.151,-0.468,4.0
18.737,1.024,-0.521,3.0
16.954,0.922,-0.566,2.0
14.878,0.805,-0.578,6.0
14.079,0.758,-0.624,14.0
24.742,1.319,-0.406,3.0
21.138,1.121,-0.463,4.0
18.994,1.002,-0.519,3.0
17.172,0.901,-0.565,2.0
15.181,0.792,-0.583,2.0
14.317,0.743,-0.628,16.0
24.882,1.28,-0.397,1.0
21.386,1.094,-0.458,4.0
19.271,0.98,-0.518,3.0
17.335,0.877,-0.562,2.0
15.575,0.783,-0.59,2.0
14.447,0.722,-0.626,16.0
28.623,1.418,-0.442,1.0
21.719,1.07,-0.454,4.0
19.493,0.954,-0.513,3.0
17.472,0.85,-0.557,3.0
15.892,0.769,-0.593,2.0
14.616,0.703,-0.625,25.0
28.883,1.377,-0.43,1.0
22.074,1.045,-0.449,4.0
19.657,0.925,-0.506,3.0
17.697,0.828,-0.554,4.0
16.071,0.747,-0.59,2.0
14.626,0.675,-0.617,24.0
29.272,1.339,-0.418,2.0
22.566,1.025,-0.445,4.0
19.965,0.901,-0.502,3.0
17.906,0.803,-0.549,4.0
16.288,0.726,-0.588,2.0
14.644,0.648,-0.608,23.0
29.731,1.303,-0.406,2.0
23.119,1.006,-0.441,5.0
20.317,0.878,-0.497,3.0
18.195,0.781,-0.546,3.0
16.486,0.703,-0.584,3.0
14.667,0.621,-0.599,14.0
30.097,1.262,-0.39,2.0
23.799,0.991,-0.437,5.0
20.651,0.853,-0.491,4.0
18.494,0.759,-0.542,3.0
16.747,0.682,-0.582,2.0
14.696,0.595,-0.59,8.0
30.623,1.226,-0.375,2.0
24.282,0.965,-0.429,4.0
20.947,0.826,-0.483,4.0
18.8,0.736,-0.537,3.0
17.078,0.664,-0.58,2.0
15.108,0.583,-0.595,4.0
31.149,1.188,-0.358,2.0
24.59,0.931,-0.416,1.0
21.311,0.8,-0.475,4.0
19.084,0.711,-0.53,3.0
17.33,0.641,-0.575,6.0
15.617,0.573,-0.603,3.0
32.049,1.162,-0.343,1.0
28.32,1.018,-0.456,1.0
21.681,0.773,-0.466,4.0
19.386,0.685,-0.523,3.0
17.576,0.616,-0.569,3.0
16.004,0.556,-0.604,3.0
33.271,1.143,-0.328,1.0
28.863,0.983,-0.44,1.0
22.312,0.753,-0.46,4.0
19.772,0.662,-0.516,3.0
17.861,0.592,-0.563,5.0
16.25,0.534,-0.599,2.0
0.0,0.0,0.0,0.0
29.38,0.946,-0.422,2.0
23.145,0.738,-0.457,5.0
20.174,0.637,-0.509,3.0
18.186,0.569,-0.556,4.0
16.519,0.512,-0.594,2.0
36.259,1.11,-0.294,10.0
29.939,0.908,-0.403,2.0
23.774,0.714,-0.448,4.0
20.632,0.613,-0.501,4.0
18.57,0.547,-0.551,4.0
16.918,0.493,-0.593,2.0
36.492,1.05,-0.261,10.0
30.626,0.872,-0.383,2.0
27.338,0.77,-0.488,1.0
21.124,0.589,-0.493,4.0
18.971,0.523,-0.544,3.0
17.232,0.47,-0.587,4.0
36.847,0.992,-0.227,24.0
31.417,0.836,-0.362,2.0
27.794,0.732,-0.469,1.0
21.634,0.563,-0.483,4.0
19.399,0.499,-0.537,3.0
17.518,0.446,-0.579,5.0
37.178,0.933,-0.192,55.0
32.604,0.808,-0.342,1.0
28.567,0.7,-0.453,1.0
22.217,0.538,-0.473,4.0
19.761,0.473,-0.526,3.0
17.819,0.421,-0.57,5.0
38.157,0.888,-0.157,46.0
33.629,0.773,-0.318,1.0
29.265,0.665,-0.433,2.0
23.118,0.518,-0.467,3.0
20.262,0.448,-0.518,3.0
18.262,0.398,-0.564,6.0
39.21,0.842,-0.119,47.0
36.707,0.778,-0.307,4.0
29.898,0.624,-0.409,2.0
26.745,0.551,-0.511,2.0
20.76,0.422,-0.507,4.0
18.707,0.375,-0.557,14.0
39.939,0.787,-0.076,15.0
36.879,0.716,-0.266,12.0
30.669,0.586,-0.385,2.0
27.258,0.513,-0.49,2.0
21.287,0.394,-0.496,4.0
19.162,0.349,-0.548,3.0
0.0,0.0,0.0,0.0
37.422,0.66,-0.227,24.0
31.673,0.549,-0.36,1.0
28.013,0.478,-0.47,1.0
21.857,0.366,-0.483,4.0
19.683,0.324,-0.539,3.0
47.137,0.761,0.02,41.0
37.985,0.603,-0.185,47.0
32.974,0.514,-0.335,1.0
28.87,0.442,-0.45,2.0
25.981,0.39,-0.542,0.0
20.202,0.297,-0.529,3.0
47.929,0.691,0.079,57.0
38.859,0.549,-0.141,50.0
37.076,0.514,-0.331,1.0
29.606,0.402,-0.424,2.0
26.499,0.352,-0.52,2.0
20.788,0.27,-0.518,4.0
48.023,0.61,0.14,74.0
39.873,0.495,-0.094,15.0
37.265,0.452,-0.285,6.0
30.411,0.361,-0.397,2.0
27.048,0.313,-0.496,2.0
21.456,0.242,-0.507,4.0
48.039,0.529,0.201,97.0
44.282,0.475,-0.047,19.0
37.788,0.395,-0.24,13.0
31.508,0.32,-0.37,1.0
27.863,0.276,-0.475,1.0
21.984,0.211,-0.491,2.0
48.04,0.447,0.265,107.0
46.931,0.425,0.011,37.0
38.387,0.336,-0.193,43.0
32.913,0.279,-0.342,1.0
28.976,0.238,-0.455,2.0
25.826,0.205,-0.541,2.0
48.103,0.369,0.33,53.0
47.971,0.355,0.076,50.0
39.301,0.28,-0.144,44.0
37.578,0.257,-0.339,0.0
29.702,0.195,-0.425,2.0
26.567,0.167,-0.52,2.0
55.115,0.332,0.455,9.0
54.832,0.315,0.164,51.0
44.016,0.241,-0.099,5.0
37.79,0.197,-0.288,8.0
30.581,0.151,-0.395,1.0
27.21,0.127,-0.494,1.0
77.18,0.341,0.746,28.0
59.31,0.246,0.261,15.0
45.053,0.175,-0.038,22.0
38.447,0.139,-0.239,14.0
31.748,0.106,-0.364,1.0
28.231,0.087,-0.472,2.0
79.465,0.225,0.882,151.0
75.925,0.196,0.443,13.0
47.692,0.111,0.027,21.0
39.172,0.081,-0.187,37.0
33.272,0.06,-0.333,1.0
29.165,0.045,-0.446,2.0
79.469,0.102,0.998,151.0
79.301,0.082,0.578,15.0
0.0,0.0,0.0,0.0
40.549,0.021,-0.134,16.0
38.149,0.01,-0.326,2.0
29.965,0.0,-0.413,2.0
79.462,-0.018,1.115,151.0
79.431,-0.038,0.698,150.0
56.157,-0.041,0.198,8.0
0.0,0.0,0.0,0.0
38.706,-0.047,-0.272,5.0
31.25,-0.046,-0.384,2.0
79.455,-0.138,1.236,151.0
79.47,-0.157,0.819,151.0
76.327,-0.17,0.387,10.0
46.179,-0.114,-0.012,9.0
39.475,-0.107,-0.217,12.0
32.732,-0.097,-0.351,1.0
79.439,-0.254,1.357,165.0
79.465,-0.274,0.942,151.0
76.682,-0.283,0.507,12.0
51.016,-0.201,0.065,9.0
0.0,0.0,0.0,0.0
34.545,-0.152,-0.317,0.0
79.435,-0.371,1.482,199.0
79.456,-0.39,1.067,162.0
79.469,-0.409,0.651,150.0
56.11,-0.302,0.161,10.0
42.173,-0.237,-0.099,3.0
39.597,-0.232,-0.3,7.0
79.438,-0.484,1.609,181.0
79.456,-0.503,1.194,173.0
79.468,-0.522,0.779,180.0
61.988,-0.421,0.277,6.0
47.288,-0.333,-0.034,3.0
40.469,-0.294,-0.24,3.0
79.422,-0.596,1.738,184.0
79.443,-0.615,1.324,183.0
79.45,-0.633,0.909,193.0
77.426,-0.635,0.475,17.0
52.094,-0.439,0.047,3.0
50.555,-0.437,-0.217,3.0
79.432,-0.704,1.868,177.0
79.442,-0.722,1.453,191.0
79.451,-0.74,1.039,179.0
79.379,-0.757,0.617,75.0
57.327,-0.56,0.146,2.0
50.833,-0.508,-0.134,8.0
79.442,-0.812,2.002,155.0
79.43,-0.828,1.586,223.0
79.414,-0.846,1.172,231.0
79.444,-0.864,0.751,150.0
77.716,-0.861,0.329,2.0
54.516,-0.616,-0.052,2.0
79.407,-0.915,2.134,150.0
79.411,-0.932,1.72,59.0
79.432,-0.949,1.307,155.0
80.082,-0.974,0.892,8.0
78.818,-0.976,0.468,15.0
60.938,-0.767,0.045,6.0
86.906,-1.113,2.484,3.0
86.937,-1.132,2.033,36.0
86.945,-1.15,1.581,114.0
148.07,-1.988,1.906,16.0
87.888,-1.198,0.673,13.0
183.561,-2.539,0.451,4.0
151.5,-2.127,4.59,36.0
183.381,-2.614,4.605,58.0
187.126,-2.703,3.723,28.0
187.126,-2.741,2.731,57.0
123.705,-1.836,1.161,8.0
0.0,0.0,0.0,0.0
151.449,-2.309,4.851,96.0
151.439,-2.337,4.061,64.0
261.996,-4.096,5.665,59.0
205.445,-3.252,3.354,34.0
123.912,-1.985,1.379,7.0
40.305,-0.653,0.239,17.0
151.425,-2.485,5.114,63.0
151.449,-2.514,4.328,78.0
40.259,-0.676,0.941,11.0
40.195,-0.683,0.727,4.0
205.43,-3.527,2.65,16.0
40.253,-0.698,0.31,46.0
184.529,-3.241,6.562,36.0
40.323,-0.715,1.224,26.0
40.242,-0.721,1.012,53.0
40.192,-0.728,0.799,58.0
40.252,-0.736,0.591,25.0
40.226,-0.743,0.382,51.0
185.48,-3.464,6.928,23.0
40.35,-0.76,1.297,5.0
40.265,-0.766,1.085,53.0
40.222,-0.772,0.871,43.0
40.209,-0.779,0.663,38.0
40.239,-0.786,0.454,45.0
191.332,-3.778,7.492,13.0
185.246,-3.69,6.293,43.0
40.287,-0.809,1.159,44.0
40.224,-0.814,0.944,50.0
40.24,-0.821,0.736,56.0
40.244,-0.828,0.527,53.0
191.536,-3.981,7.848,25.0
185.664,-3.889,6.643,47.0
40.259,-0.849,1.231,31.0
40.206,-0.855,1.017,57.0
40.201,-0.861,0.809,53.0
40.272,-0.869,0.602,54.0
128.911,-2.808,5.518,11.0
185.648,-4.073,6.982,29.0
40.311,-0.89,1.307,7.0
40.206,-0.894,1.091,56.0
40.198,-0.9,0.882,55.0
40.267,-0.908,0.676,70.0
129.666,-2.95,5.789,32.0
129.574,-2.967,5.112,11.0
40.247,-0.927,1.379,40.0
40.225,-0.932,1.165,52.0
40.188,-0.938,0.956,55.0
40.197,-0.944,0.749,59.0
129.109,-3.058,6.004,34.0
129.236,-3.078,5.338,40.0
40.191,-0.963,1.452,45.0
40.248,-0.969,1.241,64.0
40.198,-0.974,1.031,53.0
40.18,-0.979,0.823,50.0
93.067,-2.287,4.5,28.0
128.767,-3.181,5.559,46.0
40.206,-0.998,1.527,31.0
40.228,-1.004,1.316,57.0
40.208,-1.009,1.107,49.0
40.184,-1.014,0.898,52.0
93.073,-2.367,4.676,40.0
128.906,-3.295,5.809,45.0
129.203,-3.32,5.154,33.0
40.203,-1.037,1.391,52.0
40.245,-1.044,1.184,38.0
40.189,-1.047,0.974,54.0
90.492,-2.375,4.717,34.0
129.022,-3.402,6.057,29.0
128.882,-3.414,5.383,34.0
40.214,-1.07,1.467,44.0
40.308,-1.077,1.261,13.0
40.204,-1.079,1.05,49.0
90.479,-2.446,4.888,47.0
178.403,-4.842,8.713,32.0
128.866,-3.512,5.625,10.0
40.232,-1.101,1.544,2.0
40.132,-1.102,1.332,0.0
40.224,-1.109,1.127,34.0
90.438,-2.512,5.057,28.0
129.135,-3.6,6.552,34.0
128.876,-3.606,5.869,6.0
129.212,-3.628,5.201,13.0
0.0,0.0,0.0,0.0
40.306,-1.14,1.206,11.0
90.578,-2.579,5.236,29.0
90.49,-2.585,4.762,11.0
278.389,-7.98,13.205,11.0
148.209,-4.262,6.248,3.0
0.0,0.0,0.0,0.0
0.0,0.0,0.0,0.0
90.596,-2.64,5.41,52.0
90.502,-2.645,4.935,30.0
0.0,0.0,0.0,0.0
0.0,0.0,0.0,0.0
148.266,-4.372,5.765,5.0
0.0,0.0,0.0,0.0
93.141,-2.772,5.74,13.0
93.206,-2.781,5.259,27.0
0.0,0.0,0.0,0.0
0.0,0.0,0.0,0.0
148.251,-4.459,6.045,34.0
0.0,0.0,0.0,0.0
83.314,-2.528,5.293,17.0
93.21,-2.836,5.438,28.0
90.518,-2.76,4.811,7.0
0.0,0.0,0.0,0.0
0.0,0.0,0.0,0.0
0.0,0.0,0.0,0.0
92.897,-2.87,6.079,23.0
93.129,-2.883,5.611,16.0
90.506,-2.808,4.982,38.0
0.0,0.0,0.0,0.0
0.0,0.0,0.0,0.0
148.083,-4.622,5.836,8.0
83.239,-2.613,5.606,51.0
93.121,-2.929,5.787,13.0
90.5,-2.852,5.155,2.0
0.0,0.0,0.0,0.0
0.0,0.0,0.0,0.0
148.094,-4.691,6.118,29.0
83.187,-2.651,5.761,47.0
172.504,-5.504,11.048,29.0
174.601,-5.58,10.274,31.0
0.0,0.0,0.0,0.0
0.0,0.0,0.0,0.0
0.0,0.0,0.0,0.0
92.452,-2.985,6.577,65.0
83.235,-2.69,5.488,8.0
93.328,-3.02,5.669,12.0
0.0,0.0,0.0,0.0
0.0,0.0,0.0,0.0
0.0,0.0,0.0,0.0
92.537,-3.023,6.758,19.0
83.148,-2.719,5.639,27.0
93.13,-3.048,5.831,20.0
175.398,-5.747,10.054,27.0
0.0,0.0,0.0,0.0
0.0,0.0,0.0,0.0
92.675,-3.06,6.943,19.0
83.14,-2.747,5.796,13.0
93.154,-3.08,6.01,8.0
174.741,-5.781,10.348,29.0
0.0,0.0,0.0,0.0
0.0,0.0,0.0,0.0
92.687,-3.088,7.119,11.0
91.875,-3.063,6.578,11.0
83.303,-2.778,5.531,9.0
174.633,-5.828,10.668,37.0
0.0,0.0,0.0,0.0
0.0,0.0,0.0,0.0
82.884,-2.784,6.523,13.0
92.054,-3.093,6.763,22.0
83.093,-2.792,5.672,13.0
93.179,-3.132,5.866,15.0
175.342,-5.896,10.128,37.0
0.0,0.0,0.0,0.0
92.583,-3.131,7.461,2.0
92.669,-3.133,6.983,31.0
83.139,-2.811,5.83,22.0
93.159,-3.15,6.039,23.0
97.953,-3.312,5.84,12.0
0.0,0.0,0.0,0.0
82.849,-2.817,6.831,10.0
92.577,-3.147,7.148,31.0
83.166,-2.826,5.986,9.0
83.337,-2.832,5.555,10.0
174.644,-5.933,10.733,31.0
175.502,-5.961,9.875,6.0
82.723,-2.824,6.973,14.0
90.146,-3.077,7.126,12.0
91.795,-3.131,6.776,15.0
83.034,-2.831,5.688,12.0
93.209,-3.177,5.898,12.0
175.007,-5.963,10.164,30.0
63.457,-2.173,5.465,4.0
90.116,-3.084,7.288,8.0
92.258,-3.155,6.978,11.0
82.883,-2.833,5.828,19.0
93.185,-3.183,6.065,15.0
97.934,-3.343,5.863,15.0
40.832,-1.401,3.59,9.0
82.882,-2.841,6.853,9.0
92.573,-3.17,7.169,19.0
83.26,-2.849,6.003,6.0
90.496,-3.094,6.052,10.0
174.69,-5.969,10.771,37.0
40.744,-1.399,3.656,42.0
82.641,-2.835,6.981,15.0
82.65,-2.832,6.547,13.0
83.348,-2.853,6.158,13.0
83.077,-2.841,5.703,16.0
93.192,-3.182,5.91,13.0
40.681,-1.396,3.722,61.0
40.852,-1.4,3.523,2.0
90.145,-3.087,7.302,5.0
92.341,-3.157,6.986,10.0
82.993,-2.834,5.845,15.0
93.174,-3.178,6.074,14.0
40.681,-1.394,3.794,12.0
40.846,-1.398,3.595,11.0
82.791,-2.83,6.851,11.0
92.573,-3.158,7.166,23.0
83.227,-2.835,6.006,6.0
90.501,-3.079,6.057,9.0
53.219,-1.82,5.058,28.0
40.772,-1.391,3.66,36.0
41.104,-1.4,3.473,5.0
90.13,-3.065,7.134,14.0
91.908,-3.121,6.792,15.0
83.054,-2.815,5.702,15.0
40.991,-1.396,3.967,6.0
40.72,-1.384,3.726,55.0
41.046,-1.392,3.539,27.0
83.231,-2.818,6.731,7.0
92.658,-3.132,7.006,44.0
83.151,-2.805,5.851,11.0
40.972,-1.389,4.036,38.0
53.488,-1.809,4.986,10.0
40.887,-1.38,3.596,24.0
82.748,-2.786,6.833,15.0
82.893,-2.785,6.408,15.0
83.294,-2.793,6.002,11.0
40.499,-1.364,4.058,39.0
53.403,-1.795,5.069,14.0
40.774,-1.367,3.655,59.0
63.45,-2.122,5.347,2.0
82.968,-2.768,6.553,6.0
92.633,-3.084,6.83,46.0
40.24,-1.346,4.1,65.0
40.895,-1.365,3.95,5.0
40.729,-1.355,3.719,50.0
40.99,-1.36,3.522,39.0
82.85,-2.743,6.682,12.0
92.651,-3.059,6.984,3.0
39.974,-1.326,4.139,64.0
40.843,-1.351,4.013,15.0
40.655,-1.341,3.779,39.0
40.927,-1.346,3.583,36.0
83.051,-2.724,6.832,3.0
83.015,-2.716,6.392,13.0
39.96,-1.313,4.203,58.0
40.662,-1.332,4.061,41.0
40.84,-1.334,3.862,28.0
40.812,-1.329,3.639,61.0
65.277,-2.119,5.475,1.0
83.101,-2.69,6.531,11.0
40.028,-1.302,4.274,59.0
40.358,-1.308,4.095,53.0
40.838,-1.319,3.926,10.0
40.688,-1.31,3.692,70.0
0.0,0.0,0.0,0.0
83.021,-2.656,6.654,17.0
40.056,-1.287,4.341,63.0
40.115,-1.285,4.133,70.0
40.822,-1.302,3.989,21.0
40.639,-1.292,3.751,57.0
41.005,-1.299,3.567,20.0
83.001,-2.621,6.78,15.0
39.972,-1.268,4.394,50.0
40.156,-1.269,4.199,63.0
40.137,-1.263,3.983,61.0
40.694,-1.276,3.818,38.0
40.801,-1.275,3.611,60.0
54.657,-1.701,4.548,3.0
39.814,-1.245,4.437,57.0
39.882,-1.242,4.232,57.0
40.015,-1.241,4.032,65.0
54.749,-1.691,5.219,9.0
40.836,-1.256,3.676,46.0
54.736,-1.677,4.636,13.0
39.749,-1.223,4.49,58.0
39.368,-1.207,4.236,67.0
39.623,-1.209,4.052,49.0
40.497,-1.231,3.921,46.0
40.678,-1.231,3.722,53.0
40.898,-1.232,3.524,19.0
39.657,-1.2,4.539,64.0
39.748,-1.197,4.335,57.0
39.6,-1.188,4.107,52.0
40.191,-1.2,3.949,60.0
40.726,-1.21,3.785,46.0
40.809,-1.207,3.575,70.0
39.497,-1.173,4.577,66.0
40.107,-1.186,4.432,55.0
39.306,-1.157,4.133,70.0
43.126,-1.263,4.299,19.0
49.143,-1.432,4.636,6.0
41.122,-1.193,3.659,53.0
39.592,-1.153,4.644,55.0
39.572,-1.147,4.428,60.0
39.211,-1.13,4.177,60.0
39.453,-1.132,3.987,62.0
39.893,-1.138,3.818,59.0
40.898,-1.161,3.695,40.0
40.02,-1.141,4.749,69.0
39.39,-1.117,4.462,70.0
39.263,-1.108,4.236,67.0
39.431,-1.106,4.038,39.0
39.975,-1.116,3.88,46.0
40.971,-1.138,3.757,32.0
40.02,-1.115,4.803,61.0
39.772,-1.102,4.559,55.0
39.427,-1.087,4.306,50.0
39.291,-1.076,4.076,59.0
39.821,-1.085,3.917,65.0
40.981,-1.111,3.811,52.0
40.098,-1.09,4.865,52.0
39.512,-1.068,4.58,55.0
39.427,-1.06,4.357,49.0
39.259,-1.049,4.122,53.0
39.823,-1.057,3.967,63.0
40.966,-1.081,3.861,63.0
40.043,-1.061,4.91,65.0
39.258,-1.033,4.601,64.0
39.427,-1.031,4.407,49.0
39.444,-1.025,4.192,53.0
39.68,-1.025,4.003,56.0
40.296,-1.034,3.848,61.0
39.804,-1.025,4.93,57.0
39.345,-1.006,4.66,51.0
39.456,-1.003,4.459,56.0
39.014,-0.985,4.194,64.0
39.523,-0.991,4.035,72.0
39.927,-0.995,3.861,48.0
39.611,-0.99,4.954,50.0
39.765,-0.987,4.757,54.0
39.535,-0.974,4.515,55.0
39.114,-0.957,4.251,64.0
39.323,-0.956,4.06,59.0
40.209,-0.97,3.935,52.0
39.562,-0.958,4.994,52.0
40.033,-0.963,4.835,43.0
39.175,-0.935,4.518,58.0
39.44,-0.934,4.331,67.0
39.084,-0.919,4.08,71.0
39.785,-0.929,3.938,65.0
39.478,-0.924,5.028,38.0
39.772,-0.924,4.848,63.0
39.421,-0.908,4.59,55.0
39.729,-0.908,4.406,55.0
39.015,-0.885,4.115,64.0
39.537,-0.89,3.956,48.0
39.488,-0.891,5.072,55.0
39.622,-0.887,4.873,61.0
39.409,-0.875,4.631,38.0
39.221,-0.864,4.392,57.0
39.118,-0.855,4.167,55.0
39.875,-0.864,4.031,42.0
41.904,-0.91,5.427,26.0
39.567,-0.852,4.907,45.0
39.229,-0.837,4.651,57.0
39.574,-0.837,4.471,55.0
39.031,-0.819,4.197,56.0
39.702,-0.825,4.053,49.0
41.915,-0.873,5.47,50.0
39.441,-0.814,4.931,61.0
39.259,-0.803,4.693,64.0
39.241,-0.795,4.472,64.0
39.119,-0.786,4.245,58.0
39.26,-0.782,4.046,59.0
41.756,-0.832,5.49,62.0
39.493,-0.78,4.975,54.0
39.25,-0.768,4.729,57.0
39.301,-0.761,4.516,54.0
39.038,-0.749,4.272,59.0
39.275,-0.746,4.084,52.0
0.0,0.0,0.0,0.0
39.486,-0.743,5.011,46.0
39.304,-0.732,4.772,57.0
39.575,-0.73,4.583,50.0
39.002,-0.712,4.304,61.0
39.222,-0.708,4.114,68.0
50.355,-0.91,6.713,5.0
42.172,-0.754,5.39,3.0
39.329,-0.695,4.809,52.0
39.177,-0.685,4.571,61.0
39.182,-0.677,4.357,45.0
39.255,-0.671,4.15,59.0
42.628,-0.728,5.719,39.0
39.897,-0.674,5.133,23.0
39.397,-0.658,4.851,50.0
39.688,-0.655,4.664,51.0
39.316,-0.641,4.404,55.0
39.457,-0.636,4.203,53.0
42.788,-0.689,5.776,38.0
41.927,-0.667,5.427,19.0
39.465,-0.62,4.89,56.0
39.399,-0.612,4.661,57.0
39.44,-0.604,4.449,51.0
39.657,-0.6,4.255,42.0
39.954,-0.604,5.424,47.0
39.941,-0.595,5.2,47.0
39.63,-0.583,4.94,43.0
39.82,-0.578,4.74,54.0
39.663,-0.568,4.502,60.0
0.0,0.0,0.0,0.0
39.931,-0.563,5.449,49.0
39.94,-0.555,5.229,40.0
39.924,-0.546,5.005,50.0
40.216,-0.542,4.815,42.0
39.759,-0.528,4.541,59.0
39.545,-0.518,4.298,63.0
42.476,-0.554,5.826,11.0
39.986,-0.514,5.261,30.0
39.945,-0.505,5.034,60.0
40.109,-0.499,4.828,41.0
39.968,-0.49,4.59,48.0
39.31,-0.474,4.297,59.0
0.0,0.0,0.0,0.0
40.009,-0.472,5.29,46.0
39.955,-0.464,5.06,47.0
40.067,-0.457,4.847,31.0
39.911,-0.447,4.607,55.0
39.553,-0.435,4.347,52.0
0.0,0.0,0.0,0.0
40.052,-0.43,5.319,46.0
39.933,-0.42,5.08,54.0
39.929,-0.412,4.853,37.0
40.016,-0.405,4.642,48.0
39.522,-0.392,4.366,54.0
40.996,-0.404,5.695,42.0
40.037,-0.387,5.338,66.0
39.762,-0.376,5.079,59.0
39.807,-0.368,4.859,41.0
40.103,-0.363,4.672,45.0
39.732,-0.351,4.409,51.0
40.123,-0.352,5.594,74.0
40.116,-0.343,5.368,64.0
39.68,-0.332,5.088,39.0
39.707,-0.325,4.865,58.0
43.5,-0.347,5.088,22.0
40.284,-0.313,4.488,45.0
40.603,-0.312,5.679,60.0
39.717,-0.297,5.332,60.0
42.326,-0.307,5.445,43.0
39.624,-0.28,4.872,57.0
39.846,-0.273,4.677,36.0
40.36,-0.269,4.513,56.0
40.256,-0.264,5.647,66.0
39.527,-0.251,5.323,64.0
39.84,-0.245,5.141,57.0
39.613,-0.236,4.886,46.0
39.69,-0.229,4.674,37.0
40.329,-0.224,4.524,53.0
40.227,-0.219,5.658,68.0
39.485,-0.207,5.331,59.0
39.452,-0.199,5.105,46.0
39.625,-0.192,4.901,55.0
39.71,-0.185,4.689,38.0
40.507,-0.18,4.557,46.0
40.194,-0.174,5.666,54.0
39.443,-0.163,5.337,68.0
39.522,-0.155,5.126,62.0
39.582,-0.147,4.907,59.0
46.832,-0.165,5.543,4.0
40.338,-0.134,4.549,37.0
39.959,-0.127,5.644,65.0
39.508,-0.118,5.356,58.0
39.368,-0.11,5.115,70.0
39.622,-0.103,4.921,69.0
39.86,-0.096,4.727,41.0
40.145,-0.089,4.536,34.0
39.932,-0.083,5.649,50.0
39.495,-0.074,5.363,65.0
39.77,-0.067,5.176,62.0
39.613,-0.059,4.928,58.0
39.738,-0.051,4.72,56.0
40.156,-0.044,4.545,43.0
39.938,-0.037,5.656,69.0
39.507,-0.029,5.371,60.0
39.683,-0.021,5.171,52.0
39.558,-0.013,4.927,46.0
39.917,-0.006,4.747,58.0
39.854,0.001,4.516,62.0
40.164,0.008,5.693,62.0
39.768,0.015,5.411,70.0
39.589,0.023,5.163,59.0
39.462,0.031,4.919,38.0
39.9,0.038,4.749,38.0
40.063,0.046,4.543,40.0
39.909,0.054,5.66,57.0
39.73,0.061,5.409,62.0
39.673,0.069,5.176,59.0
39.332,0.075,4.905,59.0
43.696,0.092,5.203,12.0
39.93,0.092,4.529,61.0
39.909,0.099,5.662,68.0
39.705,0.106,5.407,68.0
39.875,0.114,5.203,48.0
39.443,0.121,4.919,38.0
43.834,0.142,5.219,25.0
39.827,0.136,4.517,51.0
40.441,0.147,5.737,55.0
39.808,0.152,5.42,41.0
40.377,0.162,5.268,34.0
39.682,0.166,4.948,44.0
39.903,0.175,4.749,51.0
49.977,0.228,5.666,4.0
40.495,0.194,5.742,38.0
39.627,0.196,5.392,52.0
39.515,0.203,5.152,65.0
40.075,0.213,4.993,52.0
39.664,0.218,4.717,61.0
40.472,0.23,4.584,41.0
40.637,0.24,5.757,55.0
39.494,0.241,5.37,54.0
39.535,0.248,5.15,32.0
39.809,0.257,4.955,61.0
39.575,0.263,4.701,51.0
40.207,0.274,4.549,52.0
40.502,0.285,5.732,29.0
39.466,0.285,5.36,65.0
46.965,0.348,6.11,5.0
39.788,0.302,4.945,66.0
39.803,0.308,4.721,53.0
40.156,0.318,4.535,52.0
39.552,0.324,5.59,67.0
39.333,0.328,5.333,58.0
39.477,0.336,5.127,41.0
46.984,0.408,5.829,7.0
39.62,0.351,4.69,67.0
40.336,0.364,4.546,48.0
39.246,0.364,5.537,58.0
39.332,0.372,5.323,54.0
39.407,0.379,5.108,63.0
39.801,0.39,4.927,40.0
40.086,0.399,4.734,49.0
40.959,0.416,4.604,31.0
39.286,0.409,5.531,55.0
38.725,0.409,5.229,59.0
39.375,0.423,5.091,65.0
40.181,0.438,4.962,58.0
40.033,0.443,4.715,39.0
40.746,0.458,4.567,48.0
39.147,0.451,5.498,67.0
38.724,0.453,5.215,61.0
39.001,0.462,5.029,46.0
40.284,0.484,4.96,15.0
40.787,0.496,4.789,16.0
40.969,0.506,4.577,47.0
39.083,0.493,5.473,47.0
38.764,0.495,5.206,48.0
38.956,0.504,5.008,55.0
43.313,0.567,5.315,18.0
41.176,0.546,4.817,46.0
41.523,0.557,4.621,22.0
38.731,0.531,5.407,56.0
38.794,0.538,5.193,51.0
39.032,0.547,5.0,61.0
39.743,0.563,4.859,46.0
41.662,0.597,4.855,59.0
41.486,0.601,4.598,43.0
38.551,0.57,5.364,58.0
38.899,0.581,5.188,48.0
39.08,0.59,4.987,47.0
0.0,0.0,0.0,0.0
40.79,0.628,4.733,60.0
41.549,0.646,4.584,39.0
38.325,0.608,5.312,68.0
38.912,0.622,5.169,54.0
39.439,0.637,5.011,35.0
0.0,0.0,0.0,0.0
40.59,0.668,4.688,17.0
41.418,0.687,4.546,39.0
38.542,0.652,5.32,54.0
38.552,0.657,5.099,47.0
38.87,0.668,4.917,61.0
0.0,0.0,0.0,0.0
40.424,0.706,4.645,49.0
41.357,0.729,4.515,23.0
38.369,0.688,5.273,59.0
38.351,0.694,5.048,48.0
38.926,0.71,4.899,64.0
41.997,0.772,5.04,45.0
47.438,0.878,5.42,6.0
41.402,0.772,4.493,16.0
38.654,0.733,5.286,45.0
38.335,0.732,5.021,66.0
38.884,0.748,4.868,61.0
0.0,0.0,0.0,0.0
40.987,0.8,4.655,37.0
42.252,0.83,4.557,25.0
38.618,0.771,5.255,64.0
38.689,0.778,5.04,46.0
39.021,0.79,4.858,60.0
0.0,0.0,0.0,0.0
41.437,0.849,4.677,51.0
48.521,1.001,5.198,12.0
38.797,0.813,5.25,46.0
39.336,0.829,5.095,15.0
0.0,0.0,0.0,0.0
41.511,0.885,4.893,48.0
48.529,1.042,5.44,13.0
48.464,1.047,5.155,26.0
38.925,0.853,5.237,58.0
38.929,0.858,5.012,34.0
43.091,0.956,5.298,8.0
48.514,1.081,5.68,6.0
41.396,0.928,4.607,31.0
48.501,1.094,5.119,6.0
48.413,1.107,6.474,6.0
38.455,0.884,4.919,46.0
38.032,0.879,4.644,47.0
41.721,0.969,4.849,32.0
49.193,1.149,5.434,5.0
41.314,0.969,4.326,40.0
38.738,0.923,5.146,47.0
37.902,0.907,4.815,54.0
0.0,0.0,0.0,0.0
41.539,1.003,4.791,46.0
53.793,1.306,5.894,13.0
41.107,1.002,4.267,31.0
38.618,0.955,5.095,54.0
37.877,0.941,4.776,58.0
38.013,0.949,4.573,51.0
42.408,1.063,4.851,40.0
49.694,1.251,5.398,5.0
0.0,0.0,0.0,0.0
38.129,0.977,4.993,58.0
37.76,0.972,4.725,65.0
38.145,0.985,4.552,45.0
42.24,1.096,4.791,53.0
41.361,1.077,4.452,19.0
49.255,1.288,5.018,14.0
38.088,1.009,4.95,54.0
37.697,1.002,4.68,62.0
38.114,1.018,4.51,39.0
42.319,1.134,4.758,18.0
0.0,0.0,0.0,0.0
49.353,1.333,4.979,5.0
38.023,1.04,4.902,73.0
37.78,1.036,4.651,59.0
42.341,1.166,4.966,17.0
42.064,1.162,4.685,34.0
0.0,0.0,0.0,0.0
40.528,1.127,4.046,38.0
38.231,1.077,4.888,61.0
37.785,1.067,4.61,62.0
38.009,1.077,4.417,37.0
42.024,1.195,4.636,39.0
41.013,1.17,4.286,48.0
62.751,1.795,6.196,14.0
37.919,1.098,4.806,62.0
37.898,1.101,4.582,36.0
42.221,1.229,4.859,11.0
41.353,1.208,4.515,3.0
40.865,1.197,4.225,62.0
42.852,1.259,4.183,30.0
37.89,1.126,4.759,47.0
41.092,1.225,4.921,4.0
37.931,1.133,4.322,35.0
41.492,1.243,4.482,16.0
40.87,1.227,4.178,40.0
42.807,1.29,4.129,41.0
37.783,1.151,4.7,59.0
38.005,1.161,4.506,34.0
41.945,1.284,4.729,17.0
42.465,1.303,4.536,17.0
40.887,1.258,4.131,30.0
42.604,1.314,4.058,40.0
37.641,1.173,4.637,69.0
37.859,1.183,4.443,55.0
42.376,1.327,4.726,6.0
41.774,1.311,4.411,15.0
40.865,1.285,4.078,45.0
63.635,2.006,5.983,8.0
37.866,1.206,4.617,48.0
37.797,1.206,4.388,69.0
38.349,1.227,4.228,42.0
41.448,1.329,4.324,29.0
42.655,1.37,4.203,3.0
40.299,1.297,3.738,32.0
37.954,1.234,4.579,45.0
38.074,1.24,4.371,41.0
38.281,1.249,4.171,58.0
41.354,1.352,4.262,12.0
61.109,2.001,5.942,18.0
67.548,2.216,6.178,13.0
37.734,1.25,4.502,60.0
38.059,1.263,4.319,48.0
38.303,1.273,4.123,46.0
41.163,1.371,4.187,35.0
61.061,2.036,5.857,34.0
61.022,2.038,5.499,57.0
37.681,1.271,4.444,61.0
37.973,1.282,4.257,54.0
38.271,1.294,4.067,38.0
41.198,1.395,4.135,11.0
60.893,2.065,5.757,60.0
61.037,2.074,5.417,6.0
37.839,1.297,4.411,60.0
38.35,1.316,4.246,37.0
41.575,1.429,4.361,19.0
52.391,1.803,5.185,5.0
73.467,2.533,6.843,13.0
56.048,1.934,4.896,81.0
38.022,1.324,4.378,66.0
38.388,1.338,4.196,53.0
41.392,1.444,4.283,16.0
52.474,1.833,5.119,5.0
67.766,2.37,6.216,35.0
56.046,1.962,4.816,18.0
37.991,1.342,4.319,62.0
38.431,1.358,4.145,30.0
41.259,1.459,4.209,36.0
42.649,1.51,4.098,16.0
56.02,1.985,5.058,54.0
62.171,2.205,5.252,15.0
38.01,1.36,4.266,53.0
41.986,1.503,4.467,17.0
0.0,0.0,0.0,0.0
42.634,1.528,4.034,37.0
56.014,2.01,4.974,72.0
62.172,2.233,5.161,83.0
38.266,1.385,4.237,59.0
41.642,1.508,4.367,33.0
42.589,1.543,4.217,8.0
42.568,1.544,3.963,2.0
62.162,2.256,5.426,57.0
62.189,2.258,5.067,93.0
38.5,1.409,4.204,69.0
55.703,2.04,5.756,22.0
42.641,1.562,4.157,15.0
55.953,2.051,5.124,86.0
62.148,2.278,5.33,58.0
55.386,2.031,4.428,58.0
38.567,1.425,4.151,35.0
42.591,1.574,4.335,18.0
55.908,2.067,5.365,22.0
55.973,2.07,5.039,77.0
62.174,2.3,5.236,13.0
64.81,2.398,5.082,17.0
41.662,1.553,4.419,19.0
62.044,2.313,6.218,51.0
55.921,2.085,5.277,70.0
62.179,2.319,5.499,62.0
64.485,2.405,5.327,15.0
54.36,2.028,4.175,49.0
62.025,2.33,6.478,20.0
61.876,2.324,6.101,36.0
55.937,2.101,5.188,76.0
67.853,2.549,5.891,9.0
55.356,2.079,4.484,63.0
54.302,2.04,4.083,61.0
0.0,0.0,0.0,0.0
55.858,2.112,5.416,29.0
62.174,2.35,5.666,16.0
64.625,2.443,5.506,27.0
54.409,2.056,4.319,39.0
53.968,2.039,3.97,46.0
42.847,1.629,4.335,9.0
55.916,2.126,5.33,58.0
68.043,2.586,6.088,22.0
64.586,2.454,5.396,8.0
54.354,2.064,4.225,82.0
54.02,2.051,3.885,61.0
56.243,2.149,5.596,10.0
56.079,2.141,5.253,15.0
68.051,2.598,5.976,16.0
55.399,2.114,4.536,48.0
54.259,2.069,4.127,63.0
54.127,2.063,3.802,62.0
55.923,2.144,5.47,32.0
67.839,2.6,6.238,18.0
64.747,2.479,5.576,28.0
54.246,2.076,4.349,49.0
53.884,2.061,4.007,59.0
65.384,2.5,4.483,12.0
56.168,2.159,5.398,45.0
67.992,2.612,6.137,33.0
64.685,2.483,5.461,11.0
54.066,2.074,4.243,69.0
53.963,2.068,3.921,59.0
73.567,2.818,4.918,19.0
56.201,2.164,5.304,11.0
67.92,2.613,6.012,19.0
0.0,0.0,0.0,0.0
54.099,2.077,4.152,52.0
54.105,2.076,3.838,49.0
73.359,2.813,4.778,20.0
67.732,2.609,6.274,8.0
64.749,2.492,5.618,28.0
54.017,2.077,4.372,28.0
53.878,2.069,4.041,59.0
65.356,2.507,4.522,8.0
73.325,2.811,4.648,31.0
67.982,2.618,6.178,29.0
64.723,2.489,5.503,17.0
54.018,2.075,4.278,63.0
53.923,2.069,3.95,63.0
73.703,2.825,4.97,16.0
73.307,2.806,4.518,17.0
67.926,2.612,6.052,19.0
55.425,2.128,4.614,67.0
54.188,2.078,4.194,71.0
54.074,2.071,3.865,55.0
73.341,2.806,4.816,19.0
65.023,2.484,3.892,39.0
68.027,2.61,5.94,8.0
54.646,2.093,4.452,30.0
54.088,2.069,4.091,48.0
54.162,2.069,3.775,56.0
73.303,2.795,4.683,28.0
73.329,2.792,4.259,20.0
64.703,2.473,5.533,24.0
54.356,2.074,4.33,59.0
53.914,2.054,3.98,59.0
73.748,2.806,5.008,21.0
73.326,2.785,4.553,19.0
73.442,2.785,4.134,39.0
55.447,2.11,4.641,69.0
54.357,2.065,4.232,85.0
54.04,2.049,3.892,68.0
73.431,2.779,4.853,22.0
64.823,2.449,3.908,39.0
73.531,2.774,4.006,31.0
55.423,2.097,4.537,64.0
54.323,2.052,4.13,72.0
54.142,2.041,3.801,77.0
73.305,2.757,4.712,15.0
73.336,2.754,4.288,23.0
73.706,2.762,3.882,28.0
54.884,2.063,4.394,30.0
54.139,2.03,4.018,41.0
54.2,2.028,3.706,64.0
64.801,2.421,4.047,33.0
73.399,2.736,4.158,46.0
73.71,2.742,3.748,9.0
54.4,2.029,4.255,21.0
54.166,2.015,3.92,42.0
65.199,2.42,4.339,17.0
64.749,2.398,3.925,39.0
73.608,2.721,4.034,49.0
133.727,4.933,6.552,24.0
54.356,2.009,4.151,16.0
54.197,1.998,3.822,70.0
73.311,2.696,4.743,16.0
73.799,2.708,4.338,9.0
73.749,2.7,3.906,39.0
123.842,4.523,5.841,25.0
65.293,2.389,4.866,30.0
