X,Y,Z,Reflectivity
39.735,-0.963,3.823,62.0
39.576,-0.963,4.93,62.0
39.291,-0.949,4.681,65.0
39.551,-0.948,4.497,61.0
39.034,-0.93,4.223,67.0
39.406,-0.932,4.05,62.0
39.512,-0.927,3.847,61.0
39.526,-0.931,4.971,72.0
39.487,-0.923,4.751,60.0
39.684,-0.92,4.558,51.0
39.097,-0.9,4.275,58.0
39.389,-0.9,4.093,54.0
39.244,-0.89,3.866,59.0
39.538,-0.899,5.018,65.0
39.768,-0.897,4.83,59.0
39.342,-0.881,4.563,63.0
38.976,-0.865,4.305,59.0
39.638,-0.873,4.163,49.0
39.352,-0.86,3.92,48.0
39.499,-0.866,5.056,67.0
39.635,-0.861,4.857,62.0
39.407,-0.849,4.614,55.0
39.059,-0.835,4.356,59.0
39.609,-0.839,4.203,50.0
39.593,-0.832,3.986,49.0
41.819,-0.88,5.398,33.0
39.619,-0.826,4.897,49.0
39.312,-0.813,4.645,53.0
39.2,-0.804,4.413,61.0
39.111,-0.794,4.19,50.0
39.737,-0.8,4.041,52.0
41.849,-0.844,5.445,57.0
39.439,-0.788,4.915,50.0
39.259,-0.777,4.678,56.0
39.276,-0.77,4.461,73.0
39.179,-0.761,4.236,59.0
39.285,-0.756,4.034,52.0
41.672,-0.803,5.463,36.0
39.604,-0.756,4.974,36.0
39.337,-0.743,4.725,52.0
39.415,-0.737,4.514,60.0
39.041,-0.723,4.258,68.0
39.259,-0.72,4.068,71.0
39.946,-0.733,5.275,45.0
39.601,-0.719,5.011,57.0
39.246,-0.705,4.751,63.0
39.826,-0.708,4.598,48.0
39.328,-0.692,4.326,46.0
39.251,-0.683,4.103,60.0
39.975,-0.696,5.315,33.0
39.842,-0.686,5.078,40.0
39.484,-0.672,4.814,55.0
39.354,-0.662,4.578,49.0
39.159,-0.651,4.341,57.0
39.432,-0.648,4.156,47.0
43.106,-0.709,5.769,3.0
41.945,-0.682,5.382,34.0
39.645,-0.637,4.868,47.0
39.719,-0.63,4.654,55.0
39.375,-0.617,4.398,52.0
39.64,-0.613,4.21,50.0
39.944,-0.618,5.378,62.0
39.891,-0.609,5.151,57.0
39.575,-0.597,4.891,54.0
39.822,-0.592,4.698,59.0
39.359,-0.577,4.427,67.0
39.896,-0.578,4.268,16.0
39.962,-0.578,5.413,58.0
39.967,-0.57,5.191,67.0
40.02,-0.563,4.977,39.0
39.928,-0.554,4.741,49.0
39.66,-0.542,4.49,52.0
39.772,-0.536,4.284,24.0
39.966,-0.537,5.443,29.0
40.012,-0.53,5.227,37.0
39.988,-0.522,5.002,56.0
40.087,-0.515,4.788,51.0
39.825,-0.504,4.537,48.0
39.366,-0.49,4.268,40.0
40.053,-0.497,5.483,36.0
40.005,-0.488,5.253,66.0
39.951,-0.479,5.024,70.0
40.03,-0.472,4.808,46.0
39.94,-0.463,4.577,49.0
39.491,-0.45,4.307,70.0
40.84,-0.463,5.617,49.0
39.933,-0.445,5.27,55.0
39.997,-0.438,5.055,59.0
40.082,-0.431,4.84,17.0
40.049,-0.422,4.614,43.0
39.574,-0.409,4.34,62.0
0.0,0.0,0.0,0.0
40.01,-0.404,5.304,59.0
39.765,-0.393,5.05,43.0
42.338,-0.41,5.137,4.0
40.227,-0.381,4.657,45.0
39.894,-0.37,4.398,55.0
40.149,-0.37,5.569,52.0
40.094,-0.361,5.337,40.0
39.754,-0.35,5.07,48.0
39.666,-0.341,4.833,62.0
0.0,0.0,0.0,0.0
40.353,-0.331,4.469,46.0
40.835,-0.332,5.685,70.0
39.926,-0.316,5.335,68.0
39.598,-0.306,5.069,50.0
39.668,-0.299,4.853,46.0
43.659,-0.32,5.098,3.0
40.183,-0.287,4.469,54.0
40.227,-0.283,5.619,66.0
39.591,-0.271,5.308,69.0
39.745,-0.264,5.106,44.0
39.64,-0.255,4.867,53.0
39.581,-0.247,4.639,61.0
40.239,-0.243,4.492,54.0
40.083,-0.238,5.616,58.0
39.463,-0.226,5.307,59.0
39.739,-0.22,5.121,50.0
39.716,-0.212,4.892,46.0
39.593,-0.203,4.656,43.0
40.389,-0.199,4.524,54.0
40.06,-0.193,5.628,58.0
39.478,-0.182,5.324,56.0
39.628,-0.175,5.121,61.0
39.558,-0.166,4.887,55.0
39.687,-0.16,4.681,52.0
40.29,-0.154,4.527,43.0
39.898,-0.147,5.619,57.0
39.559,-0.138,5.348,53.0
39.44,-0.129,5.11,72.0
39.51,-0.122,4.893,55.0
39.88,-0.115,4.715,45.0
40.35,-0.109,4.545,43.0
39.889,-0.102,5.629,55.0
39.668,-0.093,5.373,58.0
39.725,-0.086,5.157,59.0
39.554,-0.078,4.908,58.0
40.035,-0.071,4.743,43.0
40.34,-0.063,4.554,36.0
39.973,-0.057,5.65,67.0
39.663,-0.048,5.382,55.0
39.621,-0.041,5.152,54.0
39.606,-0.033,4.923,52.0
39.998,-0.026,4.747,55.0
40.127,-0.018,4.538,52.0
40.207,-0.012,5.691,61.0
39.73,-0.004,5.398,65.0
39.525,0.003,5.147,56.0
39.405,0.011,4.905,66.0
40.033,0.018,4.758,36.0
39.995,0.026,4.529,43.0
40.069,0.034,5.677,47.0
39.733,0.041,5.404,66.0
39.533,0.048,5.153,65.0
39.305,0.056,4.897,70.0
39.848,0.064,4.74,43.0
40.292,0.072,4.566,38.0
39.885,0.079,5.655,73.0
39.733,0.086,5.407,71.0
39.787,0.094,5.189,54.0
39.546,0.1,4.93,28.0
43.648,0.119,5.195,11.0
39.748,0.116,4.507,48.0
40.414,0.126,5.732,46.0
39.859,0.132,5.426,37.0
40.229,0.141,5.248,61.0
39.601,0.145,4.938,42.0
39.715,0.153,4.728,48.0
40.315,0.164,4.572,43.0
40.342,0.172,5.722,52.0
39.672,0.176,5.401,64.0
39.601,0.183,5.166,65.0
40.218,0.194,5.014,53.0
39.81,0.199,4.738,27.0
40.489,0.21,4.59,18.0
40.641,0.22,5.762,48.0
39.503,0.221,5.375,58.0
39.517,0.228,5.152,37.0
39.847,0.238,4.965,57.0
39.873,0.245,4.742,53.0
40.132,0.254,4.546,49.0
40.8,0.268,5.781,32.0
39.529,0.266,5.375,62.0
39.525,0.274,5.149,60.0
39.808,0.283,4.955,68.0
39.889,0.29,4.739,58.0
40.108,0.299,4.538,54.0
39.993,0.308,5.661,35.0
39.409,0.31,5.353,60.0
39.507,0.318,5.141,37.0
40.022,0.329,4.976,72.0
39.802,0.335,4.722,53.0
40.592,0.349,4.586,42.0
39.285,0.347,5.553,61.0
39.375,0.355,5.34,53.0
39.427,0.362,5.122,53.0
39.742,0.372,4.932,34.0
39.988,0.381,4.735,37.0
40.582,0.394,4.576,48.0
39.054,0.389,5.512,56.0
38.728,0.392,5.243,53.0
39.38,0.406,5.106,66.0
40.22,0.421,4.982,45.0
39.97,0.425,4.723,59.0
40.604,0.439,4.567,43.0
39.125,0.433,5.511,71.0
38.672,0.435,5.225,57.0
39.161,0.447,5.066,49.0
43.054,0.499,5.32,18.0
40.62,0.477,4.787,20.0
41.094,0.491,4.609,55.0
39.291,0.479,5.521,61.0
38.7,0.478,5.216,50.0
38.984,0.488,5.03,58.0
40.572,0.515,4.999,15.0
41.157,0.529,4.836,44.0
41.375,0.539,4.626,21.0
38.755,0.516,5.431,52.0
38.736,0.521,5.206,53.0
39.046,0.532,5.023,61.0
39.766,0.548,4.884,57.0
41.539,0.579,4.864,44.0
41.517,0.585,4.625,34.0
38.634,0.556,5.398,64.0
38.757,0.564,5.192,48.0
39.055,0.574,5.007,64.0
0.0,0.0,0.0,0.0
41.231,0.62,4.81,53.0
41.549,0.631,4.61,38.0
38.375,0.594,5.344,57.0
38.774,0.606,5.176,63.0
38.94,0.615,4.974,46.0
41.97,0.669,5.116,15.0
40.434,0.65,4.697,42.0
41.255,0.67,4.557,43.0
38.334,0.634,5.319,63.0
38.753,0.647,5.153,49.0
38.976,0.656,4.958,49.0
42.047,0.715,5.103,33.0
40.718,0.698,4.709,30.0
41.276,0.713,4.537,39.0
38.431,0.676,5.311,44.0
38.462,0.682,5.093,50.0
38.964,0.697,4.935,53.0
42.001,0.758,5.073,23.0
40.488,0.736,4.659,65.0
43.014,0.788,4.703,33.0
38.455,0.716,5.291,59.0
38.449,0.722,5.068,50.0
38.814,0.734,4.892,59.0
41.78,0.797,5.021,34.0
47.537,0.913,5.44,4.0
0.0,0.0,0.0,0.0
38.482,0.757,5.27,74.0
39.006,0.772,5.116,37.0
38.921,0.776,4.88,58.0
0.0,0.0,0.0,0.0
40.915,0.827,4.655,46.0
48.554,0.987,5.246,11.0
38.854,0.803,5.295,46.0
39.103,0.813,5.102,30.0
37.963,0.795,4.734,64.0
41.466,0.873,4.927,53.0
41.311,0.876,4.671,50.0
48.488,1.035,5.204,26.0
38.884,0.842,5.27,50.0
39.086,0.851,5.071,14.0
38.216,0.837,4.737,47.0
42.21,0.93,4.984,44.0
48.586,1.077,5.457,7.0
48.463,1.081,5.165,40.0
38.991,0.882,5.255,46.0
48.205,1.097,6.217,22.0
37.909,0.867,4.669,55.0
42.048,0.967,4.932,22.0
41.434,0.958,4.621,29.0
41.485,0.964,4.389,47.0
38.877,0.917,5.208,57.0
38.34,0.909,4.913,40.0
37.987,0.905,4.648,41.0
41.589,0.996,4.844,48.0
53.788,1.294,5.955,19.0
49.477,1.196,5.193,8.0
38.811,0.952,5.165,45.0
37.994,0.936,4.836,64.0
37.861,0.937,4.599,56.0
42.442,1.055,4.906,22.0
57.096,1.427,6.271,8.0
41.276,1.036,4.296,33.0
41.083,1.045,5.431,27.0
37.968,0.97,4.798,48.0
38.022,0.976,4.584,60.0
42.339,1.091,4.856,25.0
41.219,1.067,4.489,34.0
49.231,1.28,5.078,8.0
38.245,1.007,5.02,39.0
37.733,0.997,4.733,59.0
38.065,1.011,4.553,68.0
41.582,1.108,4.729,4.0
41.202,1.102,4.448,28.0
40.772,1.095,4.166,16.0
38.019,1.034,4.953,53.0
37.854,1.033,4.711,50.0
41.866,1.147,4.967,16.0
49.819,1.371,5.617,6.0
41.162,1.137,4.402,49.0
40.701,1.128,4.118,28.0
38.301,1.074,4.95,57.0
37.826,1.065,4.668,72.0
41.881,1.183,4.926,16.0
42.31,1.199,4.726,40.0
41.528,1.181,4.399,45.0
40.667,1.16,4.073,41.0
37.926,1.095,4.862,70.0
37.958,1.1,4.644,50.0
37.913,1.102,4.419,39.0
38.421,1.12,4.251,12.0
40.946,1.197,4.293,62.0
40.791,1.196,4.041,35.0
38.129,1.132,4.846,49.0
38.228,1.137,4.635,36.0
37.901,1.131,4.375,48.0
38.365,1.148,4.202,51.0
40.957,1.229,4.249,48.0
42.948,1.293,4.207,12.0
38.138,1.161,4.804,52.0
38.213,1.166,4.59,41.0
37.851,1.158,4.326,43.0
38.302,1.176,4.151,19.0
41.317,1.271,4.239,16.0
42.765,1.319,4.14,36.0
37.688,1.176,4.703,67.0
38.064,1.19,4.528,52.0
38.173,1.196,4.318,54.0
38.298,1.203,4.106,47.0
40.945,1.289,4.152,48.0
42.801,1.351,4.093,17.0
37.767,1.205,4.667,54.0
37.796,1.209,4.45,47.0
38.277,1.226,4.284,33.0
38.305,1.23,4.06,11.0
40.849,1.315,4.093,15.0
40.336,1.301,3.808,10.0
37.732,1.229,4.616,68.0
37.835,1.235,4.408,65.0
38.305,1.253,4.239,47.0
41.518,1.361,4.349,13.0
42.622,1.4,4.217,2.0
67.579,2.225,6.296,9.0
37.887,1.26,4.587,56.0
37.94,1.263,4.372,65.0
38.393,1.281,4.2,42.0
41.909,1.401,4.336,18.0
42.638,1.428,4.164,17.0
61.047,2.048,5.609,53.0
37.833,1.282,4.53,49.0
38.056,1.291,4.335,61.0
38.437,1.306,4.154,55.0
60.786,2.069,6.21,12.0
60.722,2.07,5.851,22.0
60.983,2.082,5.523,23.0
37.649,1.298,4.458,63.0
38.017,1.312,4.279,60.0
38.409,1.328,4.1,24.0
0.0,0.0,0.0,0.0
42.639,1.478,4.051,14.0
56.053,1.946,5.001,64.0
37.775,1.323,4.421,65.0
38.021,1.334,4.228,68.0
41.594,1.461,4.382,27.0
42.745,1.503,4.25,12.0
67.747,2.385,6.343,17.0
56.035,1.976,4.921,70.0
37.912,1.349,4.384,51.0
38.406,1.367,4.216,67.0
41.941,1.495,4.359,17.0
42.575,1.519,4.173,2.0
67.682,2.418,6.241,25.0
62.169,2.224,5.371,22.0
37.942,1.368,4.332,51.0
38.557,1.392,4.177,56.0
55.695,2.013,5.709,8.0
42.613,1.541,4.115,28.0
55.974,2.027,5.081,67.0
62.155,2.253,5.281,72.0
38.216,1.396,4.308,46.0
41.628,1.522,4.449,7.0
55.726,2.04,5.63,46.0
52.684,1.93,5.01,8.0
55.984,2.052,4.998,75.0
62.171,2.281,5.19,56.0
42.458,1.57,4.722,3.0
41.666,1.542,4.39,22.0
55.767,2.065,5.55,33.0
55.936,2.072,5.235,69.0
62.191,2.306,5.459,62.0
64.54,2.394,5.29,14.0
42.554,1.59,4.668,11.0
61.997,2.318,6.438,20.0
55.83,2.088,5.471,29.0
55.948,2.094,5.151,85.0
64.749,2.424,5.585,11.0
55.328,2.072,4.451,53.0
61.991,2.34,6.704,26.0
0.0,0.0,0.0,0.0
55.871,2.11,5.388,55.0
62.171,2.349,5.627,21.0
64.586,2.441,5.47,27.0
54.373,2.055,4.289,53.0
41.591,1.583,4.432,17.0
42.787,1.629,4.309,4.0
55.956,2.131,5.308,50.0
67.977,2.589,6.046,19.0
55.434,2.111,4.608,67.0
54.341,2.07,4.201,84.0
41.717,1.6,4.379,15.0
56.187,2.155,5.569,30.0
56.224,2.156,5.245,5.0
67.982,2.607,5.938,11.0
0.0,0.0,0.0,0.0
54.03,2.072,4.091,46.0
63.989,2.471,6.613,12.0
56.001,2.162,5.46,30.0
67.807,2.618,6.215,9.0
64.665,2.496,5.544,28.0
53.752,2.074,4.295,51.0
53.856,2.078,3.991,67.0
56.395,2.19,5.736,9.0
56.167,2.18,5.384,13.0
67.916,2.636,6.115,31.0
55.356,2.147,4.656,45.0
53.71,2.083,4.205,76.0
53.986,2.093,3.913,20.0
56.235,2.193,5.627,31.0
53.075,2.069,5.0,2.0
67.909,2.647,6.001,28.0
53.634,2.089,4.422,21.0
53.767,2.093,4.12,90.0
73.846,2.875,5.23,17.0
55.92,2.189,5.502,41.0
67.894,2.656,6.283,22.0
64.732,2.531,5.613,12.0
53.58,2.094,4.327,64.0
53.815,2.102,4.033,60.0
65.373,2.552,4.521,17.0
41.232,1.618,3.987,5.0
68.014,2.668,6.178,23.0
55.45,2.173,4.713,34.0
53.682,2.102,4.244,92.0
65.451,2.562,4.794,12.0
73.409,2.872,4.95,10.0
53.271,2.094,5.059,6.0
67.969,2.67,6.057,25.0
53.421,2.097,4.449,17.0
53.721,2.107,4.155,86.0
73.749,2.89,5.276,13.0
73.256,2.868,4.815,29.0
67.856,2.67,6.327,21.0
67.88,2.668,5.932,19.0
53.538,2.102,4.366,50.0
53.788,2.11,4.067,66.0
73.671,2.888,5.142,12.0
73.289,2.87,4.69,29.0
67.981,2.674,6.219,24.0
55.488,2.18,4.752,6.0
53.647,2.105,4.281,80.0
65.446,2.565,4.834,12.0
65.318,2.557,4.444,13.0
73.274,2.866,4.559,29.0
67.989,2.67,6.097,20.0
55.451,2.175,4.649,11.0
53.71,2.104,4.189,92.0
65.438,2.561,4.717,12.0
73.251,2.863,4.854,27.0
73.273,2.86,4.43,10.0
67.891,2.66,5.968,25.0
53.549,2.096,4.394,32.0
53.787,2.102,4.1,83.0
65.382,2.551,4.597,10.0
73.327,2.858,4.728,34.0
73.183,2.848,4.294,21.0
64.653,2.525,5.568,10.0
53.628,2.091,4.305,78.0
53.87,2.097,4.01,55.0
65.351,2.54,4.477,26.0
73.33,2.846,4.597,24.0
73.465,2.848,4.179,46.0
55.286,2.15,4.661,47.0
53.708,2.085,4.213,77.0
53.985,2.092,3.92,24.0
73.276,2.835,4.888,22.0
73.246,2.829,4.46,14.0
73.529,2.835,4.05,43.0
55.421,2.144,4.572,9.0
53.899,2.081,4.131,48.0
54.132,2.085,3.833,30.0
73.3,2.819,4.757,20.0
65.119,2.5,3.847,33.0
73.649,2.822,3.923,34.0
54.08,2.078,4.361,35.0
53.875,2.066,4.03,59.0
65.333,2.5,4.507,9.0
73.328,2.8,4.624,14.0
73.365,2.797,4.201,47.0
73.724,2.805,3.793,19.0
54.354,2.072,4.284,80.0
53.983,2.054,3.941,62.0
73.565,2.793,4.941,26.0
73.34,2.778,4.491,10.0
73.47,2.778,4.072,49.0
157.573,5.945,7.819,10.0
54.353,2.054,4.184,81.0
54.112,2.041,3.85,73.0
73.29,2.758,4.788,25.0
65.078,2.443,3.865,40.0
73.715,2.761,3.951,42.0
123.756,4.625,5.913,17.0
54.284,2.032,4.078,61.0
54.179,2.023,3.754,78.0
64.85,2.415,4.116,37.0
73.694,2.738,4.241,22.0
73.809,2.735,3.818,29.0
123.812,4.577,5.686,20.0
54.276,2.009,3.977,63.0
54.206,2.001,3.655,58.0
64.745,2.384,3.988,31.0
73.608,2.703,4.098,45.0
133.821,4.902,6.675,26.0
153.213,5.597,6.752,27.0
54.245,1.983,3.872,46.0
64.987,2.369,4.26,27.0
73.595,2.676,4.396,29.0
73.758,2.674,3.969,49.0
123.991,4.482,5.953,31.0
152.59,5.501,6.442,28.0
54.223,1.956,3.77,56.0
73.321,2.637,4.672,18.0
73.669,2.641,4.265,42.0
73.831,2.639,3.837,38.0
123.99,4.418,5.723,17.0
152.727,5.427,6.165,16.0
54.209,1.926,3.669,75.0
64.958,2.301,4.018,26.0
73.773,2.605,4.134,40.0
124.72,4.39,6.252,27.0
153.008,5.368,6.78,20.0
152.626,5.339,5.88,36.0
54.245,1.897,3.57,38.0
73.594,2.564,4.415,30.0
73.884,2.565,4.002,31.0
124.054,4.294,5.988,34.0
152.713,5.267,6.484,19.0
152.723,5.251,5.6,41.0
54.262,1.864,3.47,9.0
73.768,2.525,4.289,34.0
124.844,4.259,6.533,26.0
133.665,4.543,6.205,15.0
152.659,5.169,6.2,36.0
152.917,5.159,5.323,14.0
73.801,2.488,4.583,13.0
73.837,2.479,4.155,45.0
152.482,5.101,7.696,12.0
152.574,5.084,6.798,33.0
152.878,5.074,5.925,28.0
159.761,5.281,5.265,7.0
73.775,2.436,4.443,46.0
73.896,2.43,4.021,10.0
133.73,4.379,6.499,36.0
152.516,4.973,6.51,34.0
152.74,4.959,5.633,33.0
158.847,5.137,4.939,10.0
74.032,2.39,4.32,39.0
124.953,4.015,6.564,20.0
133.625,4.276,6.245,42.0
152.209,4.849,6.215,37.0
152.714,4.843,5.349,25.0
158.541,5.006,4.634,7.0
73.908,2.329,4.175,11.0
133.79,4.196,6.781,20.0
133.593,4.171,5.996,29.0
152.063,4.725,5.927,41.0
157.669,4.876,5.23,15.0
158.676,4.884,4.345,5.0
123.056,3.778,6.724,25.0
123.191,3.763,6.015,22.0
151.92,4.617,6.537,40.0
152.142,4.6,5.648,41.0
152.903,4.602,4.791,9.0
0.0,0.0,0.0,0.0
123.078,3.675,6.5,30.0
133.76,3.972,6.287,16.0
152.14,4.494,6.269,33.0
152.171,4.471,5.371,33.0
154.094,4.504,4.546,37.0
0.0,0.0,0.0,0.0
122.719,3.554,6.255,44.0
151.976,4.378,6.865,32.0
151.885,4.351,5.98,34.0
152.678,4.349,5.112,45.0
154.038,4.364,4.265,43.0
0.0,0.0,0.0,0.0
122.547,3.438,6.024,27.0
151.842,4.234,6.584,34.0
152.125,4.216,5.713,40.0
153.946,4.241,4.875,31.0
154.018,4.218,3.987,10.0
0.0,0.0,0.0,0.0
122.769,3.325,5.812,19.0
152.068,4.094,6.318,40.0
152.45,4.077,5.449,20.0
154.034,4.092,4.597,21.0
0.0,0.0,0.0,0.0
0.0,0.0,0.0,0.0
130.152,3.395,5.923,25.0
152.118,3.94,6.042,42.0
152.822,3.931,5.184,10.0
138.085,3.527,3.87,23.0
100.342,2.546,2.232,24.0
100.335,2.527,1.651,55.0
152.761,3.825,6.676,23.0
152.404,3.789,5.779,43.0
158.672,3.916,5.098,16.0
146.485,3.588,3.845,12.0
100.486,2.444,2.056,1.0
106.101,2.561,1.558,18.0
130.611,3.131,5.477,21.0
152.616,3.629,5.515,39.0
159.074,3.754,4.829,26.0
146.643,3.433,3.589,5.0
0.0,0.0,0.0,0.0
106.335,2.45,1.374,2.0
152.442,3.486,6.123,28.0
159.935,3.625,5.497,18.0
159.212,3.58,4.553,10.0
0.0,0.0,0.0,0.0
106.236,2.347,1.799,1.0
80.539,1.763,0.898,9.0
152.416,3.311,5.855,40.0
128.106,2.758,4.18,19.0
128.163,2.734,3.441,32.0
128.136,2.708,2.687,14.0
0.0,0.0,0.0,0.0
77.971,1.617,0.735,23.0
128.011,2.631,4.696,57.0
128.05,2.607,3.959,60.0
128.032,2.581,3.218,44.0
128.019,2.554,2.465,4.0
120.856,2.388,1.63,2.0
75.02,1.466,0.578,12.0
128.022,2.477,4.477,35.0
128.074,2.451,3.739,30.0
128.067,2.425,2.998,28.0
127.758,2.392,2.24,32.0
89.899,1.664,1.057,8.0
61.413,1.124,0.367,16.0
132.726,2.403,4.415,20.0
160.279,2.867,4.405,16.0
128.277,2.267,2.785,9.0
126.805,2.215,2.01,38.0
89.594,1.546,0.903,7.0
0.0,0.0,0.0,0.0
133.007,2.239,4.202,10.0
160.102,2.661,4.134,5.0
189.944,3.113,3.805,23.0
126.295,2.043,1.79,27.0
0.0,0.0,0.0,0.0
48.065,0.756,0.126,16.0
163.026,2.53,4.877,13.0
189.927,2.906,4.586,17.0
189.344,2.854,3.479,29.0
121.089,1.797,1.514,14.0
62.441,0.913,0.42,7.0
47.556,0.684,0.046,44.0
163.166,2.311,4.61,14.0
190.193,2.65,4.276,20.0
127.297,1.746,2.129,27.0
89.69,1.209,0.973,6.0
48.078,0.637,0.245,59.0
0.0,0.0,0.0,0.0
55.063,0.704,1.465,69.0
55.086,0.691,1.149,49.0
48.195,0.594,0.727,38.0
48.09,0.581,0.444,86.0
48.004,0.569,0.166,75.0
39.724,0.461,-0.09,15.0
48.196,0.548,1.205,63.0
48.146,0.536,0.927,86.0
48.106,0.524,0.649,103.0
48.051,0.512,0.366,93.0
47.912,0.5,0.09,55.0
38.712,0.394,-0.149,47.0
48.132,0.478,1.127,103.0
48.103,0.467,0.85,105.0
48.072,0.455,0.573,97.0
48.024,0.443,0.291,104.0
46.648,0.419,0.015,28.0
38.042,0.332,-0.206,24.0
48.122,0.408,1.052,125.0
48.094,0.396,0.775,115.0
48.067,0.384,0.498,99.0
48.049,0.372,0.217,80.0
44.352,0.332,-0.054,18.0
37.65,0.272,-0.262,5.0
48.123,0.336,0.978,102.0
48.116,0.323,0.701,62.0
48.157,0.312,0.425,56.0
48.135,0.3,0.144,46.0
39.618,0.237,-0.108,27.0
37.674,0.215,-0.32,0.0
48.206,0.264,0.908,41.0
59.292,0.309,0.775,124.0
59.305,0.294,0.435,89.0
47.886,0.225,0.072,22.0
38.945,0.173,-0.164,44.0
33.056,0.138,-0.329,1.0
79.464,0.313,1.379,152.0
79.458,0.291,0.923,150.0
75.779,0.258,0.444,10.0
0.0,0.0,0.0,0.0
38.505,0.111,-0.219,13.0
31.378,0.082,-0.359,1.0
79.456,0.188,1.264,153.0
79.45,0.166,0.807,150.0
58.795,0.107,0.26,9.0
0.0,0.0,0.0,0.0
38.206,0.049,-0.273,5.0
30.203,0.031,-0.389,2.0
79.465,0.061,1.151,151.0
79.394,0.039,0.694,61.0
0.0,0.0,0.0,0.0
40.585,-0.001,-0.114,16.0
34.633,-0.01,-0.296,0.0
29.407,-0.017,-0.42,3.0
79.466,-0.067,1.039,152.0
76.548,-0.086,0.562,18.0
48.587,-0.068,0.078,5.0
39.69,-0.066,-0.167,15.0
32.6,-0.063,-0.324,2.0
28.619,-0.063,-0.448,1.0
79.47,-0.198,0.93,151.0
76.363,-0.211,0.457,13.0
46.078,-0.14,0.011,18.0
39.136,-0.13,-0.217,7.0
31.516,-0.114,-0.356,1.0
27.634,-0.107,-0.47,2.0
79.45,-0.332,0.822,150.0
61.39,-0.274,0.284,11.0
46.022,-0.218,-0.05,20.0
39.526,-0.198,-0.273,1.0
30.39,-0.161,-0.384,2.0
26.85,-0.15,-0.492,2.0
79.463,-0.466,0.719,150.0
56.083,-0.345,0.186,9.0
44.133,-0.284,-0.105,3.0
36.699,-0.247,-0.301,0.0
29.558,-0.207,-0.411,2.0
26.25,-0.192,-0.516,2.0
0.0,0.0,0.0,0.0
55.128,-0.434,0.112,1.0
47.337,-0.386,-0.173,10.0
33.535,-0.283,-0.317,1.0
28.885,-0.252,-0.439,3.0
25.512,-0.23,-0.533,2.0
77.411,-0.722,0.503,11.0
54.912,-0.528,0.043,5.0
0.0,0.0,0.0,0.0
31.935,-0.326,-0.342,1.0
28.232,-0.296,-0.464,3.0
24.805,-0.268,-0.549,1.0
77.609,-0.86,0.41,3.0
54.412,-0.62,-0.023,4.0
41.734,-0.487,-0.255,2.0
30.917,-0.371,-0.369,1.0
27.229,-0.334,-0.48,1.0
24.038,-0.303,-0.561,2.0
69.905,-0.9,0.285,4.0
51.561,-0.679,-0.083,4.0
37.275,-0.502,-0.272,0.0
30.051,-0.414,-0.394,2.0
26.584,-0.374,-0.5,1.0
23.547,-0.338,-0.577,2.0
248.505,-3.64,0.733,9.0
46.352,-0.693,-0.127,1.0
34.912,-0.532,-0.294,1.0
29.364,-0.457,-0.418,1.0
25.967,-0.412,-0.518,1.0
23.036,-0.373,-0.59,2.0
40.336,-0.663,0.074,27.0
40.347,-0.676,-0.155,27.0
33.619,-0.574,-0.321,1.0
28.584,-0.497,-0.438,1.0
25.376,-0.449,-0.534,1.0
22.498,-0.405,-0.601,1.0
40.302,-0.736,0.029,71.0
40.291,-0.749,-0.199,14.0
32.242,-0.609,-0.342,1.0
28.009,-0.538,-0.46,1.0
24.814,-0.484,-0.548,1.0
22.072,-0.438,-0.613,2.0
56.357,-1.133,-0.017,1.0
40.212,-0.822,-0.241,6.0
31.22,-0.648,-0.364,1.0
27.261,-0.574,-0.476,1.0
24.133,-0.516,-0.558,1.0
21.551,-0.467,-0.621,1.0
40.323,-0.886,-0.053,0.0
40.23,-0.896,-0.281,2.0
30.285,-0.685,-0.384,1.0
26.882,-0.616,-0.496,3.0
23.668,-0.55,-0.571,2.0
21.099,-0.497,-0.629,1.0
40.297,-0.961,-0.092,79.0
36.947,-0.892,-0.294,0.0
29.687,-0.727,-0.405,1.0
26.244,-0.651,-0.51,1.0
23.235,-0.584,-0.583,1.0
20.748,-0.528,-0.638,4.0
40.996,-1.055,-0.133,158.0
34.567,-0.9,-0.308,0.0
29.213,-0.77,-0.426,1.0
25.695,-0.686,-0.523,1.0
22.819,-0.616,-0.594,1.0
20.483,-0.56,-0.649,2.0
40.542,-1.119,-0.168,29.0
33.133,-0.925,-0.325,1.0
28.641,-0.809,-0.443,1.0
25.245,-0.722,-0.536,1.0
22.375,-0.647,-0.602,1.0
20.024,-0.586,-0.652,1.0
40.218,-1.186,-0.201,32.0
32.478,-0.969,-0.347,1.0
28.057,-0.846,-0.458,1.0
24.829,-0.757,-0.549,1.0
22.02,-0.679,-0.611,1.0
19.76,-0.616,-0.66,1.0
40.369,-1.268,-0.236,6.0
31.559,-1.002,-0.363,1.0
27.493,-0.882,-0.472,1.0
24.273,-0.787,-0.556,1.0
21.632,-0.708,-0.618,1.0
19.452,-0.644,-0.666,2.0
39.069,-1.302,-0.259,1.0
30.751,-1.035,-0.378,1.0
27.013,-0.918,-0.485,2.0
23.835,-0.819,-0.565,1.0
21.292,-0.739,-0.625,1.0
19.186,-0.672,-0.672,1.0
40.078,-1.413,-0.297,4.0
30.178,-1.074,-0.394,1.0
26.661,-0.958,-0.498,2.0
23.511,-0.853,-0.575,1.0
21.026,-0.77,-0.633,1.0
18.925,-0.7,-0.676,1.0
37.731,-1.403,-0.306,6.0
29.791,-1.118,-0.41,1.0
26.276,-0.995,-0.51,1.0
23.218,-0.887,-0.584,2.0
20.681,-0.797,-0.637,1.0
18.718,-0.728,-0.682,1.0
37.735,-1.477,-0.332,5.0
29.318,-1.157,-0.423,1.0
25.893,-1.031,-0.52,1.0
22.921,-0.92,-0.591,1.0
20.454,-0.828,-0.643,1.0
18.536,-0.757,-0.687,2.0
34.434,-1.413,-0.325,0.0
28.862,-1.195,-0.435,2.0
25.543,-1.066,-0.529,1.0
22.618,-0.952,-0.598,1.0
20.207,-0.857,-0.648,1.0
18.322,-0.784,-0.691,1.0
33.91,-1.457,-0.34,1.0
28.551,-1.237,-0.447,2.0
25.237,-1.102,-0.537,1.0
22.339,-0.984,-0.604,1.0
20.007,-0.888,-0.653,1.0
18.173,-0.813,-0.696,1.0
33.335,-1.498,-0.354,5.0
28.25,-1.279,-0.458,2.0
24.949,-1.138,-0.545,1.0
22.084,-1.015,-0.609,1.0
19.81,-0.918,-0.658,1.0
18.023,-0.841,-0.699,2.0
33.203,-1.556,-0.37,4.0
28.168,-1.33,-0.472,5.0
24.732,-1.176,-0.553,1.0
21.888,-1.049,-0.614,1.0
19.646,-0.948,-0.662,1.0
17.89,-0.87,-0.703,2.0
31.646,-1.544,-0.368,1.0
27.949,-1.374,-0.481,7.0
24.378,-1.207,-0.556,1.0
21.631,-1.078,-0.617,1.0
19.483,-0.978,-0.665,1.0
17.76,-0.898,-0.706,1.0
31.188,-1.582,-0.376,1.0
27.545,-1.407,-0.487,3.0
24.155,-1.242,-0.562,5.0
21.459,-1.111,-0.622,1.0
19.363,-1.01,-0.67,1.0
17.657,-0.927,-0.71,1.0
30.935,-1.63,-0.386,1.0
27.113,-1.438,-0.49,2.0
23.843,-1.273,-0.564,10.0
21.352,-1.148,-0.627,1.0
19.201,-1.039,-0.672,2.0
17.525,-0.955,-0.711,1.0
30.595,-1.671,-0.393,1.0
26.904,-1.479,-0.496,2.0
23.657,-1.309,-0.568,11.0
21.202,-1.181,-0.63,5.0
19.097,-1.07,-0.674,1.0
17.419,-0.982,-0.713,1.0
30.368,-1.717,-0.4,1.0
26.619,-1.515,-0.499,1.0
23.523,-1.347,-0.573,8.0
20.986,-1.209,-0.63,4.0
19.037,-1.104,-0.678,2.0
17.392,-1.014,-0.717,1.0
30.08,-1.759,-0.405,1.0
26.491,-1.558,-0.504,1.0
23.319,-1.38,-0.574,3.0
20.879,-1.243,-0.633,4.0
18.85,-1.129,-0.676,6.0
17.269,-1.041,-0.716,1.0
30.011,-1.813,-0.412,1.0
26.428,-1.605,-0.51,1.0
23.361,-1.427,-0.581,1.0
20.802,-1.278,-0.635,2.0
18.855,-1.166,-0.681,3.0
17.26,-1.073,-0.72,2.0
29.843,-1.859,-0.416,1.0
26.411,-1.655,-0.515,2.0
23.354,-1.471,-0.585,1.0
20.646,-1.308,-0.634,1.0
18.863,-1.202,-0.685,2.0
17.005,-1.09,-0.712,1.0
29.772,-1.911,-0.42,1.0
26.27,-1.696,-0.516,1.0
23.236,-1.508,-0.586,1.0
21.006,-1.371,-0.649,2.0
18.773,-1.232,-0.684,1.0
16.947,-1.118,-0.712,1.0
29.697,-1.963,-0.423,1.0
26.15,-1.737,-0.517,1.0
23.212,-1.55,-0.588,1.0
20.685,-1.389,-0.641,0.0
18.706,-1.263,-0.684,2.0
16.944,-1.15,-0.714,1.0
29.701,-2.019,-0.425,1.0
26.117,-1.784,-0.519,1.0
23.199,-1.593,-0.59,1.0
20.593,-1.421,-0.64,0.0
18.656,-1.294,-0.683,0.0
16.963,-1.183,-0.716,1.0
29.655,-2.071,-0.426,1.0
26.075,-1.83,-0.519,1.0
23.188,-1.635,-0.59,1.0
20.6,-1.46,-0.641,0.0
18.673,-1.33,-0.685,0.0
17.014,-1.218,-0.718,1.0
29.837,-2.139,-0.429,1.0
26.128,-1.882,-0.521,1.0
23.135,-1.674,-0.589,1.0
20.626,-1.5,-0.642,0.0
18.66,-1.364,-0.684,0.0
16.861,-1.238,-0.712,0.0
29.671,-2.181,-0.426,1.0
26.185,-1.934,-0.521,1.0
23.179,-1.72,-0.589,1.0
20.661,-1.54,-0.642,0.0
18.705,-1.401,-0.685,1.0
17.188,-1.294,-0.724,0.0
29.495,-2.222,-0.422,1.0
26.155,-1.98,-0.519,1.0
23.202,-1.764,-0.588,1.0
20.706,-1.582,-0.642,0.0
18.753,-1.439,-0.685,1.0
17.108,-1.319,-0.719,0.0
29.876,-2.305,-0.425,1.0
26.268,-2.035,-0.518,1.0
23.256,-1.809,-0.587,1.0
20.79,-1.625,-0.642,1.0
18.797,-1.476,-0.684,1.0
16.997,-1.34,-0.713,0.0
30.074,-2.373,-0.423,1.0
26.299,-2.084,-0.515,2.0
23.309,-1.855,-0.585,1.0
20.823,-1.664,-0.64,0.0
18.837,-1.512,-0.683,1.0
16.824,-1.356,-0.703,1.0
30.108,-2.429,-0.419,1.0
26.379,-2.136,-0.512,1.0
23.399,-1.903,-0.583,1.0
20.965,-1.712,-0.64,1.0
18.904,-1.55,-0.681,1.0
16.62,-1.369,-0.691,0.0
30.439,-2.508,-0.417,1.0
26.448,-2.188,-0.508,1.0
23.54,-1.955,-0.582,1.0
21.032,-1.754,-0.637,1.0
18.986,-1.59,-0.68,1.0
16.639,-1.399,-0.688,1.0
30.683,-2.581,-0.413,1.0
26.742,-2.258,-0.507,1.0
23.654,-2.005,-0.578,1.0
21.169,-1.802,-0.636,1.0
19.084,-1.631,-0.678,1.0
16.653,-1.429,-0.684,1.0
30.946,-2.656,-0.408,1.0
26.996,-2.326,-0.504,1.0
23.829,-2.061,-0.575,1.0
21.26,-1.846,-0.632,0.0
19.161,-1.67,-0.675,1.0
16.809,-1.471,-0.685,1.0
31.529,-2.759,-0.405,1.0
27.237,-2.393,-0.499,1.0
24.035,-2.119,-0.573,1.0
21.414,-1.895,-0.63,1.0
19.442,-1.727,-0.679,1.0
17.478,-1.558,-0.706,1.0
31.168,-2.78,-0.39,6.0
27.428,-2.455,-0.493,1.0
24.244,-2.177,-0.569,1.0
21.588,-1.946,-0.627,1.0
19.461,-1.76,-0.672,0.0
17.706,-1.607,-0.708,0.0
32.308,-2.933,-0.391,1.0
27.774,-2.53,-0.489,1.0
24.539,-2.243,-0.566,1.0
21.726,-1.993,-0.622,1.0
19.639,-1.808,-0.67,0.0
17.832,-1.647,-0.706,0.0
32.756,-3.026,-0.383,1.0
28.089,-2.604,-0.482,1.0
24.822,-2.309,-0.562,1.0
21.927,-2.046,-0.619,1.0
19.83,-1.857,-0.668,1.0
17.959,-1.687,-0.703,0.0
33.128,-3.113,-0.373,0.0
28.48,-2.685,-0.476,1.0
25.074,-2.371,-0.556,1.0
22.194,-2.106,-0.616,1.0
19.983,-1.902,-0.664,0.0
18.106,-1.73,-0.7,0.0
34.145,-3.261,-0.367,0.0
28.876,-2.767,-0.468,1.0
25.258,-2.428,-0.547,1.0
22.372,-2.157,-0.609,1.0
20.245,-1.959,-0.662,1.0
18.272,-1.774,-0.697,0.0
35.347,-3.43,-0.362,0.0
29.291,-2.851,-0.459,1.0
25.649,-2.505,-0.542,1.0
22.666,-2.22,-0.605,1.0
20.549,-2.019,-0.661,3.0
18.457,-1.819,-0.694,0.0
0.0,0.0,0.0,0.0
29.671,-2.933,-0.449,1.0
26.026,-2.58,-0.535,1.0
23.031,-2.29,-0.602,1.0
20.587,-2.053,-0.65,7.0
18.638,-1.865,-0.69,1.0
37.722,-3.773,-0.343,0.0
30.163,-3.026,-0.438,1.0
26.375,-2.653,-0.527,1.0
23.526,-2.374,-0.6,8.0
20.629,-2.087,-0.639,6.0
18.86,-1.914,-0.687,1.0
38.171,-3.873,-0.324,0.0
30.853,-3.139,-0.429,1.0
26.744,-2.729,-0.518,1.0
23.574,-2.412,-0.587,19.0
20.863,-2.14,-0.633,3.0
19.065,-1.962,-0.682,1.0
39.711,-4.085,-0.311,1.0
31.938,-3.294,-0.424,1.0
27.223,-2.815,-0.509,1.0
23.777,-2.465,-0.576,27.0
21.409,-2.226,-0.635,1.0
19.347,-2.017,-0.679,1.0
0.0,0.0,0.0,0.0
32.568,-3.403,-0.41,1.0
27.802,-2.913,-0.501,1.0
23.931,-2.514,-0.563,18.0
21.921,-2.309,-0.635,3.0
19.883,-2.1,-0.684,3.0
41.627,-4.394,-0.27,0.0
33.163,-3.51,-0.394,1.0
28.208,-2.993,-0.488,1.0
24.341,-2.589,-0.556,5.0
22.11,-2.358,-0.625,9.0
20.122,-2.151,-0.678,8.0
44.051,-4.708,-0.253,0.0
34.288,-3.673,-0.382,1.0
28.859,-3.099,-0.478,1.0
25.207,-2.714,-0.557,1.0
22.412,-2.419,-0.616,13.0
20.195,-2.185,-0.665,14.0
45.922,-4.966,-0.229,0.0
35.531,-3.851,-0.369,0.0
29.48,-3.203,-0.466,1.0
25.676,-2.796,-0.548,1.0
22.673,-2.475,-0.606,19.0
20.359,-2.228,-0.655,11.0
0.0,0.0,0.0,0.0
0.0,0.0,0.0,0.0
29.945,-3.29,-0.45,1.0
26.129,-2.877,-0.536,1.0
23.082,-2.547,-0.599,23.0
20.733,-2.294,-0.65,9.0
0.0,0.0,0.0,0.0
39.036,-4.326,-0.344,0.0
31.041,-3.447,-0.441,1.0
26.642,-2.965,-0.525,1.0
23.451,-2.616,-0.589,28.0
21.071,-2.355,-0.643,10.0
50.251,-5.614,-0.129,0.0
39.421,-4.413,-0.314,0.0
32.179,-3.61,-0.43,1.0
27.208,-3.058,-0.513,1.0
23.643,-2.663,-0.574,9.0
21.466,-2.423,-0.637,13.0
50.486,-5.697,-0.086,0.0
41.395,-4.68,-0.294,0.0
33.027,-3.741,-0.413,1.0
27.898,-3.167,-0.502,1.0
24.631,-2.801,-0.576,1.0
21.817,-2.487,-0.628,18.0
0.0,0.0,0.0,0.0
0.0,0.0,0.0,0.0
33.687,-3.852,-0.391,0.0
28.599,-3.277,-0.489,1.0
25.129,-2.885,-0.566,1.0
22.191,-2.552,-0.619,25.0
0.0,0.0,0.0,0.0
0.0,0.0,0.0,0.0
35.895,-4.141,-0.384,0.0
29.329,-3.39,-0.475,1.0
25.626,-2.968,-0.553,1.0
22.738,-2.638,-0.613,33.0
0.0,0.0,0.0,0.0
50.435,-5.859,-0.222,1.0
37.033,-4.309,-0.362,1.0
30.051,-3.503,-0.459,1.0
26.238,-3.064,-0.542,1.0
22.909,-2.68,-0.596,24.0
0.0,0.0,0.0,0.0
50.383,-5.902,-0.174,4.0
39.34,-4.615,-0.347,0.0
31.271,-3.675,-0.447,1.0
26.755,-3.149,-0.527,1.0
23.316,-2.749,-0.584,7.0
0.0,0.0,0.0,0.0
50.408,-5.951,-0.125,6.0
39.708,-4.695,-0.312,0.0
32.372,-3.833,-0.431,1.0
27.442,-3.255,-0.513,1.0
23.897,-2.839,-0.576,1.0
96.567,-11.469,0.375,2.0
50.375,-5.991,-0.075,0.0
41.167,-4.903,-0.282,0.0
33.19,-3.959,-0.409,1.0
28.293,-3.38,-0.501,1.0
24.891,-2.978,-0.575,1.0
0.0,0.0,0.0,0.0
0.0,0.0,0.0,0.0
43.951,-5.271,-0.257,0.0
35.385,-4.249,-0.401,0.0
29.168,-3.508,-0.487,1.0
25.504,-3.071,-0.563,1.0
87.234,-10.502,0.514,1.0
0.0,0.0,0.0,0.0
0.0,0.0,0.0,0.0
37.436,-4.524,-0.386,4.0
29.863,-3.614,-0.468,1.0
26.038,-3.155,-0.548,1.0
87.009,-10.541,0.602,111.0
0.0,0.0,0.0,0.0
50.344,-6.113,-0.191,0.0
37.609,-4.572,-0.349,2.0
31.197,-3.798,-0.457,1.0
26.621,-3.245,-0.533,1.0
86.887,-10.588,0.691,11.0
0.0,0.0,0.0,0.0
50.384,-6.153,-0.139,1.0
39.571,-4.838,-0.325,0.0
32.389,-3.965,-0.44,1.0
27.38,-3.355,-0.519,1.0
86.337,-10.578,0.778,152.0
0.0,0.0,0.0,0.0
0.0,0.0,0.0,0.0
42.433,-5.215,-0.304,1.0
33.28,-4.095,-0.417,1.0
28.312,-3.487,-0.506,1.0
86.349,-10.634,0.871,190.0
0.0,0.0,0.0,0.0
0.0,0.0,0.0,0.0
45.29,-5.593,-0.275,3.0
35.86,-4.433,-0.41,3.0
29.108,-3.602,-0.489,1.0
86.419,-10.692,0.966,152.0
86.825,-10.752,0.505,1.0
65.324,-8.096,0.029,0.0
45.335,-5.623,-0.226,7.0
36.026,-4.473,-0.373,3.0
30.001,-3.728,-0.471,0.0
86.416,-10.738,1.061,14.0
99.394,-12.36,0.686,4.0
0.0,0.0,0.0,0.0
50.409,-6.278,-0.196,4.0
39.095,-4.873,-0.362,0.0
31.523,-3.933,-0.46,1.0
99.715,-12.44,1.335,16.0
99.616,-12.436,0.8,43.0
0.0,0.0,0.0,0.0
50.436,-6.305,-0.139,5.0
39.87,-4.988,-0.324,0.0
32.578,-4.079,-0.439,1.0
99.707,-12.484,1.446,59.0
99.687,-12.488,0.913,59.0
89.596,-11.231,0.34,3.0
50.55,-6.34,-0.083,0.0
45.268,-5.682,-0.317,1.0
33.707,-4.234,-0.417,0.0
99.671,-12.518,1.557,73.0
99.673,-12.525,1.023,74.0
89.86,-11.298,0.44,6.0
0.0,0.0,0.0,0.0
45.31,-5.703,-0.267,3.0
0.0,0.0,0.0,0.0
99.628,-12.548,1.669,79.0
99.664,-12.557,1.134,85.0
99.254,-12.511,0.598,6.0
0.0,0.0,0.0,0.0
50.384,-6.357,-0.24,1.0
0.0,0.0,0.0,0.0
99.598,-12.574,1.78,78.0
99.646,-12.584,1.247,93.0
99.492,-12.57,0.713,27.0
0.0,0.0,0.0,0.0
50.385,-6.371,-0.183,7.0
38.662,-4.891,-0.347,0.0
99.586,-12.599,1.893,77.0
99.643,-12.609,1.359,87.0
99.609,-12.608,0.827,67.0
89.349,-11.313,0.254,1.0
50.463,-6.392,-0.126,4.0
41.315,-5.235,-0.324,1.0
99.572,-12.618,2.007,77.0
99.631,-12.628,1.475,89.0
99.652,-12.633,0.942,82.0
89.382,-11.334,0.357,7.0
0.0,0.0,0.0,0.0
0.0,0.0,0.0,0.0
99.568,-12.634,2.12,77.0
99.607,-12.64,1.588,84.0
99.662,-12.649,1.055,78.0
89.359,-11.343,0.459,5.0
0.0,0.0,0.0,0.0
0.0,0.0,0.0,0.0
99.557,-12.645,2.234,62.0
99.623,-12.653,1.702,81.0
99.654,-12.657,1.17,73.0
99.335,-12.618,0.624,9.0
0.0,0.0,0.0,0.0
50.396,-6.403,-0.223,3.0
99.556,-12.652,2.348,59.0
99.596,-12.656,1.815,79.0
99.645,-12.662,1.283,80.0
99.512,-12.644,0.737,39.0
0.0,0.0,0.0,0.0
50.449,-6.411,-0.166,6.0
99.536,-12.652,2.461,59.0
99.6,-12.658,1.929,84.0
99.645,-12.662,1.396,84.0
99.635,-12.66,0.853,68.0
89.279,-11.343,0.286,2.0
50.445,-6.409,-0.108,2.0
99.511,-12.646,2.575,63.0
99.576,-12.652,2.042,83.0
99.634,-12.657,1.508,85.0
99.643,-12.655,0.966,80.0
89.308,-11.341,0.386,5.0
0.0,0.0,0.0,0.0
99.512,-12.64,2.686,64.0
99.544,-12.64,2.154,79.0
99.622,-12.646,1.621,91.0
99.635,-12.645,1.077,85.0
91.14,-11.564,0.496,2.0
0.0,0.0,0.0,0.0
99.504,-12.628,2.798,70.0
99.535,-12.627,2.264,71.0
99.598,-12.63,1.733,84.0
99.63,-12.63,1.189,87.0
99.416,-12.599,0.654,15.0
0.0,0.0,0.0,0.0
99.483,-12.609,2.909,58.0
99.526,-12.609,2.377,75.0
99.57,-12.609,1.843,83.0
99.631,-12.611,1.301,84.0
99.548,-12.596,0.767,54.0
89.401,-11.308,0.209,0.0
99.463,-12.586,3.02,52.0
99.526,-12.587,2.489,82.0
99.564,-12.585,1.956,79.0
99.64,-12.588,1.412,95.0
99.636,-12.582,0.878,70.0
89.507,-11.298,0.31,5.0
99.469,-12.562,3.131,56.0
99.522,-12.56,2.598,86.0
99.562,-12.558,2.065,78.0
99.633,-12.56,1.521,89.0
99.655,-12.556,0.987,72.0
89.912,-11.322,0.409,6.0
99.484,-12.534,3.241,59.0
99.524,-12.53,2.708,59.0
99.564,-12.527,2.174,82.0
99.647,-12.528,1.632,83.0
99.676,-12.524,1.097,80.0
99.054,-12.439,0.559,3.0
99.511,-12.504,3.35,58.0
99.558,-12.499,2.817,68.0
99.607,-12.496,2.283,74.0
99.653,-12.492,1.739,61.0
99.721,-12.492,1.204,65.0
99.43,-12.448,0.667,17.0
99.536,-12.468,3.458,16.0
99.557,-12.459,2.924,15.0
99.611,-12.455,2.391,45.0
99.648,-12.45,1.847,17.0
99.746,-12.452,1.314,11.0
99.608,-12.426,0.776,22.0
204.945,-25.583,7.343,22.0
203.292,-25.352,6.191,38.0
203.874,-25.4,5.113,18.0
207.64,-25.846,4.07,16.0
86.373,-10.742,1.228,23.0
86.434,-10.74,0.767,150.0
204.811,-25.467,7.557,28.0
203.235,-25.244,6.406,26.0
203.681,-25.274,5.324,36.0
203.205,-25.19,4.199,14.0
86.357,-10.695,1.319,28.0
86.397,-10.69,0.855,162.0
204.942,-25.376,7.776,39.0
205.049,-25.361,6.674,19.0
203.484,-25.14,5.528,52.0
203.138,-25.071,4.403,39.0
86.407,-10.653,1.408,17.0
86.35,-10.635,0.943,173.0
99.529,-12.268,3.877,7.0
205.116,-25.251,6.885,14.0
203.331,-25.003,5.73,39.0
202.981,-24.932,4.605,40.0
86.362,-10.596,1.494,28.0
86.301,-10.577,1.029,54.0
99.361,-12.186,3.971,14.0
204.426,-25.041,7.068,30.0
203.182,-24.857,5.93,28.0
203.077,-24.813,4.813,38.0
86.38,-10.542,1.581,23.0
86.282,-10.517,1.115,55.0
99.252,-12.108,4.067,21.0
204.691,-24.936,7.283,33.0
203.142,-24.714,6.13,35.0
188.13,-22.857,4.644,26.0
86.434,-10.488,1.669,3.0
86.254,-10.453,1.201,54.0
99.143,-12.025,4.159,47.0
204.01,-24.708,7.457,30.0
203.028,-24.554,6.326,37.0
188.067,-22.714,4.824,44.0
86.684,-10.455,1.756,3.0
86.242,-10.387,1.283,51.0
99.109,-11.947,4.253,69.0
203.917,-24.545,7.647,44.0
203.089,-24.409,6.519,36.0
188.29,-22.596,5.009,24.0
86.774,-10.399,1.84,6.0
86.265,-10.323,1.364,41.0
99.104,-11.869,4.346,76.0
203.855,-24.375,7.837,39.0
190.921,-22.793,6.308,27.0
189.12,-22.543,5.206,31.0
86.725,-10.322,1.919,11.0
86.261,-10.252,1.443,46.0
99.11,-11.789,4.436,45.0
203.843,-24.205,8.022,31.0
190.209,-22.548,6.456,36.0
188.824,-22.347,5.371,37.0
188.238,-22.242,4.337,22.0
86.263,-10.177,1.52,43.0
99.19,-11.712,4.53,60.0
204.167,-24.063,8.219,24.0
190.184,-22.376,6.628,21.0
188.491,-22.139,5.528,27.0
188.406,-22.092,4.507,38.0
86.269,-10.099,1.597,26.0
99.157,-11.618,4.615,67.0
116.469,-13.621,4.79,65.0
189.762,-22.153,6.776,13.0
188.483,-21.964,5.688,25.0
188.86,-21.97,4.678,33.0
86.3,-10.022,1.67,4.0
99.232,-11.534,4.702,46.0
204.36,-23.708,8.576,18.0
116.426,-13.481,4.253,6.0
188.466,-21.781,5.846,24.0
188.37,-21.731,4.821,27.0
86.618,-9.973,1.748,8.0
99.341,-11.449,4.79,40.0
115.498,-13.284,4.942,61.0
115.88,-13.302,4.328,57.0
115.907,-13.279,3.688,86.0
107.443,-12.285,2.837,57.0
86.649,-9.889,1.818,12.0
99.353,-11.35,4.869,31.0
107.718,-12.28,4.694,17.0
115.826,-13.177,4.417,37.0
115.914,-13.16,3.78,74.0
107.406,-12.17,2.918,81.0
86.643,-9.797,1.884,21.0
99.296,-11.238,4.944,38.0
105.624,-11.928,4.685,11.0
107.644,-12.13,4.188,11.0
107.345,-12.071,3.581,47.0
107.41,-12.053,3.001,72.0
86.705,-9.709,1.951,10.0
99.253,-11.124,5.017,36.0
105.898,-11.842,4.775,99.0
106.374,-11.868,4.218,73.0
107.216,-11.935,3.657,61.0
107.501,-11.941,3.081,14.0
87.025,-9.646,2.022,3.0
99.279,-11.015,5.089,52.0
116.511,-12.896,5.337,4.0
106.359,-11.745,4.293,31.0
107.168,-11.807,3.731,57.0
123.489,-13.575,3.625,11.0
187.566,-20.573,4.486,32.0
99.338,-10.905,5.162,61.0
105.614,-11.566,4.911,12.0
107.664,-11.762,4.419,2.0
107.216,-11.685,3.805,88.0
123.4,-13.418,3.706,84.0
123.572,-13.405,3.039,66.0
99.235,-10.774,5.222,50.0
105.347,-11.409,4.968,24.0
107.876,-11.654,4.498,39.0
107.319,-11.565,3.878,66.0
123.417,-13.268,3.786,58.0
123.545,-13.249,3.117,91.0
99.199,-10.648,5.283,47.0
108.137,-11.576,5.167,14.0
107.91,-11.522,4.567,57.0
107.343,-11.432,3.946,68.0
188.222,-19.994,5.891,35.0
187.708,-19.891,4.849,24.0
99.169,-10.517,5.343,37.0
115.313,-12.197,5.58,33.0
107.952,-11.387,4.633,35.0
122.842,-12.923,4.589,25.0
188.026,-19.73,5.994,22.0
187.484,-19.622,4.952,35.0
99.156,-10.386,5.398,66.0
122.489,-12.794,5.998,34.0
107.254,-11.173,4.663,92.0
148.382,-15.414,5.623,31.0
189.527,-19.637,6.146,11.0
157.52,-16.277,4.246,33.0
99.171,-10.256,5.452,30.0
107.144,-11.047,5.303,83.0
106.63,-10.964,4.692,62.0
124.359,-12.751,4.778,35.0
188.254,-19.248,6.201,11.0
188.104,-19.18,5.168,59.0
99.261,-10.128,5.509,53.0
116.113,-11.813,5.805,37.0
106.707,-10.824,4.749,34.0
124.806,-12.622,4.856,26.0
148.451,-14.972,4.963,74.0
188.051,-18.913,5.255,45.0
99.207,-9.984,5.553,58.0
122.217,-12.262,6.168,35.0
106.715,-10.675,4.798,22.0
150.241,-14.983,5.915,6.0
149.648,-14.879,5.07,29.0
188.077,-18.645,5.341,44.0
124.121,-12.314,7.002,10.0
124.222,-12.286,6.322,26.0
106.617,-10.512,4.84,14.0
209.826,-20.624,8.349,13.0
188.815,-18.503,6.474,26.0
187.954,-18.365,5.413,40.0
106.925,-10.455,6.074,17.0
107.982,-10.524,5.539,45.0
157.67,-15.318,7.218,14.0
147.959,-14.33,5.945,52.0
150.546,-14.534,5.22,18.0
148.931,-14.334,4.344,65.0
106.817,-10.287,6.108,17.0
115.569,-11.093,5.97,43.0
122.912,-11.759,5.67,25.0
204.977,-19.546,8.306,10.0
149.844,-14.242,5.247,14.0
148.875,-14.106,4.393,65.0
108.005,-10.238,6.211,34.0
115.439,-10.905,6.001,23.0
122.8,-11.561,5.706,40.0
157.198,-14.749,6.421,50.0
148.678,-13.904,5.252,80.0
187.872,-17.513,5.6,47.0
106.245,-9.908,6.143,56.0
106.256,-9.874,5.555,22.0
147.297,-13.639,6.886,29.0
147.977,-13.655,6.084,38.0
203.842,-18.748,7.257,6.0
188.234,-17.253,5.662,42.0
115.278,-10.57,6.694,29.0
122.523,-11.193,6.438,22.0
147.002,-13.382,6.909,7.0
148.511,-13.471,6.143,50.0
164.058,-14.83,5.878,34.0
149.487,-13.466,4.532,41.0
122.202,-11.011,7.125,18.0
108.483,-9.739,5.722,5.0
146.978,-13.146,6.94,4.0
148.49,-13.232,6.173,22.0
156.966,-13.936,5.657,35.0
188.647,-16.691,5.754,22.0
122.526,-10.843,7.167,6.0
106.398,-9.379,5.633,6.0
148.502,-13.042,7.037,25.0
166.061,-14.531,6.93,54.0
149.82,-13.061,5.424,31.0
157.364,-13.669,4.825,44.0
122.541,-10.647,7.184,6.0
105.747,-9.151,5.613,11.0
148.465,-12.798,7.055,5.0
162.81,-13.981,6.816,13.0
149.929,-12.826,5.446,20.0
157.426,-13.416,4.846,55.0
122.623,-10.45,7.204,10.0
148.551,-12.61,7.899,12.0
0.0,0.0,0.0,0.0
166.771,-14.045,6.998,28.0
156.685,-13.144,5.704,17.0
157.556,-13.165,4.861,30.0
122.724,-10.255,7.219,3.0
159.107,-13.242,8.471,6.0
159.004,-13.181,7.581,6.0
150.029,-12.385,6.303,40.0
163.839,-13.47,5.972,38.0
157.277,-12.88,4.858,19.0
108.55,-8.889,6.388,15.0
150.89,-12.303,8.038,11.0
158.72,-12.886,7.57,12.0
163.55,-13.224,6.872,15.0
197.087,-15.87,7.186,47.0
164.669,-13.205,5.088,23.0
150.602,-12.075,8.861,5.0
148.363,-11.843,7.901,6.0
149.685,-11.895,7.136,18.0
163.111,-12.908,6.851,21.0
165.447,-13.039,6.026,29.0
212.833,-16.702,6.567,36.0
121.516,-9.532,7.144,3.0
165.126,-12.895,8.786,4.0
162.604,-12.643,7.742,10.0
157.968,-12.228,6.623,36.0
164.111,-12.65,5.965,39.0
196.689,-15.095,6.054,30.0
155.414,-11.921,9.123,14.0
157.835,-12.049,8.382,6.0
158.088,-12.015,7.511,27.0
163.802,-12.395,6.851,16.0
164.483,-12.39,5.961,24.0
196.992,-14.772,6.039,59.0
0.0,0.0,0.0,0.0
0.0,0.0,0.0,0.0
157.976,-11.732,7.483,15.0
197.459,-14.6,8.23,24.0
203.428,-14.972,7.341,23.0
196.317,-14.382,5.987,25.0
148.317,-10.857,8.662,11.0
157.184,-11.452,8.299,6.0
0.0,0.0,0.0,0.0
164.46,-11.869,6.823,38.0
195.216,-14.025,7.007,22.0
204.835,-14.646,6.207,47.0
157.704,-11.268,9.177,8.0
148.553,-10.561,7.812,4.0
158.188,-11.191,7.43,6.0
196.626,-13.844,8.113,24.0
203.739,-14.277,7.266,22.0
208.375,-14.531,6.264,17.0
162.971,-11.355,9.443,6.0
148.712,-10.31,7.782,3.0
157.989,-10.898,7.38,12.0
197.693,-13.568,8.104,7.0
204.97,-14.0,7.254,38.0
208.614,-14.18,6.213,30.0
163.352,-11.092,9.42,6.0
148.299,-10.017,7.717,5.0
150.035,-10.083,6.963,3.0
211.65,-14.151,8.611,10.0
208.402,-13.865,7.311,25.0
208.998,-13.833,6.158,33.0
210.239,-13.896,12.052,5.0
148.228,-9.745,7.662,4.0
158.382,-10.359,7.296,3.0
205.45,-13.366,8.288,8.0
208.288,-13.481,7.231,25.0
248.339,-15.993,7.229,195.0
148.828,-9.571,8.477,5.0
149.107,-9.538,7.653,3.0
204.895,-13.035,9.361,7.0
0.0,0.0,0.0,0.0
227.811,-14.339,7.822,23.0
244.311,-15.297,7.014,19.0
147.807,-9.238,8.358,12.0
163.239,-10.145,8.309,5.0
0.0,0.0,0.0,0.0
213.126,-13.1,8.424,7.0
212.202,-12.973,7.192,35.0
271.966,-16.534,7.686,43.0
205.44,-12.466,11.524,5.0
150.174,-9.061,7.575,4.0
0.0,0.0,0.0,0.0
211.946,-12.644,8.278,10.0
244.119,-14.48,8.158,11.0
271.691,-16.027,7.548,150.0
0.0,0.0,0.0,0.0
0.0,0.0,0.0,0.0
211.888,-12.327,9.384,6.0
211.806,-12.251,8.163,6.0
0.0,0.0,0.0,0.0
0.0,0.0,0.0,0.0
164.858,-9.404,9.077,5.0
211.297,-11.98,10.439,8.0
0.0,0.0,0.0,0.0
0.0,0.0,0.0,0.0
0.0,0.0,0.0,0.0
0.0,0.0,0.0,0.0
0.0,0.0,0.0,0.0
0.0,0.0,0.0,0.0
0.0,0.0,0.0,0.0
0.0,0.0,0.0,0.0
0.0,0.0,0.0,0.0
0.0,0.0,0.0,0.0
0.0,0.0,0.0,0.0
0.0,0.0,0.0,0.0
0.0,0.0,0.0,0.0
0.0,0.0,0.0,0.0
228.931,-11.73,10.883,9.0
0.0,0.0,0.0,0.0
0.0,0.0,0.0,0.0
0.0,0.0,0.0,0.0
0.0,0.0,0.0,0.0
0.0,0.0,0.0,0.0
0.0,0.0,0.0,0.0
0.0,0.0,0.0,0.0
0.0,0.0,0.0,0.0
0.0,0.0,0.0,0.0
0.0,0.0,0.0,0.0
0.0,0.0,0.0,0.0
0.0,0.0,0.0,0.0
0.0,0.0,0.0,0.0
0.0,0.0,0.0,0.0
0.0,0.0,0.0,0.0
0.0,0.0,0.0,0.0
0.0,0.0,0.0,0.0
0.0,0.0,0.0,0.0
0.0,0.0,0.0,0.0
0.0,0.0,0.0,0.0
0.0,0.0,0.0,0.0
0.0,0.0,0.0,0.0
0.0,0.0,0.0,0.0
0.0,0.0,0.0,0.0
0.0,0.0,0.0,0.0
0.0,0.0,0.0,0.0
0.0,0.0,0.0,0.0
0.0,0.0,0.0,0.0
0.0,0.0,0.0,0.0
0.0,0.0,0.0,0.0
0.0,0.0,0.0,0.0
0.0,0.0,0.0,0.0
0.0,0.0,0.0,0.0
0.0,0.0,0.0,0.0
0.0,0.0,0.0,0.0
0.0,0.0,0.0,0.0
0.0,0.0,0.0,0.0
0.0,0.0,0.0,0.0
0.0,0.0,0.0,0.0
0.0,0.0,0.0,0.0
0.0,0.0,0.0,0.0
0.0,0.0,0.0,0.0
0.0,0.0,0.0,0.0
0.0,0.0,0.0,0.0
0.0,0.0,0.0,0.0
0.0,0.0,0.0,0.0
0.0,0.0,0.0,0.0
0.0,0.0,0.0,0.0
0.0,0.0,0.0,0.0
0.0,0.0,0.0,0.0
0.0,0.0,0.0,0.0
0.0,0.0,0.0,0.0
0.0,0.0,0.0,0.0
0.0,0.0,0.0,0.0
0.0,0.0,0.0,0.0
0.0,0.0,0.0,0.0
0.0,0.0,0.0,0.0
0.0,0.0,0.0,0.0
40.356,-1.304,0.866,6.0
40.35,-1.291,0.636,62.0
148.247,-4.713,6.428,2.0
0.0,0.0,0.0,0.0
0.0,0.0,0.0,0.0
40.306,-1.244,1.051,29.0
40.336,-1.233,0.821,25.0
154.027,-4.666,2.259,150.0
148.16,-4.452,6.258,25.0
0.0,0.0,0.0,0.0
40.245,-1.185,1.239,0.0
40.33,-1.176,1.006,41.0
0.0,0.0,0.0,0.0
40.304,-1.151,0.545,0.0
129.284,-3.664,5.312,29.0
40.277,-1.129,1.423,25.0
40.24,-1.115,1.191,36.0
40.194,-1.103,0.956,53.0
40.23,-1.092,0.726,42.0
40.21,-1.08,0.496,56.0
40.24,-1.071,1.605,5.0
40.202,-1.058,1.373,53.0
40.224,-1.047,1.143,46.0
40.181,-1.035,0.908,53.0
40.205,-1.023,0.678,66.0
40.225,-1.012,0.447,46.0
40.239,-1.003,1.555,30.0
40.265,-0.992,1.325,61.0
40.206,-0.979,1.093,59.0
40.189,-0.967,0.858,55.0
40.31,-0.958,0.629,86.0
40.3,-0.946,0.398,33.0
185.595,-4.315,6.94,33.0
40.281,-0.925,1.274,28.0
40.202,-0.912,1.041,58.0
40.205,-0.901,0.807,54.0
40.251,-0.89,0.577,51.0
40.268,-0.879,0.346,0.0
185.673,-4.013,6.705,47.0
40.281,-0.859,1.223,37.0
40.221,-0.846,0.99,52.0
40.239,-0.835,0.755,61.0
40.228,-0.824,0.524,62.0
40.256,-0.813,0.293,51.0
184.638,-3.688,6.423,51.0
40.284,-0.793,1.169,56.0
40.216,-0.78,0.936,52.0
40.162,-0.768,0.7,60.0
40.254,-0.759,0.47,28.0
40.252,-0.748,0.239,52.0
151.411,-2.777,5.059,44.0
40.297,-0.728,1.114,31.0
40.228,-0.715,0.881,11.0
205.396,-3.6,3.299,61.0
123.94,-2.139,1.278,8.0
40.31,-0.685,0.184,11.0
151.449,-2.537,4.851,92.0
151.44,-2.495,3.978,33.0
0.0,0.0,0.0,0.0
205.321,-3.273,3.008,32.0
98.993,-1.552,0.881,6.0
248.314,-3.826,0.781,13.0
151.478,-2.296,4.633,88.0
183.386,-2.73,4.551,90.0
183.403,-2.682,3.495,89.0
148.071,-2.126,1.955,14.0
87.894,-1.239,0.655,10.0
60.855,-0.843,0.104,4.0
109.574,-1.49,3.192,2.0
79.621,-1.062,1.86,1.0
79.41,-1.038,1.397,150.0
79.537,-1.02,0.934,4.0
78.476,-0.986,0.469,14.0
60.783,-0.748,0.013,3.0
79.434,-0.958,2.194,151.0
79.418,-0.938,1.737,192.0
79.412,-0.918,1.279,230.0
79.448,-0.897,0.813,161.0
77.361,-0.855,0.346,2.0
54.474,-0.588,-0.069,8.0
79.444,-0.838,2.075,151.0
79.426,-0.818,1.615,190.0
79.447,-0.799,1.158,194.0
79.41,-0.778,0.692,150.0
60.837,-0.581,0.179,5.0
50.529,-0.469,-0.142,10.0
79.434,-0.72,1.951,167.0
79.438,-0.7,1.493,180.0
79.447,-0.682,1.036,189.0
0.0,0.0,0.0,0.0
54.846,-0.444,0.076,5.0
44.21,-0.347,-0.193,5.0
79.427,-0.605,1.827,199.0
79.446,-0.586,1.369,173.0
79.447,-0.566,0.909,192.0
76.77,-0.529,0.429,12.0
50.335,-0.334,-0.009,4.0
40.437,-0.259,-0.241,3.0
79.418,-0.491,1.7,215.0
79.446,-0.472,1.241,167.0
79.456,-0.454,0.783,176.0
61.377,-0.336,0.243,20.0
0.0,0.0,0.0,0.0
39.306,-0.196,-0.297,1.0
79.408,-0.379,1.57,248.0
79.461,-0.36,1.111,151.0
79.374,-0.341,0.651,135.0
0.0,0.0,0.0,0.0
41.269,-0.158,-0.142,17.0
33.851,-0.122,-0.311,1.0
79.443,-0.269,1.439,173.0
79.463,-0.251,0.98,151.0
76.487,-0.225,0.501,16.0
47.944,-0.13,0.032,17.0
39.481,-0.098,-0.201,14.0
32.39,-0.073,-0.352,2.0
79.454,-0.162,1.306,151.0
79.473,-0.145,0.847,151.0
61.707,-0.098,0.3,13.0
44.844,-0.062,-0.044,23.0
38.564,-0.045,-0.261,6.0
30.628,-0.029,-0.384,1.0
79.456,-0.058,1.172,151.0
79.43,-0.04,0.712,150.0
55.798,-0.016,0.177,29.0
40.787,-0.002,-0.11,17.0
37.29,0.005,-0.317,2.0
29.56,0.01,-0.422,2.0
79.477,0.044,1.035,151.0
76.365,0.059,0.552,20.0
52.928,0.052,0.076,15.0
39.204,0.046,-0.174,35.0
33.109,0.046,-0.338,1.0
28.533,0.045,-0.456,2.0
79.472,0.144,0.897,151.0
75.765,0.152,0.417,8.0
0.0,0.0,0.0,0.0
38.356,0.093,-0.236,14.0
31.123,0.082,-0.372,1.0
27.27,0.077,-0.485,1.0
79.437,0.242,0.756,130.0
55.055,0.179,0.205,21.0
43.849,0.151,-0.09,4.0
37.738,0.137,-0.3,13.0
29.863,0.115,-0.41,2.0
26.477,0.107,-0.517,2.0
59.323,0.252,0.457,103.0
54.572,0.242,0.105,28.0
39.195,0.182,-0.151,48.0
33.146,0.16,-0.323,1.0
28.705,0.144,-0.447,1.0
25.469,0.133,-0.544,1.0
55.049,0.298,0.325,19.0
0.0,0.0,0.0,0.0
38.274,0.221,-0.216,14.0
31.327,0.187,-0.362,1.0
27.541,0.169,-0.477,1.0
24.251,0.154,-0.561,1.0
48.123,0.315,0.197,46.0
44.087,0.296,-0.074,12.0
37.597,0.26,-0.281,4.0
29.95,0.212,-0.401,2.0
26.612,0.194,-0.51,2.0
23.575,0.176,-0.589,2.0
47.987,0.366,0.108,64.0
39.012,0.305,-0.138,46.0
33.49,0.268,-0.313,1.0
28.977,0.237,-0.441,2.0
25.644,0.214,-0.539,1.0
21.641,0.185,-0.581,4.0
0.0,0.0,0.0,0.0
38.016,0.337,-0.205,24.0
31.565,0.286,-0.354,1.0
27.58,0.254,-0.472,1.0
21.685,0.204,-0.497,4.0
20.797,0.199,-0.597,4.0
43.82,0.427,-0.064,13.0
37.356,0.37,-0.271,6.0
30.137,0.303,-0.394,2.0
26.633,0.273,-0.505,2.0
20.849,0.217,-0.516,4.0
20.076,0.212,-0.614,3.0
38.901,0.417,-0.13,51.0
33.431,0.364,-0.306,1.0
29.018,0.321,-0.434,2.0
25.795,0.289,-0.538,1.0
20.037,0.228,-0.535,4.0
19.477,0.225,-0.633,4.0
37.853,0.442,-0.199,29.0
31.657,0.375,-0.35,1.0
27.692,0.332,-0.467,1.0
21.618,0.263,-0.493,4.0
19.31,0.238,-0.552,4.0
18.871,0.235,-0.649,3.0
37.211,0.469,-0.267,6.0
30.148,0.385,-0.391,1.0
26.703,0.345,-0.501,2.0
20.714,0.271,-0.511,4.0
18.673,0.247,-0.569,4.0
18.345,0.245,-0.666,3.0
33.499,0.452,-0.304,1.0
29.053,0.396,-0.433,2.0
22.21,0.306,-0.46,1.0
19.816,0.276,-0.527,3.0
18.045,0.254,-0.585,4.0
17.825,0.254,-0.682,3.0
31.637,0.454,-0.349,1.0
27.667,0.401,-0.465,1.0
21.482,0.314,-0.486,7.0
19.095,0.282,-0.545,3.0
17.537,0.261,-0.603,3.0
17.385,0.262,-0.699,2.0
30.167,0.457,-0.391,2.0
26.67,0.408,-0.501,1.0
20.707,0.32,-0.509,4.0
18.433,0.287,-0.562,3.0
17.099,0.268,-0.621,4.0
17.089,0.271,-0.72,2.0
28.908,0.46,-0.431,2.0
22.304,0.358,-0.462,4.0
19.835,0.321,-0.526,3.0
17.766,0.29,-0.576,3.0
16.727,0.275,-0.64,4.0
16.676,0.277,-0.735,2.0
27.537,0.459,-0.465,1.0
21.356,0.359,-0.484,4.0
18.965,0.321,-0.54,5.0
17.158,0.292,-0.59,2.0
16.438,0.282,-0.661,3.0
16.185,0.28,-0.745,2.0
26.652,0.463,-0.502,1.0
20.317,0.355,-0.501,5.0
18.414,0.324,-0.561,3.0
16.527,0.293,-0.601,3.0
16.167,0.288,-0.682,2.0
16.045,0.288,-0.77,1.0
22.166,0.4,-0.461,3.0
19.639,0.356,-0.522,8.0
17.682,0.323,-0.573,2.0
16.093,0.296,-0.617,3.0
15.96,0.295,-0.705,2.0
15.757,0.293,-0.788,1.0
21.225,0.396,-0.483,4.0
18.86,0.354,-0.539,12.0
17.025,0.321,-0.586,2.0
15.823,0.3,-0.638,4.0
15.812,0.302,-0.73,2.0
15.389,0.296,-0.8,2.0
20.339,0.391,-0.503,4.0
18.343,0.355,-0.56,3.0
16.445,0.32,-0.598,2.0
15.667,0.306,-0.663,2.0
15.634,0.307,-0.753,1.0
15.631,0.309,-0.844,0.0
19.492,0.386,-0.521,6.0
17.598,0.35,-0.572,2.0
15.9,0.318,-0.61,3.0
15.488,0.311,-0.686,2.0
15.414,0.311,-0.772,0.0
15.475,0.314,-0.866,0.0
18.766,0.381,-0.539,9.0
16.917,0.345,-0.584,2.0
15.509,0.318,-0.626,2.0
15.319,0.315,-0.709,2.0
15.238,0.315,-0.794,0.0
13.769,0.286,-0.798,0.0
18.135,0.377,-0.557,6.0
16.365,0.341,-0.598,2.0
15.248,0.319,-0.645,3.0
15.151,0.319,-0.731,1.0
15.167,0.32,-0.821,0.0
13.46,0.285,-0.807,0.0
17.568,0.372,-0.574,4.0
15.818,0.337,-0.609,3.0
15.071,0.322,-0.668,3.0
14.995,0.322,-0.754,1.0
14.997,0.323,-0.841,0.0
13.157,0.284,-0.815,0.0
16.839,0.364,-0.584,2.0
15.366,0.333,-0.622,3.0
14.909,0.324,-0.69,4.0
14.911,0.325,-0.779,0.0
13.851,0.303,-0.804,0.0
12.864,0.283,-0.822,0.0
16.319,0.358,-0.597,2.0
15.037,0.331,-0.638,4.0
