X,Y,Z,Reflectivity
61.269,1.328,5.263,18.0
53.898,1.17,4.316,65.0
53.55,1.164,3.977,65.0
41.008,0.902,4.178,14.0
40.057,0.882,3.847,35.0
40.077,0.884,3.614,53.0
40.099,0.885,3.378,64.0
53.895,1.192,4.226,98.0
53.551,1.185,3.887,57.0
49.117,1.1,4.922,5.0
54.019,1.21,5.096,6.0
40.083,0.899,3.547,58.0
53.879,1.21,4.448,73.0
53.879,1.211,4.133,121.0
53.676,1.208,3.805,48.0
40.184,0.914,3.957,59.0
40.154,0.914,3.719,25.0
53.989,1.23,4.685,17.0
53.888,1.228,4.356,97.0
53.646,1.223,4.024,59.0
53.773,1.227,3.721,67.0
53.964,1.244,5.222,21.0
40.183,0.927,3.653,43.0
53.932,1.245,4.587,19.0
53.887,1.244,4.263,81.0
53.509,1.236,3.922,70.0
53.868,1.245,3.634,67.0
53.992,1.261,5.13,8.0
40.166,0.938,3.581,57.0
53.913,1.259,4.491,44.0
53.766,1.256,4.159,28.0
53.632,1.253,3.836,64.0
0.0,0.0,0.0,0.0
40.356,0.952,3.763,17.0
40.188,0.948,3.511,42.0
61.367,1.448,5.003,56.0
53.451,1.261,4.039,52.0
53.731,1.268,3.748,63.0
55.419,1.308,3.542,66.0
40.369,0.961,3.691,42.0
53.93,1.284,4.616,13.0
63.372,1.508,5.053,8.0
53.502,1.273,3.948,25.0
53.846,1.281,3.659,60.0
54.478,1.295,3.384,72.0
40.226,0.964,3.605,66.0
53.918,1.293,4.516,17.0
53.379,1.279,4.159,40.0
62.752,1.502,4.517,17.0
53.96,1.292,3.57,43.0
54.398,1.301,3.282,90.0
40.209,0.97,3.531,45.0
61.391,1.48,5.031,57.0
53.419,1.286,4.065,45.0
53.748,1.293,3.77,38.0
55.259,1.329,3.554,59.0
54.945,1.32,3.214,62.0
40.273,0.975,3.461,1.0
61.419,1.486,4.92,12.0
56.217,1.359,4.174,17.0
53.833,1.3,3.677,50.0
54.466,1.314,3.403,83.0
55.389,1.335,3.137,49.0
67.542,1.64,5.679,13.0
53.374,1.295,4.175,49.0
62.308,1.51,4.509,21.0
53.941,1.305,3.583,55.0
54.393,1.314,3.296,93.0
55.439,1.339,3.037,25.0
61.408,1.492,5.048,19.0
53.422,1.296,4.079,23.0
61.995,1.503,4.371,16.0
0.0,0.0,0.0,0.0
54.942,1.328,3.227,69.0
122.695,2.962,6.491,12.0
61.419,1.492,4.933,7.0
56.23,1.364,4.186,19.0
53.841,1.303,3.693,46.0
54.505,1.318,3.416,82.0
55.37,1.336,3.146,51.0
122.586,2.955,6.252,29.0
53.369,1.293,4.184,50.0
62.518,1.512,4.534,19.0
53.953,1.303,3.598,56.0
54.389,1.311,3.303,91.0
55.44,1.334,3.044,37.0
122.641,2.947,6.02,30.0
53.415,1.29,4.084,44.0
53.747,1.295,3.795,26.0
0.0,0.0,0.0,0.0
54.895,1.317,3.229,65.0
55.482,1.329,2.939,3.0
127.583,3.049,6.017,22.0
56.21,1.35,4.189,7.0
53.815,1.289,3.694,55.0
54.765,1.309,3.44,87.0
55.372,1.32,3.149,62.0
122.607,2.918,6.259,27.0
130.253,3.093,5.892,19.0
53.619,1.278,3.892,18.0
53.948,1.283,3.6,48.0
54.39,1.29,3.312,94.0
55.411,1.311,3.044,41.0
122.746,2.898,6.03,25.0
130.297,3.069,5.643,26.0
53.708,1.269,3.793,61.0
55.531,1.309,3.597,70.0
54.761,1.287,3.228,58.0
55.429,1.299,2.938,7.0
127.56,2.982,6.018,26.0
130.707,3.048,5.405,9.0
53.822,1.259,3.696,75.0
54.873,1.279,3.448,35.0
55.385,1.288,3.156,60.0
122.705,2.844,6.264,26.0
127.647,2.95,5.773,19.0
152.508,3.515,6.011,30.0
0.0,0.0,0.0,0.0
54.404,1.253,3.312,71.0
55.386,1.271,3.049,68.0
122.793,2.809,6.03,21.0
130.409,2.973,5.644,17.0
152.599,3.469,5.718,22.0
55.604,1.267,3.601,31.0
54.658,1.24,3.221,46.0
55.439,1.254,2.943,17.0
127.308,2.869,6.004,19.0
130.626,2.933,5.398,9.0
152.642,3.416,5.419,36.0
54.433,1.22,3.418,56.0
55.32,1.235,3.15,43.0
122.917,2.734,6.28,31.0
127.688,2.829,5.768,38.0
152.363,3.363,5.995,33.0
159.794,3.513,5.356,18.0
54.422,1.197,3.309,73.0
55.356,1.213,3.042,82.0
125.674,2.743,6.173,4.0
127.807,2.777,5.519,29.0
152.503,3.3,5.696,37.0
128.164,2.762,4.043,10.0
54.504,1.175,3.206,40.0
55.353,1.188,2.933,19.0
127.658,2.729,6.019,15.0
127.947,2.722,5.275,28.0
128.097,2.712,4.534,26.0
128.125,2.702,3.791,34.0
54.882,1.157,3.12,29.0
125.433,2.632,6.399,9.0
127.721,2.666,5.77,30.0
128.001,2.66,5.023,43.0
128.056,2.647,4.279,55.0
128.079,2.634,3.534,53.0
55.33,1.137,3.035,65.0
128.699,2.632,6.31,9.0
127.793,2.6,5.521,24.0
127.999,2.591,4.771,57.0
128.008,2.577,4.025,56.0
128.034,2.564,3.282,47.0
55.3,1.106,2.924,39.0
127.808,2.541,6.011,17.0
127.888,2.529,5.27,24.0
127.974,2.516,4.516,46.0
128.031,2.503,3.774,37.0
128.032,2.488,3.029,35.0
55.288,1.072,2.814,2.0
128.108,2.47,5.774,13.0
128.013,2.452,5.023,25.0
128.008,2.438,4.264,30.0
128.062,2.423,3.52,29.0
128.038,2.407,2.775,29.0
128.376,2.409,6.282,9.0
128.104,2.387,5.521,10.0
128.057,2.37,4.772,18.0
128.096,2.355,4.015,15.0
128.132,2.34,3.271,17.0
128.084,2.323,2.524,24.0
129.419,2.34,6.077,19.0
130.676,2.347,5.376,7.0
132.734,2.366,4.686,27.0
160.219,2.835,4.707,18.0
128.3,2.253,3.022,3.0
127.837,2.228,2.267,27.0
129.844,2.255,5.841,23.0
174.596,3.008,6.836,18.0
132.893,2.271,4.43,24.0
160.349,2.72,4.396,18.0
190.087,3.199,4.107,14.0
126.918,2.118,2.005,36.0
130.278,2.163,5.604,27.0
161.647,2.663,6.014,17.0
132.928,2.171,4.172,11.0
160.093,2.592,4.077,6.0
189.842,3.046,3.729,20.0
126.268,2.009,1.746,22.0
59.336,0.938,2.436,7.0
132.787,2.081,4.68,27.0
163.097,2.531,4.799,16.0
190.02,2.923,4.467,17.0
127.963,1.949,2.264,17.0
121.098,1.828,1.441,12.0
55.103,0.826,2.156,2.0
132.93,1.973,4.429,34.0
176.295,2.591,4.85,8.0
190.111,2.765,4.105,39.0
126.946,1.827,2.003,38.0
89.717,1.278,0.896,6.0
55.084,0.778,2.05,74.0
55.082,0.77,1.73,23.0
176.44,2.438,4.514,25.0
190.083,2.598,3.74,19.0
126.376,1.707,1.751,22.0
0.0,0.0,0.0,0.0
55.035,0.727,1.942,103.0
55.049,0.719,1.622,66.0
55.101,0.711,1.303,22.0
48.249,0.614,0.856,1.0
48.209,0.606,0.575,13.0
48.074,0.597,0.294,79.0
55.023,0.676,1.836,115.0
55.027,0.666,1.516,98.0
55.047,0.657,1.196,68.0
48.153,0.567,0.763,47.0
48.103,0.559,0.482,88.0
48.032,0.55,0.202,83.0
55.006,0.622,1.731,49.0
48.178,0.536,1.236,64.0
48.141,0.528,0.956,82.0
48.083,0.519,0.67,102.0
48.063,0.51,0.391,94.0
47.977,0.501,0.112,58.0
48.159,0.496,1.425,92.0
48.126,0.487,1.144,100.0
48.108,0.478,0.865,97.0
48.069,0.469,0.58,101.0
48.03,0.46,0.301,101.0
46.81,0.441,0.022,33.0
48.126,0.445,1.334,115.0
48.112,0.436,1.054,111.0
48.088,0.428,0.775,110.0
48.045,0.418,0.491,110.0
48.02,0.409,0.212,95.0
44.12,0.369,-0.06,14.0
48.127,0.394,1.246,128.0
48.108,0.384,0.966,116.0
48.077,0.375,0.686,110.0
48.062,0.366,0.402,92.0
48.016,0.357,0.123,62.0
39.368,0.285,-0.126,42.0
48.117,0.339,1.156,109.0
48.114,0.331,0.878,93.0
48.12,0.322,0.599,53.0
48.159,0.312,0.315,62.0
47.195,0.297,0.035,39.0
38.432,0.234,-0.194,27.0
48.158,0.285,1.07,82.0
48.18,0.275,0.791,51.0
48.229,0.266,0.512,40.0
55.009,0.293,0.26,62.0
0.0,0.0,0.0,0.0
37.852,0.186,-0.259,7.0
59.282,0.281,1.211,98.0
59.295,0.269,0.868,102.0
59.321,0.257,0.524,90.0
54.489,0.226,0.161,29.0
39.879,0.157,-0.112,28.0
37.781,0.141,-0.325,7.0
79.468,0.281,1.483,152.0
79.462,0.265,1.022,151.0
76.345,0.238,0.54,36.0
47.771,0.139,0.056,22.0
38.932,0.105,-0.179,36.0
32.445,0.081,-0.337,1.0
79.456,0.182,1.343,158.0
79.466,0.166,0.884,151.0
62.308,0.117,0.332,5.0
44.926,0.075,-0.024,22.0
38.317,0.056,-0.242,8.0
30.801,0.038,-0.373,1.0
79.459,0.082,1.206,151.0
79.441,0.065,0.746,150.0
59.213,0.036,0.214,6.0
40.909,0.015,-0.093,17.0
38.049,0.006,-0.306,2.0
29.664,0.0,-0.41,2.0
79.461,-0.02,1.071,152.0
79.187,-0.037,0.61,11.0
50.739,-0.035,0.097,3.0
39.728,-0.036,-0.157,25.0
33.145,-0.037,-0.322,1.0
28.701,-0.038,-0.445,2.0
79.467,-0.124,0.938,151.0
76.242,-0.137,0.459,12.0
45.981,-0.092,0.011,14.0
39.053,-0.087,-0.219,11.0
31.631,-0.077,-0.36,2.0
27.592,-0.074,-0.473,1.0
79.457,-0.231,0.808,150.0
61.48,-0.192,0.27,14.0
42.565,-0.143,-0.058,17.0
38.931,-0.139,-0.282,1.0
30.019,-0.114,-0.391,1.0
26.613,-0.108,-0.5,1.0
79.302,-0.34,0.677,69.0
0.0,0.0,0.0,0.0
41.666,-0.198,-0.125,4.0
33.837,-0.169,-0.3,1.0
29.234,-0.152,-0.428,2.0
25.826,-0.141,-0.528,1.0
76.768,-0.438,0.53,14.0
50.231,-0.298,0.057,24.0
41.603,-0.257,-0.191,4.0
32.428,-0.208,-0.34,1.0
28.156,-0.187,-0.457,1.0
24.719,-0.17,-0.544,1.0
62.029,-0.443,0.33,7.0
46.798,-0.345,-0.019,4.0
40.455,-0.308,-0.25,9.0
30.704,-0.241,-0.37,1.0
27.11,-0.22,-0.483,3.0
23.929,-0.2,-0.564,2.0
58.939,-0.507,0.222,4.0
50.523,-0.447,-0.1,13.0
36.595,-0.333,-0.283,0.0
29.692,-0.277,-0.404,3.0
26.247,-0.252,-0.508,2.0
23.27,-0.229,-0.585,2.0
56.913,-0.575,0.127,4.0
45.19,-0.467,-0.158,2.0
33.354,-0.353,-0.309,1.0
28.891,-0.313,-0.437,5.0
25.351,-0.281,-0.529,2.0
22.558,-0.256,-0.601,1.0
60.839,-0.706,0.045,2.0
42.53,-0.504,-0.213,2.0
31.937,-0.387,-0.344,1.0
27.857,-0.344,-0.463,2.0
24.601,-0.31,-0.55,1.0
21.814,-0.281,-0.614,2.0
51.746,-0.68,-0.037,3.0
40.105,-0.537,-0.259,0.0
30.595,-0.418,-0.374,1.0
26.947,-0.375,-0.487,1.0
23.799,-0.337,-0.567,2.0
21.215,-0.306,-0.627,1.0
50.774,-0.746,-0.109,4.0
35.993,-0.538,-0.284,0.0
29.586,-0.45,-0.404,1.0
26.105,-0.404,-0.509,1.0
23.122,-0.365,-0.584,2.0
20.597,-0.33,-0.639,1.0
46.382,-0.755,-0.165,1.0
33.771,-0.559,-0.315,1.0
28.864,-0.485,-0.434,1.0
25.298,-0.432,-0.529,1.0
22.513,-0.391,-0.6,1.0
20.071,-0.354,-0.651,1.0
40.269,-0.72,-0.199,23.0
31.957,-0.58,-0.342,1.0
27.906,-0.514,-0.459,1.0
24.643,-0.461,-0.549,1.0
21.869,-0.415,-0.613,1.0
19.597,-0.377,-0.662,1.0
40.171,-0.784,-0.253,5.0
30.635,-0.607,-0.369,1.0
26.931,-0.541,-0.479,1.0
23.851,-0.485,-0.563,1.0
21.279,-0.439,-0.625,1.0
19.118,-0.4,-0.671,1.0
37.285,-0.789,-0.284,0.0
29.76,-0.638,-0.397,1.0
26.273,-0.571,-0.502,1.0
23.231,-0.511,-0.579,1.0
20.721,-0.462,-0.636,1.0
18.678,-0.422,-0.68,1.0
34.447,-0.786,-0.307,0.0
29.078,-0.672,-0.426,1.0
25.64,-0.6,-0.522,1.0
22.685,-0.537,-0.594,2.0
20.232,-0.485,-0.646,1.0
18.317,-0.445,-0.69,1.0
32.684,-0.802,-0.332,1.0
27.858,-0.691,-0.443,2.0
25.01,-0.628,-0.54,1.0
22.089,-0.561,-0.606,1.0
19.78,-0.508,-0.656,1.0
17.947,-0.466,-0.698,1.0
31.358,-0.822,-0.357,1.0
27.404,-0.727,-0.469,1.0
24.312,-0.652,-0.555,1.0
21.507,-0.583,-0.616,1.0
19.375,-0.531,-0.666,1.0
17.629,-0.488,-0.707,1.0
30.281,-0.846,-0.38,1.0
26.772,-0.756,-0.489,1.0
23.608,-0.674,-0.566,1.0
21.015,-0.606,-0.627,1.0
18.967,-0.553,-0.674,1.0
17.304,-0.509,-0.714,1.0
29.552,-0.877,-0.405,1.0
26.156,-0.784,-0.508,1.0
23.16,-0.701,-0.582,1.0
20.582,-0.629,-0.637,1.0
18.621,-0.574,-0.682,1.0
17.009,-0.53,-0.721,1.0
28.91,-0.907,-0.428,1.0
25.577,-0.81,-0.524,1.0
22.644,-0.724,-0.593,1.0
20.17,-0.651,-0.646,1.0
18.283,-0.596,-0.69,1.0
16.696,-0.549,-0.726,1.0
28.298,-0.938,-0.449,1.0
25.035,-0.837,-0.54,1.0
22.172,-0.748,-0.605,1.0
19.8,-0.674,-0.655,1.0
18.004,-0.619,-0.698,1.0
16.421,-0.57,-0.731,1.0
27.487,-0.959,-0.464,2.0
24.38,-0.858,-0.551,1.0
21.682,-0.77,-0.613,1.0
19.448,-0.697,-0.663,1.0
17.717,-0.64,-0.705,1.0
16.133,-0.588,-0.734,1.0
26.951,-0.988,-0.482,1.0
23.824,-0.881,-0.562,2.0
21.27,-0.793,-0.623,1.0
19.1,-0.718,-0.67,1.0
17.46,-0.662,-0.712,1.0
15.93,-0.609,-0.741,1.0
26.43,-1.017,-0.498,2.0
23.395,-0.907,-0.574,1.0
20.863,-0.815,-0.631,1.0
18.794,-0.74,-0.677,1.0
17.18,-0.682,-0.717,1.0
15.699,-0.629,-0.744,1.0
25.94,-1.044,-0.513,1.0
23.019,-0.934,-0.586,1.0
20.496,-0.838,-0.638,1.0
18.514,-0.763,-0.684,2.0
16.936,-0.703,-0.722,1.0
15.524,-0.649,-0.75,1.0
25.482,-1.071,-0.526,1.0
22.606,-0.957,-0.595,2.0
20.141,-0.859,-0.644,1.0
18.248,-0.784,-0.689,1.0
16.674,-0.722,-0.725,1.0
15.337,-0.669,-0.754,1.0
25.031,-1.097,-0.538,1.0
22.204,-0.98,-0.603,1.0
19.882,-0.884,-0.653,1.0
18.024,-0.807,-0.696,1.0
16.469,-0.743,-0.73,1.0
15.156,-0.689,-0.757,1.0
24.616,-1.123,-0.549,1.0
21.798,-1.002,-0.609,1.0
19.616,-0.908,-0.66,1.0
17.814,-0.831,-0.702,2.0
16.273,-0.764,-0.734,1.0
14.984,-0.708,-0.761,1.0
24.102,-1.144,-0.555,1.0
21.491,-1.027,-0.617,1.0
19.317,-0.929,-0.664,1.0
17.612,-0.853,-0.707,1.0
16.07,-0.784,-0.736,1.0
14.848,-0.729,-0.765,1.0
23.737,-1.17,-0.564,1.0
21.159,-1.05,-0.623,1.0
19.107,-0.954,-0.671,1.0
17.416,-0.876,-0.712,1.0
15.922,-0.806,-0.741,1.0
14.693,-0.749,-0.767,1.0
23.42,-1.197,-0.573,2.0
20.896,-1.075,-0.629,1.0
18.858,-0.976,-0.675,2.0
17.193,-0.896,-0.714,1.0
15.762,-0.827,-0.744,1.0
14.558,-0.768,-0.769,1.0
23.19,-1.227,-0.582,11.0
20.632,-1.099,-0.635,1.0
18.68,-1.001,-0.68,1.0
17.048,-0.92,-0.719,1.0
15.615,-0.847,-0.747,1.0
14.442,-0.789,-0.772,1.0
22.86,-1.252,-0.588,7.0
20.401,-1.124,-0.64,2.0
18.495,-1.025,-0.684,2.0
16.868,-0.94,-0.721,1.0
15.506,-0.87,-0.75,1.0
14.349,-0.81,-0.776,1.0
22.55,-1.276,-0.592,5.0
20.341,-1.157,-0.649,3.0
18.308,-1.048,-0.687,1.0
16.721,-0.963,-0.724,1.0
15.379,-0.891,-0.753,1.0
14.218,-0.828,-0.776,1.0
22.267,-1.3,-0.597,4.0
19.928,-1.17,-0.646,3.0
18.185,-1.074,-0.692,1.0
16.593,-0.985,-0.727,1.0
15.281,-0.913,-0.756,1.0
14.122,-0.848,-0.778,1.0
22.088,-1.33,-0.602,4.0
19.74,-1.195,-0.649,3.0
18.079,-1.101,-0.697,3.0
16.48,-1.009,-0.73,1.0
15.17,-0.934,-0.757,1.0
14.023,-0.868,-0.779,1.0
21.672,-1.344,-0.601,1.0
19.617,-1.223,-0.654,3.0
17.846,-1.119,-0.695,1.0
16.359,-1.031,-0.731,1.0
15.095,-0.957,-0.76,1.0
13.971,-0.89,-0.782,1.0
21.755,-1.389,-0.612,0.0
19.509,-1.252,-0.658,3.0
17.811,-1.149,-0.701,0.0
16.302,-1.057,-0.735,2.0
15.006,-0.978,-0.761,1.0
13.901,-0.911,-0.783,1.0
21.464,-1.409,-0.611,0.0
19.427,-1.281,-0.662,2.0
17.686,-1.172,-0.702,0.0
16.051,-1.069,-0.729,5.0
14.93,-1.0,-0.762,1.0
13.846,-0.932,-0.785,1.0
21.593,-1.456,-0.622,0.0
19.184,-1.3,-0.66,0.0
17.555,-1.195,-0.702,0.0
15.997,-1.094,-0.731,6.0
14.914,-1.026,-0.766,2.0
13.787,-0.953,-0.785,1.0
21.449,-1.484,-0.624,0.0
19.325,-1.344,-0.67,0.0
17.555,-1.227,-0.707,1.0
15.983,-1.122,-0.735,6.0
14.72,-1.039,-0.759,1.0
13.763,-0.976,-0.787,1.0
21.297,-1.512,-0.625,0.0
19.177,-1.368,-0.67,0.0
17.368,-1.245,-0.704,0.0
15.956,-1.149,-0.737,7.0
14.729,-1.066,-0.763,0.0
13.741,-0.999,-0.789,1.0
21.171,-1.541,-0.625,1.0
19.078,-1.395,-0.67,0.0
17.492,-1.284,-0.712,0.0
15.91,-1.174,-0.738,12.0
14.693,-1.089,-0.764,1.0
13.641,-1.016,-0.786,2.0
21.141,-1.575,-0.628,1.0
18.99,-1.421,-0.67,0.0
17.437,-1.311,-0.712,0.0
15.899,-1.201,-0.74,7.0
14.644,-1.111,-0.763,2.0
13.622,-1.038,-0.786,1.0
21.111,-1.61,-0.63,1.0
18.993,-1.455,-0.672,0.0
17.371,-1.336,-0.712,0.0
15.783,-1.219,-0.736,0.0
14.607,-1.134,-0.763,3.0
13.618,-1.062,-0.787,1.0
21.062,-1.643,-0.63,1.0
18.982,-1.487,-0.673,1.0
17.31,-1.361,-0.71,0.0
15.891,-1.255,-0.742,0.0
14.624,-1.16,-0.765,1.0
13.673,-1.089,-0.791,1.0
21.05,-1.678,-0.63,1.0
18.96,-1.517,-0.673,1.0
17.21,-1.383,-0.707,0.0
15.91,-1.284,-0.743,0.0
14.571,-1.181,-0.762,0.0
13.663,-1.112,-0.791,3.0
21.06,-1.714,-0.631,1.0
18.976,-1.551,-0.674,1.0
16.975,-1.393,-0.697,0.0
15.878,-1.308,-0.742,0.0
14.673,-1.214,-0.767,0.0
13.635,-1.133,-0.789,2.0
21.13,-1.756,-0.632,1.0
19.006,-1.586,-0.674,1.0
16.933,-1.418,-0.694,0.0
15.923,-1.339,-0.743,0.0
14.665,-1.238,-0.766,0.0
13.61,-1.153,-0.786,1.0
21.148,-1.792,-0.631,1.0
19.013,-1.618,-0.673,1.0
16.58,-1.416,-0.678,2.0
16.004,-1.372,-0.745,1.0
14.689,-1.264,-0.766,0.0
13.672,-1.181,-0.788,0.0
21.167,-1.829,-0.629,1.0
19.079,-1.654,-0.673,1.0
16.666,-1.451,-0.68,2.0
16.052,-1.402,-0.745,1.0
14.722,-1.291,-0.765,0.0
13.718,-1.207,-0.789,0.0
21.283,-1.873,-0.629,1.0
19.138,-1.691,-0.672,1.0
16.771,-1.487,-0.681,1.0
16.107,-1.433,-0.745,2.0
14.747,-1.317,-0.764,0.0
13.755,-1.233,-0.789,0.0
21.298,-1.909,-0.626,1.0
19.212,-1.728,-0.67,0.0
16.941,-1.529,-0.685,1.0
16.198,-1.467,-0.746,3.0
14.813,-1.347,-0.764,0.0
13.788,-1.258,-0.788,0.0
21.464,-1.958,-0.626,1.0
19.284,-1.765,-0.669,0.0
17.4,-1.598,-0.699,1.0
16.212,-1.494,-0.743,4.0
14.895,-1.378,-0.765,0.0
13.837,-1.284,-0.787,0.0
21.554,-2.0,-0.623,1.0
19.402,-1.806,-0.667,0.0
17.637,-1.648,-0.704,0.0
16.23,-1.521,-0.739,6.0
14.932,-1.404,-0.762,0.0
13.88,-1.31,-0.785,1.0
21.669,-2.044,-0.619,1.0
19.566,-1.851,-0.667,0.0
17.741,-1.684,-0.702,0.0
16.25,-1.548,-0.735,7.0
15.031,-1.436,-0.762,0.0
13.936,-1.336,-0.784,0.0
21.847,-2.094,-0.617,1.0
19.677,-1.892,-0.664,1.0
17.864,-1.723,-0.701,0.0
16.276,-1.574,-0.73,10.0
15.104,-1.466,-0.761,0.0
14.001,-1.363,-0.782,1.0
22.012,-2.142,-0.614,1.0
19.855,-1.938,-0.663,0.0
17.972,-1.76,-0.698,0.0
16.281,-1.599,-0.724,10.0
15.196,-1.497,-0.759,0.0
14.067,-1.39,-0.78,0.0
22.138,-2.187,-0.608,1.0
20.16,-1.998,-0.664,1.0
18.103,-1.799,-0.696,0.0
16.296,-1.624,-0.718,6.0
15.26,-1.526,-0.756,1.0
14.165,-1.42,-0.78,0.0
22.432,-2.248,-0.606,1.0
20.391,-2.049,-0.663,3.0
18.274,-1.842,-0.694,0.0
16.301,-1.648,-0.71,1.0
15.397,-1.561,-0.756,0.0
14.28,-1.452,-0.779,0.0
22.942,-2.331,-0.609,3.0
20.421,-2.081,-0.654,14.0
18.441,-1.884,-0.692,0.0
16.325,-1.673,-0.703,1.0
15.521,-1.595,-0.754,0.0
14.377,-1.482,-0.777,1.0
23.094,-2.378,-0.602,9.0
20.437,-2.11,-0.644,18.0
18.615,-1.927,-0.689,0.0
16.344,-1.697,-0.696,0.0
15.628,-1.627,-0.751,1.0
14.487,-1.513,-0.775,0.0
23.199,-2.421,-0.592,20.0
20.519,-2.147,-0.635,10.0
18.775,-1.969,-0.684,1.0
16.473,-1.732,-0.692,0.0
15.783,-1.664,-0.749,1.0
14.587,-1.542,-0.772,0.0
23.611,-2.494,-0.589,38.0
20.688,-2.191,-0.629,4.0
18.963,-2.014,-0.68,1.0
17.038,-1.814,-0.706,0.0
15.966,-1.704,-0.749,1.0
14.711,-1.574,-0.77,0.0
23.578,-2.521,-0.574,28.0
21.414,-2.295,-0.638,3.0
19.229,-2.066,-0.678,1.0
17.49,-1.884,-0.714,0.0
16.125,-1.741,-0.746,1.0
14.838,-1.606,-0.768,1.0
23.812,-2.576,-0.565,19.0
21.628,-2.345,-0.631,5.0
19.691,-2.14,-0.681,3.0
17.691,-1.927,-0.71,0.0
16.241,-1.774,-0.741,2.0
14.961,-1.638,-0.764,0.0
24.08,-2.634,-0.555,6.0
21.865,-2.397,-0.623,12.0
19.874,-2.184,-0.674,5.0
17.832,-1.964,-0.704,0.0
16.266,-1.796,-0.731,2.0
15.135,-1.675,-0.762,1.0
24.574,-2.717,-0.549,3.0
22.095,-2.449,-0.614,19.0
20.023,-2.223,-0.665,8.0
18.074,-2.012,-0.701,0.0
16.282,-1.816,-0.72,1.0
15.3,-1.711,-0.76,0.0
25.371,-2.834,-0.549,1.0
22.385,-2.506,-0.606,20.0
20.289,-2.276,-0.659,9.0
18.278,-2.055,-0.695,0.0
16.324,-1.839,-0.71,1.0
15.486,-1.748,-0.758,1.0
25.835,-2.915,-0.54,1.0
22.709,-2.567,-0.598,23.0
20.469,-2.318,-0.65,12.0
18.564,-2.107,-0.692,1.0
16.371,-1.862,-0.699,1.0
15.662,-1.785,-0.754,1.0
26.295,-2.995,-0.529,1.0
23.005,-2.625,-0.588,22.0
20.791,-2.377,-0.644,12.0
18.937,-2.169,-0.691,1.0
16.66,-1.912,-0.698,1.0
15.883,-1.827,-0.752,1.0
26.738,-3.073,-0.517,1.0
23.302,-2.683,-0.576,5.0
21.156,-2.44,-0.638,13.0
19.351,-2.236,-0.69,3.0
17.225,-1.994,-0.708,1.0
16.097,-1.867,-0.749,2.0
27.368,-3.172,-0.506,1.0
23.825,-2.766,-0.57,2.0
21.539,-2.505,-0.631,16.0
19.519,-2.275,-0.68,10.0
17.731,-2.07,-0.714,1.0
16.247,-1.9,-0.742,6.0
27.998,-3.272,-0.494,1.0
24.688,-2.89,-0.569,1.0
21.885,-2.566,-0.623,24.0
19.727,-2.317,-0.67,16.0
17.911,-2.107,-0.706,1.0
16.284,-1.919,-0.73,7.0
28.685,-3.379,-0.482,1.0
25.12,-2.963,-0.557,1.0
22.177,-2.621,-0.612,22.0
20.01,-2.368,-0.662,17.0
18.211,-2.159,-0.701,1.0
16.312,-1.937,-0.716,6.0
29.491,-3.5,-0.469,1.0
25.677,-3.051,-0.547,1.0
22.726,-2.705,-0.606,16.0
20.373,-2.429,-0.656,13.0
18.623,-2.224,-0.7,1.0
16.362,-1.957,-0.704,5.0
30.114,-3.599,-0.451,1.0
26.286,-3.146,-0.535,1.0
23.078,-2.766,-0.595,18.0
20.771,-2.493,-0.649,15.0
19.012,-2.285,-0.697,5.0
16.521,-1.989,-0.695,2.0
31.345,-3.771,-0.44,1.0
26.821,-3.231,-0.521,1.0
23.359,-2.818,-0.58,5.0
21.121,-2.551,-0.64,19.0
19.207,-2.324,-0.686,10.0
17.327,-2.099,-0.712,1.0
32.372,-3.919,-0.423,1.0
27.558,-3.34,-0.509,1.0
23.991,-2.912,-0.572,1.0
21.393,-2.6,-0.628,13.0
19.475,-2.37,-0.676,17.0
17.782,-2.167,-0.714,1.0
33.49,-4.078,-0.406,1.0
28.251,-3.444,-0.494,1.0
24.847,-3.033,-0.568,1.0
21.927,-2.68,-0.622,4.0
19.787,-2.421,-0.668,16.0
18.058,-2.213,-0.707,1.0
37.095,-4.543,-0.412,0.0
29.152,-3.574,-0.48,1.0
25.444,-3.123,-0.556,1.0
22.766,-2.797,-0.622,7.0
20.233,-2.489,-0.662,18.0
18.569,-2.287,-0.708,2.0
36.855,-4.536,-0.372,1.0
30.004,-3.697,-0.464,1.0
26.103,-3.219,-0.544,1.0
22.942,-2.832,-0.604,15.0
20.604,-2.547,-0.653,18.0
18.879,-2.336,-0.7,6.0
37.862,-4.682,-0.344,0.0
31.336,-3.879,-0.453,1.0
26.639,-3.301,-0.528,1.0
23.224,-2.88,-0.587,5.0
20.901,-2.595,-0.641,12.0
19.09,-2.372,-0.688,14.0
39.396,-4.893,-0.317,0.0
32.258,-4.01,-0.432,1.0
27.406,-3.41,-0.515,1.0
23.894,-2.976,-0.579,1.0
21.242,-2.648,-0.629,2.0
19.389,-2.419,-0.679,17.0
45.374,-5.659,-0.317,1.0
33.374,-4.165,-0.412,1.0
28.349,-3.541,-0.502,1.0
24.818,-3.102,-0.575,1.0
22.292,-2.789,-0.636,3.0
19.778,-2.477,-0.671,12.0
45.294,-5.669,-0.268,3.0
35.887,-4.495,-0.405,3.0
29.217,-3.662,-0.486,1.0
25.377,-3.183,-0.561,1.0
22.773,-2.858,-0.626,8.0
20.256,-2.545,-0.665,9.0
45.343,-5.694,-0.22,4.0
37.092,-4.66,-0.379,2.0
30.132,-3.788,-0.469,1.0
26.022,-3.274,-0.547,1.0
22.969,-2.892,-0.606,15.0
20.562,-2.591,-0.653,4.0
50.403,-6.347,-0.189,4.0
37.925,-4.778,-0.346,0.0
31.411,-3.96,-0.455,1.0
26.722,-3.371,-0.532,1.0
23.275,-2.938,-0.589,5.0
21.051,-2.659,-0.645,0.0
50.45,-6.369,-0.133,7.0
41.042,-5.184,-0.328,0.0
32.753,-4.139,-0.438,1.0
27.417,-3.466,-0.516,1.0
24.128,-3.052,-0.583,1.0
21.639,-2.739,-0.639,0.0
50.415,-6.379,-0.078,0.0
41.277,-5.224,-0.284,0.0
33.602,-4.254,-0.412,1.0
28.424,-3.6,-0.504,1.0
24.959,-3.163,-0.576,1.0
22.465,-2.848,-0.639,4.0
0.0,0.0,0.0,0.0
0.0,0.0,0.0,0.0
35.826,-4.544,-0.398,0.0
29.38,-3.727,-0.487,1.0
25.564,-3.244,-0.561,1.0
22.81,-2.896,-0.623,13.0
0.0,0.0,0.0,0.0
50.378,-6.396,-0.234,1.0
38.02,-4.828,-0.38,1.0
30.14,-3.828,-0.466,1.0
26.259,-3.336,-0.546,1.0
23.015,-2.925,-0.602,14.0
0.0,0.0,0.0,0.0
50.376,-6.402,-0.177,5.0
38.543,-4.899,-0.342,1.0
31.725,-4.033,-0.454,1.0
26.965,-3.428,-0.531,1.0
23.428,-2.979,-0.586,4.0
0.0,0.0,0.0,0.0
50.429,-6.412,-0.12,4.0
41.045,-5.219,-0.317,1.0
32.913,-4.186,-0.434,1.0
27.837,-3.541,-0.516,1.0
24.476,-3.114,-0.585,1.0
89.16,-11.34,0.366,4.0
0.0,0.0,0.0,0.0
0.0,0.0,0.0,0.0
34.091,-4.336,-0.41,0.0
28.733,-3.654,-0.5,1.0
25.221,-3.208,-0.574,1.0
89.208,-11.346,0.468,5.0
0.0,0.0,0.0,0.0
0.0,0.0,0.0,0.0
36.054,-4.584,-0.393,0.0
29.637,-3.768,-0.482,1.0
25.783,-3.278,-0.557,1.0
99.334,-12.628,0.635,6.0
0.0,0.0,0.0,0.0
50.361,-6.4,-0.216,3.0
38.191,-4.853,-0.372,1.0
30.672,-3.897,-0.463,1.0
26.569,-3.375,-0.543,1.0
99.478,-12.637,0.751,39.0
0.0,0.0,0.0,0.0
50.426,-6.402,-0.159,7.0
0.0,0.0,0.0,0.0
32.152,-4.08,-0.449,1.0
27.282,-3.462,-0.527,1.0
99.626,-12.641,0.864,66.0
89.396,-11.339,0.297,2.0
50.487,-6.401,-0.102,2.0
41.361,-5.242,-0.309,0.0
33.259,-4.214,-0.426,1.0
28.259,-3.58,-0.513,1.0
99.638,-12.623,0.978,76.0
89.504,-11.334,0.399,7.0
0.0,0.0,0.0,0.0
0.0,0.0,0.0,0.0
34.584,-4.374,-0.403,0.0
29.076,-3.676,-0.495,1.0
99.65,-12.6,1.092,72.0
89.956,-11.368,0.504,3.0
0.0,0.0,0.0,0.0
45.319,-5.722,-0.235,2.0
36.449,-4.6,-0.384,1.0
29.994,-3.784,-0.477,1.0
99.638,-12.57,1.204,79.0
99.407,-12.533,0.67,17.0
0.0,0.0,0.0,0.0
50.418,-6.349,-0.204,4.0
37.394,-4.706,-0.352,0.0
31.351,-3.944,-0.463,0.0
99.659,-12.539,1.319,75.0
99.545,-12.516,0.784,48.0
0.0,0.0,0.0,0.0
50.426,-6.332,-0.148,6.0
41.308,-5.184,-0.342,0.0
32.384,-4.061,-0.442,1.0
99.698,-12.506,1.43,61.0
99.691,-12.495,0.897,52.0
89.617,-11.224,0.325,1.0
50.448,-6.314,-0.092,0.0
45.313,-5.667,-0.325,1.0
35.902,-4.487,-0.449,1.0
99.719,-12.466,1.543,19.0
99.751,-12.459,1.008,36.0
91.232,-11.385,0.433,4.0
0.0,0.0,0.0,0.0
45.311,-5.646,-0.274,9.0
35.987,-4.48,-0.411,5.0
201.261,-25.064,3.336,18.0
86.399,-10.749,0.969,118.0
0.0,0.0,0.0,0.0
65.3,-8.109,0.025,0.0
45.32,-5.623,-0.224,4.0
36.052,-4.47,-0.372,2.0
201.231,-24.956,3.553,33.0
86.386,-10.702,1.063,47.0
86.672,-10.727,0.601,2.0
0.0,0.0,0.0,0.0
50.348,-6.219,-0.195,1.0
38.997,-4.813,-0.36,1.0
86.492,-10.678,1.621,4.0
86.329,-10.645,1.155,61.0
86.333,-10.634,0.691,13.0
0.0,0.0,0.0,0.0
50.343,-6.188,-0.141,1.0
41.386,-5.082,-0.337,0.0
203.104,-24.949,4.026,28.0
86.305,-10.589,1.248,51.0
86.334,-10.58,0.785,163.0
0.0,0.0,0.0,0.0
0.0,0.0,0.0,0.0
0.0,0.0,0.0,0.0
203.043,-24.81,4.239,35.0
86.282,-10.529,1.339,46.0
86.277,-10.515,0.875,178.0
87.095,-10.602,0.407,4.0
0.0,0.0,0.0,0.0
44.527,-5.407,-0.269,0.0
203.097,-24.674,4.454,23.0
86.297,-10.47,1.428,29.0
86.263,-10.451,0.964,166.0
87.025,-10.53,0.497,17.0
0.0,0.0,0.0,0.0
0.0,0.0,0.0,0.0
188.289,-22.736,4.323,14.0
86.298,-10.405,1.517,36.0
86.244,-10.383,1.053,53.0
87.285,-10.495,0.588,5.0
0.0,0.0,0.0,0.0
50.251,-6.026,-0.201,1.0
188.178,-22.575,4.511,30.0
86.29,-10.336,1.604,24.0
86.244,-10.315,1.139,70.0
87.171,-10.41,0.674,10.0
0.0,0.0,0.0,0.0
50.41,-6.003,-0.152,5.0
188.38,-22.443,4.702,37.0
86.334,-10.269,1.691,3.0
86.24,-10.242,1.224,66.0
86.196,-10.221,0.75,14.0
96.577,-11.435,0.321,1.0
50.491,-5.969,-0.103,1.0
188.621,-22.31,4.893,39.0
86.67,-10.233,1.781,7.0
86.202,-10.161,1.307,56.0
86.181,-10.142,0.834,38.0
0.0,0.0,0.0,0.0
0.0,0.0,0.0,0.0
188.529,-22.126,5.071,43.0
86.618,-10.148,1.863,17.0
86.232,-10.085,1.39,54.0
86.225,-10.066,0.917,150.0
87.253,-10.169,0.458,26.0
0.0,0.0,0.0,0.0
188.249,-21.915,5.241,35.0
86.694,-10.073,1.946,15.0
86.263,-10.005,1.471,55.0
86.25,-9.985,0.997,156.0
87.274,-10.086,0.538,12.0
0.0,0.0,0.0,0.0
188.211,-21.723,5.415,37.0
107.491,-12.382,2.511,22.0
86.247,-9.916,1.55,55.0
86.241,-9.897,1.075,178.0
87.234,-9.992,0.616,7.0
0.0,0.0,0.0,0.0
115.881,-13.256,3.437,51.0
107.453,-12.266,2.607,92.0
86.268,-9.828,1.626,27.0
86.257,-9.807,1.152,183.0
86.39,-9.803,0.688,23.0
0.0,0.0,0.0,0.0
107.379,-12.167,3.28,48.0
107.469,-12.151,2.702,85.0
86.318,-9.739,1.703,4.0
86.275,-9.714,1.227,156.0
86.253,-9.691,0.761,19.0
0.0,0.0,0.0,0.0
107.352,-12.044,3.371,62.0
107.483,-12.032,2.793,11.0
86.679,-9.682,1.784,4.0
86.244,-9.612,1.3,80.0
86.22,-9.589,0.832,42.0
0.0,0.0,0.0,0.0
107.355,-11.921,3.46,64.0
187.37,-20.759,5.023,34.0
86.722,-9.587,1.855,7.0
86.26,-9.514,1.37,58.0
86.236,-9.49,0.902,53.0
0.0,0.0,0.0,0.0
107.352,-11.794,3.546,22.0
187.61,-20.562,5.179,24.0
86.856,-9.497,1.927,9.0
86.311,-9.416,1.438,37.0
86.273,-9.39,0.97,59.0
87.417,-9.493,0.51,4.0
123.334,-13.4,4.169,35.0
123.45,-13.379,3.502,102.0
123.612,-13.363,2.837,25.0
86.379,-9.316,1.505,39.0
86.349,-9.29,1.037,151.0
87.331,-9.373,0.575,4.0
123.279,-13.239,4.26,37.0
123.482,-13.226,3.597,38.0
123.58,-13.203,2.928,71.0
86.48,-9.216,1.571,44.0
86.389,-9.184,1.1,65.0
87.076,-9.234,0.636,14.0
107.376,-11.393,3.788,19.0
188.029,-19.897,5.611,27.0
188.167,-19.859,4.592,29.0
86.686,-9.124,1.636,7.0
86.466,-9.077,1.163,32.0
86.689,-9.078,0.694,3.0
189.977,-19.903,6.834,23.0
187.938,-19.636,5.739,42.0
187.575,-19.544,4.708,48.0
96.062,-9.982,1.878,2.0
86.85,-9.0,1.227,7.0
87.063,-8.999,0.756,2.0
148.395,-15.345,5.437,42.0
187.998,-19.384,5.867,36.0
187.842,-19.314,4.838,44.0
96.033,-9.846,1.94,2.0
89.213,-9.122,1.318,10.0
89.45,-9.121,0.834,4.0
148.379,-15.136,5.532,20.0
188.059,-19.126,5.986,34.0
188.134,-19.079,4.964,53.0
0.0,0.0,0.0,0.0
95.118,-9.589,1.464,7.0
94.505,-9.501,0.94,9.0
148.082,-14.895,5.611,33.0
148.526,-14.893,4.818,39.0
188.109,-18.806,5.076,54.0
187.967,-18.735,4.029,33.0
95.869,-9.527,1.531,9.0
95.632,-9.476,1.007,3.0
189.749,-18.809,7.3,13.0
149.496,-14.771,4.935,44.0
188.189,-18.537,5.183,37.0
187.945,-18.456,4.134,29.0
97.469,-9.542,1.611,4.0
97.189,-9.485,1.076,2.0
148.121,-14.461,5.781,26.0
188.283,-18.323,6.317,33.0
149.479,-14.5,4.197,42.0
149.48,-14.454,3.367,101.0
0.0,0.0,0.0,0.0
100.732,-9.679,1.167,17.0
150.847,-14.5,5.964,21.0
150.186,-14.388,5.115,30.0
148.957,-14.222,4.258,68.0
188.078,-17.898,4.331,48.0
0.0,0.0,0.0,0.0
0.0,0.0,0.0,0.0
157.389,-14.884,6.297,34.0
149.724,-14.11,5.171,47.0
187.897,-17.646,5.461,34.0
188.251,-17.618,4.422,50.0
108.762,-10.145,1.958,4.0
108.487,-10.085,1.361,66.0
148.175,-13.778,5.996,30.0
148.655,-13.775,5.2,19.0
188.187,-17.377,5.551,35.0
188.69,-17.362,4.512,41.0
108.984,-9.992,2.009,4.0
108.594,-9.921,1.407,68.0
148.578,-13.578,6.074,51.0
189.489,-17.254,6.705,19.0
149.5,-13.562,4.469,17.0
188.396,-17.029,4.581,60.0
0.0,0.0,0.0,0.0
108.909,-9.775,1.453,10.0
148.555,-13.334,6.13,21.0
164.067,-14.67,5.868,41.0
149.62,-13.327,4.529,26.0
188.584,-16.734,4.654,43.0
157.285,-13.907,3.018,5.0
110.751,-9.756,1.518,6.0
158.277,-13.943,6.585,22.0
156.976,-13.774,5.667,24.0
190.597,-16.661,5.833,20.0
157.356,-13.701,3.935,98.0
157.34,-13.647,3.07,4.0
121.787,-10.524,1.707,9.0
205.02,-17.715,8.595,7.0
149.883,-12.9,5.457,33.0
157.349,-13.49,4.863,58.0
165.031,-14.091,4.175,23.0
165.065,-14.038,3.268,27.0
0.0,0.0,0.0,0.0
158.352,-13.415,6.681,26.0
156.731,-13.222,5.748,22.0
157.56,-13.237,4.91,42.0
165.086,-13.813,4.22,31.0
201.583,-16.799,4.042,16.0
122.036,-10.13,1.774,94.0
149.861,-12.437,6.359,32.0
163.975,-13.549,6.053,32.0
157.273,-12.941,4.937,67.0
193.77,-15.88,4.995,26.0
0.0,0.0,0.0,0.0
122.223,-9.933,1.802,3.0
150.266,-12.208,6.405,25.0
157.986,-12.779,5.863,39.0
164.645,-13.26,5.2,66.0
206.444,-16.554,5.359,19.0
284.967,-22.751,5.824,15.0
128.163,-10.188,1.913,189.0
163.212,-12.969,6.985,47.0
165.411,-13.083,6.164,27.0
212.615,-16.741,6.748,22.0
212.481,-16.657,5.546,25.0
0.0,0.0,0.0,0.0
0.0,0.0,0.0,0.0
156.67,-12.167,6.724,15.0
165.534,-12.798,6.189,20.0
196.657,-15.133,6.264,48.0
196.825,-15.078,5.159,33.0
197.027,-15.025,4.076,50.0
148.433,-11.268,2.25,70.0
156.362,-11.862,6.725,6.0
164.271,-12.404,6.155,29.0
197.055,-14.809,6.292,48.0
212.698,-15.91,5.59,20.0
284.879,-21.213,5.912,36.0
0.0,0.0,0.0,0.0
155.43,-11.511,6.692,12.0
164.498,-12.122,6.17,39.0
204.848,-15.024,6.548,19.0
220.36,-16.082,5.799,11.0
204.913,-14.881,4.257,57.0
0.0,0.0,0.0,0.0
205.845,-14.865,8.867,14.0
195.058,-14.016,7.317,30.0
196.331,-14.036,6.275,28.0
205.011,-14.586,5.394,7.0
212.98,-15.078,4.421,38.0
155.186,-10.933,2.362,5.0
194.896,-13.717,8.39,6.0
208.42,-14.592,7.812,7.0
204.231,-14.223,6.519,38.0
212.736,-14.738,5.587,86.0
221.117,-15.243,4.58,20.0
0.0,0.0,0.0,0.0
211.685,-14.503,9.099,10.0
205.08,-13.976,7.673,38.0
208.461,-14.13,6.638,31.0
228.482,-15.404,5.982,37.0
237.232,-15.912,4.893,30.0
187.193,-12.489,2.82,150.0
194.381,-12.952,8.333,8.0
204.481,-13.549,7.626,39.0
209.211,-13.787,6.639,28.0
248.344,-16.275,6.472,245.0
248.309,-16.185,5.088,9.0
187.184,-12.134,2.794,107.0
204.889,-13.262,8.755,7.0
208.671,-13.431,7.752,27.0
208.859,-13.366,6.594,24.0
248.338,-15.806,6.432,163.0
265.201,-16.786,5.39,27.0
187.269,-11.786,2.763,14.0
0.0,0.0,0.0,0.0
213.042,-13.309,7.874,17.0
244.138,-15.162,7.66,36.0
263.411,-16.265,6.767,139.0
0.0,0.0,0.0,0.0
187.343,-11.434,2.724,154.0
0.0,0.0,0.0,0.0
212.093,-12.846,7.791,15.0
271.909,-16.369,8.468,49.0
271.726,-16.258,6.916,150.0
0.0,0.0,0.0,0.0
200.866,-11.877,2.871,4.0
211.919,-12.503,8.913,8.0
212.368,-12.451,7.743,8.0
272.45,-15.876,8.408,11.0
271.621,-15.73,6.838,36.0
0.0,0.0,0.0,0.0
0.0,0.0,0.0,0.0
0.0,0.0,0.0,0.0
244.497,-13.863,8.839,12.0
0.0,0.0,0.0,0.0
0.0,0.0,0.0,0.0
0.0,0.0,0.0,0.0
0.0,0.0,0.0,0.0
211.554,-11.66,8.76,10.0
278.854,-15.266,9.982,12.0
0.0,0.0,0.0,0.0
0.0,0.0,0.0,0.0
0.0,0.0,0.0,0.0
0.0,0.0,0.0,0.0
0.0,0.0,0.0,0.0
0.0,0.0,0.0,0.0
0.0,0.0,0.0,0.0
0.0,0.0,0.0,0.0
0.0,0.0,0.0,0.0
0.0,0.0,0.0,0.0
0.0,0.0,0.0,0.0
0.0,0.0,0.0,0.0
0.0,0.0,0.0,0.0
0.0,0.0,0.0,0.0
0.0,0.0,0.0,0.0
0.0,0.0,0.0,0.0
0.0,0.0,0.0,0.0
0.0,0.0,0.0,0.0
0.0,0.0,0.0,0.0
0.0,0.0,0.0,0.0
0.0,0.0,0.0,0.0
0.0,0.0,0.0,0.0
0.0,0.0,0.0,0.0
0.0,0.0,0.0,0.0
0.0,0.0,0.0,0.0
0.0,0.0,0.0,0.0
0.0,0.0,0.0,0.0
170.374,-7.504,2.808,46.0
0.0,0.0,0.0,0.0
0.0,0.0,0.0,0.0
0.0,0.0,0.0,0.0
0.0,0.0,0.0,0.0
0.0,0.0,0.0,0.0
170.271,-7.169,2.702,46.0
0.0,0.0,0.0,0.0
0.0,0.0,0.0,0.0
0.0,0.0,0.0,0.0
0.0,0.0,0.0,0.0
0.0,0.0,0.0,0.0
0.0,0.0,0.0,0.0
126.412,-5.037,1.214,2.0
0.0,0.0,0.0,0.0
0.0,0.0,0.0,0.0
0.0,0.0,0.0,0.0
0.0,0.0,0.0,0.0
0.0,0.0,0.0,0.0
0.0,0.0,0.0,0.0
0.0,0.0,0.0,0.0
0.0,0.0,0.0,0.0
0.0,0.0,0.0,0.0
0.0,0.0,0.0,0.0
0.0,0.0,0.0,0.0
0.0,0.0,0.0,0.0
0.0,0.0,0.0,0.0
0.0,0.0,0.0,0.0
0.0,0.0,0.0,0.0
0.0,0.0,0.0,0.0
0.0,0.0,0.0,0.0
0.0,0.0,0.0,0.0
0.0,0.0,0.0,0.0
0.0,0.0,0.0,0.0
0.0,0.0,0.0,0.0
0.0,0.0,0.0,0.0
40.404,-1.312,0.496,1.0
0.0,0.0,0.0,0.0
0.0,0.0,0.0,0.0
40.344,-1.274,1.152,4.0
40.299,-1.259,0.922,28.0
40.332,-1.247,0.69,37.0
0.0,0.0,0.0,0.0
0.0,0.0,0.0,0.0
0.0,0.0,0.0,0.0
40.287,-1.196,1.116,33.0
40.369,-1.184,0.889,5.0
0.0,0.0,0.0,0.0
40.227,-1.154,0.426,16.0
40.191,-1.14,0.198,53.0
40.308,-1.133,1.309,2.0
40.203,-1.117,1.078,46.0
40.211,-1.104,0.85,43.0
40.22,-1.091,0.618,44.0
40.191,-1.077,0.389,43.0
40.212,-1.065,0.161,36.0
40.273,-1.056,1.271,53.0
40.194,-1.041,1.04,57.0
40.183,-1.027,0.811,53.0
40.201,-1.015,0.579,61.0
40.268,-1.004,0.352,7.0
40.282,-0.991,0.123,15.0
40.252,-0.98,1.232,62.0
40.2,-0.966,1.001,58.0
40.194,-0.953,0.773,57.0
40.301,-0.942,0.542,122.0
40.297,-0.929,0.313,112.0
40.323,-0.918,0.084,2.0
40.243,-0.905,1.192,44.0
40.209,-0.891,0.962,61.0
40.235,-0.88,0.734,54.0
40.241,-0.867,0.501,51.0
40.277,-0.855,0.272,1.0
0.0,0.0,0.0,0.0
40.292,-0.832,1.152,55.0
40.241,-0.818,0.921,52.0
40.175,-0.804,0.691,40.0
40.237,-0.793,0.459,41.0
40.261,-0.781,0.23,53.0
40.297,-0.769,0.001,63.0
40.266,-0.758,1.108,52.0
40.201,-0.744,0.878,46.0
40.185,-0.731,0.648,6.0
40.265,-0.72,0.416,38.0
40.276,-0.708,0.187,45.0
40.327,-0.697,-0.042,36.0
151.428,-2.578,4.003,42.0
248.246,-4.151,5.149,15.0
205.352,-3.369,3.087,81.0
98.965,-1.594,0.914,9.0
248.409,-3.926,0.88,30.0
50.746,-0.786,-0.109,1.0
183.399,-2.793,4.642,50.0
183.408,-2.739,3.597,81.0
183.418,-2.682,2.549,28.0
87.881,-1.259,0.712,14.0
183.485,-2.574,0.44,5.0
51.198,-0.703,-0.168,1.0
79.961,-1.076,1.931,3.0
79.421,-1.044,1.464,18.0
79.45,-1.02,1.011,41.0
78.887,-0.989,0.545,35.0
86.071,-1.054,0.104,3.0
43.992,-0.525,-0.198,1.0
79.434,-0.926,1.822,203.0
79.428,-0.903,1.368,207.0
79.447,-0.879,0.914,168.0
77.573,-0.836,0.442,10.0
56.085,-0.587,-0.001,5.0
0.0,0.0,0.0,0.0
79.44,-0.787,1.724,177.0
79.433,-0.763,1.269,198.0
79.45,-0.741,0.816,182.0
61.268,-0.554,0.273,7.0
49.053,-0.429,-0.061,4.0
40.268,-0.34,-0.28,3.0
79.431,-0.65,1.624,170.0
79.443,-0.627,1.169,182.0
79.443,-0.604,0.714,151.0
60.834,-0.445,0.193,11.0
44.181,-0.31,-0.112,2.0
39.606,-0.267,-0.327,3.0
79.444,-0.514,1.52,177.0
79.457,-0.492,1.067,165.0
79.323,-0.469,0.611,53.0
55.71,-0.313,0.104,20.0
0.0,0.0,0.0,0.0
33.514,-0.169,-0.32,1.0
79.45,-0.381,1.416,164.0
79.46,-0.358,0.961,151.0
76.628,-0.324,0.487,13.0
47.813,-0.188,0.025,15.0
39.546,-0.145,-0.205,14.0
32.359,-0.109,-0.353,2.0
79.449,-0.247,1.307,151.0
79.466,-0.224,0.851,151.0
61.805,-0.157,0.307,7.0
45.361,-0.103,-0.038,20.0
38.776,-0.077,-0.255,7.0
30.889,-0.053,-0.38,1.0
79.459,-0.116,1.197,151.0
79.468,-0.095,0.742,150.0
56.113,-0.051,0.201,12.0
0.0,0.0,0.0,0.0
38.228,-0.014,-0.304,3.0
29.925,-0.003,-0.41,2.0
79.465,0.011,1.085,151.0
79.399,0.033,0.628,26.0
0.0,0.0,0.0,0.0
39.837,0.037,-0.145,34.0
33.583,0.04,-0.315,1.0
29.145,0.042,-0.441,2.0
79.459,0.137,0.971,151.0
76.04,0.151,0.492,21.0
47.617,0.107,0.034,21.0
38.774,0.097,-0.197,29.0
32.346,0.09,-0.35,1.0
28.272,0.085,-0.469,2.0
79.432,0.262,0.853,140.0
59.352,0.211,0.297,27.0
0.0,0.0,0.0,0.0
38.014,0.154,-0.25,13.0
30.873,0.133,-0.38,1.0
27.184,0.124,-0.491,2.0
59.308,0.287,0.548,44.0
54.935,0.28,0.192,53.0
40.213,0.215,-0.09,15.0
37.716,0.211,-0.305,2.0
29.833,0.174,-0.413,2.0
26.461,0.161,-0.518,2.0
48.138,0.306,0.371,49.0
48.006,0.317,0.094,51.0
39.135,0.268,-0.147,49.0
33.321,0.237,-0.32,1.0
29.044,0.213,-0.446,2.0
25.681,0.195,-0.543,1.0
48.054,0.377,0.296,105.0
46.928,0.379,0.02,36.0
38.145,0.318,-0.203,28.0
31.843,0.273,-0.355,1.0
27.86,0.245,-0.471,1.0
21.862,0.198,-0.496,4.0
48.039,0.446,0.221,88.0
0.0,0.0,0.0,0.0
37.468,0.366,-0.258,11.0
30.49,0.305,-0.388,2.0
26.945,0.276,-0.498,2.0
21.117,0.221,-0.512,4.0
48.014,0.514,0.145,78.0
39.422,0.431,-0.107,31.0
37.199,0.415,-0.315,2.0
29.509,0.336,-0.423,3.0
26.186,0.305,-0.526,2.0
20.334,0.241,-0.526,3.0
47.774,0.578,0.067,53.0
38.289,0.472,-0.166,49.0
32.845,0.413,-0.332,1.0
28.532,0.365,-0.455,1.0
22.189,0.288,-0.482,4.0
19.643,0.26,-0.54,3.0
0.0,0.0,0.0,0.0
37.58,0.514,-0.224,13.0
31.252,0.435,-0.367,1.0
27.321,0.386,-0.481,1.0
21.36,0.306,-0.499,9.0
18.991,0.277,-0.553,3.0
39.911,0.591,-0.075,16.0
37.0,0.556,-0.282,6.0
30.032,0.457,-0.402,2.0
26.541,0.41,-0.511,2.0
20.594,0.322,-0.515,3.0
18.407,0.292,-0.567,4.0
38.678,0.623,-0.137,51.0
33.61,0.548,-0.313,1.0
29.05,0.48,-0.438,2.0
22.251,0.372,-0.466,3.0
19.781,0.335,-0.529,11.0
17.797,0.305,-0.578,3.0
37.506,0.652,-0.197,39.0
31.91,0.561,-0.351,1.0
27.85,0.495,-0.467,2.0
21.463,0.386,-0.486,4.0
19.085,0.347,-0.542,8.0
17.251,0.317,-0.59,2.0
36.903,0.687,-0.257,13.0
30.362,0.571,-0.386,2.0
26.844,0.511,-0.497,2.0
20.676,0.397,-0.504,4.0
18.561,0.36,-0.56,10.0
16.664,0.327,-0.599,3.0
36.686,0.727,-0.319,1.0
29.286,0.586,-0.423,2.0
22.954,0.464,-0.465,4.0
19.889,0.406,-0.52,3.0
17.925,0.369,-0.572,5.0
16.146,0.336,-0.608,3.0
32.159,0.675,-0.336,1.0
28.107,0.595,-0.456,1.0
21.615,0.462,-0.476,4.0
19.223,0.414,-0.536,3.0
17.39,0.378,-0.586,4.0
15.673,0.344,-0.619,3.0
30.644,0.678,-0.375,2.0
27.1,0.605,-0.488,2.0
20.872,0.47,-0.496,4.0
18.551,0.421,-0.55,3.0
16.778,0.384,-0.595,2.0
15.262,0.352,-0.63,3.0
29.426,0.684,-0.412,2.0
23.281,0.545,-0.461,5.0
20.08,0.474,-0.513,3.0
17.865,0.425,-0.562,4.0
16.266,0.39,-0.606,2.0
14.879,0.359,-0.64,4.0
28.297,0.687,-0.447,1.0
21.785,0.533,-0.47,4.0
19.406,0.478,-0.531,3.0
17.35,0.43,-0.577,4.0
15.755,0.394,-0.615,2.0
14.556,0.366,-0.652,4.0
27.264,0.69,-0.479,2.0
20.864,0.532,-0.488,4.0
18.692,0.479,-0.545,3.0
16.839,0.435,-0.59,2.0
15.336,0.398,-0.626,3.0
14.347,0.375,-0.669,5.0
23.211,0.61,-0.45,4.0
20.096,0.532,-0.506,3.0
18.0,0.479,-0.558,3.0
16.226,0.435,-0.598,3.0
14.952,0.403,-0.638,3.0
14.035,0.381,-0.68,4.0
21.795,0.594,-0.463,4.0
19.41,0.532,-0.525,3.0
17.442,0.481,-0.572,4.0
15.762,0.437,-0.61,3.0
14.586,0.407,-0.649,4.0
13.714,0.385,-0.69,4.0
20.969,0.59,-0.484,4.0
18.718,0.53,-0.54,4.0
16.888,0.481,-0.585,2.0
15.114,0.433,-0.613,2.0
14.358,0.413,-0.666,6.0
13.367,0.387,-0.697,4.0
20.237,0.588,-0.505,3.0
18.043,0.527,-0.554,3.0
16.244,0.477,-0.593,2.0
14.514,0.428,-0.616,2.0
14.05,0.416,-0.678,4.0
13.036,0.388,-0.705,4.0
19.43,0.581,-0.521,3.0
17.523,0.526,-0.571,2.0
15.483,0.467,-0.594,2.0
14.313,0.434,-0.634,3.0
13.72,0.418,-0.687,4.0
12.738,0.39,-0.712,4.0
18.69,0.573,-0.535,3.0
16.89,0.52,-0.581,2.0
14.725,0.456,-0.592,5.0
14.156,0.44,-0.653,4.0
13.385,0.418,-0.695,4.0
12.472,0.391,-0.72,3.0
17.99,0.565,-0.548,5.0
16.261,0.513,-0.59,2.0
14.322,0.454,-0.603,1.0
13.952,0.444,-0.669,4.0
13.05,0.417,-0.702,6.0
12.219,0.392,-0.728,3.0
17.47,0.562,-0.565,4.0
15.686,0.506,-0.599,2.0
13.982,0.453,-0.615,1.0
13.72,0.446,-0.684,4.0
12.714,0.415,-0.708,4.0
12.018,0.394,-0.739,3.0
16.899,0.555,-0.578,3.0
14.732,0.485,-0.59,4.0
13.78,0.456,-0.632,2.0
13.38,0.444,-0.692,4.0
12.361,0.412,-0.711,3.0
11.849,0.396,-0.751,2.0
16.278,0.545,-0.588,3.0
14.55,0.488,-0.609,3.0
13.624,0.459,-0.65,2.0
13.038,0.441,-0.699,5.0
12.067,0.409,-0.717,3.0
11.7,0.398,-0.763,2.0
15.707,0.535,-0.596,2.0
14.079,0.481,-0.616,1.0
13.52,0.463,-0.67,3.0
12.717,0.437,-0.705,4.0
11.788,0.407,-0.723,3.0
11.594,0.401,-0.778,2.0
14.702,0.509,-0.586,7.0
13.654,0.474,-0.623,1.0
13.35,0.465,-0.687,4.0
12.364,0.432,-0.709,3.0
11.568,0.405,-0.731,3.0
11.465,0.403,-0.791,2.0
14.616,0.514,-0.609,23.0
13.4,0.472,-0.636,1.0
13.074,0.462,-0.697,6.0
12.053,0.427,-0.714,2.0
11.424,0.406,-0.743,3.0
11.4,0.406,-0.808,2.0
14.184,0.505,-0.618,7.0
13.259,0.473,-0.655,2.0
12.737,0.456,-0.703,4.0
11.739,0.422,-0.717,2.0
11.319,0.407,-0.757,2.0
11.291,0.408,-0.821,1.0
13.785,0.497,-0.626,1.0
13.133,0.475,-0.673,4.0
12.407,0.45,-0.708,3.0
11.486,0.417,-0.723,2.0
11.227,0.409,-0.772,2.0
11.217,0.409,-0.837,0.0
13.363,0.487,-0.632,0.0
13.058,0.477,-0.693,7.0
12.087,0.443,-0.712,2.0
11.275,0.414,-0.731,3.0
11.155,0.41,-0.788,2.0
11.144,0.411,-0.853,0.0
13.103,0.482,-0.644,4.0
12.775,0.471,-0.702,4.0
11.744,0.434,-0.714,2.0
11.146,0.413,-0.743,2.0
11.094,0.412,-0.805,1.0
11.121,0.414,-0.872,0.0
13.062,0.485,-0.666,7.0
12.439,0.463,-0.707,3.0
11.473,0.428,-0.718,2.0
11.07,0.413,-0.759,2.0
11.017,0.412,-0.819,0.0
11.054,0.414,-0.887,0.0
13.062,0.489,-0.69,9.0
12.114,0.454,-0.71,2.0
11.252,0.422,-0.725,3.0
11.024,0.415,-0.776,2.0
11.008,0.415,-0.839,0.0
11.011,0.416,-0.903,0.0
12.819,0.483,-0.701,5.0
11.785,0.444,-0.712,2.0
11.09,0.419,-0.735,3.0
10.974,0.415,-0.792,2.0
10.964,0.415,-0.855,0.0
10.711,0.407,-0.898,0.0
12.499,0.473,-0.706,3.0
11.519,0.436,-0.717,3.0
10.987,0.417,-0.748,2.0
10.939,0.416,-0.81,1.0
10.992,0.419,-0.878,0.0
10.579,0.403,-0.906,0.0
12.16,0.462,-0.708,2.0
11.263,0.428,-0.722,3.0
10.943,0.417,-0.765,3.0
10.896,0.416,-0.826,0.0
10.929,0.417,-0.892,0.0
10.755,0.411,-0.941,0.0
11.84,0.451,-0.711,2.0
11.07,0.422,-0.729,3.0
10.928,0.417,-0.783,2.0
10.893,0.417,-0.845,0.0
10.779,0.413,-0.899,0.0
10.736,0.412,-0.959,0.0
11.569,0.442,-0.715,3.0
10.965,0.419,-0.742,3.0
10.911,0.417,-0.801,2.0
10.946,0.419,-0.869,0.0
10.466,0.401,-0.892,0.0
9.822,0.377,-0.894,0.0
11.308,0.432,-0.719,3.0
10.926,0.418,-0.758,2.0
10.881,0.417,-0.818,1.0
10.903,0.418,-0.885,0.0
10.693,0.41,-0.93,1.0
9.427,0.362,-0.875,0.0
11.121,0.425,-0.726,3.0
10.918,0.418,-0.776,2.0
10.858,0.416,-0.836,0.0
10.869,0.416,-0.901,0.0
10.753,0.412,-0.954,0.0
9.351,0.359,-0.884,3.0
11.003,0.42,-0.738,3.0
10.928,0.418,-0.796,2.0
10.947,0.418,-0.861,0.0
10.527,0.403,-0.891,0.0
10.1,0.387,-0.913,0.0
9.336,0.358,-0.899,1.0
10.972,0.418,-0.754,3.0
10.921,0.416,-0.814,1.0
10.967,0.418,-0.882,0.0
10.675,0.407,-0.921,0.0
9.584,0.366,-0.883,0.0
9.21,0.352,-0.903,0.0
10.967,0.417,-0.773,3.0
10.909,0.414,-0.832,0.0
10.958,0.417,-0.899,0.0
10.749,0.409,-0.946,0.0
9.356,0.356,-0.878,3.0
9.009,0.343,-0.898,0.0
11.006,0.416,-0.794,2.0
11.025,0.417,-0.859,0.0
10.596,0.401,-0.887,0.0
10.24,0.388,-0.918,0.0
9.353,0.354,-0.893,3.0
8.892,0.337,-0.901,0.0
11.046,0.416,-0.815,1.0
11.068,0.417,-0.881,0.0
10.496,0.395,-0.896,0.0
9.664,0.364,-0.883,0.0
9.321,0.351,-0.906,0.0
8.768,0.33,-0.903,0.0
11.059,0.414,-0.834,0.0
11.06,0.414,-0.898,0.0
10.699,0.4,-0.931,0.0
9.372,0.35,-0.871,0.0
9.115,0.341,-0.901,0.0
8.645,0.323,-0.905,0.0
11.125,0.413,-0.857,0.0
10.974,0.407,-0.909,0.0
10.148,0.377,-0.899,0.0
9.342,0.347,-0.883,3.0
8.976,0.333,-0.901,0.0
8.544,0.317,-0.908,0.0
11.188,0.412,-0.879,0.0
10.349,0.381,-0.873,0.0
9.788,0.36,-0.883,0.0
9.334,0.343,-0.897,1.0
8.828,0.325,-0.9,0.0
8.415,0.309,-0.907,0.0
11.254,0.411,-0.902,0.0
10.207,0.372,-0.877,0.0
9.612,0.35,-0.882,0.0
9.232,0.336,-0.902,0.0
8.748,0.319,-0.905,0.0
8.34,0.304,-0.912,0.0
11.277,0.408,-0.921,0.0
10.061,0.363,-0.88,0.0
9.373,0.338,-0.874,1.0
9.031,0.326,-0.896,0.0
8.642,0.311,-0.908,0.0
8.213,0.296,-0.911,0.0
10.541,0.377,-0.877,0.0
9.893,0.353,-0.88,0.0
9.337,0.333,-0.885,1.0
8.902,0.317,-0.896,0.0
8.52,0.303,-0.908,0.0
8.11,0.288,-0.912,1.0
10.277,0.363,-0.87,0.0
9.735,0.343,-0.881,0.0
9.292,0.327,-0.895,0.0
8.789,0.309,-0.898,0.0
8.395,0.295,-0.907,0.0
8.092,0.284,-0.922,0.0
10.138,0.353,-0.873,0.0
9.588,0.333,-0.881,0.0
9.154,0.318,-0.895,0.0
8.724,0.303,-0.904,0.0
8.319,0.288,-0.911,0.0
7.965,0.276,-0.919,0.0
10.003,0.343,-0.876,0.0
9.434,0.323,-0.88,0.0
9.012,0.308,-0.893,0.0
8.598,0.294,-0.903,0.0
8.146,0.278,-0.903,0.0
7.911,0.27,-0.923,0.0
9.865,0.333,-0.877,0.0
9.315,0.314,-0.882,1.0
8.926,0.3,-0.897,0.0
8.484,0.285,-0.903,0.0
8.122,0.272,-0.912,0.0
7.812,0.262,-0.923,0.0
9.757,0.324,-0.881,0.0
9.242,0.306,-0.888,0.0
8.799,0.291,-0.896,0.0
8.415,0.278,-0.907,0.0
8.095,0.267,-0.92,0.0
7.742,0.255,-0.925,0.0
9.645,0.314,-0.883,0.0
9.127,0.297,-0.889,0.0
8.74,0.284,-0.902,0.0
8.323,0.27,-0.908,0.0
7.997,0.259,-0.919,0.0
7.663,0.247,-0.925,0.0
9.512,0.304,-0.883,0.0
9.047,0.289,-0.893,0.0
8.65,0.275,-0.904,0.0
8.187,0.26,-0.904,0.0
7.917,0.251,-0.92,0.0
7.594,0.24,-0.927,0.0
9.368,0.293,-0.882,0.0
8.982,0.28,-0.898,0.0
8.56,0.267,-0.905,0.0
8.166,0.254,-0.912,0.0
7.869,0.244,-0.924,0.0
7.529,0.233,-0.928,0.0
9.243,0.283,-0.881,0.0
8.899,0.272,-0.9,0.0
8.441,0.257,-0.903,0.0
8.118,0.247,-0.916,0.0
7.79,0.236,-0.925,0.0
7.474,0.226,-0.931,0.0
9.126,0.273,-0.881,1.0
8.787,0.262,-0.899,0.0
8.323,0.247,-0.9,0.0
8.017,0.238,-0.914,0.0
7.714,0.228,-0.925,0.0
7.402,0.218,-0.93,0.0
9.028,0.263,-0.882,3.0
8.719,0.253,-0.902,0.0
8.222,0.238,-0.898,1.0
7.969,0.23,-0.918,0.0
7.644,0.22,-0.925,0.0
7.345,0.211,-0.932,0.0
9.009,0.256,-0.89,2.0
8.481,0.24,-0.887,0.0
8.177,0.23,-0.903,2.0
7.927,0.223,-0.922,0.0
7.584,0.212,-0.926,0.0
7.288,0.203,-0.932,0.0
8.986,0.248,-0.898,0.0
8.361,0.23,-0.883,0.0
8.163,0.224,-0.91,1.0
7.846,0.214,-0.921,0.0
7.526,0.205,-0.927,0.0
7.238,0.196,-0.934,0.0
8.856,0.237,-0.894,0.0
8.408,0.224,-0.897,0.0
8.123,0.216,-0.914,0.0
7.77,0.205,-0.92,0.0
7.48,0.197,-0.929,0.0
7.175,0.188,-0.933,0.0
8.803,0.228,-0.897,0.0
8.266,0.213,-0.89,1.0
8.038,0.207,-0.912,0.0
7.703,0.197,-0.92,0.0
7.427,0.189,-0.93,0.0
7.123,0.181,-0.933,0.0
8.717,0.218,-0.897,0.0
8.242,0.205,-0.896,1.0
7.996,0.198,-0.915,0.0
7.67,0.189,-0.923,0.0
7.364,0.181,-0.929,0.0
7.095,0.174,-0.936,0.0
8.67,0.209,-0.9,0.0
8.217,0.198,-0.901,0.0
7.956,0.19,-0.918,0.0
7.622,0.181,-0.924,0.0
7.336,0.174,-0.932,0.0
7.061,0.166,-0.938,0.0
8.591,0.2,-0.9,0.0
8.209,0.19,-0.907,0.0
7.903,0.182,-0.919,0.0
7.564,0.173,-0.924,0.0
7.277,0.166,-0.931,0.0
7.026,0.159,-0.94,0.0
8.508,0.19,-0.898,0.0
8.155,0.181,-0.908,0.0
7.868,0.174,-0.921,0.0
7.515,0.165,-0.924,0.0
7.252,0.158,-0.934,0.0
6.968,0.151,-0.938,0.0
8.468,0.181,-0.901,0.0
8.114,0.172,-0.91,0.0
7.785,0.164,-0.918,0.0
7.452,0.156,-0.922,0.0
7.196,0.15,-0.932,0.0
6.931,0.144,-0.938,0.0
8.419,0.172,-0.902,0.0
8.057,0.163,-0.91,0.0
7.752,0.156,-0.92,0.0
7.429,0.149,-0.925,0.0
7.177,0.143,-0.935,0.0
6.888,0.136,-0.937,0.0
8.366,0.162,-0.902,0.0
8.034,0.155,-0.913,0.0
7.713,0.148,-0.921,0.0
7.353,0.14,-0.921,0.0
7.133,0.135,-0.934,0.0
6.887,0.129,-0.942,0.0
8.308,0.153,-0.902,0.0
7.999,0.146,-0.914,0.0
7.675,0.139,-0.921,0.0
7.315,0.132,-0.921,1.0
7.126,0.127,-0.938,0.0
6.843,0.121,-0.94,0.0
8.289,0.144,-0.905,0.0
7.964,0.137,-0.915,0.0
7.633,0.131,-0.921,0.0
7.313,0.124,-0.925,1.0
7.079,0.119,-0.936,0.0
6.828,0.114,-0.942,0.0
8.247,0.135,-0.905,0.0
7.938,0.129,-0.917,0.0
7.595,0.122,-0.921,0.0
7.286,0.116,-0.926,1.0
7.06,0.111,-0.938,0.0
6.798,0.106,-0.942,0.0
8.235,0.126,-0.909,0.0
7.9,0.12,-0.917,0.0
7.577,0.113,-0.923,0.0
7.28,0.108,-0.929,1.0
7.025,0.103,-0.937,0.0
6.771,0.098,-0.942,0.0
8.176,0.116,-0.906,0.0
7.868,0.111,-0.917,0.0
7.556,0.105,-0.924,0.0
7.272,0.1,-0.932,0.0
7.012,0.095,-0.939,0.0
6.729,0.09,-0.939,0.0
8.144,0.107,-0.906,0.0
7.85,0.102,-0.918,0.0
7.51,0.096,-0.922,0.0
7.263,0.092,-0.934,0.0
6.983,0.087,-0.938,0.0
6.732,0.083,-0.943,0.0
8.127,0.098,-0.908,0.0
7.821,0.093,-0.918,0.0
7.505,0.088,-0.924,0.0
7.246,0.084,-0.934,0.0
6.979,0.08,-0.94,0.0
6.704,0.075,-0.941,0.0
8.102,0.089,-0.908,0.0
7.8,0.084,-0.919,0.0
7.486,0.08,-0.924,0.0
7.21,0.075,-0.932,0.0
6.963,0.072,-0.94,0.0
6.679,0.068,-0.94,0.0
8.1,0.08,-0.91,0.0
7.797,0.076,-0.921,0.0
7.479,0.071,-0.926,0.0
7.195,0.067,-0.932,0.0
6.931,0.064,-0.938,0.0
6.683,0.06,-0.943,0.0
8.082,0.071,-0.911,0.0
7.788,0.067,-0.922,0.0
7.467,0.063,-0.926,0.0
7.173,0.059,-0.931,0.0
6.935,0.056,-0.94,0.0
6.673,0.053,-0.943,0.0
8.057,0.062,-0.91,0.0
7.764,0.058,-0.921,0.0
7.447,0.054,-0.925,0.0
7.177,0.051,-0.933,0.0
6.931,0.048,-0.941,0.0
6.656,0.045,-0.942,0.0
8.05,0.053,-0.91,0.0
7.733,0.049,-0.918,0.0
7.455,0.046,-0.928,0.0
7.175,0.043,-0.934,0.0
6.902,0.04,-0.938,0.0
6.652,0.038,-0.942,0.0
8.055,0.044,-0.912,0.0
7.74,0.041,-0.92,0.0
7.458,0.038,-0.929,0.0
7.151,0.035,-0.932,0.0
6.898,0.032,-0.938,0.0
6.647,0.03,-0.942,0.0
8.05,0.035,-0.912,0.0
7.74,0.032,-0.921,0.0
7.438,0.029,-0.927,0.0
7.141,0.027,-0.931,0.0
6.93,0.025,-0.943,0.0
6.649,0.023,-0.943,0.0
8.042,0.026,-0.912,0.0
7.736,0.023,-0.921,0.0
7.436,0.021,-0.927,0.0
7.154,0.019,-0.933,0.0
6.899,0.017,-0.939,0.0
6.66,0.015,-0.944,0.0
8.044,0.017,-0.912,0.0
7.741,0.014,-0.921,0.0
7.437,0.013,-0.927,0.0
7.161,0.011,-0.934,0.0
6.922,0.009,-0.942,0.0
6.652,0.007,-0.943,0.0
8.051,0.007,-0.913,0.0
7.745,0.006,-0.921,0.0
7.457,0.004,-0.929,0.0
7.172,0.002,-0.935,0.0
6.922,0.001,-0.941,0.0
6.658,0.0,-0.943,0.0
8.056,-0.001,-0.912,0.0
7.752,-0.002,-0.921,0.0
7.432,-0.003,-0.925,0.0
7.177,-0.005,-0.935,0.0
6.926,-0.006,-0.941,0.0
6.654,-0.007,-0.942,0.0
8.057,-0.01,-0.911,0.0
7.752,-0.011,-0.92,0.0
7.449,-0.012,-0.926,0.0
7.166,-0.013,-0.932,0.0
6.952,-0.014,-0.944,0.0
6.684,-0.014,-0.945,0.0
8.068,-0.019,-0.911,0.0
7.761,-0.019,-0.92,0.0
7.463,-0.02,-0.927,0.0
7.188,-0.021,-0.934,0.0
6.939,-0.021,-0.94,0.0
6.67,-0.022,-0.942,0.0
8.08,-0.028,-0.911,0.0
7.79,-0.028,-0.922,0.0
7.464,-0.029,-0.925,0.0
7.203,-0.029,-0.934,0.0
6.956,-0.029,-0.941,0.0
6.682,-0.03,-0.942,0.0
8.103,-0.037,-0.911,0.0
7.805,-0.037,-0.921,0.0
7.496,-0.037,-0.927,0.0
7.227,-0.037,-0.935,0.0
6.978,-0.037,-0.942,0.0
6.7,-0.037,-0.942,0.0
8.121,-0.046,-0.911,0.0
7.814,-0.046,-0.92,0.0
7.523,-0.046,-0.927,0.0
7.227,-0.045,-0.932,0.0
6.996,-0.045,-0.942,0.0
6.713,-0.045,-0.941,0.0
8.137,-0.055,-0.909,0.0
7.833,-0.055,-0.919,0.0
7.522,-0.054,-0.924,0.0
7.254,-0.053,-0.933,0.0
7.018,-0.053,-0.942,0.0
6.735,-0.052,-0.942,0.0
8.157,-0.064,-0.908,0.0
7.856,-0.063,-0.918,0.0
7.553,-0.063,-0.925,0.0
7.258,-0.062,-0.93,0.0
7.018,-0.061,-0.939,0.0
6.77,-0.06,-0.943,0.0
8.184,-0.073,-0.908,0.0
