X,Y,Z,Reflectivity
29.459,2.109,0.856,50.0
29.502,2.106,0.689,27.0
33.384,2.376,1.693,88.0
115.117,8.171,5.178,22.0
157.862,11.174,6.194,37.0
29.426,2.077,0.983,137.0
29.496,2.077,0.816,164.0
29.607,2.079,0.65,22.0
33.387,2.337,1.647,4.0
157.782,11.013,6.879,16.0
157.93,10.992,5.98,40.0
29.495,2.047,0.944,10.0
29.549,2.045,0.777,85.0
114.482,7.902,2.356,22.0
33.443,2.299,1.603,1.0
157.893,10.825,6.666,43.0
158.008,10.802,5.765,37.0
29.586,2.016,0.907,8.0
114.628,7.79,2.859,34.0
139.652,9.464,2.685,16.0
33.479,2.259,1.559,1.0
157.996,10.631,6.454,37.0
158.057,10.602,5.551,31.0
29.684,1.985,0.869,6.0
114.58,7.64,2.702,54.0
139.658,9.284,2.497,22.0
33.465,2.215,1.513,1.0
158.074,10.431,6.245,45.0
158.092,10.398,5.342,38.0
158.083,10.367,4.423,33.0
114.652,7.495,2.553,36.0
139.59,9.096,2.311,36.0
158.014,10.249,6.938,46.0
158.165,10.225,6.039,42.0
158.163,10.191,5.136,46.0
158.091,10.154,4.215,22.0
139.668,8.94,2.926,11.0
139.663,8.91,2.128,9.0
33.443,2.123,1.424,1.0
33.434,2.115,1.233,4.0
33.488,2.111,1.043,0.0
33.409,2.099,0.847,2.0
33.433,2.093,0.656,42.0
33.457,2.087,0.466,158.0
33.436,2.075,1.38,24.0
33.427,2.067,1.189,42.0
33.425,2.06,0.998,6.0
33.444,2.053,0.804,2.0
33.469,2.047,0.615,1.0
33.45,2.039,0.423,2.0
158.421,9.607,6.342,5.0
157.466,9.512,5.404,5.0
164.2,9.883,4.699,4.0
164.075,9.838,3.744,11.0
140.273,8.378,2.401,25.0
78.274,4.658,0.893,7.0
158.342,9.369,6.141,17.0
157.274,9.268,5.203,13.0
157.398,9.239,4.309,8.0
162.442,9.498,3.506,8.0
0.0,0.0,0.0,0.0
75.92,4.404,0.774,10.0
158.252,9.126,5.944,17.0
162.26,9.32,5.17,8.0
0.0,0.0,0.0,0.0
163.569,9.315,3.331,16.0
105.899,6.005,1.553,2.0
74.961,4.234,0.673,21.0
157.516,8.841,5.726,16.0
162.502,9.079,4.981,6.0
163.135,9.074,4.071,19.0
105.839,5.862,2.028,4.0
105.95,5.843,1.428,6.0
73.751,4.049,0.575,21.0
157.334,8.582,5.531,16.0
162.426,8.819,4.786,7.0
162.565,8.785,3.865,14.0
105.754,5.688,1.902,58.0
81.86,4.382,1.006,6.0
73.477,3.915,0.486,12.0
156.769,8.297,5.328,12.0
156.671,8.253,4.434,13.0
162.785,8.532,3.681,12.0
105.78,5.518,1.781,33.0
78.588,4.079,0.876,13.0
55.338,2.859,0.302,10.0
156.583,8.03,5.144,9.0
156.614,7.99,4.254,16.0
167.096,8.48,3.589,12.0
105.751,5.341,1.661,6.0
77.663,3.902,0.779,28.0
54.543,2.727,0.237,28.0
156.354,7.758,4.962,10.0
0.0,0.0,0.0,0.0
0.0,0.0,0.0,0.0
105.942,5.173,1.548,2.0
0.0,0.0,0.0,0.0
54.259,2.621,0.177,15.0
156.363,7.494,4.793,12.0
0.0,0.0,0.0,0.0
0.0,0.0,0.0,0.0
105.731,4.981,1.431,6.0
73.597,3.448,0.579,10.0
48.289,2.249,0.106,24.0
157.183,7.259,4.651,5.0
0.0,0.0,0.0,0.0
0.0,0.0,0.0,0.0
96.128,4.362,1.2,5.0
73.626,3.321,0.502,13.0
46.892,2.102,0.054,22.0
160.04,7.111,4.57,11.0
0.0,0.0,0.0,0.0
0.0,0.0,0.0,0.0
79.242,3.454,0.908,9.0
58.91,2.552,0.342,18.0
46.403,1.998,0.007,10.0
173.33,7.393,4.776,15.0
0.0,0.0,0.0,0.0
0.0,0.0,0.0,0.0
78.316,3.274,0.821,18.0
58.696,2.437,0.283,7.0
41.808,1.724,-0.034,18.0
0.0,0.0,0.0,0.0
0.0,0.0,0.0,0.0
101.086,4.069,1.542,3.0
77.733,3.108,0.739,41.0
54.552,2.165,0.21,28.0
40.593,1.6,-0.072,26.0
0.0,0.0,0.0,0.0
0.0,0.0,0.0,0.0
101.071,3.882,1.447,2.0
77.518,2.954,0.664,16.0
54.285,2.053,0.158,25.0
40.009,1.502,-0.108,40.0
0.0,0.0,0.0,0.0
0.0,0.0,0.0,0.0
95.784,3.499,1.284,4.0
74.143,2.687,0.568,13.0
48.624,1.748,0.098,22.0
39.642,1.413,-0.143,37.0
0.0,0.0,0.0,0.0
0.0,0.0,0.0,0.0
95.755,3.317,1.2,3.0
73.988,2.54,0.502,10.0
47.977,1.633,0.055,24.0
39.409,1.329,-0.176,18.0
0.0,0.0,0.0,0.0
0.0,0.0,0.0,0.0
79.775,2.611,0.932,6.0
59.914,1.943,0.357,34.0
47.096,1.513,0.015,23.0
36.779,1.17,-0.194,30.0
0.0,0.0,0.0,0.0
0.0,0.0,0.0,0.0
78.571,2.421,0.854,13.0
59.155,1.804,0.304,33.0
46.782,1.412,-0.022,20.0
36.673,1.096,-0.223,26.0
0.0,0.0,0.0,0.0
0.0,0.0,0.0,0.0
78.122,2.254,0.788,31.0
58.78,1.677,0.257,12.0
0.0,0.0,0.0,0.0
36.588,1.021,-0.251,12.0
0.0,0.0,0.0,0.0
106.113,2.884,1.587,10.0
77.983,2.095,0.728,36.0
54.789,1.454,0.198,20.0
42.656,1.119,-0.084,3.0
36.511,0.946,-0.277,7.0
100.351,2.56,1.993,49.0
106.102,2.673,1.511,69.0
77.852,1.936,0.671,19.0
0.0,0.0,0.0,0.0
39.398,0.954,-0.106,40.0
36.508,0.873,-0.302,6.0
106.113,2.495,2.034,1.0
106.215,2.464,1.44,5.0
74.871,1.713,0.595,14.0
48.573,1.095,0.109,5.0
38.838,0.862,-0.13,44.0
36.647,0.802,-0.328,1.0
106.187,2.282,1.965,20.0
95.023,2.012,1.226,1.0
74.85,1.561,0.547,16.0
47.995,0.985,0.077,22.0
38.348,0.774,-0.153,41.0
36.727,0.73,-0.352,0.0
127.896,2.491,2.288,24.0
94.882,1.816,1.166,2.0
74.785,1.408,0.5,12.0
47.542,0.879,0.047,25.0
37.9,0.688,-0.174,48.0
32.844,0.585,-0.334,1.0
127.559,2.223,2.207,33.0
89.779,1.535,1.051,5.0
61.872,1.038,0.378,20.0
46.81,0.769,0.02,35.0
37.747,0.608,-0.194,40.0
32.324,0.509,-0.347,2.0
127.335,1.959,2.133,33.0
89.684,1.348,1.001,6.0
62.16,0.914,0.346,21.0
0.0,0.0,0.0,0.0
37.687,0.528,-0.214,26.0
31.764,0.435,-0.357,1.0
127.083,1.692,2.063,28.0
48.165,0.624,0.513,20.0
48.059,0.607,0.243,81.0
44.88,0.551,-0.027,20.0
37.655,0.449,-0.232,13.0
31.41,0.364,-0.369,2.0
48.115,0.539,0.758,99.0
48.087,0.522,0.489,103.0
48.036,0.505,0.221,90.0
0.0,0.0,0.0,0.0
37.58,0.369,-0.249,10.0
30.794,0.292,-0.376,1.0
48.09,0.437,0.736,114.0
48.063,0.421,0.467,107.0
48.035,0.404,0.2,96.0
44.049,0.355,-0.066,18.0
37.661,0.291,-0.266,6.0
30.487,0.225,-0.385,2.0
48.128,0.336,0.716,69.0
48.171,0.319,0.449,58.0
54.983,0.346,0.207,16.0
44.067,0.261,-0.083,7.0
37.821,0.211,-0.281,5.0
30.234,0.158,-0.393,2.0
59.31,0.288,0.861,115.0
77.145,0.348,0.691,13.0
54.892,0.228,0.186,28.0
43.847,0.166,-0.098,3.0
37.9,0.131,-0.295,2.0
30.052,0.093,-0.401,2.0
79.468,0.218,1.127,151.0
79.45,0.19,0.685,61.0
54.909,0.111,0.169,28.0
40.615,0.068,-0.104,17.0
38.067,0.051,-0.308,2.0
29.818,0.029,-0.407,2.0
79.459,0.048,1.103,151.0
79.326,0.02,0.661,36.0
0.0,0.0,0.0,0.0
40.802,-0.018,-0.116,17.0
37.46,-0.029,-0.314,1.0
29.684,-0.034,-0.413,2.0
79.461,-0.119,1.082,151.0
79.29,-0.148,0.641,53.0
0.0,0.0,0.0,0.0
41.122,-0.106,-0.127,18.0
37.002,-0.109,-0.319,0.0
29.55,-0.098,-0.418,2.0
79.468,-0.29,1.065,151.0
79.261,-0.317,0.623,46.0
0.0,0.0,0.0,0.0
0.0,0.0,0.0,0.0
34.252,-0.174,-0.302,0.0
29.488,-0.16,-0.423,2.0
79.456,-0.461,1.05,162.0
0.0,0.0,0.0,0.0
52.642,-0.342,0.113,15.0
45.862,-0.315,-0.158,4.0
34.153,-0.247,-0.307,0.0
29.368,-0.223,-0.426,2.0
79.454,-0.629,1.038,178.0
0.0,0.0,0.0,0.0
52.654,-0.454,0.106,2.0
47.375,-0.426,-0.17,3.0
33.757,-0.316,-0.307,0.0
29.263,-0.284,-0.428,4.0
79.453,-0.799,1.029,162.0
78.957,-0.822,0.587,36.0
60.839,-0.655,0.117,6.0
46.54,-0.519,-0.171,2.0
34.205,-0.394,-0.314,1.0
29.266,-0.348,-0.43,2.0
79.592,-0.972,1.025,11.0
79.032,-0.995,0.582,23.0
60.87,-0.788,0.113,6.0
46.649,-0.621,-0.174,2.0
34.089,-0.466,-0.315,1.0
29.182,-0.41,-0.43,1.0
148.404,-2.132,1.907,13.0
87.886,-1.295,0.645,2.0
61.594,-0.93,0.113,5.0
46.386,-0.717,-0.174,4.0
35.227,-0.558,-0.326,0.0
29.225,-0.473,-0.431,2.0
149.449,-2.468,1.92,8.0
40.26,-0.679,0.296,50.0
40.284,-0.694,0.074,67.0
40.301,-0.709,-0.15,55.0
33.789,-0.607,-0.311,0.0
29.222,-0.536,-0.43,1.0
40.256,-0.75,0.519,40.0
40.263,-0.765,0.298,54.0
40.322,-0.781,0.077,15.0
46.676,-0.922,-0.171,2.0
34.055,-0.685,-0.312,0.0
29.274,-0.599,-0.428,1.0
40.256,-0.836,0.522,54.0
0.0,0.0,0.0,0.0
0.0,0.0,0.0,0.0
40.217,-0.879,-0.144,0.0
0.0,0.0,0.0,0.0
29.386,-0.664,-0.427,1.0
40.325,-0.923,0.527,101.0
40.31,-0.937,0.306,150.0
40.301,-0.952,0.085,81.0
40.325,-0.967,-0.138,1.0
0.0,0.0,0.0,0.0
29.494,-0.729,-0.424,1.0
40.218,-1.005,0.532,61.0
40.193,-1.019,0.312,57.0
40.244,-1.035,0.092,12.0
40.977,-1.069,-0.134,168.0
36.823,-0.974,-0.322,0.0
29.757,-0.799,-0.423,2.0
40.257,-1.091,0.54,40.0
40.191,-1.104,0.32,58.0
40.181,-1.118,0.1,60.0
40.212,-1.134,-0.123,59.0
0.0,0.0,0.0,0.0
29.74,-0.86,-0.416,1.0
0.0,0.0,0.0,0.0
0.0,0.0,0.0,0.0
0.0,0.0,0.0,0.0
0.0,0.0,0.0,0.0
36.713,-1.125,-0.304,0.0
29.913,-0.928,-0.411,1.0
40.35,-1.262,0.561,31.0
0.0,0.0,0.0,0.0
0.0,0.0,0.0,0.0
0.0,0.0,0.0,0.0
0.0,0.0,0.0,0.0
30.205,-1.001,-0.406,1.0
0.0,0.0,0.0,0.0
0.0,0.0,0.0,0.0
0.0,0.0,0.0,0.0
0.0,0.0,0.0,0.0
40.048,-1.395,-0.307,1.0
30.411,-1.07,-0.398,1.0
0.0,0.0,0.0,0.0
0.0,0.0,0.0,0.0
0.0,0.0,0.0,0.0
40.111,-1.465,-0.075,6.0
40.084,-1.478,-0.293,34.0
30.867,-1.15,-0.393,1.0
0.0,0.0,0.0,0.0
0.0,0.0,0.0,0.0
0.0,0.0,0.0,0.0
40.134,-1.547,-0.059,21.0
37.776,-1.47,-0.261,94.0
31.288,-1.229,-0.386,1.0
0.0,0.0,0.0,0.0
126.448,-5.038,1.251,2.0
0.0,0.0,0.0,0.0
0.0,0.0,0.0,0.0
37.798,-1.547,-0.245,10.0
31.584,-1.304,-0.376,1.0
0.0,0.0,0.0,0.0
0.0,0.0,0.0,0.0
0.0,0.0,0.0,0.0
0.0,0.0,0.0,0.0
40.228,-1.727,-0.242,1.0
33.278,-1.441,-0.381,2.0
143.437,-6.241,2.329,63.0
0.0,0.0,0.0,0.0
0.0,0.0,0.0,0.0
0.0,0.0,0.0,0.0
0.0,0.0,0.0,0.0
33.494,-1.517,-0.366,9.0
143.122,-6.512,2.398,39.0
0.0,0.0,0.0,0.0
0.0,0.0,0.0,0.0
0.0,0.0,0.0,0.0
0.0,0.0,0.0,0.0
33.529,-1.586,-0.348,5.0
143.377,-6.81,2.481,40.0
0.0,0.0,0.0,0.0
0.0,0.0,0.0,0.0
59.978,-2.912,0.059,2.0
0.0,0.0,0.0,0.0
0.0,0.0,0.0,0.0
0.0,0.0,0.0,0.0
0.0,0.0,0.0,0.0
0.0,0.0,0.0,0.0
59.931,-3.026,0.094,2.0
50.428,-2.564,-0.192,2.0
35.612,-1.823,-0.328,0.0
0.0,0.0,0.0,0.0
0.0,0.0,0.0,0.0
0.0,0.0,0.0,0.0
62.547,-3.279,0.138,6.0
50.348,-2.657,-0.159,2.0
37.872,-2.011,-0.324,0.0
0.0,0.0,0.0,0.0
0.0,0.0,0.0,0.0
0.0,0.0,0.0,0.0
63.425,-3.445,0.182,1.0
50.415,-2.755,-0.126,2.0
38.697,-2.128,-0.305,0.0
0.0,0.0,0.0,0.0
0.0,0.0,0.0,0.0
0.0,0.0,0.0,0.0
0.0,0.0,0.0,0.0
50.452,-2.852,-0.091,1.0
40.282,-2.291,-0.289,0.0
0.0,0.0,0.0,0.0
0.0,0.0,0.0,0.0
0.0,0.0,0.0,0.0
50.531,-2.95,-0.054,2.0
40.725,-2.391,-0.263,0.0
279.029,-16.428,5.937,11.0
0.0,0.0,0.0,0.0
0.0,0.0,0.0,0.0
0.0,0.0,0.0,0.0
59.757,-3.598,-0.018,1.0
0.0,0.0,0.0,0.0
263.534,-15.994,5.813,12.0
187.375,-11.434,3.126,255.0
0.0,0.0,0.0,0.0
0.0,0.0,0.0,0.0
62.483,-3.873,0.029,3.0
45.547,-2.838,-0.223,0.0
265.189,-16.562,6.058,38.0
187.211,-11.752,3.272,31.0
155.855,-9.835,1.888,4.0
0.0,0.0,0.0,0.0
62.433,-3.98,0.08,6.0
50.408,-3.23,-0.205,0.0
248.394,-15.951,5.882,49.0
187.217,-12.081,3.428,151.0
0.0,0.0,0.0,0.0
0.0,0.0,0.0,0.0
62.349,-4.082,0.132,3.0
50.384,-3.316,-0.162,1.0
237.204,-15.644,5.822,44.0
187.219,-12.405,3.591,7.0
0.0,0.0,0.0,0.0
0.0,0.0,0.0,0.0
0.0,0.0,0.0,0.0
50.461,-3.406,-0.118,6.0
228.51,-15.456,5.81,58.0
0.0,0.0,0.0,0.0
161.305,-11.008,2.373,4.0
0.0,0.0,0.0,0.0
0.0,0.0,0.0,0.0
50.55,-3.497,-0.072,3.0
212.851,-14.75,5.605,41.0
212.946,-14.819,4.468,78.0
155.029,-10.835,2.422,6.0
126.397,-8.873,1.287,2.0
0.0,0.0,0.0,0.0
61.025,-4.321,-0.03,2.0
204.862,-14.532,5.587,69.0
205.006,-14.603,4.494,60.0
0.0,0.0,0.0,0.0
0.0,0.0,0.0,0.0
0.0,0.0,0.0,0.0
61.535,-4.457,0.027,2.0
214.131,-15.534,6.047,23.0
0.0,0.0,0.0,0.0
0.0,0.0,0.0,0.0
148.573,-10.91,1.8,24.0
0.0,0.0,0.0,0.0
61.98,-4.589,0.09,2.0
196.814,-14.593,5.756,29.0
197.002,-14.662,4.708,33.0
0.0,0.0,0.0,0.0
148.503,-11.137,1.949,152.0
0.0,0.0,0.0,0.0
0.0,0.0,0.0,0.0
196.661,-14.883,5.949,39.0
196.987,-14.963,4.909,21.0
0.0,0.0,0.0,0.0
148.39,-11.355,2.1,3.0
0.0,0.0,0.0,0.0
0.0,0.0,0.0,0.0
212.751,-16.422,6.658,32.0
212.583,-16.467,5.519,16.0
257.558,-20.019,5.314,26.0
128.136,-9.995,1.947,123.0
0.0,0.0,0.0,0.0
0.0,0.0,0.0,0.0
205.899,-16.196,6.662,10.0
206.421,-16.292,5.578,10.0
291.177,-23.058,6.319,26.0
0.0,0.0,0.0,0.0
0.0,0.0,0.0,0.0
87.172,-6.975,0.491,1.0
164.587,-13.186,5.505,29.0
203.916,-16.389,5.736,33.0
228.495,-18.424,5.209,8.0
0.0,0.0,0.0,0.0
122.094,-9.908,1.472,28.0
93.24,-7.592,0.629,1.0
157.529,-12.842,5.443,44.0
165.059,-13.495,4.824,23.0
191.228,-15.684,4.572,12.0
0.0,0.0,0.0,0.0
121.988,-10.067,1.607,71.0
0.0,0.0,0.0,0.0
164.026,-13.597,5.854,50.0
165.16,-13.732,5.016,33.0
165.094,-13.765,4.136,62.0
165.097,-13.807,3.241,15.0
0.0,0.0,0.0,0.0
0.0,0.0,0.0,0.0
156.775,-13.204,5.773,26.0
157.491,-13.301,4.961,56.0
165.096,-13.981,4.323,31.0
165.114,-14.023,3.43,21.0
0.0,0.0,0.0,0.0
121.754,-10.4,1.238,150.0
149.943,-12.822,5.697,28.0
157.206,-13.48,5.137,54.0
157.418,-13.535,4.308,81.0
157.3,-13.561,3.455,49.0
0.0,0.0,0.0,0.0
121.725,-10.552,1.38,119.0
158.197,-13.728,6.199,23.0
190.365,-16.562,6.449,13.0
157.435,-13.732,4.496,22.0
157.285,-13.753,3.641,37.0
110.982,-9.729,1.979,5.0
110.264,-9.692,1.382,6.0
158.306,-13.931,6.393,17.0
149.593,-13.195,5.246,38.0
188.515,-16.669,5.61,25.0
188.501,-16.71,4.592,35.0
0.0,0.0,0.0,0.0
109.065,-9.716,1.5,7.0
148.599,-13.253,6.183,28.0
164.063,-14.665,5.954,48.0
149.495,-13.393,4.633,27.0
188.329,-16.912,4.817,54.0
188.274,-16.948,3.819,24.0
108.748,-9.811,1.629,16.0
148.575,-13.42,6.365,31.0
156.671,-14.182,5.881,29.0
188.489,-17.1,6.073,36.0
188.202,-17.11,5.047,43.0
188.326,-17.16,4.053,39.0
108.722,-9.93,1.764,19.0
150.473,-13.756,6.634,40.0
148.563,-13.609,5.76,47.0
188.733,-17.326,6.317,32.0
149.424,-13.745,4.194,36.0
188.513,-17.377,4.291,39.0
108.681,-10.039,1.899,5.0
147.516,-13.642,6.689,17.0
156.571,-14.507,6.268,26.0
148.706,-13.804,5.164,88.0
187.92,-17.48,5.511,45.0
188.203,-17.542,4.523,55.0
108.821,-10.164,2.04,8.0
122.821,-11.484,5.725,38.0
157.39,-14.742,6.502,63.0
149.757,-14.053,5.392,26.0
148.865,-13.996,4.556,81.0
187.836,-17.694,4.755,35.0
108.797,-10.268,2.179,9.0
106.376,-10.05,5.096,16.0
151.204,-14.311,6.442,29.0
190.171,-18.031,7.094,12.0
149.785,-14.225,4.78,58.0
149.251,-14.201,3.973,62.0
149.519,-14.252,3.188,18.0
106.474,-10.159,5.239,20.0
123.034,-11.758,5.402,30.0
150.786,-14.434,5.82,27.0
188.299,-18.053,6.251,27.0
149.16,-14.325,4.162,45.0
149.492,-14.381,3.379,94.0
115.609,-11.134,5.839,22.0
147.786,-14.254,6.681,18.0
148.013,-14.298,5.907,41.0
188.298,-18.217,6.497,26.0
148.996,-14.437,4.353,35.0
149.5,-14.509,3.576,42.0
107.988,-10.492,5.595,49.0
106.635,-10.374,4.959,16.0
204.999,-19.972,8.448,18.0
188.949,-18.435,6.767,26.0
148.752,-14.533,4.539,39.0
187.655,-18.362,4.734,49.0
106.795,-10.462,5.675,14.0
106.635,-10.46,5.101,23.0
123.167,-12.098,5.239,14.0
148.175,-14.572,5.503,32.0
148.757,-14.65,4.738,54.0
187.995,-18.54,4.993,48.0
85.42,-8.434,4.654,12.0
106.664,-10.543,5.246,22.0
123.174,-12.19,5.405,35.0
189.692,-18.797,7.301,13.0
148.951,-14.778,4.943,41.0
188.068,-18.681,5.246,45.0
99.207,-9.867,5.538,33.0
106.702,-10.623,5.389,14.0
106.748,-10.639,4.825,28.0
147.914,-14.758,5.886,40.0
148.787,-14.861,5.132,30.0
188.089,-18.809,5.493,44.0
99.285,-9.941,5.674,41.0
116.093,-11.635,6.017,19.0
106.687,-10.702,4.964,28.0
124.85,-12.537,5.135,59.0
148.324,-14.91,5.316,60.0
188.097,-18.929,5.744,41.0
99.438,-10.019,5.816,58.0
115.035,-11.6,6.117,12.0
108.121,-10.913,5.175,15.0
123.171,-12.442,5.23,22.0
148.301,-14.995,5.511,34.0
188.106,-19.039,5.997,31.0
86.424,-8.758,5.171,9.0
99.235,-10.064,5.409,37.0
116.083,-11.782,5.712,39.0
106.626,-10.83,4.67,27.0
124.521,-12.658,4.794,26.0
148.434,-15.103,4.928,13.0
86.208,-8.783,5.273,12.0
99.272,-10.12,5.544,47.0
107.2,-10.936,5.416,9.0
106.61,-10.883,4.81,23.0
149.653,-15.288,5.961,13.0
148.429,-15.175,5.126,30.0
99.259,-10.162,6.204,5.0
90.698,-9.29,5.186,6.0
107.153,-10.982,5.558,71.0
107.888,-11.064,5.013,92.0
106.681,-10.947,4.39,18.0
148.436,-15.242,5.322,47.0
105.108,-10.808,6.71,14.0
105.133,-10.814,6.152,14.0
107.182,-11.031,5.702,40.0
107.16,-11.034,5.121,80.0
106.683,-10.991,4.532,63.0
148.429,-15.301,5.519,34.0
81.523,-8.415,5.312,6.0
105.095,-10.853,6.289,14.0
99.137,-10.241,5.406,30.0
107.155,-11.074,5.262,41.0
107.155,-11.079,4.694,76.0
122.93,-12.716,4.733,32.0
99.771,-10.335,6.635,3.0
114.7,-11.885,7.017,8.0
99.12,-10.273,5.537,7.0
108.4,-11.238,5.468,43.0
107.218,-11.12,4.838,78.0
122.899,-12.751,4.894,30.0
97.711,-10.152,6.628,4.0
99.236,-10.313,6.201,10.0
107.121,-11.134,6.124,10.0
108.816,-11.313,5.631,23.0
122.578,-12.747,5.693,30.0
106.961,-11.126,4.4,49.0
97.865,-10.195,6.768,12.0
81.585,-8.499,5.207,7.0
102.041,-10.632,5.969,5.0
99.148,-10.332,5.262,37.0
122.53,-12.77,5.852,47.0
107.243,-11.179,4.553,69.0
86.137,-8.993,6.07,9.0
81.577,-8.517,5.313,6.0
99.353,-10.372,5.942,11.0
99.145,-10.351,5.391,62.0
122.527,-12.793,6.012,27.0
107.233,-11.197,4.691,29.0
82.642,-8.643,5.932,9.0
97.899,-10.237,6.505,3.0
99.294,-10.382,6.067,19.0
99.194,-10.371,5.524,24.0
108.558,-11.35,5.466,13.0
122.67,-12.826,5.524,26.0
82.575,-8.647,6.035,16.0
97.872,-10.246,6.63,11.0
99.188,-10.383,6.19,13.0
99.261,-10.389,5.654,32.0
108.734,-11.378,5.616,17.0
122.592,-12.828,5.678,29.0
82.445,-8.641,6.132,9.0
97.901,-10.257,6.757,8.0
81.572,-8.544,5.195,8.0
99.275,-10.396,5.782,38.0
99.169,-10.383,5.247,44.0
116.478,-12.193,5.542,8.0
97.18,-10.19,7.35,2.0
86.078,-9.022,6.05,7.0
81.617,-8.551,5.301,8.0
99.273,-10.398,5.907,20.0
99.172,-10.384,5.372,68.0
100.138,-10.482,4.891,5.0
84.324,-8.842,6.485,3.0
82.739,-8.671,5.921,8.0
97.783,-10.244,6.474,4.0
99.252,-10.393,6.031,17.0
99.189,-10.383,5.496,36.0
108.559,-11.36,5.437,12.0
84.196,-8.825,6.581,4.0
82.54,-8.646,6.01,14.0
97.917,-10.251,6.606,11.0
99.221,-10.383,6.152,14.0
99.256,-10.382,5.624,18.0
108.705,-11.365,5.579,19.0
69.059,-7.232,5.483,9.0
82.488,-8.633,6.107,11.0
97.857,-10.235,6.72,10.0
99.093,-10.358,6.264,9.0
99.311,-10.375,5.746,13.0
99.147,-10.353,5.207,25.0
68.922,-7.209,5.557,12.0
83.068,-8.682,6.251,4.0
86.042,-8.986,6.013,7.0
81.5,-8.506,5.251,8.0
86.118,-8.983,5.087,10.0
99.175,-10.339,5.328,47.0
68.659,-7.169,5.619,5.0
77.892,-8.127,5.956,2.0
82.679,-8.619,5.877,6.0
89.396,-9.312,5.866,2.0
86.21,-8.974,5.194,9.0
99.142,-10.313,5.443,20.0
69.229,-7.214,5.748,3.0
84.357,-8.782,6.55,4.0
82.497,-8.581,5.962,13.0
99.828,-10.375,6.667,3.0
99.23,-10.304,6.095,6.0
90.853,-9.427,5.094,5.0
77.592,-8.065,6.533,6.0
100.55,-10.441,7.924,6.0
82.242,-8.532,6.039,7.0
86.147,-8.928,5.854,2.0
99.027,-10.254,6.196,4.0
102.169,-10.57,5.845,5.0
78.226,-8.108,6.676,6.0
69.204,-7.164,5.533,6.0
83.033,-8.587,6.191,3.0
86.142,-8.899,5.951,4.0
81.683,-8.431,5.203,9.0
105.111,-10.838,6.131,16.0
84.009,-8.678,7.265,7.0
69.086,-7.128,5.601,10.0
83.115,-8.566,6.29,1.0
86.186,-8.872,6.05,4.0
81.464,-8.377,5.28,5.0
86.222,-8.857,5.125,11.0
78.267,-8.055,6.855,3.0
69.12,-7.104,5.681,12.0
84.364,-8.66,6.478,1.0
82.416,-8.45,5.876,6.0
89.466,-9.163,5.895,1.0
86.251,-8.823,5.22,10.0
83.392,-8.546,7.395,2.0
68.792,-7.04,5.728,8.0
96.19,-9.832,7.489,8.0
81.96,-8.366,5.931,6.0
99.23,-10.117,6.645,3.0
99.314,-10.113,6.116,6.0
84.968,-8.668,7.626,18.0
68.942,-7.023,5.813,11.0
96.08,-9.774,7.582,6.0
84.452,-8.579,6.199,4.0
97.259,-9.867,6.614,1.0
99.406,-10.072,6.223,14.0
84.969,-8.625,7.714,13.0
68.84,-6.977,5.876,8.0
69.298,-7.013,5.539,1.0
84.473,-8.537,6.286,4.0
90.593,-9.142,6.252,3.0
99.428,-10.02,6.325,15.0
84.975,-8.579,7.801,17.0
68.716,-6.927,5.934,7.0
84.75,-8.529,6.86,3.0
68.392,-6.872,5.158,3.0
82.66,-8.294,5.786,6.0
81.547,-8.17,5.267,4.0
85.008,-8.533,7.888,18.0
68.638,-6.878,5.995,7.0
69.651,-6.968,5.705,1.0
91.503,-9.139,6.988,4.0
82.689,-8.246,5.867,11.0
84.072,-8.371,5.51,18.0
85.002,-8.479,7.969,14.0
68.634,-6.834,6.06,6.0
69.699,-6.928,5.775,2.0
91.285,-9.058,7.058,2.0
82.468,-8.169,5.929,5.0
84.042,-8.312,5.587,30.0
76.866,-7.616,7.278,7.0
84.981,-8.405,7.582,12.0
76.315,-7.534,6.393,2.0
91.016,-8.969,7.12,4.0
81.944,-8.061,5.965,4.0
109.896,-10.793,7.404,7.0
76.936,-7.57,7.353,9.0
90.035,-8.841,8.113,3.0
69.706,-6.832,5.901,2.0
84.173,-8.235,6.659,1.0
84.588,-8.26,6.231,6.0
84.696,-8.256,5.779,1.0
77.002,-7.52,7.427,10.0
83.218,-8.11,7.571,2.0
84.639,-8.233,7.237,2.0
96.662,-9.384,7.728,5.0
84.683,-8.205,6.309,7.0
99.848,-9.657,6.896,23.0
81.066,-7.854,7.887,8.0
109.718,-10.608,10.074,3.0
85.351,-8.235,7.369,4.0
96.736,-9.315,7.813,5.0
84.689,-8.139,6.378,5.0
84.114,-8.068,5.877,31.0
81.063,-7.789,7.952,9.0
84.407,-8.092,7.817,12.0
85.542,-8.183,7.454,2.0
84.544,-8.071,6.896,6.0
98.089,-9.344,7.465,22.0
98.65,-9.379,6.969,15.0
81.08,-7.721,8.018,5.0
84.453,-8.025,7.886,9.0
83.574,-7.923,7.347,2.0
97.835,-9.255,8.054,16.0
85.858,-8.104,6.599,3.0
98.807,-9.307,7.054,18.0
81.091,-7.651,8.08,8.0
99.841,-9.398,9.399,14.0
107.404,-10.088,9.52,10.0
96.021,-8.998,7.974,9.0
99.328,-9.286,7.705,17.0
98.805,-9.217,7.124,4.0
80.992,-7.568,8.127,10.0
85.713,-7.99,8.129,5.0
98.124,-9.125,8.766,12.0
84.616,-7.85,7.086,10.0
85.966,-7.958,6.726,2.0
86.954,-8.031,6.328,3.0
80.905,-7.484,8.173,6.0
97.874,-9.032,9.347,13.0
95.642,-8.804,8.607,8.0
95.819,-8.799,8.086,7.0
84.116,-7.705,6.636,5.0
87.061,-7.957,6.391,3.0
81.006,-7.415,8.236,3.0
98.342,-8.979,9.454,8.0
84.505,-7.697,7.657,4.0
97.426,-8.85,8.282,4.0
85.532,-7.751,6.8,4.0
84.648,-7.652,6.264,5.0
98.681,-8.935,10.092,6.0
98.625,-8.906,9.54,17.0
96.35,-8.678,8.788,5.0
85.524,-7.682,7.32,10.0
85.267,-7.64,6.828,6.0
98.406,-8.795,7.339,4.0
98.606,-8.826,10.141,11.0
98.558,-8.798,9.589,11.0
99.711,-8.877,9.149,14.0
96.813,-8.596,8.339,10.0
105.691,-9.359,8.52,12.0
84.619,-7.474,6.356,7.0
99.619,-8.812,10.297,2.0
99.25,-8.756,9.708,11.0
107.617,-9.466,9.93,4.0
96.887,-8.498,8.395,11.0
115.447,-10.099,9.364,10.0
97.582,-8.514,7.377,5.0
105.761,-9.24,10.985,4.0
99.465,-8.666,9.777,13.0
96.617,-8.393,8.961,10.0
96.879,-8.392,8.439,3.0
105.702,-9.131,8.623,24.0
86.479,-7.45,6.576,6.0
99.84,-8.612,10.415,14.0
105.614,-9.083,10.43,10.0
105.746,-9.068,9.854,16.0
106.817,-9.133,9.351,2.0
85.043,-7.251,6.973,3.0
97.009,-8.247,7.418,7.0
84.815,-7.22,8.882,4.0
108.032,-9.169,10.712,6.0
106.598,-9.02,9.976,19.0
106.246,-8.964,9.342,12.0
84.849,-7.137,6.99,11.0
99.972,-8.385,7.682,2.0
105.643,-8.872,11.103,6.0
99.228,-8.306,9.876,8.0
106.482,-8.885,10.004,4.0
0.0,0.0,0.0,0.0
84.779,-7.031,7.014,20.0
106.054,-8.77,8.185,7.0
99.646,-8.25,10.506,3.0
0.0,0.0,0.0,0.0
106.803,-8.785,10.068,2.0
105.376,-8.641,9.335,13.0
109.569,-8.957,9.097,4.0
98.351,-8.014,7.62,9.0
0.0,0.0,0.0,0.0
0.0,0.0,0.0,0.0
0.0,0.0,0.0,0.0
98.412,-7.95,8.745,6.0
107.08,-8.623,8.919,8.0
107.994,-8.668,8.395,12.0
0.0,0.0,0.0,0.0
0.0,0.0,0.0,0.0
107.62,-8.59,10.2,2.0
107.541,-8.555,9.581,9.0
106.09,-8.412,8.86,8.0
97.806,-7.731,7.623,3.0
0.0,0.0,0.0,0.0
0.0,0.0,0.0,0.0
108.71,-8.541,10.325,1.0
0.0,0.0,0.0,0.0
105.952,-8.268,8.868,7.0
108.017,-8.401,8.438,6.0
0.0,0.0,0.0,0.0
0.0,0.0,0.0,0.0
0.0,0.0,0.0,0.0
106.088,-8.171,9.487,7.0
148.868,-11.427,12.481,3.0
148.295,-11.344,11.605,8.0
0.0,0.0,0.0,0.0
0.0,0.0,0.0,0.0
0.0,0.0,0.0,0.0
0.0,0.0,0.0,0.0
108.391,-8.179,9.099,9.0
148.356,-11.155,11.624,2.0
0.0,0.0,0.0,0.0
0.0,0.0,0.0,0.0
0.0,0.0,0.0,0.0
108.603,-8.081,9.731,7.0
0.0,0.0,0.0,0.0
108.895,-8.046,8.537,5.0
0.0,0.0,0.0,0.0
0.0,0.0,0.0,0.0
0.0,0.0,0.0,0.0
0.0,0.0,0.0,0.0
0.0,0.0,0.0,0.0
108.799,-7.894,8.529,9.0
0.0,0.0,0.0,0.0
0.0,0.0,0.0,0.0
0.0,0.0,0.0,0.0
0.0,0.0,0.0,0.0
108.887,-7.783,9.143,2.0
108.835,-7.75,8.529,2.0
0.0,0.0,0.0,0.0
0.0,0.0,0.0,0.0
0.0,0.0,0.0,0.0
0.0,0.0,0.0,0.0
0.0,0.0,0.0,0.0
0.0,0.0,0.0,0.0
0.0,0.0,0.0,0.0
0.0,0.0,0.0,0.0
0.0,0.0,0.0,0.0
0.0,0.0,0.0,0.0
0.0,0.0,0.0,0.0
109.056,-7.469,8.523,2.0
0.0,0.0,0.0,0.0
0.0,0.0,0.0,0.0
0.0,0.0,0.0,0.0
0.0,0.0,0.0,0.0
0.0,0.0,0.0,0.0
0.0,0.0,0.0,0.0
0.0,0.0,0.0,0.0
0.0,0.0,0.0,0.0
0.0,0.0,0.0,0.0
0.0,0.0,0.0,0.0
0.0,0.0,0.0,0.0
0.0,0.0,0.0,0.0
0.0,0.0,0.0,0.0
0.0,0.0,0.0,0.0
0.0,0.0,0.0,0.0
0.0,0.0,0.0,0.0
0.0,0.0,0.0,0.0
0.0,0.0,0.0,0.0
0.0,0.0,0.0,0.0
0.0,0.0,0.0,0.0
0.0,0.0,0.0,0.0
0.0,0.0,0.0,0.0
0.0,0.0,0.0,0.0
0.0,0.0,0.0,0.0
0.0,0.0,0.0,0.0
0.0,0.0,0.0,0.0
0.0,0.0,0.0,0.0
0.0,0.0,0.0,0.0
0.0,0.0,0.0,0.0
0.0,0.0,0.0,0.0
0.0,0.0,0.0,0.0
0.0,0.0,0.0,0.0
0.0,0.0,0.0,0.0
0.0,0.0,0.0,0.0
0.0,0.0,0.0,0.0
0.0,0.0,0.0,0.0
0.0,0.0,0.0,0.0
0.0,0.0,0.0,0.0
0.0,0.0,0.0,0.0
0.0,0.0,0.0,0.0
0.0,0.0,0.0,0.0
0.0,0.0,0.0,0.0
0.0,0.0,0.0,0.0
0.0,0.0,0.0,0.0
0.0,0.0,0.0,0.0
0.0,0.0,0.0,0.0
0.0,0.0,0.0,0.0
0.0,0.0,0.0,0.0
0.0,0.0,0.0,0.0
0.0,0.0,0.0,0.0
0.0,0.0,0.0,0.0
0.0,0.0,0.0,0.0
0.0,0.0,0.0,0.0
92.938,-5.185,6.979,1.0
56.652,-3.155,5.847,0.0
56.831,-3.149,5.539,0.0
92.291,-5.09,8.468,4.0
0.0,0.0,0.0,0.0
82.911,-4.529,6.652,2.0
91.529,-4.976,6.822,3.0
0.0,0.0,0.0,0.0
0.0,0.0,0.0,0.0
90.747,-4.875,8.273,3.0
0.0,0.0,0.0,0.0
0.0,0.0,0.0,0.0
91.573,-4.847,6.771,3.0
0.0,0.0,0.0,0.0
56.596,-2.974,5.448,6.0
90.753,-4.745,8.217,4.0
93.154,-4.847,7.891,5.0
83.473,-4.321,6.594,1.0
93.034,-4.791,6.819,5.0
92.637,-4.76,9.39,3.0
56.611,-2.894,5.412,5.0
90.786,-4.618,8.159,3.0
92.521,-4.681,7.775,5.0
92.039,-4.634,7.208,3.0
93.09,-4.662,6.759,5.0
92.635,-4.628,9.325,9.0
63.586,-3.159,6.034,4.0
90.82,-4.488,8.097,3.0
92.53,-4.549,7.71,3.0
83.617,-4.089,6.488,5.0
89.931,-4.375,6.464,3.0
64.444,-3.126,6.439,2.0
92.699,-4.472,8.727,12.0
83.971,-4.03,7.422,5.0
90.915,-4.339,7.505,5.0
92.084,-4.371,7.074,2.0
98.444,-4.648,6.998,2.0
83.296,-3.92,8.255,9.0
63.356,-2.965,5.913,2.0
90.664,-4.22,7.94,8.0
92.627,-4.287,7.571,3.0
89.099,-4.102,6.771,1.0
93.066,-4.261,6.539,11.0
57.952,-2.644,5.694,5.0
83.068,-3.767,7.682,1.0
83.333,-3.758,7.227,12.0
90.269,-4.049,7.3,11.0
89.173,-3.978,6.7,2.0
91.356,-4.052,6.34,3.0
55.022,-2.432,5.358,16.0
82.765,-3.638,7.583,4.0
83.387,-3.644,7.159,7.0
83.752,-3.638,6.699,4.0
92.796,-4.009,6.889,3.0
91.271,-3.92,6.252,5.0
54.958,-2.351,5.301,8.0
82.826,-3.522,7.511,10.0
84.288,-3.563,7.156,5.0
83.704,-3.517,6.616,5.0
96.509,-4.032,7.073,5.0
91.044,-3.781,6.149,8.0
57.631,-2.384,5.503,18.0
91.097,-3.746,8.173,8.0
84.265,-3.444,7.073,7.0
92.801,-3.77,7.245,19.0
83.726,-3.381,6.054,5.0
90.168,-3.621,6.002,6.0
57.293,-2.29,5.414,5.0
90.945,-3.613,8.068,21.0
84.175,-3.324,6.98,7.0
83.321,-3.27,6.421,12.0
93.082,-3.632,6.637,12.0
90.287,-3.502,5.917,6.0
57.357,-2.214,5.361,5.0
56.878,-2.182,4.986,5.0
91.369,-3.483,7.481,12.0
83.376,-3.159,6.337,17.0
83.279,-3.135,5.849,11.0
93.119,-3.484,6.004,19.0
40.735,-1.516,3.762,10.0
63.471,-2.347,5.495,4.0
83.121,-3.054,6.715,14.0
83.211,-3.037,6.232,20.0
83.26,-3.02,5.755,13.0
93.162,-3.357,5.902,4.0
40.718,-1.459,3.715,43.0
63.455,-2.259,5.421,6.0
82.685,-2.924,6.584,16.0
83.305,-2.927,6.143,12.0
83.2,-2.904,5.655,11.0
174.607,-6.056,10.861,37.0
40.8,-1.406,3.674,30.0
41.027,-1.405,3.457,1.0
82.949,-2.823,6.508,17.0
92.356,-3.122,6.703,27.0
83.155,-2.793,5.555,13.0
174.697,-5.83,10.662,20.0
40.895,-1.355,3.634,46.0
85.281,-2.807,7.083,2.0
83.154,-2.718,6.423,13.0
83.21,-2.702,5.937,18.0
93.033,-3.0,6.101,14.0
98.182,-3.145,5.871,10.0
40.94,-1.302,3.586,41.0
84.942,-2.684,6.947,4.0
83.395,-2.617,6.338,10.0
83.211,-2.593,5.833,9.0
83.313,-2.579,5.359,42.0
93.161,-2.865,5.454,50.0
40.84,-1.246,3.525,7.0
83.335,-2.525,6.71,24.0
90.732,-2.73,6.779,14.0
83.533,-2.495,5.748,39.0
83.414,-2.474,5.257,59.0
90.576,-2.668,5.184,57.0
63.469,-1.855,5.396,9.0
41.215,-1.196,3.264,1.0
41.313,-1.19,3.032,2.0
90.606,-2.592,6.114,36.0
83.422,-2.369,5.146,20.0
90.409,-2.548,5.054,45.0
54.579,-1.525,4.565,19.0
41.223,-1.143,3.208,27.0
97.283,-2.679,7.005,3.0
92.329,-2.524,6.104,26.0
83.512,-2.266,5.037,28.0
128.731,-3.468,7.019,29.0
41.2,-1.1,3.389,54.0
41.218,-1.092,3.15,49.0
97.383,-2.561,6.876,20.0
128.939,-3.366,8.343,36.0
92.262,-2.389,5.435,31.0
129.022,-3.317,6.853,25.0
41.215,-1.049,3.331,66.0
41.236,-1.042,3.093,11.0
91.714,-2.299,6.344,55.0
130.071,-3.235,8.228,24.0
92.225,-2.276,5.298,17.0
99.05,-2.425,5.117,49.0
41.128,-0.997,3.263,65.0
41.213,-0.991,3.029,5.0
85.046,-2.028,5.756,10.0
129.829,-3.072,8.021,26.0
92.135,-2.163,5.157,22.0
98.878,-2.303,4.962,21.0
41.246,-0.951,3.211,22.0
91.323,-2.088,6.576,27.0
84.148,-1.908,5.569,45.0
91.431,-2.056,5.511,49.0
83.745,-1.867,4.56,35.0
90.628,-2.005,4.409,18.0
41.229,-0.902,3.145,76.0
85.953,-1.865,6.058,25.0
84.769,-1.823,5.48,31.0
101.466,-2.164,5.958,9.0
91.409,-1.933,4.836,78.0
90.618,-1.901,4.269,38.0
41.24,-0.855,3.082,12.0
85.925,-1.766,5.919,44.0
85.067,-1.732,5.364,48.0
101.357,-2.046,5.791,22.0
91.361,-1.828,4.688,60.0
92.956,-1.844,4.23,37.0
83.928,-1.645,6.137,5.0
85.889,-1.669,5.779,15.0
125.739,-2.421,7.728,31.0
101.271,-1.932,5.624,21.0
91.113,-1.723,4.53,78.0
128.46,-2.408,5.641,32.0
63.927,-1.183,4.571,3.0
126.353,-2.316,8.295,12.0
84.082,-1.527,5.03,18.0
83.813,-1.508,4.517,27.0
90.864,-1.62,4.368,45.0
128.403,-2.268,5.426,28.0
82.44,-1.437,5.757,3.0
94.374,-1.629,6.039,10.0
84.07,-1.438,4.889,33.0
101.145,-1.714,5.282,31.0
91.393,-1.533,4.241,77.0
128.096,-2.129,5.2,24.0
125.148,-2.052,8.53,31.0
85.442,-1.387,5.324,20.0
84.024,-1.351,4.745,35.0
90.862,-1.446,4.592,39.0
91.413,-1.44,4.087,62.0
128.204,-2.0,4.986,36.0
124.769,-1.918,8.287,33.0
85.38,-1.299,5.173,33.0
83.899,-1.263,4.592,35.0
79.182,-1.18,3.864,150.0
91.172,-1.345,3.918,77.0
99.556,-1.453,3.699,32.0
94.281,-1.355,6.096,30.0
85.428,-1.215,5.025,40.0
83.898,-1.18,4.444,58.0
85.803,-1.194,4.036,15.0
91.069,-1.254,3.753,80.0
0.0,0.0,0.0,0.0
82.682,-1.108,5.199,48.0
85.467,-1.133,4.874,30.0
83.881,-1.099,4.293,83.0
85.829,-1.113,3.883,150.0
86.02,-1.103,3.391,46.0
79.386,-1.007,2.667,47.0
83.045,-1.036,5.072,28.0
83.636,-1.031,4.618,55.0
79.211,-0.965,3.911,150.0
79.379,-0.956,3.447,150.0
79.402,-0.945,2.985,150.0
79.423,-0.935,2.524,151.0
83.189,-0.961,4.927,53.0
83.688,-0.956,4.467,66.0
79.322,-0.895,3.77,187.0
89.51,-0.997,3.723,20.0
79.427,-0.875,2.84,151.0
79.422,-0.864,2.376,151.0
98.255,-1.049,5.638,7.0
83.746,-0.883,4.314,23.0
85.828,-0.893,3.919,150.0
79.418,-0.816,3.154,168.0
79.431,-0.807,2.691,151.0
79.433,-0.797,2.229,151.0
98.288,-0.966,5.453,25.0
79.19,-0.768,3.93,142.0
85.949,-0.823,3.764,120.0
79.432,-0.751,3.006,178.0
79.415,-0.741,2.543,150.0
79.43,-0.732,2.079,151.0
93.802,-0.845,5.026,27.0
79.27,-0.705,3.784,163.0
89.543,-0.785,3.751,23.0
79.415,-0.687,2.854,150.0
79.415,-0.678,2.39,150.0
79.431,-0.669,1.926,165.0
93.627,-0.77,4.836,40.0
0.0,0.0,0.0,0.0
79.424,-0.635,3.172,166.0
79.42,-0.626,2.7,150.0
79.433,-0.617,2.237,151.0
79.423,-0.608,1.772,188.0
59.484,-0.444,2.956,107.0
59.494,-0.438,2.608,90.0
79.43,-0.576,3.018,151.0
79.415,-0.567,2.545,150.0
79.43,-0.559,2.08,162.0
79.433,-0.55,1.616,171.0
59.49,-0.402,2.839,103.0
59.474,-0.395,2.49,90.0
79.419,-0.519,2.859,150.0
79.431,-0.511,2.387,151.0
79.426,-0.503,1.923,176.0
79.446,-0.495,1.46,166.0
59.483,-0.361,2.721,99.0
79.399,-0.474,3.167,115.0
79.416,-0.466,2.703,150.0
79.436,-0.459,2.232,160.0
79.426,-0.451,1.767,189.0
79.443,-0.443,1.302,159.0
59.477,-0.322,2.601,98.0
79.394,-0.422,3.006,150.0
79.404,-0.415,2.542,150.0
79.43,-0.408,2.07,158.0
79.428,-0.4,1.605,199.0
79.448,-0.393,1.141,151.0
59.463,-0.285,2.479,92.0
79.433,-0.374,2.847,150.0
79.414,-0.366,2.38,151.0
79.428,-0.359,1.908,153.0
79.445,-0.353,1.444,178.0
79.447,-0.346,0.979,151.0
79.402,-0.334,3.147,150.0
79.421,-0.328,2.683,150.0
79.425,-0.321,2.218,151.0
79.436,-0.314,1.745,160.0
79.446,-0.308,1.281,156.0
79.437,-0.301,0.817,150.0
79.422,-0.29,2.985,150.0
79.421,-0.284,2.52,150.0
79.44,-0.278,2.055,151.0
79.427,-0.272,1.583,199.0
79.46,-0.266,1.118,151.0
79.357,-0.26,0.652,113.0
79.426,-0.25,2.822,150.0
79.424,-0.244,2.357,150.0
79.433,-0.239,1.893,151.0
79.442,-0.233,1.42,165.0
79.459,-0.228,0.955,151.0
76.388,-0.213,0.472,15.0
79.427,-0.212,2.658,150.0
79.429,-0.207,2.192,150.0
79.435,-0.202,1.727,154.0
79.449,-0.197,1.255,152.0
79.451,-0.192,0.79,150.0
61.606,-0.144,0.253,12.0
79.425,-0.178,2.493,150.0
79.435,-0.173,2.027,151.0
79.437,-0.168,1.561,170.0
79.454,-0.163,1.088,151.0
79.295,-0.158,0.622,35.0
0.0,0.0,0.0,0.0
79.431,-0.145,2.323,150.0
79.447,-0.141,1.858,151.0
79.442,-0.136,1.394,166.0
79.458,-0.132,0.92,152.0
76.1,-0.122,0.436,16.0
46.291,-0.071,-0.005,20.0
79.432,-0.116,2.157,150.0
79.448,-0.112,1.691,151.0
79.454,-0.108,1.227,157.0
79.425,-0.104,0.753,150.0
56.157,-0.071,0.203,15.0
0.0,0.0,0.0,0.0
79.439,-0.09,1.989,151.0
79.444,-0.086,1.524,175.0
79.458,-0.083,1.058,158.0
76.542,-0.076,0.564,16.0
50.831,-0.048,0.077,3.0
39.576,-0.036,-0.171,22.0
79.451,-0.067,1.82,151.0
79.454,-0.063,1.355,161.0
79.457,-0.06,0.89,165.0
61.768,-0.044,0.323,11.0
45.037,-0.03,-0.027,21.0
38.553,-0.024,-0.249,7.0
79.452,-0.046,1.651,151.0
79.461,-0.043,1.186,155.0
79.42,-0.04,0.719,150.0
55.524,-0.026,0.172,30.0
40.714,-0.018,-0.112,16.0
36.752,-0.015,-0.315,0.0
79.45,-0.029,1.481,162.0
79.465,-0.026,1.015,160.0
76.243,-0.023,0.526,18.0
47.768,-0.013,0.046,22.0
39.203,-0.009,-0.191,19.0
32.275,-0.007,-0.347,1.0
79.459,-0.014,1.311,151.0
79.454,-0.012,0.845,170.0
61.765,-0.008,0.295,16.0
0.0,0.0,0.0,0.0
38.348,-0.003,-0.269,4.0
30.279,-0.001,-0.39,2.0
79.465,-0.003,1.141,151.0
79.363,-0.001,0.675,33.0
0.0,0.0,0.0,0.0
40.054,0.0,-0.132,29.0
33.466,0.001,-0.306,0.0
29.015,0.001,-0.436,2.0
79.461,0.005,0.97,156.0
76.001,0.006,0.483,16.0
0.0,0.0,0.0,0.0
38.832,0.004,-0.212,14.0
31.518,0.003,-0.357,1.0
27.553,0.003,-0.473,2.0
79.447,0.01,0.798,150.0
59.293,0.008,0.247,7.0
43.938,0.006,-0.073,10.0
38.133,0.006,-0.29,3.0
29.869,0.005,-0.402,2.0
26.473,0.004,-0.512,2.0
79.324,0.013,0.627,14.0
0.0,0.0,0.0,0.0
39.669,0.007,-0.151,35.0
33.108,0.006,-0.323,1.0
28.648,0.005,-0.447,2.0
25.118,0.004,-0.539,1.0
75.952,0.012,0.436,10.0
0.0,0.0,0.0,0.0
38.597,0.006,-0.23,13.0
30.877,0.004,-0.368,1.0
27.142,0.004,-0.483,2.0
23.931,0.003,-0.566,2.0
0.0,0.0,0.0,0.0
40.869,0.004,-0.092,17.0
38.118,0.004,-0.309,0.0
29.434,0.002,-0.414,2.0
26.096,0.002,-0.52,1.0
23.049,0.001,-0.594,4.0
47.896,0.001,0.069,19.0
39.279,0.001,-0.173,28.0
32.56,0.0,-0.334,1.0
28.084,0.0,-0.456,2.0
24.792,0.0,-0.548,1.0
22.167,0.0,-0.619,2.0
0.0,0.0,0.0,0.0
38.396,-0.003,-0.251,6.0
30.4,-0.003,-0.377,1.0
26.841,-0.003,-0.493,2.0
23.653,-0.003,-0.572,2.0
21.218,-0.003,-0.638,2.0
40.36,-0.009,-0.113,27.0
33.769,-0.008,-0.293,0.0
29.185,-0.008,-0.424,2.0
25.751,-0.007,-0.527,1.0
22.803,-0.007,-0.6,3.0
20.383,-0.007,-0.656,2.0
39.055,-0.016,-0.193,15.0
31.716,-0.014,-0.342,1.0
27.736,-0.013,-0.461,1.0
24.323,-0.012,-0.549,2.0
21.928,-0.011,-0.624,3.0
19.449,-0.011,-0.667,3.0
38.336,-0.024,-0.269,4.0
30.087,-0.02,-0.388,1.0
26.632,-0.019,-0.499,1.0
23.383,-0.017,-0.578,2.0
21.008,-0.016,-0.642,3.0
18.785,-0.015,-0.684,3.0
33.444,-0.03,-0.306,1.0
28.866,-0.027,-0.433,2.0
25.432,-0.025,-0.53,1.0
22.559,-0.023,-0.605,3.0
20.147,-0.021,-0.658,3.0
18.145,-0.02,-0.699,1.0
31.061,-0.037,-0.349,1.0
27.412,-0.034,-0.468,1.0
24.158,-0.031,-0.554,2.0
21.623,-0.029,-0.625,3.0
19.24,-0.026,-0.669,3.0
17.547,-0.025,-0.713,1.0
29.707,-0.046,-0.396,2.0
26.355,-0.042,-0.506,2.0
23.215,-0.038,-0.581,3.0
20.741,-0.035,-0.643,2.0
18.617,-0.032,-0.686,2.0
16.952,-0.03,-0.724,1.0
28.522,-0.055,-0.44,1.0
25.092,-0.049,-0.533,1.0
22.348,-0.045,-0.606,2.0
19.896,-0.041,-0.658,3.0
17.992,-0.038,-0.7,1.0
16.336,-0.036,-0.731,0.0
27.119,-0.063,-0.473,2.0
23.963,-0.057,-0.559,2.0
21.459,-0.052,-0.625,2.0
19.121,-0.048,-0.671,2.0
17.409,-0.044,-0.713,1.0
15.839,-0.041,-0.742,1.0
26.096,-0.072,-0.509,2.0
23.063,-0.065,-0.584,2.0
20.61,-0.06,-0.643,3.0
18.459,-0.055,-0.686,2.0
16.821,-0.051,-0.723,1.0
15.342,-0.047,-0.75,1.0
24.807,-0.081,-0.534,1.0
22.167,-0.074,-0.607,3.0
19.769,-0.067,-0.657,2.0
17.86,-0.062,-0.7,2.0
16.223,-0.057,-0.731,1.0
14.949,-0.054,-0.761,1.0
23.853,-0.09,-0.561,2.0
21.258,-0.081,-0.624,2.0
19.052,-0.074,-0.671,2.0
17.282,-0.069,-0.711,1.0
15.768,-0.064,-0.742,1.0
14.568,-0.06,-0.77,1.0
22.913,-0.099,-0.585,2.0
20.436,-0.09,-0.641,2.0
18.367,-0.082,-0.684,2.0
16.755,-0.076,-0.723,1.0
15.312,-0.071,-0.75,1.0
14.152,-0.066,-0.777,1.0
22.03,-0.108,-0.606,3.0
19.673,-0.098,-0.656,2.0
17.807,-0.09,-0.698,1.0
16.165,-0.083,-0.729,1.0
14.903,-0.078,-0.76,1.0
13.828,-0.073,-0.786,1.0
21.103,-0.116,-0.621,3.0
18.982,-0.106,-0.67,2.0
17.277,-0.098,-0.711,1.0
15.714,-0.091,-0.74,1.0
14.534,-0.085,-0.769,1.0
13.502,-0.08,-0.794,1.0
20.32,-0.125,-0.638,2.0
18.344,-0.114,-0.683,2.0
16.74,-0.106,-0.721,1.0
15.31,-0.098,-0.75,1.0
14.172,-0.092,-0.777,1.0
13.198,-0.087,-0.801,1.0
19.66,-0.134,-0.655,2.0
17.802,-0.123,-0.697,1.0
16.165,-0.114,-0.727,1.0
14.922,-0.106,-0.76,1.0
13.797,-0.1,-0.783,0.0
12.902,-0.094,-0.808,0.0
18.953,-0.143,-0.667,1.0
17.284,-0.132,-0.709,1.0
15.785,-0.122,-0.74,1.0
14.528,-0.114,-0.767,1.0
13.503,-0.107,-0.792,1.0
12.614,-0.102,-0.814,0.0
18.367,-0.152,-0.681,1.0
16.764,-0.141,-0.719,1.0
15.333,-0.13,-0.747,1.0
14.174,-0.122,-0.775,1.0
13.211,-0.115,-0.8,1.0
12.359,-0.109,-0.82,0.0
17.859,-0.162,-0.695,1.0
16.256,-0.149,-0.727,1.0
14.949,-0.139,-0.756,1.0
13.839,-0.13,-0.782,0.0
12.938,-0.123,-0.807,0.0
12.08,-0.116,-0.824,0.0
17.349,-0.171,-0.707,1.0
15.839,-0.158,-0.738,1.0
14.578,-0.147,-0.764,1.0
13.534,-0.138,-0.789,1.0
12.631,-0.131,-0.811,1.0
11.878,-0.124,-0.832,1.0
16.832,-0.18,-0.716,1.0
15.391,-0.167,-0.745,1.0
14.242,-0.156,-0.772,1.0
13.266,-0.147,-0.798,1.0
12.388,-0.139,-0.818,0.0
11.647,-0.132,-0.837,0.0
16.317,-0.189,-0.723,1.0
15.052,-0.176,-0.755,1.0
13.908,-0.165,-0.779,0.0
12.98,-0.155,-0.804,0.0
12.163,-0.147,-0.824,0.0
11.44,-0.14,-0.842,0.0
15.92,-0.198,-0.734,1.0
14.668,-0.185,-0.761,1.0
13.615,-0.173,-0.786,1.0
12.703,-0.163,-0.809,1.0
11.916,-0.155,-0.828,1.0
11.225,-0.148,-0.846,0.0
15.531,-0.208,-0.742,1.0
14.311,-0.194,-0.768,1.0
13.374,-0.183,-0.795,1.0
12.454,-0.172,-0.814,0.0
11.709,-0.163,-0.834,0.0
11.039,-0.156,-0.851,0.0
15.161,-0.218,-0.751,1.0
14.02,-0.203,-0.776,1.0
13.097,-0.192,-0.801,0.0
12.235,-0.181,-0.821,0.0
11.5,-0.172,-0.839,0.0
10.843,-0.163,-0.854,0.0
14.828,-0.227,-0.759,1.0
13.73,-0.212,-0.782,1.0
12.841,-0.201,-0.806,1.0
11.99,-0.189,-0.824,0.0
11.298,-0.18,-0.842,0.0
10.683,-0.172,-0.859,0.0
14.482,-0.237,-0.764,1.0
13.48,-0.222,-0.79,1.0
12.585,-0.209,-0.811,1.0
11.809,-0.198,-0.831,1.0
11.122,-0.189,-0.847,0.0
10.524,-0.18,-0.863,0.0
14.163,-0.246,-0.77,1.0
13.231,-0.232,-0.797,1.0
12.349,-0.218,-0.815,0.0
11.619,-0.207,-0.836,0.0
10.948,-0.197,-0.852,0.0
10.343,-0.188,-0.865,0.0
13.897,-0.256,-0.778,1.0
12.985,-0.241,-0.802,0.0
12.157,-0.228,-0.822,1.0
11.446,-0.216,-0.841,0.0
10.783,-0.206,-0.855,0.0
10.156,-0.195,-0.865,0.0
13.638,-0.266,-0.784,1.0
12.757,-0.251,-0.807,1.0
11.944,-0.237,-0.825,1.0
11.257,-0.225,-0.845,0.0
10.632,-0.214,-0.86,0.0
10.0,-0.203,-0.867,1.0
13.406,-0.276,-0.791,1.0
12.546,-0.26,-0.813,0.0
11.756,-0.246,-0.83,0.0
11.077,-0.234,-0.847,0.0
10.473,-0.223,-0.862,0.0
9.875,-0.212,-0.871,2.0
13.179,-0.286,-0.796,1.0
12.324,-0.27,-0.816,0.0
11.587,-0.256,-0.835,0.0
10.921,-0.243,-0.851,0.0
10.311,-0.231,-0.864,0.0
9.782,-0.221,-0.876,2.0
12.969,-0.296,-0.802,1.0
12.141,-0.28,-0.821,1.0
11.415,-0.265,-0.839,0.0
10.769,-0.252,-0.855,0.0
10.163,-0.239,-0.866,0.0
9.674,-0.23,-0.881,0.0
12.746,-0.306,-0.806,0.0
11.951,-0.289,-0.825,1.0
11.25,-0.274,-0.842,1.0
10.625,-0.261,-0.858,0.0
10.019,-0.248,-0.867,0.0
9.531,-0.238,-0.881,0.0
12.546,-0.316,-0.811,0.0
11.776,-0.299,-0.829,0.0
11.108,-0.284,-0.846,1.0
10.495,-0.27,-0.862,0.0
9.88,-0.256,-0.869,1.0
9.429,-0.247,-0.884,0.0
12.362,-0.326,-0.815,0.0
11.622,-0.309,-0.833,0.0
10.939,-0.293,-0.848,0.0
10.339,-0.279,-0.862,0.0
9.785,-0.266,-0.873,2.0
9.32,-0.255,-0.886,0.0
12.197,-0.337,-0.82,0.0
11.469,-0.319,-0.837,0.0
10.817,-0.303,-0.852,0.0
10.21,-0.288,-0.865,0.0
9.719,-0.276,-0.879,0.0
9.206,-0.263,-0.887,0.0
12.006,-0.346,-0.822,0.0
11.326,-0.329,-0.841,0.0
10.68,-0.312,-0.854,0.0
10.068,-0.297,-0.865,0.0
9.586,-0.284,-0.879,0.0
9.113,-0.272,-0.889,0.0
11.863,-0.357,-0.826,0.0
11.175,-0.339,-0.843,0.0
10.557,-0.322,-0.857,0.0
9.947,-0.305,-0.866,1.0
9.499,-0.294,-0.882,0.0
9.04,-0.281,-0.892,0.0
11.71,-0.367,-0.829,0.0
11.051,-0.349,-0.846,0.0
10.45,-0.332,-0.861,0.0
9.837,-0.315,-0.868,2.0
9.417,-0.303,-0.886,0.0
8.935,-0.29,-0.892,0.0
11.589,-0.378,-0.834,0.0
10.938,-0.359,-0.85,0.0
10.325,-0.341,-0.862,0.0
9.784,-0.326,-0.874,2.0
9.312,-0.312,-0.886,0.0
8.856,-0.299,-0.894,0.0
11.444,-0.388,-0.836,0.0
10.79,-0.368,-0.85,0.0
10.223,-0.351,-0.864,0.0
9.712,-0.336,-0.878,0.0
9.217,-0.321,-0.887,0.0
8.792,-0.308,-0.897,0.0
11.331,-0.399,-0.839,0.0
10.696,-0.379,-0.854,0.0
10.087,-0.36,-0.863,0.0
9.603,-0.345,-0.878,0.0
9.138,-0.33,-0.889,0.0
8.705,-0.317,-0.897,0.0
11.211,-0.41,-0.842,0.0
10.588,-0.389,-0.856,0.0
9.984,-0.369,-0.864,1.0
9.52,-0.354,-0.88,0.0
9.064,-0.34,-0.89,0.0
8.648,-0.326,-0.9,0.0
11.106,-0.421,-0.844,0.0
10.495,-0.4,-0.858,0.0
9.899,-0.379,-0.866,2.0
9.455,-0.364,-0.883,0.0
8.999,-0.349,-0.892,0.0
8.581,-0.335,-0.901,0.0
11.005,-0.432,-0.847,0.0
10.404,-0.41,-0.86,0.0
9.822,-0.39,-0.869,2.0
9.365,-0.374,-0.883,0.0
8.902,-0.357,-0.891,0.0
8.52,-0.344,-0.902,0.0
10.918,-0.443,-0.85,0.0
10.326,-0.421,-0.863,0.0
9.773,-0.401,-0.873,2.0
9.31,-0.384,-0.886,0.0
8.854,-0.367,-0.893,0.0
8.442,-0.352,-0.901,0.0
10.828,-0.454,-0.852,0.0
10.231,-0.431,-0.863,0.0
9.741,-0.413,-0.878,1.0
9.248,-0.394,-0.888,0.0
8.783,-0.376,-0.893,0.0
8.396,-0.362,-0.903,0.0
10.722,-0.464,-0.852,0.0
10.136,-0.441,-0.863,0.0
9.657,-0.423,-0.878,0.0
9.177,-0.404,-0.888,0.0
8.716,-0.386,-0.893,0.0
8.354,-0.372,-0.904,0.0
10.652,-0.476,-0.854,0.0
10.046,-0.451,-0.863,0.0
9.573,-0.432,-0.877,0.0
9.123,-0.414,-0.889,0.0
8.683,-0.396,-0.896,0.0
8.309,-0.381,-0.906,0.0
10.594,-0.487,-0.857,0.0
9.971,-0.461,-0.863,1.0
9.517,-0.442,-0.878,0.0
9.056,-0.423,-0.889,0.0
8.631,-0.405,-0.897,0.0
8.261,-0.39,-0.906,0.0
10.533,-0.499,-0.859,0.0
9.92,-0.472,-0.865,2.0
9.466,-0.453,-0.88,0.0
9.023,-0.434,-0.891,0.0
8.591,-0.415,-0.898,0.0
8.225,-0.4,-0.907,0.0
10.45,-0.509,-0.858,0.0
9.883,-0.484,-0.868,2.0
9.416,-0.463,-0.881,0.0
8.983,-0.444,-0.893,0.0
8.572,-0.426,-0.901,0.0
8.201,-0.41,-0.909,0.0
10.405,-0.521,-0.861,0.0
9.825,-0.494,-0.868,2.0
9.374,-0.474,-0.882,0.0
8.919,-0.453,-0.891,0.0
8.522,-0.435,-0.9,0.0
8.158,-0.419,-0.909,0.0
10.363,-0.533,-0.863,0.0
9.79,-0.506,-0.871,2.0
9.313,-0.484,-0.881,0.0
8.908,-0.465,-0.895,0.0
8.489,-0.445,-0.901,0.0
8.112,-0.428,-0.908,0.0
10.313,-0.545,-0.863,0.0
9.779,-0.519,-0.874,2.0
9.292,-0.495,-0.884,0.0
8.845,-0.474,-0.892,0.0
8.462,-0.456,-0.902,0.0
8.094,-0.438,-0.909,0.0
10.251,-0.555,-0.863,0.0
9.751,-0.531,-0.876,1.0
9.261,-0.506,-0.885,0.0
8.808,-0.484,-0.892,0.0
8.422,-0.465,-0.901,0.0
8.084,-0.448,-0.911,0.0
10.218,-0.568,-0.864,0.0
9.73,-0.543,-0.878,1.0
9.22,-0.517,-0.884,0.0
8.791,-0.495,-0.894,0.0
8.406,-0.475,-0.903,0.0
8.043,-0.457,-0.91,0.0
10.144,-0.577,-0.861,0.0
9.691,-0.554,-0.878,0.0
9.195,-0.528,-0.885,0.0
8.749,-0.505,-0.893,0.0
8.384,-0.486,-0.903,0.0
8.046,-0.468,-0.913,0.0
10.122,-0.59,-0.862,0.0
9.671,-0.566,-0.879,0.0
9.18,-0.54,-0.886,0.0
8.744,-0.516,-0.895,0.0
8.364,-0.496,-0.903,0.0
8.019,-0.478,-0.912,0.0
10.094,-0.602,-0.863,0.0
9.639,-0.577,-0.878,0.0
9.175,-0.552,-0.888,0.0
8.725,-0.527,-0.895,0.0
8.35,-0.506,-0.904,0.0
8.012,-0.488,-0.913,0.0
10.058,-0.613,-0.862,1.0
9.609,-0.588,-0.878,0.0
9.169,-0.564,-0.889,0.0
8.702,-0.537,-0.894,0.0
8.34,-0.517,-0.904,0.0
8.015,-0.499,-0.914,0.0
10.039,-0.625,-0.862,1.0
9.589,-0.599,-0.877,0.0
9.143,-0.574,-0.888,0.0
8.708,-0.549,-0.896,0.0
8.333,-0.527,-0.905,0.0
7.991,-0.508,-0.913,0.0
10.021,-0.637,-0.862,1.0
9.583,-0.612,-0.878,0.0
9.146,-0.586,-0.889,0.0
8.679,-0.559,-0.894,0.0
8.321,-0.538,-0.904,0.0
7.999,-0.519,-0.914,0.0
10.01,-0.65,-0.861,1.0
9.567,-0.623,-0.877,0.0
9.136,-0.598,-0.889,0.0
8.707,-0.572,-0.897,0.0
8.338,-0.55,-0.906,0.0
7.979,-0.528,-0.913,0.0
10.014,-0.663,-0.862,1.0
9.576,-0.637,-0.878,0.0
9.119,-0.608,-0.888,0.0
8.69,-0.582,-0.896,0.0
8.338,-0.561,-0.906,0.0
7.988,-0.539,-0.914,0.0
10.014,-0.676,-0.862,1.0
9.589,-0.65,-0.879,0.0
9.125,-0.621,-0.888,0.0
8.691,-0.593,-0.895,0.0
8.32,-0.57,-0.904,0.0
7.987,-0.549,-0.913,0.0
10.022,-0.689,-0.862,1.0
9.567,-0.66,-0.877,0.0
9.112,-0.631,-0.886,0.0
8.699,-0.605,-0.896,0.0
8.333,-0.581,-0.905,0.0
7.989,-0.56,-0.913,0.0
10.023,-0.702,-0.861,1.0
9.587,-0.674,-0.878,0.0
9.131,-0.644,-0.887,0.0
8.713,-0.617,-0.896,0.0
8.337,-0.592,-0.904,0.0
7.999,-0.57,-0.913,0.0
10.033,-0.715,-0.861,0.0
9.623,-0.688,-0.879,0.0
9.135,-0.656,-0.886,0.0
8.701,-0.627,-0.894,0.0
8.358,-0.604,-0.905,0.0
8.014,-0.581,-0.913,0.0
10.053,-0.729,-0.861,0.0
9.617,-0.699,-0.877,0.0
9.163,-0.669,-0.887,0.0
8.727,-0.639,-0.894,0.0
8.371,-0.615,-0.905,0.0
8.024,-0.592,-0.912,0.0
10.095,-0.744,-0.862,0.0
9.661,-0.714,-0.879,0.0
9.176,-0.681,-0.886,0.0
8.747,-0.651,-0.894,0.0
8.377,-0.626,-0.903,0.0
8.04,-0.603,-0.912,0.0
10.122,-0.758,-0.862,0.0
9.668,-0.726,-0.877,0.0
9.204,-0.694,-0.886,0.0
8.758,-0.662,-0.893,0.0
8.393,-0.637,-0.903,0.0
8.054,-0.613,-0.911,0.0
10.178,-0.774,-0.864,0.0
9.72,-0.741,-0.879,0.0
9.226,-0.706,-0.885,0.0
8.797,-0.675,-0.894,0.0
8.43,-0.649,-0.904,0.0
8.074,-0.624,-0.911,0.0
10.225,-0.789,-0.864,0.0
9.739,-0.754,-0.877,1.0
9.257,-0.719,-0.885,0.0
8.825,-0.687,-0.894,0.0
8.465,-0.662,-0.904,0.0
8.099,-0.635,-0.91,0.0
10.266,-0.804,-0.864,0.0
9.759,-0.766,-0.875,2.0
9.299,-0.732,-0.885,0.0
8.863,-0.7,-0.894,0.0
8.474,-0.671,-0.902,0.0
8.124,-0.646,-0.91,0.0
10.318,-0.819,-0.864,0.0
9.784,-0.779,-0.873,2.0
9.331,-0.745,-0.884,0.0
8.896,-0.712,-0.893,0.0
8.501,-0.683,-0.901,0.0
8.144,-0.656,-0.908,0.0
10.347,-0.833,-0.861,0.0
9.792,-0.79,-0.869,3.0
9.378,-0.759,-0.884,0.0
8.921,-0.724,-0.891,0.0
8.53,-0.694,-0.9,0.0
8.187,-0.668,-0.909,0.0
10.406,-0.848,-0.861,0.0
9.834,-0.804,-0.868,2.0
9.408,-0.771,-0.882,0.0
8.974,-0.737,-0.892,0.0
8.579,-0.707,-0.9,0.0
8.218,-0.679,-0.908,0.0
10.464,-0.864,-0.86,0.0
9.881,-0.818,-0.866,2.0
9.448,-0.784,-0.881,0.0
9.046,-0.753,-0.894,0.0
8.61,-0.718,-0.899,0.0
8.25,-0.69,-0.907,0.0
10.523,-0.879,-0.859,0.0
9.932,-0.832,-0.865,2.0
9.525,-0.8,-0.882,0.0
9.051,-0.762,-0.889,0.0
8.662,-0.731,-0.899,0.0
8.295,-0.702,-0.907,0.0
10.592,-0.895,-0.858,0.0
9.975,-0.845,-0.863,1.0
9.571,-0.813,-0.88,0.0
9.108,-0.775,-0.889,0.0
8.708,-0.743,-0.898,0.0
8.342,-0.714,-0.906,0.0
10.658,-0.91,-0.856,0.0
10.072,-0.862,-0.864,0.0
9.635,-0.827,-0.88,0.0
9.186,-0.79,-0.89,0.0
8.747,-0.755,-0.896,0.0
8.383,-0.725,-0.905,0.0
10.737,-0.927,-0.855,1.0
10.162,-0.879,-0.865,0.0
9.712,-0.842,-0.88,1.0
9.227,-0.802,-0.888,0.0
8.795,-0.766,-0.894,0.0
8.435,-0.737,-0.904,0.0
10.781,-0.94,-0.851,1.0
10.25,-0.896,-0.865,0.0
9.76,-0.855,-0.877,2.0
9.307,-0.817,-0.888,0.0
8.868,-0.78,-0.895,0.0
8.486,-0.748,-0.903,0.0
10.846,-0.955,-0.848,0.0
10.339,-0.912,-0.865,0.0
9.79,-0.866,-0.872,3.0
9.349,-0.828,-0.885,0.0
8.928,-0.793,-0.894,0.0
8.531,-0.759,-0.901,0.0
10.956,-0.974,-0.848,0.0
10.408,-0.927,-0.862,1.0
9.842,-0.878,-0.869,2.0
9.414,-0.842,-0.883,0.0
9.004,-0.807,-0.894,0.0
8.606,-0.773,-0.902,0.0
11.056,-0.991,-0.846,0.0
10.473,-0.941,-0.859,2.0
9.907,-0.892,-0.866,2.0
9.493,-0.856,-0.883,0.0
9.062,-0.819,-0.892,0.0
8.66,-0.784,-0.9,0.0
11.126,-1.006,-0.842,0.0
10.527,-0.953,-0.854,1.0
10.002,-0.908,-0.866,1.0
9.564,-0.87,-0.881,0.0
9.131,-0.832,-0.891,0.0
8.703,-0.794,-0.897,0.0
11.236,-1.024,-0.84,0.0
10.632,-0.97,-0.853,0.0
10.081,-0.922,-0.864,0.0
9.66,-0.885,-0.881,0.0
9.216,-0.846,-0.891,0.0
8.775,-0.807,-0.896,0.0
11.337,-1.041,-0.838,0.0
10.751,-0.988,-0.853,0.0
10.172,-0.937,-0.862,0.0
9.736,-0.898,-0.879,2.0
9.275,-0.857,-0.888,0.0
8.849,-0.819,-0.895,0.0
11.455,-1.059,-0.836,0.0
10.852,-1.004,-0.85,0.0
10.3,-0.955,-0.863,0.0
9.786,-0.909,-0.874,3.0
9.376,-0.872,-0.888,0.0
8.942,-0.833,-0.896,0.0
11.571,-1.076,-0.833,0.0
10.958,-1.021,-0.848,0.0
10.394,-0.97,-0.86,0.0
9.851,-0.921,-0.87,2.0
9.43,-0.883,-0.884,0.0
9.008,-0.845,-0.893,0.0
11.725,-1.097,-0.832,0.0
11.073,-1.038,-0.846,0.0
10.512,-0.987,-0.86,0.0
9.931,-0.934,-0.867,2.0
9.528,-0.897,-0.883,0.0
9.083,-0.857,-0.891,0.0
11.823,-1.113,-0.827,0.0
11.177,-1.053,-0.842,0.0
10.618,-1.002,-0.857,0.0
10.058,-0.951,-0.867,1.0
9.64,-0.912,-0.883,0.0
9.188,-0.871,-0.892,0.0
11.922,-1.128,-0.821,0.0
11.305,-1.071,-0.839,0.0
10.71,-1.016,-0.853,0.0
10.137,-0.963,-0.863,0.0
9.736,-0.926,-0.882,1.0
9.274,-0.883,-0.89,0.0
12.173,-1.157,-0.825,0.0
11.469,-1.092,-0.839,0.0
10.824,-1.032,-0.85,0.0
10.274,-0.98,-0.863,0.0
9.79,-0.935,-0.876,3.0
9.364,-0.896,-0.888,0.0
12.294,-1.174,-0.82,0.0
11.575,-1.106,-0.834,0.0
10.969,-1.05,-0.849,0.0
10.39,-0.996,-0.861,0.0
9.875,-0.947,-0.872,3.0
9.446,-0.907,-0.885,0.0
12.415,-1.19,-0.814,0.0
11.703,-1.123,-0.83,0.0
11.089,-1.065,-0.846,0.0
10.527,-1.012,-0.86,0.0
9.977,-0.96,-0.869,2.0
9.552,-0.921,-0.884,0.0
12.611,-1.213,-0.812,0.0
11.867,-1.143,-0.828,0.0
11.228,-1.082,-0.843,0.0
10.651,-1.027,-0.858,0.0
10.096,-0.975,-0.868,1.0
9.681,-0.936,-0.884,0.0
12.782,-1.233,-0.808,0.0
12.071,-1.166,-0.828,0.0
11.371,-1.099,-0.84,0.0
10.753,-1.04,-0.854,0.0
10.199,-0.988,-0.864,0.0
9.768,-0.947,-0.88,2.0
12.992,-1.257,-0.805,0.0
12.247,-1.186,-0.825,0.0
11.503,-1.114,-0.836,0.0
10.892,-1.056,-0.851,0.0
10.341,-1.003,-0.864,0.0
9.838,-0.956,-0.875,3.0
13.192,-1.279,-0.802,0.0
12.369,-1.2,-0.818,0.0
11.649,-1.131,-0.833,0.0
11.053,-1.074,-0.85,0.0
10.476,-1.018,-0.862,0.0
9.932,-0.966,-0.871,2.0
13.371,-1.298,-0.796,0.0
12.574,-1.222,-0.816,0.0
11.89,-1.156,-0.835,0.0
11.176,-1.087,-0.846,0.0
10.598,-1.032,-0.859,0.0
10.054,-0.98,-0.869,1.0
13.593,-1.322,-0.792,0.0
12.745,-1.24,-0.811,0.0
12.012,-1.169,-0.828,0.0
11.311,-1.101,-0.842,0.0
10.759,-1.048,-0.858,0.0
