X,Y,Z,Reflectivity
38.844,1.166,-0.184,17.0
32.585,0.967,-0.334,1.0
28.464,0.835,-0.449,1.0
93.377,2.699,1.101,2.0
0.0,0.0,0.0,0.0
47.646,1.346,0.036,23.0
37.029,1.033,-0.179,30.0
32.761,0.903,-0.339,1.0
28.471,0.776,-0.452,1.0
93.288,2.503,1.092,3.0
61.184,1.62,0.379,29.0
47.634,1.245,0.032,23.0
37.153,0.959,-0.183,34.0
32.528,0.829,-0.339,1.0
28.448,0.716,-0.453,1.0
89.696,2.218,1.046,4.0
61.228,1.493,0.376,27.0
47.411,1.139,0.03,22.0
37.565,0.891,-0.186,54.0
32.602,0.762,-0.341,1.0
28.502,0.657,-0.455,2.0
93.071,2.105,1.083,4.0
61.393,1.368,0.377,21.0
47.448,1.041,0.03,22.0
37.448,0.809,-0.185,43.0
32.481,0.691,-0.339,1.0
28.527,0.597,-0.455,1.0
90.024,1.846,1.05,6.0
61.521,1.24,0.379,15.0
47.364,0.939,0.032,24.0
37.676,0.734,-0.185,36.0
32.719,0.626,-0.34,1.0
28.496,0.536,-0.453,2.0
89.966,1.654,1.055,9.0
61.758,1.114,0.385,11.0
47.394,0.839,0.035,30.0
37.845,0.657,-0.183,46.0
32.787,0.558,-0.338,1.0
28.588,0.477,-0.452,2.0
94.493,1.537,1.117,4.0
62.191,0.989,0.394,11.0
47.514,0.74,0.04,42.0
38.019,0.579,-0.179,45.0
32.937,0.49,-0.336,1.0
28.795,0.418,-0.451,2.0
121.105,1.71,1.448,10.0
48.143,0.662,0.312,30.0
47.633,0.639,0.048,49.0
38.206,0.499,-0.174,47.0
33.039,0.42,-0.331,1.0
28.94,0.358,-0.448,2.0
48.126,0.577,0.583,99.0
48.055,0.56,0.32,85.0
47.733,0.539,0.056,52.0
38.453,0.421,-0.168,50.0
33.207,0.352,-0.326,1.0
29.051,0.298,-0.444,2.0
48.078,0.474,0.593,105.0
48.049,0.457,0.33,109.0
47.85,0.438,0.067,58.0
38.757,0.342,-0.16,49.0
33.289,0.281,-0.319,1.0
29.129,0.236,-0.438,2.0
48.093,0.371,0.605,98.0
48.118,0.354,0.343,51.0
47.982,0.337,0.08,52.0
39.1,0.26,-0.151,47.0
33.559,0.212,-0.313,0.0
29.299,0.174,-0.433,2.0
59.3,0.331,0.763,101.0
59.299,0.31,0.44,101.0
54.435,0.265,0.107,28.0
39.493,0.179,-0.14,42.0
37.792,0.157,-0.34,5.0
29.462,0.112,-0.426,2.0
79.469,0.275,1.048,151.0
76.747,0.238,0.595,23.0
54.303,0.149,0.125,29.0
40.105,0.096,-0.129,23.0
38.022,0.078,-0.329,0.0
29.633,0.05,-0.417,2.0
79.465,0.108,1.077,151.0
79.367,0.079,0.644,35.0
0.0,0.0,0.0,0.0
40.788,0.011,-0.116,17.0
38.174,-0.002,-0.315,2.0
29.832,-0.012,-0.408,2.0
79.46,-0.061,1.109,151.0
79.404,-0.088,0.677,132.0
55.998,-0.082,0.173,26.0
41.776,-0.076,-0.101,19.0
0.0,0.0,0.0,0.0
30.097,-0.076,-0.399,2.0
79.463,-0.228,1.143,151.0
79.442,-0.257,0.712,150.0
56.162,-0.202,0.199,7.0
0.0,0.0,0.0,0.0
39.338,-0.169,-0.29,1.0
30.434,-0.141,-0.389,2.0
79.452,-0.396,1.181,156.0
79.471,-0.424,0.75,171.0
61.359,-0.348,0.247,16.0
44.514,-0.269,-0.065,3.0
42.221,-0.27,-0.29,3.0
30.827,-0.208,-0.379,1.0
79.449,-0.563,1.221,172.0
79.464,-0.59,0.791,178.0
61.399,-0.477,0.279,7.0
50.15,-0.408,-0.047,4.0
42.196,-0.358,-0.268,4.0
31.269,-0.276,-0.367,1.0
79.44,-0.728,1.264,198.0
79.459,-0.755,0.835,177.0
77.464,-0.762,0.395,4.0
54.434,-0.555,-0.021,10.0
42.335,-0.446,-0.245,3.0
31.914,-0.348,-0.357,1.0
79.42,-0.89,1.31,255.0
79.459,-0.918,0.881,12.0
78.227,-0.931,0.445,7.0
60.652,-0.743,0.012,4.0
42.487,-0.535,-0.22,3.0
32.544,-0.421,-0.344,1.0
86.951,-1.153,1.487,74.0
148.036,-2.014,1.734,10.0
82.163,-1.146,0.52,2.0
58.283,-0.833,0.048,0.0
46.216,-0.677,-0.21,1.0
33.561,-0.503,-0.333,1.0
0.0,0.0,0.0,0.0
149.044,-2.332,1.844,12.0
40.295,-0.644,0.281,2.0
40.302,-0.658,0.06,41.0
40.331,-0.673,-0.156,40.0
34.256,-0.583,-0.316,0.0
40.204,-0.696,0.741,38.0
40.281,-0.711,0.526,8.0
40.238,-0.724,0.309,54.0
40.269,-0.738,0.088,62.0
40.328,-0.753,-0.127,12.0
37.253,-0.709,-0.318,0.0
40.211,-0.777,0.77,42.0
40.23,-0.79,0.554,61.0
40.271,-0.805,0.338,42.0
0.0,0.0,0.0,0.0
0.0,0.0,0.0,0.0
40.158,-0.844,-0.313,2.0
40.21,-0.855,0.8,58.0
40.285,-0.871,0.585,42.0
40.312,-0.886,0.369,6.0
40.309,-0.899,0.149,109.0
40.297,-0.913,-0.066,40.0
40.267,-0.926,-0.282,56.0
40.196,-0.934,0.831,57.0
40.259,-0.949,0.616,65.0
40.282,-0.964,0.401,12.0
0.0,0.0,0.0,0.0
0.0,0.0,0.0,0.0
40.83,-1.019,-0.253,27.0
40.199,-1.013,0.864,56.0
40.213,-1.027,0.649,54.0
40.2,-1.04,0.434,48.0
40.181,-1.053,0.214,56.0
40.253,-1.069,0.0,54.0
40.939,-1.101,-0.219,55.0
40.254,-1.092,0.9,41.0
0.0,0.0,0.0,0.0
40.263,-1.119,0.469,5.0
40.212,-1.131,0.249,45.0
40.202,-1.144,0.034,54.0
40.213,-1.158,-0.18,50.0
40.332,-1.171,0.937,25.0
40.369,-1.186,0.722,17.0
40.34,-1.197,0.506,0.0
0.0,0.0,0.0,0.0
0.0,0.0,0.0,0.0
0.0,0.0,0.0,0.0
40.334,-1.247,0.973,23.0
40.343,-1.261,0.758,15.0
40.345,-1.273,0.543,4.0
0.0,0.0,0.0,0.0
65.838,-2.121,0.177,0.0
0.0,0.0,0.0,0.0
0.0,0.0,0.0,0.0
0.0,0.0,0.0,0.0
0.0,0.0,0.0,0.0
0.0,0.0,0.0,0.0
0.0,0.0,0.0,0.0
55.442,-1.907,-0.092,0.0
0.0,0.0,0.0,0.0
0.0,0.0,0.0,0.0
0.0,0.0,0.0,0.0
126.462,-4.502,1.263,2.0
0.0,0.0,0.0,0.0
56.258,-2.039,-0.037,0.0
0.0,0.0,0.0,0.0
0.0,0.0,0.0,0.0
0.0,0.0,0.0,0.0
0.0,0.0,0.0,0.0
0.0,0.0,0.0,0.0
40.145,-1.527,0.014,9.0
0.0,0.0,0.0,0.0
0.0,0.0,0.0,0.0
0.0,0.0,0.0,0.0
0.0,0.0,0.0,0.0
0.0,0.0,0.0,0.0
0.0,0.0,0.0,0.0
0.0,0.0,0.0,0.0
0.0,0.0,0.0,0.0
0.0,0.0,0.0,0.0
0.0,0.0,0.0,0.0
0.0,0.0,0.0,0.0
0.0,0.0,0.0,0.0
0.0,0.0,0.0,0.0
0.0,0.0,0.0,0.0
0.0,0.0,0.0,0.0
0.0,0.0,0.0,0.0
0.0,0.0,0.0,0.0
0.0,0.0,0.0,0.0
0.0,0.0,0.0,0.0
0.0,0.0,0.0,0.0
0.0,0.0,0.0,0.0
0.0,0.0,0.0,0.0
0.0,0.0,0.0,0.0
0.0,0.0,0.0,0.0
0.0,0.0,0.0,0.0
0.0,0.0,0.0,0.0
0.0,0.0,0.0,0.0
161.036,-7.413,2.658,53.0
0.0,0.0,0.0,0.0
0.0,0.0,0.0,0.0
0.0,0.0,0.0,0.0
0.0,0.0,0.0,0.0
0.0,0.0,0.0,0.0
161.124,-7.681,2.85,60.0
161.249,-7.733,1.998,11.0
0.0,0.0,0.0,0.0
0.0,0.0,0.0,0.0
0.0,0.0,0.0,0.0
0.0,0.0,0.0,0.0
0.0,0.0,0.0,0.0
0.0,0.0,0.0,0.0
0.0,0.0,0.0,0.0
0.0,0.0,0.0,0.0
0.0,0.0,0.0,0.0
0.0,0.0,0.0,0.0
0.0,0.0,0.0,0.0
0.0,0.0,0.0,0.0
0.0,0.0,0.0,0.0
0.0,0.0,0.0,0.0
0.0,0.0,0.0,0.0
0.0,0.0,0.0,0.0
228.012,-12.354,3.958,21.0
0.0,0.0,0.0,0.0
211.835,-11.57,8.444,6.0
0.0,0.0,0.0,0.0
0.0,0.0,0.0,0.0
0.0,0.0,0.0,0.0
0.0,0.0,0.0,0.0
0.0,0.0,0.0,0.0
0.0,0.0,0.0,0.0
244.49,-13.775,8.777,25.0
278.754,-15.776,8.535,29.0
0.0,0.0,0.0,0.0
0.0,0.0,0.0,0.0
0.0,0.0,0.0,0.0
226.961,-13.054,9.645,6.0
0.0,0.0,0.0,0.0
271.867,-15.769,8.683,12.0
271.698,-15.826,7.223,151.0
279.082,-16.327,5.951,10.0
200.768,-11.795,3.224,6.0
0.0,0.0,0.0,0.0
212.02,-12.541,8.178,19.0
212.568,-12.624,7.077,7.0
272.028,-16.217,7.596,69.0
271.986,-16.282,6.165,45.0
0.0,0.0,0.0,0.0
0.0,0.0,0.0,0.0
212.967,-12.883,8.503,9.0
228.263,-13.861,7.91,31.0
263.449,-16.06,7.717,10.0
263.465,-16.122,6.333,28.0
0.0,0.0,0.0,0.0
0.0,0.0,0.0,0.0
0.0,0.0,0.0,0.0
212.898,-13.207,7.674,21.0
208.908,-13.008,6.411,19.0
248.31,-15.519,6.315,143.0
265.29,-16.638,5.352,15.0
150.019,-9.434,7.198,12.0
222.098,-14.015,9.488,12.0
208.745,-13.216,7.818,20.0
212.268,-13.486,6.813,17.0
248.361,-15.834,6.665,255.0
0.0,0.0,0.0,0.0
149.276,-9.573,7.373,3.0
203.57,-13.098,8.984,8.0
205.466,-13.263,7.986,11.0
208.342,-13.494,6.982,28.0
248.319,-16.134,7.019,43.0
244.544,-15.941,5.627,48.0
0.0,0.0,0.0,0.0
0.0,0.0,0.0,0.0
204.032,-13.416,8.225,28.0
208.345,-13.742,7.282,24.0
208.838,-13.818,6.203,41.0
237.148,-15.739,5.801,65.0
148.255,-9.863,7.751,5.0
155.314,-10.363,7.303,4.0
194.502,-13.017,8.123,6.0
204.623,-13.732,7.449,40.0
208.454,-14.03,6.493,24.0
228.449,-15.421,5.916,43.0
148.739,-10.064,7.992,3.0
156.41,-10.612,7.582,5.0
197.721,-13.452,8.545,12.0
203.597,-13.891,7.71,30.0
204.823,-14.011,6.68,40.0
212.715,-14.593,5.823,58.0
150.77,-10.368,8.323,4.0
148.794,-10.259,7.432,4.0
156.048,-10.785,6.973,4.0
195.424,-13.542,7.687,24.0
203.966,-14.172,6.953,32.0
208.407,-14.519,6.012,21.0
156.534,-10.929,8.874,5.0
148.649,-10.404,7.644,8.0
156.53,-10.982,7.227,6.0
194.952,-13.71,7.958,16.0
195.93,-13.813,6.971,25.0
204.766,-14.472,6.21,45.0
157.688,-11.172,9.175,9.0
157.983,-11.216,8.36,6.0
158.34,-11.267,7.547,6.0
164.441,-11.729,6.958,36.0
195.068,-13.943,7.23,21.0
204.905,-14.681,6.518,13.0
150.409,-10.802,8.976,10.0
156.52,-11.262,8.516,5.0
158.435,-11.425,7.788,12.0
156.374,-11.301,6.849,12.0
164.49,-11.913,6.341,25.0
195.439,-14.184,6.511,29.0
0.0,0.0,0.0,0.0
148.638,-10.834,8.312,4.0
157.646,-11.512,7.987,6.0
156.575,-11.457,7.094,4.0
197.474,-14.479,7.911,33.0
197.063,-14.479,6.863,13.0
147.084,-10.831,9.223,3.0
148.413,-10.948,8.524,5.0
146.316,-10.814,7.635,3.0
157.985,-11.698,7.397,16.0
194.762,-14.447,8.098,21.0
164.548,-12.23,5.981,22.0
162.093,-12.075,10.41,7.0
197.111,-14.706,11.622,6.0
149.813,-11.196,8.044,11.0
158.039,-11.832,7.64,16.0
194.711,-14.601,8.39,15.0
164.005,-12.32,6.206,27.0
155.381,-11.7,10.214,12.0
107.657,-8.119,6.51,2.0
157.74,-11.913,8.709,11.0
149.046,-11.274,7.431,4.0
157.969,-11.969,7.047,16.0
165.565,-12.565,6.516,35.0
117.463,-8.934,7.902,6.0
149.385,-11.378,9.261,12.0
155.586,-11.866,8.826,10.0
148.666,-11.355,7.638,9.0
165.488,-12.659,7.632,8.0
158.035,-12.107,6.459,14.0
108.789,-8.353,7.484,8.0
106.578,-8.193,6.771,3.0
165.207,-12.717,9.625,14.0
165.312,-12.743,8.745,16.0
162.607,-12.55,7.747,13.0
156.615,-12.104,6.64,22.0
108.843,-8.432,7.655,10.0
117.333,-9.1,7.634,3.0
158.77,-12.327,9.493,11.0
148.141,-11.515,8.062,6.0
149.762,-11.656,7.364,14.0
156.442,-12.189,6.872,18.0
98.479,-7.691,7.077,9.0
105.767,-8.269,7.044,3.0
117.837,-9.222,7.227,5.0
149.525,-11.713,8.368,11.0
163.336,-12.81,8.283,12.0
163.172,-12.811,7.414,10.0
114.619,-9.019,8.412,2.0
108.801,-8.569,7.411,7.0
115.464,-9.103,7.256,5.0
163.129,-12.873,9.376,12.0
149.579,-11.814,7.81,17.0
149.619,-11.829,7.027,24.0
100.622,-7.974,7.538,7.0
108.69,-8.619,7.569,9.0
116.186,-9.221,7.477,3.0
0.0,0.0,0.0,0.0
148.407,-11.798,7.974,10.0
149.748,-11.914,7.26,17.0
108.04,-8.616,8.259,6.0
97.857,-7.809,6.964,6.0
116.11,-9.271,7.65,2.0
148.448,-11.862,8.983,5.0
109.135,-8.727,6.03,3.0
158.54,-12.688,7.927,13.0
107.999,-8.664,8.422,7.0
100.433,-8.06,7.3,4.0
108.745,-8.732,7.331,5.0
115.283,-9.263,7.152,3.0
150.878,-12.13,8.566,5.0
166.783,-13.418,8.592,4.0
107.865,-8.698,8.575,14.0
107.99,-8.711,8.014,3.0
108.862,-8.786,7.504,13.0
108.407,-8.753,6.89,2.0
108.463,-8.761,6.322,6.0
150.811,-12.189,7.996,9.0
105.946,-8.583,8.584,8.0
108.031,-8.755,8.181,11.0
97.729,-7.922,6.884,3.0
105.73,-8.573,6.879,4.0
108.422,-8.795,6.482,10.0
150.879,-12.245,8.225,23.0
107.15,-8.716,8.844,5.0
98.478,-8.012,7.605,14.0
96.715,-7.87,6.957,4.0
98.778,-8.039,6.574,6.0
108.438,-8.828,6.644,4.0
106.424,-8.667,5.959,5.0
97.048,-7.923,8.154,3.0
105.89,-8.644,8.336,5.0
96.62,-7.888,7.095,5.0
108.784,-8.883,7.402,8.0
106.478,-8.696,6.683,3.0
108.518,-8.864,6.239,7.0
98.335,-8.051,8.41,5.0
106.286,-8.702,8.526,10.0
107.947,-8.838,8.086,6.0
100.755,-8.249,7.004,3.0
115.85,-9.485,7.441,3.0
108.595,-8.892,6.4,7.0
105.447,-8.655,9.172,12.0
107.03,-8.784,8.74,6.0
98.143,-8.053,7.493,10.0
96.789,-7.941,6.868,5.0
98.943,-8.117,6.497,6.0
115.263,-9.455,6.959,3.0
106.093,-8.724,9.382,1.0
84.659,-6.96,7.036,9.0
105.929,-8.706,8.241,6.0
85.097,-6.993,6.16,4.0
108.731,-8.933,7.294,8.0
115.577,-9.494,7.143,3.0
105.525,-8.69,9.484,1.0
96.712,-7.961,8.177,5.0
86.171,-7.09,6.827,2.0
85.095,-7.0,6.281,6.0
100.793,-8.289,6.906,5.0
121.556,-9.994,7.687,6.0
106.467,-8.775,9.722,2.0
105.468,-8.688,9.068,9.0
106.991,-8.81,8.63,5.0
98.159,-8.079,7.386,10.0
97.5,-8.022,6.818,7.0
105.891,-8.709,6.844,2.0
106.12,-8.749,9.84,6.0
96.504,-7.952,8.433,2.0
84.664,-6.972,6.948,11.0
106.25,-8.746,8.144,5.0
96.774,-7.961,6.903,5.0
98.93,-8.135,6.531,8.0
106.474,-8.778,10.022,2.0
98.027,-8.075,8.704,1.0
84.673,-6.971,7.066,9.0
99.907,-8.219,7.796,4.0
85.107,-6.998,6.188,4.0
108.731,-8.935,7.329,8.0
106.599,-8.782,10.183,4.0
106.183,-8.741,9.574,2.0
96.655,-7.95,8.2,4.0
105.81,-8.697,8.401,7.0
98.058,-8.054,7.263,6.0
100.812,-8.274,6.931,4.0
99.609,-8.196,9.651,1.0
106.444,-8.751,9.744,2.0
98.302,-8.075,8.472,4.0
96.762,-7.941,7.814,2.0
98.119,-8.046,7.401,13.0
117.573,-9.634,8.241,3.0
0.0,0.0,0.0,0.0
106.492,-8.738,9.892,2.0
105.397,-8.64,9.226,13.0
96.985,-7.944,7.961,3.0
98.132,-8.03,7.532,12.0
96.689,-7.906,6.906,4.0
0.0,0.0,0.0,0.0
106.884,-8.752,10.069,1.0
105.397,-8.62,9.365,11.0
109.531,-8.949,9.134,4.0
98.66,-8.053,7.7,3.0
96.606,-7.878,7.024,7.0
100.264,-8.196,10.114,1.0
106.672,-8.71,10.188,1.0
105.364,-8.593,9.498,13.0
98.111,-7.992,8.308,2.0
105.952,-8.622,8.404,7.0
108.053,-8.783,7.994,7.0
100.065,-8.154,10.223,2.0
106.673,-8.681,10.324,2.0
105.339,-8.563,9.628,15.0
108.603,-8.816,9.332,5.0
107.773,-8.739,8.684,13.0
96.539,-7.819,7.263,3.0
0.0,0.0,0.0,0.0
99.432,-8.062,9.747,1.0
105.286,-8.525,9.754,7.0
98.251,-7.945,8.565,5.0
107.078,-8.646,8.761,16.0
108.006,-8.711,8.258,13.0
0.0,0.0,0.0,0.0
0.0,0.0,0.0,0.0
105.208,-8.48,9.878,3.0
98.35,-7.917,8.694,6.0
106.982,-8.6,8.882,15.0
107.997,-8.67,8.387,8.0
0.0,0.0,0.0,0.0
0.0,0.0,0.0,0.0
105.245,-8.443,10.006,1.0
98.439,-7.885,8.818,3.0
107.351,-8.586,9.039,7.0
98.345,-7.854,7.752,13.0
0.0,0.0,0.0,0.0
0.0,0.0,0.0,0.0
107.609,-8.586,10.357,2.0
107.543,-8.567,9.759,7.0
0.0,0.0,0.0,0.0
98.211,-7.799,7.855,11.0
0.0,0.0,0.0,0.0
0.0,0.0,0.0,0.0
0.0,0.0,0.0,0.0
105.247,-8.335,9.67,2.0
107.186,-8.475,9.269,2.0
108.293,-8.547,8.782,7.0
0.0,0.0,0.0,0.0
0.0,0.0,0.0,0.0
0.0,0.0,0.0,0.0
0.0,0.0,0.0,0.0
98.582,-7.743,8.633,3.0
106.202,-8.327,8.728,9.0
0.0,0.0,0.0,0.0
0.0,0.0,0.0,0.0
0.0,0.0,0.0,0.0
0.0,0.0,0.0,0.0
0.0,0.0,0.0,0.0
106.0,-8.252,8.824,6.0
0.0,0.0,0.0,0.0
0.0,0.0,0.0,0.0
0.0,0.0,0.0,0.0
0.0,0.0,0.0,0.0
0.0,0.0,0.0,0.0
108.728,-8.401,9.163,2.0
0.0,0.0,0.0,0.0
0.0,0.0,0.0,0.0
0.0,0.0,0.0,0.0
0.0,0.0,0.0,0.0
106.159,-8.152,9.628,2.0
0.0,0.0,0.0,0.0
0.0,0.0,0.0,0.0
0.0,0.0,0.0,0.0
0.0,0.0,0.0,0.0
0.0,0.0,0.0,0.0
0.0,0.0,0.0,0.0
108.463,-8.24,9.356,1.0
0.0,0.0,0.0,0.0
0.0,0.0,0.0,0.0
0.0,0.0,0.0,0.0
0.0,0.0,0.0,0.0
0.0,0.0,0.0,0.0
0.0,0.0,0.0,0.0
0.0,0.0,0.0,0.0
0.0,0.0,0.0,0.0
0.0,0.0,0.0,0.0
0.0,0.0,0.0,0.0
0.0,0.0,0.0,0.0
108.543,-8.092,9.562,1.0
0.0,0.0,0.0,0.0
0.0,0.0,0.0,0.0
0.0,0.0,0.0,0.0
0.0,0.0,0.0,0.0
0.0,0.0,0.0,0.0
108.504,-8.007,9.653,1.0
0.0,0.0,0.0,0.0
0.0,0.0,0.0,0.0
0.0,0.0,0.0,0.0
0.0,0.0,0.0,0.0
0.0,0.0,0.0,0.0
0.0,0.0,0.0,0.0
0.0,0.0,0.0,0.0
0.0,0.0,0.0,0.0
0.0,0.0,0.0,0.0
0.0,0.0,0.0,0.0
0.0,0.0,0.0,0.0
0.0,0.0,0.0,0.0
0.0,0.0,0.0,0.0
0.0,0.0,0.0,0.0
0.0,0.0,0.0,0.0
0.0,0.0,0.0,0.0
0.0,0.0,0.0,0.0
0.0,0.0,0.0,0.0
0.0,0.0,0.0,0.0
0.0,0.0,0.0,0.0
0.0,0.0,0.0,0.0
0.0,0.0,0.0,0.0
0.0,0.0,0.0,0.0
0.0,0.0,0.0,0.0
0.0,0.0,0.0,0.0
0.0,0.0,0.0,0.0
0.0,0.0,0.0,0.0
0.0,0.0,0.0,0.0
0.0,0.0,0.0,0.0
0.0,0.0,0.0,0.0
0.0,0.0,0.0,0.0
0.0,0.0,0.0,0.0
0.0,0.0,0.0,0.0
0.0,0.0,0.0,0.0
0.0,0.0,0.0,0.0
0.0,0.0,0.0,0.0
49.26,-3.386,6.0,1.0
0.0,0.0,0.0,0.0
0.0,0.0,0.0,0.0
0.0,0.0,0.0,0.0
0.0,0.0,0.0,0.0
0.0,0.0,0.0,0.0
48.957,-3.318,5.993,4.0
0.0,0.0,0.0,0.0
0.0,0.0,0.0,0.0
0.0,0.0,0.0,0.0
0.0,0.0,0.0,0.0
0.0,0.0,0.0,0.0
48.674,-3.251,5.987,7.0
0.0,0.0,0.0,0.0
0.0,0.0,0.0,0.0
0.0,0.0,0.0,0.0
0.0,0.0,0.0,0.0
0.0,0.0,0.0,0.0
48.181,-3.169,5.952,9.0
0.0,0.0,0.0,0.0
0.0,0.0,0.0,0.0
0.0,0.0,0.0,0.0
0.0,0.0,0.0,0.0
0.0,0.0,0.0,0.0
48.486,-3.139,6.014,23.0
49.171,-3.172,5.824,0.0
49.267,-3.167,5.561,1.0
0.0,0.0,0.0,0.0
0.0,0.0,0.0,0.0
0.0,0.0,0.0,0.0
0.0,0.0,0.0,0.0
49.185,-3.121,5.847,4.0
49.263,-3.114,5.582,2.0
0.0,0.0,0.0,0.0
0.0,0.0,0.0,0.0
0.0,0.0,0.0,0.0
49.318,-3.087,6.159,0.0
49.116,-3.064,5.859,5.0
49.27,-3.062,5.602,2.0
0.0,0.0,0.0,0.0
0.0,0.0,0.0,0.0
0.0,0.0,0.0,0.0
48.151,-2.962,6.031,3.0
48.761,-2.988,5.834,23.0
0.0,0.0,0.0,0.0
0.0,0.0,0.0,0.0
0.0,0.0,0.0,0.0
0.0,0.0,0.0,0.0
49.166,-2.97,6.174,3.0
48.668,-2.928,5.838,23.0
0.0,0.0,0.0,0.0
0.0,0.0,0.0,0.0
0.0,0.0,0.0,0.0
0.0,0.0,0.0,0.0
51.172,-3.034,6.44,3.0
48.251,-2.848,5.801,9.0
48.22,-2.835,5.527,0.0
49.352,-2.89,5.375,0.0
0.0,0.0,0.0,0.0
0.0,0.0,0.0,0.0
0.0,0.0,0.0,0.0
49.868,-2.886,6.007,5.0
50.338,-2.901,5.78,1.0
49.363,-2.833,5.386,2.0
0.0,0.0,0.0,0.0
0.0,0.0,0.0,0.0
0.0,0.0,0.0,0.0
47.724,-2.707,5.758,3.0
50.38,-2.845,5.794,3.0
49.344,-2.775,5.393,5.0
56.474,-3.163,5.855,1.0
0.0,0.0,0.0,0.0
0.0,0.0,0.0,0.0
47.715,-2.65,5.763,4.0
48.253,-2.668,5.556,4.0
49.398,-2.719,5.405,4.0
0.0,0.0,0.0,0.0
56.561,-3.087,5.554,0.0
51.045,-2.786,6.459,4.0
50.914,-2.767,6.154,4.0
48.3,-2.612,5.566,8.0
49.478,-2.665,5.417,3.0
0.0,0.0,0.0,0.0
56.587,-3.021,5.56,5.0
49.059,-2.619,6.211,0.0
50.952,-2.707,6.162,11.0
48.32,-2.556,5.57,17.0
56.99,-3.001,6.242,5.0
92.645,-4.857,9.625,3.0
92.794,-4.843,9.119,1.0
46.458,-2.423,5.882,0.0
48.951,-2.541,5.92,6.0
48.516,-2.507,5.592,17.0
50.182,-2.581,5.496,0.0
55.234,-2.828,5.737,4.0
63.703,-3.246,6.258,3.0
46.47,-2.366,5.882,3.0
48.941,-2.48,5.917,3.0
48.692,-2.456,5.611,17.0
54.827,-2.752,6.001,5.0
63.576,-3.176,6.6,2.0
92.684,-4.609,9.1,11.0
46.562,-2.313,5.89,3.0
48.941,-2.42,5.913,4.0
48.742,-2.398,5.612,9.0
56.6,-2.771,6.19,3.0
57.787,-2.815,5.993,6.0
54.971,-2.665,5.39,1.0
48.715,-2.36,6.157,6.0
48.926,-2.358,5.904,5.0
50.865,-2.439,5.849,5.0
56.592,-2.701,6.181,11.0
55.038,-2.614,5.699,7.0
54.94,-2.596,5.378,3.0
48.466,-2.287,6.117,9.0
48.928,-2.296,5.896,4.0
48.8,-2.279,5.603,9.0
40.531,-1.883,4.419,25.0
57.321,-2.649,5.924,2.0
57.974,-2.667,5.664,3.0
48.527,-2.229,6.114,17.0
45.993,-2.101,5.532,2.0
48.755,-2.215,5.586,10.0
40.507,-1.831,4.406,40.0
57.255,-2.575,5.904,14.0
55.017,-2.461,5.361,11.0
48.494,-2.166,6.097,23.0
46.069,-2.046,5.529,5.0
53.091,-2.346,6.069,5.0
49.62,-2.181,5.384,7.0
56.644,-2.477,5.824,11.0
55.029,-2.393,5.346,14.0
48.373,-2.099,6.067,28.0
40.447,-1.745,4.841,30.0
40.52,-1.739,4.619,35.0
40.457,-1.727,4.376,58.0
56.673,-2.406,5.808,4.0
57.426,-2.425,5.559,14.0
49.301,-2.077,6.167,7.0
40.461,-1.695,4.829,56.0
40.524,-1.688,4.604,57.0
40.387,-1.673,4.354,69.0
53.354,-2.198,5.448,3.0
57.346,-2.349,5.529,10.0
57.05,-2.33,7.113,6.0
40.587,-1.648,4.827,28.0
40.284,-1.627,4.56,65.0
40.342,-1.619,4.332,60.0
53.339,-2.129,5.424,9.0
55.232,-2.193,5.301,12.0
40.314,-1.595,5.008,47.0
40.41,-1.589,4.788,67.0
40.206,-1.572,4.533,66.0
40.328,-1.568,4.312,57.0
40.465,-1.564,4.095,28.0
63.564,-2.442,6.071,15.0
40.351,-1.545,4.993,57.0
40.531,-1.543,4.782,56.0
40.481,-1.531,4.543,48.0
40.281,-1.514,4.286,47.0
52.627,-1.967,5.299,6.0
63.147,-2.347,5.998,14.0
40.334,-1.492,4.969,61.0
40.357,-1.484,4.74,46.0
40.354,-1.475,4.507,57.0
40.184,-1.46,4.253,54.0
40.525,-1.463,4.058,17.0
53.202,-1.909,5.023,4.0
40.324,-1.441,4.944,69.0
40.446,-1.436,4.726,53.0
43.032,-1.518,4.781,2.0
40.1,-1.406,4.22,52.0
40.392,-1.407,4.019,12.0
53.429,-1.85,5.012,14.0
40.48,-1.395,4.938,36.0
40.486,-1.387,4.705,41.0
39.984,-1.361,4.417,59.0
40.042,-1.354,4.189,56.0
40.803,-1.371,4.034,24.0
40.728,-1.359,3.794,35.0
40.511,-1.345,4.915,67.0
40.149,-1.325,4.639,52.0
39.935,-1.309,4.384,53.0
39.933,-1.3,4.15,69.0
40.573,-1.313,3.984,37.0
40.75,-1.31,3.767,43.0
40.485,-1.294,4.883,52.0
39.926,-1.268,4.584,57.0
39.858,-1.257,4.347,55.0
39.865,-1.249,4.114,53.0
40.481,-1.259,3.945,40.0
40.688,-1.258,3.732,55.0
40.535,-1.245,4.858,49.0
39.709,-1.211,4.529,57.0
39.528,-1.197,4.28,66.0
39.462,-1.187,4.042,51.0
40.078,-1.198,3.874,55.0
40.77,-1.21,3.707,37.0
40.118,-1.183,4.776,60.0
39.404,-1.153,4.462,68.0
39.294,-1.142,4.223,65.0
39.611,-1.143,4.025,40.0
39.873,-1.142,3.821,56.0
41.064,-1.168,3.7,46.0
39.387,-1.113,4.656,65.0
39.405,-1.105,4.429,53.0
39.539,-1.101,4.216,52.0
39.558,-1.093,3.985,64.0
40.562,-1.113,3.852,45.0
40.833,-1.112,3.643,43.0
39.251,-1.061,4.605,69.0
39.343,-1.055,4.387,61.0
39.488,-1.051,4.174,57.0
39.899,-1.054,3.983,56.0
40.598,-1.065,3.819,54.0
40.76,-1.061,3.599,41.0
39.176,-1.011,4.559,62.0
39.365,-1.009,4.353,53.0
39.293,-0.999,4.117,61.0
39.844,-1.005,3.94,54.0
40.619,-1.016,3.782,48.0
64.176,-1.594,5.606,10.0
39.156,-0.964,4.518,69.0
39.356,-0.961,4.313,67.0
39.188,-0.949,4.067,64.0
39.994,-0.961,3.915,60.0
49.072,-1.17,4.521,24.0
64.172,-1.519,5.542,11.0
39.759,-0.932,4.547,56.0
39.088,-0.908,4.244,61.0
39.436,-0.909,4.052,55.0
39.29,-0.898,3.806,64.0
49.068,-1.113,4.469,42.0
54.247,-1.221,4.628,71.0
39.539,-0.881,4.481,58.0
39.079,-0.863,4.201,58.0
39.749,-0.87,4.042,49.0
39.433,-0.856,3.777,61.0
40.162,-0.864,3.615,62.0
63.745,-1.361,5.37,11.0
39.113,-0.825,4.389,68.0
39.42,-0.825,4.194,51.0
39.583,-0.821,3.981,48.0
39.524,-0.813,3.742,65.0
40.291,-0.821,3.581,44.0
40.823,-0.824,3.392,28.0
39.112,-0.78,4.344,63.0
39.304,-0.777,4.137,48.0
39.353,-0.771,3.913,60.0
39.817,-0.773,3.723,60.0
49.126,-0.945,4.309,6.0
40.763,-0.777,3.34,43.0
38.971,-0.734,4.282,67.0
39.234,-0.732,4.082,76.0
39.522,-0.73,3.882,66.0
40.131,-0.734,3.705,53.0
49.102,-0.891,4.248,72.0
40.692,-0.731,3.285,52.0
39.328,-0.697,4.273,45.0
39.298,-0.689,4.04,47.0
40.414,-0.702,3.92,38.0
40.312,-0.693,3.672,59.0
49.088,-0.837,4.186,11.0
54.291,-0.917,4.315,19.0
39.675,-0.66,4.261,50.0
39.472,-0.65,4.009,49.0
40.795,-0.665,3.906,40.0
40.463,-0.653,3.634,54.0
41.017,-0.655,3.446,42.0
54.291,-0.859,4.246,14.0
39.546,-0.615,4.196,53.0
39.413,-0.607,3.952,56.0
39.676,-0.605,3.746,37.0
56.673,-0.855,5.016,9.0
40.711,-0.608,3.367,61.0
41.157,-0.608,3.165,51.0
39.262,-0.569,4.113,55.0
40.042,-0.575,3.961,68.0
47.728,-0.678,4.443,11.0
49.733,-0.699,4.335,19.0
40.897,-0.568,3.327,62.0
41.165,-0.566,3.11,49.0
39.353,-0.531,4.069,64.0
39.566,-0.527,3.859,43.0
47.786,-0.63,4.382,5.0
40.476,-0.527,3.472,60.0
41.065,-0.529,3.283,63.0
77.899,-0.992,5.777,12.0
39.562,-0.493,4.034,55.0
39.657,-0.488,3.811,41.0
47.857,-0.583,4.32,8.0
40.834,-0.491,3.444,52.0
40.922,-0.487,3.214,58.0
62.641,-0.736,4.556,82.0
39.246,-0.451,3.945,71.0
42.777,-0.485,4.049,3.0
47.886,-0.536,4.253,26.0
40.659,-0.45,3.37,42.0
41.421,-0.453,3.193,64.0
62.673,-0.676,4.466,62.0
39.49,-0.416,3.911,59.0
40.664,-0.422,3.789,31.0
47.892,-0.491,4.183,13.0
0.0,0.0,0.0,0.0
41.447,-0.414,3.133,58.0
62.714,-0.618,4.375,52.0
39.666,-0.38,3.868,58.0
39.949,-0.377,3.662,72.0
40.573,-0.378,3.482,68.0
0.0,0.0,0.0,0.0
75.573,-0.686,5.596,17.0
76.832,-0.688,5.244,17.0
39.541,-0.343,3.794,73.0
40.049,-0.343,3.609,35.0
40.089,-0.338,3.378,62.0
41.394,-0.344,3.242,56.0
75.624,-0.619,5.484,57.0
76.901,-0.621,5.129,14.0
42.555,-0.332,4.018,5.0
40.011,-0.308,3.543,45.0
40.065,-0.303,3.313,65.0
41.331,-0.308,3.173,67.0
49.079,-0.36,3.481,11.0
63.633,-0.459,4.143,37.0
42.7,-0.297,3.962,2.0
39.928,-0.273,3.471,47.0
40.188,-0.27,3.259,58.0
47.849,-0.316,3.595,15.0
62.684,-0.407,4.344,10.0
63.545,-0.405,4.034,30.0
0.0,0.0,0.0,0.0
39.893,-0.24,3.402,49.0
40.65,-0.239,3.229,68.0
48.316,-0.28,3.551,89.0
62.735,-0.356,4.244,62.0
63.591,-0.354,3.931,15.0
39.851,-0.212,3.565,41.0
40.406,-0.21,3.378,64.0
49.061,-0.25,3.814,32.0
48.556,-0.243,3.486,57.0
62.91,-0.307,4.149,78.0
89.368,-0.428,5.374,33.0
39.821,-0.181,3.494,36.0
40.756,-0.181,3.337,44.0
47.812,-0.207,3.635,4.0
48.909,-0.207,3.427,62.0
62.948,-0.26,4.043,64.0
59.406,-0.24,3.47,99.0
40.375,-0.153,3.473,22.0
41.688,-0.154,3.341,32.0
47.755,-0.172,3.547,45.0
48.871,-0.171,3.34,52.0
77.786,-0.265,4.861,17.0
59.41,-0.197,3.366,103.0
39.837,-0.122,3.356,68.0
47.85,-0.143,3.75,32.0
47.789,-0.138,3.465,88.0
85.963,-0.242,5.722,24.0
77.751,-0.212,4.722,27.0
59.418,-0.157,3.262,110.0
39.92,-0.096,3.291,58.0
47.813,-0.11,3.662,11.0
47.948,-0.107,3.391,64.0
63.16,-0.135,4.092,39.0
59.395,-0.123,3.501,83.0
59.425,-0.118,3.156,102.0
39.912,-0.07,3.218,65.0
47.78,-0.08,3.573,101.0
48.395,-0.077,3.335,48.0
63.12,-0.096,3.975,38.0
59.403,-0.085,3.394,112.0
59.428,-0.081,3.048,106.0
47.825,-0.054,3.769,54.0
47.819,-0.051,3.488,101.0
48.333,-0.047,3.242,29.0
63.045,-0.057,3.854,63.0
59.415,-0.05,3.285,109.0
59.433,-0.045,2.938,100.0
47.818,-0.026,3.679,63.0
47.879,-0.022,3.403,94.0
63.78,-0.026,4.159,32.0
59.386,-0.02,3.519,78.0
59.408,-0.016,3.174,115.0
59.436,-0.012,2.828,105.0
47.838,0.0,3.59,51.0
47.959,0.003,3.318,66.0
63.713,0.008,4.034,49.0
59.405,0.011,3.408,64.0
59.425,0.015,3.061,107.0
59.438,0.019,2.715,99.0
47.893,0.025,3.503,59.0
48.124,0.028,3.237,62.0
75.719,0.048,4.649,38.0
85.021,0.059,4.714,21.0
91.633,0.069,4.546,45.0
85.907,0.069,3.759,24.0
47.946,0.048,3.414,79.0
48.211,0.051,3.15,63.0
75.747,0.085,4.506,15.0
77.365,0.09,4.141,101.0
99.325,0.121,4.736,24.0
79.413,0.101,3.322,12.0
48.003,0.07,3.325,88.0
48.248,0.073,3.058,55.0
63.153,0.098,3.633,34.0
77.349,0.124,3.988,63.0
81.531,0.135,3.728,134.0
79.413,0.134,3.167,150.0
48.096,0.09,3.236,79.0
48.271,0.092,2.965,45.0
48.293,0.095,2.683,3.0
77.315,0.155,3.836,12.0
85.895,0.176,3.759,149.0
79.436,0.166,3.012,151.0
48.152,0.108,3.145,87.0
48.244,0.111,2.867,60.0
62.494,0.146,3.347,24.0
79.226,0.188,3.773,150.0
79.401,0.191,3.316,27.0
79.448,0.194,2.853,151.0
48.192,0.125,3.05,88.0
48.226,0.127,2.769,78.0
62.539,0.167,3.225,13.0
81.559,0.221,3.72,80.0
79.428,0.217,3.158,150.0
79.441,0.219,2.695,151.0
48.2,0.14,2.954,86.0
48.218,0.141,2.673,69.0
62.602,0.186,3.103,9.0
82.848,0.248,3.614,12.0
79.443,0.24,3.001,151.0
79.437,0.242,2.536,150.0
48.193,0.154,2.856,97.0
48.195,0.154,2.574,65.0
48.233,0.156,2.294,37.0
79.417,0.258,3.304,15.0
79.442,0.26,2.84,150.0
79.459,0.262,2.376,150.0
48.187,0.165,2.758,103.0
48.191,0.166,2.476,75.0
48.226,0.167,2.195,46.0
79.399,0.276,3.141,39.0
79.416,0.277,2.677,122.0
79.424,0.278,2.212,150.0
48.183,0.174,2.658,101.0
48.181,0.175,2.376,78.0
48.236,0.176,2.096,51.0
59.295,0.217,2.223,29.0
79.424,0.291,2.514,26.0
79.423,0.292,2.049,46.0
48.167,0.182,2.558,93.0
48.191,0.183,2.277,64.0
48.219,0.183,1.995,49.0
59.289,0.226,2.1,59.0
59.288,0.226,1.753,99.0
79.446,0.303,1.884,18.0
48.172,0.189,2.458,96.0
48.195,0.189,2.176,65.0
48.228,0.189,1.895,53.0
59.276,0.232,1.977,94.0
59.291,0.232,1.63,103.0
59.315,0.232,1.284,88.0
48.185,0.193,2.359,83.0
48.203,0.193,2.076,68.0
48.219,0.193,1.795,66.0
59.276,0.237,1.853,97.0
59.29,0.236,1.506,101.0
79.397,0.316,1.553,12.0
48.181,0.195,2.257,71.0
48.203,0.195,1.976,63.0
59.286,0.239,2.083,21.0
59.282,0.239,1.73,107.0
59.295,0.238,1.382,96.0
79.414,0.318,1.388,38.0
48.192,0.196,2.156,71.0
48.211,0.196,1.874,67.0
59.284,0.24,1.957,65.0
59.287,0.239,1.604,104.0
59.299,0.238,1.257,94.0
79.424,0.317,1.22,40.0
48.215,0.195,2.056,77.0
48.207,0.194,1.773,63.0
59.284,0.238,1.834,100.0
59.287,0.237,1.48,97.0
79.42,0.315,1.518,19.0
79.43,0.314,1.054,47.0
48.226,0.193,1.954,59.0
59.281,0.235,2.054,64.0
59.285,0.234,1.708,99.0
59.296,0.232,1.355,91.0
79.427,0.309,1.35,150.0
79.454,0.307,0.885,13.0
48.231,0.188,1.853,52.0
59.29,0.229,1.93,99.0
59.302,0.227,1.582,96.0
79.42,0.302,1.645,73.0
79.43,0.3,1.181,150.0
77.157,0.288,0.696,33.0
59.301,0.223,2.151,46.0
79.42,0.296,2.414,25.0
79.431,0.293,1.951,70.0
79.438,0.29,1.477,150.0
79.439,0.287,1.013,150.0
0.0,0.0,0.0,0.0
79.428,0.285,2.713,79.0
79.422,0.282,2.248,150.0
79.443,0.279,1.784,150.0
79.451,0.275,1.31,159.0
79.436,0.271,0.844,150.0
59.246,0.2,0.283,12.0
79.451,0.268,2.544,150.0
79.455,0.265,2.078,150.0
79.451,0.261,1.613,151.0
79.463,0.257,1.14,151.0
77.124,0.245,0.654,40.0
54.317,0.17,0.144,28.0
79.442,0.248,2.375,150.0
79.435,0.244,1.91,150.0
79.458,0.24,1.444,166.0
79.461,0.236,0.972,151.0
75.953,0.221,0.485,20.0
0.0,0.0,0.0,0.0
79.439,0.226,2.206,150.0
79.437,0.221,1.741,150.0
79.458,0.217,1.276,167.0
79.454,0.212,0.803,150.0
59.108,0.154,0.251,12.0
44.006,0.112,-0.07,11.0
79.442,0.199,2.036,150.0
79.453,0.195,1.573,151.0
79.454,0.19,1.107,153.0
76.843,0.178,0.613,22.0
0.0,0.0,0.0,0.0
39.424,0.086,-0.146,38.0
79.441,0.171,1.868,150.0
79.449,0.165,1.403,168.0
79.464,0.16,0.938,151.0
75.856,0.147,0.444,11.0
0.0,0.0,0.0,0.0
38.526,0.069,-0.224,14.0
79.454,0.139,1.701,151.0
79.464,0.133,1.236,156.0
79.479,0.127,0.771,150.0
55.312,0.084,0.208,9.0
43.82,0.063,-0.091,4.0
38.095,0.052,-0.301,1.0
79.453,0.105,1.535,151.0
79.467,0.098,1.07,153.0
76.462,0.089,0.583,20.0
48.03,0.052,0.08,8.0
39.285,0.039,-0.164,35.0
33.085,0.03,-0.331,1.0
79.446,0.067,1.367,161.0
79.463,0.06,0.903,151.0
75.888,0.051,0.419,10.0
45.082,0.026,-0.019,22.0
38.46,0.019,-0.24,8.0
30.744,0.012,-0.372,1.0
79.464,0.027,1.203,151.0
79.438,0.019,0.738,150.0
0.0,0.0,0.0,0.0
40.759,0.002,-0.102,17.0
38.125,0.0,-0.318,0.0
29.495,-0.003,-0.418,2.0
79.457,-0.016,1.037,152.0
76.373,-0.023,0.55,21.0
47.88,-0.019,0.065,11.0
39.326,-0.019,-0.18,16.0
32.301,-0.019,-0.336,1.0
28.22,-0.019,-0.458,2.0
79.467,-0.062,0.874,151.0
61.652,-0.054,0.318,11.0
44.744,-0.044,-0.03,22.0
38.527,-0.041,-0.255,4.0
30.432,-0.036,-0.38,1.0
26.881,-0.034,-0.492,2.0
79.391,-0.111,0.71,140.0
0.0,0.0,0.0,0.0
40.715,-0.065,-0.111,17.0
34.21,-0.058,-0.297,0.0
29.283,-0.053,-0.425,2.0
25.824,-0.049,-0.525,2.0
76.326,-0.156,0.527,16.0
47.896,-0.103,0.051,18.0
39.491,-0.089,-0.187,15.0
32.202,-0.076,-0.344,3.0
27.942,-0.069,-0.462,2.0
24.494,-0.063,-0.548,2.0
61.63,-0.169,0.3,22.0
45.72,-0.13,-0.043,10.0
38.852,-0.115,-0.263,2.0
30.196,-0.093,-0.384,2.0
26.743,-0.085,-0.496,1.0
23.569,-0.078,-0.575,2.0
0.0,0.0,0.0,0.0
41.313,-0.148,-0.122,17.0
33.988,-0.125,-0.299,1.0
29.069,-0.111,-0.428,2.0
25.65,-0.101,-0.528,1.0
22.726,-0.092,-0.6,2.0
47.543,-0.2,0.041,21.0
39.365,-0.17,-0.195,6.0
31.744,-0.141,-0.342,1.0
27.792,-0.127,-0.465,2.0
24.426,-0.115,-0.551,1.0
21.81,-0.106,-0.62,3.0
0.0,0.0,0.0,0.0
39.515,-0.203,-0.275,1.0
30.071,-0.158,-0.384,1.0
26.608,-0.143,-0.498,2.0
23.532,-0.13,-0.578,2.0
20.915,-0.118,-0.636,3.0
0.0,0.0,0.0,0.0
33.756,-0.201,-0.301,1.0
29.012,-0.177,-0.428,2.0
25.535,-0.159,-0.528,1.0
22.584,-0.144,-0.599,2.0
20.075,-0.131,-0.649,2.0
42.183,-0.282,-0.213,10.0
31.738,-0.217,-0.345,1.0
27.726,-0.193,-0.463,1.0
24.365,-0.173,-0.552,2.0
21.669,-0.157,-0.617,2.0
19.435,-0.144,-0.667,1.0
40.504,-0.307,-0.283,5.0
30.057,-0.232,-0.385,1.0
26.594,-0.209,-0.496,3.0
23.44,-0.188,-0.576,2.0
20.811,-0.17,-0.633,2.0
18.706,-0.155,-0.678,1.0
33.79,-0.288,-0.301,1.0
29.01,-0.251,-0.427,2.0
25.55,-0.225,-0.525,1.0
22.567,-0.202,-0.598,1.0
20.056,-0.183,-0.648,2.0
18.166,-0.168,-0.693,1.0
31.591,-0.299,-0.341,1.0
27.891,-0.268,-0.463,3.0
24.459,-0.239,-0.548,1.0
21.657,-0.215,-0.614,2.0
19.418,-0.196,-0.664,1.0
17.653,-0.181,-0.706,1.0
30.145,-0.315,-0.381,3.0
26.655,-0.283,-0.492,1.0
23.486,-0.253,-0.571,2.0
20.811,-0.227,-0.629,1.0
18.767,-0.208,-0.676,1.0
17.099,-0.192,-0.716,1.0
29.067,-0.333,-0.421,3.0
25.591,-0.297,-0.52,1.0
22.673,-0.267,-0.592,1.0
20.088,-0.24,-0.644,2.0
18.235,-0.221,-0.691,1.0
16.593,-0.204,-0.725,1.0
27.863,-0.349,-0.455,2.0
24.637,-0.312,-0.545,1.0
21.814,-0.28,-0.609,1.0
19.494,-0.254,-0.66,1.0
17.711,-0.233,-0.703,1.0
16.117,-0.215,-0.733,1.0
26.815,-0.364,-0.485,1.0
23.627,-0.325,-0.565,2.0
20.998,-0.292,-0.624,1.0
18.909,-0.266,-0.674,1.0
17.216,-0.246,-0.714,1.0
15.7,-0.227,-0.742,1.0
25.784,-0.378,-0.512,1.0
22.863,-0.339,-0.587,1.0
20.286,-0.305,-0.639,1.0
18.326,-0.279,-0.686,1.0
16.714,-0.257,-0.723,0.0
15.327,-0.239,-0.752,1.0
24.829,-0.392,-0.536,1.0
22.015,-0.352,-0.604,1.0
19.716,-0.319,-0.655,1.0
17.845,-0.292,-0.698,1.0
16.231,-0.268,-0.729,1.0
14.978,-0.25,-0.76,1.0
23.858,-0.404,-0.556,1.0
21.247,-0.364,-0.618,1.0
19.111,-0.331,-0.667,1.0
17.386,-0.304,-0.71,1.0
15.827,-0.28,-0.738,1.0
14.636,-0.262,-0.768,1.0
23.142,-0.42,-0.578,2.0
20.559,-0.377,-0.633,1.0
18.522,-0.343,-0.678,1.0
16.825,-0.315,-0.715,1.0
15.472,-0.293,-0.748,1.0
14.287,-0.273,-0.773,1.0
22.342,-0.432,-0.595,1.0
19.929,-0.389,-0.646,1.0
18.079,-0.357,-0.691,1.0
16.557,-0.33,-0.731,2.0
15.111,-0.304,-0.755,1.0
13.986,-0.284,-0.78,1.0
21.678,-0.446,-0.613,2.0
19.389,-0.402,-0.66,1.0
17.622,-0.369,-0.702,1.0
16.045,-0.339,-0.734,1.0
14.788,-0.316,-0.763,1.0
13.703,-0.295,-0.786,1.0
20.916,-0.456,-0.624,1.0
18.839,-0.415,-0.671,1.0
17.186,-0.382,-0.712,1.0
15.634,-0.351,-0.74,1.0
14.489,-0.328,-0.77,1.0
13.467,-0.308,-0.794,1.0
20.309,-0.469,-0.638,1.0
18.35,-0.427,-0.683,1.0
16.738,-0.393,-0.72,1.0
15.325,-0.363,-0.749,1.0
14.173,-0.339,-0.775,1.0
13.236,-0.32,-0.801,0.0
19.734,-0.481,-0.65,1.0
17.907,-0.44,-0.693,1.0
16.318,-0.405,-0.726,0.0
15.007,-0.376,-0.757,1.0
13.895,-0.351,-0.781,1.0
12.989,-0.331,-0.806,0.0
19.211,-0.494,-0.661,1.0
17.547,-0.455,-0.706,1.0
15.947,-0.417,-0.734,1.0
14.708,-0.388,-0.763,1.0
13.656,-0.363,-0.788,1.0
12.761,-0.342,-0.81,1.0
18.722,-0.506,-0.672,1.0
17.098,-0.466,-0.713,1.0
15.612,-0.429,-0.741,1.0
14.412,-0.4,-0.769,0.0
13.416,-0.375,-0.794,1.0
12.54,-0.353,-0.815,1.0
18.286,-0.52,-0.683,1.0
16.679,-0.478,-0.719,1.0
15.313,-0.442,-0.749,1.0
14.11,-0.411,-0.773,1.0
13.209,-0.388,-0.8,1.0
12.352,-0.365,-0.82,0.0
17.906,-0.533,-0.694,1.0
16.306,-0.49,-0.726,1.0
15.004,-0.454,-0.755,1.0
13.897,-0.424,-0.781,1.0
12.973,-0.399,-0.804,1.0
12.151,-0.376,-0.823,0.0
17.55,-0.548,-0.704,1.0
15.981,-0.502,-0.733,1.0
14.752,-0.467,-0.762,1.0
13.672,-0.436,-0.786,1.0
12.801,-0.412,-0.81,1.0
11.974,-0.388,-0.828,0.0
17.174,-0.56,-0.712,1.0
15.679,-0.515,-0.74,1.0
14.48,-0.479,-0.767,1.0
13.469,-0.449,-0.793,1.0
12.572,-0.422,-0.813,1.0
11.805,-0.399,-0.832,0.0
16.794,-0.572,-0.718,1.0
15.383,-0.528,-0.746,1.0
14.219,-0.491,-0.772,1.0
13.277,-0.462,-0.798,1.0
12.389,-0.434,-0.817,0.0
11.662,-0.411,-0.836,0.0
16.451,-0.584,-0.723,1.0
15.121,-0.541,-0.752,1.0
13.999,-0.504,-0.777,1.0
13.076,-0.474,-0.802,1.0
12.226,-0.446,-0.821,1.0
11.505,-0.423,-0.839,0.0
16.109,-0.596,-0.728,1.0
14.882,-0.554,-0.758,1.0
13.764,-0.516,-0.781,1.0
12.88,-0.486,-0.806,1.0
12.055,-0.458,-0.824,0.0
11.361,-0.434,-0.842,0.0
15.848,-0.609,-0.735,1.0
14.625,-0.566,-0.762,1.0
13.593,-0.53,-0.787,1.0
12.698,-0.498,-0.809,1.0
11.929,-0.471,-0.829,1.0
11.224,-0.446,-0.845,0.0
15.589,-0.623,-0.741,1.0
14.413,-0.579,-0.768,1.0
13.426,-0.543,-0.792,1.0
12.532,-0.51,-0.813,1.0
11.772,-0.482,-0.832,0.0
11.111,-0.458,-0.849,0.0
15.372,-0.637,-0.747,1.0
14.196,-0.592,-0.772,1.0
13.247,-0.556,-0.796,1.0
12.37,-0.522,-0.816,0.0
11.656,-0.495,-0.836,0.0
10.979,-0.47,-0.851,0.0
15.143,-0.65,-0.752,1.0
13.994,-0.605,-0.775,1.0
13.105,-0.57,-0.801,1.0
12.234,-0.535,-0.82,1.0
11.516,-0.507,-0.838,0.0
10.879,-0.482,-0.854,0.0
14.907,-0.663,-0.756,1.0
13.829,-0.619,-0.78,1.0
12.937,-0.582,-0.804,1.0
12.097,-0.548,-0.823,0.0
11.419,-0.52,-0.842,0.0
10.763,-0.493,-0.856,0.0
14.712,-0.677,-0.76,1.0
13.656,-0.632,-0.784,1.0
12.759,-0.594,-0.805,1.0
11.992,-0.561,-0.827,0.0
11.29,-0.532,-0.844,0.0
10.667,-0.505,-0.858,0.0
14.523,-0.69,-0.764,1.0
13.52,-0.646,-0.789,1.0
12.658,-0.608,-0.811,1.0
11.856,-0.573,-0.829,0.0
11.19,-0.544,-0.846,0.0
10.559,-0.516,-0.859,0.0
14.359,-0.705,-0.768,1.0
13.37,-0.66,-0.792,0.0
12.498,-0.62,-0.812,0.0
11.742,-0.586,-0.831,0.0
11.098,-0.557,-0.849,0.0
10.478,-0.529,-0.862,0.0
14.173,-0.717,-0.77,1.0
13.254,-0.675,-0.796,1.0
12.397,-0.634,-0.816,1.0
11.657,-0.6,-0.835,0.0
11.005,-0.569,-0.851,0.0
10.404,-0.541,-0.864,0.0
14.015,-0.731,-0.773,1.0
13.121,-0.688,-0.799,1.0
12.287,-0.648,-0.818,1.0
11.534,-0.612,-0.835,0.0
10.906,-0.581,-0.852,0.0
10.317,-0.553,-0.866,0.0
13.888,-0.747,-0.777,1.0
12.992,-0.702,-0.801,1.0
12.17,-0.661,-0.82,0.0
11.451,-0.625,-0.838,0.0
10.826,-0.594,-0.854,0.0
10.237,-0.565,-0.866,0.0
13.785,-0.763,-0.782,1.0
12.889,-0.717,-0.804,1.0
12.072,-0.675,-0.822,0.0
11.359,-0.638,-0.84,0.0
10.752,-0.607,-0.856,0.0
10.147,-0.576,-0.866,0.0
13.659,-0.777,-0.784,1.0
12.772,-0.73,-0.806,1.0
12.006,-0.69,-0.826,1.0
11.289,-0.652,-0.842,0.0
10.669,-0.619,-0.857,0.0
10.056,-0.587,-0.865,0.0
13.546,-0.792,-0.786,1.0
12.67,-0.744,-0.807,1.0
11.907,-0.703,-0.827,0.0
11.206,-0.665,-0.843,0.0
10.618,-0.633,-0.859,0.0
10.0,-0.599,-0.866,1.0
13.449,-0.807,-0.789,1.0
12.605,-0.76,-0.811,1.0
11.807,-0.716,-0.827,0.0
11.155,-0.679,-0.846,0.0
10.552,-0.646,-0.86,0.0
9.938,-0.611,-0.867,2.0
13.377,-0.824,-0.792,0.0
12.52,-0.775,-0.812,1.0
11.744,-0.73,-0.829,0.0
11.103,-0.694,-0.848,0.0
10.499,-0.659,-0.861,0.0
9.899,-0.624,-0.869,2.0
13.288,-0.839,-0.794,0.0
12.452,-0.79,-0.814,0.0
11.687,-0.745,-0.831,0.0
11.038,-0.707,-0.848,0.0
10.452,-0.672,-0.863,0.0
9.86,-0.637,-0.87,2.0
13.219,-0.855,-0.796,1.0
12.366,-0.804,-0.815,1.0
11.627,-0.759,-0.832,0.0
10.997,-0.721,-0.85,0.0
10.402,-0.685,-0.863,0.0
9.824,-0.65,-0.871,3.0
13.156,-0.872,-0.798,1.0
12.322,-0.82,-0.817,0.0
11.6,-0.775,-0.835,0.0
10.957,-0.736,-0.852,0.0
10.382,-0.7,-0.866,0.0
9.801,-0.664,-0.873,3.0
13.1,-0.888,-0.8,1.0
12.241,-0.833,-0.816,1.0
11.536,-0.789,-0.834,0.0
10.885,-0.748,-0.85,0.0
10.33,-0.713,-0.865,0.0
9.784,-0.678,-0.875,3.0
13.04,-0.904,-0.8,1.0
12.208,-0.85,-0.818,0.0
11.5,-0.804,-0.836,0.0
10.877,-0.764,-0.853,0.0
10.287,-0.725,-0.865,0.0
9.763,-0.691,-0.876,2.0
12.984,-0.92,-0.801,1.0
12.182,-0.867,-0.82,0.0
11.465,-0.819,-0.837,0.0
10.833,-0.777,-0.853,0.0
10.253,-0.739,-0.865,0.0
9.754,-0.706,-0.878,2.0
12.946,-0.937,-0.802,0.0
12.139,-0.882,-0.82,0.0
11.435,-0.834,-0.837,0.0
10.823,-0.793,-0.855,0.0
10.241,-0.753,-0.867,0.0
9.747,-0.72,-0.88,1.0
12.911,-0.954,-0.803,1.0
12.103,-0.898,-0.821,0.0
11.431,-0.851,-0.839,0.0
10.779,-0.806,-0.853,0.0
10.21,-0.767,-0.866,0.0
9.736,-0.734,-0.881,1.0
12.902,-0.973,-0.805,1.0
12.1,-0.916,-0.823,0.0
11.405,-0.866,-0.839,0.0
10.773,-0.822,-0.855,0.0
10.203,-0.781,-0.867,0.0
9.718,-0.747,-0.881,1.0
12.846,-0.987,-0.803,2.0
12.073,-0.931,-0.822,0.0
11.383,-0.882,-0.839,0.0
10.759,-0.836,-0.855,0.0
10.172,-0.794,-0.865,0.0
9.706,-0.76,-0.88,0.0
12.779,-1.001,-0.8,1.0
12.047,-0.947,-0.822,0.0
11.355,-0.896,-0.838,0.0
10.755,-0.852,-0.855,0.0
10.168,-0.808,-0.866,0.0
9.705,-0.774,-0.881,1.0
12.791,-1.021,-0.801,0.0
12.069,-0.966,-0.824,1.0
11.359,-0.913,-0.839,0.0
10.732,-0.866,-0.854,0.0
10.18,-0.824,-0.867,0.0
9.703,-0.788,-0.881,1.0
12.796,-1.039,-0.802,0.0
12.042,-0.982,-0.822,2.0
11.372,-0.93,-0.84,0.0
10.747,-0.882,-0.855,0.0
10.181,-0.839,-0.867,0.0
9.716,-0.803,-0.882,1.0
12.808,-1.059,-0.802,0.0
12.028,-0.998,-0.82,1.0
11.382,-0.947,-0.84,1.0
10.747,-0.898,-0.854,0.0
10.186,-0.854,-0.867,0.0
9.708,-0.817,-0.881,1.0
12.815,-1.077,-0.802,0.0
12.023,-1.014,-0.819,1.0
11.36,-0.962,-0.837,2.0
10.767,-0.914,-0.855,0.0
10.188,-0.868,-0.866,0.0
9.728,-0.832,-0.881,1.0
12.837,-1.097,-0.802,0.0
12.037,-1.032,-0.819,0.0
11.337,-0.975,-0.834,1.0
10.762,-0.929,-0.853,1.0
10.206,-0.884,-0.866,0.0
9.742,-0.847,-0.881,1.0
12.858,-1.117,-0.801,0.0
12.075,-1.052,-0.819,0.0
11.39,-0.995,-0.836,0.0
10.77,-0.944,-0.852,0.0
10.222,-0.899,-0.866,0.0
9.747,-0.86,-0.88,2.0
12.858,-1.134,-0.799,0.0
12.096,-1.07,-0.818,0.0
11.415,-1.013,-0.836,0.0
10.78,-0.96,-0.85,0.0
10.265,-0.917,-0.867,0.0
9.756,-0.874,-0.878,2.0
12.811,-1.147,-0.793,0.0
12.153,-1.091,-0.819,0.0
11.449,-1.031,-0.835,0.0
10.814,-0.977,-0.85,0.0
10.271,-0.931,-0.865,1.0
9.772,-0.888,-0.877,2.0
12.998,-1.181,-0.801,0.0
12.202,-1.111,-0.819,0.0
11.483,-1.049,-0.835,0.0
10.856,-0.995,-0.85,0.0
10.273,-0.944,-0.862,0.0
9.788,-0.902,-0.876,3.0
13.11,-1.207,-0.804,0.0
12.224,-1.129,-0.817,0.0
11.53,-1.068,-0.834,0.0
10.903,-1.013,-0.851,0.0
10.312,-0.961,-0.862,0.0
9.797,-0.916,-0.873,3.0
13.126,-1.226,-0.8,0.0
12.236,-1.146,-0.813,0.0
11.588,-1.088,-0.834,0.0
10.938,-1.03,-0.849,0.0
10.364,-0.979,-0.862,0.0
9.826,-0.931,-0.872,3.0
13.188,-1.248,-0.799,0.0
12.334,-1.17,-0.815,0.0
11.63,-1.106,-0.833,0.0
10.979,-1.047,-0.848,0.0
10.402,-0.995,-0.861,0.0
9.857,-0.945,-0.871,3.0
13.251,-1.269,-0.797,0.0
12.39,-1.19,-0.813,0.0
11.616,-1.119,-0.827,0.0
11.042,-1.066,-0.848,0.0
10.45,-1.012,-0.86,0.0
9.902,-0.961,-0.87,3.0
13.317,-1.291,-0.795,0.0
12.481,-1.214,-0.814,0.0
11.808,-1.151,-0.835,0.0
11.106,-1.085,-0.848,0.0
10.498,-1.029,-0.859,0.0
9.93,-0.975,-0.868,2.0
13.387,-1.314,-0.792,0.0
12.55,-1.234,-0.812,0.0
11.864,-1.17,-0.833,0.0
11.135,-1.101,-0.844,0.0
10.576,-1.048,-0.86,0.0
9.983,-0.992,-0.867,1.0
13.499,-1.34,-0.792,0.0
12.651,-1.258,-0.812,0.0
11.918,-1.188,-0.83,0.0
11.232,-1.123,-0.845,0.0
10.642,-1.066,-0.86,0.0
10.054,-1.01,-0.867,1.0
13.597,-1.364,-0.79,0.0
12.729,-1.28,-0.809,0.0
11.974,-1.207,-0.827,0.0
11.319,-1.143,-0.845,0.0
10.695,-1.083,-0.857,0.0
10.098,-1.025,-0.865,0.0
13.683,-1.387,-0.787,0.0
12.794,-1.3,-0.806,0.0
12.088,-1.231,-0.827,0.0
11.387,-1.162,-0.843,0.0
10.742,-1.099,-0.855,0.0
10.168,-1.043,-0.865,0.0
13.783,-1.411,-0.784,1.0
12.912,-1.325,-0.805,0.0
12.16,-1.251,-0.825,0.0
11.464,-1.182,-0.842,0.0
10.849,-1.121,-0.856,0.0
10.235,-1.06,-0.864,0.0
13.891,-1.436,-0.781,0.0
13.029,-1.35,-0.804,0.0
12.242,-1.271,-0.822,0.0
11.537,-1.2,-0.839,0.0
10.98,-1.145,-0.859,0.0
10.306,-1.077,-0.863,0.0
14.021,-1.463,-0.778,0.0
13.118,-1.372,-0.8,0.0
12.297,-1.288,-0.817,0.0
11.615,-1.219,-0.836,0.0
11.038,-1.161,-0.855,0.0
10.354,-1.092,-0.859,0.0
14.153,-1.49,-0.775,0.0
13.245,-1.397,-0.798,0.0
12.436,-1.314,-0.817,0.0
11.723,-1.241,-0.835,0.0
11.094,-1.177,-0.851,0.0
10.46,-1.112,-0.86,0.0
14.299,-1.518,-0.773,0.0
13.373,-1.423,-0.795,0.0
12.579,-1.341,-0.817,0.0
11.823,-1.262,-0.833,0.0
11.181,-1.196,-0.849,0.0
10.616,-1.138,-0.864,0.0
14.461,-1.548,-0.77,0.0
13.525,-1.45,-0.794,1.0
12.671,-1.361,-0.813,0.0
11.937,-1.285,-0.832,0.0
11.268,-1.215,-0.847,0.0
10.698,-1.156,-0.862,0.0
14.65,-1.58,-0.768,0.0
13.648,-1.475,-0.79,0.0
12.797,-1.385,-0.81,0.0
12.022,-1.303,-0.828,0.0
11.373,-1.235,-0.845,0.0
10.761,-1.171,-0.858,0.0
14.795,-1.607,-0.763,1.0
13.796,-1.501,-0.787,1.0
12.926,-1.409,-0.807,0.0
12.145,-1.326,-0.826,0.0
11.465,-1.254,-0.842,0.0
10.854,-1.189,-0.856,0.0
14.98,-1.639,-0.76,0.0
13.922,-1.525,-0.782,0.0
13.069,-1.434,-0.805,0.0
12.237,-1.345,-0.821,0.0
11.576,-1.274,-0.839,0.0
10.958,-1.208,-0.854,0.0
15.172,-1.671,-0.756,0.0
14.093,-1.554,-0.778,0.0
13.215,-1.459,-0.801,0.0
12.392,-1.37,-0.82,0.0
11.693,-1.295,-0.837,0.0
11.061,-1.227,-0.852,0.0
15.401,-1.706,-0.753,1.0
14.298,-1.586,-0.776,0.0
13.344,-1.482,-0.797,0.0
12.522,-1.393,-0.817,0.0
11.813,-1.316,-0.835,0.0
11.164,-1.245,-0.849,0.0
15.644,-1.743,-0.75,1.0
14.483,-1.616,-0.773,0.0
13.501,-1.508,-0.793,0.0
12.656,-1.416,-0.813,0.0
11.935,-1.337,-0.832,0.0
11.276,-1.265,-0.847,0.0
15.852,-1.775,-0.745,1.0
14.644,-1.642,-0.767,0.0
13.677,-1.535,-0.79,0.0
12.815,-1.44,-0.811,0.0
12.075,-1.359,-0.829,0.0
11.4,-1.285,-0.845,0.0
16.163,-1.819,-0.743,1.0
14.868,-1.675,-0.764,0.0
13.838,-1.561,-0.786,0.0
12.977,-1.465,-0.808,1.0
12.217,-1.381,-0.827,0.0
11.529,-1.305,-0.843,0.0
16.26,-1.838,-0.731,4.0
15.122,-1.711,-0.762,0.0
14.016,-1.588,-0.781,1.0
13.104,-1.486,-0.802,1.0
12.341,-1.401,-0.822,0.0
11.646,-1.324,-0.839,0.0
16.294,-1.85,-0.716,2.0
15.324,-1.741,-0.756,0.0
14.224,-1.618,-0.778,0.0
13.303,-1.515,-0.801,0.0
12.492,-1.424,-0.819,0.0
11.794,-1.346,-0.837,0.0
16.352,-1.863,-0.701,1.0
15.617,-1.781,-0.754,1.0
14.462,-1.651,-0.776,0.0
13.481,-1.54,-0.797,0.0
12.656,-1.447,-0.816,0.0
11.928,-1.365,-0.834,0.0
16.618,-1.9,-0.695,1.0
15.854,-1.814,-0.748,1.0
14.647,-1.677,-0.77,0.0
13.671,-1.567,-0.793,0.0
12.81,-1.469,-0.812,0.0
12.067,-1.385,-0.83,0.0
17.47,-2.003,-0.711,1.0
16.145,-1.853,-0.744,1.0
14.885,-1.709,-0.766,1.0
13.852,-1.592,-0.788,1.0
12.984,-1.493,-0.809,1.0
12.228,-1.407,-0.828,0.0
17.817,-2.048,-0.706,1.0
16.261,-1.871,-0.731,2.0
15.156,-1.745,-0.763,1.0
14.034,-1.616,-0.783,0.0
13.115,-1.512,-0.802,1.0
12.36,-1.426,-0.822,0.0
18.146,-2.091,-0.698,1.0
16.314,-1.881,-0.715,2.0
15.401,-1.776,-0.757,1.0
14.277,-1.648,-0.78,1.0
13.362,-1.543,-0.802,0.0
12.533,-1.448,-0.82,0.0
18.51,-2.137,-0.691,0.0
16.379,-1.891,-0.699,2.0
15.665,-1.81,-0.752,1.0
14.495,-1.676,-0.775,0.0
13.554,-1.567,-0.798,0.0
12.727,-1.473,-0.817,0.0
19.158,-2.214,-0.693,2.0
16.754,-1.937,-0.695,2.0
15.995,-1.85,-0.749,1.0
14.739,-1.706,-0.771,1.0
13.742,-1.591,-0.793,0.0
12.91,-1.495,-0.814,1.0
19.478,-2.254,-0.682,8.0
17.684,-2.047,-0.713,1.0
16.22,-1.878,-0.741,2.0
14.987,-1.736,-0.766,1.0
13.949,-1.616,-0.788,0.0
13.022,-1.509,-0.806,1.0
19.793,-2.291,-0.669,15.0
17.984,-2.083,-0.704,1.0
16.286,-1.886,-0.725,4.0
15.243,-1.766,-0.761,1.0
14.158,-1.641,-0.783,0.0
13.223,-1.533,-0.802,0.0
20.142,-2.332,-0.657,19.0
18.335,-2.124,-0.696,0.0
16.356,-1.894,-0.708,4.0
15.518,-1.798,-0.756,1.0
14.419,-1.671,-0.78,0.0
13.471,-1.561,-0.801,0.0
20.571,-2.382,-0.647,14.0
18.841,-2.182,-0.693,1.0
16.481,-1.908,-0.694,2.0
15.84,-1.834,-0.753,1.0
14.629,-1.694,-0.774,0.0
13.663,-1.583,-0.796,0.0
21.137,-2.446,-0.639,14.0
19.389,-2.244,-0.689,3.0
17.384,-2.012,-0.711,1.0
16.145,-1.868,-0.748,2.0
14.864,-1.72,-0.768,0.0
13.864,-1.604,-0.791,0.0
21.656,-2.504,-0.628,19.0
19.683,-2.275,-0.676,11.0
17.869,-2.065,-0.709,0.0
16.26,-1.879,-0.734,3.0
15.169,-1.753,-0.765,1.0
14.095,-1.629,-0.786,0.0
22.167,-2.559,-0.616,26.0
20.063,-2.316,-0.664,17.0
18.203,-2.101,-0.7,0.0
16.325,-1.884,-0.716,2.0
15.444,-1.782,-0.76,0.0
14.36,-1.657,-0.783,0.0
22.675,-2.613,-0.602,28.0
20.452,-2.356,-0.652,15.0
18.646,-2.148,-0.694,0.0
16.429,-1.892,-0.7,2.0
15.771,-1.816,-0.756,1.0
14.57,-1.677,-0.777,0.0
23.089,-2.656,-0.584,16.0
21.007,-2.415,-0.643,13.0
19.294,-2.217,-0.694,3.0
17.274,-1.984,-0.715,0.0
16.101,-1.849,-0.752,1.0
14.816,-1.701,-0.771,0.0
23.794,-2.729,-0.573,3.0
21.538,-2.469,-0.633,16.0
19.6,-2.246,-0.68,7.0
17.749,-2.033,-0.713,0.0
16.268,-1.863,-0.74,3.0
15.106,-1.729,-0.768,1.0
24.891,-2.847,-0.568,1.0
22.055,-2.521,-0.621,22.0
20.034,-2.289,-0.671,10.0
18.116,-2.069,-0.705,0.0
16.299,-1.86,-0.721,1.0
15.402,-1.757,-0.764,1.0
25.58,-2.916,-0.553,1.0
22.57,-2.571,-0.608,26.0
20.408,-2.323,-0.658,13.0
18.498,-2.104,-0.697,0.0
16.379,-1.862,-0.704,1.0
15.681,-1.782,-0.758,0.0
26.224,-2.978,-0.534,1.0
23.069,-2.618,-0.593,20.0
20.876,-2.367,-0.648,10.0
19.058,-2.159,-0.695,1.0
17.039,-1.929,-0.712,0.0
16.019,-1.813,-0.754,1.0
27.04,-3.058,-0.518,1.0
23.595,-2.666,-0.577,10.0
21.463,-2.423,-0.639,12.0
19.571,-2.208,-0.689,3.0
17.672,-1.992,-0.716,0.0
16.238,-1.829,-0.745,2.0
27.997,-3.152,-0.502,1.0
24.1,-2.71,-0.56,2.0
21.948,-2.466,-0.627,18.0
19.83,-2.226,-0.674,8.0
18.023,-2.022,-0.708,0.0
16.285,-1.825,-0.727,1.0
28.932,-3.24,-0.483,1.0
25.377,-2.839,-0.558,1.0
22.456,-2.51,-0.613,19.0
20.298,-2.266,-0.665,10.0
18.416,-2.054,-0.701,0.0
16.36,-1.823,-0.71,1.0
29.809,-3.32,-0.461,1.0
26.051,-2.898,-0.541,1.0
23.075,-2.565,-0.602,22.0
20.719,-2.3,-0.653,8.0
18.82,-2.087,-0.693,1.0
16.69,-1.849,-0.704,0.0
30.971,-3.43,-0.441,1.0
26.809,-2.965,-0.524,1.0
23.606,-2.608,-0.587,28.0
21.266,-2.346,-0.645,7.0
19.411,-2.139,-0.692,2.0
17.604,-1.938,-0.721,1.0
32.424,-3.568,-0.423,1.0
27.639,-3.037,-0.507,1.0
24.05,-2.639,-0.569,10.0
21.769,-2.386,-0.633,10.0
19.915,-2.18,-0.686,5.0
17.906,-1.958,-0.712,0.0
34.078,-3.725,-0.403,1.0
28.538,-3.115,-0.49,1.0
25.045,-2.729,-0.563,1.0
22.323,-2.43,-0.623,14.0
20.168,-2.192,-0.67,13.0
18.301,-1.987,-0.705,0.0
35.046,-3.803,-0.373,0.0
29.513,-3.197,-0.471,1.0
25.886,-2.8,-0.551,1.0
22.83,-2.466,-0.61,18.0
20.412,-2.202,-0.654,12.0
18.663,-2.01,-0.697,1.0
37.508,-4.039,-0.354,1.0
30.33,-3.26,-0.448,1.0
26.526,-2.847,-0.533,1.0
23.337,-2.501,-0.596,27.0
20.79,-2.225,-0.641,4.0
19.072,-2.038,-0.69,1.0
39.684,-4.239,-0.329,0.0
31.885,-3.4,-0.434,1.0
27.245,-2.9,-0.516,1.0
23.763,-2.525,-0.579,26.0
21.758,-2.309,-0.646,3.0
19.698,-2.087,-0.69,1.0
41.82,-4.428,-0.298,0.0
33.091,-3.498,-0.412,1.0
28.132,-2.968,-0.5,1.0
24.264,-2.556,-0.563,5.0
22.305,-2.345,-0.636,4.0
20.184,-2.119,-0.683,8.0
0.0,0.0,0.0,0.0
33.985,-3.559,-0.384,0.0
28.988,-3.03,-0.482,1.0
25.376,-2.647,-0.559,1.0
22.771,-2.372,-0.623,7.0
20.412,-2.122,-0.668,21.0
0.0,0.0,0.0,0.0
37.1,-3.848,-0.377,0.0
29.788,-3.083,-0.461,1.0
26.077,-2.694,-0.545,1.0
23.243,-2.396,-0.61,13.0
20.534,-2.113,-0.648,10.0
47.914,-4.929,-0.177,0.0
39.079,-4.012,-0.353,0.0
30.611,-3.136,-0.44,0.0
26.731,-2.733,-0.529,1.0
23.661,-2.414,-0.595,17.0
21.079,-2.146,-0.642,2.0
50.441,-5.135,-0.131,5.0
39.925,-4.055,-0.317,0.0
32.063,-3.25,-0.425,1.0
27.469,-2.778,-0.514,1.0
24.035,-2.425,-0.578,14.0
21.708,-2.186,-0.638,1.0
50.513,-5.085,-0.076,2.0
41.103,-4.128,-0.281,0.0
33.215,-3.328,-0.404,1.0
28.194,-2.819,-0.497,1.0
24.634,-2.457,-0.566,5.0
22.161,-2.206,-0.627,1.0
0.0,0.0,0.0,0.0
44.309,-4.398,-0.255,0.0
34.717,-3.437,-0.385,0.0
28.992,-2.864,-0.48,1.0
25.501,-2.513,-0.558,1.0
22.705,-2.232,-0.618,1.0
0.0,0.0,0.0,0.0
50.295,-4.931,-0.237,0.0
35.667,-3.488,-0.359,0.0
29.738,-2.901,-0.461,1.0
26.092,-2.539,-0.544,1.0
23.219,-2.254,-0.608,1.0
0.0,0.0,0.0,0.0
50.233,-4.862,-0.185,1.0
39.074,-3.772,-0.353,0.0
30.673,-2.953,-0.444,1.0
26.778,-2.572,-0.531,1.0
23.675,-2.268,-0.596,1.0
0.0,0.0,0.0,0.0
50.339,-4.808,-0.134,1.0
0.0,0.0,0.0,0.0
31.831,-3.024,-0.429,1.0
27.46,-2.601,-0.517,1.0
24.293,-2.295,-0.587,1.0
0.0,0.0,0.0,0.0
0.0,0.0,0.0,0.0
41.422,-3.89,-0.291,0.0
32.784,-3.07,-0.409,1.0
28.085,-2.622,-0.501,1.0
24.838,-2.313,-0.576,1.0
0.0,0.0,0.0,0.0
0.0,0.0,0.0,0.0
0.0,0.0,0.0,0.0
33.835,-3.122,-0.389,1.0
28.834,-2.652,-0.486,1.0
25.393,-2.329,-0.564,1.0
90.659,-8.312,0.508,1.0
0.0,0.0,0.0,0.0
0.0,0.0,0.0,0.0
34.73,-3.155,-0.367,0.0
29.415,-2.664,-0.468,1.0
25.828,-2.332,-0.55,1.0
90.675,-8.184,0.591,1.0
0.0,0.0,0.0,0.0
50.414,-4.521,-0.211,2.0
37.356,-3.339,-0.36,0.0
30.116,-2.684,-0.452,1.0
26.368,-2.342,-0.537,1.0
0.0,0.0,0.0,0.0
0.0,0.0,0.0,0.0
50.392,-4.444,-0.165,6.0
