X,Y,Z,Reflectivity
0.0,0.0,0.0,0.0
0.0,0.0,0.0,0.0
0.0,0.0,0.0,0.0
50.467,-2.524,-0.159,4.0
37.683,-1.898,-0.323,0.0
29.663,-1.504,-0.416,5.0
0.0,0.0,0.0,0.0
0.0,0.0,0.0,0.0
63.263,-3.265,0.177,2.0
50.445,-2.622,-0.137,2.0
37.46,-1.96,-0.305,0.0
30.284,-1.596,-0.411,1.0
0.0,0.0,0.0,0.0
0.0,0.0,0.0,0.0
0.0,0.0,0.0,0.0
50.461,-2.722,-0.113,2.0
37.925,-2.059,-0.29,0.0
30.869,-1.687,-0.404,1.0
0.0,0.0,0.0,0.0
0.0,0.0,0.0,0.0
0.0,0.0,0.0,0.0
50.46,-2.82,-0.087,1.0
0.0,0.0,0.0,0.0
31.575,-1.787,-0.396,1.0
216.945,-12.314,3.289,6.0
0.0,0.0,0.0,0.0
0.0,0.0,0.0,0.0
50.498,-2.919,-0.059,4.0
40.973,-2.383,-0.27,0.0
32.135,-1.88,-0.386,1.0
200.756,-11.776,3.156,7.0
0.0,0.0,0.0,0.0
0.0,0.0,0.0,0.0
59.695,-3.564,-0.036,1.0
41.392,-2.485,-0.249,0.0
32.823,-1.983,-0.375,1.0
187.381,-11.343,3.057,241.0
0.0,0.0,0.0,0.0
0.0,0.0,0.0,0.0
56.976,-3.507,0.0,1.0
0.0,0.0,0.0,0.0
33.504,-2.086,-0.362,0.0
187.244,-11.682,3.171,21.0
0.0,0.0,0.0,0.0
0.0,0.0,0.0,0.0
62.267,-3.947,0.039,4.0
44.617,-2.844,-0.212,0.0
34.702,-2.224,-0.352,0.0
187.222,-12.021,3.293,151.0
0.0,0.0,0.0,0.0
0.0,0.0,0.0,0.0
62.209,-4.057,0.081,5.0
50.303,-3.298,-0.205,0.0
35.511,-2.34,-0.336,0.0
187.22,-12.362,3.422,151.0
0.0,0.0,0.0,0.0
0.0,0.0,0.0,0.0
62.204,-4.169,0.125,4.0
50.455,-3.399,-0.17,4.0
37.436,-2.534,-0.328,0.0
0.0,0.0,0.0,0.0
0.0,0.0,0.0,0.0
0.0,0.0,0.0,0.0
0.0,0.0,0.0,0.0
50.477,-3.49,-0.132,6.0
39.897,-2.772,-0.319,0.0
212.989,-14.822,4.207,50.0
152.268,-10.643,2.188,4.0
0.0,0.0,0.0,0.0
0.0,0.0,0.0,0.0
50.501,-3.579,-0.093,4.0
0.0,0.0,0.0,0.0
204.964,-14.617,4.208,29.0
0.0,0.0,0.0,0.0
0.0,0.0,0.0,0.0
0.0,0.0,0.0,0.0
0.0,0.0,0.0,0.0
40.999,-2.99,-0.263,0.0
284.892,-20.805,6.084,14.0
0.0,0.0,0.0,0.0
0.0,0.0,0.0,0.0
0.0,0.0,0.0,0.0
61.917,-4.6,-0.013,0.0
42.435,-3.166,-0.237,0.0
197.058,-14.721,4.372,53.0
148.536,-11.142,2.498,22.0
148.637,-11.195,1.703,4.0
0.0,0.0,0.0,0.0
0.0,0.0,0.0,0.0
0.0,0.0,0.0,0.0
291.533,-22.26,6.725,25.0
148.468,-11.382,2.628,93.0
0.0,0.0,0.0,0.0
0.0,0.0,0.0,0.0
0.0,0.0,0.0,0.0
50.426,-3.927,-0.193,1.0
250.546,-19.537,6.003,14.0
0.0,0.0,0.0,0.0
128.158,-10.068,1.697,154.0
0.0,0.0,0.0,0.0
0.0,0.0,0.0,0.0
50.439,-4.008,-0.147,7.0
206.421,-16.423,5.137,14.0
0.0,0.0,0.0,0.0
128.173,-10.272,1.816,4.0
0.0,0.0,0.0,0.0
0.0,0.0,0.0,0.0
50.5,-4.091,-0.1,4.0
193.667,-15.707,5.002,6.0
202.476,-16.479,4.146,10.0
122.2,-9.98,1.848,150.0
0.0,0.0,0.0,0.0
0.0,0.0,0.0,0.0
0.0,0.0,0.0,0.0
193.506,-15.989,5.186,25.0
201.644,-16.717,4.326,24.0
0.0,0.0,0.0,0.0
121.782,-10.165,1.299,2.0
0.0,0.0,0.0,0.0
0.0,0.0,0.0,0.0
165.035,-13.879,4.586,88.0
165.079,-13.927,3.704,84.0
0.0,0.0,0.0,0.0
121.744,-10.337,1.42,100.0
0.0,0.0,0.0,0.0
0.0,0.0,0.0,0.0
157.415,-13.466,4.536,85.0
157.379,-13.505,3.694,27.0
0.0,0.0,0.0,0.0
121.762,-10.514,1.545,160.0
0.0,0.0,0.0,0.0
0.0,0.0,0.0,0.0
157.375,-13.685,4.697,14.0
157.34,-13.72,3.856,58.0
157.272,-13.755,3.015,6.0
110.387,-9.683,1.516,7.0
111.546,-9.814,0.938,4.0
0.0,0.0,0.0,0.0
188.652,-16.663,5.83,20.0
188.557,-16.699,4.821,48.0
188.613,-16.751,3.815,21.0
109.333,-9.738,1.618,11.0
108.83,-9.721,1.031,5.0
0.0,0.0,0.0,0.0
188.684,-16.917,6.035,33.0
188.238,-16.923,5.017,45.0
188.331,-16.976,4.017,38.0
108.848,-9.838,1.731,9.0
108.617,-9.845,1.149,163.0
90.742,-8.248,0.476,2.0
188.6,-17.157,6.242,38.0
149.369,-13.621,4.147,17.0
188.306,-17.217,4.225,41.0
108.691,-9.964,1.849,18.0
108.491,-9.971,1.268,150.0
90.844,-8.372,0.58,1.0
148.758,-13.721,5.093,14.0
149.387,-13.812,4.317,26.0
188.422,-17.464,4.44,52.0
108.827,-10.111,1.975,2.0
108.56,-10.112,1.393,2.0
0.0,0.0,0.0,0.0
149.063,-13.93,5.273,48.0
148.872,-13.944,4.472,33.0
187.978,-17.649,4.646,49.0
108.84,-10.242,2.1,13.0
0.0,0.0,0.0,0.0
100.802,-9.532,0.872,5.0
188.827,-17.87,6.896,15.0
149.495,-14.177,4.663,48.0
149.391,-14.199,3.864,67.0
108.784,-10.363,2.224,13.0
0.0,0.0,0.0,0.0
100.415,-9.609,0.986,1.0
150.694,-14.43,5.679,20.0
149.655,-14.361,4.842,13.0
149.397,-14.367,4.039,42.0
149.47,-14.403,3.231,92.0
0.0,0.0,0.0,0.0
97.391,-9.425,1.07,2.0
148.086,-14.342,5.754,26.0
188.297,-18.273,6.314,26.0
188.062,-18.285,5.305,45.0
149.522,-14.568,3.41,20.0
97.691,-9.538,1.708,2.0
96.424,-9.434,1.174,1.0
210.13,-20.574,8.42,8.0
188.932,-18.533,6.564,33.0
188.031,-18.48,5.531,41.0
187.616,-18.475,4.503,58.0
0.0,0.0,0.0,0.0
95.568,-9.447,1.279,3.0
206.1,-20.391,8.507,5.0
188.871,-18.717,6.791,26.0
188.049,-18.67,5.762,41.0
187.758,-18.674,4.735,46.0
0.0,0.0,0.0,0.0
94.967,-9.48,1.387,6.0
123.215,-12.31,5.235,18.0
148.253,-14.835,5.512,34.0
148.514,-14.886,4.733,20.0
188.103,-18.887,4.975,53.0
0.0,0.0,0.0,0.0
95.201,-9.591,1.507,8.0
123.213,-12.424,5.387,10.0
124.722,-12.595,4.791,19.0
148.459,-15.016,4.914,28.0
188.149,-19.061,5.209,55.0
188.042,-19.08,4.207,29.0
89.433,-9.09,1.527,0.0
106.661,-10.85,4.796,42.0
124.44,-12.676,4.934,13.0
148.443,-15.143,5.098,26.0
188.052,-19.213,5.439,55.0
157.503,-16.115,3.719,35.0
89.109,-9.132,1.632,4.0
107.847,-11.062,4.985,89.0
106.711,-10.959,4.365,17.0
148.449,-15.266,5.282,25.0
187.887,-19.349,5.668,51.0
157.531,-16.245,3.916,150.0
96.152,-9.93,1.88,1.0
107.172,-11.078,5.088,61.0
106.792,-11.053,4.503,76.0
148.399,-15.378,5.47,21.0
187.917,-19.498,5.908,31.0
187.572,-19.487,4.902,33.0
96.11,-9.998,2.001,7.0
122.5,-12.756,5.972,45.0
107.224,-11.178,4.657,65.0
122.869,-12.823,4.684,69.0
189.272,-19.777,6.191,21.0
187.644,-19.631,5.141,34.0
188.391,-19.733,4.164,24.0
115.118,-12.069,5.759,19.0
115.726,-12.146,5.173,20.0
107.245,-11.267,4.225,79.0
189.393,-19.92,6.437,27.0
187.785,-19.773,5.384,23.0
188.37,-19.857,4.404,25.0
115.024,-12.137,5.902,24.0
108.041,-11.411,4.968,26.0
107.193,-11.331,4.36,71.0
107.349,-11.359,3.784,25.0
188.206,-19.937,5.637,30.0
123.63,-13.11,3.047,25.0
99.241,-10.534,5.22,35.0
115.327,-12.252,5.454,26.0
107.862,-11.469,4.527,67.0
107.339,-11.424,3.923,71.0
188.259,-20.055,5.883,25.0
123.547,-13.173,3.206,73.0
99.194,-10.587,5.346,35.0
105.251,-11.242,5.113,8.0
107.924,-11.536,4.669,61.0
123.925,-13.257,4.69,52.0
123.413,-13.214,4.015,49.0
123.509,-13.236,3.363,89.0
90.679,-9.727,5.005,4.0
105.243,-11.297,5.247,39.0
108.008,-11.601,4.812,20.0
106.937,-11.494,4.185,52.0
123.301,-13.263,4.17,47.0
123.464,-13.291,3.52,89.0
100.31,-10.81,5.666,41.0
99.289,-10.706,5.08,18.0
116.364,-12.554,5.334,15.0
107.665,-11.622,4.352,59.0
107.325,-11.593,3.767,60.0
123.43,-13.342,3.678,82.0
100.308,-10.854,5.795,15.0
99.216,-10.741,5.203,57.0
105.434,-11.42,4.968,18.0
115.658,-12.533,4.824,21.0
107.028,-11.605,3.894,72.0
123.391,-13.387,3.836,74.0
86.031,-9.345,5.081,10.0
99.956,-10.86,5.372,32.0
108.204,-11.762,5.239,18.0
105.864,-11.512,4.551,9.0
106.907,-11.63,4.027,57.0
123.371,-13.428,3.992,65.0
86.021,-9.374,5.192,12.0
100.141,-10.916,5.509,21.0
117.925,-12.858,5.861,21.0
105.797,-11.539,4.683,46.0
107.386,-11.717,4.183,21.0
107.336,-11.716,3.612,26.0
101.743,-11.119,6.272,3.0
90.453,-9.887,5.093,5.0
99.254,-10.852,5.06,41.0
148.149,-16.202,6.75,19.0
124.253,-13.591,5.0,23.0
107.171,-11.727,3.742,60.0
98.253,-10.764,6.184,14.0
108.424,-11.879,6.245,5.0
99.525,-10.906,5.201,94.0
108.216,-11.86,5.068,19.0
105.891,-11.607,4.395,13.0
106.864,-11.716,3.868,45.0
81.311,-8.926,5.22,13.0
86.028,-9.443,5.065,11.0
99.995,-10.977,5.354,59.0
108.201,-11.879,5.204,55.0
105.88,-11.625,4.529,45.0
106.574,-11.702,3.993,43.0
97.776,-10.751,6.404,12.0
85.961,-9.451,5.17,11.0
90.596,-9.96,4.965,6.0
108.226,-11.897,5.344,41.0
105.816,-11.632,4.66,21.0
106.452,-11.703,4.122,50.0
97.819,-10.768,6.53,36.0
98.253,-10.814,6.034,27.0
108.378,-11.926,6.077,18.0
99.243,-10.92,5.024,47.0
148.783,-16.369,6.738,13.0
106.401,-11.706,4.251,30.0
97.854,-10.781,6.654,13.0
98.228,-10.818,6.155,39.0
108.468,-11.944,6.215,18.0
99.305,-10.933,5.149,61.0
108.207,-11.91,5.034,16.0
106.078,-11.674,4.37,18.0
86.3,-9.511,5.976,10.0
81.291,-8.956,5.193,13.0
86.108,-9.483,5.041,9.0
99.685,-10.975,5.292,29.0
108.211,-11.911,5.166,54.0
105.87,-11.65,4.491,40.0
80.619,-8.884,5.682,2.0
81.52,-8.98,5.309,9.0
85.952,-9.464,5.137,12.0
99.721,-10.976,5.417,9.0
108.199,-11.905,5.298,50.0
105.851,-11.643,4.617,25.0
68.39,-7.533,4.904,5.0
97.835,-10.771,6.489,34.0
98.253,-10.812,5.991,17.0
90.512,-9.955,5.025,10.0
99.247,-10.911,4.979,27.0
148.524,-16.323,6.657,11.0
84.4,-9.289,6.153,11.0
97.804,-10.758,6.605,23.0
98.207,-10.796,6.104,19.0
108.295,-11.898,6.141,15.0
99.289,-10.903,5.098,55.0
148.137,-16.259,6.815,17.0
84.251,-9.261,6.243,14.0
86.291,-9.478,5.931,11.0
81.332,-8.928,5.152,11.0
86.118,-9.447,4.984,4.0
99.639,-10.924,5.233,93.0
108.185,-11.854,5.102,26.0
82.944,-9.102,6.243,8.0
86.323,-9.466,6.032,4.0
81.434,-8.923,5.253,10.0
86.027,-9.419,5.079,13.0
100.122,-10.955,5.374,55.0
108.205,-11.832,5.229,29.0
82.741,-9.061,6.324,8.0
91.168,-9.976,6.476,5.0
81.465,-8.906,5.35,4.0
86.054,-9.4,5.18,11.0
100.126,-10.929,5.49,20.0
117.945,-12.864,5.835,25.0
84.484,-9.229,6.555,10.0
68.41,-7.466,4.938,5.0
98.002,-10.686,6.547,10.0
101.629,-11.071,6.232,4.0
100.265,-10.913,5.61,7.0
117.973,-12.831,5.967,30.0
68.504,-7.462,5.391,10.0
84.348,-9.179,6.183,21.0
97.732,-10.624,6.638,9.0
98.361,-10.682,6.141,16.0
125.464,-13.613,7.159,15.0
99.22,-10.755,5.128,49.0
68.5,-7.437,5.467,7.0
0.0,0.0,0.0,0.0
86.24,-9.343,5.952,11.0
81.544,-8.825,5.18,5.0
100.279,-10.841,5.83,19.0
99.225,-10.716,5.236,47.0
83.739,-9.059,6.775,11.0
82.647,-8.93,6.239,10.0
97.501,-10.522,6.834,13.0
81.389,-8.773,5.258,12.0
100.269,-10.797,5.936,17.0
99.248,-10.676,5.342,11.0
68.83,-7.416,5.642,8.0
69.304,-7.457,5.305,3.0
68.47,-7.358,4.871,4.0
99.205,-10.648,6.512,11.0
100.207,-10.742,6.038,32.0
147.683,-15.815,8.101,16.0
68.994,-7.4,5.727,7.0
82.357,-8.821,6.39,16.0
68.423,-7.319,4.938,5.0
106.518,-11.379,7.101,6.0
100.103,-10.68,6.132,33.0
90.722,-9.667,5.068,8.0
69.052,-7.371,5.801,9.0
68.934,-7.347,5.418,10.0
82.547,-8.786,6.04,6.0
86.219,-9.164,5.833,5.0
99.305,-10.54,6.182,21.0
104.629,-11.091,5.949,24.0
69.004,-7.327,5.866,10.0
68.929,-7.308,5.485,12.0
82.402,-8.723,6.11,9.0
100.424,-10.615,6.893,16.0
99.171,-10.468,6.27,16.0
99.268,-10.463,5.739,24.0
68.957,-7.281,5.929,7.0
68.634,-7.235,5.528,8.0
97.079,-10.217,7.292,5.0
86.216,-9.06,5.999,9.0
81.558,-8.557,5.233,10.0
99.289,-10.402,5.834,18.0
69.054,-7.246,6.003,5.0
68.7,-7.197,5.597,4.0
82.95,-8.676,6.308,3.0
86.09,-8.989,6.07,6.0
81.464,-8.493,5.301,4.0
86.194,-8.972,5.142,9.0
78.096,-8.142,6.861,2.0
68.881,-7.169,5.676,7.0
84.414,-8.771,6.495,2.0
82.565,-8.564,5.895,14.0
99.681,-10.322,6.576,2.0
86.228,-8.914,5.221,9.0
83.545,-8.651,7.414,4.0
68.691,-7.099,5.72,3.0
84.05,-8.671,6.541,9.0
82.465,-8.492,5.96,8.0
99.512,-10.23,6.651,5.0
99.273,-10.187,6.096,4.0
84.978,-8.735,7.614,10.0
68.695,-7.048,5.779,6.0
84.114,-8.612,6.618,4.0
68.204,-6.971,4.987,4.0
101.514,-10.356,6.87,2.0
99.336,-10.116,6.181,6.0
84.963,-8.667,7.683,17.0
68.935,-7.017,5.856,10.0
83.927,-8.526,6.671,1.0
68.405,-6.935,5.057,3.0
99.178,-10.037,6.791,3.0
99.414,-10.042,6.265,22.0
84.994,-8.599,7.755,13.0
68.663,-6.933,5.888,6.0
97.812,-9.855,7.852,8.0
84.464,-8.493,6.31,6.0
82.733,-8.302,5.729,4.0
99.475,-9.963,6.346,16.0
85.043,-8.532,7.824,11.0
77.841,-7.792,6.734,9.0
83.532,-8.344,6.768,2.0
68.432,-6.821,5.163,2.0
82.734,-8.229,5.79,20.0
99.731,-9.9,6.435,17.0
85.028,-8.454,7.885,4.0
84.055,-8.338,7.333,12.0
83.163,-8.231,6.799,1.0
91.633,-9.05,6.979,4.0
82.436,-8.124,5.827,3.0
99.045,-9.74,6.46,19.0
85.25,-8.397,7.966,10.0
83.738,-8.229,7.364,4.0
81.194,-7.96,6.693,1.0
91.658,-8.966,7.044,3.0
86.736,-8.465,6.19,3.0
98.809,-9.622,6.511,36.0
84.616,-8.252,7.964,7.0
80.464,-7.829,7.129,2.0
81.217,-7.883,6.749,2.0
84.867,-8.218,6.577,8.0
84.409,-8.154,6.079,3.0
84.799,-8.174,5.641,14.0
85.117,-8.218,8.064,5.0
83.634,-8.054,7.462,3.0
99.922,-9.599,8.365,22.0
91.673,-8.785,7.161,1.0
82.271,-7.865,5.974,3.0
98.595,-9.404,6.618,12.0
84.523,-8.074,8.059,3.0
99.981,-9.526,8.98,11.0
81.141,-7.711,6.84,3.0
97.955,-9.285,7.708,25.0
85.031,-8.041,6.223,7.0
98.693,-9.31,6.68,8.0
99.68,-9.417,9.561,9.0
99.792,-9.403,9.019,6.0
96.572,-9.075,8.194,4.0
97.212,-9.111,7.702,10.0
84.57,-7.907,6.234,4.0
110.008,-10.258,7.505,7.0
99.838,-9.323,9.629,5.0
98.032,-9.129,8.912,18.0
85.8,-7.969,7.324,6.0
97.032,-8.987,7.738,11.0
84.749,-7.829,6.29,4.0
86.416,-7.962,5.938,3.0
97.954,-9.038,9.496,15.0
105.871,-9.741,9.676,7.0
95.93,-8.802,8.235,7.0
105.871,-9.688,8.491,11.0
84.691,-7.728,6.325,6.0
86.335,-7.857,5.971,3.0
98.476,-8.974,9.591,7.0
83.097,-7.551,7.632,2.0
85.545,-7.751,7.381,4.0
105.159,-9.5,8.48,8.0
84.739,-7.634,6.365,11.0
97.946,-8.801,6.815,14.0
98.416,-8.854,9.626,10.0
96.401,-8.646,8.892,4.0
95.899,-8.576,8.313,3.0
105.502,-9.406,8.55,6.0
84.671,-7.528,6.392,6.0
98.419,-8.725,6.886,13.0
98.691,-8.76,9.691,7.0
99.641,-8.817,9.229,3.0
107.761,-9.507,9.381,6.0
100.897,-8.875,8.212,4.0
105.884,-9.286,8.03,10.0
84.47,-7.387,5.938,6.0
99.647,-8.723,9.818,14.0
85.381,-7.451,7.936,7.0
115.482,-10.047,10.091,9.0
108.103,-9.377,8.833,14.0
86.487,-7.479,6.586,4.0
98.699,-8.51,6.969,4.0
105.515,-9.106,10.428,5.0
105.676,-9.091,9.854,28.0
105.735,-9.067,9.269,8.0
98.094,-8.386,8.042,3.0
96.97,-8.264,7.411,10.0
100.066,-8.502,7.091,5.0
108.108,-9.195,10.712,6.0
106.491,-9.027,9.956,9.0
106.251,-8.977,9.34,9.0
84.791,-7.141,6.971,11.0
99.936,-8.39,7.66,2.0
108.017,-9.04,7.679,7.0
99.42,-8.328,9.873,7.0
106.436,-8.886,9.973,3.0
106.401,-8.853,9.374,2.0
84.721,-7.025,6.983,20.0
106.275,-8.784,8.166,6.0
96.738,-7.97,6.895,5.0
0.0,0.0,0.0,0.0
107.228,-8.813,10.065,2.0
105.392,-8.631,9.303,10.0
107.185,-8.748,8.851,5.0
98.278,-7.995,7.566,14.0
98.199,-7.963,7.012,3.0
0.0,0.0,0.0,0.0
105.329,-8.517,9.901,5.0
108.189,-8.717,9.562,3.0
105.991,-8.51,8.764,9.0
108.0,-8.642,8.326,9.0
97.732,-7.795,6.988,6.0
0.0,0.0,0.0,0.0
105.407,-8.382,9.917,1.0
107.36,-8.506,9.498,7.0
98.629,-7.786,8.162,2.0
101.208,-7.962,7.809,2.0
108.552,-8.51,7.768,5.0
0.0,0.0,0.0,0.0
0.0,0.0,0.0,0.0
0.0,0.0,0.0,0.0
97.617,-7.573,8.081,3.0
148.796,-11.501,11.485,9.0
108.876,-8.385,7.794,6.0
0.0,0.0,0.0,0.0
0.0,0.0,0.0,0.0
108.416,-8.291,9.595,5.0
108.006,-8.23,8.94,10.0
208.075,-15.798,16.056,10.0
108.824,-8.232,7.787,7.0
0.0,0.0,0.0,0.0
0.0,0.0,0.0,0.0
0.0,0.0,0.0,0.0
108.287,-8.099,8.958,3.0
108.271,-8.067,8.348,5.0
108.904,-8.085,7.786,2.0
0.0,0.0,0.0,0.0
0.0,0.0,0.0,0.0
0.0,0.0,0.0,0.0
0.0,0.0,0.0,0.0
108.798,-7.953,8.377,12.0
108.994,-7.937,7.779,6.0
0.0,0.0,0.0,0.0
0.0,0.0,0.0,0.0
0.0,0.0,0.0,0.0
108.861,-7.832,8.979,10.0
0.0,0.0,0.0,0.0
207.129,-14.788,14.752,16.0
0.0,0.0,0.0,0.0
0.0,0.0,0.0,0.0
0.0,0.0,0.0,0.0
0.0,0.0,0.0,0.0
0.0,0.0,0.0,0.0
207.621,-14.524,14.745,23.0
0.0,0.0,0.0,0.0
0.0,0.0,0.0,0.0
0.0,0.0,0.0,0.0
0.0,0.0,0.0,0.0
109.012,-7.497,8.33,5.0
162.495,-11.131,11.502,11.0
0.0,0.0,0.0,0.0
0.0,0.0,0.0,0.0
0.0,0.0,0.0,0.0
0.0,0.0,0.0,0.0
0.0,0.0,0.0,0.0
0.0,0.0,0.0,0.0
0.0,0.0,0.0,0.0
0.0,0.0,0.0,0.0
0.0,0.0,0.0,0.0
0.0,0.0,0.0,0.0
0.0,0.0,0.0,0.0
0.0,0.0,0.0,0.0
0.0,0.0,0.0,0.0
0.0,0.0,0.0,0.0
0.0,0.0,0.0,0.0
0.0,0.0,0.0,0.0
0.0,0.0,0.0,0.0
0.0,0.0,0.0,0.0
0.0,0.0,0.0,0.0
0.0,0.0,0.0,0.0
0.0,0.0,0.0,0.0
0.0,0.0,0.0,0.0
0.0,0.0,0.0,0.0
0.0,0.0,0.0,0.0
0.0,0.0,0.0,0.0
0.0,0.0,0.0,0.0
0.0,0.0,0.0,0.0
0.0,0.0,0.0,0.0
0.0,0.0,0.0,0.0
0.0,0.0,0.0,0.0
0.0,0.0,0.0,0.0
0.0,0.0,0.0,0.0
0.0,0.0,0.0,0.0
0.0,0.0,0.0,0.0
0.0,0.0,0.0,0.0
0.0,0.0,0.0,0.0
0.0,0.0,0.0,0.0
0.0,0.0,0.0,0.0
0.0,0.0,0.0,0.0
0.0,0.0,0.0,0.0
0.0,0.0,0.0,0.0
0.0,0.0,0.0,0.0
0.0,0.0,0.0,0.0
0.0,0.0,0.0,0.0
0.0,0.0,0.0,0.0
92.999,-5.321,7.317,3.0
0.0,0.0,0.0,0.0
0.0,0.0,0.0,0.0
0.0,0.0,0.0,0.0
0.0,0.0,0.0,0.0
0.0,0.0,0.0,0.0
91.531,-5.099,7.145,4.0
0.0,0.0,0.0,0.0
0.0,0.0,0.0,0.0
0.0,0.0,0.0,0.0
92.345,-5.056,8.214,1.0
0.0,0.0,0.0,0.0
0.0,0.0,0.0,0.0
92.91,-5.011,6.66,1.0
0.0,0.0,0.0,0.0
56.803,-3.041,5.339,1.0
92.445,-4.924,8.158,3.0
83.616,-4.431,6.9,1.0
92.727,-4.888,7.111,4.0
92.944,-4.874,6.597,1.0
0.0,0.0,0.0,0.0
56.754,-2.954,5.293,2.0
92.161,-4.772,8.065,8.0
91.955,-4.736,7.52,3.0
83.033,-4.253,6.306,5.0
91.418,-4.659,6.419,2.0
0.0,0.0,0.0,0.0
56.745,-2.868,5.248,5.0
90.032,-4.526,7.809,1.0
93.367,-4.667,7.561,4.0
83.059,-4.13,6.241,5.0
93.018,-4.6,6.456,2.0
0.0,0.0,0.0,0.0
56.678,-2.78,5.195,6.0
91.92,-4.484,7.897,4.0
93.418,-4.532,7.488,4.0
92.768,-4.477,6.894,3.0
93.024,-4.464,6.38,3.0
0.0,0.0,0.0,0.0
56.705,-2.698,5.149,10.0
91.892,-4.347,7.814,3.0
93.284,-4.387,7.396,4.0
89.735,-4.196,6.59,5.0
93.004,-4.325,6.296,4.0
0.0,0.0,0.0,0.0
56.745,-2.615,5.101,7.0
83.881,-3.842,7.057,12.0
93.229,-4.246,7.306,5.0
83.264,-3.77,6.037,6.0
89.674,-4.038,5.988,2.0
0.0,0.0,0.0,0.0
56.766,-2.532,5.049,6.0
92.75,-4.113,7.715,15.0
93.017,-4.1,7.201,3.0
91.59,-4.015,6.553,6.0
93.163,-4.059,6.131,4.0
83.298,-3.608,5.003,3.0
56.749,-2.448,4.992,4.0
83.357,-3.574,6.85,9.0
90.463,-3.856,6.913,6.0
83.25,-3.527,5.873,9.0
92.897,-3.912,6.019,3.0
97.406,-4.077,5.751,2.0
56.833,-2.369,4.941,2.0
83.286,-3.45,6.758,10.0
90.32,-3.718,6.807,7.0
91.278,-3.734,6.343,6.0
92.845,-3.774,5.918,15.0
98.313,-3.973,5.701,1.0
82.923,-3.336,7.119,11.0
92.672,-3.704,7.421,2.0
90.434,-3.591,6.718,7.0
91.184,-3.599,6.239,5.0
83.252,-3.264,5.215,3.0
0.0,0.0,0.0,0.0
91.168,-3.535,7.725,18.0
91.457,-3.523,7.22,5.0
92.988,-3.56,6.803,14.0
90.124,-3.428,6.063,9.0
174.979,-6.614,10.766,25.0
0.0,0.0,0.0,0.0
82.287,-3.074,6.878,3.0
92.012,-3.414,7.158,6.0
90.623,-3.34,6.525,8.0
90.226,-3.304,5.966,7.0
174.688,-6.356,10.542,36.0
0.0,0.0,0.0,0.0
82.36,-2.96,6.786,12.0
91.706,-3.273,7.024,20.0
82.614,-2.929,5.85,17.0
93.155,-3.281,6.048,12.0
97.908,-3.425,5.79,8.0
0.0,0.0,0.0,0.0
92.562,-3.197,7.512,3.0
92.667,-3.178,6.983,48.0
83.101,-2.83,5.78,22.0
93.152,-3.151,5.931,24.0
175.318,-5.89,10.148,29.0
0.0,0.0,0.0,0.0
82.909,-2.749,6.623,6.0
83.396,-2.746,6.179,8.0
83.195,-2.72,5.681,59.0
93.125,-3.023,5.81,16.0
90.553,-2.919,5.126,10.0
0.0,0.0,0.0,0.0
83.041,-2.641,6.526,16.0
83.173,-2.625,6.053,28.0
83.419,-2.614,5.588,41.0
93.078,-2.896,5.685,45.0
90.457,-2.794,5.003,36.0
0.0,0.0,0.0,0.0
84.247,-2.566,6.508,9.0
90.466,-2.734,6.462,3.0
83.604,-2.508,5.488,35.0
90.577,-2.698,5.411,63.0
90.472,-2.675,4.881,29.0
0.0,0.0,0.0,0.0
83.633,-2.435,6.345,13.0
0.0,0.0,0.0,0.0
98.752,-2.833,6.345,30.0
172.1,-4.899,10.043,27.0
90.478,-2.556,4.755,30.0
128.876,-3.614,6.027,15.0
41.386,-1.151,3.081,45.0
94.318,-2.603,6.474,2.0
92.327,-2.529,5.801,56.0
83.571,-2.271,4.758,11.0
93.073,-2.51,4.759,43.0
128.928,-3.449,5.846,46.0
97.264,-2.579,7.101,23.0
129.431,-3.406,8.697,21.0
92.292,-2.409,5.664,11.0
98.979,-2.563,5.49,57.0
93.073,-2.39,4.623,40.0
128.77,-3.281,5.65,42.0
91.735,-2.317,6.561,12.0
91.635,-2.295,6.02,8.0
97.996,-2.433,5.868,21.0
99.034,-2.439,5.345,31.0
93.048,-2.273,4.482,26.0
129.131,-3.128,5.47,30.0
84.99,-2.039,5.949,9.0
91.585,-2.179,5.877,14.0
91.567,-2.16,5.342,65.0
92.136,-2.155,4.832,79.0
90.576,-2.1,4.224,13.0
129.605,-2.981,5.292,30.0
84.413,-1.922,5.777,59.0
91.488,-2.064,5.728,47.0
91.399,-2.044,5.191,76.0
92.074,-2.042,4.685,65.0
128.765,-2.832,5.805,15.0
191.298,-4.17,7.513,35.0
129.602,-2.795,8.665,19.0
101.433,-2.167,6.189,24.0
91.363,-1.935,5.044,23.0
91.878,-1.928,4.528,25.0
128.732,-2.678,5.597,25.0
184.515,-3.803,6.952,26.0
94.516,-1.926,6.166,8.0
101.373,-2.047,6.022,24.0
83.787,-1.676,4.489,16.0
90.637,-1.796,4.32,53.0
128.62,-2.525,5.382,24.0
184.719,-3.594,6.657,45.0
85.389,-1.641,5.429,71.0
101.302,-1.929,5.851,19.0
127.184,-2.399,6.605,42.0
92.984,-1.736,4.277,44.0
128.748,-2.381,5.174,12.0
184.517,-3.38,6.344,37.0
85.227,-1.541,5.276,37.0
90.771,-1.626,5.089,19.0
127.119,-2.254,6.387,24.0
93.001,-1.633,4.122,41.0
185.675,-3.228,7.148,27.0
151.429,-2.606,4.948,93.0
85.231,-1.448,5.131,10.0
90.835,-1.527,4.938,23.0
90.876,-1.512,4.41,71.0
91.454,-1.506,3.896,37.0
129.127,-2.104,4.749,10.0
151.454,-2.443,4.69,95.0
84.111,-1.338,4.916,11.0
83.891,-1.32,4.415,19.0
91.026,-1.418,4.259,29.0
91.517,-1.41,3.74,35.0
183.412,-2.795,6.427,37.0
151.475,-2.284,4.427,90.0
89.868,-1.336,5.097,10.0
171.15,-2.516,8.706,10.0
85.795,-1.247,3.863,151.0
99.496,-1.43,3.89,65.0
86.947,-1.235,2.893,21.0
86.934,-1.221,2.386,56.0
83.648,-1.157,4.592,13.0
79.205,-1.083,3.886,164.0
91.097,-1.231,3.938,20.0
79.511,-1.062,2.965,0.0
109.501,-1.446,3.445,7.0
79.615,-1.039,2.041,0.0
83.852,-1.077,4.452,27.0
79.229,-1.005,3.743,172.0
79.387,-0.994,3.286,126.0
79.382,-0.983,2.815,150.0
79.424,-0.971,2.354,150.0
79.441,-0.959,1.891,151.0
83.749,-0.994,4.291,52.0
85.858,-1.007,3.898,150.0
79.422,-0.92,3.142,170.0
79.415,-0.908,2.672,151.0
79.432,-0.897,2.208,155.0
79.416,-0.886,1.745,205.0
83.763,-0.917,4.136,75.0
85.911,-0.928,3.741,89.0
79.434,-0.847,2.995,171.0
79.42,-0.835,2.522,150.0
79.441,-0.824,2.059,152.0
79.442,-0.813,1.597,172.0
79.293,-0.796,3.766,188.0
89.517,-0.886,3.727,20.0
79.43,-0.775,2.843,151.0
79.412,-0.764,2.371,150.0
79.428,-0.754,1.908,175.0
79.435,-0.743,1.444,168.0
85.905,-0.787,3.914,150.0
79.407,-0.717,3.154,190.0
79.408,-0.707,2.69,151.0
79.427,-0.696,2.219,151.0
79.42,-0.686,1.754,183.0
79.447,-0.676,1.292,167.0
86.01,-0.716,3.753,38.0
79.424,-0.651,3.003,165.0
79.422,-0.642,2.538,150.0
79.438,-0.632,2.066,159.0
79.441,-0.622,1.603,170.0
79.455,-0.612,1.139,166.0
79.402,-0.597,3.31,63.0
79.409,-0.587,2.845,150.0
79.409,-0.578,2.382,150.0
79.427,-0.568,1.91,180.0
79.446,-0.559,1.446,166.0
79.454,-0.55,0.984,163.0
79.427,-0.536,3.155,150.0
79.418,-0.527,2.69,150.0
79.434,-0.518,2.227,159.0
79.424,-0.508,1.754,215.0
79.446,-0.499,1.291,163.0
79.452,-0.49,0.827,170.0
79.395,-0.477,2.997,150.0
79.434,-0.469,2.534,151.0
79.429,-0.46,2.069,177.0
79.425,-0.451,1.597,213.0
79.455,-0.442,1.133,157.0
79.47,-0.434,0.668,151.0
79.424,-0.421,2.838,150.0
79.439,-0.412,2.373,151.0
79.431,-0.404,1.909,171.0
79.434,-0.396,1.437,176.0
79.457,-0.388,0.973,151.0
76.655,-0.366,0.49,12.0
79.421,-0.368,2.677,150.0
79.436,-0.36,2.214,151.0
79.432,-0.352,1.748,180.0
79.449,-0.344,1.275,158.0
79.445,-0.336,0.81,150.0
61.382,-0.253,0.268,11.0
79.419,-0.317,2.515,150.0
79.435,-0.309,2.05,151.0
79.396,-0.301,1.584,255.0
79.455,-0.294,1.113,151.0
79.365,-0.286,0.647,81.0
0.0,0.0,0.0,0.0
79.425,-0.269,2.351,150.0
79.448,-0.262,1.887,152.0
79.443,-0.254,1.422,175.0
79.463,-0.247,0.949,151.0
76.384,-0.231,0.466,14.0
46.182,-0.136,0.012,6.0
79.436,-0.224,2.187,151.0
79.453,-0.217,1.724,156.0
79.45,-0.21,1.258,156.0
79.452,-0.203,0.785,150.0
61.573,-0.153,0.249,12.0
42.41,-0.102,-0.076,17.0
79.451,-0.182,2.023,151.0
79.445,-0.175,1.559,172.0
79.455,-0.169,1.093,155.0
79.251,-0.162,0.618,33.0
0.0,0.0,0.0,0.0
39.903,-0.075,-0.155,25.0
79.448,-0.142,1.857,151.0
79.451,-0.136,1.391,165.0
79.459,-0.13,0.925,157.0
76.079,-0.119,0.433,13.0
45.814,-0.068,-0.006,19.0
38.88,-0.055,-0.233,13.0
79.451,-0.105,1.689,151.0
79.457,-0.1,1.223,156.0
79.463,-0.094,0.758,150.0
56.121,-0.063,0.201,15.0
0.0,0.0,0.0,0.0
38.156,-0.037,-0.309,2.0
79.453,-0.072,1.521,164.0
79.458,-0.067,1.056,157.0
79.18,-0.061,0.589,9.0
48.227,-0.034,0.072,4.0
39.543,-0.026,-0.172,27.0
32.988,-0.019,-0.337,1.0
79.456,-0.041,1.353,155.0
79.459,-0.037,0.888,191.0
61.84,-0.025,0.329,11.0
0.0,0.0,0.0,0.0
38.497,-0.011,-0.249,8.0
30.695,-0.007,-0.378,1.0
79.459,-0.013,1.183,151.0
79.429,-0.009,0.719,143.0
55.815,-0.003,0.178,26.0
40.628,0.0,-0.111,17.0
34.341,0.001,-0.295,0.0
29.398,0.002,-0.424,2.0
79.466,0.01,1.016,151.0
76.212,0.013,0.529,18.0
47.715,0.011,0.051,21.0
39.082,0.01,-0.19,15.0
32.1,0.01,-0.344,1.0
28.035,0.01,-0.464,1.0
79.463,0.032,0.846,151.0
59.338,0.026,0.285,8.0
0.0,0.0,0.0,0.0
38.24,0.02,-0.267,6.0
30.235,0.017,-0.388,1.0
26.824,0.016,-0.502,2.0
79.398,0.051,0.677,31.0
0.0,0.0,0.0,0.0
40.143,0.028,-0.127,16.0
33.524,0.025,-0.306,1.0
29.03,0.023,-0.435,2.0
25.637,0.021,-0.534,2.0
75.939,0.064,0.486,15.0
0.0,0.0,0.0,0.0
38.813,0.035,-0.206,14.0
31.477,0.029,-0.354,1.0
27.595,0.026,-0.472,2.0
24.321,0.024,-0.559,2.0
58.191,0.058,0.246,8.0
0.0,0.0,0.0,0.0
38.163,0.04,-0.285,2.0
29.798,0.032,-0.4,1.0
26.424,0.029,-0.51,2.0
23.339,0.026,-0.587,3.0
52.417,0.059,0.109,6.0
39.422,0.045,-0.148,37.0
33.151,0.039,-0.319,1.0
28.599,0.034,-0.445,2.0
25.222,0.03,-0.54,2.0
22.494,0.027,-0.614,2.0
0.0,0.0,0.0,0.0
38.431,0.047,-0.227,11.0
31.063,0.038,-0.365,1.0
27.166,0.034,-0.481,2.0
23.927,0.03,-0.564,3.0
21.514,0.027,-0.633,2.0
40.616,0.051,-0.089,17.0
38.027,0.048,-0.305,0.0
29.579,0.038,-0.411,2.0
26.101,0.034,-0.518,1.0
23.123,0.03,-0.594,3.0
20.656,0.027,-0.652,2.0
39.085,0.05,-0.169,34.0
32.573,0.041,-0.332,1.0
28.177,0.036,-0.451,1.0
24.739,0.032,-0.544,2.0
22.203,0.028,-0.618,2.0
19.808,0.025,-0.667,2.0
38.242,0.048,-0.246,5.0
30.549,0.038,-0.375,1.0
26.893,0.033,-0.488,2.0
23.668,0.029,-0.57,3.0
21.297,0.026,-0.638,2.0
18.934,0.023,-0.678,3.0
33.713,0.04,-0.288,0.0
29.286,0.034,-0.422,2.0
25.83,0.03,-0.523,1.0
22.893,0.026,-0.6,3.0
20.438,0.023,-0.655,2.0
18.404,0.021,-0.698,1.0
31.873,0.034,-0.34,1.0
27.879,0.03,-0.46,2.0
24.463,0.026,-0.547,2.0
21.906,0.023,-0.62,4.0
19.531,0.02,-0.667,3.0
17.751,0.018,-0.71,1.0
30.074,0.028,-0.383,1.0
26.663,0.025,-0.496,2.0
23.493,0.021,-0.574,2.0
21.073,0.019,-0.641,3.0
18.815,0.016,-0.682,3.0
17.191,0.015,-0.724,1.0
28.901,0.022,-0.429,2.0
25.542,0.019,-0.528,1.0
22.663,0.016,-0.602,3.0
20.209,0.014,-0.657,2.0
18.207,0.012,-0.698,1.0
15.971,0.01,-0.706,1.0
27.434,0.015,-0.465,1.0
24.173,0.013,-0.551,2.0
21.732,0.011,-0.622,4.0
19.363,0.009,-0.67,3.0
17.602,0.008,-0.712,1.0
15.883,0.006,-0.735,16.0
26.408,0.008,-0.502,2.0
23.293,0.006,-0.579,3.0
20.885,0.005,-0.642,3.0
18.711,0.004,-0.686,3.0
17.079,0.003,-0.726,0.0
15.676,0.002,-0.759,2.0
25.167,0.001,-0.53,1.0
22.515,0.0,-0.606,3.0
20.039,0.0,-0.657,2.0
18.056,-0.001,-0.699,1.0
15.925,-0.001,-0.71,2.0
15.077,-0.002,-0.761,1.0
23.983,-0.006,-0.555,3.0
21.524,-0.006,-0.624,3.0
19.178,-0.006,-0.668,3.0
17.505,-0.007,-0.714,1.0
15.885,-0.007,-0.741,9.0
14.665,-0.007,-0.77,1.0
23.137,-0.014,-0.583,3.0
20.698,-0.014,-0.642,2.0
18.606,-0.013,-0.686,3.0
16.938,-0.013,-0.726,0.0
15.416,-0.012,-0.751,1.0
14.262,-0.012,-0.778,0.0
22.314,-0.022,-0.607,3.0
19.868,-0.021,-0.657,2.0
17.982,-0.02,-0.7,1.0
16.079,-0.019,-0.721,0.0
15.001,-0.018,-0.761,1.0
13.85,-0.017,-0.784,1.0
21.355,-0.031,-0.624,2.0
19.057,-0.028,-0.669,3.0
17.39,-0.027,-0.712,1.0
15.788,-0.025,-0.74,2.0
14.598,-0.024,-0.77,1.0
13.519,-0.023,-0.792,1.0
20.543,-0.039,-0.642,2.0
18.454,-0.036,-0.684,1.0
16.812,-0.034,-0.722,1.0
15.341,-0.032,-0.75,1.0
14.193,-0.03,-0.777,1.0
13.225,-0.029,-0.801,1.0
19.73,-0.047,-0.656,2.0
17.855,-0.044,-0.698,2.0
16.221,-0.041,-0.729,1.0
14.946,-0.039,-0.76,1.0
13.83,-0.037,-0.784,1.0
12.919,-0.035,-0.808,0.0
19.039,-0.056,-0.67,2.0
17.298,-0.052,-0.709,1.0
15.772,-0.048,-0.739,1.0
14.559,-0.046,-0.769,1.0
13.494,-0.043,-0.792,1.0
12.618,-0.041,-0.814,0.0
18.376,-0.064,-0.682,2.0
16.792,-0.06,-0.721,1.0
15.318,-0.056,-0.747,1.0
14.171,-0.053,-0.776,1.0
13.202,-0.05,-0.8,1.0
12.354,-0.048,-0.821,0.0
17.836,-0.073,-0.696,1.0
16.221,-0.067,-0.728,1.0
14.935,-0.063,-0.757,1.0
13.799,-0.06,-0.782,1.0
12.911,-0.057,-0.807,0.0
12.079,-0.054,-0.826,0.0
17.303,-0.081,-0.708,1.0
15.733,-0.075,-0.736,1.0
14.57,-0.071,-0.766,1.0
13.509,-0.067,-0.791,1.0
12.625,-0.064,-0.813,0.0
11.82,-0.061,-0.83,0.0
16.784,-0.09,-0.718,1.0
15.342,-0.084,-0.746,1.0
14.197,-0.079,-0.773,1.0
13.227,-0.074,-0.799,1.0
12.367,-0.071,-0.819,0.0
11.617,-0.068,-0.838,0.0
16.246,-0.098,-0.725,1.0
14.982,-0.092,-0.756,1.0
13.849,-0.086,-0.78,0.0
12.959,-0.082,-0.807,0.0
12.107,-0.078,-0.824,0.0
11.393,-0.074,-0.843,0.0
15.812,-0.107,-0.735,1.0
14.599,-0.1,-0.763,1.0
13.563,-0.095,-0.788,1.0
12.656,-0.09,-0.811,1.0
11.86,-0.085,-0.829,1.0
11.174,-0.081,-0.847,0.0
15.402,-0.116,-0.743,1.0
14.244,-0.109,-0.77,1.0
13.28,-0.103,-0.796,1.0
12.409,-0.097,-0.817,0.0
11.665,-0.093,-0.837,0.0
10.982,-0.089,-0.852,0.0
15.062,-0.125,-0.754,1.0
13.92,-0.117,-0.777,1.0
13.015,-0.111,-0.803,0.0
12.165,-0.105,-0.823,0.0
11.442,-0.1,-0.841,0.0
10.727,-0.095,-0.851,1.0
14.696,-0.134,-0.761,1.0
13.618,-0.126,-0.785,1.0
12.748,-0.119,-0.809,0.0
11.924,-0.113,-0.827,1.0
11.228,-0.108,-0.845,0.0
10.606,-0.103,-0.86,1.0
14.35,-0.143,-0.768,1.0
13.336,-0.134,-0.791,1.0
12.495,-0.128,-0.814,0.0
11.72,-0.121,-0.833,0.0
11.032,-0.115,-0.849,0.0
10.438,-0.11,-0.864,0.0
14.041,-0.152,-0.775,1.0
13.115,-0.144,-0.8,1.0
12.259,-0.136,-0.819,0.0
11.509,-0.129,-0.838,0.0
10.859,-0.123,-0.854,0.0
10.213,-0.117,-0.863,0.0
13.731,-0.161,-0.781,1.0
12.856,-0.153,-0.806,1.0
12.011,-0.144,-0.823,1.0
11.317,-0.137,-0.843,0.0
10.684,-0.131,-0.858,0.0
10.093,-0.125,-0.869,1.0
13.471,-0.171,-0.788,1.0
12.591,-0.161,-0.81,0.0
11.813,-0.153,-0.829,0.0
11.121,-0.146,-0.846,0.0
10.508,-0.139,-0.861,0.0
9.94,-0.133,-0.873,1.0
13.238,-0.18,-0.796,0.0
12.37,-0.17,-0.815,0.0
11.631,-0.162,-0.834,0.0
10.956,-0.154,-0.851,0.0
10.342,-0.147,-0.864,0.0
9.811,-0.141,-0.877,0.0
12.989,-0.19,-0.801,0.0
12.154,-0.179,-0.82,0.0
11.436,-0.17,-0.838,0.0
10.782,-0.162,-0.854,0.0
10.18,-0.155,-0.866,0.0
9.675,-0.148,-0.88,0.0
12.758,-0.199,-0.806,1.0
11.941,-0.188,-0.824,1.0
11.264,-0.179,-0.843,0.0
10.627,-0.171,-0.858,0.0
10.02,-0.162,-0.868,2.0
9.538,-0.156,-0.882,0.0
12.53,-0.208,-0.811,0.0
11.766,-0.197,-0.83,0.0
11.1,-0.188,-0.847,0.0
10.46,-0.179,-0.86,0.0
9.885,-0.17,-0.87,2.0
9.438,-0.164,-0.886,0.0
12.331,-0.218,-0.816,0.0
11.598,-0.207,-0.835,0.0
10.93,-0.197,-0.85,0.0
10.318,-0.187,-0.864,0.0
9.781,-0.179,-0.876,2.0
9.323,-0.172,-0.889,0.0
12.138,-0.227,-0.82,1.0
11.432,-0.216,-0.839,0.0
10.782,-0.206,-0.854,0.0
10.148,-0.195,-0.864,0.0
9.684,-0.188,-0.881,0.0
9.194,-0.18,-0.89,0.0
11.95,-0.237,-0.825,1.0
11.257,-0.225,-0.842,0.0
10.63,-0.214,-0.857,0.0
10.003,-0.203,-0.865,0.0
9.54,-0.196,-0.881,0.0
9.073,-0.188,-0.891,0.0
11.778,-0.247,-0.829,0.0
11.112,-0.235,-0.846,0.0
10.499,-0.223,-0.86,0.0
9.873,-0.212,-0.867,2.0
9.434,-0.204,-0.884,0.0
8.961,-0.196,-0.892,0.0
11.638,-0.257,-0.834,0.0
10.938,-0.243,-0.847,0.0
10.365,-0.233,-0.863,0.0
9.78,-0.221,-0.872,2.0
9.311,-0.212,-0.885,0.0
8.866,-0.204,-0.894,0.0
11.471,-0.266,-0.837,0.0
10.818,-0.253,-0.852,0.0
10.204,-0.241,-0.863,0.0
9.723,-0.231,-0.879,0.0
9.204,-0.22,-0.886,0.0
8.764,-0.212,-0.895,0.0
11.324,-0.276,-0.84,0.0
10.691,-0.263,-0.855,0.0
10.066,-0.249,-0.864,0.0
9.582,-0.239,-0.879,0.0
9.136,-0.23,-0.891,0.0
8.687,-0.22,-0.898,0.0
11.177,-0.286,-0.843,1.0
10.564,-0.272,-0.858,0.0
9.951,-0.258,-0.866,1.0
9.482,-0.248,-0.881,0.0
9.033,-0.238,-0.891,0.0
8.612,-0.229,-0.9,0.0
11.049,-0.296,-0.846,0.0
10.431,-0.281,-0.859,0.0
9.839,-0.267,-0.867,2.0
9.411,-0.257,-0.885,0.0
8.956,-0.247,-0.894,0.0
8.53,-0.237,-0.901,0.0
10.917,-0.306,-0.848,0.0
10.327,-0.291,-0.862,0.0
9.778,-0.278,-0.873,2.0
9.299,-0.266,-0.885,0.0
8.861,-0.255,-0.894,0.0
8.459,-0.245,-0.903,0.0
10.802,-0.316,-0.851,0.0
10.206,-0.3,-0.863,0.0
9.719,-0.288,-0.878,0.0
9.2,-0.274,-0.885,0.0
8.775,-0.263,-0.895,0.0
8.387,-0.254,-0.904,0.0
10.694,-0.326,-0.854,0.0
10.086,-0.309,-0.863,0.0
9.6,-0.296,-0.877,0.0
9.13,-0.284,-0.888,0.0
8.695,-0.272,-0.896,0.0
8.335,-0.262,-0.907,0.0
10.589,-0.336,-0.856,0.0
9.976,-0.318,-0.864,0.0
9.502,-0.305,-0.878,0.0
9.065,-0.293,-0.89,0.0
8.634,-0.281,-0.898,0.0
8.264,-0.271,-0.908,0.0
10.48,-0.346,-0.857,0.0
9.887,-0.328,-0.866,1.0
9.45,-0.316,-0.882,0.0
8.969,-0.301,-0.89,0.0
8.568,-0.29,-0.899,0.0
8.2,-0.279,-0.908,0.0
10.391,-0.356,-0.859,0.0
9.807,-0.338,-0.868,2.0
9.387,-0.326,-0.884,0.0
8.915,-0.311,-0.892,0.0
8.509,-0.299,-0.901,0.0
8.152,-0.288,-0.91,0.0
10.312,-0.366,-0.862,0.0
9.769,-0.349,-0.873,2.0
9.303,-0.335,-0.885,0.0
8.825,-0.319,-0.891,0.0
8.448,-0.308,-0.902,0.0
8.103,-0.297,-0.912,0.0
10.198,-0.375,-0.861,0.0
9.721,-0.36,-0.876,1.0
9.245,-0.344,-0.887,0.0
8.78,-0.329,-0.893,0.0
8.377,-0.316,-0.901,0.0
8.038,-0.305,-0.911,0.0
10.11,-0.385,-0.862,0.0
9.654,-0.37,-0.878,0.0
9.174,-0.354,-0.887,0.0
8.73,-0.339,-0.895,0.0
8.353,-0.326,-0.905,0.0
8.002,-0.314,-0.913,0.0
10.033,-0.395,-0.862,1.0
9.588,-0.38,-0.879,0.0
9.115,-0.363,-0.888,0.0
8.665,-0.348,-0.895,0.0
8.312,-0.335,-0.906,0.0
7.97,-0.323,-0.915,0.0
9.955,-0.405,-0.863,2.0
9.508,-0.389,-0.878,0.0
9.044,-0.373,-0.887,0.0
8.628,-0.357,-0.897,0.0
8.267,-0.344,-0.907,0.0
7.94,-0.333,-0.917,0.0
9.913,-0.417,-0.866,2.0
9.446,-0.399,-0.879,0.0
8.984,-0.382,-0.887,0.0
8.58,-0.367,-0.897,0.0
8.211,-0.353,-0.906,0.0
7.898,-0.341,-0.917,0.0
9.853,-0.427,-0.866,3.0
9.4,-0.41,-0.88,0.0
8.951,-0.392,-0.889,0.0
8.543,-0.376,-0.899,0.0
8.189,-0.363,-0.909,0.0
7.869,-0.351,-0.918,0.0
9.807,-0.438,-0.868,3.0
9.362,-0.421,-0.882,0.0
8.903,-0.402,-0.89,0.0
8.509,-0.386,-0.9,0.0
8.133,-0.371,-0.907,0.0
7.828,-0.359,-0.918,0.0
9.78,-0.45,-0.871,2.0
9.331,-0.431,-0.884,0.0
8.85,-0.411,-0.889,0.0
8.465,-0.395,-0.899,0.0
8.124,-0.381,-0.91,0.0
7.814,-0.369,-0.92,0.0
9.764,-0.462,-0.874,2.0
9.286,-0.442,-0.884,0.0
8.845,-0.423,-0.893,0.0
8.42,-0.404,-0.899,0.0
8.085,-0.39,-0.909,0.0
7.781,-0.378,-0.92,0.0
9.748,-0.474,-0.877,1.0
9.246,-0.452,-0.884,0.0
8.797,-0.432,-0.891,0.0
8.412,-0.415,-0.901,0.0
8.075,-0.4,-0.911,0.0
7.752,-0.386,-0.919,0.0
9.709,-0.485,-0.877,1.0
9.219,-0.463,-0.885,0.0
8.761,-0.442,-0.891,0.0
8.385,-0.425,-0.901,0.0
8.048,-0.41,-0.911,0.0
7.742,-0.396,-0.921,0.0
9.676,-0.496,-0.878,0.0
9.196,-0.474,-0.886,0.0
8.746,-0.452,-0.892,0.0
8.368,-0.435,-0.902,0.0
8.035,-0.42,-0.912,0.0
7.717,-0.405,-0.92,0.0
9.64,-0.507,-0.877,0.0
9.155,-0.483,-0.885,0.0
8.738,-0.463,-0.894,0.0
8.359,-0.445,-0.904,0.0
7.993,-0.428,-0.91,0.0
7.718,-0.415,-0.922,0.0
9.603,-0.517,-0.876,0.0
9.154,-0.495,-0.887,0.0
8.709,-0.473,-0.893,0.0
8.337,-0.455,-0.903,0.0
8.006,-0.439,-0.913,0.0
7.693,-0.424,-0.921,0.0
9.594,-0.529,-0.878,0.0
9.126,-0.506,-0.886,0.0
8.705,-0.484,-0.895,0.0
8.321,-0.465,-0.903,0.0
7.965,-0.447,-0.91,0.0
7.668,-0.433,-0.92,0.0
9.569,-0.54,-0.877,0.0
9.116,-0.517,-0.887,0.0
8.695,-0.495,-0.895,0.0
8.317,-0.476,-0.904,0.0
7.979,-0.458,-0.913,0.0
7.665,-0.442,-0.92,0.0
9.556,-0.552,-0.877,0.0
9.12,-0.529,-0.888,0.0
8.679,-0.505,-0.894,0.0
8.317,-0.486,-0.905,0.0
7.998,-0.47,-0.916,0.0
7.68,-0.453,-0.923,0.0
9.561,-0.564,-0.878,0.0
9.118,-0.54,-0.889,0.0
8.673,-0.516,-0.894,0.0
8.316,-0.497,-0.905,0.0
7.969,-0.478,-0.913,0.0
7.668,-0.462,-0.922,0.0
9.56,-0.576,-0.878,0.0
9.113,-0.551,-0.889,0.0
8.667,-0.527,-0.894,0.0
8.303,-0.507,-0.904,0.0
7.973,-0.488,-0.913,0.0
7.666,-0.471,-0.921,0.0
9.568,-0.589,-0.879,0.0
9.126,-0.564,-0.89,0.0
8.666,-0.537,-0.893,0.0
8.298,-0.517,-0.903,0.0
7.979,-0.499,-0.913,0.0
7.679,-0.482,-0.923,0.0
9.571,-0.601,-0.879,0.0
9.117,-0.574,-0.888,0.0
8.671,-0.548,-0.893,0.0
8.307,-0.527,-0.903,0.0
7.984,-0.509,-0.913,0.0
7.675,-0.491,-0.921,0.0
9.58,-0.613,-0.879,0.0
9.135,-0.587,-0.889,0.0
8.688,-0.56,-0.894,0.0
8.332,-0.539,-0.905,0.0
7.995,-0.519,-0.913,0.0
7.693,-0.502,-0.922,0.0
9.591,-0.625,-0.878,0.0
9.12,-0.597,-0.886,0.0
8.689,-0.571,-0.893,0.0
8.34,-0.55,-0.905,0.0
7.987,-0.528,-0.911,0.0
7.702,-0.512,-0.922,0.0
9.588,-0.636,-0.876,0.0
9.16,-0.61,-0.888,0.0
8.7,-0.582,-0.892,0.0
8.333,-0.559,-0.902,0.0
8.017,-0.54,-0.913,0.0
7.725,-0.522,-0.923,0.0
9.608,-0.649,-0.876,0.0
9.171,-0.622,-0.887,0.0
8.734,-0.594,-0.894,0.0
8.364,-0.571,-0.904,0.0
8.023,-0.55,-0.912,0.0
7.735,-0.532,-0.922,0.0
9.661,-0.664,-0.878,0.0
9.193,-0.634,-0.887,0.0
8.743,-0.605,-0.892,0.0
8.38,-0.582,-0.903,0.0
8.04,-0.56,-0.911,0.0
7.755,-0.542,-0.922,0.0
9.688,-0.677,-0.878,0.0
9.209,-0.645,-0.885,0.0
8.776,-0.617,-0.893,0.0
8.408,-0.593,-0.903,0.0
8.061,-0.57,-0.911,0.0
7.766,-0.551,-0.921,0.0
9.736,-0.691,-0.879,1.0
9.243,-0.658,-0.885,0.0
8.792,-0.628,-0.891,0.0
8.416,-0.603,-0.901,0.0
8.078,-0.58,-0.91,0.0
7.788,-0.561,-0.92,0.0
9.745,-0.702,-0.876,2.0
9.276,-0.67,-0.885,0.0
8.85,-0.641,-0.893,0.0
8.458,-0.615,-0.902,0.0
8.109,-0.592,-0.91,0.0
7.808,-0.571,-0.919,0.0
9.772,-0.714,-0.874,2.0
9.308,-0.682,-0.884,0.0
8.87,-0.652,-0.891,0.0
8.495,-0.627,-0.902,0.0
8.138,-0.602,-0.909,0.0
7.83,-0.581,-0.918,0.0
9.795,-0.726,-0.871,3.0
9.344,-0.695,-0.883,0.0
8.924,-0.666,-0.892,0.0
8.524,-0.638,-0.901,0.0
8.182,-0.614,-0.91,0.0
7.853,-0.591,-0.917,0.0
9.826,-0.739,-0.869,3.0
9.401,-0.709,-0.883,0.0
8.947,-0.676,-0.89,0.0
8.568,-0.65,-0.901,0.0
8.207,-0.624,-0.908,0.0
7.893,-0.602,-0.917,0.0
9.868,-0.751,-0.867,2.0
9.449,-0.721,-0.883,0.0
8.992,-0.689,-0.889,0.0
8.582,-0.659,-0.897,0.0
8.241,-0.635,-0.907,0.0
7.926,-0.612,-0.916,0.0
9.916,-0.765,-0.866,2.0
9.49,-0.734,-0.881,0.0
9.039,-0.701,-0.889,0.0
8.631,-0.671,-0.897,0.0
8.287,-0.646,-0.907,0.0
7.96,-0.623,-0.915,0.0
9.964,-0.778,-0.864,1.0
9.533,-0.746,-0.879,0.0
9.083,-0.713,-0.887,0.0
8.68,-0.683,-0.896,0.0
8.316,-0.656,-0.905,0.0
7.995,-0.633,-0.914,0.0
10.025,-0.792,-0.862,1.0
9.615,-0.762,-0.88,0.0
9.176,-0.729,-0.89,0.0
8.74,-0.696,-0.896,0.0
8.365,-0.668,-0.904,0.0
8.029,-0.643,-0.912,0.0
10.118,-0.808,-0.863,0.0
9.688,-0.776,-0.879,0.0
9.227,-0.741,-0.888,0.0
8.782,-0.707,-0.894,0.0
8.409,-0.678,-0.903,0.0
8.085,-0.654,-0.913,0.0
10.205,-0.824,-0.863,0.0
9.74,-0.788,-0.877,2.0
9.28,-0.753,-0.886,0.0
8.846,-0.719,-0.894,0.0
8.476,-0.691,-0.903,0.0
8.134,-0.665,-0.912,0.0
10.315,-0.841,-0.864,0.0
9.785,-0.8,-0.873,2.0
9.332,-0.765,-0.884,0.0
8.908,-0.732,-0.893,0.0
8.54,-0.703,-0.903,0.0
8.185,-0.676,-0.911,0.0
10.387,-0.856,-0.862,0.0
9.823,-0.811,-0.869,3.0
9.404,-0.778,-0.883,0.0
8.96,-0.743,-0.891,0.0
8.579,-0.713,-0.9,0.0
8.224,-0.685,-0.908,0.0
10.498,-0.873,-0.862,0.0
9.904,-0.825,-0.867,2.0
9.47,-0.791,-0.881,0.0
9.035,-0.756,-0.891,0.0
8.626,-0.723,-0.898,0.0
8.289,-0.697,-0.908,0.0
10.562,-0.886,-0.858,0.0
9.971,-0.838,-0.864,1.0
9.565,-0.806,-0.881,0.0
9.117,-0.769,-0.891,0.0
8.7,-0.736,-0.897,0.0
8.345,-0.707,-0.906,0.0
10.671,-0.903,-0.857,0.0
10.071,-0.854,-0.864,0.0
9.644,-0.819,-0.88,0.0
9.178,-0.781,-0.888,0.0
8.758,-0.747,-0.895,0.0
8.403,-0.718,-0.905,0.0
10.775,-0.919,-0.856,0.0
10.199,-0.871,-0.865,0.0
9.745,-0.834,-0.879,2.0
9.277,-0.795,-0.889,0.0
8.843,-0.76,-0.895,0.0
8.463,-0.729,-0.903,0.0
10.875,-0.934,-0.853,1.0
10.318,-0.888,-0.865,0.0
9.785,-0.843,-0.873,3.0
9.342,-0.807,-0.885,0.0
8.947,-0.774,-0.897,0.0
8.538,-0.74,-0.902,0.0
10.967,-0.949,-0.849,1.0
10.403,-0.901,-0.862,0.0
9.861,-0.856,-0.87,3.0
9.418,-0.819,-0.883,0.0
9.003,-0.784,-0.893,0.0
8.619,-0.752,-0.902,0.0
11.059,-0.963,-0.845,2.0
10.537,-0.919,-0.862,0.0
9.927,-0.867,-0.865,1.0
9.516,-0.833,-0.882,0.0
9.088,-0.796,-0.892,0.0
8.684,-0.762,-0.899,0.0
11.165,-0.978,-0.841,0.0
10.616,-0.931,-0.857,1.0
10.05,-0.883,-0.866,0.0
9.624,-0.847,-0.882,0.0
9.163,-0.807,-0.889,0.0
8.751,-0.772,-0.897,0.0
11.29,-0.994,-0.838,0.0
10.728,-0.946,-0.854,1.0
10.202,-0.901,-0.867,0.0
9.745,-0.862,-0.882,1.0
9.268,-0.821,-0.889,0.0
8.842,-0.784,-0.896,0.0
11.43,-1.012,-0.836,0.0
10.825,-0.959,-0.85,0.0
10.324,-0.916,-0.866,0.0
9.787,-0.87,-0.875,3.0
9.36,-0.833,-0.887,0.0
8.946,-0.797,-0.896,0.0
11.601,-1.032,-0.835,0.0
10.976,-0.977,-0.849,0.0
10.425,-0.929,-0.863,1.0
9.864,-0.88,-0.87,2.0
9.452,-0.845,-0.885,0.0
9.025,-0.808,-0.894,0.0
11.744,-1.049,-0.832,0.0
11.09,-0.992,-0.845,0.0
10.527,-0.942,-0.859,2.0
9.964,-0.893,-0.867,1.0
9.559,-0.858,-0.884,0.0
9.132,-0.82,-0.893,0.0
11.885,-1.065,-0.828,0.0
11.221,-1.007,-0.842,0.0
10.631,-0.955,-0.855,0.0
10.121,-0.91,-0.869,0.0
9.695,-0.873,-0.884,0.0
9.223,-0.831,-0.891,0.0
12.033,-1.082,-0.824,0.0
11.346,-1.021,-0.837,0.0
10.781,-0.971,-0.853,0.0
10.243,-0.924,-0.867,0.0
9.764,-0.882,-0.879,2.0
9.342,-0.844,-0.891,0.0
12.206,-1.101,-0.821,0.0
11.543,-1.042,-0.838,0.0
10.923,-0.987,-0.851,0.0
10.373,-0.938,-0.865,1.0
9.841,-0.891,-0.873,3.0
9.431,-0.854,-0.888,0.0
12.384,-1.119,-0.817,1.0
11.68,-1.057,-0.833,0.0
11.068,-1.002,-0.848,0.0
10.482,-0.95,-0.861,1.0
9.941,-0.901,-0.869,2.0
9.53,-0.865,-0.885,0.0
12.508,-1.133,-0.809,0.0
11.836,-1.073,-0.829,0.0
11.17,-1.013,-0.842,0.0
10.608,-0.963,-0.857,0.0
10.085,-0.916,-0.869,0.0
9.655,-0.877,-0.884,0.0
12.657,-1.148,-0.802,0.0
12.017,-1.09,-0.826,0.0
11.354,-1.031,-0.841,0.0
10.77,-0.979,-0.856,0.0
10.241,-0.931,-0.869,0.0
9.764,-0.888,-0.881,2.0
13.003,-1.18,-0.808,0.0
12.196,-1.108,-0.822,0.0
11.512,-1.046,-0.837,0.0
10.916,-0.992,-0.853,0.0
10.346,-0.941,-0.864,1.0
9.838,-0.895,-0.874,3.0
13.269,-1.205,-0.806,0.0
12.364,-1.123,-0.817,1.0
11.693,-1.063,-0.835,0.0
11.061,-1.006,-0.85,0.0
10.496,-0.955,-0.862,1.0
9.95,-0.906,-0.871,1.0
13.437,-1.221,-0.799,0.0
12.505,-1.136,-0.81,0.0
11.875,-1.079,-0.832,0.0
11.202,-1.018,-0.846,0.0
10.613,-0.965,-0.858,0.0
10.105,-0.919,-0.87,0.0
13.634,-1.238,-0.792,0.0
12.684,-1.152,-0.804,0.0
12.031,-1.093,-0.826,0.0
11.337,-1.03,-0.84,0.0
10.778,-0.979,-0.856,0.0
10.256,-0.932,-0.869,1.0
13.852,-1.256,-0.786,0.0
13.008,-1.18,-0.807,0.0
12.224,-1.109,-0.823,0.0
11.542,-1.047,-0.84,0.0
10.941,-0.993,-0.854,0.0
10.381,-0.942,-0.866,1.0
14.092,-1.276,-0.78,0.0
13.312,-1.206,-0.807,0.0
12.394,-1.122,-0.817,1.0
11.7,-1.06,-0.835,0.0
11.084,-1.004,-0.85,0.0
10.508,-0.952,-0.861,1.0
14.407,-1.302,-0.777,1.0
13.489,-1.219,-0.799,0.0
12.574,-1.136,-0.811,0.0
11.896,-1.075,-0.832,0.0
11.232,-1.015,-0.845,0.0
10.658,-0.963,-0.859,0.0
14.637,-1.32,-0.769,0.0
13.691,-1.234,-0.792,0.0
12.71,-1.146,-0.802,0.0
12.077,-1.089,-0.827,0.0
11.419,-1.029,-0.843,0.0
10.819,-0.975,-0.856,0.0
14.931,-1.343,-0.763,0.0
13.919,-1.251,-0.785,0.0
12.96,-1.165,-0.8,0.0
12.279,-1.103,-0.824,0.0
11.573,-1.04,-0.838,0.0
11.009,-0.989,-0.855,0.0
15.27,-1.369,-0.759,0.0
14.172,-1.27,-0.779,0.0
13.414,-1.201,-0.809,0.0
12.479,-1.117,-0.82,0.0
11.755,-1.052,-0.834,0.0
11.126,-0.995,-0.849,0.0
15.563,-1.389,-0.752,0.0
14.478,-1.292,-0.776,0.0
13.535,-1.207,-0.797,0.0
12.663,-1.129,-0.813,1.0
11.944,-1.064,-0.831,0.0
11.292,-1.006,-0.845,0.0
15.99,-1.421,-0.749,1.0
14.744,-1.31,-0.769,0.0
13.762,-1.222,-0.79,0.0
12.842,-1.139,-0.806,0.0
12.138,-1.076,-0.826,0.0
11.477,-1.017,-0.842,0.0
16.279,-1.44,-0.74,6.0
15.049,-1.33,-0.763,0.0
13.993,-1.236,-0.783,0.0
13.042,-1.151,-0.8,0.0
12.337,-1.088,-0.822,0.0
11.662,-1.028,-0.839,0.0
16.327,-1.436,-0.718,9.0
15.384,-1.352,-0.758,0.0
14.345,-1.26,-0.783,0.0
13.364,-1.173,-0.801,0.0
12.557,-1.101,-0.819,0.0
11.846,-1.038,-0.835,0.0
16.375,-1.432,-0.697,7.0
15.741,-1.375,-0.753,1.0
14.548,-1.27,-0.772,0.0
13.602,-1.186,-0.795,0.0
12.768,-1.112,-0.814,0.0
12.019,-1.046,-0.83,0.0
16.678,-1.449,-0.686,2.0
16.147,-1.401,-0.749,2.0
14.856,-1.288,-0.767,0.0
13.784,-1.194,-0.786,0.0
12.995,-1.124,-0.81,1.0
12.219,-1.056,-0.826,0.0
17.827,-1.538,-0.707,0.0
16.287,-1.404,-0.732,10.0
15.198,-1.308,-0.763,0.0
14.045,-1.208,-0.78,0.0
13.215,-1.135,-0.804,1.0
12.437,-1.067,-0.822,0.0
18.237,-1.562,-0.697,0.0
16.345,-1.398,-0.711,7.0
15.537,-1.327,-0.757,0.0
14.502,-1.237,-0.785,0.0
13.465,-1.147,-0.8,1.0
12.635,-1.075,-0.817,0.0
18.683,-1.587,-0.687,1.0
16.452,-1.395,-0.692,2.0
15.859,-1.343,-0.75,0.0
14.659,-1.24,-0.772,0.0
13.667,-1.154,-0.792,1.0
12.843,-1.083,-0.812,0.0
19.168,-1.614,-0.677,1.0
17.595,-1.479,-0.714,0.0
16.222,-1.362,-0.744,1.0
14.998,-1.257,-0.768,0.0
13.861,-1.16,-0.783,1.0
13.092,-1.094,-0.809,0.0
19.675,-1.641,-0.667,0.0
18.009,-1.5,-0.705,0.0
16.317,-1.357,-0.725,1.0
15.358,-1.275,-0.765,0.0
14.076,-1.166,-0.775,0.0
13.345,-1.104,-0.805,1.0
20.259,-1.673,-0.658,0.0
18.445,-1.52,-0.696,0.0
16.378,-1.348,-0.704,1.0
15.679,-1.288,-0.758,0.0
14.402,-1.181,-0.772,0.0
13.585,-1.112,-0.8,2.0
20.798,-1.7,-0.645,0.0
18.919,-1.543,-0.687,1.0
17.165,-1.397,-0.713,0.0
15.975,-1.298,-0.75,0.0
14.631,-1.186,-0.764,0.0
13.789,-1.116,-0.793,3.0
21.429,-1.732,-0.635,0.0
19.403,-1.565,-0.677,0.0
17.753,-1.429,-0.712,0.0
16.263,-1.306,-0.74,1.0
14.824,-1.188,-0.753,0.0
14.012,-1.121,-0.785,5.0
22.04,-1.76,-0.622,1.0
19.946,-1.589,-0.667,0.0
18.113,-1.44,-0.701,0.0
16.376,-1.299,-0.722,1.0
15.285,-1.21,-0.754,0.0
14.261,-1.127,-0.779,1.0
22.656,-1.787,-0.607,1.0
20.463,-1.61,-0.656,0.0
18.602,-1.46,-0.694,0.0
16.925,-1.325,-0.723,0.0
15.662,-1.224,-0.751,0.0
14.563,-1.135,-0.775,4.0
23.345,-1.817,-0.593,1.0
21.014,-1.632,-0.645,0.0
19.023,-1.473,-0.684,1.0
17.435,-1.347,-0.72,0.0
16.011,-1.234,-0.746,0.0
14.79,-1.137,-0.767,1.0
24.022,-1.844,-0.577,1.0
21.585,-1.652,-0.632,1.0
19.495,-1.488,-0.673,0.0
17.813,-1.356,-0.711,0.0
16.242,-1.234,-0.734,1.0
15.213,-1.152,-0.768,1.0
24.915,-1.884,-0.564,1.0
22.243,-1.677,-0.62,1.0
20.05,-1.508,-0.665,0.0
18.229,-1.367,-0.702,1.0
16.468,-1.232,-0.721,0.0
15.524,-1.158,-0.762,1.0
25.69,-1.913,-0.546,1.0
22.85,-1.697,-0.606,1.0
20.598,-1.525,-0.655,0.0
18.662,-1.378,-0.694,1.0
16.978,-1.25,-0.721,0.0
15.849,-1.163,-0.756,8.0
26.387,-1.933,-0.525,1.0
23.476,-1.715,-0.591,1.0
21.179,-1.542,-0.645,0.0
19.122,-1.388,-0.685,0.0
17.486,-1.266,-0.719,0.0
16.045,-1.158,-0.744,6.0
27.106,-1.952,-0.504,1.0
24.265,-1.742,-0.579,1.0
21.706,-1.553,-0.632,1.0
19.561,-1.395,-0.675,0.0
17.759,-1.263,-0.706,0.0
16.437,-1.165,-0.74,3.0
28.133,-1.99,-0.485,1.0
25.039,-1.765,-0.564,1.0
22.307,-1.568,-0.62,1.0
20.18,-1.413,-0.67,0.0
18.106,-1.264,-0.696,0.0
16.711,-1.163,-0.731,3.0
29.043,-2.017,-0.463,1.0
25.708,-1.779,-0.546,1.0
22.974,-1.584,-0.609,1.0
20.487,-1.407,-0.653,0.0
18.615,-1.274,-0.692,1.0
17.049,-1.163,-0.724,1.0
29.878,-2.034,-0.438,1.0
26.405,-1.791,-0.527,1.0
23.507,-1.589,-0.593,1.0
21.224,-1.429,-0.65,0.0
19.06,-1.279,-0.684,2.0
17.441,-1.166,-0.719,0.0
30.904,-2.062,-0.414,1.0
27.125,-1.802,-0.507,1.0
24.183,-1.601,-0.58,1.0
21.481,-1.416,-0.631,0.0
19.547,-1.284,-0.677,2.0
17.858,-1.168,-0.713,0.0
32.352,-2.112,-0.394,1.0
27.905,-1.814,-0.487,1.0
24.942,-1.615,-0.567,1.0
22.174,-1.43,-0.624,0.0
19.946,-1.281,-0.667,2.0
18.218,-1.165,-0.705,0.0
33.402,-2.132,-0.366,1.0
28.764,-1.828,-0.467,1.0
25.563,-1.618,-0.55,1.0
22.909,-1.444,-0.617,0.0
20.404,-1.28,-0.657,2.0
18.669,-1.166,-0.7,2.0
35.343,-2.203,-0.344,0.0
29.64,-1.839,-0.446,1.0
26.244,-1.621,-0.533,1.0
23.319,-1.434,-0.6,1.0
20.895,-1.279,-0.648,3.0
18.953,-1.155,-0.688,3.0
37.706,-2.293,-0.322,0.0
30.523,-1.847,-0.423,1.0
26.874,-1.619,-0.514,2.0
23.835,-1.429,-0.585,1.0
21.451,-1.28,-0.64,4.0
19.351,-1.149,-0.68,6.0
0.0,0.0,0.0,0.0
31.648,-1.866,-0.402,1.0
27.581,-1.618,-0.496,2.0
24.317,-1.42,-0.569,2.0
21.923,-1.274,-0.629,4.0
19.867,-1.148,-0.676,3.0
41.103,-2.371,-0.257,0.0
32.917,-1.888,-0.381,1.0
28.437,-1.623,-0.479,1.0
25.043,-1.422,-0.558,1.0
22.361,-1.263,-0.617,4.0
20.208,-1.135,-0.665,1.0
0.0,0.0,0.0,0.0
34.549,-1.925,-0.361,0.0
29.084,-1.612,-0.458,1.0
25.764,-1.42,-0.545,1.0
22.963,-1.259,-0.608,9.0
20.638,-1.125,-0.656,1.0
0.0,0.0,0.0,0.0
36.167,-1.955,-0.338,0.0
29.781,-1.601,-0.437,1.0
26.396,-1.411,-0.53,1.0
23.45,-1.246,-0.596,11.0
21.083,-1.114,-0.648,1.0
50.425,-2.657,-0.151,2.0
0.0,0.0,0.0,0.0
30.265,-1.576,-0.412,1.0
27.025,-1.399,-0.514,1.0
23.983,-1.234,-0.584,1.0
21.496,-1.099,-0.638,1.0
50.478,-2.574,-0.099,8.0
39.936,-2.023,-0.29,0.0
31.892,-1.605,-0.402,1.0
27.947,-1.398,-0.504,7.0
24.567,-1.222,-0.574,1.0
21.967,-1.085,-0.63,1.0
50.467,-2.486,-0.048,1.0
0.0,0.0,0.0,0.0
33.037,-1.606,-0.383,3.0
28.411,-1.371,-0.484,7.0
25.195,-1.208,-0.563,1.0
22.414,-1.068,-0.621,1.0
0.0,0.0,0.0,0.0
0.0,0.0,0.0,0.0
33.755,-1.58,-0.358,9.0
28.943,-1.345,-0.464,2.0
25.662,-1.184,-0.549,1.0
22.918,-1.05,-0.612,2.0
0.0,0.0,0.0,0.0
50.382,-2.284,-0.219,0.0
34.309,-1.543,-0.332,1.0
29.466,-1.316,-0.445,2.0
26.178,-1.161,-0.535,1.0
23.296,-1.025,-0.601,2.0
0.0,0.0,0.0,0.0
50.421,-2.192,-0.172,1.0
37.769,-1.629,-0.33,3.0
30.181,-1.292,-0.428,2.0
26.633,-1.131,-0.52,1.0
23.661,-0.998,-0.589,1.0
0.0,0.0,0.0,0.0
50.528,-2.103,-0.128,1.0
37.778,-1.56,-0.297,38.0
30.723,-1.258,-0.409,1.0
27.18,-1.104,-0.507,1.0
24.131,-0.972,-0.58,1.0
0.0,0.0,0.0,0.0
37.793,-1.502,-0.063,150.0
37.775,-1.488,-0.265,93.0
31.508,-1.231,-0.393,1.0
27.682,-1.072,-0.493,1.0
24.703,-0.948,-0.573,1.0
0.0,0.0,0.0,0.0
40.141,-1.52,-0.034,13.0
40.1,-1.504,-0.248,67.0
32.441,-1.205,-0.378,1.0
28.289,-1.042,-0.481,1.0
25.093,-0.916,-0.562,1.0
0.0,0.0,0.0,0.0
0.0,0.0,0.0,0.0
0.0,0.0,0.0,0.0
33.18,-1.169,-0.36,1.0
28.731,-1.002,-0.466,1.0
25.578,-0.883,-0.552,1.0
0.0,0.0,0.0,0.0
59.751,-2.03,0.042,3.0
0.0,0.0,0.0,0.0
33.998,-1.132,-0.344,0.0
29.16,-0.96,-0.452,1.0
25.944,-0.846,-0.541,1.0
0.0,0.0,0.0,0.0
0.0,0.0,0.0,0.0
0.0,0.0,0.0,0.0
35.307,-1.106,-0.332,0.0
29.647,-0.918,-0.438,1.0
26.281,-0.805,-0.53,1.0
0.0,0.0,0.0,0.0
40.247,-1.209,0.086,0.0
40.22,-1.193,-0.13,50.0
37.387,-1.096,-0.326,0.0
30.048,-0.871,-0.424,1.0
26.629,-0.762,-0.519,1.0
40.209,-1.141,0.329,55.0
40.183,-1.126,0.112,54.0
40.966,-1.134,-0.105,154.0
40.304,-1.101,-0.325,5.0
30.426,-0.82,-0.409,1.0
26.965,-0.717,-0.508,1.0
40.2,-1.059,0.355,56.0
40.221,-1.045,0.138,9.0
