X,Y,Z,Reflectivity
8.529,-0.048,-0.902,0.0
8.221,-0.048,-0.914,0.0
7.913,-0.047,-0.922,0.0
9.908,-0.059,-0.874,0.0
9.459,-0.058,-0.885,0.0
9.044,-0.057,-0.895,0.0
8.616,-0.056,-0.9,0.0
8.287,-0.055,-0.91,0.0
7.989,-0.054,-0.92,0.0
10.039,-0.068,-0.872,0.0
9.579,-0.066,-0.883,0.0
9.171,-0.065,-0.895,0.0
8.731,-0.063,-0.9,0.0
8.391,-0.062,-0.91,0.0
8.065,-0.061,-0.918,0.0
10.172,-0.077,-0.869,0.0
9.701,-0.075,-0.881,0.0
9.249,-0.073,-0.889,0.0
8.848,-0.071,-0.899,0.0
8.469,-0.069,-0.906,0.0
8.133,-0.068,-0.914,0.0
10.335,-0.086,-0.869,0.0
9.807,-0.083,-0.877,0.0
9.369,-0.081,-0.888,0.0
8.949,-0.079,-0.896,0.0
8.567,-0.077,-0.904,0.0
8.244,-0.075,-0.914,0.0
10.467,-0.095,-0.865,0.0
9.939,-0.092,-0.874,0.0
9.486,-0.089,-0.885,0.0
9.069,-0.086,-0.895,0.0
8.677,-0.084,-0.903,0.0
8.304,-0.081,-0.909,0.0
10.632,-0.104,-0.863,0.0
10.095,-0.1,-0.873,0.0
9.602,-0.097,-0.881,0.0
9.171,-0.094,-0.891,0.0
8.766,-0.091,-0.899,0.0
8.412,-0.088,-0.908,0.0
10.751,-0.112,-0.856,1.0
10.211,-0.108,-0.867,0.0
9.763,-0.105,-0.881,1.0
9.325,-0.101,-0.892,0.0
8.898,-0.098,-0.899,0.0
8.517,-0.095,-0.906,0.0
10.956,-0.121,-0.856,0.0
10.402,-0.117,-0.867,0.0
9.887,-0.112,-0.877,1.0
9.446,-0.109,-0.889,0.0
9.023,-0.105,-0.897,0.0
8.622,-0.102,-0.903,0.0
11.132,-0.13,-0.852,0.0
10.57,-0.125,-0.864,0.0
10.032,-0.12,-0.874,1.0
9.564,-0.116,-0.885,0.0
9.133,-0.112,-0.893,0.0
8.726,-0.108,-0.9,0.0
11.323,-0.139,-0.848,0.0
10.726,-0.133,-0.86,0.0
10.152,-0.127,-0.868,1.0
9.725,-0.123,-0.884,0.0
9.283,-0.119,-0.893,0.0
8.871,-0.115,-0.9,0.0
11.504,-0.148,-0.843,0.0
10.912,-0.142,-0.857,0.0
10.362,-0.136,-0.868,0.0
9.855,-0.13,-0.879,0.0
9.407,-0.126,-0.889,0.0
8.987,-0.121,-0.897,0.0
11.69,-0.156,-0.837,0.0
11.081,-0.15,-0.852,0.0
10.532,-0.143,-0.865,0.0
9.993,-0.137,-0.875,1.0
9.565,-0.132,-0.888,0.0
9.124,-0.127,-0.895,0.0
11.911,-0.165,-0.833,0.0
11.292,-0.158,-0.849,0.0
10.707,-0.151,-0.861,0.0
10.174,-0.145,-0.873,0.0
9.719,-0.139,-0.885,0.0
9.289,-0.134,-0.895,0.0
12.135,-0.174,-0.827,0.0
11.511,-0.166,-0.845,0.0
10.897,-0.158,-0.857,0.0
10.364,-0.152,-0.871,0.0
9.862,-0.145,-0.881,1.0
9.417,-0.14,-0.891,0.0
12.398,-0.183,-0.824,0.0
11.698,-0.174,-0.838,0.0
11.102,-0.166,-0.854,0.0
10.522,-0.158,-0.866,0.0
10.003,-0.152,-0.876,2.0
9.56,-0.146,-0.887,0.0
12.631,-0.191,-0.817,0.0
11.915,-0.182,-0.833,1.0
11.317,-0.174,-0.851,0.0
10.711,-0.165,-0.862,0.0
10.137,-0.157,-0.869,0.0
9.735,-0.152,-0.886,0.0
12.907,-0.2,-0.812,0.0
12.176,-0.19,-0.83,0.0
11.512,-0.18,-0.845,0.0
10.911,-0.172,-0.859,0.0
10.369,-0.164,-0.871,0.0
9.864,-0.157,-0.88,2.0
13.204,-0.209,-0.807,0.0
12.435,-0.198,-0.825,0.0
11.717,-0.187,-0.838,0.0
11.12,-0.179,-0.855,0.0
10.58,-0.171,-0.869,0.0
10.016,-0.162,-0.875,2.0
13.48,-0.217,-0.799,1.0
12.69,-0.205,-0.819,1.0
11.942,-0.194,-0.833,1.0
11.331,-0.185,-0.85,0.0
10.753,-0.176,-0.863,0.0
10.168,-0.167,-0.87,0.0
13.752,-0.225,-0.79,0.0
12.969,-0.213,-0.812,0.0
12.214,-0.201,-0.829,0.0
11.541,-0.191,-0.845,0.0
10.961,-0.182,-0.86,0.0
10.406,-0.174,-0.871,0.0
14.077,-0.233,-0.783,1.0
13.257,-0.221,-0.806,0.0
12.479,-0.208,-0.824,0.0
11.766,-0.197,-0.839,1.0
11.169,-0.188,-0.855,0.0
10.626,-0.179,-0.869,0.0
14.434,-0.242,-0.775,1.0
13.548,-0.228,-0.798,1.0
12.737,-0.215,-0.816,0.0
12.004,-0.203,-0.833,0.0
11.389,-0.193,-0.85,0.0
10.799,-0.184,-0.862,0.0
14.846,-0.251,-0.769,1.0
13.826,-0.234,-0.788,1.0
13.04,-0.222,-0.811,0.0
12.278,-0.209,-0.829,0.0
11.614,-0.198,-0.845,0.0
11.018,-0.189,-0.859,0.0
15.246,-0.259,-0.761,1.0
14.199,-0.242,-0.782,1.0
13.356,-0.228,-0.805,1.0
12.547,-0.215,-0.823,0.0
11.857,-0.203,-0.839,1.0
11.233,-0.193,-0.854,0.0
15.625,-0.267,-0.75,1.0
14.589,-0.249,-0.776,1.0
13.647,-0.234,-0.796,1.0
12.84,-0.22,-0.817,0.0
12.113,-0.208,-0.834,0.0
11.48,-0.198,-0.85,0.0
16.1,-0.275,-0.741,1.0
14.965,-0.256,-0.766,1.0
13.978,-0.24,-0.788,0.0
13.15,-0.226,-0.811,1.0
12.385,-0.213,-0.828,0.0
11.701,-0.201,-0.843,0.0
16.633,-0.284,-0.732,0.0
15.389,-0.263,-0.757,1.0
14.33,-0.245,-0.78,1.0
13.441,-0.23,-0.802,1.0
12.673,-0.217,-0.822,0.0
11.953,-0.205,-0.838,0.0
17.223,-0.293,-0.725,1.0
15.815,-0.27,-0.748,1.0
14.754,-0.252,-0.774,1.0
13.756,-0.235,-0.794,1.0
12.977,-0.222,-0.816,0.0
12.22,-0.209,-0.832,0.0
17.734,-0.301,-0.711,1.0
16.298,-0.276,-0.738,0.0
15.161,-0.257,-0.765,1.0
14.115,-0.239,-0.787,1.0
13.277,-0.225,-0.809,1.0
12.49,-0.212,-0.826,0.0
18.313,-0.308,-0.698,1.0
16.882,-0.284,-0.731,0.0
15.547,-0.261,-0.753,1.0
14.501,-0.244,-0.779,1.0
13.602,-0.228,-0.801,1.0
12.805,-0.215,-0.821,0.0
18.953,-0.316,-0.684,1.0
17.438,-0.29,-0.719,1.0
16.028,-0.267,-0.744,1.0
14.912,-0.248,-0.771,1.0
13.93,-0.231,-0.793,1.0
13.106,-0.218,-0.814,0.0
19.629,-0.323,-0.669,1.0
17.985,-0.296,-0.706,1.0
16.562,-0.272,-0.736,0.0
15.33,-0.251,-0.762,1.0
14.27,-0.234,-0.783,1.0
13.438,-0.22,-0.807,0.0
20.321,-0.33,-0.653,1.0
18.571,-0.301,-0.692,1.0
17.138,-0.277,-0.727,0.0
15.761,-0.254,-0.752,1.0
14.722,-0.237,-0.778,1.0
13.738,-0.221,-0.797,1.0
21.181,-0.338,-0.637,1.0
19.254,-0.306,-0.679,1.0
17.706,-0.281,-0.715,1.0
16.232,-0.257,-0.741,1.0
15.121,-0.239,-0.769,1.0
14.076,-0.222,-0.788,1.0
22.065,-0.345,-0.619,1.0
19.957,-0.311,-0.663,1.0
18.229,-0.283,-0.7,1.0
16.821,-0.261,-0.734,0.0
15.546,-0.24,-0.759,1.0
14.481,-0.223,-0.782,1.0
23.066,-0.352,-0.601,1.0
20.726,-0.315,-0.646,1.0
18.95,-0.287,-0.689,1.0
17.405,-0.263,-0.724,1.0
16.021,-0.241,-0.749,1.0
14.897,-0.224,-0.774,1.0
24.019,-0.357,-0.577,2.0
21.626,-0.32,-0.631,1.0
19.578,-0.289,-0.672,2.0
17.961,-0.264,-0.711,1.0
16.533,-0.242,-0.74,1.0
15.333,-0.223,-0.765,1.0
25.091,-0.362,-0.551,2.0
22.619,-0.325,-0.613,1.0
20.312,-0.291,-0.656,1.0
18.572,-0.264,-0.697,1.0
17.124,-0.243,-0.731,1.0
15.777,-0.223,-0.755,1.0
26.25,-0.367,-0.524,1.0
23.504,-0.326,-0.59,2.0
21.159,-0.292,-0.64,1.0
19.208,-0.264,-0.682,1.0
17.695,-0.242,-0.72,1.0
16.247,-0.221,-0.745,1.0
27.378,-0.368,-0.491,2.0
24.543,-0.328,-0.567,1.0
22.041,-0.293,-0.622,1.0
19.917,-0.263,-0.667,1.0
18.264,-0.24,-0.706,1.0
16.831,-0.219,-0.737,1.0
28.666,-0.37,-0.456,2.0
25.67,-0.329,-0.54,1.0
23.088,-0.294,-0.605,1.0
20.726,-0.262,-0.652,1.0
18.861,-0.237,-0.691,1.0
17.39,-0.217,-0.727,1.0
29.867,-0.368,-0.415,2.0
26.794,-0.327,-0.51,1.0
23.99,-0.291,-0.58,1.0
21.587,-0.26,-0.635,1.0
19.608,-0.234,-0.678,1.0
17.946,-0.212,-0.713,1.0
31.414,-0.367,-0.372,1.0
28.129,-0.326,-0.478,1.0
25.188,-0.289,-0.558,1.0
22.519,-0.256,-0.617,1.0
20.28,-0.228,-0.66,1.0
18.538,-0.207,-0.699,1.0
33.847,-0.373,-0.333,1.0
29.35,-0.32,-0.44,5.0
26.266,-0.283,-0.529,1.0
23.445,-0.25,-0.595,2.0
21.101,-0.223,-0.645,1.0
19.199,-0.201,-0.686,1.0
38.513,-0.397,-0.302,14.0
30.564,-0.312,-0.397,2.0
27.378,-0.276,-0.497,1.0
24.439,-0.243,-0.572,1.0
22.031,-0.217,-0.629,1.0
19.922,-0.194,-0.672,2.0
0.0,0.0,0.0,0.0
32.462,-0.307,-0.357,1.0
28.65,-0.267,-0.463,3.0
25.68,-0.236,-0.55,2.0
22.973,-0.209,-0.611,1.0
20.608,-0.185,-0.655,2.0
47.409,-0.418,-0.184,5.0
35.55,-0.308,-0.321,0.0
29.801,-0.255,-0.423,2.0
26.629,-0.224,-0.518,2.0
23.859,-0.198,-0.588,2.0
21.5,-0.175,-0.641,2.0
48.428,-0.387,-0.092,5.0
40.326,-0.317,-0.286,3.0
31.233,-0.241,-0.382,1.0
27.801,-0.211,-0.486,2.0
24.797,-0.185,-0.562,1.0
22.408,-0.164,-0.624,2.0
52.828,-0.378,0.001,1.0
0.0,0.0,0.0,0.0
33.341,-0.229,-0.343,1.0
29.128,-0.196,-0.453,2.0
26.105,-0.171,-0.541,2.0
23.305,-0.15,-0.603,2.0
56.108,-0.352,0.111,7.0
42.086,-0.257,-0.133,5.0
39.577,-0.236,-0.331,2.0
30.24,-0.176,-0.412,2.0
27.002,-0.153,-0.507,2.0
24.223,-0.134,-0.581,3.0
61.28,-0.328,0.239,14.0
46.561,-0.242,-0.058,20.0
39.583,-0.2,-0.254,5.0
31.981,-0.156,-0.374,1.0
28.321,-0.134,-0.477,2.0
25.354,-0.116,-0.559,1.0
76.608,-0.337,0.446,14.0
0.0,0.0,0.0,0.0
39.757,-0.162,-0.18,2.0
33.822,-0.132,-0.331,1.0
29.551,-0.111,-0.443,2.0
26.452,-0.095,-0.533,2.0
79.354,-0.272,0.612,133.0
56.036,-0.182,0.142,21.0
42.253,-0.13,-0.111,17.0
38.79,-0.113,-0.307,2.0
30.686,-0.084,-0.401,1.0
27.425,-0.07,-0.501,1.0
79.466,-0.191,0.763,151.0
61.784,-0.138,0.273,9.0
45.888,-0.094,-0.034,19.0
39.313,-0.074,-0.237,15.0
32.462,-0.055,-0.364,2.0
28.718,-0.044,-0.471,2.0
79.463,-0.107,0.913,151.0
76.448,-0.089,0.481,17.0
50.882,-0.05,0.056,4.0
40.254,-0.032,-0.167,17.0
36.771,-0.023,-0.344,0.0
29.769,-0.013,-0.433,2.0
79.465,-0.02,1.061,151.0
79.416,-0.005,0.648,150.0
56.121,0.006,0.167,12.0
0.0,0.0,0.0,0.0
38.375,0.018,-0.288,6.0
30.988,0.02,-0.394,1.0
79.454,0.068,1.207,152.0
79.462,0.083,0.794,151.0
75.908,0.094,0.364,11.0
0.0,0.0,0.0,0.0
38.993,0.063,-0.222,26.0
33.048,0.06,-0.36,1.0
79.46,0.159,1.35,159.0
79.462,0.175,0.938,151.0
76.533,0.184,0.505,25.0
53.939,0.14,0.069,28.0
39.926,0.111,-0.156,24.0
37.876,0.113,-0.345,1.0
79.463,0.253,1.492,151.0
79.466,0.269,1.079,151.0
79.447,0.285,0.665,17.0
55.058,0.208,0.168,19.0
0.0,0.0,0.0,0.0
37.963,0.159,-0.279,12.0
59.308,0.26,1.219,115.0
59.299,0.272,0.909,120.0
59.3,0.284,0.599,127.0
55.069,0.275,0.264,32.0
46.986,0.245,-0.019,34.0
38.656,0.209,-0.217,35.0
48.178,0.271,1.074,62.0
48.169,0.281,0.822,61.0
48.178,0.292,0.571,54.0
48.161,0.302,0.315,59.0
48.068,0.311,0.063,54.0
39.481,0.264,-0.153,35.0
48.128,0.333,1.157,108.0
48.113,0.343,0.905,104.0
48.086,0.353,0.653,99.0
48.064,0.363,0.397,95.0
48.044,0.373,0.145,95.0
44.248,0.353,-0.096,18.0
48.138,0.395,1.239,124.0
48.108,0.406,0.987,113.0
48.09,0.416,0.735,110.0
48.052,0.426,0.478,108.0
48.029,0.437,0.227,99.0
46.778,0.436,-0.023,34.0
48.131,0.46,1.32,105.0
48.114,0.47,1.067,102.0
48.106,0.481,0.816,98.0
48.074,0.492,0.559,100.0
48.053,0.503,0.307,93.0
47.937,0.512,0.055,56.0
48.196,0.526,1.402,58.0
48.18,0.537,1.148,66.0
48.156,0.547,0.895,65.0
48.124,0.558,0.638,63.0
48.09,0.569,0.385,82.0
48.028,0.579,0.133,76.0
55.018,0.676,1.689,119.0
55.052,0.689,1.401,77.0
55.119,0.703,1.113,12.0
126.927,1.649,1.885,28.0
89.842,1.187,0.862,7.0
48.112,0.647,0.209,41.0
55.045,0.754,1.778,82.0
163.339,2.276,4.416,12.0
190.128,2.694,4.141,29.0
127.819,1.842,2.1,26.0
121.183,1.776,1.355,10.0
75.049,1.118,0.445,10.0
132.847,2.011,4.499,35.0
163.13,2.509,4.667,17.0
190.077,2.969,4.438,7.0
189.713,3.007,3.41,20.0
126.292,2.033,1.606,22.0
77.798,1.271,0.579,31.0
132.67,2.2,4.696,25.0
163.438,2.751,4.925,17.0
160.276,2.735,3.983,8.0
190.039,3.289,3.702,8.0
126.556,2.221,1.798,35.0
78.136,1.39,0.698,8.0
128.177,2.314,4.729,6.0
128.062,2.344,4.05,14.0
128.11,2.375,3.374,22.0
128.071,2.408,2.686,29.0
127.748,2.433,2.005,13.0
89.814,1.734,0.936,9.0
127.981,2.504,4.912,31.0
128.007,2.537,4.237,48.0
128.039,2.569,3.561,57.0
128.054,2.601,2.871,61.0
106.199,2.184,1.821,7.0
95.1,1.98,1.128,1.0
128.01,2.701,5.1,32.0
128.136,2.736,4.426,14.0
159.459,3.444,4.664,17.0
0.0,0.0,0.0,0.0
106.195,2.35,1.973,4.0
106.079,2.374,1.41,4.0
130.706,2.961,5.393,16.0
152.698,3.5,5.492,32.0
158.581,3.675,4.863,20.0
146.696,3.437,3.708,15.0
0.0,0.0,0.0,0.0
106.163,2.542,1.558,7.0
130.641,3.166,5.572,22.0
152.476,3.734,5.694,42.0
159.162,3.939,5.099,17.0
157.824,3.948,4.204,5.0
100.315,2.535,2.14,23.0
100.32,2.56,1.607,16.0
152.562,3.94,6.714,24.0
152.139,3.967,5.886,46.0
152.618,4.02,5.092,22.0
154.057,4.098,4.307,31.0
0.0,0.0,0.0,0.0
0.0,0.0,0.0,0.0
151.695,4.16,6.875,20.0
151.939,4.207,6.077,34.0
152.144,4.252,5.275,43.0
153.953,4.341,4.502,27.0
0.0,0.0,0.0,0.0
0.0,0.0,0.0,0.0
123.175,3.578,5.739,18.0
152.071,4.456,6.275,36.0
152.114,4.498,5.466,38.0
152.854,4.558,4.661,9.0
0.0,0.0,0.0,0.0
0.0,0.0,0.0,0.0
133.77,4.103,6.398,23.0
152.019,4.701,6.459,31.0
152.208,4.747,5.654,40.0
0.0,0.0,0.0,0.0
168.596,5.348,4.447,5.0
0.0,0.0,0.0,0.0
133.756,4.323,6.559,34.0
152.541,4.971,6.665,32.0
152.669,5.016,5.855,29.0
153.526,5.084,5.05,5.0
158.804,5.3,4.375,12.0
0.0,0.0,0.0,0.0
124.77,4.24,6.264,18.0
124.167,4.253,5.569,19.0
152.836,5.276,6.037,30.0
152.674,5.311,5.198,18.0
159.095,5.577,4.564,14.0
0.0,0.0,0.0,0.0
73.835,2.633,3.791,36.0
123.876,4.451,5.696,23.0
152.46,5.519,6.193,32.0
153.422,5.594,5.394,33.0
160.269,5.887,4.774,14.0
0.0,0.0,0.0,0.0
73.738,2.754,3.867,39.0
123.739,4.655,5.824,20.0
124.278,4.709,5.182,17.0
158.057,6.032,5.727,7.0
162.263,6.237,5.009,4.0
158.464,6.134,4.041,4.0
73.467,2.871,3.931,28.0
123.795,4.871,5.959,26.0
124.382,4.928,5.318,20.0
161.157,6.429,6.008,10.0
162.669,6.532,5.19,4.0
158.392,6.404,4.202,5.0
73.287,2.991,3.998,36.0
124.236,5.103,6.107,10.0
124.39,5.143,5.445,30.0
157.749,6.565,6.039,15.0
156.652,6.561,5.153,17.0
173.377,7.309,4.771,12.0
73.237,3.115,4.067,48.0
124.235,5.318,6.229,26.0
124.466,5.36,5.568,26.0
124.359,5.389,4.879,32.0
157.042,6.849,5.315,12.0
159.944,7.018,4.552,9.0
73.483,3.254,4.151,29.0
123.284,5.492,6.296,20.0
129.876,5.819,5.931,28.0
124.373,5.605,4.995,33.0
174.06,7.892,6.051,8.0
155.975,7.113,4.579,8.0
73.348,3.375,4.209,24.0
123.427,5.711,6.414,19.0
129.572,6.029,6.031,26.0
174.175,8.15,7.148,7.0
156.81,7.38,5.586,15.0
156.248,7.397,4.722,15.0
73.271,3.498,4.268,39.0
123.213,5.914,6.508,52.0
129.364,6.245,6.131,20.0
160.137,7.772,6.706,13.0
174.528,8.516,6.361,11.0
156.208,7.665,4.848,13.0
73.423,3.634,4.337,31.0
132.057,6.57,7.082,16.0
129.647,6.485,6.249,14.0
129.567,6.514,5.529,8.0
157.692,7.973,5.875,12.0
156.626,7.96,4.984,12.0
127.015,6.509,7.603,35.0
150.004,7.726,8.163,28.0
33.457,1.732,1.638,4.0
159.732,8.31,6.938,17.0
157.524,8.237,5.986,10.0
156.775,8.238,5.105,14.0
128.045,6.786,7.76,26.0
150.267,8.001,8.286,12.0
33.488,1.792,1.664,60.0
162.448,8.734,7.172,13.0
157.512,8.509,6.095,15.0
157.335,8.543,5.233,18.0
127.566,6.983,7.82,33.0
127.12,6.992,7.098,28.0
33.427,1.847,1.684,54.0
162.236,9.007,7.273,20.0
157.838,8.804,6.214,22.0
157.291,8.816,5.336,15.0
128.0,7.232,7.932,21.0
127.41,7.231,7.197,31.0
33.447,1.906,1.706,70.0
33.46,1.916,1.521,2.0
157.555,9.062,6.302,25.0
157.847,9.121,5.453,15.0
127.992,7.455,8.011,23.0
127.409,7.452,7.275,37.0
33.431,1.964,1.726,22.0
161.95,9.557,7.46,42.0
157.933,9.362,6.412,14.0
157.446,9.374,5.53,16.0
67.013,4.021,4.233,26.0
128.771,7.76,7.428,25.0
128.25,7.761,6.695,44.0
127.681,7.76,5.952,13.0
33.434,2.04,1.375,2.0
33.452,2.05,1.193,4.0
67.099,4.144,4.275,37.0
128.446,7.965,7.478,22.0
128.389,7.996,6.77,32.0
158.002,9.879,7.447,18.0
33.436,2.099,1.392,6.0
33.445,2.108,1.209,2.0
71.211,4.522,4.572,11.0
67.081,4.276,3.938,19.0
128.285,8.21,6.825,26.0
157.976,10.151,7.521,42.0
158.029,10.196,6.656,55.0
158.143,10.244,5.793,36.0
66.941,4.369,4.328,28.0
67.171,4.4,3.973,32.0
128.194,8.429,6.878,25.0
157.911,10.424,7.587,37.0
157.944,10.463,6.719,31.0
158.051,10.511,5.856,35.0
67.43,4.518,4.389,38.0
67.328,4.527,4.01,29.0
128.586,8.678,6.95,21.0
33.433,2.264,1.619,6.0
118.096,8.029,5.069,16.0
157.965,10.78,5.912,37.0
67.555,4.644,4.422,39.0
67.356,4.646,4.036,17.0
157.809,10.922,8.586,3.0
33.379,2.318,1.628,15.0
118.154,8.236,5.112,8.0
157.889,11.044,5.962,36.0
70.775,4.987,4.657,12.0
157.657,11.146,9.499,29.0
157.67,11.185,8.628,16.0
33.373,2.375,1.638,48.0
118.204,8.444,5.151,8.0
29.526,2.116,1.123,83.0
70.847,5.114,4.682,13.0
157.174,11.383,9.516,24.0
157.117,11.415,8.642,25.0
157.103,11.452,7.756,20.0
29.684,2.171,1.301,1.0
29.519,2.166,1.131,154.0
70.826,5.234,4.698,38.0
133.616,9.905,8.122,12.0
133.507,9.927,7.374,11.0
133.34,9.945,6.613,7.0
29.685,2.221,1.308,2.0
29.527,2.216,1.137,151.0
70.862,5.356,4.715,37.0
131.407,9.964,8.015,17.0
131.254,9.981,7.277,9.0
115.117,8.781,5.731,3.0
29.758,2.276,1.316,1.0
29.653,2.275,1.147,24.0
67.546,5.22,4.506,12.0
129.32,10.023,7.908,12.0
129.158,10.04,7.18,9.0
129.004,10.056,6.442,4.0
109.453,8.558,4.857,8.0
29.721,2.331,1.154,5.0
74.65,5.895,4.99,15.0
74.487,5.898,4.564,31.0
74.63,5.926,4.158,17.0
74.631,5.943,3.734,16.0
74.655,5.962,3.32,11.0
74.573,5.973,2.903,20.0
74.575,6.013,4.992,30.0
74.505,6.022,4.571,18.0
74.549,6.043,4.158,31.0
74.553,6.06,3.735,29.0
74.527,6.074,3.319,39.0
74.504,6.089,2.904,30.0
75.173,6.185,5.036,22.0
74.576,6.151,4.578,10.0
74.558,6.165,4.161,19.0
74.546,6.18,3.737,29.0
74.57,6.198,3.323,19.0
74.561,6.214,2.907,5.0
74.878,6.282,5.016,19.0
121.206,10.193,7.442,16.0
121.232,10.22,6.766,9.0
103.167,8.719,5.17,23.0
34.269,2.903,1.526,42.0
34.281,2.912,1.335,92.0
74.487,6.368,4.988,16.0
120.751,10.348,7.409,21.0
120.786,10.375,6.736,24.0
120.778,10.399,6.047,7.0
112.173,9.681,4.99,5.0
120.63,10.436,4.692,49.0
76.527,6.663,5.119,11.0
75.909,6.625,4.652,14.0
119.034,10.412,6.628,22.0
119.021,10.434,5.948,6.0
109.45,9.617,4.858,7.0
120.626,10.625,4.681,49.0
74.182,6.575,4.954,22.0
75.878,6.739,4.641,14.0
117.286,10.441,6.517,20.0
104.622,9.335,5.215,5.0
109.452,9.788,4.843,13.0
115.713,10.373,4.473,9.0
67.679,6.104,4.51,23.0
75.895,6.859,4.63,39.0
114.761,10.395,6.357,39.0
104.738,9.508,5.203,4.0
13.909,1.265,0.613,0.0
114.789,10.465,4.416,43.0
66.367,6.088,4.409,16.0
75.921,6.978,4.617,14.0
114.714,10.565,6.331,18.0
13.852,1.278,0.685,0.0
13.85,1.281,0.607,12.0
13.852,1.284,0.53,9.0
13.828,1.289,0.915,24.0
13.827,1.291,0.837,15.0
13.832,1.294,0.76,9.0
13.812,1.295,0.68,18.0
13.818,1.298,0.602,32.0
13.829,1.302,0.525,29.0
13.816,1.308,0.911,33.0
13.817,1.311,0.833,36.0
13.812,1.313,0.755,30.0
13.807,1.315,0.675,34.0
13.809,1.318,0.598,35.0
13.817,1.321,0.521,33.0
13.797,1.327,0.905,38.0
13.806,1.33,0.828,63.0
13.795,1.331,0.75,56.0
13.785,1.333,0.67,38.0
13.794,1.336,0.593,36.0
13.795,1.338,0.515,35.0
13.786,1.345,0.9,40.0
13.796,1.349,0.823,115.0
13.785,1.35,0.744,140.0
13.777,1.351,0.665,58.0
13.775,1.354,0.587,38.0
13.785,1.357,0.51,37.0
13.766,1.363,0.894,41.0
13.782,1.366,0.817,150.0
13.782,1.369,0.739,150.0
13.77,1.37,0.659,83.0
13.769,1.372,0.581,37.0
13.78,1.376,0.504,38.0
13.765,1.382,0.888,84.0
13.776,1.385,0.811,150.0
13.771,1.387,0.732,150.0
13.765,1.388,0.653,76.0
13.764,1.391,0.575,39.0
13.77,1.394,0.498,39.0
13.756,1.399,0.881,76.0
13.772,1.403,0.804,150.0
13.767,1.405,0.726,150.0
13.76,1.406,0.646,60.0
13.771,1.409,0.569,60.0
13.764,1.411,0.491,38.0
13.754,1.417,0.874,96.0
13.766,1.421,0.797,150.0
13.768,1.423,0.719,150.0
13.759,1.424,0.639,37.0
13.776,1.428,0.562,82.0
13.769,1.43,0.484,39.0
13.755,1.435,0.867,109.0
13.765,1.438,0.79,150.0
13.767,1.44,0.712,150.0
13.752,1.441,0.632,37.0
13.778,1.446,0.555,91.0
13.772,1.447,0.477,38.0
13.751,1.452,0.86,96.0
13.768,1.456,0.783,150.0
13.772,1.458,0.705,150.0
13.758,1.459,0.624,37.0
13.777,1.463,0.547,66.0
13.777,1.465,0.469,37.0
13.757,1.47,0.852,77.0
13.771,1.473,0.775,150.0
13.774,1.475,0.696,134.0
13.768,1.476,0.617,37.0
13.777,1.479,0.539,38.0
13.782,1.482,0.461,35.0
13.755,1.486,0.844,39.0
13.778,1.49,0.766,150.0
13.776,1.492,0.688,81.0
13.782,1.494,0.609,35.0
13.789,1.497,0.531,33.0
13.791,1.499,0.453,32.0
13.762,1.503,0.835,47.0
13.79,1.507,0.758,100.0
13.789,1.509,0.68,37.0
13.789,1.511,0.6,30.0
13.799,1.514,0.522,27.0
13.807,1.517,0.444,28.0
13.768,1.519,0.826,54.0
13.798,1.524,0.749,37.0
13.809,1.527,0.671,32.0
13.801,1.527,0.591,22.0
13.805,1.53,0.513,15.0
13.818,1.533,0.435,11.0
13.784,1.536,0.817,38.0
13.814,1.541,0.74,28.0
13.826,1.543,0.662,14.0
35.855,4.008,1.511,52.0
35.864,4.013,1.307,26.0
35.899,4.022,1.105,3.0
13.79,1.551,0.808,34.0
36.117,4.067,1.91,67.0
13.837,1.559,0.653,3.0
35.858,4.046,1.484,125.0
33.186,3.748,1.185,10.0
96.919,10.959,2.909,30.0
13.79,1.565,0.797,12.0
10.006,1.137,0.521,5.0
35.828,4.075,1.663,25.0
33.004,3.757,1.341,2.0
33.081,3.769,1.155,6.0
10.007,1.141,0.292,5.0
10.019,1.147,0.571,16.0
9.995,1.145,0.513,14.0
35.832,4.11,1.635,8.0
33.041,3.793,1.316,2.0
10.003,1.149,0.341,14.0
33.935,3.903,0.965,4.0
10.012,1.156,0.563,35.0
10.003,1.155,0.505,66.0
10.003,1.156,0.448,44.0
10.0,1.157,0.39,20.0
10.0,1.158,0.333,23.0
33.944,3.936,0.937,5.0
10.0,1.163,0.554,77.0
10.002,1.164,0.497,133.0
9.995,1.164,0.439,122.0
9.993,1.165,0.381,75.0
9.999,1.167,0.324,68.0
10.001,1.168,0.267,26.0
9.996,1.172,0.545,86.0
9.99,1.172,0.487,150.0
9.987,1.172,0.43,124.0
9.983,1.172,0.372,80.0
9.993,1.174,0.315,79.0
9.995,1.176,0.258,40.0
9.982,1.178,0.535,78.0
9.991,1.18,0.478,150.0
9.987,1.18,0.421,140.0
9.977,1.18,0.363,86.0
9.99,1.182,0.306,83.0
9.984,1.183,0.249,44.0
9.98,1.186,0.526,96.0
9.976,1.186,0.469,150.0
9.981,1.187,0.412,150.0
9.977,1.188,0.354,107.0
9.982,1.189,0.297,90.0
9.978,1.189,0.239,49.0
9.967,1.192,0.516,103.0
9.976,1.193,0.459,150.0
9.971,1.193,0.402,150.0
9.968,1.194,0.344,107.0
9.976,1.195,0.287,94.0
9.98,1.197,0.23,52.0
9.973,1.199,0.507,98.0
9.972,1.2,0.45,150.0
9.976,1.201,0.393,150.0
9.966,1.2,0.334,118.0
9.972,1.202,0.277,99.0
9.969,1.202,0.22,58.0
9.972,1.206,0.497,104.0
9.973,1.207,0.44,150.0
9.977,1.208,0.383,150.0
9.97,1.207,0.325,127.0
9.974,1.208,0.268,105.0
9.975,1.209,0.211,66.0
9.97,1.212,0.487,106.0
9.976,1.213,0.43,150.0
9.973,1.213,0.373,150.0
9.968,1.213,0.315,133.0
9.977,1.215,0.258,116.0
9.971,1.215,0.201,67.0
9.972,1.218,0.477,108.0
9.972,1.218,0.42,150.0
9.976,1.219,0.363,150.0
9.969,1.219,0.304,124.0
9.97,1.219,0.247,119.0
9.968,1.22,0.19,68.0
9.971,1.223,0.467,105.0
9.968,1.223,0.41,150.0
9.972,1.224,0.353,150.0
9.966,1.224,0.294,128.0
9.969,1.224,0.237,120.0
9.967,1.225,0.18,66.0
9.97,1.228,0.456,108.0
9.968,1.228,0.399,150.0
9.978,1.229,0.342,150.0
9.963,1.228,0.284,123.0
9.97,1.229,0.227,115.0
9.969,1.23,0.17,69.0
9.978,1.233,0.446,110.0
9.975,1.233,0.389,150.0
9.978,1.234,0.332,150.0
9.969,1.233,0.273,125.0
9.966,1.233,0.216,123.0
9.968,1.234,0.159,67.0
9.969,1.236,0.435,110.0
9.973,1.237,0.378,150.0
9.977,1.237,0.321,150.0
9.968,1.237,0.262,118.0
9.972,1.237,0.205,106.0
9.968,1.237,0.148,65.0
9.976,1.24,0.425,103.0
9.975,1.24,0.367,150.0
9.975,1.241,0.31,150.0
9.971,1.24,0.252,119.0
9.965,1.24,0.194,114.0
9.966,1.24,0.137,67.0
9.976,1.243,0.414,106.0
9.98,1.244,0.356,150.0
9.977,1.244,0.299,150.0
9.971,1.243,0.241,112.0
9.973,1.244,0.184,113.0
9.969,1.244,0.126,64.0
9.971,1.245,0.402,97.0
9.973,1.246,0.345,150.0
9.977,1.246,0.288,150.0
9.968,1.245,0.23,118.0
9.973,1.246,0.173,103.0
9.97,1.246,0.116,56.0
9.977,1.248,0.391,99.0
9.973,1.248,0.334,150.0
9.974,1.248,0.277,150.0
9.968,1.247,0.219,120.0
9.974,1.248,0.161,113.0
9.97,1.248,0.104,67.0
9.971,1.249,0.38,93.0
9.974,1.25,0.323,150.0
9.977,1.25,0.266,150.0
9.968,1.249,0.207,119.0
9.973,1.25,0.15,109.0
9.97,1.249,0.093,66.0
9.978,1.252,0.369,88.0
9.978,1.251,0.312,150.0
9.977,1.251,0.254,150.0
9.965,1.25,0.196,113.0
9.98,1.252,0.139,114.0
9.969,1.25,0.082,67.0
9.979,1.252,0.358,87.0
9.972,1.251,0.3,150.0
9.977,1.252,0.243,150.0
9.968,1.251,0.185,106.0
9.969,1.251,0.128,109.0
9.97,1.251,0.07,66.0
9.973,1.252,0.346,91.0
9.975,1.252,0.289,150.0
9.974,1.252,0.232,150.0
9.966,1.251,0.173,109.0
9.973,1.251,0.116,104.0
9.969,1.251,0.059,63.0
9.977,1.252,0.335,94.0
9.981,1.253,0.278,148.0
9.976,1.252,0.22,150.0
9.968,1.251,0.162,96.0
9.974,1.251,0.105,105.0
9.969,1.251,0.048,66.0
9.975,1.252,0.323,99.0
9.969,1.25,0.266,150.0
9.978,1.251,0.209,150.0
9.962,1.249,0.15,105.0
9.97,1.25,0.093,110.0
9.972,1.25,0.036,69.0
9.969,1.25,0.312,97.0
9.977,1.25,0.255,150.0
9.978,1.25,0.197,150.0
9.962,1.248,0.139,112.0
9.974,1.249,0.082,107.0
9.967,1.248,0.025,59.0
9.969,1.248,0.3,104.0
9.971,1.248,0.243,150.0
9.976,1.248,0.186,150.0
9.969,1.247,0.127,102.0
9.972,1.247,0.07,105.0
9.969,1.247,0.013,46.0
9.977,1.247,0.289,99.0
9.975,1.247,0.232,150.0
9.979,1.247,0.174,150.0
9.963,1.244,0.116,110.0
9.971,1.245,0.059,105.0
9.972,1.245,0.002,35.0
9.97,1.244,0.277,106.0
9.977,1.244,0.22,150.0
9.974,1.243,0.163,150.0
9.964,1.242,0.104,108.0
9.971,1.242,0.047,107.0
9.976,1.243,-0.009,19.0
9.974,1.242,0.266,103.0
9.971,1.241,0.208,150.0
9.974,1.24,0.151,150.0
9.964,1.239,0.093,115.0
9.973,1.239,0.036,106.0
9.972,1.239,-0.02,20.0
9.974,1.238,0.254,103.0
9.971,1.237,0.197,150.0
9.976,1.237,0.14,150.0
9.966,1.235,0.081,101.0
9.973,1.236,0.024,107.0
9.968,1.235,-0.032,59.0
9.97,1.234,0.243,117.0
9.968,1.233,0.185,150.0
9.976,1.233,0.128,150.0
9.967,1.232,0.07,101.0
9.972,1.232,0.013,91.0
9.969,1.231,-0.043,64.0
9.973,1.23,0.231,104.0
9.968,1.229,0.174,150.0
9.976,1.229,0.117,150.0
9.966,1.227,0.059,115.0
9.973,1.227,0.002,85.0
9.97,1.226,-0.054,67.0
9.971,1.225,0.22,107.0
9.969,1.224,0.163,150.0
9.974,1.224,0.106,150.0
9.967,1.222,0.047,125.0
9.973,1.222,-0.009,69.0
9.971,1.221,-0.066,62.0
9.973,1.22,0.209,114.0
9.968,1.219,0.151,150.0
9.973,1.218,0.094,150.0
9.967,1.217,0.036,116.0
9.974,1.217,-0.02,109.0
9.971,1.216,-0.077,58.0
9.974,1.214,0.198,121.0
9.971,1.213,0.14,150.0
9.973,1.213,0.083,150.0
9.97,1.211,0.025,97.0
9.976,1.211,-0.031,97.0
9.973,1.21,-0.088,58.0
9.971,1.208,0.186,107.0
9.977,1.208,0.129,150.0
9.976,1.207,0.072,150.0
9.97,1.205,0.014,78.0
9.977,1.205,-0.042,98.0
9.979,1.205,-0.099,50.0
9.972,1.201,0.175,92.0
9.979,1.201,0.118,150.0
9.977,1.2,0.061,150.0
9.973,1.199,0.003,78.0
9.983,1.199,-0.053,82.0
9.982,1.198,-0.11,39.0
9.976,1.195,0.165,86.0
9.987,1.195,0.108,138.0
9.982,1.194,0.05,125.0
9.98,1.193,-0.007,65.0
9.986,1.192,-0.064,74.0
9.987,1.192,-0.121,34.0
9.984,1.188,0.154,63.0
9.986,1.188,0.097,136.0
9.985,1.186,0.04,132.0
9.989,1.186,-0.017,76.0
9.996,1.186,-0.074,77.0
9.994,1.185,-0.132,30.0
9.995,1.182,0.143,74.0
9.999,1.181,0.086,137.0
9.997,1.18,0.029,133.0
10.0,1.179,-0.028,72.0
10.005,1.179,-0.085,66.0
10.002,1.177,-0.142,21.0
10.01,1.175,0.133,82.0
10.01,1.174,0.076,129.0
10.001,1.172,0.019,99.0
10.002,1.171,-0.038,22.0
10.013,1.171,-0.096,20.0
10.01,1.17,-0.153,17.0
10.007,1.166,0.123,21.0
10.014,1.166,0.066,22.0
10.006,1.164,0.008,18.0
9.991,1.161,-0.049,14.0
10.001,1.161,-0.106,13.0
9.999,1.16,-0.163,12.0
33.924,3.924,0.383,21.0
33.745,3.898,0.188,5.0
33.895,3.911,-0.003,51.0
34.975,4.032,-0.206,11.0
10.006,1.152,-0.116,4.0
22.119,2.545,-0.383,2.0
9.998,1.147,0.103,3.0
33.924,3.887,0.156,150.0
38.887,4.45,-0.042,3.0
34.497,3.944,-0.237,34.0
0.0,0.0,0.0,0.0
21.731,2.479,-0.397,2.0
74.6,8.483,0.695,8.0
41.314,4.692,0.15,28.0
37.975,4.307,-0.078,16.0
34.467,3.905,-0.271,42.0
13.875,1.57,-0.188,2.0
13.854,1.566,-0.266,14.0
13.884,1.564,0.116,0.0
41.052,4.619,0.109,13.0
13.85,1.556,-0.042,7.0
13.85,1.554,-0.122,6.0
13.844,1.552,-0.201,13.0
13.82,1.547,-0.279,18.0
13.829,1.543,0.102,7.0
13.851,1.543,0.023,13.0
13.842,1.54,-0.054,15.0
13.844,1.539,-0.134,13.0
13.804,1.532,-0.213,20.0
13.813,1.531,-0.291,27.0
13.815,1.526,0.09,20.0
13.816,1.524,0.011,20.0
13.807,1.521,-0.067,17.0
13.8,1.518,-0.147,19.0
13.8,1.516,-0.225,26.0
13.806,1.515,-0.304,32.0
13.803,1.509,0.077,32.0
13.808,1.507,-0.001,30.0
13.797,1.503,-0.079,26.0
13.78,1.5,-0.159,29.0
13.793,1.499,-0.237,33.0
13.786,1.496,-0.315,33.0
13.799,1.492,0.065,37.0
13.791,1.488,-0.013,39.0
13.782,1.485,-0.091,35.0
13.773,1.482,-0.17,35.0
13.789,1.482,-0.249,36.0
13.776,1.478,-0.327,31.0
13.791,1.474,0.053,40.0
13.782,1.47,-0.024,44.0
13.772,1.467,-0.102,37.0
13.771,1.465,-0.182,37.0
13.782,1.464,-0.26,37.0
13.777,1.461,-0.338,32.0
13.788,1.456,0.042,41.0
13.781,1.453,-0.036,85.0
13.774,1.45,-0.114,56.0
13.776,1.448,-0.193,54.0
13.768,1.445,-0.271,36.0
13.774,1.443,-0.35,30.0
13.784,1.438,0.031,45.0
13.771,1.434,-0.046,137.0
13.767,1.431,-0.124,88.0
13.77,1.429,-0.204,38.0
13.779,1.427,-0.282,58.0
13.76,1.423,-0.36,29.0
13.78,1.419,0.02,61.0
13.774,1.416,-0.057,131.0
13.764,1.412,-0.135,93.0
13.769,1.41,-0.214,38.0
13.77,1.408,-0.292,83.0
13.762,1.405,-0.37,32.0
13.781,1.4,0.01,60.0
13.782,1.397,-0.067,87.0
13.775,1.394,-0.145,55.0
13.773,1.391,-0.225,53.0
13.765,1.388,-0.302,90.0
13.758,1.385,-0.38,36.0
13.782,1.381,0.0,88.0
13.788,1.378,-0.077,100.0
13.781,1.375,-0.155,63.0
13.778,1.372,-0.234,63.0
13.781,1.37,-0.312,69.0
13.755,1.365,-0.39,36.0
13.793,1.362,-0.009,40.0
13.795,1.359,-0.087,118.0
13.786,1.355,-0.165,45.0
13.773,1.352,-0.244,35.0
13.784,1.35,-0.322,46.0
13.763,1.345,-0.399,31.0
13.806,1.343,-0.018,41.0
13.805,1.34,-0.096,66.0
13.793,1.336,-0.174,45.0
13.79,1.333,-0.253,34.0
13.787,1.33,-0.331,34.0
13.765,1.325,-0.408,27.0
13.816,1.323,-0.027,36.0
13.812,1.32,-0.105,36.0
13.806,1.316,-0.183,39.0
13.807,1.314,-0.262,34.0
13.799,1.31,-0.339,33.0
13.771,1.305,-0.416,23.0
13.833,1.303,-0.035,32.0
13.835,1.301,-0.113,33.0
13.829,1.297,-0.191,33.0
13.818,1.293,-0.27,31.0
13.818,1.29,-0.348,30.0
13.79,1.285,-0.425,20.0
13.862,1.284,-0.043,28.0
13.851,1.28,-0.121,26.0
13.847,1.277,-0.199,28.0
13.838,1.273,-0.278,22.0
13.828,1.269,-0.356,30.0
13.823,1.266,-0.434,24.0
13.882,1.264,-0.051,12.0
13.884,1.261,-0.129,18.0
13.866,1.257,-0.207,20.0
13.88,1.255,-0.286,14.0
13.832,1.248,-0.363,17.0
13.835,1.245,-0.441,16.0
35.629,3.187,-0.149,31.0
13.919,1.242,-0.136,4.0
24.34,2.166,-0.375,1.0
20.838,1.85,-0.44,2.0
13.871,1.228,-0.371,8.0
13.895,1.227,-0.45,11.0
35.479,3.115,-0.166,25.0
31.617,2.769,-0.325,1.0
23.852,2.083,-0.379,5.0
20.594,1.794,-0.445,4.0
18.427,1.601,-0.501,3.0
13.927,1.207,-0.457,4.0
35.098,3.023,-0.179,6.0
31.18,2.679,-0.334,1.0
23.767,2.036,-0.388,5.0
20.486,1.75,-0.451,4.0
18.362,1.564,-0.507,3.0
16.625,1.412,-0.553,2.0
29.578,2.497,-0.163,9.0
30.658,2.581,-0.341,2.0
23.451,1.969,-0.392,5.0
20.334,1.702,-0.456,3.0
18.23,1.522,-0.511,3.0
16.532,1.376,-0.556,2.0
29.513,2.441,-0.174,28.0
29.636,2.443,-0.34,29.0
23.155,1.903,-0.395,5.0
20.26,1.661,-0.461,3.0
18.106,1.48,-0.514,3.0
16.371,1.334,-0.556,2.0
29.496,2.388,-0.184,21.0
29.743,2.401,-0.351,8.0
22.923,1.844,-0.399,4.0
20.15,1.616,-0.465,3.0
18.065,1.445,-0.518,3.0
16.34,1.303,-0.56,3.0
29.742,2.355,-0.194,28.0
29.732,2.347,-0.36,22.0
22.808,1.794,-0.404,4.0
20.08,1.575,-0.469,3.0
17.998,1.407,-0.521,3.0
16.321,1.272,-0.564,2.0
29.72,2.3,-0.202,48.0
29.707,2.291,-0.368,20.0
22.704,1.745,-0.408,4.0
20.05,1.536,-0.474,3.0
17.934,1.369,-0.524,3.0
16.225,1.235,-0.564,3.0
29.727,2.246,-0.209,37.0
29.801,2.244,-0.376,18.0
22.625,1.698,-0.411,4.0
19.923,1.49,-0.475,3.0
17.902,1.334,-0.526,3.0
16.195,1.203,-0.567,2.0
0.0,0.0,0.0,0.0
29.939,2.2,-0.383,2.0
22.538,1.65,-0.414,4.0
19.928,1.454,-0.479,3.0
17.829,1.296,-0.527,2.0
16.208,1.174,-0.57,2.0
35.038,2.519,-0.259,9.0
29.956,2.146,-0.388,2.0
22.502,1.606,-0.416,4.0
19.891,1.414,-0.48,3.0
17.797,1.26,-0.529,3.0
16.179,1.142,-0.571,2.0
35.078,2.456,-0.264,8.0
29.855,2.082,-0.39,2.0
22.428,1.558,-0.417,4.0
19.853,1.374,-0.482,3.0
17.854,1.231,-0.532,2.0
16.176,1.111,-0.572,3.0
35.118,2.393,-0.267,9.0
29.808,2.023,-0.392,1.0
22.506,1.521,-0.42,4.0
19.879,1.338,-0.483,3.0
17.869,1.198,-0.534,2.0
16.165,1.079,-0.572,3.0
35.161,2.33,-0.269,9.0
29.85,1.97,-0.393,2.0
22.551,1.481,-0.422,4.0
19.913,1.302,-0.485,3.0
17.889,1.165,-0.535,2.0
16.195,1.051,-0.574,4.0
35.186,2.264,-0.269,8.0
29.867,1.914,-0.394,2.0
22.633,1.444,-0.423,4.0
19.931,1.266,-0.485,3.0
17.941,1.134,-0.536,3.0
16.185,1.019,-0.573,5.0
33.43,2.087,-0.255,43.0
29.822,1.853,-0.392,2.0
22.788,1.41,-0.425,5.0
19.99,1.231,-0.485,3.0
17.94,1.099,-0.535,3.0
16.237,0.99,-0.574,4.0
35.294,2.135,-0.267,8.0
29.897,1.8,-0.391,2.0
22.872,1.37,-0.425,5.0
20.127,1.2,-0.487,3.0
17.993,1.067,-0.534,3.0
16.313,0.963,-0.575,3.0
35.326,2.068,-0.263,8.0
30.028,1.749,-0.389,2.0
22.985,1.332,-0.424,5.0
20.201,1.165,-0.486,3.0
18.102,1.038,-0.535,3.0
16.39,0.936,-0.575,4.0
35.396,2.003,-0.259,8.0
30.161,1.697,-0.386,2.0
23.182,1.298,-0.424,5.0
20.261,1.128,-0.484,3.0
18.191,1.008,-0.535,4.0
16.449,0.906,-0.574,4.0
35.469,1.937,-0.252,12.0
30.304,1.646,-0.382,2.0
23.489,1.269,-0.425,5.0
20.399,1.096,-0.483,4.0
18.334,0.979,-0.535,3.0
16.503,0.877,-0.572,2.0
35.501,1.869,-0.245,6.0
30.384,1.59,-0.376,2.0
23.718,1.234,-0.424,5.0
20.588,1.065,-0.483,4.0
18.438,0.948,-0.533,3.0
16.63,0.85,-0.572,2.0
35.733,1.81,-0.237,11.0
30.593,1.541,-0.37,2.0
24.072,1.205,-0.423,5.0
20.719,1.031,-0.48,4.0
18.573,0.918,-0.532,3.0
16.79,0.825,-0.573,2.0
35.831,1.745,-0.227,20.0
30.889,1.495,-0.364,2.0
24.305,1.169,-0.42,4.0
20.89,0.998,-0.477,4.0
18.729,0.889,-0.53,3.0
16.986,0.802,-0.574,2.0
35.978,1.681,-0.216,24.0
31.241,1.45,-0.358,1.0
24.62,1.135,-0.416,5.0
21.054,0.964,-0.473,4.0
18.896,0.86,-0.528,3.0
17.176,0.776,-0.574,3.0
36.176,1.617,-0.203,31.0
31.609,1.403,-0.35,2.0
24.785,1.093,-0.409,1.0
21.291,0.932,-0.47,12.0
19.019,0.827,-0.524,3.0
17.289,0.746,-0.57,3.0
36.326,1.552,-0.189,37.0
31.903,1.353,-0.339,1.0
28.41,1.196,-0.457,1.0
21.366,0.893,-0.462,13.0
19.251,0.798,-0.521,3.0
17.47,0.719,-0.568,4.0
36.464,1.484,-0.172,37.0
32.455,1.311,-0.33,1.0
28.539,1.144,-0.446,2.0
21.812,0.868,-0.461,4.0
19.498,0.77,-0.519,3.0
17.613,0.69,-0.564,5.0
39.391,1.526,-0.167,27.0
33.028,1.269,-0.32,1.0
28.944,1.103,-0.437,2.0
22.185,0.838,-0.458,4.0
19.791,0.742,-0.516,3.0
17.746,0.66,-0.559,4.0
39.579,1.454,-0.146,47.0
35.947,1.31,-0.328,1.0
29.261,1.057,-0.426,2.0
22.764,0.815,-0.457,4.0
20.079,0.713,-0.512,3.0
18.002,0.633,-0.557,4.0
39.642,1.378,-0.124,49.0
35.955,1.238,-0.307,5.0
29.613,1.011,-0.414,2.0
23.283,0.787,-0.454,5.0
20.251,0.678,-0.504,3.0
18.252,0.606,-0.553,4.0
39.905,1.307,-0.101,44.0
36.191,1.174,-0.287,7.0
30.104,0.968,-0.402,2.0
23.901,0.761,-0.451,5.0
20.63,0.65,-0.5,3.0
18.513,0.578,-0.549,4.0
40.306,1.241,-0.076,40.0
36.363,1.108,-0.265,10.0
30.552,0.921,-0.387,2.0
23.948,0.715,-0.435,1.0
20.904,0.617,-0.493,4.0
18.783,0.549,-0.545,5.0
0.0,0.0,0.0,0.0
36.659,1.045,-0.241,14.0
30.968,0.874,-0.371,2.0
27.496,0.767,-0.481,1.0
21.318,0.588,-0.488,4.0
19.143,0.522,-0.541,3.0
0.0,0.0,0.0,0.0
36.958,0.981,-0.216,30.0
31.697,0.832,-0.356,1.0
27.891,0.723,-0.467,1.0
21.685,0.555,-0.48,4.0
19.49,0.493,-0.536,3.0
46.851,1.167,0.013,22.0
37.203,0.915,-0.189,41.0
32.633,0.792,-0.342,1.0
28.498,0.683,-0.454,1.0
22.114,0.523,-0.472,4.0
19.729,0.46,-0.527,3.0
47.813,1.097,0.052,23.0
38.127,0.862,-0.163,37.0
33.471,0.746,-0.323,1.0
29.088,0.64,-0.44,2.0
22.861,0.495,-0.468,4.0
20.111,0.429,-0.52,3.0
48.202,1.012,0.092,14.0
38.936,0.805,-0.134,43.0
36.697,0.747,-0.323,4.0
29.572,0.593,-0.422,2.0
26.545,0.524,-0.521,1.0
20.517,0.398,-0.513,4.0
52.28,0.996,0.146,8.0
39.552,0.741,-0.101,32.0
36.847,0.679,-0.291,9.0
30.125,0.545,-0.403,2.0
26.932,0.479,-0.504,2.0
20.968,0.366,-0.505,4.0
54.892,0.941,0.203,11.0
44.411,0.747,-0.072,18.0
37.202,0.614,-0.26,13.0
30.827,0.499,-0.383,2.0
27.356,0.434,-0.487,2.0
21.425,0.333,-0.496,9.0
60.44,0.92,0.281,35.0
0.0,0.0,0.0,0.0
37.668,0.55,-0.227,20.0
31.702,0.453,-0.363,1.0
28.083,0.393,-0.472,1.0
22.127,0.302,-0.49,4.0
48.086,0.641,0.27,71.0
46.893,0.611,0.013,37.0
38.118,0.484,-0.192,44.0
32.69,0.405,-0.342,1.0
28.826,0.349,-0.456,2.0
25.829,0.304,-0.546,2.0
48.057,0.55,0.319,90.0
47.828,0.533,0.062,54.0
38.778,0.42,-0.155,49.0
33.519,0.352,-0.316,1.0
29.418,0.3,-0.434,2.0
26.246,0.26,-0.527,2.0
48.051,0.46,0.369,111.0
47.991,0.445,0.114,79.0
39.586,0.355,-0.116,30.0
37.477,0.325,-0.314,2.0
29.95,0.25,-0.41,2.0
26.81,0.216,-0.51,2.0
48.098,0.372,0.422,73.0
48.107,0.357,0.166,45.0
44.063,0.313,-0.081,12.0
37.742,0.257,-0.274,6.0
30.907,0.201,-0.389,2.0
27.368,0.17,-0.49,1.0
59.326,0.35,0.587,9.0
55.049,0.308,0.252,60.0
0.0,0.0,0.0,0.0
38.302,0.191,-0.235,14.0
31.796,0.149,-0.364,1.0
28.175,0.124,-0.472,2.0
79.456,0.324,0.878,150.0
75.847,0.286,0.436,12.0
47.399,0.165,0.02,21.0
38.928,0.124,-0.193,37.0
33.167,0.095,-0.34,1.0
28.993,0.075,-0.451,2.0
79.465,0.183,0.971,151.0
76.292,0.152,0.528,18.0
0.0,0.0,0.0,0.0
39.939,0.056,-0.15,36.0
38.028,0.042,-0.344,0.0
29.615,0.024,-0.425,2.0
79.461,0.04,1.068,151.0
79.348,0.018,0.646,49.0
55.816,-0.003,0.159,29.0
0.0,0.0,0.0,0.0
38.353,-0.024,-0.3,2.0
30.336,-0.028,-0.397,1.0
79.46,-0.097,1.167,151.0
79.459,-0.12,0.746,150.0
61.684,-0.11,0.253,13.0
45.728,-0.095,-0.058,20.0
38.955,-0.093,-0.255,5.0
31.495,-0.084,-0.373,1.0
79.451,-0.234,1.268,153.0
79.46,-0.258,0.848,151.0
76.562,-0.269,0.412,11.0
47.205,-0.179,0.0,21.0
39.545,-0.162,-0.208,6.0
33.087,-0.144,-0.349,1.0
79.445,-0.369,1.37,174.0
79.462,-0.392,0.951,165.0
76.829,-0.4,0.514,13.0
51.049,-0.281,0.068,23.0
41.8,-0.242,-0.164,4.0
34.374,-0.208,-0.316,0.0
79.447,-0.503,1.477,167.0
79.448,-0.526,1.058,179.0
79.4,-0.548,0.639,91.0
0.0,0.0,0.0,0.0
47.67,-0.355,-0.122,10.0
40.167,-0.311,-0.315,0.0
79.438,-0.636,1.585,168.0
79.439,-0.658,1.168,192.0
79.462,-0.681,0.75,169.0
61.094,-0.54,0.248,5.0
50.872,-0.463,-0.06,6.0
38.591,-0.362,-0.248,2.0
79.439,-0.766,1.696,184.0
79.432,-0.787,1.278,200.0
79.452,-0.808,0.86,169.0
77.778,-0.813,0.425,9.0
80.062,-0.859,0.017,10.0
43.433,-0.477,-0.218,1.0
79.443,-0.893,1.808,153.0
79.423,-0.914,1.39,218.0
79.446,-0.935,0.973,29.0
78.978,-0.951,0.544,29.0
60.827,-0.748,0.1,3.0
46.595,-0.586,-0.167,1.0
80.035,-1.025,1.936,11.0
86.946,-1.136,1.647,150.0
86.93,-1.159,1.19,3.0
87.884,-1.195,0.733,14.0
183.465,-2.544,0.57,6.0
50.829,-0.718,-0.108,3.0
183.389,-2.636,4.708,34.0
187.146,-2.735,3.819,70.0
205.38,-3.056,3.115,28.0
123.741,-1.872,1.215,9.0
0.0,0.0,0.0,0.0
61.535,-0.962,-0.04,0.0
151.47,-2.406,4.112,73.0
248.335,-4.007,5.44,59.0
205.323,-3.364,3.421,21.0
40.295,-0.67,0.456,3.0
40.256,-0.68,0.245,48.0
40.283,-0.69,0.034,61.0
40.309,-0.7,1.155,34.0
40.216,-0.708,0.942,47.0
40.176,-0.717,0.73,65.0
40.26,-0.729,0.517,35.0
40.235,-0.738,0.306,57.0
40.284,-0.749,0.096,55.0
40.306,-0.759,1.217,45.0
40.245,-0.767,1.004,44.0
40.217,-0.776,0.793,41.0
40.24,-0.787,0.579,54.0
40.248,-0.797,0.369,47.0
0.0,0.0,0.0,0.0
40.342,-0.817,1.281,10.0
40.225,-0.824,1.067,50.0
40.208,-0.834,0.856,52.0
40.252,-0.844,0.642,51.0
40.304,-0.854,0.433,11.0
0.0,0.0,0.0,0.0
185.692,-4.026,6.193,29.0
40.222,-0.88,1.13,53.0
40.197,-0.889,0.92,52.0
40.219,-0.899,0.706,68.0
40.302,-0.91,0.497,41.0
40.299,-0.919,0.287,70.0
40.241,-0.926,1.406,43.0
40.242,-0.936,1.196,53.0
40.194,-0.944,0.984,53.0
40.18,-0.953,0.771,56.0
40.221,-0.963,0.561,53.0
40.242,-0.972,0.352,15.0
40.2,-0.979,1.47,52.0
40.27,-0.99,1.261,67.0
40.198,-0.997,1.05,57.0
40.189,-1.005,0.836,50.0
40.206,-1.014,0.626,58.0
40.203,-1.023,0.417,52.0
40.215,-1.032,1.535,36.0
40.249,-1.041,1.326,44.0
40.205,-1.048,1.115,45.0
40.196,-1.057,0.902,47.0
40.233,-1.066,0.693,37.0
40.222,-1.074,0.483,40.0
129.295,-3.482,5.152,12.0
40.276,-1.092,1.394,11.0
40.247,-1.1,1.183,32.0
40.319,-1.11,0.971,24.0
0.0,0.0,0.0,0.0
153.512,-4.291,2.102,2.0
129.31,-3.642,5.369,12.0
0.0,0.0,0.0,0.0
0.0,0.0,0.0,0.0
40.293,-1.159,1.039,29.0
40.34,-1.168,0.83,24.0
154.001,-4.492,2.371,150.0
148.097,-4.348,6.399,11.0
0.0,0.0,0.0,0.0
0.0,0.0,0.0,0.0
40.296,-1.206,1.107,29.0
40.317,-1.214,0.898,28.0
40.341,-1.223,0.689,36.0
0.0,0.0,0.0,0.0
148.145,-4.549,5.881,9.0
0.0,0.0,0.0,0.0
0.0,0.0,0.0,0.0
40.34,-1.261,0.967,12.0
40.356,-1.269,0.758,8.0
0.0,0.0,0.0,0.0
148.102,-4.714,6.135,37.0
0.0,0.0,0.0,0.0
0.0,0.0,0.0,0.0
0.0,0.0,0.0,0.0
0.0,0.0,0.0,0.0
0.0,0.0,0.0,0.0
0.0,0.0,0.0,0.0
0.0,0.0,0.0,0.0
0.0,0.0,0.0,0.0
0.0,0.0,0.0,0.0
0.0,0.0,0.0,0.0
0.0,0.0,0.0,0.0
0.0,0.0,0.0,0.0
0.0,0.0,0.0,0.0
0.0,0.0,0.0,0.0
0.0,0.0,0.0,0.0
0.0,0.0,0.0,0.0
0.0,0.0,0.0,0.0
0.0,0.0,0.0,0.0
0.0,0.0,0.0,0.0
0.0,0.0,0.0,0.0
0.0,0.0,0.0,0.0
0.0,0.0,0.0,0.0
0.0,0.0,0.0,0.0
0.0,0.0,0.0,0.0
0.0,0.0,0.0,0.0
0.0,0.0,0.0,0.0
0.0,0.0,0.0,0.0
0.0,0.0,0.0,0.0
0.0,0.0,0.0,0.0
0.0,0.0,0.0,0.0
0.0,0.0,0.0,0.0
0.0,0.0,0.0,0.0
0.0,0.0,0.0,0.0
0.0,0.0,0.0,0.0
0.0,0.0,0.0,0.0
0.0,0.0,0.0,0.0
0.0,0.0,0.0,0.0
0.0,0.0,0.0,0.0
0.0,0.0,0.0,0.0
0.0,0.0,0.0,0.0
98.012,-3.773,5.78,3.0
0.0,0.0,0.0,0.0
0.0,0.0,0.0,0.0
0.0,0.0,0.0,0.0
0.0,0.0,0.0,0.0
0.0,0.0,0.0,0.0
92.826,-3.649,5.64,1.0
0.0,0.0,0.0,0.0
0.0,0.0,0.0,0.0
0.0,0.0,0.0,0.0
0.0,0.0,0.0,0.0
0.0,0.0,0.0,0.0
92.763,-3.72,5.805,24.0
0.0,0.0,0.0,0.0
0.0,0.0,0.0,0.0
0.0,0.0,0.0,0.0
0.0,0.0,0.0,0.0
0.0,0.0,0.0,0.0
92.978,-3.798,5.986,3.0
97.918,-4.01,5.795,7.0
0.0,0.0,0.0,0.0
0.0,0.0,0.0,0.0
0.0,0.0,0.0,0.0
0.0,0.0,0.0,0.0
90.042,-3.741,5.96,5.0
83.226,-3.466,5.074,4.0
0.0,0.0,0.0,0.0
0.0,0.0,0.0,0.0
0.0,0.0,0.0,0.0
0.0,0.0,0.0,0.0
0.0,0.0,0.0,0.0
0.0,0.0,0.0,0.0
0.0,0.0,0.0,0.0
0.0,0.0,0.0,0.0
0.0,0.0,0.0,0.0
0.0,0.0,0.0,0.0
83.158,-3.562,5.803,3.0
92.849,-3.984,5.996,3.0
83.235,-3.578,4.941,4.0
0.0,0.0,0.0,0.0
0.0,0.0,0.0,0.0
0.0,0.0,0.0,0.0
83.283,-3.616,5.964,8.0
89.806,-3.906,5.962,3.0
0.0,0.0,0.0,0.0
0.0,0.0,0.0,0.0
0.0,0.0,0.0,0.0
0.0,0.0,0.0,0.0
83.498,-3.671,6.13,6.0
89.728,-3.95,6.118,2.0
92.56,-4.08,5.829,1.0
83.181,-3.671,4.796,3.0
0.0,0.0,0.0,0.0
0.0,0.0,0.0,0.0
92.392,-4.108,6.948,1.0
91.495,-4.073,6.402,3.0
91.023,-4.056,5.894,2.0
0.0,0.0,0.0,0.0
0.0,0.0,0.0,0.0
0.0,0.0,0.0,0.0
93.159,-4.185,7.174,3.0
93.069,-4.185,6.68,13.0
93.0,-4.186,6.19,4.0
0.0,0.0,0.0,0.0
0.0,0.0,0.0,0.0
0.0,0.0,0.0,0.0
92.737,-4.205,7.308,8.0
83.55,-3.791,6.146,4.0
89.755,-4.076,6.134,4.0
92.47,-4.203,5.828,1.0
83.242,-3.786,4.812,2.0
0.0,0.0,0.0,0.0
92.69,-4.238,7.469,7.0
83.55,-3.822,6.296,4.0
89.845,-4.112,6.3,3.0
90.873,-4.162,5.888,3.0
83.182,-3.812,4.957,1.0
0.0,0.0,0.0,0.0
90.904,-4.187,7.487,4.0
0.0,0.0,0.0,0.0
93.103,-4.291,6.693,10.0
93.097,-4.293,6.197,6.0
0.0,0.0,0.0,0.0
0.0,0.0,0.0,0.0
91.835,-4.256,7.727,2.0
91.57,-4.245,7.224,4.0
83.531,-3.873,6.152,3.0
89.743,-4.162,6.13,4.0
92.232,-4.279,5.819,1.0
83.176,-3.86,4.814,1.0
83.962,-3.913,7.212,7.0
92.653,-4.318,7.472,5.0
83.577,-3.896,6.303,6.0
89.757,-4.184,6.29,4.0
90.667,-4.226,5.879,1.0
83.156,-3.877,4.958,0.0
83.956,-3.931,7.359,13.0
92.565,-4.333,7.627,3.0
91.028,-4.261,7.023,1.0
93.024,-4.354,6.68,5.0
93.098,-4.357,6.199,4.0
0.0,0.0,0.0,0.0
83.95,-3.945,7.505,11.0
91.937,-4.32,7.736,4.0
91.39,-4.293,7.211,4.0
92.617,-4.349,6.812,1.0
89.778,-4.215,6.132,3.0
92.139,-4.324,5.811,1.0
56.746,-2.674,5.171,9.0
98.037,-4.619,8.417,6.0
93.142,-4.385,7.507,3.0
83.555,-3.932,6.287,6.0
89.801,-4.225,6.286,6.0
90.62,-4.261,5.869,1.0
56.726,-2.678,5.266,4.0
83.911,-3.96,7.348,6.0
92.594,-4.367,7.62,3.0
92.152,-4.343,7.09,3.0
93.042,-4.383,6.671,5.0
93.035,-4.38,6.183,3.0
83.545,-3.949,7.898,7.0
83.957,-3.966,7.494,9.0
91.857,-4.336,7.715,4.0
91.284,-4.306,7.178,2.0
83.174,-3.92,6.103,1.0
89.718,-4.225,6.113,2.0
92.567,-4.378,8.907,4.0
56.708,-2.679,5.157,12.0
98.064,-4.629,8.4,6.0
93.266,-4.398,7.489,3.0
91.994,-4.334,6.904,6.0
89.763,-4.225,6.265,6.0
82.715,-3.91,8.097,2.0
83.816,-3.957,7.762,8.0
83.961,-3.96,7.333,8.0
90.955,-4.284,7.454,4.0
92.079,-4.333,7.062,3.0
83.096,-3.906,5.935,3.0
55.041,-2.598,5.479,2.0
83.566,-3.939,7.876,5.0
83.949,-3.952,7.469,14.0
91.804,-4.316,7.673,3.0
91.296,-4.288,7.149,2.0
83.218,-3.904,6.078,2.0
57.992,-2.731,5.868,5.0
92.495,-4.35,8.868,5.0
56.706,-2.663,5.136,9.0
98.116,-4.601,8.357,5.0
91.794,-4.298,7.336,4.0
83.536,-3.907,6.235,6.0
63.508,-2.982,6.527,6.0
54.881,-2.573,5.349,3.0
92.653,-4.337,8.54,12.0
83.919,-3.921,7.281,12.0
92.644,-4.323,7.548,4.0
92.233,-4.297,7.028,1.0
55.045,-2.575,5.744,4.0
90.844,-4.242,8.998,13.0
83.278,-3.882,7.806,10.0
83.747,-3.897,7.397,6.0
91.118,-4.232,7.567,4.0
91.506,-4.243,7.115,4.0
55.066,-2.564,5.833,6.0
63.472,-2.949,6.385,3.0
83.26,-3.862,7.933,9.0
56.697,-2.625,5.096,9.0
83.938,-3.878,7.099,6.0
93.233,-4.299,7.393,4.0
55.086,-2.55,5.921,12.0
55.032,-2.543,5.622,15.0
90.801,-4.187,8.793,7.0
63.386,-2.916,5.794,7.0
83.876,-3.851,7.223,9.0
92.679,-4.247,7.49,5.0
40.515,-1.864,4.417,5.0
57.096,-2.62,5.919,2.0
57.948,-2.654,5.699,3.0
91.271,-4.171,8.481,7.0
83.298,-3.797,7.298,6.0
90.319,-4.109,7.433,5.0
40.493,-1.849,4.475,43.0
56.776,-2.587,5.971,5.0
55.003,-2.5,5.491,11.0
90.872,-4.121,8.577,9.0
56.748,-2.567,5.054,6.0
83.897,-3.786,7.027,11.0
48.373,-2.192,5.417,11.0
49.294,-2.228,5.256,5.0
55.023,-2.481,5.573,7.0
55.014,-2.473,5.272,3.0
63.464,-2.846,5.744,4.0
92.928,-4.158,7.916,7.0
48.746,-2.189,5.53,4.0
49.57,-2.219,5.357,5.0
57.285,-2.558,5.884,17.0
55.031,-2.451,5.353,6.0
84.257,-3.743,7.745,3.0
83.335,-3.692,7.217,11.0
48.773,-2.169,5.602,8.0
40.49,-1.795,4.433,42.0
0.0,0.0,0.0,0.0
55.024,-2.425,5.429,15.0
82.815,-3.64,7.728,10.0
56.76,-2.488,4.994,9.0
53.062,-2.334,6.168,11.0
40.474,-1.775,4.487,46.0
55.226,-2.415,5.826,2.0
63.594,-2.772,6.361,14.0
57.921,-2.517,5.483,5.0
56.793,-2.461,5.073,5.0
57.365,-2.495,6.747,7.0
40.507,-1.756,4.545,40.0
48.596,-2.1,5.191,3.0
56.658,-2.44,5.743,5.0
54.997,-2.361,5.279,16.0
82.841,-3.546,7.509,10.0
46.123,-1.981,5.485,6.0
40.476,-1.733,4.595,53.0
40.573,-1.731,4.387,25.0
56.621,-2.408,5.812,9.0
57.292,-2.428,5.573,12.0
55.001,-2.323,5.055,1.0
40.387,-1.712,4.855,32.0
40.48,-1.71,4.648,25.0
40.496,-1.704,4.431,60.0
53.147,-2.228,5.523,2.0
63.496,-2.653,6.257,9.0
54.973,-2.289,5.122,13.0
40.365,-1.686,4.904,46.0
40.702,-1.694,4.724,16.0
40.468,-1.678,4.478,44.0
40.404,-1.669,4.248,21.0
56.853,-2.34,5.672,6.0
57.753,-2.369,5.451,15.0
40.267,-1.657,4.941,46.0
40.561,-1.662,4.757,41.0
40.417,-1.65,4.521,50.0
40.353,-1.641,4.291,68.0
0.0,0.0,0.0,0.0
57.346,-2.314,5.481,9.0
40.206,-1.628,4.982,31.0
40.41,-1.629,4.788,13.0
40.272,-1.617,4.553,56.0
40.335,-1.613,4.337,60.0
53.284,-2.123,5.441,10.0
55.274,-2.193,5.346,11.0
47.311,-1.883,5.918,5.0
48.355,-1.916,5.785,5.0
40.399,-1.594,4.613,58.0
40.343,-1.585,4.384,64.0
52.657,-2.06,5.437,12.0
55.139,-2.148,5.395,7.0
42.136,-1.646,5.318,4.0
40.271,-1.566,4.862,63.0
40.591,-1.571,4.68,35.0
40.516,-1.562,4.447,53.0
43.232,-1.659,4.511,5.0
40.507,-1.548,4.007,3.0
43.66,-1.673,5.558,26.0
40.298,-1.537,4.909,55.0
40.361,-1.532,4.697,42.0
40.41,-1.527,4.478,43.0
40.148,-1.51,4.231,61.0
53.265,-1.995,5.324,14.0
0.0,0.0,0.0,0.0
40.332,-1.507,4.955,42.0
40.47,-1.504,4.751,57.0
40.463,-1.497,4.525,55.0
40.209,-1.481,4.278,51.0
40.341,-1.478,4.073,35.0
42.689,-1.568,5.522,22.0
40.256,-1.472,4.987,59.0
40.345,-1.467,4.777,52.0
40.225,-1.455,4.539,56.0
40.393,-1.454,4.337,64.0
40.282,-1.443,4.106,63.0
42.402,-1.522,5.527,39.0
40.268,-1.438,5.027,53.0
40.229,-1.429,4.802,67.0
40.108,-1.417,4.563,67.0
40.39,-1.42,4.375,46.0
40.019,-1.399,4.117,64.0
42.227,-1.48,5.543,54.0
40.408,-1.409,5.082,32.0
40.38,-1.4,4.857,60.0
40.196,-1.386,4.61,51.0
40.272,-1.381,4.398,35.0
40.081,-1.367,4.159,53.0
42.221,-1.443,5.58,47.0
43.007,-1.461,5.447,17.0
40.549,-1.37,4.912,43.0
40.362,-1.356,4.664,51.0
39.974,-1.336,4.4,55.0
39.985,-1.328,4.182,52.0
41.991,-1.397,5.586,44.0
0.0,0.0,0.0,0.0
40.398,-1.328,4.928,60.0
40.504,-1.324,4.714,50.0
40.063,-1.302,4.443,50.0
39.898,-1.289,4.206,57.0
50.004,-1.617,6.693,5.0
41.809,-1.344,5.364,34.0
40.427,-1.291,4.964,54.0
40.188,-1.276,4.709,55.0
39.797,-1.256,4.444,51.0
39.859,-1.25,4.232,60.0
42.178,-1.324,5.678,40.0
41.959,-1.309,5.416,56.0
40.331,-1.25,4.982,58.0
40.088,-1.235,4.727,54.0
39.769,-1.217,4.47,54.0
39.219,-1.193,4.193,67.0
47.288,-1.439,6.4,3.0
41.953,-1.269,5.445,60.0
40.45,-1.215,5.026,57.0
40.129,-1.197,4.76,43.0
39.926,-1.183,4.515,58.0
39.439,-1.161,4.243,62.0
42.182,-1.243,5.738,61.0
41.988,-1.228,5.478,44.0
40.198,-1.168,5.021,48.0
40.089,-1.157,4.781,56.0
39.378,-1.128,4.479,69.0
39.282,-1.118,4.251,66.0
42.181,-1.201,5.765,64.0
41.929,-1.185,5.497,39.0
40.115,-1.126,5.036,52.0
40.008,-1.115,4.796,60.0
39.566,-1.094,4.524,48.0
39.378,-1.082,4.285,50.0
42.321,-1.162,5.809,56.0
49.065,-1.337,6.461,11.0
39.728,-1.074,5.01,54.0
40.044,-1.075,4.823,52.0
39.488,-1.052,4.537,57.0
39.335,-1.04,4.302,52.0
42.178,-1.115,5.813,59.0
42.327,-1.11,5.597,63.0
39.533,-1.029,5.007,58.0
40.048,-1.034,4.845,57.0
39.245,-1.005,4.53,55.0
39.252,-0.997,4.313,62.0
41.938,-1.064,5.802,55.0
42.173,-1.062,5.598,50.0
39.516,-0.987,5.024,52.0
40.032,-0.991,4.863,47.0
39.218,-0.964,4.545,46.0
39.42,-0.96,4.35,49.0
41.86,-1.018,5.81,61.0
42.082,-1.015,5.605,52.0
39.494,-0.944,5.039,47.0
40.046,-0.949,4.882,58.0
39.188,-0.921,4.559,62.0
39.532,-0.92,4.379,51.0
41.976,-0.976,5.845,50.0
42.005,-0.967,5.613,55.0
39.46,-0.901,5.051,57.0
39.634,-0.896,4.848,67.0
39.371,-0.882,4.596,44.0
39.135,-0.869,4.35,60.0
42.023,-0.931,5.867,45.0
41.772,-0.917,5.597,66.0
39.462,-0.858,5.066,38.0
39.631,-0.853,4.861,46.0
39.187,-0.835,4.588,60.0
39.387,-0.832,4.391,57.0
41.966,-0.883,5.873,62.0
42.309,-0.882,5.682,29.0
41.924,-0.865,5.395,39.0
39.536,-0.808,4.861,69.0
39.184,-0.793,4.599,61.0
39.218,-0.785,4.384,53.0
50.327,-1.004,7.058,5.0
42.634,-0.841,5.738,32.0
42.208,-0.824,5.443,7.0
39.369,-0.761,4.851,59.0
39.16,-0.748,4.606,56.0
39.256,-0.742,4.398,66.0
42.045,-0.791,5.906,57.0
42.594,-0.793,5.742,38.0
42.439,-0.781,5.482,11.0
39.465,-0.718,4.872,53.0
39.21,-0.706,4.62,50.0
39.355,-0.7,4.416,57.0
42.371,-0.75,5.96,59.0
42.767,-0.748,5.774,49.0
42.174,-0.729,5.455,4.0
39.34,-0.672,4.863,49.0
39.626,-0.669,4.675,53.0
39.244,-0.654,4.41,66.0
41.687,-0.69,5.87,43.0
42.748,-0.699,5.777,34.0
41.939,-0.678,5.43,34.0
39.422,-0.628,4.878,53.0
39.456,-0.621,4.66,48.0
39.476,-0.614,4.44,49.0
41.666,-0.643,5.871,62.0
39.913,-0.607,5.398,50.0
39.916,-0.599,5.172,54.0
39.505,-0.585,4.891,49.0
39.7,-0.58,4.691,60.0
39.463,-0.568,4.441,59.0
41.953,-0.599,5.914,63.0
39.903,-0.561,5.398,69.0
39.945,-0.554,5.177,69.0
39.976,-0.546,4.95,47.0
39.921,-0.538,4.718,45.0
39.677,-0.526,4.466,51.0
41.704,-0.547,5.879,70.0
39.907,-0.516,5.398,43.0
