X,Y,Z,Reflectivity
13.801,1.511,0.497,28.0
13.749,1.512,0.878,55.0
13.777,1.517,0.801,95.0
13.791,1.52,0.723,34.0
13.801,1.523,0.644,32.0
13.794,1.524,0.565,23.0
13.806,1.527,0.487,18.0
13.757,1.528,0.869,40.0
13.781,1.532,0.792,38.0
13.8,1.536,0.714,26.0
13.806,1.538,0.634,16.0
35.848,3.998,1.444,3.0
32.454,3.624,1.123,7.0
13.774,1.544,0.86,37.0
13.801,1.548,0.783,29.0
13.806,1.55,0.704,8.0
35.872,4.033,1.622,128.0
35.891,4.04,1.419,150.0
32.495,3.661,1.099,52.0
13.759,1.556,0.848,18.0
13.803,1.562,0.772,8.0
13.893,1.574,0.698,0.0
35.859,4.067,1.594,150.0
33.074,3.755,1.282,2.0
32.354,3.677,1.069,5.0
13.757,1.569,0.837,13.0
9.991,1.14,0.551,12.0
9.985,1.141,0.493,10.0
35.83,4.098,1.564,5.0
33.058,3.784,1.255,6.0
32.329,3.704,1.043,5.0
10.017,1.152,0.601,20.0
10.006,1.151,0.543,21.0
10.002,1.152,0.486,20.0
9.991,1.151,0.427,17.0
10.0,1.153,0.371,17.0
10.001,1.154,0.314,17.0
10.005,1.159,0.592,68.0
10.003,1.16,0.535,128.0
10.002,1.16,0.478,101.0
9.996,1.161,0.419,57.0
10.006,1.163,0.363,54.0
10.001,1.163,0.305,21.0
10.002,1.167,0.583,77.0
10.005,1.168,0.526,135.0
9.991,1.167,0.468,127.0
9.988,1.168,0.41,77.0
9.992,1.169,0.353,74.0
10.0,1.171,0.296,34.0
9.986,1.173,0.574,77.0
9.994,1.175,0.517,145.0
9.987,1.175,0.459,134.0
9.98,1.175,0.401,78.0
9.991,1.177,0.344,74.0
9.988,1.177,0.287,42.0
9.983,1.181,0.564,84.0
9.987,1.182,0.507,150.0
9.983,1.182,0.45,146.0
9.977,1.182,0.391,84.0
9.985,1.184,0.335,74.0
9.986,1.185,0.278,43.0
9.983,1.188,0.555,89.0
9.979,1.188,0.497,147.0
9.981,1.189,0.44,150.0
9.972,1.188,0.382,99.0
9.975,1.189,0.325,101.0
9.983,1.191,0.268,49.0
9.972,1.193,0.545,94.0
9.978,1.194,0.488,150.0
9.978,1.195,0.431,150.0
9.973,1.195,0.372,109.0
9.97,1.195,0.315,100.0
9.975,1.197,0.258,57.0
9.969,1.199,0.535,106.0
9.975,1.2,0.478,150.0
9.977,1.201,0.421,150.0
9.969,1.201,0.363,115.0
9.976,1.202,0.306,107.0
9.97,1.202,0.248,60.0
9.97,1.205,0.525,115.0
9.972,1.206,0.468,150.0
9.973,1.206,0.411,150.0
9.967,1.206,0.352,128.0
9.975,1.208,0.296,125.0
9.971,1.208,0.239,66.0
9.969,1.21,0.515,109.0
9.975,1.211,0.458,150.0
9.976,1.212,0.401,150.0
9.969,1.212,0.342,129.0
9.979,1.213,0.286,118.0
9.964,1.212,0.228,72.0
9.973,1.216,0.505,108.0
9.974,1.216,0.448,150.0
9.972,1.216,0.39,150.0
9.969,1.216,0.332,131.0
9.976,1.218,0.275,116.0
9.966,1.217,0.218,70.0
9.971,1.22,0.494,97.0
9.974,1.221,0.437,150.0
9.972,1.221,0.38,150.0
9.969,1.221,0.321,124.0
9.974,1.222,0.265,119.0
9.973,1.222,0.207,70.0
9.969,1.224,0.483,103.0
9.967,1.224,0.426,150.0
9.978,1.226,0.369,150.0
9.968,1.225,0.311,117.0
9.977,1.226,0.254,113.0
9.971,1.226,0.197,65.0
9.974,1.229,0.473,100.0
9.975,1.229,0.416,150.0
9.974,1.229,0.359,150.0
9.968,1.228,0.3,125.0
9.982,1.23,0.243,120.0
9.966,1.229,0.186,70.0
9.967,1.231,0.462,115.0
9.972,1.232,0.405,150.0
9.973,1.232,0.347,150.0
9.968,1.232,0.289,128.0
9.974,1.232,0.232,115.0
9.969,1.232,0.175,69.0
9.97,1.234,0.451,103.0
9.975,1.235,0.394,150.0
9.976,1.235,0.337,150.0
9.968,1.234,0.278,120.0
9.974,1.235,0.221,112.0
9.971,1.235,0.164,66.0
9.979,1.238,0.44,108.0
9.977,1.237,0.383,150.0
9.975,1.237,0.325,150.0
9.965,1.236,0.267,123.0
9.971,1.237,0.21,107.0
9.968,1.237,0.153,59.0
9.969,1.238,0.429,96.0
9.975,1.239,0.371,150.0
9.979,1.239,0.314,150.0
9.968,1.238,0.256,110.0
9.974,1.239,0.199,114.0
9.968,1.238,0.141,63.0
9.974,1.24,0.417,101.0
9.973,1.24,0.36,150.0
9.977,1.241,0.303,150.0
9.969,1.239,0.244,117.0
9.974,1.24,0.187,113.0
9.968,1.24,0.13,59.0
9.969,1.241,0.406,101.0
9.976,1.241,0.349,150.0
9.977,1.241,0.292,150.0
9.969,1.24,0.233,122.0
9.974,1.241,0.176,120.0
9.968,1.24,0.119,67.0
9.975,1.242,0.395,107.0
9.981,1.242,0.338,150.0
9.977,1.242,0.28,150.0
9.969,1.241,0.222,123.0
9.974,1.241,0.165,105.0
9.97,1.241,0.108,66.0
9.975,1.242,0.383,103.0
9.976,1.242,0.326,150.0
9.973,1.241,0.269,150.0
9.969,1.241,0.21,115.0
9.97,1.241,0.153,105.0
9.968,1.24,0.096,61.0
9.973,1.242,0.372,97.0
9.977,1.242,0.314,150.0
9.975,1.241,0.257,150.0
9.966,1.24,0.199,102.0
9.974,1.241,0.142,111.0
9.968,1.24,0.085,58.0
9.971,1.24,0.36,94.0
9.975,1.24,0.303,150.0
9.978,1.241,0.246,150.0
9.967,1.239,0.187,118.0
9.971,1.239,0.13,103.0
9.97,1.239,0.073,65.0
9.972,1.239,0.349,100.0
9.977,1.239,0.291,150.0
9.976,1.239,0.234,150.0
9.962,1.237,0.176,102.0
9.971,1.238,0.118,103.0
9.969,1.237,0.061,59.0
9.972,1.237,0.337,98.0
9.969,1.237,0.279,150.0
9.974,1.237,0.222,150.0
9.97,1.236,0.164,103.0
9.972,1.236,0.107,103.0
9.969,1.235,0.05,60.0
9.974,1.235,0.325,100.0
9.973,1.235,0.268,150.0
9.969,1.234,0.211,150.0
9.971,1.234,0.153,113.0
9.974,1.234,0.095,106.0
9.968,1.233,0.038,63.0
9.973,1.233,0.314,116.0
9.972,1.232,0.256,150.0
9.973,1.231,0.199,150.0
9.965,1.23,0.141,124.0
9.976,1.231,0.084,119.0
9.973,1.23,0.027,68.0
9.971,1.229,0.302,109.0
9.978,1.229,0.245,150.0
9.977,1.229,0.188,150.0
9.965,1.227,0.129,105.0
9.971,1.227,0.072,121.0
9.973,1.227,0.015,60.0
9.975,1.226,0.29,103.0
9.974,1.225,0.233,150.0
9.971,1.224,0.176,150.0
9.966,1.223,0.118,117.0
9.974,1.223,0.061,112.0
9.97,1.222,0.004,47.0
9.976,1.222,0.279,104.0
9.974,1.221,0.222,150.0
9.97,1.22,0.164,150.0
9.97,1.219,0.106,119.0
9.974,1.219,0.049,104.0
9.975,1.219,-0.007,60.0
9.977,1.218,0.267,102.0
9.969,1.216,0.21,150.0
9.975,1.216,0.153,150.0
9.966,1.214,0.095,103.0
9.972,1.214,0.038,101.0
9.97,1.213,-0.018,57.0
9.968,1.211,0.256,109.0
9.97,1.211,0.199,150.0
9.97,1.21,0.142,150.0
9.964,1.209,0.083,96.0
9.972,1.209,0.026,89.0
9.977,1.209,-0.03,52.0
9.973,1.207,0.245,101.0
9.975,1.206,0.187,150.0
9.976,1.205,0.13,150.0
9.971,1.204,0.072,94.0
9.983,1.204,0.015,82.0
9.978,1.203,-0.041,57.0
9.974,1.201,0.233,90.0
9.979,1.201,0.176,150.0
9.977,1.199,0.119,150.0
9.975,1.198,0.061,96.0
9.979,1.198,0.004,68.0
9.98,1.197,-0.052,44.0
9.975,1.195,0.222,84.0
9.985,1.195,0.165,150.0
9.977,1.193,0.108,135.0
9.979,1.192,0.05,78.0
9.987,1.192,-0.006,71.0
9.985,1.191,-0.063,35.0
9.985,1.189,0.211,73.0
9.986,1.188,0.154,135.0
9.989,1.188,0.097,125.0
9.983,1.186,0.039,75.0
9.997,1.187,-0.017,76.0
9.992,1.185,-0.074,30.0
9.992,1.183,0.2,68.0
9.997,1.182,0.143,139.0
9.992,1.181,0.086,116.0
9.992,1.179,0.028,72.0
10.002,1.18,-0.028,71.0
9.998,1.178,-0.085,26.0
10.002,1.176,0.19,76.0
10.006,1.175,0.133,125.0
10.0,1.174,0.075,109.0
9.999,1.172,0.017,48.0
10.007,1.172,-0.039,44.0
10.005,1.171,-0.096,19.0
10.013,1.169,0.179,50.0
10.005,1.167,0.122,75.0
10.011,1.167,0.065,25.0
10.008,1.165,0.006,17.0
10.009,1.164,-0.05,16.0
10.006,1.163,-0.107,14.0
10.015,1.161,0.168,17.0
0.0,0.0,0.0,0.0
9.991,1.156,0.054,12.0
33.876,3.915,-0.012,28.0
34.869,4.026,-0.211,9.0
9.999,1.153,-0.117,5.0
32.35,3.721,0.511,11.0
32.444,3.728,0.328,6.0
32.508,3.731,0.143,10.0
33.879,3.885,-0.047,11.0
34.479,3.95,-0.245,29.0
10.045,1.149,-0.128,0.0
32.338,3.69,0.478,25.0
32.432,3.696,0.295,8.0
32.482,3.698,0.11,10.0
36.976,4.205,-0.089,4.0
34.465,3.915,-0.279,45.0
24.775,2.811,-0.342,5.0
32.335,3.658,0.445,47.0
32.423,3.663,0.262,28.0
32.499,3.667,0.077,6.0
32.607,3.675,-0.111,6.0
34.42,3.875,-0.313,2.0
13.847,1.557,-0.205,9.0
32.371,3.629,0.414,10.0
32.421,3.63,0.229,7.0
13.843,1.547,0.019,9.0
13.855,1.547,-0.061,14.0
13.873,1.547,-0.14,11.0
13.822,1.54,-0.218,18.0
13.817,1.534,0.163,15.0
13.822,1.532,0.084,14.0
13.818,1.53,0.005,20.0
13.822,1.528,-0.074,18.0
13.814,1.525,-0.152,17.0
13.803,1.522,-0.231,22.0
13.809,1.518,0.149,28.0
13.801,1.515,0.071,26.0
13.802,1.513,-0.007,27.0
13.794,1.51,-0.087,20.0
13.79,1.507,-0.165,27.0
13.797,1.506,-0.244,30.0
13.801,1.501,0.136,36.0
13.794,1.498,0.058,37.0
13.796,1.496,-0.02,33.0
13.784,1.493,-0.099,29.0
13.788,1.491,-0.178,33.0
13.789,1.489,-0.256,32.0
13.791,1.483,0.124,39.0
13.79,1.481,0.045,66.0
13.785,1.478,-0.032,38.0
13.777,1.475,-0.112,35.0
13.775,1.473,-0.19,36.0
13.777,1.471,-0.269,34.0
13.786,1.466,0.111,41.0
13.788,1.464,0.033,108.0
13.774,1.46,-0.044,67.0
13.765,1.457,-0.124,36.0
13.781,1.456,-0.202,39.0
13.781,1.454,-0.281,33.0
13.787,1.449,0.099,66.0
13.785,1.446,0.021,115.0
13.77,1.442,-0.056,103.0
13.765,1.439,-0.136,38.0
13.778,1.438,-0.214,49.0
13.774,1.436,-0.292,34.0
13.779,1.43,0.087,57.0
13.779,1.427,0.009,149.0
13.767,1.424,-0.068,96.0
13.759,1.421,-0.147,39.0
13.777,1.42,-0.226,37.0
13.768,1.417,-0.303,38.0
13.777,1.411,0.076,79.0
13.786,1.41,-0.001,129.0
13.76,1.405,-0.079,77.0
13.771,1.403,-0.158,38.0
13.782,1.402,-0.237,71.0
13.767,1.398,-0.314,38.0
13.785,1.393,0.065,88.0
13.786,1.391,-0.012,150.0
13.778,1.387,-0.09,66.0
13.771,1.384,-0.169,35.0
13.79,1.383,-0.248,82.0
13.769,1.379,-0.325,38.0
13.79,1.374,0.055,68.0
13.795,1.372,-0.022,141.0
13.789,1.369,-0.1,86.0
13.786,1.366,-0.18,36.0
13.785,1.363,-0.258,41.0
13.766,1.359,-0.335,36.0
13.811,1.357,0.045,41.0
13.796,1.353,-0.032,104.0
13.793,1.349,-0.11,97.0
13.788,1.346,-0.19,33.0
13.778,1.343,-0.267,36.0
13.777,1.34,-0.345,33.0
13.81,1.336,0.035,40.0
13.814,1.334,-0.042,87.0
13.799,1.33,-0.12,49.0
13.798,1.327,-0.199,38.0
13.8,1.325,-0.277,33.0
13.786,1.32,-0.355,30.0
13.834,1.318,0.026,38.0
13.824,1.314,-0.052,37.0
13.821,1.311,-0.13,37.0
13.818,1.308,-0.209,34.0
13.811,1.304,-0.287,34.0
13.801,1.301,-0.364,29.0
13.844,1.298,0.017,33.0
13.848,1.295,-0.06,32.0
13.837,1.291,-0.138,32.0
13.836,1.288,-0.218,29.0
13.829,1.285,-0.296,27.0
13.822,1.282,-0.374,28.0
13.873,1.279,0.008,23.0
13.855,1.274,-0.069,23.0
13.852,1.271,-0.147,24.0
13.852,1.268,-0.227,27.0
13.844,1.265,-0.304,18.0
13.82,1.26,-0.382,19.0
41.083,3.724,0.001,13.0
34.963,3.161,-0.195,5.0
13.896,1.253,-0.156,13.0
13.895,1.25,-0.235,13.0
13.898,1.247,-0.313,11.0
13.871,1.242,-0.391,13.0
41.088,3.658,-0.021,41.0
34.832,3.093,-0.214,11.0
30.544,2.705,-0.359,2.0
22.724,2.007,-0.397,5.0
20.103,1.771,-0.465,3.0
13.924,1.224,-0.4,7.0
31.109,2.718,-0.032,28.0
31.105,2.71,-0.207,27.0
30.328,2.636,-0.372,2.0
22.428,1.944,-0.404,4.0
19.888,1.719,-0.47,3.0
17.776,1.533,-0.519,3.0
31.074,2.663,-0.048,25.0
31.074,2.655,-0.222,26.0
30.013,2.558,-0.383,2.0
22.156,1.883,-0.409,4.0
19.727,1.672,-0.475,3.0
17.649,1.492,-0.524,2.0
31.07,2.61,-0.062,32.0
31.106,2.605,-0.237,21.0
29.667,2.477,-0.392,1.0
22.023,1.834,-0.417,4.0
19.572,1.625,-0.48,3.0
17.59,1.456,-0.53,3.0
31.167,2.564,-0.076,25.0
34.697,2.846,-0.279,2.0
29.519,2.414,-0.402,1.0
21.811,1.778,-0.422,4.0
19.424,1.579,-0.484,3.0
17.452,1.414,-0.533,2.0
30.877,2.485,-0.087,4.0
34.841,2.796,-0.293,8.0
29.322,2.346,-0.411,1.0
21.615,1.724,-0.426,4.0
19.325,1.536,-0.489,3.0
17.358,1.376,-0.536,2.0
30.807,2.425,-0.098,24.0
30.722,2.411,-0.27,21.0
29.156,2.281,-0.419,1.0
21.481,1.675,-0.431,4.0
19.169,1.49,-0.491,3.0
17.285,1.339,-0.54,2.0
30.802,2.369,-0.108,26.0
30.737,2.356,-0.279,36.0
25.106,1.918,-0.368,1.0
21.415,1.631,-0.436,4.0
19.137,1.452,-0.496,3.0
17.228,1.303,-0.543,3.0
36.08,2.71,-0.137,39.0
30.796,2.305,-0.289,3.0
25.056,1.869,-0.374,1.0
21.299,1.583,-0.439,4.0
19.026,1.409,-0.498,3.0
17.182,1.268,-0.546,2.0
35.926,2.633,-0.146,43.0
34.884,2.547,-0.336,1.0
24.729,1.799,-0.375,1.0
21.193,1.536,-0.442,4.0
18.931,1.367,-0.5,3.0
17.149,1.234,-0.549,2.0
36.108,2.58,-0.154,23.0
32.534,2.316,-0.32,1.0
24.71,1.752,-0.38,1.0
21.197,1.497,-0.446,4.0
19.017,1.338,-0.506,3.0
17.085,1.198,-0.55,3.0
35.738,2.486,-0.159,24.0
32.238,2.234,-0.322,1.0
24.638,1.701,-0.383,2.0
21.097,1.451,-0.447,4.0
18.963,1.299,-0.508,3.0
17.048,1.163,-0.551,3.0
35.868,2.428,-0.165,26.0
32.135,2.167,-0.326,1.0
24.828,1.667,-0.389,2.0
21.135,1.413,-0.451,4.0
18.923,1.26,-0.509,3.0
17.111,1.135,-0.555,2.0
35.952,2.366,-0.169,36.0
32.023,2.099,-0.328,1.0
24.926,1.626,-0.393,5.0
21.11,1.372,-0.452,4.0
18.971,1.227,-0.511,3.0
17.1,1.102,-0.556,2.0
35.823,2.289,-0.171,43.0
32.07,2.04,-0.33,1.0
24.683,1.563,-0.391,1.0
21.118,1.332,-0.453,4.0
18.953,1.19,-0.512,3.0
17.109,1.069,-0.557,2.0
35.901,2.225,-0.172,12.0
32.145,1.983,-0.332,1.0
24.816,1.524,-0.393,2.0
21.193,1.295,-0.455,4.0
18.938,1.152,-0.511,3.0
17.176,1.04,-0.559,2.0
35.931,2.158,-0.172,40.0
32.231,1.926,-0.332,1.0
24.752,1.471,-0.392,1.0
21.179,1.253,-0.454,4.0
19.057,1.122,-0.514,3.0
17.249,1.011,-0.56,2.0
36.039,2.093,-0.171,26.0
32.041,1.852,-0.329,1.0
24.882,1.43,-0.392,1.0
21.23,1.214,-0.454,4.0
19.109,1.087,-0.514,3.0
17.295,0.979,-0.561,4.0
36.051,2.023,-0.168,19.0
32.279,1.801,-0.328,1.0
28.67,1.591,-0.449,1.0
21.416,1.182,-0.456,4.0
19.131,1.051,-0.512,3.0
17.323,0.946,-0.559,4.0
36.032,1.95,-0.163,21.0
32.368,1.742,-0.325,1.0
28.689,1.536,-0.446,1.0
21.559,1.148,-0.455,4.0
19.246,1.019,-0.513,4.0
17.398,0.916,-0.559,2.0
36.305,1.894,-0.159,42.0
32.609,1.691,-0.322,1.0
28.774,1.483,-0.442,1.0
21.586,1.106,-0.452,4.0
19.404,0.988,-0.513,3.0
17.487,0.886,-0.559,2.0
36.384,1.825,-0.152,44.0
33.304,1.66,-0.322,2.0
28.802,1.427,-0.436,2.0
21.815,1.074,-0.452,4.0
19.561,0.957,-0.513,3.0
17.537,0.853,-0.556,3.0
36.559,1.76,-0.144,34.0
35.455,1.695,-0.334,1.0
28.908,1.374,-0.43,1.0
22.04,1.04,-0.451,4.0
19.603,0.919,-0.509,3.0
17.67,0.824,-0.555,5.0
36.744,1.695,-0.134,34.0
35.646,1.633,-0.325,1.0
29.117,1.325,-0.425,2.0
22.261,1.006,-0.449,4.0
19.805,0.889,-0.508,3.0
17.801,0.793,-0.554,5.0
39.847,1.757,-0.133,43.0
35.576,1.558,-0.313,7.0
29.357,1.277,-0.419,1.0
22.268,0.961,-0.441,4.0
20.044,0.859,-0.507,3.0
17.994,0.766,-0.553,3.0
40.091,1.688,-0.119,55.0
35.762,1.495,-0.302,5.0
29.573,1.227,-0.411,1.0
22.959,0.945,-0.446,5.0
20.246,0.827,-0.504,3.0
18.068,0.733,-0.549,3.0
40.145,1.61,-0.104,41.0
35.889,1.427,-0.288,7.0
29.978,1.183,-0.404,2.0
23.389,0.916,-0.445,5.0
20.398,0.792,-0.499,3.0
18.331,0.706,-0.549,4.0
40.265,1.534,-0.087,30.0
36.01,1.36,-0.274,8.0
30.228,1.132,-0.394,2.0
23.831,0.885,-0.443,5.0
20.595,0.758,-0.495,3.0
18.489,0.675,-0.545,4.0
41.105,1.483,-0.069,17.0
36.143,1.292,-0.257,9.0
30.502,1.081,-0.383,2.0
24.166,0.848,-0.437,4.0
20.863,0.726,-0.491,4.0
18.777,0.647,-0.544,3.0
42.497,1.447,-0.05,9.0
36.364,1.226,-0.24,12.0
30.868,1.032,-0.371,1.0
27.589,0.913,-0.484,1.0
21.098,0.692,-0.485,4.0
19.045,0.618,-0.541,3.0
46.509,1.491,-0.029,12.0
36.62,1.162,-0.222,23.0
31.467,0.989,-0.361,2.0
27.763,0.863,-0.472,1.0
21.352,0.657,-0.478,4.0
19.173,0.584,-0.533,3.0
0.0,0.0,0.0,0.0
36.797,1.094,-0.201,33.0
31.985,0.941,-0.348,1.0
28.014,0.815,-0.459,1.0
21.739,0.625,-0.474,4.0
19.478,0.554,-0.53,4.0
47.46,1.331,0.027,23.0
37.077,1.028,-0.179,31.0
32.804,0.899,-0.335,1.0
28.618,0.775,-0.45,1.0
22.123,0.592,-0.467,4.0
19.76,0.522,-0.524,3.0
48.095,1.252,0.059,23.0
38.178,0.981,-0.158,37.0
33.518,0.851,-0.32,1.0
29.091,0.729,-0.437,2.0
22.974,0.568,-0.469,4.0
20.09,0.491,-0.519,3.0
48.587,1.169,0.094,23.0
38.858,0.922,-0.134,49.0
36.384,0.852,-0.322,3.0
29.509,0.681,-0.423,2.0
23.421,0.534,-0.462,1.0
20.514,0.461,-0.515,4.0
52.143,1.152,0.139,11.0
39.373,0.857,-0.106,43.0
36.697,0.787,-0.297,7.0
29.936,0.632,-0.406,2.0
26.818,0.558,-0.508,2.0
20.803,0.426,-0.506,4.0
57.488,1.155,0.198,10.0
39.948,0.79,-0.077,15.0
36.866,0.717,-0.269,12.0
30.542,0.584,-0.39,2.0
27.272,0.513,-0.495,2.0
21.173,0.391,-0.498,4.0
57.739,1.046,0.246,8.0
44.488,0.791,-0.048,19.0
37.328,0.652,-0.241,13.0
31.18,0.535,-0.372,1.0
27.666,0.466,-0.478,2.0
21.612,0.357,-0.49,4.0
60.889,0.983,0.311,36.0
0.0,0.0,0.0,0.0
37.722,0.585,-0.211,33.0
32.028,0.487,-0.354,1.0
28.275,0.421,-0.464,1.0
22.058,0.321,-0.48,4.0
48.162,0.685,0.288,14.0
47.345,0.659,0.03,44.0
38.203,0.519,-0.18,47.0
32.945,0.437,-0.335,1.0
29.009,0.376,-0.45,2.0
25.986,0.329,-0.542,1.0
48.076,0.591,0.332,77.0
47.877,0.574,0.074,59.0
38.863,0.453,-0.147,49.0
34.008,0.386,-0.314,1.0
29.442,0.325,-0.429,2.0
26.33,0.282,-0.524,2.0
48.071,0.499,0.377,104.0
47.992,0.483,0.121,75.0
39.567,0.385,-0.111,17.0
37.398,0.353,-0.308,2.0
30.038,0.274,-0.408,2.0
26.779,0.236,-0.507,1.0
48.064,0.407,0.425,103.0
48.056,0.392,0.169,96.0
44.195,0.347,-0.08,18.0
37.67,0.283,-0.272,6.0
30.725,0.222,-0.386,2.0
27.352,0.189,-0.489,1.0
48.186,0.317,0.476,55.0
55.026,0.346,0.25,43.0
44.983,0.269,-0.035,21.0
38.207,0.216,-0.237,14.0
31.714,0.17,-0.365,1.0
28.154,0.142,-0.474,2.0
59.327,0.28,0.648,94.0
59.373,0.262,0.333,37.0
47.107,0.194,0.013,23.0
38.814,0.147,-0.199,33.0
32.942,0.115,-0.344,1.0
28.841,0.092,-0.455,2.0
79.469,0.229,0.955,151.0
76.166,0.197,0.509,21.0
48.028,0.109,0.066,11.0
39.53,0.077,-0.159,41.0
33.729,0.056,-0.315,0.0
29.425,0.04,-0.431,2.0
79.461,0.084,1.043,151.0
79.345,0.061,0.62,28.0
0.0,0.0,0.0,0.0
40.962,0.006,-0.118,17.0
38.195,-0.005,-0.312,2.0
30.082,-0.013,-0.406,2.0
79.459,-0.058,1.135,151.0
79.436,-0.082,0.713,150.0
61.575,-0.082,0.226,10.0
45.52,-0.074,-0.078,10.0
38.84,-0.074,-0.273,4.0
31.022,-0.068,-0.382,1.0
79.455,-0.2,1.228,151.0
79.456,-0.222,0.807,151.0
76.363,-0.237,0.371,7.0
45.773,-0.155,-0.024,20.0
39.315,-0.145,-0.229,6.0
32.285,-0.129,-0.358,1.0
79.446,-0.34,1.324,166.0
79.466,-0.362,0.903,162.0
76.683,-0.372,0.466,12.0
0.0,0.0,0.0,0.0
40.774,-0.221,-0.187,4.0
33.567,-0.192,-0.331,1.0
79.444,-0.478,1.423,167.0
79.45,-0.5,1.002,180.0
0.0,0.0,0.0,0.0
54.021,-0.372,0.106,10.0
47.163,-0.338,-0.156,9.0
36.93,-0.275,-0.317,0.0
79.443,-0.615,1.524,167.0
79.445,-0.637,1.104,190.0
79.442,-0.659,0.684,150.0
60.838,-0.523,0.197,9.0
50.682,-0.45,-0.102,9.0
38.486,-0.352,-0.281,1.0
79.441,-0.749,1.627,177.0
79.434,-0.772,1.208,198.0
79.452,-0.795,0.789,168.0
77.486,-0.798,0.354,2.0
53.534,-0.566,-0.037,4.0
42.462,-0.461,-0.253,3.0
79.435,-0.882,1.733,162.0
79.41,-0.905,1.314,255.0
79.455,-0.928,0.896,4.0
78.564,-0.939,0.464,13.0
60.755,-0.743,0.039,6.0
46.279,-0.579,-0.213,0.0
86.928,-1.11,2.015,15.0
86.947,-1.133,1.557,150.0
148.065,-1.97,1.872,13.0
87.889,-1.193,0.639,8.0
183.649,-2.544,0.371,5.0
0.0,0.0,0.0,0.0
183.429,-2.635,4.502,49.0
187.141,-2.739,3.608,70.0
205.373,-3.059,2.878,17.0
99.033,-1.502,0.858,10.0
248.43,-3.838,0.848,18.0
51.555,-0.81,-0.094,0.0
183.542,-2.932,4.766,37.0
248.326,-4.03,5.141,18.0
205.407,-3.389,3.174,62.0
40.274,-0.675,0.406,27.0
40.267,-0.685,0.195,50.0
40.305,-0.697,-0.016,63.0
40.283,-0.706,1.103,44.0
40.204,-0.715,0.89,53.0
40.17,-0.726,0.679,52.0
40.241,-0.737,0.465,34.0
40.257,-0.748,0.254,56.0
40.303,-0.76,0.043,46.0
40.288,-0.769,1.163,60.0
40.25,-0.778,0.951,46.0
40.238,-0.788,0.739,61.0
40.22,-0.798,0.524,63.0
40.267,-0.809,0.314,31.0
68.167,-1.389,0.175,0.0
40.28,-0.83,1.223,36.0
40.211,-0.839,1.01,57.0
40.207,-0.848,0.799,53.0
40.259,-0.86,0.585,57.0
0.0,0.0,0.0,0.0
40.328,-0.881,0.164,1.0
40.294,-0.89,1.284,23.0
40.211,-0.898,1.071,57.0
40.193,-0.907,0.86,57.0
40.273,-0.918,0.646,71.0
40.309,-0.929,0.436,150.0
40.311,-0.939,0.225,150.0
40.254,-0.947,1.344,52.0
40.214,-0.956,1.133,49.0
40.183,-0.965,0.921,54.0
40.189,-0.974,0.707,66.0
40.215,-0.984,0.497,56.0
40.224,-0.994,0.287,35.0
40.197,-1.002,1.405,55.0
40.244,-1.013,1.196,43.0
40.19,-1.021,0.984,56.0
40.192,-1.03,0.77,44.0
40.213,-1.04,0.56,55.0
40.188,-1.049,0.35,50.0
40.212,-1.059,1.468,49.0
40.282,-1.069,1.26,21.0
40.192,-1.076,1.047,49.0
40.245,-1.087,0.834,38.0
40.298,-1.097,0.625,10.0
40.222,-1.104,0.414,32.0
40.277,-1.114,1.534,0.0
0.0,0.0,0.0,0.0
40.303,-1.133,1.114,15.0
40.349,-1.143,0.901,3.0
0.0,0.0,0.0,0.0
153.786,-4.426,1.831,39.0
148.243,-4.299,5.888,6.0
0.0,0.0,0.0,0.0
40.314,-1.186,1.18,11.0
40.301,-1.194,0.965,28.0
40.334,-1.204,0.756,23.0
40.352,-1.213,0.545,31.0
148.253,-4.489,6.13,29.0
0.0,0.0,0.0,0.0
0.0,0.0,0.0,0.0
40.319,-1.246,1.032,21.0
40.322,-1.255,0.822,16.0
40.35,-1.264,0.613,40.0
148.1,-4.67,6.369,5.0
0.0,0.0,0.0,0.0
0.0,0.0,0.0,0.0
0.0,0.0,0.0,0.0
131.989,-4.269,2.912,3.0
131.826,-4.291,2.221,63.0
0.0,0.0,0.0,0.0
148.042,-4.877,5.841,8.0
0.0,0.0,0.0,0.0
0.0,0.0,0.0,0.0
0.0,0.0,0.0,0.0
131.925,-4.449,2.442,85.0
0.0,0.0,0.0,0.0
0.0,0.0,0.0,0.0
0.0,0.0,0.0,0.0
0.0,0.0,0.0,0.0
0.0,0.0,0.0,0.0
131.989,-4.602,2.666,9.0
0.0,0.0,0.0,0.0
0.0,0.0,0.0,0.0
0.0,0.0,0.0,0.0
0.0,0.0,0.0,0.0
0.0,0.0,0.0,0.0
0.0,0.0,0.0,0.0
0.0,0.0,0.0,0.0
0.0,0.0,0.0,0.0
0.0,0.0,0.0,0.0
0.0,0.0,0.0,0.0
0.0,0.0,0.0,0.0
0.0,0.0,0.0,0.0
0.0,0.0,0.0,0.0
0.0,0.0,0.0,0.0
0.0,0.0,0.0,0.0
0.0,0.0,0.0,0.0
0.0,0.0,0.0,0.0
0.0,0.0,0.0,0.0
0.0,0.0,0.0,0.0
0.0,0.0,0.0,0.0
0.0,0.0,0.0,0.0
0.0,0.0,0.0,0.0
0.0,0.0,0.0,0.0
0.0,0.0,0.0,0.0
0.0,0.0,0.0,0.0
0.0,0.0,0.0,0.0
0.0,0.0,0.0,0.0
0.0,0.0,0.0,0.0
0.0,0.0,0.0,0.0
0.0,0.0,0.0,0.0
0.0,0.0,0.0,0.0
0.0,0.0,0.0,0.0
0.0,0.0,0.0,0.0
0.0,0.0,0.0,0.0
0.0,0.0,0.0,0.0
0.0,0.0,0.0,0.0
98.338,-4.044,5.742,1.0
0.0,0.0,0.0,0.0
0.0,0.0,0.0,0.0
0.0,0.0,0.0,0.0
0.0,0.0,0.0,0.0
0.0,0.0,0.0,0.0
83.271,-3.497,5.009,5.0
0.0,0.0,0.0,0.0
0.0,0.0,0.0,0.0
0.0,0.0,0.0,0.0
0.0,0.0,0.0,0.0
0.0,0.0,0.0,0.0
0.0,0.0,0.0,0.0
0.0,0.0,0.0,0.0
0.0,0.0,0.0,0.0
0.0,0.0,0.0,0.0
0.0,0.0,0.0,0.0
0.0,0.0,0.0,0.0
92.441,-4.034,5.888,1.0
83.26,-3.642,4.869,3.0
0.0,0.0,0.0,0.0
0.0,0.0,0.0,0.0
0.0,0.0,0.0,0.0
0.0,0.0,0.0,0.0
93.088,-4.133,6.094,6.0
0.0,0.0,0.0,0.0
0.0,0.0,0.0,0.0
0.0,0.0,0.0,0.0
0.0,0.0,0.0,0.0
93.021,-4.196,6.254,4.0
0.0,0.0,0.0,0.0
0.0,0.0,0.0,0.0
0.0,0.0,0.0,0.0
0.0,0.0,0.0,0.0
0.0,0.0,0.0,0.0
89.799,-4.111,6.198,5.0
0.0,0.0,0.0,0.0
83.493,-3.837,4.892,1.0
0.0,0.0,0.0,0.0
0.0,0.0,0.0,0.0
0.0,0.0,0.0,0.0
83.025,-3.855,5.88,1.0
0.0,0.0,0.0,0.0
83.315,-3.881,5.03,1.0
0.0,0.0,0.0,0.0
0.0,0.0,0.0,0.0
0.0,0.0,0.0,0.0
83.071,-3.906,6.03,5.0
93.022,-4.381,6.267,5.0
0.0,0.0,0.0,0.0
0.0,0.0,0.0,0.0
0.0,0.0,0.0,0.0
0.0,0.0,0.0,0.0
92.797,-4.414,6.901,3.0
89.752,-4.275,6.206,2.0
92.157,-4.396,5.892,1.0
0.0,0.0,0.0,0.0
0.0,0.0,0.0,0.0
0.0,0.0,0.0,0.0
83.576,-4.019,6.365,5.0
89.924,-4.33,6.378,3.0
90.513,-4.362,5.947,2.0
83.135,-4.011,5.02,1.0
0.0,0.0,0.0,0.0
0.0,0.0,0.0,0.0
83.574,-4.058,6.512,7.0
93.075,-4.524,6.766,2.0
93.034,-4.526,6.277,4.0
83.3,-4.056,5.177,1.0
0.0,0.0,0.0,0.0
0.0,0.0,0.0,0.0
90.956,-4.456,7.248,2.0
83.058,-4.072,6.184,5.0
92.961,-4.561,6.435,3.0
0.0,0.0,0.0,0.0
0.0,0.0,0.0,0.0
0.0,0.0,0.0,0.0
93.388,-4.612,7.607,5.0
92.717,-4.581,7.065,3.0
91.572,-4.527,6.499,2.0
90.473,-4.474,5.938,1.0
0.0,0.0,0.0,0.0
0.0,0.0,0.0,0.0
92.963,-4.623,7.734,3.0
91.991,-4.576,7.17,4.0
93.081,-4.632,6.768,3.0
93.042,-4.631,6.268,3.0
0.0,0.0,0.0,0.0
0.0,0.0,0.0,0.0
92.217,-4.613,7.832,13.0
83.604,-4.183,6.661,2.0
83.096,-4.159,6.185,5.0
92.926,-4.652,6.42,5.0
0.0,0.0,0.0,0.0
0.0,0.0,0.0,0.0
91.987,-4.626,7.97,6.0
93.358,-4.695,7.598,3.0
83.117,-4.181,6.329,8.0
91.388,-4.597,6.47,4.0
90.268,-4.541,5.917,1.0
0.0,0.0,0.0,0.0
92.57,-4.676,8.18,1.0
93.405,-4.718,7.762,6.0
83.185,-4.202,6.475,6.0
91.357,-4.613,6.622,4.0
92.973,-4.695,6.253,5.0
0.0,0.0,0.0,0.0
90.731,-4.6,8.171,4.0
92.496,-4.688,7.843,5.0
83.347,-4.224,6.63,5.0
92.992,-4.711,6.899,3.0
92.994,-4.71,6.412,5.0
0.0,0.0,0.0,0.0
90.675,-4.61,8.323,2.0
92.087,-4.68,7.966,10.0
91.979,-4.672,7.473,2.0
92.899,-4.718,7.05,3.0
91.485,-4.644,6.463,3.0
0.0,0.0,0.0,0.0
56.789,-2.893,5.307,3.0
92.409,-4.705,8.149,1.0
93.229,-4.744,7.73,8.0
83.065,-4.225,6.442,6.0
91.507,-4.652,6.616,1.0
92.999,-4.725,6.236,2.0
56.624,-2.888,5.387,5.0
90.759,-4.626,8.155,4.0
92.564,-4.714,7.828,4.0
83.184,-4.234,6.589,9.0
93.014,-4.731,6.878,4.0
92.961,-4.725,6.387,5.0
0.0,0.0,0.0,0.0
90.712,-4.625,8.3,4.0
92.0,-4.687,7.932,13.0
91.787,-4.671,7.42,4.0
92.739,-4.716,7.009,2.0
91.404,-4.645,6.428,1.0
92.616,-4.725,9.116,1.0
56.698,-2.889,5.281,3.0
92.293,-4.699,8.108,1.0
93.324,-4.747,7.695,7.0
83.121,-4.223,6.415,6.0
91.385,-4.639,6.572,5.0
0.0,0.0,0.0,0.0
56.645,-2.883,5.366,5.0
90.793,-4.616,8.121,3.0
93.064,-4.725,7.825,7.0
83.262,-4.223,6.561,7.0
93.008,-4.712,6.838,3.0
92.726,-4.716,9.427,2.0
56.538,-2.871,5.446,0.0
90.711,-4.601,8.258,4.0
92.018,-4.662,7.881,13.0
91.242,-4.616,7.333,1.0
83.102,-4.199,6.241,10.0
55.204,-2.8,5.699,2.0
63.682,-3.225,6.236,3.0
56.737,-2.869,5.255,4.0
0.0,0.0,0.0,0.0
93.455,-4.713,7.657,5.0
83.124,-4.186,6.371,4.0
63.585,-3.214,6.664,2.0
92.909,-4.688,9.243,3.0
56.638,-2.854,5.333,7.0
90.782,-4.567,8.058,1.0
92.578,-4.649,7.727,4.0
83.632,-4.194,6.538,3.0
49.487,-2.491,5.263,4.0
92.794,-4.663,9.374,3.0
63.681,-3.194,6.094,2.0
90.776,-4.545,8.195,4.0
91.911,-4.595,7.81,12.0
83.685,-4.176,6.668,4.0
49.485,-2.478,5.338,4.0
55.164,-2.758,5.656,3.0
92.603,-4.62,9.0,4.0
56.679,-2.822,5.201,4.0
0.0,0.0,0.0,0.0
93.401,-4.634,7.581,7.0
54.857,-2.732,6.0,5.0
63.615,-3.161,6.617,2.0
92.677,-4.596,9.146,10.0
56.68,-2.805,5.285,6.0
90.799,-4.485,7.984,1.0
92.776,-4.573,7.665,3.0
55.405,-2.741,6.141,7.0
57.349,-2.831,6.049,4.0
92.567,-4.559,9.269,6.0
63.604,-3.126,6.023,4.0
83.895,-4.114,7.498,3.0
92.229,-4.513,7.752,4.0
56.627,-2.781,6.358,7.0
55.043,-2.697,5.884,10.0
55.126,-2.695,5.598,3.0
92.73,-4.523,8.912,10.0
56.7,-2.759,5.147,5.0
92.004,-4.466,7.862,3.0
48.33,-2.355,5.495,13.0
0.0,0.0,0.0,0.0
62.941,-3.052,6.48,3.0
82.958,-4.011,8.089,3.0
56.714,-2.736,5.226,4.0
84.012,-4.043,7.294,3.0
50.859,-2.456,5.852,5.0
56.614,-2.727,6.21,8.0
55.059,-2.645,5.744,9.0
54.947,-2.632,5.432,1.0
92.666,-4.428,8.665,9.0
90.527,-4.315,7.981,9.0
0.0,0.0,0.0,0.0
48.821,-2.328,5.421,4.0
49.561,-2.357,5.236,3.0
57.984,-2.75,5.809,2.0
91.062,-4.306,8.636,2.0
56.75,-2.676,5.078,5.0
47.609,-2.253,5.607,3.0
48.363,-2.282,5.434,15.0
49.497,-2.328,5.296,5.0
55.062,-2.582,5.589,4.0
90.977,-4.255,8.746,8.0
56.698,-2.644,5.147,5.0
49.492,-2.315,5.893,7.0
50.841,-2.371,5.779,10.0
55.102,-2.562,5.966,14.0
55.045,-2.551,5.657,23.0
55.079,-2.545,5.364,3.0
63.387,-2.92,5.833,6.0
48.868,-2.259,5.881,4.0
48.798,-2.248,5.607,8.0
40.499,-1.86,4.435,42.0
53.443,-2.446,5.559,3.0
57.948,-2.643,5.716,3.0
91.256,-4.15,8.511,5.0
48.891,-2.231,5.944,2.0
47.622,-2.165,5.531,4.0
48.381,-2.192,5.358,5.0
55.292,-2.497,5.818,15.0
55.026,-2.476,5.494,14.0
90.756,-4.07,8.572,8.0
46.545,-2.094,5.715,7.0
47.532,-2.131,5.578,7.0
50.827,-2.271,5.689,6.0
40.631,-1.808,4.323,2.0
57.274,-2.54,5.785,14.0
57.909,-2.559,5.537,4.0
48.654,-2.157,6.031,12.0
49.604,-2.19,5.879,5.0
40.495,-1.781,4.579,28.0
49.596,-2.174,5.334,7.0
63.414,-2.769,6.477,7.0
55.011,-2.393,5.322,18.0
48.356,-2.11,6.049,32.0
46.11,-2.004,5.516,5.0
40.487,-1.752,4.623,32.0
40.595,-1.751,4.411,39.0
56.613,-2.433,5.844,6.0
57.304,-2.453,5.605,8.0
48.275,-2.072,6.091,7.0
40.343,-1.725,4.87,15.0
52.379,-2.23,6.037,5.0
40.482,-1.717,4.441,56.0
53.161,-2.246,5.544,2.0
57.354,-2.412,5.67,2.0
57.037,-2.406,7.257,4.0
40.317,-1.693,4.909,47.0
40.764,-1.705,4.741,15.0
40.434,-1.684,4.478,41.0
40.405,-1.675,4.255,33.0
56.79,-2.346,5.672,6.0
50.315,-2.083,6.453,9.0
40.299,-1.661,4.947,46.0
40.495,-1.662,4.75,38.0
40.343,-1.649,4.508,65.0
40.351,-1.642,4.289,69.0
54.855,-2.222,5.532,3.0
42.06,-1.708,5.436,6.0
40.29,-1.628,4.986,29.0
40.594,-1.633,4.801,15.0
40.248,-1.612,4.536,61.0
40.311,-1.607,4.323,64.0
53.281,-2.114,5.424,9.0
42.073,-1.674,5.477,56.0
43.811,-1.734,5.463,3.0
40.366,-1.59,4.812,68.0
40.352,-1.582,4.585,55.0
40.374,-1.575,4.366,54.0
52.758,-2.049,5.418,18.0
42.168,-1.641,5.528,56.0
40.272,-1.559,5.058,32.0
40.338,-1.554,4.844,65.0
40.312,-1.545,4.616,28.0
40.445,-1.543,4.41,51.0
40.175,-1.525,4.16,38.0
42.367,-1.611,5.591,55.0
43.752,-1.656,5.533,29.0
40.325,-1.518,4.877,53.0
40.141,-1.503,4.63,54.0
40.502,-1.509,4.449,34.0
40.075,-1.486,4.183,38.0
42.395,-1.575,5.63,46.0
43.728,-1.615,5.566,22.0
40.385,-1.484,4.917,49.0
40.292,-1.472,4.68,47.0
40.349,-1.467,4.465,40.0
40.179,-1.453,4.225,50.0
42.303,-1.532,5.652,44.0
43.46,-1.565,5.565,18.0
40.379,-1.446,4.947,44.0
40.426,-1.44,4.726,53.0
40.362,-1.43,4.496,63.0
40.402,-1.423,4.279,43.0
42.833,-1.511,5.754,23.0
47.372,-1.661,6.101,5.0
40.255,-1.404,4.961,53.0
40.474,-1.403,4.76,63.0
40.381,-1.392,4.527,56.0
40.381,-1.384,4.305,49.0
42.21,-1.448,5.7,20.0
42.854,-1.462,5.548,64.0
40.324,-1.367,4.997,44.0
40.527,-1.366,4.794,45.0
40.469,-1.356,4.564,47.0
40.239,-1.34,4.316,65.0
42.054,-1.402,5.707,44.0
42.552,-1.409,5.537,60.0
40.541,-1.335,5.05,50.0
40.628,-1.329,4.832,57.0
40.077,-1.303,4.544,57.0
40.06,-1.295,4.321,40.0
42.005,-1.358,5.726,50.0
41.993,-1.349,5.49,53.0
40.56,-1.295,5.077,61.0
40.504,-1.284,4.841,49.0
39.908,-1.257,4.548,57.0
39.769,-1.245,4.312,56.0
42.137,-1.32,5.768,48.0
41.983,-1.306,5.512,33.0
40.564,-1.253,5.1,38.0
40.446,-1.241,4.856,53.0
39.57,-1.206,4.531,64.0
39.915,-1.209,4.349,63.0
42.213,-1.278,5.801,56.0
41.987,-1.263,5.535,38.0
39.913,-1.192,5.038,57.0
40.52,-1.202,4.885,41.0
39.402,-1.16,4.531,66.0
39.671,-1.161,4.342,54.0
42.512,-1.243,5.863,53.0
42.087,-1.222,5.568,26.0
39.811,-1.147,5.044,50.0
40.17,-1.149,4.861,41.0
39.409,-1.119,4.55,56.0
39.661,-1.118,4.358,49.0
42.282,-1.191,5.85,57.0
42.413,-1.186,5.629,57.0
39.634,-1.1,5.038,43.0
40.232,-1.108,4.885,44.0
39.383,-1.077,4.562,59.0
39.357,-1.068,4.34,50.0
42.433,-1.15,5.887,52.0
42.72,-1.149,5.686,53.0
39.537,-1.055,5.041,61.0
40.169,-1.064,4.892,51.0
39.254,-1.031,4.562,63.0
39.279,-1.024,4.346,59.0
41.915,-1.09,5.83,52.0
42.215,-1.089,5.634,53.0
39.48,-1.011,5.047,53.0
39.811,-1.011,4.862,61.0
39.196,-0.987,4.567,52.0
39.405,-0.984,4.372,39.0
41.952,-1.046,5.848,52.0
42.252,-1.044,5.651,51.0
39.523,-0.969,5.064,50.0
39.957,-0.971,4.891,61.0
39.207,-0.944,4.579,63.0
39.576,-0.946,4.401,44.0
41.844,-0.997,5.844,71.0
42.103,-0.994,5.642,53.0
39.465,-0.924,5.066,59.0
39.588,-0.918,4.855,65.0
39.433,-0.906,4.614,49.0
39.223,-0.894,4.37,56.0
42.142,-0.957,5.894,56.0
41.864,-0.941,5.618,56.0
39.486,-0.88,5.076,36.0
39.648,-0.875,4.87,53.0
39.2,-0.857,4.594,63.0
39.331,-0.853,4.389,58.0
42.013,-0.906,5.883,57.0
41.792,-0.893,5.615,69.0
41.845,-0.885,5.386,45.0
39.551,-0.829,4.863,68.0
39.195,-0.813,4.599,60.0
39.16,-0.804,4.375,54.0
42.16,-0.862,5.909,26.0
42.569,-0.861,5.725,34.0
42.262,-0.846,5.444,28.0
39.375,-0.781,4.845,59.0
39.13,-0.767,4.595,58.0
39.254,-0.762,4.389,60.0
42.22,-0.815,5.921,58.0
42.499,-0.812,5.718,35.0
42.366,-0.8,5.46,4.0
39.4,-0.736,4.851,48.0
39.165,-0.724,4.601,52.0
39.336,-0.719,4.399,55.0
42.192,-0.766,5.918,61.0
50.412,-0.905,6.784,6.0
42.072,-0.746,5.423,23.0
39.363,-0.69,4.846,50.0
39.841,-0.691,4.68,54.0
39.167,-0.671,4.38,63.0
41.723,-0.709,5.851,47.0
42.656,-0.716,5.739,18.0
41.98,-0.696,5.409,31.0
39.391,-0.645,4.848,58.0
39.46,-0.638,4.633,51.0
39.363,-0.629,4.399,49.0
41.824,-0.662,5.863,61.0
39.914,-0.624,5.367,60.0
39.877,-0.615,5.135,63.0
39.488,-0.601,4.856,60.0
39.615,-0.595,4.647,62.0
39.241,-0.582,4.382,53.0
42.211,-0.619,5.912,77.0
39.898,-0.577,5.36,68.0
39.925,-0.57,5.136,73.0
39.987,-0.563,4.912,57.0
39.963,-0.554,4.683,46.0
39.79,-0.544,4.437,43.0
41.861,-0.566,5.856,79.0
39.946,-0.532,5.36,36.0
40.034,-0.525,5.143,64.0
39.984,-0.516,4.905,37.0
39.951,-0.508,4.674,59.0
39.755,-0.498,4.425,54.0
40.938,-0.505,5.719,45.0
39.995,-0.486,5.358,54.0
39.972,-0.478,5.126,45.0
40.048,-0.471,4.903,35.0
39.942,-0.462,4.663,50.0
39.72,-0.452,4.412,50.0
40.152,-0.45,5.599,68.0
40.05,-0.441,5.355,48.0
39.879,-0.431,5.104,50.0
39.801,-0.422,4.862,44.0
40.089,-0.418,4.669,47.0
39.645,-0.406,4.392,48.0
40.68,-0.409,5.66,76.0
40.063,-0.395,5.344,54.0
39.8,-0.385,5.081,49.0
39.813,-0.378,4.851,40.0
40.084,-0.373,4.655,48.0
39.745,-0.362,4.39,49.0
0.0,0.0,0.0,0.0
40.075,-0.349,5.332,32.0
39.72,-0.338,5.056,48.0
39.644,-0.331,4.816,65.0
39.856,-0.325,4.614,29.0
40.903,-0.326,4.502,23.0
40.184,-0.312,5.561,16.0
39.672,-0.301,5.262,52.0
39.634,-0.293,5.029,44.0
39.61,-0.285,4.795,47.0
42.018,-0.295,4.847,2.0
39.981,-0.274,4.383,46.0
0.0,0.0,0.0,0.0
39.391,-0.254,5.207,56.0
39.601,-0.248,5.007,62.0
39.668,-0.241,4.784,38.0
39.659,-0.234,4.556,30.0
40.009,-0.229,4.368,61.0
39.678,-0.218,5.455,63.0
39.354,-0.209,5.183,71.0
39.625,-0.204,4.991,50.0
39.613,-0.197,4.758,50.0
43.313,-0.208,4.954,3.0
40.103,-0.185,4.357,43.0
39.462,-0.172,5.404,60.0
39.46,-0.166,5.176,64.0
39.573,-0.16,4.963,75.0
39.524,-0.152,4.725,50.0
46.892,-0.173,5.337,10.0
40.492,-0.142,4.377,50.0
39.447,-0.129,5.379,60.0
39.378,-0.122,5.142,60.0
39.646,-0.116,4.949,68.0
39.815,-0.11,4.737,42.0
40.066,-0.104,4.536,46.0
40.996,-0.1,4.407,42.0
39.552,-0.086,5.369,58.0
39.74,-0.079,5.165,70.0
39.61,-0.072,4.919,61.0
39.85,-0.066,4.715,49.0
40.393,-0.06,4.547,40.0
41.081,-0.055,4.389,44.0
39.607,-0.043,5.35,63.0
39.601,-0.036,5.12,50.0
39.545,-0.029,4.884,55.0
39.98,-0.024,4.703,38.0
40.415,-0.017,4.522,45.0
40.451,-0.011,4.294,40.0
39.645,0.0,5.327,74.0
39.512,0.006,5.08,55.0
39.456,0.012,4.845,45.0
39.768,0.018,4.649,29.0
40.119,0.024,4.459,55.0
41.028,0.031,4.325,37.0
39.874,0.041,5.328,50.0
39.36,0.047,5.031,63.0
39.399,0.053,4.808,50.0
39.591,0.059,4.598,43.0
39.99,0.066,4.414,47.0
40.502,0.073,4.238,56.0
39.876,0.084,5.296,57.0
39.617,0.089,5.032,18.0
43.548,0.104,5.279,12.0
39.578,0.101,4.565,53.0
40.026,0.108,4.385,55.0
40.002,0.114,4.152,57.0
40.655,0.127,5.365,23.0
0.0,0.0,0.0,0.0
43.709,0.149,5.261,31.0
39.686,0.141,4.543,57.0
40.154,0.149,4.365,45.0
40.185,0.155,4.137,51.0
0.0,0.0,0.0,0.0
40.14,0.172,5.029,66.0
40.0,0.177,4.779,48.0
40.415,0.185,4.59,30.0
40.07,0.188,4.32,57.0
40.263,0.195,4.109,57.0
39.485,0.203,5.14,73.0
40.154,0.212,4.993,39.0
39.772,0.215,4.715,47.0
40.324,0.224,4.542,52.0
40.01,0.227,4.276,66.0
40.451,0.235,4.09,53.0
0.0,0.0,0.0,0.0
39.905,0.249,4.923,51.0
39.978,0.255,4.7,25.0
40.505,0.264,4.523,56.0
40.464,0.269,4.284,15.0
40.188,0.273,4.023,22.0
40.451,0.286,5.185,37.0
40.601,0.293,4.968,38.0
40.373,0.296,4.705,45.0
40.351,0.301,4.465,33.0
40.378,0.307,4.234,24.0
47.375,0.366,4.694,24.0
39.796,0.319,5.06,37.0
0.0,0.0,0.0,0.0
40.226,0.333,4.646,55.0
44.045,0.37,4.827,3.0
40.113,0.342,4.163,57.0
47.642,0.412,4.67,11.0
39.772,0.356,5.013,53.0
40.046,0.364,4.814,27.0
40.132,0.369,4.591,69.0
44.083,0.411,4.782,5.0
40.175,0.379,4.125,53.0
40.77,0.389,3.95,20.0
39.915,0.394,4.986,50.0
39.959,0.399,4.758,49.0
40.803,0.411,4.621,29.0
41.037,0.419,4.405,23.0
39.889,0.412,4.05,45.0
39.943,0.417,3.825,54.0
40.212,0.432,4.976,59.0
40.044,0.435,4.721,44.0
40.869,0.448,4.581,38.0
61.084,0.676,6.485,13.0
47.666,0.533,4.784,50.0
40.16,0.453,3.798,47.0
40.341,0.467,4.943,26.0
40.301,0.471,4.703,43.0
41.434,0.489,4.594,42.0
47.642,0.567,5.0,4.0
40.995,0.492,4.064,16.0
40.128,0.486,3.746,35.0
40.078,0.498,4.861,14.0
40.502,0.507,4.676,50.0
41.541,0.524,4.554,36.0
47.619,0.606,4.937,4.0
40.111,0.514,3.926,22.0
39.916,0.516,3.675,57.0
40.261,0.533,4.831,13.0
40.481,0.54,4.621,59.0
47.624,0.639,5.159,8.0
40.935,0.553,4.192,16.0
40.05,0.545,3.868,44.0
39.849,0.546,3.618,50.0
43.901,0.615,5.21,3.0
41.577,0.586,4.691,25.0
41.36,0.587,4.425,39.0
40.599,0.58,4.103,16.0
40.038,0.576,3.814,47.0
39.78,0.575,3.558,56.0
41.481,0.613,4.867,45.0
41.492,0.617,4.625,40.0
41.185,0.615,4.35,17.0
40.387,0.607,4.026,55.0
40.128,0.607,3.767,55.0
39.851,0.605,3.51,47.0
40.556,0.629,4.702,58.0
41.506,0.647,4.568,36.0
40.608,0.636,4.233,16.0
48.377,0.761,4.756,17.0
40.009,0.633,3.7,60.0
39.905,0.634,3.459,63.0
40.919,0.663,4.686,39.0
41.622,0.677,4.523,26.0
40.157,0.657,4.128,54.0
48.362,0.794,4.685,35.0
49.03,0.808,4.465,12.0
39.878,0.661,3.4,72.0
41.1,0.693,4.647,31.0
41.486,0.702,4.447,16.0
42.995,0.731,4.358,3.0
48.999,0.836,4.676,8.0
40.009,0.685,3.585,40.0
39.925,0.687,3.345,60.0
41.311,0.723,4.609,56.0
41.296,0.725,4.366,27.0
40.029,0.706,3.998,61.0
49.007,0.867,4.604,10.0
40.014,0.71,3.526,47.0
53.284,0.949,4.385,20.0
0.0,0.0,0.0,0.0
41.19,0.748,4.292,31.0
40.44,0.737,3.977,35.0
40.042,0.732,3.701,65.0
39.902,0.731,3.455,67.0
53.304,0.981,4.307,14.0
0.0,0.0,0.0,0.0
40.203,0.753,4.128,37.0
49.014,0.921,4.746,5.0
53.087,1.0,4.825,8.0
39.959,0.754,3.399,69.0
77.099,1.461,6.11,56.0
52.922,1.018,5.66,8.0
40.329,0.777,4.077,37.0
49.022,0.947,4.669,5.0
40.127,0.777,3.584,37.0
40.009,0.777,3.34,70.0
77.028,1.499,5.983,20.0
48.466,0.957,5.106,5.0
40.396,0.799,4.02,49.0
40.066,0.794,3.752,34.0
40.124,0.797,3.519,27.0
73.519,1.463,6.02,25.0
53.456,1.066,4.066,15.0
48.479,0.98,5.029,12.0
40.288,0.816,3.943,45.0
40.023,0.812,3.683,51.0
39.982,0.813,3.441,32.0
73.54,1.498,5.901,14.0
53.458,1.091,3.978,50.0
48.538,1.003,4.954,5.0
39.997,0.828,3.848,57.0
61.139,1.267,5.524,15.0
39.955,0.829,3.372,63.0
77.595,1.614,6.098,6.0
74.248,1.546,5.402,30.0
40.694,0.858,4.084,37.0
40.098,0.846,3.789,54.0
61.201,1.293,5.425,27.0
53.91,1.141,4.458,50.0
77.952,1.652,5.993,3.0
74.449,1.579,5.29,9.0
43.023,0.923,4.244,3.0
40.008,0.859,3.712,54.0
61.236,1.317,5.323,21.0
53.907,1.16,4.366,51.0
63.305,1.364,4.758,9.0
62.88,1.356,4.36,17.0
40.045,0.873,3.881,30.0
40.062,0.874,3.648,48.0
40.083,0.875,3.415,46.0
53.891,1.177,4.271,69.0
53.509,1.17,3.929,61.0
62.234,1.361,4.208,20.0
40.101,0.886,3.817,39.0
40.06,0.886,3.578,56.0
53.898,1.193,4.498,33.0
53.895,1.193,4.178,96.0
53.673,1.189,3.848,48.0
0.0,0.0,0.0,0.0
40.116,0.898,3.746,44.0
54.008,1.209,4.727,8.0
53.889,1.207,4.401,77.0
53.769,1.204,4.072,100.0
53.803,1.205,3.761,46.0
63.622,1.425,4.078,4.0
54.035,1.222,4.95,12.0
53.98,1.221,4.628,9.0
53.888,1.219,4.306,121.0
53.505,1.21,3.957,57.0
53.839,1.217,3.667,79.0
54.489,1.232,3.394,50.0
40.131,0.916,3.603,46.0
53.898,1.229,4.523,75.0
53.895,1.229,4.208,113.0
53.587,1.222,3.865,60.0
0.0,0.0,0.0,0.0
54.401,1.239,3.289,68.0
54.015,1.241,4.751,9.0
53.895,1.238,4.424,79.0
53.84,1.236,4.104,66.0
53.686,1.231,3.774,66.0
55.579,1.275,3.582,59.0
54.716,1.254,3.208,61.0
53.975,1.247,4.647,10.0
53.897,1.244,4.325,78.0
53.491,1.234,3.979,68.0
53.811,1.24,3.684,76.0
54.887,1.264,3.437,29.0
55.382,1.274,3.146,64.0
53.914,1.25,4.543,57.0
53.9,1.249,4.225,77.0
53.564,1.239,3.886,65.0
55.564,1.284,3.7,5.0
54.402,1.257,3.305,74.0
55.387,1.278,3.043,62.0
53.912,1.253,4.441,42.0
53.759,1.248,4.114,28.0
53.679,1.244,3.793,72.0
55.57,1.286,3.596,65.0
54.674,1.264,3.22,64.0
55.434,1.28,2.941,14.0
53.907,1.253,4.338,50.0
53.485,1.241,3.99,64.0
53.797,1.247,3.7,71.0
54.893,1.27,3.448,29.0
55.381,1.28,3.156,64.0
122.709,2.833,6.279,28.0
53.905,1.252,4.234,70.0
53.568,1.242,3.894,62.0
53.91,1.248,3.604,44.0
54.395,1.257,3.313,73.0
55.389,1.277,3.05,65.0
122.772,2.828,6.048,25.0
53.799,1.246,4.123,42.0
53.675,1.24,3.799,71.0
55.591,1.282,3.61,64.0
54.617,1.257,3.223,60.0
55.416,1.273,2.946,18.0
127.449,2.924,6.034,19.0
53.507,1.234,3.998,67.0
53.808,1.238,3.705,76.0
54.978,1.262,3.463,32.0
55.36,1.268,3.159,60.0
122.86,2.808,6.294,26.0
127.661,2.911,5.796,27.0
53.571,1.227,3.897,61.0
53.912,1.232,3.607,28.0
54.404,1.24,3.321,70.0
55.376,1.259,3.052,72.0
122.743,2.786,6.049,23.0
130.445,2.953,5.669,16.0
53.692,1.22,3.801,56.0
55.607,1.26,3.611,18.0
54.536,1.233,3.223,55.0
55.401,1.249,2.945,20.0
127.201,2.86,6.02,16.0
130.611,2.929,5.42,9.0
53.832,1.212,3.705,80.0
54.462,1.222,3.43,39.0
55.228,1.235,3.155,35.0
122.896,2.741,6.29,39.0
127.666,2.84,5.792,31.0
152.448,3.381,6.027,30.0
62.407,1.388,4.171,41.0
54.415,1.207,3.319,79.0
55.365,1.224,3.054,83.0
122.691,2.703,6.039,13.0
127.795,2.807,5.547,24.0
152.525,3.339,5.731,35.0
0.0,0.0,0.0,0.0
54.479,1.191,3.215,35.0
55.37,1.207,2.945,24.0
127.414,2.767,6.021,12.0
127.911,2.768,5.298,9.0
152.748,3.294,5.439,29.0
54.443,1.176,3.425,58.0
54.996,1.184,3.138,28.0
125.774,2.698,6.443,16.0
127.707,2.728,5.783,27.0
128.02,2.724,5.052,14.0
128.112,2.716,4.31,25.0
54.436,1.156,3.317,50.0
55.338,1.17,3.048,65.0
128.366,2.702,6.32,8.0
127.79,2.68,5.535,29.0
128.086,2.674,4.8,43.0
128.057,2.662,4.054,44.0
54.547,1.135,3.215,56.0
55.322,1.146,2.937,25.0
127.713,2.634,6.035,16.0
127.862,2.625,5.283,28.0
128.044,2.618,4.546,57.0
128.042,2.605,3.8,52.0
54.698,1.113,3.114,19.0
130.343,2.64,6.659,9.0
127.778,2.576,5.784,23.0
127.936,2.566,5.033,35.0
128.008,2.555,4.289,56.0
128.03,2.544,3.546,49.0
55.313,1.098,3.04,53.0
128.645,2.541,6.318,14.0
127.861,2.513,5.535,15.0
127.996,2.502,4.781,33.0
128.007,2.489,4.035,34.0
128.004,2.475,3.29,33.0
55.284,1.068,2.928,59.0
128.226,2.464,6.043,14.0
127.952,2.445,5.285,19.0
128.012,2.432,4.528,23.0
128.058,2.419,3.785,28.0
128.081,2.406,3.041,28.0
55.235,1.036,2.817,13.0
128.201,2.39,5.79,8.0
128.039,2.372,5.035,16.0
128.06,2.357,4.276,15.0
128.133,2.345,3.533,14.0
128.125,2.33,2.788,26.0
130.418,2.366,6.391,22.0
130.32,2.349,5.627,30.0
161.393,2.89,6.027,16.0
163.274,2.903,5.129,8.0
160.327,2.832,4.104,5.0
128.152,2.249,2.535,13.0
129.81,2.27,6.103,29.0
130.589,2.268,5.379,11.0
132.726,2.289,4.695,26.0
159.851,2.736,4.707,14.0
180.904,3.074,4.273,4.0
127.831,2.155,2.275,20.0
130.221,2.188,5.867,29.0
161.471,2.692,6.332,6.0
132.945,2.199,4.439,20.0
159.843,2.624,4.393,14.0
190.089,3.095,4.117,22.0
127.021,2.052,2.013,37.0
130.225,2.095,5.613,34.0
132.517,2.113,4.939,6.0
133.001,2.102,4.181,14.0
176.116,2.76,4.495,9.0
189.823,2.95,3.741,28.0
126.344,1.946,1.754,26.0
59.351,0.908,2.44,10.0
132.889,2.016,4.691,25.0
163.072,2.452,4.807,16.0
190.076,2.831,4.479,17.0
127.99,1.889,2.273,15.0
121.126,1.77,1.447,11.0
55.091,0.799,2.158,60.0
55.092,0.792,1.838,16.0
176.171,2.507,4.853,11.0
190.122,2.677,4.111,29.0
126.938,1.768,2.006,37.0
89.742,1.237,0.898,6.0
55.053,0.753,2.05,97.0
55.059,0.744,1.73,64.0
55.112,0.737,1.41,4.0
207.414,2.744,4.085,15.0
126.378,1.653,1.755,22.0
48.143,0.622,0.389,27.0
55.032,0.705,1.944,120.0
55.034,0.696,1.623,96.0
55.058,0.687,1.303,57.0
55.107,0.68,0.979,13.0
48.132,0.586,0.575,51.0
48.064,0.577,0.295,74.0
55.024,0.654,1.836,113.0
55.055,0.646,1.519,12.0
48.19,0.557,1.049,41.0
48.126,0.549,0.762,65.0
48.091,0.541,0.483,84.0
48.034,0.532,0.203,83.0
48.21,0.527,1.517,49.0
48.155,0.519,1.235,76.0
48.129,0.51,0.955,94.0
48.083,0.502,0.67,101.0
48.065,0.494,0.39,95.0
47.97,0.484,0.111,57.0
48.152,0.479,1.424,94.0
48.127,0.471,1.143,100.0
48.097,0.462,0.863,103.0
48.06,0.453,0.578,98.0
48.038,0.445,0.299,102.0
46.782,0.425,0.02,34.0
48.119,0.43,1.332,115.0
48.102,0.421,1.052,108.0
48.086,0.412,0.772,112.0
48.046,0.404,0.488,106.0
48.028,0.395,0.209,93.0
44.218,0.356,-0.063,18.0
48.116,0.379,1.242,115.0
48.111,0.37,0.963,113.0
48.088,0.361,0.683,105.0
48.073,0.352,0.399,63.0
48.022,0.343,0.119,52.0
39.316,0.273,-0.13,42.0
48.129,0.326,1.153,105.0
48.128,0.317,0.873,86.0
48.136,0.309,0.595,48.0
48.172,0.3,0.31,56.0
47.063,0.284,0.03,37.0
38.457,0.224,-0.198,24.0
48.174,0.273,1.066,63.0
48.21,0.264,0.787,38.0
59.298,0.313,0.623,29.0
55.019,0.28,0.254,58.0
44.531,0.218,-0.052,18.0
37.806,0.178,-0.263,8.0
59.281,0.268,1.205,119.0
59.32,0.256,0.861,97.0
77.124,0.318,0.673,18.0
54.44,0.213,0.153,29.0
39.846,0.148,-0.117,28.0
37.81,0.133,-0.33,4.0
79.464,0.266,1.474,155.0
79.465,0.25,1.013,151.0
76.261,0.224,0.529,28.0
47.642,0.13,0.05,22.0
38.912,0.098,-0.184,29.0
32.45,0.075,-0.341,1.0
79.459,0.169,1.332,157.0
79.455,0.152,0.871,151.0
62.13,0.106,0.321,6.0
0.0,0.0,0.0,0.0
38.315,0.049,-0.25,7.0
30.684,0.032,-0.377,1.0
79.458,0.068,1.191,151.0
79.422,0.051,0.73,150.0
55.313,0.024,0.188,12.0
40.73,0.009,-0.1,17.0
38.176,0.0,-0.315,1.0
29.527,-0.005,-0.414,2.0
79.467,-0.032,1.053,152.0
76.538,-0.048,0.571,17.0
48.367,-0.04,0.082,4.0
39.575,-0.042,-0.166,22.0
32.925,-0.042,-0.328,1.0
28.51,-0.042,-0.449,2.0
79.467,-0.136,0.918,151.0
76.183,-0.146,0.441,10.0
46.274,-0.099,0.0,20.0
38.925,-0.092,-0.229,6.0
31.484,-0.081,-0.367,2.0
27.392,-0.077,-0.477,1.0
79.458,-0.242,0.785,150.0
61.368,-0.201,0.251,12.0
42.418,-0.148,-0.071,17.0
37.248,-0.138,-0.281,1.0
29.937,-0.118,-0.399,2.0
26.5,-0.111,-0.506,2.0
79.249,-0.35,0.65,48.0
0.0,0.0,0.0,0.0
40.001,-0.195,-0.133,2.0
33.548,-0.171,-0.309,1.0
28.973,-0.155,-0.434,2.0
25.552,-0.143,-0.531,1.0
76.762,-0.448,0.503,13.0
50.017,-0.303,0.039,17.0
41.808,-0.263,-0.208,4.0
31.951,-0.209,-0.347,1.0
27.909,-0.189,-0.464,1.0
24.531,-0.172,-0.549,2.0
61.492,-0.445,0.305,11.0
46.982,-0.351,-0.037,5.0
40.365,-0.311,-0.265,6.0
30.501,-0.243,-0.379,2.0
26.869,-0.22,-0.489,2.0
23.766,-0.2,-0.57,2.0
58.852,-0.51,0.2,2.0
50.521,-0.45,-0.119,11.0
35.25,-0.323,-0.286,0.0
29.521,-0.277,-0.413,3.0
26.078,-0.251,-0.515,2.0
23.096,-0.228,-0.589,2.0
56.918,-0.577,0.106,5.0
45.048,-0.468,-0.176,3.0
33.103,-0.352,-0.32,1.0
28.642,-0.312,-0.445,4.0
25.178,-0.28,-0.536,2.0
22.322,-0.254,-0.604,1.0
54.535,-0.635,0.017,1.0
42.152,-0.502,-0.229,2.0
31.601,-0.384,-0.353,1.0
27.595,-0.342,-0.47,2.0
24.281,-0.307,-0.554,1.0
21.633,-0.279,-0.618,1.0
51.411,-0.676,-0.059,4.0
38.529,-0.517,-0.266,0.0
30.192,-0.413,-0.382,1.0
26.69,-0.371,-0.494,1.0
23.604,-0.335,-0.573,2.0
21.016,-0.303,-0.631,1.0
50.759,-0.745,-0.132,2.0
35.362,-0.529,-0.296,1.0
29.354,-0.447,-0.414,2.0
25.882,-0.401,-0.517,1.0
22.949,-0.361,-0.59,1.0
20.399,-0.327,-0.642,1.0
46.24,-0.752,-0.187,0.0
33.111,-0.548,-0.325,1.0
28.514,-0.479,-0.443,1.0
25.123,-0.429,-0.538,1.0
22.225,-0.385,-0.603,1.0
19.873,-0.35,-0.654,1.0
40.216,-0.718,-0.219,12.0
31.402,-0.569,-0.352,1.0
27.619,-0.508,-0.468,1.0
24.355,-0.455,-0.555,1.0
21.595,-0.409,-0.616,1.0
19.435,-0.373,-0.667,1.0
40.167,-0.782,-0.275,2.0
30.341,-0.599,-0.381,1.0
26.731,-0.535,-0.489,1.0
23.595,-0.479,-0.57,1.0
21.004,-0.432,-0.628,1.0
18.917,-0.394,-0.674,1.0
35.691,-0.753,-0.292,0.0
29.494,-0.631,-0.41,1.0
26.003,-0.563,-0.511,1.0
22.897,-0.502,-0.584,2.0
20.503,-0.455,-0.64,1.0
18.486,-0.416,-0.683,1.0
33.516,-0.762,-0.317,1.0
28.676,-0.66,-0.436,1.0
25.339,-0.591,-0.531,1.0
22.421,-0.529,-0.6,2.0
19.998,-0.477,-0.65,1.0
18.14,-0.438,-0.694,1.0
32.219,-0.787,-0.346,1.0
27.523,-0.68,-0.453,7.0
24.665,-0.616,-0.547,1.0
21.817,-0.551,-0.611,1.0
19.591,-0.5,-0.661,1.0
17.804,-0.46,-0.703,2.0
30.871,-0.805,-0.369,1.0
27.066,-0.714,-0.479,1.0
23.915,-0.637,-0.56,1.0
21.122,-0.569,-0.618,2.0
19.15,-0.521,-0.67,1.0
17.504,-0.482,-0.713,1.0
29.932,-0.831,-0.394,1.0
26.418,-0.741,-0.499,1.0
23.403,-0.663,-0.576,2.0
20.77,-0.595,-0.632,2.0
18.759,-0.543,-0.678,1.0
17.156,-0.501,-0.718,1.0
29.172,-0.86,-0.418,1.0
25.875,-0.77,-0.519,1.0
22.875,-0.688,-0.589,1.0
20.341,-0.618,-0.642,1.0
18.392,-0.564,-0.686,1.0
16.819,-0.521,-0.724,1.0
28.527,-0.89,-0.441,1.0
25.237,-0.795,-0.534,1.0
22.331,-0.71,-0.6,1.0
19.912,-0.639,-0.651,1.0
18.101,-0.586,-0.695,1.0
16.533,-0.54,-0.729,1.0
27.806,-0.915,-0.46,2.0
24.652,-0.819,-0.548,1.0
21.81,-0.731,-0.609,1.0
19.55,-0.661,-0.66,1.0
17.79,-0.607,-0.702,1.0
16.227,-0.559,-0.733,1.0
27.156,-0.942,-0.478,2.0
23.986,-0.839,-0.559,1.0
21.398,-0.755,-0.621,1.0
19.193,-0.683,-0.668,1.0
17.518,-0.629,-0.71,1.0
15.982,-0.579,-0.739,1.0
26.575,-0.969,-0.495,2.0
23.478,-0.863,-0.571,2.0
20.935,-0.776,-0.629,1.0
18.871,-0.706,-0.676,1.0
17.237,-0.65,-0.716,1.0
15.74,-0.598,-0.744,1.0
26.014,-0.995,-0.51,1.0
23.085,-0.89,-0.584,2.0
20.514,-0.797,-0.636,1.0
18.561,-0.727,-0.683,1.0
16.969,-0.67,-0.721,1.0
15.521,-0.618,-0.748,1.0
25.534,-1.022,-0.525,1.0
22.632,-0.913,-0.594,1.0
20.182,-0.82,-0.644,1.0
18.3,-0.749,-0.69,2.0
16.714,-0.69,-0.726,1.0
15.346,-0.638,-0.754,1.0
25.057,-1.047,-0.537,1.0
22.179,-0.934,-0.602,1.0
19.833,-0.842,-0.651,1.0
18.002,-0.77,-0.695,1.0
16.465,-0.709,-0.729,1.0
15.157,-0.658,-0.758,1.0
24.583,-1.072,-0.548,1.0
21.814,-0.958,-0.61,1.0
19.589,-0.866,-0.659,1.0
17.795,-0.792,-0.702,1.0
16.25,-0.729,-0.733,1.0
14.972,-0.677,-0.761,1.0
24.045,-1.091,-0.556,1.0
21.482,-0.982,-0.619,1.0
19.298,-0.888,-0.665,1.0
17.576,-0.814,-0.707,1.0
16.024,-0.748,-0.736,1.0
14.815,-0.696,-0.765,1.0
23.618,-1.114,-0.565,2.0
21.131,-1.004,-0.625,1.0
19.029,-0.91,-0.671,1.0
17.335,-0.834,-0.711,1.0
15.86,-0.769,-0.741,1.0
14.652,-0.715,-0.767,1.0
23.312,-1.142,-0.575,2.0
20.805,-1.026,-0.631,1.0
18.767,-0.931,-0.675,1.0
17.162,-0.857,-0.716,1.0
15.72,-0.791,-0.746,1.0
14.518,-0.735,-0.771,1.0
23.075,-1.172,-0.585,2.0
20.527,-1.049,-0.637,1.0
18.582,-0.956,-0.682,1.0
16.945,-0.877,-0.719,1.0
15.565,-0.811,-0.749,1.0
14.397,-0.755,-0.774,1.0
22.939,-1.207,-0.597,5.0
20.305,-1.075,-0.643,1.0
18.372,-0.979,-0.686,1.0
16.74,-0.897,-0.721,1.0
15.412,-0.831,-0.751,1.0
14.27,-0.775,-0.777,1.0
22.305,-1.214,-0.595,8.0
20.073,-1.099,-0.648,1.0
18.202,-1.003,-0.691,1.0
16.627,-0.921,-0.727,1.0
15.269,-0.851,-0.754,1.0
14.126,-0.792,-0.777,1.0
22.079,-1.242,-0.601,6.0
19.882,-1.124,-0.654,1.0
18.041,-1.026,-0.695,2.0
16.474,-0.943,-0.729,1.0
15.168,-0.873,-0.757,1.0
14.015,-0.812,-0.779,1.0
21.88,-1.27,-0.608,4.0
19.656,-1.147,-0.657,5.0
17.869,-1.049,-0.698,1.0
16.329,-0.964,-0.732,1.0
15.051,-0.894,-0.759,1.0
13.943,-0.833,-0.782,1.0
21.694,-1.298,-0.614,4.0
19.451,-1.17,-0.66,3.0
17.778,-1.076,-0.703,1.0
16.182,-0.985,-0.733,1.0
14.963,-0.915,-0.762,1.0
13.843,-0.852,-0.783,1.0
21.456,-1.322,-0.617,3.0
19.308,-1.196,-0.664,3.0
17.619,-1.098,-0.705,2.0
16.074,-1.007,-0.735,1.0
14.868,-0.936,-0.764,1.0
13.782,-0.873,-0.786,1.0
21.068,-1.337,-0.615,0.0
19.174,-1.223,-0.667,3.0
17.422,-1.117,-0.704,0.0
16.006,-1.032,-0.738,1.0
14.778,-0.958,-0.765,1.0
13.721,-0.894,-0.788,1.0
21.084,-1.376,-0.623,4.0
19.075,-1.251,-0.671,2.0
17.317,-1.141,-0.706,0.0
15.92,-1.055,-0.741,5.0
14.693,-0.978,-0.766,1.0
13.685,-0.916,-0.79,1.0
21.115,-1.415,-0.632,0.0
18.905,-1.273,-0.671,2.0
17.184,-1.163,-0.707,1.0
