X,Y,Z,Reflectivity
17.299,-0.133,-0.714,1.0
29.381,-0.231,-0.41,2.0
25.998,-0.207,-0.515,2.0
22.934,-0.186,-0.588,1.0
20.331,-0.167,-0.642,3.0
18.346,-0.153,-0.686,1.0
16.738,-0.142,-0.724,1.0
28.113,-0.244,-0.447,2.0
24.794,-0.218,-0.538,2.0
22.013,-0.197,-0.606,1.0
19.673,-0.178,-0.659,2.0
17.827,-0.164,-0.701,1.0
16.193,-0.151,-0.731,1.0
26.881,-0.257,-0.478,1.0
23.748,-0.23,-0.561,1.0
21.139,-0.207,-0.623,1.0
18.963,-0.189,-0.671,1.0
17.298,-0.174,-0.713,1.0
15.782,-0.161,-0.743,1.0
25.869,-0.27,-0.509,1.0
22.944,-0.243,-0.585,2.0
20.338,-0.218,-0.638,1.0
18.37,-0.199,-0.685,1.0
16.786,-0.185,-0.724,1.0
15.343,-0.171,-0.751,1.0
24.935,-0.283,-0.537,2.0
22.038,-0.253,-0.603,1.0
19.732,-0.23,-0.655,1.0
17.831,-0.21,-0.698,1.0
16.242,-0.194,-0.73,1.0
14.954,-0.181,-0.76,1.0
23.822,-0.293,-0.557,1.0
21.223,-0.264,-0.62,1.0
19.064,-0.24,-0.668,1.0
17.333,-0.221,-0.71,1.0
15.82,-0.204,-0.74,1.0
14.59,-0.191,-0.768,1.0
23.042,-0.306,-0.581,1.0
20.449,-0.275,-0.634,1.0
18.485,-0.251,-0.681,1.0
16.821,-0.231,-0.72,1.0
15.391,-0.214,-0.748,1.0
14.21,-0.2,-0.774,1.0
22.134,-0.317,-0.598,1.0
19.8,-0.286,-0.65,2.0
17.956,-0.263,-0.694,1.0
16.309,-0.241,-0.727,1.0
15.035,-0.225,-0.758,1.0
13.894,-0.21,-0.782,1.0
21.376,-0.328,-0.615,1.0
19.177,-0.298,-0.664,2.0
17.466,-0.274,-0.706,1.0
15.901,-0.252,-0.737,1.0
14.673,-0.235,-0.766,1.0
13.627,-0.22,-0.791,1.0
20.639,-0.339,-0.63,1.0
18.612,-0.309,-0.677,1.0
16.977,-0.285,-0.716,0.0
15.504,-0.263,-0.746,1.0
14.299,-0.245,-0.771,1.0
13.351,-0.231,-0.798,1.0
19.959,-0.35,-0.644,1.0
18.087,-0.32,-0.688,1.0
16.483,-0.295,-0.723,0.0
15.128,-0.273,-0.753,1.0
13.992,-0.255,-0.778,0.0
13.086,-0.241,-0.804,0.0
19.43,-0.362,-0.659,1.0
17.621,-0.332,-0.7,1.0
16.076,-0.305,-0.732,1.0
14.811,-0.284,-0.763,1.0
13.714,-0.266,-0.786,1.0
12.818,-0.251,-0.809,0.0
18.815,-0.372,-0.67,1.0
17.131,-0.342,-0.709,1.0
15.682,-0.316,-0.74,1.0
14.459,-0.294,-0.768,1.0
13.455,-0.276,-0.793,1.0
12.573,-0.261,-0.814,0.0
18.344,-0.384,-0.683,1.0
16.683,-0.353,-0.717,1.0
15.315,-0.327,-0.748,1.0
14.13,-0.304,-0.773,1.0
13.214,-0.287,-0.8,1.0
12.341,-0.27,-0.819,0.0
17.882,-0.396,-0.694,1.0
16.276,-0.364,-0.726,1.0
15.018,-0.338,-0.757,1.0
13.86,-0.315,-0.78,1.0
12.957,-0.297,-0.805,0.0
12.137,-0.281,-0.825,0.0
17.459,-0.408,-0.704,1.0
15.915,-0.375,-0.734,1.0
14.666,-0.348,-0.762,1.0
13.61,-0.326,-0.787,1.0
12.714,-0.307,-0.81,0.0
11.921,-0.29,-0.828,1.0
17.019,-0.419,-0.713,1.0
15.539,-0.385,-0.741,1.0
14.379,-0.36,-0.769,1.0
13.392,-0.338,-0.795,1.0
12.518,-0.318,-0.816,1.0
11.715,-0.3,-0.832,1.0
16.604,-0.429,-0.72,1.0
15.235,-0.397,-0.749,1.0
14.086,-0.37,-0.774,1.0
13.14,-0.348,-0.8,1.0
12.304,-0.328,-0.82,0.0
11.566,-0.311,-0.838,0.0
16.223,-0.44,-0.727,1.0
14.948,-0.409,-0.757,1.0
13.839,-0.382,-0.781,1.0
12.915,-0.359,-0.805,1.0
12.112,-0.339,-0.825,0.0
11.399,-0.322,-0.843,0.0
15.866,-0.451,-0.734,1.0
14.661,-0.42,-0.763,1.0
13.602,-0.393,-0.786,1.0
12.712,-0.37,-0.81,1.0
11.919,-0.349,-0.829,0.0
11.236,-0.332,-0.846,0.0
15.562,-0.463,-0.741,1.0
14.366,-0.431,-0.767,1.0
13.387,-0.404,-0.793,1.0
12.507,-0.381,-0.814,0.0
11.744,-0.36,-0.833,0.0
11.067,-0.342,-0.849,0.0
15.271,-0.475,-0.748,1.0
14.102,-0.442,-0.772,1.0
13.184,-0.416,-0.798,1.0
12.32,-0.391,-0.818,0.0
11.598,-0.371,-0.838,0.0
10.915,-0.352,-0.852,0.0
14.996,-0.487,-0.754,1.0
13.877,-0.453,-0.778,1.0
12.962,-0.427,-0.802,1.0
12.147,-0.403,-0.823,0.0
11.436,-0.382,-0.841,0.0
10.79,-0.363,-0.856,0.0
14.731,-0.498,-0.76,1.0
13.669,-0.466,-0.784,1.0
12.798,-0.439,-0.808,1.0
11.961,-0.413,-0.825,0.0
11.285,-0.392,-0.844,0.0
10.646,-0.373,-0.858,0.0
14.469,-0.51,-0.764,1.0
13.476,-0.478,-0.789,1.0
12.597,-0.45,-0.811,0.0
11.821,-0.425,-0.83,0.0
11.136,-0.403,-0.846,0.0
10.538,-0.384,-0.862,0.0
14.245,-0.522,-0.769,1.0
13.29,-0.49,-0.794,1.0
12.424,-0.461,-0.814,0.0
11.674,-0.436,-0.834,0.0
11.023,-0.414,-0.851,0.0
10.428,-0.394,-0.865,0.0
14.04,-0.534,-0.774,1.0
13.11,-0.502,-0.799,1.0
12.271,-0.472,-0.818,0.0
11.544,-0.447,-0.837,0.0
10.877,-0.424,-0.852,0.0
10.296,-0.404,-0.866,0.0
13.845,-0.546,-0.779,1.0
12.932,-0.513,-0.802,1.0
12.124,-0.484,-0.822,0.0
11.398,-0.458,-0.84,0.0
10.769,-0.435,-0.855,0.0
10.174,-0.414,-0.867,0.0
13.668,-0.559,-0.784,1.0
12.771,-0.525,-0.806,1.0
11.97,-0.495,-0.824,1.0
11.291,-0.47,-0.844,0.0
10.64,-0.446,-0.856,0.0
10.031,-0.423,-0.865,1.0
13.48,-0.571,-0.787,1.0
12.623,-0.537,-0.81,0.0
11.846,-0.507,-0.828,1.0
11.167,-0.481,-0.846,0.0
10.559,-0.457,-0.861,0.0
9.923,-0.432,-0.866,2.0
13.347,-0.584,-0.793,1.0
12.462,-0.549,-0.812,0.0
11.72,-0.519,-0.831,0.0
11.059,-0.493,-0.849,0.0
10.445,-0.468,-0.862,0.0
9.862,-0.444,-0.87,2.0
13.208,-0.598,-0.797,1.0
12.343,-0.562,-0.816,0.0
11.602,-0.531,-0.833,0.0
10.96,-0.504,-0.851,0.0
10.374,-0.48,-0.866,0.0
9.785,-0.456,-0.873,2.0
13.04,-0.609,-0.799,0.0
12.217,-0.574,-0.819,0.0
11.523,-0.544,-0.838,0.0
10.848,-0.515,-0.852,0.0
10.258,-0.49,-0.865,0.0
9.748,-0.468,-0.878,1.0
12.915,-0.623,-0.803,1.0
12.102,-0.586,-0.821,1.0
11.394,-0.555,-0.839,0.0
10.752,-0.527,-0.854,0.0
10.15,-0.5,-0.865,0.0
9.686,-0.48,-0.881,0.0
12.782,-0.635,-0.805,0.0
11.989,-0.599,-0.824,0.0
11.296,-0.567,-0.841,0.0
10.679,-0.539,-0.857,0.0
10.062,-0.511,-0.865,0.0
9.594,-0.49,-0.88,0.0
12.657,-0.648,-0.807,1.0
11.888,-0.612,-0.826,0.0
11.212,-0.58,-0.843,0.0
10.602,-0.551,-0.859,0.0
9.972,-0.521,-0.865,1.0
9.506,-0.499,-0.88,0.0
12.552,-0.661,-0.81,0.0
11.806,-0.625,-0.829,0.0
11.13,-0.592,-0.846,0.0
10.504,-0.562,-0.859,0.0
9.924,-0.534,-0.869,2.0
9.462,-0.511,-0.882,0.0
12.458,-0.675,-0.813,0.0
11.7,-0.637,-0.83,0.0
11.031,-0.604,-0.846,0.0
10.451,-0.575,-0.862,0.0
9.856,-0.545,-0.869,2.0
9.42,-0.523,-0.885,0.0
12.361,-0.688,-0.815,0.0
11.618,-0.65,-0.832,0.0
10.966,-0.617,-0.848,0.0
10.38,-0.587,-0.863,0.0
9.806,-0.557,-0.871,2.0
9.345,-0.533,-0.884,0.0
12.289,-0.703,-0.818,0.0
11.552,-0.664,-0.834,0.0
10.911,-0.63,-0.85,0.0
10.317,-0.599,-0.864,0.0
9.779,-0.57,-0.875,2.0
9.305,-0.545,-0.886,0.0
12.203,-0.716,-0.819,0.0
11.489,-0.677,-0.836,0.0
10.843,-0.642,-0.851,0.0
10.257,-0.611,-0.865,0.0
9.751,-0.583,-0.878,1.0
9.277,-0.558,-0.888,0.0
12.13,-0.73,-0.821,0.0
11.411,-0.69,-0.837,0.0
10.786,-0.655,-0.852,0.0
10.189,-0.622,-0.864,0.0
9.738,-0.597,-0.882,1.0
9.211,-0.567,-0.886,0.0
12.055,-0.743,-0.822,0.0
11.343,-0.703,-0.837,0.0
10.74,-0.668,-0.854,0.0
10.123,-0.633,-0.863,0.0
9.668,-0.607,-0.88,0.0
9.189,-0.58,-0.889,0.0
11.999,-0.758,-0.823,0.0
11.307,-0.717,-0.84,0.0
10.697,-0.681,-0.855,0.0
10.07,-0.644,-0.863,0.0
9.634,-0.619,-0.881,0.0
9.159,-0.591,-0.889,0.0
11.943,-0.772,-0.824,0.0
11.258,-0.731,-0.841,0.0
10.66,-0.695,-0.856,0.0
10.029,-0.657,-0.864,0.0
9.583,-0.63,-0.88,0.0
9.138,-0.604,-0.891,0.0
11.884,-0.786,-0.824,0.0
11.238,-0.746,-0.843,0.0
10.596,-0.706,-0.855,0.0
9.98,-0.668,-0.863,1.0
9.537,-0.641,-0.879,0.0
9.104,-0.615,-0.891,0.0
11.846,-0.8,-0.826,0.0
11.18,-0.758,-0.842,0.0
10.571,-0.72,-0.856,0.0
9.955,-0.681,-0.864,1.0
9.522,-0.654,-0.88,0.0
9.086,-0.627,-0.891,0.0
11.809,-0.815,-0.826,0.0
11.154,-0.773,-0.843,0.0
10.545,-0.734,-0.857,0.0
9.938,-0.694,-0.865,2.0
9.514,-0.668,-0.882,0.0
9.065,-0.639,-0.892,0.0
11.793,-0.831,-0.828,0.0
11.125,-0.787,-0.844,0.0
10.544,-0.749,-0.859,0.0
9.924,-0.708,-0.866,2.0
9.485,-0.679,-0.881,0.0
9.041,-0.65,-0.891,0.0
11.781,-0.847,-0.829,0.0
11.113,-0.803,-0.845,0.0
10.512,-0.762,-0.858,0.0
9.903,-0.721,-0.866,2.0
9.475,-0.692,-0.882,0.0
9.035,-0.663,-0.892,0.0
11.746,-0.862,-0.829,0.0
11.098,-0.817,-0.845,0.0
10.5,-0.776,-0.859,0.0
9.91,-0.735,-0.867,2.0
9.491,-0.707,-0.884,0.0
9.035,-0.676,-0.893,0.0
11.754,-0.879,-0.83,0.0
11.089,-0.832,-0.846,0.0
10.482,-0.789,-0.858,0.0
9.902,-0.749,-0.868,2.0
9.472,-0.719,-0.883,0.0
9.006,-0.686,-0.891,0.0
11.751,-0.895,-0.831,0.0
11.084,-0.847,-0.846,0.0
10.488,-0.805,-0.859,0.0
9.9,-0.762,-0.868,2.0
9.472,-0.732,-0.884,0.0
9.01,-0.699,-0.891,0.0
11.728,-0.91,-0.83,0.0
11.084,-0.863,-0.846,0.0
10.474,-0.818,-0.858,0.0
9.896,-0.776,-0.867,2.0
9.475,-0.746,-0.884,0.0
9.024,-0.713,-0.893,0.0
11.733,-0.926,-0.83,0.0
11.109,-0.88,-0.848,0.0
10.504,-0.835,-0.86,0.0
9.902,-0.79,-0.867,2.0
9.487,-0.759,-0.884,0.0
9.032,-0.726,-0.893,0.0
11.731,-0.942,-0.829,0.0
11.092,-0.894,-0.846,0.0
10.501,-0.849,-0.859,0.0
9.898,-0.803,-0.866,2.0
9.471,-0.771,-0.882,0.0
9.032,-0.738,-0.892,0.0
11.754,-0.96,-0.829,2.0
11.121,-0.911,-0.847,0.0
10.525,-0.865,-0.86,0.0
9.91,-0.817,-0.866,2.0
9.486,-0.785,-0.882,0.0
9.046,-0.751,-0.892,0.0
11.765,-0.976,-0.828,1.0
11.125,-0.926,-0.845,0.0
10.527,-0.879,-0.858,0.0
9.941,-0.833,-0.867,2.0
9.5,-0.798,-0.882,0.0
9.04,-0.762,-0.89,0.0
11.77,-0.992,-0.826,0.0
11.14,-0.942,-0.844,2.0
10.556,-0.895,-0.859,0.0
9.943,-0.846,-0.865,2.0
9.523,-0.813,-0.882,0.0
9.061,-0.776,-0.89,0.0
11.81,-1.01,-0.827,0.0
11.155,-0.957,-0.843,2.0
10.581,-0.911,-0.858,0.0
9.966,-0.861,-0.865,1.0
9.555,-0.828,-0.882,0.0
9.087,-0.79,-0.89,0.0
11.829,-1.027,-0.825,0.0
11.158,-0.971,-0.84,1.0
10.607,-0.926,-0.857,1.0
9.994,-0.875,-0.864,0.0
9.559,-0.84,-0.88,0.0
9.125,-0.804,-0.891,0.0
11.867,-1.045,-0.824,0.0
11.188,-0.988,-0.839,0.0
10.615,-0.94,-0.855,1.0
10.035,-0.891,-0.864,0.0
9.608,-0.856,-0.881,0.0
9.146,-0.817,-0.89,0.0
11.942,-1.066,-0.825,0.0
11.248,-1.007,-0.839,0.0
10.622,-0.953,-0.851,0.0
10.083,-0.908,-0.865,0.0
9.649,-0.871,-0.881,0.0
9.186,-0.832,-0.89,0.0
11.987,-1.084,-0.823,0.0
11.284,-1.023,-0.837,0.0
10.687,-0.972,-0.852,0.0
10.134,-0.924,-0.865,0.0
9.691,-0.886,-0.881,0.0
9.208,-0.844,-0.888,0.0
12.048,-1.104,-0.822,0.0
11.351,-1.043,-0.837,0.0
10.718,-0.987,-0.85,0.0
10.156,-0.938,-0.863,0.0
9.744,-0.902,-0.882,1.0
9.254,-0.859,-0.889,0.0
12.101,-1.122,-0.821,1.0
11.421,-1.062,-0.837,0.0
10.79,-1.006,-0.851,0.0
10.213,-0.954,-0.863,0.0
9.755,-0.914,-0.878,2.0
9.302,-0.874,-0.889,0.0
12.108,-1.136,-0.815,0.0
11.472,-1.079,-0.835,0.0
10.848,-1.023,-0.85,0.0
10.255,-0.97,-0.861,0.0
9.783,-0.927,-0.875,3.0
9.331,-0.887,-0.886,0.0
12.266,-1.164,-0.819,0.0
11.554,-1.099,-0.835,0.0
10.906,-1.04,-0.848,0.0
10.346,-0.989,-0.863,0.0
9.813,-0.941,-0.872,3.0
9.379,-0.901,-0.886,0.0
12.324,-1.183,-0.816,0.0
11.602,-1.116,-0.832,0.0
10.984,-1.059,-0.848,0.0
10.397,-1.005,-0.861,0.0
9.848,-0.954,-0.87,3.0
9.418,-0.915,-0.884,0.0
12.404,-1.203,-0.814,0.0
11.685,-1.136,-0.831,0.0
11.067,-1.078,-0.847,0.0
10.463,-1.022,-0.86,0.0
9.904,-0.97,-0.868,2.0
9.481,-0.93,-0.883,0.0
12.513,-1.226,-0.813,0.0
11.836,-1.162,-0.834,0.0
11.124,-1.095,-0.844,0.0
10.527,-1.038,-0.858,0.0
9.959,-0.985,-0.866,2.0
9.559,-0.947,-0.884,0.0
12.619,-1.249,-0.811,0.0
11.93,-1.183,-0.832,0.0
11.181,-1.111,-0.841,0.0
10.624,-1.058,-0.859,0.0
10.041,-1.002,-0.867,1.0
9.613,-0.962,-0.882,0.0
12.695,-1.268,-0.807,0.0
12.009,-1.202,-0.829,0.0
11.279,-1.131,-0.84,0.0
10.692,-1.074,-0.856,0.0
10.117,-1.019,-0.866,0.0
9.697,-0.979,-0.883,0.0
12.828,-1.293,-0.806,0.0
12.078,-1.219,-0.825,0.0
11.416,-1.155,-0.842,0.0
10.744,-1.089,-0.852,0.0
10.2,-1.036,-0.865,0.0
9.744,-0.992,-0.88,2.0
12.962,-1.317,-0.805,0.0
12.171,-1.239,-0.822,0.0
11.507,-1.174,-0.84,0.0
10.81,-1.105,-0.849,0.0
10.296,-1.054,-0.865,0.0
9.799,-1.005,-0.877,3.0
13.086,-1.341,-0.802,0.0
12.271,-1.259,-0.819,0.0
11.576,-1.19,-0.835,0.0
10.901,-1.123,-0.847,0.0
10.353,-1.068,-0.861,0.0
9.849,-1.018,-0.873,3.0
13.211,-1.364,-0.799,0.0
12.378,-1.28,-0.816,0.0
11.713,-1.213,-0.836,0.0
11.064,-1.148,-0.851,0.0
10.427,-1.084,-0.858,0.0
9.908,-1.032,-0.87,2.0
13.34,-1.387,-0.795,0.0
12.556,-1.308,-0.816,0.0
11.815,-1.233,-0.832,0.0
11.178,-1.168,-0.85,0.0
10.539,-1.103,-0.858,0.0
9.991,-1.048,-0.868,1.0
13.495,-1.413,-0.793,0.0
12.66,-1.327,-0.812,0.0
11.943,-1.254,-0.831,0.0
11.288,-1.187,-0.848,0.0
10.641,-1.121,-0.857,0.0
10.072,-1.063,-0.866,0.0
13.652,-1.438,-0.789,0.0
12.795,-1.35,-0.809,0.0
12.058,-1.274,-0.828,0.0
11.383,-1.205,-0.844,0.0
10.755,-1.14,-0.856,0.0
10.136,-1.076,-0.862,0.0
13.806,-1.463,-0.785,0.0
12.925,-1.372,-0.805,0.0
12.156,-1.292,-0.823,0.0
11.482,-1.222,-0.84,0.0
10.918,-1.164,-0.858,0.0
10.261,-1.095,-0.863,0.0
13.964,-1.489,-0.781,0.0
13.085,-1.397,-0.802,0.0
12.287,-1.313,-0.82,0.0
11.607,-1.242,-0.838,0.0
11.009,-1.18,-0.855,0.0
10.462,-1.123,-0.869,0.0
14.149,-1.516,-0.777,1.0
13.24,-1.421,-0.798,0.0
12.437,-1.336,-0.817,0.0
11.744,-1.263,-0.836,0.0
11.128,-1.198,-0.853,0.0
10.517,-1.134,-0.863,0.0
14.351,-1.545,-0.774,0.0
13.432,-1.448,-0.796,0.0
12.603,-1.36,-0.815,0.0
11.857,-1.281,-0.832,0.0
11.224,-1.214,-0.848,0.0
10.658,-1.155,-0.863,0.0
14.577,-1.577,-0.771,0.0
13.59,-1.471,-0.791,1.0
12.727,-1.379,-0.81,0.0
12.012,-1.303,-0.83,0.0
11.354,-1.233,-0.846,0.0
10.774,-1.172,-0.861,0.0
14.785,-1.606,-0.766,1.0
13.782,-1.498,-0.788,0.0
12.917,-1.405,-0.808,0.0
12.145,-1.323,-0.827,0.0
11.483,-1.252,-0.843,0.0
10.872,-1.187,-0.857,0.0
14.993,-1.634,-0.761,1.0
13.947,-1.521,-0.782,0.0
13.089,-1.429,-0.805,0.0
12.29,-1.343,-0.823,0.0
11.605,-1.269,-0.84,0.0
11.001,-1.205,-0.855,0.0
15.266,-1.669,-0.758,0.0
14.154,-1.549,-0.779,0.0
13.258,-1.452,-0.8,0.0
12.433,-1.363,-0.819,0.0
11.741,-1.288,-0.836,0.0
11.118,-1.221,-0.852,0.0
15.523,-1.702,-0.753,1.0
14.396,-1.58,-0.776,0.0
13.453,-1.477,-0.797,0.0
12.591,-1.384,-0.815,0.0
11.892,-1.308,-0.834,0.0
11.244,-1.238,-0.849,0.0
15.787,-1.735,-0.748,1.0
14.598,-1.606,-0.77,0.0
13.627,-1.5,-0.792,0.0
12.772,-1.407,-0.812,0.0
12.053,-1.328,-0.831,0.0
11.389,-1.256,-0.846,0.0
16.103,-1.774,-0.745,1.0
14.824,-1.634,-0.765,0.0
13.821,-1.524,-0.787,0.0
12.956,-1.429,-0.809,0.0
12.186,-1.345,-0.826,0.0
11.523,-1.273,-0.843,0.0
16.266,-1.795,-0.733,3.0
15.091,-1.666,-0.761,1.0
14.023,-1.549,-0.782,0.0
13.122,-1.45,-0.803,0.0
12.36,-1.366,-0.823,0.0
11.672,-1.291,-0.84,0.0
16.3,-1.801,-0.715,1.0
15.382,-1.7,-0.757,0.0
14.296,-1.58,-0.78,0.0
13.336,-1.475,-0.8,0.0
12.533,-1.387,-0.819,0.0
11.827,-1.309,-0.837,0.0
16.371,-1.81,-0.699,1.0
15.651,-1.731,-0.752,1.0
14.511,-1.605,-0.774,0.0
13.528,-1.497,-0.796,0.0
12.71,-1.407,-0.815,0.0
11.985,-1.327,-0.833,0.0
16.98,-1.878,-0.704,0.0
15.961,-1.766,-0.747,1.0
14.732,-1.63,-0.768,0.0
13.726,-1.519,-0.791,0.0
12.904,-1.429,-0.812,0.0
12.151,-1.346,-0.83,0.0
17.681,-1.956,-0.712,0.0
16.247,-1.797,-0.741,2.0
15.031,-1.663,-0.765,1.0
13.933,-1.542,-0.785,0.0
13.063,-1.446,-0.806,0.0
12.31,-1.363,-0.825,0.0
17.973,-1.987,-0.701,0.0
16.287,-1.801,-0.722,2.0
15.299,-1.692,-0.76,0.0
14.16,-1.566,-0.78,0.0
13.301,-1.471,-0.804,0.0
12.487,-1.381,-0.822,0.0
18.406,-2.034,-0.695,1.0
16.361,-1.807,-0.705,1.0
15.601,-1.724,-0.755,1.0
14.446,-1.596,-0.778,0.0
13.487,-1.49,-0.798,1.0
12.659,-1.399,-0.817,0.0
18.786,-2.073,-0.686,1.0
16.712,-1.844,-0.699,0.0
15.885,-1.753,-0.749,1.0
14.679,-1.619,-0.772,1.0
13.686,-1.51,-0.793,0.0
12.85,-1.417,-0.813,0.0
19.429,-2.141,-0.685,2.0
17.594,-1.938,-0.714,0.0
16.199,-1.784,-0.744,2.0
14.934,-1.645,-0.766,0.0
13.914,-1.532,-0.788,0.0
13.065,-1.438,-0.81,0.0
19.895,-2.188,-0.677,6.0
17.905,-1.968,-0.704,0.0
16.285,-1.79,-0.727,2.0
15.214,-1.671,-0.762,0.0
14.154,-1.555,-0.784,0.0
13.278,-1.458,-0.806,0.0
20.173,-2.213,-0.661,12.0
18.339,-2.011,-0.698,0.0
16.324,-1.789,-0.708,1.0
15.531,-1.702,-0.758,0.0
14.414,-1.579,-0.78,0.0
13.459,-1.474,-0.8,1.0
20.516,-2.244,-0.646,8.0
18.743,-2.049,-0.69,1.0
16.552,-1.809,-0.697,0.0
15.812,-1.727,-0.751,1.0
14.642,-1.599,-0.774,0.0
13.692,-1.494,-0.796,0.0
21.289,-2.321,-0.643,4.0
19.246,-2.097,-0.683,1.0
17.55,-1.911,-0.716,0.0
16.191,-1.762,-0.748,1.0
14.947,-1.626,-0.771,1.0
13.89,-1.51,-0.79,1.0
21.786,-2.366,-0.63,8.0
19.919,-2.162,-0.682,3.0
17.871,-1.939,-0.706,0.0
16.27,-1.764,-0.731,3.0
15.187,-1.645,-0.763,1.0
14.121,-1.529,-0.785,0.0
22.347,-2.417,-0.617,13.0
20.212,-2.185,-0.666,14.0
18.277,-1.974,-0.699,0.0
16.32,-1.761,-0.712,1.0
15.504,-1.672,-0.759,0.0
14.379,-1.55,-0.781,0.0
22.901,-2.466,-0.603,19.0
20.446,-2.2,-0.647,12.0
18.763,-2.017,-0.694,0.0
16.447,-1.766,-0.697,0.0
15.82,-1.698,-0.754,0.0
14.632,-1.569,-0.776,0.0
23.455,-2.513,-0.588,29.0
21.027,-2.251,-0.639,3.0
19.173,-2.05,-0.684,0.0
17.514,-1.871,-0.72,0.0
16.151,-1.724,-0.75,1.0
14.897,-1.589,-0.771,0.0
23.89,-2.546,-0.568,21.0
21.93,-2.334,-0.638,4.0
19.957,-2.122,-0.686,3.0
17.852,-1.896,-0.711,0.0
16.271,-1.727,-0.734,2.0
15.172,-1.609,-0.766,0.0
24.527,-2.598,-0.552,2.0
22.388,-2.369,-0.623,7.0
20.261,-2.141,-0.671,15.0
18.227,-1.924,-0.702,0.0
16.323,-1.721,-0.716,1.0
15.48,-1.631,-0.761,1.0
25.728,-2.708,-0.547,1.0
22.936,-2.411,-0.609,15.0
20.426,-2.145,-0.651,17.0
18.66,-1.957,-0.695,0.0
16.441,-1.722,-0.7,0.0
15.776,-1.651,-0.756,1.0
26.485,-2.769,-0.529,1.0
23.495,-2.453,-0.594,25.0
20.826,-2.171,-0.637,4.0
19.074,-1.986,-0.687,1.0
17.401,-1.809,-0.719,0.0
16.134,-1.676,-0.752,1.0
27.283,-2.831,-0.511,1.0
23.907,-2.477,-0.574,22.0
21.646,-2.24,-0.635,1.0
19.642,-2.03,-0.682,1.0
17.822,-1.839,-0.714,0.0
16.263,-1.676,-0.738,3.0
28.211,-2.905,-0.493,1.0
24.508,-2.52,-0.558,5.0
22.236,-2.282,-0.624,1.0
20.291,-2.079,-0.679,6.0
18.173,-1.86,-0.705,0.0
16.317,-1.667,-0.72,1.0
29.193,-2.981,-0.473,1.0
25.638,-2.614,-0.552,1.0
23.102,-2.351,-0.62,5.0
20.454,-2.079,-0.66,12.0
18.584,-1.885,-0.698,0.0
16.381,-1.659,-0.703,1.0
29.867,-3.024,-0.448,1.0
26.288,-2.656,-0.534,1.0
23.662,-2.387,-0.606,7.0
20.763,-2.091,-0.644,4.0
18.995,-1.91,-0.69,1.0
16.992,-1.706,-0.708,0.0
31.079,-3.117,-0.428,1.0
27.092,-2.712,-0.517,1.0
24.088,-2.407,-0.588,12.0
21.42,-2.136,-0.639,1.0
19.438,-1.935,-0.683,1.0
17.686,-1.758,-0.715,0.0
32.544,-3.232,-0.409,1.0
27.92,-2.768,-0.499,1.0
24.574,-2.431,-0.57,5.0
21.944,-2.167,-0.628,1.0
19.918,-1.963,-0.676,0.0
18.097,-1.78,-0.71,0.0
33.947,-3.337,-0.387,1.0
28.814,-2.827,-0.481,1.0
25.301,-2.477,-0.557,1.0
22.514,-2.2,-0.617,1.0
20.406,-1.99,-0.668,1.0
18.458,-1.796,-0.703,0.0
35.687,-3.471,-0.364,0.0
29.665,-2.879,-0.46,1.0
26.112,-2.528,-0.544,1.0
23.128,-2.235,-0.607,1.0
20.743,-2.0,-0.655,1.0
18.842,-1.813,-0.695,1.0
0.0,0.0,0.0,0.0
30.638,-2.939,-0.44,1.0
26.785,-2.564,-0.527,1.0
23.609,-2.255,-0.592,1.0
21.276,-2.027,-0.647,1.0
19.21,-1.827,-0.687,1.0
0.0,0.0,0.0,0.0
31.964,-3.03,-0.422,1.0
27.576,-2.608,-0.511,1.0
24.373,-2.299,-0.583,1.0
21.682,-2.04,-0.634,1.0
19.643,-1.844,-0.679,1.0
41.434,-3.888,-0.279,0.0
33.024,-3.091,-0.398,1.0
28.377,-2.649,-0.493,1.0
24.986,-2.327,-0.57,1.0
22.206,-2.063,-0.624,1.0
20.088,-1.862,-0.672,1.0
0.0,0.0,0.0,0.0
34.625,-3.198,-0.378,1.0
29.218,-2.691,-0.475,1.0
25.565,-2.349,-0.554,1.0
22.791,-2.089,-0.616,1.0
20.518,-1.875,-0.664,1.0
50.392,-4.603,-0.228,0.0
35.733,-3.255,-0.352,0.0
30.236,-2.747,-0.458,1.0
26.148,-2.369,-0.539,1.0
23.304,-2.105,-0.604,1.0
20.891,-1.882,-0.653,1.0
50.429,-4.541,-0.173,5.0
38.016,-3.414,-0.333,0.0
31.104,-2.785,-0.438,9.0
26.836,-2.396,-0.524,1.0
23.774,-2.117,-0.591,1.0
21.333,-1.894,-0.644,1.0
50.453,-4.476,-0.12,7.0
0.0,0.0,0.0,0.0
32.115,-2.832,-0.419,1.0
27.549,-2.422,-0.509,1.0
24.51,-2.149,-0.583,1.0
21.763,-1.902,-0.634,1.0
50.51,-4.412,-0.067,1.0
0.0,0.0,0.0,0.0
32.959,-2.861,-0.395,0.0
28.256,-2.445,-0.493,1.0
25.083,-2.163,-0.571,1.0
22.248,-1.913,-0.625,1.0
0.0,0.0,0.0,0.0
0.0,0.0,0.0,0.0
34.266,-2.925,-0.376,0.0
29.055,-2.472,-0.477,1.0
25.658,-2.176,-0.558,1.0
22.739,-1.922,-0.616,1.0
0.0,0.0,0.0,0.0
0.0,0.0,0.0,0.0
0.0,0.0,0.0,0.0
29.653,-2.479,-0.457,1.0
26.033,-2.169,-0.541,1.0
23.203,-1.927,-0.606,1.0
0.0,0.0,0.0,0.0
50.255,-4.157,-0.184,1.0
37.982,-3.13,-0.342,0.0
30.389,-2.495,-0.439,1.0
26.511,-2.169,-0.525,1.0
23.612,-1.925,-0.594,1.0
0.0,0.0,0.0,0.0
50.461,-4.096,-0.137,7.0
40.062,-3.24,-0.323,0.0
31.372,-2.528,-0.424,1.0
27.178,-2.182,-0.513,1.0
24.172,-1.933,-0.586,1.0
0.0,0.0,0.0,0.0
50.498,-4.02,-0.09,4.0
40.665,-3.225,-0.29,0.0
32.55,-2.571,-0.41,1.0
27.945,-2.199,-0.502,1.0
24.763,-1.941,-0.577,1.0
0.0,0.0,0.0,0.0
0.0,0.0,0.0,0.0
0.0,0.0,0.0,0.0
33.336,-2.58,-0.39,1.0
28.361,-2.186,-0.484,1.0
25.211,-1.936,-0.566,1.0
0.0,0.0,0.0,0.0
0.0,0.0,0.0,0.0
44.759,-3.405,-0.241,0.0
34.527,-2.616,-0.374,1.0
29.01,-2.189,-0.47,3.0
25.642,-1.927,-0.553,1.0
92.834,-6.969,0.574,1.0
61.966,-4.631,0.05,2.0
0.0,0.0,0.0,0.0
35.371,-2.621,-0.354,0.0
29.531,-2.179,-0.454,1.0
26.08,-1.917,-0.541,1.0
0.0,0.0,0.0,0.0
61.74,-4.511,0.1,3.0
50.402,-3.666,-0.188,0.0
37.252,-2.697,-0.343,0.0
30.394,-2.191,-0.443,1.0
26.546,-1.905,-0.53,1.0
0.0,0.0,0.0,0.0
0.0,0.0,0.0,0.0
50.435,-3.582,-0.148,6.0
38.171,-2.698,-0.321,0.0
30.842,-2.17,-0.426,1.0
26.939,-1.887,-0.517,1.0
0.0,0.0,0.0,0.0
0.0,0.0,0.0,0.0
50.455,-3.495,-0.111,6.0
39.97,-2.755,-0.307,1.0
31.669,-2.172,-0.413,1.0
27.428,-1.872,-0.506,1.0
0.0,0.0,0.0,0.0
0.0,0.0,0.0,0.0
50.505,-3.408,-0.074,1.0
40.432,-2.715,-0.281,0.0
32.385,-2.164,-0.4,1.0
27.881,-1.854,-0.494,1.0
126.21,-8.379,1.262,2.0
0.0,0.0,0.0,0.0
0.0,0.0,0.0,0.0
41.838,-2.734,-0.262,0.0
32.911,-2.14,-0.384,1.0
28.328,-1.832,-0.483,1.0
155.645,-10.051,1.661,3.0
0.0,0.0,0.0,0.0
62.416,-3.988,-0.008,2.0
0.0,0.0,0.0,0.0
33.9,-2.143,-0.374,1.0
28.756,-1.808,-0.472,1.0
0.0,0.0,0.0,0.0
0.0,0.0,0.0,0.0
62.411,-3.872,0.031,4.0
0.0,0.0,0.0,0.0
34.818,-2.136,-0.362,0.0
29.202,-1.782,-0.462,1.0
0.0,0.0,0.0,0.0
0.0,0.0,0.0,0.0
62.87,-3.783,0.069,2.0
50.474,-3.02,-0.222,1.0
34.964,-2.079,-0.343,0.0
29.514,-1.745,-0.449,1.0
0.0,0.0,0.0,0.0
0.0,0.0,0.0,0.0
62.767,-3.657,0.104,2.0
50.415,-2.92,-0.194,3.0
37.674,-2.169,-0.349,0.0
29.9,-1.71,-0.439,1.0
0.0,0.0,0.0,0.0
0.0,0.0,0.0,0.0
0.0,0.0,0.0,0.0
50.434,-2.823,-0.167,1.0
36.912,-2.054,-0.322,0.0
30.191,-1.669,-0.427,1.0
0.0,0.0,0.0,0.0
0.0,0.0,0.0,0.0
0.0,0.0,0.0,0.0
50.387,-2.723,-0.142,1.0
0.0,0.0,0.0,0.0
30.674,-1.636,-0.419,1.0
0.0,0.0,0.0,0.0
0.0,0.0,0.0,0.0
0.0,0.0,0.0,0.0
50.45,-2.628,-0.119,8.0
38.634,-1.998,-0.301,0.0
31.039,-1.594,-0.411,1.0
0.0,0.0,0.0,0.0
0.0,0.0,0.0,0.0
0.0,0.0,0.0,0.0
50.492,-2.531,-0.098,10.0
0.0,0.0,0.0,0.0
31.494,-1.556,-0.404,1.0
0.0,0.0,0.0,0.0
0.0,0.0,0.0,0.0
0.0,0.0,0.0,0.0
50.502,-2.43,-0.079,3.0
40.899,-1.954,-0.286,0.0
0.0,0.0,0.0,0.0
0.0,0.0,0.0,0.0
0.0,0.0,0.0,0.0
0.0,0.0,0.0,0.0
0.0,0.0,0.0,0.0
0.0,0.0,0.0,0.0
32.848,-1.491,-0.398,2.0
0.0,0.0,0.0,0.0
0.0,0.0,0.0,0.0
0.0,0.0,0.0,0.0
0.0,0.0,0.0,0.0
40.327,-1.764,-0.256,0.0
32.207,-1.397,-0.38,1.0
0.0,0.0,0.0,0.0
0.0,0.0,0.0,0.0
0.0,0.0,0.0,0.0
0.0,0.0,0.0,0.0
37.773,-1.575,-0.229,2.0
32.361,-1.338,-0.373,1.0
0.0,0.0,0.0,0.0
0.0,0.0,0.0,0.0
0.0,0.0,0.0,0.0
37.821,-1.514,-0.014,11.0
37.804,-1.5,-0.22,154.0
32.551,-1.279,-0.368,1.0
0.0,0.0,0.0,0.0
0.0,0.0,0.0,0.0
0.0,0.0,0.0,0.0
40.128,-1.524,-0.006,5.0
40.128,-1.509,-0.226,95.0
32.805,-1.222,-0.364,1.0
0.0,0.0,0.0,0.0
0.0,0.0,0.0,0.0
0.0,0.0,0.0,0.0
61.174,-2.196,0.0,0.0
0.0,0.0,0.0,0.0
33.073,-1.163,-0.362,1.0
0.0,0.0,0.0,0.0
130.89,-4.529,1.467,4.0
0.0,0.0,0.0,0.0
60.82,-2.058,0.008,4.0
0.0,0.0,0.0,0.0
33.053,-1.094,-0.358,1.0
130.693,-4.296,2.196,59.0
130.803,-4.252,1.48,4.0
0.0,0.0,0.0,0.0
0.0,0.0,0.0,0.0
45.113,-1.415,-0.237,0.0
33.485,-1.038,-0.359,1.0
40.353,-1.242,0.681,39.0
130.908,-3.979,1.491,22.0
0.0,0.0,0.0,0.0
40.2,-1.192,0.011,42.0
40.203,-1.177,-0.209,46.0
33.205,-0.96,-0.355,1.0
0.0,0.0,0.0,0.0
40.248,-1.139,0.459,26.0
40.181,-1.122,0.237,55.0
40.192,-1.108,0.012,57.0
41.001,-1.116,-0.212,152.0
33.14,-0.889,-0.354,1.0
40.225,-1.068,0.681,56.0
40.204,-1.053,0.459,62.0
40.209,-1.037,0.237,35.0
0.0,0.0,0.0,0.0
40.349,-1.011,-0.21,2.0
33.031,-0.815,-0.354,1.0
40.222,-0.983,0.679,64.0
40.309,-0.97,0.458,135.0
40.293,-0.954,0.236,72.0
40.296,-0.939,0.01,137.0
40.295,-0.924,-0.212,2.0
33.059,-0.746,-0.356,1.0
40.26,-0.898,0.677,53.0
40.285,-0.884,0.455,26.0
86.027,-1.855,0.497,1.0
0.0,0.0,0.0,0.0
46.668,-0.972,-0.25,0.0
33.312,-0.682,-0.362,1.0
40.217,-0.812,0.672,39.0
40.24,-0.797,0.45,46.0
40.262,-0.783,0.228,53.0
40.283,-0.768,0.001,64.0
40.279,-0.753,-0.221,26.0
32.836,-0.602,-0.361,1.0
40.2,-0.725,0.666,5.0
40.302,-0.712,0.444,13.0
40.276,-0.697,0.221,41.0
40.327,-0.683,-0.005,12.0
40.212,-0.666,-0.227,2.0
32.529,-0.527,-0.364,1.0
205.389,-3.267,3.364,16.0
123.746,-1.924,1.342,12.0
81.705,-1.24,0.433,3.0
58.213,-0.863,-0.019,1.0
42.608,-0.616,-0.25,3.0
32.057,-0.451,-0.365,1.0
86.949,-1.2,1.405,150.0
86.974,-1.168,0.923,49.0
78.225,-1.021,0.396,4.0
60.739,-0.771,-0.034,2.0
42.384,-0.522,-0.259,2.0
31.652,-0.379,-0.369,1.0
79.392,-0.926,1.262,255.0
79.455,-0.898,0.822,169.0
77.457,-0.848,0.371,4.0
54.41,-0.576,-0.046,3.0
0.0,0.0,0.0,0.0
31.286,-0.309,-0.374,1.0
79.441,-0.76,1.239,186.0
79.451,-0.731,0.798,182.0
61.544,-0.544,0.276,5.0
48.469,-0.411,-0.056,5.0
40.435,-0.328,-0.271,7.0
31.184,-0.242,-0.382,1.0
79.455,-0.592,1.213,166.0
79.445,-0.563,0.771,180.0
61.383,-0.413,0.254,11.0
46.0,-0.293,-0.069,9.0
39.785,-0.24,-0.281,2.0
30.905,-0.175,-0.39,1.0
79.461,-0.424,1.184,155.0
79.461,-0.395,0.741,151.0
61.333,-0.283,0.23,12.0
0.0,0.0,0.0,0.0
39.021,-0.152,-0.291,2.0
30.46,-0.108,-0.397,1.0
79.467,-0.255,1.151,151.0
79.444,-0.226,0.708,150.0
56.157,-0.139,0.187,11.0
42.405,-0.091,-0.098,18.0
38.376,-0.068,-0.303,3.0
30.18,-0.043,-0.407,2.0
79.462,-0.087,1.115,151.0
79.402,-0.059,0.671,134.0
55.876,-0.021,0.16,29.0
40.968,-0.001,-0.114,17.0
38.157,0.011,-0.319,2.0
29.885,0.019,-0.417,1.0
79.468,0.078,1.077,151.0
79.441,0.106,0.633,18.0
54.587,0.091,0.13,29.0
40.304,0.081,-0.132,16.0
37.914,0.089,-0.336,0.0
29.626,0.08,-0.428,2.0
79.466,0.244,1.036,151.0
76.858,0.262,0.572,56.0
54.454,0.204,0.101,29.0
39.486,0.162,-0.151,41.0
37.624,0.167,-0.354,0.0
29.354,0.14,-0.44,2.0
48.229,0.249,0.601,36.0
48.197,0.264,0.332,38.0
48.001,0.279,0.062,54.0
38.923,0.24,-0.171,47.0
33.288,0.216,-0.332,1.0
29.096,0.199,-0.453,2.0
48.09,0.347,0.571,108.0
48.056,0.363,0.302,97.0
47.63,0.376,0.032,52.0
38.417,0.316,-0.192,45.0
32.804,0.281,-0.348,1.0
28.67,0.256,-0.465,1.0
48.087,0.447,0.541,104.0
48.045,0.462,0.271,97.0
46.791,0.466,0.002,34.0
37.977,0.391,-0.214,33.0
32.079,0.341,-0.361,1.0
28.191,0.309,-0.475,1.0
48.127,0.546,0.509,97.0
48.06,0.561,0.239,80.0
0.0,0.0,0.0,0.0
37.676,0.464,-0.238,13.0
31.441,0.398,-0.375,1.0
27.531,0.357,-0.483,1.0
79.082,1.057,0.782,8.0
48.129,0.659,0.206,28.0
44.68,0.625,-0.059,19.0
37.295,0.534,-0.262,13.0
30.787,0.451,-0.389,2.0
27.218,0.407,-0.497,2.0
78.027,1.199,0.715,20.0
54.883,0.861,0.194,6.0
44.212,0.708,-0.091,7.0
36.986,0.604,-0.288,7.0
30.227,0.503,-0.405,2.0
26.874,0.456,-0.511,2.0
77.799,1.351,0.653,26.0
0.0,0.0,0.0,0.0
39.491,0.711,-0.112,32.0
36.733,0.673,-0.315,11.0
29.729,0.554,-0.422,2.0
26.585,0.504,-0.527,1.0
75.061,1.453,0.57,16.0
48.169,0.948,0.094,6.0
38.929,0.778,-0.142,39.0
36.665,0.744,-0.344,1.0
29.246,0.603,-0.439,2.0
22.871,0.478,-0.472,4.0
74.659,1.591,0.505,18.0
48.075,1.039,0.054,22.0
38.08,0.835,-0.171,35.0
32.946,0.733,-0.337,1.0
28.693,0.647,-0.456,2.0
22.144,0.506,-0.476,4.0
61.183,1.423,0.36,34.0
47.128,1.11,0.012,22.0
37.197,0.888,-0.2,39.0
32.082,0.776,-0.357,2.0
28.021,0.686,-0.469,1.0
21.669,0.537,-0.485,5.0
59.444,1.497,0.297,34.0
0.0,0.0,0.0,0.0
36.908,0.951,-0.232,23.0
31.156,0.812,-0.374,2.0
27.481,0.725,-0.485,1.0
21.23,0.566,-0.495,4.0
58.539,1.584,0.238,12.0
0.0,0.0,0.0,0.0
36.505,1.01,-0.263,12.0
30.432,0.851,-0.394,2.0
23.897,0.675,-0.445,1.0
20.723,0.591,-0.503,4.0
54.168,1.568,0.168,29.0
40.012,1.169,-0.101,43.0
36.287,1.071,-0.297,9.0
29.718,0.886,-0.414,2.0
23.497,0.708,-0.46,5.0
20.298,0.617,-0.512,3.0
48.885,1.505,0.104,23.0
0.0,0.0,0.0,0.0
0.0,0.0,0.0,0.0
29.108,0.921,-0.435,2.0
22.526,0.719,-0.464,4.0
19.813,0.638,-0.52,3.0
48.091,1.568,0.053,24.0
39.409,1.296,-0.179,19.0
32.926,1.092,-0.336,1.0
28.423,0.951,-0.454,1.0
21.757,0.734,-0.47,4.0
19.366,0.659,-0.528,4.0
46.869,1.613,0.003,22.0
36.548,1.268,-0.204,30.0
31.609,1.105,-0.356,1.0
27.879,0.983,-0.475,1.0
21.2,0.753,-0.481,4.0
18.916,0.677,-0.537,3.0
41.869,1.515,-0.042,19.0
36.237,1.321,-0.242,12.0
30.725,1.129,-0.379,1.0
24.216,0.897,-0.439,5.0
20.745,0.774,-0.494,4.0
18.539,0.697,-0.546,5.0
40.368,1.532,-0.085,35.0
35.953,1.374,-0.28,7.0
30.199,1.162,-0.406,3.0
23.332,0.904,-0.449,5.0
20.303,0.792,-0.506,3.0
18.058,0.709,-0.552,3.0
39.949,1.585,-0.129,51.0
35.699,1.426,-0.318,3.0
29.239,1.176,-0.427,1.0
22.283,0.902,-0.454,4.0
19.726,0.804,-0.514,3.0
17.705,0.726,-0.562,4.0
36.576,1.513,-0.161,34.0
32.57,1.356,-0.329,1.0
28.551,1.196,-0.45,1.0
21.406,0.902,-0.461,18.0
19.237,0.816,-0.524,3.0
17.354,0.741,-0.571,3.0
36.214,1.559,-0.202,30.0
31.36,1.358,-0.354,1.0
24.68,1.075,-0.419,3.0
21.042,0.922,-0.479,4.0
18.748,0.826,-0.533,3.0
16.913,0.75,-0.577,2.0
35.876,1.604,-0.244,12.0
30.37,1.365,-0.379,2.0
23.876,1.079,-0.434,5.0
20.554,0.934,-0.493,4.0
18.283,0.835,-0.542,3.0
16.459,0.756,-0.582,3.0
35.647,1.651,-0.287,7.0
29.685,1.382,-0.408,2.0
22.726,1.063,-0.442,4.0
19.963,0.939,-0.504,3.0
17.817,0.843,-0.551,2.0
16.106,0.766,-0.59,2.0
35.604,1.705,-0.332,0.0
28.826,1.388,-0.433,2.0
21.854,1.057,-0.453,4.0
19.451,0.946,-0.516,3.0
17.4,0.85,-0.561,3.0
15.638,0.768,-0.593,3.0
31.923,1.579,-0.338,1.0
24.77,1.23,-0.404,1.0
21.219,1.059,-0.467,4.0
18.932,0.949,-0.526,3.0
17.042,0.859,-0.571,2.0
14.837,0.751,-0.582,7.0
30.697,1.564,-0.365,1.0
23.935,1.225,-0.421,5.0
20.647,1.061,-0.481,4.0
18.399,0.95,-0.536,3.0
16.458,0.854,-0.573,3.0
14.66,0.764,-0.594,19.0
29.861,1.565,-0.395,2.0
22.734,1.197,-0.43,4.0
20.03,1.059,-0.494,3.0
17.914,0.951,-0.545,3.0
16.059,0.856,-0.581,4.0
14.605,0.782,-0.612,21.0
29.024,1.563,-0.423,2.0
21.851,1.182,-0.443,4.0
19.503,1.059,-0.507,3.0
17.46,0.952,-0.555,3.0
15.711,0.86,-0.589,3.0
14.458,0.795,-0.625,16.0
24.839,1.373,-0.396,1.0
21.192,1.176,-0.458,4.0
18.864,1.051,-0.516,3.0
17.035,0.952,-0.565,2.0
14.793,0.83,-0.575,6.0
13.906,0.784,-0.62,12.0
23.888,1.353,-0.413,5.0
20.619,1.172,-0.475,4.0
18.405,1.05,-0.529,3.0
16.483,0.944,-0.57,3.0
14.66,0.842,-0.59,19.0
13.64,0.787,-0.627,10.0
22.693,1.315,-0.424,5.0
20.025,1.165,-0.489,3.0
17.834,1.041,-0.537,3.0
16.09,0.942,-0.578,2.0
14.608,0.859,-0.609,15.0
13.464,0.794,-0.638,9.0
21.783,1.291,-0.438,4.0
19.366,1.151,-0.5,3.0
17.446,1.041,-0.55,2.0
15.601,0.934,-0.583,2.0
14.23,0.854,-0.613,13.0
13.113,0.79,-0.64,7.0
21.097,1.277,-0.454,4.0
18.812,1.142,-0.512,3.0
16.927,1.031,-0.558,2.0
14.685,0.897,-0.57,7.0
13.769,0.844,-0.613,12.0
13.071,0.804,-0.657,10.0
20.519,1.266,-0.471,4.0
18.269,1.131,-0.524,3.0
16.405,1.019,-0.564,3.0
14.64,0.912,-0.589,19.0
13.57,0.848,-0.624,12.0
13.066,0.819,-0.676,9.0
19.835,1.248,-0.484,3.0
17.784,1.122,-0.536,3.0
16.062,1.016,-0.576,4.0
14.431,0.916,-0.602,13.0
13.265,0.844,-0.629,8.0
12.902,0.824,-0.686,3.0
19.233,1.232,-0.498,3.0
17.305,1.112,-0.547,2.0
15.313,0.986,-0.572,2.0
13.908,0.898,-0.601,12.0
13.087,0.847,-0.64,8.0
12.565,0.816,-0.687,2.0
18.724,1.22,-0.512,3.0
16.828,1.099,-0.557,2.0
14.674,0.961,-0.57,9.0
13.674,0.898,-0.611,11.0
13.068,0.861,-0.659,10.0
12.307,0.813,-0.691,3.0
18.133,1.201,-0.523,3.0
16.291,1.081,-0.563,2.0
14.576,0.97,-0.588,17.0
13.418,0.895,-0.619,10.0
13.053,0.873,-0.678,9.0
12.059,0.809,-0.696,2.0
17.586,1.183,-0.534,3.0
15.927,1.073,-0.575,2.0
14.073,0.951,-0.589,14.0
13.178,0.892,-0.628,8.0
12.826,0.871,-0.685,2.0
11.785,0.802,-0.698,3.0
17.084,1.166,-0.544,3.0
15.032,1.028,-0.565,2.0
13.788,0.945,-0.598,13.0
13.055,0.897,-0.643,8.0
12.467,0.859,-0.685,2.0
11.536,0.796,-0.701,2.0
16.679,1.154,-0.557,3.0
14.639,1.015,-0.573,14.0
13.484,0.937,-0.605,12.0
13.064,0.91,-0.663,11.0
12.213,0.852,-0.69,2.0
11.325,0.792,-0.705,1.0
16.163,1.133,-0.565,2.0
14.268,1.002,-0.58,14.0
13.363,0.94,-0.62,10.0
12.946,0.913,-0.677,5.0
11.957,0.845,-0.694,2.0
11.088,0.785,-0.707,1.0
15.677,1.112,-0.572,2.0
13.884,0.987,-0.586,13.0
13.11,0.934,-0.629,7.0
12.628,0.901,-0.68,3.0
11.669,0.835,-0.695,2.0
10.848,0.777,-0.709,1.0
14.66,1.052,-0.557,7.0
13.636,0.98,-0.596,12.0
13.088,0.943,-0.648,9.0
12.378,0.893,-0.685,2.0
11.437,0.827,-0.699,2.0
10.638,0.771,-0.712,2.0
14.53,1.054,-0.575,14.0
13.457,0.978,-0.61,12.0
13.042,0.949,-0.666,12.0
12.149,0.886,-0.691,1.0
11.204,0.819,-0.702,1.0
10.425,0.763,-0.714,2.0
13.926,1.021,-0.572,11.0
13.204,0.969,-0.619,8.0
12.874,0.947,-0.677,4.0
11.805,0.869,-0.69,1.0
10.956,0.808,-0.704,1.0
10.229,0.756,-0.716,2.0
13.721,1.015,-0.585,12.0
13.069,0.968,-0.632,8.0
12.508,0.928,-0.678,3.0
11.551,0.859,-0.693,2.0
10.787,0.803,-0.71,1.0
10.022,0.747,-0.717,1.0
13.532,1.01,-0.598,11.0
13.065,0.976,-0.652,10.0
12.264,0.918,-0.683,3.0
11.323,0.849,-0.697,2.0
10.567,0.793,-0.712,1.0
9.84,0.74,-0.72,1.0
13.335,1.003,-0.61,10.0
13.014,0.98,-0.67,8.0
12.016,0.906,-0.688,2.0
11.102,0.839,-0.701,1.0
10.342,0.782,-0.712,2.0
9.697,0.735,-0.724,1.0
13.11,0.994,-0.619,8.0
12.686,0.963,-0.672,3.0
11.75,0.893,-0.691,2.0
10.871,0.827,-0.703,2.0
10.154,0.774,-0.715,1.0
9.591,0.732,-0.731,2.0
13.075,0.998,-0.638,10.0
12.403,0.948,-0.677,4.0
11.488,0.879,-0.693,1.0
10.687,0.819,-0.707,2.0
9.933,0.762,-0.715,1.0
9.491,0.729,-0.738,1.0
13.075,1.004,-0.658,11.0
12.182,0.936,-0.683,3.0
11.245,0.865,-0.695,2.0
10.497,0.809,-0.711,1.0
9.8,0.756,-0.72,2.0
9.344,0.722,-0.741,1.0
12.931,0.999,-0.671,4.0
11.897,0.92,-0.686,2.0
11.014,0.852,-0.698,2.0
10.295,0.798,-0.713,1.0
9.647,0.748,-0.724,1.0
9.23,0.717,-0.746,1.0
12.589,0.977,-0.672,3.0
11.667,0.906,-0.69,2.0
10.826,0.842,-0.703,2.0
10.102,0.786,-0.715,1.0
9.565,0.745,-0.732,2.0
9.087,0.709,-0.748,0.0
12.339,0.962,-0.677,4.0
11.433,0.892,-0.693,1.0
10.623,0.83,-0.706,2.0
9.875,0.772,-0.714,2.0
9.428,0.738,-0.736,1.0
8.934,0.7,-0.749,1.0
12.106,0.947,-0.683,3.0
11.203,0.877,-0.696,1.0
10.43,0.818,-0.709,1.0
9.754,0.765,-0.72,1.0
9.296,0.73,-0.74,1.0
8.823,0.694,-0.754,1.0
11.845,0.93,-0.686,3.0
10.938,0.86,-0.696,2.0
10.251,0.806,-0.712,1.0
9.627,0.758,-0.725,1.0
9.187,0.724,-0.745,0.0
8.696,0.686,-0.756,1.0
11.576,0.911,-0.688,2.0
10.765,0.848,-0.701,2.0
10.05,0.792,-0.713,1.0
9.536,0.752,-0.733,1.0
9.06,0.716,-0.748,0.0
8.323,0.658,-0.736,1.0
11.385,0.898,-0.693,2.0
10.582,0.836,-0.705,2.0
9.864,0.779,-0.714,2.0
9.396,0.743,-0.736,1.0
8.921,0.706,-0.75,1.0
8.081,0.64,-0.726,3.0
11.185,0.884,-0.697,2.0
10.383,0.821,-0.707,2.0
9.735,0.77,-0.719,1.0
9.277,0.735,-0.74,1.0
8.79,0.696,-0.752,1.0
7.965,0.632,-0.728,4.0
10.925,0.864,-0.697,2.0
10.234,0.81,-0.712,2.0
9.623,0.762,-0.725,1.0
9.158,0.726,-0.744,0.0
8.653,0.686,-0.753,1.0
7.883,0.625,-0.732,4.0
10.757,0.852,-0.701,2.0
10.048,0.796,-0.713,1.0
9.524,0.755,-0.731,1.0
9.029,0.716,-0.746,0.0
8.278,0.657,-0.732,2.0
7.838,0.622,-0.739,4.0
10.581,0.838,-0.705,2.0
9.865,0.781,-0.714,2.0
9.396,0.745,-0.735,1.0
8.906,0.706,-0.749,1.0
8.071,0.64,-0.725,3.0
7.784,0.618,-0.745,4.0
10.382,0.822,-0.706,2.0
9.728,0.77,-0.718,1.0
9.286,0.735,-0.739,1.0
8.8,0.697,-0.752,1.0
7.972,0.632,-0.728,4.0
7.728,0.613,-0.75,3.0
10.246,0.81,-0.711,2.0
9.63,0.762,-0.724,1.0
9.175,0.726,-0.743,0.0
8.68,0.687,-0.754,1.0
7.89,0.624,-0.731,4.0
7.668,0.607,-0.755,3.0
10.07,0.795,-0.713,1.0
9.544,0.754,-0.731,2.0
9.052,0.715,-0.745,0.0
8.325,0.658,-0.734,1.0
7.847,0.62,-0.738,4.0
7.598,0.601,-0.758,3.0
9.878,0.778,-0.713,2.0
9.418,0.742,-0.734,1.0
8.92,0.703,-0.746,1.0
8.101,0.638,-0.726,3.0
7.813,0.616,-0.745,4.0
7.518,0.593,-0.761,3.0
9.764,0.767,-0.717,1.0
9.311,0.732,-0.738,1.0
8.814,0.693,-0.749,1.0
8.003,0.629,-0.727,4.0
7.754,0.61,-0.75,3.0
7.445,0.585,-0.763,3.0
9.638,0.755,-0.72,1.0
9.237,0.724,-0.744,0.0
8.7,0.682,-0.751,1.0
7.931,0.621,-0.731,4.0
7.709,0.604,-0.755,3.0
7.397,0.58,-0.768,3.0
9.583,0.748,-0.729,2.0
9.094,0.71,-0.744,0.0
8.454,0.66,-0.74,1.0
7.891,0.616,-0.738,4.0
7.656,0.598,-0.76,3.0
7.34,0.573,-0.771,2.0
9.482,0.737,-0.733,1.0
8.967,0.697,-0.745,1.0
8.216,0.639,-0.73,2.0
7.86,0.611,-0.744,4.0
7.563,0.588,-0.76,2.0
7.258,0.564,-0.772,1.0
9.38,0.726,-0.737,1.0
8.884,0.687,-0.749,1.0
8.057,0.623,-0.726,4.0
7.82,0.605,-0.75,4.0
7.484,0.579,-0.761,2.0
7.188,0.556,-0.773,1.0
9.288,0.715,-0.741,0.0
8.783,0.676,-0.751,1.0
7.997,0.615,-0.73,4.0
7.76,0.597,-0.754,4.0
7.438,0.572,-0.766,2.0
7.113,0.547,-0.773,1.0
9.179,0.703,-0.743,1.0
8.69,0.665,-0.753,1.0
7.971,0.61,-0.737,4.0
7.726,0.591,-0.76,3.0
7.377,0.564,-0.768,2.0
7.041,0.538,-0.774,1.0
9.068,0.69,-0.744,1.0
8.535,0.649,-0.749,2.0
7.938,0.604,-0.743,4.0
7.677,0.583,-0.764,2.0
7.319,0.556,-0.77,1.0
6.977,0.53,-0.775,1.0
8.974,0.678,-0.746,1.0
8.324,0.629,-0.74,2.0
7.907,0.597,-0.749,4.0
7.583,0.572,-0.763,1.0
7.255,0.547,-0.772,1.0
6.939,0.523,-0.778,0.0
8.885,0.667,-0.749,1.0
8.177,0.613,-0.736,3.0
7.849,0.588,-0.752,4.0
7.506,0.562,-0.763,1.0
7.194,0.539,-0.773,1.0
6.912,0.517,-0.783,0.0
8.805,0.656,-0.752,1.0
8.081,0.601,-0.736,4.0
7.807,0.581,-0.756,3.0
7.46,0.554,-0.766,1.0
7.126,0.529,-0.773,1.0
6.895,0.512,-0.788,0.0
8.71,0.643,-0.752,2.0
8.035,0.593,-0.74,4.0
7.797,0.575,-0.763,3.0
7.408,0.546,-0.769,1.0
7.082,0.522,-0.776,1.0
6.907,0.508,-0.797,0.0
8.621,0.631,-0.753,3.0
8.004,0.586,-0.745,5.0
7.749,0.566,-0.766,2.0
7.353,0.537,-0.77,1.0
7.064,0.516,-0.781,1.0
6.959,0.508,-0.809,0.0
8.554,0.621,-0.756,3.0
7.994,0.579,-0.752,4.0
7.678,0.556,-0.767,1.0
7.31,0.529,-0.773,1.0
7.062,0.511,-0.787,1.0
7.012,0.507,-0.822,0.0
8.453,0.607,-0.755,5.0
7.986,0.573,-0.759,4.0
7.628,0.547,-0.769,1.0
7.251,0.519,-0.773,1.0
7.079,0.507,-0.796,1.0
7.086,0.507,-0.838,1.0
8.388,0.597,-0.756,5.0
7.934,0.564,-0.761,2.0
7.574,0.537,-0.77,1.0
7.229,0.512,-0.777,1.0
7.116,0.504,-0.806,1.0
7.127,0.504,-0.849,0.0
8.329,0.586,-0.758,5.0
7.888,0.554,-0.763,1.0
7.517,0.528,-0.771,1.0
7.226,0.507,-0.783,1.0
7.173,0.502,-0.819,0.0
7.182,0.502,-0.861,0.0
8.23,0.572,-0.756,4.0
7.837,0.544,-0.765,1.0
7.464,0.518,-0.771,1.0
7.265,0.503,-0.793,1.0
7.27,0.503,-0.836,1.0
7.219,0.499,-0.872,0.0
8.168,0.561,-0.757,4.0
7.788,0.534,-0.766,1.0
7.449,0.51,-0.776,1.0
7.307,0.5,-0.804,1.0
7.333,0.501,-0.849,1.0
7.297,0.498,-0.887,0.0
8.127,0.552,-0.759,4.0
7.746,0.525,-0.768,1.0
7.455,0.505,-0.782,1.0
7.374,0.498,-0.816,1.0
7.395,0.499,-0.861,0.0
7.405,0.499,-0.905,0.0
8.112,0.543,-0.764,3.0
7.705,0.515,-0.769,1.0
7.477,0.499,-0.79,1.0
7.47,0.498,-0.832,1.0
7.475,0.498,-0.876,0.0
7.502,0.499,-0.923,0.0
8.07,0.533,-0.765,2.0
7.684,0.507,-0.773,1.0
7.525,0.496,-0.8,1.0
7.543,0.496,-0.846,1.0
7.573,0.497,-0.893,0.0
7.533,0.494,-0.931,0.0
8.028,0.523,-0.766,1.0
7.691,0.5,-0.778,1.0
7.611,0.494,-0.814,1.0
7.625,0.494,-0.86,1.0
7.65,0.495,-0.906,0.0
7.615,0.492,-0.946,0.0
7.986,0.513,-0.767,1.0
7.72,0.495,-0.786,1.0
7.712,0.493,-0.829,1.0
7.7,0.492,-0.873,0.0
7.731,0.493,-0.921,0.0
7.633,0.486,-0.953,0.0
7.969,0.504,-0.77,1.0
7.789,0.491,-0.797,1.0
7.796,0.491,-0.842,1.0
7.785,0.489,-0.887,0.0
7.803,0.49,-0.933,0.0
7.731,0.484,-0.969,0.0
7.963,0.495,-0.774,1.0
7.878,0.489,-0.81,1.0
7.899,0.489,-0.858,0.0
7.914,0.489,-0.905,0.0
7.865,0.485,-0.945,0.0
7.75,0.477,-0.975,0.0
7.998,0.489,-0.781,1.0
7.968,0.486,-0.823,1.0
7.993,0.487,-0.872,0.0
8.02,0.488,-0.921,0.0
7.935,0.481,-0.957,0.0
7.81,0.473,-0.987,0.0
8.071,0.485,-0.792,1.0
8.075,0.485,-0.838,1.0
8.066,0.483,-0.883,0.0
8.052,0.481,-0.928,0.0
8.007,0.477,-0.969,0.0
7.661,0.456,-0.971,0.0
8.155,0.482,-0.803,1.0
8.184,0.482,-0.853,0.0
8.19,0.482,-0.9,0.0
8.14,0.477,-0.942,0.0
8.154,0.477,-0.99,0.0
7.472,0.436,-0.95,0.0
8.299,0.481,-0.82,1.0
8.285,0.479,-0.866,0.0
8.337,0.481,-0.919,0.0
8.294,0.477,-0.962,0.0
8.176,0.469,-0.995,0.0
8.429,0.479,-0.836,1.0
8.391,0.476,-0.88,0.0
8.393,0.475,-0.928,0.0
8.4,0.474,-0.977,0.0
8.085,0.455,-0.986,0.0
7.317,0.411,-0.935,0.0
8.517,0.475,-0.847,1.0
8.561,0.476,-0.9,0.0
8.529,0.473,-0.945,0.0
8.473,0.469,-0.988,0.0
7.314,0.402,-0.936,0.0
8.612,0.47,-0.858,1.0
8.651,0.471,-0.911,0.0
8.633,0.469,-0.958,0.0
8.41,0.455,-0.982,0.0
7.623,0.412,-0.934,0.0
7.314,0.394,-0.937,0.0
8.749,0.468,-0.874,0.0
8.788,0.468,-0.927,0.0
8.764,0.466,-0.974,0.0
8.223,0.436,-0.962,0.0
7.293,0.384,-0.936,0.0
8.926,0.467,-0.893,0.0
8.924,0.465,-0.943,0.0
8.789,0.457,-0.978,0.0
7.869,0.408,-0.921,0.0
7.281,0.375,-0.935,0.0
9.09,0.465,-0.91,0.0
9.002,0.459,-0.952,0.0
8.784,0.446,-0.978,0.0
7.902,0.4,-0.926,0.0
7.59,0.383,-0.932,0.0
7.293,0.367,-0.937,0.0
9.152,0.457,-0.917,0.0
9.042,0.45,-0.956,0.0
8.275,0.41,-0.922,0.0
7.862,0.388,-0.921,0.0
7.556,0.372,-0.928,0.0
7.265,0.357,-0.934,0.0
9.284,0.452,-0.93,0.0
8.999,0.437,-0.952,0.0
8.208,0.397,-0.914,0.0
7.896,0.38,-0.925,0.0
7.546,0.362,-0.927,0.0
7.294,0.349,-0.937,0.0
9.421,0.448,-0.943,0.0
8.734,0.413,-0.923,0.0
8.257,0.389,-0.919,0.0
7.872,0.37,-0.922,0.0
7.59,0.355,-0.932,0.0
7.293,0.34,-0.936,0.0
9.605,0.445,-0.961,0.0
8.593,0.396,-0.908,0.0
8.218,0.377,-0.914,0.0
7.87,0.36,-0.921,0.0
7.629,0.348,-0.936,0.0
7.291,0.331,-0.935,0.0
9.572,0.431,-0.956,0.0
8.594,0.386,-0.907,0.0
8.231,0.368,-0.915,0.0
7.897,0.352,-0.923,0.0
7.597,0.337,-0.93,0.0
7.3,0.322,-0.935,0.0
9.369,0.411,-0.934,0.0
8.573,0.374,-0.903,0.0
8.257,0.359,-0.916,0.0
7.915,0.343,-0.923,0.0
7.588,0.327,-0.928,0.0
7.311,0.314,-0.935,0.0
8.974,0.382,-0.893,0.0
8.56,0.363,-0.9,0.0
8.253,0.349,-0.913,0.0
7.896,0.332,-0.919,0.0
7.596,0.318,-0.927,0.0
7.326,0.305,-0.935,0.0
9.021,0.373,-0.895,0.0
8.633,0.355,-0.905,0.0
8.267,0.339,-0.913,0.0
7.924,0.323,-0.92,0.0
7.572,0.307,-0.922,0.0
7.336,0.297,-0.934,0.0
9.037,0.363,-0.894,0.0
8.625,0.344,-0.901,0.0
8.293,0.33,-0.913,0.0
7.959,0.315,-0.921,0.0
7.645,0.301,-0.928,0.0
7.348,0.288,-0.933,0.0
9.1,0.354,-0.897,0.0
8.685,0.336,-0.904,0.0
8.304,0.32,-0.911,0.0
7.948,0.304,-0.917,0.0
7.692,0.293,-0.931,0.0
7.375,0.28,-0.934,0.0
9.144,0.344,-0.898,0.0
8.706,0.326,-0.903,0.0
8.337,0.31,-0.911,0.0
8.012,0.297,-0.921,0.0
7.693,0.284,-0.927,0.0
7.394,0.271,-0.933,0.0
9.175,0.334,-0.897,0.0
8.742,0.316,-0.903,0.0
8.37,0.301,-0.911,0.0
8.068,0.289,-0.924,0.0
7.738,0.276,-0.929,0.0
7.421,0.263,-0.933,0.0
9.219,0.324,-0.897,0.0
8.781,0.307,-0.902,0.0
8.383,0.291,-0.908,0.0
8.075,0.279,-0.92,0.0
7.739,0.266,-0.925,0.0
7.451,0.255,-0.932,0.0
9.256,0.314,-0.895,0.0
8.818,0.297,-0.902,0.0
8.405,0.282,-0.906,0.0
8.096,0.27,-0.918,0.0
7.771,0.257,-0.925,0.0
7.479,0.246,-0.932,0.0
9.239,0.302,-0.888,1.0
8.862,0.288,-0.901,0.0
8.441,0.272,-0.905,0.0
8.122,0.26,-0.916,0.0
7.852,0.25,-0.929,0.0
7.512,0.238,-0.931,0.0
9.272,0.291,-0.886,0.0
8.93,0.279,-0.902,0.0
8.502,0.264,-0.906,0.0
8.165,0.252,-0.916,0.0
7.857,0.241,-0.925,0.0
7.534,0.229,-0.929,0.0
9.342,0.282,-0.886,0.0
8.992,0.27,-0.902,0.0
8.56,0.255,-0.906,0.0
8.169,0.242,-0.911,1.0
7.916,0.233,-0.926,0.0
7.585,0.221,-0.929,0.0
9.418,0.273,-0.886,0.0
9.004,0.259,-0.897,2.0
8.455,0.241,-0.889,0.0
8.186,0.232,-0.906,2.0
7.945,0.223,-0.923,0.0
7.607,0.212,-0.926,0.0
9.489,0.263,-0.886,0.0
9.019,0.248,-0.891,1.0
8.618,0.236,-0.899,0.0
8.206,0.223,-0.902,2.0
7.975,0.215,-0.921,0.0
7.673,0.205,-0.928,0.0
9.556,0.254,-0.885,0.0
9.073,0.239,-0.89,0.0
8.73,0.228,-0.904,0.0
8.211,0.213,-0.896,1.0
8.02,0.206,-0.919,0.0
7.704,0.197,-0.925,0.0
9.631,0.244,-0.883,0.0
9.169,0.23,-0.891,0.0
8.752,0.218,-0.898,0.0
8.372,0.207,-0.906,0.0
8.084,0.198,-0.919,0.0
7.742,0.188,-0.923,0.0
9.709,0.234,-0.882,0.0
9.249,0.221,-0.891,0.0
8.825,0.209,-0.898,0.0
8.441,0.199,-0.906,0.0
8.125,0.19,-0.916,0.0
7.814,0.181,-0.924,0.0
9.804,0.225,-0.882,0.0
9.326,0.212,-0.889,0.0
8.9,0.201,-0.897,0.0
8.505,0.19,-0.905,0.0
8.185,0.181,-0.915,0.0
7.867,0.173,-0.923,0.0
9.864,0.215,-0.877,0.0
9.416,0.203,-0.889,0.0
8.965,0.192,-0.895,0.0
8.583,0.182,-0.904,0.0
8.218,0.172,-0.911,0.0
7.931,0.165,-0.922,0.0
9.949,0.205,-0.875,0.0
9.475,0.194,-0.885,0.0
9.049,0.183,-0.894,0.0
8.643,0.173,-0.902,0.0
8.296,0.165,-0.911,0.0
7.98,0.157,-0.92,0.0
10.059,0.196,-0.874,0.0
9.574,0.185,-0.884,0.0
9.127,0.174,-0.892,0.0
8.735,0.165,-0.902,0.0
8.367,0.156,-0.909,0.0
8.037,0.149,-0.917,0.0
10.18,0.187,-0.873,0.0
9.667,0.176,-0.882,0.0
9.222,0.166,-0.891,0.0
8.769,0.156,-0.896,0.0
8.441,0.149,-0.908,0.0
8.104,0.141,-0.916,0.0
10.302,0.178,-0.872,1.0
9.76,0.167,-0.879,0.0
9.288,0.157,-0.887,0.0
8.872,0.148,-0.896,0.0
8.496,0.14,-0.904,0.0
8.183,0.133,-0.915,0.0
10.391,0.168,-0.867,3.0
9.863,0.158,-0.877,0.0
9.415,0.149,-0.888,0.0
8.969,0.14,-0.895,0.0
8.568,0.132,-0.901,0.0
8.255,0.126,-0.913,0.0
10.441,0.158,-0.859,6.0
9.983,0.149,-0.875,0.0
9.503,0.14,-0.884,0.0
9.049,0.132,-0.892,0.0
8.648,0.124,-0.899,0.0
8.331,0.118,-0.911,0.0
10.498,0.148,-0.851,3.0
10.107,0.14,-0.873,0.0
9.597,0.131,-0.881,0.0
9.144,0.123,-0.889,0.0
8.761,0.117,-0.899,0.0
8.398,0.11,-0.907,0.0
10.769,0.141,-0.859,1.0
10.258,0.132,-0.873,0.0
9.726,0.123,-0.88,0.0
9.279,0.116,-0.89,0.0
8.873,0.109,-0.899,0.0
8.48,0.103,-0.905,0.0
10.882,0.131,-0.853,1.0
10.421,0.124,-0.873,0.0
9.821,0.115,-0.875,0.0
9.38,0.108,-0.887,0.0
8.99,0.101,-0.899,0.0
8.571,0.095,-0.903,0.0
11.047,0.122,-0.851,1.0
10.484,0.114,-0.864,0.0
9.968,0.106,-0.875,0.0
9.482,0.099,-0.884,0.0
9.107,0.094,-0.898,0.0
8.678,0.088,-0.902,0.0
11.211,0.113,-0.848,1.0
10.621,0.105,-0.86,0.0
10.096,0.098,-0.872,0.0
9.615,0.092,-0.883,0.0
9.196,0.086,-0.893,0.0
8.784,0.081,-0.9,0.0
11.395,0.104,-0.846,1.0
10.776,0.096,-0.857,0.0
10.256,0.09,-0.87,0.0
9.741,0.084,-0.88,0.0
9.307,0.078,-0.89,0.0
8.874,0.073,-0.896,0.0
11.573,0.095,-0.842,0.0
10.929,0.088,-0.853,0.0
10.38,0.082,-0.866,0.0
9.879,0.076,-0.877,0.0
9.442,0.071,-0.889,0.0
9.026,0.066,-0.898,0.0
11.75,0.086,-0.837,1.0
11.083,0.079,-0.848,0.0
10.531,0.073,-0.862,0.0
10.025,0.068,-0.875,0.0
9.56,0.063,-0.885,0.0
9.138,0.059,-0.895,0.0
11.928,0.077,-0.831,0.0
11.303,0.071,-0.847,0.0
10.698,0.065,-0.859,0.0
10.195,0.06,-0.874,0.0
9.704,0.056,-0.883,0.0
9.271,0.052,-0.893,0.0
12.15,0.068,-0.828,0.0
11.491,0.062,-0.843,0.0
10.872,0.057,-0.855,0.0
10.351,0.053,-0.871,0.0
9.831,0.048,-0.879,0.0
9.387,0.045,-0.889,0.0
12.377,0.059,-0.823,0.0
11.685,0.054,-0.839,0.0
11.049,0.049,-0.852,0.0
10.498,0.045,-0.866,0.0
10.003,0.041,-0.878,0.0
9.549,0.038,-0.889,0.0
12.603,0.05,-0.817,1.0
11.867,0.045,-0.832,0.0
11.254,0.041,-0.849,0.0
10.689,0.037,-0.864,0.0
10.167,0.034,-0.875,0.0
9.672,0.031,-0.884,0.0
12.833,0.041,-0.811,1.0
12.11,0.037,-0.829,0.0
11.451,0.033,-0.845,0.0
10.869,0.03,-0.86,0.0
10.33,0.027,-0.872,0.0
9.813,0.024,-0.88,0.0
13.104,0.032,-0.806,0.0
12.355,0.029,-0.825,0.0
11.667,0.025,-0.84,0.0
11.026,0.022,-0.853,0.0
10.494,0.02,-0.868,0.0
9.977,0.017,-0.878,0.0
13.388,0.024,-0.8,0.0
12.597,0.02,-0.819,0.0
11.876,0.018,-0.835,0.0
11.247,0.015,-0.851,0.0
10.687,0.013,-0.865,0.0
10.173,0.011,-0.877,0.0
13.699,0.015,-0.795,1.0
12.854,0.012,-0.813,0.0
12.101,0.01,-0.829,0.0
11.47,0.008,-0.847,0.0
10.876,0.006,-0.861,0.0
10.37,0.004,-0.875,0.0
13.974,0.006,-0.786,1.0
13.137,0.004,-0.808,1.0
12.356,0.002,-0.824,0.0
11.688,0.001,-0.842,0.0
11.042,0.0,-0.854,0.0
10.536,-0.001,-0.87,0.0
14.344,-0.001,-0.781,0.0
13.405,-0.003,-0.8,1.0
12.621,-0.004,-0.819,0.0
11.899,-0.006,-0.836,0.0
11.271,-0.007,-0.851,0.0
10.699,-0.008,-0.864,0.0
14.699,-0.01,-0.774,1.0
13.711,-0.011,-0.793,1.0
12.916,-0.012,-0.815,0.0
12.151,-0.012,-0.831,0.0
11.514,-0.013,-0.848,0.0
10.921,-0.014,-0.862,0.0
15.042,-0.018,-0.764,1.0
14.027,-0.019,-0.786,0.0
13.185,-0.019,-0.807,1.0
12.403,-0.019,-0.825,0.0
11.73,-0.02,-0.842,0.0
11.081,-0.02,-0.854,0.0
15.427,-0.027,-0.755,1.0
14.416,-0.027,-0.78,1.0
13.479,-0.026,-0.8,1.0
12.675,-0.026,-0.819,1.0
11.969,-0.026,-0.836,0.0
11.353,-0.026,-0.853,0.0
15.893,-0.035,-0.747,1.0
14.788,-0.034,-0.772,1.0
13.791,-0.033,-0.792,1.0
12.973,-0.033,-0.814,0.0
12.228,-0.032,-0.831,0.0
11.578,-0.031,-0.847,0.0
16.336,-0.044,-0.736,1.0
15.143,-0.042,-0.761,1.0
14.12,-0.04,-0.784,1.0
13.272,-0.039,-0.807,1.0
12.491,-0.038,-0.825,0.0
11.797,-0.037,-0.84,0.0
16.876,-0.052,-0.728,1.0
15.551,-0.049,-0.752,1.0
14.549,-0.047,-0.779,1.0
13.573,-0.045,-0.799,1.0
12.784,-0.044,-0.819,0.0
12.051,-0.042,-0.835,0.0
17.436,-0.06,-0.719,1.0
16.043,-0.057,-0.744,1.0
14.919,-0.054,-0.77,1.0
13.907,-0.051,-0.791,1.0
13.095,-0.05,-0.813,1.0
12.334,-0.048,-0.83,0.0
17.999,-0.069,-0.706,2.0
16.592,-0.064,-0.737,1.0
15.324,-0.061,-0.76,1.0
14.253,-0.057,-0.782,1.0
13.407,-0.055,-0.805,1.0
12.617,-0.053,-0.824,0.0
18.551,-0.076,-0.691,2.0
17.094,-0.071,-0.725,1.0
15.766,-0.067,-0.751,1.0
14.68,-0.063,-0.776,1.0
13.723,-0.06,-0.797,1.0
12.928,-0.057,-0.818,0.0
19.203,-0.084,-0.677,2.0
17.676,-0.079,-0.714,1.0
16.228,-0.073,-0.74,1.0
15.071,-0.069,-0.767,1.0
14.067,-0.065,-0.789,1.0
13.235,-0.062,-0.811,1.0
19.962,-0.092,-0.664,3.0
18.304,-0.086,-0.703,2.0
16.793,-0.079,-0.732,1.0
15.496,-0.074,-0.757,1.0
14.479,-0.07,-0.782,1.0
13.542,-0.066,-0.802,1.0
20.736,-0.1,-0.647,2.0
18.869,-0.092,-0.686,2.0
17.365,-0.085,-0.721,1.0
15.966,-0.079,-0.747,1.0
14.878,-0.074,-0.774,1.0
13.861,-0.07,-0.792,1.0
21.622,-0.108,-0.631,3.0
19.605,-0.098,-0.673,2.0
17.976,-0.091,-0.71,1.0
16.517,-0.084,-0.739,1.0
15.313,-0.079,-0.765,1.0
14.254,-0.074,-0.786,1.0
22.562,-0.115,-0.612,2.0
20.35,-0.105,-0.657,3.0
18.531,-0.096,-0.694,2.0
