X,Y,Z,Reflectivity
7.83,0.401,-0.92,0.0
7.247,0.37,-0.935,0.0
9.07,0.459,-0.916,0.0
8.949,0.452,-0.955,0.0
8.46,0.427,-0.951,0.0
7.702,0.388,-0.911,0.0
7.487,0.376,-0.929,0.0
7.201,0.361,-0.935,0.0
9.154,0.456,-0.931,0.0
8.929,0.443,-0.96,0.0
8.101,0.401,-0.917,0.0
7.82,0.387,-0.931,0.0
7.438,0.367,-0.928,0.0
7.172,0.353,-0.937,0.0
9.241,0.451,-0.947,0.0
8.852,0.431,-0.958,0.0
8.042,0.391,-0.916,0.0
7.691,0.373,-0.921,0.0
7.419,0.359,-0.931,0.0
7.142,0.345,-0.938,0.0
9.283,0.445,-0.957,0.0
8.399,0.401,-0.914,0.0
8.001,0.381,-0.917,0.0
0.0,0.0,0.0,0.0
7.358,0.349,-0.928,0.0
7.084,0.335,-0.935,0.0
9.145,0.429,-0.949,0.0
8.314,0.389,-0.91,0.0
7.992,0.373,-0.921,0.0
7.653,0.357,-0.926,0.0
7.335,0.341,-0.93,0.0
7.053,0.327,-0.935,0.0
8.743,0.402,-0.912,0.0
8.274,0.379,-0.911,0.0
7.948,0.363,-0.92,0.0
7.616,0.347,-0.926,0.0
7.323,0.333,-0.933,0.0
7.057,0.32,-0.94,0.0
8.665,0.39,-0.909,0.0
8.244,0.37,-0.912,0.0
7.895,0.353,-0.919,0.0
7.591,0.338,-0.927,0.0
7.3,0.325,-0.934,0.0
7.04,0.312,-0.941,0.0
8.574,0.377,-0.904,0.0
8.186,0.359,-0.91,0.0
7.84,0.342,-0.916,0.0
7.546,0.329,-0.926,0.0
7.264,0.315,-0.933,0.0
6.99,0.303,-0.938,0.0
8.535,0.366,-0.904,0.0
8.188,0.35,-0.914,0.0
7.856,0.335,-0.922,0.0
7.505,0.319,-0.924,0.0
7.276,0.308,-0.938,0.0
6.994,0.296,-0.941,0.0
8.492,0.356,-0.903,0.0
8.147,0.34,-0.913,0.0
7.811,0.325,-0.919,0.0
7.524,0.312,-0.929,0.0
7.236,0.299,-0.935,0.0
6.966,0.287,-0.94,0.0
8.465,0.346,-0.903,0.0
8.126,0.33,-0.913,0.0
7.822,0.317,-0.924,0.0
7.491,0.302,-0.928,0.0
7.223,0.291,-0.936,0.0
6.966,0.279,-0.943,0.0
8.449,0.336,-0.904,0.0
8.117,0.321,-0.915,0.0
7.791,0.307,-0.923,0.0
7.467,0.293,-0.928,0.0
7.207,0.282,-0.937,0.0
6.917,0.27,-0.938,0.0
8.41,0.325,-0.903,0.0
8.112,0.312,-0.917,0.0
7.766,0.298,-0.922,0.0
7.474,0.285,-0.931,0.0
7.168,0.273,-0.933,0.0
6.921,0.262,-0.941,0.0
8.422,0.316,-0.906,0.0
8.112,0.303,-0.919,0.0
7.772,0.289,-0.924,0.0
7.433,0.275,-0.927,0.0
7.178,0.265,-0.936,0.0
6.906,0.254,-0.94,0.0
8.387,0.305,-0.904,0.0
8.104,0.294,-0.919,0.0
7.748,0.28,-0.923,0.0
7.43,0.267,-0.928,0.0
7.158,0.256,-0.935,0.0
6.887,0.245,-0.939,0.0
8.391,0.296,-0.906,0.0
8.088,0.284,-0.919,0.0
7.753,0.271,-0.925,0.0
7.45,0.259,-0.932,0.0
7.157,0.248,-0.936,0.0
6.89,0.237,-0.94,0.0
8.367,0.286,-0.904,0.0
8.087,0.275,-0.92,0.0
7.706,0.261,-0.92,0.0
7.415,0.25,-0.928,0.0
7.141,0.239,-0.934,0.0
6.897,0.23,-0.942,0.0
8.389,0.277,-0.907,0.0
8.077,0.265,-0.919,0.0
7.728,0.252,-0.923,0.0
7.443,0.242,-0.932,0.0
7.151,0.231,-0.936,0.0
6.904,0.222,-0.943,0.0
8.368,0.267,-0.905,0.0
8.034,0.254,-0.914,0.0
7.729,0.243,-0.923,0.0
7.445,0.233,-0.932,0.0
7.163,0.223,-0.937,0.0
6.891,0.213,-0.941,0.0
8.796,0.106,-0.894,0.0
8.43,0.1,-0.903,0.0
8.09,0.095,-0.911,0.0
7.809,0.09,-0.923,0.0
7.5,0.085,-0.928,0.0
7.251,0.08,-0.937,0.0
8.846,0.097,-0.892,0.0
8.47,0.091,-0.9,0.0
8.156,0.086,-0.911,0.0
7.854,0.081,-0.922,0.0
7.545,0.077,-0.927,0.0
7.289,0.073,-0.936,0.0
8.916,0.088,-0.891,0.0
8.524,0.083,-0.899,0.0
8.216,0.078,-0.911,0.0
7.91,0.073,-0.922,0.0
7.62,0.069,-0.93,0.0
7.331,0.065,-0.935,0.0
8.979,0.079,-0.89,0.0
8.582,0.074,-0.897,0.0
8.265,0.07,-0.909,0.0
7.949,0.065,-0.919,0.0
7.665,0.061,-0.928,0.0
7.368,0.058,-0.933,0.0
9.066,0.07,-0.89,0.0
8.66,0.065,-0.897,0.0
8.317,0.061,-0.907,0.0
8.003,0.057,-0.918,0.0
7.706,0.054,-0.926,0.0
7.426,0.05,-0.933,0.0
9.154,0.061,-0.89,0.0
8.704,0.056,-0.894,0.0
8.378,0.053,-0.906,0.0
8.052,0.049,-0.915,0.0
7.769,0.046,-0.926,0.0
7.478,0.043,-0.932,0.0
9.219,0.052,-0.887,0.0
8.805,0.048,-0.895,0.0
8.434,0.045,-0.903,0.0
8.109,0.041,-0.914,0.0
7.825,0.038,-0.924,0.0
7.536,0.035,-0.931,0.0
9.299,0.043,-0.885,0.0
8.877,0.04,-0.893,0.0
8.503,0.036,-0.902,0.0
8.185,0.033,-0.913,0.0
7.884,0.031,-0.923,0.0
7.606,0.028,-0.932,0.0
9.396,0.034,-0.884,0.0
8.977,0.031,-0.894,0.0
8.564,0.028,-0.899,0.0
8.247,0.025,-0.911,0.0
7.952,0.023,-0.922,0.0
7.657,0.021,-0.929,0.0
9.478,0.025,-0.882,0.0
9.037,0.023,-0.889,0.0
8.648,0.02,-0.898,0.0
8.295,0.017,-0.907,0.0
8.001,0.015,-0.918,0.0
7.729,0.013,-0.929,0.0
9.582,0.016,-0.88,0.0
9.152,0.014,-0.89,0.0
8.741,0.012,-0.897,0.0
8.378,0.01,-0.906,0.0
8.065,0.008,-0.916,0.0
7.781,0.006,-0.926,0.0
9.693,0.007,-0.879,0.0
9.288,0.005,-0.892,0.0
8.826,0.004,-0.895,0.0
8.445,0.002,-0.903,0.0
8.137,0.0,-0.914,0.0
7.844,0.0,-0.924,0.0
9.796,-0.001,-0.876,0.0
9.358,-0.002,-0.887,0.0
8.915,-0.004,-0.893,0.0
8.543,-0.005,-0.903,0.0
8.225,-0.006,-0.913,0.0
7.929,-0.007,-0.923,0.0
9.911,-0.01,-0.873,0.0
9.464,-0.011,-0.885,0.0
9.047,-0.012,-0.894,0.0
8.653,-0.013,-0.903,0.0
8.299,-0.014,-0.911,0.0
7.992,-0.015,-0.92,0.0
10.021,-0.018,-0.87,0.0
9.566,-0.019,-0.882,0.0
9.146,-0.02,-0.892,0.0
8.717,-0.02,-0.898,0.0
8.385,-0.021,-0.909,0.0
8.058,-0.022,-0.917,0.0
10.2,-0.027,-0.872,0.0
9.683,-0.028,-0.879,0.0
9.247,-0.028,-0.889,0.0
8.813,-0.028,-0.896,0.0
8.453,-0.028,-0.904,0.0
8.14,-0.029,-0.915,0.0
10.325,-0.036,-0.868,0.0
9.808,-0.036,-0.877,0.0
9.351,-0.036,-0.886,0.0
8.942,-0.036,-0.896,0.0
8.569,-0.036,-0.905,0.0
8.242,-0.036,-0.915,0.0
10.481,-0.045,-0.867,0.0
9.951,-0.044,-0.876,0.0
9.468,-0.044,-0.884,0.0
9.062,-0.043,-0.895,0.0
8.674,-0.043,-0.903,0.0
8.302,-0.042,-0.909,0.0
10.61,-0.054,-0.862,1.0
10.075,-0.053,-0.872,0.0
9.593,-0.052,-0.881,0.0
9.182,-0.051,-0.893,0.0
8.766,-0.05,-0.9,0.0
8.41,-0.049,-0.908,0.0
10.715,-0.063,-0.854,1.0
10.239,-0.062,-0.87,0.0
9.742,-0.06,-0.88,0.0
9.286,-0.059,-0.889,0.0
8.888,-0.057,-0.899,0.0
8.505,-0.056,-0.905,0.0
10.935,-0.072,-0.855,0.0
10.387,-0.07,-0.867,0.0
9.849,-0.068,-0.875,0.0
9.422,-0.066,-0.888,0.0
8.993,-0.064,-0.895,0.0
8.606,-0.063,-0.903,0.0
11.105,-0.081,-0.851,0.0
10.573,-0.078,-0.866,0.0
10.025,-0.076,-0.875,0.0
9.558,-0.074,-0.885,0.0
9.126,-0.071,-0.894,0.0
8.718,-0.07,-0.901,0.0
11.278,-0.089,-0.847,0.0
10.667,-0.086,-0.857,2.0
10.183,-0.083,-0.872,0.0
9.699,-0.081,-0.883,0.0
9.305,-0.079,-0.897,0.0
8.847,-0.076,-0.9,0.0
11.498,-0.098,-0.845,0.0
10.819,-0.094,-0.852,0.0
10.358,-0.091,-0.87,0.0
9.832,-0.088,-0.879,0.0
9.393,-0.085,-0.89,0.0
8.989,-0.083,-0.899,0.0
11.678,-0.107,-0.839,0.0
11.052,-0.103,-0.852,0.0
10.516,-0.099,-0.866,0.0
9.983,-0.095,-0.876,0.0
9.527,-0.092,-0.886,0.0
9.099,-0.089,-0.895,0.0
11.873,-0.115,-0.833,0.0
11.264,-0.111,-0.849,0.0
10.662,-0.106,-0.86,0.0
10.138,-0.102,-0.872,0.0
9.686,-0.099,-0.885,0.0
9.253,-0.096,-0.894,0.0
12.09,-0.124,-0.828,0.0
11.458,-0.119,-0.844,0.0
10.809,-0.114,-0.853,0.0
10.321,-0.11,-0.87,0.0
9.808,-0.105,-0.879,1.0
9.384,-0.102,-0.89,0.0
12.335,-0.133,-0.823,0.0
11.654,-0.127,-0.839,0.0
11.055,-0.122,-0.854,0.0
10.52,-0.117,-0.869,0.0
9.973,-0.112,-0.876,1.0
9.526,-0.108,-0.887,0.0
12.597,-0.142,-0.819,1.0
11.893,-0.135,-0.835,1.0
11.262,-0.129,-0.85,0.0
10.696,-0.124,-0.864,0.0
10.137,-0.118,-0.873,1.0
9.695,-0.114,-0.886,0.0
12.843,-0.15,-0.812,0.0
12.106,-0.143,-0.829,0.0
11.48,-0.136,-0.846,0.0
10.872,-0.13,-0.859,0.0
10.314,-0.125,-0.87,0.0
9.815,-0.119,-0.879,1.0
13.133,-0.159,-0.807,0.0
12.379,-0.151,-0.825,0.0
11.687,-0.144,-0.84,0.0
11.062,-0.137,-0.854,0.0
10.513,-0.131,-0.867,0.0
10.002,-0.126,-0.878,1.0
13.432,-0.167,-0.801,1.0
12.62,-0.158,-0.818,1.0
11.911,-0.15,-0.835,1.0
11.278,-0.143,-0.851,0.0
10.714,-0.137,-0.864,0.0
10.142,-0.131,-0.871,1.0
13.693,-0.175,-0.791,1.0
12.899,-0.166,-0.813,0.0
12.151,-0.158,-0.829,0.0
11.52,-0.15,-0.847,0.0
10.916,-0.143,-0.86,0.0
10.378,-0.137,-0.872,0.0
14.032,-0.184,-0.785,1.0
13.2,-0.174,-0.807,0.0
12.426,-0.165,-0.824,0.0
11.725,-0.156,-0.84,0.0
11.139,-0.149,-0.857,0.0
10.585,-0.143,-0.869,0.0
14.366,-0.192,-0.776,1.0
13.477,-0.181,-0.798,1.0
12.693,-0.171,-0.818,0.0
11.97,-0.162,-0.835,1.0
11.343,-0.155,-0.851,0.0
10.765,-0.147,-0.863,0.0
14.764,-0.201,-0.77,1.0
13.811,-0.189,-0.792,1.0
12.991,-0.178,-0.812,1.0
12.236,-0.169,-0.83,0.0
11.584,-0.16,-0.846,0.0
10.978,-0.153,-0.859,0.0
15.164,-0.209,-0.762,1.0
14.136,-0.196,-0.783,1.0
13.293,-0.185,-0.806,1.0
12.495,-0.174,-0.823,0.0
11.82,-0.165,-0.841,0.0
11.221,-0.158,-0.857,0.0
15.572,-0.217,-0.752,1.0
14.491,-0.203,-0.775,1.0
13.57,-0.19,-0.796,1.0
12.779,-0.18,-0.817,0.0
12.051,-0.17,-0.834,0.0
11.431,-0.162,-0.85,0.0
16.005,-0.225,-0.742,1.0
14.904,-0.21,-0.768,1.0
13.913,-0.197,-0.789,0.0
13.079,-0.186,-0.811,0.0
12.333,-0.175,-0.829,0.0
11.653,-0.166,-0.844,0.0
16.54,-0.234,-0.734,0.0
15.318,-0.217,-0.759,1.0
14.256,-0.203,-0.781,1.0
13.418,-0.191,-0.806,1.0
12.604,-0.18,-0.822,0.0
11.899,-0.17,-0.838,0.0
17.096,-0.243,-0.725,1.0
15.74,-0.224,-0.749,1.0
14.684,-0.209,-0.775,1.0
13.699,-0.195,-0.795,1.0
12.909,-0.184,-0.816,0.0
12.183,-0.174,-0.834,0.0
17.627,-0.25,-0.713,1.0
16.23,-0.231,-0.74,1.0
15.085,-0.215,-0.766,1.0
14.056,-0.2,-0.788,1.0
13.216,-0.188,-0.809,0.0
12.442,-0.178,-0.827,0.0
18.208,-0.258,-0.7,1.0
16.768,-0.238,-0.731,1.0
15.496,-0.22,-0.756,1.0
14.417,-0.205,-0.779,1.0
13.54,-0.192,-0.802,1.0
12.747,-0.181,-0.821,0.0
18.848,-0.266,-0.687,1.0
17.316,-0.244,-0.721,1.0
15.94,-0.225,-0.746,1.0
14.848,-0.209,-0.773,1.0
13.876,-0.196,-0.794,0.0
13.059,-0.184,-0.815,0.0
19.468,-0.272,-0.671,2.0
17.878,-0.25,-0.708,1.0
16.45,-0.23,-0.736,0.0
15.257,-0.213,-0.763,1.0
14.214,-0.199,-0.785,1.0
13.395,-0.187,-0.809,1.0
20.202,-0.28,-0.655,1.0
18.465,-0.255,-0.694,1.0
17.043,-0.235,-0.728,1.0
15.706,-0.217,-0.754,1.0
14.643,-0.202,-0.779,1.0
13.68,-0.188,-0.798,0.0
20.994,-0.287,-0.638,1.0
19.152,-0.261,-0.681,1.0
17.622,-0.24,-0.717,1.0
16.159,-0.22,-0.743,1.0
15.047,-0.204,-0.77,1.0
14.041,-0.19,-0.791,1.0
21.956,-0.295,-0.623,2.0
19.873,-0.266,-0.666,1.0
18.194,-0.243,-0.704,1.0
16.734,-0.223,-0.735,0.0
15.483,-0.206,-0.76,1.0
14.411,-0.192,-0.782,1.0
22.916,-0.302,-0.603,1.0
20.597,-0.271,-0.648,1.0
18.791,-0.246,-0.688,1.0
17.305,-0.226,-0.725,1.0
15.948,-0.208,-0.75,1.0
14.856,-0.193,-0.776,1.0
23.834,-0.307,-0.579,2.0
21.52,-0.276,-0.633,1.0
19.529,-0.25,-0.675,1.0
17.896,-0.228,-0.713,1.0
16.452,-0.209,-0.74,0.0
15.255,-0.193,-0.765,1.0
25.049,-0.314,-0.556,2.0
22.424,-0.28,-0.613,1.0
20.207,-0.251,-0.657,1.0
18.469,-0.229,-0.698,1.0
17.04,-0.21,-0.732,1.0
15.725,-0.193,-0.757,1.0
26.13,-0.317,-0.527,1.0
23.376,-0.283,-0.592,1.0
21.078,-0.254,-0.642,1.0
19.16,-0.23,-0.685,1.0
17.617,-0.21,-0.721,1.0
16.199,-0.192,-0.746,1.0
27.275,-0.32,-0.495,2.0
24.424,-0.285,-0.569,1.0
21.982,-0.255,-0.625,1.0
19.846,-0.229,-0.669,1.0
18.207,-0.209,-0.707,1.0
16.786,-0.191,-0.739,1.0
28.61,-0.323,-0.46,3.0
25.527,-0.286,-0.542,1.0
22.969,-0.256,-0.606,1.0
20.603,-0.228,-0.652,1.0
18.795,-0.207,-0.692,1.0
17.331,-0.189,-0.727,1.0
29.751,-0.321,-0.418,4.0
26.704,-0.286,-0.513,1.0
23.866,-0.254,-0.581,1.0
21.505,-0.227,-0.637,1.0
19.532,-0.205,-0.679,1.0
17.932,-0.186,-0.716,1.0
31.158,-0.32,-0.374,2.0
28.091,-0.286,-0.483,2.0
25.12,-0.253,-0.561,1.0
22.426,-0.224,-0.619,1.0
20.214,-0.2,-0.662,2.0
18.482,-0.182,-0.701,1.0
33.515,-0.325,-0.335,1.0
29.201,-0.281,-0.443,4.0
26.178,-0.249,-0.532,2.0
23.4,-0.22,-0.598,1.0
21.058,-0.196,-0.647,2.0
19.15,-0.177,-0.687,1.0
0.0,0.0,0.0,0.0
30.482,-0.274,-0.4,2.0
27.401,-0.244,-0.501,2.0
24.382,-0.214,-0.574,2.0
21.948,-0.191,-0.63,1.0
19.855,-0.17,-0.672,2.0
42.241,-0.357,-0.252,6.0
32.552,-0.271,-0.361,1.0
28.65,-0.236,-0.466,2.0
25.573,-0.208,-0.55,1.0
22.95,-0.184,-0.612,2.0
20.627,-0.163,-0.657,2.0
47.37,-0.368,-0.187,21.0
36.484,-0.28,-0.332,0.0
29.785,-0.225,-0.425,2.0
26.688,-0.198,-0.521,3.0
23.893,-0.175,-0.589,2.0
21.556,-0.155,-0.643,3.0
45.948,-0.324,-0.089,5.0
0.0,0.0,0.0,0.0
31.283,-0.213,-0.383,1.0
27.893,-0.186,-0.488,1.0
24.869,-0.163,-0.563,1.0
22.44,-0.144,-0.624,2.0
50.685,-0.319,0.004,13.0
41.612,-0.257,-0.211,3.0
33.518,-0.202,-0.343,1.0
29.193,-0.173,-0.453,2.0
26.185,-0.151,-0.541,2.0
23.398,-0.132,-0.605,2.0
55.753,-0.307,0.115,30.0
42.033,-0.226,-0.13,5.0
39.447,-0.207,-0.326,0.0
30.282,-0.155,-0.41,2.0
27.168,-0.135,-0.508,1.0
24.26,-0.117,-0.579,2.0
61.388,-0.288,0.247,12.0
46.271,-0.21,-0.052,21.0
39.405,-0.174,-0.248,6.0
32.255,-0.137,-0.373,1.0
28.452,-0.117,-0.476,1.0
25.464,-0.101,-0.558,1.0
76.589,-0.293,0.458,13.0
50.791,-0.187,0.04,18.0
41.221,-0.146,-0.18,16.0
34.282,-0.116,-0.33,1.0
29.583,-0.096,-0.437,2.0
26.535,-0.082,-0.53,2.0
79.394,-0.233,0.629,150.0
56.142,-0.156,0.155,17.0
42.416,-0.112,-0.102,17.0
38.819,-0.096,-0.298,3.0
30.767,-0.071,-0.395,1.0
27.555,-0.059,-0.496,1.0
79.468,-0.158,0.786,151.0
76.177,-0.14,0.358,9.0
46.032,-0.077,-0.021,9.0
39.334,-0.06,-0.226,15.0
32.757,-0.044,-0.358,1.0
28.946,-0.034,-0.466,2.0
79.467,-0.081,0.939,152.0
79.211,-0.068,0.525,11.0
0.0,0.0,0.0,0.0
40.515,-0.021,-0.154,17.0
38.222,-0.014,-0.344,2.0
30.0,-0.005,-0.425,2.0
79.461,-0.001,1.091,151.0
79.434,0.011,0.678,150.0
61.498,0.019,0.206,8.0
0.0,0.0,0.0,0.0
38.486,0.025,-0.274,10.0
31.401,0.026,-0.386,1.0
79.46,0.079,1.241,157.0
79.469,0.093,0.827,151.0
75.953,0.103,0.397,14.0
47.552,0.072,-0.002,22.0
39.166,0.066,-0.205,35.0
33.384,0.063,-0.348,1.0
79.452,0.164,1.389,156.0
79.47,0.178,0.975,151.0
76.764,0.186,0.544,19.0
54.308,0.141,0.097,29.0
40.518,0.113,-0.138,16.0
37.952,0.113,-0.326,2.0
79.458,0.25,1.535,151.0
79.467,0.266,1.122,152.0
79.432,0.28,0.709,150.0
59.288,0.221,0.215,12.0
0.0,0.0,0.0,0.0
38.35,0.157,-0.26,14.0
59.312,0.254,1.254,105.0
59.307,0.265,0.945,100.0
59.305,0.277,0.636,109.0
59.311,0.288,0.322,43.0
47.735,0.241,0.01,37.0
39.013,0.205,-0.194,46.0
48.185,0.262,1.106,53.0
48.181,0.271,0.855,57.0
48.183,0.281,0.603,46.0
48.185,0.29,0.347,52.0
48.134,0.3,0.096,53.0
39.938,0.257,-0.127,15.0
48.129,0.319,1.191,102.0
48.126,0.329,0.939,98.0
48.096,0.338,0.688,89.0
48.075,0.348,0.432,72.0
48.071,0.358,0.182,55.0
0.0,0.0,0.0,0.0
48.114,0.378,1.275,111.0
48.111,0.388,1.024,115.0
48.088,0.398,0.773,110.0
48.046,0.407,0.516,107.0
48.042,0.418,0.266,101.0
47.736,0.425,0.014,49.0
48.134,0.438,1.36,110.0
48.111,0.448,1.107,103.0
48.105,0.458,0.855,104.0
48.077,0.468,0.599,104.0
48.059,0.478,0.348,96.0
48.01,0.488,0.096,72.0
48.171,0.5,1.443,91.0
48.148,0.51,1.19,88.0
48.13,0.52,0.937,89.0
48.096,0.53,0.681,96.0
48.087,0.541,0.429,83.0
48.039,0.551,0.177,84.0
55.009,0.643,1.74,115.0
55.039,0.655,1.453,58.0
55.051,0.667,1.164,76.0
48.225,0.595,0.762,29.0
48.188,0.605,0.51,15.0
48.086,0.615,0.257,58.0
55.038,0.716,1.832,116.0
55.071,0.729,1.544,55.0
100.095,1.348,2.283,13.0
189.172,2.589,3.302,21.0
126.285,1.757,1.542,12.0
0.0,0.0,0.0,0.0
55.115,0.791,1.924,36.0
133.029,1.942,3.947,11.0
176.445,2.617,4.31,25.0
189.968,2.86,3.623,32.0
126.529,1.934,1.748,36.0
78.122,1.212,0.669,14.0
162.865,2.566,5.951,10.0
132.924,2.125,4.157,27.0
159.868,2.594,4.16,7.0
190.017,3.127,3.926,22.0
127.267,2.125,1.961,34.0
89.618,1.518,0.91,5.0
174.496,2.998,6.653,15.0
132.894,2.314,4.367,37.0
160.206,2.828,4.421,20.0
128.12,2.291,2.847,16.0
127.878,2.316,2.168,32.0
121.067,2.223,1.416,13.0
128.048,2.383,5.08,14.0
128.059,2.413,4.404,20.0
128.06,2.444,3.73,31.0
128.017,2.473,3.039,35.0
128.112,2.506,2.367,11.0
0.0,0.0,0.0,0.0
127.862,2.564,5.265,26.0
127.994,2.597,4.594,59.0
128.051,2.63,3.921,63.0
128.078,2.662,3.233,61.0
128.137,2.695,2.558,14.0
89.865,1.911,1.319,6.0
127.815,2.753,5.455,38.0
152.516,3.323,5.703,39.0
159.532,3.514,5.12,26.0
169.269,3.771,4.521,4.0
0.0,0.0,0.0,0.0
106.115,2.416,1.712,1.0
127.734,2.944,5.637,14.0
152.508,3.552,5.922,28.0
152.697,3.592,5.119,27.0
159.437,3.791,4.486,7.0
146.49,3.52,3.346,3.0
100.475,2.439,1.763,3.0
153.452,3.768,6.989,12.0
130.684,3.242,5.259,20.0
152.515,3.822,5.33,31.0
138.038,3.494,4.077,24.0
100.326,2.564,2.431,5.0
100.301,2.59,1.9,1.0
122.656,3.201,5.757,31.0
152.171,4.009,6.333,34.0
152.09,4.045,5.522,41.0
153.378,4.118,4.74,38.0
154.055,4.175,3.941,25.0
0.0,0.0,0.0,0.0
122.489,3.386,5.914,35.0
151.826,4.236,6.523,39.0
151.959,4.278,5.72,36.0
152.729,4.339,4.921,38.0
154.067,4.417,4.145,42.0
0.0,0.0,0.0,0.0
122.89,3.591,6.096,43.0
152.003,4.481,6.729,32.0
152.118,4.524,5.925,39.0
152.319,4.568,5.106,30.0
158.298,4.787,4.462,18.0
0.0,0.0,0.0,0.0
123.129,3.795,6.266,18.0
133.568,4.15,6.083,37.0
152.143,4.767,6.118,40.0
152.68,4.822,5.31,26.0
161.807,5.153,4.765,5.0
0.0,0.0,0.0,0.0
125.322,4.064,6.534,26.0
133.746,4.371,6.258,41.0
152.591,5.026,6.324,30.0
152.728,5.07,5.498,33.0
159.543,5.338,4.892,8.0
159.179,5.367,4.03,5.0
74.024,2.52,3.949,11.0
124.103,4.257,5.956,32.0
152.742,5.28,6.514,14.0
152.683,5.316,5.677,36.0
157.443,5.524,5.013,13.0
159.495,5.637,4.226,5.0
73.729,2.631,4.02,39.0
124.146,4.463,6.103,32.0
153.226,5.547,6.711,30.0
152.483,5.559,5.845,39.0
153.568,5.638,5.064,5.0
160.245,5.927,4.427,14.0
73.455,2.742,4.088,41.0
73.746,2.772,3.708,10.0
123.948,4.69,5.567,23.0
152.71,5.819,6.023,10.0
157.416,6.039,5.364,14.0
162.127,6.264,4.656,5.0
73.341,2.86,4.163,19.0
73.743,2.894,3.788,23.0
124.119,4.903,5.709,22.0
124.183,4.939,5.032,30.0
157.817,6.318,5.547,11.0
162.236,6.539,4.832,14.0
73.58,2.993,4.255,33.0
123.084,5.038,6.455,37.0
123.924,5.104,5.83,32.0
124.14,5.146,5.16,37.0
157.341,6.563,5.693,18.0
158.061,6.636,4.868,15.0
73.495,3.112,4.325,30.0
73.28,3.122,3.917,22.0
124.686,5.345,5.991,17.0
124.245,5.359,5.288,44.0
157.252,6.825,5.846,16.0
157.069,6.86,4.994,10.0
73.24,3.226,4.382,25.0
73.251,3.246,3.987,31.0
129.453,5.771,6.347,16.0
124.189,5.568,5.406,19.0
124.314,5.607,4.739,18.0
156.808,7.114,5.133,5.0
73.326,3.355,4.458,35.0
123.292,5.673,6.826,34.0
123.426,5.712,6.166,23.0
129.682,6.036,5.764,37.0
157.169,7.356,6.137,14.0
156.892,7.384,5.277,6.0
73.49,3.487,4.534,8.0
73.405,3.502,4.13,22.0
123.355,5.916,6.271,25.0
129.464,6.242,5.866,19.0
157.197,7.621,6.272,18.0
157.008,7.653,5.415,6.0
150.397,7.391,9.406,24.0
73.38,3.625,4.191,26.0
132.503,6.582,6.849,17.0
132.088,6.594,6.096,15.0
157.627,7.912,6.42,19.0
156.808,7.911,5.537,12.0
127.447,6.484,8.078,11.0
73.374,3.752,4.251,23.0
149.957,7.706,7.872,13.0
132.019,6.817,6.199,9.0
159.98,8.304,6.642,12.0
157.619,8.222,5.689,10.0
128.311,6.749,8.233,20.0
128.183,6.773,7.525,22.0
150.366,7.983,8.008,20.0
33.478,1.786,1.597,2.0
159.842,8.569,6.756,19.0
157.586,8.49,5.805,5.0
154.699,8.401,10.041,27.0
127.283,6.945,7.565,34.0
127.138,6.969,6.863,4.0
33.451,1.842,1.62,9.0
159.908,8.847,6.874,13.0
157.828,8.773,5.924,13.0
127.867,7.165,8.389,16.0
127.546,7.178,7.67,32.0
127.292,7.198,6.959,38.0
33.421,1.898,1.641,46.0
162.23,9.255,7.083,16.0
158.264,9.069,6.045,20.0
127.306,7.353,8.437,25.0
127.569,7.401,7.756,28.0
127.905,7.453,7.075,35.0
33.426,1.956,1.663,93.0
33.472,1.967,1.482,2.0
158.234,9.34,6.142,16.0
127.338,7.576,8.518,33.0
67.048,4.005,4.117,16.0
128.87,7.731,7.208,34.0
127.79,7.697,6.433,44.0
158.312,9.575,7.104,12.0
33.443,2.031,1.318,2.0
67.217,4.114,4.535,23.0
67.015,4.118,4.153,32.0
128.702,7.94,7.269,30.0
128.137,7.938,6.522,39.0
158.01,9.828,7.177,21.0
33.438,2.088,1.335,5.0
67.17,4.227,4.568,37.0
67.014,4.233,4.189,22.0
128.423,8.144,7.322,20.0
128.148,8.159,6.588,35.0
157.993,10.097,7.255,36.0
158.061,10.143,6.392,39.0
67.416,4.359,4.619,44.0
67.03,4.349,4.223,33.0
67.031,4.366,3.853,20.0
33.404,2.184,1.733,9.0
157.948,10.368,7.328,34.0
157.989,10.411,6.463,46.0
67.148,4.457,4.631,44.0
67.41,4.49,4.277,33.0
67.042,4.481,3.884,17.0
33.406,2.241,1.747,4.0
33.436,2.252,1.565,4.0
157.906,10.674,6.525,40.0
67.466,4.594,4.681,33.0
67.517,4.614,4.311,42.0
67.389,4.621,3.931,15.0
33.409,2.298,1.761,2.0
33.451,2.309,1.578,1.0
157.83,10.934,6.58,38.0
67.319,4.697,4.695,34.0
70.931,4.966,4.555,13.0
172.825,12.142,10.143,16.0
33.376,2.352,1.771,1.0
33.417,2.363,1.588,0.0
157.751,11.195,6.629,15.0
70.998,5.075,4.976,8.0
70.842,5.08,4.572,24.0
157.337,11.319,9.283,29.0
157.323,11.355,8.396,28.0
157.234,11.385,7.521,9.0
118.155,8.584,4.999,9.0
70.865,5.184,4.987,16.0
70.898,5.202,4.595,38.0
134.408,9.894,7.967,13.0
134.268,9.914,7.201,15.0
109.56,8.116,5.268,15.0
66.586,4.948,2.834,16.0
70.752,5.295,4.996,26.0
70.819,5.316,4.607,21.0
132.207,9.954,7.868,14.0
132.019,9.969,7.11,9.0
107.759,8.162,5.206,14.0
118.168,8.978,5.054,10.0
67.863,5.191,4.806,23.0
130.159,9.984,8.494,12.0
130.044,10.005,7.764,13.0
129.858,10.02,7.017,11.0
106.208,8.22,5.149,7.0
115.173,8.94,4.946,9.0
67.937,5.309,4.822,24.0
75.643,5.927,4.948,30.0
74.623,5.863,4.466,9.0
127.71,10.064,6.92,9.0
109.437,8.649,5.321,7.0
115.156,9.127,4.959,12.0
74.619,5.955,5.306,12.0
74.582,5.968,4.887,29.0
74.504,5.977,4.466,23.0
74.576,5.999,4.048,27.0
74.562,6.014,3.632,28.0
74.552,6.03,3.218,31.0
67.778,5.518,4.825,25.0
74.583,6.088,4.893,19.0
74.522,6.098,4.473,17.0
74.549,6.116,4.051,32.0
74.531,6.131,3.635,30.0
74.543,6.148,3.22,30.0
75.887,6.301,5.405,24.0
74.917,6.236,4.917,15.0
122.093,10.187,7.332,9.0
109.318,9.144,5.943,6.0
74.592,6.255,3.638,15.0
34.247,2.879,1.479,2.0
65.557,5.548,4.67,10.0
75.927,6.441,4.984,55.0
120.803,10.273,7.253,29.0
120.811,10.297,6.565,47.0
103.184,8.817,5.031,11.0
34.266,2.935,1.479,1.0
65.535,5.649,4.666,16.0
76.309,6.593,5.005,20.0
120.806,10.463,7.246,18.0
120.818,10.489,6.559,14.0
103.217,8.981,5.025,12.0
115.237,10.052,4.967,9.0
65.581,5.756,4.664,18.0
74.269,6.533,4.865,19.0
75.938,6.694,4.548,14.0
103.2,9.118,5.592,3.0
103.207,9.14,5.014,13.0
115.205,10.225,4.952,10.0
65.581,5.856,4.656,16.0
76.358,6.833,4.992,11.0
75.909,6.808,4.535,30.0
115.244,10.358,6.228,11.0
103.207,9.297,4.999,15.0
112.189,10.129,4.806,4.0
65.57,5.956,4.645,11.0
76.073,6.924,4.96,16.0
76.006,6.932,4.528,10.0
114.716,10.485,6.179,46.0
103.221,9.454,4.98,20.0
13.848,1.271,0.59,5.0
13.847,1.278,0.978,9.0
13.819,1.278,0.898,8.0
13.82,1.281,0.82,7.0
13.839,1.285,0.742,4.0
13.817,1.285,0.663,7.0
13.823,1.289,0.586,22.0
13.828,1.297,0.973,24.0
13.824,1.299,0.895,32.0
13.811,1.3,0.816,24.0
13.799,1.301,0.736,19.0
13.815,1.305,0.659,27.0
13.817,1.308,0.582,31.0
13.812,1.315,0.968,37.0
13.806,1.317,0.89,36.0
13.805,1.319,0.812,37.0
13.804,1.321,0.733,36.0
13.802,1.324,0.655,35.0
13.798,1.326,0.577,33.0
13.788,1.332,0.962,38.0
13.795,1.335,0.885,57.0
13.794,1.338,0.807,92.0
13.78,1.339,0.727,42.0
13.783,1.341,0.649,38.0
13.791,1.345,0.572,34.0
13.777,1.351,0.957,41.0
13.774,1.353,0.878,52.0
13.783,1.356,0.801,150.0
13.784,1.358,0.722,86.0
13.779,1.36,0.644,65.0
13.773,1.362,0.566,37.0
13.765,1.368,0.95,60.0
13.771,1.371,0.873,118.0
13.772,1.373,0.795,150.0
13.776,1.376,0.716,105.0
13.771,1.377,0.638,55.0
13.771,1.38,0.56,39.0
13.763,1.386,0.945,68.0
13.766,1.389,0.867,141.0
13.773,1.392,0.789,150.0
13.767,1.393,0.71,108.0
13.767,1.395,0.632,37.0
13.764,1.397,0.554,38.0
13.748,1.403,0.937,55.0
13.757,1.406,0.86,150.0
13.771,1.409,0.783,150.0
13.768,1.411,0.703,103.0
13.75,1.411,0.624,35.0
13.764,1.415,0.547,37.0
13.758,1.422,0.931,50.0
13.758,1.424,0.853,150.0
13.773,1.427,0.776,150.0
13.765,1.428,0.696,96.0
13.752,1.429,0.617,36.0
13.764,1.432,0.54,38.0
13.759,1.439,0.924,63.0
13.762,1.441,0.846,150.0
13.766,1.443,0.768,150.0
13.763,1.445,0.689,94.0
13.753,1.446,0.61,35.0
13.771,1.45,0.533,38.0
13.76,1.456,0.917,92.0
13.759,1.457,0.838,150.0
13.77,1.46,0.761,150.0
13.764,1.462,0.681,65.0
13.769,1.464,0.603,37.0
13.776,1.467,0.525,37.0
13.757,1.472,0.908,122.0
13.757,1.473,0.83,150.0
13.77,1.477,0.752,150.0
13.759,1.477,0.672,39.0
13.781,1.482,0.595,37.0
13.785,1.484,0.517,34.0
13.752,1.487,0.899,99.0
13.762,1.49,0.821,150.0
13.776,1.493,0.744,98.0
13.78,1.495,0.664,38.0
13.785,1.498,0.586,34.0
13.793,1.5,0.508,31.0
13.75,1.502,0.89,80.0
13.768,1.506,0.813,150.0
13.783,1.509,0.735,38.0
13.794,1.512,0.656,35.0
13.794,1.514,0.578,28.0
13.806,1.517,0.5,25.0
13.751,1.517,0.881,59.0
13.78,1.522,0.804,77.0
13.8,1.526,0.727,34.0
24.292,2.689,1.138,1.0
13.8,1.529,0.568,19.0
24.27,2.693,0.862,41.0
13.762,1.533,0.871,39.0
13.778,1.536,0.794,36.0
13.797,1.54,0.716,21.0
24.319,2.718,1.122,151.0
24.249,2.712,0.981,7.0
24.292,2.72,0.844,155.0
13.769,1.548,0.862,37.0
36.393,4.096,2.071,7.0
24.317,2.739,1.245,8.0
24.297,2.739,1.103,86.0
24.236,2.735,0.962,21.0
24.297,2.745,0.826,150.0
13.759,1.56,0.85,18.0
13.81,1.567,0.775,5.0
24.324,2.763,1.226,152.0
24.289,2.762,1.083,3.0
24.233,2.758,0.943,13.0
24.262,2.764,0.806,19.0
13.778,1.575,0.841,9.0
10.001,1.144,0.553,14.0
24.305,2.784,1.206,153.0
24.29,2.784,1.064,1.0
24.254,2.783,0.924,21.0
24.249,2.784,0.786,7.0
10.005,1.153,0.602,37.0
10.003,1.153,0.545,60.0
24.295,2.804,1.185,96.0
10.002,1.155,0.429,20.0
24.292,2.808,0.905,47.0
10.001,1.157,0.315,18.0
10.002,1.161,0.593,82.0
10.003,1.162,0.536,134.0
9.994,1.162,0.479,113.0
9.996,1.163,0.421,66.0
10.0,1.164,0.364,67.0
9.999,1.165,0.307,21.0
9.995,1.169,0.584,88.0
9.998,1.17,0.527,146.0
9.985,1.169,0.469,123.0
9.99,1.17,0.411,79.0
9.995,1.172,0.355,76.0
9.993,1.172,0.298,38.0
9.984,1.175,0.575,76.0
9.992,1.177,0.518,146.0
9.985,1.176,0.46,134.0
9.982,1.177,0.402,82.0
9.989,1.178,0.345,75.0
9.986,1.179,0.288,34.0
9.978,1.182,0.565,86.0
9.982,1.183,0.508,150.0
9.978,1.183,0.451,147.0
9.972,1.183,0.393,92.0
9.985,1.185,0.336,82.0
9.982,1.186,0.279,39.0
9.972,1.188,0.556,97.0
9.974,1.189,0.499,150.0
9.974,1.189,0.441,150.0
9.977,1.19,0.383,101.0
9.98,1.191,0.326,101.0
9.98,1.192,0.269,51.0
9.976,1.195,0.546,98.0
9.974,1.195,0.489,150.0
9.981,1.196,0.432,150.0
9.967,1.195,0.373,103.0
9.975,1.197,0.316,110.0
9.977,1.198,0.259,63.0
9.97,1.2,0.536,114.0
9.97,1.201,0.479,150.0
9.977,1.202,0.422,150.0
9.967,1.201,0.363,114.0
9.975,1.203,0.307,108.0
9.97,1.203,0.249,64.0
9.971,1.206,0.526,113.0
9.968,1.206,0.469,150.0
9.972,1.207,0.412,150.0
9.966,1.207,0.353,133.0
9.975,1.209,0.296,113.0
9.969,1.209,0.239,66.0
9.969,1.211,0.516,106.0
9.971,1.212,0.458,150.0
9.974,1.213,0.401,150.0
9.967,1.212,0.343,124.0
9.97,1.213,0.286,115.0
9.969,1.213,0.229,67.0
9.965,1.216,0.505,104.0
9.975,1.217,0.448,150.0
9.972,1.217,0.391,150.0
9.969,1.217,0.333,122.0
9.972,1.218,0.276,116.0
9.967,1.218,0.219,69.0
9.969,1.221,0.495,105.0
9.974,1.221,0.438,150.0
9.972,1.221,0.38,150.0
9.969,1.221,0.322,127.0
9.97,1.222,0.265,115.0
9.965,1.222,0.208,59.0
9.971,1.225,0.484,98.0
9.972,1.225,0.427,150.0
9.971,1.225,0.37,150.0
9.961,1.224,0.311,119.0
9.976,1.226,0.255,111.0
9.968,1.226,0.197,62.0
9.972,1.228,0.473,101.0
9.971,1.228,0.416,150.0
9.974,1.229,0.359,150.0
9.968,1.228,0.301,126.0
9.972,1.229,0.244,118.0
9.971,1.229,0.186,71.0
9.97,1.231,0.462,103.0
9.971,1.231,0.405,150.0
9.975,1.232,0.348,150.0
9.968,1.231,0.29,118.0
9.977,1.233,0.233,120.0
9.971,1.232,0.176,70.0
9.969,1.234,0.451,98.0
9.969,1.234,0.394,150.0
9.973,1.234,0.337,150.0
9.968,1.234,0.279,125.0
9.974,1.235,0.222,113.0
9.971,1.235,0.164,68.0
9.969,1.236,0.44,104.0
9.972,1.236,0.383,150.0
9.973,1.236,0.326,150.0
9.969,1.236,0.267,118.0
9.977,1.237,0.21,116.0
9.975,1.237,0.153,69.0
9.973,1.238,0.429,100.0
9.975,1.238,0.372,150.0
9.977,1.238,0.315,150.0
9.968,1.237,0.256,108.0
9.971,1.238,0.199,107.0
9.968,1.238,0.142,64.0
9.969,1.239,0.418,102.0
9.975,1.239,0.361,150.0
9.972,1.239,0.303,150.0
9.97,1.239,0.245,110.0
9.974,1.239,0.188,114.0
9.968,1.239,0.131,62.0
9.971,1.24,0.406,99.0
9.975,1.24,0.349,150.0
9.975,1.24,0.292,150.0
9.966,1.239,0.233,123.0
9.977,1.24,0.176,115.0
9.97,1.239,0.119,68.0
9.971,1.24,0.395,105.0
9.97,1.24,0.337,150.0
9.978,1.241,0.28,150.0
9.969,1.239,0.222,121.0
9.972,1.24,0.165,113.0
9.968,1.239,0.107,67.0
9.968,1.24,0.383,116.0
9.976,1.24,0.326,150.0
9.967,1.239,0.269,150.0
9.972,1.24,0.211,110.0
9.972,1.239,0.153,108.0
9.97,1.239,0.096,65.0
9.977,1.24,0.372,100.0
9.974,1.24,0.314,150.0
9.975,1.239,0.257,150.0
9.971,1.239,0.199,107.0
9.976,1.239,0.142,110.0
9.97,1.238,0.085,65.0
9.975,1.239,0.36,99.0
9.977,1.239,0.303,150.0
9.979,1.239,0.246,150.0
9.967,1.237,0.187,99.0
9.973,1.237,0.13,105.0
9.969,1.237,0.073,65.0
9.972,1.237,0.349,101.0
9.976,1.237,0.291,150.0
9.964,1.235,0.234,150.0
9.967,1.235,0.176,102.0
9.972,1.236,0.119,104.0
9.971,1.235,0.062,68.0
9.967,1.235,0.337,99.0
9.967,1.234,0.28,150.0
9.98,1.235,0.223,150.0
9.964,1.233,0.164,100.0
9.974,1.234,0.107,106.0
9.969,1.233,0.05,59.0
9.974,1.233,0.325,103.0
9.97,1.232,0.268,150.0
9.969,1.231,0.211,150.0
9.964,1.23,0.153,100.0
9.972,1.231,0.096,104.0
9.969,1.23,0.038,62.0
9.974,1.23,0.314,101.0
9.971,1.229,0.257,150.0
9.973,1.229,0.199,150.0
9.969,1.228,0.141,103.0
9.977,1.228,0.084,118.0
9.972,1.227,0.027,63.0
9.975,1.227,0.302,104.0
9.967,1.225,0.245,150.0
9.975,1.226,0.188,150.0
9.963,1.223,0.13,112.0
9.971,1.224,0.073,110.0
9.965,1.223,0.015,51.0
9.965,1.222,0.291,108.0
9.975,1.222,0.234,150.0
9.964,1.22,0.176,150.0
9.966,1.22,0.118,117.0
9.972,1.22,0.061,114.0
9.965,1.219,0.004,54.0
9.975,1.219,0.279,113.0
9.969,1.217,0.222,150.0
9.979,1.218,0.165,150.0
9.975,1.217,0.107,104.0
9.975,1.216,0.049,111.0
9.971,1.215,-0.007,61.0
9.972,1.214,0.268,114.0
9.97,1.213,0.21,150.0
9.984,1.213,0.154,150.0
9.967,1.211,0.095,115.0
9.975,1.211,0.038,106.0
9.966,1.209,-0.018,55.0
9.975,1.209,0.256,104.0
9.972,1.208,0.199,150.0
9.976,1.207,0.142,150.0
9.974,1.206,0.084,97.0
9.973,1.205,0.027,101.0
9.978,1.205,-0.029,57.0
9.978,1.204,0.245,92.0
9.973,1.202,0.188,150.0
9.976,1.202,0.131,150.0
9.975,1.201,0.073,94.0
9.976,1.2,0.016,85.0
9.981,1.2,-0.041,43.0
9.977,1.197,0.234,93.0
9.974,1.196,0.177,150.0
9.981,1.196,0.12,132.0
9.974,1.194,0.061,87.0
9.982,1.194,0.004,62.0
9.982,1.194,-0.052,39.0
9.989,1.192,0.223,78.0
9.987,1.191,0.166,143.0
9.989,1.19,0.109,130.0
9.987,1.189,0.05,77.0
9.988,1.188,-0.006,74.0
9.989,1.188,-0.063,37.0
9.987,1.185,0.212,69.0
9.992,1.184,0.155,140.0
9.993,1.184,0.097,123.0
9.989,1.182,0.039,68.0
10.004,1.183,-0.017,78.0
9.994,1.181,-0.074,24.0
9.994,1.178,0.201,74.0
10.0,1.178,0.144,131.0
9.996,1.176,0.086,119.0
9.997,1.175,0.028,71.0
9.998,1.175,-0.028,57.0
10.007,1.175,-0.085,20.0
10.009,1.172,0.19,78.0
10.007,1.171,0.133,110.0
10.001,1.169,0.076,75.0
10.005,1.168,0.018,20.0
10.013,1.168,-0.039,19.0
10.009,1.167,-0.096,17.0
10.009,1.164,0.18,20.0
10.008,1.163,0.122,19.0
24.325,2.823,0.159,1.0
24.297,2.817,0.018,1.0
24.262,2.811,-0.12,5.0
24.256,2.808,-0.258,7.0
24.217,2.796,0.41,6.0
24.346,2.808,0.273,4.0
24.326,2.802,0.134,7.0
24.278,2.794,-0.007,8.0
24.254,2.788,-0.145,11.0
24.267,2.787,-0.284,11.0
24.223,2.774,0.384,20.0
24.333,2.783,0.247,14.0
24.306,2.777,0.108,18.0
24.294,2.773,-0.032,40.0
24.26,2.766,-0.17,22.0
24.282,2.766,-0.309,24.0
24.252,2.754,0.36,39.0
24.356,2.763,0.222,33.0
24.299,2.753,0.083,24.0
24.275,2.747,-0.057,23.0
24.286,2.745,-0.195,24.0
24.316,2.746,-0.334,13.0
24.268,2.732,0.336,28.0
24.327,2.735,0.198,25.0
24.312,2.73,0.059,3.0
24.295,2.725,-0.081,4.0
24.343,2.727,-0.22,5.0
13.842,1.549,-0.203,15.0
24.334,2.714,0.313,2.0
24.357,2.713,0.174,3.0
13.839,1.539,0.02,15.0
13.842,1.538,-0.059,17.0
13.841,1.536,-0.138,13.0
13.8,1.529,-0.216,20.0
13.814,1.526,0.164,22.0
13.805,1.523,0.085,19.0
13.798,1.52,0.007,22.0
13.812,1.519,-0.072,19.0
13.8,1.516,-0.151,21.0
13.799,1.514,-0.229,26.0
13.805,1.509,0.151,33.0
13.797,1.506,0.072,31.0
13.793,1.504,-0.005,30.0
13.785,1.501,-0.085,24.0
13.789,1.499,-0.164,30.0
13.791,1.497,-0.242,31.0
13.8,1.493,0.138,38.0
13.794,1.49,0.059,39.0
13.793,1.488,-0.018,35.0
13.786,1.485,-0.098,33.0
13.787,1.483,-0.176,37.0
13.787,1.481,-0.255,33.0
13.792,1.475,0.125,40.0
13.792,1.473,0.047,75.0
13.776,1.469,-0.031,38.0
13.769,1.466,-0.11,35.0
13.78,1.465,-0.188,38.0
13.778,1.463,-0.267,34.0
13.788,1.458,0.113,63.0
13.786,1.455,0.035,117.0
13.772,1.451,-0.043,72.0
13.762,1.448,-0.122,37.0
13.78,1.448,-0.201,52.0
13.772,1.445,-0.279,33.0
13.789,1.44,0.101,60.0
13.784,1.437,0.023,128.0
13.768,1.433,-0.055,123.0
13.761,1.43,-0.134,38.0
13.774,1.429,-0.212,38.0
13.771,1.427,-0.29,36.0
13.784,1.422,0.089,59.0
13.78,1.419,0.011,148.0
13.766,1.415,-0.066,106.0
13.76,1.412,-0.145,38.0
13.779,1.411,-0.224,38.0
13.766,1.408,-0.301,38.0
13.782,1.403,0.078,84.0
13.785,1.401,0.0,149.0
13.773,1.397,-0.077,76.0
13.767,1.394,-0.156,36.0
13.782,1.393,-0.235,70.0
13.771,1.389,-0.312,39.0
13.787,1.384,0.067,75.0
13.794,1.383,-0.01,150.0
13.779,1.378,-0.088,81.0
13.771,1.375,-0.167,35.0
13.782,1.373,-0.245,69.0
13.766,1.37,-0.323,37.0
13.798,1.366,0.057,59.0
13.794,1.363,-0.02,120.0
13.785,1.359,-0.098,116.0
13.775,1.356,-0.177,36.0
13.781,1.354,-0.255,37.0
13.768,1.35,-0.333,35.0
13.804,1.347,0.047,46.0
13.807,1.344,-0.03,124.0
13.797,1.34,-0.108,65.0
13.798,1.338,-0.187,36.0
13.795,1.335,-0.265,34.0
13.781,1.331,-0.343,32.0
13.82,1.328,0.037,38.0
13.817,1.325,-0.04,52.0
13.812,1.322,-0.118,38.0
13.806,1.318,-0.197,36.0
13.807,1.315,-0.275,34.0
13.795,1.312,-0.353,30.0
13.838,1.309,0.028,36.0
13.831,1.305,-0.049,36.0
13.828,1.302,-0.127,33.0
13.823,1.298,-0.206,32.0
13.817,1.295,-0.284,32.0
13.805,1.291,-0.362,28.0
13.863,1.289,0.019,29.0
13.844,1.285,-0.058,25.0
13.843,1.281,-0.136,25.0
13.849,1.279,-0.216,28.0
13.832,1.275,-0.293,22.0
13.824,1.271,-0.371,26.0
13.886,1.27,0.011,12.0
13.882,1.266,-0.067,14.0
13.865,1.262,-0.145,21.0
13.863,1.258,-0.224,20.0
13.871,1.256,-0.302,15.0
13.846,1.251,-0.38,16.0
41.201,3.702,0.008,40.0
35.057,3.142,-0.189,11.0
13.896,1.242,-0.153,5.0
13.881,1.238,-0.232,6.0
20.382,1.813,-0.456,1.0
13.908,1.234,-0.389,11.0
41.151,3.63,-0.014,46.0
34.929,3.073,-0.208,11.0
30.583,2.684,-0.354,1.0
22.835,1.999,-0.395,5.0
20.169,1.761,-0.462,3.0
18.052,1.572,-0.515,1.0
34.295,2.969,-0.029,42.0
34.772,3.002,-0.224,9.0
30.324,2.611,-0.366,1.0
22.552,1.937,-0.401,4.0
19.971,1.71,-0.467,3.0
17.855,1.525,-0.518,3.0
40.802,3.464,-0.054,3.0
34.865,2.952,-0.242,11.0
30.15,2.545,-0.378,2.0
22.317,1.879,-0.407,4.0
19.858,1.667,-0.474,3.0
17.725,1.484,-0.522,2.0
38.493,3.202,-0.069,22.0
34.842,2.89,-0.257,9.0
29.856,2.469,-0.388,1.0
22.162,1.828,-0.414,4.0
19.682,1.618,-0.478,3.0
17.665,1.448,-0.528,2.0
40.847,3.328,-0.09,5.0
34.859,2.831,-0.272,9.0
29.58,2.395,-0.396,1.0
21.958,1.773,-0.419,4.0
19.538,1.573,-0.482,3.0
17.489,1.403,-0.529,2.0
0.0,0.0,0.0,0.0
34.884,2.772,-0.285,8.0
29.567,2.342,-0.407,5.0
21.812,1.722,-0.424,4.0
19.455,1.532,-0.487,3.0
17.436,1.368,-0.534,3.0
36.39,2.836,-0.107,32.0
34.737,2.699,-0.296,2.0
29.207,2.261,-0.412,1.0
21.6,1.667,-0.427,4.0
19.279,1.483,-0.489,3.0
17.372,1.332,-0.538,2.0
36.282,2.762,-0.118,39.0
0.0,0.0,0.0,0.0
29.137,2.203,-0.42,1.0
21.527,1.622,-0.432,4.0
19.266,1.447,-0.494,3.0
17.302,1.295,-0.54,3.0
36.137,2.685,-0.127,45.0
0.0,0.0,0.0,0.0
25.048,1.847,-0.368,0.0
21.405,1.573,-0.435,4.0
19.121,1.401,-0.496,3.0
17.284,1.261,-0.544,2.0
36.08,2.614,-0.136,43.0
0.0,0.0,0.0,0.0
28.958,2.082,-0.432,1.0
21.342,1.529,-0.439,4.0
19.111,1.364,-0.499,3.0
17.252,1.227,-0.547,2.0
36.009,2.541,-0.143,12.0
35.026,2.462,-0.334,0.0
24.909,1.744,-0.376,1.0
21.279,1.484,-0.442,4.0
19.124,1.329,-0.503,3.0
17.195,1.19,-0.548,3.0
36.013,2.474,-0.15,30.0
32.673,2.235,-0.317,1.0
24.864,1.694,-0.379,1.0
21.225,1.44,-0.444,4.0
19.078,1.289,-0.505,3.0
17.17,1.156,-0.55,2.0
36.175,2.416,-0.155,35.0
32.636,2.171,-0.321,1.0
24.921,1.651,-0.383,5.0
21.263,1.402,-0.447,4.0
19.058,1.252,-0.506,3.0
17.221,1.127,-0.553,2.0
35.964,2.334,-0.158,43.0
32.338,2.089,-0.321,1.0
25.051,1.612,-0.387,4.0
21.267,1.362,-0.449,4.0
19.091,1.218,-0.508,3.0
17.237,1.095,-0.555,2.0
33.178,2.09,-0.147,22.0
32.474,2.037,-0.324,1.0
24.896,1.554,-0.386,1.0
21.243,1.32,-0.449,4.0
19.093,1.181,-0.509,3.0
17.252,1.062,-0.556,2.0
35.971,2.196,-0.16,43.0
32.506,1.975,-0.325,1.0
28.785,1.741,-0.447,1.0
21.365,1.286,-0.452,4.0
19.097,1.144,-0.509,3.0
17.311,1.032,-0.557,2.0
36.094,2.133,-0.16,38.0
32.434,1.907,-0.323,1.0
28.74,1.682,-0.445,1.0
21.351,1.243,-0.451,4.0
19.213,1.113,-0.511,3.0
17.393,1.003,-0.559,3.0
36.157,2.066,-0.159,28.0
32.487,1.847,-0.322,1.0
28.726,1.625,-0.443,1.0
21.436,1.207,-0.451,4.0
19.239,1.077,-0.511,3.0
17.387,0.969,-0.557,4.0
36.03,1.989,-0.155,18.0
32.584,1.789,-0.319,1.0
28.747,1.57,-0.44,1.0
21.625,1.175,-0.452,4.0
19.28,1.042,-0.509,3.0
17.45,0.937,-0.557,3.0
36.626,1.949,-0.153,21.0
32.649,1.728,-0.315,1.0
28.82,1.516,-0.437,1.0
21.754,1.138,-0.452,4.0
19.405,1.01,-0.509,3.0
17.513,0.906,-0.556,2.0
36.442,1.867,-0.146,38.0
35.481,1.807,-0.337,0.0
28.898,1.463,-0.433,2.0
21.847,1.099,-0.449,4.0
19.603,0.981,-0.511,3.0
17.575,0.874,-0.555,2.0
36.575,1.801,-0.139,35.0
33.519,1.64,-0.311,2.0
29.021,1.411,-0.428,2.0
22.044,1.065,-0.448,4.0
19.728,0.947,-0.509,3.0
17.693,0.844,-0.554,5.0
40.169,1.897,-0.142,3.0
0.0,0.0,0.0,0.0
29.223,1.362,-0.424,2.0
22.355,1.035,-0.449,4.0
19.783,0.91,-0.505,3.0
17.808,0.814,-0.553,6.0
39.972,1.808,-0.13,41.0
35.61,1.6,-0.311,5.0
29.337,1.309,-0.417,2.0
22.528,0.998,-0.445,4.0
20.001,0.88,-0.505,3.0
17.928,0.783,-0.55,4.0
39.991,1.728,-0.117,51.0
35.74,1.533,-0.3,5.0
29.61,1.261,-0.41,2.0
22.897,0.968,-0.444,5.0
20.265,0.851,-0.504,3.0
18.094,0.754,-0.549,4.0
40.114,1.652,-0.103,51.0
35.854,1.466,-0.287,6.0
29.862,1.211,-0.402,2.0
23.324,0.939,-0.444,5.0
20.48,0.818,-0.501,3.0
18.288,0.725,-0.547,3.0
40.229,1.576,-0.087,41.0
35.974,1.398,-0.274,8.0
30.192,1.164,-0.394,2.0
23.798,0.91,-0.443,5.0
20.557,0.78,-0.494,3.0
18.459,0.694,-0.544,4.0
40.774,1.515,-0.07,21.0
36.083,1.329,-0.258,10.0
30.497,1.114,-0.384,2.0
24.102,0.873,-0.437,5.0
20.789,0.746,-0.49,4.0
18.692,0.665,-0.542,3.0
41.414,1.455,-0.051,20.0
36.295,1.264,-0.242,12.0
30.769,1.062,-0.372,1.0
24.206,0.828,-0.427,1.0
21.071,0.714,-0.486,4.0
18.958,0.636,-0.54,3.0
0.0,0.0,0.0,0.0
36.536,1.198,-0.225,20.0
31.158,1.012,-0.36,2.0
27.713,0.891,-0.474,1.0
21.354,0.68,-0.481,4.0
19.179,0.605,-0.536,3.0
46.838,1.457,-0.008,22.0
36.785,1.133,-0.205,31.0
31.75,0.968,-0.349,1.0
27.973,0.844,-0.462,1.0
21.588,0.644,-0.474,4.0
19.379,0.572,-0.53,3.0
47.215,1.375,0.019,23.0
36.953,1.064,-0.184,31.0
32.548,0.927,-0.338,1.0
28.411,0.8,-0.452,1.0
21.967,0.612,-0.468,4.0
19.673,0.541,-0.526,4.0
47.933,1.3,0.05,23.0
38.108,1.02,-0.165,31.0
33.131,0.877,-0.323,1.0
28.961,0.757,-0.442,2.0
22.396,0.578,-0.462,4.0
19.991,0.51,-0.521,3.0
48.636,1.221,0.083,23.0
38.516,0.955,-0.141,49.0
36.552,0.894,-0.331,1.0
29.371,0.709,-0.428,2.0
23.348,0.556,-0.466,2.0
20.445,0.481,-0.518,3.0
52.148,1.206,0.126,9.0
39.241,0.895,-0.116,45.0
36.567,0.822,-0.305,6.0
29.773,0.66,-0.412,2.0
26.775,0.585,-0.515,1.0
20.688,0.445,-0.509,4.0
0.0,0.0,0.0,0.0
39.686,0.826,-0.087,25.0
36.804,0.755,-0.279,8.0
30.362,0.613,-0.397,2.0
27.012,0.537,-0.498,1.0
21.047,0.411,-0.501,4.0
58.462,1.121,0.231,23.0
44.324,0.836,-0.063,17.0
37.154,0.688,-0.252,13.0
30.915,0.563,-0.379,2.0
27.481,0.492,-0.485,1.0
21.405,0.376,-0.492,4.0
0.0,0.0,0.0,0.0
0.0,0.0,0.0,0.0
37.523,0.622,-0.223,28.0
31.621,0.514,-0.361,2.0
27.96,0.446,-0.469,1.0
21.747,0.339,-0.482,4.0
61.689,0.941,0.346,37.0
46.939,0.701,0.012,36.0
37.973,0.555,-0.193,44.0
32.642,0.467,-0.344,1.0
28.775,0.402,-0.458,2.0
22.393,0.306,-0.476,1.0
48.101,0.641,0.312,61.0
47.752,0.621,0.055,52.0
38.564,0.489,-0.161,54.0
33.514,0.415,-0.323,1.0
29.209,0.352,-0.438,3.0
26.073,0.306,-0.53,4.0
48.066,0.547,0.357,97.0
47.965,0.531,0.1,63.0
39.232,0.422,-0.127,41.0
37.305,0.389,-0.324,1.0
29.743,0.301,-0.418,2.0
26.636,0.261,-0.516,2.0
48.061,0.456,0.403,111.0
48.008,0.44,0.146,94.0
39.877,0.353,-0.091,15.0
37.534,0.32,-0.29,5.0
30.341,0.25,-0.396,2.0
27.034,0.214,-0.497,2.0
48.102,0.365,0.451,70.0
48.135,0.35,0.195,52.0
0.0,0.0,0.0,0.0
37.936,0.253,-0.254,13.0
31.21,0.198,-0.376,2.0
27.703,0.167,-0.481,1.0
59.304,0.339,0.617,51.0
55.063,0.297,0.28,37.0
0.0,0.0,0.0,0.0
38.485,0.184,-0.218,14.0
32.284,0.144,-0.355,1.0
28.435,0.119,-0.464,2.0
79.461,0.307,0.91,151.0
75.945,0.271,0.465,17.0
47.805,0.156,0.039,21.0
39.127,0.115,-0.179,39.0
33.503,0.088,-0.332,1.0
29.168,0.068,-0.444,2.0
79.472,0.161,0.997,151.0
76.446,0.133,0.552,17.0
0.0,0.0,0.0,0.0
40.231,0.045,-0.14,28.0
38.154,0.031,-0.336,0.0
29.72,0.015,-0.419,2.0
79.449,0.017,1.086,151.0
79.385,-0.007,0.664,99.0
56.008,-0.022,0.171,28.0
0.0,0.0,0.0,0.0
38.491,-0.038,-0.294,3.0
30.415,-0.039,-0.393,1.0
79.459,-0.126,1.178,151.0
79.448,-0.15,0.756,150.0
61.565,-0.134,0.259,11.0
45.803,-0.113,-0.053,20.0
39.04,-0.108,-0.253,5.0
31.535,-0.096,-0.371,1.0
79.442,-0.267,1.272,156.0
79.457,-0.291,0.851,151.0
76.597,-0.304,0.415,12.0
47.274,-0.201,0.001,21.0
39.637,-0.18,-0.208,7.0
32.91,-0.159,-0.347,1.0
79.439,-0.407,1.368,167.0
79.461,-0.431,0.948,171.0
76.923,-0.439,0.511,12.0
51.859,-0.311,0.065,25.0
44.524,-0.28,-0.179,4.0
34.153,-0.225,-0.317,0.0
79.439,-0.546,1.468,165.0
79.446,-0.568,1.048,186.0
79.347,-0.591,0.627,59.0
57.564,-0.446,0.146,6.0
47.396,-0.381,-0.129,4.0
39.041,-0.325,-0.313,0.0
79.44,-0.683,1.57,172.0
79.441,-0.706,1.151,193.0
79.456,-0.728,0.731,156.0
60.57,-0.572,0.231,0.0
50.847,-0.495,-0.073,9.0
38.555,-0.387,-0.258,8.0
79.424,-0.817,1.673,207.0
79.424,-0.84,1.255,215.0
79.449,-0.864,0.837,150.0
77.924,-0.868,0.401,7.0
60.772,-0.694,-0.006,3.0
42.458,-0.497,-0.228,1.0
79.47,-0.95,1.78,6.0
79.425,-0.972,1.36,150.0
86.967,-1.087,1.031,37.0
78.948,-1.009,0.513,12.0
60.736,-0.794,0.075,3.0
46.733,-0.624,-0.187,1.0
183.413,-2.495,4.359,40.0
183.414,-2.546,3.394,93.0
148.33,-2.099,1.964,12.0
87.778,-1.266,0.691,4.0
248.356,-3.652,0.652,36.0
50.674,-0.759,-0.133,0.0
183.537,-2.794,4.618,23.0
261.83,-4.056,5.21,11.0
205.403,-3.237,3.006,72.0
123.857,-1.985,1.149,7.0
40.297,-0.656,0.162,38.0
40.309,-0.668,-0.048,47.0
40.286,-0.677,1.07,9.0
40.214,-0.687,0.857,30.0
40.181,-0.697,0.645,8.0
40.247,-0.709,0.431,38.0
40.25,-0.719,0.22,49.0
40.284,-0.731,0.009,63.0
40.283,-0.74,1.128,59.0
40.213,-0.75,0.916,49.0
40.169,-0.759,0.704,45.0
40.232,-0.771,0.49,56.0
40.261,-0.782,0.279,47.0
66.83,-1.316,0.114,0.0
40.305,-0.803,1.189,45.0
40.213,-0.812,0.975,52.0
40.225,-0.822,0.764,52.0
40.24,-0.832,0.55,51.0
40.276,-0.844,0.339,0.0
68.14,-1.444,0.217,0.0
40.275,-0.863,1.248,30.0
40.203,-0.872,1.035,59.0
40.195,-0.881,0.824,55.0
40.308,-0.894,0.611,91.0
40.307,-0.904,0.4,105.0
40.293,-0.914,0.19,35.0
40.3,-0.924,1.31,40.0
40.21,-0.931,1.096,58.0
40.189,-0.94,0.886,57.0
40.197,-0.95,0.671,61.0
40.246,-0.961,0.461,43.0
40.219,-0.97,0.251,0.0
40.21,-0.979,1.368,58.0
40.219,-0.988,1.158,46.0
40.188,-0.997,0.947,56.0
40.181,-1.007,0.733,60.0
40.212,-1.017,0.523,55.0
40.186,-1.026,0.313,58.0
40.199,-1.035,1.431,55.0
40.266,-1.046,1.222,37.0
40.194,-1.053,1.009,57.0
40.212,-1.063,0.796,42.0
40.235,-1.074,0.586,44.0
40.198,-1.082,0.376,51.0
40.259,-1.092,1.496,30.0
40.303,-1.103,1.287,5.0
40.268,-1.11,1.075,36.0
0.0,0.0,0.0,0.0
0.0,0.0,0.0,0.0
40.242,-1.138,0.441,0.0
0.0,0.0,0.0,0.0
0.0,0.0,0.0,0.0
40.292,-1.165,1.141,28.0
40.314,-1.175,0.927,24.0
40.356,-1.185,0.717,21.0
40.359,-1.194,0.507,0.0
148.176,-4.414,5.983,19.0
0.0,0.0,0.0,0.0
40.259,-1.216,1.205,0.0
40.299,-1.226,0.992,26.0
40.325,-1.235,0.782,24.0
40.345,-1.245,0.572,67.0
148.115,-4.602,6.222,15.0
0.0,0.0,0.0,0.0
0.0,0.0,0.0,0.0
0.0,0.0,0.0,0.0
0.0,0.0,0.0,0.0
0.0,0.0,0.0,0.0
0.0,0.0,0.0,0.0
0.0,0.0,0.0,0.0
0.0,0.0,0.0,0.0
0.0,0.0,0.0,0.0
0.0,0.0,0.0,0.0
0.0,0.0,0.0,0.0
0.0,0.0,0.0,0.0
0.0,0.0,0.0,0.0
0.0,0.0,0.0,0.0
0.0,0.0,0.0,0.0
0.0,0.0,0.0,0.0
0.0,0.0,0.0,0.0
0.0,0.0,0.0,0.0
0.0,0.0,0.0,0.0
0.0,0.0,0.0,0.0
0.0,0.0,0.0,0.0
0.0,0.0,0.0,0.0
0.0,0.0,0.0,0.0
0.0,0.0,0.0,0.0
0.0,0.0,0.0,0.0
0.0,0.0,0.0,0.0
0.0,0.0,0.0,0.0
0.0,0.0,0.0,0.0
0.0,0.0,0.0,0.0
0.0,0.0,0.0,0.0
0.0,0.0,0.0,0.0
0.0,0.0,0.0,0.0
0.0,0.0,0.0,0.0
0.0,0.0,0.0,0.0
0.0,0.0,0.0,0.0
0.0,0.0,0.0,0.0
0.0,0.0,0.0,0.0
0.0,0.0,0.0,0.0
0.0,0.0,0.0,0.0
0.0,0.0,0.0,0.0
0.0,0.0,0.0,0.0
0.0,0.0,0.0,0.0
0.0,0.0,0.0,0.0
0.0,0.0,0.0,0.0
0.0,0.0,0.0,0.0
0.0,0.0,0.0,0.0
0.0,0.0,0.0,0.0
0.0,0.0,0.0,0.0
0.0,0.0,0.0,0.0
0.0,0.0,0.0,0.0
0.0,0.0,0.0,0.0
0.0,0.0,0.0,0.0
0.0,0.0,0.0,0.0
0.0,0.0,0.0,0.0
0.0,0.0,0.0,0.0
0.0,0.0,0.0,0.0
0.0,0.0,0.0,0.0
0.0,0.0,0.0,0.0
0.0,0.0,0.0,0.0
97.65,-4.085,5.768,1.0
0.0,0.0,0.0,0.0
0.0,0.0,0.0,0.0
0.0,0.0,0.0,0.0
0.0,0.0,0.0,0.0
0.0,0.0,0.0,0.0
83.363,-3.56,5.071,1.0
0.0,0.0,0.0,0.0
0.0,0.0,0.0,0.0
0.0,0.0,0.0,0.0
0.0,0.0,0.0,0.0
0.0,0.0,0.0,0.0
0.0,0.0,0.0,0.0
83.274,-3.634,4.777,1.0
0.0,0.0,0.0,0.0
0.0,0.0,0.0,0.0
0.0,0.0,0.0,0.0
0.0,0.0,0.0,0.0
92.762,-4.11,5.969,1.0
83.16,-3.694,4.919,1.0
0.0,0.0,0.0,0.0
0.0,0.0,0.0,0.0
0.0,0.0,0.0,0.0
0.0,0.0,0.0,0.0
93.027,-4.191,6.15,4.0
0.0,0.0,0.0,0.0
0.0,0.0,0.0,0.0
0.0,0.0,0.0,0.0
0.0,0.0,0.0,0.0
0.0,0.0,0.0,0.0
92.898,-4.251,6.307,4.0
0.0,0.0,0.0,0.0
0.0,0.0,0.0,0.0
0.0,0.0,0.0,0.0
0.0,0.0,0.0,0.0
0.0,0.0,0.0,0.0
89.856,-4.171,6.259,5.0
0.0,0.0,0.0,0.0
83.275,-3.879,4.931,1.0
0.0,0.0,0.0,0.0
0.0,0.0,0.0,0.0
93.003,-4.375,6.643,4.0
91.318,-4.303,6.045,2.0
83.406,-3.936,5.086,1.0
0.0,0.0,0.0,0.0
0.0,0.0,0.0,0.0
0.0,0.0,0.0,0.0
83.097,-3.957,6.082,5.0
93.075,-4.439,6.326,7.0
0.0,0.0,0.0,0.0
0.0,0.0,0.0,0.0
0.0,0.0,0.0,0.0
0.0,0.0,0.0,0.0
92.694,-4.465,6.95,4.0
91.494,-4.412,6.381,2.0
92.054,-4.445,5.939,1.0
0.0,0.0,0.0,0.0
0.0,0.0,0.0,0.0
0.0,0.0,0.0,0.0
92.035,-4.479,7.063,5.0
91.508,-4.458,6.543,1.0
0.0,0.0,0.0,0.0
0.0,0.0,0.0,0.0
0.0,0.0,0.0,0.0
0.0,0.0,0.0,0.0
83.614,-4.108,6.564,9.0
93.068,-4.577,6.82,4.0
92.946,-4.574,6.325,4.0
0.0,0.0,0.0,0.0
0.0,0.0,0.0,0.0
0.0,0.0,0.0,0.0
83.653,-4.145,6.715,5.0
83.095,-4.12,6.235,5.0
92.903,-4.61,6.484,1.0
0.0,0.0,0.0,0.0
0.0,0.0,0.0,0.0
0.0,0.0,0.0,0.0
83.647,-4.176,6.86,5.0
91.478,-4.569,7.023,2.0
91.439,-4.57,6.542,3.0
90.462,-4.524,5.99,1.0
0.0,0.0,0.0,0.0
0.0,0.0,0.0,0.0
83.744,-4.209,7.016,5.0
83.492,-4.198,6.557,4.0
91.117,-4.583,6.678,3.0
93.027,-4.681,6.322,6.0
0.0,0.0,0.0,0.0
0.0,0.0,0.0,0.0
92.257,-4.665,7.888,14.0
91.902,-4.648,7.376,2.0
83.111,-4.203,6.234,4.0
93.023,-4.706,6.481,2.0
0.0,0.0,0.0,0.0
0.0,0.0,0.0,0.0
92.163,-4.683,8.04,7.0
93.523,-4.753,7.667,2.0
83.083,-4.222,6.374,3.0
91.511,-4.65,6.532,4.0
90.424,-4.596,5.981,3.0
0.0,0.0,0.0,0.0
0.0,0.0,0.0,0.0
93.196,-4.755,7.799,4.0
83.197,-4.244,6.526,4.0
93.054,-4.746,6.8,4.0
92.925,-4.739,6.303,2.0
0.0,0.0,0.0,0.0
90.709,-4.644,8.223,6.0
92.033,-4.711,7.858,11.0
83.179,-4.256,6.665,5.0
92.978,-4.757,6.953,3.0
92.941,-4.753,6.462,6.0
0.0,0.0,0.0,0.0
56.782,-2.915,5.244,1.0
92.057,-4.724,8.017,9.0
83.057,-4.26,6.797,4.0
92.682,-4.751,7.088,3.0
91.582,-4.693,6.522,1.0
0.0,0.0,0.0,0.0
56.794,-2.92,5.341,2.0
92.321,-4.745,8.195,1.0
93.281,-4.791,7.788,6.0
98.552,-5.059,7.7,1.0
93.089,-4.776,6.783,2.0
93.022,-4.77,6.291,2.0
56.637,-2.916,5.421,6.0
90.751,-4.668,8.206,4.0
92.359,-4.747,7.864,5.0
83.414,-4.284,6.655,1.0
92.983,-4.771,6.929,4.0
92.998,-4.769,6.441,8.0
0.0,0.0,0.0,0.0
90.641,-4.662,8.345,3.0
92.048,-4.731,7.988,11.0
83.036,-4.264,6.759,3.0
89.985,-4.616,6.85,2.0
91.518,-4.691,6.485,1.0
0.0,0.0,0.0,0.0
56.843,-2.922,5.325,2.0
92.331,-4.741,8.16,1.0
93.436,-4.793,7.755,5.0
98.542,-5.049,7.66,2.0
91.465,-4.682,6.628,3.0
0.0,0.0,0.0,0.0
56.637,-2.907,5.397,5.0
90.801,-4.655,8.171,4.0
92.4,-4.731,7.816,3.0
83.182,-4.255,6.598,5.0
93.039,-4.752,6.889,3.0
92.616,-4.75,9.464,1.0
0.0,0.0,0.0,0.0
90.675,-4.637,8.302,5.0
92.126,-4.705,7.939,14.0
91.836,-4.684,7.428,4.0
92.735,-4.724,7.012,3.0
55.213,-2.823,5.729,2.0
92.599,-4.728,9.116,1.0
56.746,-2.893,5.285,3.0
92.404,-4.704,8.107,2.0
93.33,-4.744,7.694,7.0
83.097,-4.217,6.412,7.0
55.253,-2.815,5.819,1.0
92.871,-4.725,9.286,1.0
56.611,-2.874,5.359,7.0
90.735,-4.6,8.1,3.0
83.679,-4.236,7.026,3.0
83.472,-4.219,6.567,5.0
49.459,-2.508,5.285,5.0
92.753,-4.696,9.417,6.0
63.617,-3.215,6.12,1.0
90.742,-4.579,8.238,3.0
91.917,-4.629,7.857,12.0
90.979,-4.574,7.294,2.0
49.492,-2.498,5.363,3.0
55.177,-2.779,5.684,4.0
63.678,-3.201,6.22,3.0
56.668,-2.843,5.228,5.0
92.29,-4.621,8.024,1.0
83.636,-4.181,6.827,5.0
54.824,-2.751,6.022,9.0
63.643,-3.186,6.65,1.0
92.659,-4.629,9.187,5.0
56.673,-2.825,5.311,5.0
90.791,-4.517,8.026,2.0
92.616,-4.598,7.695,4.0
50.131,-2.498,5.579,8.0
57.16,-2.842,6.055,5.0
92.683,-4.598,9.323,12.0
63.692,-3.153,6.06,3.0
90.84,-4.486,8.159,4.0
92.226,-4.545,7.793,5.0
0.0,0.0,0.0,0.0
54.958,-2.712,5.9,6.0
55.2,-2.717,5.631,3.0
92.664,-4.551,8.947,7.0
56.699,-2.778,5.171,7.0
92.043,-4.5,7.905,4.0
48.325,-2.37,5.515,14.0
57.993,-2.837,6.307,4.0
62.959,-3.073,6.509,3.0
92.683,-4.512,9.077,6.0
56.688,-2.753,5.248,2.0
83.964,-4.068,7.325,1.0
48.789,-2.372,5.635,11.0
56.625,-2.746,6.235,6.0
55.035,-2.661,5.765,10.0
54.938,-2.65,5.454,2.0
92.731,-4.46,8.71,5.0
90.426,-4.338,8.01,10.0
48.021,-2.312,5.611,11.0
48.464,-2.326,5.401,5.0
49.539,-2.371,5.255,4.0
55.088,-2.63,5.542,3.0
83.762,-3.987,7.978,8.0
56.717,-2.692,5.098,9.0
49.663,-2.365,5.869,4.0
48.34,-2.295,5.452,17.0
49.519,-2.344,5.318,4.0
55.051,-2.599,5.61,4.0
90.965,-4.281,8.782,6.0
56.705,-2.661,5.17,5.0
49.404,-2.326,5.902,7.0
50.878,-2.388,5.803,7.0
56.573,-2.647,6.147,4.0
55.055,-2.568,5.68,18.0
83.249,-3.871,8.14,9.0
63.362,-2.937,5.855,5.0
48.9,-2.274,5.903,5.0
48.719,-2.258,5.617,14.0
40.549,-1.873,4.456,21.0
63.545,-2.926,6.633,9.0
63.363,-2.909,6.273,4.0
91.195,-4.173,8.538,5.0
46.882,-2.152,5.717,3.0
47.508,-2.173,5.535,4.0
