X,Y,Z,Reflectivity
25.247,-2.977,-0.562,1.0
87.398,-10.304,0.497,3.0
0.0,0.0,0.0,0.0
44.793,-5.297,-0.226,0.0
36.398,-4.311,-0.383,4.0
29.586,-3.509,-0.47,1.0
25.812,-3.066,-0.549,1.0
87.381,-10.378,0.585,8.0
0.0,0.0,0.0,0.0
50.4,-6.002,-0.204,1.0
37.375,-4.458,-0.356,2.0
30.547,-3.649,-0.455,1.0
26.572,-3.179,-0.538,1.0
87.518,-10.467,0.674,12.0
0.0,0.0,0.0,0.0
50.312,-6.033,-0.152,1.0
39.357,-4.726,-0.334,1.0
32.069,-3.856,-0.444,1.0
27.196,-3.274,-0.523,0.0
86.217,-10.379,0.754,16.0
0.0,0.0,0.0,0.0
0.0,0.0,0.0,0.0
41.196,-4.977,-0.307,0.0
33.145,-4.01,-0.425,1.0
27.96,-3.387,-0.508,1.0
86.256,-10.447,0.844,157.0
87.071,-10.558,0.385,1.0
0.0,0.0,0.0,0.0
0.0,0.0,0.0,0.0
33.943,-4.13,-0.399,0.0
28.741,-3.502,-0.492,1.0
86.292,-10.511,0.936,164.0
86.903,-10.597,0.477,1.0
0.0,0.0,0.0,0.0
44.765,-5.47,-0.239,0.0
37.101,-4.539,-0.396,3.0
29.693,-3.637,-0.476,1.0
86.311,-10.57,1.029,118.0
86.761,-10.636,0.569,2.0
0.0,0.0,0.0,0.0
50.216,-6.168,-0.213,0.0
37.515,-4.613,-0.36,1.0
30.717,-3.781,-0.459,1.0
86.37,-10.63,1.123,54.0
86.611,-10.669,0.662,3.0
0.0,0.0,0.0,0.0
50.258,-6.202,-0.158,1.0
40.083,-4.951,-0.341,1.0
32.212,-3.983,-0.447,1.0
86.36,-10.677,1.218,48.0
86.381,-10.688,0.756,151.0
0.0,0.0,0.0,0.0
50.707,-6.284,-0.104,0.0
42.291,-5.246,-0.313,1.0
33.028,-4.101,-0.422,1.0
86.366,-10.723,1.313,19.0
86.403,-10.735,0.852,150.0
91.538,-11.381,0.413,2.0
0.0,0.0,0.0,0.0
45.327,-5.644,-0.285,8.0
35.843,-4.467,-0.417,5.0
99.748,-12.431,1.628,5.0
99.74,-12.438,1.095,19.0
91.253,-11.387,0.513,4.0
0.0,0.0,0.0,0.0
45.318,-5.663,-0.235,5.0
36.07,-4.51,-0.379,4.0
99.691,-12.467,1.74,40.0
99.715,-12.476,1.206,59.0
99.381,-12.441,0.671,13.0
0.0,0.0,0.0,0.0
50.422,-6.32,-0.204,4.0
37.301,-4.678,-0.351,0.0
99.619,-12.496,1.851,66.0
99.68,-12.509,1.319,79.0
99.568,-12.501,0.785,45.0
89.555,-11.249,0.217,1.0
50.425,-6.337,-0.147,6.0
39.856,-5.012,-0.329,0.0
99.601,-12.527,1.964,74.0
99.647,-12.537,1.433,91.0
99.652,-12.542,0.898,68.0
89.507,-11.271,0.318,5.0
50.446,-6.355,-0.09,0.0
45.257,-5.704,-0.323,0.0
99.575,-12.551,2.077,78.0
99.628,-12.562,1.544,86.0
99.648,-12.568,1.011,82.0
89.613,-11.307,0.42,7.0
0.0,0.0,0.0,0.0
45.255,-5.714,-0.272,2.0
99.547,-12.572,2.189,70.0
99.611,-12.582,1.657,82.0
99.642,-12.59,1.124,93.0
99.178,-12.535,0.578,4.0
0.0,0.0,0.0,0.0
50.389,-6.372,-0.245,1.0
99.537,-12.59,2.302,66.0
99.599,-12.599,1.772,87.0
99.639,-12.606,1.238,95.0
99.449,-12.585,0.694,24.0
0.0,0.0,0.0,0.0
50.426,-6.384,-0.187,7.0
99.536,-12.605,2.418,67.0
99.576,-12.61,1.885,81.0
99.635,-12.619,1.353,85.0
99.574,-12.612,0.809,67.0
89.365,-11.321,0.247,1.0
50.449,-6.392,-0.129,4.0
99.517,-12.612,2.531,55.0
99.567,-12.618,2.0,88.0
99.63,-12.626,1.467,94.0
99.641,-12.628,0.923,80.0
89.44,-11.336,0.35,6.0
0.0,0.0,0.0,0.0
99.51,-12.617,2.645,60.0
99.561,-12.622,2.113,79.0
99.625,-12.629,1.581,90.0
99.638,-12.63,1.037,83.0
89.503,-11.345,0.452,4.0
0.0,0.0,0.0,0.0
99.505,-12.617,2.757,67.0
99.542,-12.619,2.226,78.0
99.601,-12.625,1.694,82.0
99.653,-12.629,1.151,88.0
99.31,-12.585,0.615,9.0
0.0,0.0,0.0,0.0
99.49,-12.611,2.872,65.0
99.548,-12.615,2.34,66.0
99.579,-12.616,1.807,87.0
99.642,-12.621,1.264,90.0
99.541,-12.606,0.731,43.0
0.0,0.0,0.0,0.0
99.472,-12.601,2.985,54.0
99.533,-12.604,2.452,75.0
99.57,-12.604,1.919,83.0
99.638,-12.609,1.377,96.0
99.631,-12.605,0.843,75.0
89.512,-11.322,0.278,4.0
99.474,-12.588,3.096,53.0
99.523,-12.588,2.565,78.0
99.559,-12.587,2.032,88.0
99.619,-12.59,1.49,96.0
99.657,-12.591,0.956,76.0
89.674,-11.326,0.379,7.0
99.458,-12.568,3.208,62.0
99.51,-12.568,2.675,80.0
99.554,-12.567,2.144,81.0
99.612,-12.569,1.6,94.0
99.649,-12.568,1.066,81.0
90.307,-11.385,0.483,3.0
99.489,-12.55,3.319,73.0
99.505,-12.544,2.786,69.0
99.551,-12.542,2.254,76.0
99.6,-12.542,1.71,88.0
99.654,-12.543,1.176,80.0
99.407,-12.505,0.641,15.0
99.499,-12.524,3.431,68.0
99.518,-12.518,2.896,68.0
99.58,-12.517,2.364,79.0
99.605,-12.513,1.82,78.0
99.703,-12.517,1.288,78.0
99.566,-12.493,0.751,37.0
99.549,-12.499,3.542,57.0
99.544,-12.488,3.007,56.0
99.581,-12.484,2.474,63.0
99.635,-12.482,1.93,55.0
99.716,-12.484,1.396,48.0
99.721,-12.476,0.862,43.0
99.51,-12.457,3.65,22.0
99.594,-12.458,3.117,16.0
99.599,-12.448,2.582,15.0
99.665,-12.446,2.039,12.0
99.72,-12.444,1.504,7.0
86.41,-10.775,0.84,18.0
99.536,-12.42,3.759,25.0
205.156,-25.576,6.643,22.0
203.743,-25.377,5.502,40.0
207.695,-25.846,4.472,16.0
86.47,-10.751,1.397,2.0
86.402,-10.735,0.931,150.0
99.517,-12.373,3.863,33.0
205.152,-25.481,6.86,42.0
203.484,-25.248,5.71,56.0
203.311,-25.204,4.589,7.0
86.409,-10.702,1.486,10.0
86.369,-10.687,1.022,45.0
99.472,-12.317,3.967,43.0
205.158,-25.376,7.077,39.0
203.264,-25.116,5.918,45.0
210.037,-25.926,4.961,13.0
86.371,-10.65,1.576,9.0
86.341,-10.636,1.111,52.0
99.398,-12.254,4.066,52.0
204.763,-25.215,7.272,36.0
203.186,-24.993,6.122,48.0
203.087,-24.954,5.003,27.0
203.127,-24.932,3.911,25.0
86.296,-10.581,1.197,53.0
99.256,-12.179,4.161,42.0
204.517,-25.064,7.471,43.0
203.221,-24.874,6.328,49.0
202.95,-24.812,5.206,18.0
203.011,-24.791,4.113,22.0
86.278,-10.524,1.283,45.0
99.06,-12.093,4.252,48.0
204.374,-24.916,7.67,38.0
203.175,-24.737,6.529,46.0
188.034,-22.864,5.01,24.0
203.049,-24.659,4.316,18.0
86.301,-10.468,1.369,30.0
98.973,-12.015,4.346,76.0
204.268,-24.763,7.866,30.0
203.332,-24.615,6.734,31.0
189.495,-22.909,5.235,21.0
86.864,-10.487,1.931,4.0
86.315,-10.407,1.453,30.0
98.997,-11.947,4.443,43.0
204.029,-24.585,8.056,32.0
203.828,-24.524,6.948,40.0
189.5,-22.768,5.415,26.0
188.194,-22.58,4.362,26.0
86.303,-10.34,1.535,38.0
99.027,-11.875,4.539,47.0
203.825,-24.404,8.24,30.0
203.578,-24.337,7.13,39.0
189.257,-22.591,5.584,27.0
188.241,-22.436,4.538,38.0
86.28,-10.269,1.614,13.0
98.935,-11.785,4.626,24.0
203.808,-24.238,8.425,29.0
203.812,-24.199,7.324,22.0
188.69,-22.367,5.741,24.0
188.511,-22.312,4.715,34.0
86.467,-10.218,1.696,1.0
98.869,-11.695,4.711,32.0
116.285,-13.731,4.911,15.0
203.985,-24.045,7.511,19.0
189.03,-22.244,5.92,23.0
188.541,-22.15,4.885,42.0
86.584,-10.156,1.774,10.0
98.826,-11.602,4.797,41.0
116.323,-13.632,5.015,25.0
204.053,-23.87,7.691,29.0
189.491,-22.128,6.097,24.0
188.43,-21.966,5.042,27.0
86.654,-10.085,1.849,17.0
98.69,-11.496,4.875,53.0
115.527,-13.432,5.079,12.0
116.552,-13.525,4.491,43.0
189.323,-21.929,6.25,25.0
188.165,-21.757,5.193,36.0
86.673,-10.004,1.921,20.0
98.663,-11.399,4.955,28.0
115.387,-13.304,5.168,36.0
115.7,-13.314,4.554,35.0
115.925,-13.314,3.922,53.0
115.871,-13.282,3.291,41.0
107.461,-12.296,2.47,44.0
105.285,-12.058,5.374,21.0
99.49,-11.371,4.536,19.0
115.546,-13.178,4.641,38.0
115.906,-13.193,4.014,86.0
107.386,-12.198,3.136,49.0
107.495,-12.188,2.555,65.0
104.936,-11.908,5.438,18.0
99.788,-11.299,4.628,27.0
107.69,-12.168,4.409,17.0
115.941,-13.072,4.105,54.0
107.356,-12.079,3.217,77.0
115.872,-13.012,2.843,15.0
107.99,-12.138,5.678,23.0
100.065,-11.222,4.716,46.0
106.195,-11.884,4.427,30.0
106.862,-11.932,3.862,22.0
107.373,-11.963,3.296,64.0
187.522,-20.849,4.738,46.0
108.286,-12.051,5.773,31.0
108.22,-12.015,5.179,31.0
105.876,-11.728,4.49,47.0
106.573,-11.779,3.927,51.0
107.443,-11.848,3.375,26.0
187.321,-20.611,4.865,40.0
100.072,-11.021,5.405,39.0
108.189,-11.886,5.252,38.0
105.842,-11.601,4.561,41.0
106.897,-11.688,4.013,57.0
123.379,-13.46,3.959,69.0
123.513,-13.445,3.289,59.0
100.171,-10.913,5.478,30.0
117.927,-12.816,5.803,8.0
115.64,-12.537,5.059,20.0
106.872,-11.558,4.081,50.0
123.353,-13.31,4.037,57.0
123.493,-13.293,3.368,93.0
90.687,-9.77,5.017,7.0
105.191,-11.303,5.244,45.0
107.952,-11.57,4.791,56.0
123.883,-13.244,4.807,55.0
189.361,-20.194,6.314,18.0
188.087,-20.011,5.245,17.0
104.576,-11.135,5.849,24.0
115.104,-12.224,5.808,21.0
107.989,-11.439,4.856,40.0
107.186,-11.324,4.223,89.0
189.34,-19.954,6.425,26.0
187.847,-19.747,5.346,29.0
99.241,-10.442,5.606,47.0
108.644,-11.399,5.543,15.0
122.631,-12.832,5.584,40.0
122.874,-12.823,4.909,34.0
189.667,-19.741,6.541,25.0
187.949,-19.511,5.453,45.0
90.746,-9.428,5.177,6.0
107.209,-11.107,5.527,30.0
107.341,-11.09,4.945,79.0
149.55,-15.409,6.053,18.0
148.419,-15.25,5.194,40.0
188.042,-19.269,5.551,49.0
90.65,-9.297,5.218,4.0
107.161,-10.957,5.579,6.0
108.095,-11.022,5.034,55.0
124.849,-12.694,5.115,12.0
148.337,-15.039,5.263,85.0
188.125,-19.02,5.644,48.0
99.409,-10.058,5.769,52.0
116.06,-11.708,6.097,9.0
106.737,-10.736,5.019,18.0
124.834,-12.518,5.171,25.0
148.243,-14.822,5.328,15.0
187.963,-18.739,5.724,36.0
99.217,-9.898,5.802,42.0
106.617,-10.604,5.648,10.0
106.687,-10.579,5.063,34.0
123.141,-12.174,5.153,7.0
148.148,-14.603,5.387,13.0
148.744,-14.617,4.591,43.0
99.196,-9.755,5.841,7.0
116.162,-11.388,6.2,8.0
0.0,0.0,0.0,0.0
147.841,-14.405,6.244,18.0
189.993,-18.454,6.981,22.0
149.189,-14.448,4.66,26.0
107.813,-10.447,6.388,22.0
107.988,-10.429,5.803,35.0
106.536,-10.256,5.137,21.0
123.036,-11.806,5.241,12.0
190.283,-18.202,7.056,17.0
149.786,-14.284,4.73,52.0
106.907,-10.2,6.371,12.0
108.114,-10.282,5.845,22.0
106.358,-10.08,5.163,32.0
157.108,-14.842,6.742,51.0
204.685,-19.274,7.656,14.0
148.81,-13.968,4.745,65.0
107.304,-10.076,6.427,42.0
106.24,-9.943,5.775,59.0
122.743,-11.448,5.994,26.0
147.711,-13.729,6.381,29.0
148.618,-13.768,5.599,78.0
188.612,-17.416,6.065,34.0
106.081,-9.799,6.382,21.0
115.789,-10.657,6.324,2.0
147.26,-13.506,7.228,15.0
164.43,-15.029,7.144,14.0
156.558,-14.26,5.936,35.0
188.61,-17.12,6.109,36.0
105.841,-9.611,6.392,5.0
122.474,-11.082,6.717,24.0
147.105,-13.262,7.252,8.0
150.332,-13.505,6.562,15.0
204.162,-18.276,7.783,18.0
149.616,-13.345,4.876,71.0
99.578,-8.884,6.033,5.0
122.473,-10.887,6.739,12.0
148.45,-13.147,7.345,21.0
148.533,-13.106,6.509,17.0
158.094,-13.901,6.053,46.0
190.457,-16.685,6.237,22.0
99.626,-8.729,6.051,4.0
108.389,-9.46,5.98,8.0
148.551,-12.915,7.37,19.0
205.266,-17.781,9.024,12.0
165.906,-14.318,6.372,40.0
157.097,-13.507,5.163,57.0
115.482,-9.931,7.027,8.0
108.484,-9.292,5.997,7.0
148.379,-12.661,7.376,13.0
158.562,-13.479,6.985,19.0
149.901,-12.693,5.771,58.0
164.294,-13.858,5.413,41.0
122.771,-10.357,7.479,6.0
148.565,-12.48,8.224,6.0
159.483,-13.345,7.939,4.0
163.815,-13.654,7.225,11.0
156.37,-12.981,6.027,28.0
157.488,-13.022,5.196,39.0
124.065,-10.258,7.563,3.0
106.421,-8.763,5.893,6.0
150.7,-12.358,7.504,32.0
149.874,-12.239,6.614,37.0
163.941,-13.335,6.321,20.0
164.682,-13.342,5.432,15.0
108.315,-8.774,6.602,4.0
108.987,-8.79,6.034,4.0
158.95,-12.767,7.912,5.0
155.831,-12.464,6.873,5.0
157.038,-12.508,6.051,32.0
164.327,-13.034,5.416,15.0
163.113,-12.935,9.934,4.0
149.345,-11.793,8.261,14.0
163.299,-12.838,8.12,6.0
156.487,-12.251,6.891,20.0
165.541,-12.904,6.365,38.0
196.75,-15.271,6.47,45.0
149.407,-11.593,9.087,10.0
155.572,-12.019,8.592,5.0
157.616,-12.122,7.823,6.0
157.985,-12.096,6.941,13.0
163.909,-12.494,6.285,25.0
204.722,-15.537,6.707,9.0
157.729,-11.964,9.573,7.0
0.0,0.0,0.0,0.0
149.07,-11.206,7.377,7.0
163.792,-12.257,7.174,16.0
194.88,-14.517,7.445,11.0
0.0,0.0,0.0,0.0
147.38,-10.923,8.921,16.0
149.371,-11.02,8.204,4.0
158.296,-11.625,7.806,12.0
156.008,-11.403,6.802,16.0
164.487,-11.969,6.252,42.0
208.281,-15.086,6.751,9.0
150.305,-10.88,9.067,9.0
156.599,-11.278,8.566,10.0
148.932,-10.676,7.312,4.0
164.406,-11.728,7.132,30.0
196.456,-13.95,7.421,59.0
204.145,-14.427,6.57,24.0
157.426,-11.117,9.458,13.0
0.0,0.0,0.0,0.0
164.572,-11.506,8.036,10.0
196.594,-13.676,8.475,10.0
203.628,-14.099,7.637,33.0
204.834,-14.116,6.533,32.0
156.714,-10.79,9.37,4.0
148.726,-10.187,8.055,3.0
156.129,-10.64,7.577,3.0
205.409,-13.927,8.793,8.0
204.988,-13.828,7.623,26.0
208.958,-14.028,6.599,33.0
210.07,-14.088,12.49,8.0
197.94,-13.204,10.653,8.0
158.28,-10.504,7.628,4.0
203.517,-13.438,8.642,16.0
208.709,-13.709,7.688,14.0
209.117,-13.668,6.53,26.0
148.222,-9.674,8.758,6.0
156.095,-10.136,8.342,5.0
149.767,-9.674,7.161,7.0
222.206,-14.276,9.35,6.0
208.481,-13.323,7.598,19.0
208.832,-13.278,6.438,19.0
148.181,-9.408,8.695,5.0
149.475,-9.439,7.926,5.0
149.948,-9.419,7.106,3.0
220.292,-13.762,9.175,6.0
213.03,-13.236,7.672,10.0
244.066,-15.082,7.415,12.0
164.305,-10.137,9.567,9.0
163.395,-10.024,8.59,6.0
212.845,-12.986,9.987,6.0
0.0,0.0,0.0,0.0
212.08,-12.797,7.538,25.0
271.898,-16.315,8.131,56.0
147.945,-8.86,8.542,4.0
150.188,-8.943,7.821,15.0
0.0,0.0,0.0,0.0
0.0,0.0,0.0,0.0
243.898,-14.277,8.543,11.0
278.739,-16.223,8.19,13.0
163.993,-9.525,9.38,4.0
211.632,-12.219,10.908,19.0
0.0,0.0,0.0,0.0
0.0,0.0,0.0,0.0
0.0,0.0,0.0,0.0
0.0,0.0,0.0,0.0
164.675,-9.266,9.324,6.0
0.0,0.0,0.0,0.0
0.0,0.0,0.0,0.0
211.662,-11.695,8.367,8.0
278.875,-15.318,9.445,10.0
0.0,0.0,0.0,0.0
0.0,0.0,0.0,0.0
0.0,0.0,0.0,0.0
0.0,0.0,0.0,0.0
0.0,0.0,0.0,0.0
0.0,0.0,0.0,0.0
0.0,0.0,0.0,0.0
0.0,0.0,0.0,0.0
0.0,0.0,0.0,0.0
0.0,0.0,0.0,0.0
0.0,0.0,0.0,0.0
0.0,0.0,0.0,0.0
0.0,0.0,0.0,0.0
0.0,0.0,0.0,0.0
0.0,0.0,0.0,0.0
0.0,0.0,0.0,0.0
0.0,0.0,0.0,0.0
0.0,0.0,0.0,0.0
0.0,0.0,0.0,0.0
0.0,0.0,0.0,0.0
0.0,0.0,0.0,0.0
0.0,0.0,0.0,0.0
0.0,0.0,0.0,0.0
0.0,0.0,0.0,0.0
0.0,0.0,0.0,0.0
0.0,0.0,0.0,0.0
0.0,0.0,0.0,0.0
0.0,0.0,0.0,0.0
0.0,0.0,0.0,0.0
0.0,0.0,0.0,0.0
0.0,0.0,0.0,0.0
0.0,0.0,0.0,0.0
0.0,0.0,0.0,0.0
0.0,0.0,0.0,0.0
0.0,0.0,0.0,0.0
0.0,0.0,0.0,0.0
0.0,0.0,0.0,0.0
0.0,0.0,0.0,0.0
0.0,0.0,0.0,0.0
0.0,0.0,0.0,0.0
0.0,0.0,0.0,0.0
0.0,0.0,0.0,0.0
0.0,0.0,0.0,0.0
0.0,0.0,0.0,0.0
0.0,0.0,0.0,0.0
0.0,0.0,0.0,0.0
0.0,0.0,0.0,0.0
0.0,0.0,0.0,0.0
0.0,0.0,0.0,0.0
0.0,0.0,0.0,0.0
0.0,0.0,0.0,0.0
0.0,0.0,0.0,0.0
0.0,0.0,0.0,0.0
0.0,0.0,0.0,0.0
0.0,0.0,0.0,0.0
0.0,0.0,0.0,0.0
0.0,0.0,0.0,0.0
0.0,0.0,0.0,0.0
0.0,0.0,0.0,0.0
0.0,0.0,0.0,0.0
0.0,0.0,0.0,0.0
0.0,0.0,0.0,0.0
0.0,0.0,0.0,0.0
148.027,-5.095,6.043,3.0
0.0,0.0,0.0,0.0
0.0,0.0,0.0,0.0
0.0,0.0,0.0,0.0
0.0,0.0,0.0,0.0
0.0,0.0,0.0,0.0
148.043,-4.84,5.882,7.0
0.0,0.0,0.0,0.0
0.0,0.0,0.0,0.0
40.325,-1.282,0.906,22.0
40.341,-1.27,0.675,56.0
0.0,0.0,0.0,0.0
0.0,0.0,0.0,0.0
0.0,0.0,0.0,0.0
40.283,-1.223,1.089,32.0
40.332,-1.213,0.86,24.0
154.005,-4.587,2.403,150.0
148.132,-4.379,6.396,4.0
0.0,0.0,0.0,0.0
40.276,-1.167,1.277,4.0
40.345,-1.157,1.044,35.0
40.18,-1.141,0.81,0.0
40.28,-1.132,0.581,23.0
129.09,-3.598,5.419,32.0
40.216,-1.109,1.458,43.0
40.273,-1.099,1.228,32.0
40.194,-1.085,0.991,58.0
40.198,-1.073,0.761,47.0
40.217,-1.062,0.53,55.0
129.237,-3.382,5.264,43.0
40.193,-1.04,1.406,55.0
40.223,-1.029,1.176,45.0
40.182,-1.017,0.941,55.0
40.198,-1.006,0.711,68.0
40.249,-0.996,0.481,48.0
40.261,-0.987,1.589,8.0
40.249,-0.975,1.357,47.0
40.213,-0.963,1.125,56.0
40.189,-0.951,0.89,59.0
40.28,-0.942,0.66,76.0
40.308,-0.931,0.43,30.0
185.611,-4.247,7.086,31.0
40.292,-0.91,1.307,11.0
40.212,-0.898,1.073,58.0
40.205,-0.886,0.838,53.0
40.246,-0.876,0.607,54.0
40.276,-0.865,0.376,23.0
185.548,-3.942,6.836,40.0
40.341,-0.846,1.254,30.0
40.242,-0.832,1.019,55.0
40.22,-0.821,0.783,55.0
40.238,-0.81,0.552,57.0
40.24,-0.799,0.321,54.0
184.572,-3.623,6.545,58.0
40.296,-0.78,1.197,47.0
40.218,-0.767,0.963,50.0
40.163,-0.755,0.726,66.0
40.278,-0.747,0.497,9.0
40.257,-0.736,0.265,54.0
151.41,-2.731,5.157,52.0
151.453,-2.692,4.288,45.0
264.525,-4.633,5.966,52.0
205.402,-3.541,3.428,22.0
123.944,-2.104,1.356,9.0
40.328,-0.674,0.209,0.0
151.443,-2.494,4.942,91.0
151.438,-2.455,4.069,49.0
262.094,-4.18,5.533,11.0
205.287,-3.22,3.13,25.0
123.545,-1.906,1.172,6.0
66.976,-1.016,0.25,0.0
151.485,-2.262,4.722,38.0
183.424,-2.69,4.659,53.0
183.427,-2.642,3.601,49.0
86.895,-1.23,1.197,11.0
87.897,-1.222,0.704,6.0
86.956,-1.186,0.195,8.0
0.0,0.0,0.0,0.0
79.542,-1.046,1.902,2.0
79.411,-1.024,1.44,81.0
79.42,-1.003,0.974,37.0
78.745,-0.975,0.511,25.0
60.789,-0.738,0.045,4.0
79.44,-0.945,2.235,151.0
79.413,-0.925,1.776,231.0
79.436,-0.905,1.319,198.0
79.444,-0.886,0.853,165.0
77.475,-0.845,0.385,5.0
54.42,-0.58,-0.043,4.0
79.445,-0.828,2.113,151.0
79.435,-0.809,1.654,186.0
79.441,-0.79,1.195,200.0
79.463,-0.771,0.729,151.0
60.885,-0.576,0.207,9.0
50.516,-0.466,-0.118,13.0
79.439,-0.714,1.988,162.0
79.44,-0.695,1.529,178.0
79.448,-0.676,1.07,185.0
0.0,0.0,0.0,0.0
54.747,-0.439,0.099,7.0
46.469,-0.362,-0.183,2.0
79.422,-0.6,1.859,194.0
79.44,-0.582,1.4,172.0
79.45,-0.563,0.941,189.0
76.783,-0.526,0.458,12.0
50.198,-0.333,0.01,13.0
40.645,-0.26,-0.226,3.0
79.418,-0.489,1.729,210.0
79.451,-0.472,1.271,169.0
79.461,-0.454,0.812,179.0
61.279,-0.336,0.266,11.0
45.7,-0.24,-0.065,19.0
39.301,-0.197,-0.283,2.0
79.408,-0.381,1.598,254.0
79.456,-0.364,1.14,151.0
79.414,-0.346,0.68,150.0
55.719,-0.23,0.149,29.0
41.462,-0.161,-0.129,17.0
37.02,-0.136,-0.328,0.0
79.434,-0.275,1.465,180.0
79.464,-0.258,1.005,151.0
76.56,-0.231,0.526,14.0
48.384,-0.135,0.047,8.0
39.641,-0.102,-0.19,15.0
32.517,-0.077,-0.344,2.0
79.45,-0.17,1.329,152.0
79.469,-0.154,0.869,153.0
75.982,-0.13,0.391,10.0
45.116,-0.067,-0.033,22.0
38.635,-0.05,-0.252,6.0
30.774,-0.033,-0.379,1.0
79.454,-0.068,1.19,151.0
79.427,-0.051,0.73,150.0
55.967,-0.025,0.191,23.0
40.927,-0.009,-0.101,17.0
37.961,0.0,-0.314,2.0
29.693,0.005,-0.417,2.0
79.471,0.03,1.052,151.0
79.36,0.046,0.591,8.0
48.099,0.038,0.079,5.0
39.307,0.039,-0.166,38.0
33.154,0.039,-0.332,1.0
28.631,0.039,-0.452,2.0
79.473,0.126,0.912,151.0
75.874,0.136,0.43,10.0
0.0,0.0,0.0,0.0
38.456,0.084,-0.231,14.0
31.236,0.074,-0.368,1.0
27.456,0.071,-0.483,1.0
79.443,0.221,0.768,150.0
55.1,0.164,0.213,15.0
43.953,0.139,-0.084,7.0
37.789,0.127,-0.295,16.0
29.834,0.106,-0.406,2.0
26.509,0.099,-0.515,2.0
59.336,0.234,0.466,97.0
54.451,0.225,0.111,28.0
39.243,0.17,-0.147,47.0
33.346,0.15,-0.322,1.0
28.813,0.135,-0.445,2.0
25.537,0.125,-0.543,1.0
55.058,0.279,0.33,69.0
0.0,0.0,0.0,0.0
38.355,0.208,-0.214,14.0
31.492,0.177,-0.362,1.0
27.538,0.16,-0.476,1.0
24.219,0.145,-0.559,1.0
48.162,0.297,0.2,57.0
43.966,0.279,-0.072,9.0
37.667,0.245,-0.28,4.0
30.009,0.201,-0.4,2.0
26.628,0.182,-0.509,1.0
23.592,0.166,-0.588,2.0
48.003,0.346,0.11,73.0
39.079,0.288,-0.137,47.0
33.35,0.252,-0.31,1.0
29.003,0.224,-0.441,1.0
25.704,0.203,-0.54,1.0
22.034,0.178,-0.591,3.0
46.643,0.384,0.019,31.0
38.03,0.319,-0.204,20.0
31.729,0.271,-0.354,1.0
27.569,0.24,-0.471,1.0
21.779,0.193,-0.498,4.0
21.229,0.192,-0.609,3.0
43.867,0.404,-0.064,12.0
37.388,0.35,-0.272,6.0
30.109,0.287,-0.394,2.0
26.626,0.258,-0.506,2.0
20.947,0.206,-0.52,4.0
20.462,0.205,-0.626,3.0
38.895,0.395,-0.132,48.0
33.732,0.348,-0.31,1.0
29.065,0.304,-0.436,2.0
25.774,0.274,-0.539,1.0
20.158,0.217,-0.539,4.0
19.844,0.217,-0.645,2.0
37.869,0.419,-0.201,27.0
31.648,0.355,-0.351,2.0
27.632,0.314,-0.467,1.0
21.576,0.249,-0.493,4.0
19.499,0.228,-0.559,5.0
19.282,0.228,-0.665,2.0
37.225,0.445,-0.269,6.0
30.086,0.364,-0.393,2.0
26.636,0.326,-0.502,2.0
20.704,0.256,-0.513,4.0
18.931,0.237,-0.579,4.0
18.794,0.238,-0.684,2.0
33.378,0.427,-0.306,1.0
29.049,0.376,-0.435,2.0
22.383,0.293,-0.465,1.0
19.809,0.262,-0.529,3.0
18.344,0.245,-0.597,6.0
18.358,0.248,-0.704,2.0
31.585,0.43,-0.352,2.0
27.557,0.379,-0.467,1.0
21.551,0.299,-0.491,6.0
19.097,0.267,-0.548,3.0
17.851,0.252,-0.616,5.0
17.917,0.256,-0.722,2.0
30.014,0.431,-0.393,2.0
26.568,0.385,-0.502,1.0
20.649,0.302,-0.51,4.0
18.424,0.272,-0.564,3.0
17.373,0.258,-0.633,7.0
17.476,0.262,-0.739,2.0
28.84,0.435,-0.434,2.0
22.187,0.337,-0.462,3.0
19.77,0.303,-0.527,3.0
17.766,0.275,-0.579,3.0
17.12,0.267,-0.657,4.0
17.135,0.269,-0.758,1.0
27.499,0.434,-0.467,1.0
21.346,0.339,-0.487,4.0
19.004,0.304,-0.544,3.0
17.196,0.277,-0.594,2.0
16.817,0.273,-0.679,3.0
16.263,0.266,-0.752,2.0
26.531,0.436,-0.503,2.0
20.347,0.337,-0.504,4.0
18.364,0.306,-0.562,3.0
16.667,0.28,-0.609,3.0
16.519,0.279,-0.7,2.0
16.217,0.276,-0.782,1.0
22.076,0.376,-0.463,4.0
19.711,0.338,-0.528,9.0
17.664,0.305,-0.576,3.0
16.347,0.284,-0.63,3.0
16.303,0.285,-0.723,2.0
15.34,0.27,-0.77,0.0
21.164,0.373,-0.486,4.0
18.862,0.334,-0.543,4.0
16.988,0.303,-0.588,2.0
16.131,0.289,-0.654,3.0
16.05,0.29,-0.744,2.0
15.171,0.275,-0.792,1.0
20.192,0.367,-0.504,6.0
18.243,0.333,-0.561,3.0
16.417,0.301,-0.601,3.0
15.975,0.295,-0.679,3.0
15.895,0.295,-0.769,1.0
15.977,0.298,-0.866,1.0
19.337,0.361,-0.521,9.0
17.555,0.329,-0.575,2.0
15.972,0.301,-0.616,4.0
15.855,0.3,-0.706,2.0
15.514,0.295,-0.781,0.0
15.834,0.303,-0.89,0.0
18.734,0.358,-0.542,15.0
16.885,0.324,-0.587,2.0
15.763,0.304,-0.639,3.0
15.714,0.305,-0.731,1.0
15.55,0.303,-0.814,1.0
13.712,0.268,-0.798,0.0
18.148,0.355,-0.561,3.0
16.313,0.32,-0.599,2.0
15.643,0.308,-0.666,2.0
15.586,0.309,-0.756,1.0
15.601,0.31,-0.848,0.0
13.407,0.268,-0.807,0.0
17.454,0.348,-0.574,2.0
15.814,0.316,-0.612,4.0
15.506,0.311,-0.691,2.0
15.352,0.31,-0.775,0.0
0.0,0.0,0.0,0.0
13.105,0.266,-0.815,0.0
16.819,0.341,-0.587,3.0
15.489,0.315,-0.63,3.0
15.378,0.314,-0.716,1.0
15.337,0.314,-0.805,0.0
13.697,0.282,-0.799,0.0
12.804,0.264,-0.822,0.0
16.232,0.334,-0.599,3.0
15.3,0.316,-0.653,2.0
15.292,0.317,-0.742,1.0
15.258,0.317,-0.831,0.0
13.406,0.28,-0.809,0.0
12.506,0.262,-0.827,0.0
15.718,0.328,-0.611,4.0
15.21,0.318,-0.68,2.0
15.171,0.318,-0.766,0.0
15.094,0.318,-0.852,0.0
13.055,0.275,-0.813,0.0
12.241,0.259,-0.834,0.0
15.361,0.324,-0.627,3.0
15.156,0.32,-0.707,2.0
15.173,0.322,-0.796,0.0
13.67,0.29,-0.799,0.0
12.779,0.272,-0.821,0.0
11.962,0.256,-0.839,0.0
15.149,0.322,-0.648,3.0
15.062,0.321,-0.732,1.0
15.09,0.323,-0.822,0.0
13.37,0.286,-0.808,0.0
12.473,0.268,-0.826,0.0
11.724,0.252,-0.845,0.0
15.067,0.323,-0.674,3.0
15.03,0.323,-0.76,1.0
14.953,0.322,-0.844,0.0
13.031,0.281,-0.813,0.0
12.232,0.264,-0.834,0.0
11.479,0.248,-0.85,0.0
15.014,0.323,-0.702,3.0
15.028,0.324,-0.79,0.0
13.624,0.294,-0.795,0.0
12.761,0.276,-0.821,0.0
11.995,0.26,-0.842,0.0
11.221,0.244,-0.853,0.0
14.956,0.323,-0.728,1.0
15.001,0.325,-0.817,0.0
13.356,0.29,-0.806,0.0
12.47,0.271,-0.826,0.0
11.732,0.255,-0.846,0.0
10.999,0.24,-0.858,0.0
14.948,0.324,-0.756,1.0
14.918,0.323,-0.841,0.0
13.04,0.283,-0.812,0.0
12.212,0.265,-0.833,0.0
11.457,0.249,-0.848,0.0
10.756,0.234,-0.859,0.0
15.009,0.325,-0.788,0.0
13.662,0.296,-0.797,0.0
12.754,0.276,-0.818,0.0
11.959,0.26,-0.838,0.0
11.219,0.244,-0.852,0.0
10.425,0.227,-0.853,4.0
15.04,0.325,-0.818,0.0
13.361,0.289,-0.804,0.0
12.488,0.27,-0.824,0.0
11.72,0.254,-0.843,0.0
10.98,0.238,-0.855,0.0
10.366,0.225,-0.867,3.0
14.989,0.323,-0.843,0.0
13.064,0.281,-0.811,0.0
12.23,0.263,-0.83,0.0
11.468,0.247,-0.847,0.0
10.763,0.232,-0.858,0.0
10.202,0.22,-0.873,0.0
13.674,0.293,-0.795,0.0
12.802,0.274,-0.818,0.0
11.992,0.257,-0.837,0.0
11.228,0.24,-0.85,0.0
10.434,0.223,-0.851,3.0
10.023,0.215,-0.876,0.0
13.384,0.284,-0.802,0.0
12.513,0.266,-0.823,0.0
11.757,0.25,-0.842,0.0
11.017,0.234,-0.854,0.0
10.377,0.22,-0.865,3.0
9.838,0.209,-0.878,0.0
13.092,0.276,-0.809,0.0
12.27,0.258,-0.829,0.0
11.527,0.242,-0.846,0.0
10.797,0.227,-0.857,0.0
10.239,0.215,-0.872,0.0
9.705,0.204,-0.884,0.0
12.817,0.267,-0.815,0.0
12.044,0.251,-0.835,0.0
11.291,0.235,-0.849,0.0
10.47,0.218,-0.85,2.0
10.056,0.209,-0.875,0.0
9.515,0.198,-0.884,0.0
12.573,0.258,-0.821,0.0
11.793,0.242,-0.839,0.0
11.059,0.227,-0.852,0.0
10.402,0.213,-0.863,4.0
9.867,0.202,-0.876,0.0
9.377,0.192,-0.888,0.0
12.299,0.249,-0.825,0.0
11.542,0.233,-0.842,0.0
10.865,0.22,-0.856,0.0
10.268,0.207,-0.87,0.0
9.73,0.196,-0.881,0.0
9.226,0.186,-0.89,0.0
12.083,0.241,-0.832,0.0
11.345,0.226,-0.847,0.0
10.536,0.209,-0.848,2.0
10.094,0.2,-0.873,0.0
9.551,0.189,-0.881,0.0
9.08,0.18,-0.891,0.0
11.867,0.232,-0.838,0.0
11.105,0.217,-0.848,0.0
10.443,0.203,-0.859,5.0
9.934,0.193,-0.876,0.0
9.402,0.183,-0.884,0.0
8.979,0.174,-0.897,0.0
11.634,0.223,-0.841,0.0
10.925,0.209,-0.853,0.0
10.344,0.197,-0.868,1.0
9.765,0.186,-0.877,0.0
9.269,0.176,-0.887,0.0
8.83,0.167,-0.897,0.0
11.417,0.214,-0.844,0.0
10.642,0.198,-0.849,1.0
10.154,0.189,-0.869,0.0
9.613,0.178,-0.88,0.0
9.134,0.169,-0.889,0.0
8.7,0.161,-0.898,0.0
11.202,0.204,-0.847,0.0
10.455,0.19,-0.851,8.0
9.993,0.181,-0.872,0.0
9.484,0.171,-0.884,0.0
9.013,0.162,-0.893,0.0
8.58,0.154,-0.9,0.0
11.002,0.195,-0.849,0.0
10.394,0.184,-0.863,4.0
9.837,0.173,-0.874,0.0
9.345,0.164,-0.886,0.0
8.872,0.155,-0.893,0.0
8.48,0.148,-0.903,0.0
10.808,0.186,-0.851,0.0
10.262,0.176,-0.868,0.0
9.698,0.165,-0.877,0.0
9.2,0.156,-0.887,0.0
8.752,0.148,-0.894,0.0
8.389,0.142,-0.906,0.0
10.488,0.174,-0.842,6.0
10.087,0.167,-0.869,0.0
9.562,0.158,-0.879,0.0
9.09,0.149,-0.89,0.0
8.65,0.142,-0.897,0.0
8.299,0.135,-0.909,0.0
10.447,0.167,-0.855,9.0
9.944,0.159,-0.872,0.0
9.44,0.15,-0.882,0.0
8.967,0.142,-0.891,0.0
8.522,0.134,-0.897,0.0
8.192,0.128,-0.91,0.0
10.377,0.16,-0.865,2.0
9.797,0.15,-0.873,0.0
9.285,0.142,-0.882,0.0
8.853,0.134,-0.893,0.0
8.446,0.128,-0.901,0.0
8.094,0.122,-0.911,0.0
10.234,0.151,-0.868,0.0
9.668,0.142,-0.876,0.0
9.177,0.134,-0.885,0.0
8.726,0.126,-0.893,0.0
8.374,0.121,-0.906,0.0
8.025,0.115,-0.915,0.0
10.072,0.141,-0.869,0.0
9.552,0.133,-0.879,0.0
9.078,0.126,-0.888,0.0
8.626,0.119,-0.895,0.0
8.285,0.114,-0.908,0.0
7.956,0.108,-0.919,0.0
9.925,0.132,-0.87,0.0
9.413,0.125,-0.88,0.0
8.978,0.118,-0.891,0.0
8.535,0.111,-0.898,0.0
8.208,0.106,-0.911,0.0
7.876,0.101,-0.92,0.0
9.787,0.123,-0.871,0.0
9.308,0.116,-0.882,0.0
8.877,0.11,-0.893,0.0
8.44,0.104,-0.899,0.0
8.114,0.099,-0.912,0.0
7.793,0.094,-0.921,0.0
9.661,0.114,-0.873,0.0
9.185,0.108,-0.883,0.0
8.745,0.102,-0.891,0.0
8.391,0.097,-0.905,0.0
8.033,0.092,-0.913,0.0
7.721,0.087,-0.923,0.0
9.555,0.105,-0.875,0.0
9.093,0.099,-0.886,0.0
8.664,0.094,-0.894,0.0
8.31,0.089,-0.907,0.0
7.968,0.085,-0.916,0.0
7.656,0.08,-0.925,0.0
9.45,0.096,-0.878,0.0
9.002,0.091,-0.888,0.0
8.572,0.086,-0.896,0.0
8.204,0.081,-0.906,0.0
7.886,0.077,-0.916,0.0
7.582,0.073,-0.925,0.0
9.367,0.088,-0.882,0.0
8.924,0.083,-0.891,0.0
8.491,0.077,-0.897,0.0
8.125,0.073,-0.907,0.0
7.836,0.07,-0.92,0.0
7.541,0.066,-0.93,0.0
9.263,0.079,-0.883,0.0
8.826,0.074,-0.892,0.0
8.431,0.07,-0.901,0.0
8.076,0.066,-0.911,0.0
7.755,0.062,-0.92,0.0
7.457,0.059,-0.928,0.0
9.158,0.07,-0.883,0.0
8.74,0.065,-0.893,0.0
8.354,0.061,-0.902,0.0
8.015,0.058,-0.913,0.0
7.735,0.055,-0.926,0.0
7.402,0.052,-0.929,0.0
9.081,0.061,-0.886,0.0
8.666,0.057,-0.895,0.0
8.3,0.053,-0.906,0.0
7.967,0.05,-0.916,0.0
7.658,0.047,-0.925,0.0
7.351,0.044,-0.931,0.0
8.998,0.052,-0.887,0.0
8.579,0.048,-0.895,0.0
8.245,0.045,-0.908,0.0
7.924,0.042,-0.92,0.0
7.581,0.04,-0.924,0.0
7.291,0.037,-0.931,0.0
8.933,0.043,-0.89,0.0
8.515,0.04,-0.898,0.0
8.171,0.037,-0.909,0.0
7.846,0.034,-0.919,0.0
7.545,0.032,-0.927,0.0
7.253,0.03,-0.934,0.0
8.856,0.034,-0.891,0.0
8.439,0.031,-0.898,0.0
8.114,0.029,-0.91,0.0
7.791,0.026,-0.92,0.0
7.491,0.024,-0.928,0.0
7.202,0.022,-0.934,0.0
8.783,0.025,-0.892,0.0
8.39,0.022,-0.901,0.0
8.039,0.02,-0.909,0.0
7.752,0.018,-0.923,0.0
7.444,0.017,-0.929,0.0
7.147,0.015,-0.934,0.0
8.72,0.016,-0.894,0.0
8.351,0.014,-0.904,0.0
8.017,0.012,-0.914,0.0
7.696,0.01,-0.923,0.0
7.405,0.009,-0.931,0.0
7.108,0.007,-0.935,0.0
8.642,0.007,-0.893,0.0
8.287,0.005,-0.904,0.0
7.978,0.004,-0.917,0.0
7.657,0.002,-0.925,0.0
7.346,0.001,-0.93,0.0
7.092,0.0,-0.939,0.0
8.589,-0.001,-0.895,0.0
8.235,-0.003,-0.905,0.0
7.93,-0.004,-0.918,0.0
7.592,-0.005,-0.923,0.0
7.321,-0.006,-0.932,0.0
7.038,-0.006,-0.937,0.0
8.544,-0.01,-0.897,0.0
8.198,-0.011,-0.908,0.0
7.865,-0.012,-0.916,0.0
7.586,-0.013,-0.928,0.0
7.266,-0.013,-0.931,0.0
7.013,-0.014,-0.939,0.0
8.486,-0.019,-0.897,0.0
8.147,-0.02,-0.908,0.0
7.843,-0.02,-0.919,0.0
7.517,-0.021,-0.925,0.0
7.251,-0.021,-0.934,0.0
6.988,-0.022,-0.941,0.0
8.447,-0.028,-0.899,0.0
8.106,-0.028,-0.909,0.0
7.792,-0.029,-0.919,0.0
7.486,-0.029,-0.926,0.0
7.207,-0.029,-0.933,0.0
6.959,-0.029,-0.942,0.0
8.411,-0.037,-0.9,0.0
8.08,-0.037,-0.911,0.0
7.759,-0.037,-0.92,0.0
7.475,-0.037,-0.93,0.0
7.18,-0.037,-0.934,0.0
6.934,-0.037,-0.943,0.0
8.357,-0.046,-0.9,0.0
8.058,-0.046,-0.914,0.0
7.725,-0.046,-0.92,0.0
7.42,-0.045,-0.927,0.0
7.166,-0.045,-0.937,0.0
6.882,-0.044,-0.939,0.0
8.329,-0.056,-0.901,0.0
8.006,-0.055,-0.912,0.0
7.691,-0.054,-0.92,0.0
7.379,-0.053,-0.926,0.0
7.105,-0.052,-0.933,0.0
6.864,-0.052,-0.941,0.0
8.304,-0.065,-0.903,0.0
7.974,-0.063,-0.913,0.0
7.679,-0.062,-0.923,0.0
7.378,-0.061,-0.93,0.0
7.113,-0.06,-0.937,0.0
6.856,-0.059,-0.943,0.0
8.275,-0.074,-0.904,0.0
7.97,-0.072,-0.916,0.0
7.637,-0.071,-0.921,0.0
7.344,-0.069,-0.929,0.0
7.08,-0.068,-0.936,0.0
6.809,-0.067,-0.939,0.0
8.253,-0.083,-0.905,0.0
7.943,-0.081,-0.916,0.0
7.636,-0.08,-0.924,0.0
7.314,-0.077,-0.928,0.0
7.054,-0.076,-0.935,0.0
6.812,-0.075,-0.942,0.0
8.231,-0.092,-0.905,0.0
7.915,-0.09,-0.916,0.0
7.6,-0.088,-0.923,0.0
7.304,-0.086,-0.929,0.0
7.058,-0.084,-0.938,0.0
6.789,-0.082,-0.941,0.0
8.212,-0.101,-0.906,0.0
7.894,-0.099,-0.916,0.0
7.61,-0.097,-0.926,0.0
7.306,-0.094,-0.932,0.0
7.051,-0.092,-0.94,0.0
6.785,-0.09,-0.943,0.0
8.181,-0.11,-0.905,0.0
7.866,-0.107,-0.915,0.0
7.564,-0.105,-0.923,0.0
7.274,-0.102,-0.93,0.0
7.032,-0.1,-0.939,0.0
6.777,-0.098,-0.944,0.0
8.179,-0.119,-0.907,0.0
7.87,-0.116,-0.917,0.0
7.559,-0.113,-0.924,0.0
7.284,-0.111,-0.932,0.0
7.013,-0.108,-0.938,0.0
6.747,-0.105,-0.941,0.0
8.16,-0.129,-0.906,0.0
7.859,-0.125,-0.917,0.0
7.556,-0.122,-0.925,0.0
7.268,-0.119,-0.932,0.0
7.02,-0.116,-0.94,0.0
6.753,-0.113,-0.943,0.0
8.158,-0.138,-0.907,0.0
7.848,-0.134,-0.917,0.0
7.549,-0.13,-0.925,0.0
7.26,-0.127,-0.931,0.0
7.006,-0.124,-0.939,0.0
6.745,-0.121,-0.942,0.0
8.14,-0.147,-0.906,0.0
7.846,-0.143,-0.918,0.0
7.553,-0.139,-0.926,0.0
7.248,-0.135,-0.931,0.0
6.996,-0.132,-0.938,0.0
6.756,-0.129,-0.944,0.0
8.135,-0.156,-0.906,0.0
7.836,-0.152,-0.917,0.0
7.546,-0.148,-0.926,0.0
7.258,-0.144,-0.932,0.0
7.009,-0.14,-0.94,0.0
6.72,-0.136,-0.939,0.0
8.132,-0.166,-0.906,0.0
7.864,-0.162,-0.92,0.0
7.538,-0.156,-0.925,0.0
7.263,-0.152,-0.933,0.0
7.015,-0.148,-0.941,0.0
6.734,-0.144,-0.941,0.0
8.147,-0.175,-0.907,0.0
7.848,-0.17,-0.918,0.0
7.532,-0.165,-0.923,0.0
7.269,-0.161,-0.933,0.0
7.019,-0.157,-0.941,0.0
6.727,-0.151,-0.94,0.0
8.157,-0.185,-0.908,0.0
7.848,-0.179,-0.917,0.0
7.55,-0.174,-0.925,0.0
7.269,-0.169,-0.932,0.0
7.027,-0.165,-0.941,0.0
6.754,-0.16,-0.943,0.0
8.144,-0.193,-0.905,0.0
7.853,-0.188,-0.917,0.0
7.56,-0.183,-0.925,0.0
7.279,-0.177,-0.932,0.0
7.037,-0.173,-0.941,0.0
6.771,-0.168,-0.944,0.0
8.175,-0.203,-0.907,0.0
7.864,-0.197,-0.917,0.0
7.582,-0.192,-0.926,0.0
7.285,-0.186,-0.932,0.0
7.033,-0.181,-0.939,0.0
6.765,-0.175,-0.942,0.0
8.175,-0.212,-0.905,0.0
7.885,-0.206,-0.917,0.0
7.577,-0.2,-0.924,0.0
7.314,-0.194,-0.934,0.0
7.042,-0.189,-0.939,0.0
6.774,-0.183,-0.941,0.0
8.188,-0.222,-0.905,0.0
7.892,-0.215,-0.916,0.0
7.58,-0.208,-0.922,0.0
7.31,-0.202,-0.931,0.0
7.043,-0.197,-0.937,0.0
6.792,-0.191,-0.941,0.0
8.221,-0.232,-0.906,0.0
7.912,-0.225,-0.916,0.0
7.621,-0.218,-0.925,0.0
7.31,-0.21,-0.928,0.0
7.057,-0.205,-0.936,0.0
6.815,-0.199,-0.942,0.0
8.244,-0.241,-0.905,0.0
7.933,-0.234,-0.915,0.0
7.618,-0.226,-0.922,0.0
7.341,-0.219,-0.93,0.0
7.074,-0.213,-0.935,0.0
6.842,-0.207,-0.943,0.0
8.262,-0.25,-0.904,0.0
7.947,-0.242,-0.914,0.0
7.655,-0.235,-0.923,0.0
7.359,-0.227,-0.929,0.0
7.102,-0.221,-0.936,0.0
6.861,-0.215,-0.943,0.0
8.301,-0.26,-0.905,0.0
7.977,-0.252,-0.914,0.0
7.691,-0.244,-0.924,0.0
7.395,-0.236,-0.93,0.0
7.118,-0.229,-0.935,0.0
6.894,-0.223,-0.944,0.0
8.33,-0.27,-0.904,0.0
8.018,-0.261,-0.914,0.0
7.734,-0.254,-0.925,0.0
7.428,-0.245,-0.93,0.0
7.156,-0.238,-0.936,0.0
6.911,-0.231,-0.943,0.0
8.358,-0.279,-0.902,0.0
8.042,-0.27,-0.913,0.0
7.742,-0.262,-0.922,0.0
7.43,-0.253,-0.926,0.0
7.182,-0.246,-0.936,0.0
6.943,-0.239,-0.943,0.0
8.365,-0.288,-0.898,0.0
8.059,-0.279,-0.91,0.0
7.765,-0.27,-0.92,0.0
7.492,-0.262,-0.93,0.0
7.208,-0.254,-0.934,0.0
6.98,-0.247,-0.944,0.0
8.432,-0.298,-0.9,0.0
8.098,-0.288,-0.909,0.0
7.8,-0.279,-0.919,0.0
7.497,-0.27,-0.926,0.0
7.232,-0.262,-0.933,0.0
6.996,-0.254,-0.941,0.0
8.472,-0.308,-0.899,0.0
8.15,-0.298,-0.91,0.0
7.837,-0.288,-0.918,0.0
7.548,-0.279,-0.927,0.0
7.288,-0.271,-0.935,0.0
7.013,-0.262,-0.939,0.0
8.508,-0.317,-0.897,0.0
8.185,-0.307,-0.908,0.0
7.884,-0.297,-0.918,0.0
7.584,-0.287,-0.926,0.0
7.314,-0.279,-0.933,0.0
7.048,-0.27,-0.938,0.0
8.578,-0.328,-0.898,0.0
8.232,-0.316,-0.907,0.0
7.923,-0.306,-0.916,0.0
7.608,-0.295,-0.923,0.0
7.337,-0.286,-0.93,0.0
7.077,-0.277,-0.937,0.0
8.635,-0.338,-0.897,0.0
8.29,-0.326,-0.907,0.0
7.965,-0.315,-0.915,0.0
7.678,-0.305,-0.925,0.0
7.385,-0.295,-0.93,0.0
7.14,-0.286,-0.939,0.0
8.681,-0.347,-0.895,0.0
8.323,-0.335,-0.904,0.0
8.001,-0.323,-0.912,0.0
7.698,-0.312,-0.921,0.0
7.428,-0.303,-0.929,0.0
7.168,-0.294,-0.936,0.0
8.734,-0.357,-0.893,0.0
8.377,-0.344,-0.902,0.0
8.039,-0.332,-0.91,0.0
7.759,-0.322,-0.921,0.0
7.483,-0.311,-0.93,0.0
7.206,-0.301,-0.935,0.0
8.816,-0.368,-0.893,0.0
8.429,-0.353,-0.9,0.0
8.103,-0.341,-0.91,0.0
7.816,-0.33,-0.921,0.0
7.525,-0.319,-0.928,0.0
7.266,-0.31,-0.936,0.0
8.885,-0.378,-0.892,0.0
8.517,-0.364,-0.901,0.0
8.157,-0.35,-0.908,0.0
7.88,-0.339,-0.921,0.0
7.58,-0.328,-0.927,0.0
7.29,-0.317,-0.932,0.0
8.969,-0.389,-0.892,0.0
8.562,-0.372,-0.898,0.0
8.225,-0.359,-0.907,0.0
7.894,-0.346,-0.914,0.0
7.639,-0.336,-0.927,0.0
7.346,-0.325,-0.931,0.0
9.045,-0.399,-0.89,0.0
8.643,-0.382,-0.897,0.0
8.29,-0.368,-0.906,0.0
7.973,-0.356,-0.915,0.0
7.69,-0.344,-0.925,0.0
7.414,-0.333,-0.932,0.0
9.12,-0.409,-0.888,0.0
8.716,-0.392,-0.896,0.0
8.356,-0.377,-0.904,0.0
8.03,-0.364,-0.913,0.0
7.738,-0.352,-0.922,0.0
7.478,-0.341,-0.932,0.0
9.216,-0.42,-0.887,0.0
8.78,-0.401,-0.893,0.0
8.44,-0.387,-0.904,0.0
8.097,-0.373,-0.912,0.0
7.802,-0.36,-0.921,0.0
7.519,-0.348,-0.928,0.0
9.311,-0.43,-0.886,0.0
8.89,-0.412,-0.894,0.0
8.512,-0.396,-0.902,0.0
8.174,-0.381,-0.911,0.0
7.859,-0.368,-0.919,0.0
7.597,-0.357,-0.929,0.0
9.405,-0.441,-0.884,0.0
8.989,-0.422,-0.893,0.0
8.58,-0.404,-0.899,0.0
8.247,-0.39,-0.91,0.0
7.924,-0.376,-0.917,0.0
7.641,-0.364,-0.925,0.0
9.488,-0.45,-0.881,0.0
9.063,-0.431,-0.89,0.0
8.656,-0.413,-0.897,0.0
8.298,-0.397,-0.905,0.0
8.005,-0.384,-0.916,0.0
7.7,-0.371,-0.923,0.0
9.599,-0.461,-0.879,0.0
9.19,-0.443,-0.891,0.0
8.755,-0.423,-0.896,0.0
8.385,-0.406,-0.904,0.0
8.058,-0.392,-0.912,0.0
7.78,-0.379,-0.923,0.0
9.726,-0.473,-0.879,1.0
9.275,-0.452,-0.888,0.0
8.851,-0.432,-0.895,0.0
8.482,-0.416,-0.904,0.0
8.154,-0.4,-0.913,0.0
7.86,-0.387,-0.922,0.0
9.801,-0.481,-0.873,2.0
9.37,-0.461,-0.885,0.0
8.956,-0.442,-0.894,0.0
8.576,-0.424,-0.903,0.0
8.222,-0.408,-0.91,0.0
7.924,-0.394,-0.919,0.0
9.925,-0.492,-0.871,2.0
9.48,-0.471,-0.883,0.0
9.051,-0.451,-0.891,0.0
8.668,-0.433,-0.901,0.0
8.315,-0.416,-0.909,0.0
8.002,-0.402,-0.918,0.0
10.024,-0.502,-0.866,1.0
9.603,-0.482,-0.881,0.0
9.17,-0.461,-0.89,0.0
8.744,-0.441,-0.897,0.0
8.393,-0.424,-0.906,0.0
8.06,-0.408,-0.913,0.0
10.187,-0.514,-0.866,0.0
9.756,-0.493,-0.881,1.0
9.286,-0.471,-0.889,0.0
8.858,-0.45,-0.896,0.0
8.503,-0.433,-0.906,0.0
8.158,-0.416,-0.913,0.0
10.348,-0.526,-0.866,0.0
9.796,-0.499,-0.871,2.0
9.397,-0.48,-0.886,0.0
8.952,-0.458,-0.893,0.0
8.591,-0.44,-0.903,0.0
8.246,-0.423,-0.911,0.0
10.495,-0.537,-0.863,0.0
9.931,-0.509,-0.869,1.0
9.506,-0.488,-0.883,0.0
9.079,-0.467,-0.892,0.0
8.689,-0.448,-0.9,0.0
8.348,-0.431,-0.91,0.0
10.646,-0.548,-0.86,0.0
10.081,-0.52,-0.868,0.0
9.65,-0.499,-0.882,0.0
9.225,-0.477,-0.893,0.0
8.782,-0.455,-0.897,0.0
8.425,-0.438,-0.906,0.0
10.805,-0.559,-0.857,0.0
10.256,-0.532,-0.868,0.0
9.766,-0.507,-0.878,2.0
9.314,-0.484,-0.888,0.0
8.92,-0.465,-0.898,0.0
8.535,-0.445,-0.905,0.0
10.967,-0.57,-0.853,0.0
10.414,-0.542,-0.865,0.0
9.87,-0.515,-0.873,1.0
9.446,-0.493,-0.886,0.0
9.034,-0.472,-0.895,0.0
8.647,-0.453,-0.903,0.0
11.139,-0.581,-0.85,0.0
10.59,-0.553,-0.864,0.0
9.997,-0.523,-0.868,0.0
9.577,-0.502,-0.884,0.0
9.152,-0.48,-0.893,0.0
8.745,-0.459,-0.9,0.0
11.31,-0.592,-0.846,0.0
10.733,-0.563,-0.859,0.0
10.178,-0.534,-0.868,0.0
9.731,-0.511,-0.883,1.0
9.304,-0.489,-0.893,0.0
8.866,-0.467,-0.898,0.0
11.497,-0.603,-0.841,0.0
10.911,-0.573,-0.856,0.0
10.349,-0.544,-0.867,0.0
9.807,-0.516,-0.874,2.0
9.417,-0.496,-0.889,0.0
8.989,-0.474,-0.896,0.0
11.69,-0.614,-0.837,0.0
11.091,-0.583,-0.853,0.0
10.525,-0.554,-0.865,0.0
9.96,-0.525,-0.872,1.0
9.543,-0.503,-0.886,0.0
9.1,-0.48,-0.893,0.0
11.864,-0.624,-0.831,0.0
11.252,-0.592,-0.847,0.0
10.683,-0.563,-0.86,0.0
10.139,-0.534,-0.871,0.0
9.712,-0.512,-0.886,0.0
9.263,-0.489,-0.894,0.0
12.107,-0.637,-0.828,0.0
11.44,-0.602,-0.843,0.0
10.874,-0.573,-0.858,0.0
10.312,-0.543,-0.869,0.0
9.792,-0.516,-0.877,2.0
9.388,-0.495,-0.89,0.0
12.325,-0.648,-0.823,0.0
11.657,-0.613,-0.839,0.0
11.067,-0.582,-0.855,0.0
10.49,-0.552,-0.867,0.0
9.937,-0.523,-0.873,1.0
9.531,-0.502,-0.888,0.0
12.557,-0.659,-0.818,0.0
11.851,-0.622,-0.834,0.0
11.244,-0.59,-0.85,0.0
10.647,-0.559,-0.862,0.0
10.116,-0.532,-0.872,0.0
9.686,-0.509,-0.886,0.0
12.811,-0.671,-0.813,0.0
12.083,-0.633,-0.83,0.0
11.417,-0.598,-0.844,0.0
10.837,-0.568,-0.859,0.0
10.318,-0.541,-0.872,0.0
9.787,-0.513,-0.879,2.0
13.063,-0.682,-0.807,1.0
12.305,-0.642,-0.825,1.0
11.641,-0.608,-0.841,0.0
11.034,-0.576,-0.856,0.0
10.479,-0.547,-0.868,0.0
9.927,-0.518,-0.875,1.0
13.331,-0.693,-0.801,0.0
12.531,-0.652,-0.819,0.0
11.834,-0.615,-0.835,0.0
11.218,-0.583,-0.852,0.0
10.652,-0.554,-0.864,0.0
10.105,-0.525,-0.873,0.0
13.587,-0.703,-0.793,1.0
12.813,-0.663,-0.815,1.0
12.057,-0.624,-0.83,0.0
11.405,-0.59,-0.846,0.0
10.85,-0.561,-0.862,0.0
10.301,-0.532,-0.872,0.0
13.881,-0.715,-0.787,1.0
13.069,-0.673,-0.809,1.0
12.304,-0.633,-0.826,1.0
11.607,-0.597,-0.841,0.0
11.037,-0.567,-0.858,0.0
10.459,-0.537,-0.868,0.0
14.183,-0.726,-0.78,1.0
13.323,-0.681,-0.802,0.0
12.529,-0.64,-0.82,0.0
11.826,-0.604,-0.837,0.0
11.209,-0.572,-0.852,0.0
10.657,-0.544,-0.866,0.0
14.523,-0.738,-0.773,1.0
13.629,-0.692,-0.797,1.0
12.793,-0.649,-0.815,1.0
12.05,-0.611,-0.831,0.0
11.425,-0.578,-0.848,0.0
10.86,-0.549,-0.863,0.0
14.894,-0.751,-0.767,1.0
13.898,-0.7,-0.788,1.0
13.06,-0.657,-0.809,0.0
12.312,-0.619,-0.828,0.0
11.644,-0.584,-0.844,0.0
11.031,-0.553,-0.857,0.0
15.271,-0.763,-0.76,1.0
14.226,-0.71,-0.782,1.0
13.362,-0.666,-0.804,1.0
12.533,-0.624,-0.821,0.0
11.85,-0.589,-0.838,0.0
11.235,-0.558,-0.854,0.0
15.67,-0.775,-0.753,1.0
14.553,-0.719,-0.775,1.0
13.621,-0.672,-0.796,1.0
12.809,-0.631,-0.817,0.0
12.06,-0.593,-0.832,0.0
11.436,-0.562,-0.849,0.0
16.047,-0.786,-0.743,1.0
14.915,-0.729,-0.768,1.0
13.913,-0.679,-0.789,1.0
13.074,-0.637,-0.811,0.0
12.315,-0.599,-0.828,0.0
11.652,-0.566,-0.844,0.0
16.507,-0.799,-0.735,1.0
15.293,-0.739,-0.761,1.0
14.245,-0.687,-0.783,1.0
13.353,-0.643,-0.805,1.0
12.573,-0.604,-0.823,0.0
11.854,-0.568,-0.838,0.0
17.008,-0.813,-0.728,1.0
15.708,-0.749,-0.754,1.0
14.578,-0.694,-0.775,1.0
13.634,-0.647,-0.798,1.0
12.851,-0.609,-0.819,0.0
12.098,-0.572,-0.834,0.0
17.493,-0.824,-0.718,1.0
16.065,-0.755,-0.743,1.0
14.962,-0.702,-0.769,1.0
13.916,-0.651,-0.789,1.0
13.111,-0.612,-0.812,0.0
12.34,-0.575,-0.829,0.0
17.973,-0.834,-0.706,1.0
16.561,-0.767,-0.736,1.0
15.331,-0.709,-0.762,1.0
14.265,-0.658,-0.784,1.0
13.383,-0.615,-0.805,1.0
12.6,-0.578,-0.824,1.0
18.476,-0.844,-0.693,1.0
17.002,-0.775,-0.726,1.0
15.708,-0.714,-0.752,1.0
14.615,-0.663,-0.777,1.0
13.654,-0.617,-0.798,1.0
12.85,-0.58,-0.818,0.0
19.051,-0.856,-0.681,1.0
17.524,-0.785,-0.718,1.0
16.136,-0.721,-0.744,1.0
14.937,-0.665,-0.768,1.0
13.962,-0.62,-0.791,1.0
13.142,-0.582,-0.813,1.0
19.66,-0.867,-0.668,1.0
17.991,-0.791,-0.705,1.0
16.59,-0.727,-0.736,1.0
15.333,-0.67,-0.762,1.0
14.272,-0.622,-0.784,1.0
13.406,-0.582,-0.806,1.0
20.254,-0.876,-0.653,1.0
18.519,-0.798,-0.694,1.0
17.094,-0.734,-0.729,1.0
15.715,-0.673,-0.754,1.0
14.639,-0.625,-0.778,1.0
13.669,-0.582,-0.798,1.0
20.956,-0.888,-0.64,1.0
19.096,-0.806,-0.682,1.0
17.561,-0.739,-0.719,1.0
16.152,-0.677,-0.747,1.0
15.005,-0.627,-0.772,1.0
13.974,-0.581,-0.792,1.0
21.75,-0.901,-0.627,1.0
19.673,-0.812,-0.669,1.0
18.038,-0.742,-0.707,1.0
16.57,-0.679,-0.737,1.0
15.361,-0.627,-0.764,1.0
14.278,-0.58,-0.784,1.0
22.544,-0.912,-0.611,1.0
20.314,-0.818,-0.656,1.0
18.541,-0.744,-0.695,1.0
17.087,-0.683,-0.731,1.0
15.723,-0.626,-0.755,1.0
14.634,-0.58,-0.779,1.0
23.365,-0.922,-0.593,2.0
21.024,-0.826,-0.643,1.0
19.084,-0.746,-0.683,1.0
17.551,-0.683,-0.721,1.0
16.156,-0.626,-0.748,1.0
15.008,-0.579,-0.773,1.0
24.14,-0.927,-0.571,1.0
21.788,-0.833,-0.629,1.0
19.704,-0.75,-0.671,1.0
18.001,-0.681,-0.709,2.0
16.62,-0.626,-0.741,1.0
15.359,-0.576,-0.765,1.0
25.158,-0.939,-0.553,1.0
22.533,-0.836,-0.612,1.0
20.294,-0.749,-0.657,1.0
18.525,-0.681,-0.698,1.0
17.075,-0.624,-0.732,1.0
15.728,-0.572,-0.756,1.0
26.068,-0.943,-0.529,1.0
23.34,-0.84,-0.595,2.0
20.985,-0.751,-0.644,1.0
19.039,-0.678,-0.685,1.0
17.55,-0.621,-0.723,1.0
16.13,-0.568,-0.749,1.0
26.957,-0.944,-0.502,1.0
24.161,-0.841,-0.576,1.0
21.686,-0.751,-0.63,1.0
19.63,-0.676,-0.674,1.0
18.004,-0.616,-0.712,1.0
16.562,-0.563,-0.742,1.0
28.103,-0.951,-0.477,1.0
25.158,-0.846,-0.558,1.0
22.447,-0.75,-0.615,1.0
20.216,-0.671,-0.661,1.0
18.47,-0.61,-0.7,1.0
17.005,-0.558,-0.734,1.0
29.106,-0.949,-0.446,1.0
25.993,-0.842,-0.534,1.0
23.225,-0.747,-0.598,1.0
20.824,-0.665,-0.647,1.0
18.962,-0.602,-0.688,1.0
17.482,-0.551,-0.726,1.0
30.111,-0.943,-0.413,1.0
26.845,-0.835,-0.508,1.0
24.006,-0.741,-0.579,1.0
21.566,-0.661,-0.635,1.0
19.548,-0.595,-0.678,1.0
17.908,-0.541,-0.714,1.0
31.512,-0.946,-0.381,1.0
27.921,-0.832,-0.483,2.0
24.932,-0.737,-0.562,1.0
22.27,-0.653,-0.62,1.0
20.104,-0.585,-0.665,1.0
18.386,-0.531,-0.704,1.0
33.257,-0.954,-0.349,1.0
28.91,-0.822,-0.455,1.0
25.845,-0.729,-0.542,1.0
23.054,-0.645,-0.606,2.0
20.744,-0.576,-0.653,3.0
18.834,-0.518,-0.692,1.0
35.954,-0.982,-0.321,0.0
29.959,-0.811,-0.424,1.0
26.606,-0.714,-0.516,1.0
23.723,-0.631,-0.586,1.0
21.2,-0.558,-0.635,2.0
19.443,-0.507,-0.684,1.0
40.668,-1.053,-0.3,16.0
31.051,-0.796,-0.391,1.0
27.442,-0.697,-0.489,3.0
24.608,-0.619,-0.57,1.0
22.064,-0.55,-0.627,1.0
19.945,-0.492,-0.671,1.0
40.284,-0.986,-0.236,8.0
32.786,-0.794,-0.364,1.0
28.464,-0.682,-0.464,1.0
25.476,-0.604,-0.552,1.0
22.777,-0.535,-0.613,2.0
20.489,-0.476,-0.658,1.0
40.287,-0.926,-0.175,73.0
35.1,-0.798,-0.336,0.0
29.475,-0.663,-0.437,1.0
26.248,-0.583,-0.529,1.0
23.487,-0.516,-0.597,1.0
21.125,-0.459,-0.648,1.0
0.0,0.0,0.0,0.0
40.207,-0.854,-0.326,1.0
30.403,-0.638,-0.406,1.0
27.017,-0.56,-0.505,1.0
24.156,-0.494,-0.578,1.0
21.815,-0.441,-0.637,2.0
53.584,-1.07,-0.075,0.0
40.209,-0.792,-0.267,5.0
31.851,-0.619,-0.379,1.0
28.097,-0.538,-0.484,1.0
25.047,-0.473,-0.563,1.0
22.451,-0.418,-0.623,2.0
40.292,-0.742,0.001,72.0
40.287,-0.73,-0.21,31.0
33.772,-0.603,-0.353,1.0
28.857,-0.508,-0.456,1.0
25.819,-0.447,-0.544,1.0
23.111,-0.394,-0.608,2.0
40.322,-0.678,0.058,30.0
46.358,-0.767,-0.176,0.0
35.394,-0.576,-0.321,0.0
29.725,-0.475,-0.428,2.0
26.528,-0.417,-0.522,1.0
23.729,-0.366,-0.592,2.0
248.416,-3.776,0.705,30.0
50.763,-0.758,-0.123,3.0
39.023,-0.571,-0.299,0.0
30.648,-0.44,-0.399,1.0
27.378,-0.385,-0.501,2.0
24.404,-0.336,-0.575,1.0
78.355,-1.061,0.329,1.0
54.444,-0.722,-0.057,2.0
42.141,-0.547,-0.266,2.0
32.033,-0.406,-0.374,1.0
28.24,-0.35,-0.479,2.0
25.178,-0.305,-0.559,1.0
78.178,-0.927,0.434,10.0
79.41,-0.919,0.022,14.0
43.98,-0.497,-0.219,2.0
33.401,-0.367,-0.346,1.0
29.092,-0.311,-0.455,6.0
25.878,-0.27,-0.541,1.0
0.0,0.0,0.0,0.0
55.275,-0.546,0.087,4.0
50.737,-0.486,-0.187,6.0
36.492,-0.339,-0.331,0.0
29.774,-0.268,-0.427,2.0
26.617,-0.232,-0.522,2.0
79.43,-0.671,0.646,150.0
57.045,-0.465,0.162,7.0
47.395,-0.372,-0.115,5.0
40.398,-0.306,-0.315,15.0
30.681,-0.223,-0.401,1.0
27.261,-0.19,-0.501,1.0
79.452,-0.532,0.746,171.0
61.574,-0.394,0.252,8.0
46.32,-0.283,-0.055,9.0
39.834,-0.231,-0.261,3.0
31.596,-0.174,-0.375,1.0
28.136,-0.146,-0.483,2.0
79.466,-0.391,0.844,155.0
76.612,-0.354,0.407,12.0
47.445,-0.205,0.0,9.0
39.382,-0.158,-0.211,5.0
33.072,-0.123,-0.352,1.0
28.99,-0.099,-0.463,2.0
79.464,-0.249,0.938,151.0
79.207,-0.224,0.515,11.0
51.439,-0.129,0.062,5.0
40.308,-0.089,-0.169,17.0
34.193,-0.065,-0.324,0.0
29.582,-0.047,-0.438,2.0
79.461,-0.105,1.03,151.0
79.302,-0.08,0.607,51.0
55.625,-0.039,0.13,29.0
43.806,-0.018,-0.134,3.0
38.287,-0.004,-0.32,3.0
30.228,0.005,-0.413,1.0
79.467,0.038,1.119,151.0
79.445,0.063,0.697,150.0
58.168,0.064,0.201,7.0
0.0,0.0,0.0,0.0
38.271,0.065,-0.278,7.0
31.081,0.063,-0.391,1.0
79.463,0.185,1.206,155.0
79.457,0.21,0.783,150.0
59.173,0.175,0.268,8.0
0.0,0.0,0.0,0.0
38.547,0.138,-0.238,14.0
32.52,0.126,-0.375,1.0
59.308,0.251,0.964,109.0
59.292,0.269,0.648,124.0
59.358,0.288,0.332,8.0
47.507,0.245,0.008,37.0
38.814,0.213,-0.2,45.0
33.192,0.192,-0.348,1.0
48.149,0.295,0.833,77.0
48.122,0.31,0.575,57.0
48.119,0.325,0.318,49.0
47.963,0.338,0.056,57.0
39.224,0.289,-0.162,45.0
37.515,0.288,-0.356,0.0
48.118,0.386,0.88,125.0
48.088,0.4,0.622,114.0
48.059,0.415,0.365,109.0
47.992,0.43,0.103,84.0
39.65,0.368,-0.126,14.0
37.374,0.358,-0.319,4.0
48.121,0.477,0.925,103.0
48.11,0.492,0.668,104.0
48.08,0.507,0.41,101.0
48.023,0.522,0.148,84.0
44.151,0.493,-0.1,12.0
37.378,0.429,-0.285,9.0
55.062,0.652,1.11,73.0
48.238,0.587,0.714,33.0
48.159,0.601,0.455,17.0
48.054,0.614,0.191,72.0
44.211,0.579,-0.06,18.0
37.614,0.505,-0.253,18.0
190.172,2.621,4.003,25.0
127.227,1.795,1.996,34.0
89.712,1.294,0.926,6.0
60.688,0.894,0.294,8.0
46.743,0.704,-0.023,30.0
37.787,0.581,-0.221,40.0
190.03,2.995,4.164,19.0
127.572,2.051,2.11,25.0
94.546,1.549,1.055,5.0
62.053,1.036,0.353,8.0
47.617,0.81,0.015,29.0
38.103,0.66,-0.192,42.0
128.229,2.273,2.915,16.0
127.871,2.306,2.218,31.0
121.061,2.222,1.449,13.0
74.886,1.399,0.486,16.0
47.996,0.911,0.053,18.0
38.806,0.749,-0.165,44.0
128.04,2.523,3.011,45.0
106.286,2.129,1.927,7.0
120.95,2.461,1.541,5.0
75.011,1.55,0.544,15.0
52.142,1.094,0.097,8.0
39.355,0.838,-0.138,42.0
169.852,3.686,4.122,3.0
106.096,2.337,2.002,4.0
106.058,2.369,1.429,6.0
77.797,1.763,0.621,27.0
0.0,0.0,0.0,0.0
39.705,0.925,-0.111,19.0
146.483,3.474,3.66,30.0
100.362,2.412,1.965,1.0
106.122,2.585,1.505,10.0
78.0,1.924,0.677,41.0
58.469,1.461,0.191,20.0
42.821,1.084,-0.091,9.0
138.027,3.55,3.541,2.0
0.0,0.0,0.0,0.0
106.144,2.797,1.574,2.0
78.136,2.083,0.728,28.0
58.741,1.584,0.229,31.0
47.059,1.284,-0.07,10.0
154.034,4.27,4.049,31.0
0.0,0.0,0.0,0.0
0.0,0.0,0.0,0.0
78.371,2.248,0.779,12.0
59.331,1.72,0.268,33.0
47.356,1.389,-0.042,21.0
154.134,4.585,4.144,5.0
0.0,0.0,0.0,0.0
0.0,0.0,0.0,0.0
79.473,2.441,0.836,10.0
59.807,1.855,0.304,33.0
47.164,1.478,-0.015,24.0
158.939,5.054,4.364,5.0
0.0,0.0,0.0,0.0
0.0,0.0,0.0,0.0
79.872,2.614,0.883,4.0
60.097,1.985,0.338,19.0
47.78,1.594,0.009,24.0
159.12,5.381,4.452,13.0
0.0,0.0,0.0,0.0
0.0,0.0,0.0,0.0
93.438,3.249,1.08,6.0
73.956,2.595,0.452,10.0
48.147,1.705,0.033,23.0
160.39,5.75,4.565,15.0
0.0,0.0,0.0,0.0
0.0,0.0,0.0,0.0
93.532,3.441,1.124,5.0
74.094,2.748,0.487,14.0
48.474,1.813,0.054,23.0
173.458,6.572,5.015,4.0
0.0,0.0,0.0,0.0
0.0,0.0,0.0,0.0
95.675,3.712,1.19,3.0
74.165,2.9,0.518,15.0
48.842,1.925,0.075,23.0
173.207,6.907,5.076,10.0
0.0,0.0,0.0,0.0
0.0,0.0,0.0,0.0
95.978,3.918,1.231,3.0
77.165,3.173,0.568,6.0
54.182,2.245,0.103,9.0
158.175,6.633,4.695,14.0
0.0,0.0,0.0,0.0
0.0,0.0,0.0,0.0
96.062,4.117,1.265,3.0
0.0,0.0,0.0,0.0
54.138,2.354,0.121,15.0
157.344,6.917,4.722,9.0
0.0,0.0,0.0,0.0
0.0,0.0,0.0,0.0
96.399,4.327,1.3,2.0
0.0,0.0,0.0,0.0
54.166,2.465,0.137,19.0
156.067,7.179,4.73,10.0
0.0,0.0,0.0,0.0
0.0,0.0,0.0,0.0
105.811,4.963,1.455,12.0
75.362,3.558,0.623,10.0
54.395,2.584,0.151,28.0
156.066,7.495,4.768,16.0
0.0,0.0,0.0,0.0
0.0,0.0,0.0,0.0
105.754,5.174,1.478,12.0
76.421,3.762,0.649,34.0
54.34,2.691,0.163,21.0
0.0,0.0,0.0,0.0
167.195,8.415,4.224,16.0
167.233,8.466,3.306,8.0
105.786,5.386,1.499,64.0
76.011,3.892,0.659,24.0
54.334,2.799,0.172,27.0
156.918,8.163,4.855,8.0
162.654,8.508,4.137,12.0
162.494,8.549,3.239,13.0
105.791,5.595,1.515,35.0
75.884,4.037,0.669,25.0
54.301,2.905,0.18,27.0
162.542,8.779,5.05,10.0
163.115,8.856,4.169,19.0
162.767,8.886,3.263,20.0
105.83,5.809,1.528,7.0
75.708,4.177,0.675,20.0
54.287,3.012,0.185,27.0
162.216,9.084,5.057,3.0
162.243,9.132,4.161,6.0
163.66,9.258,3.295,19.0
0.0,0.0,0.0,0.0
75.571,4.319,0.679,18.0
54.444,3.127,0.189,28.0
162.227,9.405,5.066,13.0
157.525,9.178,4.049,6.0
162.361,9.506,3.275,15.0
106.398,6.259,1.548,24.0
75.283,4.45,0.679,17.0
54.565,3.241,0.19,28.0
157.346,9.432,4.917,3.0
157.189,9.466,4.042,11.0
33.405,2.02,0.674,1.0
33.446,2.032,0.486,9.0
33.438,2.042,0.301,8.0
33.443,2.051,0.116,26.0
33.456,2.07,1.044,113.0
33.459,2.08,0.859,7.0
33.437,2.088,0.673,3.0
33.409,2.095,0.484,2.0
74.922,4.721,0.672,15.0
54.361,3.44,0.186,28.0
158.179,10.095,4.931,50.0
114.827,7.36,2.942,12.0
139.695,8.993,2.805,21.0
120.777,7.81,1.743,9.0
74.597,4.843,0.662,25.0
47.72,3.112,0.159,3.0
158.101,10.398,4.914,76.0
114.726,7.577,2.928,25.0
139.649,9.262,2.789,21.0
139.577,9.293,1.998,18.0
74.383,4.973,0.652,37.0
47.676,3.2,0.153,3.0
157.985,10.693,4.889,45.0
