X,Y,Z,Reflectivity
7.542,0.519,-0.772,1.0
7.32,0.503,-0.791,1.0
7.319,0.502,-0.833,1.0
7.298,0.499,-0.872,0.0
8.343,0.567,-0.761,3.0
7.916,0.537,-0.767,1.0
7.552,0.511,-0.775,1.0
7.409,0.5,-0.803,1.0
7.422,0.5,-0.847,1.0
7.426,0.499,-0.889,0.0
8.339,0.557,-0.763,2.0
7.903,0.527,-0.768,1.0
7.582,0.504,-0.779,1.0
7.497,0.497,-0.814,1.0
7.507,0.497,-0.858,1.0
7.549,0.499,-0.906,0.0
8.324,0.546,-0.763,1.0
7.888,0.516,-0.768,1.0
7.609,0.497,-0.784,1.0
7.611,0.496,-0.828,1.0
7.603,0.494,-0.87,0.0
7.645,0.496,-0.919,0.0
8.317,0.536,-0.764,1.0
7.899,0.507,-0.77,1.0
7.7,0.493,-0.794,1.0
7.725,0.494,-0.841,1.0
7.727,0.493,-0.886,0.0
7.761,0.494,-0.934,0.0
8.306,0.525,-0.764,1.0
7.922,0.499,-0.773,1.0
7.811,0.491,-0.807,1.0
7.818,0.49,-0.852,0.0
7.849,0.491,-0.9,0.0
7.825,0.488,-0.942,0.0
8.316,0.515,-0.766,1.0
7.971,0.493,-0.779,1.0
7.913,0.488,-0.818,1.0
7.942,0.488,-0.866,0.0
7.978,0.489,-0.916,0.0
7.92,0.484,-0.954,0.0
8.322,0.505,-0.767,1.0
8.04,0.487,-0.786,1.0
8.043,0.486,-0.831,1.0
8.042,0.484,-0.877,0.0
8.069,0.485,-0.926,0.0
7.981,0.478,-0.961,0.0
8.351,0.497,-0.769,1.0
8.139,0.483,-0.795,1.0
8.169,0.483,-0.844,1.0
8.166,0.482,-0.891,0.0
8.169,0.48,-0.937,0.0
8.149,0.478,-0.981,0.0
8.384,0.488,-0.772,1.0
8.306,0.482,-0.811,1.0
8.317,0.481,-0.859,1.0
8.333,0.481,-0.908,0.0
8.308,0.478,-0.952,0.0
8.262,0.474,-0.994,0.0
8.456,0.482,-0.778,2.0
8.436,0.479,-0.823,2.0
8.438,0.477,-0.87,0.0
8.455,0.477,-0.921,0.0
8.42,0.473,-0.964,0.0
8.269,0.464,-0.994,0.0
8.563,0.477,-0.786,3.0
8.547,0.474,-0.832,1.0
8.545,0.473,-0.88,0.0
8.605,0.474,-0.936,0.0
8.566,0.471,-0.979,0.0
8.279,0.454,-0.993,0.0
8.671,0.472,-0.795,3.0
8.682,0.471,-0.844,1.0
8.711,0.471,-0.896,0.0
8.687,0.468,-0.943,0.0
8.619,0.463,-0.984,0.0
7.746,0.414,-0.928,0.0
8.808,0.468,-0.805,3.0
8.844,0.468,-0.858,0.0
8.939,0.471,-0.917,0.0
8.854,0.465,-0.959,0.0
8.626,0.452,-0.982,0.0
7.772,0.405,-0.929,0.0
8.99,0.466,-0.819,2.0
9.012,0.465,-0.871,0.0
9.009,0.463,-0.921,0.0
8.941,0.458,-0.965,0.0
8.289,0.423,-0.941,0.0
7.777,0.396,-0.927,0.0
9.137,0.462,-0.83,2.0
9.189,0.462,-0.886,0.0
9.163,0.459,-0.934,0.0
8.968,0.448,-0.965,0.0
8.111,0.403,-0.918,0.0
7.827,0.388,-0.93,0.0
9.294,0.457,-0.841,1.0
9.357,0.458,-0.898,0.0
9.289,0.453,-0.943,0.0
8.831,0.429,-0.947,0.0
8.17,0.395,-0.922,0.0
7.799,0.376,-0.923,0.0
9.493,0.454,-0.855,0.0
9.504,0.453,-0.908,0.0
9.46,0.449,-0.957,0.0
8.567,0.405,-0.915,0.0
8.186,0.385,-0.92,0.0
7.873,0.369,-0.929,0.0
9.689,0.451,-0.868,0.0
9.66,0.448,-0.919,0.0
9.555,0.441,-0.962,0.0
8.568,0.394,-0.911,0.0
8.236,0.377,-0.921,0.0
7.906,0.36,-0.928,0.0
9.889,0.447,-0.881,0.0
9.861,0.444,-0.933,0.0
9.522,0.427,-0.953,0.0
8.571,0.382,-0.907,0.0
8.241,0.366,-0.917,0.0
7.911,0.35,-0.925,0.0
10.093,0.443,-0.894,0.0
10.038,0.438,-0.944,0.0
9.146,0.398,-0.911,0.0
8.623,0.373,-0.907,0.0
8.291,0.357,-0.918,0.0
7.949,0.341,-0.925,0.0
10.204,0.435,-0.897,2.0
10.22,0.433,-0.955,0.0
9.055,0.382,-0.896,0.0
8.65,0.363,-0.905,0.0
8.301,0.346,-0.914,0.0
8.003,0.332,-0.926,0.0
10.226,0.422,-0.893,4.0
10.202,0.419,-0.947,0.0
9.128,0.373,-0.897,0.0
8.72,0.354,-0.906,0.0
8.365,0.338,-0.915,0.0
8.045,0.323,-0.925,0.0
10.315,0.412,-0.893,3.0
9.799,0.389,-0.903,0.0
9.259,0.366,-0.904,0.0
8.769,0.345,-0.905,0.0
8.397,0.328,-0.913,0.0
8.08,0.314,-0.923,0.0
10.615,0.41,-0.912,0.0
9.675,0.372,-0.884,0.0
9.328,0.356,-0.903,0.0
8.839,0.336,-0.906,0.0
8.413,0.318,-0.908,0.0
8.113,0.305,-0.921,0.0
10.318,0.385,-0.878,0.0
9.763,0.362,-0.884,0.0
9.341,0.345,-0.897,1.0
8.886,0.326,-0.903,0.0
8.518,0.311,-0.913,0.0
8.119,0.294,-0.915,1.0
10.333,0.372,-0.871,0.0
9.839,0.352,-0.883,0.0
9.337,0.332,-0.889,1.0
8.954,0.317,-0.903,0.0
8.55,0.301,-0.909,0.0
8.132,0.284,-0.909,1.0
10.376,0.36,-0.866,0.0
9.918,0.342,-0.882,0.0
9.354,0.321,-0.883,0.0
8.975,0.306,-0.897,0.0
8.604,0.292,-0.907,0.0
8.189,0.276,-0.908,0.0
10.504,0.351,-0.867,0.0
9.997,0.332,-0.88,0.0
9.509,0.314,-0.889,0.0
9.058,0.297,-0.897,0.0
8.682,0.283,-0.907,0.0
8.293,0.269,-0.912,0.0
10.635,0.342,-0.868,0.0
10.082,0.322,-0.878,0.0
9.591,0.305,-0.887,0.0
9.036,0.285,-0.886,1.0
8.757,0.274,-0.906,0.0
8.376,0.261,-0.913,0.0
10.723,0.332,-0.865,0.0
10.162,0.312,-0.875,0.0
9.703,0.296,-0.888,0.0
9.153,0.277,-0.888,0.0
8.812,0.265,-0.903,0.0
8.424,0.252,-0.909,0.0
10.805,0.321,-0.86,0.0
10.262,0.302,-0.873,0.0
9.788,0.286,-0.885,0.0
9.305,0.27,-0.893,0.0
8.958,0.258,-0.909,0.0
8.355,0.239,-0.893,0.0
10.929,0.311,-0.859,0.0
10.387,0.293,-0.872,1.0
9.877,0.277,-0.883,0.0
9.399,0.261,-0.892,0.0
8.993,0.248,-0.902,0.0
8.426,0.231,-0.891,0.0
11.033,0.3,-0.855,0.0
10.4,0.281,-0.862,4.0
9.962,0.267,-0.879,0.0
9.501,0.253,-0.891,0.0
9.041,0.239,-0.897,0.0
8.643,0.226,-0.904,0.0
11.188,0.291,-0.854,0.0
10.475,0.27,-0.856,3.0
10.065,0.258,-0.877,0.0
9.582,0.243,-0.887,0.0
9.13,0.23,-0.895,0.0
8.743,0.218,-0.904,0.0
11.304,0.281,-0.849,0.0
10.634,0.262,-0.856,0.0
10.17,0.248,-0.873,0.0
9.677,0.234,-0.884,0.0
9.242,0.222,-0.895,0.0
8.828,0.21,-0.902,0.0
11.507,0.272,-0.85,0.0
10.859,0.255,-0.861,0.0
10.31,0.24,-0.873,2.0
9.796,0.226,-0.883,0.0
9.329,0.213,-0.891,0.0
8.914,0.202,-0.9,0.0
11.673,0.263,-0.848,0.0
10.999,0.245,-0.858,0.0
10.374,0.229,-0.865,4.0
9.908,0.217,-0.88,0.0
9.445,0.205,-0.89,0.0
9.004,0.194,-0.897,0.0
11.841,0.253,-0.845,0.0
11.146,0.236,-0.855,0.0
10.442,0.219,-0.857,4.0
10.015,0.208,-0.877,0.0
9.545,0.196,-0.887,0.0
9.109,0.185,-0.895,0.0
11.979,0.243,-0.839,0.0
11.306,0.227,-0.852,0.0
10.577,0.21,-0.854,1.0
10.162,0.2,-0.876,0.0
9.691,0.189,-0.887,0.0
9.219,0.178,-0.893,0.0
12.177,0.233,-0.836,0.0
11.486,0.218,-0.85,0.0
10.827,0.203,-0.859,0.0
10.318,0.191,-0.875,1.0
9.789,0.18,-0.882,0.0
9.343,0.17,-0.892,0.0
12.359,0.223,-0.831,0.0
11.669,0.209,-0.847,0.0
10.99,0.194,-0.856,0.0
10.417,0.182,-0.868,6.0
9.92,0.172,-0.88,0.0
9.46,0.162,-0.889,0.0
12.571,0.214,-0.827,1.0
11.839,0.199,-0.842,0.0
11.148,0.185,-0.852,0.0
10.455,0.172,-0.856,8.0
10.076,0.164,-0.879,0.0
9.586,0.154,-0.887,0.0
12.76,0.204,-0.821,1.0
12.032,0.19,-0.838,1.0
11.354,0.177,-0.851,0.0
10.613,0.164,-0.853,1.0
10.233,0.156,-0.877,0.0
9.71,0.146,-0.884,0.0
12.99,0.195,-0.816,1.0
12.225,0.181,-0.833,1.0
11.549,0.169,-0.848,0.0
10.887,0.157,-0.858,0.0
10.394,0.148,-0.874,1.0
9.834,0.138,-0.88,0.0
13.23,0.185,-0.81,1.0
12.457,0.172,-0.829,1.0
11.744,0.16,-0.844,0.0
11.047,0.149,-0.853,1.0
10.507,0.139,-0.867,1.0
9.995,0.131,-0.878,0.0
13.472,0.175,-0.804,1.0
12.672,0.163,-0.823,1.0
11.948,0.151,-0.839,1.0
11.238,0.14,-0.85,0.0
10.695,0.132,-0.866,0.0
10.12,0.123,-0.873,0.0
13.783,0.167,-0.8,1.0
12.899,0.154,-0.817,1.0
12.134,0.142,-0.832,1.0
11.465,0.133,-0.848,0.0
10.838,0.124,-0.859,0.0
10.361,0.116,-0.877,0.0
13.965,0.156,-0.788,3.0
13.146,0.145,-0.811,1.0
12.39,0.134,-0.829,1.0
11.673,0.125,-0.844,1.0
11.031,0.116,-0.856,0.0
10.464,0.108,-0.868,0.0
14.367,0.148,-0.786,1.0
13.421,0.136,-0.805,1.0
12.624,0.126,-0.824,1.0
11.874,0.116,-0.839,1.0
11.236,0.108,-0.853,0.0
10.646,0.101,-0.864,0.0
14.732,0.139,-0.781,1.0
13.745,0.128,-0.801,1.0
12.873,0.117,-0.818,1.0
12.099,0.108,-0.834,1.0
11.457,0.101,-0.85,0.0
10.825,0.094,-0.86,0.0
15.022,0.129,-0.771,3.0
13.99,0.118,-0.791,1.0
13.135,0.109,-0.812,1.0
12.363,0.101,-0.83,1.0
11.66,0.093,-0.844,1.0
11.013,0.086,-0.855,0.0
15.278,0.119,-0.757,1.0
14.371,0.11,-0.787,1.0
13.407,0.101,-0.805,1.0
12.601,0.093,-0.824,1.0
11.847,0.085,-0.837,1.0
11.212,0.079,-0.851,0.0
15.778,0.111,-0.753,8.0
14.737,0.102,-0.781,1.0
13.716,0.093,-0.799,1.0
12.847,0.085,-0.816,1.0
12.096,0.078,-0.832,0.0
11.471,0.072,-0.849,0.0
15.799,0.1,-0.726,5.0
15.035,0.093,-0.769,2.0
14.044,0.085,-0.792,1.0
13.17,0.077,-0.813,1.0
12.368,0.071,-0.828,1.0
11.675,0.065,-0.843,0.0
17.074,0.096,-0.753,1.0
15.553,0.085,-0.767,2.0
14.389,0.077,-0.785,1.0
13.454,0.07,-0.805,1.0
12.622,0.064,-0.822,1.0
11.901,0.059,-0.837,0.0
17.275,0.085,-0.729,18.0
15.79,0.076,-0.749,24.0
14.799,0.069,-0.779,1.0
13.771,0.062,-0.798,1.0
12.901,0.057,-0.815,1.0
12.173,0.052,-0.833,0.0
17.351,0.074,-0.7,9.0
15.846,0.066,-0.722,1.0
15.09,0.061,-0.766,1.0
14.109,0.055,-0.791,1.0
13.225,0.05,-0.811,1.0
12.427,0.045,-0.827,1.0
18.375,0.068,-0.707,1.0
17.152,0.061,-0.749,1.0
15.617,0.054,-0.763,1.0
14.502,0.048,-0.785,1.0
13.569,0.043,-0.805,1.0
12.716,0.039,-0.821,1.0
18.861,0.058,-0.689,8.0
17.42,0.052,-0.727,1.0
15.865,0.046,-0.744,4.0
14.878,0.041,-0.777,1.0
13.907,0.037,-0.798,1.0
12.997,0.033,-0.814,0.0
19.521,0.05,-0.675,3.0
17.958,0.044,-0.714,1.0
15.92,0.037,-0.716,1.0
15.173,0.034,-0.763,1.0
14.23,0.03,-0.789,1.0
13.328,0.027,-0.808,1.0
20.389,0.042,-0.665,2.0
18.586,0.036,-0.702,2.0
17.11,0.031,-0.735,0.0
15.827,0.027,-0.764,5.0
14.644,0.024,-0.783,1.0
13.658,0.021,-0.801,1.0
21.197,0.033,-0.649,3.0
19.041,0.028,-0.682,3.0
17.604,0.024,-0.721,1.0
15.886,0.02,-0.735,17.0
15.039,0.018,-0.774,1.0
13.981,0.015,-0.792,1.0
21.978,0.025,-0.629,4.0
19.908,0.021,-0.672,2.0
18.19,0.017,-0.709,1.0
16.352,0.014,-0.724,0.0
15.505,0.012,-0.766,1.0
14.408,0.01,-0.787,1.0
22.843,0.016,-0.608,4.0
20.719,0.013,-0.659,2.0
18.777,0.01,-0.694,3.0
17.301,0.008,-0.731,1.0
15.87,0.006,-0.753,11.0
14.805,0.005,-0.779,1.0
23.662,0.008,-0.582,2.0
21.535,0.006,-0.641,3.0
19.412,0.004,-0.679,3.0
17.827,0.002,-0.717,1.0
15.984,0.001,-0.726,1.0
15.183,0.0,-0.768,1.0
24.689,0.001,-0.558,2.0
22.43,0.0,-0.622,3.0
20.288,-0.001,-0.668,2.0
18.473,-0.002,-0.705,2.0
17.041,-0.003,-0.739,0.0
15.771,-0.004,-0.765,2.0
25.987,-0.006,-0.533,2.0
23.254,-0.007,-0.598,2.0
21.093,-0.008,-0.651,3.0
19.023,-0.008,-0.687,3.0
17.565,-0.008,-0.725,1.0
15.943,-0.008,-0.741,2.0
27.044,-0.014,-0.499,2.0
24.126,-0.014,-0.57,2.0
22.039,-0.013,-0.634,3.0
19.847,-0.013,-0.675,3.0
18.161,-0.013,-0.712,1.0
16.726,-0.013,-0.742,0.0
28.356,-0.021,-0.464,1.0
25.47,-0.02,-0.548,2.0
22.92,-0.019,-0.612,3.0
20.685,-0.018,-0.661,2.0
18.779,-0.017,-0.697,3.0
17.298,-0.016,-0.731,1.0
29.667,-0.028,-0.424,2.0
26.624,-0.026,-0.517,2.0
23.778,-0.024,-0.584,2.0
21.539,-0.022,-0.643,3.0
19.462,-0.021,-0.681,3.0
17.89,-0.02,-0.719,1.0
31.037,-0.034,-0.378,1.0
27.795,-0.031,-0.482,1.0
24.863,-0.029,-0.559,1.0
22.523,-0.027,-0.624,3.0
20.337,-0.025,-0.669,2.0
18.514,-0.023,-0.704,2.0
33.251,-0.04,-0.334,1.0
29.246,-0.036,-0.444,2.0
26.196,-0.033,-0.533,2.0
23.393,-0.03,-0.599,2.0
21.177,-0.027,-0.651,3.0
19.166,-0.025,-0.688,3.0
38.309,-0.049,-0.304,2.0
30.455,-0.04,-0.398,1.0
27.268,-0.036,-0.497,2.0
24.274,-0.032,-0.57,2.0
22.132,-0.03,-0.633,2.0
19.982,-0.027,-0.675,2.0
39.227,-0.052,-0.228,15.0
32.513,-0.044,-0.356,1.0
28.74,-0.039,-0.462,1.0
25.675,-0.035,-0.548,2.0
23.042,-0.031,-0.61,3.0
20.857,-0.029,-0.66,2.0
40.394,-0.054,-0.148,16.0
37.525,-0.051,-0.331,1.0
29.908,-0.04,-0.417,1.0
26.718,-0.036,-0.513,2.0
23.94,-0.032,-0.583,3.0
21.766,-0.029,-0.642,3.0
0.0,0.0,0.0,0.0
38.842,-0.051,-0.259,8.0
31.886,-0.041,-0.377,1.0
28.145,-0.036,-0.48,1.0
25.219,-0.032,-0.56,1.0
22.781,-0.029,-0.623,3.0
48.244,-0.06,0.028,11.0
39.87,-0.049,-0.18,30.0
33.789,-0.041,-0.327,1.0
29.445,-0.035,-0.439,2.0
26.434,-0.031,-0.53,2.0
23.616,-0.028,-0.595,2.0
56.035,-0.064,0.152,26.0
0.0,0.0,0.0,0.0
38.604,-0.042,-0.29,4.0
30.733,-0.033,-0.392,1.0
27.534,-0.029,-0.493,1.0
24.603,-0.025,-0.567,2.0
76.045,-0.076,0.371,12.0
46.194,-0.045,-0.011,9.0
39.441,-0.037,-0.213,15.0
33.01,-0.03,-0.351,1.0
29.13,-0.026,-0.459,2.0
25.987,-0.022,-0.543,2.0
79.226,-0.064,0.556,18.0
0.0,0.0,0.0,0.0
40.959,-0.03,-0.133,16.0
38.113,-0.027,-0.324,2.0
30.245,-0.02,-0.412,1.0
27.109,-0.017,-0.509,2.0
79.471,-0.047,0.727,150.0
61.696,-0.034,0.247,15.0
0.0,0.0,0.0,0.0
38.947,-0.018,-0.248,14.0
32.128,-0.014,-0.369,1.0
28.575,-0.011,-0.476,2.0
79.459,-0.027,0.897,155.0
76.357,-0.022,0.469,18.0
0.0,0.0,0.0,0.0
40.042,-0.007,-0.169,25.0
38.323,-0.005,-0.359,0.0
29.746,-0.003,-0.432,2.0
79.461,-0.004,1.065,151.0
79.415,0.0,0.656,150.0
56.154,0.003,0.175,11.0
43.555,0.004,-0.092,19.0
38.499,0.006,-0.279,7.0
31.222,0.007,-0.387,1.0
79.461,0.022,1.235,151.0
79.455,0.027,0.825,178.0
76.017,0.03,0.397,15.0
47.583,0.022,0.0,22.0
39.448,0.02,-0.203,32.0
33.44,0.019,-0.344,0.0
79.449,0.051,1.402,164.0
79.464,0.057,0.994,155.0
79.378,0.062,0.583,30.0
54.719,0.046,0.114,16.0
43.883,0.04,-0.133,5.0
38.224,0.038,-0.313,4.0
79.449,0.084,1.571,151.0
79.46,0.089,1.161,156.0
79.454,0.095,0.751,150.0
0.0,0.0,0.0,0.0
0.0,0.0,0.0,0.0
38.88,0.055,-0.237,14.0
79.445,0.118,1.736,151.0
79.454,0.125,1.328,170.0
79.462,0.132,0.919,152.0
76.332,0.132,0.48,23.0
0.0,0.0,0.0,0.0
40.134,0.076,-0.16,16.0
79.433,0.156,1.903,150.0
79.457,0.163,1.493,151.0
79.454,0.17,1.083,155.0
79.431,0.177,0.664,150.0
59.052,0.137,0.19,7.0
0.0,0.0,0.0,0.0
79.453,0.197,2.068,150.0
79.441,0.204,1.657,150.0
79.45,0.212,1.248,168.0
79.464,0.22,0.829,151.0
75.887,0.217,0.401,14.0
47.782,0.141,0.006,21.0
79.443,0.241,2.231,150.0
79.446,0.248,1.821,150.0
79.457,0.256,1.411,156.0
79.467,0.265,0.992,151.0
77.069,0.265,0.564,47.0
54.72,0.194,0.119,28.0
79.455,0.287,2.394,150.0
79.446,0.295,1.984,150.0
79.442,0.304,1.573,150.0
79.458,0.313,1.155,151.0
79.445,0.321,0.744,12.0
59.347,0.247,0.249,20.0
59.302,0.251,1.908,99.0
59.296,0.257,1.601,100.0
59.296,0.264,1.294,99.0
59.294,0.271,0.981,98.0
59.308,0.278,0.675,101.0
59.314,0.285,0.369,87.0
48.205,0.235,1.649,58.0
48.215,0.241,1.399,34.0
59.282,0.304,1.414,19.0
48.221,0.253,0.896,17.0
59.291,0.318,0.795,56.0
59.301,0.326,0.488,21.0
48.16,0.268,1.745,77.0
48.159,0.274,1.495,80.0
48.156,0.28,1.245,84.0
48.156,0.286,0.991,70.0
48.173,0.293,0.742,61.0
48.176,0.299,0.493,49.0
48.147,0.303,1.841,95.0
48.121,0.309,1.59,88.0
48.13,0.316,1.341,104.0
48.115,0.322,1.087,99.0
48.121,0.329,0.837,87.0
48.102,0.335,0.588,59.0
48.128,0.34,1.936,108.0
48.119,0.346,1.685,101.0
48.124,0.353,1.435,114.0
48.092,0.359,1.18,106.0
48.092,0.366,0.931,106.0
48.092,0.373,0.681,103.0
48.143,0.378,2.03,128.0
48.103,0.384,1.778,103.0
48.112,0.391,1.529,115.0
48.097,0.398,1.274,113.0
48.106,0.405,1.024,111.0
48.092,0.412,0.774,104.0
48.154,0.417,2.124,100.0
48.122,0.424,1.873,107.0
48.114,0.431,1.622,96.0
48.1,0.439,1.366,108.0
48.103,0.446,1.117,102.0
48.109,0.453,0.866,103.0
48.194,0.459,2.218,73.0
48.169,0.466,1.966,86.0
48.155,0.473,1.715,102.0
48.146,0.481,1.459,86.0
48.138,0.488,1.209,88.0
48.125,0.496,0.958,101.0
59.399,0.618,2.847,72.0
55.062,0.582,2.352,54.0
48.205,0.517,1.808,48.0
48.191,0.525,1.551,58.0
48.17,0.532,1.299,70.0
48.155,0.54,1.048,66.0
55.064,0.624,2.743,66.0
55.008,0.632,2.452,105.0
55.009,0.641,2.166,108.0
54.997,0.65,1.873,129.0
55.0,0.659,1.586,103.0
55.043,0.669,1.3,68.0
55.039,0.675,2.843,106.0
55.011,0.684,2.553,124.0
55.0,0.693,2.265,77.0
55.017,0.703,1.973,112.0
55.021,0.713,1.686,109.0
55.092,0.723,1.401,48.0
54.971,0.728,2.94,103.0
55.008,0.738,2.654,128.0
54.998,0.747,2.365,99.0
55.026,0.757,2.073,101.0
55.042,0.767,1.785,74.0
163.036,2.303,4.438,12.0
54.958,0.783,3.038,121.0
54.993,0.793,2.751,122.0
55.007,0.803,2.463,114.0
55.092,0.814,2.174,63.0
132.87,1.989,4.546,27.0
162.805,2.467,4.719,19.0
54.949,0.84,3.135,103.0
54.984,0.85,2.848,102.0
55.013,0.861,2.561,95.0
130.243,2.063,5.369,25.0
162.362,2.602,5.841,14.0
132.96,2.156,4.087,22.0
54.965,0.898,3.232,47.0
54.95,0.908,2.943,87.0
55.073,0.921,2.659,65.0
130.297,2.204,5.596,34.0
174.591,2.987,6.583,12.0
132.895,2.299,4.313,27.0
62.42,1.089,3.779,92.0
54.857,0.967,3.032,54.0
55.188,0.984,2.76,39.0
129.596,2.336,5.786,27.0
128.148,2.334,5.048,8.0
128.083,2.358,4.373,9.0
62.367,1.157,3.88,94.0
54.721,1.026,3.116,61.0
55.246,1.046,2.855,62.0
128.297,2.456,5.941,13.0
127.946,2.475,5.252,14.0
127.993,2.501,4.581,29.0
62.308,1.227,3.981,86.0
54.615,1.086,3.2,39.0
55.31,1.111,2.95,65.0
128.801,2.614,6.177,12.0
127.812,2.62,5.455,26.0
128.025,2.65,4.79,46.0
62.272,1.299,4.08,101.0
54.464,1.147,3.281,39.0
55.28,1.176,3.038,30.0
125.665,2.699,6.229,17.0
127.689,2.769,5.656,28.0
152.448,3.338,5.95,30.0
62.252,1.374,4.18,24.0
54.434,1.212,3.366,57.0
55.092,1.238,3.115,29.0
122.912,2.789,6.289,36.0
127.499,2.92,5.849,23.0
130.794,3.023,5.31,11.0
53.776,1.252,3.695,74.0
55.541,1.305,3.522,71.0
54.741,1.297,3.18,57.0
55.435,1.325,2.922,12.0
127.537,3.077,6.046,17.0
130.658,3.179,5.503,24.0
61.94,1.519,4.351,25.0
53.985,1.335,3.506,34.0
54.431,1.358,3.245,86.0
55.424,1.394,3.005,7.0
122.44,3.106,5.989,36.0
130.149,3.332,5.679,21.0
55.892,1.441,4.011,43.0
0.0,0.0,0.0,0.0
54.376,1.425,3.323,102.0
122.213,3.231,6.807,21.0
122.612,3.268,6.179,39.0
130.066,3.495,5.865,11.0
73.709,1.995,5.399,15.0
55.787,1.522,3.788,25.0
54.32,1.494,3.399,78.0
126.153,3.498,7.211,14.0
122.757,3.43,6.362,29.0
122.981,3.464,5.721,16.0
55.84,1.585,4.17,18.0
73.953,2.115,5.128,43.0
54.275,1.563,3.473,83.0
124.205,3.606,7.274,31.0
122.97,3.597,6.546,29.0
122.942,3.624,5.89,47.0
55.838,1.658,4.248,67.0
73.844,2.208,5.222,41.0
54.316,1.636,3.55,73.0
73.837,2.241,4.425,9.0
125.469,3.837,6.85,17.0
133.77,4.121,6.59,20.0
55.815,1.732,4.322,112.0
73.828,2.307,5.321,37.0
54.981,1.73,3.667,71.0
74.031,2.346,4.535,7.0
74.072,2.364,4.142,36.0
124.84,4.012,6.313,14.0
55.84,1.807,4.397,19.0
73.765,2.404,5.413,42.0
73.54,2.413,5.002,21.0
64.897,2.145,4.06,9.0
73.842,2.457,4.224,31.0
125.191,4.195,6.491,22.0
71.972,2.429,5.761,26.0
65.197,2.214,4.868,22.0
73.687,2.519,5.105,7.0
54.256,1.866,3.462,45.0
73.627,2.55,4.303,40.0
73.828,2.574,3.919,35.0
71.84,2.523,5.839,10.0
62.121,2.196,4.715,7.0
65.261,2.322,4.602,3.0
54.224,1.941,3.526,67.0
73.57,2.65,4.389,20.0
73.668,2.671,3.999,40.0
62.183,2.272,5.13,104.0
64.591,2.374,4.98,21.0
54.254,2.006,3.89,61.0
54.202,2.017,3.589,27.0
64.704,2.422,3.937,33.0
73.392,2.764,4.071,42.0
64.545,2.449,5.4,17.0
54.349,2.074,4.253,75.0
53.91,2.07,3.928,68.0
65.288,2.522,4.398,28.0
73.314,2.849,4.544,31.0
73.315,2.865,4.149,14.0
55.467,2.184,4.704,5.0
53.644,2.124,4.258,75.0
65.369,2.603,4.836,29.0
73.569,2.946,5.038,21.0
73.198,2.949,4.617,23.0
73.584,2.982,4.245,18.0
53.35,2.178,4.583,17.0
54.091,2.22,4.354,47.0
65.599,2.708,4.924,19.0
73.505,3.05,5.112,33.0
73.331,3.06,4.703,14.0
65.172,2.735,3.828,13.0
54.488,2.303,4.738,43.0
64.619,2.746,5.268,27.0
71.384,3.05,5.432,10.0
73.441,3.155,5.183,13.0
73.389,3.169,4.782,32.0
73.285,3.182,4.379,33.0
54.603,2.388,4.804,37.0
64.596,2.84,5.331,32.0
64.258,2.84,4.954,34.0
64.972,2.887,4.65,17.0
65.165,2.91,4.31,4.0
73.24,3.288,4.447,30.0
65.011,2.939,5.783,15.0
64.515,2.931,5.387,31.0
74.057,3.382,5.781,33.0
65.676,3.015,4.762,9.0
122.915,5.67,8.245,21.0
73.533,3.409,4.534,13.0
54.951,2.566,4.939,30.0
64.968,3.049,5.485,40.0
73.941,3.487,5.839,10.0
64.795,3.071,4.758,6.0
73.557,3.502,5.0,18.0
149.35,7.147,9.341,15.0
68.025,3.279,6.176,17.0
64.778,3.137,5.527,21.0
73.953,3.597,5.905,30.0
123.835,6.055,9.2,24.0
73.543,3.612,5.063,31.0
127.614,6.298,8.091,10.0
64.18,3.19,5.881,12.0
68.014,3.395,5.86,13.0
64.706,3.244,5.22,16.0
123.735,6.232,9.293,33.0
73.669,3.727,5.13,14.0
150.695,7.659,9.674,18.0
64.038,3.277,5.919,25.0
64.775,3.329,5.632,26.0
74.102,3.825,6.036,25.0
124.521,6.457,9.45,34.0
124.606,6.489,8.774,24.0
155.061,8.112,10.072,11.0
64.177,3.381,5.981,26.0
64.356,3.405,5.644,39.0
74.47,3.956,6.122,34.0
78.188,4.172,5.991,3.0
71.537,3.833,5.089,22.0
154.875,8.336,10.172,22.0
41.42,2.245,3.89,34.0
64.295,3.499,5.684,27.0
55.662,3.041,4.615,6.0
71.565,3.926,5.533,2.0
71.784,3.954,5.156,48.0
124.636,6.894,8.269,17.0
63.897,3.559,6.044,10.0
64.419,3.602,5.738,30.0
55.398,3.109,4.629,6.0
78.329,4.413,6.106,32.0
71.437,4.041,5.176,37.0
71.897,4.083,4.814,9.0
41.369,2.365,3.939,40.0
64.352,3.693,5.772,18.0
64.676,3.726,5.443,16.0
75.568,4.37,5.936,6.0
71.607,4.157,5.231,40.0
124.93,7.28,8.44,28.0
41.482,2.434,3.974,67.0
64.122,3.775,5.788,39.0
64.659,3.821,5.479,15.0
75.53,4.481,5.975,6.0
78.584,4.679,5.784,22.0
127.154,7.599,8.659,12.0
41.479,2.496,3.996,72.0
63.858,3.856,5.798,30.0
64.428,3.904,5.493,27.0
64.553,3.925,5.141,38.0
78.636,4.8,5.828,43.0
67.096,4.109,4.603,25.0
63.576,3.92,6.157,18.0
65.098,4.027,5.943,15.0
64.456,4.001,5.526,39.0
64.578,4.022,5.173,25.0
78.529,4.908,5.856,35.0
67.27,4.219,4.645,29.0
63.377,4.002,6.166,20.0
70.222,4.449,6.442,13.0
64.744,4.115,5.58,28.0
65.089,4.15,5.241,18.0
67.266,4.304,5.044,26.0
67.307,4.321,4.676,43.0
63.374,4.096,6.193,15.0
70.403,4.566,6.487,29.0
65.052,4.231,5.632,40.0
65.545,4.277,5.304,41.0
0.0,0.0,0.0,0.0
67.242,4.416,4.696,37.0
54.362,3.595,5.332,12.0
70.345,4.665,6.507,9.0
64.929,4.319,5.644,34.0
65.049,4.341,5.286,32.0
0.0,0.0,0.0,0.0
67.211,4.513,4.716,43.0
70.717,4.781,6.959,21.0
70.568,4.784,6.55,27.0
64.922,4.414,5.664,40.0
65.218,4.447,5.319,29.0
65.629,4.489,4.988,40.0
67.253,4.614,4.738,39.0
65.145,4.499,6.429,29.0
70.697,4.896,6.581,46.0
64.077,4.449,5.607,39.0
65.004,4.527,5.319,40.0
65.779,4.595,5.016,40.0
67.342,4.718,4.761,28.0
65.118,4.592,6.441,13.0
71.001,5.02,6.626,40.0
63.933,4.533,5.609,39.0
64.017,4.551,5.251,39.0
65.199,4.648,4.985,33.0
71.082,5.081,5.039,14.0
67.736,4.874,6.714,10.0
71.103,5.13,6.648,16.0
63.973,4.627,5.623,22.0
63.916,4.635,5.255,39.0
65.064,4.731,4.985,39.0
67.443,4.918,4.791,27.0
38.854,2.852,3.857,61.0
64.355,4.736,6.027,26.0
64.027,4.723,5.637,34.0
63.451,4.693,5.224,38.0
64.648,4.794,4.961,39.0
70.888,5.27,5.044,15.0
67.582,5.057,6.716,16.0
64.023,4.801,6.002,39.0
63.962,4.808,5.637,39.0
63.367,4.775,5.223,38.0
64.641,4.884,4.966,33.0
67.881,5.141,4.835,30.0
38.705,2.95,3.848,30.0
64.025,4.892,6.006,23.0
64.037,4.904,5.647,39.0
63.445,4.87,5.232,28.0
65.35,5.028,5.022,32.0
67.874,5.235,4.837,30.0
38.626,2.998,3.842,66.0
38.653,3.007,3.626,31.0
64.054,4.993,5.649,39.0
63.492,4.961,5.236,16.0
65.988,5.168,5.071,41.0
67.822,5.323,4.832,18.0
38.579,3.047,3.836,43.0
63.833,5.052,5.987,26.0
64.414,5.11,5.678,31.0
63.659,5.06,5.247,25.0
65.614,5.227,5.039,40.0
68.007,5.431,4.841,19.0
64.542,5.186,6.413,18.0
64.306,5.177,6.027,40.0
64.286,5.187,5.662,39.0
65.877,5.326,5.424,18.0
66.84,5.414,5.128,42.0
67.798,5.505,4.82,12.0
38.75,3.165,3.846,32.0
65.316,5.346,6.114,41.0
64.039,5.252,5.632,39.0
65.929,5.417,5.42,31.0
66.947,5.512,5.127,42.0
75.772,6.252,5.376,13.0
64.592,5.362,6.402,10.0
64.635,5.376,6.04,10.0
64.076,5.339,5.626,39.0
66.106,5.518,5.423,11.0
66.509,5.563,5.081,23.0
76.161,6.383,5.39,27.0
47.938,4.042,4.742,12.0
64.76,5.47,6.039,12.0
47.595,4.027,4.169,21.0
66.429,5.631,5.436,37.0
66.079,5.612,5.034,40.0
65.527,5.576,4.623,9.0
47.828,4.093,4.721,43.0
47.298,4.055,4.399,18.0
47.62,4.09,4.159,39.0
66.383,5.711,5.416,42.0
66.194,5.705,5.026,29.0
65.535,5.658,4.607,10.0
47.767,4.148,4.702,5.0
47.428,4.126,4.398,21.0
47.538,4.142,4.139,52.0
65.993,5.76,5.365,25.0
66.337,5.8,5.018,41.0
65.577,5.743,4.59,11.0
62.28,5.486,6.11,15.0
47.523,4.192,4.392,21.0
47.612,4.207,4.13,34.0
70.894,6.274,5.74,17.0
66.374,5.883,4.999,34.0
65.621,5.827,4.571,16.0
47.934,4.28,4.686,39.0
47.631,4.259,4.385,41.0
47.696,4.271,4.12,33.0
66.439,5.96,5.355,19.0
66.321,5.958,4.97,41.0
65.584,5.901,4.544,15.0
61.944,5.605,6.032,24.0
47.685,4.321,4.371,34.0
47.668,4.325,4.099,27.0
66.4,6.033,5.326,20.0
65.89,5.996,4.911,36.0
65.717,5.99,4.525,19.0
47.422,4.346,4.598,22.0
47.88,4.394,4.368,9.0
47.658,4.379,4.077,13.0
66.026,6.075,5.266,15.0
13.843,1.275,1.025,2.0
13.844,1.277,0.947,9.0
13.902,1.289,1.341,11.0
13.874,1.288,1.259,12.0
13.854,1.288,1.178,10.0
13.8,1.285,1.094,9.0
13.842,1.29,1.018,12.0
13.83,1.291,0.939,22.0
13.859,1.301,1.33,19.0
13.839,1.3,1.249,15.0
13.826,1.301,1.169,14.0
13.797,1.3,1.086,23.0
13.814,1.303,1.009,26.0
13.812,1.304,0.93,28.0
13.837,1.314,1.32,27.0
13.803,1.312,1.238,24.0
13.789,1.312,1.158,23.0
13.799,1.314,1.079,32.0
13.806,1.317,1.001,28.0
13.797,1.318,0.922,32.0
13.821,1.326,1.311,33.0
13.808,1.327,1.231,36.0
13.786,1.326,1.15,33.0
13.788,1.328,1.07,31.0
13.793,1.33,0.992,26.0
13.792,1.331,0.913,37.0
13.812,1.34,1.302,38.0
13.798,1.34,1.221,88.0
13.771,1.338,1.14,81.0
13.777,1.34,1.06,35.0
13.776,1.342,0.982,34.0
13.779,1.344,0.904,35.0
13.809,1.353,1.292,40.0
13.785,1.352,1.211,150.0
13.77,1.352,1.131,150.0
13.768,1.353,1.051,65.0
13.76,1.353,0.972,37.0
13.765,1.355,0.894,34.0
13.793,1.365,1.281,38.0
13.783,1.365,1.201,150.0
13.768,1.365,1.121,134.0
13.752,1.364,1.04,39.0
13.761,1.366,0.962,39.0
13.764,1.368,0.884,37.0
13.774,1.375,1.27,32.0
13.778,1.377,1.191,145.0
13.768,1.377,1.111,148.0
13.745,1.376,1.029,30.0
13.758,1.379,0.952,39.0
13.749,1.379,0.873,37.0
13.771,1.388,1.259,32.0
13.776,1.389,1.181,101.0
13.754,1.388,1.1,150.0
13.735,1.387,1.018,28.0
13.759,1.391,0.941,81.0
13.76,1.392,0.863,38.0
13.78,1.4,1.249,38.0
13.768,1.4,1.169,86.0
13.743,1.398,1.088,150.0
13.745,1.4,1.008,31.0
13.754,1.402,0.93,77.0
13.75,1.402,0.851,37.0
13.774,1.411,1.237,44.0
13.759,1.41,1.157,71.0
13.74,1.409,1.077,150.0
13.742,1.41,0.997,31.0
13.756,1.413,0.919,84.0
13.753,1.413,0.84,40.0
13.778,1.422,1.226,76.0
13.762,1.421,1.146,94.0
13.747,1.42,1.066,150.0
13.748,1.421,0.985,39.0
13.749,1.422,0.907,67.0
13.759,1.424,0.829,47.0
13.779,1.432,1.214,80.0
13.755,1.43,1.133,79.0
13.746,1.43,1.054,121.0
13.752,1.432,0.974,101.0
13.749,1.432,0.895,77.0
13.761,1.435,0.817,56.0
13.773,1.441,1.202,41.0
13.753,1.44,1.121,50.0
13.749,1.44,1.041,76.0
13.756,1.442,0.962,125.0
13.757,1.443,0.883,108.0
13.76,1.444,0.804,59.0
13.781,1.451,1.189,38.0
13.754,1.449,1.108,145.0
13.755,1.45,1.029,147.0
13.754,1.451,0.948,122.0
13.753,1.451,0.869,80.0
13.758,1.452,0.791,49.0
13.766,1.459,1.175,29.0
13.75,1.457,1.094,146.0
13.759,1.459,1.016,150.0
13.749,1.458,0.935,107.0
13.757,1.46,0.857,106.0
13.759,1.461,0.778,39.0
13.742,1.464,1.16,19.0
13.751,1.466,1.081,120.0
13.76,1.467,1.003,150.0
13.751,1.466,0.922,103.0
13.757,1.468,0.843,112.0
13.771,1.47,0.765,39.0
13.738,1.471,1.146,24.0
13.76,1.474,1.068,132.0
13.761,1.474,0.989,150.0
13.75,1.474,0.908,125.0
13.762,1.476,0.83,91.0
13.773,1.477,0.751,38.0
13.75,1.479,1.133,37.0
13.772,1.482,1.055,93.0
13.766,1.482,0.975,140.0
13.755,1.481,0.894,104.0
13.765,1.482,0.816,92.0
13.773,1.484,0.737,37.0
13.747,1.486,1.118,40.0
13.774,1.489,1.041,150.0
13.759,1.487,0.961,104.0
13.742,1.486,0.879,38.0
13.766,1.489,0.801,91.0
13.773,1.49,0.723,35.0
13.754,1.492,1.104,49.0
13.775,1.495,1.026,126.0
13.756,1.493,0.945,132.0
13.732,1.49,0.864,28.0
13.772,1.495,0.787,80.0
13.778,1.496,0.708,34.0
13.762,1.498,1.089,44.0
13.769,1.499,1.011,138.0
13.759,1.498,0.931,145.0
13.744,1.497,0.849,33.0
13.768,1.499,0.772,47.0
13.781,1.501,0.693,34.0
13.764,1.503,1.074,70.0
13.775,1.504,0.996,121.0
13.751,1.502,0.915,150.0
13.749,1.502,0.834,49.0
13.779,1.505,0.757,38.0
13.787,1.506,0.678,32.0
13.768,1.508,1.059,94.0
13.784,1.509,0.981,60.0
13.741,1.505,0.899,150.0
13.753,1.506,0.819,77.0
13.785,1.51,0.742,35.0
13.794,1.511,0.663,32.0
13.784,1.513,1.045,41.0
13.76,1.51,0.963,37.0
13.744,1.508,0.883,126.0
13.757,1.51,0.803,59.0
13.783,1.513,0.726,34.0
13.796,1.514,0.647,30.0
13.783,1.516,1.029,40.0
13.758,1.513,0.947,67.0
13.743,1.511,0.867,39.0
13.769,1.514,0.788,39.0
13.789,1.516,0.71,33.0
13.794,1.516,0.631,29.0
13.78,1.518,1.012,39.0
13.76,1.515,0.931,126.0
13.749,1.514,0.851,39.0
13.77,1.516,0.772,37.0
13.795,1.519,0.694,33.0
13.803,1.52,0.615,28.0
13.783,1.52,0.996,39.0
13.756,1.517,0.914,135.0
13.758,1.517,0.835,107.0
13.783,1.519,0.756,36.0
13.811,1.522,0.678,32.0
13.802,1.521,0.599,27.0
13.78,1.521,0.979,35.0
13.761,1.518,0.898,150.0
13.765,1.518,0.819,132.0
13.797,1.522,0.74,35.0
13.809,1.523,0.661,31.0
13.801,1.521,0.582,26.0
13.766,1.52,0.961,33.0
13.758,1.518,0.881,147.0
13.764,1.519,0.802,99.0
13.786,1.521,0.723,32.0
13.811,1.523,0.644,32.0
13.799,1.521,0.565,25.0
13.761,1.519,0.944,39.0
13.756,1.518,0.864,68.0
13.767,1.519,0.785,54.0
13.796,1.521,0.706,32.0
13.798,1.521,0.627,29.0
13.803,1.521,0.548,25.0
13.755,1.518,0.926,40.0
13.759,1.518,0.847,81.0
13.789,1.52,0.769,39.0
13.785,1.519,0.688,31.0
13.796,1.52,0.61,28.0
13.797,1.52,0.53,24.0
13.745,1.515,0.908,72.0
13.77,1.517,0.83,132.0
13.786,1.518,0.752,38.0
13.802,1.519,0.672,32.0
13.797,1.518,0.592,28.0
13.796,1.518,0.513,25.0
13.746,1.514,0.891,72.0
13.768,1.515,0.813,150.0
13.786,1.516,0.734,37.0
13.795,1.517,0.654,33.0
13.793,1.516,0.575,28.0
13.796,1.515,0.496,27.0
13.754,1.512,0.874,39.0
13.774,1.513,0.795,134.0
13.792,1.514,0.717,37.0
13.795,1.514,0.637,31.0
13.799,1.513,0.557,28.0
13.796,1.513,0.478,29.0
13.758,1.509,0.856,38.0
13.781,1.51,0.778,97.0
13.785,1.51,0.699,36.0
13.788,1.509,0.619,31.0
13.797,1.51,0.54,30.0
13.793,1.509,0.46,30.0
13.758,1.505,0.839,64.0
13.787,1.507,0.761,93.0
13.782,1.506,0.681,37.0
13.784,1.505,0.601,32.0
13.802,1.506,0.522,32.0
13.793,1.504,0.443,31.0
13.757,1.501,0.821,58.0
13.789,1.503,0.743,68.0
13.777,1.5,0.663,48.0
13.788,1.501,0.583,34.0
13.793,1.5,0.504,33.0
13.791,1.499,0.425,32.0
13.769,1.497,0.804,90.0
13.791,1.498,0.726,82.0
13.778,1.495,0.646,39.0
13.785,1.495,0.566,36.0
13.79,1.495,0.486,35.0
13.789,1.494,0.407,32.0
13.774,1.492,0.786,72.0
13.78,1.491,0.707,92.0
13.778,1.489,0.628,38.0
13.771,1.488,0.547,38.0
13.784,1.488,0.469,37.0
13.783,1.487,0.389,33.0
13.775,1.485,0.769,86.0
13.777,1.484,0.69,118.0
13.777,1.483,0.61,42.0
13.776,1.482,0.529,38.0
13.779,1.481,0.451,38.0
13.787,1.48,0.372,34.0
13.775,1.478,0.751,84.0
13.785,1.478,0.672,114.0
13.771,1.475,0.592,82.0
13.768,1.474,0.512,39.0
13.778,1.473,0.433,40.0
13.78,1.472,0.354,35.0
13.774,1.471,0.733,77.0
13.776,1.469,0.654,134.0
13.771,1.467,0.574,125.0
13.77,1.466,0.494,40.0
13.775,1.465,0.415,44.0
13.774,1.464,0.336,35.0
13.773,1.462,0.715,81.0
13.77,1.46,0.636,55.0
13.771,1.459,0.557,149.0
13.774,1.458,0.476,65.0
13.782,1.457,0.397,52.0
13.774,1.455,0.318,34.0
13.773,1.453,0.697,73.0
13.759,1.45,0.617,46.0
13.772,1.45,0.539,148.0
13.77,1.448,0.458,55.0
13.778,1.448,0.38,62.0
13.765,1.445,0.3,34.0
13.763,1.443,0.679,65.0
13.765,1.441,0.6,79.0
13.77,1.44,0.521,140.0
13.774,1.439,0.441,58.0
13.777,1.438,0.362,54.0
13.758,1.434,0.283,34.0
13.773,1.434,0.662,60.0
13.771,1.432,0.583,123.0
13.778,1.431,0.504,149.0
13.778,1.429,0.424,59.0
13.773,1.427,0.345,42.0
13.75,1.423,0.265,35.0
13.768,1.423,0.644,37.0
13.778,1.422,0.566,150.0
13.77,1.419,0.486,143.0
13.778,1.418,0.406,54.0
13.772,1.416,0.327,43.0
13.758,1.413,0.248,37.0
13.752,1.41,0.626,37.0
13.78,1.411,0.548,150.0
13.771,1.408,0.469,150.0
13.776,1.407,0.389,48.0
13.763,1.403,0.31,47.0
13.761,1.402,0.231,37.0
13.753,1.398,0.609,38.0
13.777,1.398,0.531,150.0
13.783,1.397,0.452,150.0
13.776,1.394,0.372,53.0
13.767,1.392,0.293,39.0
13.762,1.39,0.214,36.0
13.769,1.387,0.593,38.0
13.779,1.386,0.514,150.0
13.784,1.385,0.435,140.0
13.775,1.382,0.355,50.0
13.779,1.38,0.276,47.0
13.774,1.378,0.197,36.0
13.776,1.375,0.576,65.0
13.794,1.374,0.498,124.0
13.788,1.372,0.419,128.0
13.783,1.369,0.338,39.0
13.78,1.367,0.259,43.0
13.773,1.364,0.181,37.0
13.786,1.362,0.56,59.0
13.805,1.362,0.481,135.0
13.798,1.359,0.402,98.0
13.772,1.354,0.321,37.0
13.788,1.354,0.243,38.0
13.785,1.352,0.164,34.0
13.804,1.35,0.544,41.0
13.805,1.347,0.465,83.0
13.793,1.344,0.385,72.0
13.783,1.341,0.305,34.0
13.795,1.34,0.226,36.0
13.796,1.338,0.148,34.0
13.808,1.335,0.527,37.0
13.822,1.334,0.449,61.0
13.804,1.33,0.369,39.0
13.799,1.327,0.289,34.0
13.811,1.326,0.21,34.0
13.808,1.324,0.131,34.0
13.827,1.321,0.511,36.0
13.829,1.319,0.433,40.0
13.818,1.316,0.353,37.0
13.815,1.313,0.273,33.0
13.822,1.312,0.194,30.0
13.834,1.31,0.116,32.0
13.837,1.306,0.496,34.0
13.841,1.304,0.417,35.0
13.83,1.301,0.338,33.0
13.825,1.298,0.257,24.0
13.845,1.298,0.179,26.0
13.839,1.295,0.1,26.0
13.843,1.291,0.48,22.0
13.838,1.287,0.401,24.0
13.83,1.284,0.322,19.0
13.85,1.284,0.242,13.0
13.855,1.282,0.163,15.0
13.864,1.28,0.084,15.0
13.864,1.275,0.465,6.0
27.698,2.543,0.772,61.0
27.692,2.537,0.614,5.0
27.691,2.532,0.453,17.0
27.742,2.532,0.296,4.0
13.881,1.264,0.069,5.0
27.704,2.514,0.899,5.0
27.619,2.5,0.739,170.0
27.644,2.498,0.582,43.0
27.643,2.492,0.422,49.0
27.661,2.489,0.265,34.0
27.828,2.499,0.108,11.0
27.64,2.472,0.867,24.0
27.61,2.464,0.709,73.0
27.616,2.459,0.552,44.0
27.601,2.452,0.392,48.0
27.607,2.447,0.235,33.0
27.817,2.461,0.079,18.0
27.592,2.43,0.836,21.0
27.574,2.423,0.679,35.0
27.597,2.419,0.522,40.0
27.588,2.413,0.362,48.0
27.591,2.408,0.205,29.0
27.794,2.42,0.049,23.0
27.606,2.393,0.807,157.0
27.582,2.385,0.65,50.0
27.558,2.377,0.492,37.0
27.562,2.372,0.333,49.0
27.668,2.376,0.177,21.0
27.813,2.383,0.02,16.0
27.553,2.349,0.777,175.0
27.555,2.343,0.621,37.0
27.562,2.338,0.464,47.0
27.54,2.331,0.305,45.0
27.703,2.339,0.149,15.0
27.852,2.345,-0.007,20.0
27.537,2.308,0.749,168.0
27.562,2.304,0.593,46.0
27.545,2.296,0.437,50.0
27.536,2.29,0.278,55.0
27.688,2.297,0.122,19.0
27.69,2.291,-0.034,22.0
27.591,2.272,0.724,155.0
27.541,2.261,0.566,56.0
27.536,2.255,0.41,59.0
27.548,2.25,0.251,41.0
27.68,2.255,0.096,20.0
27.679,2.249,-0.06,29.0
27.551,2.226,0.696,51.0
27.553,2.22,0.54,54.0
27.57,2.215,0.385,50.0
27.561,2.208,0.225,37.0
27.694,2.213,0.07,34.0
27.682,2.206,-0.086,32.0
27.578,2.185,0.671,52.0
27.575,2.178,0.515,52.0
27.586,2.173,0.359,35.0
27.637,2.171,0.201,25.0
27.73,2.172,0.044,24.0
27.718,2.165,-0.111,17.0
27.584,2.142,0.647,55.0
27.588,2.136,0.49,38.0
27.619,2.132,0.335,21.0
27.71,2.133,0.177,20.0
41.932,3.218,0.03,16.0
35.61,2.725,-0.175,34.0
27.604,2.099,0.623,36.0
27.662,2.097,0.468,75.0
27.698,2.093,0.312,28.0
55.427,4.176,0.306,29.0
41.503,3.117,-0.005,42.0
35.355,2.647,-0.204,24.0
66.534,4.951,1.445,123.0
103.79,7.699,1.669,12.0
74.453,5.504,0.776,30.0
54.311,4.002,0.254,29.0
41.299,3.033,-0.039,39.0
0.0,0.0,0.0,0.0
139.644,10.158,2.919,22.0
139.617,10.12,2.13,13.0
74.229,5.361,0.713,46.0
53.897,3.88,0.208,19.0
41.002,2.941,-0.072,24.0
35.044,2.505,-0.259,9.0
139.638,9.917,2.807,26.0
114.851,8.127,1.66,2.0
74.02,5.218,0.652,51.0
47.208,3.316,0.145,21.0
38.787,2.715,-0.098,4.0
35.068,2.446,-0.287,8.0
114.708,7.945,2.217,13.0
113.701,7.846,1.557,5.0
73.801,5.074,0.595,21.0
0.0,0.0,0.0,0.0
36.443,2.487,-0.12,30.0
0.0,0.0,0.0,0.0
139.608,9.426,2.596,9.0
85.216,5.73,1.105,5.0
73.597,4.929,0.54,10.0
42.666,2.846,0.068,12.0
36.257,2.409,-0.145,38.0
35.102,2.323,-0.338,1.0
139.589,9.173,2.497,40.0
81.005,5.301,0.993,6.0
58.06,3.784,0.385,12.0
42.196,2.738,0.038,17.0
35.892,2.319,-0.168,40.0
32.286,2.078,-0.333,1.0
139.614,8.92,2.402,58.0
78.201,4.974,0.906,7.0
33.436,2.117,0.199,1.0
41.831,2.638,0.01,17.0
33.201,2.085,-0.177,3.0
31.436,1.965,-0.344,1.0
33.468,2.076,0.554,152.0
33.437,2.065,0.365,22.0
33.439,2.055,0.178,2.0
41.415,2.534,-0.015,43.0
35.616,2.17,-0.213,22.0
30.849,1.871,-0.357,2.0
148.173,8.915,2.362,5.0
0.0,0.0,0.0,0.0
54.837,3.268,0.259,29.0
40.968,2.43,-0.039,42.0
35.438,2.092,-0.233,9.0
30.607,1.799,-0.372,2.0
0.0,0.0,0.0,0.0
75.619,4.385,0.738,18.0
54.442,3.141,0.226,28.0
40.405,2.32,-0.062,15.0
35.406,2.023,-0.252,11.0
30.352,1.726,-0.386,3.0
106.095,5.981,1.572,1.0
75.286,4.222,0.694,19.0
54.253,3.027,0.197,21.0
40.667,2.257,-0.084,20.0
35.434,1.956,-0.271,9.0
29.921,1.643,-0.396,2.0
105.847,5.762,1.514,5.0
74.798,4.05,0.652,22.0
54.148,2.916,0.169,8.0
40.374,2.162,-0.103,33.0
35.42,1.887,-0.288,9.0
29.639,1.57,-0.406,2.0
105.837,5.555,1.464,55.0
0.0,0.0,0.0,0.0
48.135,2.497,0.128,24.0
40.238,2.075,-0.121,18.0
0.0,0.0,0.0,0.0
29.398,1.499,-0.416,1.0
82.423,4.163,1.102,3.0
73.819,3.705,0.575,18.0
47.95,2.392,0.106,25.0
40.139,1.991,-0.138,4.0
33.674,1.66,-0.303,2.0
29.145,1.428,-0.425,2.0
82.219,3.99,1.066,6.0
73.554,3.547,0.544,12.0
0.0,0.0,0.0,0.0
36.665,1.746,-0.14,23.0
0.0,0.0,0.0,0.0
28.85,1.356,-0.431,1.0
82.375,3.832,1.038,7.0
73.584,3.401,0.517,11.0
0.0,0.0,0.0,0.0
36.52,1.665,-0.152,37.0
32.659,1.479,-0.318,1.0
28.742,1.293,-0.44,3.0
92.894,4.133,1.139,4.0
73.646,3.254,0.493,10.0
0.0,0.0,0.0,0.0
36.485,1.589,-0.164,32.0
32.454,1.403,-0.326,1.0
28.596,1.227,-0.446,1.0
79.718,3.385,0.953,7.0
59.256,2.497,0.379,24.0
0.0,0.0,0.0,0.0
36.488,1.515,-0.174,38.0
32.305,1.331,-0.334,1.0
28.404,1.161,-0.451,1.0
79.626,3.217,0.931,10.0
59.236,2.375,0.364,25.0
0.0,0.0,0.0,0.0
36.449,1.438,-0.183,34.0
31.158,1.219,-0.329,2.0
28.309,1.099,-0.456,1.0
79.481,3.048,0.911,10.0
59.348,2.258,0.351,33.0
47.341,1.785,0.018,22.0
36.478,1.363,-0.191,32.0
31.878,1.181,-0.344,1.0
28.21,1.037,-0.46,1.0
78.303,2.841,0.882,6.0
59.352,2.135,0.34,33.0
47.126,1.68,0.009,22.0
36.533,1.29,-0.198,31.0
31.845,1.115,-0.349,1.0
28.084,0.974,-0.463,1.0
78.736,2.695,0.875,10.0
59.37,2.012,0.332,34.0
0.0,0.0,0.0,0.0
36.617,1.216,-0.203,30.0
31.594,1.039,-0.35,1.0
27.981,0.912,-0.464,1.0
78.961,2.537,0.868,15.0
59.284,1.884,0.324,33.0
47.12,1.482,-0.001,22.0
36.724,1.143,-0.208,29.0
31.644,0.975,-0.353,1.0
27.863,0.849,-0.465,1.0
78.526,2.357,0.857,13.0
59.503,1.767,0.321,34.0
0.0,0.0,0.0,0.0
36.774,1.067,-0.21,30.0
31.602,0.907,-0.355,1.0
27.891,0.791,-0.467,1.0
78.402,2.189,0.852,12.0
0.0,0.0,0.0,0.0
0.0,0.0,0.0,0.0
36.91,0.993,-0.212,30.0
31.626,0.841,-0.356,1.0
27.855,0.731,-0.466,1.0
78.917,2.037,0.857,12.0
59.227,1.508,0.317,9.0
0.0,0.0,0.0,0.0
37.005,0.917,-0.212,30.0
31.751,0.777,-0.356,1.0
27.883,0.673,-0.466,1.0
79.979,1.896,0.871,13.0
60.505,1.415,0.326,35.0
0.0,0.0,0.0,0.0
37.109,0.843,-0.211,31.0
31.813,0.712,-0.355,1.0
27.976,0.616,-0.466,1.0
80.47,1.739,0.882,13.0
60.686,1.29,0.332,35.0
0.0,0.0,0.0,0.0
37.285,0.767,-0.208,31.0
31.931,0.646,-0.354,1.0
28.016,0.557,-0.464,1.0
89.787,1.749,0.994,10.0
61.051,1.169,0.341,35.0
0.0,0.0,0.0,0.0
37.476,0.691,-0.205,37.0
32.101,0.581,-0.351,1.0
28.136,0.5,-0.462,1.0
89.75,1.558,1.006,6.0
61.547,1.047,0.353,35.0
46.717,0.779,0.012,33.0
37.678,0.615,-0.2,39.0
32.436,0.518,-0.349,2.0
28.34,0.443,-0.46,1.0
89.741,1.368,1.022,6.0
62.087,0.925,0.367,23.0
47.067,0.685,0.021,38.0
37.904,0.538,-0.193,42.0
32.457,0.449,-0.343,1.0
28.538,0.385,-0.457,2.0
48.192,0.632,0.559,8.0
48.071,0.614,0.295,83.0
47.243,0.587,0.032,46.0
38.103,0.46,-0.185,43.0
32.737,0.383,-0.338,1.0
28.689,0.326,-0.452,1.0
48.094,0.528,0.57,108.0
48.05,0.51,0.308,102.0
47.557,0.489,0.045,49.0
38.398,0.381,-0.176,48.0
33.015,0.316,-0.331,1.0
28.897,0.266,-0.447,2.0
48.067,0.425,0.584,113.0
48.046,0.408,0.322,100.0
47.804,0.388,0.06,57.0
38.776,0.301,-0.165,47.0
33.265,0.247,-0.323,1.0
29.108,0.206,-0.441,2.0
48.163,0.323,0.602,51.0
48.208,0.307,0.34,38.0
54.662,0.329,0.088,8.0
39.172,0.221,-0.153,46.0
33.624,0.178,-0.314,1.0
29.263,0.144,-0.432,2.0
79.436,0.365,1.022,31.0
76.761,0.326,0.57,56.0
54.239,0.211,0.108,28.0
39.599,0.14,-0.139,38.0
34.317,0.109,-0.307,0.0
29.534,0.083,-0.425,2.0
79.47,0.196,1.055,151.0
76.706,0.164,0.602,14.0
54.35,0.096,0.131,28.0
40.399,0.057,-0.125,17.0
37.737,0.041,-0.321,2.0
29.735,0.022,-0.414,2.0
79.461,0.03,1.09,151.0
79.303,0.001,0.658,54.0
55.695,-0.017,0.16,29.0
41.165,-0.027,-0.108,17.0
38.081,-0.039,-0.306,2.0
30.022,-0.04,-0.404,2.0
79.46,-0.135,1.128,151.0
79.433,-0.163,0.698,150.0
56.147,-0.135,0.189,15.0
42.241,-0.116,-0.09,17.0
39.01,-0.121,-0.294,1.0
30.323,-0.104,-0.393,1.0
79.468,-0.3,1.169,151.0
79.465,-0.328,0.739,151.0
61.331,-0.273,0.238,15.0
46.095,-0.222,-0.074,13.0
39.735,-0.205,-0.278,2.0
30.671,-0.169,-0.38,1.0
79.451,-0.464,1.213,161.0
79.453,-0.493,0.784,180.0
61.347,-0.401,0.273,10.0
46.534,-0.321,-0.047,4.0
40.458,-0.293,-0.26,8.0
31.193,-0.237,-0.368,1.0
79.448,-0.629,1.26,181.0
79.457,-0.658,0.831,185.0
77.177,-0.664,0.391,6.0
53.773,-0.482,-0.022,4.0
0.0,0.0,0.0,0.0
31.994,-0.309,-0.358,1.0
79.433,-0.793,1.309,189.0
79.452,-0.822,0.882,168.0
77.775,-0.831,0.444,9.0
80.126,-0.884,0.018,22.0
42.791,-0.487,-0.22,2.0
32.772,-0.384,-0.345,1.0
79.434,-0.957,1.363,150.0
80.131,-0.992,0.943,15.0
78.863,-1.003,0.503,11.0
60.749,-0.794,0.055,5.0
44.52,-0.597,-0.199,1.0
33.665,-0.463,-0.331,1.0
183.387,-2.578,3.273,70.0
148.421,-2.135,1.85,12.0
91.449,-1.347,0.648,5.0
61.59,-0.928,0.099,5.0
46.382,-0.714,-0.174,4.0
34.541,-0.544,-0.315,1.0
0.0,0.0,0.0,0.0
149.676,-2.456,1.976,5.0
40.268,-0.674,0.315,45.0
40.274,-0.687,0.095,62.0
40.303,-0.702,-0.121,62.0
37.313,-0.662,-0.312,0.0
40.198,-0.725,0.777,68.0
40.27,-0.74,0.562,45.0
40.232,-0.753,0.346,59.0
40.283,-0.767,0.126,44.0
53.576,-1.039,-0.119,0.0
40.182,-0.793,-0.304,2.0
40.225,-0.804,0.809,51.0
40.23,-0.819,0.594,57.0
40.255,-0.833,0.378,11.0
68.248,-1.436,0.27,2.0
0.0,0.0,0.0,0.0
40.224,-0.873,-0.271,5.0
40.211,-0.883,0.842,57.0
40.321,-0.899,0.629,150.0
40.31,-0.912,0.413,36.0
40.294,-0.925,0.193,118.0
40.311,-0.939,-0.022,150.0
40.277,-0.952,-0.237,36.0
40.185,-0.959,0.876,56.0
40.203,-0.974,0.662,67.0
40.205,-0.987,0.447,49.0
40.214,-1.001,0.228,15.0
40.982,-1.033,0.013,0.0
40.995,-1.047,-0.205,150.0
40.206,-1.038,0.913,53.0
40.23,-1.051,0.698,45.0
40.213,-1.064,0.483,45.0
40.176,-1.075,0.264,58.0
40.191,-1.089,0.049,63.0
40.336,-1.107,-0.164,44.0
40.356,-1.117,0.953,2.0
0.0,0.0,0.0,0.0
153.792,-4.359,1.992,15.0
40.205,-1.153,0.302,0.0
40.218,-1.167,0.088,16.0
40.23,-1.18,-0.126,39.0
40.306,-1.191,0.99,28.0
40.333,-1.205,0.776,23.0
40.349,-1.219,0.561,40.0
0.0,0.0,0.0,0.0
0.0,0.0,0.0,0.0
0.0,0.0,0.0,0.0
40.37,-1.268,1.032,1.0
0.0,0.0,0.0,0.0
0.0,0.0,0.0,0.0
0.0,0.0,0.0,0.0
0.0,0.0,0.0,0.0
0.0,0.0,0.0,0.0
0.0,0.0,0.0,0.0
0.0,0.0,0.0,0.0
0.0,0.0,0.0,0.0
0.0,0.0,0.0,0.0
0.0,0.0,0.0,0.0
58.078,-2.023,-0.005,0.0
0.0,0.0,0.0,0.0
0.0,0.0,0.0,0.0
0.0,0.0,0.0,0.0
0.0,0.0,0.0,0.0
0.0,0.0,0.0,0.0
0.0,0.0,0.0,0.0
0.0,0.0,0.0,0.0
0.0,0.0,0.0,0.0
0.0,0.0,0.0,0.0
0.0,0.0,0.0,0.0
0.0,0.0,0.0,0.0
0.0,0.0,0.0,0.0
0.0,0.0,0.0,0.0
0.0,0.0,0.0,0.0
0.0,0.0,0.0,0.0
0.0,0.0,0.0,0.0
0.0,0.0,0.0,0.0
0.0,0.0,0.0,0.0
0.0,0.0,0.0,0.0
0.0,0.0,0.0,0.0
0.0,0.0,0.0,0.0
0.0,0.0,0.0,0.0
0.0,0.0,0.0,0.0
0.0,0.0,0.0,0.0
0.0,0.0,0.0,0.0
0.0,0.0,0.0,0.0
0.0,0.0,0.0,0.0
0.0,0.0,0.0,0.0
0.0,0.0,0.0,0.0
0.0,0.0,0.0,0.0
0.0,0.0,0.0,0.0
0.0,0.0,0.0,0.0
0.0,0.0,0.0,0.0
0.0,0.0,0.0,0.0
0.0,0.0,0.0,0.0
0.0,0.0,0.0,0.0
0.0,0.0,0.0,0.0
0.0,0.0,0.0,0.0
0.0,0.0,0.0,0.0
0.0,0.0,0.0,0.0
0.0,0.0,0.0,0.0
0.0,0.0,0.0,0.0
156.183,-7.459,3.09,30.0
156.026,-7.493,2.263,75.0
0.0,0.0,0.0,0.0
0.0,0.0,0.0,0.0
156.162,-7.7,3.287,9.0
155.621,-7.716,2.454,40.0
0.0,0.0,0.0,0.0
0.0,0.0,0.0,0.0
0.0,0.0,0.0,0.0
156.036,-7.973,2.662,29.0
0.0,0.0,0.0,0.0
0.0,0.0,0.0,0.0
263.503,-13.65,9.035,11.0
0.0,0.0,0.0,0.0
0.0,0.0,0.0,0.0
0.0,0.0,0.0,0.0
211.865,-11.233,8.663,5.0
0.0,0.0,0.0,0.0
0.0,0.0,0.0,0.0
0.0,0.0,0.0,0.0
0.0,0.0,0.0,0.0
0.0,0.0,0.0,0.0
0.0,0.0,0.0,0.0
0.0,0.0,0.0,0.0
228.022,-12.695,3.601,159.0
0.0,0.0,0.0,0.0
212.02,-11.89,8.122,7.0
0.0,0.0,0.0,0.0
0.0,0.0,0.0,0.0
0.0,0.0,0.0,0.0
217.175,-12.389,3.727,6.0
0.0,0.0,0.0,0.0
0.0,0.0,0.0,0.0
244.435,-14.097,8.413,14.0
279.151,-16.165,8.11,18.0
271.757,-15.802,6.468,21.0
0.0,0.0,0.0,0.0
0.0,0.0,0.0,0.0
211.989,-12.46,8.709,9.0
229.174,-13.522,8.208,9.0
271.907,-16.102,8.28,63.0
271.888,-16.164,6.853,130.0
0.0,0.0,0.0,0.0
197.44,-11.816,9.429,5.0
0.0,0.0,0.0,0.0
0.0,0.0,0.0,0.0
244.056,-14.765,7.781,27.0
263.472,-15.998,7.014,150.0
263.434,-16.054,5.63,14.0
157.516,-9.625,7.747,3.0
158.74,-9.733,6.971,4.0
0.0,0.0,0.0,0.0
236.846,-14.62,7.888,22.0
263.318,-16.312,7.388,39.0
265.459,-16.502,6.054,9.0
149.39,-9.311,7.563,5.0
197.521,-12.351,8.961,6.0
0.0,0.0,0.0,0.0
213.367,-13.427,7.414,8.0
248.329,-15.68,7.327,153.0
248.362,-15.733,6.024,162.0
148.236,-9.416,7.72,7.0
164.062,-10.451,7.681,4.0
212.136,-13.556,8.817,18.0
208.464,-13.363,7.548,40.0
209.126,-13.445,6.476,34.0
248.366,-16.019,6.39,255.0
156.245,-10.104,8.368,6.0
149.692,-9.709,7.231,4.0
203.431,-13.234,8.759,10.0
204.583,-13.345,7.713,49.0
209.132,-13.682,6.786,29.0
244.475,-16.042,6.653,23.0
148.511,-9.769,8.176,9.0
149.067,-9.832,7.422,4.0
212.683,-14.066,9.47,9.0
205.088,-13.6,8.036,17.0
208.268,-13.849,7.067,31.0
208.864,-13.928,5.994,30.0
0.0,0.0,0.0,0.0
148.135,-9.927,7.596,6.0
150.178,-10.09,6.913,3.0
0.0,0.0,0.0,0.0
205.016,-13.845,7.263,34.0
208.531,-14.12,6.296,27.0
157.154,-10.668,9.12,9.0
0.0,0.0,0.0,0.0
158.06,-10.78,7.513,16.0
197.591,-13.509,8.334,5.0
203.674,-13.956,7.522,34.0
204.551,-14.052,6.483,33.0
156.576,-10.783,9.324,7.0
148.659,-10.259,8.071,3.0
164.601,-11.385,8.071,12.0
211.577,-14.668,9.244,6.0
195.708,-13.597,7.525,21.0
204.008,-14.207,6.775,46.0
157.487,-10.995,9.619,6.0
162.861,-11.394,9.089,6.0
148.601,-10.417,7.514,10.0
164.381,-11.548,7.433,11.0
195.019,-13.73,7.797,16.0
196.174,-13.842,6.816,24.0
150.414,-10.637,9.418,11.0
157.539,-11.163,9.036,8.0
0.0,0.0,0.0,0.0
156.815,-11.156,7.331,4.0
164.449,-11.721,6.825,38.0
195.137,-13.936,7.075,26.0
162.226,-11.612,10.404,4.0
148.355,-10.639,8.735,10.0
157.252,-11.298,8.433,18.0
158.336,-11.396,7.643,14.0
156.557,-11.288,6.737,7.0
164.487,-11.882,6.215,41.0
159.078,-11.52,10.449,5.0
202.529,-14.689,12.238,7.0
0.0,0.0,0.0,0.0
158.201,-11.512,7.879,5.0
155.643,-11.344,6.935,17.0
197.454,-14.417,7.762,24.0
148.915,-10.898,10.008,4.0
147.16,-10.786,9.116,9.0
150.202,-11.026,8.515,6.0
156.224,-11.486,8.019,7.0
163.561,-12.043,7.539,12.0
197.47,-14.563,8.065,18.0
149.28,-11.035,10.264,10.0
0.0,0.0,0.0,0.0
158.781,-11.77,9.246,6.0
148.817,-11.047,7.868,6.0
158.027,-11.746,7.525,16.0
163.872,-12.199,6.945,23.0
108.857,-8.123,7.653,5.0
149.233,-11.15,9.706,11.0
0.0,0.0,0.0,0.0
150.098,-11.242,8.167,5.0
149.273,-11.195,7.339,4.0
156.373,-11.742,6.869,11.0
108.844,-8.193,7.82,8.0
155.378,-11.708,10.344,11.0
155.537,-11.733,9.535,9.0
146.815,-11.088,8.213,7.0
157.973,-11.944,8.008,18.0
158.051,-11.964,7.183,25.0
148.012,-11.232,10.862,4.0
107.428,-8.159,7.316,2.0
149.367,-11.356,9.387,8.0
155.478,-11.833,8.938,11.0
148.405,-11.307,7.752,6.0
157.847,-12.04,7.418,12.0
148.445,-11.349,11.124,14.0
108.82,-8.327,7.581,15.0
106.7,-8.171,6.871,5.0
149.38,-11.45,8.817,11.0
165.407,-12.69,8.894,6.0
149.116,-11.451,7.236,12.0
148.845,-11.458,11.384,9.0
108.838,-8.384,7.75,4.0
124.038,-9.562,8.178,3.0
149.286,-11.517,9.04,7.0
165.266,-12.76,9.14,11.0
155.856,-12.044,7.799,10.0
105.568,-8.178,8.236,6.0
108.538,-8.412,7.895,5.0
121.097,-9.392,8.169,3.0
151.134,-11.728,9.383,5.0
149.457,-11.606,8.493,10.0
0.0,0.0,0.0,0.0
97.695,-7.61,7.771,3.0
107.967,-8.414,8.018,2.0
108.854,-8.488,7.508,10.0
106.631,-8.319,6.782,6.0
121.624,-9.493,7.096,5.0
148.254,-11.579,7.869,6.0
108.726,-8.513,8.815,5.0
108.388,-8.489,8.214,2.0
98.924,-7.751,6.974,4.0
115.931,-9.087,7.551,3.0
106.446,-8.347,6.372,4.0
148.967,-11.687,8.132,21.0
108.338,-8.521,8.949,4.0
105.654,-8.312,8.168,2.0
108.389,-8.528,7.807,3.0
122.373,-9.632,8.155,5.0
115.379,-9.085,7.081,2.0
158.749,-12.504,8.908,8.0
106.101,-8.377,8.926,9.0
97.707,-7.716,7.701,7.0
162.872,-12.865,11.977,12.0
108.789,-8.593,7.414,8.0
124.099,-9.805,7.802,3.0
121.665,-9.615,7.008,5.0
107.114,-8.486,9.172,3.0
98.283,-7.786,7.895,10.0
100.822,-7.988,7.564,6.0
108.607,-8.606,7.564,7.0
121.458,-9.624,7.817,4.0
106.472,-8.438,6.29,2.0
107.597,-8.548,9.373,4.0
98.463,-7.822,8.054,5.0
108.061,-8.584,8.267,6.0
97.773,-7.765,6.953,7.0
122.411,-9.723,8.057,7.0
0.0,0.0,0.0,0.0
107.695,-8.576,9.542,14.0
106.186,-8.453,8.845,13.0
108.01,-8.597,8.423,10.0
100.799,-8.021,7.316,6.0
108.89,-8.665,7.326,3.0
115.514,-9.191,7.162,3.0
108.449,-8.651,9.768,5.0
107.426,-8.566,9.106,8.0
98.471,-7.849,7.824,14.0
100.619,-8.019,7.451,6.0
108.771,-8.666,7.479,6.0
106.708,-8.501,6.772,3.0
105.356,-8.414,9.644,2.0
107.713,-8.599,9.286,7.0
105.848,-8.447,8.563,2.0
105.567,-8.42,7.97,4.0
97.638,-7.785,6.853,4.0
121.709,-9.702,7.899,6.0
105.366,-8.42,9.797,11.0
107.714,-8.604,9.441,13.0
105.878,-8.453,8.717,7.0
108.032,-8.62,8.309,10.0
98.061,-7.821,7.021,5.0
105.924,-8.445,7.023,1.0
105.355,-8.42,9.947,5.0
108.223,-8.644,9.639,8.0
106.87,-8.531,8.95,12.0
98.038,-7.821,7.678,14.0
100.785,-8.035,7.359,8.0
108.842,-8.674,7.37,4.0
0.0,0.0,0.0,0.0
108.244,-8.641,9.794,5.0
107.826,-8.602,9.181,6.0
98.603,-7.861,7.861,11.0
100.497,-8.006,7.477,5.0
108.676,-8.652,7.509,6.0
0.0,0.0,0.0,0.0
105.42,-8.408,9.685,7.0
107.748,-8.586,9.324,7.0
98.528,-7.845,7.991,6.0
108.027,-8.595,8.185,4.0
97.74,-7.77,6.886,5.0
0.0,0.0,0.0,0.0
105.4,-8.394,9.827,15.0
107.65,-8.565,9.462,11.0
105.926,-8.42,8.733,7.0
108.026,-8.579,8.331,8.0
97.86,-7.765,7.026,5.0
0.0,0.0,0.0,0.0
107.701,-8.56,10.187,2.0
107.654,-8.547,9.606,13.0
106.017,-8.408,8.882,13.0
97.833,-7.751,7.675,8.0
162.919,-12.897,11.912,14.0
0.0,0.0,0.0,0.0
0.0,0.0,0.0,0.0
107.653,-8.524,9.748,2.0
106.543,-8.426,9.066,13.0
97.814,-7.728,7.8,7.0
100.8,-7.956,7.501,4.0
0.0,0.0,0.0,0.0
0.0,0.0,0.0,0.0
0.0,0.0,0.0,0.0
107.208,-8.452,9.26,4.0
108.41,-8.536,8.785,6.0
100.747,-7.923,7.625,4.0
0.0,0.0,0.0,0.0
0.0,0.0,0.0,0.0
107.776,-8.475,10.035,2.0
107.343,-8.43,9.408,3.0
106.28,-8.337,8.745,7.0
105.55,-8.269,8.121,2.0
0.0,0.0,0.0,0.0
0.0,0.0,0.0,0.0
108.626,-8.507,10.251,2.0
108.23,-8.465,9.62,1.0
105.954,-8.274,8.85,12.0
