X,Y,Z,Reflectivity
32.759,0.105,-0.355,1.0
28.816,0.088,-0.461,2.0
25.803,0.075,-0.546,2.0
76.404,0.212,0.516,27.0
54.234,0.143,0.085,28.0
40.116,0.1,-0.143,16.0
37.981,0.089,-0.336,0.0
29.903,0.066,-0.419,2.0
26.816,0.056,-0.515,2.0
79.46,0.155,0.694,150.0
58.345,0.106,0.207,7.0
44.183,0.074,-0.071,19.0
38.388,0.059,-0.264,10.0
31.457,0.044,-0.379,1.0
28.038,0.036,-0.482,1.0
79.464,0.092,0.851,151.0
76.023,0.078,0.422,14.0
47.754,0.043,0.017,21.0
39.445,0.03,-0.192,31.0
33.44,0.021,-0.336,1.0
29.362,0.015,-0.447,2.0
79.467,0.032,1.01,151.0
79.308,0.022,0.598,24.0
55.56,0.009,0.131,29.0
43.674,0.001,-0.125,4.0
38.363,-0.002,-0.309,3.0
30.578,-0.006,-0.404,2.0
79.467,-0.024,1.168,151.0
79.471,-0.034,0.758,151.0
61.72,-0.033,0.27,12.0
45.861,-0.03,-0.039,20.0
39.142,-0.03,-0.236,14.0
32.6,-0.029,-0.364,1.0
79.453,-0.08,1.33,155.0
79.461,-0.088,0.92,156.0
76.462,-0.093,0.49,16.0
0.0,0.0,0.0,0.0
40.296,-0.057,-0.161,16.0
37.264,-0.057,-0.342,0.0
79.45,-0.131,1.49,166.0
79.461,-0.139,1.08,154.0
79.455,-0.148,0.671,150.0
61.559,-0.121,0.197,10.0
45.653,-0.094,-0.089,10.0
38.886,-0.084,-0.276,4.0
79.444,-0.18,1.653,152.0
79.452,-0.188,1.243,155.0
79.471,-0.196,0.834,151.0
76.413,-0.195,0.4,12.0
48.108,-0.127,0.004,16.0
40.125,-0.11,-0.203,15.0
79.44,-0.227,1.815,151.0
79.441,-0.234,1.406,209.0
79.464,-0.241,0.997,151.0
79.298,-0.247,0.578,59.0
55.789,-0.179,0.119,28.0
42.206,-0.139,-0.126,17.0
79.44,-0.271,1.981,151.0
79.422,-0.277,1.571,255.0
79.454,-0.284,1.162,156.0
79.443,-0.29,0.744,150.0
61.485,-0.229,0.259,8.0
45.827,-0.174,-0.042,19.0
79.443,-0.311,2.146,151.0
79.441,-0.318,1.738,172.0
79.442,-0.323,1.327,173.0
79.463,-0.329,0.911,151.0
76.755,-0.324,0.485,12.0
0.0,0.0,0.0,0.0
79.439,-0.349,2.311,151.0
79.439,-0.354,1.901,171.0
79.425,-0.36,1.492,212.0
79.456,-0.365,1.076,154.0
79.46,-0.37,0.666,156.0
61.313,-0.289,0.198,14.0
79.44,-0.384,2.477,151.0
79.433,-0.389,2.068,172.0
79.421,-0.393,1.658,205.0
79.443,-0.398,1.241,162.0
79.467,-0.403,0.833,168.0
76.683,-0.393,0.41,13.0
79.423,-0.415,2.643,150.0
79.43,-0.42,2.234,159.0
79.419,-0.424,1.824,190.0
79.435,-0.428,1.407,174.0
79.459,-0.432,0.998,159.0
79.396,-0.436,0.589,82.0
79.432,-0.444,2.809,150.0
79.437,-0.448,2.4,151.0
79.429,-0.452,1.991,177.0
79.427,-0.455,1.573,190.0
79.446,-0.459,1.164,162.0
79.46,-0.462,0.757,170.0
79.427,-0.47,2.975,150.0
79.419,-0.473,2.565,150.0
79.437,-0.476,2.157,159.0
79.427,-0.479,1.739,205.0
79.444,-0.482,1.332,165.0
79.459,-0.485,0.923,162.0
79.414,-0.493,3.143,150.0
79.429,-0.495,2.733,150.0
79.418,-0.498,2.323,151.0
79.429,-0.5,1.906,172.0
79.439,-0.503,1.498,173.0
79.452,-0.505,1.089,159.0
59.475,-0.384,2.478,93.0
79.417,-0.515,2.898,150.0
79.415,-0.517,2.49,150.0
79.438,-0.519,2.073,158.0
79.426,-0.52,1.664,193.0
79.454,-0.522,1.255,160.0
59.471,-0.396,2.602,97.0
79.439,-0.531,3.066,151.0
79.422,-0.532,2.655,150.0
79.428,-0.534,2.239,151.0
79.422,-0.535,1.83,188.0
79.445,-0.536,1.421,162.0
81.524,-0.558,3.737,15.0
79.414,-0.544,3.231,97.0
79.423,-0.545,2.822,150.0
79.42,-0.545,2.405,150.0
79.427,-0.546,1.996,161.0
79.43,-0.546,1.586,167.0
79.186,-0.553,3.796,101.0
59.484,-0.415,2.544,24.0
79.425,-0.554,2.987,153.0
79.422,-0.554,2.57,150.0
79.439,-0.555,2.161,151.0
79.423,-0.555,1.752,188.0
59.467,-0.421,2.976,99.0
0.0,0.0,0.0,0.0
79.428,-0.561,3.153,150.0
79.415,-0.56,2.735,150.0
79.42,-0.56,2.325,150.0
79.43,-0.559,1.917,161.0
59.459,-0.424,3.099,106.0
79.248,-0.564,3.72,150.0
59.517,-0.423,2.487,2.0
79.433,-0.564,2.901,151.0
79.419,-0.562,2.491,150.0
79.433,-0.561,2.082,151.0
59.442,-0.425,3.222,106.0
59.467,-0.425,2.916,86.0
82.322,-0.586,3.61,68.0
79.427,-0.564,3.065,152.0
79.419,-0.562,2.655,150.0
79.423,-0.56,2.245,150.0
59.444,-0.424,3.345,92.0
59.465,-0.423,3.038,103.0
81.494,-0.578,3.743,150.0
89.526,-0.632,3.64,15.0
79.419,-0.558,2.818,150.0
79.423,-0.556,2.409,150.0
59.428,-0.421,3.467,72.0
59.45,-0.419,3.16,103.0
79.175,-0.556,3.799,71.0
59.483,-0.415,2.54,30.0
79.436,-0.552,2.981,151.0
79.418,-0.549,2.571,150.0
77.013,-0.539,4.65,22.0
59.44,-0.413,3.281,98.0
59.459,-0.411,2.973,108.0
59.472,-0.409,2.66,90.0
79.398,-0.542,3.14,150.0
79.414,-0.539,2.73,150.0
76.961,-0.529,4.802,45.0
59.426,-0.406,3.399,93.0
59.458,-0.403,3.093,105.0
59.467,-0.4,2.779,105.0
59.471,-0.397,2.471,89.0
79.418,-0.526,2.89,150.0
63.552,-0.426,4.093,48.0
77.116,-0.513,4.567,14.0
59.441,-0.392,3.211,101.0
59.463,-0.389,2.898,105.0
59.481,-0.386,2.591,102.0
79.41,-0.511,3.047,150.0
63.885,-0.416,4.243,84.0
76.983,-0.496,4.712,74.0
59.435,-0.379,3.33,101.0
59.459,-0.375,3.016,112.0
59.474,-0.372,2.709,107.0
59.463,-0.368,2.4,82.0
63.278,-0.397,4.329,41.0
76.974,-0.478,4.865,20.0
59.416,-0.364,3.447,84.0
59.443,-0.36,3.132,106.0
59.469,-0.356,2.826,104.0
59.472,-0.352,2.517,90.0
49.047,-0.294,3.453,77.0
63.863,-0.378,4.162,44.0
77.107,-0.451,4.625,55.0
59.428,-0.343,3.249,100.0
59.459,-0.338,2.942,110.0
59.469,-0.334,2.634,96.0
48.557,-0.276,3.513,75.0
63.232,-0.354,4.245,40.0
86.02,-0.475,5.327,20.0
59.419,-0.323,3.364,105.0
59.445,-0.319,3.057,110.0
59.464,-0.313,2.748,102.0
47.806,-0.255,3.552,54.0
48.994,-0.258,3.384,58.0
89.336,-0.462,5.705,17.0
59.398,-0.301,3.478,67.0
59.439,-0.296,3.171,120.0
59.463,-0.291,2.864,112.0
47.889,-0.237,3.651,6.0
48.835,-0.237,3.468,67.0
62.918,-0.3,4.14,76.0
89.333,-0.418,5.403,65.0
59.428,-0.272,3.284,109.0
59.453,-0.266,2.976,114.0
40.085,-0.182,3.133,70.0
47.894,-0.213,3.493,67.0
62.69,-0.272,4.244,29.0
63.562,-0.269,3.965,55.0
59.419,-0.246,3.396,116.0
59.446,-0.239,3.087,106.0
40.192,-0.164,3.218,64.0
47.799,-0.19,3.576,7.0
48.929,-0.19,3.404,60.0
62.797,-0.237,4.034,64.0
59.424,-0.218,3.507,43.0
59.438,-0.211,3.198,103.0
40.923,-0.147,3.352,47.0
0.0,0.0,0.0,0.0
47.979,-0.162,3.427,62.0
78.047,-0.255,5.158,42.0
77.796,-0.246,4.734,33.0
59.424,-0.181,3.305,94.0
41.377,-0.128,3.465,44.0
40.933,-0.122,3.213,38.0
47.773,-0.136,3.499,52.0
48.842,-0.133,3.316,58.0
62.945,-0.165,3.944,72.0
59.41,-0.148,3.412,109.0
39.831,-0.101,3.408,60.0
40.807,-0.098,3.277,77.0
47.808,-0.109,3.589,31.0
48.235,-0.104,3.363,69.0
63.13,-0.129,4.069,37.0
59.408,-0.114,3.518,24.0
47.749,-0.093,4.173,5.0
39.983,-0.073,3.283,56.0
47.838,-0.081,3.676,9.0
47.804,-0.075,3.417,88.0
48.768,-0.07,3.23,29.0
62.941,-0.082,3.838,67.0
47.703,-0.064,4.253,10.0
39.823,-0.048,3.34,64.0
39.895,-0.042,3.136,53.0
47.781,-0.044,3.499,102.0
48.231,-0.038,3.279,47.0
63.72,-0.042,3.997,59.0
40.966,-0.028,3.724,47.0
39.777,-0.022,3.406,67.0
40.017,-0.016,3.215,53.0
47.796,-0.013,3.583,80.0
47.892,-0.006,3.338,86.0
63.79,0.0,4.111,28.0
43.307,0.0,4.012,5.0
40.896,0.005,3.572,32.0
39.837,0.01,3.268,56.0
47.852,0.019,3.668,18.0
47.868,0.026,3.416,76.0
48.15,0.034,3.183,58.0
0.0,0.0,0.0,0.0
0.0,0.0,0.0,0.0
39.856,0.039,3.336,68.0
54.618,0.062,4.278,15.0
54.622,0.07,3.989,17.0
48.007,0.069,3.253,74.0
40.249,0.057,3.863,60.0
54.711,0.086,4.961,6.0
39.847,0.069,3.401,49.0
40.058,0.075,3.203,56.0
54.579,0.111,4.075,73.0
47.976,0.105,3.329,82.0
40.144,0.088,3.919,74.0
54.688,0.128,5.047,21.0
47.732,0.119,4.152,7.0
53.938,0.143,4.4,6.0
54.221,0.153,4.135,67.0
54.738,0.163,3.885,5.0
40.144,0.12,3.982,69.0
59.204,0.186,5.558,70.0
47.728,0.158,4.227,15.0
39.95,0.139,3.322,55.0
54.077,0.197,4.21,58.0
59.225,0.225,4.296,46.0
40.116,0.153,4.043,73.0
59.191,0.235,5.65,7.0
47.707,0.198,4.299,8.0
39.858,0.172,3.376,61.0
59.237,0.265,4.702,82.0
54.195,0.252,4.014,48.0
40.278,0.188,4.121,64.0
40.179,0.194,3.897,57.0
47.659,0.238,4.367,40.0
39.94,0.206,3.443,46.0
39.87,0.213,3.224,15.0
48.515,0.267,3.666,18.0
40.253,0.223,4.179,59.0
57.34,0.327,5.646,27.0
47.654,0.28,4.437,29.0
40.162,0.243,3.521,45.0
39.875,0.248,3.283,64.0
48.514,0.311,3.736,39.0
40.107,0.258,4.223,47.0
57.362,0.379,5.732,20.0
47.594,0.323,4.501,6.0
57.221,0.398,5.098,40.0
74.984,0.535,6.28,28.0
48.467,0.354,3.801,55.0
41.09,0.302,4.385,18.0
43.771,0.33,4.436,4.0
47.574,0.367,4.566,57.0
39.974,0.315,3.618,39.0
48.748,0.394,4.151,62.0
48.439,0.4,3.866,60.0
41.007,0.341,4.434,34.0
40.093,0.34,4.119,66.0
47.648,0.413,4.639,32.0
40.017,0.355,3.677,60.0
48.763,0.441,4.219,88.0
48.473,0.447,3.934,58.0
40.992,0.38,4.488,30.0
40.449,0.383,4.21,48.0
40.643,0.392,4.012,22.0
39.989,0.394,3.728,47.0
48.806,0.489,4.287,13.0
48.455,0.495,3.997,90.0
40.939,0.421,4.537,45.0
56.235,0.589,5.928,7.0
47.637,0.508,4.764,13.0
39.915,0.433,3.773,54.0
48.931,0.54,4.362,4.0
48.445,0.544,4.058,118.0
40.743,0.46,4.568,44.0
41.06,0.472,4.381,16.0
47.697,0.557,4.831,4.0
56.217,0.667,5.384,8.0
48.385,0.584,4.374,9.0
48.422,0.593,4.116,99.0
40.565,0.5,4.598,58.0
41.315,0.518,4.459,16.0
47.641,0.606,4.884,26.0
40.15,0.518,3.895,14.0
39.92,0.523,3.656,53.0
56.198,0.748,4.845,38.0
40.44,0.542,4.633,56.0
47.626,0.647,5.197,4.0
41.166,0.567,4.269,16.0
39.955,0.558,3.922,41.0
40.048,0.567,3.715,45.0
39.867,0.573,3.483,57.0
41.598,0.602,4.815,64.0
47.576,0.698,5.248,4.0
56.227,0.836,5.896,7.0
40.519,0.611,4.025,47.0
40.158,0.613,3.771,45.0
39.795,0.615,3.522,57.0
40.98,0.638,4.789,57.0
41.454,0.654,4.619,42.0
41.295,0.659,4.376,33.0
39.986,0.646,4.016,47.0
48.366,0.792,4.595,4.0
49.065,0.812,4.395,4.0
41.547,0.693,4.901,49.0
41.219,0.696,4.637,40.0
41.588,0.71,4.451,16.0
40.021,0.691,4.062,38.0
56.104,0.98,5.389,10.0
40.047,0.708,3.629,33.0
41.725,0.743,4.966,47.0
40.916,0.737,4.645,58.0
42.346,0.771,4.576,56.0
40.521,0.745,4.153,16.0
49.017,0.911,4.757,10.0
40.098,0.754,3.673,62.0
41.933,0.794,5.033,41.0
47.545,0.91,5.445,6.0
42.137,0.815,4.595,66.0
40.63,0.794,4.204,46.0
40.356,0.797,3.956,46.0
39.992,0.797,3.702,50.0
39.552,0.794,4.784,62.0
40.611,0.824,4.689,48.0
48.569,0.995,5.342,16.0
48.481,1.003,5.062,9.0
40.593,0.848,4.016,36.0
40.051,0.844,3.744,60.0
39.7,0.844,4.839,56.0
41.435,0.889,4.822,31.0
48.535,1.051,5.382,53.0
48.473,1.06,5.104,10.0
40.839,0.901,4.076,15.0
40.081,0.892,3.782,50.0
41.314,0.927,5.072,2.0
42.002,0.95,4.924,37.0
41.421,0.945,4.628,39.0
48.492,1.117,5.147,5.0
42.775,0.994,4.305,2.0
53.967,1.265,5.137,18.0
37.879,0.895,4.682,63.0
42.022,1.001,4.961,22.0
41.7,1.002,4.693,28.0
41.249,0.999,4.411,48.0
49.225,1.202,4.994,6.0
42.947,1.057,4.121,3.0
38.244,0.949,4.757,61.0
42.321,1.059,5.03,3.0
42.335,1.068,4.797,50.0
41.909,1.065,4.514,19.0
41.903,1.074,4.282,19.0
40.622,1.049,3.929,40.0
37.783,0.984,4.728,56.0
38.06,0.998,4.551,63.0
42.479,1.122,4.845,8.0
49.659,1.322,5.384,5.0
41.243,1.107,4.244,24.0
40.684,1.1,3.963,54.0
37.82,1.031,4.759,56.0
37.997,1.043,4.57,52.0
38.02,1.051,4.362,46.0
41.767,1.163,4.557,52.0
40.993,1.15,4.246,46.0
40.581,1.146,3.98,37.0
38.075,1.084,4.816,63.0
37.868,1.086,4.579,54.0
42.142,1.217,4.862,7.0
38.363,1.115,4.209,16.0
40.939,1.198,4.265,61.0
40.783,1.201,4.024,31.0
38.057,1.13,4.837,48.0
38.249,1.143,4.648,53.0
37.851,1.139,4.389,51.0
38.353,1.162,4.23,23.0
41.42,1.263,4.339,16.0
40.89,1.255,4.058,30.0
38.369,1.187,4.898,57.0
37.783,1.176,4.613,55.0
37.816,1.185,4.406,63.0
38.323,1.208,4.248,38.0
38.251,1.213,4.028,32.0
40.839,1.304,4.074,34.0
38.396,1.236,4.922,39.0
37.785,1.223,4.632,63.0
37.874,1.233,4.432,46.0
38.138,1.25,4.246,44.0
38.29,1.262,4.05,35.0
52.261,1.733,5.238,9.0
38.078,1.273,4.899,41.0
37.776,1.27,4.648,55.0
37.69,1.274,4.427,59.0
37.962,1.29,4.243,57.0
38.371,1.311,4.075,51.0
60.795,2.089,6.119,8.0
38.102,1.32,4.918,64.0
38.01,1.324,4.693,49.0
37.787,1.323,4.454,53.0
37.92,1.335,4.253,64.0
41.636,1.474,4.438,6.0
41.23,1.467,4.166,20.0
38.166,1.37,4.94,48.0
37.9,1.367,4.693,44.0
37.733,1.368,4.461,47.0
38.087,1.388,4.286,46.0
55.6,2.037,5.946,45.0
55.725,2.052,5.649,17.0
37.976,1.409,4.929,59.0
37.991,1.417,4.717,53.0
37.891,1.421,4.491,35.0
37.607,1.417,4.243,66.0
61.971,2.346,6.646,22.0
0.0,0.0,0.0,0.0
38.066,1.46,4.951,50.0
37.892,1.46,4.715,52.0
37.866,1.466,4.499,40.0
37.919,1.475,4.288,54.0
41.052,1.604,4.413,29.0
56.358,2.213,5.743,33.0
37.966,1.503,4.947,38.0
37.956,1.509,4.732,51.0
38.028,1.519,4.526,41.0
37.703,1.513,4.272,43.0
41.062,1.655,4.422,23.0
53.055,2.148,5.417,18.0
37.555,1.533,4.901,58.0
38.015,1.558,4.746,27.0
37.969,1.563,4.526,43.0
37.725,1.559,4.281,57.0
42.34,1.758,4.567,7.0
41.486,1.73,4.242,8.0
37.492,1.576,4.898,51.0
37.941,1.601,4.742,37.0
37.984,1.61,4.533,53.0
37.743,1.606,4.288,60.0
42.325,1.809,4.57,14.0
41.502,1.781,4.248,27.0
0.0,0.0,0.0,0.0
38.018,1.651,4.755,40.0
37.981,1.656,4.536,59.0
37.597,1.645,4.274,31.0
41.683,1.832,4.504,34.0
41.537,1.832,4.255,22.0
37.842,1.683,4.95,55.0
37.838,1.689,4.735,50.0
38.008,1.703,4.541,52.0
41.263,1.856,4.692,2.0
42.309,1.91,4.572,16.0
52.955,2.399,5.425,10.0
38.042,1.737,4.977,60.0
37.911,1.737,4.744,61.0
38.002,1.748,4.54,50.0
41.519,1.916,4.721,7.0
41.992,1.945,4.537,20.0
63.235,2.94,6.477,29.0
37.845,1.774,4.949,46.0
37.884,1.781,4.739,64.0
37.986,1.792,4.536,59.0
64.012,3.03,7.275,18.0
41.718,1.982,4.505,28.0
54.395,2.592,5.567,25.0
37.716,1.812,4.929,53.0
37.955,1.829,4.744,42.0
37.929,1.834,4.525,63.0
41.643,2.02,4.728,16.0
54.301,2.643,5.858,21.0
41.479,2.025,4.241,25.0
37.698,1.855,4.922,53.0
37.651,1.859,4.701,64.0
38.171,1.89,4.549,23.0
54.271,2.696,6.154,17.0
41.702,2.078,4.492,19.0
41.463,2.073,4.232,30.0
37.855,1.907,4.936,44.0
37.726,1.906,4.704,59.0
54.21,2.747,6.45,11.0
41.796,2.124,4.731,16.0
41.603,2.12,4.473,46.0
55.081,2.815,5.611,6.0
38.107,1.963,4.961,39.0
37.688,1.947,4.691,61.0
42.337,2.193,5.028,18.0
42.029,2.183,4.748,36.0
41.689,2.171,4.473,18.0
63.047,3.294,6.407,28.0
38.129,2.007,4.954,58.0
37.767,1.993,4.691,56.0
42.078,2.226,4.986,38.0
41.717,2.213,4.701,14.0
41.629,2.214,4.454,16.0
62.987,3.36,6.382,19.0
38.525,2.07,4.993,49.0
37.749,2.033,4.676,38.0
41.708,2.253,4.929,21.0
38.313,2.074,4.305,59.0
41.517,2.253,4.429,27.0
53.018,2.885,5.354,18.0
42.362,2.323,5.476,3.0
37.803,2.078,4.67,40.0
44.539,2.454,5.247,5.0
38.298,2.115,4.289,68.0
41.831,2.315,4.447,14.0
63.052,3.499,6.344,11.0
38.123,2.131,4.913,6.0
41.348,2.316,5.091,2.0
56.294,3.161,6.609,7.0
38.363,2.159,4.281,63.0
41.884,2.362,4.435,11.0
53.368,3.018,5.347,7.0
38.067,2.168,4.889,41.0
41.306,2.357,5.068,4.0
38.242,2.187,4.473,17.0
38.398,2.201,4.267,35.0
63.191,3.63,6.662,8.0
41.557,2.392,4.145,36.0
38.133,2.211,4.88,52.0
38.244,2.222,4.674,31.0
38.259,2.227,4.456,27.0
38.266,2.232,4.234,59.0
52.265,3.055,5.484,7.0
41.406,2.426,4.108,50.0
37.999,2.242,4.843,53.0
41.382,2.446,5.035,5.0
38.275,2.267,4.438,40.0
38.283,2.271,4.215,61.0
66.574,3.958,6.95,6.0
41.412,2.467,4.087,58.0
38.07,2.284,4.83,48.0
41.329,2.484,5.006,6.0
38.117,2.295,4.398,53.0
38.285,2.309,4.193,46.0
63.619,3.845,6.604,29.0
41.381,2.505,4.059,53.0
38.072,2.321,4.808,64.0
38.226,2.334,4.607,38.0
38.108,2.331,4.373,69.0
38.288,2.346,4.17,60.0
63.257,3.883,6.528,33.0
63.675,3.916,6.206,20.0
38.217,2.366,4.801,63.0
38.095,2.362,4.566,58.0
38.146,2.369,4.353,67.0
38.329,2.384,4.149,53.0
63.642,3.966,6.525,38.0
63.542,3.967,6.151,22.0
44.48,2.795,5.558,9.0
38.142,2.4,4.545,51.0
38.395,2.42,4.354,55.0
38.248,2.414,4.114,20.0
63.605,4.021,6.477,21.0
63.447,4.018,6.097,9.0
38.199,2.434,4.745,22.0
38.133,2.433,4.517,60.0
38.382,2.453,4.325,60.0
38.41,2.458,4.103,43.0
63.746,4.085,6.444,21.0
63.439,4.071,6.05,16.0
38.225,2.469,4.719,38.0
38.151,2.467,4.49,55.0
38.38,2.485,4.295,60.0
63.982,4.15,6.786,39.0
63.82,4.145,6.402,38.0
63.376,4.121,5.994,31.0
46.374,3.034,5.689,6.0
38.164,2.5,4.46,56.0
38.438,2.521,4.271,57.0
64.175,4.215,6.754,27.0
56.101,3.689,5.582,2.0
63.284,4.168,5.933,27.0
45.023,2.983,5.485,25.0
38.255,2.537,4.439,56.0
38.522,2.558,4.247,51.0
64.235,4.27,6.706,23.0
70.698,4.705,6.974,42.0
63.274,4.216,5.879,25.0
41.102,2.755,4.971,5.0
38.195,2.563,4.398,69.0
38.807,2.607,4.245,40.0
64.191,4.317,6.644,29.0
64.896,4.37,6.343,12.0
70.588,4.758,6.495,11.0
38.482,2.609,4.619,38.0
38.217,2.593,4.366,65.0
41.939,2.849,4.548,3.0
64.224,4.367,6.588,32.0
70.562,4.802,6.833,33.0
70.611,4.811,6.431,12.0
38.46,2.635,4.58,50.0
38.316,2.628,4.341,51.0
41.951,2.879,4.51,5.0
64.212,4.412,6.526,25.0
70.756,4.865,6.784,45.0
70.56,4.856,6.359,11.0
38.435,2.661,4.539,63.0
38.323,2.655,4.304,62.0
64.063,4.441,6.824,29.0
64.24,4.457,6.465,27.0
70.732,4.911,6.711,47.0
65.158,4.528,5.807,24.0
38.51,2.691,4.509,65.0
38.549,2.695,4.29,32.0
64.42,4.508,6.797,39.0
65.019,4.552,6.478,7.0
70.813,4.962,6.646,47.0
64.932,4.553,5.721,12.0
38.658,2.725,4.486,43.0
38.828,2.739,4.28,16.0
64.565,4.558,6.744,24.0
71.076,5.02,7.006,14.0
70.961,5.015,6.586,25.0
64.09,4.533,5.579,23.0
44.954,3.196,5.168,10.0
38.841,2.762,4.24,27.0
38.602,2.747,3.99,45.0
73.136,5.208,7.13,12.0
64.074,4.565,5.877,33.0
63.932,4.558,5.496,25.0
44.911,3.218,5.114,10.0
41.694,2.988,4.505,42.0
67.517,4.842,6.905,24.0
64.0,4.592,6.168,23.0
64.018,4.595,5.8,38.0
63.867,4.587,5.419,37.0
41.904,3.025,4.723,28.0
41.598,3.003,4.448,21.0
38.849,2.806,3.929,8.0
71.325,5.154,6.793,29.0
63.921,4.62,5.719,32.0
63.622,4.601,5.325,42.0
38.817,2.821,4.33,21.0
38.56,2.803,4.077,44.0
38.829,2.823,3.881,42.0
71.164,5.175,6.694,35.0
64.001,4.657,5.65,17.0
63.766,4.641,5.262,34.0
38.833,2.839,4.286,17.0
38.506,2.816,4.025,62.0
38.843,2.841,3.836,16.0
64.256,4.701,5.967,39.0
63.907,4.677,5.566,23.0
63.693,4.662,5.18,34.0
41.9,3.081,4.573,2.0
38.557,2.835,3.984,70.0
64.066,4.712,6.249,24.0
63.871,4.698,5.854,39.0
63.901,4.701,5.487,38.0
63.894,4.702,5.118,36.0
38.529,2.848,4.157,36.0
38.626,2.855,3.943,46.0
64.234,4.748,6.184,39.0
63.929,4.725,5.778,35.0
63.68,4.707,5.388,32.0
64.126,4.742,5.055,18.0
38.551,2.862,4.11,53.0
67.818,5.035,6.836,14.0
64.282,4.773,6.107,39.0
64.494,4.788,5.747,40.0
63.513,4.715,5.292,37.0
64.783,4.81,5.024,40.0
38.543,2.873,4.059,58.0
67.716,5.048,6.737,15.0
64.161,4.782,6.011,39.0
64.041,4.773,5.622,39.0
63.456,4.73,5.204,37.0
64.713,4.823,4.934,40.0
38.467,2.878,3.999,61.0
38.755,2.899,3.804,39.0
63.903,4.779,5.902,39.0
63.954,4.782,5.53,39.0
63.963,4.783,5.161,38.0
64.722,4.839,4.848,13.0
38.544,2.892,3.955,61.0
64.004,4.801,6.197,16.0
63.853,4.789,5.812,36.0
63.757,4.78,5.428,37.0
65.994,4.948,5.236,41.0
67.86,5.087,4.992,23.0
65.614,4.936,6.645,9.0
64.037,4.816,6.113,39.0
64.147,4.822,5.751,39.0
63.638,4.782,5.33,31.0
64.669,4.858,5.042,34.0
67.896,5.1,4.902,25.0
38.723,2.918,3.867,25.0
63.899,4.814,6.01,39.0
63.938,4.815,5.643,39.0
63.414,4.773,5.223,38.0
64.55,4.857,4.943,37.0
70.739,5.322,5.009,14.0
38.723,2.922,3.813,60.0
63.927,4.821,5.924,30.0
63.843,4.813,5.545,39.0
63.401,4.778,5.133,26.0
64.743,4.877,4.867,20.0
70.698,5.324,4.906,17.0
64.137,4.844,6.224,24.0
63.819,4.817,5.822,35.0
63.875,4.819,5.456,35.0
64.511,4.864,5.13,36.0
67.863,5.115,5.005,27.0
70.743,5.33,4.808,35.0
64.075,4.841,6.125,40.0
64.074,4.838,5.752,39.0
63.653,4.803,5.345,24.0
64.403,4.856,5.029,30.0
67.921,5.119,4.91,38.0
70.854,5.338,4.714,39.0
63.887,4.825,6.013,37.0
63.891,4.822,5.643,39.0
63.374,4.78,5.229,38.0
64.534,4.864,4.944,39.0
70.72,5.327,5.009,9.0
70.87,5.335,4.61,19.0
63.901,4.822,5.919,30.0
63.887,4.817,5.547,39.0
63.425,4.779,5.138,27.0
64.673,4.869,4.859,13.0
70.665,5.317,4.9,24.0
70.919,5.333,4.508,3.0
63.829,4.81,5.818,35.0
63.813,4.805,5.445,34.0
0.0,0.0,0.0,0.0
67.883,5.103,4.998,31.0
70.735,5.313,4.799,39.0
132.636,9.956,8.235,11.0
64.162,4.826,5.751,40.0
63.616,4.78,5.332,35.0
64.759,4.861,5.052,39.0
67.776,5.084,4.889,15.0
70.781,5.304,4.696,40.0
132.876,9.951,8.05,12.0
63.968,4.799,5.636,40.0
63.462,4.756,5.223,38.0
64.725,4.846,4.952,40.0
70.714,5.289,4.994,35.0
70.881,5.297,4.596,46.0
133.236,9.948,7.87,12.0
63.943,4.782,5.537,40.0
64.149,4.792,5.182,39.0
64.652,4.824,4.847,22.0
70.713,5.271,4.885,48.0
70.919,5.282,4.489,9.0
133.514,9.935,7.68,11.0
63.716,4.747,5.417,34.0
64.285,4.784,5.092,18.0
67.422,5.012,4.95,11.0
70.759,5.254,4.778,48.0
133.86,9.929,8.265,11.0
134.106,9.937,7.508,11.0
63.488,4.71,5.299,37.0
64.917,4.81,5.042,40.0
70.844,5.243,5.092,14.0
70.847,5.236,4.675,39.0
134.376,9.922,8.09,12.0
134.607,9.928,7.328,11.0
63.616,4.697,5.211,37.0
64.686,4.769,4.923,40.0
70.802,5.213,4.979,38.0
70.912,5.215,4.569,32.0
134.851,9.906,7.911,9.0
157.097,11.526,8.309,8.0
63.882,4.69,5.133,37.0
67.65,4.96,5.043,17.0
70.776,5.182,4.865,12.0
70.875,5.182,4.455,7.0
157.097,11.472,8.968,28.0
157.123,11.459,8.063,14.0
0.0,0.0,0.0,0.0
67.431,4.913,4.92,26.0
70.879,5.157,4.761,8.0
157.143,11.418,9.633,27.0
157.267,11.411,8.732,24.0
157.313,11.398,7.827,14.0
65.116,4.719,5.026,36.0
70.864,5.128,5.059,24.0
70.822,5.117,4.646,23.0
157.307,11.349,9.395,24.0
157.335,11.334,8.488,22.0
112.083,8.063,5.401,10.0
67.041,4.823,5.068,23.0
67.484,4.847,4.711,31.0
70.824,5.079,4.534,41.0
157.473,11.275,9.158,20.0
33.382,2.386,1.748,6.0
0.0,0.0,0.0,0.0
67.263,4.8,4.979,40.0
67.545,4.812,4.608,38.0
157.628,11.21,9.844,20.0
157.62,11.192,8.914,16.0
33.392,2.367,1.696,105.0
115.118,8.147,5.184,30.0
67.287,4.76,4.873,25.0
67.602,4.774,4.505,34.0
172.841,12.183,10.518,15.0
157.761,11.1,8.674,9.0
33.394,2.345,1.643,20.0
118.145,8.285,5.134,9.0
67.316,4.718,4.769,34.0
70.923,4.961,4.614,10.0
172.905,12.072,10.251,5.0
33.409,2.328,1.784,2.0
115.061,8.003,5.481,11.0
157.811,10.958,6.609,39.0
67.529,4.685,4.677,29.0
67.418,4.668,4.279,20.0
128.378,8.87,7.407,9.0
33.396,2.303,1.731,39.0
121.131,8.338,5.58,8.0
157.921,10.851,6.366,35.0
67.607,4.64,4.575,39.0
67.35,4.612,4.168,28.0
128.548,8.787,7.216,10.0
33.385,2.277,1.678,33.0
118.126,8.04,5.256,27.0
157.999,10.733,6.122,45.0
70.898,4.81,4.686,13.0
67.313,4.557,4.06,29.0
128.541,8.682,7.012,25.0
33.453,2.255,1.629,2.0
157.92,10.622,6.779,40.0
158.043,10.607,5.874,41.0
67.375,4.515,4.347,32.0
67.024,4.48,3.937,27.0
33.414,2.228,1.77,4.0
33.444,2.225,1.575,3.0
157.986,10.49,6.533,41.0
158.106,10.476,5.628,44.0
67.388,4.457,4.241,34.0
67.011,4.421,3.831,13.0
33.399,2.198,1.716,50.0
33.431,2.195,1.522,4.0
158.1,10.357,6.29,35.0
158.117,10.333,5.382,28.0
67.104,4.377,4.119,36.0
128.079,8.332,7.122,19.0
33.416,2.168,1.665,9.0
33.398,2.161,1.468,2.0
158.149,10.21,6.045,38.0
158.157,10.185,5.136,40.0
67.039,4.308,4.01,23.0
128.342,8.225,6.936,29.0
158.013,10.101,7.63,38.0
158.073,10.078,6.708,37.0
158.161,10.057,5.801,20.0
158.112,10.03,4.892,19.0
128.517,8.131,7.488,26.0
128.182,8.087,6.729,40.0
158.076,9.947,7.389,19.0
33.447,2.098,1.367,6.0
33.404,2.09,1.174,1.0
33.436,2.086,0.983,19.0
128.419,7.993,7.285,27.0
128.037,7.945,6.527,25.0
157.983,9.775,7.143,16.0
33.428,2.062,1.316,7.0
33.428,2.056,1.123,4.0
33.423,2.05,0.932,3.0
128.351,7.851,7.085,35.0
127.804,7.793,6.32,38.0
33.491,2.036,1.463,1.0
33.451,2.027,1.266,1.0
157.217,9.502,5.048,8.0
157.234,9.474,4.146,10.0
128.329,7.707,6.889,34.0
161.895,9.692,7.761,38.0
157.857,9.419,6.659,12.0
157.517,9.371,5.724,18.0
162.14,9.616,4.963,14.0
164.081,9.7,4.08,5.0
33.433,1.969,1.744,50.0
161.993,9.508,7.52,24.0
157.745,9.23,6.418,17.0
157.592,9.19,5.49,16.0
162.176,9.428,4.72,8.0
162.551,9.419,3.8,4.0
33.443,1.93,1.695,82.0
162.221,9.331,7.291,14.0
158.349,9.076,6.207,16.0
157.072,8.97,5.239,12.0
163.374,9.298,4.513,20.0
163.479,9.273,3.579,20.0
33.464,1.89,1.646,5.0
162.355,9.136,7.056,11.0
158.138,8.866,5.965,16.0
157.027,8.772,5.006,5.0
163.166,9.082,4.267,18.0
162.985,9.04,3.33,20.0
162.25,8.958,7.746,36.0
162.443,8.935,6.822,6.0
158.078,8.661,5.732,15.0
162.459,8.866,4.943,13.0
162.898,8.858,4.024,16.0
105.788,5.731,2.008,5.0
162.377,8.754,7.517,31.0
157.421,8.453,6.383,8.0
156.651,8.378,5.455,10.0
162.452,8.653,4.709,6.0
162.433,8.619,3.779,18.0
105.82,5.592,1.856,15.0
159.683,8.395,7.164,18.0
157.514,8.248,6.164,11.0
156.656,8.168,5.234,15.0
156.507,8.125,4.316,15.0
167.316,8.651,3.656,6.0
105.79,5.446,1.706,43.0
157.531,8.065,6.843,7.0
157.793,8.043,5.951,13.0
156.567,7.947,5.009,6.0
167.161,8.447,4.376,5.0
0.0,0.0,0.0,0.0
105.813,5.301,1.56,27.0
157.419,7.839,6.62,17.0
157.154,7.789,5.709,19.0
156.216,7.705,4.78,15.0
0.0,0.0,0.0,0.0
0.0,0.0,0.0,0.0
94.741,4.61,1.266,3.0
157.002,7.592,6.387,19.0
156.63,7.536,5.475,7.0
174.219,8.341,5.093,9.0
0.0,0.0,0.0,0.0
0.0,0.0,0.0,0.0
82.285,3.882,0.987,5.0
157.687,7.391,6.2,17.0
174.071,8.117,5.848,8.0
173.999,8.071,4.85,13.0
0.0,0.0,0.0,0.0
0.0,0.0,0.0,0.0
78.394,3.581,0.836,16.0
157.529,7.146,5.984,10.0
156.355,7.056,5.047,12.0
173.841,7.801,4.617,6.0
0.0,0.0,0.0,0.0
101.284,4.495,1.524,1.0
77.425,3.418,0.723,34.0
157.203,6.889,5.765,17.0
157.646,6.871,4.882,11.0
0.0,0.0,0.0,0.0
0.0,0.0,0.0,0.0
96.075,4.116,1.322,5.0
77.013,3.28,0.621,8.0
156.767,6.625,5.549,17.0
158.403,6.656,4.704,8.0
0.0,0.0,0.0,0.0
0.0,0.0,0.0,0.0
93.796,3.87,1.172,2.0
73.76,3.024,0.501,9.0
173.122,7.041,5.91,9.0
158.395,6.401,4.504,9.0
0.0,0.0,0.0,0.0
0.0,0.0,0.0,0.0
79.397,3.146,0.892,10.0
59.089,2.327,0.328,25.0
157.055,6.13,5.166,5.0
158.6,6.147,4.312,8.0
0.0,0.0,0.0,0.0
0.0,0.0,0.0,0.0
78.138,2.967,0.782,30.0
55.042,2.075,0.238,28.0
160.13,5.984,5.072,14.0
0.0,0.0,0.0,0.0
0.0,0.0,0.0,0.0
100.889,3.689,1.463,3.0
77.759,2.822,0.685,31.0
54.25,1.954,0.169,27.0
159.096,5.677,4.85,7.0
0.0,0.0,0.0,0.0
0.0,0.0,0.0,0.0
95.166,3.315,1.267,7.0
74.251,2.566,0.566,14.0
48.68,1.67,0.095,23.0
158.897,5.394,4.658,14.0
0.0,0.0,0.0,0.0
0.0,0.0,0.0,0.0
95.21,3.151,1.157,4.0
73.966,2.428,0.479,9.0
47.622,1.549,0.038,23.0
159.093,5.122,4.482,9.0
0.0,0.0,0.0,0.0
0.0,0.0,0.0,0.0
78.895,2.472,0.87,12.0
59.259,1.841,0.318,32.0
46.871,1.442,-0.014,21.0
159.155,4.842,4.308,3.0
0.0,0.0,0.0,0.0
100.687,3.005,1.582,1.0
78.075,2.308,0.776,33.0
58.657,1.717,0.25,10.0
40.897,1.185,-0.056,16.0
154.072,4.41,4.004,10.0
0.0,0.0,0.0,0.0
106.023,2.973,1.553,13.0
77.847,2.16,0.691,23.0
0.0,0.0,0.0,0.0
39.739,1.079,-0.097,22.0
0.0,0.0,0.0,0.0
0.0,0.0,0.0,0.0
106.056,2.78,1.443,44.0
74.84,1.939,0.586,20.0
48.787,1.249,0.106,21.0
38.65,0.979,-0.134,43.0
100.435,2.507,2.402,3.0
100.445,2.476,1.833,4.0
106.063,2.584,1.336,22.0
74.564,1.794,0.509,14.0
47.999,1.14,0.056,22.0
37.913,0.889,-0.169,60.0
0.0,0.0,0.0,0.0
106.096,2.417,1.832,1.0
89.836,2.02,1.043,5.0
60.891,1.35,0.356,35.0
46.775,1.023,0.009,21.0
37.266,0.804,-0.202,35.0
128.105,2.717,2.814,37.0
106.082,2.216,1.73,1.0
80.379,1.656,0.857,12.0
59.934,1.216,0.295,35.0
45.015,0.899,-0.032,19.0
37.152,0.73,-0.236,14.0
128.057,2.472,2.695,35.0
126.917,2.409,1.953,4.0
78.07,1.457,0.76,9.0
57.825,1.062,0.231,8.0
44.227,0.798,-0.072,6.0
36.943,0.655,-0.269,9.0
189.961,3.298,3.826,20.0
126.329,2.154,1.832,32.0
77.859,1.302,0.689,38.0
54.668,0.897,0.17,25.0
39.462,0.635,-0.099,35.0
37.012,0.584,-0.301,4.0
189.754,2.925,3.658,32.0
126.311,1.908,1.724,16.0
0.0,0.0,0.0,0.0
47.985,0.694,0.109,59.0
38.928,0.55,-0.13,49.0
37.022,0.511,-0.332,0.0
189.204,2.543,3.49,23.0
121.305,1.59,1.554,15.0
48.088,0.615,0.345,68.0
47.8,0.596,0.069,53.0
38.439,0.467,-0.16,50.0
33.151,0.391,-0.324,1.0
48.142,0.551,0.849,86.0
48.093,0.535,0.578,103.0
48.046,0.518,0.307,91.0
47.053,0.493,0.031,40.0
38.176,0.387,-0.188,38.0
32.429,0.318,-0.342,1.0
48.1,0.455,0.812,109.0
48.073,0.438,0.541,112.0
48.033,0.422,0.271,102.0
0.0,0.0,0.0,0.0
38.063,0.31,-0.216,17.0
31.546,0.246,-0.356,1.0
48.105,0.358,0.777,103.0
48.118,0.342,0.507,53.0
48.166,0.326,0.237,61.0
44.811,0.288,-0.035,21.0
38.038,0.232,-0.243,13.0
30.987,0.178,-0.372,1.0
59.3,0.321,0.917,83.0
59.3,0.301,0.584,122.0
55.053,0.261,0.234,29.0
44.002,0.194,-0.064,16.0
37.854,0.155,-0.267,15.0
30.448,0.114,-0.385,1.0
79.467,0.269,1.177,151.0
79.449,0.242,0.731,150.0
55.073,0.149,0.198,25.0
43.773,0.103,-0.091,3.0
38.06,0.076,-0.293,2.0
30.045,0.05,-0.399,1.0
79.465,0.105,1.127,151.0
79.407,0.078,0.682,62.0
55.099,0.036,0.165,21.0
40.716,0.012,-0.109,17.0
37.918,0.0,-0.314,2.0
29.683,-0.01,-0.412,2.0
79.463,-0.057,1.081,151.0
79.272,-0.084,0.635,34.0
0.0,0.0,0.0,0.0
40.505,-0.07,-0.132,17.0
34.105,-0.071,-0.302,0.0
29.435,-0.071,-0.425,3.0
79.458,-0.22,1.037,151.0
79.218,-0.248,0.591,22.0
0.0,0.0,0.0,0.0
39.846,-0.152,-0.151,3.0
33.553,-0.14,-0.315,1.0
29.134,-0.131,-0.436,2.0
79.456,-0.386,0.996,154.0
76.765,-0.4,0.534,15.0
49.759,-0.276,0.068,8.0
41.616,-0.245,-0.178,4.0
33.166,-0.208,-0.327,1.0
28.803,-0.19,-0.445,1.0
79.46,-0.553,0.958,186.0
77.051,-0.563,0.5,12.0
48.908,-0.374,0.044,2.0
0.0,0.0,0.0,0.0
32.962,-0.275,-0.34,1.0
28.516,-0.249,-0.453,3.0
79.452,-0.719,0.923,177.0
77.464,-0.728,0.469,10.0
56.415,-0.55,0.027,5.0
42.192,-0.426,-0.218,2.0
32.209,-0.337,-0.346,1.0
28.306,-0.306,-0.462,2.0
79.469,-0.885,0.892,150.0
77.961,-0.897,0.441,6.0
60.788,-0.72,0.005,4.0
42.199,-0.515,-0.235,3.0
32.047,-0.403,-0.356,2.0
27.974,-0.362,-0.467,2.0
86.942,-1.152,0.944,30.0
78.737,-1.072,0.417,1.0
57.91,-0.808,-0.014,1.0
41.861,-0.6,-0.247,0.0
31.424,-0.461,-0.36,1.0
27.743,-0.417,-0.472,1.0
123.761,-1.901,1.303,10.0
0.0,0.0,0.0,0.0
40.365,-0.649,-0.023,1.0
40.207,-0.661,-0.25,10.0
31.307,-0.526,-0.368,1.0
27.51,-0.472,-0.476,1.0
40.263,-0.703,0.412,51.0
40.263,-0.717,0.188,52.0
40.295,-0.733,-0.034,66.0
40.213,-0.746,-0.261,7.0
30.937,-0.585,-0.372,1.0
27.282,-0.526,-0.48,1.0
40.244,-0.787,0.402,56.0
40.264,-0.802,0.178,1.0
53.625,-1.089,-0.058,0.0
40.188,-0.831,-0.271,5.0
30.921,-0.65,-0.379,1.0
27.279,-0.584,-0.486,1.0
0.0,0.0,0.0,0.0
40.313,-0.889,0.17,5.0
40.303,-0.903,-0.052,105.0
40.234,-0.917,-0.279,21.0
30.719,-0.712,-0.383,1.0
27.218,-0.641,-0.49,5.0
40.294,-0.96,0.386,16.0
40.312,-0.975,0.163,0.0
40.92,-1.005,-0.06,0.0
40.55,-1.01,-0.287,3.0
30.487,-0.771,-0.385,1.0
27.04,-0.694,-0.491,1.0
40.206,-1.043,0.379,55.0
40.21,-1.057,0.157,47.0
40.974,-1.092,-0.065,162.0
40.485,-1.095,-0.292,5.0
30.515,-0.837,-0.389,1.0
27.009,-0.75,-0.493,1.0
40.235,-1.128,0.376,44.0
40.207,-1.143,0.153,47.0
40.212,-1.158,-0.068,58.0
40.051,-1.168,-0.292,3.0
30.51,-0.901,-0.391,1.0
26.981,-0.807,-0.495,1.0
0.0,0.0,0.0,0.0
0.0,0.0,0.0,0.0
0.0,0.0,0.0,0.0
40.166,-1.255,-0.295,3.0
30.609,-0.968,-0.393,1.0
26.993,-0.864,-0.496,2.0
0.0,0.0,0.0,0.0
0.0,0.0,0.0,0.0
0.0,0.0,0.0,0.0
39.621,-1.322,-0.291,0.0
30.561,-1.031,-0.393,1.0
27.033,-0.923,-0.496,2.0
0.0,0.0,0.0,0.0
0.0,0.0,0.0,0.0
52.381,-1.838,-0.09,2.0
40.081,-1.421,-0.294,9.0
30.629,-1.097,-0.393,1.0
26.987,-0.977,-0.494,1.0
0.0,0.0,0.0,0.0
0.0,0.0,0.0,0.0
40.144,-1.492,-0.067,152.0
40.077,-1.504,-0.291,25.0
30.798,-1.167,-0.393,1.0
27.074,-1.036,-0.494,2.0
0.0,0.0,0.0,0.0
0.0,0.0,0.0,0.0
37.818,-1.483,-0.059,153.0
37.763,-1.495,-0.27,130.0
30.882,-1.234,-0.39,1.0
27.147,-1.095,-0.492,1.0
0.0,0.0,0.0,0.0
0.0,0.0,0.0,0.0
50.498,-2.085,-0.072,1.0
37.752,-1.573,-0.265,7.0
31.007,-1.304,-0.387,1.0
27.202,-1.154,-0.489,2.0
0.0,0.0,0.0,0.0
0.0,0.0,0.0,0.0
50.47,-2.188,-0.064,1.0
39.086,-1.709,-0.267,2.0
31.102,-1.372,-0.383,1.0
27.424,-1.22,-0.488,2.0
0.0,0.0,0.0,0.0
0.0,0.0,0.0,0.0
50.454,-2.291,-0.053,0.0
40.264,-1.843,-0.266,0.0
0.0,0.0,0.0,0.0
27.602,-1.284,-0.485,1.0
0.0,0.0,0.0,0.0
0.0,0.0,0.0,0.0
50.507,-2.396,-0.041,2.0
40.218,-1.923,-0.256,0.0
32.558,-1.568,-0.385,2.0
28.095,-1.364,-0.486,7.0
0.0,0.0,0.0,0.0
0.0,0.0,0.0,0.0
50.542,-2.5,-0.026,1.0
0.0,0.0,0.0,0.0
32.346,-1.624,-0.373,1.0
28.223,-1.427,-0.48,7.0
0.0,0.0,0.0,0.0
0.0,0.0,0.0,0.0
59.506,-3.062,-0.012,2.0
42.786,-2.217,-0.246,0.0
32.821,-1.713,-0.368,1.0
28.309,-1.488,-0.472,7.0
0.0,0.0,0.0,0.0
0.0,0.0,0.0,0.0
59.346,-3.172,0.008,5.0
0.0,0.0,0.0,0.0
33.28,-1.803,-0.361,1.0
28.497,-1.554,-0.464,1.0
0.0,0.0,0.0,0.0
0.0,0.0,0.0,0.0
59.142,-3.277,0.031,12.0
0.0,0.0,0.0,0.0
33.852,-1.9,-0.353,1.0
28.861,-1.63,-0.458,2.0
0.0,0.0,0.0,0.0
0.0,0.0,0.0,0.0
58.982,-3.383,0.056,2.0
0.0,0.0,0.0,0.0
34.571,-2.008,-0.346,1.0
29.089,-1.7,-0.449,1.0
0.0,0.0,0.0,0.0
0.0,0.0,0.0,0.0
59.683,-3.539,0.084,3.0
50.385,-3.005,-0.207,0.0
35.531,-2.132,-0.339,0.0
29.46,-1.778,-0.441,1.0
0.0,0.0,0.0,0.0
0.0,0.0,0.0,0.0
62.469,-3.824,0.119,4.0
50.378,-3.101,-0.182,1.0
0.0,0.0,0.0,0.0
29.81,-1.856,-0.431,1.0
0.0,0.0,0.0,0.0
0.0,0.0,0.0,0.0
62.504,-3.943,0.152,2.0
50.255,-3.189,-0.155,1.0
37.554,-2.396,-0.319,0.0
30.257,-1.941,-0.421,1.0
0.0,0.0,0.0,0.0
0.0,0.0,0.0,0.0
0.0,0.0,0.0,0.0
50.359,-3.288,-0.127,2.0
0.0,0.0,0.0,0.0
30.848,-2.036,-0.411,1.0
187.222,-12.377,2.695,8.0
0.0,0.0,0.0,0.0
0.0,0.0,0.0,0.0
50.45,-3.386,-0.097,5.0
0.0,0.0,0.0,0.0
31.532,-2.138,-0.402,1.0
0.0,0.0,0.0,0.0
0.0,0.0,0.0,0.0
0.0,0.0,0.0,0.0
50.516,-3.481,-0.066,3.0
40.379,-2.796,-0.271,0.0
32.337,-2.25,-0.391,1.0
155.152,-10.812,2.427,10.0
0.0,0.0,0.0,0.0
0.0,0.0,0.0,0.0
60.96,-4.31,-0.04,2.0
41.879,-2.975,-0.253,0.0
33.144,-2.365,-0.379,1.0
0.0,0.0,0.0,0.0
0.0,0.0,0.0,0.0
0.0,0.0,0.0,0.0
0.0,0.0,0.0,0.0
0.0,0.0,0.0,0.0
34.158,-2.497,-0.367,1.0
0.0,0.0,0.0,0.0
148.557,-10.924,1.728,13.0
0.0,0.0,0.0,0.0
61.858,-4.589,0.047,2.0
0.0,0.0,0.0,0.0
34.717,-2.598,-0.347,0.0
148.512,-11.131,2.638,10.0
148.48,-11.175,1.839,150.0
0.0,0.0,0.0,0.0
0.0,0.0,0.0,0.0
50.37,-3.839,-0.195,0.0
0.0,0.0,0.0,0.0
148.513,-11.381,2.752,68.0
0.0,0.0,0.0,0.0
0.0,0.0,0.0,0.0
0.0,0.0,0.0,0.0
50.44,-3.928,-0.156,5.0
0.0,0.0,0.0,0.0
0.0,0.0,0.0,0.0
128.143,-10.07,1.787,181.0
0.0,0.0,0.0,0.0
0.0,0.0,0.0,0.0
50.467,-4.013,-0.115,7.0
0.0,0.0,0.0,0.0
0.0,0.0,0.0,0.0
0.0,0.0,0.0,0.0
0.0,0.0,0.0,0.0
0.0,0.0,0.0,0.0
50.528,-4.1,-0.072,2.0
0.0,0.0,0.0,0.0
202.337,-16.494,4.248,17.0
122.232,-10.0,1.91,139.0
0.0,0.0,0.0,0.0
0.0,0.0,0.0,0.0
0.0,0.0,0.0,0.0
0.0,0.0,0.0,0.0
165.11,-13.717,3.611,15.0
0.0,0.0,0.0,0.0
121.793,-10.188,1.357,6.0
0.0,0.0,0.0,0.0
0.0,0.0,0.0,0.0
0.0,0.0,0.0,0.0
165.093,-13.967,3.758,54.0
0.0,0.0,0.0,0.0
121.757,-10.371,1.466,150.0
92.921,-7.942,0.612,1.0
0.0,0.0,0.0,0.0
50.367,-4.334,-0.207,0.0
157.322,-13.548,3.73,61.0
0.0,0.0,0.0,0.0
121.718,-10.55,1.581,105.0
97.849,-8.509,0.737,2.0
0.0,0.0,0.0,0.0
50.462,-4.417,-0.159,7.0
188.817,-16.54,4.656,22.0
0.0,0.0,0.0,0.0
110.181,-9.71,1.537,9.0
0.0,0.0,0.0,0.0
0.0,0.0,0.0,0.0
50.482,-4.491,-0.11,8.0
188.474,-16.779,4.832,52.0
188.239,-16.807,3.817,19.0
108.959,-9.758,1.627,15.0
108.727,-9.766,1.032,20.0
0.0,0.0,0.0,0.0
50.542,-4.567,-0.06,1.0
188.214,-17.019,5.013,45.0
188.366,-17.08,4.008,45.0
108.709,-9.886,1.732,14.0
108.585,-9.902,1.139,152.0
90.77,-8.301,0.466,1.0
0.0,0.0,0.0,0.0
149.395,-13.713,4.13,20.0
188.458,-17.344,4.205,48.0
108.594,-10.021,1.842,11.0
108.434,-10.034,1.249,68.0
90.91,-8.435,0.562,1.0
0.0,0.0,0.0,0.0
149.416,-13.91,4.286,35.0
188.273,-17.573,4.395,51.0
0.0,0.0,0.0,0.0
108.64,-10.192,1.364,4.0
0.0,0.0,0.0,0.0
0.0,0.0,0.0,0.0
148.879,-14.051,4.428,76.0
188.049,-17.792,4.59,34.0
108.798,-10.32,2.075,7.0
100.707,-9.576,1.372,3.0
100.795,-9.609,0.837,1.0
0.0,0.0,0.0,0.0
149.128,-14.262,4.596,60.0
149.437,-14.324,3.809,80.0
149.504,-14.364,3.012,25.0
100.772,-9.704,1.483,150.0
97.609,-9.423,0.916,2.0
0.0,0.0,0.0,0.0
149.05,-14.435,4.759,33.0
187.913,-18.24,4.998,28.0
149.535,-14.546,3.179,44.0
97.265,-9.483,1.539,4.0
96.701,-9.45,1.015,2.0
90.95,-8.91,0.47,1.0
149.435,-14.647,4.938,42.0
188.216,-18.488,5.216,45.0
188.014,-18.51,4.211,49.0
95.896,-9.462,1.627,6.0
95.461,-9.439,1.111,4.0
94.994,-9.413,0.599,3.0
149.459,-14.82,5.11,40.0
187.992,-18.677,5.425,46.0
187.685,-18.685,4.415,35.0
0.0,0.0,0.0,0.0
94.646,-9.462,1.209,10.0
94.721,-9.489,0.706,1.0
148.416,-14.878,5.245,44.0
188.117,-18.895,5.646,52.0
187.93,-18.914,4.64,48.0
95.855,-9.665,1.846,12.0
94.672,-9.565,1.319,5.0
89.789,-9.09,0.773,1.0
148.348,-15.027,5.417,54.0
188.23,-19.102,5.869,38.0
187.999,-19.114,4.861,48.0
96.089,-9.787,1.963,2.0
88.725,-9.054,1.341,11.0
88.192,-9.017,0.864,4.0
124.382,-12.727,4.69,30.0
188.494,-19.319,6.102,36.0
157.523,-16.171,4.26,36.0
157.63,-16.212,3.409,24.0
87.48,-9.013,1.427,15.0
86.75,-8.954,0.954,4.0
122.965,-12.7,4.784,23.0
189.573,-19.612,6.367,25.0
188.107,-19.492,5.315,39.0
188.34,-19.548,4.299,33.0
86.857,-9.03,1.521,6.0
86.497,-9.008,1.054,34.0
122.865,-12.804,4.927,45.0
189.575,-19.784,6.593,28.0
188.005,-19.651,5.538,32.0
188.071,-19.688,4.519,29.0
86.609,-9.08,1.621,8.0
86.439,-9.078,1.159,57.0
107.264,-11.273,4.433,67.0
107.441,-11.307,3.867,13.0
188.206,-19.834,5.773,35.0
187.938,-19.835,4.747,27.0
86.747,-9.169,1.73,5.0
86.386,-9.144,1.263,54.0
107.928,-11.432,4.591,53.0
107.36,-11.387,3.994,57.0
188.148,-19.98,5.999,31.0
123.591,-13.143,3.271,48.0
86.842,-9.248,1.837,7.0
86.36,-9.21,1.368,43.0
107.927,-11.518,4.725,62.0
123.893,-13.237,4.764,48.0
123.383,-13.199,4.088,48.0
123.484,-13.227,3.422,102.0
123.619,-13.259,2.769,10.0
86.379,-9.276,1.476,32.0
115.395,-12.402,5.195,23.0
107.07,-11.519,4.25,57.0
123.266,-13.277,4.237,32.0
123.438,-13.311,3.574,107.0
123.571,-13.34,2.921,43.0
86.37,-9.336,1.583,35.0
105.473,-11.41,4.881,14.0
107.798,-11.673,4.413,24.0
107.226,-11.622,3.819,79.0
123.418,-13.392,3.727,86.0
123.578,-13.424,3.076,21.0
86.393,-9.395,1.691,6.0
105.52,-11.484,5.014,17.0
149.125,-16.245,6.292,13.0
106.869,-11.652,3.94,62.0
123.416,-13.469,3.882,62.0
187.398,-20.473,4.897,38.0
86.785,-9.49,1.807,4.0
108.213,-11.844,5.278,37.0
105.877,-11.598,4.6,44.0
106.561,-11.682,4.063,41.0
107.382,-11.782,3.512,40.0
187.452,-20.587,5.136,32.0
86.774,-9.539,1.916,10.0
108.187,-11.903,5.414,28.0
149.03,-16.408,6.665,17.0
106.414,-11.725,4.192,53.0
107.266,-11.828,3.645,79.0
187.489,-20.692,5.375,41.0
86.982,-9.607,2.031,3.0
99.275,-10.975,5.095,51.0
105.694,-11.692,4.863,7.0
106.253,-11.762,4.322,47.0
107.099,-11.863,3.775,53.0
107.424,-11.908,3.215,42.0
187.608,-20.812,4.618,32.0
108.094,-12.002,5.686,31.0
100.12,-11.122,4.732,16.0
106.071,-11.79,4.448,48.0
106.701,-11.868,3.897,30.0
107.383,-11.951,3.35,75.0
187.525,-20.883,4.854,30.0
107.84,-12.021,5.809,23.0
99.871,-11.138,4.846,96.0
106.032,-11.83,4.582,41.0
106.557,-11.894,4.026,24.0
107.336,-11.988,3.484,58.0
107.448,-12.007,2.917,48.0
98.447,-11.012,5.428,47.0
99.281,-11.109,4.943,59.0
106.233,-11.892,4.723,42.0
107.608,-12.05,4.2,24.0
107.342,-12.026,3.619,44.0
107.409,-12.039,3.05,65.0
98.42,-11.043,5.551,43.0
99.393,-11.155,5.075,11.0
106.464,-11.952,4.868,17.0
107.635,-12.087,4.338,21.0
116.004,-13.031,4.058,43.0
107.358,-12.065,3.183,69.0
90.713,-10.205,5.23,12.0
98.513,-11.084,5.154,21.0
99.87,-11.239,4.692,66.0
107.705,-12.124,4.475,16.0
115.983,-13.059,4.201,49.0
107.39,-12.095,3.318,45.0
90.731,-10.23,5.345,11.0
98.477,-11.104,5.276,55.0
99.401,-11.21,4.795,86.0
107.742,-12.152,4.613,11.0
116.099,-13.097,4.351,19.0
107.418,-12.12,3.454,20.0
101.133,-11.423,6.087,20.0
100.906,-11.398,5.533,10.0
99.304,-11.217,4.915,41.0
117.281,-13.249,5.168,11.0
203.041,-22.939,7.865,19.0
115.935,-13.099,3.873,44.0
101.1,-11.436,6.21,31.0
100.838,-11.406,5.655,23.0
105.166,-11.894,5.336,31.0
105.565,-11.939,4.782,6.0
123.099,-13.922,4.918,16.0
115.938,-13.112,4.014,54.0
101.065,-11.444,6.333,12.0
100.923,-11.426,5.784,21.0
98.531,-11.153,5.121,24.0
99.588,-11.271,4.633,45.0
123.091,-13.93,5.07,18.0
115.964,-13.123,4.157,55.0
81.588,-9.244,5.214,4.0
100.998,-11.44,5.913,29.0
98.486,-11.153,5.239,46.0
99.349,-11.248,4.743,76.0
107.723,-12.194,4.567,19.0
115.995,-13.129,4.299,32.0
81.64,-9.252,5.316,9.0
101.083,-11.451,6.041,25.0
98.495,-11.154,5.36,18.0
99.281,-11.24,4.86,51.0
107.739,-12.194,4.699,20.0
115.942,-13.119,4.438,12.0
90.764,-10.284,6.021,11.0
101.073,-11.447,6.163,32.0
100.823,-11.413,5.607,32.0
105.255,-11.911,5.28,27.0
105.651,-11.951,4.735,6.0
123.125,-13.924,4.859,15.0
90.935,-10.297,6.142,16.0
101.076,-11.439,6.285,17.0
100.919,-11.416,5.733,17.0
104.958,-11.867,5.39,29.0
99.903,-11.29,4.596,20.0
123.11,-13.908,5.004,23.0
90.942,-10.287,6.25,11.0
86.861,-9.82,5.502,3.0
100.958,-11.407,5.854,11.0
98.51,-11.124,5.173,38.0
99.627,-11.244,4.699,93.0
107.703,-12.15,4.504,17.0
86.308,-9.749,6.033,5.0
81.594,-9.211,5.264,8.0
86.084,-9.711,5.092,12.0
98.486,-11.103,5.286,55.0
99.43,-11.203,4.805,91.0
116.745,-13.146,5.015,9.0
68.317,-7.704,4.853,5.0
81.711,-9.207,5.366,7.0
101.187,-11.393,6.1,13.0
98.434,-11.075,5.396,58.0
99.262,-11.16,4.909,53.0
105.876,-11.897,4.667,17.0
84.279,-9.484,6.083,14.0
86.608,-9.737,5.785,1.0
101.213,-11.369,6.216,16.0
98.413,-11.046,5.505,52.0
99.286,-11.135,5.021,19.0
106.336,-11.917,4.808,54.0
84.224,-9.453,6.175,37.0
86.361,-9.684,5.865,8.0
101.257,-11.344,6.332,19.0
98.369,-11.01,5.613,47.0
108.181,-12.098,5.591,31.0
105.691,-11.81,4.895,42.0
84.142,-9.416,6.262,39.0
86.285,-9.645,5.956,8.0
91.436,-10.211,5.819,10.0
98.347,-10.972,5.719,50.0
107.993,-12.037,5.698,28.0
100.11,-11.149,4.745,30.0
69.081,-7.705,5.216,6.0
86.273,-9.611,6.049,2.0
81.475,-9.067,5.273,17.0
98.323,-10.93,5.822,39.0
90.532,-10.054,4.874,6.0
108.221,-12.006,5.245,28.0
68.956,-7.662,5.281,12.0
68.253,-7.574,4.858,3.0
98.002,-10.863,6.446,11.0
98.271,-10.881,5.924,45.0
90.522,-10.012,4.969,12.0
108.175,-11.951,5.355,37.0
68.582,-7.588,5.325,6.0
68.315,-7.549,4.934,8.0
97.855,-10.8,6.539,29.0
98.254,-10.831,6.025,34.0
108.427,-11.938,6.064,15.0
99.255,-10.916,5.016,35.0
68.592,-7.555,5.396,4.0
84.284,-9.271,6.174,15.0
97.729,-10.736,6.628,22.0
98.247,-10.779,6.122,13.0
125.451,-13.745,7.142,17.0
99.281,-10.865,5.116,49.0
83.957,-9.202,6.689,12.0
83.864,-9.179,6.226,13.0
97.646,-10.672,6.721,12.0
98.36,-10.735,6.228,9.0
86.095,-9.383,4.986,6.0
99.343,-10.813,5.217,55.0
83.793,-9.135,6.759,14.0
82.638,-8.995,6.217,9.0
86.2,-9.368,6.018,6.0
81.512,-8.846,5.24,12.0
86.078,-9.328,5.067,11.0
99.243,-10.74,5.306,19.0
83.693,-9.071,6.832,13.0
82.523,-8.93,6.287,5.0
68.453,-7.396,4.843,2.0
81.389,-8.78,5.309,6.0
100.237,-10.797,5.995,14.0
108.943,-11.717,5.926,5.0
68.984,-7.431,5.695,10.0
69.159,-7.437,5.333,6.0
68.423,-7.346,4.904,5.0
99.16,-10.628,6.56,8.0
100.146,-10.717,6.081,32.0
90.701,-9.691,5.016,7.0
69.068,-7.391,5.766,8.0
68.835,-7.353,5.37,8.0
84.476,-9.008,6.131,4.0
86.458,-9.204,5.795,4.0
99.303,-10.554,6.117,17.0
104.605,-11.099,5.877,30.0
69.027,-7.336,5.822,8.0
69.025,-7.321,5.446,13.0
82.47,-8.732,6.056,8.0
100.448,-10.617,6.819,14.0
99.212,-10.468,6.196,21.0
99.254,-10.454,5.659,35.0
78.413,-8.273,6.68,5.0
68.933,-7.258,5.496,11.0
82.327,-8.651,6.115,6.0
97.893,-10.269,6.727,11.0
81.462,-8.53,5.153,6.0
99.324,-10.381,5.744,6.0
78.195,-8.185,6.726,4.0
69.002,-7.209,5.557,12.0
83.044,-8.659,6.234,4.0
97.743,-10.171,6.794,9.0
81.632,-8.479,5.229,7.0
105.107,-10.897,6.16,19.0
84.894,-8.815,7.368,21.0
68.968,-7.146,5.608,9.0
83.219,-8.605,6.312,4.0
86.161,-8.891,6.055,4.0
81.466,-8.39,5.28,5.0
86.252,-8.866,5.12,10.0
78.266,-8.057,6.853,3.0
69.075,-7.095,5.669,10.0
84.471,-8.659,6.469,1.0
82.427,-8.431,5.853,7.0
99.206,-10.127,6.503,9.0
86.257,-8.787,5.183,12.0
84.978,-8.67,7.502,5.0
69.037,-7.028,5.716,6.0
96.84,-9.836,7.486,6.0
82.331,-8.344,5.905,7.0
99.316,-10.044,6.579,4.0
99.441,-10.035,6.044,36.0
84.893,-8.579,7.554,2.0
68.088,-6.865,5.684,2.0
96.956,-9.755,7.56,6.0
106.772,-10.718,7.729,14.0
84.054,-8.419,5.624,7.0
99.479,-9.942,6.111,19.0
69.55,-6.961,6.234,5.0
76.31,-7.619,6.42,4.0
96.859,-9.647,7.616,4.0
84.653,-8.412,6.182,3.0
0.0,0.0,0.0,0.0
99.382,-9.83,6.168,14.0
68.524,-6.787,6.185,5.0
76.297,-7.539,6.466,2.0
96.714,-9.533,7.663,7.0
97.328,-9.571,7.167,7.0
108.679,-10.662,7.406,19.0
99.071,-9.696,6.207,18.0
83.092,-8.144,7.549,2.0
69.735,-6.817,5.95,3.0
96.686,-9.428,7.717,7.0
84.629,-8.232,6.279,8.0
81.002,-7.86,5.564,1.0
99.249,-9.608,6.273,14.0
83.124,-8.058,7.598,3.0
96.731,-9.352,8.306,5.0
100.226,-9.664,8.054,6.0
84.654,-8.142,6.326,10.0
84.098,-8.068,5.821,18.0
86.408,-8.269,5.506,7.0
84.273,-8.075,7.747,11.0
99.834,-9.541,8.624,8.0
84.415,-8.046,6.825,6.0
84.666,-8.048,6.369,11.0
98.718,-9.36,6.881,30.0
99.965,-9.454,6.417,6.0
84.204,-7.973,7.782,22.0
98.597,-9.31,8.564,5.0
97.679,-9.198,7.943,10.0
84.523,-7.937,6.398,10.0
98.315,-9.208,6.898,8.0
86.904,-8.118,5.618,5.0
83.231,-7.784,7.729,6.0
95.381,-8.894,8.327,2.0
98.675,-9.176,8.067,27.0
84.671,-7.851,6.444,8.0
98.292,-9.089,6.938,10.0
100.074,-9.229,6.51,6.0
85.819,-7.924,8.004,6.0
96.027,-8.839,8.422,9.0
99.879,-9.167,8.206,16.0
84.634,-7.746,6.474,8.0
98.031,-8.946,6.957,14.0
87.016,-7.919,5.694,3.0
98.68,-8.99,9.24,18.0
96.576,-8.772,8.505,4.0
96.977,-8.782,8.001,8.0
84.711,-7.648,6.51,27.0
97.849,-8.81,6.976,5.0
87.134,-7.822,5.73,4.0
83.222,-7.479,7.82,5.0
84.599,-7.579,7.478,8.0
105.401,-9.414,8.73,13.0
84.683,-7.541,6.534,10.0
86.445,-7.675,6.19,4.0
87.201,-7.719,5.76,5.0
99.659,-8.831,9.394,16.0
107.81,-9.523,9.56,6.0
110.285,-9.71,9.165,3.0
108.138,-9.491,8.373,10.0
84.389,-7.384,6.064,3.0
105.431,-9.197,6.992,5.0
85.435,-7.46,8.074,7.0
115.428,-10.046,10.264,3.0
108.101,-9.378,9.009,14.0
105.653,-9.137,8.204,13.0
98.284,-8.473,7.085,12.0
100.394,-8.628,6.679,5.0
105.655,-9.088,10.009,23.0
108.225,-9.278,9.646,4.0
106.459,-9.096,8.893,19.0
84.244,-7.174,6.558,9.0
85.286,-7.239,6.164,5.0
108.208,-9.157,7.218,10.0
106.648,-9.031,10.121,10.0
108.758,-9.178,9.712,4.0
97.313,-8.183,8.145,12.0
96.854,-8.118,7.555,3.0
108.022,-9.025,7.822,6.0
108.667,-9.048,7.264,6.0
106.556,-8.879,10.126,4.0
106.256,-8.823,9.501,2.0
84.707,-7.008,7.1,7.0
99.926,-8.24,7.805,5.0
96.613,-7.938,7.007,6.0
98.881,-8.098,6.619,6.0
0.0,0.0,0.0,0.0
105.382,-8.603,9.432,9.0
107.679,-8.76,9.033,6.0
107.923,-8.749,8.437,10.0
100.354,-8.107,7.283,4.0
99.008,-7.971,6.633,3.0
0.0,0.0,0.0,0.0
108.395,-8.699,9.706,8.0
0.0,0.0,0.0,0.0
97.745,-7.789,7.645,7.0
162.959,-12.938,11.832,9.0
122.5,-9.691,8.209,4.0
0.0,0.0,0.0,0.0
0.0,0.0,0.0,0.0
106.037,-8.33,8.898,11.0
107.862,-8.443,8.434,7.0
108.488,-8.46,7.874,3.0
121.052,-9.405,8.108,3.0
0.0,0.0,0.0,0.0
0.0,0.0,0.0,0.0
106.781,-8.235,8.956,1.0
148.394,-11.402,11.595,17.0
0.0,0.0,0.0,0.0
117.374,-8.951,7.853,6.0
0.0,0.0,0.0,0.0
0.0,0.0,0.0,0.0
108.302,-8.195,9.073,8.0
148.545,-11.198,11.591,5.0
108.794,-8.169,7.878,6.0
149.239,-11.165,9.968,14.0
0.0,0.0,0.0,0.0
108.632,-8.095,9.7,10.0
108.785,-8.074,9.099,2.0
108.372,-8.011,8.442,3.0
206.999,-15.243,14.96,12.0
206.868,-15.176,13.786,7.0
0.0,0.0,0.0,0.0
0.0,0.0,0.0,0.0
0.0,0.0,0.0,0.0
108.858,-7.889,8.459,5.0
108.967,-7.865,7.854,7.0
207.047,-14.885,13.758,13.0
0.0,0.0,0.0,0.0
0.0,0.0,0.0,0.0
0.0,0.0,0.0,0.0
0.0,0.0,0.0,0.0
207.52,-14.67,14.908,25.0
149.833,-10.55,9.92,2.0
0.0,0.0,0.0,0.0
0.0,0.0,0.0,0.0
0.0,0.0,0.0,0.0
0.0,0.0,0.0,0.0
150.765,-10.435,10.789,6.0
150.717,-10.389,9.936,4.0
0.0,0.0,0.0,0.0
0.0,0.0,0.0,0.0
0.0,0.0,0.0,0.0
108.823,-7.4,8.369,1.0
210.408,-14.248,14.991,6.0
209.696,-14.139,13.757,14.0
0.0,0.0,0.0,0.0
0.0,0.0,0.0,0.0
0.0,0.0,0.0,0.0
0.0,0.0,0.0,0.0
0.0,0.0,0.0,0.0
156.882,-10.344,10.233,12.0
0.0,0.0,0.0,0.0
0.0,0.0,0.0,0.0
0.0,0.0,0.0,0.0
0.0,0.0,0.0,0.0
0.0,0.0,0.0,0.0
0.0,0.0,0.0,0.0
0.0,0.0,0.0,0.0
0.0,0.0,0.0,0.0
0.0,0.0,0.0,0.0
0.0,0.0,0.0,0.0
0.0,0.0,0.0,0.0
0.0,0.0,0.0,0.0
0.0,0.0,0.0,0.0
0.0,0.0,0.0,0.0
0.0,0.0,0.0,0.0
0.0,0.0,0.0,0.0
0.0,0.0,0.0,0.0
204.876,-12.572,13.085,8.0
0.0,0.0,0.0,0.0
0.0,0.0,0.0,0.0
0.0,0.0,0.0,0.0
0.0,0.0,0.0,0.0
0.0,0.0,0.0,0.0
0.0,0.0,0.0,0.0
0.0,0.0,0.0,0.0
0.0,0.0,0.0,0.0
0.0,0.0,0.0,0.0
0.0,0.0,0.0,0.0
0.0,0.0,0.0,0.0
0.0,0.0,0.0,0.0
0.0,0.0,0.0,0.0
0.0,0.0,0.0,0.0
0.0,0.0,0.0,0.0
0.0,0.0,0.0,0.0
0.0,0.0,0.0,0.0
0.0,0.0,0.0,0.0
0.0,0.0,0.0,0.0
0.0,0.0,0.0,0.0
0.0,0.0,0.0,0.0
0.0,0.0,0.0,0.0
0.0,0.0,0.0,0.0
0.0,0.0,0.0,0.0
0.0,0.0,0.0,0.0
0.0,0.0,0.0,0.0
0.0,0.0,0.0,0.0
92.957,-5.044,6.705,1.0
0.0,0.0,0.0,0.0
0.0,0.0,0.0,0.0
92.387,-4.951,8.194,5.0
0.0,0.0,0.0,0.0
92.818,-4.92,7.167,4.0
90.379,-4.766,6.452,1.0
0.0,0.0,0.0,0.0
0.0,0.0,0.0,0.0
92.08,-4.792,8.096,7.0
83.064,-4.3,6.826,4.0
92.725,-4.773,7.088,3.0
91.386,-4.679,6.452,1.0
0.0,0.0,0.0,0.0
0.0,0.0,0.0,0.0
92.088,-4.652,8.022,1.0
83.652,-4.202,6.806,6.0
92.901,-4.64,7.024,4.0
92.9,-4.615,6.481,2.0
0.0,0.0,0.0,0.0
0.0,0.0,0.0,0.0
92.005,-4.506,7.935,4.0
93.355,-4.546,7.514,4.0
92.812,-4.494,6.937,4.0
92.997,-4.478,6.407,2.0
92.054,-4.407,5.814,1.0
0.0,0.0,0.0,0.0
91.853,-4.358,7.839,3.0
91.8,-4.331,7.306,4.0
89.936,-4.218,6.639,2.0
92.92,-4.333,6.316,4.0
0.0,0.0,0.0,0.0
0.0,0.0,0.0,0.0
90.208,-4.145,7.614,11.0
93.22,-4.257,7.331,5.0
83.455,-3.789,6.082,6.0
89.743,-4.05,6.015,2.0
0.0,0.0,0.0,0.0
0.0,0.0,0.0,0.0
83.83,-3.725,6.993,10.0
92.987,-4.106,7.22,5.0
83.298,-3.656,5.988,8.0
92.989,-4.058,6.14,4.0
83.264,-3.612,5.02,3.0
0.0,0.0,0.0,0.0
83.28,-3.576,6.862,9.0
90.413,-3.858,6.928,7.0
83.29,-3.532,5.902,11.0
90.625,-3.82,5.891,4.0
97.578,-4.089,5.781,3.0
0.0,0.0,0.0,0.0
83.298,-3.453,6.776,10.0
90.387,-3.722,6.83,6.0
83.186,-3.404,5.805,7.0
92.83,-3.774,5.933,13.0
98.388,-3.976,5.723,1.0
0.0,0.0,0.0,0.0
92.574,-3.699,7.427,5.0
90.464,-3.592,6.734,5.0
83.262,-3.285,5.718,3.0
93.777,-3.674,5.889,4.0
0.0,0.0,0.0,0.0
0.0,0.0,0.0,0.0
91.51,-3.523,7.237,4.0
93.014,-3.557,6.818,14.0
90.033,-3.421,6.08,6.0
174.602,-6.592,10.765,26.0
0.0,0.0,0.0,0.0
0.0,0.0,0.0,0.0
91.662,-3.397,7.142,5.0
90.574,-3.333,6.532,8.0
90.212,-3.298,5.985,9.0
174.647,-6.342,10.56,40.0
0.0,0.0,0.0,0.0
0.0,0.0,0.0,0.0
91.724,-3.268,7.035,21.0
0.0,0.0,0.0,0.0
93.168,-3.273,6.068,12.0
