X,Y,Z,Reflectivity
64.901,4.908,4.922,41.0
67.516,5.103,4.729,22.0
70.896,5.355,4.556,10.0
63.992,4.845,5.878,36.0
63.93,4.836,5.501,39.0
0.0,0.0,0.0,0.0
67.856,5.125,5.045,16.0
70.707,5.336,4.848,25.0
132.041,9.96,8.291,11.0
64.066,4.842,5.789,37.0
63.747,4.814,5.389,20.0
64.611,4.875,5.088,39.0
67.919,5.12,4.948,37.0
70.758,5.33,4.745,45.0
132.311,9.959,8.111,11.0
63.921,4.821,5.679,40.0
63.436,4.779,5.267,36.0
64.677,4.868,4.995,39.0
70.838,5.328,5.054,17.0
70.819,5.321,4.644,42.0
132.57,9.953,7.927,14.0
63.944,4.809,5.584,40.0
63.553,4.775,5.181,36.0
64.881,4.869,4.913,21.0
70.725,5.303,4.939,34.0
70.909,5.312,4.541,36.0
133.012,9.955,7.752,11.0
63.814,4.783,5.474,37.0
0.0,0.0,0.0,0.0
67.764,5.068,5.027,11.0
70.754,5.286,4.833,48.0
133.223,9.944,8.329,11.0
133.381,9.946,7.57,11.0
63.578,4.747,5.356,31.0
64.394,4.802,5.051,27.0
67.493,5.027,4.904,9.0
70.8,5.267,4.727,48.0
133.641,9.933,8.15,11.0
133.941,9.944,7.396,10.0
63.445,4.715,5.247,42.0
64.699,4.803,4.975,40.0
70.824,5.251,5.035,29.0
70.885,5.249,4.623,41.0
134.266,9.931,7.982,11.0
134.479,9.935,7.22,9.0
63.774,4.715,5.175,40.0
64.483,4.762,4.859,31.0
70.795,5.221,4.924,31.0
70.928,5.224,4.517,26.0
134.734,9.912,7.801,11.0
157.096,11.543,8.19,5.0
64.309,4.728,5.119,28.0
67.55,4.96,4.985,36.0
70.818,5.192,4.815,19.0
70.83,5.185,4.4,4.0
157.103,11.488,8.853,24.0
157.126,11.474,7.949,20.0
64.859,4.738,5.061,42.0
67.446,4.919,4.871,31.0
70.86,5.161,4.708,20.0
157.137,11.429,9.516,23.0
157.189,11.416,8.611,25.0
157.244,11.406,7.708,14.0
65.007,4.716,4.969,49.0
70.88,5.134,5.008,24.0
70.865,5.125,4.596,30.0
157.356,11.363,9.283,23.0
157.354,11.345,8.375,20.0
112.056,8.067,5.318,17.0
67.4,4.853,5.046,22.0
67.523,4.853,4.664,36.0
70.878,5.085,4.486,34.0
157.457,11.281,9.039,23.0
33.365,2.386,1.723,30.0
113.899,8.134,5.227,2.0
67.301,4.806,4.933,36.0
67.578,4.817,4.563,35.0
157.662,11.219,9.734,20.0
157.666,11.2,8.807,15.0
33.396,2.368,1.673,89.0
115.113,8.151,5.103,19.0
67.332,4.765,4.83,21.0
70.805,5.001,4.669,13.0
157.662,11.116,9.484,14.0
157.783,11.106,8.565,5.0
33.432,2.349,1.622,1.0
157.769,11.065,6.746,28.0
67.352,4.721,4.724,26.0
70.943,4.962,4.565,16.0
168.936,11.795,9.896,13.0
33.389,2.326,1.759,8.0
115.073,8.004,5.402,15.0
157.839,10.959,6.5,42.0
67.617,4.69,4.636,24.0
67.36,4.663,4.228,9.0
128.409,8.871,7.32,13.0
33.419,2.304,1.708,72.0
121.049,8.33,5.492,6.0
157.932,10.847,6.256,38.0
67.604,4.638,4.529,39.0
67.337,4.609,4.121,28.0
128.653,8.789,7.132,10.0
33.415,2.277,1.656,12.0
118.127,8.036,5.175,23.0
157.98,10.726,6.013,46.0
67.517,4.577,4.417,28.0
67.321,4.554,4.015,23.0
128.463,8.672,6.921,17.0
33.435,2.251,1.605,3.0
157.929,10.613,6.672,43.0
158.021,10.598,5.767,38.0
67.517,4.52,4.311,24.0
66.985,4.474,3.889,21.0
33.403,2.225,1.746,12.0
33.419,2.222,1.552,4.0
158.033,10.483,6.43,33.0
158.065,10.461,5.521,40.0
67.349,4.449,4.194,41.0
67.004,4.415,3.786,5.0
33.403,2.195,1.694,51.0
33.441,2.192,1.5,2.0
158.116,10.345,6.186,38.0
158.121,10.321,5.278,28.0
67.074,4.368,4.072,35.0
128.083,8.321,7.039,24.0
157.983,10.237,7.771,38.0
158.03,10.213,6.846,48.0
158.149,10.197,5.943,41.0
158.175,10.173,5.036,48.0
67.021,4.3,3.965,9.0
128.434,8.219,6.859,28.0
158.006,10.085,7.529,39.0
158.054,10.06,6.606,30.0
33.406,2.121,1.204,0.0
158.094,10.011,4.79,18.0
128.432,8.111,7.403,24.0
128.227,8.076,6.651,37.0
158.013,9.924,7.287,18.0
33.388,2.091,1.344,1.0
33.433,2.088,1.154,7.0
33.455,2.084,0.962,130.0
128.466,7.979,7.208,17.0
127.865,7.919,6.437,21.0
158.022,9.758,7.047,14.0
33.417,2.057,1.294,2.0
33.427,2.052,1.103,2.0
33.435,2.047,0.911,2.0
128.187,7.822,6.997,42.0
127.817,7.777,6.242,27.0
33.461,2.029,1.441,1.0
156.96,9.491,5.845,5.0
162.081,9.77,5.104,4.0
157.318,9.456,4.052,7.0
128.055,7.67,6.797,24.0
161.906,9.666,7.663,43.0
157.958,9.402,6.569,17.0
157.577,9.348,5.631,16.0
162.167,9.589,4.864,14.0
162.406,9.575,3.941,4.0
33.435,1.963,1.724,98.0
33.472,1.959,1.533,2.0
158.132,9.224,6.339,13.0
157.431,9.153,5.39,16.0
0.0,0.0,0.0,0.0
162.671,9.394,3.704,5.0
33.438,1.923,1.675,53.0
162.25,9.301,7.196,15.0
158.135,9.034,6.105,19.0
157.023,8.94,5.148,10.0
163.264,9.262,4.416,16.0
163.43,9.241,3.485,35.0
33.487,1.885,1.628,1.0
162.351,9.105,6.963,8.0
158.156,8.838,5.876,9.0
162.367,9.04,5.086,7.0
163.15,9.05,4.175,17.0
162.688,8.993,3.233,10.0
162.293,8.93,7.659,41.0
157.606,8.637,6.532,13.0
157.391,8.593,5.62,14.0
162.554,8.841,4.857,10.0
162.859,8.822,3.933,6.0
105.736,5.707,1.949,6.0
162.456,8.726,7.433,16.0
157.436,8.421,6.299,6.0
156.796,8.351,5.374,16.0
162.453,8.619,4.622,9.0
162.524,8.588,3.693,15.0
105.811,5.568,1.799,14.0
159.76,8.362,7.08,19.0
157.508,8.208,6.076,14.0
156.65,8.13,5.146,16.0
156.514,8.088,4.231,14.0
167.176,8.604,3.562,8.0
105.827,5.423,1.65,34.0
157.459,8.024,6.758,12.0
157.453,7.989,5.855,15.0
156.594,7.909,4.928,12.0
0.0,0.0,0.0,0.0
0.0,0.0,0.0,0.0
105.814,5.273,1.504,26.0
157.299,7.793,6.534,16.0
157.11,7.746,5.626,16.0
156.22,7.666,4.699,17.0
0.0,0.0,0.0,0.0
0.0,0.0,0.0,0.0
82.201,3.978,1.056,4.0
157.358,7.565,6.319,22.0
156.677,7.495,5.396,8.0
174.288,8.296,5.006,15.0
0.0,0.0,0.0,0.0
0.0,0.0,0.0,0.0
78.919,3.701,0.907,9.0
124.369,5.795,4.828,9.0
156.872,7.27,5.192,6.0
159.327,7.346,4.364,8.0
0.0,0.0,0.0,0.0
0.0,0.0,0.0,0.0
77.967,3.539,0.793,19.0
0.0,0.0,0.0,0.0
0.0,0.0,0.0,0.0
0.0,0.0,0.0,0.0
0.0,0.0,0.0,0.0
101.343,4.469,1.477,2.0
0.0,0.0,0.0,0.0
157.543,6.858,5.704,13.0
173.544,7.511,5.294,8.0
0.0,0.0,0.0,0.0
0.0,0.0,0.0,0.0
96.528,4.105,1.283,6.0
73.882,3.124,0.561,12.0
156.761,6.574,5.474,15.0
158.348,6.601,4.627,9.0
0.0,0.0,0.0,0.0
0.0,0.0,0.0,0.0
80.143,3.28,0.964,4.0
59.513,2.42,0.377,17.0
173.161,6.982,5.83,4.0
158.475,6.35,4.433,4.0
0.0,0.0,0.0,0.0
0.0,0.0,0.0,0.0
78.854,3.097,0.85,13.0
58.789,2.294,0.3,14.0
162.611,6.289,5.275,3.0
158.53,6.089,4.24,7.0
0.0,0.0,0.0,0.0
100.961,3.825,1.541,1.0
77.813,2.927,0.745,28.0
54.625,2.041,0.212,28.0
160.29,5.933,5.008,16.0
0.0,0.0,0.0,0.0
0.0,0.0,0.0,0.0
100.943,3.655,1.421,3.0
77.604,2.788,0.651,13.0
54.247,1.935,0.147,14.0
159.22,5.622,4.786,13.0
0.0,0.0,0.0,0.0
0.0,0.0,0.0,0.0
95.794,3.304,1.237,4.0
74.045,2.533,0.535,12.0
48.378,1.641,0.075,23.0
158.854,5.334,4.593,11.0
0.0,0.0,0.0,0.0
0.0,0.0,0.0,0.0
79.941,2.618,0.941,4.0
60.067,1.95,0.366,26.0
47.179,1.518,0.02,23.0
159.187,5.068,4.425,4.0
0.0,0.0,0.0,0.0
0.0,0.0,0.0,0.0
78.255,2.424,0.834,11.0
59.182,1.816,0.295,32.0
40.904,1.244,-0.027,7.0
154.13,4.63,4.114,7.0
0.0,0.0,0.0,0.0
100.557,2.963,1.543,2.0
77.948,2.274,0.747,51.0
54.806,1.583,0.214,20.0
0.0,0.0,0.0,0.0
154.123,4.351,3.95,5.0
0.0,0.0,0.0,0.0
106.023,2.933,1.516,23.0
77.766,2.128,0.663,13.0
54.642,1.48,0.157,10.0
39.498,1.058,-0.109,35.0
0.0,0.0,0.0,0.0
0.0,0.0,0.0,0.0
106.089,2.741,1.409,45.0
74.72,1.907,0.561,21.0
48.672,1.228,0.09,22.0
38.36,0.956,-0.145,44.0
100.404,2.465,2.368,3.0
105.998,2.571,1.9,2.0
93.349,2.236,1.145,3.0
61.526,1.455,0.4,10.0
47.539,1.11,0.041,22.0
37.592,0.867,-0.179,53.0
0.0,0.0,0.0,0.0
106.141,2.374,1.799,2.0
80.639,1.779,0.911,8.0
60.682,1.321,0.337,35.0
0.0,0.0,0.0,0.0
37.185,0.786,-0.213,29.0
128.075,2.662,2.775,41.0
0.0,0.0,0.0,0.0
80.405,1.621,0.834,9.0
0.0,0.0,0.0,0.0
44.676,0.873,-0.045,18.0
37.071,0.713,-0.246,13.0
128.079,2.416,2.658,26.0
126.432,2.345,1.91,30.0
77.999,1.422,0.738,14.0
57.908,1.039,0.216,9.0
39.86,0.702,-0.076,15.0
36.951,0.639,-0.279,6.0
189.821,3.212,3.772,24.0
126.377,2.097,1.798,30.0
77.832,1.268,0.669,37.0
54.801,0.875,0.156,8.0
39.365,0.616,-0.109,38.0
37.007,0.567,-0.311,2.0
189.668,2.841,3.609,30.0
126.244,1.85,1.691,13.0
75.308,1.079,0.584,9.0
47.947,0.671,0.097,55.0
38.752,0.53,-0.139,50.0
33.584,0.448,-0.31,1.0
189.146,2.458,3.444,17.0
48.173,0.61,0.606,30.0
48.07,0.594,0.334,77.0
47.645,0.573,0.058,56.0
38.333,0.448,-0.168,48.0
32.832,0.373,-0.328,1.0
48.126,0.53,0.839,102.0
48.092,0.513,0.567,102.0
48.045,0.497,0.297,98.0
46.799,0.468,0.021,32.0
38.086,0.369,-0.196,35.0
32.186,0.301,-0.347,1.0
48.099,0.432,0.802,115.0
48.071,0.415,0.531,108.0
48.048,0.399,0.261,95.0
0.0,0.0,0.0,0.0
38.044,0.291,-0.224,13.0
31.373,0.229,-0.361,2.0
48.12,0.335,0.768,76.0
48.156,0.318,0.498,52.0
55.038,0.345,0.26,12.0
0.0,0.0,0.0,0.0
37.915,0.212,-0.249,8.0
30.817,0.162,-0.375,2.0
59.3,0.29,0.906,126.0
59.33,0.271,0.574,90.0
59.359,0.251,0.241,7.0
44.005,0.171,-0.072,13.0
37.953,0.135,-0.274,5.0
30.311,0.097,-0.389,2.0
79.47,0.228,1.163,151.0
79.448,0.201,0.718,150.0
55.098,0.12,0.189,25.0
40.803,0.075,-0.092,16.0
38.11,0.056,-0.299,2.0
29.972,0.034,-0.403,1.0
79.465,0.065,1.115,151.0
79.38,0.037,0.669,40.0
0.0,0.0,0.0,0.0
40.695,-0.008,-0.115,17.0
37.632,-0.021,-0.317,0.0
29.65,-0.026,-0.416,3.0
79.461,-0.098,1.07,151.0
79.257,-0.126,0.624,35.0
0.0,0.0,0.0,0.0
40.525,-0.092,-0.137,16.0
34.06,-0.089,-0.306,1.0
29.282,-0.086,-0.426,2.0
79.465,-0.262,1.028,151.0
79.113,-0.289,0.581,14.0
0.0,0.0,0.0,0.0
39.824,-0.173,-0.155,3.0
33.412,-0.157,-0.317,1.0
29.044,-0.147,-0.438,2.0
79.462,-0.43,0.988,161.0
76.843,-0.444,0.526,14.0
51.339,-0.314,0.065,24.0
0.0,0.0,0.0,0.0
33.021,-0.225,-0.329,1.0
28.687,-0.205,-0.446,1.0
79.463,-0.596,0.951,188.0
77.148,-0.606,0.494,12.0
50.317,-0.413,0.041,3.0
42.255,-0.362,-0.204,3.0
32.609,-0.291,-0.339,1.0
28.421,-0.263,-0.454,5.0
79.449,-0.763,0.917,171.0
77.57,-0.773,0.464,9.0
54.534,-0.563,0.022,2.0
42.511,-0.454,-0.223,3.0
31.98,-0.353,-0.346,1.0
28.251,-0.322,-0.463,2.0
79.523,-0.932,0.888,7.0
78.115,-0.943,0.437,4.0
60.733,-0.756,0.002,3.0
42.25,-0.541,-0.237,3.0
31.791,-0.418,-0.355,1.0
27.925,-0.377,-0.467,2.0
123.556,-1.707,1.337,13.0
81.662,-1.157,0.429,1.0
57.846,-0.841,-0.017,0.0
0.0,0.0,0.0,0.0
31.509,-0.481,-0.362,1.0
27.71,-0.433,-0.472,1.0
123.876,-1.975,1.301,12.0
40.301,-0.657,0.199,28.0
40.317,-0.671,-0.024,49.0
40.179,-0.684,-0.251,12.0
31.317,-0.545,-0.369,1.0
27.487,-0.488,-0.476,1.0
40.245,-0.727,0.411,52.0
40.265,-0.742,0.188,57.0
40.322,-0.757,-0.034,46.0
40.145,-0.769,-0.261,6.0
31.026,-0.605,-0.373,1.0
27.295,-0.543,-0.48,1.0
40.266,-0.812,0.402,45.0
0.0,0.0,0.0,0.0
0.0,0.0,0.0,0.0
40.221,-0.856,-0.27,6.0
30.909,-0.668,-0.378,1.0
27.183,-0.598,-0.483,3.0
40.296,-0.898,0.394,32.0
40.299,-0.912,0.171,72.0
40.311,-0.928,-0.051,104.0
40.257,-0.941,-0.277,32.0
30.78,-0.731,-0.382,1.0
27.319,-0.659,-0.49,6.0
40.258,-0.982,0.388,30.0
0.0,0.0,0.0,0.0
40.987,-1.03,-0.058,150.0
40.65,-1.036,-0.286,15.0
30.616,-0.792,-0.384,1.0
27.129,-0.712,-0.491,1.0
40.195,-1.065,0.382,59.0
40.184,-1.08,0.16,42.0
40.38,-1.1,-0.061,74.0
40.061,-1.106,-0.286,4.0
30.564,-0.855,-0.387,1.0
27.05,-0.767,-0.492,1.0
40.21,-1.151,0.379,0.0
40.227,-1.166,0.157,11.0
40.226,-1.181,-0.064,40.0
40.168,-1.194,-0.289,5.0
30.644,-0.922,-0.39,1.0
27.013,-0.823,-0.492,1.0
0.0,0.0,0.0,0.0
0.0,0.0,0.0,0.0
51.913,-1.634,-0.084,0.0
0.0,0.0,0.0,0.0
30.749,-0.991,-0.392,1.0
27.078,-0.882,-0.494,2.0
0.0,0.0,0.0,0.0
0.0,0.0,0.0,0.0
0.0,0.0,0.0,0.0
37.886,-1.286,-0.274,0.0
30.672,-1.053,-0.39,1.0
27.082,-0.939,-0.494,2.0
0.0,0.0,0.0,0.0
0.0,0.0,0.0,0.0
50.754,-1.81,-0.08,2.0
40.041,-1.442,-0.287,6.0
30.666,-1.116,-0.389,1.0
27.109,-0.997,-0.493,2.0
0.0,0.0,0.0,0.0
0.0,0.0,0.0,0.0
40.137,-1.514,-0.06,155.0
37.763,-1.438,-0.268,36.0
31.043,-1.194,-0.391,1.0
27.171,-1.055,-0.491,2.0
0.0,0.0,0.0,0.0
0.0,0.0,0.0,0.0
37.792,-1.504,-0.052,145.0
37.745,-1.516,-0.263,68.0
31.265,-1.267,-0.39,1.0
27.248,-1.115,-0.489,2.0
0.0,0.0,0.0,0.0
0.0,0.0,0.0,0.0
50.428,-2.11,-0.063,0.0
37.804,-1.596,-0.258,1.0
31.097,-1.324,-0.382,1.0
27.407,-1.177,-0.487,1.0
0.0,0.0,0.0,0.0
0.0,0.0,0.0,0.0
50.462,-2.215,-0.053,1.0
39.95,-1.769,-0.265,0.0
31.368,-1.4,-0.379,1.0
27.536,-1.239,-0.484,2.0
0.0,0.0,0.0,0.0
0.0,0.0,0.0,0.0
50.379,-2.313,-0.042,0.0
40.763,-1.887,-0.261,0.0
0.0,0.0,0.0,0.0
28.021,-1.318,-0.485,3.0
0.0,0.0,0.0,0.0
0.0,0.0,0.0,0.0
50.549,-2.423,-0.029,1.0
40.952,-1.979,-0.251,0.0
32.359,-1.575,-0.375,1.0
28.187,-1.382,-0.48,7.0
0.0,0.0,0.0,0.0
0.0,0.0,0.0,0.0
59.845,-2.991,-0.016,2.0
41.865,-2.107,-0.243,0.0
32.555,-1.651,-0.367,1.0
28.356,-1.448,-0.474,7.0
0.0,0.0,0.0,0.0
0.0,0.0,0.0,0.0
59.449,-3.089,0.003,4.0
41.523,-2.173,-0.227,0.0
33.011,-1.74,-0.361,1.0
28.272,-1.5,-0.463,5.0
0.0,0.0,0.0,0.0
0.0,0.0,0.0,0.0
59.821,-3.229,0.026,10.0
0.0,0.0,0.0,0.0
33.845,-1.851,-0.357,1.0
28.773,-1.584,-0.46,2.0
0.0,0.0,0.0,0.0
0.0,0.0,0.0,0.0
58.428,-3.267,0.048,6.0
0.0,0.0,0.0,0.0
34.132,-1.933,-0.346,0.0
29.026,-1.654,-0.452,2.0
0.0,0.0,0.0,0.0
0.0,0.0,0.0,0.0
59.335,-3.433,0.075,3.0
0.0,0.0,0.0,0.0
35.776,-2.096,-0.346,0.0
29.402,-1.733,-0.444,1.0
0.0,0.0,0.0,0.0
0.0,0.0,0.0,0.0
62.775,-3.752,0.109,2.0
50.409,-3.031,-0.19,1.0
0.0,0.0,0.0,0.0
29.731,-1.809,-0.435,1.0
187.364,-11.427,2.456,6.0
0.0,0.0,0.0,0.0
62.458,-3.852,0.141,3.0
50.369,-3.124,-0.164,1.0
37.345,-2.33,-0.324,0.0
30.221,-1.896,-0.426,1.0
0.0,0.0,0.0,0.0
0.0,0.0,0.0,0.0
0.0,0.0,0.0,0.0
50.376,-3.219,-0.136,2.0
37.783,-2.428,-0.307,0.0
30.651,-1.981,-0.415,1.0
187.213,-12.123,2.659,6.0
0.0,0.0,0.0,0.0
0.0,0.0,0.0,0.0
50.316,-3.31,-0.107,1.0
0.0,0.0,0.0,0.0
31.356,-2.084,-0.406,1.0
187.072,-12.456,2.769,11.0
0.0,0.0,0.0,0.0
0.0,0.0,0.0,0.0
50.473,-3.411,-0.076,4.0
40.638,-2.761,-0.281,0.0
32.072,-2.19,-0.395,1.0
161.229,-11.027,2.487,4.0
0.0,0.0,0.0,0.0
0.0,0.0,0.0,0.0
50.52,-3.506,-0.044,1.0
41.504,-2.894,-0.26,0.0
32.64,-2.287,-0.381,1.0
0.0,0.0,0.0,0.0
0.0,0.0,0.0,0.0
0.0,0.0,0.0,0.0
61.037,-4.344,-0.012,2.0
0.0,0.0,0.0,0.0
33.331,-2.395,-0.366,0.0
0.0,0.0,0.0,0.0
149.089,-10.776,1.698,3.0
0.0,0.0,0.0,0.0
61.815,-4.509,0.031,3.0
0.0,0.0,0.0,0.0
34.874,-2.567,-0.358,1.0
148.645,-10.956,2.603,5.0
148.532,-10.995,1.8,151.0
0.0,0.0,0.0,0.0
62.088,-4.635,0.077,1.0
0.0,0.0,0.0,0.0
35.933,-2.707,-0.342,0.0
148.597,-11.206,2.714,12.0
148.463,-11.243,1.912,34.0
0.0,0.0,0.0,0.0
0.0,0.0,0.0,0.0
50.497,-3.873,-0.17,1.0
0.0,0.0,0.0,0.0
148.468,-11.447,2.827,8.0
128.656,-9.96,1.758,2.0
0.0,0.0,0.0,0.0
0.0,0.0,0.0,0.0
50.429,-3.951,-0.129,5.0
0.0,0.0,0.0,0.0
0.0,0.0,0.0,0.0
128.171,-10.134,1.856,255.0
0.0,0.0,0.0,0.0
0.0,0.0,0.0,0.0
50.517,-4.04,-0.088,4.0
40.781,-3.274,-0.29,0.0
0.0,0.0,0.0,0.0
122.381,-9.871,1.874,2.0
122.482,-9.916,1.217,2.0
0.0,0.0,0.0,0.0
0.0,0.0,0.0,0.0
0.0,0.0,0.0,0.0
201.823,-16.538,4.35,27.0
0.0,0.0,0.0,0.0
0.0,0.0,0.0,0.0
0.0,0.0,0.0,0.0
0.0,0.0,0.0,0.0
0.0,0.0,0.0,0.0
165.091,-13.783,3.703,63.0
0.0,0.0,0.0,0.0
121.792,-10.239,1.426,18.0
0.0,0.0,0.0,0.0
0.0,0.0,0.0,0.0
0.0,0.0,0.0,0.0
189.128,-16.081,4.416,18.0
0.0,0.0,0.0,0.0
121.767,-10.421,1.538,175.0
0.0,0.0,0.0,0.0
0.0,0.0,0.0,0.0
50.418,-4.358,-0.177,1.0
157.331,-13.611,3.821,89.0
0.0,0.0,0.0,0.0
111.3,-9.689,1.511,6.0
111.638,-9.749,0.906,1.0
0.0,0.0,0.0,0.0
50.465,-4.435,-0.13,7.0
188.664,-16.595,4.764,44.0
188.549,-16.633,3.752,7.0
109.851,-9.721,1.598,7.0
109.188,-9.692,0.994,1.0
0.0,0.0,0.0,0.0
50.528,-4.513,-0.08,4.0
188.352,-16.836,4.944,54.0
188.221,-16.874,3.934,31.0
108.913,-9.792,1.693,11.0
108.667,-9.798,1.098,151.0
90.496,-8.184,0.43,1.0
0.0,0.0,0.0,0.0
188.157,-17.077,5.127,36.0
188.3,-17.138,4.124,45.0
108.737,-9.925,1.801,18.0
108.551,-9.935,1.207,152.0
90.933,-8.347,0.526,1.0
60.846,-5.601,0.026,0.0
149.427,-13.763,4.227,34.0
188.395,-17.399,4.321,47.0
108.558,-10.052,1.909,7.0
108.477,-10.071,1.319,63.0
0.0,0.0,0.0,0.0
0.0,0.0,0.0,0.0
187.936,-17.558,5.513,30.0
188.128,-17.619,4.515,54.0
108.841,-10.219,2.03,7.0
0.0,0.0,0.0,0.0
100.89,-9.523,0.795,1.0
0.0,0.0,0.0,0.0
148.917,-14.101,4.528,63.0
149.494,-14.19,3.748,50.0
108.819,-10.354,2.147,14.0
100.803,-9.615,1.441,14.0
100.671,-9.627,0.903,1.0
0.0,0.0,0.0,0.0
149.286,-14.321,4.703,38.0
149.437,-14.369,3.911,56.0
149.509,-14.41,3.115,56.0
97.831,-9.452,1.507,2.0
97.394,-9.431,0.981,3.0
91.531,-8.885,0.434,0.0
149.289,-14.501,4.869,23.0
188.091,-18.308,5.131,38.0
149.534,-14.588,3.282,19.0
96.739,-9.459,1.598,3.0
96.309,-9.439,1.078,1.0
91.026,-8.941,0.535,1.0
149.622,-14.706,5.048,38.0
188.187,-18.536,5.347,51.0
187.848,-18.54,4.338,49.0
95.739,-9.47,1.691,13.0
95.307,-9.447,1.175,5.0
94.969,-9.435,0.666,4.0
149.637,-14.875,5.223,26.0
188.078,-18.733,5.561,49.0
187.668,-18.731,4.549,36.0
0.0,0.0,0.0,0.0
94.661,-9.486,1.276,14.0
94.513,-9.491,0.772,4.0
148.334,-14.904,5.349,61.0
188.119,-18.937,5.78,47.0
187.97,-18.959,4.775,48.0
95.977,-9.699,1.917,12.0
89.778,-9.09,1.316,4.0
89.467,-9.076,0.836,4.0
148.384,-15.064,5.524,29.0
188.239,-19.144,6.005,34.0
187.98,-19.15,4.996,52.0
96.157,-9.814,2.034,4.0
88.543,-9.054,1.402,14.0
87.869,-9.001,0.924,4.0
124.332,-12.745,4.777,45.0
189.395,-19.448,6.269,23.0
188.184,-19.357,5.227,28.0
157.661,-16.245,3.525,117.0
87.418,-9.022,1.489,12.0
86.66,-8.96,1.016,10.0
122.913,-12.718,4.871,49.0
189.591,-19.646,6.505,27.0
188.045,-19.517,5.449,45.0
187.98,-19.542,4.429,40.0
86.913,-9.05,1.586,4.0
86.493,-9.021,1.119,22.0
107.034,-11.172,4.371,46.0
190.042,-19.865,6.751,26.0
188.009,-19.682,5.678,24.0
187.936,-19.703,4.658,44.0
86.864,-9.12,1.69,4.0
86.425,-9.089,1.223,52.0
107.716,-11.335,4.531,93.0
107.363,-11.314,3.945,34.0
188.329,-19.872,5.917,33.0
187.703,-19.835,4.881,24.0
86.883,-9.194,1.797,1.0
86.38,-9.155,1.328,49.0
107.923,-11.446,4.672,51.0
107.339,-11.398,4.077,27.0
188.149,-20.006,6.146,22.0
123.555,-13.155,3.367,49.0
123.562,-13.174,2.709,8.0
86.395,-9.223,1.436,30.0
107.96,-11.534,4.809,50.0
106.932,-11.438,4.194,33.0
123.318,-13.205,4.181,52.0
123.482,-13.239,3.516,101.0
123.595,-13.268,2.863,31.0
86.404,-9.287,1.543,36.0
108.148,-11.633,4.953,19.0
107.525,-11.579,4.351,56.0
107.326,-11.57,3.772,57.0
123.431,-13.32,3.67,90.0
123.587,-13.353,3.018,65.0
86.389,-9.345,1.651,17.0
105.468,-11.418,4.962,19.0
115.717,-12.539,4.827,22.0
107.02,-11.608,3.895,83.0
123.382,-13.396,3.822,73.0
123.559,-13.429,3.17,28.0
86.583,-9.42,1.761,1.0
108.203,-11.782,5.225,26.0
105.856,-11.537,4.547,16.0
106.901,-11.66,4.023,58.0
123.414,-13.474,3.974,68.0
187.46,-20.486,5.042,26.0
86.815,-9.496,1.873,7.0
108.242,-11.851,5.362,20.0
105.856,-11.598,4.68,33.0
106.472,-11.675,4.14,44.0
107.354,-11.782,3.593,57.0
187.512,-20.597,5.278,30.0
86.841,-9.547,1.984,7.0
99.263,-10.923,5.044,40.0
148.903,-16.397,6.773,15.0
106.363,-11.721,4.272,44.0
107.15,-11.816,3.722,67.0
187.524,-20.695,5.517,34.0
187.49,-20.708,4.522,18.0
99.396,-10.988,5.176,46.0
108.252,-11.974,5.061,8.0
106.112,-11.745,4.396,43.0
106.863,-11.836,3.848,57.0
107.413,-11.905,3.297,55.0
187.489,-20.794,4.758,44.0
108.236,-12.016,5.775,29.0
100.086,-11.116,4.806,26.0
105.878,-11.765,4.521,45.0
106.518,-11.843,3.97,50.0
107.351,-11.943,3.43,78.0
107.473,-11.964,2.863,12.0
107.799,-12.012,5.89,17.0
99.514,-11.093,4.907,86.0
105.978,-11.819,4.66,61.0
106.507,-11.884,4.104,48.0
107.321,-11.98,3.564,51.0
107.451,-12.001,2.997,62.0
98.453,-11.007,5.503,47.0
99.26,-11.101,5.018,33.0
106.243,-11.886,4.805,74.0
107.439,-12.024,4.275,22.0
107.335,-12.017,3.7,30.0
107.379,-12.027,3.131,63.0
98.406,-11.034,5.623,27.0
98.523,-11.05,5.106,4.0
100.122,-11.232,4.655,29.0
123.037,-13.806,5.052,16.0
115.973,-13.018,4.144,51.0
107.358,-12.055,3.265,65.0
90.719,-10.198,5.3,13.0
98.479,-11.071,5.227,48.0
99.743,-11.216,4.762,96.0
116.631,-13.117,4.935,21.0
116.056,-13.055,4.293,24.0
107.371,-12.081,3.399,40.0
86.051,-9.693,5.135,12.0
98.477,-11.093,5.35,43.0
99.3,-11.187,4.866,63.0
105.589,-11.897,4.601,8.0
203.15,-22.893,7.771,26.0
107.438,-12.108,3.537,19.0
101.154,-11.414,6.164,27.0
104.619,-11.804,5.816,14.0
99.33,-11.207,4.992,20.0
117.346,-13.24,5.259,20.0
123.116,-13.892,4.862,16.0
115.947,-13.084,3.961,43.0
101.115,-11.423,6.289,15.0
100.917,-11.4,5.737,13.0
104.998,-11.86,5.407,26.0
99.902,-11.283,4.602,18.0
123.099,-13.902,5.014,25.0
115.971,-13.097,4.106,57.0
86.814,-9.816,5.508,3.0
100.923,-11.409,5.862,14.0
98.492,-11.132,5.195,42.0
99.556,-11.251,4.708,96.0
107.705,-12.17,4.518,18.0
115.989,-13.105,4.248,41.0
81.609,-9.232,5.277,8.0
101.045,-11.427,5.992,20.0
98.499,-11.136,5.315,29.0
99.29,-11.223,4.816,64.0
107.765,-12.178,4.652,15.0
116.13,-13.121,4.392,19.0
81.702,-9.243,5.383,6.0
101.126,-11.436,6.121,31.0
100.853,-11.401,5.563,17.0
99.304,-11.222,4.937,32.0
117.33,-13.255,5.206,16.0
123.083,-13.901,4.804,11.0
90.856,-10.275,6.096,8.0
101.157,-11.434,6.246,20.0
100.861,-11.396,5.686,15.0
105.129,-11.873,5.353,23.0
117.395,-13.254,5.349,23.0
123.079,-13.89,4.951,23.0
90.912,-10.274,6.208,10.0
86.94,-9.819,5.47,2.0
100.855,-11.385,5.805,5.0
98.495,-11.113,5.132,25.0
99.806,-11.255,4.666,57.0
107.704,-12.14,4.459,16.0
86.351,-9.747,6.0,8.0
81.563,-9.201,5.228,7.0
86.038,-9.699,5.053,11.0
98.474,-11.095,5.246,57.0
99.604,-11.216,4.772,94.0
116.67,-13.131,4.966,15.0
68.278,-7.695,4.824,4.0
81.645,-9.195,5.329,11.0
86.077,-9.687,5.155,11.0
98.46,-11.074,5.359,66.0
99.308,-11.161,4.873,65.0
105.836,-11.888,4.626,17.0
84.323,-9.485,6.055,10.0
81.705,-9.183,5.427,3.0
101.246,-11.371,6.179,12.0
98.423,-11.045,5.469,60.0
99.295,-11.135,4.984,35.0
106.315,-11.914,4.767,53.0
84.238,-9.454,6.143,31.0
86.413,-9.689,5.837,6.0
101.273,-11.345,6.295,16.0
98.391,-11.013,5.577,49.0
108.287,-12.111,5.557,28.0
105.742,-11.817,4.859,58.0
84.16,-9.419,6.233,42.0
86.277,-9.647,5.923,9.0
98.418,-10.993,6.228,8.0
98.354,-10.976,5.684,52.0
108.045,-12.048,5.662,37.0
100.088,-11.151,4.707,25.0
69.11,-7.711,5.193,4.0
86.312,-9.62,6.019,6.0
81.479,-9.072,5.243,16.0
98.338,-10.939,5.787,41.0
99.158,-11.019,5.303,5.0
108.22,-12.015,5.205,21.0
69.011,-7.674,5.259,12.0
68.392,-7.595,4.843,2.0
81.558,-9.048,5.334,11.0
98.278,-10.891,5.888,38.0
108.58,-12.021,5.92,22.0
108.187,-11.965,5.316,43.0
68.833,-7.624,5.319,8.0
68.327,-7.559,4.91,6.0
97.891,-10.816,6.506,24.0
98.237,-10.842,5.989,42.0
90.494,-9.976,5.029,9.0
99.27,-10.931,4.983,34.0
68.487,-7.553,5.364,4.0
84.428,-9.299,6.154,12.0
97.756,-10.753,6.598,25.0
98.203,-10.788,6.088,16.0
108.413,-11.896,6.136,8.0
99.266,-10.88,5.082,45.0
83.939,-9.214,6.66,14.0
83.481,-9.151,6.17,14.0
97.697,-10.694,6.692,15.0
98.343,-10.751,6.194,7.0
90.098,-9.837,5.188,3.0
99.35,-10.834,5.185,64.0
83.801,-9.152,6.733,13.0
82.797,-9.029,6.203,6.0
86.233,-9.39,5.992,5.0
81.524,-8.865,5.214,9.0
86.038,-9.343,5.038,9.0
99.301,-10.768,5.279,30.0
83.748,-9.097,6.809,13.0
82.517,-8.949,6.261,7.0
86.16,-9.329,6.07,3.0
81.432,-8.804,5.287,9.0
86.067,-9.292,5.122,7.0
99.311,-10.706,5.373,7.0
69.002,-7.45,5.677,9.0
69.289,-7.469,5.323,4.0
97.496,-10.494,6.959,10.0
99.189,-10.658,6.532,11.0
100.23,-10.753,6.057,30.0
147.621,-15.815,8.121,15.0
69.015,-7.405,5.741,7.0
68.894,-7.379,5.356,8.0
68.395,-7.314,4.944,5.0
106.417,-11.361,7.104,6.0
99.885,-10.646,6.126,23.0
104.568,-11.128,5.845,20.0
69.046,-7.36,5.804,9.0
68.936,-7.334,5.42,10.0
82.507,-8.763,6.036,6.0
86.305,-9.151,5.836,4.0
99.222,-10.502,6.17,26.0
90.734,-9.589,5.149,4.0
69.04,-7.308,5.864,7.0
68.91,-7.28,5.476,9.0
82.344,-8.684,6.094,9.0
97.945,-10.31,6.705,10.0
99.185,-10.422,6.25,7.0
99.283,-10.415,5.716,33.0
78.267,-8.223,6.712,3.0
68.928,-7.228,5.534,11.0
82.738,-8.659,6.191,6.0
97.825,-10.218,6.777,10.0
81.542,-8.502,5.205,6.0
101.936,-10.609,5.952,5.0
84.882,-8.848,7.349,9.0
68.979,-7.175,5.594,12.0
86.874,-9.018,6.57,1.0
86.116,-8.922,6.033,5.0
81.591,-8.437,5.271,7.0
105.104,-10.848,6.218,12.0
84.712,-8.757,7.4,15.0
69.127,-7.131,5.659,14.0
91.214,-9.389,6.969,1.0
82.546,-8.479,5.846,6.0
91.738,-9.405,5.996,1.0
86.217,-8.821,5.165,12.0
78.326,-8.026,6.901,3.0
68.91,-7.045,5.693,8.0
96.922,-9.888,7.476,11.0
81.77,-8.325,5.851,13.0
89.397,-9.082,5.908,1.0
86.271,-8.747,5.23,13.0
84.94,-8.625,7.544,2.0
76.419,-7.742,6.367,4.0
96.912,-9.797,7.542,4.0
97.463,-9.83,7.041,4.0
106.919,-10.761,7.139,3.0
99.48,-9.99,6.098,32.0
69.586,-6.999,6.228,3.0
76.361,-7.662,6.414,5.0
84.259,-8.435,6.614,3.0
97.488,-9.736,7.108,7.0
84.056,-8.376,5.668,32.0
99.539,-9.897,6.166,12.0
69.047,-6.875,6.224,4.0
76.257,-7.574,6.455,3.0
96.753,-9.587,7.657,5.0
97.433,-9.631,7.165,6.0
84.02,-8.286,5.717,5.0
99.031,-9.744,6.196,24.0
89.994,-8.867,8.169,4.0
76.232,-7.493,6.499,2.0
96.661,-9.476,7.708,5.0
84.589,-8.273,6.271,7.0
99.796,-9.737,6.85,5.0
99.279,-9.663,6.269,14.0
83.002,-8.09,7.583,2.0
96.872,-9.418,8.314,5.0
96.691,-9.377,7.765,3.0
84.614,-8.184,6.32,8.0
84.052,-8.109,5.816,15.0
86.395,-8.315,5.503,8.0
106.627,-10.277,9.799,4.0
99.635,-9.576,8.606,11.0
96.257,-9.228,7.781,7.0
98.224,-9.392,7.387,15.0
98.529,-9.397,6.868,27.0
86.473,-8.226,5.552,7.0
84.279,-8.028,7.788,13.0
85.513,-8.123,7.428,3.0
96.005,-9.095,7.809,5.0
99.833,-9.432,7.557,6.0
98.736,-9.305,6.929,18.0
86.567,-8.136,5.598,4.0
84.403,-7.943,7.839,4.0
98.023,-9.199,8.56,17.0
97.629,-9.136,7.984,7.0
98.802,-9.22,7.524,24.0
98.281,-9.147,6.941,14.0
100.157,-9.297,6.52,5.0
97.907,-9.099,9.136,18.0
101.154,-9.374,8.877,5.0
98.672,-9.117,8.111,6.0
84.615,-7.796,6.478,13.0
84.127,-7.729,5.975,9.0
86.939,-7.964,5.695,2.0
83.258,-7.637,7.802,6.0
96.534,-8.828,8.509,6.0
96.954,-8.84,8.007,10.0
84.691,-7.699,6.516,20.0
97.98,-8.882,6.995,12.0
98.278,-8.884,6.472,4.0
83.324,-7.541,7.837,9.0
99.746,-9.0,8.827,10.0
96.969,-8.723,8.041,9.0
84.72,-7.598,6.546,8.0
106.404,-9.514,7.631,5.0
87.174,-7.771,5.77,6.0
83.228,-7.427,7.856,6.0
84.331,-7.501,7.489,12.0
105.556,-9.361,8.785,2.0
84.696,-7.487,6.569,13.0
86.462,-7.621,6.226,4.0
105.84,-9.301,7.034,5.0
99.756,-8.775,9.443,6.0
84.152,-7.378,7.495,6.0
115.583,-10.101,9.651,11.0
106.055,-9.24,8.253,11.0
97.754,-8.49,7.064,11.0
105.305,-9.117,7.024,8.0
85.472,-7.407,8.111,8.0
105.71,-9.132,9.441,13.0
105.704,-9.101,8.849,15.0
105.086,-9.018,8.201,13.0
97.309,-8.324,7.051,5.0
108.176,-9.224,7.238,6.0
106.441,-9.084,10.122,3.0
106.688,-9.074,9.548,18.0
106.206,-9.003,8.91,5.0
96.937,-8.189,7.582,8.0
98.76,-8.315,7.174,9.0
108.638,-9.118,7.285,7.0
106.562,-8.951,10.151,7.0
106.179,-8.887,9.519,10.0
85.107,-7.099,7.153,7.0
100.014,-8.313,7.836,2.0
107.961,-8.944,7.856,9.0
108.666,-8.972,7.301,7.0
106.584,-8.807,10.165,2.0
105.599,-8.694,9.478,2.0
97.134,-7.968,8.174,4.0
106.203,-8.682,8.331,6.0
96.748,-7.882,7.048,4.0
108.675,-8.824,7.31,6.0
0.0,0.0,0.0,0.0
105.367,-8.53,9.464,5.0
107.371,-8.66,9.042,9.0
98.017,-7.877,7.694,13.0
100.81,-8.073,7.348,8.0
108.788,-8.683,7.322,4.0
107.713,-8.6,10.285,2.0
107.468,-8.548,9.656,5.0
98.656,-7.819,8.309,11.0
107.799,-8.513,8.463,3.0
108.614,-8.547,7.917,1.0
108.985,-8.546,7.334,1.0
0.0,0.0,0.0,0.0
0.0,0.0,0.0,0.0
108.823,-8.471,9.163,5.0
107.796,-8.36,8.458,6.0
148.38,-11.465,10.811,15.0
105.711,-8.138,7.109,1.0
0.0,0.0,0.0,0.0
108.487,-8.321,9.739,3.0
148.395,-11.338,12.485,11.0
148.169,-11.278,11.616,4.0
108.743,-8.245,7.914,5.0
157.844,-11.925,10.602,10.0
0.0,0.0,0.0,0.0
0.0,0.0,0.0,0.0
108.371,-8.124,9.106,4.0
148.754,-11.108,11.645,5.0
207.114,-15.405,15.048,17.0
149.054,-11.044,9.991,3.0
0.0,0.0,0.0,0.0
0.0,0.0,0.0,0.0
0.0,0.0,0.0,0.0
108.683,-7.957,8.491,9.0
207.249,-15.113,15.024,11.0
158.975,-11.547,10.629,10.0
0.0,0.0,0.0,0.0
0.0,0.0,0.0,0.0
108.907,-7.845,9.112,4.0
108.921,-7.813,8.487,2.0
207.671,-14.838,15.011,16.0
207.14,-14.741,13.805,9.0
0.0,0.0,0.0,0.0
0.0,0.0,0.0,0.0
0.0,0.0,0.0,0.0
0.0,0.0,0.0,0.0
207.81,-14.541,14.969,12.0
150.512,-10.488,9.993,11.0
0.0,0.0,0.0,0.0
0.0,0.0,0.0,0.0
0.0,0.0,0.0,0.0
109.018,-7.494,8.437,5.0
210.622,-14.419,15.109,10.0
148.296,-10.111,9.8,10.0
0.0,0.0,0.0,0.0
0.0,0.0,0.0,0.0
0.0,0.0,0.0,0.0
0.0,0.0,0.0,0.0
0.0,0.0,0.0,0.0
209.817,-13.992,13.794,13.0
0.0,0.0,0.0,0.0
0.0,0.0,0.0,0.0
0.0,0.0,0.0,0.0
0.0,0.0,0.0,0.0
0.0,0.0,0.0,0.0
0.0,0.0,0.0,0.0
0.0,0.0,0.0,0.0
0.0,0.0,0.0,0.0
0.0,0.0,0.0,0.0
0.0,0.0,0.0,0.0
0.0,0.0,0.0,0.0
203.263,-12.939,13.197,5.0
0.0,0.0,0.0,0.0
0.0,0.0,0.0,0.0
0.0,0.0,0.0,0.0
0.0,0.0,0.0,0.0
0.0,0.0,0.0,0.0
0.0,0.0,0.0,0.0
0.0,0.0,0.0,0.0
0.0,0.0,0.0,0.0
0.0,0.0,0.0,0.0
0.0,0.0,0.0,0.0
0.0,0.0,0.0,0.0
202.207,-12.257,12.927,5.0
0.0,0.0,0.0,0.0
0.0,0.0,0.0,0.0
0.0,0.0,0.0,0.0
0.0,0.0,0.0,0.0
0.0,0.0,0.0,0.0
0.0,0.0,0.0,0.0
0.0,0.0,0.0,0.0
0.0,0.0,0.0,0.0
0.0,0.0,0.0,0.0
0.0,0.0,0.0,0.0
0.0,0.0,0.0,0.0
0.0,0.0,0.0,0.0
0.0,0.0,0.0,0.0
0.0,0.0,0.0,0.0
93.078,-5.294,7.384,1.0
0.0,0.0,0.0,0.0
0.0,0.0,0.0,0.0
0.0,0.0,0.0,0.0
0.0,0.0,0.0,0.0
0.0,0.0,0.0,0.0
91.575,-5.068,7.203,2.0
0.0,0.0,0.0,0.0
0.0,0.0,0.0,0.0
0.0,0.0,0.0,0.0
92.373,-5.023,8.259,4.0
0.0,0.0,0.0,0.0
83.085,-4.47,6.476,3.0
0.0,0.0,0.0,0.0
0.0,0.0,0.0,0.0
0.0,0.0,0.0,0.0
92.408,-4.883,8.194,3.0
92.079,-4.839,7.635,4.0
92.708,-4.846,7.156,3.0
91.482,-4.756,6.528,3.0
0.0,0.0,0.0,0.0
0.0,0.0,0.0,0.0
92.382,-4.739,8.119,3.0
93.472,-4.77,7.677,4.0
83.07,-4.216,6.345,6.0
91.436,-4.615,6.45,3.0
0.0,0.0,0.0,0.0
0.0,0.0,0.0,0.0
0.0,0.0,0.0,0.0
93.331,-4.62,7.587,6.0
92.35,-4.546,6.976,8.0
91.46,-4.478,6.376,2.0
92.137,-4.486,5.895,1.0
0.0,0.0,0.0,0.0
83.956,-4.052,7.234,1.0
93.398,-4.482,7.511,5.0
92.424,-4.411,6.901,6.0
89.637,-4.254,6.17,3.0
92.308,-4.356,5.824,1.0
0.0,0.0,0.0,0.0
83.945,-3.925,7.157,7.0
92.845,-4.315,7.381,8.0
83.541,-3.861,6.161,5.0
89.779,-4.126,6.095,3.0
0.0,0.0,0.0,0.0
0.0,0.0,0.0,0.0
83.855,-3.795,7.069,10.0
93.12,-4.188,7.313,3.0
83.4,-3.729,6.07,5.0
93.071,-4.138,6.229,2.0
0.0,0.0,0.0,0.0
0.0,0.0,0.0,0.0
92.722,-4.057,7.725,14.0
92.928,-4.041,7.205,4.0
83.344,-3.602,5.982,7.0
89.999,-3.866,5.932,5.0
83.301,-3.557,5.012,5.0
0.0,0.0,0.0,0.0
83.322,-3.522,6.855,13.0
90.364,-3.796,6.913,11.0
83.292,-3.477,5.891,9.0
93.086,-3.861,6.038,5.0
97.637,-4.026,5.771,4.0
0.0,0.0,0.0,0.0
83.389,-3.401,6.771,4.0
92.423,-3.745,6.97,17.0
83.361,-3.357,5.805,9.0
93.482,-3.74,5.962,10.0
98.307,-3.908,5.703,2.0
0.0,0.0,0.0,0.0
83.637,-3.288,6.697,3.0
93.055,-3.634,6.913,10.0
83.267,-3.231,5.705,4.0
93.883,-3.619,5.88,4.0
0.0,0.0,0.0,0.0
0.0,0.0,0.0,0.0
91.641,-3.469,7.232,4.0
93.019,-3.498,6.803,4.0
90.452,-3.38,6.092,13.0
174.584,-6.48,10.732,39.0
0.0,0.0,0.0,0.0
0.0,0.0,0.0,0.0
91.532,-3.334,7.114,14.0
83.231,-3.011,5.987,11.0
93.162,-3.347,6.163,12.0
174.575,-6.231,10.524,43.0
0.0,0.0,0.0,0.0
0.0,0.0,0.0,0.0
92.069,-3.222,7.043,12.0
83.055,-2.886,5.872,27.0
93.16,-3.215,6.047,28.0
174.8,-5.992,10.319,40.0
0.0,0.0,0.0,0.0
0.0,0.0,0.0,0.0
92.75,-3.115,6.977,12.0
83.112,-2.772,5.771,29.0
93.14,-3.083,5.927,13.0
175.32,-5.762,10.124,19.0
0.0,0.0,0.0,0.0
0.0,0.0,0.0,0.0
90.383,-2.908,6.68,13.0
83.277,-2.66,5.672,43.0
93.017,-2.949,5.795,48.0
90.518,-2.85,5.108,42.0
0.0,0.0,0.0,0.0
0.0,0.0,0.0,0.0
83.096,-2.56,6.03,7.0
83.613,-2.556,5.582,66.0
93.138,-2.826,5.677,20.0
90.494,-2.725,4.983,30.0
0.0,0.0,0.0,0.0
0.0,0.0,0.0,0.0
83.635,-2.462,5.953,43.0
90.619,-2.646,5.924,15.0
83.447,-2.419,4.971,23.0
90.467,-2.601,4.855,50.0
178.434,-5.091,8.542,12.0
129.065,-3.653,5.432,22.0
93.285,-2.62,6.507,2.0
92.331,-2.573,5.904,44.0
90.317,-2.496,5.251,27.0
93.059,-2.551,4.861,15.0
128.957,-3.507,5.988,46.0
129.177,-3.487,5.252,44.0
94.314,-2.524,6.442,2.0
92.317,-2.451,5.769,17.0
98.96,-2.605,5.61,24.0
93.071,-2.43,4.726,32.0
128.959,-3.341,5.802,50.0
40.226,-1.033,1.576,9.0
97.637,-2.487,6.525,8.0
97.937,-2.473,5.974,15.0
83.682,-2.095,4.619,21.0
93.066,-2.31,4.587,25.0
128.888,-3.173,5.606,37.0
40.228,-0.982,1.516,36.0
84.588,-2.046,5.524,12.0
91.419,-2.192,5.438,8.0
92.154,-2.19,4.946,34.0
90.572,-2.134,4.327,34.0
129.555,-3.026,5.437,30.0
40.318,-0.933,1.458,2.0
84.083,-1.928,5.361,30.0
91.397,-2.078,5.296,79.0
92.083,-2.074,4.8,41.0
90.628,-2.023,4.188,15.0
191.452,-4.236,7.737,28.0
185.539,-4.069,6.424,50.0
84.12,-1.826,5.231,39.0
91.351,-1.965,5.15,29.0
91.785,-1.955,4.64,80.0
128.929,-2.721,5.754,16.0
191.351,-4.001,7.428,23.0
185.446,-3.842,6.125,46.0
84.103,-1.723,5.094,32.0
83.786,-1.7,4.587,40.0
91.127,-1.832,4.459,78.0
128.544,-2.559,5.529,38.0
185.139,-3.649,6.886,33.0
40.332,-0.787,1.265,22.0
84.117,-1.623,4.956,33.0
127.127,-2.428,6.749,31.0
90.684,-1.715,4.286,15.0
128.559,-2.407,5.315,22.0
184.573,-3.422,6.56,41.0
40.311,-0.74,1.198,26.0
84.092,-1.525,4.813,16.0
127.06,-2.281,6.534,27.0
93.019,-1.653,4.241,37.0
184.556,-3.245,7.321,28.0
151.404,-2.634,5.126,51.0
151.461,-2.607,4.247,85.0
83.876,-1.425,4.658,54.0
90.791,-1.527,4.514,40.0
91.459,-1.521,4.013,42.0
128.122,-2.109,4.864,18.0
151.452,-2.467,4.87,98.0
151.438,-2.44,3.99,39.0
83.881,-1.333,4.515,56.0
90.949,-1.429,4.365,55.0
91.479,-1.421,3.856,73.0
129.25,-1.986,4.682,21.0
151.476,-2.3,4.605,95.0
183.374,-2.755,4.51,72.0
83.898,-1.242,4.367,28.0
85.802,-1.255,3.964,151.0
99.483,-1.438,4.017,53.0
86.934,-1.241,2.994,14.0
86.946,-1.227,2.489,64.0
86.934,-1.212,1.982,83.0
90.726,-1.246,4.558,15.0
85.785,-1.164,3.81,150.0
86.049,-1.153,3.32,10.0
109.473,-1.45,3.576,6.0
79.524,-1.04,2.134,0.0
79.449,-1.026,1.669,7.0
79.214,-1.007,3.836,171.0
79.39,-0.996,3.382,150.0
79.407,-0.984,2.919,150.0
79.384,-0.971,2.448,150.0
79.424,-0.959,1.987,151.0
79.439,-0.947,1.525,163.0
0.0,0.0,0.0,0.0
79.437,-0.918,3.238,151.0
79.411,-0.905,2.774,151.0
79.419,-0.893,2.302,153.0
79.426,-0.881,1.84,190.0
79.43,-0.869,1.378,182.0
0.0,0.0,0.0,0.0
79.418,-0.842,3.09,179.0
79.421,-0.829,2.626,151.0
79.434,-0.818,2.155,151.0
79.435,-0.806,1.692,177.0
79.433,-0.795,1.23,190.0
86.01,-0.844,3.687,13.0
79.439,-0.768,2.942,155.0
79.413,-0.757,2.478,150.0
79.432,-0.745,2.006,157.0
79.442,-0.734,1.544,171.0
79.446,-0.723,1.081,170.0
79.429,-0.708,3.254,150.0
79.42,-0.697,2.79,150.0
79.423,-0.686,2.327,150.0
79.423,-0.674,1.855,189.0
79.446,-0.663,1.391,169.0
79.45,-0.653,0.929,177.0
79.426,-0.639,3.102,165.0
79.418,-0.627,2.637,150.0
79.429,-0.617,2.174,155.0
79.427,-0.606,1.702,184.0
79.454,-0.596,1.238,167.0
79.465,-0.585,0.774,160.0
79.421,-0.571,2.946,150.0
79.409,-0.561,2.481,150.0
79.432,-0.551,2.018,176.0
79.432,-0.541,1.547,175.0
79.453,-0.53,1.083,162.0
79.306,-0.519,0.618,47.0
79.417,-0.506,2.789,150.0
79.435,-0.497,2.326,153.0
79.419,-0.487,1.862,192.0
79.435,-0.478,1.391,169.0
79.453,-0.468,0.928,164.0
76.705,-0.442,0.447,14.0
79.424,-0.445,2.633,151.0
79.435,-0.436,2.169,170.0
79.432,-0.426,1.705,196.0
79.454,-0.417,1.233,160.0
79.463,-0.408,0.769,162.0
61.401,-0.308,0.236,11.0
79.426,-0.386,2.474,150.0
79.445,-0.377,2.009,152.0
79.394,-0.368,1.545,255.0
79.455,-0.359,1.073,151.0
79.252,-0.35,0.608,42.0
0.0,0.0,0.0,0.0
79.439,-0.33,2.314,151.0
79.446,-0.321,1.849,156.0
79.452,-0.313,1.386,176.0
79.456,-0.304,0.913,151.0
76.447,-0.284,0.431,12.0
45.975,-0.166,-0.009,19.0
79.438,-0.276,2.153,151.0
79.445,-0.268,1.687,166.0
79.44,-0.259,1.222,155.0
79.446,-0.251,0.749,150.0
61.481,-0.188,0.22,9.0
41.938,-0.124,-0.094,19.0
79.44,-0.225,1.989,151.0
79.44,-0.217,1.524,179.0
79.455,-0.21,1.06,153.0
79.193,-0.201,0.585,21.0
0.0,0.0,0.0,0.0
39.858,-0.093,-0.171,15.0
79.449,-0.177,1.824,151.0
79.452,-0.169,1.359,157.0
79.456,-0.162,0.894,155.0
76.076,-0.148,0.405,11.0
0.0,0.0,0.0,0.0
38.764,-0.068,-0.247,7.0
79.455,-0.132,1.661,151.0
79.459,-0.125,1.195,155.0
79.45,-0.118,0.731,150.0
55.914,-0.078,0.182,29.0
41.06,-0.054,-0.106,16.0
37.733,-0.046,-0.318,1.0
79.444,-0.09,1.495,166.0
79.463,-0.083,1.031,157.0
76.45,-0.074,0.544,17.0
47.981,-0.042,0.056,9.0
39.367,-0.031,-0.184,19.0
32.483,-0.023,-0.341,1.0
79.459,-0.05,1.329,152.0
79.461,-0.044,0.865,191.0
61.74,-0.029,0.31,14.0
44.77,-0.018,-0.04,22.0
38.449,-0.012,-0.259,6.0
30.507,-0.007,-0.384,1.0
79.465,-0.014,1.163,151.0
79.412,-0.008,0.698,81.0
54.637,-0.002,0.16,10.0
40.416,0.001,-0.122,16.0
34.661,0.003,-0.307,0.0
29.243,0.005,-0.43,2.0
79.461,0.019,0.994,151.0
76.129,0.023,0.506,17.0
47.435,0.018,0.038,21.0
38.944,0.017,-0.199,15.0
32.019,0.016,-0.352,1.0
27.826,0.016,-0.468,1.0
79.45,0.049,0.827,150.0
58.178,0.04,0.264,4.0
0.0,0.0,0.0,0.0
38.172,0.031,-0.277,4.0
30.073,0.026,-0.394,1.0
26.663,0.024,-0.505,2.0
79.408,0.077,0.657,15.0
0.0,0.0,0.0,0.0
39.803,0.043,-0.136,29.0
33.383,0.038,-0.313,1.0
28.881,0.034,-0.44,2.0
25.467,0.032,-0.537,1.0
75.871,0.097,0.466,11.0
0.0,0.0,0.0,0.0
38.658,0.053,-0.215,14.0
31.329,0.045,-0.36,1.0
27.463,0.041,-0.476,2.0
24.139,0.037,-0.56,2.0
55.27,0.086,0.221,10.0
43.822,0.07,-0.081,4.0
37.986,0.063,-0.292,2.0
29.736,0.05,-0.405,2.0
26.35,0.046,-0.513,3.0
23.283,0.041,-0.59,3.0
48.049,0.086,0.09,17.0
39.244,0.072,-0.155,39.0
33.066,0.062,-0.324,1.0
28.506,0.054,-0.449,1.0
25.08,0.049,-0.542,1.0
22.42,0.044,-0.616,2.0
0.0,0.0,0.0,0.0
38.279,0.077,-0.233,10.0
30.937,0.064,-0.369,1.0
27.07,0.057,-0.484,2.0
23.864,0.051,-0.566,3.0
21.425,0.046,-0.634,3.0
40.461,0.087,-0.095,17.0
36.646,0.08,-0.3,0.0
29.506,0.065,-0.415,2.0
26.106,0.058,-0.522,2.0
23.069,0.052,-0.596,2.0
20.638,0.047,-0.654,2.0
38.904,0.088,-0.174,30.0
32.311,0.074,-0.333,1.0
28.214,0.065,-0.456,1.0
24.672,0.058,-0.546,1.0
22.21,0.052,-0.622,2.0
19.776,0.047,-0.67,2.0
38.089,0.09,-0.251,5.0
30.373,0.072,-0.378,2.0
26.812,0.064,-0.491,2.0
23.616,0.057,-0.573,2.0
21.207,0.051,-0.639,3.0
18.87,0.046,-0.679,8.0
33.577,0.081,-0.293,0.0
29.165,0.07,-0.425,2.0
25.804,0.063,-0.527,1.0
22.806,0.056,-0.602,2.0
20.386,0.05,-0.657,2.0
18.403,0.045,-0.701,2.0
31.606,0.076,-0.343,1.0
27.718,0.067,-0.463,1.0
24.353,0.059,-0.549,1.0
21.855,0.053,-0.623,3.0
19.367,0.047,-0.666,3.0
17.716,0.043,-0.713,1.0
29.968,0.071,-0.389,2.0
26.519,0.063,-0.499,2.0
23.436,0.056,-0.579,2.0
21.025,0.05,-0.644,3.0
18.825,0.045,-0.687,6.0
17.167,0.041,-0.727,0.0
28.755,0.067,-0.434,2.0
25.364,0.059,-0.532,1.0
22.591,0.052,-0.605,2.0
20.162,0.046,-0.661,2.0
18.178,0.042,-0.702,1.0
16.057,0.037,-0.714,0.0
27.276,0.06,-0.469,2.0
24.072,0.053,-0.555,2.0
21.586,0.047,-0.624,2.0
19.094,0.042,-0.666,3.0
17.572,0.038,-0.716,1.0
15.851,0.034,-0.738,6.0
26.313,0.055,-0.508,3.0
23.238,0.048,-0.584,3.0
20.817,0.043,-0.645,2.0
18.661,0.038,-0.689,3.0
17.047,0.034,-0.73,0.0
15.517,0.031,-0.755,1.0
25.046,0.048,-0.535,1.0
22.371,0.042,-0.609,2.0
19.992,0.037,-0.661,2.0
18.01,0.033,-0.703,1.0
15.883,0.029,-0.713,3.0
15.028,0.027,-0.763,2.0
23.819,0.04,-0.559,2.0
21.377,0.035,-0.626,3.0
18.979,0.031,-0.667,4.0
17.405,0.028,-0.715,1.0
15.852,0.025,-0.745,8.0
14.646,0.023,-0.774,1.0
23.08,0.033,-0.589,3.0
20.603,0.029,-0.646,2.0
18.563,0.025,-0.691,2.0
16.939,0.023,-0.731,0.0
15.38,0.02,-0.754,1.0
14.205,0.018,-0.779,1.0
22.18,0.025,-0.611,3.0
19.771,0.022,-0.66,2.0
17.917,0.019,-0.703,1.0
15.859,0.016,-0.717,12.0
14.995,0.015,-0.766,2.0
13.836,0.013,-0.787,1.0
21.327,0.018,-0.631,3.0
18.979,0.015,-0.672,3.0
17.351,0.013,-0.716,1.0
15.849,0.011,-0.748,8.0
14.559,0.01,-0.773,1.0
13.478,0.008,-0.794,1.0
20.48,0.01,-0.647,2.0
18.442,0.008,-0.69,2.0
16.537,0.006,-0.715,0.0
15.255,0.005,-0.751,1.0
14.126,0.004,-0.778,1.0
13.177,0.003,-0.803,0.0
19.638,0.002,-0.659,2.0
17.813,0.0,-0.702,1.0
15.884,0.0,-0.719,9.0
14.903,0.0,-0.763,1.0
13.76,-0.001,-0.785,1.0
12.864,-0.001,-0.81,0.0
18.925,-0.006,-0.673,3.0
17.278,-0.006,-0.716,1.0
15.832,-0.006,-0.748,4.0
14.5,-0.007,-0.772,1.0
13.462,-0.007,-0.795,1.0
12.574,-0.007,-0.817,0.0
18.364,-0.014,-0.69,2.0
16.731,-0.014,-0.726,0.0
15.259,-0.013,-0.751,1.0
14.086,-0.013,-0.777,1.0
13.128,-0.013,-0.801,1.0
12.284,-0.013,-0.822,0.0
17.761,-0.022,-0.701,1.0
15.96,-0.021,-0.723,1.0
14.871,-0.021,-0.761,1.0
13.744,-0.02,-0.785,1.0
12.845,-0.019,-0.809,1.0
12.021,-0.019,-0.828,0.0
17.194,-0.031,-0.712,1.0
15.666,-0.029,-0.74,1.0
14.492,-0.028,-0.769,1.0
13.442,-0.027,-0.794,1.0
12.536,-0.026,-0.814,0.0
11.766,-0.025,-0.833,0.0
16.693,-0.039,-0.723,1.0
15.231,-0.037,-0.748,1.0
14.102,-0.035,-0.776,1.0
13.139,-0.034,-0.801,1.0
12.291,-0.032,-0.821,0.0
11.544,-0.031,-0.839,0.0
16.102,-0.047,-0.728,1.0
14.878,-0.045,-0.759,1.0
13.768,-0.043,-0.783,1.0
12.859,-0.041,-0.808,0.0
12.033,-0.039,-0.826,0.0
11.319,-0.038,-0.844,0.0
15.697,-0.056,-0.739,1.0
14.517,-0.053,-0.768,1.0
13.466,-0.05,-0.791,1.0
12.577,-0.048,-0.813,0.0
11.789,-0.046,-0.831,0.0
11.103,-0.044,-0.848,0.0
15.285,-0.065,-0.747,1.0
14.105,-0.061,-0.772,1.0
13.194,-0.058,-0.799,1.0
12.314,-0.055,-0.819,0.0
11.572,-0.053,-0.838,0.0
10.894,-0.051,-0.852,0.0
14.912,-0.074,-0.756,1.0
13.807,-0.069,-0.781,1.0
12.905,-0.066,-0.805,0.0
12.056,-0.063,-0.824,0.0
11.362,-0.06,-0.843,0.0
10.671,-0.058,-0.854,1.0
14.551,-0.082,-0.764,1.0
13.521,-0.078,-0.789,1.0
12.621,-0.074,-0.81,0.0
11.819,-0.07,-0.829,0.0
11.136,-0.067,-0.846,0.0
10.549,-0.065,-0.863,0.0
14.211,-0.091,-0.772,1.0
13.262,-0.086,-0.797,1.0
12.367,-0.082,-0.815,0.0
11.631,-0.078,-0.836,0.0
10.963,-0.075,-0.852,0.0
10.353,-0.072,-0.865,0.0
13.868,-0.1,-0.777,0.0
12.999,-0.095,-0.804,0.0
12.128,-0.09,-0.821,0.0
11.414,-0.086,-0.84,0.0
10.701,-0.082,-0.85,1.0
10.196,-0.079,-0.87,0.0
13.605,-0.109,-0.785,1.0
12.721,-0.103,-0.808,0.0
11.912,-0.098,-0.826,0.0
11.194,-0.093,-0.843,0.0
10.596,-0.09,-0.86,1.0
10.01,-0.086,-0.871,0.0
13.337,-0.118,-0.792,0.0
12.47,-0.112,-0.813,0.0
11.714,-0.106,-0.832,0.0
11.028,-0.101,-0.849,0.0
10.438,-0.097,-0.864,0.0
9.866,-0.093,-0.875,0.0
13.104,-0.127,-0.8,1.0
12.232,-0.12,-0.818,0.0
11.505,-0.115,-0.836,0.0
10.79,-0.109,-0.848,0.0
10.289,-0.105,-0.869,0.0
9.745,-0.101,-0.88,0.0
12.858,-0.136,-0.806,0.0
12.012,-0.129,-0.822,1.0
11.328,-0.123,-0.841,0.0
10.683,-0.117,-0.857,0.0
10.097,-0.112,-0.869,1.0
9.576,-0.108,-0.88,0.0
12.604,-0.145,-0.81,1.0
11.834,-0.138,-0.829,1.0
11.141,-0.131,-0.845,0.0
10.51,-0.125,-0.86,0.0
9.945,-0.12,-0.872,1.0
9.453,-0.115,-0.884,0.0
12.394,-0.155,-0.815,0.0
11.634,-0.147,-0.833,0.0
10.979,-0.14,-0.85,0.0
10.337,-0.133,-0.861,0.0
9.795,-0.128,-0.873,1.0
9.321,-0.123,-0.886,0.0
12.177,-0.164,-0.819,0.0
11.463,-0.156,-0.838,0.0
10.803,-0.148,-0.852,0.0
10.171,-0.141,-0.863,0.0
9.701,-0.136,-0.88,0.0
9.22,-0.131,-0.89,0.0
11.974,-0.173,-0.823,1.0
11.276,-0.164,-0.841,0.0
10.658,-0.157,-0.857,0.0
10.034,-0.149,-0.866,0.0
9.546,-0.143,-0.88,0.0
9.089,-0.138,-0.891,0.0
11.807,-0.182,-0.829,0.0
11.125,-0.174,-0.846,0.0
10.497,-0.165,-0.859,0.0
9.911,-0.158,-0.87,2.0
9.447,-0.152,-0.884,0.0
8.973,-0.146,-0.892,0.0
11.625,-0.192,-0.833,0.0
10.956,-0.182,-0.848,0.0
10.36,-0.174,-0.862,0.0
9.807,-0.166,-0.874,2.0
9.35,-0.16,-0.888,0.0
8.872,-0.153,-0.895,0.0
11.467,-0.201,-0.837,0.0
10.818,-0.192,-0.852,0.0
10.181,-0.182,-0.861,0.0
9.706,-0.175,-0.879,0.0
9.228,-0.168,-0.889,0.0
8.757,-0.161,-0.895,0.0
11.315,-0.211,-0.841,0.0
10.69,-0.201,-0.857,0.0
10.05,-0.191,-0.864,1.0
9.571,-0.183,-0.879,0.0
9.12,-0.176,-0.891,0.0
8.668,-0.169,-0.897,0.0
11.168,-0.22,-0.845,0.0
10.545,-0.21,-0.859,0.0
9.923,-0.199,-0.866,1.0
9.467,-0.192,-0.882,0.0
9.001,-0.184,-0.891,0.0
8.566,-0.176,-0.897,0.0
11.018,-0.23,-0.847,0.0
10.435,-0.219,-0.863,0.0
9.824,-0.208,-0.869,2.0
9.359,-0.2,-0.883,0.0
8.923,-0.192,-0.894,0.0
8.485,-0.184,-0.9,0.0
10.874,-0.239,-0.849,0.0
10.286,-0.228,-0.863,0.0
9.757,-0.218,-0.875,1.0
9.264,-0.209,-0.885,0.0
8.813,-0.2,-0.894,0.0
8.41,-0.192,-0.902,0.0
10.741,-0.249,-0.852,0.0
10.161,-0.237,-0.864,0.0
9.674,-0.227,-0.879,0.0
9.178,-0.217,-0.888,0.0
8.732,-0.208,-0.896,0.0
8.355,-0.201,-0.906,0.0
10.642,-0.259,-0.856,0.0
10.015,-0.245,-0.863,0.0
9.548,-0.236,-0.878,0.0
9.084,-0.226,-0.889,0.0
8.663,-0.217,-0.898,0.0
8.283,-0.209,-0.907,0.0
10.515,-0.268,-0.857,0.0
9.902,-0.254,-0.865,1.0
9.459,-0.245,-0.881,0.0
9.006,-0.235,-0.891,0.0
8.574,-0.225,-0.899,0.0
8.212,-0.217,-0.908,0.0
10.409,-0.278,-0.86,0.0
9.823,-0.264,-0.868,2.0
9.375,-0.254,-0.883,0.0
8.932,-0.243,-0.893,0.0
8.502,-0.233,-0.9,0.0
8.154,-0.226,-0.91,0.0
10.3,-0.287,-0.861,0.0
9.779,-0.275,-0.874,2.0
9.287,-0.263,-0.884,0.0
8.851,-0.252,-0.894,0.0
8.454,-0.243,-0.903,0.0
8.098,-0.234,-0.912,0.0
10.189,-0.297,-0.862,0.0
9.705,-0.285,-0.877,0.0
9.194,-0.271,-0.884,0.0
8.75,-0.26,-0.893,0.0
8.377,-0.251,-0.903,0.0
8.04,-0.242,-0.913,0.0
10.096,-0.307,-0.864,0.0
9.605,-0.293,-0.877,0.0
9.154,-0.282,-0.888,0.0
8.705,-0.27,-0.896,0.0
8.339,-0.26,-0.907,0.0
7.997,-0.251,-0.916,0.0
9.993,-0.316,-0.864,0.0
9.52,-0.303,-0.878,0.0
9.062,-0.29,-0.888,0.0
8.649,-0.279,-0.898,0.0
8.258,-0.268,-0.905,0.0
7.943,-0.26,-0.917,0.0
9.902,-0.326,-0.865,1.0
9.461,-0.313,-0.88,0.0
9.001,-0.3,-0.889,0.0
8.571,-0.287,-0.897,0.0
8.231,-0.278,-0.909,0.0
7.901,-0.268,-0.918,0.0
9.842,-0.336,-0.867,2.0
9.411,-0.323,-0.883,0.0
8.949,-0.309,-0.891,0.0
8.536,-0.297,-0.9,0.0
8.176,-0.286,-0.909,0.0
7.853,-0.277,-0.919,0.0
9.792,-0.347,-0.87,2.0
9.329,-0.332,-0.883,0.0
8.882,-0.318,-0.891,0.0
8.475,-0.306,-0.9,0.0
8.141,-0.295,-0.912,0.0
7.81,-0.285,-0.92,0.0
9.76,-0.358,-0.875,2.0
9.282,-0.343,-0.885,0.0
8.81,-0.327,-0.89,0.0
8.416,-0.314,-0.9,0.0
8.08,-0.304,-0.911,0.0
7.782,-0.294,-0.922,0.0
9.713,-0.369,-0.877,0.0
9.209,-0.352,-0.884,0.0
8.762,-0.337,-0.891,0.0
8.381,-0.324,-0.902,0.0
8.044,-0.313,-0.912,0.0
7.741,-0.303,-0.922,0.0
9.637,-0.378,-0.876,0.0
9.16,-0.362,-0.885,0.0
8.706,-0.346,-0.891,0.0
8.355,-0.334,-0.904,0.0
8.0,-0.321,-0.912,0.0
7.7,-0.311,-0.922,0.0
9.584,-0.389,-0.877,0.0
9.122,-0.372,-0.887,0.0
8.693,-0.357,-0.895,0.0
8.314,-0.343,-0.904,0.0
7.984,-0.331,-0.914,0.0
7.69,-0.321,-0.925,0.0
9.54,-0.399,-0.878,0.0
9.076,-0.382,-0.887,0.0
8.655,-0.366,-0.896,0.0
8.28,-0.352,-0.905,0.0
7.968,-0.341,-0.917,0.0
7.668,-0.33,-0.926,0.0
9.492,-0.41,-0.879,0.0
9.05,-0.393,-0.889,0.0
8.619,-0.376,-0.896,0.0
8.237,-0.361,-0.904,0.0
7.928,-0.35,-0.916,0.0
7.624,-0.338,-0.924,0.0
9.453,-0.42,-0.879,0.0
9.018,-0.403,-0.89,0.0
8.603,-0.386,-0.898,0.0
8.22,-0.371,-0.906,0.0
7.915,-0.359,-0.918,0.0
7.612,-0.347,-0.926,0.0
9.421,-0.431,-0.88,0.0
8.98,-0.413,-0.89,0.0
8.578,-0.396,-0.899,0.0
8.201,-0.381,-0.907,0.0
7.887,-0.368,-0.917,0.0
7.588,-0.356,-0.926,0.0
9.394,-0.442,-0.881,0.0
8.945,-0.423,-0.89,0.0
8.545,-0.406,-0.898,0.0
8.167,-0.39,-0.906,0.0
7.856,-0.377,-0.916,0.0
7.557,-0.364,-0.925,0.0
9.358,-0.452,-0.881,0.0
8.918,-0.433,-0.89,0.0
8.538,-0.416,-0.9,0.0
8.17,-0.4,-0.909,0.0
7.842,-0.386,-0.917,0.0
7.548,-0.374,-0.926,0.0
9.334,-0.463,-0.881,0.0
8.911,-0.444,-0.891,0.0
8.504,-0.426,-0.899,0.0
8.155,-0.41,-0.909,0.0
7.829,-0.396,-0.917,0.0
7.544,-0.383,-0.927,0.0
9.324,-0.474,-0.882,0.0
8.883,-0.454,-0.891,0.0
8.489,-0.436,-0.899,0.0
8.123,-0.419,-0.907,0.0
7.84,-0.406,-0.92,0.0
7.536,-0.392,-0.928,0.0
9.317,-0.486,-0.883,0.0
8.862,-0.464,-0.89,0.0
8.479,-0.446,-0.9,0.0
8.125,-0.429,-0.909,0.0
7.816,-0.415,-0.919,0.0
7.523,-0.401,-0.927,0.0
9.285,-0.496,-0.882,0.0
8.861,-0.475,-0.891,0.0
8.478,-0.457,-0.901,0.0
8.108,-0.439,-0.908,0.0
7.815,-0.425,-0.92,0.0
7.517,-0.411,-0.927,0.0
9.298,-0.508,-0.884,0.0
8.852,-0.486,-0.891,0.0
8.451,-0.466,-0.898,0.0
8.101,-0.449,-0.908,0.0
7.805,-0.434,-0.919,0.0
7.51,-0.42,-0.927,0.0
9.29,-0.519,-0.883,0.0
8.856,-0.497,-0.892,0.0
8.46,-0.477,-0.9,0.0
8.086,-0.458,-0.906,0.0
7.809,-0.444,-0.919,0.0
7.511,-0.429,-0.927,0.0
9.293,-0.531,-0.884,0.0
8.86,-0.508,-0.892,0.0
8.473,-0.488,-0.901,0.0
8.12,-0.47,-0.91,0.0
7.808,-0.453,-0.919,0.0
7.519,-0.438,-0.928,0.0
9.291,-0.542,-0.883,0.0
8.866,-0.519,-0.892,0.0
8.457,-0.497,-0.899,0.0
8.113,-0.479,-0.909,0.0
7.806,-0.463,-0.918,0.0
7.514,-0.447,-0.927,0.0
9.295,-0.553,-0.883,0.0
8.856,-0.529,-0.891,0.0
8.474,-0.509,-0.9,0.0
8.113,-0.489,-0.908,0.0
7.823,-0.473,-0.92,0.0
7.534,-0.458,-0.928,0.0
9.308,-0.565,-0.883,0.0
8.874,-0.541,-0.891,0.0
8.487,-0.519,-0.9,0.0
8.126,-0.499,-0.908,0.0
7.813,-0.482,-0.917,0.0
7.526,-0.466,-0.926,0.0
9.327,-0.577,-0.883,0.0
8.886,-0.552,-0.891,0.0
8.486,-0.529,-0.898,0.0
8.148,-0.51,-0.909,0.0
7.829,-0.492,-0.917,0.0
7.529,-0.475,-0.925,0.0
9.34,-0.589,-0.882,0.0
8.899,-0.563,-0.89,0.0
8.517,-0.541,-0.9,0.0
8.145,-0.519,-0.907,0.0
7.854,-0.503,-0.918,0.0
7.547,-0.485,-0.925,0.0
9.366,-0.601,-0.882,0.0
8.928,-0.575,-0.891,0.0
8.533,-0.552,-0.899,0.0
8.172,-0.53,-0.907,0.0
7.868,-0.513,-0.918,0.0
7.565,-0.495,-0.925,0.0
9.391,-0.613,-0.882,0.0
8.969,-0.588,-0.892,0.0
8.561,-0.563,-0.899,0.0
8.191,-0.541,-0.907,0.0
7.881,-0.522,-0.917,0.0
7.576,-0.504,-0.924,0.0
9.412,-0.625,-0.881,0.0
8.974,-0.598,-0.89,0.0
8.593,-0.575,-0.9,0.0
8.2,-0.55,-0.905,0.0
7.898,-0.532,-0.916,0.0
7.597,-0.513,-0.923,0.0
9.456,-0.638,-0.881,0.0
9.018,-0.611,-0.89,0.0
8.606,-0.585,-0.897,0.0
8.227,-0.561,-0.905,0.0
7.932,-0.543,-0.916,0.0
7.612,-0.523,-0.922,0.0
9.487,-0.651,-0.88,0.0
9.051,-0.623,-0.89,0.0
8.633,-0.596,-0.897,0.0
8.269,-0.573,-0.906,0.0
7.937,-0.551,-0.913,0.0
7.645,-0.533,-0.922,0.0
9.512,-0.662,-0.878,0.0
9.084,-0.634,-0.889,0.0
8.669,-0.607,-0.896,0.0
8.318,-0.585,-0.907,0.0
7.987,-0.563,-0.915,0.0
7.671,-0.543,-0.922,0.0
9.562,-0.676,-0.878,0.0
9.124,-0.647,-0.888,0.0
8.686,-0.617,-0.893,0.0
8.315,-0.593,-0.902,0.0
7.992,-0.572,-0.911,0.0
7.72,-0.554,-0.923,0.0
9.618,-0.689,-0.878,0.0
9.164,-0.659,-0.887,0.0
8.737,-0.63,-0.894,0.0
8.375,-0.606,-0.904,0.0
8.031,-0.582,-0.911,0.0
7.74,-0.563,-0.921,0.0
9.687,-0.704,-0.878,0.0
9.21,-0.671,-0.886,0.0
8.783,-0.642,-0.893,0.0
8.41,-0.616,-0.902,0.0
8.078,-0.594,-0.912,0.0
7.781,-0.574,-0.921,0.0
9.748,-0.717,-0.878,1.0
9.261,-0.683,-0.885,0.0
