X,Y,Z,Reflectivity
73.612,2.964,5.154,25.0
73.241,2.946,4.703,19.0
53.229,2.151,4.881,89.0
53.305,2.151,4.577,76.0
53.822,2.169,4.307,29.0
65.534,2.639,4.855,41.0
73.508,2.957,5.019,23.0
73.225,2.942,4.575,29.0
53.234,2.148,4.788,100.0
53.359,2.15,4.488,82.0
54.148,2.179,4.239,6.0
73.635,2.96,5.328,21.0
73.425,2.948,4.885,17.0
65.206,2.614,3.959,16.0
53.268,2.144,4.697,90.0
53.454,2.149,4.401,66.0
65.25,2.619,4.991,20.0
73.601,2.95,5.194,30.0
73.317,2.935,4.747,12.0
73.523,2.939,4.334,15.0
53.307,2.138,4.604,105.0
53.682,2.15,4.323,55.0
65.413,2.615,4.886,37.0
73.468,2.933,5.051,18.0
73.203,2.918,4.607,16.0
73.31,2.918,4.188,25.0
53.355,2.13,4.511,79.0
53.701,2.14,4.227,50.0
73.652,2.931,5.368,12.0
73.341,2.914,4.91,16.0
65.237,2.587,3.989,20.0
73.498,2.91,4.067,47.0
53.456,2.123,4.423,56.0
53.773,2.131,4.134,62.0
73.609,2.912,5.23,29.0
73.296,2.894,4.774,17.0
65.013,2.563,3.856,23.0
123.004,4.841,6.583,30.0
53.599,2.114,4.336,67.0
65.411,2.576,4.91,11.0
65.365,2.569,4.525,19.0
73.254,2.873,4.638,41.0
73.381,2.872,4.218,11.0
73.725,2.88,3.811,19.0
53.692,2.102,4.245,99.0
65.441,2.557,4.792,9.0
73.282,2.857,4.938,11.0
73.303,2.851,4.506,15.0
73.426,2.85,4.087,48.0
123.973,4.802,6.181,23.0
53.772,2.087,4.152,72.0
54.113,2.095,3.863,17.0
73.359,2.834,4.809,23.0
65.054,2.507,3.879,40.0
73.568,2.829,3.96,40.0
123.693,4.746,5.941,17.0
53.894,2.071,4.062,60.0
54.175,2.077,3.768,25.0
73.314,2.804,4.672,29.0
73.373,2.799,4.241,32.0
73.685,2.804,3.832,37.0
123.863,4.703,5.723,27.0
53.951,2.051,3.967,61.0
73.724,2.795,4.992,16.0
64.725,2.447,4.006,30.0
73.398,2.768,4.108,47.0
133.401,5.017,6.69,10.0
123.967,4.652,5.499,13.0
54.1,2.031,3.877,61.0
73.282,2.744,4.825,27.0
64.835,2.42,3.892,39.0
73.69,2.744,3.988,49.0
123.843,4.598,5.983,12.0
124.234,4.6,5.28,29.0
54.192,2.008,3.784,83.0
73.341,2.709,4.694,18.0
73.78,2.718,4.293,13.0
73.803,2.71,3.858,34.0
123.85,4.534,5.756,20.0
152.457,5.567,6.202,34.0
54.203,1.979,3.685,94.0
73.441,2.673,4.565,11.0
73.617,2.671,4.148,38.0
73.818,2.67,3.722,9.0
153.217,5.524,6.836,24.0
152.449,5.478,5.916,38.0
54.234,1.949,3.586,60.0
73.581,2.635,4.436,27.0
73.744,2.631,4.016,39.0
124.158,4.415,6.028,35.0
158.592,5.621,6.78,8.0
152.768,5.397,5.647,29.0
73.267,2.587,4.707,32.0
73.676,2.591,4.305,41.0
73.884,2.59,3.887,33.0
124.003,4.331,5.789,43.0
152.897,5.32,6.252,20.0
152.687,5.294,5.357,27.0
64.937,2.25,4.051,26.0
73.801,2.547,4.174,43.0
133.758,4.598,6.787,13.0
152.462,5.22,6.836,28.0
152.823,5.214,5.967,35.0
157.508,5.353,5.236,6.0
73.75,2.503,4.464,20.0
73.913,2.498,4.043,9.0
133.828,4.505,6.544,17.0
152.907,5.126,6.574,32.0
152.724,5.101,5.681,34.0
159.301,5.299,5.004,11.0
73.869,2.452,4.334,32.0
125.372,4.145,6.629,25.0
133.764,4.403,6.296,36.0
152.402,4.995,6.273,36.0
157.108,5.128,5.557,8.0
158.994,5.167,4.702,9.0
73.979,2.399,4.205,38.0
133.865,4.321,6.831,24.0
133.57,4.292,6.04,27.0
152.284,4.87,5.986,31.0
152.993,4.871,5.129,15.0
159.078,5.042,4.413,5.0
125.46,3.965,6.9,28.0
133.733,4.207,6.579,23.0
152.214,4.765,6.605,29.0
152.196,4.741,5.706,37.0
158.054,4.899,5.009,16.0
0.0,0.0,0.0,0.0
123.057,3.784,6.541,37.0
133.66,4.088,6.327,27.0
152.175,4.63,6.32,38.0
152.166,4.605,5.423,34.0
158.319,4.768,4.727,11.0
0.0,0.0,0.0,0.0
123.047,3.674,6.317,19.0
152.058,4.515,6.925,29.0
151.928,4.488,6.039,42.0
152.45,4.478,5.16,24.0
154.109,4.501,4.325,39.0
0.0,0.0,0.0,0.0
122.896,3.556,6.087,52.0
151.812,4.366,6.638,43.0
152.054,4.349,5.769,42.0
153.516,4.364,4.919,31.0
154.025,4.352,4.042,19.0
0.0,0.0,0.0,0.0
122.937,3.436,5.865,17.0
152.069,4.225,6.373,30.0
152.17,4.2,5.495,35.0
154.004,4.224,4.655,40.0
0.0,0.0,0.0,0.0
0.0,0.0,0.0,0.0
130.008,3.503,5.969,15.0
152.075,4.072,6.103,46.0
152.524,4.057,5.238,22.0
154.059,4.071,4.383,11.0
0.0,0.0,0.0,0.0
0.0,0.0,0.0,0.0
152.488,3.95,6.73,28.0
152.195,3.914,5.834,43.0
158.776,4.055,5.169,14.0
138.068,3.501,3.682,19.0
100.334,2.526,2.096,55.0
106.115,2.652,1.604,9.0
130.685,3.244,5.536,30.0
152.483,3.757,5.577,34.0
158.701,3.881,4.886,18.0
146.48,3.553,3.647,12.0
0.0,0.0,0.0,0.0
106.067,2.532,1.414,9.0
158.991,3.767,6.451,7.0
152.679,3.589,5.313,35.0
159.104,3.709,4.617,11.0
0.0,0.0,0.0,0.0
106.151,2.433,1.842,1.0
89.836,2.042,1.04,4.0
152.445,3.438,5.922,33.0
159.152,3.559,5.263,22.0
168.477,3.733,4.598,4.0
0.0,0.0,0.0,0.0
89.801,1.954,1.404,4.0
78.111,1.684,0.769,15.0
128.138,2.737,4.755,20.0
128.094,2.709,4.012,38.0
128.102,2.684,3.273,49.0
106.469,2.209,2.094,2.0
0.0,0.0,0.0,0.0
77.719,1.581,0.632,13.0
127.975,2.578,4.53,49.0
128.037,2.552,3.793,44.0
128.036,2.525,3.052,40.0
127.972,2.496,2.298,8.0
120.943,2.334,1.474,7.0
74.697,1.425,0.479,10.0
128.04,2.417,4.313,23.0
128.125,2.391,3.576,20.0
128.103,2.363,2.835,23.0
127.035,2.315,2.065,36.0
89.819,1.618,0.942,10.0
0.0,0.0,0.0,0.0
132.763,2.334,4.249,9.0
160.392,2.785,4.208,11.0
190.001,3.258,3.889,20.0
126.366,2.139,1.844,36.0
77.842,1.3,0.687,36.0
0.0,0.0,0.0,0.0
159.921,2.6,4.852,7.0
190.161,3.048,4.671,5.0
189.647,2.998,3.566,20.0
121.176,1.889,1.569,15.0
75.116,1.154,0.539,11.0
47.824,0.723,0.067,42.0
163.116,2.431,4.681,11.0
190.087,2.791,4.361,30.0
127.595,1.843,2.191,26.0
89.678,1.275,1.014,5.0
48.147,0.673,0.267,17.0
0.0,0.0,0.0,0.0
55.105,0.744,1.491,16.0
0.0,0.0,0.0,0.0
126.758,1.652,1.97,30.0
48.136,0.616,0.466,25.0
48.039,0.604,0.189,68.0
44.116,0.544,-0.079,5.0
55.034,0.666,1.403,70.0
48.183,0.571,0.95,40.0
48.113,0.559,0.672,72.0
48.064,0.547,0.39,84.0
47.964,0.534,0.113,62.0
38.972,0.424,-0.132,46.0
48.155,0.513,1.151,99.0
48.118,0.501,0.874,95.0
48.09,0.489,0.596,99.0
48.034,0.477,0.315,100.0
47.242,0.457,0.038,44.0
38.181,0.36,-0.189,36.0
48.11,0.442,1.076,112.0
48.093,0.429,0.798,114.0
48.066,0.417,0.521,109.0
48.03,0.405,0.24,98.0
44.62,0.365,-0.032,20.0
37.749,0.299,-0.244,10.0
48.101,0.369,1.002,114.0
48.094,0.356,0.725,100.0
48.101,0.344,0.449,61.0
48.118,0.332,0.168,47.0
39.943,0.265,-0.09,15.0
37.698,0.24,-0.301,2.0
48.161,0.294,0.93,79.0
48.197,0.283,0.654,44.0
55.094,0.309,0.431,23.0
54.586,0.293,0.109,22.0
39.174,0.2,-0.146,46.0
33.318,0.161,-0.316,1.0
59.303,0.271,1.058,112.0
59.327,0.256,0.718,86.0
59.389,0.24,0.378,28.0
46.95,0.177,0.024,24.0
38.646,0.136,-0.2,15.0
31.918,0.104,-0.348,1.0
79.457,0.237,1.303,159.0
79.453,0.217,0.848,150.0
59.15,0.145,0.292,9.0
0.0,0.0,0.0,0.0
38.196,0.073,-0.253,6.0
30.697,0.05,-0.379,1.0
79.462,0.109,1.19,151.0
79.438,0.088,0.735,150.0
54.984,0.046,0.193,7.0
40.887,0.023,-0.094,17.0
38.16,0.011,-0.306,1.0
29.728,0.0,-0.409,2.0
79.463,-0.02,1.08,151.0
79.243,-0.042,0.623,15.0
50.821,-0.041,0.108,3.0
39.888,-0.043,-0.147,32.0
33.232,-0.045,-0.313,1.0
28.942,-0.047,-0.438,2.0
79.466,-0.151,0.972,151.0
76.362,-0.167,0.497,13.0
47.728,-0.117,0.037,21.0
39.376,-0.108,-0.198,14.0
32.161,-0.097,-0.346,2.0
28.042,-0.093,-0.462,2.0
79.468,-0.286,0.866,151.0
61.539,-0.238,0.319,8.0
44.44,-0.184,-0.023,9.0
39.355,-0.174,-0.25,3.0
30.688,-0.144,-0.37,1.0
27.188,-0.136,-0.483,2.0
79.482,-0.42,0.764,155.0
61.208,-0.34,0.238,12.0
42.153,-0.246,-0.076,3.0
39.535,-0.242,-0.301,3.0
29.877,-0.192,-0.398,1.0
26.536,-0.178,-0.506,2.0
0.0,0.0,0.0,0.0
54.55,-0.397,0.143,7.0
47.289,-0.359,-0.145,18.0
34.001,-0.267,-0.302,0.0
29.185,-0.238,-0.426,2.0
25.926,-0.219,-0.526,2.0
77.338,-0.677,0.549,14.0
52.998,-0.479,0.074,4.0
43.791,-0.408,-0.188,4.0
32.867,-0.316,-0.332,1.0
28.51,-0.283,-0.451,4.0
25.146,-0.257,-0.541,2.0
77.675,-0.816,0.458,7.0
0.0,0.0,0.0,0.0
42.205,-0.469,-0.232,3.0
31.383,-0.358,-0.355,1.0
27.611,-0.323,-0.47,1.0
24.43,-0.294,-0.555,1.0
69.597,-0.856,0.328,0.0
54.53,-0.687,-0.053,4.0
42.232,-0.545,-0.282,1.0
30.354,-0.401,-0.378,2.0
26.973,-0.364,-0.49,1.0
23.816,-0.329,-0.568,2.0
183.507,-2.586,0.658,7.0
0.0,0.0,0.0,0.0
35.964,-0.528,-0.28,0.0
29.718,-0.446,-0.404,1.0
26.33,-0.403,-0.508,1.0
23.34,-0.365,-0.583,2.0
248.425,-3.953,0.614,61.0
46.303,-0.751,-0.148,0.0
34.213,-0.565,-0.304,1.0
29.093,-0.49,-0.427,1.0
25.736,-0.441,-0.524,1.0
22.821,-0.398,-0.595,2.0
40.293,-0.714,0.056,70.0
40.297,-0.727,-0.172,35.0
33.162,-0.609,-0.33,1.0
28.408,-0.531,-0.447,1.0
25.198,-0.478,-0.54,1.0
22.33,-0.431,-0.606,2.0
40.342,-0.79,0.014,1.0
40.265,-0.801,-0.213,3.0
31.934,-0.646,-0.351,1.0
27.731,-0.569,-0.465,1.0
24.603,-0.513,-0.552,1.0
21.933,-0.464,-0.617,2.0
0.0,0.0,0.0,0.0
40.248,-0.875,-0.253,5.0
31.036,-0.685,-0.372,1.0
27.093,-0.607,-0.481,5.0
23.972,-0.545,-0.562,1.0
21.43,-0.494,-0.624,1.0
40.304,-0.94,-0.064,150.0
40.243,-0.951,-0.292,9.0
30.153,-0.722,-0.39,1.0
26.814,-0.651,-0.502,2.0
23.552,-0.58,-0.574,2.0
20.861,-0.52,-0.627,4.0
41.008,-1.033,-0.103,150.0
0.0,0.0,0.0,0.0
29.596,-0.765,-0.41,1.0
26.057,-0.682,-0.512,1.0
23.179,-0.615,-0.586,2.0
20.722,-0.556,-0.642,3.0
41.001,-1.111,-0.14,152.0
34.439,-0.944,-0.313,0.0
29.074,-0.807,-0.429,1.0
25.62,-0.72,-0.526,1.0
22.766,-0.647,-0.596,1.0
20.288,-0.583,-0.646,1.0
40.214,-1.167,-0.172,46.0
33.361,-0.978,-0.331,1.0
28.531,-0.846,-0.445,2.0
25.172,-0.755,-0.538,1.0
22.337,-0.677,-0.603,1.0
19.999,-0.613,-0.653,1.0
40.39,-1.248,-0.206,3.0
32.22,-1.006,-0.346,1.0
28.018,-0.885,-0.459,1.0
24.761,-0.79,-0.548,1.0
21.973,-0.709,-0.611,2.0
19.737,-0.643,-0.661,1.0
40.311,-1.323,-0.237,0.0
31.574,-1.047,-0.364,1.0
27.5,-0.921,-0.472,1.0
24.33,-0.823,-0.558,1.0
21.639,-0.74,-0.618,1.0
19.429,-0.671,-0.665,1.0
40.139,-1.395,-0.266,0.0
30.684,-1.077,-0.376,1.0
27.069,-0.959,-0.485,1.0
23.882,-0.854,-0.565,1.0
21.364,-0.772,-0.626,1.0
19.194,-0.7,-0.671,1.0
40.078,-1.471,-0.294,4.0
30.316,-1.123,-0.393,1.0
26.742,-1.0,-0.498,1.0
23.516,-0.887,-0.572,1.0
21.057,-0.801,-0.631,1.0
18.968,-0.729,-0.676,1.0
37.728,-1.457,-0.302,15.0
29.835,-1.163,-0.407,2.0
26.358,-1.036,-0.508,1.0
23.281,-0.924,-0.582,2.0
20.766,-0.831,-0.636,1.0
18.76,-0.757,-0.681,1.0
37.729,-1.531,-0.326,7.0
29.437,-1.204,-0.42,1.0
25.976,-1.072,-0.517,1.0
22.986,-0.957,-0.589,1.0
20.486,-0.86,-0.64,1.0
18.581,-0.786,-0.685,1.0
37.717,-1.604,-0.348,0.0
29.066,-1.246,-0.432,1.0
25.702,-1.111,-0.526,1.0
22.739,-0.99,-0.596,1.0
20.295,-0.891,-0.646,1.0
18.431,-0.816,-0.69,1.0
33.809,-1.503,-0.331,5.0
28.77,-1.289,-0.443,2.0
25.34,-1.144,-0.532,1.0
22.489,-1.024,-0.601,1.0
20.135,-0.924,-0.651,1.0
18.267,-0.844,-0.694,1.0
33.546,-1.557,-0.345,11.0
28.819,-1.347,-0.458,7.0
25.124,-1.183,-0.54,1.0
22.231,-1.055,-0.605,1.0
19.924,-0.953,-0.654,1.0
18.113,-0.872,-0.697,1.0
32.989,-1.595,-0.355,3.0
28.337,-1.38,-0.464,7.0
24.918,-1.222,-0.547,1.0
21.995,-1.086,-0.609,1.0
19.805,-0.985,-0.659,1.0
17.997,-0.902,-0.7,1.0
32.269,-1.623,-0.361,1.0
28.137,-1.425,-0.473,7.0
24.64,-1.256,-0.552,1.0
21.854,-1.122,-0.614,1.0
19.632,-1.015,-0.662,1.0
17.904,-0.932,-0.704,1.0
31.869,-1.665,-0.37,1.0
27.914,-1.468,-0.48,7.0
24.218,-1.282,-0.552,5.0
21.726,-1.158,-0.619,2.0
19.514,-1.047,-0.665,1.0
17.791,-0.961,-0.706,1.0
31.487,-1.705,-0.376,1.0
27.382,-1.493,-0.48,1.0
24.062,-1.32,-0.557,5.0
21.559,-1.191,-0.622,6.0
19.406,-1.079,-0.668,2.0
17.697,-0.99,-0.708,1.0
31.315,-1.757,-0.384,1.0
27.199,-1.536,-0.486,1.0
23.934,-1.36,-0.561,5.0
21.419,-1.224,-0.624,4.0
19.348,-1.113,-0.672,2.0
17.616,-1.02,-0.71,1.0
30.903,-1.793,-0.388,1.0
27.074,-1.58,-0.491,2.0
23.668,-1.39,-0.561,3.0
21.318,-1.26,-0.627,4.0
19.163,-1.139,-0.67,6.0
17.536,-1.049,-0.711,1.0
30.888,-1.852,-0.395,1.0
26.883,-1.621,-0.494,2.0
23.809,-1.444,-0.57,1.0
21.246,-1.296,-0.629,3.0
19.101,-1.172,-0.672,3.0
17.526,-1.082,-0.715,2.0
30.743,-1.902,-0.4,1.0
26.753,-1.664,-0.497,3.0
23.663,-1.48,-0.571,1.0
21.009,-1.322,-0.626,0.0
19.117,-1.21,-0.676,3.0
17.233,-1.097,-0.706,0.0
30.536,-1.947,-0.402,1.0
26.782,-1.717,-0.501,3.0
23.678,-1.527,-0.575,1.0
21.055,-1.365,-0.63,4.0
19.072,-1.243,-0.677,2.0
17.324,-1.136,-0.712,0.0
30.494,-2.002,-0.405,1.0
26.669,-1.76,-0.502,2.0
23.632,-1.568,-0.576,1.0
21.19,-1.414,-0.637,0.0
18.96,-1.272,-0.675,2.0
17.241,-1.163,-0.71,1.0
30.395,-2.052,-0.406,1.0
26.633,-1.808,-0.504,1.0
23.53,-1.605,-0.576,1.0
21.11,-1.448,-0.636,0.0
18.981,-1.308,-0.677,0.0
17.302,-1.199,-0.713,1.0
30.401,-2.11,-0.408,1.0
26.598,-1.855,-0.504,1.0
23.574,-1.652,-0.577,1.0
21.068,-1.484,-0.635,0.0
19.014,-1.346,-0.679,0.0
17.288,-1.23,-0.713,1.0
30.496,-2.173,-0.409,1.0
26.613,-1.905,-0.504,1.0
23.557,-1.695,-0.577,1.0
21.108,-1.526,-0.636,0.0
18.966,-1.378,-0.677,0.0
17.347,-1.267,-0.715,0.0
30.615,-2.237,-0.41,1.0
26.714,-1.961,-0.505,1.0
23.592,-1.74,-0.577,1.0
21.082,-1.563,-0.634,1.0
19.009,-1.416,-0.677,0.0
17.429,-1.304,-0.717,0.0
30.581,-2.291,-0.407,1.0
26.721,-2.01,-0.503,1.0
23.62,-1.785,-0.576,1.0
21.144,-1.606,-0.634,1.0
19.067,-1.455,-0.677,1.0
17.4,-1.334,-0.714,0.0
30.82,-2.364,-0.407,1.0
26.79,-2.064,-0.502,1.0
23.652,-1.83,-0.574,1.0
21.204,-1.648,-0.633,1.0
19.047,-1.487,-0.674,1.0
17.429,-1.367,-0.713,0.0
30.953,-2.43,-0.405,1.0
26.824,-2.115,-0.498,1.0
23.828,-1.887,-0.574,1.0
21.273,-1.692,-0.632,1.0
19.161,-1.531,-0.675,1.0
17.513,-1.405,-0.714,0.0
31.242,-2.508,-0.403,1.0
27.063,-2.181,-0.498,1.0
23.93,-1.937,-0.572,1.0
21.39,-1.739,-0.631,1.0
19.197,-1.567,-0.672,1.0
17.519,-1.436,-0.71,0.0
31.565,-2.589,-0.4,1.0
27.237,-2.243,-0.495,1.0
24.118,-1.994,-0.571,1.0
21.434,-1.779,-0.628,1.0
19.263,-1.606,-0.67,1.0
17.66,-1.479,-0.712,0.0
31.741,-2.658,-0.394,1.0
27.461,-2.308,-0.492,1.0
24.295,-2.051,-0.569,1.0
21.607,-1.831,-0.627,1.0
19.407,-1.651,-0.67,0.0
17.707,-1.513,-0.708,0.0
32.3,-2.76,-0.392,1.0
27.815,-2.386,-0.49,1.0
24.491,-2.109,-0.566,1.0
21.696,-1.876,-0.623,1.0
19.579,-1.699,-0.67,0.0
17.801,-1.551,-0.707,0.0
32.7,-2.85,-0.386,1.0
27.984,-2.448,-0.484,1.0
24.751,-2.173,-0.564,1.0
21.852,-1.926,-0.62,1.0
19.787,-1.751,-0.67,3.0
17.924,-1.592,-0.705,1.0
31.196,-2.77,-0.357,1.0
28.325,-2.525,-0.479,1.0
24.958,-2.233,-0.559,1.0
22.033,-1.978,-0.616,1.0
19.887,-1.792,-0.666,0.0
18.015,-1.629,-0.702,0.0
33.434,-3.024,-0.37,1.0
28.483,-2.585,-0.47,1.0
25.196,-2.295,-0.554,1.0
22.202,-2.029,-0.612,1.0
20.073,-1.841,-0.663,0.0
18.162,-1.672,-0.7,0.0
34.285,-3.157,-0.364,0.0
28.913,-2.671,-0.465,1.0
25.343,-2.349,-0.546,1.0
22.444,-2.088,-0.609,1.0
20.206,-1.886,-0.659,1.0
18.292,-1.713,-0.696,1.0
35.547,-3.329,-0.361,0.0
29.319,-2.755,-0.458,1.0
25.614,-2.414,-0.54,1.0
22.722,-2.149,-0.606,1.0
20.341,-1.93,-0.653,1.0
18.467,-1.758,-0.694,1.0
36.997,-3.523,-0.358,0.0
29.643,-2.832,-0.448,1.0
25.991,-2.491,-0.535,1.0
22.979,-2.209,-0.6,1.0
20.608,-1.988,-0.651,1.0
18.669,-1.806,-0.692,1.0
37.853,-3.662,-0.346,0.0
30.057,-2.917,-0.439,1.0
26.322,-2.562,-0.528,1.0
23.22,-2.267,-0.594,1.0
20.731,-2.03,-0.644,3.0
18.853,-1.853,-0.688,1.0
0.0,0.0,0.0,0.0
30.604,-3.015,-0.429,1.0
26.664,-2.635,-0.519,1.0
23.834,-2.363,-0.596,5.0
20.889,-2.077,-0.636,4.0
19.031,-1.898,-0.683,1.0
39.607,-3.95,-0.317,0.0
31.388,-3.139,-0.421,0.0
27.075,-2.715,-0.511,1.0
23.826,-2.396,-0.582,17.0
21.233,-2.142,-0.634,1.0
19.241,-1.947,-0.679,1.0
40.529,-4.099,-0.299,0.0
32.271,-3.273,-0.413,1.0
27.445,-2.792,-0.501,1.0
23.97,-2.445,-0.57,16.0
21.601,-2.21,-0.631,1.0
19.507,-2.001,-0.676,1.0
0.0,0.0,0.0,0.0
32.977,-3.391,-0.401,1.0
28.072,-2.895,-0.493,1.0
24.167,-2.499,-0.559,6.0
22.027,-2.284,-0.629,1.0
20.108,-2.091,-0.683,3.0
0.0,0.0,0.0,0.0
33.809,-3.523,-0.388,1.0
28.551,-2.983,-0.482,1.0
24.683,-2.586,-0.553,2.0
22.419,-2.355,-0.624,6.0
20.221,-2.13,-0.673,12.0
0.0,0.0,0.0,0.0
34.555,-3.647,-0.371,0.0
29.172,-3.087,-0.472,1.0
25.503,-2.706,-0.553,1.0
22.571,-2.401,-0.612,14.0
20.386,-2.174,-0.663,23.0
45.35,-4.835,-0.208,0.0
35.923,-3.839,-0.36,0.0
29.677,-3.179,-0.457,1.0
25.908,-2.782,-0.542,1.0
22.899,-2.465,-0.604,20.0
20.418,-2.203,-0.649,13.0
0.0,0.0,0.0,0.0
39.329,-4.252,-0.364,0.0
30.268,-3.28,-0.443,0.0
26.293,-2.856,-0.53,1.0
23.223,-2.529,-0.594,24.0
20.828,-2.274,-0.646,4.0
48.932,-5.339,-0.149,0.0
39.248,-4.292,-0.331,1.0
31.17,-3.417,-0.432,0.0
26.846,-2.949,-0.52,1.0
23.604,-2.599,-0.585,29.0
21.25,-2.345,-0.641,9.0
0.0,0.0,0.0,0.0
39.89,-4.41,-0.304,0.0
32.766,-3.63,-0.427,1.0
27.545,-3.058,-0.511,1.0
23.846,-2.654,-0.571,17.0
21.605,-2.41,-0.634,14.0
0.0,0.0,0.0,0.0
41.286,-4.612,-0.28,0.0
33.152,-3.711,-0.404,0.0
28.111,-3.153,-0.497,1.0
24.533,-2.758,-0.566,1.0
21.959,-2.474,-0.625,21.0
0.0,0.0,0.0,0.0
44.901,-5.066,-0.266,0.0
34.494,-3.899,-0.39,0.0
28.789,-3.261,-0.484,1.0
25.273,-2.869,-0.561,1.0
22.311,-2.537,-0.616,25.0
0.0,0.0,0.0,0.0
44.941,-5.119,-0.226,0.0
35.663,-4.07,-0.371,1.0
29.447,-3.367,-0.469,1.0
25.789,-2.954,-0.549,1.0
22.849,-2.623,-0.61,30.0
0.0,0.0,0.0,0.0
50.422,-5.796,-0.208,2.0
37.425,-4.31,-0.355,0.0
30.366,-3.503,-0.455,1.0
26.375,-3.049,-0.537,1.0
22.996,-2.663,-0.592,20.0
0.0,0.0,0.0,0.0
50.379,-5.842,-0.16,5.0
39.462,-4.584,-0.338,0.0
31.606,-3.678,-0.444,1.0
26.985,-3.146,-0.524,1.0
23.455,-2.739,-0.582,5.0
0.0,0.0,0.0,0.0
50.425,-5.896,-0.112,6.0
0.0,0.0,0.0,0.0
32.569,-3.821,-0.426,1.0
27.643,-3.248,-0.51,1.0
24.346,-2.866,-0.58,1.0
0.0,0.0,0.0,0.0
50.609,-5.964,-0.063,0.0
44.372,-5.237,-0.294,0.0
33.562,-3.967,-0.406,1.0
28.368,-3.358,-0.496,1.0
25.032,-2.968,-0.572,1.0
96.674,-11.461,0.494,10.0
0.0,0.0,0.0,0.0
44.298,-5.266,-0.25,0.0
35.535,-4.231,-0.395,1.0
29.323,-3.496,-0.484,1.0
25.526,-3.048,-0.558,1.0
87.762,-10.478,0.536,4.0
0.0,0.0,0.0,0.0
0.0,0.0,0.0,0.0
36.983,-4.434,-0.373,1.0
29.905,-3.59,-0.462,1.0
26.142,-3.143,-0.545,1.0
87.101,-10.47,0.621,4.0
0.0,0.0,0.0,0.0
50.368,-6.069,-0.181,1.0
37.634,-4.541,-0.341,2.0
31.407,-3.795,-0.453,1.0
26.733,-3.234,-0.529,1.0
86.887,-10.51,0.709,25.0
0.0,0.0,0.0,0.0
50.399,-6.111,-0.128,1.0
39.707,-4.82,-0.318,0.0
32.7,-3.974,-0.438,1.0
27.6,-3.359,-0.517,1.0
86.298,-10.501,0.796,151.0
0.0,0.0,0.0,0.0
0.0,0.0,0.0,0.0
41.672,-5.087,-0.29,0.0
33.65,-4.113,-0.414,1.0
28.402,-3.475,-0.502,1.0
86.318,-10.561,0.889,166.0
0.0,0.0,0.0,0.0
0.0,0.0,0.0,0.0
45.241,-5.552,-0.266,1.0
35.6,-4.374,-0.4,0.0
29.23,-3.595,-0.485,1.0
86.353,-10.619,0.982,184.0
86.94,-10.701,0.522,1.0
0.0,0.0,0.0,0.0
45.339,-5.591,-0.218,3.0
36.031,-4.448,-0.366,1.0
30.167,-3.728,-0.468,0.0
86.384,-10.673,1.076,49.0
86.573,-10.705,0.613,1.0
0.0,0.0,0.0,0.0
50.354,-6.237,-0.187,1.0
39.053,-4.842,-0.354,1.0
31.471,-3.905,-0.454,1.0
86.376,-10.718,1.17,28.0
99.464,-12.352,0.815,3.0
0.0,0.0,0.0,0.0
50.432,-6.272,-0.131,4.0
42.545,-5.296,-0.339,0.0
32.677,-4.071,-0.435,1.0
86.559,-10.783,1.269,4.0
99.742,-12.434,0.928,34.0
91.366,-11.397,0.361,1.0
0.0,0.0,0.0,0.0
45.332,-5.663,-0.311,2.0
35.927,-4.492,-0.439,2.0
99.74,-12.47,1.573,39.0
99.732,-12.476,1.039,58.0
90.843,-11.371,0.459,4.0
0.0,0.0,0.0,0.0
45.311,-5.679,-0.26,4.0
36.032,-4.519,-0.399,4.0
99.647,-12.498,1.684,68.0
99.692,-12.51,1.151,75.0
99.292,-12.466,0.614,7.0
0.0,0.0,0.0,0.0
50.438,-6.34,-0.233,2.0
37.25,-4.685,-0.371,1.0
99.609,-12.529,1.795,76.0
99.659,-12.54,1.263,91.0
99.497,-12.525,0.728,33.0
0.0,0.0,0.0,0.0
50.423,-6.354,-0.175,6.0
0.0,0.0,0.0,0.0
99.582,-12.556,1.909,75.0
99.643,-12.568,1.376,93.0
99.61,-12.568,0.841,67.0
89.444,-11.29,0.269,3.0
50.478,-6.374,-0.118,3.0
41.127,-5.196,-0.316,0.0
99.57,-12.58,2.022,77.0
99.627,-12.591,1.489,87.0
99.642,-12.596,0.956,83.0
89.509,-11.319,0.37,7.0
0.0,0.0,0.0,0.0
0.0,0.0,0.0,0.0
99.564,-12.601,2.134,80.0
99.619,-12.61,1.602,87.0
99.638,-12.615,1.069,84.0
89.597,-11.346,0.473,4.0
0.0,0.0,0.0,0.0
0.0,0.0,0.0,0.0
99.549,-12.616,2.248,64.0
99.589,-12.622,1.716,83.0
99.643,-12.63,1.183,89.0
99.312,-12.59,0.637,12.0
0.0,0.0,0.0,0.0
50.403,-6.392,-0.215,4.0
99.539,-12.626,2.362,57.0
99.585,-12.632,1.828,83.0
99.659,-12.642,1.296,89.0
99.544,-12.628,0.752,44.0
0.0,0.0,0.0,0.0
50.453,-6.402,-0.159,7.0
99.535,-12.633,2.474,56.0
99.57,-12.637,1.942,77.0
99.641,-12.645,1.409,84.0
99.622,-12.643,0.865,68.0
89.371,-11.342,0.299,4.0
50.455,-6.403,-0.1,1.0
99.521,-12.634,2.589,63.0
99.573,-12.639,2.056,90.0
99.624,-12.644,1.524,92.0
99.64,-12.645,0.981,86.0
89.447,-11.351,0.401,5.0
0.0,0.0,0.0,0.0
99.509,-12.631,2.701,64.0
99.544,-12.633,2.168,79.0
99.622,-12.64,1.636,92.0
99.653,-12.642,1.092,82.0
99.127,-12.573,0.556,3.0
0.0,0.0,0.0,0.0
99.504,-12.624,2.815,69.0
99.543,-12.625,2.282,75.0
99.588,-12.627,1.75,85.0
99.646,-12.631,1.206,88.0
99.427,-12.601,0.671,18.0
0.0,0.0,0.0,0.0
99.488,-12.611,2.929,62.0
99.545,-12.613,2.396,74.0
99.558,-12.61,1.863,84.0
99.644,-12.616,1.321,96.0
99.568,-12.603,0.786,60.0
89.386,-11.311,0.227,3.0
99.465,-12.592,3.04,50.0
99.531,-12.594,2.509,78.0
99.563,-12.593,1.976,82.0
99.63,-12.596,1.432,96.0
99.635,-12.592,0.898,70.0
89.568,-11.316,0.328,6.0
99.479,-12.573,3.152,55.0
99.517,-12.571,2.62,88.0
99.573,-12.571,2.087,85.0
99.622,-12.571,1.544,88.0
99.655,-12.57,1.009,85.0
89.798,-11.322,0.428,7.0
99.483,-12.549,3.263,67.0
99.516,-12.545,2.73,75.0
99.559,-12.543,2.197,79.0
99.615,-12.543,1.653,85.0
99.655,-12.541,1.118,82.0
99.266,-12.485,0.583,5.0
99.507,-12.523,3.374,71.0
99.545,-12.518,2.839,68.0
99.591,-12.515,2.306,86.0
99.62,-12.511,1.762,73.0
99.694,-12.512,1.229,72.0
99.473,-12.477,0.693,22.0
99.546,-12.494,3.484,44.0
99.569,-12.486,2.948,53.0
99.621,-12.483,2.415,72.0
99.636,-12.476,1.871,53.0
99.739,-12.48,1.336,43.0
99.662,-12.462,0.801,42.0
99.565,-12.458,3.591,13.0
99.59,-12.45,3.057,12.0
99.605,-12.441,2.522,14.0
99.637,-12.435,1.978,7.0
86.594,-10.798,1.253,4.0
86.382,-10.764,0.785,20.0
99.562,-12.414,3.697,7.0
203.278,-25.322,6.456,21.0
203.729,-25.355,5.373,41.0
207.994,-25.862,4.349,20.0
86.393,-10.732,1.342,12.0
86.415,-10.726,0.878,151.0
99.558,-12.366,3.801,12.0
205.099,-25.449,6.73,34.0
203.513,-25.226,5.584,50.0
203.228,-25.167,4.46,20.0
86.42,-10.691,1.433,13.0
86.389,-10.678,0.967,151.0
99.481,-12.305,3.902,18.0
205.157,-25.348,6.946,40.0
203.363,-25.099,5.788,42.0
202.97,-25.023,4.664,29.0
86.381,-10.638,1.52,21.0
86.348,-10.624,1.055,58.0
99.412,-12.24,4.002,32.0
204.759,-25.181,7.14,39.0
203.228,-24.963,5.992,42.0
203.102,-24.92,4.872,35.0
86.495,-10.6,1.609,16.0
86.299,-10.565,1.142,53.0
99.277,-12.163,4.098,38.0
204.551,-25.029,7.338,42.0
203.177,-24.829,6.196,49.0
188.299,-22.982,4.709,20.0
86.701,-10.569,1.7,4.0
86.277,-10.506,1.227,50.0
99.096,-12.076,4.189,50.0
204.327,-24.866,7.533,33.0
203.186,-24.695,6.395,52.0
188.102,-22.831,4.887,32.0
86.874,-10.531,1.789,1.0
86.263,-10.443,1.311,39.0
99.002,-11.996,4.281,75.0
204.046,-24.688,7.723,38.0
203.225,-24.553,6.595,40.0
188.021,-22.685,5.066,23.0
86.775,-10.455,1.87,5.0
86.261,-10.379,1.395,31.0
99.006,-11.923,4.377,68.0
203.919,-24.519,7.913,40.0
203.645,-24.449,6.804,27.0
189.604,-22.73,5.29,25.0
86.918,-10.404,1.956,6.0
86.275,-10.313,1.476,43.0
99.008,-11.845,4.47,67.0
203.832,-24.347,8.101,40.0
203.672,-24.289,6.994,28.0
189.081,-22.513,5.452,39.0
188.262,-22.381,4.411,36.0
86.284,-10.242,1.556,35.0
98.972,-11.758,4.561,48.0
203.943,-24.189,8.293,28.0
190.55,-22.562,6.718,22.0
188.724,-22.309,5.613,27.0
188.385,-22.234,4.585,43.0
86.315,-10.171,1.633,10.0
98.941,-11.669,4.647,64.0
116.367,-13.7,4.835,27.0
190.79,-22.423,6.895,13.0
188.66,-22.134,5.777,23.0
188.685,-22.1,4.758,33.0
86.552,-10.121,1.714,3.0
98.904,-11.576,4.732,49.0
116.394,-13.598,4.937,23.0
203.942,-23.781,7.546,24.0
188.453,-21.935,5.933,23.0
188.508,-21.902,4.913,26.0
86.641,-10.049,1.789,11.0
98.825,-11.473,4.813,36.0
115.535,-13.387,4.998,26.0
116.46,-13.468,4.406,30.0
116.023,-13.391,3.75,11.0
115.94,-13.357,3.119,14.0
86.645,-9.964,1.861,23.0
108.362,-12.473,5.367,21.0
115.421,-13.259,5.089,48.0
115.668,-13.261,4.47,53.0
115.91,-13.263,3.839,71.0
107.41,-12.266,2.975,40.0
86.767,-9.89,1.932,16.0
105.277,-12.01,5.297,28.0
107.768,-12.268,4.838,16.0
115.771,-13.152,4.566,18.0
115.915,-13.142,3.93,59.0
107.37,-12.148,3.057,73.0
107.548,-12.144,2.479,22.0
105.07,-11.875,5.369,19.0
117.422,-13.241,5.361,20.0
107.646,-12.113,4.329,21.0
107.301,-12.048,3.72,23.0
107.397,-12.034,3.139,63.0
187.805,-21.0,4.469,17.0
108.262,-12.117,5.613,35.0
105.67,-11.801,4.901,44.0
106.237,-11.837,4.349,56.0
107.007,-11.896,3.787,52.0
107.427,-11.916,3.218,27.0
187.398,-20.743,4.594,24.0
99.497,-11.024,5.228,30.0
108.216,-11.961,5.097,23.0
105.919,-11.68,4.411,20.0
106.863,-11.756,3.857,53.0
123.456,-13.55,3.784,35.0
187.454,-20.53,4.726,39.0
99.909,-10.952,5.32,77.0
108.234,-11.835,5.172,22.0
115.965,-12.651,4.908,9.0
106.932,-11.637,3.932,71.0
123.379,-13.396,3.863,69.0
123.517,-13.381,3.194,90.0
118.067,-12.801,6.364,25.0
105.307,-11.389,5.101,32.0
107.913,-11.641,4.637,23.0
123.905,-13.333,4.635,37.0
123.422,-13.248,3.943,37.0
123.529,-13.229,3.272,69.0
99.224,-10.635,5.412,11.0
105.158,-11.242,5.159,9.0
107.933,-11.509,4.703,63.0
107.287,-11.411,4.079,23.0
188.391,-19.986,6.133,23.0
187.615,-19.853,5.084,24.0
104.649,-11.083,5.769,11.0
115.134,-12.162,5.716,36.0
115.767,-12.195,5.113,22.0
122.846,-12.907,4.74,37.0
189.442,-19.853,6.276,23.0
187.861,-19.636,5.197,31.0
99.152,-10.372,5.523,19.0
108.43,-11.31,5.444,31.0
107.216,-11.153,4.796,89.0
122.961,-12.756,4.814,36.0
189.486,-19.603,6.381,30.0
188.03,-19.4,5.303,41.0
99.253,-10.249,5.581,4.0
107.143,-11.032,5.437,71.0
0.0,0.0,0.0,0.0
149.737,-15.329,5.94,11.0
148.42,-15.151,5.074,47.0
188.111,-19.15,5.4,56.0
99.326,-10.12,5.636,46.0
115.835,-11.766,5.935,23.0
106.935,-10.831,4.891,71.0
124.825,-12.605,5.011,62.0
148.422,-14.945,5.145,44.0
188.1,-18.886,5.489,44.0
99.316,-9.979,5.681,40.0
116.141,-11.634,6.005,22.0
106.699,-10.655,4.93,56.0
147.818,-14.718,6.001,9.0
188.85,-18.748,6.629,35.0
188.057,-18.614,5.569,41.0
99.146,-9.82,5.715,25.0
106.697,-10.535,5.562,21.0
106.625,-10.495,4.97,29.0
204.957,-20.112,8.407,15.0
188.844,-18.474,6.707,23.0
148.795,-14.513,4.466,50.0
99.43,-9.704,5.771,1.0
107.928,-10.499,5.668,64.0
106.6,-10.338,5.01,20.0
147.935,-14.3,6.124,37.0
150.645,-14.517,5.405,32.0
149.212,-14.334,4.533,55.0
106.881,-10.274,6.241,19.0
124.038,-11.884,6.557,27.0
122.908,-11.737,5.819,28.0
151.172,-14.388,6.308,24.0
189.747,-18.001,6.873,15.0
148.851,-14.077,4.571,68.0
107.282,-10.15,6.299,25.0
115.326,-10.875,6.134,24.0
122.766,-11.538,5.851,18.0
156.392,-14.648,6.573,49.0
148.607,-13.872,5.426,87.0
187.968,-17.491,5.827,36.0
106.267,-9.892,6.27,63.0
106.24,-9.855,5.68,11.0
147.178,-13.604,7.055,26.0
150.397,-13.854,6.363,37.0
203.747,-18.704,7.494,9.0
188.378,-17.236,5.888,40.0
115.275,-10.551,6.83,30.0
122.509,-11.173,6.58,30.0
147.176,-13.376,7.089,12.0
148.533,-13.449,6.318,35.0
164.014,-14.8,6.07,19.0
149.618,-13.455,4.709,31.0
115.172,-10.362,6.849,9.0
108.493,-9.725,5.849,6.0
108.674,-9.706,5.257,2.0
148.531,-13.217,6.347,48.0
156.974,-13.918,5.838,36.0
189.064,-16.702,5.985,14.0
122.65,-10.839,7.315,9.0
108.499,-9.551,5.869,10.0
148.551,-13.027,7.21,14.0
166.041,-14.506,7.121,47.0
204.314,-17.785,7.631,21.0
157.286,-13.642,5.002,30.0
115.437,-10.013,6.901,5.0
106.284,-9.184,5.763,4.0
158.622,-13.653,7.719,16.0
158.459,-13.588,6.814,16.0
149.969,-12.81,5.616,38.0
157.462,-13.399,5.025,45.0
158.534,-13.491,9.494,10.0
106.405,-9.018,5.779,6.0
148.446,-12.532,7.236,4.0
166.745,-14.021,7.185,22.0
150.004,-12.563,5.63,16.0
157.599,-13.149,5.039,34.0
122.578,-10.228,7.347,11.0
106.397,-8.841,5.785,6.0
158.994,-13.159,7.758,5.0
149.79,-12.346,6.459,30.0
163.856,-13.451,6.154,35.0
157.231,-12.857,5.032,34.0
108.483,-8.87,6.504,13.0
150.885,-12.285,8.206,15.0
158.765,-12.872,7.749,15.0
150.258,-12.133,6.48,13.0
158.058,-12.711,5.937,20.0
164.603,-13.185,5.266,24.0
150.541,-12.055,9.023,2.0
158.753,-12.659,8.63,6.0
150.601,-11.957,7.345,11.0
163.13,-12.897,7.029,35.0
165.428,-13.025,6.206,31.0
212.58,-16.669,6.79,22.0
121.762,-9.545,7.292,2.0
148.224,-11.568,8.047,5.0
149.119,-11.586,7.262,16.0
157.923,-12.218,6.792,17.0
165.566,-12.753,6.198,9.0
195.981,-15.032,6.243,30.0
107.962,-8.278,6.454,2.0
157.882,-12.05,8.555,8.0
158.058,-12.009,7.68,17.0
194.686,-14.724,8.351,20.0
164.394,-12.38,6.134,17.0
197.02,-14.77,6.251,64.0
162.829,-12.199,9.712,7.0
149.6,-11.157,8.084,5.0
149.189,-11.074,7.226,5.0
155.434,-11.484,6.643,13.0
164.469,-12.097,6.109,36.0
204.929,-15.004,6.466,20.0
150.421,-11.007,8.946,3.0
157.623,-11.478,8.489,6.0
158.363,-11.478,7.64,10.0
164.441,-11.862,6.996,14.0
195.12,-14.009,7.209,24.0
204.853,-14.638,6.421,19.0
148.544,-10.607,8.8,5.0
163.228,-11.597,8.753,4.0
158.047,-11.176,7.588,6.0
196.555,-13.833,8.314,15.0
209.154,-14.648,7.676,6.0
204.332,-14.241,6.354,31.0
156.651,-10.907,9.24,8.0
165.241,-11.446,8.817,5.0
158.161,-10.902,7.55,13.0
194.883,-13.366,8.19,7.0
204.903,-13.985,7.46,44.0
208.68,-14.172,6.427,25.0
196.364,-13.323,11.524,5.0
148.234,-10.006,7.864,4.0
158.108,-10.62,7.499,5.0
194.447,-12.993,8.11,8.0
208.495,-13.863,7.524,9.0
209.113,-13.833,6.372,36.0
163.399,-10.796,9.533,4.0
156.422,-10.28,8.244,6.0
157.547,-10.299,7.416,6.0
204.951,-13.329,8.474,9.0
208.44,-13.487,7.446,29.0
248.309,-15.983,7.474,82.0
148.498,-9.545,8.607,3.0
164.942,-10.546,8.629,7.0
0.0,0.0,0.0,0.0
0.0,0.0,0.0,0.0
212.963,-13.398,7.521,14.0
244.269,-15.283,7.252,33.0
164.759,-10.292,9.478,4.0
149.24,-9.272,7.744,3.0
197.262,-12.189,9.122,6.0
0.0,0.0,0.0,0.0
228.382,-13.953,7.962,23.0
271.881,-16.522,7.95,43.0
165.196,-10.021,9.427,3.0
150.08,-9.052,7.716,4.0
0.0,0.0,0.0,0.0
211.995,-12.642,8.484,7.0
244.319,-14.487,8.399,11.0
279.102,-16.455,8.021,25.0
164.26,-9.666,9.291,4.0
0.0,0.0,0.0,0.0
211.696,-12.315,9.58,11.0
0.0,0.0,0.0,0.0
271.766,-15.624,9.199,11.0
0.0,0.0,0.0,0.0
164.767,-9.397,9.228,7.0
0.0,0.0,0.0,0.0
212.327,-11.963,9.488,6.0
211.901,-11.869,8.249,8.0
279.098,-15.539,9.289,11.0
0.0,0.0,0.0,0.0
0.0,0.0,0.0,0.0
0.0,0.0,0.0,0.0
0.0,0.0,0.0,0.0
0.0,0.0,0.0,0.0
267.5,-14.284,14.657,10.0
0.0,0.0,0.0,0.0
0.0,0.0,0.0,0.0
0.0,0.0,0.0,0.0
0.0,0.0,0.0,0.0
0.0,0.0,0.0,0.0
0.0,0.0,0.0,0.0
0.0,0.0,0.0,0.0
0.0,0.0,0.0,0.0
0.0,0.0,0.0,0.0
0.0,0.0,0.0,0.0
0.0,0.0,0.0,0.0
0.0,0.0,0.0,0.0
0.0,0.0,0.0,0.0
0.0,0.0,0.0,0.0
0.0,0.0,0.0,0.0
0.0,0.0,0.0,0.0
0.0,0.0,0.0,0.0
0.0,0.0,0.0,0.0
0.0,0.0,0.0,0.0
0.0,0.0,0.0,0.0
0.0,0.0,0.0,0.0
0.0,0.0,0.0,0.0
0.0,0.0,0.0,0.0
0.0,0.0,0.0,0.0
0.0,0.0,0.0,0.0
0.0,0.0,0.0,0.0
0.0,0.0,0.0,0.0
0.0,0.0,0.0,0.0
0.0,0.0,0.0,0.0
0.0,0.0,0.0,0.0
0.0,0.0,0.0,0.0
0.0,0.0,0.0,0.0
0.0,0.0,0.0,0.0
0.0,0.0,0.0,0.0
0.0,0.0,0.0,0.0
0.0,0.0,0.0,0.0
0.0,0.0,0.0,0.0
0.0,0.0,0.0,0.0
0.0,0.0,0.0,0.0
0.0,0.0,0.0,0.0
0.0,0.0,0.0,0.0
0.0,0.0,0.0,0.0
0.0,0.0,0.0,0.0
0.0,0.0,0.0,0.0
0.0,0.0,0.0,0.0
0.0,0.0,0.0,0.0
0.0,0.0,0.0,0.0
0.0,0.0,0.0,0.0
0.0,0.0,0.0,0.0
0.0,0.0,0.0,0.0
0.0,0.0,0.0,0.0
0.0,0.0,0.0,0.0
0.0,0.0,0.0,0.0
0.0,0.0,0.0,0.0
0.0,0.0,0.0,0.0
0.0,0.0,0.0,0.0
0.0,0.0,0.0,0.0
0.0,0.0,0.0,0.0
0.0,0.0,0.0,0.0
0.0,0.0,0.0,0.0
0.0,0.0,0.0,0.0
147.971,-4.935,5.846,7.0
0.0,0.0,0.0,0.0
0.0,0.0,0.0,0.0
40.31,-1.308,0.897,1.0
40.34,-1.296,0.667,38.0
0.0,0.0,0.0,0.0
0.0,0.0,0.0,0.0
0.0,0.0,0.0,0.0
40.293,-1.25,1.082,30.0
40.31,-1.238,0.852,26.0
121.898,-3.71,1.881,45.0
148.133,-4.474,6.37,26.0
0.0,0.0,0.0,0.0
0.0,0.0,0.0,0.0
40.323,-1.181,1.037,35.0
122.032,-3.541,2.441,64.0
121.455,-3.488,1.734,34.0
129.23,-3.681,5.406,28.0
40.28,-1.135,1.453,36.0
40.253,-1.122,1.222,29.0
40.189,-1.109,0.986,57.0
40.224,-1.098,0.756,41.0
40.214,-1.086,0.525,54.0
129.206,-3.458,5.247,37.0
40.199,-1.064,1.402,56.0
40.219,-1.052,1.171,44.0
40.185,-1.04,0.936,56.0
40.2,-1.029,0.706,67.0
40.215,-1.018,0.476,57.0
40.239,-1.009,1.584,11.0
40.228,-0.997,1.352,53.0
40.205,-0.985,1.12,55.0
40.18,-0.973,0.885,59.0
40.301,-0.964,0.657,109.0
40.299,-0.953,0.426,65.0
185.717,-4.351,7.076,23.0
40.312,-0.932,1.304,14.0
40.207,-0.918,1.069,59.0
40.198,-0.907,0.834,56.0
40.271,-0.897,0.605,64.0
40.246,-0.886,0.373,0.0
185.672,-4.042,6.829,49.0
40.284,-0.866,1.25,29.0
40.219,-0.853,1.017,52.0
40.226,-0.842,0.781,52.0
40.231,-0.831,0.551,62.0
40.252,-0.821,0.32,49.0
184.636,-3.72,6.544,52.0
40.288,-0.801,1.196,51.0
40.226,-0.788,0.963,46.0
40.164,-0.776,0.726,60.0
40.263,-0.766,0.496,32.0
40.239,-0.755,0.265,53.0
184.558,-3.422,6.288,36.0
40.303,-0.736,1.141,38.0
40.227,-0.724,0.907,36.0
205.442,-3.644,3.433,36.0
40.31,-0.704,0.441,2.0
40.284,-0.693,0.21,35.0
151.435,-2.568,4.947,90.0
151.447,-2.527,4.074,62.0
261.972,-4.304,5.542,39.0
205.331,-3.318,3.14,81.0
99.015,-1.573,0.943,6.0
0.0,0.0,0.0,0.0
151.478,-2.332,4.731,96.0
183.4,-2.775,4.67,58.0
183.398,-2.727,3.613,85.0
183.372,-2.679,2.539,19.0
87.893,-1.261,0.71,13.0
183.595,-2.587,0.427,5.0
86.91,-1.204,2.586,10.0
80.015,-1.087,1.919,5.0
79.461,-1.059,1.448,11.0
79.65,-1.041,0.984,12.0
78.801,-1.009,0.519,25.0
60.74,-0.763,0.051,7.0
79.421,-0.978,2.243,150.0
79.435,-0.958,1.785,165.0
79.396,-0.937,1.326,255.0
79.448,-0.918,0.861,153.0
77.593,-0.878,0.394,5.0
54.447,-0.602,-0.037,9.0
79.442,-0.859,2.122,151.0
79.422,-0.839,1.663,191.0
79.43,-0.819,1.205,213.0
79.46,-0.8,0.738,151.0
61.049,-0.6,0.216,6.0
50.549,-0.484,-0.112,10.0
79.437,-0.742,1.998,158.0
79.44,-0.724,1.54,181.0
79.447,-0.704,1.081,188.0
0.0,0.0,0.0,0.0
55.567,-0.466,0.11,5.0
47.216,-0.384,-0.179,12.0
79.427,-0.628,1.872,193.0
79.444,-0.608,1.413,175.0
79.449,-0.59,0.955,188.0
76.927,-0.553,0.472,13.0
51.145,-0.355,0.019,7.0
41.621,-0.279,-0.224,4.0
79.421,-0.515,1.744,209.0
79.446,-0.497,1.287,170.0
79.46,-0.478,0.827,181.0
61.386,-0.355,0.278,10.0
46.296,-0.258,-0.056,20.0
39.465,-0.21,-0.276,2.0
79.419,-0.405,1.615,202.0
79.455,-0.386,1.155,153.0
79.433,-0.369,0.697,150.0
55.913,-0.246,0.161,28.0
42.011,-0.175,-0.121,16.0
34.755,-0.137,-0.301,0.0
79.424,-0.296,1.482,213.0
79.458,-0.278,1.023,151.0
79.219,-0.259,0.561,12.0
51.643,-0.157,0.061,6.0
39.859,-0.112,-0.182,15.0
32.568,-0.085,-0.337,2.0
79.451,-0.19,1.348,151.0
79.478,-0.172,0.888,153.0
76.07,-0.148,0.41,13.0
45.637,-0.079,-0.022,20.0
38.8,-0.059,-0.242,11.0
30.967,-0.04,-0.373,1.0
79.456,-0.087,1.213,151.0
79.448,-0.07,0.753,150.0
56.124,-0.037,0.207,12.0
43.846,-0.019,-0.096,7.0
38.182,-0.009,-0.304,2.0
29.83,0.0,-0.41,2.0
79.465,0.014,1.075,151.0
79.331,0.03,0.614,16.0
0.0,0.0,0.0,0.0
39.517,0.031,-0.155,37.0
33.326,0.033,-0.324,1.0
28.885,0.035,-0.448,2.0
79.468,0.113,0.936,151.0
75.865,0.123,0.453,12.0
46.89,0.086,0.008,24.0
38.59,0.078,-0.22,14.0
31.59,0.07,-0.363,1.0
27.654,0.067,-0.478,1.0
79.455,0.21,0.794,150.0
59.171,0.167,0.249,7.0
0.0,0.0,0.0,0.0
37.838,0.122,-0.283,17.0
30.079,0.103,-0.399,2.0
26.648,0.096,-0.508,2.0
59.344,0.226,0.487,84.0
54.453,0.218,0.131,29.0
39.496,0.166,-0.133,40.0
33.619,0.148,-0.312,1.0
29.085,0.133,-0.438,2.0
25.756,0.123,-0.538,2.0
55.067,0.274,0.351,59.0
46.994,0.243,0.027,35.0
38.501,0.206,-0.201,24.0
31.793,0.176,-0.354,1.0
27.878,0.159,-0.471,1.0
24.548,0.145,-0.557,1.0
48.171,0.293,0.218,59.0
44.352,0.278,-0.055,18.0
37.679,0.243,-0.266,5.0
30.254,0.201,-0.392,2.0
26.779,0.183,-0.502,1.0
23.758,0.166,-0.583,2.0
48.023,0.344,0.129,77.0
39.325,0.289,-0.122,42.0
33.861,0.255,-0.301,0.0
29.187,0.225,-0.432,1.0
25.829,0.203,-0.532,1.0
22.014,0.177,-0.581,3.0
47.193,0.388,0.038,43.0
38.195,0.321,-0.19,33.0
32.052,0.275,-0.345,1.0
27.938,0.244,-0.466,1.0
21.887,0.195,-0.492,4.0
21.215,0.193,-0.6,3.0
43.421,0.401,-0.046,19.0
37.433,0.352,-0.257,7.0
30.37,0.291,-0.384,2.0
26.812,0.261,-0.498,1.0
21.09,0.209,-0.514,4.0
20.415,0.205,-0.616,3.0
39.158,0.4,-0.115,44.0
37.218,0.386,-0.326,0.0
29.315,0.309,-0.427,1.0
25.917,0.277,-0.53,2.0
20.248,0.22,-0.532,3.0
19.778,0.218,-0.634,3.0
38.029,0.424,-0.184,39.0
32.266,0.365,-0.343,1.0
28.069,0.322,-0.462,1.0
21.815,0.253,-0.488,4.0
19.566,0.23,-0.551,5.0
19.221,0.229,-0.653,2.0
37.341,0.45,-0.252,8.0
30.399,0.371,-0.381,2.0
26.89,0.332,-0.494,1.0
20.868,0.261,-0.507,4.0
18.913,0.239,-0.569,4.0
18.67,0.239,-0.671,3.0
37.103,0.48,-0.322,0.0
29.233,0.382,-0.424,2.0
26.045,0.344,-0.529,1.0
20.004,0.267,-0.525,3.0
18.303,0.247,-0.587,5.0
18.187,0.248,-0.689,2.0
31.972,0.44,-0.341,1.0
27.938,0.389,-0.46,1.0
21.69,0.305,-0.483,6.0
19.256,0.273,-0.543,3.0
17.8,0.255,-0.606,4.0
17.781,0.257,-0.708,2.0
30.316,0.442,-0.382,2.0
26.845,0.395,-0.494,2.0
20.914,0.31,-0.507,4.0
18.564,0.278,-0.56,3.0
17.365,0.262,-0.625,4.0
17.389,0.265,-0.727,1.0
29.146,0.447,-0.425,2.0
22.341,0.345,-0.455,1.0
19.937,0.311,-0.522,3.0
17.889,0.281,-0.575,4.0
16.928,0.268,-0.642,6.0
17.096,0.273,-0.748,1.0
27.77,0.446,-0.459,1.0
21.506,0.348,-0.481,4.0
19.168,0.313,-0.54,3.0
17.285,0.284,-0.59,2.0
16.685,0.276,-0.666,4.0
16.331,0.272,-0.747,2.0
26.722,0.447,-0.495,2.0
20.541,0.346,-0.5,4.0
18.559,0.315,-0.559,4.0
16.669,0.285,-0.601,2.0
16.407,0.282,-0.687,2.0
16.205,0.281,-0.773,1.0
22.319,0.388,-0.457,4.0
19.786,0.346,-0.521,11.0
17.783,0.313,-0.571,3.0
16.252,0.288,-0.619,3.0
16.184,0.289,-0.71,2.0
15.869,0.285,-0.789,0.0
21.369,0.385,-0.48,4.0
19.07,0.345,-0.539,5.0
17.152,0.312,-0.585,2.0
16.012,0.293,-0.641,3.0
15.996,0.295,-0.734,1.0
15.258,0.283,-0.789,1.0
20.461,0.38,-0.5,4.0
18.479,0.345,-0.559,3.0
16.535,0.31,-0.597,2.0
15.863,0.299,-0.667,3.0
15.842,0.301,-0.758,1.0
15.82,0.302,-0.85,1.0
19.569,0.374,-0.518,6.0
17.683,0.339,-0.571,2.0
15.999,0.309,-0.609,4.0
15.723,0.305,-0.692,2.0
15.634,0.305,-0.779,0.0
15.741,0.308,-0.877,0.0
18.815,0.369,-0.535,14.0
17.014,0.335,-0.583,2.0
15.669,0.31,-0.628,3.0
15.556,0.309,-0.716,2.0
15.3,0.305,-0.793,1.0
13.783,0.276,-0.795,0.0
18.311,0.367,-0.557,6.0
16.459,0.331,-0.597,2.0
15.467,0.313,-0.651,2.0
15.423,0.313,-0.74,1.0
15.394,0.314,-0.829,0.0
13.506,0.276,-0.806,0.0
17.655,0.361,-0.572,3.0
15.887,0.326,-0.607,3.0
15.298,0.315,-0.674,2.0
15.291,0.317,-0.765,0.0
15.274,0.317,-0.853,0.0
13.172,0.275,-0.813,0.0
16.925,0.353,-0.582,2.0
15.462,0.323,-0.622,3.0
15.204,0.319,-0.7,2.0
15.164,0.319,-0.789,0.0
13.799,0.292,-0.798,0.0
12.878,0.273,-0.82,0.0
16.392,0.347,-0.596,3.0
15.209,0.323,-0.642,3.0
15.072,0.321,-0.724,2.0
15.098,0.323,-0.815,0.0
13.506,0.29,-0.808,0.0
12.567,0.27,-0.825,0.0
15.848,0.34,-0.608,3.0
15.038,0.324,-0.664,3.0
14.949,0.323,-0.747,1.0
14.983,0.325,-0.838,0.0
13.155,0.286,-0.813,0.0
12.315,0.268,-0.833,0.0
15.384,0.334,-0.62,3.0
14.913,0.325,-0.688,4.0
14.924,0.326,-0.776,0.0
13.832,0.303,-0.801,0.0
12.873,0.283,-0.821,0.0
12.059,0.266,-0.84,0.0
15.072,0.331,-0.637,4.0
14.833,0.326,-0.714,3.0
14.901,0.329,-0.804,0.0
13.438,0.297,-0.805,0.0
12.56,0.278,-0.825,0.0
11.792,0.262,-0.844,0.0
14.882,0.329,-0.658,4.0
14.783,0.328,-0.74,1.0
14.809,0.329,-0.827,0.0
13.155,0.293,-0.813,0.0
12.304,0.274,-0.833,0.0
11.563,0.258,-0.85,0.0
14.78,0.329,-0.682,4.0
14.766,0.329,-0.767,0.0
14.011,0.313,-0.81,0.0
12.845,0.287,-0.819,0.0
12.051,0.27,-0.839,0.0
11.303,0.254,-0.853,0.0
14.74,0.329,-0.709,4.0
14.769,0.331,-0.796,0.0
13.485,0.302,-0.806,0.0
12.549,0.282,-0.824,0.0
11.811,0.266,-0.845,0.0
11.063,0.249,-0.856,0.0
14.728,0.33,-0.737,1.0
14.725,0.331,-0.822,0.0
13.131,0.295,-0.81,0.0
12.267,0.276,-0.829,0.0
11.549,0.26,-0.849,0.0
10.824,0.244,-0.859,0.0
14.72,0.33,-0.765,1.0
14.035,0.315,-0.811,0.0
12.834,0.289,-0.816,0.0
12.034,0.271,-0.837,0.0
11.29,0.255,-0.851,0.0
10.481,0.237,-0.852,2.0
14.778,0.331,-0.796,0.0
13.458,0.302,-0.803,0.0
12.568,0.282,-0.823,0.0
11.815,0.266,-0.844,0.0
11.041,0.249,-0.853,0.0
10.381,0.234,-0.863,5.0
14.778,0.331,-0.823,0.0
13.132,0.294,-0.808,0.0
12.303,0.276,-0.829,0.0
11.559,0.259,-0.848,0.0
10.831,0.243,-0.858,0.0
10.273,0.231,-0.873,1.0
14.011,0.312,-0.807,0.0
12.856,0.287,-0.815,0.0
12.065,0.269,-0.835,0.0
11.31,0.252,-0.85,0.0
10.502,0.234,-0.851,2.0
10.067,0.225,-0.875,0.0
13.467,0.298,-0.8,0.0
12.577,0.279,-0.821,0.0
11.821,0.262,-0.84,0.0
11.075,0.245,-0.853,0.0
10.386,0.23,-0.861,5.0
9.91,0.22,-0.88,0.0
13.17,0.29,-0.807,0.0
12.343,0.271,-0.828,0.0
11.589,0.255,-0.845,0.0
10.859,0.239,-0.857,0.0
10.275,0.226,-0.871,1.0
9.735,0.214,-0.882,0.0
12.904,0.281,-0.814,0.0
12.083,0.263,-0.832,0.0
11.345,0.247,-0.848,0.0
10.556,0.23,-0.852,1.0
10.098,0.22,-0.874,0.0
9.561,0.208,-0.883,0.0
12.617,0.272,-0.818,0.0
11.856,0.255,-0.838,0.0
11.108,0.239,-0.85,0.0
10.392,0.223,-0.857,5.0
9.926,0.213,-0.877,0.0
9.406,0.202,-0.886,0.0
12.377,0.263,-0.825,0.0
11.621,0.247,-0.842,0.0
10.907,0.232,-0.854,0.0
10.316,0.219,-0.869,1.0
9.794,0.208,-0.882,0.0
9.282,0.197,-0.891,0.0
12.137,0.254,-0.83,0.0
11.395,0.238,-0.846,0.0
10.676,0.223,-0.855,0.0
10.133,0.212,-0.871,0.0
9.606,0.2,-0.882,0.0
9.115,0.19,-0.891,0.0
11.918,0.246,-0.836,0.0
11.168,0.23,-0.848,0.0
10.428,0.214,-0.853,4.0
9.968,0.205,-0.874,0.0
9.466,0.194,-0.886,0.0
8.997,0.184,-0.895,0.0
11.69,0.236,-0.84,0.0
10.969,0.221,-0.852,0.0
10.376,0.209,-0.866,2.0
9.811,0.198,-0.877,0.0
9.328,0.187,-0.889,0.0
8.863,0.178,-0.896,0.0
11.469,0.227,-0.843,0.0
10.78,0.213,-0.855,0.0
10.201,0.201,-0.869,0.0
9.659,0.19,-0.88,0.0
9.165,0.18,-0.888,0.0
8.751,0.172,-0.9,0.0
11.267,0.218,-0.847,0.0
10.472,0.202,-0.848,4.0
10.047,0.194,-0.872,0.0
9.496,0.183,-0.881,0.0
9.049,0.174,-0.892,0.0
8.613,0.165,-0.9,0.0
11.051,0.209,-0.849,0.0
10.431,0.196,-0.862,5.0
9.88,0.186,-0.874,0.0
9.381,0.176,-0.885,0.0
8.922,0.167,-0.894,0.0
8.514,0.159,-0.903,0.0
10.864,0.2,-0.852,0.0
10.309,0.189,-0.868,0.0
9.737,0.178,-0.877,0.0
9.247,0.168,-0.887,0.0
8.811,0.16,-0.897,0.0
8.414,0.152,-0.906,0.0
10.538,0.188,-0.842,2.0
10.144,0.18,-0.87,0.0
9.59,0.17,-0.878,0.0
9.129,0.161,-0.89,0.0
8.681,0.153,-0.897,0.0
8.316,0.146,-0.908,0.0
10.46,0.18,-0.852,11.0
9.968,0.171,-0.87,0.0
9.473,0.162,-0.882,0.0
8.993,0.153,-0.891,0.0
8.569,0.146,-0.899,0.0
8.204,0.139,-0.909,0.0
10.398,0.173,-0.863,4.0
9.833,0.163,-0.873,0.0
9.337,0.154,-0.883,0.0
8.88,0.146,-0.893,0.0
8.473,0.139,-0.902,0.0
8.116,0.132,-0.911,0.0
10.275,0.164,-0.868,0.0
9.708,0.155,-0.876,0.0
9.224,0.146,-0.886,0.0
8.765,0.138,-0.894,0.0
8.392,0.132,-0.905,0.0
8.048,0.126,-0.915,0.0
10.125,0.155,-0.87,0.0
9.569,0.146,-0.878,0.0
9.094,0.138,-0.887,0.0
8.665,0.131,-0.896,0.0
8.305,0.125,-0.908,0.0
7.963,0.119,-0.917,0.0
9.966,0.146,-0.87,0.0
9.454,0.138,-0.88,0.0
9.002,0.13,-0.891,0.0
8.558,0.123,-0.897,0.0
8.214,0.117,-0.909,0.0
7.889,0.112,-0.919,0.0
9.833,0.137,-0.872,0.0
9.354,0.129,-0.884,0.0
8.901,0.122,-0.893,0.0
8.472,0.116,-0.9,0.0
8.136,0.11,-0.912,0.0
7.809,0.105,-0.921,0.0
9.715,0.128,-0.875,0.0
9.232,0.121,-0.885,0.0
8.768,0.114,-0.891,0.0
8.408,0.108,-0.904,0.0
8.061,0.103,-0.914,0.0
7.755,0.098,-0.925,0.0
9.575,0.119,-0.875,0.0
9.103,0.112,-0.884,0.0
8.689,0.106,-0.895,0.0
8.324,0.101,-0.906,0.0
7.98,0.096,-0.915,0.0
7.677,0.091,-0.925,0.0
9.47,0.11,-0.877,0.0
9.028,0.104,-0.888,0.0
8.591,0.098,-0.895,0.0
8.224,0.093,-0.906,0.0
7.93,0.089,-0.919,0.0
7.609,0.084,-0.927,0.0
9.378,0.101,-0.88,0.0
8.919,0.095,-0.889,0.0
8.517,0.09,-0.898,0.0
8.179,0.085,-0.911,0.0
7.839,0.081,-0.919,0.0
7.516,0.077,-0.925,0.0
9.294,0.092,-0.884,0.0
8.818,0.086,-0.889,0.0
8.428,0.081,-0.899,0.0
8.101,0.077,-0.912,0.0
7.781,0.073,-0.921,0.0
7.473,0.07,-0.928,0.0
9.181,0.083,-0.883,0.0
8.741,0.078,-0.892,0.0
8.36,0.073,-0.901,0.0
8.036,0.07,-0.914,0.0
7.74,0.066,-0.925,0.0
7.415,0.062,-0.93,0.0
9.098,0.074,-0.886,0.0
8.687,0.07,-0.896,0.0
8.313,0.066,-0.905,0.0
7.992,0.062,-0.918,0.0
7.666,0.058,-0.925,0.0
7.352,0.055,-0.93,0.0
9.001,0.065,-0.886,0.0
8.593,0.061,-0.895,0.0
8.259,0.057,-0.908,0.0
7.938,0.054,-0.92,0.0
7.604,0.051,-0.925,0.0
7.316,0.048,-0.933,0.0
8.93,0.056,-0.888,0.0
8.513,0.052,-0.896,0.0
8.18,0.049,-0.908,0.0
7.851,0.046,-0.918,0.0
7.571,0.043,-0.929,0.0
7.237,0.04,-0.93,0.0
8.86,0.047,-0.89,0.0
8.445,0.044,-0.897,0.0
8.11,0.041,-0.909,0.0
7.825,0.038,-0.923,0.0
7.482,0.035,-0.926,0.0
7.207,0.033,-0.934,0.0
8.801,0.038,-0.893,0.0
8.408,0.035,-0.901,0.0
8.07,0.033,-0.912,0.0
7.765,0.03,-0.923,0.0
7.448,0.028,-0.929,0.0
7.157,0.026,-0.934,0.0
8.721,0.029,-0.893,0.0
8.355,0.027,-0.903,0.0
8.023,0.024,-0.914,0.0
7.715,0.022,-0.924,0.0
7.402,0.02,-0.93,0.0
7.123,0.018,-0.936,0.0
8.66,0.02,-0.894,0.0
8.288,0.018,-0.904,0.0
7.969,0.016,-0.915,0.0
7.649,0.014,-0.923,0.0
7.369,0.013,-0.932,0.0
7.079,0.011,-0.936,0.0
8.611,0.011,-0.896,0.0
8.274,0.009,-0.909,0.0
7.925,0.008,-0.916,0.0
7.596,0.006,-0.923,0.0
7.314,0.005,-0.931,0.0
7.034,0.004,-0.936,0.0
8.526,0.002,-0.894,0.0
8.221,0.001,-0.91,0.0
7.875,0.0,-0.917,0.0
7.576,-0.001,-0.926,0.0
7.283,-0.002,-0.933,0.0
7.017,-0.003,-0.939,0.0
8.496,-0.006,-0.898,0.0
8.146,-0.007,-0.907,0.0
7.836,-0.008,-0.918,0.0
7.512,-0.009,-0.924,0.0
7.257,-0.01,-0.935,0.0
6.973,-0.011,-0.939,0.0
8.451,-0.015,-0.899,0.0
8.107,-0.016,-0.909,0.0
7.807,-0.016,-0.92,0.0
7.487,-0.017,-0.926,0.0
7.206,-0.017,-0.933,0.0
6.954,-0.018,-0.941,0.0
8.398,-0.024,-0.899,0.0
8.088,-0.025,-0.912,0.0
7.762,-0.025,-0.92,0.0
7.453,-0.025,-0.927,0.0
7.171,-0.025,-0.933,0.0
6.933,-0.026,-0.942,0.0
8.364,-0.033,-0.9,0.0
8.046,-0.033,-0.912,0.0
7.741,-0.033,-0.922,0.0
7.416,-0.033,-0.927,0.0
7.159,-0.033,-0.936,0.0
6.876,-0.033,-0.939,0.0
8.327,-0.042,-0.901,0.0
8.014,-0.042,-0.913,0.0
7.696,-0.042,-0.921,0.0
7.394,-0.041,-0.928,0.0
7.128,-0.041,-0.936,0.0
6.864,-0.041,-0.941,0.0
8.3,-0.051,-0.903,0.0
7.983,-0.051,-0.914,0.0
7.657,-0.05,-0.92,0.0
7.366,-0.049,-0.928,0.0
7.101,-0.049,-0.936,0.0
6.843,-0.048,-0.941,0.0
8.272,-0.06,-0.904,0.0
7.967,-0.06,-0.916,0.0
7.641,-0.058,-0.922,0.0
7.333,-0.057,-0.928,0.0
7.076,-0.057,-0.936,0.0
6.802,-0.056,-0.939,0.0
8.254,-0.07,-0.905,0.0
7.943,-0.068,-0.917,0.0
7.625,-0.067,-0.923,0.0
7.318,-0.066,-0.929,0.0
7.069,-0.065,-0.938,0.0
6.799,-0.064,-0.941,0.0
8.225,-0.079,-0.906,0.0
7.914,-0.077,-0.916,0.0
7.594,-0.076,-0.923,0.0
7.294,-0.074,-0.929,0.0
7.047,-0.073,-0.938,0.0
6.793,-0.071,-0.943,0.0
8.202,-0.088,-0.906,0.0
7.892,-0.086,-0.916,0.0
7.594,-0.084,-0.925,0.0
7.294,-0.082,-0.931,0.0
7.035,-0.081,-0.938,0.0
6.778,-0.079,-0.943,0.0
8.179,-0.097,-0.906,0.0
7.86,-0.095,-0.915,0.0
7.572,-0.093,-0.925,0.0
7.262,-0.09,-0.929,0.0
7.033,-0.089,-0.94,0.0
6.748,-0.086,-0.94,0.0
8.165,-0.106,-0.906,0.0
7.85,-0.103,-0.916,0.0
7.541,-0.101,-0.923,0.0
7.287,-0.099,-0.934,0.0
7.025,-0.097,-0.94,0.0
6.735,-0.094,-0.94,0.0
8.154,-0.115,-0.907,0.0
7.854,-0.112,-0.918,0.0
7.559,-0.11,-0.926,0.0
7.256,-0.107,-0.931,0.0
7.014,-0.105,-0.94,0.0
6.732,-0.102,-0.941,0.0
8.143,-0.124,-0.907,0.0
7.853,-0.121,-0.919,0.0
7.551,-0.118,-0.927,0.0
7.257,-0.115,-0.932,0.0
6.991,-0.112,-0.938,0.0
6.726,-0.109,-0.941,0.0
8.143,-0.134,-0.908,0.0
7.836,-0.13,-0.918,0.0
7.528,-0.127,-0.925,0.0
7.25,-0.123,-0.932,0.0
6.993,-0.12,-0.939,0.0
6.729,-0.117,-0.942,0.0
8.133,-0.143,-0.907,0.0
7.835,-0.139,-0.919,0.0
7.534,-0.135,-0.926,0.0
7.24,-0.132,-0.931,0.0
6.986,-0.128,-0.938,0.0
6.717,-0.125,-0.941,0.0
8.13,-0.152,-0.907,0.0
7.833,-0.148,-0.918,0.0
7.536,-0.144,-0.926,0.0
7.257,-0.14,-0.934,0.0
6.994,-0.137,-0.94,0.0
6.722,-0.133,-0.941,0.0
8.13,-0.162,-0.907,0.0
7.832,-0.157,-0.918,0.0
7.53,-0.153,-0.925,0.0
7.235,-0.148,-0.931,0.0
7.0,-0.145,-0.94,0.0
6.73,-0.14,-0.942,0.0
8.125,-0.171,-0.906,0.0
7.831,-0.166,-0.917,0.0
7.531,-0.161,-0.925,0.0
7.255,-0.157,-0.932,0.0
6.999,-0.153,-0.939,0.0
6.735,-0.148,-0.942,0.0
8.144,-0.18,-0.907,0.0
7.838,-0.175,-0.917,0.0
7.526,-0.17,-0.923,0.0
7.253,-0.165,-0.931,0.0
7.018,-0.161,-0.941,0.0
6.741,-0.156,-0.942,0.0
8.146,-0.189,-0.906,0.0
7.839,-0.184,-0.916,0.0
7.555,-0.179,-0.925,0.0
7.26,-0.173,-0.931,0.0
7.018,-0.169,-0.939,0.0
6.754,-0.164,-0.942,0.0
8.171,-0.199,-0.907,0.0
7.875,-0.194,-0.919,0.0
7.548,-0.187,-0.923,0.0
7.277,-0.182,-0.931,0.0
7.043,-0.177,-0.941,0.0
6.781,-0.172,-0.944,0.0
8.175,-0.208,-0.906,0.0
7.885,-0.203,-0.918,0.0
7.586,-0.196,-0.925,0.0
7.286,-0.19,-0.93,0.0
7.048,-0.185,-0.94,0.0
6.784,-0.18,-0.943,0.0
8.199,-0.218,-0.906,0.0
7.896,-0.211,-0.917,0.0
7.593,-0.205,-0.924,0.0
7.314,-0.199,-0.932,0.0
7.06,-0.193,-0.939,0.0
6.795,-0.188,-0.942,0.0
8.211,-0.227,-0.905,0.0
7.927,-0.221,-0.918,0.0
7.62,-0.214,-0.925,0.0
7.337,-0.207,-0.932,0.0
7.053,-0.201,-0.935,0.0
6.828,-0.196,-0.944,0.0
8.241,-0.237,-0.905,0.0
7.944,-0.23,-0.917,0.0
7.646,-0.223,-0.925,0.0
7.343,-0.215,-0.93,0.0
7.093,-0.209,-0.938,0.0
6.85,-0.204,-0.944,0.0
8.264,-0.246,-0.904,0.0
7.957,-0.239,-0.915,0.0
7.646,-0.231,-0.921,0.0
7.372,-0.224,-0.93,0.0
7.097,-0.217,-0.935,0.0
6.864,-0.211,-0.943,0.0
8.315,-0.256,-0.906,0.0
7.989,-0.248,-0.914,0.0
7.672,-0.239,-0.921,0.0
7.403,-0.233,-0.93,0.0
7.129,-0.225,-0.936,0.0
6.9,-0.22,-0.944,0.0
8.324,-0.265,-0.902,0.0
8.008,-0.257,-0.912,0.0
7.716,-0.249,-0.922,0.0
7.423,-0.241,-0.929,0.0
7.161,-0.234,-0.936,0.0
6.934,-0.228,-0.945,0.0
8.373,-0.275,-0.903,0.0
8.052,-0.266,-0.913,0.0
7.74,-0.257,-0.92,0.0
7.463,-0.25,-0.93,0.0
7.194,-0.242,-0.936,0.0
6.965,-0.236,-0.945,0.0
8.4,-0.284,-0.901,0.0
8.093,-0.276,-0.913,0.0
7.772,-0.266,-0.919,0.0
7.493,-0.258,-0.929,0.0
7.21,-0.25,-0.934,0.0
6.98,-0.243,-0.943,0.0
8.437,-0.294,-0.9,0.0
8.119,-0.284,-0.91,0.0
7.822,-0.275,-0.92,0.0
7.529,-0.267,-0.928,0.0
7.247,-0.258,-0.933,0.0
7.02,-0.251,-0.943,0.0
8.497,-0.304,-0.9,0.0
8.162,-0.294,-0.909,0.0
7.853,-0.284,-0.918,0.0
7.544,-0.274,-0.925,0.0
