X,Y,Z,Reflectivity
24.337,-0.288,-0.578,1.0
77.71,-0.9,0.314,1.0
53.763,-0.609,-0.064,5.0
42.139,-0.466,-0.271,2.0
31.613,-0.341,-0.372,1.0
28.347,-0.299,-0.483,3.0
25.219,-0.259,-0.562,1.0
77.521,-0.777,0.427,11.0
54.621,-0.533,0.014,5.0
43.874,-0.417,-0.219,2.0
33.396,-0.308,-0.345,1.0
29.096,-0.261,-0.454,2.0
26.091,-0.227,-0.544,2.0
0.0,0.0,0.0,0.0
0.0,0.0,0.0,0.0
47.326,-0.374,-0.169,16.0
36.255,-0.276,-0.323,1.0
29.92,-0.22,-0.424,1.0
26.738,-0.189,-0.52,2.0
79.465,-0.543,0.663,150.0
61.234,-0.401,0.189,16.0
0.0,0.0,0.0,0.0
39.895,-0.239,-0.301,2.0
30.806,-0.176,-0.394,1.0
27.622,-0.15,-0.499,2.0
79.462,-0.412,0.773,170.0
76.547,-0.375,0.342,5.0
46.636,-0.215,-0.037,20.0
39.325,-0.17,-0.242,6.0
32.353,-0.131,-0.37,1.0
28.426,-0.107,-0.475,1.0
79.465,-0.278,0.881,151.0
76.48,-0.246,0.445,15.0
48.4,-0.142,0.026,7.0
40.041,-0.106,-0.193,16.0
33.623,-0.079,-0.339,1.0
29.271,-0.061,-0.45,2.0
79.459,-0.144,0.986,151.0
79.283,-0.122,0.565,30.0
0.0,0.0,0.0,0.0
40.797,-0.039,-0.144,17.0
38.083,-0.025,-0.335,2.0
30.044,-0.011,-0.423,2.0
79.461,-0.007,1.09,151.0
79.426,0.015,0.669,150.0
0.0,0.0,0.0,0.0
0.0,0.0,0.0,0.0
38.281,0.04,-0.288,6.0
30.998,0.041,-0.397,1.0
79.462,0.13,1.19,152.0
79.447,0.152,0.769,150.0
59.184,0.131,0.259,6.0
0.0,0.0,0.0,0.0
38.591,0.108,-0.243,14.0
32.195,0.099,-0.373,1.0
79.462,0.27,1.289,159.0
79.431,0.293,0.867,145.0
59.36,0.236,0.333,68.0
47.68,0.204,0.01,29.0
38.913,0.177,-0.198,46.0
33.441,0.162,-0.347,1.0
48.221,0.248,0.839,38.0
48.219,0.263,0.583,36.0
48.2,0.277,0.327,43.0
48.053,0.291,0.067,55.0
39.483,0.251,-0.154,38.0
37.666,0.251,-0.347,1.0
48.105,0.336,0.894,105.0
48.086,0.35,0.638,104.0
48.064,0.364,0.383,100.0
48.022,0.378,0.122,84.0
43.991,0.359,-0.121,4.0
37.499,0.317,-0.303,5.0
48.108,0.423,0.949,114.0
48.088,0.437,0.693,113.0
48.063,0.452,0.437,95.0
48.021,0.465,0.175,82.0
0.0,0.0,0.0,0.0
37.74,0.389,-0.263,13.0
48.154,0.512,1.003,92.0
48.119,0.526,0.746,85.0
48.105,0.541,0.49,98.0
48.037,0.555,0.228,79.0
46.566,0.552,-0.026,30.0
37.987,0.462,-0.224,37.0
55.093,0.689,1.207,40.0
127.762,1.637,2.119,13.0
121.147,1.589,1.363,12.0
48.139,0.646,0.279,12.0
47.722,0.655,0.022,52.0
38.397,0.538,-0.186,50.0
190.022,2.733,4.363,18.0
189.464,2.782,3.338,25.0
121.247,1.817,1.488,12.0
75.267,1.151,0.514,11.0
48.042,0.749,0.071,21.0
39.162,0.623,-0.15,43.0
180.834,2.941,4.333,5.0
189.739,3.144,3.531,23.0
126.283,2.132,1.675,26.0
77.746,1.335,0.607,30.0
0.0,0.0,0.0,0.0
39.771,0.708,-0.114,18.0
128.108,2.327,3.193,19.0
128.07,2.365,2.506,27.0
0.0,0.0,0.0,0.0
78.029,1.488,0.683,19.0
57.57,1.116,0.195,13.0
44.645,0.879,-0.087,18.0
128.036,2.568,3.31,55.0
128.072,2.608,2.624,31.0
106.332,2.197,1.607,1.0
0.0,0.0,0.0,0.0
59.993,1.277,0.257,33.0
0.0,0.0,0.0,0.0
0.0,0.0,0.0,0.0
0.0,0.0,0.0,0.0
106.185,2.4,1.7,2.0
80.581,1.845,0.848,8.0
61.189,1.42,0.316,34.0
47.285,1.112,-0.009,22.0
157.927,3.775,4.36,4.0
100.344,2.43,2.231,2.0
100.434,2.463,1.692,5.0
106.119,2.635,1.206,41.0
74.599,1.876,0.447,13.0
48.318,1.23,0.029,23.0
137.967,3.567,3.923,11.0
0.0,0.0,0.0,0.0
0.0,0.0,0.0,0.0
106.084,2.842,1.292,37.0
74.676,2.024,0.507,20.0
48.929,1.341,0.068,22.0
154.014,4.286,4.502,30.0
0.0,0.0,0.0,0.0
0.0,0.0,0.0,0.0
100.658,2.894,1.303,3.0
77.704,2.258,0.586,11.0
0.0,0.0,0.0,0.0
158.383,4.718,4.748,9.0
0.0,0.0,0.0,0.0
0.0,0.0,0.0,0.0
100.546,3.09,1.375,5.0
77.858,2.417,0.644,24.0
54.609,1.712,0.157,28.0
158.877,5.049,4.878,6.0
0.0,0.0,0.0,0.0
0.0,0.0,0.0,0.0
100.858,3.299,1.449,1.0
78.011,2.575,0.699,40.0
58.738,1.958,0.208,10.0
157.38,5.314,4.938,6.0
159.302,5.427,4.135,4.0
0.0,0.0,0.0,0.0
100.731,3.494,1.513,1.0
78.204,2.736,0.751,27.0
59.029,2.084,0.247,18.0
160.189,5.724,5.127,5.0
160.678,5.791,4.272,11.0
0.0,0.0,0.0,0.0
0.0,0.0,0.0,0.0
79.305,2.931,0.809,11.0
59.15,2.204,0.283,31.0
157.179,5.927,5.125,3.0
158.522,6.025,4.307,10.0
0.0,0.0,0.0,0.0
0.0,0.0,0.0,0.0
79.537,3.096,0.857,9.0
59.333,2.328,0.317,33.0
173.144,6.874,5.743,4.0
173.043,6.92,4.797,8.0
0.0,0.0,0.0,0.0
0.0,0.0,0.0,0.0
80.016,3.272,0.904,3.0
59.662,2.458,0.349,11.0
156.568,6.523,5.273,18.0
173.31,7.274,4.893,6.0
0.0,0.0,0.0,0.0
0.0,0.0,0.0,0.0
95.904,4.112,1.13,2.0
73.658,3.181,0.467,13.0
157.143,6.859,5.368,9.0
160.033,7.032,4.594,9.0
0.0,0.0,0.0,0.0
0.0,0.0,0.0,0.0
96.321,4.32,1.178,5.0
73.61,3.323,0.499,11.0
173.967,7.94,6.021,10.0
173.999,7.993,5.07,6.0
0.0,0.0,0.0,0.0
0.0,0.0,0.0,0.0
105.792,4.956,1.339,6.0
73.585,3.468,0.529,9.0
156.831,7.47,5.491,12.0
156.008,7.476,4.609,17.0
0.0,0.0,0.0,0.0
0.0,0.0,0.0,0.0
105.682,5.159,1.377,5.0
74.838,3.676,0.566,18.0
157.117,7.794,5.558,18.0
156.393,7.804,4.676,19.0
167.145,8.387,4.08,11.0
0.0,0.0,0.0,0.0
105.826,5.374,1.414,54.0
75.09,3.836,0.592,20.0
157.155,8.106,5.61,12.0
157.138,8.15,4.748,11.0
162.615,8.483,4.021,12.0
162.527,8.527,3.111,6.0
105.827,5.583,1.445,63.0
75.252,3.993,0.615,26.0
162.372,8.698,5.844,11.0
162.41,8.748,4.953,9.0
163.174,8.837,4.08,16.0
162.662,8.855,3.157,15.0
105.89,5.795,1.473,9.0
75.258,4.141,0.633,22.0
157.72,8.759,5.715,13.0
159.743,8.916,4.91,6.0
0.0,0.0,0.0,0.0
163.543,9.223,3.21,18.0
0.0,0.0,0.0,0.0
75.353,4.294,0.65,22.0
158.088,9.091,5.762,20.0
162.212,9.372,5.018,15.0
162.091,9.412,4.121,5.0
162.343,9.474,3.218,23.0
106.376,6.238,1.522,41.0
75.148,4.428,0.661,16.0
157.546,9.366,5.769,19.0
162.046,9.679,5.038,7.0
157.182,9.432,4.02,12.0
33.414,2.014,0.666,0.0
33.445,2.025,0.483,4.0
33.442,2.035,0.299,4.0
33.436,2.052,1.228,20.0
33.46,2.063,1.044,153.0
33.462,2.072,0.859,150.0
33.436,2.08,0.671,20.0
33.444,2.089,0.486,8.0
74.906,4.702,0.676,8.0
158.164,10.014,5.826,35.0
158.166,10.058,4.951,43.0
158.072,10.097,4.074,12.0
139.691,8.959,2.813,18.0
139.717,9.001,2.042,7.0
74.807,4.841,0.68,18.0
158.092,10.314,5.83,45.0
158.119,10.359,4.956,81.0
114.76,7.549,2.962,21.0
139.64,9.222,2.816,16.0
139.666,9.262,2.044,18.0
74.547,4.964,0.679,16.0
158.032,10.609,5.831,45.0
158.029,10.65,4.955,56.0
114.705,7.761,2.959,27.0
114.488,7.776,2.308,20.0
114.318,7.797,1.671,15.0
74.392,5.094,0.676,24.0
157.921,10.899,5.822,43.0
157.971,10.945,4.947,50.0
114.641,7.973,2.954,43.0
114.586,7.998,2.305,13.0
114.642,8.032,1.671,7.0
74.344,5.229,0.671,37.0
157.79,11.186,5.807,21.0
157.756,11.225,4.929,22.0
114.654,8.186,2.946,22.0
139.643,10.008,2.799,27.0
139.708,10.049,2.023,10.0
74.226,5.359,0.663,39.0
157.244,11.437,5.772,27.0
157.258,11.479,4.897,25.0
114.537,8.39,2.93,21.0
139.63,10.262,2.781,12.0
66.535,4.908,0.955,61.0
66.563,4.928,0.585,164.0
66.582,4.966,2.435,9.0
133.358,9.978,4.134,12.0
103.486,7.77,2.632,16.0
132.951,10.016,2.627,12.0
120.895,9.138,1.715,2.0
73.972,5.611,0.638,32.0
131.136,10.021,4.773,12.0
130.905,10.035,4.035,12.0
27.249,2.095,0.687,6.0
130.481,10.068,2.552,8.0
74.666,5.78,1.044,16.0
73.943,5.744,0.622,27.0
128.748,10.072,4.658,12.0
27.223,2.136,0.833,4.0
27.204,2.141,0.68,19.0
74.571,5.887,1.441,39.0
74.533,5.903,1.025,27.0
73.868,5.87,0.603,14.0
74.539,5.965,2.678,25.0
27.158,2.179,0.824,10.0
27.158,2.186,0.672,47.0
27.207,2.196,0.518,46.0
27.208,2.203,0.366,29.0
27.238,2.212,0.214,18.0
74.52,6.095,2.656,28.0
27.115,2.224,0.814,30.0
27.138,2.232,0.663,154.0
27.125,2.237,0.508,59.0
27.129,2.245,0.357,26.0
27.201,2.257,0.206,17.0
27.096,2.263,0.957,49.0
27.102,2.27,0.805,153.0
27.072,2.274,0.653,75.0
27.1,2.282,0.499,39.0
27.095,2.288,0.347,32.0
27.134,2.298,0.195,15.0
27.056,2.307,0.946,173.0
27.071,2.314,0.794,36.0
27.075,2.321,0.643,41.0
27.076,2.327,0.488,50.0
27.088,2.334,0.337,49.0
27.118,2.343,0.185,24.0
27.135,2.359,0.938,152.0
27.063,2.359,0.784,34.0
27.077,2.366,0.632,57.0
27.07,2.371,0.477,56.0
27.068,2.377,0.325,56.0
27.097,2.386,0.174,26.0
27.107,2.402,0.925,4.0
27.121,2.409,0.774,152.0
27.085,2.411,0.62,50.0
27.065,2.415,0.465,46.0
27.069,2.422,0.313,55.0
27.129,2.433,0.161,40.0
27.111,2.446,0.913,7.0
27.113,2.452,0.761,158.0
27.078,2.455,0.608,35.0
27.064,2.459,0.452,10.0
27.061,2.465,0.3,19.0
27.134,2.477,0.148,3.0
27.103,2.489,0.9,3.0
27.117,2.496,0.748,153.0
13.832,1.276,0.303,17.0
13.843,1.28,0.224,16.0
13.84,1.282,0.146,23.0
13.843,1.286,0.068,26.0
13.855,1.294,0.453,33.0
13.847,1.296,0.374,36.0
13.821,1.297,0.296,34.0
13.814,1.299,0.216,28.0
13.835,1.304,0.139,34.0
13.823,1.305,0.061,32.0
13.831,1.314,0.444,37.0
13.822,1.315,0.366,47.0
13.801,1.316,0.287,35.0
13.8,1.319,0.208,35.0
13.813,1.323,0.13,38.0
13.805,1.325,0.053,34.0
13.817,1.333,0.435,39.0
13.805,1.335,0.357,78.0
13.782,1.335,0.279,77.0
13.788,1.338,0.2,37.0
13.801,1.342,0.122,58.0
13.788,1.344,0.044,36.0
13.804,1.353,0.427,40.0
13.791,1.354,0.348,117.0
13.776,1.355,0.27,129.0
13.778,1.358,0.191,40.0
13.789,1.362,0.113,77.0
13.782,1.364,0.035,38.0
13.789,1.371,0.417,60.0
13.784,1.374,0.339,150.0
13.769,1.374,0.261,131.0
13.766,1.377,0.182,75.0
13.79,1.382,0.104,81.0
13.78,1.383,0.026,39.0
13.787,1.391,0.408,62.0
13.778,1.393,0.33,150.0
13.764,1.393,0.251,148.0
13.765,1.396,0.172,49.0
13.784,1.401,0.094,76.0
13.782,1.403,0.016,37.0
13.78,1.41,0.398,52.0
13.77,1.411,0.32,150.0
13.762,1.412,0.241,140.0
13.758,1.414,0.162,38.0
13.787,1.42,0.084,68.0
13.772,1.421,0.006,37.0
13.776,1.428,0.388,61.0
13.771,1.43,0.309,84.0
13.763,1.431,0.231,86.0
13.77,1.434,0.152,37.0
13.781,1.438,0.074,60.0
13.787,1.441,-0.003,36.0
13.779,1.447,0.377,58.0
13.778,1.449,0.299,90.0
13.774,1.451,0.221,91.0
13.768,1.452,0.141,39.0
13.783,1.456,0.063,42.0
13.781,1.459,-0.014,34.0
13.787,1.466,0.366,47.0
13.781,1.467,0.288,51.0
13.777,1.469,0.21,84.0
13.784,1.472,0.13,39.0
13.782,1.474,0.052,36.0
13.79,1.477,-0.025,32.0
13.802,1.485,0.356,40.0
13.793,1.486,0.277,39.0
13.785,1.487,0.199,40.0
13.788,1.489,0.119,35.0
13.795,1.492,0.041,33.0
13.794,1.495,-0.037,27.0
13.809,1.502,0.344,35.0
13.805,1.504,0.266,38.0
13.797,1.505,0.187,31.0
13.791,1.506,0.107,28.0
13.81,1.511,0.029,27.0
13.806,1.512,-0.049,21.0
13.821,1.52,0.333,28.0
13.8,1.52,0.254,31.0
13.804,1.522,0.175,18.0
13.821,1.526,0.095,14.0
13.822,1.528,0.017,18.0
13.839,1.532,-0.061,18.0
13.834,1.537,0.321,13.0
13.829,1.538,0.242,13.0
13.818,1.539,0.163,7.0
13.825,1.542,0.083,4.0
13.842,1.546,0.004,8.0
35.74,3.997,-0.19,6.0
13.843,1.554,0.308,5.0
13.849,1.556,0.23,2.0
13.874,1.561,0.151,0.0
41.893,4.719,0.214,16.0
39.777,4.486,-0.022,18.0
34.995,3.952,-0.219,42.0
96.911,10.982,2.073,24.0
10.07,1.142,0.158,0.0
10.078,1.144,0.1,0.0
33.917,3.856,0.142,150.0
39.028,4.442,-0.058,19.0
34.505,3.932,-0.248,34.0
10.008,1.144,0.204,7.0
33.932,3.884,0.5,4.0
10.005,1.146,0.09,5.0
33.876,3.886,0.109,30.0
37.059,4.255,-0.091,3.0
34.459,3.962,-0.281,8.0
33.979,3.919,0.661,3.0
33.614,3.88,0.463,5.0
33.721,3.897,0.271,10.0
33.844,3.915,0.076,7.0
10.009,1.159,-0.034,15.0
10.009,1.16,-0.091,15.0
10.01,1.164,0.185,38.0
10.011,1.165,0.128,73.0
10.003,1.165,0.07,71.0
10.003,1.166,0.012,39.0
10.012,1.168,-0.044,29.0
10.01,1.169,-0.101,20.0
10.006,1.172,0.175,82.0
10.005,1.173,0.117,136.0
10.0,1.174,0.06,123.0
9.997,1.174,0.002,72.0
10.002,1.176,-0.054,62.0
9.996,1.176,-0.111,28.0
9.996,1.179,0.164,79.0
9.993,1.18,0.107,144.0
9.994,1.181,0.05,134.0
9.988,1.182,-0.007,76.0
9.988,1.183,-0.064,75.0
9.989,1.184,-0.121,35.0
9.985,1.186,0.154,64.0
9.978,1.186,0.097,132.0
9.98,1.188,0.04,131.0
9.976,1.188,-0.017,76.0
9.982,1.19,-0.075,79.0
9.987,1.192,-0.132,35.0
9.975,1.193,0.143,81.0
9.978,1.194,0.086,150.0
9.979,1.195,0.029,137.0
9.976,1.196,-0.028,101.0
9.983,1.198,-0.085,89.0
9.977,1.198,-0.142,40.0
9.973,1.2,0.132,89.0
9.975,1.201,0.075,150.0
9.974,1.202,0.018,130.0
9.97,1.202,-0.039,105.0
9.976,1.204,-0.096,104.0
9.978,1.205,-0.153,52.0
9.972,1.207,0.122,91.0
9.974,1.208,0.065,150.0
9.973,1.209,0.007,147.0
9.969,1.209,-0.05,109.0
9.976,1.211,-0.107,102.0
9.971,1.211,-0.164,57.0
9.97,1.213,0.111,113.0
9.971,1.214,0.053,150.0
9.971,1.215,-0.002,150.0
9.967,1.215,-0.061,120.0
9.974,1.217,-0.118,107.0
9.97,1.217,-0.175,61.0
9.97,1.219,0.1,109.0
9.975,1.22,0.043,150.0
9.973,1.221,-0.014,119.0
9.966,1.221,-0.072,129.0
9.977,1.223,-0.129,110.0
9.968,1.223,-0.186,63.0
9.973,1.225,0.089,114.0
9.977,1.226,0.032,150.0
9.967,1.226,-0.025,140.0
9.967,1.226,-0.083,120.0
9.976,1.228,-0.14,119.0
9.967,1.228,-0.197,62.0
9.972,1.23,0.077,108.0
9.972,1.23,0.02,150.0
9.973,1.231,-0.036,150.0
9.965,1.231,-0.094,121.0
9.973,1.233,-0.151,114.0
9.97,1.233,-0.208,64.0
9.972,1.235,0.066,108.0
9.973,1.235,0.009,150.0
9.977,1.236,-0.047,150.0
9.971,1.236,-0.105,119.0
9.973,1.237,-0.162,108.0
9.966,1.237,-0.219,59.0
9.972,1.239,0.055,97.0
9.979,1.24,-0.001,128.0
9.979,1.241,-0.058,150.0
9.968,1.24,-0.116,117.0
9.972,1.241,-0.174,106.0
9.972,1.241,-0.231,68.0
9.972,1.243,0.044,101.0
9.978,1.244,-0.013,47.0
9.968,1.243,-0.07,150.0
9.967,1.243,-0.128,102.0
9.969,1.244,-0.185,106.0
9.97,1.245,-0.242,66.0
9.968,1.245,0.032,99.0
9.974,1.246,-0.024,128.0
9.972,1.246,-0.081,150.0
9.963,1.246,-0.139,116.0
9.973,1.247,-0.197,114.0
9.967,1.247,-0.254,69.0
9.979,1.249,0.021,95.0
9.978,1.25,-0.036,150.0
9.972,1.249,-0.093,150.0
9.966,1.249,-0.151,117.0
9.972,1.25,-0.208,116.0
9.972,1.25,-0.265,65.0
9.971,1.251,0.009,77.0
9.974,1.251,-0.047,150.0
9.975,1.252,-0.104,150.0
9.968,1.251,-0.162,103.0
9.97,1.252,-0.219,107.0
9.969,1.252,-0.277,66.0
9.981,1.254,-0.001,65.0
9.976,1.253,-0.058,150.0
9.979,1.254,-0.116,150.0
9.968,1.253,-0.174,109.0
9.972,1.254,-0.231,102.0
9.971,1.254,-0.288,58.0
9.977,1.255,-0.013,60.0
9.977,1.255,-0.07,150.0
9.979,1.255,-0.127,150.0
9.965,1.254,-0.185,102.0
9.973,1.255,-0.243,113.0
9.97,1.255,-0.3,70.0
9.971,1.255,-0.024,84.0
9.977,1.256,-0.082,150.0
9.968,1.255,-0.139,150.0
9.969,1.255,-0.197,109.0
9.967,1.255,-0.254,104.0
9.973,1.256,-0.311,60.0
9.972,1.256,-0.036,104.0
9.975,1.256,-0.093,150.0
9.978,1.256,-0.15,150.0
9.97,1.256,-0.208,104.0
9.975,1.256,-0.266,112.0
9.971,1.256,-0.323,56.0
9.972,1.256,-0.047,97.0
9.973,1.256,-0.105,150.0
9.968,1.255,-0.162,150.0
9.97,1.255,-0.22,110.0
9.973,1.256,-0.277,106.0
9.969,1.255,-0.334,57.0
9.972,1.255,-0.059,102.0
9.975,1.255,-0.116,150.0
9.972,1.255,-0.173,150.0
9.968,1.254,-0.231,100.0
9.971,1.255,-0.288,111.0
9.969,1.255,-0.346,64.0
9.97,1.254,-0.07,103.0
9.972,1.254,-0.127,150.0
9.976,1.254,-0.184,150.0
9.97,1.254,-0.242,109.0
9.97,1.254,-0.3,113.0
9.969,1.254,-0.357,66.0
9.971,1.253,-0.081,117.0
9.968,1.252,-0.138,150.0
9.974,1.253,-0.196,150.0
9.966,1.252,-0.254,98.0
9.972,1.252,-0.311,104.0
9.973,1.252,-0.368,61.0
9.973,1.251,-0.092,105.0
9.97,1.25,-0.15,150.0
9.978,1.251,-0.207,150.0
9.967,1.25,-0.265,108.0
9.969,1.25,-0.322,112.0
9.968,1.25,-0.379,58.0
9.973,1.249,-0.103,108.0
9.97,1.248,-0.16,150.0
9.972,1.248,-0.218,150.0
9.97,1.248,-0.276,106.0
9.97,1.247,-0.333,114.0
9.971,1.248,-0.39,57.0
9.971,1.246,-0.114,103.0
9.973,1.246,-0.172,150.0
9.978,1.246,-0.229,150.0
9.968,1.244,-0.287,101.0
9.974,1.245,-0.344,111.0
9.97,1.244,-0.401,66.0
9.973,1.243,-0.125,103.0
9.967,1.242,-0.182,150.0
9.97,1.242,-0.239,150.0
9.966,1.241,-0.297,97.0
9.972,1.241,-0.355,111.0
9.971,1.241,-0.412,64.0
9.971,1.239,-0.136,105.0
9.973,1.239,-0.193,150.0
9.97,1.238,-0.25,150.0
9.967,1.237,-0.308,102.0
9.97,1.237,-0.365,114.0
9.968,1.237,-0.423,65.0
9.972,1.235,-0.147,109.0
9.975,1.235,-0.204,150.0
9.974,1.234,-0.261,150.0
9.96,1.232,-0.319,99.0
9.969,1.233,-0.376,110.0
9.973,1.233,-0.434,60.0
9.968,1.23,-0.157,107.0
9.97,1.23,-0.214,150.0
9.972,1.229,-0.272,150.0
9.968,1.228,-0.33,103.0
9.972,1.228,-0.387,114.0
9.975,1.228,-0.444,55.0
9.969,1.225,-0.168,116.0
9.981,1.226,-0.225,150.0
9.979,1.225,-0.282,150.0
9.968,1.223,-0.34,102.0
9.983,1.224,-0.398,102.0
9.972,1.223,-0.454,54.0
9.973,1.22,-0.178,102.0
9.975,1.22,-0.235,150.0
9.974,1.219,-0.292,150.0
9.975,1.218,-0.35,87.0
9.977,1.218,-0.408,101.0
9.978,1.218,-0.465,54.0
9.974,1.214,-0.188,98.0
9.975,1.214,-0.245,150.0
9.977,1.213,-0.302,150.0
9.981,1.213,-0.361,90.0
9.977,1.212,-0.418,95.0
9.979,1.212,-0.475,23.0
9.976,1.208,-0.198,91.0
9.979,1.208,-0.255,148.0
9.977,1.207,-0.312,131.0
9.979,1.206,-0.37,69.0
9.988,1.207,-0.428,83.0
9.987,1.206,-0.485,20.0
9.977,1.201,-0.208,79.0
9.99,1.202,-0.265,144.0
9.989,1.201,-0.322,124.0
9.987,1.2,-0.38,68.0
9.995,1.201,-0.438,69.0
9.999,1.201,-0.495,29.0
9.991,1.196,-0.218,71.0
9.999,1.196,-0.275,139.0
9.989,1.194,-0.331,132.0
9.992,1.194,-0.39,63.0
9.994,1.193,-0.447,65.0
10.005,1.194,-0.505,35.0
9.999,1.19,-0.227,84.0
10.004,1.189,-0.284,131.0
9.998,1.188,-0.341,127.0
9.991,1.186,-0.399,67.0
10.012,1.188,-0.457,78.0
10.011,1.187,-0.514,26.0
10.005,1.182,-0.236,87.0
10.005,1.181,-0.293,113.0
10.007,1.181,-0.35,92.0
10.012,1.18,-0.409,21.0
10.015,1.18,-0.466,20.0
10.006,1.178,-0.523,17.0
10.008,1.174,-0.245,29.0
10.013,1.174,-0.302,24.0
10.007,1.172,-0.359,18.0
10.004,1.171,-0.417,15.0
13.076,1.529,-0.62,0.0
9.994,1.168,-0.531,14.0
10.024,1.167,-0.254,16.0
13.838,1.61,-0.43,6.0
13.751,1.599,-0.506,6.0
13.387,1.555,-0.57,6.0
13.056,1.515,-0.63,6.0
10.018,1.162,-0.541,2.0
13.846,1.6,-0.363,6.0
13.812,1.594,-0.441,8.0
13.732,1.584,-0.516,9.0
13.322,1.535,-0.578,8.0
13.043,1.502,-0.641,11.0
12.11,1.393,-0.664,2.0
13.845,1.587,-0.374,15.0
13.79,1.579,-0.451,14.0
13.716,1.568,-0.527,15.0
13.26,1.515,-0.586,9.0
12.956,1.479,-0.647,6.0
11.987,1.367,-0.667,1.0
13.812,1.569,-0.384,19.0
13.77,1.563,-0.461,16.0
13.684,1.551,-0.536,14.0
13.156,1.49,-0.592,8.0
12.834,1.452,-0.65,3.0
11.87,1.342,-0.669,1.0
13.808,1.554,-0.394,23.0
13.745,1.545,-0.471,19.0
13.641,1.532,-0.545,11.0
13.07,1.466,-0.598,8.0
12.7,1.423,-0.653,2.0
11.725,1.313,-0.67,1.0
13.797,1.539,-0.404,26.0
13.742,1.53,-0.481,20.0
13.527,1.505,-0.55,9.0
13.08,1.453,-0.607,9.0
12.564,1.395,-0.655,1.0
11.62,1.288,-0.672,1.0
13.788,1.522,-0.414,32.0
13.725,1.513,-0.49,20.0
13.475,1.484,-0.557,8.0
13.067,1.437,-0.616,10.0
12.411,1.364,-0.656,1.0
11.539,1.266,-0.675,2.0
13.779,1.505,-0.423,32.0
13.725,1.498,-0.499,19.0
13.37,1.457,-0.562,11.0
13.077,1.423,-0.625,11.0
12.344,1.342,-0.66,1.0
11.453,1.244,-0.678,1.0
13.767,1.488,-0.431,36.0
13.724,1.481,-0.508,19.0
13.301,1.434,-0.568,13.0
13.061,1.406,-0.633,10.0
12.259,1.318,-0.663,2.0
11.337,1.217,-0.678,1.0
13.772,1.472,-0.44,38.0
13.706,1.463,-0.515,17.0
13.266,1.414,-0.574,12.0
13.039,1.388,-0.64,8.0
12.188,1.296,-0.667,2.0
11.256,1.195,-0.68,1.0
13.772,1.455,-0.448,35.0
13.711,1.446,-0.524,16.0
13.258,1.396,-0.581,10.0
13.015,1.369,-0.646,7.0
12.09,1.27,-0.668,1.0
11.2,1.175,-0.683,1.0
13.768,1.437,-0.456,31.0
13.681,1.426,-0.53,12.0
13.236,1.377,-0.588,10.0
12.98,1.349,-0.651,7.0
12.041,1.249,-0.672,1.0
11.14,1.154,-0.685,1.0
13.757,1.418,-0.462,27.0
13.658,1.406,-0.536,11.0
13.187,1.355,-0.592,12.0
12.939,1.328,-0.655,5.0
11.992,1.229,-0.675,1.0
11.09,1.134,-0.687,1.0
13.761,1.4,-0.469,31.0
13.654,1.387,-0.543,10.0
13.16,1.335,-0.597,10.0
12.857,1.302,-0.657,3.0
11.89,1.202,-0.675,1.0
11.023,1.113,-0.688,2.0
13.753,1.381,-0.475,28.0
13.63,1.366,-0.548,10.0
13.141,1.315,-0.602,8.0
12.771,1.276,-0.659,2.0
11.803,1.177,-0.675,1.0
10.966,1.092,-0.689,2.0
13.744,1.361,-0.48,22.0
13.611,1.345,-0.552,11.0
13.109,1.293,-0.606,7.0
12.698,1.251,-0.66,1.0
11.746,1.155,-0.677,1.0
10.931,1.073,-0.691,2.0
13.745,1.342,-0.486,21.0
13.603,1.325,-0.557,11.0
13.089,1.273,-0.61,8.0
12.649,1.228,-0.662,1.0
11.749,1.138,-0.681,1.0
10.901,1.054,-0.693,2.0
13.744,1.322,-0.491,23.0
13.579,1.303,-0.561,11.0
13.08,1.253,-0.614,8.0
12.602,1.205,-0.664,3.0
11.703,1.117,-0.682,1.0
10.871,1.035,-0.695,1.0
13.762,1.303,-0.495,28.0
13.566,1.282,-0.565,10.0
13.104,1.236,-0.619,9.0
12.555,1.182,-0.665,4.0
11.645,1.094,-0.682,1.0
10.848,1.017,-0.697,1.0
13.774,1.284,-0.5,22.0
13.544,1.26,-0.567,11.0
13.071,1.213,-0.621,9.0
12.547,1.162,-0.668,4.0
11.62,1.074,-0.684,2.0
10.826,0.999,-0.698,1.0
13.775,1.263,-0.503,20.0
13.557,1.24,-0.571,10.0
13.069,1.193,-0.624,10.0
12.523,1.141,-0.669,3.0
11.599,1.054,-0.685,2.0
10.806,0.98,-0.699,2.0
13.795,1.244,-0.507,18.0
13.525,1.217,-0.572,13.0
13.074,1.173,-0.626,10.0
12.518,1.121,-0.671,3.0
11.594,1.036,-0.687,1.0
10.799,0.963,-0.7,2.0
13.815,1.224,-0.509,16.0
13.554,1.198,-0.576,12.0
13.074,1.153,-0.628,10.0
12.466,1.096,-0.67,4.0
11.591,1.017,-0.688,2.0
10.792,0.945,-0.701,2.0
13.842,1.204,-0.512,14.0
13.575,1.178,-0.578,10.0
13.091,1.133,-0.631,9.0
12.447,1.075,-0.67,4.0
11.57,0.997,-0.688,2.0
10.795,0.928,-0.702,1.0
13.883,1.186,-0.515,15.0
13.603,1.159,-0.58,10.0
13.062,1.11,-0.63,8.0
12.46,1.056,-0.672,4.0
11.557,0.977,-0.688,2.0
10.81,0.912,-0.704,0.0
13.954,1.17,-0.518,10.0
13.583,1.135,-0.58,9.0
13.071,1.09,-0.631,9.0
12.471,1.037,-0.673,4.0
11.563,0.959,-0.688,2.0
10.81,0.894,-0.704,1.0
14.172,1.165,-0.526,9.0
13.601,1.115,-0.581,10.0
13.09,1.07,-0.632,9.0
12.509,1.02,-0.675,3.0
11.59,0.942,-0.69,2.0
10.821,0.877,-0.704,2.0
14.62,1.177,-0.543,4.0
13.608,1.093,-0.581,11.0
13.073,1.047,-0.63,8.0
12.546,1.002,-0.676,3.0
11.629,0.926,-0.691,2.0
10.839,0.861,-0.705,2.0
15.057,1.187,-0.558,3.0
13.634,1.072,-0.581,11.0
13.065,1.024,-0.629,8.0
12.572,0.983,-0.676,3.0
11.704,0.912,-0.695,2.0
10.866,0.844,-0.705,3.0
15.222,1.175,-0.562,4.0
13.7,1.054,-0.582,12.0
13.066,1.002,-0.627,8.0
12.598,0.964,-0.676,3.0
11.727,0.894,-0.694,1.0
10.878,0.827,-0.705,2.0
15.329,1.157,-0.564,4.0
13.782,1.037,-0.583,11.0
13.083,0.981,-0.626,7.0
12.672,0.947,-0.678,3.0
11.732,0.874,-0.693,1.0
10.924,0.812,-0.706,1.0
15.491,1.143,-0.567,2.0
13.828,1.017,-0.582,12.0
13.142,0.963,-0.626,8.0
12.742,0.931,-0.679,4.0
11.803,0.859,-0.694,2.0
11.003,0.799,-0.708,0.0
15.794,1.138,-0.574,2.0
13.919,1.0,-0.583,13.0
13.204,0.945,-0.626,8.0
12.82,0.914,-0.68,3.0
11.867,0.844,-0.695,2.0
11.02,0.781,-0.706,2.0
15.869,1.116,-0.572,2.0
14.053,0.985,-0.584,12.0
13.293,0.928,-0.626,9.0
12.939,0.9,-0.682,4.0
11.929,0.827,-0.695,2.0
11.07,0.765,-0.706,1.0
16.01,1.098,-0.572,2.0
14.218,0.972,-0.587,15.0
13.35,0.909,-0.624,11.0
13.001,0.882,-0.681,6.0
12.003,0.811,-0.695,2.0
11.157,0.752,-0.707,2.0
16.119,1.078,-0.571,3.0
14.491,0.965,-0.593,17.0
13.381,0.888,-0.621,12.0
13.012,0.86,-0.677,8.0
12.123,0.798,-0.697,2.0
11.231,0.737,-0.708,1.0
16.237,1.057,-0.568,4.0
14.626,0.948,-0.592,16.0
13.535,0.874,-0.622,11.0
13.032,0.838,-0.672,8.0
12.25,0.785,-0.699,2.0
11.306,0.722,-0.707,2.0
16.337,1.035,-0.565,4.0
14.659,0.925,-0.587,20.0
13.616,0.855,-0.62,12.0
13.063,0.817,-0.668,10.0
12.36,0.77,-0.699,2.0
11.403,0.707,-0.708,2.0
16.518,1.017,-0.563,3.0
14.662,0.899,-0.58,18.0
13.743,0.839,-0.619,10.0
13.064,0.794,-0.661,10.0
12.387,0.75,-0.695,3.0
11.48,0.692,-0.707,2.0
16.733,1.001,-0.561,2.0
14.69,0.875,-0.573,10.0
13.888,0.823,-0.618,12.0
13.077,0.772,-0.655,9.0
12.488,0.734,-0.693,2.0
11.614,0.679,-0.709,2.0
16.986,0.986,-0.56,3.0
14.891,0.86,-0.573,6.0
14.104,0.811,-0.619,12.0
13.059,0.748,-0.646,8.0
12.632,0.72,-0.694,2.0
11.709,0.664,-0.707,1.0
17.223,0.969,-0.558,3.0
15.271,0.855,-0.578,2.0
14.396,0.802,-0.623,15.0
13.164,0.73,-0.643,8.0
12.792,0.706,-0.695,3.0
11.83,0.65,-0.707,1.0
17.392,0.948,-0.552,4.0
15.77,0.856,-0.587,6.0
14.539,0.785,-0.62,17.0
13.401,0.72,-0.646,11.0
12.941,0.692,-0.694,4.0
11.935,0.635,-0.705,2.0
17.622,0.93,-0.547,3.0
16.0,0.84,-0.584,2.0
14.59,0.762,-0.612,19.0
13.474,0.7,-0.64,13.0
13.058,0.675,-0.691,8.0
12.096,0.622,-0.706,2.0
17.896,0.912,-0.543,3.0
16.249,0.824,-0.581,2.0
14.644,0.739,-0.603,18.0
13.663,0.685,-0.638,14.0
13.069,0.652,-0.682,10.0
12.269,0.609,-0.707,3.0
18.233,0.897,-0.539,3.0
16.446,0.805,-0.576,3.0
14.654,0.713,-0.592,17.0
13.873,0.671,-0.637,13.0
13.062,0.629,-0.671,11.0
12.399,0.593,-0.704,3.0
18.537,0.88,-0.533,3.0
16.753,0.79,-0.572,2.0
14.713,0.69,-0.582,8.0
14.165,0.661,-0.639,14.0
13.074,0.606,-0.66,9.0
12.567,0.579,-0.703,3.0
18.841,0.861,-0.526,3.0
17.189,0.781,-0.573,2.0
15.162,0.684,-0.587,3.0
14.428,0.647,-0.638,15.0
13.153,0.587,-0.653,8.0
12.797,0.567,-0.704,3.0
19.228,0.845,-0.52,3.0
17.418,0.761,-0.565,2.0
15.784,0.685,-0.597,2.0
14.563,0.628,-0.631,15.0
13.345,0.572,-0.65,13.0
12.923,0.55,-0.699,5.0
19.602,0.827,-0.512,3.0
17.695,0.742,-0.557,4.0
16.048,0.668,-0.592,2.0
14.624,0.605,-0.62,12.0
13.481,0.554,-0.644,13.0
13.055,0.533,-0.694,8.0
20.0,0.809,-0.503,3.0
17.947,0.721,-0.548,3.0
16.302,0.651,-0.585,2.0
14.637,0.58,-0.606,12.0
13.73,0.54,-0.642,9.0
13.06,0.51,-0.681,11.0
20.456,0.792,-0.494,4.0
18.438,0.709,-0.544,3.0
16.702,0.638,-0.583,2.0
14.658,0.556,-0.591,8.0
13.89,0.523,-0.635,5.0
13.078,0.489,-0.668,7.0
20.88,0.773,-0.482,4.0
18.784,0.69,-0.535,3.0
17.125,0.624,-0.579,5.0
15.195,0.55,-0.597,3.0
14.17,0.509,-0.633,1.0
13.392,0.478,-0.67,3.0
21.362,0.754,-0.471,4.0
19.23,0.674,-0.526,3.0
17.454,0.607,-0.571,3.0
15.845,0.547,-0.605,2.0
14.165,0.485,-0.617,0.0
13.739,0.467,-0.672,3.0
21.976,0.739,-0.46,4.0
19.702,0.657,-0.517,3.0
17.825,0.59,-0.563,4.0
16.181,0.531,-0.6,2.0
14.366,0.467,-0.609,1.0
14.044,0.453,-0.671,4.0
22.928,0.733,-0.453,5.0
20.192,0.64,-0.507,3.0
18.198,0.572,-0.554,4.0
16.53,0.515,-0.593,2.0
14.659,0.453,-0.604,4.0
14.357,0.439,-0.669,6.0
23.889,0.724,-0.444,5.0
20.748,0.623,-0.496,4.0
18.708,0.556,-0.547,4.0
17.005,0.501,-0.59,2.0
15.453,0.451,-0.618,4.0
14.513,0.42,-0.658,4.0
27.489,0.787,-0.477,1.0
21.334,0.605,-0.484,4.0
19.196,0.539,-0.538,3.0
17.378,0.484,-0.581,4.0
15.861,0.437,-0.615,3.0
14.734,0.402,-0.65,4.0
28.249,0.763,-0.455,1.0
21.965,0.587,-0.471,4.0
19.685,0.521,-0.526,3.0
17.717,0.464,-0.57,5.0
16.23,0.421,-0.608,2.0
14.984,0.385,-0.641,4.0
29.137,0.74,-0.432,2.0
23.012,0.578,-0.463,5.0
20.217,0.503,-0.514,3.0
18.198,0.448,-0.561,3.0
16.665,0.406,-0.602,3.0
15.265,0.368,-0.633,3.0
29.979,0.713,-0.405,2.0
26.966,0.635,-0.507,1.0
20.889,0.486,-0.503,4.0
18.727,0.431,-0.552,3.0
17.09,0.389,-0.595,2.0
15.597,0.351,-0.626,3.0
30.98,0.689,-0.377,2.0
27.459,0.603,-0.479,1.0
21.438,0.465,-0.487,4.0
19.21,0.412,-0.54,5.0
17.525,0.371,-0.586,2.0
15.949,0.334,-0.617,4.0
32.232,0.666,-0.347,1.0
28.437,0.58,-0.456,1.0
22.388,0.451,-0.477,4.0
19.759,0.393,-0.528,4.0
17.987,0.353,-0.575,3.0
16.387,0.318,-0.611,4.0
36.72,0.702,-0.343,2.0
29.376,0.554,-0.429,2.0
26.411,0.492,-0.525,1.0
20.251,0.372,-0.512,6.0
18.569,0.336,-0.567,5.0
16.853,0.301,-0.604,2.0
36.906,0.65,-0.291,6.0
30.349,0.527,-0.399,2.0
27.033,0.462,-0.498,1.0
21.135,0.356,-0.503,4.0
19.056,0.316,-0.554,3.0
17.463,0.286,-0.6,3.0
37.41,0.603,-0.239,13.0
31.501,0.5,-0.367,2.0
27.884,0.436,-0.472,1.0
21.685,0.333,-0.483,4.0
19.679,0.298,-0.542,3.0
18.088,0.269,-0.594,4.0
38.052,0.557,-0.186,49.0
33.0,0.475,-0.335,1.0
28.964,0.41,-0.446,2.0
26.031,0.362,-0.54,1.0
20.342,0.278,-0.529,3.0
18.888,0.253,-0.59,5.0
39.013,0.514,-0.13,48.0
37.119,0.481,-0.319,2.0
29.923,0.38,-0.414,2.0
26.708,0.333,-0.513,2.0
21.067,0.258,-0.515,4.0
19.72,0.236,-0.585,8.0
43.935,0.517,-0.078,7.0
37.44,0.432,-0.263,11.0
31.037,0.35,-0.38,1.0
27.512,0.304,-0.484,1.0
21.839,0.236,-0.499,4.0
20.69,0.219,-0.581,5.0
0.0,0.0,0.0,0.0
38.109,0.387,-0.206,36.0
32.655,0.324,-0.348,1.0
28.741,0.278,-0.46,1.0
25.755,0.243,-0.547,1.0
21.823,0.201,-0.577,3.0
47.895,0.432,0.068,63.0
39.08,0.343,-0.148,45.0
37.394,0.32,-0.338,0.0
29.624,0.247,-0.425,2.0
26.601,0.216,-0.521,2.0
23.76,0.187,-0.59,2.0
48.062,0.369,0.147,54.0
43.925,0.327,-0.094,7.0
37.696,0.272,-0.278,6.0
30.782,0.215,-0.391,2.0
27.428,0.186,-0.491,1.0
24.488,0.16,-0.567,1.0
55.026,0.349,0.261,15.0
0.0,0.0,0.0,0.0
38.436,0.227,-0.218,14.0
32.394,0.184,-0.356,1.0
28.613,0.157,-0.464,2.0
25.622,0.135,-0.55,2.0
59.33,0.3,0.382,92.0
54.402,0.264,0.067,14.0
39.456,0.183,-0.157,44.0
37.74,0.167,-0.351,3.0
29.601,0.125,-0.429,2.0
26.527,0.106,-0.523,3.0
79.454,0.302,0.65,11.0
55.003,0.197,0.163,28.0
43.867,0.148,-0.097,8.0
38.063,0.12,-0.286,5.0
30.74,0.091,-0.392,1.0
27.392,0.075,-0.491,1.0
79.459,0.203,0.79,150.0
75.792,0.179,0.359,6.0
0.0,0.0,0.0,0.0
38.816,0.076,-0.224,14.0
32.593,0.057,-0.358,1.0
28.734,0.044,-0.464,2.0
79.472,0.108,0.931,151.0
76.312,0.088,0.497,18.0
52.364,0.05,0.069,7.0
39.961,0.03,-0.159,30.0
34.423,0.019,-0.315,0.0
29.725,0.011,-0.427,2.0
79.466,0.014,1.074,151.0
79.389,0.0,0.66,116.0
56.089,-0.01,0.174,14.0
0.0,0.0,0.0,0.0
38.526,-0.022,-0.284,4.0
30.866,-0.023,-0.387,1.0
79.456,-0.075,1.217,151.0
79.461,-0.09,0.805,151.0
76.134,-0.1,0.375,10.0
46.095,-0.069,-0.016,12.0
39.482,-0.066,-0.218,14.0
32.522,-0.061,-0.348,1.0
79.452,-0.163,1.363,156.0
79.461,-0.178,0.951,151.0
79.241,-0.191,0.537,19.0
0.0,0.0,0.0,0.0
41.254,-0.114,-0.151,17.0
37.054,-0.109,-0.328,0.0
79.404,-0.249,1.511,255.0
79.461,-0.263,1.099,152.0
79.444,-0.277,0.687,150.0
61.287,-0.224,0.206,14.0
44.535,-0.17,-0.08,19.0
39.322,-0.157,-0.274,4.0
79.42,-0.332,1.66,212.0
79.448,-0.346,1.249,170.0
79.472,-0.359,0.836,173.0
76.611,-0.359,0.402,10.0
47.8,-0.232,0.003,13.0
39.861,-0.2,-0.203,4.0
79.431,-0.412,1.81,185.0
79.441,-0.425,1.399,181.0
79.461,-0.438,0.987,168.0
79.237,-0.449,0.566,38.0
56.087,-0.327,0.11,8.0
42.066,-0.252,-0.135,2.0
79.423,-0.49,1.961,170.0
79.439,-0.502,1.55,183.0
79.452,-0.515,1.14,174.0
79.473,-0.527,0.72,160.0
61.427,-0.417,0.239,11.0
46.619,-0.323,-0.059,3.0
79.44,-0.564,2.113,151.0
79.433,-0.576,1.702,195.0
79.441,-0.588,1.291,179.0
79.448,-0.6,0.873,185.0
77.181,-0.594,0.448,12.0
50.116,-0.393,0.032,1.0
79.424,-0.637,2.267,150.0
79.424,-0.648,1.856,189.0
79.443,-0.659,1.445,179.0
79.449,-0.671,1.027,176.0
79.403,-0.681,0.615,91.0
60.802,-0.53,0.157,4.0
79.419,-0.705,2.42,150.0
79.445,-0.717,2.011,156.0
79.433,-0.728,1.6,184.0
79.438,-0.739,1.183,203.0
79.454,-0.749,0.772,164.0
77.344,-0.74,0.352,5.0
79.431,-0.773,2.578,151.0
79.446,-0.783,2.168,153.0
79.424,-0.793,1.757,198.0
79.435,-0.803,1.338,190.0
79.445,-0.814,0.929,160.0
78.915,-0.818,0.515,34.0
79.431,-0.836,2.735,151.0
79.438,-0.846,2.324,155.0
79.437,-0.856,1.914,170.0
79.438,-0.865,1.495,180.0
79.407,-0.874,1.085,255.0
79.419,-0.884,0.676,150.0
79.424,-0.897,2.893,150.0
79.404,-0.906,2.482,150.0
79.429,-0.916,2.073,150.0
79.422,-0.925,1.655,150.0
79.43,-0.934,1.245,184.0
79.564,-0.944,0.836,3.0
79.399,-0.955,3.05,36.0
79.427,-0.964,2.641,3.0
79.391,-0.971,2.228,1.0
79.697,-0.984,1.818,1.0
79.516,-0.99,1.404,6.0
86.982,-1.093,1.088,28.0
91.088,-1.158,3.681,31.0
0.0,0.0,0.0,0.0
86.81,-1.122,2.612,2.0
86.94,-1.132,2.16,31.0
86.94,-1.14,1.71,136.0
86.943,-1.149,1.262,150.0
91.069,-1.218,3.865,90.0
99.508,-1.34,3.708,14.0
86.923,-1.178,2.79,48.0
86.905,-1.186,2.332,14.0
183.437,-2.522,3.977,48.0
183.41,-2.537,3.031,83.0
85.784,-1.2,3.813,151.0
99.508,-1.401,3.908,21.0
183.413,-2.598,6.258,34.0
151.468,-2.157,4.369,90.0
183.413,-2.628,4.346,62.0
183.44,-2.644,3.403,37.0
85.803,-1.25,3.986,27.0
91.5,-1.34,3.778,56.0
129.206,-1.902,4.668,25.0
151.441,-2.241,4.674,94.0
151.468,-2.253,3.891,32.0
187.103,-2.797,3.844,23.0
101.053,-1.526,4.897,21.0
91.432,-1.387,3.957,79.0
128.088,-1.953,4.883,32.0
151.431,-2.318,4.976,81.0
151.469,-2.329,4.196,94.0
261.928,-4.047,5.908,24.0
90.867,-1.418,4.588,63.0
91.435,-1.432,4.143,98.0
128.118,-2.015,5.144,23.0
184.764,-2.918,6.447,35.0
151.465,-2.401,4.504,92.0
183.546,-2.921,4.513,32.0
90.84,-1.459,4.771,39.0
91.144,-1.469,4.315,79.0
92.96,-1.503,3.92,10.0
185.777,-3.015,6.858,28.0
151.451,-2.466,4.809,96.0
151.447,-2.474,4.028,67.0
90.849,-1.498,4.954,16.0
90.764,-1.501,4.48,16.0
92.996,-1.542,4.11,46.0
128.082,-2.13,4.986,10.0
151.41,-2.525,5.113,36.0
151.462,-2.533,4.334,82.0
90.788,-1.531,5.134,37.0
126.991,-2.148,6.525,35.0
99.213,-1.682,4.585,23.0
128.552,-2.184,5.262,26.0
184.279,-3.138,6.594,22.0
151.432,-2.585,4.638,78.0
84.091,-1.448,4.927,33.0
83.831,-1.446,4.477,19.0
90.81,-1.569,4.379,41.0
128.448,-2.224,5.518,25.0
185.551,-3.219,7.012,28.0
151.433,-2.631,4.941,55.0
85.209,-1.493,5.163,12.0
83.828,-1.471,4.644,34.0
127.161,-2.234,6.387,31.0
92.986,-1.636,4.181,51.0
128.716,-2.268,5.123,13.0
184.534,-3.256,6.392,38.0
85.303,-1.517,5.34,61.0
84.125,-1.498,4.831,33.0
127.306,-2.27,6.651,33.0
90.671,-1.618,4.259,17.0
128.535,-2.295,5.374,38.0
185.97,-3.324,6.814,18.0
94.467,-1.703,6.104,7.0
84.114,-1.516,4.998,40.0
83.796,-1.511,4.546,37.0
91.002,-1.642,4.456,79.0
93.01,-1.679,4.073,25.0
184.55,-3.334,7.128,11.0
94.0,-1.712,6.262,3.0
85.188,-1.551,5.232,19.0
101.265,-1.844,5.694,31.0
127.279,-2.319,6.484,24.0
92.964,-1.693,4.254,33.0
128.521,-2.341,5.218,12.0
126.465,-2.322,8.675,25.0
85.417,-1.568,5.416,57.0
84.108,-1.543,4.895,46.0
127.177,-2.333,6.731,28.0
90.83,-1.665,4.336,74.0
128.333,-2.352,5.461,31.0
101.22,-1.87,7.142,4.0
85.876,-1.585,5.612,8.0
84.113,-1.551,5.061,25.0
83.813,-1.545,4.6,37.0
91.323,-1.682,4.539,65.0
92.969,-1.71,4.139,36.0
83.874,-1.555,6.085,4.0
126.522,-2.344,8.52,14.0
85.304,-1.579,5.302,58.0
101.317,-1.872,5.76,36.0
127.235,-2.349,6.574,29.0
90.642,-1.671,4.214,16.0
81.792,-1.519,6.094,7.0
126.499,-2.347,8.767,29.0
85.783,-1.589,5.498,30.0
84.108,-1.556,4.946,54.0
83.819,-1.548,4.494,30.0
91.017,-1.678,4.408,79.0
76.683,-1.424,5.865,2.0
101.225,-1.877,7.214,3.0
85.936,-1.59,5.676,4.0
125.766,-2.323,7.64,29.0
101.299,-1.867,5.628,36.0
91.386,-1.681,4.602,24.0
54.236,-1.005,4.252,23.0
64.02,-1.184,4.686,4.0
126.454,-2.333,8.597,24.0
85.291,-1.57,5.345,69.0
84.125,-1.545,4.835,25.0
127.214,-2.33,6.649,31.0
54.222,-1.0,4.356,16.0
81.878,-1.507,6.15,10.0
82.304,-1.511,5.752,3.0
94.389,-1.728,6.096,4.0
84.115,-1.535,4.994,41.0
83.824,-1.526,4.541,34.0
40.762,-0.747,3.353,47.0
63.92,-1.169,4.923,11.0
94.712,-1.726,6.801,6.0
126.523,-2.298,8.411,18.0
85.177,-1.543,5.218,26.0
101.291,-1.828,5.68,29.0
40.979,-0.745,3.448,16.0
54.236,-0.982,4.28,27.0
63.936,-1.154,4.712,8.0
126.235,-2.272,8.63,33.0
85.421,-1.531,5.394,62.0
84.117,-1.502,4.873,45.0
49.115,-0.883,4.226,11.0
40.835,-0.732,3.299,49.0
63.914,-1.141,4.83,42.0
63.937,-1.136,4.49,2.0
126.336,-2.237,8.213,20.0
125.879,-2.22,7.528,27.0
49.095,-0.871,4.316,69.0
40.777,-0.721,3.37,51.0
63.88,-1.125,4.945,21.0
63.897,-1.12,4.604,32.0
126.433,-2.206,8.45,31.0
85.309,-1.482,5.255,68.0
40.267,-0.704,3.613,58.0
41.071,-0.715,3.469,37.0
54.201,-0.939,4.294,15.0
63.89,-1.101,4.72,44.0
82.337,-1.413,5.652,3.0
85.775,-1.465,5.439,10.0
40.301,-0.693,3.689,49.0
49.097,-0.839,4.236,35.0
40.671,-0.692,3.295,56.0
54.265,-0.918,4.106,8.0
63.912,-1.076,4.5,14.0
125.063,-2.094,8.153,23.0
40.54,-0.683,3.784,53.0
49.61,-0.831,4.369,24.0
40.837,-0.68,3.381,45.0
54.252,-0.899,4.201,25.0
63.641,-1.048,4.594,74.0
125.371,-2.053,8.394,31.0
40.467,-0.667,3.849,57.0
49.954,-0.818,4.488,7.0
40.773,-0.664,3.448,53.0
54.283,-0.878,4.3,12.0
63.517,-1.021,4.696,37.0
94.446,-1.509,6.488,4.0
0.0,0.0,0.0,0.0
40.41,-0.645,3.701,46.0
40.517,-0.643,3.496,46.0
40.635,-0.64,3.288,63.0
41.147,-0.643,3.113,53.0
63.387,-0.984,4.463,43.0
40.171,-0.628,3.961,41.0
48.13,-0.747,4.491,16.0
49.896,-0.768,4.392,18.0
40.842,-0.624,3.375,52.0
54.291,-0.824,4.2,7.0
63.833,-0.961,4.602,30.0
39.392,-0.597,3.951,58.0
39.54,-0.595,3.756,56.0
56.72,-0.847,5.088,8.0
40.79,-0.603,3.439,47.0
40.745,-0.598,3.22,54.0
82.061,-1.194,6.054,12.0
39.514,-0.579,4.03,47.0
39.525,-0.574,3.821,69.0
39.928,-0.575,3.648,51.0
49.758,-0.71,4.277,8.0
40.686,-0.576,3.282,62.0
41.128,-0.577,3.101,41.0
39.322,-0.555,4.074,55.0
40.034,-0.56,3.935,67.0
47.72,-0.661,4.437,9.0
49.757,-0.683,4.358,12.0
40.711,-0.553,3.35,65.0
41.12,-0.553,3.166,61.0
39.883,-0.54,4.197,61.0
40.042,-0.537,4.0,40.0
47.687,-0.633,4.51,4.0
40.61,-0.533,3.621,20.0
40.467,-0.526,3.394,65.0
41.166,-0.529,3.234,53.0
39.489,-0.511,4.218,60.0
39.664,-0.507,4.025,51.0
39.514,-0.5,3.8,52.0
40.503,-0.507,3.675,25.0
40.671,-0.503,3.474,59.0
40.73,-0.498,3.264,41.0
39.328,-0.484,4.263,51.0
39.414,-0.479,4.061,56.0
39.933,-0.48,3.901,15.0
40.354,-0.479,3.723,23.0
41.317,-0.484,3.592,40.0
40.437,-0.468,3.3,51.0
39.597,-0.461,4.352,53.0
39.37,-0.452,4.116,60.0
39.287,-0.445,3.898,73.0
40.769,-0.456,3.823,16.0
47.89,-0.528,4.235,4.0
40.812,-0.444,3.392,50.0
39.63,-0.433,4.415,57.0
39.339,-0.424,4.171,64.0
39.359,-0.419,3.963,45.0
39.583,-0.415,3.769,43.0
47.945,-0.495,4.31,5.0
40.698,-0.414,3.441,47.0
40.217,-0.411,4.539,48.0
39.762,-0.4,4.273,64.0
39.53,-0.392,4.036,44.0
39.851,-0.389,3.851,35.0
39.948,-0.384,3.647,62.0
40.891,-0.386,3.515,37.0
40.481,-0.384,4.626,50.0
0.0,0.0,0.0,0.0
39.599,-0.363,4.099,55.0
39.416,-0.355,3.864,67.0
40.367,-0.357,3.741,43.0
40.306,-0.349,3.52,57.0
40.139,-0.349,4.643,39.0
39.94,-0.341,4.404,59.0
39.716,-0.333,4.166,49.0
39.5,-0.324,3.926,54.0
40.248,-0.324,3.785,55.0
39.987,-0.315,3.546,26.0
43.434,-0.344,5.082,6.0
40.285,-0.312,4.497,54.0
40.609,-0.308,4.314,45.0
39.544,-0.292,3.983,50.0
39.525,-0.286,3.769,56.0
40.173,-0.284,3.615,36.0
39.918,-0.283,4.724,38.0
40.636,-0.281,4.589,52.0
40.164,-0.271,4.319,31.0
39.534,-0.26,4.034,57.0
0.0,0.0,0.0,0.0
40.117,-0.249,3.662,36.0
56.135,-0.35,6.716,6.0
41.991,-0.254,4.796,24.0
40.058,-0.235,4.358,48.0
39.581,-0.225,4.089,49.0
39.516,-0.218,3.869,64.0
42.48,-0.227,3.93,41.0
39.53,-0.211,4.779,65.0
39.691,-0.205,4.583,36.0
39.985,-0.2,4.4,57.0
40.074,-0.192,4.189,64.0
40.189,-0.186,3.984,36.0
0.0,0.0,0.0,0.0
39.563,-0.176,4.831,64.0
39.59,-0.168,4.619,63.0
40.299,-0.164,4.483,56.0
40.401,-0.157,4.271,43.0
40.214,-0.149,4.034,73.0
40.08,-0.141,3.804,25.0
39.593,-0.139,4.882,52.0
39.698,-0.132,4.678,36.0
40.394,-0.127,4.54,41.0
40.755,-0.121,4.355,41.0
40.519,-0.112,4.11,19.0
39.967,-0.103,3.838,58.0
39.656,-0.101,4.934,70.0
39.805,-0.095,4.736,41.0
39.945,-0.088,4.534,50.0
40.481,-0.081,4.371,53.0
40.25,-0.073,4.127,57.0
40.169,-0.066,3.901,28.0
39.779,-0.064,4.993,54.0
39.554,-0.056,4.748,69.0
39.844,-0.049,4.566,50.0
40.882,-0.042,4.458,40.0
40.592,-0.034,4.205,54.0
41.105,-0.027,4.035,30.0
39.494,-0.025,4.999,59.0
39.461,-0.017,4.779,70.0
39.735,-0.01,4.594,31.0
40.191,-0.002,4.423,46.0
40.254,0.005,4.211,45.0
40.387,0.013,4.005,48.0
39.363,0.014,5.022,59.0
39.534,0.022,4.827,42.0
39.819,0.03,4.644,21.0
40.138,0.038,4.457,50.0
41.048,0.046,4.334,41.0
40.228,0.053,4.028,60.0
39.472,0.055,5.075,64.0
39.31,0.062,4.838,69.0
39.845,0.07,4.684,38.0
40.025,0.079,4.482,29.0
40.299,0.087,4.292,66.0
40.049,0.094,4.047,60.0
39.793,0.096,5.153,62.0
39.53,0.103,4.901,33.0
43.943,0.123,5.206,3.0
39.757,0.119,4.488,53.0
40.261,0.128,4.324,46.0
40.021,0.136,4.08,70.0
40.118,0.14,5.231,59.0
39.569,0.145,4.94,38.0
43.723,0.168,5.218,4.0
39.965,0.162,4.546,46.0
40.085,0.171,4.339,37.0
40.264,0.179,4.138,58.0
39.97,0.182,5.245,35.0
39.863,0.189,5.01,62.0
39.765,0.196,4.779,29.0
43.054,0.221,4.932,5.0
40.357,0.216,4.401,47.0
40.183,0.222,4.162,63.0
39.576,0.222,5.225,41.0
39.743,0.231,5.027,51.0
40.052,0.241,4.844,15.0
40.268,0.25,4.644,42.0
40.542,0.26,4.452,52.0
40.197,0.265,4.194,39.0
39.509,0.265,5.246,61.0
40.37,0.279,5.136,59.0
40.699,0.29,4.953,54.0
40.345,0.295,4.682,48.0
40.295,0.302,4.454,52.0
40.726,0.314,4.278,17.0
39.468,0.309,5.269,61.0
39.836,0.32,5.096,29.0
39.997,0.329,4.895,28.0
40.241,0.339,4.698,56.0
40.033,0.345,4.453,42.0
44.072,0.389,4.659,2.0
39.364,0.353,5.281,68.0
39.499,0.361,5.079,48.0
39.745,0.371,4.89,31.0
40.236,0.384,4.723,41.0
40.694,0.396,4.552,39.0
41.134,0.409,4.374,18.0
38.706,0.39,5.217,63.0
39.375,0.405,5.088,64.0
40.065,0.419,4.954,47.0
39.92,0.425,4.71,63.0
40.546,0.441,4.559,45.0
41.051,0.454,4.389,26.0
38.569,0.433,5.221,62.0
39.199,0.448,5.087,60.0
42.623,0.495,5.294,5.0
40.179,0.474,4.762,37.0
40.591,0.487,4.586,52.0
41.093,0.501,4.415,15.0
38.524,0.476,5.235,66.0
39.133,0.492,5.099,64.0
42.575,0.543,5.31,2.0
40.321,0.522,4.8,33.0
40.326,0.53,4.576,36.0
47.628,0.635,5.14,5.0
38.683,0.523,5.276,50.0
39.049,0.536,5.107,51.0
39.951,0.556,5.001,21.0
43.931,0.62,5.25,33.0
41.255,0.59,4.7,37.0
47.607,0.69,5.159,10.0
38.505,0.565,5.269,65.0
38.944,0.579,5.11,58.0
39.427,0.594,4.952,32.0
41.335,0.631,4.957,36.0
40.804,0.631,4.665,51.0
41.496,0.649,4.513,32.0
38.413,0.609,5.271,65.0
38.798,0.622,5.106,50.0
39.171,0.636,4.935,39.0
0.0,0.0,0.0,0.0
40.791,0.678,4.678,15.0
41.492,0.697,4.527,22.0
38.332,0.652,5.273,66.0
38.638,0.665,5.098,47.0
38.921,0.677,4.916,50.0
41.917,0.737,5.055,38.0
40.412,0.718,4.647,38.0
41.29,0.742,4.518,59.0
38.467,0.7,5.303,43.0
38.501,0.707,5.091,44.0
38.954,0.723,4.931,52.0
39.592,0.742,4.786,35.0
47.481,0.899,5.473,4.0
41.565,0.795,4.559,40.0
38.246,0.74,5.283,67.0
38.742,0.757,5.132,40.0
38.837,0.766,4.926,48.0
39.519,0.786,4.786,70.0
0.0,0.0,0.0,0.0
48.561,0.984,5.336,10.0
38.708,0.794,5.354,35.0
39.004,0.808,5.174,56.0
38.548,0.805,4.896,61.0
0.0,0.0,0.0,0.0
41.453,0.881,4.795,30.0
48.528,1.041,5.341,56.0
38.601,0.837,5.346,57.0
39.067,0.854,5.189,49.0
38.531,0.85,4.9,37.0
38.058,0.846,4.621,13.0
48.53,1.087,5.619,4.0
41.205,0.931,4.54,40.0
38.795,0.887,5.377,53.0
38.928,0.896,5.175,44.0
38.114,0.884,4.85,47.0
38.009,0.889,4.618,53.0
41.628,0.981,4.823,47.0
41.824,0.993,4.611,8.0
38.482,0.924,5.336,66.0
38.791,0.938,5.159,56.0
38.163,0.93,4.859,55.0
37.851,0.929,4.601,49.0
53.735,1.329,6.228,7.0
42.069,1.047,4.639,13.0
38.497,0.969,5.339,62.0
41.062,1.041,5.461,29.0
38.055,0.971,4.845,47.0
37.841,0.973,4.599,54.0
42.361,1.096,4.909,24.0
49.785,1.297,5.489,9.0
38.756,1.021,5.374,57.0
0.0,0.0,0.0,0.0
38.085,1.016,4.847,65.0
37.778,1.014,4.59,60.0
37.983,1.026,4.4,32.0
41.657,1.133,4.59,24.0
38.544,1.059,5.342,64.0
38.471,1.064,5.112,17.0
38.207,1.063,4.859,54.0
37.819,1.059,4.591,80.0
42.444,1.195,4.912,6.0
42.074,1.192,4.631,36.0
38.766,1.11,5.368,56.0
37.794,1.088,5.017,33.0
37.987,1.1,4.826,64.0
37.959,1.105,4.603,42.0
37.833,1.108,4.373,56.0
38.409,1.131,4.222,23.0
39.202,1.167,5.422,46.0
37.882,1.133,5.022,40.0
38.092,1.146,4.833,56.0
37.882,1.146,4.586,46.0
37.817,1.15,4.363,65.0
38.356,1.172,4.208,32.0
39.264,1.213,5.422,40.0
37.772,1.173,4.999,55.0
38.447,1.199,4.869,47.0
37.892,1.188,4.579,51.0
37.846,1.193,4.358,62.0
38.252,1.212,4.188,53.0
38.409,1.229,5.294,50.0
37.959,1.221,5.014,53.0
37.961,1.227,4.797,58.0
37.783,1.227,4.555,56.0
37.871,1.235,4.35,64.0
38.32,1.256,4.184,57.0
37.731,1.249,5.189,50.0
37.898,1.26,4.994,55.0
37.86,1.265,4.772,56.0
37.803,1.268,4.545,48.0
38.055,1.282,4.358,55.0
38.381,1.299,4.178,51.0
37.536,1.283,5.149,53.0
37.814,1.298,4.97,51.0
37.898,1.306,4.763,65.0
37.782,1.308,4.529,60.0
38.056,1.323,4.345,50.0
38.428,1.342,4.168,54.0
37.591,1.326,5.141,45.0
37.714,1.335,4.941,71.0
37.814,1.344,4.737,46.0
37.833,1.35,4.519,37.0
37.887,1.357,4.309,53.0
38.531,1.385,4.163,57.0
37.57,1.365,5.122,48.0
37.77,1.377,4.932,59.0
37.866,1.385,4.727,67.0
37.912,1.392,4.511,41.0
37.675,1.389,4.268,62.0
42.923,1.588,4.617,8.0
37.511,1.402,5.096,58.0
37.735,1.415,4.909,58.0
37.907,1.427,4.713,55.0
37.874,1.43,4.488,56.0
37.924,1.437,4.277,51.0
41.449,1.577,4.437,7.0
37.71,1.448,5.103,49.0
38.287,1.475,4.96,28.0
37.954,1.467,4.698,51.0
42.845,1.661,5.053,17.0
37.691,1.467,4.229,64.0
41.169,1.607,4.384,35.0
37.729,1.487,5.084,56.0
38.073,1.505,4.91,36.0
37.923,1.504,4.673,59.0
43.111,1.715,5.06,5.0
38.032,1.517,4.245,54.0
41.196,1.649,4.363,48.0
37.66,1.521,5.051,51.0
37.673,1.526,4.836,63.0
37.864,1.538,4.642,62.0
41.347,1.684,4.827,4.0
38.073,1.556,4.226,58.0
53.291,2.184,5.61,14.0
37.555,1.553,5.013,44.0
42.975,1.782,5.488,11.0
37.999,1.58,4.633,36.0
52.877,2.205,6.137,21.0
55.817,2.334,6.158,17.0
62.137,2.606,6.499,10.0
37.467,1.585,4.975,63.0
38.043,1.613,4.831,25.0
37.968,1.615,4.602,39.0
37.62,1.604,4.34,46.0
41.583,1.777,4.558,16.0
54.636,2.341,5.675,7.0
37.472,1.62,4.948,65.0
38.075,1.65,4.807,28.0
38.036,1.652,4.582,42.0
43.012,1.873,4.929,3.0
41.854,1.826,4.556,17.0
63.455,2.776,6.543,21.0
37.911,1.673,4.976,57.0
37.969,1.679,4.764,42.0
38.026,1.685,4.551,35.0
41.788,1.856,4.756,17.0
42.356,1.886,4.577,17.0
52.961,2.364,5.419,12.0
38.179,1.718,4.98,57.0
37.87,1.708,4.72,55.0
37.972,1.716,4.513,54.0
54.588,2.472,6.168,10.0
42.032,1.908,4.507,19.0
41.447,1.885,4.206,11.0
37.814,1.734,4.9,57.0
37.92,1.742,4.694,47.0
37.997,1.749,4.483,51.0
54.201,2.5,6.077,3.0
41.871,1.935,4.453,32.0
41.504,1.922,4.175,13.0
37.714,1.761,4.853,68.0
37.902,1.773,4.657,42.0
38.051,1.783,4.455,32.0
42.845,2.011,4.764,9.0
52.916,2.489,5.579,8.0
41.471,1.954,4.134,42.0
38.099,1.81,4.867,44.0
37.914,1.804,4.623,81.0
41.983,2.001,4.876,17.0
41.863,1.998,4.615,12.0
41.924,2.005,4.38,4.0
54.804,2.625,5.41,7.0
37.793,1.825,4.791,51.0
37.905,1.833,4.585,64.0
41.706,2.02,4.802,16.0
54.293,2.633,5.932,39.0
41.48,2.015,4.293,8.0
65.089,3.168,6.361,11.0
37.648,1.846,4.734,64.0
38.082,1.87,4.567,33.0
41.722,2.051,4.762,33.0
41.994,2.068,4.545,17.0
41.497,2.046,4.252,30.0
53.154,2.625,5.14,26.0
37.744,1.878,4.707,58.0
41.614,2.073,4.947,22.0
41.752,2.082,4.721,13.0
41.505,2.073,4.449,43.0
41.433,2.072,4.201,36.0
55.342,2.771,5.292,7.0
37.757,1.905,4.667,65.0
41.669,2.105,4.908,50.0
41.843,2.115,4.686,31.0
41.536,2.102,4.406,37.0
41.372,2.097,4.15,10.0
53.885,2.734,5.094,7.0
37.952,1.94,4.649,43.0
41.834,2.14,4.881,46.0
41.953,2.148,4.651,22.0
41.69,2.137,4.376,16.0
53.32,2.736,5.288,26.0
64.066,3.292,5.984,23.0
44.724,2.314,5.427,4.0
64.489,3.34,7.449,18.0
52.791,2.736,5.791,7.0
41.543,2.155,4.312,16.0
63.201,3.282,6.195,22.0
64.315,3.343,5.932,39.0
42.351,2.216,5.088,9.0
41.758,2.187,4.774,25.0
42.146,2.209,4.573,25.0
62.921,3.301,6.456,25.0
63.282,3.323,6.127,37.0
64.275,3.378,5.852,39.0
42.028,2.223,4.999,40.0
41.773,2.211,4.725,16.0
41.921,2.22,4.498,17.0
63.011,3.34,6.389,22.0
53.691,2.848,5.133,4.0
64.26,3.412,5.771,39.0
42.176,2.253,4.963,17.0
52.704,2.818,5.895,7.0
41.663,2.228,4.418,22.0
52.672,2.819,5.274,11.0
41.388,2.217,3.904,26.0
64.266,3.444,5.692,33.0
44.621,2.406,5.194,12.0
38.496,2.077,4.256,59.0
41.421,2.236,4.339,14.0
63.523,3.431,6.279,20.0
54.42,2.94,5.064,13.0
67.94,3.674,5.929,11.0
38.398,2.089,4.419,28.0
38.527,2.096,4.209,57.0
53.656,2.921,5.551,6.0
53.582,2.917,5.227,6.0
64.085,3.491,5.88,14.0
67.952,3.704,5.842,11.0
38.373,2.103,4.366,48.0
41.875,2.296,4.52,6.0
62.972,3.454,6.431,9.0
41.316,2.267,3.975,11.0
64.294,3.528,5.813,14.0
67.976,3.732,5.752,14.0
38.326,2.116,4.308,68.0
41.712,2.303,4.445,16.0
63.016,3.481,6.349,13.0
41.37,2.285,3.923,18.0
64.269,3.551,5.723,18.0
55.485,3.066,4.619,8.0
38.397,2.134,4.262,70.0
63.012,3.502,6.627,13.0
63.843,3.548,6.343,33.0
63.754,3.544,5.957,28.0
64.366,3.578,5.642,20.0
75.629,4.205,6.191,14.0
38.464,2.15,4.215,63.0
0.0,0.0,0.0,0.0
64.488,3.604,6.315,11.0
64.517,3.606,5.936,10.0
64.457,3.603,5.557,14.0
64.946,3.63,5.224,16.0
41.938,2.356,4.535,7.0
63.208,3.55,6.468,24.0
41.313,2.32,3.986,39.0
64.341,3.613,5.829,24.0
64.687,3.632,5.484,10.0
78.375,4.401,6.191,24.0
41.892,2.364,4.469,11.0
63.073,3.558,6.361,11.0
41.444,2.337,3.938,43.0
64.326,3.627,5.732,26.0
75.568,4.261,6.295,22.0
78.361,4.417,6.075,30.0
53.943,3.055,5.674,18.0
64.355,3.644,6.394,15.0
41.64,2.356,3.894,13.0
70.221,3.973,6.153,9.0
75.535,4.273,6.181,28.0
78.398,4.434,5.961,15.0
41.61,2.363,4.314,6.0
41.362,2.348,4.047,16.0
64.807,3.678,5.964,15.0
70.128,3.978,6.039,16.0
64.981,3.685,5.218,17.0
71.498,4.054,5.328,29.0
63.171,3.597,6.453,26.0
41.385,2.355,3.985,23.0
64.367,3.661,5.824,25.0
64.687,3.677,5.47,9.0
75.568,4.293,5.951,3.0
71.495,4.061,5.216,35.0
53.305,3.04,5.36,6.0
41.609,2.371,3.942,34.0
64.396,3.667,5.725,39.0
64.567,3.675,5.359,12.0
78.366,4.458,6.049,26.0
71.757,4.08,5.123,45.0
41.579,2.373,4.115,42.0
41.634,2.375,3.878,13.0
64.552,3.679,5.637,39.0
75.689,4.311,6.162,16.0
71.668,4.079,5.419,25.0
71.853,4.088,5.016,34.0
41.481,2.368,4.04,26.0
64.579,3.684,5.912,18.0
64.776,3.692,5.553,15.0
64.929,3.698,5.183,7.0
71.49,4.068,5.291,33.0
71.888,4.089,4.905,22.0
41.598,2.374,3.984,24.0
64.363,3.669,5.789,32.0
64.628,3.681,5.437,11.0
78.325,4.457,6.126,29.0
71.612,4.072,5.185,44.0
127.524,7.245,8.496,22.0
41.633,2.373,3.92,35.0
64.435,3.668,5.691,39.0
75.5,4.294,6.229,27.0
78.348,4.452,6.0,18.0
71.791,4.076,5.082,42.0
127.806,7.249,8.307,24.0
64.807,3.687,5.996,17.0
70.168,3.987,6.082,15.0
64.981,3.688,5.256,18.0
71.472,4.052,5.358,21.0
71.92,4.073,4.975,27.0
127.682,7.224,8.092,13.0
64.405,3.654,5.852,25.0
64.734,3.668,5.505,8.0
64.919,3.674,5.143,5.0
71.44,4.038,5.237,45.0
71.909,4.061,4.855,16.0
127.816,7.21,7.889,26.0
64.357,3.639,5.741,29.0
75.573,4.267,6.301,33.0
78.385,4.421,6.079,30.0
71.704,4.038,5.137,38.0
127.83,7.19,8.418,18.0
127.388,7.158,7.651,29.0
70.225,3.954,6.147,15.0
75.62,4.252,6.179,18.0
71.913,4.038,5.458,33.0
71.887,4.031,5.031,38.0
127.897,7.162,8.209,24.0
127.248,7.117,7.432,28.0
64.449,3.611,5.533,9.0
64.931,3.632,5.195,8.0
71.722,4.006,5.321,42.0
124.736,6.957,8.518,24.0
127.784,7.118,7.986,17.0
127.22,7.076,7.215,28.0
55.414,3.087,4.662,6.0
78.319,4.356,6.134,44.0
71.752,3.984,5.203,42.0
127.425,7.066,8.488,9.0
127.318,7.049,7.745,35.0
127.124,7.029,6.997,17.0
75.64,4.188,6.237,15.0
71.848,3.971,5.505,21.0
71.987,3.971,5.097,38.0
154.848,8.528,10.05,22.0
127.08,6.988,7.512,30.0
