X,Y,Z,Reflectivity
13.077,1.185,-0.634,10.0
12.376,1.123,-0.672,3.0
11.437,1.039,-0.687,2.0
10.634,0.967,-0.7,1.0
13.764,1.253,-0.529,17.0
13.383,1.22,-0.591,12.0
13.054,1.191,-0.651,12.0
12.154,1.11,-0.677,1.0
11.248,1.029,-0.692,1.0
10.454,0.957,-0.703,2.0
13.722,1.257,-0.546,14.0
13.236,1.214,-0.603,7.0
12.907,1.185,-0.662,4.0
11.902,1.094,-0.68,1.0
11.041,1.016,-0.695,1.0
10.276,0.946,-0.706,2.0
13.616,1.254,-0.561,11.0
13.075,1.206,-0.614,8.0
12.585,1.162,-0.664,4.0
11.646,1.076,-0.682,1.0
10.829,1.002,-0.697,1.0
10.111,0.936,-0.709,2.0
13.469,1.248,-0.574,12.0
13.068,1.211,-0.632,11.0
12.38,1.149,-0.67,3.0
11.41,1.06,-0.685,2.0
10.624,0.988,-0.699,1.0
9.938,0.925,-0.711,2.0
13.331,1.241,-0.587,13.0
13.05,1.215,-0.65,12.0
12.132,1.131,-0.674,2.0
11.232,1.048,-0.69,1.0
10.433,0.974,-0.701,2.0
9.811,0.917,-0.716,2.0
13.235,1.237,-0.602,10.0
12.882,1.205,-0.66,3.0
11.908,1.115,-0.678,1.0
11.025,1.033,-0.693,1.0
10.252,0.961,-0.703,2.0
9.679,0.908,-0.72,1.0
13.097,1.229,-0.614,10.0
12.567,1.18,-0.661,4.0
11.654,1.095,-0.68,1.0
10.842,1.019,-0.696,1.0
10.1,0.95,-0.707,2.0
9.582,0.902,-0.726,1.0
13.07,1.23,-0.63,12.0
12.376,1.166,-0.668,3.0
11.423,1.077,-0.682,1.0
10.623,1.002,-0.697,0.0
9.934,0.938,-0.709,2.0
9.455,0.893,-0.73,1.0
13.066,1.233,-0.648,12.0
12.137,1.146,-0.672,2.0
11.224,1.061,-0.686,1.0
10.43,0.986,-0.699,1.0
9.807,0.928,-0.714,2.0
9.329,0.883,-0.733,1.0
12.913,1.222,-0.658,3.0
11.909,1.127,-0.676,1.0
11.029,1.045,-0.689,1.0
10.256,0.972,-0.701,2.0
9.687,0.919,-0.718,1.0
9.223,0.875,-0.737,1.0
12.612,1.195,-0.66,3.0
11.687,1.108,-0.679,1.0
10.861,1.03,-0.694,1.0
10.118,0.96,-0.706,2.0
9.591,0.911,-0.724,1.0
9.083,0.863,-0.738,1.0
12.396,1.177,-0.665,3.0
11.449,1.087,-0.68,1.0
10.661,1.013,-0.695,0.0
9.927,0.943,-0.705,2.0
9.486,0.902,-0.729,1.0
8.972,0.854,-0.741,1.0
12.192,1.158,-0.671,2.0
11.273,1.071,-0.685,1.0
10.479,0.996,-0.697,1.0
9.819,0.934,-0.711,2.0
9.348,0.89,-0.731,1.0
8.871,0.845,-0.745,1.0
11.962,1.137,-0.674,2.0
11.074,1.053,-0.688,1.0
10.303,0.98,-0.699,2.0
9.709,0.924,-0.716,2.0
9.238,0.879,-0.734,1.0
8.713,0.83,-0.743,0.0
11.766,1.118,-0.678,1.0
10.892,1.035,-0.691,1.0
10.159,0.966,-0.703,2.0
9.639,0.917,-0.723,1.0
9.122,0.868,-0.737,1.0
8.272,0.787,-0.716,1.0
11.517,1.094,-0.679,1.0
10.738,1.02,-0.695,1.0
10.002,0.951,-0.705,2.0
9.503,0.903,-0.725,1.0
9.004,0.856,-0.739,1.0
8.02,0.763,-0.705,2.0
11.313,1.074,-0.681,2.0
10.536,1.0,-0.695,1.0
9.866,0.937,-0.708,2.0
9.393,0.892,-0.729,1.0
8.913,0.847,-0.743,1.0
7.898,0.75,-0.705,3.0
11.161,1.058,-0.686,1.0
10.374,0.983,-0.698,2.0
9.752,0.925,-0.712,2.0
9.281,0.88,-0.732,1.0
8.786,0.833,-0.744,0.0
7.782,0.738,-0.704,4.0
10.968,1.038,-0.688,1.0
10.226,0.968,-0.701,2.0
9.674,0.915,-0.718,1.0
9.173,0.868,-0.735,1.0
8.495,0.804,-0.73,0.0
7.715,0.73,-0.707,4.0
10.838,1.023,-0.694,1.0
10.089,0.952,-0.704,2.0
9.566,0.903,-0.722,1.0
9.066,0.856,-0.738,1.0
8.183,0.773,-0.713,1.0
7.632,0.721,-0.709,4.0
10.636,1.001,-0.693,1.0
9.948,0.937,-0.706,2.0
9.465,0.891,-0.726,1.0
8.998,0.847,-0.743,1.0
7.98,0.751,-0.705,3.0
7.549,0.711,-0.711,4.0
10.483,0.984,-0.696,2.0
9.84,0.923,-0.71,2.0
9.354,0.878,-0.729,1.0
8.884,0.834,-0.744,0.0
7.875,0.739,-0.705,4.0
7.504,0.704,-0.715,4.0
10.342,0.967,-0.699,2.0
9.726,0.91,-0.713,1.0
9.262,0.866,-0.732,1.0
8.711,0.814,-0.74,0.0
7.779,0.727,-0.705,4.0
7.475,0.699,-0.721,4.0
10.216,0.952,-0.702,2.0
9.661,0.9,-0.719,1.0
9.165,0.853,-0.735,0.0
8.599,0.801,-0.74,1.0
7.702,0.717,-0.707,4.0
7.445,0.693,-0.727,4.0
10.092,0.936,-0.705,2.0
9.566,0.887,-0.723,1.0
9.081,0.842,-0.738,0.0
8.223,0.762,-0.717,2.0
7.628,0.707,-0.709,4.0
7.402,0.686,-0.731,4.0
9.964,0.92,-0.706,2.0
9.475,0.874,-0.726,1.0
8.987,0.829,-0.74,0.0
8.003,0.738,-0.706,3.0
7.545,0.695,-0.709,4.0
7.376,0.68,-0.736,3.0
9.859,0.905,-0.709,2.0
9.397,0.862,-0.73,1.0
8.881,0.815,-0.741,0.0
7.9,0.724,-0.705,3.0
7.504,0.688,-0.713,4.0
7.323,0.671,-0.739,3.0
9.76,0.891,-0.712,2.0
9.309,0.849,-0.733,1.0
8.79,0.802,-0.743,1.0
7.825,0.713,-0.707,4.0
7.483,0.682,-0.719,4.0
7.249,0.66,-0.739,3.0
9.684,0.879,-0.717,2.0
9.238,0.838,-0.737,0.0
8.681,0.787,-0.742,1.0
7.73,0.7,-0.706,4.0
7.462,0.676,-0.725,5.0
7.161,0.648,-0.737,3.0
9.612,0.866,-0.721,1.0
9.147,0.824,-0.738,0.0
8.426,0.758,-0.729,1.0
7.666,0.69,-0.708,4.0
7.446,0.669,-0.73,4.0
7.099,0.638,-0.737,3.0
9.542,0.854,-0.725,1.0
9.048,0.809,-0.739,0.0
8.235,0.736,-0.72,2.0
7.602,0.679,-0.709,4.0
7.421,0.662,-0.735,4.0
7.073,0.631,-0.741,3.0
9.489,0.843,-0.73,1.0
8.958,0.795,-0.74,1.0
8.046,0.714,-0.711,2.0
7.539,0.668,-0.71,4.0
7.398,0.655,-0.739,3.0
7.05,0.624,-0.745,3.0
9.426,0.831,-0.733,0.0
8.879,0.782,-0.741,1.0
7.941,0.699,-0.709,3.0
7.515,0.66,-0.714,4.0
7.379,0.648,-0.744,3.0
7.04,0.618,-0.75,3.0
9.33,0.815,-0.734,0.0
8.823,0.77,-0.744,1.0
7.869,0.686,-0.709,4.0
7.496,0.653,-0.719,4.0
7.352,0.64,-0.748,3.0
7.01,0.61,-0.753,2.0
9.244,0.8,-0.735,1.0
8.776,0.759,-0.748,1.0
7.821,0.676,-0.711,4.0
7.49,0.647,-0.725,4.0
7.314,0.631,-0.75,3.0
6.964,0.6,-0.754,2.0
9.173,0.787,-0.736,1.0
8.705,0.746,-0.749,1.0
7.766,0.665,-0.712,4.0
7.489,0.64,-0.73,4.0
7.298,0.624,-0.754,3.0
6.948,0.593,-0.758,3.0
9.116,0.774,-0.739,1.0
8.646,0.734,-0.75,1.0
7.729,0.655,-0.714,4.0
7.518,0.637,-0.739,3.0
7.285,0.616,-0.758,3.0
6.922,0.585,-0.76,3.0
9.044,0.76,-0.739,1.0
8.584,0.721,-0.751,0.0
7.676,0.644,-0.715,4.0
7.544,0.632,-0.747,3.0
7.301,0.611,-0.765,3.0
6.935,0.58,-0.766,2.0
8.981,0.747,-0.74,2.0
8.402,0.698,-0.741,1.0
7.692,0.638,-0.722,4.0
7.528,0.624,-0.75,3.0
7.296,0.604,-0.769,2.0
6.937,0.574,-0.771,2.0
8.943,0.736,-0.743,1.0
8.169,0.671,-0.725,2.0
7.699,0.632,-0.728,4.0
7.529,0.617,-0.755,3.0
7.27,0.595,-0.771,1.0
6.908,0.565,-0.772,1.0
8.917,0.725,-0.746,0.0
8.068,0.655,-0.721,3.0
7.739,0.627,-0.736,4.0
7.487,0.606,-0.756,3.0
7.231,0.585,-0.771,1.0
6.884,0.556,-0.774,1.0
8.867,0.712,-0.748,1.0
8.011,0.642,-0.721,4.0
7.748,0.62,-0.741,4.0
7.477,0.598,-0.759,3.0
7.195,0.575,-0.772,1.0
6.853,0.547,-0.774,1.0
8.83,0.7,-0.749,1.0
7.999,0.633,-0.724,4.0
7.768,0.614,-0.748,4.0
7.456,0.589,-0.761,3.0
7.159,0.564,-0.771,1.0
6.828,0.537,-0.775,0.0
8.794,0.688,-0.751,1.0
7.989,0.624,-0.727,5.0
7.755,0.605,-0.75,4.0
7.428,0.579,-0.762,3.0
7.139,0.555,-0.773,1.0
6.831,0.53,-0.778,1.0
8.757,0.676,-0.752,1.0
7.988,0.616,-0.731,5.0
7.758,0.597,-0.754,4.0
7.426,0.57,-0.765,2.0
7.119,0.546,-0.774,1.0
6.827,0.523,-0.781,1.0
8.737,0.665,-0.753,2.0
7.993,0.607,-0.735,5.0
7.769,0.589,-0.758,4.0
7.409,0.561,-0.766,2.0
7.087,0.536,-0.773,1.0
6.851,0.517,-0.787,1.0
8.702,0.653,-0.754,2.0
7.999,0.599,-0.738,5.0
7.782,0.582,-0.762,3.0
7.4,0.552,-0.768,2.0
7.087,0.528,-0.776,1.0
6.886,0.512,-0.793,1.0
8.67,0.641,-0.754,2.0
8.016,0.591,-0.743,5.0
7.781,0.573,-0.765,2.0
7.392,0.543,-0.769,1.0
7.087,0.52,-0.778,1.0
6.959,0.509,-0.804,1.0
8.623,0.627,-0.753,3.0
8.029,0.583,-0.746,4.0
7.766,0.563,-0.766,2.0
7.384,0.534,-0.771,1.0
7.109,0.513,-0.783,1.0
7.049,0.508,-0.816,1.0
8.623,0.617,-0.755,4.0
8.071,0.576,-0.752,4.0
7.767,0.553,-0.768,1.0
7.381,0.525,-0.772,1.0
7.141,0.507,-0.788,1.0
7.137,0.505,-0.828,1.0
8.603,0.605,-0.755,5.0
8.081,0.567,-0.755,4.0
7.753,0.543,-0.768,1.0
7.391,0.517,-0.775,1.0
7.224,0.504,-0.798,1.0
7.227,0.503,-0.84,1.0
8.607,0.595,-0.757,5.0
8.106,0.559,-0.759,4.0
7.745,0.533,-0.769,1.0
7.426,0.51,-0.78,1.0
7.331,0.502,-0.811,1.0
7.34,0.502,-0.854,1.0
8.611,0.585,-0.759,5.0
8.123,0.55,-0.761,3.0
7.741,0.523,-0.769,1.0
7.458,0.503,-0.784,1.0
7.439,0.5,-0.824,1.0
7.446,0.5,-0.867,0.0
8.634,0.576,-0.761,3.0
8.115,0.54,-0.761,3.0
7.75,0.514,-0.771,1.0
7.513,0.497,-0.79,1.0
7.528,0.497,-0.834,1.0
7.535,0.496,-0.878,0.0
8.628,0.565,-0.761,2.0
8.135,0.531,-0.764,2.0
7.772,0.506,-0.773,1.0
7.61,0.494,-0.801,1.0
7.638,0.495,-0.847,1.0
7.645,0.494,-0.891,0.0
8.641,0.555,-0.762,1.0
8.157,0.522,-0.766,1.0
7.811,0.498,-0.777,1.0
7.738,0.492,-0.814,1.0
7.757,0.492,-0.86,0.0
7.755,0.491,-0.904,0.0
8.64,0.543,-0.762,1.0
8.174,0.513,-0.767,1.0
7.886,0.493,-0.784,1.0
7.865,0.49,-0.827,1.0
7.873,0.49,-0.872,0.0
7.897,0.49,-0.919,0.0
8.632,0.532,-0.761,2.0
8.195,0.503,-0.768,1.0
7.96,0.488,-0.791,1.0
7.969,0.487,-0.837,1.0
8.007,0.488,-0.886,0.0
8.018,0.487,-0.933,0.0
8.634,0.521,-0.76,2.0
8.241,0.495,-0.771,1.0
8.086,0.485,-0.802,1.0
8.094,0.484,-0.849,1.0
8.131,0.484,-0.899,0.0
8.077,0.48,-0.938,0.0
8.658,0.511,-0.76,2.0
8.307,0.488,-0.776,1.0
8.229,0.482,-0.815,1.0
8.234,0.481,-0.862,0.0
8.245,0.48,-0.91,0.0
8.226,0.477,-0.954,0.0
8.687,0.501,-0.761,2.0
8.402,0.483,-0.783,1.0
8.389,0.48,-0.829,1.0
8.377,0.478,-0.875,0.0
8.424,0.479,-0.927,0.0
8.38,0.475,-0.969,0.0
8.714,0.491,-0.761,2.0
8.506,0.477,-0.79,2.0
8.521,0.476,-0.839,1.0
8.531,0.475,-0.889,0.0
8.552,0.475,-0.939,0.0
8.543,0.473,-0.986,0.0
8.78,0.482,-0.764,2.0
8.633,0.473,-0.799,2.0
8.604,0.469,-0.845,1.0
8.668,0.471,-0.9,0.0
8.659,0.469,-0.948,0.0
8.58,0.463,-0.987,0.0
8.869,0.476,-0.769,2.0
8.77,0.468,-0.809,2.0
8.793,0.468,-0.86,0.0
8.854,0.469,-0.916,0.0
8.806,0.465,-0.96,0.0
8.536,0.449,-0.979,0.0
8.975,0.469,-0.775,2.0
8.962,0.467,-0.823,2.0
8.957,0.465,-0.872,0.0
9.001,0.465,-0.928,0.0
8.914,0.459,-0.968,0.0
8.135,0.417,-0.929,0.0
9.123,0.464,-0.783,3.0
9.127,0.463,-0.834,1.0
9.163,0.463,-0.888,0.0
9.146,0.46,-0.938,0.0
8.942,0.448,-0.967,0.0
8.091,0.404,-0.92,0.0
9.263,0.459,-0.791,2.0
9.261,0.457,-0.842,1.0
9.336,0.459,-0.9,0.0
9.306,0.456,-0.95,0.0
8.719,0.425,-0.939,0.0
8.142,0.395,-0.922,0.0
9.442,0.455,-0.801,2.0
9.468,0.455,-0.856,0.0
9.49,0.454,-0.91,0.0
9.447,0.45,-0.959,0.0
8.571,0.406,-0.918,0.0
8.181,0.386,-0.921,0.0
9.645,0.452,-0.813,2.0
9.675,0.451,-0.869,0.0
9.639,0.448,-0.919,0.0
9.566,0.442,-0.966,0.0
8.562,0.394,-0.912,0.0
8.2,0.376,-0.919,0.0
9.842,0.448,-0.824,1.0
9.905,0.449,-0.883,0.0
9.871,0.445,-0.935,0.0
9.565,0.429,-0.959,0.0
8.566,0.383,-0.906,0.0
8.223,0.365,-0.916,0.0
10.051,0.444,-0.834,1.0
10.093,0.443,-0.893,0.0
10.014,0.438,-0.941,0.0
9.122,0.397,-0.909,0.0
8.629,0.374,-0.907,0.0
8.284,0.357,-0.917,0.0
10.222,0.438,-0.841,1.0
10.194,0.434,-0.895,2.0
10.242,0.434,-0.955,0.0
9.079,0.383,-0.898,0.0
8.695,0.365,-0.908,0.0
8.31,0.347,-0.913,0.0
10.386,0.431,-0.847,0.0
10.224,0.422,-0.89,5.0
10.256,0.421,-0.949,0.0
9.151,0.373,-0.898,0.0
8.749,0.355,-0.906,0.0
8.36,0.338,-0.912,0.0
10.721,0.43,-0.866,0.0
10.274,0.41,-0.886,3.0
10.162,0.403,-0.932,0.0
9.307,0.367,-0.905,0.0
8.815,0.346,-0.906,0.0
8.427,0.329,-0.912,0.0
10.958,0.425,-0.876,0.0
10.515,0.405,-0.898,0.0
9.806,0.376,-0.891,0.0
9.333,0.356,-0.9,1.0
8.864,0.336,-0.903,0.0
8.476,0.319,-0.91,0.0
11.162,0.418,-0.882,0.0
10.385,0.387,-0.877,0.0
9.831,0.364,-0.884,0.0
9.342,0.344,-0.892,2.0
8.945,0.327,-0.903,0.0
8.541,0.311,-0.909,0.0
11.432,0.413,-0.893,0.0
10.49,0.377,-0.876,0.0
9.918,0.354,-0.883,0.0
9.369,0.333,-0.886,0.0
9.011,0.318,-0.901,0.0
8.619,0.302,-0.909,0.0
11.678,0.407,-0.901,0.0
10.85,0.376,-0.896,0.0
10.006,0.344,-0.881,0.0
9.46,0.323,-0.885,0.0
9.096,0.309,-0.901,0.0
8.682,0.293,-0.907,0.0
11.951,0.401,-0.91,0.0
10.085,0.334,-0.877,0.0
9.608,0.316,-0.889,0.0
9.105,0.298,-0.892,0.0
8.754,0.284,-0.905,0.0
12.164,0.392,-0.914,0.0
10.733,0.344,-0.864,0.0
10.181,0.324,-0.875,0.0
9.694,0.307,-0.887,0.0
9.201,0.289,-0.892,0.0
8.863,0.276,-0.907,0.0
12.372,0.384,-0.916,0.0
10.815,0.333,-0.859,0.0
10.296,0.315,-0.874,0.0
9.811,0.298,-0.886,0.0
9.314,0.281,-0.892,0.0
8.962,0.268,-0.907,0.0
10.989,0.325,-0.86,0.0
10.408,0.305,-0.871,1.0
9.887,0.288,-0.882,0.0
9.423,0.272,-0.891,0.0
9.007,0.258,-0.901,2.0
11.084,0.313,-0.855,0.0
10.412,0.292,-0.859,3.0
9.988,0.278,-0.879,0.0
9.514,0.263,-0.888,0.0
9.034,0.248,-0.893,1.0
11.27,0.305,-0.855,0.0
10.519,0.282,-0.855,0.0
10.11,0.269,-0.877,0.0
9.637,0.255,-0.888,0.0
9.196,0.241,-0.897,0.0
12.123,0.316,-0.84,0.0
11.406,0.295,-0.851,0.0
10.75,0.276,-0.86,0.0
10.25,0.261,-0.876,0.0
9.762,0.246,-0.887,0.0
9.3,0.233,-0.895,0.0
12.286,0.305,-0.835,0.0
11.637,0.287,-0.854,0.0
10.921,0.267,-0.859,0.0
10.359,0.251,-0.872,4.0
9.87,0.237,-0.884,0.0
9.387,0.224,-0.891,0.0
12.456,0.295,-0.83,0.0
11.753,0.276,-0.846,0.0
11.07,0.258,-0.857,0.0
10.4,0.24,-0.861,5.0
9.979,0.228,-0.88,0.0
9.502,0.215,-0.889,0.0
12.644,0.285,-0.826,0.0
11.93,0.266,-0.843,0.0
11.238,0.249,-0.854,0.0
10.489,0.23,-0.854,2.0
10.124,0.22,-0.879,0.0
9.632,0.207,-0.888,0.0
12.846,0.275,-0.821,0.0
12.102,0.257,-0.838,0.0
11.425,0.24,-0.852,0.0
10.784,0.224,-0.863,0.0
10.254,0.211,-0.875,0.0
9.772,0.199,-0.887,0.0
13.059,0.265,-0.816,0.0
12.294,0.247,-0.834,0.0
11.575,0.23,-0.847,0.0
10.942,0.215,-0.86,0.0
10.401,0.203,-0.873,3.0
9.883,0.191,-0.882,0.0
13.291,0.255,-0.811,0.0
12.512,0.238,-0.83,0.0
11.798,0.222,-0.846,0.0
11.096,0.206,-0.855,0.0
10.453,0.193,-0.861,8.0
10.022,0.183,-0.879,0.0
13.5,0.245,-0.804,1.0
12.705,0.228,-0.824,1.0
11.962,0.212,-0.839,0.0
11.304,0.198,-0.854,0.0
10.5,0.182,-0.849,3.0
10.174,0.175,-0.877,0.0
13.747,0.235,-0.798,0.0
12.925,0.218,-0.818,0.0
12.184,0.203,-0.836,0.0
11.496,0.19,-0.851,0.0
10.849,0.177,-0.86,0.0
10.353,0.167,-0.876,1.0
14.008,0.225,-0.791,0.0
13.162,0.209,-0.812,1.0
12.383,0.194,-0.83,1.0
11.682,0.181,-0.846,0.0
11.024,0.169,-0.857,0.0
10.436,0.158,-0.866,4.0
14.46,0.218,-0.793,0.0
13.426,0.2,-0.807,1.0
12.628,0.186,-0.826,1.0
11.906,0.173,-0.843,1.0
11.202,0.161,-0.852,1.0
10.525,0.149,-0.857,2.0
14.746,0.208,-0.785,1.0
13.695,0.191,-0.801,1.0
12.858,0.177,-0.82,1.0
12.09,0.164,-0.836,1.0
11.435,0.153,-0.851,0.0
10.794,0.143,-0.861,1.0
15.024,0.198,-0.775,2.0
13.987,0.182,-0.795,0.0
13.087,0.168,-0.813,1.0
12.357,0.156,-0.834,1.0
11.639,0.145,-0.847,0.0
10.979,0.135,-0.857,1.0
15.178,0.186,-0.757,1.0
14.317,0.173,-0.79,0.0
13.389,0.159,-0.809,1.0
12.568,0.147,-0.827,1.0
11.863,0.137,-0.843,1.0
11.174,0.127,-0.853,0.0
15.597,0.177,-0.751,0.0
14.663,0.164,-0.783,1.0
13.704,0.151,-0.804,1.0
12.814,0.139,-0.82,1.0
12.056,0.129,-0.835,1.0
11.415,0.12,-0.851,0.0
16.121,0.169,-0.749,0.0
15.004,0.155,-0.775,2.0
13.947,0.142,-0.794,4.0
13.082,0.131,-0.815,1.0
12.329,0.121,-0.833,1.0
11.629,0.113,-0.847,0.0
16.726,0.162,-0.748,0.0
15.208,0.144,-0.759,1.0
14.259,0.133,-0.787,1.0
13.369,0.123,-0.809,1.0
12.585,0.114,-0.827,1.0
11.832,0.105,-0.84,1.0
15.614,0.136,-0.751,0.0
14.681,0.126,-0.783,1.0
13.669,0.115,-0.802,1.0
12.824,0.106,-0.82,1.0
12.083,0.098,-0.836,1.0
48.19,0.39,-1.98,12.0
16.036,0.127,-0.742,0.0
15.018,0.117,-0.774,2.0
14.007,0.107,-0.796,1.0
13.118,0.098,-0.814,1.0
12.352,0.091,-0.831,1.0
18.161,0.133,-0.712,0.0
16.876,0.121,-0.75,0.0
15.348,0.108,-0.762,1.0
14.357,0.099,-0.789,1.0
13.402,0.091,-0.807,1.0
12.604,0.084,-0.825,1.0
18.721,0.124,-0.699,1.0
17.25,0.112,-0.734,15.0
15.797,0.1,-0.754,17.0
14.753,0.092,-0.783,1.0
13.75,0.083,-0.801,1.0
12.875,0.077,-0.818,1.0
19.232,0.114,-0.682,2.0
17.287,0.1,-0.703,15.0
15.821,0.09,-0.725,4.0
15.049,0.083,-0.77,2.0
14.073,0.076,-0.793,1.0
13.21,0.07,-0.813,1.0
20.029,0.106,-0.671,1.0
18.265,0.094,-0.707,1.0
17.175,0.086,-0.754,2.0
15.664,0.077,-0.771,3.0
14.501,0.069,-0.789,1.0
13.531,0.063,-0.807,1.0
20.864,0.097,-0.659,2.0
18.849,0.086,-0.693,4.0
17.28,0.076,-0.725,18.0
15.777,0.068,-0.745,15.0
14.863,0.062,-0.779,1.0
13.864,0.056,-0.799,1.0
21.495,0.088,-0.636,3.0
19.51,0.077,-0.679,2.0
17.663,0.068,-0.706,2.0
16.433,0.061,-0.744,0.0
15.148,0.055,-0.764,1.0
14.226,0.05,-0.792,1.0
22.492,0.079,-0.621,2.0
20.353,0.07,-0.668,2.0
18.605,0.062,-0.707,3.0
17.066,0.055,-0.738,0.0
15.724,0.049,-0.762,2.0
14.631,0.044,-0.785,1.0
23.325,0.07,-0.598,3.0
21.138,0.062,-0.651,3.0
18.938,0.053,-0.681,6.0
17.582,0.048,-0.726,1.0
15.859,0.041,-0.737,6.0
15.011,0.038,-0.775,2.0
24.056,0.061,-0.568,2.0
21.996,0.053,-0.633,2.0
19.9,0.047,-0.676,2.0
18.148,0.041,-0.712,1.0
16.49,0.035,-0.732,0.0
15.468,0.032,-0.767,1.0
25.364,0.053,-0.547,2.0
22.903,0.046,-0.613,3.0
20.713,0.039,-0.661,2.0
18.769,0.034,-0.698,3.0
17.319,0.03,-0.733,1.0
15.869,0.026,-0.754,14.0
26.535,0.044,-0.518,2.0
23.637,0.037,-0.584,2.0
21.518,0.032,-0.642,3.0
19.375,0.028,-0.68,3.0
17.863,0.024,-0.72,1.0
15.906,0.02,-0.723,5.0
27.6,0.036,-0.482,2.0
24.783,0.03,-0.561,1.0
22.463,0.026,-0.624,4.0
20.299,0.022,-0.671,2.0
18.509,0.018,-0.707,2.0
17.064,0.016,-0.74,0.0
29.04,0.028,-0.447,2.0
26.026,0.023,-0.535,2.0
23.28,0.019,-0.599,3.0
21.13,0.016,-0.654,2.0
19.079,0.013,-0.689,3.0
17.609,0.011,-0.727,1.0
30.169,0.019,-0.401,1.0
27.065,0.016,-0.499,2.0
24.17,0.013,-0.571,1.0
22.006,0.01,-0.635,3.0
19.89,0.008,-0.677,2.0
18.191,0.006,-0.713,1.0
32.134,0.012,-0.36,1.0
28.461,0.009,-0.466,1.0
25.539,0.007,-0.549,1.0
22.93,0.005,-0.613,2.0
20.767,0.003,-0.663,2.0
18.811,0.002,-0.697,2.0
36.142,0.005,-0.329,0.0
29.752,0.003,-0.424,2.0
26.669,0.001,-0.517,2.0
23.793,0.0,-0.586,2.0
21.645,0.0,-0.645,3.0
19.538,-0.001,-0.683,3.0
38.527,-0.001,-0.269,6.0
31.327,-0.002,-0.38,1.0
27.873,-0.003,-0.482,1.0
24.881,-0.003,-0.56,2.0
22.575,-0.004,-0.624,3.0
20.412,-0.004,-0.67,2.0
39.493,-0.007,-0.192,26.0
33.515,-0.007,-0.335,1.0
29.283,-0.007,-0.443,2.0
26.203,-0.007,-0.534,1.0
23.414,-0.007,-0.598,2.0
21.273,-0.007,-0.653,3.0
0.0,0.0,0.0,0.0
38.336,-0.013,-0.302,3.0
30.585,-0.011,-0.398,1.0
27.262,-0.01,-0.498,1.0
24.387,-0.009,-0.571,2.0
22.224,-0.009,-0.635,3.0
46.115,-0.018,-0.028,21.0
39.125,-0.016,-0.225,14.0
32.878,-0.014,-0.358,1.0
28.769,-0.012,-0.464,2.0
25.68,-0.011,-0.546,2.0
23.119,-0.01,-0.611,3.0
0.0,0.0,0.0,0.0
40.498,-0.018,-0.146,16.0
38.07,-0.017,-0.333,1.0
29.945,-0.014,-0.419,2.0
26.833,-0.012,-0.513,2.0
23.993,-0.011,-0.583,2.0
61.568,-0.028,0.224,16.0
44.738,-0.02,-0.066,22.0
38.807,-0.017,-0.257,14.0
31.631,-0.014,-0.375,1.0
28.247,-0.012,-0.48,2.0
25.251,-0.011,-0.559,2.0
76.164,-0.032,0.442,17.0
48.106,-0.02,0.031,7.0
39.83,-0.016,-0.178,26.0
33.658,-0.013,-0.327,0.0
29.52,-0.011,-0.439,2.0
26.502,-0.01,-0.53,2.0
79.346,-0.028,0.63,74.0
56.0,-0.019,0.156,24.0
0.0,0.0,0.0,0.0
38.46,-0.012,-0.291,5.0
30.905,-0.009,-0.393,1.0
27.674,-0.007,-0.494,1.0
79.46,-0.02,0.801,152.0
76.088,-0.018,0.376,10.0
0.0,0.0,0.0,0.0
39.347,-0.007,-0.213,15.0
33.279,-0.005,-0.351,1.0
29.131,-0.004,-0.457,2.0
79.465,-0.009,0.971,152.0
79.221,-0.007,0.561,16.0
0.0,0.0,0.0,0.0
40.887,-0.001,-0.135,17.0
38.286,0.0,-0.323,4.0
30.348,0.0,-0.413,2.0
79.46,0.004,1.14,151.0
79.481,0.007,0.731,169.0
61.771,0.007,0.25,15.0
0.0,0.0,0.0,0.0
38.954,0.007,-0.246,14.0
32.246,0.007,-0.369,1.0
79.449,0.021,1.309,158.0
79.453,0.024,0.901,174.0
76.395,0.027,0.474,19.0
52.224,0.02,0.049,8.0
40.056,0.017,-0.167,29.0
34.834,0.017,-0.324,0.0
79.445,0.041,1.48,157.0
79.455,0.045,1.07,155.0
79.437,0.049,0.661,150.0
59.248,0.039,0.183,9.0
0.0,0.0,0.0,0.0
38.465,0.029,-0.277,8.0
79.456,0.064,1.648,151.0
79.454,0.069,1.24,163.0
79.461,0.073,0.831,152.0
75.978,0.074,0.396,14.0
47.707,0.049,0.002,21.0
39.381,0.043,-0.2,34.0
79.439,0.09,1.818,150.0
79.451,0.095,1.409,170.0
79.459,0.1,0.999,155.0
79.38,0.105,0.581,22.0
54.708,0.076,0.119,9.0
43.803,0.064,-0.13,5.0
79.443,0.119,1.985,150.0
79.456,0.125,1.576,151.0
79.461,0.13,1.166,158.0
79.448,0.136,0.75,150.0
62.024,0.111,0.266,7.0
0.0,0.0,0.0,0.0
79.449,0.151,2.153,150.0
79.431,0.157,1.743,150.0
79.445,0.163,1.334,166.0
79.468,0.17,0.916,151.0
76.478,0.169,0.487,22.0
0.0,0.0,0.0,0.0
79.445,0.186,2.321,150.0
79.448,0.193,1.911,150.0
79.457,0.199,1.501,151.0
79.456,0.206,1.083,151.0
79.44,0.213,0.674,150.0
59.072,0.164,0.197,14.0
79.443,0.224,2.487,150.0
79.446,0.231,2.077,150.0
79.428,0.238,1.667,150.0
79.449,0.245,1.249,163.0
79.46,0.253,0.839,151.0
75.871,0.249,0.41,15.0
79.455,0.264,2.652,151.0
79.437,0.272,2.24,150.0
79.443,0.279,1.831,150.0
79.454,0.287,1.411,151.0
79.471,0.295,1.002,151.0
77.108,0.294,0.575,51.0
79.413,0.307,2.813,141.0
79.415,0.315,2.403,92.0
79.431,0.324,1.993,51.0
79.416,0.332,1.575,72.0
79.436,0.341,1.164,140.0
59.323,0.261,0.564,79.0
48.215,0.214,1.807,82.0
59.273,0.27,1.916,24.0
59.279,0.277,1.608,100.0
59.279,0.283,1.296,132.0
59.281,0.29,0.99,132.0
59.294,0.297,0.683,133.0
48.171,0.244,1.904,80.0
48.178,0.249,1.655,66.0
48.183,0.255,1.404,56.0
48.189,0.261,1.151,44.0
48.188,0.267,0.902,46.0
48.212,0.273,0.653,32.0
48.157,0.275,2.0,91.0
48.147,0.281,1.751,78.0
48.137,0.287,1.5,90.0
48.139,0.293,1.246,94.0
48.146,0.299,0.997,83.0
48.146,0.305,0.748,56.0
48.138,0.308,2.096,97.0
48.131,0.314,1.847,94.0
48.121,0.32,1.596,93.0
48.103,0.326,1.341,102.0
48.112,0.333,1.092,99.0
48.112,0.339,0.842,91.0
48.139,0.342,2.192,109.0
48.125,0.349,1.941,110.0
48.111,0.355,1.69,98.0
48.099,0.361,1.435,115.0
48.107,0.368,1.185,104.0
48.101,0.375,0.936,106.0
48.146,0.378,2.286,104.0
48.133,0.385,2.035,112.0
48.114,0.392,1.784,101.0
48.096,0.398,1.529,114.0
48.138,0.406,1.28,120.0
48.127,0.413,1.03,110.0
48.178,0.417,2.382,96.0
48.157,0.424,2.13,97.0
48.133,0.43,1.878,105.0
48.107,0.437,1.622,93.0
48.124,0.445,1.373,104.0
48.115,0.452,1.122,100.0
59.41,0.563,3.052,12.0
48.202,0.464,2.225,67.0
48.184,0.471,1.973,80.0
48.137,0.478,1.715,102.0
48.161,0.485,1.465,84.0
48.139,0.492,1.213,84.0
59.38,0.613,3.163,115.0
59.391,0.622,2.853,66.0
55.048,0.585,2.356,61.0
48.204,0.52,1.807,45.0
48.21,0.527,1.556,52.0
48.182,0.535,1.304,62.0
59.371,0.664,3.273,112.0
55.061,0.625,2.748,64.0
55.01,0.633,2.457,103.0
55.004,0.642,2.165,108.0
55.013,0.651,1.878,125.0
55.016,0.66,1.59,105.0
55.023,0.666,3.135,78.0
55.026,0.675,2.847,103.0
55.007,0.684,2.559,122.0
54.999,0.693,2.265,77.0
55.019,0.702,1.978,112.0
55.025,0.711,1.691,108.0
54.976,0.716,3.232,112.0
54.971,0.725,2.944,92.0
55.001,0.735,2.657,126.0
55.001,0.744,2.363,100.0
55.032,0.755,2.077,102.0
55.048,0.765,1.79,75.0
55.01,0.77,3.333,64.0
54.952,0.779,3.041,115.0
54.992,0.789,2.755,121.0
54.998,0.799,2.461,112.0
55.073,0.809,2.176,69.0
132.85,1.976,4.554,27.0
63.935,0.958,3.988,26.0
54.941,0.833,3.138,97.0
54.974,0.844,2.851,114.0
55.008,0.854,2.558,96.0
130.255,2.047,5.376,22.0
132.674,2.11,4.78,6.0
76.409,1.224,4.9,7.0
54.945,0.89,3.234,46.0
54.944,0.9,2.944,92.0
55.054,0.913,2.656,72.0
130.24,2.183,5.6,37.0
161.593,2.74,6.101,8.0
124.851,2.132,8.221,15.0
62.426,1.078,3.782,82.0
54.845,0.957,3.033,59.0
55.147,0.972,2.753,34.0
129.607,2.311,5.791,24.0
174.277,3.14,6.871,9.0
77.257,1.402,5.217,38.0
62.361,1.143,3.882,100.0
54.732,1.014,3.119,61.0
55.214,1.034,2.85,61.0
128.35,2.428,5.947,11.0
127.999,2.446,5.257,17.0
76.884,1.48,5.32,42.0
62.295,1.211,3.98,95.0
54.63,1.072,3.202,34.0
55.29,1.096,2.943,67.0
128.605,2.576,6.167,11.0
127.802,2.586,5.456,23.0
74.3,1.514,5.262,22.0
62.266,1.281,4.08,106.0
54.51,1.132,3.283,27.0
55.223,1.159,3.029,29.0
125.572,2.66,6.224,11.0
127.717,2.731,5.655,29.0
74.352,1.601,5.385,25.0
62.279,1.354,4.18,66.0
54.431,1.194,3.364,59.0
54.953,1.217,3.1,29.0
122.866,2.745,6.282,41.0
127.431,2.873,5.84,18.0
53.6,1.217,3.965,74.0
53.8,1.233,3.695,71.0
55.553,1.284,3.52,57.0
54.749,1.277,3.173,59.0
55.437,1.304,2.919,21.0
127.507,3.026,6.038,17.0
53.446,1.277,4.035,53.0
53.704,1.294,3.769,30.0
0.0,0.0,0.0,0.0
54.426,1.335,3.236,87.0
55.447,1.371,3.002,21.0
122.531,3.057,5.985,34.0
56.573,1.422,4.357,13.0
61.842,1.567,4.433,11.0
53.977,1.378,3.581,29.0
54.367,1.4,3.312,98.0
122.109,3.171,6.79,16.0
122.48,3.206,6.16,32.0
56.608,1.492,4.442,75.0
61.669,1.638,4.509,14.0
55.739,1.493,3.778,44.0
54.308,1.466,3.387,80.0
122.343,3.329,6.979,12.0
122.75,3.368,6.348,30.0
56.619,1.564,4.524,90.0
63.786,1.776,4.755,7.0
62.196,1.745,4.304,21.0
54.264,1.534,3.46,66.0
124.169,3.538,7.256,22.0
122.951,3.529,6.528,24.0
62.868,1.817,5.11,73.0
61.466,1.79,4.667,6.0
73.78,2.164,5.206,43.0
54.276,1.604,3.534,85.0
124.131,3.695,7.421,31.0
125.454,3.763,6.83,9.0
61.273,1.851,5.064,6.0
55.808,1.697,4.313,87.0
73.792,2.261,5.307,36.0
54.872,1.693,3.647,62.0
124.448,3.869,7.605,17.0
73.932,2.315,4.123,18.0
61.162,1.929,5.136,17.0
55.815,1.772,4.387,97.0
73.799,2.359,5.403,34.0
73.571,2.368,4.984,25.0
54.28,1.759,3.387,8.0
73.939,2.413,4.217,41.0
55.945,1.838,4.769,54.0
74.118,2.453,5.92,37.0
65.148,2.17,4.853,30.0
124.722,4.182,8.607,14.0
54.243,1.831,3.452,45.0
73.747,2.506,4.298,24.0
56.029,1.917,4.846,75.0
71.875,2.475,5.829,44.0
65.195,2.259,4.936,16.0
124.595,4.347,8.751,11.0
54.232,1.904,3.516,43.0
73.61,2.6,4.378,14.0
56.032,1.993,4.914,76.0
62.192,2.226,5.118,56.0
55.369,1.994,4.257,78.0
65.418,2.371,4.67,28.0
54.214,1.976,3.578,67.0
64.772,2.376,3.926,32.0
62.201,2.298,5.527,12.0
64.61,2.401,5.391,12.0
64.806,2.423,5.057,13.0
54.028,2.032,3.918,49.0
54.212,2.051,3.639,23.0
73.361,2.793,4.529,18.0
68.016,2.607,6.12,36.0
64.739,2.496,5.473,21.0
53.689,2.082,4.248,64.0
53.854,2.1,3.965,56.0
65.391,2.566,4.461,19.0
73.285,2.892,4.603,20.0
67.953,2.701,6.188,16.0
53.301,2.13,4.564,103.0
53.596,2.154,4.298,54.0
65.431,2.644,4.886,27.0
73.619,2.992,5.099,27.0
73.367,2.998,4.684,18.0
53.224,2.19,4.902,35.0
64.919,2.686,5.626,22.0
54.388,2.262,4.418,70.0
73.948,3.093,5.597,18.0
73.466,3.09,5.162,21.0
65.089,2.753,4.221,22.0
67.918,2.892,6.324,11.0
54.475,2.332,4.775,74.0
64.51,2.776,5.304,39.0
64.35,2.783,4.934,35.0
73.706,3.205,5.251,11.0
73.366,3.207,4.828,12.0
67.83,2.985,6.381,20.0
54.94,2.43,4.868,29.0
64.516,2.867,5.364,30.0
71.364,3.188,5.538,12.0
65.089,2.923,4.696,31.0
127.869,5.772,8.531,14.0
53.842,2.447,5.114,29.0
55.005,2.511,4.924,30.0
67.935,3.118,5.709,9.0
74.034,3.415,5.811,17.0
64.881,3.007,4.739,4.0
73.605,3.428,4.975,8.0
41.419,1.942,3.97,62.0
54.856,2.584,4.958,29.0
64.958,3.075,5.515,40.0
64.902,3.087,5.149,5.0
73.99,3.535,5.466,10.0
73.612,3.534,5.037,10.0
53.238,2.574,5.148,17.0
54.487,2.646,4.969,28.0
64.686,3.156,5.545,13.0
64.808,3.176,5.194,26.0
64.627,3.182,4.825,11.0
73.574,3.638,5.092,17.0
53.184,2.649,5.185,27.0
64.205,3.212,5.906,25.0
67.988,3.416,5.88,12.0
74.482,3.759,6.026,23.0
124.037,6.288,9.356,29.0
73.662,3.75,5.153,12.0
53.114,2.723,5.217,27.0
64.028,3.296,5.937,26.0
67.908,3.511,5.923,10.0
74.365,3.861,6.07,28.0
124.621,6.497,9.488,36.0
124.908,6.54,8.825,27.0
63.171,3.33,6.25,17.0
64.383,3.408,6.014,38.0
64.234,3.414,5.646,39.0
74.75,3.989,6.151,38.0
78.238,4.192,6.008,8.0
71.647,3.855,5.109,10.0
41.476,2.247,4.13,4.0
41.401,2.252,3.894,26.0
64.274,3.509,5.69,24.0
55.649,3.05,4.614,6.0
71.437,3.932,5.531,1.0
71.755,3.965,5.16,49.0
63.092,3.51,6.322,12.0
41.52,2.319,3.93,26.0
64.347,3.607,5.736,29.0
55.481,3.123,4.633,6.0
64.83,3.663,5.057,2.0
71.461,4.053,5.181,42.0
63.233,3.612,6.372,20.0
41.479,2.378,3.95,39.0
69.938,4.024,6.273,11.0
64.659,3.734,5.435,15.0
75.593,4.381,5.937,7.0
78.567,4.57,5.737,11.0
63.407,3.713,6.423,7.0
41.446,2.436,3.968,47.0
64.205,3.787,5.791,39.0
64.556,3.821,5.459,18.0
78.537,4.666,6.206,24.0
78.595,4.686,5.777,22.0
70.524,4.234,7.178,23.0
41.472,2.498,3.99,65.0
63.885,3.861,5.793,36.0
64.403,3.907,5.475,27.0
64.542,3.928,5.13,34.0
78.626,4.801,5.815,43.0
63.433,3.901,6.484,24.0
63.64,3.926,6.151,25.0
65.074,4.028,5.928,13.0
64.447,4.002,5.505,39.0
64.602,4.025,5.161,24.0
78.548,4.911,5.84,32.0
63.452,3.993,6.512,26.0
63.404,4.003,6.152,15.0
70.22,4.447,6.423,9.0
64.741,4.113,5.555,21.0
65.06,4.147,5.22,14.0
67.272,4.301,5.025,23.0
64.172,4.131,6.608,24.0
63.365,4.091,6.17,13.0
70.399,4.559,6.463,31.0
65.044,4.225,5.601,41.0
65.831,4.289,5.303,40.0
0.0,0.0,0.0,0.0
70.771,4.657,7.309,13.0
54.359,3.587,5.309,15.0
70.388,4.658,6.482,12.0
64.952,4.312,5.612,34.0
65.06,4.331,5.259,35.0
0.0,0.0,0.0,0.0
64.209,4.317,6.648,25.0
54.355,3.665,5.323,10.0
70.578,4.772,6.516,13.0
64.938,4.403,5.626,49.0
65.27,4.438,5.291,24.0
65.747,4.483,4.963,34.0
64.185,4.406,6.659,28.0
65.187,4.487,6.398,22.0
70.732,4.882,6.545,47.0
63.956,4.427,5.554,38.0
64.977,4.51,5.28,39.0
0.0,0.0,0.0,0.0
64.358,4.51,6.689,41.0
70.973,4.986,6.977,12.0
70.939,4.997,6.576,30.0
64.063,4.524,5.573,29.0
64.51,4.568,5.251,40.0
65.237,4.632,4.946,22.0
64.167,4.586,6.677,16.0
67.677,4.849,6.661,22.0
64.117,4.605,5.95,28.0
0.0,0.0,0.0,0.0
63.925,4.615,5.21,38.0
65.047,4.708,4.938,35.0
38.569,2.81,4.016,65.0
38.849,2.837,3.827,11.0
64.257,4.704,5.968,38.0
63.902,4.689,5.57,27.0
63.582,4.677,5.185,30.0
64.759,4.776,4.919,40.0
38.556,2.862,4.017,63.0
67.892,5.051,6.69,11.0
64.056,4.777,5.951,39.0
63.973,4.781,5.577,39.0
63.547,4.76,5.183,37.0
64.761,4.863,4.919,40.0
38.41,2.902,4.002,66.0
38.703,2.931,3.813,53.0
63.903,4.85,5.936,27.0
64.03,4.871,5.581,40.0
63.488,4.84,5.177,37.0
65.279,4.988,4.956,26.0
38.382,2.951,3.997,66.0
38.71,2.983,3.812,64.0
63.943,4.938,5.936,34.0
63.754,4.934,5.553,39.0
63.479,4.924,5.171,29.0
65.304,5.077,4.953,25.0
38.391,3.003,3.995,66.0
38.696,3.033,3.807,26.0
63.972,5.024,5.932,39.0
64.035,5.039,5.571,30.0
63.537,5.011,5.169,28.0
65.508,5.178,4.961,10.0
38.39,3.053,3.989,67.0
38.66,3.08,3.798,43.0
64.055,5.114,5.931,39.0
63.985,5.119,5.557,38.0
63.461,5.088,5.153,26.0
65.457,5.258,4.947,8.0
38.382,3.102,3.982,52.0
38.675,3.132,3.793,42.0
64.482,5.231,5.959,40.0
63.939,5.197,5.54,39.0
66.107,5.384,5.355,40.0
0.0,0.0,0.0,0.0
38.351,3.148,3.971,59.0
38.686,3.181,3.786,41.0
64.462,5.31,5.942,31.0
64.111,5.291,5.54,48.0
66.27,5.479,5.352,41.0
66.693,5.524,5.01,42.0
47.634,3.969,4.92,7.0
64.559,5.389,6.301,11.0
64.485,5.391,5.927,13.0
64.256,5.382,5.535,40.0
66.798,5.604,5.377,17.0
66.521,5.591,4.979,41.0
41.317,3.493,4.255,33.0
47.949,4.061,4.665,29.0
47.327,4.014,4.336,26.0
64.455,5.476,5.532,19.0
66.536,5.663,5.334,41.0
66.252,5.648,4.937,40.0
38.489,3.3,3.951,54.0
47.871,4.111,4.641,39.0
47.325,4.071,4.319,39.0
47.529,4.095,4.063,18.0
66.501,5.739,5.308,36.0
66.362,5.736,4.921,21.0
47.556,4.134,4.864,8.0
47.85,4.165,4.621,18.0
47.43,4.134,4.311,21.0
47.667,4.161,4.056,32.0
66.173,5.786,5.255,38.0
66.363,5.811,4.895,30.0
47.6,4.192,4.849,15.0
62.152,5.481,5.976,18.0
64.9,5.732,5.87,9.0
47.776,4.225,4.045,35.0
66.38,5.88,5.243,31.0
67.657,6.001,4.96,19.0
41.188,3.674,4.177,34.0
61.974,5.535,5.931,21.0
47.48,4.246,4.273,28.0
47.783,4.279,4.023,64.0
66.257,5.942,5.202,16.0
72.099,6.475,5.251,11.0
62.181,5.615,6.275,12.0
61.983,5.603,5.901,12.0
47.667,4.314,4.266,22.0
47.709,4.324,3.992,41.0
66.305,6.018,5.171,41.0
66.501,6.044,4.809,40.0
48.024,4.388,4.821,21.0
47.51,4.346,4.497,15.0
47.979,4.394,4.268,19.0
47.657,4.369,3.962,22.0
66.117,6.069,5.121,25.0
66.352,6.099,4.762,13.0
13.903,1.284,1.388,8.0
13.883,1.284,1.306,8.0
13.883,1.285,1.226,10.0
13.854,1.284,1.143,5.0
13.818,1.282,1.062,8.0
13.84,1.286,0.985,8.0
13.864,1.295,1.375,18.0
13.865,1.296,1.296,14.0
13.836,1.295,1.214,16.0
13.799,1.293,1.13,19.0
13.822,1.296,1.053,27.0
13.814,1.297,0.974,20.0
13.859,1.308,1.366,27.0
13.836,1.307,1.284,19.0
13.815,1.306,1.203,19.0
13.8,1.306,1.122,32.0
13.815,1.309,1.044,32.0
13.816,1.31,0.965,29.0
13.838,1.319,1.354,27.0
13.817,1.318,1.273,27.0
13.803,1.318,1.193,28.0
13.79,1.318,1.111,31.0
13.81,1.321,1.034,31.0
13.788,1.32,0.954,32.0
13.839,1.332,1.345,34.0
13.811,1.33,1.263,35.0
13.793,1.33,1.182,34.0
13.78,1.329,1.101,35.0
13.791,1.332,1.023,29.0
13.786,1.333,0.944,34.0
13.824,1.343,1.333,40.0
13.8,1.341,1.251,40.0
13.78,1.34,1.171,63.0
13.772,1.341,1.09,34.0
13.773,1.342,1.011,34.0
13.772,1.343,0.932,34.0
13.816,1.353,1.322,41.0
13.79,1.352,1.24,144.0
13.77,1.351,1.159,119.0
13.775,1.352,1.079,38.0
13.769,1.353,1.0,32.0
13.769,1.354,0.921,35.0
13.806,1.364,1.31,53.0
13.782,1.362,1.228,150.0
13.769,1.362,1.148,150.0
13.751,1.361,1.066,39.0
13.759,1.363,0.988,32.0
13.765,1.364,0.91,35.0
13.79,1.373,1.297,37.0
13.783,1.373,1.216,150.0
13.757,1.371,1.135,129.0
13.756,1.372,1.055,40.0
13.749,1.372,0.976,32.0
13.758,1.374,0.897,37.0
13.773,1.381,1.283,28.0
13.779,1.383,1.204,150.0
13.754,1.381,1.123,150.0
13.753,1.382,1.042,37.0
13.757,1.383,0.964,36.0
13.751,1.383,0.885,38.0
13.767,1.391,1.27,25.0
13.775,1.392,1.191,136.0
13.75,1.39,1.11,150.0
13.754,1.391,1.03,33.0
13.758,1.392,0.952,70.0
13.751,1.393,0.872,37.0
13.764,1.399,1.257,33.0
13.775,1.401,1.179,85.0
13.748,1.399,1.097,150.0
13.754,1.4,1.017,33.0
13.755,1.401,0.939,62.0
13.753,1.402,0.86,37.0
13.778,1.41,1.245,40.0
13.772,1.409,1.165,52.0
13.744,1.407,1.084,150.0
13.742,1.407,1.003,31.0
13.753,1.409,0.925,75.0
13.748,1.409,0.846,39.0
13.779,1.418,1.232,72.0
13.762,1.416,1.151,84.0
13.745,1.415,1.07,150.0
13.743,1.415,0.99,37.0
13.748,1.416,0.911,63.0
13.76,1.418,0.833,58.0
13.782,1.426,1.218,46.0
13.753,1.423,1.136,78.0
13.743,1.422,1.056,150.0
13.751,1.424,0.977,62.0
13.757,1.425,0.898,95.0
13.76,1.426,0.819,56.0
13.783,1.433,1.204,88.0
13.75,1.43,1.122,124.0
13.744,1.429,1.042,85.0
13.758,1.431,0.963,81.0
13.751,1.431,0.883,97.0
13.763,1.433,0.805,60.0
13.774,1.438,1.189,41.0
13.754,1.437,1.108,150.0
13.757,1.437,1.028,82.0
13.756,1.437,0.948,103.0
13.758,1.438,0.869,99.0
13.764,1.439,0.79,54.0
13.765,1.443,1.173,33.0
13.751,1.442,1.092,150.0
13.758,1.443,1.014,150.0
13.749,1.442,0.932,53.0
13.753,1.443,0.854,124.0
13.762,1.444,0.775,57.0
13.75,1.447,1.157,23.0
13.752,1.447,1.078,149.0
13.761,1.448,0.999,150.0
13.757,1.448,0.918,48.0
13.757,1.448,0.839,125.0
13.763,1.449,0.76,39.0
13.736,1.45,1.14,24.0
13.757,1.453,1.062,126.0
13.755,1.452,0.983,150.0
13.75,1.452,0.902,69.0
13.761,1.453,0.824,112.0
13.763,1.454,0.745,39.0
13.745,1.456,1.125,35.0
13.758,1.457,1.047,119.0
13.754,1.456,0.967,150.0
13.753,1.456,0.886,66.0
13.763,1.457,0.808,113.0
13.766,1.458,0.729,39.0
13.747,1.46,1.109,41.0
13.765,1.461,1.031,150.0
13.764,1.461,0.952,150.0
13.751,1.459,0.87,66.0
13.768,1.461,0.792,98.0
13.762,1.461,0.713,39.0
13.752,1.463,1.094,50.0
13.766,1.464,1.015,150.0
13.755,1.463,0.935,150.0
13.755,1.463,0.854,117.0
13.764,1.464,0.776,101.0
13.762,1.463,0.697,38.0
13.751,1.465,1.077,40.0
13.769,1.467,0.999,150.0
13.752,1.465,0.918,150.0
13.75,1.464,0.838,121.0
13.772,1.467,0.76,99.0
13.772,1.466,0.681,36.0
13.757,1.468,1.061,40.0
13.767,1.469,0.982,150.0
13.759,1.467,0.902,150.0
13.754,1.467,0.821,109.0
13.775,1.468,0.743,90.0
13.77,1.468,0.664,37.0
13.764,1.47,1.045,60.0
13.764,1.469,0.965,150.0
13.758,1.468,0.885,146.0
13.762,1.468,0.805,103.0
13.774,1.469,0.726,94.0
13.768,1.468,0.647,37.0
13.769,1.471,1.028,102.0
13.761,1.47,0.948,150.0
13.752,1.468,0.868,150.0
13.758,1.468,0.788,102.0
13.775,1.47,0.709,84.0
13.768,1.469,0.63,34.0
13.766,1.471,1.01,110.0
13.767,1.47,0.931,150.0
13.754,1.468,0.851,150.0
13.759,1.468,0.77,116.0
13.776,1.47,0.692,86.0
13.762,1.468,0.612,33.0
13.757,1.469,0.992,104.0
13.756,1.468,0.913,150.0
13.758,1.468,0.834,150.0
13.765,1.468,0.754,113.0
13.775,1.469,0.675,48.0
13.764,1.467,0.595,34.0
13.757,1.468,0.975,106.0
13.76,1.467,0.896,150.0
13.765,1.467,0.817,150.0
13.77,1.467,0.736,97.0
13.772,1.467,0.657,77.0
13.77,1.466,0.578,36.0
13.758,1.466,0.957,110.0
13.764,1.466,0.878,141.0
13.763,1.465,0.799,150.0
13.77,1.465,0.719,85.0
13.767,1.464,0.639,38.0
13.771,1.464,0.56,37.0
13.755,1.463,0.939,96.0
13.758,1.463,0.86,150.0
13.763,1.462,0.781,150.0
13.763,1.462,0.701,77.0
13.767,1.461,0.621,35.0
13.779,1.462,0.543,37.0
13.76,1.461,0.922,85.0
13.757,1.46,0.842,150.0
13.763,1.459,0.763,150.0
13.766,1.459,0.683,56.0
13.762,1.457,0.603,37.0
13.766,1.457,0.524,37.0
13.759,1.457,0.903,59.0
13.76,1.456,0.824,150.0
13.76,1.455,0.745,150.0
13.764,1.455,0.665,62.0
13.771,1.454,0.586,53.0
13.77,1.454,0.507,37.0
13.752,1.452,0.885,57.0
13.767,1.453,0.807,150.0
13.764,1.451,0.727,150.0
13.76,1.45,0.646,46.0
13.768,1.45,0.568,108.0
13.763,1.448,0.488,38.0
13.751,1.447,0.867,86.0
13.773,1.448,0.789,150.0
13.763,1.446,0.709,150.0
13.751,1.444,0.628,36.0
13.773,1.445,0.55,81.0
13.77,1.444,0.471,37.0
13.75,1.441,0.849,145.0
13.767,1.442,0.77,150.0
13.77,1.441,0.691,150.0
13.751,1.438,0.61,37.0
13.772,1.439,0.532,71.0
13.775,1.438,0.453,38.0
13.759,1.436,0.831,128.0
13.774,1.436,0.752,150.0
13.773,1.435,0.673,150.0
13.76,1.432,0.592,38.0
13.781,1.433,0.514,86.0
13.768,1.431,0.434,37.0
13.76,1.43,0.813,150.0
13.774,1.429,0.734,150.0
13.764,1.427,0.655,93.0
13.765,1.426,0.574,53.0
13.774,1.425,0.495,70.0
13.774,1.424,0.416,37.0
13.765,1.423,0.795,97.0
13.772,1.422,0.716,150.0
13.755,1.418,0.636,36.0
13.772,1.419,0.556,60.0
13.771,1.418,0.477,67.0
13.776,1.417,0.398,36.0
13.77,1.415,0.777,92.0
13.769,1.413,0.698,150.0
13.749,1.41,0.618,54.0
13.771,1.41,0.538,61.0
13.779,1.41,0.459,77.0
13.778,1.408,0.38,37.0
13.768,1.406,0.759,83.0
13.77,1.405,0.68,150.0
13.748,1.401,0.599,57.0
13.771,1.402,0.52,67.0
13.782,1.401,0.441,80.0
13.777,1.399,0.362,36.0
13.772,1.397,0.741,81.0
13.77,1.395,0.661,150.0
13.762,1.393,0.582,79.0
13.777,1.393,0.502,67.0
13.786,1.392,0.423,50.0
13.778,1.39,0.344,36.0
13.778,1.388,0.723,84.0
13.762,1.385,0.643,93.0
13.778,1.384,0.565,150.0
13.781,1.383,0.484,74.0
13.785,1.382,0.405,66.0
13.773,1.379,0.326,36.0
13.77,1.377,0.705,68.0
13.777,1.375,0.626,70.0
13.785,1.374,0.547,147.0
13.787,1.373,0.466,47.0
13.786,1.371,0.387,64.0
13.772,1.368,0.308,35.0
13.785,1.367,0.687,61.0
13.77,1.364,0.607,39.0
13.788,1.363,0.529,108.0
13.79,1.362,0.449,39.0
13.787,1.36,0.37,48.0
13.77,1.356,0.29,35.0
13.785,1.355,0.669,41.0
13.781,1.353,0.59,84.0
13.794,1.352,0.512,76.0
13.795,1.35,0.431,38.0
13.792,1.348,0.352,37.0
13.784,1.346,0.273,34.0
13.796,1.344,0.652,40.0
13.798,1.342,0.573,46.0
13.795,1.34,0.494,51.0
13.804,1.339,0.414,37.0
13.801,1.337,0.335,36.0
13.793,1.334,0.256,33.0
13.807,1.332,0.635,37.0
13.815,1.331,0.557,39.0
13.815,1.329,0.477,39.0
13.81,1.326,0.397,36.0
13.802,1.324,0.318,33.0
13.805,1.322,0.239,32.0
13.814,1.32,0.618,37.0
13.829,1.319,0.54,36.0
13.827,1.316,0.46,38.0
13.823,1.314,0.38,35.0
13.819,1.311,0.301,32.0
13.824,1.31,0.222,29.0
13.824,1.306,0.601,34.0
13.84,1.306,0.523,32.0
13.839,1.303,0.444,35.0
13.833,1.301,0.363,32.0
13.83,1.298,0.284,28.0
13.842,1.297,0.205,25.0
13.837,1.293,0.585,15.0
13.836,1.291,0.506,17.0
13.843,1.289,0.427,22.0
13.829,1.285,0.346,21.0
13.845,1.285,0.267,14.0
13.854,1.283,0.188,16.0
13.868,1.28,0.569,3.0
13.855,1.277,0.489,5.0
13.843,1.273,0.41,7.0
13.836,1.27,0.329,6.0
13.877,1.272,0.251,5.0
13.873,1.269,0.172,5.0
114.803,10.474,4.577,36.0
114.954,10.466,3.925,18.0
30.528,2.774,0.867,7.0
115.51,10.476,2.613,11.0
115.645,10.469,1.957,7.0
74.873,6.765,0.84,7.0
120.695,10.869,4.666,7.0
120.541,10.832,3.972,19.0
30.473,2.733,0.83,26.0
120.646,10.798,2.586,45.0
34.148,3.05,0.537,4.0
74.459,6.638,0.747,9.0
120.602,10.714,4.521,51.0
30.443,2.698,0.967,19.0
30.428,2.691,0.793,37.0
30.442,2.687,0.617,24.0
30.436,2.681,0.443,18.0
65.361,5.745,0.58,17.0
120.631,10.564,4.382,50.0
30.34,2.65,0.928,33.0
30.32,2.643,0.755,39.0
30.321,2.637,0.579,41.0
30.346,2.634,0.407,24.0
34.289,2.969,0.264,23.0
30.405,2.623,1.069,3.0
30.332,2.61,0.893,156.0
30.296,2.601,0.72,45.0
30.278,2.593,0.544,43.0
30.305,2.59,0.372,33.0
30.385,2.591,0.2,30.0
30.28,2.571,1.03,159.0
30.269,2.564,0.858,177.0
30.296,2.56,0.686,59.0
30.268,2.551,0.509,42.0
30.292,2.547,0.337,40.0
30.36,2.547,0.166,32.0
30.293,2.53,0.997,150.0
30.256,2.521,0.823,168.0
30.284,2.517,0.652,62.0
30.277,2.51,0.477,56.0
30.306,2.506,0.305,49.0
30.361,2.504,0.132,36.0
30.26,2.484,0.963,31.0
30.323,2.483,0.792,153.0
30.28,2.473,0.619,61.0
30.281,2.467,0.444,57.0
30.347,2.466,0.272,47.0
30.385,2.463,0.1,15.0
30.251,2.44,0.931,34.0
30.299,2.437,0.76,53.0
30.295,2.43,0.587,60.0
30.258,2.42,0.412,44.0
30.405,2.426,0.241,20.0
30.557,2.432,0.069,22.0
30.27,2.396,0.9,62.0
30.279,2.39,0.728,63.0
30.288,2.384,0.556,62.0
30.284,2.377,0.381,33.0
30.466,2.385,0.21,18.0
30.553,2.385,0.038,40.0
30.283,2.351,0.869,163.0
30.292,2.345,0.697,61.0
30.293,2.338,0.525,42.0
30.329,2.334,0.351,18.0
30.515,2.342,0.18,13.0
30.551,2.338,0.007,32.0
30.27,2.304,0.839,178.0
30.311,2.3,0.668,59.0
30.331,2.294,0.496,33.0
30.397,2.292,0.322,15.0
30.567,2.298,0.151,9.0
30.616,2.295,-0.021,13.0
30.295,2.258,0.81,167.0
30.336,2.254,0.639,26.0
30.394,2.251,0.469,20.0
30.458,2.248,0.294,19.0
54.157,3.985,0.216,27.0
41.126,3.017,-0.068,19.0
30.389,2.216,0.784,158.0
30.452,2.213,0.613,42.0
139.671,10.118,2.024,4.0
73.945,5.339,0.646,33.0
47.405,3.411,0.146,20.0
38.761,2.78,-0.099,3.0
30.51,2.175,0.759,9.0
139.651,9.919,2.688,22.0
96.814,6.853,1.316,2.0
73.673,5.197,0.577,14.0
46.388,3.26,0.101,20.0
36.617,2.565,-0.126,9.0
114.426,7.966,2.748,35.0
114.647,7.951,2.105,17.0
85.099,5.88,1.082,3.0
58.198,4.007,0.405,10.0
42.446,2.912,0.056,16.0
36.056,2.464,-0.155,30.0
114.457,7.77,2.65,42.0
114.7,7.759,2.008,8.0
78.233,5.271,0.927,6.0
0.0,0.0,0.0,0.0
42.371,2.833,0.02,17.0
35.887,2.391,-0.185,19.0
114.594,7.582,2.558,38.0
139.587,9.199,2.329,60.0
77.999,5.12,0.861,14.0
55.168,3.607,0.292,29.0
41.423,2.697,-0.013,40.0
35.577,2.308,-0.212,17.0
139.728,9.0,3.007,6.0
139.608,8.954,2.218,15.0
75.716,4.837,0.776,17.0
54.804,3.486,0.247,24.0
40.987,2.596,-0.045,48.0
35.399,2.234,-0.238,4.0
33.467,2.096,0.694,148.0
33.442,2.085,0.505,165.0
33.469,2.077,0.317,153.0
33.453,2.068,0.125,9.0
40.44,2.489,-0.075,43.0
0.0,0.0,0.0,0.0
33.41,2.031,0.668,0.0
120.856,7.315,1.738,12.0
74.307,4.477,0.65,24.0
47.185,2.83,0.143,11.0
40.349,2.409,-0.104,29.0
35.291,2.098,-0.289,7.0
162.143,9.562,3.13,18.0
96.364,5.657,1.318,6.0
73.785,4.309,0.594,23.0
46.581,2.708,0.109,21.0
40.162,2.324,-0.131,6.0
35.305,2.033,-0.313,4.0
106.034,6.056,1.975,1.0
96.442,5.482,1.254,6.0
73.572,4.16,0.544,15.0
0.0,0.0,0.0,0.0
36.638,2.052,-0.143,14.0
35.329,1.968,-0.336,1.0
105.852,5.847,1.903,33.0
81.93,4.502,1.013,5.0
73.476,4.016,0.496,12.0
42.955,2.336,0.045,17.0
36.069,1.951,-0.164,16.0
32.387,1.742,-0.328,1.0
105.75,5.639,1.836,150.0
81.925,4.344,0.963,5.0
58.139,3.066,0.358,6.0
42.321,2.22,0.019,18.0
36.13,1.884,-0.185,34.0
31.979,1.658,-0.343,1.0
105.777,5.435,1.775,23.0
78.422,4.005,0.876,15.0
55.229,2.804,0.308,7.0
41.817,2.111,-0.004,17.0
35.886,1.801,-0.205,34.0
31.269,1.56,-0.353,1.0
0.0,0.0,0.0,0.0
78.063,3.834,0.83,27.0
54.993,2.685,0.277,28.0
41.46,2.012,-0.026,17.0
35.883,1.731,-0.223,24.0
30.953,1.484,-0.365,2.0
105.775,5.021,1.662,3.0
77.859,3.671,0.788,57.0
54.622,2.559,0.248,28.0
41.134,1.914,-0.046,28.0
35.854,1.658,-0.241,14.0
30.575,1.404,-0.376,1.0
101.315,4.607,1.543,1.0
77.552,3.503,0.748,28.0
54.419,2.441,0.222,28.0
40.786,1.817,-0.065,36.0
35.825,1.585,-0.257,10.0
30.343,1.333,-0.387,2.0
101.204,4.4,1.497,3.0
77.24,3.335,0.712,37.0
54.383,2.331,0.198,28.0
40.535,1.724,-0.082,36.0
35.849,1.514,-0.272,8.0
30.029,1.259,-0.395,2.0
101.193,4.196,1.456,3.0
0.0,0.0,0.0,0.0
54.42,2.223,0.177,28.0
40.198,1.63,-0.096,44.0
35.89,1.444,-0.286,7.0
29.827,1.191,-0.403,2.0
101.075,3.986,1.416,1.0
77.347,3.027,0.653,12.0
54.319,2.108,0.156,18.0
39.865,1.534,-0.11,55.0
35.913,1.371,-0.299,6.0
29.627,1.122,-0.411,2.0
95.618,3.576,1.307,4.0
77.6,2.877,0.63,6.0
49.064,1.803,0.125,22.0
39.749,1.448,-0.122,47.0
35.988,1.299,-0.311,5.0
29.392,1.052,-0.417,2.0
95.511,3.373,1.277,6.0
74.383,2.603,0.581,13.0
48.905,1.696,0.111,23.0
39.631,1.361,-0.133,48.0
0.0,0.0,0.0,0.0
29.363,0.989,-0.424,2.0
95.315,3.169,1.249,7.0
74.243,2.445,0.561,14.0
48.754,1.589,0.098,23.0
39.609,1.278,-0.143,39.0
0.0,0.0,0.0,0.0
29.175,0.922,-0.429,1.0
95.562,2.978,1.23,3.0
74.301,2.291,0.545,11.0
48.584,1.482,0.087,23.0
0.0,0.0,0.0,0.0
36.122,1.078,-0.338,0.0
29.133,0.86,-0.434,2.0
95.655,2.782,1.213,2.0
74.373,2.138,0.532,13.0
52.091,1.48,0.084,4.0
0.0,0.0,0.0,0.0
33.472,0.929,-0.319,1.0
29.007,0.795,-0.436,1.0
94.832,2.559,1.188,2.0
74.554,1.987,0.522,12.0
48.331,1.272,0.071,23.0
38.17,0.992,-0.158,37.0
33.127,0.85,-0.32,1.0
28.977,0.734,-0.44,2.0
106.053,2.64,1.316,24.0
74.561,1.832,0.514,14.0
48.186,1.167,0.066,22.0
38.078,0.909,-0.161,43.0
33.027,0.778,-0.322,1.0
29.047,0.675,-0.443,2.0
89.866,2.048,1.108,5.0
74.51,1.673,0.508,18.0
48.009,1.062,0.062,22.0
38.086,0.829,-0.163,49.0
33.16,0.71,-0.325,1.0
28.974,0.611,-0.443,2.0
93.13,1.926,1.144,4.0
74.782,1.52,0.507,13.0
47.838,0.956,0.061,22.0
38.077,0.748,-0.164,35.0
33.134,0.639,-0.325,1.0
28.935,0.549,-0.443,2.0
94.792,1.758,1.164,4.0
74.828,1.361,0.507,13.0
47.785,0.853,0.061,24.0
38.117,0.667,-0.164,44.0
33.125,0.568,-0.324,1.0
28.952,0.487,-0.443,2.0
121.083,1.985,1.491,13.0
74.967,1.203,0.511,10.0
47.812,0.751,0.063,42.0
38.257,0.588,-0.163,48.0
33.197,0.499,-0.323,1.0
29.034,0.426,-0.442,2.0
121.028,1.73,1.498,12.0
48.163,0.671,0.332,13.0
47.845,0.649,0.067,53.0
38.433,0.508,-0.16,50.0
33.21,0.428,-0.32,1.0
29.108,0.365,-0.44,2.0
48.135,0.584,0.601,91.0
48.061,0.567,0.336,80.0
47.853,0.547,0.073,57.0
38.626,0.428,-0.156,50.0
33.376,0.359,-0.318,1.0
29.236,0.304,-0.438,2.0
48.088,0.481,0.607,106.0
48.045,0.464,0.343,110.0
47.914,0.447,0.08,60.0
38.887,0.348,-0.151,47.0
33.458,0.288,-0.313,1.0
29.297,0.242,-0.434,2.0
48.091,0.379,0.616,105.0
48.098,0.362,0.353,52.0
47.986,0.345,0.09,48.0
39.211,0.268,-0.144,47.0
33.668,0.218,-0.308,0.0
29.33,0.179,-0.428,2.0
59.299,0.341,0.772,24.0
59.31,0.32,0.448,95.0
54.553,0.274,0.115,29.0
39.537,0.185,-0.136,38.0
37.742,0.163,-0.336,6.0
29.536,0.117,-0.424,2.0
79.47,0.286,1.056,151.0
76.841,0.248,0.602,32.0
0.0,0.0,0.0,0.0
40.055,0.101,-0.126,20.0
37.983,0.083,-0.327,0.0
29.628,0.054,-0.416,2.0
79.465,0.117,1.079,151.0
79.362,0.089,0.645,34.0
54.832,0.042,0.147,28.0
40.719,0.017,-0.116,17.0
38.157,0.002,-0.316,2.0
29.809,-0.008,-0.409,2.0
79.458,-0.05,1.105,151.0
79.387,-0.079,0.672,121.0
55.958,-0.075,0.169,29.0
41.693,-0.07,-0.104,18.0
38.305,-0.078,-0.304,2.0
29.965,-0.072,-0.4,2.0
79.456,-0.217,1.134,151.0
79.43,-0.246,0.702,150.0
56.138,-0.194,0.191,10.0
0.0,0.0,0.0,0.0
39.265,-0.163,-0.296,0.0
30.321,-0.137,-0.393,2.0
79.453,-0.384,1.166,156.0
79.47,-0.413,0.735,164.0
61.257,-0.341,0.234,16.0
44.065,-0.261,-0.074,2.0
39.603,-0.248,-0.282,4.0
30.651,-0.203,-0.384,1.0
79.448,-0.552,1.201,171.0
79.467,-0.579,0.77,168.0
61.47,-0.47,0.263,8.0
49.626,-0.397,-0.061,4.0
42.195,-0.353,-0.28,4.0
30.939,-0.269,-0.373,1.0
79.441,-0.717,1.239,191.0
79.451,-0.745,0.809,169.0
77.335,-0.753,0.368,3.0
54.438,-0.55,-0.04,16.0
38.59,-0.403,-0.237,2.0
31.552,-0.341,-0.364,1.0
79.41,-0.882,1.279,255.0
79.5,-0.912,0.851,51.0
78.022,-0.921,0.413,4.0
54.594,-0.664,-0.011,3.0
42.388,-0.53,-0.238,3.0
32.116,-0.413,-0.353,1.0
86.949,-1.145,1.448,150.0
123.695,-1.673,1.392,14.0
82.202,-1.141,0.481,2.0
0.0,0.0,0.0,0.0
46.066,-0.672,-0.232,0.0
32.976,-0.492,-0.344,1.0
205.452,-3.128,3.542,7.0
149.024,-2.32,1.765,9.0
40.312,-0.642,0.26,1.0
40.31,-0.655,0.038,36.0
40.322,-0.67,-0.179,30.0
33.678,-0.571,-0.331,1.0
40.2,-0.693,0.717,20.0
40.275,-0.709,0.502,9.0
40.246,-0.722,0.284,54.0
40.276,-0.736,0.063,63.0
40.336,-0.751,-0.153,11.0
33.729,-0.64,-0.309,0.0
40.193,-0.773,0.743,40.0
40.232,-0.788,0.527,63.0
40.276,-0.803,0.311,37.0
67.089,-1.361,0.151,0.0
0.0,0.0,0.0,0.0
35.593,-0.747,-0.302,0.0
40.213,-0.854,0.771,61.0
40.293,-0.87,0.556,37.0
40.302,-0.884,0.339,7.0
40.297,-0.898,0.119,120.0
40.289,-0.912,-0.097,41.0
40.25,-0.924,-0.313,20.0
40.201,-0.934,0.8,60.0
40.27,-0.95,0.585,69.0
40.265,-0.963,0.369,4.0
0.0,0.0,0.0,0.0
40.957,-1.009,-0.068,2.0
40.832,-1.019,-0.287,15.0
40.2,-1.014,0.83,54.0
40.21,-1.028,0.615,52.0
40.179,-1.041,0.399,44.0
40.2,-1.055,0.179,51.0
40.965,-1.089,-0.036,152.0
40.778,-1.098,-0.255,26.0
40.267,-1.094,0.863,31.0
0.0,0.0,0.0,0.0
40.223,-1.12,0.431,16.0
40.195,-1.133,0.211,43.0
40.191,-1.147,-0.003,55.0
40.196,-1.161,-0.218,35.0
40.335,-1.175,0.898,25.0
154.044,-4.542,2.607,150.0
0.0,0.0,0.0,0.0
0.0,0.0,0.0,0.0
0.0,0.0,0.0,0.0
0.0,0.0,0.0,0.0
40.328,-1.252,0.932,21.0
40.356,-1.267,0.717,15.0
40.347,-1.28,0.501,0.0
0.0,0.0,0.0,0.0
0.0,0.0,0.0,0.0
0.0,0.0,0.0,0.0
0.0,0.0,0.0,0.0
0.0,0.0,0.0,0.0
0.0,0.0,0.0,0.0
0.0,0.0,0.0,0.0
0.0,0.0,0.0,0.0
53.424,-1.851,-0.147,0.0
0.0,0.0,0.0,0.0
136.577,-4.806,2.678,3.0
136.382,-4.843,1.946,33.0
0.0,0.0,0.0,0.0
0.0,0.0,0.0,0.0
40.134,-1.465,-0.073,3.0
0.0,0.0,0.0,0.0
136.534,-5.057,2.808,32.0
135.84,-5.075,2.068,35.0
0.0,0.0,0.0,0.0
0.0,0.0,0.0,0.0
40.143,-1.539,-0.034,21.0
0.0,0.0,0.0,0.0
0.0,0.0,0.0,0.0
136.263,-5.341,2.21,101.0
0.0,0.0,0.0,0.0
0.0,0.0,0.0,0.0
0.0,0.0,0.0,0.0
0.0,0.0,0.0,0.0
0.0,0.0,0.0,0.0
0.0,0.0,0.0,0.0
0.0,0.0,0.0,0.0
0.0,0.0,0.0,0.0
0.0,0.0,0.0,0.0
0.0,0.0,0.0,0.0
0.0,0.0,0.0,0.0
0.0,0.0,0.0,0.0
0.0,0.0,0.0,0.0
0.0,0.0,0.0,0.0
0.0,0.0,0.0,0.0
0.0,0.0,0.0,0.0
0.0,0.0,0.0,0.0
0.0,0.0,0.0,0.0
0.0,0.0,0.0,0.0
0.0,0.0,0.0,0.0
0.0,0.0,0.0,0.0
0.0,0.0,0.0,0.0
0.0,0.0,0.0,0.0
0.0,0.0,0.0,0.0
126.491,-5.924,1.235,2.0
0.0,0.0,0.0,0.0
0.0,0.0,0.0,0.0
0.0,0.0,0.0,0.0
0.0,0.0,0.0,0.0
0.0,0.0,0.0,0.0
0.0,0.0,0.0,0.0
0.0,0.0,0.0,0.0
0.0,0.0,0.0,0.0
0.0,0.0,0.0,0.0
0.0,0.0,0.0,0.0
0.0,0.0,0.0,0.0
0.0,0.0,0.0,0.0
0.0,0.0,0.0,0.0
0.0,0.0,0.0,0.0
0.0,0.0,0.0,0.0
0.0,0.0,0.0,0.0
0.0,0.0,0.0,0.0
0.0,0.0,0.0,0.0
278.849,-14.998,10.295,11.0
0.0,0.0,0.0,0.0
228.094,-12.519,3.576,154.0
0.0,0.0,0.0,0.0
244.349,-13.52,9.323,7.0
278.637,-15.49,9.159,13.0
0.0,0.0,0.0,0.0
0.0,0.0,0.0,0.0
