X,Y,Z,Reflectivity
47.798,-0.02,3.57,91.0
47.91,-0.014,3.322,71.0
63.789,-0.01,4.089,47.0
63.057,-0.001,3.711,9.0
47.73,-0.003,4.153,6.0
39.826,0.002,3.255,55.0
47.853,0.01,3.659,48.0
47.859,0.016,3.403,91.0
48.178,0.023,3.172,61.0
75.724,0.046,4.588,35.0
47.762,0.028,4.24,4.0
39.866,0.029,3.328,65.0
40.075,0.034,3.134,50.0
47.889,0.048,3.488,49.0
48.017,0.055,3.245,70.0
63.712,0.083,3.971,16.0
63.473,0.081,5.746,9.0
39.872,0.057,3.398,50.0
40.11,0.063,3.206,55.0
54.593,0.094,4.071,84.0
47.961,0.09,3.323,83.0
48.189,0.097,3.085,58.0
54.684,0.109,5.043,74.0
39.951,0.086,3.473,54.0
39.995,0.092,3.265,44.0
54.4,0.133,4.147,57.0
47.995,0.125,3.406,56.0
48.113,0.132,3.16,90.0
59.234,0.163,5.562,13.0
47.716,0.138,4.227,38.0
39.916,0.122,3.324,63.0
54.039,0.174,4.209,80.0
54.747,0.184,3.975,46.0
48.065,0.169,3.235,97.0
59.198,0.208,5.656,22.0
47.695,0.175,4.303,12.0
39.862,0.153,3.385,68.0
59.212,0.237,4.708,90.0
59.241,0.246,4.396,13.0
48.063,0.208,3.312,87.0
40.175,0.174,3.903,67.0
47.653,0.214,4.376,64.0
54.736,0.254,4.735,7.0
64.865,0.313,5.26,25.0
64.671,0.323,4.902,10.0
48.135,0.248,3.393,46.0
57.386,0.296,5.667,9.0
47.641,0.254,4.45,51.0
42.06,0.231,3.705,18.0
39.907,0.226,3.299,32.0
64.55,0.376,4.993,2.0
48.271,0.29,3.478,58.0
40.648,0.245,4.077,65.0
47.571,0.295,4.518,5.0
57.299,0.365,5.136,7.0
39.877,0.261,3.358,42.0
75.04,0.505,5.919,38.0
48.295,0.333,3.553,63.0
40.17,0.278,4.091,52.0
47.486,0.337,4.582,50.0
57.267,0.416,5.219,13.0
39.885,0.296,3.418,37.0
48.531,0.37,3.9,44.0
48.333,0.377,3.627,58.0
40.184,0.315,4.152,47.0
47.411,0.38,4.645,35.0
40.037,0.328,3.707,30.0
48.76,0.408,4.25,81.0
48.608,0.415,3.977,51.0
48.386,0.422,3.701,93.0
40.641,0.356,4.258,21.0
47.372,0.424,4.709,9.0
61.672,0.563,5.8,36.0
48.814,0.454,4.324,9.0
48.648,0.462,4.049,64.0
48.426,0.468,3.772,105.0
47.238,0.46,5.016,6.0
39.994,0.397,4.032,40.0
64.385,0.651,6.145,9.0
40.012,0.412,3.6,30.0
48.471,0.508,4.102,75.0
48.439,0.517,3.84,95.0
61.106,0.656,6.575,10.0
40.104,0.438,4.099,38.0
0.0,0.0,0.0,0.0
39.905,0.45,3.645,55.0
48.408,0.556,4.162,104.0
48.471,0.566,3.907,75.0
41.448,0.487,4.515,27.0
40.52,0.483,4.195,32.0
40.945,0.496,4.018,16.0
40.098,0.494,3.715,39.0
48.385,0.605,4.223,36.0
56.173,0.713,4.601,67.0
41.422,0.528,4.566,44.0
47.609,0.617,4.991,52.0
41.125,0.54,4.089,16.0
48.309,0.645,4.538,9.0
48.368,0.655,4.283,6.0
56.2,0.772,4.675,73.0
41.441,0.573,4.621,31.0
47.631,0.668,5.053,10.0
40.652,0.577,4.093,16.0
48.322,0.696,4.599,4.0
39.756,0.58,3.569,63.0
39.986,0.591,3.374,8.0
41.379,0.616,4.665,50.0
41.554,0.626,4.459,42.0
40.463,0.618,4.123,40.0
48.357,0.748,4.66,6.0
40.016,0.627,3.64,60.0
39.907,0.633,3.415,62.0
40.906,0.654,4.661,38.0
41.328,0.669,4.484,45.0
40.793,0.668,4.204,24.0
48.358,0.801,4.717,44.0
49.006,0.822,4.514,14.0
39.867,0.676,3.457,66.0
40.666,0.695,4.68,29.0
41.381,0.715,4.537,30.0
41.289,0.722,4.302,30.0
40.103,0.709,3.956,58.0
49.031,0.877,4.571,9.0
40.03,0.723,3.515,42.0
0.0,0.0,0.0,0.0
41.191,0.758,4.561,57.0
41.226,0.766,4.34,27.0
40.357,0.758,4.024,43.0
49.016,0.93,4.621,8.0
53.095,1.018,4.717,7.0
41.739,0.806,4.893,43.0
41.747,0.815,4.666,38.0
0.0,0.0,0.0,0.0
40.31,0.803,4.061,39.0
39.999,0.805,3.812,30.0
40.103,0.815,3.604,40.0
0.0,0.0,0.0,0.0
41.45,0.857,4.675,55.0
48.527,1.013,5.207,15.0
48.529,1.023,4.937,6.0
39.972,0.851,3.849,34.0
39.999,0.859,3.634,57.0
41.7,0.902,4.972,44.0
41.226,0.9,4.689,54.0
48.481,1.069,5.249,10.0
41.085,0.913,4.219,28.0
40.104,0.9,3.899,59.0
54.024,1.223,4.958,7.0
38.612,0.881,4.64,24.0
41.26,0.95,4.732,51.0
41.535,0.964,4.535,16.0
41.009,0.96,4.249,29.0
40.232,0.95,3.948,56.0
40.304,0.96,3.735,19.0
38.624,0.927,4.676,69.0
41.467,1.004,4.792,47.0
53.803,1.313,5.922,46.0
49.51,1.218,5.172,7.0
40.341,1.0,3.993,48.0
40.283,1.007,3.767,15.0
37.858,0.954,4.616,58.0
41.914,1.065,4.879,50.0
42.025,1.076,4.66,19.0
41.269,1.065,4.345,14.0
40.383,1.05,4.03,37.0
56.78,1.488,5.356,34.0
37.785,0.998,4.637,49.0
41.306,1.099,4.841,5.0
49.826,1.336,5.565,7.0
0.0,0.0,0.0,0.0
49.343,1.343,4.962,5.0
42.816,1.174,4.071,40.0
37.779,1.044,4.666,59.0
41.76,1.162,4.926,17.0
42.704,1.197,4.801,24.0
41.308,1.166,4.412,36.0
56.779,1.615,5.752,17.0
42.801,1.226,4.101,55.0
37.825,1.092,4.699,63.0
41.828,1.215,4.964,17.0
42.109,1.232,4.764,17.0
41.22,1.214,4.431,31.0
40.846,1.211,4.165,46.0
42.847,1.279,4.133,33.0
37.941,1.142,4.738,49.0
38.461,1.165,4.59,41.0
41.839,1.275,4.761,5.0
38.353,1.177,4.148,39.0
41.102,1.269,4.218,29.0
66.497,2.067,6.457,9.0
38.048,1.192,4.776,57.0
38.024,1.199,4.561,56.0
37.852,1.201,4.33,66.0
38.264,1.221,4.161,59.0
41.449,1.331,4.278,26.0
42.663,1.379,4.168,7.0
38.095,1.241,4.804,54.0
37.937,1.244,4.573,48.0
37.934,1.251,4.361,59.0
38.269,1.269,4.183,55.0
41.65,1.39,4.322,16.0
42.642,1.431,4.188,10.0
37.861,1.28,4.795,57.0
37.989,1.292,4.599,45.0
37.892,1.296,4.376,57.0
38.328,1.319,4.209,37.0
41.579,1.439,4.335,24.0
42.645,1.484,4.21,8.0
37.867,1.328,4.814,65.0
37.848,1.335,4.6,56.0
37.941,1.346,4.399,55.0
38.112,1.359,4.203,57.0
41.576,1.49,4.354,23.0
42.777,1.542,4.242,9.0
37.808,1.373,4.824,60.0
37.732,1.378,4.603,58.0
37.789,1.387,4.398,55.0
55.501,2.048,6.144,9.0
41.649,1.545,4.379,22.0
62.044,2.314,6.178,28.0
37.916,1.425,4.853,51.0
37.858,1.43,4.633,49.0
37.789,1.434,4.413,36.0
38.292,1.461,4.253,41.0
41.529,1.592,4.381,28.0
56.368,2.172,5.633,13.0
38.131,1.48,4.894,40.0
37.827,1.476,4.642,60.0
42.927,1.683,5.027,4.0
38.13,1.501,4.248,65.0
41.201,1.631,4.36,49.0
41.059,1.632,4.116,30.0
38.111,1.527,4.903,43.0
37.876,1.525,4.659,66.0
42.938,1.736,5.041,11.0
38.113,1.548,4.257,55.0
41.455,1.692,4.398,26.0
41.156,1.687,4.136,32.0
37.569,1.552,4.843,56.0
37.902,1.572,4.672,54.0
41.385,1.724,4.868,3.0
37.883,1.585,4.24,39.0
41.766,1.756,4.44,23.0
54.611,2.305,5.501,7.0
37.885,1.612,4.892,46.0
37.813,1.616,4.669,62.0
41.5,1.78,4.89,3.0
41.418,1.784,4.643,26.0
42.006,1.817,4.474,27.0
53.014,2.303,5.349,7.0
37.724,1.652,4.877,49.0
37.791,1.661,4.672,56.0
37.963,1.675,4.479,56.0
41.714,1.848,4.683,17.0
41.903,1.864,4.469,21.0
52.989,2.367,5.353,8.0
37.897,1.705,4.904,52.0
37.945,1.714,4.696,43.0
37.951,1.721,4.482,67.0
41.381,1.883,4.649,3.0
41.936,1.916,4.476,22.0
41.512,1.903,4.197,9.0
37.848,1.749,4.901,57.0
37.943,1.76,4.698,45.0
37.94,1.766,4.483,49.0
41.674,1.947,4.685,3.0
41.81,1.96,4.465,22.0
54.363,2.558,5.499,37.0
37.816,1.794,4.898,46.0
37.85,1.802,4.687,54.0
37.949,1.813,4.485,49.0
41.924,2.01,4.713,17.0
41.795,2.01,4.463,22.0
41.457,2.001,4.193,24.0
37.643,1.83,4.875,65.0
37.8,1.845,4.68,61.0
41.745,2.043,4.932,3.0
54.276,2.666,6.1,40.0
41.712,2.056,4.452,16.0
41.443,2.049,4.19,39.0
37.763,1.882,4.888,42.0
37.804,1.89,4.678,47.0
41.695,2.091,4.923,44.0
41.785,2.102,4.693,15.0
41.432,2.091,4.419,39.0
41.396,2.096,4.181,32.0
38.073,1.942,4.924,38.0
37.71,1.929,4.663,53.0
42.017,2.156,4.956,31.0
42.036,2.164,4.715,33.0
41.622,2.149,4.434,32.0
63.439,3.285,6.399,23.0
38.055,1.986,4.917,60.0
37.781,1.977,4.665,66.0
42.179,2.213,4.969,20.0
41.729,2.196,4.674,24.0
41.767,2.204,4.442,24.0
63.086,3.339,6.352,16.0
38.066,2.03,4.911,55.0
37.745,2.018,4.653,44.0
41.931,2.248,4.931,16.0
52.706,2.833,5.892,12.0
41.368,2.23,4.39,40.0
52.843,2.856,5.309,16.0
42.32,2.305,5.449,26.0
37.738,2.06,4.643,54.0
44.476,2.435,5.219,5.0
38.321,2.103,4.274,66.0
41.737,2.297,4.418,16.0
63.002,3.476,6.312,13.0
45.818,2.547,5.887,15.0
37.767,2.105,4.636,17.0
38.355,2.143,4.489,28.0
38.36,2.148,4.267,66.0
41.824,2.348,4.415,10.0
53.329,3.002,5.326,5.0
38.079,2.159,4.88,34.0
41.327,2.348,5.059,21.0
52.574,2.995,6.135,8.0
38.393,2.192,4.257,37.0
63.132,3.614,6.641,9.0
41.583,2.386,4.138,34.0
38.104,2.202,4.869,59.0
38.377,2.223,4.683,14.0
38.23,2.219,4.447,38.0
38.355,2.231,4.238,58.0
52.323,3.051,5.484,5.0
41.462,2.423,4.109,40.0
38.019,2.238,4.842,45.0
41.391,2.442,5.034,2.0
38.324,2.266,4.441,41.0
38.291,2.268,4.214,61.0
52.686,3.128,5.498,7.0
41.42,2.465,4.087,44.0
38.05,2.28,4.828,50.0
41.338,2.482,5.008,5.0
38.144,2.294,4.403,47.0
38.311,2.309,4.198,42.0
63.517,3.836,6.599,23.0
41.376,2.504,4.063,65.0
38.049,2.319,4.809,66.0
38.308,2.339,4.622,25.0
38.095,2.33,4.377,69.0
38.272,2.345,4.175,62.0
63.236,3.883,6.537,37.0
63.617,3.915,6.213,17.0
38.184,2.365,4.806,64.0
38.087,2.364,4.574,49.0
38.127,2.37,4.36,68.0
38.328,2.387,4.159,59.0
63.47,3.96,6.525,34.0
63.536,3.971,6.17,23.0
44.488,2.8,5.573,5.0
38.132,2.403,4.557,58.0
38.364,2.422,4.364,56.0
38.274,2.42,4.131,41.0
63.637,4.031,6.504,25.0
63.447,4.026,6.123,14.0
38.157,2.437,4.757,34.0
38.144,2.44,4.535,67.0
38.386,2.46,4.343,51.0
38.34,2.461,4.113,62.0
64.174,4.126,6.518,18.0
63.454,4.086,6.082,13.0
46.97,3.044,5.824,7.0
38.181,2.478,4.514,54.0
38.371,2.494,4.316,60.0
38.737,2.521,4.13,18.0
64.142,4.181,6.472,38.0
63.392,4.139,6.033,25.0
46.357,3.046,5.716,6.0
38.212,2.514,4.491,44.0
38.372,2.528,4.289,61.0
64.192,4.236,6.799,14.0
70.719,4.673,7.084,24.0
70.391,4.658,6.649,10.0
45.05,3.0,5.521,8.0
38.278,2.552,4.47,53.0
38.445,2.566,4.268,45.0
64.181,4.29,6.75,15.0
70.927,4.747,7.052,41.0
70.383,4.718,6.595,9.0
41.047,2.768,4.999,5.0
38.259,2.583,4.438,61.0
41.939,2.835,4.623,4.0
64.147,4.342,6.696,25.0
70.693,4.79,6.973,21.0
70.604,4.791,6.56,26.0
38.554,2.632,4.664,31.0
38.268,2.615,4.408,55.0
41.911,2.867,4.586,20.0
64.179,4.396,6.646,33.0
70.739,4.85,6.919,19.0
70.764,4.858,6.516,40.0
38.456,2.656,4.62,61.0
38.305,2.648,4.38,49.0
41.923,2.901,4.551,24.0
64.199,4.447,6.593,22.0
70.813,4.911,6.865,29.0
70.793,4.916,6.456,18.0
38.445,2.685,4.584,54.0
38.399,2.684,4.356,42.0
41.937,2.934,4.515,12.0
67.698,4.742,6.891,10.0
70.874,4.968,6.806,27.0
71.843,5.041,6.487,12.0
38.471,2.715,4.551,42.0
38.334,2.707,4.313,47.0
64.055,4.528,6.837,39.0
67.527,4.777,6.811,44.0
70.929,5.022,6.747,39.0
63.86,4.526,5.707,25.0
38.488,2.743,4.517,35.0
38.437,2.741,4.288,41.0
41.648,2.973,4.405,13.0
38.844,2.775,3.88,3.0
71.109,5.084,6.694,25.0
63.86,4.569,5.645,26.0
38.72,2.785,4.506,16.0
38.827,2.795,4.293,26.0
38.556,2.777,4.04,49.0
67.81,4.888,6.707,11.0
71.123,5.131,6.625,12.0
63.982,4.618,5.592,12.0
41.764,3.031,4.817,13.0
38.779,2.816,4.248,29.0
38.554,2.801,4.0,61.0
64.017,4.654,6.266,6.0
63.955,4.653,5.891,35.0
63.784,4.644,5.508,29.0
0.0,0.0,0.0,0.0
41.776,3.059,4.532,20.0
38.511,2.821,3.955,63.0
64.05,4.694,6.202,31.0
63.777,4.677,5.807,38.0
63.697,4.674,5.433,35.0
54.16,3.995,6.131,9.0
38.545,2.844,4.14,37.0
38.658,2.854,3.928,46.0
64.287,4.747,6.154,30.0
64.194,4.743,5.775,38.0
63.602,4.702,5.355,26.0
41.34,3.071,4.633,36.0
38.611,2.869,4.104,47.0
67.779,5.039,6.811,12.0
64.256,4.779,6.078,34.0
64.367,4.789,5.717,38.0
63.463,4.724,5.272,33.0
41.278,3.087,4.579,30.0
38.533,2.883,4.051,55.0
67.559,5.056,6.711,10.0
64.026,4.793,5.983,39.0
63.959,4.789,5.608,38.0
63.506,4.757,5.202,30.0
38.821,2.921,4.261,36.0
38.403,2.89,3.993,64.0
38.714,2.914,3.8,52.0
63.871,4.809,5.894,33.0
63.894,4.812,5.527,38.0
63.374,4.775,5.117,15.0
38.481,2.912,4.178,48.0
38.448,2.91,3.951,52.0
38.73,2.931,3.755,45.0
64.029,4.847,5.832,39.0
63.924,4.84,5.453,38.0
65.097,4.93,5.177,40.0
38.407,2.921,4.122,43.0
38.56,2.933,3.915,44.0
64.127,4.878,6.139,24.0
63.885,4.861,5.739,36.0
63.933,4.865,5.375,38.0
65.064,4.951,5.095,40.0
38.357,2.931,4.069,60.0
38.647,2.953,3.875,21.0
63.955,4.887,6.042,26.0
63.928,4.886,5.663,38.0
63.433,4.848,5.253,34.0
65.296,4.991,5.03,32.0
38.386,2.945,4.023,66.0
38.711,2.97,3.832,62.0
63.815,4.896,5.947,23.0
63.921,4.904,5.58,39.0
63.437,4.866,5.171,25.0
65.313,5.01,4.947,26.0
38.407,2.958,3.974,66.0
38.72,2.981,3.782,53.0
63.857,4.916,5.866,38.0
63.981,4.925,5.501,39.0
0.0,0.0,0.0,0.0
67.894,5.225,5.054,8.0
38.458,2.971,3.928,63.0
38.686,2.987,3.727,44.0
64.323,4.967,5.823,40.0
63.805,4.925,5.401,39.0
65.336,5.042,5.153,29.0
67.863,5.237,4.961,34.0
38.552,2.985,3.886,56.0
63.891,4.946,6.069,14.0
64.252,4.972,5.73,41.0
0.0,0.0,0.0,0.0
65.401,5.059,5.07,33.0
67.852,5.247,4.868,34.0
38.688,3.002,3.847,64.0
63.957,4.96,5.989,17.0
63.817,4.947,5.605,38.0
63.501,4.922,5.203,30.0
65.432,5.07,4.984,23.0
67.917,5.261,4.781,25.0
38.705,3.008,3.795,40.0
63.802,4.955,5.885,31.0
63.675,4.943,5.504,36.0
63.503,4.928,5.116,31.0
65.413,5.074,4.891,14.0
67.631,5.245,4.667,37.0
38.659,3.007,3.736,39.0
64.115,4.984,5.824,40.0
64.076,4.979,5.449,39.0
0.0,0.0,0.0,0.0
67.88,5.269,4.981,32.0
67.556,5.242,4.567,24.0
38.629,3.005,3.679,39.0
64.335,5.003,5.753,41.0
64.666,5.025,5.407,40.0
65.384,5.078,5.082,35.0
67.823,5.266,4.879,36.0
75.646,5.87,5.005,18.0
64.143,4.99,6.015,17.0
63.87,4.966,5.618,39.0
63.499,4.934,5.217,30.0
65.37,5.076,4.986,25.0
67.881,5.267,4.785,23.0
75.668,5.869,4.897,10.0
63.791,4.959,5.889,27.0
63.674,4.947,5.508,34.0
63.504,4.93,5.125,31.0
65.418,5.075,4.894,15.0
67.644,5.244,4.67,42.0
129.344,10.023,8.183,11.0
64.212,4.986,5.833,42.0
64.168,4.979,5.456,40.0
0.0,0.0,0.0,0.0
67.853,5.256,4.976,41.0
67.564,5.23,4.564,20.0
129.553,10.023,8.004,10.0
64.193,4.976,5.735,42.0
0.0,0.0,0.0,0.0
65.414,5.061,5.085,34.0
67.84,5.245,4.874,35.0
75.646,5.843,4.998,4.0
129.883,10.027,7.833,14.0
63.77,4.932,5.601,36.0
63.554,4.91,5.214,27.0
65.355,5.044,4.982,22.0
67.817,5.23,4.771,19.0
129.941,10.012,8.39,14.0
130.137,10.019,7.651,11.0
64.002,4.935,5.524,40.0
0.0,0.0,0.0,0.0
67.861,5.222,5.07,9.0
67.558,5.193,4.65,24.0
130.276,10.005,8.213,11.0
130.473,10.013,7.472,11.0
63.599,4.887,5.392,29.0
65.285,5.011,5.157,40.0
67.852,5.202,4.967,43.0
70.766,5.42,4.764,12.0
130.74,10.003,8.044,13.0
130.928,10.009,7.303,8.0
63.442,4.855,5.283,39.0
65.305,4.992,5.059,36.0
67.867,5.182,4.864,24.0
70.861,5.404,4.661,20.0
131.228,9.998,7.874,11.0
131.376,9.999,7.126,7.0
63.517,4.839,5.191,28.0
65.135,4.955,4.946,25.0
67.557,5.134,4.738,26.0
70.879,5.38,4.555,15.0
131.731,9.987,7.706,11.0
132.008,9.998,6.96,10.0
0.0,0.0,0.0,0.0
67.916,5.14,5.052,19.0
70.694,5.343,4.85,26.0
132.079,9.971,8.283,11.0
132.405,9.983,7.538,13.0
132.624,9.987,6.787,9.0
64.521,4.861,5.073,34.0
67.922,5.11,4.946,33.0
70.807,5.32,4.746,47.0
132.728,9.959,8.116,13.0
133.051,9.969,7.369,12.0
115.114,8.614,5.711,7.0
64.621,4.838,4.979,41.0
70.823,5.294,5.047,25.0
70.899,5.291,4.642,47.0
133.52,9.951,7.956,13.0
133.728,9.953,7.198,10.0
0.0,0.0,0.0,0.0
64.778,4.816,4.89,19.0
70.777,5.253,4.933,45.0
70.918,5.255,4.533,38.0
134.214,9.93,7.789,12.0
134.408,9.931,7.024,8.0
115.176,8.497,5.356,4.0
67.534,4.982,4.993,11.0
70.829,5.216,4.826,30.0
70.961,5.217,4.425,8.0
157.009,11.525,8.868,9.0
157.079,11.512,7.967,15.0
112.111,8.205,5.039,23.0
67.434,4.933,4.879,31.0
70.9,5.177,4.72,23.0
157.083,11.452,9.549,27.0
157.125,11.436,8.628,27.0
157.228,11.424,7.728,14.0
118.156,8.571,5.127,8.0
70.846,5.137,5.015,23.0
70.857,5.128,4.606,32.0
157.298,11.362,9.317,21.0
157.329,11.346,8.396,21.0
112.067,8.067,5.334,14.0
157.557,11.322,6.59,15.0
67.513,4.847,4.673,31.0
70.878,5.079,4.496,28.0
157.522,11.267,9.083,23.0
33.366,2.382,1.728,52.0
114.957,8.191,5.29,2.0
157.843,11.227,6.355,28.0
67.541,4.8,4.57,31.0
157.663,11.181,9.755,24.0
157.774,11.166,8.851,7.0
33.383,2.358,1.677,125.0
115.127,8.116,5.12,21.0
157.871,11.109,6.113,39.0
67.642,4.754,4.47,29.0
172.883,12.125,10.428,25.0
33.419,2.338,1.822,0.0
33.384,2.331,1.625,1.0
157.787,10.998,6.774,29.0
157.899,10.985,5.87,39.0
67.524,4.69,4.358,30.0
67.363,4.669,3.959,6.0
33.399,2.309,1.77,6.0
121.129,8.359,5.709,5.0
157.867,10.871,6.532,39.0
157.961,10.854,5.627,39.0
67.377,4.621,4.244,27.0
128.449,8.789,7.348,9.0
33.377,2.279,1.717,37.0
118.055,8.042,5.381,26.0
157.993,10.738,6.292,38.0
157.988,10.715,5.385,33.0
67.352,4.559,4.138,18.0
128.572,8.682,7.157,28.0
33.409,2.25,1.667,28.0
118.129,7.938,5.203,7.0
158.022,10.596,6.053,41.0
158.067,10.574,5.147,39.0
67.205,4.486,4.026,21.0
128.387,8.549,6.953,27.0
157.895,10.487,7.64,36.0
157.964,10.467,6.72,45.0
158.072,10.448,5.816,45.0
158.125,10.425,4.91,80.0
67.022,4.408,3.914,26.0
33.414,2.192,1.758,16.0
157.935,10.333,7.403,24.0
158.035,10.314,6.484,38.0
158.112,10.292,5.578,33.0
158.143,10.267,4.67,40.0
128.432,8.315,7.304,24.0
33.399,2.156,1.707,4.0
33.433,2.152,1.516,1.0
158.128,10.153,6.247,37.0
158.107,10.126,5.339,29.0
158.106,10.099,4.433,29.0
128.208,8.164,7.097,20.0
158.034,10.033,7.839,25.0
33.439,2.117,1.466,2.0
33.452,2.111,1.271,3.0
33.373,2.1,1.076,0.0
33.441,2.099,0.887,2.0
128.366,8.033,6.914,31.0
158.003,9.859,7.602,14.0
33.432,2.079,1.416,4.0
33.41,2.071,1.22,28.0
33.468,2.069,1.029,152.0
33.434,2.06,0.837,11.0
128.226,7.875,6.713,30.0
158.195,9.686,7.372,13.0
33.439,2.04,1.366,6.0
33.434,2.033,1.17,1.0
158.511,9.612,4.64,4.0
157.219,9.505,3.701,5.0
127.648,7.688,6.492,32.0
33.43,2.006,1.508,1.0
158.354,9.473,6.235,17.0
157.181,9.373,5.272,13.0
164.085,9.753,4.564,10.0
162.286,9.614,3.583,8.0
33.456,1.974,1.652,11.0
162.11,9.532,7.078,15.0
158.162,9.267,5.999,17.0
162.164,9.47,5.204,11.0
157.424,9.161,4.149,5.0
162.448,9.421,3.352,4.0
162.068,9.359,7.772,36.0
157.235,9.047,6.638,19.0
157.909,9.052,5.76,17.0
162.301,9.27,4.975,15.0
162.768,9.265,4.058,3.0
163.357,9.264,3.137,5.0
162.26,9.159,7.549,22.0
157.861,8.875,6.438,23.0
157.345,8.813,5.514,16.0
163.205,9.106,4.768,7.0
163.024,9.062,3.83,24.0
105.873,5.862,1.881,29.0
162.362,8.947,7.322,10.0
157.61,8.65,6.204,14.0
157.269,8.597,5.29,17.0
162.943,8.872,4.531,9.0
162.605,8.818,3.591,9.0
105.835,5.716,1.732,15.0
159.908,8.59,6.985,18.0
159.73,8.543,6.062,6.0
162.299,8.646,5.231,13.0
156.656,8.311,4.138,14.0
162.543,8.587,3.365,13.0
105.855,5.57,1.587,150.0
157.363,8.234,6.659,5.0
157.493,8.206,5.764,11.0
157.206,8.154,4.853,11.0
167.209,8.635,4.19,8.0
0.0,0.0,0.0,0.0
105.809,5.416,1.442,45.0
167.072,8.501,6.841,16.0
156.626,7.932,5.518,16.0
156.446,7.888,4.618,21.0
0.0,0.0,0.0,0.0
0.0,0.0,0.0,0.0
81.838,4.07,1.006,9.0
157.45,7.781,6.238,19.0
156.509,7.696,5.305,18.0
156.31,7.649,4.406,6.0
0.0,0.0,0.0,0.0
0.0,0.0,0.0,0.0
78.428,3.782,0.86,14.0
157.577,7.55,6.035,23.0
156.495,7.46,5.101,10.0
159.379,7.56,4.284,3.0
0.0,0.0,0.0,0.0
105.801,4.967,1.627,2.0
77.751,3.632,0.752,53.0
157.152,7.29,5.817,22.0
156.078,7.2,4.886,8.0
0.0,0.0,0.0,0.0
0.0,0.0,0.0,0.0
96.398,4.376,1.359,2.0
0.0,0.0,0.0,0.0
158.354,7.099,5.661,4.0
159.961,7.129,4.806,4.0
0.0,0.0,0.0,0.0
0.0,0.0,0.0,0.0
95.933,4.203,1.233,3.0
73.65,3.209,0.527,11.0
156.682,6.772,5.404,15.0
173.49,7.452,4.995,11.0
0.0,0.0,0.0,0.0
0.0,0.0,0.0,0.0
79.601,3.358,0.924,8.0
58.965,2.472,0.349,32.0
173.193,7.201,5.76,10.0
173.327,7.162,4.778,5.0
0.0,0.0,0.0,0.0
0.0,0.0,0.0,0.0
78.315,3.175,0.814,28.0
55.234,2.224,0.26,28.0
161.833,6.46,5.188,11.0
0.0,0.0,0.0,0.0
0.0,0.0,0.0,0.0
100.988,3.951,1.504,1.0
77.739,3.02,0.716,53.0
54.447,2.101,0.192,28.0
158.327,6.053,4.89,8.0
0.0,0.0,0.0,0.0
0.0,0.0,0.0,0.0
0.0,0.0,0.0,0.0
77.472,2.877,0.624,8.0
48.99,1.807,0.116,23.0
160.392,5.858,4.771,17.0
0.0,0.0,0.0,0.0
0.0,0.0,0.0,0.0
95.705,3.415,1.205,4.0
73.942,2.618,0.512,10.0
47.941,1.684,0.06,24.0
159.174,5.535,4.555,13.0
0.0,0.0,0.0,0.0
0.0,0.0,0.0,0.0
79.462,2.695,0.912,7.0
59.641,2.006,0.346,33.0
46.761,1.559,0.006,22.0
168.662,5.564,4.641,6.0
0.0,0.0,0.0,0.0
0.0,0.0,0.0,0.0
78.446,2.522,0.817,24.0
58.948,1.879,0.28,31.0
43.015,1.358,-0.039,4.0
0.0,0.0,0.0,0.0
0.0,0.0,0.0,0.0
100.659,3.083,1.522,3.0
77.826,2.361,0.728,38.0
54.632,1.642,0.202,27.0
40.36,1.201,-0.079,22.0
0.0,0.0,0.0,0.0
0.0,0.0,0.0,0.0
105.95,3.05,1.493,4.0
77.708,2.214,0.647,12.0
52.087,1.47,0.139,9.0
39.387,1.099,-0.117,41.0
0.0,0.0,0.0,0.0
0.0,0.0,0.0,0.0
106.052,2.857,1.389,44.0
74.637,1.988,0.547,18.0
48.473,1.276,0.081,22.0
38.306,0.997,-0.151,40.0
100.333,2.573,2.351,19.0
100.341,2.544,1.784,47.0
106.091,2.657,1.286,58.0
74.34,1.84,0.474,10.0
47.493,1.161,0.034,22.0
0.0,0.0,0.0,0.0
0.0,0.0,0.0,0.0
106.062,2.489,1.786,2.0
80.269,1.858,0.898,10.0
60.506,1.382,0.329,35.0
0.0,0.0,0.0,0.0
37.14,0.825,-0.217,28.0
128.161,2.8,2.764,5.0
89.888,1.936,1.431,4.0
78.176,1.66,0.804,9.0
0.0,0.0,0.0,0.0
40.073,0.825,-0.043,8.0
37.003,0.75,-0.249,12.0
128.043,2.551,2.649,28.0
0.0,0.0,0.0,0.0
77.899,1.501,0.732,19.0
54.513,1.034,0.2,9.0
39.852,0.743,-0.078,15.0
36.861,0.676,-0.279,9.0
128.077,2.302,2.541,19.0
126.268,2.228,1.793,28.0
77.717,1.347,0.666,18.0
0.0,0.0,0.0,0.0
39.332,0.657,-0.109,38.0
36.968,0.605,-0.311,3.0
189.731,3.04,3.611,21.0
126.221,1.98,1.691,11.0
0.0,0.0,0.0,0.0
47.962,0.722,0.098,50.0
38.733,0.57,-0.138,50.0
37.001,0.533,-0.34,0.0
189.11,2.655,3.451,17.0
121.169,1.661,1.529,15.0
48.12,0.644,0.337,39.0
47.719,0.623,0.061,51.0
38.319,0.488,-0.166,49.0
33.002,0.409,-0.328,1.0
48.187,0.58,0.843,49.0
48.108,0.563,0.571,102.0
48.05,0.547,0.301,85.0
46.955,0.518,0.025,34.0
38.081,0.408,-0.192,39.0
32.308,0.335,-0.344,1.0
48.108,0.483,0.808,110.0
48.077,0.466,0.537,99.0
48.038,0.449,0.267,103.0
0.0,0.0,0.0,0.0
37.979,0.33,-0.218,16.0
31.519,0.264,-0.358,1.0
48.091,0.385,0.775,114.0
48.089,0.369,0.505,88.0
48.114,0.353,0.235,46.0
44.745,0.313,-0.035,21.0
37.915,0.252,-0.243,12.0
31.056,0.196,-0.373,2.0
48.198,0.287,0.745,46.0
59.306,0.334,0.585,27.0
55.019,0.291,0.234,60.0
44.178,0.218,-0.063,18.0
37.843,0.174,-0.266,11.0
30.432,0.13,-0.384,2.0
79.475,0.311,1.181,151.0
79.451,0.285,0.736,150.0
59.152,0.191,0.217,6.0
43.812,0.126,-0.088,4.0
38.057,0.096,-0.29,2.0
30.037,0.065,-0.397,2.0
79.469,0.146,1.135,151.0
79.44,0.118,0.69,89.0
54.78,0.062,0.17,8.0
40.755,0.032,-0.105,17.0
38.264,0.017,-0.312,1.0
29.79,0.003,-0.41,2.0
79.469,-0.018,1.092,152.0
79.275,-0.046,0.647,32.0
0.0,0.0,0.0,0.0
40.531,-0.051,-0.125,17.0
34.302,-0.055,-0.298,0.0
29.513,-0.058,-0.421,2.0
79.462,-0.183,1.053,151.0
79.27,-0.211,0.607,34.0
0.0,0.0,0.0,0.0
41.174,-0.138,-0.147,16.0
33.865,-0.125,-0.31,1.0
29.288,-0.118,-0.431,2.0
79.468,-0.349,1.016,151.0
76.763,-0.364,0.553,12.0
0.0,0.0,0.0,0.0
40.664,-0.222,-0.164,5.0
33.484,-0.194,-0.321,1.0
28.95,-0.178,-0.439,2.0
79.462,-0.516,0.982,177.0
76.993,-0.527,0.522,12.0
54.703,-0.394,0.066,2.0
47.342,-0.359,-0.21,9.0
33.056,-0.262,-0.331,1.0
28.78,-0.238,-0.448,2.0
79.456,-0.684,0.95,184.0
77.449,-0.694,0.495,15.0
54.582,-0.509,0.045,6.0
43.852,-0.424,-0.211,4.0
32.723,-0.328,-0.339,1.0
28.556,-0.297,-0.455,5.0
79.454,-0.852,0.922,152.0
77.92,-0.864,0.471,10.0
60.784,-0.695,0.03,2.0
42.491,-0.501,-0.219,3.0
32.362,-0.393,-0.346,1.0
28.226,-0.353,-0.459,2.0
86.971,-1.115,0.982,106.0
78.584,-1.035,0.451,5.0
57.878,-0.783,0.011,2.0
42.833,-0.595,-0.233,2.0
32.188,-0.459,-0.354,1.0
28.052,-0.41,-0.464,1.0
123.738,-1.848,1.363,10.0
91.473,-1.4,0.5,1.0
61.477,-0.963,-0.004,1.0
40.184,-0.643,-0.229,5.0
31.809,-0.521,-0.358,1.0
27.898,-0.467,-0.468,1.0
40.282,-0.686,0.434,40.0
40.258,-0.7,0.211,54.0
40.291,-0.716,-0.012,69.0
40.219,-0.729,-0.238,13.0
31.463,-0.582,-0.361,1.0
27.746,-0.523,-0.472,1.0
40.237,-0.771,0.425,60.0
40.298,-0.787,0.203,39.0
56.477,-1.123,-0.027,1.0
40.209,-0.814,-0.246,5.0
31.562,-0.651,-0.367,1.0
27.659,-0.58,-0.475,1.0
40.304,-0.857,0.419,2.0
0.0,0.0,0.0,0.0
40.29,-0.887,-0.025,3.0
40.242,-0.901,-0.252,12.0
31.315,-0.713,-0.369,1.0
27.407,-0.634,-0.474,4.0
40.315,-0.943,0.414,150.0
40.293,-0.957,0.191,31.0
40.381,-0.974,-0.03,0.0
40.326,-0.988,-0.257,4.0
31.309,-0.779,-0.372,1.0
27.418,-0.692,-0.477,2.0
40.209,-1.025,0.409,54.0
40.217,-1.041,0.188,45.0
40.997,-1.076,-0.034,160.0
40.686,-1.083,-0.262,33.0
31.178,-0.841,-0.373,2.0
27.497,-0.752,-0.48,1.0
40.218,-1.111,0.407,45.0
40.202,-1.125,0.186,46.0
40.199,-1.14,-0.035,65.0
40.109,-1.152,-0.26,10.0
31.249,-0.909,-0.374,1.0
27.456,-0.809,-0.48,2.0
0.0,0.0,0.0,0.0
0.0,0.0,0.0,0.0
0.0,0.0,0.0,0.0
40.339,-1.243,-0.261,6.0
31.424,-0.98,-0.376,1.0
27.496,-0.868,-0.481,1.0
126.648,-4.029,1.285,2.0
0.0,0.0,0.0,0.0
0.0,0.0,0.0,0.0
39.547,-1.301,-0.254,0.0
31.464,-1.047,-0.375,1.0
27.498,-0.926,-0.479,2.0
0.0,0.0,0.0,0.0
0.0,0.0,0.0,0.0
53.508,-1.853,-0.041,0.0
40.105,-1.404,-0.255,6.0
31.608,-1.118,-0.374,1.0
27.557,-0.985,-0.478,2.0
0.0,0.0,0.0,0.0
0.0,0.0,0.0,0.0
40.125,-1.473,-0.026,2.0
40.078,-1.487,-0.25,74.0
31.526,-1.181,-0.37,1.0
27.749,-1.05,-0.477,2.0
0.0,0.0,0.0,0.0
0.0,0.0,0.0,0.0
37.817,-1.466,-0.019,18.0
37.787,-1.48,-0.23,150.0
31.839,-1.258,-0.368,1.0
27.91,-1.113,-0.476,1.0
126.391,-5.067,1.34,2.0
0.0,0.0,0.0,0.0
0.0,0.0,0.0,0.0
42.283,-1.742,-0.25,3.0
31.99,-1.329,-0.364,1.0
28.141,-1.18,-0.474,2.0
0.0,0.0,0.0,0.0
0.0,0.0,0.0,0.0
0.0,0.0,0.0,0.0
40.598,-1.756,-0.231,0.0
33.446,-1.459,-0.373,3.0
28.218,-1.241,-0.469,2.0
0.0,0.0,0.0,0.0
0.0,0.0,0.0,0.0
0.0,0.0,0.0,0.0
0.0,0.0,0.0,0.0
33.505,-1.53,-0.364,10.0
28.482,-1.311,-0.465,2.0
0.0,0.0,0.0,0.0
0.0,0.0,0.0,0.0
0.0,0.0,0.0,0.0
0.0,0.0,0.0,0.0
33.372,-1.592,-0.353,4.0
28.626,-1.376,-0.459,7.0
0.0,0.0,0.0,0.0
0.0,0.0,0.0,0.0
59.997,-2.939,0.045,2.0
44.972,-2.219,-0.215,0.0
33.536,-1.667,-0.343,0.0
28.846,-1.444,-0.452,8.0
0.0,0.0,0.0,0.0
0.0,0.0,0.0,0.0
59.607,-3.039,0.066,3.0
0.0,0.0,0.0,0.0
34.561,-1.786,-0.341,0.0
28.943,-1.507,-0.443,7.0
0.0,0.0,0.0,0.0
0.0,0.0,0.0,0.0
59.547,-3.153,0.09,3.0
0.0,0.0,0.0,0.0
0.0,0.0,0.0,0.0
29.421,-1.59,-0.438,1.0
0.0,0.0,0.0,0.0
0.0,0.0,0.0,0.0
62.313,-3.422,0.121,9.0
50.395,-2.785,-0.18,0.0
0.0,0.0,0.0,0.0
29.623,-1.658,-0.428,1.0
0.0,0.0,0.0,0.0
0.0,0.0,0.0,0.0
62.885,-3.574,0.151,1.0
50.461,-2.886,-0.157,4.0
37.3,-2.147,-0.318,0.0
30.081,-1.742,-0.42,1.0
0.0,0.0,0.0,0.0
0.0,0.0,0.0,0.0
0.0,0.0,0.0,0.0
50.469,-2.983,-0.131,11.0
37.737,-2.244,-0.302,0.0
30.694,-1.836,-0.412,1.0
187.36,-11.235,2.676,19.0
0.0,0.0,0.0,0.0
0.0,0.0,0.0,0.0
50.448,-3.077,-0.104,9.0
39.48,-2.422,-0.295,0.0
31.278,-1.93,-0.403,1.0
187.324,-11.585,2.78,54.0
0.0,0.0,0.0,0.0
0.0,0.0,0.0,0.0
50.45,-3.172,-0.075,1.0
40.709,-2.574,-0.281,0.0
31.927,-2.03,-0.393,1.0
187.119,-11.921,2.889,27.0
0.0,0.0,0.0,0.0
0.0,0.0,0.0,0.0
56.673,-3.669,-0.05,0.0
40.583,-2.642,-0.255,0.0
32.517,-2.128,-0.38,0.0
187.212,-12.275,3.008,151.0
126.369,-8.329,1.348,2.0
0.0,0.0,0.0,0.0
62.085,-4.133,-0.014,1.0
0.0,0.0,0.0,0.0
33.415,-2.248,-0.368,1.0
187.181,-12.611,3.13,28.0
0.0,0.0,0.0,0.0
0.0,0.0,0.0,0.0
62.166,-4.251,0.027,4.0
0.0,0.0,0.0,0.0
34.653,-2.393,-0.358,0.0
0.0,0.0,0.0,0.0
0.0,0.0,0.0,0.0
0.0,0.0,0.0,0.0
61.463,-4.311,0.069,6.0
50.378,-3.55,-0.214,0.0
36.246,-2.566,-0.349,1.0
0.0,0.0,0.0,0.0
0.0,0.0,0.0,0.0
0.0,0.0,0.0,0.0
61.529,-4.422,0.114,3.0
50.541,-3.649,-0.178,0.0
37.56,-2.725,-0.334,0.0
0.0,0.0,0.0,0.0
0.0,0.0,0.0,0.0
0.0,0.0,0.0,0.0
0.0,0.0,0.0,0.0
50.405,-3.726,-0.138,1.0
39.678,-2.946,-0.323,0.0
0.0,0.0,0.0,0.0
148.535,-11.088,2.118,163.0
0.0,0.0,0.0,0.0
0.0,0.0,0.0,0.0
50.453,-3.814,-0.099,1.0
0.0,0.0,0.0,0.0
197.28,-14.998,4.034,5.0
148.412,-11.328,2.238,95.0
0.0,0.0,0.0,0.0
0.0,0.0,0.0,0.0
50.486,-3.901,-0.057,1.0
41.42,-3.213,-0.269,0.0
257.586,-20.006,5.481,20.0
128.162,-9.992,2.038,19.0
0.0,0.0,0.0,0.0
0.0,0.0,0.0,0.0
0.0,0.0,0.0,0.0
0.0,0.0,0.0,0.0
291.185,-23.085,6.446,19.0
0.0,0.0,0.0,0.0
0.0,0.0,0.0,0.0
87.135,-6.985,0.517,4.0
0.0,0.0,0.0,0.0
45.153,-3.648,-0.215,0.0
202.266,-16.357,4.659,15.0
0.0,0.0,0.0,0.0
122.111,-9.945,1.501,44.0
0.0,0.0,0.0,0.0
0.0,0.0,0.0,0.0
50.411,-4.151,-0.194,1.0
191.041,-15.746,4.573,20.0
0.0,0.0,0.0,0.0
122.007,-10.128,1.615,31.0
0.0,0.0,0.0,0.0
0.0,0.0,0.0,0.0
50.34,-4.222,-0.147,1.0
165.06,-13.856,4.107,104.0
165.087,-13.904,3.223,14.0
121.819,-10.293,1.727,4.0
0.0,0.0,0.0,0.0
0.0,0.0,0.0,0.0
50.345,-4.297,-0.099,1.0
189.066,-16.151,4.887,23.0
191.334,-16.398,3.922,9.0
122.067,-10.496,1.849,2.0
121.753,-10.501,1.181,24.0
0.0,0.0,0.0,0.0
0.0,0.0,0.0,0.0
157.385,-13.675,4.223,82.0
157.249,-13.706,3.379,84.0
110.912,-9.695,1.79,6.0
110.672,-9.705,1.184,7.0
89.817,-7.901,0.481,1.0
0.0,0.0,0.0,0.0
188.559,-16.651,5.252,46.0
188.408,-16.686,4.239,42.0
0.0,0.0,0.0,0.0
0.0,0.0,0.0,0.0
0.0,0.0,0.0,0.0
0.0,0.0,0.0,0.0
149.469,-13.404,4.316,36.0
188.199,-16.925,4.429,47.0
0.0,0.0,0.0,0.0
108.611,-9.823,1.387,104.0
108.994,-9.886,0.809,3.0
0.0,0.0,0.0,0.0
188.232,-17.136,5.635,33.0
188.453,-17.2,4.636,33.0
109.066,-9.982,2.101,7.0
108.531,-9.96,1.501,70.0
109.038,-10.035,0.927,1.0
0.0,0.0,0.0,0.0
187.904,-17.351,5.827,45.0
188.291,-17.429,4.834,48.0
188.406,-17.485,3.833,21.0
108.505,-10.096,1.618,30.0
108.645,-10.137,1.041,45.0
0.0,0.0,0.0,0.0
148.824,-13.931,4.779,74.0
149.456,-14.024,4.001,29.0
188.251,-17.709,4.036,25.0
102.052,-9.623,1.635,1.0
100.834,-9.532,1.077,1.0
90.919,-8.616,0.487,2.0
149.844,-14.21,4.978,61.0
149.039,-14.166,4.156,58.0
149.57,-14.249,3.373,39.0
0.0,0.0,0.0,0.0
100.727,-9.642,1.189,24.0
91.44,-8.775,0.593,1.0
188.554,-18.108,6.478,25.0
149.07,-14.346,4.327,48.0
149.478,-14.417,3.541,103.0
0.0,0.0,0.0,0.0
97.296,-9.426,1.26,1.0
0.0,0.0,0.0,0.0
188.807,-18.348,6.703,19.0
148.76,-14.485,4.488,28.0
187.62,-18.307,4.66,52.0
0.0,0.0,0.0,0.0
96.414,-9.449,1.359,3.0
96.382,-9.466,0.846,1.0
148.254,-14.571,5.435,16.0
148.692,-14.642,4.659,42.0
187.784,-18.528,4.883,49.0
187.772,-18.565,3.865,23.0
95.778,-9.488,1.462,5.0
95.221,-9.453,0.946,4.0
148.229,-14.726,5.607,19.0
148.553,-14.786,4.828,44.0
188.072,-18.754,5.112,54.0
190.564,-19.039,4.145,8.0
95.465,-9.555,1.569,4.0
94.521,-9.48,1.051,17.0
148.013,-14.857,5.776,34.0
148.452,-14.927,5.002,71.0
188.239,-18.962,5.341,55.0
188.004,-18.971,4.316,41.0
95.665,-9.671,1.688,3.0
89.709,-9.086,1.106,2.0
124.742,-12.643,5.017,23.0
148.412,-15.067,5.178,55.0
188.093,-19.128,5.562,52.0
188.023,-19.152,4.541,51.0
89.14,-9.096,1.679,5.0
88.479,-9.045,1.197,4.0
123.063,-12.59,5.099,17.0
148.419,-15.207,5.361,51.0
187.974,-19.29,5.789,42.0
157.529,-16.192,3.998,122.0
96.157,-9.9,1.93,4.0
87.0,-8.973,1.285,8.0
106.696,-11.012,4.554,69.0
148.388,-15.337,5.543,34.0
187.881,-19.449,6.019,25.0
187.499,-19.437,4.991,38.0
96.173,-9.985,2.049,7.0
86.712,-9.017,1.387,9.0
107.239,-11.16,4.71,72.0
122.884,-12.805,4.742,79.0
189.337,-19.758,6.3,25.0
187.741,-19.617,5.23,30.0
188.383,-19.713,4.246,24.0
86.59,-9.074,1.492,8.0
115.781,-12.143,5.229,16.0
107.213,-11.258,4.272,86.0
189.503,-19.925,6.541,27.0
187.835,-19.774,5.466,25.0
188.394,-19.86,4.483,32.0
86.507,-9.132,1.598,25.0
108.049,-11.416,5.014,23.0
107.337,-11.352,4.41,96.0
107.37,-11.37,3.84,48.0
188.104,-19.944,5.71,34.0
123.587,-13.12,3.096,34.0
86.651,-9.21,1.71,16.0
115.332,-12.269,5.499,24.0
107.906,-11.491,4.569,54.0
107.323,-11.44,3.974,42.0
123.406,-13.17,3.901,13.0
123.533,-13.198,3.248,98.0
86.946,-9.3,1.826,4.0
105.243,-11.267,5.151,22.0
107.921,-11.565,4.706,42.0
123.916,-13.292,4.745,30.0
123.343,-13.243,4.055,57.0
123.501,-13.274,3.405,101.0
123.622,-13.302,2.751,8.0
105.233,-11.333,5.283,19.0
115.584,-12.458,5.187,21.0
107.259,-11.57,4.243,55.0
123.284,-13.312,4.21,31.0
123.455,-13.343,3.559,93.0
123.621,-13.374,2.909,27.0
99.229,-10.745,5.109,32.0
105.559,-11.439,4.873,18.0
107.827,-11.694,4.403,18.0
107.24,-11.639,3.798,77.0
123.428,-13.408,3.714,77.0
123.581,-13.437,3.062,14.0
99.402,-10.818,5.243,67.0
108.233,-11.787,5.133,17.0
149.157,-16.255,6.281,13.0
106.885,-11.657,3.922,72.0
123.42,-13.471,3.873,68.0
187.389,-20.468,4.885,30.0
100.128,-10.948,5.41,57.0
108.196,-11.836,5.269,32.0
105.848,-11.586,4.592,47.0
106.605,-11.677,4.046,40.0
107.388,-11.771,3.506,24.0
187.533,-20.569,5.127,27.0
90.625,-9.95,5.012,7.0
108.239,-11.889,5.41,19.0
105.824,-11.63,4.726,10.0
106.436,-11.703,4.175,49.0
107.264,-11.801,3.638,70.0
187.57,-20.649,5.367,44.0
99.425,-10.957,5.626,3.0
99.243,-10.941,5.087,56.0
148.838,-16.415,6.836,9.0
106.312,-11.73,4.305,50.0
107.057,-11.819,3.766,62.0
107.481,-11.871,3.211,17.0
99.514,-11.003,5.758,9.0
99.531,-11.008,5.227,20.0
108.251,-11.976,5.11,20.0
105.978,-11.729,4.428,48.0
106.718,-11.816,3.89,56.0
107.392,-11.896,3.344,56.0
98.345,-10.905,5.817,19.0
90.576,-10.046,4.873,4.0
99.821,-11.074,4.839,21.0
105.785,-11.738,4.553,54.0
106.473,-11.819,4.015,54.0
107.331,-11.918,3.477,64.0
98.271,-10.924,5.936,36.0
90.647,-10.078,4.992,10.0
99.385,-11.051,4.943,77.0
105.75,-11.761,4.686,70.0
106.42,-11.838,4.149,68.0
107.265,-11.935,3.611,51.0
98.307,-10.951,6.064,14.0
98.388,-10.961,5.542,18.0
99.232,-11.055,5.061,25.0
105.745,-11.781,4.818,75.0
106.323,-11.847,4.278,50.0
107.204,-11.947,3.743,33.0
98.361,-10.975,6.19,7.0
98.37,-10.976,5.664,49.0
108.111,-12.062,5.649,47.0
105.634,-11.785,4.944,32.0
106.206,-11.85,4.405,30.0
115.945,-12.937,4.191,15.0
81.551,-9.111,5.234,6.0
98.325,-10.983,5.786,41.0
107.839,-12.045,5.769,23.0
99.892,-11.155,4.8,97.0
106.024,-11.84,4.53,27.0
106.531,-11.896,3.983,22.0
81.666,-9.131,5.344,10.0
86.085,-9.623,5.172,10.0
98.456,-11.004,5.387,31.0
99.361,-11.102,4.897,66.0
106.031,-11.846,4.659,53.0
106.512,-11.899,4.113,39.0
104.234,-11.659,6.948,10.0
101.346,-11.333,6.213,9.0
98.413,-11.002,5.507,47.0
99.257,-11.093,5.014,34.0
106.042,-11.849,4.789,105.0
106.365,-11.882,4.237,34.0
86.313,-9.655,5.86,6.0
101.257,-11.322,6.333,12.0
98.384,-10.996,5.626,50.0
108.21,-12.091,5.598,34.0
105.691,-11.805,4.903,49.0
106.26,-11.866,4.363,31.0
86.33,-9.654,5.966,9.0
98.441,-11.002,6.276,7.0
98.335,-10.985,5.743,46.0
107.889,-12.047,5.713,28.0
100.039,-11.166,4.761,66.0
106.03,-11.83,4.479,28.0
89.113,-9.957,6.266,4.0
81.584,-9.11,5.298,10.0
98.328,-10.974,5.859,30.0
107.776,-12.022,5.833,17.0
99.669,-11.113,4.861,94.0
105.853,-11.796,4.597,47.0
68.367,-7.63,4.888,6.0
81.513,-9.091,5.39,6.0
98.272,-10.953,5.971,18.0
90.625,-10.094,5.011,11.0
99.284,-11.053,4.957,59.0
105.752,-11.766,4.715,64.0
84.31,-9.395,6.127,16.0
101.263,-11.275,6.814,5.0
98.245,-10.931,6.083,18.0
98.388,-10.939,5.553,7.0
99.257,-11.029,5.07,34.0
105.716,-11.739,4.835,24.0
0.0,0.0,0.0,0.0
86.308,-9.59,5.907,9.0
91.419,-10.15,5.766,21.0
98.379,-10.914,5.666,7.0
108.161,-11.99,5.649,16.0
108.261,-11.993,5.074,16.0
84.415,-9.365,6.329,22.0
86.319,-9.567,6.008,5.0
98.068,-10.86,6.298,17.0
86.069,-9.523,5.055,12.0
99.414,-10.991,5.304,14.0
108.209,-11.954,5.193,51.0
84.183,-9.314,6.406,18.0
68.381,-7.558,4.835,3.0
81.573,-9.007,5.328,8.0
85.947,-9.481,5.143,11.0
90.517,-9.976,4.93,7.0
108.204,-11.915,5.312,43.0
83.943,-9.258,6.482,20.0
68.377,-7.532,4.911,5.0
97.803,-10.762,6.497,26.0
98.209,-10.796,5.985,11.0
90.424,-9.93,5.024,9.0
99.248,-10.889,4.98,22.0
83.962,-9.226,6.576,18.0
68.314,-7.498,4.981,4.0
97.701,-10.711,6.596,21.0
98.196,-10.753,6.089,10.0
90.18,-9.864,5.107,4.0
99.244,-10.845,5.086,48.0
83.872,-9.18,6.658,14.0
84.047,-9.187,6.217,16.0
97.659,-10.662,6.696,15.0
98.417,-10.732,6.207,10.0
86.058,-9.374,4.963,4.0
99.278,-10.801,5.19,53.0
83.816,-9.134,6.741,15.0
82.625,-8.992,6.197,9.0
97.683,-10.616,6.798,14.0
81.504,-8.846,5.224,10.0
86.056,-9.329,5.051,9.0
99.23,-10.744,5.289,23.0
83.692,-9.076,6.817,14.0
82.503,-8.935,6.273,5.0
90.85,-9.825,6.415,2.0
81.415,-8.792,5.3,10.0
86.009,-9.276,5.134,8.0
99.414,-10.708,5.398,6.0
69.028,-7.447,5.692,10.0
69.2,-7.454,5.33,4.0
68.428,-7.361,4.899,4.0
99.171,-10.652,6.553,12.0
100.184,-10.746,6.078,32.0
118.162,-12.658,6.529,10.0
83.629,-8.973,6.976,10.0
68.874,-7.378,5.371,9.0
84.343,-9.021,6.118,5.0
86.406,-9.227,5.791,3.0
100.033,-10.667,6.162,38.0
104.572,-11.135,5.876,14.0
69.049,-7.364,5.826,11.0
68.938,-7.34,5.441,9.0
82.473,-8.767,6.06,7.0
86.233,-9.152,5.86,6.0
99.212,-10.513,6.203,21.0
102.142,-10.807,5.833,8.0
69.018,-7.314,5.886,8.0
68.862,-7.285,5.497,12.0
97.084,-10.253,7.222,13.0
100.474,-10.593,6.917,17.0
81.501,-8.579,5.169,8.0
99.262,-10.431,5.757,44.0
68.977,-7.261,5.944,5.0
68.782,-7.227,5.551,9.0
100.337,-10.524,7.552,13.0
86.024,-9.007,5.997,7.0
81.565,-8.525,5.242,8.0
86.261,-9.0,5.077,5.0
78.242,-8.177,6.809,4.0
69.026,-7.2,5.63,10.0
82.992,-8.641,6.317,2.0
86.133,-8.951,6.078,7.0
81.44,-8.449,5.302,4.0
86.22,-8.928,5.146,10.0
78.427,-8.134,6.892,2.0
68.784,-7.12,5.668,7.0
83.807,-8.658,6.447,9.0
82.478,-8.504,5.887,9.0
99.384,-10.228,6.553,6.0
86.206,-8.855,5.214,10.0
83.421,-8.583,7.397,2.0
68.916,-7.076,5.734,10.0
96.385,-9.876,7.492,5.0
82.164,-8.402,5.929,7.0
99.255,-10.13,6.621,6.0
86.228,-8.783,5.282,9.0
84.952,-8.668,7.599,15.0
68.899,-7.014,5.785,8.0
97.104,-9.864,7.622,6.0
84.446,-8.56,6.158,4.0
99.367,-10.053,6.702,5.0
99.434,-10.04,6.164,34.0
85.055,-8.601,7.672,7.0
68.585,-6.92,5.809,3.0
98.278,-9.895,7.785,9.0
81.827,-8.221,6.025,5.0
82.754,-8.296,5.641,6.0
99.446,-9.949,6.235,20.0
69.679,-6.982,6.334,3.0
77.721,-7.77,6.637,6.0
98.594,-9.833,7.879,5.0
84.525,-8.411,6.282,8.0
82.716,-8.213,5.695,20.0
99.678,-9.875,6.317,15.0
90.069,-8.937,8.249,3.0
77.626,-7.684,6.681,4.0
109.837,-10.847,8.85,5.0
97.445,-9.6,7.307,7.0
99.503,-9.781,6.916,9.0
98.93,-9.702,6.334,35.0
89.996,-8.84,8.3,2.0
76.114,-7.458,6.6,4.0
96.727,-9.455,7.855,3.0
84.943,-8.283,6.421,8.0
86.719,-8.436,6.079,3.0
81.774,-7.936,5.285,6.0
84.958,-8.257,7.888,3.0
77.811,-7.543,6.794,3.0
96.627,-9.343,7.904,4.0
97.293,-9.385,7.413,7.0
84.125,-8.095,5.947,32.0
86.336,-8.288,5.629,3.0
84.714,-8.144,7.914,8.0
80.375,-7.706,7.064,3.0
84.618,-8.092,6.969,8.0
97.923,-9.34,7.515,18.0
86.876,-8.265,6.188,3.0
86.321,-8.192,5.674,2.0
84.871,-8.066,7.974,8.0
80.357,-7.616,7.104,3.0
96.62,-9.134,8.008,5.0
97.39,-9.183,7.523,8.0
98.742,-9.286,7.084,15.0
86.413,-8.106,5.723,6.0
99.895,-9.383,9.435,28.0
80.475,-7.538,7.154,1.0
95.987,-8.966,8.002,9.0
98.831,-9.206,7.682,21.0
84.425,-7.843,6.096,5.0
86.375,-8.004,5.76,7.0
97.838,-9.077,9.287,17.0
98.346,-9.098,8.788,5.0
84.539,-7.8,7.085,9.0
84.014,-7.729,6.568,12.0
87.023,-7.984,6.321,3.0
98.587,-9.021,6.617,8.0
98.01,-8.979,9.344,4.0
84.543,-7.722,7.59,5.0
85.882,-7.822,7.232,4.0
105.843,-9.613,8.316,9.0
98.175,-8.891,7.17,6.0
86.664,-7.827,5.849,2.0
98.625,-8.918,9.44,13.0
84.565,-7.623,7.623,10.0
96.995,-8.718,8.204,8.0
85.147,-7.63,6.721,13.0
106.28,-9.496,7.8,11.0
98.057,-8.737,6.653,9.0
98.559,-8.791,9.468,6.0
84.521,-7.515,7.649,10.0
96.873,-8.587,8.227,9.0
105.646,-9.337,8.373,10.0
105.833,-9.325,7.8,23.0
87.322,-7.671,5.952,5.0
99.8,-8.777,9.618,13.0
0.0,0.0,0.0,0.0
107.905,-9.429,9.195,4.0
84.952,-7.399,6.758,4.0
86.432,-7.506,6.395,7.0
97.805,-8.468,6.693,5.0
99.613,-8.633,9.627,5.0
105.685,-9.128,9.624,8.0
105.69,-9.099,9.034,13.0
84.647,-7.264,6.754,18.0
97.11,-8.307,7.208,5.0
108.041,-9.214,7.419,6.0
108.048,-9.222,10.468,6.0
97.084,-8.258,8.862,3.0
106.283,-9.012,9.107,14.0
86.467,-7.308,6.917,4.0
85.086,-7.168,6.332,7.0
121.197,-10.177,8.345,6.0
106.722,-8.969,10.359,10.0
106.22,-8.896,9.715,9.0
97.023,-8.099,8.33,1.0
105.66,-8.79,8.47,10.0
85.144,-7.06,6.35,7.0
100.804,-8.331,6.956,4.0
99.675,-8.244,9.69,1.0
0.0,0.0,0.0,0.0
98.249,-8.07,8.448,6.0
107.732,-8.818,8.65,6.0
108.03,-8.813,8.07,9.0
108.728,-8.84,7.515,8.0
106.791,-8.688,10.393,1.0
107.636,-8.726,9.87,4.0
107.741,-8.704,9.274,12.0
108.457,-8.731,8.716,5.0
100.199,-8.037,7.493,4.0
108.647,-8.685,7.517,7.0
0.0,0.0,0.0,0.0
105.538,-8.41,9.682,2.0
107.193,-8.51,9.233,5.0
108.345,-8.571,8.713,6.0
114.61,-9.035,8.573,4.0
108.816,-8.548,7.532,11.0
0.0,0.0,0.0,0.0
0.0,0.0,0.0,0.0
106.02,-8.271,9.132,7.0
108.133,-8.404,8.695,3.0
148.709,-11.517,11.123,14.0
108.77,-8.393,7.527,18.0
0.0,0.0,0.0,0.0
0.0,0.0,0.0,0.0
0.0,0.0,0.0,0.0
108.352,-8.27,8.708,2.0
208.252,-15.836,15.567,10.0
107.437,-8.139,7.429,4.0
0.0,0.0,0.0,0.0
0.0,0.0,0.0,0.0
108.459,-8.155,9.329,8.0
148.075,-11.09,11.888,3.0
108.862,-8.122,8.127,6.0
149.251,-11.094,10.304,10.0
0.0,0.0,0.0,0.0
0.0,0.0,0.0,0.0
108.594,-8.007,9.328,2.0
109.059,-8.01,8.741,2.0
207.103,-15.152,15.433,11.0
206.794,-15.07,14.249,12.0
0.0,0.0,0.0,0.0
0.0,0.0,0.0,0.0
0.0,0.0,0.0,0.0
108.838,-7.838,8.705,9.0
209.346,-15.015,15.563,8.0
206.899,-14.78,14.217,20.0
0.0,0.0,0.0,0.0
0.0,0.0,0.0,0.0
0.0,0.0,0.0,0.0
0.0,0.0,0.0,0.0
109.02,-7.659,8.08,6.0
207.716,-14.534,14.225,11.0
0.0,0.0,0.0,0.0
0.0,0.0,0.0,0.0
0.0,0.0,0.0,0.0
0.0,0.0,0.0,0.0
0.0,0.0,0.0,0.0
162.756,-11.15,11.102,5.0
0.0,0.0,0.0,0.0
0.0,0.0,0.0,0.0
0.0,0.0,0.0,0.0
0.0,0.0,0.0,0.0
0.0,0.0,0.0,0.0
148.334,-9.941,10.072,8.0
0.0,0.0,0.0,0.0
0.0,0.0,0.0,0.0
0.0,0.0,0.0,0.0
0.0,0.0,0.0,0.0
0.0,0.0,0.0,0.0
210.2,-13.776,14.198,5.0
0.0,0.0,0.0,0.0
0.0,0.0,0.0,0.0
0.0,0.0,0.0,0.0
0.0,0.0,0.0,0.0
0.0,0.0,0.0,0.0
0.0,0.0,0.0,0.0
0.0,0.0,0.0,0.0
0.0,0.0,0.0,0.0
0.0,0.0,0.0,0.0
0.0,0.0,0.0,0.0
0.0,0.0,0.0,0.0
0.0,0.0,0.0,0.0
0.0,0.0,0.0,0.0
0.0,0.0,0.0,0.0
0.0,0.0,0.0,0.0
0.0,0.0,0.0,0.0
0.0,0.0,0.0,0.0
0.0,0.0,0.0,0.0
0.0,0.0,0.0,0.0
0.0,0.0,0.0,0.0
0.0,0.0,0.0,0.0
0.0,0.0,0.0,0.0
0.0,0.0,0.0,0.0
0.0,0.0,0.0,0.0
0.0,0.0,0.0,0.0
0.0,0.0,0.0,0.0
0.0,0.0,0.0,0.0
0.0,0.0,0.0,0.0
0.0,0.0,0.0,0.0
0.0,0.0,0.0,0.0
0.0,0.0,0.0,0.0
0.0,0.0,0.0,0.0
0.0,0.0,0.0,0.0
0.0,0.0,0.0,0.0
0.0,0.0,0.0,0.0
0.0,0.0,0.0,0.0
0.0,0.0,0.0,0.0
0.0,0.0,0.0,0.0
0.0,0.0,0.0,0.0
92.98,-5.165,6.996,3.0
92.827,-5.131,6.454,1.0
0.0,0.0,0.0,0.0
92.325,-5.067,8.48,4.0
0.0,0.0,0.0,0.0
82.974,-4.507,6.669,3.0
91.518,-4.946,6.823,4.0
92.984,-4.999,6.401,1.0
0.0,0.0,0.0,0.0
90.822,-4.847,8.277,1.0
0.0,0.0,0.0,0.0
98.519,-5.202,7.847,1.0
93.032,-4.887,6.868,4.0
92.968,-4.859,6.332,4.0
0.0,0.0,0.0,0.0
90.731,-4.706,8.2,3.0
92.597,-4.777,7.836,2.0
83.152,-4.267,6.559,9.0
91.322,-4.661,6.672,3.0
93.025,-4.722,6.263,1.0
0.0,0.0,0.0,0.0
90.798,-4.573,8.134,4.0
92.5,-4.633,7.753,5.0
83.651,-4.167,6.531,6.0
89.933,-4.455,6.496,2.0
91.167,-4.491,6.063,1.0
83.311,-4.082,5.064,0.0
83.913,-4.098,7.445,4.0
92.533,-4.493,7.676,3.0
83.571,-4.035,6.452,5.0
89.81,-4.311,6.409,3.0
91.08,-4.349,5.978,2.0
83.225,-3.952,4.985,2.0
83.913,-3.971,7.37,14.0
92.614,-4.359,7.601,4.0
92.118,-4.31,7.029,4.0
89.725,-4.173,6.323,4.0
90.878,-4.204,5.882,5.0
83.141,-3.824,4.904,1.0
83.485,-3.826,7.254,5.0
97.76,-4.454,7.932,3.0
89.044,-4.033,6.711,1.0
91.375,-4.115,6.352,5.0
90.573,-4.054,5.777,2.0
83.264,-3.706,4.833,2.0
83.285,-3.693,7.156,13.0
90.318,-3.98,7.239,7.0
89.237,-3.908,6.637,4.0
91.275,-3.974,6.255,4.0
92.542,-4.005,5.81,1.0
0.0,0.0,0.0,0.0
91.646,-3.927,7.782,6.0
83.665,-3.563,6.621,4.0
92.861,-3.932,6.813,2.0
91.245,-3.839,6.16,3.0
83.285,-3.483,5.143,4.0
0.0,0.0,0.0,0.0
84.205,-3.484,7.061,4.0
92.869,-3.818,7.251,13.0
83.589,-3.416,6.044,5.0
90.169,-3.661,5.99,11.0
92.791,-3.745,5.631,3.0
0.0,0.0,0.0,0.0
84.207,-3.362,6.969,8.0
83.477,-3.312,6.427,10.0
93.133,-3.671,6.632,16.0
93.023,-3.643,6.077,4.0
97.726,-3.803,5.822,3.0
0.0,0.0,0.0,0.0
84.07,-3.234,6.863,11.0
83.408,-3.188,6.326,12.0
83.286,-3.162,5.835,11.0
93.081,-3.51,5.974,11.0
98.323,-3.684,5.743,4.0
0.0,0.0,0.0,0.0
91.494,-3.388,7.362,15.0
83.24,-3.062,6.215,19.0
93.115,-3.401,6.413,15.0
174.8,-6.344,11.011,34.0
175.379,-6.324,10.038,11.0
0.0,0.0,0.0,0.0
83.192,-2.962,6.592,18.0
83.288,-2.945,6.116,10.0
83.326,-2.926,5.637,8.0
174.704,-6.095,10.792,41.0
0.0,0.0,0.0,0.0
0.0,0.0,0.0,0.0
82.882,-2.834,6.463,16.0
92.1,-3.127,6.648,19.0
83.217,-2.806,5.526,11.0
174.654,-5.85,10.57,32.0
0.0,0.0,0.0,0.0
0.0,0.0,0.0,0.0
83.028,-2.725,6.369,9.0
83.22,-2.712,5.902,27.0
93.114,-3.013,6.064,10.0
98.197,-3.155,5.817,9.0
90.426,-2.884,4.834,3.0
0.0,0.0,0.0,0.0
83.168,-2.616,6.271,11.0
0.0,0.0,0.0,0.0
83.31,-2.583,5.315,25.0
93.175,-2.867,5.396,43.0
0.0,0.0,0.0,0.0
0.0,0.0,0.0,0.0
90.721,-2.73,6.717,14.0
83.53,-2.495,5.7,15.0
83.403,-2.472,5.207,64.0
90.551,-2.664,5.119,48.0
129.251,-3.774,6.558,24.0
0.0,0.0,0.0,0.0
97.057,-2.791,7.051,5.0
90.609,-2.585,6.055,56.0
83.46,-2.362,5.093,34.0
90.444,-2.541,4.986,49.0
178.358,-4.973,8.801,28.0
128.78,-3.562,5.609,23.0
93.385,-2.561,6.65,5.0
92.331,-2.513,6.038,40.0
83.528,-2.255,4.976,44.0
90.462,-2.423,4.857,18.0
177.805,-4.726,8.516,29.0
128.981,-3.4,5.43,39.0
97.479,-2.548,6.799,32.0
128.913,-3.343,8.242,23.0
83.579,-2.149,4.858,33.0
90.535,-2.309,4.728,33.0
129.231,-3.269,5.999,40.0
129.363,-3.246,5.256,41.0
91.692,-2.279,6.258,48.0
129.737,-3.198,8.099,28.0
83.657,-2.045,4.736,51.0
99.01,-2.4,5.022,24.0
129.411,-3.11,5.812,36.0
193.08,-4.601,7.551,21.0
84.78,-2.001,5.656,37.0
91.453,-2.139,5.569,39.0
92.14,-2.136,5.074,32.0
99.055,-2.276,4.869,23.0
185.3,-4.223,8.033,13.0
185.597,-4.192,6.971,32.0
84.053,-1.879,5.475,41.0
91.461,-2.026,5.425,35.0
91.419,-2.008,4.891,15.0
90.598,-1.972,4.311,50.0
191.611,-4.134,8.005,21.0
185.548,-3.968,6.677,47.0
84.595,-1.789,5.376,70.0
131.217,-2.75,7.574,22.0
91.401,-1.898,4.745,63.0
92.922,-1.912,4.273,21.0
184.037,-3.752,7.395,13.0
184.733,-3.731,6.351,51.0
84.275,-1.683,5.219,36.0
83.796,-1.657,4.7,14.0
91.375,-1.789,4.593,78.0
128.483,-2.493,5.699,31.0
188.51,-3.622,7.265,20.0
184.628,-3.514,6.045,43.0
84.122,-1.582,5.07,34.0
83.821,-1.561,4.563,36.0
90.809,-1.674,4.413,62.0
128.507,-2.346,5.486,36.0
185.911,-3.359,6.855,17.0
151.44,-2.71,4.704,76.0
84.09,-1.486,4.926,30.0
126.973,-2.22,6.697,25.0
91.27,-1.579,4.281,44.0
128.055,-2.193,5.248,15.0
184.61,-3.13,6.494,32.0
151.476,-2.542,4.448,87.0
84.014,-1.391,4.776,48.0
90.859,-1.488,4.636,70.0
91.441,-1.481,4.132,108.0
128.047,-2.051,5.026,42.0
151.43,-2.4,5.062,80.0
151.458,-2.375,4.184,81.0
83.904,-1.297,4.622,46.0
79.187,-1.21,3.9,150.0
91.412,-1.382,3.969,63.0
99.612,-1.489,3.736,13.0
151.456,-2.239,4.797,24.0
183.384,-2.682,4.742,45.0
83.902,-1.209,4.474,52.0
79.21,-1.128,3.761,160.0
91.071,-1.281,3.792,76.0
0.0,0.0,0.0,0.0
86.916,-1.195,2.599,8.0
86.959,-1.182,2.094,7.0
83.898,-1.123,4.324,57.0
85.833,-1.135,3.922,150.0
86.014,-1.123,3.428,150.0
79.351,-1.024,2.693,2.0
79.365,-1.011,2.23,6.0
79.405,-1.0,1.77,37.0
83.865,-1.039,4.17,14.0
79.391,-0.971,3.484,150.0
79.413,-0.96,3.022,150.0
79.417,-0.947,2.551,150.0
79.438,-0.936,2.088,155.0
79.429,-0.923,1.626,189.0
79.299,-0.906,3.797,163.0
79.356,-0.894,3.336,3.0
79.429,-0.884,2.876,151.0
79.427,-0.872,2.404,151.0
79.431,-0.86,1.94,163.0
79.433,-0.848,1.477,175.0
85.834,-0.9,3.948,150.0
79.419,-0.821,3.189,166.0
79.426,-0.809,2.726,151.0
79.436,-0.798,2.254,151.0
79.425,-0.787,1.791,182.0
79.435,-0.776,1.328,181.0
85.941,-0.822,3.79,130.0
79.418,-0.749,3.039,196.0
79.414,-0.738,2.574,151.0
79.426,-0.727,2.103,151.0
79.435,-0.716,1.639,170.0
79.441,-0.706,1.177,172.0
79.426,-0.69,3.35,4.0
79.422,-0.68,2.886,150.0
79.418,-0.669,2.422,150.0
79.427,-0.659,1.951,171.0
79.45,-0.649,1.488,167.0
79.451,-0.638,1.024,168.0
79.442,-0.623,3.197,151.0
79.422,-0.613,2.732,150.0
79.436,-0.603,2.269,151.0
79.421,-0.592,1.796,200.0
79.449,-0.582,1.332,165.0
79.455,-0.572,0.868,173.0
79.427,-0.558,3.04,151.0
79.418,-0.548,2.576,150.0
79.426,-0.539,2.112,168.0
79.429,-0.529,1.639,187.0
79.453,-0.519,1.177,162.0
79.475,-0.51,0.713,151.0
79.423,-0.496,2.882,150.0
79.437,-0.487,2.419,151.0
79.424,-0.477,1.954,183.0
79.445,-0.468,1.483,183.0
79.459,-0.459,1.019,158.0
79.115,-0.448,0.552,11.0
79.414,-0.437,2.723,150.0
79.427,-0.428,2.259,164.0
79.433,-0.419,1.795,187.0
79.44,-0.41,1.324,168.0
79.466,-0.401,0.859,159.0
61.653,-0.304,0.306,5.0
79.423,-0.381,2.565,150.0
79.438,-0.372,2.1,151.0
79.383,-0.363,1.635,255.0
79.447,-0.355,1.164,151.0
79.431,-0.346,0.7,150.0
56.006,-0.238,0.166,23.0
79.438,-0.327,2.406,150.0
79.441,-0.319,1.94,153.0
79.401,-0.31,1.474,255.0
79.468,-0.302,1.003,151.0
76.583,-0.284,0.52,17.0
48.205,-0.173,0.045,8.0
79.44,-0.276,2.242,151.0
79.446,-0.268,1.779,156.0
79.457,-0.26,1.314,159.0
79.472,-0.253,0.841,151.0
61.525,-0.19,0.292,10.0
45.81,-0.137,-0.049,15.0
79.443,-0.228,2.08,151.0
79.439,-0.22,1.616,173.0
79.453,-0.213,1.151,155.0
79.377,-0.206,0.678,145.0
0.0,0.0,0.0,0.0
40.936,-0.098,-0.128,16.0
79.448,-0.182,1.916,151.0
79.449,-0.175,1.452,169.0
79.464,-0.168,0.987,156.0
76.275,-0.155,0.494,17.0
0.0,0.0,0.0,0.0
39.297,-0.073,-0.204,14.0
79.455,-0.14,1.751,151.0
79.454,-0.133,1.286,156.0
79.454,-0.127,0.822,151.0
61.723,-0.093,0.27,15.0
0.0,0.0,0.0,0.0
38.392,-0.052,-0.279,3.0
79.439,-0.1,1.585,162.0
79.46,-0.094,1.121,157.0
79.305,-0.088,0.655,35.0
0.0,0.0,0.0,0.0
40.076,-0.038,-0.141,21.0
33.465,-0.029,-0.313,1.0
79.446,-0.063,1.419,161.0
79.463,-0.057,0.954,170.0
76.105,-0.049,0.468,15.0
0.0,0.0,0.0,0.0
38.922,-0.02,-0.219,14.0
31.274,-0.013,-0.359,1.0
79.462,-0.029,1.252,151.0
79.473,-0.024,0.788,163.0
56.154,-0.013,0.228,8.0
0.0,0.0,0.0,0.0
38.251,-0.004,-0.295,2.0
29.832,-0.001,-0.405,2.0
79.465,0.001,1.084,151.0
79.306,0.006,0.618,17.0
0.0,0.0,0.0,0.0
39.513,0.008,-0.158,35.0
33.058,0.008,-0.326,1.0
28.629,0.009,-0.45,2.0
79.469,0.029,0.914,151.0
75.955,0.032,0.428,10.0
0.0,0.0,0.0,0.0
38.499,0.02,-0.236,11.0
30.892,0.018,-0.37,1.0
27.127,0.017,-0.484,2.0
79.445,0.054,0.746,150.0
58.104,0.043,0.205,5.0
40.799,0.032,-0.094,17.0
37.829,0.031,-0.312,1.0
29.512,0.026,-0.416,2.0
26.141,0.024,-0.522,2.0
76.289,0.073,0.554,26.0
47.906,0.048,0.068,21.0
39.171,0.041,-0.173,29.0
32.707,0.036,-0.339,1.0
28.222,0.032,-0.458,2.0
24.78,0.029,-0.547,1.0
61.919,0.075,0.317,9.0
0.0,0.0,0.0,0.0
38.251,0.049,-0.251,6.0
30.466,0.04,-0.382,1.0
26.864,0.036,-0.494,2.0
23.682,0.033,-0.574,3.0
54.504,0.077,0.162,29.0
40.146,0.058,-0.115,16.0
34.017,0.05,-0.296,0.0
