X,Y,Z,Reflectivity
8.715,0.107,-0.895,0.0
8.343,0.102,-0.905,0.0
7.999,0.097,-0.915,0.0
7.685,0.092,-0.924,0.0
7.304,0.087,-0.92,1.0
9.046,0.104,-0.886,0.0
8.608,0.098,-0.893,0.0
8.28,0.094,-0.907,0.0
7.959,0.089,-0.919,0.0
7.621,0.084,-0.924,0.0
7.28,0.08,-0.925,1.0
8.974,0.096,-0.889,0.0
8.546,0.09,-0.896,0.0
8.189,0.085,-0.906,0.0
7.89,0.081,-0.92,0.0
7.557,0.077,-0.925,0.0
7.287,0.073,-0.934,0.0
8.89,0.087,-0.89,0.0
8.483,0.081,-0.898,0.0
8.155,0.077,-0.911,0.0
7.814,0.073,-0.919,0.0
7.502,0.069,-0.926,0.0
7.224,0.066,-0.933,0.0
8.806,0.077,-0.891,0.0
8.417,0.073,-0.9,0.0
8.062,0.069,-0.908,0.0
7.77,0.065,-0.921,0.0
7.466,0.062,-0.928,0.0
7.168,0.058,-0.933,0.0
8.734,0.068,-0.892,0.0
8.366,0.064,-0.902,0.0
8.037,0.061,-0.913,0.0
7.701,0.057,-0.92,0.0
7.415,0.054,-0.929,0.0
7.131,0.051,-0.935,0.0
8.665,0.059,-0.893,0.0
8.291,0.056,-0.902,0.0
7.978,0.053,-0.914,0.0
7.659,0.049,-0.922,0.0
7.375,0.046,-0.931,0.0
7.088,0.044,-0.936,0.0
8.61,0.051,-0.894,0.0
8.275,0.047,-0.907,0.0
7.925,0.044,-0.915,0.0
7.617,0.041,-0.924,0.0
7.345,0.039,-0.933,0.0
7.058,0.036,-0.938,0.0
8.54,0.041,-0.894,0.0
8.221,0.039,-0.908,0.0
7.893,0.036,-0.917,0.0
7.576,0.033,-0.925,0.0
7.301,0.031,-0.934,0.0
7.01,0.029,-0.937,0.0
8.506,0.033,-0.898,0.0
8.16,0.03,-0.908,0.0
7.864,0.028,-0.92,0.0
7.537,0.025,-0.926,0.0
7.241,0.023,-0.932,0.0
6.986,0.021,-0.94,0.0
8.436,0.023,-0.897,0.0
8.112,0.021,-0.909,0.0
7.8,0.019,-0.919,0.0
7.477,0.017,-0.924,0.0
7.197,0.015,-0.931,0.0
6.954,0.014,-0.94,0.0
8.406,0.015,-0.899,0.0
8.065,0.013,-0.909,0.0
7.77,0.011,-0.92,0.0
7.457,0.009,-0.927,0.0
7.172,0.008,-0.933,0.0
6.902,0.006,-0.938,0.0
8.362,0.006,-0.9,0.0
8.043,0.004,-0.912,0.0
7.748,0.003,-0.923,0.0
7.422,0.001,-0.928,0.0
7.145,0.0,-0.934,0.0
6.885,0.0,-0.94,0.0
8.332,-0.003,-0.902,0.0
8.015,-0.004,-0.914,0.0
7.72,-0.005,-0.924,0.0
7.379,-0.006,-0.927,0.0
7.116,-0.007,-0.935,0.0
6.866,-0.008,-0.942,0.0
8.305,-0.012,-0.904,0.0
7.987,-0.013,-0.915,0.0
7.648,-0.013,-0.92,0.0
7.36,-0.014,-0.929,0.0
7.102,-0.015,-0.937,0.0
6.843,-0.015,-0.942,0.0
8.263,-0.021,-0.904,0.0
7.951,-0.021,-0.915,0.0
7.646,-0.022,-0.924,0.0
7.335,-0.022,-0.929,0.0
7.084,-0.023,-0.938,0.0
6.812,-0.023,-0.941,0.0
8.239,-0.03,-0.905,0.0
7.916,-0.03,-0.915,0.0
7.623,-0.03,-0.925,0.0
7.314,-0.03,-0.93,0.0
7.051,-0.03,-0.937,0.0
6.784,-0.031,-0.941,0.0
8.206,-0.039,-0.905,0.0
7.9,-0.039,-0.917,0.0
7.579,-0.039,-0.923,0.0
7.28,-0.038,-0.929,0.0
7.037,-0.038,-0.938,0.0
6.772,-0.038,-0.942,0.0
8.181,-0.048,-0.906,0.0
7.872,-0.048,-0.916,0.0
7.556,-0.047,-0.923,0.0
7.261,-0.046,-0.929,0.0
7.034,-0.046,-0.94,0.0
6.752,-0.046,-0.941,0.0
8.166,-0.057,-0.907,0.0
7.848,-0.056,-0.916,0.0
7.561,-0.056,-0.926,0.0
7.237,-0.055,-0.928,0.0
7.005,-0.054,-0.939,0.0
6.738,-0.053,-0.942,0.0
8.148,-0.066,-0.908,0.0
7.839,-0.065,-0.918,0.0
7.532,-0.064,-0.925,0.0
7.241,-0.063,-0.931,0.0
7.016,-0.062,-0.942,0.0
6.729,-0.061,-0.942,0.0
8.133,-0.075,-0.908,0.0
7.817,-0.074,-0.917,0.0
7.519,-0.072,-0.925,0.0
7.234,-0.071,-0.932,0.0
6.998,-0.07,-0.941,0.0
6.721,-0.069,-0.943,0.0
8.125,-0.084,-0.909,0.0
7.813,-0.083,-0.918,0.0
7.543,-0.081,-0.929,0.0
7.225,-0.079,-0.932,0.0
6.959,-0.078,-0.937,0.0
6.701,-0.076,-0.941,0.0
8.1,-0.093,-0.908,0.0
7.802,-0.092,-0.918,0.0
7.509,-0.09,-0.926,0.0
7.212,-0.087,-0.931,0.0
6.966,-0.086,-0.939,0.0
6.699,-0.084,-0.942,0.0
8.087,-0.102,-0.907,0.0
7.799,-0.1,-0.919,0.0
7.493,-0.098,-0.925,0.0
7.221,-0.096,-0.933,0.0
6.94,-0.093,-0.936,0.0
6.7,-0.091,-0.942,0.0
8.091,-0.112,-0.908,0.0
7.794,-0.109,-0.919,0.0
7.506,-0.107,-0.927,0.0
7.189,-0.104,-0.93,0.0
6.971,-0.102,-0.941,0.0
6.69,-0.099,-0.941,0.0
8.098,-0.121,-0.909,0.0
7.793,-0.118,-0.919,0.0
7.498,-0.115,-0.926,0.0
7.201,-0.112,-0.931,0.0
6.958,-0.11,-0.939,0.0
6.69,-0.107,-0.941,0.0
8.102,-0.13,-0.909,0.0
7.794,-0.127,-0.919,0.0
7.509,-0.124,-0.927,0.0
7.233,-0.121,-0.935,0.0
6.964,-0.118,-0.94,0.0
6.71,-0.115,-0.944,0.0
8.102,-0.139,-0.909,0.0
7.804,-0.136,-0.919,0.0
7.511,-0.132,-0.927,0.0
7.219,-0.129,-0.933,0.0
6.969,-0.126,-0.94,0.0
6.713,-0.122,-0.943,0.0
8.106,-0.149,-0.909,0.0
7.793,-0.144,-0.917,0.0
7.502,-0.141,-0.925,0.0
7.256,-0.137,-0.936,0.0
6.981,-0.134,-0.94,0.0
6.705,-0.13,-0.941,0.0
8.112,-0.158,-0.908,0.0
7.828,-0.154,-0.92,0.0
7.511,-0.149,-0.925,0.0
7.248,-0.145,-0.934,0.0
6.982,-0.142,-0.939,0.0
6.728,-0.138,-0.943,0.0
8.131,-0.167,-0.908,0.0
7.822,-0.162,-0.918,0.0
7.536,-0.158,-0.926,0.0
7.247,-0.153,-0.932,0.0
7.004,-0.15,-0.941,0.0
6.734,-0.145,-0.942,0.0
8.147,-0.176,-0.908,0.0
7.833,-0.171,-0.917,0.0
7.542,-0.166,-0.925,0.0
7.27,-0.162,-0.933,0.0
7.022,-0.158,-0.941,0.0
6.74,-0.153,-0.941,0.0
8.158,-0.186,-0.907,0.0
7.855,-0.18,-0.917,0.0
7.566,-0.175,-0.926,0.0
7.288,-0.17,-0.933,0.0
7.031,-0.166,-0.94,0.0
6.762,-0.161,-0.942,0.0
8.166,-0.195,-0.905,0.0
7.899,-0.19,-0.92,0.0
7.57,-0.184,-0.924,0.0
7.3,-0.179,-0.932,0.0
7.056,-0.174,-0.941,0.0
6.776,-0.168,-0.941,0.0
8.189,-0.204,-0.905,0.0
7.908,-0.199,-0.918,0.0
7.585,-0.192,-0.922,0.0
7.306,-0.187,-0.93,0.0
7.078,-0.182,-0.941,0.0
6.807,-0.177,-0.943,0.0
8.236,-0.214,-0.906,0.0
7.942,-0.208,-0.918,0.0
7.619,-0.201,-0.923,0.0
7.347,-0.195,-0.932,0.0
7.083,-0.19,-0.938,0.0
6.853,-0.185,-0.946,0.0
8.263,-0.223,-0.906,0.0
7.951,-0.216,-0.915,0.0
7.652,-0.21,-0.923,0.0
7.345,-0.203,-0.928,0.0
7.105,-0.198,-0.937,0.0
6.853,-0.192,-0.942,0.0
8.295,-0.233,-0.905,0.0
7.966,-0.225,-0.913,0.0
7.686,-0.219,-0.923,0.0
7.405,-0.212,-0.932,0.0
7.134,-0.206,-0.937,0.0
6.891,-0.2,-0.944,0.0
8.332,-0.242,-0.904,0.0
8.0,-0.234,-0.912,0.0
7.72,-0.228,-0.923,0.0
7.415,-0.22,-0.929,0.0
7.156,-0.214,-0.936,0.0
6.935,-0.209,-0.946,0.0
8.365,-0.252,-0.903,0.0
8.04,-0.243,-0.912,0.0
7.745,-0.236,-0.921,0.0
7.474,-0.229,-0.931,0.0
7.175,-0.222,-0.934,0.0
6.96,-0.216,-0.945,0.0
8.391,-0.261,-0.9,0.0
8.083,-0.253,-0.912,0.0
7.78,-0.245,-0.92,0.0
7.493,-0.237,-0.929,0.0
7.227,-0.23,-0.936,0.0
6.979,-0.224,-0.942,0.0
8.447,-0.271,-0.9,0.0
8.114,-0.262,-0.91,0.0
7.825,-0.254,-0.92,0.0
7.512,-0.245,-0.926,0.0
7.253,-0.238,-0.934,0.0
7.008,-0.232,-0.941,0.0
8.518,-0.281,-0.902,0.0
8.16,-0.271,-0.909,0.0
7.857,-0.262,-0.918,0.0
7.575,-0.254,-0.928,0.0
7.296,-0.246,-0.934,0.0
7.033,-0.239,-0.939,0.0
8.549,-0.29,-0.899,0.0
8.194,-0.28,-0.906,0.0
7.906,-0.271,-0.918,0.0
7.613,-0.263,-0.926,0.0
7.328,-0.254,-0.932,0.0
7.076,-0.247,-0.939,0.0
8.606,-0.3,-0.898,0.0
8.252,-0.289,-0.906,0.0
7.926,-0.279,-0.913,0.0
7.658,-0.271,-0.925,0.0
7.378,-0.263,-0.932,0.0
7.091,-0.254,-0.935,0.0
8.68,-0.31,-0.898,0.0
8.328,-0.299,-0.907,0.0
7.996,-0.289,-0.915,0.0
7.689,-0.279,-0.922,0.0
7.422,-0.271,-0.931,0.0
7.147,-0.262,-0.936,0.0
8.722,-0.319,-0.894,0.0
8.362,-0.307,-0.903,0.0
8.04,-0.297,-0.912,0.0
7.736,-0.287,-0.921,0.0
7.469,-0.279,-0.93,0.0
7.195,-0.27,-0.935,0.0
8.779,-0.329,-0.892,0.0
8.416,-0.316,-0.901,0.0
8.085,-0.305,-0.91,0.0
7.8,-0.296,-0.921,0.0
7.512,-0.287,-0.928,0.0
7.239,-0.277,-0.934,0.0
8.863,-0.339,-0.892,0.0
8.493,-0.326,-0.901,0.0
8.156,-0.315,-0.91,0.0
7.848,-0.304,-0.919,0.0
7.59,-0.296,-0.93,0.0
7.294,-0.285,-0.934,0.0
8.942,-0.349,-0.891,0.0
8.573,-0.336,-0.901,0.0
8.205,-0.323,-0.907,0.0
7.912,-0.313,-0.918,0.0
7.62,-0.303,-0.926,0.0
7.358,-0.294,-0.934,0.0
9.032,-0.359,-0.891,0.0
8.635,-0.345,-0.898,0.0
8.27,-0.332,-0.905,0.0
7.966,-0.321,-0.916,0.0
7.692,-0.311,-0.926,0.0
7.39,-0.3,-0.93,0.0
9.108,-0.369,-0.888,0.0
8.712,-0.354,-0.897,0.0
8.351,-0.341,-0.905,0.0
8.014,-0.329,-0.913,0.0
7.734,-0.319,-0.923,0.0
7.448,-0.308,-0.929,0.0
9.203,-0.379,-0.887,0.0
8.78,-0.363,-0.894,0.0
8.401,-0.349,-0.901,0.0
8.074,-0.337,-0.91,0.0
7.795,-0.326,-0.921,0.0
7.518,-0.316,-0.929,0.0
9.294,-0.389,-0.886,0.0
8.878,-0.373,-0.894,0.0
8.503,-0.359,-0.902,0.0
8.158,-0.346,-0.91,0.0
7.862,-0.334,-0.92,0.0
7.575,-0.323,-0.927,0.0
9.393,-0.4,-0.884,0.0
8.976,-0.383,-0.893,0.0
8.578,-0.368,-0.9,0.0
8.242,-0.354,-0.91,0.0
7.943,-0.343,-0.92,0.0
7.638,-0.331,-0.926,0.0
9.498,-0.41,-0.882,0.0
9.074,-0.393,-0.891,0.0
8.658,-0.376,-0.897,0.0
8.324,-0.363,-0.908,0.0
8.015,-0.351,-0.918,0.0
7.718,-0.339,-0.926,0.0
9.6,-0.42,-0.88,0.0
9.156,-0.402,-0.888,0.0
8.754,-0.386,-0.896,0.0
8.398,-0.371,-0.906,0.0
8.061,-0.357,-0.913,0.0
7.785,-0.346,-0.923,0.0
9.751,-0.432,-0.881,1.0
9.28,-0.413,-0.888,0.0
8.839,-0.394,-0.893,0.0
8.485,-0.38,-0.904,0.0
8.155,-0.366,-0.913,0.0
7.868,-0.354,-0.923,0.0
9.799,-0.44,-0.872,3.0
9.39,-0.422,-0.886,0.0
8.956,-0.404,-0.893,0.0
8.58,-0.388,-0.902,0.0
8.222,-0.373,-0.909,0.0
7.923,-0.361,-0.919,0.0
9.916,-0.45,-0.869,2.0
9.486,-0.431,-0.882,0.0
9.058,-0.413,-0.891,0.0
8.667,-0.396,-0.9,0.0
8.326,-0.382,-0.909,0.0
8.017,-0.368,-0.918,0.0
10.043,-0.46,-0.867,1.0
9.614,-0.441,-0.881,0.0
9.177,-0.422,-0.89,0.0
8.757,-0.404,-0.897,0.0
8.419,-0.39,-0.907,0.0
8.086,-0.375,-0.915,0.0
10.214,-0.472,-0.867,0.0
9.749,-0.452,-0.88,1.0
9.296,-0.432,-0.888,0.0
8.873,-0.413,-0.896,0.0
8.513,-0.397,-0.905,0.0
8.172,-0.382,-0.913,0.0
10.372,-0.483,-0.866,0.0
9.82,-0.459,-0.872,2.0
9.386,-0.439,-0.883,0.0
8.984,-0.422,-0.894,0.0
8.589,-0.404,-0.901,0.0
8.248,-0.389,-0.909,0.0
10.517,-0.494,-0.863,0.0
9.946,-0.468,-0.869,1.0
9.535,-0.45,-0.883,0.0
9.095,-0.43,-0.892,0.0
8.7,-0.412,-0.9,0.0
8.347,-0.396,-0.908,0.0
10.672,-0.504,-0.86,0.0
10.108,-0.479,-0.868,0.0
9.672,-0.459,-0.882,0.0
9.241,-0.439,-0.892,0.0
8.806,-0.419,-0.897,0.0
8.466,-0.404,-0.908,0.0
10.819,-0.514,-0.855,0.0
10.289,-0.49,-0.868,0.0
9.787,-0.467,-0.877,2.0
9.352,-0.447,-0.889,0.0
8.932,-0.428,-0.896,0.0
8.559,-0.411,-0.905,0.0
11.004,-0.526,-0.853,0.0
10.43,-0.499,-0.864,0.0
9.901,-0.475,-0.872,2.0
9.47,-0.455,-0.886,0.0
9.064,-0.436,-0.896,0.0
8.657,-0.417,-0.901,0.0
11.169,-0.536,-0.849,0.0
10.607,-0.51,-0.862,0.0
10.034,-0.483,-0.868,0.0
9.621,-0.464,-0.885,0.0
9.187,-0.444,-0.893,0.0
8.766,-0.424,-0.899,0.0
11.337,-0.546,-0.844,0.0
10.773,-0.519,-0.858,0.0
10.224,-0.494,-0.869,0.0
9.752,-0.472,-0.881,1.0
9.315,-0.451,-0.891,0.0
8.893,-0.431,-0.898,0.0
11.564,-0.558,-0.842,0.0
10.95,-0.529,-0.855,0.0
10.402,-0.503,-0.867,0.0
9.862,-0.478,-0.875,2.0
9.462,-0.459,-0.89,0.0
9.037,-0.439,-0.897,0.0
11.727,-0.567,-0.835,0.0
11.124,-0.539,-0.85,0.0
10.549,-0.511,-0.862,0.0
9.991,-0.485,-0.87,1.0
9.571,-0.465,-0.884,0.0
9.173,-0.446,-0.896,0.0
11.953,-0.579,-0.832,1.0
11.298,-0.548,-0.845,0.0
10.735,-0.521,-0.86,0.0
10.174,-0.494,-0.869,0.0
9.749,-0.474,-0.885,1.0
9.301,-0.452,-0.893,0.0
12.176,-0.59,-0.827,0.0
11.514,-0.558,-0.843,0.0
10.916,-0.53,-0.856,0.0
10.382,-0.504,-0.87,0.0
9.843,-0.478,-0.877,2.0
9.42,-0.458,-0.889,0.0
12.402,-0.6,-0.822,0.0
11.709,-0.567,-0.837,0.0
11.105,-0.538,-0.852,0.0
10.546,-0.511,-0.866,0.0
9.987,-0.484,-0.872,1.0
9.57,-0.465,-0.887,0.0
12.62,-0.61,-0.815,0.0
11.918,-0.576,-0.832,1.0
11.304,-0.547,-0.848,0.0
10.723,-0.519,-0.862,0.0
10.169,-0.492,-0.871,0.0
9.74,-0.472,-0.885,1.0
12.899,-0.622,-0.811,1.0
12.162,-0.587,-0.828,0.0
11.508,-0.555,-0.844,0.0
10.912,-0.527,-0.858,0.0
10.372,-0.501,-0.87,0.0
9.846,-0.475,-0.878,2.0
13.162,-0.633,-0.805,1.0
12.405,-0.597,-0.823,0.0
11.713,-0.563,-0.839,0.0
11.098,-0.534,-0.854,0.0
10.544,-0.507,-0.867,0.0
9.987,-0.48,-0.873,1.0
13.447,-0.644,-0.799,1.0
12.64,-0.605,-0.817,1.0
11.925,-0.571,-0.833,0.0
11.298,-0.541,-0.85,0.0
10.714,-0.513,-0.862,0.0
10.152,-0.486,-0.87,0.0
13.702,-0.653,-0.791,1.0
12.888,-0.614,-0.811,1.0
12.152,-0.579,-0.828,0.0
11.504,-0.548,-0.845,0.0
10.925,-0.52,-0.86,0.0
10.394,-0.495,-0.873,0.0
13.985,-0.663,-0.783,1.0
13.194,-0.625,-0.807,0.0
12.411,-0.588,-0.824,0.0
11.71,-0.554,-0.84,0.0
11.109,-0.526,-0.855,0.0
10.557,-0.499,-0.868,0.0
14.347,-0.676,-0.778,1.0
13.448,-0.633,-0.799,1.0
12.655,-0.595,-0.818,1.0
11.939,-0.561,-0.835,0.0
11.3,-0.531,-0.849,0.0
10.747,-0.504,-0.864,0.0
14.685,-0.687,-0.77,1.0
13.735,-0.642,-0.792,1.0
12.918,-0.603,-0.812,0.0
12.173,-0.568,-0.83,0.0
11.535,-0.537,-0.847,0.0
10.942,-0.509,-0.86,0.0
15.087,-0.699,-0.764,1.0
14.046,-0.65,-0.785,1.0
13.22,-0.611,-0.807,0.0
12.429,-0.574,-0.825,0.0
11.72,-0.541,-0.839,0.0
11.125,-0.513,-0.855,0.0
15.47,-0.71,-0.756,1.0
14.388,-0.66,-0.778,1.0
13.51,-0.619,-0.801,1.0
12.676,-0.58,-0.819,1.0
11.972,-0.547,-0.836,0.0
11.332,-0.517,-0.85,0.0
15.85,-0.72,-0.747,1.0
14.742,-0.669,-0.771,1.0
13.754,-0.623,-0.791,1.0
12.933,-0.585,-0.813,0.0
12.198,-0.551,-0.83,0.0
11.552,-0.521,-0.846,0.0
16.316,-0.733,-0.74,1.0
15.151,-0.68,-0.766,1.0
14.069,-0.63,-0.784,1.0
13.244,-0.592,-0.808,1.0
12.453,-0.556,-0.825,1.0
11.775,-0.525,-0.841,0.0
16.775,-0.744,-0.73,1.0
15.517,-0.687,-0.756,1.0
14.432,-0.638,-0.778,1.0
13.512,-0.596,-0.8,1.0
12.737,-0.561,-0.821,0.0
12.024,-0.529,-0.838,0.0
17.3,-0.757,-0.722,1.0
15.905,-0.695,-0.747,1.0
14.799,-0.645,-0.772,1.0
13.804,-0.601,-0.793,1.0
12.987,-0.564,-0.814,1.0
12.234,-0.53,-0.83,0.0
17.78,-0.767,-0.711,1.0
16.345,-0.704,-0.738,1.0
15.183,-0.652,-0.765,1.0
14.127,-0.605,-0.786,1.0
13.287,-0.568,-0.809,1.0
12.487,-0.533,-0.825,0.0
18.273,-0.776,-0.698,1.0
16.862,-0.714,-0.731,1.0
15.577,-0.658,-0.757,1.0
14.475,-0.61,-0.78,1.0
13.542,-0.569,-0.8,1.0
12.741,-0.534,-0.819,1.0
18.829,-0.786,-0.685,1.0
17.378,-0.723,-0.723,1.0
15.964,-0.663,-0.747,1.0
14.82,-0.614,-0.772,1.0
13.859,-0.572,-0.794,1.0
13.055,-0.537,-0.816,1.0
19.44,-0.797,-0.673,1.0
17.86,-0.73,-0.711,1.0
16.438,-0.67,-0.74,1.0
15.203,-0.618,-0.765,1.0
14.169,-0.574,-0.786,1.0
13.317,-0.538,-0.808,1.0
20.085,-0.807,-0.659,1.0
18.369,-0.736,-0.699,1.0
16.921,-0.676,-0.731,1.0
15.585,-0.62,-0.756,1.0
14.521,-0.576,-0.78,1.0
13.613,-0.538,-0.802,0.0
20.774,-0.817,-0.645,1.0
18.898,-0.741,-0.685,1.0
17.445,-0.681,-0.723,1.0
16.0,-0.623,-0.748,1.0
14.898,-0.578,-0.773,1.0
13.896,-0.537,-0.794,1.0
21.538,-0.829,-0.631,1.0
19.509,-0.748,-0.672,1.0
17.921,-0.684,-0.711,2.0
16.433,-0.625,-0.739,1.0
15.26,-0.578,-0.766,1.0
14.197,-0.536,-0.786,1.0
22.299,-0.837,-0.614,2.0
20.114,-0.752,-0.658,1.0
18.437,-0.687,-0.699,1.0
16.989,-0.63,-0.734,1.0
15.654,-0.578,-0.758,1.0
14.568,-0.536,-0.781,1.0
23.149,-0.847,-0.597,2.0
20.852,-0.76,-0.646,1.0
18.971,-0.688,-0.686,1.0
17.442,-0.63,-0.723,1.0
16.026,-0.576,-0.748,1.0
14.934,-0.534,-0.774,1.0
23.964,-0.853,-0.575,1.0
21.624,-0.766,-0.632,1.0
19.569,-0.69,-0.673,1.0
17.947,-0.63,-0.712,1.0
16.55,-0.578,-0.743,1.0
15.296,-0.531,-0.767,1.0
25.0,-0.864,-0.557,1.0
22.388,-0.77,-0.615,1.0
20.184,-0.69,-0.659,1.0
18.439,-0.627,-0.7,1.0
17.001,-0.575,-0.734,1.0
15.649,-0.527,-0.757,1.0
25.93,-0.868,-0.533,1.0
23.239,-0.774,-0.598,1.0
20.89,-0.692,-0.646,1.0
18.985,-0.625,-0.688,1.0
17.478,-0.572,-0.724,1.0
16.068,-0.523,-0.75,1.0
26.844,-0.869,-0.506,1.0
24.008,-0.773,-0.577,1.0
21.624,-0.692,-0.632,1.0
19.574,-0.623,-0.676,1.0
17.931,-0.567,-0.713,1.0
16.486,-0.518,-0.741,0.0
27.929,-0.872,-0.479,1.0
25.01,-0.776,-0.559,1.0
22.355,-0.69,-0.616,1.0
20.159,-0.618,-0.662,1.0
18.445,-0.562,-0.702,1.0
16.996,-0.514,-0.736,1.0
28.946,-0.87,-0.448,2.0
25.903,-0.773,-0.535,1.0
23.223,-0.688,-0.6,1.0
20.807,-0.613,-0.649,1.0
18.942,-0.554,-0.689,1.0
17.453,-0.507,-0.726,1.0
30.091,-0.868,-0.415,1.0
26.891,-0.77,-0.51,1.0
23.974,-0.681,-0.58,1.0
21.55,-0.608,-0.635,1.0
19.553,-0.547,-0.678,1.0
17.909,-0.497,-0.715,1.0
31.588,-0.871,-0.382,1.0
27.878,-0.763,-0.483,1.0
24.964,-0.677,-0.562,1.0
22.293,-0.6,-0.62,1.0
20.179,-0.539,-0.667,1.0
18.412,-0.488,-0.705,1.0
33.116,-0.87,-0.347,1.0
28.908,-0.753,-0.453,1.0
25.782,-0.666,-0.539,1.0
23.079,-0.591,-0.605,1.0
20.765,-0.527,-0.653,4.0
18.876,-0.475,-0.692,1.0
0.0,0.0,0.0,0.0
29.897,-0.739,-0.42,1.0
26.981,-0.661,-0.52,3.0
23.774,-0.577,-0.585,1.0
21.404,-0.515,-0.638,1.0
19.442,-0.463,-0.682,1.0
40.255,-0.951,-0.292,58.0
31.001,-0.725,-0.387,1.0
27.413,-0.635,-0.485,3.0
24.73,-0.567,-0.569,1.0
22.157,-0.502,-0.626,1.0
20.023,-0.449,-0.67,1.0
40.293,-0.896,-0.228,2.0
33.033,-0.726,-0.36,1.0
28.68,-0.624,-0.463,1.0
25.557,-0.55,-0.548,1.0
22.734,-0.483,-0.607,3.0
20.604,-0.433,-0.658,1.0
47.17,-0.982,-0.194,1.0
0.0,0.0,0.0,0.0
29.615,-0.602,-0.432,1.0
26.365,-0.529,-0.525,1.0
23.625,-0.468,-0.594,2.0
21.229,-0.416,-0.645,1.0
40.358,-0.781,-0.104,10.0
40.202,-0.768,-0.314,2.0
30.684,-0.579,-0.4,1.0
27.204,-0.506,-0.5,1.0
24.376,-0.447,-0.576,1.0
21.921,-0.397,-0.632,2.0
40.307,-0.72,-0.042,69.0
40.228,-0.709,-0.253,14.0
32.258,-0.56,-0.372,1.0
28.286,-0.484,-0.477,1.0
25.27,-0.426,-0.559,1.0
22.626,-0.376,-0.619,1.0
61.547,-1.008,0.026,1.0
46.272,-0.745,-0.222,2.0
34.03,-0.539,-0.342,1.0
29.174,-0.455,-0.449,2.0
26.058,-0.4,-0.538,1.0
23.296,-0.351,-0.603,2.0
65.202,-0.968,0.123,0.0
0.0,0.0,0.0,0.0
36.285,-0.519,-0.312,0.0
30.012,-0.422,-0.419,1.0
26.877,-0.37,-0.516,1.0
23.889,-0.323,-0.584,1.0
69.923,-0.928,0.233,3.0
54.492,-0.709,-0.104,3.0
42.222,-0.538,-0.303,1.0
31.222,-0.389,-0.391,1.0
27.698,-0.337,-0.492,2.0
24.768,-0.295,-0.57,1.0
77.841,-0.909,0.37,4.0
60.914,-0.694,-0.03,2.0
42.242,-0.47,-0.243,2.0
32.574,-0.353,-0.362,1.0
28.701,-0.303,-0.47,5.0
25.553,-0.263,-0.553,2.0
77.831,-0.783,0.478,20.0
54.651,-0.534,0.048,5.0
47.382,-0.45,-0.207,3.0
34.247,-0.315,-0.333,1.0
29.49,-0.263,-0.442,3.0
26.362,-0.228,-0.534,3.0
79.268,-0.666,0.596,61.0
56.35,-0.457,0.126,8.0
47.303,-0.37,-0.142,7.0
40.438,-0.305,-0.339,2.0
30.261,-0.219,-0.413,1.0
26.995,-0.188,-0.511,2.0
79.472,-0.534,0.704,157.0
61.393,-0.395,0.22,20.0
45.974,-0.283,-0.077,6.0
39.925,-0.234,-0.282,3.0
31.184,-0.174,-0.384,1.0
27.833,-0.147,-0.49,2.0
79.466,-0.399,0.808,164.0
76.61,-0.363,0.375,9.0
47.188,-0.21,-0.018,21.0
39.326,-0.163,-0.226,6.0
32.833,-0.127,-0.362,1.0
28.744,-0.103,-0.469,2.0
79.472,-0.262,0.91,151.0
76.595,-0.23,0.473,15.0
0.0,0.0,0.0,0.0
40.17,-0.096,-0.18,16.0
33.736,-0.071,-0.33,1.0
29.518,-0.054,-0.445,2.0
79.469,-0.123,1.01,151.0
79.302,-0.099,0.588,34.0
0.0,0.0,0.0,0.0
40.992,-0.027,-0.134,17.0
38.239,-0.014,-0.327,3.0
30.156,-0.002,-0.418,2.0
79.459,0.016,1.106,151.0
79.448,0.039,0.685,150.0
33.627,0.026,0.111,1.0
0.0,0.0,0.0,0.0
38.283,0.053,-0.282,7.0
31.069,0.052,-0.393,1.0
79.461,0.157,1.201,153.0
79.454,0.182,0.779,150.0
59.164,0.152,0.266,7.0
0.0,0.0,0.0,0.0
38.594,0.122,-0.239,14.0
32.149,0.111,-0.37,1.0
79.453,0.3,1.292,150.0
59.326,0.241,0.649,91.0
59.323,0.259,0.334,80.0
47.586,0.222,0.01,36.0
38.88,0.193,-0.198,45.0
33.303,0.175,-0.346,1.0
48.183,0.269,0.837,60.0
48.164,0.284,0.581,52.0
48.16,0.299,0.325,60.0
48.011,0.312,0.063,49.0
39.386,0.268,-0.157,40.0
37.587,0.267,-0.35,1.0
48.1,0.358,0.889,114.0
48.091,0.373,0.632,113.0
48.061,0.386,0.376,100.0
47.998,0.401,0.115,91.0
43.907,0.379,-0.129,3.0
37.431,0.335,-0.309,5.0
48.117,0.447,0.94,109.0
48.095,0.462,0.683,108.0
48.078,0.476,0.426,98.0
48.018,0.49,0.165,91.0
0.0,0.0,0.0,0.0
37.609,0.407,-0.272,13.0
48.173,0.538,0.991,58.0
48.153,0.553,0.733,52.0
48.116,0.568,0.476,84.0
48.05,0.582,0.213,82.0
0.0,0.0,0.0,0.0
37.816,0.481,-0.235,32.0
100.07,1.308,2.158,5.0
127.553,1.708,2.069,26.0
94.469,1.294,1.027,2.0
62.462,0.874,0.338,8.0
47.453,0.679,0.003,44.0
38.131,0.558,-0.201,45.0
190.064,2.848,4.28,18.0
128.074,1.958,2.198,16.0
121.15,1.891,1.431,14.0
75.067,1.194,0.476,14.0
47.913,0.777,0.047,21.0
38.788,0.641,-0.169,51.0
180.863,3.056,4.24,5.0
128.097,2.205,2.316,20.0
126.182,2.212,1.605,17.0
77.574,1.384,0.563,12.0
52.183,0.947,0.098,8.0
39.435,0.728,-0.136,40.0
128.039,2.413,3.116,32.0
128.04,2.453,2.428,23.0
0.0,0.0,0.0,0.0
77.85,1.54,0.632,38.0
54.591,1.097,0.15,9.0
39.811,0.812,-0.104,15.0
128.107,2.667,3.228,50.0
128.188,2.709,2.541,2.0
89.883,1.927,1.298,9.0
78.121,1.7,0.701,27.0
58.473,1.291,0.21,32.0
46.136,1.033,-0.082,15.0
168.995,3.852,4.398,4.0
0.0,0.0,0.0,0.0
106.234,2.488,1.62,8.0
78.321,1.859,0.765,8.0
60.01,1.444,0.263,33.0
0.0,0.0,0.0,0.0
100.415,2.489,2.692,3.0
100.336,2.518,2.149,24.0
100.369,2.55,1.608,14.0
79.528,2.045,0.837,6.0
60.93,1.586,0.313,34.0
47.409,1.249,-0.011,23.0
154.058,4.125,4.245,42.0
0.0,0.0,0.0,0.0
0.0,0.0,0.0,0.0
93.188,2.581,1.048,3.0
61.448,1.722,0.359,13.0
48.128,1.364,0.022,22.0
154.09,4.434,4.356,42.0
0.0,0.0,0.0,0.0
0.0,0.0,0.0,0.0
95.291,2.83,1.138,2.0
74.394,2.233,0.486,12.0
48.645,1.475,0.054,23.0
158.456,4.874,4.585,18.0
0.0,0.0,0.0,0.0
0.0,0.0,0.0,0.0
95.561,3.029,1.203,4.0
74.451,2.384,0.534,13.0
49.092,1.586,0.086,20.0
158.824,5.202,4.695,13.0
0.0,0.0,0.0,0.0
0.0,0.0,0.0,0.0
100.82,3.396,1.33,3.0
77.653,2.64,0.603,13.0
54.569,1.873,0.128,28.0
159.173,5.531,4.799,6.0
0.0,0.0,0.0,0.0
0.0,0.0,0.0,0.0
100.819,3.596,1.387,3.0
77.801,2.798,0.647,40.0
54.444,1.975,0.157,28.0
160.182,5.885,4.918,17.0
0.0,0.0,0.0,0.0
0.0,0.0,0.0,0.0
100.819,3.797,1.44,1.0
77.88,2.957,0.689,54.0
54.852,2.1,0.186,29.0
158.214,6.131,4.938,6.0
158.542,6.192,4.085,4.0
0.0,0.0,0.0,0.0
101.037,4.007,1.492,1.0
78.072,3.12,0.728,39.0
55.057,2.217,0.213,28.0
173.219,7.058,5.489,6.0
158.494,6.505,4.158,8.0
0.0,0.0,0.0,0.0
0.0,0.0,0.0,0.0
78.299,3.286,0.765,17.0
55.195,2.333,0.238,15.0
157.614,6.737,5.063,12.0
173.598,7.472,4.628,20.0
0.0,0.0,0.0,0.0
0.0,0.0,0.0,0.0
78.67,3.458,0.801,11.0
58.606,2.595,0.276,10.0
157.233,7.038,5.114,17.0
173.893,7.836,4.704,18.0
0.0,0.0,0.0,0.0
0.0,0.0,0.0,0.0
78.695,3.618,0.83,11.0
58.555,2.711,0.298,7.0
174.194,8.148,5.728,10.0
174.286,8.205,4.777,14.0
0.0,0.0,0.0,0.0
0.0,0.0,0.0,0.0
79.158,3.798,0.861,10.0
58.607,2.829,0.317,6.0
156.462,7.633,5.196,18.0
156.402,7.675,4.335,9.0
0.0,0.0,0.0,0.0
0.0,0.0,0.0,0.0
81.943,4.094,0.915,10.0
73.559,3.697,0.418,9.0
156.616,7.952,5.244,17.0
156.653,7.998,4.385,16.0
167.388,8.597,3.766,4.0
105.728,5.462,1.788,29.0
81.945,4.258,0.936,10.0
73.5,3.84,0.436,11.0
156.886,8.279,5.291,14.0
162.533,8.623,4.588,11.0
162.499,8.67,3.694,14.0
105.744,5.673,1.811,16.0
81.798,4.413,0.951,7.0
73.504,3.988,0.451,14.0
157.463,8.624,5.343,16.0
163.275,8.989,4.64,15.0
162.883,9.013,3.733,28.0
105.943,5.894,1.834,18.0
81.606,4.563,0.964,5.0
73.512,4.132,0.463,16.0
157.55,8.94,5.371,16.0
163.357,9.317,4.669,7.0
162.806,9.332,3.756,5.0
0.0,0.0,0.0,0.0
96.429,5.583,1.151,6.0
73.56,4.28,0.473,17.0
157.645,9.257,5.395,15.0
162.111,9.565,4.651,6.0
164.034,9.726,3.801,12.0
140.063,8.344,2.459,7.0
120.925,7.239,1.456,10.0
73.576,4.425,0.48,14.0
33.434,2.028,1.146,0.0
33.41,2.036,0.961,2.0
33.44,2.047,0.777,17.0
33.455,2.058,0.589,156.0
33.462,2.068,0.404,163.0
33.459,2.077,0.219,78.0
33.414,2.092,1.147,0.0
158.087,9.942,4.555,15.0
158.139,9.987,3.681,11.0
139.62,8.857,2.464,87.0
96.274,6.135,1.166,6.0
73.579,4.709,0.484,13.0
158.103,10.203,5.432,29.0
158.114,10.246,4.557,43.0
114.69,7.463,2.669,62.0
139.639,9.126,2.462,30.0
85.086,5.585,1.029,4.0
73.576,4.85,0.482,10.0
158.064,10.505,5.425,29.0
158.045,10.545,4.548,58.0
114.56,7.673,2.661,57.0
114.738,7.717,2.017,7.0
96.611,6.524,1.163,5.0
58.662,3.978,0.381,13.0
157.905,10.792,5.409,30.0
157.99,10.84,4.535,49.0
114.382,7.879,2.648,39.0
114.633,7.926,2.005,19.0
85.104,5.908,1.016,4.0
58.416,4.071,0.373,20.0
157.888,11.091,5.393,29.0
114.67,8.083,3.278,24.0
114.448,8.098,2.635,41.0
114.626,8.141,1.991,7.0
80.555,5.742,0.951,6.0
58.302,4.171,0.364,32.0
157.463,11.355,5.355,24.0
114.783,8.307,3.265,13.0
114.546,8.319,2.619,30.0
139.621,10.176,2.402,41.0
74.736,5.467,0.87,6.0
57.971,4.255,0.352,32.0
66.552,4.922,2.251,54.0
66.516,4.936,1.879,12.0
114.724,8.542,2.601,20.0
133.665,9.987,2.273,8.0
74.684,5.6,0.854,21.0
57.757,4.346,0.339,32.0
131.96,10.001,4.435,11.0
103.384,7.861,2.898,14.0
131.614,10.041,2.955,11.0
102.984,7.883,1.726,7.0
74.526,5.723,0.834,27.0
56.882,4.383,0.319,31.0
129.607,10.059,4.324,13.0
103.26,8.039,2.867,25.0
74.681,5.833,1.656,9.0
74.602,5.845,1.23,38.0
74.446,5.852,0.812,25.0
55.505,4.376,0.295,18.0
74.574,5.922,2.466,22.0
74.566,5.939,2.048,33.0
74.533,5.954,1.63,33.0
74.519,5.97,1.206,37.0
74.326,5.973,0.787,31.0
55.197,4.449,0.276,29.0
74.511,6.048,2.44,36.0
74.527,6.066,2.022,35.0
74.535,6.085,1.605,33.0
74.526,6.102,1.181,30.0
74.266,6.099,0.761,33.0
54.428,4.483,0.253,29.0
74.613,6.187,2.416,8.0
103.211,8.581,2.764,21.0
119.821,9.991,2.537,10.0
66.243,5.539,1.024,8.0
66.244,5.555,0.653,6.0
53.906,4.533,0.23,28.0
34.297,2.902,1.097,97.0
34.301,2.911,0.904,43.0
34.262,2.915,0.711,57.0
0.0,0.0,0.0,0.0
34.295,2.934,0.324,0.0
34.288,2.941,0.131,21.0
120.635,10.415,3.806,42.0
120.645,10.442,3.13,33.0
119.983,10.412,2.439,16.0
34.139,2.97,0.498,1.0
65.475,5.711,0.589,14.0
53.676,4.695,0.181,21.0
120.646,10.617,3.751,50.0
120.653,10.644,3.073,49.0
25.303,2.238,0.502,43.0
34.128,3.026,0.482,4.0
65.28,5.802,0.555,27.0
52.804,4.705,0.153,5.0
115.801,10.382,3.544,7.0
25.269,2.271,0.631,22.0
25.254,2.275,0.488,23.0
25.26,2.28,0.344,22.0
13.901,1.258,0.111,1.0
13.886,1.26,0.032,8.0
25.294,2.308,0.76,10.0
25.261,2.311,0.617,4.0
25.267,2.316,0.475,4.0
13.861,1.273,0.181,12.0
13.849,1.275,0.103,17.0
13.853,1.279,0.025,25.0
13.855,1.286,0.408,28.0
13.838,1.287,0.33,33.0
13.83,1.29,0.252,25.0
13.833,1.293,0.172,27.0
13.838,1.296,0.094,33.0
13.832,1.299,0.016,32.0
13.834,1.306,0.4,37.0
13.813,1.307,0.321,37.0
13.814,1.31,0.243,35.0
13.817,1.313,0.164,34.0
13.814,1.315,0.086,38.0
13.813,1.318,0.008,34.0
13.817,1.326,0.391,39.0
13.8,1.327,0.312,39.0
13.797,1.329,0.234,76.0
13.793,1.331,0.155,37.0
13.807,1.335,0.077,58.0
13.799,1.337,0.0,36.0
13.802,1.345,0.381,49.0
13.785,1.346,0.303,95.0
13.793,1.349,0.225,107.0
13.787,1.351,0.145,39.0
13.796,1.355,0.068,77.0
13.786,1.356,-0.009,36.0
13.786,1.363,0.371,59.0
13.779,1.365,0.293,138.0
13.772,1.367,0.215,110.0
13.782,1.37,0.136,62.0
13.79,1.374,0.058,84.0
13.777,1.375,-0.019,38.0
13.778,1.382,0.361,60.0
13.768,1.384,0.283,139.0
13.777,1.387,0.205,116.0
13.775,1.39,0.126,70.0
13.779,1.393,0.048,87.0
13.773,1.394,-0.029,36.0
13.78,1.402,0.351,45.0
13.757,1.402,0.273,129.0
13.766,1.405,0.195,150.0
13.772,1.408,0.115,70.0
13.784,1.412,0.037,80.0
13.771,1.413,-0.04,35.0
13.769,1.42,0.34,47.0
13.76,1.421,0.262,123.0
13.773,1.425,0.184,106.0
13.773,1.427,0.105,44.0
13.784,1.431,0.027,65.0
13.763,1.431,-0.05,36.0
13.779,1.439,0.33,39.0
13.759,1.439,0.251,76.0
13.775,1.443,0.173,41.0
13.777,1.446,0.093,56.0
13.783,1.449,0.015,38.0
13.776,1.45,-0.062,36.0
13.783,1.457,0.318,39.0
13.778,1.459,0.24,88.0
13.771,1.46,0.162,38.0
13.775,1.463,0.082,39.0
13.79,1.467,0.004,36.0
13.778,1.468,-0.073,33.0
13.791,1.475,0.307,38.0
13.783,1.477,0.229,85.0
13.783,1.479,0.15,46.0
13.788,1.481,0.07,34.0
13.799,1.485,-0.007,34.0
13.786,1.486,-0.085,28.0
13.798,1.493,0.295,36.0
13.795,1.495,0.217,39.0
13.797,1.497,0.138,37.0
13.803,1.5,0.058,30.0
13.808,1.503,-0.019,29.0
13.804,1.504,-0.098,21.0
13.806,1.51,0.283,31.0
13.798,1.511,0.204,30.0
13.79,1.512,0.126,24.0
13.803,1.516,0.046,18.0
13.824,1.52,-0.032,22.0
13.824,1.523,-0.11,19.0
13.812,1.527,0.27,28.0
13.827,1.53,0.192,13.0
13.828,1.532,0.113,9.0
13.848,1.536,0.033,13.0
13.853,1.539,-0.045,15.0
25.099,2.793,-0.224,2.0
25.231,2.818,0.471,14.0
25.257,2.823,0.327,17.0
25.413,2.844,0.185,19.0
25.234,2.828,0.037,4.0
25.035,2.809,-0.105,13.0
25.12,2.822,-0.248,37.0
25.292,2.851,0.448,41.0
25.335,2.859,0.304,13.0
25.403,2.87,0.16,15.0
25.218,2.853,0.013,7.0
25.045,2.836,-0.129,49.0
25.128,2.849,-0.273,47.0
25.356,2.884,0.424,7.0
10.019,1.141,0.11,0.0
33.875,3.862,0.18,38.0
25.218,2.878,-0.011,5.0
25.044,2.862,-0.154,24.0
25.115,2.873,-0.298,9.0
10.004,1.148,0.157,11.0
33.913,3.896,0.34,26.0
33.772,3.883,0.145,4.0
33.76,3.886,-0.05,3.0
34.5,3.976,-0.247,6.0
9.994,1.153,-0.128,9.0
10.015,1.158,0.147,18.0
33.924,3.928,0.306,4.0
32.949,3.819,0.109,4.0
9.998,1.16,-0.024,17.0
10.012,1.162,-0.082,17.0
10.007,1.163,-0.139,16.0
10.016,1.167,0.137,54.0
10.006,1.167,0.079,93.0
9.999,1.168,0.022,96.0
10.002,1.169,-0.035,50.0
10.005,1.171,-0.092,51.0
10.007,1.172,-0.149,20.0
10.007,1.175,0.126,82.0
10.005,1.176,0.069,147.0
10.003,1.176,0.012,116.0
9.984,1.175,-0.045,70.0
10.003,1.179,-0.102,77.0
10.001,1.18,-0.16,22.0
9.993,1.181,0.116,77.0
9.995,1.183,0.058,146.0
9.984,1.182,0.001,107.0
9.985,1.183,-0.056,79.0
9.992,1.185,-0.113,73.0
9.99,1.186,-0.17,29.0
9.986,1.188,0.105,74.0
9.983,1.189,0.048,135.0
9.985,1.19,-0.008,129.0
9.979,1.19,-0.067,79.0
9.989,1.192,-0.124,73.0
9.987,1.193,-0.181,36.0
9.981,1.195,0.094,94.0
9.981,1.196,0.037,150.0
9.982,1.197,-0.019,141.0
9.978,1.197,-0.077,92.0
9.98,1.198,-0.134,93.0
9.983,1.2,-0.192,41.0
9.975,1.201,0.083,96.0
9.98,1.202,0.026,150.0
9.98,1.203,-0.03,150.0
9.967,1.202,-0.088,94.0
9.978,1.204,-0.145,96.0
9.976,1.205,-0.202,60.0
9.971,1.207,0.072,99.0
9.979,1.208,0.015,140.0
9.977,1.209,-0.041,150.0
9.966,1.208,-0.099,100.0
9.975,1.21,-0.156,95.0
9.975,1.211,-0.213,52.0
9.975,1.213,0.061,111.0
9.972,1.213,0.004,150.0
9.972,1.214,-0.052,150.0
9.966,1.214,-0.11,103.0
9.97,1.215,-0.167,102.0
9.976,1.217,-0.225,60.0
9.97,1.218,0.05,109.0
9.971,1.219,-0.006,125.0
9.973,1.219,-0.063,150.0
9.97,1.22,-0.122,112.0
9.972,1.221,-0.179,102.0
9.97,1.221,-0.236,61.0
9.973,1.223,0.039,112.0
9.98,1.225,-0.018,120.0
9.975,1.225,-0.075,150.0
9.966,1.224,-0.133,117.0
9.978,1.226,-0.19,111.0
9.967,1.226,-0.247,63.0
9.974,1.228,0.027,113.0
9.972,1.228,-0.029,150.0
9.969,1.228,-0.086,150.0
9.969,1.229,-0.144,118.0
9.971,1.23,-0.201,112.0
9.963,1.23,-0.258,61.0
9.969,1.231,0.016,89.0
9.975,1.232,-0.04,150.0
9.971,1.232,-0.097,150.0
9.968,1.233,-0.156,118.0
9.972,1.234,-0.213,106.0
9.966,1.234,-0.27,64.0
9.975,1.236,0.004,81.0
9.978,1.236,-0.052,150.0
9.977,1.237,-0.109,150.0
9.971,1.236,-0.167,106.0
9.969,1.237,-0.224,105.0
9.965,1.237,-0.281,65.0
9.979,1.239,-0.006,40.0
9.972,1.239,-0.063,150.0
9.97,1.239,-0.12,150.0
9.97,1.239,-0.179,110.0
9.97,1.24,-0.236,108.0
9.971,1.241,-0.293,72.0
9.974,1.241,-0.018,52.0
9.972,1.241,-0.075,150.0
9.97,1.242,-0.132,150.0
9.966,1.241,-0.19,112.0
9.976,1.243,-0.247,111.0
9.967,1.243,-0.305,65.0
9.974,1.244,-0.029,106.0
9.978,1.244,-0.086,150.0
9.97,1.244,-0.144,150.0
9.969,1.244,-0.202,108.0
9.976,1.245,-0.259,111.0
9.971,1.245,-0.316,58.0
9.974,1.245,-0.041,101.0
9.972,1.245,-0.098,150.0
9.98,1.247,-0.155,150.0
9.969,1.246,-0.213,107.0
9.971,1.246,-0.27,108.0
9.97,1.246,-0.328,64.0
9.974,1.247,-0.052,103.0
9.976,1.247,-0.109,150.0
9.975,1.247,-0.167,150.0
9.965,1.246,-0.225,96.0
9.971,1.247,-0.282,102.0
9.973,1.248,-0.339,55.0
9.973,1.247,-0.064,104.0
9.976,1.248,-0.121,150.0
9.976,1.248,-0.178,150.0
9.971,1.248,-0.236,105.0
9.97,1.248,-0.293,107.0
9.972,1.248,-0.351,66.0
9.973,1.248,-0.075,108.0
9.972,1.248,-0.132,150.0
9.979,1.249,-0.19,150.0
9.964,1.247,-0.247,108.0
9.972,1.248,-0.305,103.0
9.972,1.248,-0.362,60.0
9.973,1.248,-0.086,105.0
9.971,1.247,-0.143,150.0
9.978,1.248,-0.201,150.0
9.968,1.247,-0.259,104.0
9.973,1.248,-0.316,107.0
9.974,1.248,-0.374,61.0
9.973,1.247,-0.098,118.0
9.971,1.247,-0.155,150.0
9.974,1.247,-0.212,150.0
9.97,1.247,-0.27,106.0
9.97,1.247,-0.328,106.0
9.974,1.248,-0.385,61.0
9.973,1.246,-0.109,109.0
9.977,1.247,-0.166,150.0
9.974,1.246,-0.223,150.0
9.97,1.246,-0.282,102.0
9.969,1.246,-0.339,115.0
9.971,1.246,-0.396,63.0
9.971,1.245,-0.12,95.0
9.965,1.244,-0.177,150.0
9.98,1.245,-0.235,150.0
9.964,1.243,-0.293,96.0
9.969,1.244,-0.35,105.0
9.973,1.244,-0.407,63.0
9.973,1.243,-0.131,105.0
9.977,1.243,-0.189,150.0
9.964,1.241,-0.246,150.0
9.968,1.242,-0.304,101.0
9.969,1.242,-0.361,111.0
9.974,1.242,-0.419,64.0
9.966,1.24,-0.143,105.0
9.979,1.241,-0.2,150.0
9.97,1.24,-0.257,150.0
9.96,1.238,-0.315,107.0
9.969,1.239,-0.372,111.0
9.967,1.239,-0.43,65.0
9.972,1.238,-0.154,111.0
9.973,1.237,-0.211,150.0
9.97,1.237,-0.268,150.0
9.968,1.236,-0.326,104.0
9.974,1.237,-0.384,108.0
9.961,1.235,-0.44,65.0
9.968,1.234,-0.164,114.0
9.98,1.235,-0.222,150.0
9.973,1.234,-0.279,150.0
9.968,1.233,-0.337,109.0
9.97,1.233,-0.394,115.0
9.978,1.234,-0.452,57.0
9.96,1.229,-0.175,114.0
9.967,1.23,-0.232,150.0
9.978,1.231,-0.29,150.0
9.967,1.229,-0.348,103.0
9.97,1.229,-0.405,111.0
9.969,1.229,-0.462,56.0
9.968,1.226,-0.186,114.0
9.969,1.226,-0.243,150.0
9.968,1.225,-0.3,150.0
9.964,1.224,-0.358,98.0
9.982,1.226,-0.416,109.0
9.976,1.225,-0.473,45.0
9.959,1.22,-0.196,100.0
9.979,1.222,-0.254,150.0
9.971,1.221,-0.311,150.0
9.97,1.22,-0.369,104.0
9.979,1.221,-0.426,100.0
9.977,1.22,-0.483,20.0
9.973,1.217,-0.207,91.0
9.97,1.216,-0.264,150.0
9.973,1.216,-0.321,150.0
9.97,1.215,-0.379,90.0
9.976,1.215,-0.436,87.0
9.978,1.215,-0.494,21.0
9.979,1.212,-0.217,97.0
9.979,1.212,-0.274,150.0
9.975,1.21,-0.331,147.0
9.974,1.21,-0.389,82.0
9.986,1.211,-0.447,80.0
9.984,1.21,-0.504,32.0
9.976,1.206,-0.227,82.0
9.981,1.206,-0.284,140.0
9.985,1.206,-0.341,135.0
9.986,1.205,-0.399,68.0
9.989,1.205,-0.457,70.0
9.99,1.205,-0.514,33.0
9.982,1.2,-0.237,67.0
9.987,1.2,-0.294,146.0
9.984,1.199,-0.351,127.0
9.986,1.199,-0.409,77.0
9.996,1.199,-0.467,65.0
9.991,1.198,-0.524,31.0
9.989,1.194,-0.246,73.0
9.999,1.195,-0.304,148.0
9.993,1.193,-0.361,143.0
9.998,1.193,-0.419,72.0
10.002,1.193,-0.477,69.0
10.007,1.193,-0.534,43.0
9.996,1.188,-0.256,75.0
10.005,1.188,-0.314,141.0
10.006,1.188,-0.371,134.0
9.999,1.186,-0.429,68.0
10.01,1.187,-0.486,66.0
10.01,1.186,-0.544,20.0
10.013,1.182,-0.266,71.0
10.004,1.18,-0.323,103.0
10.004,1.18,-0.38,81.0
10.013,1.18,-0.438,21.0
10.014,1.179,-0.496,20.0
10.005,1.178,-0.552,17.0
10.016,1.175,-0.275,21.0
10.023,1.175,-0.332,20.0
10.0,1.171,-0.389,17.0
10.008,1.171,-0.447,14.0
10.01,1.171,-0.504,18.0
9.995,1.168,-0.561,12.0
13.865,1.615,-0.393,3.0
13.797,1.605,-0.469,5.0
13.642,1.586,-0.542,5.0
13.087,1.52,-0.596,5.0
10.009,1.162,-0.513,3.0
10.027,1.163,-0.571,2.0
13.836,1.599,-0.404,9.0
13.767,1.59,-0.48,8.0
13.526,1.561,-0.549,6.0
13.06,1.506,-0.606,8.0
12.52,1.442,-0.652,1.0
11.6,1.335,-0.671,2.0
13.823,1.585,-0.415,22.0
13.761,1.576,-0.491,13.0
13.479,1.543,-0.558,8.0
13.067,1.494,-0.617,11.0
12.351,1.411,-0.653,2.0
11.482,1.311,-0.673,2.0
13.806,1.57,-0.425,22.0
13.74,1.561,-0.501,16.0
13.403,1.521,-0.565,8.0
13.045,1.479,-0.626,14.0
12.255,1.388,-0.658,2.0
11.367,1.286,-0.675,1.0
13.793,1.555,-0.435,21.0
13.724,1.545,-0.511,20.0
13.334,1.5,-0.573,11.0
13.052,1.467,-0.636,11.0
12.178,1.367,-0.663,1.0
11.262,1.263,-0.677,2.0
13.778,1.539,-0.445,21.0
13.714,1.53,-0.521,15.0
13.309,1.483,-0.581,10.0
13.008,1.448,-0.644,7.0
12.06,1.341,-0.665,2.0
11.183,1.242,-0.681,1.0
13.761,1.522,-0.454,27.0
13.684,1.512,-0.53,13.0
13.234,1.461,-0.587,8.0
12.926,1.425,-0.649,5.0
11.947,1.316,-0.667,2.0
11.065,1.217,-0.681,1.0
13.756,1.507,-0.464,26.0
13.658,1.494,-0.538,12.0
13.17,1.439,-0.593,8.0
12.84,1.401,-0.653,3.0
11.868,1.294,-0.671,2.0
10.974,1.195,-0.683,1.0
13.761,1.492,-0.473,28.0
13.634,1.476,-0.546,12.0
13.087,1.415,-0.598,8.0
12.698,1.371,-0.654,3.0
11.737,1.266,-0.671,1.0
10.908,1.175,-0.686,2.0
13.759,1.475,-0.481,28.0
13.572,1.453,-0.552,10.0
13.077,1.398,-0.606,8.0
12.582,1.344,-0.656,3.0
11.671,1.245,-0.674,2.0
10.872,1.158,-0.69,1.0
13.752,1.458,-0.489,28.0
13.52,1.432,-0.558,9.0
13.076,1.383,-0.613,8.0
12.454,1.315,-0.656,3.0
11.631,1.226,-0.679,2.0
10.794,1.137,-0.691,1.0
13.745,1.44,-0.497,27.0
13.47,1.409,-0.563,9.0
13.094,1.368,-0.622,9.0
12.397,1.293,-0.66,1.0
11.525,1.201,-0.679,2.0
10.721,1.115,-0.692,2.0
13.727,1.421,-0.504,20.0
13.337,1.378,-0.565,9.0
13.07,1.349,-0.627,10.0
12.355,1.273,-0.664,1.0
11.446,1.178,-0.68,1.0
10.67,1.096,-0.695,2.0
13.7,1.4,-0.509,12.0
13.353,1.363,-0.572,10.0
13.066,1.331,-0.633,11.0
12.293,1.251,-0.667,1.0
11.363,1.154,-0.681,1.0
10.619,1.077,-0.696,2.0
13.705,1.383,-0.516,11.0
13.349,1.345,-0.578,10.0
13.064,1.314,-0.639,11.0
12.254,1.23,-0.67,2.0
11.331,1.136,-0.684,1.0
10.575,1.058,-0.698,1.0
13.71,1.365,-0.522,13.0
13.334,1.325,-0.583,10.0
13.056,1.295,-0.644,12.0
12.184,1.207,-0.671,2.0
11.279,1.115,-0.685,2.0
10.534,1.04,-0.699,1.0
13.715,1.347,-0.528,16.0
13.336,1.307,-0.588,10.0
13.057,1.277,-0.649,11.0
12.13,1.185,-0.673,2.0
11.239,1.096,-0.687,2.0
10.487,1.021,-0.7,1.0
13.722,1.328,-0.533,20.0
13.299,1.285,-0.591,11.0
13.032,1.257,-0.653,7.0
12.091,1.164,-0.675,2.0
11.217,1.078,-0.689,1.0
10.449,1.002,-0.701,1.0
13.716,1.308,-0.537,13.0
13.29,1.265,-0.595,11.0
13.021,1.237,-0.656,7.0
12.055,1.143,-0.676,2.0
11.19,1.059,-0.691,1.0
10.409,0.983,-0.701,2.0
13.713,1.288,-0.541,13.0
13.265,1.243,-0.597,11.0
13.006,1.216,-0.659,7.0
12.043,1.124,-0.679,1.0
11.176,1.041,-0.693,1.0
10.401,0.967,-0.703,2.0
13.727,1.269,-0.545,13.0
13.266,1.224,-0.601,8.0
12.98,1.195,-0.661,7.0
11.99,1.101,-0.679,1.0
11.156,1.023,-0.694,1.0
10.39,0.95,-0.705,2.0
13.734,1.249,-0.548,15.0
13.298,1.207,-0.605,10.0
12.961,1.173,-0.662,6.0
11.97,1.081,-0.68,2.0
11.109,1.001,-0.693,2.0
10.39,0.934,-0.707,2.0
13.741,1.228,-0.55,14.0
13.293,1.186,-0.607,9.0
12.964,1.154,-0.664,6.0
11.935,1.06,-0.68,2.0
11.105,0.984,-0.695,2.0
10.37,0.917,-0.707,1.0
13.761,1.209,-0.553,13.0
13.232,1.16,-0.606,9.0
12.977,1.135,-0.667,5.0
11.902,1.038,-0.679,2.0
11.116,0.968,-0.697,2.0
10.352,0.899,-0.707,2.0
13.78,1.189,-0.555,13.0
13.211,1.137,-0.606,8.0
12.979,1.114,-0.668,5.0
11.92,1.021,-0.681,2.0
11.122,0.95,-0.698,2.0
10.36,0.883,-0.708,2.0
13.778,1.167,-0.556,13.0
13.26,1.12,-0.609,10.0
12.97,1.093,-0.668,6.0
11.97,1.006,-0.684,1.0
11.126,0.933,-0.698,2.0
10.368,0.867,-0.709,2.0
13.824,1.149,-0.558,14.0
13.253,1.098,-0.609,10.0
12.96,1.071,-0.667,5.0
11.957,0.986,-0.684,2.0
11.159,0.917,-0.7,1.0
10.386,0.852,-0.71,2.0
13.84,1.127,-0.558,14.0
13.311,1.081,-0.611,9.0
12.983,1.052,-0.668,6.0
11.996,0.969,-0.685,2.0
11.182,0.901,-0.701,1.0
10.401,0.836,-0.71,2.0
13.919,1.111,-0.561,12.0
13.331,1.061,-0.611,8.0
13.011,1.033,-0.669,6.0
12.034,0.952,-0.687,3.0
11.185,0.883,-0.7,2.0
10.451,0.822,-0.713,2.0
13.921,1.088,-0.559,14.0
13.298,1.036,-0.608,11.0
13.032,1.012,-0.668,7.0
12.078,0.936,-0.687,3.0
11.211,0.866,-0.7,2.0
10.478,0.807,-0.713,1.0
14.071,1.076,-0.563,13.0
13.341,1.017,-0.608,11.0
13.045,0.992,-0.667,11.0
12.134,0.92,-0.689,2.0
11.237,0.849,-0.7,2.0
10.497,0.791,-0.712,1.0
14.174,1.061,-0.565,11.0
13.424,1.001,-0.609,11.0
13.039,0.969,-0.664,11.0
12.201,0.904,-0.69,2.0
11.293,0.834,-0.701,2.0
10.539,0.776,-0.713,2.0
14.525,1.062,-0.575,15.0
13.492,0.983,-0.609,12.0
13.057,0.949,-0.662,11.0
12.255,0.887,-0.69,1.0
11.364,0.82,-0.703,2.0
10.607,0.763,-0.715,2.0
14.609,1.044,-0.575,20.0
13.508,0.962,-0.606,13.0
13.07,0.927,-0.658,10.0
12.285,0.869,-0.688,2.0
11.429,0.805,-0.703,2.0
10.657,0.749,-0.715,2.0
14.648,1.022,-0.572,14.0
13.572,0.943,-0.605,11.0
13.069,0.905,-0.654,10.0
12.335,0.851,-0.687,3.0
11.505,0.791,-0.704,1.0
10.701,0.733,-0.714,2.0
14.647,0.996,-0.567,10.0
13.675,0.926,-0.604,13.0
13.064,0.882,-0.649,9.0
12.406,0.834,-0.686,2.0
11.539,0.773,-0.702,2.0
10.786,0.72,-0.715,2.0
14.745,0.977,-0.565,7.0
13.785,0.91,-0.604,13.0
13.071,0.86,-0.644,10.0
12.5,0.819,-0.686,2.0
11.574,0.756,-0.699,1.0
10.858,0.706,-0.716,3.0
14.87,0.96,-0.563,4.0
13.831,0.89,-0.6,12.0
13.087,0.838,-0.639,8.0
12.615,0.805,-0.687,2.0
11.691,0.743,-0.701,1.0
10.917,0.691,-0.714,2.0
15.268,0.959,-0.571,2.0
13.974,0.875,-0.599,13.0
13.161,0.82,-0.636,7.0
12.738,0.791,-0.687,2.0
11.829,0.731,-0.703,1.0
11.015,0.678,-0.715,1.0
15.748,0.962,-0.581,2.0
14.412,0.877,-0.61,15.0
13.307,0.806,-0.636,7.0
12.925,0.78,-0.69,3.0
11.948,0.718,-0.704,1.0
11.11,0.665,-0.715,2.0
15.967,0.948,-0.58,3.0
14.564,0.861,-0.609,15.0
13.449,0.791,-0.635,9.0
13.009,0.762,-0.687,6.0
12.042,0.702,-0.702,1.0
11.183,0.649,-0.713,2.0
16.157,0.931,-0.577,3.0
14.636,0.839,-0.603,20.0
13.516,0.771,-0.63,11.0
13.062,0.742,-0.682,9.0
12.171,0.688,-0.702,2.0
11.292,0.636,-0.713,2.0
16.326,0.912,-0.573,4.0
14.647,0.814,-0.594,21.0
13.584,0.752,-0.625,14.0
13.059,0.719,-0.673,10.0
12.31,0.675,-0.702,2.0
11.396,0.622,-0.712,2.0
16.543,0.895,-0.569,3.0
14.664,0.79,-0.584,15.0
13.791,0.739,-0.624,14.0
13.054,0.696,-0.664,11.0
12.443,0.66,-0.7,1.0
11.53,0.608,-0.712,2.0
16.769,0.878,-0.565,2.0
14.748,0.768,-0.577,7.0
14.018,0.726,-0.624,15.0
13.083,0.674,-0.655,10.0
12.606,0.646,-0.7,1.0
11.702,0.597,-0.713,2.0
17.156,0.868,-0.565,3.0
15.18,0.764,-0.582,2.0
14.32,0.717,-0.627,16.0
13.166,0.656,-0.649,8.0
12.811,0.635,-0.701,2.0
11.843,0.584,-0.712,3.0
17.365,0.849,-0.558,5.0
15.737,0.765,-0.591,2.0
14.568,0.704,-0.626,21.0
13.421,0.645,-0.65,11.0
12.95,0.619,-0.698,5.0
11.98,0.57,-0.71,3.0
17.637,0.831,-0.552,5.0
16.038,0.752,-0.588,2.0
14.623,0.681,-0.615,29.0
13.586,0.629,-0.647,14.0
13.04,0.601,-0.691,7.0
12.206,0.559,-0.713,2.0
17.919,0.814,-0.545,5.0
16.314,0.736,-0.584,2.0
14.644,0.657,-0.603,23.0
13.755,0.613,-0.642,14.0
13.039,0.578,-0.679,10.0
12.384,0.546,-0.712,2.0
18.284,0.799,-0.539,4.0
16.566,0.719,-0.577,2.0
14.657,0.632,-0.59,13.0
13.969,0.599,-0.639,15.0
13.056,0.556,-0.668,10.0
12.622,0.534,-0.714,3.0
18.627,0.782,-0.531,4.0
16.963,0.707,-0.575,2.0
14.971,0.62,-0.588,5.0
14.339,0.59,-0.642,15.0
13.078,0.535,-0.656,7.0
12.758,0.518,-0.709,6.0
19.087,0.769,-0.525,3.0
17.355,0.694,-0.571,3.0
15.668,0.622,-0.599,6.0
14.497,0.572,-0.634,14.0
13.158,0.516,-0.646,2.0
12.964,0.505,-0.707,7.0
19.53,0.753,-0.517,3.0
17.622,0.675,-0.561,5.0
15.973,0.607,-0.594,3.0
14.582,0.551,-0.622,17.0
13.329,0.5,-0.64,1.0
13.073,0.487,-0.698,7.0
20.019,0.739,-0.509,3.0
18.023,0.66,-0.554,3.0
16.377,0.595,-0.591,2.0
14.628,0.528,-0.608,17.0
13.55,0.485,-0.636,1.0
13.328,0.474,-0.697,4.0
20.572,0.724,-0.5,4.0
18.46,0.645,-0.547,3.0
16.779,0.582,-0.587,3.0
14.705,0.506,-0.595,5.0
13.781,0.471,-0.631,2.0
13.567,0.46,-0.694,3.0
21.01,0.705,-0.486,4.0
18.927,0.631,-0.539,3.0
17.149,0.567,-0.58,2.0
15.26,0.5,-0.599,2.0
14.048,0.457,-0.627,3.0
13.796,0.445,-0.689,4.0
21.633,0.691,-0.475,4.0
19.398,0.614,-0.53,3.0
17.567,0.552,-0.573,4.0
15.96,0.497,-0.607,2.0
14.381,0.444,-0.624,2.0
14.022,0.429,-0.683,4.0
22.36,0.678,-0.464,4.0
19.887,0.597,-0.518,3.0
17.964,0.535,-0.564,3.0
16.276,0.48,-0.599,2.0
14.895,0.436,-0.628,3.0
14.256,0.413,-0.677,4.0
23.356,0.671,-0.456,5.0
20.427,0.581,-0.507,3.0
18.408,0.519,-0.555,3.0
16.72,0.467,-0.594,2.0
15.405,0.426,-0.63,3.0
14.4,0.394,-0.665,5.0
27.155,0.736,-0.495,1.0
20.94,0.562,-0.492,4.0
18.945,0.504,-0.546,3.0
17.161,0.452,-0.588,4.0
15.678,0.409,-0.62,2.0
14.599,0.377,-0.655,5.0
27.767,0.709,-0.469,1.0
21.56,0.545,-0.478,4.0
19.491,0.487,-0.536,3.0
17.551,0.434,-0.577,5.0
16.057,0.393,-0.613,2.0
14.867,0.36,-0.647,4.0
28.727,0.688,-0.446,2.0
22.532,0.534,-0.469,4.0
19.976,0.469,-0.522,3.0
17.967,0.417,-0.566,5.0
16.467,0.378,-0.606,2.0
15.198,0.345,-0.64,4.0
29.512,0.662,-0.417,2.0
26.768,0.593,-0.52,1.0
20.671,0.453,-0.511,4.0
18.529,0.401,-0.557,5.0
16.881,0.361,-0.597,3.0
15.565,0.329,-0.633,3.0
30.521,0.638,-0.388,2.0
27.22,0.562,-0.489,1.0
21.273,0.434,-0.495,4.0
18.911,0.381,-0.542,11.0
17.404,0.346,-0.59,2.0
15.969,0.314,-0.626,4.0
31.703,0.615,-0.357,1.0
28.196,0.54,-0.466,1.0
21.944,0.415,-0.478,4.0
19.653,0.367,-0.534,9.0
17.856,0.329,-0.579,3.0
16.431,0.298,-0.62,4.0
36.772,0.659,-0.359,0.0
29.185,0.516,-0.439,2.0
26.252,0.457,-0.533,1.0
20.258,0.348,-0.52,4.0
18.433,0.312,-0.57,4.0
17.068,0.285,-0.618,3.0
37.0,0.61,-0.306,4.0
30.124,0.489,-0.407,2.0
26.899,0.43,-0.505,1.0
21.133,0.333,-0.51,5.0
18.967,0.294,-0.557,3.0
17.753,0.271,-0.615,5.0
37.4,0.562,-0.25,13.0
31.226,0.462,-0.373,1.0
27.722,0.404,-0.477,1.0
21.85,0.313,-0.493,4.0
19.605,0.276,-0.545,3.0
18.472,0.256,-0.611,7.0
37.995,0.518,-0.195,46.0
32.866,0.44,-0.34,1.0
28.937,0.381,-0.452,2.0
25.954,0.335,-0.544,1.0
20.292,0.257,-0.532,3.0
19.436,0.242,-0.611,7.0
39.004,0.477,-0.137,46.0
37.173,0.446,-0.325,2.0
29.777,0.351,-0.416,2.0
26.63,0.308,-0.515,2.0
21.074,0.238,-0.518,4.0
20.326,0.225,-0.606,4.0
43.943,0.478,-0.083,14.0
37.468,0.399,-0.267,9.0
30.854,0.322,-0.381,1.0
27.457,0.28,-0.485,1.0
21.86,0.218,-0.501,4.0
21.36,0.208,-0.601,3.0
0.0,0.0,0.0,0.0
38.15,0.356,-0.208,32.0
32.697,0.298,-0.349,1.0
28.733,0.255,-0.46,2.0
25.757,0.223,-0.547,1.0
22.74,0.192,-0.602,3.0
47.921,0.396,0.069,61.0
39.176,0.315,-0.147,46.0
37.576,0.294,-0.338,0.0
29.63,0.225,-0.424,3.0
26.576,0.196,-0.519,1.0
23.773,0.17,-0.588,2.0
48.156,0.336,0.152,59.0
44.081,0.298,-0.09,12.0
37.806,0.247,-0.274,6.0
30.936,0.196,-0.389,2.0
27.478,0.168,-0.489,1.0
24.549,0.145,-0.565,1.0
55.051,0.315,0.269,66.0
0.0,0.0,0.0,0.0
38.568,0.205,-0.213,28.0
32.623,0.167,-0.353,1.0
28.709,0.141,-0.461,2.0
25.729,0.121,-0.547,1.0
59.362,0.268,0.395,41.0
54.303,0.234,0.078,27.0
39.646,0.163,-0.149,38.0
37.786,0.147,-0.342,4.0
29.786,0.11,-0.424,1.0
26.632,0.093,-0.518,2.0
79.457,0.263,0.671,117.0
59.053,0.184,0.191,7.0
0.0,0.0,0.0,0.0
38.155,0.104,-0.276,6.0
30.959,0.078,-0.385,1.0
27.645,0.064,-0.487,2.0
79.47,0.17,0.816,151.0
75.835,0.148,0.384,10.0
0.0,0.0,0.0,0.0
38.977,0.061,-0.211,17.0
33.015,0.045,-0.35,1.0
28.923,0.034,-0.457,2.0
79.467,0.081,0.961,151.0
79.298,0.066,0.547,9.0
0.0,0.0,0.0,0.0
40.478,0.018,-0.144,16.0
38.288,0.01,-0.334,1.0
30.002,0.002,-0.418,1.0
79.462,-0.006,1.109,151.0
79.432,-0.02,0.695,150.0
56.164,-0.024,0.2,7.0
0.0,0.0,0.0,0.0
38.718,-0.03,-0.267,7.0
31.485,-0.03,-0.38,1.0
79.453,-0.09,1.256,151.0
79.469,-0.104,0.844,153.0
76.282,-0.113,0.415,13.0
47.834,-0.079,0.007,21.0
39.839,-0.073,-0.199,15.0
33.195,-0.066,-0.338,1.0
79.441,-0.172,1.405,165.0
79.465,-0.186,0.995,151.0
79.314,-0.199,0.582,53.0
0.0,0.0,0.0,0.0
41.648,-0.118,-0.13,17.0
38.895,-0.116,-0.323,0.0
79.405,-0.251,1.555,255.0
79.462,-0.264,1.146,153.0
79.448,-0.276,0.733,150.0
61.344,-0.223,0.243,13.0
0.0,0.0,0.0,0.0
39.343,-0.155,-0.251,5.0
79.437,-0.327,1.708,192.0
79.445,-0.34,1.297,172.0
79.456,-0.352,0.885,157.0
76.669,-0.351,0.45,16.0
50.511,-0.239,0.035,21.0
40.126,-0.196,-0.178,3.0
79.434,-0.401,1.861,176.0
79.436,-0.413,1.45,193.0
79.455,-0.425,1.04,165.0
79.343,-0.436,0.621,150.0
56.148,-0.317,0.149,10.0
42.407,-0.245,-0.106,3.0
79.428,-0.473,2.017,165.0
79.429,-0.484,1.605,197.0
79.45,-0.495,1.194,171.0
79.458,-0.506,0.776,174.0
76.877,-0.5,0.353,8.0
46.855,-0.311,-0.026,2.0
79.435,-0.541,2.172,151.0
79.42,-0.551,1.76,209.0
79.446,-0.562,1.351,174.0
79.453,-0.573,0.933,180.0
0.0,0.0,0.0,0.0
55.349,-0.413,0.078,5.0
79.423,-0.606,2.328,150.0
79.429,-0.616,1.918,178.0
79.438,-0.626,1.506,176.0
79.453,-0.636,1.089,179.0
79.463,-0.647,0.679,150.0
0.0,0.0,0.0,0.0
79.424,-0.669,2.485,150.0
79.444,-0.678,2.075,151.0
79.44,-0.688,1.665,183.0
79.438,-0.697,1.247,184.0
79.452,-0.707,0.838,179.0
77.382,-0.698,0.417,10.0
79.438,-0.729,2.645,151.0
79.446,-0.738,2.234,151.0
79.424,-0.747,1.824,190.0
79.448,-0.755,1.406,180.0
79.45,-0.764,0.996,168.0
79.311,-0.772,0.585,59.0
79.439,-0.786,2.804,151.0
79.43,-0.794,2.393,151.0
79.437,-0.802,1.983,161.0
79.43,-0.811,1.565,197.0
79.44,-0.819,1.154,180.0
79.45,-0.827,0.746,155.0
79.428,-0.839,2.963,153.0
79.425,-0.847,2.553,151.0
79.438,-0.855,2.143,159.0
79.422,-0.863,1.725,211.0
79.394,-0.87,1.315,255.0
79.447,-0.879,0.907,151.0
79.422,-0.89,3.123,151.0
79.422,-0.897,2.713,150.0
79.417,-0.904,2.302,150.0
79.431,-0.912,1.885,151.0
79.441,-0.919,1.476,161.0
79.441,-0.926,1.065,173.0
79.403,-0.937,3.282,129.0
79.388,-0.944,2.872,126.0
79.404,-0.951,2.463,11.0
79.433,-0.958,2.046,3.0
79.403,-0.964,1.635,5.0
79.445,-0.971,1.227,151.0
85.93,-1.063,3.726,150.0
86.019,-1.071,3.286,60.0
109.611,-1.374,3.623,2.0
79.542,-1.003,2.211,0.0
86.92,-1.102,1.967,4.0
86.947,-1.109,1.52,40.0
85.78,-1.107,3.895,150.0
91.069,-1.181,3.665,64.0
0.0,0.0,0.0,0.0
86.908,-1.139,2.592,14.0
86.945,-1.145,2.144,43.0
86.941,-1.151,1.696,130.0
79.199,-1.061,3.757,159.0
91.055,-1.225,3.85,74.0
99.565,-1.346,3.694,16.0
86.942,-1.18,2.77,49.0
86.924,-1.186,2.321,30.0
183.404,-2.512,3.951,38.0
79.205,-1.096,3.918,10.0
85.819,-1.193,3.802,151.0
99.494,-1.388,3.893,46.0
100.512,-1.408,3.404,4.0
151.49,-2.13,4.351,36.0
183.388,-2.587,4.322,79.0
83.89,-1.196,4.321,20.0
85.779,-1.227,3.974,150.0
91.512,-1.313,3.767,59.0
129.219,-1.86,4.64,17.0
151.481,-2.188,4.659,88.0
151.518,-2.195,3.879,31.0
83.884,-1.227,4.492,70.0
79.186,-1.161,3.83,150.0
91.493,-1.346,3.953,49.0
128.575,-1.896,4.878,37.0
151.436,-2.239,4.965,71.0
151.505,-2.246,4.185,79.0
83.946,-1.256,4.664,26.0
127.005,-1.905,6.401,11.0
91.225,-1.371,4.126,70.0
128.129,-1.93,5.121,30.0
184.721,-2.787,6.427,22.0
151.488,-2.291,4.491,91.0
84.105,-1.284,4.845,16.0
83.868,-1.282,4.397,25.0
90.937,-1.392,4.298,66.0
91.461,-1.402,3.84,67.0
128.259,-1.969,4.722,18.0
151.459,-2.329,4.795,91.0
85.332,-1.324,5.089,14.0
83.883,-1.303,4.567,66.0
90.844,-1.413,4.476,65.0
91.434,-1.423,4.024,91.0
128.08,-1.996,4.977,32.0
151.436,-2.362,5.101,37.0
85.445,-1.345,5.269,29.0
84.024,-1.323,4.746,52.0
90.862,-1.432,4.662,67.0
91.379,-1.44,4.206,80.0
91.505,-1.443,3.739,11.0
184.796,-2.917,6.599,25.0
94.313,-1.502,6.008,13.0
84.085,-1.339,4.919,13.0
90.843,-1.447,4.843,24.0
90.811,-1.446,4.363,59.0
91.461,-1.456,3.921,36.0
128.178,-2.041,4.833,20.0
124.943,-2.007,8.209,42.0
