X,Y,Z,Reflectivity
9.97,1.223,-0.032,150.0
9.976,1.223,-0.089,150.0
9.966,1.221,-0.147,100.0
9.972,1.221,-0.205,106.0
9.977,1.221,-0.262,58.0
9.97,1.217,0.013,86.0
9.973,1.217,-0.043,150.0
9.973,1.216,-0.1,150.0
9.964,1.214,-0.158,95.0
9.976,1.215,-0.215,108.0
9.973,1.214,-0.272,53.0
9.974,1.211,0.003,96.0
9.979,1.21,-0.053,150.0
9.977,1.209,-0.11,150.0
9.969,1.207,-0.168,96.0
9.973,1.207,-0.225,100.0
9.978,1.207,-0.282,42.0
9.975,1.203,-0.006,96.0
9.975,1.202,-0.063,150.0
9.977,1.201,-0.12,138.0
9.97,1.199,-0.178,83.0
9.987,1.201,-0.235,71.0
9.986,1.2,-0.292,30.0
9.986,1.196,-0.016,79.0
9.982,1.195,-0.073,137.0
9.99,1.195,-0.13,134.0
9.985,1.193,-0.188,74.0
9.995,1.193,-0.245,78.0
9.996,1.193,-0.302,28.0
9.991,1.188,-0.026,74.0
9.999,1.188,-0.083,143.0
9.997,1.187,-0.14,124.0
9.996,1.186,-0.198,61.0
10.004,1.186,-0.255,51.0
9.997,1.184,-0.312,22.0
9.995,1.18,-0.035,71.0
9.999,1.179,-0.092,134.0
9.996,1.178,-0.149,114.0
9.998,1.177,-0.207,45.0
10.013,1.178,-0.264,37.0
10.006,1.176,-0.321,19.0
10.004,1.172,-0.044,43.0
10.005,1.171,-0.101,62.0
10.012,1.17,-0.158,20.0
10.0,1.168,-0.216,16.0
10.005,1.167,-0.273,15.0
13.816,1.61,-0.457,4.0
10.015,1.163,-0.053,16.0
10.001,1.16,-0.11,14.0
9.997,1.159,-0.167,10.0
19.653,2.276,-0.443,1.0
13.838,1.601,-0.391,6.0
13.786,1.593,-0.468,7.0
34.612,3.986,-0.217,8.0
10.011,1.151,-0.119,3.0
21.915,2.518,-0.386,3.0
13.853,1.59,-0.324,6.0
13.822,1.585,-0.402,16.0
13.773,1.577,-0.479,14.0
34.504,3.938,-0.246,38.0
25.067,2.857,-0.321,1.0
21.577,2.456,-0.399,0.0
13.835,1.573,-0.336,16.0
13.804,1.568,-0.414,19.0
13.756,1.561,-0.49,14.0
34.484,3.898,-0.274,25.0
13.858,1.564,-0.189,4.0
13.849,1.561,-0.267,14.0
13.803,1.554,-0.346,21.0
13.773,1.549,-0.424,17.0
13.729,1.542,-0.501,18.0
34.435,3.853,-0.302,2.0
13.84,1.546,-0.2,14.0
13.807,1.541,-0.278,18.0
13.794,1.537,-0.357,26.0
13.766,1.532,-0.435,22.0
13.713,1.524,-0.511,19.0
13.842,1.532,-0.132,16.0
13.806,1.526,-0.21,24.0
13.802,1.524,-0.288,31.0
13.776,1.519,-0.367,23.0
13.757,1.515,-0.445,24.0
13.7,1.507,-0.521,19.0
13.807,1.512,-0.142,25.0
13.805,1.51,-0.221,33.0
13.793,1.506,-0.299,38.0
13.771,1.502,-0.378,29.0
13.761,1.499,-0.456,29.0
13.688,1.489,-0.531,18.0
13.795,1.494,-0.152,34.0
13.798,1.492,-0.231,40.0
13.785,1.488,-0.308,46.0
13.777,1.485,-0.388,33.0
13.757,1.481,-0.465,31.0
13.672,1.47,-0.54,15.0
13.784,1.475,-0.162,38.0
13.793,1.473,-0.24,52.0
13.776,1.469,-0.318,39.0
13.77,1.466,-0.397,34.0
13.759,1.463,-0.475,30.0
13.649,1.449,-0.549,11.0
13.778,1.456,-0.171,39.0
13.782,1.454,-0.249,95.0
13.775,1.451,-0.327,36.0
13.765,1.448,-0.406,31.0
13.75,1.444,-0.484,29.0
13.603,1.427,-0.556,10.0
13.772,1.437,-0.18,41.0
13.785,1.436,-0.258,46.0
13.766,1.432,-0.336,39.0
13.752,1.428,-0.415,30.0
13.724,1.423,-0.491,23.0
13.534,1.401,-0.561,11.0
13.778,1.419,-0.189,40.0
13.779,1.416,-0.267,119.0
13.771,1.413,-0.344,85.0
13.761,1.41,-0.423,31.0
13.716,1.403,-0.499,16.0
13.448,1.373,-0.566,12.0
13.778,1.399,-0.197,36.0
13.775,1.396,-0.275,150.0
13.768,1.393,-0.352,129.0
13.759,1.39,-0.431,34.0
13.718,1.383,-0.508,13.0
13.481,1.357,-0.575,11.0
13.785,1.38,-0.205,46.0
13.779,1.377,-0.282,150.0
13.767,1.373,-0.36,150.0
13.761,1.37,-0.439,39.0
13.723,1.364,-0.515,15.0
13.413,1.331,-0.579,10.0
13.794,1.361,-0.212,40.0
13.782,1.357,-0.29,150.0
13.767,1.353,-0.367,65.0
13.75,1.349,-0.445,34.0
13.716,1.343,-0.522,16.0
13.389,1.308,-0.585,10.0
13.794,1.34,-0.219,34.0
13.789,1.337,-0.297,73.0
13.772,1.333,-0.374,35.0
13.749,1.328,-0.452,27.0
13.715,1.322,-0.528,16.0
13.365,1.285,-0.59,10.0
13.812,1.321,-0.226,37.0
13.808,1.317,-0.303,39.0
13.782,1.312,-0.38,30.0
13.77,1.308,-0.459,29.0
13.713,1.3,-0.534,13.0
13.323,1.261,-0.594,11.0
13.83,1.301,-0.232,34.0
13.813,1.296,-0.309,36.0
13.791,1.291,-0.386,27.0
13.784,1.288,-0.465,26.0
13.724,1.28,-0.54,13.0
13.322,1.24,-0.599,9.0
13.853,1.281,-0.238,31.0
13.834,1.276,-0.315,26.0
13.811,1.271,-0.392,20.0
13.791,1.267,-0.471,23.0
13.737,1.259,-0.546,12.0
13.314,1.217,-0.604,10.0
13.874,1.261,-0.243,20.0
13.859,1.256,-0.321,18.0
13.846,1.252,-0.398,16.0
13.816,1.246,-0.476,22.0
13.741,1.237,-0.551,12.0
13.296,1.194,-0.607,10.0
13.896,1.24,-0.248,6.0
13.876,1.235,-0.326,7.0
13.901,1.234,-0.404,14.0
13.833,1.225,-0.481,17.0
13.763,1.216,-0.556,12.0
13.265,1.169,-0.61,9.0
22.271,1.951,-0.405,4.0
19.692,1.72,-0.468,3.0
13.955,1.216,-0.409,4.0
13.879,1.206,-0.486,13.0
13.761,1.193,-0.559,12.0
13.23,1.144,-0.612,9.0
22.081,1.897,-0.407,4.0
19.646,1.683,-0.471,3.0
17.642,1.508,-0.522,2.0
13.914,1.186,-0.491,8.0
13.766,1.17,-0.563,11.0
13.242,1.123,-0.615,10.0
22.014,1.854,-0.41,4.0
19.592,1.646,-0.474,3.0
17.582,1.473,-0.524,2.0
15.947,1.332,-0.566,1.0
13.795,1.149,-0.566,11.0
13.208,1.097,-0.616,10.0
21.956,1.812,-0.413,4.0
19.525,1.607,-0.476,3.0
17.574,1.442,-0.526,2.0
0.0,0.0,0.0,0.0
13.79,1.125,-0.568,12.0
13.232,1.076,-0.619,9.0
21.929,1.772,-0.416,4.0
19.529,1.573,-0.479,3.0
17.494,1.405,-0.526,2.0
15.965,1.278,-0.571,2.0
13.765,1.099,-0.569,9.0
13.194,1.05,-0.619,7.0
21.922,1.733,-0.418,4.0
19.581,1.543,-0.482,3.0
17.51,1.375,-0.528,3.0
15.897,1.245,-0.57,2.0
13.816,1.079,-0.572,11.0
13.196,1.027,-0.62,9.0
21.913,1.693,-0.419,4.0
19.487,1.501,-0.481,3.0
17.566,1.348,-0.531,2.0
15.909,1.217,-0.571,3.0
13.885,1.059,-0.575,11.0
13.185,1.002,-0.62,7.0
21.949,1.657,-0.42,4.0
19.52,1.468,-0.482,3.0
17.567,1.317,-0.531,2.0
15.933,1.19,-0.572,2.0
13.88,1.033,-0.575,9.0
13.277,0.985,-0.624,9.0
22.045,1.624,-0.422,4.0
19.606,1.439,-0.484,3.0
17.59,1.287,-0.531,3.0
15.982,1.165,-0.573,2.0
13.978,1.015,-0.579,12.0
13.308,0.963,-0.625,9.0
22.1,1.588,-0.422,4.0
19.623,1.405,-0.483,3.0
17.642,1.259,-0.532,4.0
15.963,1.135,-0.571,1.0
14.132,1.001,-0.584,13.0
13.323,0.94,-0.624,11.0
22.119,1.549,-0.42,4.0
19.64,1.371,-0.482,3.0
17.719,1.232,-0.532,3.0
16.066,1.112,-0.573,2.0
14.233,0.982,-0.586,15.0
13.368,0.919,-0.625,10.0
22.257,1.518,-0.42,4.0
19.794,1.345,-0.483,3.0
17.802,1.205,-0.532,3.0
16.112,1.086,-0.572,3.0
14.459,0.971,-0.593,16.0
13.382,0.895,-0.623,12.0
22.467,1.491,-0.42,4.0
19.944,1.318,-0.483,3.0
17.857,1.175,-0.531,3.0
16.185,1.061,-0.572,4.0
14.613,0.954,-0.597,15.0
13.468,0.875,-0.624,11.0
22.684,1.463,-0.42,5.0
20.048,1.287,-0.481,3.0
18.016,1.152,-0.531,3.0
16.248,1.034,-0.57,4.0
14.643,0.928,-0.595,19.0
13.554,0.856,-0.625,12.0
22.915,1.435,-0.418,5.0
20.151,1.256,-0.478,3.0
18.156,1.127,-0.531,3.0
16.335,1.009,-0.569,4.0
14.648,0.901,-0.591,21.0
13.636,0.835,-0.625,11.0
23.189,1.408,-0.416,5.0
20.346,1.23,-0.477,3.0
18.273,1.1,-0.529,3.0
16.422,0.984,-0.567,2.0
14.66,0.874,-0.587,18.0
13.686,0.812,-0.623,12.0
23.577,1.388,-0.416,5.0
20.528,1.202,-0.475,4.0
18.407,1.073,-0.526,3.0
16.579,0.962,-0.567,2.0
14.674,0.847,-0.582,14.0
13.751,0.79,-0.621,11.0
23.937,1.364,-0.413,5.0
20.752,1.176,-0.472,4.0
18.564,1.047,-0.524,3.0
16.74,0.939,-0.566,2.0
14.677,0.82,-0.576,9.0
13.782,0.766,-0.617,16.0
24.236,1.335,-0.409,5.0
20.942,1.147,-0.468,4.0
18.747,1.022,-0.521,3.0
16.963,0.92,-0.566,2.0
14.897,0.804,-0.579,6.0
14.116,0.757,-0.626,14.0
24.721,1.315,-0.406,3.0
21.14,1.118,-0.463,4.0
19.015,1.0,-0.52,3.0
17.173,0.898,-0.565,2.0
15.199,0.79,-0.583,3.0
14.347,0.742,-0.629,17.0
24.877,1.275,-0.396,1.0
21.377,1.089,-0.457,4.0
19.27,0.976,-0.517,3.0
17.354,0.874,-0.562,4.0
15.594,0.781,-0.59,2.0
14.483,0.721,-0.627,16.0
28.635,1.413,-0.441,1.0
21.747,1.067,-0.453,4.0
19.466,0.949,-0.512,3.0
17.471,0.847,-0.556,3.0
15.882,0.765,-0.592,2.0
14.625,0.701,-0.625,28.0
28.869,1.37,-0.429,2.0
22.111,1.042,-0.448,4.0
19.658,0.921,-0.505,3.0
17.71,0.825,-0.554,4.0
16.096,0.745,-0.591,2.0
14.63,0.673,-0.616,24.0
29.19,1.329,-0.416,2.0
22.56,1.02,-0.444,4.0
19.967,0.897,-0.501,3.0
17.913,0.8,-0.549,3.0
16.293,0.723,-0.588,2.0
14.648,0.645,-0.608,25.0
29.668,1.295,-0.404,2.0
23.139,1.003,-0.44,5.0
20.344,0.875,-0.497,3.0
18.214,0.779,-0.546,3.0
16.487,0.7,-0.583,2.0
14.67,0.619,-0.599,14.0
30.136,1.258,-0.389,2.0
23.81,0.986,-0.436,5.0
20.665,0.85,-0.491,4.0
18.526,0.756,-0.542,3.0
16.745,0.679,-0.581,2.0
14.688,0.591,-0.589,7.0
30.724,1.224,-0.375,3.0
24.311,0.961,-0.428,3.0
20.97,0.823,-0.483,4.0
18.804,0.732,-0.536,3.0
17.106,0.661,-0.58,2.0
15.139,0.581,-0.595,3.0
31.157,1.182,-0.357,2.0
28.053,1.056,-0.472,1.0
21.328,0.796,-0.474,4.0
19.079,0.707,-0.529,3.0
17.314,0.636,-0.573,6.0
15.669,0.571,-0.604,3.0
31.943,1.151,-0.34,1.0
28.347,1.013,-0.454,1.0
21.75,0.771,-0.466,4.0
19.403,0.682,-0.522,3.0
17.6,0.613,-0.568,3.0
16.013,0.553,-0.603,3.0
33.14,1.132,-0.325,1.0
28.925,0.979,-0.439,1.0
22.299,0.748,-0.459,4.0
19.784,0.658,-0.515,3.0
17.873,0.589,-0.562,5.0
16.276,0.532,-0.599,2.0
35.952,1.161,-0.321,3.0
29.445,0.942,-0.421,2.0
23.211,0.736,-0.457,5.0
20.21,0.635,-0.508,3.0
18.215,0.567,-0.556,4.0
16.568,0.51,-0.595,2.0
36.277,1.104,-0.291,10.0
30.019,0.904,-0.402,2.0
23.822,0.711,-0.447,3.0
20.669,0.61,-0.5,4.0
18.602,0.544,-0.55,5.0
16.947,0.49,-0.592,3.0
36.509,1.043,-0.258,10.0
30.624,0.866,-0.381,2.0
27.372,0.766,-0.487,1.0
21.175,0.586,-0.492,4.0
19.018,0.521,-0.544,3.0
17.245,0.467,-0.586,4.0
36.881,0.986,-0.225,26.0
31.457,0.831,-0.36,1.0
27.921,0.729,-0.468,1.0
21.675,0.56,-0.482,4.0
19.461,0.497,-0.537,3.0
17.545,0.443,-0.578,6.0
37.229,0.927,-0.189,57.0
32.692,0.804,-0.34,1.0
28.604,0.695,-0.451,1.0
22.302,0.535,-0.472,4.0
19.792,0.47,-0.525,3.0
17.853,0.418,-0.569,5.0
38.251,0.883,-0.154,45.0
34.122,0.778,-0.319,1.0
29.277,0.659,-0.43,2.0
23.253,0.516,-0.468,2.0
20.275,0.444,-0.516,3.0
18.302,0.396,-0.563,6.0
39.271,0.836,-0.114,43.0
36.712,0.771,-0.303,6.0
29.936,0.62,-0.406,2.0
26.749,0.546,-0.508,2.0
20.817,0.419,-0.506,4.0
18.73,0.371,-0.556,13.0
40.002,0.78,-0.072,15.0
36.947,0.71,-0.263,12.0
30.755,0.582,-0.383,2.0
27.409,0.51,-0.489,2.0
21.353,0.391,-0.495,4.0
19.219,0.346,-0.547,3.0
0.0,0.0,0.0,0.0
37.487,0.653,-0.222,24.0
31.85,0.546,-0.358,1.0
28.044,0.472,-0.467,1.0
21.948,0.363,-0.482,4.0
19.737,0.321,-0.538,3.0
47.262,0.754,0.026,39.0
38.074,0.596,-0.18,48.0
33.124,0.509,-0.332,1.0
29.002,0.438,-0.448,2.0
26.074,0.386,-0.541,1.0
20.278,0.294,-0.528,3.0
47.949,0.682,0.086,56.0
38.981,0.543,-0.136,47.0
37.004,0.505,-0.325,2.0
29.646,0.396,-0.421,2.0
26.537,0.347,-0.517,2.0
20.875,0.267,-0.517,4.0
48.022,0.6,0.146,79.0
39.991,0.488,-0.089,15.0
37.296,0.445,-0.28,7.0
30.518,0.355,-0.394,2.0
27.112,0.308,-0.494,2.0
21.544,0.239,-0.506,4.0
48.042,0.519,0.209,97.0
0.0,0.0,0.0,0.0
37.884,0.388,-0.235,13.0
31.612,0.315,-0.366,1.0
28.044,0.271,-0.473,1.0
22.07,0.207,-0.489,1.0
48.045,0.438,0.272,106.0
47.125,0.416,0.019,41.0
38.487,0.33,-0.187,46.0
32.878,0.273,-0.337,1.0
29.043,0.233,-0.451,2.0
25.864,0.2,-0.538,1.0
48.127,0.359,0.338,51.0
48.02,0.346,0.084,48.0
39.419,0.273,-0.138,39.0
37.627,0.25,-0.334,0.0
29.749,0.19,-0.421,2.0
26.611,0.163,-0.517,2.0
59.294,0.346,0.499,14.0
54.893,0.306,0.172,55.0
44.008,0.233,-0.093,5.0
37.8,0.19,-0.283,10.0
30.673,0.146,-0.391,2.0
27.35,0.123,-0.492,1.0
79.429,0.335,0.781,20.0
59.203,0.235,0.27,11.0
0.0,0.0,0.0,0.0
38.533,0.132,-0.232,14.0
32.042,0.101,-0.362,1.0
28.394,0.082,-0.47,2.0
79.467,0.209,0.897,151.0
76.005,0.18,0.458,16.0
47.868,0.101,0.037,21.0
39.295,0.072,-0.179,37.0
33.478,0.053,-0.329,1.0
29.289,0.038,-0.441,2.0
79.467,0.085,1.014,151.0
79.33,0.064,0.596,25.0
0.0,0.0,0.0,0.0
40.806,0.012,-0.125,17.0
38.313,0.002,-0.319,2.0
30.168,-0.006,-0.409,2.0
79.458,-0.035,1.132,151.0
79.438,-0.055,0.715,150.0
61.674,-0.059,0.232,12.0
0.0,0.0,0.0,0.0
38.8,-0.057,-0.264,5.0
31.621,-0.054,-0.381,2.0
79.453,-0.156,1.255,151.0
79.467,-0.175,0.838,151.0
76.416,-0.188,0.405,12.0
46.224,-0.125,0.0,5.0
39.562,-0.117,-0.207,11.0
33.101,-0.106,-0.347,1.0
79.44,-0.274,1.378,168.0
79.462,-0.294,0.962,151.0
79.182,-0.312,0.544,16.0
0.0,0.0,0.0,0.0
41.613,-0.184,-0.153,5.0
37.085,-0.173,-0.33,0.0
79.432,-0.389,1.502,195.0
79.458,-0.408,1.088,163.0
79.461,-0.428,0.673,151.0
61.134,-0.343,0.191,13.0
44.351,-0.259,-0.093,3.0
39.594,-0.241,-0.289,4.0
79.443,-0.503,1.631,184.0
79.45,-0.522,1.216,178.0
79.451,-0.54,0.8,185.0
76.913,-0.541,0.366,7.0
48.03,-0.349,-0.022,3.0
43.954,-0.329,-0.249,4.0
79.43,-0.614,1.76,186.0
79.439,-0.633,1.346,184.0
79.448,-0.65,0.931,191.0
77.307,-0.65,0.494,13.0
52.647,-0.454,0.061,3.0
47.336,-0.419,-0.191,4.0
79.428,-0.722,1.89,176.0
79.439,-0.739,1.475,190.0
79.447,-0.757,1.06,181.0
79.407,-0.774,0.638,150.0
57.993,-0.578,0.163,2.0
54.436,-0.555,-0.129,6.0
79.437,-0.826,2.021,155.0
79.43,-0.844,1.607,224.0
79.39,-0.861,1.193,255.0
79.452,-0.879,0.772,150.0
77.733,-0.877,0.35,3.0
60.778,-0.699,-0.042,2.0
79.406,-0.931,2.156,113.0
79.445,-0.948,1.743,10.0
79.428,-0.964,1.328,150.0
86.985,-1.075,0.994,13.0
78.889,-0.992,0.49,14.0
60.925,-0.778,0.061,7.0
86.93,-1.129,2.509,17.0
86.937,-1.148,2.057,55.0
183.413,-2.461,3.386,40.0
148.144,-2.017,1.947,13.0
87.899,-1.215,0.699,11.0
0.0,0.0,0.0,0.0
151.493,-2.155,4.633,75.0
183.381,-2.648,4.657,30.0
187.12,-2.739,3.778,66.0
205.345,-3.045,3.056,23.0
123.73,-1.859,1.198,9.0
0.0,0.0,0.0,0.0
151.434,-2.337,4.896,91.0
151.461,-2.367,4.108,73.0
261.957,-4.146,5.745,39.0
205.439,-3.29,3.418,26.0
149.329,-2.421,1.709,5.0
40.285,-0.661,0.252,36.0
151.418,-2.516,5.165,42.0
151.423,-2.545,4.378,74.0
40.249,-0.684,0.954,37.0
40.204,-0.69,0.74,24.0
205.425,-3.569,2.719,38.0
40.25,-0.706,0.323,45.0
184.55,-3.276,6.623,32.0
40.323,-0.723,1.237,24.0
40.249,-0.729,1.026,57.0
40.196,-0.735,0.812,54.0
40.255,-0.744,0.604,36.0
40.228,-0.75,0.396,52.0
185.418,-3.496,6.988,24.0
40.342,-0.768,1.311,2.0
40.274,-0.773,1.099,51.0
40.229,-0.779,0.885,48.0
40.236,-0.786,0.677,46.0
40.23,-0.793,0.468,49.0
191.404,-3.812,7.558,18.0
185.306,-3.723,6.356,42.0
40.272,-0.816,1.172,40.0
40.205,-0.821,0.958,52.0
40.226,-0.828,0.75,54.0
40.238,-0.835,0.542,51.0
191.55,-4.016,7.918,23.0
185.644,-3.92,6.708,45.0
40.265,-0.857,1.246,26.0
40.202,-0.862,1.032,57.0
40.204,-0.868,0.824,55.0
40.282,-0.876,0.616,31.0
185.058,-4.064,7.988,23.0
185.668,-4.106,7.052,22.0
40.355,-0.898,1.323,4.0
40.205,-0.901,1.105,55.0
40.202,-0.907,0.897,55.0
40.228,-0.914,0.689,47.0
129.529,-2.968,5.829,35.0
129.543,-2.987,5.158,17.0
40.221,-0.933,1.393,44.0
40.237,-0.939,1.18,54.0
40.188,-0.944,0.971,54.0
40.19,-0.95,0.763,56.0
129.06,-3.076,6.049,31.0
129.11,-3.095,5.38,43.0
40.196,-0.969,1.466,45.0
40.25,-0.976,1.255,69.0
40.198,-0.98,1.046,54.0
40.19,-0.985,0.838,51.0
93.076,-2.3,4.535,36.0
128.744,-3.199,5.605,47.0
40.202,-1.004,1.541,24.0
40.219,-1.01,1.33,52.0
40.203,-1.015,1.121,47.0
40.192,-1.02,0.913,54.0
93.083,-2.379,4.709,35.0
128.945,-3.313,5.857,41.0
129.218,-3.336,5.199,36.0
40.207,-1.043,1.405,50.0
40.253,-1.049,1.199,36.0
40.191,-1.052,0.989,56.0
90.474,-2.387,4.75,44.0
129.07,-3.42,6.106,24.0
128.789,-3.427,5.425,30.0
40.213,-1.075,1.482,38.0
40.309,-1.082,1.276,8.0
40.205,-1.083,1.065,45.0
90.477,-2.456,4.921,40.0
178.375,-4.863,8.775,34.0
128.941,-3.528,5.673,13.0
148.336,-4.076,5.744,3.0
0.0,0.0,0.0,0.0
40.231,-1.114,1.141,34.0
90.465,-2.522,5.09,13.0
129.116,-3.613,6.596,33.0
0.0,0.0,0.0,0.0
148.246,-4.178,6.021,11.0
0.0,0.0,0.0,0.0
40.303,-1.143,1.219,5.0
90.576,-2.588,5.269,49.0
90.449,-2.593,4.792,16.0
0.0,0.0,0.0,0.0
148.11,-4.273,6.296,5.0
0.0,0.0,0.0,0.0
0.0,0.0,0.0,0.0
90.566,-2.647,5.44,43.0
90.482,-2.652,4.965,32.0
0.0,0.0,0.0,0.0
0.0,0.0,0.0,0.0
148.269,-4.384,5.817,9.0
0.0,0.0,0.0,0.0
93.107,-2.778,5.77,9.0
93.213,-2.789,5.293,35.0
0.0,0.0,0.0,0.0
0.0,0.0,0.0,0.0
148.219,-4.469,6.096,32.0
0.0,0.0,0.0,0.0
83.299,-2.534,5.322,21.0
93.197,-2.841,5.469,28.0
90.473,-2.764,4.839,10.0
0.0,0.0,0.0,0.0
0.0,0.0,0.0,0.0
0.0,0.0,0.0,0.0
83.283,-2.578,5.479,37.0
93.119,-2.888,5.642,19.0
90.512,-2.813,5.014,36.0
0.0,0.0,0.0,0.0
0.0,0.0,0.0,0.0
148.058,-4.628,5.884,10.0
83.231,-2.617,5.634,46.0
93.147,-2.935,5.82,12.0
174.434,-5.506,9.995,13.0
0.0,0.0,0.0,0.0
0.0,0.0,0.0,0.0
148.074,-4.698,6.167,25.0
83.191,-2.654,5.789,45.0
172.538,-5.513,11.11,36.0
174.586,-5.587,10.334,22.0
0.0,0.0,0.0,0.0
0.0,0.0,0.0,0.0
0.0,0.0,0.0,0.0
92.369,-2.986,6.605,41.0
83.214,-2.693,5.518,13.0
93.247,-3.021,5.697,14.0
0.0,0.0,0.0,0.0
0.0,0.0,0.0,0.0
0.0,0.0,0.0,0.0
92.685,-3.032,6.806,17.0
83.132,-2.722,5.671,19.0
93.145,-3.052,5.869,20.0
175.328,-5.751,10.118,36.0
0.0,0.0,0.0,0.0
0.0,0.0,0.0,0.0
92.636,-3.061,6.975,17.0
83.183,-2.75,5.829,12.0
93.167,-3.083,6.044,2.0
174.63,-5.782,10.405,32.0
0.0,0.0,0.0,0.0
0.0,0.0,0.0,0.0
82.99,-2.767,6.405,14.0
91.954,-3.066,6.617,13.0
83.322,-2.78,5.561,9.0
174.637,-5.83,10.731,33.0
175.398,-5.858,9.867,9.0
0.0,0.0,0.0,0.0
82.925,-2.786,6.556,11.0
92.251,-3.1,6.812,24.0
82.979,-2.789,5.695,15.0
93.191,-3.132,5.9,23.0
175.251,-5.893,10.183,38.0
0.0,0.0,0.0,0.0
83.004,-2.807,6.718,6.0
92.658,-3.132,7.015,38.0
83.121,-2.81,5.86,15.0
93.165,-3.15,6.073,17.0
97.927,-3.311,5.873,11.0
0.0,0.0,0.0,0.0
82.768,-2.813,6.853,10.0
92.577,-3.146,7.181,30.0
83.309,-2.83,6.027,7.0
83.39,-2.832,5.59,10.0
174.567,-5.927,10.793,35.0
175.416,-5.955,9.932,12.0
82.669,-2.821,6.998,12.0
90.173,-3.076,7.161,14.0
91.861,-3.132,6.815,14.0
83.087,-2.831,5.722,22.0
93.153,-3.173,5.93,16.0
98.011,-3.337,5.73,10.0
40.845,-1.398,3.533,3.0
92.537,-3.165,7.52,4.0
92.535,-3.163,7.035,12.0
82.972,-2.833,5.865,15.0
93.154,-3.179,6.098,15.0
97.949,-3.34,5.901,13.0
40.868,-1.401,3.609,11.0
82.774,-2.835,6.875,9.0
92.557,-3.167,7.202,20.0
83.255,-2.846,6.034,7.0
83.282,-2.844,5.601,9.0
174.589,-5.956,10.831,34.0
40.823,-1.4,3.678,45.0
82.628,-2.831,7.01,13.0
90.134,-3.084,7.174,14.0
91.849,-3.139,6.82,13.0
83.088,-2.837,5.735,21.0
93.136,-3.176,5.941,16.0
40.723,-1.396,3.742,47.0
40.848,-1.398,3.538,4.0
83.308,-2.848,6.779,6.0
92.603,-3.161,7.041,15.0
83.039,-2.831,5.879,12.0
93.211,-3.173,6.111,12.0
53.436,-1.828,5.004,8.0
40.852,-1.396,3.61,10.0
82.762,-2.824,6.879,12.0
92.556,-3.152,7.198,20.0
83.263,-2.831,6.039,10.0
83.312,-2.829,5.606,10.0
53.138,-1.813,5.069,28.0
40.81,-1.39,3.678,41.0
63.443,-2.157,5.384,4.0
90.116,-3.058,7.164,12.0
92.132,-3.121,6.84,20.0
83.086,-2.81,5.734,19.0
41.022,-1.394,3.984,18.0
40.779,-1.383,3.745,42.0
54.805,-1.855,4.745,7.0
82.976,-2.803,6.738,9.0
92.634,-3.123,7.035,44.0
83.105,-2.796,5.876,5.0
41.027,-1.387,4.056,33.0
53.425,-1.803,4.999,11.0
40.848,-1.375,3.606,48.0
82.772,-2.78,6.863,12.0
82.941,-2.78,6.44,17.0
83.303,-2.786,6.03,14.0
40.758,-1.37,4.097,43.0
40.886,-1.37,3.894,28.0
40.817,-1.365,3.672,64.0
41.098,-1.371,3.476,25.0
92.613,-3.082,7.345,3.0
92.681,-3.077,6.862,36.0
40.205,-1.341,4.109,74.0
54.792,-1.823,5.309,6.0
40.763,-1.352,3.734,54.0
41.07,-1.359,3.541,29.0
82.873,-2.735,6.709,10.0
90.322,-2.973,6.835,8.0
40.014,-1.324,4.155,60.0
40.838,-1.347,4.024,27.0
40.724,-1.339,3.797,31.0
40.894,-1.341,3.592,38.0
83.236,-2.722,6.872,4.0
83.017,-2.706,6.416,14.0
39.944,-1.308,4.213,57.0
40.654,-1.328,4.072,40.0
40.814,-1.328,3.871,26.0
40.79,-1.324,3.648,63.0
41.048,-1.328,3.454,4.0
82.913,-2.674,6.541,6.0
39.997,-1.296,4.283,51.0
40.61,-1.311,4.132,47.0
40.883,-1.316,3.943,14.0
40.792,-1.309,3.713,52.0
54.773,-1.751,4.696,10.0
83.011,-2.645,6.678,35.0
40.034,-1.282,4.35,48.0
40.308,-1.286,4.165,54.0
40.341,-1.282,3.954,33.0
40.72,-1.289,3.77,50.0
40.925,-1.291,3.573,39.0
83.258,-2.618,6.827,12.0
40.048,-1.264,4.415,64.0
39.898,-1.255,4.185,49.0
40.299,-1.263,4.012,55.0
40.714,-1.271,3.832,44.0
40.874,-1.271,3.63,36.0
54.721,-1.696,4.569,6.0
39.897,-1.242,4.458,59.0
39.453,-1.223,4.198,56.0
39.521,-1.22,3.994,56.0
40.895,-1.258,3.91,16.0
40.813,-1.25,3.685,57.0
54.756,-1.67,4.653,11.0
39.751,-1.218,4.502,61.0
39.325,-1.199,4.242,61.0
39.707,-1.206,4.071,51.0
40.358,-1.22,3.918,50.0
40.781,-1.228,3.742,45.0
40.898,-1.226,3.535,28.0
39.692,-1.195,4.553,59.0
39.68,-1.189,4.339,66.0
39.575,-1.181,4.115,68.0
40.275,-1.196,3.968,59.0
40.774,-1.205,3.8,46.0
40.923,-1.204,3.595,59.0
39.472,-1.166,4.585,71.0
40.191,-1.182,4.452,63.0
39.234,-1.148,4.135,65.0
39.651,-1.155,3.962,62.0
49.141,-1.425,4.648,7.0
41.153,-1.187,3.673,44.0
39.598,-1.147,4.655,60.0
39.662,-1.143,4.449,55.0
39.294,-1.126,4.196,59.0
39.7,-1.132,4.023,40.0
39.889,-1.132,3.828,64.0
41.078,-1.159,3.722,26.0
39.87,-1.13,4.742,60.0
39.573,-1.116,4.493,59.0
39.211,-1.099,4.24,67.0
39.342,-1.097,4.039,65.0
40.189,-1.115,3.91,56.0
41.1,-1.134,3.778,27.0
39.754,-1.101,4.781,56.0
39.469,-1.087,4.533,37.0
39.453,-1.08,4.318,53.0
39.253,-1.069,4.081,65.0
39.793,-1.077,3.923,70.0
40.983,-1.103,3.82,62.0
40.148,-1.085,4.88,63.0
39.477,-1.06,4.585,55.0
39.418,-1.052,4.365,48.0
39.255,-1.042,4.131,65.0
39.837,-1.051,3.977,52.0
40.948,-1.074,3.868,54.0
40.045,-1.054,4.919,60.0
39.244,-1.026,4.607,67.0
39.312,-1.022,4.402,58.0
39.29,-1.014,4.183,53.0
39.716,-1.019,4.014,57.0
39.863,-1.016,3.815,62.0
40.018,-1.023,4.965,59.0
39.318,-0.999,4.664,59.0
39.525,-0.998,4.474,46.0
39.017,-0.978,4.202,65.0
39.5,-0.984,4.04,66.0
40.127,-0.993,3.888,51.0
39.908,-0.991,4.998,62.0
39.549,-0.975,4.738,61.0
39.399,-0.964,4.506,58.0
39.256,-0.954,4.273,57.0
39.289,-0.948,4.064,68.0
40.183,-0.963,3.939,56.0
39.523,-0.95,4.996,49.0
39.907,-0.952,4.827,56.0
39.327,-0.931,4.543,54.0
39.316,-0.924,4.324,60.0
39.181,-0.914,4.097,60.0
39.908,-0.924,3.957,55.0
39.546,-0.918,5.044,37.0
39.609,-0.912,4.836,79.0
39.49,-0.902,4.606,52.0
39.012,-0.884,4.334,67.0
39.255,-0.883,4.147,46.0
39.621,-0.884,3.971,56.0
39.514,-0.884,5.083,50.0
39.698,-0.881,4.889,54.0
39.209,-0.863,4.614,68.0
39.196,-0.856,4.395,55.0
39.137,-0.847,4.176,46.0
39.698,-0.852,4.02,46.0
41.959,-0.903,5.441,20.0
39.558,-0.844,4.913,53.0
39.308,-0.831,4.666,54.0
39.263,-0.823,4.443,59.0
39.373,-0.818,4.241,46.0
39.486,-0.813,4.038,49.0
41.862,-0.863,5.471,51.0
39.472,-0.807,4.942,54.0
39.258,-0.795,4.7,55.0
39.236,-0.787,4.478,60.0
39.12,-0.777,4.251,57.0
39.319,-0.774,4.059,62.0
41.832,-0.825,5.508,48.0
39.475,-0.771,4.98,41.0
39.337,-0.761,4.746,52.0
39.334,-0.753,4.527,60.0
39.093,-0.741,4.285,55.0
39.242,-0.736,4.087,61.0
0.0,0.0,0.0,0.0
39.595,-0.736,5.032,33.0
39.251,-0.722,4.772,61.0
39.362,-0.716,4.565,50.0
39.022,-0.703,4.312,58.0
39.212,-0.699,4.119,70.0
50.402,-0.899,6.727,6.0
39.627,-0.699,5.07,44.0
39.356,-0.687,4.818,53.0
39.623,-0.684,4.629,50.0
39.102,-0.667,4.354,44.0
39.242,-0.662,4.155,57.0
43.029,-0.726,5.78,26.0
39.874,-0.664,5.135,42.0
39.414,-0.649,4.858,51.0
39.404,-0.642,4.636,48.0
39.327,-0.633,4.411,52.0
39.667,-0.63,4.231,47.0
39.933,-0.634,5.396,41.0
39.92,-0.626,5.173,61.0
39.541,-0.612,4.905,56.0
39.536,-0.604,4.682,54.0
39.328,-0.594,4.441,50.0
39.854,-0.594,4.281,16.0
39.95,-0.594,5.428,45.0
39.943,-0.586,5.205,61.0
39.69,-0.575,4.953,47.0
40.039,-0.571,4.771,52.0
39.697,-0.559,4.511,55.0
39.157,-0.544,4.234,71.0
39.943,-0.553,5.456,62.0
40.03,-0.546,5.245,41.0
40.022,-0.538,5.022,37.0
43.817,-0.581,5.251,6.0
39.753,-0.519,4.544,59.0
39.781,-0.512,4.328,48.0
39.943,-0.512,5.482,32.0
40.03,-0.505,5.272,64.0
39.978,-0.497,5.042,62.0
40.014,-0.489,4.821,57.0
39.947,-0.48,4.592,59.0
39.364,-0.465,4.307,48.0
40.929,-0.481,5.644,47.0
40.033,-0.463,5.297,54.0
40.014,-0.455,5.071,38.0
43.809,-0.489,5.304,7.0
39.973,-0.438,4.618,51.0
39.422,-0.425,4.336,47.0
40.989,-0.439,5.676,43.0
40.091,-0.421,5.327,49.0
40.0,-0.412,5.092,29.0
39.974,-0.404,4.862,39.0
40.161,-0.398,4.662,48.0
39.656,-0.385,4.383,60.0
40.166,-0.387,5.583,66.0
40.1,-0.378,5.35,54.0
39.716,-0.367,5.076,45.0
40.021,-0.361,4.888,45.0
40.148,-0.354,4.68,36.0
39.773,-0.343,4.416,46.0
40.802,-0.348,5.692,72.0
40.324,-0.336,5.399,71.0
39.742,-0.324,5.099,47.0
39.624,-0.315,4.858,68.0
43.512,-0.337,5.092,32.0
40.421,-0.305,4.506,51.0
40.375,-0.3,5.65,62.0
39.686,-0.287,5.331,63.0
42.29,-0.298,5.443,30.0
39.637,-0.271,4.876,45.0
39.703,-0.263,4.663,45.0
40.377,-0.26,4.517,58.0
40.202,-0.254,5.642,68.0
39.57,-0.242,5.331,64.0
39.663,-0.235,5.121,62.0
39.658,-0.227,4.894,43.0
39.656,-0.22,4.672,40.0
40.377,-0.215,4.532,53.0
40.058,-0.208,5.636,64.0
39.539,-0.198,5.34,47.0
39.65,-0.191,5.132,53.0
39.575,-0.183,4.896,63.0
39.641,-0.175,4.683,55.0
40.421,-0.171,4.549,47.0
39.931,-0.163,5.631,57.0
39.427,-0.154,5.337,66.0
39.541,-0.146,5.13,58.0
39.599,-0.138,4.911,48.0
39.75,-0.131,4.706,36.0
40.277,-0.124,4.544,40.0
39.962,-0.118,5.645,51.0
39.554,-0.109,5.364,60.0
39.437,-0.101,5.126,70.0
39.608,-0.093,4.921,63.0
39.858,-0.086,4.728,39.0
40.299,-0.079,4.555,37.0
39.885,-0.072,5.643,59.0
39.511,-0.064,5.366,73.0
39.666,-0.057,5.163,60.0
39.554,-0.049,4.922,56.0
39.898,-0.041,4.74,43.0
40.149,-0.033,4.545,42.0
40.135,-0.027,5.685,46.0
39.614,-0.018,5.387,52.0
39.619,-0.012,5.163,43.0
39.474,-0.004,4.917,51.0
39.896,0.003,4.745,47.0
39.941,0.01,4.526,46.0
40.002,0.017,5.671,48.0
39.828,0.025,5.42,49.0
39.589,0.032,5.163,60.0
39.409,0.04,4.913,44.0
39.859,0.048,4.744,63.0
40.238,0.056,4.563,38.0
39.9,0.063,5.659,68.0
39.802,0.07,5.419,60.0
39.594,0.077,5.166,59.0
39.312,0.084,4.903,55.0
43.667,0.102,5.199,18.0
39.992,0.101,4.536,53.0
40.307,0.109,5.718,50.0
39.752,0.115,5.413,65.0
40.002,0.124,5.22,50.0
39.372,0.129,4.91,37.0
43.901,0.152,5.227,8.0
40.196,0.147,4.559,39.0
40.363,0.156,5.725,51.0
39.733,0.161,5.409,63.0
40.435,0.171,5.275,68.0
40.146,0.177,5.005,56.0
40.098,0.184,4.772,44.0
40.305,0.193,4.569,28.0
40.368,0.202,5.723,55.0
39.761,0.206,5.41,59.0
39.597,0.212,5.162,66.0
40.107,0.222,4.996,50.0
39.76,0.228,4.728,48.0
40.256,0.238,4.559,48.0
40.692,0.25,5.764,35.0
39.587,0.25,5.381,62.0
39.603,0.257,5.158,60.0
39.87,0.266,4.962,71.0
39.623,0.272,4.706,52.0
40.238,0.283,4.551,57.0
40.577,0.295,5.742,17.0
39.542,0.294,5.369,63.0
39.475,0.301,5.134,48.0
39.851,0.31,4.952,42.0
40.222,0.32,4.769,55.0
40.538,0.33,4.577,34.0
39.402,0.331,5.567,44.0
39.457,0.338,5.349,50.0
39.493,0.345,5.128,46.0
47.011,0.419,5.831,4.0
39.715,0.361,4.7,52.0
40.291,0.373,4.539,47.0
39.325,0.374,5.546,44.0
38.901,0.376,5.263,57.0
39.413,0.389,5.107,60.0
40.335,0.405,4.991,19.0
40.05,0.408,4.728,60.0
40.978,0.425,4.605,40.0
39.216,0.417,5.519,59.0
38.683,0.418,5.221,62.0
39.337,0.432,5.084,68.0
40.298,0.449,4.974,35.0
40.467,0.457,4.764,22.0
40.931,0.469,4.586,48.0
39.209,0.46,5.504,69.0
38.814,0.462,5.225,56.0
39.082,0.472,5.037,47.0
40.387,0.494,4.97,15.0
41.207,0.511,4.836,25.0
41.295,0.519,4.611,39.0
39.014,0.501,5.461,51.0
38.901,0.506,5.221,52.0
38.96,0.513,5.005,58.0
42.614,0.568,5.226,5.0
41.293,0.557,4.828,36.0
41.48,0.566,4.613,32.0
38.765,0.54,5.409,57.0
38.804,0.546,5.191,60.0
39.035,0.556,4.998,61.0
39.485,0.569,4.824,15.0
41.511,0.604,4.834,29.0
41.501,0.611,4.596,41.0
38.439,0.577,5.345,71.0
38.797,0.588,5.171,54.0
39.238,0.602,5.004,47.0
41.777,0.646,5.083,43.0
40.492,0.632,4.695,54.0
41.456,0.654,4.57,44.0
38.353,0.617,5.312,61.0
38.768,0.629,5.146,57.0
39.007,0.639,4.953,33.0
41.523,0.686,5.029,2.0
0.0,0.0,0.0,0.0
41.432,0.697,4.544,25.0
38.316,0.657,5.285,67.0
38.584,0.666,5.099,46.0
38.899,0.678,4.916,52.0
41.831,0.735,5.042,33.0
40.572,0.719,4.657,57.0
0.0,0.0,0.0,0.0
38.553,0.701,5.294,48.0
38.352,0.702,5.044,56.0
38.889,0.717,4.891,70.0
42.006,0.781,5.036,49.0
47.493,0.89,5.421,8.0
41.467,0.782,4.496,13.0
38.448,0.738,5.254,57.0
38.537,0.745,5.043,49.0
38.877,0.757,4.863,65.0
0.0,0.0,0.0,0.0
41.3,0.815,4.686,34.0
42.136,0.837,4.539,18.0
38.578,0.779,5.245,57.0
39.041,0.793,5.081,43.0
38.811,0.793,4.827,55.0
0.0,0.0,0.0,0.0
41.474,0.859,4.676,54.0
48.487,1.011,5.188,12.0
38.976,0.825,5.269,44.0
39.274,0.837,5.082,15.0
39.687,0.851,4.905,19.0
41.602,0.897,4.898,45.0
48.553,1.053,5.436,9.0
48.466,1.058,5.148,33.0
38.831,0.86,5.218,66.0
38.963,0.868,5.01,30.0
37.942,0.85,4.659,22.0
48.499,1.093,5.67,5.0
41.312,0.935,4.592,30.0
41.632,0.948,4.388,39.0
48.407,1.118,6.465,6.0
38.08,0.884,4.865,39.0
37.951,0.886,4.628,54.0
41.568,0.975,4.825,44.0
41.897,0.988,4.621,9.0
41.275,0.978,4.315,35.0
38.665,0.93,5.13,61.0
38.172,0.922,4.842,55.0
0.0,0.0,0.0,0.0
53.743,1.31,6.19,9.0
53.813,1.318,5.887,11.0
41.224,1.014,4.272,29.0
38.596,0.963,5.085,47.0
37.863,0.948,4.768,66.0
38.048,0.957,4.571,68.0
42.242,1.067,4.826,47.0
49.707,1.262,5.391,8.0
0.0,0.0,0.0,0.0
38.337,0.99,5.014,47.0
37.776,0.98,4.721,56.0
38.103,0.992,4.541,55.0
42.636,1.114,4.83,31.0
53.906,1.415,5.794,8.0
49.294,1.299,5.014,11.0
38.185,1.019,4.956,58.0
37.727,1.011,4.677,60.0
42.073,1.131,4.971,10.0
42.362,1.143,4.756,34.0
0.0,0.0,0.0,0.0
40.617,1.104,4.09,33.0
38.007,1.046,4.893,65.0
37.77,1.043,4.643,60.0
42.647,1.182,4.995,3.0
42.035,1.169,4.675,35.0
41.371,1.155,4.362,18.0
40.522,1.135,4.038,41.0
38.347,1.087,4.896,68.0
37.788,1.074,4.604,72.0
38.05,1.085,4.415,31.0
42.109,1.205,4.637,17.0
40.953,1.175,4.272,52.0
62.777,1.807,6.187,13.0
37.847,1.103,4.79,65.0
38.01,1.11,4.589,32.0
37.836,1.108,4.347,56.0
41.303,1.214,4.502,6.0
40.854,1.204,4.216,46.0
42.811,1.265,4.171,30.0
37.88,1.133,4.75,49.0
38.284,1.148,4.577,37.0
41.759,1.256,4.749,16.0
41.235,1.243,4.446,5.0
40.931,1.237,4.176,36.0
42.709,1.294,4.11,45.0
37.695,1.155,4.682,63.0
37.956,1.166,4.492,50.0
42.386,1.305,4.77,15.0
42.344,1.306,4.515,9.0
40.887,1.265,4.122,41.0
42.796,1.327,4.067,18.0
37.742,1.183,4.641,53.0
37.83,1.188,4.431,65.0
38.352,1.207,4.269,38.0
41.507,1.309,4.374,8.0
40.851,1.292,4.069,23.0
63.638,2.017,5.97,10.0
37.91,1.214,4.614,56.0
37.901,1.216,4.392,49.0
38.256,1.23,4.21,56.0
41.444,1.334,4.316,30.0
42.636,1.376,4.192,7.0
67.53,2.184,6.249,10.0
37.867,1.237,4.56,51.0
37.998,1.243,4.354,51.0
38.294,1.255,4.165,64.0
41.245,1.354,4.241,15.0
61.092,2.01,5.927,20.0
61.118,2.015,5.576,16.0
37.724,1.256,4.493,51.0
38.026,1.268,4.306,56.0
38.275,1.278,4.111,54.0
41.158,1.376,4.178,37.0
61.007,2.043,5.838,22.0
60.992,2.046,5.484,66.0
37.596,1.273,4.427,64.0
38.143,1.294,4.268,44.0
41.62,1.414,4.414,3.0
41.277,1.404,4.133,12.0
60.93,2.075,5.747,56.0
56.067,1.912,4.964,54.0
37.93,1.306,4.413,59.0
38.179,1.316,4.219,49.0
41.555,1.434,4.35,21.0
42.622,1.473,4.209,4.0
73.465,2.541,6.828,15.0
56.048,1.941,4.884,80.0
38.123,1.332,4.382,53.0
38.417,1.344,4.191,48.0
41.427,1.451,4.278,16.0
42.662,1.495,4.152,8.0
67.72,2.377,6.198,31.0
56.053,1.969,4.804,10.0
38.028,1.348,4.316,61.0
38.573,1.368,4.152,9.0
41.252,1.464,4.199,25.0
42.656,1.515,4.089,40.0
56.014,1.992,5.044,64.0
62.173,2.213,5.238,26.0
38.066,1.366,4.263,48.0
41.607,1.495,4.417,10.0
42.803,1.539,4.294,17.0
67.975,2.445,6.416,17.0
56.014,2.016,4.961,73.0
62.155,2.239,5.144,90.0
42.485,1.543,4.694,3.0
41.693,1.515,4.363,37.0
55.798,2.029,5.513,11.0
67.65,2.462,6.282,27.0
62.143,2.262,5.409,67.0
62.207,2.266,5.054,69.0
55.576,2.04,6.055,6.0
55.697,2.045,5.742,21.0
65.039,2.389,6.325,16.0
55.961,2.056,5.111,102.0
62.155,2.285,5.314,47.0
55.399,2.038,4.415,63.0
41.586,1.541,4.466,3.0
62.012,2.299,6.296,9.0
55.917,2.073,5.351,40.0
62.206,2.307,5.584,13.0
64.584,2.396,5.422,15.0
64.794,2.405,5.063,13.0
61.984,2.317,6.558,9.0
61.925,2.315,6.189,68.0
55.922,2.09,5.262,71.0
62.173,2.325,5.482,40.0
64.523,2.413,5.314,14.0
54.354,2.033,4.16,58.0
62.028,2.336,6.462,21.0
61.937,2.333,6.09,36.0
55.953,2.107,5.175,67.0
64.758,2.438,5.605,26.0
55.197,2.078,4.457,44.0
54.263,2.043,4.066,52.0
0.0,0.0,0.0,0.0
55.868,2.117,5.403,39.0
62.187,2.356,5.65,14.0
64.601,2.447,5.487,26.0
54.365,2.059,4.301,52.0
53.942,2.043,3.954,53.0
0.0,0.0,0.0,0.0
55.955,2.132,5.319,51.0
68.026,2.59,6.069,21.0
55.421,2.11,4.616,71.0
54.347,2.068,4.211,87.0
54.035,2.056,3.873,61.0
56.147,2.149,5.573,23.0
56.154,2.148,5.245,9.0
68.045,2.602,5.958,12.0
64.555,2.467,5.27,11.0
54.163,2.069,4.106,51.0
54.142,2.067,3.79,55.0
55.958,2.149,5.459,41.0
67.944,2.608,6.231,26.0
64.727,2.483,5.558,34.0
54.123,2.074,4.326,55.0
53.882,2.064,3.994,64.0
65.37,2.503,4.465,17.0
56.194,2.163,5.385,38.0
67.984,2.616,6.118,35.0
55.428,2.131,4.665,49.0
54.02,2.075,4.225,64.0
53.991,2.072,3.909,55.0
73.534,2.821,4.897,24.0
56.19,2.166,5.288,5.0
67.919,2.617,5.995,14.0
0.0,0.0,0.0,0.0
54.05,2.078,4.134,39.0
54.134,2.08,3.826,44.0
73.329,2.815,4.756,23.0
67.749,2.613,6.258,8.0
64.739,2.494,5.601,34.0
53.924,2.075,4.351,28.0
53.853,2.07,4.026,65.0
65.343,2.51,4.505,15.0
73.311,2.813,4.628,24.0
67.984,2.621,6.16,28.0
64.664,2.489,5.481,12.0
53.964,2.075,4.259,64.0
53.946,2.072,3.938,61.0
73.667,2.826,4.949,18.0
73.306,2.81,4.499,18.0
67.921,2.614,6.033,16.0
55.42,2.13,4.599,58.0
54.155,2.078,4.177,62.0
54.085,2.073,3.852,52.0
73.34,2.808,4.796,21.0
65.007,2.485,3.873,34.0
64.744,2.485,5.634,33.0
54.392,2.085,4.416,28.0
54.006,2.067,4.07,48.0
54.155,2.069,3.76,41.0
73.309,2.798,4.663,27.0
73.349,2.795,4.239,26.0
64.66,2.473,5.51,23.0
54.337,2.075,4.313,65.0
53.919,2.055,3.965,62.0
73.741,2.806,4.986,22.0
73.347,2.787,4.532,15.0
73.412,2.785,4.11,37.0
55.438,2.11,4.623,75.0
54.348,2.065,4.215,87.0
54.065,2.05,3.877,70.0
73.323,2.776,4.824,24.0
64.902,2.453,3.893,39.0
73.556,2.775,3.985,31.0
55.285,2.092,4.51,50.0
54.304,2.051,4.112,64.0
54.15,2.041,3.784,77.0
73.343,2.76,4.692,16.0
73.355,2.754,4.266,22.0
73.733,2.763,3.86,27.0
54.716,2.056,4.363,29.0
54.113,2.029,3.999,43.0
54.189,2.028,3.688,52.0
64.767,2.419,4.025,29.0
73.451,2.737,4.137,37.0
73.725,2.742,3.724,7.0
54.382,2.027,4.236,22.0
54.156,2.014,3.902,44.0
65.141,2.417,4.314,24.0
64.773,2.398,3.906,33.0
73.682,2.722,4.014,46.0
133.809,4.933,6.512,21.0
54.352,2.007,4.132,17.0
54.184,1.996,3.804,77.0
73.293,2.694,4.719,17.0
73.721,2.703,4.31,11.0
73.786,2.7,3.885,35.0
123.848,4.52,5.801,25.0
65.349,2.389,4.848,26.0
54.198,1.976,3.704,93.0
73.393,2.669,4.588,19.0
73.645,2.671,4.168,35.0
73.819,2.67,3.749,15.0
123.931,4.473,5.576,15.0
65.437,2.364,4.733,26.0
54.222,1.953,3.605,65.0
73.551,2.643,4.462,17.0
73.719,2.642,4.036,49.0
124.197,4.438,6.078,36.0
153.107,5.458,6.606,26.0
65.3,2.329,4.601,11.0
73.285,2.606,4.736,22.0
73.694,2.613,4.333,47.0
73.818,2.609,3.903,37.0
124.035,4.373,5.837,27.0
158.471,5.57,6.537,6.0
54.225,1.907,3.718,41.0
73.379,2.572,4.604,12.0
73.736,2.577,4.197,38.0
73.979,2.577,3.773,7.0
124.01,4.306,5.603,20.0
152.763,5.289,6.018,36.0
54.239,1.878,3.617,66.0
73.651,2.541,4.483,13.0
73.859,2.539,4.065,42.0
124.177,4.255,6.1,26.0
152.737,5.217,6.617,17.0
152.73,5.199,5.73,38.0
54.242,1.846,3.515,46.0
73.772,2.502,4.351,28.0
125.014,4.225,6.648,16.0
133.71,4.502,6.319,29.0
152.577,5.118,6.323,33.0
152.872,5.111,5.449,24.0
64.918,2.169,4.085,14.0
73.836,2.457,4.216,40.0
133.914,4.441,6.87,13.0
152.386,5.033,6.916,27.0
152.643,5.023,6.042,32.0
153.395,5.029,5.182,16.0
73.85,2.418,4.51,46.0
73.912,2.41,4.083,30.0
133.732,4.343,6.609,32.0
152.487,4.933,6.635,31.0
152.539,4.915,5.752,39.0
158.911,5.099,5.07,8.0
73.929,2.368,4.375,41.0
125.379,4.0,6.691,25.0
133.543,4.242,6.351,36.0
152.249,4.815,6.341,43.0
152.513,4.804,5.468,30.0
0.0,0.0,0.0,0.0
73.961,2.315,4.24,21.0
133.728,4.167,6.888,16.0
133.543,4.142,6.103,39.0
152.024,4.694,6.051,46.0
152.505,4.688,5.187,25.0
158.521,4.85,4.472,11.0
125.431,3.828,6.957,8.0
123.143,3.74,6.114,17.0
151.831,4.59,6.658,41.0
152.098,4.575,5.771,41.0
152.878,4.576,4.915,15.0
154.138,4.592,4.062,7.0
123.089,3.656,6.6,37.0
123.133,3.638,5.886,22.0
152.099,4.47,6.386,35.0
152.077,4.448,5.49,40.0
154.056,4.482,4.667,38.0
0.0,0.0,0.0,0.0
122.664,3.537,6.347,36.0
152.046,4.361,6.986,19.0
151.929,4.334,6.1,36.0
152.637,4.329,5.227,38.0
154.048,4.346,4.384,39.0
0.0,0.0,0.0,0.0
122.534,3.426,6.119,40.0
151.822,4.219,6.699,36.0
152.101,4.202,5.83,41.0
153.738,4.221,4.985,37.0
154.072,4.207,4.105,26.0
0.0,0.0,0.0,0.0
122.639,3.313,5.898,33.0
152.097,4.082,6.431,35.0
152.228,4.061,5.554,25.0
154.036,4.083,4.713,15.0
0.0,0.0,0.0,0.0
0.0,0.0,0.0,0.0
130.124,3.389,6.02,23.0
152.086,3.933,6.153,43.0
152.788,3.924,5.295,20.0
138.034,3.521,3.971,20.0
100.309,2.542,2.305,22.0
100.358,2.526,1.726,60.0
152.743,3.822,6.789,18.0
152.438,3.788,5.891,42.0
158.746,3.915,5.214,13.0
146.487,3.586,3.948,10.0
100.619,2.445,2.13,1.0
106.152,2.562,1.634,9.0
130.611,3.131,5.568,25.0
152.646,3.631,5.623,38.0
158.851,3.749,4.931,18.0
146.675,3.436,3.691,9.0
0.0,0.0,0.0,0.0
106.317,2.45,1.444,5.0
152.412,3.487,6.223,18.0
152.689,3.464,5.349,26.0
159.378,3.586,4.661,21.0
0.0,0.0,0.0,0.0
106.167,2.348,1.866,5.0
89.846,1.97,1.06,5.0
152.442,3.317,5.954,34.0
128.177,2.764,4.263,13.0
128.161,2.738,3.521,28.0
128.134,2.713,2.767,26.0
0.0,0.0,0.0,0.0
78.162,1.624,0.784,9.0
128.019,2.639,4.775,58.0
128.029,2.613,4.034,59.0
128.041,2.587,3.295,48.0
128.006,2.562,2.542,13.0
0.0,0.0,0.0,0.0
77.827,1.526,0.646,17.0
128.0,2.486,4.552,36.0
128.044,2.461,3.814,32.0
128.063,2.435,3.074,28.0
127.851,2.404,2.316,32.0
94.826,1.763,1.17,4.0
74.788,1.375,0.491,12.0
132.749,2.415,4.491,16.0
160.189,2.881,4.494,13.0
128.254,2.28,2.857,10.0
127.151,2.233,2.085,37.0
89.735,1.557,0.954,8.0
60.305,1.033,0.292,34.0
132.969,2.253,4.272,15.0
160.183,2.679,4.22,11.0
190.019,3.137,3.91,25.0
126.436,2.061,1.86,34.0
77.87,1.252,0.696,40.0
54.841,0.87,0.173,9.0
162.983,2.552,4.963,21.0
176.303,2.721,4.349,7.0
189.5,2.882,3.58,26.0
121.174,1.816,1.577,15.0
75.134,1.109,0.545,11.0
47.854,0.696,0.071,51.0
162.994,2.335,4.689,11.0
190.208,2.684,4.376,26.0
127.604,1.771,2.199,22.0
89.722,1.225,1.019,4.0
48.106,0.646,0.269,47.0
0.0,0.0,0.0,0.0
55.074,0.714,1.494,59.0
55.097,0.703,1.177,23.0
48.237,0.604,0.752,30.0
48.102,0.591,0.468,72.0
48.027,0.579,0.19,76.0
44.024,0.52,-0.078,3.0
48.207,0.558,1.229,53.0
48.16,0.547,0.95,73.0
48.104,0.535,0.672,99.0
48.057,0.523,0.39,94.0
47.959,0.511,0.112,60.0
38.973,0.406,-0.132,45.0
48.13,0.49,1.15,103.0
48.107,0.478,0.872,100.0
48.086,0.467,0.595,101.0
48.033,0.455,0.314,106.0
47.155,0.435,0.036,40.0
38.215,0.344,-0.189,34.0
48.111,0.421,1.074,112.0
48.098,0.409,0.796,110.0
48.06,0.397,0.519,101.0
48.032,0.385,0.238,95.0
44.693,0.347,-0.035,21.0
37.735,0.284,-0.246,8.0
48.114,0.349,0.999,108.0
48.105,0.338,0.722,82.0
48.13,0.326,0.446,48.0
48.145,0.314,0.164,57.0
39.911,0.251,-0.092,15.0
37.69,0.227,-0.304,2.0
48.183,0.278,0.926,59.0
59.314,0.328,0.801,9.0
59.307,0.313,0.459,51.0
54.521,0.274,0.104,18.0
39.101,0.187,-0.149,47.0
33.296,0.15,-0.319,1.0
79.434,0.339,1.41,124.0
79.431,0.319,0.954,132.0
59.364,0.222,0.371,13.0
46.791,0.163,0.019,24.0
38.599,0.124,-0.205,14.0
31.752,0.094,-0.351,1.0
79.462,0.215,1.293,158.0
79.457,0.195,0.836,150.0
59.076,0.129,0.282,7.0
0.0,0.0,0.0,0.0
38.224,0.063,-0.259,5.0
30.462,0.042,-0.381,1.0
79.459,0.09,1.178,151.0
79.428,0.069,0.721,148.0
55.198,0.033,0.184,13.0
40.73,0.013,-0.101,17.0
37.841,0.002,-0.311,2.0
29.61,-0.005,-0.413,2.0
79.462,-0.036,1.065,152.0
79.222,-0.057,0.608,10.0
0.0,0.0,0.0,0.0
39.788,-0.05,-0.155,30.0
33.166,-0.051,-0.319,1.0
28.841,-0.052,-0.443,2.0
79.463,-0.166,0.954,151.0
76.352,-0.18,0.479,14.0
0.0,0.0,0.0,0.0
39.158,-0.114,-0.206,9.0
31.993,-0.102,-0.352,1.0
27.875,-0.096,-0.466,1.0
79.464,-0.297,0.846,151.0
61.362,-0.246,0.301,10.0
45.188,-0.194,-0.037,20.0
39.375,-0.18,-0.261,2.0
30.52,-0.148,-0.377,2.0
26.996,-0.139,-0.488,2.0
79.481,-0.432,0.738,151.0
56.077,-0.321,0.199,9.0
42.083,-0.252,-0.09,4.0
39.615,-0.249,-0.316,1.0
29.715,-0.195,-0.407,2.0
26.325,-0.18,-0.511,2.0
0.0,0.0,0.0,0.0
54.724,-0.406,0.123,7.0
47.321,-0.364,-0.163,21.0
33.615,-0.268,-0.311,1.0
29.054,-0.241,-0.435,2.0
25.604,-0.219,-0.53,2.0
77.4,-0.685,0.519,18.0
53.271,-0.487,0.052,5.0
43.81,-0.412,-0.206,5.0
32.327,-0.314,-0.34,1.0
28.325,-0.284,-0.46,3.0
24.879,-0.256,-0.546,1.0
77.471,-0.819,0.424,4.0
53.455,-0.581,-0.012,5.0
42.113,-0.47,-0.25,2.0
31.031,-0.356,-0.364,2.0
27.373,-0.322,-0.478,2.0
24.176,-0.291,-0.56,1.0
69.38,-0.857,0.295,0.0
54.49,-0.688,-0.078,1.0
37.357,-0.483,-0.267,0.0
30.034,-0.397,-0.389,2.0
26.667,-0.361,-0.497,1.0
23.585,-0.326,-0.575,2.0
183.499,-2.592,0.564,12.0
0.0,0.0,0.0,0.0
36.45,-0.536,-0.303,0.0
29.414,-0.442,-0.415,2.0
26.003,-0.398,-0.515,1.0
23.05,-0.36,-0.588,2.0
248.47,-3.954,0.48,41.0
46.348,-0.752,-0.174,0.0
33.628,-0.555,-0.318,1.0
28.759,-0.484,-0.438,1.0
25.385,-0.435,-0.532,1.0
22.543,-0.393,-0.601,1.0
40.309,-0.714,0.033,70.0
40.263,-0.726,-0.196,22.0
32.402,-0.594,-0.342,1.0
28.076,-0.523,-0.459,1.0
24.901,-0.471,-0.548,1.0
22.05,-0.425,-0.611,1.0
40.33,-0.788,-0.01,0.0
40.208,-0.798,-0.238,5.0
31.047,-0.626,-0.36,1.0
27.323,-0.559,-0.475,1.0
24.157,-0.502,-0.558,1.0
21.546,-0.455,-0.62,2.0
0.0,0.0,0.0,0.0
40.185,-0.872,-0.28,2.0
30.286,-0.667,-0.383,1.0
26.857,-0.6,-0.495,3.0
23.682,-0.536,-0.571,2.0
21.078,-0.484,-0.628,1.0
40.298,-0.936,-0.092,144.0
40.187,-0.946,-0.32,1.0
29.723,-0.709,-0.405,1.0
26.158,-0.632,-0.508,1.0
23.245,-0.569,-0.583,2.0
20.763,-0.515,-0.639,4.0
41.001,-1.028,-0.133,69.0
34.341,-0.872,-0.306,0.0
29.075,-0.748,-0.424,1.0
25.706,-0.67,-0.524,1.0
22.822,-0.602,-0.594,1.0
20.459,-0.546,-0.649,2.0
41.011,-1.106,-0.172,150.0
32.901,-0.897,-0.324,1.0
28.534,-0.787,-0.443,1.0
25.173,-0.703,-0.536,1.0
22.366,-0.632,-0.603,1.0
19.998,-0.571,-0.653,1.0
40.188,-1.158,-0.204,31.0
32.336,-0.942,-0.347,1.0
28.008,-0.826,-0.459,2.0
24.764,-0.738,-0.549,1.0
21.957,-0.662,-0.611,1.0
19.685,-0.6,-0.66,1.0
40.358,-1.24,-0.24,6.0
31.442,-0.977,-0.365,1.0
27.38,-0.859,-0.472,1.0
24.179,-0.767,-0.557,1.0
21.608,-0.693,-0.62,1.0
19.408,-0.629,-0.667,1.0
38.901,-1.27,-0.263,1.0
30.665,-1.011,-0.381,1.0
26.98,-0.899,-0.488,1.0
23.752,-0.799,-0.566,1.0
21.232,-0.721,-0.626,1.0
19.125,-0.656,-0.672,1.0
37.662,-1.301,-0.284,0.0
29.989,-1.046,-0.396,1.0
26.557,-0.936,-0.501,1.0
23.447,-0.834,-0.577,2.0
20.952,-0.752,-0.634,1.0
18.885,-0.685,-0.678,1.0
0.0,0.0,0.0,0.0
29.636,-1.091,-0.413,1.0
26.103,-0.969,-0.511,1.0
23.152,-0.867,-0.586,2.0
20.601,-0.779,-0.638,1.0
18.654,-0.712,-0.683,1.0
37.691,-1.447,-0.34,1.0
29.211,-1.132,-0.428,1.0
25.783,-1.007,-0.523,1.0
22.835,-0.9,-0.594,2.0
20.312,-0.808,-0.643,1.0
18.43,-0.739,-0.688,1.0
33.894,-1.367,-0.328,1.0
28.74,-1.169,-0.44,1.0
25.377,-1.04,-0.531,1.0
22.489,-0.93,-0.6,1.0
20.089,-0.838,-0.649,1.0
18.256,-0.768,-0.693,1.0
33.04,-1.397,-0.341,1.0
28.423,-1.211,-0.453,1.0
25.079,-1.077,-0.541,1.0
22.19,-0.961,-0.606,1.0
19.892,-0.868,-0.655,1.0
18.085,-0.796,-0.698,1.0
33.085,-1.463,-0.361,4.0
28.034,-1.249,-0.464,2.0
24.8,-1.113,-0.549,1.0
21.913,-0.992,-0.611,1.0
19.693,-0.898,-0.66,1.0
17.925,-0.824,-0.702,2.0
32.82,-1.514,-0.376,3.0
27.699,-1.288,-0.473,1.0
24.527,-1.149,-0.557,1.0
21.684,-1.023,-0.616,1.0
19.533,-0.929,-0.665,1.0
17.758,-0.851,-0.704,1.0
31.253,-1.503,-0.374,1.0
27.727,-1.343,-0.488,4.0
24.119,-1.177,-0.56,1.0
21.447,-1.054,-0.62,1.0
19.34,-0.957,-0.668,1.0
17.642,-0.879,-0.708,1.0
30.773,-1.54,-0.383,1.0
27.084,-1.364,-0.489,2.0
23.869,-1.211,-0.565,1.0
21.273,-1.087,-0.625,1.0
19.197,-0.987,-0.672,1.0
17.526,-0.908,-0.712,1.0
30.418,-1.581,-0.392,1.0
26.848,-1.405,-0.497,1.0
23.676,-1.247,-0.57,13.0
21.117,-1.12,-0.629,1.0
19.052,-1.017,-0.675,1.0
17.409,-0.936,-0.714,1.0
30.101,-1.623,-0.4,1.0
26.535,-1.44,-0.501,1.0
23.482,-1.282,-0.575,13.0
21.131,-1.162,-0.638,3.0
18.921,-1.047,-0.677,2.0
17.296,-0.963,-0.716,1.0
29.84,-1.666,-0.407,1.0
26.379,-1.482,-0.508,1.0
23.352,-1.321,-0.58,10.0
20.748,-1.181,-0.633,4.0
18.815,-1.078,-0.68,2.0
17.234,-0.993,-0.719,1.0
29.678,-1.715,-0.415,1.0
26.165,-1.521,-0.512,1.0
23.274,-1.361,-0.585,5.0
20.689,-1.217,-0.638,4.0
18.83,-1.115,-0.686,3.0
17.119,-1.02,-0.719,1.0
29.578,-1.765,-0.421,1.0
26.154,-1.57,-0.518,1.0
23.186,-1.4,-0.589,1.0
20.583,-1.25,-0.64,3.0
18.633,-1.138,-0.683,3.0
17.08,-1.05,-0.722,1.0
29.421,-1.811,-0.426,1.0
26.031,-1.612,-0.522,2.0
23.206,-1.445,-0.595,1.0
20.489,-1.283,-0.641,1.0
18.651,-1.175,-0.688,1.0
16.997,-1.076,-0.722,2.0
29.44,-1.868,-0.432,1.0
25.934,-1.655,-0.525,1.0
22.981,-1.474,-0.593,1.0
20.464,-1.32,-0.644,1.0
18.539,-1.203,-0.687,0.0
16.767,-1.094,-0.715,2.0
29.329,-1.916,-0.435,1.0
25.81,-1.696,-0.526,1.0
22.938,-1.515,-0.596,1.0
20.395,-1.354,-0.645,0.0
18.53,-1.237,-0.689,1.0
16.796,-1.127,-0.718,3.0
29.242,-1.966,-0.438,1.0
25.715,-1.737,-0.527,1.0
22.889,-1.554,-0.597,1.0
20.415,-1.394,-0.648,0.0
18.354,-1.26,-0.684,1.0
16.731,-1.154,-0.717,2.0
29.262,-2.021,-0.44,1.0
25.703,-1.785,-0.529,1.0
22.802,-1.591,-0.596,1.0
20.334,-1.426,-0.647,0.0
18.487,-1.303,-0.691,0.0
16.764,-1.188,-0.719,2.0
29.214,-2.072,-0.441,1.0
25.731,-1.834,-0.531,1.0
22.792,-1.632,-0.597,1.0
20.348,-1.465,-0.648,0.0
18.457,-1.335,-0.69,0.0
16.76,-1.218,-0.719,1.0
29.18,-2.123,-0.44,1.0
25.711,-1.88,-0.53,1.0
22.843,-1.678,-0.598,1.0
20.363,-1.503,-0.648,0.0
18.458,-1.369,-0.689,1.0
16.59,-1.237,-0.712,0.0
29.143,-2.174,-0.439,2.0
25.737,-1.929,-0.53,1.0
22.813,-1.718,-0.596,1.0
20.449,-1.547,-0.649,0.0
18.482,-1.404,-0.689,0.0
16.706,-1.276,-0.716,0.0
29.321,-2.241,-0.439,1.0
25.827,-1.982,-0.53,1.0
22.862,-1.763,-0.595,1.0
20.432,-1.582,-0.647,0.0
18.541,-1.443,-0.69,1.0
16.612,-1.298,-0.71,0.0
29.551,-2.311,-0.44,1.0
25.994,-2.041,-0.53,2.0
22.971,-1.812,-0.595,1.0
20.536,-1.627,-0.648,1.0
18.589,-1.479,-0.689,1.0
16.508,-1.319,-0.703,1.0
29.568,-2.364,-0.436,1.0
26.015,-2.089,-0.527,1.0
23.048,-1.859,-0.594,1.0
20.571,-1.666,-0.645,0.0
18.637,-1.516,-0.688,1.0
16.419,-1.341,-0.696,1.0
29.689,-2.426,-0.432,1.0
26.03,-2.136,-0.522,2.0
23.11,-1.904,-0.591,1.0
20.684,-1.711,-0.645,0.0
18.73,-1.556,-0.687,1.0
16.426,-1.37,-0.693,1.0
29.815,-2.488,-0.427,1.0
26.147,-2.191,-0.519,1.0
23.286,-1.959,-0.59,1.0
20.79,-1.756,-0.643,0.0
18.771,-1.592,-0.684,1.0
16.421,-1.398,-0.689,5.0
30.209,-2.573,-0.425,1.0
26.303,-2.249,-0.515,1.0
23.404,-2.009,-0.587,1.0
20.916,-1.803,-0.641,1.0
18.889,-1.634,-0.683,1.0
16.439,-1.428,-0.685,4.0
30.44,-2.644,-0.419,1.0
26.614,-2.321,-0.513,1.0
23.472,-2.054,-0.581,1.0
21.01,-1.846,-0.638,1.0
19.012,-1.677,-0.682,1.0
16.509,-1.461,-0.683,2.0
30.994,-2.744,-0.417,1.0
26.796,-2.381,-0.507,1.0
23.698,-2.113,-0.579,1.0
21.187,-1.896,-0.636,1.0
19.109,-1.717,-0.678,1.0
16.755,-1.511,-0.687,2.0
31.144,-2.809,-0.408,4.0
27.028,-2.446,-0.502,1.0
23.912,-2.172,-0.575,1.0
21.329,-1.944,-0.632,1.0
19.248,-1.761,-0.676,1.0
0.0,0.0,0.0,0.0
31.786,-2.919,-0.403,1.0
27.498,-2.533,-0.499,1.0
24.212,-2.238,-0.572,1.0
21.508,-1.995,-0.628,1.0
19.381,-1.804,-0.672,0.0
17.63,-1.647,-0.708,0.0
32.436,-3.03,-0.397,1.0
27.768,-2.602,-0.492,1.0
24.555,-2.309,-0.569,1.0
21.723,-2.049,-0.625,1.0
19.623,-1.857,-0.672,0.0
17.819,-1.692,-0.708,0.0
32.928,-3.127,-0.388,1.0
28.115,-2.678,-0.485,1.0
24.777,-2.368,-0.563,2.0
21.881,-2.098,-0.619,1.0
19.774,-1.902,-0.667,0.0
17.938,-1.731,-0.703,0.0
33.337,-3.217,-0.376,1.0
28.488,-2.758,-0.477,1.0
25.004,-2.428,-0.555,2.0
22.147,-2.157,-0.615,1.0
20.083,-1.963,-0.667,1.0
18.112,-1.776,-0.701,0.0
34.058,-3.338,-0.366,1.0
28.888,-2.84,-0.468,1.0
25.288,-2.494,-0.548,1.0
22.456,-2.221,-0.611,1.0
20.437,-2.028,-0.668,3.0
18.28,-1.819,-0.697,0.0
35.414,-3.523,-0.361,0.0
29.432,-2.937,-0.46,1.0
25.739,-2.576,-0.543,1.0
22.8,-2.289,-0.607,1.0
20.477,-2.062,-0.657,9.0
18.517,-1.87,-0.695,0.0
37.233,-3.759,-0.357,0.0
29.813,-3.018,-0.448,1.0
26.084,-2.648,-0.534,1.0
23.282,-2.371,-0.606,6.0
20.482,-2.091,-0.645,13.0
18.724,-1.918,-0.691,1.0
37.621,-3.852,-0.337,0.0
30.289,-3.109,-0.436,1.0
26.447,-2.722,-0.525,1.0
23.356,-2.411,-0.593,18.0
20.624,-2.135,-0.636,5.0
18.939,-1.966,-0.687,1.0
39.743,-4.124,-0.331,0.0
31.2,-3.246,-0.429,1.0
26.924,-2.808,-0.516,1.0
23.753,-2.484,-0.587,34.0
21.072,-2.21,-0.635,2.0
19.157,-2.015,-0.682,1.0
39.771,-4.181,-0.304,1.0
31.955,-3.368,-0.417,1.0
27.408,-2.895,-0.507,1.0
23.768,-2.518,-0.571,26.0
21.746,-2.31,-0.64,3.0
19.566,-2.083,-0.682,1.0
41.64,-4.432,-0.288,0.0
32.87,-3.507,-0.406,1.0
27.905,-2.985,-0.495,1.0
24.089,-2.583,-0.561,5.0
21.914,-2.356,-0.629,8.0
19.98,-2.153,-0.682,3.0
41.83,-4.506,-0.258,0.0
34.018,-3.673,-0.394,1.0
28.446,-3.079,-0.484,1.0
24.701,-2.68,-0.557,1.0
22.225,-2.417,-0.621,12.0
20.101,-2.191,-0.671,10.0
44.907,-4.894,-0.243,0.0
34.868,-3.808,-0.377,1.0
29.186,-3.195,-0.474,1.0
25.578,-2.806,-0.556,1.0
22.46,-2.47,-0.61,19.0
20.249,-2.232,-0.66,10.0
0.0,0.0,0.0,0.0
35.642,-3.935,-0.358,0.0
29.736,-3.29,-0.459,1.0
25.923,-2.875,-0.543,1.0
22.839,-2.538,-0.602,21.0
20.561,-2.29,-0.653,11.0
0.0,0.0,0.0,0.0
37.516,-4.186,-0.345,0.0
30.326,-3.391,-0.443,0.0
26.392,-2.957,-0.531,1.0
23.237,-2.609,-0.593,24.0
20.854,-2.347,-0.645,10.0
50.298,-5.658,-0.15,0.0
39.229,-4.421,-0.328,1.0
31.645,-3.574,-0.436,1.0
26.997,-3.055,-0.52,1.0
23.422,-2.656,-0.578,5.0
21.297,-2.42,-0.64,13.0
50.426,-5.728,-0.106,0.0
40.755,-4.638,-0.306,0.0
32.669,-3.725,-0.421,1.0
27.522,-3.144,-0.506,1.0
24.255,-2.776,-0.577,1.0
21.647,-2.483,-0.632,19.0
50.513,-5.792,-0.061,1.0
41.457,-4.762,-0.274,0.0
33.511,-3.856,-0.402,1.0
28.311,-3.264,-0.495,1.0
24.916,-2.878,-0.57,1.0
22.031,-2.55,-0.623,24.0
0.0,0.0,0.0,0.0
0.0,0.0,0.0,0.0
35.303,-4.098,-0.391,0.0
29.117,-3.386,-0.482,1.0
25.429,-2.962,-0.558,1.0
22.633,-2.641,-0.619,35.0
