X,Y,Z,Reflectivity
40.146,0.267,4.238,34.0
57.374,0.393,5.743,10.0
40.363,0.28,5.188,39.0
40.47,0.289,4.979,77.0
40.224,0.295,4.727,57.0
40.051,0.301,4.482,56.0
41.094,0.318,4.374,27.0
43.754,0.347,4.418,4.0
40.18,0.323,5.2,20.0
39.811,0.327,4.932,48.0
40.062,0.338,4.742,54.0
40.654,0.351,4.584,34.0
44.08,0.389,4.729,27.0
40.242,0.363,4.097,36.0
39.404,0.36,5.132,61.0
39.736,0.371,4.956,71.0
39.694,0.378,4.731,49.0
40.221,0.391,4.568,57.0
40.896,0.406,4.42,29.0
40.325,0.408,4.137,25.0
39.28,0.403,5.147,66.0
39.72,0.415,4.984,51.0
39.908,0.425,4.787,42.0
40.12,0.435,4.587,57.0
41.248,0.455,4.488,34.0
40.442,0.454,4.178,65.0
39.236,0.446,5.17,68.0
39.541,0.457,4.991,15.0
40.238,0.473,4.856,25.0
40.203,0.481,4.625,46.0
41.581,0.505,4.554,28.0
47.632,0.589,4.954,4.0
39.113,0.489,5.181,61.0
39.14,0.497,4.967,44.0
43.805,0.565,5.316,3.0
40.72,0.533,4.712,53.0
41.451,0.551,4.567,28.0
47.598,0.642,4.982,28.0
38.939,0.531,5.183,52.0
39.07,0.54,4.983,58.0
40.042,0.562,4.885,17.0
41.554,0.592,4.834,62.0
41.543,0.599,4.603,41.0
41.288,0.604,4.346,32.0
38.839,0.574,5.194,53.0
39.072,0.585,5.007,64.0
41.727,0.633,5.114,8.0
41.066,0.631,4.801,53.0
41.452,0.645,4.616,43.0
41.304,0.651,4.371,35.0
38.684,0.616,5.194,70.0
38.785,0.625,4.991,57.0
39.503,0.644,4.863,46.0
41.458,0.684,4.869,44.0
41.234,0.689,4.613,41.0
41.346,0.699,4.396,15.0
38.869,0.664,5.239,54.0
38.694,0.669,4.999,47.0
39.209,0.685,4.846,55.0
41.555,0.734,4.9,48.0
41.26,0.737,4.636,54.0
0.0,0.0,0.0,0.0
38.872,0.71,5.258,50.0
38.581,0.712,5.002,48.0
39.084,0.729,4.849,64.0
47.412,0.894,5.612,6.0
41.69,0.793,4.702,38.0
0.0,0.0,0.0,0.0
38.725,0.752,5.254,43.0
38.694,0.759,5.033,46.0
38.97,0.772,4.85,53.0
0.0,0.0,0.0,0.0
41.198,0.833,4.663,39.0
48.556,0.991,5.225,8.0
38.641,0.797,5.258,51.0
39.103,0.814,5.101,41.0
38.235,0.803,4.772,65.0
40.907,0.867,4.873,50.0
41.268,0.882,4.685,56.0
48.48,1.046,5.233,13.0
39.084,0.852,5.331,38.0
38.885,0.855,5.085,14.0
38.29,0.85,4.791,65.0
41.864,0.937,5.0,20.0
41.279,0.932,4.698,43.0
48.494,1.104,5.249,9.0
38.879,0.894,5.314,54.0
0.0,0.0,0.0,0.0
37.854,0.885,4.747,65.0
42.29,0.997,5.061,2.0
41.666,0.989,4.753,41.0
41.17,0.985,4.466,14.0
0.0,0.0,0.0,0.0
38.619,0.941,5.069,57.0
37.942,0.931,4.766,55.0
38.055,0.941,4.563,35.0
42.549,1.06,4.862,25.0
49.744,1.249,5.406,4.0
0.0,0.0,0.0,0.0
38.192,0.976,5.02,47.0
37.867,0.974,4.764,58.0
37.993,0.984,4.561,62.0
42.398,1.106,4.852,24.0
49.658,1.304,5.404,5.0
38.845,1.031,5.332,55.0
38.46,1.028,5.061,14.0
37.834,1.017,4.764,49.0
37.916,1.026,4.557,57.0
42.545,1.159,4.873,3.0
41.307,1.133,4.499,33.0
38.817,1.075,5.331,53.0
38.401,1.071,5.056,15.0
37.848,1.062,4.769,58.0
37.891,1.07,4.556,61.0
42.206,1.199,4.837,5.0
41.621,1.19,4.536,4.0
39.013,1.127,5.36,47.0
38.843,1.129,5.116,17.0
37.855,1.107,4.771,63.0
38.18,1.123,4.592,28.0
37.81,1.118,4.334,59.0
38.377,1.142,4.183,33.0
38.979,1.171,5.356,47.0
38.115,1.152,5.02,18.0
38.016,1.155,4.791,49.0
38.23,1.168,4.597,40.0
37.808,1.162,4.333,54.0
38.315,1.184,4.175,37.0
39.25,1.225,5.391,39.0
37.764,1.185,4.972,41.0
38.228,1.206,4.815,60.0
37.922,1.202,4.558,50.0
37.959,1.21,4.347,50.0
38.266,1.226,4.166,60.0
37.602,1.217,5.161,71.0
38.077,1.239,5.009,49.0
37.875,1.238,4.767,49.0
37.836,1.243,4.543,53.0
37.949,1.253,4.342,56.0
38.305,1.271,4.166,53.0
37.801,1.267,5.184,57.0
37.916,1.276,4.983,57.0
37.827,1.279,4.755,56.0
37.946,1.29,4.55,48.0
38.046,1.299,4.346,61.0
38.425,1.318,4.172,55.0
37.505,1.299,5.136,64.0
37.871,1.318,4.97,61.0
37.939,1.326,4.762,59.0
37.762,1.325,4.521,58.0
38.078,1.343,4.342,53.0
38.457,1.363,4.167,35.0
37.434,1.339,5.118,56.0
37.839,1.359,4.957,54.0
37.961,1.369,4.755,40.0
37.821,1.37,4.518,29.0
37.976,1.381,4.321,44.0
55.599,2.031,6.011,14.0
37.548,1.384,5.123,55.0
37.834,1.401,4.945,59.0
37.983,1.412,4.747,60.0
37.889,1.414,4.515,40.0
37.615,1.409,4.268,65.0
61.966,2.332,6.68,22.0
37.544,1.426,5.11,53.0
37.909,1.445,4.943,54.0
37.867,1.449,4.72,51.0
37.849,1.454,4.498,52.0
37.907,1.461,4.289,55.0
42.179,1.633,4.532,33.0
37.642,1.47,5.11,60.0
37.964,1.488,4.936,38.0
37.946,1.493,4.716,52.0
43.026,1.699,5.096,25.0
37.611,1.49,4.24,56.0
41.082,1.633,4.398,51.0
37.606,1.509,5.09,61.0
37.726,1.519,4.889,53.0
37.881,1.53,4.692,57.0
43.023,1.744,5.078,19.0
37.935,1.543,4.26,60.0
41.446,1.691,4.419,26.0
37.661,1.551,5.08,41.0
37.61,1.554,4.856,50.0
37.936,1.572,4.681,48.0
41.387,1.721,4.865,4.0
37.942,1.582,4.243,39.0
41.666,1.743,4.422,21.0
37.503,1.583,5.04,56.0
37.861,1.603,4.87,45.0
37.866,1.608,4.653,52.0
37.975,1.617,4.445,10.0
53.387,2.281,5.943,6.0
41.984,1.799,4.434,22.0
37.561,1.623,5.028,49.0
37.923,1.644,4.857,45.0
37.946,1.65,4.642,40.0
41.916,1.827,4.883,13.0
41.582,1.818,4.605,16.0
63.465,2.783,6.667,19.0
37.488,1.658,4.996,60.0
37.99,1.684,4.843,42.0
38.106,1.694,4.639,28.0
38.019,1.695,4.406,12.0
42.248,1.888,4.654,17.0
63.678,2.854,6.65,13.0
38.075,1.721,5.05,58.0
37.928,1.719,4.812,50.0
37.92,1.722,4.592,39.0
37.952,1.728,4.374,1.0
63.376,2.893,6.94,24.0
52.934,2.423,5.494,10.0
38.09,1.758,5.027,54.0
37.938,1.755,4.788,58.0
37.904,1.757,4.565,57.0
41.706,1.938,4.778,17.0
62.047,2.891,6.752,28.0
63.408,2.961,6.537,27.0
37.876,1.783,4.972,47.0
37.905,1.788,4.756,61.0
37.967,1.795,4.545,61.0
63.907,3.029,7.276,13.0
41.692,1.98,4.507,33.0
54.389,2.589,5.567,22.0
37.718,1.81,4.923,53.0
37.917,1.823,4.729,44.0
37.944,1.828,4.513,65.0
41.686,2.012,4.714,14.0
41.731,2.019,4.479,31.0
41.502,2.012,4.216,13.0
37.681,1.842,4.888,64.0
37.792,1.85,4.684,61.0
38.192,1.874,4.513,35.0
54.27,2.668,6.094,51.0
41.765,2.057,4.449,21.0
41.42,2.044,4.174,39.0
37.86,1.883,4.88,31.0
37.91,1.889,4.667,44.0
41.526,2.073,4.872,51.0
41.737,2.087,4.651,5.0
41.435,2.075,4.379,44.0
41.394,2.077,4.137,10.0
37.803,1.911,4.84,53.0
37.947,1.922,4.638,56.0
41.9,2.126,4.879,32.0
41.873,2.128,4.629,40.0
41.641,2.12,4.364,16.0
63.347,3.231,6.275,14.0
37.808,1.942,4.807,47.0
37.971,1.953,4.607,32.0
41.93,2.161,4.844,17.0
52.79,2.725,5.789,6.0
41.593,2.15,4.321,16.0
63.288,3.277,6.211,10.0
37.732,1.968,4.761,58.0
44.735,2.336,5.385,5.0
41.763,2.184,4.785,15.0
42.186,2.209,4.586,28.0
62.939,3.302,6.478,15.0
63.24,3.322,6.146,27.0
37.748,1.997,4.726,54.0
41.963,2.223,5.01,17.0
41.709,2.212,4.738,16.0
41.68,2.214,4.489,17.0
62.946,3.348,6.417,21.0
63.694,3.392,6.126,26.0
37.737,2.024,4.687,40.0
41.809,2.245,4.949,16.0
38.38,2.063,4.321,37.0
41.364,2.226,4.413,38.0
53.14,2.863,5.363,26.0
41.378,2.232,3.937,28.0
37.712,2.049,4.644,45.0
44.546,2.423,5.226,11.0
38.384,2.09,4.281,67.0
41.529,2.263,4.387,16.0
52.487,2.864,5.241,4.0
41.341,2.258,3.889,8.0
41.3,2.271,5.041,7.0
38.263,2.106,4.447,29.0
38.413,2.117,4.242,67.0
41.711,2.3,4.36,6.0
63.857,3.525,6.306,38.0
63.735,3.522,5.926,13.0
41.39,2.303,5.005,14.0
38.214,2.127,4.399,65.0
38.456,2.143,4.203,68.0
63.032,3.515,6.518,10.0
53.468,2.984,5.22,8.0
64.42,3.599,5.917,10.0
38.68,2.175,4.633,5.0
38.287,2.154,4.363,55.0
41.984,2.364,4.54,9.0
63.096,3.555,6.452,26.0
41.27,2.327,3.981,36.0
64.552,3.643,5.855,17.0
42.195,2.396,5.004,4.0
38.392,2.182,4.33,47.0
41.896,2.382,4.482,10.0
63.24,3.598,6.392,18.0
41.549,2.366,3.959,23.0
64.382,3.669,5.763,26.0
38.241,2.192,4.489,17.0
38.401,2.202,4.284,37.0
63.182,3.626,6.682,8.0
41.571,2.387,4.151,41.0
41.583,2.389,3.911,30.0
64.356,3.7,5.682,32.0
38.218,2.21,4.439,61.0
38.44,2.224,4.241,64.0
63.245,3.66,6.61,21.0
41.495,2.402,4.092,42.0
41.605,2.41,3.862,9.0
64.326,3.729,5.599,31.0
38.252,2.23,4.394,52.0
41.989,2.448,4.578,5.0
63.37,3.696,6.541,15.0
41.444,2.418,4.033,63.0
64.358,3.757,5.891,18.0
64.457,3.765,5.527,22.0
38.122,2.239,4.329,68.0
41.932,2.463,4.517,19.0
41.428,2.434,4.222,5.0
41.407,2.433,3.976,48.0
64.208,3.775,5.793,38.0
64.413,3.788,5.438,29.0
38.24,2.261,4.291,62.0
53.025,3.136,5.641,16.0
41.397,2.448,4.164,18.0
41.454,2.452,3.925,29.0
64.399,3.81,5.724,38.0
64.319,3.806,5.345,48.0
38.277,2.277,4.243,60.0
66.609,3.963,6.997,6.0
41.393,2.462,4.107,58.0
63.787,3.795,5.952,36.0
64.289,3.826,5.626,21.0
64.456,3.836,5.268,26.0
38.425,2.298,4.207,53.0
63.68,3.809,6.601,10.0
41.477,2.48,4.058,62.0
63.871,3.819,5.872,36.0
64.71,3.87,5.573,14.0
78.513,4.696,6.309,12.0
41.942,2.52,4.533,4.0
41.448,2.49,4.237,2.0
41.408,2.488,3.992,62.0
64.346,3.865,5.824,37.0
64.304,3.862,5.448,28.0
64.613,3.881,5.1,16.0
41.954,2.532,4.474,5.0
41.358,2.495,4.169,36.0
41.361,2.494,3.929,39.0
64.293,3.877,5.727,26.0
64.242,3.873,5.35,38.0
71.603,4.316,5.549,7.0
63.376,3.838,6.665,30.0
41.369,2.504,4.11,63.0
63.742,3.857,5.962,24.0
64.265,3.888,5.631,25.0
64.426,3.897,5.271,37.0
78.616,4.754,5.977,33.0
64.1,3.892,6.646,26.0
41.432,2.515,4.054,44.0
63.734,3.867,5.866,32.0
64.389,3.905,5.545,28.0
64.546,3.914,5.185,37.0
78.597,4.764,5.859,41.0
41.429,2.521,4.234,3.0
41.4,2.518,3.989,55.0
64.276,3.908,5.819,37.0
64.354,3.911,5.446,31.0
64.589,3.923,5.091,20.0
78.686,4.778,5.747,35.0
41.37,2.521,4.164,34.0
41.357,2.519,3.922,21.0
64.275,3.913,5.722,21.0
64.471,3.923,5.358,40.0
78.713,4.787,6.086,19.0
71.438,4.343,5.11,8.0
41.428,2.527,4.107,45.0
63.728,3.885,5.946,29.0
64.245,3.913,5.62,34.0
64.444,3.923,5.257,35.0
78.645,4.785,5.959,44.0
67.115,4.081,4.697,28.0
41.453,2.529,4.044,44.0
63.77,3.888,5.851,30.0
64.402,3.923,5.534,23.0
64.53,3.928,5.163,35.0
78.654,4.785,5.837,43.0
67.117,4.08,4.592,22.0
41.371,2.523,3.971,49.0
64.348,3.921,5.801,31.0
64.393,3.92,5.431,34.0
64.598,3.929,5.066,8.0
78.709,4.785,5.717,29.0
67.232,4.084,4.494,17.0
0.0,0.0,0.0,0.0
64.227,3.909,5.689,28.0
64.443,3.918,5.334,35.0
78.68,4.779,6.047,27.0
67.071,4.071,4.766,9.0
71.198,4.318,4.647,13.0
63.708,3.874,5.912,25.0
64.323,3.908,5.594,29.0
64.524,3.915,5.237,38.0
78.586,4.764,5.914,49.0
67.076,4.062,4.659,9.0
67.034,4.056,4.268,25.0
64.025,3.884,5.838,31.0
64.373,3.901,5.495,32.0
64.581,3.908,5.138,30.0
78.605,4.752,5.789,46.0
127.167,7.681,8.629,18.0
67.056,4.045,4.162,34.0
64.359,3.892,5.765,28.0
64.243,3.88,5.38,37.0
71.505,4.313,5.573,6.0
78.604,4.736,5.662,35.0
71.197,4.285,4.716,16.0
127.854,7.686,7.729,31.0
64.248,3.87,5.649,21.0
64.407,3.875,5.288,36.0
78.625,4.724,5.997,23.0
130.953,7.857,9.217,21.0
71.301,4.272,4.605,6.0
128.38,7.685,7.549,28.0
64.678,3.878,5.58,16.0
78.507,4.7,6.316,16.0
78.57,4.698,5.864,23.0
127.193,7.595,8.742,20.0
67.076,3.999,4.221,5.0
128.724,7.665,7.357,26.0
64.287,3.835,5.439,33.0
78.523,4.676,6.186,22.0
78.62,4.675,5.737,26.0
127.229,7.555,8.534,35.0
127.739,7.574,7.829,38.0
128.328,7.599,7.124,32.0
64.365,3.816,5.338,40.0
71.841,4.252,5.54,17.0
124.896,7.381,8.905,29.0
127.234,7.507,8.321,28.0
127.837,7.532,7.621,33.0
128.432,7.555,6.913,26.0
75.307,4.434,6.118,22.0
71.803,4.22,5.416,30.0
124.914,7.331,8.698,31.0
127.727,7.483,8.141,26.0
127.32,7.448,7.377,34.0
33.42,1.951,1.743,25.0
78.438,4.584,6.241,21.0
71.567,4.175,5.278,32.0
124.897,7.272,8.485,23.0
127.425,7.407,7.905,20.0
128.08,7.432,7.205,34.0
33.424,1.936,1.686,108.0
78.294,4.537,6.095,17.0
71.756,4.151,5.169,41.0
127.369,7.353,8.436,35.0
127.469,7.345,7.692,34.0
128.795,7.408,7.027,17.0
33.466,1.921,1.632,3.0
71.8,4.123,5.468,32.0
71.813,4.115,5.052,32.0
127.934,7.318,8.257,17.0
127.366,7.27,7.47,34.0
33.464,1.906,1.769,4.0
33.472,1.903,1.576,1.0
71.465,4.064,5.322,30.0
71.869,4.077,4.934,21.0
128.139,7.255,8.055,19.0
127.244,7.189,7.248,39.0
33.425,1.884,1.71,48.0
162.228,9.127,7.366,14.0
71.658,4.031,5.213,38.0
124.783,7.003,8.354,19.0
127.424,7.135,7.791,30.0
127.233,7.108,7.031,15.0
33.437,1.863,1.654,23.0
159.91,8.895,6.987,13.0
71.881,3.996,5.106,33.0
154.888,8.589,10.103,22.0
127.212,7.037,7.56,37.0
33.442,1.845,1.79,1.0
162.277,8.936,7.751,23.0
162.506,8.927,6.822,7.0
71.932,3.948,4.986,10.0
128.01,7.008,8.131,18.0
127.002,6.936,7.331,18.0
33.427,1.821,1.733,29.0
162.377,8.825,7.481,33.0
157.541,8.541,6.348,12.0
124.611,6.749,8.426,25.0
128.181,6.924,7.925,29.0
128.833,6.941,7.22,10.0
33.425,1.795,1.676,50.0
159.719,8.558,7.086,11.0
157.387,8.411,6.073,7.0
155.035,8.276,10.219,25.0
128.206,6.824,7.709,23.0
150.314,7.978,8.167,29.0
33.441,1.77,1.62,1.0
159.985,8.446,6.828,18.0
157.634,8.298,5.817,13.0
128.249,6.74,8.235,27.0
73.315,3.841,4.283,22.0
33.455,1.748,1.761,6.0
131.96,6.875,6.171,14.0
157.475,8.18,6.454,9.0
156.874,8.126,5.526,14.0
127.395,6.586,7.966,21.0
128.962,6.646,7.318,20.0
154.59,7.944,7.88,20.0
132.154,6.77,5.96,6.0
160.115,8.177,6.296,4.0
156.596,7.975,5.256,16.0
73.38,3.728,4.466,29.0
150.089,7.6,8.264,26.0
132.236,6.676,6.519,13.0
129.499,6.516,5.622,9.0
157.507,7.899,5.929,18.0
156.393,7.818,4.985,11.0
73.418,3.661,4.345,27.0
123.373,6.131,6.587,20.0
129.255,6.401,6.153,32.0
157.332,7.764,6.565,17.0
157.186,7.731,5.654,16.0
156.181,7.657,4.717,14.0
127.496,6.233,7.331,3.0
123.487,6.016,6.388,15.0
129.388,6.28,5.944,17.0
157.157,7.6,6.298,19.0
156.816,7.556,5.379,5.0
156.384,7.508,4.463,9.0
123.204,5.898,6.879,39.0
132.348,6.311,6.626,24.0
129.565,6.154,5.738,37.0
157.699,7.464,6.06,23.0
174.232,8.215,5.69,8.0
174.172,8.181,4.687,10.0
123.17,5.766,6.675,32.0
129.464,6.036,6.267,23.0
124.278,5.771,5.299,9.0
157.041,7.262,5.774,22.0
156.126,7.191,4.84,10.0
0.0,0.0,0.0,0.0
123.404,5.64,6.483,21.0
129.997,5.916,6.078,25.0
124.333,5.634,5.096,35.0
157.618,7.114,5.537,5.0
173.779,7.81,5.104,15.0
0.0,0.0,0.0,0.0
132.479,5.904,6.743,9.0
124.206,5.511,5.605,23.0
124.407,5.496,4.898,9.0
156.881,6.9,5.258,13.0
173.608,7.601,4.819,15.0
0.0,0.0,0.0,0.0
159.314,6.913,7.849,7.0
124.246,5.366,5.406,58.0
157.243,6.758,5.935,16.0
157.868,6.755,5.035,14.0
173.547,7.391,4.536,6.0
0.0,0.0,0.0,0.0
124.999,5.274,5.96,23.0
124.186,5.212,5.204,45.0
157.23,6.567,5.684,21.0
173.275,7.204,5.252,9.0
0.0,0.0,0.0,0.0
0.0,0.0,0.0,0.0
124.393,5.093,5.734,42.0
157.916,6.432,6.368,8.0
173.09,7.013,5.985,7.0
158.396,6.385,4.551,9.0
0.0,0.0,0.0,0.0
0.0,0.0,0.0,0.0
124.359,4.932,5.537,19.0
157.97,6.233,6.126,15.0
158.454,6.217,5.234,9.0
158.521,6.185,4.308,5.0
0.0,0.0,0.0,0.0
101.012,3.899,1.585,1.0
124.373,4.77,5.345,14.0
152.829,5.827,5.69,13.0
160.582,6.086,5.054,8.0
0.0,0.0,0.0,0.0
0.0,0.0,0.0,0.0
101.014,3.762,1.429,1.0
152.459,5.641,6.317,25.0
153.608,5.649,5.483,26.0
160.481,5.865,4.807,16.0
0.0,0.0,0.0,0.0
0.0,0.0,0.0,0.0
93.955,3.37,1.187,5.0
152.589,5.434,6.091,29.0
157.405,5.571,5.381,11.0
159.081,5.592,4.524,17.0
0.0,0.0,0.0,0.0
0.0,0.0,0.0,0.0
78.578,2.707,0.874,9.0
152.803,5.225,5.87,40.0
157.331,5.341,5.14,6.0
159.286,5.372,4.292,4.0
0.0,0.0,0.0,0.0
100.877,3.354,1.551,1.0
77.98,2.574,0.752,40.0
152.766,5.0,5.642,23.0
158.76,5.158,4.952,8.0
0.0,0.0,0.0,0.0
0.0,0.0,0.0,0.0
100.629,3.196,1.398,4.0
74.604,2.352,0.609,11.0
152.391,4.76,5.404,33.0
158.335,4.907,4.708,14.0
0.0,0.0,0.0,0.0
0.0,0.0,0.0,0.0
93.214,2.82,1.16,1.0
74.195,2.226,0.499,10.0
152.484,4.53,5.188,22.0
154.113,4.542,4.362,36.0
0.0,0.0,0.0,0.0
0.0,0.0,0.0,0.0
78.501,2.253,0.865,9.0
59.522,1.694,0.315,33.0
153.073,4.312,4.993,33.0
154.062,4.3,4.142,28.0
0.0,0.0,0.0,0.0
106.012,2.906,1.628,5.0
77.98,2.117,0.751,39.0
55.055,1.481,0.216,13.0
153.962,4.095,4.809,7.0
0.0,0.0,0.0,0.0
0.0,0.0,0.0,0.0
106.073,2.739,1.483,39.0
77.845,1.99,0.643,12.0
49.162,1.243,0.125,5.0
159.131,3.978,4.754,7.0
100.448,2.484,2.426,2.0
0.0,0.0,0.0,0.0
106.05,2.567,1.339,21.0
74.613,1.786,0.516,14.0
48.004,1.136,0.058,22.0
159.511,3.728,4.553,4.0
0.0,0.0,0.0,0.0
0.0,0.0,0.0,0.0
80.479,1.814,0.909,9.0
60.541,1.348,0.338,34.0
0.0,0.0,0.0,0.0
128.152,2.781,3.489,12.0
128.134,2.746,2.757,15.0
0.0,0.0,0.0,0.0
78.118,1.631,0.781,12.0
0.0,0.0,0.0,0.0
40.0,0.813,-0.055,15.0
128.044,2.562,3.321,46.0
128.041,2.525,2.59,21.0
106.57,2.072,1.548,1.0
77.82,1.492,0.679,23.0
0.0,0.0,0.0,0.0
39.43,0.734,-0.105,33.0
128.207,2.346,3.164,16.0
128.041,2.306,2.43,25.0
126.174,2.236,1.675,11.0
74.957,1.306,0.56,13.0
47.879,0.821,0.085,20.0
38.422,0.648,-0.15,45.0
190.186,3.147,4.459,11.0
127.737,2.076,2.267,20.0
121.086,1.934,1.459,10.0
62.081,0.973,0.388,15.0
47.098,0.724,0.026,38.0
37.845,0.572,-0.193,38.0
190.147,2.811,4.23,35.0
127.252,1.844,2.106,33.0
89.756,1.274,0.975,6.0
48.111,0.669,0.244,33.0
44.218,0.602,-0.026,18.0
37.535,0.5,-0.236,13.0
55.078,0.716,1.161,9.0
48.254,0.612,0.742,21.0
48.107,0.596,0.466,74.0
48.006,0.581,0.188,76.0
44.05,0.52,-0.077,5.0
37.285,0.429,-0.277,5.0
48.155,0.538,0.96,88.0
48.108,0.523,0.685,103.0
48.066,0.509,0.412,96.0
47.993,0.493,0.133,67.0
39.316,0.392,-0.113,35.0
37.211,0.36,-0.318,2.0
48.105,0.449,0.905,112.0
48.08,0.434,0.631,109.0
48.058,0.42,0.359,105.0
47.867,0.403,0.081,57.0
38.796,0.315,-0.154,49.0
33.096,0.259,-0.319,1.0
48.102,0.36,0.853,107.0
48.101,0.345,0.58,60.0
48.154,0.33,0.308,61.0
47.03,0.308,0.029,38.0
38.469,0.24,-0.194,30.0
32.092,0.19,-0.343,1.0
48.221,0.27,0.804,35.0
59.295,0.314,0.654,123.0
59.342,0.296,0.317,7.0
0.0,0.0,0.0,0.0
38.21,0.166,-0.232,13.0
31.258,0.126,-0.366,1.0
79.462,0.295,1.246,153.0
79.444,0.27,0.795,150.0
59.137,0.182,0.257,12.0
0.0,0.0,0.0,0.0
38.141,0.093,-0.269,4.0
30.34,0.064,-0.386,1.0
79.456,0.143,1.167,151.0
79.426,0.117,0.717,148.0
54.965,0.063,0.185,7.0
40.848,0.033,-0.097,17.0
38.023,0.018,-0.306,1.0
29.82,0.005,-0.408,2.0
79.47,-0.01,1.092,151.0
79.267,-0.035,0.641,25.0
0.0,0.0,0.0,0.0
40.27,-0.044,-0.133,17.0
33.561,-0.047,-0.301,0.0
29.23,-0.051,-0.427,2.0
79.46,-0.165,1.019,151.0
76.564,-0.184,0.549,15.0
0.0,0.0,0.0,0.0
40.208,-0.122,-0.169,15.0
33.114,-0.111,-0.326,1.0
28.802,-0.106,-0.446,1.0
79.464,-0.319,0.95,151.0
76.602,-0.334,0.483,12.0
47.452,-0.222,0.031,21.0
39.665,-0.199,-0.201,6.0
32.144,-0.172,-0.344,1.0
28.202,-0.16,-0.461,1.0
79.46,-0.475,0.883,186.0
76.778,-0.485,0.42,9.0
46.451,-0.308,-0.007,3.0
0.0,0.0,0.0,0.0
31.226,-0.228,-0.36,1.0
27.562,-0.21,-0.473,2.0
79.461,-0.632,0.819,165.0
0.0,0.0,0.0,0.0
51.024,-0.441,-0.049,6.0
42.018,-0.377,-0.281,0.0
30.629,-0.285,-0.377,2.0
27.071,-0.261,-0.486,1.0
79.458,-0.79,0.758,151.0
60.62,-0.624,0.237,1.0
53.389,-0.568,-0.091,5.0
38.168,-0.418,-0.284,2.0
30.164,-0.341,-0.394,3.0
26.737,-0.311,-0.5,1.0
79.225,-0.948,0.697,16.0
79.241,-0.976,0.251,4.0
51.525,-0.651,-0.126,0.0
35.924,-0.467,-0.293,1.0
29.631,-0.395,-0.408,2.0
26.259,-0.359,-0.51,1.0
87.864,-1.229,0.711,9.0
67.066,-0.961,0.166,0.0
46.181,-0.677,-0.144,1.0
34.765,-0.522,-0.307,1.0
29.31,-0.45,-0.424,2.0
25.993,-0.408,-0.522,1.0
91.59,-1.465,0.681,7.0
40.311,-0.658,0.073,14.0
40.348,-0.673,-0.152,28.0
33.86,-0.577,-0.321,1.0
28.924,-0.503,-0.437,1.0
25.56,-0.453,-0.529,1.0
40.257,-0.726,0.274,55.0
40.296,-0.741,0.048,66.0
40.325,-0.756,-0.177,7.0
33.136,-0.632,-0.335,1.0
28.53,-0.555,-0.448,1.0
25.296,-0.501,-0.539,1.0
40.293,-0.81,0.25,7.0
0.0,0.0,0.0,0.0
40.234,-0.837,-0.2,1.0
32.806,-0.694,-0.35,2.0
28.115,-0.604,-0.458,1.0
24.982,-0.546,-0.547,1.0
40.302,-0.892,0.228,5.0
40.332,-0.906,0.002,88.0
40.266,-0.919,-0.222,35.0
31.716,-0.736,-0.356,1.0
27.482,-0.647,-0.462,5.0
24.708,-0.591,-0.554,1.0
40.349,-0.976,0.207,0.0
0.0,0.0,0.0,0.0
40.81,-1.016,-0.246,15.0
31.345,-0.792,-0.367,1.0
27.504,-0.704,-0.476,1.0
24.416,-0.634,-0.559,1.0
40.212,-1.055,0.187,54.0
40.975,-1.09,-0.037,160.0
40.67,-1.096,-0.264,15.0
30.948,-0.845,-0.377,1.0
27.194,-0.753,-0.483,1.0
24.119,-0.676,-0.563,1.0
40.207,-1.138,0.169,48.0
40.204,-1.153,-0.054,65.0
40.081,-1.164,-0.277,6.0
30.648,-0.901,-0.386,1.0
27.075,-0.806,-0.492,2.0
23.918,-0.72,-0.568,1.0
0.0,0.0,0.0,0.0
0.0,0.0,0.0,0.0
40.319,-1.254,-0.295,2.0
30.327,-0.954,-0.394,1.0
26.837,-0.854,-0.498,1.0
23.724,-0.763,-0.573,1.0
0.0,0.0,0.0,0.0
0.0,0.0,0.0,0.0
38.387,-1.272,-0.294,0.0
30.121,-1.009,-0.402,1.0
26.64,-0.903,-0.504,2.0
23.556,-0.807,-0.576,1.0
0.0,0.0,0.0,0.0
53.083,-1.851,-0.128,0.0
40.089,-1.412,-0.32,2.0
29.889,-1.064,-0.408,1.0
26.429,-0.951,-0.508,1.0
23.473,-0.853,-0.581,2.0
0.0,0.0,0.0,0.0
40.147,-1.483,-0.108,150.0
37.756,-1.408,-0.312,8.0
29.768,-1.121,-0.414,2.0
26.332,-1.001,-0.513,1.0
23.35,-0.897,-0.584,2.0
0.0,0.0,0.0,0.0
37.796,-1.474,-0.111,162.0
37.726,-1.485,-0.321,18.0
29.685,-1.179,-0.42,2.0
26.197,-1.05,-0.516,1.0
23.257,-0.941,-0.587,2.0
0.0,0.0,0.0,0.0
37.775,-1.55,-0.119,2.0
37.716,-1.561,-0.328,5.0
29.575,-1.235,-0.424,1.0
26.179,-1.103,-0.521,1.0
23.203,-0.986,-0.59,2.0
0.0,0.0,0.0,0.0
50.459,-2.173,-0.167,1.0
37.836,-1.644,-0.335,1.0
29.515,-1.293,-0.428,2.0
26.034,-1.15,-0.522,1.0
23.139,-1.031,-0.592,2.0
0.0,0.0,0.0,0.0
50.307,-2.271,-0.173,0.0
34.327,-1.562,-0.308,1.0
29.402,-1.349,-0.43,2.0
25.991,-1.202,-0.524,1.0
23.084,-1.076,-0.593,2.0
0.0,0.0,0.0,0.0
50.427,-2.379,-0.178,2.0
34.088,-1.621,-0.309,0.0
29.198,-1.399,-0.429,8.0
25.984,-1.255,-0.525,2.0
23.043,-1.121,-0.593,3.0
60.228,-2.941,0.116,1.0
50.407,-2.48,-0.181,1.0
36.124,-1.791,-0.329,0.0
29.214,-1.459,-0.43,8.0
25.946,-1.305,-0.525,1.0
23.074,-1.169,-0.595,2.0
59.834,-3.043,0.113,2.0
50.433,-2.583,-0.181,1.0
35.718,-1.842,-0.326,0.0
29.147,-1.514,-0.429,8.0
25.942,-1.357,-0.525,1.0
23.153,-1.22,-0.597,8.0
0.0,0.0,0.0,0.0
50.433,-2.684,-0.181,1.0
35.45,-1.9,-0.322,0.0
29.471,-1.59,-0.433,2.0
26.034,-1.415,-0.526,1.0
23.073,-1.262,-0.593,11.0
0.0,0.0,0.0,0.0
50.425,-2.785,-0.177,0.0
35.714,-1.986,-0.322,0.0
29.419,-1.646,-0.43,2.0
26.065,-1.468,-0.525,1.0
23.119,-1.311,-0.593,9.0
62.991,-3.582,0.13,2.0
50.439,-2.886,-0.172,2.0
0.0,0.0,0.0,0.0
29.514,-1.711,-0.428,1.0
26.167,-1.526,-0.524,1.0
23.219,-1.363,-0.592,5.0
62.812,-3.695,0.138,3.0
50.469,-2.987,-0.166,4.0
37.023,-2.205,-0.325,0.0
29.671,-1.778,-0.426,1.0
26.282,-1.584,-0.522,1.0
23.337,-1.415,-0.592,1.0
62.504,-3.8,0.148,4.0
50.347,-3.079,-0.156,4.0
37.436,-2.303,-0.322,0.0
29.944,-1.852,-0.424,1.0
26.438,-1.645,-0.52,3.0
23.416,-1.466,-0.589,1.0
62.434,-3.916,0.161,3.0
50.423,-3.18,-0.146,1.0
37.587,-2.384,-0.315,0.0
30.06,-1.918,-0.42,1.0
26.52,-1.701,-0.516,3.0
23.49,-1.516,-0.585,1.0
62.592,-4.047,0.176,1.0
50.356,-3.274,-0.133,1.0
37.801,-2.471,-0.307,0.0
30.342,-1.994,-0.416,1.0
26.644,-1.761,-0.511,1.0
23.622,-1.569,-0.582,1.0
0.0,0.0,0.0,0.0
50.445,-3.375,-0.119,4.0
38.1,-2.562,-0.299,0.0
30.66,-2.073,-0.411,1.0
26.845,-1.825,-0.507,1.0
23.715,-1.62,-0.577,1.0
0.0,0.0,0.0,0.0
50.447,-3.47,-0.103,8.0
39.992,-2.764,-0.3,0.0
31.027,-2.156,-0.406,1.0
27.022,-1.887,-0.501,2.0
23.917,-1.679,-0.574,1.0
0.0,0.0,0.0,0.0
50.453,-3.564,-0.086,5.0
40.121,-2.849,-0.287,0.0
31.435,-2.243,-0.4,1.0
27.208,-1.951,-0.494,1.0
24.225,-1.746,-0.572,1.0
0.0,0.0,0.0,0.0
50.505,-3.662,-0.066,0.0
0.0,0.0,0.0,0.0
32.011,-2.343,-0.394,1.0
27.392,-2.014,-0.487,1.0
24.466,-1.808,-0.568,1.0
0.0,0.0,0.0,0.0
0.0,0.0,0.0,0.0
41.115,-3.07,-0.26,0.0
32.594,-2.445,-0.387,1.0
27.957,-2.106,-0.484,1.0
24.804,-1.878,-0.565,1.0
0.0,0.0,0.0,0.0
0.0,0.0,0.0,0.0
0.0,0.0,0.0,0.0
32.983,-2.533,-0.376,1.0
28.245,-2.179,-0.476,1.0
24.994,-1.937,-0.557,1.0
0.0,0.0,0.0,0.0
0.0,0.0,0.0,0.0
43.377,-3.393,-0.233,0.0
33.602,-2.64,-0.367,1.0
28.752,-2.268,-0.47,1.0
25.362,-2.01,-0.553,1.0
0.0,0.0,0.0,0.0
0.0,0.0,0.0,0.0
44.785,-3.582,-0.217,0.0
34.563,-2.776,-0.359,0.0
29.11,-2.348,-0.46,1.0
25.653,-2.078,-0.545,2.0
87.195,-7.067,0.571,4.0
0.0,0.0,0.0,0.0
0.0,0.0,0.0,0.0
35.616,-2.921,-0.35,0.0
29.564,-2.435,-0.451,1.0
25.912,-2.143,-0.536,2.0
0.0,0.0,0.0,0.0
0.0,0.0,0.0,0.0
50.491,-4.211,-0.186,0.0
0.0,0.0,0.0,0.0
30.004,-2.521,-0.439,1.0
26.192,-2.21,-0.525,1.0
0.0,0.0,0.0,0.0
0.0,0.0,0.0,0.0
50.324,-4.28,-0.155,1.0
37.879,-3.234,-0.325,0.0
30.553,-2.618,-0.428,1.0
26.721,-2.299,-0.519,1.0
0.0,0.0,0.0,0.0
0.0,0.0,0.0,0.0
50.433,-4.371,-0.122,3.0
0.0,0.0,0.0,0.0
31.29,-2.732,-0.417,1.0
27.156,-2.38,-0.509,1.0
111.253,-9.753,1.008,5.0
0.0,0.0,0.0,0.0
50.464,-4.455,-0.088,5.0
40.13,-3.555,-0.291,0.0
31.163,-2.771,-0.394,7.0
27.71,-2.473,-0.5,1.0
108.804,-9.713,1.063,4.0
0.0,0.0,0.0,0.0
50.467,-4.535,-0.052,1.0
41.287,-3.723,-0.27,0.0
33.055,-2.991,-0.394,1.0
28.148,-2.556,-0.488,1.0
108.627,-9.867,1.14,153.0
90.817,-8.275,0.464,1.0
0.0,0.0,0.0,0.0
0.0,0.0,0.0,0.0
34.279,-3.154,-0.383,0.0
28.873,-2.666,-0.478,1.0
108.461,-10.017,1.221,59.0
90.772,-8.409,0.533,1.0
0.0,0.0,0.0,0.0
44.794,-4.175,-0.225,0.0
35.365,-3.307,-0.368,0.0
29.367,-2.755,-0.464,1.0
108.615,-10.193,1.308,17.0
0.0,0.0,0.0,0.0
0.0,0.0,0.0,0.0
0.0,0.0,0.0,0.0
37.409,-3.553,-0.359,0.0
29.969,-2.855,-0.449,1.0
100.741,-9.6,1.295,5.0
0.0,0.0,0.0,0.0
0.0,0.0,0.0,0.0
50.32,-4.837,-0.171,1.0
0.0,0.0,0.0,0.0
30.696,-2.968,-0.434,0.0
97.62,-9.442,1.337,2.0
0.0,0.0,0.0,0.0
0.0,0.0,0.0,0.0
50.419,-4.917,-0.128,7.0
0.0,0.0,0.0,0.0
31.781,-3.117,-0.423,1.0
96.391,-9.457,1.404,4.0
96.355,-9.479,0.885,3.0
0.0,0.0,0.0,0.0
50.485,-4.994,-0.083,5.0
41.463,-4.112,-0.291,0.0
32.712,-3.253,-0.406,0.0
95.374,-9.487,1.474,5.0
94.674,-9.441,0.954,3.0
90.915,-9.09,0.428,1.0
54.774,-5.491,-0.041,0.0
44.379,-4.461,-0.272,0.0
33.835,-3.41,-0.389,0.0
95.19,-9.596,1.56,9.0
94.528,-9.552,1.04,3.0
89.831,-9.1,0.505,1.0
0.0,0.0,0.0,0.0
0.0,0.0,0.0,0.0
36.216,-3.696,-0.382,0.0
88.816,-9.066,1.538,8.0
88.054,-9.01,1.052,4.0
0.0,0.0,0.0,0.0
0.0,0.0,0.0,0.0
47.785,-4.925,-0.202,0.0
37.883,-3.914,-0.364,0.0
87.679,-9.06,1.602,6.0
86.589,-8.968,1.118,12.0
86.831,-9.013,0.656,2.0
0.0,0.0,0.0,0.0
0.0,0.0,0.0,0.0
39.456,-4.124,-0.34,0.0
86.767,-9.07,1.67,3.0
86.459,-9.057,1.202,51.0
86.621,-9.094,0.739,4.0
0.0,0.0,0.0,0.0
0.0,0.0,0.0,0.0
40.097,-4.238,-0.306,0.0
86.778,-9.173,1.758,6.0
86.392,-9.151,1.286,61.0
86.355,-9.166,0.823,150.0
79.652,-8.472,0.325,6.0
0.0,0.0,0.0,0.0
41.706,-4.455,-0.276,0.0
86.914,-9.285,1.849,7.0
86.328,-9.241,1.374,49.0
86.322,-9.258,0.911,172.0
79.504,-8.544,0.406,0.0
0.0,0.0,0.0,0.0
0.0,0.0,0.0,0.0
86.868,-9.374,1.938,5.0
86.34,-9.335,1.464,33.0
86.272,-9.345,1.001,58.0
87.339,-9.479,0.537,3.0
0.0,0.0,0.0,0.0
0.0,0.0,0.0,0.0
86.941,-9.474,2.032,8.0
86.345,-9.426,1.556,46.0
86.277,-9.435,1.093,78.0
87.271,-9.561,0.63,10.0
0.0,0.0,0.0,0.0
0.0,0.0,0.0,0.0
187.499,-20.622,4.585,23.0
86.323,-9.51,1.649,31.0
86.27,-9.52,1.186,87.0
87.014,-9.618,0.722,12.0
71.095,-7.872,0.21,2.0
0.0,0.0,0.0,0.0
187.527,-20.806,4.788,40.0
86.452,-9.606,1.745,1.0
86.247,-9.599,1.279,150.0
86.242,-9.614,0.81,35.0
0.0,0.0,0.0,0.0
0.0,0.0,0.0,0.0
107.475,-12.023,2.862,46.0
86.659,-9.708,1.845,6.0
86.224,-9.674,1.374,71.0
86.198,-9.686,0.904,150.0
0.0,0.0,0.0,0.0
0.0,0.0,0.0,0.0
107.419,-12.11,2.98,74.0
86.684,-9.786,1.941,18.0
86.251,-9.751,1.47,60.0
86.264,-9.767,1.001,155.0
87.259,-9.893,0.548,4.0
0.0,0.0,0.0,0.0
107.417,-12.2,3.1,46.0
107.474,-12.222,2.529,61.0
86.251,-9.821,1.569,55.0
86.238,-9.833,1.099,175.0
87.184,-9.955,0.645,8.0
0.0,0.0,0.0,0.0
115.885,-13.254,3.478,57.0
107.474,-12.307,2.651,57.0
86.301,-9.895,1.668,13.0
86.251,-9.901,1.198,169.0
86.35,-9.925,0.739,49.0
0.0,0.0,0.0,0.0
188.442,-21.695,5.873,20.0
188.447,-21.719,4.866,36.0
86.658,-9.999,1.775,9.0
86.206,-9.958,1.296,112.0
86.198,-9.969,0.837,52.0
94.866,-10.985,0.414,1.0
188.696,-21.857,6.099,27.0
188.334,-21.836,5.082,25.0
86.64,-10.056,1.875,16.0
86.229,-10.019,1.396,59.0
86.219,-10.028,0.937,150.0
87.262,-10.161,0.483,25.0
189.614,-22.089,6.352,25.0
188.372,-21.964,5.303,41.0
86.674,-10.115,1.977,13.0
86.273,-10.078,1.499,52.0
86.25,-10.085,1.038,164.0
87.258,-10.214,0.584,13.0
189.86,-22.234,6.582,24.0
188.615,-22.106,5.531,28.0
188.357,-22.096,4.519,40.0
86.273,-10.129,1.601,33.0
86.229,-10.133,1.14,126.0
86.994,-10.233,0.685,8.0
190.624,-22.432,6.834,20.0
188.67,-22.218,5.756,27.0
188.493,-22.215,4.745,42.0
86.427,-10.194,1.705,2.0
86.222,-10.178,1.241,59.0
86.21,-10.186,0.782,22.0
203.921,-24.105,7.553,22.0
188.716,-22.321,5.983,16.0
188.706,-22.335,4.974,34.0
86.65,-10.263,1.813,8.0
86.224,-10.22,1.345,57.0
86.189,-10.224,0.885,41.0
203.858,-24.195,7.795,29.0
190.848,-22.664,6.277,24.0
189.021,-22.461,5.21,34.0
86.736,-10.312,1.919,11.0
86.275,-10.264,1.448,51.0
86.237,-10.267,0.988,46.0
203.783,-24.274,8.038,43.0
203.701,-24.276,6.947,20.0
189.492,-22.595,5.451,30.0
188.204,-22.452,4.39,26.0
86.267,-10.297,1.552,40.0
86.233,-10.3,1.091,63.0
203.909,-24.369,8.288,34.0
203.565,-24.337,7.186,41.0
189.377,-22.65,5.674,18.0
188.178,-22.517,4.615,34.0
86.332,-10.335,1.656,5.0
86.23,-10.328,1.195,61.0
99.618,-11.939,4.168,37.0
203.675,-24.418,7.434,41.0
203.066,-24.354,6.327,32.0
188.171,-22.575,4.842,31.0
86.706,-10.406,1.767,3.0
86.246,-10.356,1.299,47.0
99.164,-11.914,4.269,79.0
203.85,-24.497,7.687,39.0
203.206,-24.426,6.575,37.0
188.065,-22.613,5.062,20.0
86.783,-10.437,1.873,6.0
86.287,-10.381,1.401,30.0
98.983,-11.917,4.379,60.0
204.072,-24.572,7.939,35.0
203.765,-24.54,6.838,39.0
189.42,-22.817,5.326,27.0
188.198,-22.675,4.285,15.0
86.309,-10.401,1.504,34.0
98.989,-11.938,4.498,27.0
204.044,-24.609,8.179,29.0
203.765,-24.577,7.081,36.0
189.474,-22.856,5.551,20.0
188.311,-22.719,4.511,28.0
86.334,-10.417,1.608,12.0
98.888,-11.941,4.612,21.0
99.324,-11.993,4.1,23.0
203.659,-24.591,7.317,33.0
202.986,-24.511,6.187,31.0
188.183,-22.725,4.729,31.0
0.0,0.0,0.0,0.0
98.856,-11.948,4.727,38.0
99.096,-11.976,4.208,67.0
204.048,-24.657,7.573,32.0
203.09,-24.539,6.433,43.0
188.168,-22.736,4.953,27.0
86.721,-10.478,1.819,3.0
98.799,-11.947,4.841,33.0
98.984,-11.968,4.319,81.0
204.038,-24.664,7.812,30.0
203.17,-24.556,6.672,27.0
189.593,-22.913,5.21,13.0
86.907,-10.502,1.924,4.0
91.2,-11.03,4.576,11.0
98.948,-11.964,4.433,57.0
204.19,-24.683,8.055,31.0
204.019,-24.656,6.936,29.0
189.549,-22.903,5.43,22.0
188.271,-22.746,4.385,18.0
91.219,-11.03,4.683,34.0
98.91,-11.955,4.548,25.0
99.447,-12.016,4.04,11.0
203.544,-24.588,7.156,28.0
202.982,-24.513,6.05,23.0
188.283,-22.733,4.603,31.0
91.216,-11.023,4.788,45.0
98.853,-11.941,4.657,26.0
99.255,-11.984,4.145,55.0
203.742,-24.59,7.397,35.0
203.033,-24.496,6.282,34.0
188.157,-22.694,4.815,38.0
91.206,-11.011,4.892,36.0
98.833,-11.925,4.772,23.0
99.033,-11.943,4.25,70.0
204.061,-24.599,7.642,40.0
203.167,-24.48,6.52,36.0
188.164,-22.663,5.031,22.0
108.236,-13.049,5.93,19.0
0.0,0.0,0.0,0.0
98.999,-11.921,4.36,65.0
203.945,-24.546,7.865,33.0
203.777,-24.512,6.766,36.0
189.554,-22.791,5.277,25.0
108.262,-13.03,6.053,6.0
100.48,-12.085,5.077,38.0
99.01,-11.9,4.47,45.0
203.979,-24.501,8.094,37.0
203.786,-24.463,6.994,36.0
189.471,-22.732,5.487,22.0
91.973,-11.046,5.245,5.0
100.296,-12.036,5.18,14.0
99.075,-11.881,4.583,25.0
99.833,-11.963,4.071,14.0
203.588,-24.38,7.209,39.0
203.114,-24.308,6.102,8.0
0.0,0.0,0.0,0.0
108.266,-12.959,5.709,12.0
100.374,-12.004,4.754,46.0
99.763,-11.922,4.178,53.0
203.663,-24.319,7.437,41.0
203.373,-24.268,6.332,15.0
84.509,-10.095,5.004,31.0
108.299,-12.925,5.829,19.0
100.419,-11.973,4.864,69.0
99.705,-11.878,4.283,74.0
203.76,-24.253,7.658,29.0
190.942,-22.709,6.151,20.0
84.5,-10.061,5.095,43.0
91.225,-10.851,5.007,15.0
100.398,-11.93,4.971,46.0
99.252,-11.782,4.369,24.0
203.812,-24.174,7.873,25.0
190.315,-22.553,6.328,34.0
84.489,-10.024,5.182,56.0
106.455,-12.616,5.955,8.0
100.477,-11.894,5.08,20.0
99.197,-11.73,4.469,55.0
203.965,-24.096,8.092,24.0
190.103,-22.436,6.519,31.0
84.504,-9.985,5.271,50.0
106.49,-12.568,6.067,10.0
108.374,-12.776,5.589,22.0
99.084,-11.667,4.565,82.0
116.415,-13.694,4.735,12.0
190.548,-22.391,6.725,20.0
84.538,-9.946,5.359,48.0
86.017,-10.107,4.987,5.0
100.751,-11.823,5.297,5.0
98.951,-11.598,4.658,69.0
116.408,-13.628,4.852,55.0
203.985,-23.855,7.402,18.0
84.56,-9.901,5.444,32.0
85.98,-10.053,5.07,12.0
100.152,-11.696,5.364,1.0
98.764,-11.519,4.746,43.0
123.102,-14.339,5.252,16.0
116.539,-13.558,4.342,6.0
84.576,-9.852,5.528,27.0
86.031,-10.007,5.158,7.0
106.662,-12.389,5.817,24.0
98.712,-11.45,4.839,54.0
115.512,-13.381,5.038,33.0
116.489,-13.476,4.453,51.0
84.537,-9.793,5.607,39.0
105.046,-12.15,6.397,21.0
105.075,-12.135,5.83,16.0
108.342,-12.494,5.414,21.0
115.367,-13.286,5.14,38.0
115.72,-13.309,4.53,30.0
84.57,-9.739,5.688,23.0
101.229,-11.638,6.259,20.0
99.112,-11.377,5.59,6.0
105.288,-12.067,5.357,15.0
99.421,-11.378,4.52,25.0
115.525,-13.202,4.627,43.0
80.637,-9.227,5.497,5.0
107.745,-12.308,6.76,6.0
100.957,-11.513,5.785,32.0
98.519,-11.217,5.102,21.0
99.432,-11.303,4.61,56.0
116.545,-13.228,4.772,27.0
80.682,-9.17,5.572,8.0
86.714,-9.838,5.517,2.0
100.992,-11.438,5.876,16.0
98.492,-11.136,5.185,41.0
99.721,-11.257,4.709,94.0
116.66,-13.148,4.876,20.0
86.35,-9.744,6.038,5.0
81.571,-9.188,5.258,9.0
86.061,-9.676,5.08,15.0
98.462,-11.052,5.266,36.0
99.802,-11.182,4.795,95.0
106.023,-11.859,4.519,30.0
89.146,-9.984,6.308,6.0
81.634,-9.126,5.33,10.0
98.296,-10.968,5.882,33.0
108.269,-12.058,5.879,21.0
99.453,-11.056,4.86,31.0
105.776,-11.738,4.594,44.0
68.307,-7.59,4.888,5.0
81.738,-9.065,5.402,3.0
98.263,-10.876,5.958,43.0
90.506,-9.998,4.986,7.0
108.192,-11.929,5.371,26.0
105.856,-11.65,4.679,18.0
68.351,-7.532,4.943,6.0
97.673,-10.741,6.53,23.0
98.249,-10.782,6.033,6.0
90.541,-9.916,5.057,7.0
99.234,-10.848,5.0,22.0
105.729,-11.535,4.752,42.0
84.336,-9.213,6.163,15.0
97.949,-10.678,6.621,13.0
98.519,-10.717,6.122,13.0
100.29,-10.886,5.674,34.0
99.243,-10.751,5.072,32.0
108.201,-11.698,4.94,16.0
84.363,-9.132,6.226,12.0
86.307,-9.321,5.897,10.0
98.102,-10.572,6.166,14.0
100.318,-10.788,5.745,19.0
99.218,-10.647,5.14,35.0
108.141,-11.58,5.012,36.0
84.426,-9.052,6.288,4.0
86.214,-9.222,5.949,12.0
0.0,0.0,0.0,0.0
104.67,-11.147,6.063,9.0
99.234,-10.545,5.207,42.0
115.386,-12.235,5.423,23.0
82.584,-8.768,6.205,6.0
86.193,-9.129,6.002,11.0
81.571,-8.619,5.233,10.0
99.246,-10.462,5.813,31.0
99.145,-10.427,5.264,51.0
116.542,-12.23,5.549,7.0
83.012,-8.722,6.289,2.0
86.146,-9.029,6.052,7.0
81.541,-8.526,5.281,7.0
86.232,-8.995,5.103,8.0
99.143,-10.318,5.322,39.0
107.156,-11.125,5.165,38.0
77.804,-8.087,5.941,2.0
82.633,-8.568,5.854,9.0
81.325,-8.411,5.313,3.0
86.215,-8.895,5.151,12.0
99.21,-10.211,5.382,30.0
107.217,-11.008,5.228,23.0
90.961,-9.351,6.995,3.0
82.426,-8.451,5.884,6.0
99.3,-10.155,6.541,9.0
86.231,-8.795,5.198,13.0
99.257,-10.099,5.437,48.0
116.121,-11.786,5.722,36.0
96.952,-9.852,7.506,7.0
82.404,-8.351,5.924,5.0
98.037,-9.908,6.508,2.0
99.453,-10.024,6.045,40.0
99.221,-9.976,5.484,57.0
116.163,-11.65,5.781,3.0
96.839,-9.722,7.544,7.0
82.649,-8.274,5.982,8.0
84.079,-8.395,5.621,26.0
86.281,-8.592,5.283,11.0
99.152,-9.846,5.525,11.0
124.2,-12.302,6.237,27.0
96.785,-9.597,7.584,5.0
96.795,-9.57,7.049,6.0
84.005,-8.282,5.653,6.0
99.088,-9.741,6.11,39.0
106.831,-10.474,5.999,21.0
108.006,-10.56,5.469,51.0
68.486,-6.703,5.395,3.0
84.559,-8.252,6.192,4.0
99.538,-9.686,6.738,24.0
86.412,-8.385,5.362,12.0
107.202,-10.372,6.061,26.0
115.569,-11.15,5.897,30.0
96.244,-9.294,7.618,7.0
84.579,-8.143,6.225,4.0
98.532,-9.459,6.706,16.0
99.203,-9.495,6.192,7.0
106.898,-10.2,6.082,12.0
115.568,-10.996,5.936,40.0
85.232,-8.118,6.776,1.0
84.736,-8.045,6.265,9.0
98.605,-9.333,6.743,10.0
99.195,-9.36,6.223,13.0
108.061,-10.167,6.181,46.0
106.248,-9.968,5.489,50.0
97.318,-9.137,7.765,9.0
98.869,-9.254,7.339,19.0
109.935,-10.257,7.549,9.0
99.248,-9.231,6.254,13.0
106.245,-9.851,6.107,16.0
108.535,-10.033,5.637,7.0
99.805,-9.233,7.99,6.0
84.71,-7.811,6.309,4.0
86.459,-7.947,5.959,3.0
106.117,-9.722,6.713,26.0
115.28,-10.528,6.653,22.0
108.514,-9.878,5.661,7.0
85.728,-7.81,6.883,3.0
84.764,-7.696,6.333,10.0
98.153,-8.883,6.786,8.0
99.155,-8.943,6.294,9.0
122.212,-10.988,7.077,17.0
106.369,-9.533,5.57,7.0
85.28,-7.648,6.863,7.0
98.197,-8.777,7.354,5.0
98.215,-8.748,6.807,14.0
106.057,-9.415,6.749,15.0
122.49,-10.838,7.113,5.0
106.27,-9.372,5.58,7.0
100.897,-8.903,8.135,8.0
99.965,-8.789,7.501,2.0
97.731,-8.562,6.787,8.0
108.071,-9.436,6.891,8.0
122.584,-10.666,7.134,4.0
105.862,-9.18,5.572,13.0
84.98,-7.373,6.86,6.0
86.477,-7.477,6.496,9.0
84.479,-7.277,5.875,10.0
115.065,-9.878,7.347,5.0
122.489,-10.479,7.138,12.0
148.666,-12.674,7.835,12.0
97.52,-8.317,7.879,11.0
85.109,-7.231,6.399,11.0
107.926,-9.136,7.51,7.0
115.093,-9.708,7.355,8.0
122.589,-10.302,7.149,6.0
106.447,-8.914,5.614,1.0
96.829,-8.112,7.826,6.0
97.98,-8.176,7.369,7.0
100.723,-8.374,7.011,5.0
117.341,-9.72,7.499,5.0
108.609,-8.963,6.333,9.0
168.886,-13.887,8.905,3.0
106.415,-8.752,8.599,9.0
108.029,-8.849,8.122,10.0
100.993,-8.241,7.026,5.0
115.977,-9.428,7.408,2.0
108.577,-8.793,6.327,5.0
148.384,-11.971,7.816,6.0
105.89,-8.545,8.551,2.0
105.591,-8.487,7.933,3.0
108.66,-8.7,7.552,6.0
106.515,-8.495,6.795,3.0
163.077,-12.957,9.489,13.0
163.3,-12.926,8.589,8.0
108.439,-8.583,8.746,6.0
114.564,-9.031,8.595,4.0
108.783,-8.54,7.549,12.0
115.311,-9.016,7.342,4.0
149.424,-11.638,8.677,10.0
155.757,-12.084,8.171,12.0
107.786,-8.362,8.678,8.0
148.442,-11.468,11.114,21.0
108.841,-8.373,7.537,9.0
106.499,-8.16,6.764,4.0
156.919,-11.974,9.085,12.0
158.022,-12.011,8.263,9.0
105.566,-8.022,8.48,2.0
208.251,-15.757,15.554,9.0
107.39,-8.092,7.414,5.0
162.049,-12.161,10.26,5.0
158.745,-11.863,9.158,7.0
148.537,-11.056,7.734,3.0
148.666,-11.061,11.91,4.0
207.126,-15.345,15.422,13.0
165.509,-12.208,11.389,6.0
147.225,-10.812,9.287,4.0
148.364,-10.851,8.522,11.0
157.765,-11.491,8.174,8.0
108.522,-7.9,8.664,4.0
207.075,-15.007,15.363,21.0
149.028,-10.754,10.213,4.0
147.155,-10.573,9.24,3.0
157.592,-11.273,9.007,7.0
148.675,-10.591,7.659,2.0
109.065,-7.765,8.675,2.0
109.002,-7.725,8.052,6.0
207.507,-14.639,14.155,19.0
157.451,-11.058,9.834,5.0
162.859,-11.388,9.254,9.0
148.546,-10.341,7.603,4.0
0.0,0.0,0.0,0.0
148.816,-10.304,10.939,3.0
150.689,-10.385,10.225,5.0
149.148,-10.231,9.261,8.0
163.311,-11.153,9.217,3.0
0.0,0.0,0.0,0.0
109.084,-7.41,8.595,1.0
148.133,-10.014,10.83,5.0
148.311,-9.979,10.002,12.0
156.902,-10.508,9.678,5.0
197.802,-13.188,11.082,9.0
156.324,-10.374,7.874,3.0
0.0,0.0,0.0,0.0
0.0,0.0,0.0,0.0
210.135,-13.795,14.078,9.0
210.273,-13.74,12.873,13.0
148.493,-9.656,8.251,5.0
148.514,-9.613,7.412,10.0
0.0,0.0,0.0,0.0
0.0,0.0,0.0,0.0
0.0,0.0,0.0,0.0
0.0,0.0,0.0,0.0
164.361,-10.417,9.049,3.0
150.017,-9.462,7.409,6.0
0.0,0.0,0.0,0.0
0.0,0.0,0.0,0.0
0.0,0.0,0.0,0.0
0.0,0.0,0.0,0.0
147.918,-9.131,8.064,11.0
150.019,-9.216,7.327,3.0
0.0,0.0,0.0,0.0
0.0,0.0,0.0,0.0
0.0,0.0,0.0,0.0
164.214,-9.919,9.788,4.0
164.584,-9.89,8.876,4.0
0.0,0.0,0.0,0.0
0.0,0.0,0.0,0.0
0.0,0.0,0.0,0.0
0.0,0.0,0.0,0.0
0.0,0.0,0.0,0.0
164.748,-9.629,8.78,8.0
205.124,-11.929,9.769,4.0
0.0,0.0,0.0,0.0
0.0,0.0,0.0,0.0
0.0,0.0,0.0,0.0
0.0,0.0,0.0,0.0
0.0,0.0,0.0,0.0
0.0,0.0,0.0,0.0
0.0,0.0,0.0,0.0
0.0,0.0,0.0,0.0
0.0,0.0,0.0,0.0
0.0,0.0,0.0,0.0
0.0,0.0,0.0,0.0
0.0,0.0,0.0,0.0
0.0,0.0,0.0,0.0
0.0,0.0,0.0,0.0
0.0,0.0,0.0,0.0
0.0,0.0,0.0,0.0
0.0,0.0,0.0,0.0
0.0,0.0,0.0,0.0
91.533,-4.856,6.712,6.0
0.0,0.0,0.0,0.0
0.0,0.0,0.0,0.0
0.0,0.0,0.0,0.0
227.007,-11.77,11.432,6.0
0.0,0.0,0.0,0.0
91.393,-4.697,6.626,4.0
90.465,-4.622,6.041,1.0
0.0,0.0,0.0,0.0
0.0,0.0,0.0,0.0
0.0,0.0,0.0,0.0
0.0,0.0,0.0,0.0
91.366,-4.547,6.546,1.0
90.769,-4.489,5.982,2.0
0.0,0.0,0.0,0.0
0.0,0.0,0.0,0.0
0.0,0.0,0.0,0.0
0.0,0.0,0.0,0.0
89.75,-4.319,6.35,7.0
90.841,-4.344,5.905,1.0
83.284,-3.958,4.936,1.0
0.0,0.0,0.0,0.0
0.0,0.0,0.0,0.0
0.0,0.0,0.0,0.0
89.763,-4.173,6.267,6.0
92.202,-4.26,5.907,2.0
83.215,-3.82,4.853,1.0
0.0,0.0,0.0,0.0
0.0,0.0,0.0,0.0
0.0,0.0,0.0,0.0
91.597,-4.11,6.305,1.0
0.0,0.0,0.0,0.0
0.0,0.0,0.0,0.0
0.0,0.0,0.0,0.0
0.0,0.0,0.0,0.0
0.0,0.0,0.0,0.0
89.924,-3.89,6.098,4.0
0.0,0.0,0.0,0.0
0.0,0.0,0.0,0.0
0.0,0.0,0.0,0.0
0.0,0.0,0.0,0.0
0.0,0.0,0.0,0.0
90.047,-3.749,6.01,7.0
83.286,-3.444,5.08,4.0
0.0,0.0,0.0,0.0
0.0,0.0,0.0,0.0
0.0,0.0,0.0,0.0
0.0,0.0,0.0,0.0
90.216,-3.613,5.922,5.0
97.515,-3.877,5.84,3.0
0.0,0.0,0.0,0.0
0.0,0.0,0.0,0.0
0.0,0.0,0.0,0.0
0.0,0.0,0.0,0.0
83.251,-3.2,5.37,4.0
98.22,-3.748,5.769,3.0
0.0,0.0,0.0,0.0
0.0,0.0,0.0,0.0
0.0,0.0,0.0,0.0
0.0,0.0,0.0,0.0
174.796,-6.448,11.071,25.0
0.0,0.0,0.0,0.0
0.0,0.0,0.0,0.0
0.0,0.0,0.0,0.0
0.0,0.0,0.0,0.0
0.0,0.0,0.0,0.0
174.726,-6.17,10.852,38.0
0.0,0.0,0.0,0.0
0.0,0.0,0.0,0.0
0.0,0.0,0.0,0.0
0.0,0.0,0.0,0.0
0.0,0.0,0.0,0.0
174.632,-5.896,10.628,28.0
0.0,0.0,0.0,0.0
0.0,0.0,0.0,0.0
0.0,0.0,0.0,0.0
0.0,0.0,0.0,0.0
0.0,0.0,0.0,0.0
98.25,-3.166,5.851,6.0
90.543,-2.893,4.869,4.0
0.0,0.0,0.0,0.0
148.269,-4.66,6.246,13.0
0.0,0.0,0.0,0.0
0.0,0.0,0.0,0.0
93.187,-2.861,5.425,50.0
0.0,0.0,0.0,0.0
0.0,0.0,0.0,0.0
148.172,-4.434,6.043,17.0
0.0,0.0,0.0,0.0
40.301,-1.186,1.179,12.0
90.549,-2.646,5.15,17.0
129.211,-3.742,6.601,33.0
128.896,-3.698,5.838,3.0
129.211,-3.677,5.094,3.0
40.264,-1.135,1.354,0.0
40.205,-1.124,1.121,40.0
90.45,-2.509,5.017,14.0
129.172,-3.551,6.419,19.0
128.838,-3.51,5.656,27.0
40.214,-1.085,1.529,33.0
40.264,-1.077,1.298,42.0
40.205,-1.066,1.064,57.0
128.985,-3.39,6.971,35.0
129.044,-3.359,6.226,23.0
128.749,-3.321,5.469,48.0
40.176,-1.027,1.47,52.0
40.262,-1.019,1.24,62.0
40.194,-1.007,1.006,54.0
99.026,-2.46,5.207,44.0
129.122,-3.177,6.042,35.0
129.415,-3.154,5.308,39.0
40.216,-0.97,1.412,46.0
40.231,-0.961,1.18,53.0
40.2,-0.951,0.947,58.0
92.137,-2.16,4.708,41.0
129.72,-3.01,5.877,36.0
129.616,-2.978,5.123,15.0
185.547,-4.221,6.241,23.0
40.227,-0.905,1.12,52.0
40.201,-0.895,0.887,56.0
92.234,-2.034,4.573,32.0
128.804,-2.811,5.639,24.0
191.462,-4.133,7.272,20.0
40.303,-0.861,1.293,9.0
40.216,-0.85,1.058,50.0
40.215,-0.841,0.825,51.0
90.638,-1.874,4.352,44.0
128.716,-2.632,5.434,19.0
184.532,-3.731,6.72,42.0
40.298,-0.806,1.23,43.0
40.242,-0.795,0.995,48.0
40.181,-0.785,0.761,55.0
92.98,-1.797,4.317,43.0
184.078,-3.518,7.478,20.0
184.548,-3.486,6.427,46.0
40.286,-0.751,1.165,44.0
40.207,-0.741,0.93,50.0
40.18,-0.732,0.696,29.0
93.003,-1.674,4.166,42.0
185.206,-3.294,7.223,40.0
151.432,-2.66,5.026,87.0
151.43,-2.628,4.134,67.0
248.311,-4.258,5.34,34.0
205.393,-3.478,3.226,67.0
91.478,-1.529,3.949,15.0
185.087,-3.053,6.914,26.0
151.452,-2.467,4.778,96.0
183.517,-2.95,4.707,31.0
0.0,0.0,0.0,0.0
205.385,-3.215,2.884,8.0
91.522,-1.412,3.796,49.0
183.398,-2.792,6.541,37.0
151.473,-2.274,4.523,83.0
183.383,-2.715,4.391,104.0
183.412,-2.677,3.327,90.0
148.144,-2.133,1.828,13.0
99.484,-1.41,3.955,44.0
86.844,-1.214,2.948,3.0
86.921,-1.197,2.445,12.0
86.921,-1.179,1.931,19.0
86.949,-1.162,1.428,13.0
80.166,-1.056,0.851,28.0
79.416,-1.028,3.019,5.0
79.4,-1.012,2.556,15.0
79.404,-0.996,2.094,99.0
79.441,-0.982,1.627,153.0
79.429,-0.966,1.165,255.0
79.423,-0.951,0.704,146.0
79.417,-0.934,2.88,150.0
79.439,-0.919,2.418,151.0
79.432,-0.904,1.957,168.0
79.427,-0.889,1.488,206.0
79.448,-0.874,1.027,164.0
0.0,0.0,0.0,0.0
79.435,-0.842,2.74,151.0
79.44,-0.828,2.278,151.0
79.425,-0.812,1.815,194.0
79.437,-0.798,1.346,198.0
79.447,-0.783,0.884,176.0
77.347,-0.748,0.411,7.0
79.432,-0.753,2.597,151.0
79.443,-0.738,2.135,151.0
79.433,-0.723,1.672,179.0
79.447,-0.71,1.203,181.0
79.461,-0.696,0.741,151.0
61.255,-0.525,0.215,6.0
79.424,-0.666,2.452,150.0
79.439,-0.651,1.99,173.0
79.443,-0.637,1.527,177.0
79.452,-0.623,1.057,175.0
0.0,0.0,0.0,0.0
52.896,-0.396,0.089,17.0
79.436,-0.58,2.305,151.0
79.42,-0.567,1.843,211.0
79.449,-0.553,1.381,172.0
79.457,-0.54,0.91,182.0
76.765,-0.509,0.433,11.0
49.728,-0.321,-0.008,6.0
79.429,-0.498,2.156,161.0
79.42,-0.484,1.693,225.0
79.448,-0.471,1.232,166.0
79.463,-0.458,0.761,164.0
61.292,-0.343,0.231,14.0
46.023,-0.25,-0.094,3.0
79.435,-0.418,2.006,162.0
79.431,-0.405,1.544,205.0
79.458,-0.393,1.082,151.0
79.224,-0.378,0.609,53.0
55.786,-0.258,0.104,14.0
0.0,0.0,0.0,0.0
79.441,-0.341,1.856,152.0
79.44,-0.327,1.392,178.0
79.453,-0.316,0.93,151.0
76.441,-0.292,0.442,12.0
46.079,-0.168,-0.002,16.0
39.076,-0.137,-0.228,6.0
79.442,-0.265,1.702,154.0
79.458,-0.253,1.239,154.0
79.447,-0.241,0.776,150.0
61.514,-0.178,0.237,15.0
42.102,-0.115,-0.083,16.0
0.0,0.0,0.0,0.0
79.442,-0.193,1.548,165.0
79.462,-0.182,1.085,154.0
79.283,-0.17,0.622,38.0
0.0,0.0,0.0,0.0
39.901,-0.074,-0.156,31.0
33.295,-0.057,-0.324,1.0
79.452,-0.124,1.393,159.0
79.462,-0.113,0.929,157.0
76.122,-0.097,0.446,14.0
0.0,0.0,0.0,0.0
38.897,-0.039,-0.228,14.0
31.217,-0.026,-0.365,1.0
79.458,-0.057,1.236,151.0
79.48,-0.046,0.773,171.0
56.166,-0.025,0.218,9.0
43.748,-0.013,-0.089,10.0
38.189,-0.006,-0.3,2.0
29.803,-0.001,-0.408,2.0
79.465,0.006,1.077,151.0
79.339,0.017,0.613,17.0
0.0,0.0,0.0,0.0
39.502,0.018,-0.159,38.0
33.214,0.02,-0.327,1.0
28.692,0.02,-0.45,2.0
79.469,0.068,0.918,151.0
75.892,0.074,0.433,10.0
0.0,0.0,0.0,0.0
38.488,0.047,-0.232,14.0
31.139,0.042,-0.369,1.0
27.315,0.04,-0.484,2.0
79.448,0.126,0.758,150.0
55.176,0.094,0.204,19.0
40.846,0.075,-0.087,16.0
37.859,0.073,-0.305,2.0
29.703,0.061,-0.412,2.0
26.321,0.057,-0.519,2.0
76.483,0.175,0.574,28.0
47.993,0.115,0.08,20.0
39.175,0.098,-0.162,43.0
32.942,0.086,-0.332,1.0
28.503,0.078,-0.453,2.0
25.147,0.071,-0.546,1.0
59.209,0.174,0.325,9.0
0.0,0.0,0.0,0.0
38.155,0.12,-0.235,13.0
30.812,0.101,-0.372,1.0
27.125,0.091,-0.486,1.0
23.891,0.083,-0.568,2.0
54.786,0.196,0.189,29.0
40.295,0.148,-0.095,16.0
37.709,0.142,-0.309,10.0
29.508,0.114,-0.417,2.0
26.11,0.104,-0.522,2.0
23.128,0.094,-0.597,2.0
47.781,0.199,0.066,30.0
38.783,0.165,-0.172,40.0
32.561,0.142,-0.335,1.0
28.289,0.126,-0.459,2.0
24.825,0.113,-0.548,1.0
22.329,0.104,-0.623,1.0
0.0,0.0,0.0,0.0
37.877,0.183,-0.247,7.0
30.592,0.15,-0.379,1.0
26.866,0.134,-0.492,2.0
23.765,0.121,-0.574,2.0
21.411,0.111,-0.642,1.0
39.558,0.207,-0.109,36.0
33.898,0.181,-0.292,0.0
29.276,0.159,-0.423,2.0
25.821,0.142,-0.526,1.0
22.952,0.128,-0.602,2.0
20.567,0.117,-0.659,1.0
38.473,0.22,-0.186,29.0
31.863,0.185,-0.34,1.0
27.962,0.165,-0.462,1.0
24.495,0.146,-0.55,1.0
21.901,0.132,-0.62,3.0
19.667,0.121,-0.672,1.0
37.708,0.233,-0.261,5.0
30.254,0.189,-0.385,2.0
26.761,0.169,-0.497,1.0
23.604,0.151,-0.579,2.0
21.372,0.138,-0.649,1.0
18.992,0.124,-0.688,1.0
33.447,0.22,-0.301,0.0
29.124,0.193,-0.432,2.0
25.714,0.173,-0.531,1.0
22.762,0.154,-0.606,1.0
20.394,0.14,-0.662,0.0
18.371,0.127,-0.704,1.0
31.468,0.218,-0.348,2.0
27.505,0.193,-0.465,1.0
24.231,0.171,-0.551,2.0
21.795,0.156,-0.626,4.0
19.498,0.14,-0.674,1.0
48.189,0.351,-1.947,10.0
29.922,0.218,-0.394,3.0
26.513,0.194,-0.504,2.0
23.478,0.174,-0.583,2.0
21.165,0.158,-0.652,1.0
18.838,0.141,-0.69,1.0
17.101,0.129,-0.727,4.0
28.724,0.217,-0.438,1.0
25.358,0.193,-0.535,1.0
22.359,0.172,-0.602,3.0
20.232,0.156,-0.665,0.0
18.266,0.142,-0.708,0.0
16.605,0.13,-0.741,0.0
27.22,0.213,-0.472,1.0
22.148,0.174,-0.514,3.0
21.737,0.172,-0.631,3.0
19.29,0.154,-0.675,0.0
48.183,0.387,-1.968,17.0
15.954,0.129,-0.745,0.0
26.216,0.211,-0.509,2.0
22.084,0.178,-0.558,3.0
20.909,0.17,-0.65,1.0
18.696,0.153,-0.693,0.0
17.035,0.14,-0.731,3.0
15.417,0.127,-0.752,0.0
22.098,0.181,-0.475,1.0
21.997,0.181,-0.601,3.0
0.0,0.0,0.0,0.0
48.185,0.402,-1.886,7.0
16.405,0.137,-0.738,0.0
15.058,0.127,-0.765,2.0
21.938,0.183,-0.517,4.0
21.479,0.18,-0.632,2.0
19.185,0.161,-0.676,0.0
48.171,0.408,-1.986,18.0
15.844,0.134,-0.746,0.0
14.714,0.125,-0.779,1.0
21.84,0.185,-0.56,4.0
20.812,0.176,-0.655,2.0
18.621,0.158,-0.695,0.0
16.995,0.145,-0.735,2.0
15.312,0.131,-0.752,1.0
14.232,0.122,-0.782,1.0
21.758,0.185,-0.602,3.0
21.831,0.186,-0.732,1.0
48.185,0.413,-1.898,14.0
16.186,0.139,-0.734,0.0
15.016,0.129,-0.769,2.0
13.919,0.12,-0.794,3.0
21.276,0.182,-0.633,2.0
19.081,0.163,-0.679,0.0
48.189,0.414,-1.998,16.0
15.643,0.134,-0.741,0.0
14.626,0.126,-0.779,1.0
13.51,0.117,-0.799,1.0
20.921,0.178,-0.665,2.0
18.513,0.158,-0.697,0.0
16.964,0.145,-0.738,1.0
15.213,0.13,-0.752,1.0
14.104,0.121,-0.78,1.0
13.181,0.113,-0.806,1.0
21.95,0.186,-0.743,0.0
48.187,0.41,-1.913,18.0
16.133,0.137,-0.734,0.0
14.964,0.127,-0.77,2.0
13.861,0.118,-0.795,1.0
12.865,0.109,-0.813,1.0
18.983,0.159,-0.681,1.0
15.591,0.131,-0.742,0.0
14.562,0.122,-0.779,1.0
13.449,0.113,-0.798,1.0
12.585,0.106,-0.821,1.0
18.387,0.152,-0.697,0.0
16.845,0.139,-0.737,0.0
15.164,0.125,-0.752,1.0
14.063,0.116,-0.781,1.0
13.133,0.108,-0.806,1.0
12.283,0.101,-0.826,1.0
48.197,0.392,-1.923,16.0
16.106,0.13,-0.736,0.0
14.926,0.121,-0.769,1.0
13.792,0.111,-0.793,1.0
12.817,0.103,-0.812,1.0
11.984,0.097,-0.83,1.0
15.581,0.123,-0.743,0.0
14.523,0.114,-0.777,1.0
13.407,0.105,-0.798,1.0
12.538,0.098,-0.819,1.0
11.736,0.092,-0.836,1.0
16.782,0.129,-0.735,0.0
15.158,0.116,-0.753,1.0
14.089,0.107,-0.782,1.0
13.104,0.1,-0.805,1.0
12.27,0.093,-0.826,1.0
11.488,0.087,-0.841,0.0
15.992,0.118,-0.732,0.0
14.89,0.11,-0.768,1.0
13.747,0.101,-0.79,1.0
12.806,0.094,-0.812,1.0
11.975,0.087,-0.829,1.0
11.245,0.082,-0.845,0.0
15.652,0.111,-0.746,1.0
14.509,0.103,-0.777,1.0
13.404,0.094,-0.796,1.0
12.512,0.088,-0.817,1.0
11.718,0.082,-0.834,1.0
11.01,0.076,-0.848,0.0
15.145,0.102,-0.751,1.0
14.122,0.095,-0.783,1.0
13.097,0.088,-0.803,1.0
12.249,0.081,-0.824,0.0
11.505,0.076,-0.841,0.0
10.814,0.071,-0.854,0.0
14.884,0.095,-0.767,1.0
13.762,0.087,-0.789,1.0
12.805,0.081,-0.809,1.0
11.964,0.075,-0.827,1.0
11.257,0.07,-0.844,0.0
10.627,0.066,-0.859,0.0
14.498,0.087,-0.774,1.0
13.418,0.079,-0.795,1.0
12.523,0.074,-0.815,1.0
11.718,0.068,-0.832,0.0
11.015,0.064,-0.846,0.0
10.439,0.06,-0.864,0.0
