X,Y,Z,Reflectivity
9.764,-0.112,-0.885,1.0
9.329,-0.108,-0.895,0.0
12.188,-0.14,-0.826,0.0
11.554,-0.134,-0.844,0.0
10.951,-0.129,-0.857,0.0
10.395,-0.123,-0.869,0.0
9.88,-0.118,-0.878,1.0
9.455,-0.114,-0.89,0.0
12.443,-0.149,-0.822,0.0
11.748,-0.142,-0.837,0.0
11.15,-0.136,-0.853,0.0
10.581,-0.13,-0.866,0.0
10.058,-0.125,-0.877,1.0
9.583,-0.12,-0.886,0.0
12.69,-0.158,-0.816,0.0
11.971,-0.15,-0.832,1.0
11.347,-0.143,-0.848,0.0
10.74,-0.137,-0.86,0.0
10.178,-0.131,-0.869,1.0
9.764,-0.126,-0.885,1.0
12.966,-0.167,-0.81,0.0
12.212,-0.158,-0.827,0.0
11.569,-0.151,-0.844,0.0
10.971,-0.144,-0.859,0.0
10.415,-0.138,-0.87,0.0
9.923,-0.132,-0.881,1.0
13.252,-0.175,-0.804,0.0
12.467,-0.166,-0.821,0.0
11.788,-0.158,-0.838,0.0
11.16,-0.15,-0.853,0.0
10.603,-0.144,-0.866,0.0
10.079,-0.138,-0.876,1.0
13.53,-0.183,-0.796,1.0
12.751,-0.174,-0.817,0.0
12.013,-0.165,-0.832,1.0
11.369,-0.157,-0.848,0.0
10.801,-0.15,-0.863,0.0
10.26,-0.143,-0.873,0.0
13.821,-0.191,-0.788,0.0
13.022,-0.181,-0.81,0.0
12.281,-0.172,-0.828,0.0
11.61,-0.163,-0.845,0.0
11.016,-0.156,-0.859,0.0
10.472,-0.149,-0.871,0.0
14.18,-0.2,-0.782,1.0
13.324,-0.189,-0.804,0.0
12.527,-0.179,-0.821,0.0
11.827,-0.169,-0.838,0.0
11.232,-0.162,-0.854,0.0
10.664,-0.154,-0.867,0.0
14.54,-0.209,-0.774,1.0
13.605,-0.196,-0.795,1.0
12.819,-0.185,-0.816,1.0
12.07,-0.175,-0.832,0.0
11.444,-0.167,-0.848,0.0
10.852,-0.159,-0.861,0.0
14.933,-0.217,-0.766,1.0
13.91,-0.203,-0.786,0.0
13.117,-0.192,-0.81,0.0
12.344,-0.181,-0.827,0.0
11.686,-0.172,-0.844,0.0
11.073,-0.164,-0.857,0.0
15.326,-0.225,-0.757,1.0
14.264,-0.21,-0.779,1.0
13.421,-0.198,-0.802,1.0
12.609,-0.187,-0.821,0.0
11.916,-0.177,-0.838,1.0
11.304,-0.169,-0.854,0.0
15.756,-0.233,-0.748,1.0
14.665,-0.218,-0.772,1.0
13.687,-0.204,-0.792,0.0
12.904,-0.193,-0.815,0.0
12.165,-0.182,-0.832,0.0
11.548,-0.173,-0.849,0.0
16.209,-0.241,-0.738,1.0
15.098,-0.225,-0.766,1.0
14.047,-0.21,-0.785,1.0
13.206,-0.198,-0.808,1.0
12.451,-0.187,-0.827,0.0
11.763,-0.177,-0.842,0.0
16.743,-0.25,-0.73,0.0
15.496,-0.232,-0.755,1.0
14.432,-0.216,-0.778,1.0
13.527,-0.203,-0.801,1.0
12.761,-0.192,-0.822,1.0
12.006,-0.181,-0.836,1.0
17.32,-0.259,-0.72,1.0
15.944,-0.238,-0.745,1.0
14.856,-0.222,-0.772,1.0
13.855,-0.208,-0.793,1.0
13.036,-0.196,-0.814,0.0
12.292,-0.185,-0.831,0.0
17.872,-0.266,-0.708,1.0
16.442,-0.245,-0.736,0.0
15.239,-0.227,-0.761,1.0
14.196,-0.212,-0.784,1.0
13.368,-0.2,-0.808,1.0
12.576,-0.188,-0.825,0.0
18.424,-0.273,-0.693,1.0
17.037,-0.253,-0.729,1.0
15.687,-0.233,-0.752,1.0
14.6,-0.217,-0.777,1.0
13.656,-0.203,-0.798,0.0
12.864,-0.191,-0.818,0.0
19.135,-0.282,-0.681,2.0
17.571,-0.259,-0.716,1.0
16.144,-0.238,-0.742,1.0
15.022,-0.221,-0.769,1.0
14.003,-0.206,-0.79,1.0
13.196,-0.194,-0.812,0.0
19.791,-0.288,-0.665,1.0
18.143,-0.264,-0.703,1.0
16.715,-0.243,-0.734,1.0
15.452,-0.225,-0.76,1.0
14.395,-0.209,-0.782,1.0
13.512,-0.196,-0.804,1.0
20.518,-0.295,-0.648,1.0
18.782,-0.27,-0.69,1.0
17.279,-0.248,-0.724,1.0
15.895,-0.228,-0.749,1.0
14.793,-0.212,-0.774,1.0
13.835,-0.198,-0.795,0.0
21.422,-0.304,-0.633,1.0
19.396,-0.274,-0.673,2.0
17.83,-0.252,-0.71,1.0
16.429,-0.231,-0.741,1.0
15.241,-0.214,-0.766,1.0
14.201,-0.199,-0.787,1.0
22.313,-0.31,-0.614,1.0
20.171,-0.28,-0.659,1.0
18.419,-0.255,-0.696,1.0
16.963,-0.234,-0.731,1.0
15.671,-0.216,-0.756,1.0
14.595,-0.2,-0.78,1.0
23.263,-0.317,-0.593,2.0
20.958,-0.284,-0.642,1.0
19.113,-0.258,-0.684,1.0
17.558,-0.237,-0.721,1.0
16.143,-0.217,-0.746,1.0
15.028,-0.201,-0.772,1.0
24.26,-0.322,-0.569,1.0
21.857,-0.289,-0.625,1.0
19.783,-0.26,-0.668,1.0
18.133,-0.238,-0.707,1.0
16.709,-0.218,-0.738,1.0
15.458,-0.201,-0.763,1.0
25.441,-0.328,-0.545,1.0
22.893,-0.294,-0.608,1.0
20.547,-0.262,-0.652,1.0
18.691,-0.238,-0.691,1.0
17.278,-0.219,-0.728,1.0
15.889,-0.2,-0.752,1.0
26.554,-0.331,-0.515,1.0
23.723,-0.294,-0.582,1.0
21.426,-0.265,-0.636,1.0
19.45,-0.239,-0.679,1.0
17.836,-0.218,-0.715,1.0
16.415,-0.199,-0.743,1.0
27.769,-0.334,-0.482,2.0
24.892,-0.297,-0.56,1.0
22.376,-0.266,-0.618,1.0
20.151,-0.238,-0.663,1.0
18.441,-0.216,-0.702,1.0
16.977,-0.198,-0.733,1.0
29.118,-0.335,-0.445,3.0
26.048,-0.298,-0.532,1.0
23.353,-0.265,-0.598,1.0
20.953,-0.236,-0.646,1.0
19.082,-0.214,-0.687,1.0
17.576,-0.195,-0.723,1.0
30.272,-0.333,-0.401,2.0
27.198,-0.296,-0.5,1.0
24.326,-0.263,-0.573,1.0
21.881,-0.235,-0.63,1.0
19.809,-0.211,-0.673,2.0
18.12,-0.191,-0.709,1.0
32.136,-0.335,-0.36,1.0
28.524,-0.294,-0.467,4.0
25.446,-0.26,-0.547,1.0
22.869,-0.232,-0.612,2.0
20.543,-0.206,-0.656,2.0
18.723,-0.186,-0.694,1.0
38.514,-0.378,-0.354,1.0
29.679,-0.288,-0.426,4.0
26.564,-0.255,-0.518,1.0
23.727,-0.225,-0.587,1.0
21.412,-0.201,-0.64,1.0
19.481,-0.181,-0.683,1.0
40.266,-0.369,-0.288,1.0
31.033,-0.281,-0.382,1.0
27.843,-0.249,-0.487,2.0
24.808,-0.219,-0.564,2.0
22.326,-0.195,-0.623,1.0
20.122,-0.173,-0.665,2.0
42.287,-0.359,-0.218,2.0
33.429,-0.279,-0.344,1.0
29.145,-0.24,-0.451,2.0
26.062,-0.212,-0.54,2.0
23.308,-0.187,-0.603,1.0
20.969,-0.166,-0.651,2.0
47.45,-0.368,-0.15,19.0
40.39,-0.309,-0.335,1.0
30.316,-0.228,-0.408,1.0
27.032,-0.2,-0.506,2.0
24.206,-0.176,-0.578,2.0
21.897,-0.157,-0.637,2.0
46.267,-0.324,-0.054,3.0
0.0,0.0,0.0,0.0
32.114,-0.217,-0.369,1.0
28.369,-0.188,-0.475,1.0
25.354,-0.165,-0.555,1.0
22.839,-0.145,-0.618,2.0
51.078,-0.317,0.042,25.0
41.671,-0.253,-0.18,4.0
0.0,0.0,0.0,0.0
29.561,-0.171,-0.436,2.0
26.546,-0.15,-0.528,2.0
23.68,-0.131,-0.594,2.0
56.152,-0.302,0.156,10.0
46.381,-0.243,-0.109,3.0
39.562,-0.202,-0.297,2.0
30.832,-0.153,-0.394,1.0
27.575,-0.133,-0.495,2.0
24.585,-0.115,-0.569,1.0
76.555,-0.346,0.363,8.0
47.1,-0.206,-0.019,21.0
39.403,-0.166,-0.219,6.0
33.127,-0.135,-0.359,1.0
28.948,-0.113,-0.463,2.0
25.877,-0.098,-0.548,2.0
79.176,-0.287,0.531,24.0
0.0,0.0,0.0,0.0
41.47,-0.137,-0.15,18.0
37.023,-0.116,-0.329,1.0
30.046,-0.09,-0.422,2.0
26.889,-0.076,-0.517,2.0
79.477,-0.213,0.687,150.0
61.564,-0.155,0.213,19.0
45.761,-0.108,-0.077,19.0
38.862,-0.085,-0.27,6.0
31.967,-0.065,-0.388,2.0
28.046,-0.052,-0.486,1.0
79.473,-0.136,0.84,151.0
76.175,-0.117,0.412,17.0
48.009,-0.066,0.01,13.0
39.616,-0.048,-0.2,26.0
33.462,-0.034,-0.342,1.0
29.31,-0.025,-0.451,2.0
79.465,-0.055,0.993,151.0
79.22,-0.041,0.58,23.0
0.0,0.0,0.0,0.0
43.762,-0.008,-0.138,3.0
38.33,0.0,-0.319,4.0
30.394,0.004,-0.411,1.0
79.46,0.025,1.141,151.0
79.461,0.039,0.728,150.0
59.405,0.04,0.237,7.0
0.0,0.0,0.0,0.0
38.714,0.04,-0.25,14.0
32.076,0.039,-0.374,1.0
79.452,0.111,1.29,159.0
79.469,0.125,0.878,151.0
76.099,0.134,0.446,19.0
47.96,0.093,0.026,21.0
39.426,0.084,-0.182,42.0
33.678,0.078,-0.33,1.0
79.464,0.198,1.437,151.0
79.47,0.213,1.024,151.0
79.467,0.229,0.612,30.0
54.906,0.168,0.131,29.0
43.91,0.143,-0.122,7.0
37.899,0.13,-0.302,9.0
79.446,0.288,1.582,151.0
79.468,0.303,1.169,151.0
77.193,0.31,0.733,26.0
59.346,0.249,0.249,21.0
0.0,0.0,0.0,0.0
38.502,0.177,-0.238,19.0
59.289,0.284,1.288,114.0
59.289,0.296,0.979,86.0
59.289,0.308,0.67,93.0
55.085,0.297,0.33,47.0
54.664,0.305,0.042,7.0
39.273,0.227,-0.173,45.0
48.152,0.288,1.132,86.0
48.142,0.298,0.881,82.0
48.143,0.308,0.63,55.0
48.145,0.318,0.374,49.0
48.126,0.328,0.123,47.0
44.008,0.309,-0.116,10.0
48.113,0.347,1.216,107.0
48.107,0.357,0.965,111.0
48.088,0.367,0.713,110.0
48.052,0.376,0.456,101.0
48.045,0.387,0.206,92.0
0.0,0.0,0.0,0.0
48.129,0.407,1.299,131.0
48.113,0.417,1.047,109.0
48.101,0.428,0.796,110.0
48.056,0.437,0.539,101.0
48.045,0.447,0.288,105.0
47.885,0.456,0.037,54.0
48.15,0.469,1.382,93.0
48.136,0.479,1.13,99.0
48.111,0.49,0.878,96.0
48.083,0.5,0.621,102.0
48.068,0.51,0.369,97.0
48.021,0.52,0.117,77.0
48.21,0.533,1.466,38.0
48.19,0.543,1.212,59.0
48.179,0.554,0.96,55.0
48.143,0.564,0.702,52.0
48.104,0.574,0.449,86.0
48.053,0.585,0.197,79.0
55.017,0.682,1.764,121.0
55.039,0.695,1.476,85.0
55.094,0.708,1.188,16.0
127.674,1.67,2.073,17.0
121.17,1.612,1.332,10.0
48.151,0.651,0.276,10.0
55.062,0.758,1.855,82.0
55.072,0.77,1.566,1.0
176.736,2.512,4.098,28.0
189.544,2.738,3.382,28.0
126.278,1.853,1.59,20.0
0.0,0.0,0.0,0.0
132.924,2.013,4.692,17.0
162.588,2.5,4.885,22.0
160.116,2.501,3.969,6.0
189.958,3.012,3.693,26.0
126.652,2.039,1.797,37.0
78.112,1.276,0.697,9.0
161.459,2.676,5.957,19.0
132.977,2.236,4.207,26.0
160.579,2.737,4.232,17.0
190.341,3.29,3.997,5.0
127.351,2.231,2.004,36.0
89.74,1.593,0.939,8.0
128.109,2.307,4.924,5.0
132.81,2.422,4.403,8.0
128.116,2.368,3.573,22.0
128.081,2.398,2.883,27.0
127.925,2.427,2.206,31.0
120.948,2.323,1.448,8.0
127.918,2.489,5.11,24.0
127.993,2.521,4.436,43.0
128.042,2.553,3.761,47.0
128.035,2.584,3.072,52.0
128.05,2.615,2.396,6.0
106.059,2.192,1.425,1.0
127.85,2.677,5.296,32.0
128.094,2.713,4.629,24.0
128.144,2.746,3.953,23.0
128.176,2.777,3.263,6.0
0.0,0.0,0.0,0.0
106.061,2.351,1.579,1.0
130.597,2.931,5.6,9.0
152.522,3.461,5.733,31.0
159.315,3.656,5.145,23.0
168.97,3.92,4.545,6.0
0.0,0.0,0.0,0.0
106.097,2.515,1.732,3.0
130.185,3.123,5.77,24.0
152.346,3.691,5.942,17.0
152.655,3.736,5.145,28.0
158.229,3.912,4.478,5.0
100.335,2.507,2.308,55.0
100.341,2.531,1.776,28.0
130.197,3.323,5.95,10.0
152.111,3.92,6.143,38.0
152.414,3.966,5.345,33.0
154.125,4.05,4.572,8.0
0.0,0.0,0.0,0.0
0.0,0.0,0.0,0.0
122.621,3.321,5.769,30.0
151.965,4.153,6.34,29.0
152.057,4.195,5.536,39.0
153.794,4.281,4.766,19.0
154.036,4.328,3.954,26.0
0.0,0.0,0.0,0.0
122.905,3.521,5.944,41.0
151.838,4.389,6.534,42.0
151.97,4.433,5.73,43.0
152.931,4.5,4.937,28.0
154.153,4.574,4.154,14.0
0.0,0.0,0.0,0.0
123.112,3.724,6.112,25.0
133.571,4.075,5.919,15.0
152.06,4.677,5.926,40.0
152.491,4.731,5.115,29.0
158.593,4.961,4.474,14.0
0.0,0.0,0.0,0.0
133.707,4.26,6.805,11.0
133.591,4.291,6.086,38.0
152.375,4.935,6.128,38.0
152.984,4.995,5.319,15.0
158.757,5.224,4.672,11.0
0.0,0.0,0.0,0.0
125.038,4.187,6.515,25.0
133.751,4.513,6.253,22.0
152.674,5.191,6.32,23.0
152.662,5.23,5.488,45.0
157.258,5.428,4.812,8.0
159.373,5.544,4.024,3.0
73.786,2.592,3.931,36.0
124.192,4.394,5.951,33.0
153.183,5.461,6.52,26.0
152.521,5.476,5.658,40.0
160.213,5.796,5.086,12.0
160.661,5.855,4.242,7.0
73.626,2.709,4.008,47.0
133.637,4.953,6.556,28.0
123.973,4.627,5.417,21.0
152.719,5.742,5.839,21.0
157.51,5.963,5.178,5.0
173.504,6.615,4.774,5.0
73.484,2.827,4.081,44.0
73.67,2.854,3.696,10.0
124.593,4.858,5.579,20.0
124.257,4.879,4.884,13.0
158.831,6.279,5.391,5.0
173.171,6.894,4.949,6.0
73.365,2.947,4.154,47.0
123.477,4.994,6.327,33.0
124.129,5.052,5.69,41.0
124.121,5.085,5.01,18.0
156.955,6.471,5.491,19.0
173.251,7.19,5.129,11.0
73.764,3.089,4.252,45.0
123.564,5.207,6.457,20.0
130.381,5.528,6.11,12.0
124.2,5.299,5.137,54.0
157.203,6.748,5.656,11.0
173.51,7.494,5.309,13.0
73.649,3.209,4.319,18.0
123.296,5.405,6.563,24.0
129.83,5.727,6.21,15.0
124.228,5.512,5.259,31.0
124.361,5.551,4.593,5.0
156.542,7.03,4.938,9.0
73.303,3.32,4.368,61.0
123.272,5.616,6.679,33.0
132.382,6.067,6.457,9.0
129.778,5.981,5.614,29.0
124.382,5.764,4.708,8.0
174.132,8.117,5.65,13.0
73.414,3.452,4.442,38.0
123.215,5.826,6.787,39.0
132.411,6.295,6.576,23.0
129.541,6.193,5.719,28.0
157.256,7.559,6.091,21.0
156.705,7.575,5.222,11.0
127.496,6.215,7.826,15.0
150.623,7.38,8.426,13.0
132.581,6.531,6.697,26.0
132.05,6.538,5.941,21.0
167.119,8.32,6.612,12.0
156.558,7.836,5.346,13.0
127.197,6.419,7.912,19.0
73.459,3.726,4.17,24.0
154.504,7.879,7.93,23.0
132.136,6.773,6.051,12.0
157.486,8.115,6.357,5.0
156.922,8.127,5.484,5.0
128.032,6.686,8.067,28.0
73.355,3.849,4.221,36.0
33.448,1.764,1.743,7.0
162.434,8.61,7.564,15.0
159.652,8.504,6.567,7.0
162.373,8.692,5.795,13.0
154.807,8.354,9.869,33.0
127.116,6.891,7.41,33.0
33.448,1.822,1.767,1.0
33.478,1.832,1.583,1.0
162.325,8.928,6.792,6.0
157.685,8.714,5.74,5.0
127.918,7.126,8.245,23.0
127.253,7.12,7.507,29.0
127.244,7.151,6.81,27.0
33.448,1.888,1.604,2.0
162.281,9.206,6.899,12.0
158.124,9.011,5.861,16.0
127.419,7.32,8.299,34.0
127.527,7.357,7.606,33.0
128.592,7.451,6.967,26.0
33.432,1.945,1.624,26.0
33.459,1.956,1.443,0.0
158.424,9.301,5.97,20.0
127.236,7.528,8.364,28.0
127.711,7.589,7.696,35.0
128.335,7.657,7.03,34.0
127.625,7.648,6.28,30.0
33.502,2.016,1.465,0.0
33.532,2.026,1.283,0.0
67.236,4.095,4.46,13.0
67.051,4.1,4.079,34.0
128.684,7.902,7.122,24.0
127.955,7.888,6.367,25.0
158.01,9.782,6.998,22.0
33.429,2.078,1.297,2.0
67.094,4.203,4.486,25.0
67.023,4.214,4.113,29.0
128.244,8.096,7.165,15.0
128.206,8.125,6.446,31.0
158.079,10.059,7.081,37.0
158.163,10.105,6.218,35.0
67.313,4.333,4.534,44.0
67.135,4.338,4.153,37.0
128.328,8.324,7.232,20.0
33.391,2.174,1.694,39.0
33.431,2.184,1.513,3.0
158.077,10.371,6.287,35.0
67.219,4.443,4.559,44.0
67.45,4.474,4.202,36.0
66.976,4.459,3.804,21.0
33.392,2.231,1.709,25.0
33.445,2.242,1.527,2.0
157.966,10.632,6.348,38.0
67.495,4.576,4.605,33.0
67.382,4.584,4.225,31.0
128.265,8.756,7.336,7.0
33.387,2.287,1.721,13.0
121.102,8.326,5.578,8.0
157.849,10.892,6.402,41.0
67.464,4.689,4.628,26.0
70.907,4.945,4.472,8.0
172.917,12.101,9.952,17.0
33.388,2.344,1.733,7.0
113.627,8.006,5.272,10.0
157.782,11.157,6.452,39.0
67.516,4.808,4.655,30.0
70.837,5.061,4.491,39.0
157.405,11.284,9.108,22.0
157.345,11.318,8.219,20.0
112.128,8.091,5.237,9.0
157.336,11.393,6.481,15.0
70.783,5.162,4.9,16.0
70.941,5.19,4.518,36.0
134.671,9.884,7.83,12.0
134.573,9.908,7.066,9.0
115.148,8.505,5.408,7.0
66.543,4.93,2.757,28.0
70.72,5.276,4.914,37.0
70.855,5.302,4.529,9.0
132.4,9.94,7.729,13.0
132.265,9.959,6.974,11.0
0.0,0.0,0.0,0.0
118.143,8.951,4.92,5.0
67.551,5.154,4.708,19.0
130.439,9.98,8.366,14.0
130.377,10.003,7.636,10.0
130.161,10.016,6.887,12.0
106.275,8.202,5.033,13.0
27.978,2.165,1.17,2.0
67.89,5.291,4.743,36.0
75.69,5.916,4.866,13.0
74.686,5.853,4.385,4.0
128.027,10.063,6.793,11.0
109.396,8.624,5.196,6.0
27.958,2.21,1.173,4.0
74.619,5.939,5.222,21.0
74.579,5.951,4.803,21.0
74.534,5.964,4.385,23.0
74.603,5.986,3.966,28.0
74.579,6.001,3.549,27.0
27.958,2.255,1.175,4.0
74.729,6.069,5.236,13.0
74.528,6.069,4.806,24.0
74.516,6.083,4.388,20.0
74.554,6.102,3.968,38.0
74.543,6.117,3.552,35.0
27.964,2.301,1.176,3.0
75.935,6.289,5.324,32.0
75.199,6.243,4.852,19.0
74.608,6.21,4.396,6.0
74.657,6.229,3.975,4.0
74.606,6.241,3.556,10.0
118.19,9.912,4.975,6.0
74.25,6.268,5.206,18.0
75.984,6.429,4.902,51.0
120.823,10.247,7.119,36.0
120.855,10.274,6.433,28.0
103.195,8.795,4.917,20.0
34.283,2.929,1.442,12.0
72.678,6.249,5.093,17.0
0.0,0.0,0.0,0.0
120.798,10.436,7.112,17.0
120.777,10.458,6.422,10.0
103.216,8.958,4.912,19.0
115.162,10.019,4.836,9.0
65.572,5.741,4.59,8.0
0.0,0.0,0.0,0.0
75.866,6.671,4.459,3.0
157.305,13.865,8.349,4.0
103.211,9.117,4.901,22.0
115.18,10.199,4.825,13.0
65.782,5.861,4.597,31.0
115.19,10.285,7.403,15.0
75.983,6.798,4.457,9.0
115.441,10.35,6.112,8.0
103.191,9.273,4.885,22.0
115.351,10.388,4.816,11.0
65.588,5.942,4.574,18.0
76.133,6.912,4.881,26.0
114.745,10.44,6.712,20.0
114.766,10.463,6.056,42.0
103.228,9.432,4.868,22.0
114.721,10.505,4.767,27.0
13.847,1.275,0.963,12.0
13.829,1.276,0.883,6.0
13.852,1.281,0.807,2.0
13.85,1.283,0.728,2.0
13.836,1.284,0.649,6.0
13.844,1.288,0.572,12.0
13.833,1.294,0.958,27.0
13.823,1.296,0.88,29.0
13.823,1.298,0.802,15.0
13.811,1.3,0.722,18.0
13.815,1.303,0.645,26.0
13.823,1.306,0.567,29.0
13.801,1.312,0.952,34.0
13.811,1.315,0.875,37.0
13.809,1.317,0.797,34.0
13.805,1.319,0.718,35.0
13.795,1.321,0.64,34.0
13.796,1.323,0.562,32.0
13.791,1.33,0.947,38.0
13.797,1.333,0.87,90.0
13.789,1.335,0.792,83.0
13.776,1.336,0.712,40.0
13.783,1.339,0.634,38.0
13.79,1.342,0.557,35.0
13.778,1.349,0.942,40.0
13.79,1.352,0.865,59.0
13.787,1.354,0.787,142.0
13.782,1.356,0.707,91.0
13.778,1.358,0.629,48.0
13.777,1.36,0.552,38.0
13.766,1.366,0.936,72.0
13.774,1.369,0.858,116.0
13.773,1.371,0.78,150.0
13.765,1.373,0.701,104.0
13.767,1.375,0.623,37.0
13.77,1.378,0.546,39.0
13.759,1.384,0.93,60.0
13.769,1.387,0.852,150.0
13.779,1.39,0.775,150.0
13.764,1.391,0.695,103.0
13.749,1.392,0.616,36.0
13.778,1.397,0.54,39.0
13.752,1.402,0.923,92.0
13.767,1.405,0.846,150.0
13.768,1.407,0.768,150.0
13.762,1.409,0.688,103.0
13.752,1.41,0.61,37.0
13.773,1.414,0.533,39.0
13.753,1.419,0.916,76.0
13.76,1.422,0.839,150.0
13.765,1.424,0.761,150.0
13.761,1.426,0.682,98.0
13.758,1.428,0.604,38.0
13.767,1.431,0.526,38.0
13.755,1.437,0.91,61.0
13.76,1.439,0.832,150.0
13.767,1.442,0.754,150.0
13.766,1.444,0.674,103.0
13.763,1.445,0.596,38.0
13.762,1.447,0.518,38.0
13.755,1.454,0.902,76.0
13.764,1.456,0.824,150.0
13.766,1.458,0.746,150.0
13.765,1.46,0.667,69.0
13.77,1.463,0.589,39.0
13.777,1.465,0.511,36.0
13.756,1.47,0.894,91.0
13.767,1.473,0.816,150.0
13.773,1.475,0.738,150.0
13.77,1.477,0.659,70.0
13.777,1.48,0.581,38.0
13.775,1.481,0.503,34.0
13.748,1.485,0.885,42.0
13.762,1.489,0.807,150.0
13.776,1.492,0.73,95.0
13.781,1.494,0.651,38.0
13.791,1.497,0.573,34.0
13.788,1.499,0.494,31.0
13.752,1.502,0.876,39.0
13.774,1.506,0.799,150.0
13.782,1.508,0.721,36.0
13.796,1.511,0.642,33.0
13.794,1.513,0.564,28.0
13.801,1.515,0.486,26.0
13.75,1.516,0.867,40.0
13.779,1.521,0.79,67.0
13.794,1.524,0.713,31.0
13.808,1.527,0.633,26.0
13.801,1.528,0.554,19.0
13.812,1.531,0.476,16.0
13.772,1.533,0.858,38.0
13.791,1.537,0.781,34.0
13.799,1.539,0.703,19.0
35.858,4.005,1.619,47.0
35.886,4.012,1.417,69.0
35.899,4.018,1.213,2.0
13.775,1.548,0.848,37.0
36.399,4.095,2.035,14.0
36.416,4.1,1.829,30.0
35.87,4.043,1.593,150.0
0.0,0.0,0.0,0.0
32.996,3.726,1.09,14.0
13.764,1.56,0.837,16.0
13.838,1.57,0.763,3.0
9.989,1.134,0.493,4.0
35.843,4.075,1.564,65.0
32.968,3.751,1.251,4.0
33.226,3.784,1.071,7.0
13.772,1.574,0.827,8.0
9.998,1.144,0.543,14.0
9.99,1.144,0.485,13.0
9.983,1.144,0.427,11.0
33.113,3.799,1.229,3.0
9.992,1.147,0.314,13.0
10.008,1.153,0.593,26.0
10.005,1.154,0.535,51.0
10.003,1.154,0.478,39.0
10.004,1.155,0.42,19.0
10.004,1.156,0.363,19.0
33.926,3.926,1.038,16.0
9.997,1.161,0.583,66.0
10.001,1.162,0.526,134.0
9.996,1.162,0.469,117.0
9.992,1.163,0.411,76.0
9.998,1.164,0.354,61.0
9.995,1.165,0.297,29.0
9.99,1.168,0.574,79.0
9.998,1.17,0.518,141.0
9.987,1.169,0.46,146.0
9.981,1.17,0.402,82.0
9.995,1.172,0.345,85.0
9.99,1.172,0.288,35.0
9.985,1.176,0.565,80.0
9.987,1.177,0.508,149.0
9.988,1.177,0.451,132.0
9.98,1.177,0.393,79.0
9.988,1.179,0.336,75.0
9.994,1.181,0.279,38.0
9.981,1.183,0.556,78.0
9.982,1.184,0.499,149.0
9.979,1.184,0.441,150.0
9.973,1.184,0.383,94.0
9.981,1.185,0.326,82.0
9.982,1.186,0.269,39.0
9.974,1.189,0.546,88.0
9.981,1.19,0.489,150.0
9.979,1.191,0.432,150.0
9.973,1.191,0.374,108.0
9.974,1.192,0.317,96.0
9.981,1.193,0.26,52.0
9.969,1.195,0.536,98.0
9.974,1.196,0.479,150.0
9.97,1.196,0.422,150.0
9.967,1.197,0.364,108.0
9.976,1.198,0.307,107.0
9.977,1.199,0.25,70.0
9.969,1.202,0.526,104.0
9.976,1.203,0.47,150.0
9.973,1.203,0.412,150.0
9.97,1.203,0.354,115.0
9.975,1.204,0.297,112.0
9.974,1.205,0.24,60.0
9.97,1.207,0.517,111.0
9.968,1.208,0.459,150.0
9.973,1.209,0.402,150.0
9.967,1.209,0.344,136.0
9.975,1.21,0.287,116.0
9.97,1.21,0.23,69.0
9.97,1.213,0.506,111.0
9.972,1.213,0.449,150.0
9.97,1.214,0.392,150.0
9.967,1.214,0.334,133.0
9.977,1.215,0.277,117.0
9.972,1.215,0.22,77.0
9.971,1.218,0.496,107.0
9.972,1.218,0.439,150.0
9.976,1.219,0.382,150.0
9.969,1.219,0.324,124.0
9.972,1.22,0.267,117.0
9.969,1.22,0.209,71.0
9.969,1.222,0.486,105.0
9.974,1.223,0.429,150.0
9.975,1.224,0.371,150.0
9.969,1.223,0.313,128.0
9.976,1.225,0.256,120.0
9.969,1.224,0.199,69.0
9.969,1.226,0.475,103.0
9.971,1.227,0.418,150.0
9.972,1.227,0.361,150.0
9.968,1.227,0.302,122.0
9.972,1.228,0.245,116.0
9.97,1.228,0.188,68.0
9.969,1.23,0.464,104.0
9.974,1.231,0.407,150.0
9.971,1.231,0.35,150.0
9.965,1.23,0.292,118.0
9.972,1.231,0.234,116.0
9.967,1.231,0.177,67.0
9.974,1.234,0.454,96.0
9.971,1.234,0.396,150.0
9.976,1.235,0.339,150.0
9.965,1.233,0.281,121.0
9.974,1.235,0.224,115.0
9.97,1.234,0.166,63.0
9.969,1.236,0.442,101.0
9.974,1.237,0.385,150.0
9.972,1.237,0.328,150.0
9.968,1.236,0.27,116.0
9.972,1.237,0.213,114.0
9.968,1.237,0.155,64.0
9.968,1.238,0.431,96.0
9.975,1.239,0.374,150.0
9.975,1.239,0.317,150.0
9.968,1.239,0.258,115.0
9.975,1.239,0.202,116.0
9.97,1.239,0.144,63.0
9.973,1.241,0.42,99.0
9.973,1.241,0.363,150.0
9.977,1.241,0.306,150.0
9.965,1.24,0.247,118.0
9.972,1.241,0.19,106.0
9.974,1.241,0.133,57.0
9.971,1.242,0.409,99.0
9.973,1.242,0.351,150.0
9.977,1.243,0.294,150.0
9.972,1.242,0.236,106.0
9.981,1.243,0.179,114.0
9.972,1.242,0.122,62.0
9.972,1.243,0.398,96.0
9.973,1.243,0.34,150.0
9.977,1.243,0.283,150.0
9.972,1.243,0.225,108.0
9.974,1.243,0.168,112.0
9.968,1.242,0.11,60.0
9.97,1.243,0.386,101.0
9.97,1.243,0.329,150.0
9.971,1.243,0.271,150.0
9.962,1.242,0.213,123.0
9.97,1.243,0.156,105.0
9.976,1.243,0.099,65.0
9.97,1.243,0.374,104.0
9.972,1.243,0.317,150.0
9.97,1.243,0.26,150.0
9.966,1.242,0.202,111.0
9.972,1.243,0.145,110.0
9.97,1.242,0.087,61.0
9.972,1.243,0.363,107.0
9.972,1.243,0.306,150.0
9.973,1.243,0.248,150.0
9.962,1.241,0.19,125.0
9.974,1.242,0.133,116.0
9.968,1.242,0.076,59.0
9.972,1.242,0.351,100.0
9.977,1.243,0.294,150.0
9.97,1.241,0.237,150.0
9.97,1.241,0.179,106.0
9.973,1.241,0.122,106.0
9.968,1.24,0.064,59.0
9.972,1.241,0.34,102.0
9.97,1.24,0.282,150.0
9.977,1.241,0.225,150.0
9.963,1.239,0.167,113.0
9.973,1.24,0.11,106.0
9.973,1.239,0.053,70.0
9.972,1.239,0.328,105.0
9.974,1.239,0.271,150.0
9.966,1.237,0.213,150.0
9.971,1.238,0.155,104.0
9.975,1.238,0.098,110.0
9.973,1.237,0.041,62.0
9.97,1.237,0.316,107.0
9.979,1.237,0.259,150.0
9.969,1.235,0.202,150.0
9.972,1.235,0.144,103.0
9.972,1.235,0.086,100.0
9.966,1.234,0.029,62.0
9.969,1.234,0.305,103.0
9.966,1.233,0.248,150.0
9.973,1.233,0.19,150.0
9.964,1.231,0.132,119.0
9.976,1.233,0.075,114.0
9.964,1.231,0.018,54.0
9.974,1.231,0.293,103.0
9.971,1.23,0.236,150.0
9.974,1.23,0.179,150.0
9.965,1.228,0.121,120.0
9.971,1.228,0.064,112.0
9.973,1.228,0.006,49.0
9.976,1.228,0.282,110.0
9.979,1.227,0.225,150.0
9.977,1.226,0.167,150.0
9.973,1.225,0.109,109.0
9.977,1.225,0.052,112.0
9.973,1.224,-0.004,36.0
9.977,1.224,0.27,106.0
9.968,1.222,0.213,150.0
9.977,1.222,0.156,150.0
9.969,1.221,0.098,111.0
9.976,1.221,0.041,112.0
9.972,1.22,-0.015,47.0
9.972,1.218,0.259,110.0
9.975,1.218,0.202,150.0
9.972,1.217,0.144,150.0
9.967,1.216,0.086,113.0
9.974,1.216,0.029,112.0
9.97,1.215,-0.027,56.0
9.974,1.214,0.247,110.0
9.983,1.214,0.19,150.0
9.97,1.212,0.133,150.0
9.964,1.21,0.075,105.0
9.975,1.211,0.018,86.0
9.975,1.21,-0.038,51.0
9.973,1.208,0.236,110.0
9.975,1.207,0.179,150.0
9.977,1.207,0.122,150.0
9.967,1.205,0.064,95.0
9.978,1.205,0.007,82.0
9.976,1.204,-0.049,44.0
9.972,1.202,0.225,90.0
9.971,1.201,0.168,150.0
9.977,1.201,0.111,150.0
9.975,1.2,0.053,93.0
9.976,1.199,-0.003,83.0
9.977,1.198,-0.06,41.0
9.975,1.196,0.214,83.0
9.98,1.196,0.157,143.0
9.983,1.195,0.1,129.0
9.979,1.194,0.042,76.0
9.989,1.194,-0.014,72.0
9.982,1.192,-0.072,37.0
9.985,1.19,0.203,70.0
9.984,1.189,0.146,135.0
9.985,1.188,0.089,136.0
9.98,1.187,0.031,69.0
9.994,1.188,-0.025,68.0
9.988,1.186,-0.082,34.0
9.99,1.184,0.192,67.0
10.0,1.184,0.135,140.0
9.994,1.182,0.078,131.0
9.992,1.181,0.02,70.0
9.997,1.18,-0.036,77.0
9.995,1.179,-0.093,25.0
9.995,1.177,0.182,67.0
10.006,1.177,0.125,131.0
10.0,1.175,0.067,113.0
9.996,1.173,0.009,52.0
10.007,1.174,-0.047,54.0
10.005,1.173,-0.104,20.0
10.008,1.17,0.171,60.0
10.01,1.169,0.114,87.0
10.008,1.168,0.057,59.0
10.008,1.167,0.0,18.0
10.004,1.165,-0.057,17.0
10.005,1.164,-0.115,15.0
10.019,1.163,0.161,19.0
33.915,3.933,0.352,8.0
9.998,1.158,0.046,14.0
33.827,3.915,-0.038,5.0
34.555,3.995,-0.235,7.0
10.001,1.155,-0.125,7.0
33.912,3.907,0.511,23.0
33.909,3.902,0.317,8.0
33.894,3.896,0.123,49.0
10.005,1.148,-0.021,2.0
34.458,3.952,-0.27,23.0
10.035,1.15,-0.136,0.0
10.027,1.145,0.14,1.0
10.036,1.145,0.083,0.0
41.032,4.677,0.108,4.0
36.912,4.203,-0.117,25.0
34.379,3.91,-0.304,35.0
24.163,2.745,-0.352,5.0
96.366,10.916,1.255,6.0
33.615,3.803,0.246,5.0
40.804,4.611,0.066,24.0
36.385,4.106,-0.151,13.0
34.423,3.881,-0.339,3.0
13.856,1.56,-0.215,10.0
13.835,1.553,0.166,4.0
13.847,1.552,0.087,4.0
13.851,1.55,0.009,9.0
13.862,1.55,-0.071,10.0
13.843,1.546,-0.15,9.0
13.82,1.542,-0.228,17.0
13.829,1.537,0.153,13.0
13.833,1.536,0.074,12.0
13.827,1.533,-0.004,19.0
13.826,1.531,-0.084,18.0
13.809,1.527,-0.163,16.0
13.804,1.525,-0.241,22.0
13.811,1.52,0.139,26.0
13.804,1.517,0.061,26.0
13.799,1.514,-0.017,25.0
13.805,1.513,-0.097,21.0
13.795,1.51,-0.175,26.0
13.801,1.509,-0.254,30.0
13.801,1.503,0.126,36.0
13.794,1.5,0.048,36.0
13.793,1.498,-0.029,30.0
13.792,1.496,-0.109,29.0
13.784,1.493,-0.188,33.0
13.788,1.491,-0.266,32.0
13.789,1.486,0.114,38.0
13.799,1.484,0.036,60.0
13.789,1.481,-0.042,37.0
13.779,1.478,-0.122,34.0
13.774,1.475,-0.2,37.0
13.779,1.474,-0.278,34.0
13.786,1.468,0.102,41.0
13.79,1.466,0.023,104.0
13.777,1.463,-0.054,54.0
13.763,1.459,-0.133,36.0
13.782,1.459,-0.212,40.0
13.776,1.456,-0.29,33.0
13.779,1.45,0.09,51.0
13.781,1.448,0.012,117.0
13.772,1.445,-0.066,85.0
13.766,1.442,-0.145,39.0
13.782,1.441,-0.223,53.0
13.774,1.438,-0.302,35.0
13.781,1.433,0.078,58.0
13.785,1.431,0.0,129.0
13.761,1.426,-0.077,93.0
13.768,1.424,-0.156,39.0
13.774,1.422,-0.235,37.0
13.771,1.42,-0.313,37.0
13.781,1.414,0.067,81.0
13.779,1.411,-0.01,136.0
13.771,1.408,-0.088,106.0
13.771,1.406,-0.168,37.0
13.783,1.404,-0.246,41.0
13.769,1.401,-0.324,38.0
13.788,1.396,0.056,73.0
13.784,1.393,-0.021,130.0
13.778,1.39,-0.099,69.0
13.774,1.387,-0.178,35.0
13.78,1.385,-0.256,69.0
13.769,1.382,-0.334,37.0
13.792,1.377,0.046,67.0
13.79,1.374,-0.031,132.0
13.783,1.371,-0.109,68.0
13.778,1.368,-0.189,38.0
13.783,1.366,-0.267,52.0
13.765,1.362,-0.344,36.0
13.797,1.358,0.036,53.0
13.801,1.355,-0.041,124.0
13.793,1.352,-0.119,92.0
13.787,1.349,-0.199,33.0
13.786,1.346,-0.277,37.0
13.766,1.342,-0.354,33.0
13.806,1.339,0.026,39.0
13.81,1.336,-0.051,98.0
13.8,1.332,-0.129,64.0
13.799,1.329,-0.208,36.0
13.795,1.326,-0.286,34.0
13.78,1.322,-0.364,30.0
13.818,1.319,0.017,36.0
13.826,1.317,-0.06,38.0
13.82,1.313,-0.138,37.0
13.813,1.31,-0.218,34.0
13.814,1.307,-0.296,34.0
13.801,1.303,-0.373,28.0
13.846,1.3,0.008,33.0
13.838,1.297,-0.069,31.0
13.833,1.293,-0.147,33.0
13.835,1.291,-0.227,29.0
13.821,1.286,-0.305,27.0
13.812,1.283,-0.382,26.0
13.871,1.281,0.0,24.0
13.857,1.276,-0.078,24.0
13.858,1.274,-0.156,27.0
13.856,1.27,-0.235,25.0
13.829,1.265,-0.313,19.0
13.829,1.262,-0.391,20.0
40.964,3.718,-0.025,7.0
13.884,1.257,-0.086,9.0
13.891,1.254,-0.164,14.0
13.886,1.251,-0.244,13.0
13.89,1.248,-0.322,12.0
13.869,1.243,-0.4,15.0
40.901,3.646,-0.047,28.0
34.771,3.091,-0.235,10.0
30.161,2.675,-0.374,1.0
22.377,1.979,-0.405,4.0
19.85,1.752,-0.471,2.0
13.92,1.225,-0.409,11.0
38.234,3.345,-0.064,14.0
34.777,3.035,-0.253,10.0
29.765,2.591,-0.384,2.0
22.047,1.914,-0.41,4.0
19.601,1.697,-0.475,3.0
17.605,1.52,-0.525,2.0
28.074,2.41,-0.06,12.0
28.13,2.408,-0.218,12.0
28.171,2.405,-0.377,20.0
21.879,1.862,-0.417,4.0
19.499,1.655,-0.481,3.0
17.49,1.481,-0.53,2.0
28.017,2.357,-0.073,15.0
27.7,2.324,-0.227,10.0
27.613,2.31,-0.381,20.0
21.69,1.809,-0.423,4.0
19.321,1.607,-0.485,3.0
17.417,1.445,-0.535,2.0
27.735,2.286,-0.084,16.0
27.668,2.273,-0.239,32.0
27.634,2.264,-0.393,16.0
21.447,1.751,-0.427,4.0
19.262,1.568,-0.491,3.0
17.252,1.401,-0.537,2.0
27.728,2.236,-0.095,23.0
27.687,2.226,-0.249,32.0
27.678,2.218,-0.404,22.0
21.251,1.698,-0.431,4.0
19.058,1.518,-0.493,3.0
17.198,1.366,-0.541,2.0
27.751,2.189,-0.104,13.0
34.86,2.741,-0.326,1.0
25.036,1.962,-0.374,4.0
21.202,1.656,-0.437,4.0
18.955,1.476,-0.497,3.0
17.099,1.327,-0.544,3.0
35.899,2.767,-0.146,41.0
32.416,2.49,-0.313,1.0
24.92,1.908,-0.38,4.0
21.162,1.615,-0.443,4.0
18.916,1.439,-0.501,3.0
17.034,1.291,-0.546,3.0
35.779,2.693,-0.156,40.0
32.178,2.413,-0.32,1.0
24.799,1.854,-0.384,4.0
21.022,1.566,-0.445,4.0
18.824,1.397,-0.504,3.0
17.02,1.259,-0.55,2.0
35.688,2.621,-0.164,41.0
32.011,2.342,-0.325,1.0
24.493,1.786,-0.385,3.0
20.987,1.524,-0.449,4.0
18.756,1.358,-0.506,5.0
16.953,1.223,-0.552,2.0
0.0,0.0,0.0,0.0
31.93,2.277,-0.331,1.0
24.497,1.741,-0.39,4.0
20.936,1.482,-0.452,4.0
18.83,1.328,-0.511,3.0
16.91,1.188,-0.553,4.0
35.541,2.479,-0.177,28.0
31.675,2.2,-0.333,1.0
24.396,1.688,-0.392,5.0
20.922,1.442,-0.455,4.0
18.711,1.285,-0.511,3.0
16.914,1.157,-0.555,4.0
35.608,2.416,-0.182,19.0
31.577,2.134,-0.336,1.0
24.462,1.646,-0.396,3.0
20.941,1.404,-0.458,4.0
18.729,1.25,-0.513,3.0
16.97,1.128,-0.559,2.0
35.768,2.359,-0.186,16.0
31.415,2.063,-0.338,1.0
24.65,1.612,-0.401,5.0
20.914,1.362,-0.458,4.0
18.745,1.215,-0.515,3.0
16.927,1.093,-0.559,3.0
35.701,2.286,-0.188,33.0
31.543,2.011,-0.341,1.0
24.415,1.55,-0.399,3.0
20.932,1.323,-0.46,4.0
18.725,1.178,-0.515,3.0
16.93,1.061,-0.559,2.0
33.374,2.073,-0.176,8.0
31.552,1.951,-0.341,1.0
24.521,1.509,-0.401,5.0
20.994,1.286,-0.461,4.0
18.758,1.143,-0.516,3.0
17.007,1.032,-0.561,2.0
35.797,2.154,-0.189,33.0
31.59,1.891,-0.341,1.0
24.553,1.463,-0.4,3.0
20.95,1.242,-0.459,4.0
18.869,1.114,-0.518,3.0
17.113,1.005,-0.564,2.0
35.884,2.09,-0.187,12.0
31.799,1.842,-0.341,2.0
24.711,1.424,-0.401,2.0
21.05,1.207,-0.46,4.0
18.886,1.078,-0.517,3.0
17.169,0.975,-0.564,3.0
35.825,2.016,-0.184,26.0
31.699,1.774,-0.337,1.0
24.746,1.378,-0.399,1.0
21.238,1.176,-0.462,4.0
18.92,1.042,-0.515,3.0
17.178,0.941,-0.563,3.0
35.841,1.946,-0.179,30.0
31.966,1.726,-0.335,1.0
24.938,1.339,-0.399,1.0
21.308,1.138,-0.46,4.0
19.095,1.014,-0.517,3.0
17.28,0.912,-0.563,2.0
36.248,1.896,-0.175,37.0
32.18,1.673,-0.332,2.0
28.592,1.478,-0.452,1.0
21.41,1.101,-0.458,4.0
19.268,0.985,-0.518,3.0
17.386,0.883,-0.563,4.0
36.195,1.821,-0.167,47.0
32.429,1.621,-0.327,1.0
28.66,1.424,-0.446,1.0
21.602,1.067,-0.457,4.0
19.376,0.951,-0.516,3.0
17.418,0.85,-0.56,4.0
36.357,1.756,-0.158,41.0
33.046,1.586,-0.325,1.0
28.691,1.369,-0.439,1.0
21.738,1.03,-0.454,4.0
19.461,0.917,-0.513,3.0
17.534,0.821,-0.558,5.0
36.58,1.695,-0.149,42.0
32.922,1.515,-0.314,1.0
28.854,1.319,-0.433,2.0
21.992,0.999,-0.453,4.0
19.619,0.885,-0.511,3.0
17.689,0.792,-0.558,5.0
39.747,1.761,-0.149,22.0
35.453,1.56,-0.326,3.0
29.151,1.273,-0.428,2.0
21.836,0.947,-0.442,4.0
19.867,0.856,-0.51,3.0
17.872,0.764,-0.557,3.0
40.049,1.693,-0.135,38.0
35.678,1.498,-0.315,3.0
29.327,1.222,-0.419,2.0
22.632,0.936,-0.449,4.0
20.056,0.823,-0.507,3.0
17.934,0.73,-0.552,3.0
40.067,1.614,-0.119,45.0
35.812,1.432,-0.302,5.0
29.575,1.173,-0.41,2.0
23.142,0.911,-0.449,5.0
20.225,0.789,-0.503,3.0
18.16,0.703,-0.551,3.0
39.968,1.53,-0.101,47.0
35.967,1.366,-0.287,7.0
29.931,1.127,-0.401,2.0
23.575,0.88,-0.447,5.0
20.466,0.757,-0.499,3.0
18.389,0.675,-0.548,4.0
40.5,1.468,-0.083,20.0
36.102,1.297,-0.27,8.0
30.284,1.079,-0.391,2.0
23.974,0.846,-0.442,5.0
20.745,0.726,-0.495,4.0
18.646,0.646,-0.547,3.0
42.493,1.455,-0.065,3.0
36.261,1.231,-0.252,11.0
30.621,1.029,-0.379,2.0
24.081,0.802,-0.431,1.0
20.98,0.692,-0.489,4.0
18.876,0.617,-0.543,3.0
42.932,1.384,-0.042,5.0
36.547,1.166,-0.233,12.0
31.006,0.98,-0.366,1.0
27.643,0.865,-0.479,1.0
21.25,0.658,-0.483,4.0
19.032,0.584,-0.536,3.0
41.404,1.253,-0.016,3.0
36.726,1.099,-0.213,30.0
31.618,0.937,-0.354,2.0
27.91,0.818,-0.466,1.0
21.566,0.625,-0.477,4.0
19.346,0.554,-0.533,3.0
47.032,1.329,0.011,23.0
36.969,1.032,-0.19,33.0
32.403,0.894,-0.342,1.0
28.359,0.774,-0.455,1.0
21.973,0.593,-0.471,4.0
19.656,0.524,-0.528,3.0
47.775,1.254,0.044,23.0
0.0,0.0,0.0,0.0
33.125,0.849,-0.327,1.0
28.924,0.732,-0.444,1.0
22.68,0.566,-0.471,4.0
19.996,0.493,-0.523,3.0
48.416,1.175,0.078,23.0
38.464,0.921,-0.144,48.0
36.525,0.863,-0.334,1.0
29.305,0.683,-0.429,2.0
23.299,0.536,-0.466,3.0
20.375,0.462,-0.517,3.0
52.089,1.161,0.123,10.0
39.224,0.861,-0.117,45.0
36.699,0.795,-0.308,4.0
29.779,0.635,-0.413,2.0
26.735,0.562,-0.514,1.0
20.65,0.427,-0.508,4.0
57.484,1.169,0.181,5.0
39.731,0.795,-0.088,28.0
36.809,0.725,-0.279,10.0
30.305,0.587,-0.396,2.0
27.025,0.515,-0.498,2.0
21.053,0.395,-0.501,4.0
57.757,1.061,0.229,9.0
44.427,0.802,-0.061,18.0
37.205,0.66,-0.251,13.0
30.964,0.539,-0.378,2.0
27.477,0.47,-0.483,1.0
21.484,0.36,-0.493,4.0
60.452,0.992,0.292,36.0
0.0,0.0,0.0,0.0
37.595,0.594,-0.221,27.0
31.74,0.491,-0.36,1.0
28.06,0.426,-0.469,1.0
21.908,0.325,-0.483,4.0
48.184,0.698,0.275,13.0
47.091,0.667,0.017,40.0
38.04,0.527,-0.189,47.0
32.765,0.444,-0.342,1.0
28.771,0.381,-0.454,2.0
25.898,0.335,-0.547,1.0
48.083,0.604,0.319,81.0
47.777,0.586,0.062,62.0
38.722,0.462,-0.156,50.0
33.789,0.393,-0.32,1.0
29.305,0.331,-0.434,2.0
26.204,0.288,-0.529,2.0
48.072,0.513,0.365,104.0
47.971,0.496,0.109,64.0
39.416,0.395,-0.12,30.0
37.207,0.362,-0.316,3.0
29.889,0.281,-0.413,2.0
26.697,0.243,-0.512,2.0
48.06,0.421,0.413,105.0
48.035,0.406,0.157,91.0
43.959,0.357,-0.09,9.0
37.614,0.294,-0.281,5.0
30.543,0.229,-0.391,2.0
27.192,0.196,-0.493,1.0
48.163,0.332,0.464,51.0
48.194,0.318,0.207,40.0
44.795,0.282,-0.045,21.0
38.119,0.228,-0.246,13.0
31.535,0.179,-0.371,1.0
27.982,0.15,-0.478,2.0
59.321,0.3,0.634,111.0
59.359,0.281,0.318,63.0
46.882,0.208,0.002,27.0
38.705,0.16,-0.207,20.0
32.684,0.124,-0.349,1.0
28.607,0.1,-0.457,2.0
79.472,0.254,0.937,151.0
76.111,0.22,0.493,23.0
47.967,0.124,0.055,21.0
39.369,0.09,-0.167,38.0
33.467,0.066,-0.319,0.0
29.341,0.049,-0.436,2.0
79.468,0.11,1.026,151.0
79.307,0.085,0.604,21.0
54.64,0.043,0.125,28.0
40.638,0.019,-0.126,17.0
0.0,0.0,0.0,0.0
29.947,-0.003,-0.41,2.0
79.463,-0.032,1.118,151.0
79.435,-0.056,0.697,150.0
56.161,-0.056,0.195,10.0
42.78,-0.055,-0.082,18.0
38.728,-0.062,-0.279,4.0
30.801,-0.058,-0.385,1.0
79.455,-0.174,1.213,151.0
79.455,-0.197,0.792,151.0
61.579,-0.17,0.287,8.0
0.0,0.0,0.0,0.0
39.24,-0.132,-0.236,6.0
32.042,-0.117,-0.362,1.0
79.448,-0.313,1.309,162.0
79.46,-0.337,0.889,156.0
76.664,-0.346,0.452,12.0
47.976,-0.231,0.024,8.0
40.025,-0.204,-0.191,4.0
33.322,-0.18,-0.334,1.0
79.443,-0.451,1.408,166.0
79.458,-0.474,0.988,178.0
0.0,0.0,0.0,0.0
52.92,-0.346,0.094,21.0
46.171,-0.316,-0.161,4.0
36.489,-0.26,-0.319,0.0
79.442,-0.588,1.511,168.0
79.446,-0.611,1.092,188.0
79.431,-0.633,0.672,150.0
0.0,0.0,0.0,0.0
50.551,-0.431,-0.11,10.0
40.161,-0.354,-0.299,0.0
79.434,-0.722,1.615,176.0
79.439,-0.745,1.196,211.0
79.452,-0.767,0.777,168.0
77.391,-0.769,0.341,2.0
54.336,-0.555,-0.046,13.0
42.145,-0.442,-0.258,2.0
79.414,-0.853,1.72,233.0
79.41,-0.875,1.301,255.0
79.465,-0.898,0.884,150.0
78.39,-0.908,0.451,11.0
60.695,-0.719,0.029,6.0
44.763,-0.543,-0.213,3.0
79.731,-0.988,1.836,0.0
86.953,-1.1,1.543,44.0
86.949,-1.125,1.086,150.0
87.867,-1.161,0.627,6.0
183.397,-2.474,0.345,12.0
49.204,-0.677,-0.165,3.0
183.398,-2.569,4.478,85.0
183.417,-2.616,3.512,38.0
187.166,-2.72,2.6,27.0
98.962,-1.465,0.845,5.0
248.347,-3.744,0.816,37.0
0.0,0.0,0.0,0.0
183.532,-2.86,4.74,37.0
248.365,-3.936,5.109,21.0
205.375,-3.31,3.147,57.0
40.292,-0.66,0.401,1.0
40.287,-0.67,0.19,43.0
40.312,-0.681,-0.021,58.0
40.281,-0.69,1.098,31.0
40.205,-0.7,0.885,44.0
40.172,-0.709,0.673,41.0
40.249,-0.721,0.459,28.0
40.247,-0.731,0.248,55.0
40.285,-0.742,0.037,56.0
40.282,-0.752,1.157,57.0
40.229,-0.761,0.944,45.0
40.192,-0.77,0.732,39.0
40.219,-0.78,0.518,62.0
40.26,-0.791,0.307,44.0
66.884,-1.333,0.161,1.0
40.312,-0.813,1.218,39.0
40.22,-0.82,1.004,53.0
40.199,-0.83,0.793,55.0
40.242,-0.841,0.578,47.0
40.208,-0.85,0.367,0.0
0.0,0.0,0.0,0.0
40.294,-0.871,1.278,20.0
40.209,-0.879,1.065,59.0
40.198,-0.889,0.854,55.0
40.3,-0.901,0.641,150.0
40.288,-0.911,0.431,37.0
40.308,-0.921,0.22,79.0
40.287,-0.929,1.34,45.0
40.21,-0.937,1.127,58.0
40.188,-0.947,0.916,56.0
40.185,-0.956,0.702,68.0
40.229,-0.966,0.492,48.0
40.268,-0.976,0.282,3.0
40.192,-0.984,1.399,56.0
40.237,-0.994,1.19,46.0
40.191,-1.002,0.978,58.0
40.183,-1.011,0.764,53.0
40.202,-1.022,0.555,51.0
40.183,-1.031,0.345,53.0
40.201,-1.04,1.463,51.0
40.289,-1.051,1.256,37.0
40.201,-1.058,1.043,54.0
40.22,-1.068,0.829,42.0
40.242,-1.077,0.62,44.0
40.218,-1.085,0.409,39.0
40.266,-1.095,1.53,11.0
40.306,-1.105,1.321,0.0
40.249,-1.113,1.109,37.0
0.0,0.0,0.0,0.0
0.0,0.0,0.0,0.0
153.81,-4.355,1.816,6.0
148.305,-4.23,5.875,3.0
0.0,0.0,0.0,0.0
40.295,-1.166,1.175,15.0
40.308,-1.175,0.961,25.0
40.345,-1.185,0.752,23.0
40.371,-1.194,0.542,1.0
148.195,-4.416,6.112,32.0
0.0,0.0,0.0,0.0
0.0,0.0,0.0,0.0
40.308,-1.226,1.027,26.0
40.32,-1.235,0.817,25.0
40.34,-1.243,0.608,75.0
148.21,-4.6,6.357,10.0
0.0,0.0,0.0,0.0
0.0,0.0,0.0,0.0
0.0,0.0,0.0,0.0
0.0,0.0,0.0,0.0
0.0,0.0,0.0,0.0
0.0,0.0,0.0,0.0
148.173,-4.807,5.83,5.0
0.0,0.0,0.0,0.0
0.0,0.0,0.0,0.0
0.0,0.0,0.0,0.0
0.0,0.0,0.0,0.0
0.0,0.0,0.0,0.0
0.0,0.0,0.0,0.0
0.0,0.0,0.0,0.0
0.0,0.0,0.0,0.0
0.0,0.0,0.0,0.0
0.0,0.0,0.0,0.0
0.0,0.0,0.0,0.0
0.0,0.0,0.0,0.0
0.0,0.0,0.0,0.0
0.0,0.0,0.0,0.0
0.0,0.0,0.0,0.0
0.0,0.0,0.0,0.0
0.0,0.0,0.0,0.0
0.0,0.0,0.0,0.0
0.0,0.0,0.0,0.0
0.0,0.0,0.0,0.0
0.0,0.0,0.0,0.0
0.0,0.0,0.0,0.0
0.0,0.0,0.0,0.0
0.0,0.0,0.0,0.0
0.0,0.0,0.0,0.0
0.0,0.0,0.0,0.0
0.0,0.0,0.0,0.0
0.0,0.0,0.0,0.0
0.0,0.0,0.0,0.0
0.0,0.0,0.0,0.0
0.0,0.0,0.0,0.0
0.0,0.0,0.0,0.0
0.0,0.0,0.0,0.0
0.0,0.0,0.0,0.0
0.0,0.0,0.0,0.0
0.0,0.0,0.0,0.0
0.0,0.0,0.0,0.0
0.0,0.0,0.0,0.0
0.0,0.0,0.0,0.0
0.0,0.0,0.0,0.0
0.0,0.0,0.0,0.0
0.0,0.0,0.0,0.0
0.0,0.0,0.0,0.0
0.0,0.0,0.0,0.0
0.0,0.0,0.0,0.0
0.0,0.0,0.0,0.0
97.951,-3.976,5.716,1.0
0.0,0.0,0.0,0.0
0.0,0.0,0.0,0.0
0.0,0.0,0.0,0.0
0.0,0.0,0.0,0.0
0.0,0.0,0.0,0.0
97.494,-4.042,5.861,3.0
0.0,0.0,0.0,0.0
0.0,0.0,0.0,0.0
0.0,0.0,0.0,0.0
0.0,0.0,0.0,0.0
0.0,0.0,0.0,0.0
97.092,-4.107,6.01,1.0
0.0,0.0,0.0,0.0
0.0,0.0,0.0,0.0
0.0,0.0,0.0,0.0
0.0,0.0,0.0,0.0
0.0,0.0,0.0,0.0
92.501,-3.986,5.891,1.0
83.295,-3.598,4.871,3.0
0.0,0.0,0.0,0.0
0.0,0.0,0.0,0.0
0.0,0.0,0.0,0.0
0.0,0.0,0.0,0.0
93.205,-4.086,6.101,3.0
0.0,0.0,0.0,0.0
0.0,0.0,0.0,0.0
0.0,0.0,0.0,0.0
0.0,0.0,0.0,0.0
0.0,0.0,0.0,0.0
89.733,-3.998,6.034,2.0
0.0,0.0,0.0,0.0
0.0,0.0,0.0,0.0
0.0,0.0,0.0,0.0
0.0,0.0,0.0,0.0
0.0,0.0,0.0,0.0
91.689,-4.146,6.329,2.0
92.36,-4.184,5.894,2.0
83.229,-3.778,4.877,2.0
0.0,0.0,0.0,0.0
0.0,0.0,0.0,0.0
0.0,0.0,0.0,0.0
93.07,-4.267,6.591,10.0
91.241,-4.191,5.985,2.0
0.0,0.0,0.0,0.0
0.0,0.0,0.0,0.0
0.0,0.0,0.0,0.0
0.0,0.0,0.0,0.0
98.376,-4.568,7.142,4.0
93.026,-4.326,6.268,6.0
0.0,0.0,0.0,0.0
0.0,0.0,0.0,0.0
0.0,0.0,0.0,0.0
0.0,0.0,0.0,0.0
92.544,-4.348,6.883,4.0
89.746,-4.222,6.207,5.0
92.228,-4.345,5.896,1.0
0.0,0.0,0.0,0.0
0.0,0.0,0.0,0.0
0.0,0.0,0.0,0.0
83.597,-3.971,6.366,7.0
89.738,-4.266,6.365,5.0
90.957,-4.329,5.976,2.0
83.233,-3.965,5.025,2.0
0.0,0.0,0.0,0.0
0.0,0.0,0.0,0.0
83.572,-4.007,6.511,3.0
83.075,-3.987,6.037,5.0
92.949,-4.465,6.268,3.0
83.451,-4.012,5.184,1.0
0.0,0.0,0.0,0.0
0.0,0.0,0.0,0.0
91.082,-4.406,7.257,1.0
83.102,-4.023,6.186,4.0
91.491,-4.433,6.331,1.0
0.0,0.0,0.0,0.0
0.0,0.0,0.0,0.0
0.0,0.0,0.0,0.0
93.451,-4.556,7.611,6.0
92.036,-4.49,7.012,5.0
91.399,-4.462,6.485,4.0
0.0,0.0,0.0,0.0
0.0,0.0,0.0,0.0
0.0,0.0,0.0,0.0
92.635,-4.548,7.704,3.0
83.591,-4.106,6.514,8.0
93.084,-4.574,6.766,4.0
92.91,-4.567,6.258,2.0
0.0,0.0,0.0,0.0
0.0,0.0,0.0,0.0
92.37,-4.564,7.845,7.0
83.676,-4.134,6.667,7.0
83.066,-4.105,6.184,5.0
92.986,-4.597,6.427,3.0
0.0,0.0,0.0,0.0
0.0,0.0,0.0,0.0
92.054,-4.572,7.981,1.0
83.684,-4.156,6.815,6.0
92.696,-4.604,7.063,2.0
91.364,-4.539,6.474,3.0
90.421,-4.493,5.933,1.0
0.0,0.0,0.0,0.0
0.0,0.0,0.0,0.0
92.677,-4.622,7.707,2.0
91.964,-4.586,7.165,3.0
92.97,-4.637,6.746,3.0
93.173,-4.646,6.273,3.0
0.0,0.0,0.0,0.0
90.751,-4.544,8.18,4.0
92.352,-4.622,7.839,9.0
83.54,-4.18,6.651,2.0
83.054,-4.154,6.168,5.0
92.986,-4.65,6.419,5.0
0.0,0.0,0.0,0.0
56.73,-2.848,5.21,2.0
91.905,-4.612,7.956,4.0
93.384,-4.684,7.593,3.0
83.133,-4.168,6.315,6.0
91.481,-4.585,6.468,3.0
91.729,-4.596,6.006,1.0
56.67,-2.851,5.301,6.0
0.0,0.0,0.0,0.0
83.628,-4.202,6.94,4.0
91.981,-4.618,7.14,2.0
91.427,-4.588,6.617,2.0
93.066,-4.668,6.248,1.0
56.691,-2.855,5.398,5.0
90.785,-4.569,8.165,4.0
92.398,-4.646,7.823,7.0
83.563,-4.198,6.626,3.0
83.122,-4.174,6.154,4.0
92.958,-4.664,6.394,5.0
63.725,-3.21,6.174,4.0
56.787,-2.858,5.202,1.0
92.037,-4.628,7.944,6.0
93.409,-4.692,7.56,2.0
83.084,-4.17,6.287,6.0
91.497,-4.589,6.444,3.0
63.69,-3.207,6.276,2.0
56.685,-2.851,5.286,6.0
0.0,0.0,0.0,0.0
83.665,-4.199,6.909,4.0
92.034,-4.615,7.115,3.0
91.412,-4.579,6.586,3.0
92.814,-4.667,9.297,5.0
56.668,-2.846,5.376,4.0
90.746,-4.553,8.129,4.0
92.375,-4.628,7.776,4.0
83.613,-4.185,6.598,3.0
83.076,-4.153,6.117,3.0
55.154,-2.768,5.613,1.0
63.687,-3.192,6.144,4.0
84.047,-4.206,7.663,2.0
92.068,-4.602,7.898,6.0
83.656,-4.176,6.735,6.0
83.028,-4.139,6.245,4.0
55.205,-2.762,5.707,4.0
92.691,-4.632,9.089,4.0
56.695,-2.828,5.258,6.0
0.0,0.0,0.0,0.0
93.339,-4.644,7.658,5.0
91.927,-4.566,7.057,2.0
57.233,-2.854,6.006,2.0
92.722,-4.616,9.236,10.0
56.651,-2.815,5.342,1.0
90.822,-4.506,8.073,4.0
92.542,-4.584,7.736,6.0
83.589,-4.135,6.545,7.0
49.461,-2.455,5.267,3.0
92.64,-4.591,9.371,10.0
63.683,-3.15,6.103,3.0
56.666,-2.798,5.124,2.0
92.108,-4.539,7.84,5.0
90.966,-4.476,7.26,4.0
54.989,-2.716,5.939,7.0
55.148,-2.718,5.661,3.0
92.709,-4.561,9.024,9.0
56.678,-2.783,5.209,11.0
0.0,0.0,0.0,0.0
93.333,-4.565,7.587,6.0
55.317,-2.716,6.057,5.0
57.257,-2.805,5.964,2.0
92.596,-4.527,9.15,6.0
63.62,-3.104,5.941,1.0
90.772,-4.42,7.993,3.0
90.865,-4.414,7.519,3.0
56.627,-2.762,6.284,5.0
54.975,-2.675,5.806,8.0
55.082,-2.674,5.523,2.0
92.719,-4.491,8.792,11.0
90.374,-4.368,8.088,5.0
91.997,-4.437,7.743,3.0
48.392,-2.342,5.439,8.0
49.495,-2.39,5.298,5.0
55.09,-2.654,5.602,4.0
92.653,-4.453,8.918,10.0
56.702,-2.718,5.155,6.0
84.013,-4.018,7.191,1.0
48.362,-2.321,5.505,10.0
56.649,-2.712,6.144,3.0
54.967,-2.625,5.667,5.0
54.995,-2.62,5.37,0.0
56.722,-2.695,5.236,4.0
90.334,-4.281,7.856,4.0
50.887,-2.421,5.863,4.0
56.621,-2.686,6.219,6.0
55.031,-2.604,5.748,4.0
54.937,-2.592,5.438,1.0
63.315,-2.98,5.929,4.0
83.941,-3.94,7.412,11.0
0.0,0.0,0.0,0.0
48.477,-2.276,5.39,5.0
63.589,-2.978,6.727,6.0
57.984,-2.708,5.817,4.0
83.24,-3.876,7.905,12.0
56.725,-2.634,5.084,8.0
47.605,-2.218,5.613,4.0
48.342,-2.245,5.439,13.0
55.098,-2.552,5.902,12.0
55.034,-2.541,5.593,14.0
90.716,-4.177,8.733,6.0
63.435,-2.912,5.767,6.0
49.443,-2.277,5.894,7.0
50.834,-2.334,5.784,7.0
40.595,-1.858,4.4,33.0
0.0,0.0,0.0,0.0
57.969,-2.636,5.653,4.0
91.332,-4.141,8.418,5.0
48.907,-2.225,5.892,4.0
63.037,-2.858,7.253,9.0
40.545,-1.832,4.445,56.0
55.25,-2.488,5.754,15.0
55.043,-2.471,5.436,15.0
82.935,-3.711,7.744,3.0
53.017,-2.38,6.452,4.0
47.556,-2.127,5.53,3.0
48.36,-2.156,5.361,5.0
52.94,-2.351,5.577,3.0
64.217,-2.843,6.419,12.0
63.725,-2.811,6.027,4.0
46.899,-2.075,5.764,6.0
47.518,-2.095,5.582,6.0
40.53,-1.78,4.541,32.0
57.766,-2.528,6.154,7.0
63.497,-2.769,6.422,19.0
55.012,-2.391,5.267,14.0
48.456,-2.112,6.012,23.0
0.0,0.0,0.0,0.0
40.511,-1.752,4.586,53.0
40.629,-1.751,4.375,15.0
56.651,-2.431,5.794,11.0
54.902,-2.348,5.318,3.0
48.324,-2.073,6.051,27.0
40.433,-1.727,4.843,29.0
40.515,-1.724,4.632,29.0
40.519,-1.717,4.408,67.0
53.179,-2.245,5.497,1.0
57.286,-2.408,5.612,8.0
48.074,-2.027,6.073,1.0
40.405,-1.697,4.883,39.0
40.598,-1.697,4.686,32.0
40.524,-1.687,4.452,52.0
40.485,-1.679,4.228,11.0
57.227,-2.364,5.666,2.0
51.036,-2.113,6.501,11.0
40.32,-1.662,4.916,45.0
40.708,-1.671,4.74,34.0
40.377,-1.65,4.478,62.0
40.393,-1.644,4.26,53.0
55.285,-2.24,5.53,2.0
42.12,-1.711,5.409,3.0
40.311,-1.63,4.955,48.0
40.68,-1.638,4.778,6.0
40.315,-1.616,4.511,57.0
40.382,-1.612,4.298,59.0
53.283,-2.117,5.382,5.0
42.082,-1.676,5.445,36.0
47.375,-1.878,5.87,4.0
40.426,-1.595,4.788,70.0
40.283,-1.582,4.546,62.0
40.41,-1.579,4.34,60.0
52.961,-2.06,5.399,17.0
42.117,-1.642,5.49,47.0
40.264,-1.562,5.027,54.0
40.386,-1.56,4.82,62.0
40.315,-1.549,4.587,36.0
40.366,-1.544,4.372,62.0
40.303,-1.534,4.145,44.0
42.235,-1.611,5.543,59.0
40.264,-1.528,5.063,36.0
40.303,-1.522,4.846,60.0
40.27,-1.513,4.617,52.0
43.133,-1.612,4.709,4.0
40.102,-1.492,4.158,52.0
42.412,-1.58,5.603,46.0
43.718,-1.621,5.534,46.0
40.414,-1.49,4.894,39.0
40.309,-1.479,4.655,45.0
42.977,-1.569,4.727,4.0
40.18,-1.459,4.199,43.0
42.218,-1.535,5.613,49.0
43.712,-1.581,5.569,14.0
40.393,-1.453,4.924,49.0
40.324,-1.442,4.689,56.0
40.395,-1.437,4.476,60.0
40.242,-1.424,4.238,39.0
0.0,0.0,0.0,0.0
43.333,-1.526,5.555,34.0
40.309,-1.412,4.945,51.0
40.484,-1.41,4.739,58.0
40.407,-1.4,4.507,61.0
40.408,-1.391,4.286,50.0
42.839,-1.477,5.761,19.0
47.32,-1.622,6.101,36.0
40.319,-1.374,4.975,45.0
40.526,-1.373,4.773,55.0
40.457,-1.363,4.541,46.0
40.296,-1.349,4.302,60.0
42.102,-1.411,5.692,37.0
42.722,-1.423,5.538,32.0
40.564,-1.343,5.033,61.0
40.659,-1.338,4.816,55.0
40.07,-1.31,4.525,52.0
40.148,-1.305,4.312,44.0
41.961,-1.365,5.701,65.0
0.0,0.0,0.0,0.0
40.541,-1.302,5.056,59.0
40.511,-1.293,4.824,52.0
39.928,-1.266,4.533,56.0
39.741,-1.252,4.293,54.0
42.108,-1.328,5.746,50.0
41.962,-1.315,5.492,52.0
40.528,-1.261,5.079,34.0
40.573,-1.254,4.855,47.0
39.615,-1.216,4.521,69.0
39.767,-1.213,4.318,62.0
42.103,-1.284,5.77,61.0
41.927,-1.27,5.512,47.0
39.957,-1.202,5.03,57.0
40.45,-1.209,4.863,46.0
39.469,-1.171,4.526,60.0
39.669,-1.169,4.329,55.0
42.281,-1.246,5.817,56.0
50.866,-1.487,6.714,5.0
39.941,-1.16,5.048,53.0
40.029,-1.154,4.832,48.0
39.434,-1.129,4.541,62.0
39.56,-1.124,4.336,58.0
42.374,-1.203,5.85,56.0
42.2,-1.189,5.59,27.0
39.786,-1.113,5.047,52.0
40.161,-1.115,4.867,43.0
39.501,-1.089,4.567,57.0
39.408,-1.078,4.337,51.0
42.421,-1.159,5.876,40.0
49.081,-1.331,6.523,5.0
39.57,-1.065,5.037,63.0
40.184,-1.073,4.886,50.0
39.252,-1.04,4.554,63.0
39.278,-1.033,4.338,64.0
42.104,-1.105,5.848,59.0
42.229,-1.1,5.628,52.0
39.529,-1.02,5.046,47.0
39.814,-1.019,4.856,58.0
39.189,-0.996,4.561,56.0
39.389,-0.992,4.364,43.0
42.003,-1.056,5.849,49.0
42.12,-1.051,5.628,64.0
39.543,-0.978,5.061,52.0
40.092,-0.983,4.903,52.0
39.184,-0.953,4.572,61.0
39.546,-0.953,4.394,52.0
41.819,-1.005,5.836,70.0
42.092,-1.003,5.637,54.0
39.495,-0.933,5.067,59.0
39.581,-0.927,4.851,61.0
39.37,-0.914,4.605,52.0
39.121,-0.9,4.357,61.0
41.954,-0.962,5.866,48.0
41.989,-0.954,5.633,60.0
39.506,-0.89,5.077,36.0
39.613,-0.884,4.864,52.0
39.21,-0.867,4.594,63.0
39.375,-0.863,4.393,56.0
42.115,-0.919,5.897,44.0
41.778,-0.902,5.613,70.0
41.826,-0.895,5.384,38.0
39.633,-0.84,4.874,63.0
39.23,-0.823,4.604,65.0
39.099,-0.812,4.369,63.0
42.066,-0.87,5.897,26.0
42.618,-0.872,5.733,30.0
41.881,-0.848,5.397,40.0
39.406,-0.79,4.852,59.0
39.195,-0.778,4.605,63.0
39.233,-0.771,4.389,60.0
42.368,-0.828,5.944,44.0
42.823,-0.828,5.765,36.0
42.143,-0.806,5.435,4.0
39.405,-0.745,4.855,57.0
39.306,-0.736,4.621,50.0
39.319,-0.728,4.402,55.0
42.137,-0.775,5.915,59.0
43.006,-0.782,5.793,29.0
42.029,-0.756,5.422,28.0
39.37,-0.7,4.852,53.0
39.765,-0.699,4.677,54.0
39.126,-0.68,4.381,57.0
41.69,-0.719,5.853,57.0
42.834,-0.73,5.77,32.0
42.643,-0.719,5.502,6.0
39.388,-0.656,4.855,52.0
39.478,-0.649,4.643,46.0
39.403,-0.64,4.412,50.0
41.613,-0.67,5.842,57.0
39.937,-0.635,5.379,58.0
39.904,-0.627,5.147,64.0
39.558,-0.614,4.874,59.0
39.546,-0.605,4.648,60.0
39.321,-0.594,4.4,50.0
41.783,-0.625,5.862,67.0
39.916,-0.589,5.373,64.0
39.946,-0.581,5.149,71.0
39.942,-0.573,4.917,45.0
39.986,-0.566,4.696,47.0
39.709,-0.554,4.439,45.0
0.0,0.0,0.0,0.0
39.963,-0.543,5.374,37.0
40.056,-0.537,5.158,69.0
43.557,-0.575,5.356,2.0
39.959,-0.52,4.687,61.0
39.686,-0.509,4.43,51.0
41.651,-0.527,5.832,31.0
40.023,-0.498,5.375,55.0
39.977,-0.489,5.141,55.0
40.057,-0.482,4.918,40.0
39.961,-0.473,4.68,48.0
39.836,-0.464,4.439,47.0
40.208,-0.461,5.622,68.0
40.067,-0.452,5.372,46.0
39.888,-0.442,5.12,53.0
39.782,-0.434,4.875,44.0
40.109,-0.429,4.687,49.0
39.685,-0.417,4.412,48.0
40.727,-0.421,5.684,78.0
40.111,-0.407,5.368,57.0
39.824,-0.396,5.101,55.0
39.8,-0.388,4.867,40.0
40.109,-0.383,4.676,44.0
39.697,-0.372,4.402,53.0
40.798,-0.374,5.681,78.0
39.857,-0.358,5.321,44.0
39.742,-0.349,5.078,45.0
39.651,-0.341,4.835,68.0
0.0,0.0,0.0,0.0
40.45,-0.332,4.472,38.0
0.0,0.0,0.0,0.0
39.607,-0.31,5.273,62.0
42.274,-0.323,5.386,2.0
39.608,-0.295,4.815,47.0
39.65,-0.288,4.594,43.0
39.987,-0.283,4.405,54.0
40.051,-0.275,5.547,71.0
39.406,-0.263,5.23,64.0
39.723,-0.258,5.044,54.0
39.64,-0.251,4.803,49.0
39.624,-0.243,4.574,38.0
39.931,-0.238,4.382,61.0
39.614,-0.227,5.469,58.0
39.36,-0.219,5.207,64.0
39.64,-0.213,5.016,52.0
39.625,-0.206,4.782,51.0
39.577,-0.198,4.55,39.0
39.909,-0.193,4.36,52.0
39.534,-0.182,5.438,66.0
39.434,-0.175,5.197,58.0
39.574,-0.168,4.987,71.0
39.569,-0.161,4.755,56.0
46.87,-0.183,5.364,29.0
40.164,-0.15,4.367,55.0
39.512,-0.137,5.414,60.0
39.517,-0.131,5.186,58.0
39.653,-0.125,4.975,58.0
39.743,-0.118,4.754,31.0
39.949,-0.112,4.55,56.0
40.777,-0.107,4.411,37.0
39.597,-0.094,5.403,63.0
39.672,-0.088,5.183,56.0
39.756,-0.081,4.965,54.0
39.74,-0.074,4.73,53.0
40.259,-0.069,4.56,37.0
41.037,-0.063,4.414,43.0
39.759,-0.051,5.399,47.0
39.544,-0.044,5.141,41.0
39.437,-0.037,4.9,57.0
39.989,-0.031,4.734,46.0
