X,Y,Z,Reflectivity
101.405,-2.017,5.958,39.0
83.775,-1.668,4.489,25.0
90.938,-1.813,4.393,30.0
128.694,-2.568,5.552,30.0
191.411,-3.824,7.268,16.0
129.927,-2.615,8.567,20.0
84.124,-1.695,5.11,43.0
91.325,-1.841,5.073,15.0
91.604,-1.848,4.605,80.0
92.959,-1.876,4.193,11.0
191.358,-3.866,7.641,16.0
85.916,-1.748,5.834,5.0
84.555,-1.721,5.303,68.0
101.416,-2.066,5.835,13.0
91.396,-1.862,4.774,76.0
90.623,-1.846,4.265,41.0
184.084,-3.753,7.714,28.0
85.94,-1.765,6.007,28.0
85.122,-1.748,5.507,13.0
101.419,-2.083,6.034,27.0
91.376,-1.876,4.952,26.0
91.964,-1.888,4.507,29.0
128.869,-2.646,5.649,14.0
83.918,-1.736,6.029,4.0
129.61,-2.679,8.638,15.0
84.127,-1.738,5.17,56.0
91.334,-1.887,5.129,25.0
91.547,-1.89,4.666,78.0
90.636,-1.87,4.15,23.0
41.244,-0.857,3.043,25.0
85.94,-1.786,5.895,13.0
84.55,-1.755,5.36,67.0
128.957,-2.675,7.494,18.0
91.413,-1.895,4.837,64.0
90.645,-1.877,4.327,27.0
41.268,-0.86,3.126,68.0
85.953,-1.791,6.063,28.0
129.949,-2.704,8.49,17.0
84.079,-1.747,5.048,8.0
91.356,-1.896,5.011,19.0
91.905,-1.906,4.564,67.0
41.266,-0.862,3.206,40.0
41.182,-0.858,2.985,0.0
93.797,-1.953,6.31,3.0
84.139,-1.75,5.214,61.0
91.37,-1.897,5.188,8.0
91.405,-1.894,4.716,61.0
41.199,-0.86,3.281,58.0
41.245,-0.859,3.069,48.0
85.96,-1.788,5.948,27.0
84.849,-1.762,5.42,32.0
101.462,-2.102,5.952,13.0
91.403,-1.891,4.887,41.0
54.215,-1.129,4.419,11.0
41.256,-0.857,3.147,56.0
85.98,-1.783,6.111,13.0
129.813,-2.687,8.536,21.0
101.457,-2.094,6.143,21.0
91.361,-1.882,5.056,25.0
54.2,-1.124,4.52,52.0
41.266,-0.853,3.226,42.0
41.255,-0.851,3.009,9.0
93.861,-1.932,6.346,4.0
84.387,-1.733,5.266,66.0
101.43,-2.078,5.801,8.0
63.823,-1.316,5.443,28.0
54.245,-1.115,4.341,7.0
41.244,-0.846,3.085,72.0
85.94,-1.757,5.971,33.0
85.104,-1.734,5.469,15.0
101.439,-2.061,5.99,37.0
40.692,-0.832,3.546,39.0
54.222,-1.106,4.441,14.0
41.222,-0.838,3.16,38.0
128.809,-2.61,9.189,20.0
129.729,-2.62,8.577,16.0
84.116,-1.693,5.121,43.0
40.357,-0.818,3.591,52.0
63.477,-1.282,5.316,24.0
41.298,-0.831,3.242,44.0
41.231,-0.826,3.017,4.0
85.935,-1.716,5.838,31.0
85.123,-1.693,5.339,37.0
39.689,-0.795,3.605,68.0
63.838,-1.273,5.463,10.0
54.233,-1.077,4.356,10.0
41.251,-0.816,3.092,56.0
85.929,-1.693,5.992,28.0
94.542,-1.856,6.099,9.0
39.757,-0.785,3.683,70.0
40.605,-0.799,3.548,56.0
40.779,-0.798,3.349,32.0
41.258,-0.804,3.168,42.0
83.886,-1.628,6.001,4.0
85.905,-1.66,5.696,50.0
39.483,-0.768,3.729,71.0
40.155,-0.777,3.581,52.0
63.956,-1.232,5.367,24.0
54.213,-1.039,4.259,8.0
94.867,-1.809,6.956,10.0
82.208,-1.56,5.597,4.0
39.529,-0.755,3.804,49.0
39.769,-0.756,3.618,67.0
40.693,-0.769,3.487,41.0
54.201,-1.019,4.354,14.0
41.279,-0.772,3.099,7.0
101.176,-1.882,7.065,3.0
39.334,-0.736,3.854,60.0
39.981,-0.744,3.706,54.0
49.103,-0.909,4.293,12.0
40.733,-0.749,3.341,48.0
63.912,-1.169,4.907,14.0
63.954,-1.164,4.574,4.0
39.384,-0.721,3.926,69.0
39.552,-0.72,3.733,69.0
49.113,-0.889,4.376,6.0
40.825,-0.734,3.418,16.0
54.24,-0.969,4.256,37.0
63.908,-1.135,4.677,39.0
39.505,-0.706,4.005,58.0
39.435,-0.7,3.789,53.0
40.133,-0.708,3.643,55.0
49.086,-0.86,4.192,35.0
40.704,-0.708,3.261,46.0
63.846,-1.103,4.778,16.0
39.242,-0.682,4.044,69.0
39.567,-0.683,3.867,47.0
40.367,-0.692,3.731,57.0
49.166,-0.836,4.279,16.0
40.737,-0.688,3.33,49.0
54.273,-0.91,4.15,37.0
39.27,-0.662,4.111,59.0
39.456,-0.661,3.921,65.0
48.166,-0.8,4.53,14.0
49.938,-0.824,4.426,31.0
49.105,-0.803,4.093,5.0
54.274,-0.881,4.236,22.0
39.33,-0.642,4.18,56.0
39.434,-0.639,3.981,52.0
40.723,-0.654,3.894,33.0
40.472,-0.644,3.651,53.0
49.12,-0.776,4.171,6.0
40.713,-0.637,3.241,45.0
39.499,-0.622,4.261,51.0
41.779,-0.652,4.284,22.0
40.44,-0.626,3.931,46.0
40.14,-0.615,3.684,48.0
49.859,-0.758,4.311,7.0
40.791,-0.614,3.31,58.0
39.391,-0.596,4.31,47.0
39.262,-0.589,4.086,60.0
39.599,-0.588,3.909,63.0
48.077,-0.708,4.485,6.0
56.704,-0.826,4.988,8.0
40.754,-0.588,3.368,47.0
39.286,-0.57,4.358,53.0
39.507,-0.567,4.171,47.0
39.479,-0.561,3.957,55.0
39.472,-0.555,3.741,53.0
40.61,-0.565,3.632,17.0
40.537,-0.558,3.41,54.0
39.685,-0.549,4.461,60.0
0.0,0.0,0.0,0.0
39.743,-0.538,4.042,41.0
39.514,-0.529,3.802,52.0
39.854,-0.527,3.623,62.0
40.445,-0.529,3.461,48.0
39.723,-0.522,4.523,63.0
39.621,-0.515,4.298,58.0
39.303,-0.505,4.053,59.0
39.647,-0.503,3.872,36.0
47.74,-0.598,4.407,10.0
41.16,-0.509,3.579,37.0
39.985,-0.497,4.609,57.0
39.412,-0.483,4.331,62.0
39.465,-0.478,4.125,45.0
39.875,-0.476,3.949,33.0
40.165,-0.473,3.763,19.0
47.901,-0.557,4.231,8.0
39.858,-0.465,4.65,64.0
39.967,-0.46,4.447,57.0
39.421,-0.448,4.174,50.0
39.294,-0.439,3.945,53.0
42.805,-0.472,4.068,5.0
39.901,-0.433,3.578,50.0
40.178,-0.438,4.741,35.0
39.754,-0.427,4.476,61.0
39.31,-0.415,4.215,66.0
39.423,-0.41,4.01,38.0
39.693,-0.406,3.824,31.0
40.21,-0.405,3.658,62.0
40.395,-0.408,4.82,33.0
40.267,-0.4,4.587,52.0
39.441,-0.385,4.279,67.0
39.572,-0.379,4.076,41.0
39.768,-0.375,3.882,39.0
40.351,-0.373,3.722,66.0
42.321,-0.392,5.104,3.0
40.258,-0.366,4.637,46.0
39.768,-0.355,4.365,58.0
39.555,-0.346,4.124,55.0
39.36,-0.337,3.891,71.0
0.0,0.0,0.0,0.0
39.736,-0.334,4.842,60.0
0.0,0.0,0.0,0.0
40.013,-0.323,4.441,43.0
39.896,-0.315,4.208,47.0
39.476,-0.304,3.95,61.0
39.609,-0.298,3.75,21.0
39.701,-0.299,4.885,57.0
43.653,-0.321,5.134,23.0
40.555,-0.291,4.55,48.0
40.272,-0.282,4.295,45.0
39.572,-0.27,4.006,62.0
39.548,-0.263,3.79,54.0
39.573,-0.262,4.916,48.0
39.918,-0.258,4.741,21.0
41.135,-0.258,4.662,46.0
40.678,-0.247,4.385,16.0
39.449,-0.233,4.039,65.0
39.646,-0.227,3.844,38.0
39.636,-0.226,4.969,63.0
39.597,-0.219,4.748,30.0
39.92,-0.213,4.569,15.0
39.971,-0.206,4.353,59.0
39.75,-0.197,4.113,48.0
39.604,-0.189,3.883,63.0
39.615,-0.189,5.01,52.0
39.525,-0.181,4.782,54.0
39.536,-0.173,4.567,64.0
39.899,-0.167,4.388,52.0
40.189,-0.161,4.2,56.0
40.186,-0.154,3.982,58.0
39.519,-0.15,5.039,68.0
39.583,-0.143,4.83,45.0
39.691,-0.135,4.626,59.0
40.054,-0.129,4.445,51.0
41.065,-0.125,4.334,25.0
40.735,-0.116,4.077,30.0
39.394,-0.11,5.063,77.0
39.571,-0.104,4.868,66.0
39.874,-0.096,4.687,54.0
40.373,-0.09,4.521,38.0
40.966,-0.084,4.363,45.0
40.766,-0.076,4.12,48.0
39.749,-0.071,5.147,66.0
39.623,-0.064,4.913,64.0
39.764,-0.056,4.712,52.0
40.234,-0.049,4.543,41.0
41.048,-0.042,4.41,45.0
40.415,-0.034,4.121,55.0
39.664,-0.031,5.173,63.0
39.623,-0.023,4.949,55.0
39.77,-0.016,4.748,57.0
39.71,-0.008,4.519,68.0
0.0,0.0,0.0,0.0
40.283,0.007,4.143,43.0
39.529,0.009,5.19,69.0
39.402,0.017,4.956,63.0
39.733,0.025,4.779,40.0
39.682,0.033,4.55,53.0
40.065,0.041,4.374,49.0
40.15,0.049,4.164,45.0
39.853,0.052,5.267,46.0
39.389,0.059,4.987,69.0
39.49,0.067,4.782,47.0
39.567,0.074,4.569,44.0
40.004,0.083,4.399,45.0
40.472,0.092,4.229,52.0
39.928,0.094,5.308,49.0
39.695,0.101,5.057,21.0
43.317,0.119,5.279,22.0
39.668,0.117,4.611,25.0
40.275,0.126,4.46,47.0
40.818,0.136,4.296,20.0
39.912,0.137,5.336,70.0
39.642,0.144,5.08,58.0
43.824,0.168,5.373,7.0
43.798,0.176,5.123,9.0
40.292,0.17,4.491,57.0
40.049,0.177,4.243,54.0
39.674,0.18,5.332,74.0
39.572,0.187,5.098,67.0
41.013,0.202,5.056,17.0
43.788,0.225,5.152,4.0
40.639,0.216,4.557,31.0
40.195,0.222,4.285,48.0
39.483,0.223,5.333,69.0
39.49,0.23,5.114,62.0
40.017,0.241,4.959,54.0
39.644,0.247,4.689,48.0
40.183,0.258,4.531,54.0
40.108,0.265,4.3,64.0
39.571,0.267,5.369,63.0
39.56,0.275,5.147,56.0
39.906,0.285,4.97,63.0
39.689,0.291,4.718,45.0
40.089,0.302,4.543,51.0
40.717,0.315,4.389,41.0
39.528,0.311,5.386,57.0
39.569,0.319,5.17,36.0
39.83,0.329,4.982,52.0
39.842,0.337,4.758,55.0
40.246,0.348,4.583,58.0
44.12,0.391,4.779,26.0
39.44,0.355,5.395,60.0
39.362,0.362,5.164,50.0
39.846,0.374,5.004,53.0
40.041,0.384,4.802,28.0
40.112,0.393,4.587,67.0
40.885,0.408,4.449,42.0
39.237,0.398,5.386,47.0
39.31,0.407,5.176,59.0
39.729,0.419,5.009,54.0
43.715,0.469,5.262,3.0
40.104,0.439,4.604,67.0
41.391,0.46,4.522,28.0
38.755,0.437,5.337,57.0
39.04,0.449,5.157,67.0
39.015,0.456,4.935,51.0
40.301,0.479,4.868,23.0
40.258,0.486,4.638,47.0
41.514,0.509,4.551,28.0
38.724,0.482,5.348,55.0
39.018,0.493,5.169,55.0
38.97,0.5,4.944,38.0
43.798,0.57,5.306,5.0
40.769,0.538,4.711,56.0
41.52,0.557,4.566,24.0
38.57,0.524,5.34,56.0
38.874,0.536,5.163,52.0
39.076,0.546,4.97,57.0
39.883,0.565,4.844,19.0
41.585,0.597,4.818,62.0
47.568,0.692,5.246,3.0
38.568,0.569,5.351,59.0
38.833,0.58,5.168,51.0
38.916,0.589,4.96,62.0
0.0,0.0,0.0,0.0
40.912,0.635,4.751,47.0
41.502,0.652,4.588,41.0
38.353,0.611,5.331,52.0
38.738,0.624,5.165,55.0
38.896,0.634,4.967,25.0
39.598,0.653,4.83,27.0
41.145,0.686,4.787,31.0
41.254,0.696,4.569,37.0
38.269,0.654,5.327,59.0
38.983,0.673,5.205,45.0
38.555,0.673,4.931,44.0
39.324,0.694,4.803,39.0
41.4,0.738,4.824,41.0
41.206,0.742,4.57,61.0
38.228,0.697,5.327,55.0
38.924,0.717,5.203,42.0
38.865,0.723,4.976,46.0
39.344,0.739,4.811,51.0
41.357,0.784,4.824,41.0
41.753,0.8,4.636,39.0
38.172,0.741,5.324,67.0
38.829,0.76,5.195,48.0
38.877,0.769,4.981,44.0
39.475,0.787,4.83,58.0
42.115,0.847,4.916,34.0
48.573,0.986,5.396,8.0
38.325,0.788,5.347,45.0
39.002,0.808,5.22,46.0
39.232,0.821,5.028,21.0
0.0,0.0,0.0,0.0
41.585,0.884,4.855,25.0
48.527,1.041,5.393,51.0
38.61,0.838,5.388,57.0
38.914,0.852,5.209,52.0
38.979,0.86,4.996,37.0
43.156,0.96,5.282,4.0
48.531,1.087,5.666,6.0
41.437,0.935,4.604,23.0
38.771,0.886,5.409,49.0
38.974,0.897,5.215,44.0
48.214,1.119,6.177,13.0
37.855,0.885,4.631,55.0
41.788,0.984,4.876,31.0
41.738,0.99,4.634,16.0
38.658,0.928,5.39,56.0
38.857,0.939,5.196,58.0
38.65,0.941,4.948,42.0
37.817,0.927,4.623,54.0
42.141,1.04,4.913,40.0
57.102,1.419,6.334,8.0
38.755,0.974,5.399,53.0
38.916,0.985,5.199,41.0
38.174,0.972,4.882,48.0
37.69,0.966,4.602,65.0
41.992,1.083,4.889,29.0
49.827,1.293,5.519,9.0
38.867,1.02,5.408,57.0
41.074,1.085,5.48,38.0
38.312,1.018,4.893,51.0
42.713,1.142,5.207,3.0
42.068,1.132,4.89,6.0
42.026,1.138,4.646,18.0
38.765,1.061,5.386,52.0
0.0,0.0,0.0,0.0
38.06,1.054,4.852,62.0
37.766,1.052,4.595,62.0
42.785,1.199,4.963,4.0
42.056,1.185,4.639,31.0
38.741,1.104,5.372,52.0
37.734,1.081,5.016,34.0
38.133,1.098,4.851,57.0
37.884,1.097,4.599,57.0
37.933,1.104,4.389,35.0
41.631,1.218,4.58,6.0
39.104,1.157,5.411,53.0
37.989,1.129,5.038,39.0
38.056,1.138,4.829,47.0
38.192,1.147,4.624,52.0
37.905,1.144,4.373,49.0
38.368,1.164,4.208,34.0
39.158,1.201,5.404,44.0
37.726,1.163,4.99,62.0
38.316,1.186,4.848,58.0
37.947,1.181,4.58,45.0
37.79,1.182,4.346,68.0
38.293,1.203,4.185,53.0
38.345,1.218,5.277,43.0
37.914,1.209,4.999,29.0
38.413,1.231,4.844,43.0
37.953,1.221,4.565,43.0
38.004,1.229,4.354,42.0
38.309,1.244,4.171,59.0
37.96,1.246,5.207,57.0
38.013,1.253,4.995,63.0
37.876,1.254,4.759,57.0
37.794,1.257,4.528,52.0
38.02,1.269,4.338,60.0
38.377,1.287,4.16,39.0
37.428,1.268,5.115,65.0
37.936,1.29,4.966,60.0
37.823,1.291,4.734,59.0
37.876,1.298,4.519,55.0
38.05,1.31,4.322,57.0
38.438,1.328,4.146,50.0
37.393,1.305,5.091,70.0
37.971,1.33,4.95,63.0
37.99,1.336,4.734,54.0
37.719,1.331,4.48,55.0
37.966,1.345,4.291,57.0
42.746,1.52,4.587,4.0
37.374,1.342,5.067,60.0
38.183,1.376,4.956,54.0
37.906,1.371,4.701,41.0
37.732,1.369,4.459,48.0
38.146,1.389,4.289,43.0
55.618,2.032,5.936,15.0
37.48,1.383,5.058,55.0
38.016,1.407,4.911,54.0
37.997,1.411,4.689,53.0
37.759,1.408,4.438,26.0
37.757,1.412,4.221,46.0
61.985,2.326,6.575,20.0
37.573,1.423,5.046,56.0
38.006,1.444,4.884,51.0
37.862,1.443,4.647,44.0
37.742,1.442,4.411,47.0
38.394,1.472,4.266,53.0
41.473,1.595,4.371,30.0
37.764,1.466,5.045,54.0
38.007,1.48,4.857,44.0
37.866,1.479,4.62,60.0
37.628,1.473,4.371,55.0
38.308,1.505,4.229,51.0
56.349,2.22,5.898,20.0
37.946,1.509,5.041,30.0
38.001,1.515,4.828,47.0
37.854,1.513,4.59,69.0
37.65,1.509,4.345,57.0
38.44,1.545,4.215,34.0
53.038,2.138,5.511,18.0
37.482,1.525,4.95,62.0
42.776,1.744,5.401,7.0
37.872,1.548,4.563,57.0
37.724,1.546,4.323,61.0
42.408,1.742,4.616,5.0
56.075,2.309,5.781,12.0
37.416,1.555,4.91,56.0
44.969,1.874,5.64,4.0
37.965,1.585,4.542,49.0
37.652,1.576,4.283,59.0
38.546,1.617,4.163,38.0
54.654,2.298,5.588,6.0
37.836,1.605,4.932,43.0
37.819,1.608,4.71,56.0
38.003,1.619,4.513,38.0
37.769,1.613,4.263,46.0
42.108,1.802,4.51,29.0
53.05,2.276,5.377,7.0
37.696,1.631,4.88,60.0
37.841,1.641,4.678,54.0
55.742,2.422,6.569,20.0
41.482,1.806,4.644,5.0
41.917,1.829,4.451,31.0
41.336,1.807,4.152,42.0
37.844,1.668,4.863,44.0
38.016,1.679,4.664,28.0
53.328,2.36,6.233,11.0
54.574,2.42,6.057,13.0
41.625,1.849,4.38,36.0
41.284,1.838,4.106,49.0
37.923,1.702,4.836,55.0
38.059,1.711,4.632,38.0
37.999,1.711,4.404,11.0
42.002,1.894,4.621,17.0
41.888,1.892,4.366,8.0
41.354,1.872,4.072,41.0
37.991,1.734,4.806,50.0
37.91,1.732,4.575,38.0
54.539,2.497,6.265,13.0
62.949,2.886,6.86,23.0
52.933,2.431,5.463,13.0
54.407,2.503,5.301,7.0
37.887,1.757,4.752,67.0
37.921,1.761,4.536,65.0
63.95,2.974,7.278,10.0
41.903,1.951,4.521,17.0
54.452,2.54,5.561,4.0
41.417,1.935,3.991,56.0
37.862,1.782,4.707,59.0
38.043,1.793,4.508,52.0
41.81,1.973,4.712,5.0
41.684,1.97,4.452,39.0
54.385,2.574,5.494,16.0
53.127,2.517,5.061,19.0
37.872,1.808,4.666,79.0
37.948,1.814,4.454,11.0
41.917,2.006,4.677,15.0
41.803,2.003,4.417,17.0
63.133,3.029,6.306,19.0
61.961,2.976,5.831,3.0
37.856,1.832,4.62,69.0
63.928,3.097,7.429,10.0
54.293,2.633,5.994,18.0
41.633,2.021,4.35,9.0
0.0,0.0,0.0,0.0
54.086,2.632,5.026,8.0
38.033,1.864,4.596,49.0
41.687,2.045,4.794,40.0
42.187,2.071,4.606,8.0
41.489,2.039,4.285,30.0
53.279,2.621,5.194,25.0
64.35,3.169,5.902,18.0
38.17,1.893,4.565,24.0
54.282,2.694,6.176,18.0
41.741,2.073,4.506,17.0
41.455,2.061,4.23,33.0
52.906,2.632,5.093,13.0
64.352,3.204,5.823,13.0
41.691,2.09,4.934,50.0
41.765,2.095,4.699,7.0
41.414,2.079,4.419,50.0
41.402,2.08,4.173,17.0
53.886,2.709,5.119,5.0
0.0,0.0,0.0,0.0
41.723,2.113,4.884,41.0
41.862,2.121,4.656,39.0
41.78,2.118,4.403,16.0
53.507,2.715,5.323,11.0
64.137,3.256,6.008,10.0
64.62,3.283,5.68,24.0
41.978,2.146,4.858,52.0
41.928,2.145,4.607,23.0
41.608,2.129,4.329,13.0
53.088,2.718,5.21,18.0
64.014,3.28,5.911,24.0
67.994,3.486,5.885,8.0
42.039,2.169,4.807,47.0
41.603,2.147,4.514,35.0
63.149,3.26,6.485,9.0
63.235,3.265,6.12,38.0
64.537,3.333,5.872,14.0
64.454,3.331,5.491,27.0
41.98,2.182,4.742,38.0
41.617,2.164,4.458,31.0
63.244,3.29,6.407,37.0
63.39,3.298,6.047,38.0
64.172,3.34,5.749,34.0
64.44,3.355,5.4,28.0
38.611,2.022,4.307,48.0
41.656,2.181,4.404,17.0
63.443,3.323,6.338,17.0
64.082,3.357,6.022,22.0
64.104,3.358,5.653,32.0
74.442,3.901,6.134,37.0
41.934,2.21,4.618,3.0
41.475,2.185,4.325,16.0
63.166,3.329,6.219,36.0
64.02,3.374,5.925,35.0
67.917,3.579,5.892,10.0
74.248,3.914,6.01,27.0
62.975,3.338,6.843,8.0
62.968,3.337,6.474,25.0
41.357,2.191,4.011,6.0
64.057,3.394,5.833,39.0
64.733,3.43,5.52,35.0
64.998,3.444,5.166,7.0
41.596,2.216,4.457,26.0
63.008,3.355,6.384,18.0
41.353,2.202,3.949,4.0
64.156,3.416,5.747,39.0
64.805,3.45,5.428,31.0
78.259,4.166,6.102,7.0
41.431,2.216,4.377,23.0
52.592,2.813,5.249,7.0
41.46,2.216,3.896,6.0
64.216,3.432,5.655,37.0
74.594,3.986,6.135,26.0
124.63,6.659,9.53,28.0
53.551,2.874,5.575,4.0
63.405,3.402,6.231,27.0
54.465,2.921,5.035,14.0
67.903,3.64,5.876,17.0
65.243,3.497,5.267,7.0
124.753,6.684,9.347,24.0
62.975,3.39,6.459,12.0
41.365,2.225,4.0,14.0
64.272,3.456,5.842,21.0
64.866,3.486,5.512,24.0
78.282,4.206,6.197,20.0
71.707,3.851,5.261,7.0
52.756,2.845,5.328,11.0
41.402,2.231,3.94,31.0
64.271,3.462,5.742,38.0
74.45,4.008,6.21,30.0
78.268,4.211,6.074,21.0
71.548,3.848,5.138,19.0
63.474,3.428,6.31,32.0
54.406,2.936,5.091,9.0
67.934,3.663,5.96,10.0
65.594,3.535,5.368,8.0
124.657,6.714,9.478,25.0
71.523,3.849,5.023,9.0
41.368,2.235,4.046,10.0
64.2,3.466,5.904,12.0
67.968,3.666,5.854,9.0
65.004,3.504,5.215,7.0
71.823,3.869,5.345,9.0
124.653,6.71,8.553,36.0
41.404,2.236,3.981,28.0
64.214,3.465,5.8,33.0
64.919,3.501,5.486,19.0
78.259,4.216,6.151,26.0
71.53,3.85,5.206,12.0
124.606,6.703,8.348,22.0
41.396,2.234,3.913,33.0
64.325,3.468,5.705,35.0
74.491,4.012,6.173,27.0
78.31,4.214,6.025,10.0
71.559,3.847,5.091,15.0
154.869,8.318,10.12,24.0
54.43,2.933,5.055,12.0
67.937,3.656,5.913,20.0
65.374,3.514,5.309,8.0
124.704,6.697,9.391,24.0
124.616,6.685,8.66,30.0
128.201,6.87,8.167,17.0
64.251,3.454,5.859,21.0
64.868,3.482,5.537,26.0
78.261,4.196,6.225,16.0
76.098,4.075,5.603,8.0
124.58,6.663,8.449,28.0
128.068,6.843,7.944,28.0
64.197,3.439,5.746,33.0
74.803,4.002,6.259,24.0
78.242,4.181,6.092,8.0
71.596,3.82,5.151,25.0
154.977,8.259,10.25,23.0
128.15,6.822,7.733,27.0
64.346,3.433,5.65,30.0
74.332,3.96,6.094,18.0
124.824,6.642,9.507,25.0
124.619,6.622,8.754,34.0
128.366,6.811,8.273,21.0
73.356,3.887,4.303,5.0
64.712,3.437,5.572,27.0
65.182,3.456,5.233,7.0
124.772,6.605,9.291,31.0
124.634,6.589,8.543,23.0
127.494,6.73,7.999,26.0
73.333,3.865,4.176,17.0
64.661,3.415,5.457,16.0
78.253,4.126,6.148,13.0
76.193,4.01,5.543,6.0
127.317,6.691,8.511,8.0
127.934,6.713,7.81,24.0
150.081,7.864,8.294,36.0
74.399,3.904,6.151,40.0
124.659,6.53,9.579,34.0
124.604,6.515,8.851,29.0
155.089,8.096,10.101,12.0
128.178,6.68,7.606,29.0
150.033,7.807,8.035,20.0
55.206,2.876,4.469,4.0
124.429,6.47,9.349,36.0
124.551,6.464,8.633,26.0
127.803,6.622,8.104,18.0
73.353,3.793,4.226,18.0
154.65,7.983,8.014,17.0
65.086,3.364,5.156,13.0
124.191,6.405,9.116,20.0
132.396,6.815,8.948,21.0
127.128,6.53,7.842,26.0
128.94,6.611,7.206,14.0
154.602,7.912,7.746,17.0
124.855,6.396,9.673,23.0
73.648,3.764,5.278,7.0
150.5,7.676,9.91,28.0
73.382,3.735,4.399,17.0
150.012,7.62,8.125,24.0
132.157,6.699,6.394,24.0
123.878,6.284,9.384,37.0
124.602,6.306,8.713,19.0
127.264,6.426,8.16,12.0
73.399,3.698,4.273,42.0
132.479,6.66,6.945,27.0
132.133,6.628,6.163,13.0
73.846,3.706,5.465,22.0
124.509,6.233,8.489,19.0
127.059,6.345,7.925,20.0
150.54,7.5,8.502,18.0
132.452,6.584,6.713,30.0
132.103,6.552,5.93,18.0
73.718,3.656,5.325,27.0
149.691,7.406,9.943,33.0
73.382,3.621,4.448,29.0
123.391,6.073,6.752,31.0
129.287,6.349,6.327,27.0
160.13,7.844,6.911,10.0
73.6,3.604,5.188,38.0
65.214,3.184,4.217,2.0
73.247,3.568,4.312,11.0
123.283,5.989,6.532,38.0
129.323,6.268,6.105,23.0
174.391,8.43,7.225,6.0
132.394,6.396,9.102,5.0
73.535,3.542,4.628,3.0
73.28,3.52,4.186,11.0
123.305,5.907,6.317,23.0
129.565,6.189,5.888,24.0
157.27,7.492,6.238,18.0
149.5,7.116,10.013,23.0
73.391,3.483,4.489,11.0
123.242,5.831,6.824,43.0
132.562,6.253,6.558,21.0
129.675,6.1,5.666,31.0
157.846,7.404,5.984,19.0
127.786,5.986,8.335,18.0
73.399,3.428,4.361,37.0
123.187,5.735,6.606,24.0
129.457,6.008,6.179,24.0
124.263,5.749,5.212,20.0
156.682,7.228,5.666,14.0
127.799,5.886,8.111,24.0
73.407,3.369,4.232,8.0
123.378,5.646,6.4,22.0
129.998,5.929,5.977,28.0
124.376,5.654,5.0,30.0
157.01,7.114,5.405,12.0
73.239,3.312,4.52,39.0
73.298,3.303,4.099,23.0
129.428,5.813,6.488,12.0
124.173,5.559,5.494,28.0
124.292,5.545,4.782,12.0
157.025,6.981,5.135,14.0
73.256,3.25,4.394,9.0
73.225,3.237,3.969,11.0
129.913,5.723,6.29,13.0
124.301,5.455,5.287,40.0
157.325,6.879,5.781,20.0
173.488,7.558,5.373,10.0
73.757,3.205,4.297,52.0
123.294,5.337,6.468,21.0
130.334,5.62,6.084,18.0
124.231,5.338,5.07,43.0
156.919,6.716,5.497,15.0
157.214,6.703,4.599,5.0
73.249,3.114,4.141,49.0
124.392,5.267,6.312,15.0
124.468,5.249,5.597,27.0
157.562,6.617,6.158,16.0
156.493,6.545,5.212,11.0
158.447,6.601,4.362,9.0
73.27,3.042,4.015,23.0
123.867,5.12,6.071,21.0
124.21,5.112,5.37,26.0
157.581,6.46,5.888,12.0
162.502,6.632,5.133,14.0
0.0,0.0,0.0,0.0
123.058,4.982,6.533,27.0
123.99,4.996,5.864,30.0
124.165,4.982,5.156,17.0
0.0,0.0,0.0,0.0
162.271,6.452,4.849,11.0
0.0,0.0,0.0,0.0
73.677,2.904,3.786,10.0
124.537,4.886,5.68,19.0
158.037,6.17,6.294,11.0
156.922,6.098,5.328,6.0
173.414,6.707,4.889,5.0
0.0,0.0,0.0,0.0
124.466,4.77,6.186,12.0
153.069,5.836,6.723,9.0
152.712,5.793,5.826,21.0
160.814,6.071,5.193,4.0
160.31,6.021,4.252,5.0
0.0,0.0,0.0,0.0
123.752,4.601,5.944,23.0
124.263,4.596,5.25,19.0
153.319,5.64,5.593,28.0
160.534,5.874,4.915,13.0
0.0,0.0,0.0,0.0
0.0,0.0,0.0,0.0
123.88,4.46,5.743,20.0
152.594,5.463,6.195,16.0
153.612,5.469,5.35,13.0
158.974,5.627,4.604,15.0
0.0,0.0,0.0,0.0
0.0,0.0,0.0,0.0
123.974,4.313,5.543,8.0
152.708,5.28,5.946,37.0
157.513,5.414,5.226,12.0
159.208,5.44,4.349,10.0
0.0,0.0,0.0,0.0
0.0,0.0,0.0,0.0
152.891,5.13,6.589,31.0
152.762,5.093,5.702,29.0
158.964,5.265,5.017,9.0
0.0,0.0,0.0,0.0
0.0,0.0,0.0,0.0
100.723,3.271,1.429,3.0
152.294,4.913,6.315,43.0
152.698,4.891,5.451,16.0
158.599,5.048,4.75,10.0
0.0,0.0,0.0,0.0
0.0,0.0,0.0,0.0
93.117,2.902,1.172,2.0
152.048,4.704,6.061,46.0
152.464,4.683,5.201,20.0
158.663,4.837,4.498,13.0
0.0,0.0,0.0,0.0
0.0,0.0,0.0,0.0
78.579,2.344,0.865,8.0
152.02,4.499,5.821,42.0
153.576,4.51,4.998,34.0
154.098,4.49,4.129,22.0
0.0,0.0,0.0,0.0
100.528,2.884,1.528,1.0
77.95,2.219,0.738,46.0
152.046,4.291,5.587,47.0
153.927,4.307,4.77,27.0
0.0,0.0,0.0,0.0
0.0,0.0,0.0,0.0
106.065,2.894,1.448,32.0
74.884,2.026,0.593,16.0
152.517,4.086,5.369,18.0
154.0,4.091,4.537,13.0
0.0,0.0,0.0,0.0
0.0,0.0,0.0,0.0
106.076,2.743,1.288,25.0
74.336,1.905,0.476,10.0
158.875,4.028,5.353,15.0
157.95,3.967,4.415,6.0
100.423,2.498,2.231,4.0
100.417,2.473,1.644,4.0
78.591,1.917,0.836,12.0
0.0,0.0,0.0,0.0
158.751,3.79,5.111,21.0
146.744,3.466,3.881,13.0
0.0,0.0,0.0,0.0
106.193,2.457,1.581,7.0
77.892,1.783,0.713,39.0
0.0,0.0,0.0,0.0
159.534,3.568,4.902,27.0
0.0,0.0,0.0,0.0
106.167,2.322,2.045,18.0
89.853,1.942,1.207,3.0
74.92,1.6,0.576,20.0
52.069,1.099,0.102,6.0
128.047,2.667,3.749,53.0
128.043,2.634,3.015,56.0
106.424,2.162,1.896,5.0
89.905,1.803,1.077,5.0
74.622,1.478,0.467,10.0
47.062,0.92,0.025,25.0
128.033,2.465,3.565,30.0
128.064,2.433,2.833,28.0
127.449,2.388,2.09,23.0
89.796,1.66,0.95,11.0
60.206,1.097,0.293,34.0
44.835,0.805,-0.038,19.0
160.404,2.835,4.245,10.0
190.082,3.31,3.943,20.0
126.462,2.167,1.899,40.0
77.886,1.313,0.715,35.0
54.687,0.908,0.19,19.0
39.703,0.649,-0.088,21.0
176.532,2.836,4.431,7.0
189.756,2.996,3.676,26.0
126.218,1.957,1.723,18.0
0.0,0.0,0.0,0.0
47.975,0.718,0.101,49.0
38.723,0.569,-0.138,49.0
190.084,2.738,4.515,19.0
189.139,2.673,3.411,16.0
121.194,1.679,1.492,12.0
48.133,0.653,0.312,27.0
47.289,0.629,0.037,42.0
38.012,0.495,-0.186,39.0
55.105,0.701,1.236,54.0
48.22,0.601,0.806,33.0
48.113,0.586,0.53,81.0
48.042,0.572,0.25,81.0
0.0,0.0,0.0,0.0
37.662,0.427,-0.233,13.0
48.145,0.531,1.018,89.0
48.105,0.517,0.742,105.0
48.075,0.504,0.468,97.0
48.006,0.489,0.188,80.0
43.839,0.434,-0.077,9.0
37.403,0.36,-0.279,5.0
48.109,0.448,0.956,115.0
48.082,0.435,0.682,110.0
48.057,0.42,0.407,108.0
48.003,0.406,0.128,72.0
39.372,0.321,-0.119,38.0
37.466,0.295,-0.326,0.0
48.106,0.364,0.897,111.0
48.102,0.349,0.622,78.0
48.137,0.336,0.349,51.0
47.828,0.319,0.069,52.0
38.765,0.248,-0.164,45.0
32.974,0.201,-0.327,1.0
48.191,0.279,0.841,53.0
59.292,0.327,0.697,26.0
55.089,0.287,0.333,30.0
0.0,0.0,0.0,0.0
38.473,0.177,-0.208,15.0
31.752,0.137,-0.352,1.0
79.468,0.318,1.293,151.0
79.443,0.294,0.84,150.0
59.176,0.201,0.289,11.0
0.0,0.0,0.0,0.0
38.142,0.107,-0.251,7.0
30.62,0.076,-0.375,1.0
79.464,0.173,1.202,151.0
79.45,0.15,0.75,150.0
58.211,0.092,0.218,6.0
43.897,0.055,-0.089,6.0
38.11,0.037,-0.293,3.0
29.877,0.019,-0.4,2.0
79.465,0.028,1.114,151.0
79.29,0.004,0.661,26.0
0.0,0.0,0.0,0.0
40.366,-0.022,-0.125,17.0
37.089,-0.032,-0.326,0.0
29.419,-0.034,-0.426,2.0
79.468,-0.118,1.028,151.0
76.58,-0.137,0.557,15.0
48.696,-0.102,0.077,5.0
39.953,-0.096,-0.167,15.0
32.791,-0.089,-0.323,1.0
28.713,-0.087,-0.446,2.0
79.464,-0.266,0.945,151.0
76.487,-0.28,0.476,12.0
47.192,-0.188,0.026,21.0
39.402,-0.169,-0.205,6.0
31.901,-0.146,-0.347,1.0
27.979,-0.138,-0.463,2.0
79.458,-0.415,0.865,171.0
61.849,-0.342,0.323,6.0
46.189,-0.27,-0.02,5.0
39.612,-0.244,-0.245,5.0
30.944,-0.201,-0.367,1.0
27.337,-0.186,-0.479,2.0
79.462,-0.566,0.788,159.0
61.522,-0.458,0.262,11.0
48.13,-0.373,-0.067,5.0
39.994,-0.323,-0.286,1.0
30.274,-0.254,-0.388,1.0
26.796,-0.233,-0.495,2.0
79.43,-0.716,0.713,150.0
61.037,-0.571,0.202,1.0
50.854,-0.492,-0.118,19.0
38.442,-0.384,-0.31,12.0
29.749,-0.307,-0.408,4.0
26.308,-0.28,-0.51,1.0
79.068,-0.866,0.638,45.0
62.494,-0.705,0.151,5.0
46.988,-0.545,-0.151,1.0
34.606,-0.413,-0.311,1.0
29.176,-0.358,-0.427,2.0
25.805,-0.325,-0.523,1.0
78.937,-1.018,0.568,14.0
60.744,-0.804,0.094,5.0
46.648,-0.632,-0.191,1.0
33.161,-0.461,-0.326,1.0
28.646,-0.408,-0.444,1.0
25.305,-0.369,-0.535,2.0
85.09,-1.266,0.54,2.0
61.598,-0.937,0.043,2.0
46.442,-0.722,-0.229,3.0
32.098,-0.51,-0.343,1.0
28.152,-0.457,-0.459,1.0
24.949,-0.413,-0.548,1.0
40.28,-0.679,0.223,49.0
40.3,-0.693,-0.003,65.0
40.216,-0.705,-0.23,14.0
31.571,-0.564,-0.362,1.0
27.621,-0.503,-0.472,1.0
24.496,-0.455,-0.557,1.0
40.283,-0.759,0.192,53.0
40.317,-0.774,-0.034,9.0
40.189,-0.785,-0.261,4.0
30.685,-0.61,-0.375,1.0
27.049,-0.547,-0.483,1.0
23.997,-0.494,-0.564,1.0
68.177,-1.421,0.275,2.0
0.0,0.0,0.0,0.0
40.225,-0.866,-0.29,2.0
30.17,-0.66,-0.39,1.0
26.849,-0.596,-0.498,4.0
23.68,-0.534,-0.573,2.0
40.302,-0.92,0.134,54.0
40.293,-0.934,-0.091,127.0
40.239,-0.947,-0.318,2.0
29.752,-0.71,-0.405,1.0
26.391,-0.639,-0.508,1.0
23.394,-0.575,-0.582,2.0
0.0,0.0,0.0,0.0
41.006,-1.034,-0.12,151.0
34.964,-0.893,-0.298,0.0
29.43,-0.762,-0.42,1.0
26.074,-0.684,-0.518,1.0
23.155,-0.616,-0.59,2.0
40.199,-1.08,0.083,62.0
40.976,-1.115,-0.145,150.0
34.49,-0.95,-0.315,0.0
29.034,-0.811,-0.431,1.0
25.695,-0.727,-0.526,1.0
22.861,-0.655,-0.596,2.0
40.217,-1.161,0.059,52.0
40.215,-1.176,-0.165,46.0
33.982,-1.006,-0.33,1.0
28.712,-0.86,-0.443,2.0
25.378,-0.769,-0.534,1.0
22.578,-0.692,-0.602,1.0
0.0,0.0,0.0,0.0
40.305,-1.26,-0.187,0.0
32.928,-1.041,-0.338,1.0
28.433,-0.909,-0.454,1.0
25.144,-0.813,-0.542,1.0
22.316,-0.73,-0.606,1.0
59.14,-1.948,0.025,0.0
41.448,-1.38,-0.214,0.0
32.461,-1.092,-0.349,1.0
28.111,-0.956,-0.462,1.0
24.899,-0.856,-0.549,1.0
22.11,-0.768,-0.611,1.0
0.0,0.0,0.0,0.0
40.14,-1.418,-0.226,6.0
32.101,-1.146,-0.36,1.0
27.786,-1.002,-0.469,1.0
24.694,-0.899,-0.555,1.0
21.894,-0.805,-0.615,1.0
40.154,-1.485,-0.018,9.0
40.113,-1.498,-0.242,88.0
31.591,-1.191,-0.367,1.0
27.628,-1.052,-0.478,1.0
24.492,-0.941,-0.561,1.0
21.724,-0.842,-0.619,1.0
37.828,-1.475,-0.032,84.0
37.773,-1.487,-0.243,124.0
31.35,-1.245,-0.376,1.0
27.322,-1.095,-0.483,1.0
24.283,-0.982,-0.565,1.0
21.587,-0.881,-0.623,1.0
50.474,-2.071,-0.06,1.0
37.765,-1.563,-0.256,5.0
30.983,-1.293,-0.382,2.0
27.088,-1.141,-0.488,2.0
23.998,-1.019,-0.566,1.0
21.457,-0.919,-0.626,1.0
50.47,-2.172,-0.076,2.0
38.111,-1.654,-0.27,3.0
30.735,-1.345,-0.389,1.0
26.937,-1.189,-0.493,2.0
23.844,-1.061,-0.569,1.0
21.301,-0.956,-0.627,1.0
50.453,-2.274,-0.09,3.0
0.0,0.0,0.0,0.0
30.524,-1.398,-0.394,1.0
26.769,-1.236,-0.497,1.0
23.724,-1.104,-0.573,1.0
21.236,-0.996,-0.631,1.0
50.457,-2.377,-0.102,8.0
37.426,-1.776,-0.284,0.0
30.058,-1.437,-0.395,2.0
26.661,-1.285,-0.501,1.0
23.587,-1.145,-0.574,2.0
21.12,-1.034,-0.632,1.0
50.478,-2.479,-0.112,9.0
38.127,-1.886,-0.296,0.0
29.774,-1.483,-0.397,2.0
26.61,-1.335,-0.505,2.0
23.558,-1.191,-0.578,2.0
21.095,-1.075,-0.635,1.0
50.441,-2.578,-0.12,8.0
37.696,-1.94,-0.299,0.0
29.883,-1.549,-0.403,1.0
26.565,-1.387,-0.508,1.0
23.503,-1.235,-0.58,13.0
21.065,-1.115,-0.636,2.0
50.424,-2.678,-0.126,3.0
37.69,-2.016,-0.303,0.0
30.007,-1.615,-0.407,1.0
26.448,-1.434,-0.508,1.0
23.396,-1.277,-0.579,13.0
21.174,-1.164,-0.642,3.0
50.427,-2.779,-0.13,1.0
37.79,-2.096,-0.307,0.0
30.019,-1.676,-0.41,1.0
26.458,-1.487,-0.51,1.0
23.402,-1.324,-0.581,11.0
20.899,-1.19,-0.634,4.0
50.453,-2.88,-0.133,4.0
37.508,-2.155,-0.306,0.0
30.068,-1.738,-0.412,1.0
26.486,-1.541,-0.512,1.0
23.387,-1.369,-0.581,5.0
20.947,-1.234,-0.636,4.0
50.442,-2.979,-0.133,6.0
0.0,0.0,0.0,0.0
30.216,-1.806,-0.413,1.0
26.542,-1.596,-0.512,2.0
23.503,-1.422,-0.584,1.0
20.957,-1.276,-0.636,3.0
50.354,-3.072,-0.131,5.0
37.576,-2.306,-0.305,0.0
30.388,-1.875,-0.414,1.0
26.537,-1.648,-0.511,3.0
23.493,-1.467,-0.582,1.0
20.886,-1.312,-0.633,1.0
50.438,-3.175,-0.128,1.0
37.798,-2.393,-0.304,1.0
30.217,-1.924,-0.41,1.0
26.587,-1.702,-0.51,3.0
23.558,-1.517,-0.581,1.0
21.066,-1.364,-0.636,3.0
50.404,-3.269,-0.123,1.0
38.438,-2.507,-0.305,0.0
30.399,-1.993,-0.409,1.0
26.679,-1.759,-0.508,2.0
23.593,-1.564,-0.579,1.0
21.3,-1.42,-0.64,0.0
50.464,-3.369,-0.115,3.0
37.941,-2.546,-0.295,0.0
30.737,-2.074,-0.408,1.0
26.79,-1.817,-0.506,1.0
23.683,-1.615,-0.577,1.0
21.278,-1.459,-0.636,0.0
50.435,-3.463,-0.107,6.0
38.025,-2.624,-0.289,0.0
30.965,-2.148,-0.405,1.0
26.865,-1.873,-0.502,1.0
23.812,-1.669,-0.576,1.0
21.333,-1.503,-0.633,0.0
50.469,-3.56,-0.096,7.0
39.736,-2.817,-0.293,0.0
31.053,-2.212,-0.399,1.0
27.041,-1.936,-0.499,1.0
24.04,-1.73,-0.576,1.0
21.443,-1.551,-0.631,1.0
50.509,-3.657,-0.083,1.0
40.248,-2.928,-0.287,0.0
31.7,-2.317,-0.399,1.0
27.093,-1.99,-0.493,1.0
24.128,-1.781,-0.571,1.0
21.547,-1.598,-0.628,1.0
50.397,-3.741,-0.068,1.0
40.489,-3.02,-0.276,0.0
31.976,-2.396,-0.393,1.0
27.514,-2.071,-0.492,1.0
24.375,-1.843,-0.569,1.0
21.709,-1.649,-0.626,1.0
50.522,-3.843,-0.052,0.0
0.0,0.0,0.0,0.0
32.526,-2.496,-0.389,1.0
27.781,-2.142,-0.487,1.0
24.651,-1.909,-0.567,1.0
21.816,-1.697,-0.621,1.0
50.49,-3.93,-0.034,0.0
0.0,0.0,0.0,0.0
32.856,-2.579,-0.381,1.0
28.151,-2.22,-0.483,1.0
24.916,-1.973,-0.564,1.0
22.009,-1.751,-0.618,1.0
0.0,0.0,0.0,0.0
42.231,-3.376,-0.242,0.0
33.271,-2.671,-0.372,1.0
28.491,-2.297,-0.477,1.0
25.14,-2.035,-0.558,1.0
22.171,-1.803,-0.614,1.0
0.0,0.0,0.0,0.0
0.0,0.0,0.0,0.0
33.416,-2.741,-0.36,0.0
28.739,-2.367,-0.469,1.0
25.347,-2.096,-0.552,1.0
22.404,-1.86,-0.61,1.0
0.0,0.0,0.0,0.0
0.0,0.0,0.0,0.0
35.396,-2.964,-0.364,0.0
29.077,-2.445,-0.46,1.0
25.612,-2.162,-0.545,1.0
22.718,-1.925,-0.607,1.0
0.0,0.0,0.0,0.0
0.0,0.0,0.0,0.0
35.699,-3.05,-0.349,0.0
29.454,-2.526,-0.451,1.0
25.859,-2.227,-0.537,1.0
22.965,-1.985,-0.602,1.0
0.0,0.0,0.0,0.0
50.436,-4.377,-0.192,1.0
0.0,0.0,0.0,0.0
29.822,-2.607,-0.441,1.0
26.109,-2.291,-0.528,1.0
23.22,-2.045,-0.596,1.0
0.0,0.0,0.0,0.0
50.429,-4.459,-0.164,4.0
37.898,-3.363,-0.329,0.0
31.002,-2.761,-0.44,9.0
26.495,-2.368,-0.52,1.0
23.534,-2.111,-0.59,1.0
0.0,0.0,0.0,0.0
50.439,-4.541,-0.133,7.0
39.696,-3.587,-0.32,0.0
31.116,-2.821,-0.423,1.0
26.974,-2.454,-0.513,1.0
23.781,-2.171,-0.582,1.0
0.0,0.0,0.0,0.0
50.427,-4.621,-0.101,3.0
40.362,-3.711,-0.3,0.0
31.951,-2.947,-0.414,1.0
27.389,-2.535,-0.504,1.0
24.257,-2.253,-0.577,1.0
0.0,0.0,0.0,0.0
0.0,0.0,0.0,0.0
41.595,-3.888,-0.282,0.0
32.478,-3.046,-0.4,1.0
27.973,-2.632,-0.496,1.0
24.788,-2.34,-0.574,1.0
0.0,0.0,0.0,0.0
0.0,0.0,0.0,0.0
0.0,0.0,0.0,0.0
33.167,-3.161,-0.385,1.0
28.46,-2.72,-0.484,1.0
25.008,-2.398,-0.561,1.0
90.823,-8.71,0.492,3.0
0.0,0.0,0.0,0.0
44.202,-4.264,-0.238,0.0
34.103,-3.3,-0.371,0.0
28.931,-2.808,-0.471,1.0
25.458,-2.479,-0.552,1.0
91.467,-8.907,0.564,3.0
0.0,0.0,0.0,0.0
0.0,0.0,0.0,0.0
35.682,-3.505,-0.362,0.0
29.566,-2.913,-0.459,1.0
25.925,-2.561,-0.543,1.0
0.0,0.0,0.0,0.0
0.0,0.0,0.0,0.0
50.45,-5.012,-0.195,3.0
0.0,0.0,0.0,0.0
30.058,-3.003,-0.444,1.0
26.358,-2.641,-0.531,1.0
94.786,-9.498,0.732,1.0
0.0,0.0,0.0,0.0
50.398,-5.077,-0.154,5.0
39.287,-3.968,-0.336,0.0
31.049,-3.145,-0.433,0.0
26.848,-2.727,-0.519,1.0
89.447,-9.086,0.763,3.0
0.0,0.0,0.0,0.0
50.512,-5.157,-0.113,0.0
40.12,-4.107,-0.31,1.0
32.263,-3.311,-0.423,1.0
27.564,-2.837,-0.51,1.0
87.371,-8.991,0.82,1.0
0.0,0.0,0.0,0.0
0.0,0.0,0.0,0.0
41.443,-4.296,-0.285,0.0
32.854,-3.415,-0.403,1.0
28.14,-2.932,-0.496,1.0
86.482,-9.012,0.887,140.0
0.0,0.0,0.0,0.0
0.0,0.0,0.0,0.0
0.0,0.0,0.0,0.0
33.876,-3.564,-0.385,0.0
28.822,-3.04,-0.483,1.0
86.378,-9.11,0.963,150.0
87.127,-9.209,0.502,3.0
0.0,0.0,0.0,0.0
45.776,-4.861,-0.232,0.0
35.493,-3.778,-0.371,0.0
29.52,-3.149,-0.468,1.0
86.35,-9.212,1.042,151.0
87.383,-9.342,0.584,2.0
0.0,0.0,0.0,0.0
0.0,0.0,0.0,0.0
0.0,0.0,0.0,0.0
30.183,-3.256,-0.45,1.0
86.309,-9.31,1.122,53.0
87.374,-9.444,0.667,11.0
0.0,0.0,0.0,0.0
49.102,-5.33,-0.158,0.0
39.324,-4.278,-0.337,0.0
31.746,-3.461,-0.443,1.0
86.286,-9.406,1.205,105.0
86.774,-9.478,0.745,9.0
0.0,0.0,0.0,0.0
0.0,0.0,0.0,0.0
39.634,-4.355,-0.301,0.0
32.582,-3.588,-0.423,1.0
86.259,-9.498,1.289,96.0
86.262,-9.516,0.825,31.0
0.0,0.0,0.0,0.0
0.0,0.0,0.0,0.0
41.683,-4.625,-0.276,0.0
33.591,-3.734,-0.403,0.0
86.254,-9.589,1.374,78.0
86.214,-9.602,0.91,59.0
0.0,0.0,0.0,0.0
0.0,0.0,0.0,0.0
44.801,-5.017,-0.251,1.0
36.272,-4.07,-0.398,0.0
86.255,-9.678,1.461,53.0
86.261,-9.695,0.999,154.0
87.368,-9.836,0.543,3.0
67.885,-7.656,0.051,2.0
47.745,-5.394,-0.219,0.0
0.0,0.0,0.0,0.0
86.259,-9.763,1.551,57.0
86.25,-9.778,1.089,189.0
87.174,-9.899,0.633,7.0
0.0,0.0,0.0,0.0
50.422,-5.745,-0.178,1.0
39.357,-4.492,-0.35,0.0
86.271,-9.846,1.643,33.0
86.25,-9.858,1.179,186.0
86.371,-9.888,0.718,33.0
0.0,0.0,0.0,0.0
50.446,-5.793,-0.125,5.0
0.0,0.0,0.0,0.0
86.368,-9.935,1.736,1.0
86.267,-9.938,1.273,151.0
86.253,-9.95,0.81,65.0
0.0,0.0,0.0,0.0
50.521,-5.845,-0.07,0.0
41.424,-4.8,-0.28,0.0
86.645,-10.041,1.835,9.0
86.209,-10.004,1.365,63.0
86.169,-10.013,0.904,47.0
87.278,-10.156,0.439,8.0
0.0,0.0,0.0,0.0
44.093,-5.145,-0.249,0.0
86.658,-10.113,1.931,17.0
86.249,-10.078,1.46,46.0
86.25,-10.091,0.998,154.0
87.227,-10.218,0.534,6.0
0.0,0.0,0.0,0.0
50.384,-5.918,-0.23,2.0
188.297,-22.119,4.403,29.0
86.251,-10.143,1.555,51.0
86.235,-10.154,1.094,70.0
87.296,-10.29,0.632,10.0
0.0,0.0,0.0,0.0
50.407,-5.957,-0.174,6.0
188.297,-22.256,4.614,40.0
86.278,-10.208,1.653,13.0
86.221,-10.212,1.19,68.0
86.355,-10.24,0.721,11.0
0.0,0.0,0.0,0.0
50.413,-5.992,-0.117,3.0
188.396,-22.396,4.828,36.0
86.615,-10.306,1.756,3.0
86.226,-10.27,1.288,62.0
86.209,-10.279,0.819,34.0
0.0,0.0,0.0,0.0
0.0,0.0,0.0,0.0
188.307,-22.507,5.044,27.0
86.741,-10.376,1.859,6.0
86.262,-10.328,1.387,46.0
86.209,-10.332,0.917,58.0
87.635,-10.513,0.464,1.0
0.0,0.0,0.0,0.0
189.425,-22.752,5.291,23.0
86.807,-10.434,1.959,5.0
86.304,-10.382,1.488,36.0
86.244,-10.384,1.017,64.0
87.118,-10.499,0.562,6.0
0.0,0.0,0.0,0.0
189.553,-22.87,5.513,27.0
188.323,-22.738,4.469,20.0
86.343,-10.433,1.587,28.0
86.274,-10.432,1.116,71.0
86.991,-10.527,0.661,57.0
0.0,0.0,0.0,0.0
203.138,-24.611,6.144,27.0
188.236,-22.819,4.685,27.0
86.442,-10.486,1.689,3.0
86.272,-10.472,1.217,58.0
86.299,-10.483,0.756,153.0
0.0,0.0,0.0,0.0
203.188,-24.709,6.384,56.0
188.063,-22.882,4.899,30.0
203.018,-24.716,4.204,24.0
86.276,-10.509,1.317,47.0
86.284,-10.517,0.857,163.0
0.0,0.0,0.0,0.0
203.296,-24.804,6.623,39.0
203.322,-24.819,5.534,8.0
202.983,-24.79,4.44,45.0
86.333,-10.549,1.418,32.0
86.322,-10.553,0.957,157.0
86.807,-10.619,0.499,1.0
203.414,-24.892,6.865,30.0
203.312,-24.889,5.772,33.0
202.962,-24.856,4.677,46.0
86.392,-10.585,1.519,31.0
86.324,-10.581,1.058,62.0
86.743,-10.638,0.6,2.0
204.717,-25.117,7.149,36.0
203.245,-24.944,6.011,41.0
203.09,-24.933,4.921,28.0
86.53,-10.626,1.625,7.0
86.326,-10.605,1.16,63.0
86.34,-10.612,0.698,36.0
204.677,-25.167,7.39,41.0
203.156,-24.985,6.247,41.0
203.404,-25.022,5.164,23.0
203.148,-24.996,4.054,31.0
86.305,-10.622,1.261,50.0
86.35,-10.632,0.801,172.0
204.85,-25.234,7.637,31.0
203.6,-25.083,6.499,31.0
203.452,-25.069,5.406,39.0
203.09,-25.029,4.288,39.0
86.346,-10.643,1.363,26.0
86.359,-10.647,0.901,181.0
205.158,-25.309,7.887,36.0
205.035,-25.294,6.785,26.0
203.404,-25.094,5.643,52.0
203.142,-25.065,4.527,32.0
86.384,-10.66,1.463,19.0
86.359,-10.658,1.002,100.0
99.451,-12.281,3.94,25.0
205.198,-25.339,7.03,43.0
203.345,-25.109,5.879,51.0
210.028,-25.935,4.928,18.0
86.425,-10.673,1.565,8.0
86.36,-10.665,1.103,47.0
99.417,-12.285,4.055,56.0
205.014,-25.331,7.266,32.0
203.197,-25.104,6.111,43.0
210.038,-25.947,5.174,25.0
201.32,-24.87,3.881,13.0
86.343,-10.666,1.203,45.0
99.359,-12.282,4.169,38.0
204.763,-25.306,7.492,37.0
203.23,-25.112,6.348,33.0
203.619,-25.156,5.25,25.0
203.091,-25.088,4.15,32.0
86.342,-10.665,1.301,31.0
99.331,-12.277,4.283,15.0
205.007,-25.332,7.738,32.0
204.395,-25.25,6.62,52.0
203.481,-25.131,5.48,50.0
203.191,-25.09,4.385,32.0
86.37,-10.663,1.401,15.0
204.118,-25.218,9.033,20.0
99.527,-12.291,3.871,12.0
205.057,-25.316,6.877,33.0
203.369,-25.099,5.71,46.0
203.189,-25.071,4.615,24.0
86.408,-10.659,1.5,17.0
148.124,-18.286,6.725,9.0
99.429,-12.268,3.98,34.0
205.17,-25.305,7.114,34.0
203.238,-25.057,5.937,54.0
210.124,-25.897,5.011,20.0
86.48,-10.654,1.599,6.0
91.359,-11.265,4.251,9.0
99.34,-12.242,4.089,51.0
204.721,-25.215,7.329,39.0
203.12,-25.006,6.163,44.0
203.377,-25.027,5.08,25.0
203.162,-24.99,3.987,28.0
91.359,-11.247,4.355,21.0
99.257,-12.211,4.198,36.0
204.549,-25.151,7.552,36.0
203.279,-24.981,6.394,39.0
203.289,-24.969,5.305,31.0
203.123,-24.936,4.212,48.0
91.365,-11.226,4.457,33.0
99.205,-12.18,4.306,14.0
204.565,-25.1,7.782,30.0
203.235,-24.92,6.62,39.0
203.317,-24.915,5.531,24.0
203.005,-24.862,4.434,50.0
98.577,-12.084,4.919,15.0
99.103,-12.138,4.412,6.0
204.462,-25.025,8.002,32.0
203.435,-24.88,6.85,28.0
203.174,-24.832,5.749,21.0
203.007,-24.795,4.655,47.0
98.433,-12.034,5.019,56.0
98.922,-12.082,4.512,40.0
99.32,-12.121,3.995,13.0
204.499,-24.937,7.107,30.0
203.167,-24.756,5.969,24.0
203.058,-24.723,4.878,24.0
98.387,-11.99,5.124,37.0
98.868,-12.038,4.616,80.0
99.162,-12.062,4.096,30.0
204.497,-24.854,7.326,28.0
203.103,-24.664,6.182,35.0
188.165,-22.832,4.715,34.0
91.429,-11.104,4.858,7.0
98.825,-11.99,4.718,63.0
99.069,-12.008,4.195,67.0
203.92,-24.693,7.519,34.0
203.167,-24.579,6.397,44.0
188.094,-22.735,4.911,27.0
108.228,-13.095,5.864,22.0
98.829,-11.944,4.821,28.0
98.998,-11.952,4.296,64.0
203.98,-24.601,7.73,35.0
203.249,-24.487,6.61,31.0
189.426,-22.799,5.141,15.0
91.294,-11.0,5.04,14.0
100.482,-12.092,5.005,39.0
99.002,-11.9,4.397,66.0
203.874,-24.478,7.935,38.0
203.716,-24.432,6.831,29.0
189.572,-22.712,5.336,24.0
91.19,-10.936,5.128,27.0
100.411,-12.027,5.103,24.0
99.007,-11.844,4.497,60.0
203.799,-24.351,8.134,49.0
203.608,-24.299,7.031,28.0
189.256,-22.56,5.515,24.0
91.13,-10.875,5.215,63.0
108.244,-12.899,5.609,6.0
99.017,-11.784,4.595,43.0
203.75,-24.217,8.335,28.0
203.566,-24.166,7.227,17.0
188.735,-22.378,5.683,22.0
91.123,-10.816,5.304,10.0
108.351,-12.842,5.72,20.0
98.899,-11.706,4.685,27.0
116.233,-13.738,4.866,12.0
204.12,-24.094,7.443,13.0
188.87,-22.265,5.867,17.0
91.074,-10.748,5.387,19.0
101.149,-11.92,5.434,3.0
98.825,-11.628,4.774,24.0
116.322,-13.667,4.978,45.0
204.042,-23.94,7.629,31.0
189.552,-22.209,6.063,22.0
90.635,-10.631,5.445,13.0
106.652,-12.49,5.829,13.0
98.712,-11.542,4.859,28.0
107.614,-12.564,4.703,4.0
116.569,-13.589,4.464,22.0
189.515,-22.061,6.233,25.0
84.55,-9.854,5.155,14.0
106.656,-12.409,5.924,21.0
98.663,-11.46,4.944,61.0
115.477,-13.392,5.15,25.0
116.541,-13.494,4.566,49.0
189.467,-21.903,6.397,23.0
90.997,-10.532,5.629,16.0
99.355,-11.478,5.607,2.0
98.625,-11.374,5.03,39.0
99.424,-11.446,4.521,33.0
115.609,-13.288,4.629,27.0
115.957,-13.307,4.015,43.0
101.253,-11.633,6.351,19.0
99.177,-11.374,5.68,5.0
98.575,-11.284,5.111,29.0
99.379,-11.356,4.602,60.0
115.536,-13.18,4.723,34.0
115.935,-13.202,4.11,70.0
104.324,-11.894,6.63,4.0
86.052,-9.792,5.0,5.0
98.507,-11.189,5.187,43.0
99.5,-11.281,4.688,84.0
107.727,-12.191,4.49,17.0
116.013,-13.105,4.206,47.0
81.585,-9.227,5.25,8.0
90.763,-10.244,5.346,13.0
98.458,-11.091,5.263,55.0
99.766,-11.217,4.779,97.0
116.574,-13.082,4.951,21.0
106.591,-11.939,3.948,11.0
81.639,-9.155,5.317,11.0
98.338,-11.004,5.869,18.0
107.79,-12.038,5.844,16.0
99.793,-11.122,4.856,93.0
105.761,-11.765,4.57,62.0
106.442,-11.817,4.021,63.0
81.593,-9.069,5.375,8.0
98.266,-10.899,5.936,46.0
90.512,-10.017,4.974,11.0
108.172,-11.947,5.343,47.0
105.855,-11.667,4.652,21.0
106.48,-11.712,4.098,42.0
97.744,-10.763,6.51,24.0
101.699,-11.174,6.217,6.0
90.528,-9.925,5.038,9.0
99.253,-10.857,4.973,15.0
105.74,-11.543,4.72,40.0
107.611,-11.723,4.216,31.0
97.962,-10.684,6.592,11.0
98.527,-10.72,6.09,10.0
100.275,-10.885,5.649,39.0
99.265,-10.751,5.04,16.0
108.177,-11.69,4.901,13.0
107.157,-11.554,4.27,59.0
86.312,-9.317,5.865,7.0
98.017,-10.554,6.124,19.0
118.166,-12.694,6.734,20.0
104.967,-11.25,5.397,20.0
108.089,-11.557,4.966,38.0
107.237,-11.44,4.342,76.0
86.229,-9.21,5.914,9.0
99.988,-10.652,6.309,27.0
104.618,-11.118,6.027,40.0
99.241,-10.521,5.163,20.0
115.999,-12.268,5.4,21.0
107.434,-11.337,4.412,62.0
100.468,-10.613,6.951,20.0
81.544,-8.591,5.193,9.0
99.249,-10.43,5.776,46.0
99.175,-10.396,5.217,34.0
122.564,-12.816,5.776,55.0
107.07,-11.169,4.459,74.0
86.143,-8.996,6.008,8.0
81.588,-8.497,5.241,6.0
86.345,-8.969,5.072,6.0
99.119,-10.27,5.268,18.0
107.142,-11.072,5.106,85.0
106.662,-10.995,4.498,50.0
86.28,-8.903,6.064,5.0
81.534,-8.39,5.281,6.0
86.28,-8.855,5.113,11.0
99.203,-10.154,5.322,25.0
116.087,-11.85,5.591,25.0
123.136,-12.538,5.255,20.0
81.723,-8.329,5.784,10.0
81.442,-8.278,5.314,5.0
99.431,-10.078,5.941,39.0
99.195,-10.026,5.37,25.0
122.324,-12.331,5.949,21.0
123.186,-12.385,5.312,25.0
106.787,-10.747,7.606,22.0
87.07,-8.737,5.721,3.0
99.51,-9.957,5.989,28.0
99.204,-9.898,5.414,8.0
106.704,-10.618,5.234,45.0
123.174,-12.223,5.364,31.0
82.398,-8.184,5.905,6.0
84.078,-8.326,5.559,17.0
99.131,-9.788,6.007,60.0
106.839,-10.518,5.873,23.0
108.08,-10.609,5.345,72.0
123.185,-12.059,5.413,25.0
82.359,-8.07,5.933,3.0
98.946,-9.665,6.58,40.0
86.127,-8.388,5.25,6.0
107.68,-10.455,5.958,43.0
115.62,-11.193,5.76,21.0
123.048,-11.878,5.451,21.0
84.377,-8.151,6.108,3.0
98.738,-9.509,6.6,15.0
86.098,-8.266,5.278,6.0
107.995,-10.335,6.012,3.0
122.911,-11.727,6.163,15.0
122.898,-11.691,5.484,24.0
82.296,-7.835,5.983,2.0
84.719,-8.04,5.689,8.0
99.23,-9.387,6.113,11.0
108.085,-10.192,6.049,52.0
106.282,-9.99,5.359,64.0
164.08,-15.377,7.367,21.0
86.833,-8.143,6.337,3.0
86.335,-8.07,5.821,5.0
106.674,-9.939,6.6,15.0
115.309,-10.709,6.482,24.0
106.357,-9.846,5.389,13.0
150.44,-13.884,6.791,14.0
87.028,-8.037,6.371,3.0
98.659,-9.08,6.674,12.0
106.155,-9.738,6.591,22.0
124.194,-11.354,7.009,19.0
106.376,-9.693,5.413,10.0
158.731,-14.417,7.198,7.0
84.162,-7.648,6.179,5.0
84.48,-7.651,5.731,1.0
106.081,-9.574,6.606,15.0
122.341,-11.003,6.927,13.0
106.396,-9.537,5.432,11.0
150.423,-13.438,6.845,14.0
98.028,-8.762,7.213,7.0
97.983,-8.727,6.663,8.0
106.067,-9.413,6.621,15.0
122.431,-10.827,6.948,12.0
105.614,-9.307,5.406,3.0
165.986,-14.576,7.574,17.0
86.403,-7.591,6.368,4.0
105.453,-9.23,7.183,5.0
106.127,-9.255,6.636,7.0
122.42,-10.639,6.961,10.0
146.268,-12.665,7.502,4.0
158.768,-13.7,7.259,8.0
97.298,-8.398,7.178,9.0
108.053,-9.292,7.368,13.0
115.041,-9.856,7.202,4.0
108.302,-9.245,6.165,5.0
148.585,-12.639,7.629,11.0
158.665,-13.447,7.262,5.0
85.106,-7.215,6.283,17.0
107.979,-9.12,7.366,11.0
97.342,-8.19,6.096,1.0
108.413,-9.087,6.173,11.0
148.455,-12.398,7.624,6.0
163.638,-13.615,7.491,8.0
85.108,-7.083,6.283,8.0
108.705,-9.011,7.416,7.0
99.966,-8.255,6.259,3.0
108.47,-8.922,6.175,3.0
150.808,-12.357,7.741,18.0
158.757,-12.959,7.263,11.0
96.601,-7.885,7.127,4.0
108.888,-8.852,7.424,13.0
106.5,-8.624,6.663,3.0
106.341,-8.578,6.046,6.0
156.194,-12.549,8.008,4.0
149.595,-11.971,6.834,15.0
100.838,-8.07,7.432,8.0
108.753,-8.667,7.404,7.0
115.371,-9.156,7.206,6.0
158.606,-12.538,9.003,6.0
163.284,-12.855,8.353,9.0
156.357,-12.26,7.124,14.0
147.554,-11.567,10.856,5.0
107.572,-8.397,7.31,4.0
106.551,-8.283,6.642,2.0
165.224,-12.792,9.354,6.0
148.758,-11.469,7.589,6.0
158.015,-12.134,7.175,19.0
148.442,-11.397,10.897,5.0
117.433,-8.977,7.961,6.0
155.368,-11.827,9.657,11.0
146.782,-11.125,8.283,9.0
158.353,-11.952,8.049,5.0
197.716,-14.86,8.94,8.0
108.74,-8.169,7.961,7.0
149.198,-11.16,10.083,14.0
148.466,-11.058,9.196,3.0
150.041,-11.127,8.436,6.0
145.935,-10.777,7.384,4.0
156.584,-11.515,7.043,5.0
149.25,-10.97,10.891,13.0
207.094,-15.151,13.943,7.0
206.626,-15.048,12.746,8.0
157.596,-11.426,8.817,5.0
148.772,-10.737,7.486,11.0
156.318,-11.234,6.988,5.0
109.077,-7.833,7.928,6.0
207.11,-14.806,13.882,17.0
163.195,-11.61,10.017,8.0
163.051,-11.548,9.073,9.0
148.7,-10.485,7.436,11.0
155.877,-10.943,6.918,5.0
207.61,-14.563,15.021,21.0
150.37,-10.498,10.028,13.0
148.69,-10.332,9.076,5.0
165.423,-11.442,9.148,5.0
164.864,-11.35,8.187,13.0
197.66,-13.544,8.701,8.0
210.657,-14.423,15.164,10.0
148.252,-10.1,9.832,11.0
158.363,-10.738,9.606,6.0
147.139,-9.93,8.08,3.0
149.211,-10.023,7.351,5.0
212.456,-14.204,9.268,7.0
0.0,0.0,0.0,0.0
209.958,-13.955,13.836,19.0
210.329,-13.908,12.669,7.0
212.999,-14.017,11.605,7.0
157.768,-10.333,7.704,4.0
204.789,-13.347,8.843,4.0
148.284,-9.653,10.546,4.0
0.0,0.0,0.0,0.0
163.447,-10.533,9.769,5.0
148.001,-9.491,7.994,4.0
149.997,-9.57,7.253,12.0
222.395,-14.121,9.496,18.0
0.0,0.0,0.0,0.0
0.0,0.0,0.0,0.0
148.472,-9.316,8.799,4.0
165.056,-10.305,8.829,6.0
0.0,0.0,0.0,0.0
220.579,-13.633,9.303,6.0
0.0,0.0,0.0,0.0
204.747,-12.567,13.185,10.0
164.323,-10.032,9.648,4.0
163.437,-9.927,8.652,4.0
0.0,0.0,0.0,0.0
229.568,-13.799,9.553,6.0
0.0,0.0,0.0,0.0
0.0,0.0,0.0,0.0
0.0,0.0,0.0,0.0
164.916,-9.736,8.632,3.0
0.0,0.0,0.0,0.0
0.0,0.0,0.0,0.0
0.0,0.0,0.0,0.0
0.0,0.0,0.0,0.0
211.615,-12.197,12.164,9.0
0.0,0.0,0.0,0.0
0.0,0.0,0.0,0.0
0.0,0.0,0.0,0.0
0.0,0.0,0.0,0.0
0.0,0.0,0.0,0.0
164.666,-9.21,9.355,5.0
0.0,0.0,0.0,0.0
0.0,0.0,0.0,0.0
211.691,-11.645,8.395,6.0
0.0,0.0,0.0,0.0
0.0,0.0,0.0,0.0
0.0,0.0,0.0,0.0
0.0,0.0,0.0,0.0
0.0,0.0,0.0,0.0
0.0,0.0,0.0,0.0
0.0,0.0,0.0,0.0
0.0,0.0,0.0,0.0
0.0,0.0,0.0,0.0
227.146,-11.864,11.255,7.0
0.0,0.0,0.0,0.0
0.0,0.0,0.0,0.0
0.0,0.0,0.0,0.0
0.0,0.0,0.0,0.0
0.0,0.0,0.0,0.0
0.0,0.0,0.0,0.0
0.0,0.0,0.0,0.0
0.0,0.0,0.0,0.0
0.0,0.0,0.0,0.0
0.0,0.0,0.0,0.0
0.0,0.0,0.0,0.0
0.0,0.0,0.0,0.0
0.0,0.0,0.0,0.0
0.0,0.0,0.0,0.0
92.179,-4.431,5.925,2.0
0.0,0.0,0.0,0.0
0.0,0.0,0.0,0.0
0.0,0.0,0.0,0.0
0.0,0.0,0.0,0.0
0.0,0.0,0.0,0.0
92.325,-4.283,5.85,1.0
83.19,-3.834,4.795,1.0
0.0,0.0,0.0,0.0
0.0,0.0,0.0,0.0
0.0,0.0,0.0,0.0
0.0,0.0,0.0,0.0
0.0,0.0,0.0,0.0
0.0,0.0,0.0,0.0
0.0,0.0,0.0,0.0
0.0,0.0,0.0,0.0
0.0,0.0,0.0,0.0
0.0,0.0,0.0,0.0
97.378,-4.19,5.981,3.0
0.0,0.0,0.0,0.0
0.0,0.0,0.0,0.0
0.0,0.0,0.0,0.0
0.0,0.0,0.0,0.0
0.0,0.0,0.0,0.0
97.488,-4.031,5.888,4.0
0.0,0.0,0.0,0.0
0.0,0.0,0.0,0.0
0.0,0.0,0.0,0.0
0.0,0.0,0.0,0.0
0.0,0.0,0.0,0.0
97.815,-3.882,5.802,5.0
0.0,0.0,0.0,0.0
0.0,0.0,0.0,0.0
0.0,0.0,0.0,0.0
0.0,0.0,0.0,0.0
0.0,0.0,0.0,0.0
98.181,-3.735,5.715,2.0
0.0,0.0,0.0,0.0
0.0,0.0,0.0,0.0
0.0,0.0,0.0,0.0
0.0,0.0,0.0,0.0
0.0,0.0,0.0,0.0
175.475,-6.389,10.014,4.0
0.0,0.0,0.0,0.0
0.0,0.0,0.0,0.0
0.0,0.0,0.0,0.0
0.0,0.0,0.0,0.0
0.0,0.0,0.0,0.0
0.0,0.0,0.0,0.0
0.0,0.0,0.0,0.0
0.0,0.0,0.0,0.0
0.0,0.0,0.0,0.0
0.0,0.0,0.0,0.0
0.0,0.0,0.0,0.0
0.0,0.0,0.0,0.0
0.0,0.0,0.0,0.0
148.07,-4.834,6.39,3.0
0.0,0.0,0.0,0.0
0.0,0.0,0.0,0.0
40.32,-1.282,1.04,22.0
90.404,-2.857,4.829,1.0
0.0,0.0,0.0,0.0
148.22,-4.603,6.209,20.0
0.0,0.0,0.0,0.0
40.336,-1.23,1.221,0.0
40.305,-1.219,0.988,27.0
0.0,0.0,0.0,0.0
0.0,0.0,0.0,0.0
148.114,-4.368,6.013,8.0
0.0,0.0,0.0,0.0
40.291,-1.166,1.167,21.0
40.28,-1.156,0.935,0.0
129.122,-3.677,6.56,28.0
128.944,-3.637,5.806,23.0
40.268,-1.125,1.581,3.0
40.267,-1.115,1.345,8.0
40.211,-1.103,1.111,49.0
40.198,-1.092,0.88,46.0
93.097,-2.508,4.604,16.0
128.923,-3.44,5.631,26.0
40.193,-1.062,1.524,40.0
40.243,-1.052,1.289,57.0
40.2,-1.041,1.056,57.0
40.186,-1.03,0.824,53.0
93.095,-2.365,4.473,13.0
128.935,-3.244,5.451,44.0
40.201,-1.001,1.467,49.0
40.241,-0.991,1.232,61.0
40.191,-0.98,0.999,54.0
40.194,-0.97,0.767,60.0
129.332,-3.091,6.029,31.0
129.553,-3.064,5.29,29.0
40.275,-0.942,1.412,11.0
40.217,-0.931,1.174,47.0
40.2,-0.92,0.941,55.0
40.206,-0.911,0.709,52.0
128.823,-2.89,5.818,22.0
191.384,-4.245,7.536,30.0
185.626,-4.07,6.235,45.0
40.217,-0.872,1.114,50.0
40.21,-0.862,0.882,54.0
40.232,-0.852,0.65,54.0
128.752,-2.7,5.623,22.0
184.521,-3.823,6.989,22.0
40.333,-0.826,1.294,12.0
40.253,-0.815,1.055,43.0
40.203,-0.804,0.822,38.0
40.261,-0.795,0.59,40.0
128.616,-2.514,5.422,20.0
184.747,-3.565,6.718,45.0
40.311,-0.768,1.232,36.0
40.235,-0.757,0.994,53.0
40.179,-0.747,0.76,62.0
40.296,-0.739,0.529,0.0
128.675,-2.333,5.225,15.0
151.408,-2.709,5.27,27.0
151.436,-2.675,4.395,73.0
264.517,-4.612,6.122,63.0
205.429,-3.534,3.565,9.0
149.244,-2.533,1.727,4.0
128.2,-2.147,5.003,25.0
151.416,-2.501,5.032,85.0
151.464,-2.468,4.157,74.0
261.945,-4.208,5.647,32.0
205.368,-3.252,3.237,32.0
123.759,-1.932,1.235,9.0
129.166,-1.986,4.832,23.0
151.454,-2.293,4.785,83.0
183.393,-2.737,4.734,64.0
183.392,-2.696,3.654,101.0
183.363,-2.657,2.594,32.0
87.958,-1.254,0.734,12.0
0.0,0.0,0.0,0.0
86.914,-1.202,2.606,9.0
80.044,-1.089,1.935,7.0
86.932,-1.162,1.588,10.0
79.868,-1.051,0.996,12.0
78.916,-1.021,0.527,25.0
79.401,-1.009,2.706,78.0
79.394,-0.992,2.246,150.0
79.427,-0.976,1.786,159.0
79.423,-0.959,1.319,255.0
79.431,-0.942,0.858,150.0
77.652,-0.904,0.388,5.0
79.432,-0.908,2.574,151.0
79.434,-0.892,2.113,158.0
79.433,-0.876,1.653,208.0
79.432,-0.859,1.185,180.0
