X,Y,Z,Reflectivity
32.339,-2.674,-0.394,1.0
27.775,-2.306,-0.493,1.0
24.553,-2.047,-0.569,1.0
21.777,-1.823,-0.624,1.0
55.345,-4.636,-0.045,0.0
0.0,0.0,0.0,0.0
32.727,-2.763,-0.383,1.0
28.131,-2.384,-0.486,1.0
24.874,-2.116,-0.565,1.0
22.019,-1.881,-0.621,1.0
0.0,0.0,0.0,0.0
42.528,-3.648,-0.246,0.0
33.384,-2.874,-0.375,0.0
28.388,-2.454,-0.476,1.0
25.14,-2.181,-0.559,1.0
22.237,-1.937,-0.615,1.0
0.0,0.0,0.0,0.0
43.026,-3.762,-0.227,0.0
34.469,-3.025,-0.369,0.0
28.82,-2.539,-0.468,1.0
25.394,-2.245,-0.551,1.0
22.542,-2.001,-0.612,1.0
0.0,0.0,0.0,0.0
0.0,0.0,0.0,0.0
34.841,-3.115,-0.354,0.0
29.28,-2.627,-0.459,1.0
25.678,-2.312,-0.543,1.0
22.802,-2.061,-0.606,1.0
0.0,0.0,0.0,0.0
50.364,-4.569,-0.208,1.0
35.927,-3.27,-0.344,0.0
29.68,-2.711,-0.448,1.0
26.016,-2.384,-0.534,1.0
23.098,-2.124,-0.6,1.0
0.0,0.0,0.0,0.0
50.418,-4.653,-0.178,0.0
37.014,-3.427,-0.331,0.0
30.166,-2.803,-0.437,1.0
26.423,-2.463,-0.526,1.0
23.434,-2.192,-0.594,1.0
0.0,0.0,0.0,0.0
50.308,-4.721,-0.145,1.0
39.841,-3.751,-0.331,0.0
31.025,-2.93,-0.429,1.0
26.836,-2.543,-0.517,1.0
23.742,-2.257,-0.586,1.0
0.0,0.0,0.0,0.0
50.345,-4.801,-0.112,1.0
0.0,0.0,0.0,0.0
31.778,-3.049,-0.418,1.0
27.447,-2.642,-0.51,1.0
24.221,-2.339,-0.581,1.0
0.0,0.0,0.0,0.0
50.484,-4.89,-0.077,3.0
41.816,-4.062,-0.29,0.0
32.585,-3.175,-0.405,1.0
27.881,-2.725,-0.498,1.0
24.619,-2.414,-0.573,4.0
81.139,-7.954,0.374,0.0
50.356,-4.951,-0.039,0.0
0.0,0.0,0.0,0.0
33.268,-3.29,-0.389,1.0
28.415,-2.818,-0.486,1.0
24.767,-2.464,-0.557,3.0
94.871,-9.437,0.509,3.0
0.0,0.0,0.0,0.0
44.854,-4.486,-0.244,0.0
0.0,0.0,0.0,0.0
29.054,-2.923,-0.474,1.0
25.369,-2.559,-0.551,1.0
0.0,0.0,0.0,0.0
0.0,0.0,0.0,0.0
48.533,-4.921,-0.226,1.0
35.846,-3.644,-0.364,0.0
29.638,-3.021,-0.46,1.0
25.942,-2.652,-0.543,1.0
89.648,-9.164,0.623,1.0
0.0,0.0,0.0,0.0
47.949,-4.927,-0.184,0.0
37.666,-3.88,-0.351,0.0
30.14,-3.113,-0.444,1.0
26.409,-2.735,-0.531,1.0
86.837,-8.993,0.676,2.0
0.0,0.0,0.0,0.0
0.0,0.0,0.0,0.0
39.49,-4.12,-0.335,0.0
31.343,-3.278,-0.435,1.0
26.887,-2.819,-0.518,1.0
86.725,-9.092,0.748,3.0
0.0,0.0,0.0,0.0
0.0,0.0,0.0,0.0
39.969,-4.22,-0.305,0.0
32.486,-3.438,-0.422,0.0
27.598,-2.928,-0.507,1.0
86.363,-9.162,0.821,62.0
79.604,-8.465,0.328,4.0
0.0,0.0,0.0,0.0
41.829,-4.468,-0.281,0.0
33.323,-3.568,-0.404,1.0
28.258,-3.033,-0.494,1.0
86.316,-9.263,0.899,157.0
0.0,0.0,0.0,0.0
0.0,0.0,0.0,0.0
0.0,0.0,0.0,0.0
34.497,-3.735,-0.386,1.0
28.979,-3.145,-0.48,1.0
86.265,-9.36,0.979,54.0
87.346,-9.497,0.521,1.0
0.0,0.0,0.0,0.0
0.0,0.0,0.0,0.0
35.962,-3.935,-0.368,0.0
29.728,-3.26,-0.464,1.0
86.26,-9.459,1.061,54.0
87.276,-9.589,0.604,9.0
0.0,0.0,0.0,0.0
0.0,0.0,0.0,0.0
37.912,-4.191,-0.351,0.0
30.844,-3.417,-0.451,0.0
86.268,-9.556,1.145,58.0
87.251,-9.682,0.69,8.0
0.0,0.0,0.0,0.0
0.0,0.0,0.0,0.0
39.535,-4.412,-0.328,0.0
32.041,-3.583,-0.438,1.0
86.271,-9.647,1.23,166.0
86.399,-9.678,0.769,14.0
0.0,0.0,0.0,0.0
0.0,0.0,0.0,0.0
41.383,-4.661,-0.301,0.0
32.906,-3.714,-0.416,1.0
86.265,-9.735,1.319,150.0
86.247,-9.749,0.855,78.0
0.0,0.0,0.0,0.0
0.0,0.0,0.0,0.0
44.99,-5.112,-0.282,0.0
34.287,-3.903,-0.399,0.0
86.223,-9.815,1.405,55.0
86.2,-9.827,0.943,150.0
87.34,-9.973,0.486,1.0
0.0,0.0,0.0,0.0
0.0,0.0,0.0,0.0
0.0,0.0,0.0,0.0
86.253,-9.898,1.496,45.0
86.256,-9.913,1.032,165.0
87.253,-10.043,0.576,7.0
0.0,0.0,0.0,0.0
50.424,-5.822,-0.211,3.0
39.006,-4.511,-0.372,0.0
86.249,-9.975,1.586,42.0
86.247,-9.989,1.124,174.0
87.259,-10.12,0.669,60.0
0.0,0.0,0.0,0.0
50.442,-5.867,-0.158,9.0
39.347,-4.584,-0.334,1.0
86.312,-10.056,1.679,11.0
86.262,-10.063,1.217,171.0
86.356,-10.087,0.755,14.0
0.0,0.0,0.0,0.0
50.496,-5.915,-0.103,3.0
41.595,-4.879,-0.308,0.0
86.592,-10.158,1.778,8.0
86.2,-10.125,1.31,64.0
86.178,-10.135,0.848,40.0
0.0,0.0,0.0,0.0
0.0,0.0,0.0,0.0
44.327,-5.233,-0.279,0.0
86.668,-10.233,1.876,12.0
86.232,-10.194,1.405,51.0
86.187,-10.2,0.942,47.0
96.688,-11.457,0.53,8.0
0.0,0.0,0.0,0.0
0.0,0.0,0.0,0.0
86.761,-10.307,1.974,11.0
86.265,-10.259,1.5,49.0
86.238,-10.266,1.038,52.0
87.424,-10.419,0.576,9.0
0.0,0.0,0.0,0.0
50.298,-6.008,-0.206,0.0
188.232,-22.488,4.492,31.0
86.301,-10.321,1.598,33.0
86.243,-10.324,1.135,64.0
87.048,-10.431,0.672,9.0
0.0,0.0,0.0,0.0
50.31,-6.042,-0.149,1.0
188.191,-22.603,4.704,36.0
86.375,-10.383,1.697,3.0
86.237,-10.376,1.234,54.0
86.241,-10.387,0.764,62.0
0.0,0.0,0.0,0.0
0.0,0.0,0.0,0.0
188.161,-22.71,4.919,37.0
86.767,-10.481,1.803,2.0
86.26,-10.428,1.332,43.0
86.264,-10.437,0.863,166.0
87.172,-10.557,0.406,4.0
0.0,0.0,0.0,0.0
189.683,-22.997,5.178,12.0
203.106,-24.642,4.458,27.0
86.323,-10.481,1.432,31.0
86.277,-10.484,0.962,171.0
87.057,-10.587,0.505,31.0
0.0,0.0,0.0,0.0
189.756,-23.101,5.397,23.0
203.031,-24.733,4.689,41.0
86.362,-10.527,1.533,37.0
86.292,-10.525,1.061,67.0
86.806,-10.595,0.604,3.0
0.0,0.0,0.0,0.0
203.186,-24.827,6.014,29.0
203.122,-24.832,4.926,35.0
86.493,-10.58,1.635,16.0
86.303,-10.563,1.16,64.0
86.352,-10.575,0.7,14.0
0.0,0.0,0.0,0.0
203.222,-24.913,6.251,48.0
203.064,-24.906,5.16,29.0
203.094,-24.921,4.078,38.0
86.308,-10.596,1.262,59.0
86.355,-10.608,0.8,172.0
0.0,0.0,0.0,0.0
203.334,-25.0,6.491,39.0
203.417,-25.02,5.406,35.0
203.143,-24.996,4.313,44.0
86.356,-10.63,1.363,26.0
86.35,-10.634,0.902,189.0
0.0,0.0,0.0,0.0
204.984,-25.267,6.786,18.0
203.415,-25.081,5.644,47.0
203.21,-25.063,4.549,33.0
86.382,-10.657,1.464,17.0
86.364,-10.659,1.002,82.0
86.728,-10.709,0.543,1.0
205.144,-25.341,7.031,42.0
203.317,-25.121,5.879,45.0
210.096,-25.964,4.949,21.0
86.45,-10.686,1.565,7.0
86.386,-10.682,1.102,46.0
86.606,-10.712,0.642,2.0
205.019,-25.371,7.264,35.0
203.134,-25.14,6.111,44.0
210.102,-26.007,5.194,18.0
0.0,0.0,0.0,0.0
86.352,-10.693,1.204,47.0
86.399,-10.701,0.742,150.0
204.772,-25.376,7.495,39.0
203.224,-25.185,6.353,27.0
203.675,-25.242,5.275,37.0
0.0,0.0,0.0,0.0
86.362,-10.706,1.303,26.0
86.409,-10.713,0.842,151.0
204.833,-25.41,7.738,28.0
205.004,-25.43,6.647,26.0
203.566,-25.251,5.509,51.0
203.226,-25.209,4.392,17.0
86.42,-10.72,1.406,5.0
86.403,-10.719,0.944,150.0
99.518,-12.353,3.875,32.0
205.148,-25.462,6.891,38.0
203.412,-25.244,5.741,51.0
208.428,-25.865,4.747,19.0
201.316,-24.981,3.51,45.0
86.389,-10.72,1.044,22.0
99.472,-12.351,3.989,55.0
205.178,-25.47,7.129,40.0
203.309,-25.234,5.975,45.0
208.432,-25.866,4.987,14.0
201.258,-24.973,3.739,54.0
86.375,-10.717,1.142,34.0
99.432,-12.345,4.102,51.0
204.995,-25.443,7.359,33.0
203.177,-25.211,6.205,41.0
203.701,-25.27,5.11,17.0
208.459,-25.856,4.112,13.0
86.367,-10.71,1.241,37.0
99.427,-12.338,4.215,27.0
204.759,-25.4,7.583,30.0
203.31,-25.212,6.44,24.0
203.628,-25.243,5.338,41.0
203.255,-25.19,4.238,14.0
86.394,-10.704,1.34,17.0
99.465,-12.333,4.33,5.0
99.565,-12.339,3.8,7.0
205.022,-25.398,6.727,32.0
203.497,-25.199,5.566,56.0
203.196,-25.154,4.467,21.0
86.411,-10.693,1.437,12.0
210.015,-26.009,9.379,17.0
99.519,-12.318,3.91,29.0
205.157,-25.381,6.96,40.0
203.355,-25.146,5.788,52.0
203.285,-25.126,4.695,13.0
86.444,-10.68,1.534,12.0
148.285,-18.335,6.79,4.0
99.425,-12.286,4.018,51.0
205.074,-25.326,7.186,41.0
203.214,-25.082,6.011,53.0
210.073,-25.915,5.087,23.0
201.294,-24.82,3.796,8.0
91.386,-11.278,4.284,14.0
99.334,-12.25,4.123,46.0
204.684,-25.225,7.399,36.0
203.139,-25.018,6.233,43.0
203.325,-25.026,5.145,26.0
203.095,-24.984,4.05,34.0
91.367,-11.249,4.386,30.0
99.204,-12.204,4.229,30.0
204.57,-25.148,7.619,34.0
203.313,-24.975,6.46,33.0
203.261,-24.952,5.367,34.0
203.124,-24.919,4.274,50.0
91.37,-11.219,4.485,31.0
99.174,-12.166,4.335,12.0
204.461,-25.062,7.838,29.0
203.338,-24.905,6.68,31.0
203.294,-24.881,5.586,22.0
203.03,-24.831,4.487,40.0
98.505,-12.058,4.941,27.0
98.982,-12.105,4.432,20.0
204.236,-24.954,8.048,34.0
203.953,-24.898,6.917,24.0
189.713,-23.14,5.414,22.0
203.078,-24.75,4.705,36.0
98.435,-12.008,5.043,42.0
98.912,-12.054,4.533,78.0
99.297,-12.088,4.017,11.0
204.601,-24.885,7.153,26.0
203.064,-24.675,6.007,23.0
188.257,-22.856,4.557,22.0
91.251,-11.089,4.769,25.0
98.869,-12.002,4.634,72.0
99.167,-12.025,4.113,35.0
203.769,-24.684,7.335,33.0
203.076,-24.575,6.217,37.0
188.16,-22.748,4.746,32.0
91.202,-11.037,4.86,32.0
98.813,-11.944,4.732,34.0
99.106,-11.965,4.212,77.0
203.969,-24.599,7.549,41.0
203.128,-24.47,6.424,37.0
188.174,-22.645,4.938,20.0
91.214,-10.988,4.954,45.0
100.461,-12.087,4.912,26.0
99.04,-11.901,4.308,71.0
203.829,-24.463,7.747,40.0
203.515,-24.397,6.638,19.0
189.0,-22.631,5.146,33.0
91.167,-10.928,5.042,47.0
100.468,-12.027,5.013,46.0
99.018,-11.837,4.406,67.0
203.787,-24.332,7.945,40.0
190.931,-22.768,6.413,21.0
189.358,-22.552,5.341,33.0
91.141,-10.867,5.129,56.0
100.296,-11.941,5.1,15.0
98.984,-11.769,4.498,60.0
203.85,-24.204,8.142,29.0
190.603,-22.6,6.586,21.0
188.635,-22.338,5.498,32.0
91.838,-10.887,5.255,6.0
91.624,-10.845,4.747,3.0
98.914,-11.691,4.589,60.0
203.986,-24.076,8.341,27.0
190.636,-22.469,6.762,15.0
188.684,-22.207,5.676,24.0
85.97,-10.129,5.0,7.0
91.86,-10.806,4.844,4.0
98.925,-11.62,4.68,70.0
116.395,-13.651,4.865,53.0
204.102,-23.901,7.428,21.0
188.864,-22.085,5.852,26.0
85.994,-10.066,5.08,12.0
106.659,-12.465,5.721,6.0
98.761,-11.523,4.761,43.0
123.077,-14.337,5.254,13.0
116.545,-13.556,4.343,7.0
188.638,-21.907,6.011,22.0
86.054,-10.004,5.159,10.0
106.673,-12.38,5.815,26.0
98.761,-11.443,4.848,35.0
115.536,-13.364,5.033,49.0
116.365,-13.437,4.438,38.0
116.018,-13.376,3.795,21.0
105.068,-12.127,6.39,8.0
105.096,-12.108,5.82,19.0
108.299,-12.455,5.408,19.0
115.361,-13.244,5.122,36.0
115.625,-13.251,4.506,47.0
115.907,-13.261,3.888,60.0
101.212,-11.593,6.239,19.0
100.797,-11.524,5.664,29.0
105.281,-12.013,5.343,25.0
99.64,-11.349,4.504,14.0
115.783,-13.163,4.608,24.0
115.928,-13.157,3.983,59.0
107.751,-12.242,6.73,9.0
100.935,-11.445,5.754,20.0
104.951,-11.877,5.411,22.0
117.413,-13.262,5.403,20.0
107.688,-12.141,4.369,19.0
115.968,-13.05,4.076,48.0
86.852,-9.784,5.493,3.0
90.737,-10.201,5.243,11.0
107.999,-12.117,5.651,28.0
105.653,-11.83,4.942,27.0
106.212,-11.869,4.39,35.0
106.894,-11.923,3.836,30.0
81.515,-9.102,5.217,11.0
98.346,-10.958,5.756,39.0
108.339,-12.046,5.749,28.0
108.213,-12.006,5.141,26.0
105.923,-11.729,4.456,43.0
106.656,-11.787,3.905,47.0
81.509,-9.017,5.274,12.0
86.005,-9.493,5.096,13.0
100.017,-11.015,5.38,40.0
108.219,-11.893,5.218,46.0
105.834,-11.606,4.526,37.0
106.866,-11.695,3.988,56.0
81.489,-8.928,5.33,7.0
85.942,-9.394,5.151,12.0
100.177,-10.925,5.457,29.0
117.931,-12.833,5.766,14.0
115.764,-12.569,5.028,15.0
106.896,-11.581,4.059,53.0
125.609,-13.624,8.3,13.0
86.201,-9.327,5.223,5.0
118.131,-12.752,6.51,16.0
105.231,-11.333,5.213,44.0
107.959,-11.6,4.758,44.0
123.91,-13.284,4.784,39.0
99.098,-10.635,6.611,7.0
100.11,-10.718,6.129,41.0
90.746,-9.692,5.057,9.0
105.099,-11.196,5.272,15.0
107.999,-11.478,4.826,55.0
107.03,-11.349,4.198,35.0
97.869,-10.389,6.588,13.0
99.226,-10.507,6.134,32.0
90.698,-9.58,5.108,6.0
115.043,-12.121,5.837,22.0
122.662,-12.891,5.552,8.0
107.048,-11.224,4.259,28.0
97.825,-10.268,6.64,11.0
99.154,-10.38,6.185,12.0
90.74,-9.474,5.162,5.0
108.522,-11.302,5.566,24.0
107.177,-11.133,4.909,78.0
106.691,-11.055,4.302,40.0
96.375,-9.996,6.594,5.0
81.668,-8.449,5.137,4.0
105.099,-10.843,6.033,9.0
107.15,-11.025,5.551,71.0
108.112,-11.096,5.006,71.0
123.104,-12.601,5.026,17.0
104.807,-10.739,7.223,3.0
81.738,-8.352,5.182,4.0
99.35,-10.123,5.751,14.0
114.975,-11.683,6.012,20.0
108.048,-10.95,5.055,52.0
123.209,-12.454,5.087,11.0
86.492,-8.75,6.001,2.0
99.412,-10.028,6.349,15.0
99.445,-10.003,5.802,48.0
116.142,-11.65,6.126,14.0
106.738,-10.677,5.041,43.0
123.219,-12.293,5.141,11.0
82.763,-8.265,5.778,18.0
99.674,-9.924,6.407,21.0
99.156,-9.843,5.827,61.0
106.797,-10.571,5.676,32.0
106.632,-10.525,5.079,22.0
123.17,-12.122,5.188,12.0
99.573,-9.808,6.991,13.0
98.888,-9.711,6.397,36.0
85.759,-8.396,5.072,6.0
107.942,-10.537,5.777,8.0
106.562,-10.372,5.116,22.0
147.876,-14.352,6.283,33.0
99.932,-9.706,7.052,6.0
81.751,-7.915,5.317,5.0
90.577,-8.743,5.389,2.0
107.996,-10.392,5.817,28.0
106.472,-10.215,5.146,19.0
123.032,-11.768,5.269,9.0
98.43,-9.423,6.978,32.0
86.353,-8.24,5.643,8.0
106.925,-10.171,6.395,9.0
108.082,-10.25,5.855,27.0
106.313,-10.05,5.171,41.0
156.48,-14.748,6.745,41.0
98.807,-9.32,7.034,15.0
86.36,-8.118,5.668,4.0
107.244,-10.049,6.443,32.0
106.255,-9.924,5.783,61.0
122.677,-11.422,5.998,26.0
147.702,-13.708,6.405,45.0
98.309,-9.129,7.022,9.0
100.18,-9.272,6.599,5.0
106.161,-9.793,6.403,18.0
124.246,-11.423,6.791,3.0
147.236,-13.493,7.232,13.0
164.401,-15.018,7.164,12.0
98.121,-8.969,7.03,11.0
98.438,-8.966,6.504,4.0
99.365,-9.019,6.013,6.0
122.479,-11.08,6.719,28.0
147.138,-13.265,7.255,6.0
150.401,-13.515,6.581,17.0
97.782,-8.791,7.022,6.0
87.155,-7.807,5.774,5.0
99.61,-8.891,6.044,6.0
122.476,-10.894,6.737,9.0
146.85,-13.018,7.261,4.0
148.575,-13.125,6.523,29.0
86.449,-7.64,6.22,5.0
87.291,-7.687,5.793,2.0
105.914,-9.292,6.438,4.0
108.477,-9.484,5.98,6.0
148.614,-12.948,7.364,9.0
162.341,-14.093,7.144,11.0
98.437,-8.548,7.092,15.0
105.398,-9.119,7.004,5.0
99.678,-8.592,6.068,6.0
108.494,-9.317,5.988,8.0
148.45,-12.702,7.367,13.0
158.537,-13.518,6.985,34.0
98.594,-8.409,7.109,3.0
108.414,-9.211,7.21,8.0
115.463,-9.772,7.034,5.0
108.472,-9.145,5.991,5.0
148.49,-12.472,7.373,7.0
163.827,-13.71,7.222,20.0
108.129,-9.051,7.797,7.0
98.756,-8.235,6.569,10.0
115.309,-9.577,7.025,5.0
106.39,-8.803,5.875,7.0
150.682,-12.421,7.481,4.0
149.947,-12.313,6.607,37.0
96.668,-7.938,6.969,5.0
98.826,-8.083,6.571,5.0
108.409,-8.832,6.6,2.0
106.339,-8.629,5.868,6.0
158.662,-12.826,7.869,18.0
166.517,-13.409,7.328,23.0
100.949,-8.128,7.271,5.0
115.885,-9.292,7.697,3.0
150.443,-12.013,9.148,4.0
158.744,-12.624,8.747,14.0
163.258,-12.932,8.081,14.0
163.001,-12.861,7.158,25.0
108.619,-8.569,7.812,5.0
121.225,-9.522,8.037,5.0
158.73,-12.417,9.633,6.0
148.424,-11.564,8.159,5.0
149.021,-11.562,7.357,11.0
158.063,-12.214,6.919,13.0
148.361,-11.461,10.649,11.0
106.647,-8.203,7.054,2.0
149.352,-11.439,9.039,4.0
157.737,-12.031,8.645,9.0
158.141,-12.01,7.78,13.0
156.317,-11.823,6.815,11.0
108.815,-8.228,7.789,5.0
149.175,-11.229,9.838,14.0
162.667,-12.192,9.814,5.0
150.176,-11.206,8.2,3.0
149.143,-11.082,7.305,8.0
155.397,-11.499,6.741,22.0
109.031,-8.063,7.78,6.0
207.054,-15.245,13.606,9.0
146.915,-10.768,8.828,4.0
157.75,-11.511,8.574,5.0
158.463,-11.511,7.722,9.0
205.898,-14.891,8.877,19.0
206.957,-14.96,14.712,25.0
162.115,-11.663,10.609,7.0
0.0,0.0,0.0,0.0
163.214,-11.635,8.823,6.0
155.013,-11.0,7.508,4.0
194.939,-13.772,8.345,6.0
207.502,-14.648,14.684,23.0
150.579,-10.58,9.806,16.0
156.51,-10.944,9.308,3.0
148.749,-10.354,7.992,5.0
156.401,-10.837,7.523,8.0
197.533,-13.626,8.389,14.0
208.544,-14.371,14.684,8.0
148.3,-10.171,9.604,13.0
157.138,-10.726,9.288,12.0
0.0,0.0,0.0,0.0
155.642,-10.524,7.428,3.0
194.424,-13.083,8.182,8.0
148.313,-9.969,10.384,4.0
157.925,-10.563,10.164,6.0
210.123,-13.982,12.334,11.0
148.125,-9.809,7.842,3.0
150.155,-9.895,7.101,5.0
204.989,-13.445,8.54,7.0
148.174,-9.707,10.31,7.0
0.0,0.0,0.0,0.0
148.149,-9.606,8.628,5.0
147.911,-9.544,7.764,6.0
157.349,-10.101,7.369,3.0
0.0,0.0,0.0,0.0
203.034,-12.949,14.028,17.0
203.311,-12.901,12.895,7.0
148.648,-9.383,8.585,4.0
164.947,-10.357,8.574,7.0
197.427,-12.335,9.145,5.0
0.0,0.0,0.0,0.0
0.0,0.0,0.0,0.0
0.0,0.0,0.0,0.0
147.969,-9.083,8.465,4.0
0.0,0.0,0.0,0.0
0.0,0.0,0.0,0.0
0.0,0.0,0.0,0.0
0.0,0.0,0.0,0.0
0.0,0.0,0.0,0.0
163.397,-9.749,9.254,10.0
150.221,-8.915,7.639,17.0
0.0,0.0,0.0,0.0
229.142,-13.455,9.057,7.0
0.0,0.0,0.0,0.0
229.225,-13.358,14.143,9.0
0.0,0.0,0.0,0.0
211.715,-12.202,10.635,8.0
212.453,-12.177,9.466,6.0
0.0,0.0,0.0,0.0
0.0,0.0,0.0,0.0
165.05,-9.333,10.075,4.0
164.495,-9.25,9.105,4.0
0.0,0.0,0.0,0.0
0.0,0.0,0.0,0.0
0.0,0.0,0.0,0.0
0.0,0.0,0.0,0.0
0.0,0.0,0.0,0.0
0.0,0.0,0.0,0.0
212.068,-11.494,10.363,6.0
0.0,0.0,0.0,0.0
0.0,0.0,0.0,0.0
0.0,0.0,0.0,0.0
0.0,0.0,0.0,0.0
0.0,0.0,0.0,0.0
227.007,-11.915,10.922,7.0
0.0,0.0,0.0,0.0
0.0,0.0,0.0,0.0
0.0,0.0,0.0,0.0
0.0,0.0,0.0,0.0
0.0,0.0,0.0,0.0
0.0,0.0,0.0,0.0
0.0,0.0,0.0,0.0
0.0,0.0,0.0,0.0
0.0,0.0,0.0,0.0
0.0,0.0,0.0,0.0
0.0,0.0,0.0,0.0
0.0,0.0,0.0,0.0
0.0,0.0,0.0,0.0
0.0,0.0,0.0,0.0
92.105,-4.449,5.792,1.0
0.0,0.0,0.0,0.0
0.0,0.0,0.0,0.0
0.0,0.0,0.0,0.0
0.0,0.0,0.0,0.0
0.0,0.0,0.0,0.0
0.0,0.0,0.0,0.0
0.0,0.0,0.0,0.0
0.0,0.0,0.0,0.0
0.0,0.0,0.0,0.0
0.0,0.0,0.0,0.0
0.0,0.0,0.0,0.0
0.0,0.0,0.0,0.0
0.0,0.0,0.0,0.0
0.0,0.0,0.0,0.0
0.0,0.0,0.0,0.0
0.0,0.0,0.0,0.0
0.0,0.0,0.0,0.0
83.255,-3.596,5.002,5.0
0.0,0.0,0.0,0.0
0.0,0.0,0.0,0.0
0.0,0.0,0.0,0.0
0.0,0.0,0.0,0.0
0.0,0.0,0.0,0.0
0.0,0.0,0.0,0.0
0.0,0.0,0.0,0.0
0.0,0.0,0.0,0.0
0.0,0.0,0.0,0.0
0.0,0.0,0.0,0.0
0.0,0.0,0.0,0.0
98.5,-3.924,5.715,1.0
0.0,0.0,0.0,0.0
0.0,0.0,0.0,0.0
0.0,0.0,0.0,0.0
0.0,0.0,0.0,0.0
0.0,0.0,0.0,0.0
0.0,0.0,0.0,0.0
0.0,0.0,0.0,0.0
0.0,0.0,0.0,0.0
0.0,0.0,0.0,0.0
0.0,0.0,0.0,0.0
0.0,0.0,0.0,0.0
0.0,0.0,0.0,0.0
0.0,0.0,0.0,0.0
0.0,0.0,0.0,0.0
0.0,0.0,0.0,0.0
0.0,0.0,0.0,0.0
0.0,0.0,0.0,0.0
0.0,0.0,0.0,0.0
0.0,0.0,0.0,0.0
0.0,0.0,0.0,0.0
0.0,0.0,0.0,0.0
0.0,0.0,0.0,0.0
0.0,0.0,0.0,0.0
0.0,0.0,0.0,0.0
0.0,0.0,0.0,0.0
148.029,-4.84,6.204,26.0
0.0,0.0,0.0,0.0
0.0,0.0,0.0,0.0
40.32,-1.285,0.99,22.0
0.0,0.0,0.0,0.0
0.0,0.0,0.0,0.0
148.226,-4.61,6.028,26.0
0.0,0.0,0.0,0.0
40.29,-1.23,1.17,13.0
40.311,-1.22,0.94,26.0
0.0,0.0,0.0,0.0
0.0,0.0,0.0,0.0
148.432,-4.38,5.845,4.0
0.0,0.0,0.0,0.0
40.305,-1.168,1.119,13.0
0.0,0.0,0.0,0.0
178.425,-5.082,8.85,26.0
128.857,-3.636,5.648,10.0
40.236,-1.124,1.531,16.0
40.297,-1.115,1.298,6.0
40.197,-1.102,1.063,53.0
40.203,-1.091,0.832,40.0
177.878,-4.791,8.586,29.0
129.019,-3.44,5.482,34.0
40.192,-1.06,1.475,55.0
40.261,-1.052,1.242,49.0
40.189,-1.04,1.008,56.0
40.189,-1.029,0.777,55.0
129.278,-3.282,6.06,36.0
129.318,-3.249,5.316,52.0
40.196,-0.999,1.42,55.0
40.225,-0.989,1.185,54.0
40.191,-0.978,0.952,57.0
40.213,-0.969,0.721,66.0
129.421,-3.089,5.884,39.0
192.965,-4.555,7.658,21.0
40.326,-0.942,1.367,2.0
40.208,-0.928,1.127,56.0
40.192,-0.918,0.895,55.0
40.258,-0.909,0.664,37.0
128.804,-2.88,5.67,32.0
191.383,-4.232,7.318,16.0
40.284,-0.881,1.308,7.0
40.217,-0.869,1.069,54.0
40.209,-0.859,0.837,56.0
40.237,-0.85,0.606,54.0
184.047,-3.846,7.832,31.0
184.61,-3.812,6.788,36.0
40.305,-0.822,1.249,37.0
40.247,-0.811,1.011,43.0
40.192,-0.8,0.777,40.0
40.247,-0.791,0.545,41.0
184.111,-3.579,7.558,23.0
184.652,-3.544,6.51,47.0
40.297,-0.763,1.187,43.0
40.215,-0.752,0.949,51.0
40.177,-0.742,0.715,55.0
40.279,-0.734,0.485,8.0
184.84,-3.329,7.304,28.0
151.407,-2.691,5.106,69.0
151.433,-2.655,4.23,72.0
264.537,-4.577,5.836,43.0
205.423,-3.505,3.343,47.0
123.908,-2.086,1.3,12.0
128.138,-2.127,4.861,14.0
151.437,-2.476,4.866,108.0
151.447,-2.441,3.99,33.0
0.0,0.0,0.0,0.0
205.458,-3.216,3.015,15.0
98.888,-1.525,0.878,5.0
183.391,-2.787,6.662,33.0
151.462,-2.267,4.625,52.0
183.376,-2.703,4.536,67.0
183.39,-2.661,3.457,78.0
148.037,-2.114,1.933,13.0
87.901,-1.235,0.639,6.0
109.603,-1.515,3.802,2.0
109.554,-1.489,3.164,3.0
0.0,0.0,0.0,0.0
79.417,-1.045,1.367,150.0
79.91,-1.034,0.913,4.0
78.327,-0.996,0.441,9.0
79.401,-0.992,2.624,150.0
79.416,-0.976,2.164,150.0
79.431,-0.958,1.704,172.0
79.414,-0.94,1.235,255.0
79.435,-0.923,0.775,151.0
60.779,-0.694,0.241,3.0
79.43,-0.889,2.491,151.0
79.436,-0.871,2.029,161.0
79.434,-0.854,1.568,196.0
79.443,-0.837,1.1,175.0
79.364,-0.82,0.639,58.0
55.385,-0.56,0.125,4.0
79.426,-0.785,2.353,151.0
79.418,-0.769,1.893,188.0
79.432,-0.752,1.432,186.0
79.45,-0.736,0.964,181.0
77.309,-0.701,0.49,12.0
50.152,-0.444,0.027,3.0
79.437,-0.687,2.217,151.0
79.421,-0.671,1.756,194.0
79.443,-0.655,1.295,179.0
79.449,-0.638,0.826,176.0
61.683,-0.483,0.284,7.0
46.241,-0.353,-0.054,4.0
79.433,-0.589,2.077,161.0
79.435,-0.574,1.616,186.0
79.456,-0.558,1.156,171.0
79.424,-0.542,0.686,150.0
56.075,-0.372,0.159,10.0
42.013,-0.27,-0.123,7.0
79.429,-0.496,1.937,178.0
79.431,-0.48,1.476,189.0
79.449,-0.464,1.014,164.0
76.735,-0.434,0.526,14.0
0.0,0.0,0.0,0.0
39.627,-0.208,-0.188,6.0
79.427,-0.402,1.792,169.0
79.442,-0.387,1.331,171.0
79.443,-0.372,0.869,151.0
61.805,-0.277,0.311,6.0
45.345,-0.195,-0.034,20.0
39.122,-0.161,-0.257,4.0
79.411,-0.312,1.647,255.0
79.461,-0.298,1.186,152.0
79.453,-0.283,0.724,150.0
56.096,-0.19,0.18,15.0
41.619,-0.133,-0.107,16.0
36.965,-0.111,-0.31,1.0
79.434,-0.225,1.501,168.0
79.469,-0.211,1.04,152.0
79.194,-0.196,0.576,15.0
0.0,0.0,0.0,0.0
39.746,-0.084,-0.176,19.0
32.875,-0.064,-0.336,1.0
79.454,-0.14,1.353,153.0
79.47,-0.127,0.893,156.0
76.039,-0.108,0.411,11.0
45.471,-0.056,-0.023,20.0
38.706,-0.041,-0.244,8.0
30.941,-0.028,-0.375,1.0
79.459,-0.058,1.204,151.0
79.437,-0.044,0.741,150.0
56.037,-0.022,0.197,19.0
41.0,-0.009,-0.097,17.0
38.065,-0.002,-0.311,1.0
29.695,0.002,-0.415,2.0
79.461,0.021,1.054,151.0
76.463,0.033,0.569,16.0
48.037,0.028,0.078,5.0
39.321,0.029,-0.168,32.0
33.05,0.03,-0.334,1.0
28.563,0.03,-0.454,2.0
79.462,0.098,0.901,151.0
75.787,0.106,0.418,8.0
0.0,0.0,0.0,0.0
38.368,0.065,-0.238,12.0
31.06,0.058,-0.374,1.0
27.205,0.055,-0.485,2.0
79.443,0.173,0.746,150.0
59.088,0.137,0.212,7.0
40.665,0.101,-0.09,16.0
37.831,0.099,-0.308,1.0
29.671,0.082,-0.414,2.0
26.29,0.077,-0.52,3.0
76.644,0.236,0.571,57.0
47.965,0.154,0.079,21.0
39.088,0.131,-0.163,44.0
33.071,0.116,-0.334,1.0
28.524,0.104,-0.454,2.0
25.24,0.096,-0.548,1.0
59.346,0.234,0.326,48.0
0.0,0.0,0.0,0.0
38.172,0.161,-0.233,13.0
30.928,0.134,-0.372,1.0
27.196,0.122,-0.486,2.0
23.919,0.111,-0.567,2.0
54.846,0.261,0.194,56.0
40.256,0.197,-0.091,15.0
37.769,0.19,-0.306,2.0
29.59,0.153,-0.415,2.0
26.237,0.139,-0.521,2.0
23.2,0.126,-0.596,2.0
47.868,0.266,0.074,49.0
38.758,0.221,-0.165,43.0
32.733,0.19,-0.33,1.0
28.338,0.169,-0.454,1.0
25.037,0.152,-0.547,1.0
22.333,0.139,-0.618,2.0
44.905,0.284,-0.02,22.0
37.853,0.244,-0.237,12.0
30.8,0.202,-0.372,2.0
27.052,0.181,-0.487,1.0
23.913,0.163,-0.57,2.0
21.662,0.15,-0.643,4.0
39.677,0.279,-0.096,27.0
37.462,0.268,-0.309,1.0
29.525,0.215,-0.416,2.0
26.015,0.192,-0.52,2.0
23.151,0.174,-0.598,1.0
20.796,0.159,-0.658,0.0
38.404,0.297,-0.17,45.0
32.7,0.256,-0.336,1.0
28.278,0.225,-0.455,1.0
22.093,0.178,-0.486,1.0
21.963,0.18,-0.612,3.0
21.957,0.182,-0.74,1.0
37.632,0.315,-0.243,10.0
30.589,0.26,-0.376,2.0
26.967,0.232,-0.489,1.0
21.647,0.188,-0.521,4.0
21.23,0.187,-0.635,2.0
19.141,0.171,-0.684,0.0
37.24,0.335,-0.316,0.0
29.385,0.267,-0.421,2.0
25.949,0.239,-0.523,1.0
21.087,0.196,-0.55,5.0
20.822,0.196,-0.665,3.0
48.188,0.459,-1.821,4.0
32.204,0.308,-0.339,1.0
27.98,0.271,-0.458,1.0
21.835,0.213,-0.485,4.0
20.605,0.203,-0.58,4.0
20.595,0.205,-0.7,1.0
48.196,0.486,-1.92,30.0
30.282,0.306,-0.381,2.0
26.839,0.274,-0.494,2.0
20.981,0.216,-0.509,4.0
20.242,0.21,-0.611,3.0
19.733,0.207,-0.711,0.0
29.106,0.309,-0.426,2.0
25.797,0.276,-0.528,1.0
20.222,0.218,-0.532,3.0
19.949,0.217,-0.643,2.0
19.982,0.219,-0.761,2.0
27.592,0.306,-0.46,1.0
21.649,0.241,-0.487,4.0
19.754,0.222,-0.56,6.0
19.714,0.223,-0.676,1.0
48.233,0.551,-1.936,4.0
16.212,0.186,-0.745,0.0
26.595,0.306,-0.498,2.0
20.702,0.239,-0.508,4.0
19.456,0.227,-0.591,6.0
19.449,0.228,-0.707,2.0
15.625,0.186,-0.751,0.0
22.259,0.264,-0.462,1.0
19.863,0.237,-0.529,3.0
19.199,0.231,-0.623,5.0
19.303,0.234,-0.741,2.0
15.151,0.185,-0.759,1.0
21.432,0.262,-0.489,4.0
19.254,0.237,-0.552,4.0
18.969,0.235,-0.654,3.0
19.096,0.237,-0.772,2.0
16.027,0.2,-0.742,0.0
14.916,0.187,-0.777,1.0
20.512,0.257,-0.51,4.0
18.913,0.238,-0.581,5.0
18.899,0.239,-0.69,1.0
18.782,0.239,-0.798,1.0
15.561,0.199,-0.752,0.0
14.543,0.187,-0.788,0.0
19.649,0.252,-0.528,3.0
18.632,0.24,-0.61,7.0
18.769,0.242,-0.724,2.0
15.115,0.197,-0.761,1.0
14.068,0.184,-0.791,0.0
18.994,0.248,-0.55,4.0
18.545,0.243,-0.645,3.0
18.623,0.245,-0.757,2.0
15.869,0.209,-0.739,0.0
14.861,0.197,-0.779,1.0
13.687,0.182,-0.798,1.0
18.557,0.245,-0.575,5.0
18.436,0.245,-0.679,3.0
18.414,0.245,-0.786,2.0
15.443,0.206,-0.751,0.0
14.44,0.194,-0.786,0.0
13.368,0.18,-0.806,1.0
18.354,0.246,-0.606,6.0
18.485,0.248,-0.718,2.0
18.22,0.245,-0.814,0.0
15.091,0.204,-0.764,1.0
14.005,0.19,-0.791,0.0
13.026,0.177,-0.812,1.0
18.324,0.247,-0.642,5.0
18.412,0.249,-0.753,2.0
15.796,0.214,-0.738,0.0
14.8,0.201,-0.78,1.0
13.648,0.186,-0.799,1.0
12.741,0.174,-0.82,1.0
18.339,0.249,-0.68,2.0
18.313,0.249,-0.786,2.0
15.378,0.21,-0.75,0.0
14.381,0.197,-0.787,0.0
13.323,0.182,-0.807,1.0
12.442,0.171,-0.826,1.0
18.369,0.25,-0.718,1.0
18.108,0.247,-0.813,1.0
15.077,0.206,-0.765,1.0
13.936,0.191,-0.79,0.0
12.969,0.178,-0.811,0.0
12.139,0.167,-0.83,1.0
18.362,0.25,-0.754,2.0
15.742,0.215,-0.738,0.0
14.761,0.202,-0.779,0.0
13.596,0.186,-0.798,1.0
12.695,0.174,-0.819,1.0
11.89,0.163,-0.837,1.0
18.336,0.249,-0.789,2.0
15.356,0.209,-0.751,0.0
14.346,0.195,-0.785,0.0
13.269,0.181,-0.805,1.0
12.404,0.169,-0.825,1.0
11.639,0.159,-0.843,0.0
18.154,0.245,-0.817,0.0
15.049,0.204,-0.765,2.0
13.938,0.189,-0.79,0.0
12.965,0.176,-0.812,1.0
12.115,0.164,-0.83,1.0
11.387,0.154,-0.847,0.0
15.718,0.211,-0.738,0.0
14.718,0.197,-0.777,0.0
13.603,0.182,-0.798,1.0
12.663,0.17,-0.818,1.0
11.879,0.159,-0.837,1.0
11.122,0.149,-0.849,0.0
15.297,0.203,-0.748,0.0
14.341,0.19,-0.785,0.0
13.265,0.176,-0.803,1.0
12.4,0.164,-0.825,1.0
11.623,0.154,-0.841,0.0
10.887,0.144,-0.852,0.0
15.043,0.197,-0.764,2.0
13.915,0.182,-0.788,0.0
12.949,0.169,-0.809,1.0
12.119,0.158,-0.83,1.0
11.373,0.148,-0.845,0.0
10.7,0.139,-0.858,0.0
14.718,0.189,-0.776,1.0
13.582,0.174,-0.795,1.0
12.675,0.163,-0.816,1.0
11.872,0.152,-0.835,1.0
11.108,0.142,-0.847,1.0
10.505,0.134,-0.862,1.0
14.335,0.181,-0.783,0.0
13.275,0.167,-0.803,1.0
12.404,0.156,-0.822,1.0
11.633,0.146,-0.84,0.0
10.889,0.136,-0.85,1.0
10.387,0.13,-0.872,0.0
13.939,0.171,-0.788,1.0
12.965,0.159,-0.808,1.0
12.122,0.148,-0.826,1.0
11.382,0.139,-0.844,0.0
10.733,0.131,-0.858,0.0
10.12,0.123,-0.868,0.0
13.602,0.163,-0.793,1.0
12.705,0.152,-0.815,1.0
11.896,0.142,-0.833,1.0
11.126,0.132,-0.845,1.0
10.555,0.125,-0.864,0.0
9.949,0.118,-0.872,0.0
13.298,0.154,-0.8,1.0
12.448,0.144,-0.821,1.0
11.662,0.135,-0.838,1.0
10.939,0.126,-0.851,0.0
10.42,0.12,-0.871,0.0
9.786,0.112,-0.876,0.0
12.997,0.146,-0.805,1.0
12.161,0.136,-0.824,1.0
11.413,0.127,-0.84,0.0
10.775,0.12,-0.857,0.0
10.18,0.112,-0.87,0.0
9.616,0.106,-0.878,0.0
12.732,0.137,-0.812,1.0
11.934,0.128,-0.83,1.0
11.192,0.12,-0.844,1.0
10.583,0.113,-0.861,0.0
9.986,0.106,-0.871,0.0
9.479,0.1,-0.882,0.0
12.497,0.129,-0.819,1.0
11.7,0.12,-0.835,1.0
11.01,0.112,-0.85,0.0
10.42,0.106,-0.866,0.0
9.825,0.099,-0.874,0.0
9.337,0.094,-0.886,0.0
12.219,0.12,-0.822,1.0
11.495,0.112,-0.84,0.0
10.815,0.105,-0.854,0.0
10.23,0.099,-0.868,0.0
9.658,0.093,-0.876,0.0
9.202,0.088,-0.889,0.0
11.978,0.111,-0.826,1.0
11.269,0.104,-0.843,1.0
10.61,0.097,-0.855,0.0
10.045,0.091,-0.87,0.0
9.531,0.086,-0.881,0.0
9.059,0.081,-0.89,0.0
11.769,0.103,-0.831,0.0
11.059,0.096,-0.845,0.0
10.446,0.09,-0.859,0.0
9.87,0.084,-0.871,0.0
9.375,0.079,-0.882,0.0
8.936,0.075,-0.893,0.0
11.569,0.094,-0.836,0.0
10.868,0.088,-0.849,0.0
10.288,0.082,-0.863,0.0
9.718,0.077,-0.873,0.0
9.261,0.073,-0.886,0.0
8.816,0.069,-0.895,0.0
11.357,0.085,-0.839,0.0
10.706,0.08,-0.853,0.0
10.128,0.075,-0.866,0.0
9.597,0.07,-0.878,0.0
9.142,0.066,-0.89,0.0
8.693,0.062,-0.897,0.0
11.131,0.076,-0.84,0.0
10.53,0.071,-0.856,0.0
9.97,0.067,-0.869,0.0
9.448,0.062,-0.879,0.0
9.011,0.059,-0.891,0.0
8.584,0.055,-0.899,0.0
10.966,0.068,-0.845,0.0
10.385,0.063,-0.861,0.0
9.827,0.059,-0.872,0.0
9.364,0.055,-0.886,0.0
8.876,0.052,-0.892,0.0
8.472,0.049,-0.901,0.0
10.826,0.059,-0.851,0.0
10.235,0.055,-0.864,0.0
9.697,0.051,-0.875,0.0
9.203,0.048,-0.885,0.0
8.765,0.045,-0.894,0.0
8.392,0.042,-0.905,0.0
10.667,0.05,-0.854,0.0
10.079,0.047,-0.866,0.0
9.561,0.043,-0.877,0.0
9.106,0.04,-0.889,0.0
8.661,0.037,-0.896,0.0
8.301,0.035,-0.908,0.0
10.506,0.041,-0.857,0.0
9.93,0.038,-0.868,0.0
9.457,0.035,-0.881,0.0
8.989,0.033,-0.891,0.0
8.569,0.03,-0.899,0.0
8.221,0.028,-0.911,0.0
10.373,0.033,-0.861,0.0
9.821,0.03,-0.872,0.0
9.318,0.027,-0.882,0.0
8.862,0.025,-0.891,0.0
8.46,0.023,-0.9,0.0
8.124,0.021,-0.912,0.0
10.236,0.024,-0.864,0.0
9.703,0.021,-0.875,0.0
9.232,0.019,-0.887,0.0
8.78,0.017,-0.895,0.0
8.379,0.016,-0.903,0.0
8.036,0.014,-0.913,0.0
10.092,0.015,-0.866,0.0
9.584,0.013,-0.878,0.0
9.138,0.011,-0.89,0.0
8.67,0.01,-0.896,0.0
8.323,0.008,-0.908,0.0
7.978,0.007,-0.917,0.0
9.947,0.006,-0.866,0.0
9.489,0.005,-0.882,0.0
9.013,0.003,-0.89,0.0
8.574,0.002,-0.897,0.0
8.242,0.001,-0.911,0.0
7.898,0.0,-0.919,0.0
9.834,-0.002,-0.869,0.0
9.383,-0.003,-0.884,0.0
8.893,-0.004,-0.889,0.0
8.492,-0.005,-0.9,0.0
8.158,-0.006,-0.912,0.0
7.832,-0.006,-0.921,0.0
9.726,-0.011,-0.872,0.0
9.27,-0.011,-0.885,0.0
8.824,-0.012,-0.894,0.0
8.404,-0.013,-0.901,0.0
8.071,-0.013,-0.912,0.0
7.763,-0.014,-0.923,0.0
9.632,-0.02,-0.875,0.0
9.157,-0.02,-0.885,0.0
8.735,-0.02,-0.895,0.0
8.328,-0.02,-0.903,0.0
8.021,-0.021,-0.916,0.0
7.696,-0.021,-0.924,0.0
9.535,-0.029,-0.878,0.0
9.063,-0.028,-0.887,0.0
8.633,-0.028,-0.895,0.0
8.272,-0.028,-0.906,0.0
7.942,-0.028,-0.916,0.0
7.628,-0.028,-0.925,0.0
9.447,-0.038,-0.881,0.0
8.997,-0.037,-0.891,0.0
8.56,-0.036,-0.897,0.0
8.225,-0.036,-0.91,0.0
7.885,-0.036,-0.919,0.0
7.568,-0.036,-0.926,0.0
9.347,-0.047,-0.882,0.0
8.89,-0.046,-0.89,0.0
8.477,-0.045,-0.898,0.0
8.147,-0.044,-0.911,0.0
7.827,-0.044,-0.92,0.0
7.506,-0.043,-0.926,0.0
9.277,-0.056,-0.885,0.0
8.832,-0.054,-0.893,0.0
8.438,-0.053,-0.902,0.0
8.066,-0.052,-0.91,0.0
7.759,-0.051,-0.921,0.0
7.465,-0.051,-0.929,0.0
9.185,-0.065,-0.886,0.0
8.733,-0.063,-0.892,0.0
8.357,-0.062,-0.902,0.0
8.016,-0.06,-0.913,0.0
7.711,-0.059,-0.923,0.0
7.401,-0.058,-0.929,0.0
9.095,-0.074,-0.886,0.0
8.668,-0.072,-0.894,0.0
8.291,-0.07,-0.903,0.0
7.953,-0.068,-0.913,0.0
7.659,-0.067,-0.924,0.0
7.358,-0.066,-0.93,0.0
9.023,-0.083,-0.887,0.0
8.6,-0.08,-0.895,0.0
8.245,-0.078,-0.906,0.0
7.91,-0.076,-0.916,0.0
7.613,-0.075,-0.925,0.0
7.315,-0.073,-0.932,0.0
8.954,-0.092,-0.888,0.0
8.544,-0.089,-0.897,0.0
8.18,-0.087,-0.906,0.0
7.87,-0.085,-0.918,0.0
7.55,-0.083,-0.924,0.0
7.274,-0.081,-0.933,0.0
8.891,-0.101,-0.89,0.0
8.484,-0.098,-0.898,0.0
8.134,-0.095,-0.908,0.0
7.826,-0.093,-0.919,0.0
7.523,-0.091,-0.927,0.0
7.223,-0.088,-0.932,0.0
8.831,-0.11,-0.891,0.0
8.431,-0.107,-0.899,0.0
8.091,-0.104,-0.909,0.0
7.766,-0.101,-0.919,0.0
7.489,-0.099,-0.929,0.0
7.181,-0.096,-0.933,0.0
8.756,-0.119,-0.89,0.0
8.392,-0.116,-0.901,0.0
8.042,-0.112,-0.91,0.0
7.733,-0.109,-0.92,0.0
7.426,-0.106,-0.927,0.0
7.172,-0.104,-0.937,0.0
8.721,-0.129,-0.893,0.0
8.356,-0.125,-0.904,0.0
8.005,-0.121,-0.912,0.0
7.694,-0.118,-0.921,0.0
7.404,-0.114,-0.929,0.0
7.137,-0.112,-0.937,0.0
8.678,-0.138,-0.895,0.0
8.306,-0.133,-0.904,0.0
7.974,-0.13,-0.913,0.0
7.646,-0.126,-0.921,0.0
7.377,-0.123,-0.931,0.0
7.099,-0.119,-0.937,0.0
8.622,-0.147,-0.894,0.0
8.274,-0.142,-0.905,0.0
7.933,-0.138,-0.914,0.0
7.617,-0.134,-0.922,0.0
7.338,-0.131,-0.93,0.0
7.067,-0.127,-0.937,0.0
8.583,-0.156,-0.895,0.0
8.238,-0.151,-0.906,0.0
7.901,-0.147,-0.915,0.0
7.597,-0.143,-0.924,0.0
7.308,-0.139,-0.931,0.0
7.045,-0.135,-0.938,0.0
8.558,-0.166,-0.897,0.0
8.201,-0.16,-0.907,0.0
7.886,-0.156,-0.917,0.0
7.57,-0.151,-0.924,0.0
7.286,-0.147,-0.932,0.0
7.016,-0.143,-0.937,0.0
8.517,-0.175,-0.897,0.0
8.16,-0.169,-0.906,0.0
7.868,-0.165,-0.919,0.0
7.565,-0.16,-0.927,0.0
7.25,-0.155,-0.93,0.0
7.013,-0.151,-0.94,0.0
8.495,-0.184,-0.899,0.0
8.155,-0.179,-0.909,0.0
7.833,-0.173,-0.918,0.0
7.537,-0.168,-0.927,0.0
7.249,-0.163,-0.933,0.0
6.986,-0.159,-0.94,0.0
8.463,-0.194,-0.899,0.0
8.139,-0.188,-0.911,0.0
7.801,-0.182,-0.917,0.0
7.496,-0.176,-0.925,0.0
7.211,-0.171,-0.931,0.0
6.969,-0.167,-0.94,0.0
8.428,-0.203,-0.898,0.0
8.087,-0.196,-0.908,0.0
7.791,-0.191,-0.919,0.0
7.481,-0.185,-0.926,0.0
7.217,-0.179,-0.935,0.0
6.949,-0.174,-0.94,0.0
8.416,-0.212,-0.9,0.0
8.079,-0.205,-0.909,0.0
7.791,-0.2,-0.921,0.0
7.489,-0.194,-0.929,0.0
7.2,-0.188,-0.934,0.0
6.94,-0.182,-0.94,0.0
8.399,-0.222,-0.9,0.0
8.058,-0.215,-0.909,0.0
7.763,-0.208,-0.92,0.0
7.466,-0.202,-0.928,0.0
7.182,-0.196,-0.934,0.0
6.946,-0.191,-0.943,0.0
8.399,-0.232,-0.902,0.0
8.063,-0.224,-0.911,0.0
7.741,-0.217,-0.919,0.0
7.448,-0.21,-0.927,0.0
7.173,-0.204,-0.934,0.0
6.953,-0.199,-0.945,0.0
8.371,-0.241,-0.9,0.0
8.048,-0.233,-0.911,0.0
7.744,-0.226,-0.921,0.0
7.445,-0.219,-0.928,0.0
7.167,-0.212,-0.934,0.0
6.936,-0.207,-0.944,0.0
8.378,-0.251,-0.902,0.0
8.054,-0.243,-0.913,0.0
7.748,-0.235,-0.922,0.0
7.425,-0.227,-0.927,0.0
7.161,-0.221,-0.934,0.0
6.929,-0.215,-0.944,0.0
8.359,-0.26,-0.901,0.0
8.024,-0.252,-0.91,0.0
7.745,-0.244,-0.922,0.0
7.433,-0.236,-0.928,0.0
7.16,-0.229,-0.935,0.0
6.922,-0.223,-0.943,0.0
8.366,-0.27,-0.902,0.0
8.045,-0.262,-0.913,0.0
7.734,-0.253,-0.921,0.0
7.427,-0.245,-0.927,0.0
7.153,-0.237,-0.934,0.0
6.928,-0.231,-0.944,0.0
8.363,-0.28,-0.902,0.0
8.025,-0.27,-0.91,0.0
7.72,-0.262,-0.919,0.0
7.424,-0.253,-0.927,0.0
7.163,-0.246,-0.935,0.0
6.92,-0.239,-0.942,0.0
8.348,-0.289,-0.9,0.0
8.042,-0.28,-0.912,0.0
7.724,-0.271,-0.919,0.0
7.436,-0.262,-0.928,0.0
7.174,-0.255,-0.936,0.0
6.915,-0.247,-0.941,0.0
8.356,-0.299,-0.9,0.0
8.051,-0.29,-0.912,0.0
7.744,-0.28,-0.921,0.0
7.441,-0.271,-0.927,0.0
7.182,-0.263,-0.936,0.0
6.909,-0.255,-0.939,0.0
8.377,-0.309,-0.901,0.0
8.047,-0.299,-0.91,0.0
7.748,-0.289,-0.92,0.0
7.438,-0.279,-0.926,0.0
7.2,-0.272,-0.937,0.0
6.933,-0.263,-0.941,0.0
8.401,-0.32,-0.902,0.0
8.049,-0.308,-0.909,0.0
7.756,-0.298,-0.919,0.0
7.476,-0.289,-0.929,0.0
7.201,-0.28,-0.935,0.0
6.944,-0.272,-0.941,0.0
8.399,-0.329,-0.9,0.0
8.065,-0.317,-0.909,0.0
7.773,-0.308,-0.92,0.0
7.475,-0.297,-0.927,0.0
7.208,-0.288,-0.934,0.0
6.958,-0.28,-0.941,0.0
8.421,-0.339,-0.9,0.0
8.091,-0.327,-0.91,0.0
7.789,-0.317,-0.919,0.0
7.477,-0.306,-0.925,0.0
7.213,-0.296,-0.933,0.0
6.959,-0.288,-0.939,0.0
8.452,-0.349,-0.9,0.0
8.101,-0.336,-0.908,0.0
7.797,-0.326,-0.917,0.0
7.51,-0.315,-0.926,0.0
7.266,-0.306,-0.937,0.0
6.988,-0.296,-0.94,0.0
8.472,-0.359,-0.899,0.0
8.134,-0.347,-0.909,0.0
7.84,-0.336,-0.92,0.0
7.52,-0.324,-0.925,0.0
7.277,-0.315,-0.935,0.0
7.016,-0.305,-0.941,0.0
8.495,-0.369,-0.898,0.0
8.164,-0.357,-0.909,0.0
7.845,-0.344,-0.917,0.0
7.546,-0.333,-0.925,0.0
7.287,-0.323,-0.934,0.0
7.04,-0.313,-0.941,0.0
8.534,-0.38,-0.899,0.0
8.186,-0.366,-0.907,0.0
7.857,-0.353,-0.915,0.0
7.57,-0.342,-0.924,0.0
7.292,-0.331,-0.931,0.0
7.059,-0.322,-0.94,0.0
8.559,-0.39,-0.897,0.0
8.201,-0.375,-0.905,0.0
7.891,-0.362,-0.914,0.0
7.608,-0.351,-0.925,0.0
7.329,-0.34,-0.931,0.0
7.076,-0.329,-0.939,0.0
8.592,-0.4,-0.896,0.0
8.232,-0.385,-0.904,0.0
7.942,-0.373,-0.916,0.0
7.627,-0.36,-0.923,0.0
7.353,-0.348,-0.93,0.0
7.104,-0.338,-0.938,0.0
8.648,-0.411,-0.897,0.0
8.278,-0.395,-0.904,0.0
7.953,-0.381,-0.912,0.0
7.668,-0.369,-0.923,0.0
7.39,-0.357,-0.931,0.0
7.126,-0.346,-0.937,0.0
8.674,-0.42,-0.894,0.0
8.328,-0.405,-0.904,0.0
7.988,-0.39,-0.911,0.0
7.685,-0.377,-0.92,0.0
7.412,-0.365,-0.929,0.0
7.162,-0.354,-0.937,0.0
8.711,-0.43,-0.892,0.0
8.361,-0.415,-0.902,0.0
8.031,-0.4,-0.911,0.0
7.725,-0.386,-0.92,0.0
7.46,-0.375,-0.929,0.0
7.198,-0.363,-0.936,0.0
8.773,-0.442,-0.892,0.0
8.414,-0.425,-0.902,0.0
8.06,-0.409,-0.908,0.0
7.787,-0.397,-0.921,0.0
7.495,-0.383,-0.928,0.0
7.221,-0.371,-0.934,0.0
8.841,-0.453,-0.893,0.0
8.463,-0.435,-0.901,0.0
8.117,-0.419,-0.908,0.0
7.831,-0.406,-0.92,0.0
7.548,-0.393,-0.929,0.0
7.265,-0.379,-0.934,0.0
8.894,-0.463,-0.891,0.0
8.519,-0.446,-0.9,0.0
8.159,-0.428,-0.907,0.0
7.873,-0.415,-0.919,0.0
7.585,-0.401,-0.927,0.0
7.293,-0.387,-0.932,0.0
8.969,-0.475,-0.891,0.0
8.57,-0.455,-0.898,0.0
8.226,-0.439,-0.907,0.0
7.892,-0.422,-0.915,0.0
7.632,-0.41,-0.926,0.0
7.343,-0.396,-0.932,0.0
9.03,-0.486,-0.889,0.0
8.643,-0.466,-0.898,0.0
8.277,-0.448,-0.906,0.0
7.946,-0.432,-0.914,0.0
7.678,-0.419,-0.925,0.0
7.396,-0.404,-0.932,0.0
9.11,-0.497,-0.889,0.0
8.692,-0.476,-0.896,0.0
8.343,-0.458,-0.905,0.0
7.989,-0.44,-0.911,0.0
7.719,-0.427,-0.923,0.0
7.446,-0.413,-0.931,0.0
9.186,-0.508,-0.888,0.0
8.758,-0.486,-0.894,0.0
8.388,-0.467,-0.902,0.0
8.059,-0.45,-0.912,0.0
7.776,-0.436,-0.922,0.0
7.489,-0.421,-0.929,0.0
9.245,-0.518,-0.885,0.0
8.831,-0.497,-0.893,0.0
8.453,-0.477,-0.901,0.0
8.118,-0.459,-0.91,0.0
7.828,-0.444,-0.92,0.0
7.533,-0.429,-0.927,0.0
9.342,-0.531,-0.885,0.0
8.904,-0.507,-0.892,0.0
8.546,-0.488,-0.902,0.0
8.165,-0.468,-0.907,0.0
7.871,-0.452,-0.917,0.0
7.61,-0.438,-0.928,0.0
9.413,-0.541,-0.882,0.0
9.002,-0.519,-0.892,0.0
8.587,-0.496,-0.897,0.0
8.24,-0.477,-0.907,0.0
7.926,-0.46,-0.915,0.0
7.651,-0.446,-0.925,0.0
9.515,-0.553,-0.881,0.0
9.092,-0.53,-0.891,0.0
8.666,-0.506,-0.896,0.0
8.328,-0.488,-0.907,0.0
7.992,-0.469,-0.914,0.0
7.715,-0.454,-0.924,0.0
9.626,-0.565,-0.881,0.0
9.174,-0.54,-0.889,0.0
8.756,-0.517,-0.896,0.0
8.39,-0.496,-0.905,0.0
8.06,-0.478,-0.913,0.0
7.762,-0.462,-0.921,0.0
9.734,-0.577,-0.88,1.0
9.253,-0.55,-0.886,0.0
8.849,-0.527,-0.895,0.0
8.462,-0.505,-0.903,0.0
8.149,-0.488,-0.913,0.0
7.835,-0.47,-0.921,0.0
9.791,-0.586,-0.874,2.0
9.351,-0.561,-0.885,0.0
8.913,-0.536,-0.891,0.0
8.553,-0.516,-0.902,0.0
8.196,-0.495,-0.909,0.0
7.892,-0.478,-0.918,0.0
9.878,-0.596,-0.869,2.0
9.447,-0.572,-0.882,0.0
9.03,-0.548,-0.892,0.0
8.638,-0.525,-0.9,0.0
8.28,-0.504,-0.908,0.0
7.964,-0.486,-0.916,0.0
9.973,-0.607,-0.866,1.0
9.565,-0.583,-0.881,0.0
9.144,-0.559,-0.892,0.0
8.709,-0.533,-0.897,0.0
8.358,-0.513,-0.906,0.0
8.037,-0.494,-0.915,0.0
10.129,-0.621,-0.866,0.0
9.703,-0.596,-0.882,0.0
9.231,-0.568,-0.888,0.0
8.82,-0.544,-0.897,0.0
8.455,-0.522,-0.905,0.0
8.111,-0.502,-0.912,0.0
10.286,-0.635,-0.867,0.0
9.781,-0.605,-0.876,2.0
9.351,-0.579,-0.888,0.0
8.929,-0.554,-0.897,0.0
8.545,-0.531,-0.904,0.0
8.201,-0.511,-0.912,0.0
10.421,-0.647,-0.864,0.0
9.867,-0.614,-0.871,2.0
9.447,-0.589,-0.884,0.0
9.015,-0.563,-0.893,0.0
8.615,-0.539,-0.9,0.0
8.261,-0.517,-0.907,0.0
10.559,-0.659,-0.862,0.0
9.97,-0.623,-0.867,1.0
9.563,-0.599,-0.882,0.0
9.13,-0.573,-0.892,0.0
8.719,-0.548,-0.899,0.0
8.375,-0.527,-0.908,0.0
10.698,-0.671,-0.858,0.0
10.128,-0.636,-0.867,0.0
9.696,-0.61,-0.881,0.0
9.25,-0.583,-0.891,0.0
8.831,-0.557,-0.898,0.0
8.452,-0.534,-0.905,0.0
10.837,-0.683,-0.855,0.0
10.288,-0.649,-0.866,0.0
9.773,-0.617,-0.875,2.0
9.354,-0.592,-0.888,0.0
8.932,-0.566,-0.895,0.0
8.555,-0.543,-0.903,0.0
11.012,-0.696,-0.853,0.0
10.45,-0.662,-0.865,0.0
9.889,-0.627,-0.871,2.0
9.462,-0.601,-0.885,0.0
9.05,-0.575,-0.894,0.0
8.655,-0.551,-0.901,0.0
11.166,-0.708,-0.849,0.0
10.599,-0.673,-0.862,0.0
10.026,-0.637,-0.868,0.0
9.599,-0.611,-0.883,0.0
9.182,-0.585,-0.894,0.0
8.76,-0.559,-0.9,0.0
11.319,-0.72,-0.844,0.0
10.755,-0.685,-0.859,0.0
10.19,-0.649,-0.868,0.0
9.726,-0.62,-0.881,1.0
9.296,-0.593,-0.891,0.0
8.875,-0.567,-0.898,0.0
11.504,-0.733,-0.841,0.0
10.891,-0.694,-0.853,0.0
10.369,-0.662,-0.867,0.0
9.816,-0.627,-0.874,2.0
9.414,-0.602,-0.888,0.0
8.99,-0.575,-0.896,0.0
11.682,-0.745,-0.836,0.0
11.084,-0.707,-0.852,0.0
10.531,-0.673,-0.865,0.0
9.946,-0.636,-0.871,1.0
9.531,-0.61,-0.885,0.0
9.115,-0.583,-0.895,0.0
11.875,-0.758,-0.832,0.0
11.244,-0.718,-0.847,0.0
10.676,-0.682,-0.861,0.0
10.109,-0.646,-0.869,0.0
9.661,-0.618,-0.882,0.0
9.24,-0.591,-0.893,0.0
12.068,-0.77,-0.827,0.0
11.425,-0.729,-0.843,0.0
10.829,-0.692,-0.856,0.0
10.31,-0.659,-0.871,0.0
9.783,-0.625,-0.878,2.0
9.351,-0.598,-0.889,0.0
12.282,-0.783,-0.823,0.0
11.6,-0.74,-0.838,0.0
11.014,-0.703,-0.854,0.0
10.458,-0.667,-0.867,0.0
9.889,-0.631,-0.872,2.0
9.489,-0.606,-0.887,0.0
12.5,-0.796,-0.818,0.0
11.822,-0.753,-0.836,0.0
11.189,-0.713,-0.85,0.0
10.615,-0.676,-0.864,0.0
10.04,-0.64,-0.87,0.0
9.627,-0.614,-0.885,0.0
12.74,-0.809,-0.814,1.0
12.018,-0.764,-0.831,0.0
11.387,-0.724,-0.847,0.0
10.767,-0.684,-0.859,0.0
10.248,-0.651,-0.871,0.0
9.762,-0.621,-0.882,2.0
12.965,-0.822,-0.808,0.0
12.21,-0.774,-0.825,0.0
11.567,-0.733,-0.842,0.0
10.935,-0.693,-0.855,0.0
10.406,-0.659,-0.868,0.0
9.875,-0.626,-0.876,2.0
13.251,-0.837,-0.804,0.0
12.45,-0.786,-0.821,0.0
11.758,-0.742,-0.837,0.0
11.139,-0.703,-0.852,0.0
10.575,-0.667,-0.865,0.0
10.019,-0.632,-0.872,1.0
13.49,-0.848,-0.797,1.0
12.675,-0.797,-0.815,1.0
11.966,-0.752,-0.832,0.0
11.311,-0.711,-0.847,0.0
10.74,-0.675,-0.861,0.0
10.21,-0.641,-0.872,0.0
13.754,-0.861,-0.79,1.0
12.942,-0.81,-0.811,0.0
12.189,-0.762,-0.828,0.0
11.517,-0.72,-0.844,0.0
10.916,-0.682,-0.857,0.0
10.39,-0.649,-0.87,0.0
14.019,-0.873,-0.782,1.0
13.198,-0.821,-0.805,0.0
12.406,-0.771,-0.822,0.0
11.705,-0.727,-0.838,0.0
11.106,-0.69,-0.854,0.0
10.572,-0.656,-0.868,0.0
14.352,-0.888,-0.777,1.0
13.441,-0.831,-0.798,1.0
12.637,-0.781,-0.817,1.0
11.916,-0.736,-0.834,0.0
11.295,-0.697,-0.85,0.0
10.735,-0.662,-0.864,0.0
14.672,-0.902,-0.771,1.0
13.72,-0.842,-0.792,1.0
12.889,-0.791,-0.812,0.0
12.146,-0.745,-0.83,0.0
11.495,-0.704,-0.846,0.0
10.905,-0.667,-0.86,0.0
15.036,-0.917,-0.765,1.0
13.997,-0.853,-0.785,1.0
13.183,-0.802,-0.808,0.0
12.36,-0.751,-0.824,1.0
11.705,-0.711,-0.841,0.0
11.086,-0.673,-0.855,0.0
15.397,-0.931,-0.758,1.0
14.323,-0.865,-0.779,1.0
13.417,-0.809,-0.8,1.0
12.6,-0.759,-0.819,1.0
11.915,-0.717,-0.836,0.0
11.29,-0.679,-0.852,0.0
15.76,-0.945,-0.749,1.0
14.655,-0.877,-0.773,1.0
13.692,-0.818,-0.793,1.0
12.869,-0.768,-0.814,0.0
12.145,-0.724,-0.832,0.0
11.491,-0.684,-0.848,0.0
16.146,-0.958,-0.74,1.0
15.003,-0.889,-0.766,1.0
13.977,-0.827,-0.787,1.0
13.135,-0.776,-0.809,0.0
12.376,-0.73,-0.827,0.0
11.692,-0.688,-0.843,0.0
16.611,-0.975,-0.734,1.0
15.39,-0.902,-0.76,1.0
14.29,-0.836,-0.78,1.0
13.41,-0.783,-0.804,1.0
12.598,-0.735,-0.821,1.0
11.904,-0.693,-0.838,0.0
17.073,-0.991,-0.726,1.0
15.746,-0.912,-0.751,1.0
14.632,-0.846,-0.774,1.0
13.675,-0.789,-0.797,1.0
12.845,-0.74,-0.815,0.0
12.126,-0.697,-0.833,0.0
17.518,-1.004,-0.715,1.0
16.126,-0.922,-0.742,1.0
14.999,-0.856,-0.769,1.0
13.935,-0.794,-0.788,1.0
13.118,-0.746,-0.811,0.0
12.338,-0.7,-0.827,0.0
18.026,-1.019,-0.706,1.0
16.586,-0.936,-0.736,1.0
15.346,-0.864,-0.761,1.0
14.266,-0.801,-0.783,1.0
13.388,-0.75,-0.805,1.0
12.589,-0.704,-0.823,1.0
18.515,-1.032,-0.694,1.0
17.036,-0.947,-0.727,1.0
15.71,-0.871,-0.753,1.0
14.585,-0.807,-0.776,1.0
13.65,-0.754,-0.798,1.0
12.844,-0.707,-0.818,1.0
19.024,-1.045,-0.682,1.0
17.511,-0.959,-0.719,1.0
16.106,-0.88,-0.745,1.0
14.942,-0.814,-0.771,1.0
13.919,-0.756,-0.79,1.0
13.1,-0.71,-0.813,0.0
19.603,-1.059,-0.67,1.0
17.989,-0.969,-0.708,1.0
16.528,-0.888,-0.737,1.0
15.304,-0.82,-0.764,1.0
14.25,-0.761,-0.786,1.0
13.387,-0.713,-0.808,1.0
20.207,-1.073,-0.657,1.0
18.446,-0.976,-0.696,1.0
16.97,-0.896,-0.729,1.0
15.662,-0.824,-0.756,1.0
14.573,-0.764,-0.779,1.0
13.618,-0.712,-0.8,1.0
20.871,-1.088,-0.644,1.0
18.974,-0.986,-0.685,2.0
17.478,-0.905,-0.722,1.0
16.005,-0.826,-0.746,1.0
14.907,-0.767,-0.773,1.0
13.88,-0.712,-0.792,1.0
21.527,-1.1,-0.629,1.0
19.552,-0.996,-0.674,1.0
17.894,-0.909,-0.71,1.0
16.455,-0.833,-0.74,1.0
15.255,-0.769,-0.766,1.0
14.197,-0.713,-0.787,0.0
22.3,-1.117,-0.616,1.0
20.107,-1.003,-0.66,1.0
18.377,-0.913,-0.699,1.0
16.915,-0.838,-0.733,1.0
15.621,-0.771,-0.759,1.0
14.502,-0.713,-0.78,1.0
23.073,-1.13,-0.6,2.0
20.763,-1.013,-0.648,1.0
18.867,-0.917,-0.687,1.0
17.346,-0.84,-0.724,1.0
15.953,-0.77,-0.749,1.0
14.875,-0.715,-0.777,1.0
23.769,-1.138,-0.58,2.0
21.403,-1.021,-0.634,1.0
19.451,-0.924,-0.678,1.0
17.811,-0.842,-0.715,2.0
16.387,-0.772,-0.744,1.0
15.184,-0.712,-0.769,1.0
24.801,-1.159,-0.566,1.0
22.129,-1.029,-0.62,1.0
19.975,-0.925,-0.664,1.0
18.254,-0.842,-0.704,2.0
16.803,-0.771,-0.736,1.0
15.527,-0.71,-0.761,1.0
25.544,-1.163,-0.542,1.0
22.901,-1.038,-0.606,1.0
20.576,-0.928,-0.652,1.0
18.73,-0.841,-0.693,1.0
17.254,-0.771,-0.729,1.0
15.891,-0.707,-0.754,1.0
26.419,-1.17,-0.52,1.0
23.579,-1.039,-0.587,1.0
21.235,-0.931,-0.64,1.0
19.245,-0.84,-0.682,1.0
17.694,-0.768,-0.72,1.0
16.276,-0.703,-0.747,1.0
27.301,-1.174,-0.495,1.0
24.482,-1.047,-0.571,1.0
21.949,-0.934,-0.627,1.0
19.794,-0.838,-0.671,1.0
18.103,-0.762,-0.708,1.0
16.675,-0.698,-0.74,1.0
28.432,-1.186,-0.471,2.0
25.262,-1.048,-0.551,1.0
22.629,-0.933,-0.612,1.0
20.348,-0.834,-0.659,1.0
18.577,-0.757,-0.698,1.0
17.119,-0.694,-0.733,1.0
29.388,-1.186,-0.443,1.0
26.154,-1.05,-0.531,1.0
23.372,-0.932,-0.597,2.0
20.994,-0.832,-0.648,1.0
19.026,-0.75,-0.687,1.0
17.528,-0.687,-0.725,1.0
30.273,-1.18,-0.411,1.0
26.934,-1.044,-0.506,1.0
24.055,-0.926,-0.578,1.0
21.584,-0.826,-0.634,1.0
19.553,-0.743,-0.677,1.0
17.924,-0.677,-0.714,1.0
31.622,-1.188,-0.382,1.0
28.015,-1.045,-0.485,2.0
24.961,-0.925,-0.563,1.0
22.238,-0.819,-0.621,1.0
20.048,-0.733,-0.665,1.0
18.364,-0.667,-0.705,1.0
33.226,-1.201,-0.353,1.0
28.881,-1.036,-0.459,1.0
25.717,-0.916,-0.543,1.0
22.977,-0.813,-0.608,1.0
20.659,-0.725,-0.655,1.0
18.805,-0.656,-0.695,1.0
37.057,-1.285,-0.341,0.0
29.704,-1.022,-0.429,1.0
26.534,-0.906,-0.522,1.0
23.556,-0.798,-0.59,1.0
21.249,-0.714,-0.644,1.0
19.285,-0.643,-0.686,1.0
38.561,-1.278,-0.3,1.0
30.759,-1.011,-0.401,1.0
27.263,-0.889,-0.499,1.0
24.311,-0.786,-0.575,1.0
21.847,-0.701,-0.631,1.0
19.747,-0.628,-0.674,1.0
40.397,-1.276,-0.257,5.0
32.177,-1.008,-0.374,1.0
28.264,-0.877,-0.477,1.0
25.107,-0.773,-0.558,1.0
22.49,-0.686,-0.619,1.0
20.207,-0.611,-0.662,1.0
40.241,-1.208,-0.201,30.0
33.81,-1.006,-0.347,1.0
29.064,-0.856,-0.451,1.0
25.853,-0.755,-0.54,1.0
23.127,-0.669,-0.605,1.0
20.744,-0.594,-0.652,2.0
40.236,-1.144,-0.148,60.0
36.069,-1.015,-0.322,0.0
29.909,-0.834,-0.425,1.0
26.518,-0.732,-0.519,1.0
23.7,-0.647,-0.589,1.0
21.196,-0.573,-0.638,2.0
40.983,-1.099,-0.096,169.0
40.434,-1.072,-0.308,15.0
30.873,-0.81,-0.398,1.0
27.302,-0.709,-0.498,1.0
24.386,-0.626,-0.574,1.0
21.912,-0.556,-0.631,1.0
0.0,0.0,0.0,0.0
40.285,-1.002,-0.255,5.0
32.35,-0.795,-0.375,1.0
27.72,-0.673,-0.471,2.0
25.13,-0.603,-0.559,1.0
22.521,-0.534,-0.62,2.0
40.311,-0.946,0.008,95.0
40.294,-0.933,-0.204,14.0
33.266,-0.761,-0.344,0.0
28.969,-0.654,-0.455,1.0
25.863,-0.576,-0.543,1.0
22.982,-0.505,-0.604,2.0
68.115,-1.482,0.098,0.0
0.0,0.0,0.0,0.0
37.131,-0.786,-0.338,0.0
29.688,-0.619,-0.43,1.0
26.482,-0.544,-0.524,1.0
23.645,-0.479,-0.593,1.0
40.318,-0.807,0.107,24.0
53.773,-1.06,-0.14,1.0
40.176,-0.78,-0.318,3.0
30.529,-0.583,-0.406,1.0
27.153,-0.51,-0.505,1.0
24.266,-0.449,-0.579,1.0
40.271,-0.734,0.155,56.0
40.301,-0.723,-0.057,68.0
40.204,-0.708,-0.27,13.0
31.527,-0.545,-0.382,1.0
27.911,-0.474,-0.486,1.0
24.93,-0.416,-0.566,1.0
40.274,-0.662,0.202,0.0
61.555,-0.993,-0.017,1.0
46.367,-0.734,-0.258,2.0
32.795,-0.509,-0.36,1.0
28.586,-0.435,-0.466,1.0
25.489,-0.38,-0.55,1.0
82.316,-1.205,0.505,1.0
60.694,-0.871,0.05,2.0
46.795,-0.657,-0.209,1.0
34.029,-0.466,-0.336,1.0
29.337,-0.393,-0.446,2.0
26.107,-0.342,-0.535,1.0
79.069,-1.014,0.572,28.0
79.252,-0.992,0.151,5.0
47.179,-0.576,-0.16,0.0
36.242,-0.43,-0.319,1.0
29.963,-0.346,-0.423,3.0
26.749,-0.301,-0.52,1.0
79.451,-0.872,0.659,151.0
58.054,-0.619,0.172,1.0
50.843,-0.525,-0.118,19.0
38.49,-0.385,-0.298,9.0
30.69,-0.297,-0.401,2.0
27.464,-0.257,-0.505,2.0
79.464,-0.722,0.742,160.0
61.391,-0.538,0.246,7.0
48.923,-0.412,-0.063,4.0
40.376,-0.327,-0.271,3.0
31.463,-0.244,-0.379,1.0
27.987,-0.208,-0.486,2.0
79.459,-0.568,0.823,181.0
76.822,-0.525,0.386,10.0
50.581,-0.329,-0.014,8.0
40.663,-0.251,-0.232,3.0
32.768,-0.192,-0.362,1.0
28.672,-0.158,-0.47,2.0
79.463,-0.415,0.901,153.0
76.699,-0.375,0.461,15.0
0.0,0.0,0.0,0.0
39.631,-0.168,-0.189,3.0
33.615,-0.132,-0.34,1.0
29.234,-0.105,-0.452,2.0
79.463,-0.261,0.976,151.0
79.278,-0.235,0.55,30.0
0.0,0.0,0.0,0.0
40.619,-0.094,-0.156,17.0
37.376,-0.074,-0.343,0.0
29.675,-0.049,-0.432,2.0
79.458,-0.107,1.048,151.0
79.35,-0.08,0.622,59.0
55.688,-0.038,0.138,29.0
43.753,-0.016,-0.13,4.0
38.299,-0.001,-0.318,2.0
30.209,0.008,-0.413,2.0
79.465,0.048,1.117,151.0
79.438,0.075,0.691,150.0
58.452,0.074,0.195,7.0
0.0,0.0,0.0,0.0
38.19,0.073,-0.285,6.0
30.951,0.07,-0.397,1.0
79.464,0.206,1.183,153.0
79.458,0.232,0.757,150.0
59.252,0.193,0.246,11.0
0.0,0.0,0.0,0.0
38.308,0.149,-0.255,13.0
31.522,0.133,-0.379,1.0
59.297,0.271,0.93,140.0
59.291,0.291,0.612,83.0
55.044,0.289,0.272,69.0
0.0,0.0,0.0,0.0
38.406,0.226,-0.226,29.0
32.381,0.202,-0.365,1.0
48.121,0.318,0.792,91.0
48.088,0.334,0.533,81.0
48.067,0.35,0.274,66.0
47.449,0.361,0.011,49.0
38.534,0.306,-0.198,48.0
33.109,0.273,-0.348,1.0
48.099,0.415,0.827,113.0
48.076,0.431,0.568,103.0
48.05,0.447,0.309,109.0
47.852,0.46,0.044,54.0
38.808,0.386,-0.172,49.0
33.74,0.347,-0.331,1.0
48.139,0.513,0.861,96.0
48.111,0.529,0.601,95.0
48.07,0.544,0.341,73.0
47.938,0.559,0.077,65.0
39.142,0.469,-0.147,44.0
37.094,0.457,-0.34,2.0
189.504,2.411,3.517,14.0
126.321,1.65,1.662,20.0
0.0,0.0,0.0,0.0
48.024,0.659,0.108,58.0
39.555,0.555,-0.124,26.0
37.055,0.533,-0.316,5.0
