X,Y,Z,Reflectivity
10.005,1.174,0.167,133.0
9.999,1.172,0.11,106.0
10.002,1.171,0.052,55.0
10.01,1.172,-0.004,31.0
10.006,1.17,-0.062,19.0
10.014,1.168,0.214,49.0
10.0,1.166,0.156,72.0
10.005,1.165,0.099,20.0
32.88,3.826,0.136,4.0
10.002,1.163,-0.015,16.0
34.487,4.006,-0.251,2.0
10.014,1.16,0.203,18.0
10.007,1.158,0.146,15.0
33.902,3.921,0.301,22.0
33.878,3.914,0.104,23.0
37.157,4.289,-0.097,7.0
34.462,3.974,-0.287,8.0
25.648,2.95,0.493,4.0
25.522,2.932,0.345,1.0
9.99,1.146,0.078,4.0
33.902,3.887,0.067,143.0
36.674,4.201,-0.135,12.0
0.0,0.0,0.0,0.0
25.584,2.92,0.465,9.0
25.556,2.913,0.319,12.0
33.852,3.855,0.229,28.0
40.397,4.595,0.039,31.0
35.779,4.065,-0.169,38.0
31.34,3.557,-0.327,1.0
25.549,2.892,0.438,16.0
25.587,2.892,0.292,17.0
41.925,4.733,0.24,16.0
40.013,4.512,-0.002,15.0
35.083,3.952,-0.202,12.0
13.869,1.56,-0.159,4.0
25.522,2.863,0.411,4.0
25.63,2.871,0.267,5.0
13.822,1.546,0.065,5.0
13.849,1.547,-0.015,15.0
13.858,1.547,-0.094,11.0
13.848,1.544,-0.173,12.0
13.833,1.537,0.208,15.0
13.828,1.535,0.13,13.0
13.835,1.533,0.051,14.0
13.819,1.53,-0.028,20.0
13.825,1.528,-0.107,18.0
13.796,1.523,-0.185,20.0
13.806,1.519,0.194,27.0
13.808,1.517,0.116,27.0
13.799,1.514,0.037,27.0
13.802,1.513,-0.042,23.0
13.797,1.51,-0.12,21.0
13.792,1.508,-0.199,27.0
13.798,1.503,0.181,36.0
13.796,1.501,0.102,37.0
13.796,1.499,0.024,36.0
13.78,1.495,-0.055,26.0
13.791,1.494,-0.133,31.0
13.786,1.492,-0.212,32.0
13.794,1.487,0.168,37.0
13.784,1.484,0.089,38.0
13.779,1.481,0.011,49.0
13.783,1.479,-0.068,33.0
13.775,1.476,-0.146,34.0
13.778,1.475,-0.224,34.0
13.785,1.47,0.155,38.0
13.787,1.468,0.077,105.0
13.781,1.465,-0.001,57.0
13.765,1.461,-0.08,36.0
13.771,1.459,-0.159,37.0
13.775,1.458,-0.237,34.0
13.778,1.452,0.142,41.0
13.782,1.45,0.064,103.0
13.777,1.447,-0.013,78.0
13.769,1.444,-0.093,37.0
13.77,1.442,-0.171,41.0
13.775,1.44,-0.249,36.0
13.78,1.435,0.13,41.0
13.782,1.432,0.052,150.0
13.778,1.43,-0.025,92.0
13.766,1.426,-0.105,39.0
13.773,1.424,-0.183,39.0
13.774,1.422,-0.261,34.0
13.782,1.417,0.118,54.0
13.783,1.414,0.04,150.0
13.776,1.411,-0.037,88.0
13.764,1.407,-0.116,39.0
13.769,1.406,-0.195,36.0
13.77,1.404,-0.273,37.0
13.782,1.398,0.107,62.0
13.785,1.396,0.029,150.0
13.776,1.393,-0.048,60.0
13.769,1.389,-0.128,37.0
13.778,1.388,-0.206,37.0
13.77,1.385,-0.284,37.0
13.786,1.38,0.096,60.0
13.795,1.378,0.018,150.0
13.785,1.374,-0.059,86.0
13.776,1.371,-0.139,38.0
13.787,1.37,-0.217,78.0
13.772,1.366,-0.295,37.0
13.798,1.362,0.085,61.0
13.8,1.359,0.007,112.0
13.792,1.356,-0.07,103.0
13.787,1.352,-0.149,38.0
13.782,1.349,-0.227,35.0
13.774,1.346,-0.305,36.0
13.807,1.343,0.075,41.0
13.809,1.34,-0.002,100.0
13.8,1.336,-0.08,54.0
13.8,1.334,-0.16,38.0
13.804,1.331,-0.238,35.0
13.788,1.327,-0.316,32.0
13.826,1.324,0.065,38.0
13.82,1.321,-0.012,41.0
13.812,1.317,-0.09,35.0
13.819,1.315,-0.17,35.0
13.817,1.312,-0.248,35.0
13.808,1.308,-0.326,32.0
13.837,1.304,0.055,34.0
13.842,1.302,-0.022,34.0
13.832,1.298,-0.1,30.0
13.833,1.295,-0.18,29.0
13.838,1.293,-0.258,31.0
13.813,1.288,-0.335,28.0
13.87,1.286,0.046,25.0
13.852,1.281,-0.031,24.0
13.854,1.278,-0.109,23.0
13.863,1.276,-0.189,28.0
13.838,1.271,-0.267,22.0
13.838,1.268,-0.345,27.0
13.874,1.265,0.037,8.0
36.644,3.332,-0.106,4.0
13.894,1.26,-0.118,14.0
13.868,1.255,-0.198,18.0
13.881,1.253,-0.276,13.0
13.849,1.247,-0.354,19.0
46.522,4.167,0.097,4.0
36.169,3.231,-0.127,38.0
13.925,1.24,-0.127,1.0
24.712,2.196,-0.367,2.0
21.137,1.874,-0.433,3.0
13.884,1.228,-0.363,6.0
46.179,4.06,0.07,5.0
35.888,3.147,-0.147,37.0
32.432,2.836,-0.315,1.0
24.258,2.116,-0.374,5.0
20.856,1.814,-0.439,4.0
18.667,1.62,-0.498,3.0
34.314,2.96,0.033,1.0
35.754,3.075,-0.166,12.0
31.848,2.732,-0.326,1.0
24.044,2.057,-0.384,5.0
20.672,1.764,-0.446,4.0
18.535,1.577,-0.504,3.0
41.854,3.54,0.018,17.0
35.088,2.959,-0.18,11.0
31.195,2.623,-0.335,1.0
23.73,1.99,-0.391,5.0
20.51,1.715,-0.453,3.0
18.37,1.532,-0.509,3.0
41.596,3.447,0.0,17.0
35.344,2.92,-0.198,9.0
30.891,2.545,-0.347,1.0
23.346,1.917,-0.395,5.0
20.368,1.668,-0.459,3.0
18.212,1.487,-0.513,3.0
41.169,3.34,-0.019,49.0
35.118,2.84,-0.213,19.0
30.645,2.471,-0.357,1.0
22.973,1.847,-0.399,4.0
20.236,1.622,-0.465,3.0
18.105,1.446,-0.517,3.0
41.133,3.265,-0.036,46.0
35.034,2.772,-0.226,11.0
30.249,2.385,-0.365,1.0
22.76,1.789,-0.404,5.0
20.113,1.576,-0.47,3.0
18.019,1.408,-0.521,3.0
41.073,3.187,-0.051,31.0
34.97,2.704,-0.239,10.0
30.228,2.33,-0.376,2.0
22.613,1.737,-0.409,4.0
20.032,1.534,-0.475,3.0
17.927,1.368,-0.525,3.0
41.14,3.118,-0.065,2.0
34.967,2.641,-0.251,9.0
29.984,2.257,-0.382,1.0
22.46,1.685,-0.414,4.0
19.879,1.486,-0.477,3.0
17.831,1.328,-0.528,3.0
38.813,2.871,-0.074,29.0
0.0,0.0,0.0,0.0
29.827,2.191,-0.389,2.0
22.35,1.636,-0.418,4.0
19.826,1.446,-0.482,3.0
17.727,1.288,-0.53,3.0
38.701,2.792,-0.084,23.0
35.03,2.517,-0.271,11.0
29.718,2.128,-0.396,1.0
22.227,1.585,-0.422,4.0
19.724,1.402,-0.484,3.0
17.708,1.254,-0.533,4.0
0.0,0.0,0.0,0.0
35.07,2.455,-0.28,9.0
29.622,2.065,-0.401,2.0
22.088,1.534,-0.424,4.0
19.63,1.358,-0.486,3.0
17.716,1.221,-0.537,2.0
36.551,2.5,-0.096,22.0
35.087,2.39,-0.287,8.0
29.429,1.996,-0.404,1.0
22.113,1.494,-0.428,4.0
19.641,1.321,-0.49,3.0
17.658,1.183,-0.538,2.0
36.637,2.436,-0.102,25.0
35.112,2.324,-0.292,7.0
29.517,1.946,-0.409,1.0
22.02,1.445,-0.43,4.0
19.612,1.282,-0.492,3.0
17.665,1.15,-0.541,2.0
36.62,2.365,-0.106,18.0
35.165,2.26,-0.297,6.0
29.335,1.877,-0.41,1.0
22.058,1.405,-0.433,4.0
19.615,1.244,-0.494,3.0
17.682,1.116,-0.543,3.0
33.206,2.079,-0.099,3.0
33.506,2.089,-0.286,4.0
29.306,1.819,-0.412,1.0
22.053,1.362,-0.434,4.0
19.677,1.21,-0.496,3.0
17.666,1.081,-0.544,5.0
40.085,2.432,-0.122,7.0
35.172,2.123,-0.302,8.0
29.293,1.76,-0.413,1.0
22.064,1.32,-0.435,4.0
19.705,1.173,-0.498,3.0
17.678,1.047,-0.544,4.0
40.238,2.363,-0.123,4.0
35.225,2.059,-0.302,7.0
29.27,1.702,-0.413,2.0
22.185,1.284,-0.438,4.0
19.685,1.133,-0.497,3.0
17.732,1.016,-0.545,4.0
40.138,2.279,-0.122,2.0
35.27,1.992,-0.302,7.0
29.325,1.647,-0.412,2.0
22.19,1.24,-0.437,4.0
19.783,1.1,-0.498,3.0
17.821,0.986,-0.547,5.0
40.253,2.206,-0.12,14.0
35.35,1.927,-0.3,9.0
29.399,1.594,-0.411,1.0
22.2,1.197,-0.435,4.0
19.864,1.065,-0.499,3.0
17.827,0.951,-0.546,3.0
40.209,2.125,-0.115,21.0
35.435,1.861,-0.297,7.0
29.501,1.541,-0.409,2.0
22.432,1.165,-0.437,4.0
19.917,1.028,-0.497,3.0
17.911,0.919,-0.546,3.0
40.291,2.048,-0.11,30.0
0.0,0.0,0.0,0.0
29.596,1.486,-0.406,2.0
22.627,1.129,-0.437,4.0
20.02,0.993,-0.497,3.0
18.043,0.89,-0.547,3.0
40.184,1.962,-0.103,43.0
35.6,1.728,-0.286,7.0
29.724,1.433,-0.402,2.0
22.91,1.098,-0.438,5.0
20.208,0.962,-0.497,3.0
18.084,0.855,-0.544,3.0
40.418,1.892,-0.095,43.0
35.66,1.659,-0.279,8.0
29.863,1.38,-0.397,2.0
23.187,1.064,-0.438,5.0
20.341,0.927,-0.495,3.0
18.176,0.823,-0.542,4.0
40.328,1.807,-0.084,48.0
35.766,1.591,-0.27,7.0
30.133,1.331,-0.393,2.0
23.554,1.033,-0.438,5.0
20.494,0.893,-0.493,3.0
18.346,0.793,-0.542,4.0
40.644,1.738,-0.073,52.0
35.845,1.522,-0.26,8.0
30.245,1.275,-0.385,2.0
23.893,0.999,-0.437,5.0
20.663,0.858,-0.491,4.0
18.508,0.763,-0.541,3.0
41.063,1.673,-0.06,26.0
36.032,1.457,-0.249,12.0
30.593,1.227,-0.379,2.0
24.168,0.962,-0.433,5.0
20.834,0.823,-0.487,4.0
18.708,0.733,-0.54,3.0
41.445,1.605,-0.045,18.0
36.189,1.39,-0.237,12.0
30.911,1.177,-0.37,2.0
24.38,0.92,-0.427,4.0
21.025,0.787,-0.483,4.0
18.823,0.699,-0.535,3.0
42.026,1.542,-0.028,19.0
36.338,1.322,-0.222,21.0
31.094,1.121,-0.36,2.0
24.46,0.874,-0.419,1.0
21.201,0.751,-0.478,4.0
19.05,0.669,-0.533,4.0
46.742,1.621,-0.011,21.0
36.54,1.256,-0.207,29.0
31.608,1.076,-0.351,1.0
27.966,0.943,-0.465,1.0
21.53,0.719,-0.475,4.0
19.332,0.64,-0.532,3.0
46.965,1.534,0.011,24.0
36.748,1.188,-0.19,32.0
32.219,1.031,-0.342,1.0
28.237,0.895,-0.456,1.0
21.904,0.687,-0.472,4.0
19.625,0.609,-0.53,3.0
47.552,1.456,0.036,23.0
0.0,0.0,0.0,0.0
32.889,0.986,-0.331,1.0
28.64,0.849,-0.446,2.0
22.184,0.651,-0.466,4.0
19.733,0.573,-0.521,3.0
48.121,1.376,0.064,23.0
0.0,0.0,0.0,0.0
36.246,1.013,-0.344,0.0
29.04,0.802,-0.435,1.0
22.589,0.617,-0.461,4.0
20.016,0.54,-0.517,3.0
48.645,1.293,0.094,23.0
38.766,1.018,-0.134,46.0
36.445,0.945,-0.323,2.0
29.404,0.753,-0.423,2.0
23.304,0.589,-0.461,3.0
20.344,0.508,-0.512,3.0
49.184,1.209,0.126,4.0
39.369,0.955,-0.111,42.0
36.572,0.875,-0.301,5.0
29.845,0.705,-0.409,2.0
26.856,0.625,-0.513,1.0
20.776,0.477,-0.509,4.0
0.0,0.0,0.0,0.0
39.681,0.883,-0.085,23.0
36.751,0.806,-0.277,8.0
30.33,0.655,-0.395,2.0
27.081,0.576,-0.499,2.0
21.037,0.441,-0.501,4.0
57.823,1.191,0.228,10.0
44.551,0.903,-0.063,5.0
37.053,0.739,-0.252,12.0
30.852,0.605,-0.379,2.0
27.385,0.529,-0.484,1.0
21.361,0.406,-0.493,4.0
60.138,1.12,0.282,36.0
0.0,0.0,0.0,0.0
37.37,0.672,-0.226,26.0
31.527,0.557,-0.363,2.0
27.916,0.484,-0.472,1.0
21.755,0.37,-0.485,4.0
61.305,1.021,0.336,37.0
46.653,0.762,0.005,32.0
37.806,0.605,-0.199,43.0
32.37,0.508,-0.347,1.0
28.493,0.438,-0.459,2.0
22.119,0.333,-0.475,4.0
62.419,0.918,0.393,11.0
47.616,0.685,0.044,50.0
38.294,0.539,-0.169,50.0
33.252,0.457,-0.329,1.0
29.095,0.39,-0.444,2.0
26.008,0.341,-0.536,1.0
48.1,0.613,0.344,84.0
47.914,0.595,0.086,64.0
38.982,0.471,-0.138,45.0
37.054,0.436,-0.334,0.0
29.593,0.339,-0.425,2.0
26.424,0.294,-0.521,2.0
48.079,0.518,0.387,102.0
47.998,0.503,0.129,67.0
39.601,0.402,-0.104,15.0
37.319,0.367,-0.302,5.0
30.102,0.286,-0.404,2.0
26.885,0.247,-0.505,2.0
48.053,0.426,0.431,107.0
48.037,0.41,0.174,93.0
44.128,0.363,-0.075,18.0
37.66,0.298,-0.269,7.0
30.82,0.234,-0.385,2.0
27.341,0.198,-0.487,1.0
48.146,0.334,0.479,50.0
48.196,0.319,0.222,46.0
0.0,0.0,0.0,0.0
38.222,0.229,-0.235,14.0
31.683,0.18,-0.364,1.0
28.125,0.151,-0.473,2.0
59.303,0.298,0.649,113.0
59.34,0.28,0.333,69.0
47.076,0.207,0.013,30.0
38.763,0.158,-0.199,32.0
32.74,0.123,-0.342,1.0
28.759,0.1,-0.454,2.0
79.471,0.25,0.952,151.0
76.189,0.216,0.507,24.0
48.024,0.121,0.064,16.0
39.519,0.087,-0.161,38.0
33.578,0.064,-0.316,0.0
29.407,0.046,-0.433,2.0
79.461,0.101,1.037,151.0
79.348,0.076,0.613,24.0
0.0,0.0,0.0,0.0
40.729,0.014,-0.122,17.0
38.169,0.001,-0.317,2.0
30.06,-0.007,-0.409,2.0
79.46,-0.044,1.124,151.0
79.422,-0.069,0.702,150.0
56.172,-0.066,0.198,10.0
0.0,0.0,0.0,0.0
38.787,-0.069,-0.279,3.0
30.878,-0.064,-0.386,1.0
79.456,-0.189,1.213,151.0
79.453,-0.213,0.791,151.0
61.486,-0.183,0.286,8.0
45.843,-0.15,-0.034,21.0
39.261,-0.141,-0.237,6.0
31.981,-0.124,-0.363,1.0
79.446,-0.331,1.305,160.0
79.464,-0.354,0.883,165.0
76.687,-0.366,0.446,13.0
48.879,-0.248,0.02,23.0
40.491,-0.218,-0.196,4.0
33.169,-0.188,-0.336,1.0
79.447,-0.474,1.4,165.0
79.447,-0.497,0.979,180.0
0.0,0.0,0.0,0.0
53.765,-0.368,0.088,12.0
47.141,-0.337,-0.171,11.0
36.768,-0.274,-0.328,0.0
79.44,-0.613,1.496,168.0
79.448,-0.637,1.076,190.0
79.416,-0.66,0.656,138.0
60.691,-0.523,0.174,5.0
50.718,-0.451,-0.121,11.0
38.437,-0.353,-0.295,3.0
79.441,-0.752,1.596,181.0
79.431,-0.774,1.176,193.0
79.459,-0.798,0.757,166.0
60.739,-0.628,0.251,2.0
53.475,-0.568,-0.06,5.0
42.217,-0.46,-0.27,2.0
79.445,-0.887,1.697,160.0
79.4,-0.91,1.277,255.0
79.574,-0.935,0.86,3.0
78.365,-0.943,0.426,7.0
60.76,-0.748,0.009,6.0
43.099,-0.543,-0.22,2.0
86.934,-1.119,1.971,41.0
86.946,-1.142,1.512,150.0
148.068,-1.987,1.795,13.0
87.965,-1.205,0.594,3.0
60.754,-0.849,0.09,1.0
50.779,-0.724,-0.192,1.0
187.089,-2.717,4.491,18.0
187.119,-2.769,3.506,21.0
205.346,-3.096,2.765,16.0
99.152,-1.522,0.803,6.0
248.367,-3.879,0.703,69.0
51.612,-0.82,-0.125,0.0
183.523,-2.961,4.651,27.0
0.0,0.0,0.0,0.0
205.41,-3.427,3.044,79.0
40.259,-0.683,0.381,43.0
40.267,-0.694,0.169,53.0
40.307,-0.705,-0.042,65.0
40.259,-0.714,1.076,50.0
40.206,-0.724,0.863,56.0
40.169,-0.734,0.651,36.0
40.228,-0.746,0.437,42.0
40.257,-0.758,0.226,52.0
40.314,-0.77,0.014,23.0
40.287,-0.779,1.134,57.0
40.238,-0.789,0.921,54.0
40.245,-0.8,0.71,63.0
40.229,-0.81,0.495,56.0
40.301,-0.822,0.284,2.0
68.253,-1.411,0.123,1.0
40.248,-0.841,1.191,42.0
40.203,-0.85,0.979,59.0
40.203,-0.861,0.768,58.0
40.298,-0.873,0.554,26.0
40.314,-0.884,0.343,6.0
40.287,-0.894,0.131,51.0
40.273,-0.903,1.251,42.0
40.203,-0.912,1.038,58.0
40.175,-0.921,0.826,55.0
40.311,-0.934,0.614,116.0
40.315,-0.945,0.402,107.0
40.296,-0.954,0.191,24.0
40.267,-0.963,1.31,68.0
40.212,-0.971,1.097,54.0
40.186,-0.981,0.886,52.0
40.194,-0.991,0.672,66.0
40.213,-1.001,0.461,58.0
40.204,-1.011,0.251,48.0
40.213,-1.02,1.369,55.0
40.217,-1.03,1.158,43.0
40.192,-1.039,0.947,55.0
40.214,-1.05,0.733,43.0
40.219,-1.059,0.523,49.0
40.189,-1.068,0.312,58.0
40.229,-1.078,1.431,36.0
40.266,-1.088,1.221,28.0
40.225,-1.097,1.009,41.0
40.248,-1.107,0.795,0.0
0.0,0.0,0.0,0.0
40.227,-1.125,0.374,32.0
0.0,0.0,0.0,0.0
40.237,-1.143,1.282,0.0
40.295,-1.154,1.073,29.0
40.344,-1.165,0.859,26.0
154.016,-4.483,2.477,150.0
0.0,0.0,0.0,0.0
0.0,0.0,0.0,0.0
0.0,0.0,0.0,0.0
40.301,-1.209,1.136,20.0
40.301,-1.218,0.922,27.0
40.333,-1.228,0.712,30.0
40.364,-1.238,0.502,10.0
148.152,-4.575,5.963,11.0
0.0,0.0,0.0,0.0
0.0,0.0,0.0,0.0
40.328,-1.271,0.986,0.0
0.0,0.0,0.0,0.0
0.0,0.0,0.0,0.0
148.075,-4.765,6.197,27.0
0.0,0.0,0.0,0.0
0.0,0.0,0.0,0.0
0.0,0.0,0.0,0.0
0.0,0.0,0.0,0.0
0.0,0.0,0.0,0.0
0.0,0.0,0.0,0.0
0.0,0.0,0.0,0.0
0.0,0.0,0.0,0.0
0.0,0.0,0.0,0.0
0.0,0.0,0.0,0.0
0.0,0.0,0.0,0.0
0.0,0.0,0.0,0.0
0.0,0.0,0.0,0.0
0.0,0.0,0.0,0.0
0.0,0.0,0.0,0.0
0.0,0.0,0.0,0.0
0.0,0.0,0.0,0.0
0.0,0.0,0.0,0.0
0.0,0.0,0.0,0.0
0.0,0.0,0.0,0.0
0.0,0.0,0.0,0.0
0.0,0.0,0.0,0.0
0.0,0.0,0.0,0.0
0.0,0.0,0.0,0.0
0.0,0.0,0.0,0.0
0.0,0.0,0.0,0.0
0.0,0.0,0.0,0.0
0.0,0.0,0.0,0.0
0.0,0.0,0.0,0.0
0.0,0.0,0.0,0.0
0.0,0.0,0.0,0.0
0.0,0.0,0.0,0.0
0.0,0.0,0.0,0.0
0.0,0.0,0.0,0.0
0.0,0.0,0.0,0.0
0.0,0.0,0.0,0.0
0.0,0.0,0.0,0.0
0.0,0.0,0.0,0.0
0.0,0.0,0.0,0.0
0.0,0.0,0.0,0.0
0.0,0.0,0.0,0.0
0.0,0.0,0.0,0.0
0.0,0.0,0.0,0.0
0.0,0.0,0.0,0.0
0.0,0.0,0.0,0.0
0.0,0.0,0.0,0.0
0.0,0.0,0.0,0.0
0.0,0.0,0.0,0.0
0.0,0.0,0.0,0.0
0.0,0.0,0.0,0.0
0.0,0.0,0.0,0.0
0.0,0.0,0.0,0.0
0.0,0.0,0.0,0.0
0.0,0.0,0.0,0.0
0.0,0.0,0.0,0.0
0.0,0.0,0.0,0.0
0.0,0.0,0.0,0.0
0.0,0.0,0.0,0.0
83.192,-3.593,4.879,3.0
0.0,0.0,0.0,0.0
0.0,0.0,0.0,0.0
0.0,0.0,0.0,0.0
0.0,0.0,0.0,0.0
0.0,0.0,0.0,0.0
0.0,0.0,0.0,0.0
0.0,0.0,0.0,0.0
0.0,0.0,0.0,0.0
0.0,0.0,0.0,0.0
0.0,0.0,0.0,0.0
0.0,0.0,0.0,0.0
0.0,0.0,0.0,0.0
0.0,0.0,0.0,0.0
0.0,0.0,0.0,0.0
0.0,0.0,0.0,0.0
0.0,0.0,0.0,0.0
0.0,0.0,0.0,0.0
92.261,-4.218,5.89,1.0
83.291,-3.818,4.882,2.0
0.0,0.0,0.0,0.0
0.0,0.0,0.0,0.0
0.0,0.0,0.0,0.0
0.0,0.0,0.0,0.0
91.085,-4.234,5.973,1.0
83.292,-3.881,5.028,1.0
0.0,0.0,0.0,0.0
0.0,0.0,0.0,0.0
0.0,0.0,0.0,0.0
0.0,0.0,0.0,0.0
93.039,-4.393,6.265,5.0
0.0,0.0,0.0,0.0
0.0,0.0,0.0,0.0
0.0,0.0,0.0,0.0
0.0,0.0,0.0,0.0
0.0,0.0,0.0,0.0
91.436,-4.381,6.318,1.0
92.091,-4.421,5.883,1.0
0.0,0.0,0.0,0.0
0.0,0.0,0.0,0.0
0.0,0.0,0.0,0.0
0.0,0.0,0.0,0.0
91.509,-4.445,6.483,4.0
90.862,-4.42,5.963,1.0
0.0,0.0,0.0,0.0
0.0,0.0,0.0,0.0
0.0,0.0,0.0,0.0
0.0,0.0,0.0,0.0
93.07,-4.578,6.758,4.0
92.962,-4.578,6.264,1.0
0.0,0.0,0.0,0.0
0.0,0.0,0.0,0.0
0.0,0.0,0.0,0.0
0.0,0.0,0.0,0.0
83.136,-4.136,6.184,4.0
92.969,-4.632,6.429,5.0
0.0,0.0,0.0,0.0
0.0,0.0,0.0,0.0
0.0,0.0,0.0,0.0
211.525,-10.596,10.197,5.0
83.155,-4.182,6.333,8.0
91.417,-4.603,6.484,4.0
0.0,0.0,0.0,0.0
0.0,0.0,0.0,0.0
0.0,0.0,0.0,0.0
0.0,0.0,0.0,0.0
83.112,-4.22,6.476,8.0
91.384,-4.645,6.642,2.0
90.54,-4.607,6.108,1.0
0.0,0.0,0.0,0.0
0.0,0.0,0.0,0.0
0.0,0.0,0.0,0.0
83.41,-4.273,6.645,2.0
92.928,-4.764,6.916,4.0
92.965,-4.77,6.432,9.0
0.0,0.0,0.0,0.0
0.0,0.0,0.0,0.0
0.0,0.0,0.0,0.0
91.913,-4.745,7.481,3.0
92.722,-4.79,7.061,3.0
91.462,-4.728,6.487,1.0
0.0,0.0,0.0,0.0
0.0,0.0,0.0,0.0
0.0,0.0,0.0,0.0
93.321,-4.852,7.757,2.0
92.804,-4.827,7.227,2.0
91.506,-4.762,6.646,4.0
0.0,0.0,0.0,0.0
0.0,0.0,0.0,0.0
0.0,0.0,0.0,0.0
93.365,-4.885,7.923,1.0
0.0,0.0,0.0,0.0
93.057,-4.872,6.921,3.0
92.929,-4.866,6.415,2.0
0.0,0.0,0.0,0.0
0.0,0.0,0.0,0.0
92.377,-4.859,7.999,3.0
0.0,0.0,0.0,0.0
92.948,-4.891,7.071,1.0
92.779,-4.882,6.563,4.0
0.0,0.0,0.0,0.0
0.0,0.0,0.0,0.0
92.422,-4.884,8.16,4.0
0.0,0.0,0.0,0.0
92.885,-4.908,7.224,3.0
91.461,-4.833,6.625,3.0
0.0,0.0,0.0,0.0
0.0,0.0,0.0,0.0
90.743,-4.813,8.166,3.0
0.0,0.0,0.0,0.0
92.676,-4.914,7.364,3.0
93.101,-4.935,6.9,2.0
92.9,-4.924,6.398,3.0
0.0,0.0,0.0,0.0
90.742,-4.827,8.319,3.0
0.0,0.0,0.0,0.0
0.0,0.0,0.0,0.0
93.024,-4.944,7.049,5.0
92.888,-4.935,6.55,4.0
0.0,0.0,0.0,0.0
56.91,-3.034,5.312,0.0
92.411,-4.925,8.138,4.0
0.0,0.0,0.0,0.0
83.087,-4.423,6.433,1.0
0.0,0.0,0.0,0.0
0.0,0.0,0.0,0.0
56.877,-3.036,5.403,4.0
92.369,-4.928,8.288,4.0
93.44,-4.983,7.891,1.0
82.98,-4.422,6.562,3.0
91.489,-4.872,6.753,4.0
92.976,-4.949,6.375,1.0
0.0,0.0,0.0,0.0
90.831,-4.85,8.299,1.0
92.626,-4.941,7.974,1.0
0.0,0.0,0.0,0.0
92.971,-4.952,7.015,4.0
92.872,-4.943,6.519,4.0
56.575,-3.022,5.561,4.0
90.844,-4.849,8.448,1.0
92.377,-4.926,8.103,4.0
0.0,0.0,0.0,0.0
83.097,-4.423,6.403,1.0
0.0,0.0,0.0,0.0
56.611,-3.022,5.656,1.0
56.841,-3.031,5.377,3.0
92.316,-4.917,8.245,4.0
93.505,-4.975,7.848,1.0
82.886,-4.406,6.518,1.0
91.539,-4.86,6.716,4.0
0.0,0.0,0.0,0.0
0.0,0.0,0.0,0.0
90.772,-4.827,8.25,2.0
0.0,0.0,0.0,0.0
0.0,0.0,0.0,0.0
93.07,-4.931,6.971,4.0
0.0,0.0,0.0,0.0
56.602,-3.006,5.532,5.0
90.809,-4.816,8.394,2.0
92.396,-4.893,8.041,3.0
0.0,0.0,0.0,0.0
82.943,-4.381,6.341,2.0
0.0,0.0,0.0,0.0
56.745,-3.004,5.634,0.0
56.808,-3.002,5.338,2.0
92.264,-4.869,8.17,2.0
0.0,0.0,0.0,0.0
82.989,-4.367,6.471,1.0
55.343,-2.923,5.875,1.0
0.0,0.0,0.0,0.0
90.608,-4.769,8.652,9.0
90.566,-4.76,8.157,1.0
92.46,-4.852,7.837,1.0
0.0,0.0,0.0,0.0
49.397,-2.597,5.318,3.0
0.0,0.0,0.0,0.0
56.589,-2.964,5.488,5.0
90.671,-4.741,8.301,5.0
92.407,-4.824,7.97,4.0
92.004,-4.794,7.447,4.0
56.985,-2.98,6.219,6.0
92.464,-4.826,9.597,1.0
0.0,0.0,0.0,0.0
56.721,-2.949,5.277,2.0
92.269,-4.788,8.093,7.0
92.065,-4.768,7.585,3.0
50.293,-2.614,5.562,1.0
55.283,-2.868,5.818,4.0
0.0,0.0,0.0,0.0
56.655,-2.927,5.351,2.0
0.0,0.0,0.0,0.0
93.387,-4.806,7.826,4.0
50.243,-2.594,5.629,11.0
49.46,-2.548,5.276,3.0
92.612,-4.761,9.383,1.0
56.657,-2.906,5.431,4.0
90.754,-4.645,8.216,6.0
91.929,-4.695,7.832,12.0
48.298,-2.475,5.479,5.0
56.944,-2.911,6.154,5.0
55.238,-2.817,5.673,1.0
63.703,-3.242,6.195,0.0
56.767,-2.881,5.217,2.0
92.126,-4.666,7.975,5.0
48.412,-2.461,5.559,15.0
49.994,-2.535,5.471,0.0
55.197,-2.791,5.744,3.0
63.629,-3.209,6.274,1.0
56.684,-2.852,5.285,7.0
0.0,0.0,0.0,0.0
48.91,-2.463,5.682,10.0
50.078,-2.515,5.548,8.0
57.199,-2.866,6.029,3.0
92.729,-4.633,9.266,5.0
63.661,-3.173,6.02,1.0
90.822,-4.515,8.102,4.0
47.654,-2.376,5.599,6.0
55.444,-2.757,6.215,8.0
49.514,-2.455,5.283,4.0
92.427,-4.572,9.356,8.0
63.685,-3.141,6.104,3.0
56.719,-2.79,5.132,4.0
50.104,-2.473,5.951,18.0
48.308,-2.377,5.477,16.0
55.309,-2.713,5.972,9.0
55.119,-2.696,5.648,3.0
92.728,-4.524,9.003,10.0
56.668,-2.756,5.198,6.0
48.96,-2.389,5.877,5.0
48.621,-2.365,5.573,6.0
56.644,-2.747,6.185,4.0
57.829,-2.796,5.997,8.0
54.912,-2.647,5.398,1.0
63.604,-3.056,5.911,2.0
48.921,-2.358,5.932,4.0
48.684,-2.34,5.638,20.0
56.594,-2.71,6.249,4.0
55.065,-2.629,5.776,6.0
90.719,-4.317,9.027,9.0
83.563,-3.964,7.865,7.0
62.956,-2.996,7.709,5.0
47.615,-2.258,5.571,4.0
48.401,-2.288,5.401,10.0
49.527,-2.332,5.253,3.0
58.0,-2.723,5.838,3.0
91.069,-4.262,8.675,8.0
46.749,-2.194,5.778,3.0
49.646,-2.322,5.866,4.0
50.863,-2.37,5.733,5.0
55.094,-2.558,5.905,16.0
55.049,-2.548,5.602,15.0
90.747,-4.187,8.745,6.0
48.838,-2.259,6.091,2.0
49.439,-2.278,5.896,7.0
50.834,-2.333,5.786,6.0
40.568,-1.856,4.393,31.0
0.0,0.0,0.0,0.0
57.909,-2.63,5.643,5.0
48.536,-2.211,6.106,18.0
48.869,-2.217,5.881,3.0
63.006,-2.847,7.239,10.0
40.515,-1.824,4.43,48.0
55.293,-2.48,5.745,9.0
55.036,-2.459,5.42,18.0
48.327,-2.165,6.131,23.0
46.081,-2.056,5.593,13.0
53.088,-2.359,6.154,4.0
40.493,-1.792,4.469,53.0
55.271,-2.437,5.799,6.0
57.296,-2.517,5.7,8.0
62.258,-2.741,7.961,5.0
47.276,-2.073,5.786,5.0
57.377,-2.505,6.708,6.0
40.513,-1.762,4.511,45.0
48.516,-2.101,5.138,2.0
63.347,-2.733,6.363,13.0
56.944,-2.462,7.337,7.0
48.425,-2.085,5.973,22.0
47.424,-2.033,5.59,6.0
40.502,-1.728,4.548,53.0
40.426,-1.718,4.319,26.0
56.645,-2.397,5.743,6.0
47.565,-2.018,6.173,8.0
48.469,-2.046,6.024,20.0
40.507,-1.703,4.812,9.0
40.402,-1.691,4.574,56.0
40.428,-1.684,4.356,61.0
53.318,-2.211,5.454,3.0
47.405,-1.97,6.195,8.0
57.054,-2.36,7.142,6.0
40.384,-1.663,4.833,59.0
40.489,-1.659,4.619,60.0
40.472,-1.65,4.396,59.0
0.0,0.0,0.0,0.0
47.292,-1.924,6.222,3.0
57.008,-2.308,7.185,13.0
40.377,-1.626,4.867,65.0
40.552,-1.626,4.661,37.0
40.506,-1.616,4.433,57.0
40.532,-1.609,4.214,3.0
42.219,-1.679,5.589,52.0
0.0,0.0,0.0,0.0
40.332,-1.588,4.893,63.0
40.595,-1.591,4.698,34.0
40.502,-1.579,4.464,59.0
43.214,-1.677,4.526,6.0
42.239,-1.641,5.625,55.0
42.1,-1.627,5.373,48.0
40.334,-1.551,4.924,57.0
40.248,-1.54,4.688,55.0
40.435,-1.539,4.487,46.0
40.246,-1.524,4.245,63.0
42.157,-1.599,5.645,67.0
42.099,-1.588,5.403,35.0
40.398,-1.516,4.961,43.0
40.387,-1.507,4.732,55.0
40.479,-1.502,4.52,60.0
40.23,-1.486,4.27,39.0
42.114,-1.557,5.668,56.0
42.844,-1.575,5.528,29.0
40.235,-1.471,4.968,63.0
40.363,-1.467,4.756,48.0
40.262,-1.456,4.522,54.0
40.392,-1.452,4.314,60.0
0.0,0.0,0.0,0.0
42.598,-1.524,5.524,17.0
40.33,-1.434,5.006,41.0
40.444,-1.43,4.791,58.0
40.441,-1.421,4.567,44.0
40.418,-1.413,4.341,59.0
42.529,-1.487,5.778,21.0
47.334,-1.645,6.167,9.0
40.397,-1.396,5.038,44.0
40.481,-1.391,4.819,61.0
40.307,-1.376,4.575,57.0
40.266,-1.367,4.348,46.0
42.0,-1.426,5.73,51.0
42.306,-1.428,5.535,59.0
42.706,-1.432,5.349,20.0
40.526,-1.351,4.846,48.0
40.458,-1.34,4.614,47.0
40.002,-1.317,4.34,59.0
41.972,-1.382,5.748,67.0
42.095,-1.377,5.529,60.0
40.75,-1.324,5.125,31.0
40.459,-1.307,4.858,58.0
40.119,-1.288,4.594,53.0
39.935,-1.274,4.352,58.0
42.067,-1.341,5.781,33.0
41.941,-1.329,5.528,54.0
0.0,0.0,0.0,0.0
40.494,-1.266,4.881,52.0
39.717,-1.233,4.566,57.0
39.951,-1.232,4.371,57.0
42.167,-1.3,5.813,57.0
47.306,-1.448,6.255,4.0
0.0,0.0,0.0,0.0
40.46,-1.222,4.893,60.0
39.426,-1.182,4.548,69.0
40.145,-1.195,4.407,61.0
42.257,-1.257,5.842,59.0
41.993,-1.24,5.569,34.0
40.046,-1.174,5.086,34.0
40.287,-1.173,4.887,40.0
39.461,-1.141,4.566,56.0
39.716,-1.14,4.374,57.0
42.432,-1.216,5.88,55.0
42.608,-1.213,5.664,18.0
39.777,-1.123,5.065,41.0
40.226,-1.127,4.892,46.0
39.483,-1.099,4.58,52.0
39.409,-1.088,4.352,54.0
42.342,-1.167,5.881,45.0
49.061,-1.342,6.537,9.0
39.71,-1.077,5.067,42.0
40.076,-1.079,4.885,58.0
39.247,-1.048,4.564,64.0
39.294,-1.041,4.349,64.0
42.136,-1.114,5.863,59.0
42.449,-1.114,5.666,61.0
39.539,-1.029,5.055,47.0
40.126,-1.036,4.9,47.0
39.187,-1.003,4.565,58.0
39.398,-1.0,4.369,48.0
41.96,-1.062,5.847,56.0
42.138,-1.058,5.633,62.0
39.529,-0.984,5.061,55.0
0.0,0.0,0.0,0.0
39.199,-0.96,4.573,61.0
39.528,-0.959,4.39,58.0
41.817,-1.011,5.833,67.0
42.147,-1.01,5.64,45.0
39.505,-0.939,5.063,45.0
39.642,-0.933,4.853,63.0
39.409,-0.92,4.603,55.0
39.079,-0.904,4.345,62.0
42.012,-0.968,5.865,44.0
42.075,-0.961,5.635,57.0
39.469,-0.893,5.063,49.0
39.683,-0.889,4.862,59.0
39.239,-0.871,4.586,66.0
39.137,-0.861,4.354,51.0
42.122,-0.922,5.883,47.0
41.781,-0.906,5.598,72.0
39.475,-0.847,5.065,56.0
39.613,-0.842,4.855,63.0
39.256,-0.826,4.589,65.0
39.051,-0.814,4.345,63.0
42.084,-0.872,5.879,38.0
42.381,-0.869,5.679,18.0
41.972,-0.852,5.386,19.0
39.6,-0.796,4.853,51.0
39.22,-0.781,4.585,65.0
39.133,-0.771,4.354,57.0
42.144,-0.825,5.886,59.0
42.547,-0.824,5.7,35.0
39.541,-0.757,5.072,30.0
39.328,-0.745,4.818,63.0
39.328,-0.738,4.595,48.0
39.132,-0.726,4.351,53.0
42.123,-0.776,5.88,61.0
42.685,-0.777,5.715,17.0
42.134,-0.758,5.401,28.0
39.331,-0.7,4.814,54.0
39.754,-0.7,4.64,49.0
39.093,-0.68,4.342,45.0
41.669,-0.719,5.812,58.0
42.588,-0.726,5.696,17.0
39.84,-0.671,5.102,45.0
39.517,-0.658,4.831,54.0
39.515,-0.65,4.607,54.0
39.277,-0.638,4.356,53.0
41.734,-0.672,5.814,63.0
39.894,-0.634,5.329,42.0
39.785,-0.625,5.087,63.0
39.673,-0.615,4.843,57.0
39.618,-0.607,4.611,58.0
39.4,-0.596,4.362,44.0
41.658,-0.623,5.794,70.0
42.028,-0.62,5.605,3.0
39.899,-0.58,5.093,63.0
39.764,-0.57,4.844,48.0
39.957,-0.566,4.641,61.0
39.597,-0.553,4.374,42.0
42.399,-0.584,5.886,57.0
42.404,-0.576,5.643,20.0
40.078,-0.537,5.104,32.0
43.624,-0.576,5.302,3.0
39.963,-0.52,4.63,64.0
39.514,-0.506,4.353,56.0
0.0,0.0,0.0,0.0
39.996,-0.497,5.31,41.0
39.976,-0.489,5.079,50.0
40.019,-0.482,4.851,58.0
39.911,-0.473,4.61,63.0
39.426,-0.46,4.33,50.0
40.815,-0.469,5.639,40.0
39.971,-0.451,5.293,48.0
39.965,-0.444,5.062,48.0
40.049,-0.437,4.84,18.0
40.002,-0.429,4.606,49.0
39.366,-0.415,4.308,68.0
41.015,-0.424,5.65,53.0
39.993,-0.405,5.279,52.0
39.768,-0.396,5.021,51.0
40.082,-0.392,4.827,27.0
40.422,-0.387,4.637,48.0
39.888,-0.375,4.348,52.0
40.966,-0.376,5.625,45.0
39.961,-0.36,5.257,50.0
39.768,-0.351,5.003,47.0
39.819,-0.344,4.777,39.0
40.629,-0.344,4.641,66.0
40.625,-0.336,4.409,16.0
40.995,-0.33,5.609,25.0
39.85,-0.314,5.222,47.0
39.658,-0.305,4.969,58.0
39.795,-0.298,4.753,44.0
40.601,-0.297,4.617,52.0
43.944,-0.314,4.746,5.0
0.0,0.0,0.0,0.0
39.792,-0.268,5.193,51.0
39.628,-0.259,4.943,48.0
39.896,-0.254,4.743,15.0
40.429,-0.251,4.574,31.0
40.924,-0.247,4.396,16.0
39.456,-0.228,5.354,63.0
39.441,-0.222,5.124,57.0
39.671,-0.216,4.925,47.0
42.223,-0.222,4.994,3.0
40.561,-0.207,4.565,48.0
40.739,-0.201,4.351,49.0
39.444,-0.184,5.327,62.0
39.507,-0.178,5.107,60.0
39.629,-0.172,4.894,56.0
39.606,-0.165,4.659,52.0
40.269,-0.161,4.505,49.0
40.495,-0.155,4.298,39.0
39.52,-0.141,5.311,60.0
39.427,-0.134,5.069,70.0
39.485,-0.128,4.849,58.0
39.83,-0.122,4.657,40.0
40.012,-0.116,4.449,59.0
40.774,-0.112,4.299,44.0
39.516,-0.098,5.282,60.0
39.656,-0.092,5.07,44.0
39.496,-0.086,4.822,50.0
39.804,-0.08,4.625,48.0
40.653,-0.075,4.49,34.0
40.496,-0.069,4.24,50.0
39.557,-0.056,5.257,59.0
39.546,-0.05,5.026,62.0
39.54,-0.044,4.797,60.0
39.721,-0.038,4.585,49.0
40.68,-0.032,4.461,49.0
40.361,-0.026,4.194,50.0
39.478,-0.014,5.214,68.0
39.425,-0.008,4.978,66.0
39.629,-0.002,4.775,48.0
39.678,0.003,4.547,59.0
40.517,0.01,4.409,61.0
40.378,0.016,4.162,50.0
39.661,0.027,5.205,61.0
39.398,0.032,4.941,48.0
39.836,0.038,4.765,60.0
40.012,0.045,4.551,44.0
40.261,0.051,4.347,69.0
40.018,0.057,4.09,70.0
39.704,0.068,5.175,44.0
39.498,0.073,4.918,43.0
43.781,0.087,5.198,9.0
39.924,0.085,4.504,55.0
40.27,0.092,4.311,46.0
40.045,0.097,4.056,67.0
39.816,0.108,5.152,52.0
39.336,0.112,4.861,43.0
43.771,0.131,5.155,3.0
40.167,0.126,4.494,46.0
40.524,0.133,4.299,41.0
40.088,0.137,4.021,66.0
39.581,0.147,5.083,49.0
0.0,0.0,0.0,0.0
43.781,0.175,5.112,28.0
40.19,0.166,4.456,52.0
40.594,0.173,4.266,68.0
40.335,0.177,4.006,37.0
39.655,0.186,5.051,47.0
43.82,0.212,5.326,5.0
42.827,0.213,4.957,7.0
40.304,0.205,4.427,50.0
40.172,0.21,4.18,65.0
57.347,0.307,5.636,20.0
39.735,0.225,5.02,62.0
39.638,0.229,4.776,37.0
40.295,0.239,4.621,43.0
40.151,0.242,4.367,64.0
40.247,0.248,4.144,52.0
47.48,0.299,4.614,49.0
39.899,0.263,4.996,67.0
39.59,0.266,4.726,64.0
40.194,0.275,4.564,58.0
40.742,0.284,4.386,54.0
43.74,0.31,4.455,3.0
47.573,0.343,4.57,53.0
39.842,0.299,4.943,40.0
40.112,0.306,4.743,50.0
40.033,0.31,4.5,57.0
44.076,0.347,4.694,3.0
47.367,0.378,4.769,5.0
47.703,0.386,4.527,8.0
46.992,0.395,5.775,7.0
40.256,0.343,4.712,52.0
40.013,0.346,4.45,46.0
47.23,0.413,4.973,4.0
47.417,0.42,4.718,3.0
61.689,0.554,5.781,28.0
39.992,0.371,4.866,35.0
40.114,0.376,4.646,61.0
40.861,0.387,4.495,49.0
40.389,0.388,4.204,16.0
47.67,0.462,4.685,30.0
39.974,0.392,3.697,66.0
39.943,0.404,4.81,39.0
40.34,0.412,4.622,40.0
41.025,0.423,4.461,16.0
40.594,0.423,4.174,17.0
40.663,0.428,3.945,26.0
39.928,0.424,3.642,57.0
39.956,0.437,4.76,39.0
40.38,0.446,4.574,54.0
41.026,0.457,4.408,16.0
39.899,0.448,4.05,48.0
40.07,0.454,3.834,42.0
48.408,0.553,4.351,12.0
40.67,0.478,4.79,22.0
41.224,0.488,4.614,48.0
41.29,0.492,4.381,16.0
47.649,0.572,4.773,5.0
56.22,0.681,5.305,13.0
48.401,0.59,4.286,10.0
40.774,0.51,4.747,43.0
41.479,0.522,4.586,44.0
47.616,0.603,4.987,35.0
40.815,0.521,4.032,16.0
48.315,0.621,4.493,14.0
39.794,0.514,3.469,67.0
40.519,0.536,4.661,58.0
47.61,0.634,5.199,5.0
41.167,0.551,4.254,16.0
39.969,0.539,3.893,45.0
40.009,0.543,3.664,42.0
56.195,0.767,4.821,21.0
41.534,0.579,4.719,17.0
47.591,0.668,5.128,9.0
43.039,0.607,4.386,22.0
48.319,0.685,4.638,4.0
39.828,0.568,3.591,57.0
73.529,1.054,6.202,5.0
41.401,0.606,4.643,50.0
41.304,0.607,4.39,35.0
40.62,0.6,4.08,42.0
40.154,0.596,3.795,46.0
39.797,0.593,3.53,62.0
40.019,0.599,3.317,1.0
41.602,0.635,4.603,37.0
0.0,0.0,0.0,0.0
40.394,0.623,3.996,60.0
40.083,0.62,3.728,66.0
39.862,0.62,3.475,54.0
84.979,1.327,6.914,12.0
41.327,0.657,4.509,45.0
40.635,0.649,4.196,17.0
48.348,0.775,4.71,14.0
39.995,0.643,3.659,46.0
39.901,0.644,3.417,65.0
76.373,1.238,6.097,16.0
43.936,0.725,4.726,3.0
40.038,0.663,4.072,53.0
61.188,1.016,5.865,8.0
39.958,0.666,3.593,13.0
39.936,0.668,3.358,51.0
77.401,1.299,6.057,40.0
41.371,0.706,4.384,33.0
39.994,0.685,4.003,55.0
49.013,0.842,4.619,6.0
39.94,0.687,3.527,59.0
39.939,0.689,3.294,29.0
53.367,0.924,4.091,19.0
41.141,0.724,4.293,31.0
40.189,0.709,3.957,42.0
40.024,0.707,3.707,58.0
39.935,0.708,3.462,59.0
53.289,0.947,4.309,66.0
76.381,1.361,5.731,25.0
42.971,0.777,4.412,4.0
49.022,0.889,4.747,11.0
40.147,0.729,3.652,43.0
39.925,0.727,3.395,71.0
53.31,0.973,4.223,56.0
74.309,1.359,5.453,26.0
40.247,0.746,4.066,41.0
49.019,0.911,4.665,18.0
53.122,0.989,4.744,13.0
39.993,0.746,3.334,46.0
53.344,0.997,4.136,5.0
76.884,1.44,5.514,25.0
40.478,0.768,4.021,46.0
40.068,0.762,3.745,65.0
40.025,0.762,3.507,53.0
40.03,0.763,3.269,12.0
76.995,1.471,5.84,17.0
76.942,1.472,5.388,19.0
40.395,0.783,3.943,33.0
40.034,0.777,3.673,60.0
39.999,0.777,3.436,63.0
76.989,1.498,6.155,47.0
74.276,1.447,5.504,29.0
62.307,1.215,4.255,13.0
49.046,0.968,4.701,9.0
40.169,0.794,3.615,34.0
39.967,0.79,3.363,65.0
91.403,1.809,7.147,12.0
74.263,1.471,5.373,33.0
62.255,1.235,4.141,88.0
40.139,0.805,3.776,37.0
40.119,0.805,3.539,41.0
73.481,1.476,6.051,13.0
53.451,1.075,4.084,8.0
74.256,1.494,5.241,8.0
62.387,1.256,4.04,89.0
40.065,0.815,3.698,57.0
63.325,1.289,5.473,11.0
77.05,1.569,6.208,10.0
53.457,1.089,3.989,52.0
62.25,1.269,4.282,8.0
62.741,1.279,3.95,32.0
61.127,1.259,5.53,8.0
39.979,0.824,3.382,56.0
100.101,2.063,7.884,8.0
74.287,1.531,5.409,35.0
62.245,1.283,4.168,88.0
54.467,1.123,3.33,24.0
73.309,1.527,6.498,11.0
53.931,1.123,4.464,13.0
74.184,1.544,5.707,9.0
93.556,1.947,6.641,3.0
62.446,1.299,4.068,93.0
54.504,1.134,3.233,45.0
73.311,1.54,6.364,11.0
53.927,1.132,4.364,5.0
74.21,1.557,5.571,14.0
62.31,1.307,4.307,9.0
62.782,1.316,3.973,21.0
54.569,1.144,3.135,42.0
39.956,0.845,3.393,69.0
77.668,1.642,6.14,6.0
74.29,1.569,5.438,29.0
62.235,1.313,4.186,83.0
54.434,1.148,3.344,56.0
55.302,1.165,3.075,29.0
53.92,1.146,4.478,44.0
74.305,1.578,5.735,3.0
74.464,1.58,5.311,8.0
62.444,1.323,4.082,69.0
54.465,1.153,3.242,41.0
55.335,1.17,2.972,58.0
53.922,1.149,4.375,23.0
53.49,1.139,4.026,26.0
62.481,1.329,4.338,14.0
62.78,1.333,3.985,12.0
54.565,1.157,3.145,29.0
55.398,1.174,2.871,4.0
77.663,1.658,6.154,7.0
74.342,1.585,5.454,22.0
62.249,1.325,4.203,83.0
54.417,1.157,3.351,64.0
55.33,1.174,3.084,31.0
125.709,2.664,6.273,12.0
74.29,1.585,5.741,4.0
74.406,1.585,5.314,7.0
62.462,1.328,4.095,67.0
54.442,1.155,3.246,44.0
55.342,1.172,2.977,61.0
128.17,2.712,6.148,9.0
53.475,1.138,4.029,31.0
62.453,1.327,4.34,12.0
62.814,1.332,3.997,15.0
54.574,1.155,3.149,34.0
55.369,1.169,2.872,4.0
127.715,2.692,5.879,25.0
74.34,1.576,5.456,29.0
62.238,1.316,4.204,84.0
54.429,1.149,3.358,56.0
55.26,1.164,3.082,29.0
125.652,2.641,6.273,8.0
127.764,2.679,5.633,30.0
74.402,1.568,5.315,7.0
62.442,1.313,4.095,88.0
54.482,1.142,3.254,39.0
55.324,1.157,2.975,64.0
128.071,2.672,6.14,12.0
127.842,2.661,5.386,30.0
62.304,1.303,4.328,6.0
62.765,1.309,3.992,33.0
54.578,1.135,3.152,45.0
55.311,1.147,2.866,4.0
127.687,2.64,5.872,27.0
127.948,2.639,5.14,38.0
62.247,1.289,4.201,84.0
54.481,1.124,3.358,27.0
55.257,1.137,3.082,28.0
128.933,2.646,6.428,7.0
127.746,2.613,5.623,28.0
128.004,2.61,4.889,47.0
62.368,1.276,4.085,97.0
54.543,1.112,3.253,48.0
55.315,1.124,2.976,70.0
127.834,2.589,6.119,12.0
127.864,2.582,5.375,25.0
128.003,2.576,4.634,55.0
62.704,1.265,3.981,66.0
54.669,1.099,3.151,33.0
55.325,1.108,2.865,10.0
127.806,2.551,5.862,21.0
127.939,2.544,5.121,31.0
127.98,2.535,4.377,47.0
62.778,1.247,3.861,32.0
55.216,1.092,3.073,28.0
128.839,2.538,6.417,9.0
127.874,2.509,5.608,18.0
127.967,2.5,4.865,35.0
128.008,2.492,4.123,39.0
54.63,1.065,3.25,41.0
55.286,1.073,2.965,72.0
128.206,2.478,6.13,15.0
127.889,2.461,5.355,19.0
128.017,2.452,4.613,28.0
128.058,2.443,3.869,34.0
54.723,1.045,3.146,49.0
55.239,1.05,2.853,25.0
128.206,2.426,5.875,14.0
127.971,2.41,5.104,19.0
128.072,2.4,4.36,23.0
128.099,2.389,3.614,23.0
54.986,1.025,3.05,22.0
128.388,2.383,6.374,9.0
130.206,2.404,5.703,7.0
128.04,2.352,4.848,15.0
128.119,2.342,4.105,14.0
128.14,2.33,3.36,13.0
55.214,1.003,2.952,51.0
129.565,2.343,6.174,17.0
130.559,2.347,5.458,18.0
132.625,2.371,4.757,21.0
160.027,2.844,4.806,10.0
128.238,2.267,3.106,8.0
55.19,0.975,2.841,50.0
129.766,2.278,5.922,23.0
174.322,3.043,6.941,18.0
132.832,2.304,4.5,34.0
160.199,2.762,4.495,18.0
190.101,3.259,4.229,4.0
55.124,0.943,2.728,15.0
130.309,2.215,5.688,30.0
161.456,2.726,6.104,15.0
132.954,2.231,4.24,15.0
160.385,2.673,4.179,10.0
189.96,3.144,3.843,20.0
55.087,0.909,2.615,15.0
174.293,2.859,7.261,20.0
132.668,2.16,4.754,22.0
159.754,2.582,4.776,12.0
190.12,3.052,4.577,6.0
189.612,3.022,3.462,8.0
55.11,0.875,2.507,36.0
59.33,0.935,2.354,3.0
132.822,2.078,4.494,35.0
159.935,2.482,4.465,11.0
190.055,2.926,4.198,21.0
127.181,1.943,2.07,34.0
55.087,0.838,2.397,54.0
163.119,2.461,6.146,21.0
133.043,1.991,4.239,18.0
176.247,2.615,4.572,26.0
190.008,2.796,3.823,33.0
126.442,1.845,1.809,31.0
55.073,0.799,2.288,80.0
55.112,0.793,1.969,22.0
163.196,2.326,4.88,10.0
176.711,2.495,4.236,24.0
189.187,2.646,3.433,20.0
121.164,1.679,1.495,14.0
55.05,0.758,2.178,104.0
55.032,0.75,1.856,83.0
55.127,0.744,1.539,17.0
100.077,1.337,2.203,1.0
127.151,1.681,2.056,30.0
79.761,1.043,0.826,9.0
55.036,0.715,2.069,109.0
55.027,0.707,1.749,108.0
55.056,0.699,1.429,55.0
55.082,0.691,1.103,18.0
48.225,0.599,0.686,14.0
48.106,0.59,0.404,72.0
55.018,0.669,1.961,129.0
55.019,0.661,1.641,113.0
55.038,0.653,1.321,51.0
48.178,0.565,0.871,44.0
48.115,0.557,0.591,88.0
48.059,0.549,0.311,75.0
55.012,0.623,1.856,114.0
48.192,0.538,1.345,61.0
48.153,0.53,1.064,74.0
48.109,0.523,0.779,94.0
48.084,0.515,0.498,99.0
48.041,0.507,0.219,88.0
48.179,0.502,1.531,94.0
48.136,0.494,1.25,89.0
48.124,0.487,0.97,100.0
48.078,0.478,0.684,101.0
48.067,0.471,0.405,91.0
47.986,0.463,0.126,67.0
48.137,0.458,1.438,97.0
48.112,0.45,1.158,102.0
48.099,0.441,0.877,107.0
48.056,0.433,0.593,101.0
48.035,0.425,0.313,102.0
47.207,0.41,0.034,40.0
48.133,0.411,1.346,132.0
48.111,0.402,1.065,114.0
48.086,0.394,0.785,111.0
48.053,0.385,0.5,99.0
48.046,0.378,0.221,96.0
0.0,0.0,0.0,0.0
48.111,0.362,1.253,111.0
48.107,0.354,0.973,107.0
48.093,0.346,0.694,95.0
48.094,0.337,0.41,54.0
48.071,0.329,0.13,44.0
39.418,0.263,-0.121,40.0
48.127,0.313,1.163,101.0
48.127,0.304,0.883,75.0
48.166,0.296,0.605,48.0
48.197,0.288,0.321,32.0
47.329,0.274,0.04,40.0
38.563,0.216,-0.19,27.0
48.191,0.262,1.076,56.0
59.306,0.312,0.979,12.0
59.29,0.301,0.634,117.0
55.036,0.269,0.265,49.0
44.697,0.21,-0.044,18.0
37.838,0.171,-0.257,9.0
59.297,0.257,1.213,110.0
79.432,0.33,1.164,59.0
77.139,0.306,0.683,43.0
54.456,0.205,0.161,29.0
39.881,0.143,-0.113,23.0
37.787,0.128,-0.326,2.0
79.455,0.255,1.481,154.0
79.472,0.239,1.02,151.0
76.23,0.215,0.537,24.0
47.757,0.125,0.054,22.0
38.924,0.094,-0.181,32.0
32.407,0.072,-0.338,1.0
79.451,0.163,1.338,157.0
79.465,0.147,0.877,151.0
62.054,0.102,0.324,7.0
44.794,0.065,-0.029,22.0
38.321,0.048,-0.247,7.0
30.648,0.032,-0.375,1.0
79.461,0.068,1.196,151.0
79.419,0.052,0.735,150.0
55.246,0.024,0.19,11.0
40.771,0.009,-0.099,17.0
37.854,0.001,-0.311,1.0
29.545,-0.004,-0.414,2.0
79.466,-0.029,1.055,152.0
76.534,-0.045,0.572,17.0
48.37,-0.038,0.082,4.0
39.591,-0.039,-0.166,23.0
32.915,-0.04,-0.329,1.0
28.481,-0.04,-0.449,1.0
79.47,-0.13,0.916,151.0
76.24,-0.141,0.437,10.0
46.072,-0.095,-0.002,20.0
38.915,-0.089,-0.231,7.0
31.092,-0.078,-0.365,2.0
27.304,-0.074,-0.478,2.0
79.464,-0.233,0.778,150.0
56.16,-0.176,0.225,7.0
42.289,-0.142,-0.074,17.0
37.193,-0.133,-0.284,0.0
29.832,-0.113,-0.4,2.0
26.405,-0.106,-0.507,2.0
79.241,-0.336,0.642,44.0
55.817,-0.249,0.129,16.0
0.0,0.0,0.0,0.0
33.355,-0.163,-0.311,1.0
28.919,-0.148,-0.436,2.0
25.499,-0.136,-0.533,1.0
76.694,-0.428,0.494,12.0
48.785,-0.283,0.032,22.0
40.938,-0.247,-0.209,3.0
31.633,-0.198,-0.348,1.0
27.724,-0.18,-0.465,1.0
24.443,-0.164,-0.551,2.0
61.408,-0.426,0.294,16.0
46.149,-0.331,-0.045,5.0
40.583,-0.301,-0.274,15.0
30.25,-0.231,-0.382,1.0
26.795,-0.211,-0.493,3.0
23.688,-0.192,-0.573,2.0
57.448,-0.48,0.182,5.0
47.407,-0.407,-0.123,6.0
34.332,-0.303,-0.287,0.0
29.335,-0.266,-0.418,2.0
25.997,-0.241,-0.52,3.0
22.98,-0.219,-0.593,1.0
55.331,-0.541,0.087,5.0
0.0,0.0,0.0,0.0
32.739,-0.335,-0.325,1.0
28.444,-0.298,-0.45,4.0
25.048,-0.269,-0.54,1.0
22.16,-0.243,-0.606,1.0
79.458,-0.892,0.001,7.0
42.163,-0.483,-0.241,2.0
31.17,-0.365,-0.358,1.0
27.321,-0.326,-0.474,2.0
24.149,-0.294,-0.559,1.0
21.499,-0.267,-0.621,2.0
54.565,-0.692,-0.082,1.0
36.953,-0.478,-0.268,0.0
30.013,-0.396,-0.391,2.0
26.455,-0.356,-0.5,1.0
23.416,-0.321,-0.577,2.0
20.813,-0.29,-0.633,1.0
49.204,-0.699,-0.149,1.0
34.811,-0.503,-0.305,1.0
29.109,-0.428,-0.423,2.0
25.598,-0.383,-0.522,1.0
22.74,-0.346,-0.595,1.0
20.235,-0.313,-0.646,1.0
46.4,-0.73,-0.209,3.0
32.594,-0.521,-0.334,1.0
28.137,-0.457,-0.45,1.0
24.842,-0.41,-0.543,1.0
22.043,-0.369,-0.609,1.0
19.71,-0.336,-0.658,1.0
40.19,-0.695,-0.239,10.0
30.963,-0.543,-0.362,1.0
27.211,-0.484,-0.475,1.0
24.04,-0.434,-0.561,1.0
21.371,-0.392,-0.621,1.0
19.23,-0.358,-0.67,1.0
40.184,-0.758,-0.297,1.0
29.815,-0.57,-0.391,1.0
26.423,-0.512,-0.499,1.0
23.351,-0.459,-0.578,2.0
20.779,-0.414,-0.634,1.0
18.735,-0.378,-0.679,1.0
33.805,-0.691,-0.296,0.0
29.066,-0.602,-0.422,1.0
25.706,-0.54,-0.521,1.0
22.599,-0.481,-0.59,4.0
20.236,-0.436,-0.645,1.0
18.338,-0.4,-0.69,1.0
32.654,-0.721,-0.331,1.0
28.11,-0.628,-0.446,1.0
25.025,-0.566,-0.541,1.0
22.056,-0.505,-0.606,1.0
19.77,-0.458,-0.656,1.0
17.927,-0.42,-0.698,1.0
31.229,-0.74,-0.358,1.0
27.326,-0.655,-0.47,7.0
24.216,-0.587,-0.555,1.0
21.421,-0.525,-0.616,1.0
19.326,-0.48,-0.667,1.0
17.616,-0.442,-0.709,1.0
30.113,-0.763,-0.383,1.0
26.699,-0.684,-0.493,1.0
23.487,-0.609,-0.569,1.0
20.818,-0.546,-0.626,4.0
18.856,-0.5,-0.675,1.0
17.24,-0.462,-0.716,1.0
29.466,-0.796,-0.412,1.0
25.957,-0.709,-0.512,1.0
23.032,-0.636,-0.586,2.0
20.514,-0.572,-0.642,2.0
18.5,-0.521,-0.685,1.0
16.898,-0.481,-0.722,1.0
28.592,-0.821,-0.435,2.0
25.291,-0.733,-0.529,1.0
22.372,-0.655,-0.596,1.0
19.95,-0.59,-0.648,1.0
18.144,-0.542,-0.693,1.0
16.534,-0.499,-0.727,1.0
27.886,-0.848,-0.457,2.0
24.659,-0.757,-0.545,1.0
21.882,-0.678,-0.609,1.0
19.56,-0.612,-0.658,1.0
17.818,-0.563,-0.702,1.0
16.235,-0.518,-0.732,1.0
27.155,-0.872,-0.476,2.0
24.041,-0.779,-0.559,1.0
21.399,-0.7,-0.62,1.0
19.183,-0.633,-0.667,1.0
17.524,-0.583,-0.71,1.0
15.984,-0.537,-0.739,1.0
26.598,-0.9,-0.495,2.0
23.43,-0.799,-0.57,2.0
20.93,-0.72,-0.629,1.0
18.847,-0.654,-0.676,1.0
17.21,-0.603,-0.716,1.0
15.741,-0.556,-0.745,1.0
25.961,-0.923,-0.511,1.0
23.037,-0.826,-0.585,2.0
20.484,-0.74,-0.637,1.0
18.538,-0.676,-0.684,1.0
16.942,-0.622,-0.722,1.0
15.492,-0.574,-0.749,1.0
25.374,-0.946,-0.526,1.0
22.508,-0.846,-0.595,1.0
20.103,-0.762,-0.646,1.0
18.193,-0.695,-0.69,1.0
16.63,-0.641,-0.726,1.0
15.295,-0.594,-0.755,1.0
24.87,-0.971,-0.54,1.0
22.088,-0.869,-0.606,1.0
19.763,-0.784,-0.654,1.0
17.915,-0.716,-0.697,1.0
16.39,-0.66,-0.731,1.0
15.077,-0.612,-0.759,1.0
24.378,-0.995,-0.553,1.0
21.612,-0.889,-0.613,1.0
19.406,-0.804,-0.661,1.0
17.661,-0.737,-0.704,1.0
16.149,-0.679,-0.736,1.0
14.889,-0.631,-0.763,1.0
23.774,-1.013,-0.561,1.0
21.231,-0.911,-0.621,1.0
19.144,-0.827,-0.669,1.0
17.427,-0.759,-0.71,1.0
15.895,-0.697,-0.738,1.0
14.707,-0.65,-0.767,1.0
23.401,-1.039,-0.573,2.0
20.855,-0.932,-0.629,1.0
18.809,-0.847,-0.674,1.0
17.171,-0.778,-0.715,1.0
15.701,-0.717,-0.743,1.0
14.532,-0.668,-0.77,1.0
23.106,-1.067,-0.585,2.0
20.512,-0.953,-0.635,1.0
18.571,-0.869,-0.681,1.0
16.962,-0.799,-0.72,1.0
15.525,-0.736,-0.747,1.0
14.376,-0.687,-0.774,1.0
22.656,-1.087,-0.591,2.0
20.224,-0.976,-0.642,1.0
18.305,-0.889,-0.685,1.0
16.736,-0.819,-0.723,1.0
15.371,-0.757,-0.752,1.0
14.221,-0.705,-0.776,1.0
22.293,-1.109,-0.599,1.0
19.928,-0.997,-0.648,1.0
18.108,-0.912,-0.692,1.0
16.547,-0.839,-0.728,1.0
15.204,-0.776,-0.755,1.0
14.067,-0.723,-0.778,1.0
21.947,-1.131,-0.605,1.0
19.711,-1.022,-0.655,1.0
17.911,-0.935,-0.697,2.0
16.39,-0.861,-0.732,1.0
15.098,-0.798,-0.76,1.0
13.953,-0.742,-0.782,1.0
21.676,-1.156,-0.612,2.0
19.476,-1.045,-0.66,1.0
17.737,-0.958,-0.702,1.0
16.176,-0.879,-0.733,1.0
14.924,-0.816,-0.761,1.0
13.837,-0.761,-0.784,1.0
21.517,-1.186,-0.622,4.0
19.252,-1.067,-0.665,1.0
17.547,-0.979,-0.705,1.0
16.026,-0.899,-0.736,1.0
14.811,-0.836,-0.764,1.0
13.752,-0.781,-0.788,1.0
21.113,-1.202,-0.622,4.0
19.046,-1.09,-0.669,1.0
17.424,-1.003,-0.71,1.0
15.871,-0.919,-0.738,1.0
14.682,-0.855,-0.766,1.0
13.647,-0.8,-0.789,1.0
20.879,-1.226,-0.627,4.0
18.976,-1.12,-0.677,3.0
17.24,-1.024,-0.712,1.0
15.769,-0.942,-0.742,1.0
14.599,-0.877,-0.77,1.0
13.563,-0.819,-0.792,1.0
20.695,-1.252,-0.632,3.0
18.673,-1.136,-0.676,3.0
17.078,-1.045,-0.714,1.0
15.666,-0.964,-0.745,1.0
14.486,-0.896,-0.771,1.0
13.486,-0.839,-0.794,0.0
20.489,-1.277,-0.636,2.0
18.612,-1.166,-0.682,2.0
17.031,-1.073,-0.72,2.0
15.572,-0.986,-0.748,1.0
14.395,-0.916,-0.773,1.0
13.428,-0.859,-0.797,1.0
20.319,-1.303,-0.639,2.0
18.433,-1.188,-0.684,0.0
16.723,-1.083,-0.714,2.0
15.462,-1.007,-0.749,1.0
14.324,-0.937,-0.775,1.0
13.343,-0.878,-0.797,1.0
19.91,-1.312,-0.634,0.0
18.301,-1.212,-0.686,0.0
16.71,-1.112,-0.72,3.0
15.438,-1.032,-0.754,2.0
14.226,-0.956,-0.775,0.0
13.322,-0.9,-0.8,1.0
20.13,-1.362,-0.648,0.0
18.231,-1.239,-0.689,1.0
16.632,-1.136,-0.722,3.0
15.263,-1.048,-0.75,2.0
14.156,-0.977,-0.775,1.0
13.254,-0.919,-0.801,1.0
20.023,-1.39,-0.651,0.0
18.012,-1.257,-0.687,1.0
16.566,-1.161,-0.724,3.0
15.221,-1.072,-0.753,0.0
14.142,-1.001,-0.779,1.0
13.191,-0.938,-0.8,0.0
19.936,-1.419,-0.654,0.0
18.079,-1.292,-0.694,0.0
16.488,-1.184,-0.725,2.0
15.179,-1.095,-0.754,0.0
14.05,-1.019,-0.777,2.0
13.164,-0.959,-0.802,1.0
19.826,-1.446,-0.654,0.0
18.057,-1.322,-0.697,0.0
16.319,-1.201,-0.721,2.0
15.13,-1.118,-0.755,1.0
13.962,-1.037,-0.775,0.0
13.168,-0.982,-0.805,1.0
19.75,-1.475,-0.656,0.0
17.94,-1.345,-0.696,1.0
16.197,-1.22,-0.719,2.0
15.096,-1.142,-0.756,1.0
13.988,-1.063,-0.779,1.0
13.08,-0.999,-0.801,2.0
19.678,-1.503,-0.656,0.0
17.912,-1.374,-0.697,0.0
16.36,-1.26,-0.728,0.0
15.052,-1.165,-0.756,1.0
13.971,-1.086,-0.78,1.0
13.056,-1.019,-0.802,0.0
19.65,-1.535,-0.657,0.0
17.907,-1.404,-0.699,0.0
16.3,-1.283,-0.727,0.0
14.967,-1.184,-0.753,0.0
13.946,-1.107,-0.779,6.0
13.058,-1.042,-0.803,0.0
19.682,-1.57,-0.66,0.0
17.856,-1.431,-0.698,0.0
16.285,-1.31,-0.727,1.0
15.08,-1.218,-0.759,0.0
13.898,-1.127,-0.777,3.0
13.05,-1.063,-0.803,0.0
19.666,-1.602,-0.66,0.0
17.825,-1.458,-0.697,0.0
16.277,-1.337,-0.727,1.0
15.139,-1.248,-0.762,0.0
13.908,-1.151,-0.778,1.0
13.06,-1.085,-0.803,0.0
19.656,-1.634,-0.659,0.0
17.856,-1.49,-0.698,0.0
16.28,-1.364,-0.727,2.0
15.148,-1.274,-0.762,0.0
13.853,-1.169,-0.774,0.0
13.073,-1.108,-0.804,1.0
19.713,-1.671,-0.66,0.0
17.889,-1.522,-0.699,0.0
16.277,-1.39,-0.726,8.0
15.13,-1.297,-0.76,0.0
13.954,-1.201,-0.779,0.0
13.06,-1.129,-0.802,1.0
19.71,-1.703,-0.658,0.0
17.893,-1.552,-0.697,0.0
16.283,-1.417,-0.725,9.0
15.124,-1.321,-0.759,0.0
13.983,-1.226,-0.779,0.0
13.039,-1.148,-0.799,0.0
19.818,-1.744,-0.66,2.0
17.963,-1.587,-0.697,0.0
16.284,-1.444,-0.722,9.0
15.153,-1.348,-0.758,0.0
14.015,-1.251,-0.779,0.0
13.191,-1.182,-0.806,0.0
19.864,-1.78,-0.658,1.0
18.009,-1.619,-0.696,0.0
16.297,-1.471,-0.72,10.0
15.187,-1.375,-0.757,0.0
14.074,-1.279,-0.779,0.0
13.239,-1.207,-0.806,0.0
19.946,-1.819,-0.657,0.0
18.04,-1.651,-0.693,0.0
16.307,-1.497,-0.717,10.0
15.251,-1.405,-0.756,0.0
14.12,-1.305,-0.778,0.0
13.244,-1.229,-0.803,0.0
20.05,-1.859,-0.655,0.0
18.143,-1.688,-0.693,0.0
16.319,-1.523,-0.713,10.0
15.313,-1.434,-0.755,0.0
14.186,-1.333,-0.778,0.0
13.281,-1.252,-0.802,0.0
20.177,-1.902,-0.654,1.0
18.279,-1.728,-0.693,0.0
16.322,-1.548,-0.709,9.0
15.377,-1.463,-0.754,0.0
14.251,-1.361,-0.778,0.0
13.294,-1.274,-0.799,0.0
20.307,-1.944,-0.652,1.0
18.364,-1.764,-0.69,0.0
16.339,-1.574,-0.704,9.0
15.456,-1.494,-0.753,0.0
14.323,-1.389,-0.777,0.0
13.373,-1.301,-0.799,0.0
20.485,-1.992,-0.65,2.0
18.48,-1.802,-0.688,0.0
16.358,-1.6,-0.699,7.0
15.54,-1.525,-0.751,0.0
14.419,-1.419,-0.776,0.0
13.425,-1.326,-0.797,0.0
20.64,-2.037,-0.647,3.0
18.613,-1.842,-0.686,1.0
16.383,-1.626,-0.694,5.0
15.629,-1.556,-0.749,1.0
14.488,-1.446,-0.774,0.0
13.507,-1.353,-0.796,1.0
20.67,-2.069,-0.639,5.0
18.775,-1.884,-0.684,0.0
16.418,-1.652,-0.688,0.0
15.726,-1.587,-0.747,1.0
14.564,-1.474,-0.772,0.0
13.577,-1.378,-0.794,0.0
20.678,-2.098,-0.63,5.0
18.914,-1.924,-0.68,1.0
16.759,-1.71,-0.694,0.0
15.873,-1.624,-0.746,1.0
14.64,-1.502,-0.769,1.0
13.645,-1.404,-0.792,1.0
20.888,-2.148,-0.626,4.0
19.061,-1.965,-0.676,1.0
17.309,-1.789,-0.709,0.0
15.995,-1.658,-0.744,1.0
14.731,-1.531,-0.766,1.0
13.743,-1.432,-0.79,0.0
21.347,-2.223,-0.629,1.0
19.278,-2.013,-0.673,1.0
17.549,-1.837,-0.709,0.0
16.166,-1.697,-0.743,1.0
14.867,-1.565,-0.765,0.0
13.835,-1.46,-0.788,0.0
21.777,-2.296,-0.629,2.0
19.668,-2.079,-0.676,1.0
17.737,-1.88,-0.706,0.0
16.229,-1.724,-0.737,2.0
15.003,-1.598,-0.763,0.0
13.925,-1.487,-0.785,1.0
22.017,-2.35,-0.623,7.0
20.012,-2.141,-0.676,3.0
17.904,-1.92,-0.703,0.0
16.258,-1.748,-0.728,2.0
15.107,-1.628,-0.76,1.0
14.047,-1.518,-0.783,0.0
22.179,-2.394,-0.614,10.0
20.102,-2.175,-0.666,10.0
18.072,-1.96,-0.698,0.0
16.3,-1.772,-0.72,2.0
15.252,-1.662,-0.757,1.0
14.177,-1.548,-0.781,0.0
22.416,-2.446,-0.607,18.0
20.2,-2.209,-0.657,12.0
18.31,-2.007,-0.695,0.0
16.3,-1.791,-0.709,1.0
15.456,-1.702,-0.757,0.0
14.31,-1.58,-0.779,0.0
22.669,-2.5,-0.598,20.0
20.426,-2.258,-0.65,10.0
18.519,-2.051,-0.69,1.0
16.354,-1.816,-0.7,1.0
15.637,-1.74,-0.755,0.0
14.478,-1.615,-0.778,0.0
23.041,-2.567,-0.592,25.0
20.683,-2.309,-0.644,11.0
18.729,-2.096,-0.685,1.0
16.465,-1.846,-0.693,1.0
15.787,-1.774,-0.751,1.0
14.596,-1.644,-0.774,0.0
23.284,-2.62,-0.581,24.0
21.011,-2.369,-0.638,9.0
19.201,-2.169,-0.688,1.0
17.194,-1.947,-0.711,0.0
16.019,-1.817,-0.75,1.0
14.728,-1.674,-0.769,0.0
23.5,-2.669,-0.569,5.0
21.353,-2.43,-0.632,14.0
19.504,-2.224,-0.683,3.0
17.565,-2.007,-0.713,0.0
16.19,-1.853,-0.745,2.0
14.911,-1.71,-0.767,1.0
24.236,-2.778,-0.567,1.0
21.682,-2.49,-0.625,19.0
19.672,-2.263,-0.674,9.0
17.783,-2.05,-0.707,0.0
16.252,-1.877,-0.735,3.0
15.098,-1.747,-0.765,1.0
24.867,-2.875,-0.562,1.0
22.049,-2.553,-0.618,24.0
19.915,-2.31,-0.666,17.0
18.02,-2.094,-0.702,0.0
16.293,-1.897,-0.723,7.0
15.285,-1.783,-0.761,1.0
25.375,-2.957,-0.552,1.0
22.558,-2.633,-0.613,32.0
20.16,-2.357,-0.657,17.0
18.244,-2.137,-0.695,0.0
16.327,-1.916,-0.711,7.0
15.497,-1.822,-0.759,1.0
25.851,-3.036,-0.54,1.0
22.742,-2.675,-0.598,22.0
20.527,-2.418,-0.651,13.0
18.772,-2.215,-0.699,1.0
16.386,-1.937,-0.699,5.0
15.714,-1.861,-0.755,1.0
26.36,-3.119,-0.528,1.0
23.148,-2.743,-0.588,16.0
20.923,-2.483,-0.645,16.0
19.105,-2.271,-0.694,3.0
16.61,-1.978,-0.693,2.0
15.956,-1.903,-0.752,1.0
26.99,-3.216,-0.515,1.0
23.453,-2.798,-0.574,5.0
21.278,-2.543,-0.636,20.0
19.268,-2.306,-0.682,8.0
17.459,-2.092,-0.712,1.0
16.203,-1.945,-0.749,2.0
27.634,-3.315,-0.502,1.0
24.231,-2.91,-0.571,1.0
21.578,-2.595,-0.625,20.0
19.574,-2.357,-0.674,11.0
17.865,-2.155,-0.712,1.0
16.263,-1.964,-0.736,7.0
28.509,-3.441,-0.491,1.0
25.032,-3.025,-0.566,1.0
22.032,-2.666,-0.617,4.0
19.86,-2.406,-0.665,12.0
18.099,-2.196,-0.704,1.0
16.309,-1.981,-0.722,6.0
29.108,-3.534,-0.473,1.0
25.494,-3.099,-0.552,1.0
22.9,-2.786,-0.619,9.0
20.285,-2.471,-0.66,14.0
18.596,-2.268,-0.705,1.0
16.367,-1.999,-0.709,10.0
29.965,-3.657,-0.458,1.0
26.159,-3.196,-0.54,1.0
23.032,-2.817,-0.6,15.0
20.646,-2.528,-0.651,19.0
18.906,-2.318,-0.698,6.0
16.429,-2.017,-0.695,5.0
31.198,-3.827,-0.445,1.0
26.729,-3.282,-0.525,1.0
23.332,-2.868,-0.584,5.0
20.978,-2.581,-0.64,17.0
19.13,-2.357,-0.687,13.0
17.108,-2.11,-0.706,1.0
32.446,-3.999,-0.43,0.0
27.462,-3.388,-0.512,0.0
23.991,-2.962,-0.576,1.0
21.25,-2.626,-0.627,4.0
19.431,-2.404,-0.678,18.0
