X,Y,Z,Reflectivity
39.354,-0.365,3.971,63.0
53.795,-0.486,6.943,8.0
39.814,-0.353,4.907,49.0
40.271,-0.35,4.73,23.0
39.964,-0.34,4.459,47.0
39.931,-0.333,4.225,58.0
39.524,-0.323,3.954,58.0
39.618,-0.314,5.078,47.0
39.654,-0.307,4.852,47.0
41.941,-0.319,4.889,4.0
40.239,-0.299,4.454,45.0
39.691,-0.289,4.164,48.0
39.445,-0.28,3.911,51.0
39.606,-0.271,5.04,51.0
39.61,-0.265,4.81,62.0
39.605,-0.259,4.58,35.0
40.182,-0.256,4.41,52.0
39.399,-0.245,4.097,60.0
39.494,-0.239,3.879,59.0
39.692,-0.23,5.014,61.0
39.588,-0.223,4.77,37.0
40.006,-0.22,4.588,22.0
40.128,-0.214,4.365,53.0
39.773,-0.206,4.097,54.0
39.803,-0.2,3.87,49.0
39.719,-0.189,4.977,50.0
39.818,-0.183,4.758,47.0
46.882,-0.209,5.33,6.0
0.0,0.0,0.0,0.0
39.877,-0.166,4.067,69.0
40.007,-0.16,3.849,52.0
39.608,-0.147,4.922,61.0
39.697,-0.142,4.702,33.0
40.393,-0.139,4.549,40.0
40.983,-0.134,4.374,42.0
40.773,-0.128,4.115,23.0
0.0,0.0,0.0,0.0
39.519,-0.107,4.868,58.0
39.787,-0.102,4.669,65.0
40.275,-0.098,4.492,48.0
40.68,-0.093,4.296,46.0
40.669,-0.087,4.06,40.0
40.132,-0.081,3.774,23.0
39.555,-0.068,4.828,60.0
39.833,-0.063,4.629,54.0
40.787,-0.059,4.503,30.0
40.367,-0.053,4.218,54.0
40.838,-0.048,4.03,22.0
40.199,-0.042,3.735,28.0
39.653,-0.031,4.794,66.0
39.688,-0.025,4.567,53.0
40.509,-0.021,4.425,60.0
40.282,-0.015,4.163,47.0
0.0,0.0,0.0,0.0
0.0,0.0,0.0,0.0
39.864,0.006,4.772,43.0
39.798,0.011,4.532,59.0
40.352,0.016,4.36,63.0
40.301,0.021,4.116,56.0
40.279,0.026,3.88,66.0
41.687,0.033,3.774,39.0
39.893,0.043,4.726,59.0
40.355,0.048,4.545,35.0
40.801,0.054,4.357,62.0
40.129,0.058,4.048,59.0
40.206,0.063,3.822,47.0
47.728,0.08,4.261,9.0
39.7,0.079,4.652,49.0
40.101,0.084,4.465,48.0
40.542,0.09,4.278,54.0
40.11,0.094,3.994,74.0
59.234,0.145,5.555,15.0
47.715,0.122,4.197,11.0
39.605,0.113,4.589,55.0
40.127,0.119,4.415,56.0
40.026,0.123,4.17,60.0
59.212,0.19,5.818,11.0
47.678,0.158,4.408,29.0
54.735,0.187,4.742,8.0
39.774,0.148,4.555,57.0
40.161,0.153,4.365,41.0
40.211,0.157,4.135,59.0
40.177,0.162,3.894,66.0
47.678,0.197,4.343,47.0
39.899,0.169,3.402,44.0
40.408,0.183,4.571,39.0
40.101,0.186,4.302,57.0
40.271,0.191,4.085,47.0
47.619,0.231,4.547,13.0
40.299,0.2,3.613,43.0
39.903,0.202,3.346,50.0
40.605,0.217,4.535,51.0
40.412,0.22,4.277,59.0
57.341,0.319,5.733,27.0
47.651,0.269,4.482,16.0
42.11,0.242,3.715,18.0
39.906,0.233,3.289,56.0
40.431,0.248,4.457,53.0
40.475,0.252,4.224,60.0
47.468,0.3,4.677,23.0
57.263,0.367,5.302,16.0
74.872,0.487,6.496,14.0
74.996,0.495,6.072,35.0
40.352,0.278,4.388,62.0
40.193,0.28,4.135,50.0
47.476,0.335,4.607,54.0
40.022,0.286,3.646,40.0
75.446,0.546,6.433,13.0
48.457,0.354,3.85,69.0
41.128,0.313,4.41,29.0
40.697,0.313,4.125,16.0
47.66,0.37,4.552,42.0
48.808,0.383,4.371,4.0
48.691,0.386,4.077,53.0
48.392,0.388,3.77,97.0
41.013,0.34,4.333,31.0
47.327,0.396,4.723,10.0
61.695,0.521,5.796,19.0
48.761,0.415,4.291,36.0
48.539,0.417,3.989,51.0
48.403,0.42,3.696,94.0
40.468,0.362,4.212,58.0
47.655,0.43,4.681,8.0
61.751,0.561,5.704,9.0
48.717,0.446,4.211,56.0
48.416,0.447,3.902,103.0
48.43,0.451,3.621,56.0
40.0,0.383,4.098,41.0
40.539,0.391,3.916,15.0
39.961,0.388,3.626,47.0
48.549,0.475,4.117,53.0
48.42,0.477,3.823,109.0
61.783,0.612,4.519,6.0
39.899,0.406,4.022,61.0
64.402,0.66,6.115,18.0
40.137,0.413,3.576,52.0
48.433,0.502,4.027,114.0
48.463,0.505,3.747,48.0
55.795,0.585,3.989,53.0
47.687,0.513,4.728,5.0
39.998,0.432,3.731,40.0
48.403,0.526,4.231,47.0
48.439,0.528,3.947,98.0
56.104,0.616,4.244,61.0
55.796,0.615,3.896,21.0
56.238,0.635,5.481,13.0
39.938,0.453,3.658,46.0
48.416,0.551,4.15,112.0
56.149,0.642,4.48,10.0
56.012,0.643,4.142,44.0
99.359,1.146,6.769,20.0
56.216,0.663,5.382,7.0
39.937,0.472,3.589,52.0
48.452,0.575,4.071,80.0
56.12,0.668,4.381,80.0
55.958,0.669,4.042,26.0
91.344,1.097,6.066,1.0
48.337,0.592,4.543,15.0
48.399,0.595,4.264,14.0
56.153,0.692,4.619,70.0
56.107,0.694,4.281,79.0
99.29,1.233,6.997,22.0
91.508,1.14,5.916,15.0
48.364,0.613,4.46,6.0
56.209,0.715,4.853,17.0
61.647,0.786,4.961,10.0
64.127,0.82,4.78,16.0
64.148,0.823,4.406,5.0
91.61,1.179,5.76,32.0
48.331,0.633,4.37,12.0
56.196,0.737,4.751,106.0
61.637,0.81,4.85,57.0
64.136,0.846,4.665,106.0
64.124,0.847,4.29,33.0
54.989,0.727,3.358,58.0
39.808,0.536,3.527,59.0
64.45,0.869,5.332,8.0
64.313,0.868,4.943,35.0
64.135,0.868,4.549,108.0
64.075,0.868,4.17,66.0
54.984,0.746,3.257,112.0
56.21,0.775,4.876,10.0
64.482,0.89,5.214,14.0
64.161,0.887,4.813,34.0
64.116,0.888,4.428,84.0
63.992,0.887,4.045,35.0
54.965,0.763,3.154,105.0
56.201,0.792,4.769,10.0
84.72,1.195,6.693,9.0
64.144,0.905,4.691,11.0
64.093,0.905,4.306,77.0
63.904,0.903,3.92,21.0
54.947,0.778,3.05,113.0
89.008,1.277,7.386,9.0
64.446,0.925,4.969,2.0
91.292,1.312,6.505,40.0
64.058,0.921,4.183,42.0
54.972,0.79,3.268,107.0
54.971,0.791,2.948,115.0
85.138,1.241,6.902,11.0
91.777,1.338,6.903,53.0
91.373,1.332,6.338,5.0
63.959,0.932,4.056,38.0
54.959,0.801,3.164,101.0
54.993,0.802,2.845,118.0
84.69,1.25,6.705,10.0
91.507,1.351,6.707,54.0
91.788,1.355,6.191,55.0
63.825,0.941,3.925,34.0
54.943,0.81,3.058,119.0
55.002,0.811,2.74,114.0
91.774,1.368,7.087,19.0
91.553,1.364,6.534,38.0
91.797,1.367,6.013,30.0
54.969,0.818,3.273,83.0
54.956,0.817,2.952,117.0
55.003,0.817,2.634,92.0
91.644,1.377,6.899,20.0
91.79,1.377,6.371,21.0
76.394,1.146,4.856,15.0
54.93,0.823,3.164,99.0
54.993,0.823,2.847,115.0
55.004,0.822,2.526,97.0
91.45,1.381,6.704,40.0
91.798,1.384,6.192,71.0
63.734,0.96,3.926,31.0
54.921,0.826,3.057,111.0
54.994,0.826,2.739,111.0
55.052,0.826,2.422,71.0
91.751,1.389,6.547,35.0
91.837,1.388,6.014,13.0
54.962,0.829,3.277,74.0
54.957,0.828,2.95,115.0
55.0,0.827,2.631,95.0
55.088,0.827,2.314,40.0
91.806,1.39,6.369,38.0
76.451,1.155,4.856,29.0
54.932,0.828,3.167,98.0
54.966,0.827,2.842,116.0
55.009,0.826,2.522,96.0
59.355,0.889,2.375,12.0
91.802,1.386,6.185,55.0
63.738,0.96,3.92,31.0
54.934,0.825,3.057,110.0
54.992,0.824,2.733,113.0
55.045,0.823,2.414,73.0
163.165,2.434,6.206,14.0
91.787,1.378,5.999,14.0
54.963,0.823,3.271,84.0
54.956,0.821,2.949,116.0
54.995,0.819,2.624,93.0
55.086,0.818,2.307,60.0
132.981,1.97,4.793,16.0
63.902,0.952,4.048,20.0
54.947,0.816,3.159,103.0
54.98,0.814,2.84,123.0
55.001,0.812,2.513,110.0
55.102,0.811,2.197,24.0
132.837,1.949,4.522,40.0
63.795,0.941,3.913,23.0
54.943,0.807,3.048,127.0
54.99,0.805,2.729,116.0
55.024,0.803,2.403,97.0
55.112,0.801,2.085,17.0
132.99,1.928,4.257,27.0
54.98,0.8,3.26,109.0
54.964,0.797,2.938,124.0
54.993,0.794,2.617,85.0
55.041,0.792,2.292,83.0
55.113,0.79,1.973,20.0
133.003,1.898,3.986,9.0
54.962,0.787,3.148,116.0
54.983,0.784,2.827,125.0
54.999,0.781,2.506,111.0
55.056,0.778,2.182,82.0
55.088,0.775,1.861,45.0
163.071,2.286,4.557,13.0
54.957,0.772,3.034,128.0
54.999,0.769,2.714,105.0
55.013,0.766,2.394,111.0
55.05,0.762,2.068,83.0
55.07,0.759,1.747,49.0
176.327,2.42,4.568,23.0
54.983,0.756,2.924,127.0
55.0,0.752,2.603,117.0
55.026,0.748,2.283,117.0
55.046,0.745,1.956,86.0
55.089,0.741,1.636,41.0
100.099,1.339,2.388,9.0
55.008,0.737,2.812,132.0
54.999,0.733,2.49,112.0
55.026,0.729,2.17,111.0
55.023,0.724,1.843,94.0
55.082,0.721,1.524,48.0
55.06,0.716,1.202,0.0
55.012,0.716,2.701,129.0
54.997,0.711,2.379,78.0
55.02,0.707,2.058,106.0
55.015,0.702,1.731,105.0
55.074,0.698,1.411,51.0
55.086,0.694,1.091,6.0
55.006,0.693,2.589,131.0
54.994,0.688,2.266,87.0
55.016,0.683,1.947,120.0
55.011,0.678,1.619,106.0
55.049,0.674,1.299,67.0
55.089,0.669,0.978,15.0
55.006,0.668,2.476,130.0
55.003,0.662,2.154,119.0
55.015,0.657,1.833,108.0
55.027,0.652,1.507,74.0
55.053,0.647,1.187,52.0
48.153,0.561,0.757,45.0
55.015,0.64,2.364,123.0
55.018,0.635,2.043,126.0
55.014,0.629,1.722,95.0
48.181,0.546,1.221,52.0
48.15,0.541,0.94,67.0
48.112,0.536,0.659,89.0
55.014,0.611,2.253,109.0
55.015,0.605,1.932,64.0
48.189,0.525,1.411,58.0
48.141,0.519,1.124,83.0
48.128,0.514,0.843,93.0
48.101,0.509,0.562,98.0
48.213,0.508,1.877,46.0
48.175,0.502,1.595,85.0
48.152,0.496,1.313,93.0
48.112,0.491,1.027,101.0
48.101,0.485,0.746,102.0
48.08,0.48,0.465,92.0
48.166,0.478,1.779,98.0
48.157,0.472,1.497,88.0
48.13,0.466,1.215,98.0
48.098,0.461,0.929,100.0
48.085,0.455,0.649,106.0
48.046,0.449,0.368,99.0
48.143,0.446,1.68,98.0
48.119,0.44,1.399,107.0
48.108,0.434,1.117,106.0
48.073,0.428,0.832,107.0
48.065,0.422,0.551,103.0
48.045,0.416,0.271,99.0
48.125,0.413,1.582,100.0
48.121,0.407,1.302,115.0
48.102,0.401,1.021,110.0
48.072,0.394,0.735,112.0
48.057,0.388,0.454,97.0
48.035,0.382,0.175,85.0
48.115,0.378,1.485,115.0
48.117,0.372,1.204,114.0
48.095,0.365,0.923,110.0
48.062,0.358,0.638,101.0
48.067,0.352,0.358,60.0
47.919,0.345,0.077,53.0
48.117,0.341,1.389,110.0
48.112,0.335,1.108,103.0
48.107,0.328,0.828,89.0
48.111,0.321,0.542,51.0
48.154,0.315,0.262,60.0
0.0,0.0,0.0,0.0
48.134,0.303,1.294,102.0
48.135,0.296,1.013,90.0
48.15,0.29,0.733,55.0
48.181,0.283,0.448,55.0
54.945,0.315,0.191,30.0
40.022,0.224,-0.093,15.0
48.181,0.263,1.2,60.0
48.201,0.256,0.92,43.0
59.29,0.307,0.785,66.0
59.292,0.298,0.434,48.0
54.426,0.266,0.082,6.0
38.892,0.184,-0.167,41.0
59.279,0.273,1.36,138.0
59.289,0.264,1.015,111.0
59.308,0.255,0.67,91.0
59.345,0.246,0.32,41.0
0.0,0.0,0.0,0.0
38.084,0.146,-0.237,13.0
79.443,0.294,1.668,150.0
79.464,0.282,1.206,152.0
79.439,0.269,0.744,115.0
54.921,0.177,0.189,29.0
40.452,0.124,-0.095,16.0
37.884,0.11,-0.31,1.0
79.465,0.219,1.515,151.0
79.464,0.207,1.053,151.0
76.437,0.187,0.569,25.0
47.964,0.109,0.072,22.0
39.15,0.082,-0.168,38.0
32.9,0.064,-0.332,1.0
79.451,0.143,1.364,158.0
79.462,0.129,0.901,151.0
61.892,0.09,0.342,8.0
0.0,0.0,0.0,0.0
38.399,0.043,-0.238,9.0
30.723,0.029,-0.368,1.0
79.459,0.063,1.212,151.0
79.429,0.049,0.75,150.0
55.183,0.025,0.2,5.0
40.908,0.011,-0.092,17.0
38.002,0.004,-0.307,1.0
29.618,-0.001,-0.411,2.0
79.464,-0.018,1.064,151.0
76.531,-0.031,0.579,16.0
48.312,-0.028,0.084,4.0
39.57,-0.03,-0.163,22.0
33.026,-0.031,-0.328,1.0
28.515,-0.032,-0.449,2.0
79.466,-0.104,0.915,151.0
76.032,-0.113,0.434,13.0
45.772,-0.076,-0.004,20.0
38.826,-0.072,-0.233,7.0
31.09,-0.063,-0.367,1.0
27.242,-0.06,-0.48,2.0
79.451,-0.191,0.769,150.0
56.142,-0.146,0.217,17.0
41.934,-0.116,-0.08,18.0
37.108,-0.11,-0.29,1.0
29.753,-0.093,-0.405,2.0
26.325,-0.088,-0.512,2.0
79.227,-0.281,0.622,28.0
51.032,-0.19,0.104,9.0
39.533,-0.155,-0.147,3.0
33.284,-0.137,-0.321,1.0
28.732,-0.123,-0.444,1.0
25.194,-0.113,-0.535,1.0
76.597,-0.36,0.464,11.0
46.883,-0.229,0.012,22.0
39.573,-0.201,-0.218,5.0
31.245,-0.165,-0.357,1.0
27.479,-0.15,-0.473,1.0
24.23,-0.137,-0.558,3.0
61.299,-0.361,0.263,16.0
42.286,-0.257,-0.063,3.0
39.581,-0.249,-0.289,4.0
29.872,-0.194,-0.394,1.0
26.547,-0.178,-0.504,2.0
23.427,-0.162,-0.581,2.0
53.099,-0.378,0.134,16.0
0.0,0.0,0.0,0.0
33.806,-0.254,-0.306,1.0
28.958,-0.224,-0.433,2.0
25.492,-0.202,-0.529,1.0
22.604,-0.184,-0.6,2.0
49.791,-0.417,0.039,4.0
42.256,-0.362,-0.21,5.0
31.908,-0.28,-0.344,1.0
27.849,-0.25,-0.464,3.0
24.55,-0.226,-0.551,1.0
21.742,-0.205,-0.614,1.0
50.874,-0.491,-0.045,17.0
38.514,-0.379,-0.257,9.0
30.349,-0.305,-0.378,2.0
26.741,-0.275,-0.491,1.0
23.652,-0.248,-0.571,2.0
20.993,-0.225,-0.629,1.0
47.33,-0.519,-0.122,2.0
35.46,-0.396,-0.297,1.0
29.332,-0.334,-0.415,2.0
25.808,-0.299,-0.517,1.0
22.884,-0.271,-0.591,1.0
20.289,-0.244,-0.641,1.0
43.851,-0.539,-0.185,3.0
32.755,-0.41,-0.328,1.0
28.291,-0.36,-0.447,2.0
24.944,-0.323,-0.541,1.0
22.121,-0.291,-0.607,1.0
19.754,-0.265,-0.657,2.0
42.153,-0.576,-0.247,1.0
30.937,-0.429,-0.36,1.0
27.261,-0.385,-0.475,1.0
24.011,-0.344,-0.56,2.0
21.386,-0.311,-0.622,1.0
19.185,-0.284,-0.669,2.0
36.448,-0.548,-0.272,0.0
29.795,-0.455,-0.394,1.0
26.321,-0.408,-0.5,1.0
23.294,-0.367,-0.58,1.0
20.665,-0.33,-0.634,1.0
18.661,-0.302,-0.68,1.0
33.808,-0.556,-0.305,1.0
28.936,-0.483,-0.428,1.0
25.476,-0.431,-0.524,1.0
22.536,-0.387,-0.596,1.0
20.085,-0.349,-0.647,1.0
18.186,-0.321,-0.691,1.0
32.187,-0.575,-0.34,1.0
27.988,-0.507,-0.457,1.0
24.689,-0.453,-0.545,1.0
21.847,-0.406,-0.611,1.0
19.549,-0.368,-0.66,1.0
17.765,-0.339,-0.702,1.0
30.576,-0.591,-0.369,1.0
26.933,-0.527,-0.48,1.0
23.784,-0.471,-0.561,1.0
21.197,-0.425,-0.624,1.0
19.053,-0.387,-0.671,1.0
17.397,-0.358,-0.713,1.0
29.593,-0.615,-0.4,1.0
26.154,-0.55,-0.505,1.0
23.075,-0.491,-0.578,2.0
20.572,-0.443,-0.636,1.0
18.567,-0.405,-0.681,1.0
16.954,-0.374,-0.72,1.0
28.774,-0.641,-0.431,1.0
25.459,-0.574,-0.528,1.0
22.49,-0.513,-0.596,1.0
20.056,-0.462,-0.649,1.0
18.154,-0.423,-0.692,1.0
16.59,-0.391,-0.728,1.0
27.499,-0.655,-0.45,5.0
24.664,-0.593,-0.546,1.0
21.853,-0.531,-0.609,1.0
19.554,-0.481,-0.66,1.0
17.761,-0.441,-0.702,1.0
16.182,-0.406,-0.733,1.0
27.097,-0.687,-0.481,3.0
23.811,-0.61,-0.56,1.0
21.014,-0.544,-0.615,2.0
19.072,-0.498,-0.67,1.0
17.386,-0.459,-0.711,1.0
15.859,-0.423,-0.739,1.0
26.214,-0.705,-0.5,1.0
23.247,-0.631,-0.577,2.0
20.729,-0.568,-0.634,3.0
18.637,-0.516,-0.679,1.0
17.01,-0.475,-0.718,1.0
15.558,-0.439,-0.746,1.0
25.532,-0.726,-0.521,1.0
22.601,-0.649,-0.591,1.0
20.177,-0.585,-0.643,1.0
18.226,-0.533,-0.688,1.0
16.633,-0.491,-0.723,1.0
15.296,-0.456,-0.753,1.0
24.867,-0.747,-0.539,1.0
21.999,-0.667,-0.603,1.0
19.712,-0.603,-0.653,1.0
17.871,-0.552,-0.697,1.0
16.296,-0.507,-0.729,0.0
15.041,-0.473,-0.76,1.0
24.125,-0.764,-0.553,1.0
21.494,-0.686,-0.616,1.0
19.301,-0.622,-0.664,1.0
17.547,-0.57,-0.706,1.0
15.999,-0.524,-0.736,1.0
14.763,-0.488,-0.764,1.0
23.531,-0.783,-0.567,2.0
20.972,-0.703,-0.626,1.0
18.875,-0.639,-0.672,1.0
17.228,-0.588,-0.714,1.0
15.742,-0.542,-0.743,1.0
14.526,-0.504,-0.769,1.0
23.006,-0.803,-0.582,1.0
20.47,-0.72,-0.635,1.0
18.565,-0.659,-0.682,1.0
16.926,-0.606,-0.721,1.0
15.476,-0.558,-0.748,1.0
14.316,-0.521,-0.774,1.0
22.454,-0.822,-0.594,1.0
20.055,-0.74,-0.645,1.0
18.164,-0.675,-0.688,1.0
16.601,-0.622,-0.726,1.0
15.245,-0.575,-0.754,1.0
14.096,-0.536,-0.778,1.0
21.961,-0.84,-0.605,1.0
19.687,-0.759,-0.655,1.0
17.902,-0.695,-0.698,2.0
16.249,-0.636,-0.728,1.0
15.015,-0.592,-0.759,1.0
13.899,-0.552,-0.782,1.0
21.464,-0.857,-0.614,1.0
19.308,-0.776,-0.662,1.0
17.608,-0.713,-0.705,1.0
16.057,-0.655,-0.736,1.0
14.799,-0.608,-0.763,1.0
13.738,-0.569,-0.787,1.0
21.045,-0.876,-0.623,1.0
18.99,-0.796,-0.671,1.0
17.316,-0.731,-0.711,1.0
15.793,-0.671,-0.74,1.0
14.599,-0.625,-0.767,1.0
13.582,-0.586,-0.792,1.0
20.654,-0.895,-0.632,1.0
18.645,-0.813,-0.677,1.0
17.044,-0.748,-0.716,1.0
15.576,-0.689,-0.745,1.0
14.409,-0.641,-0.772,1.0
13.426,-0.602,-0.796,1.0
20.278,-0.913,-0.64,1.0
18.363,-0.832,-0.684,1.0
16.767,-0.765,-0.72,1.0
15.387,-0.707,-0.75,1.0
14.226,-0.658,-0.775,1.0
13.296,-0.619,-0.8,1.0
19.929,-0.931,-0.647,1.0
18.127,-0.853,-0.692,1.0
16.542,-0.783,-0.725,1.0
15.176,-0.723,-0.753,1.0
14.048,-0.674,-0.778,1.0
13.138,-0.634,-0.802,1.0
19.662,-0.953,-0.655,2.0
17.873,-0.872,-0.697,2.0
16.329,-0.801,-0.73,1.0
15.016,-0.741,-0.758,1.0
13.901,-0.691,-0.781,1.0
13.019,-0.651,-0.806,0.0
19.349,-0.971,-0.66,1.0
17.648,-0.891,-0.703,2.0
16.055,-0.816,-0.731,1.0
14.838,-0.758,-0.761,1.0
13.783,-0.709,-0.786,1.0
12.88,-0.666,-0.808,1.0
19.105,-0.992,-0.667,1.0
17.416,-0.909,-0.707,1.0
15.916,-0.836,-0.737,1.0
14.68,-0.776,-0.764,1.0
13.653,-0.726,-0.789,1.0
12.764,-0.683,-0.81,1.0
18.857,-1.011,-0.673,2.0
17.245,-0.93,-0.713,1.0
15.765,-0.855,-0.741,1.0
14.542,-0.794,-0.768,1.0
13.54,-0.743,-0.792,1.0
12.658,-0.699,-0.812,1.0
18.652,-1.033,-0.678,2.0
17.02,-0.948,-0.715,1.0
15.602,-0.874,-0.744,1.0
14.416,-0.812,-0.771,1.0
13.438,-0.761,-0.795,1.0
12.559,-0.715,-0.814,1.0
18.442,-1.053,-0.683,1.0
16.857,-0.968,-0.72,1.0
15.486,-0.894,-0.749,1.0
14.27,-0.828,-0.772,1.0
13.342,-0.779,-0.798,1.0
12.46,-0.731,-0.816,1.0
18.277,-1.075,-0.688,1.0
16.708,-0.988,-0.723,1.0
15.322,-0.911,-0.75,1.0
14.152,-0.846,-0.775,1.0
13.238,-0.796,-0.8,1.0
12.376,-0.748,-0.818,0.0
18.157,-1.099,-0.694,2.0
16.531,-1.006,-0.725,1.0
15.185,-0.929,-0.752,1.0
14.069,-0.865,-0.778,1.0
13.153,-0.813,-0.802,0.0
12.311,-0.765,-0.82,0.0
17.837,-1.111,-0.691,2.0
16.4,-1.027,-0.728,1.0
15.072,-0.948,-0.754,1.0
13.953,-0.882,-0.779,1.0
13.065,-0.83,-0.803,0.0
12.23,-0.781,-0.821,0.0
17.776,-1.138,-0.698,0.0
16.279,-1.047,-0.731,1.0
15.002,-0.97,-0.758,1.0
13.878,-0.902,-0.781,0.0
12.991,-0.848,-0.805,1.0
12.175,-0.799,-0.823,0.0
17.647,-1.16,-0.701,0.0
16.094,-1.063,-0.73,5.0
14.892,-0.988,-0.759,1.0
13.798,-0.92,-0.783,1.0
12.929,-0.867,-0.806,1.0
12.102,-0.815,-0.823,2.0
17.461,-1.178,-0.701,0.0
15.984,-1.083,-0.731,7.0
14.848,-1.011,-0.763,1.0
13.745,-0.94,-0.785,1.0
12.852,-0.883,-0.807,0.0
12.078,-0.834,-0.826,1.0
17.414,-1.204,-0.705,1.0
15.953,-1.108,-0.736,7.0
14.74,-1.029,-0.763,2.0
13.675,-0.959,-0.786,1.0
12.792,-0.901,-0.807,0.0
12.028,-0.851,-0.827,0.0
17.323,-1.227,-0.707,1.0
15.917,-1.132,-0.739,4.0
14.6,-1.044,-0.76,1.0
13.632,-0.979,-0.788,1.0
12.768,-0.921,-0.81,1.0
11.975,-0.868,-0.827,0.0
17.067,-1.238,-0.702,0.0
15.876,-1.157,-0.742,7.0
14.619,-1.07,-0.765,0.0
13.594,-0.999,-0.789,1.0
12.708,-0.938,-0.809,1.0
11.939,-0.885,-0.828,0.0
17.268,-1.281,-0.714,0.0
15.853,-1.181,-0.745,6.0
14.547,-1.089,-0.765,1.0
13.505,-1.015,-0.787,2.0
12.679,-0.957,-0.81,1.0
11.914,-0.903,-0.829,0.0
17.227,-1.307,-0.716,0.0
15.758,-1.201,-0.743,2.0
14.549,-1.113,-0.768,3.0
13.519,-1.039,-0.791,1.0
12.673,-0.978,-0.812,1.0
11.894,-0.922,-0.829,0.0
17.016,-1.319,-0.71,0.0
15.585,-1.213,-0.738,0.0
14.49,-1.133,-0.767,2.0
13.476,-1.058,-0.79,1.0
12.598,-0.993,-0.809,1.0
11.892,-0.942,-0.831,0.0
16.663,-1.32,-0.698,1.0
15.721,-1.25,-0.746,0.0
14.485,-1.156,-0.768,1.0
13.473,-1.08,-0.791,1.0
12.588,-1.013,-0.81,0.0
11.893,-0.961,-0.832,1.0
16.467,-1.331,-0.691,1.0
15.671,-1.272,-0.745,0.0
14.417,-1.175,-0.766,0.0
13.499,-1.104,-0.794,1.0
12.595,-1.034,-0.811,0.0
11.841,-0.976,-0.829,2.0
16.394,-1.352,-0.689,1.0
15.653,-1.296,-0.744,0.0
14.462,-1.201,-0.769,0.0
13.474,-1.124,-0.793,1.0
12.596,-1.055,-0.811,0.0
11.842,-0.995,-0.829,0.0
16.411,-1.379,-0.689,1.0
15.667,-1.322,-0.745,0.0
14.521,-1.23,-0.771,0.0
13.452,-1.143,-0.791,1.0
12.601,-1.075,-0.811,0.0
11.86,-1.016,-0.83,0.0
16.39,-1.403,-0.688,6.0
15.68,-1.347,-0.745,0.0
14.522,-1.253,-0.771,0.0
13.426,-1.162,-0.789,0.0
12.61,-1.096,-0.811,0.0
11.86,-1.034,-0.829,0.0
16.389,-1.429,-0.686,7.0
15.689,-1.373,-0.744,0.0
14.525,-1.275,-0.77,0.0
13.546,-1.194,-0.795,0.0
12.655,-1.119,-0.813,1.0
11.864,-1.053,-0.828,0.0
16.402,-1.456,-0.685,6.0
15.713,-1.399,-0.744,0.0
14.532,-1.298,-0.768,0.0
13.528,-1.213,-0.792,0.0
12.618,-1.135,-0.809,0.0
11.888,-1.074,-0.828,0.0
16.423,-1.482,-0.684,6.0
15.777,-1.429,-0.744,0.0
14.518,-1.319,-0.765,1.0
13.565,-1.237,-0.792,0.0
12.696,-1.162,-0.812,0.0
11.919,-1.094,-0.828,0.0
16.426,-1.507,-0.68,7.0
15.842,-1.458,-0.744,1.0
14.569,-1.346,-0.765,1.0
13.589,-1.259,-0.79,0.0
12.779,-1.188,-0.814,0.0
11.939,-1.114,-0.827,0.0
16.456,-1.534,-0.678,5.0
15.877,-1.485,-0.742,1.0
14.618,-1.371,-0.764,1.0
13.653,-1.285,-0.791,0.0
12.787,-1.207,-0.811,0.0
11.949,-1.132,-0.824,0.0
16.578,-1.57,-0.679,2.0
16.005,-1.52,-0.744,1.0
14.697,-1.4,-0.764,0.0
13.693,-1.309,-0.789,0.0
12.82,-1.229,-0.81,0.0
12.052,-1.159,-0.828,0.0
16.788,-1.614,-0.682,2.0
16.104,-1.552,-0.743,1.0
14.777,-1.429,-0.763,0.0
13.737,-1.332,-0.787,1.0
12.861,-1.251,-0.808,0.0
12.102,-1.181,-0.827,0.0
17.155,-1.673,-0.691,1.0
16.191,-1.583,-0.742,2.0
14.822,-1.454,-0.761,0.0
13.803,-1.358,-0.786,1.0
12.924,-1.275,-0.807,0.0
12.127,-1.2,-0.824,0.0
17.575,-1.738,-0.702,0.0
16.239,-1.61,-0.738,4.0
14.942,-1.486,-0.761,0.0
13.861,-1.382,-0.784,0.0
12.994,-1.3,-0.806,0.0
12.195,-1.223,-0.824,0.0
17.769,-1.781,-0.702,0.0
16.252,-1.633,-0.731,2.0
15.026,-1.514,-0.759,1.0
13.926,-1.408,-0.781,0.0
13.079,-1.326,-0.806,0.0
12.255,-1.246,-0.823,0.0
17.914,-1.819,-0.7,0.0
16.277,-1.657,-0.725,3.0
15.153,-1.547,-0.758,0.0
14.0,-1.433,-0.779,0.0
13.137,-1.349,-0.803,0.0
12.322,-1.269,-0.821,0.0
17.992,-1.851,-0.694,0.0
16.294,-1.68,-0.718,2.0
15.259,-1.578,-0.756,0.0
14.09,-1.461,-0.777,1.0
13.228,-1.375,-0.802,0.0
12.379,-1.29,-0.819,0.0
18.173,-1.892,-0.692,0.0
16.308,-1.702,-0.71,1.0
15.376,-1.609,-0.754,0.0
14.24,-1.494,-0.778,1.0
13.287,-1.398,-0.799,0.0
12.497,-1.318,-0.82,0.0
18.378,-1.936,-0.69,1.0
16.324,-1.724,-0.702,0.0
15.516,-1.643,-0.752,1.0
14.331,-1.521,-0.774,0.0
13.408,-1.427,-0.798,0.0
12.579,-1.342,-0.818,0.0
18.568,-1.979,-0.686,0.0
16.401,-1.752,-0.695,1.0
15.642,-1.675,-0.749,0.0
14.46,-1.552,-0.773,0.0
13.509,-1.453,-0.796,1.0
12.641,-1.363,-0.814,0.0
18.792,-2.025,-0.683,1.0
16.499,-1.781,-0.689,0.0
15.816,-1.712,-0.747,1.0
14.588,-1.582,-0.771,1.0
13.608,-1.479,-0.793,0.0
12.74,-1.389,-0.812,0.0
19.014,-2.07,-0.678,1.0
17.201,-1.877,-0.708,0.0
15.986,-1.748,-0.745,1.0
14.699,-1.611,-0.767,1.0
13.713,-1.506,-0.79,1.0
12.852,-1.415,-0.811,0.0
19.447,-2.139,-0.681,2.0
17.554,-1.934,-0.71,0.0
16.174,-1.786,-0.743,1.0
14.868,-1.645,-0.765,0.0
13.82,-1.533,-0.787,0.0
12.962,-1.441,-0.809,0.0
19.719,-2.19,-0.677,3.0
17.763,-1.976,-0.706,0.0
16.247,-1.811,-0.734,2.0
15.021,-1.678,-0.762,0.0
13.947,-1.562,-0.784,1.0
13.051,-1.464,-0.805,1.0
19.815,-2.221,-0.665,9.0
17.954,-2.016,-0.7,0.0
16.288,-1.833,-0.724,2.0
15.186,-1.712,-0.759,0.0
14.1,-1.593,-0.782,0.0
13.171,-1.491,-0.802,0.0
20.09,-2.272,-0.659,9.0
18.189,-2.061,-0.696,0.0
16.304,-1.85,-0.712,1.0
15.4,-1.751,-0.758,0.0
14.242,-1.623,-0.778,0.0
13.33,-1.522,-0.801,0.0
20.331,-2.319,-0.651,17.0
18.461,-2.109,-0.691,0.0
16.356,-1.872,-0.701,1.0
15.565,-1.785,-0.753,1.0
14.408,-1.655,-0.776,0.0
13.458,-1.549,-0.798,0.0
20.596,-2.368,-0.643,14.0
18.812,-2.167,-0.689,1.0
16.46,-1.899,-0.692,2.0
15.777,-1.823,-0.751,1.0
14.58,-1.688,-0.773,0.0
13.613,-1.579,-0.796,0.0
20.99,-2.432,-0.638,15.0
19.247,-2.233,-0.689,3.0
16.85,-1.958,-0.694,2.0
16.031,-1.866,-0.749,1.0
14.722,-1.717,-0.768,1.0
13.739,-1.605,-0.791,0.0
21.352,-2.492,-0.63,17.0
19.453,-2.274,-0.679,10.0
17.629,-2.063,-0.711,1.0
16.24,-1.904,-0.745,3.0
14.928,-1.753,-0.765,0.0
13.881,-1.633,-0.787,0.0
21.727,-2.553,-0.622,24.0
19.678,-2.316,-0.67,16.0
17.875,-2.107,-0.705,1.0
16.263,-1.919,-0.731,7.0
15.136,-1.789,-0.762,1.0
14.058,-1.664,-0.784,0.0
22.052,-2.608,-0.611,25.0
19.958,-2.364,-0.661,17.0
18.142,-2.152,-0.699,0.0
16.306,-1.937,-0.718,6.0
15.377,-1.829,-0.76,1.0
14.256,-1.698,-0.782,0.0
22.588,-2.688,-0.605,16.0
20.315,-2.421,-0.654,13.0
18.579,-2.217,-0.698,1.0
16.344,-1.953,-0.704,6.0
15.597,-1.866,-0.756,1.0
14.463,-1.733,-0.779,0.0
23.031,-2.757,-0.595,21.0
20.745,-2.486,-0.647,15.0
18.996,-2.279,-0.695,3.0
16.458,-1.977,-0.693,2.0
15.834,-1.905,-0.752,1.0
14.641,-1.764,-0.774,1.0
23.291,-2.803,-0.579,10.0
21.12,-2.544,-0.639,19.0
19.211,-2.317,-0.684,8.0
17.215,-2.079,-0.708,1.0
16.156,-1.953,-0.752,2.0
14.812,-1.793,-0.769,1.0
23.793,-2.878,-0.567,1.0
21.431,-2.594,-0.627,17.0
19.501,-2.363,-0.675,14.0
17.761,-2.155,-0.712,1.0
16.25,-1.974,-0.739,6.0
15.066,-1.832,-0.767,0.0
24.805,-3.014,-0.567,1.0
21.785,-2.649,-0.615,4.0
19.82,-2.413,-0.666,14.0
18.0,-2.193,-0.703,1.0
16.298,-1.988,-0.725,7.0
15.302,-1.869,-0.763,1.0
25.367,-3.095,-0.553,1.0
22.834,-2.788,-0.621,6.0
20.252,-2.475,-0.659,15.0
18.525,-2.266,-0.705,1.0
16.354,-2.003,-0.71,11.0
15.555,-1.907,-0.759,1.0
26.028,-3.188,-0.54,1.0
22.997,-2.819,-0.601,16.0
20.681,-2.537,-0.652,19.0
18.876,-2.318,-0.698,6.0
16.41,-2.017,-0.695,6.0
15.802,-1.944,-0.754,1.0
26.642,-3.275,-0.525,1.0
23.291,-2.865,-0.584,6.0
21.006,-2.585,-0.64,16.0
19.093,-2.352,-0.686,12.0
17.079,-2.106,-0.705,1.0
16.128,-1.99,-0.753,2.0
27.509,-3.392,-0.512,1.0
23.959,-2.956,-0.575,1.0
21.274,-2.626,-0.625,4.0
19.428,-2.4,-0.677,19.0
17.796,-2.2,-0.716,1.0
16.252,-2.011,-0.741,6.0
28.279,-3.496,-0.496,1.0
24.862,-3.075,-0.57,1.0
22.362,-2.768,-0.632,3.0
19.782,-2.45,-0.667,16.0
18.1,-2.243,-0.708,0.0
16.312,-2.023,-0.726,7.0
29.129,-3.61,-0.479,1.0
25.502,-3.162,-0.556,1.0
22.83,-2.832,-0.62,10.0
20.275,-2.516,-0.662,18.0
18.598,-2.309,-0.707,2.0
16.363,-2.033,-0.71,9.0
29.907,-3.713,-0.459,0.0
26.12,-3.244,-0.541,1.0
23.014,-2.86,-0.6,14.0
20.607,-2.562,-0.65,18.0
18.889,-2.349,-0.697,9.0
16.457,-2.048,-0.695,3.0
31.346,-3.898,-0.446,1.0
26.815,-3.336,-0.525,1.0
23.369,-2.908,-0.583,5.0
20.958,-2.609,-0.637,7.0
19.181,-2.389,-0.686,16.0
17.371,-2.164,-0.714,1.0
32.505,-4.047,-0.426,1.0
27.708,-3.451,-0.511,1.0
24.389,-3.038,-0.58,1.0
21.597,-2.691,-0.632,1.0
19.51,-2.432,-0.675,18.0
17.853,-2.226,-0.714,1.0
35.892,-4.473,-0.429,1.0
28.553,-3.559,-0.494,1.0
25.074,-3.126,-0.568,1.0
22.569,-2.814,-0.634,4.0
19.984,-2.492,-0.669,14.0
18.244,-2.276,-0.708,1.0
35.952,-4.483,-0.388,6.0
29.487,-3.677,-0.477,1.0
25.766,-3.213,-0.554,1.0
22.849,-2.85,-0.616,12.0
20.411,-2.546,-0.66,19.0
18.767,-2.341,-0.707,3.0
36.103,-4.502,-0.349,2.0
30.451,-3.797,-0.457,0.0
26.388,-3.291,-0.537,1.0
23.094,-2.88,-0.596,11.0
20.757,-2.589,-0.647,12.0
18.999,-2.37,-0.694,12.0
39.325,-4.903,-0.334,1.0
31.941,-3.982,-0.442,1.0
27.122,-3.381,-0.521,1.0
23.622,-2.944,-0.582,2.0
21.099,-2.63,-0.633,3.0
19.326,-2.409,-0.683,18.0
42.61,-5.309,-0.313,0.0
32.961,-4.106,-0.418,1.0
28.057,-3.494,-0.506,1.0
24.614,-3.065,-0.578,1.0
22.072,-2.749,-0.636,1.0
19.701,-2.453,-0.674,16.0
45.316,-5.641,-0.281,4.0
35.885,-4.465,-0.413,3.0
28.921,-3.598,-0.488,1.0
25.301,-3.147,-0.565,1.0
22.744,-2.828,-0.629,7.0
20.211,-2.513,-0.667,18.0
45.347,-5.637,-0.228,8.0
35.989,-4.472,-0.373,4.0
29.978,-3.724,-0.471,0.0
25.98,-3.226,-0.55,1.0
22.965,-2.851,-0.609,14.0
20.601,-2.557,-0.656,19.0
50.386,-6.252,-0.195,1.0
38.782,-4.81,-0.357,1.0
31.31,-3.882,-0.455,1.0
26.693,-3.308,-0.533,1.0
23.269,-2.883,-0.59,5.0
20.955,-2.595,-0.643,13.0
50.328,-6.232,-0.136,1.0
0.0,0.0,0.0,0.0
32.586,-4.031,-0.436,1.0
27.501,-3.4,-0.518,1.0
24.068,-2.974,-0.582,1.0
21.311,-2.633,-0.63,3.0
0.0,0.0,0.0,0.0
45.224,-5.582,-0.311,0.0
33.574,-4.142,-0.41,0.0
28.495,-3.513,-0.503,1.0
24.949,-3.074,-0.574,1.0
22.551,-2.778,-0.64,4.0
0.0,0.0,0.0,0.0
45.32,-5.578,-0.26,2.0
35.571,-4.375,-0.393,0.0
29.344,-3.607,-0.485,1.0
25.638,-3.149,-0.561,1.0
22.866,-2.807,-0.622,12.0
66.184,-8.124,0.049,0.0
50.37,-6.178,-0.231,0.0
37.272,-4.568,-0.37,2.0
30.229,-3.702,-0.464,1.0
26.35,-3.225,-0.546,1.0
23.1,-2.825,-0.602,14.0
0.0,0.0,0.0,0.0
50.336,-6.151,-0.173,1.0
38.623,-4.716,-0.339,1.0
31.854,-3.886,-0.453,0.0
27.026,-3.295,-0.529,1.0
23.534,-2.867,-0.586,5.0
0.0,0.0,0.0,0.0
50.42,-6.136,-0.115,0.0
41.215,-5.011,-0.315,0.0
32.959,-4.004,-0.431,1.0
27.893,-3.385,-0.514,1.0
24.509,-2.972,-0.583,1.0
0.0,0.0,0.0,0.0
0.0,0.0,0.0,0.0
0.0,0.0,0.0,0.0
34.198,-4.135,-0.408,1.0
28.722,-3.469,-0.497,1.0
25.221,-3.044,-0.571,1.0
87.134,-10.516,0.462,1.0
0.0,0.0,0.0,0.0
0.0,0.0,0.0,0.0
36.775,-4.424,-0.398,2.0
29.595,-3.556,-0.479,1.0
25.823,-3.1,-0.556,1.0
87.498,-10.504,0.562,4.0
0.0,0.0,0.0,0.0
50.253,-6.018,-0.214,0.0
37.322,-4.465,-0.363,2.0
30.441,-3.638,-0.459,1.0
26.519,-3.165,-0.541,1.0
87.335,-10.425,0.659,11.0
0.0,0.0,0.0,0.0
50.398,-6.0,-0.159,5.0
39.291,-4.672,-0.338,1.0
32.253,-3.831,-0.45,1.0
27.22,-3.229,-0.526,1.0
86.267,-10.235,0.745,10.0
96.635,-11.45,0.317,1.0
50.451,-5.969,-0.104,3.0
41.334,-4.884,-0.311,0.0
33.016,-3.896,-0.425,1.0
28.004,-3.301,-0.51,1.0
86.171,-10.158,0.837,31.0
0.0,0.0,0.0,0.0
0.0,0.0,0.0,0.0
0.0,0.0,0.0,0.0
34.165,-4.005,-0.403,0.0
28.93,-3.386,-0.496,1.0
86.213,-10.093,0.929,150.0
87.334,-10.209,0.473,12.0
0.0,0.0,0.0,0.0
0.0,0.0,0.0,0.0
35.529,-4.135,-0.382,0.0
29.663,-3.447,-0.477,1.0
86.232,-10.023,1.02,153.0
87.278,-10.128,0.565,81.0
0.0,0.0,0.0,0.0
50.415,-5.831,-0.219,2.0
37.863,-4.373,-0.367,0.0
30.419,-3.508,-0.458,1.0
86.244,-9.947,1.11,175.0
87.181,-10.037,0.654,9.0
0.0,0.0,0.0,0.0
50.395,-5.783,-0.167,6.0
39.286,-4.501,-0.341,0.0
31.91,-3.65,-0.448,1.0
86.255,-9.868,1.198,171.0
86.296,-9.854,0.736,39.0
78.661,-8.967,0.248,2.0
50.424,-5.738,-0.116,0.0
41.453,-4.708,-0.317,0.0
32.67,-3.705,-0.426,1.0
86.26,-9.784,1.285,150.0
86.253,-9.764,0.822,66.0
0.0,0.0,0.0,0.0
0.0,0.0,0.0,0.0
44.991,-5.065,-0.3,0.0
33.985,-3.819,-0.409,1.0
86.226,-9.692,1.369,89.0
86.183,-9.668,0.906,127.0
0.0,0.0,0.0,0.0
0.0,0.0,0.0,0.0
44.317,-4.942,-0.252,0.0
0.0,0.0,0.0,0.0
86.277,-9.607,1.453,44.0
86.225,-9.581,0.988,59.0
87.286,-9.679,0.531,4.0
0.0,0.0,0.0,0.0
0.0,0.0,0.0,0.0
37.116,-4.091,-0.375,0.0
86.308,-9.515,1.536,49.0
86.265,-9.489,1.071,63.0
87.253,-9.577,0.614,8.0
0.0,0.0,0.0,0.0
0.0,0.0,0.0,0.0
39.224,-4.278,-0.361,0.0
86.345,-9.42,1.617,38.0
86.29,-9.393,1.151,71.0
87.23,-9.474,0.694,10.0
0.0,0.0,0.0,0.0
50.71,-5.483,-0.147,0.0
39.774,-4.291,-0.329,0.0
86.46,-9.33,1.698,11.0
86.322,-9.293,1.23,71.0
86.343,-9.274,0.765,17.0
79.609,-8.53,0.268,13.0
0.0,0.0,0.0,0.0
41.18,-4.393,-0.304,0.0
86.777,-9.258,1.781,11.0
86.377,-9.193,1.307,59.0
86.379,-9.171,0.841,150.0
0.0,0.0,0.0,0.0
0.0,0.0,0.0,0.0
0.0,0.0,0.0,0.0
188.223,-19.847,4.026,6.0
86.412,-9.088,1.381,33.0
86.453,-9.069,0.915,150.0
0.0,0.0,0.0,0.0
0.0,0.0,0.0,0.0
45.661,-4.754,-0.26,0.0
188.499,-19.63,4.188,21.0
87.126,-9.049,1.464,11.0
86.745,-8.986,0.99,5.0
0.0,0.0,0.0,0.0
0.0,0.0,0.0,0.0
0.0,0.0,0.0,0.0
188.189,-19.349,4.334,42.0
89.148,-9.14,1.57,4.0
88.901,-9.09,1.086,4.0
89.669,-9.143,0.602,2.0
0.0,0.0,0.0,0.0
50.431,-5.115,-0.206,2.0
188.026,-19.075,4.479,54.0
95.745,-9.685,1.762,14.0
94.575,-9.539,1.228,13.0
94.621,-9.518,0.708,2.0
0.0,0.0,0.0,0.0
50.429,-5.044,-0.168,7.0
187.597,-18.771,4.609,45.0
0.0,0.0,0.0,0.0
95.554,-9.504,1.312,4.0
95.839,-9.504,0.787,2.0
0.0,0.0,0.0,0.0
50.446,-4.975,-0.131,4.0
187.695,-18.511,4.746,47.0
187.54,-18.439,3.727,7.0
96.921,-9.5,1.401,1.0
97.239,-9.502,0.869,1.0
0.0,0.0,0.0,0.0
50.459,-4.902,-0.095,1.0
149.507,-14.525,3.886,39.0
149.441,-14.472,3.074,44.0
100.729,-9.723,1.525,1.0
0.0,0.0,0.0,0.0
90.858,-8.717,0.381,1.0
0.0,0.0,0.0,0.0
149.292,-14.281,3.981,60.0
188.008,-17.925,3.992,34.0
0.0,0.0,0.0,0.0
0.0,0.0,0.0,0.0
90.951,-8.587,0.441,1.0
0.0,0.0,0.0,0.0
149.424,-14.066,4.08,35.0
188.282,-17.664,4.116,43.0
108.571,-10.151,1.784,16.0
108.433,-10.104,1.182,49.0
90.805,-8.433,0.497,1.0
60.992,-5.645,0.002,0.0
149.428,-13.83,4.172,33.0
188.382,-17.375,4.234,41.0
108.761,-9.996,1.853,18.0
108.599,-9.947,1.248,176.0
91.409,-8.344,0.554,1.0
0.0,0.0,0.0,0.0
149.407,-13.591,4.258,33.0
188.1,-17.048,4.337,49.0
0.0,0.0,0.0,0.0
108.726,-9.784,1.312,27.0
0.0,0.0,0.0,0.0
0.0,0.0,0.0,0.0
188.459,-16.838,5.476,25.0
188.498,-16.777,4.449,36.0
0.0,0.0,0.0,0.0
110.233,-9.738,1.388,6.0
97.923,-8.619,0.701,5.0
0.0,0.0,0.0,0.0
190.189,-16.677,5.624,8.0
157.324,-13.741,3.793,104.0
0.0,0.0,0.0,0.0
121.775,-10.555,1.595,153.0
0.0,0.0,0.0,0.0
0.0,0.0,0.0,0.0
157.356,-13.534,4.73,84.0
189.165,-16.203,4.653,34.0
165.055,-14.081,3.158,4.0
121.772,-10.348,1.652,10.0
0.0,0.0,0.0,0.0
0.0,0.0,0.0,0.0
157.545,-13.282,4.805,42.0
165.1,-13.863,4.133,71.0
201.659,-16.863,3.946,6.0
121.997,-10.159,1.708,150.0
0.0,0.0,0.0,0.0
0.0,0.0,0.0,0.0
157.333,-12.991,4.865,42.0
193.701,-15.927,4.928,23.0
202.621,-16.591,4.048,8.0
122.145,-9.959,1.759,17.0
0.0,0.0,0.0,0.0
0.0,0.0,0.0,0.0
164.682,-13.312,5.154,68.0
206.411,-16.614,5.328,10.0
284.839,-22.83,5.793,12.0
128.158,-10.226,1.891,187.0
0.0,0.0,0.0,0.0
0.0,0.0,0.0,0.0
212.945,-16.837,6.738,23.0
212.449,-16.723,5.556,16.0
257.468,-20.179,5.322,32.0
0.0,0.0,0.0,0.0
0.0,0.0,0.0,0.0
0.0,0.0,0.0,0.0
196.715,-15.202,6.286,49.0
213.256,-16.405,5.642,29.0
197.069,-15.091,4.133,26.0
148.43,-11.313,2.283,147.0
0.0,0.0,0.0,0.0
0.0,0.0,0.0,0.0
196.883,-14.858,6.346,39.0
196.954,-14.793,5.264,34.0
284.772,-21.288,6.049,20.0
148.594,-11.055,2.324,5.0
0.0,0.0,0.0,0.0
0.0,0.0,0.0,0.0
195.934,-14.43,6.361,34.0
220.246,-16.141,5.937,8.0
204.947,-14.946,4.399,24.0
0.0,0.0,0.0,0.0
0.0,0.0,0.0,0.0
0.0,0.0,0.0,0.0
196.409,-14.103,6.416,26.0
204.825,-14.631,5.562,47.0
284.757,-20.242,6.166,12.0
154.927,-10.956,2.486,3.0
0.0,0.0,0.0,0.0
0.0,0.0,0.0,0.0
204.051,-14.269,6.7,46.0
212.717,-14.797,5.811,71.0
221.114,-15.3,4.821,41.0
0.0,0.0,0.0,0.0
0.0,0.0,0.0,0.0
0.0,0.0,0.0,0.0
208.233,-14.165,6.864,28.0
228.403,-15.451,6.267,41.0
237.158,-15.959,5.2,61.0
187.187,-12.527,3.052,151.0
0.0,0.0,0.0,0.0
0.0,0.0,0.0,0.0
208.831,-13.809,6.903,33.0
248.346,-16.328,6.836,63.0
248.409,-16.244,5.466,61.0
187.186,-12.173,3.065,151.0
155.725,-10.07,1.69,3.0
0.0,0.0,0.0,0.0
212.337,-13.634,7.03,8.0
248.337,-15.851,6.848,161.0
265.197,-16.833,5.847,64.0
187.237,-11.815,3.074,21.0
0.0,0.0,0.0,0.0
0.0,0.0,0.0,0.0
236.816,-14.748,7.844,18.0
263.41,-16.305,7.266,150.0
263.492,-16.211,5.809,24.0
187.357,-11.46,3.075,158.0
0.0,0.0,0.0,0.0
0.0,0.0,0.0,0.0
212.466,-12.819,7.033,8.0
272.025,-16.312,7.496,103.0
279.107,-16.632,6.144,37.0
200.96,-11.904,3.29,6.0
0.0,0.0,0.0,0.0
0.0,0.0,0.0,0.0
0.0,0.0,0.0,0.0
0.0,0.0,0.0,0.0
0.0,0.0,0.0,0.0
227.925,-13.055,3.715,90.0
0.0,0.0,0.0,0.0
0.0,0.0,0.0,0.0
278.756,-15.729,9.183,11.0
0.0,0.0,0.0,0.0
0.0,0.0,0.0,0.0
228.083,-12.616,3.691,151.0
0.0,0.0,0.0,0.0
0.0,0.0,0.0,0.0
0.0,0.0,0.0,0.0
0.0,0.0,0.0,0.0
0.0,0.0,0.0,0.0
0.0,0.0,0.0,0.0
0.0,0.0,0.0,0.0
0.0,0.0,0.0,0.0
0.0,0.0,0.0,0.0
0.0,0.0,0.0,0.0
0.0,0.0,0.0,0.0
0.0,0.0,0.0,0.0
0.0,0.0,0.0,0.0
0.0,0.0,0.0,0.0
0.0,0.0,0.0,0.0
0.0,0.0,0.0,0.0
0.0,0.0,0.0,0.0
0.0,0.0,0.0,0.0
0.0,0.0,0.0,0.0
0.0,0.0,0.0,0.0
0.0,0.0,0.0,0.0
0.0,0.0,0.0,0.0
0.0,0.0,0.0,0.0
0.0,0.0,0.0,0.0
165.566,-7.511,2.486,31.0
0.0,0.0,0.0,0.0
0.0,0.0,0.0,0.0
0.0,0.0,0.0,0.0
0.0,0.0,0.0,0.0
166.258,-7.266,3.384,12.0
166.086,-7.199,2.435,41.0
0.0,0.0,0.0,0.0
0.0,0.0,0.0,0.0
0.0,0.0,0.0,0.0
0.0,0.0,0.0,0.0
0.0,0.0,0.0,0.0
0.0,0.0,0.0,0.0
0.0,0.0,0.0,0.0
0.0,0.0,0.0,0.0
0.0,0.0,0.0,0.0
0.0,0.0,0.0,0.0
0.0,0.0,0.0,0.0
0.0,0.0,0.0,0.0
0.0,0.0,0.0,0.0
0.0,0.0,0.0,0.0
0.0,0.0,0.0,0.0
0.0,0.0,0.0,0.0
0.0,0.0,0.0,0.0
0.0,0.0,0.0,0.0
0.0,0.0,0.0,0.0
0.0,0.0,0.0,0.0
0.0,0.0,0.0,0.0
0.0,0.0,0.0,0.0
0.0,0.0,0.0,0.0
0.0,0.0,0.0,0.0
0.0,0.0,0.0,0.0
0.0,0.0,0.0,0.0
0.0,0.0,0.0,0.0
0.0,0.0,0.0,0.0
0.0,0.0,0.0,0.0
0.0,0.0,0.0,0.0
0.0,0.0,0.0,0.0
0.0,0.0,0.0,0.0
0.0,0.0,0.0,0.0
40.341,-1.29,0.931,15.0
40.33,-1.275,0.704,36.0
40.348,-1.262,0.474,1.0
0.0,0.0,0.0,0.0
0.0,0.0,0.0,0.0
40.293,-1.222,1.132,31.0
40.333,-1.209,0.907,24.0
153.997,-4.562,2.596,32.0
0.0,0.0,0.0,0.0
40.202,-1.162,0.221,48.0
40.195,-1.148,-0.004,64.0
40.223,-1.139,1.104,39.0
40.246,-1.125,0.878,39.0
40.244,-1.111,0.652,44.0
40.193,-1.095,0.421,44.0
40.186,-1.081,0.194,54.0
40.996,-1.089,-0.032,150.0
40.212,-1.058,1.077,59.0
40.187,-1.043,0.849,51.0
40.212,-1.03,0.623,65.0
40.223,-1.016,0.393,38.0
40.277,-1.004,0.167,0.0
40.28,-0.99,-0.059,26.0
40.205,-0.977,1.047,59.0
40.186,-0.963,0.82,54.0
40.299,-0.952,0.595,62.0
40.312,-0.938,0.364,111.0
40.288,-0.923,0.136,9.0
40.373,-0.912,-0.09,0.0
40.214,-0.898,1.017,64.0
40.211,-0.884,0.79,56.0
40.237,-0.87,0.563,52.0
40.284,-0.858,0.333,13.0
66.922,-1.403,0.176,1.0
0.0,0.0,0.0,0.0
40.263,-0.82,0.987,45.0
40.191,-0.804,0.758,39.0
40.246,-0.792,0.532,44.0
40.235,-0.778,0.3,60.0
40.286,-0.765,0.073,64.0
40.31,-0.752,-0.154,60.0
40.235,-0.74,0.953,51.0
40.206,-0.726,0.725,13.0
40.261,-0.713,0.498,1.0
40.281,-0.7,0.266,43.0
40.321,-0.688,0.039,23.0
46.185,-0.772,-0.216,1.0
262.003,-4.31,5.98,71.0
0.0,0.0,0.0,0.0
123.867,-1.955,1.425,10.0
85.085,-1.314,0.488,1.0
0.0,0.0,0.0,0.0
42.799,-0.633,-0.238,1.0
183.409,-2.66,4.021,50.0
86.932,-1.232,1.413,44.0
86.966,-1.204,0.921,135.0
78.217,-1.057,0.378,2.0
54.532,-0.719,-0.045,3.0
42.097,-0.542,-0.273,2.0
79.412,-0.999,1.666,150.0
79.415,-0.972,1.216,255.0
79.452,-0.947,0.766,150.0
60.881,-0.706,0.236,3.0
0.0,0.0,0.0,0.0
38.514,-0.421,-0.287,11.0
79.433,-0.846,1.589,184.0
79.442,-0.821,1.139,194.0
79.451,-0.795,0.688,150.0
60.886,-0.59,0.176,4.0
50.538,-0.473,-0.14,10.0
36.991,-0.335,-0.312,1.0
79.439,-0.696,1.51,168.0
79.447,-0.671,1.059,188.0
0.0,0.0,0.0,0.0
53.961,-0.421,0.101,12.0
45.071,-0.337,-0.171,5.0
34.057,-0.244,-0.322,1.0
79.443,-0.546,1.427,167.0
79.461,-0.521,0.976,174.0
76.807,-0.479,0.507,13.0
0.0,0.0,0.0,0.0
39.739,-0.223,-0.193,6.0
32.807,-0.174,-0.345,1.0
79.438,-0.399,1.342,164.0
79.459,-0.373,0.891,151.0
76.52,-0.337,0.423,11.0
46.095,-0.189,-0.011,15.0
39.12,-0.148,-0.232,7.0
31.845,-0.11,-0.37,2.0
79.458,-0.252,1.255,151.0
79.462,-0.228,0.803,151.0
61.644,-0.158,0.272,12.0
0.0,0.0,0.0,0.0
38.62,-0.075,-0.272,4.0
30.563,-0.05,-0.389,1.0
79.45,-0.105,1.163,151.0
79.426,-0.082,0.711,150.0
55.979,-0.041,0.183,25.0
43.755,-0.018,-0.11,4.0
38.094,-0.005,-0.313,2.0
29.813,0.004,-0.414,2.0
79.461,0.037,1.071,151.0
79.422,0.061,0.617,16.0
0.0,0.0,0.0,0.0
39.767,0.054,-0.147,40.0
33.636,0.055,-0.316,1.0
29.187,0.057,-0.441,2.0
79.471,0.18,0.975,151.0
76.11,0.194,0.5,28.0
47.797,0.135,0.041,21.0
38.866,0.121,-0.191,37.0
32.844,0.112,-0.348,1.0
28.414,0.105,-0.464,2.0
59.321,0.239,0.655,99.0
59.324,0.255,0.317,10.0
0.0,0.0,0.0,0.0
38.216,0.186,-0.235,14.0
31.464,0.163,-0.373,1.0
27.583,0.15,-0.485,1.0
48.182,0.277,0.471,55.0
48.164,0.291,0.196,59.0
44.097,0.279,-0.071,14.0
37.651,0.249,-0.28,5.0
30.312,0.209,-0.398,2.0
26.855,0.193,-0.506,2.0
48.071,0.36,0.408,100.0
48.018,0.373,0.133,79.0
39.546,0.318,-0.116,32.0
37.405,0.312,-0.327,0.0
29.509,0.254,-0.427,2.0
26.191,0.233,-0.528,2.0
48.052,0.441,0.344,107.0
47.859,0.452,0.069,52.0
38.592,0.376,-0.164,49.0
32.973,0.33,-0.332,1.0
28.776,0.296,-0.454,1.0
22.199,0.234,-0.477,1.0
48.049,0.522,0.279,88.0
0.0,0.0,0.0,0.0
37.851,0.432,-0.213,29.0
31.563,0.368,-0.361,1.0
27.685,0.33,-0.475,1.0
21.736,0.265,-0.497,4.0
48.063,0.601,0.213,78.0
44.268,0.565,-0.056,18.0
37.275,0.486,-0.261,10.0
30.498,0.405,-0.391,2.0
26.937,0.365,-0.499,2.0
21.105,0.292,-0.512,4.0
48.057,0.679,0.145,53.0
39.448,0.567,-0.106,31.0
36.995,0.541,-0.311,2.0
29.594,0.441,-0.421,2.0
26.241,0.398,-0.524,1.0
20.347,0.313,-0.523,3.0
47.904,0.752,0.076,35.0
38.261,0.611,-0.158,44.0
33.108,0.537,-0.326,1.0
28.675,0.472,-0.449,1.0
22.141,0.37,-0.474,4.0
19.738,0.335,-0.536,10.0
0.0,0.0,0.0,0.0
37.457,0.656,-0.208,34.0
31.577,0.561,-0.357,1.0
27.662,0.498,-0.474,1.0
21.414,0.391,-0.49,4.0
18.985,0.351,-0.543,11.0
44.36,0.834,-0.059,8.0
36.905,0.703,-0.26,12.0
30.432,0.587,-0.389,2.0
26.853,0.524,-0.5,1.0
20.728,0.41,-0.505,4.0
18.56,0.371,-0.559,9.0
39.285,0.797,-0.111,42.0
36.648,0.752,-0.313,2.0
29.467,0.612,-0.421,2.0
23.129,0.486,-0.465,3.0
20.051,0.426,-0.519,3.0
17.928,0.385,-0.567,6.0
37.99,0.827,-0.165,58.0
32.821,0.722,-0.331,1.0
28.539,0.634,-0.451,1.0
21.811,0.49,-0.472,4.0
19.422,0.441,-0.532,3.0
17.502,0.401,-0.58,5.0
36.967,0.858,-0.217,23.0
31.238,0.732,-0.364,1.0
27.421,0.649,-0.476,1.0
21.071,0.504,-0.489,4.0
18.849,0.455,-0.546,3.0
17.045,0.415,-0.592,3.0
36.549,0.9,-0.273,7.0
30.023,0.746,-0.396,2.0
23.684,0.594,-0.449,1.0
20.433,0.517,-0.507,4.0
18.217,0.465,-0.557,3.0
16.516,0.425,-0.6,2.0
34.197,0.889,-0.31,1.0
29.101,0.763,-0.431,1.0
22.32,0.59,-0.459,4.0
19.715,0.525,-0.52,3.0
17.692,0.475,-0.569,6.0
16.041,0.435,-0.608,4.0
32.037,0.876,-0.342,1.0
27.998,0.772,-0.459,1.0
21.492,0.597,-0.476,4.0
19.077,0.534,-0.534,3.0
17.227,0.486,-0.582,3.0
15.575,0.442,-0.616,4.0
30.644,0.878,-0.376,2.0
23.963,0.691,-0.432,1.0
20.752,0.603,-0.494,4.0
18.494,0.542,-0.549,3.0
16.676,0.492,-0.591,2.0
14.673,0.436,-0.604,3.0
29.472,0.882,-0.41,2.0
23.103,0.696,-0.455,5.0
20.051,0.608,-0.51,3.0
17.874,0.545,-0.559,5.0
16.166,0.497,-0.599,3.0
14.268,0.441,-0.611,1.0
28.439,0.886,-0.443,1.0
21.856,0.685,-0.466,4.0
19.433,0.613,-0.527,3.0
17.381,0.552,-0.573,3.0
15.527,0.496,-0.601,2.0
13.957,0.449,-0.621,2.0
27.634,0.894,-0.477,1.0
20.996,0.683,-0.483,4.0
18.772,0.615,-0.54,3.0
16.854,0.555,-0.584,2.0
14.708,0.487,-0.594,4.0
13.73,0.457,-0.634,3.0
23.458,0.786,-0.444,5.0
20.318,0.685,-0.502,3.0
18.097,0.613,-0.551,3.0
16.296,0.555,-0.592,3.0
14.576,0.499,-0.613,9.0
13.501,0.465,-0.646,2.0
22.097,0.765,-0.456,4.0
19.427,0.676,-0.513,3.0
17.544,0.614,-0.564,2.0
15.816,0.557,-0.601,2.0
14.226,0.503,-0.623,6.0
13.266,0.472,-0.658,3.0
21.114,0.754,-0.471,4.0
18.835,0.676,-0.529,3.0
17.048,0.615,-0.577,4.0
14.806,0.537,-0.588,6.0
13.859,0.505,-0.631,4.0
13.077,0.479,-0.671,9.0
20.404,0.751,-0.491,4.0
18.226,0.673,-0.544,3.0
16.445,0.611,-0.586,2.0
14.651,0.546,-0.608,13.0
13.599,0.509,-0.643,1.0
13.055,0.491,-0.692,10.0
19.677,0.743,-0.507,3.0
17.653,0.67,-0.557,4.0
15.876,0.605,-0.593,7.0
14.546,0.557,-0.628,14.0
13.155,0.506,-0.644,2.0
12.866,0.497,-0.705,6.0
19.062,0.739,-0.524,3.0
17.139,0.667,-0.57,2.0
15.08,0.589,-0.589,4.0
14.184,0.557,-0.638,16.0
13.051,0.514,-0.662,8.0
12.605,0.499,-0.713,4.0
18.393,0.73,-0.539,3.0
16.484,0.657,-0.578,2.0
14.657,0.586,-0.598,14.0
13.608,0.547,-0.636,13.0
13.067,0.527,-0.686,9.0
12.277,0.497,-0.716,2.0
17.746,0.72,-0.551,5.0
15.988,0.651,-0.588,2.0
14.586,0.597,-0.621,12.0
13.3,0.546,-0.645,12.0
12.869,0.53,-0.698,5.0
11.892,0.492,-0.714,3.0
17.231,0.714,-0.565,2.0
15.181,0.631,-0.585,2.0
14.348,0.599,-0.636,13.0
13.063,0.547,-0.656,8.0
12.632,0.531,-0.708,3.0
11.636,0.491,-0.72,2.0
16.581,0.701,-0.573,2.0
14.666,0.622,-0.592,16.0
13.795,0.587,-0.636,13.0
13.021,0.556,-0.677,10.0
12.344,0.529,-0.714,2.0
11.328,0.487,-0.721,2.0
16.074,0.692,-0.584,2.0
14.623,0.631,-0.616,23.0
13.436,0.582,-0.644,13.0
12.957,0.563,-0.697,4.0
12.031,0.524,-0.717,1.0
11.071,0.484,-0.724,2.0
15.283,0.669,-0.582,3.0
14.427,0.634,-0.633,15.0
13.091,0.576,-0.65,8.0
12.576,0.555,-0.699,3.0
11.727,0.52,-0.719,2.0
10.85,0.482,-0.729,2.0
14.672,0.653,-0.585,15.0
13.919,0.621,-0.635,15.0
13.071,0.584,-0.672,10.0
12.309,0.552,-0.706,3.0
11.423,0.514,-0.721,2.0
10.618,0.479,-0.732,2.0
14.639,0.661,-0.609,26.0
13.566,0.614,-0.643,14.0
13.002,0.59,-0.692,6.0
12.001,0.546,-0.709,2.0
11.132,0.508,-0.722,2.0
10.405,0.476,-0.736,2.0
14.466,0.662,-0.628,17.0
13.162,0.604,-0.647,8.0
12.666,0.582,-0.696,2.0
11.765,0.542,-0.716,2.0
10.884,0.503,-0.726,2.0
10.177,0.471,-0.738,2.0
13.988,0.648,-0.632,15.0
13.067,0.607,-0.666,10.0
12.33,0.574,-0.7,3.0
11.482,0.535,-0.719,2.0
10.66,0.498,-0.73,2.0
9.994,0.468,-0.742,2.0
13.571,0.636,-0.637,13.0
13.018,0.611,-0.686,7.0
12.016,0.565,-0.703,3.0
11.177,0.527,-0.72,2.0
10.443,0.494,-0.733,2.0
9.801,0.464,-0.745,2.0
13.281,0.629,-0.647,10.0
12.738,0.604,-0.694,3.0
11.773,0.56,-0.71,2.0
10.947,0.521,-0.725,2.0
10.214,0.487,-0.735,2.0
9.638,0.461,-0.75,2.0
13.067,0.624,-0.659,11.0
12.393,0.593,-0.697,3.0
11.504,0.552,-0.714,1.0
10.703,0.514,-0.727,2.0
10.028,0.483,-0.74,2.0
9.488,0.458,-0.755,2.0
13.053,0.629,-0.682,9.0
12.076,0.583,-0.701,3.0
11.169,0.54,-0.713,3.0
10.499,0.509,-0.732,2.0
9.843,0.478,-0.743,2.0
9.388,0.457,-0.764,2.0
12.84,0.624,-0.693,3.0
11.808,0.574,-0.706,3.0
11.011,0.537,-0.722,3.0
10.26,0.501,-0.733,2.0
9.661,0.472,-0.747,2.0
9.291,0.455,-0.772,2.0
12.448,0.609,-0.694,3.0
11.501,0.563,-0.707,2.0
10.786,0.529,-0.726,2.0
10.072,0.495,-0.738,2.0
9.489,0.467,-0.75,2.0
9.228,0.455,-0.783,2.0
12.178,0.599,-0.7,3.0
11.245,0.554,-0.711,3.0
10.556,0.521,-0.729,2.0
9.891,0.489,-0.742,2.0
9.363,0.463,-0.756,2.0
9.196,0.456,-0.797,2.0
11.869,0.587,-0.702,3.0
11.067,0.548,-0.719,3.0
10.325,0.512,-0.731,2.0
9.696,0.481,-0.744,2.0
9.253,0.46,-0.764,2.0
9.156,0.456,-0.809,2.0
11.595,0.575,-0.706,2.0
10.858,0.54,-0.724,2.0
10.128,0.504,-0.734,2.0
9.518,0.474,-0.746,2.0
9.186,0.458,-0.774,2.0
9.134,0.456,-0.823,1.0
11.28,0.562,-0.706,3.0
10.631,0.53,-0.727,2.0
9.938,0.496,-0.737,2.0
9.39,0.469,-0.752,2.0
9.152,0.458,-0.787,2.0
9.132,0.457,-0.838,1.0
11.098,0.554,-0.714,4.0
10.415,0.52,-0.73,2.0
9.763,0.488,-0.741,2.0
9.266,0.464,-0.758,2.0
9.126,0.457,-0.8,2.0
9.118,0.458,-0.852,1.0
10.952,0.548,-0.723,2.0
10.205,0.511,-0.733,2.0
9.583,0.48,-0.744,2.0
9.191,0.461,-0.768,2.0
9.112,0.457,-0.814,2.0
9.111,0.458,-0.867,0.0
10.713,0.536,-0.725,2.0
10.022,0.502,-0.736,2.0
9.437,0.473,-0.748,2.0
9.146,0.459,-0.779,2.0
9.119,0.458,-0.83,1.0
9.12,0.458,-0.883,0.0
10.516,0.526,-0.728,2.0
9.844,0.493,-0.739,2.0
9.305,0.466,-0.753,2.0
9.136,0.458,-0.793,2.0
9.115,0.457,-0.844,1.0
9.173,0.461,-0.903,0.0
10.285,0.515,-0.729,2.0
9.676,0.484,-0.742,2.0
9.237,0.463,-0.762,2.0
9.125,0.457,-0.807,2.0
9.127,0.458,-0.86,0.0
9.135,0.458,-0.914,0.0
10.118,0.505,-0.734,2.0
9.52,0.476,-0.746,2.0
9.187,0.459,-0.773,2.0
9.127,0.456,-0.822,1.0
9.14,0.457,-0.876,0.0
9.108,0.456,-0.926,0.0
9.945,0.496,-0.737,2.0
9.394,0.468,-0.751,2.0
9.184,0.458,-0.787,2.0
9.161,0.457,-0.839,1.0
9.199,0.459,-0.897,0.0
9.117,0.455,-0.942,0.0
9.781,0.486,-0.74,2.0
9.299,0.462,-0.758,2.0
9.191,0.457,-0.802,2.0
9.174,0.456,-0.855,0.0
9.215,0.458,-0.912,0.0
9.105,0.453,-0.955,0.0
9.619,0.476,-0.743,2.0
9.243,0.458,-0.767,2.0
9.19,0.455,-0.816,1.0
9.213,0.456,-0.873,0.0
9.185,0.455,-0.924,0.0
9.029,0.447,-0.961,0.0
9.496,0.468,-0.748,2.0
9.252,0.456,-0.782,2.0
9.22,0.454,-0.833,1.0
9.259,0.456,-0.891,0.0
9.201,0.453,-0.939,0.0
8.902,0.439,-0.961,0.0
9.413,0.461,-0.755,2.0
9.269,0.454,-0.797,2.0
9.254,0.453,-0.85,0.0
9.291,0.455,-0.908,0.0
9.214,0.451,-0.954,0.0
8.83,0.433,-0.966,0.0
9.371,0.456,-0.766,2.0
9.312,0.453,-0.815,2.0
9.347,0.455,-0.872,0.0
9.303,0.453,-0.923,0.0
9.098,0.443,-0.956,0.0
8.292,0.403,-0.919,0.0
9.379,0.454,-0.78,2.0
9.371,0.453,-0.833,1.0
9.404,0.455,-0.891,0.0
9.294,0.449,-0.936,0.0
8.883,0.429,-0.946,0.0
8.197,0.396,-0.921,0.0
9.42,0.452,-0.797,2.0
9.417,0.452,-0.851,0.0
9.401,0.451,-0.904,0.0
9.351,0.448,-0.955,0.0
8.633,0.414,-0.932,0.0
8.064,0.386,-0.917,0.0
9.464,0.45,-0.814,2.0
9.468,0.45,-0.869,0.0
9.437,0.448,-0.921,0.0
9.301,0.442,-0.963,0.0
8.365,0.397,-0.914,0.0
8.012,0.38,-0.923,0.0
9.53,0.449,-0.832,1.0
9.571,0.451,-0.892,0.0
9.485,0.446,-0.938,0.0
8.932,0.42,-0.937,0.0
8.267,0.389,-0.915,0.0
7.91,0.372,-0.922,0.0
9.603,0.448,-0.852,0.0
9.595,0.447,-0.906,0.0
9.539,0.444,-0.957,0.0
8.613,0.401,-0.915,0.0
8.194,0.381,-0.918,0.0
7.83,0.364,-0.923,0.0
9.705,0.448,-0.873,0.0
9.656,0.445,-0.925,0.0
9.433,0.435,-0.958,0.0
8.492,0.391,-0.913,0.0
8.089,0.372,-0.917,0.0
7.776,0.357,-0.927,0.0
9.776,0.446,-0.892,0.0
9.733,0.443,-0.945,0.0
9.184,0.418,-0.945,0.0
8.379,0.381,-0.911,0.0
8.026,0.364,-0.92,0.0
7.715,0.35,-0.929,0.0
9.821,0.442,-0.909,0.0
9.744,0.438,-0.958,0.0
8.742,0.393,-0.91,0.0
8.295,0.372,-0.912,0.0
7.957,0.357,-0.922,0.0
7.664,0.343,-0.932,0.0
9.885,0.439,-0.927,0.0
9.532,0.423,-0.949,0.0
8.585,0.38,-0.904,0.0
8.245,0.365,-0.917,0.0
7.904,0.349,-0.925,0.0
7.59,0.335,-0.932,0.0
9.928,0.435,-0.942,0.0
9.033,0.395,-0.91,0.0
8.484,0.37,-0.903,0.0
8.142,0.355,-0.915,0.0
7.809,0.34,-0.923,0.0
7.487,0.325,-0.929,0.0
9.933,0.428,-0.954,0.0
8.845,0.381,-0.901,0.0
8.406,0.361,-0.905,0.0
8.066,0.346,-0.916,0.0
7.746,0.332,-0.924,0.0
7.44,0.318,-0.931,0.0
9.678,0.411,-0.94,0.0
8.759,0.371,-0.902,0.0
8.345,0.353,-0.907,0.0
8.088,0.341,-0.927,0.0
7.713,0.325,-0.929,0.0
7.385,0.311,-0.932,0.0
9.07,0.378,-0.891,0.0
8.655,0.36,-0.9,0.0
8.313,0.345,-0.913,0.0
7.935,0.329,-0.918,0.0
7.635,0.316,-0.928,0.0
7.323,0.302,-0.932,0.0
8.993,0.368,-0.893,0.0
8.605,0.352,-0.904,0.0
8.209,0.335,-0.91,0.0
7.876,0.321,-0.919,0.0
7.582,0.308,-0.929,0.0
7.284,0.295,-0.935,0.0
8.946,0.359,-0.897,0.0
8.542,0.342,-0.906,0.0
8.165,0.326,-0.913,0.0
7.806,0.311,-0.919,0.0
7.523,0.3,-0.929,0.0
7.232,0.287,-0.935,0.0
8.843,0.348,-0.895,0.0
8.435,0.331,-0.903,0.0
8.114,0.318,-0.915,0.0
7.826,0.306,-0.929,0.0
7.467,0.291,-0.929,0.0
7.175,0.279,-0.935,0.0
8.775,0.338,-0.897,0.0
8.389,0.322,-0.906,0.0
8.06,0.309,-0.916,0.0
7.714,0.295,-0.922,0.0
7.433,0.284,-0.932,0.0
7.144,0.272,-0.937,0.0
8.743,0.329,-0.901,0.0
8.341,0.313,-0.908,0.0
8.003,0.3,-0.917,0.0
7.658,0.286,-0.922,0.0
7.375,0.275,-0.931,0.0
7.098,0.264,-0.937,0.0
8.67,0.319,-0.901,0.0
8.278,0.304,-0.908,0.0
7.977,0.292,-0.921,0.0
7.623,0.278,-0.925,0.0
7.32,0.266,-0.93,0.0
7.061,0.256,-0.938,0.0
8.618,0.309,-0.903,0.0
8.198,0.293,-0.906,0.0
7.915,0.282,-0.92,0.0
7.569,0.269,-0.924,0.0
7.276,0.258,-0.93,0.0
6.956,0.246,-0.93,0.0
8.556,0.299,-0.903,0.0
8.123,0.283,-0.904,1.0
7.876,0.274,-0.921,0.0
7.542,0.261,-0.927,0.0
7.246,0.25,-0.932,0.0
6.904,0.237,-0.928,1.0
8.481,0.289,-0.901,0.0
8.122,0.275,-0.909,0.0
7.844,0.265,-0.923,0.0
7.491,0.252,-0.926,0.0
7.216,0.242,-0.933,0.0
6.914,0.231,-0.934,1.0
8.446,0.279,-0.903,0.0
8.106,0.267,-0.913,0.0
7.778,0.255,-0.921,0.0
7.464,0.244,-0.927,0.0
7.195,0.234,-0.935,0.0
6.898,0.224,-0.937,1.0
8.416,0.27,-0.905,0.0
8.093,0.258,-0.917,0.0
7.747,0.246,-0.922,0.0
7.434,0.236,-0.928,0.0
7.157,0.226,-0.935,0.0
6.896,0.217,-0.941,0.0
8.373,0.26,-0.906,0.0
8.027,0.248,-0.914,0.0
7.689,0.237,-0.92,0.0
7.377,0.226,-0.926,0.0
7.115,0.217,-0.934,0.0
6.873,0.209,-0.942,0.0
8.295,0.249,-0.902,0.0
8.009,0.24,-0.917,0.0
7.67,0.228,-0.922,0.0
7.376,0.219,-0.929,0.0
7.103,0.209,-0.936,0.0
6.85,0.201,-0.942,0.0
8.22,0.239,-0.898,1.0
7.965,0.23,-0.916,0.0
7.651,0.22,-0.923,0.0
7.339,0.21,-0.928,0.0
7.08,0.201,-0.936,0.0
