X,Y,Z,Reflectivity
29.183,2.101,0.638,31.0
29.198,2.096,0.472,17.0
29.284,2.096,0.306,17.0
157.854,11.244,5.979,26.0
29.15,2.07,0.938,16.0
29.211,2.067,0.773,158.0
29.265,2.065,0.605,30.0
29.307,2.061,0.439,7.0
74.213,5.204,0.689,31.0
157.929,11.016,5.794,40.0
29.215,2.031,0.905,9.0
29.336,2.033,0.742,4.0
114.647,7.921,2.237,12.0
113.727,7.832,1.573,5.0
73.881,5.071,0.601,29.0
157.993,10.786,5.615,36.0
29.312,1.994,0.874,6.0
114.592,7.77,2.768,53.0
114.593,7.743,2.104,7.0
85.203,5.737,1.08,5.0
73.545,4.936,0.515,8.0
158.04,10.547,5.437,30.0
158.096,10.513,4.54,43.0
114.588,7.592,2.639,51.0
139.568,9.215,2.406,52.0
78.242,5.148,0.905,8.0
57.961,3.8,0.341,6.0
158.122,10.308,5.266,32.0
158.144,10.27,4.368,27.0
114.831,7.428,2.519,7.0
139.573,8.995,2.254,17.0
0.0,0.0,0.0,0.0
54.717,3.501,0.263,28.0
158.065,10.051,5.092,21.0
157.813,9.996,4.187,9.0
33.408,2.108,0.697,2.0
33.428,2.101,0.504,30.0
33.473,2.096,0.315,150.0
33.466,2.087,0.125,152.0
33.472,2.074,1.043,152.0
33.435,2.063,0.852,7.0
33.436,2.055,0.662,4.0
33.428,2.046,0.469,7.0
73.992,4.51,0.619,18.0
33.509,2.035,0.09,2.0
162.069,9.776,4.883,11.0
157.435,9.456,3.852,7.0
140.431,8.399,2.639,5.0
96.207,5.73,1.253,6.0
73.607,4.365,0.542,17.0
46.343,2.736,0.078,20.0
162.278,9.516,4.726,4.0
162.433,9.482,3.811,6.0
0.0,0.0,0.0,0.0
79.421,4.595,0.956,4.0
73.436,4.23,0.468,8.0
42.325,2.427,0.03,17.0
163.437,9.305,4.6,20.0
163.417,9.259,3.674,32.0
105.972,5.976,1.783,17.0
78.132,4.386,0.864,15.0
55.108,3.079,0.298,7.0
41.604,2.313,-0.009,17.0
163.234,9.01,4.439,16.0
162.8,8.942,3.507,30.0
105.848,5.785,1.681,12.0
0.0,0.0,0.0,0.0
54.471,2.948,0.244,27.0
40.908,2.203,-0.047,41.0
162.517,8.685,4.271,14.0
162.473,8.636,3.351,13.0
105.856,5.597,1.585,150.0
75.612,3.978,0.698,21.0
54.201,2.837,0.194,21.0
40.446,2.106,-0.083,41.0
167.169,8.633,4.242,8.0
0.0,0.0,0.0,0.0
105.849,5.406,1.491,47.0
0.0,0.0,0.0,0.0
48.505,2.45,0.131,22.0
40.293,2.024,-0.118,26.0
0.0,0.0,0.0,0.0
0.0,0.0,0.0,0.0
94.562,4.656,1.251,3.0
73.637,3.605,0.552,15.0
0.0,0.0,0.0,0.0
39.894,1.93,-0.15,3.0
0.0,0.0,0.0,0.0
0.0,0.0,0.0,0.0
82.231,3.896,1.02,6.0
73.558,3.464,0.49,10.0
0.0,0.0,0.0,0.0
36.445,1.696,-0.167,42.0
0.0,0.0,0.0,0.0
0.0,0.0,0.0,0.0
79.164,3.603,0.919,7.0
58.554,2.648,0.344,32.0
42.536,1.911,0.011,16.0
36.263,1.618,-0.194,33.0
0.0,0.0,0.0,0.0
0.0,0.0,0.0,0.0
78.674,3.431,0.853,14.0
55.19,2.391,0.283,16.0
42.023,1.808,-0.02,17.0
36.137,1.544,-0.22,19.0
0.0,0.0,0.0,0.0
0.0,0.0,0.0,0.0
77.926,3.249,0.789,23.0
54.823,2.27,0.241,29.0
41.499,1.705,-0.05,18.0
36.07,1.471,-0.246,12.0
0.0,0.0,0.0,0.0
101.16,4.05,1.52,3.0
77.708,3.088,0.732,28.0
54.478,2.147,0.201,29.0
40.605,1.588,-0.077,27.0
35.97,1.396,-0.27,8.0
0.0,0.0,0.0,0.0
100.982,3.845,1.45,3.0
77.617,2.931,0.679,16.0
54.235,2.032,0.165,24.0
40.056,1.488,-0.102,43.0
36.026,1.327,-0.294,5.0
0.0,0.0,0.0,0.0
95.744,3.456,1.313,4.0
77.623,2.777,0.63,8.0
49.046,1.74,0.118,23.0
39.738,1.397,-0.126,48.0
0.0,0.0,0.0,0.0
0.0,0.0,0.0,0.0
93.551,3.19,1.227,2.0
74.141,2.504,0.557,14.0
48.586,1.625,0.088,23.0
39.652,1.314,-0.149,39.0
33.94,1.114,-0.317,1.0
0.0,0.0,0.0,0.0
95.579,3.066,1.199,6.0
74.176,2.357,0.516,13.0
48.08,1.512,0.061,23.0
39.264,1.222,-0.169,28.0
32.94,1.015,-0.326,1.0
0.0,0.0,0.0,0.0
81.465,2.448,0.978,3.0
0.0,0.0,0.0,0.0
47.698,1.403,0.035,23.0
36.983,1.075,-0.178,30.0
32.609,0.938,-0.339,1.0
0.0,0.0,0.0,0.0
89.755,2.514,1.033,4.0
0.0,0.0,0.0,0.0
0.0,0.0,0.0,0.0
36.993,0.999,-0.196,32.0
32.007,0.854,-0.348,1.0
100.333,2.635,1.667,1.0
79.061,2.05,0.873,11.0
60.036,1.537,0.328,34.0
0.0,0.0,0.0,0.0
36.997,0.922,-0.213,30.0
31.629,0.778,-0.358,1.0
106.2,2.569,1.718,8.0
78.323,1.868,0.831,8.0
59.607,1.402,0.3,34.0
0.0,0.0,0.0,0.0
37.001,0.845,-0.228,24.0
31.185,0.702,-0.366,1.0
89.824,1.986,1.417,4.0
78.187,1.702,0.799,11.0
0.0,0.0,0.0,0.0
44.537,0.939,-0.044,19.0
37.015,0.768,-0.242,14.0
30.885,0.631,-0.374,2.0
0.0,0.0,0.0,0.0
78.083,1.536,0.77,12.0
0.0,0.0,0.0,0.0
44.325,0.842,-0.059,18.0
37.011,0.69,-0.255,12.0
30.664,0.562,-0.381,2.0
126.43,2.265,1.908,40.0
78.033,1.372,0.744,14.0
54.882,0.946,0.219,6.0
44.162,0.746,-0.073,10.0
37.099,0.614,-0.267,9.0
30.533,0.495,-0.389,2.0
126.485,1.999,1.872,39.0
78.081,1.207,0.722,30.0
48.096,0.727,0.178,16.0
43.988,0.65,-0.084,4.0
37.143,0.536,-0.277,6.0
30.287,0.426,-0.394,2.0
126.473,1.732,1.84,34.0
48.161,0.642,0.434,13.0
48.036,0.624,0.166,71.0
39.763,0.503,-0.085,15.0
37.238,0.458,-0.286,5.0
30.167,0.361,-0.399,2.0
48.126,0.556,0.689,101.0
48.082,0.539,0.423,100.0
48.02,0.522,0.157,83.0
39.65,0.417,-0.093,15.0
37.375,0.38,-0.294,4.0
30.022,0.295,-0.402,2.0
48.085,0.454,0.68,112.0
48.053,0.437,0.414,109.0
48.018,0.42,0.149,85.0
39.73,0.333,-0.1,19.0
37.547,0.301,-0.302,2.0
29.929,0.229,-0.406,2.0
48.112,0.35,0.674,78.0
48.147,0.334,0.408,52.0
48.148,0.317,0.143,54.0
39.758,0.248,-0.105,20.0
37.764,0.222,-0.308,2.0
29.874,0.165,-0.408,2.0
59.294,0.305,0.824,145.0
59.323,0.284,0.497,98.0
54.579,0.242,0.157,29.0
40.216,0.164,-0.109,16.0
37.817,0.14,-0.311,2.0
29.794,0.1,-0.409,2.0
79.464,0.237,1.099,151.0
79.476,0.208,0.662,25.0
54.691,0.124,0.154,28.0
40.436,0.078,-0.112,16.0
37.961,0.059,-0.314,1.0
29.795,0.036,-0.41,2.0
79.461,0.066,1.097,151.0
79.363,0.039,0.659,36.0
0.0,0.0,0.0,0.0
40.827,-0.009,-0.113,17.0
37.615,-0.022,-0.311,1.0
29.802,-0.028,-0.41,2.0
79.46,-0.103,1.097,151.0
79.366,-0.132,0.66,74.0
0.0,0.0,0.0,0.0
41.416,-0.098,-0.114,19.0
36.957,-0.101,-0.305,1.0
29.846,-0.092,-0.41,2.0
79.457,-0.273,1.101,151.0
79.371,-0.302,0.664,104.0
0.0,0.0,0.0,0.0
42.011,-0.19,-0.113,4.0
37.074,-0.181,-0.303,1.0
29.934,-0.156,-0.409,2.0
79.458,-0.443,1.108,159.0
79.392,-0.472,0.671,140.0
61.012,-0.385,0.181,7.0
45.492,-0.303,-0.118,4.0
40.354,-0.283,-0.326,1.0
29.937,-0.22,-0.405,2.0
79.454,-0.613,1.117,177.0
79.421,-0.641,0.682,132.0
60.444,-0.51,0.188,6.0
50.567,-0.445,-0.124,12.0
38.443,-0.352,-0.304,0.0
30.023,-0.286,-0.402,3.0
79.445,-0.782,1.129,177.0
79.445,-0.812,0.695,150.0
60.729,-0.642,0.199,6.0
53.667,-0.587,-0.122,2.0
0.0,0.0,0.0,0.0
30.18,-0.352,-0.398,1.0
79.456,-0.952,1.145,151.0
79.964,-0.986,0.715,19.0
86.978,-1.105,0.303,6.0
51.312,-0.67,-0.106,3.0
38.511,-0.517,-0.29,0.0
30.269,-0.417,-0.393,1.0
183.393,-2.589,2.686,29.0
123.616,-1.788,1.136,3.0
248.373,-3.682,0.927,34.0
50.967,-0.774,-0.092,0.0
40.133,-0.624,-0.292,3.0
30.466,-0.485,-0.387,1.0
205.389,-3.331,3.063,55.0
40.282,-0.668,0.381,14.0
40.271,-0.682,0.161,53.0
40.295,-0.698,-0.061,66.0
40.173,-0.71,-0.28,6.0
30.874,-0.557,-0.383,1.0
40.275,-0.738,0.613,31.0
40.243,-0.752,0.393,61.0
40.287,-0.768,0.174,46.0
53.518,-1.04,-0.064,0.0
40.192,-0.796,-0.267,5.0
31.151,-0.628,-0.376,1.0
40.247,-0.823,0.626,57.0
40.291,-0.838,0.408,12.0
0.0,0.0,0.0,0.0
56.433,-1.215,-0.047,0.0
40.278,-0.882,-0.252,5.0
31.379,-0.698,-0.367,1.0
40.31,-0.908,0.642,104.0
40.302,-0.923,0.423,110.0
40.304,-0.938,0.204,143.0
40.274,-0.951,-0.018,65.0
40.264,-0.966,-0.236,8.0
32.205,-0.784,-0.364,1.0
40.218,-0.991,0.658,70.0
40.218,-1.005,0.439,51.0
40.2,-1.019,0.221,43.0
40.957,-1.052,0.0,67.0
40.963,-1.067,-0.222,118.0
32.546,-0.86,-0.353,1.0
40.256,-1.074,0.676,44.0
40.212,-1.087,0.458,38.0
40.185,-1.101,0.239,56.0
40.178,-1.115,0.018,67.0
40.2,-1.13,-0.199,43.0
33.077,-0.941,-0.343,1.0
154.066,-4.424,2.663,34.0
0.0,0.0,0.0,0.0
0.0,0.0,0.0,0.0
59.227,-1.764,0.056,0.0
0.0,0.0,0.0,0.0
34.171,-1.043,-0.337,1.0
40.329,-1.241,0.718,40.0
40.337,-1.255,0.5,3.0
0.0,0.0,0.0,0.0
0.0,0.0,0.0,0.0
0.0,0.0,0.0,0.0
34.698,-1.129,-0.323,0.0
0.0,0.0,0.0,0.0
0.0,0.0,0.0,0.0
0.0,0.0,0.0,0.0
0.0,0.0,0.0,0.0
0.0,0.0,0.0,0.0
35.775,-1.236,-0.312,0.0
0.0,0.0,0.0,0.0
0.0,0.0,0.0,0.0
0.0,0.0,0.0,0.0
0.0,0.0,0.0,0.0
49.097,-1.776,-0.133,3.0
40.067,-1.464,-0.325,2.0
0.0,0.0,0.0,0.0
0.0,0.0,0.0,0.0
0.0,0.0,0.0,0.0
0.0,0.0,0.0,0.0
40.154,-1.533,-0.083,152.0
37.758,-1.454,-0.281,51.0
0.0,0.0,0.0,0.0
0.0,0.0,0.0,0.0
0.0,0.0,0.0,0.0
0.0,0.0,0.0,0.0
37.818,-1.517,-0.053,9.0
37.767,-1.529,-0.256,44.0
0.0,0.0,0.0,0.0
0.0,0.0,0.0,0.0
0.0,0.0,0.0,0.0
0.0,0.0,0.0,0.0
41.677,-1.768,-0.252,2.0
0.0,0.0,0.0,0.0
0.0,0.0,0.0,0.0
0.0,0.0,0.0,0.0
0.0,0.0,0.0,0.0
0.0,0.0,0.0,0.0
145.918,-6.548,2.485,3.0
0.0,0.0,0.0,0.0
0.0,0.0,0.0,0.0
0.0,0.0,0.0,0.0
0.0,0.0,0.0,0.0
0.0,0.0,0.0,0.0
145.949,-6.824,2.601,64.0
0.0,0.0,0.0,0.0
0.0,0.0,0.0,0.0
0.0,0.0,0.0,0.0
50.467,-2.427,-0.187,3.0
0.0,0.0,0.0,0.0
145.984,-7.096,2.722,79.0
145.908,-7.14,1.938,43.0
0.0,0.0,0.0,0.0
0.0,0.0,0.0,0.0
50.462,-2.52,-0.145,8.0
0.0,0.0,0.0,0.0
0.0,0.0,0.0,0.0
0.0,0.0,0.0,0.0
0.0,0.0,0.0,0.0
50.479,-2.613,-0.1,3.0
0.0,0.0,0.0,0.0
0.0,0.0,0.0,0.0
0.0,0.0,0.0,0.0
59.406,-3.182,-0.064,2.0
228.065,-12.396,3.639,150.0
0.0,0.0,0.0,0.0
0.0,0.0,0.0,0.0
58.858,-3.257,-0.009,7.0
0.0,0.0,0.0,0.0
0.0,0.0,0.0,0.0
227.976,-12.788,3.851,152.0
0.0,0.0,0.0,0.0
0.0,0.0,0.0,0.0
58.946,-3.363,0.047,4.0
0.0,0.0,0.0,0.0
0.0,0.0,0.0,0.0
0.0,0.0,0.0,0.0
0.0,0.0,0.0,0.0
0.0,0.0,0.0,0.0
62.683,-3.684,0.111,2.0
272.11,-16.035,8.037,63.0
272.011,-16.108,6.583,93.0
0.0,0.0,0.0,0.0
0.0,0.0,0.0,0.0
0.0,0.0,0.0,0.0
0.0,0.0,0.0,0.0
271.684,-16.463,8.3,11.0
263.475,-16.046,6.646,103.0
0.0,0.0,0.0,0.0
187.329,-11.518,2.71,150.0
0.0,0.0,0.0,0.0
0.0,0.0,0.0,0.0
208.882,-12.998,6.598,17.0
248.323,-15.522,6.521,150.0
265.173,-16.652,5.55,37.0
187.249,-11.812,2.904,25.0
155.761,-9.873,1.588,3.0
0.0,0.0,0.0,0.0
212.343,-13.554,6.932,22.0
248.363,-15.922,6.788,255.0
248.323,-15.991,5.465,32.0
187.187,-12.109,3.106,152.0
0.0,0.0,0.0,0.0
0.0,0.0,0.0,0.0
208.589,-13.645,7.039,36.0
209.123,-13.739,5.945,21.0
237.213,-15.648,5.483,48.0
187.192,-12.403,3.314,151.0
0.0,0.0,0.0,0.0
0.0,0.0,0.0,0.0
208.169,-13.94,7.259,23.0
208.81,-14.04,6.17,33.0
228.527,-15.428,5.538,68.0
0.0,0.0,0.0,0.0
0.0,0.0,0.0,0.0
0.0,0.0,0.0,0.0
203.84,-13.957,7.338,33.0
208.419,-14.327,6.396,18.0
212.809,-14.686,5.4,70.0
212.983,-14.754,4.255,48.0
155.459,-10.811,2.28,5.0
0.0,0.0,0.0,0.0
196.597,-13.751,7.305,17.0
204.757,-14.376,6.522,12.0
204.762,-14.431,5.437,8.0
205.025,-14.505,4.337,11.0
0.0,0.0,0.0,0.0
0.0,0.0,0.0,0.0
194.968,-13.924,7.48,20.0
208.293,-14.928,6.885,19.0
204.899,-14.738,5.687,20.0
204.942,-14.792,4.581,31.0
0.0,0.0,0.0,0.0
148.973,-10.83,1.752,2.0
197.503,-14.383,7.814,32.0
197.074,-14.4,6.751,19.0
208.151,-15.261,6.026,18.0
291.892,-21.472,6.878,20.0
0.0,0.0,0.0,0.0
148.53,-11.002,1.927,152.0
194.888,-14.458,7.947,26.0
197.286,-14.684,7.0,36.0
196.904,-14.703,5.942,41.0
196.934,-14.754,4.881,73.0
196.989,-14.806,3.842,20.0
148.422,-11.192,2.109,124.0
165.431,-12.496,6.952,16.0
164.217,-12.443,6.031,42.0
196.399,-14.929,6.174,29.0
213.13,-16.248,5.551,36.0
284.975,-21.795,5.916,18.0
148.489,-11.392,2.297,30.0
157.965,-12.138,6.838,9.0
165.563,-12.76,6.291,46.0
196.73,-15.206,6.433,24.0
212.815,-16.495,5.811,27.0
257.379,-20.01,5.669,32.0
129.082,-10.066,2.161,3.0
162.997,-12.732,7.265,17.0
156.86,-12.287,6.161,32.0
164.296,-12.904,5.584,23.0
212.767,-16.759,6.086,6.0
214.718,-16.958,5.007,17.0
0.0,0.0,0.0,0.0
149.575,-11.866,6.858,14.0
163.22,-12.981,6.621,14.0
197.073,-15.715,6.951,24.0
164.704,-13.168,4.921,39.0
206.513,-16.554,5.081,17.0
0.0,0.0,0.0,0.0
158.799,-12.785,7.49,16.0
163.741,-13.216,6.856,20.0
157.816,-12.769,5.774,22.0
157.317,-12.76,4.908,16.0
193.754,-15.754,5.021,25.0
202.446,-16.503,4.177,18.0
150.617,-12.297,7.3,35.0
149.828,-12.261,6.47,29.0
156.395,-12.829,5.927,36.0
157.536,-12.954,5.121,35.0
193.521,-15.952,5.27,23.0
201.621,-16.658,4.427,18.0
148.38,-12.278,7.389,3.0
163.811,-13.586,7.293,16.0
150.005,-12.468,5.887,57.0
164.18,-13.677,5.558,41.0
165.003,-13.778,4.716,64.0
165.07,-13.816,3.848,89.0
148.456,-12.443,7.596,9.0
166.891,-14.018,7.657,15.0
158.187,-13.316,6.422,35.0
203.998,-17.209,7.182,12.0
157.494,-13.313,4.715,42.0
165.088,-13.986,4.071,38.0
148.644,-12.612,7.808,18.0
158.528,-13.476,7.488,13.0
162.805,-13.868,6.83,9.0
149.889,-12.794,5.484,37.0
157.296,-13.454,4.924,80.0
157.378,-13.489,4.097,41.0
106.248,-9.12,5.728,6.0
148.523,-12.772,7.221,27.0
162.339,-13.986,7.033,13.0
204.446,-17.645,7.757,21.0
190.45,-16.469,6.222,17.0
157.392,-13.637,4.311,82.0
108.499,-9.414,5.997,8.0
146.971,-12.775,7.347,4.0
166.025,-14.456,7.421,41.0
158.208,-13.798,6.22,47.0
149.63,-13.074,5.094,22.0
188.67,-16.515,5.427,22.0
122.437,-10.733,6.937,13.0
159.206,-13.979,8.177,7.0
148.53,-13.062,6.843,38.0
158.277,-13.942,6.442,26.0
156.951,-13.848,5.558,16.0
188.631,-16.672,5.687,24.0
115.538,-10.226,6.706,10.0
148.192,-13.137,7.817,25.0
146.886,-13.04,6.971,3.0
148.518,-13.206,6.25,35.0
156.85,-13.967,5.774,24.0
149.584,-13.341,4.717,40.0
115.164,-10.288,6.844,11.0
108.489,-9.704,5.874,7.0
146.977,-13.165,7.18,6.0
148.493,-13.32,6.456,9.0
156.724,-14.077,5.988,18.0
188.736,-16.978,6.214,29.0
105.914,-9.543,6.444,6.0
122.417,-11.044,6.801,30.0
106.331,-9.604,5.344,8.0
158.832,-14.365,7.129,12.0
148.664,-13.463,5.887,22.0
188.989,-17.137,6.489,26.0
106.159,-9.642,6.609,13.0
124.243,-11.297,7.078,18.0
122.587,-11.16,6.336,13.0
150.52,-13.72,6.968,12.0
148.539,-13.554,6.091,42.0
194.157,-17.739,6.941,4.0
106.19,-9.718,6.761,13.0
115.333,-10.566,6.733,19.0
122.51,-11.234,6.504,3.0
147.154,-13.508,7.018,32.0
147.832,-13.585,6.271,36.0
148.613,-13.672,5.521,59.0
106.368,-9.802,6.922,12.0
106.26,-9.8,6.352,52.0
115.342,-10.648,6.285,19.0
122.659,-11.334,6.022,21.0
147.677,-13.658,6.47,25.0
148.515,-13.75,5.724,42.0
106.283,-9.857,7.066,10.0
106.755,-9.909,6.532,18.0
106.26,-9.87,5.94,55.0
106.265,-9.879,5.368,33.0
164.115,-15.272,7.423,16.0
157.204,-14.642,6.281,43.0
109.979,-10.261,7.468,8.0
99.256,-9.266,6.216,16.0
108.069,-10.097,6.194,25.0
106.239,-9.933,5.516,48.0
122.783,-11.488,5.727,39.0
157.279,-14.728,6.504,60.0
98.591,-9.248,6.834,13.0
99.232,-9.313,6.351,9.0
107.657,-10.11,6.321,43.0
115.348,-10.84,6.15,24.0
106.319,-9.997,5.106,27.0
157.149,-14.787,6.716,45.0
98.763,-9.309,6.984,22.0
86.343,-8.142,5.648,3.0
106.921,-10.088,6.426,9.0
108.099,-10.205,5.914,49.0
106.367,-10.046,5.257,24.0
151.251,-14.295,6.677,34.0
84.243,-7.976,6.077,6.0
98.768,-9.355,6.599,11.0
99.247,-9.403,6.104,7.0
108.113,-10.248,6.066,18.0
115.641,-10.967,5.876,27.0
122.887,-11.659,5.595,45.0
84.655,-8.046,6.225,4.0
98.525,-9.367,6.72,15.0
86.821,-8.257,5.461,7.0
106.864,-10.166,6.144,15.0
115.557,-10.997,6.031,20.0
122.943,-11.705,5.767,21.0
98.239,-9.37,7.361,17.0
98.497,-9.396,6.857,17.0
86.414,-8.245,5.556,6.0
116.63,-11.131,6.869,12.0
108.051,-10.315,5.79,21.0
106.487,-10.168,5.143,17.0
97.23,-9.301,7.42,6.0
84.098,-8.045,5.971,22.0
98.925,-9.465,6.497,9.0
85.716,-8.202,5.166,5.0
107.995,-10.336,5.936,5.0
115.732,-11.078,5.748,16.0
97.121,-9.314,7.545,10.0
82.315,-7.893,5.956,2.0
98.704,-9.465,6.617,17.0
99.198,-9.513,6.114,11.0
106.865,-10.249,6.018,10.0
115.569,-11.085,5.896,31.0
96.327,-9.256,7.615,6.0
84.608,-8.129,6.238,5.0
98.657,-9.478,6.75,15.0
99.324,-9.542,6.257,14.0
106.901,-10.269,6.166,20.0
108.021,-10.377,5.657,32.0
96.721,-9.308,7.779,4.0
84.669,-8.147,6.357,9.0
84.058,-8.087,5.863,19.0
81.741,-7.862,5.258,5.0
107.837,-10.371,6.364,5.0
107.993,-10.385,5.8,33.0
96.728,-9.32,7.91,5.0
97.326,-9.374,7.439,9.0
84.084,-8.096,5.978,14.0
84.781,-8.162,5.567,11.0
90.611,-8.72,5.468,4.0
107.778,-10.371,5.932,16.0
81.092,-7.818,6.739,2.0
97.106,-9.359,7.551,12.0
96.461,-9.293,6.986,2.0
98.688,-9.504,6.611,21.0
99.217,-9.552,6.118,11.0
107.1,-10.307,6.036,20.0
81.082,-7.819,6.846,3.0
96.162,-9.268,7.606,6.0
84.591,-8.149,6.238,5.0
98.823,-9.516,6.75,17.0
99.303,-9.558,6.254,13.0
106.936,-10.289,6.165,20.0
96.835,-9.336,8.303,5.0
100.079,-9.642,8.046,10.0
84.672,-8.153,6.354,7.0
84.087,-8.092,5.852,17.0
81.713,-7.86,5.251,4.0
90.645,-8.715,5.343,1.0
85.271,-8.215,7.422,3.0
96.715,-9.311,7.899,6.0
97.319,-9.362,7.428,7.0
84.084,-8.084,5.959,32.0
84.818,-8.15,5.558,8.0
85.735,-8.234,5.161,5.0
77.89,-7.494,6.88,3.0
90.423,-8.694,7.501,2.0
97.143,-9.333,7.537,10.0
82.287,-7.9,5.935,2.0
98.73,-9.472,6.595,17.0
99.224,-9.513,6.098,6.0
83.68,-8.039,7.496,6.0
99.883,-9.587,8.411,25.0
96.171,-9.223,7.582,6.0
96.121,-9.211,7.052,2.0
98.645,-9.445,6.711,16.0
99.207,-9.492,6.218,8.0
83.515,-8.007,7.584,7.0
99.875,-9.566,8.533,19.0
96.172,-9.203,7.7,7.0
84.682,-8.096,6.317,10.0
84.089,-8.032,5.822,11.0
86.451,-8.25,5.524,8.0
0.0,0.0,0.0,0.0
83.785,-8.004,7.26,1.0
100.967,-9.636,8.206,5.0
98.114,-9.354,7.437,16.0
98.521,-9.384,6.939,26.0
86.291,-8.212,5.615,6.0
84.351,-8.043,7.864,11.0
96.683,-9.209,8.493,4.0
84.573,-8.047,6.973,7.0
97.994,-9.313,7.543,19.0
86.91,-8.251,6.224,3.0
98.693,-9.36,6.538,10.0
84.655,-8.045,7.993,9.0
99.903,-9.483,8.892,18.0
96.63,-9.161,8.079,4.0
97.954,-9.275,7.654,25.0
99.815,-9.441,7.262,8.0
84.696,-8.002,5.708,6.0
99.686,-9.438,9.526,2.0
99.891,-9.444,9.007,21.0
81.171,-7.664,6.881,1.0
97.719,-9.216,7.746,15.0
84.77,-7.985,6.263,5.0
98.549,-9.271,6.751,11.0
99.568,-9.387,9.627,8.0
83.794,-7.888,7.649,13.0
98.123,-9.225,8.425,12.0
96.015,-9.014,7.716,7.0
84.611,-7.933,6.344,10.0
98.552,-9.229,6.858,11.0
83.518,-7.837,8.167,3.0
99.932,-9.363,9.23,7.0
98.033,-9.172,8.524,17.0
97.633,-9.122,7.952,7.0
98.801,-9.217,7.514,36.0
98.187,-9.148,6.938,9.0
81.127,-7.574,8.021,3.0
85.396,-7.96,7.979,4.0
85.059,-7.916,7.487,2.0
84.484,-7.851,6.97,6.0
98.895,-9.176,7.625,13.0
84.418,-7.821,6.054,5.0
83.636,-7.764,8.358,2.0
97.885,-9.073,9.249,15.0
98.266,-9.092,8.753,5.0
98.776,-9.125,8.252,12.0
83.941,-7.743,6.558,4.0
87.0,-8.013,6.327,3.0
80.966,-7.472,8.173,5.0
97.931,-9.022,9.352,13.0
95.622,-8.794,8.613,9.0
95.835,-8.798,8.102,10.0
83.968,-7.696,6.644,4.0
87.001,-7.961,6.413,3.0
80.892,-7.417,8.247,5.0
98.325,-8.999,9.488,9.0
98.73,-9.02,8.99,20.0
97.254,-8.869,8.317,3.0
105.762,-9.628,8.47,8.0
84.703,-7.698,6.325,11.0
81.033,-7.379,8.339,5.0
98.597,-8.961,9.609,5.0
98.762,-8.96,9.086,5.0
96.787,-8.764,8.368,12.0
105.147,-9.503,8.52,9.0
84.727,-7.644,6.406,30.0
85.614,-7.739,8.891,3.0
98.62,-8.897,9.703,14.0
83.215,-7.492,7.733,6.0
85.116,-7.649,7.437,20.0
96.897,-8.69,7.94,4.0
84.673,-7.58,6.478,7.0
80.827,-7.25,8.468,4.0
101.249,-9.063,10.053,5.0
83.271,-7.438,7.812,6.0
83.941,-7.483,7.409,5.0
105.483,-9.384,8.735,12.0
84.804,-7.529,6.562,7.0
80.832,-7.191,8.539,5.0
84.827,-7.53,8.496,5.0
99.585,-8.821,9.429,10.0
84.392,-7.459,7.521,6.0
96.842,-8.541,8.102,3.0
84.771,-7.461,6.631,6.0
80.723,-7.119,8.596,6.0
84.856,-7.465,8.571,11.0
99.695,-8.752,9.523,12.0
84.468,-7.399,7.597,8.0
107.915,-9.432,9.117,4.0
84.928,-7.407,6.711,4.0
80.543,-7.039,8.642,4.0
84.75,-7.389,8.627,10.0
99.72,-8.673,9.605,5.0
96.54,-8.377,8.76,9.0
115.426,-9.994,9.841,10.0
105.847,-9.143,8.447,22.0
0.0,0.0,0.0,0.0
99.439,-8.585,10.2,10.0
106.029,-9.132,10.293,4.0
105.634,-9.076,9.664,20.0
105.611,-9.053,9.083,7.0
84.767,-7.25,6.826,9.0
99.993,-8.567,10.882,3.0
105.762,-9.039,10.926,3.0
108.037,-9.21,10.566,10.0
97.08,-8.255,8.951,5.0
106.579,-9.041,9.242,10.0
97.267,-8.231,7.902,13.0
0.0,0.0,0.0,0.0
83.834,-7.088,8.72,1.0
99.303,-8.375,9.781,11.0
106.505,-8.96,9.893,9.0
106.116,-8.904,9.273,9.0
84.948,-7.11,6.958,13.0
0.0,0.0,0.0,0.0
105.727,-8.841,11.067,3.0
99.287,-8.28,9.844,4.0
106.387,-8.849,9.951,6.0
0.0,0.0,0.0,0.0
84.734,-7.011,6.994,15.0
0.0,0.0,0.0,0.0
99.674,-8.238,10.496,6.0
0.0,0.0,0.0,0.0
107.077,-8.801,10.081,1.0
105.368,-8.638,9.339,12.0
109.511,-8.954,9.104,5.0
0.0,0.0,0.0,0.0
0.0,0.0,0.0,0.0
0.0,0.0,0.0,0.0
0.0,0.0,0.0,0.0
107.765,-8.725,9.613,4.0
107.473,-8.679,8.994,12.0
0.0,0.0,0.0,0.0
0.0,0.0,0.0,0.0
0.0,0.0,0.0,0.0
0.0,0.0,0.0,0.0
107.557,-8.598,9.651,7.0
106.473,-8.488,8.966,13.0
0.0,0.0,0.0,0.0
0.0,0.0,0.0,0.0
0.0,0.0,0.0,0.0
0.0,0.0,0.0,0.0
108.612,-8.57,9.797,3.0
106.063,-8.344,8.981,7.0
0.0,0.0,0.0,0.0
0.0,0.0,0.0,0.0
0.0,0.0,0.0,0.0
0.0,0.0,0.0,0.0
0.0,0.0,0.0,0.0
106.105,-8.232,9.031,1.0
0.0,0.0,0.0,0.0
0.0,0.0,0.0,0.0
0.0,0.0,0.0,0.0
0.0,0.0,0.0,0.0
107.172,-8.221,9.759,4.0
0.0,0.0,0.0,0.0
0.0,0.0,0.0,0.0
0.0,0.0,0.0,0.0
0.0,0.0,0.0,0.0
0.0,0.0,0.0,0.0
0.0,0.0,0.0,0.0
108.402,-8.168,9.309,6.0
0.0,0.0,0.0,0.0
0.0,0.0,0.0,0.0
0.0,0.0,0.0,0.0
0.0,0.0,0.0,0.0
108.607,-8.085,9.965,4.0
108.526,-8.053,9.354,3.0
0.0,0.0,0.0,0.0
0.0,0.0,0.0,0.0
0.0,0.0,0.0,0.0
0.0,0.0,0.0,0.0
0.0,0.0,0.0,0.0
0.0,0.0,0.0,0.0
0.0,0.0,0.0,0.0
0.0,0.0,0.0,0.0
0.0,0.0,0.0,0.0
0.0,0.0,0.0,0.0
0.0,0.0,0.0,0.0
0.0,0.0,0.0,0.0
0.0,0.0,0.0,0.0
0.0,0.0,0.0,0.0
0.0,0.0,0.0,0.0
0.0,0.0,0.0,0.0
0.0,0.0,0.0,0.0
0.0,0.0,0.0,0.0
0.0,0.0,0.0,0.0
0.0,0.0,0.0,0.0
0.0,0.0,0.0,0.0
0.0,0.0,0.0,0.0
0.0,0.0,0.0,0.0
0.0,0.0,0.0,0.0
0.0,0.0,0.0,0.0
0.0,0.0,0.0,0.0
0.0,0.0,0.0,0.0
0.0,0.0,0.0,0.0
0.0,0.0,0.0,0.0
0.0,0.0,0.0,0.0
0.0,0.0,0.0,0.0
0.0,0.0,0.0,0.0
0.0,0.0,0.0,0.0
0.0,0.0,0.0,0.0
0.0,0.0,0.0,0.0
0.0,0.0,0.0,0.0
0.0,0.0,0.0,0.0
0.0,0.0,0.0,0.0
0.0,0.0,0.0,0.0
0.0,0.0,0.0,0.0
0.0,0.0,0.0,0.0
0.0,0.0,0.0,0.0
0.0,0.0,0.0,0.0
0.0,0.0,0.0,0.0
0.0,0.0,0.0,0.0
0.0,0.0,0.0,0.0
0.0,0.0,0.0,0.0
0.0,0.0,0.0,0.0
49.273,-3.172,5.69,2.0
0.0,0.0,0.0,0.0
0.0,0.0,0.0,0.0
0.0,0.0,0.0,0.0
0.0,0.0,0.0,0.0
0.0,0.0,0.0,0.0
0.0,0.0,0.0,0.0
0.0,0.0,0.0,0.0
0.0,0.0,0.0,0.0
0.0,0.0,0.0,0.0
0.0,0.0,0.0,0.0
0.0,0.0,0.0,0.0
0.0,0.0,0.0,0.0
0.0,0.0,0.0,0.0
0.0,0.0,0.0,0.0
0.0,0.0,0.0,0.0
0.0,0.0,0.0,0.0
0.0,0.0,0.0,0.0
0.0,0.0,0.0,0.0
0.0,0.0,0.0,0.0
0.0,0.0,0.0,0.0
0.0,0.0,0.0,0.0
0.0,0.0,0.0,0.0
0.0,0.0,0.0,0.0
0.0,0.0,0.0,0.0
49.387,-2.906,5.394,0.0
0.0,0.0,0.0,0.0
0.0,0.0,0.0,0.0
0.0,0.0,0.0,0.0
0.0,0.0,0.0,0.0
50.381,-2.91,5.777,1.0
49.405,-2.84,5.383,2.0
0.0,0.0,0.0,0.0
0.0,0.0,0.0,0.0
0.0,0.0,0.0,0.0
0.0,0.0,0.0,0.0
50.294,-2.836,5.752,1.0
49.385,-2.772,5.366,2.0
56.566,-3.16,5.823,2.0
0.0,0.0,0.0,0.0
0.0,0.0,0.0,0.0
0.0,0.0,0.0,0.0
50.211,-2.764,5.725,4.0
49.401,-2.706,5.35,4.0
0.0,0.0,0.0,0.0
0.0,0.0,0.0,0.0
0.0,0.0,0.0,0.0
0.0,0.0,0.0,0.0
50.231,-2.696,5.708,6.0
49.438,-2.641,5.334,4.0
0.0,0.0,0.0,0.0
56.572,-2.993,5.452,3.0
90.754,-4.779,8.23,2.0
93.53,-4.901,7.951,2.0
50.141,-2.623,5.676,5.0
49.437,-2.574,5.313,4.0
92.525,-4.793,9.414,2.0
56.667,-2.921,5.436,4.0
90.722,-4.653,8.186,5.0
92.545,-4.725,7.823,6.0
54.802,-2.792,6.177,3.0
49.47,-2.508,5.292,5.0
92.604,-4.67,9.376,1.0
63.689,-3.196,6.078,2.0
90.752,-4.531,8.143,4.0
92.457,-4.594,7.769,5.0
56.624,-2.807,6.352,5.0
54.984,-2.712,5.853,12.0
55.068,-2.702,5.546,2.0
63.613,-3.105,6.036,3.0
90.537,-4.397,8.074,6.0
92.302,-4.46,7.705,4.0
48.481,-2.337,5.411,6.0
49.425,-2.369,5.232,3.0
57.981,-2.765,5.806,3.0
63.151,-2.997,5.955,2.0
83.887,-3.96,7.43,9.0
91.06,-4.277,7.547,3.0
55.083,-2.58,6.115,5.0
48.651,-2.267,5.12,3.0
58.0,-2.687,5.771,3.0
91.224,-4.204,8.545,5.0
83.259,-3.817,7.322,9.0
90.323,-4.119,7.427,10.0
40.541,-1.843,4.474,61.0
55.238,-2.498,5.777,7.0
55.037,-2.475,5.44,22.0
90.928,-4.068,8.456,5.0
92.087,-4.097,8.036,11.0
83.818,-3.709,6.834,7.0
49.658,-2.19,5.445,6.0
56.625,-2.483,5.882,14.0
55.042,-2.401,5.401,4.0
82.822,-3.593,7.643,12.0
84.185,-3.632,7.286,6.0
92.832,-3.984,7.502,8.0
40.46,-1.73,4.406,68.0
56.672,-2.409,5.845,2.0
57.356,-2.424,5.584,13.0
91.915,-3.863,8.411,13.0
84.271,-3.522,7.228,8.0
83.423,-3.467,6.677,13.0
40.387,-1.671,4.366,69.0
0.0,0.0,0.0,0.0
63.611,-2.603,6.143,12.0
54.91,-2.234,4.98,6.0
82.961,-3.356,7.049,5.0
83.435,-3.356,6.61,11.0
40.349,-1.616,4.328,66.0
53.295,-2.121,5.409,9.0
55.259,-2.186,5.29,6.0
54.91,-2.16,4.934,10.0
82.917,-3.243,6.974,11.0
91.527,-3.559,7.173,4.0
40.419,-1.565,4.3,51.0
40.434,-1.556,4.068,25.0
54.819,-2.096,5.199,2.0
40.784,-1.551,3.628,12.0
92.643,-3.501,7.709,10.0
91.668,-3.444,7.101,2.0
40.077,-1.498,4.227,46.0
52.985,-1.968,5.282,27.0
63.831,-2.356,5.994,36.0
40.8,-1.497,3.592,8.0
82.299,-3.002,6.771,10.0
91.717,-3.325,7.018,13.0
40.143,-1.447,4.196,47.0
52.7,-1.889,5.203,5.0
40.665,-1.448,3.78,12.0
54.817,-1.94,4.773,8.0
90.106,-3.169,7.326,15.0
91.805,-3.209,6.935,12.0
40.029,-1.391,4.144,62.0
40.959,-1.414,4.002,21.0
40.699,-1.396,3.741,55.0
41.027,-1.398,3.53,30.0
83.007,-2.81,6.663,6.0
92.722,-3.12,6.909,26.0
40.072,-1.34,4.106,72.0
40.892,-1.358,3.952,10.0
40.738,-1.344,3.702,61.0
54.756,-1.795,4.653,5.0
82.95,-2.701,6.57,8.0
90.335,-2.923,6.635,14.0
40.688,-1.308,4.125,44.0
40.755,-1.301,3.895,11.0
40.794,-1.293,3.662,36.0
54.667,-1.721,4.584,6.0
90.649,-2.835,7.079,5.0
90.449,-2.81,6.541,6.0
39.772,-1.227,3.986,62.0
40.773,-1.249,3.849,46.0
40.789,-1.241,3.615,72.0
54.672,-1.652,4.522,3.0
92.421,-2.773,7.11,15.0
83.383,-2.485,5.933,1.0
49.182,-1.455,4.872,7.0
40.676,-1.194,3.792,60.0
53.395,-1.557,4.668,18.0
41.205,-1.193,3.359,21.0
41.341,-1.188,3.131,21.0
90.711,-2.59,6.347,21.0
40.084,-1.135,3.922,58.0
41.042,-1.154,3.777,24.0
53.484,-1.494,4.611,11.0
41.218,-1.143,3.31,45.0
41.282,-1.136,3.076,5.0
82.404,-2.251,5.664,4.0
40.34,-1.092,3.896,61.0
40.808,-1.097,3.704,58.0
53.623,-1.431,4.555,5.0
41.226,-1.092,3.258,45.0
97.25,-2.558,7.124,20.0
97.565,-2.547,6.582,13.0
40.11,-1.038,3.822,63.0
40.747,-1.046,3.645,49.0
41.266,-1.052,3.452,6.0
41.176,-1.041,3.201,63.0
91.718,-2.303,6.599,18.0
91.644,-2.284,6.063,27.0
40.64,-1.003,3.819,47.0
54.307,-1.329,4.787,21.0
41.262,-1.002,3.397,30.0
41.229,-0.994,3.15,36.0
84.943,-2.032,5.998,21.0
84.254,-2.001,5.462,24.0
49.064,-1.153,4.544,56.0
54.261,-1.265,4.708,45.0
41.199,-0.952,3.335,47.0
41.2,-0.945,3.091,52.0
84.287,-1.919,5.835,34.0
84.069,-1.898,5.332,39.0
49.083,-1.096,4.477,32.0
54.238,-1.202,4.63,52.0
41.178,-0.905,3.275,44.0
41.233,-0.898,3.036,7.0
85.071,-1.84,5.769,6.0
84.121,-1.804,5.217,49.0
40.342,-0.855,3.621,59.0
63.536,-1.336,5.333,11.0
41.281,-0.86,3.224,31.0
128.985,-2.666,9.309,15.0
81.983,-1.679,5.439,1.0
84.115,-1.709,5.092,43.0
40.631,-0.816,3.587,60.0
40.715,-0.81,3.356,37.0
41.258,-0.814,3.16,25.0
126.522,-2.475,8.944,31.0
85.864,-1.665,5.57,55.0
84.098,-1.617,4.967,40.0
49.129,-0.932,4.262,7.0
54.228,-1.02,4.389,9.0
63.931,-1.192,4.801,11.0
126.187,-2.334,8.73,30.0
85.452,-1.566,5.414,68.0
84.114,-1.528,4.84,38.0
49.097,-0.879,4.185,6.0
54.21,-0.963,4.304,23.0
63.865,-1.124,4.698,68.0
126.303,-2.202,8.541,32.0
85.268,-1.473,5.271,63.0
83.93,-1.436,4.7,31.0
40.699,-0.687,3.405,59.0
41.208,-0.688,3.207,44.0
63.475,-1.05,4.568,62.0
124.9,-2.049,8.249,31.0
85.335,-1.386,5.138,22.0
83.875,-1.35,4.564,72.0
40.763,-0.646,3.345,68.0
41.067,-0.644,3.129,56.0
63.457,-0.987,4.466,36.0
124.82,-1.922,8.043,22.0
85.423,-1.302,5.006,8.0
83.882,-1.266,4.429,48.0
40.834,-0.606,3.284,50.0
82.325,-1.211,6.139,6.0
82.553,-1.202,5.675,46.0
94.261,-1.36,5.92,51.0
129.028,-1.842,7.352,9.0
83.912,-1.186,4.293,32.0
41.063,-0.571,3.234,48.0
82.416,-1.133,6.01,33.0
82.441,-1.122,5.53,15.0
82.723,-1.114,5.057,60.0
83.623,-1.114,4.624,28.0
83.897,-1.107,4.152,11.0
41.222,-0.534,3.177,55.0
77.932,-0.999,5.55,16.0
86.065,-1.091,5.627,26.0
83.118,-1.042,4.94,31.0
83.683,-1.039,4.486,51.0
79.225,-0.972,3.786,158.0
62.63,-0.754,4.719,45.0
63.269,-0.754,4.397,44.0
86.087,-1.014,5.48,58.0
83.28,-0.97,4.806,57.0
83.707,-0.964,4.342,95.0
85.82,-0.977,3.951,150.0
62.666,-0.699,4.612,28.0
77.885,-0.859,5.276,22.0
83.085,-0.906,5.142,32.0
85.448,-0.921,4.782,12.0
83.779,-0.892,4.199,47.0
85.863,-0.904,3.803,150.0
62.705,-0.645,4.503,23.0
77.808,-0.791,5.131,52.0
98.193,-0.987,5.901,26.0
93.837,-0.932,5.082,22.0
79.231,-0.777,3.829,154.0
86.008,-0.833,3.654,11.0
62.824,-0.595,4.397,48.0
77.286,-0.722,4.956,13.0
85.854,-0.792,5.004,16.0
93.777,-0.855,4.908,30.0
0.0,0.0,0.0,0.0
79.42,-0.706,3.23,150.0
76.837,-0.666,5.237,12.0
77.016,-0.659,4.798,36.0
85.756,-0.724,4.841,38.0
93.53,-0.779,4.723,35.0
86.021,-0.707,3.841,12.0
79.419,-0.645,3.083,164.0
76.888,-0.607,5.097,20.0
93.491,-0.729,5.651,32.0
59.459,-0.457,3.245,98.0
79.181,-0.6,3.852,84.0
59.5,-0.445,2.546,66.0
79.419,-0.585,2.935,150.0
76.962,-0.551,4.956,22.0
59.421,-0.419,3.479,87.0
59.466,-0.413,3.133,107.0
59.482,-0.407,2.779,102.0
59.458,-0.401,2.432,85.0
79.423,-0.529,2.785,150.0
77.006,-0.497,4.812,44.0
59.429,-0.378,3.366,100.0
59.475,-0.373,3.021,105.0
59.468,-0.367,2.666,97.0
79.395,-0.482,3.097,150.0
79.417,-0.475,2.633,150.0
77.232,-0.447,4.679,33.0
59.458,-0.339,3.253,108.0
59.47,-0.333,2.905,101.0
59.465,-0.328,2.551,92.0
79.394,-0.431,2.942,150.0
79.434,-0.424,2.479,151.0
59.42,-0.306,3.483,97.0
59.447,-0.301,3.136,114.0
59.475,-0.295,2.789,101.0
59.459,-0.29,2.434,93.0
79.419,-0.381,2.787,150.0
79.42,-0.375,2.324,151.0
59.428,-0.27,3.366,115.0
59.462,-0.265,3.019,107.0
59.47,-0.26,2.671,100.0
79.388,-0.341,3.093,150.0
79.424,-0.335,2.629,150.0
79.44,-0.329,2.167,151.0
59.441,-0.236,3.249,105.0
59.463,-0.231,2.901,101.0
59.459,-0.227,2.553,98.0
79.414,-0.297,2.936,150.0
79.424,-0.291,2.472,150.0
79.444,-0.285,2.007,151.0
59.446,-0.204,3.129,114.0
59.466,-0.199,2.781,100.0
59.45,-0.195,2.432,93.0
79.417,-0.255,2.776,150.0
79.425,-0.25,2.312,150.0
79.444,-0.245,1.848,151.0
59.472,-0.174,3.009,111.0
59.455,-0.17,2.659,99.0
79.422,-0.221,3.088,150.0
79.419,-0.216,2.614,150.0
79.421,-0.211,2.149,150.0
79.448,-0.207,1.687,151.0
59.463,-0.146,2.887,111.0
59.455,-0.142,2.538,96.0
79.42,-0.185,2.926,151.0
79.422,-0.181,2.453,150.0
79.435,-0.176,1.989,151.0
79.443,-0.172,1.525,161.0
59.455,-0.12,2.765,105.0
79.425,-0.156,3.228,20.0
79.428,-0.152,2.763,150.0
79.421,-0.148,2.29,150.0
79.447,-0.144,1.826,151.0
79.456,-0.14,1.361,152.0
59.453,-0.096,2.642,97.0
79.428,-0.125,3.064,150.0
79.428,-0.121,2.598,150.0
79.424,-0.117,2.125,150.0
79.451,-0.114,1.662,151.0
79.463,-0.11,1.196,151.0
59.444,-0.075,2.518,97.0
79.445,-0.097,2.901,151.0
79.43,-0.094,2.434,150.0
79.426,-0.09,1.96,150.0
79.443,-0.087,1.495,166.0
79.458,-0.083,1.03,151.0
79.408,-0.074,3.196,98.0
79.422,-0.071,2.731,150.0
79.42,-0.068,2.265,150.0
79.446,-0.065,1.794,151.0
79.457,-0.062,1.328,155.0
79.458,-0.06,0.864,154.0
79.433,-0.052,3.031,151.0
79.433,-0.049,2.565,150.0
79.426,-0.046,2.099,150.0
79.449,-0.044,1.625,151.0
79.461,-0.041,1.162,151.0
79.406,-0.039,0.695,129.0
79.448,-0.032,2.863,151.0
79.432,-0.03,2.396,150.0
79.43,-0.027,1.931,150.0
79.44,-0.025,1.458,165.0
79.47,-0.023,0.993,156.0
76.22,-0.02,0.507,18.0
79.424,-0.015,2.694,150.0
79.433,-0.013,2.23,150.0
79.429,-0.011,1.764,151.0
79.45,-0.01,1.291,153.0
79.455,-0.008,0.827,160.0
61.821,-0.005,0.282,17.0
79.429,-0.001,2.528,150.0
79.426,0.0,2.062,150.0
79.449,0.001,1.596,152.0
79.46,0.002,1.123,152.0
79.379,0.003,0.658,38.0
0.0,0.0,0.0,0.0
79.447,0.009,2.358,150.0
79.437,0.01,1.893,150.0
79.436,0.011,1.427,174.0
79.464,0.012,0.954,156.0
76.073,0.012,0.467,15.0
0.0,0.0,0.0,0.0
79.44,0.017,2.187,150.0
79.45,0.018,1.722,151.0
79.456,0.018,1.255,158.0
79.455,0.019,0.781,150.0
0.0,0.0,0.0,0.0
43.939,0.011,-0.081,8.0
79.438,0.022,2.016,150.0
79.45,0.023,1.552,158.0
79.452,0.023,1.085,156.0
79.324,0.023,0.611,17.0
0.0,0.0,0.0,0.0
39.602,0.011,-0.159,33.0
79.443,0.025,1.845,151.0
79.446,0.024,1.38,169.0
79.453,0.024,0.915,155.0
75.945,0.023,0.422,10.0
0.0,0.0,0.0,0.0
38.592,0.011,-0.236,11.0
79.456,0.024,1.676,151.0
79.461,0.023,1.211,156.0
79.44,0.022,0.745,150.0
55.409,0.015,0.189,10.0
40.821,0.01,-0.099,16.0
37.821,0.009,-0.313,1.0
79.447,0.02,1.505,162.0
79.467,0.019,1.04,155.0
76.373,0.017,0.553,19.0
47.91,0.01,0.061,18.0
39.257,0.007,-0.179,28.0
32.587,0.005,-0.34,1.0
79.448,0.013,1.335,156.0
79.463,0.012,0.87,156.0
61.756,0.008,0.314,9.0
0.0,0.0,0.0,0.0
38.36,0.003,-0.257,6.0
30.452,0.002,-0.382,1.0
79.459,0.004,1.166,151.0
79.405,0.002,0.699,76.0
0.0,0.0,0.0,0.0
40.366,0.0,-0.121,20.0
33.694,-0.001,-0.298,0.0
29.233,-0.002,-0.43,2.0
79.459,-0.008,0.996,162.0
76.187,-0.01,0.509,19.0
47.494,-0.007,0.039,21.0
39.062,-0.007,-0.2,15.0
31.753,-0.007,-0.348,1.0
27.768,-0.007,-0.468,2.0
79.469,-0.024,0.825,162.0
61.629,-0.021,0.278,15.0
0.0,0.0,0.0,0.0
38.333,-0.015,-0.279,5.0
30.12,-0.013,-0.395,2.0
26.594,-0.012,-0.505,2.0
79.219,-0.042,0.652,19.0
55.049,-0.031,0.131,17.0
39.993,-0.024,-0.138,24.0
33.465,-0.022,-0.314,1.0
28.841,-0.02,-0.44,2.0
25.39,-0.018,-0.536,1.0
76.095,-0.061,0.467,13.0
0.0,0.0,0.0,0.0
38.941,-0.035,-0.217,14.0
31.133,-0.029,-0.359,1.0
27.371,-0.027,-0.476,1.0
24.105,-0.025,-0.56,2.0
56.143,-0.062,0.223,14.0
0.0,0.0,0.0,0.0
37.784,-0.046,-0.291,2.0
29.662,-0.037,-0.405,2.0
26.311,-0.034,-0.514,2.0
23.183,-0.032,-0.588,2.0
0.0,0.0,0.0,0.0
39.688,-0.06,-0.157,27.0
32.818,-0.051,-0.322,1.0
28.455,-0.046,-0.448,1.0
24.994,-0.042,-0.541,1.0
22.33,-0.039,-0.613,2.0
45.276,-0.083,-0.009,20.0
38.769,-0.074,-0.235,5.0
30.742,-0.06,-0.366,1.0
27.042,-0.054,-0.483,2.0
23.873,-0.049,-0.566,3.0
21.376,-0.046,-0.632,2.0
41.396,-0.093,-0.095,19.0
37.247,-0.086,-0.303,1.0
29.51,-0.07,-0.413,2.0
25.961,-0.063,-0.518,2.0
23.004,-0.058,-0.594,2.0
20.521,-0.053,-0.649,2.0
39.679,-0.107,-0.174,15.0
32.346,-0.09,-0.331,2.0
28.177,-0.08,-0.453,1.0
24.645,-0.072,-0.543,1.0
22.059,-0.066,-0.615,3.0
19.63,-0.06,-0.662,2.0
38.899,-0.124,-0.251,3.0
30.394,-0.099,-0.374,1.0
26.854,-0.09,-0.487,2.0
23.667,-0.081,-0.57,2.0
21.132,-0.074,-0.633,2.0
18.929,-0.068,-0.678,2.0
34.088,-0.127,-0.291,1.0
29.252,-0.111,-0.421,2.0
25.757,-0.1,-0.521,1.0
22.738,-0.09,-0.596,2.0
20.254,-0.082,-0.649,3.0
18.295,-0.076,-0.693,2.0
31.913,-0.137,-0.338,1.0
27.851,-0.122,-0.457,1.0
24.526,-0.109,-0.546,1.0
21.842,-0.099,-0.616,3.0
19.492,-0.09,-0.664,2.0
17.663,-0.083,-0.705,1.0
30.118,-0.147,-0.38,2.0
26.642,-0.132,-0.492,2.0
23.604,-0.119,-0.573,2.0
20.937,-0.108,-0.633,3.0
18.762,-0.098,-0.677,2.0
17.111,-0.091,-0.718,1.0
29.017,-0.16,-0.424,2.0
25.636,-0.144,-0.525,1.0
22.653,-0.129,-0.596,1.0
20.101,-0.116,-0.648,3.0
18.225,-0.107,-0.694,2.0
16.565,-0.099,-0.728,0.0
27.685,-0.171,-0.46,1.0
24.355,-0.153,-0.547,2.0
21.711,-0.138,-0.614,3.0
19.404,-0.126,-0.664,2.0
17.627,-0.116,-0.707,1.0
16.017,-0.107,-0.736,1.0
26.587,-0.183,-0.494,3.0
23.444,-0.163,-0.572,1.0
20.858,-0.148,-0.631,2.0
18.661,-0.134,-0.676,1.0
17.038,-0.124,-0.717,1.0
15.574,-0.115,-0.746,1.0
25.417,-0.193,-0.522,1.0
22.54,-0.174,-0.594,2.0
20.049,-0.157,-0.646,3.0
18.115,-0.144,-0.691,1.0
16.483,-0.132,-0.725,1.0
15.156,-0.124,-0.756,1.0
24.338,-0.203,-0.547,2.0
21.61,-0.183,-0.612,2.0
19.428,-0.167,-0.663,1.0
17.586,-0.153,-0.705,1.0
16.022,-0.141,-0.736,1.0
14.757,-0.132,-0.764,1.0
23.423,-0.214,-0.571,2.0
20.773,-0.193,-0.628,2.0
18.699,-0.176,-0.674,1.0
17.051,-0.162,-0.716,1.0
15.556,-0.15,-0.744,1.0
14.367,-0.14,-0.772,1.0
22.53,-0.225,-0.593,2.0
20.081,-0.203,-0.645,2.0
18.143,-0.186,-0.689,1.0
16.499,-0.171,-0.724,1.0
15.162,-0.159,-0.754,1.0
14.037,-0.149,-0.78,1.0
21.68,-0.235,-0.61,2.0
19.409,-0.213,-0.66,1.0
17.652,-0.196,-0.703,1.0
16.045,-0.18,-0.734,1.0
14.791,-0.168,-0.763,1.0
13.712,-0.157,-0.788,1.0
20.827,-0.244,-0.625,1.0
18.771,-0.222,-0.672,1.0
17.112,-0.205,-0.713,1.0
15.611,-0.189,-0.743,1.0
14.419,-0.177,-0.77,1.0
13.417,-0.166,-0.795,1.0
20.158,-0.254,-0.641,1.0
18.237,-0.233,-0.686,1.0
16.603,-0.214,-0.722,0.0
15.211,-0.198,-0.751,1.0
14.064,-0.186,-0.777,1.0
13.135,-0.175,-0.802,0.0
19.494,-0.265,-0.655,1.0
17.718,-0.243,-0.699,1.0
16.099,-0.223,-0.729,1.0
14.842,-0.208,-0.76,1.0
13.757,-0.195,-0.785,0.0
12.869,-0.184,-0.809,0.0
18.94,-0.276,-0.67,2.0
17.241,-0.253,-0.71,1.0
15.723,-0.233,-0.739,1.0
14.484,-0.217,-0.767,1.0
13.48,-0.204,-0.793,1.0
12.616,-0.193,-0.816,0.0
18.339,-0.285,-0.681,1.0
16.742,-0.263,-0.719,0.0
15.298,-0.243,-0.746,1.0
14.136,-0.226,-0.773,1.0
13.208,-0.214,-0.799,0.0
12.35,-0.202,-0.82,0.0
17.873,-0.296,-0.694,1.0
16.228,-0.272,-0.725,1.0
14.972,-0.253,-0.756,1.0
13.84,-0.236,-0.78,1.0
12.951,-0.223,-0.806,0.0
12.124,-0.211,-0.825,0.0
17.403,-0.307,-0.705,1.0
15.832,-0.282,-0.734,1.0
14.662,-0.263,-0.764,1.0
13.57,-0.246,-0.788,1.0
12.7,-0.232,-0.812,0.0
11.888,-0.22,-0.829,1.0
16.867,-0.316,-0.711,1.0
15.483,-0.292,-0.743,1.0
14.304,-0.272,-0.77,1.0
13.34,-0.256,-0.797,1.0
12.457,-0.241,-0.816,0.0
11.67,-0.228,-0.833,0.0
16.559,-0.328,-0.725,3.0
15.155,-0.303,-0.751,1.0
14.009,-0.282,-0.776,1.0
13.077,-0.266,-0.802,1.0
12.228,-0.251,-0.821,0.0
11.523,-0.238,-0.841,0.0
16.071,-0.337,-0.729,1.0
14.812,-0.313,-0.758,1.0
13.727,-0.292,-0.782,1.0
12.842,-0.276,-0.808,1.0
12.011,-0.26,-0.826,1.0
11.315,-0.247,-0.844,0.0
15.671,-0.346,-0.736,1.0
14.492,-0.323,-0.765,1.0
13.486,-0.303,-0.79,1.0
12.594,-0.285,-0.812,1.0
11.811,-0.27,-0.83,1.0
11.147,-0.257,-0.848,0.0
15.374,-0.358,-0.745,1.0
14.203,-0.333,-0.771,1.0
13.261,-0.314,-0.797,0.0
12.387,-0.295,-0.817,0.0
11.641,-0.28,-0.836,0.0
10.968,-0.266,-0.852,0.0
15.069,-0.369,-0.753,1.0
13.946,-0.344,-0.778,1.0
13.012,-0.323,-0.801,0.0
12.18,-0.305,-0.822,0.0
11.47,-0.29,-0.841,0.0
10.813,-0.275,-0.855,0.0
14.767,-0.38,-0.76,1.0
13.673,-0.354,-0.782,1.0
12.802,-0.334,-0.807,1.0
11.98,-0.315,-0.826,0.0
11.291,-0.299,-0.844,0.0
10.655,-0.284,-0.858,0.0
14.472,-0.39,-0.765,1.0
13.48,-0.366,-0.79,1.0
12.595,-0.344,-0.811,0.0
11.802,-0.325,-0.83,0.0
11.128,-0.309,-0.847,0.0
10.508,-0.294,-0.861,0.0
14.199,-0.4,-0.77,1.0
13.271,-0.377,-0.797,1.0
12.397,-0.355,-0.816,0.0
11.643,-0.335,-0.835,0.0
10.964,-0.318,-0.85,0.0
10.391,-0.304,-0.866,0.0
13.968,-0.412,-0.776,1.0
13.036,-0.387,-0.8,1.0
12.219,-0.365,-0.821,0.0
11.486,-0.346,-0.839,0.0
10.825,-0.328,-0.854,0.0
10.221,-0.312,-0.865,0.0
13.74,-0.423,-0.782,1.0
12.851,-0.398,-0.805,1.0
12.018,-0.375,-0.823,0.0
11.325,-0.356,-0.842,0.0
10.684,-0.338,-0.856,0.0
10.086,-0.321,-0.867,0.0
13.533,-0.434,-0.787,1.0
12.643,-0.408,-0.808,1.0
11.858,-0.385,-0.827,0.0
11.171,-0.366,-0.845,0.0
10.556,-0.348,-0.859,0.0
9.953,-0.33,-0.868,1.0
13.342,-0.445,-0.792,1.0
12.471,-0.419,-0.813,1.0
11.709,-0.396,-0.831,0.0
11.025,-0.375,-0.847,0.0
10.446,-0.358,-0.863,0.0
9.846,-0.34,-0.871,2.0
13.159,-0.457,-0.797,1.0
12.304,-0.43,-0.816,0.0
11.588,-0.407,-0.836,0.0
10.919,-0.387,-0.852,0.0
10.331,-0.368,-0.866,0.0
9.775,-0.351,-0.876,2.0
12.981,-0.468,-0.801,1.0
12.168,-0.442,-0.821,1.0
11.419,-0.417,-0.837,0.0
10.79,-0.397,-0.854,0.0
10.166,-0.376,-0.863,0.0
9.702,-0.361,-0.88,0.0
12.793,-0.479,-0.804,1.0
12.009,-0.452,-0.824,0.0
11.312,-0.429,-0.841,0.0
10.677,-0.407,-0.857,0.0
10.072,-0.387,-0.867,0.0
9.589,-0.37,-0.881,0.0
12.644,-0.491,-0.809,1.0
11.854,-0.463,-0.826,0.0
11.189,-0.44,-0.844,0.0
10.572,-0.418,-0.86,0.0
9.945,-0.396,-0.866,1.0
9.495,-0.38,-0.882,0.0
12.492,-0.502,-0.812,1.0
11.736,-0.475,-0.83,0.0
11.053,-0.45,-0.845,0.0
10.436,-0.427,-0.859,0.0
9.856,-0.406,-0.869,2.0
9.413,-0.39,-0.884,0.0
12.362,-0.514,-0.816,0.0
11.611,-0.486,-0.833,0.0
10.962,-0.461,-0.849,0.0
10.365,-0.439,-0.864,0.0
9.8,-0.417,-0.873,3.0
9.335,-0.4,-0.886,0.0
12.22,-0.526,-0.818,0.0
11.505,-0.498,-0.836,0.0
10.863,-0.472,-0.852,0.0
10.232,-0.448,-0.862,0.0
9.747,-0.429,-0.878,2.0
9.264,-0.41,-0.888,0.0
12.092,-0.537,-0.821,1.0
11.398,-0.509,-0.839,0.0
10.75,-0.483,-0.853,0.0
10.149,-0.458,-0.865,0.0
9.679,-0.44,-0.88,0.0
9.189,-0.42,-0.889,0.0
11.981,-0.549,-0.823,1.0
11.286,-0.52,-0.84,0.0
10.664,-0.494,-0.855,0.0
10.052,-0.468,-0.865,0.0
9.583,-0.449,-0.88,0.0
9.12,-0.43,-0.89,0.0
11.86,-0.561,-0.825,0.0
11.191,-0.532,-0.842,0.0
10.592,-0.506,-0.858,0.0
9.952,-0.478,-0.864,1.0
9.525,-0.46,-0.882,0.0
9.077,-0.441,-0.893,0.0
11.759,-0.573,-0.827,0.0
11.125,-0.545,-0.846,0.0
10.506,-0.517,-0.859,0.0
9.905,-0.49,-0.868,2.0
9.454,-0.47,-0.883,0.0
8.997,-0.45,-0.892,0.0
11.685,-0.586,-0.831,0.0
11.018,-0.556,-0.846,0.0
10.427,-0.528,-0.861,0.0
9.837,-0.501,-0.869,2.0
9.386,-0.481,-0.883,0.0
8.929,-0.46,-0.892,0.0
11.607,-0.599,-0.834,0.0
10.957,-0.568,-0.849,0.0
10.339,-0.539,-0.861,0.0
9.793,-0.513,-0.872,2.0
9.336,-0.492,-0.885,0.0
8.908,-0.472,-0.896,0.0
11.511,-0.611,-0.834,0.0
10.886,-0.58,-0.851,0.0
10.283,-0.551,-0.863,0.0
9.763,-0.526,-0.876,2.0
9.278,-0.502,-0.885,0.0
8.839,-0.481,-0.894,0.0
11.43,-0.623,-0.836,0.0
10.805,-0.592,-0.851,0.0
10.207,-0.562,-0.862,0.0
9.735,-0.538,-0.879,1.0
9.231,-0.513,-0.886,0.0
8.806,-0.492,-0.896,0.0
11.363,-0.636,-0.837,0.0
10.761,-0.605,-0.854,0.0
10.152,-0.573,-0.863,0.0
9.683,-0.549,-0.88,0.0
9.186,-0.524,-0.887,0.0
8.744,-0.501,-0.895,0.0
11.305,-0.649,-0.839,0.0
10.685,-0.616,-0.854,0.0
10.094,-0.585,-0.864,0.0
9.642,-0.561,-0.881,0.0
9.178,-0.537,-0.891,0.0
8.707,-0.512,-0.895,0.0
11.244,-0.662,-0.84,0.0
10.641,-0.629,-0.855,0.0
10.038,-0.596,-0.864,0.0
9.577,-0.571,-0.88,0.0
9.146,-0.548,-0.892,0.0
8.682,-0.523,-0.897,0.0
11.204,-0.675,-0.842,0.0
10.604,-0.642,-0.857,0.0
9.98,-0.607,-0.863,1.0
9.553,-0.584,-0.881,0.0
9.103,-0.559,-0.892,0.0
8.65,-0.533,-0.897,0.0
11.159,-0.689,-0.843,0.0
10.546,-0.654,-0.856,0.0
9.955,-0.62,-0.865,1.0
9.51,-0.595,-0.881,0.0
9.051,-0.568,-0.89,0.0
8.628,-0.544,-0.898,0.0
11.12,-0.702,-0.844,0.0
10.528,-0.668,-0.858,0.0
9.911,-0.631,-0.864,1.0
9.466,-0.605,-0.88,0.0
9.029,-0.58,-0.891,0.0
8.603,-0.555,-0.898,0.0
11.094,-0.716,-0.845,0.0
10.493,-0.68,-0.859,0.0
9.896,-0.644,-0.866,2.0
9.441,-0.617,-0.881,0.0
9.011,-0.592,-0.892,0.0
8.596,-0.567,-0.899,0.0
11.059,-0.73,-0.846,0.0
10.457,-0.693,-0.859,0.0
9.878,-0.657,-0.867,2.0
9.433,-0.63,-0.882,0.0
9.001,-0.604,-0.893,0.0
8.58,-0.578,-0.9,0.0
11.037,-0.744,-0.846,0.0
10.439,-0.706,-0.859,0.0
9.851,-0.669,-0.867,3.0
9.43,-0.643,-0.884,0.0
8.97,-0.614,-0.892,0.0
8.577,-0.59,-0.901,0.0
11.02,-0.758,-0.847,0.0
10.432,-0.72,-0.861,0.0
9.842,-0.682,-0.867,3.0
9.393,-0.654,-0.882,0.0
8.958,-0.626,-0.892,0.0
8.566,-0.601,-0.901,0.0
11.001,-0.772,-0.847,0.0
10.414,-0.733,-0.86,0.0
9.84,-0.696,-0.868,3.0
9.399,-0.667,-0.883,0.0
8.951,-0.638,-0.892,0.0
8.547,-0.611,-0.9,0.0
11.0,-0.787,-0.848,0.0
10.416,-0.748,-0.862,0.0
9.828,-0.708,-0.868,2.0
9.385,-0.679,-0.883,0.0
8.947,-0.649,-0.892,0.0
8.543,-0.623,-0.9,0.0
10.982,-0.8,-0.847,0.0
10.425,-0.762,-0.863,0.0
9.827,-0.721,-0.868,2.0
9.385,-0.691,-0.883,0.0
8.958,-0.662,-0.893,0.0
8.547,-0.634,-0.901,0.0
10.989,-0.816,-0.848,0.0
10.409,-0.775,-0.861,0.0
9.829,-0.735,-0.869,2.0
9.385,-0.704,-0.883,0.0
8.954,-0.674,-0.893,0.0
8.543,-0.646,-0.9,0.0
10.998,-0.831,-0.848,0.0
10.397,-0.788,-0.86,0.0
9.837,-0.748,-0.869,2.0
9.395,-0.717,-0.883,0.0
8.963,-0.687,-0.893,0.0
8.559,-0.658,-0.901,0.0
10.993,-0.845,-0.847,0.0
10.417,-0.803,-0.861,0.0
9.836,-0.761,-0.868,2.0
9.414,-0.731,-0.884,0.0
8.962,-0.698,-0.892,0.0
8.549,-0.668,-0.899,0.0
11.008,-0.86,-0.847,0.0
10.423,-0.817,-0.86,0.0
9.858,-0.775,-0.868,2.0
9.422,-0.744,-0.884,0.0
8.974,-0.711,-0.892,0.0
8.568,-0.681,-0.9,0.0
11.028,-0.876,-0.847,0.0
10.452,-0.833,-0.861,0.0
9.872,-0.789,-0.868,2.0
9.428,-0.756,-0.883,0.0
9.001,-0.724,-0.893,0.0
8.567,-0.692,-0.898,0.0
11.054,-0.892,-0.846,0.0
10.477,-0.848,-0.861,0.0
9.875,-0.802,-0.866,2.0
9.443,-0.769,-0.882,0.0
9.011,-0.736,-0.892,0.0
8.593,-0.704,-0.899,0.0
11.083,-0.908,-0.846,0.0
10.502,-0.863,-0.86,0.0
9.889,-0.815,-0.865,2.0
9.491,-0.785,-0.884,0.0
9.017,-0.748,-0.89,0.0
8.616,-0.717,-0.899,0.0
11.123,-0.925,-0.846,0.0
10.527,-0.878,-0.859,0.0
9.927,-0.83,-0.865,2.0
9.503,-0.797,-0.882,0.0
9.044,-0.761,-0.89,0.0
8.646,-0.73,-0.899,0.0
11.159,-0.941,-0.845,1.0
10.567,-0.894,-0.859,0.0
9.947,-0.844,-0.864,2.0
9.541,-0.812,-0.882,0.0
9.093,-0.776,-0.891,0.0
8.671,-0.742,-0.898,0.0
11.175,-0.955,-0.842,2.0
10.596,-0.908,-0.857,0.0
9.996,-0.859,-0.864,1.0
9.554,-0.824,-0.88,0.0
9.124,-0.789,-0.891,0.0
8.7,-0.754,-0.898,0.0
11.193,-0.97,-0.839,1.0
10.655,-0.925,-0.858,1.0
10.035,-0.874,-0.863,0.0
9.617,-0.84,-0.882,0.0
9.153,-0.802,-0.89,0.0
8.739,-0.768,-0.898,0.0
11.242,-0.987,-0.838,0.0
10.661,-0.938,-0.853,1.0
10.106,-0.892,-0.865,0.0
9.672,-0.856,-0.882,0.0
9.188,-0.815,-0.889,0.0
8.761,-0.779,-0.896,0.0
11.286,-1.003,-0.836,0.0
10.683,-0.952,-0.85,0.0
10.175,-0.909,-0.865,0.0
9.697,-0.868,-0.879,0.0
9.234,-0.829,-0.889,0.0
8.789,-0.791,-0.895,0.0
11.362,-1.022,-0.835,0.0
10.783,-0.972,-0.852,0.0
10.209,-0.923,-0.863,0.0
9.741,-0.883,-0.878,2.0
9.28,-0.843,-0.888,0.0
8.843,-0.805,-0.895,0.0
11.43,-1.04,-0.834,0.0
10.828,-0.987,-0.85,0.0
10.259,-0.938,-0.861,0.0
9.767,-0.895,-0.875,2.0
9.33,-0.857,-0.887,0.0
8.894,-0.819,-0.895,0.0
11.532,-1.061,-0.835,0.0
10.906,-1.005,-0.849,0.0
10.345,-0.956,-0.862,0.0
9.796,-0.907,-0.871,3.0
9.386,-0.872,-0.887,0.0
8.925,-0.831,-0.892,0.0
11.606,-1.079,-0.833,0.0
10.972,-1.022,-0.847,0.0
10.408,-0.972,-0.861,0.0
9.854,-0.922,-0.87,3.0
9.43,-0.885,-0.885,0.0
8.973,-0.844,-0.891,0.0
11.694,-1.098,-0.831,0.0
11.05,-1.04,-0.846,0.0
10.475,-0.988,-0.859,0.0
9.903,-0.936,-0.868,2.0
9.489,-0.899,-0.884,0.0
9.052,-0.86,-0.893,0.0
11.76,-1.115,-0.828,0.0
11.133,-1.058,-0.844,0.0
10.539,-1.004,-0.857,0.0
9.96,-0.951,-0.866,1.0
9.549,-0.913,-0.882,0.0
9.118,-0.874,-0.893,0.0
11.797,-1.129,-0.822,0.0
11.213,-1.075,-0.842,0.0
10.645,-1.023,-0.858,0.0
10.045,-0.967,-0.865,1.0
9.626,-0.929,-0.882,0.0
9.182,-0.888,-0.892,0.0
12.007,-1.159,-0.827,0.0
11.29,-1.092,-0.839,0.0
10.725,-1.04,-0.856,0.0
10.108,-0.982,-0.863,1.0
9.715,-0.946,-0.883,1.0
9.238,-0.901,-0.89,0.0
12.078,-1.176,-0.823,0.0
11.372,-1.109,-0.836,0.0
10.765,-1.052,-0.85,0.0
10.187,-0.998,-0.861,0.0
9.765,-0.958,-0.879,2.0
9.292,-0.914,-0.887,0.0
12.173,-1.195,-0.819,0.0
11.415,-1.122,-0.83,0.0
10.871,-1.071,-0.85,0.0
10.315,-1.018,-0.864,0.0
9.804,-0.969,-0.874,3.0
9.378,-0.929,-0.888,0.0
12.297,-1.216,-0.817,0.0
11.687,-1.158,-0.84,0.0
10.973,-1.089,-0.848,0.0
10.383,-1.032,-0.86,0.0
9.864,-0.982,-0.871,3.0
9.452,-0.943,-0.886,0.0
12.446,-1.24,-0.816,0.0
11.792,-1.177,-0.837,0.0
11.037,-1.103,-0.844,0.0
10.492,-1.05,-0.86,0.0
9.926,-0.995,-0.868,2.0
9.531,-0.957,-0.885,0.0
12.558,-1.259,-0.812,0.0
11.88,-1.193,-0.833,0.0
11.192,-1.126,-0.845,0.0
10.61,-1.069,-0.86,0.0
10.032,-1.012,-0.867,1.0
9.606,-0.971,-0.883,0.0
12.7,-1.282,-0.809,0.0
11.985,-1.211,-0.829,0.0
11.375,-1.151,-0.848,0.0
10.683,-1.083,-0.856,0.0
10.117,-1.027,-0.865,0.0
9.707,-0.987,-0.883,1.0
12.848,-1.304,-0.806,0.0
12.111,-1.231,-0.825,0.0
11.433,-1.164,-0.841,0.0
10.756,-1.097,-0.851,0.0
10.237,-1.045,-0.865,0.0
9.771,-0.999,-0.879,3.0
13.032,-1.33,-0.805,0.0
12.232,-1.25,-0.821,0.0
11.545,-1.182,-0.838,0.0
10.924,-1.12,-0.853,0.0
10.344,-1.062,-0.864,0.0
9.834,-1.011,-0.874,3.0
13.177,-1.352,-0.8,0.0
12.341,-1.268,-0.816,0.0
11.692,-1.203,-0.836,0.0
11.08,-1.141,-0.853,0.0
10.425,-1.075,-0.859,0.0
9.902,-1.023,-0.87,2.0
13.346,-1.376,-0.797,0.0
12.56,-1.296,-0.817,0.0
11.828,-1.222,-0.834,0.0
11.148,-1.153,-0.847,0.0
10.509,-1.089,-0.855,0.0
10.019,-1.039,-0.869,1.0
13.524,-1.4,-0.793,0.0
12.686,-1.315,-0.812,0.0
11.97,-1.242,-0.831,0.0
11.353,-1.179,-0.85,0.0
10.679,-1.111,-0.857,0.0
10.108,-1.052,-0.866,1.0
13.682,-1.422,-0.787,0.0
12.841,-1.336,-0.808,0.0
12.119,-1.262,-0.828,0.0
11.437,-1.192,-0.844,0.0
10.816,-1.129,-0.856,0.0
10.211,-1.067,-0.864,0.0
13.888,-1.449,-0.784,0.0
13.021,-1.359,-0.805,0.0
12.235,-1.279,-0.822,0.0
11.548,-1.208,-0.839,0.0
10.996,-1.151,-0.858,0.0
10.322,-1.082,-0.861,0.0
14.08,-1.473,-0.779,0.0
13.209,-1.383,-0.801,0.0
12.386,-1.298,-0.818,0.0
11.712,-1.229,-0.838,0.0
11.087,-1.164,-0.852,0.0
10.469,-1.1,-0.861,0.0
14.31,-1.501,-0.775,0.0
13.395,-1.406,-0.797,1.0
12.585,-1.322,-0.816,0.0
11.857,-1.247,-0.834,0.0
11.204,-1.179,-0.848,0.0
10.653,-1.122,-0.864,0.0
14.558,-1.531,-0.771,0.0
13.591,-1.43,-0.793,1.0
12.766,-1.344,-0.813,0.0
12.004,-1.265,-0.83,0.0
11.361,-1.198,-0.847,0.0
10.759,-1.135,-0.86,0.0
14.764,-1.555,-0.765,0.0
13.781,-1.452,-0.787,0.0
12.919,-1.362,-0.807,0.0
12.18,-1.285,-0.828,0.0
11.493,-1.213,-0.843,0.0
10.923,-1.154,-0.86,0.0
15.056,-1.588,-0.762,0.0
13.984,-1.476,-0.782,0.0
13.155,-1.389,-0.806,0.0
12.299,-1.299,-0.821,0.0
11.659,-1.232,-0.841,0.0
11.054,-1.169,-0.856,0.0
15.31,-1.617,-0.756,0.0
14.217,-1.502,-0.778,0.0
13.289,-1.404,-0.798,0.0
12.522,-1.324,-0.82,0.0
11.8,-1.248,-0.836,0.0
11.18,-1.183,-0.852,0.0
15.609,-1.649,-0.752,0.0
14.492,-1.532,-0.775,0.0
13.539,-1.431,-0.796,0.0
12.701,-1.343,-0.816,0.0
11.954,-1.265,-0.832,0.0
11.336,-1.2,-0.85,0.0
15.934,-1.684,-0.747,1.0
14.711,-1.555,-0.768,0.0
13.733,-1.452,-0.79,0.0
12.868,-1.361,-0.811,0.0
12.134,-1.284,-0.829,0.0
11.458,-1.212,-0.844,0.0
16.227,-1.714,-0.741,1.0
14.967,-1.581,-0.763,0.0
13.942,-1.473,-0.785,0.0
13.056,-1.38,-0.806,0.0
12.294,-1.3,-0.824,0.0
11.614,-1.228,-0.841,0.0
16.297,-1.721,-0.723,2.0
15.284,-1.614,-0.759,0.0
14.175,-1.497,-0.78,0.0
13.267,-1.401,-0.802,0.0
12.499,-1.32,-0.822,0.0
11.8,-1.246,-0.839,0.0
16.349,-1.724,-0.704,0.0
15.578,-1.643,-0.754,0.0
14.443,-1.523,-0.776,0.0
13.502,-1.424,-0.799,1.0
12.67,-1.336,-0.817,0.0
11.947,-1.26,-0.834,0.0
16.654,-1.754,-0.696,0.0
15.874,-1.671,-0.748,1.0
14.691,-1.547,-0.77,0.0
13.679,-1.44,-0.791,0.0
12.867,-1.354,-0.813,0.0
12.126,-1.276,-0.831,0.0
17.569,-1.847,-0.711,0.0
16.224,-1.705,-0.743,1.0
14.96,-1.571,-0.765,0.0
13.938,-1.464,-0.788,1.0
13.074,-1.373,-0.809,0.0
12.28,-1.289,-0.825,0.0
17.959,-1.883,-0.704,0.0
16.28,-1.706,-0.724,2.0
