X,Y,Z,Reflectivity
9.981,1.192,0.239,43.0
9.977,1.193,0.515,96.0
9.982,1.193,0.458,150.0
9.982,1.193,0.4,150.0
9.974,1.191,0.342,105.0
9.98,1.192,0.285,93.0
9.987,1.192,0.227,42.0
9.98,1.192,0.503,99.0
9.98,1.192,0.446,149.0
9.977,1.191,0.388,150.0
9.975,1.19,0.33,103.0
9.983,1.191,0.273,91.0
9.987,1.191,0.215,42.0
9.976,1.19,0.491,99.0
9.981,1.19,0.434,150.0
9.978,1.19,0.376,150.0
9.976,1.189,0.318,98.0
9.982,1.189,0.261,84.0
9.977,1.188,0.203,37.0
9.975,1.189,0.479,91.0
9.983,1.189,0.422,150.0
9.977,1.188,0.364,149.0
9.974,1.187,0.306,85.0
9.978,1.187,0.249,79.0
9.986,1.188,0.191,33.0
9.976,1.186,0.467,86.0
9.979,1.186,0.409,148.0
9.974,1.185,0.352,128.0
9.971,1.184,0.294,78.0
9.984,1.185,0.237,73.0
9.982,1.184,0.179,29.0
9.978,1.184,0.455,73.0
9.991,1.185,0.398,150.0
9.988,1.184,0.34,137.0
9.976,1.182,0.282,69.0
9.989,1.183,0.225,71.0
9.99,1.183,0.167,34.0
9.98,1.181,0.443,77.0
9.992,1.182,0.386,141.0
9.981,1.18,0.328,132.0
9.985,1.18,0.27,72.0
9.995,1.18,0.213,68.0
9.992,1.179,0.156,36.0
9.987,1.178,0.431,77.0
9.994,1.178,0.374,146.0
9.994,1.178,0.316,124.0
9.985,1.176,0.258,67.0
9.995,1.176,0.201,67.0
9.994,1.176,0.143,30.0
9.995,1.175,0.419,82.0
9.995,1.174,0.362,150.0
9.995,1.173,0.304,134.0
9.99,1.172,0.246,69.0
10.002,1.173,0.189,68.0
9.998,1.172,0.131,20.0
10.001,1.171,0.407,81.0
10.005,1.171,0.35,134.0
10.0,1.169,0.292,116.0
9.994,1.168,0.234,51.0
10.006,1.169,0.177,54.0
10.006,1.168,0.12,20.0
10.009,1.167,0.396,71.0
10.002,1.165,0.338,116.0
9.999,1.164,0.28,75.0
10.001,1.164,0.222,20.0
10.008,1.164,0.165,19.0
10.009,1.163,0.108,17.0
10.005,1.161,0.383,29.0
10.003,1.16,0.326,55.0
33.936,3.934,0.913,42.0
9.999,1.158,0.21,16.0
9.998,1.157,0.153,14.0
33.908,3.922,0.325,18.0
10.01,1.156,0.372,18.0
33.895,3.912,1.065,6.0
9.985,1.151,0.256,12.0
9.985,1.15,0.198,10.0
33.898,3.902,0.479,22.0
33.908,3.901,0.285,13.0
33.093,3.802,1.19,3.0
9.993,1.147,0.302,9.0
10.0,1.146,0.245,6.0
9.989,1.144,0.186,4.0
10.003,1.145,0.129,2.0
33.689,3.854,0.243,2.0
33.086,3.778,1.151,6.0
10.004,1.141,0.29,2.0
10.029,1.143,0.233,1.0
26.489,3.016,0.463,2.0
26.544,3.02,0.312,12.0
33.861,3.849,0.205,37.0
33.107,3.756,1.113,12.0
96.909,10.985,2.702,31.0
96.916,10.975,2.147,23.0
26.498,2.997,0.433,12.0
26.547,3.0,0.282,4.0
41.831,4.724,0.205,16.0
32.968,3.715,1.07,2.0
26.375,2.969,0.705,2.0
26.539,2.984,0.557,2.0
26.497,2.977,0.402,6.0
13.838,1.553,0.131,3.0
13.855,1.553,0.051,5.0
13.83,1.547,0.432,5.0
26.347,2.944,0.673,1.0
13.807,1.541,0.274,16.0
13.813,1.54,0.193,9.0
13.815,1.539,0.114,7.0
13.839,1.54,0.036,13.0
13.816,1.534,0.416,15.0
13.822,1.533,0.337,16.0
13.792,1.527,0.258,28.0
13.803,1.527,0.178,18.0
13.808,1.526,0.099,17.0
13.814,1.525,0.02,18.0
13.814,1.521,0.401,29.0
13.804,1.518,0.321,31.0
13.8,1.516,0.242,34.0
13.79,1.513,0.162,28.0
13.802,1.513,0.083,26.0
13.813,1.512,0.005,28.0
13.804,1.507,0.385,36.0
13.793,1.504,0.306,36.0
13.794,1.502,0.227,37.0
13.793,1.5,0.147,35.0
13.795,1.498,0.068,30.0
13.8,1.497,-0.01,30.0
13.798,1.493,0.37,38.0
13.782,1.489,0.29,39.0
13.775,1.486,0.212,39.0
13.788,1.486,0.132,36.0
13.79,1.484,0.053,35.0
13.788,1.482,-0.025,32.0
13.788,1.478,0.354,40.0
13.78,1.475,0.275,45.0
13.774,1.472,0.197,39.0
13.779,1.47,0.117,39.0
13.784,1.469,0.038,37.0
13.775,1.466,-0.039,33.0
13.782,1.462,0.339,39.0
13.766,1.458,0.26,95.0
13.768,1.456,0.182,39.0
13.777,1.455,0.102,40.0
13.783,1.454,0.024,41.0
13.773,1.451,-0.054,35.0
13.774,1.446,0.325,39.0
13.76,1.442,0.246,84.0
13.765,1.441,0.167,47.0
13.774,1.439,0.088,39.0
13.782,1.438,0.009,63.0
13.765,1.434,-0.068,36.0
13.763,1.429,0.31,40.0
13.767,1.427,0.232,131.0
13.768,1.425,0.153,98.0
13.783,1.424,0.074,60.0
13.78,1.422,-0.004,56.0
13.76,1.418,-0.082,36.0
13.766,1.413,0.296,82.0
13.772,1.411,0.218,150.0
13.78,1.41,0.14,113.0
13.781,1.408,0.06,76.0
13.785,1.406,-0.018,57.0
13.772,1.402,-0.096,35.0
13.769,1.396,0.283,60.0
13.772,1.394,0.204,138.0
13.777,1.392,0.126,131.0
13.789,1.391,0.046,72.0
13.784,1.388,-0.031,55.0
13.774,1.385,-0.11,34.0
13.777,1.38,0.269,46.0
13.781,1.378,0.191,150.0
13.793,1.376,0.113,142.0
13.778,1.372,0.033,47.0
13.787,1.371,-0.044,61.0
13.786,1.368,-0.123,34.0
13.786,1.363,0.256,43.0
13.786,1.36,0.178,128.0
13.795,1.358,0.1,138.0
13.798,1.356,0.02,40.0
13.794,1.353,-0.057,41.0
13.792,1.351,-0.136,34.0
13.799,1.345,0.244,39.0
13.797,1.343,0.165,61.0
13.804,1.341,0.087,115.0
13.801,1.338,0.007,37.0
13.807,1.336,-0.07,37.0
13.8,1.333,-0.148,34.0
13.819,1.328,0.231,37.0
13.82,1.326,0.153,40.0
13.812,1.322,0.074,58.0
13.814,1.32,-0.004,35.0
13.827,1.318,-0.083,33.0
13.81,1.314,-0.161,33.0
13.836,1.31,0.219,32.0
13.824,1.307,0.141,36.0
13.839,1.305,0.063,35.0
13.835,1.302,-0.016,31.0
13.832,1.299,-0.095,30.0
13.836,1.297,-0.173,29.0
13.857,1.292,0.208,24.0
13.84,1.288,0.129,23.0
13.835,1.284,0.051,23.0
13.85,1.283,-0.028,23.0
13.841,1.28,-0.106,23.0
13.854,1.278,-0.185,26.0
26.242,2.409,0.372,12.0
26.345,2.413,0.224,3.0
13.862,1.266,0.04,8.0
13.887,1.266,-0.039,12.0
13.883,1.263,-0.118,17.0
13.874,1.259,-0.196,23.0
26.303,2.375,0.352,23.0
57.431,5.172,0.444,23.0
46.398,4.169,0.096,10.0
36.232,3.248,-0.132,35.0
13.899,1.243,-0.129,4.0
13.889,1.239,-0.207,5.0
96.687,8.582,1.221,3.0
56.983,5.045,0.397,31.0
46.101,4.071,0.06,4.0
35.571,3.133,-0.157,33.0
32.16,2.826,-0.323,1.0
24.119,2.114,-0.379,5.0
74.64,6.506,0.885,4.0
34.272,2.98,0.213,4.0
34.293,2.973,0.02,13.0
34.318,2.968,-0.177,26.0
31.384,2.707,-0.339,1.0
23.753,2.044,-0.39,5.0
66.248,5.668,0.739,16.0
54.557,4.656,0.3,29.0
41.052,3.493,-0.005,16.0
34.975,2.968,-0.205,11.0
30.772,2.605,-0.353,1.0
23.163,1.956,-0.396,5.0
74.192,6.227,0.776,25.0
53.979,4.518,0.26,28.0
40.965,3.419,-0.032,23.0
34.914,2.906,-0.228,11.0
30.388,2.522,-0.369,1.0
22.631,1.873,-0.402,4.0
74.079,6.094,0.725,30.0
53.346,4.375,0.222,23.0
41.072,3.359,-0.059,18.0
34.875,2.844,-0.25,10.0
30.055,2.444,-0.384,2.0
22.351,1.812,-0.412,4.0
73.905,5.955,0.677,21.0
53.631,4.307,0.19,6.0
40.862,3.272,-0.084,22.0
34.876,2.784,-0.272,9.0
29.638,2.359,-0.397,9.0
22.072,1.751,-0.42,4.0
73.795,5.819,0.632,12.0
48.299,3.797,0.142,22.0
38.461,3.013,-0.102,3.0
34.828,2.721,-0.291,4.0
29.276,2.279,-0.409,1.0
21.778,1.69,-0.426,4.0
59.091,4.557,0.473,16.0
47.847,3.678,0.114,19.0
36.393,2.788,-0.116,34.0
34.857,2.662,-0.311,7.0
25.171,1.916,-0.365,1.0
21.554,1.635,-0.434,4.0
58.735,4.425,0.439,33.0
42.407,3.184,0.079,9.0
36.199,2.708,-0.135,45.0
0.0,0.0,0.0,0.0
24.997,1.857,-0.376,1.0
21.292,1.577,-0.439,4.0
58.069,4.27,0.404,33.0
42.275,3.098,0.058,17.0
35.907,2.622,-0.151,43.0
32.426,2.359,-0.321,1.0
24.685,1.79,-0.383,2.0
21.168,1.529,-0.447,4.0
57.613,4.133,0.375,32.0
42.048,3.005,0.038,20.0
0.0,0.0,0.0,0.0
31.827,2.258,-0.33,1.0
24.536,1.734,-0.391,5.0
20.972,1.477,-0.452,4.0
0.0,0.0,0.0,0.0
41.816,2.911,0.02,37.0
35.59,2.468,-0.181,24.0
31.6,2.183,-0.341,1.0
24.308,1.673,-0.398,5.0
20.885,1.432,-0.458,4.0
55.202,3.755,0.313,19.0
41.869,2.837,0.003,30.0
0.0,0.0,0.0,0.0
31.094,2.09,-0.347,1.0
24.231,1.622,-0.405,5.0
20.791,1.386,-0.464,4.0
55.022,3.639,0.292,29.0
41.244,2.717,-0.01,22.0
35.575,2.334,-0.207,12.0
30.836,2.015,-0.355,2.0
24.018,1.562,-0.41,5.0
20.617,1.336,-0.467,4.0
54.793,3.521,0.272,30.0
41.286,2.642,-0.024,51.0
0.0,0.0,0.0,0.0
30.66,1.945,-0.362,2.0
23.685,1.495,-0.412,5.0
20.582,1.294,-0.472,4.0
33.482,2.087,0.157,155.0
41.046,2.547,-0.035,3.0
35.451,2.19,-0.228,5.0
30.568,1.88,-0.37,2.0
23.582,1.444,-0.416,5.0
20.474,1.248,-0.475,4.0
54.638,3.301,0.242,29.0
40.905,2.46,-0.045,51.0
35.407,2.119,-0.236,11.0
30.437,1.812,-0.375,2.0
23.533,1.394,-0.421,5.0
20.463,1.207,-0.48,3.0
54.338,3.177,0.228,28.0
40.594,2.361,-0.054,33.0
35.382,2.048,-0.244,10.0
30.425,1.752,-0.381,2.0
23.319,1.336,-0.421,5.0
20.426,1.164,-0.483,3.0
54.305,3.068,0.218,22.0
40.936,2.3,-0.062,16.0
35.456,1.982,-0.25,11.0
30.239,1.682,-0.384,2.0
23.375,1.293,-0.426,5.0
20.344,1.119,-0.484,3.0
54.245,2.957,0.21,23.0
40.593,2.201,-0.067,45.0
35.478,1.912,-0.255,10.0
30.189,1.619,-0.387,2.0
23.328,1.244,-0.428,5.0
20.41,1.082,-0.488,3.0
54.203,2.846,0.203,20.0
40.554,2.117,-0.071,44.0
35.55,1.845,-0.259,7.0
30.048,1.551,-0.388,2.0
23.279,1.194,-0.429,5.0
20.38,1.039,-0.489,3.0
54.199,2.737,0.199,19.0
40.581,2.037,-0.074,48.0
35.599,1.775,-0.262,7.0
30.055,1.49,-0.39,2.0
23.322,1.149,-0.431,5.0
20.386,0.998,-0.49,3.0
54.389,2.636,0.198,26.0
40.44,1.947,-0.075,50.0
35.666,1.706,-0.263,9.0
30.128,1.432,-0.391,2.0
23.48,1.109,-0.435,5.0
20.507,0.962,-0.493,3.0
54.305,2.521,0.198,28.0
40.608,1.872,-0.075,46.0
35.734,1.636,-0.263,9.0
30.178,1.372,-0.391,2.0
23.564,1.064,-0.435,5.0
20.538,0.921,-0.493,4.0
54.245,2.406,0.2,28.0
40.519,1.785,-0.073,41.0
35.794,1.565,-0.262,9.0
30.131,1.308,-0.389,2.0
23.67,1.02,-0.436,5.0
20.582,0.881,-0.492,4.0
54.403,2.301,0.204,29.0
40.758,1.711,-0.07,43.0
35.896,1.496,-0.259,10.0
30.294,1.253,-0.388,1.0
23.907,0.981,-0.438,5.0
20.678,0.842,-0.492,4.0
54.506,2.194,0.211,29.0
40.804,1.629,-0.065,20.0
36.025,1.427,-0.255,11.0
30.747,1.208,-0.39,9.0
23.989,0.935,-0.436,5.0
20.754,0.802,-0.491,4.0
54.654,2.088,0.22,29.0
41.425,1.569,-0.06,18.0
36.125,1.356,-0.25,12.0
30.509,1.136,-0.382,2.0
24.143,0.891,-0.434,5.0
20.826,0.762,-0.489,4.0
54.889,1.984,0.231,29.0
41.53,1.487,-0.052,18.0
36.263,1.287,-0.244,12.0
30.622,1.077,-0.377,2.0
24.327,0.848,-0.432,2.0
20.936,0.723,-0.487,4.0
55.132,1.879,0.245,28.0
42.55,1.436,-0.043,8.0
36.448,1.218,-0.236,14.0
30.774,1.018,-0.371,2.0
27.659,0.906,-0.484,1.0
21.12,0.685,-0.485,4.0
58.857,1.884,0.277,18.0
46.68,1.478,-0.034,10.0
36.651,1.149,-0.227,20.0
31.092,0.964,-0.365,1.0
27.671,0.849,-0.476,1.0
21.263,0.646,-0.482,4.0
59.083,1.768,0.296,34.0
47.331,1.402,-0.02,13.0
36.773,1.077,-0.216,30.0
31.551,0.913,-0.361,1.0
27.801,0.795,-0.469,1.0
21.49,0.608,-0.48,4.0
0.0,0.0,0.0,0.0
0.0,0.0,0.0,0.0
36.969,1.006,-0.204,31.0
31.888,0.857,-0.353,1.0
28.095,0.746,-0.464,1.0
21.791,0.571,-0.479,4.0
60.544,1.562,0.347,35.0
47.003,1.196,0.014,22.0
37.251,0.936,-0.191,38.0
32.355,0.802,-0.345,1.0
28.354,0.694,-0.457,1.0
21.968,0.53,-0.473,4.0
61.367,1.456,0.378,30.0
47.431,1.109,0.034,23.0
37.8,0.872,-0.178,56.0
32.853,0.747,-0.336,1.0
28.779,0.645,-0.451,2.0
22.312,0.492,-0.47,4.0
74.627,1.616,0.493,13.0
47.845,1.02,0.057,22.0
38.25,0.803,-0.161,35.0
33.273,0.687,-0.324,1.0
29.117,0.592,-0.442,2.0
22.809,0.456,-0.47,2.0
74.844,1.465,0.532,16.0
47.958,0.923,0.081,21.0
38.642,0.731,-0.143,41.0
36.735,0.683,-0.339,2.0
29.378,0.536,-0.43,2.0
26.369,0.473,-0.529,1.0
75.155,1.317,0.574,11.0
47.965,0.824,0.107,12.0
39.157,0.66,-0.124,40.0
36.926,0.61,-0.32,2.0
29.676,0.48,-0.418,2.0
26.524,0.42,-0.517,2.0
0.0,0.0,0.0,0.0
48.047,0.727,0.135,50.0
39.509,0.584,-0.102,27.0
37.094,0.537,-0.3,5.0
30.024,0.424,-0.405,2.0
26.771,0.369,-0.506,1.0
48.166,0.647,0.424,14.0
48.034,0.629,0.164,69.0
44.172,0.564,-0.087,6.0
37.261,0.464,-0.278,7.0
30.493,0.369,-0.392,2.0
27.08,0.319,-0.494,2.0
48.086,0.549,0.454,100.0
48.032,0.532,0.195,93.0
44.085,0.474,-0.058,18.0
37.549,0.391,-0.256,13.0
30.993,0.312,-0.378,2.0
27.443,0.267,-0.482,1.0
48.066,0.45,0.487,112.0
48.032,0.434,0.228,100.0
0.0,0.0,0.0,0.0
37.968,0.318,-0.232,14.0
31.618,0.254,-0.363,1.0
27.913,0.215,-0.471,1.0
48.121,0.353,0.522,57.0
48.16,0.338,0.263,65.0
46.784,0.312,0.004,31.0
38.456,0.244,-0.206,25.0
32.46,0.195,-0.349,1.0
28.53,0.162,-0.46,2.0
59.308,0.317,0.688,146.0
59.33,0.297,0.369,86.0
47.679,0.224,0.04,28.0
38.953,0.169,-0.179,42.0
33.285,0.133,-0.332,1.0
28.929,0.107,-0.444,2.0
79.468,0.266,0.984,151.0
76.543,0.23,0.538,27.0
0.0,0.0,0.0,0.0
39.563,0.093,-0.15,36.0
34.012,0.068,-0.311,1.0
29.477,0.05,-0.428,2.0
79.461,0.107,1.05,151.0
79.359,0.081,0.623,27.0
54.721,0.038,0.136,13.0
40.748,0.015,-0.12,17.0
38.153,0.002,-0.317,2.0
29.908,-0.008,-0.408,2.0
79.464,-0.047,1.118,151.0
79.421,-0.073,0.692,150.0
56.157,-0.07,0.189,14.0
42.285,-0.067,-0.087,17.0
38.738,-0.074,-0.287,3.0
30.555,-0.068,-0.39,1.0
79.468,-0.203,1.189,151.0
79.452,-0.23,0.764,150.0
61.399,-0.198,0.263,12.0
44.974,-0.159,-0.052,21.0
39.284,-0.152,-0.255,4.0
31.349,-0.131,-0.371,1.0
79.444,-0.359,1.263,161.0
79.45,-0.384,0.839,181.0
76.657,-0.395,0.4,9.0
46.383,-0.254,-0.009,3.0
41.644,-0.242,-0.231,4.0
32.34,-0.198,-0.351,1.0
79.45,-0.511,1.339,164.0
79.449,-0.536,0.915,195.0
77.046,-0.544,0.476,11.0
49.039,-0.362,0.037,1.0
47.364,-0.364,-0.216,11.0
33.683,-0.27,-0.333,1.0
79.445,-0.661,1.417,176.0
79.447,-0.685,0.994,186.0
0.0,0.0,0.0,0.0
55.246,-0.512,0.097,4.0
50.838,-0.487,-0.18,8.0
38.528,-0.381,-0.342,3.0
79.431,-0.811,1.499,195.0
79.441,-0.836,1.076,184.0
79.398,-0.859,0.652,106.0
79.302,-0.884,0.222,5.0
54.502,-0.624,-0.137,0.0
37.925,-0.446,-0.297,0.0
79.404,-0.956,1.581,6.0
79.513,-0.982,1.16,150.0
86.953,-1.101,0.806,29.0
0.0,0.0,0.0,0.0
0.0,0.0,0.0,0.0
42.491,-0.578,-0.286,1.0
183.413,-2.546,3.851,87.0
183.484,-2.605,2.878,41.0
123.712,-1.793,1.283,13.0
91.397,-1.353,0.453,1.0
58.302,-0.88,-0.02,2.0
40.22,-0.62,-0.227,2.0
261.968,-4.112,5.792,59.0
205.382,-3.286,3.45,33.0
149.331,-2.433,1.716,5.0
40.263,-0.668,0.245,44.0
40.296,-0.68,0.031,59.0
40.304,-0.693,-0.181,41.0
40.229,-0.702,0.934,51.0
40.176,-0.713,0.72,64.0
40.27,-0.727,0.508,32.0
40.241,-0.738,0.291,59.0
40.282,-0.752,0.078,54.0
46.7,-0.886,-0.156,2.0
40.254,-0.774,0.982,45.0
40.237,-0.785,0.768,59.0
40.227,-0.797,0.556,63.0
40.281,-0.81,0.339,36.0
68.184,-1.392,0.213,0.0
0.0,0.0,0.0,0.0
40.223,-0.842,1.029,58.0
40.202,-0.854,0.816,52.0
40.283,-0.867,0.604,52.0
40.305,-0.88,0.388,2.0
40.297,-0.891,0.174,20.0
40.308,-0.903,-0.037,115.0
40.217,-0.911,1.078,63.0
40.191,-0.922,0.865,55.0
40.3,-0.936,0.654,98.0
40.28,-0.948,0.437,74.0
40.259,-0.959,0.225,1.0
40.259,-0.971,0.012,0.0
40.219,-0.979,1.129,53.0
40.182,-0.99,0.916,51.0
40.207,-1.003,0.704,65.0
40.195,-1.014,0.488,62.0
40.185,-1.025,0.276,60.0
40.218,-1.037,0.064,23.0
40.24,-1.047,1.181,42.0
40.189,-1.057,0.968,55.0
40.232,-1.07,0.757,42.0
40.236,-1.082,0.541,41.0
40.194,-1.092,0.329,54.0
40.193,-1.103,0.117,55.0
40.279,-1.115,1.235,23.0
40.346,-1.128,1.025,27.0
0.0,0.0,0.0,0.0
153.784,-4.386,2.272,21.0
0.0,0.0,0.0,0.0
0.0,0.0,0.0,0.0
0.0,0.0,0.0,0.0
40.296,-1.191,1.078,30.0
40.309,-1.202,0.865,26.0
40.333,-1.214,0.65,57.0
0.0,0.0,0.0,0.0
0.0,0.0,0.0,0.0
0.0,0.0,0.0,0.0
40.276,-1.254,1.132,0.0
40.338,-1.267,0.921,6.0
40.359,-1.278,0.706,0.0
0.0,0.0,0.0,0.0
0.0,0.0,0.0,0.0
0.0,0.0,0.0,0.0
0.0,0.0,0.0,0.0
0.0,0.0,0.0,0.0
0.0,0.0,0.0,0.0
0.0,0.0,0.0,0.0
0.0,0.0,0.0,0.0
0.0,0.0,0.0,0.0
0.0,0.0,0.0,0.0
0.0,0.0,0.0,0.0
0.0,0.0,0.0,0.0
0.0,0.0,0.0,0.0
0.0,0.0,0.0,0.0
0.0,0.0,0.0,0.0
0.0,0.0,0.0,0.0
0.0,0.0,0.0,0.0
0.0,0.0,0.0,0.0
0.0,0.0,0.0,0.0
0.0,0.0,0.0,0.0
0.0,0.0,0.0,0.0
0.0,0.0,0.0,0.0
0.0,0.0,0.0,0.0
0.0,0.0,0.0,0.0
0.0,0.0,0.0,0.0
0.0,0.0,0.0,0.0
0.0,0.0,0.0,0.0
0.0,0.0,0.0,0.0
0.0,0.0,0.0,0.0
0.0,0.0,0.0,0.0
0.0,0.0,0.0,0.0
0.0,0.0,0.0,0.0
0.0,0.0,0.0,0.0
0.0,0.0,0.0,0.0
0.0,0.0,0.0,0.0
0.0,0.0,0.0,0.0
0.0,0.0,0.0,0.0
0.0,0.0,0.0,0.0
0.0,0.0,0.0,0.0
0.0,0.0,0.0,0.0
0.0,0.0,0.0,0.0
0.0,0.0,0.0,0.0
0.0,0.0,0.0,0.0
0.0,0.0,0.0,0.0
0.0,0.0,0.0,0.0
0.0,0.0,0.0,0.0
0.0,0.0,0.0,0.0
164.437,-7.159,3.096,43.0
0.0,0.0,0.0,0.0
0.0,0.0,0.0,0.0
0.0,0.0,0.0,0.0
0.0,0.0,0.0,0.0
0.0,0.0,0.0,0.0
164.376,-7.36,3.35,14.0
0.0,0.0,0.0,0.0
0.0,0.0,0.0,0.0
0.0,0.0,0.0,0.0
0.0,0.0,0.0,0.0
0.0,0.0,0.0,0.0
0.0,0.0,0.0,0.0
0.0,0.0,0.0,0.0
0.0,0.0,0.0,0.0
0.0,0.0,0.0,0.0
0.0,0.0,0.0,0.0
0.0,0.0,0.0,0.0
0.0,0.0,0.0,0.0
0.0,0.0,0.0,0.0
0.0,0.0,0.0,0.0
0.0,0.0,0.0,0.0
0.0,0.0,0.0,0.0
0.0,0.0,0.0,0.0
0.0,0.0,0.0,0.0
0.0,0.0,0.0,0.0
0.0,0.0,0.0,0.0
0.0,0.0,0.0,0.0
0.0,0.0,0.0,0.0
0.0,0.0,0.0,0.0
0.0,0.0,0.0,0.0
0.0,0.0,0.0,0.0
0.0,0.0,0.0,0.0
0.0,0.0,0.0,0.0
0.0,0.0,0.0,0.0
263.68,-13.272,8.863,9.0
0.0,0.0,0.0,0.0
0.0,0.0,0.0,0.0
0.0,0.0,0.0,0.0
0.0,0.0,0.0,0.0
0.0,0.0,0.0,0.0
0.0,0.0,0.0,0.0
0.0,0.0,0.0,0.0
0.0,0.0,0.0,0.0
0.0,0.0,0.0,0.0
0.0,0.0,0.0,0.0
0.0,0.0,0.0,0.0
0.0,0.0,0.0,0.0
0.0,0.0,0.0,0.0
0.0,0.0,0.0,0.0
0.0,0.0,0.0,0.0
0.0,0.0,0.0,0.0
0.0,0.0,0.0,0.0
0.0,0.0,0.0,0.0
0.0,0.0,0.0,0.0
0.0,0.0,0.0,0.0
0.0,0.0,0.0,0.0
0.0,0.0,0.0,0.0
211.766,-11.482,8.507,8.0
0.0,0.0,0.0,0.0
0.0,0.0,0.0,0.0
0.0,0.0,0.0,0.0
0.0,0.0,0.0,0.0
0.0,0.0,0.0,0.0
0.0,0.0,0.0,0.0
244.493,-13.503,8.952,7.0
0.0,0.0,0.0,0.0
0.0,0.0,0.0,0.0
0.0,0.0,0.0,0.0
0.0,0.0,0.0,0.0
0.0,0.0,0.0,0.0
244.305,-13.693,9.35,10.0
0.0,0.0,0.0,0.0
0.0,0.0,0.0,0.0
164.658,-9.299,9.171,8.0
0.0,0.0,0.0,0.0
0.0,0.0,0.0,0.0
0.0,0.0,0.0,0.0
0.0,0.0,0.0,0.0
0.0,0.0,0.0,0.0
164.045,-9.389,9.41,5.0
0.0,0.0,0.0,0.0
211.72,-12.165,9.91,10.0
0.0,0.0,0.0,0.0
0.0,0.0,0.0,0.0
0.0,0.0,0.0,0.0
0.0,0.0,0.0,0.0
165.056,-9.583,8.86,4.0
0.0,0.0,0.0,0.0
211.954,-12.348,9.167,6.0
0.0,0.0,0.0,0.0
0.0,0.0,0.0,0.0
0.0,0.0,0.0,0.0
163.509,-9.603,9.049,3.0
150.239,-8.838,7.533,11.0
0.0,0.0,0.0,0.0
0.0,0.0,0.0,0.0
0.0,0.0,0.0,0.0
0.0,0.0,0.0,0.0
147.837,-8.776,8.43,4.0
164.761,-9.795,8.535,4.0
0.0,0.0,0.0,0.0
0.0,0.0,0.0,0.0
0.0,0.0,0.0,0.0
0.0,0.0,0.0,0.0
164.286,-9.849,9.64,4.0
149.397,-8.968,7.986,4.0
212.921,-12.799,10.272,5.0
0.0,0.0,0.0,0.0
0.0,0.0,0.0,0.0
204.66,-12.369,13.443,7.0
202.591,-12.256,12.227,7.0
0.0,0.0,0.0,0.0
149.833,-9.086,7.477,5.0
0.0,0.0,0.0,0.0
0.0,0.0,0.0,0.0
0.0,0.0,0.0,0.0
0.0,0.0,0.0,0.0
147.983,-9.036,8.403,7.0
149.463,-9.136,7.705,4.0
0.0,0.0,0.0,0.0
0.0,0.0,0.0,0.0
0.0,0.0,0.0,0.0
0.0,0.0,0.0,0.0
164.826,-10.14,9.631,4.0
165.206,-10.172,8.79,5.0
0.0,0.0,0.0,0.0
0.0,0.0,0.0,0.0
0.0,0.0,0.0,0.0
0.0,0.0,0.0,0.0
148.58,-9.203,8.928,5.0
147.849,-9.163,8.111,14.0
0.0,0.0,0.0,0.0
0.0,0.0,0.0,0.0
0.0,0.0,0.0,0.0
0.0,0.0,0.0,0.0
148.034,-9.224,9.138,3.0
205.61,-12.818,11.614,4.0
0.0,0.0,0.0,0.0
0.0,0.0,0.0,0.0
0.0,0.0,0.0,0.0
0.0,0.0,0.0,0.0
203.069,-12.72,12.868,6.0
148.834,-9.327,8.652,4.0
0.0,0.0,0.0,0.0
0.0,0.0,0.0,0.0
0.0,0.0,0.0,0.0
0.0,0.0,0.0,0.0
203.114,-12.783,13.203,7.0
148.184,-9.327,8.856,2.0
0.0,0.0,0.0,0.0
0.0,0.0,0.0,0.0
0.0,0.0,0.0,0.0
0.0,0.0,0.0,0.0
203.074,-12.83,13.53,15.0
203.169,-12.839,12.469,4.0
0.0,0.0,0.0,0.0
0.0,0.0,0.0,0.0
0.0,0.0,0.0,0.0
0.0,0.0,0.0,0.0
0.0,0.0,0.0,0.0
203.195,-12.878,12.793,23.0
0.0,0.0,0.0,0.0
0.0,0.0,0.0,0.0
0.0,0.0,0.0,0.0
0.0,0.0,0.0,0.0
0.0,0.0,0.0,0.0
0.0,0.0,0.0,0.0
0.0,0.0,0.0,0.0
0.0,0.0,0.0,0.0
0.0,0.0,0.0,0.0
0.0,0.0,0.0,0.0
0.0,0.0,0.0,0.0
148.519,-9.454,9.819,2.0
0.0,0.0,0.0,0.0
0.0,0.0,0.0,0.0
0.0,0.0,0.0,0.0
0.0,0.0,0.0,0.0
0.0,0.0,0.0,0.0
0.0,0.0,0.0,0.0
0.0,0.0,0.0,0.0
0.0,0.0,0.0,0.0
0.0,0.0,0.0,0.0
0.0,0.0,0.0,0.0
0.0,0.0,0.0,0.0
0.0,0.0,0.0,0.0
0.0,0.0,0.0,0.0
0.0,0.0,0.0,0.0
0.0,0.0,0.0,0.0
0.0,0.0,0.0,0.0
0.0,0.0,0.0,0.0
0.0,0.0,0.0,0.0
0.0,0.0,0.0,0.0
0.0,0.0,0.0,0.0
0.0,0.0,0.0,0.0
0.0,0.0,0.0,0.0
0.0,0.0,0.0,0.0
0.0,0.0,0.0,0.0
0.0,0.0,0.0,0.0
0.0,0.0,0.0,0.0
0.0,0.0,0.0,0.0
0.0,0.0,0.0,0.0
0.0,0.0,0.0,0.0
0.0,0.0,0.0,0.0
0.0,0.0,0.0,0.0
0.0,0.0,0.0,0.0
0.0,0.0,0.0,0.0
0.0,0.0,0.0,0.0
0.0,0.0,0.0,0.0
0.0,0.0,0.0,0.0
0.0,0.0,0.0,0.0
0.0,0.0,0.0,0.0
0.0,0.0,0.0,0.0
0.0,0.0,0.0,0.0
0.0,0.0,0.0,0.0
0.0,0.0,0.0,0.0
0.0,0.0,0.0,0.0
0.0,0.0,0.0,0.0
0.0,0.0,0.0,0.0
0.0,0.0,0.0,0.0
0.0,0.0,0.0,0.0
0.0,0.0,0.0,0.0
0.0,0.0,0.0,0.0
0.0,0.0,0.0,0.0
0.0,0.0,0.0,0.0
0.0,0.0,0.0,0.0
0.0,0.0,0.0,0.0
0.0,0.0,0.0,0.0
0.0,0.0,0.0,0.0
0.0,0.0,0.0,0.0
0.0,0.0,0.0,0.0
0.0,0.0,0.0,0.0
0.0,0.0,0.0,0.0
0.0,0.0,0.0,0.0
0.0,0.0,0.0,0.0
0.0,0.0,0.0,0.0
0.0,0.0,0.0,0.0
0.0,0.0,0.0,0.0
0.0,0.0,0.0,0.0
0.0,0.0,0.0,0.0
0.0,0.0,0.0,0.0
0.0,0.0,0.0,0.0
0.0,0.0,0.0,0.0
0.0,0.0,0.0,0.0
0.0,0.0,0.0,0.0
0.0,0.0,0.0,0.0
49.322,-3.063,5.513,2.0
0.0,0.0,0.0,0.0
0.0,0.0,0.0,0.0
0.0,0.0,0.0,0.0
0.0,0.0,0.0,0.0
0.0,0.0,0.0,0.0
49.314,-3.043,5.577,4.0
0.0,0.0,0.0,0.0
0.0,0.0,0.0,0.0
0.0,0.0,0.0,0.0
0.0,0.0,0.0,0.0
0.0,0.0,0.0,0.0
0.0,0.0,0.0,0.0
0.0,0.0,0.0,0.0
0.0,0.0,0.0,0.0
0.0,0.0,0.0,0.0
0.0,0.0,0.0,0.0
0.0,0.0,0.0,0.0
0.0,0.0,0.0,0.0
49.374,-2.994,5.443,0.0
0.0,0.0,0.0,0.0
0.0,0.0,0.0,0.0
0.0,0.0,0.0,0.0
0.0,0.0,0.0,0.0
48.9,-2.948,5.715,2.0
49.305,-2.966,5.495,5.0
0.0,0.0,0.0,0.0
0.0,0.0,0.0,0.0
0.0,0.0,0.0,0.0
0.0,0.0,0.0,0.0
48.638,-2.906,5.743,11.0
49.221,-2.933,5.544,0.0
0.0,0.0,0.0,0.0
0.0,0.0,0.0,0.0
0.0,0.0,0.0,0.0
0.0,0.0,0.0,0.0
48.617,-2.877,5.797,23.0
0.0,0.0,0.0,0.0
49.401,-2.908,5.354,0.0
0.0,0.0,0.0,0.0
0.0,0.0,0.0,0.0
0.0,0.0,0.0,0.0
48.208,-2.824,5.802,4.0
48.12,-2.811,5.53,0.0
49.356,-2.875,5.404,3.0
0.0,0.0,0.0,0.0
0.0,0.0,0.0,0.0
0.0,0.0,0.0,0.0
48.058,-2.785,5.838,3.0
50.459,-2.915,5.854,3.0
49.347,-2.843,5.457,5.0
0.0,0.0,0.0,0.0
0.0,0.0,0.0,0.0
0.0,0.0,0.0,0.0
47.821,-2.739,5.861,3.0
48.64,-2.777,5.695,22.0
0.0,0.0,0.0,0.0
0.0,0.0,0.0,0.0
0.0,0.0,0.0,0.0
0.0,0.0,0.0,0.0
0.0,0.0,0.0,0.0
48.707,-2.747,5.753,24.0
0.0,0.0,0.0,0.0
0.0,0.0,0.0,0.0
56.594,-3.162,5.753,4.0
0.0,0.0,0.0,0.0
0.0,0.0,0.0,0.0
0.0,0.0,0.0,0.0
50.306,-2.791,5.716,2.0
49.417,-2.733,5.34,3.0
0.0,0.0,0.0,0.0
56.907,-3.127,5.53,2.0
0.0,0.0,0.0,0.0
47.75,-2.622,5.732,4.0
50.312,-2.752,5.764,5.0
49.387,-2.693,5.383,5.0
0.0,0.0,0.0,0.0
56.572,-3.065,5.549,2.0
51.056,-2.772,6.457,4.0
50.907,-2.754,6.158,4.0
48.319,-2.605,5.58,14.0
0.0,0.0,0.0,0.0
0.0,0.0,0.0,0.0
56.599,-3.021,5.602,3.0
48.952,-2.619,6.234,1.0
50.994,-2.717,6.213,14.0
48.623,-2.582,5.657,22.0
57.092,-3.021,6.323,4.0
55.321,-2.917,5.824,2.0
0.0,0.0,0.0,0.0
49.045,-2.582,6.287,3.0
56.707,-2.974,6.957,1.0
48.989,-2.56,5.74,11.0
50.234,-2.615,5.605,7.0
49.441,-2.564,5.245,2.0
0.0,0.0,0.0,0.0
48.67,-2.52,6.278,14.0
0.0,0.0,0.0,0.0
0.0,0.0,0.0,0.0
50.183,-2.568,5.638,4.0
49.449,-2.521,5.284,6.0
92.795,-4.714,9.408,5.0
0.0,0.0,0.0,0.0
0.0,0.0,0.0,0.0
42.082,-2.124,4.996,3.0
48.3,-2.428,5.463,7.0
49.498,-2.479,5.326,3.0
55.187,-2.753,5.635,4.0
49.859,-2.492,6.507,5.0
46.545,-2.316,5.817,2.0
49.559,-2.455,5.919,12.0
48.265,-2.382,5.493,15.0
55.32,-2.719,5.991,7.0
63.045,-3.086,6.481,4.0
47.794,-2.343,6.271,22.0
46.559,-2.273,5.85,8.0
48.927,-2.378,5.876,6.0
50.86,-2.462,5.821,4.0
56.61,-2.729,6.167,5.0
55.047,-2.642,5.693,6.0
48.095,-2.312,6.341,14.0
48.63,-2.327,6.141,9.0
48.93,-2.331,5.907,4.0
48.833,-2.316,5.62,15.0
49.841,-2.354,5.46,4.0
55.037,-2.588,5.726,5.0
48.04,-2.262,6.363,6.0
48.453,-2.271,6.148,16.0
48.954,-2.284,5.939,3.0
0.0,0.0,0.0,0.0
40.534,-1.874,4.464,23.0
48.578,-2.236,5.081,3.0
0.0,0.0,0.0,0.0
48.249,-2.212,6.149,18.0
46.784,-2.135,5.701,3.0
47.541,-2.159,5.524,4.0
40.534,-1.832,4.485,49.0
55.284,-2.488,5.811,10.0
49.961,-2.25,6.672,2.0
48.205,-2.161,6.168,14.0
46.382,-2.07,5.675,9.0
53.045,-2.355,6.19,9.0
40.501,-1.79,4.501,36.0
48.536,-2.135,5.125,3.0
49.772,-2.191,6.67,4.0
50.035,-2.191,6.425,6.0
48.19,-2.1,5.919,22.0
57.355,-2.487,6.719,5.0
48.392,-2.088,5.399,6.0
53.305,-2.289,5.651,4.0
42.316,-1.818,5.689,20.0
0.0,0.0,0.0,0.0
48.302,-2.053,5.953,22.0
46.693,-1.975,5.488,4.0
52.413,-2.206,5.869,5.0
40.365,-1.69,4.295,61.0
42.258,-1.77,5.698,43.0
49.602,-2.067,6.409,5.0
40.294,-1.669,4.981,29.0
40.446,-1.667,4.769,43.0
40.379,-1.656,4.535,62.0
40.359,-1.646,4.308,71.0
42.183,-1.721,5.702,48.0
49.598,-2.012,6.425,5.0
40.299,-1.626,4.994,25.0
40.601,-1.629,4.8,15.0
40.276,-1.608,4.536,56.0
40.358,-1.602,4.32,60.0
42.202,-1.675,5.717,37.0
42.071,-1.661,5.462,52.0
40.281,-1.581,5.003,38.0
40.368,-1.575,4.783,68.0
40.203,-1.56,4.539,62.0
40.35,-1.557,4.33,60.0
42.235,-1.629,5.733,46.0
42.117,-1.615,5.479,58.0
40.277,-1.535,5.012,55.0
40.497,-1.535,4.808,49.0
40.355,-1.521,4.565,60.0
40.432,-1.515,4.347,48.0
42.184,-1.579,5.735,37.0
42.202,-1.571,5.498,52.0
40.25,-1.489,5.017,52.0
40.308,-1.482,4.793,52.0
40.288,-1.473,4.564,52.0
40.457,-1.47,4.357,56.0
42.277,-1.534,5.754,64.0
42.391,-1.529,5.529,40.0
40.325,-1.446,5.032,44.0
40.358,-1.438,4.804,51.0
40.156,-1.422,4.554,71.0
40.452,-1.424,4.361,53.0
42.228,-1.484,5.752,37.0
47.329,-1.653,6.179,7.0
40.333,-1.399,5.037,43.0
40.45,-1.395,4.819,60.0
40.308,-1.381,4.575,50.0
40.249,-1.371,4.342,48.0
42.008,-1.428,5.725,53.0
42.385,-1.431,5.536,65.0
42.696,-1.432,5.334,20.0
40.604,-1.354,4.839,47.0
40.502,-1.341,4.599,46.0
40.035,-1.317,4.32,61.0
41.943,-1.377,5.717,76.0
42.644,-1.39,5.57,59.0
40.616,-1.316,5.075,31.0
40.45,-1.302,4.821,64.0
39.995,-1.278,4.541,48.0
39.907,-1.267,4.306,56.0
42.08,-1.333,5.735,52.0
41.954,-1.319,5.479,59.0
40.396,-1.261,5.046,45.0
40.51,-1.256,4.826,45.0
39.664,-1.221,4.501,66.0
39.548,-1.209,4.264,56.0
42.031,-1.281,5.725,63.0
41.942,-1.269,5.474,55.0
40.153,-1.206,5.012,56.0
40.029,-1.194,4.765,59.0
39.557,-1.172,4.485,59.0
39.342,-1.156,4.238,66.0
42.324,-1.239,5.76,46.0
41.958,-1.22,5.471,43.0
40.517,-1.169,5.052,52.0
39.837,-1.141,4.737,62.0
39.718,-1.129,4.497,60.0
39.223,-1.107,4.219,62.0
42.295,-1.189,5.749,61.0
41.909,-1.168,5.457,67.0
39.901,-1.104,4.968,52.0
39.336,-1.08,4.67,69.0
39.422,-1.074,4.456,52.0
39.343,-1.064,4.224,51.0
42.396,-1.141,5.754,64.0
42.469,-1.134,5.521,39.0
39.688,-1.051,4.933,56.0
39.294,-1.032,4.656,59.0
39.47,-1.029,4.452,53.0
39.026,-1.009,4.181,63.0
42.071,-1.082,5.699,66.0
42.454,-1.083,5.508,23.0
39.852,-1.008,4.942,59.0
39.271,-0.985,4.642,64.0
39.485,-0.983,4.443,46.0
39.044,-0.964,4.171,61.0
42.12,-1.033,5.693,53.0
39.518,-0.961,5.115,43.0
39.582,-0.954,4.896,58.0
39.191,-0.937,4.62,65.0
39.541,-0.937,4.436,42.0
39.01,-0.917,4.154,77.0
42.123,-0.983,5.679,57.0
39.471,-0.912,5.095,52.0
39.644,-0.908,4.889,64.0
39.397,-0.894,4.629,40.0
39.283,-0.884,4.392,55.0
39.124,-0.873,4.151,56.0
41.791,-0.925,5.617,71.0
39.461,-0.865,5.077,46.0
39.596,-0.86,4.867,64.0
39.208,-0.844,4.591,60.0
39.261,-0.838,4.373,59.0
39.585,-0.837,4.183,53.0
41.804,-0.876,5.601,42.0
41.924,-0.87,5.375,17.0
39.578,-0.813,4.847,56.0
39.291,-0.799,4.582,52.0
39.093,-0.788,4.336,65.0
39.176,-0.781,4.121,54.0
0.0,0.0,0.0,0.0
39.455,-0.772,5.039,54.0
39.468,-0.764,4.813,53.0
39.393,-0.755,4.574,55.0
39.029,-0.74,4.308,58.0
39.217,-0.737,4.105,65.0
50.277,-0.934,6.684,7.0
39.577,-0.728,5.033,34.0
39.307,-0.715,4.772,47.0
39.3,-0.707,4.541,60.0
39.154,-0.697,4.3,48.0
39.238,-0.691,4.085,59.0
39.927,-0.695,5.285,45.0
39.708,-0.684,5.026,51.0
39.274,-0.669,4.745,68.0
39.613,-0.667,4.554,57.0
38.986,-0.649,4.258,65.0
39.21,-0.646,4.058,58.0
39.94,-0.65,5.262,33.0
39.68,-0.637,4.998,54.0
39.957,-0.634,4.802,49.0
39.332,-0.617,4.497,75.0
39.666,-0.615,4.307,33.0
39.284,-0.602,4.04,60.0
39.937,-0.603,5.234,39.0
39.826,-0.594,4.989,38.0
39.999,-0.589,4.78,54.0
39.64,-0.576,4.504,60.0
39.206,-0.563,4.23,63.0
39.743,-0.563,4.059,46.0
39.965,-0.557,5.209,59.0
40.025,-0.55,4.985,43.0
39.985,-0.543,4.749,45.0
39.694,-0.532,4.481,47.0
39.632,-0.524,4.246,28.0
39.699,-0.518,4.025,53.0
39.992,-0.513,5.182,68.0
39.928,-0.504,4.943,57.0
39.929,-0.498,4.712,58.0
39.81,-0.489,4.464,60.0
39.608,-0.48,4.213,58.0
39.791,-0.475,4.004,45.0
39.946,-0.467,5.144,43.0
39.917,-0.46,4.909,32.0
40.012,-0.454,4.689,47.0
39.704,-0.443,4.419,49.0
39.445,-0.434,4.163,60.0
39.274,-0.426,3.919,62.0
39.932,-0.423,5.108,48.0
39.891,-0.415,4.871,49.0
40.084,-0.41,4.663,51.0
39.558,-0.399,4.369,62.0
39.335,-0.389,4.117,63.0
39.453,-0.384,3.902,48.0
39.714,-0.377,5.045,50.0
40.056,-0.373,4.856,34.0
40.188,-0.368,4.638,40.0
39.629,-0.356,4.34,54.0
39.565,-0.349,4.105,47.0
39.44,-0.342,3.865,71.0
39.731,-0.334,5.01,49.0
39.897,-0.329,4.799,40.0
40.279,-0.326,4.611,60.0
43.988,-0.348,4.776,3.0
39.52,-0.307,4.063,54.0
39.545,-0.301,3.837,67.0
39.607,-0.291,4.956,64.0
39.851,-0.286,4.754,45.0
40.717,-0.286,4.621,58.0
40.265,-0.276,4.332,32.0
39.73,-0.267,4.045,57.0
42.347,-0.278,4.067,2.0
39.593,-0.249,4.914,58.0
39.72,-0.244,4.698,32.0
40.43,-0.242,4.547,51.0
40.433,-0.236,4.309,50.0
39.737,-0.226,4.004,52.0
39.901,-0.221,3.79,34.0
39.756,-0.209,4.892,47.0
39.583,-0.202,4.64,48.0
40.286,-0.2,4.487,59.0
40.25,-0.194,4.246,53.0
47.359,-0.221,4.722,6.0
0.0,0.0,0.0,0.0
39.582,-0.168,4.826,60.0
39.655,-0.163,4.604,57.0
39.842,-0.158,4.394,60.0
39.967,-0.152,4.171,43.0
40.031,-0.147,3.946,49.0
41.834,-0.147,3.882,50.0
39.462,-0.128,4.767,59.0
39.9,-0.124,4.586,50.0
40.286,-0.119,4.396,65.0
39.859,-0.112,4.114,54.0
39.949,-0.108,3.892,62.0
41.129,-0.105,3.769,42.0
39.689,-0.09,4.747,47.0
40.08,-0.086,4.56,38.0
41.006,-0.082,4.427,42.0
40.646,-0.076,4.147,43.0
40.929,-0.071,3.938,17.0
47.673,-0.077,4.311,5.0
39.905,-0.053,4.724,45.0
40.501,-0.048,4.558,34.0
41.162,-0.044,4.393,46.0
40.673,-0.038,4.1,48.0
40.504,-0.033,3.848,27.0
40.358,-0.028,3.6,31.0
39.868,-0.015,4.67,27.0
40.306,-0.011,4.486,44.0
40.273,-0.006,4.247,44.0
40.501,-0.001,4.032,51.0
0.0,0.0,0.0,0.0
0.0,0.0,0.0,0.0
39.675,0.019,4.596,46.0
40.051,0.025,4.405,59.0
40.227,0.029,4.19,51.0
40.331,0.034,3.962,46.0
54.699,0.053,5.056,15.0
47.761,0.052,4.137,4.0
39.956,0.055,4.575,55.0
40.011,0.06,4.347,72.0
39.998,0.064,4.113,71.0
40.152,0.069,3.89,67.0
54.687,0.101,4.98,18.0
39.869,0.078,3.399,66.0
40.063,0.09,4.532,44.0
40.303,0.095,4.323,49.0
40.082,0.099,4.065,67.0
59.21,0.152,5.655,20.0
47.719,0.128,4.28,12.0
39.897,0.111,3.346,62.0
40.339,0.124,4.507,46.0
40.623,0.129,4.301,33.0
40.15,0.132,4.016,69.0
59.196,0.2,5.57,26.0
54.707,0.191,4.829,6.0
39.99,0.144,3.298,65.0
40.125,0.155,4.425,57.0
40.225,0.16,4.201,65.0
40.219,0.164,3.965,56.0
47.645,0.199,4.415,78.0
54.735,0.234,4.753,7.0
64.856,0.284,5.255,21.0
40.096,0.187,4.363,69.0
40.244,0.191,4.143,53.0
47.586,0.231,4.621,10.0
47.674,0.236,4.347,14.0
39.895,0.201,3.405,67.0
64.842,0.333,5.157,2.0
40.333,0.219,4.328,56.0
40.386,0.223,4.096,61.0
47.622,0.267,4.552,10.0
0.0,0.0,0.0,0.0
39.908,0.231,3.345,27.0
48.543,0.285,3.786,13.0
40.093,0.247,4.24,59.0
57.339,0.358,5.727,17.0
39.968,0.253,3.759,46.0
39.966,0.256,3.521,5.0
74.997,0.486,6.17,20.0
48.365,0.318,3.698,57.0
40.162,0.275,4.184,70.0
47.44,0.329,4.664,54.0
40.018,0.28,3.7,52.0
48.801,0.346,4.223,4.0
48.545,0.348,3.918,44.0
48.294,0.349,3.617,54.0
40.268,0.302,4.132,40.0
47.604,0.361,4.605,57.0
40.107,0.307,3.645,36.0
48.722,0.376,4.138,57.0
48.403,0.377,3.829,92.0
48.317,0.38,3.541,59.0
47.354,0.385,4.782,10.0
0.0,0.0,0.0,0.0
40.019,0.331,3.572,59.0
48.636,0.406,4.052,59.0
48.377,0.407,3.748,96.0
48.379,0.41,3.466,54.0
47.385,0.415,4.705,5.0
61.707,0.544,5.765,36.0
48.755,0.433,4.27,42.0
48.445,0.433,3.954,70.0
48.406,0.436,3.669,88.0
55.734,0.505,3.9,81.0
40.264,0.376,3.93,54.0
39.98,0.375,3.667,72.0
48.7,0.46,4.183,51.0
48.4,0.46,3.869,111.0
48.461,0.463,3.591,16.0
75.411,0.725,5.149,21.0
64.397,0.636,6.175,20.0
48.904,0.485,4.403,8.0
48.451,0.483,4.079,84.0
48.423,0.485,3.788,96.0
55.828,0.563,4.041,27.0
93.201,0.944,6.203,7.0
40.008,0.415,3.767,46.0
40.181,0.419,3.547,47.0
48.451,0.508,3.993,111.0
56.141,0.591,4.293,22.0
55.787,0.59,3.941,63.0
77.842,0.827,5.044,16.0
39.973,0.434,3.692,43.0
48.417,0.528,4.188,97.0
48.452,0.53,3.908,84.0
56.051,0.616,4.187,49.0
55.839,0.616,3.846,7.0
77.904,0.862,4.912,19.0
48.425,0.547,4.387,10.0
48.431,0.549,4.104,112.0
56.132,0.638,4.428,23.0
55.923,0.638,4.078,30.0
99.426,1.138,6.671,27.0
54.956,0.631,3.366,77.0
48.407,0.567,4.298,32.0
48.464,0.569,4.019,69.0
56.117,0.661,4.324,86.0
55.867,0.659,3.973,16.0
126.09,1.492,8.23,11.0
54.967,0.652,3.267,100.0
48.415,0.585,4.21,39.0
56.149,0.679,4.553,81.0
56.08,0.68,4.219,69.0
99.319,1.208,6.88,26.0
91.608,1.116,5.81,39.0
54.994,0.671,3.167,76.0
56.209,0.698,4.783,18.0
56.163,0.699,4.449,57.0
56.04,0.698,4.111,19.0
91.302,1.14,6.154,23.0
54.987,0.688,3.385,53.0
54.993,0.688,3.065,69.0
56.184,0.715,4.675,85.0
56.143,0.715,4.342,36.0
64.173,0.819,4.587,25.0
91.379,1.167,5.989,42.0
54.978,0.702,3.282,104.0
54.976,0.703,2.962,88.0
61.634,0.8,5.012,14.0
64.122,0.834,4.837,14.0
64.16,0.835,4.465,39.0
91.534,1.192,5.826,34.0
54.981,0.716,3.177,112.0
55.003,0.717,2.857,112.0
61.633,0.815,4.894,54.0
64.131,0.848,4.716,101.0
64.129,0.848,4.34,49.0
91.759,1.214,5.665,26.0
54.968,0.727,3.072,100.0
55.005,0.728,2.754,122.0
64.318,0.863,4.984,23.0
64.133,0.86,4.594,115.0
64.096,0.859,4.216,58.0
54.967,0.737,3.288,115.0
54.962,0.736,2.967,110.0
55.006,0.737,2.649,114.0
64.158,0.87,4.848,47.0
64.128,0.87,4.469,101.0
64.049,0.868,4.089,27.0
54.961,0.744,3.182,111.0
54.983,0.744,2.861,123.0
55.0,0.744,2.542,110.0
64.15,0.878,4.722,76.0
64.114,0.877,4.343,101.0
76.418,1.044,4.729,17.0
54.944,0.75,3.073,108.0
54.991,0.75,2.754,123.0
55.009,0.749,2.434,102.0
64.142,0.883,4.595,90.0
64.078,0.881,4.215,81.0
54.98,0.755,3.294,112.0
54.951,0.754,2.966,117.0
55.011,0.753,2.648,113.0
55.021,0.753,2.327,111.0
64.134,0.886,4.468,86.0
64.018,0.883,4.084,38.0
54.964,0.757,3.185,112.0
54.97,0.756,2.858,124.0
54.995,0.755,2.538,106.0
55.029,0.754,2.219,101.0
64.113,0.886,4.338,105.0
63.943,0.882,3.952,11.0
54.951,0.756,3.074,111.0
54.975,0.755,2.749,122.0
54.998,0.754,2.428,107.0
55.041,0.753,2.108,91.0
64.08,0.884,4.207,80.0
54.967,0.756,3.286,114.0
54.964,0.754,2.964,117.0
55.0,0.753,2.639,110.0
55.025,0.752,2.319,112.0
55.057,0.75,1.999,81.0
64.023,0.879,4.074,27.0
54.967,0.752,3.176,109.0
54.992,0.75,2.855,125.0
54.983,0.748,2.528,112.0
55.034,0.747,2.209,111.0
55.055,0.745,1.888,77.0
76.418,1.041,4.708,14.0
54.943,0.746,3.063,109.0
54.997,0.744,2.743,124.0
54.987,0.741,2.417,103.0
55.035,0.739,2.097,101.0
55.038,0.737,1.776,76.0
54.984,0.741,3.276,121.0
54.966,0.738,2.952,112.0
54.995,0.735,2.632,120.0
55.007,0.733,2.305,119.0
55.039,0.73,1.985,97.0
55.06,0.728,1.664,61.0
54.985,0.73,3.162,111.0
54.992,0.728,2.841,125.0
54.995,0.725,2.519,121.0
55.01,0.722,2.193,118.0
55.027,0.719,1.871,99.0
55.082,0.716,1.551,52.0
54.968,0.718,3.048,104.0
55.008,0.715,2.728,127.0
54.991,0.711,2.406,77.0
55.014,0.708,2.08,105.0
55.024,0.705,1.759,106.0
55.073,0.703,1.439,49.0
55.001,0.704,2.938,102.0
55.0,0.7,2.616,130.0
54.995,0.697,2.294,85.0
55.011,0.693,1.967,112.0
55.029,0.69,1.647,100.0
55.071,0.687,1.327,51.0
55.018,0.688,2.826,124.0
54.997,0.684,2.504,126.0
55.002,0.68,2.182,113.0
55.005,0.676,1.855,112.0
55.032,0.672,1.534,101.0
55.059,0.669,1.213,67.0
55.03,0.669,2.712,125.0
54.995,0.664,2.389,110.0
55.014,0.661,2.069,126.0
54.994,0.656,1.742,109.0
55.023,0.652,1.421,70.0
55.064,0.648,1.1,34.0
55.02,0.648,2.6,117.0
54.992,0.644,2.277,96.0
55.004,0.639,1.957,126.0
55.004,0.635,1.629,67.0
48.203,0.552,1.147,44.0
48.161,0.548,0.865,56.0
55.012,0.626,2.487,117.0
55.011,0.621,2.165,116.0
55.002,0.616,1.843,105.0
48.185,0.535,1.329,60.0
48.159,0.531,1.047,63.0
48.119,0.526,0.765,86.0
55.023,0.601,2.375,106.0
55.036,0.596,2.053,19.0
48.191,0.517,1.516,55.0
48.153,0.513,1.23,78.0
48.134,0.508,0.948,93.0
48.103,0.503,0.667,97.0
55.064,0.574,2.263,14.0
48.18,0.498,1.699,66.0
48.16,0.493,1.417,89.0
48.121,0.488,1.13,99.0
48.115,0.483,0.849,93.0
48.091,0.478,0.569,97.0
48.177,0.477,1.882,85.0
48.155,0.472,1.601,82.0
48.136,0.467,1.318,100.0
48.097,0.462,1.032,104.0
48.088,0.457,0.751,106.0
48.069,0.451,0.471,89.0
48.147,0.45,1.784,105.0
48.132,0.444,1.502,94.0
48.121,0.439,1.221,106.0
48.085,0.433,0.934,110.0
48.08,0.428,0.654,104.0
48.049,0.423,0.373,102.0
48.129,0.42,1.685,102.0
48.121,0.415,1.403,115.0
48.107,0.409,1.122,111.0
48.08,0.404,0.836,109.0
48.062,0.398,0.555,104.0
48.041,0.392,0.275,94.0
48.128,0.39,1.587,120.0
48.11,0.384,1.305,114.0
48.112,0.378,1.024,113.0
48.073,0.372,0.739,109.0
48.063,0.366,0.458,97.0
48.051,0.36,0.178,79.0
48.126,0.357,1.489,124.0
48.114,0.351,1.208,108.0
48.103,0.345,0.927,104.0
48.093,0.339,0.642,84.0
48.116,0.333,0.362,48.0
47.934,0.326,0.081,46.0
48.124,0.322,1.392,109.0
48.119,0.316,1.111,98.0
48.123,0.31,0.831,76.0
48.145,0.304,0.546,46.0
48.177,0.298,0.266,59.0
0.0,0.0,0.0,0.0
48.149,0.286,1.297,100.0
48.155,0.28,1.016,77.0
48.187,0.274,0.736,50.0
48.206,0.267,0.45,33.0
54.886,0.297,0.193,52.0
40.055,0.211,-0.091,15.0
48.196,0.249,1.202,46.0
59.274,0.298,1.132,10.0
59.291,0.29,0.788,139.0
59.303,0.282,0.437,90.0
47.934,0.221,0.073,25.0
38.911,0.174,-0.166,42.0
59.295,0.258,1.362,119.0
79.413,0.334,1.361,26.0
59.336,0.241,0.671,72.0
59.347,0.232,0.319,35.0
0.0,0.0,0.0,0.0
38.087,0.138,-0.238,13.0
79.455,0.277,1.667,151.0
79.471,0.265,1.205,152.0
79.46,0.253,0.741,150.0
54.946,0.166,0.187,29.0
40.446,0.116,-0.097,16.0
37.953,0.103,-0.312,0.0
79.463,0.205,1.511,151.0
79.466,0.193,1.049,151.0
76.545,0.174,0.564,21.0
47.93,0.101,0.07,22.0
39.078,0.076,-0.17,37.0
32.95,0.059,-0.335,1.0
79.448,0.131,1.356,157.0
79.47,0.119,0.894,151.0
61.893,0.082,0.336,10.0
44.955,0.052,-0.021,22.0
38.364,0.038,-0.242,8.0
30.727,0.026,-0.372,1.0
79.468,0.055,1.204,151.0
79.436,0.042,0.741,150.0
55.406,0.02,0.195,10.0
40.8,0.008,-0.097,17.0
37.979,0.001,-0.311,1.0
29.579,-0.003,-0.414,2.0
79.457,-0.023,1.053,152.0
76.432,-0.034,0.57,16.0
0.0,0.0,0.0,0.0
39.484,-0.031,-0.168,24.0
32.86,-0.031,-0.331,1.0
28.405,-0.032,-0.451,2.0
79.462,-0.103,0.906,151.0
76.035,-0.112,0.425,12.0
45.471,-0.075,-0.01,20.0
38.782,-0.071,-0.238,6.0
30.868,-0.061,-0.368,1.0
27.132,-0.059,-0.482,1.0
79.424,-0.188,0.756,150.0
56.141,-0.143,0.208,23.0
41.754,-0.114,-0.087,19.0
37.181,-0.108,-0.297,1.0
29.619,-0.091,-0.409,2.0
26.24,-0.085,-0.515,1.0
79.204,-0.274,0.608,20.0
0.0,0.0,0.0,0.0
39.922,-0.152,-0.156,5.0
33.104,-0.132,-0.325,1.0
28.581,-0.119,-0.447,1.0
25.138,-0.11,-0.539,1.0
76.557,-0.35,0.449,10.0
46.645,-0.221,0.003,22.0
39.511,-0.195,-0.226,4.0
30.991,-0.159,-0.36,1.0
27.382,-0.145,-0.477,2.0
24.137,-0.133,-0.561,3.0
61.215,-0.35,0.249,17.0
42.152,-0.249,-0.072,3.0
39.602,-0.241,-0.298,2.0
29.768,-0.187,-0.4,2.0
26.398,-0.171,-0.508,2.0
23.315,-0.156,-0.584,2.0
52.559,-0.363,0.12,26.0
44.799,-0.318,-0.157,5.0
33.426,-0.244,-0.311,1.0
28.792,-0.215,-0.437,2.0
25.331,-0.195,-0.532,1.0
22.48,-0.177,-0.603,2.0
48.907,-0.397,0.025,4.0
42.186,-0.351,-0.222,4.0
31.299,-0.267,-0.346,1.0
27.61,-0.241,-0.468,2.0
24.37,-0.217,-0.555,2.0
21.613,-0.197,-0.617,1.0
50.706,-0.474,-0.061,11.0
38.41,-0.367,-0.269,1.0
30.159,-0.295,-0.386,2.0
26.553,-0.265,-0.496,1.0
23.475,-0.239,-0.575,2.0
20.878,-0.217,-0.633,1.0
47.309,-0.504,-0.139,3.0
33.807,-0.367,-0.295,1.0
29.176,-0.323,-0.423,5.0
25.533,-0.288,-0.521,1.0
22.744,-0.261,-0.596,1.0
20.176,-0.236,-0.645,2.0
42.409,-0.506,-0.195,2.0
32.082,-0.39,-0.333,1.0
28.107,-0.347,-0.455,2.0
24.75,-0.311,-0.546,1.0
21.914,-0.28,-0.611,2.0
19.613,-0.255,-0.66,1.0
42.12,-0.558,-0.264,1.0
30.614,-0.412,-0.368,1.0
27.039,-0.37,-0.482,2.0
23.773,-0.331,-0.564,2.0
21.172,-0.299,-0.625,1.0
19.072,-0.274,-0.673,2.0
35.633,-0.52,-0.281,1.0
29.594,-0.439,-0.405,1.0
26.146,-0.393,-0.508,1.0
23.109,-0.353,-0.585,2.0
20.487,-0.317,-0.637,1.0
18.516,-0.291,-0.683,1.0
33.449,-0.534,-0.317,1.0
28.655,-0.464,-0.437,1.0
25.269,-0.415,-0.532,1.0
22.296,-0.371,-0.6,1.0
19.893,-0.336,-0.651,1.0
18.08,-0.31,-0.696,1.0
31.366,-0.545,-0.347,1.0
27.49,-0.484,-0.462,1.0
24.388,-0.435,-0.551,1.0
21.616,-0.391,-0.616,1.0
19.404,-0.355,-0.665,1.0
17.644,-0.327,-0.707,1.0
30.132,-0.566,-0.38,1.0
26.661,-0.507,-0.49,1.0
23.576,-0.454,-0.569,1.0
20.924,-0.408,-0.628,1.0
18.834,-0.372,-0.674,1.0
17.182,-0.343,-0.714,1.0
29.333,-0.593,-0.414,1.0
25.904,-0.53,-0.515,1.0
22.716,-0.471,-0.583,4.0
20.299,-0.426,-0.64,1.0
18.379,-0.39,-0.686,1.0
16.812,-0.361,-0.724,1.0
28.25,-0.613,-0.44,1.0
25.104,-0.551,-0.536,1.0
22.198,-0.493,-0.602,1.0
19.82,-0.445,-0.654,1.0
17.941,-0.407,-0.696,1.0
16.394,-0.376,-0.73,1.0
27.346,-0.634,-0.466,4.0
24.262,-0.569,-0.553,1.0
21.53,-0.51,-0.615,1.0
19.311,-0.462,-0.665,1.0
17.6,-0.426,-0.707,1.0
16.022,-0.392,-0.737,1.0
26.869,-0.664,-0.496,3.0
23.5,-0.587,-0.569,2.0
20.814,-0.525,-0.624,4.0
18.823,-0.479,-0.675,1.0
17.188,-0.442,-0.715,1.0
15.685,-0.408,-0.743,1.0
25.848,-0.678,-0.513,1.0
22.936,-0.608,-0.587,1.0
20.564,-0.55,-0.644,3.0
18.41,-0.497,-0.685,1.0
16.776,-0.458,-0.721,0.0
15.379,-0.423,-0.749,1.0
25.094,-0.697,-0.531,2.0
22.246,-0.624,-0.599,1.0
19.914,-0.564,-0.651,1.0
18.006,-0.514,-0.694,1.0
16.427,-0.474,-0.728,1.0
15.124,-0.44,-0.757,1.0
24.376,-0.715,-0.548,1.0
21.677,-0.642,-0.612,1.0
19.443,-0.581,-0.661,1.0
17.662,-0.532,-0.704,1.0
16.124,-0.49,-0.735,1.0
14.863,-0.456,-0.763,1.0
23.671,-0.732,-0.562,1.0
21.095,-0.658,-0.622,1.0
18.961,-0.596,-0.668,1.0
17.327,-0.55,-0.712,1.0
15.803,-0.506,-0.74,1.0
14.602,-0.471,-0.768,1.0
23.141,-0.752,-0.579,2.0
20.569,-0.674,-0.632,1.0
18.601,-0.615,-0.679,1.0
16.987,-0.566,-0.719,1.0
15.525,-0.522,-0.746,1.0
14.356,-0.487,-0.773,1.0
22.59,-0.771,-0.592,2.0
20.152,-0.693,-0.644,1.0
18.26,-0.633,-0.688,1.0
16.626,-0.581,-0.724,1.0
15.277,-0.538,-0.753,1.0
14.124,-0.502,-0.777,1.0
22.004,-0.786,-0.602,1.0
19.741,-0.711,-0.653,1.0
17.924,-0.651,-0.696,1.0
16.304,-0.597,-0.728,1.0
15.041,-0.555,-0.758,1.0
13.929,-0.518,-0.782,1.0
21.571,-0.806,-0.615,1.0
19.335,-0.728,-0.662,1.0
17.634,-0.669,-0.705,1.0
16.054,-0.614,-0.735,1.0
14.805,-0.57,-0.763,1.0
13.739,-0.533,-0.787,1.0
21.042,-0.821,-0.623,1.0
18.965,-0.746,-0.67,1.0
17.345,-0.687,-0.712,1.0
15.802,-0.631,-0.741,1.0
14.591,-0.586,-0.768,1.0
13.562,-0.549,-0.791,1.0
20.648,-0.84,-0.633,1.0
18.633,-0.763,-0.678,1.0
17.016,-0.702,-0.716,1.0
15.576,-0.647,-0.746,1.0
14.376,-0.602,-0.771,1.0
13.397,-0.565,-0.796,1.0
20.211,-0.856,-0.64,1.0
18.339,-0.782,-0.686,1.0
16.751,-0.719,-0.722,1.0
15.36,-0.664,-0.752,1.0
14.192,-0.618,-0.775,1.0
13.256,-0.581,-0.8,1.0
19.885,-0.876,-0.649,1.0
18.042,-0.8,-0.692,1.0
16.46,-0.735,-0.726,1.0
15.143,-0.681,-0.756,1.0
14.003,-0.634,-0.779,1.0
13.102,-0.597,-0.804,0.0
19.54,-0.894,-0.657,1.0
17.796,-0.819,-0.699,2.0
16.219,-0.752,-0.73,1.0
14.937,-0.697,-0.759,1.0
13.835,-0.649,-0.782,1.0
12.954,-0.612,-0.807,0.0
19.223,-0.912,-0.663,1.0
17.559,-0.838,-0.706,1.0
15.99,-0.768,-0.734,1.0
14.759,-0.714,-0.763,1.0
13.716,-0.667,-0.788,1.0
12.821,-0.628,-0.809,1.0
18.927,-0.93,-0.669,1.0
17.296,-0.855,-0.71,1.0
15.813,-0.787,-0.739,1.0
14.595,-0.73,-0.767,1.0
13.593,-0.684,-0.792,1.0
12.686,-0.643,-0.812,1.0
18.682,-0.95,-0.676,1.0
17.071,-0.873,-0.715,1.0
15.653,-0.805,-0.745,1.0
14.426,-0.747,-0.77,1.0
13.464,-0.701,-0.795,1.0
12.569,-0.658,-0.814,1.0
18.45,-0.969,-0.682,1.0
16.857,-0.891,-0.719,1.0
15.464,-0.822,-0.747,1.0
14.276,-0.763,-0.773,1.0
13.345,-0.718,-0.798,1.0
12.48,-0.675,-0.818,0.0
18.227,-0.989,-0.687,1.0
16.639,-0.908,-0.722,1.0
15.308,-0.84,-0.751,1.0
14.138,-0.78,-0.775,1.0
13.207,-0.733,-0.799,1.0
12.353,-0.69,-0.818,0.0
18.021,-1.009,-0.692,2.0
16.458,-0.926,-0.725,1.0
15.177,-0.859,-0.755,1.0
14.01,-0.797,-0.778,1.0
13.099,-0.75,-0.802,0.0
12.265,-0.706,-0.821,0.0
17.832,-1.029,-0.697,1.0
16.314,-0.946,-0.73,1.0
15.031,-0.877,-0.757,1.0
13.901,-0.815,-0.781,1.0
13.012,-0.767,-0.805,1.0
12.182,-0.722,-0.823,0.0
17.672,-1.05,-0.701,1.0
16.145,-0.964,-0.732,1.0
14.885,-0.894,-0.759,1.0
13.793,-0.832,-0.783,1.0
12.915,-0.783,-0.807,0.0
12.117,-0.739,-0.825,0.0
17.533,-1.071,-0.706,1.0
15.993,-0.982,-0.734,1.0
14.774,-0.912,-0.762,1.0
13.715,-0.851,-0.786,1.0
12.818,-0.8,-0.808,0.0
12.04,-0.755,-0.827,0.0
17.325,-1.088,-0.706,2.0
15.867,-1.001,-0.737,1.0
14.668,-0.931,-0.764,1.0
13.62,-0.868,-0.788,1.0
12.741,-0.817,-0.809,1.0
11.969,-0.771,-0.828,0.0
17.008,-1.097,-0.702,0.0
15.769,-1.022,-0.74,1.0
14.567,-0.949,-0.766,1.0
13.545,-0.887,-0.79,1.0
12.674,-0.834,-0.811,1.0
11.9,-0.787,-0.829,0.0
16.921,-1.121,-0.706,1.0
15.708,-1.045,-0.744,4.0
14.51,-0.97,-0.769,1.0
13.468,-0.904,-0.791,1.0
12.604,-0.85,-0.812,1.0
11.856,-0.804,-0.831,0.0
16.837,-1.143,-0.709,2.0
15.539,-1.06,-0.742,2.0
14.373,-0.985,-0.768,1.0
13.435,-0.925,-0.794,1.0
12.556,-0.869,-0.813,1.0
11.779,-0.819,-0.83,0.0
16.742,-1.165,-0.711,2.0
15.497,-1.083,-0.746,0.0
14.362,-1.008,-0.772,1.0
13.403,-0.945,-0.797,1.0
12.501,-0.886,-0.814,0.0
11.768,-0.838,-0.833,0.0
16.724,-1.191,-0.716,2.0
15.431,-1.104,-0.748,0.0
14.231,-1.023,-0.769,1.0
13.319,-0.962,-0.796,1.0
12.472,-0.905,-0.816,1.0
11.735,-0.855,-0.834,0.0
16.637,-1.213,-0.717,2.0
15.353,-1.124,-0.748,1.0
14.133,-1.04,-0.768,0.0
13.319,-0.984,-0.8,1.0
12.422,-0.922,-0.816,0.0
11.712,-0.873,-0.835,0.0
16.398,-1.223,-0.711,0.0
15.301,-1.146,-0.749,1.0
14.145,-1.064,-0.772,0.0
13.225,-0.999,-0.797,1.0
12.394,-0.94,-0.817,0.0
11.68,-0.89,-0.836,0.0
16.386,-1.249,-0.714,0.0
15.292,-1.171,-0.752,1.0
14.085,-1.083,-0.771,1.0
13.151,-1.015,-0.795,0.0
12.368,-0.959,-0.817,1.0
11.657,-0.908,-0.836,0.0
16.368,-1.275,-0.716,0.0
15.165,-1.186,-0.748,0.0
14.057,-1.104,-0.772,4.0
13.189,-1.04,-0.799,0.0
12.343,-0.977,-0.817,2.0
11.631,-0.925,-0.836,0.0
16.353,-1.3,-0.717,1.0
15.008,-1.198,-0.742,0.0
13.99,-1.121,-0.77,3.0
13.139,-1.057,-0.798,0.0
12.28,-0.992,-0.815,1.0
11.639,-0.944,-0.837,0.0
16.331,-1.325,-0.717,1.0
15.295,-1.246,-0.757,0.0
14.007,-1.145,-0.772,1.0
13.145,-1.079,-0.799,0.0
12.277,-1.012,-0.815,0.0
11.613,-0.961,-0.836,1.0
16.31,-1.349,-0.717,1.0
15.223,-1.264,-0.754,0.0
13.941,-1.162,-0.769,0.0
13.136,-1.099,-0.799,1.0
12.292,-1.032,-0.816,0.0
11.558,-0.975,-0.832,0.0
16.306,-1.375,-0.717,3.0
15.273,-1.292,-0.757,0.0
13.974,-1.187,-0.77,0.0
13.137,-1.12,-0.799,1.0
12.293,-1.052,-0.816,0.0
11.57,-0.994,-0.833,0.0
16.301,-1.4,-0.716,11.0
15.238,-1.314,-0.754,0.0
14.024,-1.213,-0.772,0.0
13.13,-1.14,-0.797,0.0
12.314,-1.073,-0.816,0.0
11.608,-1.015,-0.834,0.0
16.308,-1.426,-0.715,10.0
15.244,-1.338,-0.753,0.0
14.071,-1.239,-0.773,0.0
13.08,-1.156,-0.793,0.0
12.333,-1.094,-0.816,0.0
11.63,-1.035,-0.835,0.0
16.309,-1.451,-0.713,10.0
15.257,-1.362,-0.752,0.0
14.106,-1.264,-0.773,0.0
13.253,-1.191,-0.802,0.0
12.36,-1.115,-0.816,1.0
11.651,-1.055,-0.834,0.0
16.321,-1.477,-0.711,10.0
15.317,-1.391,-0.752,0.0
14.171,-1.291,-0.775,0.0
13.267,-1.213,-0.8,0.0
12.338,-1.131,-0.813,0.0
11.678,-1.075,-0.834,0.0
16.344,-1.503,-0.709,11.0
15.35,-1.416,-0.751,0.0
14.23,-1.317,-0.775,0.0
13.333,-1.238,-0.801,0.0
12.43,-1.158,-0.816,0.0
11.714,-1.095,-0.834,0.0
16.345,-1.527,-0.705,11.0
15.449,-1.448,-0.752,0.0
14.308,-1.345,-0.776,0.0
13.318,-1.256,-0.797,0.0
12.483,-1.181,-0.816,0.0
11.726,-1.113,-0.832,0.0
16.353,-1.551,-0.701,9.0
15.482,-1.473,-0.749,0.0
14.346,-1.369,-0.774,0.0
13.374,-1.281,-0.797,0.0
12.511,-1.202,-0.814,0.0
11.752,-1.132,-0.83,0.0
16.364,-1.575,-0.697,9.0
15.565,-1.503,-0.748,0.0
14.411,-1.396,-0.772,0.0
13.426,-1.304,-0.795,0.0
12.6,-1.228,-0.816,0.0
11.868,-1.16,-0.834,0.0
16.383,-1.6,-0.692,7.0
15.665,-1.534,-0.748,0.0
14.487,-1.423,-0.771,1.0
13.494,-1.329,-0.794,0.0
12.655,-1.25,-0.815,0.0
11.924,-1.182,-0.834,0.0
16.427,-1.627,-0.687,5.0
15.762,-1.565,-0.746,1.0
14.549,-1.449,-0.769,0.0
13.565,-1.355,-0.793,1.0
12.699,-1.272,-0.812,0.0
11.968,-1.202,-0.832,0.0
16.647,-1.671,-0.69,0.0
15.845,-1.594,-0.743,1.0
14.631,-1.476,-0.767,0.0
13.621,-1.378,-0.79,1.0
12.757,-1.294,-0.811,0.0
12.034,-1.224,-0.831,0.0
17.056,-1.734,-0.699,0.0
15.97,-1.628,-0.742,1.0
14.714,-1.504,-0.764,1.0
13.7,-1.404,-0.789,1.0
12.83,-1.318,-0.809,0.0
12.069,-1.243,-0.828,0.0
17.493,-1.801,-0.708,0.0
16.125,-1.664,-0.741,1.0
14.83,-1.534,-0.763,1.0
13.78,-1.429,-0.786,0.0
12.899,-1.341,-0.807,0.0
12.148,-1.267,-0.827,0.0
17.64,-1.837,-0.705,0.0
16.219,-1.694,-0.737,1.0
14.926,-1.562,-0.76,0.0
13.875,-1.456,-0.784,0.0
12.995,-1.367,-0.806,0.0
12.208,-1.288,-0.824,0.0
17.811,-1.877,-0.702,0.0
16.278,-1.72,-0.731,2.0
15.07,-1.596,-0.759,0.0
13.982,-1.484,-0.782,1.0
13.095,-1.393,-0.804,0.0
12.273,-1.309,-0.821,0.0
17.951,-1.913,-0.697,0.0
16.283,-1.739,-0.721,2.0
15.206,-1.628,-0.757,0.0
14.09,-1.512,-0.78,0.0
13.182,-1.418,-0.802,0.0
12.375,-1.334,-0.821,0.0
18.15,-1.955,-0.694,0.0
16.324,-1.762,-0.713,2.0
15.337,-1.659,-0.754,0.0
14.192,-1.539,-0.776,0.0
13.297,-1.445,-0.8,0.0
12.454,-1.357,-0.818,0.0
18.381,-2.0,-0.691,0.0
16.345,-1.783,-0.703,1.0
15.526,-1.697,-0.753,0.0
14.362,-1.573,-0.776,0.0
13.399,-1.471,-0.797,1.0
12.567,-1.383,-0.817,0.0
18.576,-2.042,-0.686,1.0
16.395,-1.806,-0.694,1.0
15.691,-1.732,-0.75,1.0
14.496,-1.603,-0.773,0.0
13.516,-1.498,-0.795,0.0
12.668,-1.407,-0.814,0.0
18.839,-2.09,-0.682,1.0
16.656,-1.851,-0.694,0.0
15.867,-1.767,-0.747,1.0
14.612,-1.631,-0.769,0.0
13.651,-1.527,-0.793,0.0
12.777,-1.432,-0.812,0.0
19.299,-2.161,-0.684,2.0
17.378,-1.949,-0.711,0.0
16.088,-1.808,-0.745,1.0
14.759,-1.662,-0.766,0.0
13.75,-1.551,-0.788,1.0
12.92,-1.461,-0.811,0.0
19.58,-2.211,-0.679,4.0
17.664,-1.999,-0.709,0.0
16.244,-1.841,-0.74,3.0
14.957,-1.699,-0.764,1.0
13.903,-1.582,-0.786,0.0
13.004,-1.482,-0.806,1.0
19.725,-2.246,-0.669,8.0
17.877,-2.039,-0.703,0.0
16.265,-1.859,-0.728,3.0
15.148,-1.734,-0.762,1.0
14.047,-1.611,-0.783,1.0
13.101,-1.505,-0.801,1.0
20.003,-2.296,-0.662,14.0
18.129,-2.084,-0.698,1.0
16.312,-1.879,-0.717,2.0
15.314,-1.767,-0.757,1.0
14.221,-1.644,-0.78,0.0
13.281,-1.538,-0.801,0.0
20.224,-2.339,-0.652,19.0
18.39,-2.13,-0.693,0.0
16.349,-1.897,-0.704,5.0
15.54,-1.806,-0.755,1.0
14.396,-1.676,-0.778,0.0
13.432,-1.566,-0.799,0.0
20.553,-2.394,-0.645,14.0
18.824,-2.196,-0.692,1.0
16.422,-1.919,-0.693,4.0
