X,Y,Z,Reflectivity
7.858,-0.211,-0.917,0.0
7.56,-0.205,-0.926,0.0
7.271,-0.199,-0.932,0.0
7.012,-0.193,-0.939,0.0
8.511,-0.236,-0.899,0.0
8.145,-0.227,-0.907,0.0
7.848,-0.22,-0.918,0.0
7.529,-0.213,-0.925,0.0
7.259,-0.207,-0.933,0.0
6.999,-0.201,-0.94,0.0
8.484,-0.245,-0.899,0.0
8.141,-0.237,-0.909,0.0
7.828,-0.229,-0.918,0.0
7.51,-0.222,-0.924,0.0
7.247,-0.215,-0.933,0.0
6.986,-0.209,-0.94,0.0
8.472,-0.255,-0.9,0.0
8.135,-0.246,-0.91,0.0
7.807,-0.238,-0.917,0.0
7.508,-0.23,-0.926,0.0
7.239,-0.224,-0.934,0.0
6.98,-0.217,-0.94,0.0
8.466,-0.265,-0.901,0.0
8.12,-0.255,-0.91,0.0
7.803,-0.247,-0.918,0.0
7.493,-0.239,-0.925,0.0
7.221,-0.232,-0.933,0.0
6.972,-0.225,-0.94,0.0
8.441,-0.274,-0.899,0.0
8.112,-0.265,-0.91,0.0
7.802,-0.256,-0.919,0.0
7.485,-0.248,-0.925,0.0
7.219,-0.24,-0.934,0.0
6.976,-0.234,-0.942,0.0
8.442,-0.284,-0.9,0.0
8.1,-0.274,-0.909,0.0
7.778,-0.265,-0.917,0.0
7.494,-0.257,-0.927,0.0
7.218,-0.249,-0.934,0.0
6.976,-0.242,-0.942,0.0
8.427,-0.293,-0.899,0.0
8.087,-0.283,-0.908,0.0
7.79,-0.274,-0.919,0.0
7.487,-0.265,-0.926,0.0
7.212,-0.257,-0.933,0.0
6.978,-0.251,-0.943,0.0
8.421,-0.303,-0.899,0.0
8.099,-0.293,-0.91,0.0
7.777,-0.283,-0.918,0.0
7.48,-0.274,-0.926,0.0
7.201,-0.265,-0.932,0.0
6.971,-0.258,-0.942,0.0
8.426,-0.313,-0.899,0.0
8.1,-0.302,-0.91,0.0
7.784,-0.292,-0.918,0.0
7.5,-0.283,-0.928,0.0
7.23,-0.275,-0.935,0.0
6.967,-0.266,-0.941,0.0
8.432,-0.323,-0.899,0.0
8.099,-0.312,-0.909,0.0
7.793,-0.302,-0.918,0.0
7.487,-0.292,-0.925,0.0
7.237,-0.283,-0.935,0.0
6.966,-0.274,-0.94,0.0
8.442,-0.333,-0.899,0.0
8.102,-0.321,-0.908,0.0
7.805,-0.311,-0.919,0.0
7.514,-0.301,-0.928,0.0
7.246,-0.292,-0.935,0.0
6.972,-0.283,-0.939,0.0
8.46,-0.343,-0.899,0.0
8.11,-0.331,-0.908,0.0
7.806,-0.32,-0.917,0.0
7.509,-0.31,-0.925,0.0
7.25,-0.3,-0.934,0.0
6.993,-0.291,-0.941,0.0
8.474,-0.353,-0.899,0.0
8.134,-0.341,-0.908,0.0
7.836,-0.33,-0.919,0.0
7.512,-0.318,-0.924,0.0
7.283,-0.31,-0.937,0.0
7.006,-0.3,-0.941,0.0
8.488,-0.363,-0.898,0.0
8.129,-0.35,-0.906,0.0
7.841,-0.339,-0.917,0.0
7.533,-0.327,-0.924,0.0
7.283,-0.318,-0.935,0.0
7.012,-0.308,-0.939,0.0
8.516,-0.374,-0.899,0.0
8.15,-0.36,-0.906,0.0
7.856,-0.348,-0.917,0.0
7.554,-0.337,-0.925,0.0
7.293,-0.326,-0.933,0.0
7.028,-0.316,-0.939,0.0
8.531,-0.384,-0.897,0.0
8.18,-0.37,-0.906,0.0
7.893,-0.358,-0.918,0.0
7.587,-0.346,-0.926,0.0
7.302,-0.335,-0.932,0.0
7.048,-0.325,-0.939,0.0
8.558,-0.394,-0.897,0.0
8.226,-0.381,-0.908,0.0
7.882,-0.366,-0.914,0.0
7.598,-0.355,-0.924,0.0
7.312,-0.343,-0.93,0.0
7.065,-0.333,-0.938,0.0
8.594,-0.405,-0.897,0.0
8.243,-0.39,-0.906,0.0
7.918,-0.376,-0.914,0.0
7.627,-0.364,-0.924,0.0
7.341,-0.352,-0.93,0.0
7.077,-0.341,-0.936,0.0
8.618,-0.415,-0.895,0.0
8.291,-0.401,-0.907,0.0
7.952,-0.386,-0.914,0.0
7.66,-0.373,-0.924,0.0
7.366,-0.361,-0.93,0.0
7.116,-0.35,-0.938,0.0
8.653,-0.425,-0.895,0.0
8.297,-0.409,-0.904,0.0
7.976,-0.395,-0.913,0.0
7.677,-0.382,-0.922,0.0
7.388,-0.369,-0.928,0.0
7.127,-0.358,-0.935,0.0
8.688,-0.436,-0.893,0.0
8.32,-0.419,-0.901,0.0
7.995,-0.404,-0.91,0.0
7.717,-0.392,-0.922,0.0
7.41,-0.378,-0.927,0.0
7.162,-0.366,-0.936,0.0
8.734,-0.446,-0.893,0.0
8.372,-0.429,-0.902,0.0
8.03,-0.414,-0.909,0.0
7.752,-0.401,-0.922,0.0
7.457,-0.387,-0.928,0.0
7.191,-0.375,-0.935,0.0
8.787,-0.457,-0.893,0.0
8.429,-0.44,-0.903,0.0
8.073,-0.423,-0.909,0.0
7.771,-0.409,-0.919,0.0
7.482,-0.395,-0.926,0.0
7.231,-0.384,-0.935,0.0
8.838,-0.468,-0.892,0.0
8.454,-0.45,-0.899,0.0
8.12,-0.433,-0.909,0.0
7.812,-0.418,-0.918,0.0
7.541,-0.406,-0.928,0.0
7.256,-0.392,-0.933,0.0
8.889,-0.479,-0.891,0.0
8.501,-0.46,-0.898,0.0
8.161,-0.443,-0.907,0.0
7.864,-0.428,-0.918,0.0
7.571,-0.414,-0.926,0.0
7.285,-0.4,-0.931,0.0
8.954,-0.49,-0.89,0.0
8.558,-0.47,-0.898,0.0
8.214,-0.453,-0.907,0.0
7.904,-0.437,-0.917,0.0
7.61,-0.423,-0.924,0.0
7.336,-0.409,-0.932,0.0
9.015,-0.501,-0.889,0.0
8.626,-0.481,-0.898,0.0
8.252,-0.462,-0.904,0.0
7.941,-0.446,-0.914,0.0
7.65,-0.431,-0.923,0.0
7.377,-0.417,-0.931,0.0
9.072,-0.512,-0.887,0.0
8.7,-0.493,-0.898,0.0
8.307,-0.472,-0.903,0.0
7.98,-0.455,-0.912,0.0
7.698,-0.44,-0.922,0.0
7.412,-0.425,-0.928,0.0
9.156,-0.524,-0.887,0.0
8.76,-0.503,-0.897,0.0
8.373,-0.482,-0.903,0.0
8.034,-0.464,-0.911,0.0
7.749,-0.449,-0.921,0.0
7.463,-0.434,-0.928,0.0
9.23,-0.536,-0.886,0.0
8.831,-0.514,-0.896,0.0
8.436,-0.492,-0.901,0.0
8.102,-0.474,-0.911,0.0
7.816,-0.459,-0.921,0.0
7.529,-0.444,-0.929,0.0
9.312,-0.547,-0.885,0.0
8.876,-0.523,-0.892,0.0
8.502,-0.503,-0.9,0.0
8.154,-0.483,-0.909,0.0
7.862,-0.467,-0.919,0.0
7.573,-0.452,-0.927,0.0
9.402,-0.559,-0.884,0.0
8.953,-0.534,-0.89,0.0
8.577,-0.513,-0.9,0.0
8.226,-0.493,-0.908,0.0
7.917,-0.476,-0.917,0.0
7.617,-0.459,-0.924,0.0
9.475,-0.57,-0.881,0.0
9.072,-0.547,-0.893,0.0
8.633,-0.522,-0.897,0.0
8.298,-0.503,-0.908,0.0
7.98,-0.485,-0.916,0.0
7.681,-0.468,-0.924,0.0
9.569,-0.582,-0.88,0.0
9.159,-0.558,-0.892,0.0
8.712,-0.533,-0.895,0.0
8.345,-0.511,-0.904,0.0
8.037,-0.494,-0.914,0.0
7.742,-0.477,-0.923,0.0
9.68,-0.595,-0.88,0.0
9.216,-0.568,-0.887,0.0
8.797,-0.543,-0.894,0.0
8.433,-0.522,-0.904,0.0
8.088,-0.502,-0.911,0.0
7.804,-0.485,-0.921,0.0
9.768,-0.606,-0.877,2.0
9.327,-0.58,-0.888,0.0
8.886,-0.554,-0.894,0.0
8.501,-0.531,-0.902,0.0
8.17,-0.511,-0.911,0.0
7.864,-0.493,-0.919,0.0
9.823,-0.615,-0.871,2.0
9.395,-0.589,-0.883,0.0
8.99,-0.565,-0.894,0.0
8.589,-0.541,-0.901,0.0
8.236,-0.52,-0.908,0.0
7.926,-0.501,-0.917,0.0
9.933,-0.627,-0.869,2.0
9.508,-0.601,-0.883,0.0
9.082,-0.575,-0.892,0.0
8.651,-0.549,-0.897,0.0
8.329,-0.53,-0.909,0.0
7.998,-0.51,-0.916,0.0
10.028,-0.638,-0.865,1.0
9.621,-0.613,-0.881,0.0
9.168,-0.585,-0.889,0.0
8.755,-0.56,-0.897,0.0
8.387,-0.538,-0.904,0.0
8.056,-0.517,-0.912,0.0
10.179,-0.652,-0.865,0.0
9.731,-0.624,-0.879,1.0
9.297,-0.598,-0.89,0.0
8.861,-0.571,-0.897,0.0
8.486,-0.547,-0.904,0.0
8.146,-0.527,-0.912,0.0
10.34,-0.666,-0.866,0.0
9.804,-0.633,-0.873,2.0
9.375,-0.606,-0.885,0.0
8.952,-0.58,-0.894,0.0
8.568,-0.556,-0.902,0.0
8.22,-0.534,-0.91,0.0
10.461,-0.678,-0.862,0.0
9.893,-0.642,-0.868,2.0
9.48,-0.617,-0.883,0.0
9.052,-0.59,-0.892,0.0
8.663,-0.565,-0.901,0.0
8.303,-0.543,-0.908,0.0
10.578,-0.689,-0.858,0.0
10.014,-0.654,-0.866,0.0
9.605,-0.628,-0.882,0.0
9.189,-0.602,-0.894,0.0
8.763,-0.575,-0.899,0.0
8.396,-0.551,-0.907,0.0
10.747,-0.704,-0.858,0.0
10.184,-0.668,-0.867,0.0
9.74,-0.64,-0.881,1.0
9.254,-0.608,-0.887,0.0
8.863,-0.584,-0.897,0.0
8.5,-0.56,-0.906,0.0
10.89,-0.716,-0.854,0.0
10.347,-0.681,-0.866,0.0
9.804,-0.646,-0.873,3.0
9.376,-0.619,-0.886,0.0
8.974,-0.593,-0.896,0.0
8.576,-0.568,-0.902,0.0
11.049,-0.729,-0.851,0.0
10.484,-0.692,-0.863,0.0
9.907,-0.655,-0.868,2.0
9.513,-0.63,-0.885,0.0
9.09,-0.603,-0.895,0.0
8.681,-0.576,-0.901,0.0
11.208,-0.742,-0.847,0.0
10.651,-0.706,-0.862,0.0
10.052,-0.666,-0.867,0.0
9.625,-0.639,-0.882,0.0
9.205,-0.612,-0.893,0.0
8.773,-0.584,-0.898,0.0
11.373,-0.754,-0.844,0.0
10.783,-0.716,-0.857,0.0
10.243,-0.681,-0.868,0.0
9.76,-0.649,-0.88,2.0
9.313,-0.62,-0.89,0.0
8.898,-0.593,-0.897,0.0
11.532,-0.766,-0.839,0.0
10.947,-0.728,-0.854,0.0
10.408,-0.693,-0.867,0.0
9.845,-0.656,-0.873,2.0
9.439,-0.629,-0.888,0.0
9.026,-0.602,-0.897,0.0
11.732,-0.78,-0.836,0.0
11.121,-0.74,-0.851,0.0
10.536,-0.702,-0.862,0.0
9.946,-0.663,-0.868,1.0
9.571,-0.638,-0.886,0.0
9.128,-0.609,-0.893,0.0
11.911,-0.793,-0.831,0.0
11.27,-0.75,-0.846,0.0
10.716,-0.714,-0.861,0.0
10.14,-0.676,-0.869,0.0
9.72,-0.648,-0.885,0.0
9.263,-0.618,-0.892,0.0
12.103,-0.805,-0.826,1.0
11.46,-0.763,-0.843,0.0
10.865,-0.723,-0.856,0.0
10.32,-0.687,-0.869,0.0
9.802,-0.653,-0.877,3.0
9.386,-0.626,-0.89,0.0
12.305,-0.818,-0.821,0.0
11.649,-0.775,-0.839,0.0
11.021,-0.733,-0.852,0.0
10.467,-0.697,-0.865,0.0
9.916,-0.66,-0.872,2.0
9.522,-0.634,-0.888,0.0
12.529,-0.832,-0.817,0.0
11.844,-0.786,-0.834,0.0
11.204,-0.744,-0.848,0.0
10.656,-0.708,-0.864,0.0
10.078,-0.67,-0.87,0.0
9.665,-0.642,-0.886,0.0
12.758,-0.845,-0.812,1.0
12.035,-0.797,-0.829,0.0
11.406,-0.756,-0.846,0.0
10.827,-0.717,-0.861,0.0
10.267,-0.68,-0.871,0.0
9.773,-0.648,-0.88,2.0
13.02,-0.86,-0.808,0.0
12.233,-0.808,-0.823,0.0
11.592,-0.766,-0.841,0.0
10.987,-0.726,-0.856,0.0
10.409,-0.688,-0.866,0.0
9.881,-0.653,-0.874,2.0
13.256,-0.873,-0.802,1.0
12.458,-0.82,-0.819,1.0
11.764,-0.775,-0.835,0.0
11.161,-0.735,-0.852,0.0
10.618,-0.699,-0.867,0.0
10.023,-0.66,-0.871,0.0
13.523,-0.887,-0.796,1.0
12.694,-0.833,-0.814,1.0
11.975,-0.785,-0.831,0.0
11.338,-0.743,-0.847,0.0
10.779,-0.706,-0.862,0.0
10.214,-0.669,-0.871,0.0
13.782,-0.9,-0.789,1.0
12.955,-0.846,-0.81,0.0
12.189,-0.795,-0.826,0.0
11.531,-0.752,-0.843,0.0
10.93,-0.713,-0.857,0.0
10.402,-0.678,-0.87,0.0
14.058,-0.913,-0.783,1.0
13.23,-0.859,-0.806,1.0
12.432,-0.807,-0.822,0.0
11.736,-0.761,-0.839,0.0
11.114,-0.72,-0.853,0.0
10.567,-0.685,-0.867,0.0
14.36,-0.928,-0.776,1.0
13.457,-0.868,-0.798,1.0
12.679,-0.818,-0.818,1.0
11.94,-0.769,-0.834,0.0
11.308,-0.728,-0.85,0.0
10.737,-0.691,-0.863,0.0
14.698,-0.943,-0.771,1.0
13.731,-0.88,-0.792,0.0
12.896,-0.826,-0.811,0.0
12.15,-0.778,-0.829,0.0
11.512,-0.736,-0.846,0.0
10.913,-0.697,-0.859,0.0
15.03,-0.957,-0.764,1.0
13.997,-0.891,-0.784,1.0
13.154,-0.836,-0.806,0.0
12.361,-0.785,-0.823,0.0
11.686,-0.741,-0.84,0.0
11.106,-0.704,-0.857,0.0
15.404,-0.973,-0.758,1.0
14.319,-0.904,-0.779,0.0
13.435,-0.847,-0.801,1.0
12.617,-0.794,-0.82,1.0
11.912,-0.749,-0.837,0.0
11.269,-0.708,-0.851,0.0
15.751,-0.987,-0.749,1.0
14.652,-0.917,-0.773,1.0
13.686,-0.855,-0.794,1.0
12.867,-0.803,-0.815,0.0
12.128,-0.756,-0.832,0.0
11.485,-0.715,-0.848,0.0
16.144,-1.002,-0.741,1.0
15.009,-0.93,-0.767,1.0
13.967,-0.864,-0.787,1.0
13.101,-0.809,-0.808,0.0
12.353,-0.762,-0.827,0.0
11.674,-0.719,-0.843,0.0
16.588,-1.019,-0.734,1.0
15.344,-0.941,-0.759,1.0
14.266,-0.873,-0.78,1.0
13.38,-0.818,-0.803,1.0
12.587,-0.768,-0.822,1.0
11.877,-0.724,-0.838,0.0
17.036,-1.035,-0.726,1.0
15.71,-0.952,-0.751,1.0
14.616,-0.885,-0.775,1.0
13.643,-0.824,-0.797,1.0
12.832,-0.774,-0.816,0.0
12.112,-0.729,-0.834,0.0
17.497,-1.05,-0.717,1.0
16.083,-0.963,-0.743,1.0
14.948,-0.894,-0.768,1.0
13.903,-0.83,-0.789,1.0
13.106,-0.78,-0.812,0.0
12.32,-0.732,-0.828,0.0
17.953,-1.064,-0.706,1.0
16.55,-0.978,-0.737,1.0
15.311,-0.903,-0.762,1.0
14.23,-0.838,-0.784,1.0
13.366,-0.785,-0.806,1.0
12.559,-0.736,-0.823,1.0
18.42,-1.077,-0.694,1.0
16.984,-0.99,-0.728,1.0
15.679,-0.912,-0.754,1.0
14.541,-0.844,-0.777,1.0
13.606,-0.788,-0.798,1.0
12.808,-0.74,-0.819,1.0
18.951,-1.092,-0.683,2.0
17.439,-1.002,-0.72,1.0
16.033,-0.919,-0.745,1.0
14.901,-0.852,-0.772,1.0
13.886,-0.792,-0.792,1.0
13.059,-0.743,-0.813,0.0
19.512,-1.107,-0.671,1.0
17.903,-1.013,-0.709,2.0
16.479,-0.93,-0.739,1.0
15.243,-0.858,-0.765,1.0
14.173,-0.795,-0.785,1.0
13.339,-0.747,-0.809,1.0
20.11,-1.122,-0.659,1.0
18.367,-1.022,-0.698,2.0
16.913,-0.938,-0.731,1.0
15.606,-0.863,-0.758,1.0
14.508,-0.8,-0.78,1.0
13.584,-0.747,-0.801,1.0
20.746,-1.137,-0.646,1.0
18.882,-1.032,-0.687,2.0
17.363,-0.946,-0.722,1.0
15.971,-0.868,-0.749,1.0
14.826,-0.803,-0.773,1.0
13.848,-0.748,-0.795,1.0
21.444,-1.154,-0.634,1.0
19.424,-1.042,-0.675,1.0
17.825,-0.953,-0.713,1.0
16.405,-0.874,-0.743,1.0
15.181,-0.806,-0.767,1.0
14.135,-0.748,-0.788,1.0
22.134,-1.168,-0.619,1.0
20.003,-1.052,-0.663,1.0
18.284,-0.958,-0.702,1.0
16.811,-0.878,-0.735,1.0
15.554,-0.809,-0.761,1.0
14.451,-0.749,-0.783,1.0
22.912,-1.184,-0.604,2.0
20.607,-1.061,-0.651,1.0
18.777,-0.963,-0.691,1.0
17.242,-0.881,-0.726,1.0
15.914,-0.81,-0.753,1.0
14.772,-0.75,-0.777,1.0
23.607,-1.194,-0.585,2.0
21.245,-1.07,-0.637,1.0
19.282,-0.967,-0.679,1.0
17.688,-0.884,-0.717,1.0
16.259,-0.809,-0.744,1.0
15.074,-0.747,-0.769,1.0
24.521,-1.211,-0.569,1.0
21.965,-1.081,-0.625,1.0
19.851,-0.973,-0.668,1.0
18.135,-0.885,-0.707,2.0
16.705,-0.812,-0.739,1.0
15.431,-0.747,-0.763,1.0
25.363,-1.223,-0.549,1.0
22.691,-1.089,-0.61,1.0
20.432,-0.976,-0.656,1.0
18.571,-0.883,-0.695,2.0
17.114,-0.81,-0.73,1.0
15.771,-0.743,-0.755,1.0
26.224,-1.231,-0.527,1.0
23.37,-1.092,-0.592,2.0
21.056,-0.98,-0.644,1.0
19.094,-0.884,-0.686,1.0
17.564,-0.81,-0.723,1.0
16.142,-0.741,-0.749,1.0
27.056,-1.237,-0.503,1.0
24.178,-1.099,-0.576,1.0
21.676,-0.981,-0.63,1.0
19.62,-0.883,-0.675,1.0
17.97,-0.805,-0.712,1.0
16.548,-0.738,-0.743,1.0
28.023,-1.244,-0.479,1.0
25.048,-1.106,-0.559,1.0
22.379,-0.983,-0.617,1.0
20.152,-0.88,-0.663,1.0
18.414,-0.8,-0.702,1.0
16.96,-0.733,-0.736,1.0
28.997,-1.248,-0.452,2.0
25.809,-1.105,-0.538,1.0
23.106,-0.983,-0.602,2.0
20.737,-0.878,-0.652,1.0
18.878,-0.795,-0.692,1.0
17.357,-0.726,-0.727,1.0
30.016,-1.251,-0.424,2.0
26.719,-1.106,-0.517,1.0
23.761,-0.978,-0.584,1.0
21.334,-0.873,-0.639,1.0
19.375,-0.788,-0.682,1.0
17.787,-0.719,-0.719,1.0
31.185,-1.255,-0.395,1.0
27.574,-1.102,-0.493,1.0
24.652,-0.979,-0.57,1.0
21.972,-0.867,-0.626,1.0
19.873,-0.779,-0.67,1.0
18.182,-0.709,-0.709,1.0
32.647,-1.266,-0.366,1.0
28.51,-1.098,-0.469,1.0
25.44,-0.973,-0.552,1.0
22.679,-0.862,-0.614,1.0
20.42,-0.771,-0.66,1.0
18.623,-0.698,-0.7,1.0
37.729,-1.408,-0.37,0.0
29.401,-1.089,-0.442,1.0
26.143,-0.961,-0.531,1.0
23.307,-0.851,-0.598,2.0
20.996,-0.761,-0.649,1.0
19.059,-0.686,-0.689,1.0
40.098,-1.434,-0.336,3.0
30.27,-1.074,-0.413,1.0
26.964,-0.95,-0.51,2.0
24.014,-0.84,-0.582,1.0
21.551,-0.748,-0.636,1.0
19.544,-0.673,-0.68,1.0
40.62,-1.39,-0.285,1.0
31.58,-1.072,-0.388,1.0
27.834,-0.937,-0.488,1.0
24.835,-0.829,-0.568,1.0
22.159,-0.734,-0.624,1.0
20.021,-0.658,-0.669,1.0
41.977,-1.371,-0.238,2.0
32.83,-1.062,-0.359,1.0
28.692,-0.92,-0.464,1.0
25.558,-0.813,-0.551,1.0
22.803,-0.719,-0.612,1.0
20.509,-0.641,-0.658,1.0
46.077,-1.43,-0.2,0.0
34.314,-1.056,-0.33,0.0
29.438,-0.897,-0.438,1.0
26.173,-0.79,-0.53,1.0
23.425,-0.701,-0.598,1.0
21.031,-0.623,-0.648,1.0
40.214,-1.182,-0.123,58.0
40.041,-1.166,-0.333,0.0
30.368,-0.876,-0.413,1.0
26.881,-0.767,-0.51,1.0
23.98,-0.678,-0.582,1.0
21.571,-0.603,-0.637,1.0
40.334,-1.119,-0.072,72.0
40.654,-1.116,-0.287,16.0
31.609,-0.858,-0.39,1.0
27.659,-0.743,-0.49,1.0
24.759,-0.657,-0.569,1.0
22.143,-0.582,-0.626,1.0
41.001,-1.068,-0.021,31.0
40.954,-1.054,-0.238,47.0
32.971,-0.839,-0.365,1.0
28.444,-0.715,-0.469,1.0
25.406,-0.631,-0.553,1.0
22.787,-0.559,-0.616,2.0
40.299,-0.979,0.027,29.0
40.319,-0.968,-0.185,150.0
33.777,-0.8,-0.333,0.0
29.279,-0.685,-0.447,1.0
26.126,-0.603,-0.537,1.0
23.322,-0.532,-0.603,2.0
40.293,-0.909,0.076,5.0
0.0,0.0,0.0,0.0
35.702,-0.784,-0.31,0.0
29.909,-0.648,-0.421,1.0
26.668,-0.569,-0.517,1.0
23.807,-0.501,-0.587,1.0
67.009,-1.394,0.204,0.0
0.0,0.0,0.0,0.0
40.139,-0.809,-0.302,4.0
30.766,-0.611,-0.398,1.0
27.317,-0.534,-0.498,1.0
24.463,-0.47,-0.576,1.0
40.28,-0.765,0.168,54.0
40.3,-0.752,-0.044,66.0
40.211,-0.738,-0.257,12.0
31.927,-0.576,-0.377,1.0
28.134,-0.499,-0.481,1.0
25.135,-0.438,-0.563,1.0
40.285,-0.691,0.214,40.0
40.33,-0.679,0.0,23.0
40.39,-0.667,-0.214,0.0
33.266,-0.539,-0.356,1.0
28.846,-0.458,-0.462,1.0
25.605,-0.399,-0.546,1.0
84.895,-1.301,0.541,1.0
61.874,-0.928,0.065,0.0
50.692,-0.744,-0.215,1.0
34.5,-0.495,-0.333,1.0
29.367,-0.412,-0.44,1.0
26.216,-0.36,-0.532,1.0
79.244,-1.066,0.588,10.0
86.984,-1.142,0.183,3.0
0.0,0.0,0.0,0.0
35.789,-0.447,-0.309,0.0
30.021,-0.365,-0.419,1.0
26.803,-0.317,-0.517,1.0
79.421,-0.919,0.67,147.0
60.771,-0.684,0.188,6.0
54.196,-0.592,-0.12,8.0
38.53,-0.408,-0.294,14.0
30.703,-0.315,-0.398,2.0
27.507,-0.273,-0.503,2.0
79.46,-0.767,0.749,158.0
61.102,-0.571,0.249,6.0
51.025,-0.459,-0.063,4.0
42.159,-0.366,-0.281,3.0
31.57,-0.263,-0.379,1.0
27.976,-0.225,-0.485,2.0
79.455,-0.614,0.824,179.0
76.999,-0.57,0.388,10.0
52.112,-0.369,-0.016,3.0
42.075,-0.284,-0.241,8.0
32.771,-0.21,-0.363,1.0
28.663,-0.174,-0.471,2.0
79.459,-0.46,0.897,162.0
76.675,-0.418,0.456,15.0
0.0,0.0,0.0,0.0
39.689,-0.19,-0.192,4.0
33.575,-0.15,-0.342,1.0
29.153,-0.12,-0.453,2.0
79.462,-0.303,0.968,151.0
79.187,-0.276,0.54,22.0
0.0,0.0,0.0,0.0
40.713,-0.115,-0.162,16.0
37.184,-0.093,-0.347,0.0
29.613,-0.064,-0.435,2.0
79.46,-0.146,1.035,151.0
79.339,-0.121,0.608,59.0
55.631,-0.066,0.128,29.0
41.124,-0.035,-0.129,17.0
38.243,-0.02,-0.325,3.0
30.157,-0.005,-0.418,2.0
79.46,0.011,1.1,151.0
79.44,0.038,0.673,150.0
0.0,0.0,0.0,0.0
0.0,0.0,0.0,0.0
38.172,0.056,-0.294,5.0
30.641,0.055,-0.401,1.0
79.464,0.17,1.162,151.0
79.455,0.197,0.735,150.0
59.151,0.166,0.229,9.0
44.742,0.14,-0.071,22.0
38.128,0.132,-0.265,13.0
31.306,0.119,-0.386,1.0
59.321,0.246,0.911,107.0
59.297,0.266,0.592,124.0
55.055,0.266,0.253,51.0
0.0,0.0,0.0,0.0
38.361,0.211,-0.24,14.0
31.933,0.186,-0.371,1.0
48.137,0.297,0.774,74.0
48.117,0.313,0.514,52.0
48.108,0.329,0.255,45.0
46.965,0.337,-0.008,39.0
38.355,0.288,-0.213,40.0
32.838,0.258,-0.36,1.0
48.095,0.396,0.805,113.0
48.073,0.411,0.545,109.0
48.045,0.427,0.286,107.0
47.642,0.44,0.022,51.0
38.538,0.369,-0.189,50.0
33.259,0.329,-0.343,1.0
48.142,0.495,0.837,100.0
48.099,0.511,0.576,104.0
48.067,0.526,0.316,86.0
47.866,0.54,0.051,59.0
38.849,0.451,-0.167,50.0
37.058,0.442,-0.36,0.0
55.08,0.679,0.991,5.0
121.328,1.536,1.526,12.0
48.177,0.626,0.345,10.0
47.984,0.639,0.079,57.0
39.149,0.535,-0.146,49.0
37.081,0.519,-0.339,2.0
189.804,2.735,3.522,30.0
126.265,1.861,1.659,24.0
0.0,0.0,0.0,0.0
54.83,0.844,0.12,9.0
39.466,0.621,-0.126,36.0
36.962,0.594,-0.319,5.0
189.808,3.128,3.622,23.0
126.297,2.123,1.725,32.0
77.83,1.335,0.641,30.0
54.564,0.953,0.147,19.0
39.794,0.708,-0.108,15.0
36.823,0.668,-0.299,9.0
128.036,2.376,2.505,31.0
0.0,0.0,0.0,0.0
77.926,1.498,0.678,19.0
57.726,1.129,0.183,13.0
39.959,0.794,-0.09,14.0
36.901,0.746,-0.283,11.0
128.132,2.647,2.566,9.0
89.899,1.887,1.311,6.0
78.084,1.665,0.714,22.0
58.677,1.27,0.211,33.0
45.184,0.994,-0.082,5.0
36.919,0.824,-0.268,13.0
0.0,0.0,0.0,0.0
106.312,2.455,1.594,6.0
78.248,1.833,0.747,20.0
58.962,1.4,0.236,33.0
45.168,1.088,-0.065,11.0
36.901,0.901,-0.254,23.0
100.352,2.493,2.089,46.0
100.353,2.526,1.542,20.0
78.329,1.998,0.776,11.0
59.26,1.531,0.258,34.0
0.0,0.0,0.0,0.0
36.862,0.976,-0.241,28.0
0.0,0.0,0.0,0.0
0.0,0.0,0.0,0.0
78.4,2.162,0.802,9.0
59.564,1.663,0.278,34.0
0.0,0.0,0.0,0.0
36.807,1.051,-0.229,32.0
0.0,0.0,0.0,0.0
0.0,0.0,0.0,0.0
78.882,2.34,0.83,9.0
59.55,1.786,0.295,34.0
46.977,1.424,-0.023,22.0
36.81,1.128,-0.22,30.0
0.0,0.0,0.0,0.0
0.0,0.0,0.0,0.0
79.522,2.525,0.856,8.0
59.47,1.907,0.309,33.0
46.964,1.522,-0.012,24.0
36.721,1.201,-0.211,29.0
0.0,0.0,0.0,0.0
0.0,0.0,0.0,0.0
79.783,2.699,0.875,4.0
59.676,2.038,0.322,27.0
47.103,1.624,-0.003,22.0
36.67,1.276,-0.203,30.0
0.0,0.0,0.0,0.0
0.0,0.0,0.0,0.0
79.878,2.869,0.891,4.0
59.517,2.156,0.331,21.0
47.337,1.73,0.003,23.0
36.576,1.349,-0.197,28.0
0.0,0.0,0.0,0.0
0.0,0.0,0.0,0.0
92.886,3.528,1.048,7.0
59.723,2.288,0.34,33.0
0.0,0.0,0.0,0.0
39.513,1.539,-0.209,2.0
0.0,0.0,0.0,0.0
0.0,0.0,0.0,0.0
79.902,3.202,0.909,6.0
59.107,2.387,0.341,10.0
0.0,0.0,0.0,0.0
39.701,1.629,-0.207,2.0
0.0,0.0,0.0,0.0
0.0,0.0,0.0,0.0
79.731,3.36,0.912,4.0
59.493,2.527,0.347,26.0
46.773,2.0,0.015,21.0
36.486,1.572,-0.189,30.0
0.0,0.0,0.0,0.0
0.0,0.0,0.0,0.0
92.892,4.105,1.064,5.0
73.626,3.277,0.43,10.0
0.0,0.0,0.0,0.0
36.458,1.645,-0.189,42.0
0.0,0.0,0.0,0.0
0.0,0.0,0.0,0.0
79.375,3.67,0.908,6.0
58.728,2.734,0.341,7.0
0.0,0.0,0.0,0.0
36.386,1.717,-0.189,38.0
0.0,0.0,0.0,0.0
0.0,0.0,0.0,0.0
81.851,3.952,0.932,6.0
58.666,2.85,0.337,6.0
46.615,2.279,0.01,5.0
36.208,1.782,-0.191,43.0
0.0,0.0,0.0,0.0
0.0,0.0,0.0,0.0
81.941,4.123,0.925,10.0
73.461,3.717,0.415,8.0
46.489,2.366,0.005,7.0
36.178,1.853,-0.195,39.0
162.95,8.431,3.625,6.0
105.816,5.504,1.767,17.0
81.845,4.282,0.913,5.0
58.433,3.074,0.322,6.0
42.319,2.239,0.0,17.0
35.909,1.911,-0.199,22.0
162.685,8.743,3.594,13.0
105.752,5.715,1.749,13.0
78.477,4.263,0.862,11.0
58.242,3.181,0.311,4.0
42.162,2.316,-0.008,17.0
35.825,1.978,-0.205,25.0
163.285,9.101,3.576,21.0
105.959,5.936,1.732,11.0
78.316,4.409,0.845,10.0
55.448,3.138,0.284,7.0
42.367,2.41,-0.017,16.0
35.853,2.05,-0.214,15.0
162.604,9.384,3.524,9.0
106.033,6.149,1.708,1.0
78.04,4.548,0.823,13.0
55.346,3.241,0.27,29.0
41.564,2.446,-0.027,31.0
35.747,2.114,-0.222,26.0
164.165,9.794,3.515,3.0
139.797,8.38,2.214,5.0
77.672,4.677,0.798,13.0
55.313,3.346,0.254,25.0
41.386,2.516,-0.039,46.0
35.602,2.174,-0.232,19.0
33.47,2.061,0.706,156.0
33.469,2.071,0.52,157.0
33.448,2.079,0.333,49.0
33.427,2.087,0.143,4.0
41.168,2.582,-0.052,49.0
35.477,2.235,-0.243,14.0
139.755,8.88,2.903,10.0
139.636,8.908,2.121,11.0
74.852,4.795,0.72,10.0
54.649,3.516,0.215,29.0
40.815,2.638,-0.066,53.0
35.234,2.287,-0.254,10.0
139.701,9.143,2.85,22.0
139.595,9.173,2.068,52.0
74.393,4.908,0.686,16.0
54.413,3.605,0.192,28.0
39.052,2.598,-0.079,4.0
35.152,2.348,-0.268,10.0
139.649,9.401,2.793,25.0
113.837,7.693,1.64,9.0
74.132,5.029,0.653,30.0
54.008,3.678,0.168,15.0
36.742,2.512,-0.09,1.0
35.093,2.409,-0.282,9.0
32.505,2.248,0.635,3.0
114.84,7.974,1.604,2.0
74.068,5.163,0.619,48.0
47.278,3.307,0.126,21.0
38.684,2.716,-0.113,14.0
35.022,2.469,-0.298,9.0
32.612,2.315,0.622,6.0
0.0,0.0,0.0,0.0
73.79,5.278,0.581,22.0
46.971,3.372,0.102,22.0
38.845,2.799,-0.133,17.0
34.934,2.526,-0.315,10.0
32.431,2.362,0.602,68.0
32.441,2.371,0.42,73.0
73.693,5.405,0.542,9.0
47.094,3.466,0.077,21.0
36.282,2.68,-0.143,43.0
33.677,2.497,-0.322,1.0
32.337,2.414,0.583,68.0
32.341,2.422,0.401,63.0
32.479,2.44,0.22,21.0
32.453,2.446,0.035,49.0
32.459,2.455,-0.146,39.0
32.484,2.465,-0.329,5.0
32.273,2.465,0.563,65.0
32.254,2.472,0.382,53.0
32.449,2.495,0.202,27.0
32.415,2.5,0.016,44.0
32.405,2.507,-0.165,39.0
32.312,2.508,-0.346,12.0
32.249,2.52,0.543,55.0
32.239,2.527,0.362,46.0
32.421,2.549,0.182,35.0
32.41,2.555,-0.003,35.0
32.412,2.564,-0.185,30.0
31.566,2.504,-0.358,2.0
32.234,2.573,0.523,50.0
32.276,2.584,0.342,33.0
32.487,2.609,0.161,23.0
32.466,2.615,-0.024,26.0
35.174,2.841,-0.224,24.0
30.698,2.487,-0.368,2.0
32.256,2.63,0.501,61.0
32.338,2.644,0.32,26.0
32.528,2.667,0.139,23.0
32.419,2.666,-0.046,5.0
34.876,2.876,-0.246,9.0
30.286,2.505,-0.385,1.0
32.273,2.685,0.479,49.0
32.428,2.705,0.299,19.0
32.439,2.714,0.116,14.0
32.294,2.709,-0.069,17.0
32.338,2.72,-0.252,7.0
29.905,2.522,-0.401,2.0
32.32,2.742,0.456,37.0
32.466,2.761,0.275,19.0
32.401,2.763,0.092,18.0
32.259,2.758,-0.093,20.0
32.361,2.774,-0.276,37.0
29.475,2.533,-0.418,1.0
32.416,2.802,0.433,36.0
32.526,2.818,0.251,20.0
32.429,2.817,0.067,13.0
32.312,2.814,-0.118,9.0
32.401,2.828,-0.302,6.0
24.793,2.17,-0.371,3.0
32.517,2.861,0.409,3.0
57.26,5.05,0.397,31.0
41.918,3.706,0.054,16.0
35.785,3.171,-0.159,35.0
13.905,1.235,-0.14,5.0
13.89,1.237,-0.219,10.0
32.519,2.911,0.383,6.0
0.0,0.0,0.0,0.0
41.286,3.713,0.019,7.0
13.874,1.25,-0.073,9.0
13.875,1.253,-0.151,22.0
13.86,1.255,-0.23,23.0
13.864,1.262,0.151,6.0
13.864,1.265,0.073,9.0
13.862,1.267,-0.005,18.0
13.851,1.269,-0.085,24.0
13.854,1.272,-0.163,27.0
13.846,1.274,-0.241,29.0
13.862,1.282,0.139,25.0
13.851,1.284,0.061,27.0
13.848,1.286,-0.017,29.0
13.827,1.287,-0.096,28.0
13.828,1.29,-0.175,32.0
13.813,1.291,-0.253,31.0
13.843,1.3,0.127,35.0
13.83,1.301,0.048,37.0
13.829,1.304,-0.029,35.0
13.818,1.306,-0.109,34.0
13.813,1.308,-0.187,36.0
13.807,1.31,-0.265,33.0
13.826,1.318,0.114,41.0
13.82,1.32,0.036,64.0
13.811,1.321,-0.042,56.0
13.801,1.323,-0.122,37.0
13.811,1.327,-0.2,36.0
13.78,1.326,-0.278,33.0
13.808,1.335,0.101,44.0
13.81,1.338,0.023,111.0
13.798,1.339,-0.055,121.0
13.782,1.34,-0.134,39.0
13.787,1.343,-0.213,36.0
13.781,1.345,-0.291,36.0
13.799,1.352,0.088,69.0
13.796,1.354,0.009,133.0
13.792,1.356,-0.068,122.0
13.78,1.358,-0.148,39.0
13.792,1.361,-0.226,82.0
13.772,1.362,-0.304,38.0
13.787,1.369,0.074,75.0
13.792,1.372,-0.003,150.0
13.776,1.372,-0.082,72.0
13.77,1.374,-0.161,38.0
13.781,1.378,-0.24,85.0
13.772,1.379,-0.318,38.0
13.79,1.386,0.06,80.0
13.786,1.388,-0.017,150.0
13.774,1.389,-0.096,89.0
13.763,1.39,-0.175,37.0
13.783,1.395,-0.254,38.0
13.768,1.396,-0.332,37.0
13.787,1.403,0.046,73.0
13.774,1.403,-0.031,110.0
13.759,1.404,-0.11,97.0
13.77,1.408,-0.189,38.0
13.777,1.411,-0.268,37.0
13.767,1.412,-0.346,35.0
13.779,1.418,0.032,59.0
13.773,1.419,-0.046,135.0
13.759,1.42,-0.124,97.0
13.769,1.423,-0.204,40.0
13.776,1.426,-0.283,37.0
13.775,1.428,-0.361,29.0
13.785,1.434,0.017,58.0
13.776,1.435,-0.06,123.0
13.768,1.436,-0.139,100.0
13.775,1.439,-0.219,41.0
13.782,1.442,-0.297,36.0
13.763,1.442,-0.375,28.0
13.783,1.449,0.003,42.0
13.779,1.45,-0.075,95.0
13.776,1.452,-0.154,91.0
13.77,1.454,-0.233,39.0
13.787,1.458,-0.313,36.0
13.762,1.457,-0.391,32.0
13.796,1.465,-0.012,38.0
13.791,1.466,-0.09,39.0
13.777,1.467,-0.169,49.0
13.778,1.469,-0.249,38.0
13.777,1.471,-0.328,34.0
13.771,1.472,-0.406,33.0
13.798,1.479,-0.027,35.0
13.791,1.48,-0.106,36.0
13.781,1.481,-0.184,38.0
13.784,1.483,-0.264,34.0
13.781,1.485,-0.343,31.0
13.763,1.485,-0.421,32.0
13.805,1.493,-0.042,30.0
13.796,1.494,-0.121,31.0
13.791,1.495,-0.2,34.0
13.797,1.497,-0.28,35.0
13.783,1.498,-0.359,27.0
13.77,1.498,-0.437,27.0
13.816,1.507,-0.058,28.0
13.796,1.506,-0.137,22.0
13.789,1.507,-0.216,27.0
13.799,1.51,-0.296,33.0
13.785,1.51,-0.375,26.0
13.755,1.509,-0.452,24.0
13.824,1.52,-0.074,20.0
13.817,1.521,-0.153,16.0
13.793,1.52,-0.231,20.0
13.799,1.522,-0.312,27.0
13.782,1.522,-0.39,26.0
13.754,1.521,-0.468,24.0
13.858,1.535,-0.09,17.0
13.842,1.535,-0.169,13.0
13.817,1.534,-0.248,17.0
13.79,1.533,-0.328,23.0
13.778,1.533,-0.406,23.0
13.742,1.53,-0.484,21.0
34.486,3.849,-0.266,6.0
13.829,1.544,-0.185,8.0
13.828,1.546,-0.265,18.0
13.808,1.545,-0.344,22.0
13.777,1.543,-0.423,17.0
13.739,1.541,-0.5,18.0
34.457,3.871,-0.306,7.0
13.843,1.556,-0.202,6.0
13.846,1.558,-0.281,13.0
13.808,1.555,-0.361,18.0
13.778,1.553,-0.439,16.0
13.727,1.549,-0.516,17.0
31.511,3.562,-0.317,1.0
23.01,2.603,-0.363,1.0
13.835,1.566,-0.298,9.0
13.811,1.565,-0.378,15.0
13.78,1.563,-0.456,16.0
13.704,1.556,-0.532,16.0
30.556,3.474,-0.344,2.0
22.313,2.539,-0.379,4.0
13.831,1.575,-0.314,7.0
13.812,1.574,-0.394,16.0
13.771,1.571,-0.472,13.0
13.642,1.557,-0.546,11.0
10.037,1.147,-0.125,1.0
21.693,2.482,-0.395,4.0
13.841,1.584,-0.331,7.0
13.82,1.583,-0.411,15.0
13.771,1.579,-0.488,12.0
13.518,1.551,-0.557,9.0
10.01,1.15,-0.136,4.0
20.967,2.41,-0.407,2.0
13.84,1.592,-0.347,7.0
13.826,1.592,-0.428,9.0
13.741,1.583,-0.504,7.0
13.429,1.548,-0.57,6.0
10.011,1.155,-0.149,10.0
20.48,2.365,-0.422,1.0
13.86,1.601,-0.365,4.0
13.809,1.597,-0.444,7.0
13.744,1.59,-0.521,7.0
13.318,1.542,-0.581,7.0
10.023,1.161,-0.161,15.0
10.005,1.16,-0.218,14.0
9.988,1.159,-0.275,11.0
13.796,1.601,-0.461,5.0
13.708,1.592,-0.536,6.0
13.199,1.534,-0.592,5.0
10.021,1.165,-0.173,18.0
10.016,1.165,-0.23,17.0
10.004,1.165,-0.288,15.0
13.787,1.606,-0.477,4.0
13.609,1.586,-0.549,4.0
13.072,1.525,-0.602,0.0
10.02,1.169,-0.185,20.0
10.016,1.169,-0.243,21.0
10.015,1.17,-0.3,19.0
10.011,1.17,-0.358,17.0
10.012,1.171,-0.416,16.0
10.015,1.172,-0.474,27.0
10.015,1.172,-0.197,26.0
10.009,1.172,-0.255,62.0
10.007,1.172,-0.312,38.0
10.011,1.173,-0.371,19.0
10.007,1.173,-0.428,18.0
10.003,1.173,-0.485,17.0
10.012,1.175,-0.21,50.0
10.014,1.175,-0.267,90.0
10.008,1.175,-0.324,70.0
10.014,1.176,-0.383,20.0
10.015,1.177,-0.44,20.0
10.007,1.177,-0.498,18.0
10.01,1.177,-0.222,57.0
10.005,1.177,-0.279,99.0
10.006,1.177,-0.336,90.0
10.002,1.177,-0.395,30.0
10.015,1.179,-0.453,24.0
10.006,1.179,-0.51,19.0
10.012,1.179,-0.234,73.0
10.004,1.178,-0.291,116.0
10.004,1.179,-0.348,109.0
10.007,1.18,-0.407,39.0
10.019,1.181,-0.465,33.0
10.004,1.18,-0.522,19.0
10.007,1.18,-0.246,80.0
10.005,1.18,-0.303,122.0
10.003,1.18,-0.361,111.0
10.001,1.18,-0.419,50.0
10.005,1.181,-0.477,35.0
10.006,1.182,-0.534,20.0
10.008,1.181,-0.258,68.0
10.005,1.181,-0.315,126.0
10.003,1.181,-0.372,112.0
10.002,1.181,-0.431,56.0
10.01,1.183,-0.489,42.0
10.004,1.182,-0.546,20.0
10.008,1.182,-0.27,73.0
10.007,1.182,-0.327,120.0
10.003,1.182,-0.385,118.0
10.0,1.182,-0.443,51.0
10.009,1.183,-0.501,45.0
10.011,1.184,-0.559,20.0
10.008,1.182,-0.282,82.0
10.009,1.182,-0.339,132.0
10.005,1.182,-0.397,120.0
10.003,1.182,-0.455,55.0
10.01,1.183,-0.513,46.0
10.007,1.183,-0.57,20.0
10.007,1.182,-0.294,73.0
10.009,1.182,-0.351,123.0
10.008,1.182,-0.409,104.0
10.004,1.182,-0.467,34.0
10.016,1.183,-0.525,35.0
10.009,1.183,-0.582,19.0
10.01,1.181,-0.305,78.0
10.01,1.181,-0.363,113.0
10.008,1.181,-0.42,90.0
10.005,1.181,-0.479,29.0
10.009,1.181,-0.536,35.0
10.006,1.181,-0.594,19.0
10.012,1.18,-0.317,73.0
10.008,1.18,-0.374,116.0
10.009,1.18,-0.432,78.0
10.005,1.179,-0.49,20.0
10.008,1.18,-0.548,20.0
10.009,1.18,-0.605,18.0
10.011,1.178,-0.328,46.0
10.009,1.178,-0.386,83.0
10.013,1.179,-0.443,42.0
10.007,1.178,-0.502,19.0
10.014,1.179,-0.559,19.0
10.017,1.179,-0.617,17.0
10.013,1.177,-0.34,32.0
10.015,1.177,-0.397,54.0
10.015,1.177,-0.455,20.0
10.016,1.177,-0.514,18.0
10.012,1.176,-0.571,17.0
10.02,1.177,-0.629,15.0
10.018,1.175,-0.351,20.0
10.021,1.175,-0.409,20.0
10.003,1.173,-0.466,47.0
9.992,1.171,-0.523,17.0
10.017,1.174,-0.582,15.0
10.027,1.175,-0.641,14.0
10.016,1.172,-0.362,19.0
10.015,1.171,-0.42,17.0
10.004,1.17,-0.477,41.0
9.995,1.168,-0.534,15.0
9.998,1.169,-0.592,12.0
10.04,1.173,-0.652,10.0
13.729,1.601,-0.512,4.0
13.332,1.554,-0.573,6.0
13.05,1.521,-0.636,5.0
9.996,1.165,-0.545,9.0
10.026,1.168,-0.605,7.0
10.079,1.174,-0.666,5.0
13.717,1.595,-0.526,7.0
13.241,1.539,-0.583,6.0
12.944,1.504,-0.645,3.0
10.005,1.162,-0.556,3.0
10.254,1.191,-0.629,4.0
10.124,1.175,-0.679,4.0
13.651,1.581,-0.538,7.0
13.126,1.52,-0.592,5.0
12.769,1.478,-0.649,1.0
10.044,1.162,-0.569,2.0
10.391,1.202,-0.649,2.0
10.108,1.169,-0.689,4.0
13.532,1.561,-0.547,6.0
13.069,1.507,-0.603,7.0
12.53,1.444,-0.65,0.0
11.591,1.336,-0.669,2.0
10.788,1.243,-0.685,0.0
10.058,1.158,-0.696,4.0
13.473,1.547,-0.558,11.0
13.076,1.501,-0.617,11.0
12.322,1.414,-0.652,2.0
11.433,1.311,-0.671,1.0
10.655,1.222,-0.687,0.0
9.993,1.145,-0.702,3.0
13.391,1.53,-0.568,9.0
13.049,1.49,-0.628,15.0
12.206,1.393,-0.658,2.0
11.265,1.286,-0.673,1.0
10.538,1.202,-0.69,1.0
9.882,1.127,-0.703,2.0
13.325,1.515,-0.578,10.0
13.043,1.482,-0.641,10.0
12.097,1.374,-0.663,1.0
11.13,1.263,-0.675,2.0
10.387,1.179,-0.69,1.0
9.774,1.109,-0.705,2.0
13.235,1.496,-0.587,10.0
12.897,1.457,-0.645,4.0
11.939,1.348,-0.666,1.0
11.056,1.248,-0.681,2.0
10.299,1.162,-0.693,2.0
9.727,1.097,-0.711,2.0
13.112,1.474,-0.593,8.0
12.714,1.428,-0.648,2.0
11.752,1.319,-0.666,1.0
10.91,1.224,-0.682,2.0
10.191,1.143,-0.695,2.0
9.683,1.085,-0.716,1.0
13.087,1.461,-0.604,11.0
12.561,1.402,-0.651,1.0
11.598,1.293,-0.668,2.0
10.821,1.206,-0.686,2.0
10.096,1.124,-0.698,2.0
9.619,1.071,-0.72,1.0
13.075,1.45,-0.615,11.0
12.362,1.37,-0.652,1.0
11.492,1.273,-0.672,1.0
10.716,1.186,-0.689,1.0
10.02,1.108,-0.701,2.0
9.536,1.054,-0.722,1.0
13.076,1.44,-0.626,11.0
12.27,1.35,-0.657,2.0
11.377,1.251,-0.675,1.0
10.612,1.166,-0.691,1.0
9.932,1.09,-0.704,2.0
9.435,1.035,-0.722,1.0
13.056,1.427,-0.636,11.0
12.153,1.327,-0.661,1.0
11.256,1.228,-0.677,1.0
10.502,1.145,-0.692,1.0
9.843,1.072,-0.705,1.0
9.354,1.018,-0.724,1.0
13.042,1.414,-0.646,9.0
12.029,1.303,-0.664,2.0
11.153,1.207,-0.679,1.0
10.383,1.123,-0.693,2.0
9.755,1.054,-0.707,1.0
9.291,1.003,-0.726,1.0
12.878,1.385,-0.647,5.0
11.922,1.281,-0.667,1.0
11.031,1.184,-0.68,1.0
10.3,1.104,-0.695,2.0
9.727,1.042,-0.712,1.0
9.236,0.989,-0.729,1.0
12.741,1.358,-0.65,4.0
11.793,1.256,-0.668,2.0
10.937,1.163,-0.682,1.0
10.24,1.088,-0.698,2.0
9.682,1.028,-0.715,1.0
9.197,0.976,-0.732,1.0
12.619,1.333,-0.652,4.0
11.7,1.234,-0.671,3.0
10.879,1.146,-0.686,1.0
10.163,1.07,-0.7,2.0
9.628,1.013,-0.718,1.0
9.147,0.961,-0.734,1.0
12.539,1.312,-0.657,2.0
11.616,1.214,-0.674,2.0
10.801,1.127,-0.688,1.0
10.1,1.053,-0.702,2.0
9.579,0.998,-0.721,1.0
9.107,0.948,-0.737,0.0
12.413,1.286,-0.658,2.0
11.529,1.192,-0.677,2.0
10.728,1.108,-0.691,2.0
10.027,1.035,-0.704,2.0
9.535,0.983,-0.723,1.0
9.013,0.928,-0.735,1.0
12.339,1.265,-0.661,1.0
11.425,1.169,-0.677,1.0
10.649,1.089,-0.692,2.0
9.947,1.016,-0.704,2.0
9.489,0.968,-0.725,1.0
8.974,0.914,-0.737,1.0
12.27,1.244,-0.665,2.0
11.351,1.149,-0.679,1.0
10.593,1.071,-0.694,1.0
9.891,0.999,-0.705,2.0
9.443,0.953,-0.727,1.0
8.935,0.9,-0.739,1.0
12.19,1.222,-0.667,2.0
11.28,1.129,-0.681,1.0
10.535,1.053,-0.696,1.0
9.853,0.984,-0.708,2.0
9.387,0.936,-0.728,1.0
8.894,0.886,-0.74,1.0
12.124,1.202,-0.67,2.0
11.226,1.111,-0.683,1.0
10.475,1.035,-0.697,1.0
9.823,0.969,-0.71,2.0
9.347,0.921,-0.729,1.0
8.859,0.872,-0.741,1.0
12.065,1.181,-0.672,2.0
11.173,1.092,-0.685,1.0
10.397,1.015,-0.697,1.0
9.799,0.955,-0.713,2.0
9.309,0.906,-0.73,1.0
8.838,0.859,-0.744,1.0
11.979,1.158,-0.672,2.0
11.115,1.073,-0.687,1.0
10.349,0.998,-0.698,1.0
9.739,0.937,-0.713,2.0
9.286,0.892,-0.732,1.0
8.812,0.846,-0.745,0.0
11.959,1.142,-0.676,2.0
11.067,1.055,-0.688,1.0
10.31,0.981,-0.699,2.0
9.723,0.923,-0.715,2.0
9.272,0.879,-0.735,1.0
8.74,0.827,-0.742,0.0
11.894,1.12,-0.677,1.0
11.029,1.037,-0.69,1.0
10.286,0.965,-0.701,2.0
9.694,0.908,-0.717,1.0
9.251,0.865,-0.736,1.0
8.733,0.816,-0.744,0.0
11.839,1.099,-0.677,2.0
10.994,1.019,-0.691,1.0
10.269,0.95,-0.703,2.0
9.678,0.894,-0.718,1.0
9.238,0.852,-0.738,1.0
8.686,0.8,-0.743,1.0
11.779,1.078,-0.677,2.0
10.954,1.001,-0.691,1.0
10.258,0.935,-0.705,1.0
9.676,0.881,-0.721,1.0
9.246,0.84,-0.741,0.0
8.707,0.79,-0.747,1.0
11.741,1.059,-0.678,2.0
10.93,0.984,-0.693,2.0
10.226,0.919,-0.706,2.0
9.658,0.866,-0.722,2.0
9.215,0.825,-0.741,0.0
8.632,0.771,-0.743,1.0
11.732,1.042,-0.68,2.0
10.917,0.968,-0.694,2.0
10.21,0.903,-0.706,2.0
9.658,0.853,-0.724,2.0
9.179,0.809,-0.739,1.0
8.707,0.766,-0.751,1.0
11.731,1.026,-0.682,3.0
10.9,0.951,-0.695,2.0
10.195,0.888,-0.707,2.0
9.652,0.839,-0.725,1.0
9.17,0.795,-0.74,1.0
8.713,0.754,-0.752,1.0
11.721,1.008,-0.683,3.0
10.907,0.936,-0.696,1.0
10.194,0.873,-0.708,2.0
9.642,0.824,-0.725,1.0
9.167,0.782,-0.741,1.0
8.71,0.741,-0.753,1.0
11.706,0.99,-0.683,2.0
10.917,0.921,-0.698,0.0
10.198,0.859,-0.709,2.0
9.629,0.809,-0.725,1.0
9.171,0.769,-0.742,1.0
8.735,0.731,-0.756,0.0
11.734,0.976,-0.685,2.0
10.92,0.906,-0.699,1.0
10.197,0.844,-0.709,2.0
9.645,0.796,-0.726,1.0
9.19,0.757,-0.743,1.0
8.734,0.718,-0.756,1.0
11.76,0.961,-0.687,2.0
10.907,0.889,-0.698,2.0
10.23,0.832,-0.712,2.0
9.63,0.781,-0.725,1.0
9.191,0.744,-0.743,1.0
8.737,0.705,-0.756,1.0
11.771,0.944,-0.687,2.0
10.916,0.873,-0.698,2.0
10.259,0.819,-0.713,2.0
9.634,0.767,-0.724,1.0
9.224,0.732,-0.745,1.0
8.753,0.693,-0.756,1.0
11.782,0.927,-0.687,2.0
10.932,0.858,-0.698,2.0
10.259,0.803,-0.712,1.0
9.638,0.753,-0.724,1.0
9.233,0.719,-0.745,1.0
8.767,0.681,-0.757,1.0
11.844,0.914,-0.689,2.0
10.962,0.844,-0.699,2.0
10.277,0.789,-0.712,2.0
9.66,0.74,-0.724,1.0
9.259,0.707,-0.746,1.0
8.774,0.668,-0.756,1.0
11.898,0.9,-0.69,1.0
11.01,0.831,-0.7,1.0
10.303,0.775,-0.712,2.0
9.677,0.726,-0.724,1.0
9.272,0.694,-0.745,1.0
8.795,0.656,-0.756,1.0
11.941,0.885,-0.69,1.0
11.075,0.818,-0.702,1.0
10.335,0.762,-0.712,2.0
9.706,0.713,-0.724,1.0
9.294,0.681,-0.745,1.0
8.825,0.645,-0.756,1.0
11.96,0.868,-0.688,2.0
11.143,0.806,-0.703,1.0
10.381,0.749,-0.713,2.0
9.72,0.699,-0.722,1.0
9.31,0.667,-0.743,2.0
8.854,0.633,-0.756,1.0
12.037,0.855,-0.689,2.0
11.182,0.792,-0.702,1.0
10.444,0.737,-0.714,2.0
9.746,0.686,-0.721,2.0
9.358,0.656,-0.744,2.0
8.879,0.621,-0.756,2.0
12.114,0.841,-0.69,2.0
11.255,0.779,-0.703,1.0
10.507,0.725,-0.714,2.0
9.797,0.674,-0.721,1.0
9.402,0.644,-0.744,2.0
8.925,0.61,-0.756,3.0
12.207,0.828,-0.691,2.0
11.311,0.765,-0.702,1.0
10.571,0.713,-0.715,2.0
9.863,0.663,-0.722,2.0
9.444,0.632,-0.744,2.0
8.979,0.599,-0.757,3.0
12.281,0.814,-0.69,3.0
11.406,0.753,-0.703,2.0
10.655,0.701,-0.716,2.0
9.933,0.652,-0.723,2.0
9.491,0.62,-0.743,2.0
9.037,0.589,-0.758,3.0
12.35,0.799,-0.688,3.0
11.457,0.739,-0.701,2.0
10.743,0.69,-0.717,1.0
10.004,0.64,-0.724,2.0
9.545,0.609,-0.743,3.0
9.107,0.579,-0.759,2.0
12.459,0.786,-0.688,3.0
11.513,0.724,-0.699,2.0
10.82,0.678,-0.716,2.0
10.081,0.629,-0.724,2.0
9.604,0.597,-0.742,3.0
9.172,0.568,-0.76,1.0
12.547,0.772,-0.686,3.0
11.62,0.712,-0.699,1.0
10.866,0.663,-0.713,2.0
10.146,0.617,-0.723,2.0
9.653,0.585,-0.741,3.0
9.218,0.556,-0.758,1.0
12.746,0.764,-0.689,2.0
11.748,0.701,-0.7,1.0
10.966,0.652,-0.713,2.0
10.251,0.607,-0.724,2.0
9.717,0.573,-0.74,3.0
9.275,0.545,-0.757,2.0
12.9,0.752,-0.69,3.0
11.875,0.689,-0.7,1.0
11.069,0.64,-0.713,2.0
10.362,0.597,-0.725,2.0
9.838,0.564,-0.742,2.0
9.311,0.532,-0.754,1.0
12.991,0.737,-0.686,7.0
12.044,0.68,-0.702,1.0
11.174,0.628,-0.712,2.0
10.49,0.587,-0.727,2.0
9.946,0.555,-0.744,2.0
9.372,0.52,-0.752,1.0
13.059,0.72,-0.68,10.0
12.204,0.67,-0.702,1.0
11.283,0.616,-0.711,2.0
10.601,0.577,-0.727,2.0
10.01,0.542,-0.741,2.0
9.459,0.51,-0.752,2.0
13.067,0.7,-0.671,15.0
12.336,0.657,-0.7,1.0
11.401,0.605,-0.709,2.0
10.758,0.568,-0.729,1.0
10.096,0.531,-0.739,2.0
9.524,0.498,-0.75,2.0
13.063,0.678,-0.66,13.0
12.451,0.644,-0.697,1.0
11.566,0.595,-0.71,2.0
10.888,0.557,-0.729,2.0
10.19,0.519,-0.738,2.0
9.626,0.488,-0.749,2.0
13.101,0.659,-0.651,11.0
12.634,0.633,-0.697,2.0
11.734,0.585,-0.711,3.0
11.001,0.546,-0.727,3.0
10.287,0.508,-0.736,2.0
9.723,0.477,-0.748,2.0
13.311,0.649,-0.65,10.0
12.853,0.623,-0.697,3.0
11.881,0.573,-0.709,3.0
11.109,0.533,-0.724,2.0
10.434,0.499,-0.737,2.0
9.845,0.468,-0.749,2.0
13.46,0.635,-0.645,13.0
13.003,0.61,-0.694,6.0
12.079,0.564,-0.71,2.0
11.261,0.523,-0.724,2.0
10.547,0.487,-0.735,2.0
9.97,0.458,-0.749,3.0
13.678,0.624,-0.643,18.0
13.069,0.593,-0.684,9.0
12.289,0.554,-0.71,3.0
11.413,0.512,-0.722,2.0
10.681,0.477,-0.734,2.0
10.124,0.449,-0.75,3.0
13.86,0.61,-0.637,16.0
13.055,0.572,-0.67,11.0
12.474,0.543,-0.708,2.0
11.58,0.501,-0.721,2.0
10.822,0.466,-0.732,2.0
10.318,0.442,-0.754,2.0
14.254,0.606,-0.641,16.0
13.091,0.553,-0.659,9.0
12.688,0.533,-0.707,4.0
11.755,0.491,-0.719,2.0
10.961,0.455,-0.73,3.0
10.551,0.435,-0.76,2.0
14.462,0.592,-0.634,15.0
13.177,0.536,-0.649,6.0
12.868,0.52,-0.703,7.0
11.945,0.48,-0.718,2.0
11.127,0.445,-0.729,2.0
10.803,0.429,-0.766,3.0
14.606,0.576,-0.624,15.0
13.406,0.525,-0.645,2.0
13.041,0.507,-0.697,8.0
12.15,0.47,-0.716,2.0
11.313,0.434,-0.728,3.0
11.06,0.422,-0.771,3.0
14.635,0.554,-0.609,15.0
13.597,0.512,-0.638,1.0
13.092,0.489,-0.685,8.0
12.358,0.459,-0.714,3.0
11.514,0.425,-0.727,3.0
11.334,0.415,-0.776,2.0
14.664,0.533,-0.592,10.0
13.738,0.496,-0.628,1.0
13.356,0.479,-0.682,4.0
12.594,0.449,-0.712,3.0
11.761,0.416,-0.728,3.0
11.637,0.409,-0.783,2.0
15.179,0.53,-0.595,3.0
13.895,0.481,-0.618,1.0
13.645,0.469,-0.68,3.0
12.8,0.437,-0.708,4.0
12.03,0.408,-0.73,3.0
11.966,0.403,-0.79,2.0
15.916,0.532,-0.603,3.0
14.103,0.468,-0.61,1.0
13.9,0.458,-0.675,4.0
13.038,0.426,-0.704,6.0
12.318,0.4,-0.731,3.0
12.306,0.396,-0.796,1.0
16.267,0.52,-0.596,2.0
14.431,0.458,-0.605,1.0
14.18,0.446,-0.67,4.0
13.287,0.415,-0.7,4.0
12.639,0.392,-0.733,4.0
12.605,0.388,-0.799,1.0
16.706,0.51,-0.589,2.0
14.817,0.448,-0.602,5.0
14.387,0.432,-0.66,7.0
13.553,0.404,-0.696,4.0
12.955,0.383,-0.734,5.0
12.933,0.379,-0.802,1.0
17.168,0.499,-0.582,4.0
15.675,0.452,-0.615,3.0
14.627,0.418,-0.651,4.0
13.805,0.391,-0.689,4.0
13.222,0.372,-0.73,5.0
13.319,0.372,-0.807,0.0
17.573,0.486,-0.571,7.0
16.034,0.44,-0.606,2.0
14.896,0.405,-0.642,4.0
14.074,0.379,-0.683,4.0
13.635,0.364,-0.734,3.0
13.757,0.365,-0.813,0.0
18.009,0.473,-0.559,4.0
16.53,0.43,-0.601,2.0
15.191,0.392,-0.633,3.0
14.329,0.367,-0.674,5.0
14.039,0.356,-0.735,4.0
14.144,0.355,-0.815,0.0
18.608,0.463,-0.55,3.0
17.004,0.419,-0.593,2.0
15.515,0.379,-0.623,2.0
14.554,0.352,-0.663,5.0
14.375,0.345,-0.731,4.0
14.571,0.346,-0.818,0.0
19.174,0.451,-0.538,3.0
17.471,0.407,-0.582,6.0
15.916,0.367,-0.615,3.0
14.927,0.341,-0.657,4.0
14.866,0.336,-0.733,2.0
14.981,0.336,-0.817,0.0
19.753,0.439,-0.524,3.0
17.922,0.394,-0.57,7.0
16.37,0.356,-0.606,2.0
15.325,0.33,-0.65,3.0
15.336,0.327,-0.732,1.0
15.375,0.324,-0.814,0.0
20.43,0.427,-0.509,4.0
18.558,0.384,-0.56,9.0
16.812,0.344,-0.596,2.0
15.727,0.318,-0.642,3.0
15.752,0.315,-0.726,2.0
15.31,0.303,-0.787,1.0
21.167,0.415,-0.494,4.0
18.988,0.368,-0.543,11.0
17.403,0.334,-0.589,2.0
16.106,0.305,-0.631,3.0
16.151,0.303,-0.718,2.0
15.981,0.296,-0.795,1.0
21.957,0.403,-0.477,4.0
19.757,0.359,-0.533,11.0
17.912,0.321,-0.577,3.0
16.57,0.294,-0.622,3.0
16.616,0.291,-0.712,2.0
16.36,0.283,-0.786,2.0
26.273,0.45,-0.527,1.0
20.45,0.346,-0.517,4.0
18.546,0.31,-0.566,4.0
17.142,0.283,-0.615,3.0
17.21,0.28,-0.708,2.0
17.154,0.276,-0.796,2.0
27.049,0.431,-0.497,2.0
21.275,0.334,-0.502,6.0
19.158,0.297,-0.553,3.0
17.737,0.272,-0.606,4.0
17.852,0.27,-0.704,2.0
17.983,0.268,-0.803,2.0
28.052,0.414,-0.467,1.0
22.028,0.32,-0.482,4.0
19.823,0.284,-0.537,3.0
18.396,0.26,-0.597,5.0
18.522,0.258,-0.698,2.0
18.651,0.257,-0.801,2.0
29.192,0.397,-0.436,2.0
26.213,0.352,-0.528,2.0
20.617,0.272,-0.523,4.0
19.093,0.248,-0.586,5.0
19.202,0.246,-0.69,1.0
19.393,0.245,-0.798,2.0
30.274,0.378,-0.398,2.0
27.069,0.332,-0.497,1.0
21.459,0.259,-0.506,4.0
19.768,0.235,-0.571,7.0
19.923,0.233,-0.68,2.0
20.086,0.231,-0.79,2.0
31.696,0.361,-0.36,1.0
28.215,0.316,-0.467,1.0
22.151,0.244,-0.482,2.0
20.539,0.222,-0.556,4.0
20.626,0.219,-0.666,2.0
18.847,0.197,-0.707,0.0
33.534,0.346,-0.32,1.0
29.393,0.298,-0.433,2.0
26.295,0.262,-0.524,1.0
21.381,0.209,-0.54,4.0
21.26,0.204,-0.648,2.0
19.299,0.182,-0.688,0.0
37.457,0.348,-0.289,6.0
30.486,0.277,-0.393,2.0
27.254,0.243,-0.493,1.0
22.087,0.193,-0.516,2.0
22.112,0.19,-0.632,3.0
20.108,0.169,-0.68,0.0
38.124,0.315,-0.222,22.0
32.252,0.261,-0.355,1.0
28.648,0.227,-0.465,1.0
25.557,0.198,-0.55,1.0
23.013,0.174,-0.614,1.0
20.887,0.155,-0.666,1.0
39.158,0.285,-0.154,48.0
37.535,0.267,-0.342,0.0
29.676,0.206,-0.424,2.0
26.556,0.18,-0.52,1.0
23.71,0.157,-0.588,2.0
21.656,0.14,-0.649,3.0
44.053,0.279,-0.088,10.0
37.808,0.234,-0.272,6.0
31.12,0.187,-0.385,1.0
27.558,0.161,-0.487,1.0
24.673,0.14,-0.563,1.0
22.48,0.124,-0.63,2.0
46.806,0.254,-0.003,30.0
38.651,0.204,-0.203,34.0
33.063,0.169,-0.345,1.0
28.893,0.143,-0.454,2.0
25.936,0.125,-0.542,1.0
23.26,0.108,-0.606,2.0
54.302,0.247,0.101,29.0
39.931,0.175,-0.132,25.0
37.724,0.16,-0.32,13.0
29.988,0.123,-0.413,2.0
26.901,0.106,-0.509,2.0
23.988,0.091,-0.578,2.0
59.175,0.218,0.227,8.0
44.673,0.159,-0.06,21.0
38.426,0.131,-0.25,14.0
31.585,0.103,-0.372,1.0
28.187,0.088,-0.478,2.0
25.242,0.075,-0.558,2.0
75.954,0.219,0.441,15.0
47.913,0.131,0.031,22.0
39.311,0.103,-0.177,42.0
33.62,0.083,-0.329,1.0
29.444,0.069,-0.44,2.0
26.412,0.058,-0.532,3.0
79.447,0.167,0.62,16.0
55.106,0.108,0.146,28.0
43.809,0.08,-0.109,9.0
38.186,0.065,-0.297,4.0
30.685,0.049,-0.397,1.0
27.356,0.04,-0.495,2.0
79.447,0.108,0.78,150.0
61.814,0.076,0.288,8.0
0.0,0.0,0.0,0.0
38.985,0.039,-0.224,15.0
32.733,0.028,-0.357,1.0
28.821,0.022,-0.463,1.0
79.463,0.051,0.941,155.0
76.495,0.04,0.512,16.0
0.0,0.0,0.0,0.0
40.427,0.012,-0.151,16.0
38.13,0.007,-0.338,2.0
29.95,0.002,-0.42,2.0
79.46,-0.002,1.105,151.0
79.422,-0.01,0.694,150.0
61.623,-0.014,0.22,14.0
44.612,-0.015,-0.074,22.0
38.72,-0.017,-0.264,10.0
31.568,-0.017,-0.378,1.0
79.456,-0.052,1.267,152.0
79.469,-0.06,0.857,156.0
76.181,-0.065,0.429,16.0
48.126,-0.046,0.018,11.0
39.807,-0.042,-0.19,30.0
33.599,-0.038,-0.333,1.0
79.445,-0.1,1.43,161.0
79.469,-0.108,1.021,155.0
79.364,-0.115,0.611,71.0
55.972,-0.086,0.136,29.0
42.108,-0.068,-0.113,17.0
38.698,-0.066,-0.303,3.0
79.448,-0.145,1.596,155.0
79.467,-0.152,1.186,155.0
79.461,-0.159,0.776,151.0
61.831,-0.129,0.28,7.0
46.1,-0.1,-0.028,14.0
39.521,-0.089,-0.228,15.0
79.453,-0.187,1.761,151.0
79.444,-0.194,1.351,166.0
79.47,-0.2,0.942,151.0
79.206,-0.206,0.524,17.0
0.0,0.0,0.0,0.0
41.329,-0.114,-0.151,18.0
79.443,-0.227,1.927,151.0
79.398,-0.232,1.517,242.0
79.459,-0.239,1.11,153.0
79.452,-0.244,0.691,150.0
61.468,-0.193,0.218,9.0
0.0,0.0,0.0,0.0
79.44,-0.263,2.093,151.0
79.444,-0.268,1.684,171.0
79.442,-0.274,1.276,167.0
79.45,-0.279,0.859,151.0
76.582,-0.273,0.434,13.0
0.0,0.0,0.0,0.0
79.432,-0.296,2.261,151.0
79.444,-0.301,1.851,156.0
79.448,-0.306,1.443,224.0
79.461,-0.31,1.027,151.0
79.394,-0.315,0.618,146.0
56.119,-0.225,0.147,10.0
79.427,-0.327,2.428,150.0
79.441,-0.331,2.019,151.0
79.406,-0.335,1.609,244.0
79.449,-0.339,1.193,156.0
79.462,-0.342,0.783,156.0
76.573,-0.334,0.361,10.0
79.416,-0.354,2.594,150.0
79.437,-0.358,2.186,155.0
79.428,-0.361,1.775,182.0
79.443,-0.364,1.359,182.0
79.46,-0.368,0.951,153.0
79.234,-0.37,0.541,34.0
79.419,-0.378,2.763,150.0
79.44,-0.381,2.355,155.0
79.427,-0.384,1.945,179.0
79.424,-0.387,1.529,206.0
79.456,-0.39,1.119,157.0
79.464,-0.393,0.711,161.0
79.4,-0.4,2.931,150.0
79.429,-0.402,2.521,151.0
79.431,-0.404,2.113,168.0
79.43,-0.407,1.696,194.0
79.445,-0.409,1.288,165.0
79.456,-0.411,0.879,157.0
79.406,-0.418,3.098,140.0
79.419,-0.42,2.69,150.0
79.432,-0.422,2.282,157.0
79.439,-0.423,1.864,176.0
79.439,-0.425,1.455,185.0
79.455,-0.426,1.047,154.0
59.471,-0.324,2.445,90.0
79.408,-0.434,2.856,150.0
79.434,-0.436,2.449,151.0
79.427,-0.437,2.03,166.0
79.426,-0.438,1.622,225.0
79.45,-0.439,1.214,157.0
59.49,-0.334,2.572,96.0
79.414,-0.446,3.024,150.0
79.41,-0.447,2.614,150.0
79.436,-0.447,2.198,154.0
79.425,-0.447,1.788,185.0
79.442,-0.448,1.38,163.0
59.489,-0.341,2.698,101.0
59.468,-0.341,2.39,84.0
79.424,-0.455,2.782,150.0
79.426,-0.455,2.364,151.0
79.436,-0.454,1.954,169.0
79.43,-0.454,1.546,181.0
59.49,-0.345,2.822,105.0
59.481,-0.345,2.515,94.0
79.425,-0.46,2.949,150.0
79.421,-0.459,2.53,151.0
79.439,-0.459,2.122,157.0
79.419,-0.458,1.712,197.0
59.486,-0.348,2.947,108.0
59.488,-0.347,2.639,98.0
79.386,-0.462,3.113,150.0
79.421,-0.461,2.695,150.0
79.436,-0.46,2.286,151.0
79.435,-0.458,1.876,167.0
59.479,-0.348,3.069,109.0
59.481,-0.347,2.762,100.0
59.467,-0.345,2.454,88.0
79.422,-0.459,2.859,150.0
79.425,-0.457,2.45,151.0
79.431,-0.456,2.04,159.0
59.456,-0.346,3.192,106.0
59.48,-0.344,2.886,103.0
59.483,-0.342,2.579,95.0
79.424,-0.455,3.025,150.0
79.424,-0.452,2.614,150.0
79.437,-0.45,2.206,151.0
59.436,-0.341,3.315,104.0
59.47,-0.339,3.01,103.0
59.477,-0.337,2.701,100.0
59.469,-0.335,2.388,88.0
79.414,-0.444,2.779,150.0
79.432,-0.441,2.368,151.0
59.422,-0.335,3.436,89.0
59.461,-0.332,3.131,108.0
59.484,-0.33,2.824,100.0
59.475,-0.327,2.509,92.0
79.425,-0.433,2.941,150.0
79.424,-0.43,2.531,151.0
77.2,-0.423,4.623,42.0
59.446,-0.323,3.251,103.0
59.47,-0.32,2.945,102.0
59.474,-0.317,2.631,98.0
79.421,-0.419,3.103,64.0
79.413,-0.415,2.692,150.0
86.038,-0.456,5.328,18.0
59.429,-0.312,3.371,100.0
59.46,-0.308,3.065,110.0
59.477,-0.305,2.751,100.0
59.469,-0.301,2.444,92.0
79.405,-0.397,2.852,150.0
89.328,-0.454,5.713,16.0
59.411,-0.298,3.49,65.0
59.446,-0.294,3.184,115.0
59.471,-0.291,2.87,109.0
59.481,-0.287,2.562,94.0
79.393,-0.377,3.009,150.0
63.069,-0.304,4.16,73.0
77.355,-0.368,4.699,7.0
59.432,-0.278,3.301,105.0
59.469,-0.274,2.989,116.0
59.48,-0.27,2.681,104.0
59.456,-0.265,2.371,84.0
62.679,-0.284,4.259,28.0
63.58,-0.283,3.989,38.0
59.409,-0.26,3.418,98.0
59.451,-0.255,3.106,111.0
59.474,-0.251,2.798,101.0
59.469,-0.246,2.49,88.0
48.963,-0.206,3.423,66.0
62.906,-0.259,4.07,42.0
59.408,-0.24,3.534,21.0
59.437,-0.235,3.221,107.0
59.468,-0.23,2.913,109.0
59.477,-0.225,2.604,89.0
0.0,0.0,0.0,0.0
62.752,-0.235,4.183,30.0
63.595,-0.233,3.908,28.0
59.414,-0.212,3.335,103.0
59.449,-0.207,3.027,104.0
59.467,-0.201,2.719,101.0
47.772,-0.164,3.527,75.0
48.892,-0.163,3.354,66.0
63.023,-0.204,3.995,58.0
59.4,-0.187,3.449,90.0
59.44,-0.181,3.141,104.0
59.467,-0.175,2.834,99.0
47.829,-0.144,3.623,8.0
48.26,-0.14,3.403,70.0
78.06,-0.218,5.097,17.0
77.744,-0.209,4.663,50.0
59.427,-0.154,3.254,104.0
59.462,-0.148,2.947,103.0
47.849,-0.121,3.715,34.0
47.779,-0.116,3.46,78.0
48.835,-0.113,3.281,49.0
62.902,-0.138,3.891,60.0
59.413,-0.124,3.366,110.0
59.447,-0.118,3.057,109.0
47.829,-0.097,3.805,8.0
47.784,-0.091,3.551,64.0
48.358,-0.087,3.34,50.0
63.014,-0.106,4.016,52.0
59.392,-0.093,3.474,73.0
59.432,-0.086,3.166,100.0
39.996,-0.059,3.256,58.0
47.828,-0.065,3.642,26.0
47.838,-0.06,3.391,87.0
63.77,-0.072,4.181,8.0
62.966,-0.063,3.799,62.0
59.417,-0.052,3.273,104.0
39.822,-0.036,3.315,68.0
47.834,-0.038,3.73,33.0
47.803,-0.032,3.477,103.0
48.184,-0.026,3.247,36.0
63.617,-0.026,3.953,48.0
59.407,-0.017,3.381,99.0
39.801,-0.013,3.386,75.0
40.067,-0.007,3.197,58.0
47.805,-0.002,3.563,76.0
47.917,0.003,3.315,79.0
63.77,0.013,4.076,41.0
63.054,0.021,3.7,6.0
47.752,0.014,4.147,4.0
39.85,0.017,3.25,59.0
54.617,0.031,4.167,18.0
47.881,0.034,3.396,79.0
48.186,0.041,3.164,64.0
75.716,0.075,4.575,34.0
47.739,0.046,4.23,4.0
39.856,0.044,3.321,68.0
54.634,0.068,4.263,19.0
54.648,0.076,3.971,15.0
48.013,0.074,3.236,70.0
48.281,0.081,3.0,43.0
54.698,0.091,4.941,8.0
39.85,0.072,3.389,49.0
54.003,0.106,4.307,6.0
54.601,0.115,4.061,75.0
