X,Y,Z,Reflectivity
7.246,0.224,-0.934,0.0
8.966,0.275,-0.901,0.0
8.556,0.26,-0.908,0.0
8.16,0.247,-0.911,1.0
7.85,0.236,-0.921,0.0
7.542,0.225,-0.927,0.0
7.282,0.216,-0.935,0.0
9.003,0.265,-0.901,1.0
8.555,0.25,-0.903,0.0
8.176,0.237,-0.908,1.0
7.899,0.228,-0.922,0.0
7.585,0.217,-0.928,0.0
7.315,0.208,-0.936,0.0
9.011,0.254,-0.896,1.0
8.463,0.237,-0.889,0.0
8.186,0.227,-0.905,2.0
7.939,0.219,-0.922,0.0
7.633,0.209,-0.929,0.0
7.346,0.2,-0.935,0.0
9.032,0.244,-0.893,1.0
8.634,0.231,-0.901,0.0
8.2,0.218,-0.901,2.0
7.967,0.21,-0.92,0.0
7.654,0.2,-0.927,0.0
7.36,0.191,-0.932,0.0
9.046,0.233,-0.889,0.0
8.698,0.222,-0.902,0.0
8.233,0.209,-0.899,1.0
8.006,0.202,-0.92,0.0
7.704,0.192,-0.928,0.0
7.39,0.183,-0.931,0.0
9.127,0.224,-0.89,0.0
8.726,0.213,-0.899,0.0
8.341,0.202,-0.905,0.0
8.041,0.193,-0.918,0.0
7.713,0.183,-0.923,0.0
7.453,0.176,-0.933,0.0
9.181,0.215,-0.889,0.0
8.774,0.203,-0.897,0.0
8.393,0.193,-0.905,0.0
8.046,0.183,-0.912,0.0
7.747,0.175,-0.921,0.0
7.473,0.167,-0.93,0.0
9.257,0.205,-0.889,0.0
8.829,0.194,-0.896,0.0
8.474,0.185,-0.906,0.0
8.117,0.175,-0.914,0.0
7.82,0.167,-0.923,0.0
7.533,0.16,-0.931,0.0
9.326,0.196,-0.888,0.0
8.912,0.186,-0.897,0.0
8.509,0.175,-0.903,0.0
8.164,0.167,-0.912,0.0
7.875,0.159,-0.923,0.0
7.579,0.152,-0.93,0.0
9.399,0.187,-0.887,0.0
8.99,0.177,-0.897,0.0
8.553,0.166,-0.9,0.0
8.209,0.158,-0.91,0.0
7.918,0.151,-0.921,0.0
7.623,0.144,-0.928,0.0
9.451,0.177,-0.883,0.0
9.03,0.167,-0.893,0.0
8.594,0.157,-0.896,0.0
8.266,0.15,-0.908,0.0
7.981,0.143,-0.921,0.0
7.665,0.136,-0.926,0.0
9.537,0.168,-0.882,0.0
9.107,0.158,-0.892,0.0
8.682,0.149,-0.897,0.0
8.315,0.141,-0.906,0.0
8.024,0.135,-0.918,0.0
7.729,0.128,-0.926,0.0
9.634,0.159,-0.881,0.0
9.177,0.149,-0.889,0.0
8.748,0.141,-0.895,0.0
8.392,0.133,-0.905,0.0
8.079,0.127,-0.916,0.0
7.78,0.12,-0.924,0.0
9.711,0.149,-0.878,0.0
9.244,0.14,-0.886,0.0
8.83,0.132,-0.894,0.0
8.459,0.125,-0.904,0.0
8.141,0.119,-0.914,0.0
7.857,0.113,-0.925,0.0
9.794,0.14,-0.875,0.0
9.36,0.132,-0.887,0.0
8.943,0.124,-0.896,0.0
8.523,0.117,-0.901,0.0
8.214,0.111,-0.913,0.0
7.903,0.105,-0.922,0.0
9.912,0.131,-0.875,0.0
9.428,0.123,-0.883,0.0
9.002,0.115,-0.892,0.0
8.599,0.109,-0.899,0.0
8.299,0.103,-0.913,0.0
7.957,0.097,-0.919,0.0
9.999,0.121,-0.871,0.0
9.523,0.114,-0.881,0.0
9.107,0.107,-0.891,0.0
8.697,0.101,-0.899,0.0
8.348,0.095,-0.908,0.0
8.036,0.09,-0.918,0.0
10.121,0.112,-0.869,0.0
9.639,0.105,-0.88,0.0
9.205,0.099,-0.89,0.0
8.771,0.092,-0.896,0.0
8.432,0.087,-0.907,0.0
8.109,0.082,-0.916,0.0
10.261,0.104,-0.869,0.0
9.735,0.096,-0.877,0.0
9.312,0.09,-0.889,0.0
8.884,0.085,-0.897,0.0
8.497,0.079,-0.903,0.0
8.204,0.075,-0.917,0.0
10.384,0.095,-0.866,0.0
9.853,0.088,-0.875,0.0
9.398,0.082,-0.885,0.0
8.988,0.077,-0.895,0.0
8.591,0.072,-0.902,0.0
8.27,0.067,-0.913,0.0
10.492,0.085,-0.861,0.0
9.979,0.079,-0.873,0.0
9.524,0.074,-0.884,0.0
9.078,0.069,-0.892,0.0
8.67,0.064,-0.899,0.0
8.352,0.06,-0.911,0.0
10.642,0.076,-0.859,0.0
10.131,0.071,-0.872,0.0
9.631,0.066,-0.881,0.0
9.205,0.061,-0.892,0.0
8.78,0.057,-0.898,0.0
8.412,0.053,-0.906,0.0
10.793,0.067,-0.856,0.0
10.278,0.062,-0.87,0.0
9.764,0.057,-0.879,0.0
9.319,0.053,-0.89,0.0
8.917,0.049,-0.899,0.0
8.526,0.045,-0.906,0.0
10.939,0.058,-0.852,0.0
10.391,0.053,-0.865,0.0
9.881,0.049,-0.875,0.0
9.423,0.045,-0.886,0.0
9.034,0.042,-0.898,0.0
8.62,0.038,-0.903,0.0
11.089,0.049,-0.848,0.0
10.535,0.045,-0.862,0.0
10.031,0.041,-0.874,0.0
9.547,0.037,-0.884,0.0
9.114,0.034,-0.892,0.0
8.725,0.031,-0.901,0.0
11.282,0.04,-0.846,0.0
10.705,0.036,-0.86,0.0
10.162,0.033,-0.87,0.0
9.693,0.03,-0.883,0.0
9.25,0.027,-0.892,0.0
8.838,0.024,-0.899,0.0
11.465,0.031,-0.842,0.0
10.886,0.028,-0.857,0.0
10.325,0.025,-0.868,0.0
9.817,0.022,-0.879,0.0
9.369,0.02,-0.888,0.0
8.949,0.017,-0.896,0.0
11.655,0.023,-0.838,0.0
11.013,0.02,-0.85,0.0
10.489,0.017,-0.865,0.0
9.966,0.015,-0.876,0.0
9.511,0.012,-0.887,0.0
9.096,0.01,-0.897,0.0
11.842,0.014,-0.833,0.0
11.211,0.011,-0.848,0.0
10.645,0.009,-0.861,0.0
10.146,0.007,-0.876,0.0
9.656,0.005,-0.885,0.0
9.232,0.004,-0.895,0.0
12.051,0.005,-0.828,0.0
11.421,0.003,-0.845,0.0
10.838,0.001,-0.859,0.0
10.306,0.0,-0.873,0.0
9.8,-0.001,-0.882,0.0
9.349,-0.002,-0.891,0.0
12.297,-0.003,-0.825,0.0
11.629,-0.004,-0.841,0.0
10.977,-0.006,-0.852,0.0
10.452,-0.007,-0.868,0.0
9.957,-0.008,-0.879,0.0
9.486,-0.009,-0.888,0.0
12.52,-0.011,-0.819,0.0
11.812,-0.012,-0.835,0.0
11.183,-0.013,-0.849,0.0
10.628,-0.014,-0.864,0.0
10.114,-0.015,-0.876,0.0
9.627,-0.015,-0.885,0.0
12.778,-0.02,-0.814,1.0
12.043,-0.021,-0.83,0.0
11.412,-0.021,-0.847,0.0
10.812,-0.021,-0.861,0.0
10.275,-0.022,-0.872,0.0
9.775,-0.022,-0.881,0.0
13.06,-0.029,-0.81,1.0
12.281,-0.029,-0.826,0.0
11.614,-0.029,-0.842,0.0
10.991,-0.029,-0.855,0.0
10.472,-0.028,-0.87,0.0
9.949,-0.028,-0.879,0.0
13.319,-0.037,-0.802,1.0
12.513,-0.037,-0.819,0.0
11.825,-0.036,-0.836,0.0
11.179,-0.036,-0.85,0.0
10.637,-0.035,-0.865,1.0
10.128,-0.035,-0.877,0.0
13.587,-0.046,-0.794,1.0
12.81,-0.045,-0.816,0.0
12.062,-0.044,-0.831,0.0
11.426,-0.043,-0.848,0.0
10.811,-0.041,-0.86,0.0
10.305,-0.041,-0.874,0.0
13.901,-0.054,-0.787,1.0
13.073,-0.053,-0.809,0.0
12.315,-0.051,-0.826,0.0
11.633,-0.049,-0.843,0.0
11.041,-0.048,-0.858,0.0
10.503,-0.047,-0.871,0.0
14.231,-0.063,-0.78,1.0
13.374,-0.06,-0.803,1.0
12.566,-0.058,-0.82,0.0
11.861,-0.056,-0.837,0.0
11.23,-0.054,-0.852,0.0
10.643,-0.052,-0.863,1.0
14.601,-0.071,-0.774,1.0
13.645,-0.068,-0.794,1.0
12.851,-0.065,-0.815,0.0
12.116,-0.063,-0.833,0.0
11.469,-0.06,-0.848,0.0
10.872,-0.058,-0.861,0.0
14.956,-0.079,-0.765,1.0
13.962,-0.076,-0.786,0.0
13.149,-0.072,-0.809,0.0
12.349,-0.069,-0.826,0.0
11.686,-0.066,-0.842,0.0
11.087,-0.064,-0.857,0.0
15.371,-0.088,-0.757,1.0
14.307,-0.083,-0.779,1.0
13.439,-0.079,-0.801,1.0
12.629,-0.075,-0.82,0.0
11.913,-0.072,-0.836,0.0
11.309,-0.069,-0.852,0.0
15.766,-0.096,-0.746,1.0
14.715,-0.091,-0.772,1.0
13.74,-0.086,-0.793,0.0
12.929,-0.082,-0.815,0.0
12.192,-0.078,-0.832,0.0
11.534,-0.075,-0.847,0.0
16.226,-0.104,-0.736,1.0
15.118,-0.098,-0.764,1.0
14.09,-0.092,-0.786,1.0
13.221,-0.088,-0.807,1.0
12.471,-0.084,-0.826,0.0
11.771,-0.08,-0.841,0.0
16.803,-0.113,-0.73,1.0
15.499,-0.105,-0.753,1.0
14.459,-0.099,-0.778,1.0
13.536,-0.094,-0.8,1.0
12.761,-0.089,-0.82,0.0
12.029,-0.085,-0.836,0.0
17.34,-0.121,-0.719,1.0
15.964,-0.112,-0.744,1.0
14.855,-0.105,-0.77,1.0
13.857,-0.099,-0.791,0.0
13.068,-0.094,-0.814,1.0
12.318,-0.09,-0.831,0.0
17.92,-0.129,-0.707,1.0
16.445,-0.119,-0.734,0.0
15.274,-0.112,-0.761,1.0
14.223,-0.105,-0.784,1.0
13.369,-0.099,-0.806,1.0
12.586,-0.094,-0.824,0.0
18.469,-0.136,-0.692,1.0
17.05,-0.127,-0.727,1.0
15.731,-0.118,-0.752,1.0
14.648,-0.11,-0.778,1.0
13.682,-0.104,-0.797,0.0
12.879,-0.098,-0.817,0.0
19.139,-0.144,-0.679,1.0
17.602,-0.133,-0.715,1.0
16.16,-0.123,-0.74,1.0
15.037,-0.115,-0.768,1.0
14.04,-0.108,-0.79,1.0
13.208,-0.102,-0.811,1.0
19.862,-0.152,-0.664,2.0
18.17,-0.14,-0.702,1.0
16.797,-0.13,-0.735,1.0
15.437,-0.12,-0.757,1.0
14.421,-0.112,-0.782,1.0
13.531,-0.106,-0.804,0.0
20.658,-0.16,-0.649,2.0
18.795,-0.146,-0.687,1.0
17.334,-0.135,-0.723,1.0
15.944,-0.124,-0.749,1.0
14.837,-0.116,-0.774,1.0
13.868,-0.109,-0.795,0.0
21.491,-0.167,-0.631,2.0
19.557,-0.152,-0.675,2.0
17.894,-0.14,-0.71,1.0
16.415,-0.128,-0.738,1.0
15.257,-0.12,-0.764,1.0
14.238,-0.112,-0.787,1.0
22.495,-0.175,-0.614,1.0
20.227,-0.157,-0.656,3.0
18.473,-0.144,-0.695,1.0
17.024,-0.133,-0.73,1.0
15.749,-0.123,-0.757,1.0
14.648,-0.114,-0.779,1.0
23.43,-0.181,-0.591,1.0
21.123,-0.163,-0.641,3.0
19.19,-0.148,-0.682,1.0
17.599,-0.136,-0.718,1.0
16.19,-0.125,-0.744,1.0
15.057,-0.117,-0.77,1.0
24.412,-0.187,-0.565,2.0
22.044,-0.169,-0.624,1.0
19.907,-0.152,-0.666,2.0
18.209,-0.139,-0.705,1.0
16.797,-0.128,-0.737,1.0
15.474,-0.118,-0.759,1.0
25.666,-0.194,-0.541,1.0
23.011,-0.173,-0.603,1.0
20.708,-0.156,-0.65,2.0
18.808,-0.141,-0.689,1.0
17.367,-0.13,-0.726,1.0
16.002,-0.12,-0.751,1.0
26.785,-0.198,-0.509,3.0
23.991,-0.177,-0.579,2.0
21.649,-0.159,-0.634,2.0
19.581,-0.144,-0.676,2.0
17.933,-0.131,-0.712,1.0
16.517,-0.12,-0.741,1.0
28.04,-0.202,-0.475,2.0
25.037,-0.18,-0.552,1.0
22.576,-0.161,-0.614,2.0
20.301,-0.145,-0.659,3.0
18.534,-0.132,-0.697,1.0
17.123,-0.121,-0.732,1.0
29.401,-0.205,-0.436,2.0
26.355,-0.183,-0.526,2.0
23.6,-0.163,-0.592,2.0
21.245,-0.146,-0.645,2.0
19.277,-0.132,-0.684,1.0
17.711,-0.12,-0.72,1.0
30.7,-0.206,-0.39,1.0
27.427,-0.183,-0.49,1.0
24.577,-0.163,-0.565,2.0
22.168,-0.146,-0.626,2.0
19.989,-0.131,-0.668,3.0
18.314,-0.119,-0.706,2.0
32.905,-0.211,-0.349,1.0
28.904,-0.184,-0.456,1.0
25.89,-0.163,-0.541,1.0
23.126,-0.145,-0.605,2.0
20.892,-0.13,-0.654,3.0
18.959,-0.117,-0.691,1.0
39.625,-0.24,-0.338,2.0
30.032,-0.18,-0.41,1.0
26.925,-0.16,-0.506,1.0
24.069,-0.142,-0.579,2.0
21.744,-0.127,-0.635,3.0
19.714,-0.114,-0.677,2.0
40.179,-0.228,-0.258,3.0
31.94,-0.18,-0.369,1.0
28.404,-0.158,-0.475,1.0
25.266,-0.139,-0.555,1.0
22.803,-0.124,-0.618,2.0
20.492,-0.11,-0.661,2.0
40.264,-0.212,-0.174,5.0
33.956,-0.176,-0.322,0.0
29.594,-0.152,-0.433,2.0
26.474,-0.134,-0.526,2.0
23.724,-0.118,-0.593,2.0
21.355,-0.105,-0.644,2.0
0.0,0.0,0.0,0.0
39.43,-0.187,-0.292,2.0
30.977,-0.144,-0.389,1.0
27.706,-0.127,-0.493,2.0
24.652,-0.111,-0.565,1.0
22.345,-0.099,-0.628,3.0
47.242,-0.204,-0.009,21.0
39.497,-0.167,-0.21,5.0
33.227,-0.138,-0.348,1.0
29.055,-0.118,-0.457,2.0
26.001,-0.104,-0.542,1.0
23.273,-0.091,-0.605,2.0
0.0,0.0,0.0,0.0
42.207,-0.156,-0.136,17.0
38.906,-0.14,-0.326,0.0
30.154,-0.106,-0.411,1.0
27.096,-0.093,-0.509,2.0
24.25,-0.081,-0.581,2.0
61.477,-0.198,0.244,15.0
45.533,-0.143,-0.054,20.0
39.076,-0.118,-0.247,7.0
32.153,-0.094,-0.372,2.0
28.456,-0.081,-0.476,2.0
25.46,-0.069,-0.557,1.0
76.481,-0.2,0.461,16.0
51.651,-0.13,0.045,6.0
40.343,-0.097,-0.172,15.0
34.062,-0.079,-0.324,1.0
29.661,-0.065,-0.435,2.0
26.588,-0.055,-0.527,2.0
79.402,-0.157,0.643,150.0
56.133,-0.105,0.164,14.0
42.681,-0.075,-0.095,17.0
38.693,-0.064,-0.289,4.0
31.172,-0.048,-0.393,1.0
27.769,-0.039,-0.494,1.0
79.47,-0.103,0.805,151.0
76.106,-0.09,0.379,15.0
0.0,0.0,0.0,0.0
39.395,-0.037,-0.214,15.0
33.203,-0.027,-0.352,1.0
29.14,-0.02,-0.459,2.0
79.457,-0.047,0.967,152.0
79.189,-0.037,0.554,14.0
0.0,0.0,0.0,0.0
40.898,-0.009,-0.139,17.0
38.2,-0.003,-0.327,4.0
30.262,0.0,-0.416,2.0
79.46,0.012,1.126,151.0
79.472,0.022,0.716,154.0
0.0,0.0,0.0,0.0
45.039,0.024,-0.064,22.0
38.731,0.026,-0.255,14.0
32.061,0.025,-0.376,1.0
79.452,0.073,1.284,159.0
79.466,0.084,0.874,152.0
76.09,0.091,0.444,19.0
47.935,0.064,0.027,18.0
39.592,0.058,-0.182,41.0
33.616,0.054,-0.328,0.0
79.457,0.139,1.444,151.0
79.461,0.15,1.033,153.0
79.457,0.162,0.622,82.0
55.094,0.12,0.141,28.0
43.781,0.102,-0.114,8.0
38.126,0.094,-0.296,5.0
79.456,0.207,1.601,151.0
79.468,0.218,1.189,162.0
79.463,0.23,0.777,150.0
59.221,0.18,0.267,7.0
46.769,0.149,-0.03,24.0
38.763,0.129,-0.226,27.0
79.448,0.277,1.756,150.0
79.468,0.29,1.345,166.0
79.454,0.302,0.933,150.0
76.657,0.303,0.494,56.0
54.333,0.223,0.068,28.0
39.835,0.169,-0.155,27.0
59.29,0.261,1.425,111.0
59.289,0.271,1.118,111.0
59.295,0.28,0.811,119.0
59.295,0.29,0.497,115.0
55.015,0.278,0.176,58.0
0.0,0.0,0.0,0.0
48.182,0.258,1.251,57.0
48.177,0.266,1.001,55.0
48.17,0.274,0.751,47.0
48.203,0.282,0.496,48.0
55.05,0.332,0.282,6.0
47.461,0.294,-0.003,43.0
48.143,0.306,1.342,107.0
48.129,0.314,1.092,96.0
48.121,0.322,0.842,88.0
48.101,0.33,0.586,59.0
48.101,0.338,0.336,51.0
48.047,0.346,0.086,48.0
48.142,0.355,1.433,126.0
48.107,0.363,1.182,109.0
48.101,0.371,0.931,112.0
48.067,0.38,0.676,111.0
48.059,0.388,0.426,94.0
48.042,0.397,0.176,90.0
48.124,0.405,1.522,114.0
48.128,0.414,1.271,118.0
48.099,0.422,1.02,107.0
48.077,0.43,0.764,110.0
48.069,0.439,0.514,97.0
48.04,0.448,0.263,102.0
48.136,0.457,1.611,98.0
48.127,0.466,1.36,96.0
48.118,0.474,1.108,99.0
48.099,0.484,0.852,97.0
48.09,0.492,0.601,99.0
48.068,0.501,0.351,91.0
48.198,0.511,1.7,59.0
48.179,0.519,1.447,68.0
48.162,0.529,1.196,65.0
48.138,0.538,0.939,74.0
48.116,0.547,0.688,80.0
48.095,0.556,0.437,85.0
55.019,0.646,2.039,128.0
55.01,0.656,1.751,109.0
55.02,0.667,1.464,97.0
55.063,0.678,1.171,72.0
48.252,0.604,0.774,18.0
48.233,0.613,0.522,7.0
55.024,0.709,2.135,115.0
55.019,0.72,1.847,109.0
55.066,0.731,1.56,57.0
100.086,1.35,2.304,14.0
189.494,2.595,3.369,22.0
126.302,1.755,1.585,21.0
55.047,0.775,2.231,111.0
55.098,0.787,1.945,62.0
132.964,1.927,3.998,21.0
176.426,2.592,4.363,26.0
190.045,2.832,3.704,31.0
126.716,1.914,1.806,37.0
55.095,0.843,2.328,54.0
163.021,2.529,6.036,15.0
132.921,2.089,4.223,33.0
159.851,2.547,4.225,16.0
190.094,3.068,4.026,21.0
127.42,2.084,2.031,28.0
130.387,2.158,5.731,30.0
174.313,2.921,6.743,7.0
132.698,2.252,4.437,23.0
159.927,2.748,4.492,16.0
180.895,3.146,4.129,4.0
128.061,2.256,2.252,23.0
129.456,2.307,5.904,20.0
130.667,2.356,5.272,8.0
128.16,2.339,4.496,9.0
128.113,2.366,3.808,19.0
128.078,2.394,3.134,25.0
128.048,2.422,2.462,32.0
128.33,2.455,6.063,14.0
127.922,2.475,5.37,17.0
127.972,2.505,4.699,34.0
127.997,2.534,4.014,45.0
128.033,2.563,3.341,48.0
128.074,2.593,2.668,50.0
130.455,2.67,6.375,6.0
127.749,2.643,5.569,29.0
128.025,2.677,4.905,38.0
128.09,2.707,4.219,39.0
128.153,2.738,3.546,22.0
128.177,2.768,2.873,9.0
125.68,2.742,6.339,26.0
127.657,2.814,5.765,26.0
152.444,3.396,6.08,20.0
152.625,3.434,5.266,35.0
159.379,3.623,4.657,29.0
169.956,3.902,4.069,4.0
55.432,1.285,2.882,7.0
127.557,2.988,5.957,23.0
130.573,3.088,5.406,22.0
152.642,3.646,5.498,42.0
158.538,3.825,4.874,18.0
146.458,3.568,3.73,11.0
55.446,1.363,2.966,5.0
122.632,3.045,5.912,33.0
152.709,3.827,6.552,29.0
152.27,3.852,5.711,43.0
158.863,4.057,5.119,14.0
138.069,3.558,3.718,15.0
122.319,3.183,6.726,17.0
122.438,3.215,6.082,38.0
130.125,3.448,5.774,25.0
152.072,4.064,5.927,45.0
152.513,4.113,5.136,31.0
154.022,4.191,4.37,40.0
126.02,3.461,7.112,22.0
122.64,3.397,6.27,42.0
151.829,4.241,6.953,16.0
151.984,4.282,6.139,33.0
152.083,4.321,5.336,41.0
153.978,4.413,4.586,32.0
124.289,3.595,7.191,39.0
122.902,3.583,6.455,34.0
123.097,3.619,5.81,30.0
151.925,4.502,6.348,41.0
152.13,4.544,5.546,37.0
152.906,4.606,4.763,11.0
73.902,2.246,4.377,22.0
122.958,3.766,6.625,22.0
133.76,4.13,6.495,28.0
151.93,4.728,6.553,23.0
152.173,4.775,5.755,41.0
152.661,4.827,4.961,15.0
73.987,2.36,4.481,30.0
74.034,2.379,4.089,29.0
133.836,4.333,6.677,25.0
152.362,4.971,6.772,22.0
152.545,5.015,5.967,31.0
153.28,5.078,5.18,7.0
64.972,2.171,4.02,16.0
73.847,2.485,4.174,34.0
124.835,4.233,6.389,31.0
124.054,4.236,5.673,26.0
152.758,5.255,6.171,25.0
152.708,5.289,5.352,39.0
73.363,2.563,4.632,23.0
73.643,2.59,4.254,51.0
73.809,2.614,3.869,35.0
124.099,4.427,5.829,28.0
152.818,5.488,6.359,25.0
152.719,5.522,5.538,35.0
73.238,2.67,4.714,15.0
64.845,2.38,3.825,10.0
73.667,2.722,3.95,48.0
133.605,4.97,6.435,17.0
124.149,4.65,5.315,24.0
152.722,5.758,5.719,20.0
73.44,2.791,4.814,28.0
73.345,2.806,4.413,13.0
73.505,2.831,4.027,49.0
124.263,4.816,6.129,20.0
124.767,4.866,5.483,16.0
157.996,6.201,6.097,14.0
65.072,2.575,4.34,16.0
65.261,2.598,4.0,22.0
73.362,2.938,4.102,50.0
123.732,4.986,6.24,29.0
124.333,5.042,5.602,41.0
124.268,5.071,4.933,15.0
73.561,3.027,4.988,33.0
73.308,3.034,4.575,31.0
73.52,3.061,4.192,51.0
123.088,5.157,6.343,27.0
124.888,5.264,5.764,21.0
124.235,5.267,5.066,41.0
73.388,3.136,5.055,37.0
73.299,3.151,4.653,32.0
73.613,3.182,4.275,20.0
73.239,3.184,3.851,9.0
129.923,5.683,6.131,10.0
124.291,5.467,5.196,36.0
64.937,2.879,4.54,9.0
65.294,2.911,4.212,7.0
73.278,3.285,4.331,18.0
123.124,5.55,6.599,26.0
129.684,5.88,6.25,19.0
129.581,5.908,5.546,22.0
74.023,3.402,5.25,15.0
65.359,3.019,4.28,6.0
73.405,3.409,4.41,47.0
123.222,5.754,6.724,37.0
132.633,6.227,6.52,16.0
129.491,6.111,5.665,33.0
73.927,3.516,5.313,14.0
149.679,7.155,9.944,34.0
73.563,3.534,4.488,6.0
123.417,5.96,6.848,21.0
129.587,6.29,6.487,11.0
132.315,6.456,5.908,12.0
73.805,3.629,5.372,27.0
149.698,7.398,10.08,27.0
127.13,6.313,7.87,11.0
73.38,3.663,4.137,7.0
132.556,6.65,6.754,25.0
132.176,6.663,6.017,27.0
123.865,6.293,9.124,30.0
124.556,6.358,8.495,27.0
150.37,7.711,9.437,10.0
73.34,3.779,4.196,33.0
33.45,1.732,1.732,0.0
160.27,8.339,7.429,12.0
124.698,6.539,9.289,33.0
124.661,6.566,8.606,36.0
128.375,6.794,8.161,22.0
128.308,6.822,7.445,16.0
33.455,1.787,1.759,2.0
162.424,8.716,7.658,28.0
71.871,3.886,5.41,9.0
71.789,3.898,5.012,18.0
154.703,8.44,9.956,24.0
127.123,6.967,7.473,35.0
33.4,1.838,1.781,0.0
33.485,1.851,1.603,4.0
78.349,4.365,5.957,11.0
71.83,4.019,5.068,43.0
127.843,7.185,8.321,25.0
127.654,7.205,7.598,30.0
127.252,7.213,6.88,27.0
33.436,1.903,1.625,31.0
78.337,4.494,6.012,13.0
71.763,4.133,5.114,38.0
127.286,7.361,8.372,26.0
127.624,7.411,7.683,34.0
128.238,7.478,7.019,28.0
33.428,1.957,1.646,70.0
78.508,4.632,6.077,12.0
78.638,4.657,5.655,24.0
127.302,7.572,8.457,31.0
127.704,7.625,7.77,32.0
128.767,7.719,7.129,36.0
127.753,7.69,6.375,42.0
64.564,3.915,5.038,10.0
78.702,4.792,5.708,34.0
67.203,4.108,4.505,24.0
67.035,4.113,4.119,43.0
128.656,7.924,7.199,26.0
128.109,7.922,6.467,32.0
64.657,4.027,5.083,5.0
66.973,4.187,4.896,20.0
67.136,4.212,4.538,42.0
67.023,4.221,4.155,30.0
128.426,8.119,7.256,15.0
128.105,8.128,6.535,42.0
65.835,4.208,5.211,9.0
78.507,5.036,5.781,13.0
67.356,4.336,4.588,43.0
67.01,4.329,4.189,43.0
128.331,8.322,7.317,27.0
33.409,2.174,1.721,14.0
65.843,4.317,5.245,31.0
67.32,4.429,4.99,43.0
67.262,4.44,4.615,43.0
67.338,4.461,4.242,43.0
67.047,4.458,3.854,37.0
33.398,2.228,1.735,5.0
65.353,4.392,5.236,31.0
67.159,4.528,5.009,43.0
67.289,4.552,4.646,43.0
67.399,4.575,4.274,41.0
67.291,4.584,3.896,9.0
33.423,2.284,1.751,2.0
65.19,4.487,5.249,34.0
0.0,0.0,0.0,0.0
67.412,4.669,4.681,32.0
67.544,4.694,4.31,39.0
172.864,12.053,10.075,12.0
33.403,2.337,1.762,1.0
64.988,4.578,5.257,41.0
65.408,4.622,4.928,9.0
70.968,5.03,4.953,10.0
70.841,5.037,4.545,46.0
157.5,11.235,9.233,21.0
157.484,11.271,8.36,18.0
63.911,4.605,5.191,40.0
65.011,4.698,4.919,42.0
70.788,5.131,4.963,30.0
70.835,5.15,4.565,26.0
157.08,11.457,9.254,21.0
157.074,11.493,8.385,10.0
63.507,4.678,5.176,39.0
64.801,4.787,4.92,41.0
70.794,5.245,4.982,26.0
70.886,5.267,4.588,48.0
133.19,9.926,7.881,13.0
133.104,9.95,7.137,9.0
63.369,4.769,5.18,35.0
64.685,4.881,4.927,40.0
67.697,5.122,4.779,28.0
70.824,5.374,4.599,18.0
131.088,9.977,7.784,12.0
130.901,9.99,7.046,9.0
63.465,4.876,5.2,31.0
65.357,5.035,4.991,26.0
67.866,5.241,4.804,29.0
75.674,5.861,4.927,12.0
129.098,10.026,7.687,14.0
128.963,10.043,6.963,11.0
63.507,4.979,5.214,28.0
66.25,5.206,5.068,18.0
70.676,5.569,5.012,12.0
74.658,5.897,4.871,17.0
74.526,5.903,4.446,21.0
74.673,5.93,4.04,8.0
66.045,5.28,5.43,13.0
65.401,5.24,5.01,11.0
67.747,5.441,4.811,35.0
74.546,6.002,4.87,29.0
74.511,6.015,4.452,17.0
74.568,6.036,4.04,31.0
65.886,5.368,5.421,27.0
67.016,5.472,5.138,43.0
67.668,5.539,4.809,24.0
74.674,6.127,4.883,13.0
74.544,6.131,4.457,15.0
74.561,6.148,4.042,25.0
66.223,5.495,5.451,30.0
66.527,5.533,5.103,43.0
76.083,6.342,5.409,32.0
75.283,6.29,4.923,15.0
121.786,10.199,7.282,8.0
121.663,10.214,6.595,8.0
66.714,5.635,5.491,29.0
66.181,5.602,5.075,42.0
65.557,5.562,4.659,13.0
75.993,6.461,4.967,55.0
120.832,10.297,7.221,37.0
120.868,10.324,6.547,35.0
66.359,5.704,5.458,43.0
66.252,5.707,5.077,40.0
65.539,5.657,4.653,14.0
76.366,6.606,4.986,13.0
120.849,10.476,7.213,20.0
120.821,10.498,6.534,12.0
66.222,5.789,5.441,22.0
66.406,5.816,5.082,42.0
65.544,5.752,4.647,17.0
74.233,6.528,4.838,16.0
75.9,6.689,4.521,11.0
103.161,9.111,5.567,3.0
70.911,6.301,5.816,26.0
66.492,5.92,5.079,38.0
65.566,5.848,4.639,17.0
115.166,10.293,7.489,19.0
75.941,6.801,4.511,18.0
115.309,10.347,6.204,7.0
66.127,5.97,5.413,14.0
66.262,5.993,5.05,42.0
65.592,5.943,4.629,12.0
76.06,6.905,4.932,19.0
114.712,10.435,6.792,21.0
114.749,10.458,6.15,41.0
47.386,4.344,3.869,8.0
66.028,6.063,5.018,35.0
13.84,1.273,0.973,6.0
13.827,1.274,0.893,4.0
13.842,1.278,0.816,3.0
13.84,1.28,0.738,0.0
13.818,1.285,1.124,8.0
13.836,1.289,1.047,13.0
13.822,1.29,0.968,18.0
13.815,1.292,0.888,25.0
13.816,1.294,0.811,17.0
13.821,1.297,0.733,12.0
13.811,1.303,1.12,30.0
13.822,1.306,1.042,34.0
13.81,1.307,0.963,30.0
13.813,1.31,0.884,32.0
13.812,1.312,0.806,30.0
13.813,1.314,0.728,29.0
13.792,1.32,1.114,34.0
13.798,1.322,1.036,32.0
13.789,1.323,0.957,40.0
13.795,1.326,0.878,34.0
13.8,1.329,0.801,37.0
13.794,1.33,0.723,35.0
13.785,1.337,1.108,39.0
13.793,1.339,1.031,36.0
13.772,1.339,0.951,49.0
13.782,1.342,0.872,39.0
13.788,1.345,0.795,57.0
13.788,1.347,0.717,37.0
13.774,1.353,1.102,49.0
13.774,1.355,1.024,85.0
13.763,1.356,0.945,109.0
13.776,1.359,0.866,38.0
13.783,1.362,0.789,86.0
13.778,1.363,0.71,38.0
13.766,1.369,1.095,40.0
13.747,1.369,1.016,27.0
13.761,1.373,0.939,130.0
13.758,1.374,0.859,53.0
13.777,1.378,0.782,100.0
13.766,1.379,0.704,39.0
13.753,1.385,1.088,72.0
13.745,1.386,1.009,26.0
13.75,1.388,0.931,150.0
13.762,1.391,0.853,71.0
13.779,1.395,0.775,102.0
13.768,1.396,0.697,39.0
13.755,1.402,1.081,90.0
13.753,1.403,1.002,35.0
13.75,1.404,0.924,150.0
13.756,1.407,0.845,105.0
13.77,1.41,0.768,110.0
13.768,1.412,0.69,39.0
13.744,1.416,1.073,147.0
13.76,1.42,0.995,40.0
13.75,1.42,0.917,140.0
13.756,1.422,0.837,125.0
13.769,1.426,0.76,116.0
13.759,1.426,0.681,39.0
13.744,1.432,1.065,74.0
13.757,1.435,0.987,150.0
13.754,1.436,0.909,141.0
13.751,1.437,0.829,150.0
13.772,1.441,0.752,101.0
13.767,1.442,0.674,38.0
13.758,1.448,1.058,41.0
13.762,1.45,0.979,150.0
13.756,1.451,0.9,150.0
13.75,1.452,0.82,150.0
13.773,1.456,0.743,102.0
13.768,1.457,0.665,37.0
13.754,1.462,1.048,63.0
13.761,1.464,0.971,150.0
13.759,1.466,0.892,150.0
13.757,1.467,0.812,104.0
13.773,1.47,0.735,96.0
13.768,1.471,0.656,37.0
13.765,1.478,1.04,69.0
13.764,1.479,0.961,150.0
13.753,1.479,0.882,105.0
13.764,1.482,0.803,97.0
13.769,1.484,0.725,42.0
13.775,1.486,0.647,36.0
13.77,1.492,1.031,80.0
13.767,1.493,0.952,123.0
13.74,1.491,0.871,33.0
13.764,1.495,0.793,85.0
13.782,1.498,0.715,36.0
13.783,1.5,0.637,32.0
13.774,1.505,1.021,65.0
13.763,1.505,0.941,127.0
13.743,1.505,0.861,38.0
13.759,1.508,0.783,51.0
13.791,1.512,0.706,33.0
13.797,1.515,0.628,29.0
13.787,1.52,1.011,41.0
13.757,1.517,0.93,65.0
13.76,1.519,0.852,75.0
13.775,1.522,0.773,36.0
13.808,1.527,0.696,29.0
13.811,1.529,0.617,24.0
13.789,1.532,1.001,37.0
13.754,1.529,0.919,48.0
13.758,1.531,0.841,47.0
13.791,1.536,0.763,31.0
13.809,1.539,0.685,21.0
24.707,2.756,1.084,1.0
13.791,1.544,0.989,33.0
13.755,1.541,0.908,38.0
13.773,1.544,0.83,47.0
13.803,1.549,0.752,14.0
24.728,2.777,1.206,153.0
24.725,2.778,1.065,2.0
13.781,1.554,0.977,15.0
13.746,1.551,0.896,24.0
13.764,1.554,0.818,20.0
13.803,1.559,0.74,5.0
24.67,2.789,1.182,164.0
24.696,2.794,1.042,6.0
13.788,1.566,0.966,11.0
13.739,1.561,0.883,16.0
13.775,1.566,0.807,11.0
24.8,2.821,1.308,1.0
24.669,2.808,1.16,163.0
24.673,2.81,1.02,7.0
13.792,1.576,0.954,5.0
13.766,1.574,0.873,8.0
9.994,1.143,0.576,13.0
9.993,1.143,0.518,12.0
24.709,2.83,1.14,158.0
24.672,2.827,0.997,3.0
10.008,1.15,0.683,21.0
10.013,1.151,0.625,34.0
10.012,1.152,0.568,20.0
9.996,1.151,0.509,17.0
24.729,2.849,1.118,150.0
9.999,1.152,0.395,15.0
10.002,1.156,0.673,61.0
10.003,1.157,0.615,99.0
9.998,1.157,0.558,81.0
9.994,1.157,0.499,38.0
10.007,1.159,0.443,25.0
10.003,1.159,0.385,19.0
9.997,1.162,0.663,79.0
10.003,1.163,0.606,132.0
9.995,1.162,0.548,123.0
9.987,1.162,0.489,79.0
10.001,1.164,0.433,69.0
10.003,1.165,0.375,24.0
10.0,1.168,0.653,84.0
9.995,1.168,0.595,133.0
9.99,1.167,0.538,126.0
9.982,1.167,0.479,87.0
9.998,1.169,0.423,75.0
9.995,1.169,0.365,32.0
9.991,1.172,0.642,85.0
9.989,1.172,0.585,143.0
9.989,1.172,0.527,118.0
9.982,1.172,0.469,82.0
9.99,1.173,0.412,77.0
9.995,1.174,0.355,31.0
9.986,1.176,0.632,87.0
9.991,1.177,0.575,150.0
9.984,1.177,0.517,131.0
9.979,1.176,0.458,78.0
9.989,1.178,0.402,81.0
9.993,1.179,0.344,26.0
9.985,1.181,0.621,83.0
9.984,1.181,0.564,148.0
9.981,1.181,0.506,140.0
9.979,1.181,0.448,82.0
9.986,1.182,0.391,69.0
9.986,1.182,0.334,42.0
9.98,1.184,0.61,89.0
9.977,1.184,0.553,150.0
9.982,1.185,0.496,150.0
9.971,1.183,0.437,97.0
9.979,1.185,0.38,81.0
9.979,1.185,0.323,39.0
9.978,1.187,0.599,87.0
9.979,1.188,0.542,143.0
9.973,1.187,0.484,150.0
9.971,1.187,0.426,98.0
9.985,1.189,0.369,90.0
9.98,1.188,0.312,47.0
9.98,1.191,0.588,89.0
9.973,1.19,0.531,150.0
9.981,1.191,0.474,150.0
9.979,1.191,0.415,104.0
9.98,1.191,0.358,97.0
9.975,1.191,0.301,43.0
9.978,1.193,0.577,89.0
9.979,1.193,0.52,150.0
9.974,1.193,0.462,150.0
9.969,1.192,0.404,104.0
9.974,1.193,0.347,99.0
9.975,1.193,0.29,52.0
9.975,1.195,0.566,99.0
9.977,1.195,0.509,150.0
9.971,1.194,0.451,150.0
9.972,1.195,0.393,107.0
9.974,1.195,0.336,100.0
9.973,1.195,0.278,50.0
9.966,1.196,0.554,96.0
9.974,1.197,0.497,150.0
9.969,1.196,0.439,150.0
9.972,1.196,0.381,103.0
9.974,1.196,0.324,97.0
9.979,1.197,0.267,48.0
9.973,1.198,0.543,99.0
9.978,1.198,0.486,150.0
9.973,1.198,0.428,150.0
9.965,1.196,0.37,100.0
9.972,1.197,0.313,97.0
9.97,1.197,0.255,56.0
9.976,1.199,0.531,100.0
9.973,1.199,0.474,150.0
9.973,1.198,0.417,150.0
9.964,1.197,0.358,100.0
9.975,1.198,0.301,96.0
9.98,1.199,0.244,53.0
9.969,1.199,0.52,102.0
9.97,1.198,0.462,150.0
9.972,1.199,0.405,150.0
9.964,1.197,0.346,94.0
9.974,1.198,0.29,95.0
9.974,1.198,0.232,52.0
9.968,1.199,0.508,96.0
9.974,1.199,0.451,150.0
9.973,1.198,0.393,150.0
9.968,1.198,0.335,102.0
9.976,1.198,0.278,101.0
9.976,1.198,0.221,50.0
9.975,1.199,0.496,99.0
9.971,1.198,0.439,150.0
9.97,1.198,0.382,150.0
9.97,1.197,0.323,99.0
9.976,1.198,0.266,102.0
9.976,1.198,0.209,53.0
9.971,1.197,0.484,101.0
9.977,1.198,0.427,150.0
9.972,1.197,0.37,150.0
9.972,1.196,0.311,105.0
9.975,1.196,0.254,108.0
9.978,1.196,0.197,53.0
9.969,1.196,0.472,97.0
9.977,1.196,0.415,150.0
9.972,1.195,0.358,150.0
9.975,1.195,0.3,100.0
9.982,1.196,0.242,103.0
9.974,1.194,0.185,49.0
9.972,1.194,0.46,97.0
9.982,1.195,0.403,150.0
9.975,1.194,0.346,150.0
9.976,1.193,0.288,99.0
9.981,1.193,0.231,96.0
9.979,1.193,0.173,42.0
9.975,1.192,0.449,101.0
9.983,1.193,0.392,148.0
9.979,1.192,0.334,150.0
9.976,1.191,0.276,84.0
9.985,1.191,0.219,85.0
9.984,1.191,0.161,40.0
9.978,1.19,0.437,96.0
9.978,1.189,0.379,132.0
9.979,1.189,0.322,133.0
9.978,1.188,0.264,79.0
9.981,1.188,0.207,77.0
9.982,1.187,0.149,34.0
9.975,1.186,0.425,90.0
9.981,1.186,0.367,136.0
9.981,1.186,0.31,129.0
9.982,1.185,0.252,72.0
9.991,1.186,0.195,67.0
9.988,1.185,0.137,37.0
9.985,1.184,0.413,73.0
9.991,1.184,0.356,147.0
9.99,1.183,0.298,135.0
9.985,1.181,0.24,67.0
9.995,1.182,0.183,70.0
9.989,1.181,0.126,38.0
9.992,1.18,0.401,81.0
9.994,1.18,0.344,143.0
9.991,1.179,0.286,123.0
9.987,1.177,0.228,65.0
9.996,1.178,0.171,80.0
9.997,1.177,0.114,31.0
9.99,1.175,0.389,67.0
9.998,1.176,0.332,150.0
9.996,1.174,0.275,116.0
9.993,1.173,0.216,62.0
10.001,1.174,0.159,66.0
9.997,1.172,0.102,23.0
9.997,1.171,0.377,71.0
10.006,1.171,0.32,144.0
9.999,1.17,0.263,117.0
9.996,1.168,0.204,46.0
10.006,1.169,0.147,44.0
10.003,1.168,0.09,19.0
10.006,1.167,0.366,66.0
10.001,1.165,0.308,98.0
10.007,1.165,0.251,64.0
10.007,1.164,0.193,20.0
10.008,1.163,0.135,18.0
10.008,1.163,0.078,16.0
24.693,2.865,0.875,29.0
10.012,1.16,0.297,29.0
24.633,2.853,0.59,1.0
24.646,2.852,0.446,3.0
24.732,2.86,0.307,3.0
24.886,2.876,0.166,4.0
24.723,2.853,0.846,150.0
24.674,2.844,0.703,4.0
24.649,2.839,0.561,9.0
24.639,2.835,0.417,12.0
24.818,2.853,0.278,4.0
24.879,2.858,0.137,10.0
24.693,2.832,0.816,9.0
24.654,2.825,0.673,12.0
24.647,2.821,0.532,17.0
24.648,2.819,0.389,21.0
24.847,2.839,0.25,10.0
24.861,2.838,0.107,20.0
24.67,2.811,0.787,11.0
24.649,2.806,0.645,26.0
24.671,2.805,0.504,41.0
24.638,2.799,0.36,30.0
24.861,2.822,0.221,29.0
24.874,2.821,0.079,21.0
24.672,2.792,0.758,35.0
24.66,2.788,0.617,40.0
24.651,2.784,0.475,29.0
24.64,2.78,0.332,27.0
24.907,2.807,0.193,31.0
24.893,2.803,0.051,19.0
24.648,2.769,0.73,29.0
24.639,2.765,0.588,16.0
24.649,2.763,0.447,10.0
24.761,2.773,0.306,8.0
24.884,2.784,0.165,10.0
13.859,1.549,0.013,11.0
24.654,2.749,0.702,8.0
13.828,1.54,0.315,15.0
13.811,1.536,0.235,16.0
13.815,1.535,0.155,12.0
13.832,1.535,0.076,12.0
13.835,1.534,-0.002,20.0
13.822,1.528,0.378,23.0
13.806,1.525,0.299,25.0
13.791,1.521,0.219,23.0
13.792,1.519,0.139,22.0
13.799,1.518,0.061,21.0
13.821,1.519,-0.017,24.0
13.805,1.513,0.362,33.0
13.792,1.51,0.283,35.0
13.794,1.508,0.204,33.0
13.801,1.507,0.124,31.0
13.804,1.506,0.046,31.0
13.802,1.504,-0.032,27.0
13.802,1.499,0.347,38.0
13.792,1.496,0.268,39.0
13.79,1.494,0.19,39.0
13.786,1.492,0.109,34.0
13.796,1.491,0.031,36.0
13.782,1.488,-0.047,28.0
13.796,1.484,0.332,37.0
13.778,1.48,0.253,49.0
13.778,1.478,0.175,39.0
13.78,1.477,0.095,36.0
13.78,1.475,0.016,35.0
13.78,1.473,-0.061,32.0
13.782,1.468,0.318,38.0
13.776,1.466,0.239,94.0
13.777,1.463,0.16,39.0
13.778,1.461,0.081,39.0
13.783,1.46,0.002,38.0
13.768,1.456,-0.076,34.0
13.78,1.453,0.303,39.0
13.77,1.45,0.225,84.0
13.776,1.448,0.146,99.0
13.772,1.445,0.066,38.0
13.781,1.444,-0.011,38.0
13.767,1.441,-0.09,35.0
13.764,1.435,0.289,40.0
13.773,1.434,0.211,114.0
13.771,1.431,0.132,106.0
13.777,1.43,0.053,42.0
13.772,1.427,-0.025,38.0
13.759,1.424,-0.103,36.0
13.763,1.419,0.275,72.0
13.772,1.417,0.197,139.0
13.782,1.416,0.119,126.0
13.778,1.413,0.039,60.0
13.775,1.411,-0.038,39.0
13.763,1.407,-0.117,36.0
13.766,1.402,0.262,63.0
13.773,1.4,0.184,141.0
13.78,1.399,0.105,150.0
13.78,1.396,0.026,55.0
13.779,1.394,-0.052,37.0
13.762,1.39,-0.13,34.0
13.777,1.386,0.249,40.0
13.777,1.383,0.171,126.0
13.782,1.381,0.092,150.0
13.781,1.379,0.013,59.0
13.782,1.377,-0.065,38.0
13.778,1.374,-0.143,34.0
13.778,1.368,0.236,41.0
13.788,1.366,0.158,93.0
13.792,1.364,0.08,147.0
13.785,1.361,0.0,38.0
13.785,1.359,-0.077,38.0
13.784,1.356,-0.156,33.0
13.797,1.352,0.224,39.0
13.806,1.35,0.146,113.0
13.8,1.346,0.067,111.0
13.8,1.344,-0.011,37.0
13.8,1.341,-0.09,37.0
13.794,1.338,-0.168,33.0
13.809,1.334,0.212,37.0
13.819,1.332,0.134,95.0
13.803,1.327,0.055,64.0
13.811,1.326,-0.024,35.0
13.805,1.322,-0.102,33.0
13.807,1.32,-0.18,34.0
13.827,1.316,0.2,34.0
13.828,1.313,0.122,39.0
13.823,1.31,0.043,36.0
13.824,1.307,-0.036,31.0
13.829,1.305,-0.114,31.0
13.829,1.302,-0.192,31.0
13.844,1.297,0.189,28.0
13.853,1.295,0.11,28.0
13.841,1.291,0.032,29.0
13.835,1.288,-0.047,24.0
13.849,1.286,-0.125,25.0
13.848,1.283,-0.204,29.0
33.54,3.093,0.43,3.0
13.86,1.275,0.099,9.0
13.878,1.274,0.021,13.0
13.87,1.27,-0.058,17.0
13.861,1.266,-0.136,22.0
13.866,1.264,-0.215,24.0
75.15,6.818,0.906,4.0
0.0,0.0,0.0,0.0
41.355,3.734,0.031,16.0
35.393,3.188,-0.176,12.0
13.903,1.249,-0.148,10.0
13.894,1.245,-0.226,10.0
74.672,6.658,0.843,10.0
54.383,4.837,0.307,29.0
41.255,3.66,0.0,44.0
35.012,3.098,-0.201,12.0
30.741,2.713,-0.35,1.0
23.003,2.026,-0.392,5.0
74.342,6.51,0.784,12.0
54.238,4.737,0.267,28.0
41.118,3.582,-0.029,16.0
34.676,3.013,-0.224,11.0
30.372,2.632,-0.367,1.0
22.67,1.96,-0.402,4.0
66.072,5.68,0.651,10.0
54.007,4.629,0.227,17.0
40.954,3.501,-0.057,28.0
34.821,2.969,-0.248,10.0
30.079,2.558,-0.384,2.0
22.241,1.886,-0.409,4.0
65.488,5.521,0.601,14.0
0.0,0.0,0.0,0.0
40.924,3.431,-0.084,6.0
34.824,2.911,-0.271,9.0
29.65,2.472,-0.398,1.0
21.995,1.829,-0.419,4.0
65.378,5.403,0.558,13.0
0.0,0.0,0.0,0.0
0.0,0.0,0.0,0.0
34.583,2.833,-0.291,2.0
29.339,2.396,-0.412,1.0
21.694,1.767,-0.427,4.0
58.765,4.755,0.466,32.0
48.009,3.873,0.111,13.0
0.0,0.0,0.0,0.0
34.687,2.781,-0.313,7.0
24.992,1.998,-0.366,1.0
21.322,1.7,-0.432,4.0
58.052,4.598,0.426,33.0
42.259,3.336,0.073,15.0
36.068,2.838,-0.139,40.0
34.869,2.735,-0.334,1.0
24.951,1.951,-0.379,4.0
21.153,1.649,-0.44,4.0
57.616,4.462,0.392,33.0
42.075,3.248,0.05,17.0
35.81,2.755,-0.157,40.0
32.042,2.457,-0.324,1.0
24.694,1.888,-0.388,5.0
21.009,1.601,-0.448,4.0
0.0,0.0,0.0,0.0
41.914,3.161,0.029,26.0
35.612,2.677,-0.174,35.0
31.567,2.365,-0.334,1.0
24.435,1.824,-0.396,5.0
20.853,1.552,-0.454,4.0
55.18,4.078,0.321,18.0
41.626,3.065,0.009,41.0
35.506,2.605,-0.19,30.0
31.169,2.279,-0.344,1.0
23.938,1.744,-0.398,5.0
20.695,1.503,-0.46,4.0
54.952,3.962,0.295,29.0
41.467,2.979,-0.008,47.0
35.061,2.509,-0.203,11.0
30.855,2.2,-0.354,1.0
23.681,1.682,-0.404,5.0
20.571,1.456,-0.466,4.0
54.641,3.839,0.271,30.0
41.238,2.886,-0.025,47.0
35.346,2.464,-0.219,19.0
30.576,2.123,-0.363,1.0
23.458,1.623,-0.409,5.0
20.486,1.412,-0.472,3.0
54.367,3.718,0.249,29.0
41.491,2.826,-0.04,19.0
35.218,2.389,-0.231,13.0
30.348,2.05,-0.371,2.0
23.262,1.565,-0.414,5.0
20.333,1.363,-0.475,3.0
54.388,3.617,0.231,29.0
39.094,2.589,-0.051,1.0
35.148,2.318,-0.242,8.0
30.234,1.986,-0.38,2.0
23.052,1.508,-0.418,5.0
20.266,1.32,-0.48,3.0
54.347,3.512,0.214,20.0
40.189,2.586,-0.065,45.0
0.0,0.0,0.0,0.0
30.056,1.917,-0.386,2.0
22.919,1.455,-0.422,4.0
20.119,1.272,-0.482,3.0
33.463,2.099,0.123,125.0
33.32,2.08,-0.062,1.0
33.455,2.079,-0.248,21.0
29.923,1.851,-0.392,1.0
22.822,1.405,-0.426,4.0
20.065,1.23,-0.486,3.0
54.398,3.307,0.187,10.0
40.272,2.436,-0.084,41.0
35.276,2.124,-0.27,9.0
29.767,1.783,-0.396,1.0
22.66,1.351,-0.427,4.0
20.099,1.193,-0.491,3.0
54.262,3.192,0.176,8.0
40.362,2.363,-0.093,36.0
35.323,2.057,-0.277,8.0
29.687,1.721,-0.4,2.0
22.589,1.303,-0.43,4.0
19.962,1.145,-0.491,3.0
0.0,0.0,0.0,0.0
40.211,2.275,-0.098,5.0
35.363,1.99,-0.283,10.0
29.629,1.658,-0.404,2.0
22.601,1.259,-0.433,4.0
19.978,1.107,-0.494,3.0
0.0,0.0,0.0,0.0
40.353,2.203,-0.104,29.0
35.42,1.923,-0.287,9.0
29.566,1.596,-0.406,2.0
22.492,1.208,-0.433,4.0
19.995,1.068,-0.496,3.0
0.0,0.0,0.0,0.0
40.267,2.118,-0.107,33.0
35.472,1.855,-0.29,7.0
29.556,1.536,-0.408,2.0
22.579,1.167,-0.436,4.0
19.94,1.024,-0.495,3.0
48.323,2.459,0.136,25.0
40.341,2.04,-0.109,31.0
33.734,1.696,-0.277,2.0
29.583,1.478,-0.409,2.0
22.652,1.125,-0.438,4.0
20.008,0.988,-0.497,3.0
48.713,2.381,0.136,24.0
40.157,1.951,-0.108,37.0
35.588,1.718,-0.292,7.0
29.543,1.417,-0.408,2.0
22.789,1.086,-0.441,4.0
20.165,0.955,-0.501,3.0
54.114,2.536,0.153,6.0
40.376,1.879,-0.108,36.0
35.641,1.648,-0.291,7.0
29.617,1.36,-0.408,2.0
22.9,1.045,-0.442,4.0
20.153,0.913,-0.5,3.0
54.141,2.427,0.156,6.0
40.165,1.788,-0.104,51.0
35.72,1.579,-0.289,7.0
29.68,1.302,-0.406,2.0
23.059,1.005,-0.443,5.0
20.258,0.876,-0.5,3.0
54.149,2.316,0.162,19.0
40.283,1.711,-0.1,43.0
35.817,1.51,-0.286,7.0
29.749,1.244,-0.404,2.0
23.266,0.966,-0.444,5.0
20.401,0.84,-0.501,3.0
54.288,2.211,0.169,22.0
40.235,1.625,-0.094,41.0
35.884,1.438,-0.281,7.0
29.958,1.191,-0.402,2.0
23.518,0.927,-0.444,5.0
20.437,0.799,-0.498,3.0
54.292,2.099,0.179,28.0
40.305,1.545,-0.087,31.0
36.003,1.369,-0.275,8.0
30.041,1.133,-0.397,2.0
23.817,0.89,-0.445,5.0
20.544,0.761,-0.497,4.0
54.306,1.989,0.191,29.0
40.874,1.483,-0.079,17.0
36.088,1.298,-0.267,8.0
30.242,1.078,-0.393,2.0
24.05,0.849,-0.444,5.0
20.743,0.726,-0.496,4.0
54.609,1.886,0.206,29.0
40.112,1.373,-0.067,15.0
36.222,1.228,-0.259,10.0
30.356,1.019,-0.386,2.0
24.039,0.799,-0.437,3.0
20.816,0.685,-0.492,4.0
54.853,1.781,0.223,29.0
40.482,1.301,-0.056,15.0
36.408,1.159,-0.249,12.0
30.611,0.964,-0.38,2.0
24.161,0.753,-0.431,0.0
20.977,0.647,-0.489,4.0
58.751,1.786,0.258,11.0
40.976,1.232,-0.043,16.0
36.629,1.09,-0.238,17.0
31.02,0.913,-0.374,2.0
27.5,0.8,-0.481,1.0
21.186,0.609,-0.486,4.0
0.0,0.0,0.0,0.0
42.963,1.204,-0.029,17.0
36.813,1.019,-0.225,25.0
31.298,0.856,-0.365,2.0
27.63,0.746,-0.472,1.0
21.519,0.574,-0.485,4.0
59.562,1.565,0.307,35.0
0.0,0.0,0.0,0.0
37.033,0.948,-0.211,34.0
31.729,0.802,-0.356,1.0
27.992,0.698,-0.466,1.0
21.609,0.532,-0.478,4.0
60.748,1.469,0.341,36.0
46.768,1.115,0.008,23.0
37.384,0.879,-0.196,51.0
32.235,0.748,-0.347,1.0
28.389,0.649,-0.46,1.0
21.915,0.494,-0.474,4.0
61.394,1.358,0.374,24.0
47.454,1.034,0.031,22.0
37.791,0.811,-0.179,55.0
32.757,0.692,-0.336,1.0
28.722,0.597,-0.45,1.0
22.43,0.459,-0.473,4.0
74.728,1.499,0.494,13.0
47.772,0.942,0.057,21.0
38.284,0.742,-0.161,32.0
33.303,0.635,-0.324,1.0
29.109,0.545,-0.44,2.0
22.508,0.414,-0.462,1.0
74.9,1.349,0.537,15.0
52.528,0.928,0.092,7.0
38.808,0.673,-0.141,50.0
36.935,0.628,-0.338,0.0
29.441,0.491,-0.428,2.0
26.361,0.431,-0.526,1.0
0.0,0.0,0.0,0.0
48.009,0.75,0.113,23.0
39.266,0.6,-0.119,42.0
37.006,0.553,-0.315,2.0
29.853,0.436,-0.416,2.0
26.602,0.38,-0.514,2.0
77.801,1.082,0.654,52.0
48.035,0.653,0.144,66.0
39.707,0.526,-0.094,15.0
37.199,0.481,-0.293,5.0
30.249,0.381,-0.401,2.0
26.875,0.33,-0.501,2.0
48.096,0.572,0.436,86.0
48.032,0.556,0.176,86.0
43.99,0.494,-0.075,18.0
37.402,0.408,-0.269,9.0
30.649,0.324,-0.385,2.0
27.218,0.279,-0.489,1.0
48.072,0.475,0.469,101.0
48.026,0.459,0.21,102.0
44.547,0.411,-0.044,19.0
37.806,0.336,-0.244,13.0
31.353,0.268,-0.371,1.0
27.632,0.227,-0.476,1.0
48.093,0.379,0.505,96.0
48.11,0.363,0.247,46.0
0.0,0.0,0.0,0.0
38.254,0.263,-0.218,16.0
31.939,0.209,-0.354,1.0
28.318,0.176,-0.466,2.0
59.307,0.348,0.669,11.0
55.086,0.306,0.325,30.0
47.351,0.247,0.026,33.0
38.742,0.189,-0.19,37.0
33.026,0.151,-0.339,1.0
28.798,0.122,-0.45,2.0
79.471,0.31,0.96,151.0
76.337,0.273,0.513,41.0
48.008,0.157,0.065,20.0
39.364,0.115,-0.161,40.0
33.602,0.087,-0.317,1.0
29.335,0.066,-0.434,2.0
79.47,0.154,1.027,151.0
79.429,0.128,0.601,13.0
0.0,0.0,0.0,0.0
40.482,0.039,-0.13,17.0
37.605,0.024,-0.322,1.0
29.812,0.009,-0.415,2.0
79.459,0.0,1.097,151.0
79.382,-0.026,0.671,110.0
56.024,-0.037,0.174,28.0
0.0,0.0,0.0,0.0
38.519,-0.05,-0.295,3.0
30.312,-0.049,-0.394,1.0
79.455,-0.156,1.17,151.0
79.453,-0.18,0.745,150.0
61.592,-0.159,0.248,14.0
0.0,0.0,0.0,0.0
39.095,-0.127,-0.263,4.0
31.155,-0.111,-0.376,1.0
79.446,-0.308,1.245,157.0
79.465,-0.333,0.821,164.0
76.579,-0.346,0.383,6.0
46.919,-0.227,-0.02,21.0
39.894,-0.206,-0.229,4.0
32.347,-0.177,-0.358,1.0
79.449,-0.46,1.323,163.0
79.444,-0.485,0.9,194.0
76.963,-0.493,0.461,13.0
52.596,-0.354,0.029,3.0
43.983,-0.31,-0.209,6.0
33.514,-0.246,-0.338,1.0
79.443,-0.608,1.403,171.0
79.451,-0.633,0.98,192.0
0.0,0.0,0.0,0.0
52.891,-0.455,0.084,2.0
50.65,-0.452,-0.188,3.0
38.502,-0.356,-0.348,0.0
79.443,-0.757,1.486,181.0
79.447,-0.783,1.064,179.0
79.409,-0.807,0.641,150.0
60.477,-0.633,0.16,6.0
53.542,-0.577,-0.142,3.0
0.0,0.0,0.0,0.0
79.44,-0.904,1.572,164.0
79.439,-0.929,1.15,176.0
80.026,-0.96,0.733,6.0
69.858,-0.86,0.262,2.0
54.44,-0.687,-0.084,2.0
42.112,-0.544,-0.289,2.0
86.94,-1.147,1.815,105.0
183.446,-2.478,2.858,55.0
123.451,-1.706,1.269,11.0
81.626,-1.151,0.397,1.0
55.215,-0.796,-0.023,0.0
0.0,0.0,0.0,0.0
261.966,-3.928,5.769,15.0
205.449,-3.144,3.436,20.0
123.93,-1.934,1.415,9.0
40.329,-0.642,0.243,2.0
40.318,-0.653,0.029,29.0
40.326,-0.666,-0.184,28.0
40.244,-0.675,0.933,9.0
40.182,-0.686,0.719,8.0
40.282,-0.7,0.507,2.0
40.237,-0.711,0.29,54.0
40.272,-0.724,0.077,66.0
40.323,-0.737,-0.135,49.0
40.246,-0.746,0.981,52.0
40.19,-0.757,0.767,46.0
40.242,-0.77,0.555,51.0
40.244,-0.782,0.338,48.0
40.281,-0.794,0.126,0.0
56.439,-1.129,-0.121,0.0
40.235,-0.815,1.03,55.0
40.205,-0.826,0.817,55.0
40.239,-0.839,0.605,51.0
40.284,-0.852,0.389,1.0
0.0,0.0,0.0,0.0
40.327,-0.877,-0.035,0.0
40.223,-0.884,1.081,62.0
40.191,-0.895,0.867,58.0
40.297,-0.909,0.657,38.0
40.305,-0.92,0.44,102.0
40.3,-0.932,0.227,150.0
40.31,-0.944,0.015,150.0
40.22,-0.951,1.132,56.0
40.19,-0.962,0.919,55.0
40.203,-0.974,0.707,68.0
40.21,-0.985,0.491,57.0
40.217,-0.996,0.279,37.0
66.464,-1.665,0.111,2.0
40.243,-1.018,1.184,44.0
40.192,-1.028,0.971,56.0
40.198,-1.039,0.759,45.0
40.219,-1.051,0.544,51.0
40.193,-1.062,0.332,59.0
40.192,-1.073,0.12,39.0
40.275,-1.084,1.239,26.0
40.219,-1.093,1.025,43.0
40.276,-1.106,0.815,0.0
0.0,0.0,0.0,0.0
40.234,-1.127,0.386,28.0
40.212,-1.138,0.175,40.0
0.0,0.0,0.0,0.0
40.293,-1.159,1.082,32.0
40.342,-1.172,0.871,23.0
154.034,-4.516,2.501,150.0
0.0,0.0,0.0,0.0
0.0,0.0,0.0,0.0
0.0,0.0,0.0,0.0
40.33,-1.223,1.139,15.0
40.319,-1.234,0.926,25.0
40.338,-1.245,0.711,29.0
40.361,-1.256,0.499,9.0
0.0,0.0,0.0,0.0
0.0,0.0,0.0,0.0
0.0,0.0,0.0,0.0
0.0,0.0,0.0,0.0
0.0,0.0,0.0,0.0
0.0,0.0,0.0,0.0
0.0,0.0,0.0,0.0
0.0,0.0,0.0,0.0
0.0,0.0,0.0,0.0
0.0,0.0,0.0,0.0
0.0,0.0,0.0,0.0
0.0,0.0,0.0,0.0
0.0,0.0,0.0,0.0
0.0,0.0,0.0,0.0
0.0,0.0,0.0,0.0
0.0,0.0,0.0,0.0
0.0,0.0,0.0,0.0
0.0,0.0,0.0,0.0
0.0,0.0,0.0,0.0
0.0,0.0,0.0,0.0
0.0,0.0,0.0,0.0
0.0,0.0,0.0,0.0
0.0,0.0,0.0,0.0
0.0,0.0,0.0,0.0
0.0,0.0,0.0,0.0
0.0,0.0,0.0,0.0
0.0,0.0,0.0,0.0
0.0,0.0,0.0,0.0
0.0,0.0,0.0,0.0
0.0,0.0,0.0,0.0
173.12,-6.694,2.509,11.0
0.0,0.0,0.0,0.0
0.0,0.0,0.0,0.0
0.0,0.0,0.0,0.0
0.0,0.0,0.0,0.0
0.0,0.0,0.0,0.0
172.971,-6.919,2.768,56.0
0.0,0.0,0.0,0.0
0.0,0.0,0.0,0.0
0.0,0.0,0.0,0.0
0.0,0.0,0.0,0.0
173.111,-7.15,3.037,67.0
0.0,0.0,0.0,0.0
0.0,0.0,0.0,0.0
0.0,0.0,0.0,0.0
0.0,0.0,0.0,0.0
0.0,0.0,0.0,0.0
173.264,-7.376,3.307,19.0
0.0,0.0,0.0,0.0
0.0,0.0,0.0,0.0
0.0,0.0,0.0,0.0
0.0,0.0,0.0,0.0
0.0,0.0,0.0,0.0
0.0,0.0,0.0,0.0
0.0,0.0,0.0,0.0
0.0,0.0,0.0,0.0
0.0,0.0,0.0,0.0
0.0,0.0,0.0,0.0
0.0,0.0,0.0,0.0
0.0,0.0,0.0,0.0
0.0,0.0,0.0,0.0
0.0,0.0,0.0,0.0
0.0,0.0,0.0,0.0
0.0,0.0,0.0,0.0
0.0,0.0,0.0,0.0
0.0,0.0,0.0,0.0
0.0,0.0,0.0,0.0
0.0,0.0,0.0,0.0
0.0,0.0,0.0,0.0
0.0,0.0,0.0,0.0
0.0,0.0,0.0,0.0
0.0,0.0,0.0,0.0
0.0,0.0,0.0,0.0
0.0,0.0,0.0,0.0
0.0,0.0,0.0,0.0
0.0,0.0,0.0,0.0
0.0,0.0,0.0,0.0
0.0,0.0,0.0,0.0
0.0,0.0,0.0,0.0
0.0,0.0,0.0,0.0
0.0,0.0,0.0,0.0
0.0,0.0,0.0,0.0
0.0,0.0,0.0,0.0
0.0,0.0,0.0,0.0
0.0,0.0,0.0,0.0
0.0,0.0,0.0,0.0
0.0,0.0,0.0,0.0
0.0,0.0,0.0,0.0
0.0,0.0,0.0,0.0
0.0,0.0,0.0,0.0
0.0,0.0,0.0,0.0
0.0,0.0,0.0,0.0
0.0,0.0,0.0,0.0
0.0,0.0,0.0,0.0
0.0,0.0,0.0,0.0
0.0,0.0,0.0,0.0
0.0,0.0,0.0,0.0
0.0,0.0,0.0,0.0
0.0,0.0,0.0,0.0
0.0,0.0,0.0,0.0
0.0,0.0,0.0,0.0
0.0,0.0,0.0,0.0
278.857,-14.805,11.312,10.0
0.0,0.0,0.0,0.0
0.0,0.0,0.0,0.0
0.0,0.0,0.0,0.0
0.0,0.0,0.0,0.0
0.0,0.0,0.0,0.0
0.0,0.0,0.0,0.0
0.0,0.0,0.0,0.0
0.0,0.0,0.0,0.0
0.0,0.0,0.0,0.0
0.0,0.0,0.0,0.0
0.0,0.0,0.0,0.0
0.0,0.0,0.0,0.0
211.921,-11.631,8.199,6.0
0.0,0.0,0.0,0.0
0.0,0.0,0.0,0.0
164.848,-9.117,9.251,4.0
0.0,0.0,0.0,0.0
0.0,0.0,0.0,0.0
0.0,0.0,0.0,0.0
0.0,0.0,0.0,0.0
0.0,0.0,0.0,0.0
164.942,-9.245,9.531,5.0
0.0,0.0,0.0,0.0
211.473,-11.897,9.99,6.0
0.0,0.0,0.0,0.0
0.0,0.0,0.0,0.0
0.0,0.0,0.0,0.0
0.0,0.0,0.0,0.0
164.62,-9.359,8.912,3.0
211.643,-12.052,10.354,6.0
227.252,-12.965,9.931,12.0
0.0,0.0,0.0,0.0
0.0,0.0,0.0,0.0
0.0,0.0,0.0,0.0
163.889,-9.426,9.149,4.0
0.0,0.0,0.0,0.0
211.763,-12.216,9.609,12.0
0.0,0.0,0.0,0.0
0.0,0.0,0.0,0.0
0.0,0.0,0.0,0.0
0.0,0.0,0.0,0.0
164.751,-9.588,8.61,4.0
0.0,0.0,0.0,0.0
0.0,0.0,0.0,0.0
0.0,0.0,0.0,0.0
0.0,0.0,0.0,0.0
0.0,0.0,0.0,0.0
202.283,-11.889,10.913,5.0
0.0,0.0,0.0,0.0
0.0,0.0,0.0,0.0
0.0,0.0,0.0,0.0
0.0,0.0,0.0,0.0
163.957,-9.711,9.976,5.0
163.481,-9.694,9.093,6.0
150.227,-8.919,7.572,6.0
0.0,0.0,0.0,0.0
0.0,0.0,0.0,0.0
0.0,0.0,0.0,0.0
0.0,0.0,0.0,0.0
147.878,-8.84,8.472,5.0
164.661,-9.852,8.572,3.0
0.0,0.0,0.0,0.0
0.0,0.0,0.0,0.0
0.0,0.0,0.0,0.0
0.0,0.0,0.0,0.0
213.795,-12.875,12.601,8.0
149.371,-9.003,8.024,3.0
0.0,0.0,0.0,0.0
0.0,0.0,0.0,0.0
0.0,0.0,0.0,0.0
0.0,0.0,0.0,0.0
202.568,-12.279,12.277,7.0
147.936,-8.974,8.193,4.0
0.0,0.0,0.0,0.0
0.0,0.0,0.0,0.0
0.0,0.0,0.0,0.0
0.0,0.0,0.0,0.0
204.719,-12.482,12.745,12.0
164.283,-10.023,9.366,4.0
0.0,0.0,0.0,0.0
0.0,0.0,0.0,0.0
0.0,0.0,0.0,0.0
0.0,0.0,0.0,0.0
0.0,0.0,0.0,0.0
0.0,0.0,0.0,0.0
0.0,0.0,0.0,0.0
0.0,0.0,0.0,0.0
0.0,0.0,0.0,0.0
0.0,0.0,0.0,0.0
0.0,0.0,0.0,0.0
0.0,0.0,0.0,0.0
0.0,0.0,0.0,0.0
0.0,0.0,0.0,0.0
0.0,0.0,0.0,0.0
0.0,0.0,0.0,0.0
0.0,0.0,0.0,0.0
0.0,0.0,0.0,0.0
0.0,0.0,0.0,0.0
0.0,0.0,0.0,0.0
0.0,0.0,0.0,0.0
0.0,0.0,0.0,0.0
0.0,0.0,0.0,0.0
0.0,0.0,0.0,0.0
0.0,0.0,0.0,0.0
0.0,0.0,0.0,0.0
0.0,0.0,0.0,0.0
0.0,0.0,0.0,0.0
0.0,0.0,0.0,0.0
0.0,0.0,0.0,0.0
0.0,0.0,0.0,0.0
0.0,0.0,0.0,0.0
0.0,0.0,0.0,0.0
0.0,0.0,0.0,0.0
0.0,0.0,0.0,0.0
0.0,0.0,0.0,0.0
0.0,0.0,0.0,0.0
0.0,0.0,0.0,0.0
0.0,0.0,0.0,0.0
0.0,0.0,0.0,0.0
0.0,0.0,0.0,0.0
0.0,0.0,0.0,0.0
0.0,0.0,0.0,0.0
0.0,0.0,0.0,0.0
0.0,0.0,0.0,0.0
0.0,0.0,0.0,0.0
0.0,0.0,0.0,0.0
0.0,0.0,0.0,0.0
0.0,0.0,0.0,0.0
0.0,0.0,0.0,0.0
0.0,0.0,0.0,0.0
0.0,0.0,0.0,0.0
0.0,0.0,0.0,0.0
0.0,0.0,0.0,0.0
0.0,0.0,0.0,0.0
0.0,0.0,0.0,0.0
0.0,0.0,0.0,0.0
0.0,0.0,0.0,0.0
0.0,0.0,0.0,0.0
0.0,0.0,0.0,0.0
0.0,0.0,0.0,0.0
0.0,0.0,0.0,0.0
0.0,0.0,0.0,0.0
0.0,0.0,0.0,0.0
0.0,0.0,0.0,0.0
0.0,0.0,0.0,0.0
0.0,0.0,0.0,0.0
0.0,0.0,0.0,0.0
0.0,0.0,0.0,0.0
0.0,0.0,0.0,0.0
0.0,0.0,0.0,0.0
0.0,0.0,0.0,0.0
0.0,0.0,0.0,0.0
0.0,0.0,0.0,0.0
0.0,0.0,0.0,0.0
0.0,0.0,0.0,0.0
0.0,0.0,0.0,0.0
0.0,0.0,0.0,0.0
0.0,0.0,0.0,0.0
0.0,0.0,0.0,0.0
0.0,0.0,0.0,0.0
0.0,0.0,0.0,0.0
0.0,0.0,0.0,0.0
0.0,0.0,0.0,0.0
0.0,0.0,0.0,0.0
0.0,0.0,0.0,0.0
0.0,0.0,0.0,0.0
0.0,0.0,0.0,0.0
0.0,0.0,0.0,0.0
0.0,0.0,0.0,0.0
0.0,0.0,0.0,0.0
0.0,0.0,0.0,0.0
0.0,0.0,0.0,0.0
0.0,0.0,0.0,0.0
0.0,0.0,0.0,0.0
0.0,0.0,0.0,0.0
0.0,0.0,0.0,0.0
0.0,0.0,0.0,0.0
0.0,0.0,0.0,0.0
0.0,0.0,0.0,0.0
0.0,0.0,0.0,0.0
0.0,0.0,0.0,0.0
49.306,-3.002,5.478,3.0
0.0,0.0,0.0,0.0
0.0,0.0,0.0,0.0
0.0,0.0,0.0,0.0
0.0,0.0,0.0,0.0
0.0,0.0,0.0,0.0
49.297,-2.982,5.544,3.0
0.0,0.0,0.0,0.0
0.0,0.0,0.0,0.0
0.0,0.0,0.0,0.0
0.0,0.0,0.0,0.0
0.0,0.0,0.0,0.0
0.0,0.0,0.0,0.0
0.0,0.0,0.0,0.0
0.0,0.0,0.0,0.0
0.0,0.0,0.0,0.0
0.0,0.0,0.0,0.0
0.0,0.0,0.0,0.0
0.0,0.0,0.0,0.0
49.323,-2.935,5.408,1.0
0.0,0.0,0.0,0.0
0.0,0.0,0.0,0.0
0.0,0.0,0.0,0.0
0.0,0.0,0.0,0.0
0.0,0.0,0.0,0.0
49.321,-2.912,5.47,5.0
0.0,0.0,0.0,0.0
0.0,0.0,0.0,0.0
0.0,0.0,0.0,0.0
0.0,0.0,0.0,0.0
48.311,-2.834,5.678,5.0
49.224,-2.881,5.519,1.0
0.0,0.0,0.0,0.0
0.0,0.0,0.0,0.0
0.0,0.0,0.0,0.0
0.0,0.0,0.0,0.0
48.675,-2.829,5.78,23.0
50.217,-2.911,5.69,0.0
0.0,0.0,0.0,0.0
0.0,0.0,0.0,0.0
0.0,0.0,0.0,0.0
0.0,0.0,0.0,0.0
49.846,-2.868,5.977,15.0
50.303,-2.886,5.758,1.0
49.397,-2.827,5.386,3.0
0.0,0.0,0.0,0.0
0.0,0.0,0.0,0.0
0.0,0.0,0.0,0.0
47.743,-2.718,5.779,2.0
50.406,-2.861,5.827,4.0
49.363,-2.793,5.438,4.0
56.524,-3.189,5.915,2.0
0.0,0.0,0.0,0.0
0.0,0.0,0.0,0.0
47.751,-2.687,5.833,2.0
48.411,-2.716,5.649,20.0
0.0,0.0,0.0,0.0
0.0,0.0,0.0,0.0
56.57,-3.145,5.673,1.0
90.617,-5.024,8.597,0.0
50.703,-2.819,6.247,1.0
48.787,-2.704,5.744,23.0
0.0,0.0,0.0,0.0
49.311,-2.716,5.264,0.0
56.562,-3.105,5.731,4.0
56.954,-3.118,5.462,2.0
0.0,0.0,0.0,0.0
0.0,0.0,0.0,0.0
50.234,-2.739,5.692,4.0
49.432,-2.687,5.326,4.0
0.0,0.0,0.0,0.0
0.0,0.0,0.0,0.0
50.958,-2.759,6.382,1.0
47.707,-2.574,5.713,4.0
50.266,-2.704,5.744,5.0
49.389,-2.647,5.37,5.0
0.0,0.0,0.0,0.0
56.604,-3.014,5.537,5.0
0.0,0.0,0.0,0.0
50.989,-2.712,6.155,6.0
48.312,-2.561,5.567,16.0
57.01,-3.011,6.251,9.0
0.0,0.0,0.0,0.0
0.0,0.0,0.0,0.0
48.995,-2.576,6.229,1.0
56.729,-2.972,6.899,4.0
48.751,-2.545,5.661,11.0
50.276,-2.615,5.558,3.0
55.225,-2.862,5.803,4.0
0.0,0.0,0.0,0.0
48.905,-2.532,6.26,4.0
0.0,0.0,0.0,0.0
48.781,-2.507,5.707,23.0
50.162,-2.567,5.588,9.0
49.47,-2.523,5.24,3.0
92.807,-4.716,9.323,5.0
48.689,-2.479,6.274,14.0
0.0,0.0,0.0,0.0
50.71,-2.561,5.975,12.0
56.812,-2.859,6.376,4.0
49.456,-2.479,5.279,5.0
92.677,-4.628,9.386,11.0
0.0,0.0,0.0,0.0
50.481,-2.515,6.267,0.0
49.592,-2.461,5.883,5.0
56.586,-2.797,6.395,6.0
55.21,-2.719,5.936,11.0
55.148,-2.705,5.627,4.0
47.566,-2.337,6.204,19.0
46.577,-2.279,5.817,4.0
49.324,-2.404,5.887,8.0
48.302,-2.344,5.494,12.0
56.598,-2.735,6.126,3.0
57.891,-2.786,5.948,12.0
47.904,-2.31,6.283,22.0
46.63,-2.239,5.857,3.0
48.915,-2.338,5.873,4.0
50.861,-2.421,5.82,7.0
56.607,-2.683,6.166,8.0
55.053,-2.599,5.694,6.0
48.034,-2.271,6.332,7.0
48.498,-2.283,6.124,11.0
48.883,-2.29,5.902,4.0
48.79,-2.276,5.616,12.0
55.109,-2.559,6.038,6.0
53.537,-2.476,5.571,2.0
56.874,-2.634,7.535,6.0
48.403,-2.231,6.143,21.0
50.528,-2.318,6.132,1.0
62.99,-2.878,7.288,7.0
40.577,-1.845,4.47,53.0
55.271,-2.502,5.784,15.0
0.0,0.0,0.0,0.0
48.172,-2.173,6.142,18.0
46.082,-2.069,5.619,12.0
47.561,-2.125,5.531,3.0
40.535,-1.803,4.489,45.0
55.259,-2.447,5.814,6.0
49.816,-2.208,6.657,3.0
62.257,-2.746,7.972,6.0
47.32,-2.076,5.796,6.0
57.344,-2.504,6.699,7.0
48.399,-2.104,5.385,5.0
48.575,-2.101,5.136,2.0
42.249,-1.829,5.668,5.0
50.103,-2.158,6.441,6.0
48.248,-2.067,5.934,22.0
46.691,-1.991,5.477,5.0
40.566,-1.721,4.533,35.0
40.507,-1.71,4.302,28.0
42.328,-1.788,5.699,43.0
49.65,-2.086,6.406,3.0
40.341,-1.687,4.979,38.0
40.479,-1.683,4.766,32.0
40.423,-1.672,4.535,49.0
40.394,-1.663,4.307,67.0
42.213,-1.738,5.701,44.0
42.115,-1.725,5.452,7.0
40.344,-1.643,4.996,35.0
40.693,-1.649,4.808,14.0
40.329,-1.626,4.54,58.0
40.355,-1.618,4.318,68.0
49.434,-1.982,6.695,20.0
42.069,-1.678,5.461,45.0
40.326,-1.599,5.009,38.0
40.415,-1.594,4.789,69.0
40.251,-1.579,4.545,62.0
40.408,-1.577,4.337,60.0
42.27,-1.649,5.739,54.0
42.145,-1.635,5.485,44.0
40.321,-1.555,5.021,59.0
40.472,-1.552,4.809,44.0
40.364,-1.54,4.57,66.0
40.392,-1.532,4.348,52.0
42.385,-1.606,5.767,47.0
42.211,-1.591,5.506,55.0
40.304,-1.51,5.03,58.0
40.296,-1.501,4.799,63.0
40.345,-1.494,4.578,61.0
40.454,-1.49,4.364,46.0
42.13,-1.55,5.743,60.0
