X,Y,Z,Reflectivity
10.01,0.774,-0.714,1.0
9.538,0.738,-0.735,2.0
9.032,0.7,-0.749,1.0
12.277,0.95,-0.68,4.0
11.315,0.877,-0.692,2.0
10.57,0.82,-0.707,2.0
9.835,0.763,-0.716,2.0
9.394,0.73,-0.739,1.0
8.895,0.692,-0.751,1.0
12.009,0.933,-0.683,3.0
11.144,0.866,-0.698,2.0
10.365,0.807,-0.709,1.0
9.707,0.756,-0.722,1.0
9.273,0.723,-0.743,1.0
8.775,0.685,-0.754,1.0
11.758,0.916,-0.687,2.0
10.883,0.849,-0.698,2.0
10.184,0.795,-0.712,1.0
9.597,0.75,-0.728,2.0
9.147,0.715,-0.747,0.0
8.59,0.672,-0.751,1.0
11.523,0.901,-0.69,2.0
10.711,0.838,-0.703,2.0
9.972,0.78,-0.713,1.0
9.498,0.744,-0.735,1.0
8.973,0.703,-0.746,0.0
8.225,0.645,-0.731,2.0
11.292,0.884,-0.693,1.0
10.515,0.824,-0.706,2.0
9.823,0.77,-0.716,2.0
9.36,0.734,-0.738,1.0
8.871,0.697,-0.751,1.0
8.045,0.632,-0.727,4.0
11.081,0.869,-0.696,1.0
10.349,0.812,-0.71,1.0
9.682,0.76,-0.72,1.0
9.236,0.726,-0.741,1.0
8.76,0.689,-0.754,1.0
7.955,0.626,-0.731,4.0
10.874,0.854,-0.699,2.0
10.164,0.798,-0.712,1.0
9.597,0.754,-0.728,2.0
9.126,0.718,-0.746,0.0
8.573,0.675,-0.75,1.0
7.879,0.62,-0.735,4.0
10.684,0.839,-0.702,2.0
9.95,0.782,-0.711,1.0
9.486,0.746,-0.733,1.0
8.975,0.706,-0.746,0.0
8.2,0.645,-0.729,2.0
7.84,0.617,-0.743,4.0
10.502,0.825,-0.705,2.0
9.821,0.772,-0.716,2.0
9.35,0.735,-0.736,1.0
8.86,0.697,-0.749,1.0
8.041,0.633,-0.727,3.0
7.784,0.613,-0.749,3.0
10.346,0.812,-0.709,2.0
9.676,0.76,-0.719,1.0
9.267,0.728,-0.742,1.0
8.762,0.689,-0.753,1.0
7.962,0.626,-0.731,4.0
7.721,0.607,-0.753,3.0
10.183,0.799,-0.712,2.0
9.601,0.753,-0.727,2.0
9.144,0.717,-0.745,0.0
8.593,0.674,-0.751,1.0
7.891,0.619,-0.735,4.0
7.659,0.602,-0.758,3.0
9.966,0.78,-0.711,1.0
9.506,0.744,-0.733,1.0
8.989,0.704,-0.745,0.0
8.217,0.644,-0.729,2.0
7.856,0.616,-0.743,4.0
7.575,0.594,-0.76,2.0
9.823,0.767,-0.714,2.0
9.378,0.733,-0.736,1.0
8.881,0.694,-0.748,1.0
8.051,0.629,-0.725,4.0
7.797,0.609,-0.748,3.0
7.489,0.586,-0.762,2.0
9.714,0.757,-0.719,1.0
9.274,0.723,-0.74,0.0
8.784,0.684,-0.751,1.0
7.987,0.622,-0.73,4.0
7.75,0.604,-0.753,4.0
7.421,0.578,-0.765,3.0
9.613,0.747,-0.724,2.0
9.177,0.713,-0.744,0.0
8.618,0.669,-0.748,1.0
7.928,0.616,-0.735,4.0
7.704,0.598,-0.759,3.0
7.373,0.573,-0.769,2.0
9.554,0.739,-0.732,2.0
9.046,0.7,-0.745,1.0
8.422,0.651,-0.742,1.0
7.903,0.611,-0.743,4.0
7.63,0.59,-0.761,2.0
7.306,0.565,-0.772,1.0
9.43,0.727,-0.734,1.0
8.919,0.687,-0.746,1.0
8.175,0.63,-0.731,2.0
7.858,0.605,-0.749,4.0
7.526,0.58,-0.76,2.0
7.227,0.556,-0.772,1.0
9.335,0.716,-0.738,1.0
8.838,0.678,-0.75,1.0
8.054,0.617,-0.73,4.0
7.793,0.597,-0.752,4.0
7.468,0.572,-0.764,2.0
7.152,0.548,-0.773,1.0
9.241,0.705,-0.742,1.0
8.745,0.667,-0.752,1.0
7.991,0.609,-0.733,4.0
7.755,0.591,-0.757,4.0
7.416,0.565,-0.767,2.0
7.088,0.54,-0.775,1.0
9.127,0.692,-0.743,1.0
8.648,0.656,-0.754,1.0
7.956,0.603,-0.74,5.0
7.72,0.585,-0.763,2.0
7.348,0.557,-0.769,1.0
7.027,0.532,-0.776,1.0
9.015,0.68,-0.744,1.0
8.509,0.641,-0.752,2.0
7.94,0.598,-0.747,4.0
7.65,0.576,-0.765,1.0
7.296,0.549,-0.772,1.0
6.971,0.524,-0.778,1.0
8.928,0.668,-0.747,1.0
8.269,0.619,-0.74,3.0
7.897,0.591,-0.752,4.0
7.547,0.564,-0.763,1.0
7.233,0.54,-0.773,1.0
6.945,0.519,-0.783,1.0
8.84,0.657,-0.75,1.0
8.157,0.606,-0.739,4.0
7.836,0.582,-0.755,4.0
7.485,0.555,-0.765,1.0
7.165,0.531,-0.774,1.0
6.922,0.513,-0.788,1.0
8.763,0.646,-0.752,1.0
8.077,0.595,-0.74,4.0
7.805,0.575,-0.76,3.0
7.426,0.546,-0.767,1.0
7.117,0.523,-0.776,1.0
6.926,0.509,-0.795,1.0
8.659,0.633,-0.752,2.0
8.029,0.587,-0.744,5.0
7.773,0.567,-0.765,2.0
7.381,0.538,-0.77,1.0
7.08,0.516,-0.779,1.0
6.954,0.507,-0.806,1.0
8.59,0.622,-0.755,4.0
8.014,0.58,-0.75,4.0
7.724,0.559,-0.768,1.0
7.328,0.53,-0.771,1.0
7.075,0.511,-0.786,1.0
7.018,0.507,-0.82,0.0
8.503,0.61,-0.756,4.0
7.995,0.573,-0.756,4.0
7.652,0.548,-0.768,1.0
7.28,0.521,-0.773,1.0
7.085,0.507,-0.794,1.0
7.077,0.506,-0.834,1.0
8.438,0.6,-0.758,5.0
7.966,0.566,-0.761,3.0
7.597,0.539,-0.769,1.0
7.241,0.513,-0.776,1.0
7.12,0.504,-0.804,1.0
7.123,0.504,-0.845,0.0
8.369,0.589,-0.759,5.0
7.917,0.556,-0.763,2.0
7.54,0.529,-0.77,1.0
7.235,0.507,-0.782,1.0
7.177,0.503,-0.817,0.0
7.175,0.502,-0.858,0.0
8.271,0.575,-0.757,4.0
7.867,0.547,-0.765,1.0
7.49,0.52,-0.772,1.0
7.259,0.503,-0.79,1.0
7.249,0.502,-0.831,1.0
7.213,0.499,-0.869,0.0
8.195,0.563,-0.757,4.0
7.811,0.536,-0.766,1.0
7.465,0.512,-0.775,1.0
7.314,0.501,-0.802,1.0
7.331,0.501,-0.847,1.0
7.276,0.497,-0.882,0.0
8.136,0.553,-0.758,4.0
7.768,0.527,-0.768,1.0
7.454,0.505,-0.78,1.0
7.378,0.499,-0.815,1.0
7.392,0.499,-0.859,0.0
7.396,0.499,-0.902,0.0
8.104,0.544,-0.761,4.0
7.718,0.517,-0.769,1.0
7.474,0.5,-0.788,1.0
7.463,0.498,-0.83,1.0
7.465,0.498,-0.873,0.0
7.492,0.499,-0.92,0.0
8.081,0.535,-0.765,2.0
7.693,0.508,-0.772,1.0
7.514,0.496,-0.797,1.0
7.531,0.496,-0.843,1.0
7.542,0.496,-0.888,0.0
7.558,0.496,-0.933,0.0
8.048,0.525,-0.767,2.0
7.692,0.501,-0.777,1.0
7.603,0.495,-0.812,1.0
7.623,0.495,-0.858,1.0
7.632,0.495,-0.903,0.0
7.618,0.493,-0.945,0.0
8.001,0.515,-0.768,1.0
7.707,0.495,-0.783,1.0
7.707,0.494,-0.828,1.0
7.697,0.493,-0.871,0.0
7.748,0.495,-0.922,0.0
7.655,0.488,-0.955,0.0
7.965,0.505,-0.769,1.0
7.759,0.491,-0.793,1.0
7.778,0.491,-0.84,1.0
7.783,0.491,-0.886,0.0
7.792,0.49,-0.932,0.0
7.683,0.483,-0.963,0.0
7.956,0.496,-0.773,1.0
7.857,0.489,-0.808,1.0
7.875,0.489,-0.855,0.0
7.888,0.489,-0.902,0.0
7.849,0.486,-0.943,0.0
7.746,0.479,-0.975,0.0
7.988,0.49,-0.78,1.0
7.948,0.487,-0.821,1.0
7.978,0.488,-0.87,0.0
7.982,0.487,-0.917,0.0
7.91,0.482,-0.954,0.0
7.787,0.473,-0.984,0.0
8.044,0.486,-0.789,1.0
8.051,0.485,-0.836,1.0
8.066,0.485,-0.883,0.0
8.075,0.484,-0.931,0.0
7.987,0.478,-0.967,0.0
7.686,0.459,-0.974,0.0
8.126,0.482,-0.801,1.0
8.163,0.483,-0.851,1.0
8.176,0.483,-0.899,0.0
8.103,0.477,-0.938,0.0
8.123,0.477,-0.987,0.0
8.265,0.481,-0.818,1.0
8.251,0.479,-0.863,0.0
8.307,0.481,-0.916,0.0
8.265,0.478,-0.96,0.0
8.129,0.469,-0.99,0.0
8.389,0.479,-0.833,2.0
8.362,0.477,-0.878,0.0
8.367,0.476,-0.926,0.0
8.361,0.474,-0.974,0.0
7.95,0.45,-0.971,0.0
7.334,0.414,-0.938,0.0
8.501,0.477,-0.847,1.0
8.514,0.476,-0.896,0.0
8.51,0.474,-0.944,0.0
8.486,0.472,-0.991,0.0
7.331,0.406,-0.939,0.0
8.576,0.471,-0.856,1.0
8.63,0.473,-0.911,0.0
8.598,0.47,-0.956,0.0
8.385,0.457,-0.981,0.0
7.287,0.395,-0.935,0.0
8.701,0.468,-0.871,0.0
8.723,0.468,-0.922,0.0
8.734,0.467,-0.973,0.0
8.431,0.45,-0.988,0.0
7.269,0.386,-0.935,0.0
8.905,0.469,-0.893,0.0
8.866,0.465,-0.939,0.0
8.771,0.459,-0.978,0.0
7.886,0.411,-0.925,0.0
7.597,0.395,-0.935,0.0
7.266,0.377,-0.935,0.0
9.046,0.466,-0.908,0.0
8.955,0.46,-0.95,0.0
8.777,0.449,-0.98,0.0
7.841,0.4,-0.921,0.0
7.564,0.385,-0.931,0.0
7.27,0.369,-0.936,0.0
9.088,0.457,-0.913,0.0
8.976,0.45,-0.952,0.0
8.354,0.418,-0.934,0.0
7.859,0.392,-0.924,0.0
7.57,0.376,-0.933,0.0
7.263,0.36,-0.936,0.0
9.268,0.455,-0.932,0.0
8.921,0.437,-0.947,0.0
8.18,0.399,-0.914,0.0
7.831,0.381,-0.92,0.0
7.54,0.365,-0.929,0.0
7.252,0.35,-0.935,0.0
9.384,0.45,-0.943,0.0
8.712,0.416,-0.925,0.0
8.167,0.389,-0.913,0.0
7.891,0.374,-0.927,0.0
7.57,0.358,-0.932,0.0
7.272,0.342,-0.937,0.0
9.545,0.446,-0.959,0.0
8.557,0.398,-0.908,0.0
8.197,0.38,-0.916,0.0
7.836,0.362,-0.92,0.0
7.571,0.348,-0.932,0.0
7.281,0.334,-0.937,0.0
9.547,0.434,-0.959,0.0
8.539,0.387,-0.905,0.0
8.195,0.37,-0.915,0.0
7.845,0.353,-0.92,0.0
7.571,0.339,-0.931,0.0
7.276,0.325,-0.936,0.0
9.365,0.415,-0.939,0.0
8.539,0.377,-0.904,0.0
8.194,0.36,-0.913,0.0
7.848,0.343,-0.92,0.0
7.579,0.33,-0.931,0.0
7.287,0.316,-0.936,0.0
8.966,0.386,-0.897,0.0
8.557,0.367,-0.904,0.0
8.214,0.351,-0.914,0.0
7.831,0.333,-0.916,0.0
7.561,0.32,-0.927,0.0
7.292,0.307,-0.935,0.0
8.976,0.375,-0.896,0.0
8.585,0.357,-0.905,0.0
8.242,0.341,-0.915,0.0
7.901,0.326,-0.922,0.0
7.594,0.312,-0.929,0.0
7.287,0.298,-0.933,0.0
9.005,0.365,-0.897,0.0
8.597,0.347,-0.904,0.0
8.244,0.331,-0.913,0.0
7.894,0.316,-0.919,0.0
7.59,0.302,-0.926,0.0
7.312,0.29,-0.934,0.0
9.049,0.356,-0.898,0.0
8.638,0.338,-0.906,0.0
8.254,0.321,-0.911,0.0
7.932,0.307,-0.921,0.0
7.625,0.294,-0.928,0.0
7.341,0.282,-0.935,0.0
9.071,0.346,-0.897,0.0
8.677,0.329,-0.906,0.0
8.273,0.312,-0.91,0.0
7.978,0.299,-0.923,0.0
7.636,0.285,-0.926,0.0
7.343,0.273,-0.932,0.0
9.11,0.336,-0.897,0.0
8.685,0.318,-0.904,0.0
8.303,0.303,-0.91,0.0
8.0,0.29,-0.922,0.0
7.654,0.276,-0.925,0.0
7.366,0.264,-0.931,0.0
9.122,0.325,-0.894,0.0
8.732,0.309,-0.905,0.0
8.354,0.294,-0.912,0.0
8.049,0.282,-0.924,0.0
7.66,0.267,-0.922,0.0
7.413,0.257,-0.934,0.0
9.175,0.315,-0.895,0.0
8.732,0.298,-0.9,0.0
8.37,0.284,-0.909,0.0
8.063,0.272,-0.921,0.0
7.739,0.26,-0.927,0.0
7.429,0.248,-0.932,0.0
9.165,0.303,-0.889,0.0
8.782,0.289,-0.9,0.0
8.414,0.275,-0.909,0.0
8.087,0.263,-0.919,0.0
7.754,0.25,-0.925,0.0
7.481,0.24,-0.934,0.0
9.215,0.294,-0.888,1.0
8.813,0.279,-0.898,0.0
8.441,0.266,-0.907,0.0
8.113,0.254,-0.917,0.0
7.827,0.243,-0.929,0.0
7.487,0.231,-0.93,0.0
9.25,0.283,-0.886,0.0
8.922,0.272,-0.904,0.0
8.492,0.257,-0.907,0.0
8.156,0.245,-0.917,0.0
7.828,0.234,-0.923,0.0
7.528,0.223,-0.93,0.0
9.36,0.275,-0.89,0.0
8.979,0.262,-0.903,0.0
8.455,0.245,-0.897,0.0
8.17,0.235,-0.913,1.0
7.891,0.226,-0.925,0.0
7.568,0.215,-0.929,0.0
9.416,0.265,-0.889,0.0
8.995,0.252,-0.898,0.0
8.431,0.234,-0.888,0.0
8.184,0.226,-0.908,2.0
7.919,0.217,-0.922,0.0
7.605,0.206,-0.928,0.0
9.466,0.255,-0.886,0.0
9.023,0.241,-0.894,0.0
8.66,0.23,-0.906,0.0
8.194,0.216,-0.903,2.0
7.979,0.209,-0.923,0.0
7.665,0.199,-0.929,0.0
9.522,0.245,-0.884,0.0
9.05,0.231,-0.889,0.0
8.693,0.22,-0.902,0.0
8.228,0.207,-0.9,0.0
8.014,0.2,-0.92,0.0
7.694,0.19,-0.926,0.0
9.589,0.235,-0.882,0.0
9.156,0.223,-0.892,0.0
8.768,0.212,-0.902,0.0
8.379,0.2,-0.909,0.0
8.056,0.191,-0.918,0.0
7.75,0.182,-0.926,0.0
9.687,0.226,-0.882,0.0
9.231,0.214,-0.891,0.0
8.812,0.202,-0.899,0.0
8.44,0.192,-0.908,0.0
8.112,0.183,-0.917,0.0
7.804,0.174,-0.925,0.0
9.77,0.217,-0.881,0.0
9.319,0.205,-0.89,0.0
8.883,0.193,-0.897,0.0
8.536,0.184,-0.91,0.0
8.18,0.175,-0.916,0.0
7.882,0.167,-0.926,0.0
9.855,0.207,-0.878,0.0
9.391,0.196,-0.888,0.0
8.953,0.185,-0.895,0.0
8.565,0.175,-0.904,0.0
8.204,0.166,-0.911,0.0
7.921,0.159,-0.923,0.0
9.926,0.197,-0.875,0.0
9.454,0.186,-0.884,0.0
9.029,0.176,-0.894,0.0
8.627,0.166,-0.902,0.0
8.279,0.158,-0.91,0.0
7.974,0.15,-0.92,0.0
10.038,0.188,-0.874,0.0
9.554,0.177,-0.883,0.0
9.121,0.167,-0.893,0.0
8.697,0.158,-0.899,0.0
8.355,0.15,-0.909,0.0
8.041,0.143,-0.919,0.0
10.146,0.179,-0.872,0.0
9.643,0.168,-0.881,0.0
9.191,0.158,-0.889,0.0
8.775,0.149,-0.898,0.0
8.419,0.142,-0.907,0.0
8.085,0.134,-0.915,0.0
10.287,0.17,-0.872,0.0
9.75,0.159,-0.879,0.0
9.274,0.15,-0.887,0.0
8.873,0.141,-0.897,0.0
8.49,0.134,-0.905,0.0
8.171,0.127,-0.915,0.0
10.389,0.161,-0.869,2.0
9.84,0.15,-0.876,0.0
9.389,0.141,-0.886,0.0
8.971,0.133,-0.896,0.0
8.578,0.126,-0.903,0.0
8.249,0.119,-0.914,0.0
10.442,0.15,-0.86,4.0
9.982,0.142,-0.876,0.0
9.485,0.133,-0.884,0.0
9.034,0.125,-0.891,0.0
8.656,0.118,-0.901,0.0
8.31,0.112,-0.91,0.0
10.607,0.142,-0.861,1.0
10.089,0.133,-0.873,0.0
9.565,0.124,-0.879,0.0
9.148,0.117,-0.891,0.0
8.749,0.11,-0.899,0.0
8.417,0.104,-0.91,0.0
10.765,0.133,-0.86,1.0
10.201,0.124,-0.869,0.0
9.704,0.116,-0.879,0.0
9.278,0.109,-0.891,0.0
8.848,0.102,-0.897,0.0
8.469,0.096,-0.904,0.0
10.887,0.123,-0.855,1.0
10.39,0.116,-0.871,0.0
9.837,0.108,-0.878,0.0
9.375,0.101,-0.887,0.0
8.96,0.095,-0.896,0.0
8.555,0.089,-0.902,0.0
11.047,0.114,-0.852,0.0
10.467,0.106,-0.863,0.0
9.953,0.099,-0.874,0.0
9.498,0.093,-0.886,0.0
9.062,0.087,-0.894,0.0
8.666,0.082,-0.901,0.0
11.2,0.105,-0.848,0.0
10.612,0.098,-0.86,0.0
10.095,0.091,-0.872,0.0
9.607,0.085,-0.882,0.0
9.198,0.08,-0.894,0.0
8.768,0.074,-0.899,0.0
11.375,0.096,-0.845,0.0
10.764,0.089,-0.857,0.0
10.245,0.083,-0.87,0.0
9.74,0.077,-0.88,0.0
9.311,0.072,-0.891,0.0
8.9,0.067,-0.899,0.0
11.555,0.087,-0.841,0.0
10.928,0.08,-0.854,0.0
10.396,0.075,-0.867,0.0
9.881,0.069,-0.878,0.0
9.413,0.064,-0.887,0.0
9.007,0.06,-0.897,0.0
11.72,0.078,-0.836,0.0
11.079,0.072,-0.849,0.0
10.541,0.066,-0.863,0.0
10.017,0.061,-0.875,0.0
9.558,0.057,-0.886,0.0
9.142,0.053,-0.896,0.0
11.912,0.069,-0.831,1.0
11.281,0.063,-0.847,0.0
10.699,0.058,-0.86,0.0
10.185,0.054,-0.874,0.0
9.693,0.05,-0.883,0.0
9.269,0.046,-0.894,0.0
12.13,0.06,-0.827,0.0
11.478,0.055,-0.843,0.0
10.878,0.05,-0.857,0.0
10.317,0.046,-0.868,0.0
9.831,0.042,-0.88,0.0
9.387,0.039,-0.89,0.0
12.367,0.051,-0.823,0.0
11.681,0.047,-0.839,0.0
11.03,0.042,-0.851,0.0
10.476,0.039,-0.865,0.0
9.983,0.035,-0.877,0.0
9.519,0.032,-0.887,0.0
12.598,0.043,-0.818,1.0
11.868,0.038,-0.833,0.0
11.22,0.034,-0.847,0.0
10.677,0.031,-0.864,0.0
10.174,0.028,-0.877,0.0
9.686,0.025,-0.886,0.0
12.827,0.034,-0.812,0.0
12.086,0.03,-0.828,1.0
11.456,0.027,-0.846,0.0
10.848,0.024,-0.859,0.0
10.318,0.021,-0.872,0.0
9.82,0.018,-0.881,0.0
13.097,0.025,-0.807,0.0
12.34,0.022,-0.825,0.0
11.656,0.019,-0.84,0.0
11.01,0.016,-0.853,0.0
10.482,0.014,-0.867,0.0
9.969,0.012,-0.878,0.0
13.372,0.016,-0.8,0.0
12.561,0.014,-0.818,1.0
11.868,0.011,-0.835,0.0
11.245,0.009,-0.852,0.0
10.677,0.007,-0.865,0.0
10.159,0.005,-0.876,0.0
13.656,0.008,-0.794,1.0
12.846,0.005,-0.814,0.0
12.081,0.003,-0.829,0.0
11.459,0.002,-0.847,0.0
10.88,0.0,-0.862,0.0
10.341,0.0,-0.873,0.0
13.951,0.0,-0.786,1.0
13.127,-0.002,-0.808,1.0
12.363,-0.003,-0.826,0.0
11.667,-0.004,-0.842,0.0
11.03,-0.006,-0.853,0.0
10.526,-0.007,-0.87,0.0
14.323,-0.009,-0.781,1.0
13.402,-0.01,-0.8,1.0
12.61,-0.011,-0.819,0.0
11.9,-0.012,-0.837,0.0
11.266,-0.012,-0.851,0.0
10.679,-0.013,-0.863,0.0
14.679,-0.017,-0.773,1.0
13.693,-0.018,-0.793,1.0
12.897,-0.018,-0.814,0.0
12.133,-0.018,-0.83,0.0
11.493,-0.019,-0.847,0.0
10.907,-0.019,-0.861,0.0
15.051,-0.026,-0.765,1.0
14.024,-0.026,-0.786,1.0
13.184,-0.026,-0.807,1.0
12.394,-0.025,-0.825,0.0
11.714,-0.025,-0.841,0.0
11.093,-0.025,-0.854,0.0
15.415,-0.034,-0.754,1.0
14.397,-0.033,-0.779,1.0
13.497,-0.033,-0.801,1.0
12.67,-0.032,-0.819,0.0
11.965,-0.031,-0.836,0.0
11.34,-0.031,-0.852,0.0
15.864,-0.043,-0.746,1.0
14.76,-0.041,-0.771,1.0
13.788,-0.04,-0.792,1.0
12.973,-0.039,-0.814,0.0
12.223,-0.038,-0.831,0.0
11.561,-0.037,-0.846,0.0
16.334,-0.051,-0.737,1.0
15.149,-0.049,-0.762,1.0
14.146,-0.047,-0.785,1.0
13.267,-0.045,-0.807,1.0
12.482,-0.043,-0.824,0.0
11.788,-0.042,-0.84,0.0
16.867,-0.059,-0.728,1.0
15.556,-0.056,-0.753,1.0
14.545,-0.054,-0.779,1.0
13.565,-0.051,-0.799,1.0
12.777,-0.049,-0.819,0.0
12.051,-0.047,-0.835,0.0
17.391,-0.067,-0.717,1.0
16.011,-0.063,-0.743,1.0
14.915,-0.06,-0.77,1.0
13.903,-0.057,-0.791,1.0
13.1,-0.055,-0.814,1.0
12.331,-0.053,-0.83,0.0
17.99,-0.076,-0.706,2.0
16.552,-0.071,-0.736,1.0
15.314,-0.067,-0.76,1.0
14.262,-0.063,-0.783,1.0
13.395,-0.06,-0.805,1.0
12.603,-0.057,-0.823,0.0
18.539,-0.083,-0.691,2.0
17.119,-0.078,-0.726,1.0
15.73,-0.073,-0.749,1.0
14.668,-0.069,-0.776,1.0
13.703,-0.065,-0.796,0.0
12.919,-0.062,-0.818,0.0
19.187,-0.091,-0.677,2.0
17.666,-0.085,-0.714,1.0
16.211,-0.079,-0.739,1.0
15.068,-0.074,-0.767,1.0
14.062,-0.07,-0.789,1.0
13.223,-0.067,-0.81,1.0
19.972,-0.099,-0.664,2.0
18.277,-0.092,-0.702,2.0
16.81,-0.085,-0.732,1.0
15.501,-0.08,-0.757,1.0
14.483,-0.075,-0.782,1.0
13.554,-0.071,-0.802,1.0
20.771,-0.107,-0.648,3.0
18.865,-0.098,-0.686,2.0
17.379,-0.091,-0.722,1.0
15.976,-0.085,-0.748,1.0
14.86,-0.079,-0.772,1.0
13.884,-0.075,-0.793,0.0
21.598,-0.115,-0.629,3.0
19.586,-0.105,-0.672,2.0
17.987,-0.097,-0.71,2.0
16.505,-0.089,-0.738,0.0
15.295,-0.083,-0.763,1.0
14.278,-0.078,-0.786,1.0
22.636,-0.123,-0.613,2.0
20.365,-0.111,-0.656,3.0
18.526,-0.101,-0.693,2.0
17.099,-0.094,-0.729,1.0
15.735,-0.087,-0.752,1.0
14.704,-0.082,-0.779,1.0
23.516,-0.129,-0.588,2.0
21.192,-0.117,-0.639,2.0
19.281,-0.107,-0.681,2.0
17.66,-0.098,-0.717,1.0
16.241,-0.091,-0.743,0.0
15.13,-0.085,-0.77,1.0
24.493,-0.135,-0.562,2.0
22.17,-0.123,-0.623,2.0
19.996,-0.111,-0.665,2.0
18.285,-0.102,-0.704,2.0
16.874,-0.094,-0.737,1.0
15.544,-0.087,-0.759,1.0
25.853,-0.143,-0.539,1.0
23.153,-0.128,-0.603,2.0
20.836,-0.115,-0.649,2.0
18.902,-0.105,-0.689,1.0
17.429,-0.097,-0.725,1.0
16.029,-0.089,-0.749,1.0
26.841,-0.147,-0.504,2.0
24.075,-0.132,-0.576,2.0
21.701,-0.119,-0.631,3.0
19.663,-0.108,-0.675,2.0
18.025,-0.099,-0.712,2.0
16.592,-0.091,-0.741,0.0
28.275,-0.153,-0.472,1.0
25.163,-0.136,-0.549,1.0
22.758,-0.123,-0.614,1.0
20.423,-0.11,-0.658,2.0
18.643,-0.1,-0.697,2.0
17.183,-0.092,-0.731,1.0
29.507,-0.156,-0.43,2.0
26.493,-0.14,-0.522,2.0
23.719,-0.125,-0.59,2.0
21.285,-0.112,-0.641,2.0
19.337,-0.101,-0.682,2.0
17.787,-0.093,-0.719,1.0
30.923,-0.159,-0.385,1.0
27.693,-0.141,-0.487,2.0
24.633,-0.125,-0.56,2.0
22.271,-0.113,-0.623,2.0
20.128,-0.101,-0.667,3.0
18.357,-0.092,-0.703,2.0
33.185,-0.164,-0.343,1.0
29.075,-0.143,-0.45,2.0
26.07,-0.127,-0.538,2.0
23.266,-0.113,-0.602,2.0
20.974,-0.101,-0.651,3.0
19.052,-0.091,-0.689,2.0
37.376,-0.176,-0.308,1.0
30.247,-0.141,-0.405,2.0
27.13,-0.126,-0.503,1.0
24.191,-0.111,-0.575,2.0
21.933,-0.1,-0.634,3.0
19.848,-0.09,-0.676,2.0
39.438,-0.175,-0.241,5.0
32.475,-0.143,-0.366,1.0
28.507,-0.124,-0.467,1.0
25.475,-0.11,-0.552,1.0
22.887,-0.097,-0.614,2.0
20.657,-0.087,-0.66,2.0
0.0,0.0,0.0,0.0
37.057,-0.151,-0.34,0.0
29.746,-0.12,-0.426,2.0
26.628,-0.106,-0.521,2.0
23.804,-0.093,-0.588,1.0
21.54,-0.083,-0.643,3.0
43.978,-0.167,-0.084,20.0
39.154,-0.146,-0.277,3.0
31.306,-0.115,-0.382,1.0
27.822,-0.101,-0.486,2.0
24.904,-0.088,-0.563,1.0
22.477,-0.078,-0.624,2.0
47.87,-0.163,0.008,22.0
39.905,-0.133,-0.198,13.0
33.483,-0.11,-0.338,1.0
29.263,-0.094,-0.449,2.0
26.212,-0.082,-0.538,2.0
23.436,-0.072,-0.601,2.0
0.0,0.0,0.0,0.0
41.871,-0.122,-0.12,18.0
38.736,-0.11,-0.311,2.0
30.344,-0.084,-0.403,1.0
27.342,-0.074,-0.504,1.0
24.367,-0.064,-0.574,2.0
61.62,-0.156,0.268,13.0
46.32,-0.113,-0.036,20.0
39.413,-0.093,-0.234,14.0
32.427,-0.074,-0.362,2.0
28.723,-0.063,-0.469,1.0
25.711,-0.055,-0.552,1.0
76.532,-0.156,0.493,15.0
0.0,0.0,0.0,0.0
40.573,-0.075,-0.155,16.0
37.101,-0.066,-0.337,0.0
29.916,-0.05,-0.426,2.0
26.805,-0.043,-0.52,2.0
79.433,-0.119,0.678,150.0
61.642,-0.087,0.209,14.0
0.0,0.0,0.0,0.0
38.738,-0.047,-0.271,7.0
31.664,-0.036,-0.385,1.0
28.08,-0.029,-0.486,1.0
79.466,-0.074,0.844,151.0
76.15,-0.064,0.416,16.0
48.02,-0.035,0.014,12.0
39.654,-0.025,-0.196,18.0
33.58,-0.018,-0.339,1.0
29.317,-0.012,-0.447,2.0
79.462,-0.026,1.007,152.0
79.254,-0.018,0.597,28.0
55.72,-0.006,0.132,29.0
43.812,0.0,-0.126,5.0
38.391,0.003,-0.308,5.0
30.658,0.006,-0.404,1.0
79.462,0.024,1.17,151.0
79.471,0.033,0.761,157.0
61.839,0.032,0.273,9.0
0.0,0.0,0.0,0.0
39.004,0.029,-0.234,14.0
32.728,0.028,-0.365,1.0
79.45,0.077,1.332,161.0
79.466,0.087,0.922,153.0
76.346,0.093,0.492,19.0
0.0,0.0,0.0,0.0
40.131,0.058,-0.159,18.0
38.009,0.06,-0.347,0.0
79.454,0.134,1.494,151.0
79.466,0.144,1.083,154.0
79.439,0.154,0.673,150.0
58.906,0.121,0.188,8.0
0.0,0.0,0.0,0.0
38.353,0.089,-0.273,9.0
79.452,0.193,1.654,150.0
79.453,0.204,1.244,166.0
79.463,0.214,0.832,151.0
75.828,0.215,0.395,12.0
47.625,0.141,0.002,21.0
39.129,0.121,-0.2,42.0
79.443,0.255,1.812,150.0
79.46,0.266,1.402,158.0
79.46,0.278,0.992,151.0
76.975,0.28,0.554,56.0
54.576,0.206,0.11,28.0
40.628,0.159,-0.127,16.0
79.428,0.32,1.97,44.0
79.409,0.332,1.559,40.0
79.422,0.344,1.149,30.0
59.307,0.265,0.544,91.0
59.374,0.274,0.238,10.0
0.0,0.0,0.0,0.0
59.287,0.29,1.588,17.0
59.292,0.298,1.281,43.0
59.284,0.307,0.973,41.0
59.289,0.316,0.66,73.0
55.083,0.302,0.327,48.0
54.624,0.308,0.041,7.0
48.161,0.277,1.383,98.0
48.148,0.285,1.133,70.0
48.146,0.292,0.883,76.0
48.15,0.3,0.628,53.0
48.155,0.307,0.379,56.0
48.151,0.315,0.129,55.0
48.128,0.321,1.475,110.0
48.125,0.329,1.224,103.0
48.113,0.336,0.975,99.0
48.09,0.344,0.72,91.0
48.078,0.352,0.47,78.0
48.065,0.36,0.22,51.0
48.112,0.367,1.567,114.0
48.12,0.375,1.317,110.0
48.112,0.383,1.067,113.0
48.073,0.391,0.811,112.0
48.074,0.399,0.561,109.0
48.052,0.407,0.311,99.0
48.114,0.414,1.658,103.0
48.124,0.422,1.408,115.0
48.111,0.43,1.156,110.0
48.085,0.438,0.901,108.0
48.078,0.447,0.651,106.0
48.067,0.455,0.4,92.0
48.149,0.462,1.748,105.0
48.146,0.471,1.497,87.0
48.132,0.479,1.246,97.0
48.102,0.487,0.99,102.0
48.105,0.496,0.74,99.0
48.095,0.505,0.49,98.0
48.212,0.513,1.84,53.0
48.193,0.522,1.588,58.0
48.181,0.531,1.337,64.0
48.157,0.539,1.08,67.0
48.144,0.548,0.828,70.0
48.127,0.557,0.577,81.0
55.014,0.645,2.201,103.0
55.013,0.655,1.913,128.0
55.005,0.665,1.625,114.0
55.026,0.676,1.333,79.0
55.085,0.687,1.047,48.0
48.249,0.611,0.665,8.0
54.996,0.705,2.299,81.0
55.028,0.716,2.013,105.0
55.018,0.726,1.724,99.0
55.11,0.739,1.434,25.0
190.097,2.586,3.955,5.0
127.348,1.757,1.984,27.0
55.015,0.768,2.398,112.0
55.059,0.78,2.112,86.0
55.096,0.791,1.824,27.0
163.06,2.374,4.532,16.0
190.002,2.803,4.285,16.0
189.398,2.831,3.28,24.0
55.026,0.832,2.494,104.0
59.351,0.909,2.379,12.0
132.852,2.062,4.63,12.0
162.892,2.56,4.805,20.0
160.047,2.549,3.884,7.0
189.959,3.063,3.616,22.0
55.066,0.897,2.59,63.0
130.37,2.151,5.449,24.0
161.488,2.698,5.902,17.0
132.968,2.248,4.147,21.0
160.401,2.744,4.162,16.0
190.095,3.293,3.937,6.0
55.151,0.965,2.687,11.0
129.861,2.3,5.646,28.0
174.476,3.127,6.67,14.0
132.782,2.407,4.363,17.0
128.109,2.35,3.539,13.0
128.136,2.378,2.867,23.0
55.231,1.035,2.784,22.0
128.32,2.434,5.795,13.0
127.958,2.453,5.104,22.0
127.99,2.482,4.419,32.0
128.007,2.509,3.747,43.0
128.06,2.538,3.076,42.0
55.305,1.106,2.879,47.0
127.797,2.584,5.978,13.0
127.833,2.613,5.306,26.0
128.026,2.645,4.627,60.0
128.078,2.674,3.954,50.0
128.128,2.703,3.282,42.0
55.346,1.179,2.971,75.0
128.441,2.764,6.214,7.0
127.8,2.778,5.51,36.0
152.426,3.347,5.752,35.0
159.759,3.544,5.185,20.0
159.145,3.565,4.326,7.0
55.381,1.252,3.06,77.0
122.842,2.806,6.137,25.0
127.68,2.944,5.703,25.0
152.462,3.551,5.992,17.0
152.648,3.589,5.193,41.0
159.235,3.779,4.575,17.0
55.268,1.324,3.139,70.0
122.647,2.966,6.317,13.0
127.546,3.114,5.895,8.0
130.628,3.219,5.333,30.0
152.411,3.79,5.416,35.0
158.702,3.983,4.802,12.0
54.997,1.392,3.207,86.0
123.145,3.145,6.528,35.0
122.677,3.16,5.853,26.0
152.197,3.956,6.438,34.0
152.062,3.987,5.627,46.0
152.818,4.042,4.846,36.0
54.552,1.455,3.261,27.0
122.578,3.298,6.677,14.0
122.728,3.331,6.034,39.0
151.692,4.152,6.636,31.0
151.98,4.195,5.844,46.0
152.47,4.245,5.055,42.0
54.632,1.534,3.346,15.0
126.12,3.57,7.051,9.0
122.552,3.497,6.2,47.0
152.1,4.376,6.871,19.0
152.019,4.411,6.06,33.0
152.076,4.448,5.255,33.0
54.31,1.602,3.402,17.0
124.125,3.691,7.114,22.0
123.02,3.686,6.395,39.0
123.186,3.72,5.736,22.0
152.121,4.629,6.273,36.0
152.124,4.665,5.464,37.0
54.269,1.678,3.473,76.0
73.918,2.303,4.337,33.0
125.435,3.937,6.69,23.0
133.696,4.227,6.403,26.0
152.375,4.855,6.487,35.0
152.382,4.893,5.676,38.0
54.264,1.756,3.546,66.0
73.869,2.408,4.432,51.0
73.882,2.426,4.038,42.0
133.794,4.425,6.584,28.0
152.561,5.082,6.693,35.0
152.889,5.131,5.893,37.0
54.246,1.835,3.615,39.0
73.709,2.51,4.517,18.0
73.792,2.531,4.128,45.0
74.02,2.556,3.736,12.0
123.998,4.312,5.596,40.0
153.036,5.36,6.091,18.0
54.233,1.915,3.683,43.0
73.374,2.608,4.589,14.0
73.653,2.636,4.212,44.0
73.783,2.658,3.817,47.0
123.863,4.493,5.743,29.0
152.451,5.566,6.254,29.0
54.2,1.995,3.748,94.0
64.877,2.404,4.137,40.0
65.178,2.43,3.806,23.0
73.699,2.766,3.901,46.0
123.816,4.678,5.891,6.0
124.362,4.73,5.251,9.0
54.119,2.074,3.807,60.0
73.335,2.828,4.764,23.0
65.1,2.526,3.878,35.0
73.446,2.869,3.974,51.0
123.955,4.871,6.041,21.0
124.471,4.923,5.399,21.0
73.658,2.936,5.267,20.0
73.464,2.946,4.857,18.0
73.308,2.957,4.451,24.0
73.271,2.974,4.047,35.0
123.722,5.052,6.168,24.0
124.533,5.115,5.54,32.0
73.551,3.044,5.341,30.0
73.503,3.06,4.94,36.0
73.313,3.071,4.532,15.0
73.429,3.094,4.136,51.0
124.284,5.266,6.332,18.0
130.356,5.557,5.939,13.0
73.887,3.174,5.446,16.0
73.432,3.173,5.015,26.0
73.194,3.18,4.603,28.0
73.867,3.227,4.239,46.0
123.28,5.417,6.41,31.0
130.016,5.745,6.059,15.0
0.0,0.0,0.0,0.0
73.351,3.284,5.085,12.0
73.303,3.299,4.685,6.0
73.304,3.318,4.281,46.0
123.223,5.608,6.531,26.0
129.578,5.929,6.167,19.0
64.535,2.976,4.889,34.0
73.895,3.424,5.197,28.0
127.68,5.947,8.285,16.0
73.392,3.437,4.357,46.0
123.316,5.804,6.654,33.0
132.366,6.264,6.426,25.0
73.878,3.522,5.667,9.0
73.607,3.527,5.246,27.0
149.682,7.209,9.855,30.0
127.656,6.18,7.698,16.0
123.613,6.015,6.784,23.0
132.582,6.484,6.559,10.0
65.119,3.209,5.055,12.0
73.805,3.654,5.327,30.0
149.673,7.447,9.989,28.0
127.031,6.35,7.774,25.0
73.395,3.686,4.092,14.0
154.507,7.8,7.778,20.0
65.03,3.307,5.105,10.0
123.956,6.334,9.055,23.0
124.632,6.397,8.424,29.0
127.786,6.591,7.929,22.0
73.343,3.801,4.152,10.0
33.454,1.741,1.711,25.0
64.989,3.409,5.156,7.0
124.808,6.577,9.22,34.0
124.595,6.596,8.524,32.0
127.466,6.778,8.011,20.0
128.532,6.867,7.378,21.0
33.47,1.796,1.739,6.0
65.161,3.523,5.222,8.0
71.885,3.904,5.366,15.0
71.901,3.921,4.974,21.0
154.695,8.474,9.843,22.0
127.112,6.994,7.393,34.0
33.459,1.849,1.763,1.0
64.945,3.616,5.253,22.0
71.94,4.022,5.424,32.0
71.857,4.034,5.024,21.0
127.867,7.21,8.228,30.0
127.633,7.228,7.516,38.0
127.311,7.239,6.802,10.0
64.61,3.701,5.271,21.0
71.863,4.134,5.469,20.0
71.778,4.145,5.069,36.0
127.331,7.382,8.28,32.0
127.836,7.441,7.613,35.0
128.582,7.516,6.955,29.0
64.362,3.789,5.294,40.0
71.826,4.245,5.513,14.0
78.625,4.665,5.603,25.0
127.36,7.587,8.362,20.0
67.043,4.009,4.034,7.0
128.509,7.715,7.03,37.0
64.336,3.89,5.331,31.0
71.41,4.334,5.524,6.0
78.71,4.796,5.656,19.0
67.284,4.115,4.458,18.0
67.106,4.12,4.077,28.0
128.629,7.927,7.111,23.0
64.371,3.996,5.371,14.0
78.49,4.89,6.117,15.0
66.985,4.189,4.851,28.0
67.091,4.211,4.482,37.0
67.005,4.221,4.108,26.0
128.283,8.112,7.16,14.0
65.777,4.189,5.525,33.0
65.889,4.21,5.169,10.0
67.341,4.318,4.911,19.0
67.287,4.33,4.53,43.0
67.091,4.333,4.147,36.0
128.295,8.316,7.225,20.0
65.549,4.279,5.537,42.0
65.792,4.309,5.194,23.0
67.322,4.424,4.942,42.0
67.21,4.432,4.556,43.0
67.387,4.458,4.196,36.0
67.013,4.449,3.804,27.0
65.229,4.361,5.54,30.0
65.88,4.419,5.23,41.0
67.21,4.523,4.963,35.0
67.347,4.547,4.594,44.0
67.371,4.563,4.223,36.0
128.306,8.723,7.336,2.0
65.146,4.459,5.56,41.0
65.318,4.484,5.211,40.0
67.036,4.616,4.977,30.0
67.493,4.662,4.629,31.0
67.501,4.677,4.257,32.0
168.962,11.748,9.722,11.0
63.835,4.468,5.47,25.0
64.342,4.518,5.156,39.0
71.109,5.008,5.303,14.0
67.462,4.766,4.65,36.0
70.856,5.02,4.492,36.0
157.617,11.203,9.119,21.0
64.048,4.583,5.509,40.0
63.946,4.589,5.144,38.0
64.99,4.677,4.866,30.0
70.76,5.108,4.898,24.0
70.852,5.13,4.512,35.0
157.167,11.414,9.138,28.0
63.776,4.663,5.503,34.0
63.76,4.674,5.147,38.0
64.553,4.745,4.851,39.0
70.778,5.219,4.918,48.0
70.905,5.243,4.533,42.0
133.685,9.914,7.804,13.0
64.036,4.781,5.541,40.0
63.743,4.771,5.16,39.0
64.999,4.879,4.899,39.0
67.543,5.083,4.707,20.0
70.886,5.35,4.546,24.0
131.729,9.97,7.715,13.0
64.125,4.885,5.561,41.0
63.504,4.85,5.152,31.0
65.291,5.0,4.933,28.0
67.796,5.206,4.736,17.0
129.862,9.998,8.35,12.0
129.748,10.015,7.62,13.0
63.701,4.95,5.534,30.0
63.489,4.945,5.16,34.0
65.328,5.101,4.944,27.0
67.951,5.32,4.756,24.0
75.587,5.933,4.869,14.0
74.647,5.874,4.393,11.0
64.177,5.083,5.582,18.0
63.514,5.043,5.169,38.0
65.395,5.205,4.956,23.0
74.61,5.952,5.229,23.0
74.569,5.964,4.809,22.0
74.542,5.978,4.392,22.0
63.947,5.161,5.567,40.0
66.022,5.341,5.377,17.0
66.832,5.419,5.068,37.0
74.718,6.072,5.24,11.0
74.551,6.073,4.811,23.0
74.529,6.087,4.393,22.0
64.083,5.266,5.58,45.0
65.963,5.433,5.373,39.0
66.69,5.506,5.058,42.0
75.815,6.274,5.317,29.0
74.824,6.205,4.829,13.0
74.646,6.206,4.399,8.0
64.137,5.365,5.584,40.0
66.654,5.587,5.428,42.0
66.338,5.573,5.03,41.0
74.327,6.258,5.21,23.0
75.983,6.411,4.9,44.0
120.879,10.223,7.119,21.0
47.647,4.055,4.146,18.0
66.745,5.692,5.431,43.0
66.302,5.666,5.022,42.0
72.797,6.234,5.097,20.0
0.0,0.0,0.0,0.0
120.782,10.389,7.103,26.0
47.56,4.116,4.133,49.0
66.213,5.741,5.381,42.0
66.341,5.764,5.017,42.0
65.529,5.705,4.58,8.0
76.32,6.658,4.906,21.0
119.059,10.409,6.985,10.0
47.619,4.188,4.132,48.0
65.952,5.812,5.35,17.0
66.354,5.858,5.008,41.0
65.581,5.802,4.574,17.0
74.198,6.577,4.757,8.0
75.966,6.747,4.444,7.0
47.691,4.261,4.129,37.0
66.446,5.947,5.378,17.0
66.341,5.949,4.995,42.0
65.57,5.891,4.56,17.0
76.16,6.855,4.867,28.0
114.929,10.365,6.699,11.0
47.721,4.329,4.121,26.0
66.594,6.051,5.374,14.0
65.882,5.997,4.945,36.0
65.584,5.98,4.545,16.0
76.194,6.961,4.851,15.0
114.71,10.499,6.657,21.0
47.626,4.384,4.101,4.0
13.849,1.277,1.114,3.0
13.831,1.277,1.034,5.0
13.847,1.281,0.955,13.0
13.821,1.28,0.876,9.0
13.833,1.284,0.798,4.0
13.84,1.292,1.187,18.0
13.815,1.292,1.107,13.0
13.817,1.294,1.029,21.0
13.811,1.295,0.949,24.0
13.825,1.299,0.871,27.0
13.812,1.3,0.793,17.0
13.816,1.307,1.181,21.0
13.798,1.308,1.101,33.0
13.815,1.311,1.024,34.0
13.801,1.312,0.943,32.0
13.809,1.315,0.866,34.0
13.799,1.316,0.787,29.0
13.802,1.324,1.174,30.0
13.797,1.325,1.095,37.0
13.783,1.326,1.016,27.0
13.79,1.328,0.937,38.0
13.796,1.331,0.859,36.0
13.794,1.333,0.781,35.0
13.795,1.34,1.168,38.0
13.777,1.34,1.088,36.0
13.788,1.343,1.01,35.0
13.774,1.344,0.93,39.0
13.791,1.347,0.853,37.0
13.787,1.349,0.775,37.0
13.774,1.355,1.16,83.0
13.775,1.357,1.081,44.0
13.755,1.356,1.002,34.0
13.759,1.359,0.922,45.0
13.774,1.362,0.845,47.0
13.779,1.365,0.768,38.0
13.767,1.37,1.153,47.0
13.764,1.372,1.074,136.0
13.726,1.37,0.993,24.0
13.749,1.374,0.915,38.0
13.776,1.378,0.838,96.0
13.778,1.38,0.761,39.0
13.769,1.386,1.146,40.0
13.759,1.387,1.066,126.0
13.751,1.388,0.987,37.0
13.745,1.389,0.907,78.0
13.773,1.394,0.831,150.0
13.766,1.395,0.752,40.0
13.758,1.401,1.137,41.0
13.76,1.403,1.059,141.0
13.754,1.403,0.98,102.0
13.744,1.404,0.9,110.0
13.764,1.408,0.823,124.0
13.768,1.41,0.745,40.0
13.751,1.415,1.128,45.0
13.754,1.417,1.05,130.0
13.758,1.419,0.972,150.0
13.75,1.419,0.892,105.0
13.768,1.423,0.814,147.0
13.76,1.424,0.736,39.0
13.751,1.43,1.12,54.0
13.755,1.431,1.041,114.0
13.755,1.433,0.963,150.0
13.748,1.434,0.883,106.0
13.764,1.437,0.805,150.0
13.763,1.438,0.727,38.0
13.754,1.444,1.111,41.0
13.761,1.446,1.033,150.0
13.759,1.447,0.954,150.0
13.743,1.447,0.873,73.0
13.771,1.451,0.796,110.0
13.765,1.452,0.718,39.0
13.75,1.457,1.101,69.0
13.762,1.46,1.023,150.0
13.755,1.46,0.944,150.0
13.75,1.461,0.864,92.0
13.766,1.464,0.787,107.0
13.772,1.466,0.708,39.0
13.746,1.47,1.091,64.0
13.767,1.473,1.014,150.0
13.762,1.474,0.935,150.0
13.742,1.473,0.853,39.0
13.77,1.478,0.777,97.0
13.773,1.479,0.699,37.0
13.757,1.484,1.082,69.0
13.773,1.486,1.004,150.0
13.758,1.486,0.924,150.0
13.745,1.486,0.843,37.0
13.774,1.49,0.766,68.0
13.775,1.492,0.688,35.0
13.775,1.498,1.072,68.0
13.775,1.499,0.993,119.0
13.75,1.497,0.913,150.0
13.748,1.498,0.833,51.0
13.779,1.503,0.756,41.0
13.783,1.504,0.678,32.0
13.781,1.51,1.062,78.0
13.774,1.51,0.982,56.0
13.746,1.508,0.901,150.0
13.757,1.511,0.822,81.0
13.781,1.514,0.745,36.0
13.795,1.517,0.667,30.0
13.773,1.52,1.05,69.0
13.768,1.521,0.97,35.0
13.745,1.519,0.89,150.0
13.759,1.522,0.81,45.0
13.805,1.528,0.734,32.0
13.811,1.53,0.656,28.0
13.788,1.533,1.039,41.0
13.765,1.531,0.958,30.0
13.757,1.531,0.878,100.0
13.767,1.533,0.799,36.0
13.81,1.539,0.722,26.0
13.818,1.541,0.644,17.0
13.795,1.544,1.027,37.0
13.76,1.541,0.945,27.0
13.765,1.542,0.867,39.0
13.786,1.545,0.788,30.0
13.815,1.549,0.71,10.0
35.86,4.025,1.64,52.0
13.806,1.555,1.015,25.0
13.758,1.55,0.933,16.0
13.764,1.551,0.854,33.0
36.438,4.109,2.049,150.0
36.191,4.084,1.828,33.0
35.877,4.051,1.607,150.0
13.786,1.561,1.001,14.0
13.745,1.557,0.919,10.0
13.757,1.559,0.84,14.0
13.799,1.565,0.763,5.0
9.996,1.134,0.495,2.0
35.854,4.07,1.572,126.0
13.822,1.574,0.99,9.0
13.791,1.571,0.908,10.0
13.767,1.569,0.828,11.0
9.993,1.139,0.542,8.0
9.995,1.14,0.485,8.0
35.849,4.091,1.537,2.0
13.805,1.58,0.975,4.0
13.756,1.575,0.893,5.0
13.787,1.579,0.815,5.0
9.989,1.144,0.532,13.0
9.992,1.145,0.475,13.0
9.995,1.146,0.418,12.0
10.008,1.151,0.697,21.0
10.004,1.15,0.639,30.0
10.006,1.151,0.581,20.0
9.994,1.15,0.522,17.0
10.008,1.152,0.466,16.0
10.001,1.152,0.408,14.0
10.004,1.155,0.686,49.0
10.007,1.156,0.629,90.0
10.001,1.155,0.571,59.0
10.001,1.155,0.512,21.0
10.0,1.156,0.455,20.0
10.0,1.156,0.398,18.0
10.002,1.159,0.676,77.0
9.993,1.158,0.617,123.0
10.002,1.16,0.56,99.0
9.991,1.158,0.502,56.0
10.001,1.16,0.445,45.0
10.008,1.161,0.388,20.0
10.004,1.163,0.665,85.0
10.005,1.164,0.607,131.0
9.992,1.162,0.549,119.0
9.993,1.163,0.491,83.0
10.003,1.164,0.434,63.0
10.009,1.165,0.377,24.0
10.003,1.167,0.654,82.0
9.999,1.167,0.596,133.0
9.991,1.166,0.538,126.0
9.999,1.167,0.48,77.0
9.997,1.167,0.423,83.0
10.0,1.167,0.366,29.0
10.001,1.17,0.643,81.0
9.993,1.169,0.585,134.0
9.987,1.168,0.527,134.0
9.979,1.167,0.468,76.0
9.996,1.17,0.412,69.0
10.0,1.17,0.355,29.0
9.992,1.172,0.631,85.0
9.995,1.172,0.574,147.0
9.987,1.171,0.516,124.0
9.987,1.171,0.458,82.0
9.996,1.172,0.4,68.0
9.995,1.172,0.343,29.0
9.987,1.173,0.62,86.0
9.994,1.174,0.562,131.0
9.987,1.173,0.505,134.0
9.98,1.172,0.446,77.0
9.996,1.174,0.389,69.0
9.998,1.174,0.332,23.0
9.982,1.175,0.608,74.0
9.986,1.175,0.551,149.0
9.976,1.174,0.493,134.0
9.98,1.174,0.435,78.0
9.993,1.175,0.378,80.0
9.994,1.176,0.321,26.0
9.987,1.177,0.597,80.0
9.996,1.177,0.54,145.0
9.984,1.176,0.482,134.0
9.98,1.175,0.423,77.0
9.992,1.176,0.366,76.0
9.989,1.176,0.309,28.0
9.985,1.177,0.585,75.0
9.987,1.177,0.528,149.0
9.986,1.177,0.47,127.0
9.984,1.176,0.412,82.0
9.991,1.177,0.354,77.0
9.988,1.177,0.297,23.0
9.981,1.177,0.573,72.0
9.988,1.178,0.516,147.0
9.986,1.177,0.458,141.0
9.984,1.177,0.4,80.0
9.989,1.177,0.342,73.0
9.989,1.177,0.285,27.0
9.984,1.178,0.561,74.0
9.992,1.178,0.504,146.0
9.987,1.177,0.446,126.0
9.987,1.177,0.388,82.0
9.992,1.177,0.331,75.0
9.996,1.178,0.274,26.0
9.982,1.177,0.549,71.0
9.988,1.177,0.492,150.0
9.986,1.177,0.434,122.0
9.982,1.176,0.376,72.0
9.995,1.177,0.319,77.0
9.992,1.176,0.262,36.0
9.985,1.176,0.537,77.0
9.989,1.176,0.48,139.0
9.988,1.176,0.422,125.0
9.996,1.176,0.364,81.0
9.994,1.176,0.307,77.0
10.0,1.176,0.25,31.0
9.997,1.176,0.526,82.0
9.991,1.175,0.468,150.0
9.988,1.174,0.41,119.0
9.991,1.174,0.352,82.0
9.993,1.174,0.295,78.0
9.993,1.174,0.237,25.0
9.984,1.173,0.513,75.0
9.997,1.174,0.456,150.0
9.993,1.173,0.398,110.0
9.985,1.172,0.34,80.0
9.997,1.173,0.283,88.0
10.001,1.173,0.226,26.0
9.996,1.172,0.501,87.0
10.001,1.172,0.444,144.0
9.994,1.171,0.386,112.0
9.994,1.17,0.328,85.0
10.002,1.171,0.271,67.0
10.008,1.171,0.214,22.0
9.992,1.169,0.489,81.0
10.001,1.169,0.432,136.0
10.002,1.169,0.374,122.0
9.998,1.168,0.316,63.0
10.006,1.168,0.259,58.0
10.006,1.168,0.201,20.0
10.0,1.167,0.477,80.0
10.003,1.166,0.42,126.0
9.999,1.165,0.362,116.0
9.996,1.164,0.303,48.0
10.011,1.165,0.246,29.0
10.005,1.164,0.189,18.0
10.006,1.164,0.465,72.0
10.005,1.163,0.407,95.0
10.002,1.162,0.35,72.0
33.921,3.939,0.99,8.0
33.932,3.938,0.795,20.0
10.009,1.161,0.177,16.0
10.012,1.16,0.453,39.0
10.006,1.159,0.395,46.0
10.004,1.158,0.337,20.0
33.939,3.926,0.948,70.0
33.994,3.93,0.754,3.0
33.494,3.87,0.551,10.0
10.014,1.156,0.441,18.0
10.01,1.155,0.383,17.0
9.997,1.152,0.325,15.0
9.993,1.151,0.266,12.0
9.987,1.15,0.209,11.0
33.909,3.902,0.517,20.0
10.006,1.15,0.428,14.0
33.11,3.803,1.227,4.0
9.992,1.147,0.313,9.0
9.998,1.146,0.255,7.0
10.008,1.147,0.198,5.0
33.945,3.888,0.476,6.0
32.954,3.771,1.371,2.0
33.108,3.785,1.187,6.0
10.001,1.142,0.301,4.0
10.001,1.141,0.243,2.0
10.017,1.142,0.185,1.0
10.043,1.144,0.129,0.0
33.108,3.769,1.337,3.0
33.045,3.758,1.145,8.0
10.034,1.14,0.29,0.0
96.904,11.001,2.237,27.0
96.934,10.996,1.682,32.0
75.706,8.582,0.88,3.0
33.805,3.826,1.324,3.0
32.985,3.73,1.103,10.0
96.914,10.949,2.685,35.0
13.823,1.56,0.302,3.0
13.852,1.562,0.223,2.0
13.89,1.565,0.145,0.0
35.89,4.038,1.363,110.0
35.908,4.035,1.157,3.0
13.842,1.554,0.367,3.0
13.802,1.548,0.285,8.0
33.561,3.761,0.501,2.0
13.834,1.549,0.127,4.0
35.877,4.01,1.319,6.0
13.804,1.541,0.428,7.0
13.817,1.541,0.349,8.0
13.8,1.537,0.269,19.0
13.833,1.54,0.19,12.0
13.831,1.538,0.111,10.0
13.813,1.533,0.491,19.0
13.825,1.533,0.412,16.0
13.806,1.529,0.333,17.0
13.794,1.526,0.252,27.0
13.8,1.525,0.173,19.0
13.808,1.524,0.095,18.0
13.814,1.522,0.475,29.0
13.806,1.519,0.396,29.0
13.804,1.517,0.317,31.0
13.799,1.515,0.236,31.0
13.806,1.514,0.157,29.0
13.798,1.512,0.079,26.0
13.805,1.509,0.459,35.0
13.8,1.506,0.379,37.0
13.788,1.503,0.3,35.0
13.785,1.501,0.22,33.0
13.794,1.501,0.141,34.0
13.797,1.499,0.062,29.0
13.793,1.495,0.442,37.0
13.794,1.493,0.363,71.0
13.786,1.49,0.284,38.0
13.783,1.488,0.204,37.0
13.791,1.487,0.126,35.0
13.786,1.485,0.047,33.0
13.785,1.481,0.426,40.0
13.791,1.48,0.348,121.0
13.772,1.476,0.269,39.0
13.781,1.475,0.189,36.0
13.783,1.473,0.11,38.0
13.782,1.471,0.031,34.0
13.781,1.467,0.411,64.0
13.786,1.465,0.332,98.0
13.771,1.462,0.253,57.0
13.773,1.46,0.173,35.0
13.785,1.46,0.095,40.0
13.779,1.457,0.016,35.0
13.778,1.453,0.395,50.0
13.778,1.45,0.317,93.0
13.77,1.447,0.238,74.0
13.767,1.445,0.158,37.0
13.781,1.445,0.079,62.0
13.77,1.442,0.001,36.0
13.779,1.438,0.38,59.0
13.759,1.434,0.301,108.0
13.771,1.433,0.223,111.0
13.766,1.43,0.143,39.0
13.78,1.429,0.064,56.0
13.771,1.426,-0.013,36.0
13.774,1.422,0.365,58.0
13.759,1.418,0.286,121.0
13.766,1.417,0.208,119.0
13.773,1.415,0.128,40.0
13.783,1.414,0.05,69.0
13.772,1.411,-0.028,36.0
13.776,1.407,0.351,40.0
13.757,1.402,0.272,130.0
13.77,1.401,0.194,126.0
13.775,1.399,0.114,52.0
13.785,1.398,0.035,66.0
13.772,1.395,-0.042,35.0
13.778,1.39,0.336,40.0
13.775,1.388,0.258,113.0
13.771,1.385,0.179,115.0
13.787,1.384,0.1,53.0
13.792,1.382,0.021,81.0
13.776,1.378,-0.056,35.0
13.776,1.373,0.322,41.0
13.781,1.371,0.244,143.0
13.776,1.368,0.166,106.0
13.793,1.368,0.086,70.0
13.79,1.365,0.007,60.0
13.788,1.362,-0.07,35.0
13.786,1.357,0.309,40.0
13.792,1.355,0.231,107.0
13.792,1.352,0.152,70.0
13.797,1.35,0.072,40.0
13.802,1.348,-0.005,37.0
13.79,1.345,-0.083,34.0
13.795,1.34,0.296,38.0
13.809,1.338,0.217,52.0
13.806,1.335,0.139,102.0
13.801,1.332,0.059,38.0
13.815,1.331,-0.019,37.0
13.801,1.327,-0.097,33.0
13.814,1.323,0.283,36.0
13.809,1.32,0.204,35.0
13.816,1.318,0.126,44.0
13.823,1.316,0.046,35.0
13.821,1.313,-0.032,33.0
13.822,1.311,-0.11,30.0
13.829,1.305,0.27,31.0
13.839,1.303,0.192,29.0
13.835,1.3,0.113,32.0
13.836,1.298,0.033,31.0
13.845,1.296,-0.044,29.0
13.834,1.292,-0.123,27.0
13.855,1.288,0.258,17.0
13.856,1.285,0.179,18.0
13.853,1.282,0.101,16.0
13.857,1.28,0.021,21.0
13.866,1.278,-0.057,23.0
13.862,1.275,-0.135,23.0
13.892,1.271,0.246,5.0
13.889,1.268,0.168,3.0
13.883,1.265,0.089,4.0
13.87,1.261,0.009,6.0
13.877,1.259,-0.069,8.0
13.887,1.257,-0.147,17.0
120.732,10.874,2.041,17.0
74.699,6.712,0.839,9.0
54.14,4.852,0.302,28.0
41.144,3.679,-0.007,45.0
34.955,3.118,-0.204,18.0
13.913,1.238,-0.159,3.0
28.122,2.49,0.451,51.0
28.129,2.484,0.292,25.0
54.075,4.763,0.256,28.0
41.025,3.604,-0.041,35.0
34.777,3.048,-0.231,11.0
30.229,2.643,-0.372,2.0
28.086,2.442,0.428,44.0
28.07,2.434,0.269,37.0
34.308,2.968,0.135,2.0
28.266,2.439,-0.051,28.0
28.246,2.431,-0.21,37.0
28.269,2.427,-0.37,14.0
28.05,2.395,0.405,50.0
28.065,2.39,0.247,42.0
28.19,2.394,0.089,16.0
28.2,2.388,-0.072,21.0
28.211,2.383,-0.231,27.0
28.186,2.375,-0.39,27.0
28.024,2.347,0.384,52.0
28.043,2.343,0.226,43.0
28.221,2.351,0.068,17.0
28.204,2.343,-0.093,24.0
27.908,2.312,-0.249,20.0
28.214,2.331,-0.411,9.0
28.022,2.301,0.364,55.0
28.02,2.295,0.206,37.0
28.246,2.306,0.048,28.0
28.198,2.296,-0.113,33.0
27.875,2.263,-0.268,43.0
28.252,2.287,-0.431,2.0
28.0,2.253,0.344,56.0
28.061,2.251,0.187,35.0
28.235,2.258,0.029,36.0
27.943,2.228,-0.131,26.0
27.862,2.215,-0.287,35.0
27.95,2.215,-0.445,2.0
28.026,2.207,0.326,52.0
28.115,2.207,0.169,28.0
28.124,2.201,0.01,16.0
27.94,2.18,-0.149,26.0
27.921,2.172,-0.305,5.0
23.87,1.851,-0.395,5.0
28.059,2.162,0.308,44.0
28.135,2.16,0.151,29.0
28.092,2.15,-0.006,24.0
28.012,2.137,-0.166,12.0
30.872,2.348,-0.357,1.0
23.354,1.77,-0.401,5.0
28.087,2.114,0.292,28.0
28.166,2.113,0.134,27.0
28.101,2.101,-0.023,14.0
35.155,2.619,-0.229,12.0
30.418,2.259,-0.369,1.0
22.991,1.702,-0.408,5.0
28.153,2.069,0.276,22.0
28.237,2.068,0.119,20.0
38.953,2.843,-0.053,19.0
0.0,0.0,0.0,0.0
30.11,2.182,-0.382,2.0
22.7,1.639,-0.415,4.0
74.108,5.314,0.689,47.0
53.968,3.855,0.199,13.0
40.961,2.916,-0.077,17.0
35.059,2.486,-0.266,11.0
29.841,2.108,-0.393,1.0
22.38,1.575,-0.421,4.0
74.019,5.173,0.651,39.0
46.995,3.271,0.15,19.0
36.487,2.53,-0.087,3.0
35.092,2.424,-0.283,8.0
29.603,2.037,-0.405,2.0
22.177,1.52,-0.427,4.0
73.825,5.024,0.615,31.0
46.539,3.154,0.127,20.0
36.644,2.473,-0.104,21.0
35.083,2.358,-0.299,8.0
29.393,1.968,-0.415,2.0
21.95,1.464,-0.432,4.0
73.711,4.878,0.582,21.0
45.991,3.031,0.106,21.0
36.568,2.399,-0.119,32.0
35.038,2.289,-0.313,6.0
25.172,1.638,-0.366,0.0
21.766,1.41,-0.438,4.0
73.609,4.732,0.552,13.0
0.0,0.0,0.0,0.0
36.316,2.313,-0.133,29.0
35.199,2.232,-0.328,1.0
28.955,1.828,-0.432,1.0
21.601,1.358,-0.442,4.0
33.48,2.088,0.238,157.0
33.45,2.076,0.052,1.0
36.215,2.237,-0.145,29.0
32.878,2.022,-0.318,1.0
28.864,1.767,-0.44,1.0
21.473,1.308,-0.447,4.0
73.501,4.441,0.5,8.0
42.458,2.553,0.052,17.0
36.131,2.162,-0.156,40.0
32.52,1.936,-0.325,1.0
28.713,1.702,-0.447,1.0
21.402,1.262,-0.452,4.0
73.454,4.295,0.477,8.0
43.239,2.515,0.04,18.0
36.15,2.092,-0.167,27.0
32.118,1.849,-0.33,1.0
24.883,1.426,-0.394,1.0
21.288,1.213,-0.455,4.0
73.43,4.149,0.458,5.0
42.621,2.395,0.029,19.0
35.975,2.011,-0.174,18.0
31.995,1.779,-0.336,1.0
24.782,1.371,-0.398,1.0
21.312,1.173,-0.46,4.0
55.808,3.043,0.335,5.0
42.112,2.283,0.019,17.0
35.88,1.934,-0.182,24.0
31.711,1.7,-0.34,2.0
24.888,1.327,-0.405,1.0
21.24,1.126,-0.463,4.0
55.643,2.922,0.324,7.0
42.171,2.202,0.012,18.0
36.049,1.871,-0.189,33.0
31.783,1.64,-0.346,2.0
24.745,1.269,-0.406,2.0
21.19,1.081,-0.465,4.0
55.426,2.8,0.315,7.0
42.021,2.11,0.006,17.0
36.001,1.796,-0.193,38.0
31.603,1.567,-0.348,1.0
24.799,1.222,-0.41,2.0
21.239,1.04,-0.469,4.0
55.303,2.681,0.308,9.0
42.085,2.027,0.001,17.0
36.112,1.728,-0.197,33.0
31.592,1.502,-0.351,2.0
24.647,1.164,-0.41,1.0
21.156,0.993,-0.469,4.0
58.36,2.711,0.321,6.0
42.138,1.944,0.0,18.0
36.168,1.658,-0.2,33.0
31.503,1.434,-0.351,2.0
24.802,1.121,-0.413,2.0
21.213,0.952,-0.471,4.0
58.568,2.601,0.32,10.0
42.178,1.86,-0.002,17.0
36.242,1.586,-0.201,28.0
31.498,1.369,-0.352,2.0
24.785,1.069,-0.413,1.0
21.275,0.911,-0.472,15.0
58.695,2.487,0.32,18.0
42.412,1.784,-0.002,17.0
36.315,1.515,-0.201,34.0
31.518,1.305,-0.351,1.0
28.218,1.16,-0.47,1.0
21.243,0.866,-0.471,4.0
58.839,2.372,0.323,16.0
42.677,1.707,0.0,15.0
36.394,1.444,-0.2,33.0
31.002,1.22,-0.344,6.0
28.1,1.096,-0.466,1.0
21.356,0.826,-0.472,4.0
59.073,2.259,0.329,33.0
47.017,1.783,0.003,21.0
36.457,1.37,-0.197,31.0
31.769,1.184,-0.349,1.0
28.133,1.04,-0.464,1.0
21.487,0.787,-0.472,4.0
59.241,2.143,0.337,34.0
47.081,1.688,0.009,22.0
36.621,1.301,-0.193,30.0
31.83,1.12,-0.345,1.0
28.163,0.982,-0.46,1.0
21.564,0.745,-0.471,4.0
59.496,2.028,0.347,35.0
46.925,1.585,0.016,23.0
36.71,1.228,-0.187,29.0
31.86,1.055,-0.34,1.0
28.203,0.925,-0.456,1.0
21.811,0.708,-0.472,4.0
60.063,1.923,0.362,35.0
47.412,1.502,0.026,24.0
36.929,1.158,-0.181,29.0
32.512,1.009,-0.341,1.0
28.442,0.873,-0.454,1.0
21.888,0.665,-0.469,4.0
60.707,1.817,0.38,27.0
47.73,1.413,0.037,22.0
38.977,1.141,-0.182,18.0
32.713,0.947,-0.335,1.0
28.557,0.817,-0.448,1.0
22.042,0.623,-0.466,4.0
61.295,1.707,0.4,18.0
47.953,1.319,0.051,22.0
0.0,0.0,0.0,0.0
33.022,0.886,-0.328,1.0
28.867,0.765,-0.444,1.0
22.248,0.582,-0.464,4.0
74.53,1.919,0.509,12.0
48.32,1.228,0.066,23.0
38.238,0.959,-0.155,43.0
33.309,0.825,-0.32,1.0
29.017,0.709,-0.437,1.0
22.969,0.553,-0.471,5.0
74.619,1.766,0.535,16.0
48.365,1.129,0.083,22.0
38.529,0.886,-0.143,45.0
34.117,0.773,-0.316,1.0
29.267,0.653,-0.43,2.0
23.069,0.507,-0.464,2.0
74.886,1.616,0.565,24.0
52.195,1.108,0.11,7.0
39.034,0.815,-0.129,45.0
36.706,0.755,-0.325,2.0
29.536,0.598,-0.422,2.0
26.498,0.527,-0.522,1.0
77.789,1.517,0.62,11.0
0.0,0.0,0.0,0.0
39.327,0.74,-0.113,37.0
36.783,0.68,-0.309,8.0
29.789,0.54,-0.412,2.0
26.66,0.475,-0.514,2.0
77.706,1.353,0.655,20.0
0.0,0.0,0.0,0.0
39.698,0.664,-0.096,23.0
36.974,0.606,-0.293,6.0
30.267,0.486,-0.404,2.0
26.87,0.422,-0.504,2.0
77.935,1.195,0.695,38.0
48.083,0.721,0.168,43.0
44.109,0.647,-0.084,5.0
37.179,0.533,-0.276,7.0
30.488,0.426,-0.391,2.0
27.05,0.369,-0.494,1.0
48.164,0.639,0.455,16.0
48.054,0.621,0.194,76.0
44.409,0.559,-0.06,18.0
37.435,0.459,-0.257,13.0
30.976,0.369,-0.38,2.0
27.346,0.316,-0.483,1.0
48.095,0.538,0.482,106.0
48.04,0.522,0.221,96.0
0.0,0.0,0.0,0.0
37.758,0.385,-0.237,13.0
31.412,0.31,-0.367,1.0
27.812,0.265,-0.475,1.0
48.066,0.44,0.51,115.0
48.033,0.423,0.251,103.0
0.0,0.0,0.0,0.0
38.135,0.31,-0.215,18.0
31.9,0.249,-0.352,1.0
28.298,0.211,-0.465,1.0
48.142,0.342,0.542,52.0
48.182,0.326,0.283,63.0
47.119,0.303,0.022,40.0
38.606,0.235,-0.193,36.0
32.918,0.189,-0.342,1.0
28.755,0.156,-0.453,2.0
59.294,0.301,0.708,119.0
59.331,0.281,0.389,90.0
47.901,0.21,0.056,21.0
39.108,0.159,-0.168,44.0
33.342,0.124,-0.323,1.0
29.191,0.099,-0.44,2.0
79.463,0.243,1.005,151.0
76.614,0.209,0.557,22.0
0.0,0.0,0.0,0.0
39.881,0.082,-0.142,37.0
34.886,0.06,-0.312,0.0
29.583,0.041,-0.423,2.0
79.466,0.084,1.064,151.0
79.355,0.057,0.636,32.0
0.0,0.0,0.0,0.0
40.955,0.002,-0.115,17.0
38.137,-0.01,-0.311,2.0
30.046,-0.018,-0.407,2.0
79.458,-0.074,1.126,151.0
79.435,-0.101,0.7,150.0
56.136,-0.09,0.194,11.0
42.331,-0.082,-0.084,17.0
38.835,-0.088,-0.286,3.0
30.544,-0.079,-0.388,1.0
79.459,-0.233,1.192,151.0
79.436,-0.258,0.765,150.0
61.447,-0.22,0.263,11.0
45.09,-0.177,-0.052,20.0
39.431,-0.167,-0.257,4.0
31.252,-0.143,-0.371,1.0
79.451,-0.39,1.26,160.0
79.452,-0.415,0.834,185.0
76.722,-0.425,0.394,9.0
50.8,-0.299,-0.015,2.0
42.224,-0.262,-0.238,12.0
32.384,-0.212,-0.355,1.0
79.447,-0.543,1.329,166.0
79.45,-0.569,0.904,195.0
77.129,-0.577,0.465,13.0
49.582,-0.388,0.029,2.0
47.393,-0.386,-0.224,2.0
33.257,-0.282,-0.335,1.0
79.448,-0.697,1.402,180.0
79.445,-0.723,0.978,181.0
78.779,-0.743,0.549,37.0
57.124,-0.557,0.088,5.0
47.274,-0.476,-0.179,2.0
38.476,-0.401,-0.35,0.0
79.432,-0.851,1.479,196.0
79.403,-0.877,1.055,250.0
79.166,-0.899,0.629,28.0
79.236,-0.926,0.199,5.0
52.543,-0.631,-0.147,0.0
0.0,0.0,0.0,0.0
86.921,-1.097,1.704,27.0
86.946,-1.126,1.241,150.0
87.886,-1.166,0.786,11.0
0.0,0.0,0.0,0.0
50.832,-0.706,-0.091,2.0
38.502,-0.548,-0.273,0.0
187.116,-2.716,3.86,30.0
205.337,-3.043,3.142,24.0
123.854,-1.874,1.236,10.0
77.647,-1.199,0.354,1.0
0.0,0.0,0.0,0.0
40.235,-0.647,-0.244,5.0
264.565,-4.328,5.733,27.0
205.405,-3.424,3.359,58.0
40.279,-0.684,0.444,28.0
40.253,-0.696,0.226,52.0
40.291,-0.71,0.012,67.0
40.29,-0.722,-0.201,32.0
40.209,-0.731,0.915,57.0
40.173,-0.743,0.7,53.0
40.25,-0.757,0.488,41.0
40.253,-0.769,0.27,50.0
40.31,-0.783,0.057,3.0
46.769,-0.923,-0.181,2.0
40.23,-0.804,0.959,54.0
40.247,-0.817,0.746,60.0
40.237,-0.829,0.532,53.0
0.0,0.0,0.0,0.0
68.201,-1.446,0.172,0.0
0.0,0.0,0.0,0.0
40.212,-0.874,1.004,62.0
40.206,-0.886,0.79,54.0
40.31,-0.901,0.579,150.0
40.293,-0.913,0.361,43.0
40.299,-0.925,0.148,135.0
40.314,-0.938,-0.064,150.0
40.202,-0.945,1.05,59.0
40.181,-0.957,0.837,53.0
40.212,-0.969,0.625,62.0
40.221,-0.981,0.408,39.0
40.23,-0.994,0.195,2.0
41.039,-1.027,-0.016,0.0
40.206,-1.015,1.099,57.0
40.193,-1.027,0.886,47.0
40.224,-1.039,0.673,51.0
40.197,-1.051,0.457,46.0
40.178,-1.063,0.244,59.0
40.204,-1.075,0.032,57.0
40.223,-1.085,1.148,42.0
40.25,-1.097,0.936,39.0
0.0,0.0,0.0,0.0
40.302,-1.122,0.507,0.0
40.214,-1.131,0.294,41.0
40.2,-1.142,0.082,51.0
40.293,-1.155,1.201,10.0
40.322,-1.167,0.988,26.0
40.353,-1.18,0.776,21.0
40.318,-1.191,0.559,1.0
0.0,0.0,0.0,0.0
0.0,0.0,0.0,0.0
0.0,0.0,0.0,0.0
40.311,-1.233,1.04,26.0
40.331,-1.245,0.828,20.0
40.336,-1.256,0.611,63.0
126.658,-3.983,1.252,2.0
0.0,0.0,0.0,0.0
0.0,0.0,0.0,0.0
0.0,0.0,0.0,0.0
0.0,0.0,0.0,0.0
0.0,0.0,0.0,0.0
0.0,0.0,0.0,0.0
0.0,0.0,0.0,0.0
0.0,0.0,0.0,0.0
0.0,0.0,0.0,0.0
0.0,0.0,0.0,0.0
0.0,0.0,0.0,0.0
0.0,0.0,0.0,0.0
0.0,0.0,0.0,0.0
0.0,0.0,0.0,0.0
0.0,0.0,0.0,0.0
0.0,0.0,0.0,0.0
0.0,0.0,0.0,0.0
0.0,0.0,0.0,0.0
0.0,0.0,0.0,0.0
0.0,0.0,0.0,0.0
0.0,0.0,0.0,0.0
0.0,0.0,0.0,0.0
0.0,0.0,0.0,0.0
0.0,0.0,0.0,0.0
0.0,0.0,0.0,0.0
0.0,0.0,0.0,0.0
0.0,0.0,0.0,0.0
0.0,0.0,0.0,0.0
0.0,0.0,0.0,0.0
0.0,0.0,0.0,0.0
0.0,0.0,0.0,0.0
0.0,0.0,0.0,0.0
0.0,0.0,0.0,0.0
0.0,0.0,0.0,0.0
0.0,0.0,0.0,0.0
0.0,0.0,0.0,0.0
0.0,0.0,0.0,0.0
0.0,0.0,0.0,0.0
0.0,0.0,0.0,0.0
0.0,0.0,0.0,0.0
0.0,0.0,0.0,0.0
0.0,0.0,0.0,0.0
0.0,0.0,0.0,0.0
0.0,0.0,0.0,0.0
0.0,0.0,0.0,0.0
0.0,0.0,0.0,0.0
0.0,0.0,0.0,0.0
0.0,0.0,0.0,0.0
0.0,0.0,0.0,0.0
0.0,0.0,0.0,0.0
0.0,0.0,0.0,0.0
0.0,0.0,0.0,0.0
0.0,0.0,0.0,0.0
0.0,0.0,0.0,0.0
0.0,0.0,0.0,0.0
0.0,0.0,0.0,0.0
0.0,0.0,0.0,0.0
0.0,0.0,0.0,0.0
0.0,0.0,0.0,0.0
0.0,0.0,0.0,0.0
0.0,0.0,0.0,0.0
0.0,0.0,0.0,0.0
0.0,0.0,0.0,0.0
