X,Y,Z,Reflectivity
10.174,1.141,-0.696,2.0
9.66,1.083,-0.717,1.0
13.089,1.464,-0.608,10.0
12.493,1.397,-0.652,1.0
11.539,1.29,-0.669,2.0
10.765,1.203,-0.687,1.0
10.058,1.124,-0.699,2.0
9.575,1.07,-0.721,1.0
13.076,1.457,-0.621,10.0
12.285,1.368,-0.654,1.0
11.405,1.27,-0.673,1.0
10.628,1.183,-0.689,1.0
9.946,1.107,-0.702,2.0
9.454,1.052,-0.722,0.0
13.066,1.45,-0.635,11.0
12.172,1.35,-0.661,1.0
11.278,1.251,-0.677,1.0
10.499,1.164,-0.692,1.0
9.835,1.09,-0.704,1.0
9.354,1.037,-0.724,1.0
12.987,1.435,-0.644,7.0
11.976,1.323,-0.663,1.0
11.117,1.227,-0.679,1.0
10.349,1.142,-0.692,1.0
9.745,1.075,-0.708,2.0
9.261,1.021,-0.726,1.0
12.836,1.411,-0.649,4.0
11.85,1.302,-0.667,1.0
10.948,1.203,-0.679,1.0
10.236,1.124,-0.695,2.0
9.699,1.065,-0.714,1.0
9.197,1.009,-0.73,1.0
12.639,1.382,-0.652,1.0
11.66,1.274,-0.668,1.0
10.853,1.186,-0.684,2.0
10.127,1.106,-0.697,2.0
9.628,1.051,-0.718,1.0
9.116,0.995,-0.732,1.0
12.432,1.352,-0.653,1.0
11.55,1.255,-0.673,1.0
10.742,1.167,-0.687,1.0
10.019,1.088,-0.699,2.0
9.538,1.035,-0.72,1.0
9.032,0.98,-0.734,1.0
12.297,1.329,-0.657,1.0
11.404,1.232,-0.675,1.0
10.622,1.147,-0.689,1.0
9.955,1.074,-0.704,2.0
9.431,1.017,-0.721,1.0
8.959,0.966,-0.736,0.0
12.186,1.309,-0.662,2.0
11.26,1.208,-0.676,1.0
10.502,1.126,-0.691,1.0
9.842,1.055,-0.705,1.0
9.36,1.003,-0.724,1.0
8.892,0.952,-0.739,0.0
12.027,1.283,-0.664,2.0
11.144,1.188,-0.679,1.0
10.374,1.105,-0.691,2.0
9.755,1.038,-0.707,1.0
9.297,0.989,-0.727,1.0
8.762,0.931,-0.736,0.0
11.877,1.258,-0.666,2.0
11.01,1.165,-0.68,1.0
10.292,1.088,-0.695,2.0
9.706,1.025,-0.712,2.0
9.238,0.975,-0.73,1.0
8.705,0.918,-0.738,1.0
11.773,1.237,-0.67,2.0
10.947,1.149,-0.685,1.0
10.21,1.071,-0.697,2.0
9.661,1.013,-0.716,1.0
9.187,0.962,-0.734,0.0
8.328,0.872,-0.713,1.0
11.668,1.216,-0.673,3.0
10.838,1.129,-0.687,1.0
10.138,1.055,-0.7,2.0
9.601,0.998,-0.719,1.0
9.122,0.948,-0.735,0.0
8.275,0.859,-0.715,1.0
11.56,1.195,-0.675,2.0
10.741,1.109,-0.689,2.0
10.07,1.039,-0.703,2.0
9.545,0.984,-0.722,1.0
9.037,0.931,-0.735,1.0
8.129,0.836,-0.708,2.0
11.428,1.171,-0.676,1.0
10.652,1.09,-0.691,2.0
9.955,1.018,-0.702,2.0
9.485,0.969,-0.724,1.0
8.975,0.916,-0.737,1.0
7.968,0.812,-0.7,3.0
11.332,1.15,-0.678,1.0
10.577,1.072,-0.693,2.0
9.877,1.0,-0.704,2.0
9.426,0.954,-0.726,1.0
8.931,0.903,-0.739,1.0
7.876,0.795,-0.697,3.0
11.254,1.131,-0.681,1.0
10.493,1.054,-0.695,1.0
9.839,0.987,-0.707,2.0
9.35,0.937,-0.727,1.0
8.872,0.888,-0.74,1.0
7.84,0.784,-0.699,4.0
11.168,1.111,-0.683,1.0
10.413,1.035,-0.696,1.0
9.801,0.973,-0.711,2.0
9.303,0.923,-0.729,1.0
8.822,0.874,-0.741,1.0
7.811,0.773,-0.701,4.0
11.094,1.092,-0.685,1.0
10.318,1.015,-0.696,1.0
9.739,0.957,-0.712,2.0
9.272,0.91,-0.732,1.0
8.788,0.861,-0.743,1.0
7.767,0.76,-0.701,4.0
11.01,1.073,-0.686,1.0
10.263,0.998,-0.698,2.0
9.691,0.941,-0.714,2.0
9.231,0.896,-0.733,1.0
8.656,0.839,-0.737,1.0
7.745,0.75,-0.704,4.0
10.95,1.055,-0.688,2.0
10.22,0.983,-0.7,2.0
9.662,0.928,-0.717,2.0
9.192,0.882,-0.735,1.0
8.592,0.823,-0.736,0.0
7.721,0.739,-0.705,4.0
10.913,1.039,-0.691,1.0
10.174,0.967,-0.702,2.0
9.65,0.916,-0.72,1.0
9.164,0.868,-0.737,1.0
8.429,0.798,-0.726,1.0
7.712,0.729,-0.708,4.0
10.868,1.022,-0.693,1.0
10.135,0.951,-0.704,2.0
9.603,0.9,-0.721,1.0
9.113,0.853,-0.737,1.0
8.473,0.792,-0.733,1.0
7.686,0.717,-0.709,4.0
10.809,1.003,-0.694,1.0
10.104,0.936,-0.706,2.0
9.582,0.887,-0.723,1.0
9.112,0.842,-0.74,0.0
8.281,0.764,-0.72,2.0
7.662,0.706,-0.71,4.0
10.77,0.987,-0.695,1.0
10.065,0.92,-0.707,2.0
9.552,0.872,-0.725,1.0
9.073,0.827,-0.741,0.0
8.334,0.759,-0.728,1.0
7.628,0.693,-0.709,4.0
10.747,0.971,-0.698,2.0
10.017,0.904,-0.707,1.0
9.538,0.859,-0.727,1.0
9.039,0.813,-0.741,0.0
8.243,0.74,-0.722,2.0
7.618,0.683,-0.711,4.0
10.701,0.954,-0.698,2.0
9.978,0.888,-0.707,1.0
9.525,0.846,-0.729,1.0
9.017,0.799,-0.742,1.0
8.266,0.731,-0.727,1.0
7.607,0.672,-0.712,4.0
10.678,0.938,-0.699,1.0
9.961,0.873,-0.708,1.0
9.526,0.834,-0.731,1.0
9.004,0.786,-0.743,1.0
8.352,0.728,-0.736,1.0
7.621,0.663,-0.715,4.0
10.672,0.923,-0.701,1.0
9.934,0.858,-0.709,2.0
9.507,0.819,-0.732,1.0
8.985,0.773,-0.743,1.0
8.288,0.711,-0.732,1.0
7.626,0.653,-0.717,5.0
10.635,0.906,-0.701,1.0
9.917,0.843,-0.709,2.0
9.483,0.804,-0.732,1.0
8.972,0.759,-0.744,1.0
8.348,0.705,-0.739,1.0
7.645,0.645,-0.72,5.0
10.619,0.89,-0.701,1.0
9.919,0.83,-0.711,2.0
9.481,0.791,-0.733,1.0
8.965,0.746,-0.744,1.0
8.37,0.696,-0.742,1.0
7.693,0.638,-0.725,4.0
10.619,0.875,-0.702,2.0
9.935,0.817,-0.713,1.0
9.48,0.778,-0.733,1.0
8.987,0.736,-0.747,1.0
8.255,0.675,-0.732,2.0
7.747,0.632,-0.731,4.0
10.634,0.862,-0.704,2.0
9.923,0.803,-0.712,2.0
9.473,0.764,-0.733,1.0
8.986,0.723,-0.747,0.0
8.237,0.662,-0.731,2.0
7.832,0.628,-0.739,4.0
10.635,0.847,-0.704,2.0
9.92,0.788,-0.712,2.0
9.486,0.752,-0.734,1.0
8.984,0.71,-0.747,0.0
8.253,0.651,-0.732,2.0
7.871,0.62,-0.743,4.0
10.648,0.833,-0.705,2.0
9.917,0.774,-0.712,2.0
9.488,0.739,-0.734,1.0
8.988,0.698,-0.747,1.0
8.402,0.651,-0.745,1.0
7.912,0.611,-0.746,5.0
10.688,0.821,-0.707,2.0
9.93,0.761,-0.712,1.0
9.525,0.728,-0.736,1.0
9.01,0.687,-0.748,1.0
8.519,0.648,-0.755,1.0
7.951,0.603,-0.749,5.0
10.729,0.808,-0.709,1.0
9.963,0.749,-0.713,1.0
9.552,0.716,-0.737,2.0
9.034,0.675,-0.749,1.0
8.575,0.639,-0.759,2.0
7.977,0.593,-0.75,5.0
10.743,0.794,-0.708,1.0
9.988,0.736,-0.714,2.0
9.554,0.702,-0.736,2.0
9.057,0.664,-0.749,1.0
8.591,0.628,-0.759,3.0
8.01,0.584,-0.752,5.0
10.771,0.78,-0.708,2.0
10.038,0.725,-0.715,2.0
9.564,0.689,-0.735,2.0
9.1,0.653,-0.751,2.0
8.613,0.617,-0.759,4.0
8.07,0.576,-0.756,5.0
10.82,0.767,-0.708,3.0
10.095,0.714,-0.717,2.0
9.584,0.676,-0.734,3.0
9.111,0.641,-0.749,2.0
8.645,0.606,-0.759,4.0
8.124,0.568,-0.759,4.0
10.856,0.754,-0.708,3.0
10.134,0.701,-0.717,2.0
9.6,0.662,-0.732,4.0
9.145,0.629,-0.749,2.0
8.683,0.596,-0.76,5.0
8.202,0.561,-0.763,3.0
10.891,0.74,-0.707,3.0
10.206,0.691,-0.719,3.0
9.613,0.649,-0.73,4.0
9.196,0.619,-0.75,2.0
8.74,0.586,-0.762,4.0
8.26,0.552,-0.766,2.0
10.932,0.726,-0.705,3.0
10.239,0.678,-0.717,3.0
9.626,0.635,-0.728,4.0
9.248,0.608,-0.751,2.0
8.777,0.575,-0.762,3.0
8.331,0.544,-0.769,1.0
10.991,0.713,-0.705,2.0
10.319,0.667,-0.719,2.0
9.644,0.622,-0.725,4.0
9.319,0.599,-0.753,1.0
8.823,0.565,-0.762,2.0
8.372,0.534,-0.769,1.0
11.095,0.703,-0.706,2.0
10.385,0.656,-0.718,2.0
9.679,0.609,-0.723,2.0
9.379,0.588,-0.753,1.0
8.863,0.554,-0.761,1.0
8.413,0.524,-0.769,1.0
11.208,0.693,-0.708,2.0
10.468,0.645,-0.719,2.0
9.79,0.601,-0.726,2.0
9.418,0.576,-0.752,1.0
8.913,0.543,-0.761,1.0
8.457,0.514,-0.768,2.0
11.309,0.682,-0.709,1.0
10.552,0.634,-0.719,2.0
9.884,0.592,-0.728,2.0
9.464,0.564,-0.75,1.0
8.959,0.532,-0.759,1.0
8.505,0.503,-0.768,2.0
11.374,0.669,-0.706,1.0
10.633,0.623,-0.718,3.0
10.002,0.583,-0.731,2.0
9.517,0.553,-0.749,1.0
9.02,0.522,-0.759,2.0
8.571,0.494,-0.769,2.0
11.474,0.657,-0.705,2.0
10.717,0.611,-0.717,2.0
10.127,0.575,-0.733,2.0
9.579,0.542,-0.747,1.0
9.081,0.512,-0.758,2.0
8.645,0.485,-0.77,2.0
11.568,0.645,-0.703,2.0
10.823,0.601,-0.717,2.0
10.236,0.566,-0.734,3.0
9.641,0.531,-0.746,1.0
9.15,0.501,-0.758,2.0
8.757,0.478,-0.773,2.0
11.722,0.635,-0.705,2.0
10.923,0.589,-0.716,3.0
10.32,0.555,-0.733,2.0
9.721,0.52,-0.745,2.0
9.219,0.491,-0.757,2.0
8.896,0.472,-0.779,2.0
11.846,0.624,-0.703,2.0
11.061,0.58,-0.717,2.0
10.443,0.545,-0.734,2.0
9.82,0.51,-0.745,2.0
9.3,0.481,-0.756,2.0
9.065,0.467,-0.787,2.0
12.0,0.614,-0.703,3.0
11.14,0.567,-0.713,3.0
10.533,0.534,-0.732,2.0
9.906,0.5,-0.743,2.0
9.396,0.472,-0.756,2.0
9.216,0.46,-0.792,2.0
12.177,0.604,-0.703,3.0
11.248,0.555,-0.711,3.0
10.645,0.523,-0.731,2.0
10.002,0.489,-0.742,2.0
9.524,0.463,-0.758,2.0
9.413,0.456,-0.801,2.0
12.335,0.593,-0.702,3.0
11.548,0.553,-0.72,2.0
10.752,0.512,-0.728,2.0
10.103,0.479,-0.74,2.0
9.671,0.456,-0.761,2.0
9.629,0.452,-0.81,2.0
12.483,0.582,-0.699,3.0
11.721,0.543,-0.72,2.0
10.886,0.502,-0.727,2.0
10.207,0.468,-0.738,2.0
9.85,0.45,-0.766,2.0
9.86,0.448,-0.82,1.0
12.713,0.573,-0.699,3.0
11.878,0.533,-0.718,1.0
11.028,0.492,-0.726,2.0
10.359,0.459,-0.739,2.0
10.041,0.443,-0.771,2.0
10.073,0.442,-0.828,1.0
12.915,0.563,-0.698,4.0
12.035,0.521,-0.715,2.0
11.161,0.481,-0.723,2.0
10.513,0.451,-0.739,2.0
10.265,0.438,-0.778,2.0
10.289,0.436,-0.835,1.0
12.972,0.546,-0.687,8.0
12.237,0.512,-0.714,2.0
11.314,0.471,-0.721,2.0
10.68,0.442,-0.74,2.0
10.549,0.434,-0.788,2.0
10.521,0.43,-0.843,0.0
13.06,0.53,-0.678,11.0
12.454,0.503,-0.713,3.0
11.496,0.461,-0.72,2.0
10.865,0.433,-0.741,2.0
10.791,0.428,-0.794,2.0
10.85,0.428,-0.857,0.0
13.067,0.511,-0.664,11.0
12.636,0.492,-0.71,4.0
11.667,0.451,-0.718,2.0
11.064,0.425,-0.742,3.0
11.034,0.421,-0.799,2.0
11.079,0.421,-0.862,0.0
13.094,0.494,-0.65,4.0
12.836,0.481,-0.706,4.0
11.869,0.442,-0.717,2.0
11.294,0.418,-0.744,3.0
11.298,0.415,-0.805,2.0
11.42,0.417,-0.875,0.0
13.323,0.483,-0.646,2.0
13.034,0.469,-0.701,7.0
12.105,0.433,-0.716,3.0
11.574,0.411,-0.748,3.0
11.598,0.409,-0.812,1.0
11.609,0.407,-0.875,0.0
13.584,0.473,-0.641,3.0
13.254,0.458,-0.697,5.0
12.338,0.424,-0.715,3.0
11.864,0.405,-0.752,2.0
11.92,0.404,-0.819,1.0
11.97,0.403,-0.887,0.0
13.856,0.463,-0.637,3.0
13.51,0.448,-0.693,4.0
12.573,0.414,-0.712,3.0
12.207,0.399,-0.758,3.0
12.212,0.397,-0.824,0.0
12.338,0.398,-0.898,0.0
14.122,0.452,-0.631,3.0
13.753,0.437,-0.688,4.0
12.823,0.404,-0.71,4.0
12.546,0.393,-0.762,3.0
12.628,0.393,-0.835,0.0
12.666,0.391,-0.905,1.0
14.444,0.442,-0.626,3.0
13.993,0.425,-0.681,4.0
13.076,0.394,-0.706,4.0
12.814,0.384,-0.761,5.0
12.945,0.385,-0.838,0.0
12.937,0.382,-0.907,1.0
14.876,0.435,-0.624,3.0
14.247,0.414,-0.673,5.0
13.351,0.385,-0.702,4.0
13.076,0.374,-0.759,5.0
13.243,0.376,-0.839,0.0
13.093,0.368,-0.899,1.0
15.437,0.431,-0.626,4.0
14.409,0.399,-0.661,5.0
13.666,0.375,-0.699,4.0
13.433,0.366,-0.76,3.0
13.493,0.365,-0.835,0.0
12.565,0.337,-0.845,0.0
15.722,0.418,-0.615,3.0
14.62,0.385,-0.649,5.0
13.948,0.365,-0.693,4.0
13.821,0.358,-0.762,1.0
13.748,0.353,-0.831,0.0
12.664,0.323,-0.832,0.0
16.16,0.409,-0.608,3.0
14.898,0.373,-0.639,4.0
14.286,0.355,-0.689,5.0
14.178,0.349,-0.76,1.0
14.012,0.342,-0.825,0.0
12.887,0.312,-0.828,0.0
16.605,0.399,-0.6,3.0
15.227,0.362,-0.63,3.0
14.607,0.344,-0.682,5.0
14.618,0.341,-0.761,1.0
14.637,0.339,-0.84,0.0
13.109,0.301,-0.821,0.0
17.078,0.389,-0.59,2.0
15.587,0.351,-0.621,3.0
15.008,0.335,-0.677,3.0
15.016,0.332,-0.758,1.0
15.169,0.332,-0.846,0.0
13.355,0.29,-0.816,0.0
17.612,0.379,-0.581,3.0
16.009,0.341,-0.612,3.0
15.41,0.325,-0.671,2.0
15.501,0.323,-0.758,1.0
15.611,0.322,-0.846,0.0
13.613,0.278,-0.809,0.0
18.166,0.368,-0.57,3.0
16.498,0.331,-0.604,3.0
15.814,0.314,-0.662,3.0
15.875,0.312,-0.75,2.0
15.398,0.299,-0.809,2.0
13.829,0.266,-0.799,0.0
18.722,0.357,-0.556,7.0
16.988,0.321,-0.594,2.0
16.149,0.302,-0.65,3.0
16.19,0.299,-0.738,2.0
15.258,0.279,-0.776,0.0
19.315,0.346,-0.542,3.0
17.589,0.312,-0.586,3.0
16.627,0.291,-0.641,4.0
16.782,0.29,-0.736,2.0
15.743,0.269,-0.774,0.0
14.658,0.248,-0.797,0.0
20.007,0.335,-0.527,4.0
18.145,0.301,-0.573,3.0
17.153,0.281,-0.632,4.0
17.254,0.279,-0.727,2.0
16.4,0.262,-0.777,0.0
14.946,0.236,-0.787,1.0
20.842,0.326,-0.513,4.0
18.756,0.29,-0.56,3.0
17.735,0.271,-0.622,4.0
17.896,0.27,-0.723,2.0
17.892,0.266,-0.817,2.0
15.133,0.222,-0.77,1.0
21.597,0.315,-0.494,7.0
19.419,0.279,-0.545,3.0
18.306,0.26,-0.61,6.0
18.553,0.26,-0.717,2.0
18.531,0.256,-0.813,1.0
15.516,0.212,-0.762,0.0
22.38,0.302,-0.472,1.0
20.154,0.269,-0.53,3.0
18.98,0.249,-0.598,6.0
19.182,0.249,-0.707,1.0
19.253,0.246,-0.81,1.0
15.876,0.2,-0.751,0.0
26.573,0.332,-0.513,2.0
20.98,0.258,-0.514,4.0
19.633,0.238,-0.584,7.0
19.774,0.236,-0.693,1.0
48.22,0.569,-1.943,8.0
16.474,0.191,-0.749,0.0
27.444,0.315,-0.48,1.0
21.83,0.247,-0.495,4.0
20.267,0.226,-0.565,5.0
20.406,0.224,-0.678,2.0
20.426,0.221,-0.785,0.0
28.901,0.304,-0.452,2.0
25.877,0.268,-0.539,1.0
21.047,0.214,-0.548,5.0
20.998,0.21,-0.658,3.0
19.058,0.188,-0.697,0.0
29.858,0.286,-0.411,2.0
26.779,0.253,-0.508,1.0
21.827,0.202,-0.528,4.0
21.676,0.197,-0.639,2.0
22.017,0.197,-0.763,0.0
48.195,0.424,-1.922,6.0
31.331,0.272,-0.372,1.0
27.862,0.237,-0.475,1.0
25.062,0.21,-0.558,1.0
22.487,0.184,-0.619,2.0
20.57,0.166,-0.673,0.0
18.659,0.147,-0.708,1.0
33.312,0.26,-0.332,1.0
29.256,0.224,-0.443,2.0
26.167,0.196,-0.531,1.0
23.459,0.172,-0.601,2.0
21.439,0.154,-0.66,2.0
19.243,0.136,-0.692,1.0
37.644,0.262,-0.301,3.0
30.334,0.206,-0.4,1.0
27.145,0.181,-0.499,1.0
24.143,0.157,-0.571,2.0
21.967,0.14,-0.633,2.0
19.978,0.124,-0.68,1.0
38.321,0.235,-0.232,14.0
31.983,0.192,-0.359,1.0
28.44,0.166,-0.466,1.0
25.449,0.145,-0.552,1.0
22.939,0.128,-0.616,2.0
20.812,0.113,-0.667,1.0
39.231,0.21,-0.159,49.0
37.707,0.197,-0.348,1.0
29.653,0.151,-0.428,2.0
26.548,0.131,-0.523,2.0
23.675,0.114,-0.589,2.0
21.49,0.101,-0.645,2.0
43.967,0.203,-0.092,9.0
37.848,0.169,-0.274,12.0
30.962,0.135,-0.384,1.0
27.565,0.116,-0.487,1.0
24.774,0.101,-0.566,1.0
22.503,0.089,-0.63,2.0
46.87,0.182,-0.003,23.0
38.849,0.146,-0.203,34.0
33.097,0.121,-0.344,1.0
28.946,0.102,-0.453,2.0
25.982,0.089,-0.541,2.0
23.296,0.077,-0.606,2.0
54.176,0.174,0.106,30.0
40.331,0.125,-0.128,16.0
37.951,0.113,-0.317,2.0
30.118,0.086,-0.41,1.0
27.01,0.074,-0.507,2.0
24.127,0.064,-0.578,2.0
59.072,0.152,0.236,9.0
0.0,0.0,0.0,0.0
38.6,0.091,-0.244,14.0
32.021,0.072,-0.37,1.0
28.308,0.06,-0.473,1.0
25.421,0.052,-0.557,1.0
75.997,0.149,0.459,16.0
47.988,0.089,0.042,20.0
39.599,0.069,-0.168,34.0
33.973,0.056,-0.323,1.0
29.591,0.046,-0.434,2.0
26.581,0.039,-0.527,3.0
79.421,0.11,0.644,104.0
0.0,0.0,0.0,0.0
43.984,0.052,-0.096,18.0
38.321,0.042,-0.285,6.0
30.955,0.031,-0.39,1.0
27.665,0.025,-0.491,1.0
79.466,0.067,0.809,151.0
75.984,0.058,0.382,11.0
47.172,0.031,-0.005,21.0
39.217,0.023,-0.21,26.0
33.083,0.016,-0.348,1.0
29.054,0.012,-0.455,2.0
79.461,0.027,0.977,152.0
79.267,0.02,0.566,16.0
0.0,0.0,0.0,0.0
40.879,0.004,-0.133,17.0
38.284,0.001,-0.321,4.0
30.259,-0.001,-0.41,1.0
79.465,-0.009,1.143,151.0
79.454,-0.015,0.734,150.0
61.761,-0.016,0.252,13.0
45.21,-0.015,-0.052,21.0
38.991,-0.015,-0.245,14.0
32.425,-0.015,-0.371,1.0
79.451,-0.043,1.31,155.0
79.465,-0.048,0.9,158.0
76.342,-0.051,0.471,16.0
50.874,-0.037,0.048,4.0
40.202,-0.032,-0.168,18.0
37.233,-0.032,-0.347,0.0
79.444,-0.074,1.477,165.0
79.468,-0.079,1.069,156.0
79.437,-0.084,0.659,150.0
56.169,-0.062,0.171,12.0
0.0,0.0,0.0,0.0
38.712,-0.047,-0.279,5.0
79.458,-0.103,1.647,151.0
79.455,-0.107,1.237,156.0
79.46,-0.111,0.828,154.0
76.174,-0.11,0.394,13.0
47.728,-0.071,0.001,17.0
39.711,-0.061,-0.202,15.0
79.447,-0.128,1.814,151.0
79.443,-0.131,1.405,170.0
79.458,-0.135,0.997,155.0
79.301,-0.138,0.579,47.0
0.0,0.0,0.0,0.0
41.866,-0.076,-0.125,19.0
79.45,-0.15,1.983,151.0
79.442,-0.153,1.574,171.0
79.454,-0.156,1.164,155.0
79.449,-0.159,0.748,151.0
61.66,-0.125,0.264,9.0
46.314,-0.095,-0.039,20.0
79.432,-0.169,2.152,150.0
79.45,-0.172,1.744,152.0
79.443,-0.174,1.336,161.0
79.461,-0.176,0.918,151.0
79.146,-0.178,0.508,14.0
0.0,0.0,0.0,0.0
79.429,-0.186,2.321,150.0
79.449,-0.188,1.914,151.0
79.429,-0.189,1.505,182.0
79.449,-0.191,1.088,151.0
79.452,-0.193,0.679,150.0
61.611,-0.15,0.21,11.0
79.429,-0.199,2.492,150.0
79.435,-0.2,2.082,151.0
79.44,-0.202,1.673,157.0
79.45,-0.203,1.256,154.0
79.465,-0.204,0.847,151.0
76.47,-0.197,0.422,13.0
79.419,-0.21,2.659,150.0
79.418,-0.21,2.249,150.0
79.442,-0.211,1.842,152.0
79.435,-0.211,1.425,181.0
79.454,-0.212,1.017,151.0
79.394,-0.212,0.607,148.0
79.425,-0.217,2.829,150.0
79.425,-0.217,2.42,150.0
79.429,-0.217,2.01,151.0
79.446,-0.217,1.593,167.0
79.456,-0.217,1.185,151.0
79.454,-0.217,0.777,151.0
79.415,-0.221,2.997,150.0
79.421,-0.221,2.588,150.0
79.42,-0.22,2.179,151.0
79.438,-0.22,1.762,151.0
79.449,-0.219,1.354,172.0
79.454,-0.218,0.946,151.0
79.396,-0.223,3.166,19.0
79.429,-0.222,2.756,150.0
79.425,-0.221,2.347,150.0
79.438,-0.219,1.93,151.0
79.432,-0.218,1.521,190.0
79.453,-0.217,1.112,151.0
59.462,-0.165,2.496,94.0
79.425,-0.219,2.925,150.0
79.422,-0.218,2.515,150.0
79.427,-0.216,2.098,151.0
79.449,-0.214,1.69,152.0
79.455,-0.212,1.28,152.0
59.463,-0.162,2.622,97.0
79.401,-0.214,3.091,150.0
79.425,-0.212,2.682,150.0
79.416,-0.21,2.264,150.0
79.443,-0.207,1.856,151.0
79.439,-0.205,1.448,173.0
59.465,-0.156,2.747,97.0
59.444,-0.154,2.44,95.0
79.419,-0.203,2.849,150.0
79.411,-0.2,2.431,150.0
79.435,-0.197,2.022,151.0
79.445,-0.195,1.612,151.0
59.46,-0.148,2.871,107.0
59.46,-0.146,2.564,98.0
79.419,-0.192,3.015,150.0
79.426,-0.188,2.598,150.0
79.43,-0.185,2.187,150.0
79.439,-0.181,1.778,151.0
59.458,-0.139,2.995,114.0
59.459,-0.136,2.687,99.0
59.439,-0.133,2.379,92.0
79.415,-0.173,2.761,150.0
79.425,-0.169,2.351,150.0
79.435,-0.165,1.942,151.0
59.445,-0.126,3.118,121.0
59.468,-0.123,2.812,102.0
59.453,-0.119,2.503,95.0
79.415,-0.155,2.925,150.0
79.426,-0.15,2.514,150.0
79.429,-0.146,2.105,150.0
59.431,-0.112,3.24,110.0
59.455,-0.108,2.934,102.0
59.454,-0.104,2.625,99.0
79.4,-0.134,3.087,150.0
79.429,-0.129,2.678,150.0
79.426,-0.124,2.268,150.0
59.419,-0.095,3.362,108.0
59.451,-0.091,3.055,101.0
59.46,-0.087,2.747,99.0
59.442,-0.082,2.432,93.0
79.43,-0.104,2.84,151.0
79.416,-0.098,2.429,150.0
59.398,-0.076,3.482,83.0
59.428,-0.071,3.175,101.0
59.456,-0.067,2.868,100.0
59.438,-0.062,2.554,94.0
79.415,-0.077,3.001,150.0
79.431,-0.07,2.59,150.0
62.981,-0.058,3.82,65.0
59.419,-0.05,3.295,101.0
59.443,-0.045,2.988,105.0
59.44,-0.04,2.674,101.0
59.436,-0.035,2.365,91.0
79.438,-0.04,2.75,150.0
63.618,-0.034,3.988,53.0
59.395,-0.026,3.413,100.0
59.423,-0.021,3.106,106.0
59.442,-0.016,2.791,96.0
59.444,-0.01,2.483,93.0
79.434,-0.007,2.907,151.0
63.806,-0.008,4.125,47.0
63.042,-0.001,3.747,15.0
59.411,0.004,3.222,111.0
59.435,0.009,2.908,103.0
59.451,0.015,2.6,95.0
79.414,0.028,3.061,150.0
48.17,0.015,3.209,63.0
75.724,0.032,4.649,35.0
59.405,0.031,3.338,100.0
59.427,0.037,3.024,105.0
59.444,0.044,2.715,96.0
59.424,0.05,2.406,87.0
47.971,0.039,3.289,76.0
63.71,0.059,4.036,19.0
63.089,0.065,3.667,63.0
77.373,0.088,4.087,81.0
91.654,0.115,4.364,21.0
85.945,0.118,3.645,28.0
47.929,0.064,3.379,77.0
48.184,0.07,3.145,63.0
75.73,0.119,4.549,37.0
77.378,0.131,4.235,13.0
91.65,0.166,4.54,35.0
0.0,0.0,0.0,0.0
54.666,0.104,3.96,16.0
48.057,0.097,3.229,72.0
48.249,0.104,2.99,54.0
63.167,0.143,3.578,35.0
77.342,0.185,3.978,68.0
79.289,0.199,3.665,150.0
54.634,0.137,4.061,57.0
48.001,0.126,3.316,87.0
48.161,0.132,3.075,83.0
48.232,0.139,2.822,62.0
48.254,0.145,2.572,35.0
62.585,0.196,3.008,21.0
54.239,0.169,4.132,68.0
48.018,0.156,3.406,58.0
48.102,0.163,3.16,103.0
48.186,0.169,2.908,90.0
48.2,0.176,2.657,87.0
48.205,0.182,2.405,72.0
54.091,0.205,4.22,58.0
59.231,0.232,4.311,60.0
48.072,0.195,3.246,106.0
48.14,0.202,2.994,107.0
48.159,0.209,2.742,94.0
48.16,0.215,2.49,89.0
59.239,0.265,4.731,84.0
54.196,0.25,4.042,56.0
48.076,0.229,3.333,83.0
48.108,0.236,3.078,114.0
48.149,0.243,2.828,111.0
48.167,0.25,2.576,115.0
39.887,0.207,3.257,43.0
64.648,0.346,4.938,22.0
48.194,0.265,3.428,44.0
48.108,0.271,3.164,106.0
48.146,0.279,2.913,107.0
48.154,0.286,2.661,107.0
39.906,0.238,3.33,36.0
75.102,0.459,5.869,4.0
48.289,0.302,3.519,67.0
48.115,0.309,3.249,84.0
48.144,0.316,2.997,98.0
48.177,0.324,2.747,115.0
39.892,0.269,3.398,64.0
75.004,0.518,5.993,39.0
48.296,0.341,3.604,62.0
48.187,0.348,3.336,57.0
48.171,0.355,3.081,89.0
48.181,0.363,2.829,87.0
48.83,0.369,4.244,11.0
48.599,0.375,3.966,16.0
48.366,0.381,3.691,92.0
48.31,0.389,3.427,56.0
48.223,0.396,3.167,55.0
48.245,0.404,2.914,61.0
48.8,0.41,4.324,36.0
48.653,0.417,4.052,61.0
48.401,0.423,3.775,105.0
48.352,0.43,3.51,79.0
75.284,0.682,5.067,13.0
54.91,0.507,3.406,97.0
40.009,0.371,3.611,68.0
48.695,0.459,4.136,69.0
48.424,0.465,3.855,107.0
48.436,0.474,3.595,52.0
55.743,0.554,3.842,83.0
77.837,0.788,4.954,33.0
39.957,0.406,3.67,72.0
48.751,0.504,4.219,24.0
48.443,0.509,3.934,109.0
56.143,0.599,4.256,19.0
55.767,0.605,3.932,59.0
99.469,1.097,6.487,10.0
40.092,0.444,3.746,24.0
48.572,0.546,4.28,22.0
48.452,0.554,4.011,111.0
56.123,0.651,4.342,26.0
55.929,0.659,4.03,33.0
99.41,1.19,6.636,17.0
56.209,0.676,5.34,9.0
39.919,0.487,3.579,46.0
48.438,0.6,4.084,87.0
56.147,0.706,4.43,78.0
56.07,0.715,4.126,43.0
99.287,1.285,6.78,7.0
40.101,0.521,3.871,15.0
39.898,0.526,3.637,57.0
56.194,0.751,4.823,53.0
64.445,0.873,5.182,10.0
64.19,0.882,4.82,35.0
64.14,0.893,4.474,99.0
40.028,0.56,3.924,42.0
48.314,0.685,4.476,4.0
39.884,0.573,3.482,64.0
88.942,1.295,7.281,7.0
77.89,1.148,5.96,4.0
91.345,1.364,6.502,37.0
40.777,0.612,4.055,48.0
40.195,0.611,3.781,48.0
39.828,0.613,3.534,57.0
39.977,0.623,3.329,10.0
78.087,1.232,6.085,10.0
91.309,1.457,6.628,5.0
40.152,0.644,4.05,51.0
48.382,0.786,4.62,14.0
49.032,0.805,4.418,7.0
39.888,0.663,3.376,64.0
77.02,1.295,6.107,57.0
77.285,1.315,5.715,2.0
40.156,0.687,4.105,46.0
48.389,0.837,4.687,11.0
40.019,0.7,3.661,67.0
39.876,0.705,3.429,64.0
53.307,0.953,4.299,21.0
53.366,0.965,4.017,50.0
40.96,0.745,4.242,29.0
40.232,0.739,3.95,43.0
40.032,0.744,3.715,68.0
39.984,0.751,3.491,44.0
73.555,1.396,6.027,15.0
77.013,1.477,5.898,34.0
41.22,0.795,4.323,38.0
40.445,0.788,4.023,41.0
40.094,0.789,3.771,28.0
40.137,0.798,3.555,38.0
39.965,0.803,3.325,68.0
77.233,1.567,6.012,4.0
48.484,0.99,5.146,27.0
40.493,0.834,4.079,40.0
40.008,0.832,3.814,62.0
39.992,0.84,3.592,59.0
39.924,0.847,3.371,63.0
53.94,1.155,4.264,3.0
48.506,1.046,5.209,12.0
52.061,1.133,5.308,5.0
39.992,0.878,3.861,31.0
40.055,0.888,3.646,44.0
54.002,1.208,4.624,10.0
53.897,1.216,4.325,90.0
48.5,1.102,5.266,5.0
41.187,0.944,4.248,29.0
40.216,0.93,3.929,56.0
66.884,1.561,6.166,10.0
40.176,0.945,3.486,35.0
61.375,1.456,4.994,52.0
49.595,1.185,5.442,8.0
41.266,0.994,4.303,32.0
40.35,0.981,3.988,49.0
40.223,0.986,3.753,21.0
40.211,0.993,3.534,66.0
67.554,1.683,5.571,8.0
57.112,1.433,6.33,13.0
41.585,1.052,4.382,40.0
40.466,1.031,4.043,37.0
56.793,1.459,5.36,18.0
40.268,1.043,3.581,68.0
63.997,1.67,5.345,16.0
49.821,1.309,5.574,11.0
53.913,1.428,5.737,17.0
49.302,1.316,4.977,11.0
42.716,1.148,4.075,38.0
42.979,1.164,3.867,18.0
56.707,1.548,4.795,12.0
49.835,1.37,5.627,11.0
41.142,1.139,4.42,47.0
40.99,1.144,4.179,34.0
42.824,1.204,4.128,43.0
43.003,1.217,3.911,2.0
62.883,1.793,5.377,13.0
38.02,1.091,4.33,48.0
41.398,1.197,4.487,7.0
40.89,1.191,4.208,58.0
42.922,1.258,4.178,22.0
62.855,1.856,5.776,14.0
40.237,1.197,3.478,41.0
37.831,1.133,4.344,62.0
38.379,1.157,4.196,39.0
41.079,1.247,4.266,46.0
42.976,1.314,4.222,5.0
40.29,1.239,3.738,26.0
67.725,2.098,5.915,15.0
37.798,1.179,4.374,70.0
38.344,1.204,4.226,33.0
41.489,1.311,4.344,11.0
40.876,1.301,4.052,47.0
63.622,2.038,5.958,13.0
67.771,2.185,5.976,13.0
37.826,1.228,4.409,53.0
38.14,1.246,4.235,44.0
38.366,1.261,4.049,19.0
52.255,1.728,5.223,7.0
61.117,2.035,5.773,80.0
61.023,2.044,5.43,60.0
37.676,1.271,4.422,67.0
37.977,1.289,4.248,58.0
41.642,1.422,4.428,3.0
60.813,2.089,6.126,12.0
42.632,1.473,4.06,43.0
67.84,2.358,6.088,24.0
37.719,1.32,4.456,54.0
37.955,1.336,4.274,65.0
41.589,1.472,4.453,4.0
41.25,1.468,4.185,39.0
42.666,1.528,4.094,13.0
56.003,2.017,5.066,41.0
37.758,1.37,4.487,40.0
37.953,1.384,4.3,46.0
55.598,2.039,5.992,17.0
55.716,2.055,5.691,20.0
55.84,2.071,5.396,26.0
55.96,2.087,5.099,101.0
37.893,1.423,4.529,53.0
37.651,1.421,4.291,65.0
42.114,1.598,4.566,19.0
0.0,0.0,0.0,0.0
55.928,2.146,5.44,22.0
67.723,2.612,6.214,7.0
37.867,1.471,4.55,65.0
37.764,1.475,4.327,59.0
42.396,1.664,4.623,5.0
56.342,2.223,5.826,65.0
53.344,2.116,5.22,35.0
53.191,2.12,4.912,20.0
37.853,1.52,4.57,70.0
37.649,1.519,4.336,58.0
38.416,1.558,4.211,41.0
53.052,2.161,5.515,60.0
53.089,2.173,5.225,11.0
53.22,2.19,4.943,13.0
37.892,1.57,4.595,54.0
37.658,1.568,4.357,37.0
41.117,1.72,4.528,2.0
62.116,2.611,6.489,10.0
41.309,1.744,4.086,34.0
0.0,0.0,0.0,0.0
37.935,1.622,4.619,51.0
37.737,1.62,4.384,16.0
41.527,1.791,4.593,16.0
63.493,2.75,6.662,13.0
41.317,1.798,4.106,53.0
67.826,2.965,6.364,21.0
37.932,1.67,4.636,36.0
53.336,2.359,6.22,15.0
54.565,2.423,6.058,12.0
41.721,1.861,4.395,31.0
41.343,1.852,4.125,52.0
53.33,2.399,5.025,14.0
38.061,1.725,4.667,29.0
37.958,1.727,4.441,54.0
54.068,2.471,6.024,2.0
41.762,1.917,4.416,26.0
41.445,1.91,4.151,21.0
53.339,2.469,5.045,23.0
37.931,1.769,4.665,48.0
37.981,1.778,4.457,38.0
42.174,1.982,4.713,3.0
41.608,1.963,4.413,45.0
54.344,2.575,5.461,13.0
53.047,2.523,5.035,14.0
37.83,1.813,4.664,68.0
37.984,1.827,4.469,40.0
41.767,2.017,4.68,15.0
41.74,2.023,4.439,33.0
41.497,2.019,4.181,18.0
53.131,2.595,5.057,13.0
37.748,1.857,4.664,64.0
38.207,1.887,4.505,35.0
54.289,2.691,6.097,21.0
41.518,2.065,4.425,41.0
41.413,2.068,4.182,43.0
55.369,2.775,5.282,8.0
37.755,1.906,4.673,64.0
41.698,2.112,4.926,46.0
41.875,2.129,4.711,16.0
41.566,2.12,4.438,47.0
63.213,3.236,6.396,9.0
63.23,3.249,6.044,38.0
37.717,1.952,4.675,64.0
42.346,2.199,5.009,28.0
41.905,2.183,4.721,37.0
41.795,2.185,4.469,21.0
63.078,3.31,6.391,31.0
63.337,3.334,6.063,22.0
37.737,2.001,4.682,65.0
42.042,2.237,4.979,41.0
41.873,2.235,4.722,6.0
41.614,2.228,4.454,17.0
62.948,3.382,6.384,14.0
53.631,2.89,5.139,7.0
37.766,2.05,4.689,53.0
41.643,2.267,4.934,16.0
38.362,2.095,4.329,52.0
41.869,2.294,4.484,10.0
62.975,3.461,6.39,8.0
41.329,2.279,3.961,12.0
42.923,2.383,5.331,4.0
38.683,2.154,4.585,3.0
38.332,2.141,4.326,60.0
41.914,2.348,4.489,4.0
63.139,3.548,6.407,28.0
41.349,2.33,3.963,32.0
38.038,2.159,4.724,60.0
42.211,2.403,5.002,7.0
38.369,2.19,4.329,43.0
41.914,2.4,4.488,10.0
41.591,2.388,4.219,7.0
41.52,2.391,3.978,46.0
45.594,2.644,5.659,7.0
52.585,3.058,6.228,5.0
38.2,2.227,4.308,50.0
41.92,2.451,4.486,17.0
63.409,3.717,6.427,8.0
41.445,2.436,3.967,56.0
38.085,2.255,4.723,50.0
38.51,2.286,4.557,9.0
38.194,2.273,4.302,66.0
41.933,2.502,4.482,3.0
63.368,3.791,6.415,10.0
41.49,2.488,3.966,69.0
41.273,2.493,5.113,4.0
38.232,2.315,4.518,39.0
38.162,2.316,4.293,69.0
38.34,2.333,4.092,37.0
63.472,3.873,6.414,15.0
41.464,2.536,3.956,44.0
41.198,2.537,5.096,3.0
38.116,2.353,4.497,62.0
38.381,2.375,4.31,39.0
38.362,2.379,4.086,42.0
63.501,3.947,6.404,38.0
54.4,3.39,5.178,7.0
44.522,2.794,5.496,11.0
38.133,2.398,4.49,55.0
38.387,2.42,4.301,53.0
64.053,4.046,6.806,34.0
63.462,4.019,6.383,25.0
63.573,4.035,6.034,10.0
41.133,2.628,5.067,17.0
38.138,2.442,4.48,61.0
38.359,2.461,4.287,60.0
63.723,4.097,6.753,21.0
63.893,4.117,6.407,38.0
63.393,4.094,5.998,23.0
46.616,3.03,5.727,6.0
38.153,2.485,4.469,57.0
38.343,2.503,4.273,66.0
64.158,4.196,6.777,9.0
56.09,3.676,5.606,5.0
63.328,4.159,5.97,30.0
45.13,2.984,5.529,11.0
38.213,2.531,4.462,53.0
38.366,2.546,4.261,67.0
64.219,4.27,6.759,26.0
70.838,4.719,7.053,35.0
70.311,4.693,6.601,10.0
40.997,2.754,5.006,6.0
38.29,2.577,4.455,60.0
38.487,2.595,4.258,24.0
64.146,4.334,6.725,28.0
70.985,4.805,7.037,35.0
70.567,4.786,6.595,35.0
38.564,2.632,4.691,36.0
38.369,2.623,4.447,59.0
41.92,2.871,4.619,11.0
64.172,4.403,6.698,27.0
65.165,4.479,6.43,24.0
70.703,4.868,6.574,47.0
38.453,2.665,4.659,67.0
38.465,2.67,4.44,56.0
41.896,2.913,4.595,10.0
64.284,4.477,6.677,38.0
70.919,4.947,6.961,18.0
70.72,4.941,6.539,31.0
38.448,2.703,4.638,40.0
44.893,3.161,5.158,7.0
41.902,2.955,4.574,8.0
54.256,3.833,5.606,14.0
70.937,5.019,6.924,18.0
64.033,4.538,5.886,27.0
38.582,2.751,4.632,63.0
64.801,4.627,7.408,9.0
41.874,2.995,4.546,4.0
38.581,2.763,3.964,51.0
64.024,4.592,6.212,17.0
64.058,4.602,5.85,35.0
38.81,2.805,4.636,44.0
41.881,3.031,4.762,15.0
41.725,3.024,4.505,31.0
38.609,2.802,3.942,19.0
71.638,5.207,6.906,15.0
63.956,4.655,5.8,32.0
38.83,2.843,4.613,48.0
41.083,3.012,4.644,1.0
38.611,2.834,4.143,35.0
38.614,2.838,3.918,49.0
64.242,4.728,6.15,38.0
63.972,4.714,5.759,32.0
38.932,2.886,4.599,31.0
41.331,3.067,4.644,34.0
38.61,2.869,4.116,45.0
38.619,2.873,3.891,12.0
64.133,4.777,6.094,38.0
64.412,4.805,5.753,39.0
41.286,3.097,4.847,24.0
41.112,3.087,4.589,26.0
38.426,2.889,4.068,60.0
65.62,4.939,6.564,12.0
63.927,4.817,6.028,38.0
63.907,4.822,5.66,31.0
38.877,2.95,4.534,57.0
38.913,2.956,4.314,27.0
38.383,2.919,4.034,56.0
38.684,2.944,3.839,39.0
63.975,4.875,5.982,23.0
64.047,4.886,5.622,39.0
38.644,2.964,4.476,23.0
38.756,2.975,4.265,38.0
38.385,2.95,4.003,63.0
38.702,2.977,3.81,64.0
63.916,4.921,5.925,27.0
63.806,4.918,5.55,38.0
38.692,2.999,4.45,16.0
38.652,2.998,4.222,38.0
38.374,2.979,3.97,64.0
38.711,3.008,3.778,42.0
63.83,4.964,5.863,31.0
63.645,4.955,5.482,30.0
38.595,3.021,4.405,61.0
38.521,3.017,4.174,41.0
38.455,3.014,3.945,52.0
38.645,3.032,3.738,52.0
63.912,5.018,5.815,38.0
63.573,4.995,5.42,34.0
38.582,3.047,4.369,49.0
38.332,3.03,4.119,43.0
38.463,3.042,3.911,69.0
38.66,3.06,3.704,63.0
63.897,5.062,5.755,38.0
63.564,5.04,5.36,33.0
38.509,3.069,4.325,68.0
41.957,3.346,4.468,4.0
38.488,3.071,3.877,63.0
64.612,5.159,6.13,37.0
64.339,5.141,5.734,38.0
63.551,5.082,5.298,10.0
38.483,3.092,4.284,57.0
38.536,3.098,4.067,38.0
64.534,5.192,6.438,21.0
64.208,5.169,6.028,40.0
64.367,5.185,5.672,39.0
65.938,5.315,5.433,9.0
41.054,3.325,4.529,32.0
38.456,3.116,4.019,42.0
38.702,3.138,3.821,38.0
64.404,5.224,5.982,40.0
63.962,5.191,5.572,38.0
66.173,5.374,5.385,29.0
41.229,3.364,4.506,26.0
38.369,3.132,3.971,58.0
38.71,3.161,3.782,32.0
64.528,5.272,5.926,40.0
63.734,5.209,5.486,38.0
66.166,5.411,5.315,41.0
38.57,3.169,4.174,43.0
38.341,3.151,3.927,42.0
64.414,5.296,6.225,12.0
64.269,5.286,5.833,40.0
63.899,5.258,5.431,30.0
66.572,5.48,5.276,42.0
38.516,3.185,4.126,61.0
64.796,5.359,6.566,16.0
64.607,5.344,6.173,26.0
64.125,5.306,5.75,40.0
66.439,5.5,5.574,20.0
66.603,5.516,5.205,42.0
38.573,3.208,4.089,48.0
47.773,3.974,4.787,16.0
64.723,5.385,6.111,12.0
64.152,5.339,5.68,40.0
66.492,5.535,5.503,34.0
66.505,5.538,5.121,42.0
47.584,3.979,4.989,6.0
47.954,4.01,4.749,7.0
64.662,5.409,6.03,16.0
64.085,5.361,5.599,39.0
66.134,5.534,5.397,11.0
66.682,5.581,5.058,29.0
41.342,3.474,4.286,2.0
64.611,5.429,6.324,11.0
64.526,5.423,5.942,11.0
64.144,5.392,5.529,27.0
66.702,5.607,5.365,13.0
66.124,5.559,4.939,19.0
38.487,3.248,3.944,62.0
47.97,4.048,4.638,10.0
64.18,5.417,5.833,11.0
0.0,0.0,0.0,0.0
66.474,5.611,5.267,25.0
65.593,5.537,4.82,18.0
47.586,4.032,4.818,14.0
62.046,5.257,5.922,11.0
47.498,4.024,4.259,32.0
66.577,5.64,5.578,34.0
66.307,5.617,5.172,40.0
65.531,5.553,4.734,18.0
47.765,4.061,4.777,18.0
64.993,5.525,6.122,6.0
47.598,4.046,4.208,22.0
66.601,5.661,5.495,37.0
66.036,5.613,5.068,40.0
65.57,5.573,4.655,9.0
47.886,4.084,4.727,39.0
47.338,4.036,4.399,19.0
47.599,4.058,4.147,19.0
66.705,5.685,5.42,43.0
66.21,5.643,4.997,41.0
0.0,0.0,0.0,0.0
47.877,4.093,4.665,31.0
47.372,4.049,4.341,32.0
47.629,4.07,4.088,4.0
66.724,5.7,5.335,43.0
66.211,5.655,4.912,31.0
74.422,6.356,5.092,28.0
47.755,4.091,4.59,32.0
47.456,4.063,4.286,35.0
66.256,5.672,5.601,27.0
66.486,5.69,5.229,43.0
65.563,5.61,4.778,22.0
74.49,6.373,4.999,22.0
47.676,4.09,4.519,15.0
47.539,4.077,4.23,36.0
66.375,5.69,5.522,40.0
66.355,5.686,5.13,42.0
65.545,5.615,4.689,19.0
0.0,0.0,0.0,0.0
47.302,4.062,4.421,15.0
47.625,4.088,4.174,32.0
66.665,5.72,5.457,43.0
66.363,5.691,5.043,36.0
72.775,6.239,5.11,21.0
75.777,6.495,4.884,55.0
47.358,4.069,4.361,34.0
47.642,4.091,4.111,11.0
66.808,5.734,5.378,43.0
66.344,5.692,4.951,11.0
72.566,6.223,4.996,24.0
75.866,6.503,4.786,16.0
47.406,4.073,4.3,35.0
66.234,5.688,5.624,29.0
66.798,5.733,5.286,43.0
65.566,5.624,4.802,17.0
74.447,6.383,5.023,18.0
120.814,10.354,7.456,23.0
47.531,4.082,4.246,33.0
66.341,5.694,5.541,42.0
66.548,5.709,5.173,43.0
65.551,5.619,4.71,21.0
0.0,0.0,0.0,0.0
120.812,10.346,7.288,27.0
47.62,4.086,4.186,35.0
66.627,5.713,5.472,42.0
66.326,5.683,5.063,42.0
72.76,6.23,5.126,12.0
0.0,0.0,0.0,0.0
120.809,10.334,7.118,33.0
47.626,4.081,4.12,8.0
66.84,5.722,5.394,43.0
66.366,5.677,4.971,30.0
0.0,0.0,0.0,0.0
75.884,6.483,4.801,24.0
120.847,10.319,6.95,30.0
66.226,5.663,5.634,16.0
66.489,5.681,5.271,42.0
65.622,5.603,4.822,20.0
74.495,6.355,5.036,31.0
120.815,10.299,7.471,33.0
120.814,10.291,6.774,26.0
66.398,5.664,5.552,16.0
66.017,5.626,5.137,40.0
65.542,5.581,4.721,22.0
0.0,0.0,0.0,0.0
120.822,10.271,7.295,26.0
120.881,10.269,6.602,26.0
66.485,5.654,5.462,43.0
66.108,5.617,5.048,41.0
74.308,6.308,5.244,14.0
75.96,6.442,4.915,55.0
120.905,10.244,7.125,21.0
121.129,10.256,6.44,9.0
66.34,5.622,5.353,25.0
66.148,5.6,4.954,22.0
74.279,6.282,5.134,37.0
75.797,6.404,4.794,12.0
121.323,10.243,6.974,13.0
103.186,8.703,5.336,14.0
66.475,5.611,5.267,37.0
65.541,5.526,4.813,23.0
74.731,6.294,5.056,27.0
121.336,10.209,7.496,18.0
121.649,10.225,6.814,6.0
74.585,6.263,3.749,13.0
66.343,5.575,5.158,43.0
76.075,6.384,5.475,24.0
75.359,6.318,4.987,17.0
122.006,10.217,7.357,9.0
74.587,6.239,4.067,3.0
74.566,6.231,3.636,15.0
66.93,5.595,5.104,36.0
76.17,6.36,5.368,53.0
75.569,6.302,4.889,33.0
74.596,6.214,4.387,12.0
74.59,6.206,3.957,21.0
74.559,6.196,3.526,20.0
65.544,5.448,4.9,17.0
75.881,6.299,5.235,45.0
74.636,6.188,4.717,9.0
74.518,6.171,4.273,18.0
74.539,6.165,3.845,31.0
74.536,6.157,3.415,30.0
65.521,5.412,4.801,12.0
75.378,6.219,5.088,23.0
74.526,6.14,4.599,14.0
74.544,6.133,4.163,30.0
74.525,6.124,3.733,36.0
74.524,6.116,3.304,29.0
67.613,5.548,4.853,24.0
74.583,6.11,4.922,19.0
74.522,6.097,4.488,21.0
74.536,6.089,4.051,36.0
74.55,6.083,3.623,36.0
74.54,6.074,3.193,36.0
74.66,6.081,5.246,16.0
74.505,6.059,4.805,25.0
74.513,6.05,4.375,22.0
74.57,6.046,3.941,30.0
74.573,6.037,3.511,29.0
74.551,6.027,3.082,29.0
74.581,6.027,5.129,28.0
74.481,6.008,4.692,18.0
74.54,6.003,4.265,21.0
74.587,5.997,3.83,23.0
74.633,5.992,3.403,14.0
74.586,5.98,2.972,17.0
74.578,5.974,5.016,30.0
74.482,5.956,4.58,31.0
74.639,5.959,4.159,15.0
74.641,5.949,3.722,15.0
115.176,9.167,5.08,12.0
30.573,2.429,1.173,29.0
74.66,5.926,4.911,17.0
74.597,5.91,4.476,12.0
127.712,10.102,6.925,9.0
106.215,8.387,5.138,9.0
118.114,9.311,5.035,7.0
30.442,2.396,1.123,184.0
75.659,5.947,4.864,4.0
128.542,10.087,7.523,9.0
128.693,10.08,6.792,8.0
106.296,8.31,4.986,46.0
30.709,2.396,1.263,4.0
30.508,2.377,1.08,154.0
129.19,10.05,8.114,13.0
129.418,10.048,7.382,9.0
129.95,10.07,6.662,5.0
112.109,8.671,5.092,6.0
30.518,2.356,1.21,150.0
30.482,2.348,1.034,18.0
130.367,10.028,7.992,13.0
130.696,10.034,7.26,8.0
131.046,10.04,6.524,2.0
115.09,8.8,5.057,11.0
30.46,2.324,1.163,175.0
30.492,2.322,0.989,38.0
131.569,10.003,7.873,13.0
131.836,10.002,7.129,10.0
109.264,8.272,5.28,26.0
30.705,2.32,1.304,2.0
30.473,2.297,1.119,177.0
30.489,2.294,0.945,34.0
132.865,9.978,7.755,12.0
133.255,9.984,7.011,11.0
109.393,8.178,5.126,15.0
30.702,2.29,1.259,3.0
30.51,2.27,1.076,160.0
30.549,2.269,0.902,150.0
134.252,9.949,7.64,12.0
134.571,9.95,6.883,10.0
111.884,8.253,5.08,8.0
30.577,2.25,1.21,5.0
30.523,2.241,1.032,70.0
30.523,2.236,0.857,175.0
157.141,11.484,8.715,27.0
157.199,11.46,7.813,18.0
118.111,8.59,5.191,10.0
30.518,2.214,1.163,63.0
30.537,2.21,0.988,155.0
30.555,2.206,0.814,163.0
157.444,11.339,8.503,20.0
112.356,8.07,5.421,3.0
157.632,11.293,6.7,12.0
30.505,2.18,1.118,14.0
30.574,2.179,0.945,150.0
30.604,2.176,0.771,57.0
33.392,2.367,1.755,20.0
114.992,8.132,5.385,26.0
157.791,11.129,6.482,37.0
30.544,2.148,1.076,2.0
30.617,2.148,0.903,22.0
114.301,8.0,2.719,31.0
33.383,2.328,1.707,66.0
115.23,8.014,5.231,8.0
157.933,10.954,6.262,38.0
157.891,10.921,5.341,25.0
30.707,2.118,0.862,6.0
114.498,7.877,2.561,53.0
33.411,2.29,1.661,20.0
118.078,8.072,5.194,17.0
157.996,10.77,6.044,42.0
157.988,10.739,5.124,48.0
114.696,7.775,3.062,21.0
139.671,9.441,2.931,15.0
33.428,2.251,1.615,2.0
157.942,10.604,6.729,41.0
158.01,10.576,5.826,37.0
158.084,10.55,4.909,49.0
114.661,7.63,2.904,29.0
139.65,9.266,2.739,25.0
33.429,2.209,1.57,3.0
158.014,10.408,6.516,40.0
158.112,10.384,5.615,39.0
158.071,10.348,4.692,55.0
114.719,7.488,2.75,43.0
139.577,9.082,2.548,68.0
33.45,2.167,1.525,3.0
158.15,10.211,6.307,36.0
158.119,10.178,5.401,30.0
158.172,10.147,4.482,45.0
158.243,10.118,3.579,7.0
139.613,8.9,2.361,56.0
33.465,2.123,1.481,3.0
33.446,2.114,1.289,1.0
33.474,2.109,1.098,0.0
33.412,2.098,0.902,2.0
33.435,2.092,0.711,43.0
33.466,2.087,0.521,155.0
33.418,2.074,1.434,4.0
33.42,2.066,1.243,17.0
33.428,2.06,1.052,5.0
33.409,2.051,0.858,2.0
33.437,2.046,0.667,1.0
33.454,2.04,0.477,3.0
158.279,9.604,6.589,5.0
157.5,9.521,5.657,8.0
162.083,9.76,4.895,10.0
164.015,9.842,4.001,8.0
140.281,8.386,2.622,4.0
96.3,5.735,1.251,5.0
158.255,9.373,6.384,14.0
157.652,9.302,5.46,15.0
162.199,9.533,4.692,6.0
162.344,9.504,3.754,15.0
0.0,0.0,0.0,0.0
79.292,4.606,0.929,7.0
158.309,9.143,6.186,18.0
157.006,9.032,5.239,16.0
163.41,9.362,4.522,15.0
163.501,9.328,3.575,24.0
105.983,6.023,1.714,3.0
0.0,0.0,0.0,0.0
158.297,8.904,5.988,17.0
157.015,8.795,5.045,6.0
162.968,9.088,4.307,19.0
162.953,9.049,3.362,19.0
105.824,5.853,1.581,9.0
75.404,4.152,0.698,20.0
158.165,8.657,5.792,14.0
162.485,8.853,5.025,12.0
162.801,8.829,4.107,11.0
162.48,8.773,3.157,5.0
105.764,5.685,1.454,16.0
73.992,3.959,0.596,23.0
156.967,8.342,5.559,16.0
157.249,8.319,4.674,12.0
162.553,8.559,3.907,12.0
105.806,5.544,1.93,14.0
81.902,4.272,1.029,9.0
73.5,3.816,0.506,12.0
156.632,8.074,5.364,16.0
156.525,8.027,4.469,17.0
167.202,8.533,3.822,16.0
105.686,5.367,1.805,4.0
78.643,3.973,0.896,10.0
58.757,2.954,0.336,5.0
156.398,7.805,5.175,16.0
174.608,8.667,4.784,7.0
0.0,0.0,0.0,0.0
0.0,0.0,0.0,0.0
77.896,3.806,0.798,32.0
54.691,2.658,0.25,28.0
156.546,7.548,5.001,18.0
0.0,0.0,0.0,0.0
0.0,0.0,0.0,0.0
105.806,5.017,1.566,9.0
76.956,3.629,0.703,55.0
54.254,2.544,0.187,21.0
156.029,7.259,4.812,9.0
0.0,0.0,0.0,0.0
0.0,0.0,0.0,0.0
96.175,4.396,1.319,5.0
73.633,3.346,0.593,8.0
48.601,2.195,0.115,23.0
173.761,7.783,5.171,8.0
0.0,0.0,0.0,0.0
0.0,0.0,0.0,0.0
93.217,4.099,1.18,6.0
73.658,3.219,0.515,12.0
47.47,2.061,0.063,24.0
173.39,7.465,4.98,14.0
0.0,0.0,0.0,0.0
0.0,0.0,0.0,0.0
79.616,3.361,0.926,8.0
58.998,2.474,0.352,32.0
0.0,0.0,0.0,0.0
158.65,6.545,4.394,3.0
0.0,0.0,0.0,0.0
0.0,0.0,0.0,0.0
78.408,3.168,0.832,23.0
58.824,2.36,0.291,9.0
41.889,1.669,-0.029,18.0
158.545,6.254,4.233,4.0
0.0,0.0,0.0,0.0
0.0,0.0,0.0,0.0
77.887,3.005,0.75,56.0
54.716,2.095,0.218,28.0
41.301,1.57,-0.068,18.0
0.0,0.0,0.0,0.0
0.0,0.0,0.0,0.0
100.967,3.739,1.458,4.0
77.581,2.851,0.674,25.0
54.286,1.979,0.165,27.0
40.071,1.449,-0.104,39.0
0.0,0.0,0.0,0.0
0.0,0.0,0.0,0.0
95.518,3.36,1.291,7.0
74.288,2.591,0.577,12.0
48.738,1.685,0.103,22.0
39.665,1.36,-0.139,47.0
0.0,0.0,0.0,0.0
0.0,0.0,0.0,0.0
95.26,3.171,1.202,5.0
74.024,2.442,0.51,11.0
48.06,1.571,0.06,22.0
39.391,1.276,-0.172,21.0
0.0,0.0,0.0,0.0
0.0,0.0,0.0,0.0
79.894,2.506,0.939,4.0
60.258,1.872,0.363,30.0
47.191,1.451,0.018,22.0
36.841,1.121,-0.192,32.0
0.0,0.0,0.0,0.0
0.0,0.0,0.0,0.0
78.476,2.31,0.858,10.0
59.382,1.73,0.309,34.0
0.0,0.0,0.0,0.0
36.758,1.048,-0.222,24.0
0.0,0.0,0.0,0.0
0.0,0.0,0.0,0.0
78.164,2.148,0.792,27.0
58.734,1.596,0.259,22.0
42.742,1.148,-0.051,17.0
36.715,0.975,-0.25,12.0
100.48,2.629,2.072,1.0
106.102,2.742,1.591,12.0
77.973,1.99,0.731,34.0
54.595,1.377,0.199,11.0
42.704,1.063,-0.083,2.0
36.577,0.899,-0.277,6.0
0.0,0.0,0.0,0.0
106.203,2.535,1.515,5.0
77.823,1.832,0.673,21.0
0.0,0.0,0.0,0.0
39.371,0.902,-0.105,43.0
36.641,0.827,-0.303,4.0
106.198,2.356,2.036,13.0
89.875,1.964,1.218,5.0
77.785,1.675,0.618,11.0
48.312,1.024,0.108,6.0
38.929,0.812,-0.131,42.0
36.709,0.755,-0.329,1.0
106.366,2.145,1.967,4.0
95.105,1.887,1.226,1.0
74.886,1.461,0.545,14.0
47.923,0.919,0.075,22.0
38.342,0.722,-0.154,39.0
36.744,0.68,-0.353,0.0
127.8,2.318,2.282,32.0
121.099,2.154,1.484,12.0
74.821,1.306,0.498,10.0
47.515,0.814,0.045,33.0
37.963,0.638,-0.176,46.0
32.754,0.539,-0.335,1.0
127.589,2.05,2.2,29.0
121.091,1.905,1.411,9.0
62.019,0.955,0.375,21.0
46.83,0.706,0.017,31.0
37.828,0.557,-0.197,38.0
32.148,0.463,-0.347,1.0
127.275,1.784,2.123,32.0
89.82,1.228,0.996,5.0
48.083,0.641,0.264,63.0
0.0,0.0,0.0,0.0
37.758,0.478,-0.217,20.0
31.53,0.388,-0.358,1.0
48.149,0.575,0.777,56.0
48.101,0.558,0.508,95.0
48.035,0.541,0.239,87.0
44.708,0.489,-0.031,21.0
37.702,0.399,-0.236,13.0
31.079,0.318,-0.368,1.0
48.092,0.474,0.752,115.0
48.054,0.457,0.484,101.0
48.03,0.441,0.216,100.0
0.0,0.0,0.0,0.0
37.651,0.32,-0.254,9.0
30.664,0.25,-0.377,1.0
48.092,0.374,0.73,107.0
48.095,0.358,0.462,66.0
48.134,0.341,0.194,53.0
44.054,0.297,-0.071,11.0
37.731,0.242,-0.271,4.0
30.453,0.184,-0.388,1.0
59.282,0.336,0.875,16.0
59.305,0.316,0.545,138.0
54.95,0.273,0.199,54.0
43.908,0.203,-0.089,4.0
37.804,0.161,-0.287,14.0
30.155,0.118,-0.396,1.0
79.468,0.28,1.142,151.0
79.444,0.254,0.7,100.0
54.919,0.156,0.178,28.0
40.724,0.101,-0.097,17.0
37.977,0.081,-0.302,2.0
29.892,0.053,-0.404,1.0
79.465,0.114,1.114,151.0
79.381,0.086,0.672,50.0
54.806,0.039,0.159,8.0
40.697,0.015,-0.111,17.0
38.089,0.0,-0.315,2.0
29.72,-0.01,-0.411,2.0
79.459,-0.055,1.089,151.0
79.309,-0.082,0.647,39.0
0.0,0.0,0.0,0.0
40.979,-0.072,-0.124,17.0
36.95,-0.078,-0.317,0.0
29.63,-0.072,-0.418,4.0
79.458,-0.223,1.067,151.0
79.221,-0.251,0.625,49.0
0.0,0.0,0.0,0.0
41.71,-0.161,-0.137,7.0
33.97,-0.143,-0.3,0.0
29.481,-0.135,-0.423,3.0
79.459,-0.392,1.048,155.0
79.232,-0.419,0.606,39.0
56.039,-0.316,0.118,6.0
41.823,-0.251,-0.146,4.0
33.908,-0.215,-0.306,0.0
29.391,-0.197,-0.428,2.0
79.447,-0.56,1.032,176.0
0.0,0.0,0.0,0.0
55.359,-0.429,0.107,0.0
47.353,-0.384,-0.175,10.0
34.079,-0.289,-0.314,1.0
29.195,-0.258,-0.43,3.0
79.444,-0.729,1.019,171.0
0.0,0.0,0.0,0.0
57.184,-0.566,0.101,4.0
47.299,-0.485,-0.181,2.0
33.627,-0.357,-0.314,1.0
29.181,-0.32,-0.434,3.0
79.455,-0.898,1.009,177.0
78.915,-0.921,0.566,30.0
60.666,-0.729,0.101,5.0
45.594,-0.565,-0.18,1.0
33.525,-0.428,-0.317,1.0
29.079,-0.382,-0.435,2.0
129.918,-1.746,1.638,6.0
87.856,-1.213,0.623,3.0
60.822,-0.862,0.096,0.0
46.189,-0.671,-0.185,2.0
33.865,-0.505,-0.322,1.0
29.051,-0.443,-0.437,2.0
148.888,-2.32,1.87,10.0
91.57,-1.461,0.645,7.0
40.31,-0.658,0.062,34.0
40.325,-0.673,-0.163,35.0
33.808,-0.577,-0.323,1.0
29.002,-0.505,-0.436,1.0
40.267,-0.714,0.505,10.0
40.255,-0.728,0.283,55.0
40.292,-0.743,0.062,61.0
46.735,-0.88,-0.189,2.0
33.76,-0.648,-0.322,1.0
29.068,-0.568,-0.437,1.0
40.242,-0.798,0.505,55.0
40.298,-0.814,0.284,7.0
0.0,0.0,0.0,0.0
0.0,0.0,0.0,0.0
33.42,-0.712,-0.317,1.0
29.078,-0.63,-0.436,1.0
40.318,-0.885,0.509,10.0
40.301,-0.9,0.287,144.0
40.29,-0.915,0.066,48.0
40.292,-0.929,-0.158,150.0
33.644,-0.789,-0.317,0.0
29.182,-0.695,-0.435,1.0
40.241,-0.97,0.511,52.0
40.256,-0.984,0.291,5.0
0.0,0.0,0.0,0.0
41.002,-1.033,-0.156,151.0
34.021,-0.869,-0.316,0.0
29.271,-0.759,-0.432,1.0
40.217,-1.054,0.517,59.0
40.185,-1.067,0.296,62.0
40.183,-1.082,0.076,61.0
40.548,-1.107,-0.148,56.0
34.753,-0.961,-0.317,0.0
29.406,-0.824,-0.429,1.0
153.851,-4.354,2.004,12.0
40.26,-1.153,0.304,3.0
40.224,-1.167,0.083,29.0
40.223,-1.182,-0.14,40.0
34.497,-1.026,-0.308,0.0
29.542,-0.89,-0.425,1.0
40.346,-1.225,0.533,11.0
0.0,0.0,0.0,0.0
0.0,0.0,0.0,0.0
0.0,0.0,0.0,0.0
35.317,-1.124,-0.307,0.0
29.641,-0.954,-0.42,1.0
0.0,0.0,0.0,0.0
0.0,0.0,0.0,0.0
62.946,-2.088,0.16,0.0
0.0,0.0,0.0,0.0
36.911,-1.251,-0.312,0.0
29.847,-1.022,-0.415,1.0
134.56,-4.641,1.85,33.0
0.0,0.0,0.0,0.0
0.0,0.0,0.0,0.0
50.311,-1.79,-0.135,2.0
40.035,-1.44,-0.326,1.0
30.071,-1.093,-0.408,1.0
134.594,-4.923,1.894,70.0
0.0,0.0,0.0,0.0
0.0,0.0,0.0,0.0
40.135,-1.511,-0.094,157.0
37.746,-1.436,-0.294,32.0
30.43,-1.169,-0.403,1.0
0.0,0.0,0.0,0.0
0.0,0.0,0.0,0.0
0.0,0.0,0.0,0.0
37.815,-1.502,-0.075,153.0
37.745,-1.513,-0.28,61.0
30.901,-1.25,-0.397,1.0
0.0,0.0,0.0,0.0
0.0,0.0,0.0,0.0
0.0,0.0,0.0,0.0
50.471,-2.107,-0.08,1.0
37.818,-1.593,-0.265,1.0
31.163,-1.324,-0.387,1.0
0.0,0.0,0.0,0.0
0.0,0.0,0.0,0.0
0.0,0.0,0.0,0.0
50.558,-2.213,-0.057,0.0
39.838,-1.759,-0.261,0.0
32.427,-1.443,-0.388,2.0
0.0,0.0,0.0,0.0
0.0,0.0,0.0,0.0
0.0,0.0,0.0,0.0
0.0,0.0,0.0,0.0
0.0,0.0,0.0,0.0
33.267,-1.547,-0.382,8.0
0.0,0.0,0.0,0.0
0.0,0.0,0.0,0.0
0.0,0.0,0.0,0.0
0.0,0.0,0.0,0.0
0.0,0.0,0.0,0.0
33.047,-1.602,-0.362,1.0
0.0,0.0,0.0,0.0
0.0,0.0,0.0,0.0
0.0,0.0,0.0,0.0
59.872,-2.976,0.023,4.0
0.0,0.0,0.0,0.0
33.83,-1.706,-0.352,1.0
0.0,0.0,0.0,0.0
0.0,0.0,0.0,0.0
0.0,0.0,0.0,0.0
59.581,-3.077,0.057,4.0
0.0,0.0,0.0,0.0
34.982,-1.831,-0.344,0.0
0.0,0.0,0.0,0.0
0.0,0.0,0.0,0.0
0.0,0.0,0.0,0.0
61.206,-3.278,0.096,14.0
50.425,-2.719,-0.192,0.0
36.489,-1.98,-0.336,0.0
0.0,0.0,0.0,0.0
0.0,0.0,0.0,0.0
0.0,0.0,0.0,0.0
62.024,-3.441,0.138,3.0
50.373,-2.813,-0.159,1.0
37.593,-2.112,-0.321,0.0
228.01,-12.848,4.374,17.0
0.0,0.0,0.0,0.0
0.0,0.0,0.0,0.0
0.0,0.0,0.0,0.0
50.443,-2.911,-0.125,9.0
37.875,-2.198,-0.297,0.0
0.0,0.0,0.0,0.0
0.0,0.0,0.0,0.0
0.0,0.0,0.0,0.0
0.0,0.0,0.0,0.0
50.495,-3.006,-0.089,8.0
0.0,0.0,0.0,0.0
272.198,-16.341,5.608,9.0
187.382,-11.313,2.852,195.0
0.0,0.0,0.0,0.0
0.0,0.0,0.0,0.0
50.518,-3.1,-0.051,1.0
40.989,-2.529,-0.262,0.0
0.0,0.0,0.0,0.0
187.219,-11.638,2.991,11.0
0.0,0.0,0.0,0.0
0.0,0.0,0.0,0.0
62.322,-3.936,-0.015,1.0
0.0,0.0,0.0,0.0
265.32,-16.882,5.873,23.0
187.213,-11.97,3.138,150.0
0.0,0.0,0.0,0.0
0.0,0.0,0.0,0.0
62.258,-4.042,0.034,3.0
0.0,0.0,0.0,0.0
244.52,-15.99,5.613,67.0
187.21,-12.301,3.292,152.0
0.0,0.0,0.0,0.0
0.0,0.0,0.0,0.0
62.121,-4.142,0.086,5.0
50.448,-3.38,-0.199,1.0
228.593,-15.347,5.441,69.0
187.168,-12.622,3.451,11.0
0.0,0.0,0.0,0.0
0.0,0.0,0.0,0.0
62.801,-4.294,0.141,3.0
50.455,-3.466,-0.156,6.0
212.831,-14.648,5.25,84.0
213.058,-14.728,4.115,18.0
155.252,-10.78,2.166,4.0
0.0,0.0,0.0,0.0
0.0,0.0,0.0,0.0
50.462,-3.55,-0.111,6.0
204.934,-14.442,5.238,12.0
0.0,0.0,0.0,0.0
0.0,0.0,0.0,0.0
0.0,0.0,0.0,0.0
0.0,0.0,0.0,0.0
0.0,0.0,0.0,0.0
204.923,-14.775,5.426,9.0
204.971,-14.839,4.33,10.0
0.0,0.0,0.0,0.0
0.0,0.0,0.0,0.0
0.0,0.0,0.0,0.0
61.97,-4.562,-0.021,1.0
213.094,-15.712,5.848,22.0
284.873,-21.09,6.295,17.0
148.595,-11.042,2.489,16.0
148.476,-11.077,1.678,150.0
0.0,0.0,0.0,0.0
0.0,0.0,0.0,0.0
196.755,-14.817,5.592,72.0
196.99,-14.892,4.546,62.0
148.496,-11.27,2.634,39.0
148.511,-11.312,1.827,4.0
0.0,0.0,0.0,0.0
0.0,0.0,0.0,0.0
212.924,-16.363,6.265,31.0
250.647,-19.332,6.035,13.0
0.0,0.0,0.0,0.0
0.0,0.0,0.0,0.0
0.0,0.0,0.0,0.0
0.0,0.0,0.0,0.0
213.032,-16.693,6.486,24.0
214.693,-16.881,5.39,26.0
0.0,0.0,0.0,0.0
128.16,-10.147,1.838,189.0
0.0,0.0,0.0,0.0
0.0,0.0,0.0,0.0
164.68,-13.146,5.185,54.0
204.548,-16.382,5.349,21.0
0.0,0.0,0.0,0.0
122.437,-9.871,1.884,2.0
122.272,-9.892,1.231,2.0
87.214,-7.079,0.414,1.0
157.245,-12.779,5.12,42.0
193.679,-15.791,5.274,24.0
202.004,-16.522,4.424,31.0
0.0,0.0,0.0,0.0
121.989,-10.041,1.36,2.0
0.0,0.0,0.0,0.0
157.602,-13.028,5.302,35.0
165.057,-13.684,4.673,61.0
165.157,-13.734,3.796,25.0
0.0,0.0,0.0,0.0
121.815,-10.192,1.491,13.0
0.0,0.0,0.0,0.0
164.348,-13.81,5.71,15.0
164.97,-13.903,4.854,33.0
165.067,-13.951,3.98,54.0
0.0,0.0,0.0,0.0
121.768,-10.353,1.628,112.0
110.235,-9.399,0.888,2.0
156.851,-13.389,5.629,31.0
157.369,-13.471,4.809,96.0
157.379,-13.508,3.972,47.0
157.154,-13.527,3.116,3.0
121.983,-10.53,1.771,3.0
121.728,-10.538,1.12,8.0
149.816,-12.983,5.549,17.0
190.468,-16.55,6.042,27.0
157.373,-13.711,4.155,60.0
157.223,-13.734,3.301,57.0
110.845,-9.709,1.738,7.0
110.5,-9.706,1.146,6.0
157.721,-13.866,6.027,24.0
149.643,-13.189,4.921,44.0
188.646,-16.669,5.202,41.0
188.418,-16.69,4.176,51.0
0.0,0.0,0.0,0.0
109.057,-9.709,1.258,4.0
204.348,-18.212,8.047,25.0
188.945,-16.88,6.437,25.0
149.475,-13.387,4.298,38.0
188.194,-16.894,4.393,49.0
0.0,0.0,0.0,0.0
108.633,-9.801,1.383,53.0
148.615,-13.421,6.032,32.0
189.395,-17.143,6.682,21.0
188.255,-17.079,5.641,35.0
188.532,-17.145,4.63,32.0
109.183,-9.951,2.103,2.0
108.566,-9.919,1.516,57.0
150.416,-13.757,6.289,13.0
148.681,-13.626,5.427,14.0
188.232,-17.289,5.872,41.0
188.412,-17.345,4.859,35.0
188.565,-17.397,3.862,24.0
108.552,-10.037,1.649,25.0
164.12,-15.191,7.065,33.0
148.571,-13.78,5.607,74.0
148.818,-13.83,4.826,38.0
149.423,-13.916,4.039,27.0
188.318,-17.575,4.09,43.0
108.594,-10.156,1.784,8.0
156.385,-14.641,6.929,31.0
204.698,-19.201,7.981,25.0
149.821,-14.08,5.045,37.0
149.155,-14.045,4.219,37.0
188.148,-17.752,4.324,52.0
0.0,0.0,0.0,0.0
122.887,-11.63,5.599,34.0
205.143,-19.449,8.256,16.0
150.238,-14.27,5.25,17.0
148.958,-14.175,4.401,75.0
149.485,-14.251,3.624,77.0
108.846,-10.397,2.063,11.0
147.816,-14.135,6.923,23.0
147.915,-14.169,6.143,13.0
150.628,-14.454,5.457,36.0
149.023,-14.323,4.594,44.0
149.459,-14.391,3.816,65.0
149.492,-14.42,3.024,41.0
106.568,-10.29,5.129,29.0
147.874,-14.302,6.333,38.0
190.049,-18.411,7.131,22.0
149.298,-14.487,4.794,25.0
188.027,-18.274,5.044,40.0
149.546,-14.559,3.219,44.0
108.1,-10.536,5.343,77.0
123.165,-12.02,5.433,27.0
148.17,-14.483,5.751,18.0
149.641,-14.649,4.999,29.0
188.174,-18.449,5.289,45.0
187.867,-18.448,4.286,43.0
124.23,-12.213,6.301,29.0
124.986,-12.304,5.677,17.0
210.217,-20.722,8.432,15.0
188.777,-18.636,6.553,28.0
