X,Y,Z,Reflectivity
9.976,1.249,0.385,97.0
9.973,1.249,0.328,150.0
9.979,1.25,0.271,150.0
9.968,1.249,0.212,117.0
9.977,1.25,0.155,109.0
9.97,1.249,0.098,65.0
9.972,1.251,0.374,88.0
9.969,1.251,0.317,150.0
9.974,1.252,0.259,150.0
9.971,1.251,0.201,117.0
9.97,1.251,0.144,108.0
9.975,1.252,0.087,61.0
9.973,1.253,0.363,76.0
9.978,1.254,0.306,150.0
9.969,1.253,0.248,150.0
9.971,1.253,0.19,108.0
9.97,1.253,0.133,104.0
9.974,1.254,0.076,58.0
9.974,1.255,0.351,80.0
9.985,1.257,0.295,150.0
9.972,1.255,0.237,150.0
9.971,1.255,0.179,109.0
9.97,1.255,0.121,98.0
9.973,1.255,0.064,56.0
9.983,1.258,0.34,77.0
9.97,1.256,0.283,136.0
9.972,1.256,0.226,147.0
9.965,1.255,0.167,101.0
9.976,1.257,0.11,104.0
9.97,1.256,0.053,61.0
9.972,1.257,0.329,69.0
9.975,1.257,0.272,131.0
9.972,1.257,0.214,150.0
9.968,1.256,0.156,94.0
9.972,1.257,0.099,94.0
9.975,1.257,0.042,59.0
9.971,1.257,0.317,66.0
9.975,1.257,0.26,135.0
9.972,1.257,0.203,148.0
9.97,1.257,0.145,98.0
9.97,1.256,0.088,99.0
9.971,1.257,0.03,61.0
9.976,1.258,0.306,65.0
9.982,1.258,0.249,150.0
9.973,1.257,0.191,150.0
9.969,1.256,0.133,98.0
9.976,1.257,0.076,107.0
9.971,1.256,0.019,54.0
9.974,1.257,0.295,76.0
9.981,1.257,0.238,149.0
9.974,1.256,0.18,150.0
9.972,1.256,0.122,104.0
9.974,1.256,0.065,114.0
9.977,1.256,0.007,45.0
9.977,1.256,0.283,87.0
9.973,1.255,0.226,150.0
9.972,1.255,0.169,150.0
9.97,1.254,0.11,109.0
9.977,1.255,0.053,112.0
9.975,1.254,-0.003,38.0
9.976,1.254,0.272,98.0
9.977,1.254,0.215,150.0
9.979,1.254,0.157,150.0
9.969,1.252,0.099,105.0
9.972,1.252,0.042,108.0
9.975,1.253,-0.014,19.0
9.973,1.252,0.26,99.0
9.978,1.252,0.203,150.0
9.969,1.25,0.146,150.0
9.97,1.25,0.088,104.0
9.977,1.251,0.03,114.0
9.969,1.25,-0.026,31.0
9.968,1.249,0.249,97.0
9.97,1.248,0.192,150.0
9.972,1.248,0.134,150.0
9.969,1.247,0.076,103.0
9.97,1.247,0.019,92.0
9.975,1.247,-0.037,58.0
9.975,1.247,0.237,99.0
9.977,1.246,0.18,150.0
9.974,1.245,0.123,150.0
9.965,1.244,0.065,98.0
9.978,1.245,0.007,92.0
9.968,1.243,-0.049,59.0
9.972,1.243,0.226,104.0
9.968,1.242,0.168,150.0
9.971,1.241,0.111,150.0
9.96,1.24,0.053,116.0
9.97,1.24,-0.003,60.0
9.97,1.24,-0.06,66.0
9.973,1.239,0.214,115.0
9.98,1.239,0.157,150.0
9.981,1.239,0.1,150.0
9.969,1.237,0.042,101.0
9.974,1.237,-0.014,20.0
9.971,1.236,-0.071,66.0
9.976,1.235,0.203,103.0
9.968,1.233,0.146,150.0
9.977,1.234,0.089,150.0
9.972,1.233,0.031,102.0
9.971,1.232,-0.025,71.0
9.971,1.231,-0.082,68.0
9.975,1.23,0.192,112.0
9.973,1.229,0.135,150.0
9.978,1.229,0.078,150.0
9.965,1.227,0.02,94.0
9.974,1.227,-0.036,112.0
9.967,1.226,-0.093,61.0
9.973,1.225,0.181,122.0
9.97,1.224,0.124,150.0
9.975,1.223,0.067,150.0
9.968,1.222,0.009,100.0
9.972,1.222,-0.048,121.0
9.967,1.22,-0.104,62.0
9.964,1.218,0.17,103.0
9.975,1.218,0.113,150.0
9.971,1.217,0.056,150.0
9.965,1.216,-0.001,102.0
9.972,1.216,-0.059,100.0
9.971,1.215,-0.116,57.0
9.975,1.213,0.159,114.0
9.975,1.212,0.102,150.0
9.976,1.211,0.045,150.0
9.969,1.21,-0.012,91.0
9.975,1.21,-0.069,96.0
9.978,1.209,-0.127,52.0
9.973,1.206,0.148,88.0
9.974,1.205,0.091,150.0
9.98,1.205,0.034,150.0
9.973,1.204,-0.023,96.0
9.976,1.203,-0.08,89.0
9.982,1.203,-0.137,46.0
9.978,1.2,0.137,86.0
9.98,1.199,0.08,149.0
9.981,1.198,0.023,127.0
9.976,1.197,-0.034,81.0
9.981,1.196,-0.091,73.0
9.986,1.196,-0.148,33.0
9.984,1.193,0.127,70.0
9.988,1.193,0.07,140.0
9.983,1.191,0.013,114.0
9.98,1.189,-0.044,70.0
9.985,1.189,-0.102,66.0
9.988,1.189,-0.159,38.0
9.985,1.185,0.116,74.0
9.991,1.185,0.059,136.0
9.991,1.184,0.002,115.0
9.987,1.182,-0.055,70.0
9.996,1.182,-0.112,70.0
10.007,1.183,-0.169,24.0
9.996,1.178,0.106,74.0
10.003,1.178,0.049,150.0
9.996,1.176,-0.007,104.0
9.998,1.175,-0.065,56.0
10.004,1.175,-0.122,45.0
10.005,1.174,-0.179,19.0
10.007,1.171,0.096,60.0
10.009,1.17,0.039,87.0
10.006,1.168,-0.017,32.0
10.007,1.167,-0.075,18.0
10.015,1.167,-0.133,16.0
9.998,1.164,-0.189,14.0
33.796,3.924,0.292,5.0
33.844,3.925,0.099,7.0
9.992,1.157,-0.027,12.0
34.4,3.982,-0.294,6.0
9.997,1.156,-0.142,7.0
20.83,2.406,-0.415,2.0
33.831,3.896,0.259,9.0
33.921,3.902,0.066,150.0
32.991,3.79,-0.122,7.0
34.371,3.945,-0.327,4.0
23.492,2.693,-0.357,4.0
20.461,2.343,-0.428,2.0
32.69,3.732,0.219,18.0
32.698,3.728,0.032,40.0
32.933,3.751,-0.154,25.0
31.228,3.552,-0.327,1.0
22.802,2.591,-0.368,2.0
13.85,1.572,-0.302,12.0
32.669,3.696,0.188,31.0
32.699,3.694,0.002,20.0
32.719,3.692,-0.184,9.0
13.863,1.562,-0.158,3.0
13.855,1.559,-0.237,13.0
13.815,1.553,-0.315,21.0
32.657,3.659,0.158,6.0
13.875,1.552,-0.011,14.0
13.848,1.547,-0.09,9.0
13.852,1.546,-0.17,13.0
13.817,1.54,-0.248,18.0
13.812,1.537,-0.327,24.0
13.83,1.534,0.054,15.0
13.834,1.532,-0.024,21.0
13.819,1.528,-0.102,19.0
13.793,1.523,-0.182,19.0
13.801,1.522,-0.261,26.0
13.799,1.52,-0.339,29.0
13.811,1.516,0.042,29.0
13.813,1.514,-0.036,26.0
13.795,1.51,-0.114,20.0
13.777,1.506,-0.194,28.0
13.802,1.506,-0.272,34.0
13.785,1.502,-0.35,27.0
13.797,1.498,0.03,37.0
13.792,1.495,-0.047,30.0
13.785,1.492,-0.126,34.0
13.79,1.49,-0.205,35.0
13.796,1.489,-0.284,37.0
13.773,1.484,-0.362,30.0
13.793,1.48,0.019,38.0
13.785,1.477,-0.059,38.0
13.775,1.474,-0.137,38.0
13.778,1.472,-0.216,36.0
13.783,1.47,-0.295,37.0
13.767,1.466,-0.373,31.0
13.789,1.462,0.007,39.0
13.78,1.459,-0.07,73.0
13.768,1.455,-0.148,108.0
13.774,1.454,-0.227,38.0
13.774,1.451,-0.305,35.0
13.765,1.448,-0.383,29.0
13.783,1.444,-0.002,40.0
13.773,1.44,-0.08,91.0
13.769,1.437,-0.158,102.0
13.771,1.435,-0.238,39.0
13.771,1.433,-0.316,38.0
13.761,1.43,-0.394,27.0
13.775,1.424,-0.013,41.0
13.765,1.421,-0.091,124.0
13.765,1.418,-0.169,85.0
13.771,1.417,-0.248,36.0
13.777,1.415,-0.326,69.0
13.762,1.411,-0.404,29.0
13.778,1.406,-0.023,40.0
13.77,1.402,-0.101,124.0
13.771,1.4,-0.179,53.0
13.777,1.398,-0.258,48.0
13.772,1.395,-0.336,84.0
13.762,1.392,-0.413,32.0
13.784,1.387,-0.032,41.0
13.777,1.383,-0.11,77.0
13.781,1.381,-0.188,72.0
13.773,1.378,-0.267,48.0
13.769,1.375,-0.345,82.0
13.76,1.372,-0.423,37.0
13.79,1.367,-0.042,63.0
13.792,1.365,-0.12,88.0
13.79,1.362,-0.197,104.0
13.773,1.358,-0.276,39.0
13.772,1.355,-0.354,48.0
13.754,1.351,-0.432,34.0
13.803,1.349,-0.051,53.0
13.801,1.345,-0.128,117.0
13.794,1.342,-0.206,35.0
13.781,1.338,-0.285,36.0
13.774,1.335,-0.363,34.0
13.754,1.33,-0.44,30.0
13.816,1.329,-0.059,39.0
13.815,1.326,-0.137,67.0
13.796,1.321,-0.215,53.0
13.795,1.318,-0.294,34.0
13.79,1.315,-0.371,29.0
13.773,1.311,-0.449,28.0
13.836,1.31,-0.067,34.0
13.834,1.306,-0.145,36.0
13.816,1.302,-0.223,33.0
13.812,1.299,-0.302,32.0
13.809,1.296,-0.38,28.0
13.796,1.292,-0.457,26.0
13.852,1.29,-0.075,29.0
13.848,1.286,-0.153,29.0
13.835,1.282,-0.23,31.0
13.821,1.278,-0.309,24.0
13.812,1.274,-0.387,24.0
13.798,1.27,-0.464,25.0
13.878,1.27,-0.082,21.0
13.869,1.266,-0.16,26.0
13.854,1.261,-0.238,21.0
13.851,1.258,-0.317,18.0
13.844,1.255,-0.395,17.0
13.837,1.251,-0.472,24.0
34.815,3.13,-0.224,6.0
13.89,1.245,-0.167,8.0
13.889,1.242,-0.245,7.0
13.875,1.238,-0.324,7.0
13.9,1.237,-0.403,13.0
13.837,1.229,-0.479,18.0
34.79,3.071,-0.239,8.0
30.091,2.649,-0.375,2.0
22.425,1.969,-0.406,4.0
19.755,1.73,-0.47,3.0
13.936,1.217,-0.41,4.0
13.874,1.209,-0.486,13.0
34.819,3.016,-0.253,3.0
29.805,2.574,-0.384,1.0
22.129,1.906,-0.409,4.0
19.611,1.685,-0.474,3.0
17.6,1.508,-0.524,2.0
13.937,1.191,-0.493,10.0
30.23,2.567,-0.232,25.0
29.869,2.529,-0.396,2.0
21.992,1.856,-0.415,4.0
19.471,1.639,-0.478,3.0
17.518,1.471,-0.528,2.0
15.927,1.333,-0.569,3.0
30.225,2.514,-0.242,25.0
29.595,2.454,-0.403,1.0
21.847,1.806,-0.419,4.0
19.39,1.599,-0.482,3.0
17.465,1.436,-0.532,2.0
0.0,0.0,0.0,0.0
30.272,2.465,-0.252,21.0
29.283,2.377,-0.407,1.0
21.732,1.759,-0.424,4.0
19.332,1.56,-0.487,3.0
17.358,1.396,-0.534,2.0
0.0,0.0,0.0,0.0
30.451,2.426,-0.262,26.0
29.533,2.346,-0.419,2.0
21.581,1.709,-0.426,4.0
19.198,1.515,-0.488,3.0
17.335,1.364,-0.538,3.0
15.587,1.223,-0.57,2.0
30.438,2.371,-0.269,26.0
29.084,2.258,-0.419,1.0
21.493,1.663,-0.429,4.0
19.16,1.478,-0.491,3.0
17.267,1.327,-0.539,2.0
15.526,1.19,-0.571,3.0
30.501,2.32,-0.276,35.0
25.15,1.907,-0.368,1.0
21.491,1.624,-0.434,4.0
19.159,1.443,-0.495,3.0
17.234,1.293,-0.541,3.0
15.444,1.155,-0.571,3.0
0.0,0.0,0.0,0.0
24.976,1.848,-0.369,1.0
21.396,1.578,-0.435,4.0
19.063,1.401,-0.495,3.0
17.233,1.262,-0.544,2.0
15.446,1.127,-0.573,2.0
0.0,0.0,0.0,0.0
24.863,1.794,-0.37,1.0
21.378,1.537,-0.437,4.0
19.048,1.365,-0.497,3.0
17.263,1.232,-0.546,2.0
15.386,1.094,-0.572,2.0
35.057,2.475,-0.331,1.0
24.929,1.753,-0.373,1.0
21.42,1.5,-0.44,4.0
19.145,1.336,-0.501,3.0
17.232,1.198,-0.547,2.0
15.382,1.065,-0.573,2.0
35.092,2.411,-0.333,0.0
28.927,1.98,-0.435,1.0
21.358,1.456,-0.439,4.0
19.161,1.301,-0.502,3.0
17.242,1.166,-0.547,2.0
15.469,1.042,-0.577,2.0
32.867,2.197,-0.312,1.0
25.075,1.669,-0.377,2.0
21.425,1.42,-0.441,4.0
19.144,1.264,-0.502,3.0
17.31,1.138,-0.549,2.0
15.553,1.018,-0.58,2.0
32.893,2.137,-0.312,1.0
25.126,1.625,-0.377,2.0
21.566,1.389,-0.443,4.0
19.222,1.232,-0.503,3.0
17.378,1.109,-0.551,2.0
15.566,0.989,-0.579,2.0
32.827,2.069,-0.31,1.0
28.901,1.814,-0.432,1.0
21.534,1.345,-0.44,4.0
19.331,1.202,-0.504,3.0
17.434,1.079,-0.551,2.0
15.762,0.971,-0.585,2.0
35.281,2.156,-0.329,0.0
28.926,1.759,-0.429,1.0
21.685,1.312,-0.441,4.0
19.348,1.166,-0.502,3.0
17.496,1.049,-0.551,3.0
15.846,0.946,-0.586,3.0
35.219,2.085,-0.324,1.0
28.959,1.705,-0.426,1.0
21.895,1.283,-0.442,4.0
19.447,1.134,-0.502,3.0
17.574,1.02,-0.55,3.0
15.93,0.92,-0.586,3.0
35.154,2.012,-0.317,4.0
29.036,1.653,-0.421,2.0
22.007,1.247,-0.44,4.0
19.603,1.105,-0.502,3.0
17.691,0.992,-0.55,4.0
15.989,0.892,-0.585,3.0
35.275,1.95,-0.311,6.0
29.145,1.602,-0.417,2.0
22.138,1.21,-0.438,4.0
19.743,1.074,-0.501,3.0
17.785,0.962,-0.549,2.0
16.004,0.861,-0.582,4.0
35.326,1.883,-0.302,9.0
29.423,1.559,-0.413,2.0
22.315,1.176,-0.435,4.0
19.827,1.039,-0.497,3.0
17.837,0.929,-0.545,2.0
16.231,0.841,-0.585,2.0
0.0,0.0,0.0,0.0
29.612,1.511,-0.407,2.0
22.787,1.156,-0.437,5.0
19.977,1.007,-0.495,3.0
18.03,0.904,-0.545,3.0
16.332,0.814,-0.583,3.0
35.587,1.756,-0.282,5.0
29.805,1.462,-0.399,2.0
23.087,1.125,-0.435,5.0
20.248,0.981,-0.494,3.0
18.208,0.877,-0.544,3.0
16.437,0.786,-0.581,4.0
35.667,1.689,-0.269,8.0
30.075,1.415,-0.391,2.0
23.523,1.1,-0.434,5.0
20.479,0.952,-0.492,4.0
18.297,0.845,-0.539,3.0
16.534,0.758,-0.578,3.0
35.775,1.625,-0.256,9.0
30.349,1.369,-0.382,2.0
23.934,1.072,-0.432,5.0
20.658,0.919,-0.487,4.0
18.485,0.817,-0.537,3.0
16.733,0.734,-0.577,2.0
35.959,1.561,-0.24,12.0
30.783,1.327,-0.374,2.0
24.306,1.04,-0.427,5.0
20.92,0.889,-0.484,7.0
18.693,0.788,-0.534,3.0
16.972,0.711,-0.577,2.0
36.148,1.497,-0.224,18.0
31.15,1.28,-0.362,2.0
24.525,1.0,-0.418,1.0
21.051,0.852,-0.476,4.0
18.991,0.763,-0.533,3.0
17.238,0.687,-0.577,2.0
36.329,1.432,-0.206,31.0
31.041,1.214,-0.344,7.0
28.174,1.094,-0.466,1.0
21.363,0.822,-0.471,4.0
19.244,0.735,-0.529,3.0
17.413,0.66,-0.573,6.0
36.496,1.367,-0.186,33.0
32.247,1.198,-0.34,1.0
28.394,1.046,-0.453,1.0
21.798,0.796,-0.468,4.0
19.439,0.704,-0.523,3.0
17.608,0.632,-0.569,3.0
39.48,1.401,-0.178,2.0
33.206,1.168,-0.329,1.0
28.764,1.003,-0.441,1.0
22.121,0.764,-0.461,4.0
19.689,0.674,-0.517,3.0
17.791,0.604,-0.564,4.0
39.565,1.327,-0.153,42.0
36.071,1.198,-0.334,1.0
29.217,0.962,-0.429,2.0
22.689,0.739,-0.458,5.0
20.001,0.646,-0.512,3.0
18.007,0.575,-0.558,5.0
0.0,0.0,0.0,0.0
36.115,1.128,-0.31,7.0
29.651,0.917,-0.414,1.0
23.396,0.716,-0.455,5.0
20.402,0.618,-0.507,3.0
18.376,0.551,-0.556,3.0
39.841,1.179,-0.098,40.0
36.366,1.065,-0.285,7.0
30.132,0.873,-0.399,2.0
23.806,0.682,-0.446,2.0
20.783,0.589,-0.501,4.0
18.663,0.523,-0.551,3.0
42.593,1.178,-0.072,11.0
36.587,1.0,-0.259,12.0
30.601,0.827,-0.382,2.0
27.249,0.728,-0.49,1.0
21.034,0.556,-0.491,4.0
19.024,0.497,-0.546,3.0
42.836,1.101,-0.039,12.0
36.901,0.938,-0.232,18.0
31.278,0.785,-0.365,2.0
27.623,0.685,-0.474,1.0
21.415,0.524,-0.482,4.0
19.292,0.466,-0.538,3.0
0.0,0.0,0.0,0.0
37.241,0.874,-0.203,46.0
32.165,0.745,-0.348,1.0
28.304,0.647,-0.461,2.0
21.952,0.495,-0.475,4.0
19.636,0.437,-0.531,4.0
47.571,1.04,0.036,23.0
37.944,0.818,-0.174,54.0
33.153,0.704,-0.33,1.0
28.95,0.606,-0.446,2.0
22.682,0.468,-0.471,4.0
19.995,0.406,-0.523,4.0
48.043,0.959,0.08,22.0
38.768,0.761,-0.142,39.0
36.751,0.711,-0.332,5.0
29.456,0.561,-0.427,2.0
26.444,0.495,-0.525,1.0
20.294,0.373,-0.511,7.0
0.0,0.0,0.0,0.0
39.471,0.701,-0.108,36.0
36.942,0.644,-0.298,5.0
30.042,0.514,-0.406,2.0
26.82,0.451,-0.506,2.0
20.988,0.346,-0.508,4.0
54.897,0.887,0.197,7.0
44.218,0.701,-0.077,7.0
37.177,0.578,-0.264,11.0
30.739,0.469,-0.385,1.0
27.288,0.408,-0.488,1.0
21.528,0.315,-0.5,7.0
48.113,0.688,0.221,39.0
0.0,0.0,0.0,0.0
37.696,0.515,-0.229,17.0
31.616,0.422,-0.363,1.0
28.046,0.366,-0.472,1.0
22.047,0.281,-0.489,4.0
48.066,0.597,0.271,81.0
46.871,0.568,0.014,45.0
38.114,0.451,-0.191,42.0
32.755,0.377,-0.342,1.0
28.848,0.323,-0.454,2.0
25.781,0.281,-0.543,1.0
48.056,0.508,0.323,105.0
47.857,0.491,0.067,55.0
38.904,0.388,-0.152,46.0
33.64,0.325,-0.314,0.0
29.439,0.276,-0.431,2.0
26.302,0.238,-0.525,2.0
48.061,0.421,0.376,105.0
48.017,0.406,0.12,75.0
39.725,0.324,-0.111,19.0
37.556,0.296,-0.308,2.0
30.053,0.227,-0.406,2.0
26.869,0.195,-0.506,1.0
48.153,0.335,0.431,53.0
48.186,0.321,0.176,50.0
44.48,0.283,-0.073,18.0
37.854,0.229,-0.267,7.0
31.043,0.179,-0.383,1.0
27.531,0.15,-0.486,1.0
59.311,0.306,0.602,123.0
59.333,0.289,0.287,22.0
0.0,0.0,0.0,0.0
38.491,0.164,-0.225,14.0
32.186,0.128,-0.359,1.0
28.448,0.105,-0.468,2.0
79.474,0.269,0.902,151.0
75.967,0.235,0.461,18.0
47.833,0.134,0.036,22.0
39.188,0.099,-0.181,39.0
33.356,0.074,-0.33,1.0
29.162,0.056,-0.443,2.0
79.465,0.131,1.001,151.0
79.334,0.107,0.58,11.0
0.0,0.0,0.0,0.0
40.466,0.031,-0.136,16.0
37.993,0.018,-0.328,1.0
29.846,0.005,-0.415,2.0
79.458,-0.008,1.103,151.0
79.413,-0.029,0.682,150.0
56.12,-0.037,0.185,13.0
0.0,0.0,0.0,0.0
38.64,-0.047,-0.284,4.0
30.702,-0.046,-0.387,1.0
79.459,-0.142,1.206,151.0
79.454,-0.164,0.786,151.0
61.563,-0.145,0.284,9.0
46.021,-0.121,-0.034,20.0
39.14,-0.114,-0.236,7.0
32.016,-0.102,-0.362,1.0
79.453,-0.276,1.311,161.0
79.457,-0.298,0.892,151.0
76.664,-0.308,0.456,12.0
0.0,0.0,0.0,0.0
39.745,-0.182,-0.185,4.0
33.582,-0.163,-0.334,1.0
79.44,-0.407,1.419,173.0
79.457,-0.43,1.001,167.0
0.0,0.0,0.0,0.0
56.056,-0.333,0.109,5.0
44.345,-0.276,-0.146,3.0
39.641,-0.257,-0.339,0.0
79.44,-0.537,1.529,168.0
79.446,-0.558,1.11,181.0
79.47,-0.579,0.692,150.0
61.376,-0.464,0.206,7.0
49.026,-0.384,-0.093,4.0
42.213,-0.341,-0.302,2.0
79.438,-0.663,1.64,168.0
79.433,-0.685,1.223,196.0
79.455,-0.706,0.805,179.0
77.257,-0.707,0.369,4.0
54.978,-0.517,-0.026,5.0
42.348,-0.409,-0.242,3.0
79.426,-0.788,1.753,188.0
79.43,-0.809,1.336,198.0
79.46,-0.83,0.919,161.0
78.321,-0.839,0.488,25.0
0.0,0.0,0.0,0.0
45.555,-0.511,-0.194,2.0
79.45,-0.912,1.871,151.0
79.42,-0.933,1.454,136.0
79.433,-0.953,1.037,52.0
79.161,-0.97,0.61,17.0
86.999,-1.089,0.215,4.0
51.295,-0.655,-0.141,3.0
86.949,-1.131,2.177,34.0
86.947,-1.153,1.721,64.0
183.415,-2.478,2.669,42.0
87.93,-1.211,0.81,4.0
0.0,0.0,0.0,0.0
53.287,-0.761,-0.066,1.0
151.452,-2.198,4.023,42.0
187.159,-2.762,3.99,53.0
205.338,-3.083,3.304,25.0
123.818,-1.89,1.332,12.0
91.496,-1.418,0.505,4.0
61.475,-0.968,0.018,1.0
151.468,-2.422,4.258,92.0
248.326,-4.032,5.681,55.0
0.0,0.0,0.0,0.0
149.924,-2.506,1.845,5.0
40.259,-0.682,0.284,47.0
40.281,-0.692,0.074,61.0
40.32,-0.702,1.195,23.0
40.234,-0.71,0.982,50.0
40.184,-0.719,0.771,63.0
40.273,-0.73,0.558,29.0
40.229,-0.739,0.348,52.0
40.269,-0.749,0.138,51.0
40.331,-0.759,1.26,27.0
40.258,-0.767,1.048,47.0
40.226,-0.776,0.836,44.0
40.236,-0.785,0.622,46.0
40.241,-0.794,0.412,41.0
40.312,-0.805,0.203,1.0
185.578,-3.749,6.096,49.0
40.232,-0.821,1.111,43.0
40.207,-0.83,0.9,54.0
40.246,-0.839,0.687,53.0
40.27,-0.849,0.477,38.0
0.0,0.0,0.0,0.0
185.542,-3.996,6.394,44.0
40.232,-0.875,1.176,46.0
40.204,-0.883,0.965,56.0
40.186,-0.892,0.751,58.0
40.324,-0.903,0.544,150.0
40.292,-0.912,0.334,56.0
40.265,-0.919,1.453,40.0
40.254,-0.928,1.243,51.0
40.198,-0.935,1.032,55.0
40.176,-0.943,0.818,54.0
40.219,-0.953,0.609,52.0
40.257,-0.963,0.4,17.0
40.219,-0.97,1.519,41.0
40.249,-0.979,1.31,68.0
40.202,-0.986,1.099,52.0
40.176,-0.994,0.885,49.0
40.217,-1.003,0.676,64.0
40.207,-1.011,0.467,60.0
40.237,-1.021,1.587,8.0
40.195,-1.027,1.376,55.0
40.228,-1.036,1.167,41.0
40.189,-1.044,0.953,54.0
40.211,-1.052,0.745,42.0
40.216,-1.06,0.535,47.0
129.085,-3.432,5.313,37.0
40.221,-1.077,1.445,40.0
40.268,-1.086,1.237,22.0
40.199,-1.092,1.022,43.0
40.298,-1.102,0.815,5.0
0.0,0.0,0.0,0.0
148.379,-4.119,6.362,10.0
0.0,0.0,0.0,0.0
0.0,0.0,0.0,0.0
40.292,-1.141,1.094,15.0
40.343,-1.15,0.885,7.0
154.043,-4.419,2.58,25.0
0.0,0.0,0.0,0.0
148.393,-4.314,5.843,5.0
0.0,0.0,0.0,0.0
40.279,-1.185,1.163,15.0
40.308,-1.193,0.954,27.0
40.338,-1.202,0.745,22.0
0.0,0.0,0.0,0.0
148.26,-4.472,6.096,33.0
0.0,0.0,0.0,0.0
0.0,0.0,0.0,0.0
40.295,-1.236,1.025,26.0
40.314,-1.244,0.816,21.0
0.0,0.0,0.0,0.0
147.995,-4.621,6.346,8.0
0.0,0.0,0.0,0.0
0.0,0.0,0.0,0.0
0.0,0.0,0.0,0.0
0.0,0.0,0.0,0.0
0.0,0.0,0.0,0.0
0.0,0.0,0.0,0.0
148.02,-4.797,5.839,11.0
0.0,0.0,0.0,0.0
0.0,0.0,0.0,0.0
0.0,0.0,0.0,0.0
0.0,0.0,0.0,0.0
0.0,0.0,0.0,0.0
147.997,-4.94,6.099,8.0
0.0,0.0,0.0,0.0
0.0,0.0,0.0,0.0
0.0,0.0,0.0,0.0
0.0,0.0,0.0,0.0
0.0,0.0,0.0,0.0
0.0,0.0,0.0,0.0
0.0,0.0,0.0,0.0
0.0,0.0,0.0,0.0
0.0,0.0,0.0,0.0
0.0,0.0,0.0,0.0
0.0,0.0,0.0,0.0
0.0,0.0,0.0,0.0
0.0,0.0,0.0,0.0
0.0,0.0,0.0,0.0
0.0,0.0,0.0,0.0
0.0,0.0,0.0,0.0
0.0,0.0,0.0,0.0
0.0,0.0,0.0,0.0
0.0,0.0,0.0,0.0
0.0,0.0,0.0,0.0
0.0,0.0,0.0,0.0
98.307,-3.603,5.779,2.0
0.0,0.0,0.0,0.0
0.0,0.0,0.0,0.0
0.0,0.0,0.0,0.0
0.0,0.0,0.0,0.0
0.0,0.0,0.0,0.0
97.431,-3.65,5.905,1.0
0.0,0.0,0.0,0.0
0.0,0.0,0.0,0.0
0.0,0.0,0.0,0.0
0.0,0.0,0.0,0.0
0.0,0.0,0.0,0.0
93.918,-3.59,5.864,4.0
0.0,0.0,0.0,0.0
0.0,0.0,0.0,0.0
0.0,0.0,0.0,0.0
0.0,0.0,0.0,0.0
0.0,0.0,0.0,0.0
93.153,-3.627,5.985,9.0
97.762,-3.817,5.773,5.0
0.0,0.0,0.0,0.0
0.0,0.0,0.0,0.0
0.0,0.0,0.0,0.0
0.0,0.0,0.0,0.0
90.143,-3.572,5.956,8.0
92.8,-3.685,5.649,5.0
0.0,0.0,0.0,0.0
0.0,0.0,0.0,0.0
0.0,0.0,0.0,0.0
0.0,0.0,0.0,0.0
91.311,-3.677,6.201,6.0
92.755,-3.743,5.816,18.0
98.528,-3.983,5.664,1.0
0.0,0.0,0.0,0.0
0.0,0.0,0.0,0.0
0.0,0.0,0.0,0.0
83.201,-3.4,5.801,7.0
92.933,-3.805,5.995,3.0
97.645,-4.004,5.791,5.0
0.0,0.0,0.0,0.0
0.0,0.0,0.0,0.0
0.0,0.0,0.0,0.0
83.426,-3.456,5.969,6.0
89.885,-3.729,5.962,4.0
83.174,-3.455,5.084,3.0
0.0,0.0,0.0,0.0
0.0,0.0,0.0,0.0
0.0,0.0,0.0,0.0
84.571,-3.547,6.204,1.0
91.304,-3.834,6.222,6.0
92.69,-3.897,5.832,2.0
0.0,0.0,0.0,0.0
0.0,0.0,0.0,0.0
0.0,0.0,0.0,0.0
96.299,-4.084,7.239,3.0
91.245,-3.875,6.383,5.0
93.047,-3.955,6.023,4.0
83.291,-3.544,4.949,5.0
0.0,0.0,0.0,0.0
0.0,0.0,0.0,0.0
92.907,-3.981,7.151,2.0
83.311,-3.573,5.978,6.0
89.883,-3.858,5.979,6.0
97.485,-4.189,5.967,1.0
0.0,0.0,0.0,0.0
0.0,0.0,0.0,0.0
90.347,-3.907,7.117,8.0
89.288,-3.864,6.568,5.0
91.352,-3.957,6.243,3.0
92.516,-4.009,5.83,2.0
83.253,-3.611,4.812,2.0
0.0,0.0,0.0,0.0
90.328,-3.938,7.278,7.0
84.668,-3.694,6.379,3.0
83.116,-3.628,5.828,4.0
90.567,-3.955,5.869,5.0
83.285,-3.639,4.962,1.0
0.0,0.0,0.0,0.0
83.87,-3.684,6.909,11.0
91.639,-4.026,7.069,4.0
83.333,-3.662,5.993,7.0
93.079,-4.092,6.198,3.0
0.0,0.0,0.0,0.0
0.0,0.0,0.0,0.0
92.597,-4.092,7.795,12.0
0.0,0.0,0.0,0.0
83.45,-3.69,6.15,4.0
91.462,-4.044,6.254,4.0
92.565,-4.093,5.846,1.0
83.278,-3.684,4.826,3.0
92.697,-4.119,7.969,11.0
90.316,-4.013,7.289,7.0
92.6,-4.114,6.989,1.0
83.179,-3.696,5.835,2.0
93.13,-4.137,6.045,4.0
0.0,0.0,0.0,0.0
83.285,-3.717,7.306,12.0
83.822,-3.739,6.913,7.0
93.236,-4.159,7.2,7.0
83.233,-3.712,5.983,6.0
89.67,-3.998,5.976,1.0
0.0,0.0,0.0,0.0
56.739,-2.541,5.077,9.0
83.851,-3.753,7.063,8.0
91.784,-4.106,7.248,2.0
83.52,-3.735,6.149,7.0
91.677,-4.099,6.27,3.0
0.0,0.0,0.0,0.0
63.398,-2.846,5.783,3.0
92.823,-4.165,7.979,6.0
92.681,-4.155,7.479,4.0
89.124,-3.994,6.715,2.0
93.111,-4.17,6.526,3.0
93.155,-4.17,6.042,1.0
91.331,-4.107,8.488,4.0
83.285,-3.742,7.3,12.0
90.29,-4.054,7.439,12.0
93.232,-4.183,7.182,7.0
93.054,-4.172,6.68,5.0
89.88,-4.027,5.981,1.0
90.83,-4.088,8.595,7.0
56.731,-2.55,5.07,7.0
83.876,-3.767,7.053,11.0
93.13,-4.179,7.332,2.0
83.545,-3.745,6.138,7.0
89.793,-4.023,6.125,3.0
54.941,-2.472,5.292,2.0
63.415,-2.85,5.774,3.0
92.982,-4.174,7.976,6.0
92.725,-4.158,7.456,5.0
89.119,-3.993,6.697,2.0
93.051,-4.165,6.505,1.0
57.966,-2.605,5.682,4.0
91.352,-4.101,8.471,4.0
83.261,-3.733,7.28,12.0
90.262,-4.041,7.408,12.0
93.222,-4.169,7.16,8.0
83.177,-3.716,5.951,4.0
55.029,-2.469,5.485,15.0
90.688,-4.062,8.56,6.0
56.713,-2.537,5.053,7.0
83.863,-3.747,7.021,9.0
93.198,-4.158,7.312,3.0
83.52,-3.721,6.112,5.0
57.189,-2.558,5.795,6.0
54.983,-2.456,5.279,2.0
63.452,-2.83,5.756,4.0
92.771,-4.131,7.917,9.0
90.269,-4.014,7.227,5.0
92.442,-4.103,6.914,1.0
57.296,-2.554,5.898,16.0
55.044,-2.45,5.374,8.0
84.278,-3.743,7.782,3.0
83.305,-3.694,7.242,12.0
83.88,-3.713,6.849,9.0
93.029,-4.112,7.106,3.0
53.042,-2.354,5.545,1.0
55.043,-2.438,5.462,19.0
82.847,-3.663,7.782,8.0
56.741,-2.504,5.023,6.0
92.893,-4.091,7.732,11.0
93.165,-4.096,7.262,2.0
55.281,-2.44,5.867,4.0
57.311,-2.525,5.777,15.0
63.761,-2.802,6.089,4.0
63.43,-2.782,5.714,4.0
83.321,-3.648,7.065,12.0
90.334,-3.946,7.181,7.0
49.59,-2.175,5.34,4.0
63.571,-2.783,6.507,6.0
55.018,-2.403,5.339,18.0
91.105,-3.969,8.347,7.0
91.078,-3.96,7.861,4.0
83.807,-3.636,6.789,6.0
49.642,-2.162,5.421,7.0
56.541,-2.457,5.873,26.0
57.343,-2.485,5.65,5.0
82.792,-3.58,7.709,11.0
56.762,-2.449,4.983,6.0
92.692,-3.989,7.646,14.0
40.535,-1.751,4.487,56.0
53.159,-2.291,5.601,2.0
63.497,-2.73,6.35,12.0
55.003,-2.358,5.202,7.0
56.79,-2.429,5.069,4.0
83.316,-3.555,6.993,10.0
40.511,-1.735,4.544,45.0
48.579,-2.075,5.189,3.0
56.644,-2.413,5.748,6.0
54.932,-2.334,5.275,14.0
82.821,-3.509,7.512,9.0
84.287,-3.562,7.196,7.0
40.524,-1.719,4.604,34.0
40.461,-1.711,4.38,63.0
56.676,-2.39,5.832,2.0
57.271,-2.408,5.581,14.0
54.992,-2.306,5.066,2.0
56.823,-2.375,4.931,4.0
40.524,-1.7,4.662,12.0
40.484,-1.694,4.44,52.0
40.519,-1.69,4.226,4.0
63.472,-2.64,6.275,10.0
54.975,-2.279,5.141,16.0
56.813,-2.348,5.01,6.0
40.771,-1.691,4.748,22.0
40.415,-1.671,4.489,37.0
40.439,-1.666,4.274,43.0
56.765,-2.332,5.689,7.0
57.642,-2.36,5.468,22.0
91.049,-3.716,8.152,6.0
40.445,-1.656,4.765,44.0
40.383,-1.648,4.54,62.0
40.354,-1.641,4.319,70.0
0.0,0.0,0.0,0.0
57.327,-2.317,5.515,7.0
55.001,-2.214,4.997,9.0
40.465,-1.635,4.821,33.0
40.334,-1.624,4.588,48.0
40.444,-1.623,4.382,57.0
53.279,-2.13,5.481,12.0
55.259,-2.201,5.388,5.0
54.946,-2.181,5.063,7.0
40.357,-1.608,4.861,53.0
40.616,-1.611,4.673,47.0
40.549,-1.602,4.446,52.0
40.537,-1.596,4.222,7.0
52.672,-2.066,5.203,4.0
57.333,-2.24,5.355,6.0
40.327,-1.581,4.909,62.0
40.547,-1.583,4.716,39.0
40.476,-1.574,4.489,63.0
40.403,-1.565,4.259,19.0
40.477,-1.562,4.048,39.0
63.714,-2.449,6.03,12.0
40.357,-1.556,4.963,61.0
40.43,-1.553,4.752,58.0
40.223,-1.538,4.51,58.0
40.342,-1.536,4.301,64.0
40.4,-1.532,4.089,58.0
63.17,-2.386,6.053,6.0
40.269,-1.526,5.0,58.0
40.518,-1.528,4.81,49.0
40.311,-1.514,4.567,60.0
40.357,-1.509,4.349,51.0
40.294,-1.5,4.125,54.0
53.432,-1.981,5.181,3.0
40.254,-1.497,5.045,49.0
40.263,-1.49,4.827,50.0
40.296,-1.485,4.611,52.0
48.439,-1.776,5.275,5.0
40.118,-1.465,4.152,60.0
53.034,-1.928,5.202,27.0
43.645,-1.591,5.519,6.0
40.388,-1.466,4.886,54.0
40.328,-1.456,4.66,47.0
43.035,-1.547,4.734,3.0
40.121,-1.435,4.196,43.0
40.617,-1.446,4.027,3.0
43.655,-1.559,5.568,26.0
40.346,-1.433,4.925,50.0
40.402,-1.428,4.711,59.0
40.413,-1.422,4.489,45.0
40.321,-1.411,4.259,48.0
40.453,-1.409,4.054,31.0
47.378,-1.655,6.092,6.0
40.253,-1.398,4.956,52.0
40.495,-1.4,4.764,59.0
40.379,-1.388,4.526,57.0
40.378,-1.381,4.306,51.0
40.388,-1.374,4.088,52.0
47.353,-1.615,6.137,4.0
40.356,-1.369,5.009,46.0
40.498,-1.366,4.805,52.0
40.359,-1.354,4.564,47.0
40.228,-1.343,4.33,61.0
40.033,-1.329,4.091,66.0
42.179,-1.403,5.508,54.0
40.56,-1.342,5.074,62.0
40.564,-1.334,4.852,58.0
40.456,-1.323,4.613,55.0
39.991,-1.301,4.342,58.0
40.038,-1.295,4.129,70.0
41.988,-1.361,5.523,60.0
40.903,-1.318,5.155,67.0
40.348,-1.292,4.863,61.0
40.106,-1.277,4.61,51.0
39.944,-1.264,4.373,59.0
40.236,-1.266,4.185,67.0
42.005,-1.324,5.563,40.0
41.26,-1.292,5.237,73.0
40.425,-1.259,4.908,58.0
39.749,-1.23,4.604,53.0
39.954,-1.229,4.408,56.0
39.43,-1.205,4.135,53.0
47.283,-1.448,6.303,26.0
41.393,-1.259,5.289,58.0
40.513,-1.224,4.953,53.0
39.543,-1.187,4.613,63.0
39.976,-1.193,4.444,51.0
39.301,-1.165,4.153,65.0
42.637,-1.265,5.719,62.0
42.029,-1.239,5.404,41.0
40.404,-1.183,4.972,47.0
39.768,-1.157,4.67,56.0
39.493,-1.141,4.421,57.0
39.276,-1.128,4.181,60.0
42.589,-1.223,5.745,68.0
42.038,-1.2,5.438,37.0
40.452,-1.146,5.008,51.0
39.549,-1.113,4.674,57.0
39.852,-1.113,4.491,57.0
39.224,-1.088,4.204,55.0
42.546,-1.181,5.771,60.0
41.939,-1.156,5.455,52.0
39.846,-1.09,4.962,50.0
39.414,-1.07,4.686,58.0
39.419,-1.063,4.469,57.0
39.329,-1.053,4.242,55.0
42.19,-1.13,5.752,61.0
42.346,-1.125,5.537,48.0
39.56,-1.043,4.953,61.0
39.512,-1.034,4.724,56.0
47.424,-1.232,5.408,4.0
39.116,-1.008,4.245,63.0
41.977,-1.082,5.75,57.0
42.143,-1.078,5.537,60.0
39.549,-1.004,4.977,55.0
40.116,-1.01,4.821,46.0
39.442,-0.985,4.522,54.0
39.319,-0.973,4.291,55.0
42.494,-1.052,5.846,19.0
42.17,-1.035,5.566,52.0
39.493,-0.962,4.993,52.0
40.117,-0.968,4.845,43.0
39.15,-0.937,4.51,63.0
39.341,-0.934,4.315,66.0
41.815,-0.991,5.776,75.0
41.927,-0.986,5.557,53.0
39.488,-0.92,5.014,52.0
39.528,-0.913,4.794,73.0
39.541,-0.906,4.576,56.0
39.003,-0.886,4.298,60.0
42.016,-0.953,5.826,54.0
41.83,-0.94,5.565,58.0
39.452,-0.878,5.029,43.0
39.623,-0.874,4.825,63.0
39.248,-0.857,4.561,64.0
39.152,-0.847,4.333,52.0
42.024,-0.908,5.847,58.0
41.815,-0.894,5.583,63.0
39.452,-0.836,5.047,53.0
39.725,-0.834,4.855,62.0
39.252,-0.816,4.579,65.0
39.046,-0.803,4.338,61.0
42.328,-0.869,5.907,24.0
42.55,-0.864,5.699,35.0
39.51,-0.795,5.07,30.0
39.516,-0.787,4.846,51.0
39.327,-0.775,4.603,63.0
39.152,-0.763,4.364,60.0
42.287,-0.822,5.917,55.0
42.593,-0.819,5.72,36.0
42.411,-0.806,5.458,6.0
39.388,-0.741,4.844,56.0
39.421,-0.734,4.627,48.0
39.289,-0.724,4.393,53.0
42.209,-0.774,5.921,53.0
43.056,-0.781,5.797,34.0
41.961,-0.752,5.413,40.0
39.325,-0.697,4.848,55.0
39.486,-0.692,4.647,52.0
39.175,-0.678,4.391,55.0
41.763,-0.72,5.87,52.0
43.002,-0.732,5.801,28.0
39.921,-0.671,5.161,39.0
39.384,-0.655,4.866,53.0
39.505,-0.648,4.659,54.0
39.444,-0.64,4.431,49.0
41.68,-0.672,5.869,51.0
39.939,-0.636,5.397,46.0
39.941,-0.627,5.172,60.0
39.628,-0.614,4.905,53.0
39.604,-0.606,4.679,56.0
39.392,-0.595,4.433,50.0
41.759,-0.626,5.888,64.0
39.951,-0.591,5.407,37.0
39.926,-0.582,5.178,58.0
39.674,-0.57,4.917,41.0
40.06,-0.568,4.74,49.0
39.706,-0.555,4.475,53.0
41.648,-0.577,5.879,52.0
39.939,-0.545,5.411,39.0
40.002,-0.538,5.193,44.0
40.017,-0.53,4.965,38.0
39.992,-0.522,4.736,48.0
39.579,-0.508,4.465,50.0
41.723,-0.53,5.894,60.0
39.976,-0.5,5.42,46.0
39.969,-0.492,5.192,74.0
39.916,-0.483,4.955,57.0
39.93,-0.476,4.732,49.0
39.961,-0.468,4.511,41.0
40.178,-0.465,5.678,62.0
0.0,0.0,0.0,0.0
39.921,-0.446,5.187,68.0
39.964,-0.439,4.963,32.0
40.199,-0.433,4.765,29.0
40.022,-0.423,4.518,43.0
40.772,-0.425,5.762,74.0
41.73,-0.427,5.659,26.0
39.922,-0.401,5.187,68.0
39.881,-0.392,4.952,48.0
40.223,-0.387,4.767,35.0
40.349,-0.381,4.554,45.0
40.196,-0.373,5.679,69.0
0.0,0.0,0.0,0.0
40.192,-0.358,5.22,44.0
39.713,-0.345,4.928,47.0
40.273,-0.343,4.77,36.0
40.37,-0.336,4.553,54.0
40.593,-0.33,5.732,67.0
0.0,0.0,0.0,0.0
42.503,-0.33,5.516,26.0
39.625,-0.3,4.913,67.0
43.746,-0.323,5.176,4.0
40.544,-0.292,4.568,52.0
40.401,-0.283,5.699,63.0
39.591,-0.269,5.358,58.0
39.832,-0.264,5.164,52.0
39.565,-0.254,4.9,55.0
39.737,-0.248,4.695,23.0
40.417,-0.244,4.547,48.0
40.427,-0.237,5.696,63.0
39.453,-0.224,5.333,61.0
39.479,-0.217,5.11,57.0
39.654,-0.21,4.903,49.0
39.641,-0.203,4.676,31.0
40.504,-0.199,4.548,46.0
40.243,-0.19,5.661,60.0
39.43,-0.179,5.32,69.0
39.566,-0.172,5.112,65.0
39.598,-0.164,4.886,56.0
39.651,-0.157,4.667,45.0
40.21,-0.152,4.504,43.0
39.862,-0.142,5.596,63.0
39.535,-0.134,5.323,55.0
39.382,-0.126,5.077,76.0
39.502,-0.119,4.863,61.0
39.863,-0.113,4.68,53.0
40.239,-0.107,4.495,50.0
39.802,-0.097,5.575,70.0
39.658,-0.089,5.327,61.0
39.683,-0.082,5.103,60.0
39.441,-0.075,4.842,55.0
39.987,-0.069,4.681,44.0
40.418,-0.062,4.501,30.0
40.016,-0.052,5.59,59.0
39.657,-0.045,5.312,67.0
39.51,-0.037,5.065,59.0
39.463,-0.03,4.829,64.0
39.893,-0.024,4.654,28.0
40.396,-0.017,4.482,40.0
40.026,-0.007,5.575,57.0
39.611,-0.001,5.289,67.0
39.392,0.005,5.034,54.0
39.478,0.012,4.814,54.0
39.712,0.019,4.616,33.0
40.084,0.026,4.43,54.0
39.887,0.036,5.538,76.0
39.906,0.043,5.31,47.0
39.391,0.049,5.015,66.0
39.455,0.056,4.793,45.0
39.563,0.063,4.579,49.0
40.02,0.07,4.403,46.0
49.913,0.101,6.904,6.0
39.867,0.087,5.284,55.0
39.539,0.093,5.013,31.0
43.568,0.11,5.269,13.0
39.595,0.106,4.562,56.0
40.063,0.115,4.387,58.0
39.766,0.124,5.479,63.0
40.665,0.134,5.368,31.0
40.091,0.138,5.061,38.0
43.657,0.158,5.255,28.0
39.842,0.15,4.567,51.0
40.123,0.158,4.37,39.0
39.654,0.167,5.439,68.0
40.253,0.176,5.289,62.0
39.984,0.181,5.023,58.0
39.814,0.186,4.768,49.0
40.293,0.195,4.594,24.0
40.155,0.201,4.348,50.0
39.724,0.21,5.424,63.0
39.573,0.215,5.174,60.0
39.892,0.223,4.985,53.0
39.74,0.228,4.734,49.0
40.266,0.237,4.565,50.0
40.02,0.242,4.307,63.0
39.525,0.25,5.37,68.0
39.611,0.257,5.152,67.0
39.942,0.265,4.964,68.0
39.836,0.27,4.717,36.0
40.386,0.28,4.55,59.0
40.99,0.29,4.383,27.0
39.447,0.291,5.331,67.0
39.518,0.297,5.111,48.0
0.0,0.0,0.0,0.0
39.965,0.312,4.703,51.0
40.062,0.319,4.484,58.0
47.236,0.382,5.015,5.0
39.315,0.33,5.283,64.0
39.554,0.338,5.085,43.0
46.962,0.408,5.766,10.0
39.93,0.353,4.667,53.0
40.076,0.359,4.453,47.0
47.248,0.43,4.979,10.0
39.314,0.37,5.25,63.0
39.559,0.378,5.053,60.0
43.817,0.425,5.343,4.0
40.145,0.394,4.659,47.0
40.904,0.407,4.511,41.0
40.495,0.409,4.233,16.0
39.336,0.409,5.219,56.0
39.351,0.414,4.993,38.0
43.785,0.467,5.301,4.0
40.118,0.433,4.621,59.0
41.329,0.452,4.522,28.0
40.425,0.448,4.19,66.0
39.227,0.447,5.169,68.0
42.636,0.491,5.371,4.0
40.074,0.466,4.816,26.0
40.404,0.476,4.617,51.0
41.346,0.492,4.486,16.0
40.599,0.489,4.171,38.0
39.047,0.482,5.109,64.0
40.24,0.502,5.031,28.0
40.552,0.511,4.834,16.0
40.839,0.52,4.628,16.0
41.217,0.53,4.432,15.0
41.302,0.536,4.203,26.0
38.99,0.519,5.063,57.0
39.897,0.535,4.948,15.0
41.213,0.558,4.872,19.0
41.165,0.562,4.623,31.0
47.589,0.656,5.07,10.0
40.636,0.565,4.094,15.0
39.004,0.554,5.025,65.0
39.591,0.567,4.869,21.0
41.518,0.6,4.865,34.0
41.422,0.604,4.609,45.0
56.243,0.826,5.933,9.0
40.536,0.6,4.042,41.0
39.299,0.594,5.02,47.0
0.0,0.0,0.0,0.0
40.78,0.626,4.735,58.0
41.555,0.642,4.579,34.0
40.75,0.634,4.254,16.0
48.391,0.759,4.772,6.0
39.209,0.627,4.966,42.0
0.0,0.0,0.0,0.0
40.715,0.66,4.682,25.0
41.485,0.677,4.525,35.0
40.635,0.667,4.197,24.0
48.384,0.8,4.717,41.0
38.902,0.656,4.882,66.0
41.187,0.698,4.928,50.0
40.767,0.695,4.64,54.0
41.675,0.715,4.498,21.0
43.024,0.742,4.394,3.0
56.097,0.974,5.404,13.0
39.145,0.692,4.867,54.0
41.844,0.744,4.957,42.0
41.384,0.74,4.662,53.0
0.0,0.0,0.0,0.0
40.063,0.724,4.043,36.0
49.021,0.89,4.664,7.0
39.435,0.729,4.854,60.0
41.14,0.764,4.824,34.0
41.406,0.772,4.614,43.0
41.228,0.773,4.35,27.0
40.471,0.762,4.035,40.0
49.023,0.928,4.604,6.0
39.514,0.76,4.815,62.0
0.0,0.0,0.0,0.0
41.783,0.811,4.603,53.0
41.193,0.803,4.294,45.0
40.316,0.79,3.969,46.0
40.002,0.787,3.706,41.0
0.0,0.0,0.0,0.0
40.851,0.82,4.686,58.0
48.575,0.979,5.289,6.0
48.464,0.98,4.99,17.0
40.237,0.818,3.909,44.0
40.022,0.816,3.656,53.0
41.469,0.859,4.945,55.0
41.378,0.86,4.692,54.0
48.5,1.012,5.217,12.0
40.605,0.85,4.127,21.0
39.985,0.84,3.831,50.0
61.179,1.29,5.508,11.0
41.552,0.889,4.898,49.0
48.537,1.043,5.438,32.0
48.471,1.045,5.148,15.0
40.816,0.882,4.093,22.0
40.053,0.868,3.783,42.0
40.069,0.872,3.552,62.0
48.517,1.07,5.652,6.0
41.215,0.912,4.56,49.0
41.488,0.921,4.348,39.0
40.262,0.896,3.981,41.0
40.094,0.895,3.732,53.0
54.003,1.209,4.713,6.0
41.222,0.936,4.744,51.0
41.161,0.937,4.496,26.0
41.12,0.938,4.251,21.0
40.2,0.92,3.917,48.0
40.092,0.92,3.674,29.0
54.0,1.242,4.634,12.0
41.519,0.968,4.717,43.0
41.408,0.967,4.462,42.0
40.716,0.953,4.15,38.0
53.965,1.266,5.18,18.0
40.245,0.947,3.629,55.0
53.924,1.271,4.549,15.0
41.67,0.995,4.673,17.0
49.508,1.184,5.262,4.0
40.531,0.971,4.071,46.0
42.843,1.029,4.049,6.0
40.176,0.967,3.563,64.0
53.921,1.3,4.469,5.0
53.803,1.314,5.952,39.0
41.298,1.01,4.327,24.0
40.296,0.987,3.986,54.0
40.232,0.987,3.741,32.0
67.523,1.66,5.886,24.0
53.27,1.312,4.334,19.0
49.747,1.24,5.427,5.0
41.166,1.027,4.25,16.0
40.634,1.015,3.957,52.0
40.263,1.008,3.681,45.0
67.561,1.694,5.784,26.0
61.471,1.544,4.905,8.0
57.072,1.449,6.135,8.0
49.219,1.251,5.002,9.0
56.783,1.446,5.439,19.0
40.238,1.026,3.615,61.0
64.001,1.634,5.378,14.0
61.489,1.572,4.81,8.0
41.22,1.065,4.365,13.0
40.315,1.043,4.033,37.0
56.787,1.47,5.348,37.0
56.708,1.469,5.004,8.0
56.68,1.471,4.672,10.0
61.593,1.6,4.719,7.0
41.295,1.084,4.306,28.0
40.306,1.058,3.967,49.0
56.762,1.492,5.254,30.0
56.709,1.492,4.913,72.0
56.637,1.491,4.577,50.0
61.583,1.623,4.618,54.0
49.32,1.313,5.062,4.0
40.68,1.083,3.936,38.0
56.721,1.511,5.157,9.0
56.725,1.512,4.821,18.0
56.598,1.51,4.48,93.0
63.767,1.703,4.676,10.0
40.567,1.093,4.095,32.0
42.812,1.154,4.071,45.0
40.341,1.088,3.6,49.0
56.667,1.529,4.72,30.0
61.514,1.661,4.765,49.0
55.812,1.508,3.999,80.0
40.551,1.105,4.024,70.0
42.966,1.171,4.012,52.0
40.222,1.096,3.521,62.0
56.609,1.544,4.619,95.0
63.756,1.739,4.831,7.0
55.802,1.522,3.904,59.0
40.675,1.119,3.967,42.0
42.98,1.183,3.94,4.0
40.271,1.108,3.456,34.0
62.797,1.728,5.016,8.0
73.672,2.028,5.455,19.0
62.209,1.712,4.244,4.0
42.817,1.188,4.101,60.0
40.284,1.118,3.622,39.0
40.278,1.117,3.386,45.0
62.183,1.725,4.858,46.0
55.802,1.547,4.035,87.0
54.191,1.502,3.602,17.0
42.964,1.2,4.039,62.0
40.207,1.123,3.544,65.0
56.618,1.581,4.659,34.0
61.476,1.716,4.694,30.0
73.882,2.062,5.211,12.0
54.254,1.513,3.511,62.0
42.963,1.207,3.962,4.0
40.255,1.13,3.477,34.0
62.817,1.763,5.058,17.0
55.827,1.566,4.163,36.0
74.017,2.075,5.088,10.0
54.459,1.526,3.426,39.0
40.324,1.138,3.646,28.0
40.307,1.136,3.408,51.0
62.21,1.752,4.896,58.0
55.805,1.571,4.06,85.0
54.23,1.525,3.63,12.0
124.088,3.489,7.583,27.0
40.231,1.138,3.563,58.0
62.903,1.778,5.203,24.0
61.446,1.735,4.724,30.0
73.909,2.085,5.243,32.0
54.249,1.529,3.532,58.0
124.096,3.496,7.359,20.0
40.249,1.14,3.492,52.0
62.828,1.778,5.083,31.0
55.828,1.579,4.19,25.0
73.993,2.09,5.114,33.0
54.383,1.534,3.441,44.0
124.339,3.504,7.143,16.0
62.848,1.781,5.336,9.0
62.214,1.761,4.918,52.0
55.822,1.578,4.085,89.0
54.224,1.531,3.647,7.0
124.178,3.501,7.629,31.0
126.096,3.551,7.014,7.0
62.892,1.78,5.223,27.0
61.466,1.737,4.744,36.0
73.918,2.086,5.273,22.0
54.239,1.528,3.547,52.0
124.079,3.491,7.392,20.0
123.29,3.463,6.628,19.0
62.829,1.774,5.1,17.0
55.835,1.573,4.205,19.0
74.019,2.082,5.142,25.0
54.368,1.527,3.454,60.0
124.309,3.486,7.174,9.0
122.643,3.433,6.365,36.0
62.569,1.76,4.961,67.0
55.821,1.567,4.099,89.0
54.216,1.518,3.664,5.0
54.632,1.527,3.369,8.0
126.076,3.518,7.04,8.0
122.554,3.414,6.132,45.0
61.54,1.721,4.763,49.0
55.814,1.557,3.994,53.0
54.219,1.51,3.563,46.0
122.308,3.399,7.311,11.0
123.028,3.412,6.637,22.0
122.66,3.394,5.904,24.0
63.779,1.772,4.815,7.0
62.222,1.724,4.334,22.0
54.31,1.501,3.465,72.0
126.17,3.48,7.301,19.0
122.67,3.376,6.383,41.0
151.691,4.165,7.01,13.0
55.837,1.538,4.107,70.0
54.152,1.487,3.666,7.0
54.499,1.493,3.372,28.0
125.944,3.443,7.045,7.0
122.699,3.346,6.152,33.0
151.761,4.128,6.725,33.0
55.831,1.523,4.0,92.0
54.162,1.473,3.564,44.0
122.148,3.314,7.324,20.0
122.99,3.327,6.645,21.0
122.556,3.307,5.909,45.0
152.042,4.091,6.445,31.0
55.791,1.504,3.889,61.0
54.292,1.459,3.467,75.0
122.324,3.279,7.099,19.0
122.739,3.28,6.394,35.0
130.092,3.466,6.02,14.0
152.052,4.04,6.153,41.0
0.0,0.0,0.0,0.0
54.387,1.443,3.368,85.0
122.224,3.233,6.857,21.0
122.458,3.228,6.144,40.0
130.113,3.419,5.77,18.0
152.057,3.982,5.859,41.0
54.114,1.419,3.562,53.0
54.774,1.432,3.286,29.0
123.037,3.205,6.662,32.0
122.653,3.183,5.915,36.0
152.22,3.937,6.454,32.0
152.31,3.926,5.571,41.0
54.312,1.401,3.468,83.0
55.44,1.424,3.217,19.0
123.007,3.15,6.421,30.0
130.131,3.319,6.02,12.0
152.122,3.865,6.151,33.0
152.784,3.867,5.292,18.0
54.382,1.377,3.367,95.0
55.438,1.398,3.109,13.0
122.418,3.075,6.152,38.0
152.763,3.823,6.771,18.0
152.436,3.799,5.869,35.0
158.815,3.942,5.191,15.0
54.704,1.357,3.28,103.0
122.999,3.04,6.657,23.0
122.698,3.019,5.925,23.0
130.648,3.2,5.535,29.0
152.566,3.721,5.577,34.0
158.731,3.855,4.879,20.0
55.312,1.342,3.208,59.0
122.618,2.962,6.396,19.0
127.572,3.067,5.912,9.0
130.423,3.121,5.271,9.0
152.751,3.638,5.286,30.0
159.639,3.784,4.595,4.0
55.405,1.312,3.106,52.0
122.682,2.891,6.163,37.0
130.182,3.052,5.78,29.0
152.545,3.558,5.869,35.0
158.998,3.691,5.192,23.0
162.458,3.752,4.36,5.0
55.425,1.278,2.998,32.0
127.166,2.917,6.14,14.0
130.536,2.978,5.541,16.0
152.613,3.462,5.576,33.0
159.05,3.59,4.888,23.0
170.036,3.817,4.236,4.0
122.902,2.753,6.412,40.0
127.621,2.842,5.915,25.0
152.455,3.375,6.177,22.0
152.799,3.363,5.287,16.0
159.6,3.494,4.597,18.0
128.139,2.788,2.946,6.0
125.654,2.728,6.315,21.0
127.751,2.756,5.677,30.0
152.396,3.268,5.887,34.0
128.105,2.73,4.191,28.0
128.152,2.713,3.447,33.0
128.121,2.695,2.701,17.0
127.984,2.683,6.184,10.0
127.845,2.663,5.435,28.0
128.059,2.649,4.698,57.0
128.008,2.63,3.939,53.0
128.04,2.614,3.196,53.0
106.361,2.156,2.037,5.0
127.808,2.58,5.929,23.0
127.917,2.563,5.188,32.0
127.989,2.547,4.448,49.0
128.002,2.528,3.692,46.0
128.028,2.51,2.95,37.0
127.947,2.491,2.205,5.0
128.062,2.481,5.695,14.0
128.001,2.46,4.947,28.0
128.014,2.441,4.204,28.0
128.064,2.423,3.448,28.0
128.07,2.404,2.704,27.0
126.801,2.361,1.942,11.0
130.492,2.417,5.555,7.0
128.108,2.352,4.707,14.0
128.095,2.332,3.961,11.0
128.159,2.313,3.207,13.0
128.089,2.293,2.463,23.0
126.171,2.238,1.693,15.0
174.25,3.071,7.084,19.0
132.835,2.321,4.63,33.0
159.971,2.768,4.645,17.0
0.0,0.0,0.0,0.0
127.691,2.168,2.212,28.0
89.779,1.51,1.034,5.0
161.432,2.696,6.259,14.0
133.002,2.198,4.383,26.0
159.832,2.617,4.34,8.0
190.032,3.079,4.037,26.0
126.761,2.033,1.958,37.0
78.071,1.239,0.753,13.0
132.68,2.088,4.894,11.0
162.576,2.53,5.053,23.0
176.143,2.713,4.454,14.0
189.827,2.891,3.68,27.0
126.269,1.903,1.717,18.0
77.59,1.155,0.604,11.0
132.848,1.959,4.656,34.0
163.238,2.378,4.772,14.0
190.091,2.737,4.456,22.0
127.897,1.819,2.244,19.0
94.396,1.326,1.108,4.0
48.164,0.668,0.286,11.0
55.058,0.755,1.827,86.0
55.118,0.746,1.509,12.0
0.0,0.0,0.0,0.0
126.837,1.671,1.99,31.0
48.183,0.626,0.477,4.0
48.054,0.615,0.197,72.0
55.032,0.696,1.725,113.0
55.046,0.686,1.407,76.0
55.078,0.676,1.088,61.0
48.149,0.582,0.668,54.0
48.084,0.572,0.388,75.0
47.934,0.561,0.108,60.0
55.028,0.635,1.625,14.0
48.178,0.547,1.144,58.0
48.139,0.537,0.863,82.0
48.09,0.527,0.579,99.0
48.053,0.517,0.3,85.0
0.0,0.0,0.0,0.0
48.157,0.5,1.335,96.0
48.127,0.491,1.055,103.0
48.099,0.481,0.776,103.0
48.066,0.471,0.492,94.0
48.025,0.461,0.213,88.0
0.0,0.0,0.0,0.0
48.127,0.444,1.247,113.0
48.109,0.434,0.968,110.0
48.09,0.424,0.689,110.0
48.036,0.414,0.406,106.0
47.996,0.404,0.128,77.0
39.283,0.323,-0.122,39.0
48.138,0.386,1.163,125.0
48.094,0.376,0.884,114.0
48.081,0.366,0.605,103.0
48.067,0.356,0.322,54.0
47.384,0.341,0.043,45.0
38.439,0.269,-0.186,35.0
48.127,0.327,1.079,105.0
48.121,0.317,0.8,72.0
48.152,0.306,0.522,50.0
48.193,0.296,0.239,36.0
44.68,0.265,-0.036,20.0
37.869,0.217,-0.249,6.0
48.188,0.266,0.996,56.0
59.298,0.314,0.883,33.0
59.302,0.302,0.541,129.0
54.733,0.266,0.177,53.0
40.251,0.187,-0.102,15.0
37.69,0.167,-0.313,5.0
79.429,0.335,1.507,33.0
79.422,0.318,1.048,150.0
76.634,0.29,0.569,55.0
47.938,0.171,0.073,22.0
39.032,0.13,-0.165,43.0
32.889,0.102,-0.329,1.0
79.458,0.23,1.374,163.0
79.468,0.212,0.915,151.0
75.767,0.185,0.435,10.0
0.0,0.0,0.0,0.0
38.497,0.076,-0.227,13.0
31.144,0.054,-0.364,1.0
79.458,0.121,1.24,152.0
79.45,0.103,0.782,150.0
0.0,0.0,0.0,0.0
43.833,0.037,-0.078,8.0
38.148,0.023,-0.289,3.0
29.914,0.011,-0.399,2.0
79.467,0.011,1.111,151.0
79.279,-0.006,0.651,21.0
55.394,-0.017,0.135,21.0
39.961,-0.022,-0.136,24.0
33.431,-0.026,-0.307,0.0
29.062,-0.03,-0.435,2.0
79.462,-0.101,0.982,151.0
76.225,-0.115,0.502,19.0
0.0,0.0,0.0,0.0
39.31,-0.078,-0.198,15.0
32.2,-0.071,-0.347,2.0
27.969,-0.069,-0.463,1.0
79.465,-0.216,0.855,151.0
61.544,-0.182,0.308,10.0
0.0,0.0,0.0,0.0
39.046,-0.135,-0.258,3.0
30.495,-0.113,-0.378,1.0
26.927,-0.106,-0.488,1.0
79.428,-0.333,0.73,150.0
56.051,-0.249,0.192,23.0
42.027,-0.197,-0.098,6.0
37.075,-0.183,-0.303,0.0
29.502,-0.153,-0.411,2.0
26.206,-0.143,-0.516,2.0
0.0,0.0,0.0,0.0
0.0,0.0,0.0,0.0
41.734,-0.259,-0.161,4.0
33.219,-0.214,-0.322,1.0
28.648,-0.192,-0.443,2.0
25.236,-0.175,-0.535,1.0
76.953,-0.556,0.472,10.0
47.615,-0.356,0.018,3.0
0.0,0.0,0.0,0.0
31.282,-0.25,-0.351,1.0
27.719,-0.229,-0.47,2.0
24.468,-0.208,-0.556,2.0
60.801,-0.533,0.283,9.0
50.574,-0.457,-0.054,5.0
38.424,-0.357,-0.262,0.0
30.304,-0.289,-0.384,2.0
26.767,-0.262,-0.493,1.0
23.622,-0.238,-0.571,2.0
58.012,-0.599,0.187,3.0
47.362,-0.502,-0.119,2.0
38.515,-0.418,-0.318,2.0
29.429,-0.327,-0.415,4.0
26.006,-0.296,-0.516,1.0
23.069,-0.269,-0.59,1.0
60.752,-0.724,0.109,7.0
44.515,-0.542,-0.175,3.0
33.145,-0.413,-0.32,1.0
28.548,-0.363,-0.443,2.0
25.25,-0.328,-0.536,2.0
22.351,-0.296,-0.603,1.0
57.932,-0.783,0.024,1.0
42.679,-0.589,-0.226,4.0
31.689,-0.446,-0.35,1.0
27.673,-0.397,-0.467,2.0
24.459,-0.358,-0.553,2.0
21.736,-0.324,-0.617,2.0
55.413,-0.84,-0.051,1.0
0.0,0.0,0.0,0.0
30.452,-0.478,-0.377,1.0
26.774,-0.428,-0.488,1.0
23.687,-0.385,-0.568,1.0
21.16,-0.35,-0.628,1.0
40.351,-0.678,-0.091,38.0
35.001,-0.598,-0.279,0.0
29.579,-0.514,-0.405,1.0
26.133,-0.461,-0.511,1.0
23.162,-0.416,-0.585,2.0
20.589,-0.375,-0.638,1.0
40.33,-0.746,-0.143,43.0
33.611,-0.631,-0.312,1.0
28.915,-0.551,-0.434,1.0
25.429,-0.492,-0.53,1.0
22.538,-0.443,-0.599,2.0
20.092,-0.401,-0.649,1.0
40.258,-0.813,-0.194,1.0
32.357,-0.663,-0.341,1.0
28.081,-0.583,-0.456,1.0
24.822,-0.523,-0.548,1.0
22.083,-0.472,-0.614,3.0
19.666,-0.426,-0.659,1.0
40.227,-0.881,-0.243,6.0
31.158,-0.691,-0.366,1.0
27.138,-0.61,-0.474,4.0
24.022,-0.547,-0.56,1.0
21.421,-0.495,-0.622,1.0
19.241,-0.45,-0.669,1.0
40.257,-0.952,-0.291,9.0
30.059,-0.719,-0.389,1.0
26.771,-0.649,-0.5,2.0
23.49,-0.576,-0.575,2.0
20.826,-0.518,-0.629,4.0
18.845,-0.474,-0.677,1.0
34.96,-0.888,-0.294,0.0
29.401,-0.756,-0.415,2.0
25.948,-0.674,-0.514,1.0
23.001,-0.605,-0.59,1.0
20.597,-0.548,-0.646,3.0
18.509,-0.498,-0.686,1.0
33.401,-0.907,-0.318,1.0
28.655,-0.786,-0.436,1.0
25.319,-0.703,-0.53,1.0
22.442,-0.63,-0.6,1.0
20.044,-0.569,-0.65,1.0
18.168,-0.521,-0.693,1.0
32.312,-0.934,-0.343,1.0
28.053,-0.82,-0.457,2.0
24.775,-0.732,-0.545,1.0
21.902,-0.654,-0.609,1.0
19.662,-0.593,-0.659,1.0
17.868,-0.544,-0.701,1.0
31.232,-0.959,-0.364,1.0
27.267,-0.846,-0.473,1.0
24.126,-0.756,-0.556,1.0
21.473,-0.679,-0.619,1.0
19.309,-0.617,-0.667,1.0
17.618,-0.568,-0.709,1.0
30.262,-0.984,-0.384,1.0
26.805,-0.88,-0.492,1.0
23.626,-0.783,-0.568,2.0
21.009,-0.703,-0.627,1.0
18.972,-0.641,-0.675,1.0
17.318,-0.591,-0.715,1.0
29.636,-1.018,-0.405,2.0
26.197,-0.908,-0.507,1.0
23.196,-0.811,-0.581,2.0
20.619,-0.728,-0.636,1.0
18.637,-0.664,-0.681,1.0
17.055,-0.613,-0.72,1.0
29.058,-1.051,-0.425,2.0
25.723,-0.939,-0.522,1.0
22.763,-0.838,-0.591,1.0
20.264,-0.752,-0.644,1.0
18.392,-0.689,-0.689,1.0
16.803,-0.635,-0.725,1.0
28.508,-1.083,-0.442,2.0
25.264,-0.968,-0.535,1.0
22.355,-0.864,-0.601,1.0
19.946,-0.777,-0.651,1.0
18.137,-0.713,-0.695,1.0
16.552,-0.656,-0.729,1.0
28.089,-1.119,-0.46,2.0
24.813,-0.997,-0.547,1.0
21.964,-0.889,-0.609,1.0
19.643,-0.802,-0.658,1.0
17.872,-0.735,-0.7,2.0
16.325,-0.677,-0.732,1.0
27.365,-1.141,-0.471,1.0
24.304,-1.021,-0.556,1.0
21.612,-0.915,-0.617,1.0
19.371,-0.827,-0.665,1.0
17.677,-0.76,-0.707,1.0
16.111,-0.698,-0.736,1.0
26.977,-1.175,-0.485,2.0
23.855,-1.047,-0.564,1.0
21.253,-0.939,-0.623,1.0
19.131,-0.852,-0.671,1.0
17.442,-0.782,-0.711,1.0
15.941,-0.72,-0.74,1.0
26.56,-1.205,-0.497,1.0
23.463,-1.072,-0.572,2.0
20.931,-0.963,-0.629,1.0
18.88,-0.875,-0.676,1.0
17.24,-0.805,-0.715,1.0
15.765,-0.742,-0.743,1.0
26.261,-1.24,-0.51,1.0
23.214,-1.104,-0.582,3.0
20.703,-0.991,-0.636,1.0
18.648,-0.899,-0.68,2.0
17.06,-0.828,-0.719,1.0
15.653,-0.765,-0.748,1.0
25.861,-1.269,-0.52,1.0
22.871,-1.13,-0.589,2.0
20.422,-1.016,-0.641,1.0
18.483,-0.926,-0.686,1.0
16.876,-0.851,-0.722,1.0
15.499,-0.787,-0.751,1.0
25.533,-1.3,-0.529,1.0
22.576,-1.157,-0.595,1.0
20.169,-1.04,-0.646,1.0
18.268,-0.949,-0.69,1.0
16.736,-0.875,-0.726,1.0
15.36,-0.808,-0.753,1.0
25.023,-1.321,-0.533,2.0
22.503,-1.195,-0.606,4.0
19.957,-1.067,-0.65,1.0
18.123,-0.975,-0.695,1.0
16.573,-0.897,-0.729,1.0
15.238,-0.83,-0.756,1.0
24.576,-1.343,-0.537,3.0
22.003,-1.21,-0.605,6.0
19.795,-1.095,-0.656,1.0
17.973,-1.001,-0.698,2.0
16.441,-0.921,-0.732,1.0
15.135,-0.853,-0.759,1.0
24.366,-1.377,-0.545,5.0
21.825,-1.241,-0.611,4.0
19.661,-1.124,-0.661,2.0
17.792,-1.024,-0.7,1.0
16.286,-0.943,-0.733,1.0
15.035,-0.876,-0.761,1.0
24.049,-1.404,-0.549,1.0
21.637,-1.271,-0.616,4.0
19.421,-1.147,-0.662,5.0
17.681,-1.05,-0.704,1.0
16.187,-0.967,-0.735,1.0
14.919,-0.897,-0.762,1.0
24.008,-1.446,-0.559,1.0
21.458,-1.3,-0.62,3.0
19.283,-1.175,-0.665,3.0
17.641,-1.08,-0.709,2.0
16.108,-0.992,-0.738,1.0
14.846,-0.92,-0.764,1.0
23.822,-1.479,-0.564,1.0
21.271,-1.328,-0.622,2.0
19.169,-1.203,-0.668,3.0
17.326,-1.093,-0.703,1.0
16.005,-1.015,-0.739,1.0
14.776,-0.943,-0.766,1.0
23.673,-1.513,-0.568,1.0
21.047,-1.352,-0.623,2.0
19.077,-1.232,-0.672,2.0
17.325,-1.125,-0.709,0.0
15.97,-1.043,-0.743,2.0
14.721,-0.966,-0.768,1.0
23.508,-1.545,-0.572,1.0
21.292,-1.407,-0.637,0.0
19.028,-1.264,-0.676,2.0
17.176,-1.147,-0.708,0.0
15.872,-1.065,-0.743,5.0
14.663,-0.989,-0.769,1.0
23.435,-1.583,-0.576,1.0
20.959,-1.423,-0.632,0.0
18.777,-1.281,-0.671,0.0
17.182,-1.178,-0.712,1.0
15.896,-1.096,-0.748,3.0
14.66,-1.016,-0.772,1.0
23.363,-1.621,-0.579,1.0
20.855,-1.454,-0.634,0.0
18.85,-1.321,-0.678,0.0
17.132,-1.206,-0.714,1.0
15.845,-1.121,-0.749,2.0
14.518,-1.033,-0.767,1.0
23.275,-1.657,-0.582,2.0
20.798,-1.488,-0.636,0.0
18.755,-1.348,-0.678,0.0
17.016,-1.229,-0.712,1.0
15.824,-1.148,-0.75,4.0
14.544,-1.061,-0.771,0.0
23.206,-1.694,-0.583,1.0
20.729,-1.52,-0.637,1.0
18.743,-1.381,-0.68,0.0
17.174,-1.271,-0.721,0.0
15.822,-1.177,-0.752,4.0
14.519,-1.085,-0.771,1.0
23.17,-1.733,-0.585,1.0
20.692,-1.554,-0.638,0.0
18.733,-1.413,-0.682,1.0
17.106,-1.297,-0.719,0.0
15.694,-1.195,-0.747,2.0
14.53,-1.111,-0.773,3.0
23.108,-1.769,-0.585,1.0
20.681,-1.59,-0.639,0.0
18.724,-1.446,-0.682,0.0
16.991,-1.318,-0.715,0.0
15.595,-1.215,-0.744,0.0
14.476,-1.133,-0.771,2.0
23.111,-1.809,-0.586,1.0
20.738,-1.631,-0.641,0.0
18.717,-1.478,-0.682,1.0
16.697,-1.324,-0.703,0.0
15.752,-1.255,-0.751,0.0
14.514,-1.161,-0.773,1.0
23.148,-1.852,-0.586,1.0
20.691,-1.662,-0.639,0.0
18.742,-1.512,-0.683,1.0
16.456,-1.333,-0.692,1.0
15.713,-1.279,-0.749,0.0
14.424,-1.179,-0.767,0.0
23.174,-1.894,-0.586,1.0
20.739,-1.702,-0.639,0.0
18.754,-1.545,-0.682,1.0
16.4,-1.357,-0.689,1.0
15.725,-1.306,-0.748,0.0
14.558,-1.215,-0.773,0.0
23.206,-1.937,-0.585,1.0
20.793,-1.742,-0.639,0.0
18.758,-1.578,-0.68,1.0
16.427,-1.387,-0.689,2.0
15.744,-1.335,-0.747,0.0
14.575,-1.241,-0.773,0.0
23.264,-1.98,-0.583,1.0
20.833,-1.78,-0.638,0.0
18.807,-1.613,-0.679,1.0
16.419,-1.414,-0.686,5.0
15.813,-1.367,-0.748,1.0
14.582,-1.266,-0.771,0.0
23.353,-2.027,-0.582,1.0
20.91,-1.822,-0.636,0.0
18.903,-1.653,-0.68,1.0
16.448,-1.444,-0.684,3.0
15.861,-1.398,-0.747,1.0
14.627,-1.294,-0.77,0.0
23.413,-2.071,-0.579,1.0
21.013,-1.866,-0.635,0.0
18.932,-1.687,-0.677,1.0
16.482,-1.474,-0.682,2.0
15.981,-1.435,-0.749,1.0
14.644,-1.319,-0.768,0.0
23.611,-2.127,-0.578,1.0
21.107,-1.908,-0.633,1.0
19.029,-1.726,-0.675,1.0
16.589,-1.51,-0.682,2.0
16.045,-1.466,-0.748,1.0
14.686,-1.347,-0.766,1.0
23.707,-2.173,-0.574,1.0
21.298,-1.959,-0.632,1.0
19.148,-1.767,-0.674,0.0
16.716,-1.548,-0.682,2.0
16.138,-1.5,-0.748,2.0
14.758,-1.377,-0.765,0.0
23.901,-2.229,-0.571,1.0
21.326,-1.996,-0.627,1.0
19.214,-1.804,-0.67,0.0
17.233,-1.623,-0.698,0.0
16.209,-1.532,-0.746,3.0
14.858,-1.409,-0.765,0.0
24.182,-2.293,-0.569,1.0
21.542,-2.049,-0.625,1.0
19.415,-1.853,-0.67,0.0
17.602,-1.685,-0.706,0.0
16.255,-1.561,-0.742,4.0
14.956,-1.441,-0.765,1.0
24.437,-2.354,-0.566,1.0
21.745,-2.101,-0.623,1.0
19.588,-1.899,-0.669,0.0
17.777,-1.729,-0.706,0.0
16.269,-1.587,-0.736,7.0
