X,Y,Z,Reflectivity
7.441,0.201,-0.929,0.0
9.125,0.244,-0.884,0.0
8.732,0.233,-0.896,0.0
8.246,0.219,-0.894,1.0
8.014,0.212,-0.916,0.0
7.675,0.202,-0.922,0.0
7.387,0.194,-0.931,0.0
9.056,0.235,-0.888,0.0
8.662,0.224,-0.899,0.0
8.202,0.211,-0.899,2.0
7.942,0.204,-0.917,0.0
7.634,0.195,-0.926,0.0
7.342,0.187,-0.933,0.0
8.987,0.226,-0.891,0.0
8.452,0.212,-0.887,0.0
8.185,0.204,-0.906,1.0
7.861,0.196,-0.916,0.0
7.564,0.187,-0.926,0.0
7.28,0.18,-0.933,0.0
8.921,0.217,-0.894,0.0
8.498,0.206,-0.901,0.0
8.16,0.197,-0.912,0.0
7.82,0.188,-0.92,0.0
7.517,0.18,-0.928,0.0
7.219,0.172,-0.933,0.0
8.848,0.208,-0.896,0.0
8.439,0.197,-0.903,0.0
8.105,0.189,-0.914,0.0
7.737,0.179,-0.918,0.0
7.47,0.172,-0.93,0.0
7.184,0.165,-0.936,0.0
8.766,0.198,-0.896,0.0
8.371,0.189,-0.904,0.0
8.056,0.181,-0.917,0.0
7.697,0.172,-0.921,0.0
7.428,0.165,-0.932,0.0
7.123,0.157,-0.935,0.0
8.699,0.189,-0.898,0.0
8.298,0.18,-0.904,0.0
7.966,0.171,-0.914,0.0
7.663,0.164,-0.924,0.0
7.337,0.156,-0.927,0.0
7.107,0.151,-0.94,0.0
8.616,0.18,-0.897,0.0
8.224,0.17,-0.904,0.0
7.927,0.163,-0.917,0.0
7.594,0.156,-0.923,0.0
7.288,0.148,-0.928,0.0
7.042,0.142,-0.937,0.0
8.536,0.17,-0.896,0.0
8.192,0.162,-0.907,0.0
7.875,0.155,-0.917,0.0
7.541,0.147,-0.923,0.0
7.264,0.141,-0.931,0.0
7.002,0.135,-0.938,0.0
8.483,0.161,-0.898,0.0
8.145,0.153,-0.909,0.0
7.829,0.147,-0.919,0.0
7.5,0.139,-0.924,0.0
7.252,0.134,-0.935,0.0
6.96,0.127,-0.938,0.0
8.447,0.152,-0.901,0.0
8.084,0.144,-0.908,0.0
7.775,0.138,-0.918,0.0
7.462,0.131,-0.925,0.0
7.21,0.126,-0.936,0.0
6.932,0.12,-0.94,0.0
8.389,0.143,-0.901,0.0
8.041,0.136,-0.91,0.0
7.747,0.13,-0.921,0.0
7.371,0.122,-0.919,0.0
7.147,0.117,-0.933,0.0
6.897,0.112,-0.94,0.0
8.343,0.134,-0.902,0.0
8.011,0.127,-0.912,0.0
7.7,0.121,-0.921,0.0
7.326,0.114,-0.919,1.0
7.118,0.11,-0.934,0.0
6.866,0.105,-0.941,0.0
8.317,0.125,-0.905,0.0
7.977,0.118,-0.913,0.0
7.653,0.112,-0.92,0.0
7.287,0.106,-0.919,1.0
7.108,0.102,-0.937,0.0
6.846,0.097,-0.942,0.0
8.268,0.115,-0.904,0.0
7.958,0.11,-0.916,0.0
7.634,0.104,-0.923,0.0
7.294,0.098,-0.924,1.0
7.055,0.094,-0.935,0.0
6.81,0.09,-0.941,0.0
8.231,0.106,-0.905,0.0
7.903,0.101,-0.914,0.0
7.6,0.096,-0.923,0.0
7.291,0.091,-0.928,1.0
7.064,0.087,-0.94,0.0
6.758,0.082,-0.938,0.0
8.212,0.097,-0.907,0.0
7.886,0.092,-0.916,0.0
7.581,0.087,-0.924,0.0
7.281,0.083,-0.93,0.0
7.034,0.079,-0.939,0.0
6.761,0.075,-0.942,0.0
8.162,0.088,-0.906,0.0
7.854,0.083,-0.917,0.0
7.527,0.078,-0.921,0.0
7.277,0.075,-0.933,0.0
6.983,0.07,-0.936,0.0
6.722,0.067,-0.939,0.0
8.14,0.079,-0.907,0.0
7.841,0.074,-0.919,0.0
7.533,0.07,-0.926,0.0
7.257,0.067,-0.934,0.0
6.992,0.063,-0.94,0.0
6.721,0.059,-0.942,0.0
8.125,0.07,-0.909,0.0
7.818,0.066,-0.919,0.0
7.513,0.062,-0.926,0.0
7.224,0.058,-0.932,0.0
6.973,0.055,-0.94,0.0
6.706,0.052,-0.943,0.0
8.102,0.061,-0.909,0.0
7.789,0.057,-0.918,0.0
7.49,0.054,-0.926,0.0
7.212,0.05,-0.933,0.0
6.949,0.047,-0.939,0.0
6.684,0.044,-0.942,0.0
8.085,0.052,-0.91,0.0
7.795,0.048,-0.921,0.0
7.461,0.045,-0.924,0.0
7.194,0.042,-0.933,0.0
6.95,0.039,-0.941,0.0
6.678,0.037,-0.943,0.0
8.073,0.042,-0.911,0.0
7.778,0.04,-0.921,0.0
7.455,0.037,-0.926,0.0
7.189,0.034,-0.934,0.0
6.912,0.031,-0.938,0.0
6.66,0.029,-0.942,0.0
8.077,0.033,-0.913,0.0
7.77,0.031,-0.922,0.0
7.439,0.028,-0.925,0.0
7.17,0.026,-0.933,0.0
6.9,0.023,-0.937,0.0
6.659,0.021,-0.943,0.0
8.046,0.024,-0.911,0.0
7.747,0.022,-0.921,0.0
7.456,0.02,-0.928,0.0
7.157,0.018,-0.933,0.0
6.913,0.016,-0.94,0.0
6.653,0.014,-0.943,0.0
8.033,0.015,-0.91,0.0
7.742,0.013,-0.921,0.0
7.448,0.011,-0.928,0.0
7.18,0.009,-0.936,0.0
6.922,0.008,-0.942,0.0
6.646,0.006,-0.942,0.0
8.04,0.006,-0.912,0.0
7.748,0.004,-0.922,0.0
7.439,0.003,-0.928,0.0
7.153,0.001,-0.933,0.0
6.908,0.0,-0.94,0.0
6.657,0.0,-0.944,0.0
8.037,-0.002,-0.912,0.0
7.737,-0.003,-0.921,0.0
7.429,-0.005,-0.926,0.0
7.156,-0.006,-0.934,0.0
6.909,-0.007,-0.941,0.0
6.657,-0.008,-0.944,0.0
8.036,-0.011,-0.911,0.0
7.758,-0.012,-0.923,0.0
7.432,-0.013,-0.927,0.0
7.156,-0.014,-0.933,0.0
6.917,-0.015,-0.941,0.0
6.659,-0.016,-0.944,0.0
8.04,-0.02,-0.911,0.0
7.744,-0.021,-0.921,0.0
7.423,-0.021,-0.925,0.0
7.178,-0.022,-0.936,0.0
6.93,-0.023,-0.943,0.0
6.655,-0.023,-0.943,0.0
8.064,-0.029,-0.913,0.0
7.747,-0.03,-0.921,0.0
7.428,-0.03,-0.925,0.0
7.167,-0.03,-0.933,0.0
6.934,-0.031,-0.942,0.0
6.664,-0.031,-0.943,0.0
8.053,-0.039,-0.911,0.0
7.744,-0.038,-0.919,0.0
7.453,-0.038,-0.927,0.0
7.188,-0.038,-0.935,0.0
6.951,-0.039,-0.943,0.0
6.681,-0.038,-0.944,0.0
8.067,-0.048,-0.911,0.0
7.765,-0.047,-0.92,0.0
7.475,-0.047,-0.928,0.0
7.187,-0.047,-0.933,0.0
6.931,-0.046,-0.939,0.0
6.696,-0.046,-0.945,0.0
8.073,-0.057,-0.909,0.0
7.779,-0.056,-0.92,0.0
7.48,-0.055,-0.926,0.0
7.193,-0.055,-0.932,0.0
6.941,-0.054,-0.938,0.0
6.686,-0.053,-0.942,0.0
8.097,-0.066,-0.91,0.0
7.796,-0.065,-0.92,0.0
7.495,-0.064,-0.926,0.0
7.207,-0.063,-0.931,0.0
6.981,-0.062,-0.941,0.0
6.701,-0.061,-0.941,0.0
8.128,-0.075,-0.911,0.0
7.816,-0.074,-0.919,0.0
7.511,-0.072,-0.925,0.0
7.248,-0.071,-0.934,0.0
6.977,-0.07,-0.938,0.0
6.734,-0.069,-0.944,0.0
8.142,-0.084,-0.909,0.0
7.834,-0.083,-0.918,0.0
7.549,-0.081,-0.927,0.0
7.259,-0.079,-0.933,0.0
7.01,-0.078,-0.94,0.0
6.742,-0.076,-0.942,0.0
8.164,-0.093,-0.908,0.0
7.883,-0.092,-0.921,0.0
7.562,-0.089,-0.925,0.0
7.281,-0.087,-0.932,0.0
7.038,-0.086,-0.94,0.0
6.777,-0.084,-0.944,0.0
8.202,-0.102,-0.908,0.0
7.907,-0.1,-0.92,0.0
7.594,-0.098,-0.925,0.0
7.307,-0.096,-0.932,0.0
7.045,-0.094,-0.938,0.0
6.797,-0.092,-0.943,0.0
8.218,-0.111,-0.906,0.0
7.922,-0.109,-0.917,0.0
7.62,-0.106,-0.924,0.0
7.338,-0.104,-0.932,0.0
7.071,-0.101,-0.937,0.0
6.84,-0.1,-0.945,0.0
8.256,-0.121,-0.906,0.0
7.942,-0.118,-0.915,0.0
7.651,-0.115,-0.924,0.0
7.361,-0.112,-0.93,0.0
7.107,-0.109,-0.938,0.0
6.853,-0.107,-0.943,0.0
8.293,-0.13,-0.905,0.0
7.974,-0.126,-0.914,0.0
7.684,-0.123,-0.923,0.0
7.398,-0.12,-0.93,0.0
7.126,-0.117,-0.936,0.0
6.876,-0.114,-0.941,0.0
8.331,-0.139,-0.903,0.0
8.015,-0.135,-0.913,0.0
7.723,-0.132,-0.923,0.0
7.426,-0.128,-0.929,0.0
7.173,-0.125,-0.937,0.0
6.922,-0.122,-0.943,0.0
8.382,-0.148,-0.903,0.0
8.057,-0.144,-0.912,0.0
7.754,-0.14,-0.921,0.0
7.458,-0.136,-0.928,0.0
7.193,-0.133,-0.934,0.0
6.957,-0.13,-0.942,0.0
8.405,-0.157,-0.899,0.0
8.097,-0.153,-0.911,0.0
7.817,-0.149,-0.922,0.0
7.502,-0.144,-0.927,0.0
7.256,-0.141,-0.937,0.0
6.977,-0.137,-0.94,0.0
8.474,-0.166,-0.9,0.0
8.138,-0.161,-0.909,0.0
7.84,-0.157,-0.919,0.0
7.54,-0.152,-0.926,0.0
7.283,-0.149,-0.935,0.0
7.024,-0.145,-0.94,0.0
8.523,-0.175,-0.899,0.0
8.193,-0.17,-0.909,0.0
7.891,-0.166,-0.918,0.0
7.578,-0.16,-0.924,0.0
7.341,-0.157,-0.936,0.0
7.049,-0.152,-0.937,0.0
8.582,-0.185,-0.897,0.0
8.246,-0.179,-0.907,0.0
7.93,-0.174,-0.916,0.0
7.632,-0.169,-0.924,0.0
7.355,-0.164,-0.931,0.0
7.092,-0.159,-0.937,0.0
8.642,-0.194,-0.896,0.0
8.29,-0.188,-0.905,0.0
7.977,-0.182,-0.914,0.0
7.67,-0.176,-0.922,0.0
7.412,-0.172,-0.931,0.0
7.14,-0.167,-0.936,0.0
8.706,-0.203,-0.894,0.0
8.345,-0.196,-0.903,0.0
8.043,-0.191,-0.914,0.0
7.749,-0.185,-0.924,0.0
7.471,-0.18,-0.931,0.0
7.189,-0.174,-0.936,0.0
8.785,-0.213,-0.894,0.0
8.427,-0.205,-0.903,0.0
8.099,-0.199,-0.912,0.0
7.808,-0.193,-0.923,0.0
7.515,-0.187,-0.929,0.0
7.237,-0.182,-0.934,0.0
8.877,-0.222,-0.894,0.0
8.477,-0.214,-0.9,0.0
8.148,-0.207,-0.909,0.0
7.867,-0.201,-0.922,0.0
7.577,-0.195,-0.929,0.0
7.309,-0.19,-0.936,0.0
8.944,-0.232,-0.892,0.0
8.551,-0.223,-0.899,0.0
8.213,-0.215,-0.908,0.0
7.93,-0.209,-0.92,0.0
7.639,-0.203,-0.928,0.0
7.366,-0.197,-0.935,0.0
9.025,-0.241,-0.89,0.0
8.639,-0.232,-0.898,0.0
8.288,-0.224,-0.907,0.0
7.976,-0.217,-0.917,0.0
7.696,-0.211,-0.926,0.0
7.41,-0.204,-0.932,0.0
9.127,-0.251,-0.889,0.0
8.724,-0.241,-0.897,0.0
8.37,-0.233,-0.906,0.0
8.028,-0.224,-0.913,0.0
7.769,-0.219,-0.926,0.0
7.477,-0.212,-0.932,0.0
9.202,-0.26,-0.886,0.0
8.824,-0.25,-0.897,0.0
8.44,-0.241,-0.904,0.0
8.1,-0.232,-0.912,0.0
7.828,-0.226,-0.924,0.0
7.534,-0.219,-0.93,0.0
9.335,-0.27,-0.888,0.0
8.909,-0.259,-0.895,0.0
8.527,-0.249,-0.903,0.0
8.176,-0.24,-0.91,0.0
7.876,-0.233,-0.92,0.0
7.594,-0.226,-0.928,0.0
9.428,-0.279,-0.885,0.0
8.993,-0.268,-0.892,0.0
8.6,-0.257,-0.899,0.0
8.254,-0.248,-0.909,0.0
7.948,-0.24,-0.918,0.0
7.679,-0.233,-0.928,0.0
9.525,-0.289,-0.882,0.0
9.113,-0.277,-0.893,0.0
8.688,-0.266,-0.898,0.0
8.32,-0.256,-0.905,0.0
8.031,-0.248,-0.917,0.0
7.746,-0.24,-0.926,0.0
9.648,-0.298,-0.881,0.0
9.19,-0.286,-0.888,0.0
8.781,-0.274,-0.895,0.0
8.437,-0.265,-0.906,0.0
8.098,-0.255,-0.914,0.0
7.816,-0.247,-0.924,0.0
9.773,-0.308,-0.879,1.0
9.327,-0.296,-0.889,0.0
8.894,-0.283,-0.895,0.0
8.512,-0.272,-0.903,0.0
8.188,-0.263,-0.913,0.0
7.901,-0.255,-0.923,0.0
9.847,-0.316,-0.872,2.0
9.429,-0.304,-0.885,0.0
9.004,-0.292,-0.894,0.0
8.605,-0.28,-0.901,0.0
8.274,-0.27,-0.911,0.0
7.962,-0.261,-0.919,0.0
9.956,-0.325,-0.868,1.0
9.544,-0.313,-0.883,0.0
9.103,-0.3,-0.89,0.0
8.684,-0.287,-0.897,0.0
8.384,-0.278,-0.911,0.0
8.054,-0.268,-0.918,0.0
10.114,-0.335,-0.867,0.0
9.678,-0.322,-0.881,0.0
9.234,-0.309,-0.89,0.0
8.816,-0.296,-0.898,0.0
8.468,-0.285,-0.908,0.0
8.142,-0.275,-0.916,0.0
10.281,-0.346,-0.867,0.0
9.781,-0.33,-0.876,2.0
9.335,-0.316,-0.886,0.0
8.921,-0.303,-0.895,0.0
8.551,-0.292,-0.904,0.0
8.214,-0.281,-0.912,0.0
10.441,-0.356,-0.865,0.0
9.875,-0.338,-0.87,1.0
9.474,-0.325,-0.885,0.0
9.059,-0.312,-0.895,0.0
8.654,-0.299,-0.902,0.0
8.315,-0.288,-0.911,0.0
10.585,-0.365,-0.861,0.0
10.054,-0.348,-0.871,0.0
9.599,-0.333,-0.882,0.0
9.172,-0.319,-0.893,0.0
8.774,-0.306,-0.901,0.0
8.413,-0.295,-0.908,0.0
10.761,-0.375,-0.858,0.0
10.218,-0.357,-0.869,0.0
9.748,-0.342,-0.881,1.0
9.295,-0.327,-0.89,0.0
8.895,-0.314,-0.899,0.0
8.512,-0.301,-0.905,0.0
10.925,-0.385,-0.854,0.0
10.392,-0.367,-0.867,0.0
9.843,-0.349,-0.874,1.0
9.425,-0.335,-0.887,0.0
9.007,-0.321,-0.896,0.0
8.619,-0.308,-0.903,0.0
11.092,-0.394,-0.85,0.0
10.544,-0.376,-0.863,0.0
10.001,-0.357,-0.872,0.0
9.542,-0.342,-0.883,0.0
9.132,-0.328,-0.894,0.0
8.732,-0.314,-0.901,0.0
11.297,-0.405,-0.847,0.0
10.701,-0.384,-0.859,0.0
10.161,-0.365,-0.869,0.0
9.738,-0.351,-0.885,1.0
9.273,-0.335,-0.892,0.0
8.864,-0.321,-0.9,0.0
11.476,-0.414,-0.842,0.0
10.887,-0.393,-0.856,0.0
10.348,-0.374,-0.868,0.0
9.791,-0.355,-0.874,2.0
9.416,-0.342,-0.89,0.0
8.977,-0.327,-0.896,0.0
11.688,-0.424,-0.838,0.0
11.075,-0.402,-0.852,0.0
10.541,-0.383,-0.866,0.0
9.967,-0.363,-0.873,1.0
9.558,-0.349,-0.887,0.0
9.121,-0.334,-0.895,0.0
11.881,-0.433,-0.832,0.0
11.264,-0.411,-0.848,0.0
10.692,-0.39,-0.861,0.0
10.148,-0.371,-0.871,0.0
9.722,-0.356,-0.886,0.0
9.262,-0.34,-0.893,0.0
12.125,-0.443,-0.828,0.0
11.478,-0.42,-0.844,0.0
10.891,-0.399,-0.858,0.0
10.339,-0.379,-0.87,0.0
9.8,-0.36,-0.876,2.0
9.408,-0.346,-0.891,0.0
12.368,-0.453,-0.823,0.0
11.691,-0.429,-0.839,0.0
11.073,-0.406,-0.853,0.0
10.53,-0.387,-0.868,0.0
9.959,-0.366,-0.873,1.0
9.526,-0.351,-0.885,0.0
12.586,-0.461,-0.816,0.0
11.889,-0.436,-0.833,1.0
11.268,-0.414,-0.849,0.0
10.677,-0.393,-0.861,0.0
10.153,-0.374,-0.872,0.0
9.719,-0.358,-0.886,1.0
12.855,-0.472,-0.811,0.0
12.15,-0.446,-0.83,0.0
11.475,-0.421,-0.844,0.0
10.886,-0.4,-0.859,0.0
10.353,-0.381,-0.871,0.0
9.816,-0.361,-0.877,2.0
13.151,-0.482,-0.806,1.0
12.364,-0.453,-0.823,0.0
11.694,-0.429,-0.839,0.0
11.079,-0.407,-0.854,0.0
10.534,-0.387,-0.867,0.0
9.977,-0.367,-0.874,1.0
13.419,-0.491,-0.799,1.0
12.621,-0.462,-0.817,1.0
11.918,-0.436,-0.834,0.0
11.298,-0.414,-0.851,0.0
10.724,-0.393,-0.864,0.0
10.17,-0.373,-0.872,0.0
13.711,-0.5,-0.792,1.0
12.902,-0.471,-0.812,0.0
12.174,-0.444,-0.83,0.0
11.508,-0.42,-0.846,0.0
10.932,-0.399,-0.861,0.0
10.386,-0.379,-0.872,0.0
14.014,-0.509,-0.784,1.0
13.199,-0.479,-0.807,1.0
12.421,-0.451,-0.824,0.0
11.737,-0.426,-0.841,0.0
11.112,-0.404,-0.855,0.0
10.572,-0.384,-0.868,0.0
14.352,-0.519,-0.777,1.0
13.471,-0.487,-0.799,1.0
12.674,-0.458,-0.818,0.0
11.967,-0.432,-0.836,0.0
11.328,-0.409,-0.85,0.0
10.756,-0.388,-0.864,0.0
14.726,-0.529,-0.77,1.0
13.764,-0.494,-0.791,1.0
12.944,-0.464,-0.812,0.0
12.216,-0.438,-0.831,1.0
11.532,-0.413,-0.844,0.0
10.967,-0.393,-0.86,0.0
15.123,-0.539,-0.763,1.0
14.085,-0.502,-0.784,1.0
13.242,-0.471,-0.806,1.0
12.454,-0.443,-0.824,0.0
11.778,-0.419,-0.84,0.0
11.162,-0.396,-0.855,0.0
15.51,-0.548,-0.754,1.0
14.457,-0.511,-0.778,1.0
13.542,-0.478,-0.799,1.0
12.731,-0.449,-0.819,1.0
12.023,-0.423,-0.836,1.0
11.386,-0.401,-0.851,0.0
15.943,-0.558,-0.745,1.0
14.815,-0.518,-0.769,1.0
13.85,-0.483,-0.791,1.0
13.017,-0.454,-0.813,1.0
12.259,-0.427,-0.829,0.0
11.61,-0.404,-0.846,0.0
16.41,-0.568,-0.737,1.0
15.208,-0.526,-0.762,1.0
14.169,-0.489,-0.783,1.0
13.309,-0.459,-0.806,1.0
12.52,-0.431,-0.823,0.0
11.831,-0.406,-0.84,0.0
16.936,-0.579,-0.729,1.0
15.623,-0.533,-0.753,1.0
14.543,-0.495,-0.776,1.0
13.598,-0.463,-0.798,1.0
12.82,-0.435,-0.819,1.0
12.08,-0.409,-0.834,0.0
17.472,-0.589,-0.719,1.0
16.065,-0.541,-0.744,1.0
14.927,-0.501,-0.769,1.0
13.904,-0.466,-0.79,1.0
13.108,-0.438,-0.812,1.0
12.342,-0.412,-0.829,0.0
17.986,-0.597,-0.706,1.0
16.572,-0.549,-0.737,1.0
15.35,-0.508,-0.762,1.0
14.259,-0.47,-0.783,1.0
13.411,-0.441,-0.806,1.0
12.613,-0.414,-0.824,0.0
18.525,-0.605,-0.693,1.0
17.091,-0.557,-0.727,1.0
15.754,-0.512,-0.752,1.0
14.655,-0.475,-0.777,1.0
13.697,-0.443,-0.798,1.0
12.89,-0.416,-0.817,0.0
19.115,-0.613,-0.679,1.0
17.621,-0.564,-0.717,1.0
16.185,-0.516,-0.743,1.0
15.033,-0.478,-0.769,1.0
13.987,-0.444,-0.788,1.0
13.184,-0.417,-0.811,1.0
19.782,-0.622,-0.666,1.0
18.132,-0.569,-0.704,1.0
16.704,-0.522,-0.735,0.0
15.413,-0.48,-0.76,1.0
14.382,-0.447,-0.783,1.0
13.483,-0.418,-0.804,1.0
20.476,-0.63,-0.651,1.0
18.674,-0.573,-0.69,1.0
17.24,-0.527,-0.726,1.0
15.838,-0.483,-0.751,1.0
14.746,-0.448,-0.775,1.0
13.794,-0.417,-0.797,1.0
21.262,-0.64,-0.635,1.0
19.342,-0.58,-0.678,1.0
17.761,-0.53,-0.715,1.0
16.295,-0.485,-0.742,1.0
15.145,-0.449,-0.768,1.0
14.102,-0.416,-0.788,1.0
22.05,-0.647,-0.618,1.0
19.97,-0.583,-0.663,1.0
18.287,-0.532,-0.702,1.0
16.83,-0.488,-0.735,0.0
15.529,-0.448,-0.758,1.0
14.493,-0.416,-0.783,1.0
22.971,-0.656,-0.601,1.0
20.686,-0.588,-0.648,2.0
18.845,-0.533,-0.688,1.0
17.337,-0.489,-0.725,1.0
15.968,-0.448,-0.75,1.0
14.876,-0.415,-0.776,1.0
23.848,-0.661,-0.579,1.0
21.367,-0.59,-0.63,1.0
19.491,-0.535,-0.676,1.0
17.834,-0.488,-0.712,1.0
16.436,-0.447,-0.742,0.0
15.236,-0.412,-0.767,1.0
24.888,-0.669,-0.559,1.0
22.268,-0.595,-0.615,1.0
20.184,-0.537,-0.662,1.0
18.397,-0.486,-0.701,1.0
16.942,-0.445,-0.733,1.0
15.629,-0.409,-0.757,1.0
25.863,-0.672,-0.533,1.0
23.2,-0.599,-0.598,2.0
20.809,-0.534,-0.644,4.0
18.974,-0.484,-0.688,1.0
17.488,-0.444,-0.725,1.0
16.071,-0.405,-0.749,1.0
27.117,-0.679,-0.509,3.0
24.03,-0.598,-0.576,1.0
21.621,-0.535,-0.63,1.0
19.629,-0.482,-0.676,1.0
17.989,-0.439,-0.712,1.0
16.567,-0.402,-0.742,1.0
27.605,-0.664,-0.468,5.0
25.113,-0.6,-0.556,1.0
22.575,-0.536,-0.616,1.0
20.265,-0.478,-0.661,1.0
18.506,-0.433,-0.699,1.0
17.048,-0.396,-0.733,1.0
29.222,-0.674,-0.442,1.0
26.106,-0.598,-0.53,1.0
23.337,-0.53,-0.595,1.0
20.99,-0.473,-0.646,1.0
19.107,-0.427,-0.687,1.0
17.557,-0.39,-0.723,1.0
30.338,-0.668,-0.404,1.0
27.092,-0.591,-0.501,1.0
24.255,-0.525,-0.575,1.0
21.803,-0.468,-0.632,2.0
19.706,-0.42,-0.674,1.0
18.065,-0.382,-0.711,1.0
32.038,-0.67,-0.369,1.0
28.295,-0.587,-0.473,1.0
25.228,-0.518,-0.553,1.0
22.535,-0.459,-0.613,4.0
20.349,-0.411,-0.659,1.0
18.589,-0.372,-0.699,1.0
33.751,-0.669,-0.329,1.0
29.374,-0.576,-0.439,2.0
26.241,-0.51,-0.528,1.0
23.443,-0.451,-0.596,2.0
21.051,-0.401,-0.645,1.0
19.214,-0.362,-0.689,1.0
40.153,-0.749,-0.321,2.0
30.385,-0.561,-0.401,1.0
27.215,-0.497,-0.5,1.0
24.329,-0.439,-0.576,1.0
21.816,-0.39,-0.63,1.0
19.779,-0.349,-0.674,1.0
40.223,-0.702,-0.251,18.0
32.111,-0.554,-0.368,1.0
28.373,-0.484,-0.472,1.0
25.28,-0.426,-0.555,1.0
22.742,-0.378,-0.617,1.0
20.384,-0.335,-0.659,1.0
46.253,-0.751,-0.209,1.0
34.256,-0.549,-0.333,1.0
29.399,-0.465,-0.439,1.0
26.278,-0.41,-0.531,1.0
23.49,-0.362,-0.597,1.0
21.143,-0.321,-0.648,1.0
50.87,-0.762,-0.143,2.0
37.007,-0.546,-0.296,0.0
30.347,-0.441,-0.401,1.0
27.182,-0.389,-0.503,1.0
24.289,-0.343,-0.576,2.0
21.889,-0.304,-0.633,1.0
53.238,-0.729,-0.059,0.0
42.202,-0.568,-0.267,3.0
32.104,-0.425,-0.37,1.0
28.226,-0.368,-0.476,1.0
25.264,-0.323,-0.557,2.0
22.669,-0.285,-0.618,1.0
60.737,-0.751,0.033,8.0
45.275,-0.55,-0.211,3.0
34.05,-0.406,-0.336,1.0
29.335,-0.343,-0.445,3.0
26.175,-0.3,-0.534,1.0
23.43,-0.263,-0.6,1.0
60.405,-0.665,0.133,6.0
50.835,-0.548,-0.152,2.0
38.505,-0.406,-0.316,12.0
30.424,-0.313,-0.411,2.0
27.034,-0.272,-0.507,1.0
24.207,-0.238,-0.58,1.0
61.277,-0.59,0.235,2.0
53.223,-0.5,-0.073,3.0
42.149,-0.386,-0.278,3.0
31.575,-0.282,-0.377,1.0
28.11,-0.244,-0.482,2.0
25.053,-0.212,-0.561,1.0
77.092,-0.634,0.418,12.0
48.79,-0.389,0.01,2.0
43.926,-0.339,-0.219,4.0
33.398,-0.25,-0.345,1.0
29.128,-0.211,-0.453,2.0
26.114,-0.183,-0.543,2.0
0.0,0.0,0.0,0.0
56.123,-0.366,0.1,5.0
42.016,-0.264,-0.144,5.0
39.48,-0.238,-0.346,0.0
30.097,-0.174,-0.421,2.0
26.831,-0.148,-0.516,2.0
79.461,-0.42,0.683,154.0
61.345,-0.309,0.206,16.0
45.684,-0.218,-0.085,20.0
39.316,-0.178,-0.283,3.0
31.152,-0.133,-0.387,1.0
27.802,-0.112,-0.491,1.0
79.463,-0.301,0.805,151.0
76.433,-0.269,0.374,10.0
46.204,-0.151,-0.015,8.0
39.568,-0.12,-0.225,15.0
32.546,-0.09,-0.356,2.0
28.847,-0.072,-0.467,2.0
79.471,-0.18,0.924,151.0
76.552,-0.154,0.488,15.0
54.232,-0.095,0.061,4.0
40.167,-0.06,-0.169,29.0
37.095,-0.045,-0.351,0.0
29.652,-0.028,-0.436,2.0
79.463,-0.056,1.043,151.0
79.362,-0.035,0.624,59.0
55.859,-0.01,0.145,29.0
43.842,0.003,-0.12,8.0
38.29,0.013,-0.306,5.0
30.545,0.018,-0.405,1.0
79.464,0.068,1.158,151.0
79.46,0.089,0.74,150.0
61.904,0.086,0.251,8.0
0.0,0.0,0.0,0.0
38.585,0.074,-0.253,14.0
31.856,0.07,-0.377,1.0
79.453,0.197,1.272,160.0
79.466,0.218,0.854,151.0
75.891,0.228,0.415,15.0
47.589,0.156,0.005,22.0
39.024,0.139,-0.201,40.0
33.3,0.128,-0.346,1.0
79.414,0.326,1.383,26.0
59.308,0.26,0.72,101.0
59.31,0.276,0.407,100.0
54.654,0.27,0.082,28.0
39.646,0.207,-0.149,31.0
37.718,0.207,-0.341,1.0
48.161,0.278,0.905,74.0
48.154,0.291,0.65,53.0
48.153,0.304,0.396,53.0
48.12,0.317,0.137,51.0
44.002,0.302,-0.107,11.0
37.669,0.269,-0.29,6.0
48.111,0.358,0.968,114.0
48.095,0.371,0.713,113.0
48.065,0.384,0.459,101.0
48.028,0.397,0.2,99.0
0.0,0.0,0.0,0.0
38.0,0.335,-0.243,21.0
48.119,0.439,1.031,111.0
48.104,0.452,0.776,107.0
48.08,0.466,0.521,101.0
48.036,0.479,0.262,100.0
47.531,0.488,0.007,48.0
38.436,0.405,-0.197,48.0
48.17,0.523,1.094,81.0
48.146,0.537,0.839,70.0
48.116,0.55,0.583,83.0
48.07,0.563,0.322,73.0
47.968,0.576,0.068,61.0
39.147,0.481,-0.151,40.0
55.083,0.695,1.32,49.0
0.0,0.0,0.0,0.0
126.421,1.667,1.689,25.0
77.949,1.05,0.62,50.0
48.049,0.661,0.126,54.0
44.022,0.618,-0.117,5.0
176.373,2.534,4.442,22.0
190.081,2.785,3.776,34.0
126.789,1.894,1.845,39.0
78.272,1.191,0.714,7.0
0.0,0.0,0.0,0.0
0.0,0.0,0.0,0.0
159.886,2.576,4.212,12.0
190.167,3.119,3.997,22.0
127.213,2.123,1.997,34.0
89.69,1.523,0.922,9.0
61.401,1.06,0.304,27.0
47.056,0.826,-0.017,29.0
128.179,2.295,3.524,10.0
128.117,2.332,2.84,22.0
127.799,2.362,2.151,31.0
92.646,1.739,1.056,4.0
74.856,1.427,0.454,15.0
47.997,0.929,0.035,21.0
128.014,2.522,3.661,49.0
128.023,2.56,2.979,47.0
106.279,2.156,1.905,6.0
120.992,2.491,1.511,3.0
74.997,1.566,0.536,14.0
52.164,1.105,0.095,8.0
159.306,3.432,4.729,15.0
170.49,3.722,4.15,4.0
106.226,2.351,2.018,3.0
106.141,2.381,1.439,6.0
77.903,1.77,0.639,37.0
54.689,1.259,0.157,10.0
158.701,3.713,4.879,19.0
146.506,3.472,3.72,26.0
0.0,0.0,0.0,0.0
106.091,2.575,1.547,6.0
78.208,1.921,0.721,21.0
58.84,1.463,0.228,33.0
158.799,4.007,5.041,16.0
138.053,3.525,3.643,12.0
0.0,0.0,0.0,0.0
0.0,0.0,0.0,0.0
78.568,2.077,0.802,8.0
60.47,1.617,0.293,34.0
152.757,4.144,5.0,40.0
154.036,4.222,4.214,41.0
0.0,0.0,0.0,0.0
0.0,0.0,0.0,0.0
89.451,2.532,0.997,3.0
74.22,2.123,0.43,10.0
152.336,4.417,5.127,20.0
154.176,4.515,4.36,34.0
0.0,0.0,0.0,0.0
0.0,0.0,0.0,0.0
95.285,2.876,1.149,2.0
74.379,2.267,0.497,14.0
152.402,4.707,5.267,35.0
158.482,4.941,4.624,14.0
0.0,0.0,0.0,0.0
0.0,0.0,0.0,0.0
100.676,3.229,1.302,4.0
77.606,2.512,0.585,10.0
153.008,5.015,5.42,19.0
158.945,5.255,4.772,6.0
0.0,0.0,0.0,0.0
0.0,0.0,0.0,0.0
100.923,3.428,1.388,1.0
77.883,2.669,0.651,44.0
152.813,5.299,5.539,37.0
158.835,5.556,4.9,5.0
0.0,0.0,0.0,0.0
0.0,0.0,0.0,0.0
100.959,3.622,1.469,1.0
78.07,2.824,0.715,29.0
152.692,5.588,5.654,30.0
160.105,5.907,5.064,11.0
160.289,5.961,4.203,12.0
0.0,0.0,0.0,0.0
0.0,0.0,0.0,0.0
78.736,3.0,0.78,20.0
152.83,5.888,5.775,12.0
158.39,6.15,5.128,5.0
158.463,6.198,4.271,6.0
0.0,0.0,0.0,0.0
0.0,0.0,0.0,0.0
79.592,3.184,0.844,8.0
157.985,6.39,6.082,9.0
173.096,7.053,5.725,6.0
158.445,6.502,4.381,9.0
0.0,0.0,0.0,0.0
0.0,0.0,0.0,0.0
93.29,3.913,1.053,4.0
124.356,5.272,4.872,19.0
156.634,6.685,5.284,17.0
157.146,6.752,4.448,6.0
0.0,0.0,0.0,0.0
0.0,0.0,0.0,0.0
95.944,4.207,1.143,3.0
124.253,5.504,4.944,32.0
157.1,7.004,5.397,17.0
173.809,7.801,5.026,9.0
0.0,0.0,0.0,0.0
0.0,0.0,0.0,0.0
96.18,4.402,1.203,4.0
124.258,5.744,5.019,15.0
156.774,7.291,5.477,15.0
156.241,7.313,4.608,11.0
0.0,0.0,0.0,0.0
0.0,0.0,0.0,0.0
105.871,5.048,1.382,5.0
157.04,7.56,6.428,11.0
157.185,7.613,5.577,6.0
156.183,7.609,4.69,17.0
0.0,0.0,0.0,0.0
0.0,0.0,0.0,0.0
105.834,5.248,1.436,25.0
157.517,7.885,6.528,17.0
157.092,7.909,5.653,17.0
157.779,7.987,4.814,13.0
167.044,8.504,4.168,12.0
0.0,0.0,0.0,0.0
105.801,5.447,1.485,80.0
159.878,8.311,6.701,16.0
157.577,8.235,5.743,12.0
162.322,8.529,5.027,12.0
162.514,8.585,4.128,14.0
162.46,8.63,3.239,13.0
105.8,5.652,1.532,11.0
159.496,8.6,6.756,11.0
157.616,8.544,5.813,13.0
156.859,8.546,4.925,7.0
163.032,8.93,4.21,16.0
163.041,8.978,3.318,27.0
105.829,5.857,1.574,2.0
162.343,9.069,6.94,12.0
158.102,8.876,5.892,15.0
157.031,8.86,4.991,6.0
163.291,9.258,4.277,11.0
163.615,9.322,3.389,13.0
0.0,0.0,0.0,0.0
162.166,9.368,6.99,18.0
158.369,9.193,5.956,16.0
157.12,9.165,5.047,7.0
157.492,9.229,4.177,6.0
164.043,9.661,3.45,6.0
140.274,8.3,2.181,20.0
33.436,1.996,1.452,2.0
156.974,9.413,5.952,6.0
157.302,9.475,5.099,6.0
33.443,2.024,0.897,0.0
33.457,2.034,0.713,2.0
33.436,2.042,0.529,17.0
157.971,9.732,6.903,15.0
33.414,2.067,1.276,8.0
33.444,2.078,1.092,7.0
33.537,2.093,0.907,2.0
33.37,2.092,0.719,0.0
139.63,8.793,2.244,48.0
33.449,2.124,1.469,2.0
158.166,10.085,6.076,38.0
158.14,10.124,5.202,30.0
158.112,10.166,4.314,42.0
114.76,7.41,2.499,26.0
139.591,9.05,2.269,46.0
121.117,7.916,5.345,27.0
158.094,10.373,6.102,46.0
158.049,10.415,5.227,40.0
158.066,10.458,4.34,28.0
114.492,7.605,2.511,50.0
139.594,9.311,2.292,9.0
118.14,7.943,5.231,27.0
158.02,10.667,6.124,42.0
158.02,10.707,5.249,26.0
114.681,7.801,3.164,29.0
114.479,7.819,2.526,53.0
114.666,7.862,1.897,14.0
116.593,8.058,5.176,5.0
157.926,10.954,6.137,38.0
157.879,10.99,5.26,29.0
114.767,8.018,3.177,43.0
114.352,8.019,2.533,40.0
114.681,8.073,1.906,11.0
118.193,8.386,5.257,7.0
157.717,11.227,6.141,17.0
157.679,11.265,5.264,15.0
114.818,8.233,3.185,24.0
114.402,8.234,2.54,50.0
139.606,10.084,2.326,38.0
112.141,8.161,4.992,16.0
157.143,11.476,6.123,19.0
157.082,11.51,5.248,13.0
66.501,4.89,1.846,5.0
66.536,4.91,1.478,150.0
66.55,4.928,1.109,150.0
66.596,4.968,2.964,2.0
66.499,4.977,2.59,9.0
132.962,9.986,4.441,12.0
114.705,8.643,3.182,11.0
132.584,10.024,2.941,9.0
132.532,10.055,2.204,2.0
115.181,8.802,5.123,13.0
130.731,10.021,5.087,11.0
130.598,10.043,4.355,12.0
103.284,7.969,2.859,35.0
130.207,10.077,2.88,14.0
74.713,5.801,1.237,15.0
115.164,9.007,5.114,8.0
128.456,10.078,4.988,14.0
128.325,10.099,4.268,10.0
74.623,5.891,2.058,23.0
74.581,5.906,1.642,34.0
74.55,5.923,1.226,29.0
74.625,5.971,3.305,16.0
74.546,5.982,2.885,24.0
74.524,5.998,2.468,35.0
74.506,6.014,2.045,35.0
74.517,6.034,1.63,36.0
74.51,6.051,1.215,31.0
74.535,6.095,3.289,29.0
74.521,6.112,2.872,29.0
74.527,6.13,2.456,30.0
74.552,6.149,2.033,26.0
74.617,6.172,1.618,10.0
120.453,9.993,1.941,19.0
74.582,6.229,3.277,5.0
122.174,10.233,4.685,12.0
122.112,10.256,3.999,9.0
34.27,2.886,0.927,19.0
26.024,2.197,0.559,31.0
26.079,2.209,0.414,12.0
34.275,2.922,1.498,28.0
34.278,2.93,1.306,7.0
120.64,10.339,3.922,33.0
26.038,2.237,0.698,20.0
26.007,2.24,0.551,25.0
26.063,2.251,0.407,13.0
115.191,10.015,5.005,12.0
120.624,10.514,4.564,56.0
26.046,2.276,0.839,7.0
25.984,2.276,0.689,24.0
26.011,2.285,0.544,24.0
34.181,3.01,0.524,5.0
115.195,10.21,4.97,15.0
120.647,10.718,4.528,46.0
26.007,2.315,0.83,30.0
25.991,2.319,0.681,38.0
120.657,10.795,2.487,21.0
34.124,3.061,0.512,2.0
115.095,10.388,4.928,6.0
26.065,2.357,0.969,33.0
25.993,2.357,0.82,45.0
25.981,2.361,0.672,18.0
33.568,3.058,0.679,4.0
26.141,2.387,0.382,4.0
13.854,1.273,0.588,5.0
26.001,2.394,0.957,8.0
25.991,2.398,0.81,1.0
13.831,1.279,0.352,20.0
13.838,1.283,0.274,19.0
13.845,1.286,0.197,23.0
13.829,1.292,0.581,23.0
13.839,1.296,0.503,32.0
13.839,1.299,0.426,34.0
13.831,1.301,0.346,34.0
13.818,1.302,0.268,32.0
13.821,1.306,0.19,30.0
13.821,1.313,0.574,36.0
13.827,1.316,0.497,39.0
13.819,1.318,0.419,60.0
13.802,1.32,0.339,36.0
13.811,1.323,0.262,37.0
13.797,1.325,0.184,33.0
13.805,1.333,0.567,39.0
13.81,1.336,0.49,77.0
13.8,1.338,0.411,68.0
13.786,1.339,0.332,39.0
13.789,1.342,0.254,38.0
13.778,1.343,0.177,36.0
13.792,1.352,0.56,46.0
13.804,1.356,0.482,132.0
13.789,1.357,0.404,124.0
13.779,1.358,0.325,47.0
13.785,1.362,0.247,50.0
13.768,1.363,0.169,37.0
13.779,1.371,0.552,72.0
13.79,1.375,0.474,150.0
13.784,1.377,0.396,150.0
13.768,1.378,0.317,40.0
13.769,1.38,0.239,39.0
13.765,1.383,0.161,36.0
13.776,1.391,0.544,98.0
13.785,1.394,0.466,150.0
13.782,1.397,0.388,138.0
13.763,1.397,0.309,57.0
13.77,1.4,0.231,61.0
13.763,1.402,0.153,35.0
13.776,1.411,0.536,76.0
13.783,1.414,0.458,150.0
13.778,1.416,0.38,150.0
13.76,1.416,0.3,51.0
13.768,1.419,0.222,44.0
13.761,1.421,0.144,35.0
13.772,1.429,0.527,68.0
13.783,1.433,0.449,150.0
13.776,1.434,0.371,142.0
13.762,1.435,0.291,38.0
13.771,1.439,0.213,39.0
13.773,1.441,0.136,36.0
13.778,1.449,0.518,63.0
13.786,1.452,0.44,150.0
13.779,1.453,0.362,112.0
13.764,1.454,0.282,38.0
13.774,1.457,0.204,38.0
13.78,1.46,0.126,36.0
13.782,1.467,0.509,41.0
13.782,1.469,0.43,121.0
13.785,1.472,0.352,110.0
13.77,1.472,0.272,36.0
13.782,1.476,0.195,37.0
13.784,1.479,0.117,34.0
13.794,1.486,0.499,38.0
13.789,1.488,0.421,54.0
13.791,1.49,0.343,45.0
13.78,1.491,0.263,35.0
13.787,1.494,0.185,34.0
13.797,1.497,0.106,32.0
13.805,1.505,0.489,34.0
13.807,1.507,0.411,34.0
13.799,1.508,0.332,33.0
13.794,1.51,0.252,33.0
13.791,1.511,0.174,25.0
13.805,1.515,0.096,23.0
13.815,1.523,0.479,28.0
13.813,1.524,0.4,18.0
13.804,1.525,0.322,16.0
13.792,1.526,0.242,23.0
13.829,1.532,0.164,13.0
13.82,1.533,0.085,8.0
13.813,1.539,0.468,8.0
26.037,2.904,0.734,9.0
26.05,2.909,0.587,3.0
26.089,2.917,0.437,9.0
26.135,2.926,0.289,2.0
13.859,1.553,0.074,0.0
32.999,3.714,1.092,6.0
26.069,2.937,0.714,24.0
26.05,2.938,0.565,16.0
26.092,2.946,0.415,23.0
26.089,2.95,0.266,0.0
41.549,4.704,0.188,16.0
33.49,3.806,1.079,11.0
26.105,2.97,0.693,3.0
26.107,2.973,0.544,6.0
26.078,2.974,0.392,5.0
10.006,1.142,0.093,2.0
33.909,3.876,0.125,104.0
10.021,1.149,0.314,15.0
9.991,1.147,0.256,12.0
26.126,3.003,0.521,2.0
26.07,3.0,0.369,3.0
26.023,2.998,0.22,3.0
33.848,3.904,0.094,8.0
33.946,3.929,1.034,12.0
33.943,3.933,0.84,17.0
10.007,1.16,0.19,33.0
10.002,1.161,0.132,20.0
10.014,1.163,0.075,20.0
10.002,1.163,0.018,19.0
10.001,1.167,0.295,75.0
10.009,1.169,0.238,127.0
10.0,1.169,0.181,120.0
9.994,1.17,0.123,70.0
10.004,1.172,0.066,70.0
10.003,1.173,0.009,25.0
9.992,1.176,0.285,78.0
10.003,1.178,0.229,145.0
9.999,1.179,0.171,135.0
9.987,1.178,0.113,82.0
9.994,1.18,0.056,84.0
9.991,1.181,0.0,27.0
9.984,1.184,0.276,74.0
9.987,1.185,0.218,137.0
9.992,1.187,0.162,138.0
9.982,1.187,0.104,86.0
9.978,1.187,0.046,83.0
9.983,1.189,-0.009,35.0
9.977,1.192,0.266,92.0
9.984,1.193,0.209,150.0
9.976,1.193,0.152,145.0
9.976,1.194,0.094,101.0
9.985,1.196,0.037,100.0
9.973,1.196,-0.019,43.0
9.972,1.199,0.256,96.0
9.977,1.201,0.199,150.0
9.976,1.201,0.142,150.0
9.983,1.203,0.084,104.0
9.976,1.203,0.027,101.0
9.978,1.205,-0.029,51.0
9.973,1.207,0.246,117.0
9.978,1.208,0.189,150.0
9.972,1.209,0.132,150.0
9.967,1.209,0.074,108.0
9.967,1.21,0.017,93.0
9.979,1.212,-0.039,68.0
9.969,1.214,0.235,111.0
9.97,1.215,0.178,150.0
9.971,1.215,0.121,150.0
9.964,1.216,0.063,128.0
9.974,1.218,0.006,96.0
9.973,1.218,-0.05,68.0
9.972,1.221,0.225,113.0
9.968,1.221,0.168,150.0
9.976,1.223,0.111,150.0
9.963,1.222,0.053,128.0
9.97,1.224,-0.003,77.0
9.971,1.225,-0.06,69.0
9.975,1.228,0.215,109.0
9.978,1.229,0.157,150.0
9.978,1.23,0.1,150.0
9.97,1.229,0.042,116.0
9.972,1.23,-0.014,21.0
9.96,1.23,-0.071,64.0
9.971,1.233,0.204,117.0
9.976,1.235,0.147,150.0
9.974,1.235,0.09,150.0
9.964,1.234,0.032,126.0
9.975,1.236,-0.025,59.0
9.969,1.236,-0.082,67.0
9.977,1.24,0.193,105.0
9.975,1.24,0.136,150.0
9.973,1.24,0.079,150.0
9.966,1.24,0.021,105.0
9.971,1.241,-0.035,99.0
9.974,1.242,-0.093,68.0
9.972,1.244,0.182,104.0
9.969,1.244,0.125,150.0
9.975,1.245,0.068,150.0
9.962,1.244,0.01,91.0
9.971,1.246,-0.046,106.0
9.97,1.247,-0.103,66.0
9.972,1.249,0.171,107.0
9.969,1.249,0.114,150.0
9.972,1.25,0.057,150.0
9.965,1.249,0.0,79.0
9.974,1.251,-0.057,112.0
9.966,1.251,-0.114,58.0
9.97,1.253,0.16,86.0
9.977,1.254,0.103,150.0
9.977,1.254,0.046,150.0
9.965,1.253,-0.011,62.0
9.973,1.255,-0.068,105.0
9.969,1.255,-0.126,65.0
9.972,1.257,0.149,89.0
9.975,1.257,0.092,150.0
9.973,1.257,0.035,150.0
9.97,1.257,-0.022,94.0
9.974,1.258,-0.079,114.0
9.97,1.258,-0.136,68.0
9.978,1.261,0.138,74.0
9.973,1.26,0.081,145.0
9.967,1.26,0.024,149.0
9.971,1.261,-0.033,104.0
9.977,1.262,-0.091,109.0
9.973,1.262,-0.148,71.0
9.976,1.263,0.127,68.0
9.976,1.263,0.069,137.0
9.974,1.263,0.012,117.0
9.977,1.264,-0.045,104.0
9.972,1.264,-0.102,103.0
9.972,1.264,-0.159,69.0
9.975,1.265,0.115,64.0
9.973,1.265,0.058,135.0
9.977,1.266,0.001,119.0
9.972,1.266,-0.056,88.0
9.977,1.266,-0.113,108.0
9.975,1.267,-0.171,58.0
9.975,1.267,0.104,63.0
9.983,1.268,0.047,138.0
9.977,1.268,-0.009,127.0
9.969,1.267,-0.068,86.0
9.975,1.268,-0.125,91.0
9.973,1.268,-0.182,51.0
9.977,1.269,0.093,67.0
9.98,1.269,0.035,148.0
9.975,1.269,-0.021,128.0
9.975,1.269,-0.079,75.0
9.975,1.269,-0.136,91.0
9.975,1.269,-0.194,47.0
9.98,1.27,0.081,65.0
9.982,1.27,0.024,136.0
9.975,1.27,-0.032,129.0
9.969,1.269,-0.09,78.0
9.973,1.27,-0.148,82.0
9.972,1.27,-0.205,52.0
9.976,1.27,0.07,66.0
9.985,1.271,0.013,111.0
9.975,1.27,-0.044,131.0
9.965,1.269,-0.102,80.0
9.977,1.27,-0.159,95.0
9.972,1.27,-0.216,47.0
9.975,1.27,0.058,65.0
9.98,1.271,0.001,134.0
9.97,1.269,-0.055,133.0
9.962,1.268,-0.113,80.0
9.974,1.27,-0.17,92.0
9.971,1.27,-0.227,55.0
9.981,1.27,0.047,73.0
9.978,1.27,-0.009,134.0
9.97,1.269,-0.066,133.0
9.962,1.268,-0.124,88.0
9.974,1.269,-0.182,99.0
9.976,1.269,-0.239,61.0
9.976,1.269,0.036,68.0
9.98,1.269,-0.02,137.0
9.973,1.268,-0.078,133.0
9.97,1.268,-0.136,96.0
9.969,1.267,-0.193,105.0
9.97,1.268,-0.25,66.0
9.982,1.268,0.025,69.0
9.975,1.267,-0.032,141.0
9.975,1.267,-0.089,150.0
9.964,1.265,-0.147,103.0
9.975,1.267,-0.204,109.0
9.97,1.266,-0.261,68.0
9.975,1.265,0.013,61.0
9.972,1.265,-0.043,130.0
9.981,1.266,-0.1,150.0
9.968,1.264,-0.158,100.0
9.973,1.264,-0.215,107.0
9.97,1.264,-0.272,65.0
9.977,1.263,0.002,72.0
9.976,1.263,-0.054,150.0
9.978,1.263,-0.111,150.0
9.966,1.261,-0.169,106.0
9.968,1.261,-0.226,106.0
9.97,1.261,-0.284,59.0
9.978,1.261,-0.008,71.0
9.977,1.26,-0.065,150.0
9.975,1.26,-0.122,150.0
9.969,1.258,-0.18,108.0
9.971,1.258,-0.238,107.0
9.97,1.258,-0.295,58.0
9.976,1.257,-0.019,76.0
9.973,1.256,-0.076,150.0
9.979,1.257,-0.133,150.0
9.965,1.255,-0.191,108.0
9.972,1.255,-0.248,102.0
9.97,1.255,-0.306,60.0
9.971,1.253,-0.03,100.0
9.966,1.252,-0.087,150.0
9.971,1.252,-0.144,150.0
9.969,1.251,-0.202,105.0
9.969,1.251,-0.259,108.0
9.968,1.25,-0.316,67.0
9.97,1.249,-0.041,114.0
9.971,1.248,-0.098,150.0
9.976,1.248,-0.155,150.0
9.971,1.247,-0.213,105.0
9.981,1.248,-0.27,113.0
9.964,1.246,-0.327,67.0
9.972,1.244,-0.051,106.0
9.971,1.244,-0.108,150.0
9.977,1.244,-0.165,150.0
9.966,1.242,-0.223,102.0
9.972,1.242,-0.281,111.0
9.97,1.241,-0.338,59.0
9.972,1.239,-0.062,108.0
9.972,1.239,-0.119,150.0
9.969,1.238,-0.176,150.0
9.968,1.237,-0.234,102.0
9.973,1.237,-0.291,116.0
9.97,1.236,-0.348,70.0
9.973,1.234,-0.072,105.0
9.969,1.233,-0.129,150.0
9.968,1.232,-0.186,150.0
9.965,1.231,-0.244,102.0
9.97,1.231,-0.301,113.0
9.963,1.23,-0.358,60.0
9.974,1.228,-0.083,95.0
9.973,1.227,-0.14,150.0
9.973,1.226,-0.196,150.0
9.971,1.225,-0.255,101.0
9.967,1.224,-0.311,100.0
9.973,1.224,-0.369,55.0
9.974,1.222,-0.093,119.0
9.97,1.22,-0.15,150.0
9.976,1.22,-0.207,150.0
9.966,1.218,-0.264,100.0
9.972,1.218,-0.322,102.0
9.973,1.218,-0.379,50.0
9.973,1.215,-0.103,98.0
9.977,1.214,-0.16,150.0
9.978,1.214,-0.217,150.0
9.978,1.213,-0.275,95.0
9.98,1.212,-0.332,99.0
9.979,1.212,-0.389,44.0
9.974,1.208,-0.112,95.0
9.98,1.207,-0.169,150.0
9.978,1.206,-0.226,150.0
9.977,1.205,-0.284,73.0
9.982,1.205,-0.342,77.0
9.989,1.205,-0.399,36.0
9.979,1.201,-0.122,80.0
9.986,1.2,-0.179,133.0
9.988,1.2,-0.236,133.0
9.979,1.198,-0.294,69.0
9.992,1.198,-0.351,74.0
9.989,1.197,-0.408,31.0
9.983,1.193,-0.131,62.0
9.995,1.193,-0.189,140.0
9.99,1.192,-0.245,122.0
9.991,1.191,-0.304,64.0
10.005,1.192,-0.361,73.0
10.004,1.191,-0.418,32.0
9.994,1.186,-0.141,67.0
10.003,1.186,-0.198,138.0
10.007,1.185,-0.255,101.0
9.998,1.183,-0.313,51.0
10.008,1.183,-0.37,67.0
10.007,1.182,-0.428,20.0
10.004,1.178,-0.15,78.0
10.006,1.177,-0.207,98.0
10.008,1.176,-0.264,75.0
10.009,1.175,-0.322,20.0
10.016,1.175,-0.38,18.0
10.006,1.173,-0.436,16.0
10.015,1.17,-0.159,19.0
10.014,1.169,-0.216,17.0
9.999,1.166,-0.273,15.0
13.792,1.607,-0.456,5.0
13.72,1.597,-0.532,6.0
13.231,1.539,-0.589,6.0
10.006,1.159,-0.167,12.0
19.708,2.281,-0.442,1.0
13.843,1.601,-0.389,6.0
13.773,1.591,-0.467,8.0
13.645,1.575,-0.541,7.0
13.119,1.513,-0.595,7.0
21.904,2.516,-0.385,3.0
13.85,1.589,-0.322,6.0
13.822,1.584,-0.4,16.0
13.768,1.576,-0.478,13.0
13.58,1.553,-0.549,9.0
13.079,1.495,-0.603,9.0
21.554,2.454,-0.396,1.0
13.839,1.573,-0.333,16.0
13.792,1.566,-0.41,18.0
13.747,1.559,-0.489,14.0
13.5,1.53,-0.557,8.0
13.08,1.481,-0.614,10.0
13.847,1.561,-0.265,16.0
13.822,1.556,-0.343,21.0
13.787,1.55,-0.421,16.0
13.731,1.542,-0.498,17.0
13.417,1.506,-0.563,8.0
13.08,1.466,-0.624,10.0
13.821,1.543,-0.275,21.0
13.81,1.539,-0.353,28.0
13.764,1.532,-0.43,20.0
13.719,1.526,-0.508,18.0
13.36,1.484,-0.571,8.0
13.069,1.45,-0.633,10.0
13.808,1.525,-0.285,31.0
13.778,1.52,-0.362,26.0
13.751,1.515,-0.44,25.0
13.701,1.507,-0.517,18.0
13.327,1.465,-0.579,10.0
13.05,1.432,-0.641,12.0
13.805,1.509,-0.294,36.0
13.786,1.504,-0.372,32.0
13.757,1.499,-0.449,31.0
13.694,1.49,-0.526,18.0
13.25,1.44,-0.585,11.0
13.031,1.414,-0.649,9.0
13.798,1.491,-0.304,38.0
13.77,1.485,-0.381,36.0
13.758,1.482,-0.459,36.0
13.673,1.471,-0.535,15.0
13.208,1.419,-0.591,11.0
12.916,1.386,-0.651,5.0
13.794,1.473,-0.312,37.0
13.77,1.468,-0.389,39.0
13.764,1.465,-0.467,35.0
13.665,1.453,-0.543,12.0
13.133,1.394,-0.596,8.0
12.796,1.357,-0.653,4.0
13.784,1.454,-0.32,34.0
13.77,1.45,-0.398,35.0
13.757,1.447,-0.475,33.0
13.637,1.432,-0.55,11.0
13.091,1.373,-0.602,7.0
12.75,1.335,-0.658,3.0
13.776,1.435,-0.328,38.0
13.766,1.432,-0.405,32.0
13.722,1.425,-0.482,22.0
13.586,1.409,-0.555,11.0
13.097,1.356,-0.609,9.0
12.631,1.305,-0.659,2.0
13.77,1.416,-0.335,41.0
13.768,1.413,-0.413,37.0
13.722,1.406,-0.489,20.0
13.515,1.383,-0.559,12.0
13.077,1.336,-0.615,9.0
12.547,1.28,-0.661,2.0
13.774,1.397,-0.342,52.0
13.768,1.394,-0.42,37.0
13.726,1.387,-0.496,17.0
13.499,1.362,-0.565,12.0
13.076,1.317,-0.622,9.0
12.474,1.254,-0.664,2.0
13.776,1.378,-0.349,84.0
13.762,1.374,-0.426,148.0
13.717,1.367,-0.502,15.0
13.487,1.341,-0.571,11.0
13.077,1.299,-0.628,10.0
12.431,1.232,-0.667,2.0
13.771,1.358,-0.355,40.0
13.773,1.355,-0.433,97.0
13.72,1.347,-0.508,16.0
13.448,1.318,-0.575,10.0
13.068,1.279,-0.633,11.0
12.363,1.207,-0.668,3.0
13.782,1.338,-0.361,37.0
13.762,1.334,-0.438,36.0
13.726,1.328,-0.514,17.0
13.431,1.297,-0.58,10.0
13.067,1.259,-0.638,11.0
12.336,1.186,-0.672,3.0
13.791,1.319,-0.367,33.0
13.772,1.314,-0.443,32.0
13.731,1.307,-0.519,15.0
13.412,1.274,-0.584,11.0
13.064,1.239,-0.642,11.0
12.314,1.166,-0.675,3.0
13.811,1.3,-0.372,32.0
13.795,1.295,-0.449,30.0
13.739,1.287,-0.524,15.0
13.353,1.248,-0.586,12.0
13.06,1.218,-0.646,12.0
12.275,1.143,-0.676,2.0
13.823,1.279,-0.376,29.0
13.809,1.275,-0.453,25.0
13.751,1.267,-0.529,15.0
13.394,1.231,-0.591,12.0
13.051,1.197,-0.65,11.0
12.258,1.122,-0.679,2.0
13.838,1.259,-0.38,20.0
13.828,1.255,-0.458,25.0
13.765,1.247,-0.533,15.0
13.373,1.208,-0.594,12.0
13.061,1.177,-0.653,11.0
12.226,1.1,-0.68,2.0
13.887,1.241,-0.385,13.0
13.853,1.235,-0.462,19.0
13.777,1.226,-0.536,13.0
13.397,1.189,-0.598,10.0
13.049,1.155,-0.655,11.0
12.203,1.078,-0.681,2.0
13.938,1.223,-0.389,5.0
13.898,1.217,-0.466,9.0
13.797,1.205,-0.539,13.0
13.373,1.165,-0.599,9.0
13.056,1.135,-0.658,11.0
12.172,1.055,-0.681,2.0
18.042,1.554,-0.507,3.0
13.944,1.198,-0.469,2.0
13.819,1.184,-0.542,12.0
13.353,1.141,-0.6,8.0
13.065,1.114,-0.66,11.0
12.168,1.034,-0.683,2.0
18.03,1.523,-0.509,3.0
16.38,1.38,-0.553,2.0
13.882,1.166,-0.546,12.0
13.317,1.116,-0.6,8.0
13.061,1.091,-0.661,10.0
12.21,1.017,-0.686,1.0
18.0,1.49,-0.509,3.0
16.319,1.347,-0.553,2.0
13.937,1.147,-0.549,12.0
13.38,1.098,-0.603,10.0
13.06,1.069,-0.662,10.0
12.197,0.996,-0.686,2.0
18.04,1.463,-0.511,2.0
16.333,1.32,-0.553,2.0
14.083,1.135,-0.556,12.0
13.433,1.08,-0.606,10.0
13.068,1.047,-0.662,9.0
12.187,0.974,-0.686,3.0
18.124,1.439,-0.514,3.0
16.385,1.296,-0.555,2.0
14.141,1.115,-0.558,11.0
13.412,1.055,-0.605,12.0
13.072,1.025,-0.662,10.0
12.223,0.955,-0.687,3.0
18.124,1.407,-0.513,3.0
16.461,1.274,-0.557,2.0
14.169,1.093,-0.558,12.0
13.383,1.029,-0.603,11.0
13.064,1.001,-0.661,10.0
12.237,0.935,-0.687,3.0
18.182,1.38,-0.513,3.0
16.453,1.244,-0.556,2.0
14.319,1.079,-0.563,10.0
13.476,1.013,-0.606,10.0
13.064,0.978,-0.66,11.0
12.275,0.916,-0.688,3.0
18.286,1.355,-0.514,3.0
16.504,1.219,-0.555,2.0
14.419,1.061,-0.565,11.0
13.524,0.992,-0.606,13.0
13.064,0.955,-0.658,10.0
12.345,0.9,-0.69,2.0
18.42,1.333,-0.515,3.0
16.612,1.198,-0.556,2.0
14.622,1.05,-0.57,14.0
13.547,0.97,-0.605,13.0
13.066,0.932,-0.656,10.0
12.353,0.878,-0.688,1.0
18.466,1.303,-0.513,3.0
16.722,1.176,-0.556,3.0
14.637,1.025,-0.568,10.0
13.628,0.951,-0.605,11.0
13.068,0.909,-0.653,10.0
12.391,0.858,-0.687,2.0
18.543,1.275,-0.51,3.0
16.81,1.152,-0.555,3.0
14.692,1.003,-0.566,8.0
13.695,0.931,-0.605,13.0
13.08,0.886,-0.65,9.0
12.442,0.84,-0.687,2.0
18.696,1.252,-0.51,3.0
16.945,1.13,-0.555,2.0
14.806,0.984,-0.566,5.0
13.789,0.913,-0.605,13.0
13.071,0.862,-0.645,10.0
12.535,0.823,-0.688,2.0
18.888,1.231,-0.509,3.0
17.066,1.107,-0.553,2.0
14.899,0.963,-0.565,3.0
13.83,0.89,-0.602,12.0
13.071,0.838,-0.641,8.0
12.615,0.805,-0.688,2.0
19.047,1.207,-0.506,3.0
17.201,1.085,-0.552,2.0
15.265,0.959,-0.573,2.0
13.952,0.873,-0.602,13.0
13.126,0.817,-0.638,7.0
12.716,0.789,-0.688,3.0
19.199,1.181,-0.503,3.0
17.366,1.064,-0.55,2.0
15.672,0.956,-0.582,2.0
14.325,0.87,-0.612,14.0
13.237,0.8,-0.638,7.0
12.889,0.776,-0.692,3.0
19.337,1.154,-0.498,3.0
17.52,1.041,-0.547,2.0
15.895,0.94,-0.583,3.0
14.505,0.854,-0.613,14.0
13.427,0.787,-0.641,9.0
12.998,0.758,-0.692,5.0
19.591,1.134,-0.495,3.0
17.693,1.019,-0.544,3.0
16.037,0.919,-0.581,2.0
14.597,0.833,-0.61,18.0
13.467,0.765,-0.636,12.0
13.041,0.737,-0.688,8.0
19.848,1.112,-0.491,3.0
17.907,0.998,-0.541,4.0
16.196,0.899,-0.578,3.0
14.628,0.808,-0.603,21.0
13.514,0.742,-0.631,15.0
13.057,0.714,-0.681,10.0
20.139,1.092,-0.487,3.0
18.143,0.978,-0.538,3.0
16.353,0.877,-0.574,3.0
14.644,0.781,-0.595,19.0
13.594,0.722,-0.627,13.0
13.066,0.69,-0.674,12.0
20.44,1.07,-0.483,4.0
18.342,0.955,-0.533,3.0
16.55,0.857,-0.571,3.0
14.671,0.756,-0.587,14.0
13.845,0.71,-0.63,13.0
13.063,0.666,-0.665,11.0
20.757,1.049,-0.477,4.0
18.585,0.934,-0.528,3.0
16.843,0.842,-0.57,2.0
14.72,0.731,-0.579,6.0
14.144,0.699,-0.634,13.0
13.085,0.643,-0.657,10.0
21.034,1.024,-0.469,4.0
18.811,0.911,-0.521,3.0
17.181,0.827,-0.569,4.0
15.14,0.724,-0.585,2.0
14.413,0.686,-0.635,15.0
13.236,0.626,-0.655,9.0
21.334,1.0,-0.46,4.0
19.18,0.893,-0.518,3.0
17.387,0.805,-0.563,4.0
15.697,0.722,-0.595,3.0
14.558,0.666,-0.631,20.0
13.402,0.609,-0.654,12.0
21.757,0.98,-0.453,4.0
19.521,0.873,-0.512,3.0
17.629,0.784,-0.558,4.0
15.96,0.705,-0.593,2.0
14.613,0.641,-0.622,22.0
13.501,0.589,-0.648,14.0
21.851,0.944,-0.437,4.0
19.939,0.855,-0.507,3.0
17.911,0.763,-0.552,3.0
16.236,0.688,-0.59,2.0
14.656,0.616,-0.611,14.0
13.537,0.566,-0.638,14.0
23.04,0.953,-0.442,5.0
20.36,0.837,-0.5,3.0
18.22,0.744,-0.546,3.0
16.481,0.668,-0.584,2.0
14.658,0.59,-0.599,12.0
13.899,0.555,-0.643,14.0
23.776,0.941,-0.435,5.0
20.702,0.813,-0.49,4.0
18.6,0.725,-0.541,3.0
16.81,0.651,-0.581,2.0
14.739,0.566,-0.589,6.0
14.031,0.535,-0.636,12.0
24.395,0.921,-0.425,4.0
21.049,0.789,-0.479,4.0
18.908,0.703,-0.532,3.0
17.18,0.634,-0.578,5.0
15.3,0.56,-0.597,3.0
14.143,0.514,-0.628,5.0
28.108,1.011,-0.462,1.0
21.518,0.768,-0.469,4.0
19.308,0.683,-0.525,3.0
17.485,0.614,-0.571,3.0
15.926,0.554,-0.605,3.0
14.387,0.497,-0.624,1.0
28.597,0.977,-0.442,1.0
22.105,0.749,-0.46,4.0
19.734,0.663,-0.516,3.0
17.803,0.593,-0.563,4.0
16.211,0.536,-0.6,2.0
14.424,0.472,-0.611,1.0
29.316,0.949,-0.423,2.0
23.012,0.739,-0.455,5.0
20.216,0.643,-0.508,3.0
18.139,0.572,-0.555,4.0
16.53,0.516,-0.594,2.0
14.656,0.454,-0.605,4.0
29.97,0.917,-0.4,2.0
23.854,0.723,-0.446,3.0
20.698,0.622,-0.498,4.0
18.605,0.554,-0.549,4.0
16.964,0.5,-0.591,2.0
15.385,0.449,-0.618,4.0
30.677,0.885,-0.376,2.0
27.396,0.783,-0.482,1.0
21.249,0.601,-0.487,4.0
19.05,0.533,-0.54,3.0
17.32,0.48,-0.584,4.0
15.779,0.433,-0.616,3.0
31.798,0.862,-0.353,2.0
28.061,0.753,-0.461,1.0
21.864,0.581,-0.476,4.0
19.537,0.513,-0.532,3.0
17.63,0.458,-0.574,6.0
16.145,0.415,-0.612,3.0
33.014,0.839,-0.329,1.0
28.928,0.727,-0.442,2.0
22.796,0.566,-0.47,5.0
20.027,0.492,-0.521,3.0
18.024,0.438,-0.565,4.0
16.525,0.397,-0.606,3.0
36.562,0.866,-0.32,2.0
29.602,0.693,-0.416,2.0
26.785,0.619,-0.519,1.0
20.682,0.472,-0.512,4.0
18.525,0.418,-0.558,5.0
16.841,0.375,-0.596,2.0
36.744,0.808,-0.276,9.0
30.506,0.663,-0.391,2.0
27.166,0.583,-0.492,2.0
21.173,0.448,-0.498,4.0
18.893,0.395,-0.545,9.0
17.291,0.357,-0.59,2.0
37.198,0.756,-0.232,21.0
31.538,0.632,-0.364,1.0
27.893,0.552,-0.469,1.0
21.747,0.424,-0.483,4.0
19.465,0.374,-0.536,9.0
17.727,0.336,-0.582,3.0
37.777,0.705,-0.186,49.0
32.835,0.604,-0.335,1.0
28.915,0.524,-0.449,2.0
22.327,0.399,-0.467,2.0
19.991,0.351,-0.524,10.0
18.232,0.316,-0.574,3.0
38.83,0.661,-0.139,49.0
36.907,0.619,-0.327,2.0
29.725,0.491,-0.421,2.0
26.488,0.43,-0.518,1.0
20.817,0.332,-0.517,4.0
18.721,0.294,-0.564,4.0
39.823,0.614,-0.088,16.0
37.119,0.562,-0.278,7.0
30.657,0.456,-0.391,1.0
27.151,0.397,-0.493,1.0
21.454,0.308,-0.502,4.0
19.267,0.271,-0.553,3.0
44.229,0.611,-0.036,19.0
37.671,0.511,-0.229,14.0
31.743,0.423,-0.361,1.0
28.163,0.367,-0.471,1.0
22.109,0.283,-0.487,3.0
19.917,0.249,-0.543,4.0
47.298,0.58,0.028,53.0
38.331,0.46,-0.178,50.0
33.22,0.39,-0.33,1.0
29.061,0.334,-0.444,1.0
26.026,0.292,-0.535,2.0
20.716,0.227,-0.535,4.0
47.972,0.515,0.098,64.0
39.34,0.412,-0.126,40.0
37.352,0.382,-0.316,2.0
29.884,0.298,-0.413,2.0
26.786,0.26,-0.511,2.0
21.749,0.206,-0.529,4.0
48.022,0.442,0.17,100.0
44.103,0.395,-0.075,18.0
37.689,0.328,-0.262,11.0
31.003,0.262,-0.381,1.0
27.479,0.225,-0.482,1.0
24.63,0.196,-0.562,1.0
48.104,0.37,0.244,48.0
0.0,0.0,0.0,0.0
38.418,0.276,-0.208,28.0
32.48,0.225,-0.349,1.0
28.725,0.192,-0.459,1.0
25.769,0.166,-0.547,1.0
55.076,0.342,0.365,16.0
54.61,0.326,0.076,7.0
39.371,0.225,-0.151,44.0
37.66,0.206,-0.345,0.0
29.605,0.155,-0.427,2.0
26.586,0.132,-0.522,2.0
59.335,0.282,0.487,95.0
54.815,0.248,0.163,28.0
43.828,0.187,-0.098,6.0
37.856,0.152,-0.287,14.0
30.76,0.116,-0.394,1.0
27.305,0.097,-0.492,1.0
79.459,0.264,0.781,150.0
59.174,0.182,0.272,12.0
0.0,0.0,0.0,0.0
38.657,0.1,-0.229,14.0
32.433,0.077,-0.362,1.0
28.518,0.061,-0.467,1.0
79.469,0.152,0.911,151.0
76.095,0.128,0.475,19.0
47.967,0.069,0.049,13.0
39.627,0.048,-0.17,35.0
33.903,0.033,-0.322,0.0
29.486,0.022,-0.434,2.0
79.466,0.043,1.044,151.0
79.334,0.025,0.628,36.0
55.688,0.005,0.149,29.0
0.0,0.0,0.0,0.0
38.353,-0.013,-0.301,3.0
30.449,-0.017,-0.398,1.0
79.459,-0.062,1.176,151.0
79.448,-0.079,0.761,150.0
61.618,-0.075,0.269,9.0
45.656,-0.066,-0.042,20.0
39.185,-0.065,-0.241,14.0
32.231,-0.06,-0.365,2.0
79.453,-0.167,1.312,152.0
79.463,-0.183,0.897,151.0
76.503,-0.193,0.465,13.0
0.0,0.0,0.0,0.0
40.609,-0.119,-0.18,15.0
33.807,-0.106,-0.325,0.0
79.424,-0.268,1.448,255.0
79.458,-0.285,1.036,151.0
79.355,-0.301,0.62,72.0
55.985,-0.224,0.141,29.0
42.117,-0.177,-0.112,4.0
39.392,-0.174,-0.31,1.0
79.428,-0.368,1.587,199.0
79.444,-0.384,1.175,164.0
79.458,-0.4,0.761,178.0
61.615,-0.323,0.264,10.0
46.281,-0.252,-0.042,5.0
40.969,-0.231,-0.249,4.0
79.433,-0.465,1.729,202.0
79.45,-0.48,1.315,172.0
79.45,-0.496,0.903,189.0
76.971,-0.496,0.467,15.0
52.796,-0.35,0.045,13.0
44.606,-0.304,-0.193,2.0
79.432,-0.559,1.87,189.0
79.449,-0.575,1.458,176.0
79.45,-0.59,1.045,184.0
79.397,-0.604,0.624,94.0
57.829,-0.451,0.154,6.0
49.596,-0.396,-0.124,4.0
79.44,-0.651,2.014,153.0
79.438,-0.666,1.602,179.0
79.446,-0.681,1.19,193.0
79.461,-0.696,0.77,168.0
77.216,-0.69,0.347,5.0
54.255,-0.495,-0.036,4.0
79.434,-0.741,2.161,151.0
79.42,-0.755,1.748,198.0
79.438,-0.769,1.335,203.0
79.45,-0.783,0.916,164.0
0.0,0.0,0.0,0.0
58.594,-0.599,0.069,3.0
79.441,-0.827,2.307,151.0
79.431,-0.841,1.895,175.0
79.431,-0.854,1.483,203.0
79.391,-0.867,1.062,255.0
79.402,-0.881,0.651,118.0
79.257,-0.893,0.239,3.0
79.405,-0.91,2.452,150.0
79.408,-0.923,2.041,150.0
79.41,-0.937,1.63,39.0
79.432,-0.95,1.211,161.0
80.134,-0.972,0.807,12.0
78.248,-0.962,0.383,4.0
109.53,-1.367,3.589,6.0
109.609,-1.386,3.025,3.0
86.915,-1.113,1.948,19.0
86.948,-1.127,1.489,150.0
86.947,-1.141,1.04,75.0
87.913,-1.167,0.596,5.0
86.958,-1.171,3.014,10.0
86.934,-1.184,2.563,37.0
183.413,-2.527,4.46,58.0
183.377,-2.553,3.489,85.0
183.433,-2.583,2.542,27.0
98.514,-1.402,0.857,2.0
129.188,-1.862,4.723,21.0
151.469,-2.205,4.755,88.0
151.476,-2.228,3.97,42.0
187.104,-2.78,3.918,31.0
205.313,-3.079,3.236,21.0
123.803,-1.875,1.312,9.0
128.089,-1.963,4.928,34.0
151.413,-2.341,5.041,69.0
151.475,-2.363,4.259,92.0
262.001,-4.124,5.984,61.0
0.0,0.0,0.0,0.0
149.332,-2.391,1.866,9.0
128.107,-2.074,5.174,19.0
184.499,-3.01,6.492,36.0
151.435,-2.491,4.546,104.0
40.246,-0.667,0.995,2.0
40.227,-0.672,0.787,0.0
205.414,-3.459,2.958,77.0
128.472,-2.185,5.432,28.0
185.835,-3.185,6.895,20.0
151.43,-2.615,4.836,67.0
40.268,-0.7,1.073,37.0
40.201,-0.704,0.864,43.0
40.167,-0.708,0.656,34.0
92.975,-1.655,4.111,26.0
184.467,-3.307,7.203,8.0
184.525,-3.33,6.25,49.0
40.283,-0.732,1.152,45.0
40.215,-0.735,0.942,50.0
40.182,-0.739,0.734,58.0
92.957,-1.727,4.292,36.0
128.663,-2.403,5.274,12.0
184.674,-3.47,6.614,44.0
40.321,-0.762,1.231,32.0
40.254,-0.765,1.021,48.0
40.204,-0.768,0.812,36.0
90.719,-1.75,4.365,55.0
128.585,-2.494,5.521,36.0
184.485,-3.598,6.968,13.0
185.32,-3.633,6.022,44.0
40.293,-0.793,1.1,52.0
40.231,-0.796,0.891,48.0
91.695,-1.832,4.592,82.0
92.937,-1.866,4.172,11.0
191.272,-3.858,7.598,24.0
185.537,-3.76,6.391,45.0
40.279,-0.82,1.179,38.0
40.216,-0.822,0.969,51.0
91.42,-1.885,4.755,69.0
90.634,-1.876,4.244,38.0
184.208,-3.831,7.673,20.0
185.7,-3.878,6.758,40.0
40.298,-0.845,1.258,15.0
40.215,-0.846,1.048,52.0
83.749,-1.778,4.522,27.0
0.0,0.0,0.0,0.0
128.845,-2.757,5.623,28.0
191.328,-4.108,7.34,21.0
185.632,-4.001,6.163,32.0
40.228,-0.87,1.128,44.0
91.469,-1.995,5.119,54.0
92.075,-2.014,4.676,47.0
90.656,-1.99,4.134,8.0
129.627,-2.854,5.227,28.0
185.492,-4.097,6.522,48.0
40.261,-0.892,1.208,40.0
91.422,-2.042,5.296,67.0
92.156,-2.064,4.86,74.0
90.585,-2.035,4.308,52.0
129.383,-2.914,5.47,26.0
185.732,-4.195,6.894,28.0
40.317,-0.913,1.288,12.0
91.406,-2.086,5.474,41.0
83.699,-1.915,4.578,48.0
98.761,-2.265,4.891,20.0
129.474,-2.977,5.729,35.0
129.633,-2.989,5.067,13.0
40.243,-0.929,1.365,38.0
129.569,-3.016,8.016,28.0
92.202,-2.151,5.226,27.0
99.074,-2.316,5.103,29.0
129.028,-3.022,5.963,31.0
129.304,-3.035,5.308,32.0
40.217,-0.946,1.443,45.0
84.973,-2.013,5.424,2.0
92.224,-2.189,5.408,22.0
99.019,-2.353,5.292,18.0
93.058,-2.216,4.482,30.0
128.852,-3.074,5.54,37.0
40.241,-0.961,1.521,28.0
91.661,-2.205,6.029,24.0
97.97,-2.361,5.936,23.0
83.676,-2.019,4.638,53.0
90.512,-2.187,4.537,48.0
129.105,-3.124,5.805,44.0
