X,Y,Z,Reflectivity
13.375,-0.103,-0.803,1.0
12.575,-0.098,-0.822,0.0
11.877,-0.094,-0.838,1.0
11.242,-0.09,-0.852,0.0
15.722,-0.124,-0.75,1.0
14.617,-0.117,-0.773,1.0
13.645,-0.11,-0.793,0.0
12.877,-0.105,-0.816,0.0
12.122,-0.099,-0.832,0.0
11.501,-0.095,-0.849,0.0
16.156,-0.132,-0.74,1.0
15.013,-0.124,-0.765,1.0
14.014,-0.116,-0.787,1.0
13.153,-0.11,-0.808,1.0
12.417,-0.105,-0.828,0.0
11.723,-0.1,-0.842,0.0
16.658,-0.14,-0.73,1.0
15.411,-0.131,-0.755,1.0
14.374,-0.123,-0.779,1.0
13.494,-0.116,-0.803,1.0
12.701,-0.11,-0.822,0.0
11.974,-0.104,-0.837,1.0
17.23,-0.149,-0.721,1.0
15.901,-0.138,-0.748,1.0
14.762,-0.129,-0.771,1.0
13.793,-0.121,-0.793,0.0
13.008,-0.115,-0.815,0.0
12.256,-0.109,-0.832,0.0
17.807,-0.157,-0.71,1.0
16.354,-0.145,-0.737,1.0
15.192,-0.135,-0.763,1.0
14.152,-0.127,-0.786,1.0
13.3,-0.12,-0.807,1.0
12.527,-0.113,-0.825,0.0
18.354,-0.164,-0.695,1.0
16.929,-0.152,-0.729,1.0
15.613,-0.141,-0.753,1.0
14.544,-0.132,-0.778,1.0
13.618,-0.124,-0.799,0.0
12.835,-0.117,-0.82,0.0
18.981,-0.172,-0.681,1.0
17.501,-0.159,-0.718,1.0
16.086,-0.147,-0.743,1.0
14.953,-0.137,-0.77,1.0
13.96,-0.128,-0.791,1.0
13.144,-0.121,-0.813,1.0
19.727,-0.18,-0.668,2.0
18.051,-0.165,-0.704,1.0
16.604,-0.152,-0.733,0.0
15.361,-0.141,-0.76,1.0
14.346,-0.132,-0.784,1.0
13.468,-0.124,-0.805,1.0
20.428,-0.187,-0.65,2.0
18.641,-0.171,-0.689,1.0
17.183,-0.158,-0.724,1.0
15.863,-0.146,-0.752,1.0
14.733,-0.136,-0.775,1.0
13.783,-0.127,-0.796,0.0
21.268,-0.194,-0.633,1.0
19.355,-0.177,-0.676,1.0
17.793,-0.163,-0.713,1.0
16.333,-0.149,-0.741,1.0
15.165,-0.139,-0.766,1.0
14.158,-0.13,-0.789,1.0
22.262,-0.202,-0.617,1.0
20.079,-0.182,-0.66,2.0
18.376,-0.167,-0.699,1.0
16.922,-0.154,-0.732,1.0
15.636,-0.142,-0.758,1.0
14.556,-0.132,-0.781,1.0
23.222,-0.209,-0.596,1.0
20.924,-0.188,-0.645,1.0
19.011,-0.171,-0.684,1.0
17.481,-0.157,-0.721,1.0
16.089,-0.144,-0.746,1.0
14.96,-0.134,-0.771,1.0
24.245,-0.215,-0.572,2.0
21.777,-0.193,-0.626,1.0
19.782,-0.175,-0.671,1.0
18.08,-0.16,-0.708,1.0
16.641,-0.147,-0.737,1.0
15.412,-0.135,-0.763,1.0
25.427,-0.221,-0.547,1.0
22.84,-0.198,-0.609,1.0
20.479,-0.177,-0.652,2.0
18.653,-0.161,-0.692,1.0
17.224,-0.148,-0.728,1.0
15.892,-0.137,-0.754,1.0
26.466,-0.225,-0.516,2.0
23.725,-0.201,-0.584,2.0
21.396,-0.181,-0.637,2.0
19.401,-0.163,-0.679,1.0
17.817,-0.149,-0.716,1.0
16.361,-0.137,-0.742,1.0
27.751,-0.229,-0.483,3.0
24.785,-0.204,-0.559,1.0
22.371,-0.183,-0.619,1.0
20.134,-0.164,-0.663,3.0
18.409,-0.149,-0.701,1.0
16.983,-0.137,-0.734,1.0
29.107,-0.232,-0.446,2.0
26.129,-0.207,-0.535,2.0
23.351,-0.184,-0.598,1.0
20.99,-0.165,-0.648,2.0
19.069,-0.149,-0.687,1.0
17.552,-0.136,-0.723,1.0
30.283,-0.232,-0.401,1.0
27.116,-0.206,-0.499,3.0
24.34,-0.184,-0.573,2.0
21.921,-0.165,-0.631,2.0
19.816,-0.148,-0.673,2.0
18.146,-0.134,-0.709,1.0
32.304,-0.236,-0.361,1.0
28.531,-0.207,-0.466,1.0
25.558,-0.184,-0.548,1.0
22.849,-0.163,-0.61,2.0
20.589,-0.146,-0.656,2.0
18.746,-0.132,-0.694,1.0
34.424,-0.238,-0.313,0.0
29.738,-0.204,-0.423,2.0
26.627,-0.181,-0.516,2.0
23.841,-0.16,-0.587,2.0
21.523,-0.143,-0.641,3.0
19.549,-0.129,-0.683,2.0
39.616,-0.257,-0.277,4.0
31.306,-0.201,-0.38,1.0
27.908,-0.177,-0.482,1.0
24.813,-0.155,-0.559,1.0
22.487,-0.139,-0.623,2.0
20.241,-0.124,-0.664,2.0
41.418,-0.249,-0.203,4.0
33.567,-0.199,-0.338,1.0
29.313,-0.172,-0.446,2.0
26.183,-0.151,-0.536,1.0
23.434,-0.134,-0.6,2.0
21.107,-0.119,-0.649,2.0
42.125,-0.232,-0.12,6.0
39.641,-0.215,-0.317,0.0
30.529,-0.163,-0.401,1.0
27.237,-0.143,-0.501,2.0
24.426,-0.126,-0.575,3.0
22.042,-0.112,-0.632,3.0
46.788,-0.232,-0.036,22.0
39.604,-0.193,-0.235,6.0
32.794,-0.157,-0.363,1.0
28.721,-0.134,-0.468,2.0
25.722,-0.118,-0.552,1.0
22.982,-0.103,-0.612,2.0
51.14,-0.224,0.065,9.0
41.685,-0.179,-0.161,5.0
37.047,-0.155,-0.334,1.0
29.845,-0.122,-0.426,2.0
26.759,-0.107,-0.52,1.0
23.916,-0.093,-0.588,1.0
61.246,-0.23,0.204,15.0
0.0,0.0,0.0,0.0
39.131,-0.139,-0.273,5.0
31.333,-0.108,-0.383,1.0
27.94,-0.093,-0.486,1.0
24.971,-0.081,-0.563,1.0
76.481,-0.238,0.41,12.0
48.082,-0.144,0.01,15.0
40.225,-0.116,-0.198,15.0
33.263,-0.092,-0.339,1.0
29.381,-0.078,-0.451,3.0
26.246,-0.067,-0.538,2.0
79.31,-0.192,0.587,49.0
0.0,0.0,0.0,0.0
41.843,-0.091,-0.121,18.0
0.0,0.0,0.0,0.0
30.495,-0.059,-0.406,1.0
27.297,-0.049,-0.504,2.0
79.458,-0.134,0.751,151.0
61.762,-0.096,0.265,10.0
46.091,-0.066,-0.04,20.0
39.187,-0.051,-0.24,15.0
32.531,-0.038,-0.367,1.0
28.653,-0.03,-0.471,2.0
79.469,-0.074,0.91,152.0
76.438,-0.061,0.479,17.0
0.0,0.0,0.0,0.0
40.208,-0.021,-0.166,17.0
38.298,-0.015,-0.356,0.0
29.818,-0.008,-0.431,2.0
79.463,-0.01,1.068,151.0
79.421,0.0,0.657,150.0
56.123,0.007,0.174,10.0
0.0,0.0,0.0,0.0
38.469,0.016,-0.281,7.0
31.32,0.017,-0.391,1.0
79.452,0.055,1.227,153.0
79.466,0.066,0.815,151.0
75.92,0.074,0.386,13.0
47.332,0.053,-0.008,22.0
39.182,0.05,-0.209,29.0
33.218,0.047,-0.349,1.0
79.45,0.123,1.381,160.0
79.473,0.136,0.971,152.0
76.734,0.143,0.541,15.0
54.282,0.109,0.096,29.0
40.603,0.088,-0.137,16.0
38.06,0.088,-0.326,2.0
79.46,0.196,1.538,151.0
79.465,0.208,1.127,154.0
79.465,0.221,0.715,150.0
59.112,0.173,0.219,14.0
47.642,0.147,-0.069,4.0
38.492,0.125,-0.255,14.0
79.446,0.27,1.692,150.0
79.454,0.283,1.28,169.0
79.451,0.296,0.869,150.0
76.137,0.297,0.431,27.0
47.896,0.194,0.023,21.0
39.244,0.166,-0.184,42.0
59.304,0.26,1.378,112.0
59.296,0.269,1.07,107.0
59.293,0.279,0.762,120.0
59.302,0.289,0.448,112.0
54.838,0.277,0.13,54.0
44.014,0.229,-0.124,6.0
48.196,0.259,1.211,57.0
48.183,0.267,0.96,55.0
48.191,0.275,0.709,46.0
48.189,0.284,0.454,54.0
55.034,0.334,0.233,7.0
0.0,0.0,0.0,0.0
48.136,0.308,1.299,106.0
48.126,0.316,1.049,96.0
48.111,0.325,0.798,86.0
48.106,0.334,0.543,56.0
48.101,0.342,0.293,49.0
47.963,0.35,0.042,54.0
48.113,0.359,1.388,113.0
48.112,0.368,1.137,113.0
48.108,0.377,0.887,113.0
48.066,0.385,0.631,112.0
48.056,0.394,0.381,95.0
48.023,0.402,0.13,86.0
48.124,0.412,1.476,115.0
48.123,0.421,1.226,117.0
48.104,0.43,0.974,109.0
48.075,0.439,0.718,108.0
48.057,0.448,0.468,93.0
48.04,0.457,0.218,97.0
48.152,0.467,1.566,86.0
48.136,0.476,1.314,98.0
48.134,0.485,1.062,101.0
48.095,0.494,0.806,93.0
48.096,0.504,0.555,100.0
48.059,0.512,0.304,86.0
48.209,0.523,1.653,44.0
48.198,0.532,1.401,55.0
48.165,0.541,1.148,64.0
48.153,0.551,0.892,65.0
48.124,0.56,0.64,61.0
48.094,0.57,0.389,81.0
55.018,0.662,1.984,128.0
55.015,0.673,1.696,115.0
55.043,0.685,1.41,87.0
55.083,0.697,1.118,25.0
48.262,0.621,0.727,4.0
89.747,1.173,0.883,4.0
55.034,0.729,2.081,113.0
55.033,0.741,1.793,92.0
55.11,0.753,1.506,15.0
190.189,2.64,4.187,22.0
128.142,1.804,2.148,13.0
121.17,1.732,1.398,13.0
55.075,0.798,2.177,78.0
132.879,1.954,4.557,29.0
162.91,2.43,4.732,20.0
176.322,2.669,4.181,16.0
189.782,2.913,3.505,27.0
126.363,1.967,1.673,28.0
130.375,2.055,5.374,26.0
161.817,2.586,5.821,13.0
132.993,2.154,4.086,19.0
160.168,2.627,4.062,7.0
190.016,3.16,3.824,21.0
126.973,2.139,1.889,38.0
130.201,2.219,5.581,31.0
174.67,3.015,6.569,18.0
132.879,2.323,4.298,31.0
160.212,2.837,4.325,19.0
128.214,2.299,2.789,18.0
127.802,2.32,2.108,34.0
129.839,2.385,5.779,17.0
128.054,2.381,5.025,17.0
128.075,2.411,4.352,19.0
128.051,2.439,3.666,31.0
128.017,2.467,2.991,32.0
128.069,2.498,2.318,10.0
127.978,2.524,5.902,15.0
127.859,2.549,5.22,25.0
128.007,2.581,4.552,51.0
128.0,2.611,3.866,59.0
128.065,2.641,3.193,55.0
128.092,2.672,2.519,16.0
128.259,2.704,6.116,9.0
127.801,2.724,5.42,39.0
152.382,3.284,5.659,35.0
159.538,3.474,5.064,15.0
168.482,3.709,4.461,3.0
0.0,0.0,0.0,0.0
122.756,2.759,6.042,30.0
127.69,2.898,5.609,20.0
152.416,3.495,5.889,37.0
152.654,3.537,5.077,20.0
159.252,3.727,4.455,15.0
146.587,3.465,3.327,2.0
122.644,2.928,6.22,28.0
127.689,3.079,5.8,9.0
130.534,3.18,5.24,23.0
152.525,3.752,5.301,36.0
158.679,3.942,4.676,18.0
100.328,2.516,2.426,34.0
123.022,3.116,6.424,35.0
152.823,3.907,7.169,15.0
152.246,3.929,6.336,33.0
152.168,3.964,5.51,49.0
152.84,4.019,4.725,26.0
154.109,4.089,3.949,16.0
122.962,3.295,6.6,20.0
122.596,3.314,5.928,50.0
151.793,4.141,6.534,36.0
152.05,4.184,5.723,41.0
152.596,4.235,4.932,35.0
154.022,4.313,4.163,39.0
133.26,3.768,7.34,7.0
122.548,3.494,6.098,63.0
152.083,4.373,6.758,25.0
151.907,4.404,5.927,43.0
152.228,4.452,5.132,28.0
154.16,4.545,4.377,28.0
124.161,3.696,7.009,15.0
123.096,3.693,6.293,23.0
133.631,4.042,6.12,23.0
152.187,4.642,6.144,41.0
152.186,4.68,5.335,31.0
158.24,4.905,4.705,12.0
73.892,2.311,4.27,37.0
125.413,3.953,6.578,10.0
133.605,4.244,6.295,35.0
152.414,4.879,6.354,38.0
152.648,4.925,5.55,39.0
158.778,5.162,4.927,12.0
73.765,2.42,4.36,43.0
73.904,2.442,3.972,20.0
133.776,4.455,6.476,23.0
152.829,5.128,6.567,31.0
152.757,5.163,5.748,38.0
157.454,5.362,5.085,10.0
73.698,2.532,4.449,13.0
73.82,2.554,4.061,48.0
124.578,4.34,6.185,21.0
152.971,5.369,6.762,23.0
152.676,5.396,5.933,24.0
153.656,5.47,5.149,14.0
73.402,2.636,4.521,19.0
73.657,2.663,4.142,37.0
73.8,2.687,3.754,43.0
123.832,4.54,5.623,21.0
152.488,5.629,6.108,20.0
153.533,5.705,5.329,16.0
73.362,2.75,4.606,16.0
73.337,2.767,4.211,28.0
73.708,2.799,3.836,35.0
123.717,4.731,5.763,25.0
124.29,4.783,5.122,21.0
157.572,6.105,5.65,20.0
73.32,2.864,4.689,30.0
65.056,2.557,3.809,34.0
73.526,2.909,3.91,22.0
123.928,4.935,5.913,30.0
124.337,4.983,5.265,15.0
161.248,6.503,5.961,12.0
73.268,2.979,4.767,19.0
73.397,3.003,4.38,17.0
73.271,3.016,3.977,41.0
124.508,5.157,6.076,11.0
124.3,5.18,5.397,31.0
157.684,6.613,6.0,17.0
65.04,2.75,4.302,19.0
73.263,3.116,4.45,37.0
73.227,3.132,4.053,50.0
124.206,5.345,6.191,26.0
124.397,5.384,5.531,27.0
124.423,5.418,4.863,25.0
73.361,3.22,4.928,24.0
73.187,3.23,4.52,38.0
73.499,3.263,4.143,30.0
123.258,5.503,6.269,20.0
130.039,5.84,5.912,32.0
124.336,5.615,4.983,34.0
73.695,3.355,5.025,11.0
127.793,5.85,8.02,25.0
73.357,3.376,4.206,26.0
123.365,5.709,6.395,22.0
129.587,6.029,6.016,28.0
129.881,6.076,5.328,4.0
73.625,3.472,5.09,25.0
149.285,7.079,9.512,20.0
73.322,3.495,4.274,38.0
123.212,5.904,6.502,52.0
129.451,6.235,6.13,14.0
160.191,7.756,6.718,13.0
73.598,3.591,5.156,34.0
149.661,7.34,9.672,17.0
73.364,3.617,4.343,34.0
123.36,6.112,6.619,27.0
129.496,6.45,6.247,14.0
129.525,6.484,5.547,8.0
73.733,3.72,5.23,21.0
150.282,7.618,9.842,25.0
127.074,6.472,7.629,26.0
149.978,7.677,8.175,27.0
154.607,7.954,7.588,14.0
132.028,6.826,5.764,9.0
76.147,3.968,5.465,8.0
132.432,6.933,8.782,7.0
127.682,6.715,7.772,24.0
150.241,7.939,8.311,21.0
33.452,1.776,1.668,88.0
162.412,8.665,7.219,14.0
71.563,3.848,5.193,23.0
124.618,6.73,8.362,31.0
127.97,6.943,7.889,28.0
127.288,6.937,7.14,27.0
33.436,1.83,1.693,45.0
162.314,8.929,7.336,31.0
71.754,3.977,5.261,31.0
71.924,4.004,4.88,14.0
127.89,7.152,7.979,23.0
127.216,7.144,7.228,29.0
33.422,1.885,1.716,17.0
33.483,1.897,1.537,2.0
71.496,4.083,5.294,32.0
71.827,4.119,4.925,13.0
128.054,7.376,8.078,27.0
127.254,7.36,7.319,35.0
33.416,1.94,1.739,5.0
161.987,9.449,7.546,41.0
71.68,4.213,5.355,36.0
124.965,7.374,8.651,31.0
67.039,3.972,4.273,7.0
128.215,7.627,7.457,23.0
128.404,7.671,6.765,32.0
127.66,7.659,6.028,21.0
78.587,4.749,5.921,42.0
67.102,4.071,4.687,12.0
71.139,4.334,4.578,10.0
128.57,7.864,7.556,19.0
128.484,7.889,6.846,29.0
127.752,7.876,6.107,24.0
78.623,4.883,5.97,42.0
67.221,4.19,4.734,28.0
67.086,4.198,4.355,33.0
67.112,4.215,3.981,33.0
128.387,8.096,6.912,26.0
158.038,10.004,7.641,33.0
78.572,5.01,6.009,13.0
67.3,4.307,4.776,34.0
67.107,4.311,4.392,42.0
67.002,4.32,4.01,43.0
128.135,8.293,6.964,22.0
33.425,2.171,1.633,9.0
65.874,4.31,5.071,20.0
67.251,4.416,4.805,22.0
66.897,4.408,4.411,34.0
67.274,4.449,4.058,35.0
128.502,8.529,7.045,29.0
33.405,2.225,1.647,38.0
0.0,0.0,0.0,0.0
67.154,4.521,4.829,43.0
70.899,4.789,4.707,11.0
67.338,4.564,4.091,17.0
128.672,8.75,7.109,13.0
33.397,2.279,1.661,48.0
66.004,4.536,5.139,42.0
71.139,4.905,5.144,12.0
67.639,4.679,4.517,33.0
67.194,4.663,4.109,2.0
128.316,8.934,7.138,8.0
33.395,2.332,1.673,57.0
64.665,4.549,5.058,42.0
67.168,4.74,4.882,30.0
67.536,4.781,4.534,40.0
157.546,11.188,9.689,21.0
157.598,11.228,8.821,20.0
33.373,2.385,1.683,26.0
64.605,4.649,5.075,43.0
67.49,4.872,4.927,22.0
67.537,4.889,4.555,34.0
70.801,5.141,4.376,7.0
157.11,11.445,8.84,25.0
157.076,11.477,7.968,12.0
63.984,4.708,5.045,9.0
67.581,4.986,4.952,12.0
70.723,5.234,4.789,47.0
70.868,5.26,4.398,4.0
133.372,9.929,7.539,13.0
133.214,9.947,6.791,12.0
64.558,4.854,5.106,32.0
67.851,5.115,4.988,24.0
70.832,5.355,4.813,15.0
131.335,9.959,8.181,23.0
131.2,9.978,7.444,11.0
131.076,9.997,6.71,9.0
0.0,0.0,0.0,0.0
67.85,5.224,5.001,20.0
67.586,5.217,4.605,26.0
129.309,10.01,8.079,15.0
129.187,10.029,7.352,10.0
129.082,10.05,6.629,10.0
63.562,4.981,5.051,25.0
65.438,5.141,4.834,15.0
67.502,5.317,4.609,19.0
74.54,5.888,4.667,24.0
74.593,5.908,4.255,22.0
127.466,10.124,6.563,16.0
66.244,5.297,5.271,14.0
65.458,5.246,4.843,16.0
74.6,5.995,5.102,31.0
74.485,6.0,4.672,22.0
74.529,6.02,4.258,23.0
74.573,6.039,3.846,26.0
66.279,5.402,5.279,41.0
65.491,5.35,4.85,20.0
75.869,6.214,5.194,37.0
74.504,6.117,4.677,20.0
74.535,6.135,4.263,20.0
74.562,6.153,3.848,28.0
66.595,5.53,5.307,32.0
65.612,5.462,4.86,22.0
75.83,6.327,5.193,34.0
75.945,6.351,4.768,12.0
121.734,10.205,6.962,9.0
103.248,8.676,5.329,8.0
66.433,5.617,5.294,22.0
65.978,5.591,4.888,24.0
74.324,6.313,5.088,52.0
75.874,6.459,4.762,19.0
120.815,10.31,6.907,28.0
103.189,8.827,5.323,19.0
66.678,5.739,5.311,44.0
72.87,6.285,5.394,9.0
72.59,6.275,4.966,11.0
75.489,6.54,4.733,9.0
120.822,10.491,6.898,14.0
120.846,10.518,6.224,15.0
66.077,5.787,5.257,25.0
66.342,5.822,4.905,42.0
74.195,6.524,5.068,11.0
75.753,6.675,4.741,20.0
156.156,13.79,8.898,3.0
157.291,13.92,8.082,5.0
66.371,5.909,5.272,13.0
67.309,6.004,4.967,8.0
66.117,5.909,4.507,12.0
75.882,6.796,4.739,12.0
103.258,9.267,5.868,6.0
115.268,10.366,5.905,7.0
66.235,5.992,5.251,37.0
66.244,6.003,4.878,42.0
65.876,5.981,4.48,10.0
76.095,6.923,4.738,22.0
114.726,10.457,6.499,28.0
114.736,10.479,5.856,21.0
66.041,6.067,5.222,15.0
66.124,6.085,4.855,13.0
13.826,1.274,0.937,6.0
13.824,1.277,0.857,6.0
13.861,1.282,0.782,0.0
13.84,1.283,0.703,3.0
13.828,1.289,1.09,15.0
13.818,1.291,1.011,14.0
13.812,1.292,0.932,20.0
13.814,1.295,0.853,24.0
13.825,1.298,0.776,13.0
13.817,1.3,0.698,20.0
13.81,1.307,1.084,30.0
13.815,1.309,1.007,33.0
13.804,1.31,0.928,34.0
13.808,1.313,0.849,36.0
13.809,1.315,0.771,30.0
13.803,1.317,0.693,32.0
13.809,1.325,1.08,32.0
13.787,1.325,1.0,26.0
13.786,1.327,0.922,105.0
13.797,1.33,0.843,40.0
13.8,1.333,0.766,38.0
13.788,1.334,0.687,34.0
13.79,1.342,1.074,35.0
13.774,1.342,0.994,36.0
13.78,1.345,0.917,132.0
13.78,1.347,0.837,39.0
13.787,1.35,0.76,69.0
13.782,1.352,0.682,38.0
13.772,1.358,1.067,41.0
13.761,1.359,0.988,36.0
13.769,1.361,0.91,110.0
13.771,1.364,0.831,51.0
13.781,1.367,0.754,95.0
13.765,1.367,0.675,37.0
13.765,1.375,1.06,41.0
13.752,1.375,0.981,34.0
13.755,1.377,0.903,127.0
13.765,1.38,0.825,103.0
13.782,1.384,0.748,99.0
13.766,1.384,0.669,38.0
13.761,1.391,1.054,40.0
13.757,1.393,0.975,56.0
13.754,1.394,0.897,150.0
13.766,1.397,0.818,150.0
13.772,1.4,0.74,100.0
13.764,1.401,0.662,38.0
13.754,1.407,1.046,61.0
13.753,1.409,0.968,148.0
13.747,1.41,0.889,149.0
13.763,1.414,0.811,150.0
13.769,1.416,0.733,105.0
13.758,1.417,0.655,38.0
13.762,1.424,1.039,41.0
13.759,1.426,0.961,150.0
13.75,1.427,0.882,150.0
13.757,1.429,0.803,150.0
13.775,1.433,0.726,104.0
13.763,1.433,0.647,37.0
13.764,1.441,1.032,59.0
13.761,1.442,0.953,150.0
13.754,1.443,0.874,150.0
13.759,1.445,0.795,126.0
13.773,1.448,0.718,97.0
13.761,1.449,0.639,36.0
13.767,1.456,1.024,98.0
13.76,1.457,0.945,150.0
13.761,1.459,0.866,150.0
13.766,1.461,0.787,134.0
13.776,1.464,0.709,96.0
13.771,1.465,0.631,35.0
13.771,1.472,1.015,119.0
13.763,1.472,0.936,150.0
13.756,1.473,0.857,106.0
13.765,1.476,0.778,102.0
13.773,1.478,0.7,60.0
13.767,1.479,0.622,33.0
13.768,1.486,1.006,82.0
13.758,1.486,0.927,150.0
13.738,1.485,0.847,37.0
13.763,1.49,0.769,80.0
13.773,1.492,0.691,38.0
13.784,1.495,0.613,32.0
13.776,1.501,0.997,59.0
13.756,1.5,0.917,150.0
13.751,1.501,0.838,98.0
13.772,1.505,0.759,49.0
13.79,1.508,0.682,35.0
13.791,1.51,0.603,29.0
13.777,1.515,0.987,38.0
13.752,1.513,0.906,150.0
13.759,1.515,0.828,127.0
13.79,1.52,0.75,36.0
13.806,1.523,0.672,30.0
13.809,1.525,0.594,26.0
13.779,1.528,0.976,34.0
13.753,1.526,0.896,135.0
13.771,1.529,0.818,100.0
13.793,1.533,0.74,31.0
13.809,1.536,0.662,23.0
13.821,1.539,0.584,14.0
13.785,1.541,0.966,28.0
13.764,1.54,0.886,64.0
13.772,1.542,0.808,37.0
13.814,1.548,0.73,13.0
13.812,1.549,0.651,7.0
35.866,4.026,1.487,90.0
13.768,1.551,0.954,16.0
13.758,1.551,0.874,29.0
36.386,4.106,2.105,7.0
35.927,4.057,1.87,13.0
35.843,4.05,1.66,46.0
33.143,3.748,1.346,4.0
13.805,1.567,0.945,9.0
13.748,1.561,0.862,17.0
13.793,1.567,0.786,7.0
10.002,1.137,0.512,5.0
35.847,4.08,1.63,79.0
32.975,3.756,1.311,3.0
13.777,1.575,0.931,5.0
13.78,1.576,0.852,9.0
9.986,1.142,0.56,13.0
9.99,1.144,0.502,13.0
35.806,4.103,1.597,9.0
33.064,3.792,1.286,4.0
10.007,1.151,0.667,21.0
10.005,1.152,0.61,46.0
10.004,1.152,0.552,21.0
9.995,1.152,0.493,18.0
10.002,1.153,0.437,18.0
10.004,1.154,0.379,16.0
9.999,1.158,0.657,68.0
10.001,1.158,0.6,121.0
10.005,1.159,0.543,95.0
9.999,1.159,0.484,59.0
10.0,1.16,0.427,47.0
10.002,1.161,0.37,20.0
10.003,1.165,0.648,78.0
9.995,1.164,0.59,145.0
9.994,1.165,0.533,130.0
9.995,1.165,0.475,82.0
9.997,1.166,0.418,70.0
9.999,1.167,0.361,33.0
9.987,1.169,0.638,90.0
9.999,1.171,0.581,143.0
9.987,1.17,0.523,133.0
9.986,1.17,0.465,90.0
9.994,1.172,0.408,78.0
9.995,1.173,0.351,40.0
9.981,1.174,0.627,75.0
9.991,1.176,0.571,150.0
9.982,1.175,0.513,124.0
9.98,1.175,0.455,84.0
9.984,1.176,0.398,80.0
9.986,1.177,0.34,37.0
9.975,1.179,0.617,85.0
9.984,1.18,0.56,150.0
9.982,1.181,0.503,140.0
9.977,1.18,0.444,92.0
9.983,1.182,0.388,71.0
9.985,1.182,0.33,36.0
9.98,1.185,0.607,88.0
9.983,1.185,0.55,148.0
9.975,1.185,0.492,150.0
9.978,1.185,0.434,100.0
9.982,1.186,0.377,82.0
9.981,1.187,0.32,44.0
9.975,1.189,0.597,87.0
9.978,1.189,0.539,150.0
9.972,1.189,0.482,150.0
9.964,1.188,0.423,105.0
9.976,1.19,0.366,100.0
9.979,1.191,0.31,48.0
9.974,1.193,0.586,99.0
9.976,1.193,0.529,147.0
9.979,1.194,0.472,150.0
9.97,1.193,0.413,107.0
9.974,1.194,0.356,99.0
9.979,1.195,0.299,52.0
9.971,1.196,0.575,101.0
9.978,1.197,0.518,150.0
9.976,1.197,0.461,150.0
9.968,1.196,0.402,103.0
9.975,1.197,0.345,103.0
9.973,1.198,0.288,48.0
9.974,1.2,0.564,102.0
9.976,1.2,0.507,150.0
9.976,1.2,0.45,150.0
9.972,1.2,0.391,105.0
9.976,1.201,0.334,103.0
9.973,1.201,0.277,60.0
9.973,1.203,0.553,106.0
9.971,1.202,0.496,150.0
9.97,1.202,0.439,150.0
9.966,1.202,0.38,119.0
9.975,1.203,0.323,108.0
9.969,1.203,0.266,60.0
9.97,1.205,0.542,110.0
9.972,1.205,0.485,150.0
9.973,1.205,0.427,150.0
9.969,1.205,0.369,125.0
9.973,1.205,0.312,107.0
9.971,1.205,0.255,62.0
9.975,1.207,0.531,115.0
9.975,1.207,0.474,150.0
9.979,1.208,0.416,150.0
9.969,1.206,0.358,124.0
9.972,1.207,0.301,111.0
9.973,1.207,0.244,67.0
9.969,1.208,0.519,107.0
9.968,1.208,0.462,150.0
9.973,1.208,0.405,150.0
9.966,1.208,0.346,115.0
9.969,1.208,0.289,111.0
9.97,1.208,0.232,58.0
9.969,1.209,0.508,102.0
9.966,1.209,0.45,150.0
9.963,1.208,0.393,150.0
9.97,1.209,0.335,123.0
9.975,1.209,0.278,112.0
9.97,1.209,0.221,63.0
9.97,1.21,0.496,103.0
9.973,1.21,0.439,150.0
9.974,1.21,0.382,150.0
9.964,1.209,0.323,125.0
9.974,1.21,0.266,105.0
9.972,1.209,0.209,69.0
9.97,1.21,0.485,104.0
9.969,1.21,0.427,150.0
9.974,1.21,0.37,150.0
9.97,1.209,0.312,125.0
9.972,1.209,0.255,108.0
9.978,1.21,0.198,60.0
9.976,1.211,0.473,115.0
9.97,1.209,0.415,150.0
9.974,1.21,0.358,150.0
9.971,1.209,0.3,116.0
9.97,1.209,0.243,117.0
9.969,1.208,0.186,56.0
9.97,1.209,0.461,116.0
9.972,1.209,0.404,150.0
9.975,1.209,0.347,150.0
9.972,1.208,0.288,115.0
9.974,1.208,0.231,110.0
9.971,1.208,0.174,64.0
9.97,1.208,0.449,115.0
9.973,1.208,0.392,150.0
9.98,1.208,0.335,150.0
9.969,1.206,0.276,119.0
9.978,1.207,0.219,103.0
9.97,1.206,0.162,58.0
9.966,1.206,0.437,110.0
9.967,1.205,0.38,150.0
9.98,1.206,0.323,150.0
9.967,1.204,0.264,113.0
9.975,1.205,0.207,105.0
9.965,1.203,0.15,53.0
9.97,1.204,0.425,103.0
9.977,1.204,0.368,150.0
9.975,1.203,0.311,150.0
9.964,1.202,0.253,93.0
9.974,1.202,0.196,100.0
9.977,1.202,0.138,51.0
9.971,1.201,0.414,95.0
9.973,1.201,0.356,150.0
9.973,1.2,0.299,150.0
9.966,1.199,0.241,97.0
9.974,1.2,0.184,103.0
9.978,1.2,0.127,47.0
9.976,1.199,0.402,96.0
9.974,1.198,0.345,150.0
9.976,1.198,0.287,150.0
9.969,1.196,0.229,101.0
9.975,1.196,0.172,94.0
9.985,1.197,0.115,48.0
9.975,1.195,0.39,99.0
9.974,1.195,0.333,150.0
9.98,1.195,0.275,150.0
9.974,1.193,0.217,99.0
9.985,1.194,0.16,98.0
9.98,1.193,0.103,39.0
9.975,1.191,0.378,93.0
9.981,1.191,0.321,150.0
9.98,1.191,0.264,141.0
9.978,1.189,0.205,84.0
9.986,1.19,0.148,73.0
9.987,1.189,0.091,39.0
9.985,1.188,0.366,81.0
9.984,1.187,0.309,140.0
9.98,1.186,0.252,126.0
9.981,1.185,0.194,69.0
9.992,1.186,0.137,72.0
9.986,1.185,0.079,40.0
9.982,1.183,0.355,66.0
9.991,1.183,0.298,143.0
9.99,1.182,0.24,115.0
9.987,1.181,0.182,67.0
9.994,1.181,0.125,71.0
9.99,1.18,0.068,38.0
9.989,1.178,0.343,76.0
9.997,1.178,0.286,146.0
9.992,1.177,0.229,124.0
9.987,1.175,0.17,70.0
9.999,1.176,0.113,63.0
9.995,1.175,0.056,27.0
10.001,1.174,0.332,81.0
10.006,1.174,0.275,134.0
10.0,1.172,0.217,110.0
9.995,1.17,0.159,57.0
10.006,1.171,0.102,56.0
10.007,1.17,0.044,20.0
10.006,1.168,0.32,74.0
10.007,1.167,0.263,100.0
10.007,1.166,0.206,77.0
10.008,1.165,0.147,20.0
10.006,1.164,0.09,18.0
32.92,3.829,0.108,3.0
33.924,3.939,1.047,3.0
10.008,1.161,0.251,20.0
10.001,1.159,0.194,17.0
25.331,2.933,0.344,1.0
33.557,3.882,0.264,10.0
33.883,3.917,0.072,42.0
25.56,2.949,0.759,2.0
25.517,2.941,0.612,3.0
25.435,2.929,0.464,3.0
25.346,2.916,0.315,3.0
33.833,3.889,0.227,9.0
33.912,3.895,0.034,150.0
25.526,2.926,0.729,4.0
25.519,2.922,0.583,9.0
25.559,2.924,0.438,4.0
25.423,2.905,0.287,4.0
33.913,3.872,0.19,150.0
39.827,4.544,-0.004,18.0
25.516,2.904,0.7,16.0
25.506,2.9,0.554,23.0
25.548,2.901,0.408,10.0
25.488,2.892,0.259,6.0
41.514,4.706,0.185,16.0
39.14,4.432,-0.048,19.0
25.519,2.883,0.671,24.0
25.528,2.88,0.525,21.0
25.615,2.887,0.381,4.0
25.518,2.873,0.231,2.0
41.292,4.644,0.138,11.0
13.855,1.557,-0.032,7.0
25.534,2.862,0.644,4.0
13.806,1.545,0.269,11.0
25.71,2.875,0.354,2.0
13.811,1.542,0.11,5.0
13.864,1.546,0.031,11.0
13.846,1.543,-0.047,15.0
13.836,1.538,0.333,16.0
13.806,1.532,0.254,26.0
13.819,1.532,0.175,15.0
13.817,1.53,0.095,15.0
13.82,1.528,0.016,19.0
13.826,1.527,-0.062,20.0
13.815,1.522,0.318,31.0
13.804,1.519,0.239,33.0
13.797,1.516,0.16,27.0
13.792,1.513,0.08,25.0
13.809,1.513,0.001,27.0
13.806,1.511,-0.076,23.0
13.8,1.506,0.303,34.0
13.789,1.503,0.224,38.0
13.795,1.501,0.146,37.0
13.791,1.499,0.065,29.0
13.801,1.498,-0.012,31.0
13.783,1.495,-0.091,26.0
13.786,1.49,0.288,36.0
13.792,1.488,0.21,51.0
13.789,1.486,0.131,39.0
13.787,1.484,0.051,36.0
13.793,1.482,-0.026,33.0
13.776,1.479,-0.105,32.0
13.782,1.474,0.274,38.0
13.772,1.471,0.195,51.0
13.787,1.47,0.117,105.0
13.771,1.467,0.037,37.0
13.774,1.465,-0.04,35.0
13.77,1.463,-0.119,32.0
13.775,1.458,0.26,38.0
13.772,1.455,0.182,43.0
13.784,1.454,0.103,129.0
13.776,1.451,0.023,40.0
13.772,1.449,-0.054,38.0
13.766,1.446,-0.132,35.0
13.765,1.441,0.247,39.0
13.77,1.439,0.168,39.0
13.78,1.438,0.09,118.0
13.777,1.435,0.01,52.0
13.769,1.432,-0.067,41.0
13.753,1.428,-0.145,35.0
13.768,1.424,0.233,53.0
13.772,1.422,0.155,106.0
13.775,1.42,0.077,140.0
13.777,1.418,-0.002,46.0
13.767,1.415,-0.08,40.0
13.761,1.412,-0.158,35.0
13.773,1.407,0.22,57.0
13.779,1.406,0.142,142.0
13.782,1.403,0.064,150.0
13.775,1.401,-0.015,40.0
13.774,1.398,-0.093,38.0
13.773,1.396,-0.171,34.0
13.777,1.39,0.208,58.0
13.793,1.389,0.13,150.0
13.788,1.386,0.051,150.0
13.781,1.383,-0.027,42.0
13.773,1.38,-0.106,37.0
13.773,1.377,-0.184,34.0
13.778,1.372,0.195,49.0
13.795,1.371,0.117,150.0
13.796,1.369,0.039,148.0
13.786,1.365,-0.04,56.0
13.792,1.363,-0.118,38.0
13.782,1.36,-0.196,35.0
13.786,1.354,0.183,40.0
13.803,1.353,0.105,132.0
13.798,1.35,0.027,126.0
13.791,1.347,-0.051,39.0
13.794,1.344,-0.13,38.0
13.79,1.341,-0.208,30.0
13.798,1.336,0.172,37.0
13.814,1.335,0.094,94.0
13.799,1.331,0.016,50.0
13.804,1.328,-0.063,36.0
13.812,1.327,-0.141,36.0
13.812,1.324,-0.219,34.0
13.827,1.319,0.161,36.0
13.832,1.317,0.083,47.0
13.831,1.314,0.004,36.0
13.826,1.311,-0.074,33.0
13.822,1.308,-0.152,33.0
13.816,1.304,-0.231,30.0
13.849,1.301,0.15,31.0
13.846,1.298,0.072,31.0
13.841,1.294,-0.005,30.0
13.839,1.291,-0.085,27.0
13.842,1.289,-0.163,30.0
13.838,1.286,-0.242,27.0
13.862,1.281,0.14,14.0
13.873,1.279,0.061,16.0
13.862,1.275,-0.016,18.0
13.854,1.272,-0.096,21.0
13.871,1.27,-0.174,26.0
13.844,1.265,-0.252,22.0
65.263,5.934,0.611,18.0
13.9,1.26,0.051,4.0
0.0,0.0,0.0,0.0
13.874,1.252,-0.106,8.0
13.887,1.25,-0.184,13.0
13.884,1.247,-0.263,9.0
65.194,5.826,0.563,17.0
46.636,4.157,0.14,12.0
0.0,0.0,0.0,0.0
34.7,3.078,-0.29,10.0
29.446,2.605,-0.412,1.0
21.584,1.905,-0.424,4.0
57.958,5.088,0.461,20.0
46.32,4.055,0.108,20.0
38.296,3.344,-0.126,2.0
34.562,3.01,-0.312,7.0
24.654,2.142,-0.361,2.0
21.309,1.847,-0.432,4.0
34.26,2.952,0.25,0.0
42.017,3.61,0.071,16.0
36.108,3.094,-0.142,19.0
0.0,0.0,0.0,0.0
24.57,2.094,-0.376,5.0
21.005,1.786,-0.439,4.0
56.733,4.794,0.379,32.0
41.652,3.51,0.044,16.0
35.219,2.959,-0.16,11.0
31.698,2.656,-0.326,1.0
24.251,2.026,-0.385,5.0
20.807,1.734,-0.448,4.0
0.0,0.0,0.0,0.0
41.699,3.443,0.019,25.0
35.424,2.917,-0.182,19.0
31.133,2.556,-0.338,1.0
23.902,1.957,-0.394,5.0
20.586,1.681,-0.455,4.0
54.669,4.435,0.302,30.0
41.381,3.346,-0.003,46.0
35.199,2.837,-0.2,23.0
30.828,2.478,-0.352,1.0
23.436,1.878,-0.399,5.0
20.44,1.633,-0.462,3.0
54.167,4.299,0.271,29.0
41.177,3.258,-0.025,46.0
35.247,2.78,-0.219,11.0
30.471,2.396,-0.363,1.0
22.997,1.802,-0.403,4.0
20.227,1.58,-0.468,3.0
0.0,0.0,0.0,0.0
41.163,3.184,-0.045,36.0
35.035,2.701,-0.234,11.0
30.235,2.324,-0.375,2.0
22.734,1.742,-0.409,4.0
20.09,1.534,-0.474,3.0
53.79,4.079,0.217,8.0
41.133,3.108,-0.064,3.0
34.973,2.633,-0.25,10.0
29.942,2.247,-0.384,1.0
22.5,1.683,-0.415,4.0
19.916,1.485,-0.478,3.0
47.88,3.544,0.172,19.0
0.0,0.0,0.0,0.0
34.84,2.561,-0.263,11.0
29.734,2.178,-0.394,2.0
22.343,1.631,-0.421,4.0
19.829,1.442,-0.484,3.0
47.445,3.426,0.152,22.0
38.712,2.785,-0.091,16.0
35.024,2.511,-0.278,11.0
29.594,2.114,-0.403,2.0
22.1,1.572,-0.424,4.0
19.646,1.393,-0.487,3.0
46.694,3.286,0.133,22.0
38.776,2.718,-0.105,3.0
35.066,2.448,-0.291,8.0
29.393,2.044,-0.411,1.0
21.982,1.523,-0.43,4.0
19.544,1.349,-0.491,3.0
46.127,3.158,0.116,21.0
36.508,2.489,-0.111,27.0
35.104,2.384,-0.302,6.0
29.223,1.977,-0.417,1.0
21.853,1.472,-0.434,4.0
19.476,1.307,-0.495,3.0
0.0,0.0,0.0,0.0
36.506,2.42,-0.121,35.0
0.0,0.0,0.0,0.0
25.122,1.652,-0.366,1.0
21.701,1.421,-0.436,4.0
19.402,1.265,-0.498,3.0
42.959,2.779,0.085,4.0
36.353,2.341,-0.129,31.0
35.172,2.255,-0.321,2.0
28.99,1.851,-0.429,1.0
21.656,1.376,-0.44,4.0
19.41,1.228,-0.503,3.0
33.453,2.1,0.059,2.0
33.18,2.073,-0.125,7.0
35.177,2.188,-0.328,1.0
28.929,1.791,-0.433,1.0
21.538,1.327,-0.442,4.0
19.378,1.189,-0.506,3.0
45.616,2.775,0.072,4.0
36.209,2.192,-0.143,32.0
35.218,2.122,-0.335,1.0
28.77,1.725,-0.436,1.0
21.616,1.29,-0.447,4.0
19.272,1.145,-0.506,3.0
45.916,2.704,0.065,21.0
36.245,2.124,-0.148,34.0
32.945,1.921,-0.317,1.0
28.805,1.671,-0.44,1.0
21.561,1.244,-0.449,4.0
19.307,1.109,-0.509,3.0
43.247,2.462,0.057,18.0
36.377,2.06,-0.152,22.0
32.741,1.845,-0.318,1.0
28.777,1.613,-0.442,1.0
21.53,1.2,-0.45,4.0
19.332,1.072,-0.511,3.0
0.0,0.0,0.0,0.0
35.99,1.966,-0.153,12.0
35.364,1.922,-0.346,0.0
28.757,1.554,-0.443,1.0
21.644,1.164,-0.453,4.0
19.301,1.032,-0.511,3.0
0.0,0.0,0.0,0.0
36.485,1.921,-0.156,33.0
32.697,1.712,-0.321,1.0
28.684,1.494,-0.442,1.0
21.656,1.121,-0.453,4.0
19.38,0.998,-0.513,4.0
0.0,0.0,0.0,0.0
36.425,1.846,-0.156,43.0
32.63,1.644,-0.319,1.0
28.674,1.436,-0.442,1.0
21.693,1.079,-0.454,4.0
19.502,0.964,-0.515,3.0
0.0,0.0,0.0,0.0
36.446,1.774,-0.154,39.0
32.772,1.585,-0.319,1.0
28.763,1.383,-0.441,1.0
21.745,1.038,-0.453,4.0
19.442,0.922,-0.512,3.0
0.0,0.0,0.0,0.0
36.583,1.706,-0.151,42.0
32.661,1.513,-0.315,1.0
28.764,1.324,-0.438,2.0
21.933,1.003,-0.455,4.0
19.56,0.888,-0.513,3.0
0.0,0.0,0.0,0.0
39.781,1.774,-0.16,3.0
35.675,1.58,-0.339,0.0
28.829,1.268,-0.435,1.0
21.636,0.945,-0.446,8.0
19.703,0.854,-0.514,3.0
47.759,2.048,0.077,26.0
39.898,1.699,-0.154,4.0
35.791,1.513,-0.334,1.0
29.001,1.216,-0.433,2.0
21.909,0.912,-0.447,4.0
19.754,0.816,-0.511,3.0
48.138,1.967,0.086,25.0
39.775,1.612,-0.146,36.0
0.0,0.0,0.0,0.0
29.109,1.162,-0.428,2.0
22.512,0.891,-0.455,4.0
19.839,0.779,-0.509,3.0
48.554,1.884,0.099,24.0
39.648,1.526,-0.136,52.0
0.0,0.0,0.0,0.0
29.277,1.108,-0.423,2.0
22.776,0.855,-0.454,4.0
20.053,0.746,-0.509,3.0
48.819,1.794,0.112,23.0
39.746,1.448,-0.125,50.0
35.904,1.296,-0.309,5.0
29.452,1.053,-0.417,2.0
23.154,0.821,-0.455,5.0
20.283,0.712,-0.509,3.0
49.106,1.703,0.128,23.0
39.716,1.365,-0.112,55.0
36.075,1.228,-0.299,7.0
29.666,1.0,-0.41,2.0
23.516,0.785,-0.454,5.0
20.371,0.674,-0.504,3.0
54.201,1.769,0.16,21.0
39.932,1.291,-0.099,42.0
36.219,1.159,-0.287,7.0
29.977,0.949,-0.404,2.0
23.834,0.747,-0.451,5.0
20.567,0.638,-0.501,4.0
54.236,1.658,0.181,29.0
40.225,1.216,-0.084,34.0
36.35,1.087,-0.273,8.0
30.15,0.892,-0.394,2.0
23.812,0.697,-0.441,1.0
20.814,0.602,-0.498,4.0
55.06,1.57,0.207,24.0
40.269,1.135,-0.066,15.0
36.522,1.018,-0.259,12.0
30.576,0.842,-0.386,2.0
27.262,0.742,-0.492,1.0
20.994,0.564,-0.493,4.0
58.497,1.547,0.248,17.0
42.843,1.118,-0.05,17.0
36.825,0.949,-0.243,13.0
30.913,0.787,-0.375,2.0
27.446,0.689,-0.482,2.0
21.213,0.526,-0.487,4.0
59.102,1.44,0.28,34.0
0.0,0.0,0.0,0.0
37.043,0.878,-0.225,27.0
31.362,0.733,-0.364,2.0
27.778,0.641,-0.473,1.0
21.499,0.489,-0.483,4.0
60.228,1.345,0.318,35.0
0.0,0.0,0.0,0.0
37.311,0.809,-0.207,38.0
31.841,0.68,-0.352,1.0
28.106,0.591,-0.463,1.0
21.976,0.455,-0.481,4.0
61.259,1.244,0.358,36.0
47.047,0.94,0.02,23.0
37.684,0.74,-0.187,42.0
32.703,0.631,-0.342,1.0
28.613,0.543,-0.454,1.0
22.171,0.414,-0.471,4.0
74.788,1.366,0.483,11.0
47.693,0.855,0.051,28.0
38.193,0.672,-0.165,45.0
33.281,0.575,-0.327,1.0
29.035,0.492,-0.442,2.0
22.482,0.373,-0.463,1.0
75.063,1.218,0.534,12.0
47.961,0.763,0.082,37.0
38.773,0.603,-0.142,49.0
36.994,0.564,-0.339,0.0
29.395,0.438,-0.427,2.0
26.314,0.384,-0.524,2.0
0.0,0.0,0.0,0.0
47.994,0.666,0.115,58.0
39.291,0.533,-0.116,37.0
37.029,0.49,-0.313,3.0
29.87,0.385,-0.413,2.0
26.659,0.335,-0.512,2.0
48.089,0.586,0.41,80.0
48.013,0.569,0.151,83.0
39.841,0.459,-0.088,15.0
37.319,0.418,-0.287,6.0
30.281,0.329,-0.396,1.0
27.019,0.284,-0.498,2.0
48.073,0.488,0.447,99.0
48.027,0.472,0.188,95.0
44.108,0.419,-0.063,18.0
37.624,0.345,-0.26,10.0
30.947,0.274,-0.38,1.0
27.414,0.234,-0.484,1.0
48.081,0.393,0.485,107.0
48.071,0.377,0.227,54.0
0.0,0.0,0.0,0.0
38.093,0.274,-0.232,14.0
31.691,0.217,-0.363,1.0
28.068,0.183,-0.472,1.0
48.207,0.297,0.527,50.0
55.058,0.322,0.306,66.0
46.962,0.259,0.01,29.0
38.585,0.201,-0.202,31.0
32.676,0.16,-0.346,1.0
28.603,0.13,-0.456,2.0
79.444,0.335,0.937,150.0
76.305,0.297,0.492,34.0
47.885,0.171,0.052,21.0
39.159,0.127,-0.17,43.0
33.346,0.097,-0.323,0.0
29.236,0.076,-0.44,2.0
79.463,0.181,1.009,151.0
76.532,0.149,0.563,18.0
0.0,0.0,0.0,0.0
40.229,0.053,-0.138,16.0
37.987,0.037,-0.333,0.0
29.719,0.019,-0.419,2.0
79.463,0.028,1.083,151.0
79.362,0.002,0.658,59.0
55.859,-0.015,0.164,29.0
0.0,0.0,0.0,0.0
38.323,-0.035,-0.299,2.0
30.244,-0.038,-0.397,1.0
79.467,-0.125,1.161,151.0
79.457,-0.151,0.737,150.0
61.557,-0.136,0.242,16.0
45.645,-0.116,-0.067,11.0
39.012,-0.111,-0.265,4.0
31.043,-0.098,-0.376,1.0
79.451,-0.277,1.241,154.0
79.445,-0.302,0.817,150.0
76.567,-0.315,0.379,7.0
46.776,-0.207,-0.021,22.0
39.653,-0.188,-0.229,6.0
32.047,-0.162,-0.356,1.0
79.453,-0.425,1.322,163.0
79.45,-0.451,0.9,190.0
76.883,-0.46,0.461,12.0
51.776,-0.326,0.03,8.0
0.0,0.0,0.0,0.0
33.279,-0.23,-0.334,1.0
79.446,-0.572,1.407,165.0
79.452,-0.597,0.984,189.0
0.0,0.0,0.0,0.0
51.707,-0.421,0.086,1.0
50.505,-0.427,-0.184,5.0
34.637,-0.303,-0.309,0.0
79.442,-0.719,1.494,176.0
79.447,-0.743,1.072,181.0
79.416,-0.767,0.65,149.0
58.084,-0.579,0.161,3.0
50.848,-0.522,-0.128,2.0
38.514,-0.408,-0.301,5.0
79.437,-0.864,1.584,177.0
79.421,-0.887,1.162,255.0
79.451,-0.912,0.741,7.0
0.0,0.0,0.0,0.0
54.54,-0.659,-0.074,4.0
42.13,-0.522,-0.28,2.0
86.931,-1.101,1.834,24.0
86.947,-1.127,1.373,150.0
123.449,-1.638,1.296,12.0
78.981,-1.071,0.403,1.0
60.747,-0.842,-0.011,1.0
42.249,-0.598,-0.231,0.0
187.127,-2.702,4.17,18.0
187.122,-2.757,3.179,34.0
123.78,-1.861,1.448,4.0
91.562,-1.403,0.577,7.0
248.457,-3.884,0.254,42.0
46.391,-0.739,-0.197,0.0
248.363,-4.02,5.837,70.0
0.0,0.0,0.0,0.0
149.439,-2.507,1.932,4.0
40.247,-0.687,0.303,45.0
40.282,-0.699,0.091,67.0
40.314,-0.712,-0.121,62.0
40.234,-0.72,0.995,54.0
40.187,-0.731,0.782,64.0
40.263,-0.744,0.57,43.0
40.222,-0.755,0.354,59.0
40.289,-0.768,0.142,43.0
53.585,-1.037,-0.093,1.0
40.276,-0.789,1.048,42.0
40.217,-0.8,0.834,49.0
40.221,-0.811,0.622,53.0
40.262,-0.824,0.406,33.0
0.0,0.0,0.0,0.0
0.0,0.0,0.0,0.0
40.223,-0.856,1.099,56.0
40.204,-0.867,0.886,58.0
40.243,-0.879,0.675,30.0
40.291,-0.891,0.46,26.0
40.313,-0.904,0.248,150.0
40.295,-0.914,0.035,51.0
40.231,-0.922,1.153,55.0
40.195,-0.933,0.94,59.0
40.191,-0.944,0.729,66.0
40.238,-0.957,0.514,44.0
40.278,-0.969,0.302,2.0
0.0,0.0,0.0,0.0
40.257,-0.989,1.208,53.0
40.196,-0.998,0.995,57.0
40.187,-1.008,0.783,51.0
40.203,-1.02,0.568,52.0
40.185,-1.03,0.356,53.0
40.224,-1.042,0.145,41.0
40.29,-1.053,1.265,37.0
40.205,-1.062,1.051,54.0
40.225,-1.074,0.84,42.0
40.26,-1.085,0.625,39.0
40.204,-1.094,0.413,37.0
40.198,-1.105,0.202,52.0
0.0,0.0,0.0,0.0
40.322,-1.128,1.111,18.0
40.385,-1.14,0.9,1.0
153.949,-4.387,2.609,5.0
153.961,-4.428,1.802,5.0
93.218,-2.706,0.602,1.0
0.0,0.0,0.0,0.0
40.313,-1.189,1.168,15.0
40.306,-1.199,0.957,29.0
40.331,-1.211,0.742,24.0
40.343,-1.221,0.53,27.0
0.0,0.0,0.0,0.0
0.0,0.0,0.0,0.0
0.0,0.0,0.0,0.0
40.334,-1.26,1.016,9.0
40.36,-1.271,0.801,3.0
40.329,-1.281,0.589,0.0
0.0,0.0,0.0,0.0
0.0,0.0,0.0,0.0
0.0,0.0,0.0,0.0
0.0,0.0,0.0,0.0
0.0,0.0,0.0,0.0
0.0,0.0,0.0,0.0
0.0,0.0,0.0,0.0
0.0,0.0,0.0,0.0
0.0,0.0,0.0,0.0
0.0,0.0,0.0,0.0
0.0,0.0,0.0,0.0
0.0,0.0,0.0,0.0
0.0,0.0,0.0,0.0
0.0,0.0,0.0,0.0
0.0,0.0,0.0,0.0
0.0,0.0,0.0,0.0
0.0,0.0,0.0,0.0
0.0,0.0,0.0,0.0
0.0,0.0,0.0,0.0
0.0,0.0,0.0,0.0
0.0,0.0,0.0,0.0
0.0,0.0,0.0,0.0
0.0,0.0,0.0,0.0
0.0,0.0,0.0,0.0
0.0,0.0,0.0,0.0
0.0,0.0,0.0,0.0
0.0,0.0,0.0,0.0
0.0,0.0,0.0,0.0
0.0,0.0,0.0,0.0
0.0,0.0,0.0,0.0
0.0,0.0,0.0,0.0
0.0,0.0,0.0,0.0
0.0,0.0,0.0,0.0
0.0,0.0,0.0,0.0
0.0,0.0,0.0,0.0
0.0,0.0,0.0,0.0
0.0,0.0,0.0,0.0
0.0,0.0,0.0,0.0
0.0,0.0,0.0,0.0
0.0,0.0,0.0,0.0
0.0,0.0,0.0,0.0
0.0,0.0,0.0,0.0
168.188,-6.955,3.397,3.0
0.0,0.0,0.0,0.0
0.0,0.0,0.0,0.0
0.0,0.0,0.0,0.0
0.0,0.0,0.0,0.0
0.0,0.0,0.0,0.0
0.0,0.0,0.0,0.0
0.0,0.0,0.0,0.0
0.0,0.0,0.0,0.0
0.0,0.0,0.0,0.0
0.0,0.0,0.0,0.0
0.0,0.0,0.0,0.0
0.0,0.0,0.0,0.0
0.0,0.0,0.0,0.0
0.0,0.0,0.0,0.0
0.0,0.0,0.0,0.0
0.0,0.0,0.0,0.0
0.0,0.0,0.0,0.0
0.0,0.0,0.0,0.0
0.0,0.0,0.0,0.0
0.0,0.0,0.0,0.0
0.0,0.0,0.0,0.0
0.0,0.0,0.0,0.0
0.0,0.0,0.0,0.0
0.0,0.0,0.0,0.0
0.0,0.0,0.0,0.0
0.0,0.0,0.0,0.0
0.0,0.0,0.0,0.0
0.0,0.0,0.0,0.0
0.0,0.0,0.0,0.0
0.0,0.0,0.0,0.0
0.0,0.0,0.0,0.0
0.0,0.0,0.0,0.0
0.0,0.0,0.0,0.0
0.0,0.0,0.0,0.0
0.0,0.0,0.0,0.0
0.0,0.0,0.0,0.0
0.0,0.0,0.0,0.0
0.0,0.0,0.0,0.0
0.0,0.0,0.0,0.0
0.0,0.0,0.0,0.0
0.0,0.0,0.0,0.0
0.0,0.0,0.0,0.0
0.0,0.0,0.0,0.0
0.0,0.0,0.0,0.0
0.0,0.0,0.0,0.0
0.0,0.0,0.0,0.0
0.0,0.0,0.0,0.0
228.816,-11.538,10.403,7.0
0.0,0.0,0.0,0.0
0.0,0.0,0.0,0.0
0.0,0.0,0.0,0.0
0.0,0.0,0.0,0.0
0.0,0.0,0.0,0.0
0.0,0.0,0.0,0.0
0.0,0.0,0.0,0.0
0.0,0.0,0.0,0.0
0.0,0.0,0.0,0.0
0.0,0.0,0.0,0.0
0.0,0.0,0.0,0.0
0.0,0.0,0.0,0.0
211.393,-11.039,9.229,6.0
0.0,0.0,0.0,0.0
0.0,0.0,0.0,0.0
0.0,0.0,0.0,0.0
227.824,-12.021,12.732,8.0
0.0,0.0,0.0,0.0
0.0,0.0,0.0,0.0
0.0,0.0,0.0,0.0
0.0,0.0,0.0,0.0
0.0,0.0,0.0,0.0
0.0,0.0,0.0,0.0
0.0,0.0,0.0,0.0
0.0,0.0,0.0,0.0
0.0,0.0,0.0,0.0
92.869,-5.017,6.479,1.0
0.0,0.0,0.0,0.0
0.0,0.0,0.0,0.0
0.0,0.0,0.0,0.0
0.0,0.0,0.0,0.0
0.0,0.0,0.0,0.0
92.931,-5.084,6.642,1.0
0.0,0.0,0.0,0.0
0.0,0.0,0.0,0.0
0.0,0.0,0.0,0.0
0.0,0.0,0.0,0.0
0.0,0.0,0.0,0.0
0.0,0.0,0.0,0.0
0.0,0.0,0.0,0.0
0.0,0.0,0.0,0.0
0.0,0.0,0.0,0.0
0.0,0.0,0.0,0.0
0.0,0.0,0.0,0.0
0.0,0.0,0.0,0.0
0.0,0.0,0.0,0.0
0.0,0.0,0.0,0.0
0.0,0.0,0.0,0.0
0.0,0.0,0.0,0.0
0.0,0.0,0.0,0.0
0.0,0.0,0.0,0.0
0.0,0.0,0.0,0.0
0.0,0.0,0.0,0.0
0.0,0.0,0.0,0.0
164.826,-9.351,9.161,10.0
227.355,-12.914,11.449,6.0
0.0,0.0,0.0,0.0
0.0,0.0,0.0,0.0
0.0,0.0,0.0,0.0
0.0,0.0,0.0,0.0
164.185,-9.393,9.402,6.0
211.602,-12.118,11.012,11.0
0.0,0.0,0.0,0.0
0.0,0.0,0.0,0.0
0.0,0.0,0.0,0.0
0.0,0.0,0.0,0.0
0.0,0.0,0.0,0.0
164.872,-9.514,8.859,8.0
0.0,0.0,0.0,0.0
0.0,0.0,0.0,0.0
0.0,0.0,0.0,0.0
0.0,0.0,0.0,0.0
0.0,0.0,0.0,0.0
163.856,-9.518,9.08,3.0
0.0,0.0,0.0,0.0
0.0,0.0,0.0,0.0
0.0,0.0,0.0,0.0
0.0,0.0,0.0,0.0
0.0,0.0,0.0,0.0
0.0,0.0,0.0,0.0
0.0,0.0,0.0,0.0
0.0,0.0,0.0,0.0
0.0,0.0,0.0,0.0
0.0,0.0,0.0,0.0
0.0,0.0,0.0,0.0
0.0,0.0,0.0,0.0
0.0,0.0,0.0,0.0
0.0,0.0,0.0,0.0
0.0,0.0,0.0,0.0
0.0,0.0,0.0,0.0
0.0,0.0,0.0,0.0
165.215,-9.746,9.972,3.0
0.0,0.0,0.0,0.0
0.0,0.0,0.0,0.0
0.0,0.0,0.0,0.0
0.0,0.0,0.0,0.0
0.0,0.0,0.0,0.0
0.0,0.0,0.0,0.0
0.0,0.0,0.0,0.0
0.0,0.0,0.0,0.0
0.0,0.0,0.0,0.0
0.0,0.0,0.0,0.0
0.0,0.0,0.0,0.0
0.0,0.0,0.0,0.0
0.0,0.0,0.0,0.0
0.0,0.0,0.0,0.0
0.0,0.0,0.0,0.0
0.0,0.0,0.0,0.0
0.0,0.0,0.0,0.0
0.0,0.0,0.0,0.0
0.0,0.0,0.0,0.0
0.0,0.0,0.0,0.0
0.0,0.0,0.0,0.0
0.0,0.0,0.0,0.0
0.0,0.0,0.0,0.0
0.0,0.0,0.0,0.0
0.0,0.0,0.0,0.0
0.0,0.0,0.0,0.0
0.0,0.0,0.0,0.0
0.0,0.0,0.0,0.0
0.0,0.0,0.0,0.0
0.0,0.0,0.0,0.0
0.0,0.0,0.0,0.0
0.0,0.0,0.0,0.0
0.0,0.0,0.0,0.0
0.0,0.0,0.0,0.0
0.0,0.0,0.0,0.0
0.0,0.0,0.0,0.0
0.0,0.0,0.0,0.0
0.0,0.0,0.0,0.0
0.0,0.0,0.0,0.0
0.0,0.0,0.0,0.0
0.0,0.0,0.0,0.0
0.0,0.0,0.0,0.0
0.0,0.0,0.0,0.0
0.0,0.0,0.0,0.0
0.0,0.0,0.0,0.0
0.0,0.0,0.0,0.0
0.0,0.0,0.0,0.0
0.0,0.0,0.0,0.0
0.0,0.0,0.0,0.0
0.0,0.0,0.0,0.0
0.0,0.0,0.0,0.0
0.0,0.0,0.0,0.0
0.0,0.0,0.0,0.0
0.0,0.0,0.0,0.0
0.0,0.0,0.0,0.0
0.0,0.0,0.0,0.0
0.0,0.0,0.0,0.0
0.0,0.0,0.0,0.0
0.0,0.0,0.0,0.0
0.0,0.0,0.0,0.0
0.0,0.0,0.0,0.0
0.0,0.0,0.0,0.0
0.0,0.0,0.0,0.0
0.0,0.0,0.0,0.0
0.0,0.0,0.0,0.0
0.0,0.0,0.0,0.0
0.0,0.0,0.0,0.0
0.0,0.0,0.0,0.0
0.0,0.0,0.0,0.0
0.0,0.0,0.0,0.0
0.0,0.0,0.0,0.0
0.0,0.0,0.0,0.0
0.0,0.0,0.0,0.0
0.0,0.0,0.0,0.0
0.0,0.0,0.0,0.0
0.0,0.0,0.0,0.0
0.0,0.0,0.0,0.0
0.0,0.0,0.0,0.0
0.0,0.0,0.0,0.0
0.0,0.0,0.0,0.0
0.0,0.0,0.0,0.0
0.0,0.0,0.0,0.0
0.0,0.0,0.0,0.0
0.0,0.0,0.0,0.0
49.38,-2.893,5.432,3.0
0.0,0.0,0.0,0.0
0.0,0.0,0.0,0.0
0.0,0.0,0.0,0.0
0.0,0.0,0.0,0.0
0.0,0.0,0.0,0.0
49.319,-2.873,5.494,5.0
0.0,0.0,0.0,0.0
0.0,0.0,0.0,0.0
0.0,0.0,0.0,0.0
0.0,0.0,0.0,0.0
0.0,0.0,0.0,0.0
0.0,0.0,0.0,0.0
0.0,0.0,0.0,0.0
0.0,0.0,0.0,0.0
0.0,0.0,0.0,0.0
0.0,0.0,0.0,0.0
0.0,0.0,0.0,0.0
50.388,-2.895,5.749,0.0
49.304,-2.827,5.359,1.0
0.0,0.0,0.0,0.0
0.0,0.0,0.0,0.0
0.0,0.0,0.0,0.0
0.0,0.0,0.0,0.0
50.365,-2.872,5.812,2.0
49.349,-2.807,5.428,5.0
0.0,0.0,0.0,0.0
0.0,0.0,0.0,0.0
0.0,0.0,0.0,0.0
0.0,0.0,0.0,0.0
48.47,-2.74,5.655,14.0
0.0,0.0,0.0,0.0
0.0,0.0,0.0,0.0
0.0,0.0,0.0,0.0
0.0,0.0,0.0,0.0
0.0,0.0,0.0,0.0
48.654,-2.726,5.738,24.0
0.0,0.0,0.0,0.0
0.0,0.0,0.0,0.0
56.541,-3.143,5.745,5.0
0.0,0.0,0.0,0.0
0.0,0.0,0.0,0.0
0.0,0.0,0.0,0.0
50.274,-2.781,5.718,2.0
49.414,-2.726,5.352,4.0
0.0,0.0,0.0,0.0
56.864,-3.121,5.539,1.0
92.317,-5.053,8.496,3.0
47.758,-2.622,5.747,3.0
50.28,-2.752,5.777,4.0
49.335,-2.692,5.401,3.0
0.0,0.0,0.0,0.0
56.536,-3.069,5.572,2.0
0.0,0.0,0.0,0.0
50.904,-2.763,6.184,3.0
48.425,-2.621,5.619,21.0
56.876,-3.069,6.291,7.0
0.0,0.0,0.0,0.0
56.606,-3.037,5.642,1.0
56.87,-3.042,5.361,3.0
50.954,-2.733,6.247,1.0
48.742,-2.606,5.71,22.0
57.16,-3.047,6.386,5.0
55.303,-2.939,5.872,0.0
0.0,0.0,0.0,0.0
90.564,-4.784,8.635,8.0
50.963,-2.699,6.303,0.0
0.0,0.0,0.0,0.0
50.189,-2.641,5.66,6.0
49.406,-2.592,5.298,4.0
0.0,0.0,0.0,0.0
56.589,-2.95,5.454,5.0
0.0,0.0,0.0,0.0
50.879,-2.65,6.068,4.0
48.351,-2.51,5.503,8.0
56.95,-2.946,6.165,5.0
92.623,-4.776,9.524,3.0
0.0,0.0,0.0,0.0
46.484,-2.395,5.845,1.0
48.955,-2.514,5.888,5.0
48.414,-2.477,5.558,16.0
50.042,-2.552,5.466,0.0
55.184,-2.804,5.728,3.0
63.697,-3.225,6.265,2.0
46.484,-2.359,5.891,3.0
49.005,-2.479,5.941,3.0
48.865,-2.462,5.657,12.0
50.084,-2.515,5.519,5.0
57.288,-2.867,6.0,3.0
92.652,-4.619,9.2,11.0
48.644,-2.431,6.211,8.0
51.084,-2.543,6.241,5.0
48.544,-2.408,5.664,22.0
50.087,-2.474,5.565,4.0
54.914,-2.703,5.801,8.0
55.046,-2.7,5.515,2.0
48.621,-2.39,6.251,23.0
50.593,-2.477,6.226,1.0
47.648,-2.324,5.602,4.0
48.374,-2.35,5.417,9.0
49.524,-2.396,5.275,6.0
55.137,-2.657,5.572,4.0
47.952,-2.316,6.207,8.0
46.652,-2.244,5.781,4.0
49.635,-2.378,5.878,7.0
48.324,-2.306,5.452,16.0
49.538,-2.355,5.317,6.0
55.062,-2.607,5.609,4.0
47.756,-2.265,6.221,23.0
46.648,-2.204,5.819,2.0
49.442,-2.326,5.895,7.0
50.84,-2.381,5.776,9.0
55.148,-2.573,5.963,12.0
55.054,-2.558,5.651,17.0
47.475,-2.209,6.222,6.0
48.621,-2.253,6.103,13.0
49.007,-2.261,5.88,4.0
48.782,-2.241,5.579,8.0
40.576,-1.856,4.418,34.0
53.49,-2.436,5.53,3.0
47.872,-2.184,6.309,2.0
48.435,-2.2,6.115,22.0
46.008,-2.08,5.554,3.0
48.779,-2.196,5.614,8.0
40.504,-1.815,4.438,36.0
56.674,-2.528,5.899,20.0
49.997,-2.234,6.625,0.0
48.234,-2.145,6.123,20.0
46.194,-2.045,5.608,9.0
53.071,-2.339,6.144,14.0
40.525,-1.777,4.467,53.0
55.249,-2.412,5.787,4.0
49.908,-2.182,6.646,1.0
57.045,-2.482,7.279,6.0
40.257,-1.743,4.913,6.0
57.327,-2.47,6.673,6.0
40.515,-1.738,4.492,40.0
53.273,-2.274,5.613,2.0
42.313,-1.808,5.661,37.0
50.896,-2.164,6.525,8.0
48.279,-2.043,5.921,11.0
57.451,-2.419,6.721,5.0
40.401,-1.693,4.503,49.0
40.405,-1.685,4.28,39.0
42.321,-1.766,5.686,42.0
49.733,-2.065,6.404,5.0
40.286,-1.664,4.963,44.0
40.47,-1.663,4.757,37.0
40.299,-1.648,4.513,72.0
40.37,-1.643,4.297,72.0
42.243,-1.72,5.698,48.0
42.066,-1.704,5.439,8.0
40.309,-1.624,4.987,29.0
40.586,-1.626,4.791,14.0
40.295,-1.607,4.532,51.0
40.36,-1.601,4.316,60.0
49.572,-1.967,6.711,4.0
42.064,-1.66,5.459,53.0
47.366,-1.86,5.882,4.0
40.381,-1.577,4.785,69.0
40.196,-1.561,4.539,66.0
40.355,-1.559,4.333,61.0
42.248,-1.632,5.738,47.0
42.119,-1.618,5.484,57.0
40.269,-1.538,5.018,53.0
40.502,-1.539,4.816,49.0
40.331,-1.523,4.571,54.0
40.449,-1.52,4.36,44.0
42.471,-1.596,5.785,34.0
42.216,-1.577,5.513,56.0
40.245,-1.494,5.03,44.0
40.344,-1.489,4.813,52.0
40.292,-1.479,4.582,55.0
40.47,-1.476,4.377,42.0
42.187,-1.539,5.762,55.0
42.337,-1.535,5.544,50.0
40.306,-1.453,5.052,41.0
40.276,-1.443,4.818,64.0
40.146,-1.43,4.578,75.0
40.35,-1.428,4.376,51.0
42.134,-1.491,5.768,61.0
42.273,-1.487,5.548,54.0
40.392,-1.412,5.074,37.0
40.431,-1.404,4.848,57.0
40.254,-1.389,4.601,53.0
40.144,-1.377,4.364,55.0
42.01,-1.439,5.762,56.0
42.247,-1.438,5.556,56.0
43.146,-1.459,5.431,19.0
40.515,-1.362,4.868,44.0
40.437,-1.351,4.632,48.0
40.094,-1.331,4.368,45.0
42.001,-1.392,5.77,55.0
42.03,-1.384,5.536,58.0
40.783,-1.334,5.142,35.0
40.504,-1.317,4.874,53.0
40.123,-1.295,4.603,54.0
39.994,-1.283,4.364,56.0
42.052,-1.347,5.784,34.0
41.939,-1.333,5.531,57.0
40.726,-1.286,5.141,48.0
40.516,-1.271,4.882,52.0
39.604,-1.234,4.549,65.0
39.902,-1.235,4.359,56.0
42.158,-1.301,5.804,55.0
41.963,-1.287,5.539,36.0
40.384,-1.229,5.102,42.0
40.473,-1.223,4.881,61.0
39.581,-1.188,4.55,64.0
39.925,-1.19,4.365,60.0
42.224,-1.255,5.817,63.0
41.964,-1.238,5.543,38.0
40.054,-1.173,5.063,47.0
40.04,-1.164,4.831,52.0
39.485,-1.14,4.541,64.0
39.509,-1.132,4.322,58.0
42.341,-1.21,5.835,58.0
42.097,-1.194,5.561,27.0
40.031,-1.126,5.061,57.0
39.983,-1.117,4.825,57.0
39.524,-1.096,4.546,59.0
39.392,-1.084,4.309,55.0
42.269,-1.159,5.824,54.0
49.076,-1.335,6.483,4.0
39.561,-1.068,5.001,69.0
39.98,-1.071,4.823,52.0
39.46,-1.049,4.537,52.0
39.193,-1.034,4.285,62.0
42.211,-1.108,5.814,61.0
42.094,-1.096,5.558,52.0
39.571,-1.022,4.999,54.0
40.096,-1.027,4.834,46.0
39.472,-1.003,4.535,55.0
39.331,-0.991,4.296,58.0
42.128,-1.057,5.798,42.0
42.129,-1.048,5.557,54.0
39.525,-0.975,4.989,46.0
39.706,-0.971,4.782,48.0
39.391,-0.955,4.52,59.0
39.228,-0.943,4.279,57.0
41.853,-1.001,5.754,62.0
42.04,-0.996,5.539,54.0
39.492,-0.928,4.978,69.0
39.497,-0.919,4.75,57.0
39.576,-0.913,4.534,51.0
39.104,-0.894,4.259,55.0
41.914,-0.953,5.754,55.0
42.118,-0.949,5.541,51.0
39.535,-0.882,4.975,53.0
39.414,-0.872,4.731,63.0
39.386,-0.862,4.504,53.0
38.975,-0.846,4.236,63.0
41.879,-0.903,5.739,48.0
41.909,-0.894,5.503,56.0
39.489,-0.835,4.959,52.0
39.241,-0.822,4.7,61.0
39.248,-0.814,4.477,64.0
39.151,-0.804,4.244,57.0
42.567,-0.867,5.821,22.0
41.818,-0.843,5.478,53.0
39.461,-0.788,4.943,41.0
39.287,-0.776,4.693,57.0
39.258,-0.768,4.466,72.0
39.165,-0.758,4.233,59.0
42.923,-0.824,5.855,18.0
39.936,-0.759,5.218,11.0
39.511,-0.743,4.936,38.0
39.236,-0.73,4.673,58.0
39.426,-0.726,4.471,58.0
39.115,-0.712,4.213,68.0
42.95,-0.774,5.842,42.0
41.901,-0.747,5.458,33.0
39.432,-0.695,4.91,46.0
39.656,-0.691,4.707,54.0
39.346,-0.678,4.445,65.0
39.399,-0.672,4.227,46.0
42.83,-0.722,5.807,21.0
41.962,-0.699,5.448,3.0
39.468,-0.65,4.897,54.0
39.461,-0.642,4.666,55.0
39.348,-0.632,4.428,50.0
39.596,-0.629,4.23,45.0
39.913,-0.626,5.393,65.0
39.892,-0.618,5.16,66.0
39.577,-0.606,4.892,58.0
39.626,-0.599,4.666,64.0
39.223,-0.585,4.394,53.0
39.644,-0.584,4.215,30.0
39.964,-0.58,5.379,59.0
39.905,-0.572,5.141,70.0
40.04,-0.567,4.927,50.0
39.962,-0.558,4.684,49.0
39.865,-0.549,4.444,43.0
40.261,-0.547,4.258,17.0
42.402,-0.567,5.683,4.0
40.067,-0.528,5.138,52.0
40.027,-0.52,4.902,36.0
39.984,-0.513,4.663,55.0
39.596,-0.5,4.391,59.0
39.475,-0.492,4.151,51.0
40.026,-0.489,5.34,36.0
39.976,-0.481,5.102,43.0
40.099,-0.475,4.886,45.0
39.911,-0.466,4.629,57.0
39.554,-0.455,4.361,53.0
39.381,-0.446,4.116,64.0
39.982,-0.443,5.307,52.0
39.962,-0.436,5.073,61.0
40.016,-0.43,4.849,30.0
40.068,-0.423,4.62,45.0
39.802,-0.413,4.361,68.0
39.542,-0.404,4.106,43.0
39.918,-0.397,5.271,66.0
39.836,-0.39,5.029,36.0
40.032,-0.385,4.822,31.0
40.452,-0.382,4.635,37.0
39.858,-0.369,4.338,42.0
39.486,-0.359,4.071,60.0
40.02,-0.354,5.254,46.0
39.652,-0.344,4.976,57.0
42.29,-0.36,5.062,17.0
40.513,-0.338,4.612,62.0
40.604,-0.332,4.388,35.0
39.557,-0.317,4.048,56.0
42.528,-0.33,5.55,26.0
39.597,-0.3,4.938,65.0
43.748,-0.325,5.202,3.0
40.511,-0.294,4.579,52.0
40.288,-0.286,4.322,43.0
39.795,-0.276,4.04,50.0
39.859,-0.266,5.169,55.0
39.626,-0.258,4.908,53.0
39.697,-0.252,4.687,37.0
40.373,-0.249,4.529,55.0
40.376,-0.243,4.297,49.0
39.672,-0.232,3.993,56.0
39.708,-0.222,5.114,53.0
39.745,-0.216,4.887,42.0
39.628,-0.209,4.643,46.0
40.132,-0.205,4.466,59.0
40.234,-0.199,4.245,49.0
47.356,-0.227,4.723,10.0
39.645,-0.179,5.069,66.0
39.598,-0.173,4.833,56.0
39.61,-0.167,4.604,61.0
39.828,-0.162,4.395,61.0
40.026,-0.157,4.186,43.0
40.092,-0.151,3.961,49.0
39.579,-0.138,5.023,66.0
39.466,-0.131,4.779,61.0
39.853,-0.127,4.594,50.0
40.182,-0.122,4.395,60.0
39.949,-0.115,4.138,54.0
39.98,-0.109,3.91,54.0
39.699,-0.098,4.998,70.0
39.604,-0.091,4.755,46.0
39.929,-0.086,4.562,42.0
40.926,-0.083,4.434,44.0
40.705,-0.077,4.175,45.0
40.979,-0.071,3.966,21.0
39.652,-0.057,4.95,66.0
39.878,-0.052,4.746,49.0
40.261,-0.047,4.557,39.0
41.116,-0.042,4.411,44.0
40.539,-0.036,4.115,61.0
40.99,-0.03,3.924,17.0
39.429,-0.018,4.88,61.0
39.873,-0.013,4.702,47.0
40.195,-0.007,4.506,51.0
40.363,-0.002,4.286,41.0
40.363,0.002,4.052,46.0
40.982,0.008,3.878,44.0
54.561,0.026,6.691,13.0
39.721,0.024,4.639,32.0
40.124,0.03,4.453,49.0
0.0,0.0,0.0,0.0
40.217,0.04,3.992,57.0
0.0,0.0,0.0,0.0
39.611,0.057,4.811,31.0
39.649,0.062,4.584,51.0
40.013,0.067,4.394,51.0
40.054,0.072,4.161,52.0
40.163,0.077,3.939,76.0
54.681,0.112,5.047,47.0
43.648,0.103,5.25,18.0
39.637,0.098,4.536,65.0
40.212,0.104,4.367,48.0
40.046,0.109,4.112,69.0
40.217,0.114,3.896,45.0
47.709,0.141,4.346,11.0
44.002,0.143,5.238,6.0
40.138,0.135,4.543,38.0
40.384,0.141,4.335,40.0
40.152,0.145,4.072,75.0
47.683,0.177,4.559,12.0
47.697,0.183,4.284,10.0
43.235,0.179,5.091,20.0
40.328,0.171,4.513,49.0
40.61,0.177,4.307,67.0
40.448,0.181,4.051,30.0
47.628,0.218,4.493,41.0
40.331,0.189,3.571,13.0
42.579,0.212,4.958,8.0
40.451,0.206,4.473,49.0
40.229,0.209,4.214,57.0
57.332,0.305,5.666,27.0
47.65,0.258,4.432,13.0
40.074,0.221,3.494,47.0
40.293,0.234,4.637,44.0
40.212,0.238,4.393,62.0
40.282,0.242,4.165,54.0
47.484,0.291,4.628,41.0
57.26,0.357,5.248,33.0
39.911,0.252,3.426,61.0
40.259,0.267,4.577,57.0
40.511,0.272,4.368,49.0
40.194,0.274,4.099,40.0
47.556,0.329,4.568,50.0
57.228,0.401,5.165,17.0
75.392,0.536,6.366,54.0
40.029,0.296,4.494,59.0
40.924,0.307,4.355,18.0
40.72,0.309,4.095,16.0
