X,Y,Z,Reflectivity
130.635,2.939,5.496,17.0
152.68,3.471,5.616,29.0
158.722,3.645,4.982,21.0
0.0,0.0,0.0,0.0
0.0,0.0,0.0,0.0
122.703,2.908,5.995,31.0
130.182,3.116,5.67,23.0
152.434,3.684,5.832,28.0
152.681,3.728,5.019,17.0
157.915,3.893,4.354,6.0
100.31,2.497,2.235,22.0
122.387,3.079,6.159,29.0
130.162,3.307,5.86,16.0
152.081,3.901,6.04,41.0
152.552,3.949,5.234,19.0
137.941,3.604,4.002,9.0
0.0,0.0,0.0,0.0
122.948,3.275,6.362,35.0
122.775,3.3,5.701,24.0
152.077,4.126,6.255,41.0
152.123,4.163,5.433,35.0
153.992,4.253,4.683,29.0
154.003,4.291,3.867,12.0
123.286,3.469,6.553,18.0
122.927,3.488,5.879,32.0
151.811,4.346,6.453,44.0
152.059,4.391,5.641,39.0
153.408,4.469,4.875,30.0
154.144,4.528,4.08,31.0
122.881,3.645,6.699,10.0
123.013,3.678,6.049,27.0
151.884,4.58,6.661,36.0
152.107,4.623,5.845,46.0
152.484,4.674,5.049,22.0
158.315,4.891,4.399,14.0
73.964,2.306,4.13,10.0
133.729,4.204,6.754,17.0
133.601,4.232,6.033,51.0
152.208,4.86,6.047,40.0
152.951,4.923,5.262,16.0
158.694,5.147,4.612,10.0
73.919,2.42,4.223,44.0
125.328,4.134,6.489,26.0
133.777,4.446,6.213,33.0
152.604,5.111,6.257,34.0
152.721,5.153,5.445,45.0
159.383,5.419,4.834,8.0
73.676,2.528,4.302,40.0
73.876,2.553,3.918,44.0
124.186,4.323,5.921,32.0
158.572,5.561,6.697,13.0
152.612,5.391,5.63,33.0
157.275,5.597,4.963,5.0
73.614,2.643,4.388,23.0
73.708,2.665,3.999,45.0
133.734,4.87,6.539,27.0
153.237,5.619,6.657,27.0
152.542,5.632,5.808,35.0
173.556,6.453,5.681,6.0
73.382,2.752,4.462,10.0
73.406,2.771,4.068,51.0
73.698,2.801,3.689,17.0
123.922,4.742,5.526,18.0
124.265,4.787,4.875,9.0
157.293,6.099,5.327,14.0
73.273,2.866,4.539,31.0
73.306,2.885,4.146,15.0
123.093,4.877,6.3,31.0
124.171,4.952,5.676,28.0
124.193,4.984,5.01,11.0
158.213,6.389,5.531,14.0
73.259,2.984,4.619,33.0
73.443,3.009,4.234,43.0
123.038,5.072,6.43,39.0
124.288,5.156,5.814,28.0
124.182,5.183,5.141,43.0
157.208,6.601,5.662,16.0
65.255,2.763,4.183,16.0
73.746,3.14,4.328,34.0
73.245,3.138,3.904,29.0
130.21,5.612,6.225,9.0
124.333,5.39,5.273,43.0
157.154,6.854,5.82,18.0
128.462,5.649,8.366,19.0
73.233,3.239,4.373,29.0
73.338,3.262,3.982,33.0
129.543,5.795,6.323,16.0
129.566,5.83,5.625,25.0
124.366,5.629,4.729,18.0
73.641,3.36,4.868,7.0
73.381,3.367,4.454,37.0
123.252,5.687,6.814,34.0
123.446,5.728,6.145,24.0
129.66,6.049,5.753,39.0
157.195,7.375,6.126,15.0
128.249,6.066,8.602,3.0
127.598,6.066,7.864,14.0
73.302,3.503,4.12,16.0
123.318,5.925,6.252,24.0
129.392,6.249,5.858,15.0
157.072,7.627,6.262,17.0
73.558,3.601,5.0,6.0
150.4,7.399,9.404,20.0
73.378,3.629,4.19,23.0
132.516,6.588,6.835,21.0
129.63,6.477,5.983,20.0
157.586,7.915,6.42,16.0
124.6,6.309,8.577,26.0
127.477,6.485,8.081,11.0
73.353,3.75,4.251,27.0
154.804,7.953,8.114,16.0
132.089,6.819,6.206,9.0
160.018,8.301,6.649,12.0
124.651,6.517,8.683,33.0
128.226,6.736,8.233,18.0
128.177,6.764,7.53,21.0
150.388,7.974,8.001,26.0
33.463,1.782,1.598,3.0
159.799,8.556,6.764,16.0
71.571,3.861,5.041,16.0
154.808,8.39,10.059,27.0
127.402,6.936,7.582,34.0
155.95,8.532,8.416,7.0
33.463,1.838,1.623,13.0
159.866,8.826,6.885,11.0
71.784,3.994,5.109,42.0
124.679,6.967,8.193,12.0
127.436,7.152,7.678,31.0
127.27,7.174,6.959,47.0
33.421,1.892,1.645,41.0
162.137,9.222,7.098,12.0
71.718,4.11,5.155,31.0
127.358,7.33,8.457,25.0
127.417,7.365,7.763,23.0
128.058,7.433,7.089,39.0
33.422,1.948,1.667,126.0
33.452,1.958,1.486,2.0
78.669,4.642,5.707,22.0
127.114,7.532,8.524,29.0
127.796,7.603,7.87,29.0
128.68,7.687,7.205,32.0
127.629,7.658,6.448,36.0
158.387,9.543,7.137,9.0
78.679,4.776,5.757,43.0
67.124,4.091,4.543,21.0
67.048,4.102,4.169,41.0
128.61,7.901,7.279,31.0
128.138,7.904,6.55,42.0
157.997,9.786,7.212,21.0
78.512,4.898,5.79,26.0
67.177,4.207,4.584,43.0
67.075,4.217,4.208,33.0
128.485,8.109,7.343,22.0
128.059,8.112,6.615,42.0
158.034,10.051,7.297,34.0
67.275,4.311,4.997,22.0
67.341,4.331,4.63,43.0
67.037,4.327,4.24,34.0
128.368,8.317,7.401,26.0
33.421,2.173,1.743,5.0
157.984,10.31,7.372,37.0
67.281,4.423,5.031,44.0
67.286,4.439,4.659,43.0
67.183,4.448,4.281,42.0
67.09,4.458,3.899,34.0
33.422,2.228,1.758,2.0
33.448,2.238,1.576,2.0
67.083,4.522,5.046,44.0
67.217,4.546,4.684,43.0
67.479,4.58,4.33,33.0
67.278,4.582,3.938,20.0
33.462,2.287,1.774,1.0
33.424,2.292,1.588,3.0
65.739,4.541,4.971,20.0
67.311,4.664,4.717,26.0
67.583,4.698,4.363,39.0
172.918,12.061,10.189,19.0
33.467,2.342,1.787,0.0
33.391,2.345,1.599,3.0
0.0,0.0,0.0,0.0
71.033,5.039,5.003,14.0
70.827,5.041,4.597,31.0
157.477,11.243,9.334,23.0
157.417,11.276,8.458,21.0
157.438,11.313,7.59,11.0
65.063,4.707,4.964,38.0
70.829,5.14,5.011,13.0
70.882,5.16,4.622,21.0
157.045,11.468,9.355,14.0
134.924,9.884,7.289,9.0
115.097,8.457,5.581,6.0
64.713,4.788,4.956,41.0
70.839,5.256,5.031,15.0
70.839,5.272,4.637,47.0
133.105,9.937,7.962,13.0
132.828,9.945,7.209,11.0
115.135,8.646,5.611,4.0
64.87,4.905,4.984,41.0
67.836,5.143,4.833,29.0
70.858,5.387,4.654,7.0
130.997,9.989,7.864,15.0
130.69,9.995,7.12,10.0
106.39,8.161,5.205,7.0
65.376,5.048,5.035,25.0
67.848,5.254,4.847,41.0
75.66,5.875,4.984,30.0
128.802,10.029,7.754,14.0
128.675,10.048,7.031,11.0
104.861,8.211,5.148,17.0
0.0,0.0,0.0,0.0
74.654,5.9,5.344,10.0
74.622,5.912,4.926,21.0
74.488,5.918,4.494,36.0
74.639,5.945,4.088,15.0
74.618,5.96,3.672,16.0
0.0,0.0,0.0,0.0
67.764,5.462,4.858,38.0
74.582,6.027,4.93,29.0
74.501,6.036,4.502,18.0
74.558,6.057,4.09,32.0
74.557,6.072,3.674,30.0
67.004,5.493,5.183,44.0
67.774,5.569,4.863,16.0
74.858,6.167,4.953,21.0
74.583,6.159,4.51,11.0
74.589,6.175,4.095,19.0
74.552,6.188,3.676,25.0
66.661,5.569,5.158,43.0
65.533,5.487,4.704,9.0
75.312,6.321,4.984,23.0
121.269,10.203,7.334,9.0
121.268,10.227,6.657,7.0
103.194,8.726,5.088,25.0
66.02,5.617,5.108,37.0
65.538,5.589,4.703,21.0
0.0,0.0,0.0,0.0
120.775,10.347,7.301,27.0
120.768,10.37,6.625,30.0
103.204,8.883,5.084,3.0
66.16,5.73,5.116,36.0
65.57,5.69,4.702,18.0
76.465,6.651,5.053,11.0
75.876,6.613,4.581,19.0
119.078,10.403,6.523,14.0
103.154,9.032,5.073,5.0
66.524,5.861,5.138,43.0
65.781,5.807,4.71,23.0
74.213,6.565,4.896,31.0
75.901,6.729,4.574,22.0
117.292,10.422,6.411,7.0
104.681,9.321,5.136,5.0
66.51,5.958,5.128,43.0
65.593,5.887,4.688,8.0
76.266,6.858,5.021,12.0
75.919,6.841,4.564,37.0
114.871,10.373,6.261,20.0
103.122,9.332,5.042,12.0
66.106,6.019,5.085,34.0
72.08,6.574,5.138,13.0
76.172,6.961,5.001,11.0
75.916,6.952,4.549,9.0
114.692,10.523,6.228,29.0
103.203,9.489,5.024,12.0
13.822,1.278,1.06,6.0
13.842,1.282,0.983,8.0
13.837,1.284,0.905,13.0
13.832,1.286,0.825,12.0
13.822,1.287,0.747,5.0
13.833,1.291,0.67,11.0
13.83,1.298,1.057,31.0
13.811,1.299,0.978,22.0
13.821,1.302,0.9,32.0
13.822,1.304,0.821,29.0
13.8,1.305,0.742,22.0
13.813,1.308,0.665,29.0
13.822,1.317,1.052,35.0
13.8,1.317,0.973,38.0
13.798,1.319,0.895,34.0
13.797,1.321,0.815,36.0
13.8,1.324,0.738,36.0
13.795,1.325,0.66,33.0
13.791,1.332,1.046,33.0
13.793,1.335,0.968,86.0
13.782,1.336,0.889,54.0
13.786,1.338,0.81,50.0
13.787,1.341,0.732,67.0
13.782,1.343,0.654,36.0
13.782,1.35,1.04,43.0
13.763,1.35,0.961,125.0
13.766,1.353,0.883,58.0
13.775,1.356,0.804,67.0
13.788,1.359,0.727,87.0
13.775,1.36,0.649,37.0
13.768,1.367,1.033,36.0
13.766,1.369,0.955,150.0
13.764,1.37,0.877,117.0
13.768,1.373,0.798,115.0
13.776,1.376,0.72,98.0
13.766,1.377,0.642,36.0
13.756,1.383,1.026,31.0
13.763,1.386,0.949,126.0
13.758,1.387,0.87,141.0
13.769,1.391,0.792,133.0
13.775,1.393,0.714,98.0
13.764,1.394,0.636,35.0
13.754,1.4,1.02,35.0
13.762,1.403,0.942,143.0
13.752,1.404,0.864,150.0
13.764,1.407,0.785,123.0
13.773,1.41,0.707,101.0
13.752,1.41,0.628,33.0
13.764,1.418,1.014,36.0
13.753,1.419,0.935,123.0
13.752,1.421,0.856,150.0
13.766,1.424,0.778,124.0
13.77,1.426,0.7,104.0
13.748,1.426,0.621,33.0
13.761,1.434,1.006,47.0
13.759,1.436,0.928,146.0
13.753,1.437,0.849,150.0
13.771,1.441,0.77,135.0
13.776,1.443,0.692,89.0
13.758,1.443,0.614,34.0
13.768,1.451,0.999,106.0
13.76,1.452,0.92,150.0
13.755,1.453,0.841,150.0
13.761,1.455,0.762,126.0
13.773,1.458,0.684,79.0
13.76,1.459,0.605,33.0
13.764,1.466,0.99,110.0
13.765,1.468,0.912,150.0
13.75,1.468,0.832,150.0
13.764,1.471,0.753,103.0
13.772,1.474,0.676,45.0
13.767,1.475,0.597,33.0
13.769,1.482,0.981,76.0
13.754,1.482,0.902,150.0
13.754,1.483,0.823,150.0
13.767,1.486,0.744,62.0
13.775,1.489,0.667,37.0
13.78,1.491,0.588,33.0
13.771,1.497,0.972,40.0
13.754,1.496,0.893,150.0
13.762,1.499,0.815,150.0
13.769,1.501,0.735,38.0
13.787,1.504,0.658,35.0
13.8,1.508,0.58,29.0
13.774,1.511,0.963,35.0
13.756,1.511,0.883,150.0
13.764,1.513,0.805,128.0
13.796,1.518,0.727,35.0
13.811,1.521,0.649,32.0
13.802,1.522,0.57,25.0
13.766,1.524,0.952,36.0
13.757,1.524,0.873,121.0
13.769,1.527,0.795,39.0
13.802,1.532,0.717,30.0
13.802,1.533,0.638,20.0
13.814,1.536,0.56,15.0
13.762,1.537,0.941,30.0
13.771,1.539,0.863,45.0
13.794,1.543,0.786,32.0
13.815,1.546,0.707,12.0
35.854,4.018,1.631,58.0
35.878,4.024,1.428,118.0
13.758,1.549,0.93,19.0
13.774,1.552,0.853,33.0
36.441,4.11,2.048,150.0
36.105,4.075,1.819,12.0
35.877,4.053,1.603,150.0
33.622,3.801,1.311,3.0
13.751,1.56,0.919,11.0
13.749,1.561,0.84,15.0
13.821,1.57,0.765,2.0
9.989,1.136,0.495,4.0
35.858,4.081,1.573,66.0
32.975,3.756,1.258,5.0
13.756,1.572,0.907,5.0
13.776,1.576,0.83,7.0
9.987,1.143,0.544,13.0
9.987,1.144,0.486,12.0
9.983,1.144,0.429,11.0
33.108,3.798,1.235,3.0
10.008,1.152,0.651,24.0
10.001,1.152,0.594,61.0
10.002,1.153,0.536,21.0
9.998,1.153,0.478,19.0
10.006,1.155,0.421,18.0
9.998,1.155,0.364,17.0
10.005,1.159,0.642,72.0
10.001,1.159,0.585,122.0
10.001,1.16,0.527,116.0
9.997,1.16,0.469,59.0
10.0,1.161,0.412,54.0
10.004,1.163,0.355,27.0
9.999,1.166,0.633,84.0
10.003,1.167,0.575,145.0
9.991,1.166,0.518,130.0
9.989,1.166,0.459,85.0
9.995,1.168,0.402,79.0
9.998,1.169,0.345,30.0
9.996,1.172,0.623,85.0
9.996,1.173,0.566,140.0
9.985,1.172,0.508,125.0
9.984,1.172,0.449,81.0
9.99,1.174,0.393,78.0
9.988,1.174,0.336,31.0
9.982,1.177,0.613,85.0
9.988,1.178,0.555,150.0
9.983,1.178,0.498,143.0
9.979,1.178,0.44,90.0
9.984,1.179,0.383,74.0
9.988,1.18,0.326,38.0
9.978,1.183,0.602,85.0
9.984,1.184,0.546,143.0
9.976,1.183,0.488,150.0
9.975,1.183,0.43,102.0
9.981,1.185,0.373,83.0
9.985,1.186,0.316,41.0
9.975,1.188,0.592,88.0
9.976,1.188,0.535,149.0
9.978,1.189,0.478,150.0
9.976,1.189,0.42,110.0
9.974,1.189,0.362,100.0
9.982,1.191,0.306,46.0
9.97,1.192,0.582,99.0
9.978,1.194,0.525,145.0
9.973,1.193,0.468,150.0
9.969,1.193,0.409,110.0
9.974,1.194,0.352,100.0
9.975,1.195,0.295,48.0
9.966,1.196,0.571,98.0
9.978,1.198,0.515,150.0
9.97,1.197,0.457,150.0
9.972,1.198,0.399,113.0
9.974,1.199,0.342,103.0
9.974,1.199,0.285,53.0
9.969,1.201,0.561,103.0
9.973,1.202,0.504,150.0
9.968,1.201,0.446,150.0
9.966,1.201,0.388,120.0
9.976,1.203,0.331,107.0
9.969,1.202,0.274,60.0
9.968,1.205,0.55,117.0
9.972,1.205,0.493,150.0
9.976,1.206,0.436,150.0
9.97,1.205,0.377,125.0
9.974,1.206,0.321,114.0
9.972,1.206,0.263,66.0
9.97,1.208,0.539,112.0
9.972,1.209,0.482,150.0
9.978,1.21,0.425,150.0
9.967,1.208,0.367,135.0
9.974,1.209,0.31,114.0
9.97,1.209,0.252,68.0
9.971,1.211,0.529,109.0
9.975,1.212,0.471,150.0
9.971,1.211,0.414,150.0
9.969,1.211,0.356,129.0
9.97,1.212,0.299,115.0
9.972,1.212,0.241,74.0
9.968,1.214,0.517,103.0
9.969,1.214,0.46,150.0
9.976,1.214,0.403,150.0
9.966,1.213,0.344,130.0
9.976,1.215,0.288,129.0
9.97,1.214,0.23,69.0
9.97,1.216,0.506,106.0
9.969,1.216,0.449,150.0
9.972,1.216,0.392,150.0
9.959,1.214,0.333,128.0
9.977,1.216,0.276,115.0
9.967,1.215,0.219,66.0
9.969,1.217,0.495,99.0
9.975,1.218,0.438,150.0
9.977,1.218,0.38,150.0
9.97,1.217,0.322,134.0
9.978,1.218,0.265,121.0
9.97,1.217,0.208,69.0
9.969,1.218,0.483,103.0
9.973,1.219,0.426,150.0
9.977,1.219,0.369,150.0
9.966,1.218,0.31,124.0
9.977,1.219,0.253,118.0
9.97,1.218,0.196,69.0
9.971,1.219,0.472,105.0
9.975,1.22,0.415,150.0
9.973,1.219,0.357,150.0
9.97,1.218,0.299,119.0
9.978,1.219,0.242,123.0
9.968,1.218,0.185,68.0
9.968,1.219,0.46,121.0
9.969,1.219,0.403,150.0
9.98,1.22,0.346,150.0
9.97,1.219,0.287,116.0
9.975,1.219,0.23,119.0
9.969,1.218,0.173,67.0
9.971,1.219,0.449,100.0
9.973,1.219,0.391,150.0
9.975,1.219,0.334,150.0
9.97,1.218,0.276,122.0
9.971,1.218,0.219,109.0
9.969,1.218,0.161,62.0
9.972,1.219,0.437,96.0
9.972,1.218,0.38,150.0
9.972,1.218,0.322,150.0
9.971,1.217,0.264,121.0
9.973,1.217,0.207,111.0
9.968,1.217,0.15,61.0
9.972,1.217,0.425,103.0
9.976,1.217,0.368,150.0
9.97,1.216,0.311,150.0
9.971,1.216,0.252,126.0
9.973,1.216,0.195,108.0
9.97,1.215,0.138,63.0
9.963,1.215,0.413,113.0
9.969,1.215,0.356,150.0
9.975,1.215,0.299,150.0
9.964,1.213,0.24,115.0
9.969,1.214,0.183,109.0
9.973,1.214,0.126,67.0
9.968,1.213,0.401,118.0
9.976,1.214,0.344,150.0
9.965,1.212,0.287,150.0
9.973,1.212,0.229,114.0
9.977,1.212,0.172,111.0
9.971,1.211,0.114,67.0
9.972,1.211,0.39,116.0
9.973,1.21,0.332,150.0
9.973,1.21,0.275,150.0
9.965,1.208,0.217,105.0
9.974,1.209,0.16,101.0
9.972,1.208,0.103,59.0
9.969,1.208,0.378,116.0
9.971,1.207,0.321,150.0
9.974,1.207,0.263,150.0
9.969,1.206,0.205,97.0
9.976,1.206,0.148,98.0
9.975,1.206,0.091,52.0
9.972,1.205,0.366,104.0
9.975,1.204,0.309,150.0
9.98,1.204,0.252,150.0
9.977,1.203,0.193,106.0
9.975,1.202,0.136,90.0
9.967,1.201,0.079,52.0
9.969,1.2,0.354,88.0
9.971,1.2,0.297,150.0
9.975,1.199,0.24,150.0
9.968,1.198,0.181,91.0
9.985,1.199,0.124,89.0
9.981,1.198,0.067,43.0
9.972,1.196,0.342,91.0
9.976,1.196,0.285,150.0
9.978,1.195,0.228,148.0
9.978,1.194,0.17,88.0
9.987,1.195,0.113,83.0
9.98,1.193,0.055,38.0
9.976,1.192,0.331,85.0
9.984,1.192,0.274,140.0
9.975,1.19,0.216,133.0
9.973,1.189,0.158,78.0
9.989,1.19,0.101,73.0
9.989,1.189,0.044,35.0
9.976,1.186,0.319,71.0
9.979,1.186,0.262,128.0
9.975,1.185,0.205,122.0
9.98,1.184,0.147,69.0
9.983,1.184,0.09,73.0
9.991,1.184,0.032,37.0
9.991,1.182,0.308,72.0
9.997,1.182,0.251,137.0
9.997,1.181,0.194,124.0
9.987,1.179,0.135,70.0
9.998,1.18,0.078,77.0
9.995,1.179,0.021,25.0
9.999,1.177,0.297,79.0
9.997,1.176,0.239,133.0
9.989,1.174,0.182,122.0
9.997,1.174,0.124,58.0
10.002,1.174,0.067,63.0
10.001,1.173,0.009,21.0
10.0,1.171,0.285,70.0
10.001,1.17,0.228,131.0
9.998,1.168,0.171,100.0
9.999,1.167,0.113,21.0
10.01,1.168,0.055,20.0
10.001,1.166,-0.001,18.0
10.01,1.165,0.274,23.0
10.014,1.164,0.217,50.0
10.005,1.162,0.16,19.0
33.895,3.934,0.345,6.0
32.908,3.816,0.146,4.0
10.003,1.159,-0.012,13.0
33.933,3.924,0.893,8.0
10.002,1.155,0.205,14.0
33.648,3.883,0.5,19.0
33.9,3.908,0.306,27.0
33.87,3.901,0.112,24.0
37.014,4.26,-0.088,3.0
9.998,1.148,0.251,9.0
10.006,1.147,0.194,6.0
33.913,3.886,0.466,5.0
10.009,1.145,0.079,2.0
33.923,3.879,0.075,150.0
36.769,4.201,-0.127,16.0
10.033,1.143,0.241,1.0
10.053,1.144,0.184,0.0
96.046,10.924,1.216,6.0
33.745,3.834,0.231,10.0
40.551,4.603,0.046,35.0
0.0,0.0,0.0,0.0
96.922,10.962,2.229,28.0
96.947,10.953,1.676,22.0
13.857,1.563,0.16,0.0
41.938,4.727,0.242,16.0
40.156,4.522,0.002,15.0
35.168,3.956,-0.198,12.0
13.821,1.55,0.303,8.0
13.829,1.549,0.224,6.0
13.817,1.546,0.145,5.0
13.829,1.545,0.064,6.0
13.854,1.546,-0.013,15.0
13.86,1.545,-0.092,11.0
13.809,1.535,0.288,19.0
13.818,1.534,0.209,15.0
13.822,1.533,0.13,14.0
13.825,1.531,0.05,14.0
13.825,1.529,-0.028,21.0
13.826,1.528,-0.107,19.0
13.797,1.52,0.273,30.0
13.8,1.518,0.194,26.0
13.798,1.516,0.116,26.0
13.801,1.514,0.036,26.0
13.807,1.513,-0.042,24.0
13.795,1.51,-0.121,20.0
13.797,1.505,0.259,36.0
13.801,1.504,0.18,37.0
13.799,1.501,0.101,35.0
13.798,1.499,0.021,34.0
13.796,1.497,-0.056,27.0
13.79,1.494,-0.135,29.0
13.785,1.489,0.245,38.0
13.795,1.488,0.166,40.0
13.788,1.485,0.087,37.0
13.791,1.483,0.008,36.0
13.787,1.481,-0.07,33.0
13.778,1.478,-0.148,32.0
13.783,1.473,0.231,40.0
13.784,1.471,0.152,63.0
13.781,1.468,0.074,95.0
13.779,1.466,-0.005,36.0
13.768,1.463,-0.083,36.0
13.771,1.461,-0.162,34.0
13.774,1.456,0.217,40.0
13.785,1.455,0.139,131.0
13.778,1.452,0.061,93.0
13.771,1.449,-0.018,37.0
13.77,1.446,-0.096,36.0
13.773,1.445,-0.175,36.0
13.772,1.439,0.204,40.0
13.784,1.438,0.126,136.0
13.779,1.435,0.048,123.0
13.768,1.431,-0.031,38.0
13.773,1.43,-0.11,38.0
13.768,1.427,-0.188,35.0
13.769,1.421,0.191,40.0
13.782,1.42,0.113,150.0
13.775,1.417,0.035,130.0
13.77,1.414,-0.044,39.0
13.77,1.412,-0.122,38.0
13.772,1.41,-0.2,34.0
13.769,1.404,0.179,40.0
13.789,1.403,0.101,150.0
13.783,1.4,0.023,144.0
13.768,1.396,-0.056,36.0
13.773,1.394,-0.134,36.0
13.771,1.392,-0.212,35.0
13.775,1.386,0.167,40.0
13.794,1.385,0.089,150.0
13.782,1.382,0.01,150.0
13.776,1.378,-0.068,38.0
13.782,1.377,-0.146,36.0
13.778,1.374,-0.224,39.0
13.791,1.369,0.155,44.0
13.801,1.367,0.077,141.0
13.795,1.364,0.0,107.0
13.78,1.36,-0.08,38.0
13.784,1.358,-0.158,36.0
13.786,1.356,-0.236,35.0
13.801,1.351,0.144,44.0
13.8,1.348,0.066,112.0
13.796,1.345,-0.011,67.0
13.79,1.342,-0.091,37.0
13.794,1.339,-0.169,36.0
13.792,1.337,-0.247,32.0
13.817,1.333,0.133,40.0
13.813,1.329,0.055,67.0
13.812,1.326,-0.022,43.0
13.809,1.323,-0.102,33.0
13.807,1.321,-0.18,35.0
13.803,1.318,-0.258,33.0
13.827,1.313,0.122,37.0
13.832,1.311,0.044,38.0
13.828,1.307,-0.033,34.0
13.822,1.304,-0.113,30.0
13.825,1.302,-0.191,33.0
13.82,1.299,-0.269,31.0
13.849,1.295,0.112,29.0
13.848,1.292,0.034,31.0
13.834,1.287,-0.043,25.0
13.839,1.285,-0.123,25.0
13.836,1.282,-0.201,29.0
13.83,1.279,-0.279,25.0
26.489,2.436,0.196,3.0
13.882,1.273,0.024,13.0
13.869,1.269,-0.053,16.0
13.861,1.266,-0.133,21.0
13.862,1.263,-0.211,23.0
13.857,1.259,-0.289,17.0
26.536,2.399,0.178,23.0
26.604,2.399,0.028,24.0
26.597,2.393,-0.121,16.0
13.878,1.245,-0.143,8.0
13.885,1.243,-0.221,8.0
13.888,1.24,-0.299,6.0
26.593,2.362,0.16,12.0
26.659,2.362,0.01,24.0
35.044,3.097,-0.183,11.0
30.968,2.729,-0.339,1.0
23.237,2.043,-0.385,5.0
20.399,1.789,-0.453,3.0
54.48,4.751,0.294,13.0
34.299,2.983,-0.007,2.0
34.528,2.995,-0.201,11.0
30.66,2.653,-0.354,1.0
23.025,1.987,-0.396,5.0
20.21,1.74,-0.461,3.0
54.075,4.627,0.26,28.0
41.013,3.499,-0.033,32.0
34.901,2.969,-0.224,11.0
30.327,2.574,-0.368,2.0
22.57,1.91,-0.401,4.0
20.003,1.688,-0.468,3.0
53.527,4.491,0.227,13.0
40.956,3.426,-0.056,23.0
34.861,2.908,-0.243,10.0
30.018,2.497,-0.381,2.0
22.365,1.855,-0.409,4.0
19.86,1.643,-0.475,3.0
48.574,3.993,0.179,23.0
41.062,3.365,-0.078,4.0
34.863,2.849,-0.262,6.0
29.756,2.424,-0.393,1.0
22.104,1.795,-0.416,4.0
19.613,1.588,-0.479,3.0
48.331,3.89,0.154,22.0
37.549,3.012,-0.09,22.0
34.875,2.789,-0.279,9.0
29.562,2.357,-0.405,8.0
21.901,1.741,-0.423,4.0
19.531,1.548,-0.487,3.0
48.104,3.788,0.131,22.0
38.463,3.019,-0.11,14.0
34.865,2.728,-0.295,4.0
29.181,2.276,-0.413,1.0
21.644,1.682,-0.428,4.0
19.295,1.495,-0.489,3.0
47.804,3.68,0.109,13.0
36.322,2.786,-0.12,36.0
34.822,2.662,-0.31,7.0
25.13,1.915,-0.366,1.0
21.525,1.635,-0.434,4.0
19.211,1.454,-0.495,3.0
42.421,3.188,0.079,11.0
36.175,2.71,-0.134,44.0
0.0,0.0,0.0,0.0
24.977,1.858,-0.374,1.0
21.32,1.58,-0.438,4.0
19.052,1.407,-0.498,3.0
42.316,3.103,0.063,17.0
35.932,2.625,-0.146,43.0
34.952,2.545,-0.337,1.0
24.776,1.797,-0.38,1.0
21.226,1.535,-0.444,4.0
18.929,1.364,-0.501,4.0
42.161,3.015,0.049,17.0
0.0,0.0,0.0,0.0
32.304,2.292,-0.322,1.0
24.666,1.744,-0.386,3.0
21.112,1.487,-0.448,4.0
18.978,1.332,-0.509,3.0
42.005,2.925,0.036,23.0
35.718,2.477,-0.168,26.0
32.013,2.212,-0.329,1.0
24.463,1.684,-0.39,4.0
21.016,1.441,-0.452,4.0
18.843,1.287,-0.51,3.0
42.0,2.846,0.024,31.0
0.0,0.0,0.0,0.0
31.912,2.144,-0.336,1.0
24.617,1.648,-0.398,5.0
21.02,1.401,-0.457,4.0
18.786,1.247,-0.513,3.0
41.536,2.735,0.015,16.0
35.8,2.347,-0.186,23.0
31.488,2.056,-0.338,1.0
24.642,1.602,-0.404,6.0
20.911,1.354,-0.459,4.0
18.747,1.208,-0.516,3.0
41.662,2.663,0.006,43.0
35.703,2.272,-0.192,33.0
31.452,1.992,-0.343,1.0
24.216,1.527,-0.401,5.0
20.887,1.311,-0.462,4.0
18.689,1.168,-0.517,3.0
41.613,2.579,0.0,9.0
35.664,2.199,-0.197,31.0
31.273,1.92,-0.346,1.0
24.3,1.485,-0.406,5.0
20.853,1.268,-0.464,4.0
18.696,1.132,-0.52,3.0
41.448,2.488,-0.004,41.0
35.732,2.134,-0.201,22.0
31.144,1.851,-0.348,1.0
24.269,1.436,-0.408,5.0
20.831,1.226,-0.465,4.0
18.736,1.098,-0.522,3.0
40.926,2.377,-0.008,12.0
35.658,2.06,-0.204,12.0
31.132,1.79,-0.35,1.0
24.335,1.392,-0.411,5.0
20.922,1.19,-0.469,4.0
18.687,1.058,-0.522,3.0
41.462,2.326,-0.01,28.0
35.64,1.989,-0.205,22.0
31.096,1.726,-0.351,2.0
24.374,1.346,-0.412,5.0
20.961,1.151,-0.47,4.0
18.727,1.023,-0.523,4.0
41.483,2.245,-0.01,20.0
35.692,1.921,-0.205,21.0
31.308,1.675,-0.353,2.0
24.483,1.303,-0.413,4.0
20.956,1.109,-0.469,4.0
18.837,0.991,-0.526,3.0
41.554,2.166,-0.009,17.0
35.945,1.862,-0.206,23.0
31.415,1.618,-0.353,1.0
24.57,1.258,-0.414,5.0
21.088,1.074,-0.471,4.0
18.889,0.956,-0.526,3.0
41.773,2.094,-0.006,18.0
35.931,1.79,-0.203,35.0
31.374,1.554,-0.35,1.0
24.709,1.216,-0.414,3.0
21.135,1.033,-0.47,4.0
18.87,0.917,-0.524,3.0
41.972,2.02,-0.002,17.0
36.07,1.724,-0.2,31.0
31.645,1.503,-0.349,1.0
24.679,1.165,-0.41,1.0
21.147,0.991,-0.468,4.0
18.995,0.885,-0.525,3.0
42.216,1.946,0.004,18.0
36.173,1.656,-0.195,37.0
31.796,1.445,-0.346,2.0
24.851,1.122,-0.409,1.0
21.295,0.955,-0.467,4.0
19.134,0.852,-0.525,3.0
42.49,1.872,0.011,17.0
36.316,1.588,-0.188,34.0
31.848,1.383,-0.34,1.0
28.297,1.22,-0.46,1.0
21.366,0.915,-0.464,18.0
19.173,0.815,-0.522,3.0
0.0,0.0,0.0,0.0
36.428,1.521,-0.181,38.0
32.103,1.33,-0.335,1.0
28.359,1.166,-0.454,1.0
21.586,0.88,-0.464,4.0
19.299,0.781,-0.52,3.0
0.0,0.0,0.0,0.0
36.556,1.451,-0.172,33.0
32.319,1.272,-0.329,1.0
28.519,1.114,-0.449,2.0
21.815,0.845,-0.462,4.0
19.52,0.75,-0.521,3.0
47.596,1.807,0.05,23.0
39.478,1.486,-0.174,4.0
33.024,1.232,-0.325,1.0
28.666,1.06,-0.442,2.0
22.165,0.813,-0.463,4.0
19.692,0.716,-0.519,3.0
48.001,1.724,0.066,24.0
39.53,1.407,-0.16,28.0
33.372,1.177,-0.317,1.0
28.962,1.012,-0.436,2.0
22.474,0.778,-0.461,4.0
19.804,0.679,-0.514,3.0
48.501,1.641,0.085,23.0
39.634,1.328,-0.145,43.0
0.0,0.0,0.0,0.0
29.196,0.96,-0.428,2.0
22.748,0.741,-0.457,4.0
20.016,0.645,-0.511,3.0
48.807,1.552,0.106,23.0
0.0,0.0,0.0,0.0
36.127,1.125,-0.314,8.0
29.481,0.909,-0.419,2.0
23.287,0.711,-0.458,5.0
20.302,0.613,-0.51,3.0
49.137,1.463,0.129,7.0
39.638,1.167,-0.111,40.0
36.281,1.056,-0.298,7.0
29.716,0.855,-0.409,2.0
23.624,0.672,-0.453,5.0
20.541,0.578,-0.506,4.0
0.0,0.0,0.0,0.0
39.823,1.091,-0.092,18.0
36.443,0.987,-0.281,7.0
30.125,0.806,-0.399,1.0
27.099,0.716,-0.506,1.0
20.749,0.541,-0.5,6.0
54.75,1.406,0.199,14.0
42.733,1.083,-0.075,4.0
36.652,0.918,-0.263,11.0
30.58,0.755,-0.388,2.0
27.201,0.663,-0.493,1.0
21.03,0.505,-0.495,5.0
58.377,1.38,0.245,27.0
0.0,0.0,0.0,0.0
36.97,0.849,-0.244,13.0
31.032,0.703,-0.376,2.0
27.432,0.612,-0.48,1.0
21.364,0.47,-0.49,4.0
59.608,1.288,0.287,35.0
0.0,0.0,0.0,0.0
37.204,0.779,-0.222,25.0
31.563,0.651,-0.362,2.0
27.874,0.566,-0.471,1.0
21.749,0.434,-0.485,4.0
60.909,1.193,0.332,36.0
0.0,0.0,0.0,0.0
37.551,0.71,-0.2,37.0
32.401,0.603,-0.351,1.0
28.348,0.518,-0.46,2.0
22.05,0.396,-0.476,4.0
61.797,1.085,0.379,16.0
47.404,0.817,0.035,33.0
38.033,0.643,-0.176,47.0
32.966,0.546,-0.333,1.0
28.854,0.469,-0.447,2.0
22.357,0.356,-0.467,1.0
75.063,1.168,0.514,11.0
47.878,0.729,0.07,51.0
38.646,0.576,-0.151,53.0
33.673,0.49,-0.316,1.0
29.322,0.418,-0.433,2.0
26.224,0.365,-0.528,2.0
48.151,0.653,0.366,27.0
47.974,0.635,0.106,63.0
39.178,0.506,-0.123,39.0
37.18,0.468,-0.32,2.0
29.745,0.365,-0.416,2.0
26.575,0.317,-0.515,3.0
48.081,0.558,0.402,97.0
48.02,0.541,0.144,76.0
39.833,0.436,-0.094,15.0
37.336,0.397,-0.292,5.0
30.26,0.311,-0.399,2.0
26.95,0.268,-0.5,2.0
48.069,0.463,0.442,108.0
48.026,0.447,0.183,100.0
44.127,0.396,-0.067,18.0
37.631,0.325,-0.262,8.0
30.877,0.257,-0.381,1.0
27.371,0.219,-0.484,1.0
48.106,0.367,0.484,76.0
48.145,0.352,0.226,54.0
0.0,0.0,0.0,0.0
38.168,0.254,-0.232,14.0
31.72,0.201,-0.363,1.0
28.034,0.169,-0.471,1.0
59.296,0.337,0.65,70.0
59.342,0.319,0.332,9.0
47.029,0.237,0.012,31.0
38.658,0.182,-0.2,31.0
32.846,0.144,-0.345,1.0
28.685,0.117,-0.455,2.0
79.463,0.298,0.944,151.0
76.23,0.261,0.499,30.0
47.943,0.149,0.057,21.0
39.273,0.109,-0.166,40.0
33.44,0.082,-0.32,0.0
29.316,0.062,-0.437,2.0
79.468,0.145,1.021,151.0
79.395,0.119,0.596,12.0
0.0,0.0,0.0,0.0
40.506,0.035,-0.132,17.0
37.999,0.021,-0.326,1.0
29.866,0.007,-0.415,1.0
79.461,-0.005,1.1,151.0
79.388,-0.029,0.675,144.0
56.05,-0.039,0.178,23.0
0.0,0.0,0.0,0.0
38.535,-0.05,-0.291,3.0
30.438,-0.049,-0.392,1.0
79.456,-0.153,1.181,151.0
79.459,-0.179,0.758,150.0
61.545,-0.157,0.259,12.0
0.0,0.0,0.0,0.0
39.146,-0.124,-0.255,5.0
31.344,-0.109,-0.371,1.0
79.448,-0.301,1.264,158.0
79.465,-0.326,0.842,157.0
76.632,-0.338,0.405,9.0
47.195,-0.223,-0.005,21.0
39.848,-0.201,-0.216,6.0
32.628,-0.175,-0.35,1.0
79.448,-0.45,1.352,163.0
79.455,-0.474,0.93,190.0
77.011,-0.483,0.493,12.0
52.539,-0.345,0.052,11.0
44.362,-0.305,-0.191,3.0
33.671,-0.242,-0.324,1.0
79.443,-0.594,1.441,168.0
79.444,-0.618,1.02,190.0
79.158,-0.639,0.596,50.0
60.756,-0.51,0.129,0.0
50.548,-0.439,-0.16,10.0
36.722,-0.33,-0.311,1.0
79.441,-0.737,1.533,179.0
79.446,-0.761,1.112,191.0
79.45,-0.786,0.691,150.0
60.267,-0.613,0.198,5.0
53.338,-0.559,-0.106,5.0
42.017,-0.453,-0.305,0.0
79.431,-0.878,1.627,166.0
79.417,-0.902,1.206,255.0
79.558,-0.928,0.787,3.0
78.0,-0.933,0.351,1.0
54.484,-0.668,-0.042,4.0
42.427,-0.533,-0.257,3.0
86.935,-1.116,1.887,46.0
86.952,-1.141,1.427,150.0
123.536,-1.658,1.374,12.0
82.112,-1.126,0.471,1.0
60.791,-0.852,0.027,1.0
46.2,-0.661,-0.222,2.0
187.177,-2.726,4.295,34.0
0.0,0.0,0.0,0.0
148.935,-2.258,1.845,11.0
91.58,-1.415,0.642,7.0
248.484,-3.911,0.429,56.0
40.357,-0.646,-0.143,0.0
248.311,-4.043,6.015,40.0
0.0,0.0,0.0,0.0
205.428,-3.465,2.809,28.0
40.251,-0.69,0.334,44.0
40.273,-0.702,0.122,61.0
40.31,-0.714,-0.09,64.0
40.252,-0.723,1.027,58.0
40.186,-0.733,0.813,56.0
40.258,-0.746,0.603,40.0
40.225,-0.757,0.386,58.0
40.279,-0.769,0.175,48.0
56.509,-1.095,-0.052,0.0
40.283,-0.79,1.081,48.0
40.224,-0.8,0.868,46.0
40.229,-0.812,0.656,54.0
40.253,-0.823,0.44,35.0
85.933,-1.781,0.488,1.0
0.0,0.0,0.0,0.0
40.23,-0.855,1.134,53.0
40.207,-0.865,0.921,58.0
40.205,-0.876,0.71,46.0
40.298,-0.888,0.495,25.0
40.306,-0.9,0.283,150.0
40.289,-0.911,0.072,52.0
40.241,-0.918,1.189,55.0
40.198,-0.928,0.976,59.0
40.185,-0.939,0.765,59.0
40.253,-0.951,0.55,52.0
40.285,-0.962,0.339,2.0
0.0,0.0,0.0,0.0
40.265,-0.982,1.246,64.0
40.199,-0.991,1.033,56.0
40.188,-1.001,0.821,51.0
40.203,-1.012,0.606,56.0
40.195,-1.022,0.395,48.0
40.207,-1.034,0.184,44.0
40.291,-1.045,1.304,43.0
40.205,-1.053,1.09,51.0
40.2,-1.064,0.879,44.0
40.246,-1.075,0.665,42.0
40.221,-1.085,0.454,36.0
40.192,-1.094,0.243,55.0
40.304,-1.106,1.363,0.0
40.236,-1.115,1.15,35.0
40.372,-1.129,0.942,1.0
0.0,0.0,0.0,0.0
153.797,-4.38,1.962,31.0
0.0,0.0,0.0,0.0
0.0,0.0,0.0,0.0
40.291,-1.176,1.211,5.0
40.304,-1.187,1.0,27.0
40.314,-1.196,0.785,23.0
40.351,-1.208,0.575,37.0
0.0,0.0,0.0,0.0
0.0,0.0,0.0,0.0
0.0,0.0,0.0,0.0
40.33,-1.245,1.061,19.0
40.323,-1.255,0.847,14.0
40.346,-1.266,0.636,29.0
0.0,0.0,0.0,0.0
0.0,0.0,0.0,0.0
0.0,0.0,0.0,0.0
0.0,0.0,0.0,0.0
0.0,0.0,0.0,0.0
0.0,0.0,0.0,0.0
0.0,0.0,0.0,0.0
147.955,-4.913,5.897,4.0
0.0,0.0,0.0,0.0
0.0,0.0,0.0,0.0
0.0,0.0,0.0,0.0
0.0,0.0,0.0,0.0
0.0,0.0,0.0,0.0
0.0,0.0,0.0,0.0
0.0,0.0,0.0,0.0
0.0,0.0,0.0,0.0
0.0,0.0,0.0,0.0
0.0,0.0,0.0,0.0
0.0,0.0,0.0,0.0
0.0,0.0,0.0,0.0
0.0,0.0,0.0,0.0
0.0,0.0,0.0,0.0
0.0,0.0,0.0,0.0
0.0,0.0,0.0,0.0
0.0,0.0,0.0,0.0
0.0,0.0,0.0,0.0
0.0,0.0,0.0,0.0
0.0,0.0,0.0,0.0
0.0,0.0,0.0,0.0
0.0,0.0,0.0,0.0
0.0,0.0,0.0,0.0
0.0,0.0,0.0,0.0
0.0,0.0,0.0,0.0
0.0,0.0,0.0,0.0
0.0,0.0,0.0,0.0
0.0,0.0,0.0,0.0
0.0,0.0,0.0,0.0
0.0,0.0,0.0,0.0
0.0,0.0,0.0,0.0
0.0,0.0,0.0,0.0
0.0,0.0,0.0,0.0
0.0,0.0,0.0,0.0
0.0,0.0,0.0,0.0
0.0,0.0,0.0,0.0
0.0,0.0,0.0,0.0
0.0,0.0,0.0,0.0
0.0,0.0,0.0,0.0
0.0,0.0,0.0,0.0
0.0,0.0,0.0,0.0
0.0,0.0,0.0,0.0
0.0,0.0,0.0,0.0
0.0,0.0,0.0,0.0
0.0,0.0,0.0,0.0
0.0,0.0,0.0,0.0
0.0,0.0,0.0,0.0
0.0,0.0,0.0,0.0
0.0,0.0,0.0,0.0
0.0,0.0,0.0,0.0
0.0,0.0,0.0,0.0
0.0,0.0,0.0,0.0
0.0,0.0,0.0,0.0
0.0,0.0,0.0,0.0
0.0,0.0,0.0,0.0
0.0,0.0,0.0,0.0
0.0,0.0,0.0,0.0
0.0,0.0,0.0,0.0
0.0,0.0,0.0,0.0
0.0,0.0,0.0,0.0
0.0,0.0,0.0,0.0
0.0,0.0,0.0,0.0
0.0,0.0,0.0,0.0
0.0,0.0,0.0,0.0
0.0,0.0,0.0,0.0
0.0,0.0,0.0,0.0
0.0,0.0,0.0,0.0
0.0,0.0,0.0,0.0
0.0,0.0,0.0,0.0
0.0,0.0,0.0,0.0
83.345,-3.922,4.956,1.0
0.0,0.0,0.0,0.0
0.0,0.0,0.0,0.0
0.0,0.0,0.0,0.0
0.0,0.0,0.0,0.0
0.0,0.0,0.0,0.0
83.266,-3.993,5.093,2.0
0.0,0.0,0.0,0.0
0.0,0.0,0.0,0.0
0.0,0.0,0.0,0.0
0.0,0.0,0.0,0.0
0.0,0.0,0.0,0.0
83.206,-4.063,5.232,1.0
0.0,0.0,0.0,0.0
0.0,0.0,0.0,0.0
0.0,0.0,0.0,0.0
0.0,0.0,0.0,0.0
0.0,0.0,0.0,0.0
0.0,0.0,0.0,0.0
0.0,0.0,0.0,0.0
0.0,0.0,0.0,0.0
0.0,0.0,0.0,0.0
0.0,0.0,0.0,0.0
0.0,0.0,0.0,0.0
90.409,-4.561,5.998,1.0
0.0,0.0,0.0,0.0
0.0,0.0,0.0,0.0
0.0,0.0,0.0,0.0
0.0,0.0,0.0,0.0
0.0,0.0,0.0,0.0
92.929,-4.758,6.325,2.0
0.0,0.0,0.0,0.0
0.0,0.0,0.0,0.0
0.0,0.0,0.0,0.0
0.0,0.0,0.0,0.0
0.0,0.0,0.0,0.0
90.26,-4.686,6.3,4.0
0.0,0.0,0.0,0.0
0.0,0.0,0.0,0.0
0.0,0.0,0.0,0.0
0.0,0.0,0.0,0.0
211.587,-11.084,9.231,6.0
92.929,-4.886,6.648,3.0
0.0,0.0,0.0,0.0
0.0,0.0,0.0,0.0
0.0,0.0,0.0,0.0
0.0,0.0,0.0,0.0
0.0,0.0,0.0,0.0
91.416,-4.864,6.698,3.0
0.0,0.0,0.0,0.0
0.0,0.0,0.0,0.0
0.0,0.0,0.0,0.0
0.0,0.0,0.0,0.0
0.0,0.0,0.0,0.0
91.517,-4.922,6.863,3.0
92.874,-5.002,6.479,4.0
0.0,0.0,0.0,0.0
0.0,0.0,0.0,0.0
0.0,0.0,0.0,0.0
0.0,0.0,0.0,0.0
91.532,-4.972,7.022,3.0
92.844,-5.049,6.637,4.0
0.0,0.0,0.0,0.0
0.0,0.0,0.0,0.0
0.0,0.0,0.0,0.0
0.0,0.0,0.0,0.0
91.531,-5.018,7.18,4.0
0.0,0.0,0.0,0.0
0.0,0.0,0.0,0.0
0.0,0.0,0.0,0.0
164.728,-9.064,9.455,4.0
211.189,-11.631,11.018,5.0
0.0,0.0,0.0,0.0
0.0,0.0,0.0,0.0
0.0,0.0,0.0,0.0
0.0,0.0,0.0,0.0
0.0,0.0,0.0,0.0
0.0,0.0,0.0,0.0
0.0,0.0,0.0,0.0
92.869,-5.175,7.114,1.0
0.0,0.0,0.0,0.0
0.0,0.0,0.0,0.0
165.082,-9.216,10.037,3.0
164.703,-9.201,9.154,3.0
0.0,0.0,0.0,0.0
93.098,-5.223,7.291,2.0
0.0,0.0,0.0,0.0
0.0,0.0,0.0,0.0
0.0,0.0,0.0,0.0
164.889,-9.266,9.442,3.0
0.0,0.0,0.0,0.0
0.0,0.0,0.0,0.0
0.0,0.0,0.0,0.0
93.078,-5.254,6.46,1.0
0.0,0.0,0.0,0.0
0.0,0.0,0.0,0.0
0.0,0.0,0.0,0.0
0.0,0.0,0.0,0.0
0.0,0.0,0.0,0.0
0.0,0.0,0.0,0.0
0.0,0.0,0.0,0.0
0.0,0.0,0.0,0.0
0.0,0.0,0.0,0.0
0.0,0.0,0.0,0.0
0.0,0.0,0.0,0.0
0.0,0.0,0.0,0.0
0.0,0.0,0.0,0.0
0.0,0.0,0.0,0.0
0.0,0.0,0.0,0.0
0.0,0.0,0.0,0.0
0.0,0.0,0.0,0.0
0.0,0.0,0.0,0.0
0.0,0.0,0.0,0.0
0.0,0.0,0.0,0.0
0.0,0.0,0.0,0.0
0.0,0.0,0.0,0.0
0.0,0.0,0.0,0.0
0.0,0.0,0.0,0.0
92.934,-5.32,6.578,1.0
0.0,0.0,0.0,0.0
0.0,0.0,0.0,0.0
0.0,0.0,0.0,0.0
0.0,0.0,0.0,0.0
0.0,0.0,0.0,0.0
0.0,0.0,0.0,0.0
0.0,0.0,0.0,0.0
0.0,0.0,0.0,0.0
0.0,0.0,0.0,0.0
0.0,0.0,0.0,0.0
0.0,0.0,0.0,0.0
0.0,0.0,0.0,0.0
0.0,0.0,0.0,0.0
0.0,0.0,0.0,0.0
0.0,0.0,0.0,0.0
0.0,0.0,0.0,0.0
0.0,0.0,0.0,0.0
0.0,0.0,0.0,0.0
0.0,0.0,0.0,0.0
0.0,0.0,0.0,0.0
0.0,0.0,0.0,0.0
0.0,0.0,0.0,0.0
0.0,0.0,0.0,0.0
0.0,0.0,0.0,0.0
0.0,0.0,0.0,0.0
0.0,0.0,0.0,0.0
0.0,0.0,0.0,0.0
0.0,0.0,0.0,0.0
0.0,0.0,0.0,0.0
0.0,0.0,0.0,0.0
0.0,0.0,0.0,0.0
0.0,0.0,0.0,0.0
0.0,0.0,0.0,0.0
0.0,0.0,0.0,0.0
0.0,0.0,0.0,0.0
0.0,0.0,0.0,0.0
0.0,0.0,0.0,0.0
0.0,0.0,0.0,0.0
0.0,0.0,0.0,0.0
0.0,0.0,0.0,0.0
0.0,0.0,0.0,0.0
0.0,0.0,0.0,0.0
0.0,0.0,0.0,0.0
0.0,0.0,0.0,0.0
0.0,0.0,0.0,0.0
0.0,0.0,0.0,0.0
0.0,0.0,0.0,0.0
0.0,0.0,0.0,0.0
93.115,-5.288,7.258,1.0
0.0,0.0,0.0,0.0
0.0,0.0,0.0,0.0
0.0,0.0,0.0,0.0
0.0,0.0,0.0,0.0
0.0,0.0,0.0,0.0
93.151,-5.269,7.397,1.0
0.0,0.0,0.0,0.0
0.0,0.0,0.0,0.0
0.0,0.0,0.0,0.0
0.0,0.0,0.0,0.0
0.0,0.0,0.0,0.0
0.0,0.0,0.0,0.0
49.349,-2.788,5.381,3.0
56.591,-3.191,5.868,1.0
0.0,0.0,0.0,0.0
0.0,0.0,0.0,0.0
0.0,0.0,0.0,0.0
0.0,0.0,0.0,0.0
49.366,-2.773,5.453,3.0
56.563,-3.171,5.945,1.0
0.0,0.0,0.0,0.0
0.0,0.0,0.0,0.0
0.0,0.0,0.0,0.0
0.0,0.0,0.0,0.0
0.0,0.0,0.0,0.0
0.0,0.0,0.0,0.0
56.56,-3.145,5.72,2.0
0.0,0.0,0.0,0.0
0.0,0.0,0.0,0.0
0.0,0.0,0.0,0.0
50.328,-2.791,5.699,0.0
49.43,-2.735,5.331,2.0
56.552,-3.123,5.796,2.0
0.0,0.0,0.0,0.0
0.0,0.0,0.0,0.0
0.0,0.0,0.0,0.0
50.283,-2.767,5.762,7.0
49.417,-2.713,5.396,4.0
0.0,0.0,0.0,0.0
0.0,0.0,0.0,0.0
90.701,-4.946,8.435,1.0
0.0,0.0,0.0,0.0
48.346,-2.639,5.604,13.0
0.0,0.0,0.0,0.0
0.0,0.0,0.0,0.0
56.569,-3.065,5.637,5.0
56.891,-3.075,5.363,1.0
92.389,-4.983,8.215,5.0
48.731,-2.636,5.711,23.0
56.898,-3.07,6.361,12.0
0.0,0.0,0.0,0.0
0.0,0.0,0.0,0.0
56.855,-3.045,5.431,2.0
0.0,0.0,0.0,0.0
48.638,-2.606,5.761,19.0
50.169,-2.681,5.671,4.0
49.424,-2.634,5.32,4.0
0.0,0.0,0.0,0.0
56.631,-3.002,5.479,5.0
90.775,-4.799,8.294,2.0
0.0,0.0,0.0,0.0
48.32,-2.555,5.52,8.0
56.986,-3.005,6.202,6.0
0.0,0.0,0.0,0.0
56.645,-2.969,5.548,1.0
90.654,-4.74,8.391,4.0
56.725,-2.974,6.857,5.0
48.472,-2.534,5.596,22.0
56.841,-2.963,6.254,1.0
55.258,-2.872,5.775,3.0
92.692,-4.803,9.186,1.0
56.814,-2.936,5.324,2.0
48.987,-2.539,5.978,0.0
48.946,-2.528,5.707,10.0
50.233,-2.587,5.584,6.0
49.471,-2.54,5.226,1.0
92.574,-4.739,9.279,1.0
56.613,-2.888,5.369,6.0
0.0,0.0,0.0,0.0
0.0,0.0,0.0,0.0
54.796,-2.786,6.152,8.0
49.444,-2.505,5.278,7.0
92.833,-4.689,9.407,3.0
63.709,-3.207,6.111,3.0
0.0,0.0,0.0,0.0
0.0,0.0,0.0,0.0
48.345,-2.424,5.48,9.0
54.834,-2.74,5.911,5.0
55.17,-2.748,5.648,4.0
92.623,-4.599,8.981,3.0
46.523,-2.316,5.83,3.0
49.046,-2.433,5.878,7.0
48.407,-2.393,5.537,21.0
55.333,-2.725,6.023,13.0
63.232,-3.103,6.539,2.0
92.65,-4.532,9.078,7.0
46.572,-2.284,5.884,2.0
48.937,-2.391,5.915,5.0
48.799,-2.375,5.631,10.0
56.629,-2.747,6.22,7.0
55.026,-2.658,5.744,9.0
54.996,-2.648,5.442,2.0
48.725,-2.352,6.204,23.0
50.578,-2.432,6.162,1.0
48.534,-2.325,5.647,9.0
49.311,-2.354,5.463,4.0
49.461,-2.351,5.21,3.0
57.989,-2.747,5.792,5.0
48.515,-2.304,6.223,13.0
46.756,-2.211,5.74,3.0
47.555,-2.24,5.577,4.0
55.083,-2.585,6.153,6.0
56.623,-2.647,6.016,5.0
55.072,-2.564,5.551,4.0
48.032,-2.241,6.205,23.0
46.779,-2.174,5.786,5.0
49.622,-2.296,5.864,4.0
50.861,-2.344,5.726,6.0
49.561,-2.275,5.309,4.0
55.039,-2.516,5.595,20.0
47.446,-2.174,6.17,8.0
48.714,-2.222,6.066,6.0
49.521,-2.25,5.894,6.0
48.677,-2.203,5.521,6.0
40.544,-1.826,4.376,10.0
57.306,-2.571,5.872,14.0
47.45,-2.133,6.21,9.0
48.542,-2.172,6.084,22.0
46.079,-2.053,5.522,4.0
48.774,-2.164,5.571,11.0
49.64,-2.193,5.397,5.0
56.879,-2.502,5.872,13.0
47.345,-2.086,6.234,2.0
48.249,-2.116,6.086,21.0
48.828,-2.132,5.889,4.0
40.529,-1.761,4.66,8.0
40.587,-1.756,4.444,57.0
53.126,-2.288,5.525,2.0
42.194,-1.821,5.587,12.0
57.038,-2.449,7.236,4.0
40.301,-1.722,4.89,16.0
40.499,-1.723,4.686,3.0
40.514,-1.715,4.464,59.0
40.572,-1.71,4.248,2.0
42.279,-1.784,5.629,57.0
50.69,-2.129,6.467,8.0
40.289,-1.683,4.916,51.0
40.772,-1.695,4.746,16.0
43.212,-1.788,4.791,3.0
40.419,-1.664,4.259,40.0
42.26,-1.742,5.654,42.0
62.47,-2.563,8.011,11.0
40.255,-1.643,4.938,55.0
40.832,-1.658,4.779,15.0
40.28,-1.628,4.491,60.0
40.373,-1.624,4.279,54.0
42.264,-1.701,5.681,42.0
42.084,-1.685,5.423,17.0
40.305,-1.606,4.969,47.0
40.501,-1.605,4.764,46.0
40.404,-1.593,4.529,54.0
40.335,-1.582,4.298,59.0
42.213,-1.657,5.699,40.0
42.099,-1.643,5.449,52.0
40.342,-1.566,4.997,57.0
40.464,-1.563,4.782,57.0
40.251,-1.546,4.534,50.0
40.346,-1.542,4.321,62.0
42.209,-1.614,5.721,50.0
42.137,-1.602,5.476,58.0
40.228,-1.521,5.003,48.0
40.498,-1.522,4.807,53.0
40.479,-1.514,4.58,47.0
40.452,-1.504,4.353,44.0
42.136,-1.567,5.732,40.0
42.354,-1.567,5.525,61.0
43.623,-1.604,5.447,4.0
40.443,-1.479,4.82,46.0
40.189,-1.461,4.566,57.0
40.423,-1.461,4.368,45.0
42.551,-1.537,5.808,65.0
42.388,-1.523,5.548,45.0
43.579,-1.556,5.46,6.0
40.31,-1.431,4.821,54.0
40.207,-1.419,4.585,60.0
40.272,-1.412,4.368,48.0
42.055,-1.475,5.758,60.0
42.117,-1.468,5.53,53.0
40.376,-1.398,5.075,29.0
40.525,-1.395,4.862,52.0
40.239,-1.377,4.603,60.0
40.117,-1.364,4.366,53.0
41.964,-1.425,5.761,54.0
42.099,-1.421,5.542,55.0
43.117,-1.446,5.434,3.0
40.443,-1.348,4.866,54.0
40.364,-1.337,4.631,47.0
39.964,-1.315,4.362,48.0
42.018,-1.381,5.782,51.0
42.01,-1.372,5.544,65.0
41.163,-1.335,5.2,60.0
40.353,-1.3,4.867,62.0
40.085,-1.283,4.61,48.0
39.948,-1.271,4.371,58.0
42.222,-1.341,5.821,36.0
41.957,-1.323,5.548,45.0
0.0,0.0,0.0,0.0
40.477,-1.259,4.892,52.0
39.669,-1.226,4.572,57.0
40.02,-1.228,4.389,53.0
42.226,-1.293,5.831,59.0
41.981,-1.277,5.56,29.0
41.983,-1.268,5.323,41.0
40.587,-1.217,4.914,56.0
39.429,-1.174,4.552,61.0
40.118,-1.187,4.407,65.0
42.361,-1.25,5.858,54.0
50.841,-1.489,6.742,7.0
39.869,-1.159,5.062,45.0
40.172,-1.159,4.87,43.0
39.443,-1.13,4.559,58.0
39.652,-1.128,4.361,60.0
42.327,-1.201,5.858,57.0
42.29,-1.191,5.614,30.0
39.864,-1.114,5.066,37.0
40.136,-1.113,4.87,42.0
39.493,-1.087,4.569,55.0
39.422,-1.077,4.339,48.0
42.404,-1.155,5.873,48.0
42.731,-1.154,5.675,57.0
39.557,-1.06,5.03,62.0
40.19,-1.068,4.879,52.0
39.245,-1.035,4.543,63.0
39.288,-1.028,4.326,65.0
41.928,-1.094,5.809,54.0
42.121,-1.09,5.596,54.0
39.539,-1.014,5.028,48.0
40.043,-1.018,4.862,78.0
39.214,-0.989,4.539,56.0
39.39,-0.986,4.338,50.0
42.077,-1.048,5.829,40.0
42.137,-1.04,5.597,53.0
39.501,-0.967,5.023,49.0
40.154,-0.975,4.874,49.0
39.153,-0.942,4.531,64.0
39.486,-0.942,4.347,62.0
41.792,-0.993,5.787,77.0
41.985,-0.988,5.574,54.0
39.463,-0.92,5.015,54.0
39.583,-0.915,4.802,65.0
39.452,-0.904,4.562,48.0
39.028,-0.886,4.293,58.0
41.92,-0.946,5.801,58.0
41.91,-0.938,5.56,54.0
39.489,-0.875,5.014,59.0
39.632,-0.87,4.803,69.0
39.259,-0.854,4.535,57.0
38.975,-0.84,4.281,59.0
41.968,-0.898,5.802,52.0
42.034,-0.891,5.57,60.0
39.519,-0.829,5.011,57.0
39.291,-0.817,4.755,65.0
39.179,-0.807,4.519,65.0
38.96,-0.795,4.273,66.0
41.956,-0.849,5.792,35.0
41.814,-0.837,5.533,44.0
39.459,-0.782,4.996,60.0
39.277,-0.77,4.744,53.0
39.361,-0.764,4.531,52.0
39.041,-0.751,4.272,55.0
42.385,-0.808,5.841,61.0
0.0,0.0,0.0,0.0
39.577,-0.738,5.0,19.0
39.248,-0.724,4.731,57.0
39.331,-0.718,4.517,58.0
38.974,-0.704,4.254,61.0
42.062,-0.753,5.784,48.0
39.892,-0.706,5.257,44.0
39.636,-0.693,4.996,53.0
39.164,-0.677,4.709,69.0
39.768,-0.68,4.554,54.0
39.431,-0.667,4.292,48.0
42.435,-0.709,5.821,45.0
39.922,-0.659,5.247,61.0
39.701,-0.648,4.99,58.0
39.56,-0.638,4.742,48.0
39.489,-0.629,4.508,55.0
39.199,-0.617,4.252,50.0
43.13,-0.67,5.9,27.0
39.925,-0.612,5.232,47.0
39.795,-0.603,4.986,44.0
40.026,-0.598,4.782,59.0
39.687,-0.586,4.514,60.0
39.149,-0.57,4.23,30.0
39.926,-0.574,5.444,46.0
39.915,-0.566,5.213,46.0
39.909,-0.558,4.983,54.0
39.995,-0.552,4.76,48.0
39.695,-0.54,4.497,61.0
0.0,0.0,0.0,0.0
39.915,-0.527,5.424,32.0
39.989,-0.521,5.203,54.0
39.934,-0.513,4.966,61.0
39.972,-0.505,4.738,57.0
39.737,-0.495,4.482,48.0
39.378,-0.483,4.217,46.0
39.974,-0.482,5.411,44.0
39.929,-0.474,5.175,73.0
39.952,-0.467,4.947,39.0
40.103,-0.461,4.731,46.0
39.694,-0.449,4.456,57.0
39.396,-0.439,4.197,63.0
40.07,-0.437,5.401,47.0
39.858,-0.427,5.143,68.0
39.862,-0.42,4.913,39.0
40.205,-0.417,4.72,46.0
39.986,-0.407,4.465,57.0
39.316,-0.394,4.165,47.0
40.023,-0.392,5.371,59.0
39.831,-0.382,5.115,60.0
39.743,-0.375,4.874,53.0
40.104,-0.371,4.683,44.0
39.739,-0.36,4.412,56.0
39.518,-0.351,4.161,55.0
40.1,-0.347,5.355,43.0
39.652,-0.336,5.066,47.0
39.69,-0.33,4.841,67.0
40.205,-0.327,4.668,22.0
40.524,-0.323,4.472,22.0
39.725,-0.309,4.156,36.0
39.742,-0.3,5.279,60.0
39.622,-0.292,5.034,51.0
39.631,-0.285,4.805,48.0
39.884,-0.28,4.602,25.0
39.928,-0.274,4.377,57.0
39.476,-0.264,4.101,43.0
39.465,-0.254,5.213,48.0
39.627,-0.248,5.004,58.0
39.688,-0.243,4.783,35.0
39.573,-0.235,4.536,30.0
40.116,-0.232,4.367,53.0
39.643,-0.223,4.088,49.0
39.347,-0.211,5.167,65.0
39.62,-0.206,4.972,57.0
39.661,-0.2,4.748,41.0
40.474,-0.197,4.607,28.0
40.082,-0.189,4.331,48.0
39.662,-0.18,4.058,62.0
39.415,-0.169,5.142,62.0
39.595,-0.163,4.936,65.0
39.705,-0.157,4.72,41.0
46.93,-0.179,5.302,6.0
40.781,-0.149,4.372,46.0
40.3,-0.141,4.089,50.0
39.405,-0.127,5.107,71.0
39.617,-0.121,4.904,58.0
39.916,-0.116,4.709,44.0
40.246,-0.111,4.511,45.0
41.073,-0.107,4.367,42.0
40.939,-0.1,4.116,30.0
39.651,-0.086,5.102,52.0
39.553,-0.08,4.859,48.0
39.955,-0.074,4.676,42.0
40.45,-0.069,4.496,31.0
40.756,-0.064,4.295,34.0
40.862,-0.058,4.07,32.0
39.508,-0.045,5.045,64.0
39.55,-0.039,4.821,48.0
39.855,-0.034,4.626,38.0
40.428,-0.028,4.454,49.0
40.477,-0.022,4.226,52.0
41.202,-0.017,4.063,29.0
39.434,-0.005,4.996,58.0
39.509,0.0,4.776,52.0
39.71,0.006,4.569,54.0
40.374,0.012,4.407,63.0
40.349,0.017,4.171,52.0
40.335,0.023,3.936,57.0
39.418,0.034,4.953,44.0
39.828,0.039,4.772,51.0
39.906,0.045,4.55,52.0
40.128,0.051,4.338,64.0
40.017,0.056,4.094,70.0
40.236,0.062,3.884,52.0
39.332,0.072,4.9,60.0
43.776,0.086,5.198,6.0
39.965,0.084,4.512,50.0
40.28,0.09,4.31,46.0
40.05,0.094,4.054,63.0
59.222,0.147,5.652,16.0
43.27,0.12,5.341,13.0
39.644,0.115,4.663,26.0
40.227,0.122,4.497,46.0
40.753,0.129,4.314,17.0
40.086,0.132,4.012,63.0
59.196,0.202,5.582,48.0
49.979,0.186,6.111,7.0
43.927,0.169,5.114,21.0
40.157,0.159,4.442,58.0
40.195,0.164,4.208,61.0
40.225,0.169,3.978,51.0
47.641,0.206,4.435,84.0
43.819,0.203,5.305,4.0
43.09,0.205,4.965,4.0
40.222,0.195,4.4,58.0
40.171,0.2,4.157,58.0
47.605,0.243,4.65,4.0
47.674,0.249,4.38,37.0
39.667,0.219,4.753,62.0
40.538,0.228,4.62,42.0
40.177,0.231,4.345,61.0
40.22,0.235,4.111,48.0
47.523,0.284,4.582,34.0
57.259,0.349,5.189,16.0
39.631,0.253,4.698,48.0
40.301,0.262,4.541,59.0
40.226,0.265,4.298,34.0
40.187,0.27,4.056,21.0
47.601,0.324,4.528,25.0
57.215,0.396,5.111,21.0
40.259,0.291,4.719,55.0
40.483,0.297,4.509,48.0
40.611,0.301,4.286,20.0
47.391,0.356,4.721,10.0
39.995,0.305,3.752,46.0
48.787,0.377,4.294,44.0
40.181,0.322,4.656,53.0
40.309,0.327,4.435,38.0
40.426,0.332,4.212,62.0
47.588,0.396,4.676,11.0
40.065,0.337,3.704,47.0
48.742,0.415,4.224,70.0
40.135,0.353,4.596,67.0
44.128,0.393,4.794,35.0
40.154,0.361,4.128,42.0
47.67,0.433,4.618,7.0
40.003,0.367,3.642,72.0
48.702,0.452,4.152,58.0
40.488,0.388,4.578,61.0
41.153,0.397,4.413,16.0
39.922,0.389,4.047,43.0
64.389,0.633,6.146,21.0
48.913,0.485,4.384,5.0
48.458,0.485,4.061,87.0
40.9,0.422,4.566,49.0
56.245,0.584,5.949,7.0
47.683,0.499,4.765,4.0
40.099,0.423,3.769,42.0
48.736,0.518,4.297,11.0
48.452,0.519,3.991,106.0
41.412,0.456,4.561,24.0
40.975,0.454,4.273,50.0
47.684,0.533,4.694,6.0
39.988,0.449,3.699,42.0
48.405,0.548,4.196,99.0
48.473,0.552,3.919,58.0
41.254,0.482,4.481,18.0
40.431,0.475,4.154,71.0
56.223,0.666,5.449,17.0
39.963,0.476,3.635,53.0
48.434,0.58,4.123,71.0
56.15,0.676,4.454,76.0
47.64,0.588,5.1,5.0
40.727,0.505,4.121,21.0
40.185,0.501,3.831,27.0
39.835,0.499,3.561,59.0
56.184,0.709,4.695,79.0
61.677,0.782,4.795,10.0
47.6,0.617,5.02,42.0
52.41,0.682,5.22,7.0
48.324,0.632,4.53,16.0
39.764,0.523,3.492,61.0
56.202,0.742,4.607,51.0
64.243,0.853,4.893,23.0
41.149,0.557,4.273,18.0
40.116,0.546,3.931,36.0
40.095,0.547,3.694,47.0
39.856,0.547,3.435,63.0
64.472,0.888,5.181,19.0
64.154,0.887,4.782,32.0
43.047,0.607,4.4,24.0
39.969,0.565,3.851,56.0
39.977,0.567,3.618,61.0
39.985,0.57,3.381,11.0
84.794,1.212,6.676,11.0
91.579,1.314,6.677,7.0
40.518,0.592,4.074,42.0
40.049,0.587,3.792,51.0
39.828,0.585,3.538,54.0
40.012,0.59,3.317,8.0
91.767,1.358,7.072,27.0
91.504,1.357,6.519,40.0
40.457,0.611,4.0,61.0
40.162,0.608,3.735,63.0
39.858,0.605,3.473,60.0
85.124,1.295,6.912,12.0
91.264,1.393,6.878,16.0
91.781,1.405,6.382,37.0
39.926,0.621,3.878,50.0
39.992,0.623,3.65,63.0
39.917,0.624,3.41,58.0
84.499,1.323,6.715,10.0
91.312,1.433,6.724,7.0
91.801,1.444,6.226,52.0
40.006,0.639,3.817,44.0
73.479,1.176,6.58,11.0
39.926,0.64,3.341,61.0
91.141,1.464,7.086,13.0
91.694,1.475,6.594,4.0
124.783,2.013,8.245,21.0
40.062,0.655,3.751,51.0
39.891,0.653,3.501,58.0
77.437,1.271,6.342,40.0
94.112,1.546,7.148,4.0
91.761,1.51,6.435,56.0
76.385,1.259,4.911,19.0
40.065,0.669,3.679,54.0
39.918,0.668,3.431,71.0
77.051,1.291,6.172,57.0
77.352,1.297,5.737,3.0
124.726,2.094,8.522,15.0
62.543,1.051,3.909,40.0
40.121,0.683,3.611,41.0
39.917,0.68,3.359,78.0
77.307,1.318,6.054,56.0
77.318,1.319,5.594,40.0
76.294,1.303,5.075,3.0
62.432,1.067,3.788,82.0
40.023,0.692,3.529,64.0
39.972,0.692,3.29,53.0
77.346,1.34,5.913,19.0
77.281,1.34,5.449,69.0
76.333,1.324,4.936,24.0
62.5,1.084,3.677,11.0
39.976,0.701,3.45,65.0
76.297,1.339,6.139,19.0
76.901,1.35,5.737,57.0
77.254,1.356,5.304,77.0
62.369,1.095,3.918,96.0
54.789,0.962,3.122,47.0
39.99,0.71,3.377,68.0
53.327,0.947,4.19,53.0
76.781,1.363,5.583,56.0
76.969,1.366,5.14,57.0
62.458,1.108,3.805,83.0
54.903,0.974,3.025,24.0
53.258,0.955,4.397,11.0
53.352,0.956,4.092,65.0
76.652,1.372,5.43,51.0
62.335,1.115,4.045,68.0
62.714,1.122,3.703,17.0
55.217,0.987,2.938,42.0
53.302,0.962,4.298,76.0
76.336,1.378,5.708,11.0
77.057,1.39,5.311,22.0
62.361,1.123,3.927,99.0
54.763,0.986,3.128,59.0
55.197,0.993,2.832,55.0
53.322,0.968,4.197,87.0
76.321,1.384,5.561,30.0
76.794,1.391,5.146,56.0
62.547,1.132,3.819,82.0
54.873,0.992,3.03,24.0
55.281,0.998,2.73,4.0
53.35,0.971,4.097,74.0
76.35,1.388,5.416,55.0
62.325,1.132,4.056,75.0
62.751,1.138,3.711,15.0
55.222,1.0,2.942,42.0
129.611,2.344,6.15,18.0
74.317,1.355,5.562,12.0
76.433,1.391,5.273,39.0
62.359,1.133,3.936,95.0
54.753,0.993,3.13,65.0
55.204,0.999,2.834,56.0
129.732,2.346,5.904,22.0
76.316,1.389,5.562,24.0
76.655,1.393,5.137,55.0
62.572,1.135,3.827,85.0
54.894,0.993,3.03,24.0
55.246,0.998,2.727,3.0
130.087,2.346,5.662,23.0
76.357,1.386,5.413,51.0
62.329,1.129,4.053,79.0
62.768,1.134,3.714,17.0
55.203,0.995,2.938,45.0
129.771,2.334,6.151,19.0
130.572,2.343,5.427,20.0
77.121,1.392,5.313,28.0
62.364,1.123,3.931,99.0
54.765,0.983,3.132,53.0
55.2,0.989,2.829,49.0
129.706,2.317,5.888,29.0
174.408,3.109,6.903,9.0
76.919,1.378,5.146,59.0
62.503,1.116,3.815,80.0
54.945,0.979,3.033,28.0
55.214,0.981,2.719,4.0
130.052,2.303,5.646,29.0
161.406,2.851,6.068,12.0
62.358,1.106,4.047,72.0
62.655,1.108,3.7,8.0
55.179,0.972,2.935,45.0
129.755,2.28,6.133,26.0
130.627,2.288,5.412,24.0
132.659,2.316,4.722,24.0
62.386,1.094,3.924,97.0
54.799,0.957,3.126,47.0
55.145,0.96,2.823,35.0
129.839,2.252,5.875,24.0
174.307,3.013,6.87,18.0
132.837,2.288,4.46,33.0
62.439,1.079,3.801,81.0
54.941,0.945,3.023,61.0
55.128,0.945,2.71,12.0
130.305,2.225,5.632,27.0
161.452,2.746,6.037,17.0
132.948,2.252,4.195,12.0
54.85,0.931,3.227,34.0
55.035,0.931,2.916,61.0
122.192,2.057,5.759,27.0
59.323,0.994,2.444,3.0
132.64,2.213,4.69,29.0
159.924,2.658,4.724,14.0
54.865,0.913,3.117,65.0
55.05,0.912,2.805,58.0
130.596,2.154,5.892,27.0
161.195,2.647,6.315,4.0
132.975,2.172,4.433,22.0
159.844,2.599,4.396,13.0
54.955,0.894,3.009,95.0
55.053,0.892,2.693,74.0
130.199,2.098,5.61,32.0
161.762,2.593,6.01,11.0
132.927,2.12,4.164,15.0
176.526,2.8,4.499,5.0
54.992,0.873,2.901,61.0
55.047,0.868,2.582,68.0
59.369,0.932,2.438,6.0
132.769,2.072,4.663,26.0
163.12,2.53,4.776,15.0
190.158,2.933,4.458,18.0
55.008,0.848,2.79,109.0
55.063,0.844,2.471,67.0
163.023,2.483,6.363,13.0
132.84,2.012,4.398,44.0
160.045,2.408,4.364,10.0
190.064,2.842,4.076,27.0
55.004,0.822,2.679,107.0
55.058,0.817,2.36,76.0
132.832,1.958,4.918,13.0
133.009,1.948,4.137,14.0
176.376,2.565,4.456,23.0
189.924,2.744,3.695,33.0
55.016,0.793,2.569,111.0
55.07,0.788,2.249,83.0
55.091,0.782,1.929,40.0
162.845,2.296,4.734,6.0
190.09,2.661,4.419,21.0
127.909,1.777,2.229,17.0
55.011,0.762,2.457,109.0
55.051,0.756,2.137,97.0
55.044,0.75,1.816,82.0
55.08,0.744,1.49,6.0
0.0,0.0,0.0,0.0
126.872,1.687,1.954,32.0
55.019,0.729,2.346,117.0
55.035,0.723,2.025,100.0
55.035,0.716,1.704,83.0
55.087,0.711,1.38,32.0
189.416,2.423,3.64,8.0
126.309,1.601,1.692,8.0
55.018,0.694,2.236,107.0
55.021,0.687,1.914,120.0
55.033,0.68,1.593,104.0
55.052,0.674,1.268,69.0
55.096,0.668,0.947,7.0
48.122,0.577,0.546,65.0
55.02,0.656,2.124,130.0
54.999,0.649,1.803,107.0
55.063,0.643,1.483,7.0
48.174,0.556,1.012,45.0
48.123,0.55,0.731,62.0
48.082,0.543,0.451,78.0
55.018,0.617,2.015,125.0
48.221,0.534,1.484,36.0
48.17,0.527,1.202,65.0
48.123,0.521,0.916,88.0
48.103,0.514,0.635,101.0
48.057,0.507,0.355,86.0
48.198,0.504,1.669,75.0
48.154,0.497,1.387,91.0
48.127,0.49,1.105,99.0
48.095,0.483,0.82,96.0
48.087,0.477,0.54,98.0
48.036,0.47,0.26,85.0
48.16,0.466,1.572,85.0
48.134,0.459,1.291,107.0
48.112,0.452,1.011,105.0
48.071,0.445,0.724,111.0
48.05,0.437,0.445,98.0
48.011,0.431,0.166,87.0
48.119,0.426,1.477,107.0
48.118,0.419,1.196,112.0
48.1,0.412,0.916,111.0
48.061,0.404,0.631,110.0
48.046,0.397,0.351,98.0
47.828,0.388,0.071,54.0
48.114,0.385,1.383,115.0
48.114,0.377,1.103,115.0
48.096,0.37,0.823,110.0
48.062,0.363,0.538,101.0
48.067,0.355,0.258,54.0
0.0,0.0,0.0,0.0
48.115,0.342,1.29,108.0
48.121,0.334,1.01,103.0
48.094,0.326,0.729,76.0
48.129,0.319,0.445,46.0
48.142,0.312,0.165,55.0
39.854,0.252,-0.094,15.0
48.14,0.297,1.197,96.0
48.149,0.289,0.917,77.0
48.189,0.282,0.638,52.0
55.066,0.314,0.404,17.0
47.923,0.265,0.073,36.0
38.838,0.208,-0.166,43.0
48.211,0.252,1.108,43.0
59.289,0.299,1.017,48.0
59.294,0.29,0.673,138.0
59.327,0.28,0.323,9.0
0.0,0.0,0.0,0.0
38.118,0.167,-0.235,13.0
59.313,0.251,1.251,104.0
79.428,0.322,1.213,148.0
77.176,0.3,0.73,45.0
54.912,0.204,0.195,28.0
43.863,0.155,-0.098,4.0
37.813,0.127,-0.304,5.0
79.457,0.254,1.526,151.0
