X,Y,Z,Reflectivity
13.809,1.493,-0.019,33.0
13.777,1.492,-0.097,25.0
13.783,1.494,-0.177,29.0
13.799,1.498,-0.257,33.0
13.793,1.5,-0.335,31.0
13.808,1.506,0.044,29.0
13.808,1.508,-0.034,27.0
13.802,1.509,-0.112,21.0
13.786,1.509,-0.192,23.0
13.804,1.513,-0.272,29.0
13.799,1.514,-0.35,29.0
13.82,1.521,0.029,22.0
13.826,1.523,-0.049,19.0
13.83,1.525,-0.128,14.0
13.803,1.524,-0.208,20.0
13.805,1.526,-0.287,26.0
13.791,1.527,-0.365,24.0
13.855,1.538,0.014,16.0
13.846,1.538,-0.064,14.0
13.839,1.539,-0.143,9.0
13.817,1.538,-0.223,14.0
13.806,1.539,-0.302,20.0
13.793,1.539,-0.381,19.0
13.859,1.55,0.0,8.0
34.973,3.917,-0.202,11.0
13.855,1.553,-0.159,4.0
13.854,1.555,-0.239,13.0
13.82,1.553,-0.318,17.0
13.801,1.552,-0.396,20.0
38.999,4.398,-0.046,15.0
34.548,3.899,-0.238,39.0
13.887,1.569,-0.175,0.0
13.838,1.565,-0.255,8.0
13.839,1.566,-0.334,16.0
13.8,1.564,-0.412,19.0
37.824,4.295,-0.087,16.0
34.467,3.918,-0.276,45.0
24.685,2.808,-0.339,4.0
21.064,2.398,-0.412,2.0
13.848,1.578,-0.35,15.0
13.816,1.576,-0.428,19.0
36.738,4.201,-0.127,13.0
34.415,3.938,-0.316,6.0
23.617,2.705,-0.352,1.0
20.526,2.353,-0.425,3.0
13.834,1.587,-0.365,8.0
13.807,1.586,-0.444,11.0
36.112,4.155,-0.167,13.0
9.995,1.151,-0.103,7.0
10.0,1.152,-0.16,7.0
20.061,2.314,-0.439,1.0
13.866,1.601,-0.383,4.0
13.792,1.594,-0.46,7.0
10.019,1.159,-0.057,16.0
10.012,1.159,-0.115,15.0
10.0,1.159,-0.172,14.0
10.002,1.16,-0.23,13.0
13.902,1.614,-0.4,3.0
13.802,1.604,-0.476,4.0
10.016,1.165,-0.069,20.0
10.015,1.166,-0.126,21.0
10.011,1.166,-0.184,19.0
10.004,1.166,-0.242,17.0
10.014,1.168,-0.3,17.0
10.008,1.169,-0.357,16.0
10.011,1.171,-0.081,51.0
10.012,1.172,-0.138,91.0
10.007,1.172,-0.196,73.0
10.011,1.173,-0.254,22.0
10.009,1.174,-0.311,25.0
10.005,1.174,-0.369,19.0
10.005,1.175,-0.093,75.0
10.004,1.176,-0.15,127.0
9.995,1.176,-0.207,112.0
10.002,1.177,-0.266,52.0
10.008,1.179,-0.323,52.0
10.012,1.18,-0.381,21.0
10.003,1.18,-0.105,75.0
10.005,1.181,-0.162,134.0
9.996,1.181,-0.219,115.0
9.996,1.181,-0.277,55.0
10.003,1.183,-0.335,66.0
10.004,1.184,-0.392,32.0
9.994,1.184,-0.116,73.0
9.998,1.185,-0.174,136.0
9.994,1.185,-0.231,124.0
9.994,1.186,-0.289,61.0
10.002,1.187,-0.347,67.0
10.0,1.188,-0.404,34.0
9.991,1.187,-0.128,74.0
10.001,1.189,-0.186,141.0
9.991,1.188,-0.243,132.0
9.988,1.189,-0.301,75.0
9.996,1.19,-0.359,82.0
9.995,1.191,-0.416,32.0
9.99,1.191,-0.14,68.0
9.996,1.192,-0.198,149.0
9.99,1.192,-0.255,131.0
9.983,1.191,-0.313,71.0
9.999,1.194,-0.371,76.0
9.994,1.194,-0.428,34.0
9.99,1.194,-0.152,70.0
9.996,1.195,-0.21,150.0
9.985,1.194,-0.267,122.0
9.985,1.195,-0.325,77.0
9.988,1.196,-0.383,78.0
9.994,1.197,-0.44,36.0
9.985,1.196,-0.164,70.0
9.989,1.197,-0.222,146.0
9.986,1.197,-0.279,125.0
9.984,1.197,-0.337,76.0
9.994,1.199,-0.395,76.0
9.992,1.199,-0.452,30.0
9.983,1.198,-0.176,71.0
9.99,1.199,-0.234,142.0
9.98,1.198,-0.291,130.0
9.98,1.199,-0.349,70.0
9.989,1.2,-0.407,76.0
9.985,1.2,-0.464,28.0
9.979,1.199,-0.188,70.0
9.984,1.2,-0.245,132.0
9.984,1.2,-0.303,131.0
9.981,1.2,-0.361,70.0
9.984,1.201,-0.418,80.0
9.99,1.203,-0.476,25.0
9.984,1.201,-0.2,78.0
9.985,1.202,-0.257,141.0
9.986,1.202,-0.315,122.0
9.978,1.201,-0.373,71.0
9.986,1.203,-0.43,77.0
9.988,1.203,-0.488,21.0
9.979,1.201,-0.212,85.0
9.982,1.202,-0.269,138.0
9.986,1.203,-0.326,149.0
9.978,1.202,-0.385,73.0
9.987,1.203,-0.442,78.0
9.987,1.204,-0.5,25.0
9.975,1.201,-0.223,80.0
9.983,1.202,-0.281,134.0
9.985,1.203,-0.338,135.0
9.981,1.203,-0.396,78.0
9.99,1.204,-0.454,72.0
9.989,1.204,-0.512,24.0
9.984,1.202,-0.235,77.0
9.979,1.202,-0.292,138.0
9.986,1.203,-0.35,144.0
9.978,1.202,-0.408,81.0
9.989,1.204,-0.466,68.0
9.989,1.204,-0.523,29.0
9.982,1.202,-0.247,72.0
9.992,1.203,-0.304,143.0
9.989,1.202,-0.362,138.0
9.98,1.202,-0.42,79.0
9.995,1.203,-0.478,65.0
9.988,1.203,-0.535,30.0
9.981,1.2,-0.258,70.0
9.984,1.201,-0.316,146.0
9.985,1.201,-0.373,124.0
9.986,1.201,-0.431,80.0
9.998,1.203,-0.489,56.0
9.994,1.202,-0.547,33.0
9.987,1.2,-0.27,75.0
9.992,1.2,-0.327,143.0
9.993,1.2,-0.385,125.0
9.986,1.199,-0.443,70.0
9.992,1.2,-0.5,63.0
9.987,1.2,-0.558,35.0
9.99,1.198,-0.281,73.0
9.993,1.198,-0.339,150.0
9.989,1.198,-0.396,135.0
9.99,1.198,-0.454,73.0
9.995,1.198,-0.512,74.0
9.994,1.198,-0.569,36.0
9.99,1.196,-0.292,74.0
9.997,1.196,-0.35,149.0
9.991,1.196,-0.407,131.0
9.994,1.196,-0.465,59.0
10.003,1.197,-0.523,77.0
9.999,1.197,-0.581,38.0
9.99,1.193,-0.303,81.0
10.003,1.194,-0.361,142.0
9.996,1.193,-0.418,129.0
9.995,1.193,-0.476,58.0
10.005,1.194,-0.534,71.0
10.007,1.194,-0.592,33.0
9.998,1.191,-0.314,76.0
10.003,1.191,-0.372,144.0
9.996,1.19,-0.429,122.0
10.003,1.191,-0.488,67.0
10.007,1.191,-0.545,74.0
10.008,1.191,-0.603,33.0
10.004,1.188,-0.326,80.0
10.01,1.188,-0.383,138.0
10.0,1.187,-0.44,126.0
10.009,1.187,-0.499,67.0
10.01,1.187,-0.556,65.0
10.005,1.187,-0.614,20.0
10.006,1.184,-0.336,76.0
10.008,1.184,-0.394,119.0
10.004,1.183,-0.451,102.0
10.004,1.183,-0.509,30.0
10.011,1.183,-0.567,24.0
10.007,1.183,-0.624,18.0
10.009,1.18,-0.347,52.0
10.014,1.18,-0.404,77.0
10.005,1.178,-0.461,37.0
10.008,1.178,-0.52,19.0
10.02,1.179,-0.578,18.0
10.016,1.179,-0.635,16.0
10.019,1.176,-0.357,21.0
10.02,1.176,-0.415,20.0
10.006,1.173,-0.471,44.0
10.004,1.173,-0.53,16.0
10.009,1.173,-0.587,15.0
10.027,1.175,-0.646,13.0
13.757,1.607,-0.505,3.0
13.383,1.563,-0.567,5.0
13.067,1.525,-0.629,0.0
9.992,1.166,-0.539,10.0
10.018,1.168,-0.598,7.0
10.068,1.174,-0.659,5.0
13.728,1.596,-0.517,6.0
13.312,1.547,-0.577,7.0
13.028,1.513,-0.64,4.0
10.004,1.161,-0.549,3.0
10.337,1.199,-0.627,4.0
10.168,1.179,-0.675,3.0
13.7,1.584,-0.529,7.0
13.216,1.527,-0.586,6.0
12.896,1.49,-0.646,3.0
11.829,1.366,-0.661,0.0
10.973,1.266,-0.676,1.0
10.245,1.182,-0.69,3.0
13.63,1.567,-0.539,11.0
13.107,1.506,-0.593,8.0
12.722,1.461,-0.649,2.0
11.743,1.348,-0.667,1.0
10.916,1.252,-0.683,1.0
10.166,1.166,-0.694,3.0
13.553,1.549,-0.548,10.0
13.089,1.495,-0.604,10.0
12.539,1.431,-0.651,2.0
11.585,1.321,-0.669,1.0
10.811,1.232,-0.686,1.0
10.102,1.151,-0.699,2.0
13.477,1.53,-0.557,9.0
13.065,1.482,-0.615,11.0
12.354,1.401,-0.652,2.0
11.473,1.3,-0.672,1.0
10.693,1.211,-0.688,1.0
10.019,1.134,-0.702,2.0
13.399,1.511,-0.566,9.0
13.061,1.471,-0.626,12.0
12.244,1.378,-0.657,1.0
11.335,1.275,-0.674,1.0
10.595,1.191,-0.69,1.0
9.919,1.114,-0.703,2.0
13.32,1.491,-0.573,12.0
13.067,1.461,-0.637,9.0
12.146,1.357,-0.662,1.0
11.221,1.253,-0.676,1.0
10.484,1.17,-0.692,1.0
9.821,1.095,-0.704,2.0
13.277,1.475,-0.582,10.0
12.996,1.442,-0.644,7.0
12.001,1.331,-0.663,1.0
11.117,1.232,-0.679,1.0
10.361,1.147,-0.692,1.0
9.749,1.078,-0.707,2.0
13.18,1.452,-0.589,8.0
12.88,1.418,-0.649,4.0
11.899,1.308,-0.667,2.0
11.0,1.209,-0.681,1.0
10.273,1.128,-0.694,2.0
9.713,1.065,-0.712,2.0
13.107,1.432,-0.595,8.0
12.74,1.39,-0.651,2.0
11.768,1.283,-0.668,1.0
10.903,1.187,-0.683,1.0
10.199,1.11,-0.697,2.0
9.687,1.053,-0.717,1.0
13.096,1.418,-0.604,10.0
12.603,1.363,-0.653,2.0
11.648,1.259,-0.67,1.0
10.842,1.17,-0.687,2.0
10.126,1.092,-0.699,2.0
9.623,1.037,-0.719,1.0
13.086,1.404,-0.613,10.0
12.463,1.335,-0.655,3.0
11.593,1.241,-0.675,1.0
10.758,1.15,-0.689,1.0
10.054,1.074,-0.701,2.0
9.556,1.02,-0.721,1.0
13.084,1.39,-0.622,11.0
12.377,1.313,-0.658,2.0
11.467,1.215,-0.675,1.0
10.679,1.131,-0.691,1.0
10.005,1.058,-0.704,2.0
9.502,1.004,-0.723,1.0
13.07,1.375,-0.629,10.0
12.292,1.291,-0.662,1.0
11.358,1.191,-0.676,1.0
10.588,1.109,-0.691,2.0
9.958,1.042,-0.707,2.0
9.452,0.988,-0.725,1.0
13.063,1.359,-0.637,12.0
12.204,1.268,-0.664,1.0
11.282,1.171,-0.678,1.0
10.534,1.092,-0.694,2.0
9.875,1.023,-0.707,2.0
9.395,0.972,-0.726,1.0
13.043,1.342,-0.643,13.0
12.137,1.248,-0.667,1.0
11.227,1.152,-0.681,1.0
10.457,1.072,-0.695,2.0
9.822,1.006,-0.708,2.0
9.351,0.956,-0.728,1.0
13.034,1.326,-0.65,11.0
12.076,1.227,-0.67,2.0
11.164,1.133,-0.683,1.0
10.403,1.054,-0.697,2.0
9.787,0.991,-0.711,2.0
9.325,0.943,-0.73,1.0
12.961,1.304,-0.653,6.0
12.005,1.206,-0.672,1.0
11.11,1.114,-0.685,2.0
10.362,1.038,-0.699,1.0
9.742,0.974,-0.712,2.0
9.286,0.927,-0.732,1.0
12.902,1.282,-0.656,3.0
11.918,1.182,-0.673,1.0
11.04,1.093,-0.686,1.0
10.296,1.018,-0.699,1.0
9.715,0.959,-0.715,2.0
9.266,0.914,-0.734,1.0
12.817,1.257,-0.657,2.0
11.841,1.16,-0.674,1.0
10.982,1.074,-0.687,1.0
10.259,1.002,-0.701,2.0
9.685,0.944,-0.716,2.0
9.238,0.899,-0.736,1.0
12.741,1.234,-0.658,2.0
11.815,1.142,-0.677,1.0
10.936,1.055,-0.688,1.0
10.227,0.985,-0.703,2.0
9.666,0.93,-0.719,2.0
9.204,0.884,-0.737,1.0
12.666,1.21,-0.659,3.0
11.78,1.123,-0.679,1.0
10.925,1.04,-0.691,1.0
10.194,0.969,-0.704,2.0
9.664,0.917,-0.722,2.0
9.181,0.87,-0.738,1.0
12.614,1.188,-0.66,5.0
11.719,1.102,-0.679,2.0
10.9,1.023,-0.693,1.0
10.16,0.952,-0.705,2.0
9.644,0.902,-0.723,1.0
9.174,0.856,-0.74,1.0
12.591,1.169,-0.663,5.0
11.677,1.082,-0.68,2.0
10.853,1.004,-0.693,1.0
10.163,0.938,-0.707,2.0
9.634,0.888,-0.725,1.0
9.166,0.843,-0.741,0.0
12.577,1.15,-0.665,5.0
11.637,1.062,-0.681,2.0
10.848,0.988,-0.695,1.0
10.155,0.923,-0.709,1.0
9.615,0.873,-0.726,1.0
9.145,0.828,-0.742,0.0
12.56,1.131,-0.667,4.0
11.626,1.045,-0.682,2.0
10.823,0.971,-0.696,2.0
10.123,0.906,-0.709,2.0
9.601,0.858,-0.726,1.0
9.124,0.814,-0.742,1.0
12.544,1.112,-0.668,4.0
11.616,1.027,-0.684,2.0
10.819,0.955,-0.697,2.0
10.114,0.891,-0.71,2.0
9.603,0.844,-0.728,1.0
9.111,0.799,-0.742,1.0
12.503,1.09,-0.667,3.0
11.591,1.009,-0.684,2.0
10.811,0.939,-0.698,2.0
10.108,0.876,-0.71,2.0
9.615,0.831,-0.73,1.0
9.106,0.786,-0.743,1.0
12.503,1.072,-0.668,4.0
11.572,0.99,-0.683,3.0
10.828,0.924,-0.7,1.0
10.108,0.861,-0.711,2.0
9.607,0.816,-0.73,1.0
9.109,0.772,-0.743,1.0
12.496,1.053,-0.669,4.0
11.58,0.973,-0.684,2.0
10.834,0.908,-0.701,0.0
10.121,0.847,-0.712,2.0
9.603,0.801,-0.73,1.0
9.116,0.759,-0.744,1.0
12.519,1.036,-0.67,4.0
11.618,0.959,-0.687,2.0
10.823,0.891,-0.7,1.0
10.135,0.832,-0.713,2.0
9.601,0.787,-0.73,1.0
9.127,0.746,-0.745,1.0
12.538,1.018,-0.671,4.0
11.644,0.943,-0.688,2.0
10.846,0.877,-0.701,2.0
10.173,0.82,-0.715,2.0
9.619,0.774,-0.73,1.0
9.146,0.734,-0.746,1.0
12.589,1.004,-0.673,3.0
11.666,0.927,-0.688,2.0
10.857,0.861,-0.701,2.0
10.182,0.805,-0.715,1.0
9.611,0.758,-0.729,2.0
9.19,0.723,-0.748,0.0
12.619,0.986,-0.673,3.0
11.735,0.915,-0.691,2.0
10.875,0.845,-0.701,2.0
10.192,0.79,-0.714,1.0
9.627,0.744,-0.729,2.0
9.204,0.71,-0.748,1.0
12.666,0.97,-0.673,4.0
11.797,0.901,-0.693,1.0
10.906,0.831,-0.701,2.0
10.219,0.776,-0.715,2.0
9.636,0.73,-0.728,2.0
9.207,0.695,-0.746,1.0
12.745,0.956,-0.675,4.0
11.796,0.882,-0.69,1.0
10.959,0.817,-0.702,1.0
10.257,0.763,-0.715,2.0
9.649,0.715,-0.726,1.0
9.234,0.683,-0.746,1.0
12.804,0.94,-0.675,4.0
11.847,0.867,-0.69,2.0
11.035,0.805,-0.704,1.0
10.287,0.748,-0.714,2.0
9.659,0.701,-0.724,2.0
9.273,0.671,-0.747,2.0
12.885,0.926,-0.676,5.0
11.915,0.853,-0.691,2.0
11.094,0.792,-0.704,1.0
10.342,0.736,-0.715,2.0
9.672,0.686,-0.722,2.0
9.291,0.657,-0.746,2.0
12.972,0.911,-0.676,7.0
11.977,0.838,-0.69,2.0
11.134,0.777,-0.703,1.0
10.397,0.723,-0.715,2.0
9.706,0.673,-0.722,2.0
9.343,0.646,-0.746,2.0
13.044,0.895,-0.675,9.0
12.069,0.826,-0.691,2.0
11.208,0.764,-0.704,1.0
10.472,0.711,-0.716,2.0
9.769,0.661,-0.722,2.0
9.386,0.633,-0.746,2.0
13.059,0.875,-0.671,11.0
12.184,0.814,-0.693,2.0
11.287,0.751,-0.704,1.0
10.57,0.701,-0.719,2.0
9.835,0.65,-0.723,2.0
9.436,0.621,-0.746,2.0
13.056,0.854,-0.665,11.0
12.265,0.799,-0.692,2.0
11.391,0.739,-0.705,2.0
10.642,0.688,-0.719,1.0
9.914,0.639,-0.724,2.0
9.497,0.61,-0.746,2.0
13.07,0.833,-0.659,11.0
12.357,0.785,-0.691,2.0
11.444,0.724,-0.703,2.0
10.711,0.675,-0.718,1.0
9.995,0.628,-0.725,2.0
9.568,0.599,-0.747,3.0
13.062,0.812,-0.652,11.0
12.447,0.771,-0.689,4.0
11.514,0.71,-0.701,1.0
10.776,0.662,-0.716,2.0
10.07,0.616,-0.725,2.0
9.627,0.587,-0.746,4.0
13.086,0.792,-0.646,10.0
12.583,0.758,-0.69,1.0
11.643,0.699,-0.702,1.0
10.854,0.649,-0.715,2.0
10.156,0.605,-0.725,2.0
9.676,0.574,-0.744,3.0
13.12,0.773,-0.639,8.0
12.724,0.746,-0.689,2.0
11.76,0.687,-0.702,1.0
10.965,0.638,-0.715,2.0
10.273,0.595,-0.726,2.0
9.746,0.562,-0.743,2.0
13.313,0.762,-0.64,10.0
12.888,0.735,-0.69,4.0
11.908,0.676,-0.702,1.0
11.078,0.626,-0.715,2.0
10.412,0.586,-0.729,2.0
9.856,0.552,-0.744,2.0
13.432,0.747,-0.636,13.0
13.001,0.72,-0.687,6.0
12.072,0.665,-0.703,1.0
11.192,0.614,-0.714,2.0
10.531,0.575,-0.729,2.0
9.943,0.54,-0.743,2.0
13.499,0.728,-0.629,17.0
13.058,0.701,-0.68,11.0
12.208,0.653,-0.702,1.0
11.299,0.601,-0.712,2.0
10.669,0.565,-0.731,1.0
10.03,0.529,-0.742,2.0
13.656,0.714,-0.626,15.0
13.059,0.68,-0.669,12.0
12.33,0.639,-0.699,1.0
11.416,0.588,-0.71,2.0
10.801,0.554,-0.731,2.0
10.123,0.517,-0.74,2.0
13.924,0.705,-0.627,15.0
13.063,0.658,-0.659,11.0
12.486,0.626,-0.697,2.0
11.622,0.58,-0.713,2.0
10.923,0.542,-0.73,2.0
10.211,0.504,-0.738,2.0
14.305,0.701,-0.631,16.0
13.115,0.64,-0.65,8.0
12.688,0.616,-0.697,3.0
11.79,0.569,-0.713,3.0
11.022,0.529,-0.727,2.0
10.338,0.494,-0.738,2.0
14.523,0.689,-0.628,21.0
13.368,0.63,-0.65,11.0
12.907,0.605,-0.698,4.0
11.945,0.557,-0.711,2.0
11.158,0.518,-0.725,2.0
10.482,0.484,-0.738,2.0
14.624,0.67,-0.618,27.0
13.543,0.617,-0.646,15.0
13.029,0.59,-0.692,7.0
12.206,0.55,-0.715,1.0
11.302,0.506,-0.723,2.0
10.6,0.472,-0.736,2.0
14.66,0.648,-0.605,27.0
13.677,0.601,-0.639,14.0
13.043,0.57,-0.679,10.0
12.4,0.539,-0.714,2.0
11.459,0.495,-0.722,2.0
10.739,0.461,-0.734,2.0
14.677,0.625,-0.591,14.0
14.016,0.594,-0.64,15.0
13.067,0.55,-0.667,9.0
12.62,0.528,-0.713,3.0
11.652,0.485,-0.721,2.0
10.888,0.45,-0.733,2.0
14.937,0.613,-0.586,6.0
14.311,0.583,-0.638,15.0
13.07,0.529,-0.653,6.0
12.764,0.514,-0.708,6.0
11.816,0.473,-0.718,2.0
11.056,0.439,-0.732,3.0
15.619,0.616,-0.595,7.0
14.523,0.569,-0.631,15.0
13.181,0.513,-0.643,1.0
12.961,0.501,-0.704,7.0
12.029,0.462,-0.718,2.0
11.253,0.429,-0.732,3.0
16.044,0.607,-0.593,3.0
14.6,0.549,-0.618,18.0
13.378,0.5,-0.638,1.0
13.072,0.485,-0.694,7.0
12.24,0.451,-0.716,3.0
11.474,0.42,-0.733,3.0
16.468,0.598,-0.589,2.0
14.646,0.528,-0.602,15.0
13.58,0.486,-0.631,1.0
13.354,0.475,-0.693,4.0
12.465,0.44,-0.714,3.0
11.723,0.411,-0.734,3.0
16.851,0.586,-0.582,4.0
14.882,0.513,-0.594,4.0
13.811,0.473,-0.625,1.0
13.617,0.463,-0.69,3.0
12.696,0.429,-0.711,4.0
12.036,0.403,-0.739,3.0
17.274,0.574,-0.575,4.0
15.574,0.514,-0.602,2.0
14.037,0.459,-0.617,1.0
13.872,0.451,-0.685,3.0
12.936,0.417,-0.708,5.0
12.398,0.397,-0.745,3.0
17.67,0.561,-0.566,5.0
16.081,0.506,-0.6,2.0
14.353,0.448,-0.612,1.0
14.116,0.437,-0.679,4.0
13.172,0.405,-0.704,4.0
12.734,0.388,-0.748,5.0
18.113,0.548,-0.556,3.0
16.504,0.495,-0.594,2.0
14.856,0.442,-0.614,2.0
14.327,0.423,-0.67,5.0
13.449,0.394,-0.7,4.0
13.03,0.378,-0.748,5.0
18.629,0.536,-0.547,5.0
16.986,0.485,-0.588,2.0
15.56,0.44,-0.622,4.0
14.491,0.406,-0.657,4.0
13.713,0.381,-0.695,4.0
13.39,0.369,-0.75,3.0
19.168,0.524,-0.536,3.0
17.407,0.471,-0.579,4.0
15.882,0.426,-0.612,2.0
14.73,0.392,-0.647,4.0
13.996,0.369,-0.69,4.0
13.787,0.36,-0.752,3.0
19.735,0.511,-0.524,3.0
17.808,0.457,-0.567,5.0
16.316,0.415,-0.605,2.0
15.016,0.378,-0.638,3.0
14.323,0.357,-0.685,4.0
14.185,0.35,-0.753,3.0
20.375,0.499,-0.511,4.0
18.364,0.445,-0.557,3.0
16.779,0.403,-0.598,2.0
15.32,0.364,-0.628,3.0
14.638,0.344,-0.678,4.0
14.667,0.342,-0.757,1.0
21.021,0.485,-0.495,6.0
18.963,0.433,-0.547,3.0
17.332,0.392,-0.591,2.0
15.71,0.351,-0.62,3.0
15.074,0.334,-0.675,3.0
15.098,0.331,-0.756,1.0
21.678,0.47,-0.478,4.0
19.5,0.419,-0.533,4.0
17.802,0.378,-0.58,3.0
16.126,0.339,-0.612,3.0
15.53,0.323,-0.671,2.0
15.609,0.321,-0.757,1.0
22.819,0.464,-0.467,5.0
20.149,0.405,-0.518,3.0
18.399,0.366,-0.57,4.0
16.599,0.326,-0.604,2.0
15.925,0.31,-0.663,4.0
15.995,0.307,-0.75,1.0
26.746,0.509,-0.505,2.0
20.855,0.392,-0.503,4.0
18.86,0.35,-0.554,5.0
17.156,0.315,-0.596,2.0
16.356,0.296,-0.654,3.0
16.417,0.294,-0.743,2.0
27.64,0.49,-0.477,1.0
21.631,0.378,-0.487,4.0
19.571,0.338,-0.543,3.0
17.674,0.301,-0.585,4.0
16.867,0.284,-0.647,5.0
17.132,0.285,-0.747,1.0
28.768,0.473,-0.449,2.0
22.285,0.361,-0.465,1.0
20.146,0.322,-0.526,3.0
18.276,0.288,-0.575,3.0
17.504,0.273,-0.642,6.0
17.756,0.273,-0.745,1.0
29.755,0.452,-0.415,2.0
26.707,0.4,-0.512,1.0
21.055,0.311,-0.514,4.0
18.88,0.275,-0.562,3.0
18.174,0.261,-0.636,7.0
18.456,0.261,-0.742,2.0
30.982,0.432,-0.379,1.0
27.494,0.378,-0.48,1.0
21.853,0.296,-0.496,4.0
19.545,0.261,-0.548,3.0
18.966,0.249,-0.631,6.0
19.243,0.249,-0.741,2.0
32.646,0.417,-0.343,1.0
28.84,0.362,-0.454,2.0
25.901,0.32,-0.543,1.0
20.28,0.246,-0.533,3.0
19.708,0.236,-0.621,6.0
19.803,0.233,-0.727,1.0
37.193,0.431,-0.326,1.0
29.809,0.339,-0.416,2.0
26.726,0.299,-0.513,2.0
21.141,0.232,-0.518,4.0
20.515,0.221,-0.609,3.0
20.665,0.219,-0.722,1.0
37.538,0.392,-0.262,10.0
31.025,0.318,-0.378,1.0
27.637,0.278,-0.48,1.0
21.928,0.216,-0.498,4.0
21.406,0.207,-0.597,4.0
21.11,0.2,-0.699,4.0
38.285,0.357,-0.197,42.0
33.04,0.302,-0.342,1.0
29.004,0.259,-0.451,2.0
25.908,0.227,-0.54,1.0
22.297,0.191,-0.581,3.0
21.316,0.179,-0.667,1.0
39.429,0.325,-0.131,42.0
37.398,0.301,-0.319,2.0
29.976,0.236,-0.411,2.0
26.865,0.207,-0.511,1.0
23.935,0.18,-0.58,3.0
21.771,0.16,-0.641,3.0
44.361,0.319,-0.066,19.0
37.959,0.266,-0.253,13.0
31.503,0.215,-0.374,1.0
27.915,0.186,-0.479,1.0
25.073,0.162,-0.56,1.0
22.697,0.143,-0.625,2.0
47.303,0.291,0.018,41.0
38.851,0.233,-0.186,44.0
33.218,0.193,-0.332,1.0
29.133,0.165,-0.445,2.0
26.208,0.144,-0.536,2.0
23.449,0.124,-0.601,2.0
54.608,0.282,0.124,35.0
40.332,0.202,-0.117,16.0
37.745,0.183,-0.305,10.0
30.268,0.142,-0.405,2.0
27.069,0.122,-0.502,1.0
24.128,0.105,-0.573,1.0
59.325,0.25,0.248,18.0
0.0,0.0,0.0,0.0
38.515,0.15,-0.237,14.0
31.894,0.119,-0.365,1.0
28.379,0.101,-0.472,2.0
25.439,0.087,-0.554,2.0
76.01,0.25,0.466,21.0
47.999,0.15,0.046,21.0
39.407,0.117,-0.166,37.0
33.721,0.095,-0.32,0.0
29.603,0.079,-0.434,2.0
26.524,0.067,-0.526,3.0
79.458,0.19,0.641,39.0
55.121,0.124,0.159,26.0
43.937,0.092,-0.099,12.0
38.192,0.075,-0.288,5.0
30.906,0.056,-0.393,1.0
27.522,0.046,-0.492,2.0
79.464,0.122,0.797,151.0
75.864,0.105,0.369,9.0
46.901,0.059,-0.013,24.0
39.041,0.043,-0.217,15.0
32.925,0.032,-0.353,1.0
28.907,0.024,-0.459,2.0
79.457,0.056,0.956,151.0
79.279,0.045,0.543,9.0
0.0,0.0,0.0,0.0
40.575,0.012,-0.145,16.0
38.124,0.006,-0.333,2.0
30.038,0.001,-0.417,1.0
79.467,-0.006,1.115,151.0
79.441,-0.016,0.703,150.0
61.625,-0.02,0.227,15.0
44.723,-0.02,-0.07,23.0
38.78,-0.022,-0.261,10.0
31.686,-0.022,-0.377,1.0
79.46,-0.066,1.274,152.0
79.472,-0.075,0.863,155.0
76.196,-0.081,0.433,17.0
48.2,-0.057,0.02,10.0
39.818,-0.052,-0.188,26.0
33.575,-0.047,-0.332,1.0
79.445,-0.122,1.432,161.0
79.47,-0.132,1.023,154.0
79.373,-0.141,0.612,68.0
55.918,-0.105,0.137,29.0
41.967,-0.083,-0.113,18.0
38.698,-0.081,-0.304,3.0
79.446,-0.177,1.594,164.0
79.452,-0.185,1.184,154.0
79.454,-0.194,0.774,151.0
61.758,-0.157,0.278,7.0
46.08,-0.122,-0.03,16.0
39.428,-0.108,-0.229,11.0
79.445,-0.228,1.755,151.0
79.448,-0.236,1.346,172.0
79.464,-0.244,0.936,151.0
79.178,-0.251,0.517,14.0
0.0,0.0,0.0,0.0
41.71,-0.14,-0.157,16.0
79.443,-0.277,1.919,151.0
79.419,-0.284,1.508,255.0
79.454,-0.292,1.1,152.0
79.423,-0.299,0.683,150.0
61.295,-0.237,0.212,12.0
44.983,-0.178,-0.075,20.0
79.438,-0.323,2.084,151.0
79.424,-0.33,1.674,223.0
79.443,-0.337,1.265,168.0
79.458,-0.344,0.849,152.0
76.655,-0.338,0.424,11.0
0.0,0.0,0.0,0.0
79.431,-0.366,2.248,152.0
79.431,-0.372,1.839,186.0
79.426,-0.379,1.429,206.0
79.457,-0.385,1.013,156.0
79.355,-0.39,0.602,150.0
56.067,-0.28,0.137,12.0
79.439,-0.406,2.413,151.0
79.439,-0.412,2.004,178.0
79.413,-0.417,1.594,230.0
79.443,-0.423,1.177,160.0
79.462,-0.428,0.767,175.0
76.668,-0.419,0.346,8.0
79.428,-0.443,2.578,151.0
79.435,-0.448,2.168,161.0
79.43,-0.453,1.759,213.0
79.441,-0.458,1.342,165.0
79.461,-0.463,0.933,164.0
79.182,-0.466,0.522,19.0
79.417,-0.477,2.742,150.0
79.428,-0.481,2.332,151.0
79.433,-0.486,1.924,179.0
79.439,-0.491,1.507,174.0
79.455,-0.495,1.098,164.0
79.469,-0.499,0.689,154.0
79.424,-0.507,2.906,150.0
79.422,-0.512,2.498,150.0
79.426,-0.516,2.089,163.0
79.427,-0.52,1.673,192.0
79.447,-0.523,1.263,165.0
79.449,-0.527,0.855,173.0
79.44,-0.536,3.074,151.0
79.42,-0.539,2.663,150.0
79.414,-0.542,2.254,151.0
79.428,-0.546,1.837,190.0
79.447,-0.549,1.429,166.0
79.45,-0.552,1.021,164.0
89.544,-0.632,3.654,18.0
79.425,-0.564,2.831,150.0
79.418,-0.566,2.421,150.0
79.434,-0.569,2.005,159.0
79.439,-0.572,1.597,173.0
79.453,-0.575,1.189,165.0
84.346,-0.619,3.619,5.0
79.422,-0.585,2.998,170.0
79.413,-0.587,2.589,150.0
79.426,-0.59,2.172,151.0
79.427,-0.591,1.762,192.0
79.442,-0.594,1.353,162.0
0.0,0.0,0.0,0.0
79.434,-0.604,3.164,157.0
79.416,-0.605,2.754,150.0
79.421,-0.607,2.337,150.0
79.441,-0.609,1.929,163.0
79.439,-0.61,1.52,162.0
79.274,-0.617,3.734,154.0
86.036,-0.671,3.609,9.0
79.431,-0.62,2.922,161.0
79.423,-0.621,2.505,150.0
79.44,-0.622,2.095,151.0
79.435,-0.623,1.687,173.0
79.229,-0.63,3.898,9.0
85.997,-0.684,3.787,133.0
79.428,-0.632,3.088,179.0
79.416,-0.632,2.67,150.0
79.419,-0.633,2.261,150.0
79.438,-0.633,1.852,169.0
93.726,-0.756,4.808,34.0
79.321,-0.64,3.659,166.0
89.553,-0.723,3.669,19.0
79.418,-0.64,2.836,150.0
79.416,-0.64,2.426,150.0
79.444,-0.64,2.017,151.0
85.4,-0.696,4.557,41.0
79.208,-0.645,3.818,151.0
85.987,-0.7,3.701,103.0
79.426,-0.646,3.001,172.0
79.424,-0.645,2.59,150.0
79.418,-0.644,2.18,150.0
101.284,-0.831,5.615,23.0
93.75,-0.768,4.712,10.0
79.609,-0.651,3.589,147.0
79.424,-0.648,3.163,151.0
79.42,-0.646,2.753,150.0
79.419,-0.644,2.344,150.0
85.792,-0.705,4.934,16.0
93.787,-0.768,4.909,36.0
79.255,-0.647,3.738,157.0
86.015,-0.7,3.603,17.0
79.445,-0.645,2.918,160.0
79.419,-0.642,2.506,150.0
124.726,-1.022,7.428,21.0
85.504,-0.698,4.65,45.0
123.78,-1.006,6.089,19.0
85.966,-0.696,3.775,150.0
79.422,-0.64,3.076,171.0
79.417,-0.638,2.665,150.0
77.155,-0.627,4.75,25.0
85.78,-0.694,4.837,39.0
93.727,-0.754,4.8,34.0
0.0,0.0,0.0,0.0
89.569,-0.714,3.649,20.0
79.417,-0.629,2.827,150.0
82.902,-0.665,5.273,14.0
59.419,-0.474,3.47,4.0
85.383,-0.677,4.544,50.0
79.215,-0.625,3.798,151.0
86.016,-0.674,3.678,47.0
79.426,-0.619,2.985,162.0
76.856,-0.606,5.045,22.0
76.999,-0.603,4.654,11.0
85.75,-0.667,4.736,30.0
93.56,-0.723,4.674,35.0
79.634,-0.611,3.566,128.0
79.43,-0.605,3.146,151.0
63.445,-0.489,4.293,41.0
76.964,-0.588,4.806,37.0
59.429,-0.451,3.403,75.0
93.68,-0.705,4.868,19.0
79.284,-0.592,3.709,151.0
79.343,-0.587,3.3,2.0
75.625,-0.567,5.267,28.0
76.892,-0.571,4.954,12.0
93.517,-0.689,5.539,34.0
59.447,-0.434,3.206,96.0
79.172,-0.572,3.858,16.0
82.535,-0.591,3.595,65.0
75.628,-0.548,5.416,35.0
63.896,-0.458,4.243,36.0
76.979,-0.546,4.71,42.0
59.43,-0.418,3.321,90.0
59.47,-0.413,3.014,107.0
81.522,-0.56,3.71,12.0
48.748,-0.339,3.586,43.0
63.259,-0.435,4.324,41.0
76.96,-0.523,4.859,43.0
59.414,-0.399,3.436,83.0
59.454,-0.395,3.13,104.0
59.484,-0.39,2.821,104.0
47.89,-0.317,3.617,5.0
49.07,-0.321,3.449,51.0
63.814,-0.412,4.152,38.0
77.072,-0.492,4.606,47.0
59.444,-0.374,3.242,102.0
59.47,-0.369,2.935,104.0
40.757,-0.256,3.156,50.0
48.952,-0.303,3.535,69.0
63.562,-0.387,4.258,69.0
76.96,-0.462,4.745,52.0
59.426,-0.351,3.355,104.0
59.464,-0.346,3.048,107.0
40.161,-0.236,3.187,76.0
47.864,-0.277,3.547,30.0
62.625,-0.356,4.314,13.0
63.606,-0.356,4.042,39.0
77.165,-0.424,4.501,17.0
59.449,-0.321,3.158,109.0
40.65,-0.222,3.302,65.0
47.86,-0.256,3.637,14.0
49.018,-0.257,3.468,76.0
63.392,-0.326,4.147,74.0
77.293,-0.39,4.652,21.0
59.435,-0.293,3.267,107.0
40.546,-0.203,3.369,68.0
40.094,-0.196,3.121,72.0
48.205,-0.23,3.499,90.0
62.685,-0.293,4.216,68.0
89.365,-0.408,5.543,34.0
59.418,-0.264,3.375,111.0
40.548,-0.182,3.444,62.0
40.201,-0.176,3.204,68.0
47.786,-0.204,3.558,25.0
48.935,-0.203,3.381,63.0
63.078,-0.255,4.027,37.0
59.417,-0.233,3.483,63.0
39.867,-0.158,3.459,44.0
40.812,-0.157,3.326,45.0
0.0,0.0,0.0,0.0
48.349,-0.174,3.427,36.0
78.048,-0.272,5.123,25.0
77.8,-0.262,4.699,26.0
39.791,-0.136,3.524,53.0
39.858,-0.131,3.319,70.0
47.892,-0.151,3.736,6.0
47.769,-0.145,3.471,72.0
48.864,-0.142,3.293,49.0
63.104,-0.175,3.922,38.0
0.0,0.0,0.0,0.0
39.794,-0.107,3.385,65.0
40.845,-0.104,3.258,74.0
47.78,-0.116,3.555,27.0
48.449,-0.111,3.349,49.0
62.938,-0.136,4.021,59.0
40.894,-0.09,3.765,41.0
0.0,0.0,0.0,0.0
39.824,-0.076,3.245,66.0
47.822,-0.085,3.64,9.0
47.82,-0.079,3.387,75.0
48.78,-0.073,3.199,12.0
40.389,-0.062,3.787,21.0
47.691,-0.067,4.219,12.0
39.787,-0.05,3.309,75.0
47.828,-0.054,3.721,28.0
47.801,-0.047,3.467,101.0
48.451,-0.04,3.258,38.0
41.368,-0.035,3.949,35.0
47.698,-0.034,4.3,29.0
47.783,-0.027,4.054,6.0
39.856,-0.016,3.167,72.0
47.799,-0.013,3.546,84.0
47.924,-0.006,3.302,70.0
41.449,-0.006,4.025,47.0
40.071,0.0,3.679,12.0
47.725,0.007,4.129,5.0
39.796,0.012,3.227,73.0
54.641,0.025,4.142,7.0
47.895,0.029,3.377,83.0
40.41,0.024,3.99,58.0
40.977,0.03,3.828,41.0
47.748,0.043,4.207,6.0
39.791,0.042,3.29,72.0
54.587,0.066,4.225,23.0
54.69,0.075,3.943,7.0
40.225,0.055,4.037,65.0
40.238,0.061,3.823,45.0
47.751,0.08,4.283,6.0
39.857,0.073,3.359,69.0
54.041,0.108,4.268,22.0
54.632,0.119,4.024,67.0
40.005,0.087,4.078,72.0
40.136,0.094,3.877,78.0
54.684,0.137,4.991,24.0
39.923,0.106,3.426,61.0
39.971,0.113,3.218,64.0
54.39,0.163,4.09,53.0
40.018,0.12,4.141,64.0
40.259,0.128,3.95,48.0
54.668,0.183,5.072,11.0
54.715,0.192,4.779,6.0
39.971,0.147,3.279,69.0
54.106,0.209,4.151,70.0
40.257,0.156,4.227,58.0
40.174,0.162,4.002,65.0
47.681,0.201,4.495,41.0
54.707,0.24,4.86,12.0
39.946,0.182,3.335,44.0
64.828,0.307,5.068,20.0
40.071,0.191,4.266,63.0
40.291,0.198,4.073,50.0
47.621,0.243,4.559,8.0
47.709,0.252,4.307,12.0
39.919,0.217,3.39,69.0
84.88,0.479,6.756,23.0
40.378,0.228,4.356,53.0
40.278,0.235,4.129,53.0
57.339,0.345,5.57,11.0
47.712,0.296,4.374,5.0
39.993,0.255,3.452,25.0
75.015,0.492,6.074,12.0
40.343,0.266,4.409,59.0
40.397,0.273,4.197,59.0
47.476,0.33,4.676,7.0
39.978,0.285,3.719,61.0
48.838,0.357,4.282,13.0
75.207,0.564,6.19,39.0
40.565,0.305,4.488,27.0
40.704,0.314,4.283,17.0
40.646,0.321,4.058,16.0
47.669,0.385,4.498,15.0
40.05,0.331,3.564,48.0
48.685,0.412,4.071,58.0
40.297,0.342,4.511,46.0
44.123,0.383,4.7,3.0
40.263,0.357,4.072,52.0
47.669,0.432,4.559,15.0
40.019,0.37,3.612,70.0
48.707,0.46,4.135,63.0
40.237,0.382,4.556,60.0
44.073,0.427,4.752,5.0
40.128,0.396,4.109,33.0
47.684,0.48,4.62,11.0
39.955,0.409,3.656,68.0
48.557,0.507,4.182,21.0
40.163,0.422,4.598,45.0
41.145,0.44,4.487,16.0
40.858,0.445,4.234,39.0
47.662,0.528,4.676,6.0
40.006,0.451,3.709,34.0
48.411,0.555,4.227,49.0
40.11,0.463,4.64,57.0
41.488,0.487,4.573,37.0
41.137,0.49,4.311,11.0
47.648,0.578,4.731,9.0
56.213,0.693,5.277,13.0
39.773,0.498,3.519,64.0
41.144,0.519,4.807,37.0
41.276,0.528,4.598,39.0
47.613,0.618,5.045,26.0
41.197,0.544,4.137,37.0
39.996,0.535,3.8,39.0
48.337,0.656,4.331,25.0
41.134,0.563,4.853,23.0
41.044,0.57,4.618,31.0
47.597,0.67,5.096,41.0
43.05,0.614,4.371,3.0
40.081,0.58,3.852,43.0
39.978,0.587,3.625,62.0
41.362,0.612,4.925,21.0
41.279,0.618,4.689,53.0
41.671,0.633,4.506,39.0
40.609,0.625,4.166,29.0
40.291,0.627,3.914,55.0
40.049,0.632,3.674,67.0
41.301,0.656,4.961,34.0
40.612,0.654,4.656,50.0
41.33,0.673,4.512,49.0
41.001,0.676,4.248,21.0
48.382,0.808,4.75,24.0
49.003,0.828,4.544,10.0
0.0,0.0,0.0,0.0
40.99,0.706,4.741,16.0
41.292,0.72,4.549,45.0
41.331,0.728,4.323,31.0
39.983,0.712,3.964,65.0
49.006,0.883,4.592,17.0
39.52,0.718,4.825,66.0
41.213,0.757,4.805,47.0
41.285,0.767,4.587,53.0
41.223,0.774,4.35,22.0
48.466,0.919,4.85,5.0
40.016,0.767,3.786,40.0
39.226,0.758,4.826,54.0
41.744,0.815,4.905,40.0
41.721,0.823,4.673,39.0
41.6,0.829,4.427,21.0
48.515,0.977,4.897,7.0
49.029,0.997,4.681,8.0
39.014,0.799,4.834,68.0
0.0,0.0,0.0,0.0
41.413,0.865,4.674,57.0
48.505,1.023,5.203,23.0
40.693,0.866,4.142,15.0
66.657,1.433,6.419,10.0
37.913,0.821,4.729,65.0
42.012,0.919,5.008,16.0
41.18,0.909,4.682,56.0
48.482,1.08,5.24,17.0
41.109,0.924,4.217,22.0
40.125,0.909,3.896,57.0
38.06,0.87,4.777,55.0
38.135,0.879,4.575,57.0
41.448,0.964,4.744,56.0
41.428,0.971,4.509,20.0
40.978,0.969,4.234,44.0
40.24,0.96,3.937,57.0
38.062,0.915,4.806,56.0
38.575,0.935,4.656,70.0
53.759,1.314,6.192,7.0
53.805,1.326,5.894,17.0
41.266,1.025,4.293,27.0
40.442,1.013,3.985,51.0
38.005,0.959,4.825,60.0
37.74,0.96,4.582,67.0
42.214,1.083,4.891,34.0
49.781,1.287,5.487,11.0
41.22,1.073,4.315,15.0
40.313,1.058,3.998,42.0
38.164,1.01,4.87,51.0
37.825,1.008,4.616,45.0
41.865,1.124,4.877,16.0
49.747,1.346,5.514,6.0
0.0,0.0,0.0,0.0
40.555,1.113,4.047,43.0
38.007,1.052,4.873,70.0
37.798,1.054,4.636,55.0
42.118,1.183,4.931,18.0
42.308,1.196,4.714,28.0
41.77,1.189,4.423,21.0
56.757,1.628,5.696,9.0
37.877,1.095,4.878,61.0
37.934,1.104,4.674,54.0
42.363,1.241,4.983,8.0
42.212,1.245,4.726,18.0
41.674,1.237,4.435,44.0
40.901,1.222,4.126,27.0
43.975,1.325,5.686,4.0
37.819,1.147,4.679,58.0
41.104,1.254,4.855,3.0
41.665,1.28,4.685,16.0
42.295,1.308,4.521,11.0
66.778,2.077,6.768,10.0
0.0,0.0,0.0,0.0
37.771,1.192,4.69,67.0
38.035,1.207,4.51,52.0
38.096,1.216,4.301,42.0
38.292,1.23,4.11,37.0
52.154,1.685,5.308,8.0
38.178,1.244,4.971,53.0
37.812,1.239,4.711,54.0
37.863,1.248,4.505,52.0
38.024,1.261,4.308,54.0
38.309,1.277,4.127,60.0
41.21,1.382,4.21,20.0
37.956,1.284,4.956,61.0
37.865,1.288,4.731,58.0
37.953,1.298,4.529,50.0
38.055,1.309,4.325,60.0
38.414,1.328,4.151,55.0
41.252,1.434,4.228,29.0
37.852,1.327,4.955,69.0
37.866,1.334,4.744,60.0
37.808,1.339,4.524,54.0
38.01,1.353,4.331,50.0
38.443,1.376,4.166,64.0
42.279,1.521,4.345,26.0
37.816,1.372,4.961,61.0
37.865,1.38,4.754,60.0
37.842,1.387,4.538,42.0
37.871,1.394,4.325,46.0
38.524,1.425,4.184,26.0
41.756,1.552,4.302,12.0
37.526,1.407,4.932,71.0
37.926,1.429,4.77,61.0
37.953,1.436,4.56,42.0
37.698,1.434,4.314,63.0
41.942,1.603,4.564,17.0
0.0,0.0,0.0,0.0
37.821,1.464,4.978,45.0
37.998,1.478,4.786,49.0
37.874,1.48,4.557,68.0
37.676,1.479,4.317,50.0
42.45,1.674,4.626,4.0
56.35,2.232,5.825,59.0
37.847,1.512,4.987,30.0
37.975,1.523,4.789,46.0
37.851,1.525,4.559,62.0
37.65,1.523,4.319,63.0
38.492,1.564,4.199,40.0
53.154,2.17,5.5,41.0
37.516,1.544,4.947,58.0
42.94,1.775,5.419,28.0
37.894,1.573,4.568,45.0
37.666,1.57,4.324,41.0
38.561,1.614,4.209,35.0
42.148,1.772,4.364,9.0
37.441,1.587,4.939,57.0
38.058,1.619,4.805,17.0
37.965,1.622,4.578,36.0
37.783,1.62,4.338,42.0
42.131,1.814,4.6,13.0
63.465,2.744,6.572,17.0
37.471,1.633,4.944,53.0
38.046,1.664,4.803,29.0
38.047,1.67,4.587,30.0
53.337,2.351,6.124,9.0
50.094,2.216,5.469,9.0
41.511,1.843,4.298,28.0
37.654,1.686,4.966,56.0
37.96,1.705,4.79,48.0
38.097,1.717,4.591,41.0
38.041,1.721,4.365,4.0
42.043,1.909,4.587,16.0
52.973,2.414,5.48,9.0
38.197,1.754,5.035,60.0
38.023,1.753,4.795,49.0
37.926,1.754,4.567,62.0
41.882,1.944,4.801,16.0
62.026,2.888,6.76,31.0
63.445,2.965,6.556,21.0
37.863,1.783,4.986,53.0
37.95,1.793,4.781,58.0
37.929,1.798,4.562,66.0
42.2,2.007,4.832,17.0
0.0,0.0,0.0,0.0
54.458,2.607,5.618,28.0
37.792,1.823,4.97,46.0
37.918,1.835,4.77,41.0
37.939,1.842,4.556,63.0
41.672,2.029,4.763,33.0
54.31,2.653,5.899,21.0
41.47,2.032,4.27,24.0
37.612,1.858,4.937,60.0
37.649,1.865,4.727,64.0
38.084,1.892,4.564,46.0
54.25,2.703,6.188,12.0
41.774,2.087,4.527,26.0
41.488,2.079,4.261,23.0
37.818,1.91,4.955,48.0
37.742,1.912,4.728,50.0
41.667,2.117,4.982,13.0
41.87,2.133,4.763,17.0
52.724,2.693,5.699,5.0
41.563,2.129,4.256,11.0
38.024,1.963,4.97,44.0
37.665,1.949,4.707,62.0
44.754,2.322,5.337,5.0
41.888,2.18,4.752,20.0
41.776,2.18,4.501,20.0
62.977,3.295,6.428,19.0
38.317,2.02,4.994,50.0
37.764,1.995,4.706,40.0
41.992,2.224,4.992,25.0
41.736,2.216,4.719,22.0
41.948,2.233,4.504,14.0
41.384,2.209,4.208,11.0
38.586,2.075,5.014,23.0
37.743,2.035,4.688,53.0
41.685,2.253,4.939,25.0
38.308,2.075,4.316,56.0
41.444,2.25,4.432,28.0
53.103,2.891,5.377,17.0
45.338,2.486,5.872,4.0
37.85,2.08,4.684,34.0
44.527,2.453,5.255,5.0
38.292,2.114,4.296,66.0
41.624,2.303,4.432,16.0
63.14,3.502,6.364,16.0
38.091,2.128,4.914,9.0
37.89,2.122,4.67,38.0
56.282,3.158,6.615,6.0
38.348,2.157,4.283,61.0
41.87,2.36,4.437,11.0
53.345,3.013,5.349,8.0
45.556,2.592,5.853,4.0
41.329,2.356,5.072,3.0
38.262,2.186,4.476,12.0
42.133,2.412,4.683,3.0
54.235,3.111,5.718,18.0
41.585,2.391,4.147,33.0
38.181,2.21,4.884,56.0
38.24,2.218,4.671,22.0
38.25,2.223,4.452,34.0
38.339,2.232,4.239,55.0
52.263,3.049,5.479,5.0
41.456,2.423,4.109,42.0
38.025,2.238,4.841,45.0
41.38,2.44,5.029,3.0
38.317,2.263,4.436,41.0
38.294,2.266,4.21,55.0
52.855,3.134,5.508,7.0
41.448,2.461,4.082,44.0
38.013,2.273,4.815,54.0
41.389,2.479,5.003,11.0
38.188,2.291,4.397,42.0
38.399,2.308,4.196,48.0
63.593,3.828,6.585,13.0
41.38,2.496,4.048,58.0
38.058,2.311,4.794,60.0
41.424,2.519,4.979,4.0
38.119,2.322,4.362,71.0
38.325,2.338,4.161,64.0
63.348,3.871,6.514,29.0
41.481,2.539,4.028,36.0
38.182,2.353,4.782,50.0
38.131,2.353,4.555,60.0
38.177,2.359,4.34,59.0
38.387,2.376,4.139,52.0
63.64,3.945,6.497,36.0
63.609,3.949,6.129,15.0
46.206,2.888,5.751,8.0
38.125,2.386,4.524,63.0
38.407,2.406,4.336,52.0
38.285,2.402,4.098,17.0
63.71,4.003,6.454,26.0
54.41,3.424,5.199,10.0
44.599,2.825,5.514,10.0
38.106,2.416,4.491,62.0
38.363,2.436,4.3,57.0
64.061,4.073,6.805,36.0
63.427,4.037,6.373,24.0
63.59,4.053,6.024,17.0
41.233,2.645,5.063,4.0
38.136,2.449,4.462,65.0
38.336,2.465,4.264,64.0
63.699,4.101,6.712,39.0
63.451,4.09,6.32,29.0
70.43,4.545,6.612,12.0
38.258,2.485,4.664,39.0
38.197,2.483,4.436,66.0
38.415,2.499,4.239,54.0
64.05,4.172,6.692,36.0
63.609,4.148,6.28,4.0
70.412,4.597,6.547,17.0
38.23,2.511,4.626,38.0
38.241,2.515,4.405,59.0
38.674,2.546,4.231,54.0
70.803,4.665,7.331,10.0
54.348,3.584,5.314,13.0
70.407,4.649,6.48,12.0
44.965,2.986,5.398,3.0
38.251,2.543,4.37,60.0
38.808,2.582,4.209,39.0
64.358,4.286,6.602,8.0
63.51,4.233,6.149,11.0
70.559,4.707,6.426,11.0
38.489,2.582,4.583,56.0
38.235,2.568,4.33,57.0
38.82,2.609,4.172,33.0
64.182,4.317,6.52,37.0
0.0,0.0,0.0,0.0
65.223,4.395,5.874,18.0
38.422,2.604,4.535,66.0
38.28,2.596,4.296,41.0
64.121,4.352,6.824,36.0
71.427,4.851,7.182,19.0
70.473,4.79,6.68,46.0
65.112,4.429,5.797,29.0
38.396,2.626,4.491,63.0
65.97,4.516,7.333,9.0
64.153,4.394,6.76,22.0
65.036,4.456,6.471,30.0
70.621,4.842,6.619,46.0
64.983,4.46,5.716,40.0
38.362,2.647,4.446,60.0
41.888,2.891,4.611,16.0
64.169,4.432,6.692,20.0
65.16,4.503,6.411,25.0
70.729,4.891,6.551,40.0
63.928,4.423,5.553,33.0
38.374,2.669,4.404,57.0
41.904,2.916,4.565,24.0
64.206,4.47,6.623,34.0
70.821,4.933,6.889,29.0
70.815,4.935,6.479,13.0
63.79,4.448,5.468,26.0
38.359,2.688,4.358,47.0
41.933,2.94,4.52,12.0
67.703,4.749,6.905,11.0
70.86,4.972,6.81,30.0
71.853,5.043,6.491,15.0
63.827,4.482,5.398,18.0
38.372,2.708,4.314,51.0
64.28,4.538,6.853,39.0
67.523,4.768,6.808,43.0
70.935,5.01,6.734,37.0
63.891,4.514,5.696,27.0
63.925,4.519,5.33,34.0
38.635,2.744,4.297,26.0
64.317,4.569,6.779,35.0
67.689,4.809,6.742,28.0
71.007,5.047,6.654,36.0
63.898,4.543,5.618,38.0
64.055,4.556,5.262,39.0
38.817,2.773,4.269,44.0
38.532,2.753,4.013,55.0
67.707,4.839,6.66,15.0
64.101,4.582,5.927,32.0
64.092,4.582,5.556,36.0
63.934,4.572,5.172,33.0
41.854,3.007,4.549,26.0
67.611,4.857,6.956,11.0
64.006,4.598,6.214,19.0
64.011,4.599,5.837,38.0
63.889,4.591,5.456,38.0
64.162,4.611,5.11,39.0
41.66,3.007,4.475,44.0
67.433,4.867,6.851,20.0
71.581,5.166,6.857,12.0
63.909,4.612,5.745,36.0
63.627,4.592,5.352,39.0
64.808,4.677,5.077,40.0
41.62,3.016,4.416,3.0
38.868,2.816,3.898,12.0
71.206,5.16,6.727,34.0
63.952,4.634,5.664,23.0
63.761,4.619,5.279,33.0
65.142,4.72,5.017,31.0
38.57,2.805,4.041,63.0
38.838,2.824,3.843,10.0
71.135,5.173,6.626,15.0
63.848,4.642,5.57,33.0
64.106,4.66,5.222,38.0
64.995,4.725,4.919,43.0
38.514,2.81,3.982,68.0
64.088,4.675,6.253,18.0
63.846,4.656,5.859,37.0
63.721,4.646,5.472,39.0
63.958,4.662,5.122,38.0
64.985,4.737,4.829,18.0
38.596,2.823,3.937,51.0
64.102,4.687,6.167,20.0
63.757,4.66,5.764,28.0
63.614,4.649,5.375,37.0
64.139,4.686,5.049,9.0
67.412,4.924,4.917,29.0
38.834,2.846,3.907,66.0
71.33,5.226,6.761,17.0
63.876,4.678,5.684,23.0
63.578,4.655,5.283,29.0
64.656,4.732,4.999,39.0
67.438,4.934,4.824,27.0
38.851,2.852,3.854,32.0
64.296,4.717,6.004,39.0
63.889,4.685,5.595,23.0
63.689,4.668,5.201,39.0
64.79,4.747,4.917,39.0
70.841,5.189,4.967,15.0
64.056,4.706,6.261,28.0
63.845,4.688,5.87,39.0
63.759,4.679,5.491,38.0
63.907,4.687,5.128,39.0
67.645,4.959,5.036,15.0
70.783,5.187,4.861,13.0
64.255,4.722,6.186,40.0
63.863,4.69,5.778,37.0
63.64,4.671,5.388,27.0
64.429,4.726,5.074,29.0
67.452,4.945,4.922,34.0
70.896,5.195,4.764,9.0
71.387,5.245,6.768,11.0
63.934,4.694,5.689,22.0
63.494,4.658,5.281,24.0
64.598,4.736,4.993,40.0
67.42,4.94,4.821,23.0
70.918,5.193,4.661,19.0
64.242,4.716,5.995,40.0
63.889,4.687,5.591,24.0
63.706,4.669,5.205,38.0
64.865,4.75,4.917,40.0
70.805,5.183,4.958,16.0
70.883,5.185,4.553,17.0
63.795,4.677,5.856,36.0
63.684,4.664,5.476,38.0
63.897,4.676,5.123,36.0
67.508,4.936,5.015,9.0
70.798,5.173,4.85,13.0
70.877,5.175,4.446,8.0
63.804,4.668,5.76,26.0
63.641,4.652,5.375,38.0
0.0,0.0,0.0,0.0
67.402,4.918,4.905,32.0
70.892,5.168,4.748,10.0
157.126,11.446,9.618,21.0
63.911,4.665,5.671,14.0
63.925,4.661,5.301,39.0
65.075,4.739,5.019,40.0
70.843,5.155,5.047,10.0
70.848,5.15,4.637,20.0
157.144,11.414,9.377,21.0
63.823,4.643,5.565,28.0
64.089,4.658,5.215,39.0
64.977,4.717,4.911,46.0
70.757,5.131,4.931,21.0
70.833,5.131,4.527,25.0
157.262,11.383,9.142,25.0
63.648,4.613,5.451,33.0
64.265,4.652,5.13,39.0
67.501,4.881,4.997,15.0
67.536,4.878,4.602,40.0
70.842,5.111,4.418,7.0
157.358,11.343,8.906,28.0
63.634,4.592,5.35,33.0
65.075,4.69,5.093,40.0
71.142,5.121,5.156,19.0
67.605,4.861,4.501,26.0
157.377,11.302,9.568,22.0
157.452,11.295,8.663,21.0
63.851,4.585,5.267,35.0
65.203,4.676,5.0,22.0
67.384,4.826,4.777,28.0
70.814,5.065,4.603,40.0
157.499,11.252,9.327,21.0
157.553,11.242,8.42,10.0
64.199,4.584,5.194,31.0
67.137,4.787,5.042,36.0
67.485,4.805,4.677,33.0
70.848,5.038,4.493,21.0
157.659,11.196,9.087,26.0
33.385,2.367,1.731,37.0
64.923,4.607,5.149,41.0
67.167,4.759,4.937,31.0
67.558,4.779,4.574,40.0
157.613,11.134,9.745,20.0
157.77,11.131,8.843,7.0
33.38,2.351,1.678,92.0
65.322,4.603,5.077,41.0
67.314,4.737,4.841,27.0
67.633,4.751,4.471,37.0
172.893,12.127,10.414,22.0
165.731,11.607,9.025,6.0
33.389,2.335,1.625,1.0
0.0,0.0,0.0,0.0
67.214,4.693,4.725,38.0
67.514,4.706,4.356,36.0
67.35,4.687,3.949,7.0
33.391,2.32,1.765,5.0
115.2,7.992,5.425,8.0
67.018,4.649,4.993,25.0
67.576,4.68,4.643,39.0
67.346,4.655,4.237,19.0
128.415,8.863,7.325,15.0
33.377,2.299,1.711,53.0
121.073,8.328,5.511,6.0
67.13,4.616,4.895,40.0
67.606,4.64,4.538,43.0
67.335,4.613,4.131,30.0
128.715,8.803,7.141,9.0
33.422,2.281,1.661,24.0
118.1,8.049,5.19,21.0
67.251,4.581,4.796,44.0
67.578,4.594,4.429,29.0
67.3,4.566,4.021,26.0
128.467,8.7,6.922,12.0
33.403,2.257,1.607,2.0
157.899,10.653,6.688,39.0
67.207,4.531,4.687,44.0
67.5,4.541,4.317,27.0
67.014,4.499,3.898,19.0
33.391,2.237,1.746,9.0
33.413,2.234,1.555,3.0
158.007,10.546,6.443,37.0
67.192,4.48,4.578,44.0
67.351,4.481,4.2,38.0
67.105,4.455,3.797,11.0
33.387,2.211,1.692,40.0
33.436,2.21,1.502,1.0
158.094,10.431,6.193,40.0
66.914,4.409,4.452,31.0
67.173,4.416,4.08,34.0
128.02,8.396,7.037,30.0
33.42,2.187,1.64,3.0
158.009,10.318,6.845,37.0
158.122,10.303,5.94,33.0
66.945,4.355,4.346,29.0
66.985,4.348,3.962,8.0
33.398,2.162,1.782,2.0
157.972,10.205,7.504,38.0
158.07,10.189,6.599,45.0
158.144,10.171,5.693,42.0
66.938,4.297,4.239,28.0
128.315,8.218,7.385,12.0
128.126,8.185,6.636,35.0
158.069,10.073,7.261,37.0
158.093,10.049,6.351,21.0
157.967,10.018,5.436,14.0
67.034,4.243,4.14,27.0
128.258,8.096,7.181,14.0
128.397,8.085,6.448,19.0
158.063,9.927,7.012,14.0
33.42,2.094,1.29,1.0
33.433,2.089,1.099,4.0
67.133,4.186,4.041,9.0
128.376,7.984,6.988,28.0
127.785,7.925,6.218,19.0
33.417,2.066,1.43,3.0
33.425,2.061,1.238,8.0
33.434,2.057,1.046,5.0
128.614,7.892,7.54,30.0
128.29,7.849,6.78,34.0
127.73,7.792,6.014,9.0
33.449,2.034,1.378,4.0
33.437,2.028,1.185,2.0
158.555,9.591,4.712,7.0
128.85,7.773,7.35,36.0
127.639,7.676,6.545,34.0
161.882,9.708,7.371,17.0
158.327,9.466,6.281,16.0
157.399,9.382,5.339,13.0
164.068,9.753,4.622,10.0
128.4,7.609,7.126,33.0
33.438,1.975,1.663,24.0
33.474,1.971,1.472,0.0
158.272,9.291,6.034,18.0
162.177,9.491,5.252,7.0
157.44,9.188,4.196,5.0
33.441,1.944,1.804,1.0
162.013,9.39,7.809,39.0
157.083,9.076,6.669,12.0
157.949,9.097,5.783,17.0
162.298,9.317,5.011,12.0
162.217,9.283,4.077,4.0
33.438,1.906,1.753,19.0
33.457,1.901,1.562,1.0
157.634,8.925,6.453,18.0
157.357,8.88,5.523,18.0
0.0,0.0,0.0,0.0
163.203,9.147,3.855,16.0
33.443,1.867,1.703,54.0
162.311,9.029,7.332,12.0
157.833,8.747,6.222,18.0
157.195,8.681,5.279,17.0
163.371,8.991,4.549,16.0
162.707,8.923,3.598,22.0
33.451,1.826,1.653,6.0
159.558,8.681,6.969,16.0
157.652,8.544,5.98,6.0
162.264,8.761,5.208,10.0
162.5,8.74,4.283,13.0
162.509,8.709,3.352,10.0
162.43,8.665,7.787,17.0
162.498,8.633,6.856,6.0
157.633,8.341,5.745,11.0
157.096,8.281,4.81,11.0
162.691,8.542,4.048,9.0
105.805,5.533,2.026,1.0
131.964,6.866,6.13,21.0
157.59,8.167,6.417,4.0
156.793,8.092,5.484,15.0
156.697,8.053,4.567,18.0
167.176,8.558,3.916,15.0
105.825,5.395,1.874,11.0
132.111,6.702,5.948,13.0
167.007,8.434,6.56,12.0
156.523,7.87,5.252,18.0
156.458,7.834,4.338,8.0
0.0,0.0,0.0,0.0
0.0,0.0,0.0,0.0
160.252,7.908,6.984,14.0
157.465,7.734,5.959,19.0
156.176,7.637,5.016,16.0
0.0,0.0,0.0,0.0
0.0,0.0,0.0,0.0
105.961,5.111,1.574,3.0
156.92,7.524,6.617,9.0
156.782,7.483,5.713,22.0
156.377,7.427,4.803,13.0
0.0,0.0,0.0,0.0
0.0,0.0,0.0,0.0
105.85,4.956,1.425,4.0
124.291,5.782,5.069,22.0
174.058,8.056,6.101,11.0
157.356,7.246,4.614,6.0
0.0,0.0,0.0,0.0
0.0,0.0,0.0,0.0
92.882,4.211,1.121,4.0
124.298,5.599,4.896,23.0
157.059,7.037,5.288,19.0
173.759,7.742,4.856,14.0
0.0,0.0,0.0,0.0
0.0,0.0,0.0,0.0
78.543,3.444,0.841,13.0
157.257,6.845,5.98,18.0
173.519,7.511,5.607,10.0
173.327,7.461,4.609,7.0
0.0,0.0,0.0,0.0
101.246,4.308,1.526,1.0
77.611,3.283,0.727,49.0
157.312,6.606,5.771,22.0
162.356,6.776,5.028,6.0
0.0,0.0,0.0,0.0
0.0,0.0,0.0,0.0
95.941,3.933,1.319,2.0
77.208,3.145,0.621,6.0
158.844,6.42,5.619,5.0
162.261,6.516,4.813,6.0
0.0,0.0,0.0,0.0
0.0,0.0,0.0,0.0
93.219,3.671,1.159,6.0
73.84,2.889,0.497,11.0
157.087,6.093,5.351,10.0
173.563,6.689,4.923,6.0
0.0,0.0,0.0,0.0
0.0,0.0,0.0,0.0
79.17,2.99,0.884,10.0
59.085,2.216,0.323,24.0
160.104,5.95,5.252,13.0
160.667,5.928,4.354,4.0
0.0,0.0,0.0,0.0
100.792,3.666,1.573,1.0
78.045,2.818,0.774,36.0
54.96,1.97,0.232,28.0
157.275,5.584,4.964,5.0
0.0,0.0,0.0,0.0
0.0,0.0,0.0,0.0
100.682,3.493,1.447,2.0
77.703,2.674,0.674,17.0
54.228,1.852,0.162,27.0
158.934,5.371,4.821,14.0
0.0,0.0,0.0,0.0
0.0,0.0,0.0,0.0
95.251,3.14,1.253,7.0
74.228,2.427,0.555,14.0
48.589,1.576,0.087,23.0
158.695,5.092,4.626,15.0
0.0,0.0,0.0,0.0
0.0,0.0,0.0,0.0
93.174,2.911,1.117,4.0
60.609,1.877,0.382,16.0
47.441,1.456,0.03,23.0
158.484,4.81,4.437,5.0
0.0,0.0,0.0,0.0
0.0,0.0,0.0,0.0
78.422,2.313,0.851,12.0
0.0,0.0,0.0,0.0
0.0,0.0,0.0,0.0
154.055,4.401,4.138,30.0
0.0,0.0,0.0,0.0
106.031,2.967,1.643,5.0
78.018,2.161,0.759,47.0
58.391,1.601,0.237,8.0
42.621,1.156,-0.069,13.0
0.0,0.0,0.0,0.0
0.0,0.0,0.0,0.0
106.032,2.777,1.528,26.0
77.822,2.015,0.672,18.0
38.725,0.991,0.115,2.0
39.46,0.999,-0.106,37.0
100.387,2.506,2.479,4.0
100.461,2.477,1.91,3.0
106.058,2.583,1.415,34.0
74.739,1.798,0.566,26.0
48.47,1.152,0.092,21.0
38.399,0.901,-0.144,45.0
0.0,0.0,0.0,0.0
0.0,0.0,0.0,0.0
89.881,2.022,1.106,5.0
74.567,1.655,0.488,14.0
47.598,1.042,0.042,22.0
37.589,0.812,-0.179,47.0
128.122,2.722,2.899,49.0
106.158,2.222,1.801,3.0
80.769,1.666,0.913,8.0
60.872,1.237,0.337,35.0
0.0,0.0,0.0,0.0
37.302,0.735,-0.214,26.0
128.05,2.478,2.771,32.0
127.461,2.428,2.038,9.0
80.58,1.511,0.833,8.0
0.0,0.0,0.0,0.0
44.579,0.808,-0.047,18.0
37.167,0.662,-0.249,13.0
190.137,3.319,3.935,20.0
126.481,2.168,1.903,39.0
77.951,1.311,0.732,25.0
54.763,0.903,0.199,13.0
39.83,0.645,-0.079,15.0
37.015,0.588,-0.282,6.0
189.866,2.945,3.755,30.0
126.333,1.921,1.785,25.0
0.0,0.0,0.0,0.0
48.016,0.699,0.131,58.0
39.233,0.559,-0.113,43.0
37.046,0.517,-0.315,2.0
189.291,2.571,3.577,24.0
121.362,1.61,1.609,13.0
48.087,0.622,0.366,56.0
47.908,0.604,0.09,53.0
38.706,0.475,-0.145,50.0
33.467,0.4,-0.314,1.0
48.16,0.559,0.868,74.0
48.107,0.543,0.596,102.0
48.051,0.526,0.325,87.0
47.513,0.504,0.049,47.0
38.293,0.394,-0.175,46.0
32.708,0.326,-0.334,1.0
48.105,0.463,0.828,110.0
48.075,0.447,0.557,105.0
48.046,0.431,0.286,102.0
46.592,0.402,0.011,27.0
38.134,0.317,-0.205,29.0
31.767,0.253,-0.349,1.0
48.097,0.366,0.79,105.0
48.103,0.351,0.52,61.0
48.154,0.335,0.25,60.0
45.121,0.299,-0.024,22.0
38.068,0.239,-0.234,13.0
31.119,0.185,-0.366,1.0
59.277,0.333,0.93,12.0
59.293,0.313,0.597,135.0
55.048,0.271,0.244,39.0
0.0,0.0,0.0,0.0
37.858,0.161,-0.26,13.0
30.554,0.12,-0.382,1.0
79.475,0.283,1.189,151.0
79.451,0.256,0.743,150.0
59.044,0.171,0.221,8.0
43.739,0.111,-0.086,5.0
38.054,0.084,-0.288,3.0
30.068,0.056,-0.396,2.0
79.46,0.121,1.135,151.0
79.41,0.093,0.689,85.0
54.831,0.045,0.168,15.0
40.704,0.019,-0.107,17.0
38.28,0.005,-0.315,1.0
29.659,-0.005,-0.41,2.0
79.461,-0.042,1.084,152.0
79.291,-0.068,0.637,34.0
0.0,0.0,0.0,0.0
40.468,-0.062,-0.131,17.0
33.779,-0.063,-0.299,0.0
29.433,-0.065,-0.425,3.0
79.458,-0.204,1.036,151.0
79.171,-0.23,0.589,19.0
51.075,-0.166,0.094,9.0
40.362,-0.145,-0.155,6.0
33.471,-0.132,-0.316,1.0
29.059,-0.124,-0.436,2.0
79.461,-0.368,0.991,152.0
76.741,-0.382,0.528,14.0
0.0,0.0,0.0,0.0
40.857,-0.232,-0.179,3.0
33.117,-0.2,-0.33,1.0
28.72,-0.183,-0.447,1.0
79.445,-0.533,0.948,184.0
77.006,-0.545,0.489,12.0
48.642,-0.361,0.037,3.0
0.0,0.0,0.0,0.0
32.532,-0.264,-0.341,1.0
28.387,-0.24,-0.456,2.0
79.454,-0.699,0.909,184.0
77.379,-0.708,0.453,8.0
54.918,-0.521,0.015,5.0
42.088,-0.414,-0.227,2.0
31.832,-0.324,-0.349,1.0
28.185,-0.297,-0.466,2.0
79.466,-0.863,0.873,151.0
77.739,-0.871,0.421,4.0
60.821,-0.703,-0.009,2.0
42.136,-0.502,-0.245,2.0
31.808,-0.39,-0.362,2.0
27.766,-0.351,-0.471,2.0
86.961,-1.127,0.919,107.0
78.506,-1.046,0.392,2.0
53.681,-0.734,-0.03,2.0
41.831,-0.587,-0.26,0.0
31.082,-0.447,-0.367,1.0
27.539,-0.406,-0.478,1.0
123.698,-1.865,1.259,9.0
0.0,0.0,0.0,0.0
51.559,-0.814,-0.048,0.0
40.115,-0.648,-0.265,7.0
30.895,-0.51,-0.376,1.0
27.243,-0.46,-0.483,1.0
40.272,-0.692,0.395,47.0
40.269,-0.706,0.172,57.0
40.298,-0.721,-0.051,67.0
40.167,-0.733,-0.278,6.0
30.636,-0.57,-0.382,1.0
27.055,-0.513,-0.488,1.0
40.25,-0.776,0.383,57.0
40.309,-0.792,0.16,12.0
0.0,0.0,0.0,0.0
40.204,-0.819,-0.29,3.0
30.325,-0.628,-0.387,1.0
26.929,-0.568,-0.493,1.0
0.0,0.0,0.0,0.0
40.297,-0.876,0.149,0.0
40.305,-0.891,-0.074,8.0
40.237,-0.904,-0.301,3.0
30.214,-0.69,-0.393,1.0
27.034,-0.627,-0.502,4.0
40.316,-0.947,0.363,145.0
40.282,-0.961,0.14,10.0
40.466,-0.98,-0.083,0.0
39.962,-0.983,-0.308,0.0
30.1,-0.751,-0.398,1.0
26.75,-0.677,-0.502,1.0
40.196,-1.029,0.354,63.0
40.22,-1.044,0.132,42.0
40.958,-1.078,-0.092,177.0
40.284,-1.076,-0.317,0.0
30.278,-0.819,-0.406,3.0
26.577,-0.729,-0.503,1.0
40.221,-1.114,0.348,59.0
40.194,-1.127,0.125,56.0
40.198,-1.143,-0.096,63.0
40.045,-1.153,-0.321,0.0
29.994,-0.875,-0.406,1.0
26.586,-0.785,-0.507,1.0
0.0,0.0,0.0,0.0
0.0,0.0,0.0,0.0
0.0,0.0,0.0,0.0
38.493,-1.19,-0.312,0.0
29.911,-0.936,-0.408,1.0
26.567,-0.841,-0.509,1.0
0.0,0.0,0.0,0.0
0.0,0.0,0.0,0.0
0.0,0.0,0.0,0.0
36.812,-1.215,-0.301,0.0
29.917,-0.998,-0.41,1.0
26.51,-0.895,-0.509,2.0
0.0,0.0,0.0,0.0
0.0,0.0,0.0,0.0
53.083,-1.844,-0.138,0.0
40.12,-1.408,-0.33,1.0
29.941,-1.062,-0.411,1.0
26.502,-0.95,-0.51,1.0
0.0,0.0,0.0,0.0
0.0,0.0,0.0,0.0
40.134,-1.478,-0.104,150.0
37.772,-1.405,-0.31,10.0
29.98,-1.126,-0.411,1.0
26.516,-1.006,-0.509,1.0
0.0,0.0,0.0,0.0
0.0,0.0,0.0,0.0
37.803,-1.47,-0.096,159.0
37.687,-1.479,-0.307,36.0
30.085,-1.192,-0.411,1.0
26.569,-1.063,-0.509,2.0
0.0,0.0,0.0,0.0
0.0,0.0,0.0,0.0
37.732,-1.545,-0.093,0.0
37.707,-1.558,-0.304,9.0
30.198,-1.26,-0.409,1.0
26.666,-1.122,-0.508,1.0
0.0,0.0,0.0,0.0
0.0,0.0,0.0,0.0
50.435,-2.17,-0.119,3.0
37.926,-1.645,-0.301,2.0
30.383,-1.33,-0.408,2.0
26.791,-1.183,-0.507,2.0
0.0,0.0,0.0,0.0
0.0,0.0,0.0,0.0
50.423,-2.272,-0.111,2.0
37.889,-1.721,-0.295,0.0
30.392,-1.392,-0.403,2.0
26.8,-1.238,-0.502,1.0
0.0,0.0,0.0,0.0
0.0,0.0,0.0,0.0
50.485,-2.378,-0.102,9.0
38.692,-1.837,-0.294,0.0
30.428,-1.456,-0.397,1.0
26.987,-1.301,-0.5,2.0
0.0,0.0,0.0,0.0
0.0,0.0,0.0,0.0
50.507,-2.481,-0.09,11.0
39.079,-1.934,-0.288,0.0
30.976,-1.544,-0.397,1.0
27.261,-1.369,-0.499,3.0
0.0,0.0,0.0,0.0
0.0,0.0,0.0,0.0
50.492,-2.581,-0.077,7.0
0.0,0.0,0.0,0.0
31.419,-1.629,-0.394,1.0
27.624,-1.442,-0.498,5.0
0.0,0.0,0.0,0.0
0.0,0.0,0.0,0.0
50.426,-2.679,-0.062,1.0
0.0,0.0,0.0,0.0
31.828,-1.714,-0.39,1.0
27.565,-1.494,-0.488,1.0
0.0,0.0,0.0,0.0
0.0,0.0,0.0,0.0
