X,Y,Z,Reflectivity
9.976,1.243,-0.155,150.0
9.975,1.243,-0.213,150.0
9.971,1.242,-0.271,109.0
9.967,1.242,-0.328,107.0
9.969,1.242,-0.385,59.0
9.971,1.242,-0.109,106.0
9.976,1.242,-0.167,150.0
9.971,1.242,-0.224,150.0
9.966,1.241,-0.282,106.0
9.97,1.242,-0.339,113.0
9.971,1.242,-0.397,58.0
9.972,1.241,-0.121,102.0
9.971,1.241,-0.178,150.0
9.978,1.242,-0.236,150.0
9.96,1.24,-0.293,106.0
9.972,1.242,-0.351,111.0
9.968,1.241,-0.408,58.0
9.972,1.24,-0.132,97.0
9.967,1.24,-0.189,150.0
9.968,1.24,-0.247,150.0
9.968,1.24,-0.305,103.0
9.974,1.241,-0.362,117.0
9.97,1.24,-0.42,69.0
9.971,1.239,-0.144,117.0
9.973,1.239,-0.201,150.0
9.978,1.24,-0.258,150.0
9.97,1.238,-0.316,110.0
9.974,1.239,-0.374,115.0
9.969,1.238,-0.431,64.0
9.978,1.238,-0.155,116.0
9.974,1.237,-0.212,150.0
9.976,1.237,-0.269,150.0
9.968,1.236,-0.327,104.0
9.975,1.237,-0.385,112.0
9.967,1.236,-0.442,64.0
9.974,1.235,-0.166,104.0
9.978,1.235,-0.223,150.0
9.974,1.235,-0.28,150.0
9.968,1.234,-0.339,106.0
9.971,1.234,-0.396,110.0
9.964,1.233,-0.453,62.0
9.967,1.231,-0.177,106.0
9.976,1.232,-0.234,150.0
9.972,1.231,-0.291,150.0
9.969,1.231,-0.35,105.0
9.973,1.231,-0.407,107.0
9.975,1.231,-0.464,58.0
9.977,1.229,-0.188,105.0
9.974,1.229,-0.245,150.0
9.976,1.228,-0.302,150.0
9.967,1.227,-0.36,100.0
9.973,1.228,-0.418,109.0
9.971,1.227,-0.475,46.0
9.967,1.224,-0.199,109.0
9.977,1.225,-0.256,150.0
9.976,1.225,-0.313,150.0
9.97,1.223,-0.371,99.0
9.979,1.224,-0.429,101.0
9.977,1.224,-0.486,20.0
9.975,1.221,-0.209,105.0
9.968,1.22,-0.266,150.0
9.974,1.22,-0.324,150.0
9.969,1.219,-0.382,104.0
9.979,1.22,-0.439,102.0
9.973,1.219,-0.496,38.0
9.97,1.216,-0.22,90.0
9.975,1.216,-0.277,150.0
9.975,1.216,-0.334,150.0
9.974,1.215,-0.392,93.0
9.978,1.215,-0.45,87.0
9.981,1.215,-0.507,42.0
9.973,1.211,-0.23,84.0
9.979,1.211,-0.287,150.0
9.976,1.211,-0.344,143.0
9.975,1.21,-0.402,83.0
9.983,1.211,-0.46,77.0
9.988,1.211,-0.517,32.0
9.979,1.207,-0.24,90.0
9.984,1.207,-0.297,143.0
9.977,1.205,-0.354,135.0
9.98,1.205,-0.413,76.0
9.991,1.206,-0.47,67.0
9.994,1.206,-0.528,33.0
9.986,1.202,-0.25,67.0
9.991,1.202,-0.308,147.0
9.986,1.2,-0.365,132.0
9.988,1.2,-0.423,75.0
9.994,1.2,-0.48,52.0
9.996,1.2,-0.538,35.0
9.991,1.196,-0.26,66.0
10.004,1.197,-0.318,146.0
9.992,1.195,-0.374,140.0
9.992,1.194,-0.433,71.0
10.001,1.194,-0.49,77.0
9.999,1.194,-0.548,36.0
9.994,1.19,-0.27,74.0
9.999,1.189,-0.327,142.0
9.997,1.188,-0.384,122.0
9.995,1.187,-0.442,59.0
10.006,1.188,-0.5,73.0
10.009,1.188,-0.558,22.0
10.0,1.183,-0.279,83.0
10.007,1.183,-0.337,121.0
10.009,1.183,-0.394,104.0
10.006,1.181,-0.452,25.0
10.009,1.181,-0.51,20.0
10.011,1.181,-0.567,18.0
10.009,1.177,-0.289,35.0
10.009,1.176,-0.346,60.0
10.01,1.175,-0.403,20.0
10.002,1.173,-0.461,23.0
10.001,1.172,-0.518,17.0
10.001,1.172,-0.575,15.0
13.867,1.619,-0.413,4.0
13.782,1.608,-0.489,5.0
13.48,1.572,-0.555,5.0
13.058,1.521,-0.613,5.0
10.013,1.166,-0.527,6.0
10.035,1.167,-0.586,5.0
13.832,1.604,-0.424,9.0
13.76,1.594,-0.5,7.0
13.431,1.555,-0.564,6.0
13.05,1.509,-0.624,7.0
12.276,1.419,-0.657,2.0
10.985,1.269,-0.651,1.0
13.816,1.59,-0.435,13.0
13.739,1.579,-0.511,12.0
13.375,1.536,-0.573,9.0
13.044,1.497,-0.635,14.0
12.162,1.395,-0.661,2.0
11.224,1.286,-0.674,1.0
13.793,1.575,-0.445,19.0
13.723,1.565,-0.521,16.0
13.285,1.514,-0.58,8.0
13.027,1.483,-0.644,9.0
12.076,1.374,-0.666,1.0
11.142,1.266,-0.678,2.0
13.785,1.561,-0.456,18.0
13.689,1.548,-0.531,14.0
13.222,1.494,-0.588,8.0
12.899,1.456,-0.648,4.0
11.942,1.347,-0.668,1.0
11.042,1.244,-0.681,1.0
13.764,1.545,-0.466,23.0
13.671,1.533,-0.54,12.0
13.139,1.471,-0.594,8.0
12.77,1.429,-0.651,2.0
11.805,1.319,-0.669,1.0
10.932,1.221,-0.682,2.0
13.759,1.53,-0.476,24.0
13.566,1.507,-0.546,9.0
13.079,1.451,-0.601,8.0
12.634,1.4,-0.654,1.0
11.677,1.293,-0.67,1.0
10.854,1.201,-0.685,2.0
13.747,1.514,-0.485,23.0
13.51,1.486,-0.553,9.0
13.069,1.436,-0.609,10.0
12.501,1.372,-0.655,1.0
11.583,1.27,-0.673,1.0
10.795,1.182,-0.689,2.0
13.728,1.497,-0.493,22.0
13.41,1.461,-0.558,11.0
13.074,1.422,-0.618,11.0
12.394,1.347,-0.658,1.0
11.521,1.25,-0.677,2.0
10.721,1.162,-0.691,1.0
13.728,1.482,-0.502,22.0
13.345,1.438,-0.564,12.0
13.068,1.407,-0.627,10.0
12.316,1.324,-0.662,2.0
11.412,1.225,-0.678,1.0
10.63,1.14,-0.692,1.0
13.726,1.465,-0.511,20.0
13.314,1.419,-0.571,12.0
13.078,1.392,-0.635,9.0
12.228,1.3,-0.664,2.0
11.296,1.199,-0.678,1.0
10.554,1.119,-0.693,2.0
13.713,1.448,-0.518,19.0
13.289,1.401,-0.578,10.0
13.043,1.373,-0.641,8.0
12.135,1.275,-0.666,1.0
11.232,1.179,-0.68,1.0
10.488,1.099,-0.695,2.0
13.693,1.428,-0.525,14.0
13.278,1.383,-0.584,9.0
13.054,1.358,-0.649,9.0
12.054,1.252,-0.668,1.0
11.172,1.159,-0.683,1.0
10.416,1.079,-0.696,2.0
13.676,1.409,-0.532,11.0
13.208,1.359,-0.588,12.0
12.995,1.335,-0.652,7.0
12.038,1.235,-0.674,1.0
11.137,1.141,-0.686,1.0
10.36,1.06,-0.697,2.0
13.668,1.391,-0.538,11.0
13.183,1.339,-0.594,12.0
12.942,1.313,-0.656,4.0
11.95,1.21,-0.674,1.0
11.053,1.118,-0.686,1.0
10.347,1.045,-0.701,1.0
13.655,1.371,-0.544,11.0
13.159,1.319,-0.598,8.0
12.843,1.286,-0.656,3.0
11.846,1.184,-0.674,1.0
11.002,1.098,-0.688,2.0
10.288,1.025,-0.701,2.0
13.64,1.352,-0.549,12.0
13.142,1.3,-0.603,8.0
12.764,1.26,-0.658,2.0
11.788,1.162,-0.675,1.0
10.954,1.078,-0.689,2.0
10.23,1.005,-0.701,2.0
13.621,1.331,-0.554,12.0
13.101,1.278,-0.606,8.0
12.72,1.238,-0.66,1.0
11.76,1.143,-0.678,1.0
10.927,1.06,-0.691,1.0
10.21,0.989,-0.704,2.0
13.612,1.311,-0.558,12.0
13.087,1.258,-0.61,8.0
12.64,1.213,-0.66,2.0
11.728,1.123,-0.68,1.0
10.912,1.043,-0.694,1.0
10.185,0.972,-0.705,2.0
13.595,1.29,-0.561,11.0
13.106,1.241,-0.615,9.0
12.591,1.19,-0.661,4.0
11.691,1.103,-0.681,2.0
10.898,1.026,-0.696,1.0
10.159,0.955,-0.706,2.0
13.556,1.267,-0.563,12.0
13.084,1.22,-0.617,10.0
12.572,1.17,-0.664,4.0
11.663,1.083,-0.682,1.0
10.857,1.006,-0.696,1.0
10.151,0.939,-0.708,2.0
13.58,1.249,-0.568,11.0
13.074,1.2,-0.62,10.0
12.546,1.149,-0.665,4.0
11.633,1.063,-0.683,2.0
10.84,0.989,-0.698,2.0
10.15,0.924,-0.71,1.0
13.555,1.226,-0.569,12.0
13.082,1.181,-0.623,10.0
12.561,1.131,-0.668,4.0
11.613,1.044,-0.684,1.0
10.819,0.97,-0.698,2.0
10.132,0.907,-0.711,2.0
13.562,1.206,-0.572,13.0
13.084,1.161,-0.625,10.0
12.536,1.11,-0.669,3.0
11.62,1.026,-0.686,2.0
10.819,0.954,-0.699,2.0
10.13,0.891,-0.712,2.0
13.593,1.188,-0.575,10.0
13.087,1.141,-0.626,9.0
12.5,1.087,-0.668,3.0
11.604,1.007,-0.686,2.0
10.82,0.937,-0.701,2.0
10.119,0.874,-0.712,2.0
13.609,1.168,-0.576,11.0
13.06,1.118,-0.626,8.0
12.511,1.069,-0.67,4.0
11.575,0.986,-0.685,2.0
10.839,0.921,-0.702,1.0
10.13,0.859,-0.713,2.0
13.617,1.147,-0.577,11.0
13.094,1.101,-0.628,9.0
12.506,1.048,-0.669,4.0
11.601,0.97,-0.687,2.0
10.839,0.904,-0.702,1.0
10.135,0.843,-0.714,2.0
13.599,1.124,-0.576,9.0
13.096,1.08,-0.628,9.0
12.532,1.031,-0.671,3.0
11.645,0.955,-0.689,2.0
10.854,0.888,-0.703,2.0
10.169,0.83,-0.716,2.0
13.635,1.105,-0.577,11.0
13.076,1.057,-0.627,8.0
12.573,1.014,-0.672,3.0
11.655,0.937,-0.689,2.0
10.863,0.871,-0.703,2.0
10.212,0.816,-0.718,2.0
13.659,1.085,-0.577,11.0
13.067,1.035,-0.625,8.0
12.614,0.996,-0.673,3.0
11.699,0.921,-0.691,2.0
10.887,0.855,-0.703,2.0
10.198,0.799,-0.716,2.0
13.697,1.066,-0.577,12.0
13.077,1.014,-0.624,8.0
12.652,0.978,-0.674,3.0
11.753,0.906,-0.692,1.0
10.903,0.838,-0.703,2.0
10.216,0.783,-0.715,2.0
13.79,1.05,-0.579,12.0
13.091,0.994,-0.622,7.0
12.734,0.964,-0.676,4.0
11.794,0.89,-0.693,1.0
10.944,0.823,-0.703,2.0
10.257,0.769,-0.716,2.0
13.841,1.031,-0.578,11.0
13.15,0.976,-0.622,8.0
12.816,0.949,-0.677,4.0
11.831,0.873,-0.692,1.0
11.021,0.811,-0.706,1.0
10.29,0.754,-0.716,2.0
13.936,1.015,-0.579,13.0
13.2,0.958,-0.621,8.0
12.894,0.933,-0.678,5.0
11.924,0.86,-0.694,2.0
11.094,0.797,-0.707,1.0
10.336,0.74,-0.716,2.0
14.048,0.999,-0.58,14.0
13.313,0.943,-0.623,10.0
12.972,0.916,-0.678,6.0
11.958,0.842,-0.693,2.0
11.129,0.781,-0.706,2.0
10.4,0.727,-0.717,2.0
14.217,0.987,-0.582,15.0
13.352,0.924,-0.62,11.0
13.032,0.898,-0.677,8.0
12.036,0.827,-0.693,2.0
11.197,0.766,-0.706,1.0
10.46,0.714,-0.718,2.0
14.445,0.978,-0.586,19.0
13.411,0.905,-0.618,11.0
13.052,0.878,-0.673,10.0
12.158,0.814,-0.695,2.0
11.255,0.751,-0.706,1.0
10.552,0.702,-0.72,2.0
14.629,0.966,-0.588,21.0
13.498,0.888,-0.616,12.0
13.065,0.856,-0.668,10.0
12.24,0.799,-0.695,2.0
11.364,0.739,-0.707,2.0
10.628,0.688,-0.72,1.0
14.663,0.943,-0.582,19.0
13.619,0.872,-0.616,11.0
13.072,0.834,-0.662,10.0
12.328,0.783,-0.694,2.0
11.435,0.724,-0.706,2.0
10.7,0.675,-0.72,2.0
14.678,0.918,-0.576,15.0
13.703,0.854,-0.612,12.0
13.071,0.811,-0.656,10.0
12.423,0.768,-0.693,3.0
11.5,0.708,-0.704,2.0
10.754,0.659,-0.718,2.0
14.691,0.894,-0.568,9.0
13.905,0.843,-0.614,11.0
13.093,0.79,-0.65,9.0
12.534,0.753,-0.692,1.0
11.617,0.695,-0.705,1.0
10.833,0.645,-0.717,2.0
15.031,0.889,-0.573,6.0
14.12,0.831,-0.615,12.0
13.106,0.768,-0.643,7.0
12.679,0.74,-0.692,2.0
11.735,0.682,-0.705,2.0
10.948,0.633,-0.718,2.0
15.362,0.882,-0.576,2.0
14.406,0.823,-0.619,16.0
13.233,0.753,-0.641,8.0
12.831,0.727,-0.693,3.0
11.89,0.67,-0.707,1.0
11.051,0.62,-0.717,2.0
15.844,0.882,-0.584,4.0
14.57,0.807,-0.616,19.0
13.426,0.74,-0.641,12.0
12.954,0.711,-0.69,5.0
11.993,0.655,-0.705,1.0
11.157,0.607,-0.716,2.0
15.984,0.863,-0.578,5.0
14.612,0.785,-0.608,21.0
13.49,0.721,-0.634,13.0
13.026,0.693,-0.685,8.0
12.132,0.642,-0.704,1.0
11.28,0.594,-0.716,2.0
16.32,0.852,-0.578,3.0
14.644,0.761,-0.598,19.0
13.633,0.705,-0.631,14.0
13.058,0.672,-0.676,11.0
12.27,0.628,-0.702,2.0
11.341,0.577,-0.711,3.0
16.518,0.834,-0.572,4.0
14.67,0.737,-0.588,15.0
13.934,0.696,-0.634,13.0
13.062,0.649,-0.666,10.0
12.433,0.615,-0.702,3.0
11.571,0.569,-0.716,2.0
16.814,0.82,-0.569,3.0
14.754,0.716,-0.579,7.0
14.227,0.687,-0.635,15.0
13.098,0.629,-0.657,9.0
12.601,0.602,-0.701,3.0
11.768,0.559,-0.718,2.0
17.18,0.809,-0.566,4.0
15.247,0.714,-0.585,2.0
14.465,0.674,-0.633,16.0
13.225,0.612,-0.652,9.0
12.837,0.591,-0.702,3.0
11.929,0.546,-0.717,2.0
17.459,0.793,-0.56,5.0
15.838,0.715,-0.594,3.0
14.584,0.654,-0.625,21.0
13.43,0.599,-0.65,13.0
12.998,0.576,-0.699,6.0
12.189,0.537,-0.721,1.0
17.764,0.776,-0.553,4.0
16.108,0.699,-0.588,2.0
14.638,0.632,-0.614,16.0
13.551,0.581,-0.642,14.0
13.035,0.556,-0.688,8.0
12.356,0.524,-0.719,2.0
18.105,0.761,-0.546,4.0
16.422,0.686,-0.584,3.0
14.664,0.608,-0.6,14.0
13.683,0.564,-0.635,14.0
13.064,0.535,-0.677,10.0
12.523,0.51,-0.716,3.0
18.525,0.748,-0.54,3.0
16.747,0.671,-0.579,2.0
14.722,0.586,-0.588,6.0
14.083,0.557,-0.639,15.0
13.046,0.513,-0.662,8.0
12.693,0.495,-0.713,4.0
18.889,0.731,-0.531,3.0
17.201,0.661,-0.576,2.0
15.303,0.584,-0.595,2.0
14.185,0.538,-0.629,13.0
13.106,0.493,-0.651,3.0
12.863,0.481,-0.709,5.0
19.354,0.717,-0.524,3.0
17.464,0.642,-0.566,4.0
15.917,0.581,-0.601,2.0
14.522,0.526,-0.628,12.0
13.376,0.481,-0.65,2.0
13.059,0.466,-0.704,6.0
19.685,0.697,-0.51,3.0
17.871,0.628,-0.559,4.0
16.254,0.567,-0.595,3.0
14.561,0.504,-0.612,7.0
13.667,0.469,-0.648,3.0
13.279,0.452,-0.701,5.0
20.283,0.684,-0.502,4.0
18.28,0.612,-0.55,3.0
16.665,0.554,-0.59,2.0
14.676,0.484,-0.6,3.0
13.975,0.457,-0.646,3.0
13.515,0.438,-0.697,4.0
20.776,0.667,-0.489,4.0
18.702,0.596,-0.54,3.0
17.144,0.542,-0.586,2.0
15.052,0.472,-0.597,6.0
14.324,0.445,-0.644,4.0
13.745,0.424,-0.692,4.0
21.329,0.651,-0.476,4.0
19.189,0.581,-0.531,3.0
17.49,0.525,-0.577,2.0
15.889,0.473,-0.61,2.0
14.697,0.433,-0.643,3.0
13.973,0.408,-0.685,4.0
22.027,0.637,-0.464,4.0
19.716,0.565,-0.52,3.0
17.894,0.509,-0.567,3.0
16.176,0.455,-0.6,4.0
15.084,0.421,-0.64,3.0
14.22,0.393,-0.679,4.0
23.135,0.633,-0.457,4.0
20.299,0.55,-0.509,3.0
18.274,0.49,-0.555,3.0
16.716,0.444,-0.598,2.0
15.333,0.404,-0.63,3.0
14.387,0.375,-0.667,5.0
27.086,0.699,-0.499,1.0
20.887,0.533,-0.495,5.0
18.853,0.477,-0.547,3.0
17.145,0.429,-0.59,4.0
15.645,0.388,-0.621,3.0
14.619,0.358,-0.658,5.0
27.666,0.671,-0.471,1.0
21.459,0.515,-0.479,4.0
19.39,0.46,-0.535,3.0
17.531,0.412,-0.579,6.0
16.046,0.373,-0.615,3.0
14.946,0.344,-0.652,4.0
28.671,0.652,-0.448,2.0
22.446,0.505,-0.469,4.0
19.953,0.443,-0.523,3.0
17.999,0.395,-0.568,6.0
16.459,0.358,-0.607,3.0
15.354,0.33,-0.647,3.0
29.537,0.627,-0.419,2.0
26.69,0.56,-0.519,1.0
20.613,0.427,-0.51,4.0
18.585,0.38,-0.559,12.0
16.88,0.341,-0.597,2.0
15.788,0.316,-0.642,4.0
30.505,0.602,-0.387,2.0
27.212,0.531,-0.489,1.0
21.277,0.41,-0.495,4.0
19.11,0.363,-0.547,6.0
17.456,0.327,-0.591,2.0
16.236,0.301,-0.636,3.0
31.731,0.58,-0.355,1.0
28.136,0.507,-0.463,1.0
21.997,0.391,-0.478,4.0
19.778,0.347,-0.535,8.0
17.918,0.31,-0.58,3.0
16.814,0.287,-0.632,4.0
33.346,0.562,-0.322,1.0
29.268,0.486,-0.436,2.0
26.318,0.431,-0.531,1.0
20.457,0.33,-0.522,4.0
18.536,0.295,-0.571,4.0
17.453,0.273,-0.629,6.0
37.02,0.572,-0.301,5.0
30.134,0.459,-0.403,2.0
26.971,0.404,-0.502,2.0
21.265,0.314,-0.51,4.0
19.085,0.277,-0.558,3.0
18.236,0.26,-0.628,7.0
37.512,0.528,-0.245,13.0
31.396,0.434,-0.37,1.0
27.956,0.38,-0.475,1.0
22.026,0.295,-0.493,4.0
19.721,0.259,-0.544,3.0
19.142,0.247,-0.629,6.0
38.149,0.485,-0.188,49.0
33.152,0.414,-0.336,1.0
29.093,0.356,-0.447,2.0
25.935,0.312,-0.538,2.0
20.449,0.241,-0.531,3.0
19.967,0.231,-0.623,5.0
39.176,0.446,-0.128,45.0
37.266,0.415,-0.316,2.0
30.005,0.328,-0.412,1.0
26.799,0.287,-0.511,1.0
21.286,0.223,-0.517,4.0
20.923,0.215,-0.618,4.0
0.0,0.0,0.0,0.0
37.632,0.371,-0.256,12.0
31.22,0.3,-0.376,1.0
27.669,0.26,-0.48,1.0
22.025,0.202,-0.497,2.0
21.991,0.197,-0.611,3.0
46.819,0.411,0.005,37.0
38.366,0.328,-0.195,41.0
32.976,0.275,-0.34,1.0
28.967,0.236,-0.453,2.0
25.909,0.205,-0.54,2.0
23.251,0.18,-0.607,1.0
48.004,0.361,0.088,54.0
39.478,0.289,-0.133,37.0
37.666,0.268,-0.323,2.0
29.89,0.206,-0.416,1.0
26.763,0.179,-0.511,1.0
23.871,0.155,-0.581,2.0
54.993,0.347,0.196,21.0
44.585,0.272,-0.072,20.0
37.974,0.224,-0.26,11.0
31.33,0.179,-0.381,1.0
27.877,0.153,-0.484,2.0
24.985,0.132,-0.564,1.0
59.325,0.304,0.316,17.0
47.055,0.231,0.006,29.0
38.838,0.183,-0.196,39.0
33.148,0.15,-0.344,1.0
29.006,0.125,-0.451,2.0
26.049,0.108,-0.541,3.0
76.701,0.304,0.546,57.0
54.181,0.204,0.104,28.0
40.147,0.143,-0.131,16.0
37.77,0.128,-0.323,2.0
30.079,0.096,-0.414,2.0
26.851,0.081,-0.509,2.0
79.446,0.225,0.71,150.0
59.097,0.156,0.221,8.0
0.0,0.0,0.0,0.0
38.372,0.087,-0.258,12.0
31.417,0.065,-0.375,1.0
28.02,0.053,-0.479,2.0
79.469,0.137,0.857,151.0
76.014,0.117,0.425,13.0
47.699,0.064,0.019,21.0
39.305,0.046,-0.192,32.0
33.342,0.033,-0.336,1.0
29.254,0.024,-0.446,2.0
79.467,0.051,1.005,151.0
79.316,0.037,0.591,23.0
0.0,0.0,0.0,0.0
40.995,0.004,-0.122,17.0
38.319,-0.001,-0.314,3.0
30.374,-0.006,-0.406,1.0
79.46,-0.031,1.155,151.0
79.459,-0.045,0.744,150.0
61.763,-0.045,0.258,14.0
45.272,-0.041,-0.049,21.0
39.089,-0.041,-0.245,14.0
32.182,-0.039,-0.368,2.0
79.452,-0.111,1.306,151.0
79.467,-0.124,0.895,153.0
76.42,-0.132,0.465,13.0
0.0,0.0,0.0,0.0
40.253,-0.082,-0.176,15.0
34.031,-0.075,-0.325,0.0
79.435,-0.189,1.458,177.0
79.465,-0.201,1.046,152.0
79.397,-0.213,0.634,150.0
56.094,-0.159,0.152,17.0
42.414,-0.127,-0.104,17.0
39.015,-0.123,-0.297,2.0
79.41,-0.263,1.611,255.0
79.456,-0.276,1.201,159.0
79.447,-0.287,0.789,151.0
76.461,-0.288,0.357,8.0
46.831,-0.183,-0.023,20.0
39.419,-0.16,-0.224,5.0
79.436,-0.335,1.765,165.0
79.437,-0.347,1.354,188.0
79.458,-0.358,0.944,157.0
79.116,-0.368,0.522,14.0
55.785,-0.267,0.08,16.0
41.672,-0.205,-0.155,4.0
127.117,-1.783,7.197,21.0
83.9,-1.179,4.316,31.0
85.798,-1.207,3.971,150.0
91.476,-1.289,3.753,79.0
99.645,-1.406,3.572,27.0
151.493,-2.141,4.651,31.0
85.41,-1.218,5.012,17.0
83.882,-1.197,4.488,58.0
79.191,-1.131,3.828,150.0
91.275,-1.305,3.93,35.0
128.157,-1.835,4.856,28.0
183.389,-2.627,6.003,48.0
85.398,-1.235,5.184,18.0
89.9,-1.301,4.992,13.0
126.965,-1.838,6.395,14.0
85.77,-1.241,3.866,150.0
91.544,-1.326,3.653,25.0
183.435,-2.656,6.374,37.0
94.283,-1.378,5.914,17.0
126.377,-1.847,7.273,22.0
83.885,-1.225,4.392,56.0
79.153,-1.156,3.727,150.0
91.505,-1.337,3.836,64.0
129.157,-1.886,4.748,24.0
124.821,-1.839,8.081,25.0
85.364,-1.257,5.084,30.0
83.899,-1.235,4.562,48.0
101.051,-1.486,4.962,11.0
91.544,-1.345,4.021,17.0
128.18,-1.882,4.968,34.0
124.941,-1.851,8.34,28.0
85.39,-1.264,5.256,13.0
89.784,-1.327,5.061,10.0
126.87,-1.873,6.48,26.0
85.807,-1.265,3.938,37.0
91.502,-1.348,3.727,53.0
63.332,-0.941,4.353,6.0
124.887,-1.853,7.936,16.0
125.865,-1.864,7.344,21.0
83.885,-1.24,4.451,63.0
79.188,-1.168,3.792,150.0
91.504,-1.348,3.908,53.0
63.598,-0.945,4.498,41.0
124.785,-1.851,8.177,31.0
85.376,-1.264,5.15,33.0
83.912,-1.239,4.617,25.0
126.9,-1.87,6.324,8.0
85.767,-1.26,3.83,112.0
63.862,-0.947,4.642,20.0
94.279,-1.394,6.363,7.0
94.336,-1.392,5.876,12.0
128.626,-1.892,7.33,11.0
83.869,-1.23,4.344,34.0
79.175,-1.158,3.69,150.0
41.04,-0.605,3.064,36.0
63.367,-0.932,4.4,24.0
124.771,-1.83,8.014,20.0
85.396,-1.248,5.032,23.0
83.897,-1.223,4.508,54.0
79.178,-1.15,3.843,150.0
41.149,-0.602,3.152,55.0
63.738,-0.93,4.55,48.0
94.294,-1.371,6.239,14.0
85.388,-1.237,5.196,12.0
89.867,-1.297,5.002,11.0
126.951,-1.826,6.408,12.0
41.155,-0.597,3.232,26.0
82.074,-1.185,6.016,13.0
94.256,-1.356,6.418,56.0
94.276,-1.35,5.919,41.0
85.455,-1.218,4.92,8.0
83.889,-1.191,4.394,59.0
40.778,-0.584,3.281,60.0
41.076,-0.585,3.09,21.0
63.476,-0.9,4.443,38.0
94.278,-1.331,6.099,73.0
85.449,-1.201,5.083,16.0
89.91,-1.257,4.882,14.0
40.644,-0.573,3.348,71.0
41.159,-0.577,3.175,45.0
63.595,-0.887,4.573,19.0
94.27,-1.308,6.278,27.0
94.254,-1.301,5.784,36.0
127.226,-1.747,7.145,10.0
40.584,-0.561,3.419,53.0
40.89,-0.562,3.231,52.0
82.398,-1.127,6.08,23.0
82.541,-1.123,5.651,54.0
82.661,-1.117,5.227,34.0
85.458,-1.148,4.959,41.0
49.742,-0.674,4.284,4.0
41.009,-0.552,3.317,52.0
41.126,-0.55,3.111,47.0
63.413,-0.843,4.458,51.0
82.574,-1.09,5.373,61.0
82.741,-1.085,4.952,41.0
41.024,-0.542,3.609,26.0
40.838,-0.536,3.378,57.0
41.118,-0.536,3.186,54.0
82.403,-1.066,5.945,11.0
82.475,-1.059,5.518,2.0
82.699,-1.055,5.101,38.0
40.667,-0.523,3.652,38.0
40.475,-0.516,3.422,63.0
41.171,-0.521,3.265,47.0
62.656,-0.787,4.633,15.0
63.374,-0.789,4.354,43.0
86.102,-1.064,5.465,8.0
47.771,-0.595,4.377,8.0
40.723,-0.503,3.516,55.0
40.793,-0.499,3.307,45.0
41.266,-0.501,3.125,50.0
77.915,-0.938,5.491,25.0
86.059,-1.026,5.614,33.0
40.447,-0.486,3.778,17.0
47.884,-0.57,4.22,5.0
40.558,-0.478,3.36,52.0
41.369,-0.484,3.205,48.0
62.64,-0.725,4.524,66.0
86.126,-0.988,5.768,37.0
40.122,-0.464,3.817,20.0
40.487,-0.463,3.638,67.0
41.068,-0.465,3.473,42.0
40.722,-0.456,3.225,46.0
62.64,-0.695,4.631,48.0
63.194,-0.693,4.34,39.0
39.735,-0.44,3.849,26.0
39.968,-0.437,3.66,51.0
47.915,-0.518,4.134,6.0
40.549,-0.434,3.281,68.0
41.377,-0.437,3.13,67.0
62.674,-0.655,4.41,72.0
39.56,-0.417,3.899,50.0
40.414,-0.42,3.77,23.0
47.88,-0.492,4.212,43.0
40.521,-0.411,3.347,60.0
41.365,-0.414,3.198,72.0
81.68,-0.808,5.885,3.0
39.389,-0.392,3.95,67.0
39.581,-0.389,3.758,58.0
47.892,-0.464,4.294,9.0
40.086,-0.383,3.378,57.0
41.392,-0.39,3.268,59.0
41.591,-0.386,3.065,20.0
39.421,-0.369,4.018,60.0
39.679,-0.366,3.833,62.0
39.959,-0.363,3.648,73.0
40.635,-0.363,3.49,68.0
41.157,-0.362,3.317,50.0
41.464,-0.359,3.123,53.0
39.463,-0.345,4.086,66.0
39.461,-0.339,3.876,71.0
40.579,-0.343,3.77,36.0
40.321,-0.335,3.527,47.0
39.89,-0.325,3.278,54.0
41.384,-0.332,3.182,55.0
39.594,-0.319,4.163,41.0
39.544,-0.313,3.947,53.0
40.406,-0.314,3.817,28.0
39.912,-0.304,3.555,36.0
39.953,-0.299,3.346,62.0
41.377,-0.303,3.246,46.0
40.393,-0.298,4.31,56.0
39.527,-0.286,4.007,53.0
39.551,-0.28,3.798,58.0
40.09,-0.278,3.632,55.0
39.831,-0.27,3.397,71.0
40.146,-0.266,3.21,54.0
43.958,-0.293,4.758,5.0
39.597,-0.258,4.074,63.0
40.152,-0.255,3.916,16.0
40.114,-0.249,3.694,28.0
40.037,-0.242,3.474,45.0
40.195,-0.236,3.274,62.0
40.113,-0.237,4.402,57.0
39.507,-0.228,4.123,56.0
39.529,-0.221,3.914,61.0
42.659,-0.232,3.992,18.0
39.853,-0.21,3.516,64.0
49.198,-0.252,4.078,4.0
40.002,-0.206,4.448,60.0
40.035,-0.199,4.237,43.0
40.092,-0.193,4.028,38.0
42.628,-0.198,4.05,28.0
42.862,-0.192,3.843,2.0
40.489,-0.175,3.414,61.0
40.417,-0.176,4.553,52.0
40.856,-0.171,4.382,40.0
40.095,-0.161,4.085,63.0
39.971,-0.153,3.854,55.0
0.0,0.0,0.0,0.0
39.907,-0.139,3.42,19.0
46.896,-0.165,5.348,24.0
40.383,-0.135,4.388,48.0
40.096,-0.127,4.141,48.0
39.889,-0.119,3.901,59.0
41.339,-0.117,3.821,43.0
53.758,-0.143,4.681,17.0
39.809,-0.106,4.594,66.0
40.21,-0.1,4.423,58.0
40.386,-0.093,4.225,64.0
40.268,-0.086,3.992,32.0
40.126,-0.078,3.762,20.0
47.708,-0.085,4.217,11.0
39.868,-0.071,4.654,47.0
40.483,-0.065,4.506,39.0
40.801,-0.058,4.321,34.0
41.003,-0.051,4.117,47.0
41.041,-0.044,3.9,18.0
47.691,-0.043,4.276,32.0
40.031,-0.035,4.724,35.0
40.468,-0.029,4.556,33.0
41.197,-0.021,4.415,47.0
40.32,-0.014,4.1,59.0
41.519,-0.006,3.998,49.0
41.964,0.0,3.815,20.0
39.947,0.001,4.764,56.0
39.854,0.008,4.537,55.0
40.653,0.015,4.407,66.0
40.303,0.023,4.147,51.0
40.332,0.03,3.932,58.0
0.0,0.0,0.0,0.0
54.599,0.052,6.578,8.0
39.759,0.045,4.573,44.0
39.99,0.053,4.383,62.0
40.07,0.061,4.17,52.0
40.152,0.068,3.961,65.0
54.687,0.103,5.1,18.0
39.624,0.076,4.82,20.0
39.594,0.083,4.6,48.0
40.057,0.092,4.436,47.0
40.499,0.101,4.261,50.0
40.092,0.107,4.001,70.0
59.224,0.17,5.59,54.0
43.088,0.126,5.291,24.0
39.723,0.123,4.66,26.0
40.289,0.133,4.507,41.0
40.502,0.141,4.306,39.0
40.098,0.147,4.046,70.0
47.7,0.184,4.554,11.0
39.715,0.156,4.92,18.0
43.882,0.18,5.196,4.0
40.439,0.174,4.567,48.0
40.037,0.18,4.299,55.0
40.251,0.188,4.103,61.0
47.598,0.232,4.593,4.0
40.177,0.198,5.019,58.0
39.817,0.204,4.755,34.0
43.126,0.229,4.915,3.0
40.327,0.222,4.371,49.0
40.24,0.229,4.143,42.0
57.339,0.339,5.591,19.0
39.81,0.238,5.013,68.0
39.692,0.245,4.78,48.0
40.179,0.255,4.619,45.0
40.324,0.265,4.411,59.0
40.143,0.271,4.172,45.0
47.474,0.33,4.675,9.0
40.0,0.282,5.076,55.0
40.516,0.293,4.918,37.0
40.332,0.299,4.675,38.0
40.559,0.309,4.474,20.0
40.554,0.316,4.252,16.0
47.376,0.379,4.709,10.0
46.975,0.381,6.004,3.0
40.265,0.334,4.925,33.0
40.495,0.344,4.73,52.0
40.023,0.348,4.451,44.0
44.098,0.392,4.663,4.0
47.352,0.43,4.748,11.0
39.539,0.364,5.089,50.0
42.363,0.398,5.218,4.0
39.999,0.384,4.707,45.0
40.606,0.398,4.551,34.0
41.123,0.411,4.383,18.0
39.951,0.407,4.039,42.0
39.405,0.406,5.105,66.0
40.214,0.422,4.987,38.0
39.948,0.427,4.734,62.0
40.585,0.442,4.581,42.0
41.098,0.456,4.413,27.0
39.968,0.451,4.073,40.0
39.186,0.447,5.108,63.0
42.6,0.495,5.317,6.0
40.107,0.474,4.783,31.0
40.605,0.488,4.615,51.0
41.303,0.504,4.467,16.0
47.667,0.592,4.893,4.0
39.133,0.491,5.13,59.0
39.607,0.505,4.972,20.0
40.08,0.519,4.81,24.0
40.352,0.53,4.615,48.0
41.554,0.554,4.523,18.0
44.006,0.595,4.548,4.0
39.059,0.534,5.148,57.0
39.532,0.549,4.991,49.0
43.897,0.618,5.298,7.0
41.214,0.588,4.742,44.0
47.575,0.689,5.211,5.0
41.239,0.605,4.289,17.0
38.922,0.577,5.156,58.0
39.348,0.591,4.993,43.0
0.0,0.0,0.0,0.0
40.791,0.628,4.719,62.0
41.544,0.649,4.576,38.0
41.23,0.652,4.314,13.0
38.748,0.62,5.157,64.0
38.842,0.628,4.953,52.0
39.679,0.65,4.838,37.0
0.0,0.0,0.0,0.0
41.278,0.692,4.571,37.0
41.324,0.701,4.347,24.0
38.913,0.668,5.201,46.0
38.985,0.676,4.993,47.0
39.501,0.693,4.838,55.0
41.178,0.73,4.81,33.0
41.254,0.74,4.59,57.0
41.223,0.747,4.358,12.0
38.934,0.713,5.224,38.0
38.724,0.717,4.979,50.0
39.292,0.735,4.833,57.0
47.417,0.896,5.563,5.0
41.765,0.797,4.668,35.0
52.944,1.021,5.623,7.0
38.824,0.757,5.228,45.0
38.809,0.764,5.008,46.0
39.288,0.781,4.85,47.0
42.039,0.844,4.951,36.0
41.513,0.841,4.658,37.0
48.5,0.992,5.172,14.0
38.886,0.804,5.253,43.0
39.238,0.818,5.081,15.0
37.98,0.8,4.705,43.0
41.501,0.882,4.905,50.0
48.564,1.041,5.468,5.0
48.484,1.049,5.189,29.0
38.897,0.85,5.27,51.0
39.005,0.86,5.065,14.0
37.932,0.843,4.713,46.0
42.198,0.946,5.002,31.0
41.35,0.935,4.671,41.0
48.465,1.105,5.204,11.0
38.985,0.898,5.295,46.0
38.937,0.904,5.069,39.0
37.825,0.885,4.712,65.0
42.086,0.993,5.002,12.0
41.662,0.991,4.719,43.0
41.207,0.988,4.437,37.0
41.066,0.994,5.59,21.0
38.422,0.937,5.013,63.0
37.962,0.933,4.739,57.0
38.123,0.945,4.541,36.0
42.551,1.062,4.83,30.0
41.22,1.036,4.449,46.0
39.016,0.991,5.321,18.0
38.236,0.978,4.998,48.0
37.827,0.975,4.731,53.0
38.064,0.988,4.543,59.0
42.39,1.108,4.821,23.0
41.221,1.085,4.457,33.0
38.83,1.032,5.303,52.0
38.178,1.022,4.998,19.0
37.817,1.019,4.737,51.0
38.024,1.032,4.545,52.0
38.056,1.039,4.335,38.0
41.277,1.135,4.47,29.0
38.838,1.079,5.31,62.0
38.11,1.065,4.995,21.0
37.811,1.063,4.742,61.0
56.666,1.604,6.781,10.0
42.255,1.204,4.818,16.0
41.325,1.185,4.48,5.0
38.897,1.126,5.322,51.0
38.738,1.129,5.081,25.0
37.917,1.111,4.758,50.0
38.581,1.137,4.62,15.0
37.879,1.123,4.322,48.0
38.387,1.145,4.164,34.0
38.912,1.172,5.327,53.0
38.131,1.155,5.003,15.0
38.173,1.163,4.792,51.0
38.209,1.171,4.577,42.0
37.826,1.166,4.317,60.0
38.291,1.187,4.155,48.0
37.389,1.17,5.119,40.0
37.91,1.193,4.974,33.0
38.259,1.211,4.803,61.0
37.989,1.208,4.55,43.0
38.072,1.217,4.345,40.0
38.318,1.232,4.157,57.0
37.474,1.216,5.129,65.0
38.111,1.243,4.999,55.0
37.888,1.242,4.755,54.0
37.808,1.246,4.526,57.0
37.985,1.258,4.332,56.0
38.356,1.277,4.158,41.0
37.453,1.259,5.123,62.0
37.98,1.282,4.979,56.0
37.852,1.284,4.747,59.0
37.848,1.29,4.527,46.0
38.067,1.305,4.338,59.0
38.434,1.324,4.162,53.0
37.424,1.301,5.115,68.0
37.921,1.325,4.966,66.0
37.935,1.331,4.752,50.0
37.773,1.331,4.513,51.0
38.074,1.348,4.333,49.0
38.496,1.369,4.163,56.0
37.406,1.343,5.106,58.0
37.98,1.369,4.967,58.0
37.974,1.375,4.75,44.0
37.872,1.377,4.517,29.0
38.054,1.39,4.323,40.0
55.592,2.039,6.0,20.0
37.601,1.392,5.124,56.0
37.798,1.405,4.935,64.0
38.019,1.419,4.746,56.0
37.921,1.421,4.514,47.0
37.633,1.416,4.266,65.0
61.99,2.342,6.676,19.0
37.547,1.431,5.107,55.0
38.091,1.458,4.963,43.0
37.924,1.457,4.724,51.0
37.843,1.46,4.494,38.0
37.935,1.469,4.289,52.0
42.276,1.644,4.54,28.0
37.638,1.476,5.108,51.0
38.005,1.496,4.94,35.0
37.969,1.5,4.718,51.0
43.035,1.707,5.097,13.0
37.658,1.499,4.245,44.0
41.093,1.642,4.399,36.0
37.544,1.513,5.082,58.0
37.641,1.523,4.879,57.0
37.9,1.539,4.695,44.0
0.0,0.0,0.0,0.0
38.05,1.556,4.275,59.0
41.243,1.692,4.399,18.0
37.6,1.557,5.075,26.0
37.579,1.56,4.856,43.0
38.007,1.584,4.693,42.0
52.862,2.21,6.219,6.0
41.115,1.724,4.602,3.0
41.717,1.755,4.432,23.0
37.617,1.597,5.06,51.0
37.913,1.614,4.882,42.0
37.867,1.618,4.658,59.0
0.0,0.0,0.0,0.0
41.445,1.781,4.62,20.0
41.974,1.81,4.44,29.0
37.536,1.632,5.031,54.0
37.912,1.654,4.863,41.0
37.897,1.657,4.643,42.0
41.87,1.837,4.886,8.0
54.532,2.399,6.052,8.0
41.635,1.837,4.383,29.0
37.797,1.682,5.046,59.0
37.898,1.691,4.841,52.0
38.14,1.707,4.652,35.0
38.034,1.707,4.417,32.0
42.049,1.892,4.643,16.0
41.892,1.89,4.386,14.0
38.257,1.741,5.086,60.0
38.033,1.735,4.836,50.0
37.917,1.735,4.603,46.0
41.961,1.925,4.849,8.0
62.861,2.891,6.904,38.0
52.955,2.442,5.513,9.0
37.959,1.765,5.023,37.0
37.916,1.767,4.798,62.0
37.93,1.772,4.581,70.0
41.559,1.946,4.776,5.0
61.682,2.897,6.735,19.0
0.0,0.0,0.0,0.0
37.802,1.794,4.977,55.0
37.918,1.803,4.773,49.0
37.977,1.811,4.561,66.0
42.136,2.014,4.814,23.0
41.916,2.008,4.548,16.0
41.415,1.988,4.257,5.0
37.639,1.822,4.929,55.0
37.858,1.836,4.739,41.0
37.932,1.844,4.529,54.0
41.693,2.031,4.734,16.0
54.301,2.651,5.853,7.0
41.484,2.03,4.234,29.0
37.707,1.86,4.91,53.0
37.708,1.863,4.692,58.0
41.512,2.055,4.925,5.0
54.279,2.693,6.122,17.0
41.593,2.068,4.452,34.0
41.427,2.064,4.196,40.0
37.89,1.903,4.904,26.0
37.826,1.903,4.677,54.0
41.674,2.1,4.911,48.0
41.826,2.112,4.684,26.0
41.485,2.099,4.407,40.0
63.52,3.22,6.383,20.0
38.015,1.942,4.889,48.0
37.945,1.941,4.66,39.0
41.837,2.144,4.896,18.0
41.98,2.156,4.666,13.0
41.851,2.153,4.411,16.0
63.59,3.277,6.337,8.0
37.815,1.963,4.83,53.0
37.841,1.968,4.614,48.0
64.274,3.348,7.465,13.0
38.627,2.015,4.26,50.0
41.389,2.163,4.326,34.0
63.314,3.314,6.254,21.0
37.925,2.0,4.81,53.0
44.773,2.365,5.419,6.0
42.012,2.222,4.842,4.0
38.578,2.043,4.219,21.0
62.815,3.332,6.508,8.0
41.343,2.197,4.046,7.0
37.751,2.02,4.753,66.0
41.644,2.232,5.002,8.0
38.399,2.06,4.389,24.0
38.527,2.07,4.177,33.0
62.934,3.387,6.461,13.0
41.339,2.228,4.006,9.0
37.776,2.05,4.72,51.0
41.643,2.263,4.961,16.0
38.384,2.088,4.35,46.0
41.684,2.27,4.479,16.0
62.939,3.433,6.4,8.0
41.319,2.257,3.963,11.0
37.824,2.08,4.688,36.0
44.52,2.451,5.259,5.0
38.326,2.113,4.305,67.0
41.808,2.307,4.45,16.0
63.02,3.482,6.344,14.0
63.727,3.525,6.048,7.0
41.279,2.299,5.073,5.0
38.288,2.134,4.483,30.0
38.386,2.142,4.272,65.0
63.197,3.53,6.661,14.0
63.176,3.533,6.294,13.0
63.822,3.573,5.991,17.0
41.331,2.329,5.035,31.0
38.222,2.156,4.434,27.0
38.436,2.17,4.236,42.0
53.816,3.041,5.614,13.0
64.394,3.642,6.345,33.0
63.961,3.622,5.934,19.0
41.362,2.357,4.993,3.0
38.196,2.178,4.389,63.0
38.492,2.197,4.199,46.0
63.295,3.616,6.532,11.0
41.524,2.374,4.045,27.0
64.726,3.704,5.932,12.0
52.531,3.026,6.281,7.0
38.283,2.206,4.355,60.0
41.922,2.418,4.525,8.0
41.569,2.399,4.242,11.0
41.523,2.398,3.998,52.0
69.998,4.046,6.335,9.0
38.314,2.228,4.537,6.0
38.206,2.223,4.302,55.0
53.834,3.135,5.748,7.0
41.474,2.417,4.184,16.0
41.572,2.424,3.953,53.0
64.34,3.755,5.747,25.0
38.327,2.25,4.492,10.0
38.249,2.246,4.26,71.0
52.541,3.087,5.546,11.0
41.407,2.434,4.127,40.0
41.456,2.438,3.892,14.0
64.289,3.784,5.664,27.0
38.283,2.266,4.439,39.0
38.331,2.27,4.221,54.0
63.402,3.757,6.614,6.0
41.441,2.456,4.078,50.0
63.83,3.786,5.913,29.0
64.34,3.818,5.588,19.0
38.178,2.278,4.379,56.0
38.461,2.296,4.187,50.0
63.577,3.796,6.552,8.0
41.476,2.477,4.029,65.0
63.952,3.821,5.843,38.0
64.658,3.865,5.534,15.0
38.128,2.292,4.324,71.0
41.957,2.522,4.514,6.0
63.272,3.804,6.439,9.0
41.416,2.491,3.971,65.0
64.357,3.872,5.797,34.0
64.274,3.868,5.418,29.0
38.188,2.31,4.28,70.0
38.368,2.321,4.077,5.0
41.392,2.505,4.157,29.0
41.385,2.504,3.912,47.0
64.311,3.893,5.707,27.0
64.352,3.896,5.339,29.0
38.272,2.329,4.238,69.0
63.471,3.863,6.658,38.0
41.392,2.519,4.101,59.0
63.75,3.88,5.94,24.0
64.27,3.912,5.616,28.0
64.442,3.924,5.259,30.0
38.305,2.344,4.188,63.0
63.353,3.876,6.559,34.0
41.474,2.537,4.052,36.0
63.702,3.897,5.848,37.0
66.238,4.052,5.697,9.0
64.488,3.946,5.173,55.0
38.341,2.357,4.139,46.0
63.521,3.904,6.486,19.0
41.426,2.546,3.989,35.0
64.344,3.954,5.816,26.0
64.382,3.956,5.447,9.0
64.563,3.967,5.088,24.0
38.349,2.367,4.085,51.0
63.241,3.902,6.368,38.0
41.363,2.551,3.924,61.0
64.234,3.962,5.715,33.0
64.574,3.983,5.37,21.0
71.411,4.404,5.526,3.0
63.245,3.917,6.646,34.0
63.409,3.926,6.293,38.0
41.368,2.56,3.865,37.0
64.336,3.981,5.63,29.0
64.505,3.99,5.271,37.0
78.658,4.864,5.972,41.0
63.432,3.939,6.571,34.0
63.71,3.955,6.229,31.0
65.191,4.045,5.995,10.0
64.307,3.989,5.533,34.0
64.59,4.005,5.184,25.0
78.519,4.867,5.848,38.0
63.812,3.971,6.516,40.0
41.471,2.579,3.993,7.0
64.535,4.012,5.838,24.0
64.251,3.993,5.433,18.0
64.652,4.016,5.092,4.0
78.497,4.874,5.728,21.0
63.359,3.949,6.374,39.0
41.392,2.578,3.923,13.0
64.143,3.993,5.706,36.0
64.514,4.014,5.358,19.0
78.555,4.885,6.068,26.0
67.18,4.176,4.8,32.0
63.438,3.958,6.285,39.0
65.107,4.059,6.07,9.0
64.368,4.01,5.627,23.0
64.544,4.018,5.261,31.0
78.554,4.888,5.948,43.0
67.232,4.181,4.701,29.0
63.559,3.965,6.198,21.0
65.201,4.065,5.978,14.0
64.385,4.011,5.529,32.0
64.566,4.019,5.163,16.0
78.503,4.883,5.822,33.0
67.233,4.18,4.598,28.0
54.375,3.391,5.218,5.0
64.353,4.009,5.8,37.0
64.35,4.006,5.425,15.0
71.433,4.444,5.6,3.0
78.477,4.878,5.697,13.0
67.268,4.178,4.493,27.0
41.395,2.578,3.906,19.0
64.174,3.994,5.682,35.0
64.523,4.012,5.337,30.0
78.634,4.885,6.04,39.0
67.19,4.17,4.772,31.0
67.159,4.165,4.382,34.0
65.173,4.053,6.046,9.0
64.347,3.997,5.595,26.0
64.545,4.005,5.237,35.0
78.551,4.87,5.91,46.0
67.139,4.158,4.662,25.0
67.075,4.15,4.27,36.0
64.917,4.027,5.919,14.0
64.251,3.981,5.484,29.0
64.617,3.999,5.139,19.0
78.507,4.854,5.78,44.0
67.279,4.155,4.564,22.0
67.022,4.135,4.159,27.0
64.208,3.97,5.749,32.0
64.543,3.986,5.403,15.0
64.625,3.987,5.034,4.0
67.118,4.135,4.833,14.0
71.127,4.378,4.71,13.0
67.074,4.124,4.054,20.0
64.284,3.96,5.651,31.0
64.467,3.966,5.292,39.0
78.687,4.835,6.002,45.0
67.074,4.116,4.72,39.0
71.11,4.358,4.592,10.0
128.615,7.873,7.561,23.0
66.225,4.061,5.712,9.0
64.507,3.95,5.189,48.0
78.609,4.807,5.867,46.0
67.103,4.098,4.612,30.0
67.04,4.089,4.219,41.0
128.77,7.844,7.36,32.0
64.496,3.934,5.456,27.0
64.552,3.932,5.086,8.0
78.685,4.786,5.742,35.0
67.216,4.082,4.509,12.0
67.072,4.068,4.111,28.0
128.639,7.792,7.142,34.0
64.4,3.906,5.343,30.0
78.635,4.762,6.066,20.0
78.598,4.751,5.607,12.0
71.155,4.295,4.657,25.0
128.069,7.719,7.64,30.0
128.245,7.72,6.91,35.0
64.511,3.887,5.244,40.0
78.539,4.724,5.928,40.0
130.957,7.863,9.125,14.0
67.055,4.019,4.276,9.0
128.758,7.707,7.466,25.0
127.867,7.641,6.676,25.0
78.502,4.694,6.25,22.0
78.593,4.692,5.801,26.0
127.173,7.578,8.65,31.0
127.881,7.608,7.944,31.0
128.339,7.622,7.23,32.0
33.431,1.982,1.69,6.0
78.564,4.661,6.124,11.0
78.656,4.657,5.675,14.0
127.216,7.518,8.44,36.0
127.822,7.541,7.728,37.0
128.48,7.566,7.024,34.0
33.461,1.966,1.636,5.0
71.926,4.229,5.486,25.0
124.846,7.326,8.797,31.0
127.54,7.469,8.246,29.0
127.196,7.434,7.475,35.0
33.419,1.949,1.77,3.0
162.009,9.433,7.647,37.0
71.64,4.171,5.343,36.0
124.922,7.258,8.591,38.0
128.081,7.427,8.065,22.0
127.838,7.397,7.296,32.0
33.457,1.931,1.715,76.0
33.462,1.928,1.523,1.0
71.719,4.132,5.227,41.0
127.375,7.322,8.543,25.0
127.596,7.318,7.819,23.0
0.0,0.0,0.0,0.0
33.417,1.908,1.657,42.0
162.217,9.244,7.111,12.0
71.768,4.087,5.108,43.0
127.882,7.267,8.362,26.0
127.541,7.23,7.6,37.0
33.42,1.89,1.794,1.0
33.504,1.89,1.605,1.0
162.398,9.144,6.845,13.0
71.912,4.046,4.997,29.0
127.853,7.175,8.145,16.0
127.23,7.123,7.369,26.0
33.436,1.867,1.739,19.0
162.281,9.043,7.507,27.0
157.787,8.771,6.388,19.0
124.699,6.924,8.456,18.0
127.497,7.061,7.907,29.0
127.087,7.021,7.147,25.0
33.418,1.841,1.683,46.0
162.39,8.925,7.24,9.0
157.591,8.64,6.116,15.0
154.772,8.475,10.235,18.0
127.395,6.956,7.687,34.0
155.839,8.485,8.501,17.0
33.462,1.817,1.628,1.0
159.583,8.643,6.846,14.0
162.238,8.763,6.023,5.0
154.749,8.345,9.972,23.0
128.587,6.915,7.542,19.0
33.433,1.792,1.767,6.0
162.428,8.687,7.635,29.0
162.425,8.661,6.696,8.0
162.349,8.633,5.756,7.0
127.234,6.753,7.987,26.0
73.295,3.878,4.176,12.0
33.458,1.765,1.713,79.0
131.885,6.936,5.976,10.0
157.662,8.267,6.236,12.0
156.677,8.193,5.295,14.0
127.896,6.673,7.815,27.0
150.09,7.806,8.302,37.0
33.462,1.735,1.657,0.0
160.229,8.281,6.997,21.0
157.557,8.117,5.97,12.0
157.976,8.115,5.075,5.0
73.398,3.761,4.362,23.0
154.56,7.892,8.292,13.0
132.234,6.729,6.329,26.0
157.542,7.992,6.617,16.0
156.813,7.928,5.682,11.0
156.218,7.872,4.761,16.0
73.375,3.688,4.239,15.0
132.515,6.636,6.889,27.0
132.063,6.59,6.102,14.0
157.523,7.833,6.355,15.0
156.81,7.77,5.422,14.0
156.343,7.722,4.507,14.0
123.567,6.083,6.934,20.0
132.574,6.503,6.674,13.0
129.67,6.338,5.779,10.0
157.331,7.661,6.09,20.0
156.307,7.583,5.149,14.0
159.521,7.713,4.338,4.0
123.257,5.938,6.715,48.0
129.629,6.22,6.313,15.0
129.801,6.204,5.572,22.0
156.849,7.47,5.815,19.0
156.344,7.417,4.896,17.0
0.0,0.0,0.0,0.0
123.434,5.812,6.523,32.0
129.61,6.077,6.102,32.0
124.248,5.802,5.132,17.0
174.114,8.096,6.171,9.0
174.044,8.06,5.166,6.0
0.0,0.0,0.0,0.0
123.4,5.669,6.32,22.0
129.797,5.936,5.899,28.0
124.344,5.662,4.934,24.0
156.969,7.116,5.308,11.0
173.885,7.851,4.881,24.0
0.0,0.0,0.0,0.0
129.609,5.802,6.43,20.0
124.283,5.538,5.45,26.0
157.148,6.971,5.985,16.0
157.191,6.94,5.066,9.0
160.063,7.035,4.237,3.0
0.0,0.0,0.0,0.0
130.206,5.67,6.251,11.0
124.247,5.386,5.251,44.0
157.149,6.779,5.736,11.0
157.69,6.769,4.832,9.0
0.0,0.0,0.0,0.0
0.0,0.0,0.0,0.0
124.684,5.275,5.791,23.0
124.35,5.234,5.06,26.0
156.816,6.567,5.478,17.0
158.301,6.596,4.604,10.0
0.0,0.0,0.0,0.0
0.0,0.0,0.0,0.0
124.517,5.109,5.589,24.0
157.897,6.443,6.178,12.0
173.099,7.025,5.777,9.0
158.378,6.395,4.361,8.0
0.0,0.0,0.0,0.0
0.0,0.0,0.0,0.0
124.213,4.933,5.384,26.0
157.934,6.236,5.937,15.0
158.352,6.218,5.044,11.0
158.669,6.197,4.128,3.0
0.0,0.0,0.0,0.0
101.162,3.906,1.471,1.0
124.329,4.77,5.2,12.0
158.231,6.034,5.709,5.0
158.346,6.003,4.804,7.0
0.0,0.0,0.0,0.0
0.0,0.0,0.0,0.0
93.936,3.498,1.225,7.0
152.516,5.639,6.15,33.0
153.708,5.649,5.316,15.0
160.474,5.86,4.629,16.0
0.0,0.0,0.0,0.0
0.0,0.0,0.0,0.0
80.0,2.867,0.924,3.0
152.559,5.425,5.926,38.0
157.282,5.555,5.206,13.0
159.276,5.589,4.358,15.0
0.0,0.0,0.0,0.0
0.0,0.0,0.0,0.0
78.118,2.687,0.788,23.0
152.726,5.211,5.71,42.0
159.517,5.405,5.049,10.0
0.0,0.0,0.0,0.0
0.0,0.0,0.0,0.0
100.802,3.342,1.447,4.0
77.722,2.559,0.671,14.0
152.904,4.99,5.495,19.0
158.743,5.144,4.797,7.0
0.0,0.0,0.0,0.0
0.0,0.0,0.0,0.0
95.613,3.027,1.237,4.0
74.144,2.33,0.535,13.0
152.422,4.745,5.262,21.0
158.426,4.891,4.562,16.0
0.0,0.0,0.0,0.0
0.0,0.0,0.0,0.0
79.792,2.403,0.919,4.0
60.099,1.795,0.348,34.0
152.999,4.526,5.067,32.0
154.062,4.517,4.22,35.0
0.0,0.0,0.0,0.0
0.0,0.0,0.0,0.0
78.186,2.232,0.792,35.0
58.885,1.666,0.26,13.0
154.002,4.313,4.889,24.0
154.11,4.275,4.01,9.0
0.0,0.0,0.0,0.0
106.1,2.887,1.536,18.0
77.858,2.098,0.683,18.0
54.879,1.465,0.168,11.0
137.967,3.64,4.191,9.0
0.0,0.0,0.0,0.0
100.324,2.595,1.902,7.0
106.127,2.717,1.395,47.0
74.763,1.894,0.556,22.0
48.561,1.217,0.084,22.0
157.993,3.912,4.591,5.0
100.43,2.459,2.345,3.0
106.053,2.569,1.871,4.0
89.734,2.149,1.061,5.0
61.259,1.45,0.375,22.0
47.074,1.102,0.019,22.0
162.478,3.754,4.511,3.0
0.0,0.0,0.0,0.0
106.13,2.392,1.734,2.0
0.0,0.0,0.0,0.0
59.459,1.308,0.287,33.0
0.0,0.0,0.0,0.0
128.132,2.742,3.393,36.0
128.1,2.707,2.662,13.0
106.065,2.211,1.599,1.0
77.913,1.603,0.723,38.0
57.677,1.17,0.206,7.0
39.715,0.795,-0.083,25.0
128.04,2.523,3.232,40.0
128.023,2.486,2.502,25.0
121.228,2.32,1.679,4.0
77.572,1.462,0.624,12.0
48.059,0.892,0.113,8.0
38.934,0.712,-0.129,41.0
128.196,2.302,3.08,8.0
127.945,2.263,2.346,25.0
121.123,2.106,1.531,16.0
74.775,1.278,0.512,12.0
47.655,0.801,0.055,33.0
37.98,0.627,-0.171,44.0
190.076,3.077,4.34,20.0
127.552,2.029,2.187,27.0
89.687,1.4,1.027,5.0
61.539,0.942,0.348,36.0
0.0,0.0,0.0,0.0
37.666,0.554,-0.214,23.0
190.172,2.74,4.122,31.0
126.963,1.79,2.029,35.0
89.722,1.239,0.924,6.0
48.062,0.649,0.217,60.0
44.413,0.586,-0.051,18.0
37.339,0.482,-0.255,10.0
55.088,0.694,1.131,61.0
48.17,0.592,0.715,45.0
48.091,0.576,0.441,81.0
48.007,0.56,0.162,80.0
39.657,0.451,-0.09,15.0
37.261,0.412,-0.296,3.0
48.141,0.517,0.935,99.0
48.098,0.502,0.661,102.0
48.057,0.487,0.388,100.0
47.958,0.471,0.11,61.0
39.06,0.372,-0.131,43.0
33.642,0.31,-0.303,1.0
48.114,0.427,0.883,122.0
48.082,0.412,0.61,111.0
48.05,0.397,0.337,97.0
47.694,0.38,0.059,53.0
38.594,0.295,-0.17,45.0
32.866,0.241,-0.331,1.0
48.118,0.337,0.833,87.0
48.143,0.322,0.561,50.0
48.179,0.307,0.288,52.0
0.0,0.0,0.0,0.0
38.399,0.221,-0.208,13.0
31.797,0.173,-0.353,1.0
59.292,0.303,0.967,140.0
59.307,0.284,0.631,100.0
59.356,0.266,0.296,19.0
44.709,0.186,-0.034,22.0
37.998,0.146,-0.243,13.0
30.924,0.109,-0.373,1.0
79.469,0.257,1.22,151.0
79.449,0.231,0.77,150.0
59.101,0.152,0.238,7.0
43.861,0.099,-0.075,8.0
38.156,0.074,-0.281,3.0
30.193,0.049,-0.393,1.0
79.465,0.102,1.145,151.0
79.416,0.077,0.695,87.0
54.987,0.035,0.171,20.0
40.719,0.012,-0.107,17.0
38.018,0.0,-0.315,2.0
29.633,-0.009,-0.413,2.0
79.461,-0.051,1.073,152.0
79.269,-0.077,0.623,24.0
0.0,0.0,0.0,0.0
40.159,-0.065,-0.142,16.0
33.781,-0.066,-0.31,1.0
29.226,-0.067,-0.433,2.0
79.462,-0.207,1.004,151.0
76.597,-0.226,0.535,15.0
0.0,0.0,0.0,0.0
39.481,-0.143,-0.173,5.0
32.979,-0.13,-0.331,1.0
28.643,-0.123,-0.449,2.0
79.467,-0.366,0.936,153.0
76.668,-0.379,0.471,11.0
47.982,-0.253,0.024,22.0
40.461,-0.227,-0.211,3.0
32.114,-0.191,-0.348,1.0
28.083,-0.176,-0.463,1.0
79.456,-0.525,0.873,178.0
76.839,-0.533,0.411,6.0
47.247,-0.344,-0.013,4.0
40.334,-0.307,-0.242,3.0
31.109,-0.247,-0.362,1.0
27.622,-0.229,-0.477,3.0
79.465,-0.685,0.811,161.0
61.049,-0.546,0.28,6.0
50.847,-0.472,-0.052,14.0
38.514,-0.371,-0.26,9.0
30.633,-0.305,-0.379,2.0
27.106,-0.279,-0.488,1.0
79.454,-0.843,0.754,151.0
60.925,-0.667,0.236,4.0
54.473,-0.615,-0.095,2.0
37.211,-0.433,-0.278,1.0
30.007,-0.36,-0.393,1.0
26.718,-0.33,-0.5,2.0
79.872,-1.011,0.702,26.0
86.925,-1.13,0.276,4.0
50.87,-0.679,-0.124,2.0
36.187,-0.495,-0.295,1.0
29.666,-0.416,-0.408,1.0
26.304,-0.378,-0.51,1.0
87.884,-1.29,0.715,4.0
248.351,-3.736,0.627,62.0
46.389,-0.713,-0.143,3.0
34.784,-0.547,-0.306,1.0
29.299,-0.471,-0.422,2.0
25.975,-0.427,-0.52,1.0
40.285,-0.674,0.302,48.0
40.296,-0.689,0.076,61.0
40.306,-0.702,-0.149,49.0
33.667,-0.598,-0.316,1.0
28.951,-0.525,-0.434,1.0
25.638,-0.474,-0.528,1.0
40.261,-0.756,0.279,59.0
40.309,-0.771,0.053,41.0
46.664,-0.91,-0.199,3.0
33.443,-0.664,-0.333,1.0
28.685,-0.58,-0.446,1.0
25.371,-0.522,-0.537,1.0
85.665,-1.787,0.546,1.0
0.0,0.0,0.0,0.0
40.277,-0.868,-0.193,0.0
32.575,-0.714,-0.342,1.0
28.221,-0.628,-0.454,1.0
25.174,-0.569,-0.546,1.0
40.304,-0.923,0.236,42.0
40.305,-0.937,0.011,150.0
40.309,-0.951,-0.213,92.0
32.376,-0.776,-0.355,1.0
27.639,-0.672,-0.458,7.0
24.877,-0.614,-0.551,1.0
40.237,-1.004,0.217,3.0
41.0,-1.038,-0.007,14.0
40.678,-1.044,-0.234,61.0
31.824,-0.828,-0.364,1.0
27.719,-0.731,-0.472,1.0
24.629,-0.659,-0.557,1.0
40.184,-1.085,0.199,45.0
40.23,-1.101,-0.024,65.0
40.196,-1.115,-0.248,14.0
31.277,-0.878,-0.371,1.0
27.43,-0.781,-0.478,1.0
24.395,-0.704,-0.561,1.0
40.234,-1.17,0.184,3.0
40.233,-1.185,-0.039,33.0
40.199,-1.198,-0.264,12.0
30.861,-0.931,-0.377,1.0
27.231,-0.831,-0.485,1.0
24.106,-0.745,-0.563,1.0
0.0,0.0,0.0,0.0
0.0,0.0,0.0,0.0
40.02,-1.276,-0.276,2.0
30.769,-0.992,-0.387,1.0
27.045,-0.882,-0.49,1.0
23.912,-0.789,-0.567,1.0
67.877,-2.256,0.264,0.0
0.0,0.0,0.0,0.0
40.942,-1.391,-0.295,0.0
30.427,-1.044,-0.392,1.0
26.918,-0.934,-0.496,1.0
23.81,-0.835,-0.571,2.0
0.0,0.0,0.0,0.0
50.719,-1.809,-0.098,3.0
40.064,-1.444,-0.3,3.0
30.219,-1.1,-0.397,1.0
26.764,-0.984,-0.5,1.0
23.663,-0.879,-0.574,2.0
0.0,0.0,0.0,0.0
40.138,-1.514,-0.087,160.0
37.749,-1.438,-0.291,29.0
30.117,-1.158,-0.402,1.0
26.669,-1.035,-0.504,1.0
23.578,-0.924,-0.577,2.0
0.0,0.0,0.0,0.0
37.799,-1.503,-0.089,160.0
37.738,-1.515,-0.298,36.0
30.068,-1.218,-0.407,1.0
26.58,-1.086,-0.507,1.0
23.53,-0.971,-0.58,2.0
0.0,0.0,0.0,0.0
50.423,-2.109,-0.127,1.0
37.708,-1.591,-0.304,4.0
30.042,-1.278,-0.411,2.0
26.483,-1.137,-0.509,1.0
23.438,-1.015,-0.58,2.0
0.0,0.0,0.0,0.0
50.474,-2.214,-0.133,3.0
37.815,-1.673,-0.309,3.0
30.035,-1.339,-0.414,2.0
26.486,-1.191,-0.512,2.0
23.395,-1.061,-0.582,2.0
0.0,0.0,0.0,0.0
50.377,-2.311,-0.137,1.0
37.35,-1.728,-0.308,0.0
29.641,-1.382,-0.411,6.0
26.479,-1.244,-0.514,1.0
23.404,-1.109,-0.583,2.0
0.0,0.0,0.0,0.0
50.463,-2.418,-0.139,5.0
0.0,0.0,0.0,0.0
29.577,-1.44,-0.411,5.0
26.426,-1.296,-0.513,2.0
23.425,-1.157,-0.584,2.0
0.0,0.0,0.0,0.0
50.47,-2.52,-0.14,5.0
37.409,-1.882,-0.31,0.0
29.624,-1.501,-0.412,6.0
26.476,-1.352,-0.514,1.0
23.531,-1.21,-0.587,3.0
63.223,-3.262,0.174,3.0
50.427,-2.621,-0.138,1.0
37.152,-1.945,-0.307,0.0
29.909,-1.576,-0.414,1.0
26.5,-1.406,-0.513,2.0
23.409,-1.251,-0.582,12.0
63.156,-3.385,0.178,5.0
50.436,-2.722,-0.135,1.0
0.0,0.0,0.0,0.0
29.936,-1.637,-0.412,1.0
26.543,-1.462,-0.512,1.0
23.445,-1.3,-0.581,12.0
0.0,0.0,0.0,0.0
50.456,-2.823,-0.13,1.0
0.0,0.0,0.0,0.0
30.117,-1.707,-0.411,1.0
26.586,-1.516,-0.509,1.0
23.482,-1.348,-0.579,9.0
63.294,-3.642,0.193,0.0
50.442,-2.921,-0.123,6.0
37.694,-2.196,-0.298,0.0
30.387,-1.781,-0.411,1.0
26.718,-1.576,-0.508,2.0
23.544,-1.397,-0.577,1.0
0.0,0.0,0.0,0.0
50.486,-3.022,-0.114,8.0
38.294,-2.306,-0.296,0.0
30.57,-1.852,-0.407,1.0
26.854,-1.637,-0.505,2.0
23.697,-1.453,-0.576,1.0
0.0,0.0,0.0,0.0
50.482,-3.12,-0.103,4.0
0.0,0.0,0.0,0.0
30.849,-1.929,-0.404,1.0
26.903,-1.692,-0.5,2.0
23.861,-1.509,-0.574,1.0
0.0,0.0,0.0,0.0
50.423,-3.213,-0.09,1.0
40.155,-2.573,-0.292,0.0
31.093,-2.003,-0.399,1.0
27.158,-1.76,-0.497,2.0
24.037,-1.566,-0.572,1.0
0.0,0.0,0.0,0.0
50.445,-3.311,-0.076,1.0
40.598,-2.679,-0.283,0.0
31.646,-2.1,-0.397,1.0
27.462,-1.832,-0.494,2.0
24.292,-1.629,-0.57,1.0
0.0,0.0,0.0,0.0
50.521,-3.411,-0.06,3.0
40.142,-2.725,-0.267,0.0
31.896,-2.176,-0.389,1.0
27.538,-1.889,-0.486,1.0
24.552,-1.693,-0.568,1.0
0.0,0.0,0.0,0.0
50.57,-3.51,-0.042,2.0
0.0,0.0,0.0,0.0
32.387,-2.271,-0.383,1.0
27.866,-1.964,-0.482,1.0
24.756,-1.753,-0.563,1.0
0.0,0.0,0.0,0.0
61.121,-4.355,-0.027,1.0
0.0,0.0,0.0,0.0
32.58,-2.344,-0.373,1.0
28.286,-2.045,-0.478,1.0
25.053,-1.82,-0.56,1.0
0.0,0.0,0.0,0.0
61.67,-4.507,0.0,0.0
0.0,0.0,0.0,0.0
33.572,-2.476,-0.369,1.0
28.733,-2.13,-0.472,1.0
25.241,-1.88,-0.552,1.0
0.0,0.0,0.0,0.0
61.929,-4.638,0.027,0.0
0.0,0.0,0.0,0.0
34.35,-2.596,-0.362,1.0
29.006,-2.202,-0.463,2.0
25.456,-1.941,-0.545,1.0
0.0,0.0,0.0,0.0
0.0,0.0,0.0,0.0
45.173,-3.478,-0.203,0.0
35.389,-2.737,-0.355,1.0
29.283,-2.275,-0.453,1.0
25.829,-2.016,-0.54,2.0
0.0,0.0,0.0,0.0
0.0,0.0,0.0,0.0
50.408,-3.97,-0.199,0.0
36.944,-2.923,-0.35,0.0
29.683,-2.358,-0.443,1.0
26.121,-2.084,-0.531,1.0
0.0,0.0,0.0,0.0
0.0,0.0,0.0,0.0
50.446,-4.062,-0.171,4.0
0.0,0.0,0.0,0.0
30.097,-2.443,-0.431,1.0
26.362,-2.149,-0.521,1.0
0.0,0.0,0.0,0.0
0.0,0.0,0.0,0.0
50.368,-4.141,-0.141,1.0
38.299,-3.162,-0.318,0.0
30.609,-2.537,-0.42,1.0
26.77,-2.227,-0.513,1.0
0.0,0.0,0.0,0.0
0.0,0.0,0.0,0.0
50.414,-4.229,-0.109,1.0
40.346,-3.398,-0.31,0.0
31.687,-2.679,-0.415,1.0
27.214,-2.31,-0.503,1.0
0.0,0.0,0.0,0.0
0.0,0.0,0.0,0.0
50.534,-4.323,-0.076,0.0
0.0,0.0,0.0,0.0
32.377,-2.791,-0.402,1.0
27.778,-2.403,-0.495,1.0
121.718,-10.535,1.216,29.0
0.0,0.0,0.0,0.0
50.518,-4.404,-0.041,0.0
0.0,0.0,0.0,0.0
32.975,-2.895,-0.386,0.0
28.299,-2.494,-0.484,1.0
110.191,-9.715,1.178,5.0
0.0,0.0,0.0,0.0
0.0,0.0,0.0,0.0
0.0,0.0,0.0,0.0
34.058,-3.044,-0.375,0.0
28.918,-2.593,-0.474,1.0
108.667,-9.748,1.241,150.0
90.55,-8.149,0.545,2.0
0.0,0.0,0.0,0.0
0.0,0.0,0.0,0.0
35.522,-3.229,-0.364,0.0
29.445,-2.686,-0.46,1.0
108.586,-9.909,1.323,163.0
90.788,-8.311,0.618,1.0
61.242,-5.624,0.086,0.0
50.395,-4.643,-0.205,0.0
0.0,0.0,0.0,0.0
29.942,-2.776,-0.445,1.0
108.453,-10.06,1.408,52.0
0.0,0.0,0.0,0.0
0.0,0.0,0.0,0.0
50.334,-4.712,-0.165,1.0
37.706,-3.541,-0.326,0.0
30.737,-2.895,-0.431,1.0
0.0,0.0,0.0,0.0
100.862,-9.533,0.849,4.0
0.0,0.0,0.0,0.0
50.403,-4.792,-0.123,1.0
39.781,-3.793,-0.311,0.0
31.828,-3.044,-0.42,1.0
100.766,-9.641,1.476,150.0
98.005,-9.403,0.908,1.0
0.0,0.0,0.0,0.0
50.361,-4.86,-0.079,0.0
41.032,-3.971,-0.285,0.0
32.706,-3.174,-0.403,0.0
97.43,-9.459,1.513,2.0
97.005,-9.443,0.985,2.0
91.462,-8.927,0.436,1.0
0.0,0.0,0.0,0.0
44.36,-4.354,-0.269,0.0
34.032,-3.349,-0.389,1.0
96.319,-9.482,1.581,7.0
95.648,-9.441,1.056,4.0
90.315,-8.937,0.512,3.0
0.0,0.0,0.0,0.0
0.0,0.0,0.0,0.0
34.802,-3.471,-0.367,0.0
95.73,-9.551,1.659,2.0
94.538,-9.455,1.131,8.0
94.792,-9.504,0.624,3.0
0.0,0.0,0.0,0.0
50.397,-5.079,-0.213,1.0
0.0,0.0,0.0,0.0
95.761,-9.678,1.75,5.0
89.51,-9.068,1.154,4.0
89.605,-9.099,0.676,3.0
0.0,0.0,0.0,0.0
50.279,-5.131,-0.165,0.0
39.483,-4.039,-0.341,1.0
89.093,-9.116,1.714,5.0
87.705,-8.995,1.217,2.0
87.453,-8.99,0.744,1.0
0.0,0.0,0.0,0.0
50.304,-5.195,-0.115,0.0
39.998,-4.141,-0.306,0.0
96.104,-9.952,1.944,4.0
86.624,-8.99,1.288,11.0
86.504,-8.997,0.823,31.0
0.0,0.0,0.0,0.0
0.0,0.0,0.0,0.0
0.0,0.0,0.0,0.0
96.092,-10.063,2.039,5.0
86.433,-9.07,1.372,48.0
86.419,-9.088,0.909,150.0
87.011,-9.17,0.44,1.0
0.0,0.0,0.0,0.0
0.0,0.0,0.0,0.0
123.696,-13.096,2.753,6.0
86.397,-9.165,1.459,32.0
86.323,-9.175,0.997,150.0
87.494,-9.318,0.532,1.0
0.0,0.0,0.0,0.0
0.0,0.0,0.0,0.0
123.578,-13.219,2.879,28.0
86.407,-9.26,1.55,36.0
86.316,-9.267,1.086,150.0
87.34,-9.396,0.623,10.0
0.0,0.0,0.0,0.0
0.0,0.0,0.0,0.0
123.568,-13.349,3.01,52.0
86.38,-9.348,1.641,36.0
86.3,-9.356,1.178,71.0
87.08,-9.458,0.715,10.0
0.0,0.0,0.0,0.0
0.0,0.0,0.0,0.0
187.481,-20.444,4.768,35.0
86.45,-9.443,1.736,4.0
86.264,-9.439,1.271,116.0
86.274,-9.457,0.802,25.0
0.0,0.0,0.0,0.0
0.0,0.0,0.0,0.0
187.331,-20.613,4.969,40.0
86.719,-9.557,1.837,4.0
86.251,-9.521,1.366,71.0
86.215,-9.532,0.896,54.0
0.0,0.0,0.0,0.0
0.0,0.0,0.0,0.0
187.496,-20.807,5.183,23.0
86.733,-9.639,1.933,12.0
86.29,-9.605,1.462,61.0
86.263,-9.617,0.992,150.0
87.35,-9.753,0.539,3.0
0.0,0.0,0.0,0.0
107.402,-12.015,3.088,72.0
115.92,-12.985,2.714,20.0
86.272,-9.677,1.558,58.0
86.256,-9.69,1.088,175.0
87.213,-9.812,0.636,7.0
67.852,-7.645,0.132,2.0
107.364,-12.101,3.208,68.0
107.493,-12.132,2.638,78.0
86.265,-9.749,1.657,25.0
86.259,-9.762,1.187,177.0
86.338,-9.785,0.728,37.0
78.705,-8.932,0.244,1.0
115.898,-13.157,3.597,55.0
107.447,-12.212,2.76,96.0
86.652,-9.861,1.763,4.0
86.286,-9.832,1.288,150.0
86.242,-9.84,0.826,83.0
0.0,0.0,0.0,0.0
115.92,-13.248,3.732,66.0
115.858,-13.256,3.111,18.0
86.675,-9.928,1.865,22.0
86.246,-9.891,1.387,61.0
86.233,-9.902,0.928,150.0
87.302,-10.037,0.474,1.0
116.002,-13.342,3.871,22.0
188.262,-21.676,5.278,34.0
86.673,-9.989,1.967,18.0
86.243,-9.95,1.488,55.0
