X,Y,Z,Reflectivity
8.207,0.075,-0.906,0.0
7.898,0.071,-0.918,0.0
7.577,0.067,-0.925,0.0
7.283,0.063,-0.931,0.0
7.03,0.06,-0.94,0.0
8.506,0.07,-0.897,0.0
8.162,0.066,-0.908,0.0
7.862,0.063,-0.92,0.0
7.515,0.059,-0.923,0.0
7.253,0.056,-0.933,0.0
7.005,0.053,-0.942,0.0
8.439,0.061,-0.897,0.0
8.104,0.058,-0.908,0.0
7.782,0.054,-0.917,0.0
7.488,0.051,-0.926,0.0
7.226,0.048,-0.935,0.0
6.946,0.045,-0.939,0.0
8.404,0.052,-0.899,0.0
8.072,0.049,-0.91,0.0
7.77,0.046,-0.921,0.0
7.453,0.043,-0.927,0.0
7.175,0.04,-0.934,0.0
6.914,0.038,-0.94,0.0
8.361,0.043,-0.901,0.0
8.047,0.04,-0.913,0.0
7.735,0.038,-0.922,0.0
7.422,0.035,-0.928,0.0
7.153,0.032,-0.936,0.0
6.875,0.03,-0.939,0.0
8.319,0.034,-0.902,0.0
8.021,0.032,-0.915,0.0
7.684,0.029,-0.921,0.0
7.39,0.027,-0.929,0.0
7.114,0.025,-0.935,0.0
6.858,0.023,-0.941,0.0
8.306,0.025,-0.905,0.0
7.999,0.023,-0.918,0.0
7.664,0.021,-0.923,0.0
7.353,0.019,-0.929,0.0
7.079,0.017,-0.935,0.0
6.84,0.015,-0.943,0.0
8.268,0.016,-0.906,0.0
7.933,0.014,-0.914,0.0
7.638,0.012,-0.924,0.0
7.335,0.011,-0.93,0.0
7.058,0.009,-0.936,0.0
6.814,0.008,-0.943,0.0
8.22,0.007,-0.905,0.0
7.918,0.005,-0.917,0.0
7.596,0.004,-0.923,0.0
7.317,0.003,-0.932,0.0
7.044,0.001,-0.938,0.0
6.767,0.0,-0.94,0.0
8.191,-0.001,-0.906,0.0
7.888,-0.002,-0.917,0.0
7.58,-0.003,-0.925,0.0
7.278,-0.004,-0.93,0.0
7.03,-0.006,-0.939,0.0
6.759,-0.007,-0.942,0.0
8.17,-0.01,-0.907,0.0
7.867,-0.011,-0.918,0.0
7.57,-0.012,-0.926,0.0
7.249,-0.013,-0.929,0.0
7.016,-0.013,-0.94,0.0
6.726,-0.014,-0.94,0.0
8.147,-0.019,-0.907,0.0
7.837,-0.02,-0.917,0.0
7.539,-0.02,-0.925,0.0
7.225,-0.021,-0.929,0.0
6.999,-0.021,-0.94,0.0
6.728,-0.022,-0.942,0.0
8.136,-0.028,-0.909,0.0
7.819,-0.028,-0.918,0.0
7.521,-0.029,-0.926,0.0
7.224,-0.029,-0.931,0.0
6.988,-0.029,-0.941,0.0
6.713,-0.029,-0.942,0.0
8.125,-0.037,-0.91,0.0
7.808,-0.037,-0.919,0.0
7.496,-0.037,-0.925,0.0
7.207,-0.037,-0.931,0.0
6.982,-0.037,-0.942,0.0
6.71,-0.037,-0.944,0.0
8.103,-0.046,-0.91,0.0
7.786,-0.046,-0.918,0.0
7.492,-0.046,-0.926,0.0
7.193,-0.045,-0.931,0.0
6.951,-0.045,-0.939,0.0
6.676,-0.044,-0.94,0.0
8.082,-0.055,-0.909,0.0
7.783,-0.055,-0.919,0.0
7.473,-0.054,-0.925,0.0
7.193,-0.053,-0.932,0.0
6.953,-0.053,-0.941,0.0
6.674,-0.052,-0.941,0.0
8.089,-0.065,-0.911,0.0
7.786,-0.064,-0.921,0.0
7.481,-0.063,-0.927,0.0
7.201,-0.062,-0.934,0.0
6.947,-0.061,-0.941,0.0
6.684,-0.06,-0.943,0.0
8.058,-0.074,-0.908,0.0
7.759,-0.072,-0.918,0.0
7.479,-0.071,-0.927,0.0
7.193,-0.07,-0.934,0.0
6.939,-0.069,-0.94,0.0
6.673,-0.067,-0.942,0.0
8.073,-0.083,-0.91,0.0
7.778,-0.081,-0.921,0.0
7.455,-0.079,-0.925,0.0
7.18,-0.078,-0.932,0.0
6.951,-0.077,-0.942,0.0
6.675,-0.075,-0.943,0.0
8.061,-0.092,-0.909,0.0
7.77,-0.09,-0.92,0.0
7.452,-0.088,-0.924,0.0
7.188,-0.086,-0.933,0.0
6.925,-0.084,-0.938,0.0
6.659,-0.082,-0.94,0.0
8.048,-0.101,-0.907,0.0
7.766,-0.099,-0.919,0.0
7.456,-0.096,-0.925,0.0
7.19,-0.094,-0.933,0.0
6.924,-0.092,-0.938,0.0
6.675,-0.09,-0.942,0.0
8.071,-0.11,-0.909,0.0
7.772,-0.108,-0.919,0.0
7.478,-0.105,-0.927,0.0
7.196,-0.103,-0.933,0.0
6.941,-0.1,-0.939,0.0
6.685,-0.098,-0.943,0.0
8.074,-0.119,-0.909,0.0
7.777,-0.117,-0.919,0.0
7.48,-0.114,-0.926,0.0
7.209,-0.111,-0.934,0.0
6.947,-0.108,-0.939,0.0
6.701,-0.106,-0.944,0.0
8.092,-0.129,-0.91,0.0
7.792,-0.125,-0.919,0.0
7.503,-0.122,-0.927,0.0
7.21,-0.119,-0.933,0.0
6.962,-0.116,-0.94,0.0
6.703,-0.113,-0.943,0.0
8.091,-0.138,-0.908,0.0
7.803,-0.134,-0.919,0.0
7.493,-0.13,-0.924,0.0
7.232,-0.127,-0.934,0.0
6.98,-0.124,-0.94,0.0
6.719,-0.121,-0.943,0.0
8.117,-0.147,-0.908,0.0
7.811,-0.143,-0.918,0.0
7.531,-0.139,-0.927,0.0
7.233,-0.135,-0.932,0.0
6.982,-0.132,-0.939,0.0
6.715,-0.128,-0.94,0.0
8.141,-0.156,-0.909,0.0
7.833,-0.152,-0.918,0.0
7.541,-0.148,-0.926,0.0
7.253,-0.144,-0.932,0.0
7.006,-0.14,-0.939,0.0
6.74,-0.136,-0.942,0.0
8.156,-0.166,-0.907,0.0
7.871,-0.161,-0.92,0.0
7.545,-0.156,-0.924,0.0
7.273,-0.152,-0.932,0.0
7.018,-0.148,-0.938,0.0
6.763,-0.144,-0.942,0.0
8.176,-0.175,-0.907,0.0
7.895,-0.17,-0.919,0.0
7.566,-0.165,-0.923,0.0
7.289,-0.16,-0.931,0.0
7.041,-0.156,-0.938,0.0
6.803,-0.152,-0.945,0.0
8.191,-0.184,-0.905,0.0
7.905,-0.179,-0.917,0.0
7.59,-0.173,-0.923,0.0
7.319,-0.169,-0.931,0.0
7.059,-0.164,-0.938,0.0
6.81,-0.16,-0.942,0.0
8.238,-0.193,-0.906,0.0
7.927,-0.188,-0.916,0.0
7.633,-0.182,-0.924,0.0
7.373,-0.178,-0.934,0.0
7.086,-0.172,-0.937,0.0
6.844,-0.168,-0.944,0.0
8.275,-0.203,-0.906,0.0
7.961,-0.197,-0.915,0.0
7.671,-0.191,-0.924,0.0
7.38,-0.185,-0.931,0.0
7.109,-0.18,-0.936,0.0
6.872,-0.175,-0.943,0.0
8.31,-0.212,-0.905,0.0
7.987,-0.206,-0.913,0.0
7.694,-0.199,-0.923,0.0
7.425,-0.194,-0.932,0.0
7.135,-0.188,-0.935,0.0
6.895,-0.183,-0.942,0.0
8.342,-0.221,-0.903,0.0
8.027,-0.215,-0.913,0.0
7.738,-0.209,-0.923,0.0
7.437,-0.202,-0.929,0.0
7.175,-0.196,-0.936,0.0
6.936,-0.191,-0.943,0.0
8.383,-0.231,-0.902,0.0
8.073,-0.224,-0.913,0.0
7.768,-0.217,-0.921,0.0
7.477,-0.21,-0.929,0.0
7.198,-0.204,-0.934,0.0
6.974,-0.199,-0.944,0.0
8.443,-0.241,-0.902,0.0
8.109,-0.233,-0.911,0.0
7.814,-0.226,-0.921,0.0
7.512,-0.219,-0.928,0.0
7.24,-0.212,-0.934,0.0
6.991,-0.206,-0.941,0.0
8.465,-0.25,-0.898,0.0
8.153,-0.242,-0.91,0.0
7.856,-0.235,-0.92,0.0
7.538,-0.227,-0.925,0.0
7.271,-0.22,-0.932,0.0
7.028,-0.214,-0.94,0.0
8.538,-0.26,-0.899,0.0
8.185,-0.251,-0.907,0.0
7.9,-0.243,-0.919,0.0
7.615,-0.236,-0.928,0.0
7.317,-0.228,-0.932,0.0
7.059,-0.221,-0.938,0.0
8.573,-0.269,-0.896,0.0
8.257,-0.26,-0.908,0.0
7.951,-0.252,-0.918,0.0
7.643,-0.244,-0.925,0.0
7.35,-0.236,-0.93,0.0
7.096,-0.229,-0.937,0.0
8.661,-0.279,-0.898,0.0
8.3,-0.269,-0.905,0.0
7.998,-0.261,-0.916,0.0
7.689,-0.252,-0.924,0.0
7.412,-0.244,-0.931,0.0
7.148,-0.237,-0.937,0.0
8.712,-0.288,-0.895,0.0
8.352,-0.278,-0.904,0.0
8.048,-0.269,-0.915,0.0
7.748,-0.261,-0.924,0.0
7.443,-0.252,-0.928,0.0
7.186,-0.244,-0.935,0.0
8.773,-0.298,-0.893,0.0
8.412,-0.287,-0.902,0.0
8.087,-0.277,-0.911,0.0
7.8,-0.269,-0.922,0.0
7.511,-0.26,-0.929,0.0
7.239,-0.252,-0.935,0.0
8.862,-0.308,-0.893,0.0
8.475,-0.296,-0.9,0.0
8.163,-0.286,-0.912,0.0
7.853,-0.277,-0.921,0.0
7.572,-0.268,-0.929,0.0
7.293,-0.26,-0.935,0.0
8.938,-0.318,-0.892,0.0
8.568,-0.306,-0.901,0.0
8.206,-0.294,-0.908,0.0
7.918,-0.286,-0.92,0.0
7.618,-0.276,-0.927,0.0
7.339,-0.267,-0.933,0.0
9.02,-0.328,-0.891,0.0
8.625,-0.315,-0.898,0.0
8.281,-0.303,-0.907,0.0
7.938,-0.292,-0.914,0.0
7.691,-0.284,-0.927,0.0
7.404,-0.275,-0.933,0.0
9.095,-0.337,-0.888,0.0
8.702,-0.324,-0.897,0.0
8.338,-0.312,-0.904,0.0
8.017,-0.301,-0.914,0.0
7.746,-0.292,-0.925,0.0
7.461,-0.283,-0.931,0.0
9.198,-0.347,-0.888,0.0
8.777,-0.333,-0.894,0.0
8.421,-0.321,-0.904,0.0
8.093,-0.31,-0.913,0.0
7.798,-0.299,-0.922,0.0
7.513,-0.29,-0.929,0.0
9.29,-0.357,-0.886,0.0
8.866,-0.342,-0.893,0.0
8.532,-0.331,-0.905,0.0
8.153,-0.317,-0.91,0.0
7.863,-0.307,-0.92,0.0
7.584,-0.298,-0.929,0.0
9.391,-0.367,-0.884,0.0
8.967,-0.352,-0.892,0.0
8.584,-0.338,-0.9,0.0
8.239,-0.326,-0.909,0.0
7.941,-0.315,-0.919,0.0
7.652,-0.305,-0.928,0.0
9.495,-0.377,-0.882,0.0
9.056,-0.361,-0.89,0.0
8.671,-0.347,-0.899,0.0
8.32,-0.334,-0.908,0.0
8.008,-0.323,-0.917,0.0
7.717,-0.312,-0.925,0.0
9.603,-0.387,-0.88,0.0
9.166,-0.371,-0.889,0.0
8.748,-0.355,-0.895,0.0
8.407,-0.343,-0.906,0.0
8.058,-0.33,-0.912,0.0
7.78,-0.319,-0.923,0.0
9.748,-0.399,-0.881,1.0
9.293,-0.381,-0.889,0.0
8.856,-0.365,-0.895,0.0
8.482,-0.35,-0.903,0.0
8.159,-0.338,-0.913,0.0
7.85,-0.326,-0.921,0.0
9.809,-0.407,-0.873,3.0
9.401,-0.391,-0.887,0.0
8.972,-0.374,-0.894,0.0
8.578,-0.359,-0.902,0.0
8.248,-0.346,-0.911,0.0
7.943,-0.334,-0.92,0.0
9.913,-0.416,-0.869,2.0
9.491,-0.399,-0.882,0.0
9.068,-0.383,-0.891,0.0
8.671,-0.367,-0.9,0.0
8.328,-0.354,-0.909,0.0
8.01,-0.341,-0.917,0.0
10.055,-0.426,-0.867,0.0
9.631,-0.41,-0.882,0.0
9.183,-0.392,-0.89,0.0
8.76,-0.375,-0.896,0.0
8.44,-0.362,-0.909,0.0
8.093,-0.348,-0.915,0.0
10.23,-0.438,-0.868,0.0
9.762,-0.419,-0.88,2.0
9.304,-0.401,-0.888,0.0
8.887,-0.384,-0.897,0.0
8.507,-0.368,-0.904,0.0
8.172,-0.355,-0.912,0.0
10.394,-0.45,-0.866,0.0
9.826,-0.426,-0.871,3.0
9.43,-0.41,-0.886,0.0
9.022,-0.393,-0.897,0.0
8.618,-0.376,-0.903,0.0
8.276,-0.362,-0.911,0.0
10.53,-0.459,-0.862,0.0
9.958,-0.435,-0.868,1.0
9.542,-0.418,-0.883,0.0
9.132,-0.401,-0.894,0.0
8.698,-0.383,-0.898,0.0
8.361,-0.369,-0.908,0.0
10.689,-0.47,-0.859,0.0
10.129,-0.446,-0.868,0.0
9.71,-0.428,-0.883,0.0
9.272,-0.41,-0.894,0.0
8.827,-0.391,-0.898,0.0
8.471,-0.376,-0.907,0.0
10.851,-0.48,-0.856,0.0
10.303,-0.456,-0.867,0.0
9.795,-0.435,-0.876,2.0
9.385,-0.417,-0.89,0.0
8.961,-0.399,-0.897,0.0
8.577,-0.383,-0.905,0.0
11.034,-0.491,-0.853,0.0
10.48,-0.467,-0.866,0.0
9.908,-0.442,-0.871,2.0
9.499,-0.425,-0.886,0.0
9.077,-0.407,-0.895,0.0
8.673,-0.389,-0.901,0.0
11.199,-0.501,-0.848,0.0
10.627,-0.476,-0.861,0.0
10.067,-0.451,-0.869,0.0
9.65,-0.433,-0.885,0.0
9.208,-0.414,-0.893,0.0
8.792,-0.396,-0.899,0.0
11.399,-0.512,-0.845,0.0
10.801,-0.485,-0.858,0.0
10.266,-0.462,-0.869,0.0
9.769,-0.44,-0.88,2.0
9.341,-0.422,-0.891,0.0
8.913,-0.403,-0.897,0.0
11.579,-0.521,-0.84,0.0
10.979,-0.495,-0.854,0.0
10.432,-0.471,-0.866,0.0
9.874,-0.446,-0.873,2.0
9.468,-0.428,-0.887,0.0
9.057,-0.41,-0.897,0.0
11.767,-0.531,-0.834,0.0
11.18,-0.505,-0.851,0.0
10.594,-0.479,-0.862,0.0
10.032,-0.454,-0.871,0.0
9.611,-0.436,-0.885,0.0
9.175,-0.416,-0.893,0.0
11.989,-0.542,-0.83,0.0
11.329,-0.512,-0.844,0.0
10.765,-0.487,-0.858,0.0
10.222,-0.463,-0.87,0.0
9.761,-0.443,-0.882,2.0
9.317,-0.423,-0.891,0.0
12.213,-0.552,-0.825,0.0
11.562,-0.523,-0.842,0.0
10.967,-0.497,-0.856,0.0
10.418,-0.472,-0.869,0.0
9.865,-0.447,-0.875,2.0
9.456,-0.429,-0.888,0.0
12.454,-0.563,-0.82,0.0
11.74,-0.531,-0.835,0.0
11.165,-0.505,-0.853,0.0
10.584,-0.479,-0.865,0.0
10.016,-0.454,-0.871,1.0
9.614,-0.436,-0.887,0.0
12.711,-0.574,-0.816,1.0
11.991,-0.542,-0.832,0.0
11.343,-0.513,-0.847,0.0
10.77,-0.487,-0.861,0.0
10.241,-0.463,-0.873,0.0
9.763,-0.442,-0.884,2.0
12.955,-0.584,-0.809,0.0
12.212,-0.55,-0.827,0.0
11.555,-0.521,-0.842,0.0
10.971,-0.495,-0.858,0.0
10.419,-0.47,-0.87,0.0
9.876,-0.446,-0.876,2.0
13.248,-0.595,-0.804,0.0
12.449,-0.559,-0.821,0.0
11.751,-0.528,-0.836,0.0
11.155,-0.501,-0.853,0.0
10.6,-0.476,-0.866,0.0
10.027,-0.451,-0.872,0.0
13.509,-0.605,-0.796,1.0
12.722,-0.569,-0.816,1.0
11.993,-0.537,-0.832,0.0
11.355,-0.508,-0.848,0.0
10.803,-0.483,-0.864,0.0
10.254,-0.459,-0.874,0.0
13.795,-0.614,-0.789,1.0
12.994,-0.579,-0.811,1.0
12.228,-0.544,-0.827,0.0
11.568,-0.515,-0.844,0.0
10.971,-0.488,-0.858,0.0
10.419,-0.463,-0.869,0.0
14.1,-0.624,-0.782,1.0
13.267,-0.587,-0.804,1.0
12.467,-0.551,-0.821,0.0
11.775,-0.521,-0.838,0.0
11.174,-0.494,-0.854,0.0
10.619,-0.469,-0.867,0.0
14.473,-0.637,-0.776,1.0
13.542,-0.595,-0.797,1.0
12.757,-0.56,-0.817,0.0
12.009,-0.527,-0.833,0.0
11.385,-0.499,-0.849,0.0
10.807,-0.474,-0.863,0.0
14.823,-0.647,-0.769,1.0
13.823,-0.603,-0.789,1.0
13.03,-0.568,-0.811,0.0
12.257,-0.534,-0.828,0.0
11.596,-0.504,-0.844,0.0
11.014,-0.479,-0.859,0.0
15.209,-0.658,-0.761,1.0
14.168,-0.612,-0.783,1.0
13.295,-0.574,-0.804,1.0
12.509,-0.54,-0.823,0.0
11.809,-0.509,-0.838,0.0
11.216,-0.483,-0.855,0.0
15.611,-0.669,-0.754,1.0
14.504,-0.621,-0.776,1.0
13.58,-0.58,-0.797,1.0
12.796,-0.546,-0.819,0.0
12.044,-0.514,-0.833,1.0
11.426,-0.487,-0.85,0.0
16.001,-0.679,-0.744,1.0
14.887,-0.63,-0.769,1.0
13.887,-0.587,-0.79,1.0
13.072,-0.552,-0.813,1.0
12.282,-0.518,-0.827,0.0
11.632,-0.49,-0.844,0.0
16.467,-0.69,-0.735,1.0
15.273,-0.639,-0.761,1.0
14.212,-0.594,-0.782,1.0
13.356,-0.557,-0.806,1.0
12.558,-0.523,-0.823,1.0
11.849,-0.492,-0.838,0.0
16.984,-0.702,-0.727,1.0
15.655,-0.646,-0.752,1.0
14.569,-0.6,-0.775,1.0
13.635,-0.561,-0.798,0.0
12.847,-0.527,-0.819,1.0
12.11,-0.496,-0.835,0.0
17.502,-0.714,-0.718,1.0
16.121,-0.656,-0.745,1.0
14.959,-0.607,-0.769,1.0
13.93,-0.564,-0.79,1.0
13.131,-0.531,-0.813,1.0
12.343,-0.498,-0.828,1.0
17.99,-0.722,-0.705,2.0
16.581,-0.664,-0.736,1.0
15.354,-0.613,-0.761,1.0
14.254,-0.568,-0.782,1.0
13.407,-0.533,-0.805,1.0
12.618,-0.501,-0.824,1.0
18.535,-0.732,-0.693,1.0
17.08,-0.673,-0.727,1.0
15.738,-0.618,-0.752,1.0
14.636,-0.573,-0.776,1.0
13.675,-0.534,-0.797,1.0
12.885,-0.502,-0.817,1.0
19.105,-0.741,-0.68,1.0
17.602,-0.681,-0.717,1.0
16.174,-0.624,-0.743,1.0
15.009,-0.577,-0.769,1.0
13.998,-0.537,-0.79,1.0
13.167,-0.503,-0.812,1.0
19.742,-0.751,-0.666,1.0
18.084,-0.686,-0.704,1.0
16.66,-0.63,-0.735,1.0
15.385,-0.58,-0.76,1.0
14.341,-0.539,-0.783,1.0
13.468,-0.504,-0.806,1.0
20.423,-0.761,-0.653,1.0
18.695,-0.694,-0.694,1.0
17.178,-0.636,-0.727,1.0
15.8,-0.583,-0.752,1.0
14.715,-0.541,-0.777,1.0
13.751,-0.504,-0.798,1.0
21.189,-0.772,-0.639,1.0
19.237,-0.698,-0.679,1.0
17.699,-0.64,-0.717,1.0
16.223,-0.584,-0.743,1.0
15.093,-0.542,-0.77,1.0
14.046,-0.502,-0.789,1.0
21.923,-0.78,-0.621,1.0
19.85,-0.703,-0.666,1.0
18.185,-0.642,-0.704,1.0
16.729,-0.588,-0.736,1.0
15.456,-0.541,-0.76,1.0
14.4,-0.502,-0.783,1.0
22.801,-0.791,-0.606,2.0
20.515,-0.708,-0.651,1.0
18.732,-0.644,-0.692,1.0
17.236,-0.59,-0.728,1.0
15.882,-0.541,-0.753,1.0
14.785,-0.501,-0.778,1.0
23.553,-0.794,-0.583,1.0
21.318,-0.716,-0.638,1.0
19.322,-0.646,-0.679,1.0
17.71,-0.589,-0.716,1.0
16.324,-0.54,-0.745,1.0
15.151,-0.499,-0.77,1.0
24.568,-0.805,-0.565,1.0
22.072,-0.719,-0.622,1.0
19.968,-0.647,-0.666,1.0
18.248,-0.589,-0.705,1.0
16.762,-0.538,-0.735,0.0
15.504,-0.495,-0.761,1.0
25.573,-0.812,-0.543,1.0
22.921,-0.724,-0.606,1.0
20.567,-0.646,-0.65,1.0
18.734,-0.585,-0.692,1.0
17.296,-0.537,-0.728,1.0
15.897,-0.491,-0.752,1.0
26.545,-0.815,-0.518,1.0
23.693,-0.723,-0.585,1.0
21.337,-0.647,-0.637,1.0
19.36,-0.584,-0.681,1.0
17.762,-0.532,-0.717,1.0
16.33,-0.487,-0.744,1.0
27.525,-0.815,-0.489,2.0
24.688,-0.726,-0.566,1.0
22.116,-0.647,-0.622,1.0
19.952,-0.58,-0.667,1.0
18.259,-0.527,-0.706,1.0
16.811,-0.482,-0.737,1.0
28.634,-0.815,-0.459,1.0
25.637,-0.725,-0.544,1.0
22.956,-0.645,-0.606,1.0
20.641,-0.576,-0.655,3.0
18.804,-0.521,-0.694,1.0
17.289,-0.476,-0.728,1.0
29.988,-0.819,-0.429,2.0
26.558,-0.72,-0.518,1.0
23.705,-0.638,-0.586,1.0
21.157,-0.565,-0.635,2.0
19.353,-0.513,-0.681,1.0
17.772,-0.468,-0.719,1.0
30.97,-0.809,-0.391,1.0
27.495,-0.712,-0.49,1.0
24.69,-0.635,-0.568,1.0
22.074,-0.563,-0.625,1.0
19.952,-0.505,-0.669,1.0
18.282,-0.459,-0.708,1.0
32.856,-0.817,-0.359,1.0
28.578,-0.705,-0.461,1.0
25.559,-0.625,-0.545,1.0
22.876,-0.555,-0.61,1.0
20.581,-0.495,-0.656,1.0
18.743,-0.446,-0.695,1.0
0.0,0.0,0.0,0.0
29.619,-0.693,-0.429,1.0
26.556,-0.616,-0.523,1.0
23.621,-0.543,-0.591,2.0
21.253,-0.484,-0.642,1.0
19.316,-0.435,-0.685,1.0
40.219,-0.899,-0.308,2.0
30.865,-0.682,-0.397,1.0
27.406,-0.6,-0.495,1.0
24.517,-0.531,-0.573,1.0
22.102,-0.474,-0.632,3.0
19.909,-0.422,-0.673,1.0
40.275,-0.846,-0.242,3.0
32.638,-0.678,-0.366,1.0
28.462,-0.585,-0.468,1.0
25.436,-0.517,-0.554,1.0
22.719,-0.456,-0.613,3.0
20.483,-0.407,-0.66,1.0
46.676,-0.916,-0.205,6.0
33.989,-0.659,-0.327,0.0
29.456,-0.564,-0.437,1.0
26.257,-0.497,-0.529,1.0
23.469,-0.439,-0.596,1.0
21.106,-0.389,-0.646,1.0
40.311,-0.735,-0.113,67.0
40.145,-0.722,-0.322,2.0
30.454,-0.541,-0.404,1.0
27.054,-0.474,-0.503,1.0
24.249,-0.419,-0.577,1.0
21.792,-0.371,-0.633,1.0
40.333,-0.678,-0.05,27.0
40.202,-0.666,-0.26,6.0
31.976,-0.521,-0.374,1.0
28.13,-0.452,-0.479,1.0
25.178,-0.398,-0.56,1.0
22.569,-0.351,-0.62,1.0
61.565,-0.944,0.018,2.0
46.145,-0.696,-0.227,1.0
33.947,-0.503,-0.345,1.0
29.101,-0.425,-0.451,1.0
26.023,-0.373,-0.54,1.0
23.265,-0.327,-0.604,2.0
183.461,-2.541,0.335,6.0
50.794,-0.69,-0.172,1.0
35.985,-0.48,-0.311,0.0
30.004,-0.392,-0.419,2.0
26.891,-0.345,-0.517,1.0
23.941,-0.301,-0.586,2.0
0.0,0.0,0.0,0.0
54.558,-0.659,-0.105,2.0
42.112,-0.497,-0.301,1.0
31.081,-0.359,-0.389,2.0
27.885,-0.314,-0.495,1.0
24.808,-0.273,-0.57,2.0
77.588,-0.836,0.372,5.0
54.549,-0.573,-0.023,4.0
0.0,0.0,0.0,0.0
32.848,-0.327,-0.362,1.0
28.653,-0.278,-0.466,4.0
25.687,-0.242,-0.553,2.0
77.415,-0.711,0.485,13.0
51.966,-0.464,0.052,3.0
47.359,-0.41,-0.201,8.0
34.059,-0.285,-0.326,0.0
29.471,-0.239,-0.437,2.0
26.444,-0.207,-0.532,3.0
79.351,-0.601,0.61,61.0
60.898,-0.444,0.148,6.0
45.096,-0.317,-0.127,4.0
39.523,-0.267,-0.323,3.0
30.342,-0.196,-0.408,1.0
27.069,-0.168,-0.506,2.0
79.462,-0.473,0.722,164.0
61.357,-0.347,0.234,14.0
46.474,-0.25,-0.066,20.0
39.537,-0.202,-0.269,4.0
31.533,-0.152,-0.381,1.0
28.011,-0.127,-0.486,2.0
79.464,-0.34,0.831,151.0
76.537,-0.307,0.397,11.0
47.753,-0.178,-0.004,21.0
39.647,-0.137,-0.216,14.0
32.777,-0.104,-0.352,1.0
29.01,-0.084,-0.464,2.0
79.463,-0.207,0.937,151.0
79.147,-0.184,0.515,11.0
51.351,-0.105,0.063,6.0
40.273,-0.07,-0.166,16.0
36.984,-0.054,-0.348,0.0
29.688,-0.035,-0.436,3.0
79.463,-0.072,1.041,151.0
79.356,-0.049,0.621,59.0
55.762,-0.019,0.141,29.0
43.749,-0.002,-0.124,6.0
38.294,0.008,-0.311,3.0
30.463,0.015,-0.409,1.0
79.457,0.063,1.142,151.0
79.437,0.086,0.721,150.0
61.933,0.085,0.235,7.0
0.0,0.0,0.0,0.0
38.438,0.075,-0.265,13.0
31.494,0.07,-0.383,1.0
79.455,0.202,1.241,158.0
79.453,0.225,0.82,151.0
75.791,0.237,0.381,11.0
46.914,0.16,-0.017,25.0
38.75,0.143,-0.219,32.0
32.861,0.131,-0.36,1.0
59.299,0.255,0.998,113.0
59.299,0.272,0.684,126.0
59.314,0.29,0.369,21.0
54.562,0.283,0.045,7.0
39.204,0.214,-0.175,47.0
33.524,0.193,-0.328,0.0
48.14,0.293,0.867,83.0
48.13,0.307,0.612,57.0
48.124,0.322,0.356,49.0
48.041,0.335,0.095,51.0
39.726,0.289,-0.131,20.0
37.493,0.284,-0.323,3.0
48.114,0.38,0.923,128.0
48.085,0.395,0.667,114.0
48.062,0.409,0.411,110.0
48.007,0.423,0.151,97.0
44.108,0.402,-0.096,18.0
37.549,0.353,-0.281,10.0
48.126,0.469,0.977,107.0
48.107,0.483,0.721,105.0
48.083,0.497,0.464,104.0
48.027,0.511,0.203,92.0
0.0,0.0,0.0,0.0
37.855,0.426,-0.242,26.0
55.054,0.638,1.178,29.0
48.205,0.574,0.775,32.0
48.152,0.587,0.517,36.0
48.076,0.601,0.255,73.0
47.34,0.607,0.0,44.0
38.154,0.501,-0.203,46.0
190.179,2.561,4.273,17.0
128.179,1.766,2.196,11.0
121.192,1.707,1.43,14.0
75.095,1.08,0.477,12.0
47.943,0.704,0.048,46.0
38.763,0.581,-0.167,49.0
190.126,2.92,4.468,11.0
189.693,2.969,3.442,18.0
126.284,2.016,1.617,17.0
77.696,1.264,0.571,23.0
0.0,0.0,0.0,0.0
39.546,0.667,-0.132,32.0
181.238,3.124,4.437,6.0
128.166,2.248,2.451,19.0
126.272,2.253,1.739,31.0
77.815,1.412,0.647,23.0
58.522,1.08,0.173,13.0
44.456,0.834,-0.106,15.0
128.015,2.45,3.256,36.0
128.025,2.489,2.569,33.0
0.0,0.0,0.0,0.0
78.183,1.569,0.723,11.0
0.0,0.0,0.0,0.0
0.0,0.0,0.0,0.0
128.156,2.698,3.376,32.0
128.215,2.74,2.69,5.0
106.073,2.299,1.656,1.0
80.1,1.76,0.812,12.0
60.691,1.353,0.29,34.0
46.775,1.057,-0.027,22.0
169.32,3.893,4.61,5.0
0.0,0.0,0.0,0.0
106.119,2.503,1.748,3.0
89.695,2.144,0.986,5.0
61.386,1.486,0.344,12.0
47.958,1.175,0.011,22.0
137.99,3.438,3.873,8.0
100.373,2.533,2.277,16.0
100.326,2.561,1.735,4.0
106.071,2.741,1.253,38.0
74.751,1.955,0.481,16.0
48.627,1.287,0.051,22.0
154.028,4.141,4.449,43.0
0.0,0.0,0.0,0.0
0.0,0.0,0.0,0.0
105.988,2.949,1.337,21.0
74.787,2.103,0.539,14.0
0.0,0.0,0.0,0.0
154.07,4.445,4.569,41.0
0.0,0.0,0.0,0.0
0.0,0.0,0.0,0.0
100.56,2.993,1.343,4.0
77.742,2.339,0.618,15.0
54.2,1.647,0.138,28.0
158.321,4.876,4.81,9.0
0.0,0.0,0.0,0.0
0.0,0.0,0.0,0.0
100.651,3.193,1.415,4.0
77.868,2.495,0.674,42.0
58.588,1.895,0.19,6.0
159.031,5.211,4.942,10.0
0.0,0.0,0.0,0.0
0.0,0.0,0.0,0.0
0.0,0.0,0.0,0.0
78.139,2.657,0.728,27.0
58.84,2.02,0.23,17.0
157.343,5.47,4.993,15.0
159.31,5.586,4.192,4.0
0.0,0.0,0.0,0.0
0.0,0.0,0.0,0.0
78.302,2.817,0.778,16.0
59.176,2.148,0.268,32.0
160.041,5.881,5.178,8.0
160.27,5.937,4.314,16.0
0.0,0.0,0.0,0.0
0.0,0.0,0.0,0.0
79.363,3.012,0.835,10.0
59.277,2.268,0.302,33.0
156.982,6.078,5.17,5.0
158.503,6.185,4.357,10.0
0.0,0.0,0.0,0.0
0.0,0.0,0.0,0.0
79.893,3.191,0.885,6.0
59.132,2.379,0.334,9.0
173.023,7.042,5.791,5.0
158.41,6.493,4.439,10.0
0.0,0.0,0.0,0.0
0.0,0.0,0.0,0.0
93.346,3.912,1.081,5.0
73.666,3.11,0.453,13.0
156.695,6.689,5.323,15.0
157.276,6.762,4.486,6.0
0.0,0.0,0.0,0.0
0.0,0.0,0.0,0.0
92.899,4.078,1.121,4.0
73.657,3.256,0.487,12.0
157.201,7.024,5.413,14.0
173.768,7.815,5.035,12.0
0.0,0.0,0.0,0.0
0.0,0.0,0.0,0.0
96.223,4.413,1.202,5.0
73.559,3.397,0.518,10.0
156.69,7.311,5.462,9.0
174.253,8.182,5.121,10.0
0.0,0.0,0.0,0.0
0.0,0.0,0.0,0.0
105.896,5.067,1.365,3.0
0.0,0.0,0.0,0.0
174.607,8.493,6.153,9.0
156.326,7.649,4.653,17.0
0.0,0.0,0.0,0.0
0.0,0.0,0.0,0.0
105.817,5.27,1.401,32.0
74.947,3.755,0.582,18.0
156.756,7.933,5.578,15.0
157.532,8.019,4.742,13.0
167.103,8.554,4.114,5.0
0.0,0.0,0.0,0.0
105.83,5.48,1.434,65.0
75.312,3.922,0.608,24.0
157.617,8.29,5.658,12.0
162.442,8.592,4.939,9.0
162.549,8.644,4.049,13.0
162.552,8.691,3.141,12.0
105.816,5.688,1.464,6.0
75.277,4.069,0.628,21.0
158.482,8.65,5.731,8.0
162.518,8.916,4.984,6.0
163.115,8.995,4.106,21.0
163.107,9.042,3.191,32.0
0.0,0.0,0.0,0.0
75.392,4.224,0.647,25.0
158.021,8.933,5.75,15.0
162.302,9.222,5.012,12.0
157.516,8.994,3.998,5.0
163.702,9.394,3.236,4.0
0.0,0.0,0.0,0.0
75.491,4.375,0.662,20.0
157.725,9.222,5.769,21.0
162.189,9.53,5.038,12.0
164.08,9.688,4.193,5.0
0.0,0.0,0.0,0.0
148.151,8.833,2.137,5.0
75.283,4.51,0.671,20.0
33.456,2.022,1.228,6.0
33.399,2.028,1.042,0.0
33.429,2.039,0.859,3.0
33.432,2.048,0.671,31.0
33.417,2.057,0.486,171.0
33.458,2.069,0.302,154.0
33.449,2.086,1.232,7.0
158.125,9.908,4.951,6.0
157.9,9.937,4.072,15.0
139.644,8.828,2.816,15.0
139.614,8.864,2.043,9.0
75.03,4.785,0.684,20.0
158.18,10.174,5.839,39.0
158.162,10.214,4.962,40.0
114.769,7.443,2.966,16.0
139.646,9.096,2.822,19.0
139.606,9.133,2.049,78.0
74.484,4.893,0.681,12.0
158.048,10.469,5.839,41.0
158.054,10.512,4.963,47.0
114.666,7.658,2.965,26.0
139.68,9.366,2.825,22.0
114.057,7.678,1.675,11.0
74.392,5.028,0.681,15.0
157.973,10.763,5.835,39.0
157.956,10.803,4.958,59.0
114.664,7.873,2.963,34.0
114.553,7.897,2.314,20.0
114.709,7.937,1.68,10.0
74.433,5.171,0.678,30.0
157.919,11.057,5.827,41.0
157.915,11.098,4.948,51.0
114.757,8.095,2.959,42.0
139.618,9.886,2.811,23.0
139.737,9.932,2.038,8.0
74.316,5.302,0.67,34.0
157.439,11.319,5.796,28.0
31.332,2.26,0.979,1.0
31.357,2.27,0.805,2.0
139.644,10.148,2.797,27.0
103.806,7.57,1.502,56.0
74.162,5.428,0.66,42.0
66.529,4.906,2.441,132.0
31.206,2.308,0.971,22.0
31.232,2.318,0.798,152.0
31.251,2.328,0.621,44.0
31.262,2.337,0.447,33.0
73.968,5.549,0.648,24.0
31.141,2.353,1.137,47.0
31.165,2.363,0.964,150.0
31.131,2.368,0.79,43.0
31.156,2.378,0.614,56.0
31.167,2.386,0.44,29.0
31.289,2.404,0.268,10.0
31.109,2.407,1.13,182.0
31.106,2.414,0.956,44.0
31.116,2.423,0.783,57.0
31.127,2.431,0.607,59.0
31.112,2.438,0.433,45.0
31.27,2.458,0.261,19.0
31.109,2.463,1.123,168.0
31.079,2.468,0.948,34.0
31.123,2.479,0.776,59.0
31.102,2.485,0.598,63.0
31.117,2.494,0.425,62.0
31.242,2.512,0.252,19.0
31.114,2.519,1.115,162.0
31.07,2.523,0.939,30.0
31.096,2.532,0.766,45.0
31.105,2.54,0.589,61.0
31.101,2.547,0.416,64.0
31.199,2.563,0.243,34.0
31.083,2.571,1.104,170.0
31.114,2.58,0.931,74.0
31.118,2.588,0.757,58.0
31.075,2.592,0.579,37.0
31.105,2.602,0.405,60.0
31.181,2.616,0.232,35.0
31.083,2.625,1.094,186.0
31.147,2.637,0.921,155.0
31.087,2.639,0.745,44.0
31.081,2.646,0.568,44.0
31.103,2.655,0.394,44.0
31.175,2.668,0.22,27.0
31.185,2.686,1.086,4.0
31.147,2.69,0.91,154.0
31.106,2.693,0.734,35.0
31.112,2.701,0.557,41.0
31.149,2.711,0.383,37.0
31.222,2.725,0.208,20.0
120.623,10.595,4.152,31.0
31.178,2.745,0.898,155.0
31.196,2.753,0.723,54.0
31.202,2.761,0.545,54.0
31.231,2.77,0.37,32.0
0.0,0.0,0.0,0.0
120.497,10.783,4.094,10.0
31.187,2.797,0.884,18.0
115.74,10.406,2.632,9.0
115.566,10.416,1.966,10.0
75.096,6.785,0.856,3.0
13.89,1.258,0.08,4.0
114.793,10.458,3.847,32.0
31.269,2.855,0.871,6.0
13.84,1.266,0.308,8.0
13.848,1.27,0.228,8.0
13.862,1.274,0.151,14.0
13.859,1.277,0.073,20.0
13.859,1.285,0.457,24.0
13.844,1.286,0.378,30.0
13.833,1.288,0.3,29.0
13.83,1.29,0.221,24.0
13.843,1.294,0.143,30.0
13.835,1.297,0.065,30.0
13.837,1.304,0.449,36.0
13.827,1.306,0.37,39.0
13.812,1.308,0.292,34.0
13.815,1.311,0.213,34.0
13.818,1.314,0.135,36.0
13.814,1.316,0.057,35.0
13.83,1.325,0.44,39.0
13.815,1.326,0.362,73.0
13.791,1.327,0.284,37.0
13.799,1.33,0.204,37.0
13.805,1.333,0.127,52.0
13.8,1.336,0.049,36.0
13.814,1.344,0.432,43.0
13.8,1.346,0.353,133.0
13.782,1.347,0.275,91.0
13.78,1.349,0.196,39.0
13.8,1.354,0.118,76.0
13.789,1.355,0.04,38.0
13.798,1.363,0.422,68.0
13.79,1.365,0.344,145.0
13.772,1.366,0.266,111.0
13.772,1.368,0.187,67.0
13.787,1.372,0.109,72.0
13.777,1.374,0.031,38.0
13.781,1.382,0.413,47.0
13.782,1.384,0.335,120.0
13.765,1.385,0.256,135.0
13.761,1.387,0.177,54.0
13.782,1.392,0.1,78.0
13.778,1.394,0.022,38.0
13.782,1.401,0.403,51.0
13.774,1.403,0.325,137.0
13.759,1.404,0.247,147.0
13.755,1.406,0.168,38.0
13.777,1.41,0.09,63.0
13.78,1.413,0.012,37.0
13.771,1.419,0.393,56.0
13.77,1.421,0.315,144.0
13.761,1.423,0.237,104.0
13.768,1.426,0.157,39.0
13.787,1.43,0.079,63.0
13.776,1.432,0.001,37.0
13.776,1.438,0.383,51.0
13.775,1.441,0.305,91.0
13.771,1.442,0.226,77.0
13.771,1.445,0.147,38.0
13.783,1.449,0.069,57.0
13.78,1.451,-0.008,35.0
13.782,1.457,0.372,41.0
13.774,1.459,0.294,95.0
13.778,1.461,0.216,104.0
13.772,1.463,0.136,39.0
13.782,1.466,0.058,38.0
13.787,1.469,-0.019,33.0
13.788,1.475,0.361,40.0
13.778,1.476,0.283,45.0
13.781,1.479,0.205,64.0
13.787,1.482,0.125,37.0
13.786,1.484,0.047,34.0
13.794,1.487,-0.03,29.0
13.801,1.494,0.35,38.0
13.798,1.496,0.272,38.0
13.787,1.497,0.193,36.0
13.792,1.499,0.113,33.0
13.798,1.502,0.035,28.0
13.811,1.506,-0.042,26.0
13.815,1.512,0.339,32.0
13.789,1.511,0.26,35.0
13.793,1.514,0.181,22.0
13.797,1.516,0.102,21.0
13.811,1.52,0.023,19.0
13.826,1.524,-0.054,19.0
13.827,1.53,0.327,17.0
13.808,1.529,0.248,22.0
13.838,1.535,0.17,12.0
32.13,3.568,0.209,5.0
13.858,1.541,0.011,12.0
13.862,1.544,-0.067,14.0
32.187,3.598,0.733,5.0
32.151,3.598,0.549,11.0
32.153,3.602,0.366,28.0
32.13,3.604,0.18,20.0
32.174,3.614,-0.002,20.0
35.365,3.977,-0.204,12.0
32.184,3.632,0.703,24.0
32.14,3.631,0.519,47.0
32.154,3.637,0.336,24.0
32.137,3.64,0.15,32.0
32.176,3.648,-0.032,40.0
34.739,3.944,-0.233,35.0
32.174,3.665,0.673,15.0
32.141,3.665,0.489,14.0
10.01,1.142,0.095,2.0
32.159,3.675,0.119,11.0
32.183,3.682,-0.063,13.0
34.477,3.949,-0.264,5.0
32.16,3.696,0.641,5.0
32.184,3.702,0.459,6.0
33.901,3.903,0.29,27.0
32.181,3.709,0.088,5.0
32.208,3.717,-0.094,5.0
10.004,1.155,-0.086,13.0
10.015,1.16,0.19,20.0
10.014,1.161,0.133,21.0
10.009,1.162,0.075,22.0
10.012,1.163,0.017,19.0
10.014,1.165,-0.039,19.0
10.004,1.165,-0.096,18.0
10.015,1.17,0.18,69.0
10.01,1.17,0.122,125.0
10.006,1.171,0.065,110.0
10.0,1.171,0.007,71.0
10.006,1.173,-0.049,60.0
10.003,1.174,-0.106,21.0
10.004,1.177,0.169,80.0
10.0,1.178,0.112,143.0
9.995,1.178,0.055,130.0
9.992,1.179,-0.002,62.0
9.995,1.18,-0.059,76.0
10.0,1.182,-0.116,29.0
9.985,1.183,0.159,70.0
9.988,1.185,0.102,137.0
9.99,1.186,0.045,126.0
9.985,1.186,-0.013,70.0
9.99,1.188,-0.07,75.0
9.988,1.189,-0.127,38.0
9.987,1.191,0.148,81.0
9.981,1.192,0.091,131.0
9.982,1.193,0.034,128.0
9.973,1.193,-0.023,90.0
9.985,1.195,-0.08,86.0
9.984,1.196,-0.137,41.0
9.975,1.197,0.138,98.0
9.975,1.198,0.08,150.0
9.979,1.2,0.023,150.0
9.97,1.2,-0.034,111.0
9.978,1.201,-0.091,101.0
9.981,1.203,-0.148,54.0
9.976,1.205,0.127,97.0
9.97,1.205,0.07,150.0
9.974,1.206,0.013,133.0
9.97,1.207,-0.045,119.0
9.976,1.208,-0.102,97.0
9.972,1.209,-0.159,58.0
9.974,1.211,0.116,105.0
9.972,1.212,0.059,150.0
9.977,1.213,0.002,150.0
9.968,1.213,-0.055,118.0
9.972,1.214,-0.112,100.0
9.964,1.214,-0.169,59.0
9.975,1.217,0.105,118.0
9.971,1.218,0.048,150.0
9.968,1.218,-0.008,124.0
9.974,1.219,-0.066,116.0
9.975,1.22,-0.124,106.0
9.971,1.221,-0.181,64.0
9.969,1.222,0.094,111.0
9.976,1.224,0.037,150.0
9.966,1.223,-0.019,112.0
9.969,1.224,-0.077,114.0
9.968,1.225,-0.135,112.0
9.971,1.226,-0.192,66.0
9.973,1.228,0.083,108.0
9.97,1.228,0.026,150.0
9.974,1.229,-0.03,150.0
9.972,1.23,-0.089,114.0
9.976,1.231,-0.146,112.0
9.97,1.231,-0.203,66.0
9.968,1.232,0.071,108.0
9.973,1.234,0.014,150.0
9.968,1.233,-0.042,150.0
9.964,1.234,-0.1,113.0
9.975,1.236,-0.157,110.0
9.969,1.236,-0.214,68.0
9.972,1.237,0.06,111.0
9.975,1.238,0.003,128.0
9.971,1.238,-0.053,150.0
9.968,1.238,-0.111,109.0
9.97,1.239,-0.168,106.0
9.966,1.239,-0.225,59.0
9.972,1.241,0.049,105.0
9.978,1.242,-0.007,64.0
9.975,1.242,-0.065,150.0
9.971,1.242,-0.123,107.0
9.969,1.243,-0.18,114.0
9.967,1.243,-0.237,64.0
9.977,1.245,0.037,104.0
9.977,1.246,-0.019,103.0
9.98,1.246,-0.076,150.0
9.963,1.245,-0.134,107.0
9.976,1.247,-0.191,116.0
9.975,1.247,-0.249,64.0
9.97,1.247,0.026,97.0
9.974,1.248,-0.03,150.0
9.98,1.249,-0.087,150.0
9.97,1.248,-0.145,105.0
9.967,1.248,-0.203,112.0
9.966,1.249,-0.26,66.0
9.967,1.25,0.015,83.0
9.974,1.251,-0.042,150.0
9.98,1.252,-0.099,150.0
9.961,1.25,-0.157,115.0
9.977,1.252,-0.214,114.0
9.971,1.252,-0.271,66.0
9.979,1.253,0.003,78.0
9.978,1.253,-0.053,150.0
9.979,1.254,-0.11,150.0
9.967,1.252,-0.168,103.0
9.971,1.253,-0.226,105.0
9.968,1.253,-0.283,62.0
9.979,1.255,-0.007,52.0
9.971,1.254,-0.065,150.0
9.976,1.255,-0.122,150.0
9.965,1.253,-0.18,106.0
9.971,1.254,-0.237,111.0
9.969,1.255,-0.294,58.0
9.977,1.255,-0.019,69.0
9.97,1.255,-0.076,150.0
9.979,1.256,-0.133,150.0
9.968,1.255,-0.191,99.0
9.97,1.255,-0.249,102.0
9.962,1.255,-0.306,58.0
9.971,1.255,-0.03,95.0
9.971,1.255,-0.087,150.0
9.972,1.256,-0.145,150.0
9.967,1.255,-0.203,104.0
9.973,1.256,-0.26,109.0
9.972,1.256,-0.317,55.0
9.972,1.256,-0.042,102.0
9.975,1.256,-0.099,150.0
9.976,1.256,-0.156,150.0
9.968,1.255,-0.214,109.0
9.971,1.256,-0.271,109.0
9.974,1.256,-0.329,60.0
9.972,1.256,-0.053,97.0
9.977,1.256,-0.11,150.0
9.975,1.256,-0.167,150.0
9.97,1.255,-0.226,105.0
9.97,1.255,-0.283,103.0
9.971,1.255,-0.34,60.0
9.975,1.255,-0.064,105.0
9.973,1.255,-0.122,150.0
9.978,1.255,-0.179,150.0
9.97,1.254,-0.237,107.0
9.972,1.255,-0.294,110.0
9.971,1.254,-0.351,59.0
9.972,1.254,-0.076,103.0
9.977,1.254,-0.133,150.0
9.978,1.254,-0.19,150.0
9.97,1.253,-0.248,104.0
9.97,1.253,-0.305,110.0
9.977,1.254,-0.363,61.0
9.973,1.252,-0.087,97.0
9.975,1.252,-0.144,150.0
9.975,1.252,-0.201,150.0
9.968,1.251,-0.259,100.0
9.972,1.251,-0.317,117.0
9.968,1.251,-0.374,68.0
9.973,1.25,-0.098,110.0
9.979,1.25,-0.155,150.0
9.978,1.25,-0.213,150.0
9.97,1.249,-0.271,105.0
9.97,1.249,-0.328,112.0
9.971,1.249,-0.385,59.0
9.973,1.247,-0.109,104.0
9.973,1.247,-0.166,150.0
9.979,1.247,-0.224,150.0
9.967,1.246,-0.281,96.0
9.97,1.246,-0.339,109.0
9.971,1.246,-0.396,64.0
9.973,1.244,-0.12,102.0
9.972,1.244,-0.177,150.0
9.975,1.244,-0.234,150.0
9.97,1.243,-0.293,101.0
9.97,1.243,-0.35,103.0
9.974,1.243,-0.407,60.0
9.975,1.241,-0.131,91.0
9.971,1.24,-0.188,150.0
9.975,1.24,-0.245,150.0
9.966,1.239,-0.303,101.0
9.97,1.239,-0.36,108.0
9.973,1.239,-0.418,64.0
9.977,1.237,-0.142,101.0
9.967,1.236,-0.199,150.0
9.975,1.236,-0.256,150.0
9.967,1.235,-0.314,99.0
9.974,1.235,-0.372,114.0
9.968,1.234,-0.428,65.0
9.972,1.232,-0.152,99.0
9.973,1.232,-0.21,150.0
9.971,1.231,-0.267,150.0
9.968,1.23,-0.325,104.0
9.973,1.231,-0.382,115.0
9.971,1.23,-0.439,59.0
9.961,1.226,-0.163,110.0
9.968,1.226,-0.22,150.0
9.974,1.227,-0.277,150.0
9.965,1.225,-0.335,102.0
9.972,1.225,-0.392,100.0
9.975,1.225,-0.45,54.0
9.975,1.223,-0.173,108.0
9.975,1.222,-0.23,150.0
9.974,1.221,-0.287,150.0
9.965,1.22,-0.345,94.0
9.985,1.222,-0.403,99.0
9.973,1.22,-0.46,53.0
9.974,1.217,-0.183,98.0
9.971,1.216,-0.24,150.0
9.974,1.215,-0.297,150.0
9.975,1.215,-0.355,104.0
9.975,1.214,-0.413,95.0
9.986,1.215,-0.47,26.0
9.976,1.211,-0.193,91.0
9.98,1.211,-0.25,144.0
9.978,1.21,-0.307,150.0
9.975,1.209,-0.365,78.0
9.978,1.208,-0.423,73.0
9.98,1.208,-0.48,25.0
9.974,1.204,-0.203,86.0
9.98,1.204,-0.26,133.0
9.983,1.204,-0.317,143.0
9.978,1.202,-0.375,65.0
9.985,1.202,-0.433,66.0
9.99,1.203,-0.49,22.0
9.982,1.198,-0.213,65.0
9.99,1.198,-0.27,146.0
9.988,1.197,-0.327,134.0
9.988,1.196,-0.385,71.0
9.996,1.197,-0.443,81.0
10.0,1.196,-0.5,35.0
9.992,1.192,-0.222,74.0
10.002,1.192,-0.28,150.0
9.992,1.19,-0.336,124.0
9.995,1.19,-0.395,73.0
10.001,1.189,-0.452,73.0
10.008,1.19,-0.51,34.0
10.01,1.186,-0.232,76.0
10.016,1.186,-0.289,134.0
10.004,1.183,-0.346,119.0
9.996,1.182,-0.404,49.0
10.014,1.183,-0.462,37.0
10.008,1.182,-0.519,19.0
10.013,1.178,-0.241,53.0
10.013,1.177,-0.298,68.0
10.009,1.176,-0.355,41.0
10.007,1.175,-0.413,17.0
10.012,1.174,-0.471,52.0
10.007,1.173,-0.528,17.0
10.018,1.17,-0.25,19.0
13.853,1.617,-0.425,4.0
13.771,1.606,-0.501,5.0
13.414,1.563,-0.566,5.0
13.063,1.521,-0.626,6.0
10.009,1.164,-0.536,4.0
13.861,1.607,-0.358,3.0
13.825,1.601,-0.436,8.0
13.739,1.59,-0.511,7.0
13.355,1.544,-0.574,6.0
13.054,1.508,-0.636,8.0
12.167,1.404,-0.662,2.0
13.84,1.591,-0.369,8.0
13.795,1.585,-0.446,14.0
13.724,1.575,-0.522,13.0
13.295,1.524,-0.583,10.0
12.989,1.488,-0.643,7.0
12.048,1.379,-0.666,1.0
13.824,1.576,-0.379,18.0
13.782,1.569,-0.457,16.0
13.697,1.558,-0.532,15.0
13.19,1.499,-0.589,8.0
12.905,1.465,-0.65,4.0
11.94,1.354,-0.669,1.0
13.8,1.559,-0.389,20.0
13.762,1.553,-0.467,18.0
13.656,1.539,-0.541,12.0
13.102,1.475,-0.595,7.0
12.757,1.435,-0.652,2.0
11.805,1.327,-0.67,1.0
13.793,1.544,-0.399,24.0
13.752,1.537,-0.476,21.0
13.602,1.519,-0.549,10.0
13.098,1.461,-0.604,9.0
12.623,1.406,-0.654,2.0
11.651,1.297,-0.67,1.0
13.792,1.529,-0.409,28.0
13.743,1.521,-0.486,19.0
13.51,1.494,-0.554,9.0
13.073,1.444,-0.612,10.0
12.484,1.377,-0.656,1.0
11.561,1.274,-0.673,2.0
13.786,1.512,-0.419,32.0
13.734,1.505,-0.495,19.0
13.445,1.471,-0.561,9.0
13.07,1.428,-0.621,10.0
12.367,1.35,-0.658,1.0
11.498,1.254,-0.677,2.0
13.776,1.495,-0.427,34.0
13.717,1.487,-0.503,20.0
13.325,1.442,-0.565,13.0
13.075,1.413,-0.63,11.0
12.297,1.328,-0.662,1.0
11.381,1.227,-0.677,1.0
13.775,1.479,-0.436,38.0
13.718,1.47,-0.512,20.0
13.261,1.419,-0.57,16.0
13.068,1.397,-0.637,11.0
12.229,1.305,-0.666,2.0
11.299,1.205,-0.679,1.0
13.775,1.462,-0.444,37.0
13.708,1.452,-0.52,18.0
13.291,1.406,-0.579,10.0
13.055,1.379,-0.644,9.0
12.131,1.28,-0.667,2.0
11.224,1.183,-0.681,1.0
13.773,1.444,-0.452,33.0
13.694,1.434,-0.527,14.0
13.296,1.39,-0.587,9.0
12.999,1.357,-0.649,8.0
12.04,1.255,-0.669,1.0
11.163,1.162,-0.684,1.0
13.761,1.425,-0.459,28.0
13.662,1.413,-0.533,11.0
13.215,1.364,-0.59,12.0
12.972,1.337,-0.654,7.0
12.027,1.238,-0.674,1.0
11.12,1.143,-0.687,1.0
13.761,1.407,-0.466,29.0
13.656,1.394,-0.539,10.0
13.175,1.342,-0.595,11.0
12.896,1.312,-0.656,4.0
11.938,1.213,-0.675,1.0
11.061,1.122,-0.688,2.0
13.76,1.388,-0.472,32.0
13.656,1.375,-0.546,11.0
13.153,1.323,-0.6,8.0
12.812,1.286,-0.658,3.0
11.842,1.187,-0.675,1.0
10.997,1.1,-0.689,2.0
13.738,1.367,-0.477,24.0
13.619,1.353,-0.55,10.0
13.131,1.302,-0.604,7.0
12.74,1.261,-0.659,2.0
11.779,1.164,-0.676,1.0
10.94,1.079,-0.69,2.0
13.741,1.348,-0.483,22.0
13.617,1.333,-0.555,11.0
13.107,1.281,-0.608,8.0
12.669,1.236,-0.661,1.0
11.741,1.143,-0.678,1.0
10.906,1.06,-0.692,1.0
13.742,1.329,-0.488,22.0
13.6,1.312,-0.559,11.0
13.106,1.262,-0.613,9.0
12.616,1.213,-0.662,2.0
11.728,1.125,-0.682,1.0
10.904,1.044,-0.695,2.0
13.767,1.311,-0.493,29.0
13.586,1.291,-0.563,11.0
13.081,1.241,-0.616,8.0
12.573,1.19,-0.664,4.0
11.68,1.103,-0.682,1.0
10.881,1.026,-0.697,1.0
13.766,1.291,-0.497,24.0
13.562,1.269,-0.566,10.0
13.086,1.222,-0.62,9.0
12.546,1.169,-0.666,4.0
11.649,1.083,-0.684,1.0
10.834,1.005,-0.697,1.0
13.774,1.271,-0.501,19.0
13.565,1.249,-0.569,10.0
13.074,1.201,-0.622,9.0
12.538,1.149,-0.668,4.0
11.615,1.062,-0.684,2.0
10.828,0.988,-0.699,2.0
13.788,1.251,-0.504,16.0
13.527,1.224,-0.571,11.0
13.074,1.181,-0.625,10.0
12.53,1.129,-0.67,4.0
11.6,1.043,-0.686,1.0
10.806,0.97,-0.699,2.0
13.804,1.231,-0.508,17.0
13.553,1.206,-0.574,12.0
13.066,1.16,-0.627,9.0
12.507,1.108,-0.671,3.0
11.611,1.026,-0.688,2.0
10.804,0.952,-0.701,2.0
13.825,1.211,-0.51,14.0
13.57,1.186,-0.577,9.0
13.08,1.14,-0.629,9.0
12.465,1.084,-0.67,4.0
11.576,1.004,-0.687,2.0
10.806,0.935,-0.702,2.0
13.862,1.192,-0.513,14.0
13.594,1.166,-0.579,10.0
13.06,1.118,-0.629,8.0
12.467,1.064,-0.671,4.0
11.556,0.984,-0.687,2.0
10.827,0.92,-0.704,1.0
13.936,1.176,-0.517,13.0
13.612,1.146,-0.58,10.0
13.103,1.1,-0.632,9.0
12.479,1.045,-0.673,4.0
11.576,0.967,-0.688,2.0
10.819,0.901,-0.704,1.0
14.177,1.173,-0.526,9.0
13.579,1.121,-0.579,8.0
13.091,1.078,-0.631,9.0
12.494,1.026,-0.673,3.0
11.612,0.951,-0.691,2.0
10.82,0.884,-0.704,2.0
14.343,1.164,-0.532,8.0
13.63,1.103,-0.581,10.0
13.065,1.054,-0.63,8.0
12.54,1.009,-0.675,3.0
11.623,0.933,-0.691,2.0
10.835,0.867,-0.704,2.0
14.882,1.183,-0.551,2.0
13.602,1.078,-0.579,9.0
13.066,1.032,-0.629,8.0
12.572,0.991,-0.676,3.0
11.678,0.917,-0.693,2.0
10.859,0.851,-0.705,2.0
15.171,1.181,-0.56,3.0
13.667,1.06,-0.58,11.0
13.066,1.011,-0.627,8.0
12.601,0.972,-0.676,3.0
11.73,0.902,-0.695,2.0
10.881,0.834,-0.705,2.0
15.316,1.166,-0.563,3.0
13.761,1.044,-0.582,12.0
13.075,0.989,-0.626,7.0
12.669,0.955,-0.678,3.0
11.726,0.881,-0.692,1.0
10.908,0.818,-0.705,2.0
15.439,1.149,-0.565,3.0
13.836,1.027,-0.583,10.0
13.135,0.971,-0.626,7.0
12.718,0.937,-0.678,4.0
11.778,0.865,-0.693,2.0
10.978,0.804,-0.707,1.0
15.735,1.144,-0.573,2.0
13.901,1.007,-0.583,12.0
13.177,0.952,-0.625,7.0
12.814,0.922,-0.68,4.0
11.855,0.851,-0.695,2.0
11.031,0.789,-0.707,1.0
15.843,1.125,-0.572,2.0
13.99,0.99,-0.583,13.0
13.286,0.937,-0.627,9.0
12.91,0.907,-0.681,4.0
11.915,0.834,-0.695,2.0
11.056,0.771,-0.706,1.0
15.994,1.108,-0.573,2.0
14.142,0.976,-0.584,14.0
13.306,0.915,-0.623,9.0
12.983,0.889,-0.681,5.0
11.979,0.818,-0.694,2.0
11.141,0.758,-0.707,2.0
16.091,1.086,-0.571,3.0
14.39,0.968,-0.59,17.0
13.371,0.896,-0.621,12.0
13.01,0.868,-0.678,7.0
12.085,0.804,-0.696,2.0
11.205,0.743,-0.707,2.0
16.198,1.066,-0.569,4.0
14.616,0.958,-0.593,16.0
13.465,0.879,-0.621,11.0
13.028,0.847,-0.673,8.0
12.194,0.79,-0.697,2.0
11.29,0.729,-0.708,2.0
16.294,1.044,-0.565,4.0
14.649,0.934,-0.588,18.0
13.588,0.863,-0.62,12.0
13.064,0.826,-0.669,10.0
12.303,0.775,-0.698,2.0
11.39,0.715,-0.709,2.0
16.443,1.024,-0.563,4.0
14.653,0.909,-0.582,19.0
13.686,0.845,-0.618,12.0
13.066,0.803,-0.663,10.0
12.381,0.758,-0.696,3.0
11.453,0.698,-0.707,2.0
16.659,1.008,-0.562,2.0
14.682,0.884,-0.575,12.0
13.835,0.83,-0.618,11.0
13.072,0.781,-0.657,10.0
12.437,0.739,-0.693,2.0
11.562,0.684,-0.707,1.0
16.921,0.994,-0.561,2.0
14.838,0.867,-0.573,7.0
14.021,0.816,-0.618,11.0
13.051,0.756,-0.648,8.0
12.583,0.726,-0.694,2.0
11.68,0.671,-0.708,1.0
17.157,0.977,-0.559,3.0
15.165,0.86,-0.577,2.0
14.256,0.805,-0.62,14.0
13.102,0.736,-0.643,7.0
12.745,0.713,-0.695,3.0
11.815,0.658,-0.709,1.0
17.346,0.958,-0.554,4.0
15.623,0.859,-0.584,4.0
14.503,0.793,-0.621,16.0
13.335,0.726,-0.645,10.0
12.904,0.699,-0.695,4.0
11.883,0.64,-0.705,2.0
17.56,0.939,-0.549,3.0
15.908,0.846,-0.584,4.0
14.571,0.771,-0.614,19.0
13.452,0.708,-0.642,13.0
13.013,0.682,-0.692,7.0
12.048,0.628,-0.706,2.0
17.794,0.92,-0.544,3.0
16.158,0.831,-0.582,2.0
14.625,0.748,-0.606,19.0
13.58,0.691,-0.638,13.0
13.063,0.661,-0.685,10.0
12.213,0.615,-0.707,2.0
18.115,0.904,-0.541,3.0
16.4,0.814,-0.578,3.0
14.661,0.724,-0.596,18.0
13.797,0.677,-0.637,12.0
13.056,0.637,-0.674,11.0
12.361,0.6,-0.705,3.0
18.434,0.887,-0.535,3.0
16.639,0.796,-0.573,2.0
14.677,0.698,-0.585,10.0
14.083,0.666,-0.639,13.0
13.066,0.615,-0.664,10.0
12.498,0.585,-0.703,3.0
18.742,0.869,-0.529,3.0
16.996,0.784,-0.571,2.0
14.973,0.686,-0.584,5.0
14.359,0.654,-0.639,15.0
13.149,0.595,-0.657,9.0
12.722,0.573,-0.704,3.0
19.094,0.852,-0.522,3.0
17.334,0.769,-0.567,4.0
15.558,0.686,-0.593,3.0
14.534,0.637,-0.634,15.0
13.351,0.581,-0.655,12.0
12.901,0.558,-0.702,4.0
19.459,0.834,-0.514,3.0
17.598,0.75,-0.56,2.0
15.967,0.676,-0.594,2.0
14.586,0.613,-0.623,13.0
13.381,0.559,-0.643,13.0
13.004,0.54,-0.696,7.0
19.86,0.817,-0.506,3.0
17.866,0.73,-0.552,4.0
16.174,0.657,-0.586,2.0
14.634,0.59,-0.611,13.0
13.56,0.543,-0.639,9.0
13.06,0.52,-0.686,10.0
20.3,0.8,-0.497,4.0
18.264,0.715,-0.546,3.0
16.546,0.643,-0.583,2.0
14.642,0.565,-0.596,10.0
13.834,0.53,-0.638,8.0
13.069,0.497,-0.673,8.0
20.717,0.781,-0.487,4.0
18.599,0.696,-0.537,3.0
17.036,0.633,-0.583,5.0
14.989,0.553,-0.595,6.0
14.048,0.514,-0.633,3.0
13.291,0.483,-0.67,3.0
21.157,0.761,-0.474,4.0
19.08,0.681,-0.53,3.0
17.334,0.614,-0.574,5.0
15.679,0.551,-0.605,2.0
14.268,0.498,-0.627,1.0
13.613,0.471,-0.671,3.0
21.747,0.745,-0.464,4.0
19.513,0.663,-0.52,3.0
17.673,0.596,-0.566,4.0
16.066,0.538,-0.602,2.0
14.258,0.473,-0.61,0.0
13.938,0.459,-0.671,4.0
22.597,0.737,-0.456,5.0
20.001,0.646,-0.51,3.0
18.031,0.578,-0.556,5.0
16.4,0.521,-0.595,2.0
14.584,0.46,-0.607,1.0
14.274,0.446,-0.671,4.0
23.656,0.732,-0.45,5.0
20.538,0.63,-0.5,4.0
18.532,0.563,-0.55,3.0
16.81,0.506,-0.59,2.0
14.987,0.448,-0.606,6.0
14.415,0.427,-0.66,7.0
27.367,0.802,-0.488,1.0
21.083,0.612,-0.488,4.0
18.988,0.546,-0.541,3.0
17.235,0.491,-0.584,4.0
15.723,0.444,-0.617,4.0
14.651,0.41,-0.653,4.0
27.896,0.772,-0.463,1.0
21.733,0.595,-0.476,4.0
19.508,0.529,-0.531,3.0
17.608,0.473,-0.575,6.0
16.076,0.427,-0.61,2.0
14.876,0.392,-0.644,4.0
28.89,0.752,-0.442,2.0
22.424,0.578,-0.462,4.0
20.026,0.511,-0.519,3.0
17.987,0.454,-0.563,3.0
16.507,0.412,-0.605,3.0
15.152,0.374,-0.636,4.0
29.598,0.723,-0.414,2.0
23.601,0.57,-0.455,1.0
20.69,0.495,-0.509,4.0
18.533,0.438,-0.556,3.0
16.929,0.396,-0.597,2.0
15.456,0.357,-0.628,3.0
30.532,0.697,-0.386,2.0
27.212,0.614,-0.488,2.0
21.24,0.474,-0.493,4.0
19.069,0.42,-0.546,4.0
17.396,0.379,-0.59,2.0
15.817,0.34,-0.62,4.0
31.668,0.673,-0.356,1.0
28.101,0.59,-0.465,1.0
22.042,0.457,-0.481,4.0
19.548,0.4,-0.532,5.0
17.836,0.361,-0.58,2.0
16.21,0.324,-0.613,3.0
33.244,0.655,-0.327,1.0
29.106,0.566,-0.44,2.0
22.841,0.438,-0.466,1.0
20.087,0.38,-0.518,6.0
18.372,0.343,-0.57,3.0
16.675,0.307,-0.606,3.0
36.839,0.669,-0.309,7.0
29.927,0.536,-0.409,2.0
26.783,0.473,-0.507,1.0
20.862,0.363,-0.507,4.0
18.852,0.323,-0.558,3.0
17.278,0.292,-0.602,2.0
37.24,0.62,-0.257,13.0
30.933,0.508,-0.377,2.0
27.567,0.445,-0.481,1.0
21.526,0.342,-0.491,4.0
19.44,0.304,-0.546,3.0
17.862,0.275,-0.596,4.0
37.818,0.573,-0.204,41.0
32.647,0.487,-0.348,1.0
28.724,0.421,-0.457,1.0
22.272,0.321,-0.474,2.0
20.081,0.285,-0.533,3.0
18.561,0.259,-0.59,5.0
38.704,0.53,-0.15,51.0
37.048,0.499,-0.338,0.0
29.561,0.391,-0.425,2.0
26.447,0.343,-0.522,2.0
20.792,0.265,-0.519,4.0
19.427,0.243,-0.587,7.0
39.9,0.49,-0.092,16.0
37.279,0.448,-0.282,7.0
30.568,0.361,-0.391,2.0
27.151,0.314,-0.492,2.0
21.548,0.244,-0.504,4.0
20.315,0.225,-0.582,6.0
0.0,0.0,0.0,0.0
37.897,0.403,-0.226,18.0
32.073,0.333,-0.359,1.0
28.317,0.288,-0.468,1.0
22.117,0.22,-0.482,1.0
21.405,0.208,-0.578,5.0
47.675,0.452,0.041,51.0
38.758,0.359,-0.168,49.0
33.588,0.303,-0.322,1.0
29.38,0.258,-0.438,2.0
26.284,0.225,-0.529,2.0
23.562,0.196,-0.598,2.0
48.029,0.39,0.121,84.0
39.844,0.314,-0.107,15.0
37.6,0.289,-0.298,4.0
30.266,0.225,-0.401,2.0
27.121,0.196,-0.501,1.0
24.136,0.169,-0.572,2.0
48.182,0.327,0.202,62.0
0.0,0.0,0.0,0.0
38.237,0.243,-0.238,14.0
31.737,0.194,-0.366,1.0
28.253,0.167,-0.474,1.0
25.254,0.144,-0.555,1.0
59.316,0.326,0.349,6.0
47.719,0.251,0.032,35.0
39.049,0.197,-0.176,48.0
33.405,0.162,-0.329,1.0
29.286,0.135,-0.441,2.0
26.287,0.116,-0.533,2.0
76.903,0.324,0.586,58.0
54.468,0.218,0.13,29.0
40.459,0.153,-0.113,16.0
37.899,0.136,-0.308,3.0
30.29,0.102,-0.404,2.0
27.039,0.086,-0.501,2.0
79.444,0.236,0.744,150.0
59.127,0.164,0.245,10.0
0.0,0.0,0.0,0.0
38.556,0.091,-0.245,14.0
31.917,0.069,-0.369,1.0
28.254,0.055,-0.474,1.0
79.468,0.14,0.883,151.0
75.978,0.119,0.449,17.0
47.903,0.065,0.034,21.0
39.465,0.046,-0.181,36.0
33.621,0.032,-0.329,0.0
29.395,0.022,-0.44,2.0
79.467,0.046,1.025,151.0
79.309,0.03,0.611,29.0
55.596,0.01,0.139,29.0
0.0,0.0,0.0,0.0
38.372,-0.007,-0.306,3.0
30.479,-0.011,-0.401,2.0
79.46,-0.045,1.169,151.0
79.453,-0.06,0.757,150.0
61.732,-0.058,0.267,12.0
45.533,-0.051,-0.044,20.0
39.143,-0.051,-0.241,14.0
32.288,-0.048,-0.366,2.0
79.453,-0.134,1.314,152.0
79.465,-0.149,0.902,151.0
76.405,-0.157,0.471,14.0
51.63,-0.115,0.045,6.0
40.485,-0.098,-0.174,15.0
34.312,-0.089,-0.325,1.0
79.43,-0.221,1.461,200.0
79.46,-0.235,1.05,151.0
79.403,-0.249,0.637,150.0
56.081,-0.185,0.153,13.0
43.157,-0.15,-0.105,18.0
39.168,-0.143,-0.298,2.0
79.4,-0.305,1.61,255.0
79.457,-0.318,1.198,161.0
79.463,-0.332,0.786,157.0
76.516,-0.332,0.352,7.0
46.938,-0.212,-0.026,21.0
39.628,-0.185,-0.227,6.0
79.433,-0.386,1.76,186.0
79.441,-0.399,1.347,181.0
79.45,-0.412,0.936,167.0
76.835,-0.411,0.5,13.0
51.389,-0.283,0.067,15.0
41.872,-0.237,-0.161,5.0
79.432,-0.465,1.909,175.0
79.438,-0.477,1.497,183.0
79.456,-0.49,1.087,171.0
79.452,-0.502,0.667,150.0
61.258,-0.396,0.197,12.0
45.762,-0.303,-0.088,4.0
79.434,-0.541,2.062,158.0
79.429,-0.553,1.651,191.0
79.441,-0.565,1.241,178.0
79.454,-0.577,0.821,181.0
77.048,-0.571,0.399,11.0
48.675,-0.368,0.0,2.0
79.439,-0.614,2.215,151.0
79.427,-0.625,1.804,199.0
79.443,-0.638,1.395,179.0
79.461,-0.649,0.977,176.0
79.038,-0.656,0.562,51.0
60.743,-0.513,0.118,2.0
79.422,-0.685,2.371,150.0
79.436,-0.696,1.961,162.0
79.438,-0.707,1.549,182.0
79.439,-0.718,1.131,184.0
79.465,-0.729,0.721,156.0
61.189,-0.569,0.238,1.0
79.434,-0.752,2.526,151.0
79.445,-0.762,2.114,151.0
79.429,-0.772,1.703,194.0
79.44,-0.782,1.284,189.0
79.456,-0.793,0.874,164.0
77.989,-0.788,0.455,18.0
79.436,-0.816,2.68,151.0
79.439,-0.826,2.269,157.0
79.432,-0.836,1.858,178.0
79.434,-0.845,1.44,202.0
79.438,-0.855,1.03,188.0
79.39,-0.864,0.62,104.0
79.418,-0.878,2.837,150.0
79.426,-0.887,2.426,151.0
79.41,-0.896,2.015,150.0
79.436,-0.906,1.598,162.0
79.42,-0.914,1.186,255.0
79.449,-0.924,0.777,7.0
79.395,-0.935,2.992,132.0
79.404,-0.944,2.581,52.0
79.388,-0.953,2.171,3.0
79.4,-0.961,1.753,4.0
79.43,-0.97,1.343,129.0
79.901,-0.985,0.94,10.0
86.028,-1.075,3.413,150.0
0.0,0.0,0.0,0.0
109.615,-1.392,3.216,2.0
79.996,-1.024,1.927,9.0
86.94,-1.122,1.646,62.0
86.956,-1.13,1.197,150.0
91.075,-1.198,3.795,92.0
99.386,-1.317,3.628,1.0
86.911,-1.16,2.724,26.0
86.925,-1.168,2.267,69.0
86.977,-1.177,1.819,11.0
183.434,-2.5,2.892,51.0
91.064,-1.255,3.977,20.0
99.537,-1.38,3.832,52.0
183.452,-2.561,6.115,26.0
151.483,-2.128,4.253,45.0
183.39,-2.591,4.201,68.0
183.401,-2.608,3.257,56.0
85.788,-1.233,3.918,150.0
91.532,-1.323,3.707,38.0
183.392,-2.665,6.48,39.0
151.462,-2.214,4.556,97.0
187.093,-2.748,4.661,17.0
187.15,-2.765,3.699,67.0
90.94,-1.357,4.336,42.0
91.458,-1.371,3.887,79.0
128.902,-1.942,4.812,27.0
151.425,-2.293,4.858,92.0
151.477,-2.304,4.078,80.0
262.022,-4.006,5.706,31.0
90.855,-1.403,4.515,59.0
91.439,-1.418,4.071,100.0
128.056,-1.994,5.04,33.0
151.418,-2.368,5.164,33.0
151.468,-2.379,4.383,89.0
261.97,-4.13,6.231,43.0
90.842,-1.446,4.699,43.0
91.332,-1.459,4.252,79.0
128.076,-2.054,5.301,24.0
184.859,-2.975,6.678,27.0
151.465,-2.446,4.689,90.0
151.477,-2.455,3.908,38.0
90.852,-1.486,4.882,33.0
90.779,-1.489,4.409,42.0
93.014,-1.531,4.036,40.0
128.058,-2.114,4.882,9.0
151.428,-2.507,4.993,73.0
151.482,-2.516,4.213,76.0
90.815,-1.521,5.062,24.0
127.031,-2.134,6.425,32.0
99.207,-1.67,4.503,19.0
184.29,-3.111,7.396,22.0
184.334,-3.12,6.446,37.0
151.458,-2.57,4.514,78.0
84.121,-1.439,4.858,35.0
127.022,-2.179,6.678,29.0
90.859,-1.562,4.307,35.0
128.441,-2.211,5.411,26.0
185.802,-3.206,6.87,27.0
151.432,-2.618,4.818,68.0
125.922,-2.196,7.528,30.0
83.809,-1.464,4.577,45.0
90.852,-1.589,4.49,19.0
93.008,-1.63,4.107,39.0
184.401,-3.237,7.192,22.0
184.476,-3.243,6.244,29.0
85.257,-1.511,5.269,46.0
101.311,-1.798,5.737,16.0
127.199,-2.26,6.544,46.0
93.008,-1.654,4.293,14.0
128.612,-2.29,5.274,32.0
184.558,-3.29,6.617,21.0
85.484,-1.536,5.456,31.0
84.127,-1.513,4.932,53.0
83.808,-1.508,4.479,21.0
90.827,-1.636,4.375,78.0
128.492,-2.315,5.524,36.0
185.722,-3.349,7.026,16.0
126.386,-2.298,8.318,10.0
126.089,-2.292,7.644,30.0
101.308,-1.842,5.616,32.0
91.365,-1.661,4.581,37.0
92.97,-1.691,4.18,43.0
184.16,-3.351,7.329,19.0
126.441,-2.32,8.573,22.0
85.268,-1.564,5.339,55.0
84.136,-1.543,4.83,20.0
127.178,-2.332,6.631,32.0
90.663,-1.662,4.258,27.0
128.394,-2.353,5.364,26.0
82.267,-1.519,5.741,3.0
85.86,-1.585,5.546,14.0
84.125,-1.552,4.997,51.0
83.797,-1.545,4.535,42.0
91.089,-1.679,4.457,78.0
92.991,-1.712,4.068,16.0
63.957,-1.187,4.589,2.0
85.878,-1.593,5.716,4.0
85.172,-1.577,5.226,19.0
101.304,-1.875,5.679,43.0
91.403,-1.69,4.651,13.0
92.947,-1.717,4.249,35.0
63.983,-1.191,4.717,3.0
126.411,-2.349,8.664,23.0
85.48,-1.587,5.413,69.0
84.11,-1.559,4.882,35.0
127.098,-2.353,6.718,30.0
90.824,-1.679,4.329,65.0
41.268,-0.768,3.124,6.0
101.218,-1.882,7.134,4.0
85.893,-1.594,5.606,12.0
84.121,-1.559,5.044,32.0
83.82,-1.55,4.591,34.0
91.338,-1.686,4.528,64.0
54.248,-1.009,4.211,14.0
63.959,-1.187,4.631,3.0
126.474,-2.342,8.499,13.0
85.244,-1.576,5.275,42.0
101.302,-1.868,5.743,28.0
127.214,-2.34,6.552,30.0
