X,Y,Z,Reflectivity
8.484,0.042,-0.901,0.0
8.175,0.039,-0.913,0.0
7.885,0.036,-0.923,0.0
9.86,0.045,-0.875,0.0
9.396,0.042,-0.884,0.0
8.984,0.038,-0.894,0.0
8.591,0.035,-0.902,0.0
8.27,0.032,-0.913,0.0
7.963,0.029,-0.922,0.0
9.968,0.036,-0.872,0.0
9.511,0.033,-0.883,0.0
9.088,0.03,-0.893,0.0
8.655,0.027,-0.898,0.0
8.347,0.024,-0.911,0.0
8.032,0.022,-0.92,0.0
10.101,0.027,-0.871,0.0
9.624,0.024,-0.881,0.0
9.192,0.022,-0.891,0.0
8.761,0.019,-0.897,0.0
8.404,0.017,-0.906,0.0
8.071,0.015,-0.914,0.0
10.225,0.018,-0.868,0.0
9.746,0.016,-0.879,0.0
9.307,0.013,-0.89,0.0
8.87,0.011,-0.897,0.0
8.505,0.009,-0.905,0.0
8.175,0.007,-0.914,0.0
10.362,0.009,-0.866,0.0
9.858,0.007,-0.876,0.0
9.414,0.005,-0.887,0.0
8.95,0.004,-0.892,0.0
8.58,0.002,-0.901,0.0
8.277,0.0,-0.914,0.0
10.508,0.001,-0.863,0.0
9.994,0.0,-0.874,0.0
9.517,-0.002,-0.883,0.0
9.102,-0.003,-0.895,0.0
8.705,-0.004,-0.902,0.0
8.346,-0.006,-0.91,0.0
10.645,-0.007,-0.859,0.0
10.135,-0.008,-0.872,0.0
9.649,-0.01,-0.882,0.0
9.211,-0.011,-0.892,0.0
8.802,-0.012,-0.899,0.0
8.429,-0.013,-0.906,0.0
10.823,-0.016,-0.858,0.0
10.284,-0.017,-0.87,0.0
9.77,-0.018,-0.878,0.0
9.343,-0.018,-0.891,0.0
8.921,-0.019,-0.898,0.0
8.544,-0.02,-0.906,0.0
10.968,-0.025,-0.853,0.0
10.446,-0.025,-0.868,0.0
9.924,-0.026,-0.877,0.0
9.465,-0.026,-0.888,0.0
9.025,-0.026,-0.895,0.0
8.634,-0.026,-0.902,0.0
11.102,-0.034,-0.846,0.0
10.6,-0.034,-0.864,0.0
10.062,-0.034,-0.874,0.0
9.58,-0.033,-0.884,0.0
9.173,-0.033,-0.895,0.0
8.742,-0.033,-0.9,0.0
11.337,-0.043,-0.847,0.0
10.706,-0.042,-0.856,1.0
10.205,-0.041,-0.87,0.0
9.73,-0.041,-0.882,0.0
9.283,-0.04,-0.891,0.0
8.894,-0.04,-0.901,0.0
11.522,-0.052,-0.842,0.0
10.936,-0.05,-0.857,0.0
10.373,-0.049,-0.868,0.0
9.859,-0.048,-0.878,0.0
9.426,-0.048,-0.889,0.0
9.021,-0.047,-0.899,0.0
11.725,-0.06,-0.837,0.0
11.095,-0.059,-0.851,0.0
10.569,-0.057,-0.866,0.0
10.027,-0.056,-0.876,0.0
9.554,-0.054,-0.885,0.0
9.136,-0.053,-0.895,0.0
11.921,-0.069,-0.832,0.0
11.311,-0.067,-0.849,0.0
10.672,-0.065,-0.857,1.0
10.189,-0.063,-0.873,0.0
9.73,-0.061,-0.885,0.0
9.271,-0.06,-0.893,0.0
12.165,-0.078,-0.828,0.0
11.511,-0.075,-0.844,0.0
10.894,-0.073,-0.856,0.0
10.369,-0.07,-0.871,0.0
9.834,-0.068,-0.878,0.0
9.408,-0.066,-0.889,0.0
12.406,-0.087,-0.823,0.0
11.705,-0.083,-0.838,0.0
11.077,-0.08,-0.852,0.0
10.563,-0.078,-0.869,0.0
10.029,-0.075,-0.878,0.0
9.552,-0.073,-0.886,0.0
12.648,-0.095,-0.817,0.0
11.924,-0.091,-0.833,1.0
11.288,-0.088,-0.848,0.0
10.671,-0.084,-0.859,2.0
10.197,-0.082,-0.874,0.0
9.738,-0.079,-0.886,0.0
12.905,-0.104,-0.811,0.0
12.156,-0.099,-0.828,0.0
11.525,-0.095,-0.845,0.0
10.869,-0.091,-0.855,0.0
10.386,-0.088,-0.872,0.0
9.881,-0.085,-0.882,0.0
13.179,-0.112,-0.805,1.0
12.408,-0.107,-0.823,0.0
11.729,-0.102,-0.839,0.0
11.114,-0.098,-0.855,0.0
10.572,-0.094,-0.869,0.0
10.044,-0.091,-0.878,0.0
13.466,-0.121,-0.798,0.0
12.685,-0.115,-0.818,1.0
11.945,-0.109,-0.833,1.0
11.327,-0.105,-0.85,0.0
10.709,-0.1,-0.86,1.0
10.224,-0.097,-0.875,0.0
13.741,-0.129,-0.79,0.0
12.959,-0.123,-0.812,0.0
12.217,-0.117,-0.829,0.0
11.551,-0.112,-0.846,0.0
10.928,-0.106,-0.857,0.0
10.424,-0.103,-0.873,0.0
14.085,-0.137,-0.783,1.0
13.243,-0.13,-0.805,1.0
12.45,-0.124,-0.822,0.0
11.772,-0.118,-0.84,0.0
11.153,-0.113,-0.854,0.0
10.602,-0.108,-0.868,0.0
14.428,-0.146,-0.775,1.0
13.522,-0.138,-0.797,1.0
12.735,-0.131,-0.817,0.0
12.001,-0.124,-0.834,1.0
11.389,-0.119,-0.851,0.0
10.761,-0.113,-0.86,1.0
14.816,-0.154,-0.768,1.0
13.825,-0.145,-0.789,0.0
13.033,-0.138,-0.812,0.0
12.274,-0.13,-0.83,0.0
11.601,-0.124,-0.845,0.0
11.005,-0.118,-0.859,0.0
15.211,-0.162,-0.76,1.0
14.173,-0.152,-0.782,1.0
13.32,-0.144,-0.804,1.0
12.529,-0.136,-0.823,0.0
11.842,-0.13,-0.839,0.0
11.227,-0.124,-0.854,0.0
15.627,-0.171,-0.751,1.0
14.554,-0.16,-0.775,1.0
13.618,-0.15,-0.796,1.0
12.825,-0.142,-0.817,1.0
12.083,-0.135,-0.833,0.0
11.451,-0.128,-0.849,0.0
16.081,-0.179,-0.741,1.0
14.955,-0.167,-0.767,1.0
13.964,-0.157,-0.789,1.0
13.124,-0.148,-0.811,0.0
12.375,-0.14,-0.829,0.0
11.686,-0.133,-0.843,0.0
16.575,-0.187,-0.732,1.0
15.352,-0.174,-0.757,1.0
14.316,-0.163,-0.78,1.0
13.445,-0.153,-0.804,1.0
12.64,-0.145,-0.822,1.0
11.933,-0.137,-0.838,1.0
17.149,-0.195,-0.723,1.0
15.806,-0.181,-0.749,1.0
14.717,-0.169,-0.773,1.0
13.714,-0.158,-0.793,0.0
12.959,-0.15,-0.817,0.0
12.214,-0.142,-0.833,0.0
17.726,-0.204,-0.712,1.0
16.273,-0.188,-0.738,1.0
15.133,-0.175,-0.765,1.0
14.101,-0.163,-0.787,1.0
13.268,-0.154,-0.81,0.0
12.481,-0.145,-0.826,1.0
18.301,-0.211,-0.699,1.0
16.866,-0.195,-0.732,1.0
15.543,-0.18,-0.755,1.0
14.465,-0.168,-0.779,1.0
13.572,-0.158,-0.801,1.0
12.772,-0.149,-0.82,1.0
18.865,-0.218,-0.683,1.0
17.418,-0.202,-0.72,1.0
16.035,-0.186,-0.746,1.0
14.891,-0.173,-0.771,1.0
13.905,-0.162,-0.792,0.0
13.104,-0.152,-0.814,1.0
19.632,-0.226,-0.67,1.0
17.99,-0.208,-0.707,1.0
16.544,-0.191,-0.736,1.0
15.305,-0.177,-0.761,1.0
14.288,-0.165,-0.785,1.0
13.419,-0.155,-0.806,1.0
20.305,-0.233,-0.652,1.0
18.577,-0.213,-0.693,1.0
17.134,-0.197,-0.727,1.0
15.781,-0.181,-0.753,1.0
14.701,-0.169,-0.777,1.0
13.727,-0.158,-0.797,1.0
21.157,-0.241,-0.637,1.0
19.236,-0.219,-0.678,1.0
17.686,-0.201,-0.715,1.0
16.214,-0.184,-0.741,1.0
15.129,-0.172,-0.769,1.0
14.111,-0.16,-0.791,1.0
22.06,-0.248,-0.619,1.0
19.97,-0.224,-0.663,2.0
18.285,-0.205,-0.701,1.0
16.848,-0.189,-0.735,1.0
15.522,-0.174,-0.757,1.0
14.491,-0.162,-0.782,1.0
23.051,-0.255,-0.599,1.0
20.765,-0.229,-0.647,1.0
18.916,-0.208,-0.687,1.0
17.413,-0.191,-0.724,1.0
16.023,-0.176,-0.749,1.0
14.918,-0.163,-0.774,1.0
24.054,-0.261,-0.576,2.0
21.65,-0.234,-0.63,1.0
19.654,-0.212,-0.673,1.0
17.982,-0.193,-0.71,1.0
16.561,-0.178,-0.74,0.0
15.314,-0.164,-0.763,1.0
25.17,-0.266,-0.551,1.0
22.618,-0.239,-0.611,1.0
20.332,-0.214,-0.654,1.0
18.577,-0.195,-0.696,1.0
17.108,-0.179,-0.729,1.0
15.816,-0.165,-0.756,1.0
26.249,-0.27,-0.521,1.0
23.55,-0.241,-0.588,2.0
21.244,-0.217,-0.64,1.0
19.3,-0.196,-0.683,1.0
17.734,-0.18,-0.719,1.0
16.265,-0.164,-0.743,1.0
27.565,-0.275,-0.489,1.0
24.619,-0.244,-0.564,1.0
22.181,-0.219,-0.622,1.0
20.01,-0.196,-0.667,2.0
18.312,-0.179,-0.704,1.0
16.877,-0.164,-0.736,1.0
28.901,-0.277,-0.454,5.0
25.862,-0.247,-0.539,1.0
23.172,-0.22,-0.602,1.0
20.767,-0.196,-0.649,1.0
18.931,-0.177,-0.689,1.0
17.439,-0.162,-0.725,1.0
30.067,-0.276,-0.41,2.0
26.937,-0.246,-0.506,1.0
24.178,-0.219,-0.579,1.0
21.648,-0.195,-0.632,1.0
19.679,-0.176,-0.676,1.0
18.024,-0.16,-0.712,2.0
31.639,-0.277,-0.367,1.0
28.257,-0.245,-0.473,2.0
25.264,-0.217,-0.553,1.0
22.673,-0.194,-0.615,1.0
20.355,-0.172,-0.658,2.0
18.608,-0.156,-0.697,1.0
34.047,-0.282,-0.325,1.0
29.48,-0.242,-0.433,2.0
26.445,-0.215,-0.525,3.0
23.609,-0.19,-0.592,2.0
21.259,-0.169,-0.643,2.0
19.365,-0.152,-0.685,1.0
40.306,-0.312,-0.301,2.0
30.878,-0.237,-0.39,1.0
27.522,-0.209,-0.489,2.0
24.597,-0.184,-0.566,2.0
22.248,-0.165,-0.627,2.0
20.036,-0.147,-0.668,3.0
44.137,-0.317,-0.239,7.0
33.003,-0.234,-0.349,1.0
28.954,-0.203,-0.455,1.0
25.949,-0.179,-0.544,1.0
23.179,-0.158,-0.606,2.0
20.905,-0.14,-0.654,3.0
44.416,-0.293,-0.149,4.0
39.628,-0.257,-0.337,2.0
30.208,-0.193,-0.413,1.0
26.907,-0.169,-0.509,2.0
24.113,-0.149,-0.58,2.0
21.796,-0.132,-0.637,3.0
46.059,-0.274,-0.061,6.0
40.276,-0.236,-0.26,3.0
31.816,-0.183,-0.369,1.0
28.307,-0.159,-0.477,1.0
25.255,-0.139,-0.556,1.0
22.805,-0.123,-0.62,2.0
0.0,0.0,0.0,0.0
40.209,-0.208,-0.178,4.0
34.019,-0.172,-0.326,0.0
29.506,-0.146,-0.438,2.0
26.4,-0.127,-0.528,2.0
23.707,-0.112,-0.596,2.0
56.108,-0.257,0.153,14.0
0.0,0.0,0.0,0.0
39.322,-0.171,-0.298,2.0
30.707,-0.129,-0.394,1.0
27.582,-0.113,-0.496,2.0
24.672,-0.098,-0.571,1.0
76.468,-0.294,0.362,9.0
0.0,0.0,0.0,0.0
39.302,-0.141,-0.219,6.0
32.786,-0.113,-0.355,1.0
28.951,-0.096,-0.463,2.0
25.915,-0.083,-0.548,1.0
79.217,-0.242,0.534,20.0
0.0,0.0,0.0,0.0
41.367,-0.115,-0.147,19.0
37.22,-0.099,-0.329,1.0
29.959,-0.075,-0.419,2.0
26.963,-0.064,-0.517,2.0
79.46,-0.178,0.695,150.0
61.606,-0.13,0.22,20.0
0.0,0.0,0.0,0.0
38.885,-0.071,-0.266,8.0
32.005,-0.054,-0.385,2.0
28.176,-0.043,-0.485,1.0
79.471,-0.111,0.851,151.0
76.175,-0.095,0.422,19.0
48.109,-0.053,0.017,10.0
39.732,-0.038,-0.194,24.0
33.481,-0.027,-0.336,0.0
29.384,-0.019,-0.447,3.0
79.464,-0.04,1.008,151.0
79.262,-0.028,0.595,30.0
55.71,-0.011,0.13,29.0
43.736,-0.002,-0.128,5.0
38.36,0.003,-0.31,4.0
30.583,0.008,-0.405,1.0
79.46,0.033,1.164,151.0
79.446,0.045,0.753,151.0
61.898,0.045,0.265,6.0
0.0,0.0,0.0,0.0
38.854,0.04,-0.24,14.0
32.647,0.039,-0.37,1.0
79.446,0.108,1.316,160.0
79.467,0.121,0.905,152.0
76.279,0.129,0.473,20.0
0.0,0.0,0.0,0.0
39.764,0.08,-0.169,39.0
34.391,0.075,-0.324,0.0
79.463,0.187,1.469,151.0
79.469,0.2,1.056,152.0
79.454,0.214,0.645,142.0
55.115,0.157,0.155,22.0
0.0,0.0,0.0,0.0
38.069,0.122,-0.287,7.0
79.459,0.268,1.62,151.0
79.462,0.282,1.208,161.0
79.442,0.296,0.795,150.0
59.356,0.231,0.279,31.0
0.0,0.0,0.0,0.0
38.771,0.165,-0.219,35.0
59.301,0.263,1.321,113.0
59.291,0.273,1.012,115.0
59.293,0.284,0.704,128.0
59.303,0.295,0.39,90.0
54.677,0.282,0.075,27.0
39.698,0.212,-0.15,28.0
48.182,0.265,1.162,59.0
48.167,0.274,0.911,59.0
48.179,0.284,0.661,52.0
48.181,0.293,0.406,55.0
48.176,0.301,0.154,53.0
0.0,0.0,0.0,0.0
48.13,0.319,1.25,103.0
48.121,0.328,0.999,100.0
48.101,0.337,0.748,89.0
48.082,0.346,0.492,75.0
48.081,0.356,0.242,52.0
47.263,0.359,-0.007,44.0
48.114,0.374,1.337,112.0
48.116,0.384,1.086,115.0
48.102,0.393,0.835,113.0
48.055,0.402,0.578,110.0
48.037,0.412,0.328,102.0
47.997,0.421,0.078,76.0
48.123,0.431,1.423,110.0
48.121,0.441,1.172,107.0
48.109,0.45,0.92,109.0
48.073,0.459,0.663,110.0
48.067,0.469,0.412,91.0
48.018,0.478,0.162,80.0
48.171,0.489,1.509,94.0
48.147,0.499,1.256,92.0
48.125,0.509,1.005,98.0
48.1,0.518,0.748,96.0
48.096,0.528,0.496,98.0
48.05,0.537,0.245,82.0
55.015,0.627,1.819,122.0
55.028,0.638,1.531,9.0
55.052,0.65,1.244,18.0
55.081,0.662,0.951,9.0
48.16,0.589,0.579,45.0
48.095,0.598,0.327,69.0
55.03,0.695,1.913,123.0
55.038,0.707,1.625,95.0
55.097,0.719,1.338,23.0
207.524,2.756,3.931,10.0
126.542,1.709,1.735,32.0
78.196,1.072,0.663,15.0
55.065,0.766,2.006,91.0
55.076,0.779,1.718,25.0
176.224,2.53,4.574,17.0
190.106,2.77,3.916,33.0
127.226,1.881,1.953,33.0
89.644,1.346,0.907,6.0
163.155,2.485,6.215,11.0
132.853,2.054,4.364,36.0
159.899,2.508,4.414,14.0
190.173,3.025,4.232,16.0
127.984,2.064,2.175,12.0
121.209,1.983,1.425,17.0
59.333,0.984,2.358,2.0
132.669,2.23,4.575,33.0
163.249,2.782,4.773,7.0
0.0,0.0,0.0,0.0
128.119,2.241,2.385,13.0
126.274,2.239,1.688,31.0
130.585,2.346,5.402,20.0
128.086,2.329,4.622,8.0
128.084,2.359,3.948,15.0
128.056,2.388,3.26,24.0
128.043,2.416,2.585,30.0
127.711,2.442,1.908,2.0
128.031,2.477,5.497,11.0
127.969,2.505,4.818,31.0
128.002,2.535,4.144,48.0
128.036,2.566,3.458,57.0
128.039,2.596,2.783,52.0
106.321,2.181,1.75,5.0
127.723,2.65,5.679,31.0
128.037,2.687,5.016,39.0
128.144,2.719,4.344,28.0
128.133,2.749,3.654,15.0
128.127,2.779,2.977,3.0
106.169,2.329,1.907,12.0
127.501,2.83,5.863,20.0
130.663,2.93,5.317,12.0
152.656,3.46,5.404,36.0
158.902,3.641,4.77,30.0
146.902,3.402,3.634,6.0
0.0,0.0,0.0,0.0
127.483,3.017,6.053,23.0
130.492,3.12,5.504,24.0
152.597,3.685,5.628,41.0
159.018,3.879,5.008,12.0
157.749,3.888,4.134,10.0
100.355,2.498,2.1,15.0
122.443,3.08,5.991,38.0
130.189,3.307,5.68,20.0
152.151,3.901,5.831,41.0
152.714,3.953,5.027,13.0
137.926,3.604,3.809,9.0
0.0,0.0,0.0,0.0
122.562,3.266,6.17,43.0
130.064,3.497,5.856,14.0
152.009,4.126,6.038,44.0
152.33,4.171,5.225,36.0
154.027,4.256,4.466,34.0
0.0,0.0,0.0,0.0
122.736,3.457,6.349,35.0
123.09,3.498,5.711,16.0
151.974,4.356,6.243,35.0
152.073,4.395,5.421,38.0
153.977,4.49,4.672,36.0
154.096,4.531,3.857,8.0
123.04,3.654,6.528,40.0
123.092,3.685,5.875,31.0
151.835,4.585,6.439,39.0
152.09,4.63,5.624,41.0
157.917,4.846,4.997,20.0
158.623,4.909,4.177,8.0
125.462,3.921,6.822,27.0
133.797,4.214,6.56,22.0
133.6,4.242,5.838,19.0
152.253,4.872,5.825,36.0
153.16,4.938,5.042,21.0
158.997,5.168,4.388,8.0
73.912,2.425,4.113,42.0
133.781,4.423,6.729,16.0
152.46,5.08,6.853,21.0
152.68,5.127,6.033,39.0
152.788,5.169,5.221,20.0
159.149,5.425,4.59,13.0
73.739,2.537,4.195,42.0
73.969,2.563,3.812,46.0
124.006,4.328,5.725,46.0
158.438,5.571,6.452,6.0
152.818,5.412,5.406,26.0
160.557,5.728,4.823,15.0
73.62,2.65,4.276,38.0
73.752,2.674,3.888,47.0
123.913,4.523,5.869,23.0
124.251,4.568,5.205,20.0
152.793,5.656,5.583,23.0
160.337,5.977,5.001,5.0
65.018,2.446,3.853,41.0
73.528,2.785,3.962,36.0
124.49,4.746,6.039,12.0
160.191,6.151,6.896,13.0
152.871,5.91,5.762,13.0
158.519,6.17,5.126,6.0
65.196,2.56,3.937,17.0
73.393,2.9,4.037,50.0
123.818,4.924,6.146,20.0
124.528,4.985,5.498,27.0
158.123,6.372,6.133,13.0
173.047,7.017,5.783,7.0
73.295,2.998,4.507,26.0
73.274,3.015,4.11,51.0
123.148,5.1,6.244,27.0
124.628,5.194,5.636,34.0
124.339,5.215,4.955,30.0
156.966,6.624,5.409,17.0
73.255,3.117,4.581,23.0
73.639,3.152,4.207,51.0
123.28,5.307,6.377,24.0
124.657,5.401,5.765,17.0
124.417,5.422,5.083,39.0
157.61,6.91,5.59,24.0
73.143,3.233,4.648,28.0
123.869,5.508,7.202,19.0
123.253,5.511,6.5,29.0
129.931,5.844,6.136,28.0
124.298,5.622,5.199,24.0
157.332,7.158,5.733,16.0
73.64,3.379,4.752,7.0
73.352,3.384,4.335,40.0
123.169,5.714,6.613,35.0
132.606,6.186,6.389,23.0
129.66,6.081,5.545,30.0
157.469,7.428,5.884,17.0
149.441,7.107,9.782,29.0
73.448,3.511,4.408,8.0
123.419,5.931,6.739,31.0
129.468,6.254,6.354,15.0
129.607,6.295,5.66,10.0
157.478,7.691,6.024,23.0
149.636,7.368,9.928,36.0
73.41,3.633,4.471,15.0
150.551,7.489,8.351,17.0
132.495,6.624,6.617,24.0
132.014,6.633,5.878,27.0
167.083,8.439,6.533,15.0
124.57,6.342,8.37,26.0
127.333,6.514,7.862,15.0
73.337,3.77,4.129,14.0
33.417,1.727,1.696,2.0
131.959,6.853,5.983,18.0
157.405,8.217,6.283,10.0
124.668,6.56,8.479,23.0
127.512,6.741,7.976,24.0
128.756,6.838,7.352,13.0
33.446,1.784,1.724,15.0
162.483,8.712,7.492,39.0
157.548,8.487,6.409,8.0
124.699,6.77,8.575,26.0
154.759,8.441,9.797,21.0
127.076,6.963,7.351,28.0
33.44,1.841,1.749,4.0
33.445,1.849,1.566,1.0
162.445,9.026,6.726,6.0
71.875,4.024,4.995,33.0
127.899,7.193,8.188,29.0
127.494,7.201,7.466,34.0
33.442,1.897,1.772,1.0
162.114,9.237,7.706,33.0
162.187,9.283,6.825,10.0
71.773,4.14,5.037,32.0
127.459,7.384,8.248,31.0
127.772,7.434,7.567,34.0
128.703,7.52,6.906,25.0
33.456,1.963,1.612,6.0
33.455,1.971,1.429,0.0
124.937,7.418,8.849,25.0
67.064,3.998,4.382,5.0
127.888,7.656,7.654,32.0
128.283,7.712,6.962,36.0
127.773,7.714,6.235,44.0
33.49,2.03,1.451,0.0
67.094,4.098,4.792,19.0
67.307,4.127,4.437,28.0
67.149,4.134,4.058,16.0
128.455,7.94,7.047,17.0
128.004,7.944,6.319,14.0
158.04,9.849,6.937,23.0
67.1,4.212,4.831,20.0
67.023,4.223,4.456,32.0
66.938,4.234,4.082,41.0
128.085,8.133,7.095,14.0
128.203,8.172,6.398,22.0
33.444,2.14,1.485,1.0
67.276,4.337,4.878,30.0
67.155,4.345,4.499,43.0
67.234,4.367,4.134,37.0
67.064,4.371,3.747,11.0
33.396,2.184,1.682,46.0
33.441,2.195,1.501,4.0
67.335,4.454,4.914,33.0
67.282,4.466,4.539,43.0
67.466,4.494,4.179,26.0
128.327,8.58,7.229,26.0
33.38,2.24,1.696,36.0
33.472,2.254,1.517,1.0
66.999,4.545,4.919,33.0
67.548,4.598,4.585,35.0
67.409,4.604,4.204,27.0
128.327,8.794,7.282,11.0
33.39,2.296,1.71,29.0
116.462,8.036,5.325,8.0
67.087,4.663,4.952,42.0
67.532,4.709,4.61,28.0
70.909,4.96,4.449,10.0
172.957,12.138,9.877,9.0
33.391,2.351,1.722,22.0
113.557,8.024,5.232,10.0
67.259,4.786,4.988,36.0
67.515,4.819,4.632,34.0
70.832,5.073,4.467,42.0
157.356,11.305,9.038,26.0
157.303,11.338,8.166,20.0
115.155,8.328,5.34,9.0
64.976,4.732,4.838,22.0
70.786,5.171,4.878,16.0
70.918,5.196,4.494,25.0
134.594,9.892,7.769,15.0
134.467,9.913,7.017,9.0
110.624,8.18,5.16,8.0
64.864,4.83,4.847,18.0
70.691,5.279,4.89,40.0
70.875,5.308,4.509,19.0
132.376,9.945,7.672,12.0
132.29,9.968,6.934,10.0
109.385,8.268,5.128,16.0
65.366,4.975,4.9,15.0
67.555,5.155,4.687,22.0
130.42,9.982,8.324,14.0
130.296,10.0,7.579,14.0
130.148,10.017,6.847,10.0
106.316,8.207,5.004,16.0
65.358,5.079,4.911,25.0
67.871,5.288,4.721,32.0
75.721,5.916,4.846,7.0
74.711,5.853,4.357,4.0
128.024,10.059,6.755,10.0
106.167,8.366,5.012,6.0
65.425,5.19,4.925,16.0
74.616,5.935,5.201,26.0
74.574,5.947,4.781,20.0
74.534,5.96,4.356,25.0
74.616,5.983,3.945,23.0
74.598,5.998,3.53,24.0
65.523,5.303,4.939,9.0
74.66,6.058,5.21,18.0
74.521,6.063,4.784,26.0
74.509,6.078,4.36,22.0
74.55,6.096,3.947,32.0
74.533,6.111,3.531,34.0
66.482,5.486,5.015,43.0
75.852,6.274,5.297,30.0
74.875,6.207,4.811,12.0
74.614,6.201,4.369,11.0
74.631,6.219,3.953,8.0
74.595,6.232,3.535,12.0
66.203,5.566,4.995,26.0
74.368,6.267,5.195,25.0
75.947,6.416,4.879,47.0
120.834,10.232,7.075,30.0
120.904,10.263,6.404,23.0
103.179,8.779,4.888,19.0
66.383,5.684,5.007,30.0
72.699,6.239,5.076,17.0
75.908,6.53,4.874,44.0
120.769,10.412,7.066,18.0
103.156,8.915,5.458,8.0
103.188,8.938,4.884,21.0
66.271,5.776,4.994,38.0
65.595,5.729,4.575,7.0
0.0,0.0,0.0,0.0
119.027,10.442,6.954,7.0
119.076,10.469,6.29,9.0
103.216,9.095,4.875,23.0
66.47,5.893,5.002,19.0
65.68,5.836,4.573,17.0
75.824,6.75,4.854,5.0
117.231,10.459,6.834,26.0
117.282,10.486,6.18,24.0
103.194,9.246,4.86,23.0
66.0,5.95,4.957,26.0
65.61,5.927,4.559,20.0
76.039,6.882,4.856,19.0
114.78,10.409,6.674,19.0
114.764,10.43,6.028,48.0
103.209,9.4,4.842,20.0
66.151,6.061,4.957,28.0
13.84,1.27,0.959,7.0
13.845,1.273,0.881,2.0
13.871,1.278,0.803,0.0
114.702,10.591,6.001,14.0
13.846,1.281,0.646,5.0
13.839,1.288,1.034,12.0
13.82,1.288,0.954,22.0
13.819,1.291,0.876,19.0
13.829,1.294,0.797,10.0
13.825,1.296,0.72,12.0
13.811,1.297,0.641,21.0
13.832,1.306,1.029,30.0
13.808,1.307,0.95,32.0
13.814,1.309,0.872,34.0
13.809,1.311,0.793,28.0
13.813,1.314,0.715,32.0
13.806,1.316,0.637,31.0
13.809,1.324,1.024,31.0
13.801,1.325,0.945,39.0
13.796,1.327,0.867,39.0
13.793,1.329,0.787,37.0
13.793,1.331,0.709,38.0
13.789,1.333,0.632,34.0
13.785,1.34,1.017,34.0
13.781,1.342,0.939,77.0
13.791,1.345,0.862,49.0
13.78,1.346,0.782,65.0
13.783,1.349,0.704,75.0
13.779,1.351,0.626,36.0
13.776,1.358,1.012,35.0
13.769,1.359,0.933,128.0
13.777,1.362,0.855,77.0
13.774,1.364,0.776,103.0
13.781,1.367,0.698,93.0
13.771,1.368,0.62,35.0
13.747,1.373,1.004,24.0
13.761,1.377,0.927,119.0
13.769,1.379,0.849,148.0
13.768,1.381,0.77,105.0
13.775,1.384,0.692,120.0
13.758,1.385,0.614,34.0
13.761,1.392,0.999,35.0
13.76,1.394,0.92,150.0
13.764,1.397,0.843,150.0
13.769,1.399,0.764,127.0
13.773,1.402,0.686,107.0
13.748,1.401,0.607,34.0
13.762,1.41,0.992,38.0
13.753,1.411,0.913,150.0
13.759,1.413,0.835,150.0
13.757,1.415,0.756,133.0
13.771,1.418,0.679,90.0
13.751,1.419,0.6,34.0
13.761,1.427,0.985,45.0
13.755,1.428,0.906,150.0
13.763,1.431,0.829,150.0
13.764,1.433,0.749,114.0
13.77,1.435,0.671,79.0
13.762,1.436,0.593,35.0
13.755,1.443,0.977,111.0
13.759,1.445,0.899,145.0
13.759,1.447,0.821,150.0
13.763,1.449,0.741,121.0
13.775,1.452,0.664,75.0
13.767,1.453,0.585,36.0
13.759,1.459,0.969,103.0
13.764,1.462,0.891,150.0
13.756,1.462,0.812,150.0
13.766,1.465,0.733,108.0
13.774,1.468,0.655,78.0
13.772,1.469,0.577,35.0
13.759,1.475,0.961,89.0
13.762,1.477,0.882,142.0
13.768,1.479,0.804,150.0
13.767,1.48,0.725,80.0
13.775,1.483,0.647,56.0
13.78,1.485,0.569,34.0
13.765,1.491,0.952,47.0
13.753,1.491,0.873,35.0
13.764,1.493,0.795,150.0
13.776,1.496,0.716,38.0
13.785,1.499,0.638,35.0
13.789,1.501,0.56,31.0
13.756,1.504,0.942,48.0
13.748,1.505,0.863,43.0
13.77,1.509,0.786,137.0
13.787,1.512,0.707,34.0
13.806,1.516,0.629,31.0
13.796,1.517,0.551,26.0
13.763,1.519,0.933,39.0
13.758,1.52,0.854,105.0
13.776,1.524,0.777,37.0
13.803,1.528,0.698,31.0
13.804,1.53,0.62,21.0
13.809,1.532,0.541,15.0
13.758,1.532,0.923,35.0
13.775,1.536,0.845,71.0
13.796,1.539,0.767,32.0
13.818,1.543,0.688,19.0
35.867,4.01,1.583,73.0
35.877,4.015,1.379,82.0
13.76,1.546,0.912,32.0
13.766,1.548,0.834,37.0
36.413,4.098,1.998,61.0
13.82,1.556,0.678,5.0
35.88,4.046,1.556,150.0
35.874,4.049,1.351,22.0
13.743,1.557,0.9,17.0
13.757,1.559,0.822,14.0
9.987,1.133,0.54,3.0
9.984,1.133,0.482,3.0
35.856,4.075,1.526,18.0
33.041,3.758,1.218,7.0
13.768,1.572,0.89,9.0
13.795,1.576,0.813,7.0
9.986,1.141,0.531,12.0
9.984,1.142,0.473,11.0
9.997,1.144,0.417,11.0
33.094,3.792,1.192,3.0
10.009,1.151,0.639,21.0
10.006,1.151,0.581,29.0
10.006,1.152,0.524,20.0
10.002,1.152,0.466,18.0
9.998,1.153,0.408,17.0
10.005,1.154,0.351,17.0
10.001,1.158,0.63,67.0
9.997,1.158,0.572,116.0
9.994,1.159,0.515,106.0
9.999,1.16,0.457,59.0
10.003,1.161,0.4,52.0
10.004,1.162,0.343,20.0
9.994,1.165,0.62,88.0
9.996,1.166,0.563,143.0
9.992,1.166,0.506,124.0
9.988,1.166,0.447,80.0
9.997,1.168,0.39,69.0
10.001,1.169,0.333,29.0
9.987,1.171,0.611,82.0
9.99,1.172,0.553,133.0
9.987,1.172,0.496,141.0
9.984,1.173,0.438,85.0
9.99,1.174,0.381,77.0
9.995,1.175,0.324,41.0
9.983,1.178,0.601,80.0
9.99,1.179,0.544,150.0
9.983,1.179,0.486,133.0
9.974,1.178,0.428,81.0
9.984,1.18,0.371,75.0
9.983,1.181,0.314,40.0
9.979,1.184,0.591,81.0
9.986,1.185,0.534,150.0
9.977,1.184,0.476,145.0
9.974,1.185,0.418,100.0
9.98,1.186,0.361,94.0
9.983,1.187,0.304,43.0
9.974,1.189,0.581,97.0
9.977,1.19,0.524,149.0
9.978,1.19,0.467,150.0
9.966,1.189,0.408,99.0
9.977,1.191,0.351,102.0
9.982,1.192,0.294,56.0
9.976,1.195,0.571,101.0
9.979,1.195,0.514,150.0
9.976,1.195,0.456,150.0
9.972,1.195,0.398,119.0
9.973,1.196,0.341,101.0
9.977,1.197,0.284,55.0
9.974,1.2,0.561,101.0
9.972,1.2,0.503,150.0
9.976,1.201,0.446,150.0
9.966,1.2,0.388,118.0
9.971,1.201,0.331,103.0
9.976,1.202,0.274,59.0
9.969,1.204,0.55,112.0
9.974,1.205,0.493,150.0
9.976,1.205,0.436,150.0
9.966,1.204,0.377,130.0
9.975,1.206,0.32,111.0
9.971,1.206,0.263,68.0
9.969,1.208,0.54,111.0
9.972,1.209,0.482,150.0
9.978,1.21,0.425,150.0
9.971,1.209,0.367,136.0
9.974,1.21,0.31,121.0
9.968,1.209,0.253,73.0
9.969,1.212,0.529,110.0
9.967,1.212,0.471,150.0
9.972,1.213,0.414,150.0
9.968,1.212,0.356,128.0
9.972,1.213,0.299,122.0
9.97,1.213,0.242,75.0
9.968,1.215,0.518,100.0
9.975,1.216,0.461,150.0
9.975,1.216,0.404,150.0
9.968,1.216,0.345,128.0
9.977,1.217,0.288,120.0
9.97,1.216,0.231,69.0
9.971,1.218,0.507,104.0
9.975,1.219,0.45,150.0
9.976,1.219,0.393,150.0
9.969,1.218,0.334,124.0
9.97,1.219,0.277,115.0
9.969,1.219,0.22,66.0
9.969,1.221,0.496,103.0
9.968,1.221,0.438,150.0
9.974,1.221,0.381,150.0
9.966,1.22,0.323,119.0
9.974,1.221,0.266,106.0
9.969,1.221,0.209,62.0
9.97,1.223,0.485,99.0
9.974,1.223,0.428,150.0
9.972,1.223,0.37,150.0
9.969,1.223,0.312,118.0
9.977,1.224,0.255,117.0
9.971,1.223,0.198,72.0
9.968,1.224,0.473,102.0
9.973,1.225,0.416,150.0
9.972,1.224,0.359,150.0
9.969,1.224,0.301,115.0
9.966,1.224,0.243,120.0
9.97,1.224,0.186,69.0
9.97,1.225,0.462,104.0
9.973,1.226,0.405,150.0
9.973,1.226,0.347,150.0
9.969,1.225,0.289,119.0
9.975,1.226,0.232,113.0
9.97,1.225,0.175,67.0
9.971,1.226,0.45,109.0
9.972,1.226,0.393,150.0
9.976,1.226,0.336,150.0
9.966,1.225,0.277,118.0
9.97,1.226,0.22,108.0
9.969,1.225,0.163,60.0
9.971,1.226,0.439,104.0
9.973,1.226,0.382,150.0
9.973,1.226,0.324,150.0
9.97,1.226,0.266,121.0
9.977,1.226,0.209,113.0
9.968,1.225,0.152,71.0
9.971,1.226,0.427,102.0
9.974,1.226,0.37,150.0
9.972,1.226,0.313,150.0
9.97,1.225,0.254,120.0
9.973,1.225,0.197,112.0
9.968,1.225,0.14,63.0
9.972,1.226,0.416,103.0
9.972,1.225,0.358,150.0
9.974,1.225,0.301,150.0
9.97,1.224,0.243,120.0
9.978,1.225,0.186,112.0
9.97,1.224,0.129,59.0
9.97,1.224,0.404,114.0
9.968,1.224,0.347,150.0
9.975,1.224,0.29,150.0
9.968,1.223,0.231,117.0
9.972,1.223,0.174,119.0
9.972,1.223,0.117,62.0
9.97,1.223,0.392,101.0
9.973,1.222,0.335,150.0
9.975,1.222,0.278,150.0
9.968,1.221,0.22,108.0
9.971,1.221,0.162,109.0
9.97,1.221,0.105,60.0
9.973,1.221,0.381,106.0
9.977,1.221,0.324,150.0
9.97,1.22,0.266,150.0
9.966,1.219,0.208,115.0
9.973,1.219,0.151,116.0
9.97,1.218,0.094,67.0
9.969,1.218,0.369,116.0
9.97,1.217,0.312,150.0
9.976,1.218,0.255,150.0
9.972,1.217,0.196,125.0
9.977,1.217,0.139,112.0
9.97,1.215,0.082,61.0
9.974,1.215,0.357,114.0
9.969,1.214,0.3,150.0
9.977,1.214,0.243,150.0
9.97,1.213,0.184,109.0
9.974,1.213,0.127,107.0
9.968,1.212,0.07,62.0
9.973,1.212,0.346,111.0
9.968,1.211,0.288,150.0
9.974,1.211,0.231,150.0
9.966,1.209,0.173,91.0
9.977,1.21,0.116,100.0
9.963,1.208,0.059,57.0
9.97,1.208,0.334,107.0
9.975,1.207,0.277,150.0
9.969,1.206,0.219,150.0
9.975,1.206,0.161,102.0
9.972,1.205,0.104,105.0
9.982,1.206,0.047,53.0
9.974,1.204,0.322,100.0
9.976,1.203,0.265,150.0
9.975,1.202,0.208,150.0
9.966,1.2,0.15,92.0
9.976,1.201,0.093,102.0
9.974,1.2,0.035,52.0
9.971,1.198,0.311,90.0
9.967,1.197,0.253,150.0
9.976,1.197,0.196,150.0
9.973,1.196,0.138,94.0
9.984,1.197,0.081,92.0
9.977,1.195,0.024,42.0
9.978,1.194,0.299,88.0
9.982,1.194,0.242,140.0
9.978,1.192,0.185,139.0
9.974,1.191,0.127,80.0
9.99,1.192,0.07,74.0
9.987,1.191,0.012,30.0
9.982,1.189,0.288,69.0
9.986,1.188,0.231,135.0
9.988,1.188,0.173,138.0
9.986,1.187,0.115,70.0
9.991,1.186,0.058,77.0
9.989,1.185,0.001,20.0
9.988,1.183,0.277,70.0
9.992,1.183,0.219,133.0
9.987,1.181,0.162,131.0
9.987,1.18,0.104,66.0
9.994,1.18,0.047,69.0
9.995,1.18,-0.009,22.0
10.002,1.178,0.266,78.0
10.004,1.177,0.208,136.0
9.991,1.175,0.151,127.0
9.993,1.174,0.093,53.0
10.006,1.175,0.036,64.0
10.003,1.173,-0.021,21.0
10.003,1.171,0.254,75.0
10.005,1.17,0.197,117.0
9.995,1.168,0.14,93.0
10.004,1.168,0.082,21.0
10.01,1.168,0.024,20.0
10.0,1.166,-0.032,17.0
33.934,3.949,0.826,3.0
10.015,1.164,0.186,28.0
33.879,3.935,0.437,2.0
33.047,3.835,0.234,8.0
33.883,3.928,0.046,19.0
36.505,4.229,-0.158,7.0
33.993,3.928,0.789,3.0
33.932,3.918,0.594,10.0
33.906,3.91,0.4,29.0
33.831,3.898,0.203,11.0
33.902,3.903,0.009,121.0
0.0,0.0,0.0,0.0
9.996,1.147,0.221,7.0
9.998,1.146,0.164,4.0
10.005,1.145,0.107,2.0
33.919,3.879,0.166,150.0
39.316,4.492,-0.031,12.0
34.666,3.957,-0.225,35.0
10.041,1.143,0.211,0.0
96.346,10.958,1.48,9.0
75.095,8.531,0.725,11.0
41.361,4.693,0.159,25.0
38.169,4.326,-0.071,19.0
34.491,3.906,-0.261,43.0
96.915,10.945,1.939,20.0
33.119,3.735,0.473,6.0
13.867,1.562,0.119,0.0
41.08,4.623,0.114,12.0
36.891,4.147,-0.107,4.0
0.0,0.0,0.0,0.0
33.02,3.697,0.626,19.0
33.019,3.692,0.437,9.0
13.818,1.543,0.104,5.0
13.847,1.544,0.024,12.0
13.852,1.543,-0.054,14.0
13.857,1.542,-0.133,14.0
13.822,1.533,0.247,25.0
13.815,1.53,0.169,18.0
13.819,1.529,0.09,16.0
13.817,1.527,0.01,19.0
13.818,1.525,-0.068,19.0
13.808,1.522,-0.147,19.0
13.8,1.517,0.233,32.0
13.806,1.515,0.154,31.0
13.791,1.511,0.076,27.0
13.81,1.511,-0.003,28.0
13.794,1.508,-0.082,22.0
13.792,1.506,-0.16,27.0
13.798,1.501,0.219,36.0
13.802,1.5,0.141,44.0
13.789,1.496,0.062,35.0
13.791,1.494,-0.017,30.0
13.79,1.492,-0.095,28.0
13.781,1.489,-0.174,32.0
13.787,1.484,0.206,39.0
13.793,1.483,0.127,61.0
13.782,1.479,0.049,45.0
13.781,1.477,-0.03,33.0
13.78,1.475,-0.108,34.0
13.778,1.473,-0.187,33.0
13.787,1.468,0.193,38.0
13.791,1.467,0.114,132.0
13.781,1.463,0.036,85.0
13.768,1.46,-0.043,36.0
13.767,1.457,-0.121,36.0
13.778,1.457,-0.2,36.0
13.769,1.45,0.18,37.0
13.785,1.449,0.101,135.0
13.778,1.446,0.023,107.0
13.769,1.443,-0.056,40.0
13.768,1.441,-0.134,39.0
13.776,1.439,-0.212,36.0
13.769,1.433,0.167,39.0
13.787,1.432,0.089,138.0
13.779,1.429,0.01,136.0
13.768,1.425,-0.068,40.0
13.766,1.423,-0.146,38.0
13.775,1.422,-0.225,36.0
13.772,1.415,0.155,40.0
13.784,1.414,0.077,150.0
13.783,1.412,-0.001,121.0
13.769,1.408,-0.08,39.0
13.767,1.405,-0.158,37.0
13.772,1.403,-0.236,36.0
13.775,1.398,0.143,45.0
13.789,1.396,0.065,150.0
13.785,1.393,-0.012,131.0
13.771,1.39,-0.092,37.0
13.771,1.387,-0.17,35.0
13.773,1.385,-0.248,38.0
13.784,1.38,0.131,68.0
13.792,1.378,0.053,150.0
13.786,1.375,-0.024,141.0
13.775,1.371,-0.103,37.0
13.782,1.369,-0.182,37.0
13.774,1.366,-0.259,37.0
13.793,1.362,0.12,71.0
13.799,1.36,0.042,129.0
13.799,1.357,-0.035,106.0
13.786,1.353,-0.114,39.0
13.787,1.35,-0.193,35.0
13.779,1.347,-0.27,34.0
13.808,1.343,0.109,50.0
13.81,1.341,0.031,81.0
13.806,1.337,-0.046,109.0
13.798,1.334,-0.125,37.0
13.803,1.332,-0.204,36.0
13.79,1.328,-0.281,32.0
13.821,1.324,0.099,40.0
13.826,1.322,0.021,40.0
13.818,1.318,-0.056,39.0
13.814,1.315,-0.136,34.0
13.811,1.312,-0.214,34.0
13.809,1.309,-0.292,32.0
13.837,1.305,0.089,34.0
13.847,1.303,0.011,35.0
13.835,1.299,-0.067,31.0
13.834,1.296,-0.146,30.0
13.832,1.293,-0.224,31.0
13.816,1.289,-0.302,28.0
13.853,1.285,0.079,23.0
13.852,1.282,0.001,25.0
13.841,1.278,-0.076,24.0
13.855,1.277,-0.156,27.0
13.85,1.273,-0.234,24.0
13.828,1.268,-0.312,20.0
13.883,1.266,0.07,6.0
40.911,3.724,-0.023,5.0
13.897,1.262,-0.086,11.0
13.873,1.257,-0.165,18.0
13.872,1.253,-0.244,17.0
13.873,1.251,-0.322,13.0
52.976,4.75,0.233,20.0
40.901,3.658,-0.049,26.0
34.772,3.101,-0.238,10.0
13.894,1.236,-0.174,1.0
22.318,1.981,-0.406,3.0
19.849,1.758,-0.473,0.0
53.656,4.724,0.203,7.0
37.953,3.332,-0.069,25.0
34.75,3.043,-0.259,10.0
29.728,2.597,-0.392,1.0
22.041,1.92,-0.414,4.0
19.525,1.697,-0.477,3.0
29.856,2.579,0.095,37.0
29.833,2.57,-0.071,12.0
34.768,2.987,-0.279,7.0
29.509,2.528,-0.406,1.0
21.763,1.86,-0.421,4.0
19.387,1.652,-0.485,3.0
29.826,2.527,0.079,21.0
29.777,2.515,-0.088,43.0
29.741,2.506,-0.255,23.0
25.014,2.101,-0.357,1.0
21.524,1.803,-0.428,4.0
19.156,1.6,-0.489,3.0
29.803,2.474,0.063,24.0
29.754,2.463,-0.103,22.0
29.709,2.452,-0.27,25.0
24.763,2.038,-0.366,2.0
21.296,1.747,-0.434,4.0
19.064,1.56,-0.496,3.0
29.862,2.427,0.048,7.0
29.84,2.418,-0.118,25.0
29.785,2.406,-0.285,5.0
24.8,1.997,-0.378,4.0
21.037,1.69,-0.439,4.0
18.85,1.509,-0.499,3.0
29.817,2.371,0.035,29.0
29.751,2.358,-0.131,40.0
29.739,2.35,-0.298,24.0
24.65,1.942,-0.387,5.0
20.952,1.645,-0.446,4.0
18.739,1.467,-0.504,3.0
29.731,2.312,0.022,34.0
29.722,2.304,-0.143,43.0
29.717,2.296,-0.309,28.0
24.379,1.877,-0.393,5.0
20.808,1.597,-0.451,4.0
18.619,1.424,-0.508,3.0
29.748,2.26,0.011,50.0
29.714,2.25,-0.155,36.0
29.778,2.246,-0.321,25.0
24.027,1.806,-0.396,5.0
20.702,1.551,-0.457,4.0
18.504,1.382,-0.512,3.0
29.779,2.208,0.0,38.0
35.311,2.609,-0.196,11.0
31.029,2.284,-0.345,1.0
23.704,1.739,-0.398,5.0
20.62,1.507,-0.462,3.0
18.484,1.346,-0.517,4.0
41.38,2.992,-0.012,49.0
0.0,0.0,0.0,0.0
30.845,2.214,-0.353,1.0
23.523,1.682,-0.402,5.0
20.542,1.463,-0.466,3.0
18.402,1.306,-0.52,3.0
41.259,2.906,-0.023,51.0
35.289,2.476,-0.217,18.0
30.606,2.139,-0.358,2.0
23.477,1.635,-0.408,5.0
20.516,1.423,-0.471,3.0
18.308,1.265,-0.522,3.0
41.303,2.831,-0.034,34.0
35.244,2.406,-0.225,13.0
30.559,2.078,-0.365,2.0
23.343,1.581,-0.411,5.0
20.428,1.378,-0.473,3.0
18.297,1.229,-0.526,3.0
0.0,0.0,0.0,0.0
35.17,2.334,-0.232,10.0
30.439,2.012,-0.369,2.0
23.291,1.533,-0.414,5.0
20.341,1.333,-0.475,3.0
18.21,1.189,-0.526,3.0
40.511,2.623,-0.048,50.0
35.276,2.274,-0.238,11.0
30.355,1.948,-0.373,1.0
23.175,1.481,-0.416,5.0
20.338,1.294,-0.478,3.0
18.199,1.153,-0.528,5.0
40.791,2.564,-0.054,2.0
33.445,2.092,-0.23,36.0
30.306,1.888,-0.376,2.0
23.137,1.434,-0.418,5.0
20.311,1.253,-0.479,3.0
18.218,1.119,-0.531,3.0
40.574,2.471,-0.058,52.0
35.334,2.142,-0.246,9.0
30.353,1.831,-0.379,2.0
23.213,1.394,-0.421,5.0
20.338,1.215,-0.481,3.0
18.184,1.081,-0.531,3.0
40.572,2.392,-0.061,52.0
35.338,2.073,-0.248,8.0
30.321,1.77,-0.381,2.0
23.259,1.351,-0.423,5.0
20.389,1.179,-0.483,3.0
18.239,1.049,-0.533,3.0
40.583,2.313,-0.062,16.0
35.418,2.008,-0.249,10.0
30.269,1.707,-0.38,2.0
23.276,1.306,-0.423,5.0
20.358,1.136,-0.483,3.0
18.244,1.013,-0.533,4.0
40.61,2.234,-0.061,49.0
35.484,1.942,-0.249,11.0
30.389,1.654,-0.381,2.0
23.427,1.268,-0.425,5.0
20.416,1.099,-0.483,3.0
18.315,0.981,-0.534,4.0
40.654,2.156,-0.059,49.0
35.517,1.873,-0.247,8.0
30.352,1.592,-0.378,2.0
23.561,1.228,-0.426,5.0
20.551,1.065,-0.485,3.0
18.384,0.948,-0.535,3.0
40.774,2.081,-0.056,45.0
35.656,1.81,-0.245,8.0
30.4,1.533,-0.376,2.0
23.733,1.19,-0.426,5.0
20.61,1.027,-0.484,3.0
18.468,0.915,-0.535,3.0
40.846,2.003,-0.05,49.0
35.736,1.742,-0.241,12.0
30.604,1.482,-0.374,2.0
23.886,1.15,-0.426,5.0
20.732,0.992,-0.483,4.0
18.579,0.883,-0.535,3.0
41.012,1.929,-0.044,34.0
35.848,1.675,-0.235,13.0
30.715,1.425,-0.37,1.0
24.211,1.116,-0.427,5.0
20.863,0.955,-0.482,4.0
18.668,0.849,-0.534,3.0
41.45,1.866,-0.036,19.0
36.005,1.609,-0.228,14.0
30.972,1.375,-0.366,2.0
24.389,1.075,-0.425,5.0
21.01,0.92,-0.481,6.0
18.717,0.813,-0.531,3.0
41.768,1.795,-0.026,18.0
36.146,1.542,-0.22,21.0
31.232,1.323,-0.361,2.0
24.517,1.031,-0.42,3.0
21.139,0.883,-0.478,10.0
18.882,0.783,-0.53,3.0
42.105,1.725,-0.015,17.0
36.274,1.475,-0.211,27.0
31.475,1.27,-0.355,1.0
24.657,0.987,-0.415,1.0
21.214,0.842,-0.473,4.0
19.121,0.753,-0.531,3.0
42.59,1.659,-0.001,17.0
36.427,1.407,-0.2,32.0
31.719,1.215,-0.347,1.0
28.146,1.07,-0.465,1.0
21.515,0.811,-0.472,4.0
19.3,0.721,-0.529,3.0
47.121,1.74,0.014,22.0
36.542,1.338,-0.187,32.0
32.147,1.167,-0.34,1.0
28.281,1.017,-0.456,1.0
21.683,0.773,-0.468,4.0
19.378,0.685,-0.524,3.0
47.198,1.647,0.033,24.0
36.737,1.27,-0.173,32.0
32.704,1.121,-0.333,1.0
28.492,0.967,-0.448,1.0
21.94,0.738,-0.464,4.0
19.62,0.653,-0.522,3.0
47.938,1.575,0.055,23.0
39.449,1.283,-0.169,21.0
33.327,1.074,-0.324,1.0
28.851,0.92,-0.44,1.0
22.326,0.704,-0.462,4.0
19.905,0.622,-0.52,3.0
48.431,1.492,0.078,24.0
0.0,0.0,0.0,0.0
36.184,1.091,-0.334,1.0
29.189,0.871,-0.431,2.0
22.974,0.678,-0.464,5.0
20.104,0.587,-0.515,3.0
52.164,1.501,0.111,5.0
39.08,1.112,-0.128,50.0
36.231,1.019,-0.315,5.0
29.527,0.821,-0.42,2.0
23.468,0.645,-0.461,4.0
20.314,0.552,-0.509,3.0
0.0,0.0,0.0,0.0
39.437,1.042,-0.107,37.0
36.47,0.952,-0.297,6.0
29.89,0.77,-0.408,2.0
23.72,0.604,-0.452,1.0
20.637,0.518,-0.505,6.0
0.0,0.0,0.0,0.0
39.708,0.968,-0.084,25.0
36.607,0.88,-0.275,8.0
30.287,0.719,-0.395,2.0
27.12,0.635,-0.5,2.0
20.962,0.484,-0.5,6.0
58.207,1.32,0.227,16.0
42.96,0.96,-0.064,3.0
36.923,0.813,-0.254,12.0
30.872,0.67,-0.382,2.0
27.321,0.584,-0.486,1.0
21.354,0.45,-0.495,4.0
0.0,0.0,0.0,0.0
44.863,0.912,-0.036,19.0
37.236,0.745,-0.231,18.0
31.31,0.616,-0.366,1.0
27.777,0.538,-0.475,1.0
21.626,0.412,-0.486,4.0
60.828,1.135,0.32,36.0
0.0,0.0,0.0,0.0
37.585,0.677,-0.207,39.0
32.12,0.568,-0.353,2.0
28.291,0.491,-0.463,1.0
21.994,0.375,-0.478,4.0
61.967,1.033,0.371,21.0
47.282,0.773,0.029,42.0
38.019,0.609,-0.18,47.0
32.905,0.516,-0.336,1.0
28.853,0.443,-0.45,2.0
22.214,0.334,-0.466,1.0
75.092,1.102,0.508,10.0
47.846,0.687,0.067,52.0
38.618,0.542,-0.153,52.0
33.698,0.461,-0.318,1.0
29.307,0.392,-0.434,2.0
26.195,0.342,-0.528,2.0
48.092,0.611,0.364,84.0
47.965,0.593,0.106,66.0
39.246,0.473,-0.123,36.0
37.026,0.434,-0.318,3.0
29.777,0.339,-0.416,1.0
26.613,0.295,-0.514,2.0
48.076,0.516,0.405,102.0
48.011,0.499,0.147,76.0
43.901,0.442,-0.1,4.0
37.409,0.364,-0.289,5.0
30.404,0.287,-0.398,2.0
27.025,0.246,-0.498,1.0
48.069,0.421,0.448,105.0
48.04,0.405,0.19,98.0
0.0,0.0,0.0,0.0
37.773,0.295,-0.258,9.0
31.054,0.233,-0.378,1.0
27.581,0.198,-0.483,1.0
48.153,0.328,0.493,50.0
48.204,0.314,0.235,25.0
0.0,0.0,0.0,0.0
38.336,0.225,-0.226,14.0
31.93,0.177,-0.359,1.0
28.259,0.148,-0.468,2.0
59.319,0.292,0.663,104.0
59.351,0.274,0.346,61.0
47.332,0.203,0.023,25.0
38.878,0.154,-0.192,36.0
33.031,0.12,-0.339,1.0
28.861,0.096,-0.45,2.0
79.477,0.24,0.966,151.0
76.333,0.206,0.521,22.0
48.079,0.114,0.072,9.0
39.602,0.082,-0.155,41.0
34.976,0.061,-0.323,0.0
29.516,0.042,-0.43,2.0
79.464,0.089,1.047,151.0
79.335,0.064,0.623,27.0
0.0,0.0,0.0,0.0
40.926,0.008,-0.118,17.0
38.122,-0.004,-0.313,2.0
30.056,-0.012,-0.407,2.0
79.453,-0.058,1.13,151.0
79.427,-0.083,0.707,150.0
56.169,-0.076,0.201,9.0
45.574,-0.075,-0.083,6.0
38.817,-0.076,-0.277,3.0
30.869,-0.07,-0.385,1.0
79.455,-0.204,1.215,151.0
79.453,-0.229,0.793,151.0
61.498,-0.196,0.287,8.0
45.876,-0.16,-0.034,21.0
39.326,-0.149,-0.238,6.0
31.852,-0.131,-0.361,1.0
79.452,-0.35,1.304,165.0
79.46,-0.374,0.882,174.0
76.696,-0.384,0.444,14.0
0.0,0.0,0.0,0.0
41.112,-0.231,-0.201,3.0
33.2,-0.196,-0.339,1.0
79.449,-0.493,1.394,164.0
79.454,-0.517,0.973,184.0
0.0,0.0,0.0,0.0
54.782,-0.389,0.084,7.0
47.342,-0.351,-0.177,20.0
34.217,-0.264,-0.309,0.0
79.441,-0.637,1.488,169.0
79.447,-0.66,1.068,190.0
79.405,-0.684,0.646,96.0
61.034,-0.543,0.167,3.0
50.845,-0.468,-0.129,20.0
38.49,-0.366,-0.301,13.0
79.427,-0.778,1.584,185.0
79.434,-0.801,1.164,192.0
79.447,-0.825,0.744,162.0
60.836,-0.649,0.242,3.0
80.14,-0.879,-0.104,13.0
41.835,-0.471,-0.275,2.0
79.448,-0.916,1.683,151.0
79.434,-0.939,1.262,177.0
80.106,-0.971,0.85,14.0
78.345,-0.973,0.41,5.0
60.89,-0.773,-0.002,5.0
42.257,-0.549,-0.224,1.0
86.951,-1.154,1.953,67.0
183.414,-2.487,3.15,77.0
148.195,-2.053,1.764,13.0
85.067,-1.202,0.555,2.0
61.467,-0.887,0.077,0.0
46.199,-0.68,-0.185,1.0
262.033,-3.923,6.226,8.0
0.0,0.0,0.0,0.0
205.441,-3.194,2.714,24.0
0.0,0.0,0.0,0.0
40.31,-0.649,0.103,15.0
40.346,-0.661,-0.108,28.0
40.281,-0.67,1.01,6.0
40.233,-0.681,0.797,7.0
205.392,-3.533,2.986,88.0
40.244,-0.703,0.369,48.0
40.271,-0.715,0.157,52.0
40.311,-0.727,-0.054,63.0
40.257,-0.736,1.063,60.0
40.203,-0.746,0.85,48.0
40.207,-0.757,0.639,41.0
40.234,-0.769,0.424,54.0
40.29,-0.781,0.212,46.0
56.562,-1.112,0.001,0.0
40.288,-0.802,1.12,53.0
40.223,-0.811,0.906,47.0
40.24,-0.822,0.695,60.0
40.251,-0.833,0.479,43.0
0.0,0.0,0.0,0.0
0.0,0.0,0.0,0.0
40.231,-0.864,1.174,44.0
40.208,-0.875,0.962,59.0
40.196,-0.886,0.751,59.0
40.294,-0.898,0.537,137.0
40.295,-0.909,0.325,150.0
40.297,-0.92,0.114,73.0
40.255,-0.928,1.232,54.0
40.21,-0.937,1.02,56.0
40.183,-0.947,0.808,55.0
40.202,-0.958,0.593,55.0
40.253,-0.969,0.383,18.0
0.0,0.0,0.0,0.0
40.264,-0.989,1.291,72.0
40.203,-0.998,1.078,56.0
40.183,-1.008,0.867,51.0
40.206,-1.019,0.653,58.0
40.205,-1.03,0.442,54.0
40.184,-1.039,0.231,55.0
40.241,-1.05,1.35,44.0
40.219,-1.059,1.138,43.0
40.204,-1.068,0.927,46.0
40.239,-1.079,0.712,39.0
40.24,-1.09,0.502,38.0
40.191,-1.098,0.291,55.0
40.302,-1.11,1.411,3.0
40.255,-1.119,1.199,30.0
40.361,-1.131,0.99,15.0
0.0,0.0,0.0,0.0
153.695,-4.386,2.15,22.0
0.0,0.0,0.0,0.0
0.0,0.0,0.0,0.0
0.0,0.0,0.0,0.0
40.295,-1.187,1.05,29.0
40.319,-1.197,0.836,24.0
40.343,-1.208,0.625,43.0
0.0,0.0,0.0,0.0
0.0,0.0,0.0,0.0
0.0,0.0,0.0,0.0
40.342,-1.244,1.113,9.0
40.325,-1.253,0.898,17.0
40.351,-1.263,0.688,25.0
40.399,-1.274,0.477,0.0
148.115,-4.703,5.869,8.0
0.0,0.0,0.0,0.0
0.0,0.0,0.0,0.0
0.0,0.0,0.0,0.0
0.0,0.0,0.0,0.0
0.0,0.0,0.0,0.0
148.014,-4.9,6.099,19.0
0.0,0.0,0.0,0.0
0.0,0.0,0.0,0.0
0.0,0.0,0.0,0.0
0.0,0.0,0.0,0.0
0.0,0.0,0.0,0.0
0.0,0.0,0.0,0.0
0.0,0.0,0.0,0.0
0.0,0.0,0.0,0.0
0.0,0.0,0.0,0.0
0.0,0.0,0.0,0.0
0.0,0.0,0.0,0.0
0.0,0.0,0.0,0.0
0.0,0.0,0.0,0.0
0.0,0.0,0.0,0.0
0.0,0.0,0.0,0.0
0.0,0.0,0.0,0.0
0.0,0.0,0.0,0.0
0.0,0.0,0.0,0.0
0.0,0.0,0.0,0.0
0.0,0.0,0.0,0.0
0.0,0.0,0.0,0.0
0.0,0.0,0.0,0.0
0.0,0.0,0.0,0.0
0.0,0.0,0.0,0.0
0.0,0.0,0.0,0.0
0.0,0.0,0.0,0.0
0.0,0.0,0.0,0.0
0.0,0.0,0.0,0.0
0.0,0.0,0.0,0.0
0.0,0.0,0.0,0.0
0.0,0.0,0.0,0.0
0.0,0.0,0.0,0.0
0.0,0.0,0.0,0.0
0.0,0.0,0.0,0.0
0.0,0.0,0.0,0.0
0.0,0.0,0.0,0.0
0.0,0.0,0.0,0.0
0.0,0.0,0.0,0.0
0.0,0.0,0.0,0.0
0.0,0.0,0.0,0.0
0.0,0.0,0.0,0.0
0.0,0.0,0.0,0.0
0.0,0.0,0.0,0.0
0.0,0.0,0.0,0.0
0.0,0.0,0.0,0.0
0.0,0.0,0.0,0.0
0.0,0.0,0.0,0.0
0.0,0.0,0.0,0.0
0.0,0.0,0.0,0.0
0.0,0.0,0.0,0.0
0.0,0.0,0.0,0.0
0.0,0.0,0.0,0.0
0.0,0.0,0.0,0.0
0.0,0.0,0.0,0.0
0.0,0.0,0.0,0.0
0.0,0.0,0.0,0.0
0.0,0.0,0.0,0.0
0.0,0.0,0.0,0.0
0.0,0.0,0.0,0.0
83.299,-3.706,4.807,1.0
0.0,0.0,0.0,0.0
0.0,0.0,0.0,0.0
0.0,0.0,0.0,0.0
0.0,0.0,0.0,0.0
0.0,0.0,0.0,0.0
83.213,-3.779,4.945,1.0
0.0,0.0,0.0,0.0
0.0,0.0,0.0,0.0
0.0,0.0,0.0,0.0
0.0,0.0,0.0,0.0
0.0,0.0,0.0,0.0
0.0,0.0,0.0,0.0
0.0,0.0,0.0,0.0
0.0,0.0,0.0,0.0
0.0,0.0,0.0,0.0
0.0,0.0,0.0,0.0
0.0,0.0,0.0,0.0
0.0,0.0,0.0,0.0
0.0,0.0,0.0,0.0
0.0,0.0,0.0,0.0
0.0,0.0,0.0,0.0
0.0,0.0,0.0,0.0
0.0,0.0,0.0,0.0
92.083,-4.418,5.949,2.0
0.0,0.0,0.0,0.0
0.0,0.0,0.0,0.0
0.0,0.0,0.0,0.0
0.0,0.0,0.0,0.0
0.0,0.0,0.0,0.0
91.444,-4.458,6.066,1.0
0.0,0.0,0.0,0.0
0.0,0.0,0.0,0.0
0.0,0.0,0.0,0.0
0.0,0.0,0.0,0.0
0.0,0.0,0.0,0.0
92.993,-4.601,6.331,2.0
0.0,0.0,0.0,0.0
0.0,0.0,0.0,0.0
0.0,0.0,0.0,0.0
0.0,0.0,0.0,0.0
0.0,0.0,0.0,0.0
92.925,-4.663,6.488,3.0
0.0,0.0,0.0,0.0
0.0,0.0,0.0,0.0
0.0,0.0,0.0,0.0
0.0,0.0,0.0,0.0
0.0,0.0,0.0,0.0
91.372,-4.644,6.539,3.0
90.416,-4.604,5.998,1.0
0.0,0.0,0.0,0.0
0.0,0.0,0.0,0.0
0.0,0.0,0.0,0.0
0.0,0.0,0.0,0.0
91.419,-4.703,6.702,2.0
92.985,-4.79,6.331,4.0
0.0,0.0,0.0,0.0
0.0,0.0,0.0,0.0
0.0,0.0,0.0,0.0
0.0,0.0,0.0,0.0
92.972,-4.835,6.978,4.0
92.995,-4.843,6.492,4.0
0.0,0.0,0.0,0.0
0.0,0.0,0.0,0.0
0.0,0.0,0.0,0.0
0.0,0.0,0.0,0.0
92.884,-4.88,7.131,2.0
0.0,0.0,0.0,0.0
0.0,0.0,0.0,0.0
0.0,0.0,0.0,0.0
227.59,-12.009,12.693,7.0
227.608,-12.024,11.509,6.0
83.038,-4.403,6.52,3.0
91.56,-4.859,6.709,2.0
0.0,0.0,0.0,0.0
0.0,0.0,0.0,0.0
0.0,0.0,0.0,0.0
0.0,0.0,0.0,0.0
83.007,-4.439,6.661,2.0
93.068,-4.979,6.979,2.0
92.878,-4.973,6.479,5.0
0.0,0.0,0.0,0.0
0.0,0.0,0.0,0.0
0.0,0.0,0.0,0.0
83.047,-4.474,6.808,1.0
91.521,-4.934,7.023,1.0
92.847,-5.008,6.638,4.0
0.0,0.0,0.0,0.0
0.0,0.0,0.0,0.0
0.0,0.0,0.0,0.0
0.0,0.0,0.0,0.0
0.0,0.0,0.0,0.0
0.0,0.0,0.0,0.0
0.0,0.0,0.0,0.0
0.0,0.0,0.0,0.0
0.0,0.0,0.0,0.0
0.0,0.0,0.0,0.0
0.0,0.0,0.0,0.0
93.037,-5.078,6.968,3.0
0.0,0.0,0.0,0.0
0.0,0.0,0.0,0.0
0.0,0.0,0.0,0.0
0.0,0.0,0.0,0.0
0.0,0.0,0.0,0.0
91.478,-5.017,7.006,2.0
92.966,-5.1,6.622,2.0
0.0,0.0,0.0,0.0
0.0,0.0,0.0,0.0
0.0,0.0,0.0,0.0
0.0,0.0,0.0,0.0
91.521,-5.04,7.163,4.0
0.0,0.0,0.0,0.0
0.0,0.0,0.0,0.0
0.0,0.0,0.0,0.0
0.0,0.0,0.0,0.0
0.0,0.0,0.0,0.0
91.387,-5.049,7.304,1.0
0.0,0.0,0.0,0.0
0.0,0.0,0.0,0.0
0.0,0.0,0.0,0.0
0.0,0.0,0.0,0.0
0.0,0.0,0.0,0.0
0.0,0.0,0.0,0.0
93.036,-5.152,7.093,3.0
0.0,0.0,0.0,0.0
0.0,0.0,0.0,0.0
0.0,0.0,0.0,0.0
0.0,0.0,0.0,0.0
0.0,0.0,0.0,0.0
0.0,0.0,0.0,0.0
0.0,0.0,0.0,0.0
0.0,0.0,0.0,0.0
0.0,0.0,0.0,0.0
0.0,0.0,0.0,0.0
0.0,0.0,0.0,0.0
0.0,0.0,0.0,0.0
0.0,0.0,0.0,0.0
0.0,0.0,0.0,0.0
0.0,0.0,0.0,0.0
0.0,0.0,0.0,0.0
0.0,0.0,0.0,0.0
0.0,0.0,0.0,0.0
93.022,-5.161,7.053,2.0
0.0,0.0,0.0,0.0
0.0,0.0,0.0,0.0
0.0,0.0,0.0,0.0
0.0,0.0,0.0,0.0
0.0,0.0,0.0,0.0
92.827,-5.147,7.186,1.0
0.0,0.0,0.0,0.0
0.0,0.0,0.0,0.0
0.0,0.0,0.0,0.0
0.0,0.0,0.0,0.0
0.0,0.0,0.0,0.0
0.0,0.0,0.0,0.0
0.0,0.0,0.0,0.0
56.563,-3.14,5.761,4.0
0.0,0.0,0.0,0.0
0.0,0.0,0.0,0.0
0.0,0.0,0.0,0.0
0.0,0.0,0.0,0.0
92.782,-5.121,6.981,2.0
56.71,-3.141,5.863,0.0
0.0,0.0,0.0,0.0
0.0,0.0,0.0,0.0
0.0,0.0,0.0,0.0
0.0,0.0,0.0,0.0
91.544,-5.037,7.027,3.0
0.0,0.0,0.0,0.0
0.0,0.0,0.0,0.0
92.166,-5.075,8.689,3.0
0.0,0.0,0.0,0.0
0.0,0.0,0.0,0.0
91.513,-5.017,7.162,1.0
49.544,-2.725,5.273,0.0
56.574,-3.107,5.719,5.0
0.0,0.0,0.0,0.0
0.0,0.0,0.0,0.0
0.0,0.0,0.0,0.0
0.0,0.0,0.0,0.0
49.409,-2.706,5.332,2.0
0.0,0.0,0.0,0.0
56.917,-3.106,5.534,3.0
92.23,-5.026,8.467,4.0
0.0,0.0,0.0,0.0
0.0,0.0,0.0,0.0
49.367,-2.69,5.4,4.0
0.0,0.0,0.0,0.0
56.541,-3.07,5.58,1.0
90.751,-4.918,8.462,1.0
92.466,-5.001,8.13,1.0
0.0,0.0,0.0,0.0
56.813,-3.078,6.297,1.0
0.0,0.0,0.0,0.0
56.597,-3.053,5.667,4.0
56.864,-3.062,5.384,2.0
92.405,-4.966,8.257,4.0
0.0,0.0,0.0,0.0
56.964,-3.066,6.394,10.0
49.421,-2.654,5.282,1.0
0.0,0.0,0.0,0.0
56.851,-3.04,5.461,0.0
90.718,-4.841,8.23,1.0
0.0,0.0,0.0,0.0
50.223,-2.683,5.707,5.0
49.409,-2.634,5.349,7.0
0.0,0.0,0.0,0.0
56.595,-3.003,5.514,6.0
90.764,-4.805,8.357,1.0
92.352,-4.879,8.01,4.0
48.258,-2.558,5.549,10.0
56.964,-3.012,6.243,6.0
0.0,0.0,0.0,0.0
0.0,0.0,0.0,0.0
90.663,-4.759,8.467,6.0
92.438,-4.841,8.139,3.0
48.648,-2.556,5.659,16.0
50.489,-2.646,5.601,1.0
55.299,-2.89,5.836,4.0
92.668,-4.832,9.272,1.0
56.666,-2.947,5.365,2.0
0.0,0.0,0.0,0.0
0.0,0.0,0.0,0.0
50.204,-2.606,5.633,10.0
49.471,-2.561,5.283,3.0
0.0,0.0,0.0,0.0
56.652,-2.917,5.434,4.0
90.685,-4.658,8.213,6.0
0.0,0.0,0.0,0.0
48.322,-2.483,5.482,6.0
56.968,-2.919,6.155,5.0
55.143,-2.817,5.655,1.0
63.634,-3.242,6.183,0.0
56.711,-2.881,5.206,2.0
49.011,-2.498,5.886,4.0
48.378,-2.458,5.548,14.0
50.094,-2.537,5.473,0.0
55.226,-2.789,5.73,4.0
92.69,-4.668,9.118,3.0
56.684,-2.846,5.27,8.0
48.979,-2.467,5.941,3.0
48.838,-2.452,5.659,14.0
50.055,-2.506,5.528,6.0
57.228,-2.856,6.005,3.0
92.68,-4.61,9.226,14.0
63.627,-3.156,5.99,2.0
51.018,-2.538,6.248,5.0
50.871,-2.522,5.954,4.0
56.459,-2.79,6.301,5.0
54.864,-2.702,5.82,6.0
55.099,-2.705,5.547,2.0
92.734,-4.539,8.836,9.0
46.626,-2.288,5.764,1.0
49.65,-2.428,5.867,4.0
48.328,-2.356,5.448,12.0
49.493,-2.404,5.306,4.0
55.146,-2.669,5.613,4.0
92.632,-4.47,8.928,8.0
46.624,-2.256,5.815,7.0
49.414,-2.382,5.894,7.0
48.372,-2.324,5.506,11.0
56.633,-2.711,6.132,4.0
55.025,-2.625,5.659,4.0
82.828,-3.938,8.071,2.0
48.715,-2.322,6.129,4.0
48.936,-2.323,5.889,4.0
48.846,-2.311,5.611,9.0
49.813,-2.348,5.446,5.0
55.039,-2.585,5.718,5.0
54.98,-2.572,5.414,2.0
48.486,-2.274,6.15,17.0
50.584,-2.364,6.139,2.0
0.0,0.0,0.0,0.0
49.371,-2.289,5.447,5.0
48.63,-2.246,5.101,3.0
63.288,-2.913,6.294,5.0
48.223,-2.225,6.164,13.0
46.923,-2.156,5.741,5.0
47.541,-2.176,5.556,5.0
48.34,-2.203,5.38,9.0
55.636,-2.526,5.888,7.0
55.027,-2.489,5.525,15.0
48.062,-2.179,6.19,16.0
46.556,-2.102,5.739,6.0
47.541,-2.138,5.6,4.0
50.803,-2.274,5.701,9.0
49.441,-2.205,5.278,5.0
57.258,-2.543,5.8,14.0
49.689,-2.212,6.444,5.0
48.62,-2.154,6.038,17.0
49.532,-2.185,5.879,7.0
40.484,-1.779,4.579,25.0
49.598,-2.17,5.338,7.0
56.636,-2.468,5.786,7.0
47.412,-2.07,6.19,9.0
48.339,-2.101,6.045,33.0
46.127,-1.995,5.515,7.0
40.472,-1.743,4.612,47.0
40.575,-1.74,4.401,31.0
56.606,-2.417,5.83,5.0
47.316,-2.024,6.218,4.0
57.11,-2.432,7.189,5.0
40.374,-1.711,4.859,33.0
40.461,-1.707,4.643,19.0
40.485,-1.7,4.424,58.0
53.19,-2.223,5.52,1.0
42.263,-1.77,5.587,37.0
56.993,-2.376,7.219,8.0
40.311,-1.672,4.883,43.0
40.597,-1.676,4.69,46.0
40.487,-1.664,4.454,45.0
53.266,-2.179,5.568,7.0
42.21,-1.729,5.612,41.0
42.098,-1.716,5.363,12.0
40.278,-1.634,4.909,60.0
40.765,-1.645,4.739,19.0
40.317,-1.619,4.464,60.0
40.407,-1.615,4.252,22.0
49.36,-1.976,6.597,7.0
42.085,-1.676,5.391,39.0
40.279,-1.596,4.936,56.0
40.546,-1.599,4.741,30.0
40.461,-1.587,4.507,54.0
40.359,-1.575,4.274,39.0
42.276,-1.652,5.679,33.0
42.148,-1.638,5.427,40.0
40.355,-1.56,4.972,58.0
40.381,-1.553,4.747,59.0
40.189,-1.537,4.503,63.0
40.352,-1.535,4.298,65.0
42.144,-1.605,5.688,51.0
42.124,-1.595,5.45,47.0
40.237,-1.515,4.982,48.0
40.502,-1.517,4.786,51.0
40.4,-1.505,4.55,47.0
40.389,-1.496,4.326,52.0
42.07,-1.56,5.703,50.0
42.43,-1.564,5.515,53.0
40.223,-1.474,5.004,49.0
40.342,-1.47,4.79,51.0
40.247,-1.458,4.555,55.0
40.399,-1.455,4.349,57.0
42.687,-1.539,5.809,74.0
42.41,-1.52,5.535,44.0
40.301,-1.435,5.035,42.0
40.257,-1.425,4.801,62.0
40.116,-1.412,4.561,73.0
40.379,-1.413,4.367,51.0
42.086,-1.473,5.749,49.0
42.183,-1.468,5.525,50.0
40.301,-1.394,5.054,33.0
40.414,-1.389,4.838,58.0
40.216,-1.374,4.591,54.0
40.082,-1.361,4.353,44.0
42.007,-1.427,5.757,49.0
42.135,-1.421,5.538,57.0
42.758,-1.434,5.38,35.0
40.456,-1.348,4.86,50.0
40.387,-1.337,4.627,45.0
40.092,-1.319,4.37,46.0
41.991,-1.381,5.772,53.0
42.041,-1.374,5.542,62.0
0.0,0.0,0.0,0.0
40.428,-1.304,4.873,49.0
40.141,-1.286,4.614,53.0
39.95,-1.272,4.37,46.0
42.195,-1.343,5.815,26.0
41.957,-1.326,5.546,45.0
41.208,-1.293,5.216,74.0
40.433,-1.261,4.887,58.0
39.833,-1.233,4.592,56.0
39.92,-1.228,4.379,61.0
42.217,-1.297,5.832,60.0
47.317,-1.444,6.27,6.0
0.0,0.0,0.0,0.0
40.446,-1.217,4.9,59.0
39.459,-1.179,4.56,63.0
40.136,-1.191,4.414,57.0
42.276,-1.252,5.852,56.0
50.901,-1.497,6.758,9.0
39.783,-1.161,5.058,35.0
40.365,-1.17,4.901,41.0
39.446,-1.135,4.568,65.0
39.778,-1.136,4.384,51.0
42.336,-1.207,5.87,59.0
42.551,-1.204,5.659,27.0
39.701,-1.115,5.056,39.0
40.191,-1.12,4.888,50.0
39.411,-1.09,4.571,52.0
39.531,-1.085,4.364,51.0
42.428,-1.162,5.89,41.0
49.052,-1.332,6.532,4.0
39.747,-1.071,5.068,44.0
40.117,-1.072,4.885,51.0
39.25,-1.041,4.559,62.0
39.408,-1.037,4.356,56.0
42.008,-1.102,5.838,59.0
42.182,-1.098,5.623,50.0
39.516,-1.02,5.044,56.0
40.162,-1.028,4.895,47.0
39.157,-0.994,4.552,61.0
39.337,-0.991,4.352,61.0
42.021,-1.054,5.843,48.0
42.116,-1.048,5.617,63.0
39.496,-0.975,5.044,57.0
40.758,-0.997,4.97,70.0
39.214,-0.951,4.561,52.0
39.503,-0.951,4.372,60.0
41.805,-1.001,5.815,75.0
42.055,-0.999,5.611,54.0
39.474,-0.929,5.042,44.0
39.705,-0.926,4.843,66.0
39.378,-0.91,4.581,56.0
39.59,-0.907,4.382,58.0
41.99,-0.958,5.841,46.0
41.877,-0.946,5.587,57.0
39.447,-0.883,5.038,52.0
39.733,-0.882,4.845,55.0
39.232,-0.862,4.562,65.0
39.168,-0.853,4.334,54.0
42.036,-0.91,5.845,52.0
41.898,-0.898,5.587,62.0
39.431,-0.837,5.034,63.0
39.589,-0.833,4.825,65.0
39.344,-0.819,4.572,53.0
39.019,-0.804,4.314,59.0
42.108,-0.862,5.851,60.0
42.059,-0.853,5.604,35.0
39.543,-0.793,5.043,41.0
39.564,-0.786,4.817,55.0
39.477,-0.776,4.583,50.0
39.041,-0.76,4.311,61.0
0.0,0.0,0.0,0.0
42.054,-0.804,5.597,65.0
39.523,-0.747,5.035,42.0
39.28,-0.734,4.776,62.0
39.567,-0.732,4.586,51.0
39.029,-0.715,4.303,57.0
42.19,-0.765,5.849,57.0
50.395,-0.904,6.698,7.0
39.563,-0.702,5.032,47.0
39.309,-0.69,4.771,51.0
39.511,-0.686,4.571,55.0
39.176,-0.672,4.31,44.0
