X,Y,Z,Reflectivity
18.063,-1.099,-0.699,3.0
16.48,-1.008,-0.73,1.0
15.176,-0.934,-0.758,1.0
24.82,-1.531,-0.549,1.0
21.704,-1.346,-0.602,1.0
19.641,-1.225,-0.655,3.0
17.839,-1.119,-0.697,1.0
16.414,-1.035,-0.733,1.0
15.107,-0.958,-0.759,1.0
24.642,-1.565,-0.554,1.0
21.853,-1.395,-0.613,0.0
19.576,-1.257,-0.659,3.0
17.845,-1.152,-0.702,0.0
16.354,-1.061,-0.735,2.0
15.064,-0.983,-0.762,1.0
24.472,-1.599,-0.557,1.0
21.711,-1.426,-0.615,0.0
19.466,-1.285,-0.661,2.0
17.692,-1.174,-0.701,0.0
16.121,-1.076,-0.729,4.0
15.022,-1.008,-0.764,1.0
24.357,-1.636,-0.56,1.0
21.716,-1.466,-0.621,0.0
19.306,-1.31,-0.66,0.0
17.67,-1.205,-0.704,0.0
16.071,-1.102,-0.731,5.0
14.935,-1.029,-0.763,3.0
24.18,-1.668,-0.562,1.0
21.556,-1.495,-0.621,0.0
19.349,-1.348,-0.665,0.0
17.606,-1.233,-0.705,1.0
16.047,-1.129,-0.733,6.0
14.804,-1.047,-0.759,1.0
24.032,-1.702,-0.562,1.0
21.508,-1.53,-0.623,0.0
19.356,-1.384,-0.669,0.0
17.49,-1.257,-0.704,0.0
16.01,-1.156,-0.733,8.0
14.843,-1.077,-0.763,0.0
24.02,-1.744,-0.565,1.0
21.405,-1.562,-0.623,1.0
19.271,-1.413,-0.668,0.0
17.615,-1.297,-0.711,0.0
15.964,-1.181,-0.733,12.0
14.796,-1.1,-0.762,1.0
23.838,-1.773,-0.563,1.0
21.396,-1.599,-0.625,1.0
19.215,-1.443,-0.668,0.0
17.566,-1.325,-0.71,0.0
15.953,-1.209,-0.734,6.0
14.73,-1.121,-0.76,1.0
23.94,-1.824,-0.567,1.0
21.352,-1.634,-0.624,1.0
19.235,-1.478,-0.669,0.0
17.512,-1.352,-0.709,0.0
16.159,-1.253,-0.744,0.0
14.732,-1.148,-0.76,1.0
23.901,-1.863,-0.567,1.0
21.384,-1.674,-0.625,1.0
19.202,-1.51,-0.668,0.0
17.535,-1.384,-0.71,0.0
16.144,-1.28,-0.743,0.0
14.734,-1.174,-0.76,1.0
23.88,-1.903,-0.566,1.0
21.393,-1.712,-0.625,1.0
19.229,-1.545,-0.669,0.0
17.534,-1.415,-0.709,0.0
16.094,-1.304,-0.74,0.0
14.772,-1.202,-0.761,0.0
23.953,-1.95,-0.566,1.0
21.434,-1.752,-0.625,1.0
19.26,-1.581,-0.668,0.0
17.559,-1.447,-0.708,0.0
16.123,-1.334,-0.74,1.0
14.794,-1.23,-0.761,0.0
24.109,-2.005,-0.567,1.0
21.469,-1.792,-0.624,1.0
19.228,-1.611,-0.665,1.0
17.57,-1.478,-0.707,0.0
16.179,-1.367,-0.74,1.0
14.867,-1.261,-0.763,0.0
24.15,-2.049,-0.565,1.0
21.539,-1.834,-0.623,1.0
19.382,-1.657,-0.668,0.0
17.571,-1.508,-0.704,0.0
16.245,-1.4,-0.741,4.0
14.948,-1.293,-0.764,0.0
24.274,-2.1,-0.564,1.0
21.634,-1.878,-0.622,1.0
19.46,-1.696,-0.667,0.0
17.667,-1.546,-0.704,0.0
16.266,-1.428,-0.739,5.0
14.999,-1.322,-0.764,0.0
24.433,-2.154,-0.562,1.0
21.768,-1.926,-0.621,1.0
19.732,-1.752,-0.671,3.0
17.78,-1.584,-0.705,0.0
16.258,-1.454,-0.734,8.0
15.034,-1.35,-0.762,0.0
24.638,-2.212,-0.561,1.0
21.83,-1.967,-0.617,1.0
19.666,-1.778,-0.664,0.0
17.811,-1.616,-0.702,0.0
16.268,-1.481,-0.73,11.0
15.124,-1.382,-0.763,0.0
24.777,-2.264,-0.557,1.0
21.974,-2.015,-0.615,1.0
19.825,-1.824,-0.664,0.0
17.915,-1.654,-0.7,0.0
16.269,-1.508,-0.726,11.0
15.175,-1.411,-0.76,0.0
24.968,-2.321,-0.553,1.0
22.131,-2.064,-0.612,1.0
19.952,-1.867,-0.661,0.0
18.056,-1.696,-0.7,0.0
16.295,-1.536,-0.721,10.0
15.262,-1.443,-0.759,0.0
25.158,-2.379,-0.548,2.0
22.334,-2.118,-0.609,1.0
20.092,-1.912,-0.659,0.0
18.171,-1.735,-0.697,0.0
16.32,-1.563,-0.716,10.0
15.341,-1.474,-0.757,0.0
25.335,-2.434,-0.542,1.0
22.517,-2.17,-0.605,1.0
20.272,-1.96,-0.656,1.0
18.272,-1.772,-0.694,0.0
16.329,-1.589,-0.71,8.0
15.448,-1.508,-0.756,1.0
25.617,-2.5,-0.538,1.0
22.719,-2.224,-0.601,1.0
20.555,-2.018,-0.656,3.0
18.412,-1.813,-0.691,0.0
16.351,-1.615,-0.703,7.0
15.553,-1.541,-0.754,1.0
25.901,-2.566,-0.532,1.0
22.991,-2.284,-0.598,1.0
20.593,-2.052,-0.648,6.0
18.603,-1.859,-0.689,0.0
16.401,-1.644,-0.697,1.0
15.651,-1.574,-0.751,1.0
26.167,-2.63,-0.524,1.0
23.506,-2.369,-0.599,5.0
20.616,-2.084,-0.639,7.0
18.772,-1.903,-0.686,1.0
16.455,-1.673,-0.691,0.0
15.791,-1.61,-0.75,1.0
26.501,-2.701,-0.517,1.0
23.525,-2.404,-0.587,17.0
20.7,-2.121,-0.63,4.0
18.958,-1.948,-0.682,1.0
17.013,-1.753,-0.706,0.0
15.966,-1.65,-0.749,1.0
26.941,-2.783,-0.511,1.0
23.698,-2.455,-0.579,28.0
21.089,-2.19,-0.63,2.0
19.133,-1.992,-0.678,1.0
17.475,-1.825,-0.715,0.0
16.106,-1.687,-0.747,1.0
27.374,-2.865,-0.503,1.0
23.786,-2.496,-0.566,29.0
21.552,-2.267,-0.631,1.0
19.4,-2.046,-0.676,1.0
17.673,-1.869,-0.712,0.0
16.235,-1.722,-0.743,2.0
27.772,-2.943,-0.493,1.0
24.03,-2.553,-0.558,13.0
21.997,-2.343,-0.63,4.0
19.911,-2.126,-0.681,3.0
17.843,-1.91,-0.708,0.0
16.279,-1.747,-0.734,3.0
28.276,-3.033,-0.484,1.0
24.412,-2.625,-0.551,4.0
22.139,-2.386,-0.62,9.0
20.051,-2.167,-0.672,8.0
18.032,-1.953,-0.703,0.0
16.293,-1.769,-0.724,3.0
28.748,-3.12,-0.472,1.0
25.273,-2.749,-0.553,1.0
22.404,-2.443,-0.612,16.0
20.133,-2.201,-0.661,11.0
18.298,-2.005,-0.701,0.0
16.31,-1.791,-0.713,1.0
29.374,-3.224,-0.462,1.0
25.719,-2.829,-0.544,1.0
22.667,-2.499,-0.603,19.0
20.376,-2.252,-0.655,9.0
18.487,-2.047,-0.694,1.0
16.363,-1.816,-0.704,1.0
29.867,-3.313,-0.448,1.0
26.132,-2.905,-0.534,1.0
23.062,-2.569,-0.597,23.0
20.643,-2.305,-0.648,10.0
18.768,-2.1,-0.691,1.0
16.465,-1.847,-0.696,1.0
30.587,-3.429,-0.436,1.0
26.602,-2.988,-0.523,1.0
23.332,-2.626,-0.585,21.0
20.958,-2.364,-0.642,10.0
19.151,-2.165,-0.69,1.0
17.18,-1.946,-0.712,0.0
32.021,-3.625,-0.431,1.0
27.167,-3.082,-0.513,1.0
23.51,-2.672,-0.571,5.0
21.338,-2.43,-0.636,13.0
19.492,-2.225,-0.687,3.0
17.605,-2.013,-0.716,1.0
32.736,-3.742,-0.414,1.0
27.838,-3.188,-0.503,1.0
24.425,-2.803,-0.573,1.0
21.669,-2.491,-0.628,19.0
19.667,-2.266,-0.676,10.0
17.859,-2.061,-0.711,1.0
33.339,-3.846,-0.394,1.0
28.451,-3.288,-0.49,1.0
24.971,-2.891,-0.565,1.0
22.05,-2.557,-0.62,24.0
19.891,-2.311,-0.667,18.0
18.08,-2.105,-0.704,1.0
34.968,-4.068,-0.383,0.0
29.167,-3.399,-0.477,1.0
25.457,-2.972,-0.554,1.0
22.57,-2.64,-0.615,32.0
20.162,-2.362,-0.658,17.0
18.372,-2.157,-0.7,1.0
36.46,-4.277,-0.368,1.0
29.81,-3.503,-0.461,1.0
25.997,-3.06,-0.543,1.0
22.78,-2.686,-0.601,20.0
20.547,-2.426,-0.653,13.0
18.899,-2.236,-0.703,2.0
37.974,-4.49,-0.349,2.0
30.534,-3.616,-0.445,1.0
26.491,-3.142,-0.529,1.0
23.163,-2.752,-0.59,16.0
20.951,-2.493,-0.646,17.0
19.144,-2.282,-0.694,6.0
39.214,-4.671,-0.323,1.0
32.064,-3.825,-0.437,1.0
27.168,-3.246,-0.517,1.0
23.525,-2.815,-0.577,5.0
21.313,-2.554,-0.638,21.0
19.337,-2.321,-0.683,9.0
41.363,-4.962,-0.302,0.0
33.07,-3.973,-0.42,1.0
27.924,-3.359,-0.505,0.0
24.417,-2.942,-0.575,1.0
21.586,-2.604,-0.625,14.0
19.64,-2.373,-0.674,14.0
43.408,-5.242,-0.275,0.0
33.823,-4.09,-0.397,0.0
28.717,-3.477,-0.491,1.0
25.094,-3.043,-0.567,1.0
22.291,-2.707,-0.623,4.0
19.966,-2.428,-0.666,14.0
0.0,0.0,0.0,0.0
36.885,-4.488,-0.396,2.0
29.475,-3.591,-0.475,1.0
25.69,-3.134,-0.555,1.0
22.884,-2.795,-0.617,12.0
20.405,-2.496,-0.66,17.0
50.254,-6.144,-0.219,0.0
37.273,-4.562,-0.363,2.0
30.236,-3.705,-0.457,0.0
26.251,-3.22,-0.54,1.0
23.042,-2.83,-0.598,15.0
20.761,-2.553,-0.651,19.0
50.33,-6.187,-0.168,1.0
39.023,-4.802,-0.34,1.0
31.678,-3.902,-0.446,0.0
26.886,-3.316,-0.526,1.0
23.465,-2.897,-0.585,5.0
21.047,-2.602,-0.638,11.0
50.349,-6.221,-0.116,1.0
41.175,-5.092,-0.316,0.0
32.646,-4.042,-0.426,1.0
27.726,-3.436,-0.514,1.0
24.359,-3.022,-0.582,1.0
21.44,-2.663,-0.628,1.0
0.0,0.0,0.0,0.0
45.315,-5.63,-0.301,2.0
35.889,-4.463,-0.431,1.0
28.439,-3.54,-0.497,1.0
25.019,-3.117,-0.572,1.0
22.555,-2.813,-0.637,4.0
0.0,0.0,0.0,0.0
45.381,-5.663,-0.253,12.0
35.978,-4.493,-0.394,6.0
29.385,-3.673,-0.483,1.0
25.651,-3.209,-0.559,0.0
22.838,-2.86,-0.62,13.0
0.0,0.0,0.0,0.0
45.388,-5.686,-0.204,2.0
36.44,-4.568,-0.359,2.0
30.235,-3.793,-0.463,1.0
26.303,-3.303,-0.544,1.0
23.03,-2.894,-0.6,13.0
0.0,0.0,0.0,0.0
50.41,-6.337,-0.172,5.0
0.0,0.0,0.0,0.0
31.593,-3.977,-0.45,1.0
26.984,-3.399,-0.529,1.0
23.45,-2.957,-0.585,4.0
89.43,-11.272,0.271,2.0
50.449,-6.362,-0.116,4.0
40.917,-5.163,-0.314,1.0
32.945,-4.16,-0.433,1.0
27.819,-3.515,-0.515,1.0
24.506,-3.099,-0.584,1.0
89.526,-11.317,0.37,7.0
0.0,0.0,0.0,0.0
0.0,0.0,0.0,0.0
34.224,-4.333,-0.411,1.0
28.681,-3.633,-0.499,1.0
25.202,-3.194,-0.573,1.0
89.558,-11.349,0.469,6.0
0.0,0.0,0.0,0.0
0.0,0.0,0.0,0.0
35.996,-4.567,-0.393,1.0
29.658,-3.765,-0.483,1.0
25.766,-3.273,-0.557,1.0
92.315,-11.723,0.586,2.0
0.0,0.0,0.0,0.0
50.443,-6.41,-0.219,3.0
38.234,-4.861,-0.375,2.0
30.574,-3.888,-0.464,1.0
26.439,-3.364,-0.542,1.0
99.468,-12.654,0.745,32.0
0.0,0.0,0.0,0.0
50.421,-6.418,-0.162,6.0
39.109,-4.979,-0.339,1.0
32.136,-4.093,-0.451,1.0
27.237,-3.47,-0.528,1.0
99.624,-12.692,0.857,59.0
0.0,0.0,0.0,0.0
50.518,-6.438,-0.106,3.0
40.952,-5.22,-0.31,0.0
33.182,-4.23,-0.429,1.0
28.077,-3.581,-0.513,1.0
99.663,-12.71,0.969,56.0
88.901,-11.338,0.387,4.0
0.0,0.0,0.0,0.0
0.0,0.0,0.0,0.0
35.063,-4.474,-0.413,1.0
28.98,-3.698,-0.497,1.0
99.689,-12.721,1.081,55.0
88.815,-11.334,0.488,4.0
0.0,0.0,0.0,0.0
46.049,-5.877,-0.245,0.0
36.406,-4.647,-0.388,0.0
29.884,-3.815,-0.478,1.0
99.692,-12.726,1.195,59.0
99.4,-12.687,0.659,13.0
0.0,0.0,0.0,0.0
50.326,-6.423,-0.21,3.0
38.4,-4.901,-0.366,1.0
31.064,-3.965,-0.462,1.0
99.676,-12.723,1.308,63.0
99.54,-12.703,0.773,44.0
0.0,0.0,0.0,0.0
50.442,-6.436,-0.153,6.0
39.592,-5.051,-0.332,0.0
32.377,-4.13,-0.445,1.0
99.662,-12.715,1.422,59.0
99.651,-12.711,0.888,55.0
88.939,-11.342,0.316,2.0
50.496,-6.438,-0.094,1.0
41.396,-5.277,-0.299,0.0
33.563,-4.278,-0.422,1.0
99.653,-12.704,1.537,66.0
99.677,-12.703,1.003,64.0
89.001,-11.339,0.419,4.0
0.0,0.0,0.0,0.0
0.0,0.0,0.0,0.0
35.754,-4.552,-0.409,0.0
99.622,-12.685,1.648,72.0
99.66,-12.685,1.115,69.0
91.094,-11.59,0.531,4.0
0.0,0.0,0.0,0.0
50.336,-6.4,-0.25,1.0
37.688,-4.791,-0.389,2.0
99.603,-12.663,1.761,73.0
99.654,-12.664,1.227,75.0
99.475,-12.635,0.693,20.0
0.0,0.0,0.0,0.0
50.438,-6.401,-0.194,6.0
38.496,-4.884,-0.354,1.0
99.572,-12.635,1.872,78.0
99.645,-12.637,1.339,89.0
99.586,-12.623,0.805,67.0
89.314,-11.315,0.234,1.0
50.45,-6.388,-0.137,5.0
40.883,-5.175,-0.33,1.0
99.58,-12.607,1.984,79.0
99.628,-12.605,1.451,86.0
99.657,-12.601,0.918,88.0
89.468,-11.306,0.334,7.0
0.0,0.0,0.0,0.0
45.271,-5.715,-0.315,1.0
99.559,-12.571,2.094,72.0
99.645,-12.573,1.562,94.0
99.647,-12.565,1.028,82.0
89.8,-11.315,0.435,6.0
0.0,0.0,0.0,0.0
45.317,-5.703,-0.265,5.0
99.575,-12.535,2.206,64.0
99.639,-12.533,1.671,81.0
99.672,-12.528,1.138,83.0
99.249,-12.465,0.591,5.0
0.0,0.0,0.0,0.0
45.344,-5.687,-0.216,2.0
99.601,-12.496,2.315,69.0
99.65,-12.491,1.78,55.0
99.721,-12.489,1.247,57.0
99.451,-12.445,0.7,19.0
0.0,0.0,0.0,0.0
50.391,-6.296,-0.186,6.0
99.619,-12.452,2.423,31.0
99.682,-12.447,1.89,11.0
86.489,-10.789,1.176,6.0
99.652,-12.42,0.809,17.0
0.0,0.0,0.0,0.0
50.445,-6.277,-0.132,2.0
203.775,-25.365,5.174,21.0
207.988,-25.863,4.164,17.0
86.342,-10.725,1.264,28.0
86.405,-10.722,0.792,150.0
0.0,0.0,0.0,0.0
0.0,0.0,0.0,0.0
203.606,-25.23,5.386,48.0
203.235,-25.155,4.286,32.0
86.372,-10.679,1.356,24.0
86.362,-10.666,0.884,189.0
0.0,0.0,0.0,0.0
0.0,0.0,0.0,0.0
203.385,-25.08,5.593,46.0
203.097,-25.014,4.491,42.0
86.368,-10.624,1.446,22.0
86.342,-10.609,0.972,157.0
86.879,-10.663,0.512,1.0
66.147,-8.11,0.034,0.0
203.317,-24.94,5.799,27.0
203.02,-24.872,4.699,43.0
86.383,-10.569,1.534,33.0
86.279,-10.543,1.06,63.0
87.038,-10.622,0.601,14.0
0.0,0.0,0.0,0.0
203.21,-24.786,6.003,24.0
203.03,-24.729,4.905,25.0
86.384,-10.508,1.622,12.0
86.256,-10.478,1.146,61.0
86.772,-10.528,0.686,25.0
0.0,0.0,0.0,0.0
203.057,-24.618,6.202,35.0
188.257,-22.791,4.734,32.0
86.488,-10.455,1.71,1.0
86.239,-10.41,1.231,66.0
86.246,-10.397,0.767,49.0
0.0,0.0,0.0,0.0
203.056,-24.46,6.402,36.0
188.171,-22.631,4.918,34.0
86.763,-10.419,1.8,4.0
86.213,-10.337,1.316,54.0
86.204,-10.322,0.85,39.0
89.738,-10.729,0.402,2.0
203.374,-24.33,6.61,17.0
188.595,-22.525,5.113,22.0
86.765,-10.346,1.883,11.0
86.245,-10.268,1.398,53.0
86.193,-10.246,0.934,51.0
96.781,-11.487,0.526,7.0
190.812,-22.662,6.383,22.0
188.77,-22.381,5.296,36.0
86.707,-10.262,1.964,8.0
86.266,-10.193,1.48,55.0
86.218,-10.171,1.014,58.0
87.27,-10.279,0.556,7.0
189.975,-22.389,6.533,27.0
188.607,-22.187,5.467,36.0
188.324,-22.115,4.44,33.0
86.25,-10.11,1.559,48.0
86.242,-10.092,1.094,173.0
87.257,-10.193,0.636,37.0
189.843,-22.193,6.7,23.0
188.37,-21.978,5.63,30.0
188.861,-21.996,4.624,29.0
86.267,-10.029,1.636,15.0
86.249,-10.009,1.17,159.0
86.339,-10.002,0.705,25.0
189.445,-21.96,6.853,13.0
188.562,-21.813,5.801,29.0
188.523,-21.767,4.781,33.0
86.51,-9.969,1.717,1.0
86.26,-9.922,1.245,151.0
86.254,-9.903,0.779,56.0
115.923,-13.318,4.293,59.0
115.918,-13.29,3.665,74.0
107.444,-12.294,2.815,57.0
86.647,-9.894,1.793,9.0
86.208,-9.824,1.318,91.0
86.238,-9.808,0.852,101.0
115.881,-13.188,4.39,45.0
115.917,-13.165,3.763,64.0
107.421,-12.174,2.904,79.0
86.64,-9.798,1.864,22.0
86.237,-9.732,1.389,60.0
86.244,-9.714,0.922,150.0
107.711,-12.14,4.168,6.0
107.377,-12.075,3.571,48.0
107.419,-12.053,2.992,73.0
86.732,-9.711,1.936,13.0
86.278,-9.639,1.458,54.0
86.228,-9.613,0.991,117.0
106.398,-11.87,4.202,61.0
107.243,-11.936,3.652,65.0
187.518,-20.823,5.368,26.0
86.799,-9.616,2.005,6.0
86.292,-9.539,1.525,51.0
86.269,-9.516,1.057,52.0
106.383,-11.742,4.282,38.0
107.168,-11.8,3.73,64.0
123.494,-13.565,3.629,13.0
187.647,-20.565,4.475,29.0
86.349,-9.441,1.59,44.0
86.286,-9.412,1.122,76.0
107.83,-11.77,4.42,6.0
107.211,-11.673,3.811,86.0
123.412,-13.405,3.716,87.0
123.558,-13.389,3.035,84.0
86.41,-9.34,1.653,14.0
86.323,-9.309,1.182,55.0
107.871,-11.64,4.498,46.0
107.353,-11.553,3.892,58.0
123.432,-13.25,3.802,44.0
123.541,-13.228,3.121,86.0
86.673,-9.257,1.719,15.0
86.365,-9.202,1.242,62.0
107.906,-11.505,4.572,49.0
107.35,-11.414,3.964,72.0
188.284,-19.967,5.927,38.0
187.634,-19.846,4.864,24.0
0.0,0.0,0.0,0.0
86.436,-9.096,1.3,45.0
107.842,-11.355,4.64,45.0
122.852,-12.9,4.616,35.0
188.072,-19.696,6.039,18.0
187.512,-19.583,4.98,40.0
96.142,-10.014,2.028,7.0
86.947,-9.032,1.362,11.0
107.29,-11.152,4.683,97.0
148.402,-15.382,5.665,22.0
189.373,-19.572,6.195,19.0
157.511,-16.233,4.279,21.0
188.14,-19.337,4.083,22.0
88.94,-9.116,1.444,8.0
106.654,-10.938,4.718,52.0
124.442,-12.725,4.823,25.0
148.382,-15.13,4.939,25.0
188.162,-19.13,5.218,56.0
188.051,-19.064,4.188,38.0
95.58,-9.661,1.607,14.0
106.695,-10.791,4.778,29.0
124.813,-12.585,4.907,23.0
148.468,-14.926,5.024,50.0
187.984,-18.841,5.314,46.0
187.801,-18.767,4.284,31.0
95.719,-9.538,1.66,18.0
106.745,-10.641,4.837,20.0
210.25,-20.896,8.375,9.0
188.749,-18.699,6.485,23.0
188.099,-18.578,5.412,51.0
187.764,-18.488,4.375,48.0
97.891,-9.609,1.746,1.0
106.669,-10.475,4.886,11.0
205.086,-20.076,8.269,9.0
188.536,-18.396,6.567,26.0
148.994,-14.493,4.359,43.0
149.475,-14.493,3.554,91.0
108.756,-10.512,1.99,1.0
147.746,-14.286,6.835,14.0
147.978,-14.261,6.034,24.0
150.458,-14.452,5.309,23.0
148.962,-14.262,4.423,65.0
149.495,-14.266,3.619,40.0
108.795,-10.348,2.038,6.0
122.862,-11.69,5.737,39.0
157.435,-14.929,6.485,36.0
149.811,-14.157,5.347,23.0
148.863,-14.019,4.481,42.0
187.955,-17.643,4.627,53.0
108.898,-10.188,2.083,11.0
122.762,-11.488,5.78,29.0
156.401,-14.585,6.503,39.0
148.627,-13.813,5.361,68.0
188.037,-17.413,5.73,36.0
188.549,-17.402,4.71,37.0
188.725,-17.36,3.677,7.0
147.195,-13.543,6.983,25.0
148.585,-13.622,6.229,26.0
157.241,-14.364,5.725,7.0
188.355,-17.145,5.804,44.0
188.354,-17.083,4.768,51.0
188.212,-17.01,3.729,22.0
147.003,-13.287,7.02,8.0
148.517,-13.374,6.272,39.0
164.057,-14.72,6.025,24.0
149.584,-13.372,4.654,71.0
188.567,-16.794,4.828,49.0
188.588,-16.735,3.792,18.0
148.478,-13.178,7.132,11.0
158.34,-13.998,6.732,8.0
157.125,-13.837,5.813,39.0
190.531,-16.717,5.979,24.0
157.355,-13.755,4.07,90.0
157.264,-13.695,3.2,38.0
148.541,-12.938,7.172,18.0
162.288,-14.08,6.938,15.0
149.852,-12.95,5.58,26.0
157.263,-13.538,4.97,75.0
189.143,-16.22,4.933,31.0
165.072,-14.102,3.396,30.0
167.208,-14.283,8.109,10.0
158.349,-13.472,6.802,37.0
149.924,-12.703,5.61,41.0
157.576,-13.297,5.01,45.0
165.054,-13.873,4.337,87.0
165.086,-13.82,3.426,14.0
109.059,-9.129,5.307,1.0
149.81,-12.489,6.461,14.0
156.441,-12.989,5.88,22.0
157.377,-13.012,5.028,44.0
193.639,-15.946,5.116,41.0
202.396,-16.599,4.228,22.0
150.634,-12.352,7.35,21.0
150.113,-12.256,6.492,44.0
157.975,-12.842,5.957,39.0
164.628,-13.326,5.279,48.0
204.565,-16.488,5.427,22.0
291.258,-23.38,6.117,18.0
149.708,-12.014,7.32,14.0
163.576,-13.069,7.089,22.0
156.896,-12.481,5.93,47.0
208.002,-16.474,6.687,8.0
212.483,-16.757,5.652,10.0
257.464,-20.22,5.423,14.0
149.584,-11.742,7.323,20.0
156.55,-12.234,6.793,25.0
165.527,-12.876,6.262,43.0
196.632,-15.229,6.329,33.0
213.122,-16.432,5.676,40.0
196.957,-15.118,4.153,8.0
149.396,-11.46,7.315,7.0
165.441,-12.631,7.18,15.0
163.97,-12.462,6.205,50.0
196.05,-14.829,6.31,9.0
196.948,-14.828,5.245,55.0
197.101,-14.774,4.155,11.0
149.175,-11.173,7.303,10.0
163.881,-12.217,7.109,14.0
164.444,-12.202,6.219,23.0
196.047,-14.477,6.303,49.0
220.297,-16.193,5.856,9.0
204.911,-14.994,4.31,5.0
158.253,-11.57,7.738,14.0
156.579,-11.39,6.782,4.0
194.98,-14.115,7.358,24.0
208.203,-15.001,6.677,20.0
204.86,-14.69,5.429,64.0
243.972,-17.411,5.11,14.0
154.912,-11.046,7.559,3.0
164.287,-11.656,7.098,10.0
195.923,-13.83,7.374,34.0
204.097,-14.336,6.522,36.0
212.762,-14.867,5.613,49.0
212.93,-14.807,4.43,26.0
164.872,-11.453,8.023,7.0
0.0,0.0,0.0,0.0
203.62,-13.998,7.632,25.0
208.477,-14.26,6.63,16.0
228.439,-15.545,5.99,51.0
228.653,-15.479,4.72,26.0
158.188,-10.695,7.668,3.0
194.461,-13.078,8.338,8.0
204.393,-13.673,7.623,34.0
209.175,-13.92,6.61,32.0
248.302,-16.435,6.459,85.0
244.533,-16.101,4.998,10.0
0.0,0.0,0.0,0.0
204.994,-13.405,8.744,8.0
208.541,-13.564,7.73,27.0
208.965,-13.516,6.555,25.0
248.346,-15.978,6.401,255.0
265.21,-16.97,5.353,11.0
150.063,-9.586,7.202,6.0
222.321,-14.122,9.426,12.0
213.026,-13.456,7.837,9.0
244.224,-15.342,7.592,24.0
263.36,-16.454,6.714,95.0
0.0,0.0,0.0,0.0
0.0,0.0,0.0,0.0
212.893,-13.13,8.961,8.0
227.652,-13.958,8.305,38.0
0.0,0.0,0.0,0.0
272.098,-16.492,6.85,57.0
0.0,0.0,0.0,0.0
0.0,0.0,0.0,0.0
211.915,-12.67,8.848,9.0
229.221,-13.624,8.283,10.0
272.114,-16.076,8.277,17.0
271.697,-15.959,6.743,150.0
0.0,0.0,0.0,0.0
211.67,-12.331,9.945,8.0
0.0,0.0,0.0,0.0
244.188,-14.052,8.729,9.0
0.0,0.0,0.0,0.0
0.0,0.0,0.0,0.0
0.0,0.0,0.0,0.0
212.31,-11.968,9.887,6.0
0.0,0.0,0.0,0.0
0.0,0.0,0.0,0.0
0.0,0.0,0.0,0.0
233.912,-12.775,4.295,18.0
0.0,0.0,0.0,0.0
0.0,0.0,0.0,0.0
0.0,0.0,0.0,0.0
0.0,0.0,0.0,0.0
211.708,-11.127,9.655,6.0
0.0,0.0,0.0,0.0
0.0,0.0,0.0,0.0
0.0,0.0,0.0,0.0
0.0,0.0,0.0,0.0
0.0,0.0,0.0,0.0
0.0,0.0,0.0,0.0
0.0,0.0,0.0,0.0
0.0,0.0,0.0,0.0
0.0,0.0,0.0,0.0
0.0,0.0,0.0,0.0
0.0,0.0,0.0,0.0
0.0,0.0,0.0,0.0
0.0,0.0,0.0,0.0
0.0,0.0,0.0,0.0
0.0,0.0,0.0,0.0
0.0,0.0,0.0,0.0
169.163,-7.643,2.628,35.0
0.0,0.0,0.0,0.0
0.0,0.0,0.0,0.0
0.0,0.0,0.0,0.0
0.0,0.0,0.0,0.0
169.242,-7.379,3.468,20.0
168.748,-7.302,2.505,24.0
0.0,0.0,0.0,0.0
0.0,0.0,0.0,0.0
0.0,0.0,0.0,0.0
0.0,0.0,0.0,0.0
169.294,-7.062,3.347,24.0
169.211,-7.004,2.39,14.0
0.0,0.0,0.0,0.0
0.0,0.0,0.0,0.0
0.0,0.0,0.0,0.0
0.0,0.0,0.0,0.0
0.0,0.0,0.0,0.0
0.0,0.0,0.0,0.0
0.0,0.0,0.0,0.0
0.0,0.0,0.0,0.0
0.0,0.0,0.0,0.0
0.0,0.0,0.0,0.0
0.0,0.0,0.0,0.0
0.0,0.0,0.0,0.0
0.0,0.0,0.0,0.0
0.0,0.0,0.0,0.0
0.0,0.0,0.0,0.0
0.0,0.0,0.0,0.0
0.0,0.0,0.0,0.0
0.0,0.0,0.0,0.0
0.0,0.0,0.0,0.0
0.0,0.0,0.0,0.0
0.0,0.0,0.0,0.0
0.0,0.0,0.0,0.0
0.0,0.0,0.0,0.0
0.0,0.0,0.0,0.0
0.0,0.0,0.0,0.0
0.0,0.0,0.0,0.0
0.0,0.0,0.0,0.0
0.0,0.0,0.0,0.0
40.359,-1.306,0.629,12.0
126.487,-4.054,1.255,3.0
0.0,0.0,0.0,0.0
0.0,0.0,0.0,0.0
40.304,-1.256,1.053,29.0
40.315,-1.243,0.82,26.0
154.023,-4.702,2.258,89.0
0.0,0.0,0.0,0.0
0.0,0.0,0.0,0.0
40.231,-1.193,1.241,0.0
40.339,-1.183,1.015,39.0
0.0,0.0,0.0,0.0
40.223,-1.154,0.55,0.0
40.206,-1.141,0.321,55.0
40.278,-1.133,1.431,26.0
40.243,-1.119,1.201,34.0
40.196,-1.105,0.97,54.0
40.207,-1.092,0.737,40.0
40.211,-1.08,0.508,57.0
40.179,-1.066,0.279,60.0
40.209,-1.058,1.387,59.0
40.226,-1.045,1.158,46.0
40.194,-1.032,0.928,54.0
40.2,-1.02,0.695,67.0
40.22,-1.007,0.466,50.0
40.281,-0.996,0.237,1.0
40.256,-0.986,1.345,55.0
40.207,-0.972,1.114,59.0
40.186,-0.959,0.884,57.0
40.275,-0.949,0.652,42.0
40.296,-0.937,0.423,61.0
40.295,-0.925,0.193,9.0
40.319,-0.915,1.303,10.0
40.205,-0.901,1.07,58.0
40.204,-0.888,0.84,53.0
40.24,-0.876,0.606,53.0
40.271,-0.865,0.377,22.0
0.0,0.0,0.0,0.0
40.341,-0.844,1.257,29.0
40.256,-0.83,1.025,51.0
40.232,-0.817,0.794,46.0
40.236,-0.805,0.56,52.0
40.239,-0.793,0.33,57.0
40.275,-0.782,0.101,60.0
40.307,-0.772,1.209,45.0
40.227,-0.759,0.977,50.0
40.173,-0.746,0.745,61.0
40.277,-0.736,0.513,1.0
40.25,-0.724,0.283,48.0
40.288,-0.713,0.053,57.0
151.453,-2.641,4.361,83.0
248.344,-4.26,5.731,56.0
205.473,-3.462,3.565,18.0
123.926,-2.052,1.428,6.0
91.552,-1.49,0.532,4.0
61.622,-0.985,0.006,2.0
151.462,-2.382,4.174,73.0
187.139,-2.888,4.086,39.0
187.139,-2.834,3.014,22.0
123.529,-1.834,1.269,12.0
0.0,0.0,0.0,0.0
57.869,-0.826,-0.067,0.0
86.934,-1.218,2.284,49.0
86.959,-1.193,1.786,58.0
86.973,-1.168,1.288,19.0
80.115,-1.054,0.72,20.0
79.29,-1.02,0.258,3.0
54.441,-0.685,-0.134,0.0
79.431,-0.979,1.983,150.0
79.434,-0.956,1.527,181.0
79.422,-0.934,1.072,236.0
79.141,-0.908,0.606,59.0
58.968,-0.659,0.113,3.0
50.867,-0.555,-0.193,2.0
79.43,-0.846,1.876,182.0
79.43,-0.824,1.42,199.0
79.45,-0.802,0.965,178.0
77.38,-0.759,0.488,13.0
52.396,-0.499,0.029,4.0
42.28,-0.391,-0.218,4.0
79.425,-0.715,1.766,179.0
79.444,-0.694,1.311,185.0
79.449,-0.672,0.855,190.0
76.94,-0.629,0.379,6.0
46.941,-0.371,-0.038,4.0
0.0,0.0,0.0,0.0
79.435,-0.587,1.656,179.0
79.457,-0.565,1.2,171.0
79.469,-0.543,0.743,171.0
61.207,-0.402,0.214,16.0
42.123,-0.265,-0.094,3.0
37.041,-0.223,-0.295,1.0
79.435,-0.458,1.541,199.0
79.459,-0.437,1.084,159.0
79.324,-0.415,0.627,59.0
0.0,0.0,0.0,0.0
0.0,0.0,0.0,0.0
33.847,-0.15,-0.319,1.0
79.447,-0.332,1.424,181.0
79.465,-0.312,0.968,151.0
76.541,-0.28,0.492,13.0
47.986,-0.163,0.027,17.0
39.611,-0.124,-0.204,15.0
32.321,-0.093,-0.352,2.0
79.455,-0.209,1.306,151.0
79.461,-0.189,0.849,151.0
61.782,-0.131,0.305,9.0
45.064,-0.084,-0.04,22.0
38.658,-0.063,-0.257,6.0
30.717,-0.042,-0.381,1.0
79.459,-0.089,1.187,151.0
79.433,-0.07,0.73,150.0
55.965,-0.034,0.192,17.0
43.77,-0.016,-0.106,4.0
38.094,-0.004,-0.311,2.0
29.751,0.003,-0.414,2.0
79.461,0.029,1.064,151.0
79.358,0.049,0.605,12.0
0.0,0.0,0.0,0.0
39.47,0.043,-0.157,39.0
33.356,0.045,-0.325,1.0
28.894,0.046,-0.448,2.0
79.474,0.146,0.939,151.0
75.917,0.159,0.459,13.0
46.955,0.109,0.013,23.0
38.629,0.099,-0.215,14.0
31.709,0.089,-0.359,1.0
27.878,0.085,-0.476,1.0
79.434,0.262,0.811,89.0
59.353,0.209,0.265,15.0
0.0,0.0,0.0,0.0
37.802,0.151,-0.271,11.0
30.384,0.129,-0.393,2.0
26.826,0.12,-0.502,2.0
59.298,0.28,0.508,85.0
54.793,0.272,0.153,35.0
39.644,0.206,-0.117,26.0
37.609,0.204,-0.332,0.0
29.36,0.166,-0.428,1.0
25.991,0.153,-0.529,1.0
48.169,0.296,0.332,62.0
47.696,0.303,0.054,46.0
38.63,0.255,-0.179,41.0
32.416,0.221,-0.34,1.0
28.397,0.2,-0.462,1.0
25.018,0.182,-0.552,1.0
48.054,0.36,0.251,99.0
0.0,0.0,0.0,0.0
37.864,0.3,-0.238,13.0
30.803,0.251,-0.375,2.0
27.169,0.227,-0.487,2.0
21.736,0.186,-0.515,4.0
48.018,0.423,0.17,95.0
39.794,0.359,-0.088,15.0
37.373,0.346,-0.298,3.0
29.715,0.281,-0.411,2.0
26.403,0.255,-0.518,1.0
20.831,0.206,-0.529,4.0
47.893,0.484,0.088,57.0
38.638,0.399,-0.151,50.0
33.176,0.349,-0.321,1.0
28.733,0.309,-0.448,1.0
22.23,0.243,-0.475,1.0
19.975,0.223,-0.542,4.0
0.0,0.0,0.0,0.0
37.766,0.438,-0.214,20.0
31.409,0.37,-0.359,1.0
27.464,0.329,-0.476,1.0
21.581,0.263,-0.499,4.0
19.233,0.238,-0.556,4.0
43.959,0.554,-0.072,5.0
37.165,0.476,-0.276,6.0
30.065,0.391,-0.397,2.0
26.617,0.352,-0.508,2.0
20.691,0.277,-0.515,4.0
18.579,0.253,-0.569,4.0
38.763,0.535,-0.132,52.0
33.662,0.471,-0.31,1.0
29.047,0.412,-0.435,2.0
22.163,0.319,-0.462,1.0
19.858,0.289,-0.529,3.0
17.939,0.265,-0.582,4.0
37.679,0.564,-0.196,36.0
31.821,0.482,-0.35,2.0
27.795,0.427,-0.466,1.0
21.497,0.334,-0.487,4.0
19.168,0.302,-0.545,3.0
17.356,0.276,-0.594,3.0
37.047,0.596,-0.26,8.0
30.406,0.495,-0.389,1.0
26.786,0.441,-0.497,2.0
20.574,0.342,-0.503,4.0
18.579,0.313,-0.562,5.0
16.738,0.285,-0.603,3.0
36.796,0.632,-0.324,2.0
29.251,0.508,-0.427,2.0
22.364,0.392,-0.456,1.0
19.803,0.351,-0.52,10.0
17.855,0.32,-0.573,2.0
16.229,0.293,-0.615,3.0
32.11,0.586,-0.342,1.0
27.974,0.515,-0.46,1.0
21.613,0.402,-0.48,4.0
19.02,0.357,-0.535,10.0
17.289,0.327,-0.587,2.0
15.822,0.302,-0.629,4.0
30.404,0.586,-0.38,2.0
26.883,0.523,-0.492,1.0
20.762,0.407,-0.5,4.0
18.518,0.366,-0.555,9.0
16.695,0.333,-0.597,3.0
15.499,0.312,-0.645,3.0
29.313,0.594,-0.421,2.0
22.939,0.468,-0.462,5.0
19.939,0.41,-0.517,3.0
17.877,0.371,-0.569,5.0
16.128,0.337,-0.607,3.0
15.166,0.319,-0.659,3.0
28.021,0.594,-0.454,1.0
21.54,0.46,-0.473,4.0
19.234,0.413,-0.534,4.0
17.355,0.376,-0.584,2.0
15.64,0.341,-0.618,3.0
14.848,0.326,-0.672,4.0
26.996,0.596,-0.487,2.0
20.837,0.463,-0.497,4.0
18.551,0.415,-0.55,3.0
16.7,0.376,-0.594,2.0
15.212,0.345,-0.629,3.0
14.548,0.332,-0.686,5.0
23.039,0.529,-0.459,4.0
19.976,0.461,-0.514,3.0
17.848,0.415,-0.563,4.0
16.157,0.378,-0.605,2.0
14.821,0.349,-0.641,4.0
14.309,0.339,-0.702,5.0
21.489,0.511,-0.469,4.0
19.226,0.46,-0.531,3.0
17.321,0.417,-0.579,4.0
15.642,0.379,-0.615,2.0
14.497,0.353,-0.654,5.0
14.061,0.344,-0.716,4.0
20.721,0.509,-0.491,6.0
18.492,0.457,-0.546,3.0
16.746,0.416,-0.591,2.0
15.223,0.38,-0.628,3.0
14.294,0.359,-0.672,4.0
13.833,0.35,-0.731,3.0
19.906,0.504,-0.51,3.0
17.804,0.453,-0.559,4.0
16.154,0.413,-0.601,2.0
14.806,0.381,-0.638,4.0
13.972,0.361,-0.684,4.0
13.597,0.353,-0.745,3.0
19.236,0.501,-0.529,3.0
17.278,0.452,-0.576,4.0
15.645,0.411,-0.612,3.0
14.48,0.382,-0.652,4.0
13.694,0.364,-0.696,4.0
13.387,0.357,-0.759,3.0
18.504,0.494,-0.544,3.0
16.673,0.447,-0.587,2.0
15.258,0.411,-0.626,3.0
14.273,0.387,-0.67,4.0
13.395,0.364,-0.707,4.0
13.207,0.361,-0.774,2.0
17.828,0.488,-0.559,5.0
16.076,0.442,-0.597,5.0
14.855,0.41,-0.638,3.0
13.926,0.386,-0.681,4.0
13.14,0.366,-0.719,5.0
13.043,0.365,-0.789,1.0
17.243,0.482,-0.573,5.0
15.632,0.439,-0.611,4.0
14.482,0.408,-0.65,4.0
13.607,0.385,-0.691,4.0
13.008,0.369,-0.736,5.0
12.961,0.37,-0.809,0.0
16.668,0.475,-0.586,2.0
14.974,0.429,-0.613,2.0
14.275,0.41,-0.668,5.0
13.255,0.382,-0.698,4.0
12.85,0.372,-0.752,6.0
12.911,0.375,-0.831,0.0
16.079,0.467,-0.596,3.0
14.605,0.425,-0.626,3.0
13.93,0.407,-0.678,4.0
12.973,0.381,-0.708,4.0
12.746,0.375,-0.77,4.0
12.836,0.379,-0.851,0.0
15.175,0.448,-0.591,4.0
14.412,0.427,-0.646,5.0
13.595,0.404,-0.688,4.0
12.748,0.38,-0.721,4.0
12.643,0.378,-0.788,2.0
12.722,0.382,-0.868,1.0
14.588,0.437,-0.597,3.0
14.252,0.428,-0.666,4.0
13.239,0.399,-0.695,4.0
12.635,0.382,-0.738,4.0
12.527,0.38,-0.805,0.0
12.611,0.384,-0.884,1.0
14.333,0.435,-0.614,2.0
13.922,0.424,-0.677,4.0
12.907,0.394,-0.702,4.0
12.54,0.384,-0.757,3.0
12.499,0.384,-0.827,0.0
12.508,0.385,-0.901,1.0
14.273,0.439,-0.638,4.0
13.591,0.419,-0.686,4.0
12.63,0.39,-0.711,3.0
12.451,0.385,-0.775,2.0
12.436,0.386,-0.846,0.0
12.362,0.385,-0.914,0.0
14.15,0.439,-0.659,4.0
13.242,0.412,-0.694,4.0
12.456,0.388,-0.725,3.0
12.343,0.386,-0.792,1.0
12.384,0.388,-0.866,0.0
12.113,0.38,-0.918,0.0
13.93,0.436,-0.675,4.0
12.925,0.406,-0.701,4.0
12.355,0.389,-0.742,3.0
12.282,0.387,-0.811,0.0
12.325,0.389,-0.886,0.0
13.608,0.429,-0.685,4.0
12.599,0.398,-0.707,3.0
12.282,0.389,-0.761,3.0
12.215,0.388,-0.829,0.0
12.264,0.39,-0.904,0.0
13.233,0.42,-0.691,6.0
12.371,0.394,-0.718,3.0
12.235,0.39,-0.781,1.0
12.237,0.391,-0.854,0.0
12.099,0.387,-0.915,0.0
10.646,0.341,-0.867,0.0
12.949,0.413,-0.7,5.0
12.249,0.392,-0.733,3.0
12.173,0.39,-0.799,1.0
12.187,0.391,-0.872,0.0
10.394,0.335,-0.866,0.0
12.62,0.404,-0.705,4.0
12.207,0.392,-0.753,2.0
12.121,0.39,-0.818,0.0
12.194,0.392,-0.895,0.0
10.241,0.33,-0.872,0.0
12.366,0.397,-0.713,3.0
12.189,0.392,-0.774,2.0
12.16,0.392,-0.843,0.0
12.097,0.39,-0.91,0.0
10.088,0.326,-0.877,0.0
12.217,0.393,-0.727,3.0
12.148,0.391,-0.794,1.0
12.151,0.392,-0.865,0.0
11.977,0.387,-0.923,0.0
10.435,0.337,-0.865,0.0
9.931,0.321,-0.882,0.0
12.186,0.392,-0.747,3.0
12.109,0.39,-0.813,1.0
12.169,0.392,-0.888,0.0
10.284,0.332,-0.871,0.0
9.747,0.315,-0.883,0.0
12.2,0.392,-0.77,2.0
12.158,0.391,-0.838,0.0
12.109,0.39,-0.905,0.0
10.112,0.326,-0.875,0.0
9.614,0.31,-0.888,0.0
12.193,0.391,-0.791,1.0
12.177,0.391,-0.861,0.0
12.003,0.386,-0.919,0.0
10.45,0.336,-0.862,0.0
9.977,0.321,-0.881,0.0
9.418,0.303,-0.887,0.0
12.205,0.39,-0.813,0.0
12.254,0.392,-0.888,0.0
10.304,0.33,-0.868,0.0
9.797,0.314,-0.882,0.0
9.251,0.296,-0.887,1.0
12.229,0.389,-0.836,0.0
12.192,0.388,-0.904,0.0
10.16,0.324,-0.873,0.0
9.683,0.308,-0.889,0.0
9.097,0.29,-0.888,0.0
12.339,0.391,-0.865,0.0
12.087,0.383,-0.917,0.0
10.549,0.334,-0.862,0.0
10.011,0.317,-0.877,0.0
9.482,0.3,-0.887,0.0
9.028,0.286,-0.897,0.0
12.4,0.39,-0.89,1.0
10.364,0.326,-0.865,0.0
9.845,0.309,-0.88,0.0
9.312,0.292,-0.886,0.0
8.92,0.28,-0.901,0.0
12.328,0.384,-0.905,0.0
10.767,0.335,-0.853,0.0
10.231,0.319,-0.871,0.0
9.7,0.302,-0.883,0.0
9.145,0.285,-0.886,0.0
8.793,0.274,-0.903,0.0
10.621,0.328,-0.859,0.0
10.058,0.31,-0.872,0.0
9.57,0.295,-0.887,0.0
9.02,0.278,-0.889,2.0
8.684,0.267,-0.906,0.0
10.431,0.318,-0.861,0.0
9.939,0.303,-0.878,0.0
9.386,0.286,-0.885,0.0
8.988,0.274,-0.9,0.0
8.555,0.261,-0.907,0.0
10.304,0.311,-0.867,0.0
9.789,0.295,-0.881,0.0
9.245,0.278,-0.887,0.0
8.866,0.267,-0.902,0.0
8.431,0.253,-0.907,0.0
10.718,0.319,-0.857,0.0
10.161,0.302,-0.871,0.0
9.63,0.286,-0.882,0.0
9.051,0.269,-0.882,1.0
8.73,0.259,-0.902,0.0
8.267,0.245,-0.902,0.0
10.495,0.308,-0.855,0.0
10.01,0.293,-0.874,0.0
9.476,0.277,-0.882,0.0
9.017,0.264,-0.893,2.0
8.605,0.251,-0.902,0.0
8.186,0.239,-0.906,1.0
10.412,0.301,-0.864,1.0
9.876,0.285,-0.877,0.0
9.379,0.27,-0.887,0.0
8.982,0.258,-0.903,0.0
8.499,0.244,-0.904,0.0
8.155,0.234,-0.915,1.0
10.272,0.292,-0.868,0.0
9.741,0.276,-0.879,0.0
9.243,0.262,-0.888,0.0
8.813,0.249,-0.899,0.0
8.279,0.233,-0.893,0.0
8.064,0.227,-0.917,0.0
10.12,0.282,-0.87,0.0
9.625,0.268,-0.883,0.0
9.053,0.251,-0.883,1.0
8.714,0.241,-0.902,0.0
8.207,0.227,-0.897,2.0
7.977,0.22,-0.919,0.0
9.988,0.273,-0.873,0.0
9.491,0.259,-0.884,0.0
9.009,0.245,-0.892,1.0
8.453,0.229,-0.887,0.0
8.179,0.221,-0.906,2.0
7.933,0.214,-0.925,0.0
9.86,0.263,-0.875,0.0
9.385,0.25,-0.888,0.0
8.948,0.238,-0.898,0.0
8.442,0.224,-0.897,0.0
8.149,0.216,-0.914,0.0
7.844,0.207,-0.926,0.0
9.745,0.254,-0.879,0.0
9.261,0.241,-0.889,0.0
8.82,0.229,-0.897,0.0
8.28,0.214,-0.891,0.0
8.064,0.208,-0.915,0.0
7.737,0.199,-0.923,0.0
9.623,0.245,-0.88,0.0
9.131,0.232,-0.888,0.0
8.717,0.22,-0.899,0.0
8.224,0.207,-0.896,1.0
7.996,0.201,-0.918,0.0
7.664,0.192,-0.925,0.0
9.499,0.235,-0.881,0.0
9.027,0.223,-0.89,0.0
8.633,0.212,-0.901,0.0
8.208,0.201,-0.905,1.0
7.949,0.194,-0.923,0.0
7.587,0.185,-0.925,0.0
9.395,0.226,-0.884,0.0
8.944,0.214,-0.893,0.0
8.552,0.204,-0.904,0.0
8.178,0.194,-0.913,0.0
7.834,0.186,-0.92,0.0
7.525,0.178,-0.927,0.0
9.305,0.217,-0.887,0.0
8.837,0.205,-0.893,0.0
8.428,0.195,-0.901,0.0
8.075,0.186,-0.911,0.0
7.768,0.178,-0.922,0.0
7.472,0.171,-0.93,0.0
9.173,0.207,-0.885,0.0
8.797,0.197,-0.9,0.0
8.363,0.187,-0.904,0.0
8.031,0.179,-0.916,0.0
7.687,0.17,-0.921,0.0
7.413,0.164,-0.931,0.0
9.072,0.197,-0.886,0.0
8.708,0.188,-0.901,0.0
8.301,0.179,-0.907,0.0
7.936,0.17,-0.914,0.0
7.636,0.163,-0.924,0.0
7.321,0.156,-0.928,0.0
9.009,0.188,-0.89,0.0
8.589,0.179,-0.898,0.0
8.231,0.17,-0.908,0.0
7.885,0.162,-0.917,0.0
7.59,0.156,-0.927,0.0
7.285,0.149,-0.932,0.0
8.936,0.179,-0.893,0.0
8.511,0.17,-0.899,0.0
8.14,0.162,-0.907,0.0
7.846,0.155,-0.921,0.0
7.531,0.148,-0.928,0.0
7.234,0.141,-0.933,0.0
8.854,0.17,-0.894,0.0
8.452,0.161,-0.902,0.0
8.091,0.154,-0.91,0.0
7.781,0.147,-0.921,0.0
7.453,0.14,-0.926,0.0
7.174,0.134,-0.933,0.0
8.757,0.16,-0.893,0.0
8.385,0.153,-0.903,0.0
8.046,0.145,-0.913,0.0
7.734,0.139,-0.923,0.0
7.338,0.131,-0.919,0.0
7.146,0.127,-0.936,0.0
8.684,0.151,-0.894,0.0
8.304,0.143,-0.903,0.0
7.977,0.137,-0.913,0.0
7.668,0.131,-0.923,0.0
7.317,0.124,-0.923,1.0
7.086,0.119,-0.935,0.0
8.602,0.142,-0.893,0.0
8.25,0.135,-0.904,0.0
7.942,0.129,-0.916,0.0
7.616,0.123,-0.923,0.0
7.295,0.116,-0.927,1.0
7.051,0.112,-0.937,0.0
8.541,0.133,-0.894,0.0
8.198,0.126,-0.906,0.0
7.885,0.12,-0.917,0.0
7.558,0.114,-0.923,0.0
7.281,0.109,-0.931,0.0
7.003,0.104,-0.936,0.0
8.508,0.124,-0.898,0.0
8.149,0.118,-0.907,0.0
7.837,0.112,-0.918,0.0
7.521,0.107,-0.925,0.0
7.26,0.102,-0.935,0.0
6.978,0.097,-0.939,0.0
8.456,0.115,-0.9,0.0
8.116,0.109,-0.91,0.0
7.812,0.104,-0.921,0.0
7.463,0.098,-0.923,0.0
7.212,0.094,-0.934,0.0
6.934,0.089,-0.938,0.0
8.408,0.106,-0.901,0.0
8.074,0.101,-0.911,0.0
7.773,0.096,-0.922,0.0
7.409,0.09,-0.922,0.0
7.164,0.086,-0.933,0.0
6.904,0.082,-0.939,0.0
8.364,0.097,-0.902,0.0
8.036,0.092,-0.913,0.0
7.729,0.087,-0.922,0.0
7.342,0.082,-0.919,0.0
7.139,0.078,-0.935,0.0
6.881,0.075,-0.941,0.0
8.319,0.088,-0.903,0.0
8.004,0.083,-0.914,0.0
7.69,0.079,-0.923,0.0
7.32,0.074,-0.921,0.0
7.093,0.071,-0.934,0.0
6.849,0.067,-0.941,0.0
8.296,0.079,-0.905,0.0
7.951,0.074,-0.913,0.0
7.646,0.071,-0.922,0.0
7.328,0.066,-0.927,0.0
7.074,0.063,-0.935,0.0
6.802,0.06,-0.939,0.0
8.248,0.07,-0.905,0.0
7.918,0.066,-0.914,0.0
7.639,0.062,-0.926,0.0
7.314,0.058,-0.929,0.0
7.066,0.055,-0.938,0.0
6.796,0.052,-0.942,0.0
8.224,0.061,-0.907,0.0
7.903,0.057,-0.917,0.0
7.591,0.054,-0.924,0.0
7.307,0.051,-0.932,0.0
7.033,0.048,-0.938,0.0
6.765,0.045,-0.941,0.0
8.191,0.052,-0.907,0.0
7.881,0.049,-0.918,0.0
7.575,0.045,-0.926,0.0
7.288,0.043,-0.933,0.0
7.031,0.04,-0.941,0.0
6.742,0.037,-0.941,0.0
8.151,0.043,-0.907,0.0
7.851,0.04,-0.918,0.0
7.549,0.037,-0.926,0.0
7.237,0.034,-0.93,0.0
6.975,0.032,-0.936,0.0
6.733,0.03,-0.942,0.0
8.139,0.034,-0.909,0.0
7.834,0.031,-0.919,0.0
7.513,0.029,-0.924,0.0
7.233,0.026,-0.932,0.0
6.971,0.024,-0.938,0.0
6.708,0.022,-0.941,0.0
8.122,0.025,-0.91,0.0
7.816,0.022,-0.92,0.0
7.512,0.02,-0.927,0.0
7.212,0.018,-0.932,0.0
6.977,0.016,-0.941,0.0
6.695,0.014,-0.942,0.0
8.101,0.016,-0.91,0.0
7.791,0.014,-0.919,0.0
7.492,0.012,-0.927,0.0
7.192,0.01,-0.931,0.0
6.98,0.008,-0.944,0.0
6.678,0.007,-0.941,0.0
8.088,0.007,-0.911,0.0
7.788,0.005,-0.921,0.0
7.46,0.003,-0.925,0.0
7.175,0.002,-0.931,0.0
6.949,0.0,-0.941,0.0
6.66,0.0,-0.94,0.0
8.069,-0.001,-0.91,0.0
7.763,-0.003,-0.92,0.0
7.444,-0.004,-0.924,0.0
7.166,-0.005,-0.931,0.0
6.958,-0.006,-0.944,0.0
6.663,-0.007,-0.942,0.0
8.067,-0.011,-0.912,0.0
7.756,-0.012,-0.92,0.0
7.445,-0.012,-0.926,0.0
7.186,-0.013,-0.935,0.0
6.937,-0.014,-0.942,0.0
6.667,-0.015,-0.944,0.0
8.062,-0.02,-0.912,0.0
7.754,-0.02,-0.921,0.0
7.445,-0.021,-0.927,0.0
7.147,-0.022,-0.931,0.0
6.932,-0.022,-0.942,0.0
6.657,-0.022,-0.943,0.0
8.042,-0.029,-0.911,0.0
7.764,-0.029,-0.923,0.0
7.448,-0.029,-0.928,0.0
7.168,-0.03,-0.934,0.0
6.925,-0.03,-0.942,0.0
6.637,-0.03,-0.94,0.0
8.044,-0.038,-0.911,0.0
7.747,-0.038,-0.921,0.0
7.449,-0.038,-0.928,0.0
7.166,-0.038,-0.934,0.0
6.929,-0.038,-0.943,0.0
6.66,-0.038,-0.944,0.0
8.045,-0.047,-0.911,0.0
7.753,-0.047,-0.922,0.0
7.443,-0.046,-0.927,0.0
7.162,-0.046,-0.933,0.0
6.924,-0.046,-0.942,0.0
6.645,-0.045,-0.941,0.0
8.048,-0.056,-0.911,0.0
7.741,-0.055,-0.92,0.0
7.443,-0.055,-0.927,0.0
7.164,-0.054,-0.933,0.0
6.915,-0.054,-0.94,0.0
6.667,-0.053,-0.944,0.0
8.052,-0.065,-0.911,0.0
7.733,-0.064,-0.918,0.0
7.459,-0.063,-0.928,0.0
7.17,-0.062,-0.933,0.0
6.926,-0.061,-0.94,0.0
6.661,-0.06,-0.942,0.0
8.06,-0.074,-0.911,0.0
7.755,-0.073,-0.92,0.0
7.47,-0.072,-0.928,0.0
7.18,-0.07,-0.933,0.0
6.943,-0.069,-0.942,0.0
6.673,-0.068,-0.943,0.0
8.061,-0.083,-0.909,0.0
7.766,-0.082,-0.919,0.0
7.478,-0.08,-0.927,0.0
7.194,-0.079,-0.933,0.0
6.941,-0.077,-0.94,0.0
6.674,-0.076,-0.941,0.0
8.091,-0.093,-0.911,0.0
7.795,-0.091,-0.921,0.0
7.502,-0.089,-0.928,0.0
7.205,-0.087,-0.933,0.0
6.973,-0.085,-0.942,0.0
6.693,-0.083,-0.942,0.0
8.1,-0.102,-0.91,0.0
7.815,-0.1,-0.921,0.0
7.498,-0.097,-0.926,0.0
7.23,-0.095,-0.934,0.0
6.977,-0.093,-0.94,0.0
6.709,-0.091,-0.942,0.0
8.111,-0.111,-0.908,0.0
7.84,-0.109,-0.922,0.0
7.542,-0.106,-0.929,0.0
7.243,-0.103,-0.933,0.0
6.993,-0.101,-0.94,0.0
6.718,-0.098,-0.941,0.0
8.141,-0.12,-0.909,0.0
7.827,-0.117,-0.917,0.0
7.548,-0.114,-0.926,0.0
7.253,-0.111,-0.932,0.0
7.005,-0.109,-0.939,0.0
6.758,-0.106,-0.944,0.0
8.162,-0.129,-0.908,0.0
7.871,-0.126,-0.919,0.0
7.562,-0.123,-0.925,0.0
7.28,-0.119,-0.932,0.0
7.022,-0.117,-0.938,0.0
6.793,-0.114,-0.946,0.0
8.196,-0.138,-0.908,0.0
7.884,-0.135,-0.917,0.0
7.588,-0.131,-0.925,0.0
7.29,-0.127,-0.93,0.0
7.043,-0.124,-0.937,0.0
6.794,-0.121,-0.942,0.0
8.215,-0.147,-0.906,0.0
7.921,-0.144,-0.917,0.0
7.604,-0.139,-0.923,0.0
7.331,-0.136,-0.931,0.0
7.065,-0.132,-0.937,0.0
6.815,-0.129,-0.942,0.0
8.246,-0.156,-0.905,0.0
7.935,-0.152,-0.914,0.0
7.639,-0.148,-0.922,0.0
7.362,-0.144,-0.931,0.0
7.096,-0.14,-0.937,0.0
6.843,-0.137,-0.941,0.0
8.299,-0.166,-0.905,0.0
7.977,-0.161,-0.914,0.0
7.684,-0.157,-0.923,0.0
7.393,-0.152,-0.93,0.0
7.12,-0.148,-0.935,0.0
6.885,-0.145,-0.943,0.0
8.335,-0.175,-0.904,0.0
8.029,-0.17,-0.915,0.0
7.725,-0.165,-0.923,0.0
7.416,-0.16,-0.928,0.0
7.177,-0.157,-0.938,0.0
6.919,-0.152,-0.942,0.0
8.365,-0.184,-0.902,0.0
8.053,-0.179,-0.912,0.0
7.756,-0.174,-0.921,0.0
7.466,-0.169,-0.929,0.0
7.192,-0.164,-0.935,0.0
6.952,-0.16,-0.942,0.0
8.429,-0.194,-0.902,0.0
8.098,-0.188,-0.911,0.0
7.807,-0.183,-0.922,0.0
7.486,-0.177,-0.926,0.0
7.231,-0.172,-0.934,0.0
6.993,-0.168,-0.942,0.0
8.465,-0.203,-0.9,0.0
8.125,-0.196,-0.908,0.0
7.848,-0.191,-0.92,0.0
7.543,-0.185,-0.927,0.0
7.269,-0.18,-0.933,0.0
7.034,-0.175,-0.942,0.0
8.521,-0.212,-0.899,0.0
8.185,-0.205,-0.908,0.0
7.898,-0.2,-0.92,0.0
7.584,-0.193,-0.926,0.0
7.308,-0.188,-0.932,0.0
7.07,-0.183,-0.941,0.0
8.587,-0.222,-0.899,0.0
8.249,-0.215,-0.908,0.0
7.928,-0.208,-0.916,0.0
7.636,-0.201,-0.925,0.0
7.376,-0.196,-0.934,0.0
7.095,-0.19,-0.938,0.0
8.646,-0.231,-0.897,0.0
8.295,-0.223,-0.906,0.0
7.969,-0.216,-0.914,0.0
7.669,-0.209,-0.922,0.0
7.413,-0.204,-0.932,0.0
7.135,-0.197,-0.937,0.0
8.687,-0.24,-0.893,0.0
8.353,-0.232,-0.905,0.0
8.032,-0.225,-0.914,0.0
7.747,-0.218,-0.924,0.0
7.456,-0.211,-0.93,0.0
7.183,-0.205,-0.936,0.0
8.784,-0.25,-0.895,0.0
8.423,-0.241,-0.904,0.0
8.098,-0.233,-0.913,0.0
7.786,-0.226,-0.921,0.0
7.509,-0.219,-0.929,0.0
7.229,-0.212,-0.934,0.0
8.853,-0.259,-0.893,0.0
8.498,-0.251,-0.903,0.0
8.148,-0.242,-0.91,0.0
7.859,-0.234,-0.922,0.0
7.533,-0.226,-0.925,0.0
7.287,-0.22,-0.934,0.0
8.939,-0.269,-0.892,0.0
8.561,-0.259,-0.901,0.0
8.205,-0.25,-0.908,0.0
7.905,-0.242,-0.919,0.0
7.602,-0.234,-0.925,0.0
7.335,-0.227,-0.932,0.0
9.011,-0.278,-0.89,0.0
8.612,-0.268,-0.897,0.0
8.281,-0.259,-0.907,0.0
7.984,-0.251,-0.919,0.0
7.681,-0.243,-0.926,0.0
7.394,-0.235,-0.932,0.0
9.117,-0.289,-0.89,0.0
8.712,-0.277,-0.898,0.0
8.348,-0.267,-0.905,0.0
8.042,-0.259,-0.917,0.0
7.748,-0.25,-0.925,0.0
7.458,-0.242,-0.931,0.0
9.206,-0.298,-0.888,0.0
8.78,-0.286,-0.895,0.0
8.427,-0.276,-0.904,0.0
8.089,-0.266,-0.912,0.0
7.804,-0.258,-0.923,0.0
7.508,-0.249,-0.928,0.0
9.297,-0.308,-0.886,0.0
8.887,-0.295,-0.895,0.0
8.499,-0.284,-0.902,0.0
8.164,-0.274,-0.911,0.0
7.879,-0.266,-0.922,0.0
7.585,-0.257,-0.929,0.0
9.402,-0.318,-0.885,0.0
8.988,-0.305,-0.894,0.0
8.587,-0.293,-0.9,0.0
8.233,-0.282,-0.908,0.0
7.953,-0.273,-0.92,0.0
7.656,-0.264,-0.928,0.0
9.518,-0.328,-0.884,0.0
9.061,-0.313,-0.89,0.0
8.681,-0.301,-0.899,0.0
8.323,-0.29,-0.908,0.0
8.022,-0.281,-0.918,0.0
7.746,-0.272,-0.928,0.0
9.624,-0.337,-0.881,0.0
9.18,-0.323,-0.889,0.0
8.767,-0.31,-0.897,0.0
8.39,-0.298,-0.904,0.0
8.088,-0.288,-0.915,0.0
7.791,-0.279,-0.923,0.0
9.755,-0.347,-0.88,1.0
9.288,-0.332,-0.888,0.0
8.878,-0.319,-0.896,0.0
8.496,-0.306,-0.904,0.0
8.165,-0.295,-0.913,0.0
7.872,-0.286,-0.922,0.0
9.803,-0.355,-0.871,2.0
9.395,-0.341,-0.885,0.0
8.971,-0.327,-0.893,0.0
8.595,-0.314,-0.903,0.0
8.243,-0.303,-0.91,0.0
7.938,-0.292,-0.919,0.0
9.944,-0.365,-0.87,1.0
9.52,-0.351,-0.883,0.0
9.105,-0.336,-0.894,0.0
8.68,-0.322,-0.899,0.0
8.332,-0.31,-0.908,0.0
8.031,-0.3,-0.918,0.0
10.077,-0.375,-0.867,0.0
9.638,-0.36,-0.881,0.0
9.205,-0.345,-0.89,0.0
8.78,-0.33,-0.897,0.0
8.438,-0.318,-0.907,0.0
8.102,-0.306,-0.914,0.0
10.25,-0.386,-0.867,0.0
9.774,-0.369,-0.879,2.0
9.301,-0.352,-0.886,0.0
8.907,-0.338,-0.897,0.0
8.524,-0.325,-0.904,0.0
8.2,-0.313,-0.913,0.0
10.397,-0.396,-0.865,0.0
9.863,-0.376,-0.872,2.0
9.45,-0.362,-0.886,0.0
9.033,-0.347,-0.896,0.0
8.633,-0.332,-0.902,0.0
8.285,-0.32,-0.91,0.0
10.54,-0.405,-0.861,0.0
9.982,-0.385,-0.868,1.0
9.559,-0.37,-0.882,0.0
9.141,-0.354,-0.893,0.0
8.724,-0.339,-0.899,0.0
8.386,-0.327,-0.909,0.0
10.698,-0.415,-0.858,0.0
10.154,-0.395,-0.868,0.0
9.72,-0.379,-0.882,0.0
9.255,-0.362,-0.89,0.0
8.837,-0.346,-0.897,0.0
8.484,-0.333,-0.906,0.0
10.884,-0.426,-0.856,0.0
10.336,-0.405,-0.867,0.0
9.8,-0.385,-0.874,2.0
9.397,-0.37,-0.889,0.0
8.961,-0.354,-0.895,0.0
8.602,-0.34,-0.905,0.0
11.049,-0.435,-0.851,0.0
10.5,-0.415,-0.864,0.0
9.93,-0.393,-0.87,1.0
9.517,-0.377,-0.885,0.0
9.107,-0.362,-0.895,0.0
8.705,-0.347,-0.902,0.0
11.23,-0.445,-0.847,0.0
10.666,-0.424,-0.861,0.0
10.113,-0.403,-0.87,0.0
9.68,-0.386,-0.885,0.0
9.226,-0.369,-0.892,0.0
8.801,-0.352,-0.897,0.0
11.441,-0.456,-0.845,0.0
10.841,-0.433,-0.857,0.0
10.29,-0.412,-0.868,0.0
9.776,-0.392,-0.877,2.0
9.361,-0.376,-0.89,0.0
8.951,-0.36,-0.898,0.0
11.621,-0.465,-0.839,0.0
10.999,-0.441,-0.852,0.0
10.46,-0.42,-0.865,0.0
9.904,-0.398,-0.872,2.0
9.498,-0.383,-0.887,0.0
9.062,-0.366,-0.894,0.0
11.836,-0.476,-0.835,0.0
11.197,-0.451,-0.849,0.0
10.626,-0.428,-0.861,0.0
10.062,-0.406,-0.869,0.0
9.663,-0.39,-0.886,0.0
9.22,-0.373,-0.894,0.0
12.036,-0.485,-0.829,0.0
11.401,-0.46,-0.845,0.0
10.8,-0.436,-0.857,0.0
10.287,-0.416,-0.871,0.0
9.79,-0.396,-0.881,2.0
9.355,-0.379,-0.891,0.0
12.291,-0.496,-0.825,0.0
11.609,-0.469,-0.841,0.0
11.006,-0.445,-0.855,0.0
10.458,-0.423,-0.868,0.0
9.902,-0.401,-0.874,2.0
9.495,-0.385,-0.888,0.0
12.512,-0.505,-0.819,0.0
11.815,-0.477,-0.835,0.0
11.197,-0.453,-0.85,0.0
10.622,-0.43,-0.863,0.0
10.087,-0.408,-0.873,0.0
9.653,-0.391,-0.886,0.0
12.77,-0.515,-0.814,1.0
12.028,-0.486,-0.829,1.0
11.401,-0.46,-0.846,0.0
10.81,-0.437,-0.86,0.0
10.276,-0.416,-0.871,0.0
9.785,-0.396,-0.881,2.0
13.037,-0.525,-0.808,0.0
12.292,-0.495,-0.826,0.0
11.614,-0.468,-0.841,0.0
11.004,-0.444,-0.856,0.0
10.472,-0.422,-0.869,0.0
9.916,-0.4,-0.875,2.0
13.325,-0.536,-0.802,0.0
12.522,-0.503,-0.819,1.0
11.834,-0.476,-0.836,0.0
11.213,-0.451,-0.852,0.0
10.638,-0.428,-0.864,0.0
10.095,-0.406,-0.873,0.0
13.592,-0.544,-0.794,1.0
12.78,-0.512,-0.813,1.0
12.065,-0.483,-0.831,0.0
11.413,-0.457,-0.847,0.0
10.858,-0.435,-0.862,0.0
10.305,-0.413,-0.872,0.0
13.894,-0.554,-0.787,1.0
13.071,-0.521,-0.808,0.0
12.31,-0.491,-0.825,0.0
11.625,-0.463,-0.841,0.0
11.024,-0.439,-0.856,0.0
10.493,-0.418,-0.869,0.0
14.238,-0.565,-0.781,1.0
13.375,-0.53,-0.803,1.0
12.566,-0.498,-0.82,0.0
11.861,-0.47,-0.837,0.0
11.232,-0.445,-0.851,0.0
10.68,-0.423,-0.865,0.0
14.598,-0.575,-0.774,1.0
13.636,-0.537,-0.794,1.0
12.845,-0.505,-0.815,1.0
12.091,-0.476,-0.831,0.0
11.451,-0.45,-0.847,0.0
10.882,-0.427,-0.862,0.0
14.963,-0.585,-0.766,1.0
13.947,-0.545,-0.786,1.0
13.132,-0.513,-0.809,0.0
12.357,-0.482,-0.826,1.0
11.684,-0.455,-0.842,0.0
11.082,-0.432,-0.857,0.0
15.364,-0.595,-0.758,1.0
14.3,-0.554,-0.78,1.0
13.424,-0.519,-0.802,1.0
12.626,-0.488,-0.821,1.0
11.915,-0.46,-0.837,0.0
11.294,-0.436,-0.852,0.0
15.755,-0.605,-0.749,1.0
14.656,-0.562,-0.773,1.0
13.723,-0.525,-0.795,1.0
12.899,-0.493,-0.815,1.0
12.166,-0.465,-0.833,1.0
11.517,-0.439,-0.848,0.0
16.191,-0.615,-0.74,1.0
15.054,-0.571,-0.766,1.0
14.028,-0.531,-0.786,1.0
13.189,-0.499,-0.809,0.0
12.421,-0.469,-0.827,0.0
11.721,-0.442,-0.841,0.0
16.725,-0.627,-0.733,1.0
15.447,-0.578,-0.757,1.0
14.373,-0.537,-0.779,1.0
13.478,-0.503,-0.802,1.0
12.672,-0.472,-0.82,0.0
11.969,-0.445,-0.837,1.0
17.209,-0.637,-0.723,1.0
15.866,-0.586,-0.749,1.0
14.736,-0.543,-0.772,1.0
13.756,-0.506,-0.793,1.0
12.96,-0.476,-0.815,0.0
12.225,-0.448,-0.832,0.0
17.752,-0.647,-0.713,1.0
16.309,-0.593,-0.739,1.0
15.141,-0.55,-0.765,1.0
14.071,-0.51,-0.785,1.0
13.252,-0.479,-0.808,1.0
12.477,-0.45,-0.826,0.0
18.264,-0.655,-0.7,1.0
16.821,-0.602,-0.731,1.0
15.528,-0.555,-0.756,1.0
14.448,-0.515,-0.78,1.0
13.55,-0.481,-0.802,1.0
12.743,-0.452,-0.82,0.0
18.828,-0.664,-0.687,1.0
17.341,-0.61,-0.722,1.0
15.97,-0.56,-0.748,1.0
14.837,-0.519,-0.773,1.0
13.841,-0.483,-0.793,1.0
13.04,-0.454,-0.815,1.0
19.471,-0.674,-0.674,1.0
17.833,-0.615,-0.71,1.0
16.431,-0.565,-0.739,0.0
15.221,-0.522,-0.765,1.0
14.175,-0.485,-0.786,1.0
13.328,-0.454,-0.808,1.0
20.109,-0.682,-0.659,1.0
18.405,-0.622,-0.698,1.0
16.931,-0.57,-0.73,1.0
15.621,-0.524,-0.756,1.0
14.542,-0.486,-0.779,1.0
13.618,-0.454,-0.801,0.0
20.846,-0.691,-0.644,1.0
18.96,-0.626,-0.684,1.0
17.491,-0.576,-0.722,1.0
16.048,-0.526,-0.747,1.0
14.918,-0.488,-0.772,1.0
13.93,-0.454,-0.793,1.0
21.641,-0.701,-0.629,1.0
19.606,-0.632,-0.672,1.0
17.988,-0.578,-0.709,1.0
16.522,-0.529,-0.739,0.0
15.304,-0.488,-0.764,1.0
14.235,-0.452,-0.784,1.0
22.485,-0.71,-0.612,1.0
20.31,-0.638,-0.658,1.0
18.533,-0.58,-0.697,1.0
17.057,-0.531,-0.731,1.0
15.715,-0.488,-0.755,1.0
14.647,-0.452,-0.78,1.0
23.309,-0.716,-0.592,1.0
20.978,-0.641,-0.642,1.0
19.108,-0.581,-0.683,1.0
17.565,-0.532,-0.721,1.0
16.168,-0.487,-0.748,1.0
15.018,-0.45,-0.772,1.0
24.254,-0.723,-0.572,1.0
21.782,-0.646,-0.626,1.0
19.738,-0.583,-0.67,1.0
18.061,-0.53,-0.709,1.0
16.617,-0.485,-0.738,0.0
15.391,-0.447,-0.764,1.0
25.233,-0.729,-0.549,1.0
22.642,-0.65,-0.61,1.0
20.463,-0.584,-0.657,1.0
18.599,-0.528,-0.695,1.0
17.17,-0.485,-0.731,1.0
15.797,-0.443,-0.755,1.0
26.269,-0.733,-0.524,1.0
23.474,-0.651,-0.589,1.0
20.991,-0.579,-0.636,2.0
19.205,-0.526,-0.684,1.0
17.664,-0.481,-0.72,1.0
16.244,-0.44,-0.747,0.0
27.208,-0.732,-0.494,1.0
24.486,-0.654,-0.572,1.0
21.943,-0.583,-0.626,1.0
19.797,-0.522,-0.669,1.0
18.158,-0.476,-0.708,1.0
16.707,-0.435,-0.739,0.0
28.385,-0.734,-0.465,1.0
25.429,-0.653,-0.548,1.0
22.798,-0.581,-0.61,1.0
20.609,-0.522,-0.661,3.0
18.675,-0.47,-0.696,1.0
17.2,-0.429,-0.73,1.0
29.507,-0.731,-0.431,1.0
26.382,-0.649,-0.522,1.0
23.525,-0.574,-0.588,1.0
21.142,-0.512,-0.64,1.0
19.286,-0.463,-0.684,1.0
17.701,-0.422,-0.72,1.0
30.806,-0.728,-0.396,1.0
27.33,-0.641,-0.493,4.0
24.579,-0.572,-0.571,1.0
21.996,-0.507,-0.627,1.0
19.916,-0.455,-0.672,1.0
18.196,-0.413,-0.708,1.0
32.485,-0.73,-0.361,1.0
28.452,-0.634,-0.464,1.0
25.564,-0.565,-0.549,1.0
22.684,-0.496,-0.607,3.0
20.522,-0.445,-0.656,1.0
18.701,-0.402,-0.695,1.0
35.524,-0.756,-0.332,0.0
29.621,-0.625,-0.431,1.0
26.427,-0.552,-0.522,1.0
23.612,-0.488,-0.591,1.0
21.277,-0.436,-0.644,1.0
19.281,-0.391,-0.684,1.0
40.181,-0.806,-0.307,2.0
30.789,-0.611,-0.395,1.0
27.378,-0.537,-0.494,1.0
24.5,-0.476,-0.572,1.0
22.034,-0.423,-0.629,1.0
19.896,-0.378,-0.672,1.0
40.283,-0.757,-0.24,11.0
32.614,-0.606,-0.364,1.0
28.444,-0.522,-0.465,1.0
25.404,-0.461,-0.551,1.0
22.819,-0.409,-0.613,1.0
20.508,-0.363,-0.658,1.0
40.318,-0.706,-0.173,45.0
34.379,-0.594,-0.326,0.0
29.545,-0.504,-0.434,1.0
26.334,-0.444,-0.527,1.0
23.554,-0.391,-0.594,2.0
21.234,-0.348,-0.646,1.0
51.584,-0.836,-0.136,1.0
40.128,-0.641,-0.315,2.0
30.512,-0.48,-0.399,1.0
27.241,-0.422,-0.5,1.0
24.381,-0.372,-0.575,2.0
21.942,-0.33,-0.632,1.0
0.0,0.0,0.0,0.0
0.0,0.0,0.0,0.0
32.311,-0.464,-0.369,1.0
28.278,-0.4,-0.474,1.0
25.317,-0.352,-0.556,1.0
22.741,-0.311,-0.618,2.0
60.78,-0.817,0.037,7.0
45.891,-0.606,-0.211,1.0
33.732,-0.437,-0.331,1.0
29.342,-0.373,-0.444,2.0
26.207,-0.327,-0.533,1.0
23.417,-0.286,-0.599,2.0
79.261,-0.951,0.177,5.0
54.504,-0.641,-0.163,1.0
37.524,-0.432,-0.308,1.0
30.208,-0.34,-0.409,2.0
27.103,-0.299,-0.509,1.0
24.169,-0.261,-0.58,1.0
0.0,0.0,0.0,0.0
50.812,-0.523,-0.072,5.0
38.548,-0.388,-0.256,3.0
31.506,-0.309,-0.378,1.0
28.155,-0.269,-0.485,4.0
25.046,-0.233,-0.562,1.0
77.251,-0.701,0.414,11.0
51.313,-0.452,0.006,4.0
47.354,-0.405,-0.242,2.0
33.356,-0.277,-0.348,1.0
29.097,-0.234,-0.456,2.0
26.06,-0.203,-0.545,2.0
0.0,0.0,0.0,0.0
53.302,-0.389,0.087,11.0
45.094,-0.317,-0.162,4.0
39.538,-0.268,-0.353,0.0
29.909,-0.195,-0.424,1.0
26.765,-0.168,-0.52,2.0
79.479,-0.478,0.666,151.0
61.263,-0.352,0.192,14.0
46.215,-0.254,-0.097,9.0
39.513,-0.207,-0.294,2.0
30.895,-0.153,-0.392,1.0
27.641,-0.13,-0.496,2.0
79.447,-0.354,0.783,151.0
76.458,-0.32,0.352,8.0
0.0,0.0,0.0,0.0
39.225,-0.143,-0.235,7.0
32.527,-0.11,-0.366,1.0
28.638,-0.089,-0.472,2.0
79.471,-0.226,0.9,151.0
76.492,-0.197,0.463,16.0
0.0,0.0,0.0,0.0
40.038,-0.081,-0.182,16.0
33.959,-0.06,-0.333,0.0
29.482,-0.044,-0.444,2.0
79.462,-0.097,1.012,151.0
79.297,-0.076,0.592,33.0
55.606,-0.038,0.122,29.0
41.065,-0.017,-0.13,17.0
38.271,-0.005,-0.323,3.0
30.244,0.003,-0.414,1.0
79.465,0.03,1.121,151.0
79.446,0.052,0.702,150.0
61.555,0.058,0.219,8.0
44.327,0.053,-0.08,19.0
38.373,0.057,-0.271,9.0
31.451,0.055,-0.388,1.0
79.466,0.163,1.23,155.0
