X,Y,Z,Reflectivity
158.542,6.174,4.4,8.0
0.0,0.0,0.0,0.0
0.0,0.0,0.0,0.0
78.192,2.977,0.833,14.0
58.822,2.224,0.294,13.0
42.048,1.577,-0.027,18.0
160.613,5.962,4.294,3.0
0.0,0.0,0.0,0.0
100.989,3.689,1.556,1.0
77.948,2.826,0.753,58.0
54.758,1.969,0.219,28.0
41.144,1.467,-0.067,17.0
0.0,0.0,0.0,0.0
0.0,0.0,0.0,0.0
100.787,3.495,1.454,3.0
77.673,2.67,0.673,18.0
54.421,1.854,0.164,27.0
39.781,1.343,-0.104,40.0
0.0,0.0,0.0,0.0
0.0,0.0,0.0,0.0
95.562,3.133,1.287,4.0
74.313,2.414,0.574,16.0
48.78,1.57,0.101,22.0
39.559,1.262,-0.14,42.0
0.0,0.0,0.0,0.0
0.0,0.0,0.0,0.0
95.475,2.951,1.199,2.0
74.164,2.27,0.506,9.0
48.087,1.458,0.057,22.0
0.0,0.0,0.0,0.0
0.0,0.0,0.0,0.0
0.0,0.0,0.0,0.0
89.437,2.595,1.045,2.0
60.437,1.734,0.359,35.0
47.12,1.338,0.015,22.0
36.897,1.037,-0.195,31.0
0.0,0.0,0.0,0.0
0.0,0.0,0.0,0.0
78.364,2.123,0.849,11.0
0.0,0.0,0.0,0.0
0.0,0.0,0.0,0.0
36.857,0.964,-0.226,20.0
100.33,2.585,2.135,17.0
100.346,2.554,1.571,43.0
78.164,1.965,0.784,23.0
58.518,1.452,0.251,32.0
44.948,1.102,-0.059,3.0
36.697,0.888,-0.255,12.0
0.0,0.0,0.0,0.0
106.259,2.494,1.579,6.0
77.908,1.803,0.719,38.0
0.0,0.0,0.0,0.0
39.624,0.892,-0.083,20.0
36.681,0.814,-0.283,7.0
106.217,2.316,2.095,11.0
0.0,0.0,0.0,0.0
77.794,1.646,0.66,18.0
52.127,1.086,0.144,8.0
39.291,0.805,-0.112,41.0
36.716,0.741,-0.31,5.0
128.009,2.535,2.431,9.0
120.998,2.356,1.618,8.0
74.996,1.435,0.582,12.0
48.029,0.903,0.098,17.0
38.724,0.716,-0.137,42.0
36.791,0.668,-0.337,2.0
127.983,2.275,2.342,26.0
121.063,2.114,1.536,15.0
74.899,1.282,0.53,12.0
47.774,0.802,0.065,34.0
38.211,0.629,-0.161,46.0
33.105,0.534,-0.325,1.0
127.812,2.015,2.255,24.0
121.139,1.87,1.458,11.0
62.19,0.939,0.4,10.0
47.308,0.699,0.035,40.0
37.979,0.549,-0.184,43.0
32.567,0.459,-0.34,1.0
127.494,1.753,2.171,27.0
121.286,1.626,1.386,6.0
48.07,0.628,0.28,72.0
0.0,0.0,0.0,0.0
37.844,0.469,-0.206,31.0
31.921,0.385,-0.352,1.0
48.138,0.562,0.791,77.0
48.098,0.546,0.521,100.0
48.037,0.528,0.252,94.0
0.0,0.0,0.0,0.0
37.789,0.389,-0.227,13.0
31.424,0.313,-0.365,2.0
48.094,0.461,0.763,114.0
48.065,0.444,0.494,109.0
48.032,0.428,0.226,101.0
0.0,0.0,0.0,0.0
37.738,0.31,-0.247,10.0
30.945,0.243,-0.375,2.0
48.101,0.361,0.738,102.0
48.118,0.345,0.47,52.0
48.16,0.329,0.202,58.0
44.152,0.286,-0.065,18.0
37.785,0.232,-0.266,5.0
30.507,0.177,-0.385,1.0
59.3,0.323,0.882,97.0
59.301,0.302,0.551,119.0
54.985,0.26,0.205,35.0
43.859,0.192,-0.085,6.0
37.831,0.153,-0.284,21.0
30.228,0.111,-0.395,1.0
79.471,0.265,1.147,151.0
79.456,0.237,0.704,113.0
55.002,0.145,0.181,28.0
40.755,0.093,-0.096,17.0
38.104,0.073,-0.302,2.0
29.922,0.047,-0.404,2.0
79.464,0.097,1.114,151.0
79.387,0.07,0.672,47.0
0.0,0.0,0.0,0.0
40.731,0.007,-0.112,17.0
38.026,-0.007,-0.316,2.0
29.685,-0.015,-0.412,2.0
79.468,-0.069,1.085,151.0
79.296,-0.098,0.642,35.0
0.0,0.0,0.0,0.0
40.787,-0.079,-0.127,17.0
34.524,-0.079,-0.299,0.0
29.502,-0.078,-0.419,2.0
79.459,-0.238,1.058,151.0
79.246,-0.265,0.615,50.0
0.0,0.0,0.0,0.0
0.0,0.0,0.0,0.0
34.014,-0.15,-0.305,0.0
29.403,-0.14,-0.427,2.0
79.461,-0.405,1.035,157.0
0.0,0.0,0.0,0.0
56.063,-0.327,0.108,5.0
42.014,-0.26,-0.155,3.0
33.747,-0.221,-0.312,0.0
29.178,-0.202,-0.431,2.0
79.456,-0.576,1.014,178.0
77.295,-0.589,0.558,9.0
51.94,-0.414,0.087,0.0
47.359,-0.394,-0.187,3.0
33.628,-0.292,-0.319,1.0
29.039,-0.263,-0.436,3.0
79.453,-0.746,0.996,169.0
78.135,-0.761,0.547,24.0
57.774,-0.584,0.085,4.0
47.309,-0.495,-0.196,1.0
33.436,-0.362,-0.324,1.0
28.969,-0.325,-0.441,3.0
79.453,-0.916,0.981,151.0
78.774,-0.936,0.538,20.0
60.667,-0.743,0.078,5.0
43.952,-0.555,-0.19,1.0
33.161,-0.431,-0.326,1.0
28.821,-0.385,-0.443,2.0
148.031,-2.024,1.807,11.0
82.295,-1.156,0.55,1.0
58.205,-0.839,0.067,0.0
46.191,-0.683,-0.205,1.0
33.26,-0.504,-0.331,1.0
28.744,-0.446,-0.445,1.0
123.769,-1.961,1.497,4.0
40.285,-0.653,0.265,11.0
40.304,-0.668,0.042,53.0
40.279,-0.682,-0.183,32.0
33.417,-0.578,-0.336,1.0
28.639,-0.505,-0.446,1.0
40.265,-0.723,0.484,30.0
40.248,-0.738,0.262,56.0
40.299,-0.753,0.04,53.0
46.718,-0.89,-0.214,4.0
33.366,-0.648,-0.337,1.0
28.672,-0.568,-0.447,1.0
40.25,-0.808,0.482,43.0
0.0,0.0,0.0,0.0
0.0,0.0,0.0,0.0
0.0,0.0,0.0,0.0
33.193,-0.715,-0.335,1.0
28.673,-0.629,-0.447,1.0
40.315,-0.895,0.483,20.0
40.301,-0.909,0.262,140.0
40.298,-0.925,0.04,83.0
40.304,-0.939,-0.185,150.0
33.17,-0.785,-0.334,1.0
28.658,-0.689,-0.446,1.0
40.229,-0.979,0.484,55.0
40.256,-0.994,0.263,8.0
0.0,0.0,0.0,0.0
41.007,-1.043,-0.185,150.0
33.33,-0.86,-0.334,1.0
28.744,-0.752,-0.445,1.0
40.213,-1.064,0.487,50.0
40.178,-1.077,0.266,60.0
40.203,-1.093,0.046,66.0
40.363,-1.112,-0.179,34.0
33.367,-0.932,-0.331,1.0
28.799,-0.815,-0.443,1.0
0.0,0.0,0.0,0.0
93.02,-2.689,0.628,1.0
40.226,-1.177,0.051,10.0
40.244,-1.193,-0.173,14.0
33.888,-1.016,-0.331,1.0
28.897,-0.878,-0.44,1.0
40.34,-1.236,0.499,2.0
0.0,0.0,0.0,0.0
0.0,0.0,0.0,0.0
0.0,0.0,0.0,0.0
35.09,-1.127,-0.337,0.0
29.077,-0.944,-0.438,2.0
0.0,0.0,0.0,0.0
0.0,0.0,0.0,0.0
59.782,-2.0,0.098,0.0
45.573,-1.541,-0.178,0.0
34.528,-1.18,-0.324,0.0
29.34,-1.014,-0.435,2.0
0.0,0.0,0.0,0.0
0.0,0.0,0.0,0.0
0.0,0.0,0.0,0.0
49.725,-1.785,-0.182,2.0
35.713,-1.295,-0.326,0.0
29.44,-1.079,-0.429,1.0
0.0,0.0,0.0,0.0
0.0,0.0,0.0,0.0
0.0,0.0,0.0,0.0
40.132,-1.524,-0.136,157.0
37.72,-1.447,-0.333,7.0
29.715,-1.151,-0.425,2.0
0.0,0.0,0.0,0.0
0.0,0.0,0.0,0.0
0.0,0.0,0.0,0.0
37.812,-1.514,-0.116,155.0
37.729,-1.525,-0.321,22.0
29.971,-1.222,-0.418,2.0
139.373,-5.714,1.91,9.0
0.0,0.0,0.0,0.0
0.0,0.0,0.0,0.0
50.421,-2.122,-0.137,1.0
37.863,-1.607,-0.309,3.0
30.312,-1.298,-0.412,2.0
139.671,-6.009,1.966,71.0
0.0,0.0,0.0,0.0
0.0,0.0,0.0,0.0
50.438,-2.225,-0.117,3.0
37.896,-1.685,-0.294,2.0
30.558,-1.37,-0.403,1.0
0.0,0.0,0.0,0.0
0.0,0.0,0.0,0.0
0.0,0.0,0.0,0.0
50.44,-2.326,-0.096,2.0
0.0,0.0,0.0,0.0
30.922,-1.449,-0.394,1.0
0.0,0.0,0.0,0.0
0.0,0.0,0.0,0.0
0.0,0.0,0.0,0.0
50.505,-2.429,-0.073,6.0
40.89,-1.982,-0.28,0.0
31.721,-1.549,-0.39,1.0
0.0,0.0,0.0,0.0
0.0,0.0,0.0,0.0
0.0,0.0,0.0,0.0
50.496,-2.529,-0.048,2.0
40.448,-2.039,-0.257,0.0
32.073,-1.629,-0.378,1.0
0.0,0.0,0.0,0.0
0.0,0.0,0.0,0.0
0.0,0.0,0.0,0.0
59.434,-3.092,-0.025,2.0
41.689,-2.184,-0.243,0.0
32.657,-1.722,-0.367,1.0
0.0,0.0,0.0,0.0
0.0,0.0,0.0,0.0
0.0,0.0,0.0,0.0
59.352,-3.202,0.007,8.0
0.0,0.0,0.0,0.0
33.449,-1.829,-0.357,1.0
228.102,-12.509,3.888,155.0
0.0,0.0,0.0,0.0
0.0,0.0,0.0,0.0
58.527,-3.27,0.043,7.0
0.0,0.0,0.0,0.0
34.414,-1.947,-0.346,0.0
227.95,-12.932,4.025,26.0
0.0,0.0,0.0,0.0
0.0,0.0,0.0,0.0
62.836,-3.629,0.085,3.0
50.429,-2.93,-0.203,1.0
0.0,0.0,0.0,0.0
203.191,-11.905,3.717,5.0
0.0,0.0,0.0,0.0
0.0,0.0,0.0,0.0
62.818,-3.745,0.126,2.0
50.484,-3.027,-0.17,4.0
37.495,-2.262,-0.328,0.0
0.0,0.0,0.0,0.0
187.356,-11.391,2.545,150.0
0.0,0.0,0.0,0.0
0.0,0.0,0.0,0.0
50.463,-3.119,-0.135,3.0
37.656,-2.34,-0.303,0.0
0.0,0.0,0.0,0.0
187.227,-11.724,2.676,6.0
0.0,0.0,0.0,0.0
0.0,0.0,0.0,0.0
50.402,-3.206,-0.098,1.0
40.286,-2.576,-0.295,0.0
0.0,0.0,0.0,0.0
187.144,-12.054,2.814,57.0
126.224,-8.173,1.219,2.0
0.0,0.0,0.0,0.0
0.0,0.0,0.0,0.0
41.0,-2.696,-0.269,0.0
244.449,-16.104,5.18,15.0
187.212,-12.395,2.961,150.0
0.0,0.0,0.0,0.0
0.0,0.0,0.0,0.0
62.159,-4.176,-0.024,1.0
0.0,0.0,0.0,0.0
228.624,-15.462,5.029,60.0
187.071,-12.711,3.109,9.0
0.0,0.0,0.0,0.0
0.0,0.0,0.0,0.0
62.016,-4.274,0.026,4.0
0.0,0.0,0.0,0.0
212.898,-14.768,4.859,88.0
155.608,-10.841,2.716,3.0
151.984,-10.637,1.838,4.0
0.0,0.0,0.0,0.0
61.121,-4.316,0.077,5.0
50.407,-3.576,-0.206,1.0
204.966,-14.56,4.853,59.0
154.9,-11.051,2.836,6.0
149.746,-10.73,1.939,3.0
0.0,0.0,0.0,0.0
62.513,-4.518,0.133,0.0
50.395,-3.658,-0.162,1.0
231.479,-16.827,5.685,7.0
0.0,0.0,0.0,0.0
148.507,-10.886,2.055,7.0
0.0,0.0,0.0,0.0
0.0,0.0,0.0,0.0
50.422,-3.742,-0.116,1.0
197.013,-14.644,5.017,24.0
197.049,-14.707,3.963,11.0
148.45,-11.122,2.191,76.0
0.0,0.0,0.0,0.0
0.0,0.0,0.0,0.0
0.0,0.0,0.0,0.0
196.936,-14.955,5.201,34.0
284.887,-21.716,5.998,23.0
148.464,-11.359,2.332,40.0
0.0,0.0,0.0,0.0
0.0,0.0,0.0,0.0
0.0,0.0,0.0,0.0
212.73,-16.485,5.821,23.0
257.546,-20.033,5.67,28.0
129.13,-10.08,2.153,3.0
128.193,-10.044,1.44,2.0
0.0,0.0,0.0,0.0
0.0,0.0,0.0,0.0
204.938,-16.195,5.809,9.0
291.004,-23.08,6.695,21.0
0.0,0.0,0.0,0.0
0.0,0.0,0.0,0.0
87.194,-6.989,0.601,1.0
0.0,0.0,0.0,0.0
164.748,-13.266,4.836,15.0
201.99,-16.32,4.85,7.0
0.0,0.0,0.0,0.0
122.195,-9.938,1.617,80.0
0.0,0.0,0.0,0.0
0.0,0.0,0.0,0.0
157.389,-12.903,4.782,26.0
191.208,-15.727,4.789,9.0
201.739,-16.648,3.977,6.0
122.001,-10.1,1.742,76.0
0.0,0.0,0.0,0.0
0.0,0.0,0.0,0.0
157.537,-13.14,4.952,43.0
165.061,-13.81,4.307,100.0
165.068,-13.855,3.428,61.0
0.0,0.0,0.0,0.0
121.997,-10.303,1.221,2.0
0.0,0.0,0.0,0.0
157.378,-13.346,5.117,43.0
189.146,-16.088,5.14,27.0
190.105,-16.217,4.155,11.0
0.0,0.0,0.0,0.0
121.777,-10.451,1.352,162.0
92.059,-7.925,0.532,0.0
156.998,-13.53,5.277,29.0
157.371,-13.599,4.451,98.0
157.272,-13.629,3.611,96.0
0.0,0.0,0.0,0.0
121.526,-10.592,1.485,4.0
97.893,-8.557,0.676,5.0
149.665,-13.096,5.2,29.0
188.527,-16.539,5.546,29.0
188.704,-16.6,4.545,37.0
0.0,0.0,0.0,0.0
109.695,-9.702,1.464,6.0
0.0,0.0,0.0,0.0
164.075,-14.566,5.884,40.0
149.569,-13.312,4.568,56.0
188.49,-16.82,4.755,46.0
188.149,-16.834,3.727,14.0
108.883,-9.768,1.577,19.0
108.741,-9.78,0.999,18.0
164.049,-14.77,6.075,28.0
188.571,-17.02,5.98,44.0
188.272,-17.035,4.968,46.0
188.415,-17.089,3.953,36.0
108.685,-9.882,1.702,16.0
108.599,-9.9,1.124,152.0
148.601,-13.558,5.677,13.0
188.638,-17.252,6.204,36.0
149.425,-13.697,4.119,20.0
188.419,-17.311,4.173,47.0
108.7,-10.011,1.829,10.0
108.465,-10.014,1.25,80.0
148.43,-13.715,5.847,44.0
148.756,-13.776,5.068,41.0
149.447,-13.869,4.297,29.0
188.359,-17.52,4.395,47.0
108.769,-10.14,1.96,2.0
108.578,-10.145,1.381,5.0
157.407,-14.722,6.389,52.0
149.758,-14.035,5.281,51.0
148.848,-13.98,4.458,57.0
187.973,-17.692,4.615,56.0
108.82,-10.264,2.093,10.0
0.0,0.0,0.0,0.0
151.167,-14.302,6.319,13.0
188.678,-17.887,6.885,15.0
149.607,-14.212,4.665,52.0
149.392,-14.22,3.849,76.0
108.799,-10.377,2.227,10.0
0.0,0.0,0.0,0.0
123.069,-11.774,5.296,17.0
150.692,-14.442,5.685,29.0
149.628,-14.367,4.849,13.0
149.424,-14.376,4.035,39.0
149.484,-14.41,3.244,99.0
0.0,0.0,0.0,0.0
123.142,-11.904,5.452,25.0
148.081,-14.341,5.77,32.0
188.169,-18.254,6.334,30.0
188.031,-18.275,5.314,46.0
149.559,-14.562,3.432,25.0
97.601,-9.52,1.722,1.0
157.983,-15.424,7.193,9.0
209.761,-20.514,8.437,11.0
188.836,-18.497,6.592,35.0
187.972,-18.444,5.546,35.0
187.625,-18.442,4.542,52.0
0.0,0.0,0.0,0.0
106.701,-10.516,4.993,36.0
206.237,-20.357,8.556,7.0
188.824,-18.666,6.831,25.0
187.922,-18.607,5.783,31.0
187.788,-18.624,4.784,49.0
187.711,-18.647,3.786,10.0
106.738,-10.613,5.131,50.0
123.221,-12.27,5.269,24.0
148.255,-14.784,5.553,24.0
148.51,-14.831,4.759,32.0
188.153,-18.819,5.033,62.0
0.0,0.0,0.0,0.0
122.271,-12.26,6.036,25.0
123.192,-12.369,5.427,13.0
148.098,-14.89,5.739,26.0
148.395,-14.941,4.948,54.0
188.197,-18.975,5.277,51.0
188.044,-18.986,4.276,41.0
116.108,-11.735,5.881,41.0
106.74,-10.8,4.839,51.0
124.728,-12.636,4.993,26.0
148.408,-15.053,5.138,61.0
188.132,-19.108,5.515,53.0
188.054,-19.126,4.517,48.0
114.989,-11.707,5.972,19.0
108.168,-11.024,5.044,70.0
123.084,-12.559,5.086,19.0
148.433,-15.164,5.33,43.0
188.046,-19.233,5.758,45.0
157.454,-16.124,3.987,40.0
107.154,-10.985,5.707,46.0
107.215,-11.003,5.141,68.0
106.648,-10.956,4.546,61.0
148.404,-15.262,5.526,41.0
187.881,-19.343,6.0,21.0
157.488,-16.233,4.194,102.0
99.172,-10.233,5.412,34.0
107.19,-11.07,5.28,49.0
107.197,-11.082,4.711,95.0
122.946,-12.721,4.738,36.0
189.56,-19.634,6.299,22.0
188.108,-19.504,5.252,41.0
99.189,-10.295,5.542,8.0
108.411,-11.262,5.48,34.0
107.208,-11.146,4.849,37.0
122.866,-12.785,4.894,49.0
189.657,-19.753,6.547,26.0
187.944,-19.593,5.493,40.0
99.25,-10.359,5.675,11.0
108.684,-11.351,5.637,19.0
122.6,-12.814,5.707,35.0
107.065,-11.199,4.405,54.0
189.949,-19.886,6.809,16.0
188.077,-19.706,5.746,27.0
99.259,-10.412,5.809,43.0
99.162,-10.408,5.274,54.0
116.085,-12.192,5.557,20.0
107.927,-11.343,4.582,57.0
107.36,-11.292,3.987,41.0
188.484,-19.838,6.003,24.0
99.286,-10.463,5.939,25.0
99.146,-10.453,5.404,24.0
115.183,-12.151,5.664,41.0
107.976,-11.397,4.725,35.0
107.265,-11.329,4.125,37.0
189.231,-20.0,6.274,25.0
99.263,-10.504,6.069,16.0
104.616,-11.075,5.839,25.0
115.099,-12.19,5.812,17.0
107.997,-11.444,4.869,55.0
106.962,-11.34,4.254,38.0
107.411,-11.394,3.702,15.0
99.677,-10.587,6.227,23.0
104.639,-11.118,5.979,13.0
99.243,-10.548,5.142,20.0
108.06,-11.49,5.014,25.0
107.602,-11.446,4.421,78.0
107.351,-11.425,3.84,56.0
100.301,-10.688,6.397,21.0
118.253,-12.604,6.912,19.0
99.205,-10.577,5.27,47.0
108.174,-11.536,5.16,15.0
107.904,-11.511,4.573,53.0
107.367,-11.458,3.981,32.0
81.522,-8.712,5.306,10.0
100.255,-10.715,5.991,16.0
99.229,-10.607,5.4,11.0
105.209,-11.249,5.155,22.0
107.935,-11.543,4.715,56.0
123.92,-13.256,4.756,42.0
99.21,-10.627,6.586,9.0
86.444,-9.26,5.276,3.0
118.125,-12.655,6.582,15.0
105.18,-11.269,5.289,37.0
108.068,-11.581,4.859,39.0
107.145,-11.483,4.248,66.0
86.427,-9.276,5.85,6.0
98.067,-10.525,6.113,18.0
100.345,-10.769,5.72,17.0
99.284,-10.655,5.121,26.0
108.164,-11.609,5.002,43.0
107.787,-11.57,4.411,59.0
86.221,-9.268,5.946,11.0
98.039,-10.537,6.237,11.0
100.271,-10.776,5.844,38.0
99.192,-10.659,5.242,49.0
105.326,-11.318,5.006,20.0
107.903,-11.595,4.554,42.0
86.234,-9.28,6.057,9.0
81.401,-8.758,5.282,7.0
100.272,-10.786,5.971,15.0
99.279,-10.678,5.373,10.0
105.265,-11.32,5.134,41.0
107.966,-11.609,4.692,23.0
68.496,-7.376,4.898,3.0
107.085,-11.528,7.084,7.0
100.124,-10.775,6.088,5.0
118.096,-12.707,6.539,13.0
105.224,-11.32,5.264,25.0
108.08,-11.624,4.831,19.0
84.36,-9.087,6.138,6.0
99.131,-10.674,6.682,4.0
98.129,-10.562,6.089,8.0
100.298,-10.792,5.678,38.0
99.271,-10.678,5.09,28.0
108.134,-11.628,4.968,36.0
84.403,-9.09,6.247,5.0
86.273,-9.287,5.923,10.0
98.156,-10.562,6.212,10.0
100.306,-10.788,5.802,45.0
99.206,-10.666,5.208,50.0
108.18,-11.627,5.101,22.0
82.69,-8.901,6.221,12.0
86.205,-9.274,6.023,11.0
81.463,-8.759,5.255,9.0
100.271,-10.776,5.922,30.0
99.213,-10.657,5.329,19.0
105.273,-11.303,5.092,30.0
82.734,-8.897,6.325,4.0
68.47,-7.358,4.867,3.0
99.262,-10.661,6.522,10.0
100.258,-10.762,6.041,21.0
90.601,-9.719,4.975,5.0
105.204,-11.28,5.213,33.0
82.316,-8.84,6.392,10.0
68.472,-7.348,4.948,5.0
99.205,-10.639,6.637,7.0
0.0,0.0,0.0,0.0
118.193,-12.658,6.628,15.0
105.066,-11.245,5.33,28.0
68.713,-7.366,5.416,10.0
84.425,-9.043,6.201,5.0
86.255,-9.232,5.872,7.0
0.0,0.0,0.0,0.0
114.719,-12.26,6.567,4.0
99.254,-10.6,5.149,32.0
68.504,-7.328,5.48,5.0
82.58,-8.826,6.161,8.0
86.232,-9.207,5.971,13.0
100.333,-10.704,6.398,17.0
118.29,-12.61,6.907,16.0
99.209,-10.567,5.261,41.0
84.845,-9.052,6.885,21.0
82.902,-8.836,6.281,3.0
86.104,-9.168,6.06,6.0
81.436,-8.664,5.284,8.0
86.152,-9.157,5.128,11.0
99.241,-10.539,5.374,15.0
84.677,-9.007,6.968,14.0
77.853,-8.273,5.986,3.0
68.427,-7.264,4.892,6.0
97.899,-10.381,6.463,19.0
99.264,-10.515,6.019,14.0
104.623,-11.072,5.782,18.0
84.429,-8.951,7.041,12.0
69.105,-7.317,5.39,6.0
82.504,-8.726,5.989,6.0
98.037,-10.358,6.578,17.0
99.238,-10.473,6.125,33.0
99.282,-10.467,5.593,7.0
69.024,-7.29,5.831,4.0
68.923,-7.27,5.45,8.0
82.353,-8.676,6.067,11.0
100.476,-10.573,6.849,10.0
99.203,-10.427,6.228,11.0
99.254,-10.42,5.698,47.0
78.337,-8.239,6.702,5.0
68.847,-7.231,5.517,10.0
82.975,-8.703,6.201,4.0
97.823,-10.247,6.772,6.0
81.536,-8.531,5.204,8.0
99.295,-10.376,5.804,7.0
78.155,-8.181,6.769,4.0
68.897,-7.202,5.593,8.0
83.039,-8.668,6.292,2.0
86.162,-8.981,6.054,10.0
81.514,-8.486,5.286,6.0
86.204,-8.963,5.125,9.0
78.242,-8.149,6.856,3.0
68.922,-7.168,5.665,7.0
77.77,-8.076,5.971,2.0
82.584,-8.564,5.884,13.0
89.354,-9.253,5.883,1.0
86.225,-8.916,5.212,10.0
83.416,-8.641,7.393,3.0
68.721,-7.107,5.717,3.0
83.922,-8.666,6.526,11.0
82.498,-8.506,5.959,11.0
99.496,-10.243,6.649,4.0
99.259,-10.204,6.095,3.0
84.95,-8.748,7.612,2.0
68.864,-7.08,5.795,3.0
84.211,-8.644,6.629,3.0
68.372,-7.007,5.004,3.0
104.96,-10.738,7.114,2.0
99.363,-10.15,6.196,4.0
84.992,-8.697,7.696,8.0
69.208,-7.07,5.889,6.0
69.391,-7.076,5.527,1.0
84.502,-8.602,6.264,7.0
86.447,-8.786,5.939,4.0
99.386,-10.085,6.288,13.0
84.982,-8.638,7.773,10.0
69.258,-7.027,5.957,9.0
89.632,-9.078,7.221,4.0
84.514,-8.545,6.339,3.0
86.513,-8.731,6.02,3.0
81.649,-8.227,5.237,7.0
84.976,-8.577,7.848,18.0
83.833,-8.445,7.284,6.0
69.541,-6.992,5.663,3.0
96.959,-9.731,7.357,11.0
82.628,-8.278,5.819,6.0
81.531,-8.153,5.3,4.0
84.972,-8.512,7.921,15.0
68.657,-6.864,6.024,6.0
96.91,-9.669,7.974,3.0
68.426,-6.814,5.25,2.0
82.451,-8.196,5.875,6.0
84.079,-8.342,5.534,18.0
76.84,-7.637,7.226,4.0
84.823,-8.413,7.511,22.0
69.709,-6.899,5.792,1.0
68.395,-6.756,5.302,2.0
99.766,-9.834,7.19,14.0
84.029,-8.267,5.597,3.0
80.94,-7.977,7.676,4.0
83.615,-8.223,7.471,4.0
69.726,-6.842,5.848,1.0
68.427,-6.7,5.358,2.0
84.477,-8.256,6.152,3.0
84.49,-8.24,5.692,1.0
80.992,-7.913,7.742,4.0
90.114,-8.784,8.12,4.0
96.863,-9.421,8.196,5.0
83.959,-8.148,6.635,1.0
84.625,-8.196,6.225,6.0
98.925,-9.561,6.736,17.0
80.939,-7.835,7.796,5.0
109.835,-10.608,9.975,7.0
96.871,-9.335,8.265,3.0
100.942,-9.706,8.048,7.0
84.654,-8.121,6.286,10.0
98.521,-9.43,6.777,15.0
81.021,-7.768,7.861,4.0
83.688,-8.005,7.658,9.0
85.568,-8.165,7.359,3.0
96.019,-9.141,7.721,5.0
84.68,-8.043,6.345,10.0
98.731,-9.357,6.856,27.0
80.924,-7.682,7.904,3.0
84.097,-7.963,7.751,19.0
98.619,-9.316,8.545,4.0
95.998,-9.047,7.779,9.0
99.798,-9.382,7.54,10.0
98.438,-9.233,6.897,9.0
83.595,-7.853,8.218,4.0
83.102,-7.787,7.71,3.0
98.011,-9.16,8.553,12.0
97.606,-9.1,7.969,5.0
98.832,-9.192,7.526,11.0
98.26,-9.117,6.942,14.0
83.715,-7.779,8.279,4.0
97.916,-9.075,9.141,11.0
96.465,-8.917,8.473,4.0
84.463,-7.787,6.944,4.0
84.594,-7.779,6.489,11.0
98.246,-9.013,6.995,8.0
97.964,-9.001,9.742,6.0
98.573,-9.033,9.256,3.0
96.485,-8.817,8.527,9.0
96.948,-8.836,8.022,8.0
84.757,-7.704,6.546,12.0
98.062,-8.891,7.033,11.0
98.716,-8.963,9.869,14.0
98.665,-8.934,9.316,11.0
84.509,-7.63,7.511,9.0
96.976,-8.732,8.073,10.0
84.837,-7.619,6.594,9.0
97.892,-8.768,7.068,3.0
98.606,-8.844,9.905,6.0
83.322,-7.451,7.907,6.0
84.479,-7.534,7.548,11.0
105.442,-9.378,8.825,6.0
84.96,-7.535,6.641,8.0
96.96,-8.575,7.044,9.0
84.827,-7.512,8.558,4.0
99.695,-8.802,9.504,12.0
84.47,-7.437,7.583,10.0
115.88,-10.174,9.747,13.0
108.135,-9.467,8.497,16.0
86.414,-7.544,6.312,8.0
84.778,-7.41,8.588,11.0
99.501,-8.671,9.525,6.0
96.567,-8.39,8.706,5.0
108.158,-9.37,9.139,9.0
105.898,-9.146,8.361,16.0
97.294,-8.379,7.143,8.0
98.479,-8.492,10.011,6.0
105.672,-9.083,10.154,21.0
105.843,-9.071,9.58,5.0
106.619,-9.109,9.046,20.0
84.459,-7.194,6.697,7.0
85.118,-7.229,6.276,17.0
105.58,-8.977,10.768,5.0
99.24,-8.411,9.566,2.0
106.62,-9.008,9.683,12.0
106.441,-8.965,9.062,1.0
96.892,-8.136,7.71,5.0
97.953,-8.2,7.251,8.0
108.146,-9.062,11.06,4.0
106.67,-8.91,10.312,4.0
106.174,-8.839,9.671,7.0
105.439,-8.75,9.005,8.0
96.839,-8.011,7.731,2.0
97.916,-8.075,7.273,5.0
0.0,0.0,0.0,0.0
99.804,-8.211,9.672,2.0
105.425,-8.645,9.627,5.0
108.274,-8.85,9.271,6.0
107.907,-8.792,8.637,16.0
108.019,-8.773,8.045,5.0
0.0,0.0,0.0,0.0
0.0,0.0,0.0,0.0
107.637,-8.69,9.85,6.0
107.873,-8.68,9.256,14.0
98.576,-7.905,7.908,6.0
100.519,-8.034,7.504,4.0
0.0,0.0,0.0,0.0
0.0,0.0,0.0,0.0
0.0,0.0,0.0,0.0
107.092,-8.477,9.204,7.0
108.587,-8.566,8.726,7.0
114.591,-9.009,8.568,2.0
0.0,0.0,0.0,0.0
0.0,0.0,0.0,0.0
0.0,0.0,0.0,0.0
105.959,-8.247,9.117,5.0
108.067,-8.382,8.693,2.0
108.109,-8.355,8.093,1.0
0.0,0.0,0.0,0.0
0.0,0.0,0.0,0.0
107.228,-8.232,9.846,2.0
0.0,0.0,0.0,0.0
108.241,-8.25,8.713,4.0
108.181,-8.216,8.102,3.0
0.0,0.0,0.0,0.0
0.0,0.0,0.0,0.0
0.0,0.0,0.0,0.0
108.512,-8.154,9.345,9.0
148.244,-11.099,11.934,3.0
108.784,-8.114,8.148,6.0
0.0,0.0,0.0,0.0
0.0,0.0,0.0,0.0
0.0,0.0,0.0,0.0
108.294,-7.989,9.323,1.0
108.979,-8.01,8.769,2.0
108.943,-7.979,8.155,2.0
0.0,0.0,0.0,0.0
0.0,0.0,0.0,0.0
0.0,0.0,0.0,0.0
0.0,0.0,0.0,0.0
108.839,-7.851,8.749,8.0
209.278,-15.038,15.648,5.0
0.0,0.0,0.0,0.0
0.0,0.0,0.0,0.0
0.0,0.0,0.0,0.0
0.0,0.0,0.0,0.0
0.0,0.0,0.0,0.0
109.051,-7.684,8.14,6.0
0.0,0.0,0.0,0.0
0.0,0.0,0.0,0.0
0.0,0.0,0.0,0.0
0.0,0.0,0.0,0.0
0.0,0.0,0.0,0.0
109.051,-7.531,8.121,4.0
0.0,0.0,0.0,0.0
0.0,0.0,0.0,0.0
0.0,0.0,0.0,0.0
0.0,0.0,0.0,0.0
0.0,0.0,0.0,0.0
0.0,0.0,0.0,0.0
0.0,0.0,0.0,0.0
0.0,0.0,0.0,0.0
0.0,0.0,0.0,0.0
0.0,0.0,0.0,0.0
0.0,0.0,0.0,0.0
0.0,0.0,0.0,0.0
0.0,0.0,0.0,0.0
0.0,0.0,0.0,0.0
0.0,0.0,0.0,0.0
0.0,0.0,0.0,0.0
0.0,0.0,0.0,0.0
0.0,0.0,0.0,0.0
0.0,0.0,0.0,0.0
0.0,0.0,0.0,0.0
0.0,0.0,0.0,0.0
0.0,0.0,0.0,0.0
0.0,0.0,0.0,0.0
0.0,0.0,0.0,0.0
0.0,0.0,0.0,0.0
0.0,0.0,0.0,0.0
0.0,0.0,0.0,0.0
0.0,0.0,0.0,0.0
0.0,0.0,0.0,0.0
0.0,0.0,0.0,0.0
0.0,0.0,0.0,0.0
0.0,0.0,0.0,0.0
0.0,0.0,0.0,0.0
0.0,0.0,0.0,0.0
0.0,0.0,0.0,0.0
0.0,0.0,0.0,0.0
0.0,0.0,0.0,0.0
0.0,0.0,0.0,0.0
0.0,0.0,0.0,0.0
0.0,0.0,0.0,0.0
0.0,0.0,0.0,0.0
0.0,0.0,0.0,0.0
0.0,0.0,0.0,0.0
0.0,0.0,0.0,0.0
0.0,0.0,0.0,0.0
0.0,0.0,0.0,0.0
0.0,0.0,0.0,0.0
0.0,0.0,0.0,0.0
0.0,0.0,0.0,0.0
0.0,0.0,0.0,0.0
0.0,0.0,0.0,0.0
0.0,0.0,0.0,0.0
93.082,-5.243,7.136,2.0
92.883,-5.207,6.592,1.0
0.0,0.0,0.0,0.0
90.88,-5.06,8.479,1.0
0.0,0.0,0.0,0.0
0.0,0.0,0.0,0.0
91.646,-5.028,6.97,3.0
92.879,-5.071,6.535,5.0
56.587,-3.083,5.569,3.0
90.544,-4.909,8.391,1.0
92.54,-4.991,8.046,1.0
0.0,0.0,0.0,0.0
93.009,-4.966,7.014,5.0
92.928,-4.938,6.477,4.0
56.632,-3.002,5.536,5.0
90.68,-4.783,8.343,5.0
92.4,-4.848,7.971,4.0
91.862,-4.794,7.39,1.0
93.042,-4.832,6.953,3.0
92.96,-4.804,6.416,5.0
0.0,0.0,0.0,0.0
90.697,-4.651,8.28,4.0
92.122,-4.699,7.881,13.0
83.663,-4.245,6.67,2.0
83.061,-4.192,6.146,3.0
92.99,-4.668,6.349,4.0
63.641,-3.186,6.128,3.0
90.839,-4.523,8.224,4.0
91.944,-4.553,7.795,7.0
83.593,-4.117,6.599,3.0
83.113,-4.072,6.085,5.0
92.935,-4.53,6.272,3.0
92.665,-4.503,8.849,11.0
90.534,-4.376,8.124,9.0
91.915,-4.419,7.719,4.0
91.03,-4.352,7.113,2.0
93.064,-4.425,6.738,4.0
93.049,-4.4,6.203,3.0
83.252,-3.924,7.881,12.0
56.739,-2.66,5.043,2.0
91.027,-4.243,7.567,7.0
88.963,-4.124,6.876,1.0
93.071,-4.29,6.659,22.0
92.977,-4.262,6.119,3.0
91.206,-4.167,8.553,4.0
83.264,-3.783,7.328,12.0
90.286,-4.079,7.426,10.0
92.864,-4.172,7.095,2.0
83.174,-3.716,5.876,4.0
93.008,-4.132,6.037,3.0
90.961,-4.026,8.447,8.0
91.085,-4.008,7.932,3.0
83.778,-3.665,6.814,7.0
89.022,-3.871,6.718,1.0
91.169,-3.943,6.356,6.0
92.81,-3.99,5.937,3.0
82.832,-3.546,7.612,7.0
84.257,-3.585,7.256,6.0
83.658,-3.539,6.721,12.0
96.422,-4.056,7.181,4.0
91.384,-3.821,6.281,9.0
94.357,-3.923,5.943,3.0
54.884,-2.271,4.988,1.0
84.252,-3.465,7.171,6.0
83.444,-3.411,6.62,19.0
92.488,-3.758,6.794,6.0
93.291,-3.768,6.317,2.0
92.819,-3.727,5.751,10.0
90.935,-3.634,8.17,25.0
83.079,-3.299,6.983,10.0
83.392,-3.291,6.528,14.0
90.874,-3.565,6.58,7.0
90.234,-3.518,6.014,6.0
97.387,-3.774,5.93,1.0
40.777,-1.572,3.619,6.0
91.33,-3.499,7.577,13.0
83.419,-3.175,6.438,14.0
93.061,-3.52,6.636,14.0
93.09,-3.5,6.101,8.0
175.458,-6.554,10.49,20.0
56.885,-2.114,4.985,5.0
82.947,-3.063,6.788,9.0
83.367,-3.058,6.34,9.0
83.201,-3.033,5.838,13.0
93.145,-3.374,5.999,9.0
174.696,-6.287,10.245,33.0
63.467,-2.271,5.488,5.0
82.529,-2.933,6.658,13.0
91.769,-3.24,6.871,14.0
83.063,-2.914,5.731,14.0
93.214,-3.248,5.893,4.0
175.413,-6.074,10.077,16.0
41.043,-1.412,3.499,21.0
82.904,-2.833,6.588,9.0
92.534,-3.141,6.816,54.0
83.108,-2.801,5.633,17.0
93.202,-3.121,5.778,12.0
175.461,-5.838,9.866,3.0
83.37,-2.755,7.005,4.0
83.113,-2.727,6.5,15.0
83.229,-2.712,6.026,13.0
83.223,-2.694,5.535,24.0
93.217,-2.996,5.662,13.0
90.505,-2.889,4.974,22.0
92.64,-2.938,7.664,4.0
83.395,-2.625,6.415,12.0
90.519,-2.83,6.438,11.0
83.299,-2.586,5.433,53.0
93.149,-2.872,5.538,54.0
90.47,-2.77,4.855,14.0
83.403,-2.535,6.792,20.0
90.731,-2.737,6.86,12.0
83.549,-2.503,5.832,15.0
83.481,-2.483,5.336,54.0
90.576,-2.674,5.264,65.0
129.212,-3.789,6.763,25.0
41.176,-1.198,3.296,16.0
41.279,-1.192,3.065,32.0
90.642,-2.598,6.204,29.0
98.768,-2.809,6.177,42.0
90.38,-2.552,5.129,32.0
93.077,-2.609,4.743,18.0
41.354,-1.15,3.253,22.0
97.351,-2.686,7.094,2.0
129.093,-3.535,8.656,22.0
92.322,-2.508,5.644,34.0
128.746,-3.472,7.125,28.0
93.054,-2.49,4.611,33.0
41.217,-1.093,3.183,52.0
97.362,-2.563,6.954,28.0
128.953,-3.369,8.461,29.0
92.253,-2.391,5.507,47.0
99.013,-2.546,5.337,38.0
93.088,-2.374,4.477,19.0
41.25,-1.042,3.126,39.0
91.71,-2.3,6.416,52.0
130.152,-3.238,8.347,25.0
92.228,-2.275,5.37,29.0
99.041,-2.424,5.191,58.0
129.028,-3.133,6.015,33.0
41.202,-0.99,3.06,13.0
84.988,-2.026,5.816,5.0
91.569,-2.165,5.734,16.0
92.028,-2.158,5.218,42.0
92.125,-2.142,4.688,53.0
129.49,-2.986,5.838,30.0
91.306,-2.084,6.64,26.0
84.238,-1.907,5.635,54.0
91.47,-2.053,5.586,68.0
91.416,-2.035,5.043,16.0
92.154,-2.034,4.547,30.0
128.855,-2.82,5.611,27.0
85.934,-1.86,6.115,27.0
84.961,-1.823,5.55,14.0
101.451,-2.157,6.036,21.0
91.399,-1.927,4.897,69.0
90.641,-1.895,4.33,43.0
184.054,-3.814,7.723,31.0
85.929,-1.761,5.977,52.0
85.144,-1.729,5.425,43.0
101.381,-2.04,5.87,41.0
91.347,-1.821,4.747,32.0
92.95,-1.837,4.291,38.0
184.064,-3.605,7.428,12.0
85.918,-1.662,5.836,3.0
85.16,-1.632,5.287,22.0
101.263,-1.922,5.695,34.0
91.282,-1.716,4.594,59.0
93.005,-1.733,4.139,32.0
185.337,-3.423,7.172,27.0
126.383,-2.304,8.374,29.0
125.907,-2.273,7.606,33.0
83.84,-1.499,4.575,44.0
90.825,-1.608,4.418,51.0
128.405,-2.251,5.497,23.0
185.885,-3.228,6.88,21.0
94.295,-1.616,6.087,11.0
84.06,-1.426,4.934,27.0
90.835,-1.526,4.803,46.0
91.318,-1.518,4.286,80.0
128.136,-2.11,5.269,22.0
184.731,-3.012,6.52,23.0
85.566,-1.376,5.376,9.0
84.034,-1.337,4.789,22.0
90.862,-1.432,4.648,9.0
91.355,-1.424,4.131,21.0
128.186,-1.979,5.051,34.0
151.417,-2.314,5.087,63.0
85.386,-1.285,5.216,15.0
89.868,-1.338,4.964,16.0
79.217,-1.167,3.913,150.0
91.063,-1.327,3.959,57.0
99.533,-1.435,3.746,36.0
86.948,-1.241,2.766,40.0
85.445,-1.2,5.066,39.0
83.875,-1.165,4.484,47.0
79.2,-1.088,3.771,165.0
91.059,-1.238,3.796,66.0
79.541,-1.069,2.852,0.0
109.594,-1.457,3.292,2.0
85.461,-1.117,4.914,45.0
83.892,-1.084,4.333,66.0
85.838,-1.097,3.933,15.0
79.398,-1.003,3.166,106.0
79.395,-0.991,2.703,150.0
79.403,-0.98,2.241,150.0
83.573,-1.014,4.653,43.0
83.789,-1.004,4.174,27.0
85.885,-1.017,3.776,150.0
79.426,-0.929,3.021,151.0
79.425,-0.917,2.557,151.0
79.441,-0.907,2.094,152.0
83.687,-0.938,4.502,49.0
79.247,-0.877,3.8,169.0
89.52,-0.978,3.769,21.0
79.435,-0.857,2.872,151.0
79.425,-0.846,2.409,151.0
79.437,-0.836,1.946,157.0
98.389,-1.015,5.107,24.0
81.514,-0.83,3.755,151.0
79.422,-0.798,3.195,158.0
79.428,-0.788,2.723,151.0
79.43,-0.778,2.26,151.0
79.427,-0.768,1.797,175.0
123.885,-1.173,6.197,32.0
85.93,-0.803,3.796,150.0
79.419,-0.732,3.044,215.0
79.413,-0.722,2.572,150.0
79.436,-0.712,2.11,151.0
79.442,-0.702,1.646,163.0
79.234,-0.686,3.812,152.0
79.313,-0.677,3.353,3.0
79.42,-0.668,2.893,150.0
79.422,-0.658,2.42,150.0
79.429,-0.649,1.957,167.0
79.448,-0.64,1.494,162.0
0.0,0.0,0.0,0.0
79.407,-0.615,3.202,150.0
79.417,-0.606,2.738,150.0
79.436,-0.597,2.267,151.0
79.426,-0.588,1.802,201.0
79.45,-0.578,1.339,160.0
59.497,-0.422,2.63,99.0
79.424,-0.555,3.046,151.0
79.41,-0.546,2.58,150.0
79.423,-0.537,2.108,162.0
79.435,-0.528,1.645,190.0
79.461,-0.52,1.182,157.0
59.479,-0.379,2.51,94.0
79.432,-0.498,2.889,150.0
79.434,-0.489,2.424,151.0
79.424,-0.481,1.95,176.0
79.431,-0.472,1.486,184.0
79.454,-0.464,1.022,154.0
79.398,-0.451,3.192,41.0
79.422,-0.443,2.728,150.0
79.423,-0.435,2.263,165.0
79.43,-0.427,1.79,182.0
79.445,-0.419,1.326,166.0
79.464,-0.411,0.863,159.0
79.427,-0.399,3.033,150.0
79.414,-0.391,2.567,150.0
79.439,-0.384,2.103,151.0
79.385,-0.376,1.629,255.0
79.451,-0.369,1.166,151.0
79.442,-0.361,0.702,150.0
79.423,-0.35,2.871,150.0
79.418,-0.342,2.406,150.0
79.437,-0.335,1.941,155.0
79.43,-0.328,1.468,255.0
79.458,-0.321,1.004,151.0
76.69,-0.303,0.521,16.0
79.421,-0.303,2.707,150.0
79.431,-0.296,2.243,151.0
79.435,-0.289,1.776,158.0
79.444,-0.282,1.304,154.0
79.46,-0.276,0.841,151.0
61.46,-0.208,0.291,10.0
79.426,-0.259,2.543,150.0
79.442,-0.252,2.079,151.0
79.438,-0.246,1.614,180.0
79.458,-0.24,1.142,151.0
79.401,-0.233,0.677,150.0
0.0,0.0,0.0,0.0
79.434,-0.218,2.379,150.0
79.447,-0.212,1.915,151.0
79.449,-0.206,1.45,172.0
79.46,-0.2,0.976,151.0
76.412,-0.187,0.492,14.0
47.643,-0.113,0.028,16.0
79.43,-0.18,2.213,150.0
79.451,-0.174,1.748,152.0
79.449,-0.169,1.283,157.0
79.455,-0.163,0.81,151.0
61.671,-0.122,0.268,14.0
0.0,0.0,0.0,0.0
79.446,-0.144,2.045,151.0
79.443,-0.139,1.58,171.0
79.45,-0.134,1.115,157.0
79.281,-0.129,0.642,41.0
0.0,0.0,0.0,0.0
40.08,-0.06,-0.144,25.0
79.445,-0.112,1.878,151.0
79.442,-0.107,1.414,170.0
79.46,-0.103,0.949,158.0
76.133,-0.094,0.456,16.0
45.953,-0.054,0.006,14.0
38.991,-0.043,-0.222,14.0
79.454,-0.083,1.711,151.0
79.456,-0.078,1.247,156.0
79.459,-0.074,0.782,150.0
61.528,-0.054,0.238,10.0
0.0,0.0,0.0,0.0
38.28,-0.029,-0.299,3.0
79.451,-0.056,1.543,161.0
79.461,-0.052,1.077,155.0
79.224,-0.048,0.611,13.0
0.0,0.0,0.0,0.0
39.591,-0.02,-0.162,34.0
33.131,-0.015,-0.33,1.0
79.455,-0.032,1.374,157.0
79.462,-0.029,0.908,187.0
75.978,-0.024,0.424,11.0
0.0,0.0,0.0,0.0
38.611,-0.009,-0.24,11.0
30.892,-0.006,-0.372,1.0
79.456,-0.012,1.206,151.0
79.429,-0.009,0.741,150.0
55.857,-0.004,0.193,19.0
40.818,-0.001,-0.101,17.0
38.124,0.0,-0.318,0.0
29.529,0.0,-0.419,2.0
79.466,0.005,1.035,151.0
76.412,0.007,0.548,21.0
47.855,0.006,0.064,14.0
39.204,0.006,-0.181,23.0
32.549,0.006,-0.341,1.0
28.204,0.006,-0.46,1.0
79.46,0.019,0.866,151.0
61.911,0.017,0.312,7.0
0.0,0.0,0.0,0.0
38.307,0.012,-0.259,6.0
30.42,0.011,-0.384,1.0
26.844,0.01,-0.496,2.0
79.401,0.031,0.696,76.0
54.536,0.023,0.158,24.0
40.393,0.017,-0.118,16.0
33.57,0.015,-0.298,0.0
29.168,0.014,-0.43,2.0
25.762,0.013,-0.531,1.0
76.035,0.038,0.504,18.0
0.0,0.0,0.0,0.0
38.951,0.021,-0.198,14.0
31.789,0.017,-0.35,1.0
27.706,0.016,-0.468,1.0
24.412,0.014,-0.555,2.0
0.0,0.0,0.0,0.0
0.0,0.0,0.0,0.0
38.207,0.023,-0.275,4.0
29.978,0.018,-0.395,1.0
26.6,0.016,-0.506,2.0
23.402,0.015,-0.582,2.0
0.0,0.0,0.0,0.0
39.664,0.024,-0.138,38.0
33.298,0.021,-0.312,1.0
28.766,0.018,-0.44,2.0
25.367,0.016,-0.537,1.0
22.557,0.014,-0.61,4.0
0.0,0.0,0.0,0.0
38.651,0.024,-0.218,14.0
31.229,0.019,-0.359,1.0
27.233,0.016,-0.475,2.0
24.073,0.015,-0.561,2.0
21.59,0.013,-0.63,4.0
43.89,0.025,-0.085,3.0
37.938,0.021,-0.296,2.0
29.695,0.016,-0.405,2.0
26.255,0.014,-0.515,1.0
23.156,0.013,-0.589,4.0
20.72,0.011,-0.649,2.0
39.298,0.019,-0.16,35.0
32.84,0.016,-0.326,1.0
28.442,0.013,-0.449,1.0
24.923,0.011,-0.541,1.0
22.266,0.01,-0.614,4.0
19.862,0.009,-0.664,2.0
38.4,0.014,-0.238,7.0
30.625,0.011,-0.369,1.0
26.976,0.009,-0.483,2.0
23.708,0.008,-0.566,2.0
21.357,0.007,-0.635,3.0
19.022,0.005,-0.677,3.0
34.555,0.008,-0.288,0.0
29.364,0.006,-0.417,2.0
25.938,0.005,-0.52,1.0
22.914,0.004,-0.595,4.0
20.494,0.003,-0.653,2.0
18.437,0.002,-0.695,2.0
32.118,0.001,-0.336,1.0
28.004,0.0,-0.457,2.0
24.603,0.0,-0.545,1.0
22.025,0.0,-0.619,2.0
19.585,-0.001,-0.665,3.0
17.779,-0.001,-0.708,1.0
30.223,-0.005,-0.379,1.0
26.708,-0.005,-0.492,2.0
23.556,-0.005,-0.572,2.0
21.06,-0.005,-0.636,2.0
18.856,-0.005,-0.68,3.0
17.219,-0.005,-0.722,1.0
29.034,-0.012,-0.425,2.0
25.617,-0.012,-0.525,1.0
22.765,-0.011,-0.6,3.0
20.233,-0.011,-0.654,2.0
18.24,-0.01,-0.696,1.0
16.631,-0.01,-0.732,0.0
27.585,-0.02,-0.462,1.0
24.318,-0.018,-0.55,2.0
21.833,-0.018,-0.621,3.0
19.363,-0.016,-0.666,3.0
17.632,-0.016,-0.71,1.0
15.895,-0.015,-0.733,5.0
26.512,-0.028,-0.499,2.0
23.336,-0.026,-0.576,2.0
20.893,-0.024,-0.638,2.0
18.711,-0.022,-0.682,3.0
17.073,-0.021,-0.723,1.0
15.554,-0.02,-0.75,1.0
25.248,-0.036,-0.527,1.0
22.553,-0.033,-0.603,3.0
20.106,-0.031,-0.655,2.0
18.078,-0.028,-0.697,2.0
16.396,-0.027,-0.728,0.0
15.087,-0.025,-0.758,1.0
24.1,-0.044,-0.552,3.0
21.606,-0.041,-0.621,3.0
19.249,-0.037,-0.666,2.0
17.469,-0.035,-0.708,1.0
15.891,-0.033,-0.737,1.0
14.702,-0.031,-0.769,1.0
23.23,-0.053,-0.579,3.0
20.76,-0.048,-0.639,2.0
18.62,-0.045,-0.682,2.0
16.913,-0.041,-0.72,1.0
15.45,-0.039,-0.748,1.0
14.309,-0.037,-0.777,1.0
22.354,-0.062,-0.603,3.0
19.925,-0.056,-0.654,3.0
17.945,-0.052,-0.694,1.0
16.301,-0.048,-0.727,0.0
15.041,-0.045,-0.759,1.0
13.894,-0.043,-0.783,1.0
21.442,-0.07,-0.621,3.0
19.194,-0.064,-0.668,2.0
17.427,-0.059,-0.708,1.0
15.853,-0.055,-0.739,1.0
14.628,-0.052,-0.767,1.0
13.572,-0.049,-0.791,1.0
20.598,-0.078,-0.637,2.0
18.464,-0.072,-0.679,2.0
16.873,-0.067,-0.719,1.0
15.413,-0.062,-0.749,1.0
14.233,-0.059,-0.775,1.0
13.247,-0.055,-0.799,0.0
19.827,-0.087,-0.652,2.0
17.979,-0.08,-0.696,2.0
16.303,-0.074,-0.727,1.0
14.993,-0.069,-0.758,1.0
13.862,-0.065,-0.782,1.0
12.964,-0.062,-0.807,0.0
19.091,-0.095,-0.665,2.0
17.386,-0.088,-0.707,1.0
15.83,-0.082,-0.737,1.0
14.612,-0.077,-0.767,1.0
13.551,-0.072,-0.79,1.0
12.666,-0.069,-0.813,0.0
18.492,-0.104,-0.679,2.0
16.86,-0.097,-0.718,1.0
15.396,-0.09,-0.746,1.0
14.226,-0.084,-0.774,1.0
13.266,-0.08,-0.799,1.0
12.399,-0.076,-0.82,0.0
17.919,-0.113,-0.693,1.0
16.29,-0.105,-0.725,0.0
15.012,-0.098,-0.756,1.0
13.878,-0.092,-0.781,1.0
12.966,-0.087,-0.806,0.0
12.144,-0.083,-0.826,0.0
17.404,-0.122,-0.705,1.0
15.858,-0.113,-0.735,1.0
14.62,-0.106,-0.763,1.0
13.563,-0.1,-0.789,1.0
12.675,-0.094,-0.811,0.0
11.893,-0.09,-0.831,0.0
16.903,-0.131,-0.716,1.0
15.409,-0.121,-0.743,1.0
14.264,-0.114,-0.771,1.0
13.279,-0.107,-0.796,1.0
12.412,-0.102,-0.817,0.0
11.67,-0.097,-0.837,0.0
16.362,-0.14,-0.723,1.0
15.062,-0.13,-0.753,1.0
13.936,-0.122,-0.778,0.0
13.014,-0.115,-0.804,0.0
12.177,-0.109,-0.824,0.0
11.46,-0.104,-0.842,0.0
15.937,-0.149,-0.733,1.0
14.684,-0.139,-0.761,1.0
13.626,-0.13,-0.785,0.0
12.731,-0.123,-0.809,0.0
11.922,-0.117,-0.828,1.0
11.237,-0.111,-0.846,0.0
15.522,-0.158,-0.741,1.0
14.35,-0.148,-0.768,1.0
13.358,-0.139,-0.793,1.0
12.467,-0.131,-0.815,0.0
11.705,-0.125,-0.833,0.0
11.028,-0.119,-0.85,0.0
15.169,-0.167,-0.75,1.0
14.029,-0.156,-0.776,1.0
13.083,-0.147,-0.8,1.0
12.252,-0.14,-0.822,0.0
11.496,-0.133,-0.838,0.0
10.856,-0.127,-0.855,0.0
14.824,-0.176,-0.759,1.0
13.716,-0.165,-0.782,1.0
12.819,-0.156,-0.805,1.0
12.009,-0.148,-0.826,1.0
11.318,-0.141,-0.845,0.0
10.668,-0.134,-0.858,0.0
14.45,-0.185,-0.764,1.0
13.471,-0.175,-0.791,1.0
12.582,-0.165,-0.812,1.0
11.78,-0.156,-0.83,0.0
11.119,-0.149,-0.848,0.0
10.491,-0.142,-0.862,0.0
14.154,-0.195,-0.772,1.0
13.212,-0.184,-0.797,0.0
12.345,-0.173,-0.817,0.0
11.595,-0.164,-0.836,0.0
10.928,-0.157,-0.852,0.0
10.348,-0.15,-0.867,0.0
13.848,-0.204,-0.777,1.0
12.936,-0.192,-0.801,0.0
12.121,-0.182,-0.822,0.0
11.398,-0.173,-0.84,0.0
10.758,-0.165,-0.856,0.0
10.128,-0.157,-0.865,0.0
13.601,-0.214,-0.785,1.0
12.72,-0.202,-0.808,1.0
11.913,-0.191,-0.826,1.0
11.22,-0.181,-0.845,0.0
10.588,-0.173,-0.859,0.0
9.996,-0.165,-0.869,2.0
13.372,-0.224,-0.793,0.0
12.488,-0.211,-0.813,0.0
11.727,-0.2,-0.832,0.0
11.065,-0.19,-0.85,0.0
10.434,-0.181,-0.863,0.0
9.867,-0.173,-0.874,3.0
13.124,-0.233,-0.798,1.0
12.282,-0.22,-0.818,0.0
11.564,-0.209,-0.838,0.0
10.871,-0.199,-0.852,0.0
10.264,-0.189,-0.864,0.0
9.76,-0.182,-0.879,1.0
12.866,-0.243,-0.802,1.0
12.069,-0.23,-0.822,1.0
11.382,-0.218,-0.842,0.0
10.724,-0.208,-0.856,0.0
10.102,-0.197,-0.866,0.0
9.618,-0.189,-0.88,0.0
12.677,-0.253,-0.809,1.0
11.885,-0.239,-0.827,0.0
11.199,-0.227,-0.844,0.0
10.582,-0.216,-0.86,0.0
9.95,-0.205,-0.867,1.0
9.494,-0.197,-0.883,0.0
12.465,-0.263,-0.813,0.0
11.69,-0.248,-0.83,1.0
11.046,-0.236,-0.848,0.0
10.436,-0.225,-0.863,0.0
9.827,-0.214,-0.87,2.0
9.379,-0.206,-0.885,0.0
12.284,-0.272,-0.818,0.0
11.559,-0.258,-0.837,0.0
10.875,-0.245,-0.85,0.0
10.274,-0.233,-0.864,0.0
9.745,-0.223,-0.876,1.0
9.265,-0.214,-0.887,0.0
12.085,-0.282,-0.821,1.0
11.385,-0.268,-0.839,0.0
10.74,-0.254,-0.854,0.0
10.121,-0.242,-0.864,0.0
9.653,-0.232,-0.881,0.0
9.171,-0.222,-0.89,0.0
11.902,-0.291,-0.824,0.0
11.226,-0.277,-0.842,1.0
10.604,-0.264,-0.857,0.0
9.973,-0.25,-0.865,0.0
9.53,-0.24,-0.882,0.0
9.059,-0.23,-0.891,0.0
11.741,-0.301,-0.828,1.0
11.09,-0.287,-0.846,0.0
10.47,-0.273,-0.859,0.0
9.858,-0.259,-0.867,1.0
9.418,-0.249,-0.883,0.0
8.961,-0.239,-0.893,0.0
11.612,-0.312,-0.833,0.0
10.951,-0.296,-0.849,0.0
10.338,-0.282,-0.861,0.0
9.786,-0.269,-0.873,2.0
9.314,-0.258,-0.885,0.0
8.878,-0.247,-0.895,0.0
11.47,-0.322,-0.837,0.0
10.828,-0.306,-0.852,0.0
10.219,-0.291,-0.863,0.0
9.731,-0.279,-0.88,0.0
9.208,-0.266,-0.886,0.0
8.78,-0.255,-0.896,0.0
11.336,-0.332,-0.84,0.0
10.7,-0.316,-0.854,0.0
10.11,-0.3,-0.866,0.0
9.616,-0.288,-0.88,0.0
9.124,-0.275,-0.888,0.0
8.707,-0.264,-0.898,0.0
11.192,-0.342,-0.842,0.0
10.575,-0.325,-0.856,0.0
9.964,-0.309,-0.864,0.0
9.491,-0.296,-0.879,0.0
9.058,-0.284,-0.892,0.0
8.61,-0.272,-0.898,0.0
11.079,-0.353,-0.845,0.0
10.474,-0.335,-0.859,0.0
9.872,-0.318,-0.867,1.0
9.415,-0.306,-0.882,0.0
8.962,-0.293,-0.892,0.0
8.54,-0.281,-0.899,0.0
10.968,-0.363,-0.848,0.0
10.365,-0.345,-0.861,0.0
9.785,-0.328,-0.869,2.0
9.332,-0.315,-0.884,0.0
8.883,-0.302,-0.893,0.0
8.492,-0.29,-0.903,0.0
10.861,-0.373,-0.85,0.0
10.257,-0.355,-0.862,0.0
9.748,-0.339,-0.876,1.0
9.261,-0.324,-0.886,0.0
8.824,-0.311,-0.895,0.0
8.412,-0.298,-0.902,0.0
10.757,-0.384,-0.853,0.0
10.152,-0.364,-0.863,0.0
9.669,-0.349,-0.878,0.0
9.179,-0.334,-0.887,0.0
8.731,-0.319,-0.894,0.0
8.359,-0.307,-0.905,0.0
10.654,-0.394,-0.854,0.0
10.048,-0.374,-0.863,0.0
9.576,-0.358,-0.878,0.0
9.107,-0.343,-0.888,0.0
8.688,-0.329,-0.898,0.0
8.309,-0.317,-0.906,0.0
10.566,-0.405,-0.856,0.0
9.96,-0.384,-0.864,1.0
9.511,-0.368,-0.88,0.0
9.043,-0.352,-0.89,0.0
8.63,-0.338,-0.899,0.0
8.267,-0.326,-0.909,0.0
10.484,-0.415,-0.858,0.0
9.886,-0.394,-0.866,2.0
9.428,-0.378,-0.88,0.0
8.989,-0.362,-0.892,0.0
8.578,-0.348,-0.9,0.0
8.209,-0.335,-0.909,0.0
10.414,-0.426,-0.861,0.0
9.816,-0.404,-0.867,3.0
9.371,-0.388,-0.882,0.0
8.931,-0.372,-0.893,0.0
8.522,-0.357,-0.901,0.0
8.156,-0.343,-0.909,0.0
10.338,-0.437,-0.862,0.0
9.781,-0.416,-0.871,3.0
9.319,-0.398,-0.884,0.0
8.849,-0.38,-0.891,0.0
8.466,-0.366,-0.901,0.0
8.092,-0.352,-0.908,0.0
10.239,-0.446,-0.861,0.0
9.751,-0.427,-0.875,2.0
9.283,-0.409,-0.887,0.0
8.798,-0.39,-0.892,0.0
8.416,-0.375,-0.901,0.0
8.07,-0.361,-0.911,0.0
10.168,-0.457,-0.861,0.0
9.7,-0.438,-0.877,0.0
9.208,-0.418,-0.885,0.0
8.769,-0.4,-0.894,0.0
8.383,-0.385,-0.903,0.0
8.039,-0.371,-0.912,0.0
10.087,-0.467,-0.861,0.0
9.654,-0.449,-0.879,0.0
9.17,-0.429,-0.887,0.0
8.717,-0.41,-0.894,0.0
8.341,-0.394,-0.903,0.0
7.995,-0.38,-0.912,0.0
10.05,-0.478,-0.863,1.0
9.587,-0.459,-0.878,0.0
9.138,-0.439,-0.889,0.0
8.681,-0.42,-0.895,0.0
8.306,-0.404,-0.904,0.0
7.984,-0.39,-0.915,0.0
9.992,-0.489,-0.863,1.0
9.524,-0.469,-0.877,0.0
9.077,-0.449,-0.888,0.0
8.649,-0.43,-0.896,0.0
8.282,-0.414,-0.905,0.0
7.95,-0.399,-0.915,0.0
9.952,-0.501,-0.865,1.0
9.496,-0.48,-0.879,0.0
9.021,-0.458,-0.886,0.0
8.618,-0.44,-0.897,0.0
8.259,-0.424,-0.907,0.0
7.924,-0.408,-0.915,0.0
9.93,-0.513,-0.867,2.0
9.456,-0.491,-0.879,0.0
9.001,-0.469,-0.888,0.0
8.579,-0.449,-0.896,0.0
8.233,-0.433,-0.907,0.0
7.905,-0.418,-0.916,0.0
9.878,-0.523,-0.866,2.0
9.433,-0.502,-0.881,0.0
9.011,-0.482,-0.893,0.0
8.543,-0.459,-0.896,0.0
8.211,-0.443,-0.908,0.0
7.889,-0.428,-0.917,0.0
9.856,-0.535,-0.868,2.0
9.41,-0.513,-0.882,0.0
8.962,-0.491,-0.891,0.0
8.531,-0.47,-0.897,0.0
8.198,-0.453,-0.909,0.0
7.869,-0.437,-0.917,0.0
9.828,-0.547,-0.868,2.0
9.376,-0.524,-0.881,0.0
8.938,-0.502,-0.891,0.0
8.519,-0.48,-0.898,0.0
8.167,-0.463,-0.908,0.0
7.847,-0.447,-0.917,0.0
9.813,-0.559,-0.869,2.0
9.369,-0.536,-0.883,0.0
8.892,-0.511,-0.888,0.0
8.52,-0.492,-0.9,0.0
8.153,-0.473,-0.908,0.0
7.845,-0.457,-0.918,0.0
9.792,-0.571,-0.869,3.0
9.353,-0.547,-0.883,0.0
8.912,-0.524,-0.892,0.0
8.513,-0.503,-0.901,0.0
8.145,-0.483,-0.908,0.0
7.82,-0.466,-0.917,0.0
9.792,-0.584,-0.871,2.0
9.335,-0.559,-0.883,0.0
8.883,-0.534,-0.89,0.0
8.488,-0.512,-0.9,0.0
8.135,-0.493,-0.908,0.0
7.831,-0.477,-0.919,0.0
9.786,-0.596,-0.872,2.0
9.326,-0.57,-0.883,0.0
8.884,-0.545,-0.891,0.0
8.495,-0.524,-0.901,0.0
8.15,-0.505,-0.911,0.0
7.821,-0.486,-0.918,0.0
9.787,-0.609,-0.872,2.0
9.328,-0.582,-0.884,0.0
8.88,-0.557,-0.892,0.0
8.483,-0.534,-0.9,0.0
8.138,-0.514,-0.91,0.0
7.832,-0.497,-0.92,0.0
9.781,-0.621,-0.872,2.0
9.334,-0.595,-0.885,0.0
8.886,-0.568,-0.892,0.0
8.48,-0.544,-0.9,0.0
8.135,-0.524,-0.909,0.0
7.823,-0.506,-0.919,0.0
9.785,-0.633,-0.872,2.0
9.324,-0.606,-0.884,0.0
8.879,-0.579,-0.891,0.0
8.488,-0.556,-0.901,0.0
8.119,-0.534,-0.907,0.0
7.837,-0.517,-0.92,0.0
9.787,-0.646,-0.872,2.0
9.319,-0.617,-0.882,0.0
8.897,-0.591,-0.892,0.0
8.499,-0.567,-0.901,0.0
8.122,-0.544,-0.907,0.0
7.822,-0.526,-0.917,0.0
9.786,-0.658,-0.871,3.0
9.328,-0.629,-0.882,0.0
8.893,-0.602,-0.891,0.0
8.51,-0.578,-0.901,0.0
8.147,-0.556,-0.909,0.0
7.822,-0.535,-0.916,0.0
9.797,-0.67,-0.87,3.0
9.352,-0.642,-0.883,0.0
8.896,-0.613,-0.89,0.0
8.508,-0.588,-0.9,0.0
8.155,-0.566,-0.908,0.0
7.839,-0.546,-0.917,0.0
9.806,-0.683,-0.869,4.0
9.37,-0.655,-0.883,0.0
8.934,-0.626,-0.892,0.0
8.525,-0.6,-0.9,0.0
8.176,-0.577,-0.908,0.0
7.856,-0.557,-0.917,0.0
9.824,-0.696,-0.869,3.0
9.378,-0.666,-0.882,0.0
8.939,-0.637,-0.89,0.0
8.536,-0.611,-0.899,0.0
8.201,-0.589,-0.909,0.0
7.859,-0.566,-0.915,0.0
9.852,-0.709,-0.869,3.0
9.409,-0.679,-0.882,0.0
8.97,-0.65,-0.891,0.0
8.555,-0.622,-0.898,0.0
8.218,-0.599,-0.909,0.0
7.903,-0.578,-0.918,0.0
9.872,-0.722,-0.867,2.0
9.441,-0.692,-0.882,0.0
9.004,-0.663,-0.891,0.0
8.576,-0.633,-0.897,0.0
8.236,-0.61,-0.908,0.0
7.907,-0.588,-0.916,0.0
9.894,-0.735,-0.866,2.0
9.472,-0.705,-0.881,0.0
9.017,-0.674,-0.889,0.0
8.61,-0.645,-0.898,0.0
8.253,-0.62,-0.906,0.0
7.934,-0.599,-0.916,0.0
9.93,-0.748,-0.865,2.0
9.505,-0.718,-0.88,0.0
9.036,-0.685,-0.887,0.0
8.626,-0.656,-0.896,0.0
8.277,-0.631,-0.905,0.0
7.968,-0.61,-0.916,0.0
9.967,-0.762,-0.864,1.0
9.532,-0.731,-0.879,0.0
9.087,-0.699,-0.888,0.0
8.653,-0.667,-0.894,0.0
8.332,-0.644,-0.908,0.0
7.976,-0.619,-0.913,0.0
10.0,-0.775,-0.862,1.0
9.583,-0.745,-0.879,0.0
9.156,-0.713,-0.89,0.0
8.71,-0.681,-0.896,0.0
8.354,-0.655,-0.906,0.0
8.009,-0.63,-0.913,0.0
10.074,-0.791,-0.863,0.0
9.654,-0.76,-0.88,0.0
9.162,-0.723,-0.886,0.0
8.735,-0.691,-0.894,0.0
8.395,-0.666,-0.906,0.0
8.035,-0.64,-0.911,0.0
10.141,-0.806,-0.863,0.0
9.691,-0.773,-0.878,0.0
9.231,-0.738,-0.887,0.0
8.78,-0.704,-0.893,0.0
8.406,-0.676,-0.902,0.0
8.078,-0.651,-0.911,0.0
10.224,-0.823,-0.864,0.0
9.747,-0.787,-0.877,2.0
9.257,-0.749,-0.884,0.0
8.838,-0.717,-0.894,0.0
8.464,-0.689,-0.903,0.0
8.116,-0.662,-0.91,0.0
10.29,-0.838,-0.863,0.0
9.784,-0.799,-0.874,2.0
9.327,-0.764,-0.885,0.0
8.904,-0.731,-0.894,0.0
8.504,-0.7,-0.901,0.0
8.146,-0.672,-0.908,0.0
10.371,-0.854,-0.863,0.0
9.806,-0.81,-0.87,3.0
9.38,-0.776,-0.883,0.0
8.934,-0.741,-0.891,0.0
8.558,-0.712,-0.901,0.0
8.205,-0.684,-0.909,0.0
10.434,-0.869,-0.861,0.0
9.876,-0.824,-0.869,2.0
9.454,-0.791,-0.884,0.0
8.996,-0.754,-0.891,0.0
8.598,-0.723,-0.899,0.0
8.241,-0.694,-0.907,0.0
10.502,-0.883,-0.859,0.0
9.921,-0.836,-0.865,2.0
9.502,-0.803,-0.881,0.0
9.069,-0.768,-0.891,0.0
8.669,-0.736,-0.9,0.0
8.305,-0.707,-0.908,0.0
10.573,-0.898,-0.856,0.0
9.992,-0.851,-0.864,1.0
9.568,-0.816,-0.879,0.0
9.128,-0.78,-0.89,0.0
8.72,-0.747,-0.898,0.0
8.335,-0.716,-0.904,0.0
10.679,-0.916,-0.856,0.0
10.093,-0.867,-0.864,0.0
9.675,-0.833,-0.881,0.0
9.193,-0.793,-0.889,0.0
8.77,-0.758,-0.896,0.0
8.401,-0.728,-0.904,0.0
10.755,-0.93,-0.853,1.0
10.205,-0.885,-0.865,0.0
9.74,-0.846,-0.879,1.0
9.287,-0.808,-0.89,0.0
8.844,-0.771,-0.895,0.0
8.472,-0.741,-0.904,0.0
10.842,-0.946,-0.851,1.0
10.304,-0.901,-0.864,0.0
9.781,-0.857,-0.874,3.0
9.345,-0.82,-0.887,0.0
8.906,-0.783,-0.894,0.0
8.536,-0.752,-0.903,0.0
10.923,-0.961,-0.847,0.0
10.414,-0.918,-0.864,0.0
9.839,-0.868,-0.87,3.0
9.413,-0.832,-0.884,0.0
8.987,-0.796,-0.893,0.0
8.605,-0.764,-0.902,0.0
11.056,-0.98,-0.847,0.0
10.463,-0.929,-0.858,2.0
9.912,-0.881,-0.867,2.0
9.486,-0.845,-0.882,0.0
9.047,-0.807,-0.891,0.0
8.664,-0.775,-0.9,0.0
11.129,-0.993,-0.842,0.0
10.54,-0.942,-0.854,1.0
10.002,-0.896,-0.865,0.0
9.584,-0.86,-0.882,0.0
9.141,-0.821,-0.891,0.0
8.727,-0.785,-0.898,0.0
11.233,-1.009,-0.839,0.0
10.648,-0.958,-0.853,0.0
10.143,-0.914,-0.867,0.0
9.685,-0.874,-0.881,0.0
9.236,-0.835,-0.891,0.0
8.8,-0.797,-0.896,0.0
11.358,-1.027,-0.837,0.0
10.791,-0.977,-0.853,0.0
10.258,-0.93,-0.866,0.0
9.761,-0.886,-0.878,2.0
9.316,-0.847,-0.888,0.0
8.884,-0.809,-0.895,0.0
11.508,-1.046,-0.835,0.0
10.914,-0.994,-0.851,0.0
10.357,-0.944,-0.863,0.0
9.815,-0.896,-0.872,3.0
9.404,-0.86,-0.887,0.0
8.956,-0.82,-0.893,0.0
11.637,-1.063,-0.832,0.0
11.032,-1.009,-0.848,0.0
10.487,-0.961,-0.863,0.0
9.895,-0.908,-0.869,2.0
9.487,-0.872,-0.884,0.0
9.076,-0.835,-0.895,0.0
11.777,-1.081,-0.829,0.0
11.142,-1.024,-0.844,0.0
10.549,-0.971,-0.856,0.0
9.998,-0.921,-0.866,1.0
9.594,-0.885,-0.883,0.0
9.164,-0.847,-0.893,0.0
11.939,-1.101,-0.827,0.0
11.269,-1.041,-0.841,0.0
10.68,-0.987,-0.855,0.0
10.119,-0.937,-0.865,0.0
9.73,-0.902,-0.884,1.0
9.252,-0.858,-0.891,0.0
12.091,-1.119,-0.824,1.0
11.421,-1.058,-0.839,0.0
10.804,-1.002,-0.852,0.0
10.256,-0.953,-0.865,0.0
9.786,-0.91,-0.878,3.0
9.341,-0.87,-0.889,0.0
12.2,-1.134,-0.817,0.0
11.566,-1.076,-0.837,0.0
10.944,-1.019,-0.85,0.0
10.381,-0.967,-0.863,0.0
9.852,-0.919,-0.872,3.0
9.448,-0.882,-0.887,0.0
12.346,-1.151,-0.812,0.0
11.727,-1.094,-0.834,0.0
11.079,-1.034,-0.847,0.0
10.509,-0.982,-0.861,0.0
9.953,-0.931,-0.869,2.0
9.55,-0.894,-0.885,0.0
12.597,-1.177,-0.813,0.0
11.86,-1.109,-0.829,1.0
11.206,-1.049,-0.843,0.0
10.619,-0.995,-0.857,0.0
10.084,-0.945,-0.868,0.0
9.671,-0.907,-0.884,0.0
12.803,-1.199,-0.81,0.0
12.012,-1.126,-0.825,0.0
11.356,-1.065,-0.84,0.0
10.766,-1.01,-0.855,0.0
10.216,-0.959,-0.866,0.0
9.772,-0.918,-0.881,2.0
12.98,-1.218,-0.805,0.0
12.156,-1.141,-0.819,0.0
11.515,-1.081,-0.837,0.0
10.908,-1.025,-0.853,0.0
10.373,-0.975,-0.866,0.0
9.835,-0.926,-0.874,3.0
13.202,-1.24,-0.802,0.0
12.4,-1.165,-0.82,0.0
11.695,-1.1,-0.835,0.0
11.047,-1.039,-0.849,0.0
10.5,-0.988,-0.863,0.0
9.936,-0.936,-0.87,2.0
13.413,-1.261,-0.798,0.0
12.585,-1.183,-0.816,0.0
11.842,-1.114,-0.831,1.0
11.192,-1.053,-0.846,0.0
10.614,-0.999,-0.859,0.0
10.072,-0.949,-0.869,1.0
13.613,-1.28,-0.792,1.0
12.795,-1.203,-0.812,0.0
12.0,-1.129,-0.826,0.0
11.352,-1.069,-0.843,0.0
10.734,-1.011,-0.854,0.0
10.209,-0.962,-0.867,0.0
13.808,-1.298,-0.785,1.0
13.001,-1.223,-0.808,0.0
12.098,-1.138,-0.816,0.0
11.539,-1.086,-0.841,0.0
10.918,-1.028,-0.854,0.0
10.357,-0.975,-0.866,0.0
14.054,-1.321,-0.78,0.0
13.228,-1.243,-0.805,0.0
12.41,-1.166,-0.821,0.0
11.705,-1.1,-0.837,0.0
11.061,-1.04,-0.85,0.0
10.514,-0.989,-0.864,0.0
14.358,-1.348,-0.778,1.0
13.436,-1.261,-0.799,0.0
12.603,-1.183,-0.816,0.0
11.845,-1.112,-0.832,1.0
11.23,-1.054,-0.848,0.0
10.624,-0.998,-0.859,0.0
14.544,-1.363,-0.768,1.0
13.628,-1.277,-0.792,1.0
12.797,-1.199,-0.812,0.0
12.033,-1.128,-0.828,0.0
11.38,-1.067,-0.844,0.0
10.788,-1.011,-0.857,0.0
14.839,-1.388,-0.764,0.0
13.853,-1.296,-0.786,1.0
13.024,-1.218,-0.808,0.0
12.168,-1.138,-0.821,0.0
11.557,-1.08,-0.841,0.0
10.949,-1.024,-0.855,0.0
15.174,-1.416,-0.76,0.0
14.096,-1.315,-0.781,0.0
13.262,-1.237,-0.804,0.0
12.4,-1.156,-0.819,0.0
11.74,-1.094,-0.838,0.0
11.113,-1.036,-0.852,0.0
15.512,-1.443,-0.755,0.0
14.405,-1.34,-0.777,1.0
13.493,-1.255,-0.8,0.0
12.692,-1.18,-0.821,0.0
11.928,-1.108,-0.834,1.0
11.256,-1.046,-0.847,0.0
15.849,-1.47,-0.749,1.0
14.632,-1.356,-0.769,1.0
13.684,-1.268,-0.792,0.0
12.833,-1.188,-0.811,0.0
12.089,-1.119,-0.829,0.0
11.402,-1.055,-0.842,0.0
16.229,-1.499,-0.744,5.0
14.944,-1.379,-0.764,0.0
13.914,-1.284,-0.785,0.0
13.1,-1.208,-0.81,0.0
12.261,-1.13,-0.823,0.0
11.618,-1.07,-0.841,0.0
16.297,-1.499,-0.724,12.0
15.276,-1.404,-0.76,0.0
14.211,-1.305,-0.782,0.0
13.355,-1.226,-0.807,0.0
12.436,-1.141,-0.817,0.0
11.783,-1.08,-0.837,0.0
16.38,-1.499,-0.705,12.0
15.605,-1.427,-0.754,0.0
14.486,-1.324,-0.776,1.0
13.53,-1.235,-0.798,0.0
12.619,-1.151,-0.811,0.0
11.964,-1.091,-0.832,0.0
16.484,-1.5,-0.686,4.0
16.003,-1.455,-0.75,1.0
14.719,-1.337,-0.768,0.0
13.749,-1.248,-0.792,0.0
12.889,-1.169,-0.81,0.0
12.172,-1.103,-0.83,0.0
17.605,-1.593,-0.708,0.0
16.263,-1.47,-0.74,8.0
15.069,-1.361,-0.765,0.0
13.988,-1.262,-0.785,0.0
13.217,-1.191,-0.812,0.0
12.359,-1.113,-0.825,0.0
18.057,-1.623,-0.7,0.0
16.318,-1.465,-0.719,9.0
15.396,-1.381,-0.759,0.0
14.324,-1.284,-0.784,0.0
13.418,-1.201,-0.805,0.0
12.556,-1.123,-0.82,1.0
18.536,-1.655,-0.692,0.0
16.379,-1.46,-0.698,7.0
15.719,-1.4,-0.753,0.0
14.591,-1.298,-0.777,0.0
13.634,-1.211,-0.798,0.0
12.745,-1.131,-0.814,1.0
18.996,-1.683,-0.683,1.0
16.666,-1.474,-0.687,2.0
16.135,-1.426,-0.75,1.0
14.826,-1.308,-0.769,0.0
13.872,-1.222,-0.792,0.0
12.937,-1.139,-0.807,0.0
