X,Y,Z,Reflectivity
126.311,2.139,1.803,30.0
77.784,1.293,0.672,33.0
54.754,0.892,0.158,17.0
39.336,0.628,-0.107,35.0
36.959,0.578,-0.309,3.0
189.642,2.901,3.617,26.0
126.188,1.889,1.695,10.0
0.0,0.0,0.0,0.0
47.948,0.686,0.099,58.0
38.747,0.542,-0.137,49.0
33.779,0.462,-0.31,1.0
188.946,2.512,3.449,15.0
48.23,0.625,0.609,4.0
48.08,0.608,0.336,79.0
47.716,0.588,0.061,53.0
38.34,0.46,-0.166,48.0
32.914,0.384,-0.328,1.0
48.142,0.545,0.841,94.0
48.096,0.528,0.57,104.0
48.055,0.512,0.299,96.0
46.864,0.484,0.024,37.0
38.096,0.38,-0.194,35.0
32.19,0.311,-0.345,1.0
48.103,0.447,0.805,114.0
48.077,0.431,0.534,113.0
48.035,0.416,0.264,101.0
0.0,0.0,0.0,0.0
38.039,0.303,-0.221,13.0
31.52,0.241,-0.36,2.0
48.116,0.351,0.771,96.0
48.134,0.334,0.501,50.0
48.186,0.318,0.231,60.0
0.0,0.0,0.0,0.0
37.945,0.225,-0.246,8.0
30.861,0.172,-0.374,1.0
59.293,0.31,0.91,142.0
59.319,0.291,0.578,101.0
55.019,0.251,0.228,23.0
43.918,0.185,-0.068,13.0
37.853,0.146,-0.271,16.0
30.364,0.107,-0.387,1.0
79.468,0.252,1.169,151.0
79.455,0.224,0.724,150.0
55.103,0.137,0.193,28.0
43.739,0.093,-0.095,4.0
38.108,0.068,-0.296,2.0
29.893,0.043,-0.4,2.0
79.46,0.088,1.121,151.0
79.401,0.061,0.676,55.0
0.0,0.0,0.0,0.0
40.715,0.002,-0.112,17.0
37.925,-0.01,-0.317,1.0
29.627,-0.018,-0.413,2.0
79.461,-0.075,1.076,151.0
79.279,-0.103,0.631,32.0
0.0,0.0,0.0,0.0
40.476,-0.081,-0.134,16.0
33.715,-0.079,-0.3,0.0
29.352,-0.079,-0.425,2.0
79.463,-0.243,1.034,151.0
79.186,-0.269,0.588,19.0
0.0,0.0,0.0,0.0
39.894,-0.164,-0.153,3.0
33.599,-0.15,-0.316,1.0
29.127,-0.14,-0.436,2.0
79.458,-0.409,0.995,158.0
76.779,-0.422,0.533,14.0
50.943,-0.297,0.069,24.0
42.03,-0.261,-0.181,4.0
32.995,-0.216,-0.326,1.0
28.788,-0.198,-0.445,2.0
79.462,-0.574,0.959,185.0
77.132,-0.585,0.501,13.0
49.457,-0.393,0.045,2.0
42.281,-0.351,-0.2,3.0
32.841,-0.284,-0.338,1.0
28.479,-0.256,-0.452,4.0
79.452,-0.741,0.926,173.0
77.531,-0.75,0.472,11.0
57.319,-0.576,0.029,2.0
42.324,-0.44,-0.217,3.0
32.286,-0.347,-0.345,1.0
28.321,-0.314,-0.46,2.0
79.463,-0.909,0.896,150.0
78.033,-0.92,0.445,6.0
60.644,-0.737,0.009,3.0
42.322,-0.53,-0.233,3.0
31.939,-0.411,-0.353,1.0
27.982,-0.37,-0.465,2.0
123.533,-1.676,1.35,14.0
0.0,0.0,0.0,0.0
58.124,-0.83,-0.01,0.0
40.141,-0.588,-0.234,0.0
31.571,-0.474,-0.359,1.0
27.812,-0.427,-0.471,1.0
123.88,-1.943,1.316,13.0
40.301,-0.647,0.204,3.0
40.325,-0.662,-0.019,29.0
40.2,-0.674,-0.246,14.0
31.29,-0.536,-0.365,1.0
27.642,-0.484,-0.476,1.0
40.25,-0.717,0.416,52.0
40.269,-0.731,0.193,56.0
40.308,-0.746,-0.029,56.0
40.206,-0.759,-0.256,6.0
31.132,-0.599,-0.371,1.0
27.42,-0.538,-0.478,1.0
40.258,-0.801,0.407,51.0
0.0,0.0,0.0,0.0
52.932,-1.092,-0.05,0.0
40.159,-0.844,-0.264,7.0
30.941,-0.662,-0.375,1.0
27.289,-0.594,-0.482,2.0
40.314,-0.888,0.4,3.0
40.294,-0.903,0.177,76.0
40.302,-0.918,-0.045,39.0
40.241,-0.931,-0.272,55.0
30.829,-0.725,-0.379,1.0
27.307,-0.652,-0.486,6.0
40.268,-0.972,0.393,10.0
0.0,0.0,0.0,0.0
40.986,-1.02,-0.052,10.0
40.801,-1.031,-0.281,15.0
30.768,-0.789,-0.382,1.0
27.195,-0.707,-0.488,1.0
40.198,-1.056,0.388,56.0
40.192,-1.071,0.166,42.0
40.87,-1.105,-0.056,150.0
40.224,-1.102,-0.281,6.0
30.768,-0.854,-0.385,1.0
27.18,-0.765,-0.49,1.0
40.254,-1.143,0.385,8.0
40.223,-1.157,0.163,27.0
40.217,-1.172,-0.058,48.0
40.137,-1.185,-0.283,9.0
30.694,-0.917,-0.385,1.0
27.12,-0.82,-0.49,1.0
0.0,0.0,0.0,0.0
0.0,0.0,0.0,0.0
0.0,0.0,0.0,0.0
40.298,-1.274,-0.285,5.0
30.846,-0.986,-0.388,1.0
27.171,-0.879,-0.491,2.0
0.0,0.0,0.0,0.0
0.0,0.0,0.0,0.0
0.0,0.0,0.0,0.0
40.244,-1.355,-0.284,0.0
30.824,-1.05,-0.387,1.0
27.196,-0.936,-0.491,2.0
0.0,0.0,0.0,0.0
0.0,0.0,0.0,0.0
51.519,-1.825,-0.072,1.0
40.049,-1.434,-0.28,7.0
30.929,-1.119,-0.386,1.0
27.134,-0.992,-0.488,1.0
0.0,0.0,0.0,0.0
0.0,0.0,0.0,0.0
40.144,-1.506,-0.053,153.0
37.771,-1.43,-0.261,26.0
31.186,-1.193,-0.387,1.0
27.345,-1.056,-0.489,2.0
0.0,0.0,0.0,0.0
0.0,0.0,0.0,0.0
37.784,-1.496,-0.045,142.0
37.788,-1.51,-0.256,96.0
31.369,-1.265,-0.385,1.0
27.433,-1.117,-0.487,2.0
0.0,0.0,0.0,0.0
0.0,0.0,0.0,0.0
50.377,-2.098,-0.052,0.0
37.754,-1.586,-0.25,1.0
31.355,-1.329,-0.379,1.0
27.522,-1.177,-0.484,1.0
0.0,0.0,0.0,0.0
0.0,0.0,0.0,0.0
50.641,-2.214,-0.043,0.0
39.805,-1.754,-0.255,0.0
0.0,0.0,0.0,0.0
27.682,-1.241,-0.48,2.0
0.0,0.0,0.0,0.0
0.0,0.0,0.0,0.0
0.0,0.0,0.0,0.0
0.0,0.0,0.0,0.0
33.164,-1.541,-0.386,7.0
28.07,-1.315,-0.48,2.0
126.621,-5.958,1.338,2.0
0.0,0.0,0.0,0.0
0.0,0.0,0.0,0.0
40.769,-1.962,-0.241,0.0
32.823,-1.592,-0.373,2.0
28.279,-1.382,-0.476,7.0
0.0,0.0,0.0,0.0
0.0,0.0,0.0,0.0
59.888,-2.981,-0.002,2.0
0.0,0.0,0.0,0.0
32.669,-1.65,-0.361,1.0
28.457,-1.447,-0.47,7.0
0.0,0.0,0.0,0.0
0.0,0.0,0.0,0.0
59.528,-3.081,0.017,4.0
0.0,0.0,0.0,0.0
33.239,-1.744,-0.356,1.0
28.375,-1.499,-0.458,4.0
0.0,0.0,0.0,0.0
0.0,0.0,0.0,0.0
0.0,0.0,0.0,0.0
0.0,0.0,0.0,0.0
33.888,-1.845,-0.349,0.0
28.989,-1.589,-0.457,2.0
0.0,0.0,0.0,0.0
0.0,0.0,0.0,0.0
58.706,-3.269,0.063,6.0
0.0,0.0,0.0,0.0
34.577,-1.95,-0.342,1.0
29.171,-1.656,-0.447,2.0
0.0,0.0,0.0,0.0
0.0,0.0,0.0,0.0
62.921,-3.625,0.095,3.0
50.388,-2.921,-0.202,1.0
34.847,-2.033,-0.329,0.0
29.537,-1.734,-0.439,1.0
0.0,0.0,0.0,0.0
0.0,0.0,0.0,0.0
62.701,-3.734,0.125,2.0
50.486,-3.025,-0.178,2.0
36.302,-2.187,-0.325,0.0
29.899,-1.812,-0.429,1.0
187.382,-11.386,2.503,19.0
0.0,0.0,0.0,0.0
62.613,-3.848,0.157,2.0
50.387,-3.114,-0.151,2.0
37.597,-2.337,-0.316,0.0
30.353,-1.897,-0.42,1.0
0.0,0.0,0.0,0.0
0.0,0.0,0.0,0.0
0.0,0.0,0.0,0.0
50.393,-3.209,-0.123,2.0
39.953,-2.558,-0.314,0.0
30.873,-1.987,-0.41,1.0
187.117,-12.069,2.706,23.0
0.0,0.0,0.0,0.0
0.0,0.0,0.0,0.0
50.352,-3.3,-0.094,2.0
40.024,-2.637,-0.291,1.0
31.971,-2.118,-0.405,1.0
187.144,-12.416,2.82,14.0
0.0,0.0,0.0,0.0
0.0,0.0,0.0,0.0
50.525,-3.404,-0.063,3.0
0.0,0.0,0.0,0.0
32.332,-2.2,-0.389,1.0
0.0,0.0,0.0,0.0
0.0,0.0,0.0,0.0
0.0,0.0,0.0,0.0
61.815,-4.275,-0.037,0.0
41.867,-2.909,-0.251,0.0
32.954,-2.301,-0.375,1.0
155.164,-10.853,2.539,4.0
0.0,0.0,0.0,0.0
0.0,0.0,0.0,0.0
61.024,-4.329,0.004,3.0
0.0,0.0,0.0,0.0
33.959,-2.432,-0.363,0.0
0.0,0.0,0.0,0.0
0.0,0.0,0.0,0.0
0.0,0.0,0.0,0.0
61.644,-4.481,0.048,4.0
44.861,-3.276,-0.206,0.0
35.762,-2.623,-0.357,0.0
0.0,0.0,0.0,0.0
148.53,-10.957,1.842,150.0
0.0,0.0,0.0,0.0
62.017,-4.615,0.095,1.0
50.332,-3.761,-0.194,0.0
37.432,-2.81,-0.345,0.0
148.777,-11.183,2.759,2.0
148.458,-11.204,1.954,87.0
0.0,0.0,0.0,0.0
0.0,0.0,0.0,0.0
50.314,-3.845,-0.154,1.0
0.0,0.0,0.0,0.0
0.0,0.0,0.0,0.0
0.0,0.0,0.0,0.0
0.0,0.0,0.0,0.0
0.0,0.0,0.0,0.0
50.464,-3.94,-0.114,4.0
40.168,-3.149,-0.307,0.0
0.0,0.0,0.0,0.0
128.182,-10.098,1.893,245.0
0.0,0.0,0.0,0.0
0.0,0.0,0.0,0.0
50.509,-4.026,-0.073,2.0
41.268,-3.302,-0.281,0.0
0.0,0.0,0.0,0.0
0.0,0.0,0.0,0.0
0.0,0.0,0.0,0.0
87.151,-7.059,0.416,2.0
0.0,0.0,0.0,0.0
0.0,0.0,0.0,0.0
202.166,-16.516,4.419,33.0
0.0,0.0,0.0,0.0
121.939,-10.032,1.355,2.0
0.0,0.0,0.0,0.0
0.0,0.0,0.0,0.0
0.0,0.0,0.0,0.0
165.138,-13.75,3.757,30.0
0.0,0.0,0.0,0.0
121.759,-10.206,1.464,14.0
0.0,0.0,0.0,0.0
0.0,0.0,0.0,0.0
50.289,-4.26,-0.208,0.0
165.119,-13.999,3.909,32.0
0.0,0.0,0.0,0.0
121.744,-10.39,1.577,151.0
0.0,0.0,0.0,0.0
0.0,0.0,0.0,0.0
50.395,-4.344,-0.161,1.0
157.35,-13.574,3.873,79.0
157.121,-13.598,3.027,4.0
111.586,-9.687,1.551,3.0
111.49,-9.709,0.942,2.0
0.0,0.0,0.0,0.0
50.464,-4.423,-0.113,6.0
188.716,-16.553,4.828,45.0
157.187,-13.828,3.178,11.0
110.184,-9.722,1.639,9.0
109.907,-9.728,1.036,2.0
0.0,0.0,0.0,0.0
50.532,-4.5,-0.063,1.0
188.373,-16.79,5.006,45.0
188.253,-16.829,3.997,37.0
109.093,-9.781,1.732,7.0
108.637,-9.769,1.133,150.0
90.584,-8.169,0.461,1.0
0.0,0.0,0.0,0.0
188.194,-17.035,5.191,30.0
188.227,-17.085,4.187,46.0
108.78,-9.901,1.838,14.0
108.577,-9.911,1.243,166.0
90.989,-8.328,0.556,1.0
0.0,0.0,0.0,0.0
149.4,-13.724,4.275,32.0
188.513,-17.364,4.388,40.0
108.78,-10.046,1.951,2.0
108.452,-10.043,1.355,65.0
0.0,0.0,0.0,0.0
0.0,0.0,0.0,0.0
188.009,-17.518,5.581,39.0
188.129,-17.574,4.58,50.0
108.861,-10.196,2.069,8.0
0.0,0.0,0.0,0.0
100.857,-9.495,0.831,1.0
0.0,0.0,0.0,0.0
148.889,-14.063,4.581,68.0
149.484,-14.153,3.8,37.0
108.823,-10.328,2.185,12.0
100.934,-9.603,1.479,1.0
100.696,-9.604,0.938,1.0
0.0,0.0,0.0,0.0
149.666,-14.319,4.767,35.0
149.37,-14.324,3.96,53.0
149.474,-14.368,3.166,68.0
0.0,0.0,0.0,0.0
97.767,-9.441,1.018,3.0
91.112,-8.82,0.464,3.0
188.089,-18.221,6.199,23.0
188.108,-18.262,5.198,36.0
149.551,-14.552,3.336,42.0
97.489,-9.507,1.645,5.0
96.5,-9.431,1.114,1.0
0.0,0.0,0.0,0.0
149.619,-14.667,5.102,20.0
188.15,-18.484,5.413,49.0
187.771,-18.486,4.402,53.0
95.822,-9.453,1.726,2.0
95.548,-9.446,1.212,4.0
95.111,-9.424,0.7,3.0
149.651,-14.837,5.276,12.0
188.056,-18.683,5.628,47.0
187.62,-18.677,4.614,46.0
0.0,0.0,0.0,0.0
94.725,-9.467,1.311,10.0
94.521,-9.467,0.805,4.0
148.275,-14.861,5.398,45.0
188.104,-18.887,5.846,43.0
187.961,-18.909,4.841,51.0
95.919,-9.667,1.95,6.0
94.798,-9.573,1.422,8.0
89.863,-9.092,0.87,3.0
148.277,-15.012,5.572,33.0
188.22,-19.09,6.07,33.0
188.117,-19.114,5.065,55.0
188.174,-19.153,4.046,8.0
88.969,-9.072,1.439,11.0
88.245,-9.016,0.958,4.0
124.365,-12.714,4.822,42.0
189.485,-19.404,6.338,25.0
188.113,-19.296,5.289,47.0
157.637,-16.196,3.578,61.0
87.776,-9.035,1.525,9.0
86.867,-8.957,1.048,4.0
122.957,-12.686,4.915,28.0
189.617,-19.595,6.568,30.0
188.026,-19.462,5.513,48.0
187.817,-19.47,4.489,45.0
87.107,-9.045,1.619,2.0
86.538,-9.001,1.148,19.0
106.949,-11.132,4.404,46.0
190.142,-19.82,6.819,23.0
187.927,-19.618,5.738,33.0
187.778,-19.633,4.717,42.0
96.17,-10.07,1.904,3.0
86.436,-9.065,1.251,52.0
107.767,-11.31,4.568,63.0
107.387,-11.285,3.981,32.0
188.397,-19.825,5.981,30.0
187.555,-19.765,4.939,23.0
0.0,0.0,0.0,0.0
86.394,-9.131,1.357,39.0
107.947,-11.417,4.709,44.0
107.328,-11.365,4.11,24.0
188.384,-19.975,6.213,29.0
123.606,-13.124,3.407,18.0
123.617,-13.143,2.751,17.0
86.412,-9.199,1.464,25.0
107.97,-11.503,4.845,61.0
106.909,-11.404,4.228,40.0
123.287,-13.167,4.22,30.0
123.482,-13.203,3.558,71.0
123.567,-13.229,2.904,57.0
86.397,-9.261,1.572,38.0
108.124,-11.6,4.987,47.0
107.637,-11.559,4.392,68.0
107.357,-11.542,3.809,55.0
123.423,-13.284,3.711,93.0
123.557,-13.314,3.059,93.0
86.477,-9.329,1.681,11.0
105.353,-11.375,4.992,25.0
115.68,-12.503,4.866,22.0
107.054,-11.581,3.933,77.0
123.401,-13.363,3.866,81.0
123.555,-13.394,3.213,64.0
86.821,-9.422,1.797,2.0
108.137,-11.745,5.262,22.0
105.778,-11.499,4.584,13.0
106.994,-11.642,4.067,61.0
123.369,-13.437,4.02,69.0
123.575,-13.471,3.372,27.0
86.774,-9.469,1.907,8.0
99.319,-10.848,4.959,8.0
105.822,-11.567,4.72,35.0
106.514,-11.652,4.184,22.0
107.315,-11.749,3.635,41.0
187.657,-20.564,5.36,30.0
86.952,-9.537,2.021,3.0
99.236,-10.894,5.081,42.0
148.172,-16.277,6.798,14.0
106.384,-11.694,4.314,22.0
107.093,-11.781,3.761,56.0
187.626,-20.656,5.593,31.0
187.375,-20.644,4.59,30.0
99.362,-10.958,5.213,37.0
108.251,-11.945,5.102,20.0
106.003,-11.704,4.432,41.0
106.746,-11.793,3.884,55.0
107.411,-11.875,3.338,49.0
187.401,-20.734,4.826,33.0
90.663,-10.04,4.872,6.0
108.227,-11.991,5.239,27.0
105.772,-11.726,4.556,54.0
106.468,-11.809,4.01,67.0
107.353,-11.915,3.472,75.0
187.591,-20.832,5.07,23.0
90.625,-10.074,4.984,9.0
99.422,-11.056,4.938,78.0
105.77,-11.767,4.691,67.0
106.423,-11.846,4.142,72.0
107.272,-11.945,3.604,55.0
107.48,-11.975,3.04,50.0
98.411,-10.976,5.538,26.0
99.262,-11.075,5.057,22.0
105.877,-11.816,4.83,85.0
106.33,-11.871,4.272,34.0
107.299,-11.985,3.741,27.0
107.364,-11.996,3.172,54.0
98.376,-11.004,5.662,44.0
108.087,-12.093,5.643,28.0
100.097,-11.202,4.691,38.0
116.556,-13.047,4.83,18.0
115.965,-12.986,4.188,34.0
107.357,-12.026,3.307,63.0
86.041,-9.648,5.06,12.0
98.477,-11.044,5.265,37.0
99.744,-11.189,4.8,96.0
116.611,-13.083,4.979,24.0
116.032,-13.021,4.335,14.0
107.353,-12.049,3.44,49.0
104.445,-11.737,6.273,17.0
98.454,-11.064,5.387,65.0
99.295,-11.16,4.902,61.0
105.61,-11.87,4.64,13.0
107.643,-12.101,4.154,7.0
107.396,-12.074,3.574,30.0
101.187,-11.39,6.203,17.0
104.649,-11.779,5.855,20.0
99.339,-11.181,5.028,15.0
117.396,-13.213,5.304,20.0
107.712,-12.124,4.292,16.0
115.974,-13.056,4.002,42.0
101.224,-11.408,6.331,8.0
90.681,-10.219,5.187,5.0
98.515,-11.101,5.108,17.0
99.887,-11.254,4.636,25.0
107.697,-12.134,4.423,18.0
115.991,-13.068,4.146,53.0
86.828,-9.794,5.538,4.0
90.685,-10.227,5.299,10.0
98.482,-11.105,5.227,50.0
99.613,-11.23,4.746,97.0
116.756,-13.161,4.939,10.0
116.014,-13.077,4.288,26.0
81.608,-9.21,5.306,9.0
101.121,-11.409,6.033,17.0
98.526,-11.113,5.35,31.0
99.3,-11.198,4.851,61.0
105.662,-11.912,4.598,8.0
203.083,-22.892,7.753,33.0
81.768,-9.229,5.415,4.0
101.157,-11.412,6.157,24.0
104.643,-11.802,5.808,22.0
99.308,-11.196,4.971,26.0
117.359,-13.228,5.248,19.0
123.089,-13.869,4.848,12.0
86.367,-9.745,5.824,4.0
101.142,-11.406,6.279,15.0
90.471,-10.198,5.131,3.0
104.988,-11.83,5.382,13.0
117.421,-13.226,5.391,19.0
107.698,-12.126,4.37,18.0
86.33,-9.734,5.925,11.0
86.87,-9.789,5.496,4.0
90.709,-10.216,5.253,14.0
98.474,-11.085,5.165,29.0
99.865,-11.236,4.702,93.0
116.636,-13.118,4.868,22.0
86.315,-9.721,6.026,8.0
81.614,-9.185,5.26,9.0
86.037,-9.677,5.083,12.0
98.456,-11.068,5.278,62.0
99.619,-11.192,4.807,94.0
116.607,-13.094,5.003,17.0
68.271,-7.677,4.846,4.0
81.665,-9.176,5.358,9.0
104.432,-11.727,6.291,11.0
98.436,-11.046,5.391,63.0
99.273,-11.133,4.904,51.0
106.146,-11.897,4.676,33.0
84.312,-9.463,6.083,14.0
86.521,-9.703,5.776,3.0
101.327,-11.355,6.219,11.0
98.416,-11.02,5.502,59.0
99.271,-11.108,5.017,24.0
106.057,-11.859,4.792,101.0
84.225,-9.432,6.171,43.0
86.34,-9.66,5.861,5.0
101.254,-11.318,6.329,9.0
98.361,-10.986,5.608,45.0
108.162,-12.071,5.587,33.0
105.709,-11.788,4.894,34.0
84.211,-9.405,6.265,41.0
86.32,-9.631,5.956,10.0
81.508,-9.085,5.186,9.0
98.349,-10.952,5.717,42.0
108.113,-12.029,5.704,31.0
100.096,-11.127,4.744,17.0
84.172,-9.371,6.355,23.0
86.306,-9.598,6.051,3.0
81.487,-9.053,5.274,15.0
98.305,-10.91,5.823,25.0
90.589,-10.044,4.879,9.0
108.196,-11.985,5.245,44.0
68.959,-7.651,5.281,11.0
68.362,-7.575,4.867,3.0
81.638,-9.037,5.371,6.0
98.266,-10.866,5.925,34.0
90.54,-10.001,4.972,10.0
108.186,-11.938,5.359,38.0
68.544,-7.575,5.323,6.0
68.277,-7.536,4.933,6.0
97.821,-10.784,6.538,32.0
98.255,-10.82,6.026,24.0
108.448,-11.929,6.067,10.0
99.235,-10.903,5.017,36.0
83.972,-9.241,6.608,15.0
84.27,-9.261,6.175,16.0
97.692,-10.723,6.63,23.0
98.246,-10.77,6.127,12.0
125.48,-13.739,7.149,17.0
99.245,-10.853,5.119,51.0
83.913,-9.191,6.689,12.0
83.482,-9.131,6.202,13.0
86.275,-9.424,5.942,9.0
98.439,-10.738,6.238,9.0
86.087,-9.378,4.99,5.0
99.354,-10.81,5.223,53.0
83.797,-9.132,6.764,13.0
82.683,-8.997,6.225,8.0
86.182,-9.364,6.022,6.0
81.522,-8.845,5.246,11.0
86.075,-9.326,5.074,11.0
118.068,-12.776,6.322,23.0
83.696,-9.071,6.837,13.0
82.61,-8.939,6.301,4.0
68.363,-7.386,4.842,2.0
81.377,-8.779,5.315,7.0
100.252,-10.8,6.005,12.0
109.012,-11.727,5.94,4.0
68.989,-7.433,5.702,10.0
69.194,-7.442,5.343,5.0
68.384,-7.344,4.908,4.0
99.14,-10.63,6.568,10.0
86.421,-9.252,5.257,3.0
90.742,-9.7,5.028,9.0
69.047,-7.392,5.771,8.0
68.865,-7.36,5.381,9.0
84.477,-9.013,6.141,5.0
105.062,-11.191,7.056,6.0
99.412,-10.572,6.137,17.0
104.61,-11.108,5.889,35.0
69.01,-7.339,5.83,10.0
69.015,-7.326,5.453,13.0
82.427,-8.735,6.064,8.0
100.463,-10.627,6.835,9.0
99.185,-10.474,6.209,20.0
99.248,-10.463,5.674,19.0
68.978,-7.284,5.887,6.0
96.752,-10.198,7.729,13.0
82.289,-8.657,6.124,6.0
86.229,-9.055,5.939,8.0
81.507,-8.544,5.17,7.0
99.243,-10.386,5.755,13.0
83.612,-8.764,7.205,4.0
68.897,-7.207,5.561,10.0
83.047,-8.671,6.249,3.0
86.114,-8.974,6.001,9.0
81.545,-8.482,5.238,8.0
86.342,-8.965,5.077,8.0
78.326,-8.145,6.813,6.0
68.816,-7.141,5.609,10.0
83.148,-8.612,6.323,2.0
82.642,-8.543,5.824,7.0
81.444,-8.402,5.295,5.0
86.196,-8.876,5.135,10.0
80.802,-8.333,7.092,1.0
69.175,-7.119,5.692,11.0
84.326,-8.661,6.476,1.0
82.432,-8.449,5.872,7.0
81.238,-8.309,5.343,1.0
86.231,-8.803,5.201,13.0
83.357,-8.522,7.378,3.0
68.789,-7.018,5.71,7.0
96.877,-9.862,7.511,8.0
81.988,-8.328,5.9,7.0
105.031,-10.648,6.982,3.0
99.427,-10.059,6.067,23.0
90.089,-9.127,8.038,4.0
76.349,-7.717,6.393,3.0
96.877,-9.771,7.579,4.0
86.029,-8.657,6.25,2.0
84.065,-8.441,5.647,10.0
99.455,-9.966,6.136,21.0
69.607,-6.985,6.258,5.0
76.307,-7.639,6.441,4.0
83.912,-8.382,6.621,3.0
84.535,-8.424,6.197,4.0
83.94,-8.346,5.693,39.0
99.543,-9.876,6.207,13.0
90.089,-8.952,8.158,7.0
76.271,-7.56,6.487,3.0
96.74,-9.566,7.694,5.0
97.429,-9.611,7.203,9.0
0.0,0.0,0.0,0.0
99.014,-9.723,6.234,31.0
90.018,-8.852,8.206,3.0
76.227,-7.477,6.529,3.0
96.725,-9.464,7.751,6.0
84.678,-8.265,6.311,8.0
99.908,-9.729,6.896,8.0
99.312,-9.647,6.311,13.0
90.022,-8.757,8.26,2.0
85.063,-8.254,7.334,6.0
96.706,-9.359,7.804,5.0
84.676,-8.173,6.359,8.0
84.098,-8.098,5.852,27.0
86.316,-8.292,5.531,7.0
84.576,-8.135,7.806,4.0
85.43,-8.195,7.412,3.0
100.995,-9.663,8.204,5.0
98.154,-9.367,7.421,22.0
98.635,-9.388,6.915,24.0
86.456,-8.208,5.585,5.0
84.311,-8.015,7.824,12.0
83.59,-7.925,7.294,2.0
96.064,-9.083,7.851,5.0
99.812,-9.412,7.595,11.0
98.713,-9.284,6.966,13.0
81.785,-7.672,5.321,3.0
90.127,-8.465,8.407,1.0
98.066,-9.185,8.602,16.0
95.889,-8.956,7.881,7.0
98.762,-9.199,7.559,19.0
98.241,-9.126,6.977,11.0
100.2,-9.284,6.562,5.0
97.905,-9.081,9.175,14.0
96.412,-8.917,8.499,4.0
84.57,-7.799,6.986,6.0
84.604,-7.78,6.511,13.0
98.301,-9.014,7.021,8.0
98.408,-8.999,6.484,4.0
85.363,-7.815,8.034,3.0
96.528,-8.811,8.547,6.0
96.933,-8.822,8.043,9.0
84.722,-7.688,6.552,14.0
98.088,-8.876,7.041,11.0
98.55,-8.893,6.529,5.0
83.346,-7.529,7.873,8.0
99.731,-8.981,8.865,15.0
96.957,-8.704,8.079,8.0
84.943,-7.603,6.597,11.0
96.896,-8.648,6.988,10.0
87.194,-7.759,5.805,5.0
83.176,-7.41,7.883,6.0
84.368,-7.492,7.526,12.0
96.991,-8.587,8.111,3.0
84.749,-7.479,6.607,7.0
86.458,-7.606,6.261,5.0
105.551,-9.259,7.057,5.0
99.66,-8.751,9.474,6.0
96.416,-8.439,8.627,9.0
115.477,-10.074,9.688,15.0
105.82,-9.203,8.277,18.0
97.56,-8.458,7.088,10.0
105.414,-9.111,7.073,5.0
99.349,-8.595,9.468,6.0
101.329,-8.737,9.09,5.0
105.771,-9.09,8.898,13.0
84.56,-7.243,6.633,11.0
97.782,-8.35,7.125,10.0
108.117,-9.203,7.276,5.0
108.514,-9.245,10.364,6.0
106.725,-9.062,9.594,22.0
106.328,-8.998,8.964,4.0
96.888,-8.171,7.617,9.0
98.654,-8.292,7.206,8.0
100.66,-8.434,6.791,1.0
106.712,-8.947,10.209,6.0
106.184,-8.873,9.562,7.0
98.41,-8.195,8.31,6.0
86.145,-7.149,6.784,3.0
85.067,-7.037,6.224,7.0
108.727,-8.964,7.348,10.0
106.659,-8.799,10.215,4.0
105.519,-8.674,9.514,2.0
97.336,-7.974,8.229,4.0
106.051,-8.657,8.361,6.0
96.557,-7.855,7.073,3.0
108.766,-8.818,7.36,8.0
0.0,0.0,0.0,0.0
107.674,-8.704,9.715,4.0
107.754,-8.679,9.117,11.0
98.165,-7.879,7.745,15.0
100.747,-8.057,7.385,8.0
108.697,-8.663,7.359,7.0
0.0,0.0,0.0,0.0
108.166,-8.592,9.763,7.0
98.692,-7.811,8.352,8.0
107.893,-8.509,8.514,5.0
0.0,0.0,0.0,0.0
115.936,-9.078,7.85,3.0
0.0,0.0,0.0,0.0
0.0,0.0,0.0,0.0
108.868,-8.462,9.211,5.0
107.904,-8.356,8.512,7.0
148.43,-11.452,10.875,19.0
107.501,-8.264,7.274,2.0
0.0,0.0,0.0,0.0
107.183,-8.209,9.666,2.0
148.363,-11.32,12.543,5.0
105.513,-8.02,8.315,2.0
108.601,-8.222,7.949,2.0
157.688,-11.894,10.656,12.0
0.0,0.0,0.0,0.0
0.0,0.0,0.0,0.0
108.42,-8.115,9.154,5.0
148.663,-11.083,11.699,4.0
206.974,-15.371,15.123,17.0
149.102,-11.031,10.057,7.0
0.0,0.0,0.0,0.0
0.0,0.0,0.0,0.0
0.0,0.0,0.0,0.0
108.684,-7.942,8.535,11.0
207.365,-15.096,15.118,14.0
206.876,-15.003,13.917,9.0
0.0,0.0,0.0,0.0
0.0,0.0,0.0,0.0
108.903,-7.831,9.157,10.0
108.895,-7.798,8.53,2.0
109.111,-7.783,7.932,7.0
207.232,-14.725,13.897,10.0
0.0,0.0,0.0,0.0
0.0,0.0,0.0,0.0
0.0,0.0,0.0,0.0
0.0,0.0,0.0,0.0
211.039,-14.742,15.29,6.0
150.701,-10.483,10.068,10.0
0.0,0.0,0.0,0.0
0.0,0.0,0.0,0.0
0.0,0.0,0.0,0.0
109.201,-7.496,8.497,2.0
150.28,-10.273,10.843,4.0
148.363,-10.101,9.866,8.0
0.0,0.0,0.0,0.0
0.0,0.0,0.0,0.0
0.0,0.0,0.0,0.0
0.0,0.0,0.0,0.0
0.0,0.0,0.0,0.0
210.004,-13.979,13.894,21.0
0.0,0.0,0.0,0.0
0.0,0.0,0.0,0.0
0.0,0.0,0.0,0.0
0.0,0.0,0.0,0.0
0.0,0.0,0.0,0.0
0.0,0.0,0.0,0.0
0.0,0.0,0.0,0.0
0.0,0.0,0.0,0.0
0.0,0.0,0.0,0.0
0.0,0.0,0.0,0.0
0.0,0.0,0.0,0.0
203.206,-12.915,13.277,8.0
0.0,0.0,0.0,0.0
0.0,0.0,0.0,0.0
0.0,0.0,0.0,0.0
0.0,0.0,0.0,0.0
0.0,0.0,0.0,0.0
0.0,0.0,0.0,0.0
0.0,0.0,0.0,0.0
0.0,0.0,0.0,0.0
0.0,0.0,0.0,0.0
0.0,0.0,0.0,0.0
0.0,0.0,0.0,0.0
0.0,0.0,0.0,0.0
0.0,0.0,0.0,0.0
0.0,0.0,0.0,0.0
0.0,0.0,0.0,0.0
0.0,0.0,0.0,0.0
0.0,0.0,0.0,0.0
0.0,0.0,0.0,0.0
0.0,0.0,0.0,0.0
0.0,0.0,0.0,0.0
0.0,0.0,0.0,0.0
0.0,0.0,0.0,0.0
0.0,0.0,0.0,0.0
0.0,0.0,0.0,0.0
0.0,0.0,0.0,0.0
0.0,0.0,0.0,0.0
0.0,0.0,0.0,0.0
0.0,0.0,0.0,0.0
0.0,0.0,0.0,0.0
0.0,0.0,0.0,0.0
0.0,0.0,0.0,0.0
0.0,0.0,0.0,0.0
0.0,0.0,0.0,0.0
0.0,0.0,0.0,0.0
0.0,0.0,0.0,0.0
0.0,0.0,0.0,0.0
92.394,-5.017,8.301,4.0
0.0,0.0,0.0,0.0
83.053,-4.462,6.508,3.0
91.432,-4.886,6.633,3.0
0.0,0.0,0.0,0.0
0.0,0.0,0.0,0.0
92.438,-4.877,8.236,1.0
93.43,-4.903,7.787,2.0
98.573,-5.144,7.65,1.0
91.371,-4.744,6.558,4.0
0.0,0.0,0.0,0.0
0.0,0.0,0.0,0.0
92.474,-4.738,8.167,3.0
93.349,-4.757,7.707,6.0
92.655,-4.696,7.117,2.0
91.449,-4.61,6.492,3.0
90.447,-4.534,5.902,1.0
0.0,0.0,0.0,0.0
0.0,0.0,0.0,0.0
93.38,-4.617,7.632,6.0
92.144,-4.529,7.0,6.0
91.416,-4.468,6.411,4.0
92.079,-4.476,5.929,2.0
0.0,0.0,0.0,0.0
97.882,-4.717,8.477,4.0
93.297,-4.47,7.542,4.0
92.16,-4.391,6.921,5.0
89.768,-4.253,6.216,5.0
92.227,-4.346,5.857,3.0
0.0,0.0,0.0,0.0
83.888,-3.917,7.188,9.0
92.79,-4.308,7.416,10.0
83.531,-3.855,6.196,6.0
89.695,-4.116,6.128,3.0
0.0,0.0,0.0,0.0
0.0,0.0,0.0,0.0
83.767,-3.785,7.098,6.0
93.106,-4.181,7.352,1.0
83.511,-3.728,6.113,7.0
89.725,-3.982,6.042,6.0
0.0,0.0,0.0,0.0
0.0,0.0,0.0,0.0
92.63,-4.046,7.755,13.0
90.382,-3.923,7.045,7.0
83.412,-3.598,6.021,5.0
89.674,-3.845,5.948,4.0
83.22,-3.548,5.041,4.0
0.0,0.0,0.0,0.0
83.316,-3.516,6.89,12.0
90.308,-3.787,6.946,10.0
83.263,-3.469,5.924,9.0
90.394,-3.743,5.901,7.0
97.847,-4.026,5.824,7.0
0.0,0.0,0.0,0.0
91.338,-3.719,7.454,6.0
92.517,-3.743,7.015,14.0
83.357,-3.351,5.839,11.0
93.257,-3.726,5.986,10.0
98.331,-3.903,5.745,3.0
0.0,0.0,0.0,0.0
83.737,-3.286,6.739,5.0
92.985,-3.626,6.947,15.0
83.31,-3.228,5.742,6.0
93.746,-3.608,5.911,6.0
98.514,-3.767,5.644,1.0
0.0,0.0,0.0,0.0
91.549,-3.459,7.262,5.0
90.568,-3.399,6.659,5.0
90.609,-3.377,6.138,12.0
174.498,-6.462,10.797,30.0
0.0,0.0,0.0,0.0
0.0,0.0,0.0,0.0
91.608,-3.329,7.157,19.0
83.074,-2.997,6.008,11.0
93.167,-3.339,6.199,12.0
174.6,-6.217,10.591,39.0
0.0,0.0,0.0,0.0
0.0,0.0,0.0,0.0
92.551,-3.232,7.117,14.0
83.068,-2.88,5.905,16.0
93.171,-3.208,6.084,22.0
174.636,-5.971,10.378,36.0
0.0,0.0,0.0,0.0
0.0,0.0,0.0,0.0
92.778,-3.11,7.017,5.0
83.134,-2.766,5.804,28.0
172.583,-5.702,11.05,20.0
175.025,-5.742,10.178,22.0
0.0,0.0,0.0,0.0
0.0,0.0,0.0,0.0
83.172,-2.673,6.182,13.0
83.28,-2.656,5.706,36.0
93.0,-2.945,5.834,50.0
90.541,-2.846,5.146,23.0
0.0,0.0,0.0,0.0
0.0,0.0,0.0,0.0
83.118,-2.556,6.066,5.0
83.617,-2.552,5.616,62.0
90.579,-2.743,5.558,29.0
90.496,-2.72,5.019,34.0
0.0,0.0,0.0,0.0
0.0,0.0,0.0,0.0
83.632,-2.457,5.986,45.0
98.716,-2.879,6.493,17.0
83.454,-2.415,5.005,41.0
90.449,-2.597,4.891,59.0
178.424,-5.085,8.618,18.0
128.977,-3.648,5.484,19.0
93.281,-2.617,6.546,4.0
92.325,-2.57,5.943,57.0
90.318,-2.494,5.289,21.0
90.472,-2.479,4.764,55.0
128.987,-3.505,6.044,36.0
129.118,-3.481,5.304,46.0
101.049,-2.702,6.944,2.0
92.329,-2.448,5.807,11.0
83.596,-2.198,4.773,46.0
93.068,-2.428,4.765,17.0
129.017,-3.339,5.859,48.0
40.249,-1.033,1.594,6.0
97.599,-2.482,6.562,6.0
97.883,-2.469,6.012,25.0
83.675,-2.092,4.653,38.0
90.531,-2.245,4.499,35.0
128.867,-3.169,5.657,39.0
40.229,-0.981,1.533,28.0
84.583,-2.043,5.558,17.0
91.419,-2.189,5.475,10.0
92.156,-2.188,4.983,22.0
90.576,-2.131,4.362,56.0
129.559,-3.022,5.489,22.0
185.611,-4.29,6.785,40.0
84.085,-1.924,5.393,36.0
91.39,-2.073,5.33,70.0
92.079,-2.069,4.834,24.0
90.579,-2.017,4.22,29.0
191.573,-4.228,7.812,28.0
185.538,-4.059,6.49,54.0
84.128,-1.821,5.263,44.0
91.348,-1.959,5.182,27.0
91.691,-1.948,4.667,80.0
128.974,-2.714,5.801,15.0
191.371,-3.99,7.498,26.0
185.369,-3.83,6.187,48.0
84.106,-1.718,5.124,42.0
83.771,-1.695,4.616,40.0
91.325,-1.83,4.5,80.0
128.485,-2.55,5.571,35.0
185.433,-3.645,6.962,28.0
40.343,-0.785,1.28,11.0
84.104,-1.618,4.984,46.0
127.18,-2.421,6.795,32.0
90.678,-1.709,4.316,25.0
128.545,-2.398,5.357,29.0
184.557,-3.41,6.62,33.0
40.313,-0.737,1.211,12.0
84.102,-1.519,4.841,25.0
127.052,-2.271,6.574,29.0
92.979,-1.645,4.269,33.0
184.41,-3.231,7.376,27.0
151.415,-2.625,5.175,45.0
151.471,-2.598,4.297,87.0
83.906,-1.42,4.686,52.0
90.795,-1.521,4.542,29.0
91.45,-1.515,4.041,55.0
128.073,-2.099,4.901,25.0
151.437,-2.455,4.914,100.0
151.448,-2.429,4.034,43.0
83.878,-1.326,4.538,55.0
90.928,-1.422,4.39,40.0
91.496,-1.415,3.884,72.0
129.209,-1.976,4.719,21.0
151.469,-2.291,4.651,97.0
183.399,-2.742,4.563,78.0
83.881,-1.236,4.39,40.0
85.804,-1.249,3.99,151.0
99.477,-1.432,4.047,42.0
86.932,-1.237,3.02,9.0
86.923,-1.222,2.513,52.0
86.947,-1.207,2.008,44.0
83.885,-1.147,4.24,16.0
85.795,-1.159,3.835,150.0
86.019,-1.148,3.343,61.0
109.478,-1.443,3.606,4.0
79.514,-1.035,2.155,1.0
79.409,-1.021,1.69,8.0
79.198,-1.002,3.858,167.0
79.39,-0.992,3.405,150.0
79.388,-0.979,2.941,150.0
79.385,-0.967,2.47,150.0
79.437,-0.955,2.008,151.0
79.433,-0.943,1.547,163.0
0.0,0.0,0.0,0.0
79.416,-0.913,3.258,150.0
79.423,-0.901,2.796,151.0
79.426,-0.889,2.324,153.0
79.422,-0.877,1.862,182.0
79.433,-0.865,1.399,181.0
85.883,-0.919,3.866,150.0
79.42,-0.838,3.112,177.0
79.424,-0.826,2.649,151.0
79.438,-0.815,2.177,151.0
79.432,-0.803,1.715,178.0
79.433,-0.791,1.252,192.0
86.001,-0.84,3.71,26.0
79.429,-0.765,2.964,164.0
79.42,-0.753,2.499,150.0
79.431,-0.742,2.027,155.0
79.441,-0.731,1.564,170.0
79.441,-0.719,1.1,170.0
79.415,-0.704,3.274,150.0
79.416,-0.693,2.81,150.0
79.416,-0.682,2.346,150.0
79.422,-0.67,1.873,187.0
79.443,-0.66,1.411,168.0
79.451,-0.65,0.948,176.0
79.42,-0.635,3.121,162.0
79.412,-0.624,2.656,150.0
79.429,-0.614,2.192,153.0
79.427,-0.603,1.721,188.0
79.446,-0.593,1.259,167.0
79.458,-0.583,0.795,165.0
79.412,-0.568,2.965,150.0
79.413,-0.558,2.502,150.0
79.432,-0.549,2.039,176.0
79.439,-0.538,1.566,176.0
79.456,-0.528,1.102,162.0
79.373,-0.518,0.639,62.0
79.422,-0.505,2.81,150.0
79.44,-0.495,2.346,152.0
79.426,-0.485,1.881,189.0
79.443,-0.475,1.409,170.0
79.464,-0.466,0.946,162.0
76.7,-0.44,0.465,15.0
79.43,-0.443,2.651,151.0
79.427,-0.434,2.187,169.0
79.428,-0.425,1.723,194.0
79.441,-0.416,1.251,161.0
79.466,-0.407,0.788,162.0
61.36,-0.307,0.25,14.0
79.42,-0.385,2.493,150.0
79.441,-0.376,2.029,151.0
79.391,-0.367,1.563,255.0
79.457,-0.359,1.093,151.0
0.0,0.0,0.0,0.0
0.0,0.0,0.0,0.0
79.441,-0.329,2.332,151.0
79.444,-0.32,1.867,156.0
79.438,-0.312,1.403,178.0
79.458,-0.304,0.931,151.0
76.452,-0.284,0.449,12.0
46.153,-0.166,0.001,13.0
79.434,-0.276,2.17,151.0
79.443,-0.268,1.705,162.0
79.444,-0.26,1.24,154.0
79.45,-0.252,0.768,150.0
61.425,-0.188,0.235,9.0
42.231,-0.125,-0.085,17.0
79.446,-0.226,2.008,151.0
79.435,-0.218,1.542,179.0
79.456,-0.21,1.077,153.0
79.234,-0.202,0.604,33.0
51.231,-0.126,0.091,10.0
39.964,-0.094,-0.162,18.0
79.446,-0.179,1.845,151.0
79.452,-0.171,1.38,158.0
79.456,-0.164,0.915,155.0
76.135,-0.15,0.424,13.0
45.958,-0.086,-0.012,20.0
38.89,-0.07,-0.237,11.0
79.455,-0.134,1.681,151.0
79.457,-0.127,1.216,156.0
79.474,-0.12,0.75,150.0
56.105,-0.08,0.197,20.0
0.0,0.0,0.0,0.0
37.778,-0.047,-0.309,1.0
79.444,-0.092,1.514,167.0
79.467,-0.086,1.05,157.0
79.17,-0.079,0.584,9.0
48.202,-0.044,0.068,5.0
39.498,-0.033,-0.174,23.0
32.83,-0.025,-0.337,1.0
79.453,-0.054,1.35,155.0
79.457,-0.048,0.885,191.0
75.985,-0.04,0.401,9.0
0.0,0.0,0.0,0.0
38.507,-0.014,-0.25,7.0
30.659,-0.009,-0.379,1.0
79.463,-0.018,1.183,151.0
79.431,-0.012,0.717,140.0
0.0,0.0,0.0,0.0
40.631,0.0,-0.112,17.0
34.581,0.001,-0.298,0.0
29.366,0.003,-0.424,2.0
79.467,0.014,1.015,151.0
76.226,0.019,0.528,17.0
47.778,0.015,0.051,21.0
39.066,0.015,-0.19,15.0
32.209,0.014,-0.345,1.0
28.02,0.014,-0.464,1.0
79.468,0.045,0.847,151.0
61.769,0.038,0.297,9.0
0.0,0.0,0.0,0.0
38.213,0.028,-0.267,5.0
30.217,0.024,-0.388,1.0
26.762,0.023,-0.5,2.0
79.435,0.072,0.677,29.0
54.234,0.052,0.145,28.0
40.053,0.04,-0.127,16.0
33.511,0.036,-0.305,0.0
29.089,0.032,-0.435,2.0
25.646,0.03,-0.534,1.0
75.983,0.092,0.487,13.0
0.0,0.0,0.0,0.0
38.798,0.051,-0.205,14.0
31.502,0.043,-0.354,1.0
27.611,0.039,-0.472,1.0
24.262,0.035,-0.556,2.0
58.782,0.087,0.252,9.0
43.893,0.067,-0.068,10.0
38.077,0.059,-0.282,3.0
29.837,0.048,-0.399,2.0
26.533,0.044,-0.51,2.0
23.398,0.039,-0.586,2.0
53.703,0.091,0.115,28.0
39.374,0.069,-0.145,39.0
33.243,0.059,-0.317,1.0
28.701,0.052,-0.444,2.0
25.33,0.047,-0.541,1.0
22.538,0.042,-0.613,2.0
0.0,0.0,0.0,0.0
38.439,0.074,-0.223,14.0
31.031,0.061,-0.361,1.0
27.217,0.054,-0.479,1.0
23.947,0.048,-0.562,2.0
21.538,0.044,-0.632,3.0
40.67,0.083,-0.085,17.0
37.837,0.079,-0.301,1.0
29.632,0.062,-0.409,2.0
26.196,0.056,-0.518,2.0
23.201,0.05,-0.594,3.0
20.744,0.045,-0.653,2.0
39.009,0.084,-0.165,38.0
32.749,0.072,-0.33,1.0
28.314,0.062,-0.451,2.0
24.852,0.055,-0.544,1.0
22.312,0.05,-0.619,2.0
19.869,0.045,-0.667,2.0
38.142,0.086,-0.242,6.0
30.602,0.069,-0.373,1.0
26.909,0.061,-0.486,2.0
23.702,0.054,-0.569,2.0
21.303,0.049,-0.636,3.0
18.903,0.044,-0.676,8.0
33.714,0.077,-0.286,0.0
29.269,0.067,-0.42,2.0
25.902,0.06,-0.523,1.0
22.896,0.053,-0.599,2.0
20.462,0.048,-0.655,2.0
18.464,0.043,-0.699,2.0
31.832,0.073,-0.338,1.0
27.884,0.064,-0.459,1.0
24.502,0.056,-0.547,1.0
22.008,0.051,-0.622,2.0
19.548,0.045,-0.667,3.0
17.786,0.041,-0.711,1.0
30.096,0.068,-0.383,2.0
26.652,0.06,-0.496,2.0
23.515,0.053,-0.575,2.0
21.119,0.048,-0.642,3.0
18.833,0.042,-0.683,8.0
17.206,0.039,-0.725,0.0
28.97,0.063,-0.43,2.0
25.516,0.056,-0.528,1.0
22.701,0.049,-0.603,2.0
20.245,0.044,-0.658,2.0
18.274,0.039,-0.701,1.0
16.235,0.035,-0.718,0.0
27.467,0.057,-0.465,1.0
24.209,0.05,-0.551,2.0
21.74,0.045,-0.622,2.0
19.318,0.039,-0.668,3.0
17.633,0.036,-0.713,1.0
15.862,0.032,-0.734,8.0
26.411,0.051,-0.502,3.0
23.326,0.045,-0.58,3.0
20.941,0.04,-0.643,3.0
18.726,0.035,-0.687,3.0
17.087,0.032,-0.727,0.0
15.626,0.029,-0.756,1.0
25.242,0.044,-0.533,1.0
22.506,0.039,-0.607,2.0
20.064,0.034,-0.658,2.0
18.075,0.03,-0.701,1.0
15.903,0.026,-0.71,2.0
15.06,0.025,-0.76,2.0
23.959,0.036,-0.555,3.0
21.532,0.032,-0.625,2.0
19.096,0.028,-0.666,3.0
17.508,0.025,-0.715,1.0
15.85,0.022,-0.74,11.0
14.697,0.02,-0.773,1.0
23.17,0.029,-0.585,3.0
20.725,0.026,-0.645,2.0
18.632,0.022,-0.688,3.0
17.049,0.02,-0.732,0.0
15.503,0.018,-0.756,1.0
14.244,0.016,-0.778,1.0
22.258,0.022,-0.608,3.0
19.875,0.019,-0.659,2.0
17.998,0.016,-0.702,1.0
15.874,0.014,-0.714,9.0
15.005,0.012,-0.763,1.0
13.858,0.011,-0.786,1.0
21.389,0.014,-0.628,4.0
19.038,0.011,-0.67,2.0
17.409,0.01,-0.714,1.0
15.852,0.008,-0.745,10.0
14.599,0.007,-0.772,1.0
13.51,0.006,-0.793,1.0
20.579,0.006,-0.646,2.0
18.505,0.004,-0.689,2.0
16.898,0.003,-0.728,0.0
15.334,0.002,-0.752,1.0
14.188,0.001,-0.779,1.0
13.196,0.0,-0.801,0.0
19.714,-0.001,-0.658,2.0
17.874,-0.002,-0.701,1.0
15.893,-0.003,-0.716,5.0
14.948,-0.003,-0.762,1.0
13.796,-0.004,-0.785,1.0
12.876,-0.004,-0.808,0.0
18.973,-0.01,-0.671,3.0
17.342,-0.01,-0.714,1.0
15.859,-0.01,-0.746,5.0
14.554,-0.01,-0.771,1.0
13.47,-0.01,-0.793,1.0
12.587,-0.01,-0.815,0.0
18.408,-0.018,-0.687,2.0
16.793,-0.017,-0.725,0.0
15.308,-0.017,-0.75,1.0
14.135,-0.016,-0.777,1.0
13.168,-0.016,-0.801,1.0
12.322,-0.016,-0.822,0.0
17.816,-0.026,-0.7,1.0
16.077,-0.025,-0.725,1.0
14.891,-0.024,-0.759,1.0
13.785,-0.023,-0.784,1.0
12.889,-0.022,-0.809,0.0
12.053,-0.022,-0.827,0.0
17.266,-0.035,-0.711,1.0
15.727,-0.033,-0.74,1.0
14.543,-0.031,-0.769,1.0
13.466,-0.03,-0.792,1.0
12.575,-0.029,-0.813,0.0
11.794,-0.028,-0.832,0.0
16.711,-0.043,-0.72,1.0
15.279,-0.041,-0.748,1.0
14.154,-0.039,-0.776,1.0
13.171,-0.037,-0.8,1.0
12.332,-0.036,-0.821,0.0
11.56,-0.034,-0.838,0.0
16.155,-0.051,-0.727,1.0
14.894,-0.049,-0.757,1.0
13.785,-0.046,-0.781,1.0
12.882,-0.044,-0.807,0.0
12.065,-0.042,-0.826,0.0
11.344,-0.041,-0.843,0.0
15.725,-0.06,-0.737,1.0
14.565,-0.057,-0.767,1.0
13.507,-0.054,-0.79,1.0
12.6,-0.051,-0.812,0.0
11.811,-0.049,-0.831,0.0
11.121,-0.047,-0.847,0.0
15.331,-0.069,-0.746,1.0
14.184,-0.065,-0.773,1.0
13.218,-0.062,-0.798,1.0
12.334,-0.059,-0.818,0.0
11.59,-0.056,-0.836,0.0
10.917,-0.054,-0.852,0.0
14.942,-0.077,-0.754,1.0
13.838,-0.073,-0.779,1.0
12.945,-0.07,-0.805,0.0
12.081,-0.066,-0.823,0.0
11.387,-0.063,-0.842,0.0
10.692,-0.061,-0.853,1.0
14.619,-0.086,-0.764,1.0
13.56,-0.081,-0.788,1.0
12.651,-0.077,-0.809,0.0
11.863,-0.074,-0.829,0.0
11.16,-0.07,-0.845,0.0
10.574,-0.068,-0.863,1.0
14.252,-0.095,-0.77,1.0
13.284,-0.09,-0.795,1.0
12.426,-0.085,-0.816,0.0
11.653,-0.081,-0.834,0.0
10.986,-0.078,-0.851,0.0
10.373,-0.075,-0.864,0.0
13.931,-0.104,-0.776,0.0
13.016,-0.098,-0.801,1.0
12.189,-0.093,-0.821,0.0
11.463,-0.089,-0.841,0.0
10.731,-0.085,-0.85,1.0
10.212,-0.082,-0.868,0.0
13.635,-0.113,-0.783,0.0
12.777,-0.107,-0.808,1.0
11.955,-0.101,-0.826,1.0
11.241,-0.097,-0.843,0.0
10.633,-0.093,-0.86,1.0
10.051,-0.089,-0.872,0.0
13.393,-0.122,-0.791,1.0
12.518,-0.115,-0.813,0.0
11.75,-0.11,-0.831,0.0
11.05,-0.104,-0.847,0.0
10.444,-0.1,-0.862,0.0
9.902,-0.096,-0.875,0.0
13.142,-0.131,-0.798,1.0
12.283,-0.124,-0.817,0.0
11.562,-0.118,-0.837,0.0
10.837,-0.112,-0.849,0.0
10.3,-0.108,-0.867,0.0
9.76,-0.103,-0.879,1.0
12.887,-0.14,-0.803,0.0
12.054,-0.132,-0.821,1.0
11.385,-0.126,-0.842,0.0
10.701,-0.12,-0.855,0.0
10.117,-0.115,-0.868,1.0
9.607,-0.111,-0.88,0.0
12.64,-0.149,-0.808,1.0
11.864,-0.141,-0.827,1.0
11.166,-0.135,-0.844,0.0
10.546,-0.129,-0.859,0.0
9.962,-0.123,-0.87,1.0
9.481,-0.118,-0.884,0.0
12.433,-0.158,-0.814,0.0
11.666,-0.15,-0.832,0.0
10.996,-0.143,-0.848,0.0
10.404,-0.137,-0.864,0.0
9.822,-0.131,-0.873,1.0
9.365,-0.126,-0.887,0.0
12.216,-0.168,-0.819,0.0
11.506,-0.159,-0.838,0.0
10.829,-0.152,-0.851,0.0
10.194,-0.144,-0.862,0.0
9.699,-0.139,-0.877,0.0
9.229,-0.133,-0.888,0.0
12.004,-0.177,-0.822,1.0
11.315,-0.168,-0.841,0.0
10.686,-0.161,-0.856,0.0
10.053,-0.152,-0.865,1.0
9.569,-0.147,-0.879,0.0
9.093,-0.141,-0.889,0.0
11.837,-0.186,-0.828,1.0
11.161,-0.177,-0.845,0.0
10.535,-0.169,-0.859,0.0
9.93,-0.161,-0.869,2.0
9.459,-0.155,-0.883,0.0
8.994,-0.149,-0.892,0.0
11.641,-0.195,-0.831,0.0
11.021,-0.187,-0.85,0.0
10.392,-0.178,-0.862,0.0
9.819,-0.169,-0.873,2.0
9.357,-0.163,-0.886,0.0
8.906,-0.157,-0.895,0.0
11.504,-0.205,-0.837,0.0
10.839,-0.195,-0.851,0.0
10.209,-0.186,-0.861,0.0
9.735,-0.179,-0.879,1.0
9.238,-0.171,-0.888,0.0
8.789,-0.164,-0.896,0.0
11.34,-0.215,-0.84,0.0
10.705,-0.205,-0.855,0.0
10.077,-0.194,-0.863,0.0
9.607,-0.187,-0.88,0.0
9.132,-0.179,-0.889,0.0
8.694,-0.172,-0.898,0.0
11.172,-0.224,-0.842,0.0
10.574,-0.214,-0.858,0.0
9.961,-0.203,-0.866,1.0
9.501,-0.195,-0.882,0.0
9.034,-0.187,-0.892,0.0
8.605,-0.18,-0.899,0.0
11.043,-0.234,-0.846,0.0
10.463,-0.223,-0.862,0.0
9.839,-0.212,-0.868,2.0
9.394,-0.204,-0.884,0.0
8.939,-0.196,-0.893,0.0
8.517,-0.188,-0.901,0.0
10.908,-0.243,-0.849,0.0
10.311,-0.232,-0.862,0.0
9.77,-0.221,-0.874,2.0
9.292,-0.212,-0.886,0.0
8.844,-0.204,-0.894,0.0
8.457,-0.196,-0.905,0.0
10.776,-0.253,-0.852,0.0
10.193,-0.241,-0.864,0.0
9.688,-0.231,-0.878,0.0
9.198,-0.221,-0.888,0.0
8.75,-0.212,-0.895,0.0
8.371,-0.204,-0.905,0.0
10.664,-0.263,-0.855,0.0
10.046,-0.249,-0.863,0.0
9.571,-0.239,-0.878,0.0
9.115,-0.23,-0.89,0.0
8.666,-0.22,-0.896,0.0
8.292,-0.212,-0.906,0.0
10.552,-0.272,-0.857,0.0
9.929,-0.258,-0.864,1.0
9.46,-0.248,-0.878,0.0
9.011,-0.238,-0.89,0.0
8.603,-0.229,-0.899,0.0
8.229,-0.221,-0.908,0.0
10.442,-0.282,-0.86,0.0
9.846,-0.268,-0.867,2.0
9.405,-0.258,-0.883,0.0
8.933,-0.247,-0.891,0.0
8.546,-0.238,-0.902,0.0
8.173,-0.229,-0.91,0.0
10.344,-0.292,-0.862,0.0
9.782,-0.278,-0.872,2.0
9.314,-0.267,-0.884,0.0
8.861,-0.256,-0.893,0.0
8.466,-0.246,-0.902,0.0
8.105,-0.237,-0.911,0.0
10.227,-0.301,-0.862,0.0
9.735,-0.289,-0.877,1.0
9.217,-0.275,-0.883,0.0
8.787,-0.264,-0.894,0.0
8.405,-0.254,-0.904,0.0
8.065,-0.246,-0.914,0.0
10.123,-0.311,-0.863,0.0
9.637,-0.298,-0.877,0.0
9.158,-0.285,-0.886,0.0
8.705,-0.273,-0.894,0.0
8.34,-0.263,-0.904,0.0
8.016,-0.254,-0.916,0.0
10.031,-0.32,-0.864,0.0
9.552,-0.307,-0.878,0.0
9.089,-0.294,-0.888,0.0
8.66,-0.282,-0.897,0.0
8.284,-0.272,-0.905,0.0
7.949,-0.262,-0.915,0.0
9.936,-0.33,-0.865,1.0
9.477,-0.317,-0.879,0.0
9.035,-0.304,-0.89,0.0
8.597,-0.291,-0.897,0.0
8.243,-0.281,-0.908,0.0
7.914,-0.271,-0.917,0.0
9.865,-0.34,-0.866,2.0
9.423,-0.327,-0.882,0.0
8.972,-0.313,-0.891,0.0
8.544,-0.3,-0.898,0.0
8.19,-0.289,-0.908,0.0
7.882,-0.28,-0.92,0.0
9.801,-0.35,-0.868,2.0
9.368,-0.337,-0.883,0.0
8.897,-0.322,-0.89,0.0
8.504,-0.31,-0.901,0.0
8.152,-0.299,-0.91,0.0
7.84,-0.289,-0.921,0.0
9.775,-0.362,-0.873,2.0
9.305,-0.346,-0.884,0.0
8.847,-0.331,-0.891,0.0
8.45,-0.318,-0.901,0.0
8.106,-0.307,-0.911,0.0
7.781,-0.297,-0.919,0.0
9.75,-0.373,-0.877,1.0
9.244,-0.356,-0.885,0.0
8.796,-0.341,-0.892,0.0
8.408,-0.328,-0.902,0.0
8.064,-0.316,-0.911,0.0
7.751,-0.306,-0.921,0.0
9.68,-0.383,-0.877,0.0
9.198,-0.366,-0.886,0.0
8.754,-0.351,-0.893,0.0
8.359,-0.337,-0.902,0.0
8.023,-0.325,-0.912,0.0
7.723,-0.315,-0.922,0.0
9.616,-0.393,-0.877,0.0
9.141,-0.376,-0.886,0.0
8.712,-0.36,-0.894,0.0
8.318,-0.346,-0.902,0.0
7.992,-0.334,-0.913,0.0
7.726,-0.325,-0.927,0.0
9.555,-0.403,-0.877,0.0
9.105,-0.386,-0.887,0.0
8.679,-0.37,-0.895,0.0
8.295,-0.355,-0.904,0.0
7.969,-0.343,-0.914,0.0
7.684,-0.333,-0.926,0.0
9.516,-0.414,-0.878,0.0
9.065,-0.396,-0.888,0.0
8.637,-0.379,-0.895,0.0
8.263,-0.365,-0.905,0.0
7.948,-0.353,-0.916,0.0
7.657,-0.342,-0.926,0.0
9.485,-0.425,-0.879,0.0
9.021,-0.406,-0.888,0.0
8.617,-0.39,-0.897,0.0
8.25,-0.375,-0.907,0.0
7.92,-0.362,-0.916,0.0
7.636,-0.351,-0.927,0.0
9.44,-0.435,-0.879,0.0
9.001,-0.417,-0.889,0.0
8.574,-0.399,-0.896,0.0
8.228,-0.385,-0.908,0.0
7.904,-0.371,-0.917,0.0
7.607,-0.359,-0.926,0.0
9.417,-0.446,-0.88,0.0
8.97,-0.427,-0.889,0.0
8.578,-0.41,-0.899,0.0
8.215,-0.395,-0.909,0.0
7.885,-0.381,-0.917,0.0
7.589,-0.368,-0.926,0.0
9.384,-0.456,-0.88,0.0
8.953,-0.438,-0.891,0.0
8.542,-0.419,-0.898,0.0
8.178,-0.404,-0.907,0.0
7.881,-0.391,-0.919,0.0
7.557,-0.377,-0.925,0.0
9.369,-0.468,-0.881,0.0
8.942,-0.448,-0.892,0.0
8.529,-0.43,-0.899,0.0
8.165,-0.413,-0.908,0.0
7.851,-0.399,-0.918,0.0
7.56,-0.386,-0.927,0.0
9.355,-0.479,-0.882,0.0
8.918,-0.459,-0.892,0.0
8.516,-0.44,-0.899,0.0
8.146,-0.423,-0.908,0.0
7.843,-0.409,-0.918,0.0
7.547,-0.396,-0.927,0.0
9.35,-0.491,-0.884,0.0
8.9,-0.469,-0.891,0.0
8.496,-0.45,-0.899,0.0
8.13,-0.432,-0.907,0.0
7.831,-0.418,-0.918,0.0
7.528,-0.404,-0.926,0.0
9.328,-0.501,-0.883,0.0
8.893,-0.48,-0.892,0.0
8.486,-0.46,-0.899,0.0
8.112,-0.442,-0.906,0.0
7.822,-0.428,-0.918,0.0
7.525,-0.413,-0.926,0.0
9.312,-0.512,-0.882,0.0
8.866,-0.49,-0.89,0.0
8.478,-0.47,-0.899,0.0
8.123,-0.453,-0.908,0.0
7.822,-0.438,-0.919,0.0
7.538,-0.424,-0.928,0.0
9.288,-0.522,-0.88,0.0
8.859,-0.5,-0.889,0.0
8.472,-0.48,-0.898,0.0
8.107,-0.462,-0.906,0.0
7.826,-0.448,-0.919,0.0
7.535,-0.433,-0.928,0.0
9.307,-0.535,-0.882,0.0
8.858,-0.511,-0.889,0.0
8.466,-0.49,-0.898,0.0
8.123,-0.472,-0.908,0.0
7.826,-0.457,-0.919,0.0
7.532,-0.442,-0.927,0.0
9.318,-0.547,-0.883,0.0
8.873,-0.523,-0.891,0.0
8.512,-0.503,-0.902,0.0
8.126,-0.483,-0.908,0.0
7.809,-0.466,-0.916,0.0
7.536,-0.451,-0.927,0.0
9.329,-0.559,-0.883,0.0
8.888,-0.534,-0.891,0.0
8.48,-0.512,-0.898,0.0
8.14,-0.493,-0.909,0.0
7.84,-0.477,-0.919,0.0
7.535,-0.46,-0.926,0.0
9.337,-0.57,-0.883,0.0
8.899,-0.546,-0.891,0.0
8.511,-0.524,-0.9,0.0
8.139,-0.503,-0.907,0.0
7.827,-0.486,-0.916,0.0
7.526,-0.469,-0.924,0.0
9.373,-0.584,-0.885,0.0
8.89,-0.556,-0.889,0.0
8.514,-0.534,-0.899,0.0
8.153,-0.513,-0.907,0.0
7.857,-0.497,-0.918,0.0
7.548,-0.479,-0.925,0.0
9.37,-0.594,-0.882,0.0
8.926,-0.568,-0.89,0.0
8.531,-0.545,-0.899,0.0
8.157,-0.523,-0.906,0.0
7.858,-0.506,-0.917,0.0
7.567,-0.489,-0.925,0.0
9.388,-0.606,-0.882,0.0
8.951,-0.58,-0.891,0.0
8.543,-0.556,-0.898,0.0
8.192,-0.535,-0.907,0.0
7.87,-0.516,-0.916,0.0
7.582,-0.499,-0.925,0.0
9.394,-0.617,-0.88,0.0
8.956,-0.59,-0.888,0.0
8.581,-0.568,-0.899,0.0
8.193,-0.544,-0.905,0.0
7.895,-0.526,-0.916,0.0
7.587,-0.507,-0.923,0.0
9.442,-0.631,-0.881,0.0
8.999,-0.603,-0.89,0.0
8.597,-0.578,-0.898,0.0
8.24,-0.556,-0.907,0.0
7.915,-0.536,-0.916,0.0
7.609,-0.517,-0.923,0.0
9.478,-0.644,-0.881,0.0
9.04,-0.616,-0.89,0.0
8.604,-0.588,-0.895,0.0
8.261,-0.567,-0.906,0.0
7.942,-0.546,-0.915,0.0
7.637,-0.527,-0.923,0.0
9.511,-0.656,-0.88,0.0
9.074,-0.628,-0.89,0.0
8.655,-0.601,-0.896,0.0
8.286,-0.577,-0.905,0.0
7.968,-0.557,-0.915,0.0
7.671,-0.538,-0.923,0.0
9.553,-0.669,-0.879,0.0
9.101,-0.639,-0.888,0.0
8.683,-0.612,-0.895,0.0
8.32,-0.588,-0.905,0.0
7.989,-0.566,-0.913,0.0
7.684,-0.546,-0.921,0.0
9.582,-0.681,-0.877,0.0
9.139,-0.651,-0.887,0.0
8.711,-0.622,-0.894,0.0
8.336,-0.597,-0.902,0.0
8.032,-0.577,-0.914,0.0
7.718,-0.557,-0.921,0.0
9.65,-0.695,-0.878,0.0
9.189,-0.664,-0.887,0.0
8.771,-0.635,-0.895,0.0
8.393,-0.61,-0.904,0.0
8.049,-0.587,-0.911,0.0
7.757,-0.567,-0.921,0.0
9.719,-0.709,-0.879,1.0
9.243,-0.677,-0.887,0.0
8.812,-0.647,-0.894,0.0
8.423,-0.62,-0.902,0.0
8.072,-0.596,-0.909,0.0
7.781,-0.576,-0.919,0.0
9.757,-0.721,-0.876,2.0
9.277,-0.688,-0.884,0.0
8.863,-0.659,-0.893,0.0
8.489,-0.633,-0.903,0.0
8.126,-0.608,-0.91,0.0
7.823,-0.587,-0.919,0.0
9.79,-0.733,-0.873,2.0
9.339,-0.701,-0.884,0.0
8.901,-0.67,-0.891,0.0
8.528,-0.644,-0.902,0.0
8.184,-0.619,-0.91,0.0
7.858,-0.596,-0.918,0.0
9.827,-0.745,-0.869,3.0
9.407,-0.715,-0.883,0.0
8.953,-0.682,-0.89,0.0
8.552,-0.653,-0.898,0.0
8.218,-0.629,-0.908,0.0
7.905,-0.607,-0.917,0.0
9.896,-0.758,-0.868,2.0
9.451,-0.726,-0.881,0.0
9.016,-0.694,-0.889,0.0
8.625,-0.666,-0.899,0.0
8.276,-0.641,-0.908,0.0
7.947,-0.617,-0.916,0.0
9.952,-0.771,-0.865,2.0
9.53,-0.74,-0.881,0.0
9.093,-0.708,-0.89,0.0
8.679,-0.677,-0.898,0.0
8.306,-0.65,-0.905,0.0
7.987,-0.626,-0.914,0.0
10.018,-0.784,-0.863,1.0
9.602,-0.753,-0.879,0.0
9.145,-0.719,-0.887,0.0
8.74,-0.689,-0.897,0.0
8.369,-0.661,-0.905,0.0
8.034,-0.636,-0.912,0.0
10.135,-0.801,-0.864,0.0
9.691,-0.768,-0.879,0.0
9.227,-0.733,-0.888,0.0
8.783,-0.699,-0.894,0.0
8.421,-0.672,-0.903,0.0
8.087,-0.647,-0.911,0.0
10.245,-0.818,-0.865,0.0
9.758,-0.78,-0.877,2.0
9.299,-0.745,-0.886,0.0
8.847,-0.711,-0.892,0.0
8.506,-0.685,-0.904,0.0
8.152,-0.658,-0.911,0.0
10.357,-0.834,-0.865,0.0
9.798,-0.791,-0.871,3.0
9.386,-0.759,-0.886,0.0
8.946,-0.725,-0.894,0.0
8.556,-0.695,-0.902,0.0
8.202,-0.667,-0.909,0.0
10.439,-0.848,-0.862,0.0
9.86,-0.802,-0.868,2.0
9.451,-0.77,-0.883,0.0
9.022,-0.737,-0.893,0.0
8.618,-0.705,-0.9,0.0
8.257,-0.677,-0.907,0.0
10.548,-0.863,-0.861,0.0
9.946,-0.816,-0.866,1.0
9.528,-0.783,-0.881,0.0
9.097,-0.749,-0.891,0.0
8.679,-0.716,-0.898,0.0
8.337,-0.689,-0.908,0.0
10.641,-0.877,-0.858,0.0
10.041,-0.829,-0.864,0.0
9.629,-0.797,-0.881,0.0
9.199,-0.763,-0.892,0.0
8.759,-0.727,-0.897,0.0
8.404,-0.699,-0.906,0.0
10.738,-0.892,-0.855,0.0
10.201,-0.848,-0.867,0.0
9.735,-0.811,-0.88,1.0
9.253,-0.772,-0.887,0.0
8.827,-0.738,-0.895,0.0
8.478,-0.71,-0.905,0.0
10.859,-0.908,-0.853,0.0
10.308,-0.863,-0.865,0.0
9.79,-0.821,-0.874,2.0
9.344,-0.785,-0.886,0.0
8.925,-0.751,-0.895,0.0
8.535,-0.719,-0.902,0.0
10.995,-0.924,-0.851,0.0
10.41,-0.877,-0.862,0.0
9.851,-0.831,-0.869,2.0
9.434,-0.797,-0.884,0.0
9.004,-0.762,-0.893,0.0
8.634,-0.732,-0.903,0.0
11.114,-0.94,-0.848,2.0
10.532,-0.892,-0.861,0.0
9.942,-0.843,-0.866,1.0
9.532,-0.809,-0.883,0.0
9.092,-0.773,-0.891,0.0
8.692,-0.74,-0.899,0.0
11.216,-0.953,-0.843,2.0
10.645,-0.906,-0.858,0.0
10.072,-0.858,-0.866,0.0
9.667,-0.825,-0.884,0.0
9.207,-0.787,-0.891,0.0
8.79,-0.752,-0.899,0.0
11.329,-0.967,-0.839,2.0
10.785,-0.922,-0.856,0.0
10.22,-0.875,-0.866,0.0
9.759,-0.836,-0.881,2.0
9.3,-0.798,-0.889,0.0
8.875,-0.762,-0.897,0.0
11.45,-0.982,-0.834,0.0
10.911,-0.936,-0.853,1.0
10.354,-0.89,-0.865,0.0
9.808,-0.844,-0.873,3.0
9.386,-0.808,-0.886,0.0
8.972,-0.774,-0.895,0.0
11.623,-1.0,-0.833,0.0
11.039,-0.951,-0.85,1.0
10.484,-0.904,-0.863,0.0
9.903,-0.855,-0.87,2.0
9.503,-0.821,-0.885,0.0
9.06,-0.784,-0.893,0.0
11.787,-1.017,-0.83,0.0
11.136,-0.962,-0.844,2.0
10.619,-0.918,-0.861,0.0
10.02,-0.867,-0.867,0.0
9.624,-0.834,-0.885,0.0
9.177,-0.796,-0.893,0.0
11.936,-1.033,-0.825,0.0
11.286,-0.977,-0.841,1.0
10.728,-0.93,-0.856,1.0
10.197,-0.885,-0.869,0.0
9.735,-0.845,-0.882,1.0
9.286,-0.807,-0.891,0.0
12.104,-1.05,-0.821,0.0
11.432,-0.992,-0.837,0.0
10.873,-0.944,-0.854,0.0
10.325,-0.898,-0.867,0.0
9.8,-0.853,-0.875,3.0
9.355,-0.815,-0.886,0.0
12.286,-1.067,-0.818,0.0
11.608,-1.009,-0.834,0.0
11.016,-0.958,-0.85,1.0
10.474,-0.912,-0.866,0.0
9.9,-0.862,-0.871,2.0
9.501,-0.828,-0.887,0.0
12.484,-1.086,-0.814,0.0
11.793,-1.027,-0.832,0.0
11.13,-0.969,-0.844,1.0
10.61,-0.925,-0.863,1.0
10.02,-0.874,-0.868,0.0
9.62,-0.84,-0.885,0.0
12.685,-1.105,-0.811,1.0
11.931,-1.039,-0.826,0.0
11.297,-0.985,-0.842,0.0
10.722,-0.935,-0.857,1.0
10.184,-0.888,-0.868,0.0
9.744,-0.851,-0.883,2.0
12.885,-1.122,-0.806,0.0
12.104,-1.055,-0.821,0.0
11.457,-0.999,-0.838,0.0
10.875,-0.948,-0.854,0.0
10.347,-0.903,-0.868,0.0
9.817,-0.857,-0.876,3.0
13.096,-1.14,-0.801,0.0
12.312,-1.072,-0.818,0.0
11.652,-1.015,-0.836,0.0
11.017,-0.96,-0.85,1.0
10.51,-0.916,-0.867,0.0
9.906,-0.864,-0.87,2.0
13.299,-1.157,-0.795,0.0
12.518,-1.09,-0.815,0.0
11.797,-1.027,-0.83,0.0
11.144,-0.97,-0.845,1.0
10.643,-0.927,-0.863,1.0
10.066,-0.877,-0.87,0.0
13.53,-1.176,-0.79,0.0
12.702,-1.104,-0.809,0.0
11.98,-1.041,-0.826,0.0
11.313,-0.984,-0.842,0.0
10.764,-0.936,-0.858,1.0
10.252,-0.891,-0.872,0.0
13.785,-1.196,-0.785,0.0
12.962,-1.125,-0.807,1.0
12.189,-1.058,-0.823,0.0
11.494,-0.997,-0.839,0.0
10.937,-0.949,-0.856,1.0
10.383,-0.901,-0.868,0.0
14.008,-1.213,-0.778,0.0
13.179,-1.141,-0.802,1.0
12.384,-1.072,-0.819,0.0
11.719,-1.014,-0.838,0.0
11.079,-0.959,-0.851,2.0
10.56,-0.914,-0.867,0.0
14.415,-1.245,-0.78,0.0
13.399,-1.157,-0.796,1.0
12.569,-1.085,-0.813,0.0
11.876,-1.025,-0.832,0.0
11.213,-0.967,-0.845,2.0
10.714,-0.924,-0.864,0.0
14.619,-1.259,-0.77,0.0
13.613,-1.171,-0.789,0.0
12.798,-1.101,-0.809,0.0
12.031,-1.035,-0.825,0.0
11.382,-0.979,-0.841,1.0
10.843,-0.932,-0.859,1.0
14.938,-1.281,-0.765,0.0
13.872,-1.189,-0.784,0.0
13.056,-1.119,-0.807,1.0
12.232,-1.048,-0.822,0.0
11.593,-0.992,-0.84,0.0
11.009,-0.942,-0.856,1.0
15.277,-1.305,-0.76,0.0
14.143,-1.207,-0.778,0.0
13.283,-1.133,-0.801,1.0
12.474,-1.063,-0.819,0.0
11.788,-1.004,-0.837,0.0
11.149,-0.95,-0.85,2.0
15.603,-1.326,-0.754,0.0
14.566,-1.237,-0.78,0.0
13.499,-1.146,-0.794,1.0
12.686,-1.076,-0.815,0.0
11.97,-1.015,-0.832,0.0
11.314,-0.958,-0.846,2.0
15.936,-1.347,-0.746,0.0
14.736,-1.245,-0.767,0.0
13.721,-1.158,-0.787,1.0
12.913,-1.089,-0.81,0.0
12.146,-1.024,-0.826,0.0
11.496,-0.968,-0.843,1.0
16.248,-1.366,-0.737,1.0
15.128,-1.27,-0.766,0.0
13.902,-1.166,-0.777,0.0
13.157,-1.103,-0.806,0.0
12.337,-1.033,-0.821,0.0
11.67,-0.977,-0.838,1.0
16.335,-1.364,-0.717,1.0
15.476,-1.291,-0.76,0.0
14.179,-1.182,-0.771,0.0
13.412,-1.117,-0.802,1.0
12.576,-1.046,-0.818,0.0
11.862,-0.986,-0.834,1.0
16.398,-1.36,-0.695,1.0
15.73,-1.303,-0.75,0.0
14.51,-1.201,-0.768,0.0
13.627,-1.126,-0.794,2.0
12.798,-1.057,-0.813,0.0
12.048,-0.994,-0.829,1.0
17.42,-1.434,-0.713,1.0
16.133,-1.326,-0.745,0.0
15.121,-1.241,-0.778,0.0
13.825,-1.134,-0.785,2.0
13.038,-1.068,-0.81,0.0
12.214,-0.999,-0.823,1.0
17.857,-1.458,-0.704,0.0
16.324,-1.331,-0.73,1.0
15.261,-1.242,-0.762,0.0
14.064,-1.143,-0.778,1.0
13.276,-1.078,-0.805,0.0
12.438,-1.009,-0.819,0.0
18.348,-1.485,-0.697,0.0
16.398,-1.325,-0.709,1.0
15.638,-1.262,-0.758,0.0
14.454,-1.164,-0.778,1.0
13.536,-1.089,-0.8,1.0
12.68,-1.019,-0.817,0.0
18.772,-1.505,-0.685,1.0
17.104,-1.369,-0.714,0.0
15.914,-1.272,-0.748,0.0
14.664,-1.17,-0.768,1.0
13.819,-1.101,-0.797,3.0
12.902,-1.026,-0.812,0.0
19.227,-1.526,-0.674,0.0
17.676,-1.401,-0.712,0.0
16.285,-1.288,-0.742,0.0
14.99,-1.184,-0.763,0.0
13.994,-1.103,-0.786,5.0
13.164,-1.036,-0.809,0.0
19.822,-1.557,-0.666,0.0
18.052,-1.415,-0.701,0.0
16.406,-1.284,-0.723,0.0
15.295,-1.195,-0.756,0.0
14.303,-1.115,-0.783,1.0
13.428,-1.045,-0.805,1.0
20.348,-1.58,-0.653,0.0
18.586,-1.441,-0.694,1.0
16.97,-1.313,-0.723,0.0
15.621,-1.206,-0.749,1.0
14.57,-1.122,-0.776,3.0
13.588,-1.045,-0.795,1.0
20.997,-1.611,-0.644,1.0
19.022,-1.457,-0.683,1.0
17.478,-1.335,-0.719,0.0
15.953,-1.216,-0.742,4.0
14.812,-1.127,-0.767,1.0
13.833,-1.05,-0.789,1.0
21.607,-1.637,-0.631,1.0
19.523,-1.476,-0.673,0.0
17.844,-1.346,-0.709,0.0
16.21,-1.22,-0.731,1.0
15.204,-1.142,-0.765,1.0
14.082,-1.055,-0.783,0.0
22.221,-1.662,-0.617,1.0
20.056,-1.496,-0.662,0.0
18.297,-1.361,-0.701,1.0
16.559,-1.229,-0.723,0.0
