X,Y,Z,Reflectivity
17.864,1.03,-0.542,3.0
16.141,0.935,-0.581,3.0
35.196,2.051,-0.305,7.0
29.181,1.708,-0.419,1.0
22.002,1.293,-0.441,4.0
19.454,1.147,-0.502,3.0
17.517,1.037,-0.552,3.0
15.803,0.94,-0.588,3.0
32.664,1.955,-0.322,1.0
24.95,1.498,-0.388,1.0
21.307,1.285,-0.453,4.0
18.964,1.148,-0.513,3.0
17.101,1.039,-0.56,2.0
14.916,0.91,-0.573,3.0
31.208,1.914,-0.346,1.0
24.148,1.487,-0.405,5.0
20.846,1.288,-0.469,4.0
18.471,1.145,-0.522,3.0
16.638,1.036,-0.565,2.0
14.67,0.917,-0.582,15.0
30.324,1.905,-0.374,2.0
23.183,1.461,-0.418,5.0
20.256,1.281,-0.481,3.0
18.036,1.145,-0.533,3.0
16.251,1.035,-0.573,4.0
14.623,0.935,-0.599,15.0
29.593,1.902,-0.403,2.0
22.176,1.43,-0.428,4.0
19.681,1.273,-0.492,3.0
17.572,1.14,-0.541,2.0
15.968,1.04,-0.583,2.0
14.173,0.926,-0.599,15.0
25.085,1.647,-0.373,2.0
21.388,1.409,-0.44,4.0
19.157,1.266,-0.503,3.0
17.147,1.136,-0.55,2.0
15.177,1.009,-0.574,2.0
13.805,0.921,-0.601,14.0
24.393,1.635,-0.395,5.0
20.928,1.407,-0.458,4.0
18.611,1.254,-0.513,3.0
16.76,1.133,-0.56,3.0
14.635,0.992,-0.572,9.0
13.601,0.925,-0.61,11.0
23.314,1.593,-0.407,5.0
20.363,1.395,-0.472,3.0
18.133,1.246,-0.524,3.0
16.33,1.125,-0.567,2.0
14.495,1.002,-0.586,15.0
13.406,0.929,-0.619,11.0
22.272,1.55,-0.419,4.0
19.692,1.374,-0.483,3.0
17.652,1.236,-0.534,4.0
15.912,1.117,-0.574,2.0
13.997,0.985,-0.585,13.0
13.27,0.937,-0.631,8.0
21.485,1.522,-0.433,4.0
19.078,1.355,-0.494,3.0
17.246,1.228,-0.545,2.0
15.218,1.087,-0.569,2.0
13.788,0.987,-0.595,12.0
13.079,0.939,-0.639,9.0
20.924,1.508,-0.45,4.0
18.641,1.347,-0.508,3.0
16.786,1.216,-0.553,2.0
14.562,1.057,-0.565,9.0
13.569,0.988,-0.604,12.0
13.063,0.953,-0.656,10.0
20.305,1.487,-0.465,4.0
18.143,1.332,-0.519,3.0
16.294,1.199,-0.559,2.0
14.129,1.042,-0.568,10.0
13.387,0.99,-0.615,10.0
13.024,0.966,-0.673,12.0
19.686,1.464,-0.478,3.0
17.607,1.312,-0.528,2.0
15.953,1.192,-0.57,3.0
13.859,1.038,-0.576,11.0
13.15,0.987,-0.622,6.0
12.793,0.962,-0.679,4.0
19.132,1.444,-0.491,3.0
17.137,1.296,-0.538,2.0
15.241,1.155,-0.566,3.0
13.641,1.036,-0.586,11.0
13.075,0.995,-0.637,9.0
12.49,0.953,-0.68,3.0
18.598,1.423,-0.504,3.0
16.733,1.283,-0.549,3.0
14.355,1.103,-0.554,8.0
13.464,1.037,-0.598,12.0
13.067,1.008,-0.655,10.0
12.273,0.949,-0.686,3.0
18.081,1.402,-0.515,3.0
16.318,1.267,-0.559,2.0
13.985,1.088,-0.559,12.0
13.349,1.041,-0.612,10.0
13.002,1.016,-0.67,6.0
12.013,0.941,-0.688,3.0
17.538,1.376,-0.525,3.0
15.903,1.25,-0.567,2.0
13.757,1.084,-0.57,8.0
13.119,1.035,-0.62,7.0
12.723,1.006,-0.674,3.0
11.76,0.932,-0.691,2.0
17.102,1.358,-0.537,2.0
14.855,1.182,-0.551,2.0
13.592,1.083,-0.582,10.0
13.049,1.042,-0.636,8.0
12.452,0.996,-0.678,3.0
11.496,0.921,-0.692,2.0
16.636,1.336,-0.546,2.0
14.132,1.137,-0.545,13.0
13.481,1.086,-0.597,12.0
13.059,1.054,-0.655,10.0
12.251,0.991,-0.685,2.0
11.303,0.916,-0.697,1.0
16.208,1.315,-0.556,3.0
13.882,1.128,-0.556,13.0
13.307,1.083,-0.609,9.0
12.957,1.056,-0.669,5.0
11.956,0.977,-0.686,2.0
11.101,0.908,-0.701,1.0
0.0,0.0,0.0,0.0
13.727,1.126,-0.569,8.0
13.114,1.078,-0.619,8.0
12.614,1.038,-0.67,3.0
11.706,0.965,-0.689,2.0
10.885,0.899,-0.703,1.0
14.055,1.162,-0.523,9.0
13.549,1.122,-0.582,9.0
13.082,1.085,-0.637,9.0
12.401,1.03,-0.677,4.0
11.465,0.954,-0.692,2.0
10.658,0.888,-0.704,1.0
13.904,1.16,-0.538,13.0
13.39,1.118,-0.595,8.0
13.072,1.093,-0.656,11.0
12.183,1.02,-0.683,1.0
11.242,0.943,-0.695,2.0
10.463,0.879,-0.707,2.0
13.794,1.16,-0.554,13.0
13.239,1.114,-0.608,9.0
12.949,1.092,-0.669,4.0
11.923,1.007,-0.686,1.0
11.045,0.934,-0.699,1.0
10.271,0.869,-0.709,2.0
13.681,1.159,-0.569,11.0
13.08,1.109,-0.62,8.0
12.557,1.066,-0.667,3.0
11.612,0.987,-0.685,2.0
10.827,0.922,-0.701,1.0
10.11,0.862,-0.713,2.0
13.546,1.155,-0.583,11.0
13.059,1.115,-0.637,8.0
12.375,1.058,-0.675,4.0
11.416,0.977,-0.69,2.0
10.634,0.911,-0.704,1.0
9.9,0.849,-0.713,2.0
13.386,1.149,-0.596,9.0
13.061,1.122,-0.657,10.0
12.078,1.039,-0.677,1.0
11.185,0.963,-0.692,2.0
10.424,0.899,-0.705,1.0
9.77,0.843,-0.717,2.0
13.19,1.138,-0.606,8.0
12.895,1.114,-0.667,3.0
11.837,1.024,-0.68,2.0
10.992,0.952,-0.696,2.0
10.245,0.888,-0.708,2.0
9.658,0.838,-0.723,1.0
13.087,1.135,-0.621,9.0
12.521,1.087,-0.666,3.0
11.624,1.01,-0.685,2.0
10.8,0.94,-0.7,2.0
10.083,0.878,-0.712,2.0
9.569,0.834,-0.731,1.0
13.074,1.14,-0.639,12.0
12.356,1.078,-0.675,4.0
11.373,0.993,-0.687,1.0
10.597,0.926,-0.702,1.0
9.89,0.865,-0.712,2.0
9.469,0.829,-0.737,0.0
13.054,1.142,-0.657,11.0
12.063,1.057,-0.676,1.0
11.176,0.98,-0.691,2.0
10.411,0.913,-0.705,1.0
9.746,0.856,-0.716,2.0
9.308,0.818,-0.738,0.0
12.814,1.126,-0.663,3.0
11.821,1.039,-0.68,2.0
10.954,0.964,-0.693,2.0
10.226,0.9,-0.707,2.0
9.656,0.851,-0.723,1.0
9.18,0.81,-0.741,1.0
12.54,1.105,-0.667,4.0
11.597,1.023,-0.683,1.0
10.784,0.952,-0.698,2.0
10.053,0.888,-0.709,1.0
9.549,0.844,-0.729,1.0
9.036,0.799,-0.742,1.0
12.36,1.092,-0.674,3.0
11.392,1.007,-0.687,1.0
10.597,0.937,-0.7,1.0
9.867,0.873,-0.71,1.0
9.458,0.838,-0.735,1.0
8.904,0.789,-0.744,1.0
12.06,1.068,-0.675,2.0
11.164,0.989,-0.689,2.0
10.423,0.924,-0.704,1.0
9.748,0.865,-0.715,1.0
9.317,0.827,-0.738,0.0
8.798,0.781,-0.748,1.0
11.84,1.05,-0.68,2.0
10.957,0.972,-0.692,2.0
10.229,0.908,-0.705,2.0
9.654,0.857,-0.722,1.0
9.173,0.815,-0.739,0.0
8.522,0.758,-0.736,1.0
11.599,1.03,-0.682,2.0
10.782,0.958,-0.696,2.0
10.055,0.893,-0.707,1.0
9.542,0.848,-0.727,1.0
9.046,0.805,-0.742,1.0
8.248,0.734,-0.724,1.0
11.423,1.015,-0.687,1.0
10.593,0.941,-0.698,1.0
9.894,0.88,-0.709,1.0
9.454,0.841,-0.733,1.0
8.921,0.794,-0.744,1.0
7.983,0.711,-0.712,3.0
11.18,0.993,-0.688,2.0
10.438,0.928,-0.702,1.0
9.755,0.867,-0.713,1.0
9.326,0.83,-0.736,0.0
8.813,0.784,-0.747,1.0
7.852,0.699,-0.711,4.0
10.997,0.977,-0.691,2.0
10.259,0.911,-0.704,2.0
9.665,0.859,-0.719,1.0
9.176,0.816,-0.737,0.0
8.596,0.764,-0.74,1.0
7.729,0.688,-0.71,4.0
10.822,0.96,-0.695,2.0
10.1,0.897,-0.706,1.0
9.574,0.85,-0.725,1.0
9.08,0.806,-0.741,1.0
8.333,0.74,-0.728,1.0
7.627,0.678,-0.711,4.0
10.643,0.943,-0.697,1.0
9.927,0.88,-0.708,2.0
9.486,0.841,-0.731,1.0
8.952,0.794,-0.742,1.0
8.014,0.711,-0.711,2.0
7.532,0.668,-0.712,4.0
10.499,0.929,-0.701,1.0
9.806,0.868,-0.712,2.0
9.363,0.829,-0.733,0.0
8.848,0.783,-0.745,1.0
7.896,0.699,-0.71,4.0
7.489,0.663,-0.717,4.0
10.317,0.911,-0.702,2.0
9.699,0.856,-0.716,2.0
9.244,0.816,-0.736,0.0
8.744,0.772,-0.747,1.0
7.772,0.686,-0.709,4.0
7.471,0.66,-0.725,5.0
10.167,0.895,-0.705,2.0
9.624,0.847,-0.723,1.0
9.139,0.805,-0.739,1.0
8.588,0.756,-0.745,1.0
7.677,0.676,-0.71,4.0
7.455,0.657,-0.733,4.0
10.012,0.879,-0.706,1.0
9.535,0.837,-0.727,1.0
9.021,0.792,-0.74,1.0
8.24,0.723,-0.725,1.0
7.593,0.666,-0.712,4.0
7.426,0.652,-0.739,4.0
9.875,0.864,-0.709,2.0
9.454,0.827,-0.733,0.0
8.906,0.779,-0.742,1.0
7.97,0.697,-0.71,2.0
7.532,0.658,-0.715,4.0
7.403,0.647,-0.746,3.0
9.767,0.851,-0.712,2.0
9.32,0.812,-0.733,0.0
8.823,0.768,-0.745,1.0
7.867,0.685,-0.71,4.0
7.496,0.652,-0.72,4.0
7.338,0.639,-0.748,3.0
9.679,0.839,-0.717,2.0
9.212,0.799,-0.735,1.0
8.734,0.757,-0.748,1.0
7.775,0.674,-0.711,4.0
7.487,0.649,-0.728,4.0
7.268,0.629,-0.749,3.0
9.628,0.831,-0.724,1.0
9.122,0.787,-0.739,1.0
8.602,0.742,-0.746,1.0
7.702,0.664,-0.713,4.0
7.476,0.644,-0.735,4.0
7.238,0.624,-0.754,3.0
9.558,0.82,-0.73,1.0
9.01,0.773,-0.739,1.0
8.329,0.714,-0.732,1.0
7.624,0.653,-0.714,4.0
7.474,0.64,-0.743,3.0
7.196,0.616,-0.758,3.0
9.445,0.806,-0.731,1.0
8.921,0.761,-0.742,1.0
8.113,0.691,-0.721,2.0
7.579,0.646,-0.718,4.0
7.443,0.634,-0.748,3.0
7.144,0.608,-0.76,2.0
9.332,0.791,-0.732,1.0
8.842,0.749,-0.745,1.0
7.967,0.674,-0.717,3.0
7.547,0.638,-0.723,4.0
7.396,0.625,-0.752,3.0
7.062,0.597,-0.758,2.0
9.252,0.779,-0.735,1.0
8.79,0.739,-0.749,1.0
7.854,0.66,-0.715,4.0
7.541,0.633,-0.73,4.0
7.352,0.617,-0.754,3.0
6.985,0.586,-0.757,2.0
9.163,0.766,-0.737,1.0
8.71,0.727,-0.751,0.0
7.775,0.649,-0.715,4.0
7.571,0.631,-0.741,3.0
7.346,0.612,-0.761,3.0
6.964,0.58,-0.762,2.0
9.078,0.753,-0.739,1.0
8.599,0.712,-0.75,1.0
7.718,0.639,-0.717,4.0
7.577,0.627,-0.748,3.0
7.332,0.606,-0.767,3.0
6.956,0.575,-0.767,2.0
8.989,0.739,-0.74,1.0
8.322,0.684,-0.733,1.0
7.724,0.634,-0.725,4.0
7.546,0.619,-0.752,3.0
7.296,0.598,-0.769,2.0
6.927,0.567,-0.771,2.0
8.94,0.728,-0.744,1.0
8.128,0.662,-0.723,2.0
7.727,0.628,-0.732,4.0
7.508,0.61,-0.755,3.0
7.257,0.589,-0.772,1.0
6.905,0.56,-0.774,1.0
8.874,0.716,-0.747,0.0
8.015,0.646,-0.72,4.0
7.728,0.623,-0.739,4.0
7.465,0.601,-0.757,3.0
7.186,0.578,-0.77,1.0
6.858,0.551,-0.775,1.0
8.823,0.705,-0.75,1.0
7.972,0.637,-0.723,4.0
7.733,0.617,-0.746,4.0
7.425,0.592,-0.759,3.0
7.145,0.569,-0.772,1.0
6.805,0.541,-0.774,1.0
8.755,0.693,-0.751,1.0
7.948,0.628,-0.727,4.0
7.722,0.61,-0.751,4.0
7.401,0.584,-0.763,3.0
7.101,0.559,-0.773,0.0
6.783,0.534,-0.777,0.0
8.645,0.677,-0.748,1.0
7.928,0.62,-0.731,4.0
7.699,0.601,-0.754,3.0
7.376,0.575,-0.766,2.0
7.05,0.549,-0.772,1.0
6.764,0.526,-0.78,0.0
8.616,0.667,-0.752,2.0
7.931,0.613,-0.737,4.0
7.706,0.595,-0.76,3.0
7.346,0.566,-0.768,2.0
7.018,0.54,-0.774,0.0
6.756,0.52,-0.784,0.0
8.435,0.645,-0.742,2.0
7.935,0.606,-0.743,5.0
7.661,0.584,-0.761,2.0
7.333,0.559,-0.771,1.0
6.987,0.532,-0.775,0.0
6.775,0.515,-0.791,0.0
8.416,0.636,-0.745,2.0
7.921,0.598,-0.747,4.0
7.643,0.576,-0.764,1.0
7.283,0.548,-0.771,1.0
6.972,0.524,-0.778,1.0
6.816,0.511,-0.799,0.0
8.302,0.619,-0.74,3.0
7.924,0.59,-0.752,4.0
7.595,0.565,-0.764,1.0
7.242,0.538,-0.771,1.0
6.972,0.517,-0.782,1.0
6.882,0.51,-0.811,0.0
8.339,0.614,-0.748,4.0
7.919,0.582,-0.756,4.0
7.567,0.555,-0.766,1.0
7.229,0.53,-0.773,1.0
6.997,0.512,-0.789,1.0
6.979,0.51,-0.827,0.0
8.318,0.604,-0.751,5.0
7.906,0.573,-0.759,3.0
7.553,0.547,-0.768,1.0
7.207,0.521,-0.775,1.0
7.045,0.508,-0.798,1.0
7.049,0.508,-0.839,1.0
8.315,0.595,-0.755,5.0
7.877,0.563,-0.76,2.0
7.541,0.538,-0.77,1.0
7.201,0.513,-0.778,1.0
7.105,0.505,-0.808,1.0
7.132,0.506,-0.852,0.0
8.299,0.585,-0.757,5.0
7.872,0.554,-0.763,1.0
7.519,0.528,-0.772,1.0
7.229,0.507,-0.784,1.0
7.189,0.503,-0.821,1.0
7.199,0.503,-0.863,0.0
8.268,0.574,-0.758,4.0
7.864,0.545,-0.765,1.0
7.5,0.519,-0.773,1.0
7.275,0.502,-0.792,1.0
7.307,0.503,-0.837,1.0
7.256,0.499,-0.873,0.0
8.252,0.564,-0.759,3.0
7.86,0.536,-0.768,1.0
7.504,0.51,-0.776,1.0
7.36,0.5,-0.803,1.0
7.38,0.5,-0.848,1.0
7.373,0.499,-0.889,0.0
8.224,0.553,-0.759,2.0
7.844,0.526,-0.769,1.0
7.523,0.503,-0.78,1.0
7.463,0.498,-0.817,1.0
7.477,0.498,-0.861,0.0
7.527,0.5,-0.91,0.0
8.199,0.542,-0.76,2.0
7.833,0.516,-0.77,1.0
7.574,0.498,-0.787,1.0
7.558,0.496,-0.829,1.0
7.571,0.496,-0.874,0.0
7.616,0.498,-0.923,0.0
8.193,0.532,-0.761,2.0
7.836,0.507,-0.772,1.0
7.642,0.494,-0.796,1.0
7.668,0.494,-0.843,1.0
7.674,0.494,-0.888,0.0
7.69,0.493,-0.933,0.0
8.195,0.522,-0.763,1.0
7.848,0.499,-0.775,1.0
7.767,0.493,-0.811,1.0
7.774,0.492,-0.856,0.0
7.785,0.491,-0.902,0.0
7.769,0.489,-0.944,0.0
8.201,0.513,-0.765,1.0
7.906,0.493,-0.782,1.0
7.871,0.49,-0.823,1.0
7.878,0.489,-0.869,0.0
7.927,0.491,-0.919,0.0
7.825,0.483,-0.952,0.0
8.215,0.504,-0.767,1.0
7.973,0.488,-0.789,1.0
7.992,0.487,-0.836,1.0
7.987,0.486,-0.882,0.0
8.044,0.488,-0.933,0.0
7.91,0.479,-0.963,0.0
8.242,0.495,-0.77,1.0
8.085,0.485,-0.801,1.0
8.104,0.484,-0.848,1.0
8.117,0.484,-0.896,0.0
8.086,0.481,-0.939,0.0
7.991,0.474,-0.973,0.0
8.293,0.488,-0.775,1.0
8.207,0.482,-0.813,1.0
8.218,0.481,-0.86,0.0
8.236,0.481,-0.91,0.0
8.2,0.477,-0.952,0.0
8.146,0.473,-0.992,0.0
8.368,0.482,-0.782,1.0
8.384,0.482,-0.83,1.0
8.336,0.477,-0.873,0.0
8.372,0.478,-0.924,0.0
8.361,0.476,-0.97,0.0
8.097,0.46,-0.985,0.0
8.479,0.478,-0.792,2.0
8.493,0.477,-0.841,1.0
8.487,0.475,-0.888,0.0
8.499,0.475,-0.938,0.0
8.472,0.472,-0.982,0.0
8.065,0.448,-0.981,0.0
8.603,0.474,-0.802,3.0
8.582,0.471,-0.848,1.0
8.642,0.473,-0.903,0.0
8.58,0.468,-0.945,0.0
8.534,0.464,-0.988,0.0
7.685,0.417,-0.933,0.0
8.714,0.469,-0.811,2.0
8.72,0.468,-0.861,0.0
8.789,0.47,-0.917,0.0
8.742,0.466,-0.962,0.0
8.476,0.45,-0.98,0.0
8.886,0.467,-0.826,2.0
8.907,0.466,-0.877,0.0
8.935,0.466,-0.93,0.0
8.904,0.463,-0.978,0.0
8.095,0.42,-0.934,0.0
7.649,0.395,-0.926,0.0
9.061,0.465,-0.84,1.0
9.093,0.465,-0.893,0.0
9.084,0.462,-0.943,0.0
8.92,0.452,-0.977,0.0
8.005,0.404,-0.922,0.0
7.685,0.387,-0.928,0.0
9.185,0.459,-0.849,1.0
9.262,0.461,-0.907,0.0
9.172,0.455,-0.95,0.0
8.914,0.44,-0.974,0.0
8.014,0.394,-0.92,0.0
7.742,0.38,-0.932,0.0
9.379,0.457,-0.863,0.0
9.394,0.455,-0.917,0.0
9.314,0.45,-0.961,0.0
8.472,0.407,-0.922,0.0
8.055,0.386,-0.922,0.0
7.748,0.37,-0.93,0.0
9.56,0.453,-0.877,0.0
9.55,0.451,-0.929,0.0
9.341,0.439,-0.96,0.0
8.405,0.393,-0.912,0.0
8.056,0.375,-0.919,0.0
7.783,0.361,-0.931,0.0
9.744,0.449,-0.889,0.0
9.713,0.446,-0.94,0.0
9.284,0.424,-0.95,0.0
8.426,0.383,-0.91,0.0
8.097,0.367,-0.92,0.0
7.798,0.352,-0.929,0.0
9.917,0.444,-0.9,0.0
9.899,0.441,-0.954,0.0
8.979,0.399,-0.915,0.0
8.425,0.372,-0.906,0.0
8.127,0.357,-0.919,0.0
7.816,0.342,-0.928,0.0
10.064,0.438,-0.909,0.0
9.932,0.43,-0.952,0.0
8.878,0.382,-0.9,0.0
8.484,0.364,-0.908,0.0
8.15,0.348,-0.917,0.0
7.844,0.333,-0.926,0.0
10.29,0.434,-0.923,0.0
9.889,0.415,-0.942,0.0
8.957,0.374,-0.903,0.0
8.526,0.354,-0.907,0.0
8.205,0.339,-0.919,0.0
7.868,0.324,-0.925,0.0
10.439,0.427,-0.931,0.0
9.371,0.381,-0.887,1.0
8.939,0.362,-0.895,0.0
8.599,0.346,-0.91,0.0
8.252,0.331,-0.919,0.0
7.934,0.316,-0.927,0.0
10.611,0.42,-0.939,1.0
9.357,0.368,-0.88,2.0
9.05,0.354,-0.901,0.0
8.637,0.336,-0.908,0.0
8.278,0.321,-0.916,0.0
7.969,0.307,-0.926,0.0
10.746,0.411,-0.944,0.0
9.373,0.357,-0.875,1.0
9.095,0.344,-0.899,0.0
8.699,0.328,-0.908,0.0
8.304,0.311,-0.913,0.0
7.975,0.297,-0.921,0.0
10.148,0.375,-0.884,0.0
9.492,0.349,-0.879,0.0
9.177,0.336,-0.9,0.0
8.729,0.317,-0.905,0.0
8.351,0.302,-0.912,0.0
8.052,0.289,-0.923,0.0
10.165,0.363,-0.877,0.0
9.648,0.342,-0.885,0.0
9.245,0.326,-0.899,0.0
8.765,0.307,-0.901,0.0
8.428,0.294,-0.913,0.0
8.099,0.281,-0.922,1.0
10.225,0.352,-0.874,0.0
9.744,0.333,-0.886,0.0
9.264,0.315,-0.893,0.0
8.845,0.299,-0.902,0.0
8.471,0.284,-0.911,0.0
8.115,0.271,-0.917,1.0
10.296,0.341,-0.871,0.0
9.806,0.323,-0.883,0.0
9.262,0.303,-0.885,1.0
8.919,0.29,-0.902,0.0
8.517,0.275,-0.908,0.0
8.149,0.262,-0.913,0.0
10.372,0.331,-0.868,0.0
9.885,0.313,-0.881,0.0
9.382,0.295,-0.888,0.0
9.002,0.281,-0.902,0.0
8.603,0.267,-0.909,0.0
8.199,0.253,-0.911,0.0
10.431,0.32,-0.863,0.0
9.955,0.303,-0.878,0.0
9.475,0.286,-0.887,0.0
9.007,0.27,-0.894,2.0
8.674,0.258,-0.908,0.0
8.21,0.243,-0.904,1.0
10.488,0.308,-0.858,0.0
10.041,0.293,-0.876,0.0
9.588,0.278,-0.888,0.0
9.023,0.259,-0.886,2.0
8.73,0.249,-0.905,0.0
8.233,0.233,-0.898,1.0
10.608,0.299,-0.857,0.0
10.161,0.284,-0.875,0.0
9.66,0.268,-0.885,0.0
9.196,0.253,-0.893,0.0
8.82,0.241,-0.905,0.0
8.344,0.226,-0.901,0.0
10.754,0.29,-0.857,0.0
10.275,0.275,-0.874,0.0
9.752,0.259,-0.882,0.0
9.299,0.245,-0.893,0.0
8.891,0.232,-0.902,0.0
8.319,0.215,-0.889,0.0
10.924,0.281,-0.858,0.0
10.356,0.264,-0.87,3.0
9.84,0.249,-0.879,0.0
9.401,0.236,-0.892,0.0
8.976,0.224,-0.9,0.0
8.595,0.212,-0.909,0.0
11.06,0.271,-0.856,0.0
10.418,0.253,-0.863,5.0
9.964,0.24,-0.879,0.0
9.482,0.227,-0.888,0.0
9.056,0.215,-0.897,0.0
8.687,0.204,-0.908,0.0
11.172,0.261,-0.851,0.0
10.449,0.242,-0.852,3.0
10.092,0.232,-0.878,0.0
9.585,0.218,-0.886,0.0
9.131,0.206,-0.894,0.0
8.749,0.195,-0.904,0.0
11.346,0.252,-0.851,0.0
10.673,0.235,-0.858,0.0
10.2,0.222,-0.874,0.0
9.704,0.21,-0.885,0.0
9.246,0.198,-0.893,0.0
8.837,0.187,-0.901,0.0
11.513,0.243,-0.849,0.0
10.862,0.227,-0.859,0.0
10.345,0.214,-0.873,1.0
9.803,0.201,-0.881,0.0
9.362,0.19,-0.892,0.0
8.946,0.179,-0.901,0.0
11.673,0.233,-0.845,0.0
11.009,0.217,-0.856,0.0
10.422,0.204,-0.866,5.0
9.918,0.192,-0.878,0.0
9.45,0.181,-0.888,0.0
9.033,0.171,-0.897,0.0
11.855,0.223,-0.842,0.0
11.166,0.208,-0.853,0.0
10.472,0.193,-0.856,7.0
10.057,0.183,-0.877,0.0
9.574,0.173,-0.886,0.0
9.15,0.163,-0.896,0.0
12.032,0.214,-0.838,0.0
11.345,0.199,-0.851,0.0
10.568,0.184,-0.849,2.0
10.205,0.175,-0.875,0.0
9.706,0.165,-0.884,0.0
9.226,0.155,-0.89,0.0
12.209,0.204,-0.833,0.0
11.522,0.19,-0.848,0.0
10.867,0.177,-0.857,0.0
10.357,0.167,-0.873,1.0
9.834,0.157,-0.882,0.0
9.372,0.148,-0.891,0.0
12.41,0.195,-0.829,1.0
11.702,0.181,-0.844,0.0
11.015,0.169,-0.853,0.0
10.431,0.158,-0.864,4.0
9.963,0.149,-0.879,0.0
9.489,0.14,-0.887,0.0
12.599,0.185,-0.823,1.0
11.887,0.172,-0.839,1.0
11.192,0.16,-0.85,1.0
10.496,0.148,-0.854,2.0
10.097,0.141,-0.875,0.0
9.606,0.132,-0.884,0.0
12.839,0.176,-0.819,1.0
12.079,0.163,-0.834,1.0
11.406,0.152,-0.848,0.0
10.776,0.141,-0.86,0.0
10.32,0.134,-0.878,0.0
9.75,0.124,-0.881,0.0
13.059,0.166,-0.812,1.0
12.3,0.154,-0.83,1.0
11.596,0.143,-0.844,0.0
10.951,0.133,-0.856,0.0
10.45,0.125,-0.873,0.0
9.899,0.117,-0.879,0.0
13.316,0.157,-0.807,1.0
12.526,0.145,-0.825,1.0
11.807,0.135,-0.84,1.0
11.14,0.125,-0.853,1.0
10.594,0.117,-0.867,0.0
10.055,0.109,-0.876,0.0
13.589,0.147,-0.801,1.0
12.746,0.136,-0.819,1.0
12.004,0.126,-0.835,1.0
11.359,0.117,-0.851,0.0
10.764,0.109,-0.863,0.0
10.235,0.102,-0.875,0.0
13.911,0.139,-0.798,4.0
12.995,0.127,-0.814,1.0
12.227,0.118,-0.83,1.0
11.559,0.109,-0.847,1.0
10.917,0.102,-0.857,0.0
10.388,0.095,-0.871,0.0
14.086,0.128,-0.784,1.0
13.26,0.119,-0.808,1.0
12.486,0.11,-0.826,1.0
11.745,0.101,-0.84,1.0
11.121,0.094,-0.854,0.0
10.534,0.087,-0.865,0.0
14.547,0.12,-0.785,1.0
13.527,0.11,-0.801,1.0
12.709,0.101,-0.819,1.0
11.974,0.093,-0.836,1.0
11.332,0.087,-0.851,0.0
10.73,0.08,-0.862,0.0
14.887,0.111,-0.777,1.0
13.849,0.101,-0.795,1.0
12.983,0.093,-0.814,1.0
12.215,0.086,-0.831,1.0
11.545,0.079,-0.846,0.0
10.91,0.073,-0.857,0.0
15.127,0.101,-0.763,2.0
14.168,0.093,-0.788,1.0
13.256,0.085,-0.807,1.0
12.45,0.078,-0.825,1.0
11.752,0.072,-0.84,0.0
11.109,0.066,-0.852,0.0
15.728,0.094,-0.764,6.0
14.552,0.085,-0.784,1.0
13.556,0.077,-0.801,1.0
12.709,0.07,-0.819,1.0
11.981,0.064,-0.835,0.0
11.362,0.06,-0.851,0.0
15.804,0.083,-0.739,27.0
14.902,0.076,-0.775,1.0
13.871,0.069,-0.794,1.0
12.991,0.063,-0.813,1.0
12.24,0.057,-0.83,0.0
11.585,0.053,-0.846,0.0
16.056,0.073,-0.722,0.0
15.17,0.067,-0.761,1.0
14.217,0.061,-0.787,1.0
13.348,0.056,-0.81,1.0
12.496,0.051,-0.824,1.0
11.798,0.046,-0.84,0.0
17.225,0.068,-0.742,2.0
15.733,0.06,-0.76,4.0
14.638,0.054,-0.783,1.0
13.655,0.048,-0.803,1.0
12.774,0.044,-0.818,1.0
12.063,0.04,-0.835,0.0
17.518,0.058,-0.722,1.0
15.881,0.051,-0.737,1.0
14.988,0.046,-0.773,2.0
13.986,0.041,-0.796,1.0
13.072,0.037,-0.812,1.0
12.323,0.033,-0.83,0.0
18.099,0.049,-0.711,1.0
16.259,0.042,-0.723,0.0
15.284,0.038,-0.759,1.0
14.299,0.034,-0.786,1.0
13.384,0.03,-0.805,1.0
12.59,0.027,-0.823,1.0
18.708,0.041,-0.698,3.0
17.229,0.035,-0.732,1.0
15.847,0.031,-0.756,7.0
14.707,0.027,-0.779,1.0
13.728,0.024,-0.799,1.0
12.889,0.021,-0.817,0.0
19.18,0.032,-0.678,3.0
17.715,0.027,-0.718,1.0
15.875,0.023,-0.726,11.0
15.054,0.02,-0.768,1.0
14.045,0.017,-0.79,1.0
13.203,0.015,-0.811,1.0
20.058,0.023,-0.669,2.0
18.305,0.02,-0.706,2.0
16.915,0.017,-0.74,0.0
15.675,0.014,-0.769,2.0
14.467,0.011,-0.784,1.0
13.525,0.009,-0.804,1.0
20.854,0.015,-0.654,2.0
18.86,0.012,-0.689,3.0
17.415,0.009,-0.727,1.0
15.875,0.007,-0.746,12.0
14.861,0.005,-0.776,1.0
13.844,0.004,-0.795,1.0
21.69,0.007,-0.637,3.0
19.551,0.005,-0.675,3.0
17.959,0.003,-0.713,1.0
16.072,0.001,-0.723,0.0
15.227,0.0,-0.764,1.0
14.245,0.0,-0.788,0.0
22.586,0.0,-0.617,3.0
20.42,-0.002,-0.664,2.0
18.592,-0.003,-0.7,2.0
17.099,-0.004,-0.735,0.0
15.815,-0.005,-0.761,3.0
14.659,-0.006,-0.781,1.0
23.361,-0.008,-0.591,2.0
21.219,-0.009,-0.646,2.0
19.155,-0.009,-0.682,3.0
17.638,-0.01,-0.721,1.0
15.956,-0.01,-0.735,1.0
15.052,-0.01,-0.772,1.0
24.34,-0.016,-0.566,2.0
22.152,-0.016,-0.63,4.0
19.99,-0.016,-0.672,2.0
18.219,-0.015,-0.708,1.0
16.796,-0.015,-0.739,0.0
15.486,-0.015,-0.762,1.0
25.568,-0.024,-0.542,1.0
22.98,-0.023,-0.606,3.0
20.771,-0.021,-0.655,3.0
18.823,-0.02,-0.693,2.0
17.342,-0.02,-0.728,1.0
15.908,-0.019,-0.749,1.0
26.709,-0.031,-0.511,2.0
23.863,-0.029,-0.58,2.0
21.674,-0.027,-0.638,3.0
19.553,-0.025,-0.678,3.0
17.942,-0.024,-0.715,1.0
16.499,-0.023,-0.743,0.0
27.923,-0.038,-0.476,1.0
24.965,-0.035,-0.554,1.0
22.656,-0.032,-0.62,2.0
20.402,-0.03,-0.665,2.0
18.54,-0.028,-0.7,2.0
17.094,-0.026,-0.734,1.0
29.266,-0.044,-0.438,2.0
26.241,-0.041,-0.528,2.0
23.484,-0.037,-0.593,2.0
21.246,-0.034,-0.648,2.0
19.222,-0.031,-0.685,2.0
17.682,-0.029,-0.721,1.0
30.47,-0.05,-0.391,1.0
27.356,-0.045,-0.492,1.0
24.406,-0.041,-0.565,2.0
22.168,-0.038,-0.629,3.0
20.074,-0.035,-0.673,2.0
18.302,-0.032,-0.708,2.0
32.483,-0.056,-0.349,2.0
28.803,-0.05,-0.457,2.0
25.846,-0.045,-0.543,1.0
23.082,-0.041,-0.607,3.0
20.908,-0.037,-0.657,3.0
18.942,-0.034,-0.693,2.0
37.294,-0.066,-0.322,1.0
29.929,-0.053,-0.413,2.0
26.893,-0.048,-0.509,1.0
23.971,-0.043,-0.58,3.0
21.796,-0.039,-0.639,3.0
19.692,-0.036,-0.679,3.0
38.944,-0.069,-0.254,8.0
32.008,-0.057,-0.374,2.0
28.321,-0.051,-0.477,1.0
25.179,-0.045,-0.556,1.0
22.777,-0.041,-0.62,3.0
20.58,-0.037,-0.666,2.0
39.965,-0.07,-0.176,16.0
33.762,-0.059,-0.323,1.0
29.586,-0.052,-0.435,2.0
26.464,-0.046,-0.528,1.0
23.658,-0.041,-0.594,2.0
21.446,-0.037,-0.648,3.0
42.345,-0.071,-0.097,18.0
38.679,-0.065,-0.287,3.0
31.02,-0.052,-0.39,1.0
27.566,-0.046,-0.491,1.0
24.627,-0.04,-0.566,1.0
22.406,-0.036,-0.63,3.0
0.0,0.0,0.0,0.0
39.49,-0.062,-0.209,15.0
32.902,-0.051,-0.344,1.0
29.017,-0.044,-0.455,2.0
25.99,-0.039,-0.541,2.0
23.3,-0.035,-0.605,3.0
0.0,0.0,0.0,0.0
41.432,-0.059,-0.131,19.0
38.185,-0.053,-0.317,2.0
30.198,-0.041,-0.409,1.0
27.122,-0.036,-0.507,2.0
24.206,-0.032,-0.577,2.0
61.748,-0.078,0.252,19.0
0.0,0.0,0.0,0.0
39.149,-0.047,-0.243,14.0
32.197,-0.038,-0.368,1.0
28.536,-0.032,-0.473,1.0
25.562,-0.028,-0.555,1.0
76.3,-0.081,0.473,17.0
0.0,0.0,0.0,0.0
40.223,-0.039,-0.163,16.0
37.337,-0.035,-0.347,0.0
29.718,-0.027,-0.429,2.0
26.728,-0.023,-0.523,2.0
79.437,-0.064,0.663,150.0
56.149,-0.043,0.179,12.0
0.0,0.0,0.0,0.0
38.6,-0.026,-0.277,6.0
31.195,-0.019,-0.384,1.0
27.914,-0.016,-0.487,2.0
79.462,-0.041,0.833,152.0
76.128,-0.035,0.407,14.0
47.749,-0.019,0.009,19.0
39.553,-0.014,-0.199,22.0
33.501,-0.01,-0.341,1.0
29.288,-0.007,-0.449,2.0
79.464,-0.015,1.001,151.0
79.251,-0.01,0.591,23.0
55.612,-0.004,0.128,29.0
43.768,0.0,-0.128,5.0
38.368,0.001,-0.309,5.0
30.585,0.003,-0.404,2.0
79.463,0.013,1.17,151.0
79.465,0.019,0.762,170.0
61.802,0.018,0.274,15.0
0.0,0.0,0.0,0.0
39.052,0.017,-0.232,15.0
32.696,0.016,-0.363,1.0
79.445,0.045,1.339,162.0
79.461,0.051,0.93,156.0
79.291,0.057,0.519,9.0
0.0,0.0,0.0,0.0
40.365,0.035,-0.155,20.0
38.077,0.036,-0.342,1.0
79.455,0.08,1.506,151.0
79.46,0.086,1.095,154.0
79.456,0.093,0.686,150.0
0.0,0.0,0.0,0.0
44.666,0.059,-0.079,21.0
38.529,0.054,-0.266,13.0
79.454,0.118,1.672,151.0
79.46,0.124,1.261,165.0
79.465,0.131,0.852,151.0
75.948,0.133,0.416,15.0
47.874,0.088,0.015,21.0
39.361,0.076,-0.19,38.0
79.436,0.159,1.838,150.0
79.452,0.166,1.428,158.0
79.461,0.173,1.019,153.0
79.454,0.181,0.601,32.0
55.006,0.13,0.132,28.0
43.874,0.108,-0.12,8.0
79.447,0.202,2.002,150.0
79.448,0.21,1.592,151.0
79.452,0.218,1.183,163.0
79.439,0.226,0.764,150.0
59.207,0.174,0.264,6.0
0.0,0.0,0.0,0.0
79.444,0.249,2.168,150.0
79.442,0.257,1.756,150.0
79.451,0.265,1.347,168.0
79.466,0.274,0.929,151.0
76.697,0.273,0.5,54.0
54.22,0.199,0.074,28.0
79.45,0.298,2.33,150.0
79.426,0.307,1.92,150.0
79.454,0.316,1.508,150.0
79.447,0.324,1.09,150.0
77.15,0.324,0.659,24.0
59.348,0.256,0.2,8.0
59.286,0.261,1.859,89.0
59.273,0.268,1.553,116.0
59.286,0.275,1.247,120.0
59.286,0.282,0.933,120.0
59.294,0.289,0.627,120.0
59.309,0.296,0.319,36.0
48.194,0.245,1.608,61.0
48.202,0.251,1.359,50.0
48.209,0.257,1.109,38.0
48.199,0.263,0.855,36.0
59.288,0.331,0.745,6.0
55.116,0.315,0.406,9.0
48.147,0.279,1.703,82.0
48.134,0.285,1.453,97.0
48.14,0.292,1.204,87.0
48.145,0.298,0.949,83.0
48.148,0.305,0.7,55.0
48.155,0.311,0.451,48.0
48.133,0.315,1.798,98.0
48.117,0.322,1.548,95.0
48.13,0.329,1.298,106.0
48.105,0.335,1.043,101.0
48.11,0.342,0.794,91.0
48.094,0.349,0.545,76.0
48.12,0.353,1.893,109.0
48.104,0.36,1.642,99.0
48.122,0.367,1.393,111.0
48.092,0.374,1.137,111.0
48.096,0.381,0.887,108.0
48.087,0.388,0.638,110.0
48.129,0.393,1.987,109.0
48.109,0.4,1.736,90.0
48.122,0.407,1.486,114.0
48.089,0.414,1.231,115.0
48.101,0.422,0.981,107.0
48.096,0.429,0.731,106.0
48.15,0.434,2.08,95.0
48.133,0.442,1.83,105.0
48.136,0.449,1.578,87.0
48.112,0.456,1.323,107.0
48.114,0.464,1.073,98.0
48.104,0.471,0.822,98.0
48.228,0.478,2.176,48.0
48.183,0.485,1.923,73.0
48.167,0.493,1.672,88.0
48.153,0.5,1.415,92.0
48.142,0.508,1.165,89.0
48.13,0.516,0.915,93.0
55.078,0.597,2.59,56.0
55.032,0.605,2.301,95.0
55.024,0.614,2.013,75.0
55.011,0.623,1.721,52.0
48.206,0.554,1.257,57.0
48.191,0.562,1.005,41.0
55.045,0.649,2.692,108.0
55.002,0.658,2.402,124.0
54.997,0.667,2.115,109.0
54.998,0.676,1.822,113.0
55.023,0.686,1.536,105.0
55.067,0.696,1.25,55.0
55.027,0.702,2.791,122.0
55.001,0.712,2.503,125.0
55.012,0.721,2.216,104.0
55.02,0.731,1.923,102.0
55.053,0.741,1.636,69.0
176.301,2.406,4.32,20.0
54.988,0.757,2.889,118.0
54.999,0.767,2.602,118.0
55.015,0.777,2.315,116.0
55.068,0.788,2.024,72.0
55.103,0.798,1.736,13.0
176.187,2.588,4.634,11.0
54.953,0.814,2.987,132.0
54.987,0.824,2.7,119.0
55.031,0.835,2.413,90.0
59.336,0.912,2.286,6.0
132.871,2.067,4.423,29.0
163.097,2.568,4.575,9.0
54.921,0.872,3.082,75.0
54.999,0.884,2.798,51.0
55.074,0.895,2.513,31.0
59.348,0.976,2.389,2.0
132.696,2.208,4.648,20.0
163.308,2.749,4.865,14.0
54.877,0.931,3.174,41.0
55.009,0.944,2.893,63.0
129.99,2.257,6.154,11.0
130.445,2.289,5.476,25.0
161.393,2.865,5.928,18.0
132.769,2.383,4.181,20.0
62.597,1.133,3.729,60.0
54.955,1.005,2.984,23.0
55.246,1.021,2.709,7.0
129.933,2.427,5.674,5.0
127.99,2.417,4.916,23.0
128.045,2.443,4.245,26.0
62.671,1.206,3.839,103.0
54.73,1.064,3.063,28.0
55.283,1.086,2.803,14.0
128.002,2.54,5.802,12.0
127.895,2.564,5.125,25.0
128.007,2.592,4.454,52.0
62.653,1.279,3.941,73.0
54.579,1.125,3.144,53.0
55.335,1.152,2.896,44.0
127.855,2.689,6.004,11.0
127.844,2.714,5.329,37.0
152.453,3.269,5.552,28.0
62.565,1.352,4.037,38.0
54.431,1.187,3.224,55.0
55.353,1.219,2.986,79.0
122.7,2.729,5.959,18.0
127.768,2.868,5.529,23.0
152.446,3.455,5.793,36.0
62.476,1.427,4.131,22.0
54.415,1.254,3.309,69.0
55.394,1.288,3.075,73.0
122.702,2.881,6.151,37.0
127.687,3.024,5.725,15.0
130.545,3.12,5.162,7.0
53.847,1.296,3.643,59.0
54.84,1.332,3.42,96.0
55.32,1.356,3.156,62.0
122.544,3.029,6.329,22.0
122.751,3.061,5.69,8.0
130.745,3.288,5.369,14.0
61.933,1.57,4.285,16.0
54.268,1.387,3.466,47.0
54.988,1.417,3.219,64.0
122.931,3.195,6.533,37.0
122.6,3.212,5.864,40.0
152.163,4.02,6.47,29.0
55.821,1.487,3.945,79.0
54.118,1.453,3.536,41.0
54.486,1.474,3.27,28.0
122.869,3.353,6.71,12.0
122.73,3.376,6.049,34.0
151.756,4.209,6.675,27.0
55.812,1.559,4.026,92.0
54.208,1.526,3.62,5.0
54.578,1.549,3.354,13.0
124.234,3.553,6.962,20.0
122.717,3.537,6.224,39.0
152.317,4.425,6.914,13.0
55.828,1.634,4.106,114.0
73.808,2.177,5.035,50.0
54.294,1.613,3.413,42.0
124.127,3.717,7.129,23.0
123.01,3.711,6.41,48.0
123.192,3.745,5.764,24.0
55.834,1.71,4.184,88.0
73.842,2.278,5.138,24.0
54.27,1.686,3.486,79.0
73.94,2.313,4.346,40.0
125.473,3.955,6.707,23.0
133.657,4.244,6.432,22.0
62.09,1.986,4.737,72.0
73.757,2.376,5.232,16.0
54.25,1.759,3.557,54.0
73.857,2.412,4.44,50.0
73.888,2.431,4.047,42.0
133.87,4.434,6.616,21.0
62.099,2.072,4.819,43.0
55.223,1.855,3.989,55.0
73.522,2.487,4.917,23.0
73.72,2.51,4.526,15.0
73.796,2.53,4.136,42.0
74.034,2.556,3.754,20.0
62.108,2.16,4.899,43.0
55.286,1.935,4.063,37.0
54.211,1.91,3.693,20.0
73.278,2.598,4.591,24.0
73.657,2.629,4.219,44.0
73.799,2.651,3.832,37.0
62.194,2.251,4.983,94.0
65.087,2.37,4.864,30.0
54.199,1.986,3.758,79.0
73.279,2.702,4.679,15.0
64.893,2.408,3.795,10.0
73.676,2.752,3.914,44.0
55.437,2.085,4.507,78.0
54.35,2.057,4.126,84.0
54.08,2.059,3.814,73.0
73.328,2.808,4.768,24.0
73.307,2.825,4.372,19.0
73.484,2.849,3.988,50.0
0.0,0.0,0.0,0.0
53.723,2.11,4.14,93.0
65.392,2.584,4.685,13.0
73.254,2.912,4.846,15.0
73.262,2.929,4.451,11.0
73.284,2.947,4.058,47.0
53.363,2.162,4.46,89.0
54.348,2.214,4.248,9.0
73.607,3.016,5.355,19.0
73.547,3.031,4.946,33.0
73.276,3.036,4.531,36.0
73.493,3.063,4.148,51.0
54.36,2.282,4.602,48.0
71.511,3.018,5.666,24.0
73.6,3.124,5.433,36.0
73.372,3.131,5.011,40.0
73.233,3.142,4.605,34.0
73.718,3.18,4.237,26.0
64.642,2.809,5.539,12.0
64.537,2.819,5.179,40.0
73.862,3.243,5.526,8.0
64.945,2.866,4.5,14.0
73.151,3.245,4.673,12.0
73.299,3.269,4.285,8.0
64.383,2.892,5.581,39.0
64.356,2.906,5.228,29.0
64.461,2.925,4.886,34.0
73.773,3.365,5.183,10.0
127.718,5.857,8.281,22.0
73.352,3.38,4.358,35.0
65.001,3.017,5.696,10.0
67.863,3.165,5.577,17.0
64.92,3.043,4.981,17.0
74.036,3.488,5.271,21.0
149.41,7.073,9.824,15.0
73.453,3.494,4.431,7.0
64.606,3.095,5.721,2.0
67.922,3.269,5.643,18.0
73.892,3.574,5.736,17.0
73.733,3.583,5.314,17.0
149.706,7.311,9.974,27.0
127.223,6.243,7.784,13.0
68.006,3.361,6.081,8.0
64.552,3.205,5.419,33.0
73.905,3.685,5.799,13.0
73.817,3.698,5.382,30.0
124.496,6.266,8.399,29.0
127.227,6.435,7.89,18.0
64.331,3.276,5.805,22.0
64.463,3.298,5.464,25.0
65.241,3.352,5.173,12.0
124.068,6.403,9.145,33.0
124.562,6.457,8.501,25.0
128.169,6.675,8.049,23.0
64.419,3.378,5.864,41.0
64.448,3.394,5.512,34.0
74.321,3.931,5.949,16.0
124.819,6.629,9.294,31.0
124.565,6.645,8.594,35.0
154.839,8.296,9.838,18.0
64.327,3.47,5.903,11.0
67.925,3.679,5.859,15.0
65.123,3.542,5.26,12.0
71.898,3.927,5.405,15.0
71.97,3.947,5.016,37.0
154.793,8.525,9.942,19.0
63.735,3.534,5.893,9.0
64.402,3.586,5.6,23.0
75.59,4.226,6.157,13.0
78.427,4.402,5.949,18.0
71.762,4.045,5.05,39.0
127.781,7.231,8.29,25.0
63.775,3.635,5.939,13.0
64.439,3.687,5.645,39.0
64.587,3.709,5.301,34.0
71.897,4.145,5.499,15.0
71.761,4.153,5.094,35.0
127.306,7.397,8.338,31.0
41.599,2.434,3.899,39.0
64.256,3.773,5.667,30.0
64.286,3.789,5.315,44.0
78.547,4.647,6.053,12.0
78.634,4.669,5.627,26.0
127.371,7.593,8.415,23.0
41.405,2.485,3.904,60.0
64.293,3.873,5.706,32.0
64.305,3.888,5.352,32.0
64.587,3.919,5.013,6.0
78.712,4.793,5.675,31.0
67.224,4.108,4.476,19.0
41.395,2.547,3.925,60.0
64.332,3.973,5.744,32.0
64.327,3.986,5.386,19.0
71.482,4.446,5.583,3.0
66.988,4.18,4.862,20.0
67.09,4.202,4.5,34.0
54.393,3.43,5.184,8.0
65.694,4.156,5.896,29.0
0.0,0.0,0.0,0.0
71.413,4.548,5.611,4.0
67.279,4.3,4.913,24.0
67.244,4.313,4.539,43.0
63.448,4.097,6.075,19.0
70.255,4.551,6.336,15.0
65.824,4.278,5.57,41.0
65.847,4.293,5.2,31.0
67.371,4.407,4.948,31.0
67.236,4.412,4.565,43.0
63.488,4.194,6.103,21.0
63.396,4.201,5.742,37.0
65.193,4.334,5.542,32.0
65.97,4.4,5.234,40.0
67.244,4.499,4.962,42.0
67.285,4.516,4.593,43.0
64.835,4.38,6.255,10.0
65.899,4.466,5.99,10.0
65.056,4.422,5.551,40.0
65.461,4.463,5.215,23.0
67.045,4.585,4.969,42.0
67.527,4.632,4.63,37.0
70.811,4.89,6.854,28.0
70.747,4.899,6.452,31.0
63.79,4.43,5.462,29.0
64.546,4.496,5.16,41.0
67.049,4.683,4.988,41.0
67.398,4.722,4.639,26.0
70.901,5.0,6.881,29.0
64.119,4.534,5.864,33.0
63.815,4.525,5.479,38.0
64.205,4.566,5.148,37.0
0.0,0.0,0.0,0.0
67.477,4.826,4.659,31.0
64.012,4.609,6.226,12.0
64.037,4.623,5.87,39.0
63.735,4.613,5.486,31.0
64.021,4.646,5.146,39.0
64.983,4.729,4.861,39.0
70.792,5.166,4.901,16.0
64.06,4.705,6.242,25.0
63.911,4.706,5.869,39.0
63.841,4.713,5.505,28.0
63.815,4.723,5.139,39.0
64.876,4.814,4.862,32.0
70.737,5.263,4.907,40.0
38.798,2.906,3.785,33.0
63.865,4.794,5.873,36.0
63.924,4.811,5.519,39.0
63.372,4.781,5.11,23.0
65.049,4.919,4.881,35.0
67.52,5.12,4.69,26.0
38.735,2.956,3.783,67.0
63.754,4.876,5.868,31.0
63.968,4.904,5.528,39.0
63.568,4.886,5.13,24.0
65.386,5.037,4.911,21.0
67.807,5.237,4.713,21.0
38.735,3.011,3.784,63.0
63.917,4.979,5.885,39.0
63.657,4.97,5.503,33.0
63.477,4.968,5.125,48.0
65.417,5.132,4.914,19.0
70.713,5.56,4.916,10.0
38.702,3.062,3.781,54.0
63.76,5.056,5.87,39.0
63.957,5.083,5.528,39.0
63.495,5.057,5.125,38.0
65.431,5.222,4.913,19.0
74.605,5.968,5.184,24.0
38.677,3.113,3.777,26.0
64.281,5.185,5.914,40.0
63.864,5.163,5.516,39.0
66.449,5.383,5.359,14.0
65.518,5.319,4.916,10.0
74.84,6.09,5.194,14.0
38.738,3.171,3.78,40.0
64.489,5.29,5.928,33.0
64.047,5.264,5.526,39.0
66.048,5.44,5.319,42.0
66.405,5.48,4.975,41.0
75.912,6.278,5.26,31.0
64.575,5.373,6.293,14.0
64.424,5.371,5.914,22.0
64.203,5.362,5.531,39.0
66.671,5.58,5.36,27.0
66.354,5.565,4.961,27.0
74.561,6.265,5.155,15.0
64.559,5.458,6.28,9.0
47.352,4.01,4.338,28.0
64.343,5.459,5.531,24.0
66.409,5.645,5.327,42.0
66.209,5.639,4.937,41.0
0.0,0.0,0.0,0.0
47.857,4.108,4.646,44.0
47.329,4.07,4.326,45.0
47.558,4.097,4.077,21.0
66.537,5.742,5.322,42.0
66.38,5.738,4.935,20.0
72.602,6.288,4.988,20.0
47.847,4.168,4.633,33.0
47.539,4.148,4.333,21.0
47.657,4.166,4.074,32.0
66.082,5.787,5.268,27.0
66.306,5.817,4.911,41.0
74.205,6.521,5.078,11.0
62.159,5.494,6.001,27.0
47.504,4.205,4.316,19.0
47.77,4.236,4.069,43.0
66.302,5.888,5.266,15.0
67.703,6.023,4.994,12.0
66.154,5.895,4.506,16.0
61.987,5.555,5.964,28.0
47.549,4.268,4.304,21.0
47.749,4.292,4.051,52.0
66.235,5.963,5.238,14.0
66.851,6.029,4.907,25.0
67.661,6.112,4.584,11.0
61.916,5.624,5.935,18.0
47.746,4.343,4.304,28.0
47.72,4.347,4.03,40.0
65.968,6.018,5.191,33.0
66.422,6.069,4.85,17.0
66.182,6.057,4.458,28.0
47.691,4.389,4.551,15.0
47.885,4.412,4.297,5.0
47.506,4.383,3.993,9.0
13.809,1.276,1.08,4.0
65.91,6.1,4.784,10.0
13.833,1.282,0.925,10.0
13.883,1.293,1.319,15.0
13.863,1.293,1.238,12.0
13.854,1.294,1.158,12.0
13.809,1.291,1.074,18.0
13.825,1.295,0.997,16.0
13.825,1.296,0.918,26.0
13.843,1.305,1.308,20.0
13.816,1.304,1.227,17.0
13.785,1.303,1.145,23.0
13.805,1.306,1.067,29.0
13.81,1.308,0.989,29.0
13.807,1.31,0.91,29.0
13.834,1.319,1.3,28.0
13.811,1.319,1.219,31.0
13.792,1.318,1.139,31.0
13.806,1.321,1.06,32.0
13.804,1.323,0.981,31.0
13.787,1.323,0.902,32.0
13.819,1.333,1.291,36.0
13.8,1.332,1.21,39.0
13.781,1.332,1.13,40.0
13.781,1.334,1.05,32.0
13.782,1.335,0.972,37.0
13.784,1.337,0.893,34.0
13.801,1.345,1.281,40.0
13.792,1.346,1.201,128.0
13.771,1.345,1.121,141.0
13.769,1.347,1.041,39.0
13.768,1.348,0.962,39.0
13.777,1.35,0.885,34.0
13.794,1.359,1.272,38.0
13.781,1.359,1.192,150.0
13.767,1.359,1.112,139.0
13.767,1.36,1.032,40.0
13.763,1.361,0.953,64.0
13.761,1.362,0.875,34.0
13.781,1.371,1.262,37.0
13.777,1.372,1.182,150.0
13.76,1.371,1.102,123.0
13.743,1.371,1.021,27.0
13.767,1.375,0.944,72.0
13.757,1.375,0.865,36.0
13.78,1.384,1.252,37.0
13.774,1.384,1.173,103.0
13.757,1.384,1.092,150.0
13.722,1.382,1.01,24.0
13.763,1.387,0.934,81.0
13.757,1.388,0.855,37.0
13.779,1.397,1.242,40.0
13.774,1.397,1.162,84.0
13.743,1.395,1.081,138.0
13.744,1.396,1.001,30.0
13.759,1.399,0.924,80.0
13.756,1.4,0.845,38.0
13.781,1.409,1.231,40.0
13.76,1.408,1.151,58.0
13.745,1.407,1.071,150.0
13.753,1.409,0.991,36.0
13.75,1.41,0.912,78.0
13.761,1.412,0.835,49.0
13.781,1.42,1.221,70.0
13.757,1.419,1.14,76.0
13.747,1.419,1.06,150.0
13.755,1.421,0.98,57.0
13.757,1.422,0.902,78.0
13.759,1.423,0.823,52.0
13.778,1.431,1.209,85.0
13.752,1.429,1.128,84.0
13.749,1.43,1.049,101.0
13.753,1.431,0.969,105.0
13.753,1.432,0.89,94.0
13.757,1.434,0.812,73.0
13.777,1.442,1.197,41.0
13.751,1.44,1.116,67.0
13.751,1.441,1.037,108.0
13.75,1.441,0.957,115.0
13.757,1.443,0.879,90.0
13.759,1.444,0.8,60.0
13.78,1.452,1.186,37.0
13.749,1.45,1.104,144.0
13.761,1.451,1.026,147.0
13.757,1.452,0.945,132.0
13.757,1.453,0.866,90.0
13.761,1.454,0.788,57.0
13.758,1.459,1.171,25.0
13.75,1.459,1.091,150.0
13.765,1.461,1.014,150.0
13.755,1.461,0.933,120.0
13.757,1.462,0.854,118.0
13.76,1.463,0.775,39.0
13.735,1.466,1.157,19.0
13.75,1.468,1.079,150.0
13.763,1.47,1.001,150.0
13.75,1.469,0.919,109.0
13.756,1.471,0.841,104.0
13.769,1.473,0.763,39.0
13.75,1.476,1.145,31.0
13.763,1.478,1.067,95.0
13.765,1.479,0.988,143.0
13.752,1.478,0.906,129.0
13.763,1.48,0.828,96.0
13.768,1.481,0.749,38.0
13.759,1.485,1.132,38.0
13.762,1.486,1.053,150.0
13.766,1.487,0.974,125.0
13.751,1.486,0.893,100.0
13.765,1.488,0.814,92.0
13.772,1.489,0.736,35.0
13.751,1.492,1.117,40.0
13.767,1.494,1.039,150.0
13.757,1.493,0.959,77.0
13.743,1.492,0.878,37.0
13.767,1.495,0.801,101.0
13.78,1.497,0.722,35.0
13.761,1.499,1.104,51.0
13.777,1.501,1.026,131.0
13.757,1.5,0.945,122.0
13.72,1.496,0.862,31.0
13.77,1.502,0.787,66.0
13.779,1.503,0.708,33.0
13.758,1.506,1.089,55.0
13.777,1.508,1.011,131.0
13.756,1.506,0.931,141.0
13.747,1.505,0.85,36.0
13.779,1.509,0.772,50.0
13.783,1.51,0.694,32.0
13.769,1.512,1.075,76.0
13.782,1.514,0.997,83.0
13.746,1.51,0.915,145.0
13.748,1.511,0.835,40.0
13.78,1.514,0.758,37.0
13.793,1.516,0.679,31.0
13.769,1.518,1.06,91.0
13.771,1.518,0.981,38.0
13.748,1.515,0.9,150.0
13.758,1.517,0.82,69.0
13.792,1.52,0.743,34.0
13.805,1.522,0.665,29.0
13.778,1.523,1.046,54.0
13.763,1.521,0.965,34.0
13.745,1.519,0.885,147.0
13.76,1.521,0.805,38.0
13.808,1.526,0.729,32.0
13.811,1.527,0.65,29.0
13.787,1.528,1.031,41.0
13.767,1.526,0.95,37.0
13.748,1.523,0.869,92.0
13.768,1.526,0.79,35.0
13.808,1.53,0.713,30.0
13.812,1.531,0.634,25.0
13.783,1.531,1.014,39.0
13.756,1.528,0.933,39.0
13.751,1.527,0.854,59.0
13.787,1.531,0.775,33.0
13.812,1.534,0.697,28.0
13.813,1.534,0.618,19.0
13.787,1.534,0.999,35.0
13.753,1.53,0.917,53.0
13.765,1.531,0.839,51.0
13.793,1.534,0.76,32.0
13.797,1.535,0.68,23.0
13.808,1.536,0.602,17.0
13.788,1.536,0.983,32.0
13.752,1.532,0.901,114.0
13.763,1.533,0.822,102.0
13.8,1.537,0.744,30.0
13.806,1.537,0.665,22.0
13.822,1.539,0.586,14.0
13.782,1.537,0.966,29.0
13.755,1.534,0.885,111.0
13.776,1.536,0.807,39.0
13.808,1.539,0.728,27.0
13.814,1.539,0.649,20.0
13.822,1.54,0.57,16.0
13.765,1.536,0.948,30.0
13.766,1.536,0.869,68.0
13.777,1.537,0.79,34.0
13.798,1.539,0.711,24.0
13.813,1.54,0.632,16.0
35.872,3.999,1.436,9.0
13.768,1.537,0.931,34.0
13.768,1.536,0.852,60.0
13.795,1.539,0.774,32.0
13.799,1.539,0.694,20.0
35.873,4.0,1.598,3.0
35.883,4.001,1.393,24.0
13.762,1.536,0.914,38.0
13.775,1.537,0.836,92.0
13.802,1.539,0.758,31.0
13.804,1.539,0.677,21.0
13.816,1.54,0.598,13.0
35.874,3.998,1.348,8.0
13.755,1.534,0.897,40.0
13.776,1.536,0.818,90.0
13.802,1.538,0.741,30.0
13.808,1.538,0.66,21.0
13.817,1.539,0.581,14.0
13.817,1.538,0.502,11.0
13.761,1.533,0.88,39.0
13.778,1.534,0.802,39.0
13.803,1.536,0.724,28.0
13.809,1.537,0.643,19.0
13.815,1.537,0.564,14.0
13.82,1.537,0.485,13.0
13.761,1.531,0.863,39.0
13.779,1.532,0.784,36.0
13.788,1.532,0.705,28.0
13.795,1.533,0.625,19.0
13.805,1.533,0.546,15.0
13.807,1.533,0.467,16.0
13.766,1.529,0.846,39.0
13.8,1.532,0.768,36.0
13.812,1.532,0.689,30.0
13.8,1.53,0.608,22.0
13.803,1.53,0.529,16.0
13.808,1.53,0.45,17.0
13.775,1.526,0.829,47.0
13.805,1.529,0.751,36.0
13.812,1.529,0.672,32.0
13.791,1.525,0.59,24.0
13.803,1.526,0.511,21.0
13.797,1.525,0.432,20.0
13.775,1.522,0.811,40.0
13.801,1.524,0.733,37.0
13.801,1.523,0.654,34.0
13.792,1.521,0.573,26.0
13.788,1.52,0.493,25.0
13.811,1.522,0.415,24.0
13.776,1.518,0.794,40.0
13.796,1.519,0.715,37.0
13.792,1.517,0.636,33.0
13.792,1.516,0.555,27.0
13.815,1.518,0.477,30.0
13.8,1.515,0.397,27.0
13.786,1.514,0.777,41.0
13.79,1.513,0.697,37.0
13.795,1.512,0.618,32.0
13.792,1.511,0.538,28.0
13.802,1.511,0.459,32.0
13.806,1.51,0.38,29.0
13.785,1.508,0.759,40.0
13.787,1.507,0.68,38.0
13.787,1.505,0.6,35.0
13.79,1.504,0.52,32.0
13.796,1.504,0.441,33.0
13.796,1.503,0.362,32.0
13.785,1.501,0.741,39.0
13.796,1.501,0.662,68.0
13.784,1.498,0.583,38.0
13.789,1.498,0.502,34.0
13.788,1.496,0.423,35.0
13.791,1.496,0.344,34.0
13.79,1.494,0.724,40.0
13.789,1.493,0.644,47.0
13.78,1.49,0.565,49.0
13.777,1.489,0.484,38.0
13.792,1.489,0.406,36.0
13.787,1.487,0.326,34.0
13.779,1.485,0.705,42.0
13.78,1.484,0.626,47.0
13.78,1.482,0.547,78.0
13.78,1.481,0.467,38.0
13.794,1.481,0.388,36.0
13.783,1.479,0.309,33.0
13.773,1.476,0.688,40.0
13.776,1.475,0.609,52.0
13.777,1.474,0.53,103.0
13.771,1.472,0.449,40.0
13.777,1.471,0.37,38.0
13.769,1.469,0.291,33.0
13.774,1.467,0.67,60.0
13.772,1.466,0.591,103.0
13.775,1.464,0.512,123.0
13.776,1.463,0.432,40.0
13.777,1.462,0.353,39.0
13.766,1.459,0.274,34.0
13.772,1.457,0.653,60.0
13.779,1.456,0.574,150.0
13.773,1.454,0.494,150.0
13.771,1.452,0.414,46.0
13.779,1.452,0.335,38.0
13.763,1.448,0.256,35.0
13.761,1.446,0.635,37.0
13.78,1.446,0.556,150.0
13.775,1.444,0.477,150.0
13.769,1.442,0.397,41.0
13.77,1.44,0.318,37.0
13.755,1.437,0.239,35.0
13.757,1.435,0.617,40.0
13.778,1.435,0.539,150.0
13.78,1.433,0.46,150.0
13.767,1.43,0.379,50.0
13.768,1.429,0.301,38.0
13.76,1.426,0.222,35.0
13.761,1.424,0.6,37.0
13.78,1.424,0.522,150.0
13.776,1.421,0.443,150.0
13.773,1.419,0.363,48.0
13.76,1.416,0.283,38.0
13.762,1.415,0.205,37.0
13.769,1.412,0.584,40.0
13.782,1.411,0.505,150.0
13.778,1.409,0.426,149.0
13.768,1.406,0.345,40.0
13.764,1.404,0.267,62.0
13.764,1.402,0.188,37.0
13.771,1.4,0.567,71.0
13.785,1.399,0.488,150.0
13.781,1.397,0.409,128.0
13.77,1.394,0.329,42.0
13.778,1.392,0.25,53.0
13.764,1.389,0.171,36.0
13.778,1.387,0.55,79.0
13.789,1.386,0.472,150.0
13.785,1.384,0.393,140.0
13.77,1.38,0.312,38.0
13.775,1.379,0.233,39.0
13.778,1.377,0.155,35.0
13.787,1.374,0.534,58.0
13.799,1.373,0.455,136.0
13.792,1.37,0.376,122.0
13.776,1.367,0.296,40.0
13.785,1.365,0.217,40.0
13.791,1.364,0.138,35.0
13.796,1.361,0.518,40.0
13.799,1.359,0.439,116.0
13.792,1.356,0.36,106.0
13.779,1.352,0.28,38.0
13.785,1.351,0.201,37.0
13.798,1.35,0.122,36.0
13.807,1.347,0.502,39.0
13.806,1.344,0.423,62.0
13.792,1.341,0.344,51.0
13.791,1.338,0.264,37.0
13.794,1.336,0.185,35.0
13.802,1.335,0.107,36.0
13.822,1.333,0.486,38.0
13.82,1.33,0.407,66.0
13.805,1.326,0.328,38.0
13.805,1.324,0.248,35.0
13.812,1.322,0.169,32.0
13.818,1.321,0.091,35.0
13.836,1.318,0.471,37.0
13.828,1.314,0.392,39.0
13.816,1.311,0.313,34.0
13.82,1.309,0.233,29.0
13.834,1.308,0.154,33.0
13.829,1.305,0.075,30.0
13.844,1.302,0.456,34.0
13.843,1.299,0.377,34.0
13.823,1.295,0.298,28.0
13.834,1.293,0.218,21.0
13.842,1.292,0.139,24.0
13.846,1.29,0.06,25.0
13.854,1.285,0.441,19.0
27.286,2.527,0.713,5.0
27.271,2.52,0.557,3.0
27.223,2.511,0.399,3.0
27.207,2.505,0.244,4.0
13.869,1.274,0.045,15.0
27.282,2.497,0.839,11.0
27.255,2.489,0.683,23.0
27.248,2.483,0.527,26.0
27.236,2.477,0.369,40.0
27.219,2.47,0.214,29.0
27.322,2.474,0.06,13.0
27.321,2.463,0.81,154.0
27.257,2.452,0.653,34.0
27.227,2.444,0.498,18.0
27.204,2.437,0.34,18.0
27.275,2.438,0.186,31.0
27.324,2.438,0.031,23.0
27.248,2.42,0.78,169.0
27.251,2.415,0.625,37.0
27.242,2.408,0.47,43.0
27.207,2.4,0.312,47.0
27.35,2.407,0.158,31.0
27.384,2.405,0.003,9.0
27.228,2.38,0.752,168.0
27.237,2.375,0.597,52.0
27.224,2.369,0.442,48.0
27.216,2.362,0.284,50.0
27.365,2.37,0.131,14.0
34.316,2.965,-0.03,4.0
27.273,2.345,0.725,154.0
27.223,2.335,0.569,55.0
27.239,2.331,0.415,50.0
27.246,2.326,0.258,46.0
27.432,2.336,0.104,24.0
27.474,2.334,-0.051,28.0
27.249,2.303,0.698,60.0
27.249,2.297,0.543,54.0
27.267,2.293,0.389,39.0
27.255,2.286,0.232,32.0
27.419,2.294,0.077,17.0
27.466,2.292,-0.077,26.0
27.252,2.263,0.672,51.0
27.255,2.257,0.518,49.0
27.27,2.252,0.363,32.0
27.301,2.249,0.206,34.0
27.448,2.255,0.052,16.0
27.469,2.251,-0.102,25.0
27.267,2.222,0.647,31.0
27.298,2.219,0.493,44.0
27.32,2.214,0.339,50.0
27.36,2.211,0.182,24.0
27.513,2.218,0.027,16.0
27.515,2.212,-0.127,24.0
27.313,2.183,0.624,53.0
27.331,2.178,0.469,30.0
27.393,2.177,0.315,51.0
27.504,2.179,0.158,7.0
41.63,3.29,0.005,34.0
35.488,2.797,-0.196,22.0
27.463,2.152,0.603,15.0
74.694,5.835,1.218,13.0
74.329,5.788,0.792,31.0
54.466,4.229,0.267,29.0
41.243,3.193,-0.03,41.0
35.139,2.712,-0.224,15.0
27.545,2.113,0.581,1.0
120.946,9.25,1.871,6.0
74.168,5.654,0.728,28.0
53.921,4.097,0.219,22.0
41.139,3.116,-0.064,19.0
34.979,2.641,-0.252,9.0
66.523,4.992,1.349,7.0
66.551,4.978,0.974,150.0
66.568,4.963,0.599,173.0
47.812,3.553,0.155,20.0
38.866,2.879,-0.092,24.0
0.0,0.0,0.0,0.0
139.635,10.247,2.723,76.0
103.778,7.588,1.438,89.0
73.803,5.378,0.607,16.0
46.913,3.407,0.116,22.0
36.412,2.635,-0.114,30.0
34.932,2.52,-0.306,10.0
139.633,10.006,2.617,16.0
96.829,6.914,1.268,3.0
73.671,5.241,0.549,9.0
46.259,3.279,0.08,18.0
36.295,2.564,-0.141,12.0
35.015,2.465,-0.333,1.0
114.598,8.011,2.062,18.0
80.663,5.619,0.997,6.0
58.099,4.032,0.391,24.0
42.221,2.919,0.042,17.0
35.888,2.471,-0.165,26.0
32.166,2.207,-0.329,1.0
114.719,7.817,1.983,9.0
80.857,5.487,0.943,4.0
57.997,3.921,0.35,9.0
42.042,2.831,0.013,17.0
0.0,0.0,0.0,0.0
31.367,2.096,-0.342,1.0
139.578,9.261,2.319,69.0
78.171,5.164,0.859,10.0
55.284,3.638,0.297,27.0
41.322,2.708,-0.014,33.0
0.0,0.0,0.0,0.0
30.893,2.008,-0.357,2.0
139.612,9.009,2.23,15.0
75.373,4.842,0.78,12.0
54.668,3.497,0.259,28.0
41.02,2.613,-0.039,50.0
35.406,2.246,-0.233,13.0
30.487,1.925,-0.371,2.0
33.478,2.097,0.514,153.0
33.462,2.087,0.326,161.0
33.451,2.077,0.138,142.0
40.699,2.516,-0.063,16.0
35.302,2.173,-0.253,3.0
30.181,1.849,-0.385,2.0
33.44,2.032,0.494,0.0
74.721,4.521,0.685,26.0
54.466,3.28,0.194,19.0
40.335,2.418,-0.085,40.0
35.303,2.107,-0.272,8.0
29.768,1.768,-0.396,1.0
120.937,7.123,1.72,5.0
74.538,4.368,0.643,26.0
54.107,3.155,0.164,7.0
40.255,2.337,-0.106,27.0
35.326,2.04,-0.291,7.0
29.499,1.696,-0.408,2.0
96.4,5.495,1.322,5.0
73.869,4.188,0.6,26.0
46.973,2.65,0.119,21.0
36.889,2.07,-0.116,13.0
35.324,1.973,-0.308,8.0
29.168,1.62,-0.417,2.0
94.495,5.202,1.251,4.0
73.66,4.033,0.563,21.0
46.608,2.538,0.096,21.0
40.125,2.173,-0.145,2.0
0.0,0.0,0.0,0.0
28.964,1.552,-0.428,2.0
105.871,5.622,1.354,31.0
73.539,3.883,0.53,17.0
46.308,2.432,0.075,21.0
36.468,1.904,-0.147,34.0
35.507,1.843,-0.341,0.0
28.835,1.488,-0.438,1.0
81.895,4.188,1.014,11.0
73.583,3.741,0.501,11.0
0.0,0.0,0.0,0.0
36.29,1.823,-0.16,43.0
32.582,1.626,-0.326,1.0
28.642,1.421,-0.446,1.0
79.438,3.904,0.953,8.0
73.588,3.594,0.473,8.0
0.0,0.0,0.0,0.0
36.259,1.748,-0.173,42.0
32.165,1.541,-0.333,1.0
28.49,1.356,-0.453,1.0
79.036,3.726,0.921,11.0
58.564,2.743,0.357,9.0
0.0,0.0,0.0,0.0
36.25,1.675,-0.185,40.0
32.083,1.473,-0.342,1.0
28.416,1.296,-0.461,1.0
78.933,3.562,0.896,10.0
58.652,2.628,0.34,9.0
42.519,1.891,0.01,17.0
36.26,1.601,-0.195,33.0
31.703,1.39,-0.347,1.0
24.819,1.081,-0.409,0.0
79.169,3.41,0.878,13.0
58.879,2.518,0.326,17.0
42.462,1.803,0.0,17.0
36.254,1.528,-0.204,31.0
31.532,1.32,-0.353,1.0
24.632,1.023,-0.412,1.0
78.539,3.224,0.853,22.0
58.838,2.397,0.313,11.0
42.284,1.709,-0.009,17.0
36.274,1.454,-0.212,28.0
30.997,1.232,-0.353,2.0
24.629,0.972,-0.417,1.0
78.471,3.06,0.837,23.0
58.826,2.274,0.301,9.0
42.207,1.619,-0.017,17.0
36.295,1.38,-0.219,21.0
31.217,1.177,-0.361,1.0
24.434,0.913,-0.418,1.0
78.244,2.889,0.822,23.0
58.823,2.153,0.292,15.0
46.813,1.697,-0.025,7.0
36.345,1.306,-0.224,17.0
31.014,1.105,-0.363,1.0
24.461,0.863,-0.421,1.0
78.18,2.723,0.812,27.0
58.804,2.029,0.285,20.0
0.0,0.0,0.0,0.0
36.436,1.234,-0.228,16.0
31.062,1.042,-0.366,1.0
27.68,0.919,-0.479,1.0
78.265,2.563,0.806,28.0
58.909,1.91,0.281,27.0
46.565,1.494,-0.033,20.0
36.546,1.16,-0.231,14.0
31.089,0.977,-0.368,2.0
27.59,0.858,-0.479,1.0
78.187,2.396,0.801,27.0
59.085,1.791,0.28,27.0
41.137,1.233,-0.031,10.0
36.634,1.086,-0.233,20.0
31.119,0.913,-0.369,2.0
27.511,0.798,-0.478,1.0
78.17,2.233,0.8,29.0
0.0,0.0,0.0,0.0
42.613,1.189,-0.032,17.0
36.742,1.012,-0.233,18.0
31.04,0.845,-0.368,2.0
27.472,0.739,-0.477,1.0
78.265,2.07,0.803,22.0
58.771,1.534,0.28,33.0
42.806,1.104,-0.03,9.0
36.87,0.938,-0.232,18.0
31.11,0.781,-0.367,1.0
27.527,0.682,-0.476,1.0
78.225,1.905,0.808,17.0
59.417,1.427,0.288,33.0
0.0,0.0,0.0,0.0
36.969,0.862,-0.23,20.0
31.351,0.721,-0.367,2.0
27.638,0.626,-0.475,1.0
0.0,0.0,0.0,0.0
59.836,1.31,0.296,34.0
43.394,0.935,-0.022,5.0
37.093,0.786,-0.226,22.0
31.446,0.656,-0.364,1.0
27.739,0.569,-0.473,1.0
80.529,1.621,0.852,11.0
60.569,1.198,0.309,35.0
0.0,0.0,0.0,0.0
37.268,0.711,-0.221,23.0
31.536,0.591,-0.36,1.0
27.895,0.513,-0.471,1.0
80.548,1.449,0.866,7.0
60.959,1.075,0.322,35.0
0.0,0.0,0.0,0.0
37.509,0.636,-0.215,29.0
31.816,0.528,-0.356,2.0
28.084,0.457,-0.468,1.0
89.666,1.423,0.984,8.0
0.0,0.0,0.0,0.0
0.0,0.0,0.0,0.0
37.736,0.56,-0.207,33.0
32.055,0.464,-0.351,1.0
28.314,0.4,-0.465,1.0
91.865,1.264,1.031,3.0
48.093,0.645,0.277,62.0
46.861,0.613,0.014,36.0
37.942,0.483,-0.198,38.0
32.411,0.401,-0.346,1.0
28.551,0.344,-0.461,2.0
48.113,0.561,0.554,102.0
48.052,0.543,0.291,91.0
47.223,0.517,0.029,42.0
38.18,0.405,-0.188,43.0
32.758,0.336,-0.339,1.0
28.824,0.286,-0.456,1.0
48.079,0.458,0.569,105.0
48.049,0.441,0.307,107.0
47.605,0.42,0.045,52.0
38.513,0.326,-0.176,47.0
33.165,0.27,-0.332,1.0
28.992,0.225,-0.448,2.0
48.109,0.356,0.587,63.0
48.153,0.339,0.326,61.0
47.898,0.322,0.064,52.0
38.928,0.247,-0.163,48.0
33.394,0.2,-0.321,1.0
29.199,0.165,-0.439,2.0
59.305,0.314,0.748,147.0
59.315,0.294,0.426,102.0
54.266,0.249,0.095,28.0
39.393,0.166,-0.148,43.0
