X,Y,Z,Reflectivity
13.126,1.509,-0.594,8.0
12.778,1.468,-0.651,3.0
13.85,1.585,-0.321,8.0
13.822,1.58,-0.399,17.0
13.769,1.572,-0.476,14.0
13.57,1.548,-0.548,9.0
13.085,1.491,-0.603,9.0
12.625,1.437,-0.653,2.0
13.838,1.569,-0.331,18.0
13.799,1.563,-0.409,19.0
13.746,1.555,-0.486,15.0
13.473,1.523,-0.554,8.0
13.07,1.476,-0.612,10.0
12.485,1.408,-0.656,1.0
13.827,1.553,-0.342,25.0
13.78,1.546,-0.419,17.0
13.733,1.539,-0.496,17.0
13.421,1.502,-0.562,8.0
13.065,1.461,-0.622,10.0
12.329,1.377,-0.657,1.0
13.81,1.536,-0.351,28.0
13.76,1.528,-0.428,24.0
13.723,1.522,-0.505,19.0
13.354,1.48,-0.569,8.0
13.078,1.448,-0.631,10.0
12.259,1.355,-0.662,2.0
13.796,1.519,-0.361,28.0
13.763,1.513,-0.438,27.0
13.704,1.504,-0.514,18.0
13.322,1.461,-0.577,11.0
13.064,1.431,-0.64,11.0
12.173,1.332,-0.665,1.0
13.785,1.501,-0.37,31.0
13.767,1.497,-0.447,34.0
13.698,1.488,-0.523,19.0
13.24,1.436,-0.582,12.0
13.049,1.414,-0.648,9.0
12.06,1.305,-0.667,2.0
13.778,1.484,-0.378,36.0
13.765,1.48,-0.456,38.0
13.686,1.47,-0.531,17.0
13.186,1.414,-0.588,11.0
12.943,1.386,-0.65,6.0
11.974,1.281,-0.67,2.0
13.776,1.466,-0.387,36.0
13.761,1.462,-0.464,36.0
13.671,1.451,-0.539,13.0
13.15,1.394,-0.594,8.0
12.833,1.358,-0.652,4.0
11.855,1.253,-0.67,2.0
13.768,1.448,-0.395,33.0
13.764,1.445,-0.472,35.0
13.642,1.43,-0.545,11.0
13.108,1.372,-0.6,8.0
12.781,1.336,-0.657,3.0
11.796,1.231,-0.673,3.0
13.77,1.43,-0.402,31.0
13.742,1.425,-0.479,25.0
13.613,1.409,-0.552,12.0
13.062,1.35,-0.604,8.0
12.675,1.308,-0.658,2.0
11.72,1.208,-0.675,2.0
13.77,1.412,-0.409,35.0
13.724,1.404,-0.485,22.0
13.538,1.383,-0.555,12.0
13.081,1.334,-0.612,9.0
12.58,1.281,-0.66,2.0
11.655,1.185,-0.677,2.0
13.768,1.393,-0.416,35.0
13.732,1.386,-0.492,19.0
13.531,1.364,-0.561,12.0
13.074,1.315,-0.618,9.0
12.533,1.259,-0.663,2.0
11.611,1.164,-0.68,2.0
13.767,1.373,-0.422,63.0
13.724,1.366,-0.498,16.0
13.51,1.343,-0.566,12.0
13.069,1.296,-0.623,9.0
12.465,1.234,-0.665,2.0
11.563,1.143,-0.682,1.0
13.763,1.353,-0.428,39.0
13.729,1.347,-0.504,17.0
13.461,1.318,-0.57,11.0
13.069,1.278,-0.628,10.0
12.402,1.21,-0.666,2.0
11.514,1.121,-0.683,1.0
13.772,1.334,-0.433,35.0
13.722,1.327,-0.509,17.0
13.483,1.301,-0.576,11.0
13.067,1.258,-0.633,11.0
12.361,1.188,-0.668,3.0
11.455,1.099,-0.684,1.0
13.777,1.314,-0.438,32.0
13.733,1.307,-0.514,17.0
13.446,1.277,-0.579,11.0
13.063,1.238,-0.637,11.0
12.363,1.17,-0.672,3.0
11.399,1.076,-0.684,2.0
13.8,1.295,-0.443,31.0
13.749,1.288,-0.518,16.0
13.392,1.252,-0.58,12.0
13.071,1.219,-0.641,12.0
12.336,1.148,-0.674,3.0
11.394,1.059,-0.687,2.0
13.816,1.276,-0.447,27.0
13.752,1.267,-0.522,16.0
13.434,1.235,-0.586,12.0
13.062,1.198,-0.644,11.0
12.329,1.129,-0.677,2.0
11.385,1.04,-0.689,2.0
13.842,1.257,-0.451,26.0
13.772,1.248,-0.526,16.0
13.421,1.213,-0.588,12.0
13.067,1.178,-0.647,10.0
12.313,1.108,-0.679,2.0
11.372,1.021,-0.691,1.0
13.851,1.236,-0.454,19.0
13.787,1.227,-0.529,13.0
13.454,1.195,-0.592,11.0
13.065,1.158,-0.649,10.0
12.308,1.088,-0.681,2.0
11.35,1.001,-0.691,2.0
13.904,1.219,-0.458,11.0
13.796,1.206,-0.532,13.0
13.478,1.176,-0.595,10.0
13.067,1.137,-0.651,11.0
12.296,1.067,-0.682,2.0
11.346,0.982,-0.692,2.0
16.594,1.428,-0.549,0.0
13.831,1.187,-0.535,12.0
13.446,1.151,-0.595,9.0
13.062,1.115,-0.652,9.0
12.305,1.048,-0.683,2.0
11.335,0.963,-0.693,2.0
16.547,1.397,-0.549,2.0
13.886,1.169,-0.538,12.0
13.428,1.127,-0.595,8.0
13.055,1.093,-0.653,10.0
12.322,1.029,-0.685,3.0
11.362,0.947,-0.695,2.0
16.531,1.368,-0.549,2.0
14.01,1.156,-0.543,11.0
13.45,1.107,-0.596,10.0
13.073,1.073,-0.654,10.0
12.33,1.009,-0.686,2.0
11.379,0.929,-0.696,2.0
16.518,1.34,-0.549,2.0
14.173,1.146,-0.55,12.0
13.481,1.087,-0.598,11.0
13.06,1.05,-0.653,10.0
12.284,0.985,-0.683,3.0
11.422,0.913,-0.698,2.0
16.572,1.316,-0.55,2.0
14.294,1.132,-0.554,11.0
13.475,1.064,-0.597,12.0
13.065,1.029,-0.652,10.0
12.314,0.967,-0.684,4.0
11.426,0.894,-0.698,2.0
16.643,1.294,-0.551,3.0
14.309,1.109,-0.553,10.0
13.498,1.043,-0.597,10.0
13.071,1.007,-0.652,10.0
12.337,0.947,-0.683,4.0
11.439,0.876,-0.697,2.0
16.71,1.27,-0.551,3.0
14.426,1.093,-0.556,8.0
13.544,1.023,-0.597,10.0
13.048,0.982,-0.649,9.0
12.364,0.928,-0.683,3.0
11.474,0.858,-0.698,2.0
16.799,1.248,-0.552,2.0
14.575,1.079,-0.559,7.0
13.603,1.004,-0.597,12.0
13.056,0.96,-0.647,9.0
12.425,0.911,-0.684,3.0
11.511,0.841,-0.698,2.0
16.832,1.221,-0.55,2.0
14.677,1.061,-0.56,7.0
13.673,0.985,-0.597,12.0
13.076,0.939,-0.645,9.0
12.502,0.894,-0.686,3.0
11.572,0.825,-0.699,3.0
16.931,1.198,-0.549,4.0
14.815,1.045,-0.562,4.0
13.768,0.968,-0.598,12.0
13.073,0.915,-0.641,10.0
12.571,0.877,-0.686,2.0
11.65,0.81,-0.7,2.0
17.014,1.174,-0.547,4.0
15.047,1.035,-0.566,2.0
13.819,0.947,-0.596,14.0
13.063,0.892,-0.637,8.0
12.618,0.858,-0.685,2.0
11.728,0.795,-0.701,2.0
17.159,1.154,-0.546,2.0
15.301,1.025,-0.571,2.0
13.944,0.931,-0.597,13.0
13.087,0.87,-0.634,8.0
12.714,0.842,-0.686,2.0
11.792,0.778,-0.701,1.0
17.304,1.133,-0.544,3.0
15.629,1.019,-0.577,2.0
14.085,0.915,-0.598,13.0
13.152,0.851,-0.632,8.0
12.803,0.825,-0.686,3.0
11.864,0.762,-0.701,1.0
17.514,1.116,-0.544,2.0
15.898,1.009,-0.581,2.0
14.351,0.907,-0.603,13.0
13.351,0.84,-0.636,10.0
12.915,0.809,-0.686,4.0
11.973,0.747,-0.702,1.0
17.631,1.092,-0.54,3.0
16.018,0.988,-0.578,2.0
14.53,0.892,-0.604,16.0
13.474,0.824,-0.635,10.0
13.009,0.792,-0.685,8.0
12.069,0.732,-0.702,2.0
17.779,1.069,-0.536,4.0
16.149,0.967,-0.575,3.0
14.635,0.872,-0.601,17.0
13.528,0.802,-0.631,12.0
13.038,0.77,-0.68,7.0
12.175,0.716,-0.701,2.0
17.965,1.048,-0.532,3.0
16.309,0.947,-0.572,4.0
14.648,0.846,-0.594,20.0
13.589,0.782,-0.627,11.0
13.067,0.748,-0.674,10.0
12.273,0.699,-0.7,2.0
18.23,1.031,-0.53,3.0
16.474,0.927,-0.569,3.0
14.666,0.821,-0.586,17.0
13.684,0.762,-0.623,15.0
13.06,0.724,-0.666,10.0
12.382,0.683,-0.699,3.0
18.464,1.01,-0.525,4.0
16.734,0.911,-0.567,2.0
14.688,0.796,-0.578,9.0
13.863,0.747,-0.622,15.0
13.065,0.701,-0.658,11.0
12.527,0.669,-0.699,2.0
18.792,0.995,-0.523,3.0
17.009,0.895,-0.566,2.0
14.95,0.783,-0.578,5.0
14.166,0.738,-0.627,14.0
13.111,0.679,-0.651,9.0
12.733,0.656,-0.702,1.0
19.111,0.977,-0.519,3.0
17.314,0.88,-0.564,3.0
15.372,0.777,-0.584,2.0
14.422,0.725,-0.628,15.0
13.327,0.667,-0.652,10.0
12.905,0.642,-0.702,3.0
19.4,0.957,-0.512,3.0
17.416,0.854,-0.554,3.0
15.853,0.773,-0.591,2.0
14.597,0.708,-0.624,22.0
13.47,0.65,-0.649,12.0
12.989,0.623,-0.697,6.0
19.679,0.935,-0.505,3.0
17.751,0.839,-0.551,5.0
16.104,0.757,-0.587,2.0
14.648,0.684,-0.615,29.0
13.605,0.632,-0.645,14.0
13.054,0.603,-0.69,9.0
20.024,0.916,-0.498,3.0
18.008,0.819,-0.545,4.0
16.355,0.739,-0.583,3.0
14.653,0.658,-0.603,22.0
13.783,0.615,-0.642,14.0
13.031,0.578,-0.678,10.0
20.422,0.898,-0.49,4.0
18.329,0.801,-0.539,3.0
16.599,0.721,-0.578,2.0
14.681,0.633,-0.592,12.0
14.004,0.6,-0.64,14.0
13.063,0.556,-0.668,10.0
20.848,0.88,-0.482,7.0
18.678,0.783,-0.533,3.0
16.959,0.706,-0.575,2.0
14.933,0.618,-0.588,6.0
14.342,0.589,-0.642,14.0
13.073,0.534,-0.656,7.0
21.149,0.855,-0.47,4.0
19.071,0.766,-0.526,3.0
17.321,0.691,-0.571,2.0
15.56,0.616,-0.598,5.0
14.483,0.569,-0.635,15.0
13.151,0.513,-0.647,2.0
21.681,0.838,-0.461,4.0
19.508,0.749,-0.519,3.0
17.601,0.671,-0.563,6.0
15.97,0.604,-0.598,2.0
14.563,0.547,-0.624,18.0
13.318,0.496,-0.642,1.0
22.437,0.828,-0.455,4.0
19.962,0.731,-0.511,3.0
18.01,0.655,-0.558,3.0
16.301,0.588,-0.594,2.0
14.627,0.523,-0.612,18.0
13.54,0.481,-0.639,2.0
23.373,0.822,-0.449,5.0
20.488,0.715,-0.504,3.0
18.395,0.637,-0.551,3.0
16.643,0.571,-0.589,2.0
14.679,0.5,-0.598,5.0
13.794,0.466,-0.636,3.0
24.036,0.803,-0.436,4.0
20.858,0.692,-0.49,4.0
18.806,0.618,-0.543,3.0
17.076,0.557,-0.586,2.0
15.112,0.488,-0.599,3.0
14.128,0.453,-0.636,3.0
27.696,0.878,-0.472,1.0
21.362,0.671,-0.478,4.0
19.207,0.598,-0.533,3.0
17.469,0.54,-0.579,2.0
15.763,0.483,-0.607,2.0
14.499,0.44,-0.636,3.0
28.282,0.849,-0.45,1.0
21.962,0.653,-0.467,4.0
19.635,0.578,-0.522,3.0
17.823,0.52,-0.571,3.0
16.143,0.467,-0.603,5.0
15.049,0.431,-0.642,3.0
29.153,0.826,-0.43,2.0
22.969,0.644,-0.461,5.0
20.168,0.56,-0.512,3.0
18.136,0.499,-0.559,3.0
16.588,0.452,-0.599,2.0
15.28,0.412,-0.633,3.0
29.946,0.798,-0.405,2.0
23.801,0.627,-0.448,1.0
20.732,0.541,-0.501,5.0
18.663,0.482,-0.552,3.0
17.01,0.435,-0.593,3.0
15.525,0.393,-0.624,3.0
30.736,0.768,-0.377,2.0
27.391,0.677,-0.482,1.0
21.284,0.52,-0.487,4.0
19.137,0.463,-0.542,3.0
17.436,0.417,-0.586,5.0
15.889,0.376,-0.618,3.0
31.986,0.747,-0.351,1.0
28.302,0.653,-0.461,1.0
21.936,0.5,-0.474,4.0
19.618,0.442,-0.53,3.0
17.783,0.396,-0.574,7.0
16.262,0.358,-0.611,3.0
33.341,0.724,-0.322,1.0
29.186,0.626,-0.437,2.0
23.148,0.49,-0.469,3.0
20.19,0.422,-0.518,3.0
18.391,0.38,-0.569,7.0
16.655,0.34,-0.604,3.0
36.743,0.739,-0.306,7.0
29.951,0.595,-0.407,2.0
26.844,0.526,-0.507,1.0
20.841,0.403,-0.506,4.0
18.83,0.359,-0.557,6.0
17.118,0.322,-0.597,2.0
37.111,0.688,-0.257,13.0
30.964,0.566,-0.378,2.0
27.523,0.496,-0.481,1.0
21.493,0.381,-0.491,4.0
19.397,0.339,-0.546,3.0
17.623,0.303,-0.589,4.0
37.65,0.638,-0.207,41.0
32.437,0.541,-0.349,2.0
28.502,0.468,-0.457,2.0
22.179,0.359,-0.475,4.0
19.934,0.317,-0.532,3.0
18.148,0.284,-0.58,3.0
38.476,0.593,-0.156,52.0
33.907,0.514,-0.316,1.0
29.451,0.439,-0.43,2.0
26.337,0.386,-0.526,2.0
20.659,0.297,-0.521,3.0
18.742,0.265,-0.572,4.0
39.594,0.55,-0.103,23.0
37.168,0.507,-0.292,5.0
30.364,0.406,-0.398,2.0
27.006,0.354,-0.498,2.0
21.373,0.275,-0.507,4.0
19.486,0.246,-0.565,5.0
44.607,0.553,-0.048,19.0
37.683,0.457,-0.239,13.0
31.697,0.377,-0.367,1.0
27.97,0.326,-0.474,1.0
22.046,0.252,-0.49,4.0
20.347,0.227,-0.559,5.0
47.147,0.515,0.02,42.0
38.351,0.41,-0.184,48.0
32.942,0.344,-0.331,1.0
29.104,0.297,-0.448,2.0
26.021,0.259,-0.537,1.0
21.406,0.208,-0.554,6.0
47.967,0.455,0.095,69.0
39.428,0.365,-0.128,37.0
37.427,0.337,-0.317,2.0
29.959,0.263,-0.414,2.0
26.79,0.228,-0.511,2.0
23.932,0.198,-0.582,3.0
48.054,0.387,0.172,90.0
44.195,0.345,-0.072,18.0
37.803,0.287,-0.26,11.0
31.067,0.228,-0.379,1.0
27.728,0.197,-0.484,1.0
24.778,0.17,-0.562,1.0
48.198,0.321,0.251,58.0
46.761,0.301,-0.001,31.0
38.621,0.24,-0.203,35.0
32.915,0.197,-0.348,1.0
28.761,0.165,-0.455,2.0
25.842,0.142,-0.544,2.0
59.306,0.314,0.405,85.0
54.465,0.277,0.087,28.0
39.702,0.192,-0.143,32.0
37.637,0.174,-0.336,7.0
29.778,0.13,-0.421,2.0
26.639,0.111,-0.516,2.0
79.442,0.314,0.676,12.0
55.086,0.205,0.181,21.0
0.0,0.0,0.0,0.0
38.1,0.125,-0.276,6.0
31.011,0.095,-0.386,1.0
27.656,0.078,-0.488,1.0
79.459,0.21,0.811,150.0
75.841,0.184,0.378,8.0
46.76,0.103,-0.01,24.0
38.896,0.077,-0.215,15.0
32.915,0.058,-0.353,1.0
28.807,0.045,-0.459,2.0
79.469,0.107,0.948,151.0
76.421,0.086,0.514,18.0
0.0,0.0,0.0,0.0
40.183,0.029,-0.152,26.0
37.569,0.019,-0.338,1.0
29.821,0.009,-0.423,2.0
79.458,0.008,1.086,151.0
79.413,-0.008,0.671,150.0
56.176,-0.017,0.182,11.0
0.0,0.0,0.0,0.0
38.614,-0.027,-0.279,4.0
31.038,-0.028,-0.386,1.0
79.454,-0.088,1.225,151.0
79.466,-0.104,0.812,151.0
76.195,-0.115,0.382,10.0
0.0,0.0,0.0,0.0
39.524,-0.075,-0.216,14.0
32.538,-0.068,-0.347,2.0
79.448,-0.184,1.367,158.0
79.462,-0.199,0.954,151.0
79.2,-0.214,0.54,20.0
0.0,0.0,0.0,0.0
41.394,-0.128,-0.152,16.0
37.158,-0.122,-0.329,1.0
79.43,-0.276,1.51,255.0
79.458,-0.291,1.098,152.0
79.451,-0.305,0.684,150.0
61.207,-0.247,0.203,13.0
45.465,-0.192,-0.084,19.0
39.451,-0.173,-0.278,3.0
79.428,-0.365,1.654,192.0
79.449,-0.38,1.242,169.0
79.457,-0.395,0.83,178.0
76.682,-0.394,0.395,11.0
49.139,-0.262,-0.001,22.0
40.672,-0.224,-0.211,3.0
79.428,-0.452,1.8,194.0
79.445,-0.467,1.389,176.0
79.455,-0.481,0.978,174.0
0.0,0.0,0.0,0.0
52.654,-0.337,0.097,9.0
45.243,-0.297,-0.151,5.0
79.431,-0.538,1.949,170.0
79.439,-0.551,1.537,179.0
79.452,-0.565,1.126,180.0
79.458,-0.578,0.706,151.0
61.559,-0.458,0.228,9.0
48.383,-0.368,-0.07,5.0
79.437,-0.62,2.099,151.0
79.436,-0.633,1.687,188.0
79.441,-0.646,1.276,188.0
79.451,-0.659,0.856,180.0
77.245,-0.653,0.432,12.0
52.256,-0.45,0.022,4.0
79.438,-0.699,2.249,151.0
79.431,-0.712,1.838,190.0
79.439,-0.724,1.426,188.0
79.444,-0.737,1.007,170.0
79.313,-0.748,0.595,58.0
56.683,-0.543,0.132,3.0
79.442,-0.776,2.401,151.0
79.44,-0.788,1.99,160.0
79.433,-0.799,1.577,204.0
79.447,-0.812,1.159,178.0
79.459,-0.824,0.749,161.0
77.48,-0.815,0.33,2.0
79.428,-0.849,2.554,151.0
79.44,-0.861,2.143,157.0
79.428,-0.873,1.732,185.0
79.414,-0.883,1.312,255.0
79.466,-0.895,0.903,152.0
78.809,-0.899,0.488,28.0
79.418,-0.92,2.707,150.0
79.401,-0.931,2.295,148.0
79.417,-0.942,1.885,16.0
79.386,-0.952,1.465,19.0
79.42,-0.963,1.055,150.0
79.734,-0.978,0.648,12.0
79.574,-0.989,2.865,0.0
109.525,-1.376,3.378,7.0
79.995,-1.016,2.054,1.0
86.93,-1.115,1.774,45.0
86.965,-1.126,1.325,150.0
86.953,-1.138,0.877,90.0
99.526,-1.319,3.78,14.0
86.912,-1.163,2.852,18.0
86.943,-1.175,2.404,67.0
183.375,-2.5,4.104,38.0
183.408,-2.523,3.159,80.0
148.126,-2.056,1.788,21.0
99.488,-1.397,3.975,24.0
129.226,-1.83,4.495,8.0
151.466,-2.163,4.486,91.0
183.388,-2.639,4.464,48.0
187.099,-2.714,3.59,24.0
187.156,-2.736,2.625,40.0
91.489,-1.353,3.836,74.0
129.181,-1.924,4.747,24.0
151.457,-2.273,4.784,95.0
151.407,-2.289,3.986,50.0
261.998,-3.988,5.546,27.0
205.464,-3.149,3.288,18.0
91.453,-1.417,4.016,97.0
128.065,-1.998,4.961,34.0
151.397,-2.377,5.083,51.0
151.467,-2.393,4.287,100.0
248.326,-3.949,5.746,37.0
0.0,0.0,0.0,0.0
91.438,-1.478,4.195,53.0
128.083,-2.082,5.215,21.0
184.582,-3.017,6.56,31.0
151.448,-2.49,4.585,103.0
183.509,-3.035,4.609,25.0
264.558,-4.398,5.278,25.0
90.934,-1.526,4.352,54.0
128.297,-2.164,5.475,21.0
185.613,-3.148,6.961,33.0
151.418,-2.58,4.881,96.0
40.295,-0.69,1.09,15.0
40.217,-0.692,0.881,36.0
127.071,-2.207,6.331,25.0
93.017,-1.623,4.154,49.0
184.435,-3.234,7.283,23.0
184.508,-3.25,6.316,42.0
40.306,-0.713,1.171,37.0
40.232,-0.714,0.961,49.0
127.201,-2.281,6.592,46.0
90.672,-1.632,4.23,9.0
128.454,-2.321,5.329,25.0
184.932,-3.355,6.698,30.0
40.335,-0.734,1.252,12.0
40.25,-0.735,1.041,56.0
83.803,-1.545,4.51,24.0
90.973,-1.683,4.425,79.0
128.357,-2.383,5.579,31.0
188.423,-3.511,7.197,22.0
184.605,-3.451,6.098,48.0
40.274,-0.755,1.122,53.0
101.345,-1.916,5.654,27.0
91.361,-1.733,4.624,68.0
92.948,-1.768,4.223,41.0
184.067,-3.512,7.394,14.0
184.636,-3.533,6.462,49.0
40.302,-0.773,1.203,41.0
101.351,-1.961,5.856,42.0
127.194,-2.467,6.69,28.0
90.645,-1.763,4.299,52.0
128.575,-2.506,5.42,34.0
184.579,-3.607,6.827,22.0
40.344,-0.79,1.283,6.0
84.099,-1.66,5.026,24.0
83.796,-1.658,4.574,40.0
91.727,-1.819,4.532,79.0
128.741,-2.559,5.684,28.0
191.299,-3.809,7.455,14.0
185.076,-3.693,6.258,42.0
84.179,-1.693,5.199,50.0
131.204,-2.643,7.422,24.0
91.401,-1.844,4.698,69.0
90.624,-1.832,4.18,24.0
184.088,-3.727,7.54,27.0
185.144,-3.754,6.627,35.0
85.031,-1.737,5.421,38.0
101.453,-2.075,5.94,20.0
91.399,-1.872,4.879,52.0
90.618,-1.858,4.359,17.0
184.063,-3.78,7.903,23.0
191.38,-3.935,7.231,23.0
129.936,-2.692,8.543,19.0
84.149,-1.745,5.095,17.0
91.357,-1.895,5.057,22.0
91.889,-1.908,4.602,80.0
99.024,-2.058,4.446,14.0
191.367,-3.982,7.605,24.0
85.058,-1.782,5.76,7.0
84.165,-1.765,5.263,58.0
91.407,-1.918,5.241,11.0
91.431,-1.919,4.759,48.0
90.613,-1.903,4.248,46.0
184.205,-3.87,7.684,19.0
83.937,-1.777,5.85,12.0
84.148,-1.781,5.427,33.0
91.484,-1.937,5.425,31.0
83.749,-1.773,4.524,41.0
92.203,-1.952,4.502,35.0
128.798,-2.727,5.624,24.0
83.887,-1.79,6.011,20.0
84.578,-1.803,5.621,46.0
91.49,-1.951,5.604,47.0
91.376,-1.948,5.114,54.0
92.039,-1.961,4.673,61.0
90.621,-1.93,4.133,22.0
41.272,-0.885,3.038,66.0
84.079,-1.803,5.752,41.0
84.085,-1.802,5.314,46.0
91.429,-1.958,5.295,37.0
83.745,-1.793,4.416,9.0
90.614,-1.939,4.308,41.0
41.299,-0.89,3.121,20.0
83.92,-1.807,5.904,46.0
84.111,-1.809,5.479,44.0
91.477,-1.965,5.474,59.0
91.412,-1.962,4.996,23.0
92.07,-1.975,4.554,41.0
41.254,-0.891,3.196,20.0
41.268,-0.89,2.982,40.0
84.271,-1.815,5.651,67.0
91.5,-1.968,5.651,40.0
91.399,-1.964,5.169,59.0
91.979,-1.974,4.725,28.0
41.17,-0.889,3.269,60.0
41.274,-0.89,3.062,53.0
83.948,-1.808,5.79,46.0
84.065,-1.808,5.351,48.0
91.462,-1.964,5.346,32.0
83.718,-1.795,4.459,21.0
41.309,-0.891,3.359,39.0
41.31,-0.889,3.144,13.0
83.909,-1.804,5.947,32.0
84.279,-1.808,5.526,60.0
91.485,-1.959,5.521,54.0
91.396,-1.953,5.041,39.0
54.19,-1.166,4.51,42.0
41.204,-0.884,3.214,16.0
41.265,-0.883,3.003,49.0
84.453,-1.805,5.696,38.0
84.111,-1.793,5.234,44.0
91.411,-1.944,5.212,30.0
54.26,-1.162,4.617,57.0
41.238,-0.88,3.293,37.0
41.279,-0.879,3.08,17.0
83.954,-1.784,5.818,15.0
84.197,-1.784,5.396,32.0
91.483,-1.934,5.386,17.0
63.898,-1.359,5.557,9.0
54.143,-1.148,4.425,7.0
41.319,-0.874,3.16,25.0
85.928,-1.812,6.115,21.0
84.698,-1.78,5.585,6.0
84.142,-1.763,5.11,26.0
40.677,-0.858,3.613,54.0
54.203,-1.139,4.529,62.0
41.213,-0.863,3.228,39.0
41.304,-0.863,3.014,6.0
85.84,-1.787,5.818,4.0
84.357,-1.75,5.276,67.0
40.084,-0.837,3.633,60.0
63.829,-1.328,5.45,24.0
41.242,-0.855,3.305,42.0
41.281,-0.852,3.087,65.0
85.943,-1.769,5.978,34.0
85.141,-1.745,5.478,13.0
40.011,-0.825,3.699,53.0
40.704,-0.836,3.549,33.0
54.185,-1.109,4.44,26.0
41.281,-0.841,3.161,43.0
83.885,-1.702,5.985,5.0
129.624,-2.62,8.571,17.0
39.711,-0.808,3.743,67.0
40.581,-0.822,3.611,49.0
63.46,-1.28,5.312,24.0
41.346,-0.83,3.239,44.0
41.279,-0.825,3.017,11.0
85.937,-1.71,5.831,34.0
39.359,-0.788,3.779,72.0
39.74,-0.792,3.605,67.0
63.823,-1.266,5.454,9.0
54.218,-1.07,4.342,9.0
41.289,-0.81,3.09,57.0
85.94,-1.679,5.981,13.0
39.215,-0.771,3.834,71.0
39.729,-0.777,3.674,67.0
40.63,-0.79,3.543,62.0
40.758,-0.788,3.335,41.0
41.299,-0.795,3.162,44.0
83.894,-1.606,5.981,3.0
39.423,-0.759,3.922,43.0
39.711,-0.761,3.74,66.0
49.122,-0.936,4.367,5.0
64.124,-1.214,5.356,33.0
41.364,-0.779,3.237,45.0
63.989,-1.198,4.67,4.0
39.748,-0.748,4.022,54.0
39.497,-0.739,3.787,49.0
39.874,-0.742,3.612,72.0
0.0,0.0,0.0,0.0
54.217,-0.997,4.333,13.0
63.922,-1.167,4.772,5.0
39.398,-0.724,4.052,68.0
39.439,-0.72,3.847,54.0
39.957,-0.724,3.686,53.0
49.087,-0.884,4.263,56.0
40.753,-0.729,3.324,48.0
63.894,-1.136,4.873,70.0
39.24,-0.701,4.1,77.0
39.528,-0.702,3.92,53.0
40.176,-0.708,3.771,36.0
49.098,-0.859,4.343,34.0
40.907,-0.711,3.402,46.0
54.26,-0.936,4.226,36.0
39.277,-0.681,4.168,66.0
39.577,-0.681,3.989,50.0
48.19,-0.824,4.6,4.0
40.343,-0.684,3.632,53.0
40.939,-0.689,3.469,38.0
54.254,-0.906,4.309,7.0
39.456,-0.663,4.249,47.0
39.376,-0.656,4.03,47.0
40.523,-0.67,3.932,44.0
40.335,-0.661,3.695,52.0
49.799,-0.809,4.297,5.0
40.659,-0.655,3.293,62.0
39.094,-0.634,4.271,59.0
39.25,-0.63,4.078,60.0
40.23,-0.641,3.965,41.0
48.128,-0.759,4.483,37.0
49.896,-0.78,4.382,9.0
40.845,-0.633,3.37,53.0
39.254,-0.612,4.349,57.0
39.395,-0.608,4.153,44.0
39.432,-0.603,3.946,59.0
39.912,-0.605,3.777,43.0
40.228,-0.603,3.593,31.0
40.99,-0.608,3.443,43.0
39.297,-0.586,4.412,50.0
39.832,-0.589,4.259,34.0
39.568,-0.579,4.018,50.0
39.488,-0.572,3.795,69.0
39.98,-0.573,3.629,49.0
40.687,-0.577,3.476,55.0
39.649,-0.565,4.509,65.0
39.179,-0.552,4.246,60.0
39.678,-0.553,4.087,46.0
39.51,-0.545,3.854,64.0
47.703,-0.65,4.398,10.0
49.755,-0.67,4.322,5.0
39.849,-0.54,4.59,56.0
39.565,-0.529,4.344,62.0
39.274,-0.519,4.101,56.0
39.95,-0.522,3.953,29.0
47.673,-0.615,4.462,14.0
41.055,-0.523,3.623,20.0
40.026,-0.512,4.666,59.0
39.622,-0.501,4.405,52.0
39.565,-0.493,4.186,52.0
39.748,-0.489,3.987,35.0
39.471,-0.479,3.748,62.0
47.869,-0.574,4.289,7.0
39.897,-0.48,4.705,63.0
40.009,-0.475,4.502,46.0
39.934,-0.467,4.279,64.0
39.492,-0.455,4.015,40.0
39.763,-0.452,3.828,14.0
39.96,-0.448,3.633,67.0
40.311,-0.453,4.807,34.0
39.87,-0.441,4.539,49.0
39.353,-0.429,4.268,76.0
39.564,-0.424,4.073,34.0
39.604,-0.418,3.864,36.0
40.369,-0.42,3.722,52.0
40.157,-0.419,4.841,19.0
40.044,-0.411,4.61,50.0
39.638,-0.4,4.349,66.0
39.465,-0.391,4.112,46.0
39.586,-0.385,3.911,48.0
39.549,-0.378,3.695,32.0
42.349,-0.406,5.158,3.0
40.174,-0.378,4.675,38.0
39.774,-0.367,4.413,56.0
39.763,-0.36,4.192,67.0
39.335,-0.349,3.935,71.0
39.562,-0.344,3.744,66.0
39.899,-0.347,4.909,50.0
40.229,-0.343,4.73,27.0
40.088,-0.335,4.496,52.0
40.034,-0.327,4.269,49.0
39.506,-0.316,3.999,67.0
39.525,-0.309,3.787,50.0
39.643,-0.31,4.923,71.0
43.646,-0.334,5.183,3.0
40.802,-0.304,4.623,61.0
40.476,-0.295,4.362,19.0
39.583,-0.281,4.051,65.0
39.577,-0.273,3.837,51.0
39.553,-0.273,4.958,64.0
39.794,-0.267,4.771,29.0
41.442,-0.271,4.742,34.0
40.547,-0.258,4.415,17.0
39.413,-0.244,4.077,68.0
39.571,-0.237,3.879,45.0
39.648,-0.237,5.013,54.0
39.761,-0.23,4.81,28.0
39.652,-0.223,4.58,24.0
39.905,-0.216,4.388,64.0
39.813,-0.208,4.161,50.0
39.506,-0.199,3.914,64.0
39.756,-0.2,5.069,38.0
39.579,-0.191,4.829,52.0
39.554,-0.184,4.61,64.0
40.095,-0.179,4.45,56.0
40.399,-0.172,4.263,51.0
40.183,-0.164,4.022,59.0
39.599,-0.16,5.089,67.0
39.58,-0.153,4.87,52.0
39.683,-0.146,4.665,57.0
40.111,-0.139,4.492,45.0
40.972,-0.134,4.364,41.0
40.685,-0.126,4.112,33.0
39.442,-0.12,5.108,71.0
39.554,-0.113,4.905,51.0
39.891,-0.106,4.728,41.0
40.274,-0.099,4.548,41.0
41.015,-0.094,4.408,42.0
40.629,-0.085,4.144,58.0
39.556,-0.08,5.16,59.0
39.748,-0.073,4.966,59.0
39.829,-0.066,4.757,50.0
40.112,-0.058,4.566,35.0
41.018,-0.052,4.445,45.0
40.521,-0.043,4.169,54.0
39.646,-0.04,5.207,52.0
39.701,-0.032,4.995,61.0
39.758,-0.024,4.783,56.0
39.721,-0.017,4.556,60.0
40.397,-0.009,4.412,62.0
40.299,-0.002,4.181,40.0
39.545,0.001,5.227,64.0
39.48,0.008,5.0,59.0
39.636,0.016,4.802,45.0
39.652,0.024,4.581,46.0
40.056,0.032,4.407,56.0
40.229,0.04,4.206,39.0
39.64,0.042,5.272,47.0
39.427,0.05,5.025,54.0
39.513,0.058,4.818,28.0
39.586,0.066,4.604,42.0
40.029,0.075,4.435,41.0
40.851,0.084,4.302,62.0
39.928,0.086,5.341,56.0
39.364,0.092,5.047,49.0
0.0,0.0,0.0,0.0
39.68,0.109,4.644,34.0
40.309,0.118,4.495,43.0
40.725,0.127,4.317,17.0
39.848,0.129,5.359,63.0
39.922,0.137,5.147,57.0
39.366,0.143,4.857,17.0
39.682,0.152,4.672,34.0
40.294,0.162,4.521,56.0
40.057,0.169,4.274,55.0
39.784,0.172,5.377,70.0
40.228,0.182,5.213,72.0
40.375,0.191,5.008,29.0
40.209,0.198,4.76,18.0
40.382,0.207,4.557,30.0
40.184,0.213,4.313,58.0
39.657,0.216,5.385,69.0
39.561,0.223,5.151,58.0
39.987,0.233,4.984,55.0
39.766,0.24,4.731,54.0
40.183,0.25,4.558,51.0
40.123,0.258,4.329,73.0
39.619,0.26,5.403,68.0
39.612,0.268,5.18,55.0
39.903,0.278,4.996,62.0
39.609,0.284,4.735,56.0
40.132,0.295,4.574,51.0
40.602,0.307,4.403,35.0
39.642,0.305,5.427,50.0
39.525,0.312,5.19,44.0
39.783,0.322,5.002,52.0
39.976,0.331,4.799,40.0
40.224,0.341,4.605,60.0
44.094,0.382,4.804,3.0
39.372,0.348,5.41,65.0
39.433,0.356,5.197,56.0
39.713,0.366,5.012,55.0
39.889,0.376,4.807,38.0
40.135,0.386,4.613,67.0
40.943,0.401,4.479,43.0
39.228,0.391,5.408,57.0
39.346,0.401,5.203,51.0
39.605,0.41,5.015,65.0
43.701,0.461,5.285,3.0
40.115,0.431,4.628,66.0
43.97,0.482,4.827,3.0
38.825,0.432,5.368,59.0
39.026,0.442,5.176,64.0
39.115,0.45,4.968,49.0
40.303,0.472,4.889,24.0
40.171,0.478,4.649,39.0
41.468,0.501,4.568,41.0
38.896,0.478,5.391,61.0
39.049,0.487,5.193,51.0
38.974,0.493,4.963,46.0
43.74,0.562,5.32,4.0
40.807,0.532,4.735,57.0
41.465,0.548,4.58,28.0
38.642,0.519,5.368,55.0
38.858,0.529,5.179,52.0
39.044,0.539,4.984,60.0
40.368,0.565,4.922,24.0
41.636,0.591,4.843,63.0
41.563,0.598,4.602,41.0
38.591,0.563,5.371,58.0
38.809,0.574,5.182,51.0
38.773,0.58,4.958,64.0
39.434,0.598,4.817,25.0
40.975,0.629,4.775,59.0
41.477,0.645,4.602,37.0
38.363,0.605,5.348,48.0
38.692,0.617,5.174,59.0
38.807,0.626,4.97,51.0
39.54,0.645,4.838,43.0
41.274,0.681,4.818,35.0
41.266,0.689,4.585,40.0
38.226,0.647,5.335,66.0
38.919,0.665,5.211,53.0
38.804,0.671,4.976,44.0
39.383,0.688,4.824,55.0
41.299,0.728,4.826,36.0
41.248,0.736,4.588,54.0
38.245,0.691,5.342,57.0
38.932,0.711,5.217,41.0
38.85,0.716,4.986,45.0
39.318,0.732,4.82,70.0
41.236,0.775,4.822,38.0
41.712,0.791,4.643,32.0
38.169,0.734,5.334,70.0
38.833,0.754,5.206,46.0
38.904,0.762,4.995,42.0
39.471,0.781,4.84,52.0
41.976,0.838,4.911,35.0
41.803,0.841,4.655,21.0
38.421,0.783,5.371,42.0
39.044,0.803,5.235,46.0
39.289,0.815,5.045,31.0
39.289,0.822,4.818,54.0
41.68,0.879,4.876,21.0
48.538,1.032,5.404,48.0
38.575,0.831,5.391,58.0
38.939,0.846,5.22,48.0
38.973,0.853,5.003,34.0
43.226,0.954,5.299,6.0
41.917,0.932,4.901,47.0
48.558,1.088,5.404,5.0
38.907,0.883,5.435,50.0
38.988,0.892,5.224,45.0
48.348,1.114,6.202,17.0
37.9,0.879,4.643,53.0
41.839,0.978,4.888,31.0
41.725,0.982,4.639,16.0
38.629,0.921,5.392,53.0
38.887,0.933,5.205,52.0
38.55,0.932,4.94,37.0
37.858,0.921,4.633,53.0
41.967,1.028,4.897,36.0
53.801,1.327,5.974,18.0
38.688,0.966,5.394,49.0
38.896,0.977,5.2,43.0
38.151,0.965,4.883,53.0
37.708,0.96,4.607,66.0
41.974,1.075,4.89,35.0
49.812,1.284,5.521,9.0
38.873,1.014,5.411,57.0
41.098,1.079,5.486,32.0
38.127,1.007,4.871,49.0
42.746,1.136,5.213,3.0
38.008,1.016,4.419,19.0
49.758,1.338,5.503,6.0
38.626,1.051,5.367,57.0
0.0,0.0,0.0,0.0
37.963,1.044,4.84,65.0
37.773,1.045,4.596,67.0
38.006,1.057,4.408,42.0
41.962,1.174,4.629,38.0
38.75,1.097,5.373,53.0
41.1,1.17,5.463,2.0
38.318,1.096,4.873,59.0
37.812,1.088,4.589,64.0
42.153,1.219,4.876,5.0
42.0,1.221,4.619,5.0
39.047,1.148,5.401,47.0
38.065,1.125,5.046,49.0
38.043,1.13,4.825,45.0
38.329,1.144,4.638,53.0
37.844,1.135,4.363,52.0
38.362,1.156,4.205,38.0
39.102,1.191,5.393,56.0
37.841,1.158,5.001,55.0
38.333,1.179,4.846,54.0
38.012,1.175,4.584,44.0
37.782,1.173,4.341,69.0
38.326,1.196,4.185,42.0
38.295,1.208,5.265,78.0
37.836,1.199,4.984,42.0
38.323,1.219,4.828,57.0
37.956,1.213,4.56,43.0
38.005,1.219,4.349,40.0
38.285,1.234,4.162,57.0
37.553,1.223,5.145,51.0
38.08,1.246,4.998,59.0
37.856,1.244,4.75,52.0
37.805,1.247,4.523,54.0
38.018,1.259,4.331,52.0
38.289,1.273,4.143,60.0
38.075,1.28,5.197,52.0
38.017,1.283,4.969,52.0
37.78,1.28,4.721,55.0
37.809,1.286,4.503,49.0
38.048,1.299,4.314,58.0
38.425,1.317,4.137,51.0
37.526,1.299,5.1,69.0
38.059,1.323,4.953,65.0
38.051,1.328,4.732,49.0
37.744,1.322,4.473,53.0
37.975,1.335,4.283,61.0
41.601,1.468,4.454,6.0
37.426,1.334,5.064,63.0
38.19,1.365,4.946,49.0
38.014,1.364,4.704,45.0
37.714,1.358,4.446,47.0
38.031,1.374,4.265,46.0
38.556,1.398,4.103,25.0
37.424,1.37,5.039,77.0
37.999,1.396,4.896,61.0
37.955,1.398,4.672,56.0
37.725,1.395,4.422,39.0
37.986,1.409,4.235,46.0
41.64,1.549,4.403,16.0
37.545,1.411,5.029,50.0
37.889,1.428,4.856,59.0
37.98,1.436,4.648,37.0
37.719,1.43,4.395,51.0
38.452,1.462,4.259,38.0
41.644,1.589,4.374,19.0
37.693,1.452,5.021,49.0
38.052,1.47,4.848,42.0
37.814,1.465,4.599,59.0
37.775,1.467,4.373,46.0
38.443,1.497,4.229,50.0
56.372,2.203,5.878,15.0
37.729,1.488,4.996,44.0
37.982,1.502,4.81,51.0
37.859,1.501,4.575,69.0
37.659,1.497,4.33,46.0
38.524,1.535,4.207,23.0
56.351,2.252,5.831,10.0
37.557,1.515,4.943,43.0
38.095,1.54,4.792,45.0
37.936,1.538,4.553,41.0
37.616,1.528,4.293,63.0
38.549,1.57,4.178,35.0
55.854,2.281,5.732,9.0
37.408,1.541,4.891,81.0
37.945,1.567,4.741,33.0
37.998,1.573,4.527,53.0
37.601,1.56,4.259,68.0
41.492,1.726,4.46,17.0
41.318,1.722,4.204,12.0
37.677,1.584,4.892,56.0
37.876,1.596,4.698,50.0
38.002,1.605,4.493,48.0
38.212,1.617,4.293,29.0
42.009,1.781,4.478,24.0
41.395,1.759,4.174,34.0
37.841,1.622,4.878,48.0
37.923,1.629,4.668,43.0
0.0,0.0,0.0,0.0
41.483,1.789,4.621,16.0
41.953,1.813,4.432,23.0
41.316,1.789,4.126,53.0
37.995,1.659,4.86,29.0
37.995,1.662,4.639,35.0
53.335,2.338,6.203,9.0
54.573,2.396,6.026,9.0
63.381,2.789,6.632,29.0
41.34,1.822,4.087,44.0
38.01,1.689,4.823,47.0
38.084,1.695,4.611,33.0
42.934,1.915,4.949,5.0
63.835,2.851,6.983,9.0
41.551,1.859,4.305,25.0
41.361,1.854,4.047,32.0
37.878,1.711,4.767,51.0
37.966,1.718,4.557,42.0
54.576,2.474,6.234,17.0
42.188,1.915,4.57,17.0
52.932,2.406,5.428,11.0
41.367,1.884,4.003,12.0
37.913,1.74,4.73,65.0
38.041,1.748,4.525,50.0
41.428,1.906,4.687,3.0
41.903,1.931,4.493,28.0
63.138,2.913,6.406,9.0
53.738,2.483,5.142,22.0
37.935,1.767,4.691,42.0
37.983,1.771,4.475,38.0
42.754,1.996,4.789,3.0
41.588,1.944,4.413,41.0
41.473,1.941,4.161,37.0
52.959,2.482,5.007,6.0
37.867,1.789,4.638,69.0
41.703,1.972,4.865,5.0
42.737,2.022,4.737,11.0
53.63,2.542,5.628,31.0
41.473,1.967,4.112,13.0
61.959,2.943,5.786,5.0
37.937,1.816,4.601,69.0
42.142,2.019,4.866,30.0
41.797,2.004,4.583,13.0
54.571,2.619,5.661,11.0
54.767,2.631,5.364,8.0
54.893,2.64,5.059,29.0
37.92,1.837,4.553,62.0
41.649,2.019,4.757,22.0
54.313,2.636,5.888,27.0
41.49,2.015,4.253,14.0
53.316,2.592,5.156,26.0
54.631,2.658,4.967,20.0
38.189,1.872,4.537,37.0
54.3,2.663,6.134,33.0
41.823,2.053,4.481,17.0
41.435,2.035,4.195,34.0
66.077,3.249,6.306,11.0
68.028,3.347,6.099,10.0
41.522,2.057,4.879,46.0
41.854,2.074,4.673,16.0
41.605,2.063,4.404,23.0
41.391,2.054,4.136,48.0
54.092,2.686,5.092,8.0
64.836,3.223,5.728,17.0
54.248,2.714,6.303,16.0
41.834,2.094,4.616,8.0
41.562,2.081,4.344,10.0
53.389,2.675,5.265,20.0
64.206,3.218,5.96,22.0
68.002,3.411,5.919,10.0
41.866,2.113,4.808,17.0
41.835,2.112,4.56,12.0
41.498,2.096,4.282,25.0
53.019,2.679,5.158,15.0
64.284,3.25,5.881,18.0
64.467,3.261,5.524,25.0
41.846,2.13,4.748,14.0
41.602,2.118,4.478,48.0
41.416,2.109,4.217,21.0
63.142,3.216,6.056,19.0
64.353,3.279,5.798,25.0
64.452,3.286,5.434,27.0
42.011,2.155,4.708,15.0
41.737,2.14,4.434,16.0
63.493,3.258,6.375,19.0
63.067,3.236,5.96,31.0
67.918,3.486,6.024,8.0
64.51,3.312,5.348,27.0
63.026,3.255,6.973,8.0
41.64,2.15,4.364,16.0
53.033,2.738,5.249,26.0
64.046,3.308,5.96,29.0
64.808,3.347,5.656,27.0
74.46,3.846,6.067,21.0
52.793,2.743,5.764,7.0
41.32,2.146,4.27,32.0
63.203,3.283,6.164,28.0
64.519,3.352,5.91,34.0
64.516,3.351,5.536,34.0
65.191,3.387,5.216,8.0
41.8,2.183,4.502,24.0
63.394,3.311,6.458,38.0
63.259,3.303,6.076,33.0
64.414,3.363,5.805,35.0
64.449,3.364,5.434,30.0
78.17,4.081,6.138,11.0
41.779,2.192,4.437,21.0
63.512,3.331,6.374,22.0
0.0,0.0,0.0,0.0
67.869,3.559,6.013,9.0
74.379,3.899,6.158,20.0
124.683,6.535,9.601,22.0
41.565,2.189,4.35,17.0
63.258,3.331,6.251,38.0
64.054,3.371,5.956,33.0
67.895,3.572,5.911,8.0
74.258,3.906,6.034,37.0
124.768,6.561,9.414,29.0
63.043,3.331,6.499,15.0
63.484,3.352,6.174,38.0
64.092,3.384,5.86,39.0
64.513,3.404,5.517,32.0
65.116,3.434,5.191,8.0
124.715,6.577,9.219,29.0
63.362,3.356,6.433,30.0
53.707,2.842,5.139,5.0
64.462,3.409,5.793,39.0
74.809,3.955,6.28,12.0
78.254,4.135,6.115,14.0
76.162,4.023,5.511,6.0
52.752,2.798,5.272,12.0
54.212,2.874,5.101,4.0
64.339,3.408,5.68,39.0
74.383,3.938,6.126,53.0
124.759,6.601,9.552,22.0
124.757,6.597,8.829,24.0
41.343,2.195,4.065,7.0
64.022,3.396,5.923,36.0
67.915,3.6,5.887,12.0
74.277,3.934,6.0,14.0
124.784,6.605,9.355,28.0
124.552,6.588,8.615,33.0
63.852,3.391,6.175,23.0
64.24,3.408,5.838,39.0
64.714,3.43,5.504,37.0
78.262,4.144,6.193,21.0
124.789,6.604,9.151,25.0
154.861,8.189,10.459,28.0
53.732,2.851,5.108,4.0
64.345,3.411,5.742,39.0
74.546,3.948,6.217,32.0
78.265,4.141,6.065,6.0
124.887,6.601,8.953,22.0
155.07,8.191,10.219,17.0
64.043,3.394,5.982,27.0
67.944,3.596,5.95,9.0
74.33,3.93,6.076,50.0
124.815,6.593,9.465,25.0
124.674,6.579,8.73,34.0
128.29,6.763,8.239,20.0
64.14,3.392,5.883,40.0
64.507,3.407,5.54,38.0
65.154,3.436,5.217,8.0
124.676,6.568,9.245,35.0
124.685,6.563,8.521,21.0
127.521,6.705,7.976,28.0
64.438,3.397,5.801,28.0
64.518,3.397,5.433,17.0
78.2,4.112,6.13,19.0
76.129,3.998,5.518,6.0
127.385,6.682,8.493,6.0
128.058,6.709,7.795,24.0
64.116,3.367,5.663,33.0
74.237,3.893,6.125,31.0
124.638,6.527,9.558,33.0
124.669,6.521,8.822,30.0
155.197,8.106,10.083,9.0
128.113,6.683,7.58,29.0
64.409,3.368,5.579,38.0
65.394,3.414,5.283,8.0
124.482,6.489,9.332,35.0
124.569,6.483,8.602,28.0
127.851,6.644,8.086,23.0
73.281,3.803,4.21,12.0
64.463,3.352,5.472,30.0
64.933,3.371,5.134,7.0
124.651,6.462,9.13,22.0
132.43,6.854,8.915,22.0
127.354,6.58,7.835,22.0
129.012,6.655,7.19,17.0
64.491,3.333,5.362,25.0
124.632,6.43,9.638,24.0
124.778,6.426,8.922,16.0
150.644,7.744,9.881,27.0
126.994,6.519,7.593,30.0
150.004,7.687,8.099,30.0
64.57,3.313,5.255,13.0
123.955,6.349,9.367,37.0
124.574,6.369,8.689,18.0
127.503,6.507,8.14,11.0
73.374,3.737,4.259,21.0
132.56,6.74,6.926,12.0
65.076,3.313,5.183,10.0
123.87,6.294,9.144,21.0
124.508,6.313,8.467,23.0
127.126,6.433,7.893,21.0
150.121,7.582,8.45,23.0
154.533,7.791,7.805,15.0
65.082,3.284,5.068,7.0
73.802,3.716,5.317,29.0
149.909,7.532,9.931,31.0
73.403,3.681,4.429,31.0
131.97,6.604,7.198,15.0
129.57,6.47,6.317,18.0
123.79,6.187,9.422,30.0
73.615,3.67,5.174,33.0
127.632,6.349,8.23,14.0
73.435,3.645,4.302,26.0
123.542,6.12,6.522,14.0
129.22,6.387,6.074,26.0
73.847,3.651,5.491,17.0
73.574,3.628,5.042,4.0
150.224,7.393,9.423,18.0
73.405,3.603,4.17,7.0
132.569,6.493,6.765,9.0
129.544,6.33,5.86,13.0
73.661,3.6,5.347,24.0
65.254,3.181,4.357,7.0
127.654,6.207,7.781,18.0
123.497,5.991,6.8,37.0
129.452,6.264,6.378,13.0
129.642,6.257,5.638,14.0
73.633,3.553,5.214,34.0
149.239,7.184,9.702,23.0
73.214,3.514,4.334,31.0
123.209,5.898,6.568,50.0
129.772,6.198,6.168,16.0
156.861,7.472,6.547,13.0
73.599,3.504,5.082,20.0
149.317,7.09,9.445,18.0
73.438,3.477,4.219,41.0
123.309,5.821,6.357,32.0
129.595,6.102,5.932,32.0
157.259,7.385,6.288,14.0
127.974,6.004,8.612,13.0
73.412,3.434,4.515,35.0
123.225,5.748,6.864,36.0
132.514,6.162,6.6,16.0
129.815,6.021,5.715,26.0
124.322,5.749,4.754,10.0
73.59,3.399,4.823,8.0
73.354,3.377,4.382,41.0
123.188,5.655,6.645,33.0
129.738,5.936,6.233,21.0
124.307,5.67,5.254,25.0
156.607,7.121,5.713,14.0
127.73,5.801,8.148,27.0
73.32,3.318,4.251,9.0
123.231,5.559,6.43,23.0
129.804,5.836,6.008,28.0
124.245,5.569,5.033,38.0
157.051,7.016,5.454,13.0
73.225,3.265,4.542,28.0
73.374,3.261,4.125,31.0
129.285,5.726,6.52,12.0
124.181,5.481,5.533,26.0
157.321,6.92,6.099,11.0
156.79,6.873,5.172,9.0
73.274,3.205,4.417,18.0
73.215,3.191,3.989,17.0
130.102,5.65,6.335,12.0
124.274,5.377,5.319,42.0
157.348,6.783,5.827,16.0
173.478,7.453,5.422,7.0
73.809,3.163,4.321,50.0
123.92,5.291,6.538,23.0
130.282,5.541,6.12,10.0
124.322,5.267,5.109,36.0
156.908,6.624,5.543,18.0
158.401,6.661,4.681,5.0
73.369,3.076,4.169,51.0
123.561,5.161,6.306,21.0
124.485,5.178,5.634,32.0
157.664,6.531,6.208,19.0
156.464,6.456,5.256,11.0
158.385,6.508,4.406,5.0
73.295,3.002,4.038,26.0
124.077,5.061,6.119,14.0
124.189,5.044,5.407,15.0
161.356,6.525,6.076,7.0
162.156,6.531,5.172,15.0
158.546,6.358,4.141,2.0
123.102,4.918,6.572,29.0
124.106,4.936,5.908,23.0
124.163,4.915,5.191,33.0
157.588,6.211,5.664,15.0
161.918,6.353,4.886,9.0
0.0,0.0,0.0,0.0
73.744,2.869,3.811,17.0
124.209,4.809,5.7,16.0
157.883,6.084,6.334,8.0
157.366,6.036,5.389,5.0
158.425,6.048,4.512,5.0
0.0,0.0,0.0,0.0
124.406,4.706,6.219,10.0
123.995,4.666,5.481,11.0
152.733,5.718,5.869,31.0
160.018,5.961,5.21,6.0
160.332,5.944,4.297,9.0
0.0,0.0,0.0,0.0
123.902,4.549,5.985,21.0
152.51,5.569,6.487,27.0
152.813,5.549,5.617,34.0
160.442,5.797,4.958,18.0
0.0,0.0,0.0,0.0
0.0,0.0,0.0,0.0
123.997,4.408,5.783,23.0
152.956,5.405,6.25,17.0
152.753,5.368,5.36,14.0
159.07,5.558,4.648,17.0
0.0,0.0,0.0,0.0
0.0,0.0,0.0,0.0
152.531,5.24,6.86,25.0
152.808,5.217,5.99,37.0
157.44,5.344,5.265,6.0
159.089,5.368,4.388,5.0
0.0,0.0,0.0,0.0
0.0,0.0,0.0,0.0
152.735,5.059,6.619,34.0
152.736,5.026,5.738,24.0
158.875,5.194,5.052,15.0
0.0,0.0,0.0,0.0
0.0,0.0,0.0,0.0
100.657,3.228,1.453,4.0
152.226,4.85,6.35,38.0
152.544,4.827,5.485,32.0
158.269,4.974,4.778,11.0
0.0,0.0,0.0,0.0
0.0,0.0,0.0,0.0
95.636,2.944,1.227,2.0
152.114,4.649,6.101,44.0
152.519,4.628,5.24,22.0
158.543,4.776,4.535,8.0
0.0,0.0,0.0,0.0
0.0,0.0,0.0,0.0
78.909,2.324,0.887,5.0
152.034,4.443,5.856,45.0
153.055,4.439,5.014,36.0
154.039,4.432,4.16,36.0
0.0,0.0,0.0,0.0
0.0,0.0,0.0,0.0
77.984,2.191,0.753,38.0
152.069,4.235,5.616,43.0
153.978,4.252,4.8,40.0
0.0,0.0,0.0,0.0
0.0,0.0,0.0,0.0
106.073,2.855,1.467,31.0
74.95,2.0,0.606,13.0
152.432,4.028,5.39,17.0
137.982,3.614,4.087,11.0
100.314,2.605,2.395,1.0
100.33,2.582,1.81,16.0
106.107,2.705,1.304,27.0
74.468,1.882,0.488,10.0
159.289,3.983,5.391,18.0
157.703,3.904,4.43,8.0
100.333,2.461,2.243,2.0
106.044,2.575,1.751,7.0
89.677,2.156,0.966,5.0
0.0,0.0,0.0,0.0
158.72,3.738,5.134,21.0
169.308,3.945,4.503,4.0
0.0,0.0,0.0,0.0
106.155,2.422,1.595,5.0
77.947,1.76,0.724,43.0
0.0,0.0,0.0,0.0
159.386,3.516,4.919,24.0
128.106,2.793,3.218,8.0
106.178,2.29,2.059,16.0
89.983,1.917,1.219,1.0
74.991,1.579,0.586,18.0
52.178,1.085,0.108,7.0
128.039,2.63,3.765,57.0
128.029,2.596,3.029,43.0
106.31,2.128,1.905,2.0
89.96,1.779,1.088,5.0
74.633,1.456,0.475,11.0
47.238,0.909,0.03,24.0
128.085,2.432,3.582,27.0
128.108,2.398,2.848,26.0
127.258,2.349,2.099,30.0
89.776,1.635,0.958,10.0
60.273,1.082,0.298,34.0
44.936,0.794,-0.034,19.0
160.356,2.79,4.257,11.0
189.993,3.255,3.954,22.0
126.501,2.134,1.909,40.0
77.924,1.293,0.721,30.0
54.746,0.894,0.193,15.0
39.71,0.638,-0.086,20.0
176.258,2.782,4.433,7.0
189.759,2.945,3.687,28.0
126.263,1.926,1.731,22.0
0.0,0.0,0.0,0.0
47.987,0.706,0.104,56.0
38.791,0.56,-0.137,49.0
190.148,2.691,4.524,16.0
189.122,2.627,3.419,14.0
121.107,1.649,1.497,15.0
48.115,0.642,0.315,42.0
47.365,0.619,0.039,42.0
38.036,0.487,-0.185,41.0
55.07,0.688,1.237,71.0
48.19,0.588,0.807,36.0
48.113,0.574,0.53,95.0
48.037,0.56,0.25,88.0
0.0,0.0,0.0,0.0
37.645,0.418,-0.232,13.0
48.141,0.52,1.018,100.0
48.106,0.506,0.743,103.0
48.076,0.492,0.468,97.0
48.016,0.478,0.188,81.0
43.922,0.425,-0.077,9.0
37.426,0.352,-0.279,4.0
48.096,0.437,0.955,114.0
48.082,0.423,0.681,114.0
48.055,0.41,0.407,103.0
48.005,0.395,0.127,69.0
39.37,0.313,-0.119,41.0
37.521,0.287,-0.327,0.0
48.114,0.354,0.896,107.0
48.108,0.34,0.621,62.0
48.152,0.326,0.348,58.0
47.834,0.31,0.068,53.0
38.782,0.24,-0.165,45.0
33.012,0.194,-0.329,1.0
48.222,0.269,0.838,42.0
59.292,0.313,0.693,118.0
59.328,0.296,0.356,17.0
0.0,0.0,0.0,0.0
38.447,0.169,-0.211,14.0
31.682,0.13,-0.354,1.0
79.453,0.302,1.287,155.0
79.452,0.278,0.835,150.0
59.154,0.19,0.285,11.0
0.0,0.0,0.0,0.0
38.164,0.099,-0.254,6.0
30.615,0.071,-0.378,1.0
79.459,0.159,1.195,151.0
79.453,0.135,0.743,150.0
58.135,0.081,0.213,6.0
43.81,0.048,-0.092,6.0
38.147,0.03,-0.297,3.0
29.882,0.014,-0.403,2.0
79.464,0.015,1.106,151.0
79.267,-0.009,0.653,21.0
0.0,0.0,0.0,0.0
40.267,-0.029,-0.129,19.0
33.787,-0.035,-0.301,1.0
29.237,-0.039,-0.426,2.0
79.467,-0.132,1.018,151.0
76.493,-0.15,0.546,14.0
48.489,-0.11,0.07,5.0
39.943,-0.103,-0.172,15.0
32.774,-0.095,-0.327,1.0
28.712,-0.092,-0.449,2.0
79.464,-0.279,0.934,151.0
76.543,-0.292,0.466,12.0
47.081,-0.194,0.019,21.0
39.446,-0.175,-0.211,6.0
31.696,-0.15,-0.349,1.0
27.902,-0.141,-0.466,2.0
79.456,-0.428,0.852,174.0
61.635,-0.352,0.311,8.0
46.066,-0.277,-0.028,4.0
39.604,-0.251,-0.252,5.0
30.82,-0.205,-0.371,1.0
27.197,-0.19,-0.482,2.0
79.466,-0.579,0.773,151.0
61.494,-0.468,0.249,8.0
48.203,-0.382,-0.077,5.0
40.014,-0.33,-0.294,0.0
30.061,-0.258,-0.391,2.0
26.645,-0.237,-0.498,2.0
79.394,-0.731,0.696,112.0
55.974,-0.533,0.173,2.0
50.849,-0.5,-0.129,20.0
38.485,-0.392,-0.32,4.0
29.563,-0.31,-0.413,4.0
26.207,-0.283,-0.514,1.0
79.028,-0.879,0.619,42.0
79.281,-0.908,0.172,3.0
45.942,-0.541,-0.159,2.0
33.962,-0.411,-0.313,1.0
29.025,-0.361,-0.432,2.0
25.654,-0.328,-0.527,2.0
78.802,-1.031,0.546,10.0
60.775,-0.815,0.078,3.0
43.993,-0.605,-0.192,2.0
32.848,-0.463,-0.332,1.0
28.411,-0.409,-0.448,1.0
25.158,-0.371,-0.539,2.0
91.471,-1.376,0.556,2.0
61.582,-0.947,0.026,2.0
40.167,-0.631,-0.209,3.0
31.879,-0.511,-0.349,1.0
27.943,-0.458,-0.464,1.0
24.803,-0.415,-0.552,1.0
40.278,-0.685,0.211,52.0
40.302,-0.699,-0.015,67.0
40.194,-0.711,-0.242,11.0
31.043,-0.56,-0.365,1.0
27.388,-0.503,-0.477,1.0
24.282,-0.454,-0.559,1.0
40.286,-0.765,0.179,52.0
53.723,-1.039,-0.063,2.0
40.155,-0.79,-0.273,3.0
30.459,-0.61,-0.382,1.0
26.918,-0.548,-0.489,1.0
23.831,-0.493,-0.567,2.0
68.205,-1.431,0.253,2.0
0.0,0.0,0.0,0.0
40.203,-0.871,-0.303,1.0
29.902,-0.658,-0.397,1.0
26.732,-0.598,-0.505,3.0
23.516,-0.534,-0.577,2.0
40.301,-0.926,0.12,71.0
40.303,-0.94,-0.105,150.0
0.0,0.0,0.0,0.0
29.597,-0.711,-0.413,1.0
26.161,-0.637,-0.512,1.0
23.247,-0.574,-0.586,2.0
0.0,0.0,0.0,0.0
41.0,-1.038,-0.134,154.0
35.032,-0.899,-0.312,0.0
29.165,-0.759,-0.427,1.0
25.789,-0.68,-0.522,1.0
22.948,-0.613,-0.594,1.0
40.204,-1.085,0.067,64.0
40.725,-1.113,-0.16,61.0
33.434,-0.925,-0.319,0.0
28.831,-0.808,-0.44,1.0
25.473,-0.723,-0.531,1.0
22.649,-0.651,-0.6,2.0
40.21,-1.165,0.043,50.0
40.215,-1.179,-0.181,43.0
33.366,-0.99,-0.337,1.0
28.496,-0.856,-0.451,1.0
25.183,-0.765,-0.54,1.0
22.351,-0.687,-0.604,1.0
0.0,0.0,0.0,0.0
40.398,-1.266,-0.204,2.0
32.565,-1.032,-0.347,1.0
28.073,-0.9,-0.46,1.0
24.997,-0.81,-0.549,1.0
22.119,-0.725,-0.61,1.0
0.0,0.0,0.0,0.0
0.0,0.0,0.0,0.0
32.14,-1.083,-0.359,1.0
27.714,-0.944,-0.468,1.0
24.701,-0.85,-0.555,1.0
21.932,-0.763,-0.616,1.0
52.779,-1.848,-0.025,2.0
40.095,-1.419,-0.243,9.0
31.699,-1.133,-0.369,1.0
27.449,-0.991,-0.476,1.0
24.412,-0.89,-0.56,1.0
21.729,-0.8,-0.62,1.0
40.141,-1.487,-0.037,67.0
40.091,-1.5,-0.261,63.0
31.103,-1.175,-0.376,1.0
27.277,-1.04,-0.485,1.0
24.086,-0.927,-0.563,1.0
21.494,-0.835,-0.622,1.0
37.824,-1.478,-0.05,150.0
37.766,-1.489,-0.261,103.0
30.795,-1.226,-0.385,1.0
27.041,-1.086,-0.491,1.0
23.914,-0.969,-0.568,1.0
21.355,-0.873,-0.627,1.0
50.432,-2.072,-0.086,1.0
37.732,-1.564,-0.275,9.0
30.654,-1.282,-0.394,2.0
26.837,-1.132,-0.497,2.0
23.729,-1.01,-0.572,1.0
21.214,-0.911,-0.63,1.0
50.438,-2.175,-0.102,2.0
37.947,-1.65,-0.288,2.0
30.401,-1.333,-0.4,2.0
26.648,-1.178,-0.502,1.0
23.622,-1.053,-0.577,1.0
21.085,-0.948,-0.632,1.0
50.423,-2.276,-0.117,2.0
37.483,-1.705,-0.296,0.0
30.026,-1.377,-0.404,2.0
26.466,-1.223,-0.506,1.0
23.464,-1.093,-0.579,2.0
20.99,-0.986,-0.635,1.0
50.458,-2.379,-0.13,5.0
37.384,-1.776,-0.304,0.0
29.674,-1.42,-0.406,5.0
26.353,-1.271,-0.51,1.0
23.385,-1.137,-0.583,2.0
20.912,-1.024,-0.637,1.0
50.486,-2.482,-0.141,5.0
37.576,-1.861,-0.314,0.0
29.536,-1.474,-0.411,7.0
26.32,-1.323,-0.515,1.0
23.315,-1.18,-0.586,2.0
20.831,-1.063,-0.639,1.0
50.471,-2.583,-0.15,4.0
0.0,0.0,0.0,0.0
29.4,-1.526,-0.414,3.0
26.176,-1.368,-0.516,1.0
23.287,-1.225,-0.588,9.0
20.769,-1.101,-0.64,1.0
50.486,-2.683,-0.157,1.0
0.0,0.0,0.0,0.0
29.676,-1.598,-0.421,1.0
26.149,-1.418,-0.519,1.0
23.167,-1.265,-0.588,11.0
20.767,-1.142,-0.642,2.0
50.509,-2.784,-0.162,0.0
36.633,-2.032,-0.321,0.0
29.568,-1.651,-0.422,2.0
26.099,-1.467,-0.52,1.0
23.153,-1.31,-0.589,9.0
20.664,-1.177,-0.641,5.0
50.442,-2.88,-0.166,2.0
37.54,-2.157,-0.331,0.0
29.534,-1.708,-0.423,1.0
26.102,-1.518,-0.521,1.0
23.198,-1.358,-0.592,5.0
20.662,-1.218,-0.641,4.0
50.477,-2.982,-0.167,3.0
0.0,0.0,0.0,0.0
29.743,-1.778,-0.427,1.0
26.127,-1.572,-0.522,1.0
23.243,-1.407,-0.593,1.0
20.672,-1.259,-0.641,3.0
50.351,-3.073,-0.165,3.0
36.871,-2.263,-0.325,0.0
29.788,-1.839,-0.427,1.0
26.219,-1.629,-0.523,2.0
23.295,-1.455,-0.593,1.0
20.647,-1.298,-0.64,1.0
50.358,-3.172,-0.163,0.0
37.604,-2.381,-0.329,1.0
29.8,-1.898,-0.425,1.0
26.313,-1.686,-0.523,1.0
23.232,-1.497,-0.59,1.0
21.024,-1.362,-0.65,3.0
50.414,-3.272,-0.159,0.0
37.444,-2.444,-0.324,0.0
29.985,-1.967,-0.424,1.0
26.236,-1.731,-0.519,2.0
23.3,-1.546,-0.589,1.0
20.793,-1.387,-0.64,0.0
50.466,-3.372,-0.152,2.0
37.708,-2.533,-0.321,0.0
30.165,-2.037,-0.423,1.0
26.342,-1.788,-0.517,1.0
23.38,-1.596,-0.587,2.0
20.919,-1.435,-0.641,0.0
50.484,-3.469,-0.144,4.0
38.087,-2.63,-0.318,0.0
30.257,-2.1,-0.419,1.0
26.404,-1.842,-0.513,2.0
23.495,-1.648,-0.586,1.0
20.952,-1.477,-0.638,0.0
50.456,-3.562,-0.134,4.0
0.0,0.0,0.0,0.0
30.431,-2.17,-0.415,1.0
26.586,-1.905,-0.511,1.0
23.555,-1.697,-0.582,1.0
21.09,-1.527,-0.637,0.0
50.38,-3.651,-0.121,1.0
0.0,0.0,0.0,0.0
30.789,-2.253,-0.412,1.0
26.757,-1.968,-0.507,2.0
23.63,-1.746,-0.578,1.0
21.226,-1.576,-0.635,1.0
50.456,-3.75,-0.108,2.0
38.106,-2.845,-0.29,0.0
31.092,-2.333,-0.407,1.0
26.928,-2.029,-0.503,1.0
23.788,-1.801,-0.575,1.0
21.357,-1.625,-0.633,1.0
50.44,-3.84,-0.092,1.0
0.0,0.0,0.0,0.0
31.475,-2.419,-0.402,1.0
27.121,-2.093,-0.498,1.0
24.099,-1.868,-0.574,1.0
21.504,-1.675,-0.63,1.0
50.492,-3.936,-0.075,5.0
40.441,-3.166,-0.281,0.0
32.016,-2.517,-0.398,1.0
27.464,-2.169,-0.494,1.0
24.296,-1.927,-0.57,1.0
21.673,-1.726,-0.627,1.0
50.504,-4.026,-0.056,3.0
0.0,0.0,0.0,0.0
32.474,-2.611,-0.391,1.0
27.803,-2.245,-0.489,1.0
24.627,-1.997,-0.568,1.0
21.818,-1.777,-0.622,1.0
50.583,-4.122,-0.035,0.0
0.0,0.0,0.0,0.0
32.808,-2.695,-0.381,1.0
28.179,-2.325,-0.484,1.0
24.869,-2.06,-0.562,1.0
22.066,-1.835,-0.619,1.0
55.275,-4.601,-0.013,0.0
0.0,0.0,0.0,0.0
33.435,-2.805,-0.372,0.0
28.559,-2.405,-0.477,1.0
25.21,-2.132,-0.558,1.0
22.297,-1.893,-0.615,1.0
0.0,0.0,0.0,0.0
0.0,0.0,0.0,0.0
33.808,-2.894,-0.36,0.0
28.847,-2.479,-0.467,1.0
25.479,-2.198,-0.551,2.0
22.519,-1.95,-0.61,1.0
0.0,0.0,0.0,0.0
0.0,0.0,0.0,0.0
35.144,-3.066,-0.356,0.0
29.283,-2.565,-0.459,1.0
25.701,-2.259,-0.542,1.0
22.834,-2.015,-0.606,1.0
0.0,0.0,0.0,0.0
50.368,-4.461,-0.208,0.0
36.002,-3.2,-0.344,0.0
29.795,-2.658,-0.45,1.0
25.986,-2.327,-0.534,1.0
23.093,-2.075,-0.6,1.0
0.0,0.0,0.0,0.0
50.419,-4.548,-0.179,3.0
37.779,-3.419,-0.339,0.0
30.047,-2.729,-0.436,1.0
26.35,-2.402,-0.525,1.0
23.354,-2.136,-0.592,1.0
0.0,0.0,0.0,0.0
50.355,-4.622,-0.148,2.0
38.648,-3.559,-0.323,0.0
30.652,-2.832,-0.426,1.0
26.775,-2.482,-0.517,1.0
23.671,-2.202,-0.585,1.0
0.0,0.0,0.0,0.0
50.455,-4.709,-0.116,1.0
39.644,-3.712,-0.306,0.0
31.598,-2.968,-0.418,1.0
27.31,-2.574,-0.509,1.0
24.101,-2.279,-0.58,1.0
0.0,0.0,0.0,0.0
50.636,-4.804,-0.082,0.0
0.0,0.0,0.0,0.0
32.517,-3.104,-0.408,1.0
27.762,-2.658,-0.499,1.0
24.538,-2.357,-0.574,1.0
91.229,-8.766,0.409,1.0
0.0,0.0,0.0,0.0
0.0,0.0,0.0,0.0
33.164,-3.215,-0.393,1.0
28.355,-2.757,-0.489,1.0
24.935,-2.432,-0.565,2.0
0.0,0.0,0.0,0.0
0.0,0.0,0.0,0.0
44.688,-4.384,-0.25,0.0
34.239,-3.369,-0.38,1.0
28.968,-2.859,-0.478,1.0
25.346,-2.509,-0.555,1.0
90.424,-8.951,0.539,2.0
0.0,0.0,0.0,0.0
0.0,0.0,0.0,0.0
35.267,-3.52,-0.364,0.0
29.47,-2.95,-0.463,1.0
25.845,-2.595,-0.546,1.0
94.843,-9.521,0.64,3.0
0.0,0.0,0.0,0.0
50.403,-5.087,-0.203,1.0
0.0,0.0,0.0,0.0
30.061,-3.05,-0.449,1.0
26.26,-2.672,-0.534,1.0
89.621,-9.119,0.677,2.0
0.0,0.0,0.0,0.0
50.406,-5.156,-0.163,0.0
39.264,-4.027,-0.342,1.0
30.93,-3.18,-0.436,1.0
26.782,-2.761,-0.522,1.0
86.943,-8.964,0.729,1.0
0.0,0.0,0.0,0.0
0.0,0.0,0.0,0.0
39.862,-4.14,-0.313,1.0
31.956,-3.327,-0.423,0.0
27.41,-2.861,-0.511,1.0
86.51,-9.031,0.8,6.0
0.0,0.0,0.0,0.0
0.0,0.0,0.0,0.0
40.906,-4.301,-0.287,0.0
33.041,-3.482,-0.409,1.0
28.03,-2.961,-0.498,1.0
86.383,-9.126,0.874,150.0
0.0,0.0,0.0,0.0
0.0,0.0,0.0,0.0
41.738,-4.439,-0.255,0.0
34.721,-3.702,-0.399,0.0
28.903,-3.089,-0.488,1.0
86.331,-9.225,0.951,156.0
79.727,-8.538,0.45,1.0
0.0,0.0,0.0,0.0
45.398,-4.883,-0.236,0.0
34.51,-3.72,-0.365,0.0
29.517,-3.189,-0.471,1.0
86.296,-9.324,1.031,96.0
87.428,-9.466,0.574,5.0
0.0,0.0,0.0,0.0
0.0,0.0,0.0,0.0
0.0,0.0,0.0,0.0
30.235,-3.301,-0.454,0.0
86.267,-9.42,1.112,54.0
87.288,-9.55,0.657,9.0
0.0,0.0,0.0,0.0
0.0,0.0,0.0,0.0
39.291,-4.325,-0.341,1.0
31.383,-3.462,-0.441,1.0
86.263,-9.515,1.197,94.0
87.024,-9.617,0.739,12.0
73.228,-8.108,0.229,2.0
0.0,0.0,0.0,0.0
39.84,-4.429,-0.306,0.0
32.464,-3.616,-0.424,1.0
86.257,-9.608,1.283,150.0
86.213,-9.62,0.819,33.0
0.0,0.0,0.0,0.0
0.0,0.0,0.0,0.0
44.959,-5.044,-0.3,0.0
33.483,-3.764,-0.403,0.0
86.228,-9.693,1.369,140.0
86.203,-9.707,0.906,85.0
0.0,0.0,0.0,0.0
0.0,0.0,0.0,0.0
45.121,-5.108,-0.256,1.0
35.263,-3.999,-0.388,0.0
86.241,-9.78,1.458,51.0
86.254,-9.797,0.995,151.0
87.289,-9.931,0.54,3.0
0.0,0.0,0.0,0.0
50.477,-5.762,-0.233,0.0
37.015,-4.233,-0.369,0.0
86.261,-9.864,1.549,49.0
86.239,-9.876,1.085,185.0
87.182,-9.999,0.63,7.0
0.0,0.0,0.0,0.0
50.408,-5.8,-0.18,5.0
39.193,-4.517,-0.35,0.0
86.278,-9.943,1.64,32.0
86.246,-9.954,1.177,187.0
86.403,-9.987,0.716,17.0
0.0,0.0,0.0,0.0
50.435,-5.847,-0.126,5.0
39.973,-4.641,-0.314,1.0
86.306,-10.021,1.732,1.0
86.261,-10.029,1.27,151.0
86.197,-10.036,0.808,28.0
82.229,-9.587,0.322,0.0
50.422,-5.887,-0.071,0.0
0.0,0.0,0.0,0.0
86.602,-10.126,1.833,12.0
86.209,-10.093,1.363,61.0
86.177,-10.102,0.902,46.0
0.0,0.0,0.0,0.0
0.0,0.0,0.0,0.0
44.49,-5.236,-0.253,0.0
86.642,-10.197,1.928,18.0
86.257,-10.164,1.458,54.0
86.22,-10.171,0.996,54.0
87.262,-10.307,0.533,6.0
0.0,0.0,0.0,0.0
50.383,-5.966,-0.23,1.0
188.259,-22.296,4.403,22.0
86.272,-10.228,1.555,55.0
86.235,-10.235,1.092,61.0
87.371,-10.381,0.632,10.0
0.0,0.0,0.0,0.0
50.397,-6.002,-0.174,3.0
188.292,-22.429,4.613,43.0
86.304,-10.291,1.653,12.0
86.227,-10.291,1.19,61.0
86.394,-10.322,0.722,12.0
0.0,0.0,0.0,0.0
50.372,-6.031,-0.117,0.0
188.207,-22.54,4.826,35.0
86.591,-10.38,1.757,1.0
86.222,-10.345,1.288,57.0
86.225,-10.355,0.818,50.0
0.0,0.0,0.0,0.0
0.0,0.0,0.0,0.0
188.161,-22.648,5.042,30.0
86.735,-10.448,1.86,5.0
86.273,-10.401,1.389,39.0
86.249,-10.407,0.918,151.0
87.039,-10.512,0.461,11.0
0.0,0.0,0.0,0.0
189.643,-22.93,5.299,17.0
203.062,-24.571,4.588,16.0
86.325,-10.453,1.489,37.0
