X,Y,Z,Reflectivity
13.895,1.236,-0.218,4.0
27.36,2.421,0.324,51.0
27.44,2.422,0.17,31.0
27.466,2.418,0.015,31.0
27.41,2.407,-0.142,12.0
31.23,2.736,-0.338,1.0
23.427,2.047,-0.386,5.0
27.343,2.376,0.303,59.0
27.477,2.381,0.15,31.0
27.516,2.378,-0.004,25.0
34.782,2.999,-0.205,8.0
30.737,2.644,-0.355,1.0
23.081,1.98,-0.396,5.0
27.35,2.332,0.284,51.0
27.519,2.34,0.131,14.0
27.624,2.343,-0.023,31.0
27.587,2.334,-0.182,17.0
27.615,2.33,-0.337,33.0
22.58,1.9,-0.403,4.0
27.387,2.29,0.266,51.0
27.535,2.296,0.112,17.0
27.569,2.292,-0.042,26.0
27.571,2.286,-0.2,23.0
27.607,2.283,-0.356,28.0
22.296,1.839,-0.412,4.0
27.413,2.246,0.249,41.0
27.528,2.249,0.095,15.0
27.573,2.247,-0.059,32.0
27.583,2.241,-0.217,25.0
27.656,2.24,-0.373,27.0
21.996,1.777,-0.42,4.0
27.461,2.204,0.232,29.0
27.575,2.206,0.078,19.0
27.597,2.201,-0.076,27.0
27.642,2.198,-0.234,8.0
29.514,2.34,-0.416,5.0
21.693,1.715,-0.427,4.0
27.516,2.161,0.217,35.0
47.984,3.757,0.109,16.0
36.284,2.832,-0.12,33.0
0.0,0.0,0.0,0.0
29.064,2.254,-0.426,1.0
21.424,1.656,-0.434,4.0
58.366,4.482,0.429,33.0
47.641,3.646,0.083,7.0
36.102,2.754,-0.139,41.0
34.896,2.653,-0.334,0.0
25.022,1.896,-0.379,3.0
21.303,1.609,-0.442,4.0
66.522,4.99,0.454,20.0
42.142,3.15,0.051,17.0
35.758,2.663,-0.156,46.0
32.288,2.397,-0.325,1.0
24.709,1.828,-0.387,4.0
21.035,1.551,-0.447,4.0
57.264,4.192,0.363,32.0
41.97,3.061,0.031,28.0
35.676,2.592,-0.173,35.0
31.668,2.293,-0.333,1.0
24.376,1.758,-0.393,5.0
20.923,1.504,-0.454,4.0
0.0,0.0,0.0,0.0
41.762,2.969,0.012,41.0
0.0,0.0,0.0,0.0
31.252,2.205,-0.343,1.0
24.128,1.696,-0.399,5.0
20.804,1.457,-0.461,4.0
54.926,3.817,0.301,29.0
41.545,2.875,-0.004,46.0
35.404,2.441,-0.201,19.0
30.941,2.125,-0.352,1.0
23.892,1.634,-0.405,5.0
20.721,1.412,-0.467,4.0
54.854,3.709,0.279,30.0
41.563,2.798,-0.02,17.0
35.266,2.365,-0.213,11.0
30.693,2.05,-0.36,2.0
23.73,1.578,-0.41,5.0
20.532,1.36,-0.47,4.0
54.675,3.595,0.26,30.0
41.036,2.686,-0.033,51.0
35.372,2.305,-0.225,11.0
30.549,1.983,-0.368,2.0
23.499,1.519,-0.414,5.0
20.441,1.315,-0.474,3.0
33.449,2.135,0.148,2.0
40.806,2.593,-0.045,51.0
35.367,2.238,-0.236,3.0
30.404,1.915,-0.375,2.0
23.322,1.462,-0.417,5.0
20.371,1.272,-0.478,3.0
33.456,2.071,0.139,8.0
40.726,2.51,-0.056,47.0
0.0,0.0,0.0,0.0
30.238,1.846,-0.381,2.0
23.186,1.409,-0.421,5.0
20.286,1.227,-0.481,3.0
54.413,3.263,0.214,23.0
40.621,2.424,-0.065,49.0
35.317,2.097,-0.253,8.0
30.079,1.777,-0.385,2.0
23.138,1.36,-0.425,5.0
20.311,1.188,-0.486,3.0
54.196,3.143,0.202,16.0
40.364,2.329,-0.073,32.0
35.371,2.031,-0.26,10.0
30.091,1.719,-0.391,2.0
22.939,1.303,-0.425,4.0
20.198,1.142,-0.486,3.0
54.108,3.032,0.193,14.0
40.767,2.272,-0.08,15.0
35.417,1.963,-0.265,9.0
29.959,1.652,-0.394,2.0
22.986,1.261,-0.429,5.0
20.187,1.101,-0.489,3.0
54.168,2.928,0.186,13.0
40.448,2.174,-0.084,42.0
35.463,1.895,-0.27,9.0
29.96,1.593,-0.397,2.0
22.914,1.211,-0.43,5.0
20.271,1.065,-0.493,3.0
54.119,2.818,0.181,10.0
40.487,2.095,-0.088,41.0
35.521,1.827,-0.273,5.0
29.881,1.528,-0.398,2.0
23.044,1.172,-0.434,5.0
20.155,1.019,-0.491,3.0
54.236,2.715,0.179,11.0
40.415,2.011,-0.089,48.0
35.59,1.759,-0.275,6.0
29.804,1.464,-0.398,2.0
23.131,1.129,-0.436,6.0
20.259,0.983,-0.494,3.0
54.246,2.605,0.178,13.0
40.352,1.925,-0.09,49.0
35.664,1.69,-0.276,8.0
29.889,1.408,-0.399,2.0
23.204,1.086,-0.438,5.0
20.391,0.948,-0.497,3.0
54.25,2.495,0.179,14.0
40.41,1.846,-0.089,52.0
35.723,1.621,-0.275,8.0
29.886,1.347,-0.397,2.0
23.331,1.044,-0.439,5.0
20.386,0.906,-0.496,3.0
54.266,2.385,0.182,16.0
40.363,1.761,-0.086,55.0
35.786,1.55,-0.273,7.0
29.963,1.289,-0.396,2.0
23.537,1.005,-0.441,5.0
20.46,0.867,-0.495,4.0
54.475,2.283,0.188,28.0
40.462,1.682,-0.082,35.0
35.877,1.481,-0.269,8.0
30.036,1.23,-0.394,2.0
23.669,0.962,-0.44,5.0
20.625,0.831,-0.497,4.0
54.436,2.169,0.196,29.0
40.506,1.601,-0.076,34.0
35.971,1.41,-0.265,9.0
30.532,1.187,-0.395,4.0
23.924,0.923,-0.441,5.0
20.622,0.789,-0.493,4.0
54.444,2.057,0.205,29.0
40.759,1.527,-0.069,21.0
36.082,1.34,-0.259,9.0
30.432,1.12,-0.388,2.0
24.033,0.877,-0.438,5.0
20.734,0.75,-0.491,4.0
54.608,1.951,0.217,29.0
41.325,1.462,-0.061,20.0
36.217,1.27,-0.251,12.0
30.463,1.058,-0.381,2.0
24.143,0.831,-0.434,2.0
20.933,0.714,-0.491,4.0
55.032,1.852,0.233,29.0
42.636,1.421,-0.052,5.0
36.397,1.202,-0.243,12.0
30.717,1.004,-0.376,2.0
27.611,0.893,-0.489,1.0
20.996,0.672,-0.486,4.0
58.573,1.851,0.265,15.0
40.895,1.278,-0.038,15.0
36.629,1.133,-0.234,18.0
31.002,0.949,-0.37,2.0
27.577,0.835,-0.48,1.0
21.219,0.636,-0.485,4.0
59.155,1.747,0.286,32.0
0.0,0.0,0.0,0.0
36.763,1.062,-0.222,26.0
31.162,0.89,-0.361,1.0
27.719,0.782,-0.472,1.0
21.453,0.598,-0.482,4.0
0.0,0.0,0.0,0.0
0.0,0.0,0.0,0.0
36.97,0.991,-0.209,29.0
31.663,0.838,-0.355,1.0
27.992,0.732,-0.466,1.0
21.753,0.562,-0.48,4.0
60.411,1.535,0.339,35.0
46.679,1.171,0.008,21.0
37.193,0.921,-0.195,41.0
32.259,0.788,-0.348,1.0
28.325,0.683,-0.459,1.0
21.836,0.519,-0.473,4.0
61.24,1.431,0.37,34.0
47.34,1.09,0.029,23.0
37.699,0.855,-0.181,51.0
32.759,0.732,-0.338,1.0
28.677,0.632,-0.452,2.0
22.297,0.484,-0.472,4.0
74.62,1.588,0.487,12.0
47.779,1.001,0.052,22.0
38.182,0.787,-0.164,39.0
33.213,0.674,-0.326,1.0
29.081,0.58,-0.443,1.0
22.829,0.448,-0.472,3.0
74.794,1.437,0.527,17.0
47.945,0.905,0.078,21.0
38.627,0.717,-0.146,44.0
36.838,0.671,-0.342,2.0
29.344,0.525,-0.431,2.0
26.329,0.462,-0.53,1.0
75.145,1.29,0.571,12.0
47.954,0.807,0.105,17.0
39.126,0.646,-0.125,46.0
36.928,0.597,-0.322,2.0
29.619,0.469,-0.418,2.0
26.497,0.411,-0.517,2.0
0.0,0.0,0.0,0.0
48.049,0.71,0.134,63.0
39.522,0.571,-0.103,27.0
37.086,0.524,-0.301,4.0
30.05,0.414,-0.406,2.0
26.811,0.361,-0.507,2.0
48.135,0.629,0.424,50.0
48.024,0.612,0.164,73.0
44.043,0.546,-0.086,3.0
37.281,0.449,-0.278,7.0
30.574,0.358,-0.393,2.0
27.066,0.308,-0.493,2.0
48.083,0.53,0.456,105.0
48.034,0.513,0.197,90.0
43.953,0.455,-0.056,18.0
37.569,0.377,-0.254,12.0
31.099,0.301,-0.378,1.0
27.473,0.257,-0.482,1.0
48.07,0.433,0.489,113.0
48.045,0.416,0.231,99.0
0.0,0.0,0.0,0.0
38.016,0.304,-0.23,14.0
31.671,0.243,-0.362,1.0
28.017,0.205,-0.47,1.0
48.148,0.336,0.526,51.0
48.181,0.32,0.267,56.0
46.794,0.296,0.008,33.0
38.516,0.23,-0.203,26.0
32.451,0.183,-0.345,1.0
28.621,0.152,-0.459,2.0
59.315,0.295,0.694,111.0
59.349,0.276,0.376,78.0
47.798,0.207,0.046,21.0
39.033,0.156,-0.175,43.0
33.233,0.121,-0.327,1.0
29.08,0.096,-0.442,2.0
79.467,0.238,0.994,151.0
76.511,0.203,0.547,22.0
0.0,0.0,0.0,0.0
39.8,0.079,-0.145,36.0
33.993,0.057,-0.307,0.0
29.564,0.039,-0.425,2.0
79.465,0.08,1.061,151.0
79.347,0.054,0.634,32.0
0.0,0.0,0.0,0.0
40.985,0.0,-0.114,17.0
38.082,-0.011,-0.31,2.0
29.973,-0.018,-0.404,2.0
79.458,-0.075,1.131,151.0
79.434,-0.1,0.705,150.0
56.161,-0.089,0.198,9.0
42.465,-0.081,-0.081,17.0
38.822,-0.086,-0.281,3.0
30.627,-0.078,-0.386,1.0
79.456,-0.229,1.203,151.0
79.444,-0.253,0.778,150.0
61.407,-0.215,0.273,9.0
45.502,-0.174,-0.044,20.0
39.403,-0.163,-0.249,4.0
31.438,-0.14,-0.366,1.0
79.455,-0.381,1.278,161.0
79.451,-0.405,0.853,182.0
76.713,-0.416,0.414,11.0
50.477,-0.29,-0.001,5.0
42.081,-0.255,-0.225,7.0
32.573,-0.208,-0.348,1.0
79.453,-0.533,1.355,165.0
79.449,-0.559,0.932,195.0
77.165,-0.568,0.494,12.0
49.535,-0.38,0.048,1.0
47.35,-0.378,-0.205,7.0
33.912,-0.282,-0.327,1.0
79.439,-0.684,1.436,178.0
79.451,-0.71,1.013,184.0
79.11,-0.731,0.587,49.0
56.306,-0.538,0.113,4.0
50.821,-0.501,-0.168,8.0
38.496,-0.392,-0.332,5.0
79.428,-0.833,1.519,204.0
79.394,-0.857,1.096,248.0
79.423,-0.882,0.674,104.0
79.235,-0.905,0.243,3.0
54.521,-0.64,-0.122,1.0
42.022,-0.507,-0.317,0.0
79.47,-0.98,1.605,1.0
86.965,-1.099,1.294,47.0
86.98,-1.126,0.832,55.0
78.542,-1.041,0.326,0.0
53.654,-0.728,-0.061,2.0
41.417,-0.575,-0.266,0.0
183.404,-2.596,3.907,63.0
205.345,-2.97,3.284,56.0
123.711,-1.828,1.322,14.0
91.618,-1.381,0.484,1.0
61.599,-0.948,-0.001,1.0
46.276,-0.726,-0.245,1.0
248.365,-3.968,5.575,75.0
205.554,-3.344,3.522,15.0
40.279,-0.667,0.476,1.0
40.254,-0.679,0.259,49.0
40.289,-0.692,0.045,63.0
40.306,-0.705,-0.167,51.0
40.232,-0.714,0.949,55.0
40.179,-0.725,0.735,67.0
40.261,-0.738,0.523,42.0
40.237,-0.75,0.306,57.0
40.278,-0.763,0.093,44.0
0.0,0.0,0.0,0.0
40.266,-0.785,0.998,45.0
40.238,-0.797,0.784,57.0
40.229,-0.809,0.572,59.0
40.267,-0.821,0.355,25.0
68.23,-1.412,0.241,1.0
0.0,0.0,0.0,0.0
40.223,-0.854,1.046,59.0
40.207,-0.865,0.833,54.0
40.3,-0.879,0.622,18.0
40.292,-0.891,0.405,15.0
40.309,-0.903,0.192,150.0
40.285,-0.914,-0.02,40.0
40.217,-0.922,1.096,60.0
40.196,-0.933,0.883,55.0
40.229,-0.945,0.671,65.0
40.242,-0.957,0.455,41.0
40.367,-0.972,0.243,0.0
0.0,0.0,0.0,0.0
40.225,-0.99,1.147,53.0
40.189,-1.0,0.934,55.0
40.199,-1.012,0.722,62.0
40.196,-1.023,0.507,60.0
40.181,-1.035,0.295,62.0
40.209,-1.047,0.083,46.0
40.25,-1.057,1.2,37.0
40.206,-1.067,0.987,56.0
40.232,-1.078,0.775,41.0
40.253,-1.09,0.56,36.0
40.193,-1.1,0.348,53.0
40.2,-1.111,0.136,50.0
40.289,-1.123,1.255,10.0
40.337,-1.135,1.044,36.0
40.354,-1.146,0.832,0.0
153.977,-4.419,2.349,39.0
0.0,0.0,0.0,0.0
0.0,0.0,0.0,0.0
0.0,0.0,0.0,0.0
40.293,-1.198,1.097,30.0
40.306,-1.209,0.885,27.0
40.338,-1.221,0.67,54.0
40.305,-1.231,0.458,0.0
0.0,0.0,0.0,0.0
0.0,0.0,0.0,0.0
0.0,0.0,0.0,0.0
40.283,-1.272,0.941,0.0
0.0,0.0,0.0,0.0
0.0,0.0,0.0,0.0
0.0,0.0,0.0,0.0
0.0,0.0,0.0,0.0
0.0,0.0,0.0,0.0
0.0,0.0,0.0,0.0
0.0,0.0,0.0,0.0
0.0,0.0,0.0,0.0
0.0,0.0,0.0,0.0
0.0,0.0,0.0,0.0
0.0,0.0,0.0,0.0
0.0,0.0,0.0,0.0
0.0,0.0,0.0,0.0
0.0,0.0,0.0,0.0
0.0,0.0,0.0,0.0
0.0,0.0,0.0,0.0
0.0,0.0,0.0,0.0
0.0,0.0,0.0,0.0
0.0,0.0,0.0,0.0
0.0,0.0,0.0,0.0
0.0,0.0,0.0,0.0
0.0,0.0,0.0,0.0
0.0,0.0,0.0,0.0
0.0,0.0,0.0,0.0
0.0,0.0,0.0,0.0
0.0,0.0,0.0,0.0
0.0,0.0,0.0,0.0
0.0,0.0,0.0,0.0
0.0,0.0,0.0,0.0
0.0,0.0,0.0,0.0
0.0,0.0,0.0,0.0
0.0,0.0,0.0,0.0
0.0,0.0,0.0,0.0
0.0,0.0,0.0,0.0
0.0,0.0,0.0,0.0
0.0,0.0,0.0,0.0
0.0,0.0,0.0,0.0
0.0,0.0,0.0,0.0
0.0,0.0,0.0,0.0
0.0,0.0,0.0,0.0
0.0,0.0,0.0,0.0
0.0,0.0,0.0,0.0
0.0,0.0,0.0,0.0
0.0,0.0,0.0,0.0
0.0,0.0,0.0,0.0
0.0,0.0,0.0,0.0
0.0,0.0,0.0,0.0
0.0,0.0,0.0,0.0
0.0,0.0,0.0,0.0
0.0,0.0,0.0,0.0
0.0,0.0,0.0,0.0
0.0,0.0,0.0,0.0
0.0,0.0,0.0,0.0
0.0,0.0,0.0,0.0
0.0,0.0,0.0,0.0
0.0,0.0,0.0,0.0
0.0,0.0,0.0,0.0
0.0,0.0,0.0,0.0
0.0,0.0,0.0,0.0
0.0,0.0,0.0,0.0
0.0,0.0,0.0,0.0
0.0,0.0,0.0,0.0
0.0,0.0,0.0,0.0
0.0,0.0,0.0,0.0
0.0,0.0,0.0,0.0
0.0,0.0,0.0,0.0
0.0,0.0,0.0,0.0
0.0,0.0,0.0,0.0
0.0,0.0,0.0,0.0
0.0,0.0,0.0,0.0
0.0,0.0,0.0,0.0
0.0,0.0,0.0,0.0
0.0,0.0,0.0,0.0
0.0,0.0,0.0,0.0
0.0,0.0,0.0,0.0
0.0,0.0,0.0,0.0
0.0,0.0,0.0,0.0
0.0,0.0,0.0,0.0
0.0,0.0,0.0,0.0
0.0,0.0,0.0,0.0
0.0,0.0,0.0,0.0
0.0,0.0,0.0,0.0
0.0,0.0,0.0,0.0
226.723,-11.492,11.702,10.0
0.0,0.0,0.0,0.0
0.0,0.0,0.0,0.0
0.0,0.0,0.0,0.0
0.0,0.0,0.0,0.0
0.0,0.0,0.0,0.0
0.0,0.0,0.0,0.0
0.0,0.0,0.0,0.0
0.0,0.0,0.0,0.0
0.0,0.0,0.0,0.0
0.0,0.0,0.0,0.0
0.0,0.0,0.0,0.0
0.0,0.0,0.0,0.0
0.0,0.0,0.0,0.0
0.0,0.0,0.0,0.0
0.0,0.0,0.0,0.0
0.0,0.0,0.0,0.0
0.0,0.0,0.0,0.0
0.0,0.0,0.0,0.0
0.0,0.0,0.0,0.0
0.0,0.0,0.0,0.0
211.664,-11.423,8.634,8.0
278.872,-15.09,9.92,13.0
0.0,0.0,0.0,0.0
0.0,0.0,0.0,0.0
0.0,0.0,0.0,0.0
219.933,-12.026,10.482,6.0
0.0,0.0,0.0,0.0
0.0,0.0,0.0,0.0
0.0,0.0,0.0,0.0
0.0,0.0,0.0,0.0
0.0,0.0,0.0,0.0
0.0,0.0,0.0,0.0
0.0,0.0,0.0,0.0
244.293,-13.622,9.508,6.0
0.0,0.0,0.0,0.0
0.0,0.0,0.0,0.0
164.757,-9.255,9.282,10.0
0.0,0.0,0.0,0.0
0.0,0.0,0.0,0.0
0.0,0.0,0.0,0.0
0.0,0.0,0.0,0.0
0.0,0.0,0.0,0.0
211.557,-12.044,12.275,11.0
211.686,-12.075,11.156,6.0
211.702,-12.099,10.053,13.0
0.0,0.0,0.0,0.0
0.0,0.0,0.0,0.0
0.0,0.0,0.0,0.0
0.0,0.0,0.0,0.0
164.764,-9.513,8.959,9.0
0.0,0.0,0.0,0.0
211.791,-12.269,9.303,6.0
0.0,0.0,0.0,0.0
0.0,0.0,0.0,0.0
0.0,0.0,0.0,0.0
0.0,0.0,0.0,0.0
150.17,-8.78,7.631,9.0
0.0,0.0,0.0,0.0
0.0,0.0,0.0,0.0
0.0,0.0,0.0,0.0
0.0,0.0,0.0,0.0
163.315,-9.636,9.426,7.0
150.336,-8.882,7.891,9.0
0.0,0.0,0.0,0.0
0.0,0.0,0.0,0.0
0.0,0.0,0.0,0.0
0.0,0.0,0.0,0.0
0.0,0.0,0.0,0.0
163.27,-9.738,8.845,4.0
0.0,0.0,0.0,0.0
0.0,0.0,0.0,0.0
0.0,0.0,0.0,0.0
0.0,0.0,0.0,0.0
202.502,-12.172,12.371,7.0
165.2,-9.941,9.227,4.0
150.084,-9.04,7.599,2.0
0.0,0.0,0.0,0.0
0.0,0.0,0.0,0.0
0.0,0.0,0.0,0.0
203.977,-12.36,12.8,6.0
164.117,-9.954,9.439,6.0
163.4,-9.921,8.545,5.0
0.0,0.0,0.0,0.0
0.0,0.0,0.0,0.0
0.0,0.0,0.0,0.0
148.443,-9.062,9.561,3.0
147.875,-9.033,8.75,5.0
147.912,-9.043,7.979,7.0
0.0,0.0,0.0,0.0
0.0,0.0,0.0,0.0
0.0,0.0,0.0,0.0
0.0,0.0,0.0,0.0
0.0,0.0,0.0,0.0
147.828,-9.095,8.218,30.0
0.0,0.0,0.0,0.0
0.0,0.0,0.0,0.0
0.0,0.0,0.0,0.0
0.0,0.0,0.0,0.0
0.0,0.0,0.0,0.0
164.853,-10.199,9.434,5.0
0.0,0.0,0.0,0.0
0.0,0.0,0.0,0.0
0.0,0.0,0.0,0.0
0.0,0.0,0.0,0.0
0.0,0.0,0.0,0.0
148.405,-9.227,8.736,4.0
0.0,0.0,0.0,0.0
0.0,0.0,0.0,0.0
0.0,0.0,0.0,0.0
0.0,0.0,0.0,0.0
0.0,0.0,0.0,0.0
148.369,-9.263,8.976,3.0
0.0,0.0,0.0,0.0
0.0,0.0,0.0,0.0
0.0,0.0,0.0,0.0
0.0,0.0,0.0,0.0
0.0,0.0,0.0,0.0
0.0,0.0,0.0,0.0
0.0,0.0,0.0,0.0
0.0,0.0,0.0,0.0
0.0,0.0,0.0,0.0
0.0,0.0,0.0,0.0
0.0,0.0,0.0,0.0
203.228,-12.77,12.948,5.0
0.0,0.0,0.0,0.0
0.0,0.0,0.0,0.0
0.0,0.0,0.0,0.0
0.0,0.0,0.0,0.0
0.0,0.0,0.0,0.0
0.0,0.0,0.0,0.0
0.0,0.0,0.0,0.0
0.0,0.0,0.0,0.0
0.0,0.0,0.0,0.0
0.0,0.0,0.0,0.0
0.0,0.0,0.0,0.0
0.0,0.0,0.0,0.0
0.0,0.0,0.0,0.0
0.0,0.0,0.0,0.0
0.0,0.0,0.0,0.0
0.0,0.0,0.0,0.0
0.0,0.0,0.0,0.0
203.148,-12.822,13.898,5.0
0.0,0.0,0.0,0.0
0.0,0.0,0.0,0.0
0.0,0.0,0.0,0.0
0.0,0.0,0.0,0.0
0.0,0.0,0.0,0.0
0.0,0.0,0.0,0.0
0.0,0.0,0.0,0.0
0.0,0.0,0.0,0.0
0.0,0.0,0.0,0.0
0.0,0.0,0.0,0.0
0.0,0.0,0.0,0.0
0.0,0.0,0.0,0.0
0.0,0.0,0.0,0.0
0.0,0.0,0.0,0.0
0.0,0.0,0.0,0.0
0.0,0.0,0.0,0.0
0.0,0.0,0.0,0.0
0.0,0.0,0.0,0.0
0.0,0.0,0.0,0.0
0.0,0.0,0.0,0.0
0.0,0.0,0.0,0.0
0.0,0.0,0.0,0.0
0.0,0.0,0.0,0.0
0.0,0.0,0.0,0.0
0.0,0.0,0.0,0.0
0.0,0.0,0.0,0.0
0.0,0.0,0.0,0.0
0.0,0.0,0.0,0.0
0.0,0.0,0.0,0.0
0.0,0.0,0.0,0.0
0.0,0.0,0.0,0.0
0.0,0.0,0.0,0.0
0.0,0.0,0.0,0.0
0.0,0.0,0.0,0.0
0.0,0.0,0.0,0.0
0.0,0.0,0.0,0.0
0.0,0.0,0.0,0.0
0.0,0.0,0.0,0.0
0.0,0.0,0.0,0.0
0.0,0.0,0.0,0.0
0.0,0.0,0.0,0.0
0.0,0.0,0.0,0.0
0.0,0.0,0.0,0.0
0.0,0.0,0.0,0.0
0.0,0.0,0.0,0.0
0.0,0.0,0.0,0.0
0.0,0.0,0.0,0.0
0.0,0.0,0.0,0.0
0.0,0.0,0.0,0.0
0.0,0.0,0.0,0.0
0.0,0.0,0.0,0.0
0.0,0.0,0.0,0.0
0.0,0.0,0.0,0.0
0.0,0.0,0.0,0.0
0.0,0.0,0.0,0.0
0.0,0.0,0.0,0.0
0.0,0.0,0.0,0.0
0.0,0.0,0.0,0.0
0.0,0.0,0.0,0.0
0.0,0.0,0.0,0.0
49.294,-3.04,5.477,1.0
0.0,0.0,0.0,0.0
0.0,0.0,0.0,0.0
0.0,0.0,0.0,0.0
0.0,0.0,0.0,0.0
0.0,0.0,0.0,0.0
49.238,-3.018,5.537,5.0
0.0,0.0,0.0,0.0
0.0,0.0,0.0,0.0
0.0,0.0,0.0,0.0
0.0,0.0,0.0,0.0
0.0,0.0,0.0,0.0
0.0,0.0,0.0,0.0
0.0,0.0,0.0,0.0
0.0,0.0,0.0,0.0
0.0,0.0,0.0,0.0
0.0,0.0,0.0,0.0
0.0,0.0,0.0,0.0
0.0,0.0,0.0,0.0
49.29,-2.972,5.404,0.0
0.0,0.0,0.0,0.0
0.0,0.0,0.0,0.0
0.0,0.0,0.0,0.0
0.0,0.0,0.0,0.0
0.0,0.0,0.0,0.0
49.35,-2.951,5.472,4.0
0.0,0.0,0.0,0.0
0.0,0.0,0.0,0.0
0.0,0.0,0.0,0.0
0.0,0.0,0.0,0.0
48.99,-2.911,5.758,3.0
49.314,-2.924,5.528,2.0
0.0,0.0,0.0,0.0
0.0,0.0,0.0,0.0
0.0,0.0,0.0,0.0
0.0,0.0,0.0,0.0
48.571,-2.86,5.766,23.0
0.0,0.0,0.0,0.0
0.0,0.0,0.0,0.0
0.0,0.0,0.0,0.0
0.0,0.0,0.0,0.0
0.0,0.0,0.0,0.0
0.0,0.0,0.0,0.0
50.342,-2.926,5.761,1.0
49.365,-2.862,5.381,2.0
0.0,0.0,0.0,0.0
0.0,0.0,0.0,0.0
0.0,0.0,0.0,0.0
48.088,-2.773,5.819,2.0
50.424,-2.9,5.827,1.0
49.348,-2.829,5.434,5.0
0.0,0.0,0.0,0.0
0.0,0.0,0.0,0.0
0.0,0.0,0.0,0.0
47.805,-2.725,5.837,3.0
48.412,-2.752,5.647,11.0
49.262,-2.792,5.478,0.0
0.0,0.0,0.0,0.0
0.0,0.0,0.0,0.0
0.0,0.0,0.0,0.0
0.0,0.0,0.0,0.0
48.576,-2.727,5.718,23.0
0.0,0.0,0.0,0.0
0.0,0.0,0.0,0.0
56.529,-3.145,5.724,4.0
0.0,0.0,0.0,0.0
0.0,0.0,0.0,0.0
49.151,-2.724,5.835,23.0
50.32,-2.78,5.699,2.0
49.412,-2.721,5.322,2.0
0.0,0.0,0.0,0.0
56.89,-3.113,5.508,3.0
0.0,0.0,0.0,0.0
0.0,0.0,0.0,0.0
50.238,-2.738,5.738,5.0
49.399,-2.684,5.367,5.0
0.0,0.0,0.0,0.0
56.58,-3.053,5.531,2.0
51.032,-2.761,6.437,9.0
50.881,-2.743,6.138,3.0
48.259,-2.593,5.557,10.0
55.327,-2.962,6.062,3.0
0.0,0.0,0.0,0.0
56.62,-3.011,5.586,3.0
49.057,-2.614,6.232,1.0
50.955,-2.706,6.193,17.0
48.575,-2.57,5.637,22.0
57.111,-3.011,6.309,3.0
55.279,-2.904,5.804,4.0
92.714,-4.854,9.229,1.0
46.481,-2.438,5.946,2.0
0.0,0.0,0.0,0.0
48.961,-2.55,5.724,7.0
50.299,-2.61,5.599,8.0
63.538,-3.285,6.724,2.0
92.584,-4.77,9.292,1.0
48.759,-2.516,6.278,13.0
0.0,0.0,0.0,0.0
0.0,0.0,0.0,0.0
50.126,-2.557,5.62,4.0
49.43,-2.512,5.271,6.0
92.797,-4.7,9.387,4.0
0.0,0.0,0.0,0.0
0.0,0.0,0.0,0.0
49.687,-2.501,5.887,5.0
48.341,-2.423,5.457,6.0
54.873,-2.741,5.892,7.0
55.137,-2.743,5.619,3.0
49.844,-2.484,6.495,4.0
46.557,-2.31,5.809,3.0
49.363,-2.44,5.886,6.0
48.313,-2.378,5.489,18.0
57.98,-2.843,6.268,6.0
63.107,-3.082,6.475,5.0
47.741,-2.335,6.255,22.0
46.584,-2.268,5.845,11.0
48.969,-2.375,5.873,5.0
48.661,-2.35,5.562,5.0
56.614,-2.723,6.159,5.0
55.024,-2.635,5.683,7.0
48.096,-2.307,6.334,16.0
48.674,-2.324,6.139,7.0
48.894,-2.324,5.896,4.0
48.849,-2.312,5.615,11.0
49.798,-2.346,5.449,5.0
55.051,-2.583,5.72,14.0
48.013,-2.256,6.353,5.0
48.458,-2.266,6.143,18.0
48.938,-2.278,5.931,3.0
48.544,-2.25,5.609,9.0
40.54,-1.871,4.46,41.0
53.485,-2.458,5.589,2.0
0.0,0.0,0.0,0.0
48.284,-2.21,6.148,19.0
46.533,-2.12,5.666,3.0
47.532,-2.156,5.519,3.0
40.543,-1.83,4.483,44.0
55.234,-2.482,5.802,7.0
50.007,-2.25,6.674,2.0
48.195,-2.157,6.163,12.0
46.305,-2.063,5.663,10.0
53.049,-2.351,6.188,6.0
40.517,-1.787,4.501,38.0
48.558,-2.132,5.125,3.0
49.751,-2.186,6.665,5.0
50.025,-2.187,6.422,6.0
48.292,-2.1,5.93,22.0
47.504,-2.056,5.564,4.0
40.541,-1.746,4.522,44.0
40.395,-1.731,4.282,3.0
42.315,-1.815,5.689,28.0
0.0,0.0,0.0,0.0
48.248,-2.048,5.946,19.0
40.564,-1.713,4.768,2.0
40.389,-1.697,4.523,52.0
40.47,-1.693,4.307,39.0
42.249,-1.767,5.697,43.0
49.605,-2.064,6.41,5.0
40.315,-1.669,4.984,38.0
40.451,-1.665,4.771,30.0
40.306,-1.651,4.529,70.0
40.38,-1.646,4.312,67.0
42.193,-1.719,5.705,52.0
42.059,-1.705,5.45,8.0
40.336,-1.626,5.001,26.0
40.632,-1.629,4.806,20.0
40.392,-1.611,4.552,52.0
40.372,-1.602,4.324,58.0
42.199,-1.674,5.72,39.0
42.056,-1.659,5.463,50.0
40.338,-1.582,5.013,47.0
40.423,-1.577,4.793,62.0
40.254,-1.561,4.548,45.0
40.359,-1.557,4.334,61.0
42.229,-1.628,5.736,49.0
42.134,-1.615,5.485,58.0
40.278,-1.535,5.017,49.0
40.515,-1.535,4.814,49.0
40.534,-1.527,4.59,47.0
40.448,-1.515,4.354,49.0
42.227,-1.581,5.745,35.0
42.222,-1.571,5.506,53.0
40.285,-1.49,5.026,41.0
40.423,-1.486,4.812,50.0
40.207,-1.469,4.561,63.0
40.432,-1.469,4.36,60.0
42.282,-1.535,5.761,62.0
42.373,-1.529,5.533,44.0
43.538,-1.561,5.44,3.0
49.446,-1.762,5.894,8.0
40.431,-1.432,4.592,47.0
40.339,-1.42,4.356,59.0
42.12,-1.481,5.745,46.0
42.203,-1.474,5.517,47.0
40.371,-1.401,5.049,36.0
40.51,-1.398,4.834,59.0
40.34,-1.383,4.586,56.0
40.292,-1.373,4.355,39.0
41.988,-1.428,5.731,51.0
42.29,-1.429,5.532,59.0
40.569,-1.362,5.077,50.0
40.608,-1.354,4.849,55.0
40.384,-1.338,4.594,47.0
40.038,-1.318,4.329,53.0
41.94,-1.378,5.727,74.0
42.449,-1.385,5.555,69.0
40.625,-1.316,5.086,53.0
40.489,-1.303,4.835,53.0
39.942,-1.277,4.545,59.0
39.75,-1.262,4.299,55.0
42.104,-1.333,5.749,50.0
41.957,-1.32,5.49,53.0
40.457,-1.264,5.064,44.0
40.607,-1.259,4.849,48.0
39.625,-1.22,4.507,62.0
39.598,-1.211,4.281,64.0
42.054,-1.282,5.741,62.0
41.927,-1.269,5.485,56.0
40.352,-1.213,5.049,54.0
40.174,-1.199,4.794,48.0
39.419,-1.168,4.481,70.0
39.298,-1.156,4.246,67.0
42.269,-1.239,5.766,53.0
41.933,-1.22,5.481,50.0
40.316,-1.164,5.04,52.0
39.816,-1.142,4.747,58.0
39.88,-1.134,4.529,64.0
39.343,-1.111,4.245,52.0
42.285,-1.19,5.763,63.0
41.905,-1.17,5.472,65.0
39.586,-1.097,4.943,59.0
39.752,-1.093,4.733,59.0
39.49,-1.078,4.478,48.0
39.281,-1.064,4.232,53.0
42.154,-1.136,5.737,65.0
42.449,-1.135,5.535,43.0
39.532,-1.049,4.929,55.0
39.453,-1.038,4.69,62.0
39.379,-1.027,4.457,57.0
39.046,-1.011,4.198,60.0
42.039,-1.082,5.712,67.0
42.276,-1.08,5.502,26.0
39.714,-1.006,4.941,60.0
39.286,-0.987,4.66,61.0
39.356,-0.98,4.445,49.0
39.167,-0.968,4.201,58.0
42.154,-1.035,5.716,55.0
42.317,-1.03,5.495,20.0
39.602,-0.956,4.916,44.0
39.227,-0.939,4.641,60.0
39.65,-0.94,4.466,55.0
39.101,-0.919,4.181,60.0
42.157,-0.985,5.703,55.0
42.021,-0.973,5.443,23.0
39.608,-0.909,4.903,48.0
39.224,-0.892,4.627,67.0
39.476,-0.889,4.432,57.0
39.089,-0.873,4.166,57.0
41.816,-0.927,5.641,73.0
41.943,-0.921,5.417,29.0
39.617,-0.862,4.889,60.0
39.334,-0.848,4.625,57.0
39.112,-0.835,4.376,65.0
39.559,-0.837,4.2,49.0
41.788,-0.876,5.62,51.0
41.903,-0.871,5.394,30.0
39.48,-0.812,4.855,55.0
39.4,-0.803,4.616,56.0
39.14,-0.79,4.362,63.0
39.206,-0.784,4.145,54.0
0.0,0.0,0.0,0.0
42.328,-0.83,5.429,5.0
39.352,-0.764,4.821,54.0
39.502,-0.759,4.609,45.0
39.081,-0.743,4.336,52.0
39.244,-0.738,4.13,67.0
50.306,-0.937,6.717,7.0
39.545,-0.728,5.052,39.0
39.365,-0.718,4.802,56.0
39.618,-0.715,4.601,51.0
39.13,-0.698,4.32,42.0
39.29,-0.694,4.114,53.0
42.174,-0.736,5.608,17.0
39.811,-0.687,5.064,47.0
39.534,-0.675,4.801,67.0
39.482,-0.666,4.563,56.0
39.147,-0.654,4.3,54.0
39.323,-0.649,4.094,53.0
42.09,-0.686,5.571,2.0
39.764,-0.64,5.034,55.0
40.023,-0.637,4.836,57.0
39.556,-0.622,4.547,69.0
39.611,-0.616,4.326,22.0
39.241,-0.603,4.061,67.0
39.939,-0.605,5.261,38.0
39.874,-0.597,5.022,52.0
40.095,-0.592,4.818,50.0
39.762,-0.58,4.545,47.0
39.212,-0.565,4.257,61.0
39.367,-0.56,4.048,59.0
39.99,-0.56,5.24,35.0
40.028,-0.553,5.013,38.0
40.285,-0.549,4.812,32.0
39.618,-0.533,4.501,54.0
39.734,-0.527,4.285,61.0
39.556,-0.518,4.039,48.0
39.975,-0.514,5.209,76.0
39.94,-0.506,4.973,69.0
39.964,-0.5,4.745,56.0
40.035,-0.493,4.518,49.0
39.767,-0.483,4.259,63.0
39.326,-0.471,3.985,47.0
39.927,-0.468,5.171,66.0
39.919,-0.461,4.939,33.0
40.129,-0.457,4.733,45.0
39.689,-0.445,4.447,57.0
39.319,-0.434,4.179,64.0
39.29,-0.428,3.951,55.0
39.902,-0.424,5.136,42.0
39.896,-0.417,4.903,49.0
40.198,-0.413,4.707,46.0
39.858,-0.403,4.433,59.0
39.534,-0.393,4.169,56.0
39.31,-0.384,3.919,70.0
39.712,-0.378,5.077,44.0
39.918,-0.374,4.871,47.0
40.093,-0.368,4.66,45.0
39.807,-0.359,4.392,50.0
39.515,-0.35,4.132,45.0
39.454,-0.343,3.899,58.0
39.593,-0.334,5.025,71.0
39.677,-0.328,4.806,52.0
40.139,-0.326,4.628,60.0
40.356,-0.321,4.416,16.0
39.463,-0.307,4.09,50.0
39.477,-0.301,3.864,64.0
39.579,-0.291,4.986,56.0
39.716,-0.286,4.772,39.0
41.069,-0.289,4.696,57.0
44.017,-0.303,4.774,5.0
39.467,-0.266,4.052,66.0
0.0,0.0,0.0,0.0
39.635,-0.25,4.954,55.0
39.762,-0.245,4.738,15.0
40.334,-0.242,4.572,38.0
40.753,-0.238,4.379,42.0
39.933,-0.228,4.06,53.0
42.441,-0.235,4.07,9.0
39.626,-0.209,4.912,59.0
39.665,-0.203,4.685,40.0
40.471,-0.201,4.545,50.0
40.742,-0.197,4.336,44.0
47.377,-0.222,4.767,7.0
42.376,-0.192,4.019,7.0
39.604,-0.169,4.866,53.0
39.705,-0.163,4.648,60.0
40.011,-0.159,4.451,55.0
40.308,-0.154,4.246,17.0
40.229,-0.148,4.004,51.0
41.842,-0.148,3.923,50.0
39.466,-0.129,4.806,55.0
39.765,-0.124,4.61,58.0
40.044,-0.119,4.409,62.0
40.146,-0.114,4.184,66.0
40.049,-0.109,3.941,43.0
40.9,-0.105,3.788,36.0
39.519,-0.09,4.767,68.0
39.841,-0.086,4.573,48.0
40.963,-0.083,4.463,49.0
40.291,-0.076,4.152,50.0
40.913,-0.071,3.978,25.0
40.53,-0.065,3.706,63.0
39.886,-0.053,4.763,52.0
40.047,-0.047,4.548,48.0
41.147,-0.044,4.434,42.0
40.413,-0.037,4.115,61.0
41.026,-0.033,3.94,16.0
40.391,-0.027,3.645,32.0
39.868,-0.015,4.712,60.0
40.18,-0.01,4.514,51.0
40.453,-0.005,4.309,31.0
40.293,0.0,4.053,66.0
0.0,0.0,0.0,0.0
0.0,0.0,0.0,0.0
39.74,0.021,4.646,26.0
40.11,0.026,4.454,49.0
0.0,0.0,0.0,0.0
40.287,0.035,4.001,48.0
54.701,0.055,5.114,17.0
47.725,0.054,4.185,26.0
39.547,0.056,4.571,61.0
39.971,0.061,4.386,61.0
40.106,0.066,4.168,62.0
40.145,0.071,3.933,71.0
54.673,0.103,5.039,48.0
39.905,0.08,3.446,63.0
39.837,0.091,4.551,60.0
40.232,0.096,4.361,47.0
40.022,0.1,4.104,70.0
40.105,0.105,3.875,66.0
47.719,0.13,4.333,8.0
39.854,0.114,3.387,65.0
40.202,0.126,4.537,37.0
40.449,0.131,4.328,38.0
40.084,0.134,4.055,70.0
59.206,0.204,5.638,29.0
47.722,0.17,4.267,5.0
39.927,0.146,3.339,68.0
40.259,0.159,4.487,55.0
40.211,0.163,4.246,58.0
40.256,0.167,4.015,51.0
47.631,0.203,4.468,88.0
54.742,0.238,4.817,14.0
39.887,0.178,3.278,68.0
40.254,0.191,4.427,57.0
40.158,0.195,4.181,62.0
47.616,0.235,4.679,4.0
47.676,0.241,4.403,44.0
39.973,0.205,3.458,66.0
84.834,0.444,6.847,14.0
40.125,0.221,4.353,68.0
40.231,0.225,4.129,54.0
47.54,0.271,4.601,4.0
40.295,0.233,3.661,13.0
39.933,0.235,3.395,33.0
75.056,0.448,5.946,33.0
40.098,0.251,4.29,65.0
57.354,0.364,5.8,17.0
47.567,0.306,4.532,10.0
57.222,0.373,5.112,21.0
74.91,0.494,6.256,14.0
48.422,0.324,3.762,59.0
40.372,0.281,4.256,33.0
47.436,0.334,4.723,10.0
39.973,0.285,3.745,57.0
48.824,0.352,4.285,17.0
48.58,0.354,3.98,17.0
48.349,0.356,3.68,70.0
40.32,0.308,4.187,48.0
47.458,0.367,4.649,48.0
40.069,0.313,3.691,28.0
48.737,0.384,4.199,71.0
48.437,0.385,3.891,67.0
48.331,0.388,3.602,56.0
40.168,0.333,4.106,66.0
47.672,0.399,4.593,27.0
40.018,0.338,3.621,61.0
48.667,0.414,4.115,73.0
48.391,0.415,3.809,103.0
48.358,0.418,3.525,59.0
40.198,0.359,4.043,28.0
78.171,0.703,7.403,17.0
48.812,0.441,4.337,10.0
48.55,0.442,4.026,60.0
48.408,0.444,3.731,97.0
55.743,0.515,3.972,49.0
47.66,0.453,4.713,8.0
39.995,0.383,3.721,61.0
48.757,0.469,4.251,22.0
48.42,0.469,3.934,108.0
56.174,0.547,4.236,8.0
55.743,0.546,3.879,74.0
47.656,0.479,4.633,4.0
39.949,0.404,3.649,46.0
48.455,0.492,4.143,75.0
48.422,0.495,3.852,102.0
56.024,0.575,4.13,34.0
55.799,0.576,3.788,2.0
39.96,0.423,3.816,60.0
40.084,0.426,3.593,56.0
48.447,0.517,4.059,116.0
48.452,0.519,3.772,35.0
55.834,0.601,4.02,45.0
99.437,1.076,6.581,15.0
40.079,0.444,3.758,31.0
48.406,0.538,4.255,59.0
48.459,0.54,3.975,99.0
56.112,0.629,4.269,68.0
55.818,0.627,3.921,23.0
99.483,1.123,6.409,15.0
39.95,0.46,3.675,51.0
48.414,0.56,4.169,113.0
56.139,0.651,4.506,18.0
56.031,0.652,4.164,51.0
91.299,1.066,6.253,25.0
54.986,0.644,3.445,16.0
48.364,0.578,4.362,10.0
48.453,0.58,4.086,74.0
56.136,0.674,4.405,81.0
55.96,0.674,4.058,29.0
91.263,1.103,6.086,4.0
54.975,0.665,3.346,84.0
48.395,0.597,4.277,47.0
56.165,0.694,4.635,73.0
56.116,0.695,4.302,79.0
99.281,1.232,7.021,23.0
91.544,1.139,5.94,12.0
54.968,0.685,3.246,99.0
56.224,0.713,4.866,10.0
56.172,0.714,4.533,46.0
56.112,0.714,4.2,50.0
91.291,1.164,6.289,8.0
91.556,1.17,5.772,34.0
54.978,0.703,3.146,95.0
56.195,0.73,4.759,108.0
61.638,0.802,4.86,64.0
64.134,0.836,4.68,98.0
91.324,1.192,6.121,43.0
54.977,0.718,3.363,60.0
54.967,0.719,3.041,96.0
56.204,0.747,4.654,60.0
64.272,0.854,4.946,21.0
64.141,0.854,4.56,108.0
64.073,0.853,4.174,33.0
54.969,0.732,3.26,113.0
54.977,0.733,2.94,108.0
64.457,0.872,5.216,47.0
64.135,0.868,4.813,56.0
64.121,0.869,4.438,97.0
91.765,1.244,5.804,18.0
54.964,0.745,3.155,107.0
54.985,0.745,2.835,120.0
64.429,0.886,5.09,29.0
64.155,0.882,4.692,70.0
64.096,0.881,4.313,104.0
54.988,0.755,3.372,51.0
54.952,0.755,3.049,111.0
55.007,0.756,2.731,113.0
64.36,0.896,4.961,25.0
64.145,0.892,4.568,72.0
64.063,0.891,4.187,80.0
54.968,0.764,3.265,118.0
54.963,0.764,2.944,120.0
55.0,0.764,2.625,92.0
64.172,0.902,4.821,19.0
64.126,0.9,4.441,61.0
63.992,0.898,4.057,51.0
54.955,0.77,3.157,108.0
54.985,0.77,2.837,116.0
54.999,0.77,2.518,97.0
64.146,0.908,4.693,10.0
64.102,0.906,4.314,79.0
63.904,0.902,3.927,20.0
54.94,0.775,3.048,121.0
54.99,0.774,2.73,117.0
55.017,0.774,2.411,109.0
91.297,1.298,6.5,25.0
64.044,0.909,4.183,72.0
54.977,0.779,3.269,115.0
54.954,0.778,2.941,121.0
55.002,0.777,2.622,78.0
55.039,0.776,2.302,99.0
64.126,0.913,4.437,25.0
63.963,0.909,4.051,52.0
54.952,0.779,3.158,106.0
54.971,0.778,2.832,117.0
55.007,0.777,2.512,106.0
55.061,0.777,2.193,77.0
64.1,0.912,4.306,69.0
63.88,0.906,3.917,17.0
54.943,0.778,3.047,119.0
54.986,0.777,2.722,110.0
55.009,0.775,2.402,110.0
55.069,0.774,2.083,68.0
64.052,0.908,4.174,75.0
54.975,0.777,3.26,114.0
54.959,0.774,2.937,120.0
54.979,0.773,2.611,82.0
55.039,0.772,2.293,105.0
55.089,0.77,1.973,63.0
63.976,0.901,4.04,45.0
54.962,0.771,3.148,106.0
54.984,0.769,2.827,116.0
54.988,0.767,2.501,100.0
55.05,0.766,2.183,92.0
55.059,0.763,1.862,61.0
54.995,0.767,3.361,78.0
54.942,0.764,3.036,124.0
55.0,0.762,2.718,115.0
54.999,0.759,2.39,114.0
55.054,0.757,2.071,88.0
55.052,0.755,1.75,54.0
54.983,0.758,3.248,120.0
54.975,0.754,2.926,122.0
55.0,0.752,2.605,117.0
55.024,0.749,2.279,116.0
55.049,0.747,1.959,83.0
55.089,0.744,1.639,20.0
54.97,0.746,3.136,108.0
54.992,0.743,2.815,130.0
54.994,0.74,2.493,112.0
55.025,0.737,2.168,108.0
55.035,0.734,1.847,90.0
55.104,0.732,1.528,20.0
54.964,0.733,3.024,113.0
55.005,0.73,2.704,125.0
54.997,0.726,2.382,101.0
55.028,0.723,2.056,100.0
55.038,0.719,1.735,82.0
55.091,0.717,1.415,19.0
55.007,0.717,2.913,112.0
54.994,0.714,2.591,128.0
55.002,0.71,2.268,104.0
55.017,0.706,1.942,107.0
55.039,0.703,1.622,75.0
55.093,0.7,1.302,23.0
55.024,0.7,2.8,127.0
54.99,0.695,2.476,114.0
55.006,0.692,2.156,115.0
55.002,0.687,1.829,115.0
55.037,0.684,1.508,83.0
55.074,0.68,1.188,55.0
55.018,0.68,2.686,128.0
54.988,0.675,2.363,86.0
55.013,0.671,2.043,122.0
54.998,0.666,1.715,117.0
55.03,0.663,1.396,80.0
55.074,0.659,1.075,57.0
55.012,0.658,2.573,124.0
54.996,0.653,2.251,87.0
55.017,0.649,1.93,124.0
55.009,0.644,1.603,78.0
55.051,0.639,1.282,13.0
48.173,0.555,0.841,49.0
55.005,0.634,2.46,124.0
54.999,0.629,2.138,120.0
55.008,0.624,1.816,112.0
48.189,0.542,1.305,58.0
48.163,0.537,1.023,58.0
48.112,0.532,0.741,83.0
55.026,0.607,2.347,112.0
55.022,0.602,2.025,67.0
48.2,0.523,1.493,46.0
48.15,0.518,1.205,70.0
48.131,0.513,0.924,93.0
48.109,0.508,0.643,96.0
55.044,0.579,2.235,16.0
48.184,0.502,1.675,66.0
48.163,0.497,1.393,89.0
48.122,0.492,1.106,99.0
48.108,0.487,0.825,92.0
48.087,0.482,0.544,96.0
48.182,0.48,1.858,85.0
48.169,0.475,1.576,82.0
48.126,0.47,1.294,97.0
48.097,0.464,1.008,103.0
48.082,0.459,0.727,106.0
48.063,0.454,0.447,88.0
48.146,0.452,1.76,106.0
48.128,0.446,1.478,95.0
48.115,0.441,1.197,103.0
48.088,0.435,0.911,108.0
48.072,0.43,0.63,103.0
48.047,0.425,0.35,101.0
48.126,0.422,1.662,96.0
48.119,0.416,1.38,116.0
48.104,0.411,1.099,110.0
48.079,0.405,0.814,110.0
48.058,0.399,0.533,103.0
48.038,0.393,0.253,93.0
48.135,0.39,1.565,123.0
48.116,0.384,1.283,115.0
48.11,0.378,1.003,113.0
48.064,0.372,0.717,110.0
48.071,0.366,0.436,97.0
48.045,0.36,0.156,79.0
48.12,0.356,1.468,114.0
48.118,0.35,1.187,112.0
48.103,0.344,0.907,102.0
48.092,0.338,0.621,79.0
48.11,0.332,0.34,48.0
47.747,0.323,0.06,47.0
48.126,0.321,1.37,109.0
48.129,0.315,1.09,98.0
48.123,0.308,0.809,70.0
48.164,0.302,0.524,48.0
48.184,0.295,0.244,52.0
44.915,0.269,-0.033,21.0
48.152,0.284,1.275,96.0
48.152,0.277,0.995,70.0
48.19,0.271,0.715,43.0
48.224,0.264,0.43,17.0
54.789,0.293,0.17,41.0
39.744,0.207,-0.108,23.0
48.217,0.245,1.182,38.0
59.293,0.293,1.108,28.0
59.297,0.285,0.763,138.0
59.316,0.276,0.412,82.0
47.726,0.216,0.054,29.0
38.749,0.169,-0.181,35.0
59.303,0.252,1.337,109.0
79.424,0.325,1.327,103.0
77.206,0.305,0.841,21.0
59.314,0.225,0.295,22.0
0.0,0.0,0.0,0.0
37.903,0.132,-0.252,12.0
79.466,0.268,1.636,151.0
79.469,0.256,1.174,151.0
79.47,0.243,0.711,76.0
54.654,0.159,0.166,29.0
40.166,0.11,-0.111,15.0
37.014,0.096,-0.318,0.0
79.458,0.195,1.482,155.0
79.471,0.183,1.02,151.0
76.349,0.164,0.537,23.0
47.751,0.095,0.053,22.0
38.971,0.071,-0.183,29.0
32.464,0.054,-0.341,1.0
79.458,0.121,1.33,157.0
79.459,0.108,0.868,151.0
61.716,0.073,0.315,12.0
0.0,0.0,0.0,0.0
38.302,0.033,-0.253,6.0
30.498,0.021,-0.379,1.0
79.459,0.043,1.18,151.0
79.417,0.03,0.717,113.0
0.0,0.0,0.0,0.0
40.559,0.001,-0.109,16.0
38.299,-0.004,-0.326,0.0
29.368,-0.008,-0.42,2.0
79.466,-0.036,1.03,153.0
76.367,-0.048,0.546,19.0
47.958,-0.038,0.063,8.0
39.384,-0.038,-0.18,15.0
32.457,-0.037,-0.337,1.0
28.249,-0.037,-0.457,2.0
79.472,-0.119,0.881,151.0
61.718,-0.103,0.326,9.0
45.218,-0.084,-0.024,20.0
38.753,-0.079,-0.25,5.0
30.638,-0.068,-0.375,1.0
27.006,-0.064,-0.488,2.0
79.424,-0.206,0.732,150.0
56.044,-0.155,0.192,29.0
41.5,-0.122,-0.099,18.0
36.513,-0.114,-0.303,1.0
29.518,-0.097,-0.416,2.0
26.087,-0.091,-0.519,1.0
76.728,-0.283,0.567,13.0
0.0,0.0,0.0,0.0
39.473,-0.16,-0.166,4.0
32.682,-0.139,-0.33,1.0
28.276,-0.125,-0.45,1.0
24.879,-0.115,-0.54,1.0
76.57,-0.37,0.427,6.0
46.688,-0.234,-0.01,21.0
39.592,-0.206,-0.238,4.0
30.767,-0.166,-0.367,1.0
27.114,-0.152,-0.48,2.0
23.982,-0.139,-0.564,2.0
56.124,-0.337,0.212,10.0
42.134,-0.261,-0.084,4.0
39.584,-0.253,-0.309,2.0
29.624,-0.195,-0.406,2.0
26.234,-0.178,-0.512,2.0
23.187,-0.162,-0.587,2.0
53.035,-0.383,0.106,9.0
44.134,-0.327,-0.167,4.0
33.132,-0.252,-0.317,1.0
28.593,-0.224,-0.443,2.0
25.144,-0.202,-0.535,1.0
22.35,-0.184,-0.606,1.0
49.851,-0.422,0.011,4.0
42.215,-0.366,-0.234,7.0
31.345,-0.278,-0.355,1.0
27.523,-0.25,-0.474,2.0
24.222,-0.225,-0.558,1.0
21.492,-0.204,-0.619,1.0
50.87,-0.494,-0.074,22.0
38.439,-0.381,-0.279,12.0
29.958,-0.303,-0.391,2.0
26.433,-0.273,-0.501,1.0
23.396,-0.247,-0.579,2.0
20.783,-0.224,-0.634,1.0
47.25,-0.52,-0.149,2.0
33.735,-0.378,-0.301,1.0
29.038,-0.332,-0.428,2.0
25.514,-0.297,-0.526,1.0
22.618,-0.268,-0.597,1.0
20.112,-0.242,-0.647,1.0
42.334,-0.52,-0.203,3.0
32.121,-0.402,-0.34,2.0
27.932,-0.355,-0.457,2.0
24.619,-0.319,-0.548,1.0
21.839,-0.287,-0.612,1.0
19.573,-0.262,-0.662,1.0
38.639,-0.526,-0.248,1.0
30.504,-0.422,-0.372,1.0
26.97,-0.379,-0.485,1.0
23.753,-0.339,-0.567,2.0
21.157,-0.307,-0.628,1.0
19.036,-0.281,-0.675,2.0
35.71,-0.535,-0.287,1.0
29.491,-0.448,-0.407,1.0
26.034,-0.402,-0.51,1.0
23.058,-0.361,-0.587,2.0
20.439,-0.325,-0.639,1.0
18.485,-0.298,-0.685,1.0
33.189,-0.543,-0.319,1.0
28.602,-0.475,-0.44,1.0
25.174,-0.424,-0.533,1.0
22.226,-0.379,-0.601,1.0
19.862,-0.344,-0.652,1.0
18.02,-0.316,-0.696,1.0
31.43,-0.559,-0.351,1.0
27.526,-0.496,-0.466,1.0
24.32,-0.444,-0.552,1.0
21.55,-0.398,-0.616,1.0
19.371,-0.363,-0.666,1.0
17.617,-0.334,-0.707,1.0
30.065,-0.578,-0.381,1.0
26.649,-0.518,-0.492,1.0
23.549,-0.464,-0.57,1.0
20.876,-0.416,-0.628,1.0
18.864,-0.381,-0.677,1.0
17.172,-0.351,-0.715,1.0
29.258,-0.605,-0.415,1.0
25.785,-0.539,-0.514,1.0
22.694,-0.48,-0.583,4.0
20.27,-0.434,-0.64,1.0
18.375,-0.398,-0.686,1.0
16.789,-0.368,-0.724,1.0
28.242,-0.625,-0.441,1.0
25.12,-0.562,-0.537,1.0
22.18,-0.502,-0.602,1.0
19.783,-0.453,-0.653,1.0
17.951,-0.415,-0.696,1.0
16.396,-0.384,-0.731,1.0
27.333,-0.646,-0.466,5.0
24.198,-0.578,-0.552,1.0
21.498,-0.519,-0.614,1.0
19.313,-0.471,-0.665,1.0
17.581,-0.434,-0.707,1.0
16.006,-0.399,-0.736,1.0
26.714,-0.672,-0.493,2.0
23.497,-0.597,-0.569,1.0
20.823,-0.535,-0.624,4.0
18.805,-0.488,-0.674,1.0
17.189,-0.45,-0.715,1.0
15.68,-0.415,-0.743,1.0
25.807,-0.689,-0.511,1.0
22.939,-0.618,-0.587,1.0
20.56,-0.56,-0.644,3.0
18.406,-0.506,-0.684,1.0
16.794,-0.466,-0.721,0.0
15.402,-0.431,-0.75,1.0
25.088,-0.709,-0.53,2.0
22.238,-0.634,-0.598,1.0
19.931,-0.573,-0.65,1.0
18.02,-0.523,-0.694,1.0
16.432,-0.482,-0.727,1.0
15.133,-0.448,-0.757,1.0
24.478,-0.73,-0.549,1.0
21.686,-0.652,-0.611,1.0
19.488,-0.591,-0.661,1.0
17.668,-0.541,-0.703,1.0
16.114,-0.498,-0.734,1.0
14.867,-0.464,-0.763,1.0
23.695,-0.744,-0.562,2.0
21.149,-0.67,-0.623,1.0
19.034,-0.608,-0.67,1.0
17.314,-0.558,-0.71,1.0
15.832,-0.515,-0.741,1.0
14.619,-0.479,-0.768,1.0
23.224,-0.767,-0.579,2.0
20.579,-0.685,-0.631,1.0
18.647,-0.626,-0.679,1.0
17.021,-0.576,-0.719,1.0
15.54,-0.53,-0.746,1.0
14.364,-0.494,-0.772,1.0
22.616,-0.784,-0.591,1.0
20.173,-0.705,-0.642,1.0
18.275,-0.643,-0.687,1.0
16.686,-0.592,-0.724,1.0
15.311,-0.548,-0.753,1.0
14.14,-0.51,-0.777,1.0
22.099,-0.802,-0.603,1.0
19.765,-0.723,-0.652,1.0
17.949,-0.661,-0.695,1.0
16.366,-0.608,-0.729,1.0
15.064,-0.564,-0.758,1.0
13.956,-0.526,-0.782,1.0
21.591,-0.819,-0.613,1.0
19.379,-0.741,-0.661,1.0
17.654,-0.68,-0.703,1.0
16.07,-0.623,-0.734,1.0
14.844,-0.58,-0.763,1.0
13.753,-0.541,-0.786,1.0
21.115,-0.836,-0.622,1.0
18.999,-0.757,-0.668,1.0
17.362,-0.697,-0.71,1.0
15.828,-0.64,-0.74,1.0
14.609,-0.595,-0.766,1.0
13.594,-0.558,-0.791,1.0
20.712,-0.854,-0.632,1.0
18.67,-0.776,-0.676,2.0
17.099,-0.715,-0.717,1.0
15.614,-0.658,-0.746,1.0
14.409,-0.611,-0.77,1.0
13.421,-0.574,-0.795,1.0
20.304,-0.872,-0.639,1.0
18.381,-0.795,-0.684,1.0
16.778,-0.73,-0.72,1.0
15.403,-0.675,-0.751,1.0
14.23,-0.628,-0.775,1.0
13.289,-0.59,-0.8,1.0
19.939,-0.89,-0.647,1.0
18.101,-0.813,-0.691,1.0
16.52,-0.747,-0.725,1.0
15.189,-0.691,-0.755,1.0
14.045,-0.644,-0.778,1.0
13.135,-0.606,-0.803,0.0
19.608,-0.908,-0.654,1.0
17.842,-0.832,-0.697,1.0
16.292,-0.764,-0.73,1.0
14.996,-0.708,-0.759,1.0
13.885,-0.66,-0.782,1.0
12.981,-0.621,-0.805,0.0
19.327,-0.928,-0.662,1.0
17.607,-0.851,-0.703,1.0
16.042,-0.78,-0.732,1.0
14.8,-0.724,-0.762,1.0
13.738,-0.677,-0.785,1.0
12.865,-0.638,-0.809,0.0
19.026,-0.946,-0.668,1.0
17.366,-0.869,-0.708,1.0
15.896,-0.8,-0.739,1.0
14.632,-0.741,-0.765,1.0
13.617,-0.694,-0.789,1.0
12.73,-0.653,-0.811,1.0
18.754,-0.965,-0.673,1.0
17.147,-0.887,-0.713,1.0
15.718,-0.818,-0.743,1.0
14.512,-0.76,-0.77,1.0
13.498,-0.711,-0.793,1.0
12.624,-0.669,-0.814,1.0
18.55,-0.986,-0.68,2.0
16.94,-0.905,-0.717,1.0
15.528,-0.835,-0.746,1.0
14.351,-0.776,-0.772,1.0
13.38,-0.728,-0.796,1.0
12.513,-0.684,-0.816,1.0
18.329,-1.005,-0.685,1.0
16.749,-0.924,-0.721,1.0
15.393,-0.854,-0.75,1.0
14.196,-0.792,-0.774,1.0
13.275,-0.745,-0.799,0.0
12.435,-0.702,-0.819,0.0
18.11,-1.025,-0.689,1.0
16.563,-0.942,-0.724,1.0
15.234,-0.871,-0.752,1.0
14.052,-0.808,-0.775,1.0
13.163,-0.761,-0.801,0.0
12.316,-0.716,-0.82,0.0
17.932,-1.046,-0.694,1.0
16.383,-0.96,-0.727,1.0
15.089,-0.889,-0.755,1.0
13.96,-0.827,-0.779,1.0
13.061,-0.778,-0.803,0.0
12.244,-0.734,-0.822,0.0
17.769,-1.067,-0.698,1.0
16.239,-0.98,-0.73,1.0
14.984,-0.909,-0.758,1.0
13.871,-0.846,-0.782,1.0
12.977,-0.796,-0.805,0.0
12.156,-0.749,-0.824,0.0
17.657,-1.09,-0.704,2.0
16.076,-0.998,-0.732,1.0
14.846,-0.926,-0.76,1.0
13.765,-0.863,-0.784,1.0
12.884,-0.812,-0.806,0.0
12.087,-0.766,-0.825,0.0
17.297,-1.098,-0.698,1.0
15.979,-1.019,-0.735,1.0
14.744,-0.945,-0.762,1.0
13.676,-0.881,-0.785,1.0
12.812,-0.83,-0.808,1.0
12.024,-0.783,-0.827,0.0
17.231,-1.123,-0.704,0.0
15.929,-1.043,-0.74,2.0
14.655,-0.964,-0.764,1.0
13.607,-0.9,-0.788,1.0
12.753,-0.848,-0.81,1.0
11.992,-0.801,-0.83,1.0
17.062,-1.141,-0.704,1.0
15.813,-1.063,-0.742,4.0
14.566,-0.984,-0.766,1.0
13.558,-0.92,-0.79,1.0
12.669,-0.864,-0.81,0.0
11.948,-0.819,-0.832,0.0
16.97,-1.164,-0.707,1.0
15.788,-1.088,-0.747,2.0
14.521,-1.005,-0.769,1.0
13.514,-0.94,-0.793,1.0
12.612,-0.882,-0.811,1.0
11.866,-0.833,-0.83,0.0
16.875,-1.186,-0.709,1.0
15.679,-1.107,-0.747,1.0
14.428,-1.024,-0.769,1.0
13.456,-0.959,-0.794,1.0
12.571,-0.9,-0.813,1.0
11.814,-0.85,-0.83,0.0
16.824,-1.211,-0.712,1.0
15.597,-1.128,-0.748,1.0
14.306,-1.039,-0.766,0.0
13.398,-0.977,-0.795,1.0
12.543,-0.919,-0.814,1.0
11.795,-0.868,-0.832,0.0
16.65,-1.226,-0.709,0.0
15.514,-1.148,-0.748,1.0
14.328,-1.065,-0.771,0.0
13.347,-0.996,-0.795,2.0
12.496,-0.937,-0.814,0.0
11.773,-0.886,-0.833,0.0
16.465,-1.24,-0.705,0.0
15.415,-1.166,-0.747,1.0
14.263,-1.083,-0.771,0.0
13.298,-1.014,-0.795,1.0
12.488,-0.957,-0.816,1.0
11.739,-0.903,-0.834,0.0
16.446,-1.266,-0.708,0.0
15.358,-1.187,-0.747,1.0
14.228,-1.104,-0.771,1.0
13.298,-1.037,-0.797,0.0
12.447,-0.974,-0.816,1.0
11.72,-0.921,-0.834,0.0
16.404,-1.29,-0.708,0.0
15.178,-1.198,-0.74,0.0
14.117,-1.119,-0.767,2.0
13.258,-1.055,-0.796,0.0
12.379,-0.989,-0.813,1.0
11.717,-0.94,-0.835,0.0
16.363,-1.313,-0.708,1.0
15.51,-1.249,-0.758,0.0
14.114,-1.141,-0.768,1.0
13.254,-1.076,-0.797,0.0
12.384,-1.01,-0.814,0.0
11.697,-0.957,-0.834,1.0
16.334,-1.337,-0.708,1.0
15.392,-1.265,-0.753,0.0
14.07,-1.16,-0.766,0.0
13.251,-1.097,-0.797,1.0
12.377,-1.029,-0.814,0.0
11.681,-0.975,-0.834,1.0
16.331,-1.362,-0.708,1.0
15.421,-1.291,-0.754,0.0
13.999,-1.177,-0.763,0.0
13.245,-1.118,-0.797,1.0
12.383,-1.049,-0.814,0.0
11.685,-0.993,-0.834,0.0
16.336,-1.389,-0.708,5.0
15.368,-1.311,-0.751,0.0
14.175,-1.214,-0.772,0.0
13.244,-1.138,-0.796,1.0
12.393,-1.069,-0.814,0.0
11.702,-1.013,-0.834,0.0
16.328,-1.413,-0.706,9.0
15.412,-1.339,-0.752,0.0
14.156,-1.234,-0.77,0.0
13.194,-1.155,-0.792,0.0
12.422,-1.091,-0.815,0.0
11.691,-1.03,-0.833,0.0
16.325,-1.438,-0.705,9.0
15.417,-1.363,-0.751,0.0
14.265,-1.266,-0.774,0.0
13.35,-1.188,-0.8,0.0
12.437,-1.111,-0.815,0.0
11.727,-1.051,-0.834,0.0
16.347,-1.465,-0.704,10.0
15.431,-1.388,-0.75,0.0
14.311,-1.291,-0.775,0.0
13.347,-1.208,-0.798,0.0
12.407,-1.127,-0.811,0.0
11.739,-1.07,-0.832,0.0
16.367,-1.492,-0.701,11.0
15.485,-1.416,-0.749,0.0
14.341,-1.316,-0.774,1.0
13.383,-1.232,-0.797,0.0
12.405,-1.146,-0.808,0.0
11.782,-1.092,-0.833,0.0
16.384,-1.517,-0.699,13.0
15.546,-1.444,-0.749,0.0
14.415,-1.344,-0.774,1.0
13.421,-1.255,-0.797,0.0
12.568,-1.179,-0.816,0.0
11.793,-1.11,-0.831,1.0
16.373,-1.54,-0.694,8.0
15.613,-1.473,-0.748,1.0
14.444,-1.367,-0.772,1.0
13.451,-1.277,-0.795,0.0
12.612,-1.201,-0.815,0.0
11.796,-1.127,-0.828,0.0
16.382,-1.564,-0.69,7.0
15.672,-1.501,-0.746,0.0
14.459,-1.389,-0.769,0.0
13.488,-1.3,-0.793,0.0
12.647,-1.223,-0.813,0.0
11.894,-1.153,-0.831,0.0
16.405,-1.589,-0.686,6.0
15.747,-1.53,-0.745,1.0
14.536,-1.417,-0.768,0.0
13.551,-1.325,-0.792,0.0
12.698,-1.245,-0.812,0.0
11.97,-1.177,-0.832,0.0
16.472,-1.619,-0.683,4.0
15.862,-1.563,-0.745,1.0
14.621,-1.445,-0.767,1.0
13.616,-1.35,-0.791,0.0
12.761,-1.269,-0.811,0.0
12.003,-1.197,-0.829,0.0
16.628,-1.657,-0.682,1.0
15.956,-1.594,-0.742,1.0
14.699,-1.473,-0.765,0.0
13.695,-1.376,-0.789,1.0
12.823,-1.292,-0.81,0.0
12.052,-1.218,-0.828,0.0
17.435,-1.76,-0.708,0.0
16.083,-1.628,-0.741,1.0
14.784,-1.501,-0.763,0.0
13.768,-1.401,-0.787,1.0
12.893,-1.316,-0.808,0.0
12.126,-1.241,-0.827,0.0
17.65,-1.805,-0.708,0.0
16.186,-1.659,-0.738,1.0
14.875,-1.529,-0.76,1.0
13.854,-1.428,-0.786,1.0
12.955,-1.339,-0.806,0.0
12.192,-1.263,-0.826,0.0
17.761,-1.839,-0.704,0.0
16.24,-1.685,-0.733,2.0
15.001,-1.561,-0.759,0.0
13.922,-1.452,-0.782,0.0
13.056,-1.365,-0.805,0.0
12.234,-1.283,-0.822,0.0
17.871,-1.872,-0.699,0.0
16.269,-1.708,-0.725,2.0
15.146,-1.594,-0.758,0.0
14.016,-1.479,-0.78,0.0
13.127,-1.389,-0.802,0.0
12.306,-1.305,-0.82,0.0
18.051,-1.913,-0.696,0.0
16.291,-1.73,-0.717,1.0
15.276,-1.626,-0.756,0.0
14.135,-1.508,-0.778,0.0
13.228,-1.415,-0.801,0.0
12.409,-1.331,-0.819,0.0
18.231,-1.953,-0.692,0.0
16.331,-1.754,-0.709,1.0
15.381,-1.655,-0.752,0.0
14.258,-1.538,-0.776,0.0
13.342,-1.443,-0.799,0.0
12.51,-1.356,-0.818,0.0
18.471,-2.0,-0.689,0.0
16.38,-1.777,-0.7,1.0
15.563,-1.693,-0.751,0.0
14.4,-1.57,-0.775,0.0
13.451,-1.469,-0.797,0.0
12.604,-1.38,-0.816,0.0
18.671,-2.042,-0.684,1.0
16.44,-1.802,-0.692,0.0
15.738,-1.729,-0.748,0.0
14.547,-1.601,-0.773,0.0
13.543,-1.494,-0.793,0.0
12.7,-1.404,-0.813,0.0
18.912,-2.089,-0.68,1.0
16.973,-1.879,-0.703,0.0
15.911,-1.765,-0.745,1.0
14.672,-1.631,-0.769,1.0
13.691,-1.525,-0.792,0.0
12.813,-1.43,-0.811,0.0
19.381,-2.161,-0.683,2.0
17.472,-1.952,-0.711,0.0
16.12,-1.804,-0.743,1.0
14.829,-1.663,-0.766,0.0
13.804,-1.551,-0.789,0.0
12.952,-1.459,-0.811,1.0
19.631,-2.208,-0.677,5.0
17.72,-1.997,-0.708,1.0
16.238,-1.834,-0.737,3.0
14.999,-1.697,-0.763,0.0
13.936,-1.58,-0.785,0.0
13.032,-1.48,-0.805,1.0
19.781,-2.244,-0.667,9.0
17.915,-2.036,-0.701,0.0
16.269,-1.853,-0.725,2.0
15.193,-1.733,-0.761,1.0
14.09,-1.61,-0.783,0.0
13.141,-1.505,-0.801,0.0
20.079,-2.297,-0.661,13.0
18.163,-2.081,-0.696,0.0
16.305,-1.871,-0.714,1.0
15.352,-1.765,-0.757,1.0
14.253,-1.642,-0.78,0.0
13.317,-1.537,-0.801,0.0
20.299,-2.34,-0.651,19.0
18.475,-2.133,-0.693,0.0
16.368,-1.893,-0.702,3.0
15.568,-1.804,-0.754,1.0
14.419,-1.673,-0.777,0.0
13.489,-1.568,-0.8,0.0
20.606,-2.393,-0.643,14.0
18.895,-2.198,-0.692,1.0
16.438,-1.915,-0.691,3.0
15.83,-1.847,-0.753,1.0
14.593,-1.706,-0.773,0.0
13.618,-1.594,-0.796,0.0
21.023,-2.459,-0.638,16.0
19.24,-2.254,-0.688,4.0
16.919,-1.985,-0.696,1.0
16.064,-1.887,-0.75,1.0
14.746,-1.735,-0.768,0.0
13.762,-1.622,-0.792,0.0
21.385,-2.518,-0.63,20.0
19.425,-2.29,-0.677,11.0
17.665,-2.086,-0.711,1.0
16.225,-1.918,-0.742,4.0
14.96,-1.771,-0.765,1.0
13.932,-1.652,-0.788,1.0
21.775,-2.58,-0.621,25.0
19.701,-2.337,-0.668,15.0
17.928,-2.129,-0.705,0.0
16.264,-1.935,-0.729,7.0
15.187,-1.809,-0.763,1.0
14.095,-1.681,-0.784,0.0
22.09,-2.632,-0.609,17.0
20.03,-2.39,-0.66,15.0
18.218,-2.176,-0.699,0.0
16.307,-1.95,-0.715,6.0
15.409,-1.845,-0.759,1.0
14.32,-1.717,-0.783,0.0
22.778,-2.729,-0.606,15.0
20.417,-2.449,-0.653,13.0
18.701,-2.246,-0.699,1.0
16.369,-1.968,-0.702,5.0
15.656,-1.885,-0.756,1.0
14.509,-1.749,-0.779,0.0
23.074,-2.778,-0.591,20.0
20.83,-2.511,-0.646,15.0
19.046,-2.298,-0.693,4.0
16.548,-1.999,-0.693,2.0
15.899,-1.923,-0.752,1.0
14.673,-1.777,-0.773,1.0
23.387,-2.829,-0.576,5.0
21.185,-2.565,-0.636,19.0
19.284,-2.338,-0.682,11.0
17.42,-2.114,-0.712,1.0
16.209,-1.969,-0.75,2.0
14.862,-1.807,-0.768,1.0
24.248,-2.946,-0.572,1.0
21.475,-2.612,-0.622,10.0
19.569,-2.382,-0.672,17.0
17.826,-2.172,-0.71,1.0
16.268,-1.984,-0.735,7.0
15.124,-1.846,-0.765,1.0
24.947,-3.043,-0.562,1.0
22.271,-2.719,-0.622,4.0
19.939,-2.436,-0.664,14.0
18.14,-2.218,-0.703,0.0
16.324,-1.998,-0.721,8.0
15.366,-1.883,-0.761,1.0
25.642,-3.139,-0.551,1.0
22.883,-2.803,-0.615,12.0
20.396,-2.501,-0.657,17.0
18.693,-2.294,-0.705,2.0
16.363,-2.009,-0.705,10.0
15.639,-1.922,-0.758,1.0
26.269,-3.226,-0.536,1.0
23.054,-2.833,-0.595,15.0
20.79,-2.557,-0.648,18.0
18.95,-2.332,-0.694,8.0
16.53,-2.036,-0.694,2.0
15.928,-1.963,-0.755,1.0
26.857,-3.308,-0.519,1.0
23.467,-2.892,-0.58,5.0
21.094,-2.601,-0.634,11.0
19.22,-2.371,-0.683,16.0
17.526,-2.164,-0.717,1.0
16.214,-2.003,-0.75,3.0
27.78,-3.43,-0.507,1.0
24.392,-3.013,-0.576,1.0
21.454,-2.651,-0.622,2.0
19.535,-2.415,-0.673,18.0
17.867,-2.21,-0.711,1.0
16.276,-2.015,-0.735,7.0
28.642,-3.543,-0.491,1.0
25.085,-3.104,-0.565,1.0
22.646,-2.804,-0.631,4.0
19.964,-2.473,-0.665,16.0
18.257,-2.263,-0.706,1.0
16.336,-2.026,-0.72,9.0
29.507,-3.657,-0.473,1.0
25.83,-3.202,-0.552,1.0
22.899,-2.839,-0.613,14.0
20.428,-2.534,-0.658,19.0
18.742,-2.326,-0.704,3.0
16.383,-2.034,-0.703,8.0
30.325,-3.763,-0.452,0.0
26.427,-3.28,-0.535,1.0
23.14,-2.873,-0.592,10.0
20.772,-2.58,-0.645,17.0
19.01,-2.362,-0.693,11.0
16.678,-2.073,-0.697,2.0
31.965,-3.97,-0.44,1.0
27.158,-3.374,-0.519,1.0
23.534,-2.924,-0.576,2.0
21.104,-2.623,-0.631,4.0
19.313,-2.401,-0.681,18.0
17.672,-2.197,-0.718,1.0
33.094,-4.113,-0.418,1.0
28.08,-3.49,-0.504,1.0
24.689,-3.069,-0.576,1.0
22.054,-2.742,-0.635,1.0
19.687,-2.448,-0.672,16.0
17.992,-2.238,-0.71,1.0
35.876,-4.46,-0.412,3.0
28.904,-3.593,-0.486,1.0
25.39,-3.156,-0.563,1.0
22.732,-2.826,-0.628,5.0
20.191,-2.51,-0.666,18.0
18.534,-2.305,-0.71,2.0
36.017,-4.476,-0.372,4.0
29.823,-3.706,-0.467,1.0
26.033,-3.235,-0.547,1.0
22.948,-2.852,-0.607,15.0
20.581,-2.558,-0.655,19.0
18.872,-2.345,-0.701,7.0
0.0,0.0,0.0,0.0
31.506,-3.913,-0.457,1.0
26.694,-3.315,-0.53,1.0
23.262,-2.888,-0.588,5.0
20.924,-2.598,-0.641,11.0
19.161,-2.379,-0.69,14.0
39.575,-4.912,-0.317,0.0
32.538,-4.037,-0.434,1.0
27.651,-3.43,-0.517,0.0
24.163,-2.997,-0.583,1.0
21.29,-2.64,-0.628,2.0
19.486,-2.416,-0.679,18.0
45.373,-5.624,-0.31,1.0
35.916,-4.45,-0.437,0.0
28.434,-3.522,-0.498,1.0
24.932,-3.087,-0.573,1.0
22.573,-2.795,-0.639,4.0
19.919,-2.465,-0.67,16.0
45.305,-5.606,-0.257,4.0
35.95,-4.447,-0.396,2.0
29.492,-3.646,-0.482,1.0
25.559,-3.159,-0.557,1.0
22.844,-2.823,-0.62,13.0
20.398,-2.52,-0.663,18.0
45.382,-5.604,-0.204,2.0
36.812,-4.543,-0.362,0.0
30.464,-3.758,-0.462,1.0
26.244,-3.236,-0.541,1.0
23.061,-2.843,-0.599,14.0
20.811,-2.564,-0.652,19.0
50.346,-6.202,-0.168,1.0
39.181,-4.824,-0.34,1.0
31.876,-3.922,-0.447,1.0
27.021,-3.323,-0.526,1.0
23.58,-2.899,-0.585,5.0
21.184,-2.603,-0.639,14.0
50.515,-6.206,-0.11,0.0
41.467,-5.091,-0.312,0.0
32.975,-4.045,-0.424,1.0
27.869,-3.417,-0.51,1.0
24.607,-3.015,-0.582,1.0
21.558,-2.64,-0.625,4.0
0.0,0.0,0.0,0.0
44.229,-5.412,-0.282,0.0
37.098,-4.536,-0.434,0.0
28.831,-3.523,-0.495,1.0
25.241,-3.082,-0.568,1.0
22.746,-2.776,-0.633,4.0
0.0,0.0,0.0,0.0
0.0,0.0,0.0,0.0
37.047,-4.513,-0.391,2.0
29.77,-3.624,-0.476,1.0
25.969,-3.159,-0.554,1.0
22.998,-2.795,-0.614,14.0
0.0,0.0,0.0,0.0
50.275,-6.104,-0.204,0.0
37.737,-4.578,-0.355,1.0
31.089,-3.768,-0.462,1.0
26.625,-3.224,-0.538,1.0
23.214,-2.809,-0.593,12.0
0.0,0.0,0.0,0.0
50.364,-6.088,-0.147,1.0
39.396,-4.758,-0.326,0.0
32.282,-3.895,-0.443,1.0
27.42,-3.305,-0.523,0.0
23.759,-2.861,-0.58,2.0
0.0,0.0,0.0,0.0
0.0,0.0,0.0,0.0
41.403,-4.975,-0.296,0.0
33.261,-3.993,-0.419,1.0
28.358,-3.401,-0.509,1.0
24.848,-2.977,-0.579,1.0
0.0,0.0,0.0,0.0
0.0,0.0,0.0,0.0
44.346,-5.301,-0.267,0.0
35.348,-4.221,-0.406,1.0
29.143,-3.476,-0.49,1.0
25.401,-3.026,-0.563,1.0
96.78,-11.532,0.558,5.0
0.0,0.0,0.0,0.0
50.322,-5.981,-0.247,0.0
36.426,-4.324,-0.378,4.0
29.859,-3.541,-0.469,1.0
26.138,-3.096,-0.551,1.0
87.326,-10.343,0.6,11.0
0.0,0.0,0.0,0.0
50.374,-5.95,-0.193,5.0
38.506,-4.543,-0.357,1.0
31.135,-3.668,-0.455,1.0
26.821,-3.156,-0.536,1.0
87.081,-10.248,0.694,9.0
0.0,0.0,0.0,0.0
50.421,-5.917,-0.137,5.0
39.425,-4.62,-0.322,0.0
