X,Y,Z,Reflectivity
6.939,0.221,-0.927,0.0
8.565,0.27,-0.902,0.0
8.177,0.257,-0.909,0.0
7.874,0.246,-0.92,0.0
7.516,0.234,-0.923,0.0
7.261,0.225,-0.933,0.0
6.924,0.214,-0.93,0.0
8.502,0.26,-0.902,0.0
8.14,0.248,-0.911,0.0
7.827,0.237,-0.921,0.0
7.514,0.227,-0.928,0.0
7.217,0.217,-0.933,0.0
6.916,0.207,-0.934,0.0
8.445,0.25,-0.903,0.0
8.111,0.239,-0.913,0.0
7.789,0.229,-0.922,0.0
7.465,0.218,-0.927,0.0
7.186,0.209,-0.934,0.0
6.922,0.201,-0.94,0.0
8.299,0.238,-0.893,0.0
8.055,0.23,-0.912,0.0
7.733,0.22,-0.92,0.0
7.445,0.211,-0.93,0.0
7.171,0.202,-0.937,0.0
6.869,0.192,-0.937,0.0
8.237,0.228,-0.891,1.0
8.022,0.221,-0.914,0.0
7.739,0.212,-0.926,0.0
7.375,0.201,-0.926,0.0
7.113,0.193,-0.934,0.0
6.867,0.185,-0.941,0.0
8.227,0.22,-0.895,1.0
8.002,0.212,-0.916,0.0
7.665,0.202,-0.922,0.0
7.359,0.193,-0.928,0.0
7.094,0.185,-0.935,0.0
6.828,0.177,-0.94,0.0
8.208,0.211,-0.898,2.0
7.972,0.203,-0.917,0.0
7.611,0.193,-0.919,0.0
7.323,0.185,-0.928,0.0
7.07,0.177,-0.936,0.0
6.802,0.17,-0.94,0.0
8.207,0.202,-0.902,1.0
7.942,0.194,-0.918,0.0
7.617,0.185,-0.924,0.0
7.302,0.177,-0.929,0.0
7.07,0.17,-0.94,0.0
6.793,0.162,-0.942,0.0
8.208,0.194,-0.906,0.0
7.905,0.185,-0.917,0.0
7.58,0.176,-0.923,0.0
7.309,0.169,-0.933,0.0
7.015,0.161,-0.935,0.0
6.77,0.155,-0.942,0.0
8.189,0.184,-0.907,0.0
7.889,0.176,-0.919,0.0
7.564,0.168,-0.924,0.0
7.264,0.16,-0.93,0.0
7.019,0.154,-0.939,0.0
6.739,0.146,-0.94,0.0
8.163,0.175,-0.908,0.0
7.853,0.167,-0.918,0.0
7.555,0.159,-0.926,0.0
7.232,0.152,-0.929,0.0
7.003,0.146,-0.939,0.0
6.733,0.139,-0.942,0.0
8.146,0.166,-0.908,0.0
7.809,0.158,-0.915,0.0
7.516,0.15,-0.924,0.0
7.233,0.144,-0.931,0.0
6.97,0.137,-0.937,0.0
6.72,0.131,-0.942,0.0
8.124,0.156,-0.908,0.0
7.832,0.149,-0.92,0.0
7.508,0.142,-0.925,0.0
7.237,0.136,-0.933,0.0
6.947,0.129,-0.936,0.0
6.697,0.123,-0.941,0.0
8.1,0.147,-0.908,0.0
7.802,0.14,-0.919,0.0
7.504,0.134,-0.926,0.0
7.204,0.127,-0.931,0.0
6.942,0.121,-0.937,0.0
6.704,0.116,-0.943,0.0
8.095,0.138,-0.909,0.0
7.796,0.131,-0.919,0.0
7.459,0.124,-0.922,0.0
7.206,0.119,-0.932,0.0
6.944,0.113,-0.938,0.0
6.696,0.108,-0.943,0.0
8.087,0.129,-0.909,0.0
7.803,0.123,-0.921,0.0
7.486,0.116,-0.926,0.0
7.226,0.111,-0.936,0.0
6.949,0.106,-0.94,0.0
6.686,0.101,-0.942,0.0
8.082,0.12,-0.91,0.0
7.775,0.114,-0.919,0.0
7.437,0.107,-0.921,0.0
7.218,0.103,-0.936,0.0
6.933,0.097,-0.938,0.0
6.682,0.093,-0.942,0.0
8.082,0.11,-0.91,0.0
7.773,0.105,-0.919,0.0
7.45,0.099,-0.923,0.0
7.2,0.094,-0.934,0.0
6.945,0.09,-0.94,0.0
6.683,0.085,-0.943,0.0
8.082,0.101,-0.91,0.0
7.787,0.096,-0.921,0.0
7.477,0.091,-0.926,0.0
7.205,0.086,-0.934,0.0
6.959,0.082,-0.942,0.0
6.675,0.077,-0.941,0.0
8.089,0.092,-0.911,0.0
7.784,0.087,-0.92,0.0
7.456,0.082,-0.923,0.0
7.209,0.078,-0.934,0.0
6.934,0.074,-0.938,0.0
6.693,0.07,-0.943,0.0
8.103,0.083,-0.912,0.0
7.772,0.078,-0.918,0.0
7.481,0.074,-0.926,0.0
7.219,0.07,-0.935,0.0
6.95,0.066,-0.939,0.0
6.695,0.062,-0.943,0.0
8.109,0.074,-0.911,0.0
7.795,0.069,-0.92,0.0
7.483,0.065,-0.925,0.0
7.212,0.061,-0.933,0.0
6.963,0.058,-0.94,0.0
6.718,0.055,-0.945,0.0
8.097,0.064,-0.909,0.0
7.808,0.06,-0.92,0.0
7.513,0.057,-0.927,0.0
7.22,0.053,-0.933,0.0
6.978,0.05,-0.941,0.0
6.7,0.047,-0.941,0.0
8.117,0.055,-0.909,0.0
7.837,0.052,-0.922,0.0
7.526,0.048,-0.927,0.0
7.229,0.045,-0.932,0.0
7.016,0.042,-0.944,0.0
6.723,0.039,-0.943,0.0
8.145,0.046,-0.91,0.0
7.837,0.043,-0.92,0.0
7.535,0.04,-0.926,0.0
7.243,0.037,-0.932,0.0
7.001,0.034,-0.94,0.0
6.735,0.032,-0.942,0.0
8.17,0.037,-0.911,0.0
7.857,0.034,-0.92,0.0
7.539,0.031,-0.924,0.0
7.245,0.029,-0.93,0.0
7.021,0.026,-0.94,0.0
6.751,0.024,-0.942,0.0
8.167,0.028,-0.907,0.0
7.885,0.025,-0.92,0.0
7.553,0.023,-0.923,0.0
7.283,0.021,-0.932,0.0
7.046,0.019,-0.941,0.0
6.789,0.017,-0.945,0.0
8.197,0.019,-0.908,0.0
7.897,0.017,-0.918,0.0
7.59,0.014,-0.925,0.0
7.296,0.012,-0.931,0.0
7.042,0.011,-0.938,0.0
6.805,0.009,-0.944,0.0
8.218,0.01,-0.906,0.0
7.922,0.008,-0.918,0.0
7.644,0.006,-0.928,0.0
7.319,0.004,-0.93,0.0
7.053,0.003,-0.936,0.0
6.815,0.001,-0.942,0.0
8.259,0.001,-0.907,0.0
7.957,0.0,-0.918,0.0
7.652,-0.001,-0.925,0.0
7.35,-0.003,-0.93,0.0
7.085,-0.004,-0.936,0.0
6.854,-0.005,-0.944,0.0
8.281,-0.007,-0.905,0.0
7.964,-0.009,-0.914,0.0
7.669,-0.01,-0.923,0.0
7.368,-0.011,-0.928,0.0
7.121,-0.012,-0.937,0.0
6.866,-0.013,-0.942,0.0
8.321,-0.016,-0.904,0.0
8.001,-0.017,-0.914,0.0
7.714,-0.018,-0.924,0.0
7.41,-0.019,-0.929,0.0
7.14,-0.02,-0.935,0.0
6.897,-0.02,-0.942,0.0
8.353,-0.025,-0.903,0.0
8.042,-0.026,-0.913,0.0
7.737,-0.026,-0.921,0.0
7.429,-0.027,-0.927,0.0
7.192,-0.027,-0.937,0.0
6.942,-0.028,-0.943,0.0
8.391,-0.034,-0.901,0.0
8.089,-0.035,-0.913,0.0
7.795,-0.035,-0.923,0.0
7.495,-0.035,-0.93,0.0
7.196,-0.035,-0.933,0.0
6.976,-0.035,-0.943,0.0
8.45,-0.044,-0.902,0.0
8.134,-0.043,-0.912,0.0
7.82,-0.043,-0.92,0.0
7.509,-0.043,-0.926,0.0
7.249,-0.043,-0.934,0.0
7.004,-0.043,-0.941,0.0
8.489,-0.052,-0.899,0.0
8.172,-0.052,-0.911,0.0
7.855,-0.052,-0.918,0.0
7.56,-0.051,-0.926,0.0
7.282,-0.051,-0.932,0.0
7.042,-0.05,-0.941,0.0
8.532,-0.061,-0.897,0.0
8.205,-0.061,-0.908,0.0
7.907,-0.06,-0.918,0.0
7.613,-0.059,-0.927,0.0
7.329,-0.058,-0.932,0.0
7.076,-0.058,-0.939,0.0
8.592,-0.07,-0.896,0.0
8.264,-0.069,-0.907,0.0
7.958,-0.068,-0.917,0.0
7.657,-0.067,-0.925,0.0
7.36,-0.066,-0.93,0.0
7.115,-0.065,-0.938,0.0
8.648,-0.079,-0.895,0.0
8.306,-0.078,-0.904,0.0
7.987,-0.076,-0.913,0.0
7.7,-0.075,-0.924,0.0
7.414,-0.074,-0.93,0.0
7.157,-0.072,-0.937,0.0
8.717,-0.089,-0.894,0.0
8.373,-0.087,-0.904,0.0
8.05,-0.085,-0.913,0.0
7.75,-0.083,-0.922,0.0
7.465,-0.081,-0.929,0.0
7.2,-0.08,-0.936,0.0
8.799,-0.098,-0.894,0.0
8.434,-0.095,-0.902,0.0
8.115,-0.093,-0.912,0.0
7.811,-0.091,-0.922,0.0
7.528,-0.089,-0.93,0.0
7.24,-0.087,-0.934,0.0
8.885,-0.107,-0.893,0.0
8.517,-0.104,-0.903,0.0
8.175,-0.101,-0.911,0.0
7.866,-0.099,-0.92,0.0
7.577,-0.097,-0.928,0.0
7.313,-0.095,-0.935,0.0
8.963,-0.116,-0.892,0.0
8.575,-0.113,-0.9,0.0
8.227,-0.109,-0.908,0.0
7.926,-0.107,-0.919,0.0
7.629,-0.104,-0.926,0.0
7.368,-0.102,-0.934,0.0
9.042,-0.125,-0.89,0.0
8.645,-0.121,-0.898,0.0
8.311,-0.118,-0.908,0.0
7.991,-0.115,-0.917,0.0
7.69,-0.112,-0.925,0.0
7.409,-0.109,-0.931,0.0
9.131,-0.134,-0.889,0.0
8.719,-0.13,-0.896,0.0
8.372,-0.126,-0.905,0.0
8.043,-0.122,-0.914,0.0
7.762,-0.119,-0.924,0.0
7.471,-0.116,-0.93,0.0
9.242,-0.143,-0.889,0.0
8.807,-0.138,-0.894,0.0
8.451,-0.134,-0.904,0.0
8.124,-0.13,-0.914,0.0
7.82,-0.127,-0.922,0.0
7.551,-0.124,-0.931,0.0
9.322,-0.152,-0.885,0.0
8.902,-0.147,-0.893,0.0
8.519,-0.142,-0.901,0.0
8.177,-0.138,-0.91,0.0
7.886,-0.134,-0.92,0.0
7.608,-0.131,-0.929,0.0
9.437,-0.162,-0.885,0.0
9.008,-0.156,-0.893,0.0
8.617,-0.15,-0.901,0.0
8.249,-0.145,-0.907,0.0
7.968,-0.142,-0.92,0.0
7.68,-0.138,-0.928,0.0
9.535,-0.17,-0.882,0.0
9.09,-0.164,-0.89,0.0
8.698,-0.158,-0.898,0.0
8.357,-0.153,-0.908,0.0
8.036,-0.149,-0.917,0.0
7.723,-0.144,-0.923,0.0
9.657,-0.18,-0.881,0.0
9.226,-0.173,-0.891,0.0
8.796,-0.167,-0.896,0.0
8.414,-0.161,-0.904,0.0
8.105,-0.156,-0.914,0.0
7.832,-0.152,-0.925,0.0
9.772,-0.189,-0.878,2.0
9.318,-0.182,-0.887,0.0
8.903,-0.175,-0.895,0.0
8.519,-0.169,-0.903,0.0
8.193,-0.163,-0.913,0.0
7.891,-0.159,-0.921,0.0
9.851,-0.197,-0.871,2.0
9.437,-0.19,-0.885,0.0
8.985,-0.183,-0.891,0.0
8.61,-0.176,-0.901,0.0
8.288,-0.171,-0.912,0.0
7.96,-0.165,-0.918,0.0
9.975,-0.206,-0.869,1.0
9.542,-0.199,-0.882,0.0
9.117,-0.191,-0.891,0.0
8.711,-0.184,-0.899,0.0
8.357,-0.177,-0.907,0.0
8.056,-0.172,-0.918,0.0
10.132,-0.216,-0.868,0.0
9.703,-0.208,-0.883,0.0
9.245,-0.199,-0.89,0.0
8.829,-0.192,-0.898,0.0
8.45,-0.185,-0.905,0.0
8.132,-0.179,-0.914,0.0
10.308,-0.225,-0.868,0.0
9.786,-0.215,-0.876,2.0
9.358,-0.207,-0.887,0.0
8.949,-0.199,-0.897,0.0
8.56,-0.192,-0.904,0.0
8.21,-0.185,-0.911,0.0
10.438,-0.234,-0.863,0.0
9.897,-0.223,-0.871,1.0
9.483,-0.215,-0.885,0.0
9.054,-0.207,-0.894,0.0
8.673,-0.199,-0.903,0.0
8.33,-0.192,-0.911,0.0
10.605,-0.244,-0.861,0.0
10.058,-0.232,-0.87,0.0
9.616,-0.223,-0.883,0.0
9.19,-0.215,-0.893,0.0
8.773,-0.206,-0.899,0.0
8.422,-0.199,-0.908,0.0
10.783,-0.253,-0.858,0.0
10.251,-0.242,-0.87,0.0
9.766,-0.232,-0.881,1.0
9.318,-0.222,-0.891,0.0
8.9,-0.213,-0.898,0.0
8.528,-0.205,-0.906,0.0
10.94,-0.262,-0.854,0.0
10.399,-0.25,-0.866,0.0
9.847,-0.238,-0.873,1.0
9.427,-0.229,-0.886,0.0
9.028,-0.22,-0.897,0.0
8.622,-0.211,-0.902,0.0
11.126,-0.271,-0.85,0.0
10.57,-0.259,-0.864,0.0
9.985,-0.245,-0.868,0.0
9.584,-0.237,-0.885,0.0
9.148,-0.227,-0.893,0.0
8.748,-0.218,-0.901,0.0
11.302,-0.28,-0.845,0.0
10.721,-0.267,-0.858,0.0
10.191,-0.254,-0.87,0.0
9.742,-0.244,-0.884,1.0
9.277,-0.233,-0.891,0.0
8.884,-0.224,-0.9,0.0
11.511,-0.289,-0.842,0.0
10.923,-0.276,-0.856,0.0
10.385,-0.263,-0.869,0.0
9.824,-0.25,-0.875,2.0
9.431,-0.241,-0.89,0.0
9.015,-0.231,-0.898,0.0
11.709,-0.298,-0.837,1.0
11.108,-0.284,-0.852,0.0
10.539,-0.27,-0.864,0.0
9.977,-0.257,-0.871,0.0
9.568,-0.247,-0.886,0.0
9.16,-0.237,-0.897,0.0
11.917,-0.307,-0.831,0.0
11.312,-0.292,-0.848,0.0
10.729,-0.278,-0.861,0.0
10.202,-0.265,-0.873,0.0
9.75,-0.254,-0.886,1.0
9.277,-0.243,-0.892,0.0
12.163,-0.316,-0.827,0.0
11.515,-0.3,-0.843,0.0
10.922,-0.286,-0.857,0.0
10.371,-0.272,-0.87,0.0
9.825,-0.258,-0.876,2.0
9.425,-0.249,-0.89,0.0
12.406,-0.326,-0.822,0.0
11.72,-0.308,-0.838,0.0
11.12,-0.293,-0.853,0.0
10.574,-0.28,-0.868,0.0
9.994,-0.265,-0.873,0.0
9.574,-0.254,-0.887,0.0
12.666,-0.335,-0.817,1.0
11.933,-0.316,-0.832,1.0
11.324,-0.301,-0.849,0.0
10.726,-0.285,-0.861,0.0
10.2,-0.272,-0.873,0.0
9.75,-0.261,-0.885,1.0
12.924,-0.344,-0.811,1.0
12.201,-0.325,-0.829,0.0
11.533,-0.308,-0.844,0.0
10.924,-0.292,-0.858,0.0
10.405,-0.279,-0.871,0.0
9.841,-0.264,-0.876,2.0
13.211,-0.353,-0.805,1.0
12.433,-0.332,-0.822,0.0
11.73,-0.314,-0.837,0.0
11.137,-0.299,-0.854,0.0
10.573,-0.284,-0.866,0.0
10.031,-0.27,-0.874,0.0
13.473,-0.36,-0.796,1.0
12.704,-0.341,-0.817,1.0
11.972,-0.321,-0.832,0.0
11.354,-0.305,-0.85,0.0
10.766,-0.29,-0.862,0.0
10.245,-0.276,-0.874,0.0
13.794,-0.37,-0.79,1.0
12.967,-0.348,-0.81,1.0
12.235,-0.329,-0.828,0.0
11.576,-0.311,-0.845,0.0
10.969,-0.295,-0.858,0.0
10.443,-0.281,-0.871,0.0
14.103,-0.378,-0.781,1.0
13.283,-0.356,-0.805,1.0
12.496,-0.335,-0.822,0.0
11.793,-0.317,-0.839,0.0
11.193,-0.301,-0.855,0.0
10.63,-0.286,-0.867,0.0
14.494,-0.388,-0.776,1.0
13.552,-0.363,-0.796,1.0
12.771,-0.342,-0.816,1.0
12.02,-0.322,-0.832,0.0
11.415,-0.306,-0.85,0.0
10.815,-0.29,-0.862,0.0
14.875,-0.397,-0.768,1.0
13.881,-0.37,-0.789,1.0
13.054,-0.348,-0.81,1.0
12.309,-0.329,-0.829,0.0
11.625,-0.31,-0.843,0.0
11.026,-0.295,-0.857,0.0
15.269,-0.405,-0.76,1.0
14.206,-0.377,-0.781,1.0
13.368,-0.355,-0.804,1.0
12.581,-0.334,-0.823,1.0
11.869,-0.315,-0.838,0.0
11.255,-0.299,-0.854,0.0
15.673,-0.414,-0.75,1.0
14.626,-0.386,-0.775,1.0
13.67,-0.361,-0.796,0.0
12.868,-0.339,-0.817,1.0
12.136,-0.32,-0.834,0.0
11.508,-0.303,-0.85,0.0
16.122,-0.422,-0.74,1.0
14.993,-0.393,-0.766,1.0
14.006,-0.367,-0.788,1.0
13.167,-0.344,-0.811,1.0
12.38,-0.324,-0.827,0.0
11.709,-0.306,-0.843,0.0
16.643,-0.432,-0.732,1.0
15.398,-0.399,-0.757,1.0
14.343,-0.372,-0.78,1.0
13.425,-0.348,-0.801,1.0
12.658,-0.328,-0.821,0.0
11.951,-0.309,-0.837,0.0
17.214,-0.442,-0.724,1.0
15.823,-0.406,-0.748,1.0
14.751,-0.378,-0.773,1.0
13.753,-0.352,-0.794,0.0
12.97,-0.332,-0.816,0.0
12.23,-0.312,-0.833,0.0
17.754,-0.45,-0.713,1.0
16.306,-0.413,-0.739,0.0
15.16,-0.384,-0.765,1.0
14.097,-0.356,-0.786,1.0
13.282,-0.335,-0.81,0.0
12.496,-0.315,-0.827,0.0
18.301,-0.458,-0.699,1.0
16.838,-0.42,-0.73,0.0
15.547,-0.387,-0.754,1.0
14.48,-0.36,-0.779,1.0
13.572,-0.337,-0.801,1.0
12.792,-0.317,-0.821,0.0
18.873,-0.465,-0.684,1.0
17.38,-0.427,-0.72,1.0
16.009,-0.392,-0.746,1.0
14.876,-0.364,-0.772,1.0
13.888,-0.339,-0.792,1.0
13.09,-0.319,-0.815,1.0
19.546,-0.473,-0.67,1.0
17.908,-0.432,-0.707,1.0
16.538,-0.398,-0.738,0.0
15.286,-0.367,-0.763,1.0
14.23,-0.341,-0.784,1.0
13.393,-0.32,-0.807,1.0
20.273,-0.481,-0.656,1.0
18.489,-0.437,-0.694,1.0
17.024,-0.401,-0.727,1.0
15.704,-0.369,-0.753,1.0
14.62,-0.343,-0.777,1.0
13.702,-0.32,-0.799,1.0
21.021,-0.488,-0.639,1.0
19.166,-0.443,-0.682,1.0
17.594,-0.406,-0.717,1.0
16.165,-0.371,-0.744,1.0
15.052,-0.345,-0.77,1.0
14.02,-0.32,-0.79,1.0
21.893,-0.496,-0.623,1.0
19.823,-0.447,-0.666,1.0
18.152,-0.408,-0.704,1.0
16.722,-0.375,-0.737,1.0
15.44,-0.345,-0.76,1.0
14.372,-0.32,-0.782,1.0
22.737,-0.502,-0.603,2.0
20.515,-0.451,-0.65,1.0
18.74,-0.41,-0.69,1.0
17.268,-0.376,-0.727,1.0
15.906,-0.345,-0.752,1.0
14.809,-0.32,-0.777,1.0
23.686,-0.508,-0.581,1.0
21.406,-0.457,-0.636,1.0
19.464,-0.413,-0.679,1.0
17.801,-0.376,-0.714,1.0
16.438,-0.346,-0.745,1.0
15.214,-0.318,-0.768,1.0
24.832,-0.516,-0.561,1.0
22.327,-0.461,-0.62,4.0
20.124,-0.413,-0.662,1.0
18.348,-0.375,-0.701,1.0
16.778,-0.341,-0.727,2.0
15.62,-0.316,-0.758,1.0
25.879,-0.519,-0.534,1.0
23.137,-0.461,-0.597,2.0
20.861,-0.414,-0.646,1.0
18.975,-0.374,-0.688,1.0
17.466,-0.342,-0.723,1.0
16.079,-0.313,-0.749,1.0
26.862,-0.519,-0.503,1.0
24.092,-0.462,-0.575,1.0
21.717,-0.414,-0.631,1.0
19.667,-0.373,-0.675,1.0
17.985,-0.339,-0.71,1.0
16.599,-0.31,-0.741,1.0
28.119,-0.521,-0.472,1.0
25.192,-0.464,-0.553,1.0
22.597,-0.413,-0.613,1.0
20.319,-0.369,-0.658,1.0
18.553,-0.334,-0.697,1.0
17.124,-0.306,-0.732,1.0
29.362,-0.52,-0.437,1.0
26.223,-0.461,-0.525,1.0
23.504,-0.41,-0.592,1.0
21.117,-0.365,-0.643,1.0
19.226,-0.33,-0.685,1.0
17.668,-0.301,-0.721,1.0
30.547,-0.515,-0.395,1.0
27.25,-0.455,-0.494,1.0
24.544,-0.406,-0.571,1.0
21.966,-0.361,-0.627,1.0
19.876,-0.323,-0.67,1.0
18.197,-0.293,-0.708,1.0
32.503,-0.518,-0.358,1.0
28.582,-0.451,-0.463,1.0
25.553,-0.4,-0.546,1.0
22.906,-0.355,-0.61,1.0
20.598,-0.316,-0.655,1.0
18.783,-0.285,-0.695,1.0
35.053,-0.526,-0.32,1.0
29.7,-0.441,-0.425,1.0
26.596,-0.391,-0.518,1.0
23.76,-0.345,-0.588,2.0
21.432,-0.308,-0.641,1.0
19.392,-0.276,-0.681,2.0
42.771,-0.601,-0.31,0.0
31.09,-0.432,-0.386,1.0
27.759,-0.381,-0.488,2.0
24.791,-0.336,-0.567,1.0
22.241,-0.298,-0.624,1.0
20.038,-0.265,-0.666,2.0
42.78,-0.558,-0.23,3.0
33.013,-0.425,-0.349,1.0
28.935,-0.368,-0.455,2.0
25.716,-0.322,-0.54,1.0
23.125,-0.286,-0.606,2.0
20.798,-0.253,-0.653,1.0
47.218,-0.567,-0.167,1.0
36.194,-0.429,-0.316,1.0
30.014,-0.35,-0.417,2.0
26.786,-0.307,-0.514,1.0
23.959,-0.271,-0.584,1.0
21.61,-0.24,-0.639,1.0
53.452,-0.585,-0.091,8.0
38.551,-0.414,-0.265,7.0
31.28,-0.331,-0.378,2.0
28.125,-0.292,-0.488,2.0
25.051,-0.255,-0.564,1.0
22.454,-0.225,-0.623,2.0
55.148,-0.542,0.006,5.0
43.806,-0.422,-0.221,5.0
33.296,-0.314,-0.341,0.0
29.091,-0.269,-0.452,2.0
26.081,-0.236,-0.54,3.0
23.31,-0.207,-0.604,2.0
55.79,-0.484,0.107,0.0
47.413,-0.403,-0.154,6.0
40.165,-0.333,-0.339,0.0
30.177,-0.244,-0.415,1.0
26.998,-0.213,-0.511,3.0
24.151,-0.186,-0.583,2.0
61.426,-0.461,0.228,13.0
46.422,-0.339,-0.068,4.0
0.0,0.0,0.0,0.0
31.684,-0.218,-0.379,1.0
28.166,-0.189,-0.483,1.0
25.092,-0.163,-0.561,1.0
76.774,-0.484,0.421,12.0
50.392,-0.307,0.015,24.0
40.705,-0.239,-0.199,3.0
33.591,-0.191,-0.343,1.0
29.296,-0.16,-0.451,2.0
26.199,-0.137,-0.539,2.0
79.245,-0.4,0.575,41.0
0.0,0.0,0.0,0.0
42.054,-0.195,-0.132,6.0
37.268,-0.164,-0.315,1.0
30.215,-0.127,-0.413,2.0
27.075,-0.108,-0.511,1.0
79.462,-0.3,0.713,150.0
61.412,-0.219,0.231,11.0
0.0,0.0,0.0,0.0
39.034,-0.122,-0.263,6.0
32.038,-0.093,-0.383,2.0
28.193,-0.076,-0.484,1.0
79.46,-0.197,0.849,151.0
76.388,-0.172,0.418,14.0
47.95,-0.097,0.012,9.0
39.686,-0.072,-0.2,16.0
33.341,-0.053,-0.342,1.0
29.286,-0.04,-0.453,2.0
79.462,-0.091,0.983,151.0
79.238,-0.073,0.567,27.0
0.0,0.0,0.0,0.0
40.926,-0.019,-0.138,17.0
38.273,-0.009,-0.329,3.0
30.199,0.0,-0.417,2.0
79.464,0.016,1.115,151.0
79.453,0.035,0.7,150.0
59.156,0.039,0.211,19.0
0.0,0.0,0.0,0.0
38.486,0.043,-0.268,13.0
31.452,0.042,-0.384,1.0
79.462,0.127,1.245,155.0
79.473,0.145,0.829,151.0
75.921,0.156,0.395,12.0
47.384,0.109,-0.005,22.0
39.014,0.099,-0.209,38.0
33.241,0.092,-0.351,1.0
79.461,0.239,1.373,160.0
79.46,0.258,0.957,151.0
76.864,0.269,0.524,56.0
54.281,0.203,0.08,29.0
39.905,0.159,-0.149,27.0
37.681,0.159,-0.338,11.0
59.291,0.265,1.119,120.0
59.291,0.279,0.808,138.0
59.29,0.293,0.497,129.0
54.974,0.285,0.167,59.0
44.687,0.242,-0.098,19.0
37.889,0.215,-0.282,6.0
48.16,0.285,0.984,86.0
48.165,0.297,0.731,58.0
48.143,0.309,0.478,48.0
48.146,0.321,0.22,57.0
46.636,0.322,-0.031,30.0
38.357,0.274,-0.227,31.0
48.113,0.357,1.057,113.0
48.093,0.368,0.803,111.0
48.076,0.381,0.55,109.0
48.035,0.393,0.293,102.0
47.893,0.404,0.04,58.0
39.03,0.339,-0.172,44.0
48.123,0.431,1.13,109.0
48.106,0.443,0.876,107.0
48.085,0.454,0.622,109.0
48.051,0.466,0.364,96.0
48.007,0.478,0.111,73.0
43.8,0.448,-0.128,4.0
48.155,0.506,1.202,92.0
48.136,0.518,0.948,86.0
48.113,0.53,0.694,93.0
48.088,0.542,0.435,84.0
48.035,0.554,0.181,81.0
44.854,0.529,-0.066,20.0
55.032,0.664,1.453,103.0
55.077,0.679,1.163,63.0
48.243,0.607,0.764,12.0
89.954,1.156,0.942,3.0
48.104,0.63,0.25,46.0
47.357,0.634,-0.003,42.0
55.106,0.752,1.533,8.0
190.068,2.647,4.284,20.0
128.192,1.819,2.212,11.0
121.125,1.752,1.439,19.0
75.271,1.108,0.495,11.0
47.991,0.719,0.062,34.0
162.908,2.489,4.759,17.0
176.322,2.741,4.217,7.0
189.766,3.002,3.536,22.0
126.293,2.032,1.673,29.0
77.85,1.274,0.62,42.0
54.774,0.911,0.146,14.0
163.353,2.765,4.994,11.0
160.456,2.758,4.056,11.0
128.2,2.238,2.561,10.0
126.629,2.246,1.846,39.0
80.575,1.451,0.748,9.0
60.372,1.103,0.24,34.0
128.112,2.382,4.087,22.0
128.102,2.416,3.407,26.0
128.04,2.45,2.727,32.0
0.0,0.0,0.0,0.0
81.173,1.597,0.859,4.0
61.598,1.229,0.325,14.0
128.022,2.594,4.249,59.0
128.058,2.629,3.57,57.0
128.101,2.666,2.891,49.0
106.173,2.24,1.822,21.0
89.903,1.921,1.065,2.0
74.854,1.62,0.489,29.0
152.772,3.356,5.264,28.0
159.4,3.545,4.644,24.0
0.0,0.0,0.0,0.0
0.0,0.0,0.0,0.0
106.187,2.45,1.389,6.0
77.82,1.817,0.604,21.0
152.609,3.614,5.446,41.0
158.582,3.799,4.814,20.0
146.461,3.549,3.665,13.0
100.397,2.461,1.968,5.0
106.134,2.631,1.515,7.0
78.121,1.959,0.699,27.0
152.193,3.867,5.612,47.0
152.891,3.928,4.823,13.0
138.148,3.589,3.621,4.0
0.0,0.0,0.0,0.0
0.0,0.0,0.0,0.0
78.566,2.107,0.794,8.0
152.003,4.131,5.783,52.0
152.635,4.19,4.99,36.0
154.026,4.27,4.213,39.0
0.0,0.0,0.0,0.0
0.0,0.0,0.0,0.0
93.502,2.671,1.049,3.0
151.89,4.392,5.947,44.0
152.195,4.443,5.144,23.0
154.181,4.544,4.386,20.0
0.0,0.0,0.0,0.0
0.0,0.0,0.0,0.0
0.0,0.0,0.0,0.0
152.136,4.668,6.122,39.0
152.364,4.718,5.313,30.0
158.63,4.958,4.683,7.0
0.0,0.0,0.0,0.0
0.0,0.0,0.0,0.0
100.669,3.231,1.343,4.0
152.42,4.95,6.293,37.0
152.868,5.007,5.491,23.0
159.389,5.266,4.869,6.0
0.0,0.0,0.0,0.0
0.0,0.0,0.0,0.0
0.0,0.0,0.0,0.0
152.777,5.236,6.462,15.0
152.76,5.278,5.64,41.0
157.375,5.482,4.964,13.0
0.0,0.0,0.0,0.0
0.0,0.0,0.0,0.0
0.0,0.0,0.0,0.0
153.225,5.53,6.63,32.0
152.519,5.545,5.778,43.0
160.072,5.866,5.203,9.0
160.22,5.915,4.328,17.0
0.0,0.0,0.0,0.0
0.0,0.0,0.0,0.0
153.083,5.801,6.766,13.0
152.851,5.834,5.932,17.0
157.147,6.042,5.251,7.0
158.376,6.134,4.422,14.0
0.0,0.0,0.0,0.0
0.0,0.0,0.0,0.0
124.451,4.941,5.612,26.0
158.335,6.332,6.285,14.0
158.795,6.396,5.447,6.0
173.153,7.022,4.986,10.0
0.0,0.0,0.0,0.0
0.0,0.0,0.0,0.0
124.495,5.173,5.722,35.0
124.246,5.196,5.037,37.0
156.906,6.607,5.514,16.0
162.606,6.892,4.819,6.0
0.0,0.0,0.0,0.0
0.0,0.0,0.0,0.0
130.243,5.648,6.091,10.0
124.395,5.43,5.144,39.0
157.571,6.922,5.663,27.0
157.408,6.96,4.79,14.0
0.0,0.0,0.0,0.0
0.0,0.0,0.0,0.0
129.853,5.871,6.175,20.0
124.312,5.655,5.236,23.0
158.188,7.242,5.806,5.0
156.516,7.209,4.881,12.0
174.151,8.071,4.487,6.0
0.0,0.0,0.0,0.0
132.474,6.236,6.398,18.0
129.618,6.138,5.556,29.0
157.363,7.494,5.89,14.0
156.437,7.493,4.99,8.0
159.405,7.68,4.22,4.0
0.0,0.0,0.0,0.0
129.339,6.327,6.337,22.0
160.154,7.878,6.976,12.0
157.587,7.794,6.006,20.0
156.468,7.783,5.097,16.0
156.45,7.826,4.246,17.0
167.15,8.407,3.627,13.0
154.549,7.847,7.675,15.0
129.449,6.607,5.723,5.0
160.363,8.23,6.217,9.0
156.619,8.078,5.201,17.0
156.691,8.127,4.351,17.0
162.707,8.483,3.632,10.0
33.464,1.76,1.682,75.0
162.448,8.59,7.281,11.0
157.451,8.37,6.199,8.0
157.066,8.393,5.31,18.0
162.485,8.729,4.608,8.0
162.745,8.789,3.729,30.0
33.464,1.823,1.702,65.0
162.335,8.888,7.369,31.0
157.767,8.68,6.3,16.0
157.437,8.706,5.412,21.0
162.677,9.042,4.704,4.0
163.308,9.121,3.83,13.0
33.444,1.884,1.719,26.0
33.472,1.894,1.537,1.0
157.421,8.951,6.369,18.0
157.863,9.02,5.508,12.0
162.305,9.318,4.776,14.0
162.095,9.351,3.883,3.0
33.439,1.945,1.736,18.0
161.961,9.466,7.52,40.0
157.898,9.272,6.466,16.0
157.576,9.296,5.573,17.0
162.112,9.609,4.846,14.0
157.422,9.373,3.845,6.0
128.106,7.692,6.71,41.0
127.618,7.695,5.983,9.0
33.455,2.026,1.385,9.0
33.431,2.033,1.197,9.0
33.444,2.043,1.014,3.0
33.436,2.052,0.83,31.0
128.321,7.939,6.774,37.0
158.019,9.819,7.473,19.0
33.441,2.086,1.397,10.0
33.435,2.094,1.21,5.0
158.021,9.944,4.853,14.0
157.918,9.981,3.983,16.0
128.487,8.186,6.833,29.0
157.995,10.107,7.531,41.0
158.038,10.152,6.663,56.0
158.143,10.201,5.782,37.0
158.123,10.242,4.912,40.0
114.755,7.463,2.933,16.0
128.118,8.398,6.856,26.0
157.929,10.393,7.581,40.0
157.961,10.435,6.712,37.0
158.071,10.484,5.829,39.0
158.067,10.524,4.959,42.0
114.693,7.667,2.967,23.0
128.603,8.666,6.922,18.0
33.436,2.261,1.614,4.0
157.815,10.715,6.75,21.0
157.957,10.766,5.869,39.0
157.989,10.809,5.0,50.0
114.704,7.878,2.997,35.0
157.816,10.923,8.534,3.0
33.392,2.319,1.621,5.0
118.143,8.235,5.082,7.0
157.922,11.048,5.905,41.0
157.914,11.089,5.033,42.0
114.779,8.091,3.025,48.0
157.641,11.197,8.56,12.0
33.386,2.379,1.627,8.0
118.174,8.452,5.108,11.0
157.478,11.303,5.92,25.0
157.474,11.344,5.049,25.0
114.402,8.271,3.036,21.0
157.119,11.443,8.559,29.0
157.074,11.479,7.685,12.0
66.534,4.879,2.887,3.0
66.511,4.893,2.511,26.0
66.534,4.912,2.142,150.0
66.534,4.929,1.775,79.0
133.086,9.931,7.269,12.0
115.067,8.614,5.644,6.0
66.36,4.984,2.887,11.0
66.325,4.997,2.511,12.0
132.448,10.013,4.281,11.0
103.286,7.833,2.765,13.0
130.767,9.99,7.154,10.0
107.738,8.255,5.294,2.0
118.136,9.079,5.149,10.0
130.236,10.04,4.941,12.0
130.088,10.059,4.213,14.0
103.263,8.011,2.771,47.0
128.486,10.039,7.037,12.0
104.824,8.214,5.158,15.0
115.168,9.052,5.025,10.0
128.033,10.094,4.861,14.0
74.622,5.901,2.419,12.0
74.585,5.916,2.004,27.0
74.612,5.959,4.087,19.0
74.6,5.975,3.671,23.0
74.599,5.992,3.255,23.0
74.519,6.003,2.829,28.0
74.507,6.02,2.414,34.0
74.525,6.039,2.001,32.0
74.56,6.084,4.083,32.0
74.556,6.1,3.666,38.0
74.519,6.115,3.249,31.0
74.504,6.13,2.826,32.0
74.551,6.152,2.412,25.0
74.608,6.173,1.998,19.0
74.645,6.219,4.083,5.0
74.593,6.23,3.664,14.0
109.535,9.173,4.767,2.0
122.106,10.254,4.621,8.0
34.277,2.886,1.106,8.0
34.277,2.894,0.915,8.0
120.834,10.27,6.597,41.0
103.182,8.791,5.057,13.0
34.275,2.928,1.487,9.0
120.63,10.332,4.55,28.0
120.633,10.359,3.877,37.0
34.289,2.952,0.91,17.0
120.803,10.467,6.579,12.0
103.2,8.963,5.043,12.0
115.177,10.027,4.983,8.0
120.619,10.527,4.532,60.0
120.633,10.555,3.859,48.0
120.667,10.584,3.185,50.0
157.248,13.883,8.537,4.0
103.2,9.132,5.024,15.0
115.193,10.217,4.962,14.0
120.654,10.728,4.509,46.0
120.653,10.754,3.834,31.0
25.304,2.261,0.662,3.0
115.195,10.358,6.228,11.0
103.138,9.294,4.998,16.0
112.156,10.129,4.807,7.0
115.0,10.41,4.271,17.0
114.887,10.424,3.624,21.0
25.262,2.297,0.655,12.0
114.701,10.497,6.174,37.0
103.234,9.468,4.977,20.0
13.844,1.272,0.589,6.0
13.841,1.275,0.51,5.0
25.294,2.335,0.79,1.0
13.833,1.28,0.354,22.0
13.833,1.287,0.74,5.0
13.835,1.29,0.663,12.0
13.819,1.291,0.584,22.0
13.829,1.295,0.505,28.0
13.843,1.299,0.428,33.0
13.828,1.301,0.35,31.0
13.818,1.308,0.735,28.0
13.812,1.31,0.657,35.0
13.809,1.312,0.579,37.0
13.819,1.316,0.5,36.0
13.82,1.318,0.422,36.0
13.807,1.32,0.345,33.0
13.806,1.328,0.729,38.0
13.797,1.329,0.651,71.0
13.795,1.332,0.573,39.0
13.808,1.335,0.495,38.0
13.801,1.338,0.417,37.0
13.794,1.34,0.339,35.0
13.786,1.346,0.723,55.0
13.786,1.349,0.645,109.0
13.785,1.351,0.567,94.0
13.788,1.354,0.488,58.0
13.794,1.357,0.411,55.0
13.778,1.359,0.333,36.0
13.777,1.366,0.716,91.0
13.776,1.368,0.639,131.0
13.772,1.37,0.561,149.0
13.783,1.374,0.482,66.0
13.791,1.377,0.404,75.0
13.778,1.378,0.326,36.0
13.772,1.385,0.71,107.0
13.761,1.386,0.631,79.0
13.773,1.39,0.554,150.0
13.776,1.392,0.475,98.0
13.783,1.396,0.397,53.0
13.762,1.396,0.319,36.0
13.771,1.405,0.703,93.0
13.758,1.405,0.624,39.0
13.767,1.409,0.547,148.0
13.774,1.412,0.468,96.0
13.777,1.415,0.39,59.0
13.761,1.415,0.312,36.0
13.766,1.423,0.695,95.0
13.75,1.424,0.616,91.0
13.771,1.428,0.539,150.0
13.772,1.431,0.46,102.0
13.778,1.433,0.383,74.0
13.771,1.435,0.305,34.0
13.77,1.442,0.688,81.0
13.765,1.444,0.609,75.0
13.776,1.447,0.532,150.0
13.773,1.449,0.452,69.0
13.778,1.452,0.375,54.0
13.773,1.454,0.297,35.0
13.77,1.461,0.679,57.0
13.77,1.463,0.601,82.0
13.774,1.465,0.523,122.0
13.774,1.467,0.444,66.0
13.78,1.47,0.366,39.0
13.772,1.471,0.288,33.0
13.782,1.48,0.671,40.0
13.782,1.482,0.593,65.0
13.775,1.483,0.515,51.0
13.78,1.485,0.435,38.0
13.795,1.489,0.358,38.0
13.79,1.491,0.279,32.0
13.791,1.498,0.663,39.0
13.783,1.499,0.584,37.0
13.792,1.502,0.506,34.0
13.797,1.504,0.427,33.0
13.81,1.508,0.349,32.0
13.793,1.508,0.27,29.0
13.803,1.516,0.654,34.0
13.802,1.518,0.575,29.0
13.797,1.519,0.497,24.0
13.795,1.521,0.417,19.0
13.806,1.524,0.339,18.0
13.808,1.526,0.261,26.0
13.813,1.534,0.645,23.0
13.826,1.537,0.566,15.0
25.226,2.807,0.891,154.0
25.189,2.807,0.744,14.0
25.191,2.811,0.601,11.0
25.197,2.815,0.457,13.0
35.865,4.024,1.648,63.0
35.864,4.028,1.444,9.0
25.228,2.837,0.872,157.0
25.225,2.84,0.725,50.0
25.242,2.845,0.582,63.0
25.25,2.85,0.439,42.0
35.876,4.065,1.62,150.0
25.296,2.869,0.998,4.0
25.277,2.87,0.854,151.0
25.234,2.868,0.706,23.0
25.256,2.874,0.563,27.0
25.325,2.885,0.421,11.0
35.846,4.1,1.591,8.0
25.3,2.897,0.978,2.0
25.287,2.898,0.834,5.0
25.331,2.906,0.688,2.0
25.341,2.911,0.544,1.0
9.988,1.148,0.157,12.0
10.007,1.155,0.435,20.0
10.014,1.157,0.379,33.0
10.008,1.157,0.321,38.0
10.004,1.158,0.263,19.0
10.013,1.16,0.207,19.0
10.003,1.16,0.149,18.0
10.006,1.164,0.427,90.0
10.005,1.165,0.37,135.0
9.999,1.166,0.313,116.0
9.995,1.166,0.255,79.0
10.006,1.169,0.198,75.0
10.002,1.17,0.141,25.0
9.997,1.173,0.418,81.0
10.002,1.175,0.361,145.0
9.991,1.174,0.304,127.0
9.99,1.175,0.246,85.0
9.993,1.177,0.189,76.0
9.989,1.177,0.132,36.0
9.987,1.181,0.409,79.0
9.988,1.182,0.352,150.0
9.989,1.183,0.295,150.0
9.974,1.182,0.236,80.0
9.989,1.185,0.18,80.0
9.986,1.186,0.123,40.0
9.975,1.188,0.399,91.0
9.981,1.19,0.342,150.0
9.975,1.19,0.285,150.0
9.968,1.19,0.227,101.0
9.976,1.192,0.17,94.0
9.981,1.194,0.113,47.0
9.97,1.196,0.39,101.0
9.984,1.199,0.333,150.0
9.98,1.199,0.276,150.0
9.969,1.198,0.218,105.0
9.976,1.2,0.161,101.0
9.977,1.201,0.104,58.0
9.977,1.205,0.38,107.0
9.977,1.206,0.323,150.0
9.983,1.207,0.266,150.0
9.966,1.206,0.208,116.0
9.974,1.208,0.151,112.0
9.972,1.208,0.094,59.0
9.975,1.212,0.371,103.0
9.975,1.213,0.313,150.0
9.974,1.213,0.256,150.0
9.97,1.214,0.198,130.0
9.97,1.215,0.141,118.0
9.968,1.215,0.084,61.0
9.976,1.219,0.361,111.0
9.972,1.22,0.303,150.0
9.972,1.22,0.246,150.0
9.966,1.22,0.188,130.0
9.977,1.222,0.131,118.0
9.966,1.222,0.074,68.0
9.97,1.225,0.35,108.0
9.976,1.227,0.293,150.0
9.972,1.227,0.236,150.0
9.963,1.226,0.178,132.0
9.977,1.229,0.121,114.0
9.97,1.229,0.064,64.0
9.974,1.232,0.34,110.0
9.971,1.232,0.283,150.0
9.975,1.233,0.226,150.0
9.971,1.233,0.168,120.0
9.981,1.235,0.111,114.0
9.971,1.235,0.054,66.0
9.973,1.238,0.33,106.0
9.975,1.238,0.273,150.0
9.974,1.239,0.216,150.0
9.97,1.239,0.158,112.0
9.971,1.239,0.101,114.0
9.97,1.24,0.044,68.0
9.972,1.243,0.32,103.0
9.973,1.243,0.262,150.0
9.979,1.244,0.205,150.0
9.963,1.243,0.147,116.0
9.974,1.245,0.09,105.0
9.968,1.245,0.033,60.0
9.967,1.247,0.309,118.0
9.974,1.248,0.252,150.0
9.978,1.249,0.195,150.0
9.972,1.249,0.137,116.0
9.972,1.249,0.079,113.0
9.972,1.25,0.022,68.0
9.975,1.252,0.298,91.0
9.98,1.253,0.241,150.0
9.975,1.253,0.184,150.0
9.968,1.253,0.126,109.0
9.977,1.254,0.069,109.0
9.982,1.255,0.011,45.0
9.974,1.256,0.287,72.0
9.98,1.257,0.23,144.0
9.973,1.257,0.173,141.0
9.966,1.256,0.115,107.0
9.97,1.257,0.057,106.0
9.976,1.258,0.0,45.0
9.981,1.261,0.276,74.0
9.978,1.26,0.219,139.0
9.968,1.259,0.162,138.0
9.967,1.26,0.104,96.0
9.977,1.261,0.047,93.0
9.97,1.261,-0.01,47.0
9.981,1.264,0.265,69.0
9.98,1.264,0.208,137.0
9.971,1.263,0.151,132.0
9.963,1.262,0.092,87.0
9.975,1.264,0.035,83.0
9.971,1.264,-0.021,37.0
9.98,1.266,0.254,66.0
9.982,1.267,0.197,141.0
9.975,1.266,0.14,130.0
9.966,1.265,0.081,81.0
9.973,1.266,0.024,73.0
9.98,1.267,-0.032,41.0
9.98,1.268,0.243,65.0
9.986,1.269,0.186,134.0
9.976,1.268,0.129,117.0
9.971,1.267,0.07,72.0
9.981,1.269,0.013,46.0
9.973,1.268,-0.043,39.0
9.983,1.27,0.232,61.0
9.981,1.27,0.175,135.0
9.972,1.269,0.117,111.0
9.971,1.269,0.059,72.0
9.978,1.27,0.002,50.0
9.973,1.27,-0.054,36.0
9.986,1.272,0.221,72.0
9.979,1.271,0.163,124.0
9.976,1.271,0.106,122.0
9.97,1.27,0.048,68.0
9.978,1.271,-0.008,65.0
9.973,1.271,-0.065,40.0
9.986,1.273,0.21,67.0
9.988,1.273,0.152,127.0
9.971,1.271,0.095,124.0
9.966,1.27,0.037,81.0
9.974,1.271,-0.02,70.0
9.973,1.271,-0.077,39.0
9.983,1.273,0.198,67.0
9.985,1.273,0.141,134.0
9.977,1.272,0.084,134.0
9.97,1.271,0.025,72.0
9.977,1.271,-0.031,69.0
9.978,1.272,-0.088,40.0
9.993,1.274,0.187,69.0
9.979,1.272,0.13,137.0
9.976,1.271,0.072,132.0
9.974,1.271,0.014,52.0
9.973,1.271,-0.042,77.0
9.973,1.271,-0.099,41.0
9.973,1.27,0.175,60.0
9.984,1.272,0.118,139.0
9.977,1.27,0.061,136.0
9.973,1.27,0.003,53.0
9.973,1.27,-0.054,77.0
9.975,1.27,-0.111,40.0
9.981,1.27,0.164,67.0
9.984,1.27,0.107,144.0
9.975,1.269,0.05,121.0
9.971,1.268,-0.008,73.0
9.978,1.269,-0.065,77.0
9.974,1.269,-0.122,45.0
9.98,1.269,0.153,66.0
9.98,1.268,0.096,137.0
9.976,1.267,0.038,135.0
9.97,1.266,-0.019,76.0
9.979,1.267,-0.076,93.0
9.969,1.266,-0.133,58.0
9.974,1.266,0.141,66.0
9.975,1.266,0.084,138.0
9.973,1.265,0.027,126.0
9.971,1.264,-0.03,89.0
9.977,1.265,-0.087,108.0
9.971,1.264,-0.145,60.0
9.976,1.264,0.13,70.0
9.968,1.262,0.073,142.0
9.977,1.263,0.016,135.0
9.972,1.262,-0.041,104.0
9.975,1.262,-0.099,111.0
9.972,1.261,-0.156,73.0
9.974,1.26,0.119,89.0
9.974,1.26,0.062,150.0
9.974,1.259,0.004,138.0
9.966,1.258,-0.053,108.0
9.969,1.258,-0.11,108.0
9.972,1.258,-0.167,67.0
9.97,1.256,0.108,98.0
9.973,1.256,0.051,150.0
9.964,1.255,-0.006,122.0
9.97,1.255,-0.064,103.0
9.974,1.255,-0.121,117.0
9.97,1.254,-0.178,70.0
9.969,1.252,0.097,106.0
9.969,1.252,0.039,150.0
9.974,1.252,-0.017,86.0
9.973,1.251,-0.075,108.0
9.969,1.25,-0.132,104.0
9.969,1.25,-0.189,65.0
9.973,1.249,0.086,107.0
9.971,1.248,0.028,150.0
9.972,1.247,-0.028,149.0
9.973,1.247,-0.086,104.0
9.974,1.246,-0.143,112.0
9.966,1.245,-0.2,62.0
9.974,1.244,0.075,97.0
9.978,1.244,0.018,150.0
9.975,1.243,-0.038,150.0
9.968,1.241,-0.097,105.0
9.972,1.241,-0.154,106.0
9.966,1.24,-0.211,64.0
9.974,1.239,0.064,108.0
9.971,1.237,0.007,130.0
9.969,1.236,-0.049,150.0
9.964,1.235,-0.107,98.0
9.975,1.236,-0.164,112.0
9.967,1.234,-0.221,64.0
9.972,1.233,0.053,109.0
9.975,1.232,-0.003,108.0
9.974,1.231,-0.06,150.0
9.965,1.23,-0.118,113.0
9.969,1.229,-0.175,111.0
9.97,1.229,-0.232,67.0
9.976,1.227,0.043,101.0
9.982,1.227,-0.013,110.0
9.975,1.225,-0.07,150.0
9.97,1.224,-0.128,100.0
9.967,1.223,-0.185,109.0
9.973,1.223,-0.243,57.0
9.974,1.22,0.032,101.0
9.971,1.219,-0.024,150.0
9.974,1.218,-0.081,150.0
9.967,1.217,-0.139,97.0
9.973,1.217,-0.196,97.0
9.973,1.216,-0.253,50.0
9.971,1.213,0.022,85.0
9.973,1.212,-0.034,150.0
9.976,1.212,-0.091,150.0
9.967,1.21,-0.149,94.0
9.976,1.21,-0.206,104.0
9.976,1.209,-0.263,51.0
9.976,1.206,0.012,79.0
9.979,1.206,-0.044,150.0
9.976,1.204,-0.101,150.0
9.973,1.203,-0.159,94.0
9.982,1.203,-0.216,86.0
9.98,1.202,-0.273,36.0
9.98,1.199,0.002,82.0
9.977,1.197,-0.054,143.0
9.978,1.197,-0.111,135.0
9.984,1.196,-0.169,73.0
9.99,1.196,-0.226,77.0
9.991,1.195,-0.283,33.0
9.985,1.191,-0.007,63.0
9.984,1.19,-0.064,141.0
9.991,1.19,-0.121,123.0
9.986,1.188,-0.179,74.0
9.994,1.188,-0.236,65.0
10.002,1.188,-0.293,25.0
9.993,1.183,-0.016,68.0
10.0,1.183,-0.073,145.0
9.991,1.181,-0.13,124.0
9.997,1.18,-0.188,54.0
10.008,1.181,-0.246,57.0
10.005,1.179,-0.303,20.0
10.008,1.176,-0.026,68.0
10.005,1.174,-0.083,99.0
10.005,1.173,-0.14,68.0
10.01,1.173,-0.198,19.0
10.007,1.171,-0.255,18.0
13.868,1.622,-0.433,2.0
10.011,1.167,-0.035,19.0
10.015,1.166,-0.092,18.0
10.009,1.164,-0.149,15.0
20.442,2.376,-0.424,1.0
9.995,1.16,-0.264,9.0
13.818,1.602,-0.444,7.0
25.031,2.893,-0.111,3.0
25.059,2.893,-0.254,3.0
10.005,1.154,-0.158,4.0
20.15,2.321,-0.435,2.0
13.826,1.591,-0.377,8.0
13.801,1.587,-0.455,13.0
25.003,2.865,-0.133,28.0
25.103,2.872,-0.276,36.0
22.383,2.558,-0.374,4.0
13.827,1.578,-0.311,8.0
13.814,1.575,-0.389,17.0
13.771,1.568,-0.466,15.0
25.034,2.841,-0.155,50.0
25.108,2.846,-0.298,40.0
13.837,1.566,-0.243,8.0
13.833,1.564,-0.323,16.0
13.79,1.557,-0.4,20.0
13.752,1.551,-0.477,19.0
25.02,2.811,-0.176,16.0
25.106,2.817,-0.319,7.0
13.829,1.55,-0.254,16.0
13.799,1.544,-0.333,20.0
13.789,1.541,-0.411,20.0
13.734,1.534,-0.488,18.0
13.846,1.54,-0.108,19.0
13.815,1.534,-0.186,16.0
13.796,1.53,-0.264,23.0
13.785,1.527,-0.344,27.0
13.772,1.523,-0.422,27.0
13.722,1.516,-0.498,21.0
13.808,1.519,-0.119,19.0
13.797,1.516,-0.197,27.0
13.801,1.514,-0.275,36.0
13.776,1.509,-0.355,27.0
13.769,1.506,-0.432,29.0
13.708,1.498,-0.508,19.0
13.797,1.501,-0.129,32.0
13.791,1.498,-0.207,37.0
13.787,1.495,-0.285,39.0
13.768,1.491,-0.365,29.0
13.766,1.489,-0.443,34.0
13.701,1.48,-0.518,19.0
13.785,1.482,-0.139,36.0
13.786,1.48,-0.217,41.0
13.781,1.477,-0.295,77.0
13.768,1.474,-0.374,33.0
13.765,1.471,-0.452,35.0
13.69,1.461,-0.528,16.0
13.775,1.463,-0.149,38.0
13.784,1.462,-0.227,104.0
13.774,1.458,-0.305,38.0
13.764,1.455,-0.384,31.0
13.763,1.453,-0.462,33.0
13.67,1.441,-0.536,13.0
13.773,1.445,-0.158,40.0
13.785,1.443,-0.236,117.0
13.775,1.44,-0.314,47.0
13.756,1.436,-0.393,29.0
13.741,1.432,-0.47,27.0
13.648,1.42,-0.544,12.0
13.772,1.426,-0.167,40.0
13.782,1.424,-0.245,93.0
13.771,1.421,-0.323,132.0
13.753,1.416,-0.401,28.0
13.733,1.412,-0.478,22.0
13.612,1.397,-0.551,11.0
13.777,1.407,-0.175,38.0
13.783,1.405,-0.253,111.0
13.773,1.401,-0.331,132.0
13.757,1.397,-0.41,34.0
13.733,1.393,-0.487,22.0
13.567,1.373,-0.557,12.0
13.78,1.388,-0.184,36.0
13.778,1.385,-0.261,150.0
13.772,1.382,-0.339,139.0
13.763,1.378,-0.418,42.0
13.714,1.371,-0.494,18.0
13.558,1.353,-0.565,11.0
13.793,1.369,-0.191,40.0
13.785,1.365,-0.269,150.0
13.77,1.361,-0.346,111.0
13.758,1.357,-0.425,38.0
13.726,1.352,-0.502,16.0
13.521,1.329,-0.57,11.0
13.792,1.348,-0.199,34.0
13.789,1.345,-0.276,86.0
13.772,1.341,-0.353,42.0
13.759,1.337,-0.432,34.0
13.722,1.331,-0.508,17.0
13.498,1.306,-0.576,11.0
13.807,1.329,-0.206,38.0
13.798,1.325,-0.283,38.0
13.783,1.321,-0.36,34.0
13.763,1.316,-0.439,28.0
13.727,1.31,-0.515,18.0
13.465,1.282,-0.581,10.0
13.82,1.309,-0.212,35.0
13.818,1.306,-0.29,39.0
13.805,1.302,-0.367,32.0
13.78,1.296,-0.445,28.0
13.744,1.29,-0.521,16.0
13.415,1.257,-0.584,11.0
13.843,1.289,-0.218,32.0
13.825,1.284,-0.296,28.0
13.81,1.28,-0.373,30.0
13.792,1.276,-0.451,23.0
13.753,1.269,-0.527,15.0
13.422,1.236,-0.59,11.0
13.87,1.27,-0.224,29.0
13.852,1.265,-0.301,18.0
13.825,1.259,-0.378,18.0
13.817,1.256,-0.457,22.0
13.759,1.248,-0.533,16.0
13.39,1.212,-0.593,12.0
13.895,1.249,-0.229,14.0
13.89,1.246,-0.307,9.0
13.875,1.242,-0.384,12.0
13.838,1.235,-0.463,19.0
13.776,1.227,-0.538,13.0
13.408,1.191,-0.599,11.0
22.978,2.029,-0.387,5.0
20.262,1.784,-0.454,3.0
13.918,1.222,-0.39,5.0
13.889,1.217,-0.468,10.0
13.797,1.206,-0.542,13.0
13.405,1.169,-0.602,9.0
22.902,1.984,-0.392,5.0
20.168,1.742,-0.458,3.0
17.983,1.549,-0.509,3.0
13.913,1.196,-0.473,3.0
13.825,1.185,-0.547,13.0
13.356,1.142,-0.603,8.0
22.743,1.932,-0.395,5.0
20.084,1.701,-0.461,3.0
17.941,1.515,-0.512,3.0
16.299,1.373,-0.558,1.0
13.856,1.164,-0.552,12.0
13.339,1.117,-0.605,10.0
22.582,1.879,-0.397,5.0
20.046,1.663,-0.464,3.0
17.898,1.481,-0.514,3.0
16.212,1.337,-0.558,2.0
13.893,1.143,-0.555,13.0
13.349,1.095,-0.608,10.0
22.525,1.835,-0.4,4.0
20.01,1.625,-0.466,3.0
17.911,1.451,-0.517,3.0
16.192,1.307,-0.56,3.0
13.969,1.125,-0.561,12.0
13.381,1.074,-0.612,9.0
22.495,1.793,-0.402,4.0
19.989,1.589,-0.468,3.0
17.944,1.422,-0.52,3.0
16.221,1.281,-0.562,2.0
13.957,1.099,-0.562,12.0
13.35,1.048,-0.612,10.0
22.55,1.758,-0.405,4.0
20.027,1.556,-0.471,3.0
17.934,1.39,-0.522,3.0
16.246,1.255,-0.564,2.0
13.973,1.076,-0.563,14.0
13.306,1.021,-0.61,11.0
22.567,1.719,-0.407,5.0
19.978,1.517,-0.471,3.0
17.934,1.357,-0.522,3.0
16.2,1.222,-0.563,2.0
14.087,1.059,-0.568,10.0
13.387,1.003,-0.614,10.0
22.589,1.68,-0.408,5.0
19.988,1.482,-0.472,3.0
17.966,1.327,-0.523,3.0
16.229,1.195,-0.564,2.0
14.204,1.042,-0.573,11.0
13.442,0.983,-0.617,12.0
22.683,1.646,-0.409,5.0
20.08,1.452,-0.473,3.0
17.969,1.294,-0.523,3.0
16.299,1.17,-0.566,2.0
14.486,1.036,-0.584,16.0
13.425,0.957,-0.615,12.0
22.753,1.609,-0.409,5.0
20.145,1.419,-0.473,3.0
18.003,1.264,-0.523,3.0
16.35,1.143,-0.567,2.0
14.539,1.013,-0.584,14.0
13.447,0.933,-0.615,11.0
22.921,1.579,-0.41,5.0
20.24,1.389,-0.474,3.0
18.149,1.24,-0.525,3.0
16.36,1.114,-0.565,2.0
14.592,0.99,-0.585,17.0
13.521,0.914,-0.617,11.0
23.064,1.546,-0.409,5.0
20.304,1.356,-0.472,3.0
18.218,1.212,-0.524,3.0
16.38,1.085,-0.563,2.0
14.662,0.967,-0.585,17.0
13.583,0.892,-0.617,11.0
23.322,1.52,-0.41,5.0
20.412,1.324,-0.471,3.0
18.281,1.181,-0.522,3.0
16.493,1.061,-0.564,2.0
14.665,0.94,-0.582,16.0
13.634,0.87,-0.616,11.0
23.558,1.491,-0.409,5.0
20.562,1.296,-0.47,4.0
18.415,1.155,-0.522,3.0
16.594,1.036,-0.563,2.0
14.683,0.913,-0.579,14.0
13.709,0.848,-0.616,11.0
23.839,1.463,-0.408,5.0
20.686,1.264,-0.467,4.0
18.548,1.128,-0.521,3.0
16.763,1.015,-0.565,2.0
14.666,0.884,-0.574,9.0
13.859,0.831,-0.619,11.0
24.179,1.438,-0.406,5.0
20.81,1.232,-0.464,4.0
18.746,1.104,-0.521,3.0
16.895,0.991,-0.564,2.0
14.786,0.863,-0.574,7.0
13.972,0.811,-0.62,11.0
24.519,1.412,-0.404,4.0
21.024,1.205,-0.461,4.0
18.836,1.074,-0.517,3.0
17.068,0.968,-0.563,2.0
15.015,0.848,-0.578,5.0
14.102,0.792,-0.62,14.0
24.681,1.375,-0.397,1.0
21.281,1.179,-0.459,4.0
18.981,1.046,-0.513,3.0
17.194,0.943,-0.561,2.0
15.303,0.835,-0.583,3.0
14.385,0.781,-0.627,14.0
24.994,1.344,-0.392,1.0
21.51,1.151,-0.455,4.0
19.226,1.023,-0.512,3.0
17.355,0.919,-0.558,2.0
15.645,0.823,-0.589,2.0
14.48,0.758,-0.624,17.0
28.773,1.493,-0.438,2.0
21.741,1.121,-0.45,4.0
19.463,0.998,-0.509,3.0
17.513,0.893,-0.555,2.0
15.886,0.806,-0.59,2.0
14.56,0.734,-0.62,18.0
28.961,1.447,-0.427,2.0
22.014,1.093,-0.444,4.0
19.748,0.975,-0.506,3.0
17.688,0.868,-0.551,3.0
16.057,0.783,-0.588,2.0
14.652,0.711,-0.617,27.0
29.265,1.406,-0.416,2.0
22.454,1.072,-0.441,4.0
19.964,0.948,-0.501,3.0
17.886,0.844,-0.548,4.0
16.255,0.762,-0.586,2.0
14.652,0.683,-0.608,26.0
29.65,1.369,-0.405,2.0
22.984,1.054,-0.438,5.0
20.245,0.923,-0.496,3.0
18.105,0.82,-0.544,4.0
16.433,0.739,-0.583,3.0
14.658,0.655,-0.6,21.0
30.04,1.329,-0.391,2.0
23.593,1.037,-0.435,5.0
20.54,0.896,-0.49,4.0
18.372,0.796,-0.54,3.0
16.659,0.717,-0.58,2.0
14.672,0.627,-0.591,11.0
30.51,1.291,-0.378,2.0
24.183,1.016,-0.43,5.0
20.902,0.872,-0.485,6.0
18.645,0.772,-0.536,3.0
16.933,0.697,-0.578,2.0
14.888,0.608,-0.589,5.0
31.031,1.255,-0.363,2.0
24.559,0.986,-0.42,1.0
21.127,0.842,-0.476,4.0
18.968,0.75,-0.532,3.0
17.249,0.677,-0.577,2.0
15.376,0.599,-0.597,4.0
31.497,1.214,-0.346,2.0
28.224,1.079,-0.462,1.0
21.567,0.818,-0.469,4.0
19.323,0.727,-0.527,3.0
17.433,0.651,-0.57,7.0
15.873,0.588,-0.604,3.0
32.515,1.19,-0.332,1.0
28.603,1.039,-0.446,2.0
22.061,0.795,-0.463,4.0
19.527,0.698,-0.517,3.0
17.72,0.628,-0.565,5.0
16.115,0.566,-0.601,3.0
33.799,1.175,-0.318,1.0
29.098,1.002,-0.43,2.0
22.774,0.778,-0.459,4.0
19.904,0.674,-0.511,3.0
17.96,0.603,-0.558,4.0
16.366,0.544,-0.597,2.0
36.056,1.185,-0.309,6.0
29.659,0.966,-0.414,2.0
23.459,0.757,-0.453,5.0
20.34,0.65,-0.505,4.0
18.285,0.579,-0.552,4.0
16.669,0.523,-0.593,2.0
36.294,1.125,-0.279,9.0
30.17,0.926,-0.394,2.0
23.95,0.728,-0.441,1.0
20.752,0.625,-0.496,4.0
18.693,0.557,-0.547,5.0
17.029,0.503,-0.59,2.0
36.582,1.066,-0.248,13.0
30.841,0.89,-0.375,2.0
27.503,0.785,-0.482,1.0
21.243,0.6,-0.488,4.0
19.085,0.533,-0.541,3.0
17.32,0.479,-0.584,5.0
36.874,1.006,-0.215,29.0
31.79,0.858,-0.356,2.0
28.057,0.749,-0.464,1.0
21.769,0.574,-0.479,4.0
19.519,0.509,-0.534,3.0
17.593,0.454,-0.575,6.0
37.377,0.951,-0.181,60.0
32.807,0.825,-0.335,1.0
28.714,0.713,-0.446,1.0
22.604,0.555,-0.474,4.0
19.896,0.483,-0.524,3.0
17.936,0.43,-0.568,5.0
38.354,0.906,-0.147,50.0
36.558,0.852,-0.335,1.0
29.441,0.678,-0.427,2.0
23.309,0.53,-0.465,2.0
20.42,0.458,-0.516,3.0
18.32,0.406,-0.561,5.0
39.327,0.857,-0.109,46.0
36.698,0.789,-0.297,6.0
30.093,0.638,-0.404,2.0
26.852,0.561,-0.506,2.0
20.859,0.43,-0.505,4.0
18.719,0.38,-0.553,15.0
40.046,0.8,-0.067,15.0
36.992,0.728,-0.259,12.0
30.884,0.599,-0.38,2.0
27.335,0.522,-0.485,1.0
21.389,0.402,-0.493,4.0
19.278,0.357,-0.547,3.0
0.0,0.0,0.0,0.0
37.446,0.671,-0.219,32.0
31.905,0.562,-0.356,1.0
28.131,0.487,-0.467,1.0
21.945,0.374,-0.481,4.0
19.752,0.331,-0.538,4.0
47.227,0.775,0.029,44.0
38.039,0.613,-0.178,49.0
33.032,0.523,-0.33,1.0
28.91,0.45,-0.445,2.0
26.085,0.398,-0.54,1.0
20.241,0.303,-0.527,3.0
47.949,0.703,0.087,60.0
38.964,0.56,-0.135,49.0
37.066,0.522,-0.325,2.0
29.68,0.409,-0.421,2.0
26.544,0.359,-0.517,2.0
20.847,0.276,-0.517,4.0
48.03,0.621,0.146,72.0
39.923,0.505,-0.09,15.0
37.273,0.461,-0.281,6.0
30.413,0.367,-0.394,2.0
27.18,0.321,-0.496,2.0
21.496,0.247,-0.506,4.0
48.037,0.539,0.206,96.0
44.428,0.486,-0.043,19.0
37.834,0.403,-0.237,13.0
31.529,0.327,-0.368,1.0
27.924,0.282,-0.473,1.0
22.012,0.216,-0.489,2.0
48.043,0.458,0.268,107.0
47.011,0.434,0.014,38.0
38.4,0.344,-0.19,45.0
33.029,0.286,-0.341,1.0
28.994,0.243,-0.453,1.0
25.855,0.21,-0.541,2.0
48.085,0.376,0.333,60.0
47.964,0.362,0.079,52.0
39.33,0.286,-0.142,43.0
37.615,0.263,-0.338,0.0
29.674,0.199,-0.423,1.0
26.567,0.171,-0.519,2.0
48.221,0.297,0.4,29.0
54.85,0.322,0.166,52.0
43.988,0.247,-0.098,6.0
37.77,0.201,-0.287,8.0
30.643,0.155,-0.394,1.0
27.249,0.13,-0.494,1.0
77.173,0.348,0.748,21.0
59.333,0.251,0.263,19.0
45.035,0.178,-0.037,22.0
38.464,0.142,-0.238,14.0
31.707,0.108,-0.363,1.0
28.276,0.089,-0.472,2.0
79.469,0.23,0.884,151.0
75.935,0.199,0.446,13.0
47.772,0.112,0.029,22.0
39.207,0.081,-0.186,36.0
33.311,0.06,-0.333,1.0
29.193,0.046,-0.445,2.0
79.466,0.104,0.999,151.0
79.331,0.083,0.58,15.0
0.0,0.0,0.0,0.0
40.55,0.021,-0.133,16.0
38.191,0.01,-0.326,2.0
29.97,0.0,-0.413,1.0
79.46,-0.019,1.116,151.0
79.44,-0.04,0.699,150.0
56.176,-0.043,0.199,8.0
0.0,0.0,0.0,0.0
38.706,-0.049,-0.272,5.0
31.369,-0.048,-0.385,2.0
79.453,-0.143,1.237,151.0
79.465,-0.163,0.82,151.0
76.366,-0.176,0.387,10.0
46.138,-0.118,-0.011,10.0
39.411,-0.111,-0.216,10.0
32.689,-0.1,-0.351,1.0
79.445,-0.263,1.358,165.0
79.466,-0.283,0.943,151.0
76.721,-0.292,0.508,11.0
50.975,-0.206,0.065,10.0
0.0,0.0,0.0,0.0
34.141,-0.155,-0.313,0.0
79.434,-0.38,1.481,194.0
79.456,-0.399,1.065,163.0
79.411,-0.418,0.648,150.0
56.1,-0.309,0.159,11.0
42.386,-0.243,-0.101,3.0
39.588,-0.236,-0.302,5.0
79.439,-0.494,1.605,178.0
79.457,-0.513,1.19,175.0
79.462,-0.532,0.774,179.0
61.849,-0.429,0.273,7.0
47.511,-0.341,-0.038,3.0
43.922,-0.325,-0.265,2.0
79.428,-0.607,1.732,181.0
79.44,-0.626,1.317,185.0
79.451,-0.645,0.902,192.0
77.369,-0.645,0.466,18.0
52.514,-0.451,0.043,4.0
47.332,-0.417,-0.208,3.0
79.434,-0.717,1.861,178.0
79.43,-0.736,1.446,192.0
79.449,-0.754,1.032,177.0
79.321,-0.772,0.609,60.0
57.867,-0.576,0.142,3.0
50.85,-0.518,-0.139,3.0
79.433,-0.827,1.993,157.0
79.426,-0.845,1.578,213.0
79.395,-0.863,1.164,255.0
79.433,-0.881,0.742,150.0
77.769,-0.88,0.322,1.0
60.831,-0.702,-0.064,1.0
79.401,-0.934,2.126,47.0
79.445,-0.951,1.713,9.0
79.439,-0.968,1.298,150.0
86.959,-1.079,0.96,28.0
78.769,-0.994,0.458,10.0
60.93,-0.782,0.037,7.0
86.931,-1.134,2.473,25.0
86.944,-1.152,2.02,57.0
183.432,-2.471,3.307,50.0
148.111,-2.025,1.883,18.0
87.891,-1.22,0.659,10.0
67.086,-0.946,0.155,0.0
151.48,-2.167,4.566,91.0
183.426,-2.663,4.575,18.0
187.091,-2.755,3.694,64.0
205.318,-3.064,2.963,23.0
98.981,-1.497,0.913,6.0
0.0,0.0,0.0,0.0
151.458,-2.353,4.826,91.0
151.442,-2.384,4.039,56.0
248.396,-3.96,5.331,63.0
205.422,-3.315,3.32,30.0
123.965,-2.025,1.359,7.0
40.269,-0.666,0.232,40.0
151.421,-2.534,5.089,61.0
151.444,-2.565,4.303,49.0
40.229,-0.689,0.934,40.0
40.171,-0.696,0.72,39.0
40.293,-0.705,0.512,2.0
40.236,-0.712,0.303,49.0
184.68,-3.308,6.533,43.0
40.319,-0.729,1.216,38.0
40.239,-0.736,1.005,53.0
40.185,-0.742,0.791,53.0
40.265,-0.751,0.583,39.0
40.229,-0.758,0.374,58.0
184.808,-3.52,6.865,34.0
40.348,-0.775,1.289,10.0
40.267,-0.781,1.077,46.0
40.228,-0.788,0.864,50.0
40.237,-0.795,0.655,55.0
40.243,-0.803,0.447,40.0
191.319,-3.855,7.453,35.0
185.539,-3.771,6.264,53.0
40.235,-0.824,1.149,41.0
40.209,-0.831,0.935,56.0
40.224,-0.838,0.727,52.0
40.259,-0.846,0.519,40.0
191.448,-4.061,7.804,27.0
185.481,-3.966,6.598,52.0
40.262,-0.867,1.223,36.0
40.202,-0.872,1.008,58.0
40.203,-0.879,0.8,55.0
40.323,-0.889,0.594,21.0
129.536,-2.882,5.516,13.0
185.65,-4.158,6.94,33.0
40.298,-0.909,1.297,13.0
40.202,-0.913,1.081,61.0
40.2,-0.919,0.873,57.0
40.291,-0.928,0.666,92.0
129.425,-3.006,5.746,33.0
40.253,-0.941,1.578,3.0
40.228,-0.946,1.369,46.0
40.224,-0.953,1.156,52.0
40.205,-0.958,0.947,55.0
40.192,-0.964,0.738,58.0
129.228,-3.126,5.977,42.0
129.231,-3.145,5.307,50.0
40.192,-0.983,1.442,49.0
40.256,-0.991,1.232,59.0
40.195,-0.995,1.022,54.0
40.194,-1.001,0.813,51.0
93.073,-2.337,4.478,14.0
128.905,-3.255,5.534,33.0
40.195,-1.02,1.517,36.0
40.243,-1.027,1.306,45.0
40.198,-1.031,1.097,50.0
40.191,-1.037,0.889,50.0
93.066,-2.419,4.652,40.0
128.887,-3.366,5.773,36.0
129.341,-3.396,5.123,25.0
40.216,-1.061,1.38,43.0
40.241,-1.066,1.172,36.0
40.201,-1.071,0.963,54.0
93.093,-2.498,4.827,21.0
128.984,-3.476,6.018,14.0
129.071,-3.495,5.353,29.0
40.26,-1.095,1.457,34.0
40.288,-1.1,1.249,11.0
40.225,-1.104,1.039,38.0
90.495,-2.501,4.862,60.0
178.471,-4.952,8.661,20.0
0.0,0.0,0.0,0.0
0.0,0.0,0.0,0.0
0.0,0.0,0.0,0.0
40.305,-1.137,1.117,12.0
90.48,-2.569,5.031,24.0
129.325,-3.687,6.521,11.0
0.0,0.0,0.0,0.0
148.208,-4.257,5.92,11.0
0.0,0.0,0.0,0.0
40.309,-1.166,1.192,7.0
90.566,-2.638,5.207,53.0
90.404,-2.642,4.729,3.0
0.0,0.0,0.0,0.0
148.148,-4.359,6.198,34.0
0.0,0.0,0.0,0.0
0.0,0.0,0.0,0.0
93.162,-2.777,5.533,63.0
90.477,-2.706,4.903,33.0
0.0,0.0,0.0,0.0
0.0,0.0,0.0,0.0
148.081,-4.469,5.707,3.0
0.0,0.0,0.0,0.0
93.076,-2.835,5.703,38.0
90.556,-2.766,5.079,34.0
0.0,0.0,0.0,0.0
0.0,0.0,0.0,0.0
148.262,-4.567,5.996,13.0
0.0,0.0,0.0,0.0
92.96,-2.888,5.873,39.0
98.204,-3.059,5.695,7.0
0.0,0.0,0.0,0.0
0.0,0.0,0.0,0.0
148.141,-4.649,6.27,15.0
0.0,0.0,0.0,0.0
93.134,-2.947,6.061,10.0
93.358,-2.96,5.59,5.0
90.574,-2.878,4.952,5.0
0.0,0.0,0.0,0.0
0.0,0.0,0.0,0.0
148.17,-4.738,5.782,4.0
83.215,-2.677,5.572,27.0
93.172,-3.003,5.754,20.0
175.561,-5.668,9.931,8.0
0.0,0.0,0.0,0.0
0.0,0.0,0.0,0.0
148.051,-4.808,6.059,34.0
83.123,-2.715,5.725,22.0
93.166,-3.047,5.932,14.0
174.989,-5.734,10.234,35.0
0.0,0.0,0.0,0.0
0.0,0.0,0.0,0.0
0.0,0.0,0.0,0.0
93.615,-3.1,6.624,8.0
90.268,-2.993,5.918,5.0
174.68,-5.799,10.545,31.0
0.0,0.0,0.0,0.0
0.0,0.0,0.0,0.0
0.0,0.0,0.0,0.0
83.301,-2.792,6.052,12.0
83.273,-2.794,5.616,10.0
174.627,-5.866,10.869,29.0
175.464,-5.901,9.991,21.0
0.0,0.0,0.0,0.0
0.0,0.0,0.0,0.0
92.002,-3.118,6.856,17.0
83.046,-2.817,5.757,22.0
93.162,-3.163,5.973,22.0
97.971,-3.328,5.762,10.0
0.0,0.0,0.0,0.0
0.0,0.0,0.0,0.0
92.592,-3.169,7.076,13.0
82.898,-2.838,5.902,11.0
93.165,-3.192,6.148,8.0
174.701,-5.99,10.602,29.0
0.0,0.0,0.0,0.0
0.0,0.0,0.0,0.0
83.061,-2.867,6.503,14.0
83.314,-2.876,6.087,10.0
83.219,-2.874,5.647,10.0
174.611,-6.033,10.923,33.0
175.232,-6.055,10.048,21.0
0.0,0.0,0.0,0.0
82.61,-2.872,6.621,14.0
91.795,-3.191,6.878,15.0
82.961,-2.884,5.783,16.0
93.182,-3.24,6.002,15.0
174.658,-6.075,10.34,43.0
0.0,0.0,0.0,0.0
90.061,-3.149,7.386,13.0
91.771,-3.209,7.046,16.0
82.278,-2.877,5.888,12.0
93.147,-3.257,6.172,10.0
174.731,-6.108,10.666,33.0
0.0,0.0,0.0,0.0
90.128,-3.168,7.558,14.0
0.0,0.0,0.0,0.0
0.0,0.0,0.0,0.0
83.306,-2.925,5.671,10.0
93.176,-3.27,5.856,4.0
175.249,-6.149,10.103,30.0
63.453,-2.238,5.437,6.0
82.63,-2.912,6.647,13.0
83.46,-2.94,6.277,8.0
83.208,-2.93,5.815,14.0
93.176,-3.28,6.026,22.0
174.618,-6.142,10.383,41.0
54.816,-1.938,4.797,10.0
82.351,-2.91,6.776,10.0
91.655,-3.236,7.062,14.0
0.0,0.0,0.0,0.0
90.316,-3.184,6.006,11.0
174.65,-6.153,10.702,37.0
54.871,-1.943,4.902,7.0
90.099,-3.188,7.576,16.0
83.465,-2.949,6.581,14.0
0.0,0.0,0.0,0.0
83.244,-2.936,5.684,11.0
