X,Y,Z,Reflectivity
54.959,1.014,2.971,21.0
55.26,1.03,2.696,5.0
53.356,1.001,4.106,24.0
74.318,1.408,5.324,27.0
76.45,1.463,5.072,31.0
62.68,1.212,3.82,100.0
54.717,1.068,3.045,22.0
55.265,1.09,2.784,10.0
76.98,1.528,6.046,17.0
74.256,1.488,5.438,36.0
62.274,1.26,4.229,11.0
62.688,1.281,3.919,63.0
54.601,1.126,3.124,53.0
55.335,1.152,2.873,32.0
76.898,1.612,6.16,18.0
74.187,1.569,5.548,15.0
124.335,2.656,8.636,10.0
62.59,1.349,4.009,38.0
54.439,1.185,3.198,50.0
55.362,1.216,2.959,73.0
53.899,1.191,4.4,72.0
53.898,1.202,4.112,87.0
53.657,1.207,3.808,50.0
62.646,1.422,4.106,37.0
54.403,1.246,3.277,68.0
55.377,1.28,3.042,69.0
53.903,1.254,4.48,70.0
53.902,1.264,4.192,66.0
53.553,1.267,3.879,62.0
53.844,1.285,3.607,68.0
54.648,1.315,3.371,83.0
55.329,1.343,3.118,59.0
40.171,0.982,3.397,2.0
53.317,1.314,4.224,48.0
56.307,1.399,4.16,28.0
61.958,1.553,4.24,24.0
54.402,1.375,3.433,59.0
55.094,1.404,3.184,72.0
64.04,1.643,5.508,28.0
53.271,1.377,4.296,12.0
61.596,1.606,4.638,17.0
55.779,1.465,3.896,66.0
54.128,1.433,3.491,52.0
54.562,1.457,3.228,22.0
56.729,1.525,4.958,73.0
56.665,1.535,4.648,67.0
61.533,1.68,4.718,56.0
55.816,1.536,3.975,92.0
54.174,1.502,3.568,22.0
54.514,1.523,3.299,9.0
40.213,1.131,3.569,68.0
62.903,1.783,5.245,14.0
62.128,1.774,4.847,41.0
55.818,1.606,4.05,90.0
73.895,2.142,4.964,38.0
54.34,1.586,3.36,7.0
40.281,1.184,3.628,45.0
62.888,1.862,5.326,59.0
61.345,1.83,4.865,75.0
55.818,1.677,4.121,108.0
73.798,2.233,5.053,43.0
54.266,1.653,3.425,56.0
63.714,1.955,5.821,16.0
40.149,1.24,3.451,37.0
55.816,1.737,4.497,85.0
62.077,1.945,4.661,44.0
55.159,1.74,3.845,63.0
54.255,1.723,3.491,61.0
40.304,1.288,3.732,23.0
61.068,1.966,5.324,78.0
55.836,1.81,4.567,63.0
62.089,2.025,4.737,73.0
55.186,1.813,3.913,53.0
73.521,2.431,4.818,12.0
61.117,2.035,5.733,61.0
61.018,2.044,5.392,35.0
71.758,2.419,5.953,24.0
62.087,2.106,4.809,43.0
55.221,1.886,3.979,29.0
54.235,1.864,3.616,19.0
42.648,1.475,4.048,32.0
67.915,2.365,6.079,11.0
71.825,2.517,6.04,20.0
62.092,2.189,4.879,54.0
55.343,1.963,4.05,23.0
54.22,1.935,3.675,47.0
42.638,1.532,4.096,33.0
55.993,2.024,5.074,44.0
62.145,2.26,5.294,82.0
62.2,2.276,4.956,23.0
65.135,2.398,4.837,12.0
54.187,2.007,3.731,76.0
55.835,2.082,5.424,48.0
55.945,2.099,5.13,91.0
67.881,2.562,5.856,8.0
55.368,2.101,4.469,57.0
54.276,2.072,4.087,68.0
54.108,2.077,3.782,54.0
56.13,2.17,5.511,45.0
52.984,2.06,4.913,4.0
67.884,2.654,5.925,22.0
53.512,2.104,4.374,22.0
53.761,2.126,4.103,79.0
73.675,2.93,5.223,18.0
53.134,2.128,5.27,59.0
53.178,2.141,4.984,64.0
53.247,2.155,4.7,79.0
53.384,2.173,4.415,78.0
65.053,2.662,5.027,9.0
73.54,3.025,5.283,29.0
41.163,1.705,4.122,39.0
65.208,2.716,6.173,7.0
67.941,2.844,6.06,19.0
54.246,2.282,4.537,56.0
71.434,3.022,5.585,29.0
73.569,3.129,5.352,35.0
41.434,1.774,4.187,34.0
60.87,2.62,5.816,8.0
54.472,2.356,4.907,58.0
64.604,2.807,5.46,31.0
64.514,2.818,5.1,38.0
73.827,3.242,5.434,12.0
41.516,1.836,4.231,19.0
41.39,1.839,3.991,46.0
54.464,2.431,4.952,45.0
64.499,2.893,5.505,25.0
64.495,2.907,5.152,31.0
64.538,2.923,4.803,38.0
52.949,2.415,5.439,14.0
41.381,1.896,4.023,31.0
68.074,3.134,6.244,38.0
64.948,3.004,5.595,24.0
64.943,3.018,5.239,7.0
64.561,3.014,4.855,27.0
0.0,0.0,0.0,0.0
41.453,1.958,4.062,41.0
68.194,3.235,6.308,20.0
55.552,2.647,4.827,14.0
68.103,3.261,5.544,18.0
64.741,3.113,4.916,30.0
41.821,2.025,4.359,6.0
54.689,2.66,5.399,12.0
0.0,0.0,0.0,0.0
64.671,3.173,5.665,17.0
64.865,3.196,5.326,39.0
64.746,3.203,4.961,24.0
41.705,2.078,4.376,17.0
41.401,2.071,4.115,35.0
53.944,2.71,5.064,5.0
0.0,0.0,0.0,0.0
64.457,3.266,5.334,22.0
64.969,3.306,5.02,7.0
41.671,2.135,4.4,17.0
63.599,3.272,6.362,19.0
63.379,3.275,5.99,36.0
0.0,0.0,0.0,0.0
64.461,3.358,5.374,32.0
64.808,3.389,5.047,4.0
41.815,2.202,4.44,26.0
63.168,3.34,6.357,17.0
53.711,2.851,5.108,5.0
64.155,3.419,5.74,39.0
64.881,3.472,5.447,23.0
78.265,4.204,6.139,19.0
41.536,2.247,4.434,29.0
53.14,2.886,5.378,27.0
53.565,2.919,5.123,7.0
64.263,3.515,5.784,22.0
67.98,3.733,5.743,14.0
78.348,4.32,6.186,21.0
41.909,2.326,4.495,3.0
63.214,3.522,6.429,16.0
41.309,2.309,3.971,13.0
64.432,3.616,5.831,22.0
64.641,3.64,5.492,10.0
64.956,3.672,5.159,15.0
41.939,2.387,4.518,4.0
63.127,3.606,6.449,19.0
41.469,2.377,4.006,24.0
55.584,3.198,5.054,10.0
64.566,3.727,5.513,20.0
75.665,4.384,6.042,20.0
41.968,2.448,4.539,10.0
63.38,3.71,6.501,12.0
41.435,2.433,4.019,61.0
63.791,3.759,5.827,30.0
64.429,3.81,5.527,15.0
64.628,3.835,5.186,6.0
38.448,2.297,4.173,54.0
63.612,3.812,6.549,8.0
41.467,2.493,4.037,60.0
63.766,3.845,5.847,31.0
64.38,3.896,5.545,31.0
64.53,3.918,5.199,32.0
38.318,2.342,4.172,65.0
63.266,3.879,6.534,36.0
63.666,3.916,6.219,24.0
63.693,3.929,5.86,6.0
64.359,3.984,5.562,23.0
64.548,4.008,5.22,32.0
38.305,2.394,4.182,71.0
63.283,3.967,6.554,29.0
63.342,3.983,6.205,26.0
70.204,4.428,6.478,25.0
64.733,4.096,5.612,31.0
64.83,4.115,5.259,30.0
38.313,2.448,4.192,65.0
63.814,4.089,6.624,39.0
63.347,4.071,6.22,14.0
70.376,4.536,6.509,37.0
64.793,4.188,5.631,39.0
65.158,4.224,5.299,20.0
38.398,2.505,4.209,55.0
64.151,4.198,6.671,25.0
54.381,3.568,5.35,4.0
70.374,4.63,6.522,13.0
64.748,4.272,5.638,27.0
65.118,4.309,5.306,40.0
38.643,2.574,4.242,28.0
64.195,4.289,6.685,14.0
70.782,4.741,6.974,38.0
63.265,4.248,5.871,31.0
64.993,4.377,5.668,36.0
65.263,4.407,5.326,26.0
41.907,2.849,4.605,9.0
64.201,4.375,6.693,16.0
65.128,4.45,6.423,10.0
70.639,4.838,6.562,46.0
64.778,4.448,5.654,39.0
65.169,4.487,5.324,32.0
41.894,2.904,4.607,19.0
68.124,4.733,7.106,9.0
65.098,4.535,6.423,21.0
70.714,4.938,6.572,48.0
64.532,4.518,5.636,23.0
64.544,4.53,5.275,40.0
38.848,2.744,4.272,21.0
64.499,4.567,6.729,26.0
67.774,4.81,6.688,16.0
71.045,5.055,6.603,31.0
63.895,4.557,5.58,38.0
63.817,4.562,5.215,38.0
38.831,2.794,4.27,28.0
38.571,2.781,4.023,62.0
67.815,4.902,6.69,16.0
71.103,5.151,6.606,21.0
63.991,4.646,5.585,23.0
64.035,4.661,5.229,39.0
41.912,3.07,4.606,4.0
38.544,2.83,4.017,62.0
67.963,5.001,6.699,14.0
64.152,4.731,5.955,39.0
63.927,4.724,5.574,31.0
63.462,4.7,5.176,38.0
38.843,2.895,4.265,39.0
38.456,2.872,4.004,60.0
38.718,2.897,3.812,30.0
64.003,4.799,5.934,39.0
63.851,4.798,5.559,38.0
63.362,4.772,5.159,32.0
38.762,2.938,4.25,40.0
38.377,2.914,3.99,56.0
38.71,2.945,3.805,59.0
63.954,4.876,5.918,28.0
64.113,4.898,5.571,39.0
63.455,4.858,5.156,29.0
38.745,2.984,4.241,33.0
38.379,2.962,3.983,65.0
38.708,2.993,3.797,60.0
63.933,4.952,5.903,27.0
63.755,4.949,5.526,37.0
63.474,4.937,5.143,28.0
38.619,3.022,4.218,39.0
38.433,3.012,3.979,59.0
38.658,3.036,3.782,42.0
64.003,5.035,5.893,39.0
64.098,5.052,5.539,38.0
63.529,5.017,5.131,23.0
41.604,3.306,4.533,31.0
38.355,3.053,3.96,59.0
38.651,3.081,3.771,47.0
64.023,5.113,5.877,39.0
63.824,5.106,5.497,36.0
63.483,5.089,5.108,26.0
38.66,3.117,4.2,39.0
38.36,3.098,3.948,58.0
38.697,3.131,3.763,54.0
64.406,5.219,5.891,40.0
63.738,5.174,5.467,37.0
66.444,5.403,5.323,29.0
38.569,3.155,4.176,42.0
38.384,3.144,3.937,43.0
64.475,5.29,6.246,9.0
64.392,5.291,5.866,36.0
63.991,5.267,5.465,38.0
66.416,5.475,5.296,42.0
38.486,3.191,4.152,52.0
47.67,3.958,4.871,13.0
64.57,5.369,6.23,28.0
64.278,5.353,5.829,33.0
64.152,5.352,5.452,20.0
66.79,5.581,5.298,42.0
38.382,3.225,4.124,56.0
47.638,4.009,4.846,4.0
64.582,5.442,6.202,19.0
47.301,3.991,4.268,21.0
0.0,0.0,0.0,0.0
66.469,5.626,5.242,19.0
38.219,3.253,4.088,67.0
47.677,4.063,4.828,13.0
47.736,4.074,4.561,21.0
47.407,4.051,4.254,37.0
66.263,5.671,5.569,31.0
66.75,5.721,5.231,43.0
38.219,3.294,4.069,63.0
47.632,4.11,4.798,12.0
47.646,4.116,4.527,30.0
47.463,4.105,4.234,43.0
66.533,5.763,5.556,22.0
66.26,5.747,5.157,30.0
38.257,3.336,4.052,55.0
47.553,4.152,4.764,21.0
47.428,4.145,4.48,19.0
47.467,4.153,4.208,47.0
66.386,5.817,5.506,18.0
66.601,5.843,5.145,42.0
38.268,3.375,4.031,64.0
47.905,4.23,4.771,11.0
47.468,4.196,4.455,21.0
47.49,4.202,4.181,41.0
70.908,6.282,5.839,19.0
66.575,5.906,5.103,42.0
38.383,3.422,4.019,56.0
47.902,4.276,4.74,13.0
47.56,4.249,4.434,39.0
47.543,4.253,4.156,19.0
70.908,6.35,5.794,19.0
66.41,5.954,5.047,42.0
41.467,3.737,4.314,19.0
62.018,5.594,6.096,10.0
47.499,4.289,4.397,36.0
47.729,4.314,4.14,16.0
66.486,6.016,5.387,25.0
65.921,5.971,4.965,24.0
41.137,3.745,4.251,12.0
61.933,5.643,6.044,14.0
47.681,4.348,4.38,31.0
47.664,4.35,4.101,18.0
66.728,6.097,5.359,14.0
66.044,6.041,4.927,26.0
13.914,1.279,1.427,24.0
47.472,4.367,4.598,15.0
13.875,1.277,1.264,6.0
47.54,4.381,4.054,5.0
13.847,1.277,1.101,3.0
13.838,1.277,1.022,4.0
13.899,1.289,1.415,19.0
13.878,1.288,1.333,9.0
13.873,1.289,1.253,11.0
13.823,1.285,1.168,8.0
13.835,1.287,1.09,10.0
13.837,1.288,1.011,10.0
13.865,1.297,1.401,21.0
13.863,1.298,1.321,15.0
13.851,1.298,1.24,13.0
13.822,1.296,1.157,13.0
13.815,1.296,1.077,24.0
13.814,1.297,0.998,22.0
13.858,1.307,1.388,28.0
13.844,1.307,1.307,18.0
13.813,1.305,1.225,17.0
13.796,1.304,1.143,24.0
13.821,1.307,1.066,31.0
13.814,1.308,0.986,27.0
13.839,1.316,1.374,26.0
13.821,1.315,1.293,25.0
13.796,1.313,1.211,25.0
13.787,1.313,1.13,31.0
13.808,1.316,1.052,33.0
13.801,1.317,0.973,32.0
13.837,1.326,1.362,30.0
13.815,1.324,1.28,31.0
13.796,1.323,1.199,32.0
13.781,1.322,1.117,35.0
13.799,1.325,1.039,28.0
13.785,1.324,0.959,33.0
13.831,1.334,1.348,35.0
13.815,1.333,1.267,35.0
13.794,1.332,1.186,36.0
13.782,1.332,1.104,35.0
13.791,1.333,1.026,30.0
13.785,1.333,0.946,33.0
13.825,1.343,1.335,38.0
13.796,1.34,1.252,39.0
13.781,1.339,1.172,49.0
13.778,1.34,1.091,34.0
13.785,1.341,1.012,32.0
13.775,1.341,0.932,35.0
13.814,1.35,1.32,43.0
13.792,1.348,1.238,101.0
13.771,1.347,1.157,95.0
13.775,1.347,1.077,35.0
13.774,1.348,0.998,33.0
13.771,1.348,0.918,36.0
13.809,1.357,1.306,41.0
13.785,1.355,1.224,150.0
13.771,1.354,1.143,136.0
13.76,1.353,1.062,45.0
13.763,1.354,0.983,34.0
13.769,1.355,0.904,34.0
13.794,1.363,1.29,39.0
13.78,1.362,1.209,150.0
13.763,1.36,1.128,144.0
13.759,1.36,1.047,40.0
13.767,1.362,0.969,38.0
13.764,1.362,0.889,35.0
13.781,1.368,1.274,35.0
13.777,1.368,1.194,125.0
13.766,1.367,1.114,94.0
13.759,1.367,1.033,35.0
13.765,1.368,0.954,69.0
13.761,1.368,0.875,35.0
13.788,1.375,1.26,39.0
13.776,1.374,1.179,148.0
13.756,1.372,1.098,122.0
13.731,1.37,1.015,25.0
13.762,1.373,0.939,41.0
13.768,1.374,0.86,36.0
13.78,1.38,1.244,61.0
13.769,1.379,1.163,119.0
13.755,1.377,1.083,103.0
13.723,1.374,1.0,24.0
13.76,1.378,0.923,38.0
13.768,1.379,0.845,38.0
13.782,1.385,1.229,74.0
13.768,1.383,1.148,94.0
13.75,1.382,1.067,99.0
13.735,1.38,0.985,30.0
13.761,1.383,0.908,72.0
13.767,1.384,0.829,45.0
13.776,1.389,1.212,70.0
13.758,1.387,1.131,130.0
13.755,1.386,1.051,66.0
13.743,1.385,0.97,35.0
13.761,1.387,0.892,96.0
13.766,1.388,0.813,55.0
13.775,1.393,1.196,47.0
13.759,1.391,1.115,150.0
13.75,1.39,1.035,34.0
13.752,1.39,0.954,39.0
13.763,1.391,0.876,79.0
13.764,1.391,0.797,39.0
13.775,1.396,1.18,39.0
13.753,1.393,1.098,150.0
13.741,1.392,1.018,30.0
13.751,1.393,0.938,69.0
13.76,1.394,0.859,70.0
13.768,1.394,0.781,39.0
13.766,1.398,1.162,40.0
13.753,1.396,1.081,131.0
13.749,1.395,1.002,33.0
13.754,1.395,0.921,67.0
13.764,1.396,0.843,105.0
13.771,1.397,0.764,39.0
13.759,1.399,1.144,40.0
13.755,1.398,1.065,115.0
13.748,1.397,0.985,46.0
13.753,1.397,0.904,80.0
13.764,1.398,0.826,115.0
13.768,1.398,0.747,39.0
13.75,1.4,1.127,92.0
13.758,1.4,1.048,115.0
13.751,1.399,0.968,78.0
13.754,1.399,0.887,94.0
13.776,1.401,0.81,145.0
13.765,1.399,0.73,39.0
13.749,1.4,1.109,128.0
13.75,1.4,1.03,45.0
13.762,1.401,0.951,148.0
13.755,1.399,0.87,77.0
13.775,1.401,0.792,97.0
13.766,1.4,0.713,38.0
13.751,1.401,1.092,75.0
13.749,1.4,1.012,32.0
13.759,1.4,0.934,150.0
13.756,1.4,0.853,85.0
13.776,1.401,0.775,104.0
13.761,1.399,0.695,39.0
13.751,1.401,1.074,59.0
13.746,1.399,0.995,39.0
13.755,1.4,0.916,150.0
13.761,1.4,0.835,124.0
13.772,1.4,0.757,96.0
13.762,1.399,0.677,38.0
13.758,1.4,1.057,40.0
13.754,1.399,0.977,65.0
13.757,1.399,0.898,150.0
13.76,1.398,0.817,150.0
13.771,1.399,0.739,106.0
13.761,1.397,0.659,37.0
13.764,1.399,1.039,39.0
13.758,1.398,0.959,116.0
13.753,1.397,0.879,150.0
13.764,1.397,0.8,117.0
13.777,1.398,0.721,98.0
13.758,1.395,0.641,35.0
13.764,1.397,1.021,32.0
13.762,1.396,0.941,150.0
13.759,1.395,0.862,138.0
13.772,1.395,0.782,118.0
13.777,1.395,0.703,94.0
13.754,1.392,0.622,33.0
13.751,1.393,1.002,35.0
13.758,1.393,0.923,145.0
13.766,1.393,0.844,150.0
13.77,1.392,0.763,103.0
13.774,1.392,0.684,79.0
13.753,1.389,0.604,33.0
13.755,1.39,0.984,38.0
13.759,1.39,0.904,150.0
13.773,1.39,0.826,150.0
13.77,1.389,0.745,82.0
13.766,1.388,0.666,71.0
13.756,1.386,0.586,34.0
13.758,1.387,0.965,38.0
13.768,1.386,0.886,150.0
13.773,1.386,0.807,150.0
13.772,1.385,0.726,96.0
13.772,1.384,0.647,56.0
13.763,1.382,0.568,36.0
13.761,1.382,0.947,56.0
13.766,1.382,0.868,119.0
13.769,1.381,0.788,150.0
13.769,1.38,0.708,86.0
13.767,1.378,0.628,36.0
13.769,1.377,0.549,37.0
13.764,1.377,0.928,39.0
13.775,1.377,0.849,150.0
13.775,1.376,0.77,150.0
13.768,1.374,0.689,60.0
13.759,1.372,0.609,35.0
13.774,1.372,0.531,37.0
13.758,1.371,0.909,54.0
13.781,1.372,0.831,150.0
13.779,1.37,0.751,150.0
13.77,1.368,0.67,58.0
13.766,1.366,0.591,36.0
13.784,1.367,0.512,37.0
13.769,1.366,0.891,39.0
13.783,1.365,0.812,150.0
13.782,1.364,0.733,150.0
13.781,1.362,0.652,46.0
13.777,1.361,0.573,48.0
13.788,1.361,0.494,36.0
13.782,1.36,0.873,39.0
13.789,1.359,0.794,150.0
13.784,1.357,0.714,148.0
13.774,1.354,0.633,39.0
13.789,1.355,0.554,38.0
13.792,1.354,0.476,35.0
13.789,1.353,0.855,39.0
13.795,1.352,0.775,145.0
13.785,1.349,0.695,114.0
13.777,1.347,0.615,35.0
13.792,1.347,0.536,38.0
13.794,1.346,0.457,34.0
13.804,1.346,0.837,39.0
13.804,1.344,0.757,95.0
13.792,1.341,0.677,66.0
13.785,1.339,0.596,35.0
13.806,1.34,0.518,37.0
13.803,1.338,0.438,34.0
13.805,1.337,0.818,39.0
13.804,1.335,0.738,54.0
13.794,1.333,0.659,42.0
13.801,1.332,0.578,35.0
13.811,1.331,0.499,34.0
13.809,1.329,0.42,34.0
13.809,1.328,0.8,37.0
13.803,1.325,0.72,39.0
13.797,1.323,0.64,37.0
13.811,1.323,0.56,34.0
13.823,1.322,0.481,35.0
13.819,1.32,0.402,34.0
13.817,1.319,0.781,31.0
13.805,1.315,0.701,35.0
13.809,1.314,0.622,37.0
13.824,1.314,0.542,30.0
13.833,1.313,0.463,34.0
13.83,1.311,0.384,32.0
13.817,1.308,0.763,22.0
13.807,1.305,0.683,24.0
13.817,1.304,0.604,34.0
13.829,1.303,0.524,28.0
13.845,1.303,0.445,32.0
13.836,1.3,0.365,30.0
13.827,1.297,0.744,9.0
13.833,1.296,0.665,13.0
13.824,1.293,0.585,16.0
13.833,1.292,0.505,19.0
13.848,1.291,0.426,26.0
13.84,1.289,0.347,25.0
13.846,1.287,0.727,3.0
13.844,1.285,0.647,6.0
13.849,1.283,0.568,5.0
13.83,1.279,0.486,8.0
13.844,1.279,0.408,14.0
13.849,1.277,0.329,12.0
114.692,10.561,5.871,10.0
13.856,1.273,0.629,4.0
114.778,10.533,4.56,32.0
114.773,10.515,3.89,27.0
13.858,1.267,0.39,5.0
33.491,3.058,0.751,6.0
103.169,9.401,5.145,11.0
109.446,9.956,4.83,6.0
115.107,10.452,4.42,16.0
115.343,10.456,3.758,16.0
115.589,10.461,3.103,12.0
115.759,10.46,2.446,7.0
103.213,9.303,5.014,21.0
115.67,10.408,4.956,9.0
120.579,10.829,4.475,19.0
120.601,10.811,3.772,27.0
120.665,10.798,3.083,52.0
120.657,10.78,2.394,44.0
103.237,9.199,4.88,15.0
120.613,10.725,5.009,12.0
120.615,10.705,4.319,53.0
120.631,10.688,3.616,59.0
120.645,10.669,2.926,47.0
120.66,10.651,2.237,22.0
106.333,9.358,4.888,14.0
120.621,10.595,4.852,43.0
120.603,10.572,4.161,49.0
34.263,2.997,0.983,18.0
120.655,10.536,2.771,33.0
34.189,2.979,0.59,4.0
112.174,9.747,5.012,7.0
120.619,10.459,4.698,54.0
120.629,10.438,4.01,44.0
34.272,2.959,0.939,36.0
34.28,2.954,0.743,14.0
34.251,2.946,0.548,0.0
34.277,2.938,1.488,25.0
34.305,2.934,1.293,65.0
34.278,2.926,1.096,98.0
34.277,2.92,0.897,27.0
34.264,2.913,0.701,19.0
66.285,5.623,0.978,19.0
34.293,2.899,1.446,5.0
122.071,10.298,4.452,8.0
34.259,2.883,1.053,1.0
122.785,10.311,3.062,9.0
123.134,10.318,2.367,8.0
74.481,6.228,1.007,11.0
74.554,6.211,3.053,24.0
74.542,6.195,2.626,21.0
74.568,6.183,2.201,26.0
74.548,6.167,1.767,34.0
74.533,6.151,1.342,25.0
74.406,6.126,0.915,25.0
74.514,6.112,2.961,32.0
74.518,6.097,2.535,32.0
74.523,6.083,2.11,34.0
74.534,6.069,1.677,39.0
74.495,6.052,1.252,34.0
74.322,6.024,0.826,30.0
74.541,6.017,2.873,25.0
74.533,6.001,2.447,31.0
74.553,5.987,2.022,39.0
74.541,5.97,1.589,33.0
74.543,5.957,1.165,28.0
74.185,5.914,0.737,24.0
128.098,10.167,4.786,9.0
74.685,5.912,2.364,7.0
74.693,5.897,1.939,11.0
74.668,5.879,1.506,26.0
74.597,5.859,1.079,26.0
73.891,5.789,0.649,20.0
129.794,10.122,4.699,13.0
130.088,10.118,3.969,13.0
103.263,8.009,2.562,8.0
119.732,9.26,2.277,6.0
74.663,5.758,0.995,12.0
58.927,4.533,0.45,18.0
131.649,10.08,4.617,13.0
132.096,10.084,3.88,10.0
132.367,10.077,3.135,10.0
132.773,10.078,2.375,9.0
74.69,5.653,0.911,18.0
57.782,4.361,0.377,32.0
133.626,10.035,4.537,11.0
66.473,4.977,1.878,3.0
66.523,4.966,1.501,124.0
66.57,4.955,1.118,150.0
66.535,4.938,0.739,23.0
55.295,4.092,0.3,29.0
157.201,11.574,5.167,21.0
114.652,8.414,3.116,25.0
139.635,10.216,3.002,5.0
103.77,7.569,1.63,79.0
74.374,5.408,0.746,32.0
54.147,3.925,0.236,28.0
157.575,11.362,5.01,21.0
114.712,8.243,2.995,24.0
139.64,10.002,2.854,29.0
0.0,0.0,0.0,0.0
74.137,5.277,0.666,43.0
47.55,3.374,0.158,10.0
157.918,11.141,4.856,43.0
114.5,8.051,2.872,35.0
114.698,8.036,2.225,11.0
96.671,6.75,1.317,2.0
73.779,5.135,0.587,17.0
46.415,3.219,0.106,20.0
157.977,10.893,4.698,52.0
114.485,7.865,2.754,43.0
139.559,9.556,2.567,7.0
80.852,5.516,1.02,4.0
58.278,3.961,0.405,13.0
42.479,2.878,0.055,17.0
158.056,10.643,4.542,45.0
114.51,7.681,2.642,53.0
139.625,9.333,2.43,29.0
78.187,5.207,0.91,8.0
0.0,0.0,0.0,0.0
41.613,2.751,0.013,11.0
158.121,10.387,4.391,24.0
114.696,7.504,2.535,26.0
139.591,9.099,2.296,45.0
0.0,0.0,0.0,0.0
54.843,3.547,0.276,28.0
41.257,2.658,-0.025,46.0
157.989,10.111,4.237,15.0
139.707,8.904,2.956,12.0
33.442,2.122,0.518,1.0
33.426,2.113,0.326,2.0
33.45,2.106,0.137,6.0
33.273,2.086,-0.051,1.0
33.459,2.083,0.866,153.0
33.467,2.075,0.677,154.0
33.452,2.065,0.488,54.0
33.427,2.055,0.295,4.0
33.475,2.049,0.107,7.0
40.173,2.45,-0.097,32.0
157.37,9.528,3.937,10.0
0.0,0.0,0.0,0.0
120.851,7.253,1.658,12.0
73.83,4.411,0.589,28.0
46.925,2.791,0.109,20.0
40.195,2.38,-0.132,4.0
162.368,9.544,3.923,19.0
162.154,9.486,3.002,5.0
96.454,5.618,1.242,8.0
73.526,4.261,0.524,14.0
0.0,0.0,0.0,0.0
36.404,2.091,-0.15,27.0
163.333,9.309,3.811,15.0
105.967,6.009,1.874,16.0
81.601,4.604,0.983,3.0
73.417,4.123,0.464,7.0
42.686,2.385,0.029,17.0
35.929,1.998,-0.177,22.0
162.745,8.978,3.666,19.0
105.791,5.805,1.787,13.0
78.328,4.276,0.881,14.0
55.238,2.999,0.305,9.0
41.811,2.259,-0.004,17.0
35.707,1.92,-0.204,22.0
162.509,8.663,3.535,19.0
105.785,5.608,1.705,22.0
77.846,4.105,0.816,21.0
54.823,2.875,0.261,29.0
41.071,2.142,-0.034,32.0
35.788,1.856,-0.231,10.0
167.106,8.594,3.51,9.0
105.82,5.411,1.628,41.0
76.908,3.911,0.751,24.0
54.348,2.748,0.22,28.0
40.728,2.048,-0.063,46.0
35.638,1.782,-0.255,6.0
0.0,0.0,0.0,0.0
105.72,5.208,1.553,2.0
0.0,0.0,0.0,0.0
54.279,2.642,0.182,20.0
40.282,1.949,-0.09,44.0
35.628,1.713,-0.279,7.0
0.0,0.0,0.0,0.0
105.808,5.008,1.483,7.0
0.0,0.0,0.0,0.0
48.894,2.286,0.132,23.0
40.329,1.873,-0.116,31.0
35.647,1.645,-0.303,7.0
0.0,0.0,0.0,0.0
96.232,4.369,1.288,6.0
73.79,3.327,0.574,14.0
48.176,2.158,0.1,24.0
39.886,1.775,-0.14,34.0
35.525,1.57,-0.324,3.0
0.0,0.0,0.0,0.0
95.952,4.169,1.227,4.0
73.699,3.179,0.529,11.0
47.705,2.044,0.071,25.0
39.77,1.692,-0.163,3.0
32.846,1.387,-0.318,1.0
0.0,0.0,0.0,0.0
91.279,3.786,1.115,3.0
59.579,2.452,0.394,11.0
46.989,1.92,0.043,23.0
36.532,1.482,-0.17,32.0
32.402,1.304,-0.331,1.0
0.0,0.0,0.0,0.0
79.617,3.144,0.93,9.0
59.406,2.327,0.362,33.0
0.0,0.0,0.0,0.0
36.503,1.407,-0.189,34.0
31.919,1.22,-0.343,1.0
0.0,0.0,0.0,0.0
79.418,2.974,0.887,12.0
59.136,2.196,0.33,33.0
46.998,1.73,-0.004,21.0
36.433,1.33,-0.206,29.0
31.455,1.138,-0.353,1.0
0.0,0.0,0.0,0.0
78.202,2.77,0.837,14.0
59.088,2.074,0.303,27.0
46.578,1.62,-0.025,17.0
36.434,1.255,-0.222,23.0
31.067,1.061,-0.363,1.0
0.0,0.0,0.0,0.0
78.201,2.61,0.803,31.0
58.741,1.941,0.276,17.0
42.695,1.397,-0.04,6.0
36.466,1.182,-0.238,12.0
30.826,0.989,-0.372,2.0
100.653,3.184,1.554,2.0
77.999,2.442,0.77,41.0
58.783,1.821,0.253,12.0
40.601,1.245,-0.054,17.0
36.486,1.107,-0.251,12.0
30.774,0.924,-0.383,2.0
100.554,2.974,1.516,2.0
77.958,2.279,0.742,44.0
54.689,1.58,0.216,13.0
0.0,0.0,0.0,0.0
36.467,1.03,-0.264,11.0
30.389,0.848,-0.389,2.0
106.076,2.915,1.564,16.0
77.897,2.115,0.716,28.0
54.816,1.47,0.199,22.0
42.587,1.128,-0.085,4.0
36.529,0.955,-0.276,8.0
30.171,0.779,-0.395,2.0
106.114,2.693,1.533,58.0
77.91,1.952,0.693,23.0
54.404,1.345,0.182,19.0
39.604,0.966,-0.09,31.0
36.593,0.88,-0.286,6.0
30.117,0.714,-0.402,2.0
106.248,2.475,1.508,6.0
77.823,1.786,0.673,26.0
54.802,1.24,0.17,5.0
39.449,0.879,-0.099,38.0
36.671,0.805,-0.295,6.0
29.9,0.646,-0.406,2.0
90.151,1.911,1.26,1.0
77.82,1.624,0.657,17.0
54.694,1.122,0.159,5.0
39.37,0.794,-0.107,41.0
36.75,0.729,-0.303,8.0
29.801,0.581,-0.41,2.0
121.235,2.316,1.672,9.0
77.648,1.457,0.641,15.0
54.566,1.004,0.149,6.0
39.276,0.709,-0.113,38.0
36.834,0.652,-0.309,5.0
29.713,0.516,-0.414,2.0
126.219,2.14,1.722,18.0
77.793,1.292,0.632,26.0
54.725,0.89,0.142,7.0
39.259,0.625,-0.118,42.0
37.007,0.577,-0.315,2.0
29.669,0.452,-0.416,2.0
126.284,1.875,1.709,18.0
0.0,0.0,0.0,0.0
48.003,0.68,0.12,59.0
39.112,0.54,-0.121,43.0
37.122,0.499,-0.319,2.0
29.625,0.388,-0.418,2.0
48.195,0.613,0.649,36.0
48.081,0.595,0.382,81.0
47.975,0.576,0.117,68.0
39.16,0.457,-0.123,43.0
37.249,0.421,-0.322,1.0
29.622,0.324,-0.419,2.0
48.102,0.509,0.646,105.0
48.061,0.491,0.381,101.0
47.971,0.473,0.116,69.0
39.276,0.374,-0.124,37.0
37.36,0.343,-0.324,1.0
29.62,0.261,-0.419,2.0
48.095,0.406,0.646,126.0
48.061,0.388,0.381,97.0
48.011,0.371,0.117,61.0
39.456,0.291,-0.124,38.0
37.613,0.264,-0.325,1.0
29.596,0.197,-0.418,2.0
48.19,0.303,0.649,55.0
55.096,0.327,0.439,19.0
54.739,0.305,0.136,28.0
39.684,0.207,-0.122,31.0
37.666,0.183,-0.323,5.0
29.653,0.134,-0.417,2.0
79.463,0.329,1.076,151.0
77.018,0.293,0.621,56.0
54.444,0.187,0.14,29.0
40.203,0.123,-0.12,16.0
37.942,0.103,-0.321,0.0
29.658,0.07,-0.413,2.0
79.463,0.16,1.085,151.0
79.422,0.131,0.65,22.0
54.692,0.072,0.148,23.0
40.606,0.038,-0.116,17.0
37.999,0.022,-0.316,1.0
29.836,0.007,-0.412,2.0
79.461,-0.008,1.097,152.0
79.336,-0.037,0.662,59.0
0.0,0.0,0.0,0.0
41.353,-0.048,-0.111,19.0
37.448,-0.058,-0.305,1.0
29.904,-0.056,-0.407,2.0
79.462,-0.178,1.112,151.0
79.377,-0.206,0.678,150.0
55.966,-0.166,0.172,25.0
42.245,-0.14,-0.104,17.0
37.103,-0.136,-0.294,1.0
30.001,-0.121,-0.402,2.0
79.456,-0.348,1.13,152.0
79.472,-0.377,0.697,158.0
56.113,-0.286,0.186,8.0
42.141,-0.23,-0.094,4.0
39.619,-0.23,-0.304,5.0
30.201,-0.186,-0.397,1.0
79.457,-0.518,1.152,167.0
79.458,-0.545,0.718,150.0
56.635,-0.409,0.203,7.0
47.9,-0.363,-0.093,6.0
40.149,-0.319,-0.297,1.0
30.376,-0.252,-0.39,2.0
79.451,-0.686,1.175,181.0
79.457,-0.714,0.743,151.0
61.167,-0.572,0.239,0.0
50.849,-0.493,-0.083,20.0
38.552,-0.387,-0.272,11.0
30.651,-0.319,-0.383,2.0
79.406,-0.852,1.201,241.0
79.443,-0.882,0.77,150.0
0.0,0.0,0.0,0.0
54.633,-0.645,-0.069,3.0
42.208,-0.514,-0.283,2.0
30.913,-0.387,-0.375,1.0
86.96,-1.118,1.349,145.0
86.901,-1.148,0.875,6.0
0.0,0.0,0.0,0.0
53.203,-0.741,-0.047,2.0
42.033,-0.601,-0.265,0.0
31.312,-0.458,-0.367,1.0
205.359,-3.068,3.269,38.0
123.827,-1.895,1.299,12.0
77.745,-1.217,0.393,1.0
40.293,-0.646,-0.018,3.0
40.249,-0.659,-0.236,10.0
31.846,-0.533,-0.359,1.0
205.408,-3.501,3.362,59.0
40.251,-0.699,0.44,40.0
40.255,-0.714,0.222,49.0
40.285,-0.729,0.0,66.0
40.301,-0.744,-0.217,9.0
32.747,-0.616,-0.354,1.0
40.188,-0.768,0.677,40.0
40.237,-0.783,0.46,46.0
40.297,-0.798,0.242,21.0
0.0,0.0,0.0,0.0
0.0,0.0,0.0,0.0
33.252,-0.695,-0.342,1.0
40.257,-0.852,0.699,57.0
40.296,-0.867,0.482,10.0
40.297,-0.882,0.264,2.0
40.259,-0.895,0.042,77.0
40.285,-0.91,-0.175,26.0
33.555,-0.77,-0.327,0.0
40.231,-0.935,0.721,75.0
40.293,-0.95,0.504,77.0
40.301,-0.965,0.287,0.0
0.0,0.0,0.0,0.0
40.97,-1.01,-0.154,11.0
34.519,-0.863,-0.316,0.0
40.205,-1.016,0.744,64.0
40.206,-1.03,0.527,60.0
40.178,-1.044,0.31,62.0
40.192,-1.058,0.089,51.0
40.988,-1.094,-0.129,159.0
36.746,-0.994,-0.313,0.0
40.261,-1.099,0.77,2.0
40.269,-1.113,0.553,1.0
40.218,-1.126,0.336,43.0
40.185,-1.14,0.115,49.0
40.203,-1.154,-0.1,60.0
40.116,-1.166,-0.316,1.0
40.355,-1.182,0.799,25.0
40.352,-1.196,0.581,5.0
0.0,0.0,0.0,0.0
0.0,0.0,0.0,0.0
0.0,0.0,0.0,0.0
40.295,-1.251,-0.29,6.0
40.341,-1.262,0.826,12.0
40.365,-1.276,0.61,2.0
126.469,-4.043,1.23,2.0
0.0,0.0,0.0,0.0
0.0,0.0,0.0,0.0
40.066,-1.323,-0.259,0.0
0.0,0.0,0.0,0.0
0.0,0.0,0.0,0.0
0.0,0.0,0.0,0.0
0.0,0.0,0.0,0.0
0.0,0.0,0.0,0.0
40.152,-1.405,-0.229,1.0
0.0,0.0,0.0,0.0
0.0,0.0,0.0,0.0
0.0,0.0,0.0,0.0
0.0,0.0,0.0,0.0
0.0,0.0,0.0,0.0
40.12,-1.482,-0.197,150.0
0.0,0.0,0.0,0.0
0.0,0.0,0.0,0.0
0.0,0.0,0.0,0.0
0.0,0.0,0.0,0.0
0.0,0.0,0.0,0.0
37.802,-1.469,-0.155,158.0
0.0,0.0,0.0,0.0
174.524,-6.875,3.184,74.0
0.0,0.0,0.0,0.0
0.0,0.0,0.0,0.0
0.0,0.0,0.0,0.0
37.804,-1.54,-0.123,4.0
0.0,0.0,0.0,0.0
174.586,-7.205,3.334,58.0
174.515,-7.259,2.399,34.0
0.0,0.0,0.0,0.0
0.0,0.0,0.0,0.0
50.5,-2.151,-0.12,3.0
0.0,0.0,0.0,0.0
0.0,0.0,0.0,0.0
0.0,0.0,0.0,0.0
0.0,0.0,0.0,0.0
0.0,0.0,0.0,0.0
50.547,-2.246,-0.074,1.0
0.0,0.0,0.0,0.0
0.0,0.0,0.0,0.0
0.0,0.0,0.0,0.0
0.0,0.0,0.0,0.0
0.0,0.0,0.0,0.0
0.0,0.0,0.0,0.0
0.0,0.0,0.0,0.0
0.0,0.0,0.0,0.0
0.0,0.0,0.0,0.0
126.404,-5.993,1.402,2.0
0.0,0.0,0.0,0.0
60.183,-2.892,0.026,1.0
0.0,0.0,0.0,0.0
0.0,0.0,0.0,0.0
0.0,0.0,0.0,0.0
0.0,0.0,0.0,0.0
0.0,0.0,0.0,0.0
59.999,-2.989,0.086,1.0
0.0,0.0,0.0,0.0
0.0,0.0,0.0,0.0
0.0,0.0,0.0,0.0
0.0,0.0,0.0,0.0
63.389,-3.267,0.156,2.0
0.0,0.0,0.0,0.0
0.0,0.0,0.0,0.0
0.0,0.0,0.0,0.0
0.0,0.0,0.0,0.0
0.0,0.0,0.0,0.0
228.122,-12.387,3.467,88.0
0.0,0.0,0.0,0.0
0.0,0.0,0.0,0.0
278.903,-15.362,9.021,10.0
0.0,0.0,0.0,0.0
0.0,0.0,0.0,0.0
227.954,-12.761,3.719,153.0
0.0,0.0,0.0,0.0
0.0,0.0,0.0,0.0
271.328,-15.395,9.079,10.0
0.0,0.0,0.0,0.0
0.0,0.0,0.0,0.0
0.0,0.0,0.0,0.0
0.0,0.0,0.0,0.0
0.0,0.0,0.0,0.0
212.499,-12.402,7.352,10.0
279.228,-16.371,8.178,26.0
279.189,-16.45,6.697,39.0
0.0,0.0,0.0,0.0
0.0,0.0,0.0,0.0
0.0,0.0,0.0,0.0
212.131,-12.714,7.584,33.0
0.0,0.0,0.0,0.0
263.539,-15.943,6.629,99.0
0.0,0.0,0.0,0.0
187.379,-11.438,2.708,255.0
0.0,0.0,0.0,0.0
213.012,-13.094,7.867,10.0
244.245,-15.079,7.724,26.0
263.244,-16.322,6.932,45.0
265.336,-16.524,5.554,10.0
187.182,-11.709,2.928,19.0
0.0,0.0,0.0,0.0
208.781,-13.147,7.959,10.0
212.581,-13.443,6.978,7.0
248.362,-15.768,6.837,255.0
265.424,-16.924,5.877,9.0
187.208,-11.988,3.155,150.0
0.0,0.0,0.0,0.0
205.487,-13.243,8.086,7.0
208.367,-13.482,7.095,28.0
248.301,-16.131,7.142,43.0
244.524,-15.946,5.714,53.0
187.206,-12.258,3.386,150.0
0.0,0.0,0.0,0.0
204.08,-13.445,8.284,26.0
208.545,-13.793,7.362,26.0
208.82,-13.862,6.264,38.0
237.186,-15.803,5.839,44.0
0.0,0.0,0.0,0.0
186.924,-12.552,2.629,4.0
211.663,-14.245,8.86,6.0
204.945,-13.84,7.494,54.0
208.51,-14.133,6.523,23.0
212.813,-14.477,5.511,41.0
221.083,-15.092,4.557,22.0
161.087,-11.036,2.469,3.0
196.572,-13.493,8.477,8.0
208.703,-14.375,7.895,14.0
204.032,-14.103,6.641,37.0
212.744,-14.753,5.779,27.0
212.935,-14.818,4.659,78.0
155.305,-10.846,2.58,4.0
156.16,-10.929,6.937,5.0
196.551,-13.798,7.691,39.0
196.237,-13.822,6.643,23.0
204.852,-14.474,5.832,49.0
204.921,-14.527,4.754,34.0
154.809,-11.012,2.776,4.0
156.36,-11.145,7.153,5.0
164.466,-11.757,6.654,44.0
195.225,-14.001,6.868,35.0
196.488,-14.136,5.857,9.0
204.988,-14.794,5.028,21.0
0.0,0.0,0.0,0.0
157.788,-11.445,7.428,14.0
197.555,-14.371,8.255,7.0
164.506,-12.003,6.006,22.0
196.179,-14.356,6.11,66.0
213.135,-15.643,5.513,23.0
284.836,-20.97,5.869,33.0
157.925,-11.647,7.647,10.0
163.819,-12.115,7.066,15.0
195.073,-14.468,7.386,26.0
197.053,-14.654,6.401,53.0
197.005,-14.692,5.362,52.0
197.034,-14.737,4.326,61.0
158.093,-11.846,7.87,5.0
156.377,-11.748,6.958,8.0
163.883,-12.345,6.428,51.0
204.77,-15.464,6.933,17.0
196.718,-14.896,5.623,60.0
197.015,-14.96,4.595,22.0
148.457,-11.294,7.594,11.0
156.178,-11.91,7.166,7.0
165.526,-12.654,6.72,41.0
164.159,-12.581,5.782,37.0
212.815,-16.35,6.377,25.0
222.392,-17.13,5.492,8.0
165.416,-12.763,8.69,17.0
156.225,-12.083,7.383,9.0
156.691,-12.147,6.578,35.0
165.429,-12.856,6.057,27.0
212.637,-16.563,6.667,30.0
212.466,-16.59,5.542,17.0
149.458,-11.692,8.062,4.0
150.05,-11.763,7.301,18.0
163.129,-12.817,7.078,41.0
156.918,-12.357,5.965,44.0
164.419,-12.976,5.385,16.0
206.374,-16.325,5.675,9.0
108.997,-8.638,6.033,3.0
149.681,-11.887,7.495,16.0
166.536,-13.251,7.46,14.0
158.021,-12.601,6.231,36.0
157.055,-12.551,5.367,16.0
164.696,-13.191,4.762,14.0
106.385,-8.535,6.04,6.0
166.772,-13.406,8.587,4.0
158.805,-12.791,7.34,14.0
163.764,-13.215,6.691,39.0
157.744,-12.755,5.616,37.0
204.022,-16.531,6.191,20.0
108.493,-8.807,6.315,9.0
150.88,-12.268,7.986,19.0
150.632,-12.271,7.181,23.0
150.06,-12.247,6.346,37.0
163.883,-13.401,6.067,38.0
157.317,-12.886,4.996,50.0
145.168,-11.914,8.659,3.0
106.358,-8.742,5.782,4.0
159.014,-13.092,7.805,6.0
158.651,-13.085,6.935,15.0
163.913,-13.541,6.302,15.0
157.574,-13.041,5.23,30.0
122.7,-10.174,7.494,8.0
108.564,-9.015,6.058,5.0
148.323,-12.336,7.495,12.0
163.713,-13.638,7.394,11.0
149.933,-12.511,5.983,51.0
164.14,-13.717,5.685,23.0
106.417,-8.91,6.655,2.0
108.31,-9.081,6.201,11.0
108.535,-9.114,5.642,2.0
166.934,-14.037,7.78,5.0
158.319,-13.333,6.545,32.0
156.769,-13.223,5.657,24.0
114.976,-9.716,7.358,3.0
122.616,-10.375,7.2,11.0
106.359,-9.012,5.684,7.0
108.912,-9.24,5.235,2.0
158.369,-13.454,6.779,34.0
149.974,-12.76,5.633,36.0
99.035,-8.442,6.484,8.0
115.401,-9.847,6.945,5.0
108.553,-9.274,5.96,6.0
148.559,-12.708,7.358,25.0
205.253,-17.578,9.086,16.0
165.923,-14.229,6.47,38.0
100.541,-8.638,6.729,5.0
115.901,-9.967,7.144,11.0
122.312,-10.53,6.892,8.0
161.366,-13.907,8.225,4.0
205.327,-17.716,9.384,5.0
165.97,-14.337,6.71,29.0
97.507,-8.438,6.667,5.0
106.061,-9.187,6.69,4.0
122.585,-10.629,7.085,10.0
105.952,-9.195,5.555,10.0
148.521,-12.904,7.003,12.0
166.06,-14.443,6.956,56.0
97.619,-8.507,6.818,9.0
108.15,-9.431,6.98,13.0
115.394,-10.072,6.839,5.0
108.499,-9.479,5.845,9.0
148.49,-12.985,7.217,13.0
166.05,-14.533,7.197,8.0
86.445,-7.58,6.163,3.0
98.175,-8.615,6.48,3.0
105.787,-9.291,6.422,6.0
122.51,-10.767,6.78,16.0
148.556,-13.066,7.437,10.0
148.55,-13.077,6.653,44.0
86.413,-7.621,6.287,3.0
87.195,-7.695,5.883,5.0
106.042,-9.364,6.592,14.0
122.468,-10.821,6.954,9.0
148.373,-13.119,7.64,13.0
146.723,-12.983,6.782,4.0
106.573,-9.448,7.907,7.0
98.086,-8.7,6.758,11.0
106.094,-9.416,6.748,13.0
122.139,-10.845,7.111,9.0
148.338,-13.179,7.853,16.0
146.894,-13.059,7.001,2.0
84.747,-7.549,6.411,5.0
97.786,-8.713,6.879,8.0
108.315,-9.656,7.045,5.0
115.238,-10.277,6.873,17.0
122.446,-10.925,6.656,8.0
108.591,-9.694,5.33,4.0
84.749,-7.581,6.532,10.0
97.822,-8.752,7.021,6.0
84.512,-7.564,5.618,3.0
105.951,-9.486,6.47,16.0
122.449,-10.966,6.83,17.0
106.402,-9.533,5.372,8.0
105.351,-9.458,8.271,10.0
98.101,-8.808,7.181,8.0
106.043,-9.524,7.2,17.0
106.087,-9.53,6.631,15.0
122.251,-10.984,6.994,15.0
106.411,-9.564,5.524,6.0
105.205,-9.475,8.409,9.0
84.722,-7.63,6.322,10.0
98.142,-8.84,6.803,7.0
99.222,-8.939,6.341,9.0
122.215,-11.012,7.163,8.0
122.49,-11.038,6.533,11.0
105.137,-9.494,8.555,11.0
84.724,-7.651,6.443,33.0
97.914,-8.842,6.927,11.0
106.003,-9.572,6.925,19.0
105.935,-9.567,6.359,3.0
122.472,-11.061,6.704,36.0
96.997,-8.778,8.029,10.0
84.729,-7.667,6.563,13.0
98.164,-8.882,7.082,11.0
98.509,-8.913,6.573,4.0
85.639,-7.747,5.26,5.0
122.34,-11.068,6.867,23.0
99.828,-9.05,8.404,11.0
105.993,-9.607,8.358,11.0
84.296,-7.639,6.198,4.0
84.573,-7.663,5.76,3.0
106.062,-9.607,6.661,11.0
124.279,-11.256,7.147,7.0
99.815,-9.06,8.542,13.0
105.938,-9.613,8.5,4.0
84.703,-7.684,6.345,10.0
97.911,-8.879,6.803,9.0
106.083,-9.617,6.809,24.0
115.275,-10.449,6.788,28.0
104.812,-9.521,9.114,5.0
97.027,-8.81,7.918,8.0
84.669,-7.684,6.459,14.0
98.008,-8.891,6.944,11.0
86.982,-7.888,5.701,3.0
105.923,-9.604,6.379,5.0
96.593,-8.777,8.53,6.0
96.94,-8.803,8.044,9.0
105.821,-9.605,8.216,16.0
83.986,-7.619,6.064,10.0
98.646,-8.946,6.596,6.0
105.997,-9.608,6.525,6.0
96.538,-8.77,8.655,12.0
85.837,-7.793,7.237,4.0
105.96,-9.614,8.367,12.0
99.894,-9.058,7.346,4.0
86.431,-7.833,5.895,2.0
115.491,-10.462,7.261,16.0
84.508,-7.672,7.689,3.0
99.796,-9.053,8.546,9.0
85.798,-7.777,6.889,3.0
84.715,-7.674,6.341,11.0
86.368,-7.819,6.003,4.0
106.066,-9.597,6.806,18.0
98.758,-8.956,9.115,10.0
96.98,-8.786,8.432,10.0
105.064,-9.511,8.572,9.0
84.729,-7.665,6.451,39.0
97.943,-8.853,6.933,12.0
87.079,-7.866,5.7,4.0
98.712,-8.937,9.238,8.0
96.868,-8.762,8.546,7.0
97.006,-8.766,8.039,9.0
84.713,-7.649,6.557,14.0
98.17,-8.856,7.074,10.0
106.013,-9.556,7.074,24.0
98.669,-8.913,9.362,16.0
84.537,-7.629,7.567,10.0
97.056,-8.75,8.166,2.0
105.238,-9.479,8.28,7.0
98.081,-8.827,7.192,6.0
84.56,-7.602,5.749,3.0
98.649,-8.889,9.484,16.0
84.544,-7.61,7.673,5.0
85.493,-7.687,7.3,4.0
105.184,-9.447,8.406,6.0
84.738,-7.603,6.318,5.0
98.103,-8.794,6.79,12.0
98.518,-8.85,9.593,11.0
98.812,-8.867,9.089,3.0
85.322,-7.647,7.389,12.0
116.508,-10.43,9.452,7.0
84.733,-7.577,6.419,7.0
97.756,-8.732,6.883,7.0
101.205,-9.061,9.978,5.0
96.472,-8.625,8.99,4.0
83.915,-7.493,7.368,6.0
108.788,-9.702,8.956,7.0
84.818,-7.555,6.527,9.0
84.476,-7.516,6.048,2.0
84.805,-7.562,8.462,3.0
83.238,-7.412,7.855,4.0
84.392,-7.505,7.509,10.0
105.428,-9.363,8.802,8.0
84.989,-7.538,6.639,8.0
106.102,-9.399,7.717,11.0
84.585,-7.51,8.537,8.0
83.263,-7.381,7.954,4.0
84.526,-7.482,7.617,8.0
96.881,-8.564,8.199,8.0
105.715,-9.332,8.376,15.0
105.979,-9.343,7.827,15.0
83.921,-7.414,8.566,2.0
98.593,-8.697,9.53,3.0
107.618,-9.478,9.821,4.0
96.906,-8.522,8.31,9.0
100.892,-8.859,8.108,7.0
105.948,-9.29,7.943,15.0
83.916,-7.375,8.658,3.0
99.587,-8.737,9.736,14.0
107.638,-9.428,9.94,3.0
96.899,-8.474,8.414,11.0
100.948,-8.814,8.22,6.0
105.78,-9.222,8.043,13.0
83.958,-7.336,8.754,3.0
98.58,-8.598,9.744,4.0
85.383,-7.434,7.976,9.0
115.372,-10.028,10.141,10.0
108.041,-9.376,8.912,20.0
105.708,-9.159,8.149,24.0
83.975,-7.291,8.845,3.0
0.0,0.0,0.0,0.0
85.461,-7.394,8.071,10.0
97.179,-8.392,8.642,2.0
105.658,-9.109,8.823,27.0
97.881,-8.424,7.645,13.0
84.019,-7.246,8.935,3.0
98.47,-8.477,9.935,6.0
105.647,-9.078,10.084,14.0
97.022,-8.32,8.725,2.0
106.432,-9.11,8.994,17.0
84.607,-7.229,6.692,12.0
108.097,-9.257,11.604,6.0
84.752,-7.243,8.635,9.0
105.708,-9.015,10.196,8.0
97.027,-8.259,8.82,4.0
106.483,-9.046,9.101,16.0
84.656,-7.178,6.777,5.0
0.0,0.0,0.0,0.0
83.842,-7.109,8.624,1.0
108.426,-9.175,10.561,6.0
106.602,-9.002,9.792,19.0
106.248,-8.954,9.181,11.0
84.689,-7.123,6.858,10.0
0.0,0.0,0.0,0.0
105.68,-8.888,10.968,4.0
99.309,-8.333,9.764,9.0
106.521,-8.919,9.882,2.0
97.138,-8.117,8.482,5.0
84.915,-7.081,6.953,14.0
0.0,0.0,0.0,0.0
0.0,0.0,0.0,0.0
106.359,-8.847,10.552,7.0
106.384,-8.829,9.962,4.0
98.139,-8.126,8.656,3.0
84.687,-6.997,7.008,14.0
0.0,0.0,0.0,0.0
99.641,-8.23,10.517,5.0
100.036,-8.243,10.01,2.0
106.849,-8.784,10.097,2.0
105.335,-8.641,9.377,8.0
97.265,-7.96,8.129,3.0
0.0,0.0,0.0,0.0
0.0,0.0,0.0,0.0
0.0,0.0,0.0,0.0
105.255,-8.569,10.031,3.0
107.789,-8.754,9.683,6.0
107.729,-8.729,9.089,12.0
0.0,0.0,0.0,0.0
0.0,0.0,0.0,0.0
0.0,0.0,0.0,0.0
0.0,0.0,0.0,0.0
98.362,-7.906,8.911,5.0
107.891,-8.65,9.185,9.0
0.0,0.0,0.0,0.0
0.0,0.0,0.0,0.0
0.0,0.0,0.0,0.0
0.0,0.0,0.0,0.0
105.397,-8.38,9.625,2.0
107.35,-8.513,9.217,2.0
0.0,0.0,0.0,0.0
0.0,0.0,0.0,0.0
0.0,0.0,0.0,0.0
0.0,0.0,0.0,0.0
108.636,-8.539,9.997,6.0
106.264,-8.332,9.195,13.0
0.0,0.0,0.0,0.0
0.0,0.0,0.0,0.0
0.0,0.0,0.0,0.0
0.0,0.0,0.0,0.0
0.0,0.0,0.0,0.0
105.944,-8.207,9.237,6.0
0.0,0.0,0.0,0.0
0.0,0.0,0.0,0.0
0.0,0.0,0.0,0.0
0.0,0.0,0.0,0.0
0.0,0.0,0.0,0.0
105.871,-8.099,9.296,1.0
0.0,0.0,0.0,0.0
0.0,0.0,0.0,0.0
0.0,0.0,0.0,0.0
0.0,0.0,0.0,0.0
0.0,0.0,0.0,0.0
0.0,0.0,0.0,0.0
0.0,0.0,0.0,0.0
0.0,0.0,0.0,0.0
0.0,0.0,0.0,0.0
0.0,0.0,0.0,0.0
0.0,0.0,0.0,0.0
108.663,-8.096,9.661,2.0
0.0,0.0,0.0,0.0
0.0,0.0,0.0,0.0
0.0,0.0,0.0,0.0
0.0,0.0,0.0,0.0
0.0,0.0,0.0,0.0
0.0,0.0,0.0,0.0
0.0,0.0,0.0,0.0
0.0,0.0,0.0,0.0
0.0,0.0,0.0,0.0
0.0,0.0,0.0,0.0
0.0,0.0,0.0,0.0
0.0,0.0,0.0,0.0
0.0,0.0,0.0,0.0
0.0,0.0,0.0,0.0
0.0,0.0,0.0,0.0
0.0,0.0,0.0,0.0
0.0,0.0,0.0,0.0
0.0,0.0,0.0,0.0
0.0,0.0,0.0,0.0
0.0,0.0,0.0,0.0
0.0,0.0,0.0,0.0
0.0,0.0,0.0,0.0
0.0,0.0,0.0,0.0
0.0,0.0,0.0,0.0
0.0,0.0,0.0,0.0
0.0,0.0,0.0,0.0
0.0,0.0,0.0,0.0
0.0,0.0,0.0,0.0
0.0,0.0,0.0,0.0
0.0,0.0,0.0,0.0
0.0,0.0,0.0,0.0
0.0,0.0,0.0,0.0
0.0,0.0,0.0,0.0
0.0,0.0,0.0,0.0
0.0,0.0,0.0,0.0
0.0,0.0,0.0,0.0
0.0,0.0,0.0,0.0
0.0,0.0,0.0,0.0
0.0,0.0,0.0,0.0
0.0,0.0,0.0,0.0
0.0,0.0,0.0,0.0
0.0,0.0,0.0,0.0
0.0,0.0,0.0,0.0
0.0,0.0,0.0,0.0
0.0,0.0,0.0,0.0
0.0,0.0,0.0,0.0
0.0,0.0,0.0,0.0
0.0,0.0,0.0,0.0
48.266,-3.167,5.794,2.0
0.0,0.0,0.0,0.0
0.0,0.0,0.0,0.0
0.0,0.0,0.0,0.0
0.0,0.0,0.0,0.0
0.0,0.0,0.0,0.0
49.136,-3.165,5.906,6.0
49.292,-3.163,5.646,2.0
0.0,0.0,0.0,0.0
0.0,0.0,0.0,0.0
0.0,0.0,0.0,0.0
0.0,0.0,0.0,0.0
49.218,-3.11,5.921,21.0
49.244,-3.099,5.646,1.0
0.0,0.0,0.0,0.0
0.0,0.0,0.0,0.0
0.0,0.0,0.0,0.0
0.0,0.0,0.0,0.0
48.799,-3.024,5.874,24.0
0.0,0.0,0.0,0.0
0.0,0.0,0.0,0.0
0.0,0.0,0.0,0.0
0.0,0.0,0.0,0.0
0.0,0.0,0.0,0.0
48.751,-2.96,5.87,24.0
0.0,0.0,0.0,0.0
0.0,0.0,0.0,0.0
0.0,0.0,0.0,0.0
0.0,0.0,0.0,0.0
0.0,0.0,0.0,0.0
48.42,-2.878,5.829,13.0
0.0,0.0,0.0,0.0
49.373,-2.91,5.384,1.0
0.0,0.0,0.0,0.0
0.0,0.0,0.0,0.0
0.0,0.0,0.0,0.0
49.868,-2.902,6.0,5.0
50.336,-2.916,5.77,1.0
49.433,-2.851,5.386,2.0
0.0,0.0,0.0,0.0
0.0,0.0,0.0,0.0
0.0,0.0,0.0,0.0
49.628,-2.824,5.965,4.0
50.301,-2.849,5.76,1.0
49.387,-2.784,5.375,3.0
56.524,-3.172,5.825,5.0
0.0,0.0,0.0,0.0
0.0,0.0,0.0,0.0
0.0,0.0,0.0,0.0
50.304,-2.785,5.752,6.0
49.39,-2.721,5.367,4.0
0.0,0.0,0.0,0.0
56.958,-3.11,5.537,0.0
90.723,-4.93,8.308,1.0
0.0,0.0,0.0,0.0
50.243,-2.715,5.734,7.0
49.412,-2.658,5.358,7.0
0.0,0.0,0.0,0.0
56.598,-3.017,5.489,5.0
90.74,-4.815,8.288,2.0
0.0,0.0,0.0,0.0
48.332,-2.549,5.504,8.0
49.405,-2.593,5.344,6.0
92.674,-4.841,9.489,2.0
56.62,-2.944,5.476,4.0
90.767,-4.697,8.264,6.0
0.0,0.0,0.0,0.0
48.322,-2.485,5.489,8.0
49.45,-2.531,5.334,5.0
55.216,-2.812,5.636,1.0
63.686,-3.228,6.139,4.0
90.802,-4.581,8.238,4.0
0.0,0.0,0.0,0.0
55.449,-2.779,6.279,7.0
54.866,-2.736,5.899,6.0
55.143,-2.736,5.609,2.0
92.672,-4.576,8.9,7.0
56.704,-2.786,5.123,4.0
49.669,-2.436,5.89,6.0
48.342,-2.359,5.455,13.0
49.496,-2.403,5.302,5.0
55.076,-2.661,5.58,4.0
83.555,-4.017,7.99,8.0
56.724,-2.713,5.101,6.0
47.621,-2.273,5.626,3.0
48.346,-2.295,5.435,15.0
49.558,-2.34,5.287,5.0
55.038,-2.586,5.552,3.0
83.244,-3.891,7.923,7.0
56.716,-2.638,5.075,7.0
47.54,-2.206,5.594,5.0
48.349,-2.231,5.412,10.0
56.707,-2.603,6.023,10.0
55.018,-2.512,5.523,20.0
90.769,-4.124,8.593,7.0
56.715,-2.563,5.045,7.0
47.51,-2.141,5.566,6.0
40.531,-1.817,4.515,36.0
55.296,-2.465,5.843,4.0
57.306,-2.541,5.721,5.0
63.754,-2.811,6.001,2.0
56.775,-2.491,5.02,8.0
57.347,-2.508,6.686,5.0
48.359,-2.103,5.36,6.0
53.188,-2.301,5.59,2.0
57.275,-2.464,5.685,10.0
55.015,-2.353,5.145,5.0
56.791,-2.416,4.987,5.0
57.359,-2.432,6.653,6.0
40.536,-1.709,4.468,51.0
40.542,-1.7,4.235,2.0
63.488,-2.647,6.262,13.0
54.957,-2.279,5.105,15.0
63.491,-2.618,5.535,5.0
40.473,-1.663,4.668,52.0
40.487,-1.654,4.436,62.0
53.255,-2.163,5.528,15.0
63.575,-2.567,6.228,9.0
54.931,-2.206,5.066,10.0
56.866,-2.27,4.919,5.0
40.325,-1.604,4.622,59.0
40.474,-1.601,4.406,58.0
52.853,-2.077,5.449,24.0
55.174,-2.156,5.365,1.0
54.928,-2.134,5.027,6.0
63.471,-2.452,5.445,4.0
40.372,-1.553,4.598,67.0
40.405,-1.545,4.369,55.0
40.401,-1.535,4.135,53.0
0.0,0.0,0.0,0.0
40.776,-1.532,3.7,32.0
82.085,-3.066,6.979,10.0
40.324,-1.499,4.561,64.0
40.432,-1.494,4.34,62.0
40.453,-1.485,4.108,37.0
63.072,-2.302,6.036,7.0
40.762,-1.479,3.667,46.0
90.021,-3.246,7.581,17.0
40.421,-1.45,4.539,66.0
40.375,-1.439,4.3,45.0
54.897,-1.944,5.529,10.0
53.403,-1.88,5.065,27.0
40.811,-1.428,3.636,28.0
82.751,-2.878,6.898,12.0
40.199,-1.39,4.479,67.0
40.066,-1.376,4.232,55.0
40.95,-1.398,4.088,25.0
40.768,-1.383,3.831,30.0
40.837,-1.376,3.602,33.0
82.917,-2.777,6.837,6.0
39.957,-1.33,4.415,50.0
39.977,-1.322,4.185,61.0
40.578,-1.333,4.013,48.0
40.603,-1.325,3.777,66.0
41.08,-1.332,3.585,26.0
82.991,-2.674,6.764,31.0
39.761,-1.273,4.355,65.0
39.877,-1.268,4.136,47.0
40.687,-1.284,3.984,42.0
40.709,-1.277,3.747,63.0
40.844,-1.273,3.524,29.0
83.356,-2.58,6.712,3.0
39.476,-1.214,4.284,71.0
39.605,-1.209,4.068,51.0
40.059,-1.215,3.883,61.0
40.779,-1.228,3.712,17.0
40.844,-1.221,3.482,3.0
92.331,-2.743,7.339,15.0
39.335,-1.16,4.227,63.0
39.631,-1.16,4.029,49.0
40.277,-1.171,3.861,62.0
41.063,-1.186,3.695,29.0
54.613,-1.566,4.598,7.0
41.177,-1.172,3.229,5.0
39.305,-1.11,4.182,60.0
39.773,-1.115,4.0,51.0
49.002,-1.365,4.644,13.0
56.986,-1.576,5.065,6.0
54.493,-1.496,4.528,22.0
41.242,-1.124,3.189,37.0
39.352,-1.064,4.142,71.0
39.852,-1.069,3.963,65.0
40.984,-1.091,3.838,68.0
53.838,-1.423,4.724,9.0
41.211,-1.081,3.377,42.0
41.2,-1.073,3.138,57.0
39.478,-1.019,4.109,70.0
40.022,-1.025,3.933,54.0
40.856,-1.039,3.777,49.0
63.954,-1.613,5.536,11.0
41.245,-1.033,3.331,54.0
84.845,-2.109,6.362,26.0
39.487,-0.972,4.063,67.0
39.716,-0.97,3.855,66.0
40.84,-0.99,3.726,48.0
53.983,-1.298,4.607,14.0
41.118,-0.981,3.271,58.0
41.215,-0.976,3.04,10.0
39.485,-0.926,4.013,58.0
40.312,-0.937,3.862,30.0
40.778,-0.94,3.669,38.0
54.111,-1.239,4.55,26.0
85.955,-1.952,6.729,14.0
41.177,-0.928,2.985,9.0
39.354,-0.877,3.949,53.0
39.868,-0.881,3.769,50.0
40.677,-0.892,3.608,47.0
54.165,-1.178,4.484,24.0
41.244,-0.889,3.175,47.0
85.965,-1.839,6.12,20.0
39.213,-0.829,3.883,72.0
39.79,-0.834,3.708,53.0
40.622,-0.844,3.549,48.0
54.211,-1.118,4.416,18.0
41.231,-0.843,3.119,53.0
85.924,-1.742,6.001,37.0
39.522,-0.791,3.859,47.0
39.751,-0.788,3.65,73.0
0.0,0.0,0.0,0.0
54.206,-1.056,4.34,20.0
94.739,-1.832,7.035,6.0
126.439,-2.424,8.657,22.0
39.433,-0.746,3.795,74.0
40.05,-0.75,3.621,75.0
40.786,-0.757,3.45,29.0
54.249,-0.998,4.267,43.0
63.896,-1.165,4.654,32.0
126.477,-2.288,8.479,32.0
48.203,-0.86,4.571,11.0
49.229,-0.87,4.38,23.0
40.686,-0.712,3.382,52.0
54.267,-0.941,4.19,27.0
63.853,-1.097,4.559,28.0
124.996,-2.128,8.198,29.0
48.165,-0.808,4.496,4.0
49.693,-0.825,4.348,14.0
40.707,-0.669,3.324,59.0
41.082,-0.669,3.111,40.0
63.353,-1.023,4.43,11.0
125.085,-2.0,8.019,20.0
40.14,-0.632,3.686,50.0
40.91,-0.637,3.518,35.0
40.841,-0.63,3.274,43.0
82.01,-1.253,6.087,8.0
94.249,-1.427,6.447,45.0
94.286,-1.413,5.902,26.0
56.705,-0.835,5.121,7.0
40.674,-0.593,3.435,54.0
41.046,-0.592,3.227,40.0
63.754,-0.91,4.633,10.0
82.567,-1.167,5.52,61.0
82.754,-1.158,5.052,41.0
40.949,-0.563,3.633,33.0
40.771,-0.554,3.379,57.0
54.29,-0.731,4.183,6.0
63.536,-0.846,4.518,39.0
125.082,-1.648,8.165,14.0
82.943,-1.081,4.931,12.0
40.779,-0.521,3.553,57.0
40.744,-0.515,3.311,41.0
62.627,-0.783,4.723,14.0
63.474,-0.785,4.41,76.0
86.073,-1.053,5.48,47.0
83.263,-1.008,4.817,49.0
41.122,-0.487,3.515,44.0
49.175,-0.576,3.916,6.0
62.638,-0.726,4.622,68.0
63.376,-0.726,4.3,24.0
86.069,-0.975,5.338,20.0
83.482,-0.935,4.692,36.0
40.638,-0.445,3.407,45.0
41.407,-0.448,3.229,68.0
62.692,-0.67,4.521,26.0
77.825,-0.823,5.151,55.0
85.98,-0.897,5.189,14.0
85.433,-0.881,4.659,42.0
40.541,-0.408,3.329,76.0
41.426,-0.412,3.16,66.0
62.684,-0.616,4.415,46.0
77.741,-0.754,5.013,49.0
98.227,-0.941,5.761,36.0
93.819,-0.888,4.957,27.0
41.446,-0.382,3.333,44.0
41.627,-0.379,3.103,48.0
76.837,-0.69,5.279,13.0
77.229,-0.684,4.846,30.0
85.797,-0.75,4.883,45.0
93.691,-0.809,4.786,27.0
41.397,-0.347,3.255,60.0
75.625,-0.626,5.505,65.0
76.862,-0.628,5.145,15.0
93.498,-0.753,5.703,24.0
59.451,-0.472,3.279,95.0
79.201,-0.621,3.907,35.0
41.42,-0.315,3.184,66.0
75.598,-0.567,5.368,16.0
63.57,-0.47,4.142,38.0
59.422,-0.433,3.519,60.0
59.454,-0.427,3.174,108.0
59.472,-0.421,2.827,104.0
48.373,-0.331,3.631,16.0
63.022,-0.425,4.362,28.0
76.982,-0.511,4.877,29.0
59.416,-0.388,3.41,98.0
59.453,-0.383,3.066,106.0
59.471,-0.377,2.719,103.0
48.502,-0.297,3.552,66.0
63.255,-0.38,4.261,59.0
77.268,-0.457,4.753,34.0
59.421,-0.346,3.302,111.0
59.46,-0.34,2.956,112.0
59.474,-0.335,2.61,98.0
49.008,-0.265,3.498,70.0
63.308,-0.337,4.147,40.0
59.402,-0.31,3.544,55.0
59.436,-0.305,3.192,123.0
59.465,-0.3,2.846,114.0
59.462,-0.294,2.498,98.0
48.936,-0.232,3.401,57.0
63.532,-0.296,4.042,58.0
59.408,-0.271,3.431,115.0
59.441,-0.266,3.08,109.0
59.465,-0.261,2.734,104.0
79.418,-0.342,3.187,22.0
78.065,-0.321,5.277,24.0
63.592,-0.256,3.925,14.0
59.418,-0.234,3.319,107.0
59.451,-0.229,2.967,106.0
59.459,-0.225,2.621,97.0
79.425,-0.294,3.037,150.0
62.838,-0.22,4.127,32.0
77.717,-0.267,4.649,23.0
59.425,-0.199,3.206,102.0
59.441,-0.195,2.853,100.0
59.446,-0.19,2.506,94.0
79.422,-0.249,2.884,150.0
62.899,-0.185,4.01,75.0
59.406,-0.17,3.438,117.0
59.439,-0.166,3.092,119.0
59.445,-0.162,2.737,99.0
79.414,-0.211,3.194,41.0
79.426,-0.205,2.73,150.0
62.913,-0.151,3.886,21.0
59.408,-0.138,3.321,101.0
59.437,-0.135,2.974,102.0
59.439,-0.131,2.62,99.0
79.412,-0.17,3.036,150.0
79.411,-0.165,2.573,150.0
59.396,-0.113,3.551,67.0
59.426,-0.109,3.205,103.0
59.436,-0.106,2.857,99.0
59.436,-0.102,2.503,97.0
79.434,-0.132,2.879,151.0
79.423,-0.127,2.414,150.0
59.398,-0.085,3.432,116.0
59.427,-0.082,3.085,106.0
59.43,-0.078,2.737,100.0
79.408,-0.1,3.184,60.0
79.421,-0.096,2.719,150.0
79.43,-0.092,2.256,150.0
59.418,-0.059,3.312,113.0
59.437,-0.056,2.965,100.0
59.436,-0.053,2.617,100.0
79.419,-0.067,3.023,150.0
79.428,-0.063,2.559,150.0
79.44,-0.06,2.096,150.0
59.418,-0.035,3.192,114.0
59.427,-0.033,2.844,100.0
59.419,-0.03,2.495,98.0
79.44,-0.037,2.862,151.0
79.434,-0.034,2.397,150.0
79.43,-0.03,1.933,150.0
59.426,-0.014,3.07,114.0
59.439,-0.012,2.722,103.0
79.41,-0.012,3.171,150.0
79.427,-0.009,2.699,150.0
79.427,-0.006,2.234,150.0
79.433,-0.003,1.769,150.0
59.427,0.005,2.948,107.0
59.43,0.007,2.599,102.0
79.432,0.012,3.007,151.0
79.424,0.015,2.533,150.0
79.433,0.017,2.07,150.0
79.452,0.02,1.605,151.0
59.437,0.022,2.824,106.0
59.422,0.024,2.474,99.0
79.441,0.034,2.842,151.0
79.436,0.036,2.368,150.0
79.434,0.038,1.903,150.0
79.45,0.041,1.438,158.0
59.422,0.037,2.699,101.0
79.417,0.051,3.141,150.0
79.424,0.053,2.676,150.0
79.43,0.055,2.202,150.0
79.438,0.057,1.737,151.0
79.459,0.059,1.272,153.0
85.9,0.072,3.72,15.0
79.448,0.068,2.975,151.0
79.435,0.07,2.509,150.0
79.426,0.071,2.035,150.0
79.456,0.072,1.57,151.0
79.464,0.074,1.106,151.0
79.409,0.081,3.271,17.0
79.451,0.082,2.806,151.0
79.438,0.083,2.34,150.0
79.437,0.084,1.867,150.0
79.457,0.085,1.403,164.0
79.47,0.086,0.937,151.0
79.424,0.092,3.104,150.0
79.438,0.093,2.638,150.0
79.439,0.094,2.172,150.0
79.445,0.094,1.699,151.0
79.456,0.095,1.235,153.0
79.442,0.095,0.769,150.0
79.453,0.1,2.936,151.0
79.439,0.101,2.47,150.0
79.432,0.101,2.005,150.0
79.451,0.101,1.531,151.0
79.465,0.101,1.067,151.0
76.487,0.097,0.58,17.0
79.453,0.106,2.769,151.0
79.44,0.106,2.302,150.0
79.432,0.105,1.836,150.0
79.441,0.105,1.362,162.0
79.464,0.105,0.899,151.0
75.838,0.1,0.413,9.0
79.431,0.108,2.597,150.0
79.441,0.107,2.131,150.0
79.447,0.107,1.667,151.0
79.456,0.106,1.194,152.0
79.43,0.105,0.728,150.0
55.199,0.073,0.183,15.0
79.443,0.107,2.429,150.0
79.441,0.106,1.963,150.0
79.452,0.105,1.498,160.0
79.461,0.104,1.025,151.0
76.33,0.099,0.537,20.0
47.925,0.061,0.057,21.0
79.434,0.104,2.258,150.0
79.442,0.102,1.793,150.0
79.448,0.101,1.329,168.0
79.461,0.099,0.855,151.0
61.893,0.076,0.303,9.0
44.014,0.053,-0.041,18.0
79.446,0.097,2.09,150.0
79.452,0.095,1.625,151.0
79.451,0.094,1.159,155.0
79.415,0.092,0.685,71.0
54.842,0.062,0.151,28.0
40.17,0.044,-0.124,16.0
79.443,0.088,1.918,150.0
79.454,0.085,1.453,170.0
79.46,0.083,0.988,153.0
75.966,0.077,0.492,19.0
47.24,0.046,0.03,21.0
38.868,0.037,-0.202,14.0
79.446,0.075,1.749,151.0
79.453,0.073,1.285,159.0
79.447,0.07,0.818,150.0
61.572,0.052,0.267,7.0
0.0,0.0,0.0,0.0
38.167,0.029,-0.28,4.0
79.452,0.06,1.579,151.0
79.465,0.056,1.114,155.0
79.378,0.053,0.647,25.0
0.0,0.0,0.0,0.0
39.747,0.023,-0.145,40.0
33.181,0.018,-0.315,1.0
79.449,0.041,1.409,161.0
79.467,0.037,0.943,154.0
76.015,0.032,0.458,12.0
0.0,0.0,0.0,0.0
38.722,0.013,-0.223,14.0
31.257,0.009,-0.363,1.0
79.46,0.02,1.241,151.0
79.44,0.016,0.775,150.0
56.145,0.008,0.218,7.0
43.739,0.004,-0.089,4.0
38.054,0.001,-0.3,2.0
29.693,0.0,-0.408,2.0
79.463,-0.004,1.071,151.0
79.268,-0.008,0.605,8.0
48.194,-0.007,0.085,4.0
39.476,-0.008,-0.165,31.0
32.966,-0.009,-0.331,1.0
28.44,-0.009,-0.451,2.0
79.463,-0.031,0.903,188.0
61.814,-0.028,0.34,9.0
45.125,-0.023,-0.016,21.0
38.522,-0.022,-0.242,6.0
30.722,-0.019,-0.373,1.0
27.034,-0.019,-0.487,2.0
79.422,-0.062,0.732,150.0
55.744,-0.047,0.188,29.0
