X,Y,Z,Reflectivity
11.792,-1.063,-0.829,0.0
11.127,-1.006,-0.845,0.0
10.526,-0.955,-0.858,1.0
14.435,-1.309,-0.77,1.0
13.461,-1.224,-0.793,0.0
12.508,-1.141,-0.806,0.0
11.82,-1.082,-0.829,0.0
11.16,-1.024,-0.845,0.0
10.551,-0.972,-0.857,0.0
14.475,-1.332,-0.769,1.0
13.48,-1.244,-0.791,0.0
12.651,-1.171,-0.812,0.0
11.878,-1.103,-0.83,0.0
11.198,-1.043,-0.845,0.0
10.563,-0.987,-0.855,0.0
14.488,-1.353,-0.766,1.0
13.548,-1.269,-0.791,0.0
12.738,-1.197,-0.814,0.0
11.859,-1.118,-0.825,0.0
11.217,-1.06,-0.843,0.0
10.628,-1.008,-0.858,0.0
14.551,-1.379,-0.765,1.0
13.594,-1.292,-0.79,0.0
12.72,-1.212,-0.809,0.0
11.92,-1.139,-0.826,0.0
11.242,-1.078,-0.841,0.0
10.674,-1.026,-0.858,1.0
14.642,-1.406,-0.765,0.0
13.651,-1.315,-0.788,0.0
12.762,-1.233,-0.808,0.0
12.033,-1.165,-0.829,0.0
11.285,-1.096,-0.84,0.0
10.71,-1.043,-0.857,0.0
14.717,-1.433,-0.763,0.0
13.731,-1.34,-0.788,1.0
12.849,-1.258,-0.808,0.0
12.079,-1.186,-0.827,0.0
11.304,-1.113,-0.837,0.0
10.736,-1.06,-0.854,1.0
14.786,-1.458,-0.76,0.0
13.773,-1.362,-0.784,0.0
12.903,-1.279,-0.806,0.0
12.099,-1.203,-0.824,0.0
11.435,-1.14,-0.841,0.0
10.764,-1.076,-0.852,1.0
14.879,-1.486,-0.759,1.0
13.839,-1.385,-0.782,1.0
12.979,-1.302,-0.805,0.0
12.164,-1.224,-0.822,0.0
11.505,-1.161,-0.841,0.0
10.812,-1.094,-0.85,0.0
15.025,-1.518,-0.759,1.0
13.923,-1.41,-0.78,0.0
13.074,-1.328,-0.804,0.0
12.242,-1.246,-0.821,0.0
11.564,-1.18,-0.84,0.0
10.915,-1.117,-0.853,0.0
15.128,-1.546,-0.756,1.0
14.039,-1.439,-0.779,0.0
13.14,-1.35,-0.801,0.0
12.307,-1.267,-0.819,0.0
11.617,-1.199,-0.837,0.0
11.019,-1.14,-0.855,0.0
15.263,-1.578,-0.755,0.0
14.127,-1.464,-0.776,0.0
13.233,-1.374,-0.799,0.0
12.394,-1.29,-0.818,0.0
11.696,-1.22,-0.836,0.0
11.074,-1.158,-0.853,0.0
15.41,-1.61,-0.753,1.0
14.253,-1.493,-0.774,0.0
13.334,-1.399,-0.797,0.0
12.496,-1.314,-0.817,0.0
11.793,-1.244,-0.836,0.0
11.141,-1.178,-0.851,0.0
15.522,-1.639,-0.749,0.0
14.399,-1.523,-0.773,0.0
13.445,-1.426,-0.796,0.0
12.616,-1.341,-0.817,0.0
11.859,-1.263,-0.833,0.0
11.207,-1.196,-0.848,0.0
15.692,-1.673,-0.747,1.0
14.521,-1.552,-0.77,0.0
13.545,-1.45,-0.792,1.0
12.681,-1.361,-0.812,0.0
11.948,-1.285,-0.831,0.0
11.287,-1.217,-0.847,0.0
15.898,-1.711,-0.745,1.0
14.652,-1.58,-0.767,1.0
13.65,-1.475,-0.789,0.0
12.778,-1.384,-0.81,0.0
12.043,-1.307,-0.829,0.0
11.374,-1.237,-0.845,0.0
16.078,-1.747,-0.742,1.0
14.792,-1.61,-0.763,1.0
13.775,-1.502,-0.786,1.0
12.897,-1.409,-0.808,0.0
12.14,-1.329,-0.827,0.0
11.462,-1.258,-0.843,0.0
16.237,-1.779,-0.738,2.0
14.965,-1.643,-0.761,0.0
13.881,-1.527,-0.782,0.0
13.012,-1.434,-0.805,0.0
12.223,-1.35,-0.823,0.0
11.55,-1.278,-0.841,0.0
16.271,-1.798,-0.727,4.0
15.131,-1.675,-0.758,1.0
14.037,-1.556,-0.78,0.0
13.108,-1.456,-0.801,1.0
12.345,-1.374,-0.821,0.0
11.64,-1.298,-0.838,0.0
16.296,-1.815,-0.715,1.0
15.343,-1.712,-0.756,0.0
14.195,-1.586,-0.777,0.0
13.273,-1.486,-0.8,0.0
12.444,-1.395,-0.818,0.0
11.775,-1.323,-0.838,0.0
16.343,-1.834,-0.703,1.0
15.538,-1.746,-0.753,0.0
14.394,-1.621,-0.776,0.0
13.422,-1.514,-0.797,0.0
12.569,-1.42,-0.815,0.0
11.863,-1.342,-0.834,0.0
16.418,-1.855,-0.693,1.0
15.749,-1.783,-0.75,1.0
14.559,-1.65,-0.772,0.0
13.571,-1.541,-0.794,0.0
12.705,-1.445,-0.813,0.0
11.979,-1.365,-0.832,0.0
17.055,-1.94,-0.704,1.0
15.978,-1.821,-0.746,1.0
14.715,-1.679,-0.767,1.0
13.698,-1.565,-0.79,0.0
12.881,-1.474,-0.812,0.0
12.107,-1.388,-0.829,0.0
17.575,-2.012,-0.71,1.0
16.187,-1.856,-0.741,2.0
14.915,-1.712,-0.764,1.0
13.847,-1.592,-0.785,1.0
12.982,-1.495,-0.807,1.0
12.226,-1.41,-0.826,0.0
17.847,-2.056,-0.704,1.0
16.274,-1.877,-0.73,3.0
15.152,-1.75,-0.762,1.0
14.039,-1.623,-0.783,1.0
13.091,-1.516,-0.801,1.0
12.355,-1.433,-0.823,0.0
18.099,-2.096,-0.697,1.0
16.306,-1.891,-0.716,5.0
15.343,-1.781,-0.756,1.0
14.253,-1.657,-0.781,0.0
13.314,-1.55,-0.802,0.0
12.477,-1.454,-0.819,0.0
18.455,-2.149,-0.693,1.0
16.354,-1.906,-0.702,6.0
15.585,-1.819,-0.753,0.0
14.433,-1.686,-0.777,0.0
13.49,-1.578,-0.799,0.0
12.631,-1.479,-0.816,0.0
18.984,-2.221,-0.694,2.0
16.463,-1.928,-0.69,2.0
15.835,-1.856,-0.749,1.0
14.605,-1.714,-0.771,1.0
13.635,-1.602,-0.794,0.0
12.833,-1.51,-0.816,0.0
19.296,-2.267,-0.686,7.0
17.049,-2.005,-0.698,1.0
16.182,-1.905,-0.749,2.0
14.803,-1.745,-0.767,1.0
13.824,-1.631,-0.79,0.0
12.946,-1.529,-0.81,2.0
19.517,-2.303,-0.674,14.0
17.779,-2.099,-0.709,1.0
16.239,-1.919,-0.735,6.0
15.053,-1.781,-0.764,1.0
13.982,-1.656,-0.785,0.0
13.02,-1.543,-0.801,1.0
19.853,-2.351,-0.664,18.0
18.045,-2.138,-0.7,1.0
16.288,-1.932,-0.72,7.0
15.302,-1.816,-0.76,1.0
14.202,-1.687,-0.782,0.0
13.273,-1.578,-0.802,0.0
20.206,-2.4,-0.654,15.0
18.479,-2.197,-0.698,0.0
16.336,-1.943,-0.705,6.0
15.577,-1.855,-0.757,1.0
14.431,-1.72,-0.779,0.0
13.486,-1.608,-0.801,0.0
20.695,-2.466,-0.648,15.0
18.979,-2.263,-0.696,3.0
16.448,-1.962,-0.691,2.0
15.832,-1.89,-0.752,1.0
14.636,-1.749,-0.774,1.0
13.664,-1.634,-0.796,1.0
21.112,-2.522,-0.638,21.0
19.225,-2.298,-0.684,8.0
17.315,-2.07,-0.709,1.0
16.175,-1.935,-0.75,2.0
14.848,-1.778,-0.769,1.0
13.846,-1.659,-0.791,1.0
21.532,-2.577,-0.627,24.0
19.574,-2.344,-0.674,11.0
17.815,-2.134,-0.709,1.0
16.249,-1.948,-0.736,7.0
15.127,-1.814,-0.766,0.0
14.03,-1.684,-0.786,0.0
21.903,-2.626,-0.613,15.0
19.952,-2.393,-0.665,13.0
18.125,-2.175,-0.701,0.0
16.303,-1.957,-0.719,7.0
15.392,-1.849,-0.762,1.0
14.286,-1.717,-0.784,0.0
22.705,-2.726,-0.609,13.0
20.38,-2.448,-0.656,13.0
18.672,-2.243,-0.701,1.0
16.353,-1.966,-0.703,5.0
15.654,-1.882,-0.757,1.0
14.535,-1.749,-0.781,0.0
23.076,-2.774,-0.593,18.0
20.849,-2.506,-0.647,16.0
19.051,-2.291,-0.693,5.0
16.622,-1.999,-0.695,2.0
15.976,-1.922,-0.754,1.0
14.719,-1.772,-0.774,1.0
23.472,-2.823,-0.576,5.0
21.299,-2.562,-0.636,21.0
19.345,-2.327,-0.681,9.0
17.592,-2.117,-0.716,1.0
16.236,-1.954,-0.747,4.0
14.982,-1.804,-0.77,1.0
24.567,-2.955,-0.574,1.0
21.662,-2.606,-0.622,18.0
19.761,-2.378,-0.673,12.0
17.951,-2.16,-0.709,1.0
16.276,-1.959,-0.73,8.0
15.241,-1.835,-0.765,1.0
25.192,-3.03,-0.559,1.0
22.362,-2.69,-0.615,5.0
20.17,-2.426,-0.663,12.0
18.334,-2.205,-0.702,0.0
16.334,-1.965,-0.713,6.0
15.525,-1.868,-0.761,1.0
25.964,-3.121,-0.545,1.0
22.996,-2.764,-0.606,18.0
20.651,-2.482,-0.654,14.0
18.888,-2.27,-0.701,2.0
16.431,-1.975,-0.698,3.0
15.784,-1.897,-0.755,1.0
26.618,-3.197,-0.528,1.0
23.251,-2.792,-0.585,10.0
21.104,-2.534,-0.643,18.0
19.153,-2.299,-0.688,7.0
17.264,-2.072,-0.713,1.0
16.176,-1.942,-0.754,1.0
27.361,-3.282,-0.51,1.0
24.022,-2.881,-0.575,1.0
21.557,-2.585,-0.632,22.0
19.548,-2.343,-0.679,11.0
17.816,-2.135,-0.714,1.0
16.269,-1.95,-0.739,8.0
28.377,-3.398,-0.495,1.0
24.961,-2.988,-0.568,1.0
21.977,-2.63,-0.618,15.0
19.926,-2.384,-0.669,14.0
18.163,-2.172,-0.706,1.0
16.302,-1.949,-0.721,6.0
29.387,-3.512,-0.477,1.0
25.598,-3.058,-0.552,1.0
22.735,-2.715,-0.612,15.0
20.385,-2.433,-0.659,13.0
18.693,-2.23,-0.704,1.0
16.366,-1.952,-0.704,5.0
30.039,-3.581,-0.452,1.0
26.43,-3.149,-0.538,1.0
23.15,-2.757,-0.595,17.0
20.878,-2.485,-0.65,16.0
19.154,-2.279,-0.699,6.0
16.735,-1.99,-0.7,2.0
31.967,-3.8,-0.442,1.0
27.111,-3.221,-0.52,1.0
23.513,-2.792,-0.576,4.0
21.349,-2.533,-0.639,20.0
19.398,-2.301,-0.684,11.0
17.72,-2.101,-0.72,1.0
32.97,-3.907,-0.417,0.0
27.956,-3.31,-0.502,1.0
24.778,-2.932,-0.577,1.0
21.835,-2.582,-0.627,23.0
19.792,-2.339,-0.674,16.0
18.034,-2.13,-0.711,1.0
34.088,-4.025,-0.39,0.0
28.966,-3.417,-0.486,1.0
25.363,-2.99,-0.561,1.0
22.339,-2.631,-0.615,24.0
20.168,-2.374,-0.663,17.0
18.402,-2.165,-0.703,0.0
36.365,-4.276,-0.373,1.0
29.84,-3.506,-0.465,1.0
26.053,-3.058,-0.545,1.0
22.833,-2.678,-0.602,25.0
20.653,-2.42,-0.654,14.0
18.992,-2.224,-0.703,2.0
38.867,-4.55,-0.352,0.0
31.232,-3.653,-0.45,0.0
26.819,-3.134,-0.529,1.0
23.285,-2.718,-0.586,8.0
21.144,-2.466,-0.645,14.0
19.382,-2.259,-0.695,6.0
0.0,0.0,0.0,0.0
32.665,-3.801,-0.432,1.0
27.667,-3.216,-0.513,1.0
24.23,-2.814,-0.581,1.0
21.672,-2.515,-0.635,18.0
19.689,-2.282,-0.682,12.0
0.0,0.0,0.0,0.0
33.884,-3.922,-0.408,0.0
28.558,-3.302,-0.496,1.0
25.0,-2.887,-0.57,1.0
22.203,-2.562,-0.625,25.0
20.063,-2.312,-0.671,16.0
0.0,0.0,0.0,0.0
35.435,-4.078,-0.385,0.0
29.458,-3.386,-0.477,1.0
25.663,-2.946,-0.555,1.0
22.642,-2.596,-0.611,27.0
20.411,-2.338,-0.66,15.0
50.385,-5.77,-0.22,1.0
37.696,-4.311,-0.366,0.0
30.371,-3.469,-0.457,1.0
26.306,-3.001,-0.539,1.0
23.081,-2.63,-0.596,18.0
20.906,-2.379,-0.651,10.0
50.335,-5.727,-0.162,0.0
39.337,-4.469,-0.337,0.0
31.76,-3.603,-0.441,0.0
27.162,-3.078,-0.525,1.0
23.589,-2.669,-0.582,7.0
21.431,-2.422,-0.643,12.0
0.0,0.0,0.0,0.0
40.324,-4.55,-0.3,0.0
32.64,-3.677,-0.417,0.0
27.966,-3.146,-0.509,1.0
24.061,-2.703,-0.567,4.0
21.867,-2.453,-0.632,18.0
0.0,0.0,0.0,0.0
44.135,-4.942,-0.278,1.0
34.271,-3.831,-0.399,0.0
28.759,-3.21,-0.491,1.0
25.291,-2.819,-0.567,1.0
22.32,-2.484,-0.62,20.0
0.0,0.0,0.0,0.0
45.04,-5.004,-0.234,0.0
0.0,0.0,0.0,0.0
29.714,-3.29,-0.475,1.0
25.899,-2.863,-0.552,1.0
22.865,-2.524,-0.61,21.0
0.0,0.0,0.0,0.0
0.0,0.0,0.0,0.0
38.468,-4.23,-0.363,0.0
30.398,-3.337,-0.452,1.0
26.506,-2.905,-0.536,1.0
23.396,-2.56,-0.598,25.0
0.0,0.0,0.0,0.0
0.0,0.0,0.0,0.0
39.633,-4.32,-0.331,1.0
31.981,-3.479,-0.441,0.0
27.264,-2.961,-0.522,1.0
23.788,-2.579,-0.582,19.0
80.906,-8.77,0.275,1.0
0.0,0.0,0.0,0.0
40.86,-4.412,-0.298,0.0
32.999,-3.556,-0.42,1.0
28.019,-3.014,-0.507,1.0
24.212,-2.6,-0.568,5.0
79.633,-8.549,0.355,15.0
0.0,0.0,0.0,0.0
42.146,-4.506,-0.263,0.0
34.506,-3.682,-0.403,1.0
28.804,-3.067,-0.491,1.0
25.33,-2.692,-0.567,1.0
0.0,0.0,0.0,0.0
0.0,0.0,0.0,0.0
0.0,0.0,0.0,0.0
35.842,-3.784,-0.382,0.0
29.701,-3.13,-0.475,1.0
25.91,-2.725,-0.553,1.0
86.9,-9.138,0.565,3.0
0.0,0.0,0.0,0.0
0.0,0.0,0.0,0.0
37.713,-3.938,-0.363,1.0
30.237,-3.151,-0.453,0.0
26.473,-2.753,-0.539,1.0
86.845,-9.03,0.653,1.0
0.0,0.0,0.0,0.0
50.243,-5.2,-0.16,0.0
0.0,0.0,0.0,0.0
31.326,-3.227,-0.439,1.0
27.106,-2.786,-0.525,1.0
88.179,-9.063,0.75,1.0
0.0,0.0,0.0,0.0
50.398,-5.154,-0.112,0.0
40.833,-4.166,-0.313,0.0
32.515,-3.309,-0.424,1.0
27.802,-2.823,-0.511,1.0
90.041,-9.141,0.853,3.0
0.0,0.0,0.0,0.0
50.491,-5.099,-0.062,0.0
41.587,-4.189,-0.279,0.0
33.411,-3.357,-0.404,1.0
28.45,-2.852,-0.496,1.0
94.682,-9.491,0.986,4.0
94.933,-9.49,0.479,3.0
0.0,0.0,0.0,0.0
0.0,0.0,0.0,0.0
34.611,-3.433,-0.386,0.0
29.184,-2.887,-0.482,1.0
95.819,-9.479,1.085,3.0
90.882,-8.965,0.541,2.0
0.0,0.0,0.0,0.0
50.401,-4.945,-0.246,0.0
35.85,-3.507,-0.368,0.0
29.693,-2.897,-0.464,1.0
97.224,-9.486,1.188,1.0
0.0,0.0,0.0,0.0
0.0,0.0,0.0,0.0
50.322,-4.867,-0.201,1.0
39.217,-3.782,-0.367,0.0
30.266,-2.911,-0.447,1.0
100.747,-9.688,1.319,150.0
100.963,-9.68,0.78,2.0
0.0,0.0,0.0,0.0
50.336,-4.797,-0.158,1.0
40.0,-3.801,-0.341,0.0
31.396,-2.974,-0.436,1.0
0.0,0.0,0.0,0.0
0.0,0.0,0.0,0.0
0.0,0.0,0.0,0.0
50.503,-4.739,-0.116,0.0
41.188,-3.854,-0.317,0.0
32.2,-3.003,-0.421,0.0
108.517,-10.12,1.604,43.0
108.707,-10.106,1.02,8.0
0.0,0.0,0.0,0.0
0.0,0.0,0.0,0.0
41.416,-3.813,-0.285,0.0
32.971,-3.026,-0.404,1.0
108.644,-9.969,1.691,23.0
108.616,-9.933,1.105,170.0
91.133,-8.307,0.435,1.0
0.0,0.0,0.0,0.0
0.0,0.0,0.0,0.0
33.501,-3.023,-0.385,0.0
109.216,-9.854,1.784,6.0
108.694,-9.773,1.188,21.0
90.517,-8.112,0.501,1.0
0.0,0.0,0.0,0.0
0.0,0.0,0.0,0.0
34.575,-3.067,-0.372,0.0
0.0,0.0,0.0,0.0
110.305,-9.746,1.287,4.0
97.939,-8.621,0.613,7.0
0.0,0.0,0.0,0.0
50.427,-4.408,-0.234,0.0
36.849,-3.21,-0.37,0.0
0.0,0.0,0.0,0.0
121.76,-10.562,1.507,183.0
92.421,-7.987,0.644,1.0
0.0,0.0,0.0,0.0
50.349,-4.319,-0.198,1.0
37.359,-3.193,-0.349,0.0
0.0,0.0,0.0,0.0
121.767,-10.363,1.589,23.0
0.0,0.0,0.0,0.0
0.0,0.0,0.0,0.0
50.371,-4.238,-0.165,1.0
39.264,-3.291,-0.341,0.0
0.0,0.0,0.0,0.0
122.015,-10.182,1.671,55.0
0.0,0.0,0.0,0.0
0.0,0.0,0.0,0.0
50.309,-4.149,-0.133,1.0
39.816,-3.27,-0.321,0.0
0.0,0.0,0.0,0.0
122.178,-9.989,1.749,77.0
0.0,0.0,0.0,0.0
0.0,0.0,0.0,0.0
50.492,-4.078,-0.104,4.0
0.0,0.0,0.0,0.0
0.0,0.0,0.0,0.0
128.137,-10.257,1.909,150.0
0.0,0.0,0.0,0.0
0.0,0.0,0.0,0.0
50.498,-3.991,-0.075,1.0
41.346,-3.254,-0.286,0.0
257.525,-20.255,5.378,12.0
0.0,0.0,0.0,0.0
0.0,0.0,0.0,0.0
0.0,0.0,0.0,0.0
0.0,0.0,0.0,0.0
0.0,0.0,0.0,0.0
284.983,-21.916,6.099,14.0
148.452,-11.362,2.37,122.0
0.0,0.0,0.0,0.0
0.0,0.0,0.0,0.0
0.0,0.0,0.0,0.0
0.0,0.0,0.0,0.0
197.047,-14.8,4.315,26.0
148.676,-11.115,2.445,22.0
0.0,0.0,0.0,0.0
0.0,0.0,0.0,0.0
61.747,-4.552,0.0,2.0
0.0,0.0,0.0,0.0
284.783,-20.878,6.365,10.0
0.0,0.0,0.0,0.0
0.0,0.0,0.0,0.0
0.0,0.0,0.0,0.0
61.173,-4.399,0.026,5.0
0.0,0.0,0.0,0.0
204.86,-14.644,4.665,24.0
0.0,0.0,0.0,0.0
151.972,-10.756,1.801,5.0
0.0,0.0,0.0,0.0
62.131,-4.353,0.051,4.0
50.42,-3.515,-0.232,0.0
212.88,-14.825,4.93,86.0
0.0,0.0,0.0,0.0
0.0,0.0,0.0,0.0
0.0,0.0,0.0,0.0
62.102,-4.236,0.074,5.0
50.39,-3.419,-0.214,1.0
228.593,-15.491,5.375,63.0
187.224,-12.62,3.377,150.0
0.0,0.0,0.0,0.0
0.0,0.0,0.0,0.0
62.31,-4.133,0.095,5.0
50.286,-3.317,-0.197,0.0
244.534,-16.109,5.827,50.0
187.209,-12.264,3.435,150.0
0.0,0.0,0.0,0.0
0.0,0.0,0.0,0.0
62.485,-4.025,0.114,3.0
50.381,-3.227,-0.183,1.0
248.359,-15.886,5.989,154.0
187.243,-11.906,3.489,9.0
0.0,0.0,0.0,0.0
0.0,0.0,0.0,0.0
62.653,-3.915,0.131,2.0
50.41,-3.132,-0.17,6.0
263.453,-16.339,6.417,29.0
0.0,0.0,0.0,0.0
187.353,-11.481,2.508,151.0
0.0,0.0,0.0,0.0
0.0,0.0,0.0,0.0
50.433,-3.035,-0.159,9.0
271.865,-16.331,6.68,140.0
0.0,0.0,0.0,0.0
0.0,0.0,0.0,0.0
0.0,0.0,0.0,0.0
0.0,0.0,0.0,0.0
50.479,-2.939,-0.15,8.0
271.672,-15.782,6.721,70.0
0.0,0.0,0.0,0.0
0.0,0.0,0.0,0.0
0.0,0.0,0.0,0.0
0.0,0.0,0.0,0.0
50.426,-2.836,-0.143,1.0
0.0,0.0,0.0,0.0
0.0,0.0,0.0,0.0
0.0,0.0,0.0,0.0
0.0,0.0,0.0,0.0
0.0,0.0,0.0,0.0
50.453,-2.738,-0.137,1.0
0.0,0.0,0.0,0.0
0.0,0.0,0.0,0.0
0.0,0.0,0.0,0.0
0.0,0.0,0.0,0.0
50.464,-2.638,-0.134,8.0
0.0,0.0,0.0,0.0
0.0,0.0,0.0,0.0
0.0,0.0,0.0,0.0
50.5,-2.537,-0.133,11.0
0.0,0.0,0.0,0.0
0.0,0.0,0.0,0.0
0.0,0.0,0.0,0.0
0.0,0.0,0.0,0.0
50.451,-2.432,-0.133,8.0
0.0,0.0,0.0,0.0
0.0,0.0,0.0,0.0
0.0,0.0,0.0,0.0
0.0,0.0,0.0,0.0
50.434,-2.329,-0.135,2.0
0.0,0.0,0.0,0.0
0.0,0.0,0.0,0.0
0.0,0.0,0.0,0.0
0.0,0.0,0.0,0.0
0.0,0.0,0.0,0.0
50.483,-2.228,-0.139,3.0
0.0,0.0,0.0,0.0
0.0,0.0,0.0,0.0
0.0,0.0,0.0,0.0
0.0,0.0,0.0,0.0
0.0,0.0,0.0,0.0
50.499,-2.125,-0.145,1.0
0.0,0.0,0.0,0.0
0.0,0.0,0.0,0.0
0.0,0.0,0.0,0.0
0.0,0.0,0.0,0.0
67.691,-2.734,0.169,0.0
37.799,-1.512,-0.115,157.0
0.0,0.0,0.0,0.0
0.0,0.0,0.0,0.0
0.0,0.0,0.0,0.0
0.0,0.0,0.0,0.0
0.0,0.0,0.0,0.0
40.133,-1.523,-0.129,152.0
0.0,0.0,0.0,0.0
0.0,0.0,0.0,0.0
0.0,0.0,0.0,0.0
0.0,0.0,0.0,0.0
0.0,0.0,0.0,0.0
52.23,-1.874,-0.181,0.0
0.0,0.0,0.0,0.0
0.0,0.0,0.0,0.0
0.0,0.0,0.0,0.0
0.0,0.0,0.0,0.0
0.0,0.0,0.0,0.0
0.0,0.0,0.0,0.0
0.0,0.0,0.0,0.0
0.0,0.0,0.0,0.0
0.0,0.0,0.0,0.0
0.0,0.0,0.0,0.0
0.0,0.0,0.0,0.0
0.0,0.0,0.0,0.0
40.308,-1.271,0.949,26.0
40.32,-1.256,0.725,28.0
40.391,-1.244,0.501,4.0
0.0,0.0,0.0,0.0
40.225,-1.209,0.046,8.0
40.222,-1.195,-0.177,53.0
40.348,-1.189,0.936,29.0
119.231,-3.47,2.101,90.0
119.289,-3.429,1.436,28.0
40.183,-1.14,0.255,57.0
40.186,-1.125,0.031,66.0
41.007,-1.134,-0.196,150.0
40.205,-1.101,0.916,50.0
40.225,-1.087,0.692,44.0
40.198,-1.072,0.467,59.0
40.182,-1.056,0.239,52.0
0.0,0.0,0.0,0.0
40.979,-1.047,-0.214,12.0
40.191,-1.017,0.898,54.0
40.205,-1.003,0.674,69.0
40.263,-0.989,0.45,45.0
40.306,-0.977,0.221,150.0
40.297,-0.962,-0.003,149.0
40.286,-0.948,-0.228,24.0
40.21,-0.935,0.88,61.0
40.286,-0.922,0.656,25.0
40.284,-0.907,0.431,1.0
0.0,0.0,0.0,0.0
0.0,0.0,0.0,0.0
40.239,-0.863,-0.248,4.0
40.22,-0.851,0.859,54.0
40.227,-0.837,0.634,55.0
40.234,-0.823,0.409,45.0
40.28,-0.809,0.18,47.0
40.323,-0.796,-0.045,35.0
40.22,-0.779,-0.27,6.0
40.2,-0.767,0.837,59.0
40.177,-0.753,0.611,8.0
40.245,-0.739,0.386,50.0
40.269,-0.726,0.157,53.0
40.31,-0.713,-0.068,57.0
40.164,-0.696,-0.293,6.0
248.439,-4.233,5.027,9.0
205.355,-3.428,3.004,74.0
123.79,-2.022,1.116,7.0
248.312,-3.97,0.82,38.0
50.671,-0.792,-0.116,1.0
38.345,-0.586,-0.303,0.0
183.405,-2.752,3.597,66.0
183.38,-2.69,2.568,22.0
87.946,-1.258,0.737,12.0
0.0,0.0,0.0,0.0
51.266,-0.698,-0.15,2.0
35.694,-0.474,-0.305,0.0
79.434,-1.03,1.505,14.0
79.436,-1.003,1.059,150.0
79.137,-0.972,0.61,30.0
62.506,-0.745,0.124,5.0
47.302,-0.547,-0.171,3.0
38.548,-0.432,-0.356,0.0
79.434,-0.868,1.45,189.0
79.447,-0.84,1.003,175.0
0.0,0.0,0.0,0.0
54.106,-0.534,0.068,5.0
50.561,-0.483,-0.219,1.0
33.849,-0.312,-0.337,1.0
79.443,-0.707,1.391,174.0
79.448,-0.681,0.944,194.0
77.164,-0.634,0.483,12.0
54.497,-0.43,0.028,1.0
0.0,0.0,0.0,0.0
32.764,-0.236,-0.351,1.0
79.448,-0.548,1.33,163.0
79.453,-0.522,0.883,194.0
76.716,-0.478,0.42,11.0
47.328,-0.278,-0.012,22.0
39.606,-0.22,-0.233,6.0
31.849,-0.166,-0.367,1.0
79.447,-0.39,1.267,159.0
79.446,-0.364,0.819,150.0
61.505,-0.261,0.287,7.0
45.278,-0.177,-0.048,20.0
39.011,-0.14,-0.261,5.0
31.039,-0.1,-0.383,2.0
79.472,-0.233,1.2,151.0
79.446,-0.206,0.751,150.0
61.598,-0.139,0.234,11.0
43.177,-0.083,-0.083,20.0
38.447,-0.061,-0.291,3.0
30.366,-0.038,-0.401,2.0
79.459,-0.074,1.13,151.0
79.412,-0.048,0.68,142.0
55.753,-0.015,0.162,29.0
40.874,0.001,-0.115,17.0
38.009,0.014,-0.322,2.0
29.697,0.02,-0.419,2.0
79.47,0.079,1.058,151.0
76.825,0.102,0.588,16.0
54.168,0.088,0.108,29.0
39.667,0.078,-0.148,35.0
33.541,0.076,-0.315,0.0
29.227,0.076,-0.44,2.0
79.473,0.233,0.983,151.0
76.506,0.249,0.513,56.0
47.928,0.17,0.05,21.0
38.893,0.151,-0.182,43.0
33.104,0.139,-0.343,1.0
28.673,0.129,-0.459,2.0
59.305,0.288,0.675,24.0
55.059,0.285,0.315,60.0
46.809,0.257,0.003,32.0
38.326,0.222,-0.218,17.0
31.845,0.195,-0.362,1.0
27.952,0.18,-0.476,1.0
48.093,0.325,0.499,82.0
48.065,0.34,0.226,66.0
44.801,0.331,-0.043,21.0
37.76,0.29,-0.253,13.0
30.876,0.247,-0.382,2.0
27.234,0.226,-0.492,1.0
48.061,0.415,0.449,105.0
48.022,0.43,0.176,91.0
43.809,0.406,-0.087,9.0
37.377,0.357,-0.29,5.0
30.069,0.296,-0.404,2.0
26.77,0.272,-0.512,2.0
48.076,0.505,0.397,98.0
48.004,0.519,0.124,75.0
39.353,0.437,-0.121,33.0
36.881,0.421,-0.327,3.0
29.486,0.345,-0.429,2.0
26.268,0.315,-0.531,2.0
48.11,0.594,0.344,54.0
47.887,0.605,0.07,53.0
38.509,0.498,-0.161,48.0
33.074,0.438,-0.33,1.0
28.872,0.39,-0.452,2.0
22.197,0.307,-0.473,3.0
62.122,0.88,0.374,23.0
47.054,0.68,0.015,33.0
37.83,0.558,-0.202,39.0
32.071,0.482,-0.357,2.0
28.071,0.43,-0.472,1.0
21.69,0.339,-0.488,4.0
0.0,0.0,0.0,0.0
0.0,0.0,0.0,0.0
37.31,0.617,-0.243,13.0
30.95,0.521,-0.381,1.0
27.262,0.466,-0.49,2.0
21.131,0.367,-0.5,4.0
54.831,0.972,0.201,8.0
39.888,0.718,-0.08,15.0
36.798,0.673,-0.283,11.0
30.026,0.558,-0.405,2.0
26.715,0.504,-0.513,2.0
20.561,0.393,-0.512,4.0
51.993,1.013,0.126,9.0
39.091,0.773,-0.127,42.0
36.682,0.735,-0.328,1.0
29.313,0.595,-0.432,2.0
22.906,0.472,-0.468,4.0
19.996,0.417,-0.523,3.0
47.982,1.017,0.056,23.0
37.93,0.815,-0.171,54.0
32.844,0.714,-0.335,1.0
28.496,0.628,-0.456,2.0
21.873,0.487,-0.475,4.0
19.468,0.439,-0.534,3.0
0.0,0.0,0.0,0.0
37.018,0.857,-0.214,29.0
31.603,0.74,-0.363,1.0
27.54,0.653,-0.476,1.0
21.218,0.508,-0.488,4.0
18.999,0.46,-0.545,3.0
42.752,1.049,-0.059,6.0
36.643,0.909,-0.259,12.0
30.484,0.764,-0.39,2.0
27.05,0.685,-0.503,1.0
20.673,0.529,-0.502,4.0
18.518,0.479,-0.556,3.0
39.527,1.035,-0.107,39.0
36.322,0.96,-0.306,6.0
29.546,0.789,-0.417,1.0
23.212,0.625,-0.463,5.0
20.079,0.546,-0.515,3.0
18.04,0.495,-0.566,4.0
0.0,0.0,0.0,0.0
33.183,0.93,-0.324,1.0
28.723,0.812,-0.444,1.0
21.962,0.626,-0.467,4.0
19.501,0.561,-0.526,3.0
17.606,0.511,-0.576,2.0
36.782,1.079,-0.199,32.0
31.656,0.936,-0.352,2.0
27.764,0.828,-0.468,1.0
21.235,0.639,-0.481,4.0
18.925,0.574,-0.537,3.0
17.223,0.527,-0.587,3.0
36.42,1.125,-0.248,11.0
30.539,0.95,-0.382,2.0
24.054,0.754,-0.439,2.0
20.62,0.651,-0.496,4.0
18.42,0.586,-0.549,3.0
16.66,0.535,-0.592,2.0
36.089,1.168,-0.297,7.0
29.612,0.966,-0.413,2.0
23.136,0.76,-0.455,5.0
19.965,0.661,-0.509,3.0
17.875,0.596,-0.558,2.0
16.207,0.544,-0.599,3.0
33.379,1.131,-0.323,1.0
28.675,0.978,-0.442,1.0
21.879,0.751,-0.462,4.0
19.369,0.669,-0.522,3.0
17.449,0.607,-0.57,3.0
15.73,0.551,-0.604,3.0
31.361,1.108,-0.35,1.0
27.856,0.99,-0.47,1.0
21.097,0.755,-0.477,4.0
18.799,0.677,-0.534,3.0
17.049,0.618,-0.582,5.0
14.818,0.54,-0.591,6.0
30.318,1.114,-0.383,2.0
23.922,0.884,-0.439,5.0
20.512,0.763,-0.494,4.0
18.281,0.684,-0.547,3.0
16.467,0.62,-0.587,3.0
14.665,0.555,-0.607,13.0
29.318,1.118,-0.415,2.0
22.667,0.869,-0.451,4.0
19.794,0.763,-0.507,3.0
17.713,0.687,-0.557,4.0
15.908,0.62,-0.592,7.0
14.617,0.573,-0.628,13.0
28.391,1.121,-0.445,1.0
21.545,0.855,-0.461,4.0
19.191,0.766,-0.521,3.0
17.299,0.694,-0.571,2.0
15.305,0.617,-0.593,2.0
14.39,0.583,-0.64,14.0
24.38,0.995,-0.42,5.0
20.933,0.858,-0.48,6.0
18.613,0.767,-0.534,3.0
16.713,0.692,-0.577,2.0
14.672,0.611,-0.591,11.0
13.911,0.582,-0.641,14.0
23.207,0.977,-0.436,5.0
20.244,0.856,-0.496,3.0
18.029,0.766,-0.546,3.0
16.256,0.694,-0.587,2.0
14.64,0.628,-0.613,19.0
13.513,0.582,-0.644,13.0
21.758,0.943,-0.443,4.0
19.56,0.851,-0.51,3.0
17.537,0.767,-0.558,3.0
15.8,0.694,-0.596,3.0
14.551,0.642,-0.632,17.0
13.337,0.591,-0.656,10.0
21.178,0.943,-0.464,4.0
18.898,0.845,-0.523,3.0
17.089,0.767,-0.571,2.0
14.782,0.667,-0.58,6.0
14.174,0.642,-0.638,14.0
13.065,0.594,-0.664,10.0
20.58,0.94,-0.484,4.0
18.289,0.839,-0.535,3.0
16.444,0.757,-0.576,3.0
14.651,0.678,-0.599,24.0
13.683,0.636,-0.638,13.0
13.062,0.609,-0.685,9.0
19.85,0.93,-0.499,3.0
17.718,0.833,-0.547,4.0
16.017,0.756,-0.587,2.0
14.602,0.692,-0.621,23.0
13.441,0.639,-0.649,11.0
12.93,0.617,-0.699,4.0
19.113,0.916,-0.512,3.0
17.263,0.83,-0.561,5.0
15.218,0.735,-0.583,2.0
14.297,0.693,-0.631,14.0
13.09,0.637,-0.653,9.0
12.54,0.612,-0.698,2.0
18.538,0.908,-0.527,3.0
16.658,0.818,-0.569,3.0
14.672,0.723,-0.586,14.0
13.809,0.683,-0.632,13.0
13.062,0.649,-0.673,10.0
12.274,0.612,-0.704,3.0
17.943,0.897,-0.539,3.0
16.202,0.812,-0.58,2.0
14.609,0.735,-0.607,18.0
13.487,0.681,-0.64,13.0
13.01,0.659,-0.692,6.0
11.951,0.607,-0.705,2.0
17.431,0.888,-0.552,2.0
15.565,0.796,-0.583,2.0
14.396,0.738,-0.622,15.0
13.134,0.676,-0.645,8.0
12.721,0.656,-0.698,2.0
11.697,0.606,-0.71,2.0
16.861,0.875,-0.563,2.0
14.688,0.764,-0.575,9.0
13.837,0.722,-0.621,13.0
13.068,0.684,-0.663,11.0
12.385,0.65,-0.7,1.0
11.408,0.601,-0.711,2.0
16.294,0.86,-0.571,3.0
14.641,0.775,-0.597,21.0
13.501,0.717,-0.628,13.0
13.02,0.693,-0.683,7.0
12.071,0.644,-0.703,1.0
11.168,0.598,-0.715,2.0
15.853,0.85,-0.582,6.0
14.526,0.781,-0.617,16.0
13.245,0.714,-0.639,8.0
12.785,0.691,-0.692,3.0
11.759,0.638,-0.704,1.0
10.932,0.594,-0.718,2.0
14.883,0.81,-0.571,7.0
13.819,0.754,-0.61,15.0
13.078,0.716,-0.653,9.0
12.442,0.683,-0.694,2.0
11.462,0.631,-0.706,2.0
10.692,0.59,-0.72,2.0
14.671,0.81,-0.587,21.0
13.574,0.751,-0.622,13.0
13.061,0.725,-0.674,10.0
12.163,0.677,-0.699,1.0
11.238,0.627,-0.711,2.0
10.494,0.587,-0.725,3.0
14.579,0.816,-0.608,21.0
13.404,0.752,-0.637,10.0
12.92,0.726,-0.688,4.0
11.883,0.669,-0.703,1.0
11.009,0.622,-0.715,2.0
10.282,0.582,-0.727,2.0
14.181,0.803,-0.615,14.0
13.085,0.743,-0.643,8.0
12.556,0.714,-0.69,2.0
11.619,0.662,-0.707,1.0
10.769,0.615,-0.718,2.0
10.094,0.578,-0.731,2.0
13.684,0.784,-0.617,12.0
13.067,0.75,-0.665,10.0
12.259,0.705,-0.694,2.0
11.321,0.653,-0.708,1.0
10.553,0.61,-0.721,2.0
9.918,0.574,-0.735,1.0
13.499,0.781,-0.631,11.0
13.003,0.754,-0.683,5.0
11.974,0.696,-0.698,1.0
11.092,0.646,-0.712,2.0
10.328,0.603,-0.723,2.0
9.733,0.569,-0.738,2.0
13.131,0.768,-0.636,7.0
12.693,0.743,-0.688,2.0
11.673,0.685,-0.7,1.0
10.831,0.637,-0.714,2.0
10.094,0.594,-0.724,2.0
9.626,0.568,-0.746,3.0
13.065,0.77,-0.655,11.0
12.332,0.728,-0.689,2.0
11.418,0.676,-0.704,1.0
10.62,0.629,-0.717,2.0
9.922,0.589,-0.728,2.0
9.48,0.564,-0.751,2.0
13.051,0.776,-0.676,11.0
12.088,0.72,-0.696,1.0
11.198,0.668,-0.709,1.0
10.415,0.622,-0.721,2.0
9.731,0.582,-0.73,2.0
9.33,0.559,-0.754,1.0
12.807,0.767,-0.684,3.0
11.784,0.707,-0.698,1.0
10.939,0.657,-0.711,1.0
10.168,0.612,-0.721,2.0
9.644,0.581,-0.74,4.0
9.174,0.554,-0.757,1.0
12.451,0.751,-0.686,4.0
11.491,0.694,-0.699,1.0
10.717,0.648,-0.714,2.0
9.968,0.603,-0.723,2.0
9.545,0.579,-0.748,2.0
9.02,0.548,-0.759,1.0
12.228,0.742,-0.694,2.0
11.296,0.686,-0.706,1.0
10.508,0.639,-0.718,2.0
9.775,0.595,-0.725,2.0
9.397,0.573,-0.752,1.0
8.852,0.54,-0.76,1.0
11.929,0.727,-0.696,1.0
11.049,0.674,-0.709,1.0
10.274,0.628,-0.719,2.0
9.637,0.59,-0.731,3.0
9.262,0.567,-0.756,1.0
8.716,0.535,-0.762,1.0
11.596,0.71,-0.696,1.0
10.819,0.663,-0.712,2.0
10.058,0.617,-0.72,2.0
9.585,0.589,-0.743,3.0
9.115,0.561,-0.759,1.0
8.589,0.529,-0.766,1.0
11.409,0.701,-0.703,2.0
10.616,0.653,-0.716,2.0
9.849,0.606,-0.721,2.0
9.469,0.584,-0.749,2.0
8.937,0.552,-0.759,1.0
8.452,0.522,-0.767,1.0
11.155,0.688,-0.706,2.0
10.38,0.64,-0.717,2.0
9.661,0.597,-0.723,2.0
9.324,0.576,-0.753,1.0
8.792,0.544,-0.761,1.0
8.33,0.516,-0.77,1.0
10.927,0.675,-0.709,2.0
10.159,0.628,-0.718,2.0
9.615,0.595,-0.735,4.0
9.184,0.569,-0.756,1.0
8.656,0.537,-0.763,1.0
8.184,0.508,-0.769,1.0
10.716,0.663,-0.712,2.0
9.958,0.617,-0.719,2.0
9.539,0.591,-0.744,2.0
9.022,0.56,-0.757,1.0
8.517,0.529,-0.764,1.0
8.075,0.502,-0.772,1.0
10.517,0.652,-0.715,2.0
9.764,0.605,-0.721,2.0
9.411,0.584,-0.749,1.0
8.876,0.551,-0.759,1.0
8.402,0.522,-0.767,1.0
7.972,0.496,-0.774,1.0
10.303,0.639,-0.717,2.0
9.633,0.597,-0.726,4.0
9.281,0.576,-0.753,1.0
8.726,0.542,-0.76,1.0
8.267,0.514,-0.768,1.0
7.907,0.492,-0.781,1.0
10.094,0.625,-0.718,2.0
9.597,0.595,-0.738,3.0
9.13,0.566,-0.755,1.0
8.602,0.534,-0.762,1.0
8.149,0.506,-0.769,1.0
7.864,0.489,-0.788,1.0
9.918,0.614,-0.72,2.0
9.5,0.588,-0.745,2.0
8.979,0.556,-0.756,1.0
8.475,0.525,-0.764,1.0
8.037,0.498,-0.771,1.0
7.844,0.487,-0.798,1.0
9.717,0.601,-0.72,2.0
9.381,0.58,-0.749,2.0
8.836,0.546,-0.757,1.0
8.354,0.517,-0.765,1.0
7.962,0.493,-0.776,1.0
7.86,0.487,-0.811,1.0
9.64,0.595,-0.729,4.0
9.26,0.571,-0.753,1.0
8.702,0.537,-0.758,1.0
8.242,0.509,-0.767,1.0
7.912,0.488,-0.782,1.0
7.883,0.487,-0.826,1.0
9.597,0.59,-0.739,3.0
9.121,0.561,-0.755,1.0
8.579,0.528,-0.76,1.0
8.137,0.501,-0.769,1.0
7.895,0.486,-0.792,1.0
7.899,0.486,-0.839,1.0
9.506,0.583,-0.746,2.0
8.965,0.549,-0.755,1.0
8.482,0.52,-0.764,1.0
8.059,0.494,-0.773,1.0
7.909,0.485,-0.805,1.0
7.927,0.486,-0.853,1.0
9.376,0.572,-0.749,2.0
8.842,0.54,-0.757,1.0
8.364,0.51,-0.765,1.0
8.016,0.489,-0.78,1.0
7.94,0.485,-0.819,1.0
7.945,0.485,-0.866,0.0
9.253,0.562,-0.752,1.0
8.721,0.53,-0.759,1.0
8.266,0.502,-0.768,1.0
7.986,0.485,-0.789,1.0
7.98,0.485,-0.835,1.0
7.977,0.484,-0.881,0.0
9.128,0.551,-0.755,1.0
8.592,0.519,-0.76,1.0
8.171,0.493,-0.77,1.0
8.005,0.483,-0.802,1.0
8.021,0.484,-0.85,1.0
8.001,0.483,-0.894,0.0
8.983,0.539,-0.754,1.0
8.49,0.51,-0.762,1.0
8.124,0.488,-0.776,1.0
8.053,0.483,-0.817,1.0
8.04,0.482,-0.862,0.0
8.036,0.482,-0.909,0.0
8.847,0.528,-0.755,2.0
8.409,0.501,-0.766,1.0
8.092,0.482,-0.784,1.0
8.096,0.482,-0.832,1.0
8.086,0.482,-0.878,0.0
8.091,0.482,-0.926,0.0
8.742,0.518,-0.757,2.0
8.329,0.493,-0.769,1.0
8.128,0.481,-0.798,1.0
8.135,0.481,-0.846,1.0
8.139,0.481,-0.894,0.0
8.093,0.478,-0.936,0.0
8.644,0.508,-0.759,2.0
8.272,0.486,-0.774,1.0
8.173,0.48,-0.812,1.0
8.167,0.479,-0.86,0.0
8.193,0.48,-0.91,0.0
8.117,0.476,-0.949,0.0
8.554,0.498,-0.762,2.0
8.263,0.481,-0.784,1.0
8.255,0.48,-0.831,1.0
8.237,0.479,-0.877,0.0
8.272,0.481,-0.929,0.0
8.197,0.476,-0.969,0.0
8.485,0.49,-0.766,2.0
8.318,0.48,-0.799,1.0
8.328,0.48,-0.848,1.0
8.278,0.477,-0.892,0.0
8.311,0.478,-0.944,0.0
8.272,0.476,-0.987,0.0
8.442,0.482,-0.772,2.0
8.384,0.479,-0.815,2.0
8.375,0.478,-0.862,0.0
8.381,0.478,-0.912,0.0
8.346,0.475,-0.957,0.0
8.26,0.47,-0.995,0.0
8.455,0.478,-0.782,2.0
8.455,0.477,-0.831,1.0
8.421,0.475,-0.877,0.0
8.433,0.475,-0.928,0.0
8.404,0.473,-0.973,0.0
8.13,0.457,-0.989,0.0
8.502,0.475,-0.796,2.0
8.505,0.475,-0.845,1.0
8.504,0.474,-0.895,0.0
8.488,0.473,-0.943,0.0
8.438,0.47,-0.986,0.0
8.546,0.472,-0.809,2.0
8.535,0.471,-0.858,1.0
8.588,0.473,-0.912,0.0
8.556,0.471,-0.959,0.0
8.381,0.461,-0.988,0.0
7.525,0.413,-0.931,0.0
8.612,0.47,-0.825,2.0
8.595,0.468,-0.873,0.0
8.64,0.47,-0.927,0.0
8.614,0.468,-0.975,0.0
8.305,0.45,-0.988,0.0
8.717,0.469,-0.843,1.0
8.728,0.469,-0.895,0.0
8.696,0.467,-0.942,0.0
8.649,0.463,-0.987,0.0
7.778,0.416,-0.933,0.0
7.396,0.395,-0.93,0.0
8.789,0.466,-0.859,0.0
8.839,0.468,-0.914,0.0
8.762,0.463,-0.957,0.0
8.563,0.452,-0.986,0.0
7.361,0.388,-0.933,0.0
8.896,0.465,-0.877,0.0
8.906,0.465,-0.93,0.0
8.842,0.461,-0.974,0.0
8.002,0.416,-0.928,0.0
7.621,0.396,-0.928,0.0
7.341,0.381,-0.937,0.0
9.019,0.464,-0.897,0.0
8.973,0.461,-0.944,0.0
8.813,0.452,-0.978,0.0
7.909,0.405,-0.924,0.0
7.269,0.371,-0.934,0.0
9.095,0.461,-0.913,0.0
8.964,0.453,-0.951,0.0
8.671,0.437,-0.97,0.0
7.879,0.397,-0.927,0.0
7.507,0.377,-0.927,0.0
7.246,0.363,-0.937,0.0
9.176,0.457,-0.928,0.0
8.976,0.446,-0.959,0.0
8.152,0.404,-0.918,0.0
7.771,0.384,-0.921,0.0
7.494,0.37,-0.931,0.0
7.183,0.354,-0.934,0.0
9.274,0.453,-0.945,0.0
8.778,0.428,-0.945,0.0
8.068,0.393,-0.915,0.0
7.798,0.379,-0.93,0.0
7.428,0.36,-0.929,0.0
7.158,0.346,-0.936,0.0
9.307,0.446,-0.955,0.0
8.445,0.404,-0.915,0.0
8.01,0.383,-0.914,0.0
7.653,0.365,-0.918,0.0
7.425,0.353,-0.934,0.0
7.124,0.338,-0.937,0.0
9.247,0.435,-0.956,0.0
8.356,0.392,-0.911,0.0
7.998,0.374,-0.918,0.0
7.661,0.358,-0.924,0.0
7.375,0.343,-0.932,0.0
7.109,0.33,-0.94,0.0
8.848,0.408,-0.92,0.0
8.295,0.381,-0.91,0.0
7.939,0.364,-0.916,0.0
7.675,0.351,-0.931,0.0
7.339,0.335,-0.932,0.0
7.068,0.322,-0.939,0.0
8.645,0.39,-0.904,0.0
8.254,0.371,-0.91,0.0
7.908,0.355,-0.918,0.0
7.613,0.341,-0.928,0.0
7.299,0.326,-0.932,0.0
7.022,0.312,-0.937,0.0
8.586,0.379,-0.903,0.0
8.235,0.362,-0.913,0.0
7.952,0.349,-0.927,0.0
7.581,0.332,-0.928,0.0
7.296,0.318,-0.935,0.0
7.006,0.305,-0.938,0.0
8.531,0.368,-0.901,0.0
8.163,0.351,-0.909,0.0
7.871,0.337,-0.922,0.0
7.542,0.322,-0.927,0.0
7.28,0.31,-0.937,0.0
7.007,0.297,-0.942,0.0
8.508,0.358,-0.903,0.0
8.178,0.343,-0.915,0.0
7.863,0.329,-0.924,0.0
7.519,0.313,-0.928,0.0
7.235,0.301,-0.934,0.0
6.949,0.288,-0.937,0.0
8.484,0.348,-0.904,0.0
8.123,0.332,-0.912,0.0
7.822,0.319,-0.923,0.0
7.501,0.305,-0.929,0.0
7.21,0.292,-0.934,0.0
6.964,0.281,-0.942,0.0
8.45,0.338,-0.904,0.0
8.109,0.323,-0.914,0.0
7.782,0.309,-0.921,0.0
7.48,0.296,-0.929,0.0
7.207,0.284,-0.936,0.0
6.954,0.273,-0.943,0.0
8.433,0.328,-0.905,0.0
8.109,0.314,-0.916,0.0
7.797,0.301,-0.926,0.0
7.453,0.286,-0.928,0.0
7.189,0.275,-0.936,0.0
6.929,0.264,-0.942,0.0
8.406,0.318,-0.905,0.0
8.1,0.305,-0.918,0.0
7.761,0.291,-0.924,0.0
7.448,0.278,-0.93,0.0
7.164,0.266,-0.935,0.0
6.908,0.256,-0.941,0.0
8.38,0.308,-0.904,0.0
8.096,0.296,-0.919,0.0
7.732,0.281,-0.922,0.0
7.414,0.269,-0.927,0.0
7.17,0.259,-0.937,0.0
6.892,0.247,-0.941,0.0
8.4,0.299,-0.908,0.0
8.089,0.286,-0.92,0.0
7.757,0.273,-0.927,0.0
7.4,0.26,-0.927,0.0
7.154,0.25,-0.937,0.0
6.893,0.24,-0.942,0.0
8.382,0.289,-0.908,0.0
8.081,0.277,-0.921,0.0
7.727,0.264,-0.924,0.0
7.413,0.252,-0.929,0.0
7.144,0.241,-0.936,0.0
6.895,0.232,-0.943,0.0
8.359,0.278,-0.906,0.0
8.058,0.267,-0.919,0.0
7.723,0.255,-0.925,0.0
7.401,0.243,-0.929,0.0
7.14,0.233,-0.937,0.0
6.892,0.224,-0.943,0.0
8.357,0.269,-0.907,0.0
8.025,0.257,-0.916,0.0
7.706,0.245,-0.923,0.0
7.401,0.234,-0.929,0.0
7.125,0.224,-0.935,0.0
6.881,0.215,-0.942,0.0
8.346,0.259,-0.906,0.0
8.03,0.248,-0.917,0.0
7.699,0.236,-0.922,0.0
7.389,0.225,-0.928,0.0
7.127,0.216,-0.935,0.0
6.871,0.207,-0.941,0.0
8.288,0.247,-0.899,0.0
8.036,0.238,-0.917,0.0
7.701,0.227,-0.922,0.0
7.401,0.217,-0.929,0.0
7.14,0.208,-0.937,0.0
6.872,0.199,-0.941,0.0
8.241,0.236,-0.894,1.0
8.032,0.229,-0.916,0.0
7.699,0.218,-0.922,0.0
7.406,0.208,-0.929,0.0
7.125,0.199,-0.934,0.0
6.873,0.191,-0.94,0.0
8.239,0.227,-0.893,1.0
8.01,0.219,-0.913,0.0
7.713,0.209,-0.922,0.0
7.411,0.2,-0.929,0.0
7.149,0.191,-0.936,0.0
6.878,0.183,-0.94,0.0
8.253,0.217,-0.893,1.0
8.033,0.21,-0.914,0.0
7.707,0.2,-0.92,0.0
7.421,0.191,-0.929,0.0
7.165,0.184,-0.937,0.0
6.898,0.175,-0.941,0.0
8.29,0.209,-0.895,0.0
8.036,0.201,-0.913,0.0
7.71,0.191,-0.919,0.0
7.44,0.183,-0.929,0.0
7.156,0.175,-0.934,0.0
6.905,0.167,-0.94,0.0
8.397,0.202,-0.905,0.0
8.06,0.192,-0.914,0.0
7.748,0.183,-0.921,0.0
7.434,0.174,-0.927,0.0
7.18,0.167,-0.935,0.0
6.928,0.16,-0.942,0.0
8.401,0.192,-0.903,0.0
8.075,0.183,-0.913,0.0
7.74,0.174,-0.918,0.0
7.45,0.166,-0.926,0.0
7.224,0.159,-0.939,0.0
6.94,0.152,-0.941,0.0
8.442,0.183,-0.904,0.0
8.086,0.174,-0.911,0.0
7.785,0.166,-0.921,0.0
7.501,0.158,-0.93,0.0
7.208,0.15,-0.934,0.0
6.944,0.144,-0.939,0.0
8.463,0.173,-0.903,0.0
8.116,0.165,-0.911,0.0
7.789,0.156,-0.918,0.0
7.511,0.149,-0.928,0.0
7.25,0.143,-0.936,0.0
6.973,0.136,-0.94,0.0
8.488,0.164,-0.902,0.0
8.129,0.155,-0.909,0.0
7.842,0.148,-0.921,0.0
7.523,0.141,-0.926,0.0
7.259,0.135,-0.934,0.0
6.993,0.128,-0.939,0.0
8.505,0.154,-0.9,0.0
8.164,0.146,-0.909,0.0
7.862,0.14,-0.92,0.0
7.561,0.133,-0.927,0.0
7.286,0.126,-0.934,0.0
7.034,0.121,-0.941,0.0
8.526,0.145,-0.898,0.0
8.204,0.138,-0.91,0.0
7.886,0.131,-0.918,0.0
7.587,0.124,-0.926,0.0
7.286,0.118,-0.93,1.0
7.06,0.113,-0.941,0.0
8.556,0.135,-0.896,0.0
8.222,0.129,-0.907,0.0
7.928,0.122,-0.918,0.0
7.614,0.116,-0.925,0.0
7.299,0.11,-0.927,1.0
7.061,0.105,-0.936,0.0
8.615,0.127,-0.897,0.0
8.276,0.12,-0.908,0.0
7.967,0.114,-0.918,0.0
7.656,0.108,-0.925,0.0
7.301,0.101,-0.923,1.0
7.089,0.097,-0.936,0.0
8.645,0.117,-0.895,0.0
8.315,0.111,-0.907,0.0
7.994,0.105,-0.916,0.0
7.683,0.1,-0.923,0.0
7.313,0.093,-0.919,1.0
7.14,0.09,-0.937,0.0
8.706,0.108,-0.895,0.0
8.353,0.102,-0.905,0.0
8.035,0.097,-0.915,0.0
7.717,0.091,-0.922,0.0
7.404,0.086,-0.925,0.0
7.17,0.082,-0.936,0.0
8.755,0.099,-0.894,0.0
8.398,0.093,-0.903,0.0
8.079,0.088,-0.914,0.0
7.765,0.083,-0.922,0.0
7.482,0.079,-0.929,0.0
7.219,0.074,-0.937,0.0
8.829,0.09,-0.894,0.0
8.452,0.085,-0.902,0.0
8.105,0.079,-0.91,0.0
7.82,0.075,-0.922,0.0
7.521,0.071,-0.928,0.0
7.256,0.067,-0.935,0.0
8.878,0.081,-0.892,0.0
8.491,0.076,-0.9,0.0
8.169,0.071,-0.91,0.0
7.874,0.067,-0.921,0.0
7.566,0.063,-0.927,0.0
7.307,0.059,-0.936,0.0
8.945,0.072,-0.891,0.0
8.557,0.067,-0.899,0.0
8.239,0.063,-0.911,0.0
7.915,0.059,-0.919,0.0
7.627,0.055,-0.928,0.0
7.343,0.052,-0.933,0.0
9.023,0.063,-0.891,0.0
8.62,0.058,-0.898,0.0
8.282,0.054,-0.908,0.0
7.981,0.051,-0.919,0.0
7.678,0.047,-0.927,0.0
7.391,0.044,-0.932,0.0
9.084,0.054,-0.888,0.0
8.705,0.05,-0.898,0.0
8.345,0.046,-0.907,0.0
8.018,0.043,-0.916,0.0
7.758,0.04,-0.928,0.0
7.439,0.037,-0.931,0.0
9.187,0.045,-0.889,0.0
8.761,0.041,-0.895,0.0
8.407,0.038,-0.905,0.0
8.071,0.035,-0.913,0.0
7.794,0.032,-0.925,0.0
7.485,0.029,-0.929,0.0
9.276,0.036,-0.888,0.0
8.859,0.032,-0.896,0.0
8.465,0.029,-0.902,0.0
8.142,0.027,-0.913,0.0
7.863,0.024,-0.924,0.0
7.567,0.022,-0.931,0.0
9.361,0.027,-0.886,0.0
8.938,0.024,-0.894,0.0
8.533,0.021,-0.9,0.0
8.23,0.019,-0.914,0.0
7.905,0.017,-0.921,0.0
7.626,0.015,-0.93,0.0
9.434,0.018,-0.882,0.0
9.048,0.015,-0.895,0.0
8.614,0.013,-0.899,0.0
8.275,0.011,-0.909,0.0
7.982,0.009,-0.92,0.0
7.7,0.007,-0.93,0.0
9.542,0.009,-0.881,0.0
9.107,0.007,-0.89,0.0
8.701,0.005,-0.898,0.0
8.355,0.003,-0.908,0.0
8.057,0.002,-0.919,0.0
7.755,0.0,-0.927,0.0
9.645,0.0,-0.88,0.0
9.219,-0.001,-0.89,0.0
8.792,-0.002,-0.896,0.0
8.403,-0.004,-0.903,0.0
8.11,-0.005,-0.916,0.0
7.827,-0.006,-0.926,0.0
9.757,-0.008,-0.878,0.0
9.314,-0.009,-0.888,0.0
8.893,-0.01,-0.896,0.0
8.485,-0.011,-0.901,0.0
8.193,-0.012,-0.914,0.0
7.883,-0.013,-0.923,0.0
9.872,-0.017,-0.875,0.0
9.406,-0.018,-0.885,0.0
8.972,-0.019,-0.892,0.0
8.608,-0.019,-0.903,0.0
8.249,-0.02,-0.91,0.0
7.972,-0.021,-0.922,0.0
10.002,-0.026,-0.874,0.0
9.534,-0.026,-0.884,0.0
9.085,-0.027,-0.891,0.0
8.679,-0.027,-0.899,0.0
8.339,-0.027,-0.909,0.0
8.039,-0.028,-0.919,0.0
10.107,-0.035,-0.869,0.0
9.634,-0.035,-0.88,0.0
9.225,-0.035,-0.892,0.0
8.789,-0.035,-0.898,0.0
8.434,-0.035,-0.907,0.0
8.105,-0.035,-0.916,0.0
10.274,-0.044,-0.87,0.0
9.75,-0.043,-0.877,0.0
9.339,-0.043,-0.89,0.0
8.892,-0.042,-0.896,0.0
8.507,-0.042,-0.903,0.0
8.204,-0.042,-0.915,0.0
10.398,-0.053,-0.866,0.0
9.875,-0.052,-0.875,0.0
9.441,-0.051,-0.886,0.0
9.022,-0.05,-0.896,0.0
8.609,-0.049,-0.901,0.0
8.279,-0.049,-0.911,0.0
10.571,-0.062,-0.865,0.0
10.019,-0.06,-0.873,0.0
9.553,-0.059,-0.883,0.0
9.119,-0.058,-0.892,0.0
8.722,-0.056,-0.9,0.0
8.364,-0.055,-0.908,0.0
10.666,-0.07,-0.856,2.0
10.177,-0.069,-0.871,0.0
9.689,-0.067,-0.881,0.0
9.251,-0.065,-0.892,0.0
8.83,-0.064,-0.898,0.0
8.477,-0.062,-0.907,0.0
10.851,-0.079,-0.855,0.0
10.339,-0.077,-0.869,0.0
9.807,-0.074,-0.877,0.0
9.372,-0.073,-0.889,0.0
8.961,-0.071,-0.898,0.0
8.576,-0.069,-0.905,0.0
11.046,-0.088,-0.853,0.0
10.503,-0.085,-0.867,0.0
9.964,-0.082,-0.875,0.0
9.495,-0.08,-0.885,0.0
9.089,-0.078,-0.896,0.0
8.671,-0.076,-0.901,0.0
11.204,-0.097,-0.848,0.0
10.643,-0.094,-0.862,1.0
10.122,-0.09,-0.873,0.0
9.651,-0.087,-0.885,0.0
9.214,-0.085,-0.893,0.0
8.798,-0.082,-0.9,0.0
11.413,-0.106,-0.845,0.0
10.753,-0.101,-0.853,0.0
10.28,-0.098,-0.87,0.0
9.761,-0.095,-0.879,0.0
9.35,-0.092,-0.891,0.0
8.917,-0.089,-0.897,0.0
11.591,-0.115,-0.839,0.0
10.993,-0.11,-0.854,0.0
10.449,-0.106,-0.867,0.0
9.928,-0.102,-0.877,0.0
9.481,-0.099,-0.888,0.0
9.045,-0.095,-0.895,0.0
11.805,-0.123,-0.835,0.0
11.182,-0.118,-0.85,0.0
10.621,-0.114,-0.863,0.0
10.099,-0.109,-0.875,1.0
9.629,-0.105,-0.886,0.0
9.169,-0.101,-0.892,0.0
12.008,-0.132,-0.83,0.0
11.385,-0.126,-0.846,0.0
10.802,-0.121,-0.86,0.0
10.219,-0.116,-0.868,0.0
9.784,-0.112,-0.883,1.0
9.366,-0.108,-0.895,0.0
12.256,-0.141,-0.826,0.0
11.591,-0.134,-0.842,0.0
10.983,-0.128,-0.855,0.0
10.447,-0.123,-0.87,0.0
9.909,-0.118,-0.877,1.0
9.483,-0.114,-0.89,0.0
12.501,-0.149,-0.821,0.0
11.81,-0.142,-0.837,0.0
11.157,-0.136,-0.849,0.0
10.614,-0.13,-0.865,0.0
10.102,-0.125,-0.876,1.0
9.624,-0.12,-0.886,0.0
12.733,-0.158,-0.813,1.0
12.026,-0.15,-0.831,0.0
11.389,-0.143,-0.847,0.0
10.805,-0.137,-0.861,0.0
10.209,-0.13,-0.867,0.0
9.794,-0.126,-0.884,1.0
13.041,-0.167,-0.81,0.0
12.289,-0.158,-0.827,0.0
11.62,-0.151,-0.843,0.0
11.008,-0.144,-0.857,0.0
10.478,-0.138,-0.871,0.0
9.954,-0.132,-0.88,1.0
13.318,-0.175,-0.803,1.0
12.53,-0.166,-0.821,0.0
11.836,-0.158,-0.837,0.0
11.201,-0.15,-0.852,0.0
10.675,-0.144,-0.868,0.0
10.12,-0.137,-0.876,1.0
13.596,-0.183,-0.795,1.0
12.801,-0.173,-0.815,0.0
12.075,-0.165,-0.832,1.0
11.436,-0.157,-0.849,0.0
10.849,-0.15,-0.862,0.0
10.305,-0.143,-0.873,0.0
13.909,-0.192,-0.787,1.0
13.091,-0.181,-0.809,0.0
12.336,-0.172,-0.827,0.0
11.656,-0.163,-0.843,0.0
11.044,-0.155,-0.857,0.0
10.505,-0.148,-0.87,0.0
14.232,-0.2,-0.779,1.0
13.405,-0.189,-0.803,1.0
12.583,-0.178,-0.82,0.0
11.887,-0.169,-0.838,1.0
11.272,-0.161,-0.853,0.0
10.704,-0.154,-0.866,0.0
14.635,-0.209,-0.773,1.0
13.676,-0.196,-0.794,1.0
12.876,-0.185,-0.814,0.0
12.123,-0.175,-0.831,0.0
11.501,-0.167,-0.849,0.0
10.902,-0.159,-0.861,0.0
14.994,-0.217,-0.764,1.0
14.016,-0.203,-0.787,1.0
13.164,-0.192,-0.808,0.0
12.388,-0.181,-0.826,0.0
11.717,-0.172,-0.842,0.0
11.129,-0.164,-0.858,0.0
15.41,-0.225,-0.755,1.0
14.336,-0.21,-0.777,1.0
13.489,-0.198,-0.801,1.0
12.679,-0.187,-0.82,0.0
11.966,-0.177,-0.837,1.0
11.339,-0.168,-0.852,0.0
15.847,-0.233,-0.746,1.0
14.753,-0.218,-0.771,1.0
13.773,-0.204,-0.791,1.0
12.973,-0.192,-0.814,0.0
12.238,-0.182,-0.832,0.0
11.573,-0.172,-0.847,0.0
16.297,-0.241,-0.735,1.0
15.158,-0.225,-0.762,1.0
14.141,-0.21,-0.785,1.0
13.277,-0.198,-0.807,0.0
12.494,-0.186,-0.824,0.0
11.823,-0.177,-0.842,0.0
16.888,-0.25,-0.729,1.0
15.583,-0.231,-0.753,1.0
14.533,-0.216,-0.778,1.0
13.578,-0.202,-0.798,1.0
12.797,-0.191,-0.819,0.0
12.064,-0.18,-0.835,0.0
17.431,-0.258,-0.718,1.0
16.041,-0.238,-0.743,1.0
14.924,-0.222,-0.769,1.0
13.918,-0.207,-0.791,1.0
13.12,-0.195,-0.813,0.0
12.358,-0.184,-0.83,0.0
18.004,-0.266,-0.706,1.0
16.567,-0.245,-0.735,0.0
15.344,-0.227,-0.76,1.0
14.282,-0.212,-0.783,1.0
13.424,-0.199,-0.805,1.0
12.644,-0.188,-0.824,0.0
18.599,-0.274,-0.692,1.0
17.151,-0.252,-0.726,1.0
15.781,-0.232,-0.75,1.0
14.686,-0.216,-0.775,1.0
13.723,-0.202,-0.796,1.0
12.93,-0.19,-0.817,0.0
19.224,-0.281,-0.677,2.0
17.7,-0.258,-0.714,1.0
16.264,-0.237,-0.74,1.0
15.101,-0.22,-0.767,1.0
14.087,-0.205,-0.788,1.0
13.265,-0.193,-0.811,0.0
19.943,-0.288,-0.662,1.0
18.254,-0.263,-0.7,1.0
16.833,-0.243,-0.732,1.0
15.526,-0.224,-0.757,1.0
14.474,-0.208,-0.781,1.0
13.553,-0.195,-0.801,1.0
20.706,-0.295,-0.645,1.0
18.932,-0.269,-0.687,1.0
17.389,-0.247,-0.721,1.0
15.98,-0.227,-0.747,1.0
14.9,-0.211,-0.773,1.0
13.912,-0.197,-0.794,0.0
21.611,-0.303,-0.629,1.0
19.583,-0.274,-0.671,2.0
17.988,-0.251,-0.709,1.0
16.518,-0.23,-0.738,0.0
15.308,-0.213,-0.763,1.0
14.273,-0.198,-0.785,1.0
22.563,-0.31,-0.611,1.0
20.291,-0.278,-0.654,1.0
18.58,-0.254,-0.695,1.0
17.111,-0.234,-0.73,1.0
15.786,-0.215,-0.755,1.0
14.67,-0.199,-0.777,1.0
23.501,-0.316,-0.589,2.0
21.185,-0.284,-0.64,1.0
19.223,-0.257,-0.68,1.0
17.684,-0.236,-0.718,1.0
16.231,-0.216,-0.743,1.0
15.119,-0.2,-0.77,1.0
24.576,-0.322,-0.565,1.0
22.033,-0.288,-0.621,1.0
19.955,-0.26,-0.665,1.0
18.225,-0.236,-0.703,1.0
16.811,-0.217,-0.735,1.0
15.548,-0.2,-0.76,1.0
25.701,-0.327,-0.539,1.0
23.098,-0.293,-0.603,1.0
20.708,-0.261,-0.647,1.0
18.862,-0.237,-0.689,1.0
17.418,-0.218,-0.726,1.0
16.009,-0.199,-0.75,1.0
26.788,-0.329,-0.506,1.0
23.943,-0.293,-0.576,1.0
21.638,-0.263,-0.632,1.0
19.593,-0.237,-0.675,1.0
17.979,-0.216,-0.712,1.0
16.534,-0.198,-0.741,1.0
28.13,-0.333,-0.475,2.0
25.167,-0.296,-0.554,1.0
22.601,-0.264,-0.614,1.0
20.253,-0.235,-0.657,1.0
18.536,-0.214,-0.697,1.0
17.102,-0.196,-0.731,1.0
29.334,-0.333,-0.435,3.0
26.266,-0.296,-0.525,1.0
23.51,-0.263,-0.591,1.0
21.159,-0.235,-0.643,1.0
19.259,-0.212,-0.685,1.0
17.694,-0.194,-0.721,1.0
30.624,-0.331,-0.392,2.0
27.51,-0.295,-0.494,1.0
24.546,-0.261,-0.567,1.0
22.078,-0.233,-0.626,2.0
19.952,-0.209,-0.669,2.0
18.277,-0.189,-0.707,1.0
32.782,-0.335,-0.353,1.0
28.802,-0.292,-0.458,5.0
25.729,-0.258,-0.542,1.0
23.055,-0.229,-0.607,2.0
20.719,-0.204,-0.653,2.0
18.875,-0.184,-0.692,1.0
38.48,-0.37,-0.337,1.0
29.978,-0.285,-0.417,2.0
26.783,-0.252,-0.51,1.0
23.968,-0.223,-0.583,1.0
21.6,-0.199,-0.637,1.0
19.625,-0.179,-0.68,1.0
42.1,-0.378,-0.283,3.0
31.517,-0.279,-0.375,1.0
28.147,-0.246,-0.479,2.0
25.074,-0.217,-0.559,1.0
22.598,-0.193,-0.62,1.0
20.289,-0.171,-0.662,2.0
47.344,-0.392,-0.223,5.0
33.773,-0.276,-0.333,1.0
29.304,-0.236,-0.44,2.0
26.301,-0.208,-0.533,3.0
23.513,-0.184,-0.598,1.0
21.202,-0.163,-0.649,3.0
47.216,-0.356,-0.127,5.0
40.503,-0.301,-0.318,6.0
30.631,-0.224,-0.398,1.0
27.293,-0.196,-0.498,2.0
24.413,-0.172,-0.572,2.0
22.112,-0.153,-0.632,3.0
46.834,-0.318,-0.032,3.0
42.261,-0.281,-0.247,16.0
32.72,-0.213,-0.36,1.0
28.692,-0.184,-0.467,1.0
25.677,-0.161,-0.55,1.0
23.047,-0.141,-0.613,2.0
51.374,-0.308,0.066,25.0
41.776,-0.245,-0.162,6.0
0.0,0.0,0.0,0.0
29.854,-0.167,-0.427,2.0
26.749,-0.146,-0.521,2.0
23.947,-0.127,-0.59,3.0
61.215,-0.316,0.199,17.0
46.292,-0.232,-0.088,20.0
39.494,-0.192,-0.279,3.0
31.223,-0.147,-0.385,1.0
27.881,-0.128,-0.488,1.0
24.924,-0.111,-0.565,1.0
76.607,-0.328,0.4,10.0
47.534,-0.196,0.003,10.0
39.501,-0.158,-0.202,3.0
33.428,-0.128,-0.347,1.0
29.237,-0.108,-0.454,2.0
26.138,-0.092,-0.541,2.0
79.262,-0.268,0.569,47.0
0.0,0.0,0.0,0.0
41.738,-0.128,-0.131,18.0
38.79,-0.113,-0.327,0.0
30.219,-0.083,-0.411,1.0
27.087,-0.07,-0.509,2.0
79.449,-0.194,0.722,150.0
61.681,-0.141,0.242,14.0
0.0,0.0,0.0,0.0
39.096,-0.076,-0.254,14.0
32.218,-0.058,-0.377,2.0
28.415,-0.046,-0.479,2.0
79.47,-0.116,0.876,151.0
76.296,-0.099,0.446,17.0
48.506,-0.055,0.032,5.0
39.875,-0.038,-0.183,29.0
33.843,-0.027,-0.331,0.0
29.519,-0.018,-0.441,2.0
79.463,-0.036,1.028,152.0
79.344,-0.022,0.615,59.0
55.884,-0.006,0.143,28.0
43.821,0.002,-0.119,12.0
38.359,0.008,-0.303,5.0
30.652,0.012,-0.401,1.0
79.461,0.045,1.177,151.0
79.453,0.059,0.764,151.0
61.753,0.057,0.274,9.0
0.0,0.0,0.0,0.0
38.895,0.05,-0.235,14.0
32.724,0.048,-0.367,1.0
79.455,0.13,1.325,160.0
79.469,0.145,0.913,151.0
76.243,0.153,0.479,19.0
54.039,0.118,0.053,28.0
39.734,0.094,-0.166,31.0
37.915,0.097,-0.355,0.0
79.46,0.219,1.472,151.0
79.473,0.234,1.059,152.0
79.456,0.249,0.646,117.0
55.081,0.183,0.156,20.0
0.0,0.0,0.0,0.0
37.927,0.14,-0.286,14.0
79.43,0.309,1.617,150.0
79.431,0.325,1.204,150.0
59.326,0.254,0.591,90.0
59.331,0.265,0.275,49.0
46.88,0.219,-0.025,31.0
38.636,0.188,-0.222,34.0
59.283,0.3,1.314,13.0
48.231,0.254,0.818,21.0
48.23,0.263,0.567,29.0
55.058,0.312,0.354,23.0
48.077,0.282,0.059,36.0
39.495,0.239,-0.157,37.0
48.141,0.301,1.153,95.0
48.139,0.311,0.901,89.0
48.112,0.321,0.65,62.0
48.11,0.33,0.394,50.0
48.099,0.34,0.143,46.0
44.422,0.324,-0.098,18.0
48.113,0.36,1.237,108.0
48.107,0.37,0.985,114.0
48.098,0.38,0.733,111.0
48.052,0.39,0.477,101.0
48.036,0.399,0.226,100.0
46.821,0.399,-0.023,35.0
48.137,0.42,1.32,128.0
48.109,0.43,1.067,109.0
48.103,0.44,0.816,107.0
48.058,0.45,0.558,101.0
48.045,0.46,0.307,101.0
47.947,0.47,0.057,56.0
48.157,0.482,1.402,93.0
48.134,0.493,1.151,95.0
48.128,0.503,0.898,96.0
48.085,0.513,0.641,102.0
48.069,0.523,0.388,96.0
48.027,0.533,0.137,82.0
55.013,0.623,1.695,63.0
48.209,0.556,1.232,50.0
55.055,0.648,1.119,15.0
48.178,0.577,0.722,41.0
48.121,0.587,0.468,59.0
48.067,0.598,0.216,80.0
55.027,0.696,1.786,122.0
55.053,0.709,1.497,68.0
100.08,1.312,2.198,8.0
188.979,2.522,3.142,11.0
121.177,1.645,1.379,14.0
75.257,1.038,0.461,11.0
55.079,0.772,1.877,69.0
162.679,2.319,4.691,6.0
176.611,2.558,4.164,22.0
189.83,2.795,3.461,32.0
126.319,1.888,1.64,26.0
77.83,1.182,0.602,37.0
163.099,2.516,5.822,18.0
132.901,2.082,4.046,10.0
160.154,2.545,4.033,7.0
189.978,3.063,3.764,22.0
126.752,2.074,1.845,38.0
89.595,1.487,0.834,8.0
161.506,2.722,6.021,16.0
132.939,2.271,4.256,23.0
160.366,2.778,4.289,19.0
128.317,2.254,2.744,9.0
127.582,2.271,2.056,35.0
89.956,1.623,0.977,7.0
128.077,2.342,4.972,14.0
128.107,2.374,4.298,15.0
128.098,2.405,3.623,23.0
128.041,2.434,2.932,31.0
128.026,2.466,2.258,16.0
121.019,2.36,1.496,3.0
127.905,2.526,5.159,23.0
128.014,2.559,4.487,53.0
128.01,2.589,3.809,51.0
128.062,2.622,3.122,53.0
128.065,2.654,2.447,7.0
106.077,2.224,1.466,1.0
127.858,2.715,5.346,40.0
152.434,3.273,5.567,37.0
159.334,3.461,4.977,18.0
0.0,0.0,0.0,0.0
0.0,0.0,0.0,0.0
105.952,2.381,1.619,1.0
130.516,2.967,5.646,15.0
152.497,3.506,5.789,36.0
152.74,3.55,4.991,10.0
159.485,3.746,4.35,4.0
0.0,0.0,0.0,0.0
106.006,2.543,1.769,2.0
130.209,3.159,5.818,11.0
152.216,3.73,5.992,20.0
152.661,3.78,5.2,29.0
0.0,0.0,0.0,0.0
100.335,2.535,2.343,20.0
100.321,2.56,1.811,14.0
130.126,3.357,5.992,10.0
152.063,3.962,6.195,36.0
152.291,4.005,5.395,32.0
153.834,4.085,4.616,34.0
154.047,4.13,3.805,6.0
0.0,0.0,0.0,0.0
122.603,3.354,5.811,27.0
151.875,4.193,6.39,29.0
152.066,4.238,5.589,40.0
152.829,4.299,4.79,32.0
154.05,4.373,4.009,37.0
0.0,0.0,0.0,0.0
122.907,3.558,5.988,56.0
151.922,4.438,6.593,35.0
151.995,4.48,5.787,41.0
152.563,4.535,4.979,22.0
158.487,4.753,4.33,14.0
0.0,0.0,0.0,0.0
123.184,3.766,6.162,17.0
133.562,4.117,5.967,31.0
152.092,4.728,5.984,45.0
152.604,4.784,5.175,30.0
158.666,5.014,4.533,11.0
0.0,0.0,0.0,0.0
124.989,4.023,6.407,20.0
133.72,4.339,6.141,37.0
152.428,4.987,6.186,40.0
152.907,5.041,5.372,16.0
159.003,5.284,4.738,7.0
0.0,0.0,0.0,0.0
125.096,4.231,6.564,16.0
124.045,4.229,5.846,36.0
152.805,5.25,6.384,18.0
152.801,5.29,5.551,38.0
157.271,5.485,4.871,11.0
159.26,5.596,4.082,4.0
73.753,2.616,3.957,32.0
124.24,4.44,5.999,35.0
153.269,5.518,6.58,30.0
152.473,5.53,5.714,40.0
160.125,5.848,5.141,12.0
160.228,5.896,4.288,12.0
73.553,2.731,4.03,50.0
133.47,4.992,6.597,16.0
124.047,4.671,5.464,15.0
152.764,5.792,5.893,21.0
0.0,0.0,0.0,0.0
173.46,6.67,4.831,10.0
73.448,2.85,4.105,38.0
73.753,2.881,3.725,11.0
124.484,4.895,5.617,25.0
124.195,4.917,4.924,14.0
157.91,6.294,5.413,9.0
173.144,6.947,5.004,9.0
73.441,2.972,4.182,15.0
123.165,5.018,6.35,44.0
124.07,5.088,5.727,34.0
124.18,5.124,5.051,30.0
157.24,6.531,5.551,18.0
158.067,6.609,4.731,15.0
73.695,3.109,4.272,34.0
123.382,5.236,6.486,20.0
130.378,5.567,6.15,11.0
124.28,5.339,5.179,48.0
157.139,6.792,5.702,14.0
173.553,7.547,5.363,10.0
73.287,3.215,4.319,8.0
73.241,3.233,3.921,18.0
129.779,5.763,6.247,18.0
124.183,5.546,5.295,22.0
157.834,7.092,5.877,8.0
156.753,7.084,4.991,10.0
73.322,3.343,4.391,40.0
123.246,5.65,6.713,48.0
123.377,5.689,6.053,18.0
129.802,6.019,5.653,35.0
157.607,7.351,6.013,17.0
174.192,8.171,5.704,13.0
73.421,3.473,4.464,10.0
123.235,5.862,6.824,34.0
129.506,6.193,6.468,10.0
129.606,6.231,5.758,18.0
157.199,7.601,6.134,18.0
157.019,7.633,5.276,8.0
127.23,6.238,7.845,16.0
73.409,3.617,4.127,15.0
132.535,6.566,6.733,26.0
132.007,6.573,5.975,20.0
167.05,8.362,6.656,15.0
156.599,7.881,5.391,11.0
150.321,7.629,9.392,15.0
73.356,3.743,4.184,25.0
154.637,7.929,7.98,17.0
132.076,6.806,6.085,19.0
157.497,8.158,6.4,8.0
157.6,8.206,5.549,7.0
128.209,6.731,8.112,29.0
73.32,3.868,4.239,7.0
