X,Y,Z,Reflectivity
12.167,-1.049,-0.821,0.0
17.766,-1.532,-0.701,1.0
16.261,-1.407,-0.732,7.0
15.018,-1.304,-0.759,0.0
13.897,-1.211,-0.781,0.0
12.973,-1.135,-0.802,0.0
12.187,-1.07,-0.821,0.0
17.79,-1.562,-0.7,0.0
16.283,-1.435,-0.731,7.0
15.037,-1.33,-0.759,0.0
13.929,-1.236,-0.782,0.0
12.935,-1.152,-0.798,0.0
12.22,-1.092,-0.822,0.0
17.816,-1.592,-0.699,0.0
16.262,-1.458,-0.728,10.0
15.083,-1.357,-0.759,0.0
13.947,-1.259,-0.781,0.0
13.125,-1.189,-0.807,0.0
12.259,-1.115,-0.822,1.0
17.829,-1.62,-0.696,1.0
16.281,-1.485,-0.726,11.0
15.111,-1.383,-0.757,0.0
13.987,-1.284,-0.78,0.0
13.159,-1.212,-0.807,0.0
12.254,-1.133,-0.819,0.0
17.907,-1.654,-0.695,0.0
16.28,-1.509,-0.722,11.0
15.167,-1.411,-0.757,0.0
14.024,-1.309,-0.779,0.0
13.188,-1.235,-0.805,0.0
12.285,-1.154,-0.819,0.0
18.011,-1.691,-0.695,0.0
16.289,-1.534,-0.718,11.0
15.234,-1.439,-0.756,0.0
14.071,-1.334,-0.778,0.0
13.177,-1.253,-0.801,0.0
12.341,-1.177,-0.819,0.0
18.098,-1.725,-0.693,0.0
16.296,-1.558,-0.714,10.0
15.279,-1.465,-0.754,0.0
14.141,-1.361,-0.777,0.0
13.23,-1.277,-0.8,0.0
12.377,-1.198,-0.817,0.0
18.19,-1.76,-0.691,0.0
16.317,-1.583,-0.71,9.0
15.382,-1.497,-0.754,1.0
14.224,-1.389,-0.777,0.0
13.28,-1.3,-0.799,0.0
12.451,-1.223,-0.818,0.0
18.337,-1.8,-0.69,0.0
16.336,-1.608,-0.705,7.0
15.44,-1.524,-0.751,0.0
14.297,-1.416,-0.776,0.0
13.351,-1.326,-0.798,0.0
12.523,-1.247,-0.818,0.0
18.456,-1.837,-0.687,0.0
16.359,-1.633,-0.699,3.0
15.556,-1.557,-0.75,1.0
14.388,-1.444,-0.775,0.0
13.409,-1.35,-0.796,1.0
12.608,-1.273,-0.818,0.0
18.583,-1.875,-0.684,1.0
16.387,-1.658,-0.693,0.0
15.642,-1.587,-0.748,1.0
14.466,-1.471,-0.772,1.0
13.487,-1.376,-0.794,1.0
12.657,-1.295,-0.815,0.0
18.752,-1.917,-0.682,1.0
16.47,-1.688,-0.689,0.0
15.785,-1.622,-0.747,0.0
14.549,-1.499,-0.77,1.0
13.59,-1.404,-0.794,1.0
12.724,-1.318,-0.813,0.0
18.903,-1.957,-0.678,1.0
16.933,-1.758,-0.7,0.0
15.918,-1.656,-0.745,1.0
14.644,-1.528,-0.767,1.0
13.669,-1.43,-0.791,1.0
12.796,-1.342,-0.811,0.0
19.108,-2.003,-0.675,1.0
17.427,-1.831,-0.711,0.0
16.087,-1.694,-0.744,1.0
14.754,-1.558,-0.765,0.0
13.745,-1.455,-0.788,1.0
12.883,-1.367,-0.809,0.0
19.339,-2.051,-0.672,1.0
17.638,-1.875,-0.71,0.0
16.196,-1.725,-0.74,1.0
14.882,-1.59,-0.763,1.0
13.843,-1.482,-0.786,0.0
12.968,-1.392,-0.807,0.0
19.812,-2.125,-0.677,3.0
17.81,-1.914,-0.706,0.0
16.249,-1.751,-0.733,2.0
15.016,-1.622,-0.761,1.0
13.946,-1.51,-0.783,1.0
13.083,-1.42,-0.806,0.0
20.008,-2.169,-0.671,6.0
17.931,-1.948,-0.699,0.0
16.292,-1.774,-0.724,3.0
15.188,-1.658,-0.76,0.0
14.077,-1.54,-0.781,0.0
13.182,-1.446,-0.803,0.0
20.082,-2.2,-0.661,11.0
18.154,-1.993,-0.696,0.0
16.306,-1.794,-0.714,1.0
15.322,-1.69,-0.756,1.0
14.228,-1.573,-0.78,0.0
13.295,-1.473,-0.801,0.0
20.265,-2.243,-0.653,10.0
18.42,-2.043,-0.694,0.0
16.343,-1.816,-0.704,1.0
15.522,-1.729,-0.755,0.0
14.364,-1.603,-0.777,0.0
13.419,-1.501,-0.799,0.0
20.547,-2.296,-0.647,12.0
18.652,-2.088,-0.689,1.0
16.383,-1.838,-0.694,1.0
15.683,-1.763,-0.751,0.0
14.512,-1.635,-0.774,0.0
13.511,-1.525,-0.795,0.0
20.798,-2.345,-0.64,11.0
18.986,-2.145,-0.687,1.0
16.75,-1.896,-0.697,0.0
15.898,-1.803,-0.75,1.0
14.636,-1.663,-0.77,0.0
13.662,-1.556,-0.793,0.0
21.193,-2.411,-0.635,13.0
19.399,-2.211,-0.687,3.0
17.476,-1.995,-0.714,0.0
16.125,-1.845,-0.748,1.0
14.811,-1.698,-0.767,0.0
13.806,-1.586,-0.79,0.0
21.484,-2.465,-0.627,18.0
19.55,-2.247,-0.677,7.0
17.731,-2.041,-0.71,0.0
16.226,-1.872,-0.739,2.0
15.015,-1.735,-0.766,1.0
13.93,-1.613,-0.786,0.0
21.848,-2.527,-0.62,21.0
19.781,-2.292,-0.668,14.0
17.928,-2.08,-0.703,1.0
16.264,-1.891,-0.727,6.0
15.192,-1.769,-0.762,1.0
14.1,-1.645,-0.784,0.0
22.409,-2.612,-0.616,32.0
20.031,-2.338,-0.66,19.0
18.177,-2.125,-0.697,0.0
16.313,-1.91,-0.716,7.0
15.397,-1.806,-0.759,1.0
14.273,-1.677,-0.781,0.0
22.551,-2.647,-0.601,27.0
20.328,-2.39,-0.652,15.0
18.533,-2.182,-0.694,0.0
16.351,-1.928,-0.703,6.0
15.631,-1.846,-0.756,1.0
14.466,-1.711,-0.778,0.0
23.003,-2.719,-0.592,20.0
20.728,-2.454,-0.646,14.0
19.045,-2.257,-0.696,3.0
16.453,-1.953,-0.692,2.0
15.83,-1.882,-0.752,1.0
14.622,-1.741,-0.773,0.0
23.269,-2.768,-0.578,12.0
21.118,-2.516,-0.638,18.0
19.217,-2.292,-0.685,9.0
17.184,-2.053,-0.707,1.0
16.131,-1.93,-0.751,1.0
14.809,-1.774,-0.769,1.0
23.758,-2.844,-0.568,2.0
21.467,-2.573,-0.629,23.0
19.527,-2.343,-0.677,10.0
17.717,-2.129,-0.712,1.0
16.258,-1.956,-0.741,6.0
15.02,-1.81,-0.766,1.0
24.776,-2.982,-0.568,1.0
21.748,-2.621,-0.616,12.0
19.802,-2.389,-0.668,13.0
17.98,-2.172,-0.705,1.0
16.286,-1.97,-0.726,7.0
15.237,-1.845,-0.762,1.0
25.275,-3.059,-0.555,1.0
22.611,-2.739,-0.619,5.0
20.177,-2.447,-0.661,12.0
18.303,-2.222,-0.7,0.0
16.341,-1.987,-0.713,7.0
15.488,-1.885,-0.759,1.0
25.898,-3.149,-0.543,1.0
22.97,-2.796,-0.605,16.0
20.58,-2.508,-0.653,17.0
18.831,-2.297,-0.701,3.0
16.377,-2.0,-0.698,7.0
15.753,-1.926,-0.756,1.0
26.476,-3.235,-0.529,1.0
23.212,-2.838,-0.588,12.0
20.943,-2.563,-0.643,20.0
19.037,-2.333,-0.689,10.0
16.708,-2.049,-0.695,2.0
16.062,-1.972,-0.754,2.0
27.172,-3.334,-0.514,1.0
23.684,-2.908,-0.576,4.0
21.215,-2.607,-0.63,11.0
19.324,-2.377,-0.679,17.0
17.667,-2.175,-0.716,1.0
16.237,-2.001,-0.746,5.0
28.051,-3.455,-0.502,1.0
24.617,-3.034,-0.572,1.0
21.783,-2.687,-0.624,1.0
19.64,-2.425,-0.669,18.0
17.986,-2.222,-0.71,1.0
16.288,-2.014,-0.731,8.0
28.894,-3.571,-0.486,1.0
25.284,-3.127,-0.561,1.0
22.753,-2.816,-0.627,5.0
20.104,-2.49,-0.664,17.0
18.405,-2.281,-0.707,1.0
16.348,-2.028,-0.716,9.0
29.689,-3.68,-0.467,1.0
25.937,-3.217,-0.547,1.0
22.945,-2.848,-0.607,14.0
20.499,-2.546,-0.655,19.0
18.821,-2.339,-0.702,5.0
16.394,-2.039,-0.7,6.0
30.709,-3.817,-0.45,1.0
26.55,-3.302,-0.531,1.0
23.199,-2.887,-0.589,7.0
20.816,-2.592,-0.642,11.0
19.037,-2.372,-0.689,13.0
16.856,-2.101,-0.701,2.0
32.16,-4.007,-0.436,1.0
27.388,-3.414,-0.519,1.0
23.733,-2.96,-0.576,1.0
21.183,-2.643,-0.63,2.0
19.343,-2.415,-0.679,17.0
17.704,-2.211,-0.717,1.0
33.341,-4.162,-0.415,1.0
28.157,-3.516,-0.502,1.0
24.799,-3.098,-0.575,1.0
22.171,-2.771,-0.635,1.0
19.74,-2.468,-0.671,13.0
18.012,-2.253,-0.709,1.0
35.897,-4.488,-0.407,4.0
29.087,-3.638,-0.486,1.0
25.453,-3.185,-0.561,1.0
22.73,-2.845,-0.625,8.0
20.234,-2.533,-0.665,13.0
18.596,-2.329,-0.711,3.0
36.17,-4.528,-0.37,5.0
29.861,-3.739,-0.465,1.0
26.141,-3.274,-0.547,1.0
22.964,-2.877,-0.606,14.0
20.572,-2.578,-0.653,11.0
18.853,-2.363,-0.699,9.0
37.336,-4.678,-0.339,1.0
31.341,-3.927,-0.452,1.0
26.775,-3.356,-0.53,1.0
23.284,-2.919,-0.588,5.0
20.889,-2.619,-0.639,3.0
19.119,-2.398,-0.687,17.0
39.572,-4.961,-0.314,0.0
32.508,-4.075,-0.432,1.0
27.632,-3.464,-0.515,1.0
24.191,-3.033,-0.583,1.0
21.677,-2.718,-0.638,1.0
19.447,-2.439,-0.677,17.0
45.3,-5.68,-0.308,0.0
35.893,-4.5,-0.436,1.0
28.609,-3.587,-0.5,1.0
24.97,-3.131,-0.573,1.0
22.544,-2.827,-0.638,4.0
19.936,-2.5,-0.671,11.0
45.31,-5.68,-0.256,4.0
36.016,-4.514,-0.395,5.0
29.455,-3.691,-0.481,1.0
25.685,-3.219,-0.559,1.0
22.839,-2.862,-0.62,13.0
20.394,-2.556,-0.662,14.0
45.367,-5.683,-0.203,3.0
36.424,-4.562,-0.358,2.0
30.352,-3.801,-0.461,0.0
26.294,-3.292,-0.542,1.0
23.072,-2.888,-0.599,13.0
20.721,-2.594,-0.649,9.0
50.413,-6.309,-0.168,5.0
0.0,0.0,0.0,0.0
32.03,-4.006,-0.449,1.0
27.021,-3.379,-0.526,1.0
23.507,-2.939,-0.583,3.0
21.09,-2.636,-0.636,2.0
50.449,-6.305,-0.11,3.0
42.706,-5.335,-0.321,0.0
32.968,-4.117,-0.424,1.0
27.872,-3.48,-0.51,1.0
24.586,-3.069,-0.582,1.0
22.009,-2.746,-0.639,1.0
0.0,0.0,0.0,0.0
45.331,-5.653,-0.289,5.0
35.847,-4.468,-0.42,5.0
28.861,-3.596,-0.495,1.0
25.208,-3.14,-0.568,1.0
22.699,-2.826,-0.633,5.0
0.0,0.0,0.0,0.0
45.317,-5.639,-0.236,9.0
36.002,-4.478,-0.38,4.0
29.699,-3.692,-0.475,1.0
25.947,-3.224,-0.554,1.0
22.936,-2.849,-0.613,14.0
0.0,0.0,0.0,0.0
50.376,-6.252,-0.205,1.0
38.952,-4.832,-0.367,0.0
31.045,-3.849,-0.462,1.0
26.56,-3.291,-0.537,1.0
23.229,-2.877,-0.594,8.0
0.0,0.0,0.0,0.0
50.382,-6.235,-0.147,1.0
39.805,-4.922,-0.329,0.0
32.248,-3.985,-0.442,1.0
27.421,-3.387,-0.523,1.0
23.917,-2.952,-0.584,1.0
0.0,0.0,0.0,0.0
0.0,0.0,0.0,0.0
42.475,-5.235,-0.303,0.0
33.482,-4.123,-0.421,1.0
28.343,-3.488,-0.508,1.0
24.875,-3.059,-0.579,1.0
0.0,0.0,0.0,0.0
0.0,0.0,0.0,0.0
44.222,-5.429,-0.265,0.0
37.135,-4.556,-0.425,0.0
29.164,-3.575,-0.49,1.0
25.481,-3.121,-0.565,1.0
86.681,-10.618,0.503,0.0
66.355,-8.12,0.03,0.0
0.0,0.0,0.0,0.0
37.148,-4.538,-0.383,3.0
30.006,-3.662,-0.47,1.0
26.216,-3.197,-0.551,1.0
87.053,-10.617,0.603,21.0
0.0,0.0,0.0,0.0
50.299,-6.122,-0.189,1.0
37.91,-4.609,-0.349,2.0
31.246,-3.795,-0.455,1.0
26.89,-3.263,-0.535,1.0
86.948,-10.553,0.699,55.0
0.0,0.0,0.0,0.0
50.473,-6.112,-0.133,1.0
0.0,0.0,0.0,0.0
32.595,-3.939,-0.438,1.0
27.657,-3.339,-0.52,1.0
86.249,-10.413,0.79,150.0
0.0,0.0,0.0,0.0
0.0,0.0,0.0,0.0
43.465,-5.229,-0.304,0.0
33.82,-4.064,-0.417,1.0
28.669,-3.441,-0.507,1.0
86.203,-10.349,0.884,41.0
0.0,0.0,0.0,0.0
0.0,0.0,0.0,0.0
43.799,-5.238,-0.258,0.0
36.773,-4.393,-0.414,1.0
29.383,-3.506,-0.488,1.0
86.21,-10.288,0.978,43.0
87.386,-10.414,0.523,5.0
0.0,0.0,0.0,0.0
50.361,-5.986,-0.243,1.0
36.459,-4.328,-0.371,3.0
29.997,-3.556,-0.466,0.0
86.22,-10.224,1.07,47.0
87.24,-10.329,0.616,11.0
0.0,0.0,0.0,0.0
50.396,-5.95,-0.19,6.0
39.519,-4.66,-0.361,0.0
31.777,-3.742,-0.46,1.0
86.236,-10.156,1.162,128.0
86.905,-10.219,0.705,8.0
0.0,0.0,0.0,0.0
50.457,-5.915,-0.137,6.0
41.243,-4.828,-0.333,0.0
32.549,-3.805,-0.438,0.0
86.276,-10.088,1.252,151.0
86.239,-10.067,0.788,22.0
82.259,-9.587,0.31,3.0
50.447,-5.87,-0.085,1.0
41.396,-4.809,-0.292,0.0
33.489,-3.885,-0.416,0.0
86.197,-10.002,1.339,57.0
86.201,-9.985,0.876,61.0
0.0,0.0,0.0,0.0
0.0,0.0,0.0,0.0
0.0,0.0,0.0,0.0
34.769,-4.0,-0.396,0.0
86.243,-9.925,1.427,48.0
86.233,-9.906,0.964,151.0
87.331,-10.014,0.506,2.0
0.0,0.0,0.0,0.0
45.099,-5.153,-0.227,0.0
37.98,-4.333,-0.395,0.0
86.245,-9.842,1.513,54.0
86.256,-9.824,1.049,176.0
87.206,-9.913,0.592,6.0
67.741,-7.686,0.088,0.0
47.655,-5.397,-0.193,0.0
38.457,-4.348,-0.362,0.0
86.277,-9.757,1.597,44.0
86.259,-9.736,1.133,186.0
86.995,-9.799,0.675,9.0
0.0,0.0,0.0,0.0
50.382,-5.653,-0.155,0.0
39.321,-4.404,-0.333,0.0
86.311,-9.67,1.679,11.0
86.26,-9.644,1.215,151.0
86.365,-9.636,0.75,13.0
73.309,-8.163,0.234,1.0
0.0,0.0,0.0,0.0
41.662,-4.62,-0.314,0.0
86.808,-9.63,1.77,0.0
86.243,-9.547,1.293,81.0
86.238,-9.526,0.83,41.0
0.0,0.0,0.0,0.0
0.0,0.0,0.0,0.0
0.0,0.0,0.0,0.0
86.76,-9.526,1.849,4.0
86.263,-9.45,1.372,56.0
86.228,-9.425,0.907,59.0
0.0,0.0,0.0,0.0
0.0,0.0,0.0,0.0
0.0,0.0,0.0,0.0
86.844,-9.434,1.926,7.0
86.341,-9.357,1.448,36.0
86.284,-9.33,0.982,150.0
87.262,-9.414,0.513,1.0
0.0,0.0,0.0,0.0
0.0,0.0,0.0,0.0
123.565,-13.274,2.847,23.0
86.412,-9.26,1.524,37.0
86.344,-9.23,1.058,147.0
87.249,-9.304,0.589,8.0
0.0,0.0,0.0,0.0
0.0,0.0,0.0,0.0
123.652,-13.129,2.952,15.0
86.513,-9.163,1.597,29.0
86.434,-9.132,1.129,65.0
86.799,-9.147,0.656,4.0
0.0,0.0,0.0,0.0
0.0,0.0,0.0,0.0
187.791,-19.7,4.635,37.0
0.0,0.0,0.0,0.0
86.527,-9.03,1.199,14.0
86.734,-9.028,0.724,3.0
0.0,0.0,0.0,0.0
0.0,0.0,0.0,0.0
157.613,-16.326,4.015,150.0
96.254,-9.942,1.931,4.0
88.034,-9.069,1.29,7.0
88.287,-9.07,0.807,3.0
0.0,0.0,0.0,0.0
54.664,-5.586,-0.092,0.0
187.938,-19.211,4.932,54.0
96.136,-9.798,2.002,5.0
94.881,-9.643,1.461,5.0
94.469,-9.575,0.934,4.0
90.838,-9.182,0.406,1.0
0.0,0.0,0.0,0.0
188.101,-18.965,5.073,52.0
190.408,-19.141,4.105,6.0
95.49,-9.57,1.541,3.0
94.923,-9.486,1.008,3.0
94.914,-9.458,0.492,4.0
0.0,0.0,0.0,0.0
188.05,-18.689,5.208,54.0
188.06,-18.633,4.186,47.0
96.533,-9.535,1.625,4.0
96.28,-9.482,1.089,2.0
91.237,-8.959,0.536,1.0
0.0,0.0,0.0,0.0
188.117,-18.419,5.337,48.0
149.516,-14.594,3.43,49.0
0.0,0.0,0.0,0.0
97.787,-9.484,1.171,5.0
97.818,-9.458,0.641,2.0
0.0,0.0,0.0,0.0
148.962,-14.363,4.323,58.0
149.474,-14.366,3.524,98.0
108.786,-10.421,1.974,7.0
100.7,-9.616,1.269,2.0
100.907,-9.606,0.724,2.0
0.0,0.0,0.0,0.0
148.88,-14.13,4.412,74.0
188.072,-17.791,4.55,49.0
108.848,-10.263,2.04,8.0
108.776,-10.221,1.436,2.0
0.0,0.0,0.0,0.0
0.0,0.0,0.0,0.0
187.908,-17.543,5.679,47.0
188.379,-17.527,4.667,48.0
108.909,-10.097,2.105,7.0
108.511,-10.025,1.496,69.0
108.93,-10.03,0.907,1.0
0.0,0.0,0.0,0.0
188.232,-17.277,5.792,39.0
188.305,-17.222,4.77,37.0
188.38,-17.166,3.744,22.0
108.686,-9.869,1.556,24.0
108.754,-9.84,0.964,14.0
0.0,0.0,0.0,0.0
149.477,-13.478,4.679,15.0
188.363,-16.921,4.869,51.0
188.47,-16.867,3.843,27.0
109.737,-9.786,1.628,7.0
110.161,-9.787,1.033,5.0
0.0,0.0,0.0,0.0
149.657,-13.248,4.76,11.0
188.713,-16.641,4.971,38.0
157.235,-13.811,3.283,63.0
0.0,0.0,0.0,0.0
121.712,-10.612,1.199,17.0
0.0,0.0,0.0,0.0
157.376,-13.669,5.076,18.0
157.345,-13.612,4.216,67.0
190.123,-16.384,4.054,7.0
0.0,0.0,0.0,0.0
121.771,-10.411,1.252,25.0
0.0,0.0,0.0,0.0
157.388,-13.404,5.144,37.0
165.01,-13.995,4.489,68.0
165.053,-13.942,3.588,102.0
0.0,0.0,0.0,0.0
121.813,-10.207,1.302,2.0
0.0,0.0,0.0,0.0
157.624,-13.152,5.214,36.0
165.061,-13.716,4.555,26.0
201.655,-16.689,4.46,27.0
0.0,0.0,0.0,0.0
122.107,-10.021,1.35,25.0
87.214,-7.129,0.487,3.0
157.217,-12.847,5.256,39.0
203.677,-16.57,5.692,21.0
228.502,-18.513,5.133,8.0
0.0,0.0,0.0,0.0
0.0,0.0,0.0,0.0
0.0,0.0,0.0,0.0
164.433,-13.149,5.55,25.0
204.532,-16.281,5.78,6.0
214.734,-17.02,4.889,18.0
0.0,0.0,0.0,0.0
128.093,-10.063,1.496,2.0
0.0,0.0,0.0,0.0
196.735,-15.383,6.696,31.0
213.063,-16.582,6.08,28.0
291.452,-22.578,6.714,21.0
148.48,-11.452,2.59,123.0
148.54,-11.404,1.775,6.0
0.0,0.0,0.0,0.0
204.72,-15.637,7.02,12.0
196.714,-14.955,5.661,62.0
196.986,-14.907,4.586,74.0
148.878,-11.214,2.631,4.0
148.522,-11.135,1.808,154.0
0.0,0.0,0.0,0.0
205.039,-15.287,7.075,12.0
208.129,-15.443,6.034,24.0
291.921,-21.553,6.854,28.0
0.0,0.0,0.0,0.0
149.17,-10.907,1.846,8.0
0.0,0.0,0.0,0.0
195.263,-14.195,6.771,49.0
204.848,-14.816,5.974,37.0
204.886,-14.745,4.846,65.0
0.0,0.0,0.0,0.0
0.0,0.0,0.0,0.0
0.0,0.0,0.0,0.0
203.924,-14.442,7.102,22.0
208.411,-14.684,6.106,15.0
212.864,-14.921,5.061,74.0
0.0,0.0,0.0,0.0
0.0,0.0,0.0,0.0
0.0,0.0,0.0,0.0
0.0,0.0,0.0,0.0
208.699,-14.312,6.135,35.0
228.557,-15.592,5.455,71.0
187.16,-12.699,3.414,10.0
0.0,0.0,0.0,0.0
0.0,0.0,0.0,0.0
208.359,-13.967,7.291,28.0
208.923,-13.926,6.154,39.0
244.429,-16.202,5.847,51.0
187.203,-12.343,3.425,150.0
0.0,0.0,0.0,0.0
0.0,0.0,0.0,0.0
208.466,-13.577,7.3,31.0
248.354,-16.081,7.321,255.0
248.345,-15.987,5.945,159.0
187.184,-11.981,3.425,19.0
0.0,0.0,0.0,0.0
0.0,0.0,0.0,0.0
213.01,-13.458,7.456,10.0
244.283,-15.344,7.195,43.0
0.0,0.0,0.0,0.0
0.0,0.0,0.0,0.0
187.384,-11.564,2.385,46.0
0.0,0.0,0.0,0.0
228.366,-13.986,7.982,29.0
271.802,-16.544,7.991,32.0
272.047,-16.46,6.488,63.0
0.0,0.0,0.0,0.0
0.0,0.0,0.0,0.0
0.0,0.0,0.0,0.0
212.551,-12.605,7.411,8.0
279.044,-16.442,8.178,20.0
271.56,-15.902,6.449,11.0
0.0,0.0,0.0,0.0
0.0,0.0,0.0,0.0
0.0,0.0,0.0,0.0
0.0,0.0,0.0,0.0
0.0,0.0,0.0,0.0
0.0,0.0,0.0,0.0
228.037,-12.823,4.093,26.0
0.0,0.0,0.0,0.0
0.0,0.0,0.0,0.0
279.019,-15.451,9.645,14.0
233.892,-12.697,4.157,34.0
0.0,0.0,0.0,0.0
0.0,0.0,0.0,0.0
0.0,0.0,0.0,0.0
0.0,0.0,0.0,0.0
0.0,0.0,0.0,0.0
0.0,0.0,0.0,0.0
0.0,0.0,0.0,0.0
0.0,0.0,0.0,0.0
0.0,0.0,0.0,0.0
0.0,0.0,0.0,0.0
0.0,0.0,0.0,0.0
0.0,0.0,0.0,0.0
0.0,0.0,0.0,0.0
0.0,0.0,0.0,0.0
0.0,0.0,0.0,0.0
0.0,0.0,0.0,0.0
0.0,0.0,0.0,0.0
0.0,0.0,0.0,0.0
0.0,0.0,0.0,0.0
0.0,0.0,0.0,0.0
0.0,0.0,0.0,0.0
0.0,0.0,0.0,0.0
0.0,0.0,0.0,0.0
0.0,0.0,0.0,0.0
0.0,0.0,0.0,0.0
0.0,0.0,0.0,0.0
0.0,0.0,0.0,0.0
0.0,0.0,0.0,0.0
0.0,0.0,0.0,0.0
0.0,0.0,0.0,0.0
0.0,0.0,0.0,0.0
0.0,0.0,0.0,0.0
0.0,0.0,0.0,0.0
0.0,0.0,0.0,0.0
0.0,0.0,0.0,0.0
0.0,0.0,0.0,0.0
126.528,-5.057,1.237,2.0
0.0,0.0,0.0,0.0
0.0,0.0,0.0,0.0
0.0,0.0,0.0,0.0
0.0,0.0,0.0,0.0
0.0,0.0,0.0,0.0
0.0,0.0,0.0,0.0
0.0,0.0,0.0,0.0
0.0,0.0,0.0,0.0
0.0,0.0,0.0,0.0
0.0,0.0,0.0,0.0
0.0,0.0,0.0,0.0
0.0,0.0,0.0,0.0
0.0,0.0,0.0,0.0
0.0,0.0,0.0,0.0
0.0,0.0,0.0,0.0
131.381,-4.557,2.562,57.0
131.228,-4.505,1.808,80.0
0.0,0.0,0.0,0.0
0.0,0.0,0.0,0.0
0.0,0.0,0.0,0.0
0.0,0.0,0.0,0.0
131.344,-4.294,2.481,89.0
40.361,-1.305,0.531,9.0
0.0,0.0,0.0,0.0
0.0,0.0,0.0,0.0
40.41,-1.268,1.192,0.0
40.303,-1.251,0.962,29.0
40.335,-1.237,0.735,21.0
131.382,-3.987,1.644,11.0
93.276,-2.799,0.642,1.0
40.208,-1.193,0.05,40.0
40.292,-1.186,1.162,22.0
40.38,-1.174,0.937,6.0
0.0,0.0,0.0,0.0
40.255,-1.142,0.476,18.0
40.182,-1.126,0.249,56.0
40.196,-1.112,0.022,60.0
40.215,-1.103,1.131,48.0
40.197,-1.089,0.904,49.0
40.221,-1.075,0.677,52.0
40.202,-1.061,0.446,57.0
40.206,-1.047,0.219,39.0
0.0,0.0,0.0,0.0
40.216,-1.023,1.101,56.0
40.194,-1.009,0.873,56.0
40.206,-0.995,0.646,65.0
40.276,-0.983,0.416,78.0
40.31,-0.971,0.189,150.0
40.313,-0.958,-0.037,83.0
40.209,-0.944,1.069,62.0
40.198,-0.931,0.842,58.0
40.328,-0.92,0.617,12.0
0.0,0.0,0.0,0.0
0.0,0.0,0.0,0.0
0.0,0.0,0.0,0.0
40.226,-0.867,1.037,58.0
40.209,-0.852,0.809,54.0
40.231,-0.839,0.582,60.0
40.245,-0.826,0.35,50.0
40.295,-0.814,0.123,36.0
40.34,-0.802,-0.104,2.0
40.247,-0.789,1.003,54.0
40.185,-0.774,0.774,62.0
40.285,-0.762,0.547,28.0
40.237,-0.747,0.315,49.0
40.272,-0.735,0.087,65.0
40.306,-0.722,-0.14,54.0
40.262,-0.71,0.967,10.0
0.0,0.0,0.0,0.0
149.483,-2.54,1.897,7.0
91.521,-1.524,0.633,6.0
61.513,-1.005,0.077,4.0
46.349,-0.742,-0.203,3.0
187.121,-2.943,4.321,38.0
187.167,-2.88,3.26,46.0
148.26,-2.232,1.741,12.0
82.131,-1.21,0.49,2.0
60.723,-0.875,0.018,1.0
42.684,-0.601,-0.229,3.0
86.935,-1.199,1.922,45.0
86.945,-1.172,1.429,19.0
80.116,-1.053,0.862,19.0
77.972,-1.0,0.389,3.0
60.797,-0.76,-0.041,2.0
42.193,-0.513,-0.268,2.0
79.431,-0.944,1.676,177.0
79.408,-0.919,1.225,232.0
79.453,-0.895,0.775,168.0
60.524,-0.662,0.24,0.0
50.855,-0.539,-0.086,18.0
38.518,-0.396,-0.284,7.0
79.437,-0.796,1.595,177.0
79.45,-0.771,1.143,192.0
79.46,-0.746,0.692,150.0
58.724,-0.533,0.172,5.0
47.408,-0.415,-0.13,8.0
0.0,0.0,0.0,0.0
79.444,-0.648,1.51,166.0
79.45,-0.622,1.058,181.0
0.0,0.0,0.0,0.0
52.492,-0.379,0.096,18.0
41.908,-0.289,-0.16,3.0
33.798,-0.223,-0.321,1.0
79.443,-0.501,1.422,168.0
79.457,-0.477,0.971,167.0
76.717,-0.437,0.5,14.0
0.0,0.0,0.0,0.0
39.549,-0.2,-0.196,6.0
32.924,-0.157,-0.35,1.0
79.448,-0.355,1.332,161.0
79.458,-0.331,0.879,151.0
76.449,-0.295,0.41,10.0
46.402,-0.165,-0.019,21.0
39.04,-0.127,-0.239,7.0
31.776,-0.094,-0.375,2.0
79.462,-0.212,1.239,151.0
79.458,-0.188,0.786,151.0
61.749,-0.127,0.259,13.0
0.0,0.0,0.0,0.0
38.489,-0.056,-0.281,4.0
30.44,-0.035,-0.395,1.0
79.455,-0.069,1.143,151.0
79.402,-0.046,0.69,149.0
55.822,-0.016,0.166,29.0
40.845,0.0,-0.115,17.0
38.106,0.011,-0.324,1.0
29.678,0.017,-0.422,2.0
79.463,0.071,1.045,151.0
76.576,0.09,0.57,19.0
53.847,0.078,0.094,27.0
39.397,0.069,-0.159,39.0
33.44,0.068,-0.326,0.0
28.969,0.067,-0.448,2.0
79.466,0.208,0.946,151.0
75.931,0.221,0.47,18.0
47.314,0.15,0.023,21.0
38.636,0.134,-0.205,24.0
32.154,0.121,-0.354,1.0
28.204,0.114,-0.472,2.0
59.299,0.258,0.629,134.0
55.053,0.256,0.269,54.0
44.906,0.221,-0.036,21.0
37.976,0.197,-0.252,11.0
30.946,0.17,-0.382,2.0
27.261,0.157,-0.492,1.0
48.152,0.291,0.447,51.0
48.139,0.305,0.171,48.0
43.933,0.29,-0.094,5.0
37.574,0.259,-0.299,3.0
29.974,0.214,-0.41,2.0
26.593,0.198,-0.516,3.0
48.062,0.372,0.381,102.0
47.985,0.384,0.106,75.0
39.161,0.324,-0.137,43.0
33.542,0.287,-0.313,1.0
29.201,0.258,-0.44,2.0
25.857,0.235,-0.537,1.0
48.053,0.451,0.314,104.0
47.462,0.458,0.039,47.0
38.246,0.38,-0.187,44.0
32.241,0.329,-0.346,1.0
28.245,0.296,-0.465,1.0
22.053,0.236,-0.489,4.0
48.047,0.53,0.246,91.0
0.0,0.0,0.0,0.0
37.636,0.435,-0.238,13.0
30.913,0.365,-0.375,1.0
27.254,0.329,-0.487,1.0
21.343,0.263,-0.504,4.0
48.052,0.606,0.178,73.0
43.978,0.566,-0.089,4.0
37.141,0.488,-0.288,6.0
29.96,0.401,-0.407,2.0
26.569,0.363,-0.513,2.0
20.659,0.287,-0.517,4.0
48.002,0.681,0.107,56.0
38.846,0.561,-0.135,49.0
36.975,0.543,-0.34,0.0
29.159,0.436,-0.439,2.0
22.342,0.339,-0.464,1.0
19.959,0.308,-0.529,3.0
47.172,0.741,0.036,39.0
37.82,0.604,-0.187,43.0
32.413,0.525,-0.347,1.0
28.064,0.462,-0.464,1.0
21.726,0.363,-0.484,4.0
19.37,0.328,-0.543,3.0
44.811,0.771,-0.032,20.0
37.2,0.65,-0.24,13.0
30.826,0.546,-0.376,1.0
27.144,0.487,-0.49,1.0
20.999,0.382,-0.499,4.0
18.774,0.346,-0.555,9.0
39.659,0.742,-0.089,35.0
36.77,0.696,-0.294,9.0
29.738,0.57,-0.408,2.0
26.522,0.515,-0.519,1.0
20.323,0.399,-0.515,3.0
18.278,0.363,-0.568,5.0
38.431,0.774,-0.146,35.0
33.278,0.678,-0.318,1.0
28.911,0.596,-0.442,1.0
22.196,0.463,-0.469,4.0
19.649,0.414,-0.529,3.0
17.7,0.377,-0.578,7.0
37.227,0.803,-0.201,32.0
31.75,0.693,-0.354,2.0
27.708,0.611,-0.468,1.0
21.295,0.474,-0.484,4.0
19.059,0.429,-0.543,3.0
17.27,0.392,-0.591,4.0
36.731,0.843,-0.256,10.0
30.331,0.703,-0.386,1.0
27.032,0.633,-0.5,1.0
20.669,0.488,-0.503,4.0
18.453,0.44,-0.555,3.0
16.707,0.402,-0.599,3.0
36.32,0.883,-0.312,3.0
29.352,0.72,-0.421,2.0
22.746,0.562,-0.457,4.0
19.948,0.498,-0.517,3.0
17.822,0.448,-0.565,5.0
16.193,0.411,-0.607,2.0
32.545,0.834,-0.332,1.0
28.317,0.731,-0.452,1.0
21.786,0.567,-0.473,4.0
19.321,0.507,-0.533,3.0
17.372,0.46,-0.579,4.0
15.727,0.419,-0.615,3.0
30.948,0.832,-0.367,2.0
27.373,0.742,-0.482,1.0
21.008,0.574,-0.491,4.0
18.678,0.514,-0.546,4.0
16.855,0.467,-0.59,2.0
15.414,0.43,-0.628,3.0
29.727,0.837,-0.402,2.0
23.478,0.665,-0.452,5.0
20.275,0.579,-0.507,3.0
18.136,0.521,-0.56,3.0
16.288,0.471,-0.597,2.0
14.599,0.425,-0.619,2.0
28.729,0.843,-0.436,1.0
22.094,0.652,-0.462,4.0
19.566,0.582,-0.522,3.0
17.571,0.526,-0.572,3.0
15.779,0.475,-0.605,2.0
14.296,0.433,-0.631,3.0
27.644,0.844,-0.466,1.0
21.118,0.648,-0.478,4.0
18.838,0.582,-0.535,3.0
17.069,0.531,-0.585,2.0
14.847,0.464,-0.594,5.0
14.056,0.442,-0.644,3.0
23.744,0.751,-0.441,5.0
20.419,0.65,-0.496,3.0
18.206,0.583,-0.548,3.0
16.438,0.529,-0.591,2.0
14.517,0.47,-0.606,1.0
13.85,0.451,-0.658,3.0
22.314,0.731,-0.452,4.0
19.687,0.648,-0.513,3.0
17.655,0.584,-0.562,3.0
15.934,0.53,-0.6,2.0
14.118,0.472,-0.614,0.0
13.634,0.459,-0.671,3.0
21.281,0.72,-0.468,4.0
19.032,0.647,-0.528,3.0
17.161,0.586,-0.576,3.0
15.092,0.518,-0.595,2.0
13.794,0.476,-0.623,1.0
13.396,0.465,-0.683,3.0
20.63,0.719,-0.49,4.0
18.386,0.643,-0.542,3.0
16.592,0.583,-0.585,2.0
14.635,0.517,-0.602,15.0
13.484,0.479,-0.633,1.0
13.175,0.47,-0.695,5.0
19.891,0.713,-0.507,3.0
17.757,0.639,-0.555,3.0
16.009,0.579,-0.593,2.0
14.503,0.527,-0.623,16.0
13.221,0.482,-0.644,1.0
12.938,0.474,-0.705,6.0
19.162,0.705,-0.522,3.0
17.32,0.64,-0.572,6.0
15.207,0.564,-0.59,2.0
14.069,0.524,-0.629,12.0
13.05,0.488,-0.659,7.0
12.625,0.475,-0.711,3.0
18.485,0.697,-0.537,4.0
16.603,0.628,-0.578,2.0
14.668,0.557,-0.595,12.0
13.76,0.525,-0.639,7.0
13.065,0.501,-0.683,10.0
12.281,0.473,-0.713,2.0
17.81,0.687,-0.549,4.0
15.953,0.618,-0.584,6.0
14.611,0.568,-0.619,13.0
13.376,0.522,-0.645,4.0
12.957,0.508,-0.7,7.0
11.957,0.47,-0.716,2.0
17.337,0.683,-0.565,3.0
15.338,0.607,-0.588,3.0
14.36,0.57,-0.634,14.0
13.054,0.52,-0.653,6.0
12.696,0.508,-0.709,5.0
11.664,0.468,-0.719,2.0
16.682,0.671,-0.573,2.0
14.684,0.592,-0.589,12.0
13.725,0.556,-0.63,14.0
13.064,0.53,-0.677,10.0
12.406,0.506,-0.715,2.0
11.377,0.465,-0.722,2.0
16.159,0.662,-0.584,2.0
14.609,0.6,-0.612,13.0
13.41,0.553,-0.64,13.0
12.93,0.535,-0.693,5.0
12.013,0.498,-0.714,2.0
11.104,0.462,-0.724,2.0
15.462,0.644,-0.587,2.0
14.46,0.604,-0.632,14.0
13.148,0.551,-0.651,8.0
12.673,0.533,-0.702,3.0
11.725,0.494,-0.718,2.0
10.882,0.46,-0.729,2.0
14.671,0.621,-0.583,12.0
13.978,0.593,-0.636,14.0
13.026,0.555,-0.668,10.0
12.409,0.53,-0.71,2.0
11.415,0.489,-0.719,2.0
10.634,0.457,-0.732,2.0
14.648,0.63,-0.608,21.0
13.497,0.581,-0.638,13.0
13.0,0.562,-0.69,6.0
12.149,0.526,-0.717,1.0
11.138,0.484,-0.722,2.0
10.444,0.455,-0.737,2.0
14.526,0.633,-0.629,17.0
13.172,0.575,-0.646,8.0
12.716,0.557,-0.698,3.0
11.809,0.518,-0.718,2.0
10.915,0.48,-0.727,2.0
10.207,0.45,-0.739,2.0
14.074,0.621,-0.634,15.0
13.053,0.577,-0.664,11.0
12.373,0.548,-0.701,3.0
11.504,0.511,-0.72,2.0
10.679,0.476,-0.73,2.0
10.044,0.449,-0.745,2.0
13.625,0.608,-0.639,17.0
13.035,0.583,-0.687,7.0
12.138,0.544,-0.71,1.0
11.191,0.503,-0.721,2.0
10.466,0.471,-0.735,2.0
9.897,0.447,-0.752,2.0
13.315,0.601,-0.648,11.0
12.774,0.577,-0.695,3.0
11.853,0.537,-0.714,2.0
10.949,0.497,-0.724,2.0
10.228,0.465,-0.736,2.0
9.764,0.445,-0.76,2.0
13.062,0.595,-0.659,11.0
12.4,0.566,-0.697,3.0
11.595,0.53,-0.719,2.0
10.715,0.491,-0.728,2.0
10.04,0.461,-0.741,2.0
9.684,0.445,-0.771,2.0
13.073,0.6,-0.682,9.0
12.136,0.558,-0.704,2.0
11.26,0.519,-0.718,2.0
10.497,0.485,-0.732,2.0
9.878,0.457,-0.746,2.0
9.614,0.446,-0.782,2.0
12.851,0.595,-0.694,3.0
11.865,0.55,-0.709,2.0
10.996,0.51,-0.721,2.0
10.26,0.477,-0.733,2.0
9.726,0.453,-0.752,2.0
9.577,0.447,-0.796,2.0
12.469,0.581,-0.695,3.0
11.647,0.543,-0.717,2.0
10.787,0.504,-0.726,2.0
10.08,0.472,-0.738,2.0
9.61,0.45,-0.76,2.0
9.532,0.448,-0.809,1.0
12.197,0.572,-0.701,3.0
11.323,0.531,-0.717,2.0
10.556,0.496,-0.73,2.0
9.894,0.466,-0.742,2.0
9.546,0.45,-0.772,1.0
9.472,0.447,-0.821,1.0
11.894,0.56,-0.705,3.0
11.066,0.522,-0.72,2.0
10.326,0.487,-0.731,2.0
9.737,0.46,-0.747,2.0
9.519,0.451,-0.786,1.0
9.446,0.448,-0.835,1.0
11.681,0.552,-0.712,2.0
10.83,0.513,-0.723,2.0
10.13,0.48,-0.735,2.0
9.605,0.456,-0.754,2.0
9.456,0.449,-0.797,2.0
9.448,0.449,-0.852,0.0
11.421,0.542,-0.716,2.0
10.62,0.504,-0.727,2.0
9.944,0.472,-0.739,2.0
9.511,0.452,-0.763,2.0
9.424,0.449,-0.811,2.0
9.429,0.45,-0.866,0.0
11.14,0.529,-0.717,2.0
10.406,0.495,-0.73,2.0
9.772,0.465,-0.743,2.0
9.471,0.451,-0.776,1.0
9.419,0.449,-0.826,1.0
9.425,0.45,-0.882,0.0
10.925,0.52,-0.722,2.0
10.2,0.486,-0.733,2.0
9.625,0.459,-0.748,2.0
9.429,0.45,-0.788,2.0
9.424,0.45,-0.843,0.0
9.445,0.452,-0.9,0.0
10.713,0.51,-0.726,2.0
10.015,0.477,-0.736,2.0
9.543,0.455,-0.757,2.0
9.412,0.449,-0.802,2.0
9.421,0.45,-0.858,0.0
9.408,0.45,-0.912,0.0
10.512,0.5,-0.729,2.0
9.845,0.469,-0.74,2.0
9.48,0.452,-0.768,1.0
9.409,0.449,-0.818,1.0
9.432,0.45,-0.875,0.0
9.401,0.449,-0.927,0.0
10.281,0.489,-0.73,2.0
9.706,0.462,-0.746,2.0
9.47,0.451,-0.783,1.0
9.451,0.45,-0.837,1.0
9.456,0.451,-0.892,0.0
9.362,0.446,-0.938,0.0
10.12,0.48,-0.735,2.0
9.599,0.456,-0.753,2.0
9.473,0.45,-0.798,2.0
9.466,0.45,-0.854,0.0
9.464,0.45,-0.909,0.0
9.392,0.447,-0.957,0.0
9.939,0.47,-0.738,2.0
9.536,0.451,-0.763,2.0
9.484,0.449,-0.814,1.0
9.503,0.45,-0.872,0.0
9.471,0.449,-0.924,0.0
9.311,0.441,-0.963,0.0
9.795,0.462,-0.743,2.0
9.546,0.45,-0.779,1.0
9.503,0.448,-0.831,1.0
9.55,0.451,-0.892,0.0
9.44,0.446,-0.937,0.0
8.916,0.421,-0.937,0.0
9.675,0.454,-0.749,2.0
9.569,0.449,-0.796,2.0
9.555,0.449,-0.85,0.0
9.56,0.449,-0.908,0.0
9.486,0.446,-0.956,0.0
8.577,0.403,-0.914,0.0
9.636,0.45,-0.761,2.0
9.595,0.448,-0.813,1.0
9.596,0.448,-0.869,0.0
9.556,0.446,-0.922,0.0
9.463,0.442,-0.968,0.0
8.441,0.394,-0.913,0.0
9.64,0.448,-0.776,2.0
9.635,0.447,-0.831,1.0
9.644,0.448,-0.888,0.0
9.584,0.445,-0.939,0.0
9.277,0.43,-0.963,0.0
8.311,0.386,-0.911,0.0
9.684,0.447,-0.793,2.0
9.672,0.446,-0.848,0.0
9.671,0.446,-0.905,0.0
9.615,0.443,-0.956,0.0
8.661,0.399,-0.912,0.0
8.236,0.379,-0.915,0.0
9.729,0.445,-0.811,2.0
9.767,0.447,-0.871,0.0
9.693,0.443,-0.921,0.0
9.55,0.437,-0.964,0.0
8.514,0.389,-0.909,0.0
8.153,0.372,-0.918,0.0
9.8,0.445,-0.831,1.0
9.818,0.445,-0.89,0.0
9.735,0.441,-0.939,0.0
9.342,0.423,-0.956,0.0
8.405,0.381,-0.909,0.0
8.064,0.365,-0.919,0.0
9.87,0.444,-0.851,0.0
9.843,0.442,-0.906,0.0
9.765,0.439,-0.955,0.0
8.797,0.395,-0.913,0.0
8.309,0.373,-0.91,0.0
7.972,0.357,-0.92,0.0
9.974,0.444,-0.874,0.0
9.885,0.44,-0.923,0.0
9.635,0.428,-0.956,0.0
8.597,0.382,-0.904,0.0
8.255,0.366,-0.916,0.0
7.916,0.351,-0.924,0.0
10.01,0.441,-0.89,0.0
9.933,0.437,-0.941,0.0
9.269,0.407,-0.932,0.0
8.518,0.374,-0.907,0.0
8.174,0.358,-0.918,0.0
7.823,0.343,-0.924,0.0
10.02,0.436,-0.905,0.0
9.953,0.432,-0.956,0.0
8.856,0.384,-0.902,0.0
8.434,0.366,-0.909,0.0
8.11,0.351,-0.921,0.0
7.791,0.337,-0.93,0.0
10.1,0.434,-0.925,0.0
9.723,0.417,-0.946,0.0
8.733,0.374,-0.901,0.0
8.366,0.358,-0.912,0.0
8.0,0.342,-0.919,0.0
7.654,0.327,-0.924,0.0
10.178,0.431,-0.945,0.0
9.07,0.384,-0.894,0.0
8.643,0.365,-0.902,0.0
8.266,0.349,-0.911,0.0
7.95,0.335,-0.923,0.0
7.582,0.319,-0.924,0.0
10.064,0.42,-0.946,0.0
8.973,0.374,-0.895,0.0
8.562,0.356,-0.904,0.0
8.201,0.341,-0.914,0.0
7.836,0.325,-0.919,0.0
7.558,0.313,-0.931,0.0
9.393,0.386,-0.894,0.0
8.887,0.365,-0.897,0.0
8.467,0.347,-0.904,0.0
8.129,0.332,-0.916,0.0
7.836,0.32,-0.928,0.0
7.474,0.305,-0.929,0.0
9.307,0.376,-0.897,0.0
8.834,0.356,-0.902,0.0
8.425,0.339,-0.909,0.0
8.051,0.324,-0.916,0.0
7.732,0.31,-0.925,0.0
7.408,0.297,-0.929,0.0
9.186,0.365,-0.895,0.0
8.745,0.346,-0.903,0.0
8.355,0.33,-0.911,0.0
7.993,0.316,-0.919,0.0
7.706,0.304,-0.93,0.0
7.353,0.289,-0.931,0.0
9.094,0.354,-0.896,0.0
8.638,0.336,-0.901,0.0
8.279,0.321,-0.912,0.0
7.933,0.307,-0.92,0.0
7.586,0.293,-0.924,0.0
7.304,0.282,-0.932,0.0
8.979,0.343,-0.894,0.0
8.563,0.326,-0.902,0.0
8.171,0.311,-0.908,0.0
7.897,0.3,-0.924,0.0
7.569,0.287,-0.93,0.0
7.252,0.274,-0.933,0.0
8.877,0.332,-0.893,0.0
8.532,0.319,-0.908,0.0
8.127,0.303,-0.911,0.0
7.769,0.289,-0.917,0.0
7.502,0.278,-0.929,0.0
7.208,0.266,-0.935,0.0
8.828,0.323,-0.897,0.0
8.412,0.307,-0.903,0.0
8.104,0.295,-0.917,0.0
7.762,0.282,-0.924,0.0
7.432,0.269,-0.928,0.0
7.17,0.259,-0.936,0.0
8.778,0.314,-0.9,0.0
8.366,0.298,-0.906,0.0
8.053,0.286,-0.918,0.0
7.644,0.271,-0.917,0.0
7.393,0.261,-0.929,0.0
7.115,0.251,-0.936,0.0
8.719,0.304,-0.902,0.0
8.299,0.289,-0.906,0.0
7.988,0.277,-0.918,0.0
7.646,0.264,-0.924,0.0
7.357,0.254,-0.932,0.0
7.033,0.242,-0.931,0.0
8.662,0.295,-0.903,0.0
8.204,0.278,-0.903,0.0
7.965,0.269,-0.922,0.0
7.621,0.257,-0.927,0.0
7.313,0.246,-0.932,0.0
6.947,0.232,-0.926,0.0
8.587,0.284,-0.903,0.0
8.168,0.269,-0.905,0.0
7.889,0.259,-0.92,0.0
7.555,0.248,-0.925,0.0
7.265,0.237,-0.932,0.0
6.92,0.225,-0.928,1.0
8.521,0.274,-0.902,0.0
8.132,0.261,-0.908,1.0
7.842,0.251,-0.92,0.0
7.49,0.238,-0.923,0.0
7.238,0.229,-0.934,0.0
6.91,0.218,-0.932,1.0
8.454,0.264,-0.901,0.0
8.131,0.253,-0.913,0.0
7.77,0.241,-0.918,0.0
7.454,0.23,-0.924,0.0
7.193,0.221,-0.933,0.0
6.924,0.212,-0.938,0.0
8.431,0.255,-0.905,0.0
8.077,0.244,-0.913,0.0
7.727,0.232,-0.918,0.0
7.434,0.222,-0.927,0.0
7.168,0.213,-0.935,0.0
6.888,0.204,-0.938,0.0
8.318,0.244,-0.898,0.0
8.036,0.234,-0.914,0.0
7.703,0.223,-0.92,0.0
7.415,0.214,-0.929,0.0
7.125,0.205,-0.934,0.0
6.873,0.197,-0.94,0.0
8.236,0.233,-0.894,1.0
8.01,0.225,-0.915,0.0
7.659,0.214,-0.919,0.0
7.395,0.206,-0.931,0.0
7.107,0.197,-0.935,0.0
6.839,0.189,-0.94,0.0
8.216,0.224,-0.897,2.0
7.97,0.216,-0.915,0.0
7.632,0.206,-0.92,0.0
7.331,0.197,-0.927,0.0
7.081,0.189,-0.936,0.0
6.818,0.181,-0.94,0.0
8.208,0.215,-0.9,2.0
7.969,0.208,-0.919,0.0
7.627,0.198,-0.924,0.0
7.33,0.189,-0.93,0.0
7.071,0.181,-0.938,0.0
6.806,0.173,-0.942,0.0
8.204,0.206,-0.904,1.0
7.91,0.198,-0.916,0.0
7.592,0.189,-0.923,0.0
7.295,0.18,-0.929,0.0
7.037,0.173,-0.937,0.0
6.784,0.166,-0.942,0.0
8.207,0.198,-0.907,0.0
7.889,0.189,-0.917,0.0
7.594,0.181,-0.926,0.0
7.286,0.172,-0.931,0.0
7.025,0.165,-0.938,0.0
6.741,0.157,-0.939,0.0
8.186,0.188,-0.908,0.0
7.858,0.18,-0.917,0.0
7.552,0.171,-0.924,0.0
7.251,0.163,-0.929,0.0
7.0,0.157,-0.937,0.0
6.756,0.15,-0.943,0.0
8.185,0.179,-0.911,0.0
7.84,0.171,-0.917,0.0
7.528,0.163,-0.924,0.0
7.228,0.155,-0.929,0.0
7.006,0.149,-0.94,0.0
6.713,0.142,-0.94,0.0
8.145,0.17,-0.909,0.0
7.848,0.162,-0.92,0.0
7.529,0.154,-0.926,0.0
7.249,0.147,-0.933,0.0
6.963,0.14,-0.936,0.0
6.703,0.134,-0.94,0.0
8.113,0.16,-0.907,0.0
7.819,0.153,-0.919,0.0
7.537,0.146,-0.929,0.0
7.226,0.139,-0.932,0.0
6.966,0.133,-0.938,0.0
6.696,0.126,-0.94,0.0
8.108,0.151,-0.909,0.0
7.807,0.144,-0.919,0.0
7.502,0.137,-0.926,0.0
7.221,0.131,-0.933,0.0
6.952,0.124,-0.938,0.0
6.713,0.119,-0.944,0.0
8.093,0.142,-0.908,0.0
7.81,0.135,-0.921,0.0
7.471,0.128,-0.923,0.0
7.231,0.123,-0.935,0.0
6.952,0.117,-0.939,0.0
6.695,0.111,-0.942,0.0
8.086,0.132,-0.908,0.0
7.806,0.126,-0.921,0.0
7.472,0.12,-0.924,0.0
7.205,0.114,-0.932,0.0
6.934,0.109,-0.937,0.0
6.69,0.103,-0.942,0.0
8.08,0.123,-0.908,0.0
7.8,0.117,-0.921,0.0
7.469,0.111,-0.924,0.0
7.212,0.106,-0.934,0.0
6.938,0.101,-0.938,0.0
6.683,0.096,-0.941,0.0
8.101,0.114,-0.911,0.0
7.795,0.108,-0.92,0.0
7.444,0.102,-0.921,0.0
7.228,0.098,-0.936,0.0
6.944,0.093,-0.938,0.0
6.689,0.088,-0.942,0.0
8.089,0.105,-0.909,0.0
7.778,0.099,-0.918,0.0
7.479,0.094,-0.925,0.0
7.221,0.09,-0.934,0.0
6.968,0.085,-0.941,0.0
6.695,0.081,-0.942,0.0
8.112,0.096,-0.911,0.0
7.81,0.091,-0.921,0.0
7.473,0.086,-0.923,0.0
7.227,0.081,-0.934,0.0
6.978,0.077,-0.942,0.0
6.705,0.073,-0.943,0.0
8.106,0.087,-0.909,0.0
7.811,0.082,-0.92,0.0
7.487,0.077,-0.924,0.0
7.228,0.073,-0.934,0.0
6.968,0.069,-0.939,0.0
6.709,0.065,-0.942,0.0
8.117,0.077,-0.909,0.0
7.819,0.073,-0.92,0.0
7.521,0.069,-0.927,0.0
7.232,0.065,-0.933,0.0
6.995,0.061,-0.942,0.0
6.721,0.058,-0.943,0.0
8.121,0.068,-0.908,0.0
7.821,0.064,-0.918,0.0
7.51,0.06,-0.924,0.0
7.264,0.057,-0.935,0.0
7.01,0.053,-0.942,0.0
6.72,0.05,-0.941,0.0
8.135,0.059,-0.908,0.0
7.856,0.056,-0.92,0.0
7.542,0.052,-0.926,0.0
7.246,0.048,-0.931,0.0
6.995,0.045,-0.938,0.0
6.752,0.042,-0.943,0.0
8.172,0.05,-0.909,0.0
7.882,0.047,-0.921,0.0
7.544,0.043,-0.924,0.0
7.27,0.04,-0.932,0.0
7.026,0.038,-0.94,0.0
6.769,0.035,-0.943,0.0
8.198,0.041,-0.909,0.0
7.904,0.038,-0.921,0.0
7.586,0.035,-0.926,0.0
7.291,0.032,-0.932,0.0
7.036,0.03,-0.938,0.0
6.774,0.027,-0.942,0.0
8.21,0.032,-0.908,0.0
7.906,0.029,-0.918,0.0
7.599,0.027,-0.925,0.0
7.33,0.024,-0.933,0.0
7.055,0.022,-0.938,0.0
6.802,0.02,-0.942,0.0
8.248,0.023,-0.908,0.0
7.921,0.02,-0.916,0.0
7.637,0.018,-0.926,0.0
7.332,0.016,-0.93,0.0
7.075,0.014,-0.937,0.0
6.822,0.012,-0.942,0.0
8.277,0.014,-0.907,0.0
7.962,0.012,-0.917,0.0
7.661,0.01,-0.925,0.0
7.375,0.008,-0.932,0.0
7.095,0.006,-0.936,0.0
6.839,0.005,-0.941,0.0
8.305,0.005,-0.906,0.0
8.008,0.003,-0.918,0.0
7.684,0.001,-0.923,0.0
7.395,0.0,-0.93,0.0
7.144,-0.001,-0.939,0.0
6.888,-0.002,-0.943,0.0
8.333,-0.004,-0.904,0.0
8.022,-0.005,-0.915,0.0
7.727,-0.006,-0.924,0.0
7.421,-0.007,-0.929,0.0
7.145,-0.009,-0.934,0.0
6.918,-0.01,-0.943,0.0
8.367,-0.013,-0.903,0.0
8.054,-0.014,-0.913,0.0
7.749,-0.015,-0.921,0.0
7.472,-0.016,-0.931,0.0
7.179,-0.016,-0.934,0.0
6.942,-0.017,-0.942,0.0
8.407,-0.022,-0.901,0.0
8.098,-0.022,-0.913,0.0
7.803,-0.023,-0.923,0.0
7.494,-0.024,-0.928,0.0
7.228,-0.024,-0.935,0.0
6.982,-0.025,-0.942,0.0
8.457,-0.031,-0.901,0.0
8.123,-0.031,-0.91,0.0
7.842,-0.031,-0.922,0.0
7.535,-0.032,-0.928,0.0
7.255,-0.032,-0.934,0.0
7.007,-0.032,-0.94,0.0
8.507,-0.04,-0.9,0.0
8.199,-0.04,-0.912,0.0
7.866,-0.04,-0.918,0.0
7.579,-0.04,-0.927,0.0
7.312,-0.04,-0.935,0.0
7.04,-0.04,-0.939,0.0
8.557,-0.049,-0.898,0.0
8.223,-0.048,-0.908,0.0
7.925,-0.048,-0.919,0.0
7.607,-0.048,-0.924,0.0
7.357,-0.048,-0.935,0.0
7.079,-0.047,-0.938,0.0
8.607,-0.058,-0.896,0.0
8.282,-0.057,-0.907,0.0
7.955,-0.056,-0.915,0.0
7.67,-0.056,-0.925,0.0
7.382,-0.055,-0.931,0.0
7.124,-0.055,-0.938,0.0
8.683,-0.067,-0.896,0.0
8.327,-0.066,-0.905,0.0
8.02,-0.065,-0.916,0.0
7.72,-0.064,-0.924,0.0
7.428,-0.063,-0.93,0.0
7.168,-0.062,-0.937,0.0
8.761,-0.076,-0.896,0.0
8.38,-0.074,-0.903,0.0
8.067,-0.073,-0.913,0.0
7.777,-0.072,-0.924,0.0
7.497,-0.071,-0.932,0.0
7.204,-0.069,-0.935,0.0
8.835,-0.085,-0.895,0.0
8.451,-0.083,-0.902,0.0
8.113,-0.081,-0.911,0.0
7.812,-0.08,-0.92,0.0
7.533,-0.078,-0.929,0.0
7.251,-0.077,-0.934,0.0
8.912,-0.094,-0.894,0.0
8.521,-0.092,-0.901,0.0
8.165,-0.089,-0.908,0.0
7.89,-0.088,-0.921,0.0
7.592,-0.086,-0.928,0.0
7.319,-0.084,-0.935,0.0
8.982,-0.103,-0.892,0.0
8.589,-0.1,-0.899,0.0
8.244,-0.098,-0.908,0.0
7.944,-0.096,-0.919,0.0
7.644,-0.093,-0.926,0.0
7.372,-0.091,-0.933,0.0
9.084,-0.113,-0.892,0.0
8.678,-0.109,-0.899,0.0
8.294,-0.106,-0.905,0.0
7.992,-0.103,-0.916,0.0
7.706,-0.101,-0.925,0.0
7.433,-0.099,-0.933,0.0
9.158,-0.122,-0.889,0.0
8.732,-0.117,-0.895,0.0
8.392,-0.114,-0.906,0.0
8.06,-0.111,-0.914,0.0
7.775,-0.109,-0.924,0.0
7.485,-0.106,-0.93,0.0
9.261,-0.131,-0.889,0.0
8.828,-0.126,-0.895,0.0
8.454,-0.122,-0.902,0.0
8.129,-0.119,-0.913,0.0
7.831,-0.116,-0.922,0.0
7.552,-0.113,-0.93,0.0
9.364,-0.14,-0.887,0.0
8.921,-0.135,-0.893,0.0
8.532,-0.13,-0.9,0.0
8.2,-0.127,-0.911,0.0
7.905,-0.123,-0.921,0.0
7.622,-0.12,-0.929,0.0
9.452,-0.149,-0.884,0.0
9.031,-0.143,-0.893,0.0
8.627,-0.138,-0.9,0.0
8.294,-0.135,-0.911,0.0
7.974,-0.131,-0.918,0.0
7.688,-0.127,-0.927,0.0
9.561,-0.158,-0.882,0.0
9.119,-0.152,-0.89,0.0
8.702,-0.146,-0.896,0.0
8.354,-0.142,-0.906,0.0
8.041,-0.138,-0.916,0.0
7.761,-0.134,-0.926,0.0
9.667,-0.167,-0.879,0.0
9.257,-0.161,-0.892,0.0
8.798,-0.154,-0.895,0.0
8.444,-0.15,-0.905,0.0
8.12,-0.145,-0.914,0.0
7.843,-0.141,-0.925,0.0
9.786,-0.176,-0.877,2.0
9.341,-0.169,-0.887,0.0
8.926,-0.163,-0.896,0.0
8.543,-0.157,-0.904,0.0
8.2,-0.152,-0.912,0.0
7.906,-0.148,-0.922,0.0
9.87,-0.184,-0.871,2.0
9.469,-0.178,-0.886,0.0
9.008,-0.171,-0.891,0.0
8.635,-0.165,-0.901,0.0
8.299,-0.16,-0.911,0.0
7.985,-0.155,-0.919,0.0
9.997,-0.193,-0.868,1.0
9.577,-0.186,-0.883,0.0
9.138,-0.179,-0.891,0.0
8.729,-0.173,-0.899,0.0
8.374,-0.167,-0.907,0.0
8.062,-0.162,-0.916,0.0
10.147,-0.203,-0.867,0.0
9.722,-0.195,-0.882,0.0
9.274,-0.188,-0.891,0.0
8.834,-0.18,-0.897,0.0
8.476,-0.174,-0.906,0.0
8.134,-0.168,-0.913,0.0
10.336,-0.213,-0.868,0.0
9.803,-0.203,-0.875,2.0
9.375,-0.195,-0.887,0.0
8.953,-0.188,-0.896,0.0
8.577,-0.181,-0.904,0.0
8.247,-0.175,-0.913,0.0
10.475,-0.221,-0.864,0.0
9.923,-0.211,-0.871,1.0
9.492,-0.203,-0.883,0.0
9.08,-0.196,-0.894,0.0
8.68,-0.188,-0.901,0.0
8.342,-0.182,-0.911,0.0
10.633,-0.231,-0.861,0.0
10.078,-0.22,-0.869,0.0
9.662,-0.212,-0.884,0.0
9.212,-0.203,-0.893,0.0
8.793,-0.195,-0.899,0.0
8.432,-0.188,-0.907,0.0
10.807,-0.24,-0.858,0.0
10.248,-0.229,-0.868,0.0
9.771,-0.219,-0.879,1.0
9.328,-0.21,-0.89,0.0
8.934,-0.202,-0.9,0.0
8.529,-0.194,-0.904,0.0
10.978,-0.249,-0.854,0.0
10.419,-0.237,-0.866,0.0
9.869,-0.226,-0.872,1.0
9.457,-0.218,-0.887,0.0
9.029,-0.209,-0.895,0.0
8.638,-0.201,-0.902,0.0
11.168,-0.258,-0.851,0.0
10.59,-0.246,-0.863,0.0
10.021,-0.234,-0.869,0.0
9.588,-0.225,-0.883,0.0
9.176,-0.216,-0.894,0.0
8.758,-0.207,-0.9,0.0
11.354,-0.267,-0.846,0.0
10.767,-0.254,-0.859,0.0
10.226,-0.243,-0.87,0.0
9.759,-0.233,-0.883,1.0
9.307,-0.223,-0.891,0.0
8.896,-0.214,-0.899,0.0
11.556,-0.276,-0.842,0.0
10.95,-0.263,-0.856,0.0
10.402,-0.251,-0.868,0.0
9.849,-0.238,-0.875,1.0
9.458,-0.23,-0.89,0.0
9.033,-0.22,-0.898,0.0
11.736,-0.285,-0.836,1.0
11.14,-0.271,-0.852,0.0
10.584,-0.258,-0.865,0.0
10.017,-0.246,-0.872,0.0
9.609,-0.236,-0.888,0.0
9.161,-0.226,-0.895,0.0
11.946,-0.293,-0.83,0.0
11.332,-0.279,-0.847,0.0
10.748,-0.266,-0.86,0.0
10.218,-0.253,-0.872,0.0
9.749,-0.243,-0.884,1.0
9.301,-0.232,-0.892,0.0
12.188,-0.303,-0.826,0.0
11.553,-0.288,-0.843,0.0
10.946,-0.273,-0.857,0.0
10.399,-0.261,-0.869,0.0
9.856,-0.248,-0.876,1.0
9.45,-0.238,-0.89,0.0
12.444,-0.312,-0.821,0.0
11.744,-0.295,-0.837,1.0
11.136,-0.281,-0.852,1.0
10.571,-0.267,-0.865,0.0
10.019,-0.254,-0.872,0.0
9.61,-0.244,-0.887,0.0
12.694,-0.321,-0.815,0.0
11.975,-0.303,-0.831,0.0
11.337,-0.288,-0.847,0.0
10.771,-0.274,-0.862,0.0
10.239,-0.261,-0.873,0.0
9.759,-0.25,-0.883,1.0
12.983,-0.33,-0.81,0.0
12.255,-0.312,-0.829,0.0
11.574,-0.295,-0.843,0.0
10.964,-0.281,-0.858,0.0
10.445,-0.268,-0.872,0.0
9.873,-0.254,-0.876,1.0
13.261,-0.339,-0.804,0.0
12.479,-0.319,-0.821,0.0
11.77,-0.302,-0.836,1.0
11.173,-0.287,-0.853,0.0
10.621,-0.273,-0.867,0.0
10.052,-0.259,-0.873,0.0
13.523,-0.347,-0.795,1.0
12.744,-0.327,-0.816,0.0
12.018,-0.309,-0.832,1.0
11.38,-0.293,-0.848,0.0
10.817,-0.279,-0.863,0.0
10.283,-0.266,-0.874,0.0
13.847,-0.356,-0.788,1.0
13.035,-0.335,-0.81,1.0
12.291,-0.317,-0.828,0.0
11.627,-0.3,-0.845,1.0
11.011,-0.284,-0.857,0.0
10.489,-0.271,-0.872,0.0
14.176,-0.364,-0.781,1.0
13.314,-0.343,-0.802,1.0
12.535,-0.323,-0.821,0.0
11.812,-0.304,-0.836,1.0
11.222,-0.29,-0.853,0.0
10.662,-0.275,-0.866,0.0
14.571,-0.374,-0.775,1.0
13.622,-0.35,-0.795,1.0
12.834,-0.33,-0.816,0.0
12.075,-0.311,-0.832,0.0
11.458,-0.295,-0.849,0.0
10.859,-0.28,-0.861,0.0
14.964,-0.383,-0.768,1.0
13.922,-0.357,-0.786,0.0
13.116,-0.336,-0.809,0.0
12.36,-0.317,-0.828,0.0
11.683,-0.3,-0.843,1.0
11.098,-0.285,-0.859,0.0
15.327,-0.391,-0.757,1.0
14.274,-0.364,-0.779,1.0
13.411,-0.342,-0.802,1.0
12.604,-0.322,-0.82,1.0
11.885,-0.303,-0.835,0.0
11.3,-0.288,-0.853,0.0
15.751,-0.4,-0.748,1.0
14.677,-0.372,-0.773,1.0
13.715,-0.348,-0.794,1.0
12.924,-0.328,-0.816,0.0
12.179,-0.309,-0.833,0.0
11.541,-0.292,-0.849,0.0
16.207,-0.408,-0.739,1.0
15.085,-0.38,-0.766,1.0
14.054,-0.354,-0.786,1.0
13.214,-0.332,-0.809,1.0
12.428,-0.312,-0.825,0.0
11.754,-0.295,-0.842,0.0
16.751,-0.418,-0.731,1.0
15.472,-0.386,-0.755,1.0
14.419,-0.359,-0.779,1.0
13.518,-0.337,-0.801,1.0
12.725,-0.317,-0.82,0.0
12.0,-0.298,-0.836,0.0
17.303,-0.427,-0.721,1.0
15.927,-0.393,-0.746,1.0
14.822,-0.365,-0.771,1.0
13.823,-0.34,-0.792,1.0
13.033,-0.32,-0.815,0.0
12.279,-0.301,-0.831,0.0
17.835,-0.435,-0.709,1.0
16.412,-0.4,-0.737,1.0
15.224,-0.37,-0.762,1.0
14.176,-0.344,-0.785,1.0
13.34,-0.324,-0.808,1.0
12.557,-0.304,-0.826,1.0
18.407,-0.443,-0.696,1.0
16.968,-0.407,-0.729,1.0
15.625,-0.375,-0.752,1.0
14.56,-0.348,-0.778,1.0
13.636,-0.326,-0.799,1.0
12.863,-0.307,-0.82,0.0
19.008,-0.45,-0.681,1.0
17.516,-0.414,-0.718,1.0
16.122,-0.38,-0.744,1.0
14.995,-0.353,-0.771,1.0
13.97,-0.328,-0.791,1.0
13.157,-0.308,-0.813,0.0
19.708,-0.458,-0.668,1.0
18.062,-0.419,-0.705,1.0
16.657,-0.385,-0.736,1.0
15.364,-0.355,-0.76,1.0
14.336,-0.33,-0.783,1.0
13.464,-0.309,-0.805,1.0
20.408,-0.465,-0.651,1.0
18.606,-0.423,-0.69,1.0
17.2,-0.39,-0.726,1.0
15.814,-0.357,-0.751,1.0
14.761,-0.332,-0.778,1.0
13.755,-0.309,-0.796,1.0
21.228,-0.473,-0.636,1.0
19.322,-0.429,-0.679,1.0
17.722,-0.393,-0.714,1.0
16.264,-0.359,-0.741,0.0
15.133,-0.333,-0.768,1.0
14.121,-0.31,-0.789,1.0
22.237,-0.484,-0.623,3.0
19.996,-0.434,-0.663,1.0
18.261,-0.395,-0.7,1.0
16.826,-0.362,-0.733,1.0
15.537,-0.333,-0.758,1.0
14.516,-0.31,-0.783,1.0
22.877,-0.485,-0.596,3.0
20.764,-0.438,-0.648,1.0
18.868,-0.396,-0.686,1.0
17.372,-0.364,-0.723,1.0
16.027,-0.334,-0.75,1.0
14.905,-0.309,-0.775,1.0
23.909,-0.492,-0.576,1.0
21.652,-0.443,-0.633,2.0
19.589,-0.399,-0.674,1.0
17.911,-0.363,-0.711,1.0
16.58,-0.335,-0.744,3.0
15.308,-0.308,-0.766,1.0
25.056,-0.499,-0.555,1.0
22.473,-0.446,-0.614,2.0
20.257,-0.399,-0.658,1.0
18.481,-0.363,-0.698,1.0
16.94,-0.331,-0.727,1.0
15.732,-0.305,-0.756,1.0
26.073,-0.501,-0.526,1.0
23.365,-0.447,-0.592,1.0
21.069,-0.401,-0.643,1.0
19.133,-0.362,-0.685,1.0
17.623,-0.331,-0.722,1.0
16.201,-0.303,-0.747,1.0
27.123,-0.502,-0.495,1.0
24.416,-0.449,-0.572,1.0
21.967,-0.401,-0.628,1.0
19.806,-0.359,-0.67,1.0
18.122,-0.327,-0.707,1.0
16.71,-0.299,-0.739,1.0
28.397,-0.504,-0.463,1.0
25.446,-0.448,-0.547,1.0
22.84,-0.4,-0.609,1.0
20.531,-0.357,-0.656,1.0
18.698,-0.322,-0.694,1.0
17.272,-0.296,-0.73,1.0
29.568,-0.501,-0.426,1.0
26.53,-0.446,-0.519,1.0
23.692,-0.395,-0.586,1.0
21.362,-0.353,-0.641,1.0
19.411,-0.318,-0.683,1.0
17.813,-0.29,-0.718,1.0
30.898,-0.497,-0.385,1.0
27.625,-0.441,-0.487,1.0
24.81,-0.392,-0.565,1.0
22.175,-0.348,-0.623,1.0
20.062,-0.312,-0.667,1.0
18.313,-0.282,-0.704,1.0
33.084,-0.504,-0.35,1.0
28.867,-0.435,-0.454,1.0
25.746,-0.384,-0.538,1.0
23.1,-0.341,-0.605,1.0
20.771,-0.304,-0.651,1.0
18.997,-0.275,-0.694,1.0
36.243,-0.519,-0.314,1.0
29.983,-0.425,-0.415,1.0
26.841,-0.376,-0.511,1.0
23.902,-0.331,-0.581,1.0
21.61,-0.296,-0.637,1.0
19.579,-0.265,-0.679,1.0
42.08,-0.563,-0.286,1.0
31.589,-0.418,-0.379,1.0
28.007,-0.366,-0.48,1.0
25.057,-0.323,-0.562,1.0
22.465,-0.286,-0.62,1.0
20.225,-0.254,-0.663,1.0
44.309,-0.549,-0.218,2.0
33.615,-0.411,-0.339,1.0
29.2,-0.352,-0.446,2.0
26.12,-0.311,-0.537,1.0
23.35,-0.274,-0.601,1.0
20.992,-0.242,-0.649,1.0
54.004,-0.614,-0.166,2.0
38.209,-0.428,-0.315,2.0
30.281,-0.334,-0.407,2.0
27.106,-0.294,-0.507,1.0
24.181,-0.258,-0.578,1.0
21.846,-0.229,-0.635,2.0
54.508,-0.562,-0.067,8.0
38.587,-0.391,-0.247,2.0
31.905,-0.317,-0.369,1.0
28.386,-0.277,-0.478,4.0
25.31,-0.242,-0.558,1.0
22.706,-0.213,-0.618,1.0
52.979,-0.488,0.033,4.0
47.324,-0.427,-0.215,2.0
34.034,-0.3,-0.33,1.0
29.383,-0.254,-0.441,2.0
26.346,-0.223,-0.532,3.0
23.526,-0.194,-0.597,2.0
57.057,-0.461,0.139,8.0
47.608,-0.376,-0.13,10.0
40.378,-0.311,-0.32,3.0
30.535,-0.229,-0.404,1.0
27.268,-0.199,-0.502,2.0
24.38,-0.173,-0.575,2.0
61.748,-0.428,0.261,9.0
46.627,-0.314,-0.044,3.0
42.134,-0.275,-0.258,8.0
32.289,-0.205,-0.369,1.0
28.512,-0.175,-0.474,1.0
25.472,-0.151,-0.556,1.0
76.774,-0.44,0.463,14.0
0.0,0.0,0.0,0.0
40.128,-0.214,-0.175,2.0
34.193,-0.175,-0.33,0.0
29.542,-0.145,-0.438,3.0
26.47,-0.125,-0.531,2.0
79.349,-0.357,0.619,150.0
56.07,-0.241,0.146,16.0
0.0,0.0,0.0,0.0
38.956,-0.151,-0.308,2.0
30.661,-0.112,-0.402,1.0
27.4,-0.095,-0.502,1.0
79.454,-0.258,0.758,150.0
61.607,-0.187,0.267,8.0
45.951,-0.129,-0.039,16.0
39.294,-0.102,-0.242,14.0
32.329,-0.077,-0.368,2.0
28.605,-0.062,-0.474,2.0
79.465,-0.156,0.895,151.0
76.36,-0.133,0.462,17.0
48.709,-0.074,0.04,3.0
39.955,-0.052,-0.178,29.0
33.875,-0.036,-0.328,0.0
29.554,-0.025,-0.44,2.0
79.463,-0.05,1.031,151.0
79.357,-0.032,0.616,59.0
55.762,-0.01,0.142,29.0
43.789,0.001,-0.121,9.0
38.326,0.009,-0.306,4.0
30.619,0.014,-0.405,1.0
79.463,0.056,1.164,152.0
79.458,0.074,0.749,150.0
61.712,0.071,0.26,10.0
0.0,0.0,0.0,0.0
38.74,0.062,-0.245,14.0
32.328,0.06,-0.373,1.0
79.457,0.166,1.297,159.0
79.472,0.184,0.88,151.0
76.132,0.194,0.445,22.0
47.953,0.133,0.025,22.0
39.292,0.118,-0.184,44.0
33.659,0.109,-0.334,0.0
79.466,0.277,1.425,151.0
79.451,0.295,1.009,150.0
77.065,0.305,0.575,45.0
54.572,0.228,0.115,29.0
40.547,0.179,-0.126,16.0
37.764,0.176,-0.315,7.0
59.29,0.291,1.158,16.0
59.297,0.306,0.848,43.0
48.238,0.26,0.436,30.0
55.005,0.31,0.204,60.0
44.914,0.264,-0.068,21.0
38.184,0.234,-0.258,13.0
48.132,0.307,1.016,97.0
48.116,0.319,0.764,79.0
48.101,0.331,0.511,57.0
48.094,0.342,0.254,46.0
47.443,0.349,0.001,47.0
38.649,0.294,-0.201,47.0
48.133,0.379,1.091,125.0
48.096,0.39,0.837,114.0
48.08,0.402,0.585,111.0
48.031,0.413,0.326,106.0
47.977,0.425,0.074,72.0
39.476,0.36,-0.146,28.0
48.129,0.451,1.164,106.0
48.113,0.463,0.911,101.0
48.097,0.475,0.657,105.0
48.06,0.487,0.399,97.0
48.032,0.499,0.146,94.0
44.037,0.469,-0.097,18.0
48.188,0.526,1.238,70.0
48.16,0.538,0.984,62.0
48.14,0.55,0.73,60.0
48.101,0.563,0.472,94.0
48.044,0.574,0.217,79.0
0.0,0.0,0.0,0.0
55.044,0.687,1.495,94.0
55.102,0.702,1.206,20.0
127.811,1.662,2.123,14.0
121.074,1.606,1.361,13.0
48.166,0.651,0.287,9.0
47.881,0.66,0.033,51.0
162.952,2.295,4.662,8.0
176.723,2.537,4.124,25.0
189.709,2.772,3.425,29.0
126.235,1.878,1.599,18.0
0.0,0.0,0.0,0.0
54.896,0.845,0.115,7.0
162.694,2.552,4.883,15.0
176.687,2.819,4.369,5.0
189.913,3.08,3.692,21.0
126.497,2.085,1.777,42.0
78.052,1.307,0.683,12.0
0.0,0.0,0.0,0.0
132.798,2.299,4.167,15.0
160.389,2.819,4.183,14.0
128.151,2.287,2.664,21.0
127.091,2.301,1.955,34.0
89.873,1.652,0.907,11.0
61.138,1.14,0.293,32.0
128.028,2.425,4.188,26.0
128.057,2.461,3.51,34.0
128.032,2.496,2.831,39.0
106.303,2.1,1.776,1.0
92.987,1.863,1.06,4.0
74.792,1.519,0.456,14.0
128.033,2.64,4.357,55.0
128.081,2.676,3.677,41.0
128.159,2.712,2.999,30.0
106.14,2.274,1.909,19.0
89.875,1.95,1.139,9.0
77.766,1.709,0.573,16.0
152.689,3.405,5.39,37.0
158.936,3.588,4.764,20.0
0.0,0.0,0.0,0.0
0.0,0.0,0.0,0.0
106.237,2.486,1.48,6.0
78.018,1.848,0.672,40.0
152.636,3.666,5.578,41.0
158.826,3.859,4.959,20.0
157.698,3.875,4.084,6.0
100.304,2.493,2.054,15.0
100.329,2.52,1.519,54.0
78.466,1.993,0.771,9.0
152.069,3.914,5.741,45.0
152.732,3.974,4.952,30.0
154.088,4.052,4.174,13.0
0.0,0.0,0.0,0.0
0.0,0.0,0.0,0.0
93.603,2.54,1.029,2.0
151.985,4.176,5.916,45.0
152.44,4.232,5.12,42.0
154.065,4.321,4.353,35.0
0.0,0.0,0.0,0.0
0.0,0.0,0.0,0.0
100.484,2.903,1.219,1.0
152.051,4.447,6.094,37.0
152.237,4.494,5.285,35.0
158.538,4.723,4.656,6.0
0.0,0.0,0.0,0.0
0.0,0.0,0.0,0.0
100.646,3.084,1.331,4.0
152.244,4.721,6.268,40.0
152.482,4.771,5.461,34.0
158.559,5.004,4.828,10.0
0.0,0.0,0.0,0.0
0.0,0.0,0.0,0.0
100.727,3.263,1.438,1.0
152.677,5.001,6.446,28.0
152.769,5.047,5.629,31.0
159.804,5.324,5.031,7.0
159.306,5.353,4.145,4.0
0.0,0.0,0.0,0.0
0.0,0.0,0.0,0.0
152.623,5.272,6.6,12.0
152.612,5.312,5.777,36.0
157.321,5.521,5.111,12.0
159.164,5.63,4.3,10.0
0.0,0.0,0.0,0.0
0.0,0.0,0.0,0.0
153.213,5.567,6.776,26.0
152.457,5.583,5.922,34.0
157.512,5.811,5.27,6.0
160.21,5.955,4.482,14.0
0.0,0.0,0.0,0.0
0.0,0.0,0.0,0.0
123.881,4.724,5.596,21.0
124.259,4.774,4.944,14.0
157.416,6.093,5.415,17.0
158.344,6.172,4.576,13.0
0.0,0.0,0.0,0.0
0.0,0.0,0.0,0.0
124.027,4.958,5.717,35.0
124.189,4.998,5.053,20.0
158.055,6.404,5.578,14.0
173.091,7.065,5.158,10.0
0.0,0.0,0.0,0.0
0.0,0.0,0.0,0.0
125.056,5.227,5.873,23.0
