X,Y,Z,Reflectivity
13.821,1.307,0.888,28.0
13.828,1.312,1.272,24.0
13.8,1.309,1.189,19.0
13.798,1.309,1.109,32.0
13.808,1.309,1.029,30.0
13.801,1.309,0.949,29.0
13.811,1.31,0.87,30.0
13.819,1.314,1.254,25.0
13.802,1.312,1.172,20.0
13.798,1.311,1.092,31.0
13.806,1.312,1.012,30.0
13.801,1.311,0.932,31.0
13.812,1.312,0.853,31.0
13.812,1.316,1.236,28.0
13.798,1.314,1.154,29.0
13.804,1.314,1.075,31.0
13.804,1.314,0.994,30.0
13.81,1.314,0.915,32.0
13.806,1.314,0.835,32.0
13.808,1.317,1.218,29.0
13.794,1.315,1.137,33.0
13.811,1.316,1.058,35.0
13.802,1.315,0.977,33.0
13.811,1.316,0.897,32.0
13.815,1.316,0.818,30.0
13.807,1.318,1.2,29.0
13.792,1.316,1.119,32.0
13.81,1.317,1.04,35.0
13.8,1.316,0.958,33.0
13.808,1.316,0.879,33.0
13.811,1.316,0.8,28.0
13.805,1.318,1.182,27.0
13.796,1.317,1.101,34.0
13.8,1.317,1.022,30.0
13.797,1.316,0.94,33.0
13.809,1.317,0.862,34.0
13.811,1.316,0.782,28.0
13.802,1.318,1.163,29.0
13.808,1.318,1.084,35.0
13.799,1.316,1.004,30.0
13.795,1.315,0.922,35.0
13.815,1.317,0.844,35.0
13.804,1.315,0.764,27.0
13.796,1.317,1.144,32.0
13.814,1.318,1.066,35.0
13.806,1.316,0.985,34.0
13.799,1.315,0.904,32.0
13.813,1.316,0.825,32.0
13.811,1.315,0.746,28.0
13.797,1.316,1.126,32.0
13.815,1.317,1.047,36.0
13.803,1.315,0.967,35.0
13.801,1.314,0.886,32.0
13.805,1.313,0.806,28.0
13.805,1.313,0.727,27.0
13.797,1.314,1.107,34.0
13.815,1.315,1.029,34.0
13.801,1.312,0.948,32.0
13.811,1.313,0.868,32.0
13.806,1.311,0.788,26.0
13.811,1.311,0.709,27.0
13.81,1.313,1.089,31.0
13.814,1.312,1.01,32.0
13.802,1.31,0.929,32.0
13.803,1.309,0.848,32.0
13.802,1.308,0.769,23.0
13.804,1.308,0.689,27.0
13.82,1.311,1.071,32.0
13.807,1.308,0.99,29.0
13.808,1.307,0.911,31.0
13.818,1.307,0.83,30.0
13.808,1.306,0.75,20.0
13.816,1.305,0.671,24.0
13.827,1.307,1.052,33.0
13.809,1.305,0.971,24.0
13.818,1.304,0.892,30.0
13.808,1.302,0.81,18.0
13.809,1.301,0.731,16.0
13.822,1.302,0.652,21.0
13.832,1.304,1.033,30.0
13.809,1.3,0.952,26.0
13.81,1.299,0.872,27.0
13.825,1.3,0.792,12.0
13.819,1.298,0.712,13.0
13.814,1.297,0.632,20.0
13.824,1.298,1.013,21.0
13.809,1.295,0.933,23.0
13.819,1.295,0.854,18.0
13.815,1.294,0.772,7.0
13.814,1.292,0.693,9.0
13.826,1.292,0.614,26.0
13.832,1.293,0.995,13.0
13.812,1.29,0.914,20.0
13.837,1.291,0.835,12.0
13.833,1.289,0.754,5.0
13.817,1.287,0.674,6.0
13.829,1.287,0.595,16.0
13.844,1.288,0.976,17.0
13.839,1.287,0.896,12.0
13.827,1.284,0.815,4.0
13.846,1.284,0.735,0.0
13.849,1.283,0.656,5.0
26.921,2.493,1.12,1.0
13.845,1.282,0.956,11.0
13.83,1.279,0.876,6.0
114.692,10.596,6.604,17.0
114.673,10.583,5.93,19.0
13.852,1.277,0.636,3.0
26.907,2.478,1.082,4.0
66.27,6.101,4.486,13.0
75.959,6.985,4.703,10.0
114.689,10.534,6.44,26.0
103.183,9.466,5.19,16.0
13.863,1.27,0.617,4.0
26.866,2.459,1.042,11.0
76.114,6.964,5.044,11.0
75.97,6.941,4.596,13.0
114.755,10.473,6.28,46.0
103.199,9.406,5.044,17.0
26.916,2.45,1.16,4.0
26.815,2.438,1.002,168.0
76.029,6.909,4.93,18.0
114.745,10.413,6.778,19.0
114.848,10.408,6.123,22.0
103.198,9.34,4.897,21.0
26.917,2.433,1.122,7.0
26.83,2.422,0.964,176.0
76.091,6.864,4.825,36.0
103.129,9.289,5.945,6.0
117.428,10.563,6.093,5.0
109.453,9.832,5.038,3.0
26.925,2.415,1.084,6.0
26.882,2.408,0.928,154.0
75.876,6.791,4.703,23.0
117.283,10.48,6.595,19.0
104.695,9.341,5.285,10.0
109.461,9.753,4.885,7.0
26.879,2.391,1.045,152.0
26.879,2.388,0.891,11.0
75.871,6.734,4.597,18.0
103.17,9.142,5.657,4.0
103.179,9.129,5.064,15.0
26.958,2.381,1.165,1.0
26.804,2.364,1.005,170.0
26.886,2.368,0.854,20.0
119.1,10.476,7.05,11.0
119.087,10.457,6.363,24.0
103.195,9.047,4.92,18.0
26.957,2.359,1.127,2.0
26.835,2.345,0.968,186.0
26.887,2.346,0.815,41.0
120.823,10.526,6.982,16.0
120.835,10.509,6.286,13.0
106.361,9.234,4.921,12.0
120.558,10.449,4.875,26.0
26.832,2.322,0.931,170.0
26.896,2.323,0.779,35.0
120.797,10.417,6.81,24.0
120.854,10.403,6.118,4.0
34.287,2.946,1.538,2.0
34.276,2.939,1.337,19.0
26.879,2.301,0.895,160.0
26.956,2.304,0.743,152.0
120.826,10.308,6.643,40.0
103.179,8.785,5.079,21.0
34.29,2.914,1.491,86.0
34.269,2.907,1.29,49.0
26.862,2.274,0.857,175.0
26.902,2.274,0.704,173.0
121.575,10.254,6.517,12.0
103.199,8.687,4.938,8.0
118.155,9.927,4.977,7.0
122.558,10.277,4.447,10.0
26.911,2.252,0.822,152.0
26.929,2.25,0.668,164.0
74.56,6.214,3.895,22.0
74.559,6.201,3.466,25.0
74.53,6.186,3.038,28.0
74.535,6.174,2.602,22.0
26.983,2.23,0.787,23.0
27.046,2.231,0.634,68.0
74.532,6.133,3.791,32.0
74.53,6.12,3.364,35.0
74.521,6.107,2.936,36.0
74.493,6.092,2.501,22.0
27.013,2.204,0.752,16.0
74.531,6.07,1.649,27.0
74.547,6.054,3.692,27.0
74.549,6.04,3.265,28.0
74.521,6.025,2.837,29.0
74.533,6.013,2.403,34.0
27.09,2.18,0.718,4.0
74.56,5.989,1.55,34.0
74.652,5.977,3.597,10.0
74.687,5.967,3.171,3.0
74.64,5.949,2.741,15.0
74.594,5.932,2.305,21.0
74.626,5.921,1.879,25.0
74.595,5.906,1.452,36.0
106.253,8.384,4.979,18.0
128.685,10.128,5.293,10.0
129.035,10.133,4.569,13.0
129.37,10.135,3.829,11.0
129.73,10.141,3.098,10.0
74.726,5.827,1.357,4.0
112.203,8.718,5.112,7.0
130.179,10.089,5.186,12.0
130.552,10.094,4.453,12.0
103.258,7.963,2.921,29.0
131.398,10.109,2.968,12.0
103.053,7.91,1.739,5.0
115.204,8.808,5.1,10.0
131.915,10.059,5.086,12.0
132.309,10.064,4.345,12.0
114.648,8.698,3.098,11.0
133.009,10.065,2.835,10.0
120.849,9.123,1.887,7.0
66.54,5.003,2.861,11.0
66.602,4.993,2.483,10.0
66.527,4.975,2.1,4.0
66.519,4.96,1.713,96.0
66.545,4.949,1.334,150.0
66.526,4.934,0.955,18.0
66.521,4.913,2.776,6.0
157.186,11.577,5.663,17.0
157.252,11.548,4.767,16.0
114.582,8.39,2.808,33.0
139.63,10.196,2.625,74.0
103.766,7.557,1.36,78.0
157.43,11.412,6.374,24.0
157.547,11.387,5.481,22.0
114.947,8.284,3.343,26.0
114.466,8.225,2.664,38.0
114.65,8.215,2.016,6.0
80.559,5.755,0.957,6.0
157.876,11.225,6.2,34.0
157.856,11.188,5.298,36.0
114.628,8.098,3.193,47.0
114.385,8.057,2.523,27.0
114.697,8.054,1.877,17.0
74.697,5.229,0.797,9.0
157.895,11.001,6.011,43.0
157.93,10.967,5.112,59.0
114.675,7.937,3.058,35.0
114.409,7.892,2.387,28.0
114.304,7.861,1.735,13.0
74.311,5.095,0.705,21.0
158.005,10.774,5.827,41.0
157.995,10.739,4.927,63.0
114.66,7.766,2.922,33.0
139.595,9.424,2.75,23.0
113.648,7.648,1.593,7.0
73.937,4.958,0.615,38.0
158.042,10.541,5.647,37.0
158.071,10.506,4.747,64.0
114.665,7.595,2.791,50.0
139.607,9.213,2.59,31.0
96.185,6.326,1.238,3.0
58.999,3.867,0.424,4.0
158.073,10.302,5.468,25.0
158.166,10.268,4.571,42.0
114.83,7.429,2.666,21.0
139.563,8.996,2.434,38.0
81.257,5.218,0.955,6.0
0.0,0.0,0.0,0.0
158.056,10.055,5.293,15.0
158.09,10.02,4.396,13.0
33.41,2.109,0.739,1.0
33.442,2.103,0.546,12.0
33.468,2.097,0.357,150.0
33.456,2.088,0.167,152.0
33.463,2.075,1.084,153.0
33.438,2.066,0.893,16.0
33.438,2.057,0.704,5.0
33.444,2.049,0.51,6.0
75.237,4.592,0.722,12.0
54.706,3.325,0.215,28.0
162.043,9.787,5.078,4.0
157.36,9.462,4.038,11.0
0.0,0.0,0.0,0.0
120.915,7.211,1.719,9.0
74.181,4.405,0.634,23.0
47.015,2.78,0.135,20.0
162.189,9.527,4.914,16.0
162.404,9.497,4.001,4.0
162.091,9.435,3.072,6.0
96.521,5.595,1.273,7.0
73.61,4.248,0.554,18.0
46.05,2.646,0.086,21.0
163.286,9.316,4.782,22.0
163.318,9.273,3.857,15.0
105.961,5.988,1.902,21.0
81.581,4.588,0.994,5.0
73.439,4.111,0.479,9.0
42.549,2.371,0.037,17.0
163.369,9.037,4.623,15.0
162.684,8.955,3.682,20.0
105.781,5.794,1.795,12.0
78.417,4.275,0.879,15.0
55.444,3.007,0.308,7.0
41.8,2.257,-0.003,17.0
162.484,8.704,4.441,14.0
162.51,8.661,3.523,16.0
105.811,5.612,1.696,22.0
0.0,0.0,0.0,0.0
54.699,2.871,0.253,28.0
40.996,2.141,-0.041,34.0
156.518,8.109,4.134,9.0
167.072,8.608,3.468,8.0
105.8,5.423,1.598,57.0
76.34,3.891,0.714,24.0
54.339,2.754,0.201,27.0
40.56,2.045,-0.077,44.0
0.0,0.0,0.0,0.0
0.0,0.0,0.0,0.0
105.78,5.229,1.503,6.0
75.046,3.688,0.635,21.0
54.16,2.647,0.153,7.0
40.167,1.952,-0.112,35.0
0.0,0.0,0.0,0.0
0.0,0.0,0.0,0.0
105.743,5.032,1.411,6.0
73.752,3.489,0.561,16.0
47.967,2.256,0.095,25.0
40.159,1.877,-0.146,3.0
0.0,0.0,0.0,0.0
0.0,0.0,0.0,0.0
82.326,3.766,1.031,6.0
73.583,3.344,0.499,11.0
15.663,0.707,0.018,2.0
36.438,1.635,-0.162,32.0
0.0,0.0,0.0,0.0
0.0,0.0,0.0,0.0
79.383,3.48,0.93,7.0
58.985,2.569,0.353,23.0
46.64,2.017,0.016,15.0
36.323,1.56,-0.191,34.0
0.0,0.0,0.0,0.0
0.0,0.0,0.0,0.0
78.759,3.302,0.862,13.0
58.751,2.446,0.306,16.0
42.196,1.744,-0.016,17.0
36.228,1.487,-0.217,24.0
0.0,0.0,0.0,0.0
100.859,4.064,1.596,1.0
78.067,3.123,0.797,18.0
55.07,2.186,0.247,29.0
41.554,1.637,-0.046,16.0
36.141,1.413,-0.243,12.0
0.0,0.0,0.0,0.0
101.186,3.883,1.53,1.0
77.791,2.962,0.74,54.0
54.462,2.058,0.207,28.0
40.812,1.529,-0.073,24.0
36.053,1.339,-0.267,8.0
0.0,0.0,0.0,0.0
100.936,3.677,1.458,4.0
77.751,2.808,0.688,34.0
54.29,1.945,0.17,28.0
40.237,1.429,-0.099,52.0
36.076,1.269,-0.291,7.0
0.0,0.0,0.0,0.0
95.882,3.303,1.324,2.0
74.661,2.548,0.612,11.0
49.002,1.657,0.122,23.0
39.702,1.331,-0.122,48.0
35.986,1.194,-0.312,5.0
0.0,0.0,0.0,0.0
95.404,3.096,1.259,6.0
74.261,2.386,0.564,14.0
48.668,1.548,0.092,23.0
39.564,1.246,-0.145,41.0
35.833,1.117,-0.332,3.0
0.0,0.0,0.0,0.0
94.897,2.889,1.198,1.0
74.313,2.238,0.522,11.0
48.188,1.436,0.065,23.0
0.0,0.0,0.0,0.0
33.008,0.962,-0.324,1.0
0.0,0.0,0.0,0.0
93.242,2.647,1.126,2.0
61.096,1.714,0.396,15.0
47.725,1.324,0.038,23.0
37.105,1.017,-0.176,30.0
32.6,0.883,-0.337,1.0
0.0,0.0,0.0,0.0
89.57,2.361,1.037,2.0
60.988,1.588,0.366,35.0
47.073,1.21,0.015,23.0
37.108,0.941,-0.195,34.0
32.094,0.804,-0.347,1.0
106.162,2.614,1.771,6.0
89.703,2.179,0.996,6.0
60.578,1.451,0.335,34.0
0.0,0.0,0.0,0.0
37.113,0.864,-0.212,34.0
31.663,0.727,-0.357,1.0
106.152,2.393,1.724,2.0
0.0,0.0,0.0,0.0
59.993,1.312,0.306,34.0
0.0,0.0,0.0,0.0
37.102,0.787,-0.227,26.0
31.336,0.654,-0.366,1.0
0.0,0.0,0.0,0.0
80.47,1.62,0.826,10.0
0.0,0.0,0.0,0.0
44.558,0.867,-0.042,19.0
37.133,0.709,-0.241,12.0
30.937,0.581,-0.373,2.0
126.551,2.324,1.957,35.0
78.079,1.408,0.773,9.0
0.0,0.0,0.0,0.0
44.419,0.771,-0.057,18.0
37.143,0.631,-0.254,12.0
30.744,0.512,-0.381,2.0
126.578,2.059,1.915,41.0
78.135,1.243,0.748,15.0
57.965,0.902,0.233,6.0
44.104,0.672,-0.071,9.0
37.144,0.553,-0.266,8.0
30.494,0.443,-0.387,2.0
126.519,1.789,1.876,37.0
78.214,1.08,0.726,23.0
48.043,0.646,0.179,71.0
43.942,0.576,-0.083,5.0
37.253,0.476,-0.277,6.0
30.342,0.377,-0.393,2.0
48.139,0.579,0.701,60.0
48.085,0.562,0.434,82.0
48.021,0.545,0.168,79.0
39.827,0.438,-0.085,15.0
37.353,0.398,-0.286,5.0
30.16,0.311,-0.398,2.0
48.089,0.477,0.69,113.0
48.064,0.46,0.424,105.0
48.016,0.443,0.158,94.0
39.751,0.352,-0.093,15.0
37.513,0.319,-0.295,3.0
30.019,0.245,-0.402,2.0
48.093,0.374,0.681,105.0
48.107,0.358,0.415,59.0
48.119,0.341,0.15,49.0
39.859,0.269,-0.099,15.0
37.68,0.241,-0.302,2.0
29.974,0.181,-0.406,2.0
59.309,0.337,0.831,26.0
59.299,0.315,0.504,126.0
54.629,0.27,0.162,47.0
40.261,0.185,-0.106,16.0
37.739,0.161,-0.307,13.0
29.859,0.116,-0.408,1.0
79.467,0.28,1.105,151.0
79.492,0.253,0.667,24.0
54.672,0.154,0.157,29.0
40.517,0.099,-0.11,17.0
37.899,0.08,-0.312,1.0
29.76,0.051,-0.409,1.0
79.464,0.109,1.099,151.0
79.39,0.081,0.661,42.0
54.64,0.036,0.154,12.0
40.725,0.012,-0.113,17.0
38.028,-0.001,-0.315,2.0
29.776,-0.011,-0.41,2.0
79.463,-0.059,1.096,151.0
79.348,-0.088,0.658,59.0
0.0,0.0,0.0,0.0
41.23,-0.076,-0.115,18.0
37.16,-0.082,-0.308,0.0
29.735,-0.076,-0.41,2.0
79.457,-0.23,1.096,151.0
79.342,-0.259,0.658,125.0
55.807,-0.202,0.156,29.0
41.983,-0.167,-0.116,8.0
37.194,-0.162,-0.307,1.0
29.714,-0.14,-0.409,2.0
79.456,-0.403,1.099,155.0
79.388,-0.432,0.662,110.0
56.054,-0.326,0.16,10.0
44.088,-0.271,-0.12,2.0
37.206,-0.243,-0.305,1.0
29.861,-0.205,-0.409,2.0
79.451,-0.574,1.105,174.0
79.394,-0.603,0.669,86.0
57.83,-0.46,0.17,5.0
50.496,-0.42,-0.132,8.0
36.724,-0.318,-0.297,0.0
29.923,-0.27,-0.406,3.0
79.443,-0.745,1.114,177.0
79.411,-0.774,0.679,150.0
58.567,-0.592,0.18,3.0
53.344,-0.558,-0.133,2.0
38.071,-0.412,-0.303,1.0
29.98,-0.335,-0.403,3.0
79.405,-0.914,1.126,255.0
79.263,-0.941,0.69,11.0
79.219,-0.969,0.256,3.0
51.402,-0.647,-0.119,2.0
36.614,-0.474,-0.285,0.0
30.139,-0.402,-0.399,1.0
148.24,-2.021,2.13,5.0
87.865,-1.229,0.782,9.0
67.11,-0.963,0.23,0.0
50.829,-0.748,-0.107,1.0
36.849,-0.556,-0.279,0.0
30.197,-0.466,-0.393,1.0
205.402,-3.233,2.997,60.0
123.952,-1.997,1.132,3.0
40.296,-0.664,0.148,43.0
40.305,-0.679,-0.075,56.0
40.195,-0.692,-0.294,4.0
30.448,-0.535,-0.389,1.0
40.279,-0.72,0.598,6.0
40.24,-0.733,0.378,50.0
40.268,-0.749,0.159,52.0
40.328,-0.765,-0.064,10.0
40.199,-0.778,-0.283,4.0
30.698,-0.605,-0.383,1.0
40.242,-0.804,0.61,59.0
40.26,-0.819,0.39,39.0
68.062,-1.409,0.29,0.0
0.0,0.0,0.0,0.0
40.227,-0.862,-0.27,5.0
31.25,-0.681,-0.38,1.0
40.315,-0.89,0.624,36.0
40.315,-0.905,0.405,96.0
40.292,-0.919,0.185,61.0
40.306,-0.934,-0.037,150.0
40.263,-0.948,-0.256,42.0
31.576,-0.755,-0.372,1.0
40.215,-0.972,0.638,66.0
40.22,-0.987,0.419,42.0
40.243,-1.002,0.201,4.0
40.981,-1.034,-0.021,31.0
40.615,-1.04,-0.242,62.0
32.068,-0.833,-0.365,1.0
40.236,-1.056,0.654,45.0
40.199,-1.069,0.436,46.0
40.175,-1.083,0.217,53.0
40.186,-1.097,-0.004,65.0
40.25,-1.114,-0.222,25.0
32.514,-0.912,-0.356,1.0
153.802,-4.356,2.571,3.0
0.0,0.0,0.0,0.0
0.0,0.0,0.0,0.0
40.24,-1.183,0.014,6.0
40.238,-1.197,-0.203,10.0
33.535,-1.01,-0.351,1.0
40.343,-1.225,0.693,56.0
40.32,-1.239,0.475,0.0
0.0,0.0,0.0,0.0
0.0,0.0,0.0,0.0
0.0,0.0,0.0,0.0
33.528,-1.079,-0.334,0.0
0.0,0.0,0.0,0.0
0.0,0.0,0.0,0.0
0.0,0.0,0.0,0.0
59.591,-1.995,0.082,2.0
0.0,0.0,0.0,0.0
34.603,-1.183,-0.326,0.0
0.0,0.0,0.0,0.0
0.0,0.0,0.0,0.0
0.0,0.0,0.0,0.0
0.0,0.0,0.0,0.0
49.761,-1.784,-0.171,3.0
36.629,-1.326,-0.324,0.0
0.0,0.0,0.0,0.0
0.0,0.0,0.0,0.0
0.0,0.0,0.0,0.0
0.0,0.0,0.0,0.0
40.133,-1.52,-0.113,157.0
37.741,-1.442,-0.31,23.0
0.0,0.0,0.0,0.0
0.0,0.0,0.0,0.0
0.0,0.0,0.0,0.0
0.0,0.0,0.0,0.0
37.823,-1.506,-0.083,152.0
37.756,-1.517,-0.286,51.0
0.0,0.0,0.0,0.0
0.0,0.0,0.0,0.0
0.0,0.0,0.0,0.0
0.0,0.0,0.0,0.0
50.499,-2.11,-0.076,0.0
37.813,-1.593,-0.26,0.0
0.0,0.0,0.0,0.0
0.0,0.0,0.0,0.0
0.0,0.0,0.0,0.0
0.0,0.0,0.0,0.0
50.452,-2.207,-0.04,0.0
39.942,-1.761,-0.247,0.0
0.0,0.0,0.0,0.0
0.0,0.0,0.0,0.0
0.0,0.0,0.0,0.0
0.0,0.0,0.0,0.0
0.0,0.0,0.0,0.0
0.0,0.0,0.0,0.0
0.0,0.0,0.0,0.0
159.854,-7.437,2.702,60.0
0.0,0.0,0.0,0.0
0.0,0.0,0.0,0.0
60.367,-2.87,0.042,0.0
0.0,0.0,0.0,0.0
0.0,0.0,0.0,0.0
159.947,-7.742,2.829,54.0
159.996,-7.796,1.971,6.0
0.0,0.0,0.0,0.0
59.986,-2.963,0.089,1.0
50.503,-2.512,-0.194,2.0
0.0,0.0,0.0,0.0
0.0,0.0,0.0,0.0
0.0,0.0,0.0,0.0
63.238,-3.241,0.147,3.0
50.447,-2.603,-0.152,6.0
0.0,0.0,0.0,0.0
0.0,0.0,0.0,0.0
0.0,0.0,0.0,0.0
0.0,0.0,0.0,0.0
50.398,-2.692,-0.108,1.0
0.0,0.0,0.0,0.0
0.0,0.0,0.0,0.0
0.0,0.0,0.0,0.0
58.818,-3.246,-0.073,3.0
0.0,0.0,0.0,0.0
0.0,0.0,0.0,0.0
227.993,-12.767,3.602,152.0
0.0,0.0,0.0,0.0
0.0,0.0,0.0,0.0
58.898,-3.354,-0.019,5.0
271.775,-15.523,7.454,13.0
0.0,0.0,0.0,0.0
0.0,0.0,0.0,0.0
0.0,0.0,0.0,0.0
0.0,0.0,0.0,0.0
59.506,-3.492,0.037,6.0
271.947,-15.999,7.717,71.0
272.078,-16.089,6.267,45.0
0.0,0.0,0.0,0.0
0.0,0.0,0.0,0.0
0.0,0.0,0.0,0.0
62.61,-3.781,0.1,3.0
271.77,-16.448,7.98,16.0
263.482,-16.025,6.329,21.0
0.0,0.0,0.0,0.0
0.0,0.0,0.0,0.0
0.0,0.0,0.0,0.0
0.0,0.0,0.0,0.0
244.25,-15.191,7.417,37.0
248.377,-15.518,6.218,72.0
0.0,0.0,0.0,0.0
187.134,-11.801,2.671,6.0
0.0,0.0,0.0,0.0
0.0,0.0,0.0,0.0
209.001,-13.336,6.562,23.0
248.356,-15.919,6.474,255.0
248.386,-15.995,5.153,10.0
187.205,-12.111,2.869,150.0
0.0,0.0,0.0,0.0
0.0,0.0,0.0,0.0
209.221,-13.688,6.792,30.0
244.441,-16.064,6.635,26.0
237.182,-15.653,5.178,39.0
187.186,-12.408,3.071,151.0
0.0,0.0,0.0,0.0
0.0,0.0,0.0,0.0
208.232,-13.952,6.988,39.0
228.454,-15.372,6.452,24.0
228.576,-15.443,5.239,66.0
187.14,-12.698,3.277,8.0
0.0,0.0,0.0,0.0
0.0,0.0,0.0,0.0
208.291,-14.279,7.222,9.0
208.426,-14.344,6.12,27.0
212.849,-14.708,5.12,86.0
213.121,-14.787,3.974,14.0
155.262,-10.815,2.07,12.0
0.0,0.0,0.0,0.0
196.122,-13.742,7.025,21.0
204.815,-14.407,6.249,40.0
204.869,-14.465,5.162,22.0
241.287,-17.099,4.775,13.0
0.0,0.0,0.0,0.0
0.0,0.0,0.0,0.0
195.111,-13.961,7.216,27.0
204.903,-14.714,6.488,21.0
204.909,-14.766,5.401,14.0
204.964,-14.825,4.295,19.0
0.0,0.0,0.0,0.0
0.0,0.0,0.0,0.0
164.473,-12.003,6.274,39.0
195.915,-14.345,6.433,34.0
213.527,-15.69,5.88,16.0
284.846,-21.003,6.304,12.0
148.67,-10.999,2.503,14.0
148.546,-11.03,1.715,151.0
208.93,-15.541,8.222,19.0
197.273,-14.721,6.715,56.0
196.83,-14.736,5.658,59.0
196.974,-14.796,4.598,72.0
148.578,-11.198,2.68,9.0
148.442,-11.224,1.893,81.0
165.508,-12.535,6.712,38.0
164.229,-12.478,5.79,18.0
196.74,-14.993,5.894,47.0
214.11,-16.369,5.259,10.0
0.0,0.0,0.0,0.0
0.0,0.0,0.0,0.0
157.9,-12.17,6.6,23.0
164.867,-12.744,6.018,36.0
212.706,-16.492,6.638,31.0
212.461,-16.523,5.484,19.0
257.574,-20.094,5.286,12.0
128.163,-10.028,1.953,151.0
163.148,-12.785,7.025,25.0
156.904,-12.331,5.923,34.0
205.96,-16.231,6.686,10.0
206.489,-16.319,5.589,12.0
291.28,-23.089,6.345,34.0
0.0,0.0,0.0,0.0
166.504,-13.256,7.38,13.0
158.071,-12.619,6.17,37.0
164.708,-13.183,5.556,18.0
203.733,-16.352,5.776,35.0
0.0,0.0,0.0,0.0
0.0,0.0,0.0,0.0
149.684,-12.099,6.828,22.0
163.873,-13.279,6.607,25.0
157.615,-12.806,5.521,42.0
164.988,-13.438,4.89,17.0
202.391,-16.528,4.929,12.0
0.0,0.0,0.0,0.0
158.881,-13.03,7.455,5.0
150.021,-12.334,6.245,40.0
164.098,-13.522,5.963,26.0
165.371,-13.662,5.119,29.0
193.536,-16.029,4.969,14.0
201.615,-16.738,4.112,13.0
0.0,0.0,0.0,0.0
166.835,-13.903,7.164,15.0
149.995,-12.527,5.647,32.0
157.59,-13.193,5.085,40.0
165.017,-13.847,4.452,99.0
165.057,-13.884,3.583,89.0
148.414,-12.502,7.357,8.0
158.53,-13.383,7.018,17.0
158.007,-13.368,6.16,31.0
157.367,-13.342,5.287,39.0
157.48,-13.381,4.46,26.0
189.09,-16.104,4.356,23.0
148.627,-12.675,7.566,16.0
158.583,-13.552,7.232,16.0
165.958,-14.212,6.692,12.0
156.829,-13.459,5.48,42.0
157.371,-13.534,4.669,84.0
157.342,-13.559,3.837,61.0
105.328,-9.09,5.504,4.0
106.325,-9.194,4.993,2.0
166.025,-14.383,6.92,31.0
149.758,-12.999,5.436,27.0
190.561,-16.574,5.91,24.0
157.375,-13.713,4.051,63.0
108.536,-9.472,5.82,5.0
148.511,-12.984,7.177,25.0
205.338,-17.985,8.837,8.0
157.511,-13.82,5.932,28.0
149.65,-13.155,4.845,18.0
188.595,-16.61,5.112,38.0
122.527,-10.806,6.737,9.0
146.783,-12.967,7.294,7.0
148.574,-13.148,6.598,37.0
204.379,-18.119,7.977,21.0
149.624,-13.286,5.05,36.0
188.489,-16.767,5.368,22.0
122.476,-10.912,6.904,18.0
106.44,-9.497,5.436,9.0
106.28,-9.497,4.866,2.0
148.623,-13.303,6.005,13.0
164.074,-14.71,5.764,32.0
149.48,-13.422,4.464,42.0
122.262,-10.995,7.061,20.0
108.475,-9.769,5.691,6.0
146.987,-13.256,6.934,7.0
148.55,-13.417,6.207,48.0
163.975,-14.832,5.985,14.0
188.446,-17.07,5.884,42.0
115.293,-10.46,6.817,38.0
122.519,-11.13,6.597,25.0
147.221,-13.391,7.149,15.0
164.388,-14.973,7.097,23.0
156.365,-14.263,5.925,16.0
188.646,-17.232,6.152,32.0
106.088,-9.705,6.422,10.0
115.461,-10.575,6.377,9.0
108.514,-9.951,5.42,8.0
147.567,-13.548,6.575,19.0
148.441,-13.646,5.831,60.0
188.832,-17.383,6.422,22.0
106.247,-9.795,6.58,21.0
115.332,-10.644,6.532,23.0
106.269,-9.819,5.456,14.0
147.376,-13.633,6.773,13.0
156.393,-14.483,6.362,24.0
148.666,-13.784,5.264,77.0
106.801,-9.918,6.764,20.0
106.19,-9.871,6.163,38.0
106.231,-9.884,5.604,59.0
122.741,-11.432,5.814,33.0
156.388,-14.582,6.581,46.0
148.601,-13.871,5.469,44.0
86.817,-8.116,5.621,4.0
107.553,-10.064,6.393,35.0
106.241,-9.949,5.752,10.0
106.242,-9.959,5.18,40.0
156.535,-14.687,6.803,36.0
204.69,-19.225,7.816,24.0
81.885,-7.703,5.416,3.0
99.124,-9.331,6.03,6.0
108.12,-10.186,6.005,64.0
106.296,-10.022,5.33,17.0
151.237,-14.272,6.785,32.0
157.464,-14.873,6.234,12.0
98.917,-9.358,6.682,14.0
99.265,-9.397,6.179,8.0
0.0,0.0,0.0,0.0
115.548,-10.954,5.956,32.0
122.886,-11.657,5.684,42.0
151.076,-14.343,6.191,16.0
98.506,-9.368,6.791,22.0
86.579,-8.237,5.509,9.0
106.9,-10.177,6.234,21.0
108.041,-10.292,5.718,12.0
106.48,-10.149,5.072,13.0
123.054,-11.737,5.211,8.0
84.071,-8.032,5.912,24.0
81.71,-7.81,5.313,5.0
116.705,-11.16,6.968,12.0
108.029,-10.336,5.867,19.0
106.502,-10.194,5.22,17.0
123.047,-11.785,5.381,36.0
84.134,-8.072,6.034,14.0
84.747,-8.133,5.627,12.0
86.155,-8.271,5.263,7.0
107.493,-10.324,5.987,10.0
115.617,-11.11,5.826,26.0
147.8,-14.208,6.667,21.0
84.553,-8.142,6.181,4.0
98.682,-9.505,6.69,21.0
99.197,-9.557,6.198,14.0
107.226,-10.334,6.12,32.0
107.956,-10.408,5.588,27.0
106.548,-10.275,4.952,13.0
84.702,-8.183,6.309,7.0
99.832,-9.647,6.905,23.0
81.71,-7.896,5.218,7.0
107.825,-10.422,6.303,47.0
107.921,-10.434,5.735,50.0
106.585,-10.308,5.1,24.0
85.012,-8.236,6.45,15.0
86.775,-8.407,6.123,4.0
98.863,-9.579,6.45,20.0
107.812,-10.447,6.449,39.0
107.838,-10.451,5.878,26.0
108.098,-10.478,5.32,20.0
85.013,-8.255,6.566,9.0
82.417,-8.003,5.927,2.0
98.943,-9.607,6.59,37.0
99.119,-9.624,6.065,7.0
107.016,-10.392,5.98,20.0
108.005,-10.489,5.461,40.0
68.463,-6.661,5.382,2.0
84.619,-8.231,6.201,4.0
84.564,-8.225,5.747,1.0
99.131,-9.641,6.199,17.0
107.214,-10.427,6.135,18.0
107.952,-10.497,5.605,41.0
96.73,-9.424,7.735,7.0
84.653,-8.245,6.317,8.0
99.725,-9.711,6.91,3.0
99.213,-9.66,6.335,19.0
85.816,-8.353,5.024,6.0
107.926,-10.505,5.746,6.0
96.754,-9.435,7.865,3.0
85.76,-8.36,6.514,2.0
86.749,-8.453,6.127,6.0
98.872,-9.632,6.445,41.0
116.676,-11.364,6.985,14.0
116.261,-11.322,6.342,8.0
98.73,-9.632,8.158,5.0
91.637,-8.937,7.081,4.0
99.378,-9.687,7.149,6.0
83.77,-8.163,5.57,4.0
99.12,-9.655,6.063,13.0
106.873,-10.407,5.968,18.0
81.052,-7.908,6.803,2.0
68.437,-6.673,5.378,3.0
84.532,-8.239,6.19,3.0
80.953,-7.886,5.488,1.0
99.145,-9.654,6.192,15.0
107.032,-10.418,6.115,15.0
69.757,-6.803,5.945,2.0
96.703,-9.425,7.724,8.0
84.593,-8.24,6.304,6.0
99.747,-9.71,6.891,2.0
99.24,-9.656,6.326,18.0
107.804,-10.484,6.297,24.0
77.804,-7.581,6.732,1.0
96.731,-9.419,7.851,5.0
85.019,-8.273,6.444,7.0
86.739,-8.434,6.101,5.0
98.847,-9.606,6.425,23.0
85.85,-8.338,5.121,5.0
77.905,-7.581,6.839,2.0
98.912,-9.618,8.151,2.0
84.997,-8.259,6.549,9.0
86.729,-8.42,6.209,3.0
98.832,-9.589,6.547,37.0
107.776,-10.449,6.564,19.0
83.824,-8.144,7.462,3.0
81.101,-7.871,6.785,3.0
96.381,-9.346,7.545,6.0
96.269,-9.328,7.01,6.0
84.64,-8.194,5.711,2.0
99.191,-9.596,6.161,14.0
83.684,-8.112,7.552,5.0
96.879,-9.381,8.222,5.0
100.018,-9.676,7.951,22.0
84.638,-8.181,6.265,7.0
99.811,-9.638,6.854,20.0
86.465,-8.343,5.474,10.0
90.092,-8.71,8.24,2.0
96.772,-9.346,8.329,4.0
96.815,-9.341,7.811,5.0
84.691,-8.162,6.369,6.0
84.072,-8.095,5.872,24.0
81.749,-7.864,5.271,5.0
84.825,-8.177,7.858,3.0
80.554,-7.755,7.027,2.0
96.632,-9.293,7.91,6.0
97.264,-9.343,7.429,7.0
84.124,-8.072,5.973,23.0
98.687,-9.459,6.479,8.0
106.567,-10.236,9.998,7.0
83.72,-8.031,7.402,3.0
90.513,-8.672,7.514,2.0
97.133,-9.295,7.53,13.0
86.758,-8.293,6.26,2.0
98.503,-9.405,6.577,14.0
84.659,-8.1,8.038,7.0
99.961,-9.551,8.952,7.0
99.923,-9.535,8.408,6.0
85.271,-8.127,6.706,5.0
84.648,-8.056,6.202,5.0
98.578,-9.371,6.692,13.0
83.63,-7.966,8.035,2.0
99.832,-9.497,9.05,9.0
84.591,-8.035,7.211,1.0
96.035,-9.11,7.657,5.0
99.826,-9.456,7.422,14.0
98.67,-9.335,6.804,23.0
84.989,-8.058,8.257,4.0
83.983,-7.95,7.703,17.0
83.798,-7.921,7.233,2.0
95.972,-9.058,7.755,7.0
99.833,-9.409,7.529,9.0
98.752,-9.294,6.914,16.0
80.95,-7.634,7.952,3.0
99.837,-9.401,9.265,12.0
98.658,-9.275,8.62,5.0
95.947,-9.006,7.854,11.0
84.512,-7.921,6.461,8.0
98.146,-9.185,6.973,9.0
81.084,-7.603,8.05,6.0
99.935,-9.355,9.378,15.0
83.663,-7.819,7.396,2.0
95.907,-8.949,7.949,9.0
84.266,-7.85,6.528,3.0
86.754,-8.07,6.251,2.0
80.958,-7.546,8.118,7.0
85.722,-7.976,8.129,7.0
98.125,-9.114,8.771,11.0
84.464,-7.832,7.083,8.0
97.094,-8.988,7.615,3.0
86.974,-8.038,6.351,1.0
80.939,-7.495,8.196,7.0
97.802,-9.04,9.37,18.0
0.0,0.0,0.0,0.0
95.797,-8.822,8.126,14.0
83.951,-7.717,6.666,4.0
84.671,-7.771,6.263,3.0
80.931,-7.442,8.272,9.0
98.278,-9.02,9.509,9.0
98.699,-9.041,9.012,13.0
104.752,-9.576,8.985,5.0
105.897,-9.663,8.507,14.0
84.696,-7.715,6.344,8.0
80.964,-7.39,8.351,6.0
98.69,-8.988,9.641,4.0
98.722,-8.974,9.104,10.0
97.476,-8.844,8.448,4.0
105.123,-9.519,8.538,11.0
84.717,-7.656,6.42,34.0
80.949,-7.33,8.422,4.0
98.689,-8.918,9.728,14.0
83.279,-7.51,7.753,7.0
85.044,-7.653,7.444,14.0
96.886,-8.701,7.953,5.0
84.748,-7.596,6.495,9.0
99.83,-8.965,10.473,5.0
101.192,-9.067,10.061,5.0
83.208,-7.44,7.817,5.0
105.239,-9.389,9.301,5.0
105.447,-9.389,8.743,14.0
84.841,-7.537,6.573,9.0
80.833,-7.195,8.547,6.0
84.795,-7.531,8.5,6.0
99.506,-8.818,9.429,8.0
84.361,-7.459,7.524,6.0
96.898,-8.548,8.113,3.0
84.837,-7.468,6.64,5.0
80.706,-7.117,8.599,6.0
84.83,-7.464,8.571,11.0
99.778,-8.757,9.534,11.0
84.377,-7.389,7.591,6.0
107.937,-9.431,9.119,3.0
84.895,-7.401,6.709,3.0
80.498,-7.03,8.638,3.0
84.754,-7.384,8.628,12.0
99.75,-8.669,9.606,4.0
96.434,-8.361,8.747,7.0
108.163,-9.356,9.218,5.0
105.944,-9.143,8.448,19.0
0.0,0.0,0.0,0.0
99.591,-8.588,10.209,13.0
105.677,-9.09,10.251,8.0
105.652,-9.065,9.657,11.0
106.317,-9.1,9.134,9.0
84.762,-7.237,6.818,8.0
0.0,0.0,0.0,0.0
107.985,-9.213,11.144,5.0
108.098,-9.199,10.559,5.0
105.774,-8.977,9.739,6.0
106.378,-9.006,9.21,11.0
97.284,-8.216,7.888,10.0
0.0,0.0,0.0,0.0
107.73,-9.089,11.187,3.0
99.303,-8.356,9.763,7.0
106.69,-8.954,9.89,5.0
97.167,-8.134,8.472,8.0
84.947,-7.093,6.939,12.0
0.0,0.0,0.0,0.0
0.0,0.0,0.0,0.0
106.339,-8.844,10.519,6.0
106.308,-8.818,9.917,2.0
100.85,-8.343,8.852,1.0
84.694,-6.987,6.968,8.0
0.0,0.0,0.0,0.0
99.604,-8.207,10.46,2.0
0.0,0.0,0.0,0.0
107.05,-8.77,10.046,1.0
105.445,-8.615,9.313,6.0
107.384,-8.75,8.892,1.0
0.0,0.0,0.0,0.0
0.0,0.0,0.0,0.0
0.0,0.0,0.0,0.0
0.0,0.0,0.0,0.0
98.375,-7.935,8.739,6.0
106.679,-8.58,8.888,13.0
0.0,0.0,0.0,0.0
0.0,0.0,0.0,0.0
0.0,0.0,0.0,0.0
107.556,-8.586,10.201,5.0
107.686,-8.571,9.617,12.0
106.007,-8.413,8.881,10.0
0.0,0.0,0.0,0.0
0.0,0.0,0.0,0.0
0.0,0.0,0.0,0.0
0.0,0.0,0.0,0.0
107.642,-8.45,9.659,2.0
105.946,-8.293,8.919,17.0
0.0,0.0,0.0,0.0
0.0,0.0,0.0,0.0
0.0,0.0,0.0,0.0
0.0,0.0,0.0,0.0
0.0,0.0,0.0,0.0
106.803,-8.239,9.033,2.0
0.0,0.0,0.0,0.0
0.0,0.0,0.0,0.0
0.0,0.0,0.0,0.0
0.0,0.0,0.0,0.0
0.0,0.0,0.0,0.0
108.363,-8.238,9.201,2.0
0.0,0.0,0.0,0.0
0.0,0.0,0.0,0.0
0.0,0.0,0.0,0.0
0.0,0.0,0.0,0.0
0.0,0.0,0.0,0.0
108.532,-8.125,9.248,6.0
0.0,0.0,0.0,0.0
0.0,0.0,0.0,0.0
0.0,0.0,0.0,0.0
0.0,0.0,0.0,0.0
0.0,0.0,0.0,0.0
108.506,-7.994,9.275,1.0
0.0,0.0,0.0,0.0
0.0,0.0,0.0,0.0
0.0,0.0,0.0,0.0
0.0,0.0,0.0,0.0
0.0,0.0,0.0,0.0
0.0,0.0,0.0,0.0
0.0,0.0,0.0,0.0
0.0,0.0,0.0,0.0
0.0,0.0,0.0,0.0
0.0,0.0,0.0,0.0
0.0,0.0,0.0,0.0
0.0,0.0,0.0,0.0
0.0,0.0,0.0,0.0
0.0,0.0,0.0,0.0
0.0,0.0,0.0,0.0
0.0,0.0,0.0,0.0
0.0,0.0,0.0,0.0
0.0,0.0,0.0,0.0
0.0,0.0,0.0,0.0
0.0,0.0,0.0,0.0
0.0,0.0,0.0,0.0
0.0,0.0,0.0,0.0
0.0,0.0,0.0,0.0
0.0,0.0,0.0,0.0
0.0,0.0,0.0,0.0
0.0,0.0,0.0,0.0
0.0,0.0,0.0,0.0
0.0,0.0,0.0,0.0
0.0,0.0,0.0,0.0
0.0,0.0,0.0,0.0
0.0,0.0,0.0,0.0
0.0,0.0,0.0,0.0
0.0,0.0,0.0,0.0
0.0,0.0,0.0,0.0
0.0,0.0,0.0,0.0
0.0,0.0,0.0,0.0
0.0,0.0,0.0,0.0
0.0,0.0,0.0,0.0
0.0,0.0,0.0,0.0
0.0,0.0,0.0,0.0
0.0,0.0,0.0,0.0
0.0,0.0,0.0,0.0
0.0,0.0,0.0,0.0
0.0,0.0,0.0,0.0
0.0,0.0,0.0,0.0
0.0,0.0,0.0,0.0
0.0,0.0,0.0,0.0
0.0,0.0,0.0,0.0
49.275,-3.133,5.631,3.0
0.0,0.0,0.0,0.0
0.0,0.0,0.0,0.0
0.0,0.0,0.0,0.0
0.0,0.0,0.0,0.0
0.0,0.0,0.0,0.0
49.298,-3.069,5.627,1.0
0.0,0.0,0.0,0.0
0.0,0.0,0.0,0.0
0.0,0.0,0.0,0.0
0.0,0.0,0.0,0.0
0.0,0.0,0.0,0.0
0.0,0.0,0.0,0.0
0.0,0.0,0.0,0.0
0.0,0.0,0.0,0.0
0.0,0.0,0.0,0.0
0.0,0.0,0.0,0.0
0.0,0.0,0.0,0.0
0.0,0.0,0.0,0.0
0.0,0.0,0.0,0.0
0.0,0.0,0.0,0.0
0.0,0.0,0.0,0.0
0.0,0.0,0.0,0.0
0.0,0.0,0.0,0.0
50.276,-2.925,5.705,0.0
0.0,0.0,0.0,0.0
0.0,0.0,0.0,0.0
0.0,0.0,0.0,0.0
0.0,0.0,0.0,0.0
0.0,0.0,0.0,0.0
0.0,0.0,0.0,0.0
0.0,0.0,0.0,0.0
56.611,-3.187,5.759,2.0
0.0,0.0,0.0,0.0
0.0,0.0,0.0,0.0
0.0,0.0,0.0,0.0
50.107,-2.779,5.651,0.0
49.423,-2.728,5.292,0.0
56.583,-3.108,5.735,2.0
56.89,-3.11,5.436,3.0
92.394,-5.028,8.303,5.0
0.0,0.0,0.0,0.0
57.053,-3.086,6.412,10.0
0.0,0.0,0.0,0.0
0.0,0.0,0.0,0.0
56.831,-3.03,5.406,2.0
92.38,-4.901,8.262,1.0
93.504,-4.938,7.831,1.0
50.259,-2.65,5.625,4.0
55.27,-2.899,5.869,4.0
0.0,0.0,0.0,0.0
56.651,-2.942,5.363,2.0
0.0,0.0,0.0,0.0
93.299,-4.799,7.768,8.0
50.053,-2.569,5.578,6.0
63.573,-3.247,6.719,1.0
92.709,-4.711,9.267,3.0
56.647,-2.864,5.332,6.0
90.833,-4.57,8.033,1.0
92.956,-4.653,7.691,5.0
55.39,-2.767,6.142,7.0
57.265,-2.845,6.021,4.0
92.588,-4.577,9.204,6.0
92.707,-4.56,8.676,4.0
90.906,-4.449,7.987,2.0
91.171,-4.44,7.491,3.0
56.607,-2.75,6.244,8.0
55.035,-2.659,5.754,8.0
55.008,-2.644,5.435,1.0
83.843,-4.01,7.796,11.0
83.938,-3.994,7.325,8.0
92.601,-4.384,7.552,4.0
49.813,-2.352,5.463,4.0
55.037,-2.584,5.72,24.0
55.078,-2.572,5.407,4.0
63.354,-2.943,5.85,6.0
93.402,-4.317,8.09,5.0
92.683,-4.262,7.498,6.0
40.611,-1.861,4.427,30.0
55.13,-2.513,5.691,5.0
57.934,-2.626,5.648,4.0
84.199,-3.797,7.716,3.0
83.315,-3.736,7.158,13.0
90.285,-4.027,7.24,9.0
49.633,-2.206,5.374,8.0
63.568,-2.81,6.517,8.0
55.01,-2.418,5.322,20.0
90.086,-3.938,8.19,2.0
83.438,-3.627,7.106,9.0
83.682,-3.619,6.648,3.0
40.489,-1.745,4.353,31.0
56.647,-2.427,5.764,5.0
54.975,-2.342,5.276,9.0
82.853,-3.51,7.467,13.0
84.293,-3.551,7.114,5.0
92.851,-3.89,7.303,5.0
40.437,-1.687,4.315,66.0
56.705,-2.353,5.724,11.0
57.596,-2.376,5.481,17.0
91.109,-3.737,8.138,9.0
84.225,-3.435,7.038,7.0
83.537,-3.387,6.501,13.0
40.495,-1.635,4.287,30.0
55.162,-2.214,5.521,5.0
57.279,-2.285,5.402,5.0
56.911,-2.258,5.033,5.0
84.236,-3.322,6.965,6.0
83.374,-3.269,6.416,11.0
43.287,-1.689,4.544,2.0
54.809,-2.126,5.436,3.0
57.31,-2.21,5.353,5.0
56.856,-2.179,4.977,6.0
91.404,-3.483,7.475,12.0
83.384,-3.159,6.341,17.0
40.117,-1.512,4.174,48.0
53.223,-1.993,5.229,11.0
57.143,-2.127,5.284,7.0
63.457,-2.348,5.495,4.0
83.079,-3.056,6.715,13.0
83.34,-3.046,6.257,12.0
40.203,-1.462,4.143,63.0
53.218,-1.923,5.176,27.0
40.715,-1.462,3.725,46.0
63.446,-2.264,5.431,7.0
82.716,-2.933,6.604,15.0
83.323,-2.936,6.172,12.0
40.194,-1.408,4.101,61.0
53.057,-1.846,5.106,26.0
40.775,-1.41,3.688,48.0
41.064,-1.411,3.473,13.0
82.861,-2.83,6.53,13.0
92.387,-3.136,6.747,35.0
40.392,-1.362,4.079,45.0
52.916,-1.773,5.036,6.0
40.828,-1.359,3.649,57.0
83.367,-2.757,6.961,3.0
83.094,-2.731,6.459,17.0
83.241,-2.718,5.99,14.0
40.487,-1.313,4.044,51.0
40.728,-1.312,3.831,17.0
40.851,-1.307,3.606,60.0
92.625,-2.944,7.63,5.0
83.151,-2.626,6.369,16.0
83.249,-2.611,5.896,11.0
40.292,-1.255,3.978,54.0
40.681,-1.258,3.78,48.0
40.925,-1.257,3.565,36.0
83.403,-2.544,6.774,22.0
90.747,-2.75,6.846,13.0
83.513,-2.514,5.817,11.0
40.118,-1.198,3.913,64.0
40.661,-1.206,3.73,45.0
40.848,-1.204,3.51,7.0
41.216,-1.206,3.298,24.0
41.332,-1.201,3.068,34.0
92.457,-2.668,6.331,19.0
39.969,-1.144,3.85,53.0
41.057,-1.167,3.716,50.0
53.447,-1.508,4.527,5.0
41.266,-1.156,3.252,32.0
86.693,-2.412,6.33,3.0
94.513,-2.611,6.353,4.0
40.829,-1.118,3.881,60.0
40.774,-1.108,3.639,47.0
53.755,-1.451,4.485,6.0
41.201,-1.103,3.194,43.0
97.29,-2.587,6.977,5.0
129.313,-3.414,8.527,24.0
40.587,-1.062,3.805,52.0
64.172,-1.666,5.642,17.0
41.257,-1.063,3.387,38.0
41.253,-1.055,3.143,44.0
85.723,-2.175,6.035,4.0
97.724,-2.461,6.314,12.0
40.923,-1.021,3.781,59.0
64.09,-1.587,5.548,10.0
41.223,-1.012,3.329,60.0
41.27,-1.005,3.088,10.0
93.656,-2.265,6.466,2.0
91.606,-2.199,5.794,4.0
49.089,-1.166,4.468,10.0
54.045,-1.274,4.604,16.0
41.167,-0.963,3.268,58.0
41.239,-0.957,3.029,53.0
84.168,-1.938,5.694,49.0
91.504,-2.091,5.661,44.0
40.781,-0.922,3.655,45.0
54.167,-1.214,4.538,26.0
41.278,-0.918,3.218,16.0
83.874,-1.85,6.043,31.0
84.381,-1.847,5.589,26.0
91.496,-1.986,5.53,26.0
40.695,-0.873,3.588,40.0
54.211,-1.154,4.464,35.0
41.24,-0.87,3.155,62.0
85.939,-1.799,6.067,22.0
85.155,-1.768,5.517,15.0
101.395,-2.088,5.98,37.0
40.62,-0.826,3.521,54.0
54.193,-1.093,4.381,19.0
94.821,-1.896,7.114,6.0
85.886,-1.703,5.934,14.0
85.363,-1.677,5.402,67.0
101.337,-1.975,5.824,44.0
64.255,-1.236,5.472,47.0
54.233,-1.034,4.301,31.0
63.967,-1.209,4.701,4.0
126.462,-2.37,8.545,24.0
85.171,-1.582,5.26,27.0
101.275,-1.865,5.666,23.0
40.818,-0.741,3.413,55.0
63.832,-1.149,4.964,11.0
63.898,-1.14,4.597,28.0
126.312,-2.234,8.338,28.0
85.212,-1.493,5.129,13.0
90.825,-1.577,4.938,19.0
40.701,-0.696,3.338,66.0
41.158,-0.697,3.135,45.0
63.917,-1.073,4.496,6.0
94.324,-1.569,6.076,14.0
84.057,-1.385,4.925,20.0
90.859,-1.483,4.794,37.0
40.745,-0.655,3.276,49.0
41.055,-0.654,3.061,13.0
94.402,-1.49,6.488,5.0
124.991,-1.954,7.848,23.0
89.821,-1.39,5.117,11.0
126.939,-1.945,6.492,23.0
41.005,-0.618,3.229,49.0
63.86,-0.954,4.655,20.0
94.268,-1.394,6.323,67.0
82.762,-1.211,5.059,22.0
89.904,-1.303,4.971,11.0
79.192,-1.136,3.918,150.0
41.133,-0.58,3.17,70.0
63.431,-0.885,4.517,47.0
82.587,-1.141,5.399,83.0
85.451,-1.169,5.078,35.0
83.777,-1.134,4.492,27.0
79.197,-1.061,3.784,160.0
62.637,-0.824,4.721,11.0
63.354,-0.825,4.404,38.0
86.122,-1.109,5.482,4.0
85.459,-1.089,4.932,44.0
83.887,-1.057,4.352,49.0
79.288,-0.988,3.652,150.0
62.636,-0.766,4.611,71.0
86.117,-1.042,5.835,55.0
86.111,-1.03,5.331,15.0
83.454,-0.988,4.671,54.0
83.741,-0.98,4.198,77.0
85.868,-0.993,3.803,150.0
62.674,-0.71,4.502,79.0
90.497,-1.014,5.972,36.0
83.1,-0.921,4.997,51.0
83.671,-0.916,4.533,46.0
79.211,-0.857,3.83,163.0
86.031,-0.921,3.659,10.0
62.692,-0.657,4.391,68.0
77.535,-0.802,4.977,57.0
85.914,-0.879,5.012,57.0
98.42,-0.995,5.157,21.0
0.0,0.0,0.0,0.0
79.408,-0.783,3.234,150.0
76.815,-0.741,5.241,41.0
77.444,-0.738,4.829,44.0
85.832,-0.807,4.85,36.0
123.962,-1.151,6.268,21.0
85.906,-0.787,3.841,150.0
79.419,-0.719,3.088,179.0
76.837,-0.679,5.099,22.0
124.71,-1.088,7.546,23.0
85.461,-0.736,4.67,42.0
79.211,-0.673,3.858,151.0
86.028,-0.721,3.688,36.0
79.431,-0.657,2.941,151.0
82.884,-0.669,5.345,15.0
59.429,-0.473,3.484,76.0
59.45,-0.466,3.137,96.0
81.457,-0.631,3.814,12.0
79.407,-0.606,3.254,150.0
79.414,-0.598,2.79,150.0
76.966,-0.564,4.817,72.0
59.437,-0.429,3.371,100.0
59.467,-0.423,3.024,107.0
59.478,-0.417,2.671,101.0
79.416,-0.549,3.103,150.0
79.416,-0.541,2.64,150.0
77.094,-0.51,4.677,46.0
59.439,-0.387,3.258,103.0
59.469,-0.382,2.911,107.0
59.473,-0.376,2.557,97.0
79.406,-0.495,2.95,150.0
79.433,-0.487,2.488,151.0
59.413,-0.353,3.489,94.0
59.447,-0.347,3.142,112.0
59.471,-0.342,2.796,102.0
59.456,-0.337,2.441,92.0
79.412,-0.442,2.795,150.0
79.439,-0.436,2.333,151.0
59.437,-0.315,3.374,115.0
59.457,-0.31,3.027,120.0
59.462,-0.305,2.679,101.0
79.387,-0.4,3.105,150.0
79.42,-0.394,2.641,150.0
79.437,-0.387,2.177,151.0
59.441,-0.279,3.257,115.0
59.468,-0.274,2.909,103.0
59.457,-0.269,2.56,97.0
79.412,-0.353,2.947,150.0
79.421,-0.346,2.483,150.0
79.436,-0.34,2.019,151.0
59.447,-0.244,3.138,108.0
59.459,-0.24,2.789,101.0
59.454,-0.235,2.441,93.0
79.414,-0.308,2.788,150.0
79.413,-0.303,2.323,150.0
79.445,-0.297,1.859,151.0
59.454,-0.212,3.018,107.0
59.458,-0.208,2.67,100.0
79.43,-0.273,3.102,150.0
79.425,-0.267,2.629,150.0
79.433,-0.262,2.164,151.0
79.443,-0.256,1.701,151.0
59.463,-0.183,2.898,105.0
59.448,-0.178,2.549,96.0
79.423,-0.233,2.939,150.0
79.418,-0.228,2.466,150.0
79.439,-0.223,2.002,151.0
79.438,-0.218,1.538,164.0
59.451,-0.155,2.777,110.0
59.434,-0.151,2.427,94.0
79.415,-0.197,2.778,150.0
79.421,-0.193,2.306,150.0
79.442,-0.188,1.841,151.0
79.449,-0.183,1.376,152.0
59.459,-0.129,2.654,102.0
79.427,-0.168,3.079,150.0
79.432,-0.163,2.613,150.0
79.422,-0.159,2.14,150.0
79.442,-0.155,1.676,151.0
79.453,-0.151,1.212,151.0
59.454,-0.105,2.53,98.0
79.436,-0.137,2.915,151.0
79.427,-0.133,2.45,150.0
79.434,-0.129,1.976,151.0
79.44,-0.125,1.511,165.0
79.459,-0.121,1.046,151.0
79.411,-0.112,3.212,45.0
79.428,-0.108,2.748,150.0
79.43,-0.105,2.283,150.0
79.447,-0.101,1.81,151.0
79.453,-0.098,1.346,156.0
79.457,-0.094,0.88,151.0
79.421,-0.086,3.047,150.0
79.431,-0.083,2.582,150.0
79.424,-0.08,2.117,150.0
79.449,-0.077,1.644,151.0
79.455,-0.074,1.18,153.0
79.425,-0.071,0.714,150.0
79.442,-0.063,2.88,151.0
79.44,-0.06,2.415,150.0
79.423,-0.057,1.949,150.0
79.444,-0.055,1.476,166.0
79.462,-0.052,1.011,154.0
76.378,-0.048,0.526,17.0
79.437,-0.043,2.713,150.0
79.426,-0.041,2.247,150.0
79.441,-0.038,1.783,151.0
79.446,-0.036,1.309,154.0
79.458,-0.034,0.843,173.0
61.84,-0.025,0.294,20.0
79.433,-0.026,2.544,150.0
79.441,-0.024,2.078,150.0
79.452,-0.022,1.612,151.0
79.449,-0.02,1.138,152.0
79.373,-0.018,0.671,54.0
0.0,0.0,0.0,0.0
79.434,-0.011,2.373,150.0
79.431,-0.01,1.907,150.0
79.444,-0.008,1.442,171.0
79.461,-0.007,0.969,164.0
76.145,-0.006,0.482,17.0
0.0,0.0,0.0,0.0
79.431,0.0,2.203,150.0
79.448,0.0,1.738,151.0
79.453,0.001,1.272,158.0
79.465,0.002,0.799,151.0
61.497,0.002,0.258,8.0
0.0,0.0,0.0,0.0
79.43,0.007,2.033,150.0
79.451,0.008,1.568,156.0
79.459,0.008,1.102,156.0
79.325,0.009,0.628,22.0
0.0,0.0,0.0,0.0
39.751,0.005,-0.15,34.0
79.444,0.012,1.864,151.0
79.453,0.012,1.4,171.0
79.462,0.013,0.935,160.0
75.948,0.012,0.44,12.0
0.0,0.0,0.0,0.0
38.724,0.006,-0.228,14.0
79.441,0.014,1.695,151.0
79.461,0.014,1.23,156.0
79.491,0.014,0.764,150.0
59.268,0.01,0.216,5.0
43.838,0.007,-0.096,3.0
38.088,0.006,-0.307,2.0
79.446,0.014,1.523,160.0
79.474,0.013,1.059,156.0
76.53,0.012,0.571,16.0
52.182,0.008,0.078,8.0
39.39,0.005,-0.17,31.0
32.859,0.004,-0.334,1.0
79.457,0.01,1.354,158.0
79.453,0.009,0.889,159.0
61.8,0.006,0.33,9.0
44.901,0.004,-0.027,22.0
38.426,0.003,-0.248,6.0
30.605,0.001,-0.377,1.0
79.464,0.003,1.185,151.0
79.416,0.002,0.719,131.0
0.0,0.0,0.0,0.0
40.601,0.0,-0.112,16.0
34.251,0.0,-0.294,0.0
29.366,-0.001,-0.424,2.0
79.458,-0.005,1.016,154.0
76.185,-0.007,0.527,18.0
47.735,-0.005,0.05,21.0
39.14,-0.005,-0.191,15.0
32.317,-0.005,-0.347,1.0
27.923,-0.005,-0.463,2.0
79.457,-0.018,0.844,164.0
61.732,-0.015,0.294,17.0
43.966,-0.012,-0.047,19.0
38.349,-0.012,-0.27,5.0
30.241,-0.01,-0.39,2.0
26.662,-0.01,-0.5,2.0
79.271,-0.033,0.672,25.0
0.0,0.0,0.0,0.0
40.138,-0.019,-0.13,24.0
33.594,-0.017,-0.308,1.0
28.987,-0.016,-0.436,2.0
25.515,-0.015,-0.533,1.0
76.089,-0.05,0.482,14.0
0.0,0.0,0.0,0.0
38.98,-0.028,-0.209,14.0
31.307,-0.024,-0.354,1.0
27.534,-0.022,-0.472,1.0
24.185,-0.02,-0.557,2.0
56.189,-0.052,0.236,10.0
0.0,0.0,0.0,0.0
38.227,-0.038,-0.286,2.0
29.779,-0.031,-0.401,2.0
26.406,-0.029,-0.51,2.0
23.276,-0.026,-0.586,3.0
40.356,-0.049,0.084,4.0
39.819,-0.051,-0.15,25.0
33.19,-0.044,-0.319,1.0
28.524,-0.039,-0.444,2.0
25.121,-0.036,-0.538,1.0
22.398,-0.033,-0.611,3.0
45.57,-0.072,-0.001,20.0
38.798,-0.063,-0.228,8.0
30.999,-0.052,-0.364,1.0
27.128,-0.047,-0.48,2.0
23.971,-0.043,-0.565,3.0
21.445,-0.039,-0.63,3.0
41.55,-0.081,-0.088,19.0
37.23,-0.075,-0.297,1.0
29.526,-0.061,-0.408,2.0
26.076,-0.055,-0.516,2.0
23.051,-0.05,-0.591,3.0
20.574,-0.046,-0.648,2.0
39.642,-0.094,-0.168,15.0
32.432,-0.079,-0.327,2.0
28.274,-0.071,-0.451,1.0
24.731,-0.063,-0.542,1.0
22.13,-0.058,-0.614,2.0
19.701,-0.053,-0.662,2.0
38.857,-0.11,-0.246,3.0
30.457,-0.088,-0.37,1.0
26.914,-0.08,-0.485,1.0
23.714,-0.072,-0.568,2.0
21.217,-0.066,-0.632,3.0
18.983,-0.06,-0.677,2.0
34.496,-0.114,-0.289,1.0
29.291,-0.099,-0.416,2.0
25.873,-0.089,-0.519,1.0
22.786,-0.08,-0.593,2.0
20.332,-0.073,-0.648,2.0
18.324,-0.067,-0.691,2.0
32.172,-0.123,-0.335,1.0
27.951,-0.109,-0.454,1.0
24.652,-0.098,-0.545,1.0
21.932,-0.089,-0.615,3.0
19.543,-0.081,-0.663,2.0
17.713,-0.075,-0.704,1.0
30.227,-0.133,-0.377,2.0
26.741,-0.119,-0.489,1.0
23.599,-0.107,-0.57,1.0
20.991,-0.097,-0.632,3.0
18.846,-0.089,-0.678,2.0
17.144,-0.082,-0.717,1.0
29.13,-0.145,-0.422,2.0
25.725,-0.13,-0.523,1.0
22.706,-0.117,-0.594,2.0
20.192,-0.106,-0.649,3.0
18.26,-0.097,-0.693,2.0
16.6,-0.09,-0.728,1.0
27.806,-0.156,-0.459,2.0
24.414,-0.139,-0.545,2.0
21.698,-0.126,-0.611,2.0
19.456,-0.114,-0.664,2.0
17.645,-0.106,-0.705,1.0
16.041,-0.098,-0.735,1.0
26.607,-0.167,-0.492,2.0
23.504,-0.15,-0.571,2.0
20.916,-0.135,-0.631,2.0
18.702,-0.123,-0.675,1.0
17.102,-0.114,-0.717,1.0
15.573,-0.105,-0.744,1.0
25.511,-0.177,-0.522,1.0
22.586,-0.16,-0.594,2.0
20.029,-0.144,-0.644,3.0
18.152,-0.132,-0.691,1.0
16.516,-0.122,-0.726,1.0
15.171,-0.114,-0.755,1.0
24.35,-0.187,-0.546,2.0
21.646,-0.169,-0.612,2.0
19.394,-0.154,-0.662,1.0
17.575,-0.141,-0.704,1.0
16.025,-0.13,-0.736,1.0
14.765,-0.122,-0.764,1.0
23.461,-0.198,-0.571,2.0
20.816,-0.178,-0.629,2.0
18.71,-0.163,-0.675,1.0
17.049,-0.15,-0.716,1.0
15.551,-0.139,-0.744,1.0
14.372,-0.13,-0.771,1.0
22.563,-0.209,-0.593,1.0
20.07,-0.188,-0.644,2.0
18.15,-0.172,-0.688,1.0
16.476,-0.158,-0.723,1.0
15.161,-0.147,-0.754,1.0
14.023,-0.138,-0.779,1.0
21.648,-0.218,-0.609,2.0
19.413,-0.198,-0.659,1.0
17.643,-0.182,-0.702,1.0
16.036,-0.167,-0.733,1.0
14.798,-0.156,-0.763,1.0
13.695,-0.146,-0.786,0.0
20.845,-0.227,-0.625,1.0
18.751,-0.207,-0.672,1.0
17.115,-0.191,-0.713,1.0
15.605,-0.176,-0.743,1.0
14.41,-0.165,-0.77,1.0
13.413,-0.155,-0.795,1.0
20.113,-0.237,-0.64,1.0
18.216,-0.217,-0.686,1.0
16.59,-0.2,-0.722,0.0
15.203,-0.185,-0.751,1.0
14.081,-0.174,-0.778,1.0
13.135,-0.164,-0.803,0.0
19.515,-0.248,-0.657,1.0
17.713,-0.228,-0.699,1.0
16.105,-0.209,-0.73,1.0
14.856,-0.195,-0.761,1.0
13.748,-0.182,-0.785,1.0
12.865,-0.172,-0.809,0.0
18.886,-0.258,-0.669,1.0
17.21,-0.237,-0.71,1.0
15.73,-0.219,-0.74,1.0
14.467,-0.204,-0.767,1.0
13.478,-0.192,-0.793,1.0
12.58,-0.181,-0.814,0.0
18.335,-0.268,-0.681,1.0
16.722,-0.247,-0.719,1.0
15.31,-0.228,-0.747,1.0
14.12,-0.213,-0.773,1.0
13.214,-0.201,-0.801,0.0
12.349,-0.19,-0.82,0.0
17.841,-0.278,-0.694,1.0
16.239,-0.256,-0.726,1.0
14.972,-0.238,-0.757,1.0
13.819,-0.222,-0.781,1.0
12.936,-0.21,-0.806,0.0
12.095,-0.198,-0.824,0.0
17.371,-0.289,-0.706,1.0
15.84,-0.266,-0.735,1.0
14.623,-0.248,-0.764,1.0
13.574,-0.232,-0.79,1.0
12.674,-0.219,-0.811,0.0
11.884,-0.207,-0.83,1.0
16.889,-0.299,-0.715,1.0
15.458,-0.276,-0.744,1.0
14.268,-0.257,-0.769,1.0
13.297,-0.242,-0.796,1.0
12.447,-0.228,-0.817,0.0
11.679,-0.216,-0.835,0.0
16.467,-0.309,-0.723,1.0
15.116,-0.286,-0.752,1.0
13.982,-0.267,-0.777,1.0
13.049,-0.251,-0.802,0.0
12.197,-0.237,-0.821,0.0
11.496,-0.225,-0.841,0.0
16.026,-0.318,-0.73,1.0
14.801,-0.296,-0.76,1.0
13.709,-0.277,-0.784,0.0
12.821,-0.261,-0.809,1.0
12.003,-0.247,-0.827,1.0
11.305,-0.235,-0.845,0.0
15.637,-0.328,-0.737,1.0
14.467,-0.306,-0.766,1.0
13.47,-0.287,-0.791,1.0
12.574,-0.271,-0.813,0.0
11.787,-0.256,-0.831,1.0
11.121,-0.243,-0.849,0.0
15.337,-0.339,-0.747,1.0
14.162,-0.316,-0.772,1.0
13.226,-0.298,-0.797,1.0
12.354,-0.28,-0.818,0.0
11.611,-0.266,-0.836,0.0
10.948,-0.252,-0.852,0.0
15.02,-0.35,-0.754,1.0
13.891,-0.326,-0.778,1.0
12.966,-0.307,-0.801,0.0
12.142,-0.29,-0.822,0.0
11.429,-0.275,-0.84,0.0
10.778,-0.261,-0.855,0.0
14.714,-0.36,-0.76,1.0
13.643,-0.337,-0.784,1.0
12.745,-0.317,-0.806,0.0
11.938,-0.299,-0.826,0.0
11.25,-0.284,-0.844,0.0
10.633,-0.271,-0.859,0.0
14.424,-0.371,-0.766,1.0
13.419,-0.347,-0.79,1.0
12.546,-0.327,-0.812,0.0
11.762,-0.309,-0.83,0.0
11.084,-0.294,-0.847,0.0
10.506,-0.28,-0.864,0.0
14.134,-0.381,-0.771,1.0
13.223,-0.359,-0.797,1.0
12.344,-0.337,-0.816,1.0
11.605,-0.319,-0.836,0.0
10.936,-0.303,-0.851,0.0
10.361,-0.289,-0.866,0.0
13.907,-0.392,-0.777,1.0
12.986,-0.369,-0.801,1.0
12.174,-0.348,-0.821,0.0
11.45,-0.33,-0.84,0.0
10.804,-0.313,-0.855,0.0
10.193,-0.298,-0.866,0.0
13.693,-0.403,-0.784,1.0
12.806,-0.38,-0.807,1.0
11.987,-0.358,-0.825,0.0
11.268,-0.339,-0.842,0.0
10.654,-0.323,-0.858,0.0
10.04,-0.306,-0.867,0.0
13.468,-0.414,-0.788,0.0
12.601,-0.39,-0.81,0.0
11.808,-0.368,-0.828,0.0
11.112,-0.349,-0.844,0.0
10.518,-0.332,-0.86,0.0
9.904,-0.315,-0.868,1.0
13.274,-0.425,-0.794,1.0
12.418,-0.401,-0.814,0.0
11.674,-0.379,-0.833,0.0
10.999,-0.36,-0.85,0.0
10.396,-0.342,-0.863,0.0
9.8,-0.325,-0.871,2.0
13.099,-0.437,-0.799,1.0
12.27,-0.412,-0.82,0.0
11.529,-0.39,-0.837,0.0
10.857,-0.369,-0.852,0.0
10.271,-0.352,-0.865,0.0
9.746,-0.336,-0.878,1.0
12.913,-0.448,-0.803,1.0
12.104,-0.423,-0.823,1.0
11.378,-0.4,-0.839,0.0
10.725,-0.379,-0.854,0.0
10.129,-0.361,-0.865,0.0
9.64,-0.346,-0.879,0.0
12.728,-0.459,-0.807,0.0
11.918,-0.432,-0.824,1.0
11.238,-0.41,-0.842,0.0
10.605,-0.39,-0.856,0.0
10.005,-0.37,-0.866,1.0
9.536,-0.355,-0.881,0.0
12.552,-0.47,-0.809,0.0
11.784,-0.444,-0.827,0.0
11.119,-0.421,-0.845,0.0
10.511,-0.401,-0.86,0.0
9.899,-0.38,-0.868,2.0
9.46,-0.365,-0.884,0.0
12.409,-0.481,-0.813,0.0
11.675,-0.456,-0.832,0.0
11.0,-0.432,-0.847,0.0
10.409,-0.411,-0.863,0.0
9.804,-0.389,-0.869,3.0
9.375,-0.375,-0.886,0.0
12.279,-0.493,-0.817,1.0
11.543,-0.466,-0.835,0.0
10.897,-0.443,-0.851,0.0
10.3,-0.421,-0.864,0.0
9.77,-0.402,-0.876,2.0
9.288,-0.384,-0.887,0.0
12.131,-0.504,-0.819,0.0
11.429,-0.478,-0.838,0.0
10.786,-0.454,-0.853,0.0
10.181,-0.431,-0.864,0.0
9.694,-0.412,-0.879,1.0
9.214,-0.394,-0.889,0.0
12.007,-0.516,-0.822,0.0
11.319,-0.489,-0.84,0.0
10.699,-0.465,-0.856,0.0
10.064,-0.44,-0.864,0.0
9.604,-0.422,-0.88,0.0
9.14,-0.404,-0.89,0.0
11.897,-0.528,-0.826,0.0
11.216,-0.501,-0.843,0.0
10.576,-0.475,-0.855,0.0
9.966,-0.45,-0.864,1.0
9.51,-0.432,-0.879,0.0
9.07,-0.414,-0.891,0.0
11.771,-0.539,-0.827,0.0
11.109,-0.512,-0.844,0.0
10.507,-0.487,-0.859,0.0
9.901,-0.461,-0.867,2.0
9.454,-0.443,-0.882,0.0
9.003,-0.424,-0.892,0.0
11.689,-0.552,-0.831,0.0
11.032,-0.524,-0.847,0.0
10.421,-0.497,-0.86,0.0
9.837,-0.472,-0.869,2.0
9.398,-0.453,-0.884,0.0
8.95,-0.434,-0.894,0.0
11.592,-0.564,-0.833,0.0
10.946,-0.535,-0.849,0.0
10.354,-0.509,-0.862,0.0
9.781,-0.483,-0.872,2.0
9.322,-0.463,-0.884,0.0
8.882,-0.444,-0.894,0.0
11.509,-0.576,-0.835,0.0
10.856,-0.546,-0.85,0.0
10.283,-0.52,-0.864,0.0
9.752,-0.496,-0.876,1.0
9.281,-0.474,-0.887,0.0
8.817,-0.453,-0.893,0.0
11.412,-0.588,-0.836,0.0
10.787,-0.558,-0.852,0.0
10.208,-0.531,-0.864,0.0
9.713,-0.508,-0.879,0.0
9.216,-0.484,-0.887,0.0
8.761,-0.463,-0.893,0.0
11.345,-0.601,-0.838,0.0
10.716,-0.57,-0.853,0.0
10.133,-0.542,-0.865,0.0
9.636,-0.518,-0.878,0.0
9.178,-0.496,-0.889,0.0
8.72,-0.473,-0.895,0.0
11.273,-0.613,-0.84,0.0
10.658,-0.582,-0.855,0.0
10.046,-0.552,-0.863,0.0
9.588,-0.529,-0.879,0.0
9.12,-0.506,-0.889,0.0
8.701,-0.485,-0.898,0.0
11.207,-0.626,-0.841,0.0
10.605,-0.595,-0.856,0.0
9.991,-0.563,-0.864,1.0
9.526,-0.539,-0.879,0.0
9.096,-0.517,-0.891,0.0
8.665,-0.495,-0.899,0.0
11.15,-0.638,-0.843,0.0
10.549,-0.607,-0.857,0.0
9.948,-0.575,-0.865,1.0
9.477,-0.55,-0.879,0.0
9.048,-0.528,-0.891,0.0
8.623,-0.505,-0.898,0.0
11.102,-0.651,-0.844,0.0
10.499,-0.619,-0.858,0.0
9.907,-0.587,-0.866,2.0
9.449,-0.562,-0.881,0.0
9.012,-0.538,-0.891,0.0
8.587,-0.515,-0.898,0.0
11.054,-0.664,-0.845,0.0
10.476,-0.632,-0.861,0.0
9.868,-0.598,-0.867,2.0
9.412,-0.573,-0.881,0.0
8.998,-0.55,-0.894,0.0
8.566,-0.526,-0.9,0.0
11.013,-0.677,-0.846,0.0
10.423,-0.644,-0.86,0.0
9.839,-0.61,-0.868,2.0
9.394,-0.585,-0.883,0.0
8.956,-0.561,-0.893,0.0
8.548,-0.537,-0.901,0.0
10.976,-0.691,-0.847,0.0
10.386,-0.656,-0.861,0.0
9.811,-0.623,-0.868,2.0
9.36,-0.597,-0.883,0.0
8.918,-0.571,-0.892,0.0
8.529,-0.548,-0.901,0.0
10.953,-0.705,-0.849,0.0
10.359,-0.669,-0.861,0.0
9.8,-0.636,-0.87,2.0
9.338,-0.608,-0.883,0.0
8.923,-0.584,-0.894,0.0
8.507,-0.559,-0.901,0.0
10.921,-0.718,-0.849,0.0
10.341,-0.683,-0.862,0.0
9.784,-0.648,-0.871,2.0
9.328,-0.621,-0.884,0.0
8.878,-0.593,-0.892,0.0
8.486,-0.569,-0.901,0.0
10.9,-0.732,-0.85,0.0
10.31,-0.695,-0.862,0.0
9.77,-0.661,-0.872,2.0
9.302,-0.632,-0.884,0.0
8.881,-0.606,-0.894,0.0
8.488,-0.581,-0.902,0.0
10.884,-0.746,-0.85,0.0
10.307,-0.709,-0.863,0.0
9.764,-0.674,-0.873,2.0
9.309,-0.645,-0.886,0.0
8.864,-0.617,-0.893,0.0
8.48,-0.592,-0.903,0.0
10.868,-0.759,-0.85,0.0
10.27,-0.72,-0.861,0.0
9.762,-0.687,-0.874,2.0
9.297,-0.657,-0.885,0.0
8.853,-0.628,-0.893,0.0
8.465,-0.603,-0.902,0.0
10.851,-0.773,-0.85,0.0
10.306,-0.737,-0.865,0.0
9.764,-0.701,-0.874,2.0
9.298,-0.67,-0.886,0.0
8.843,-0.64,-0.893,0.0
8.475,-0.615,-0.903,0.0
10.857,-0.788,-0.851,0.0
10.29,-0.75,-0.864,0.0
9.756,-0.713,-0.874,2.0
9.293,-0.682,-0.886,0.0
8.857,-0.652,-0.894,0.0
8.466,-0.626,-0.902,0.0
10.851,-0.802,-0.85,0.0
10.287,-0.763,-0.863,0.0
9.762,-0.727,-0.874,2.0
9.297,-0.695,-0.886,0.0
8.847,-0.663,-0.893,0.0
8.487,-0.639,-0.904,0.0
10.859,-0.817,-0.85,0.0
10.294,-0.777,-0.863,0.0
9.772,-0.74,-0.874,2.0
9.296,-0.707,-0.885,0.0
8.862,-0.676,-0.893,0.0
8.49,-0.65,-0.904,0.0
10.863,-0.832,-0.849,0.0
10.304,-0.791,-0.863,0.0
9.767,-0.753,-0.873,2.0
9.3,-0.719,-0.884,0.0
8.877,-0.689,-0.894,0.0
8.477,-0.66,-0.901,0.0
10.892,-0.847,-0.85,0.0
10.321,-0.806,-0.863,0.0
9.776,-0.766,-0.872,2.0
9.327,-0.733,-0.885,0.0
8.889,-0.701,-0.893,0.0
8.508,-0.673,-0.903,0.0
10.911,-0.863,-0.85,0.0
10.333,-0.82,-0.862,0.0
9.791,-0.779,-0.872,2.0
9.346,-0.746,-0.885,0.0
8.902,-0.713,-0.893,0.0
8.505,-0.684,-0.901,0.0
10.929,-0.878,-0.849,0.0
10.374,-0.836,-0.863,0.0
9.794,-0.792,-0.87,3.0
9.369,-0.76,-0.885,0.0
8.917,-0.725,-0.892,0.0
8.527,-0.696,-0.901,0.0
10.975,-0.895,-0.849,0.0
10.377,-0.849,-0.861,0.0
9.818,-0.805,-0.869,2.0
9.385,-0.772,-0.884,0.0
8.935,-0.738,-0.891,0.0
8.532,-0.707,-0.899,0.0
10.992,-0.91,-0.848,0.0
10.422,-0.865,-0.861,0.0
