X,Y,Z,Reflectivity
9.938,0.926,-0.706,2.0
9.461,0.881,-0.727,1.0
8.985,0.837,-0.742,0.0
7.981,0.743,-0.706,3.0
7.544,0.702,-0.71,3.0
7.352,0.684,-0.735,3.0
9.864,0.914,-0.711,2.0
9.374,0.868,-0.73,1.0
8.875,0.821,-0.742,0.0
7.895,0.73,-0.706,3.0
7.501,0.694,-0.714,4.0
7.299,0.675,-0.737,3.0
9.746,0.897,-0.712,2.0
9.29,0.855,-0.732,1.0
8.776,0.807,-0.742,0.0
7.815,0.718,-0.707,4.0
7.469,0.686,-0.718,4.0
7.226,0.663,-0.737,3.0
9.675,0.885,-0.716,2.0
9.231,0.843,-0.736,0.0
8.615,0.787,-0.737,1.0
7.731,0.706,-0.706,4.0
7.454,0.68,-0.724,4.0
7.155,0.652,-0.736,3.0
9.615,0.873,-0.721,1.0
9.148,0.83,-0.738,0.0
8.514,0.772,-0.736,1.0
7.661,0.694,-0.707,4.0
7.448,0.674,-0.73,5.0
7.087,0.641,-0.736,3.0
9.542,0.86,-0.724,1.0
9.054,0.815,-0.739,0.0
8.243,0.741,-0.72,2.0
7.594,0.682,-0.708,4.0
7.429,0.667,-0.735,4.0
7.064,0.634,-0.74,3.0
9.486,0.847,-0.728,1.0
8.967,0.8,-0.74,1.0
8.054,0.718,-0.711,2.0
7.548,0.673,-0.71,4.0
7.395,0.659,-0.738,3.0
7.038,0.626,-0.743,3.0
9.428,0.835,-0.732,0.0
8.898,0.787,-0.741,1.0
7.961,0.704,-0.709,3.0
7.512,0.664,-0.713,4.0
7.378,0.651,-0.743,3.0
7.025,0.62,-0.747,3.0
9.343,0.82,-0.733,0.0
8.84,0.775,-0.744,1.0
7.881,0.69,-0.708,4.0
7.499,0.656,-0.718,4.0
7.35,0.643,-0.746,3.0
7.024,0.614,-0.753,3.0
9.273,0.806,-0.734,1.0
8.793,0.764,-0.746,1.0
7.841,0.68,-0.711,4.0
7.498,0.65,-0.723,4.0
7.326,0.634,-0.749,3.0
6.975,0.603,-0.753,2.0
9.208,0.793,-0.736,1.0
8.74,0.752,-0.748,1.0
7.797,0.67,-0.712,4.0
7.49,0.643,-0.728,4.0
7.307,0.626,-0.752,3.0
6.941,0.594,-0.754,3.0
9.149,0.779,-0.738,1.0
8.684,0.739,-0.75,1.0
7.75,0.659,-0.713,3.0
7.512,0.638,-0.735,4.0
7.291,0.618,-0.755,3.0
6.935,0.588,-0.758,3.0
9.093,0.766,-0.739,1.0
8.631,0.726,-0.751,1.0
7.697,0.647,-0.714,4.0
7.548,0.634,-0.744,3.0
7.315,0.614,-0.763,3.0
6.934,0.581,-0.763,3.0
9.029,0.752,-0.74,1.0
8.529,0.71,-0.747,1.0
7.699,0.64,-0.719,4.0
7.566,0.628,-0.75,3.0
7.312,0.606,-0.767,3.0
6.94,0.575,-0.768,2.0
8.984,0.74,-0.741,1.0
8.295,0.682,-0.732,1.0
7.726,0.634,-0.726,4.0
7.567,0.621,-0.755,3.0
7.297,0.598,-0.769,2.0
6.926,0.567,-0.77,1.0
8.969,0.73,-0.745,1.0
8.166,0.663,-0.725,2.0
7.747,0.628,-0.732,4.0
7.536,0.61,-0.756,3.0
7.282,0.589,-0.772,1.0
6.918,0.559,-0.773,1.0
8.919,0.716,-0.746,1.0
8.094,0.649,-0.723,3.0
7.792,0.624,-0.74,4.0
7.526,0.602,-0.759,2.0
7.257,0.579,-0.773,1.0
6.896,0.55,-0.774,1.0
8.88,0.704,-0.747,1.0
8.056,0.637,-0.723,3.0
7.796,0.616,-0.744,4.0
7.501,0.592,-0.759,2.0
7.215,0.568,-0.772,1.0
6.875,0.541,-0.775,1.0
8.85,0.692,-0.748,2.0
8.044,0.628,-0.726,4.0
7.797,0.607,-0.748,4.0
7.479,0.582,-0.76,2.0
7.192,0.558,-0.772,1.0
6.858,0.532,-0.776,0.0
8.835,0.681,-0.75,1.0
8.045,0.619,-0.729,4.0
7.799,0.599,-0.751,4.0
7.474,0.573,-0.763,2.0
7.169,0.549,-0.773,1.0
6.872,0.525,-0.78,1.0
8.801,0.668,-0.751,1.0
8.057,0.611,-0.733,5.0
7.809,0.591,-0.754,4.0
7.468,0.564,-0.765,2.0
7.143,0.538,-0.772,1.0
6.889,0.518,-0.784,1.0
8.779,0.657,-0.752,2.0
8.071,0.602,-0.737,5.0
7.804,0.581,-0.756,4.0
7.463,0.555,-0.766,1.0
7.133,0.529,-0.773,1.0
6.921,0.513,-0.79,1.0
8.759,0.645,-0.752,2.0
8.124,0.597,-0.744,4.0
7.83,0.574,-0.761,3.0
7.468,0.546,-0.769,1.0
7.148,0.522,-0.777,1.0
6.992,0.51,-0.8,1.0
8.743,0.633,-0.753,2.0
8.137,0.588,-0.747,4.0
7.81,0.563,-0.761,2.0
7.463,0.537,-0.77,1.0
7.161,0.514,-0.78,1.0
7.07,0.507,-0.81,1.0
8.708,0.62,-0.752,3.0
8.194,0.582,-0.754,4.0
7.832,0.555,-0.764,1.0
7.47,0.528,-0.772,1.0
7.203,0.508,-0.785,1.0
7.165,0.505,-0.822,1.0
8.708,0.61,-0.753,4.0
8.21,0.573,-0.756,4.0
7.832,0.546,-0.766,1.0
7.477,0.52,-0.774,1.0
7.264,0.504,-0.793,1.0
7.273,0.503,-0.835,1.0
8.709,0.599,-0.754,5.0
8.227,0.564,-0.759,3.0
7.85,0.537,-0.768,1.0
7.497,0.512,-0.777,1.0
7.35,0.501,-0.803,1.0
7.381,0.501,-0.848,1.0
8.732,0.589,-0.757,5.0
8.24,0.555,-0.76,2.0
7.852,0.527,-0.769,1.0
7.529,0.504,-0.78,1.0
7.461,0.499,-0.815,1.0
7.478,0.498,-0.86,1.0
8.739,0.579,-0.758,4.0
8.251,0.545,-0.762,1.0
7.86,0.518,-0.77,1.0
7.584,0.498,-0.786,1.0
7.57,0.496,-0.827,1.0
7.57,0.495,-0.87,0.0
8.758,0.569,-0.759,3.0
8.285,0.537,-0.764,1.0
7.877,0.509,-0.771,1.0
7.669,0.494,-0.795,1.0
7.688,0.494,-0.84,1.0
7.686,0.492,-0.883,0.0
8.778,0.559,-0.76,2.0
8.284,0.526,-0.764,1.0
7.908,0.5,-0.773,1.0
7.787,0.491,-0.806,1.0
7.807,0.491,-0.852,1.0
7.823,0.491,-0.898,0.0
8.772,0.547,-0.759,2.0
8.322,0.517,-0.766,1.0
7.968,0.494,-0.778,1.0
7.907,0.488,-0.818,1.0
7.933,0.489,-0.865,0.0
7.959,0.489,-0.913,0.0
8.777,0.536,-0.758,2.0
8.345,0.508,-0.767,1.0
8.044,0.488,-0.784,1.0
8.039,0.486,-0.83,1.0
8.054,0.485,-0.877,0.0
8.062,0.484,-0.923,0.0
8.792,0.525,-0.757,2.0
8.375,0.498,-0.768,1.0
8.147,0.483,-0.793,1.0
8.169,0.483,-0.841,1.0
8.173,0.482,-0.888,0.0
8.182,0.481,-0.935,0.0
8.815,0.514,-0.757,2.0
8.42,0.49,-0.77,2.0
8.321,0.482,-0.808,1.0
8.341,0.482,-0.857,1.0
8.363,0.481,-0.906,0.0
8.313,0.477,-0.947,0.0
8.855,0.505,-0.758,2.0
8.496,0.482,-0.775,2.0
8.461,0.479,-0.819,2.0
8.462,0.477,-0.867,0.0
8.51,0.478,-0.919,0.0
8.459,0.474,-0.961,0.0
8.898,0.495,-0.759,2.0
8.6,0.477,-0.781,2.0
8.561,0.473,-0.825,2.0
8.55,0.47,-0.873,0.0
8.625,0.473,-0.929,0.0
8.618,0.471,-0.976,0.0
8.94,0.485,-0.759,2.0
8.707,0.471,-0.788,2.0
8.742,0.471,-0.839,1.0
8.781,0.471,-0.893,0.0
8.782,0.47,-0.942,0.0
8.722,0.465,-0.984,0.0
9.001,0.476,-0.761,3.0
8.871,0.467,-0.799,2.0
8.909,0.468,-0.852,1.0
8.954,0.468,-0.907,0.0
8.904,0.464,-0.951,0.0
8.701,0.451,-0.978,0.0
9.093,0.468,-0.764,2.0
9.061,0.465,-0.812,2.0
9.061,0.463,-0.862,0.0
9.057,0.461,-0.913,0.0
8.966,0.455,-0.953,0.0
8.609,0.435,-0.963,0.0
9.225,0.463,-0.771,2.0
9.209,0.46,-0.82,2.0
9.228,0.459,-0.873,0.0
9.219,0.457,-0.924,0.0
9.032,0.446,-0.955,0.0
8.293,0.408,-0.923,0.0
9.382,0.458,-0.779,2.0
9.395,0.457,-0.831,1.0
9.429,0.456,-0.886,0.0
9.374,0.452,-0.934,0.0
9.015,0.433,-0.948,0.0
8.274,0.395,-0.916,0.0
9.568,0.454,-0.788,2.0
9.571,0.452,-0.841,0.0
9.611,0.452,-0.898,0.0
9.582,0.449,-0.949,0.0
9.027,0.421,-0.944,0.0
8.3,0.385,-0.914,0.0
9.739,0.449,-0.796,2.0
9.793,0.449,-0.854,0.0
9.783,0.447,-0.907,0.0
9.77,0.444,-0.961,0.0
8.803,0.398,-0.914,0.0
8.372,0.377,-0.916,0.0
9.957,0.445,-0.807,2.0
10.015,0.446,-0.867,0.0
10.003,0.443,-0.921,0.0
9.827,0.433,-0.96,0.0
8.802,0.386,-0.908,0.0
8.4,0.367,-0.913,0.0
10.152,0.44,-0.816,2.0
10.192,0.44,-0.875,4.0
10.165,0.436,-0.928,0.0
9.82,0.42,-0.951,0.0
8.846,0.376,-0.906,0.0
8.44,0.357,-0.911,0.0
10.338,0.434,-0.823,1.0
10.222,0.427,-0.869,13.0
10.399,0.432,-0.941,0.0
9.362,0.387,-0.9,0.0
8.859,0.364,-0.9,0.0
8.503,0.348,-0.91,0.0
10.577,0.43,-0.833,0.0
10.233,0.414,-0.862,7.0
10.552,0.425,-0.946,0.0
9.354,0.374,-0.891,2.0
8.967,0.357,-0.903,0.0
8.548,0.338,-0.908,0.0
10.821,0.426,-0.843,0.0
10.534,0.412,-0.878,1.0
10.737,0.418,-0.954,0.0
9.347,0.362,-0.882,3.0
9.035,0.348,-0.902,0.0
8.648,0.331,-0.911,0.0
11.063,0.421,-0.852,0.0
11.064,0.418,-0.912,0.0
10.502,0.395,-0.923,0.0
9.376,0.35,-0.876,1.0
9.14,0.34,-0.904,0.0
8.7,0.321,-0.908,0.0
11.374,0.417,-0.865,0.0
11.323,0.413,-0.923,0.0
10.112,0.367,-0.879,0.0
9.569,0.345,-0.885,0.0
9.21,0.33,-0.902,0.0
8.776,0.312,-0.907,0.0
11.578,0.41,-0.87,0.0
11.467,0.403,-0.923,0.0
10.217,0.357,-0.878,0.0
9.723,0.338,-0.889,0.0
9.274,0.32,-0.899,0.0
8.82,0.303,-0.903,0.0
11.847,0.404,-0.878,0.0
11.692,0.396,-0.929,0.0
10.28,0.346,-0.873,0.0
9.807,0.328,-0.887,0.0
9.28,0.308,-0.89,0.0
8.935,0.295,-0.905,0.0
12.176,0.399,-0.889,0.0
10.382,0.336,-0.87,0.0
9.902,0.318,-0.885,0.0
9.406,0.3,-0.891,0.0
9.007,0.286,-0.902,0.0
12.522,0.395,-0.9,1.0
10.448,0.325,-0.864,0.0
10.0,0.309,-0.882,0.0
9.502,0.291,-0.89,0.0
9.022,0.275,-0.894,3.0
12.78,0.387,-0.904,1.0
10.57,0.315,-0.862,0.0
10.069,0.298,-0.876,0.0
9.63,0.283,-0.89,0.0
9.052,0.264,-0.886,1.0
12.975,0.376,-0.903,1.0
10.731,0.307,-0.862,0.0
10.194,0.289,-0.875,0.0
9.733,0.274,-0.888,0.0
9.286,0.259,-0.897,0.0
13.063,0.363,-0.893,1.0
10.866,0.297,-0.859,0.0
10.348,0.281,-0.875,1.0
9.824,0.264,-0.884,0.0
9.374,0.25,-0.894,0.0
12.446,0.33,-0.835,0.0
11.011,0.288,-0.857,0.0
10.402,0.269,-0.866,5.0
9.953,0.256,-0.882,0.0
9.478,0.242,-0.891,0.0
12.569,0.319,-0.827,0.0
11.888,0.299,-0.846,0.0
11.17,0.278,-0.854,0.0
10.46,0.259,-0.857,3.0
10.077,0.247,-0.88,0.0
9.591,0.233,-0.889,0.0
12.768,0.308,-0.823,0.0
12.054,0.289,-0.841,0.0
11.357,0.27,-0.853,0.0
10.674,0.251,-0.86,0.0
10.224,0.239,-0.879,0.0
9.72,0.225,-0.888,0.0
12.975,0.298,-0.818,0.0
12.22,0.278,-0.836,0.0
11.521,0.26,-0.849,0.0
10.87,0.243,-0.861,0.0
10.334,0.229,-0.874,2.0
9.819,0.216,-0.883,0.0
13.202,0.288,-0.814,0.0
12.436,0.269,-0.833,0.0
11.737,0.252,-0.849,0.0
11.051,0.235,-0.859,0.0
10.419,0.219,-0.866,5.0
9.958,0.208,-0.881,0.0
13.424,0.278,-0.808,0.0
12.622,0.259,-0.827,1.0
11.894,0.242,-0.843,0.0
11.207,0.226,-0.855,0.0
10.485,0.209,-0.856,4.0
10.11,0.2,-0.879,0.0
13.65,0.268,-0.802,0.0
12.814,0.249,-0.821,0.0
12.076,0.232,-0.837,0.0
11.415,0.217,-0.853,0.0
10.736,0.202,-0.86,0.0
10.261,0.191,-0.877,0.0
13.86,0.257,-0.793,0.0
13.048,0.24,-0.816,0.0
12.302,0.224,-0.835,0.0
11.598,0.209,-0.849,0.0
10.945,0.195,-0.86,0.0
10.404,0.183,-0.873,4.0
13.302,0.23,-0.811,1.0
12.505,0.214,-0.829,1.0
11.813,0.2,-0.847,0.0
11.113,0.186,-0.856,1.0
10.457,0.173,-0.86,10.0
14.601,0.24,-0.79,0.0
13.52,0.22,-0.803,1.0
12.73,0.205,-0.823,1.0
11.995,0.191,-0.84,1.0
11.305,0.178,-0.852,0.0
10.577,0.164,-0.853,2.0
14.91,0.231,-0.783,1.0
13.817,0.211,-0.798,1.0
12.972,0.196,-0.818,1.0
12.2,0.182,-0.835,1.0
11.538,0.17,-0.851,0.0
10.879,0.158,-0.86,0.0
15.094,0.219,-0.768,1.0
14.128,0.202,-0.793,0.0
13.219,0.187,-0.812,1.0
12.433,0.174,-0.83,0.0
11.739,0.162,-0.846,0.0
11.058,0.15,-0.855,1.0
15.376,0.208,-0.756,0.0
14.498,0.194,-0.789,0.0
13.492,0.178,-0.806,1.0
12.667,0.165,-0.824,1.0
11.961,0.154,-0.841,1.0
11.267,0.143,-0.852,0.0
15.782,0.199,-0.749,0.0
14.856,0.185,-0.783,1.0
13.823,0.169,-0.801,1.0
12.927,0.156,-0.819,1.0
12.167,0.145,-0.835,1.0
11.508,0.135,-0.85,0.0
16.256,0.19,-0.744,0.0
15.086,0.174,-0.769,2.0
14.005,0.159,-0.788,1.0
13.182,0.148,-0.812,1.0
12.436,0.137,-0.831,1.0
11.724,0.128,-0.845,0.0
16.972,0.184,-0.747,1.0
15.402,0.164,-0.758,0.0
14.486,0.152,-0.789,1.0
13.475,0.139,-0.806,1.0
12.668,0.129,-0.824,1.0
11.953,0.12,-0.84,1.0
15.691,0.154,-0.744,0.0
14.862,0.144,-0.783,1.0
13.86,0.132,-0.804,2.0
12.939,0.121,-0.818,1.0
12.207,0.112,-0.836,1.0
48.19,0.443,-1.946,23.0
16.234,0.147,-0.74,0.0
15.098,0.134,-0.767,2.0
14.084,0.123,-0.791,1.0
13.241,0.114,-0.813,1.0
12.464,0.105,-0.83,1.0
18.364,0.154,-0.708,0.0
16.982,0.14,-0.743,2.0
15.445,0.125,-0.757,0.0
14.517,0.116,-0.788,1.0
13.526,0.106,-0.805,1.0
12.702,0.097,-0.823,1.0
18.888,0.144,-0.693,1.0
17.256,0.129,-0.723,7.0
15.791,0.116,-0.744,3.0
14.874,0.107,-0.78,1.0
13.849,0.098,-0.798,1.0
12.994,0.09,-0.817,1.0
19.493,0.135,-0.678,1.0
17.487,0.119,-0.699,2.0
16.2,0.108,-0.732,0.0
15.141,0.099,-0.765,1.0
14.201,0.091,-0.791,1.0
13.303,0.083,-0.811,1.0
20.287,0.127,-0.667,1.0
18.509,0.113,-0.705,1.0
17.223,0.103,-0.746,7.0
15.737,0.092,-0.765,9.0
14.622,0.084,-0.787,1.0
13.626,0.076,-0.804,1.0
21.037,0.118,-0.652,1.0
18.968,0.104,-0.686,3.0
17.285,0.092,-0.715,29.0
15.785,0.082,-0.737,16.0
14.984,0.076,-0.777,2.0
13.953,0.069,-0.796,1.0
21.91,0.109,-0.636,1.0
19.784,0.096,-0.677,1.0
17.769,0.084,-0.7,3.0
17.03,0.079,-0.761,0.0
15.355,0.069,-0.766,1.0
14.342,0.063,-0.79,1.0
22.723,0.099,-0.615,2.0
20.605,0.088,-0.664,1.0
18.756,0.078,-0.702,3.0
17.258,0.07,-0.737,6.0
15.763,0.062,-0.755,10.0
14.762,0.056,-0.784,1.0
23.514,0.09,-0.59,2.0
21.28,0.079,-0.644,4.0
19.191,0.069,-0.68,3.0
17.578,0.061,-0.715,2.0
16.031,0.054,-0.735,0.0
15.094,0.05,-0.771,1.0
24.428,0.08,-0.563,2.0
22.27,0.071,-0.628,2.0
20.166,0.062,-0.673,2.0
18.367,0.055,-0.71,2.0
16.99,0.049,-0.745,0.0
15.616,0.044,-0.766,1.0
25.699,0.072,-0.54,2.0
23.133,0.063,-0.606,2.0
20.969,0.055,-0.658,3.0
18.885,0.048,-0.692,4.0
17.462,0.043,-0.73,1.0
15.863,0.037,-0.746,10.0
26.737,0.063,-0.508,2.0
23.895,0.054,-0.577,2.0
21.727,0.047,-0.637,2.0
19.641,0.041,-0.68,2.0
18.029,0.036,-0.717,1.0
15.956,0.031,-0.717,1.0
27.948,0.054,-0.474,1.0
25.016,0.047,-0.553,1.0
22.724,0.04,-0.62,2.0
20.5,0.035,-0.667,2.0
18.645,0.03,-0.703,2.0
17.212,0.027,-0.738,1.0
29.272,0.046,-0.436,2.0
26.304,0.039,-0.527,2.0
23.492,0.033,-0.593,2.0
21.365,0.029,-0.651,4.0
19.285,0.024,-0.687,2.0
17.74,0.021,-0.724,1.0
30.579,0.037,-0.392,1.0
27.305,0.031,-0.49,2.0
24.477,0.026,-0.566,1.0
22.212,0.022,-0.63,4.0
20.145,0.019,-0.675,3.0
18.368,0.016,-0.711,2.0
32.65,0.03,-0.35,1.0
28.805,0.024,-0.457,2.0
25.847,0.02,-0.543,1.0
23.084,0.017,-0.606,4.0
20.981,0.014,-0.659,2.0
18.949,0.012,-0.693,3.0
37.824,0.024,-0.326,2.0
29.985,0.017,-0.412,2.0
26.887,0.014,-0.509,2.0
23.955,0.011,-0.579,2.0
21.857,0.009,-0.641,3.0
19.737,0.007,-0.681,3.0
38.727,0.015,-0.252,14.0
31.67,0.011,-0.37,1.0
28.202,0.009,-0.474,2.0
25.214,0.007,-0.556,1.0
22.767,0.005,-0.62,3.0
20.636,0.004,-0.668,2.0
39.679,0.008,-0.175,35.0
33.684,0.005,-0.322,1.0
29.534,0.003,-0.434,2.0
26.441,0.002,-0.527,2.0
23.624,0.001,-0.593,2.0
21.456,0.0,-0.649,2.0
0.0,0.0,0.0,0.0
38.431,0.0,-0.285,5.0
30.876,0.0,-0.388,1.0
27.556,-0.001,-0.491,1.0
24.674,-0.001,-0.567,2.0
22.412,-0.002,-0.63,3.0
0.0,0.0,0.0,0.0
39.338,-0.004,-0.208,15.0
33.213,-0.004,-0.347,1.0
29.035,-0.004,-0.455,2.0
26.012,-0.004,-0.542,1.0
23.263,-0.004,-0.604,3.0
0.0,0.0,0.0,0.0
40.935,-0.007,-0.129,17.0
38.247,-0.007,-0.317,3.0
30.245,-0.006,-0.409,1.0
27.081,-0.006,-0.506,1.0
24.239,-0.005,-0.578,2.0
61.713,-0.013,0.253,17.0
45.288,-0.01,-0.046,20.0
39.025,-0.009,-0.24,14.0
32.085,-0.007,-0.366,1.0
28.521,-0.007,-0.472,2.0
25.499,-0.006,-0.553,1.0
76.257,-0.018,0.476,19.0
0.0,0.0,0.0,0.0
40.186,-0.009,-0.162,19.0
36.825,-0.008,-0.341,0.0
29.768,-0.007,-0.429,2.0
26.718,-0.006,-0.522,2.0
79.418,-0.017,0.667,150.0
56.158,-0.011,0.183,10.0
0.0,0.0,0.0,0.0
38.567,-0.007,-0.274,7.0
31.368,-0.005,-0.384,1.0
27.98,-0.004,-0.487,1.0
79.458,-0.012,0.838,163.0
76.097,-0.01,0.411,14.0
47.847,-0.006,0.012,21.0
39.529,-0.004,-0.197,27.0
33.498,-0.003,-0.338,0.0
29.354,-0.002,-0.447,2.0
79.46,-0.004,1.009,151.0
79.293,-0.002,0.599,30.0
55.636,0.0,0.134,29.0
0.0,0.0,0.0,0.0
38.405,0.001,-0.306,5.0
30.737,0.001,-0.403,1.0
79.454,0.006,1.18,151.0
79.455,0.008,0.771,181.0
61.854,0.008,0.282,10.0
0.0,0.0,0.0,0.0
39.154,0.007,-0.227,14.0
33.011,0.007,-0.361,1.0
79.457,0.02,1.35,161.0
79.464,0.022,0.942,160.0
79.285,0.025,0.531,10.0
0.0,0.0,0.0,0.0
40.621,0.016,-0.149,16.0
38.228,0.016,-0.336,2.0
79.463,0.036,1.52,151.0
79.467,0.04,1.112,156.0
79.451,0.043,0.703,150.0
61.711,0.036,0.223,8.0
0.0,0.0,0.0,0.0
38.749,0.026,-0.258,14.0
79.454,0.056,1.692,151.0
79.453,0.06,1.282,165.0
79.465,0.064,0.873,156.0
76.106,0.065,0.437,19.0
48.021,0.043,0.029,10.0
39.808,0.038,-0.18,35.0
79.437,0.079,1.861,150.0
79.449,0.083,1.452,163.0
79.459,0.088,1.044,155.0
79.428,0.093,0.626,115.0
0.0,0.0,0.0,0.0
0.0,0.0,0.0,0.0
79.442,0.105,2.03,150.0
79.453,0.11,1.621,151.0
79.46,0.115,1.213,164.0
79.459,0.12,0.795,151.0
75.91,0.12,0.369,11.0
0.0,0.0,0.0,0.0
79.439,0.133,2.199,150.0
79.436,0.139,1.789,150.0
79.46,0.144,1.379,166.0
79.463,0.15,0.962,151.0
76.675,0.15,0.533,15.0
54.517,0.111,0.098,29.0
79.441,0.165,2.365,150.0
79.44,0.171,1.955,150.0
79.456,0.177,1.545,151.0
79.449,0.183,1.128,151.0
79.448,0.189,0.718,150.0
59.162,0.146,0.229,9.0
79.443,0.199,2.531,150.0
79.444,0.206,2.122,150.0
79.44,0.212,1.712,150.0
79.456,0.219,1.294,164.0
79.468,0.226,0.884,151.0
76.203,0.224,0.456,25.0
79.448,0.236,2.698,151.0
79.446,0.243,2.287,150.0
79.444,0.251,1.877,150.0
79.457,0.258,1.459,151.0
79.464,0.265,1.048,151.0
79.451,0.273,0.639,110.0
79.453,0.276,2.862,151.0
79.441,0.284,2.45,150.0
79.444,0.291,2.039,150.0
79.437,0.299,1.621,150.0
79.466,0.307,1.212,156.0
79.437,0.315,0.801,140.0
79.395,0.319,3.023,16.0
59.292,0.244,1.951,96.0
59.296,0.25,1.645,97.0
59.299,0.256,1.332,95.0
79.419,0.352,1.374,14.0
59.322,0.269,0.719,90.0
48.202,0.221,1.934,73.0
48.207,0.226,1.684,58.0
59.279,0.285,1.764,20.0
59.278,0.291,1.451,89.0
59.291,0.298,1.145,48.0
59.284,0.305,0.839,124.0
48.175,0.25,2.031,75.0
48.166,0.256,1.781,67.0
48.164,0.261,1.531,75.0
48.164,0.267,1.276,60.0
48.186,0.273,1.027,56.0
48.183,0.279,0.778,49.0
48.15,0.281,2.126,100.0
48.137,0.287,1.876,92.0
48.13,0.293,1.626,77.0
48.133,0.299,1.372,103.0
48.134,0.305,1.123,87.0
48.137,0.311,0.874,82.0
48.135,0.314,2.222,106.0
48.125,0.32,1.972,96.0
48.119,0.326,1.722,94.0
48.102,0.332,1.467,111.0
48.107,0.339,1.218,104.0
48.122,0.345,0.969,97.0
48.142,0.348,2.318,110.0
48.129,0.355,2.067,118.0
48.124,0.361,1.817,105.0
48.087,0.367,1.561,107.0
48.098,0.374,1.311,107.0
48.113,0.381,1.062,111.0
48.15,0.384,2.413,107.0
48.137,0.391,2.161,107.0
48.128,0.397,1.91,107.0
48.092,0.404,1.654,93.0
48.141,0.411,1.405,118.0
48.126,0.418,1.155,115.0
48.196,0.422,2.508,60.0
48.162,0.428,2.254,87.0
48.143,0.435,2.003,99.0
48.114,0.442,1.746,104.0
48.132,0.449,1.496,87.0
48.136,0.456,1.246,111.0
59.378,0.568,3.203,111.0
59.395,0.577,2.894,26.0
48.195,0.475,2.097,62.0
48.163,0.482,1.839,88.0
48.161,0.489,1.588,82.0
48.15,0.497,1.337,88.0
59.373,0.617,3.315,115.0
59.389,0.627,3.006,102.0
55.069,0.59,2.499,54.0
55.03,0.598,2.204,62.0
48.217,0.532,1.68,33.0
48.214,0.539,1.429,41.0
55.064,0.621,3.178,60.0
55.086,0.63,2.89,48.0
55.026,0.638,2.6,87.0
54.988,0.647,2.306,119.0
55.011,0.656,2.019,123.0
55.007,0.665,1.731,105.0
54.975,0.669,3.274,103.0
55.015,0.679,2.988,67.0
55.027,0.688,2.7,122.0
54.988,0.697,2.406,122.0
55.017,0.706,2.119,112.0
55.024,0.716,1.832,110.0
55.012,0.721,3.377,21.0
54.978,0.73,3.086,99.0
54.994,0.74,2.799,121.0
54.985,0.749,2.504,126.0
55.024,0.759,2.218,115.0
55.059,0.769,1.931,78.0
64.029,0.901,4.044,46.0
54.969,0.783,3.183,115.0
54.959,0.792,2.893,123.0
54.981,0.802,2.601,79.0
55.037,0.813,2.315,94.0
55.108,0.823,2.028,6.0
91.799,1.381,5.959,33.0
63.739,0.97,3.802,14.0
54.936,0.846,2.987,108.0
54.992,0.857,2.696,115.0
55.074,0.868,2.411,51.0
59.351,0.947,2.287,3.0
91.8,1.474,6.118,26.0
76.454,1.242,4.693,16.0
54.884,0.902,3.08,65.0
55.021,0.914,2.792,61.0
122.155,2.052,5.556,34.0
174.215,2.958,7.007,17.0
124.733,2.133,8.525,13.0
76.372,1.32,4.817,26.0
54.829,0.958,3.169,26.0
55.118,0.973,2.889,40.0
129.96,2.32,6.129,17.0
130.174,2.348,5.454,26.0
76.725,1.394,5.372,54.0
62.328,1.144,4.035,61.0
62.703,1.162,3.728,59.0
55.096,1.032,2.979,24.0
128.343,2.43,6.263,14.0
128.133,2.451,5.578,13.0
74.334,1.432,5.327,35.0
62.284,1.212,4.134,61.0
62.733,1.233,3.832,96.0
54.713,1.086,3.048,21.0
55.293,1.108,2.787,5.0
127.779,2.587,5.768,22.0
74.236,1.513,5.44,14.0
62.251,1.28,4.231,15.0
62.726,1.303,3.932,48.0
54.571,1.144,3.126,56.0
55.33,1.171,2.877,27.0
127.872,2.734,5.974,11.0
53.487,1.151,4.004,17.0
63.007,1.368,4.382,5.0
62.864,1.378,4.039,38.0
54.424,1.203,3.202,53.0
55.361,1.236,2.964,75.0
122.731,2.766,5.922,23.0
53.9,1.223,4.119,126.0
53.619,1.227,3.812,57.0
53.944,1.246,3.549,27.0
54.397,1.268,3.284,71.0
55.385,1.302,3.05,59.0
122.667,2.909,6.105,39.0
53.525,1.278,4.172,19.0
56.178,1.353,4.079,8.0
53.863,1.309,3.625,53.0
54.457,1.334,3.369,91.0
55.4,1.369,3.133,60.0
122.576,3.055,6.282,28.0
53.301,1.338,4.234,60.0
56.379,1.427,4.178,31.0
55.734,1.422,3.832,26.0
54.292,1.397,3.438,61.0
55.099,1.429,3.196,29.0
123.066,3.219,6.485,37.0
56.684,1.492,4.585,17.0
61.541,1.633,4.649,48.0
55.807,1.493,3.918,81.0
54.13,1.46,3.505,49.0
54.514,1.482,3.24,11.0
122.969,3.37,6.654,15.0
56.625,1.562,4.66,22.0
62.015,1.724,4.772,39.0
55.824,1.564,3.997,89.0
54.213,1.53,3.586,14.0
124.191,3.533,7.552,30.0
124.16,3.559,6.888,21.0
62.899,1.815,5.264,28.0
61.439,1.786,4.811,48.0
55.828,1.635,4.073,99.0
73.823,2.177,4.982,51.0
54.322,1.614,3.375,12.0
124.17,3.718,7.053,18.0
40.25,1.213,3.422,73.0
61.322,1.861,4.883,43.0
55.838,1.707,4.147,79.0
73.814,2.273,5.079,30.0
54.272,1.683,3.444,61.0
73.932,2.309,4.295,37.0
61.137,1.922,5.277,19.0
55.815,1.767,4.517,97.0
62.089,1.979,4.691,69.0
55.133,1.769,3.863,44.0
54.247,1.753,3.51,64.0
73.799,2.402,4.38,38.0
61.05,2.0,5.347,53.0
55.877,1.843,4.592,29.0
62.088,2.062,4.768,57.0
55.202,1.845,3.936,44.0
54.249,1.825,3.577,54.0
73.764,2.498,4.468,12.0
60.995,2.08,5.417,12.0
71.765,2.464,5.986,36.0
62.09,2.146,4.844,49.0
55.23,1.921,4.006,22.0
54.223,1.897,3.64,32.0
73.422,2.586,4.534,14.0
56.035,1.987,5.043,52.0
62.159,2.218,5.257,17.0
62.179,2.233,4.923,66.0
65.315,2.36,4.812,41.0
54.198,1.97,3.7,78.0
73.296,2.682,4.61,26.0
55.969,2.062,5.102,105.0
62.15,2.303,5.328,30.0
55.411,2.065,4.45,72.0
54.309,2.037,4.062,63.0
54.142,2.042,3.757,77.0
73.3,2.782,4.691,19.0
56.04,2.141,5.17,11.0
68.067,2.615,5.91,12.0
0.0,0.0,0.0,0.0
53.779,2.09,4.08,73.0
73.755,2.883,5.197,25.0
73.211,2.878,4.762,27.0
67.835,2.686,6.33,9.0
67.998,2.707,5.975,11.0
53.402,2.138,4.402,76.0
65.161,2.624,5.011,8.0
73.627,2.981,5.264,26.0
73.468,2.992,4.855,17.0
65.221,2.674,6.153,11.0
0.0,0.0,0.0,0.0
53.714,2.226,4.482,48.0
71.492,2.978,5.569,21.0
73.5,3.078,5.327,37.0
73.468,3.093,4.925,28.0
54.581,2.314,5.202,22.0
54.91,2.34,4.934,17.0
54.443,2.332,4.595,49.0
71.356,3.072,5.626,12.0
65.636,2.84,4.818,18.0
73.345,3.191,4.986,14.0
41.39,1.813,3.984,27.0
54.471,2.398,4.945,52.0
64.49,2.854,5.503,30.0
64.499,2.868,5.144,40.0
73.936,3.305,5.495,14.0
73.387,3.297,5.054,10.0
41.395,1.872,4.021,25.0
54.408,2.473,4.988,19.0
64.412,2.942,5.553,18.0
64.441,2.957,5.196,9.0
64.566,2.977,4.854,29.0
73.767,3.418,5.144,32.0
54.401,2.538,5.331,31.0
68.013,3.188,6.292,32.0
64.916,3.057,5.65,11.0
64.382,3.046,5.244,11.0
73.863,3.511,5.613,12.0
73.609,3.515,5.192,26.0
54.801,2.635,5.415,7.0
0.0,0.0,0.0,0.0
70.629,3.427,6.203,26.0
68.016,3.315,5.594,16.0
64.774,3.171,4.972,23.0
73.698,3.624,5.254,29.0
41.407,2.051,4.123,44.0
53.955,2.683,5.076,6.0
0.0,0.0,0.0,0.0
64.606,3.242,5.361,21.0
65.246,3.289,5.057,13.0
73.861,3.74,5.32,11.0
41.393,2.11,4.153,12.0
63.077,3.23,5.98,38.0
64.393,3.311,5.75,12.0
64.467,3.329,5.395,26.0
64.953,3.368,5.079,9.0
124.557,6.486,9.058,28.0
63.139,3.311,6.377,39.0
63.298,3.333,6.044,20.0
64.309,3.4,5.786,39.0
64.801,3.44,5.467,40.0
64.918,3.46,5.119,6.0
124.929,6.687,9.165,17.0
63.051,3.398,6.409,10.0
41.333,2.236,3.973,9.0
64.113,3.483,5.808,19.0
67.994,3.708,5.777,8.0
78.312,4.287,6.223,13.0
71.879,3.951,5.317,30.0
0.0,0.0,0.0,0.0
41.287,2.294,3.993,13.0
64.558,3.6,5.886,13.0
64.498,3.61,5.517,14.0
64.936,3.649,5.196,14.0
71.586,4.039,5.334,29.0
63.281,3.594,6.505,21.0
64.505,3.677,6.273,11.0
64.743,3.704,5.937,20.0
64.564,3.707,5.557,35.0
75.718,4.364,6.099,25.0
71.899,4.16,5.394,28.0
63.305,3.688,6.54,21.0
41.457,2.423,4.052,71.0
63.779,3.742,5.881,14.0
64.371,3.79,5.571,23.0
75.261,4.446,6.098,14.0
71.894,4.262,5.427,14.0
63.512,3.791,6.591,14.0
41.445,2.482,4.07,62.0
63.792,3.833,5.91,28.0
64.248,3.874,5.589,29.0
64.423,3.897,5.246,33.0
78.676,4.776,5.972,29.0
63.266,3.867,6.592,33.0
63.435,3.889,6.256,11.0
41.362,2.544,3.848,15.0
64.23,3.964,5.612,30.0
64.493,3.993,5.277,32.0
78.639,4.886,5.999,36.0
63.35,3.962,6.624,17.0
63.27,3.97,6.262,34.0
55.922,3.52,5.223,1.0
64.647,4.082,5.671,26.0
65.01,4.118,5.342,14.0
78.584,4.995,6.021,29.0
63.631,4.072,6.675,32.0
63.295,4.062,6.285,15.0
63.573,4.093,5.958,26.0
64.592,4.17,5.686,34.0
64.959,4.207,5.357,21.0
65.796,4.274,5.06,8.0
64.166,4.197,6.749,19.0
56.06,3.677,5.583,3.0
63.302,4.165,5.95,38.0
70.162,4.63,6.195,26.0
65.198,4.314,5.393,40.0
65.791,4.366,5.076,39.0
64.19,4.289,6.767,14.0
71.118,4.766,7.098,32.0
70.497,4.737,6.642,15.0
65.096,4.386,5.762,26.0
65.251,4.409,5.411,28.0
0.0,0.0,0.0,0.0
64.152,4.376,6.776,22.0
64.597,4.418,6.46,14.0
70.628,4.843,6.667,47.0
64.962,4.467,5.761,40.0
65.377,4.507,5.433,32.0
65.575,4.534,5.083,41.0
68.29,4.753,7.223,11.0
67.698,4.724,6.78,9.0
70.864,4.958,6.699,47.0
71.783,5.035,6.376,10.0
63.988,4.5,5.325,24.0
64.981,4.582,5.045,40.0
64.257,4.56,6.804,34.0
67.604,4.81,6.777,37.0
71.087,5.069,6.727,38.0
63.833,4.564,5.675,33.0
63.796,4.573,5.314,38.0
64.971,4.669,5.049,40.0
41.651,3.012,4.413,30.0
38.886,2.819,3.9,11.0
71.308,5.182,6.751,35.0
63.981,4.661,5.691,10.0
63.627,4.646,5.303,36.0
64.524,4.724,5.015,32.0
38.601,2.844,4.09,51.0
38.753,2.861,3.888,21.0
64.359,4.764,6.094,26.0
64.458,4.782,5.734,40.0
63.526,4.724,5.294,35.0
64.544,4.811,5.016,24.0
38.438,2.883,4.072,63.0
38.662,2.906,3.878,10.0
63.928,4.817,6.05,39.0
63.943,4.829,5.685,37.0
63.601,4.813,5.297,29.0
64.813,4.916,5.034,40.0
38.363,2.928,4.062,55.0
38.553,2.949,3.864,19.0
63.842,4.893,6.038,27.0
64.106,4.925,5.694,40.0
63.481,4.887,5.281,33.0
65.356,5.043,5.07,30.0
38.37,2.979,4.059,50.0
38.574,3.0,3.861,59.0
38.639,3.011,3.649,27.0
64.137,5.009,5.689,40.0
63.585,4.976,5.281,17.0
66.301,5.2,5.134,42.0
38.325,3.024,4.048,65.0
38.527,3.046,3.851,58.0
63.914,5.063,6.026,12.0
64.265,5.101,5.689,40.0
63.624,5.061,5.274,26.0
65.814,5.245,5.084,42.0
38.566,3.093,4.066,38.0
64.582,5.188,6.443,24.0
64.466,5.188,6.065,36.0
64.368,5.19,5.685,40.0
65.837,5.318,5.443,8.0
66.215,5.359,5.101,21.0
38.572,3.141,4.058,52.0
38.711,3.157,3.852,25.0
65.392,5.343,6.137,41.0
63.995,5.239,5.636,40.0
65.922,5.406,5.433,28.0
67.071,5.51,5.149,43.0
64.55,5.335,6.773,9.0
47.847,3.961,4.748,8.0
64.676,5.363,6.051,14.0
64.123,5.326,5.629,40.0
66.085,5.498,5.427,16.0
66.556,5.548,5.089,42.0
47.5,3.983,4.969,10.0
47.931,4.025,4.741,14.0
64.715,5.443,6.033,13.0
47.599,4.01,4.163,16.0
66.651,5.625,5.45,31.0
66.264,5.602,5.044,41.0
38.469,3.271,4.01,42.0
47.839,4.074,4.715,35.0
47.258,4.031,4.388,19.0
47.604,4.067,4.145,27.0
66.623,5.7,5.423,42.0
66.322,5.683,5.023,38.0
38.522,3.32,4.001,66.0
47.903,4.135,4.702,11.0
47.16,4.076,4.36,23.0
47.565,4.117,4.122,44.0
66.184,5.739,5.36,39.0
66.262,5.754,4.99,40.0
38.509,3.363,3.983,67.0
47.826,4.182,4.673,57.0
47.497,4.159,4.37,21.0
47.579,4.172,4.102,48.0
65.927,5.789,5.309,20.0
66.285,5.829,4.962,41.0
38.477,3.402,3.961,51.0
62.17,5.504,6.045,28.0
47.609,4.22,4.357,21.0
47.725,4.237,4.091,34.0
71.095,6.32,5.69,10.0
0.0,0.0,0.0,0.0
38.463,3.442,3.94,38.0
62.018,5.557,5.998,25.0
47.582,4.269,4.33,21.0
47.72,4.286,4.066,45.0
66.293,5.963,5.27,15.0
66.446,5.985,4.905,21.0
48.306,4.374,4.921,6.0
61.92,5.613,5.954,27.0
47.764,4.335,4.32,39.0
47.671,4.332,4.034,48.0
66.02,6.007,5.211,33.0
66.312,6.041,4.857,42.0
47.974,4.393,4.86,5.0
47.579,4.362,4.547,22.0
47.951,4.4,4.308,11.0
47.622,4.375,4.001,18.0
66.206,6.09,5.185,14.0
66.23,6.099,4.811,19.0
13.907,1.287,1.4,13.0
13.88,1.286,1.317,8.0
13.873,1.286,1.237,11.0
13.849,1.285,1.155,7.0
13.812,1.283,1.073,8.0
13.846,1.288,0.996,9.0
13.88,1.298,1.388,19.0
13.858,1.297,1.306,14.0
13.85,1.297,1.226,14.0
13.804,1.294,1.142,17.0
13.823,1.297,1.064,26.0
13.811,1.298,0.985,20.0
13.857,1.308,1.376,28.0
13.835,1.307,1.294,19.0
13.807,1.306,1.213,18.0
13.801,1.307,1.132,32.0
13.82,1.31,1.054,32.0
13.806,1.309,0.974,28.0
13.832,1.318,1.363,25.0
13.826,1.319,1.283,26.0
13.799,1.317,1.202,29.0
13.791,1.318,1.121,30.0
13.807,1.32,1.043,32.0
13.8,1.321,0.964,32.0
13.827,1.33,1.352,33.0
13.817,1.33,1.272,34.0
13.794,1.329,1.191,35.0
13.779,1.328,1.109,35.0
13.793,1.331,1.031,29.0
13.777,1.33,0.951,33.0
13.832,1.342,1.342,38.0
13.805,1.34,1.26,38.0
13.78,1.339,1.178,43.0
13.768,1.338,1.097,38.0
13.781,1.341,1.019,33.0
13.776,1.341,0.94,34.0
13.817,1.351,1.329,53.0
13.797,1.35,1.248,99.0
13.768,1.348,1.166,104.0
13.772,1.349,1.086,37.0
13.775,1.351,1.007,33.0
13.77,1.351,0.928,37.0
13.812,1.361,1.317,62.0
13.787,1.359,1.235,150.0
13.769,1.358,1.154,150.0
13.762,1.359,1.073,38.0
13.758,1.359,0.994,32.0
13.767,1.361,0.916,35.0
13.801,1.37,1.303,40.0
13.779,1.368,1.222,150.0
13.761,1.367,1.141,149.0
13.757,1.368,1.06,75.0
13.757,1.369,0.982,30.0
13.756,1.369,0.903,36.0
13.776,1.377,1.288,32.0
13.777,1.378,1.209,150.0
13.761,1.377,1.128,144.0
13.742,1.375,1.047,38.0
13.753,1.377,0.968,32.0
13.75,1.378,0.889,37.0
13.771,1.385,1.275,26.0
13.771,1.386,1.195,125.0
13.753,1.385,1.115,150.0
13.756,1.385,1.034,33.0
13.753,1.386,0.955,37.0
13.754,1.387,0.876,38.0
13.768,1.393,1.261,31.0
13.775,1.395,1.182,100.0
13.746,1.392,1.101,150.0
13.747,1.393,1.02,30.0
13.756,1.394,0.942,75.0
13.75,1.394,0.863,37.0
13.78,1.402,1.249,37.0
13.774,1.402,1.168,55.0
13.751,1.4,1.087,150.0
13.743,1.4,1.006,30.0
13.754,1.401,0.928,78.0
13.753,1.402,0.849,37.0
13.773,1.409,1.234,40.0
13.764,1.408,1.154,49.0
13.746,1.407,1.073,150.0
13.746,1.407,0.992,36.0
13.754,1.408,0.914,94.0
13.758,1.409,0.835,41.0
13.772,1.416,1.219,66.0
13.758,1.414,1.139,76.0
13.748,1.414,1.059,150.0
13.748,1.414,0.978,52.0
13.754,1.415,0.9,78.0
13.764,1.416,0.821,60.0
13.776,1.422,1.205,41.0
13.752,1.42,1.123,133.0
13.751,1.42,1.044,109.0
13.75,1.42,0.963,96.0
13.754,1.421,0.884,106.0
13.758,1.422,0.806,75.0
13.773,1.427,1.189,65.0
13.746,1.425,1.108,150.0
13.754,1.426,1.029,115.0
13.747,1.425,0.948,60.0
13.757,1.426,0.87,106.0
13.761,1.427,0.791,61.0
13.768,1.432,1.174,36.0
13.751,1.43,1.093,150.0
13.754,1.431,1.014,73.0
13.75,1.43,0.933,39.0
13.757,1.431,0.854,113.0
13.765,1.432,0.776,40.0
13.763,1.436,1.158,34.0
13.746,1.434,1.077,150.0
13.757,1.435,0.998,127.0
13.75,1.434,0.917,50.0
13.758,1.435,0.839,128.0
13.76,1.436,0.76,38.0
13.746,1.438,1.14,35.0
13.747,1.438,1.061,116.0
13.755,1.439,0.982,150.0
13.749,1.438,0.901,70.0
13.763,1.439,0.823,114.0
13.764,1.44,0.744,39.0
13.748,1.441,1.124,38.0
13.755,1.442,1.045,82.0
13.758,1.442,0.966,150.0
13.747,1.441,0.885,97.0
13.764,1.442,0.807,148.0
13.771,1.443,0.728,38.0
13.743,1.444,1.108,58.0
13.76,1.445,1.03,150.0
13.757,1.444,0.95,150.0
13.745,1.443,0.869,107.0
13.772,1.446,0.791,145.0
13.761,1.445,0.711,38.0
13.746,1.446,1.091,76.0
13.767,1.448,1.013,150.0
13.759,1.447,0.933,124.0
13.74,1.444,0.852,144.0
13.771,1.447,0.774,113.0
13.77,1.447,0.695,38.0
13.747,1.448,1.075,62.0
13.77,1.45,0.997,150.0
13.757,1.448,0.917,98.0
13.752,1.447,0.835,150.0
13.772,1.449,0.758,102.0
13.764,1.448,0.678,38.0
13.746,1.448,1.057,53.0
13.762,1.45,0.979,150.0
13.764,1.449,0.9,147.0
13.754,1.448,0.819,123.0
13.772,1.449,0.74,95.0
13.765,1.448,0.661,38.0
13.764,1.451,1.041,46.0
13.764,1.45,0.962,150.0
13.749,1.448,0.882,135.0
13.754,1.448,0.801,124.0
13.771,1.449,0.723,96.0
13.771,1.449,0.644,36.0
13.757,1.45,1.024,95.0
13.763,1.45,0.945,150.0
13.749,1.447,0.864,150.0
13.76,1.448,0.784,112.0
13.771,1.449,0.706,91.0
13.753,1.446,0.626,32.0
13.76,1.449,1.006,127.0
13.76,1.448,0.927,116.0
13.749,1.446,0.847,150.0
13.764,1.447,0.767,123.0
13.771,1.447,0.688,86.0
13.753,1.445,0.608,34.0
13.76,1.447,0.988,104.0
13.764,1.447,0.909,133.0
13.756,1.445,0.829,150.0
13.767,1.446,0.749,98.0
13.769,1.445,0.67,77.0
13.767,1.445,0.591,35.0
13.762,1.446,0.971,107.0
13.751,1.443,0.89,150.0
13.765,1.444,0.812,150.0
13.768,1.444,0.731,98.0
13.766,1.443,0.652,60.0
13.76,1.441,0.573,37.0
13.753,1.442,0.952,76.0
13.751,1.441,0.873,150.0
13.761,1.441,0.794,150.0
13.758,1.439,0.713,108.0
13.759,1.439,0.634,34.0
13.773,1.44,0.555,38.0
13.754,1.438,0.934,46.0
13.752,1.437,0.854,150.0
13.767,1.438,0.776,150.0
13.758,1.436,0.695,82.0
13.754,1.435,0.616,37.0
13.759,1.434,0.537,38.0
13.757,1.435,0.916,57.0
13.756,1.434,0.837,150.0
13.766,1.434,0.758,150.0
13.762,1.432,0.677,81.0
13.762,1.431,0.598,37.0
13.779,1.432,0.52,38.0
13.752,1.43,0.898,95.0
13.766,1.43,0.819,150.0
13.764,1.429,0.74,150.0
13.769,1.428,0.659,66.0
13.771,1.427,0.58,40.0
13.776,1.427,0.502,38.0
13.754,1.425,0.879,98.0
13.77,1.425,0.801,150.0
13.765,1.423,0.722,150.0
13.758,1.421,0.641,35.0
13.774,1.422,0.562,80.0
13.766,1.42,0.483,38.0
13.758,1.419,0.861,105.0
13.774,1.419,0.783,150.0
13.767,1.417,0.703,150.0
13.748,1.414,0.622,36.0
13.773,1.416,0.544,75.0
13.771,1.414,0.465,38.0
13.76,1.413,0.843,123.0
13.769,1.412,0.764,150.0
13.768,1.411,0.685,150.0
13.748,1.408,0.604,35.0
13.773,1.409,0.526,74.0
13.77,1.407,0.446,37.0
13.764,1.406,0.825,150.0
13.774,1.406,0.746,150.0
13.761,1.403,0.666,131.0
13.755,1.401,0.586,37.0
13.781,1.402,0.508,80.0
13.778,1.401,0.428,37.0
13.767,1.399,0.807,134.0
13.769,1.397,0.728,150.0
13.764,1.395,0.648,94.0
13.764,1.394,0.568,54.0
13.785,1.395,0.489,68.0
13.776,1.392,0.41,37.0
13.773,1.391,0.789,99.0
13.776,1.39,0.71,150.0
13.758,1.386,0.63,38.0
13.768,1.386,0.55,78.0
13.788,1.386,0.471,75.0
13.784,1.385,0.392,38.0
13.777,1.382,0.771,79.0
13.778,1.381,0.692,150.0
13.764,1.378,0.612,39.0
13.779,1.378,0.532,61.0
13.793,1.378,0.453,63.0
13.782,1.375,0.374,37.0
13.78,1.373,0.753,91.0
13.785,1.372,0.673,144.0
13.77,1.369,0.594,56.0
13.777,1.368,0.514,40.0
13.795,1.368,0.435,61.0
13.781,1.365,0.356,37.0
13.785,1.364,0.735,91.0
13.779,1.361,0.655,122.0
13.782,1.36,0.576,96.0
13.784,1.358,0.496,39.0
13.792,1.357,0.417,38.0
13.786,1.355,0.338,35.0
13.788,1.353,0.717,43.0
13.782,1.35,0.637,64.0
13.786,1.349,0.558,72.0
13.797,1.348,0.478,38.0
13.804,1.347,0.399,38.0
13.788,1.344,0.319,33.0
13.796,1.342,0.699,41.0
13.796,1.34,0.62,39.0
13.792,1.338,0.54,57.0
13.805,1.337,0.46,38.0
13.802,1.335,0.381,37.0
13.794,1.333,0.302,30.0
13.802,1.331,0.681,36.0
13.806,1.329,0.602,39.0
13.81,1.327,0.523,37.0
13.812,1.326,0.443,35.0
13.816,1.324,0.363,35.0
13.801,1.321,0.284,31.0
13.813,1.319,0.664,34.0
13.803,1.316,0.584,37.0
13.822,1.316,0.505,36.0
13.824,1.314,0.425,35.0
13.822,1.312,0.346,33.0
13.816,1.309,0.267,30.0
13.822,1.307,0.646,28.0
13.825,1.305,0.567,27.0
13.836,1.304,0.488,34.0
13.832,1.301,0.408,32.0
13.826,1.299,0.328,30.0
13.832,1.297,0.25,24.0
13.849,1.296,0.63,25.0
26.147,2.442,1.04,150.0
26.109,2.434,0.889,2.0
13.844,1.288,0.39,23.0
13.836,1.286,0.311,21.0
13.852,1.285,0.232,15.0
13.855,1.282,0.613,12.0
26.135,2.413,1.006,151.0
26.122,2.408,0.856,31.0
26.129,2.404,0.705,10.0
26.179,2.405,0.556,4.0
26.205,2.403,0.407,6.0
114.776,10.496,4.934,24.0
26.172,2.389,0.975,28.0
26.102,2.378,0.823,168.0
26.166,2.379,0.673,28.0
26.21,2.378,0.524,26.0
26.253,2.378,0.375,26.0
115.443,10.427,4.819,14.0
26.158,2.357,0.942,28.0
26.172,2.354,0.793,139.0
26.228,2.355,0.642,9.0
26.279,2.355,0.493,15.0
102.827,9.198,1.345,23.0
120.612,10.754,4.888,35.0
26.178,2.329,0.911,28.0
26.18,2.324,0.761,27.0
120.629,10.687,2.807,53.0
120.457,10.652,2.116,13.0
74.844,6.605,0.888,3.0
120.625,10.608,4.742,51.0
26.185,2.298,0.879,34.0
26.2,2.294,0.731,27.0
120.511,10.531,2.662,22.0
34.183,2.981,0.559,6.0
74.418,6.477,0.794,5.0
120.621,10.459,4.599,53.0
26.192,2.266,0.849,21.0
26.203,2.262,0.699,29.0
26.489,2.281,0.554,2.0
34.326,2.95,0.522,0.0
66.059,5.666,0.628,19.0
34.279,2.928,1.266,87.0
26.205,2.233,0.819,25.0
26.229,2.23,0.67,16.0
26.482,2.246,0.523,7.0
66.283,5.611,0.932,31.0
65.449,5.528,0.547,17.0
122.369,10.293,4.381,13.0
26.239,2.201,0.79,8.0
26.278,2.199,0.641,18.0
119.902,10.013,2.231,8.0
74.452,6.203,0.961,21.0
58.111,4.83,0.42,32.0
74.52,6.167,2.584,26.0
26.277,2.169,0.761,2.0
26.333,2.168,0.613,13.0
74.524,6.121,1.303,34.0
74.381,6.095,0.877,30.0
56.517,4.62,0.346,31.0
74.517,6.063,2.501,30.0
74.507,6.046,2.076,38.0
74.522,6.031,1.652,37.0
74.521,6.016,1.221,36.0
74.29,5.982,0.795,27.0
0.0,0.0,0.0,0.0
74.573,5.961,2.421,26.0
74.576,5.944,1.996,27.0
74.567,5.928,1.573,30.0
74.567,5.912,1.141,37.0
74.103,5.86,0.713,33.0
53.711,4.236,0.212,16.0
129.232,10.142,4.058,14.0
103.13,8.07,2.652,20.0
130.168,10.159,2.608,7.0
74.64,5.809,1.064,13.0
73.761,5.724,0.633,20.0
48.066,3.719,0.139,22.0
131.192,10.101,3.983,12.0
131.716,10.111,3.252,11.0
132.05,10.108,2.51,10.0
74.722,5.703,0.989,14.0
58.855,4.479,0.445,22.0
47.583,3.611,0.09,21.0
133.311,10.062,3.912,12.0
114.733,8.632,2.716,25.0
66.525,4.989,1.197,19.0
66.557,4.977,0.813,150.0
66.517,4.959,0.436,41.0
42.085,3.127,0.037,17.0
114.564,8.466,3.247,7.0
114.491,8.434,2.595,27.0
103.767,7.62,1.765,52.0
74.616,5.461,0.838,14.0
55.192,4.027,0.307,16.0
41.57,3.023,-0.003,42.0
114.545,8.283,3.136,24.0
114.423,8.247,2.484,22.0
139.663,10.032,2.241,17.0
74.528,5.335,0.766,29.0
54.368,3.879,0.25,28.0
41.207,2.93,-0.042,43.0
114.712,8.109,3.032,51.0
114.657,8.075,2.381,14.0
114.69,8.05,1.731,7.0
74.189,5.189,0.693,39.0
54.21,3.778,0.199,19.0
38.87,2.699,-0.076,6.0
114.528,7.903,2.92,38.0
139.617,9.6,2.769,21.0
113.714,7.79,1.613,9.0
73.871,5.042,0.622,41.0
46.666,3.174,0.129,20.0
38.879,2.635,-0.111,2.0
114.619,7.717,2.82,51.0
139.549,9.361,2.645,12.0
96.368,6.439,1.282,3.0
73.651,4.902,0.556,14.0
0.0,0.0,0.0,0.0
36.375,2.403,-0.135,36.0
114.682,7.525,2.722,59.0
139.59,9.121,2.525,60.0
81.176,5.284,1.01,6.0
58.481,3.791,0.392,12.0
42.37,2.736,0.044,17.0
36.0,2.315,-0.164,38.0
158.168,10.101,3.622,7.0
139.627,8.88,2.41,65.0
33.42,2.116,0.388,3.0
33.447,2.109,0.196,5.0
41.841,2.628,0.01,4.0
33.351,2.086,-0.179,8.0
33.472,2.078,0.739,155.0
33.438,2.067,0.55,37.0
33.431,2.057,0.361,7.0
33.479,2.052,0.17,2.0
41.325,2.522,-0.022,42.0
35.605,2.163,-0.219,19.0
0.0,0.0,0.0,0.0
148.173,8.893,2.323,8.0
75.529,4.512,0.759,9.0
54.643,3.249,0.236,29.0
40.818,2.416,-0.053,47.0
35.359,2.084,-0.244,7.0
162.491,9.502,3.342,7.0
0.0,0.0,0.0,0.0
75.201,4.355,0.7,23.0
54.241,3.126,0.194,19.0
40.26,2.309,-0.081,27.0
35.374,2.02,-0.27,8.0
163.35,9.251,3.243,16.0
105.714,5.956,1.504,1.0
74.522,4.178,0.642,21.0
0.0,0.0,0.0,0.0
40.53,2.249,-0.11,8.0
35.397,1.955,-0.295,7.0
162.71,8.911,3.119,4.0
105.788,5.762,1.434,3.0
73.737,3.996,0.585,22.0
0.0,0.0,0.0,0.0
40.162,2.154,-0.135,5.0
35.273,1.882,-0.317,10.0
105.75,5.591,1.958,9.0
105.85,5.567,1.366,32.0
73.555,3.846,0.537,16.0
46.385,2.412,0.074,22.0
36.501,1.888,-0.146,34.0
35.485,1.825,-0.341,0.0
105.816,5.393,1.894,6.0
105.807,5.362,1.301,24.0
73.587,3.707,0.492,9.0
0.0,0.0,0.0,0.0
36.238,1.805,-0.166,44.0
32.422,1.605,-0.33,1.0
0.0,0.0,0.0,0.0
81.861,3.991,0.959,5.0
58.562,2.837,0.358,6.0
42.266,2.034,0.017,17.0
36.185,1.731,-0.187,37.0
31.885,1.516,-0.343,1.0
0.0,0.0,0.0,0.0
78.558,3.675,0.877,17.0
58.557,2.722,0.326,8.0
42.039,1.941,-0.004,18.0
36.104,1.656,-0.205,31.0
31.437,1.433,-0.354,1.0
0.0,0.0,0.0,0.0
78.272,3.507,0.834,15.0
55.055,2.45,0.279,17.0
41.824,1.848,-0.025,18.0
36.089,1.583,-0.223,19.0
30.994,1.35,-0.365,2.0
101.244,4.364,1.595,1.0
77.902,3.335,0.792,21.0
54.768,2.327,0.251,28.0
41.506,1.75,-0.045,18.0
36.024,1.508,-0.24,12.0
30.764,1.278,-0.376,2.0
101.003,4.151,1.545,1.0
77.876,3.177,0.757,57.0
54.716,2.214,0.227,28.0
41.185,1.654,-0.062,17.0
36.014,1.434,-0.255,11.0
30.751,1.216,-0.389,8.0
100.994,3.945,1.503,2.0
77.759,3.012,0.724,47.0
54.569,2.097,0.204,28.0
40.877,1.558,-0.078,17.0
36.033,1.362,-0.269,9.0
30.163,1.131,-0.393,2.0
100.959,3.74,1.464,3.0
77.716,2.853,0.695,26.0
54.406,1.979,0.184,28.0
40.294,1.453,-0.091,16.0
36.055,1.289,-0.282,7.0
29.943,1.061,-0.401,2.0
100.914,3.53,1.429,4.0
77.632,2.69,0.667,14.0
54.32,1.864,0.165,27.0
39.766,1.351,-0.103,42.0
36.118,1.216,-0.294,6.0
29.796,0.994,-0.408,2.0
100.733,3.313,1.395,3.0
74.583,2.428,0.619,11.0
54.096,1.744,0.148,20.0
39.705,1.267,-0.115,44.0
36.15,1.142,-0.305,7.0
29.63,0.926,-0.414,2.0
100.653,3.102,1.366,3.0
74.647,2.275,0.599,13.0
48.878,1.473,0.121,9.0
39.345,1.174,-0.123,47.0
0.0,0.0,0.0,0.0
29.496,0.861,-0.419,2.0
106.016,3.047,1.414,9.0
74.694,2.122,0.583,16.0
48.903,1.373,0.11,22.0
38.889,1.079,-0.13,43.0
36.107,0.99,-0.321,3.0
29.42,0.797,-0.424,2.0
106.064,2.826,1.394,63.0
74.736,1.966,0.569,20.0
48.706,1.265,0.101,22.0
38.588,0.989,-0.136,43.0
36.498,0.923,-0.331,1.0
29.288,0.731,-0.427,2.0
106.033,2.602,1.376,29.0
74.744,1.809,0.557,19.0
48.555,1.159,0.093,22.0
38.492,0.906,-0.142,47.0
36.579,0.848,-0.336,0.0
29.247,0.668,-0.43,2.0
89.856,2.016,1.155,7.0
74.699,1.651,0.548,21.0
48.302,1.05,0.088,21.0
38.43,0.823,-0.145,40.0
36.654,0.772,-0.341,0.0
29.306,0.608,-0.434,2.0
93.129,1.893,1.189,2.0
74.895,1.496,0.543,17.0
47.948,0.942,0.083,21.0
38.479,0.743,-0.148,35.0
36.753,0.696,-0.344,2.0
29.216,0.544,-0.434,2.0
121.123,2.205,1.54,14.0
74.93,1.338,0.54,15.0
47.881,0.838,0.081,21.0
38.474,0.661,-0.149,48.0
33.806,0.568,-0.317,1.0
29.25,0.482,-0.435,2.0
121.205,1.947,1.54,17.0
75.214,1.183,0.542,13.0
47.922,0.737,0.081,44.0
38.498,0.578,-0.149,49.0
33.625,0.493,-0.315,1.0
29.165,0.418,-0.434,2.0
121.216,1.686,1.543,17.0
48.147,0.653,0.348,27.0
47.911,0.634,0.083,55.0
38.652,0.498,-0.148,51.0
33.75,0.422,-0.315,1.0
29.277,0.356,-0.434,2.0
48.12,0.567,0.615,98.0
48.063,0.549,0.351,92.0
47.91,0.53,0.087,58.0
38.814,0.417,-0.146,48.0
33.689,0.35,-0.311,0.0
29.328,0.294,-0.432,2.0
48.08,0.464,0.619,110.0
48.047,0.447,0.356,111.0
47.947,0.429,0.092,66.0
39.018,0.336,-0.142,45.0
33.531,0.277,-0.306,0.0
29.377,0.232,-0.429,2.0
48.103,0.362,0.626,88.0
48.132,0.345,0.363,50.0
48.067,0.327,0.099,56.0
39.308,0.253,-0.137,45.0
33.737,0.206,-0.302,0.0
29.438,0.169,-0.424,2.0
59.297,0.318,0.782,150.0
59.317,0.297,0.458,101.0
54.548,0.255,0.123,28.0
39.713,0.171,-0.13,36.0
37.784,0.149,-0.331,6.0
29.577,0.106,-0.42,2.0
79.469,0.257,1.066,151.0
79.48,0.229,0.632,12.0
54.388,0.137,0.135,29.0
40.229,0.087,-0.123,16.0
37.974,0.069,-0.323,0.0
29.729,0.043,-0.415,2.0
79.466,0.087,1.085,151.0
79.345,0.058,0.651,34.0
0.0,0.0,0.0,0.0
40.851,0.001,-0.114,17.0
38.132,-0.011,-0.314,1.0
29.831,-0.019,-0.408,2.0
79.458,-0.08,1.108,151.0
79.389,-0.108,0.674,140.0
55.928,-0.095,0.17,29.0
41.709,-0.086,-0.104,19.0
37.547,-0.091,-0.298,2.0
30.107,-0.083,-0.402,2.0
79.466,-0.247,1.133,151.0
79.426,-0.276,0.701,150.0
56.116,-0.215,0.19,10.0
42.123,-0.176,-0.09,4.0
39.467,-0.179,-0.299,0.0
30.319,-0.148,-0.395,2.0
79.458,-0.415,1.162,157.0
79.474,-0.443,0.73,168.0
61.298,-0.364,0.23,12.0
44.69,-0.28,-0.079,4.0
40.012,-0.265,-0.288,5.0
30.622,-0.214,-0.386,1.0
79.447,-0.582,1.193,174.0
79.469,-0.61,0.762,161.0
61.431,-0.494,0.256,5.0
50.776,-0.426,-0.068,6.0
42.129,-0.368,-0.285,1.0
30.871,-0.281,-0.376,2.0
79.442,-0.749,1.228,201.0
79.454,-0.776,0.797,169.0
77.469,-0.784,0.357,1.0
53.669,-0.562,-0.048,8.0
42.136,-0.456,-0.266,2.0
31.241,-0.349,-0.366,1.0
79.409,-0.912,1.264,255.0
79.743,-0.944,0.837,2.0
77.975,-0.95,0.396,3.0
54.477,-0.683,-0.023,3.0
42.2,-0.544,-0.246,3.0
31.867,-0.421,-0.358,1.0
183.419,-2.485,3.012,61.0
123.594,-1.719,1.361,13.0
81.607,-1.164,0.457,3.0
58.346,-0.852,0.005,0.0
46.206,-0.691,-0.245,0.0
32.577,-0.499,-0.349,1.0
205.434,-3.207,3.484,30.0
123.898,-1.979,1.432,8.0
40.279,-0.657,0.248,33.0
40.29,-0.672,0.026,55.0
40.288,-0.686,-0.191,35.0
33.53,-0.583,-0.34,1.0
40.182,-0.71,0.704,54.0
40.265,-0.726,0.489,28.0
40.239,-0.739,0.271,57.0
40.297,-0.755,0.05,48.0
46.737,-0.892,-0.193,6.0
33.762,-0.656,-0.322,0.0
40.265,-0.793,0.73,65.0
40.238,-0.807,0.513,57.0
40.296,-0.823,0.297,2.0
68.252,-1.418,0.128,2.0
0.0,0.0,0.0,0.0
35.631,-0.765,-0.316,0.0
40.216,-0.874,0.756,65.0
40.298,-0.89,0.54,34.0
40.314,-0.905,0.323,153.0
40.268,-0.918,0.102,78.0
40.296,-0.933,-0.114,150.0
40.276,-0.946,-0.33,2.0
40.198,-0.956,0.783,62.0
40.216,-0.97,0.567,60.0
40.234,-0.984,0.351,36.0
0.0,0.0,0.0,0.0
41.017,-1.032,-0.086,153.0
40.484,-1.033,-0.303,15.0
40.216,-1.037,0.812,46.0
40.222,-1.051,0.596,50.0
40.188,-1.063,0.38,56.0
40.181,-1.077,0.16,40.0
40.264,-1.093,-0.055,63.0
40.209,-1.106,-0.271,10.0
0.0,0.0,0.0,0.0
0.0,0.0,0.0,0.0
40.374,-1.148,0.412,0.0
40.21,-1.157,0.191,3.0
40.213,-1.171,-0.024,37.0
40.215,-1.185,-0.239,24.0
40.323,-1.198,0.876,27.0
40.344,-1.212,0.66,54.0
0.0,0.0,0.0,0.0
0.0,0.0,0.0,0.0
0.0,0.0,0.0,0.0
40.535,-1.273,-0.209,0.0
0.0,0.0,0.0,0.0
0.0,0.0,0.0,0.0
0.0,0.0,0.0,0.0
0.0,0.0,0.0,0.0
60.904,-2.011,0.063,4.0
0.0,0.0,0.0,0.0
0.0,0.0,0.0,0.0
0.0,0.0,0.0,0.0
0.0,0.0,0.0,0.0
0.0,0.0,0.0,0.0
0.0,0.0,0.0,0.0
51.616,-1.819,-0.177,0.0
0.0,0.0,0.0,0.0
0.0,0.0,0.0,0.0
0.0,0.0,0.0,0.0
0.0,0.0,0.0,0.0
40.143,-1.49,-0.101,152.0
0.0,0.0,0.0,0.0
0.0,0.0,0.0,0.0
0.0,0.0,0.0,0.0
0.0,0.0,0.0,0.0
0.0,0.0,0.0,0.0
37.796,-1.472,-0.06,126.0
0.0,0.0,0.0,0.0
0.0,0.0,0.0,0.0
0.0,0.0,0.0,0.0
0.0,0.0,0.0,0.0
0.0,0.0,0.0,0.0
0.0,0.0,0.0,0.0
0.0,0.0,0.0,0.0
0.0,0.0,0.0,0.0
0.0,0.0,0.0,0.0
0.0,0.0,0.0,0.0
0.0,0.0,0.0,0.0
0.0,0.0,0.0,0.0
0.0,0.0,0.0,0.0
164.379,-7.138,2.866,54.0
0.0,0.0,0.0,0.0
0.0,0.0,0.0,0.0
0.0,0.0,0.0,0.0
0.0,0.0,0.0,0.0
0.0,0.0,0.0,0.0
164.432,-7.429,3.037,95.0
164.183,-7.47,2.143,5.0
0.0,0.0,0.0,0.0
0.0,0.0,0.0,0.0
0.0,0.0,0.0,0.0
0.0,0.0,0.0,0.0
164.534,-7.718,3.213,30.0
164.408,-7.763,2.32,23.0
0.0,0.0,0.0,0.0
0.0,0.0,0.0,0.0
0.0,0.0,0.0,0.0
0.0,0.0,0.0,0.0
0.0,0.0,0.0,0.0
0.0,0.0,0.0,0.0
0.0,0.0,0.0,0.0
0.0,0.0,0.0,0.0
0.0,0.0,0.0,0.0
0.0,0.0,0.0,0.0
0.0,0.0,0.0,0.0
0.0,0.0,0.0,0.0
0.0,0.0,0.0,0.0
0.0,0.0,0.0,0.0
0.0,0.0,0.0,0.0
0.0,0.0,0.0,0.0
0.0,0.0,0.0,0.0
0.0,0.0,0.0,0.0
0.0,0.0,0.0,0.0
0.0,0.0,0.0,0.0
0.0,0.0,0.0,0.0
0.0,0.0,0.0,0.0
0.0,0.0,0.0,0.0
228.002,-12.692,3.311,150.0
0.0,0.0,0.0,0.0
244.414,-13.718,9.045,13.0
278.935,-15.728,8.845,13.0
0.0,0.0,0.0,0.0
0.0,0.0,0.0,0.0
216.992,-12.413,3.417,20.0
155.829,-8.958,1.631,2.0
0.0,0.0,0.0,0.0
244.546,-14.162,8.057,9.0
271.684,-15.806,7.513,150.0
271.708,-15.882,6.051,48.0
0.0,0.0,0.0,0.0
0.0,0.0,0.0,0.0
212.055,-12.545,8.376,14.0
212.345,-12.618,7.265,18.0
271.987,-16.232,7.866,58.0
272.085,-16.306,6.404,42.0
0.0,0.0,0.0,0.0
187.44,-11.333,2.433,18.0
0.0,0.0,0.0,0.0
227.826,-13.867,8.082,21.0
244.308,-14.932,7.375,14.0
263.419,-16.166,6.536,49.0
0.0,0.0,0.0,0.0
187.31,-11.592,2.672,28.0
205.309,-12.736,8.632,5.0
213.108,-13.272,7.833,9.0
208.792,-13.056,6.573,21.0
248.331,-15.589,6.484,156.0
265.135,-16.711,5.526,35.0
187.182,-11.846,2.915,33.0
222.278,-14.102,9.638,9.0
208.577,-13.283,7.943,24.0
208.769,-13.343,6.848,10.0
248.358,-15.934,6.813,255.0
248.388,-15.998,5.506,34.0
187.215,-12.103,3.163,152.0
203.841,-13.209,9.111,6.0
205.513,-13.364,8.1,25.0
208.326,-13.593,7.111,34.0
208.988,-13.686,6.011,25.0
244.473,-16.068,5.743,36.0
187.203,-12.346,3.411,150.0
155.157,-10.257,7.142,3.0
211.353,-14.02,8.612,7.0
208.434,-13.872,7.395,13.0
208.839,-13.947,6.289,33.0
228.505,-15.312,5.677,67.0
228.75,-15.379,4.478,6.0
155.712,-10.493,7.379,4.0
211.655,-14.31,8.915,9.0
203.808,-13.823,7.508,21.0
208.55,-14.189,6.563,15.0
212.797,-14.526,5.577,73.0
221.119,-15.143,4.631,29.0
164.598,-11.296,8.027,4.0
196.501,-13.528,8.547,9.0
208.791,-14.418,7.982,10.0
204.011,-14.132,6.703,39.0
208.384,-14.478,5.752,9.0
212.903,-14.839,4.758,63.0
148.826,-10.396,7.467,11.0
164.314,-11.511,7.378,14.0
196.569,-13.811,7.79,19.0
196.185,-13.823,6.724,23.0
204.799,-14.473,5.942,54.0
204.905,-14.524,4.869,35.0
158.46,-11.256,8.174,5.0
0.0,0.0,0.0,0.0
164.417,-11.741,6.749,34.0
195.203,-13.979,6.966,34.0
204.933,-14.715,6.237,20.0
204.892,-14.754,5.16,28.0
157.771,-11.385,8.364,7.0
158.191,-11.445,7.553,18.0
207.716,-15.065,8.823,10.0
164.468,-11.96,6.105,33.0
196.02,-14.292,6.246,36.0
213.549,-15.609,5.682,18.0
0.0,0.0,0.0,0.0
149.156,-10.952,7.335,12.0
155.538,-11.449,6.83,25.0
194.875,-14.377,7.512,15.0
197.123,-14.579,6.561,47.0
196.953,-14.603,5.522,21.0
148.242,-11.015,8.285,5.0
156.28,-11.637,7.91,4.0
150.201,-11.21,6.812,5.0
163.888,-12.258,6.554,24.0
197.276,-14.79,6.85,51.0
196.659,-14.779,5.797,36.0
146.731,-11.049,8.414,9.0
158.025,-11.924,8.228,15.0
157.988,-11.947,7.393,21.0
165.513,-12.541,6.857,37.0
164.189,-12.468,5.94,41.0
196.666,-14.968,6.08,29.0
107.929,-8.23,6.344,2.0
154.849,-11.832,8.286,10.0
149.295,-11.431,7.203,9.0
158.005,-12.122,6.777,20.0
165.572,-12.727,6.231,40.0
196.712,-15.153,6.371,40.0
149.585,-11.547,9.015,6.0
148.317,-11.468,8.156,5.0
149.32,-11.568,7.425,7.0
156.438,-12.142,6.939,14.0
209.503,-16.29,8.191,16.0
164.351,-12.804,5.563,22.0
117.847,-9.2,7.274,7.0
149.464,-11.689,8.438,13.0
163.304,-12.792,8.359,13.0
149.545,-11.734,6.852,11.0
157.905,-12.411,6.404,39.0
156.872,-12.352,5.539,32.0
115.505,-9.114,7.3,5.0
106.295,-8.399,6.157,3.0
148.411,-11.747,7.816,3.0
149.544,-11.856,7.072,15.0
163.53,-12.986,6.875,23.0
196.771,-15.651,7.24,37.0
122.488,-9.763,7.923,3.0
150.887,-12.044,8.964,5.0
108.786,-8.695,5.89,3.0
158.652,-12.7,7.74,6.0
166.539,-13.352,7.249,16.0
158.008,-12.688,6.047,45.0
99.007,-7.966,6.553,2.0
108.281,-8.724,6.596,4.0
106.435,-8.587,5.921,7.0
166.619,-13.461,8.377,12.0
149.74,-12.113,6.74,32.0
163.908,-13.278,6.515,33.0
98.823,-8.022,6.687,7.0
100.069,-8.132,6.244,2.0
108.597,-8.836,6.203,4.0
150.803,-12.286,7.805,14.0
150.598,-12.284,7.002,30.0
150.168,-12.265,6.191,26.0
100.909,-8.259,6.979,5.0
115.928,-9.497,7.405,3.0
108.612,-8.908,6.364,9.0
196.18,-16.107,10.444,5.0
158.791,-13.052,7.618,6.0
149.814,-12.329,6.399,25.0
98.003,-8.082,6.923,2.0
98.591,-8.138,6.446,10.0
122.634,-10.132,7.37,12.0
106.409,-8.801,5.823,7.0
163.845,-13.566,8.103,11.0
204.922,-16.983,9.058,11.0
108.022,-8.971,7.793,8.0
108.683,-9.034,7.267,7.0
115.375,-9.598,7.105,5.0
108.395,-9.025,6.092,10.0
148.522,-12.376,7.564,5.0
163.6,-13.646,7.473,3.0
98.503,-8.234,7.253,9.0
108.23,-9.054,7.396,3.0
