X,Y,Z,Reflectivity
129.686,-3.224,7.829,24.0
40.779,-1.02,3.607,42.0
53.666,-1.34,4.466,7.0
41.302,-1.029,3.22,58.0
84.716,-2.105,6.153,4.0
97.571,-2.419,6.577,6.0
97.82,-2.42,6.083,33.0
40.894,-1.017,3.692,35.0
53.893,-1.337,4.583,9.0
41.27,-1.022,3.293,66.0
41.313,-1.02,3.075,21.0
91.719,-2.259,6.348,29.0
97.748,-2.401,6.254,10.0
40.829,-1.009,3.76,50.0
64.168,-1.581,5.571,13.0
41.339,-1.016,3.372,28.0
41.25,-1.01,3.144,47.0
91.701,-2.24,6.51,43.0
91.652,-2.233,6.026,27.0
49.07,-1.202,4.606,6.0
40.878,-0.998,3.621,51.0
41.337,-1.007,3.445,9.0
41.23,-1.0,3.215,57.0
84.863,-2.053,6.173,14.0
91.702,-2.212,6.191,34.0
40.045,-0.971,3.83,62.0
40.91,-0.989,3.697,47.0
53.934,-1.299,4.59,12.0
41.255,-0.99,3.29,50.0
41.36,-0.989,3.081,7.0
91.743,-2.187,6.353,11.0
40.012,-0.959,3.897,67.0
40.884,-0.977,3.766,57.0
64.37,-1.532,5.591,16.0
41.347,-0.98,3.369,32.0
41.271,-0.974,3.146,63.0
41.355,-0.972,2.935,9.0
40.136,-0.949,3.98,57.0
40.367,-0.951,3.789,42.0
54.269,-1.273,4.807,15.0
41.389,-0.967,3.443,4.0
41.186,-0.958,3.21,65.0
41.335,-0.957,3.004,36.0
39.642,-0.924,3.998,59.0
39.713,-0.921,3.795,58.0
49.103,-1.134,4.433,10.0
54.043,-1.242,4.587,17.0
41.201,-0.943,3.28,46.0
84.137,-1.917,6.255,23.0
39.46,-0.904,4.046,67.0
39.89,-0.91,3.878,48.0
49.068,-1.113,4.51,36.0
54.236,-1.225,4.693,54.0
41.302,-0.928,3.356,41.0
41.299,-0.924,3.138,55.0
39.282,-0.884,4.093,60.0
39.93,-0.893,3.948,59.0
40.142,-0.893,3.756,50.0
63.885,-1.415,5.633,15.0
54.135,-1.192,4.487,19.0
41.195,-0.903,3.196,30.0
39.254,-0.865,4.154,45.0
39.645,-0.868,3.984,55.0
39.682,-0.865,3.777,51.0
49.088,-1.064,4.407,14.0
54.248,-1.169,4.583,68.0
41.241,-0.884,3.266,33.0
39.069,-0.841,4.197,62.0
39.763,-0.851,4.06,42.0
39.269,-0.836,3.801,70.0
39.749,-0.841,3.631,60.0
40.708,-0.856,3.503,29.0
41.295,-0.863,3.335,37.0
39.013,-0.82,4.253,67.0
39.45,-0.824,4.09,58.0
39.247,-0.814,3.86,55.0
39.946,-0.823,3.712,51.0
40.718,-0.834,3.567,42.0
54.178,-1.103,4.459,9.0
38.947,-0.797,4.306,68.0
39.468,-0.802,4.153,68.0
39.581,-0.799,3.953,49.0
39.568,-0.793,3.737,73.0
40.238,-0.801,3.586,50.0
63.723,-1.26,5.341,17.0
39.162,-0.778,4.389,61.0
39.239,-0.774,4.187,47.0
39.796,-0.779,4.034,50.0
39.337,-0.765,3.773,62.0
39.753,-0.767,3.601,71.0
64.114,-1.228,5.468,10.0
39.25,-0.756,4.458,67.0
39.045,-0.746,4.225,70.0
39.35,-0.746,4.047,60.0
39.322,-0.739,3.83,43.0
39.784,-0.742,3.662,65.0
49.111,-0.91,4.259,13.0
39.312,-0.731,4.522,65.0
39.103,-0.721,4.287,57.0
39.244,-0.718,4.092,68.0
39.385,-0.715,3.891,67.0
40.04,-0.721,3.742,47.0
49.097,-0.876,4.326,46.0
39.463,-0.707,4.595,54.0
39.051,-0.694,4.336,58.0
39.256,-0.692,4.148,71.0
39.718,-0.694,3.979,55.0
48.199,-0.834,4.571,10.0
40.3,-0.691,3.606,44.0
39.193,-0.675,4.617,66.0
39.2,-0.669,4.406,52.0
39.262,-0.664,4.202,51.0
39.417,-0.66,4.003,48.0
40.663,-0.675,3.911,41.0
40.367,-0.663,3.666,47.0
39.462,-0.651,4.702,52.0
39.629,-0.647,4.508,62.0
39.394,-0.637,4.268,55.0
41.857,-0.67,4.306,19.0
40.355,-0.639,3.934,41.0
48.151,-0.755,4.436,9.0
39.698,-0.624,4.783,66.0
39.546,-0.615,4.55,56.0
39.084,-0.602,4.285,52.0
39.41,-0.6,4.104,47.0
39.942,-0.602,3.945,66.0
48.102,-0.717,4.492,5.0
39.792,-0.595,4.844,55.0
39.717,-0.587,4.62,55.0
39.466,-0.577,4.377,30.0
39.334,-0.568,4.145,51.0
39.467,-0.563,3.947,51.0
47.651,-0.672,4.509,8.0
39.575,-0.559,4.867,50.0
39.87,-0.557,4.687,49.0
39.356,-0.543,4.413,67.0
40.009,-0.545,4.265,33.0
39.892,-0.536,4.037,40.0
39.553,-0.525,3.79,46.0
40.042,-0.533,4.973,46.0
39.97,-0.525,4.746,43.0
39.685,-0.514,4.496,47.0
39.687,-0.507,4.278,64.0
39.449,-0.497,4.038,51.0
39.524,-0.49,3.833,45.0
39.966,-0.497,5.01,66.0
40.052,-0.491,4.802,51.0
39.869,-0.481,4.563,55.0
39.316,-0.468,4.282,41.0
39.452,-0.462,4.083,56.0
40.347,-0.466,3.957,22.0
40.0,-0.462,5.06,45.0
43.791,-0.498,5.3,5.0
39.957,-0.447,4.618,52.0
39.474,-0.434,4.343,52.0
39.38,-0.426,4.119,65.0
39.422,-0.42,3.909,53.0
39.981,-0.426,5.101,51.0
39.913,-0.418,4.873,42.0
40.05,-0.411,4.671,48.0
39.524,-0.399,4.39,53.0
39.262,-0.389,4.148,64.0
39.465,-0.384,3.955,58.0
39.823,-0.387,5.123,65.0
39.781,-0.379,4.899,55.0
40.216,-0.375,4.733,32.0
40.025,-0.366,4.488,50.0
39.592,-0.354,4.223,58.0
39.314,-0.345,3.98,62.0
40.158,-0.351,5.207,49.0
39.746,-0.341,4.935,49.0
40.305,-0.338,4.783,32.0
40.411,-0.331,4.571,54.0
40.455,-0.323,4.355,38.0
39.516,-0.308,4.038,69.0
40.271,-0.314,5.261,40.0
39.679,-0.301,4.965,63.0
39.923,-0.295,4.776,47.0
40.537,-0.292,4.624,60.0
43.987,-0.308,4.776,4.0
39.545,-0.27,4.078,66.0
39.703,-0.269,5.223,54.0
39.614,-0.261,4.993,51.0
39.72,-0.254,4.788,36.0
42.154,-0.262,4.846,27.0
40.08,-0.241,4.388,55.0
39.457,-0.23,4.104,61.0
39.363,-0.227,5.214,73.0
39.898,-0.223,5.064,52.0
39.549,-0.213,4.802,60.0
39.648,-0.206,4.592,37.0
39.844,-0.199,4.396,60.0
40.205,-0.193,4.215,55.0
39.385,-0.187,5.25,65.0
39.665,-0.181,5.068,61.0
39.612,-0.173,4.842,56.0
39.64,-0.165,4.623,62.0
39.933,-0.158,4.438,52.0
40.324,-0.152,4.26,34.0
39.45,-0.147,5.29,61.0
39.469,-0.139,5.074,66.0
39.512,-0.131,4.86,56.0
39.806,-0.125,4.673,41.0
40.115,-0.118,4.488,49.0
41.174,-0.113,4.38,39.0
39.469,-0.105,5.322,60.0
39.582,-0.097,5.118,52.0
39.636,-0.09,4.905,53.0
39.957,-0.083,4.72,39.0
40.308,-0.076,4.539,39.0
41.027,-0.069,4.394,40.0
39.536,-0.063,5.359,67.0
39.654,-0.056,5.155,61.0
39.641,-0.048,4.933,56.0
39.93,-0.04,4.743,43.0
40.068,-0.032,4.538,45.0
41.034,-0.025,4.422,44.0
39.618,-0.02,5.397,61.0
39.604,-0.013,5.174,45.0
39.503,-0.005,4.941,57.0
39.866,0.002,4.761,47.0
39.782,0.01,4.531,49.0
40.499,0.018,4.389,70.0
39.722,0.021,5.436,61.0
39.653,0.03,5.205,56.0
39.438,0.037,4.957,46.0
39.756,0.045,4.772,56.0
39.86,0.054,4.563,55.0
39.99,0.062,4.357,65.0
39.847,0.066,5.476,49.0
39.782,0.073,5.245,66.0
39.427,0.081,4.978,49.0
43.535,0.098,5.249,17.0
39.527,0.096,4.546,62.0
40.042,0.105,4.384,48.0
39.804,0.11,5.491,57.0
40.672,0.12,5.383,16.0
40.306,0.127,5.109,71.0
43.663,0.146,5.287,29.0
39.558,0.14,4.57,66.0
40.195,0.15,4.42,47.0
39.757,0.154,5.504,66.0
40.518,0.165,5.382,30.0
39.806,0.17,5.064,40.0
43.786,0.196,5.322,24.0
40.522,0.189,4.699,25.0
40.243,0.195,4.443,57.0
39.973,0.2,5.551,54.0
39.605,0.206,5.278,62.0
39.688,0.214,5.066,58.0
43.732,0.244,5.333,4.0
40.421,0.233,4.704,32.0
40.582,0.243,4.496,57.0
40.051,0.246,5.578,50.0
39.572,0.25,5.288,56.0
40.276,0.263,5.156,61.0
40.784,0.274,4.988,52.0
40.33,0.278,4.708,42.0
40.666,0.289,4.52,44.0
39.887,0.29,5.569,41.0
39.436,0.294,5.284,66.0
39.655,0.303,5.09,41.0
40.54,0.318,4.972,18.0
40.38,0.325,4.726,47.0
40.103,0.33,4.47,54.0
39.329,0.331,5.503,49.0
39.399,0.339,5.29,61.0
39.572,0.348,5.09,45.0
46.986,0.423,5.775,8.0
40.052,0.368,4.698,52.0
40.375,0.378,4.51,36.0
39.287,0.376,5.507,48.0
39.022,0.38,5.249,53.0
39.476,0.392,5.087,64.0
40.308,0.408,4.964,18.0
40.106,0.414,4.713,58.0
40.924,0.43,4.58,44.0
39.291,0.421,5.516,59.0
38.727,0.422,5.217,62.0
39.334,0.436,5.076,67.0
40.34,0.454,4.975,16.0
40.54,0.465,4.771,21.0
40.994,0.477,4.595,50.0
39.161,0.464,5.504,61.0
38.757,0.467,5.227,59.0
39.076,0.478,5.049,56.0
40.505,0.503,5.001,16.0
41.15,0.518,4.848,22.0
41.398,0.529,4.645,16.0
39.045,0.507,5.492,54.0
38.777,0.511,5.234,56.0
38.982,0.521,5.04,53.0
40.406,0.548,4.992,41.0
41.245,0.566,4.863,16.0
41.486,0.577,4.658,26.0
38.739,0.548,5.451,65.0
38.738,0.555,5.231,52.0
38.865,0.564,5.027,55.0
43.323,0.636,5.354,15.0
41.337,0.615,4.875,43.0
41.402,0.623,4.65,47.0
38.428,0.588,5.408,62.0
38.634,0.598,5.217,47.0
38.639,0.604,4.998,59.0
39.379,0.624,4.867,48.0
41.367,0.662,4.878,40.0
41.163,0.666,4.622,45.0
38.283,0.629,5.387,62.0
38.668,0.643,5.22,50.0
38.365,0.644,4.961,60.0
39.261,0.666,4.85,48.0
41.508,0.711,4.893,52.0
41.26,0.714,4.63,44.0
38.371,0.675,5.396,56.0
38.792,0.689,5.234,54.0
38.731,0.694,5.005,44.0
39.279,0.711,4.849,64.0
41.832,0.764,4.927,31.0
41.511,0.766,4.654,46.0
38.214,0.715,5.37,60.0
38.903,0.735,5.244,37.0
38.721,0.738,4.999,47.0
39.262,0.755,4.841,49.0
41.723,0.81,4.908,43.0
41.731,0.817,4.672,35.0
38.221,0.759,5.364,56.0
38.868,0.779,5.232,45.0
38.969,0.787,5.024,38.0
39.287,0.8,4.837,53.0
41.99,0.862,4.931,41.0
48.548,1.004,5.426,10.0
38.566,0.809,5.404,46.0
38.879,0.822,5.225,47.0
39.004,0.831,5.019,24.0
37.981,0.816,4.667,18.0
41.562,0.9,4.87,49.0
48.548,1.059,5.414,9.0
38.57,0.852,5.395,59.0
38.836,0.864,5.209,60.0
48.202,1.08,6.19,11.0
37.958,0.857,4.653,25.0
48.534,1.104,5.673,7.0
66.659,1.527,7.414,8.0
38.758,0.899,5.409,46.0
39.05,0.912,5.226,47.0
38.378,0.903,4.916,36.0
37.928,0.898,4.637,50.0
41.714,0.994,4.862,47.0
53.79,1.291,5.964,12.0
38.497,0.935,5.359,60.0
38.808,0.949,5.179,63.0
38.226,0.941,4.882,57.0
37.848,0.937,4.613,50.0
42.384,1.056,4.924,39.0
57.104,1.432,6.309,12.0
38.479,0.977,5.341,61.0
38.812,0.992,5.164,43.0
38.043,0.978,4.843,42.0
37.762,0.976,4.587,60.0
42.408,1.103,4.909,14.0
49.718,1.3,5.472,9.0
38.694,1.024,5.354,54.0
0.0,0.0,0.0,0.0
38.178,1.022,4.843,45.0
37.82,1.017,4.577,62.0
37.989,1.027,4.38,48.0
41.412,1.127,4.538,29.0
38.628,1.063,5.325,56.0
0.0,0.0,0.0,0.0
37.949,1.055,4.795,48.0
37.876,1.058,4.564,62.0
38.04,1.068,4.366,58.0
41.783,1.18,4.557,16.0
38.983,1.114,5.354,48.0
40.151,1.152,5.282,6.0
37.869,1.092,4.764,57.0
41.956,1.216,5.033,4.0
42.162,1.227,4.816,6.0
41.191,1.204,4.469,22.0
38.947,1.152,5.326,46.0
43.706,1.299,5.725,10.0
37.917,1.132,4.748,39.0
38.451,1.153,4.589,42.0
41.655,1.254,4.733,7.0
38.35,1.16,4.138,26.0
38.412,1.175,5.229,50.0
0.0,0.0,0.0,0.0
37.789,1.166,4.708,53.0
38.114,1.18,4.525,33.0
42.479,1.321,4.799,4.0
42.272,1.32,4.533,3.0
37.508,1.185,5.081,73.0
38.515,1.221,4.995,44.0
37.742,1.201,4.676,53.0
37.802,1.208,4.462,52.0
38.264,1.228,4.297,34.0
38.251,1.232,4.076,30.0
38.357,1.249,5.169,60.0
38.162,1.247,4.921,45.0
37.702,1.236,4.644,61.0
37.679,1.24,4.42,61.0
38.15,1.26,4.256,42.0
38.283,1.269,4.051,29.0
37.853,1.268,5.073,50.0
37.979,1.277,4.869,45.0
37.939,1.28,4.644,47.0
37.647,1.274,4.388,60.0
38.138,1.295,4.225,44.0
41.573,1.417,4.367,20.0
37.67,1.297,5.018,59.0
37.81,1.306,4.818,67.0
37.804,1.31,4.598,51.0
37.934,1.318,4.391,61.0
38.18,1.331,4.2,59.0
41.621,1.456,4.339,20.0
37.671,1.331,4.987,66.0
37.747,1.337,4.778,63.0
37.847,1.345,4.572,49.0
37.933,1.352,4.359,44.0
38.378,1.372,4.189,42.0
42.293,1.517,4.373,25.0
37.831,1.37,4.975,58.0
37.869,1.375,4.76,48.0
37.843,1.378,4.538,28.0
38.011,1.388,4.334,41.0
38.547,1.411,4.173,64.0
55.711,2.046,5.711,18.0
37.842,1.403,4.942,60.0
37.935,1.41,4.734,62.0
37.893,1.412,4.509,38.0
37.613,1.405,4.254,64.0
43.086,1.614,4.624,3.0
0.0,0.0,0.0,0.0
37.886,1.436,4.912,58.0
37.853,1.439,4.687,45.0
37.833,1.441,4.465,49.0
38.117,1.455,4.274,44.0
41.461,1.587,4.41,24.0
56.379,2.163,5.672,6.0
38.157,1.478,4.909,37.0
37.819,1.468,4.645,61.0
37.732,1.468,4.416,31.0
38.015,1.482,4.225,62.0
41.351,1.615,4.356,42.0
56.126,2.198,5.589,30.0
38.049,1.504,4.856,45.0
37.857,1.499,4.611,69.0
37.662,1.494,4.368,31.0
38.26,1.521,4.212,47.0
56.355,2.245,5.878,15.0
53.127,2.12,5.235,58.0
38.054,1.532,4.815,44.0
37.889,1.529,4.574,45.0
37.638,1.521,4.325,62.0
38.549,1.561,4.202,33.0
53.045,2.152,5.476,47.0
41.32,1.68,4.027,10.0
42.937,1.761,5.386,5.0
37.94,1.558,4.538,41.0
37.639,1.548,4.283,66.0
38.557,1.589,4.16,29.0
41.387,1.708,4.226,16.0
41.265,1.706,3.975,3.0
37.984,1.584,4.721,44.0
38.027,1.588,4.505,52.0
37.877,1.584,4.267,31.0
41.917,1.756,4.474,17.0
41.232,1.73,4.163,34.0
54.582,2.294,5.195,65.0
37.888,1.606,4.665,49.0
38.032,1.614,4.461,13.0
53.344,2.267,5.947,7.0
54.64,2.325,5.769,9.0
41.345,1.762,4.125,41.0
68.065,2.904,6.398,32.0
38.076,1.638,4.642,33.0
55.776,2.402,6.475,23.0
42.017,1.812,4.633,10.0
63.406,2.738,6.616,18.0
41.304,1.785,4.071,69.0
68.037,2.945,6.312,20.0
38.012,1.658,4.587,48.0
37.692,1.646,4.329,2.0
41.728,1.824,4.549,18.0
63.331,2.772,6.53,13.0
41.34,1.811,4.023,41.0
54.47,2.389,4.985,46.0
37.944,1.677,4.53,56.0
41.752,1.847,4.742,30.0
41.982,1.859,4.523,17.0
52.959,2.347,5.393,10.0
41.428,1.838,3.978,29.0
54.499,2.421,4.918,34.0
37.985,1.7,4.485,66.0
54.555,2.444,6.123,13.0
41.929,1.88,4.462,25.0
41.392,1.857,4.16,41.0
53.329,2.394,5.05,16.0
55.076,2.475,4.897,29.0
37.992,1.72,4.435,29.0
63.713,2.886,7.066,17.0
41.865,1.898,4.399,13.0
41.339,1.875,4.099,42.0
53.912,2.447,5.034,39.0
64.674,2.938,5.664,9.0
54.512,2.493,6.29,15.0
42.002,1.922,4.601,16.0
52.935,2.424,5.49,13.0
41.376,1.895,4.047,29.0
68.077,3.121,6.263,30.0
64.509,2.959,5.561,28.0
41.608,1.922,4.743,9.0
41.989,1.94,4.541,27.0
56.976,2.634,5.829,4.0
54.261,2.509,5.231,11.0
54.724,2.532,4.957,28.0
67.939,3.145,5.761,12.0
0.0,0.0,0.0,0.0
41.72,1.944,4.452,32.0
41.478,1.933,4.185,23.0
53.039,2.473,5.037,13.0
70.866,3.306,6.32,20.0
67.938,3.171,5.664,18.0
42.856,2.013,4.762,10.0
52.897,2.485,5.569,12.0
41.466,1.948,4.123,47.0
62.023,2.914,5.801,4.0
64.916,3.052,5.694,9.0
68.07,3.201,5.577,10.0
42.011,1.987,4.606,17.0
0.0,0.0,0.0,0.0
41.446,1.961,4.06,31.0
54.442,2.576,5.011,21.0
64.904,3.072,5.596,32.0
74.004,3.502,5.952,21.0
41.792,1.99,4.519,18.0
54.4,2.59,5.564,14.0
53.045,2.525,5.117,8.0
55.019,2.619,4.981,29.0
64.862,3.088,5.495,39.0
73.968,3.521,5.838,10.0
41.789,2.001,4.455,28.0
41.494,1.986,4.181,18.0
53.094,2.541,5.041,6.0
64.622,3.092,5.753,1.0
67.93,3.25,5.653,19.0
64.831,3.102,5.019,22.0
41.938,2.017,4.406,5.0
54.754,2.633,5.434,8.0
0.0,0.0,0.0,0.0
64.937,3.121,5.681,14.0
68.095,3.272,5.561,14.0
64.732,3.11,4.912,27.0
41.47,2.002,4.293,4.0
41.427,2.0,4.046,4.0
68.05,3.284,6.25,10.0
64.861,3.128,5.573,23.0
73.91,3.563,5.921,29.0
73.922,3.563,5.494,19.0
41.492,2.01,4.229,17.0
53.1,2.571,5.102,19.0
54.696,2.647,4.936,11.0
64.698,3.129,5.456,15.0
73.846,3.57,5.798,25.0
73.803,3.566,5.367,18.0
63.129,3.066,6.332,8.0
0.0,0.0,0.0,0.0
70.6,3.424,6.257,24.0
68.038,3.297,5.627,19.0
64.703,3.134,4.975,29.0
73.646,3.566,5.236,28.0
41.492,2.018,4.093,4.0
54.421,2.644,5.051,21.0
64.724,3.143,5.63,11.0
64.806,3.144,5.254,18.0
64.714,3.138,4.87,8.0
73.69,3.571,5.119,16.0
53.228,2.591,5.163,28.0
68.037,3.308,6.203,13.0
64.629,3.14,5.516,19.0
73.888,3.587,5.868,36.0
73.879,3.584,5.437,17.0
149.702,7.256,10.149,29.0
55.477,2.7,5.289,9.0
64.688,3.145,5.789,4.0
64.779,3.146,5.42,16.0
64.736,3.141,5.032,24.0
73.662,3.571,5.298,20.0
65.256,3.161,4.315,6.0
0.0,0.0,0.0,0.0
64.802,3.147,5.691,7.0
68.11,3.304,5.584,13.0
64.673,3.134,4.919,23.0
73.659,3.566,5.175,29.0
65.317,3.159,4.209,2.0
68.017,3.301,6.254,11.0
64.777,3.14,5.578,18.0
73.898,3.578,5.933,26.0
73.893,3.574,5.495,22.0
132.295,6.391,9.071,8.0
150.464,7.261,9.445,20.0
54.68,2.647,4.935,7.0
64.719,3.128,5.463,14.0
73.896,3.568,5.808,22.0
73.759,3.557,5.36,25.0
149.673,7.21,10.009,30.0
73.519,3.537,4.489,4.0
70.772,3.414,6.266,16.0
68.023,3.278,5.625,22.0
64.738,3.114,4.976,34.0
73.6,3.536,5.222,35.0
73.69,3.536,4.801,1.0
73.26,3.51,4.348,23.0
64.93,3.119,5.636,21.0
55.353,2.655,4.482,3.0
64.876,3.107,4.875,13.0
73.61,3.52,5.097,23.0
127.824,6.105,8.108,9.0
73.308,3.496,4.224,37.0
64.859,3.1,5.517,37.0
74.009,3.532,5.864,9.0
73.968,3.524,5.43,13.0
149.589,7.115,10.096,25.0
73.481,3.489,4.533,7.0
123.216,5.842,6.886,31.0
68.054,3.233,5.668,14.0
73.863,3.503,5.722,10.0
73.925,3.5,5.296,21.0
127.869,6.043,8.404,16.0
73.33,3.459,4.393,28.0
123.287,5.806,6.673,27.0
64.58,3.047,5.265,7.0
123.618,5.822,9.358,22.0
73.614,3.46,5.143,28.0
149.167,6.999,9.542,17.0
73.306,3.433,4.263,43.0
123.493,5.772,6.467,27.0
71.292,3.337,5.685,11.0
64.88,3.031,4.796,7.0
122.905,5.73,8.372,8.0
73.488,3.419,4.571,24.0
73.337,3.406,4.135,17.0
123.368,5.718,6.243,21.0
71.297,3.308,5.559,9.0
74.085,3.43,5.344,21.0
65.343,3.019,4.334,5.0
73.374,3.383,4.433,42.0
123.174,5.666,6.727,43.0
129.47,5.945,6.321,13.0
64.634,2.97,4.923,29.0
73.772,3.382,5.19,9.0
127.768,5.844,8.246,24.0
73.318,3.345,4.298,28.0
123.331,5.616,6.514,23.0
129.956,5.904,6.11,21.0
64.824,2.947,4.821,15.0
127.953,5.803,8.773,13.0
73.227,3.312,4.594,14.0
123.617,5.578,7.025,20.0
123.281,5.549,6.292,12.0
129.518,5.816,5.859,27.0
65.111,2.925,4.726,13.0
65.171,2.92,4.35,5.0
73.23,3.273,4.464,28.0
73.313,3.268,4.035,29.0
129.699,5.767,6.386,15.0
124.238,5.509,5.399,27.0
64.916,2.879,4.595,12.0
73.191,3.237,4.754,10.0
73.646,3.248,4.355,7.0
123.221,5.419,6.561,30.0
159.341,6.99,7.562,7.0
124.366,5.441,5.181,36.0
73.378,3.209,5.061,17.0
73.17,3.19,4.621,19.0
73.572,3.199,4.219,51.0
132.411,5.74,6.812,13.0
124.551,5.383,5.685,23.0
124.274,5.356,4.952,22.0
73.386,3.161,4.929,24.0
73.319,3.148,4.499,33.0
73.198,3.134,4.067,50.0
124.306,5.306,6.173,20.0
124.173,5.283,5.446,40.0
157.448,6.678,5.994,18.0
65.173,2.762,4.261,23.0
65.158,2.752,3.881,11.0
73.407,3.091,3.947,8.0
125.146,5.253,5.991,23.0
124.132,5.193,5.224,46.0
157.256,6.557,5.708,16.0
73.308,3.053,4.661,27.0
73.533,3.052,4.248,51.0
123.148,5.093,6.401,30.0
124.438,5.129,5.735,36.0
157.85,6.485,6.361,12.0
156.734,6.416,5.408,5.0
73.323,2.996,4.531,19.0
73.281,2.983,4.103,40.0
124.039,5.033,6.226,14.0
124.509,5.033,5.517,19.0
161.322,6.499,6.214,13.0
0.0,0.0,0.0,0.0
73.38,2.939,4.404,11.0
123.091,4.911,6.672,25.0
123.925,4.926,5.999,24.0
124.195,4.917,5.28,30.0
157.658,6.218,5.791,19.0
162.013,6.365,5.013,11.0
65.123,2.553,3.792,15.0
73.691,2.877,3.863,21.0
124.378,4.835,5.8,16.0
124.261,4.811,5.062,23.0
157.221,6.063,5.494,10.0
173.392,6.659,5.058,7.0
73.465,2.813,4.147,44.0
73.674,2.809,3.731,6.0
153.079,5.813,6.867,13.0
152.702,5.773,5.95,21.0
173.676,6.537,5.762,5.0
160.314,6.01,4.394,10.0
73.672,2.753,4.028,45.0
133.783,4.976,6.54,16.0
124.259,4.6,5.354,23.0
152.939,5.637,5.69,28.0
160.285,5.88,5.035,14.0
0.0,0.0,0.0,0.0
73.783,2.684,3.903,42.0
123.85,4.485,5.835,30.0
152.538,5.497,6.304,23.0
153.547,5.506,5.442,26.0
159.158,5.679,4.72,8.0
0.0,0.0,0.0,0.0
73.862,2.612,3.777,10.0
152.953,5.382,6.937,24.0
152.768,5.347,6.044,33.0
157.551,5.486,5.306,12.0
159.234,5.517,4.443,14.0
0.0,0.0,0.0,0.0
124.135,4.258,6.13,27.0
152.706,5.21,6.658,18.0
152.701,5.183,5.776,41.0
159.574,5.386,5.098,7.0
0.0,0.0,0.0,0.0
0.0,0.0,0.0,0.0
133.749,4.444,6.376,35.0
152.461,5.036,6.386,32.0
152.937,5.024,5.523,17.0
158.766,5.185,4.8,8.0
0.0,0.0,0.0,0.0
0.0,0.0,0.0,0.0
133.572,4.289,6.14,38.0
152.198,4.856,6.115,36.0
152.696,4.842,5.252,26.0
158.702,5.0,4.526,9.0
0.0,0.0,0.0,0.0
0.0,0.0,0.0,0.0
151.939,4.699,6.721,28.0
152.061,4.672,5.849,40.0
157.909,4.821,5.162,20.0
0.0,0.0,0.0,0.0
0.0,0.0,0.0,0.0
100.539,3.01,1.538,1.0
152.002,4.52,6.469,36.0
152.079,4.49,5.593,39.0
153.998,4.515,4.775,39.0
0.0,0.0,0.0,0.0
0.0,0.0,0.0,0.0
105.984,3.042,1.442,1.0
151.984,4.331,6.213,36.0
152.292,4.308,5.346,36.0
154.033,4.325,4.52,34.0
0.0,0.0,0.0,0.0
0.0,0.0,0.0,0.0
89.591,2.46,1.072,1.0
152.04,4.141,5.964,52.0
152.743,4.128,5.112,36.0
154.078,4.13,4.268,33.0
0.0,0.0,0.0,0.0
0.0,0.0,0.0,0.0
78.289,2.048,0.808,15.0
152.15,3.947,5.721,49.0
138.025,3.55,4.395,7.0
100.32,2.558,2.616,9.0
100.332,2.536,2.028,55.0
106.106,2.659,1.534,53.0
77.889,1.934,0.678,19.0
152.537,3.754,5.489,34.0
158.724,3.87,4.798,18.0
146.437,3.538,3.584,12.0
0.0,0.0,0.0,0.0
106.049,2.514,1.364,3.0
74.666,1.753,0.53,19.0
152.681,3.55,5.252,19.0
159.246,3.665,4.56,11.0
0.0,0.0,0.0,0.0
106.263,2.396,1.809,1.0
80.495,1.796,0.907,8.0
60.479,1.335,0.334,34.0
159.68,3.487,5.239,22.0
128.159,2.769,3.467,18.0
128.163,2.739,2.731,15.0
0.0,0.0,0.0,0.0
78.067,1.632,0.759,17.0
57.846,1.196,0.23,7.0
128.03,2.614,4.003,56.0
128.02,2.584,3.266,45.0
128.061,2.554,2.532,11.0
0.0,0.0,0.0,0.0
77.724,1.514,0.637,12.0
52.242,1.004,0.128,7.0
128.061,2.431,3.81,26.0
128.075,2.399,3.073,26.0
127.936,2.365,2.336,31.0
121.033,2.208,1.502,13.0
74.807,1.346,0.499,13.0
47.526,0.843,0.044,29.0
160.277,2.801,4.525,19.0
190.007,3.275,4.274,9.0
127.351,2.163,2.133,33.0
89.668,1.5,0.978,9.0
0.0,0.0,0.0,0.0
0.0,0.0,0.0,0.0
159.969,2.555,4.28,8.0
190.094,2.986,3.994,24.0
126.661,1.958,1.934,40.0
78.094,1.187,0.737,22.0
48.075,0.719,0.178,14.0
44.034,0.647,-0.088,4.0
176.471,2.544,4.462,31.0
190.129,2.691,3.716,25.0
126.344,1.754,1.744,20.0
0.0,0.0,0.0,0.0
47.977,0.641,0.107,54.0
38.82,0.509,-0.134,46.0
55.098,0.706,1.313,49.0
55.114,0.693,0.998,12.0
48.14,0.592,0.596,54.0
48.051,0.579,0.315,73.0
47.266,0.556,0.039,50.0
38.075,0.438,-0.186,39.0
48.163,0.54,1.08,72.0
48.116,0.527,0.804,97.0
48.096,0.514,0.528,104.0
48.026,0.501,0.248,91.0
0.0,0.0,0.0,0.0
37.698,0.373,-0.236,13.0
48.112,0.462,1.013,110.0
48.096,0.449,0.737,112.0
48.062,0.436,0.462,107.0
48.001,0.422,0.182,96.0
43.984,0.375,-0.084,6.0
37.517,0.309,-0.286,3.0
48.115,0.383,0.948,128.0
48.094,0.37,0.673,105.0
48.082,0.356,0.397,61.0
48.022,0.342,0.117,46.0
39.307,0.269,-0.128,45.0
33.704,0.221,-0.302,0.0
48.158,0.302,0.885,76.0
48.192,0.289,0.61,50.0
55.062,0.315,0.382,51.0
47.665,0.259,0.053,38.0
38.705,0.199,-0.177,38.0
32.83,0.159,-0.337,1.0
59.31,0.271,1.013,112.0
59.339,0.254,0.674,73.0
59.356,0.238,0.336,35.0
0.0,0.0,0.0,0.0
38.385,0.131,-0.225,13.0
31.308,0.098,-0.362,1.0
79.461,0.227,1.256,154.0
79.451,0.203,0.802,150.0
59.02,0.134,0.259,8.0
0.0,0.0,0.0,0.0
38.181,0.064,-0.271,4.0
30.285,0.042,-0.388,1.0
79.46,0.088,1.158,151.0
79.419,0.065,0.704,104.0
55.142,0.029,0.175,20.0
40.711,0.009,-0.107,17.0
38.003,-0.002,-0.316,2.0
29.568,-0.01,-0.415,2.0
79.466,-0.052,1.062,151.0
79.256,-0.075,0.607,16.0
0.0,0.0,0.0,0.0
39.888,-0.061,-0.152,23.0
33.052,-0.06,-0.314,1.0
28.921,-0.062,-0.44,2.0
79.47,-0.194,0.968,151.0
76.469,-0.209,0.496,13.0
0.0,0.0,0.0,0.0
39.264,-0.131,-0.195,8.0
32.104,-0.117,-0.342,1.0
28.11,-0.11,-0.46,1.0
79.466,-0.337,0.878,151.0
61.793,-0.281,0.331,6.0
46.656,-0.226,-0.015,21.0
39.654,-0.204,-0.242,3.0
30.91,-0.169,-0.365,1.0
27.318,-0.158,-0.478,2.0
79.467,-0.483,0.788,165.0
61.279,-0.392,0.259,15.0
45.191,-0.303,-0.065,4.0
40.025,-0.28,-0.289,4.0
30.235,-0.221,-0.39,2.0
26.755,-0.204,-0.497,3.0
79.443,-0.63,0.702,140.0
58.023,-0.477,0.184,4.0
50.516,-0.432,-0.126,8.0
36.579,-0.324,-0.303,1.0
29.573,-0.271,-0.413,2.0
26.147,-0.248,-0.514,2.0
78.926,-0.773,0.615,53.0
57.387,-0.58,0.121,4.0
47.27,-0.492,-0.167,2.0
33.495,-0.36,-0.312,1.0
28.991,-0.32,-0.435,3.0
25.572,-0.291,-0.528,1.0
78.554,-0.917,0.532,17.0
60.734,-0.728,0.067,7.0
42.535,-0.524,-0.194,3.0
32.554,-0.412,-0.336,2.0
28.277,-0.366,-0.452,1.0
25.099,-0.333,-0.544,1.0
78.71,-1.069,0.456,4.0
58.077,-0.807,0.007,1.0
0.0,0.0,0.0,0.0
31.434,-0.457,-0.355,1.0
27.69,-0.411,-0.469,1.0
24.515,-0.372,-0.555,1.0
0.0,0.0,0.0,0.0
51.755,-0.818,-0.041,0.0
40.135,-0.647,-0.259,6.0
30.581,-0.503,-0.374,1.0
27.092,-0.455,-0.484,1.0
23.951,-0.41,-0.564,1.0
40.281,-0.7,0.159,62.0
40.309,-0.714,-0.068,68.0
40.202,-0.725,-0.295,2.0
29.953,-0.55,-0.392,1.0
26.575,-0.497,-0.498,1.0
23.553,-0.448,-0.575,2.0
40.31,-0.779,0.124,45.0
46.777,-0.92,-0.12,1.0
0.0,0.0,0.0,0.0
29.53,-0.6,-0.412,1.0
26.142,-0.54,-0.513,1.0
23.078,-0.484,-0.583,2.0
68.205,-1.45,0.153,1.0
0.0,0.0,0.0,0.0
33.918,-0.744,-0.306,0.0
29.067,-0.647,-0.43,1.0
25.707,-0.581,-0.525,2.0
22.835,-0.524,-0.596,2.0
40.3,-0.936,0.058,150.0
40.305,-0.95,-0.169,150.0
33.085,-0.791,-0.325,1.0
28.47,-0.69,-0.443,1.0
25.321,-0.622,-0.537,1.0
22.46,-0.56,-0.603,2.0
0.0,0.0,0.0,0.0
40.9,-1.044,-0.202,77.0
32.586,-0.843,-0.345,1.0
28.147,-0.738,-0.46,1.0
24.93,-0.662,-0.547,1.0
22.098,-0.595,-0.61,1.0
40.24,-1.093,-0.002,63.0
40.564,-1.116,-0.23,15.0
31.726,-0.884,-0.359,1.0
27.611,-0.779,-0.471,1.0
24.535,-0.701,-0.556,1.0
21.803,-0.631,-0.617,2.0
40.223,-1.173,-0.03,52.0
40.167,-1.185,-0.256,12.0
31.082,-0.928,-0.373,1.0
27.195,-0.821,-0.482,1.0
24.109,-0.736,-0.563,1.0
21.519,-0.665,-0.624,1.0
0.0,0.0,0.0,0.0
40.229,-1.267,-0.282,4.0
30.539,-0.972,-0.386,1.0
26.851,-0.864,-0.493,2.0
23.75,-0.773,-0.569,2.0
21.228,-0.699,-0.628,1.0
0.0,0.0,0.0,0.0
38.023,-1.274,-0.29,0.0
30.072,-1.018,-0.398,1.0
26.56,-0.908,-0.503,1.0
23.471,-0.811,-0.577,2.0
20.992,-0.733,-0.634,1.0
52.466,-1.844,-0.136,0.0
40.05,-1.421,-0.328,0.0
29.722,-1.065,-0.41,1.0
26.251,-0.95,-0.512,1.0
23.268,-0.851,-0.585,2.0
20.763,-0.766,-0.638,1.0
40.139,-1.49,-0.125,151.0
37.784,-1.416,-0.33,4.0
29.475,-1.115,-0.422,2.0
25.974,-0.992,-0.52,1.0
23.087,-0.89,-0.592,2.0
20.525,-0.798,-0.641,1.0
37.798,-1.478,-0.136,161.0
37.647,-1.486,-0.347,0.0
29.234,-1.164,-0.433,1.0
25.723,-1.033,-0.528,1.0
22.874,-0.927,-0.597,1.0
20.409,-0.834,-0.647,1.0
37.767,-1.552,-0.154,2.0
33.891,-1.405,-0.328,0.0
28.803,-1.204,-0.439,1.0
25.445,-1.073,-0.533,1.0
22.591,-0.961,-0.6,1.0
20.207,-0.867,-0.65,1.0
0.0,0.0,0.0,0.0
33.882,-1.473,-0.342,3.0
28.634,-1.255,-0.449,1.0
25.243,-1.115,-0.539,1.0
22.429,-0.999,-0.604,1.0
20.045,-0.9,-0.652,1.0
0.0,0.0,0.0,0.0
33.557,-1.525,-0.351,9.0
28.428,-1.302,-0.456,1.0
25.092,-1.159,-0.545,1.0
22.22,-1.034,-0.607,1.0
19.968,-0.937,-0.657,1.0
41.835,-1.97,-0.219,0.0
33.282,-1.579,-0.359,9.0
28.418,-1.359,-0.465,7.0
24.917,-1.2,-0.55,1.0
22.116,-1.074,-0.611,1.0
19.858,-0.971,-0.66,1.0
0.0,0.0,0.0,0.0
32.355,-1.6,-0.359,1.0
28.297,-1.41,-0.472,7.0
24.78,-1.244,-0.554,1.0
21.973,-1.111,-0.613,1.0
19.745,-1.005,-0.661,1.0
0.0,0.0,0.0,0.0
32.164,-1.654,-0.365,1.0
28.176,-1.459,-0.477,7.0
24.3,-1.267,-0.549,5.0
21.856,-1.148,-0.616,1.0
19.666,-1.04,-0.663,1.0
40.687,-2.158,-0.245,0.0
32.094,-1.713,-0.371,1.0
27.815,-1.495,-0.477,2.0
24.236,-1.311,-0.553,5.0
21.881,-1.192,-0.621,6.0
19.586,-1.075,-0.665,1.0
41.106,-2.262,-0.255,0.0
32.004,-1.772,-0.376,1.0
27.628,-1.54,-0.479,1.0
24.183,-1.357,-0.556,5.0
21.692,-1.225,-0.619,5.0
19.562,-1.112,-0.667,1.0
0.0,0.0,0.0,0.0
31.8,-1.823,-0.379,1.0
27.569,-1.591,-0.481,1.0
24.092,-1.399,-0.557,3.0
21.689,-1.267,-0.622,4.0
19.457,-1.144,-0.666,7.0
40.336,-2.377,-0.261,0.0
31.789,-1.884,-0.382,1.0
27.509,-1.641,-0.483,2.0
24.288,-1.458,-0.564,1.0
21.676,-1.309,-0.623,4.0
19.431,-1.18,-0.666,3.0
0.0,0.0,0.0,0.0
31.683,-1.941,-0.383,1.0
27.421,-1.69,-0.483,2.0
24.275,-1.505,-0.565,1.0
21.463,-1.338,-0.618,1.0
19.431,-1.218,-0.667,3.0
40.422,-2.54,-0.266,0.0
31.79,-2.008,-0.385,1.0
27.443,-1.744,-0.484,2.0
24.234,-1.549,-0.564,1.0
21.309,-1.37,-0.614,0.0
19.425,-1.256,-0.667,2.0
40.69,-2.636,-0.268,1.0
31.992,-2.083,-0.387,1.0
27.504,-1.801,-0.485,2.0
24.323,-1.601,-0.566,1.0
21.695,-1.436,-0.624,0.0
19.361,-1.288,-0.664,1.0
40.465,-2.698,-0.265,1.0
32.055,-2.148,-0.387,1.0
27.499,-1.853,-0.483,1.0
24.367,-1.65,-0.565,1.0
21.756,-1.481,-0.625,0.0
19.48,-1.333,-0.667,0.0
40.439,-2.772,-0.261,0.0
32.139,-2.214,-0.385,1.0
27.558,-1.908,-0.482,1.0
24.465,-1.703,-0.565,1.0
21.743,-1.521,-0.622,0.0
19.559,-1.376,-0.668,0.0
40.548,-2.855,-0.257,0.0
32.441,-2.296,-0.384,1.0
27.756,-1.974,-0.482,1.0
24.566,-1.756,-0.564,1.0
21.823,-1.568,-0.621,1.0
19.613,-1.416,-0.667,0.0
40.55,-2.931,-0.251,0.0
32.345,-2.349,-0.378,1.0
27.915,-2.037,-0.48,1.0
24.665,-1.809,-0.562,1.0
21.866,-1.612,-0.619,1.0
19.699,-1.459,-0.666,0.0
40.508,-3.003,-0.243,0.0
32.844,-2.446,-0.378,1.0
28.17,-2.108,-0.479,1.0
24.788,-1.864,-0.56,1.0
22.017,-1.663,-0.618,1.0
19.776,-1.501,-0.664,0.0
41.652,-3.165,-0.24,0.0
33.005,-2.519,-0.371,1.0
28.191,-2.161,-0.472,1.0
24.925,-1.92,-0.557,1.0
22.109,-1.711,-0.615,1.0
19.843,-1.542,-0.661,0.0
0.0,0.0,0.0,0.0
33.299,-2.602,-0.366,1.0
28.505,-2.237,-0.469,1.0
25.093,-1.978,-0.554,1.0
22.224,-1.759,-0.612,1.0
19.997,-1.59,-0.661,0.0
0.0,0.0,0.0,0.0
34.243,-2.736,-0.366,1.0
28.748,-2.307,-0.465,1.0
25.3,-2.039,-0.55,1.0
22.387,-1.812,-0.609,1.0
20.178,-1.64,-0.66,0.0
0.0,0.0,0.0,0.0
34.657,-2.83,-0.358,1.0
29.027,-2.38,-0.459,1.0
25.44,-2.095,-0.544,1.0
22.574,-1.866,-0.607,1.0
20.246,-1.681,-0.655,0.0
45.452,-3.775,-0.205,0.0
35.422,-2.954,-0.353,0.0
29.262,-2.45,-0.452,1.0
25.704,-2.16,-0.54,1.0
22.778,-1.922,-0.603,1.0
20.422,-1.73,-0.652,0.0
0.0,0.0,0.0,0.0
35.379,-3.011,-0.338,0.0
29.537,-2.523,-0.444,1.0
25.843,-2.216,-0.532,1.0
22.985,-1.979,-0.599,1.0
20.616,-1.782,-0.65,1.0
50.355,-4.355,-0.185,0.0
37.297,-3.237,-0.34,0.0
29.906,-2.606,-0.436,1.0
26.099,-2.282,-0.525,1.0
23.258,-2.042,-0.595,1.0
20.786,-1.832,-0.645,1.0
50.43,-4.445,-0.161,4.0
37.211,-3.292,-0.321,0.0
30.94,-2.747,-0.436,3.0
26.463,-2.358,-0.52,1.0
23.464,-2.099,-0.589,1.0
21.04,-1.889,-0.643,1.0
50.417,-4.527,-0.135,7.0
39.496,-3.559,-0.321,0.0
31.12,-2.814,-0.423,3.0
26.805,-2.432,-0.512,1.0
23.759,-2.163,-0.584,1.0
21.242,-1.941,-0.638,1.0
50.471,-4.613,-0.108,7.0
40.102,-3.677,-0.305,0.0
31.609,-2.908,-0.412,1.0
27.234,-2.514,-0.506,1.0
24.069,-2.23,-0.578,1.0
21.464,-1.996,-0.632,1.0
50.533,-4.698,-0.08,0.0
0.0,0.0,0.0,0.0
32.362,-3.028,-0.403,1.0
27.636,-2.595,-0.497,1.0
24.505,-2.308,-0.574,1.0
21.724,-2.053,-0.627,1.0
0.0,0.0,0.0,0.0
41.506,-3.935,-0.266,0.0
32.966,-3.136,-0.391,1.0
28.12,-2.683,-0.489,1.0
24.844,-2.378,-0.567,1.0
22.011,-2.114,-0.622,1.0
0.0,0.0,0.0,0.0
0.0,0.0,0.0,0.0
33.662,-3.253,-0.377,0.0
28.594,-2.772,-0.479,1.0
25.137,-2.445,-0.557,2.0
22.296,-2.175,-0.615,1.0
0.0,0.0,0.0,0.0
44.721,-4.375,-0.229,0.0
34.141,-3.35,-0.36,0.0
29.137,-2.868,-0.468,1.0
25.553,-2.522,-0.549,1.0
22.685,-2.246,-0.61,1.0
0.0,0.0,0.0,0.0
45.1,-4.478,-0.2,0.0
37.42,-3.726,-0.368,0.0
29.63,-2.959,-0.455,1.0
26.041,-2.608,-0.541,1.0
23.329,-2.343,-0.611,5.0
0.0,0.0,0.0,0.0
50.379,-5.074,-0.186,2.0
0.0,0.0,0.0,0.0
30.262,-3.065,-0.443,1.0
26.433,-2.684,-0.53,1.0
23.489,-2.392,-0.598,15.0
0.0,0.0,0.0,0.0
50.169,-5.122,-0.149,0.0
0.0,0.0,0.0,0.0
31.151,-3.198,-0.432,1.0
26.917,-2.77,-0.519,1.0
23.686,-2.444,-0.585,26.0
0.0,0.0,0.0,0.0
50.279,-5.201,-0.109,0.0
40.187,-4.168,-0.305,1.0
32.137,-3.342,-0.421,1.0
27.448,-2.861,-0.507,1.0
23.873,-2.495,-0.57,23.0
0.0,0.0,0.0,0.0
0.0,0.0,0.0,0.0
41.548,-4.363,-0.282,0.0
32.91,-3.465,-0.404,1.0
28.067,-2.963,-0.496,1.0
24.233,-2.564,-0.559,5.0
0.0,0.0,0.0,0.0
0.0,0.0,0.0,0.0
41.932,-4.457,-0.249,0.0
34.368,-3.662,-0.393,0.0
28.723,-3.068,-0.484,1.0
25.246,-2.703,-0.561,1.0
79.734,-8.536,0.452,2.0
0.0,0.0,0.0,0.0
0.0,0.0,0.0,0.0
34.764,-3.747,-0.368,0.0
29.461,-3.183,-0.471,1.0
25.75,-2.789,-0.55,1.0
87.364,-9.46,0.571,3.0
0.0,0.0,0.0,0.0
0.0,0.0,0.0,0.0
0.0,0.0,0.0,0.0
30.045,-3.282,-0.453,1.0
26.265,-2.875,-0.538,1.0
87.325,-9.559,0.65,10.0
0.0,0.0,0.0,0.0
0.0,0.0,0.0,0.0
39.311,-4.33,-0.345,0.0
31.115,-3.435,-0.441,1.0
26.804,-2.965,-0.524,1.0
87.119,-9.636,0.729,11.0
73.27,-8.121,0.219,2.0
0.0,0.0,0.0,0.0
39.744,-4.423,-0.312,0.0
32.335,-3.605,-0.428,1.0
27.49,-3.072,-0.511,1.0
86.249,-9.636,0.803,19.0
0.0,0.0,0.0,0.0
0.0,0.0,0.0,0.0
41.184,-4.627,-0.285,0.0
33.27,-3.745,-0.408,1.0
28.256,-3.187,-0.499,1.0
86.238,-9.726,0.885,57.0
0.0,0.0,0.0,0.0
0.0,0.0,0.0,0.0
44.842,-5.085,-0.266,0.0
35.638,-4.049,-0.403,0.0
29.043,-3.306,-0.484,1.0
86.235,-9.815,0.971,150.0
87.375,-9.962,0.515,1.0
0.0,0.0,0.0,0.0
45.419,-5.196,-0.224,0.0
35.68,-4.089,-0.368,0.0
29.822,-3.424,-0.467,1.0
86.244,-9.9,1.057,164.0
87.261,-10.034,0.601,7.0
0.0,0.0,0.0,0.0
50.392,-5.813,-0.199,3.0
38.836,-4.487,-0.361,0.0
30.764,-3.561,-0.451,1.0
86.245,-9.981,1.143,165.0
87.26,-10.114,0.689,63.0
0.0,0.0,0.0,0.0
50.453,-5.866,-0.147,8.0
39.204,-4.565,-0.325,0.0
32.273,-3.764,-0.44,0.0
86.255,-10.06,1.233,158.0
86.295,-10.079,0.77,14.0
0.0,0.0,0.0,0.0
50.465,-5.911,-0.095,2.0
41.352,-4.851,-0.3,0.0
32.935,-3.869,-0.415,0.0
86.222,-10.129,1.323,55.0
86.2,-10.14,0.86,39.0
0.0,0.0,0.0,0.0
0.0,0.0,0.0,0.0
44.488,-5.255,-0.275,0.0
36.284,-4.292,-0.418,1.0
86.243,-10.202,1.415,45.0
86.19,-10.209,0.952,50.0
96.708,-11.469,0.55,8.0
0.0,0.0,0.0,0.0
0.0,0.0,0.0,0.0
37.037,-4.41,-0.388,1.0
86.29,-10.274,1.508,43.0
86.23,-10.279,1.045,47.0
87.505,-10.443,0.592,11.0
0.0,0.0,0.0,0.0
50.221,-6.008,-0.202,0.0
37.611,-4.505,-0.353,0.0
86.303,-10.338,1.602,32.0
86.261,-10.344,1.141,61.0
86.609,-10.397,0.681,8.0
0.0,0.0,0.0,0.0
50.381,-6.062,-0.148,1.0
39.543,-4.764,-0.327,0.0
86.363,-10.405,1.7,3.0
86.245,-10.401,1.235,62.0
86.249,-10.412,0.773,150.0
0.0,0.0,0.0,0.0
0.0,0.0,0.0,0.0
41.496,-5.026,-0.297,0.0
86.698,-10.5,1.803,0.0
86.257,-10.456,1.332,46.0
86.269,-10.467,0.87,181.0
87.004,-10.566,0.403,4.0
0.0,0.0,0.0,0.0
0.0,0.0,0.0,0.0
203.055,-24.713,4.447,39.0
86.355,-10.518,1.43,31.0
86.3,-10.52,0.966,164.0
86.773,-10.587,0.499,1.0
0.0,0.0,0.0,0.0
0.0,0.0,0.0,0.0
203.013,-24.819,4.675,50.0
86.401,-10.57,1.527,36.0
86.318,-10.568,1.064,66.0
86.673,-10.62,0.596,3.0
0.0,0.0,0.0,0.0
50.335,-6.177,-0.192,2.0
203.159,-24.938,4.91,27.0
86.446,-10.618,1.626,9.0
86.338,-10.611,1.162,63.0
86.357,-10.621,0.691,12.0
0.0,0.0,0.0,0.0
50.451,-6.214,-0.135,1.0
210.064,-25.88,5.314,28.0
203.11,-25.037,4.052,23.0
86.332,-10.648,1.26,49.0
86.376,-10.66,0.789,163.0
0.0,0.0,0.0,0.0
0.0,0.0,0.0,0.0
203.615,-25.168,5.383,38.0
203.175,-25.126,4.284,25.0
86.356,-10.684,1.359,21.0
86.398,-10.695,0.889,154.0
0.0,0.0,0.0,0.0
0.0,0.0,0.0,0.0
203.558,-25.235,5.618,49.0
203.213,-25.203,4.521,11.0
201.26,-24.971,3.399,26.0
86.415,-10.727,0.989,38.0
99.226,-12.323,0.605,1.0
0.0,0.0,0.0,0.0
203.446,-25.287,5.848,50.0
207.892,-25.847,4.866,18.0
201.248,-25.03,3.634,60.0
86.399,-10.75,1.088,17.0
99.551,-12.391,0.722,12.0
0.0,0.0,0.0,0.0
203.411,-25.338,6.085,47.0
99.672,-12.418,2.448,7.0
201.272,-25.083,3.867,17.0
99.72,-12.431,1.372,8.0
99.712,-12.434,0.838,36.0
0.0,0.0,0.0,0.0
203.237,-25.362,6.318,24.0
99.652,-12.437,2.563,12.0
99.659,-12.44,2.03,13.0
99.718,-12.45,1.488,16.0
99.727,-12.454,0.954,44.0
91.031,-11.372,0.384,4.0
99.59,-12.446,3.21,15.0
99.608,-12.449,2.677,14.0
99.634,-12.453,2.145,28.0
99.692,-12.462,1.603,30.0
99.741,-12.47,1.07,51.0
91.172,-11.401,0.491,5.0
99.587,-12.459,3.325,19.0
99.587,-12.458,2.792,17.0
99.62,-12.462,2.261,55.0
99.667,-12.469,1.718,48.0
99.737,-12.479,1.186,55.0
99.355,-12.432,0.65,13.0
99.576,-12.466,3.441,18.0
99.607,-12.468,2.908,20.0
99.62,-12.469,2.375,68.0
99.638,-12.471,1.831,53.0
99.704,-12.479,1.299,56.0
99.597,-12.466,0.766,37.0
99.54,-12.465,3.555,22.0
99.582,-12.468,3.022,37.0
99.597,-12.468,2.489,61.0
99.642,-12.472,1.947,51.0
99.705,-12.479,1.413,50.0
99.71,-12.479,0.881,45.0
99.538,-12.464,3.668,32.0
99.558,-12.463,3.135,37.0
99.591,-12.465,2.603,39.0
99.621,-12.466,2.059,46.0
99.725,-12.477,1.527,41.0
99.735,-12.476,0.994,46.0
99.516,-12.456,3.781,53.0
99.534,-12.454,3.247,21.0
99.59,-12.457,2.715,17.0
99.641,-12.46,2.173,42.0
99.68,-12.462,1.64,24.0
99.751,-12.468,1.107,36.0
99.521,-12.447,3.895,68.0
99.513,-12.441,3.361,7.0
203.519,-25.433,5.782,31.0
99.639,-12.447,2.286,31.0
99.68,-12.448,1.753,15.0
99.756,-12.454,1.221,16.0
99.491,-12.429,4.007,61.0
205.122,-25.612,7.159,16.0
203.342,-25.377,6.006,40.0
99.609,-12.425,2.399,15.0
201.254,-25.095,3.767,23.0
86.414,-10.771,1.154,11.0
99.453,-12.405,4.117,51.0
205.062,-25.563,7.389,24.0
203.235,-25.321,6.23,34.0
203.683,-25.363,5.131,18.0
207.515,-25.828,4.115,12.0
86.409,-10.75,1.249,14.0
99.461,-12.382,4.228,29.0
204.79,-25.479,7.604,27.0
203.32,-25.279,6.46,14.0
203.724,-25.314,5.359,38.0
203.185,-25.233,4.253,10.0
86.378,-10.721,1.344,12.0
99.497,-12.359,4.339,6.0
99.534,-12.354,3.806,13.0
205.078,-25.436,6.738,34.0
203.488,-25.221,5.573,52.0
203.203,-25.169,4.475,21.0
86.392,-10.694,1.44,12.0
209.938,-26.008,9.385,15.0
99.479,-12.313,3.912,29.0
205.166,-25.374,6.968,39.0
203.356,-25.131,5.791,52.0
203.278,-25.103,4.698,20.0
86.433,-10.666,1.533,15.0
148.25,-18.31,6.789,4.0
99.407,-12.266,4.017,44.0
204.964,-25.269,7.181,38.0
203.241,-25.035,6.005,50.0
203.254,-25.016,4.916,27.0
86.474,-10.634,1.627,4.0
91.374,-11.246,4.282,13.0
99.296,-12.21,4.118,44.0
204.651,-25.14,7.386,43.0
203.186,-24.937,6.22,40.0
203.084,-24.903,5.122,26.0
203.103,-24.883,4.034,29.0
91.355,-11.202,4.376,22.0
99.147,-12.145,4.215,42.0
204.489,-25.022,7.593,40.0
203.221,-24.842,6.429,47.0
188.15,-22.977,4.94,17.0
202.975,-24.764,4.238,36.0
91.319,-11.151,4.469,34.0
98.991,-12.075,4.31,57.0
204.421,-24.907,7.798,36.0
203.259,-24.738,6.638,39.0
189.671,-23.06,5.173,17.0
203.043,-24.66,4.445,31.0
91.277,-11.096,4.561,43.0
98.954,-12.014,4.409,88.0
204.041,-24.743,7.993,24.0
203.52,-24.65,6.855,28.0
189.62,-22.941,5.365,25.0
188.284,-22.755,4.312,17.0
100.508,-12.158,5.122,20.0
98.954,-11.954,4.509,21.0
99.83,-12.045,4.008,8.0
203.723,-24.548,7.063,38.0
189.458,-22.801,5.546,22.0
188.15,-22.618,4.492,33.0
91.319,-10.988,4.744,13.0
99.277,-11.928,4.621,17.0
99.79,-11.974,4.105,19.0
203.561,-24.393,7.254,40.0
203.241,-24.322,6.148,14.0
188.323,-22.509,4.679,38.0
108.237,-12.95,5.726,13.0
100.367,-11.99,4.768,54.0
99.831,-11.909,4.202,38.0
203.686,-24.264,7.451,31.0
188.685,-22.446,5.885,13.0
188.617,-22.408,4.863,29.0
108.332,-12.884,5.833,18.0
100.402,-11.922,4.862,47.0
116.261,-13.783,5.002,24.0
203.955,-24.144,7.649,26.0
190.826,-22.557,6.125,14.0
188.642,-22.267,5.036,39.0
106.6,-12.595,5.839,3.0
100.544,-11.86,4.963,25.0
116.29,-13.696,5.109,15.0
204.026,-23.991,7.838,36.0
189.777,-22.281,6.264,26.0
188.442,-22.09,5.201,40.0
106.594,-12.508,5.934,18.0
100.748,-11.802,5.062,22.0
99.325,-11.616,4.451,19.0
116.503,-13.602,4.578,46.0
189.602,-22.102,6.424,23.0
188.256,-21.91,5.359,33.0
106.714,-12.433,6.033,7.0
98.669,-11.474,5.043,28.0
99.381,-11.537,4.54,51.0
116.554,-13.507,4.681,29.0
189.429,-21.915,6.579,27.0
188.225,-21.739,5.519,29.0
99.304,-11.482,5.699,4.0
98.606,-11.38,5.122,44.0
99.345,-11.444,4.621,65.0
115.541,-13.285,4.735,40.0
115.944,-13.309,4.121,53.0
115.902,-13.28,3.491,67.0
86.094,-9.875,5.012,5.0
98.551,-11.281,5.2,39.0
99.327,-11.349,4.7,71.0
115.531,-13.175,4.827,27.0
115.949,-13.197,4.216,67.0
115.912,-13.17,3.583,41.0
101.038,-11.492,5.962,31.0
98.488,-11.18,5.274,50.0
99.37,-11.257,4.78,81.0
107.718,-12.179,4.585,13.0
116.035,-13.093,4.308,23.0
107.351,-12.091,3.401,49.0
86.061,-9.703,5.144,12.0
98.456,-11.077,5.347,67.0
99.547,-11.176,4.864,95.0
105.96,-11.871,4.589,30.0
106.509,-11.909,4.034,44.0
107.334,-11.978,3.48,59.0
98.291,-10.98,5.947,20.0
90.65,-10.104,4.99,11.0
99.335,-11.048,4.926,58.0
105.731,-11.734,4.656,47.0
106.415,-11.785,4.106,59.0
107.313,-11.86,3.557,62.0
98.249,-10.87,6.016,42.0
90.524,-9.993,5.047,7.0
99.27,-10.933,4.992,26.0
105.821,-11.628,4.734,14.0
124.222,-13.62,4.88,21.0
107.321,-11.741,3.631,33.0
100.254,-10.979,6.207,3.0
108.851,-11.892,6.144,4.0
99.257,-10.818,5.059,26.0
105.623,-11.485,4.797,17.0
107.646,-11.679,4.3,42.0
107.341,-11.62,3.702,38.0
98.15,-10.636,6.141,13.0
100.291,-10.841,5.726,57.0
99.242,-10.701,5.123,38.0
108.133,-11.631,4.98,48.0
107.515,-11.538,4.363,78.0
107.357,-11.495,3.77,46.0
100.301,-10.75,6.339,15.0
86.204,-9.216,4.974,1.0
99.248,-10.585,5.183,33.0
115.288,-12.264,5.378,19.0
107.47,-11.405,4.425,108.0
107.369,-11.368,3.833,23.0
99.185,-10.512,6.326,17.0
99.276,-10.493,5.787,19.0
99.151,-10.453,5.236,42.0
116.295,-12.23,5.49,11.0
107.153,-11.241,4.471,77.0
122.895,-12.86,4.456,9.0
81.576,-8.544,5.248,8.0
86.297,-9.015,5.077,4.0
99.155,-10.33,5.29,32.0
107.159,-11.135,5.117,46.0
106.707,-11.059,4.51,70.0
148.42,-15.342,5.459,41.0
81.526,-8.436,5.288,9.0
105.103,-10.844,6.239,11.0
99.206,-10.208,5.342,26.0
107.779,-11.06,5.202,33.0
106.562,-10.906,4.557,24.0
124.449,-12.703,4.639,18.0
89.47,-9.141,5.847,2.0
86.266,-8.789,5.162,9.0
99.222,-10.08,5.39,34.0
122.386,-12.399,5.963,23.0
123.17,-12.445,5.324,15.0
148.072,-14.919,5.587,38.0
86.841,-8.757,5.715,2.0
99.459,-10.0,5.996,30.0
99.216,-9.947,5.433,36.0
106.741,-10.671,5.248,39.0
123.193,-12.281,5.378,35.0
189.743,-18.861,7.239,15.0
84.084,-8.365,5.568,21.0
99.165,-9.835,6.02,21.0
85.399,-8.445,4.712,23.0
124.186,-12.244,6.154,22.0
123.172,-12.108,5.426,24.0
148.094,-14.517,5.708,20.0
98.923,-9.704,6.589,16.0
99.108,-9.692,6.053,13.0
107.089,-10.44,5.949,17.0
108.042,-10.501,5.393,12.0
123.117,-11.931,5.467,15.0
150.815,-14.573,5.865,23.0
84.786,-8.198,5.676,14.0
99.2,-9.561,6.093,9.0
124.853,-11.996,6.977,9.0
115.646,-11.076,5.811,22.0
122.925,-11.737,5.499,35.0
204.874,-19.503,8.033,29.0
98.825,-9.415,6.647,12.0
99.199,-9.419,6.123,11.0
108.093,-10.229,6.073,57.0
106.296,-10.026,5.373,51.0
122.812,-11.548,5.528,17.0
157.383,-14.753,6.215,35.0
98.744,-9.262,6.669,9.0
106.841,-9.987,6.623,19.0
106.224,-9.895,5.995,32.0
106.316,-9.871,5.401,14.0
147.531,-13.654,6.677,29.0
148.362,-13.686,5.894,48.0
86.401,-7.975,5.856,9.0
106.175,-9.766,6.606,20.0
124.144,-11.381,7.034,19.0
106.421,-9.722,5.43,12.0
158.739,-14.454,7.218,9.0
148.574,-13.484,5.934,23.0
86.431,-7.848,5.875,2.0
106.137,-9.604,6.624,9.0
122.278,-11.025,6.952,12.0
106.441,-9.564,5.449,8.0
106.374,-9.525,4.855,2.0
204.673,-18.264,8.209,23.0
97.85,-8.736,6.667,9.0
106.086,-9.436,6.637,16.0
122.502,-10.857,6.983,9.0
105.803,-9.344,5.432,10.0
148.531,-13.071,6.8,19.0
166.047,-14.56,6.682,28.0
87.292,-7.657,5.959,4.0
106.053,-9.268,6.648,8.0
122.449,-10.662,6.993,9.0
146.267,-12.688,7.525,5.0
159.104,-13.751,7.3,4.0
205.251,-17.677,8.276,7.0
100.704,-8.676,6.883,5.0
115.272,-9.892,7.235,5.0
122.427,-10.467,7.0,7.0
148.541,-12.651,7.652,15.0
166.89,-14.162,7.667,12.0
158.23,-13.377,6.388,18.0
107.984,-9.131,7.386,16.0
121.662,-10.247,7.641,2.0
108.498,-9.103,6.207,10.0
148.406,-12.403,7.649,7.0
163.736,-13.631,7.526,7.0
150.065,-12.445,6.061,33.0
108.692,-9.015,7.434,6.0
116.979,-9.664,7.346,3.0
108.597,-8.936,6.212,6.0
150.782,-12.358,7.767,22.0
158.735,-12.96,7.292,11.0
163.782,-13.321,6.61,46.0
108.847,-8.852,7.44,13.0
106.526,-8.628,6.685,3.0
106.456,-8.587,6.085,6.0
156.192,-12.547,8.038,4.0
149.566,-11.967,6.862,18.0
158.036,-12.594,6.368,39.0
108.757,-8.666,7.426,7.0
115.391,-9.154,7.232,4.0
106.387,-8.405,6.072,2.0
163.139,-12.835,8.38,6.0
156.42,-12.256,7.159,14.0
157.88,-12.321,6.343,8.0
108.84,-8.493,7.419,5.0
106.578,-8.28,6.666,3.0
146.818,-11.356,8.359,11.0
148.577,-11.444,7.612,11.0
158.014,-12.119,7.21,26.0
165.571,-12.646,6.628,36.0
117.412,-8.965,7.985,4.0
155.452,-11.817,9.698,14.0
146.732,-11.104,8.329,5.0
146.771,-11.06,7.494,3.0
157.908,-11.848,7.176,6.0
194.909,-14.561,7.766,32.0
149.143,-11.136,10.113,13.0
0.0,0.0,0.0,0.0
148.345,-10.977,8.39,8.0
157.727,-11.618,8.018,4.0
156.25,-11.457,7.065,10.0
197.478,-14.416,7.824,19.0
206.924,-15.095,13.982,7.0
206.741,-15.013,12.803,11.0
148.379,-10.726,8.355,3.0
148.782,-10.707,7.525,9.0
156.159,-11.188,7.02,6.0
195.011,-13.908,7.673,17.0
207.129,-14.762,13.937,13.0
0.0,0.0,0.0,0.0
156.799,-11.07,8.783,8.0
148.592,-10.44,7.471,13.0
156.041,-10.913,6.967,3.0
195.277,-13.594,7.623,8.0
150.717,-10.483,10.093,11.0
162.856,-11.272,9.986,11.0
0.0,0.0,0.0,0.0
165.251,-11.329,8.252,7.0
197.717,-13.49,8.76,8.0
205.179,-13.934,7.938,21.0
148.346,-10.063,9.88,12.0
156.798,-10.582,9.556,5.0
0.0,0.0,0.0,0.0
164.68,-11.005,8.161,4.0
194.35,-12.924,8.536,7.0
204.213,-13.515,7.818,29.0
210.01,-13.883,13.902,16.0
210.103,-13.817,12.719,15.0
213.015,-13.939,11.69,11.0
157.559,-10.257,7.742,5.0
204.803,-13.268,8.907,16.0
208.648,-13.448,7.898,22.0
0.0,0.0,0.0,0.0
163.494,-10.469,9.824,4.0
147.965,-9.424,8.053,3.0
149.964,-9.503,7.298,14.0
222.672,-14.037,9.58,7.0
237.146,-14.875,8.864,7.0
0.0,0.0,0.0,0.0
0.0,0.0,0.0,0.0
147.796,-9.157,7.97,9.0
0.0,0.0,0.0,0.0
0.0,0.0,0.0,0.0
227.757,-13.891,8.396,24.0
0.0,0.0,0.0,0.0
0.0,0.0,0.0,0.0
164.537,-9.908,8.784,4.0
0.0,0.0,0.0,0.0
211.898,-12.622,8.89,8.0
212.531,-12.59,7.714,9.0
0.0,0.0,0.0,0.0
0.0,0.0,0.0,0.0
164.696,-9.63,8.697,4.0
211.659,-12.309,9.954,10.0
0.0,0.0,0.0,0.0
244.202,-14.045,8.718,10.0
0.0,0.0,0.0,0.0
0.0,0.0,0.0,0.0
0.0,0.0,0.0,0.0
0.0,0.0,0.0,0.0
0.0,0.0,0.0,0.0
0.0,0.0,0.0,0.0
0.0,0.0,0.0,0.0
0.0,0.0,0.0,0.0
0.0,0.0,0.0,0.0
0.0,0.0,0.0,0.0
211.74,-11.507,8.481,6.0
0.0,0.0,0.0,0.0
0.0,0.0,0.0,0.0
0.0,0.0,0.0,0.0
0.0,0.0,0.0,0.0
0.0,0.0,0.0,0.0
0.0,0.0,0.0,0.0
0.0,0.0,0.0,0.0
0.0,0.0,0.0,0.0
0.0,0.0,0.0,0.0
226.942,-11.682,11.358,7.0
0.0,0.0,0.0,0.0
0.0,0.0,0.0,0.0
0.0,0.0,0.0,0.0
0.0,0.0,0.0,0.0
0.0,0.0,0.0,0.0
211.806,-10.466,9.205,6.0
0.0,0.0,0.0,0.0
0.0,0.0,0.0,0.0
0.0,0.0,0.0,0.0
0.0,0.0,0.0,0.0
0.0,0.0,0.0,0.0
0.0,0.0,0.0,0.0
0.0,0.0,0.0,0.0
83.294,-3.906,4.914,1.0
0.0,0.0,0.0,0.0
0.0,0.0,0.0,0.0
0.0,0.0,0.0,0.0
0.0,0.0,0.0,0.0
0.0,0.0,0.0,0.0
83.287,-3.762,4.839,2.0
0.0,0.0,0.0,0.0
0.0,0.0,0.0,0.0
0.0,0.0,0.0,0.0
0.0,0.0,0.0,0.0
0.0,0.0,0.0,0.0
0.0,0.0,0.0,0.0
0.0,0.0,0.0,0.0
0.0,0.0,0.0,0.0
0.0,0.0,0.0,0.0
0.0,0.0,0.0,0.0
0.0,0.0,0.0,0.0
0.0,0.0,0.0,0.0
0.0,0.0,0.0,0.0
0.0,0.0,0.0,0.0
0.0,0.0,0.0,0.0
0.0,0.0,0.0,0.0
0.0,0.0,0.0,0.0
0.0,0.0,0.0,0.0
0.0,0.0,0.0,0.0
0.0,0.0,0.0,0.0
0.0,0.0,0.0,0.0
0.0,0.0,0.0,0.0
0.0,0.0,0.0,0.0
0.0,0.0,0.0,0.0
0.0,0.0,0.0,0.0
0.0,0.0,0.0,0.0
0.0,0.0,0.0,0.0
0.0,0.0,0.0,0.0
0.0,0.0,0.0,0.0
0.0,0.0,0.0,0.0
0.0,0.0,0.0,0.0
0.0,0.0,0.0,0.0
0.0,0.0,0.0,0.0
0.0,0.0,0.0,0.0
0.0,0.0,0.0,0.0
0.0,0.0,0.0,0.0
0.0,0.0,0.0,0.0
0.0,0.0,0.0,0.0
0.0,0.0,0.0,0.0
0.0,0.0,0.0,0.0
0.0,0.0,0.0,0.0
0.0,0.0,0.0,0.0
0.0,0.0,0.0,0.0
148.153,-4.855,5.817,3.0
0.0,0.0,0.0,0.0
0.0,0.0,0.0,0.0
40.329,-1.287,0.885,21.0
0.0,0.0,0.0,0.0
0.0,0.0,0.0,0.0
0.0,0.0,0.0,0.0
0.0,0.0,0.0,0.0
40.297,-1.232,1.067,31.0
40.324,-1.221,0.836,24.0
0.0,0.0,0.0,0.0
148.064,-4.412,6.304,13.0
0.0,0.0,0.0,0.0
40.291,-1.178,1.248,3.0
40.347,-1.168,1.017,32.0
122.625,-3.517,2.389,83.0
128.878,-3.669,6.066,9.0
129.203,-3.642,5.336,29.0
40.245,-1.123,1.43,29.0
40.242,-1.112,1.194,35.0
40.196,-1.1,0.962,54.0
40.215,-1.089,0.731,40.0
128.932,-3.464,5.899,47.0
40.243,-1.07,1.609,4.0
40.198,-1.058,1.376,55.0
40.205,-1.047,1.141,49.0
40.185,-1.035,0.908,53.0
40.205,-1.026,0.678,65.0
128.821,-3.257,5.72,48.0
40.226,-1.006,1.554,28.0
40.246,-0.996,1.323,61.0
40.197,-0.984,1.086,58.0
40.179,-0.973,0.854,58.0
40.299,-0.965,0.625,133.0
129.355,-3.069,5.567,30.0
40.29,-0.944,1.501,6.0
40.272,-0.934,1.268,33.0
40.194,-0.921,1.03,59.0
40.205,-0.911,0.798,57.0
40.268,-0.902,0.568,48.0
191.565,-4.249,7.975,21.0
185.594,-4.066,6.653,52.0
40.248,-0.871,1.21,37.0
40.208,-0.86,0.973,56.0
40.24,-0.851,0.742,60.0
40.229,-0.84,0.51,61.0
148.699,-3.07,5.974,4.0
184.924,-3.772,6.363,43.0
40.281,-0.81,1.153,55.0
40.217,-0.799,0.915,43.0
40.163,-0.787,0.681,49.0
40.234,-0.779,0.45,37.0
188.447,-3.605,7.289,15.0
184.601,-3.484,6.075,46.0
40.256,-0.75,1.092,45.0
40.186,-0.738,0.854,42.0
205.388,-3.725,3.182,90.0
40.27,-0.72,0.391,41.0
185.842,-3.283,6.913,14.0
151.443,-2.638,4.758,92.0
183.472,-3.15,4.703,28.0
0.0,0.0,0.0,0.0
205.399,-3.427,2.873,58.0
99.8,-1.641,0.82,1.0
184.864,-2.999,6.595,26.0
151.456,-2.419,4.526,107.0
187.085,-2.944,4.509,21.0
187.131,-2.897,3.408,73.0
148.382,-2.263,1.846,11.0
87.843,-1.319,0.586,1.0
151.437,-2.238,5.163,8.0
86.881,-1.263,2.46,5.0
86.926,-1.243,1.958,29.0
86.948,-1.222,1.446,130.0
86.949,-1.201,0.943,141.0
78.32,-1.064,0.398,3.0
109.56,-1.464,3.56,9.0
79.595,-1.045,2.125,1.0
79.443,-1.024,1.661,11.0
79.433,-1.005,1.193,173.0
79.414,-0.987,0.734,4.0
79.263,-0.967,0.275,1.0
79.432,-0.951,2.451,151.0
79.436,-0.933,1.992,167.0
79.431,-0.914,1.531,212.0
79.45,-0.896,1.063,167.0
79.092,-0.875,0.602,41.0
57.607,-0.624,0.105,4.0
79.438,-0.843,2.321,151.0
79.426,-0.826,1.861,191.0
79.433,-0.808,1.401,196.0
79.446,-0.791,0.933,175.0
77.425,-0.754,0.461,12.0
52.367,-0.498,0.009,4.0
79.436,-0.739,2.189,151.0
79.434,-0.721,1.728,187.0
79.444,-0.704,1.268,189.0
79.446,-0.686,0.799,169.0
61.278,-0.516,0.261,7.0
47.696,-0.391,-0.072,5.0
79.433,-0.634,2.052,159.0
79.433,-0.618,1.592,180.0
79.455,-0.601,1.133,177.0
79.408,-0.584,0.663,148.0
52.897,-0.378,0.135,6.0
42.038,-0.292,-0.135,2.0
79.43,-0.535,1.917,178.0
79.441,-0.518,1.456,179.0
79.455,-0.5,0.994,168.0
76.795,-0.468,0.509,14.0
48.701,-0.287,0.04,15.0
39.708,-0.226,-0.196,6.0
79.44,-0.435,1.777,185.0
79.44,-0.419,1.316,175.0
79.458,-0.403,0.856,164.0
61.569,-0.299,0.299,7.0
45.259,-0.211,-0.041,19.0
39.178,-0.175,-0.263,4.0
79.423,-0.338,1.636,255.0
79.452,-0.323,1.176,153.0
79.453,-0.308,0.715,150.0
56.045,-0.206,0.174,20.0
41.635,-0.144,-0.112,18.0
37.103,-0.121,-0.315,1.0
79.441,-0.244,1.494,172.0
79.467,-0.23,1.034,152.0
79.183,-0.213,0.57,12.0
51.229,-0.128,0.066,5.0
39.733,-0.091,-0.179,15.0
32.76,-0.069,-0.337,1.0
79.453,-0.153,1.349,152.0
79.466,-0.137,0.887,155.0
76.065,-0.117,0.407,11.0
45.355,-0.061,-0.024,20.0
38.674,-0.045,-0.245,9.0
30.87,-0.03,-0.375,1.0
79.458,-0.063,1.202,151.0
79.447,-0.049,0.742,150.0
56.017,-0.024,0.196,20.0
43.742,-0.011,-0.104,3.0
37.999,-0.002,-0.311,2.0
29.686,0.003,-0.415,2.0
79.458,0.022,1.055,151.0
79.356,0.037,0.592,9.0
48.087,0.03,0.08,5.0
39.311,0.032,-0.167,35.0
33.063,0.032,-0.332,1.0
28.653,0.033,-0.454,2.0
79.465,0.106,0.906,151.0
75.815,0.115,0.424,9.0
0.0,0.0,0.0,0.0
38.448,0.071,-0.235,14.0
31.133,0.063,-0.371,1.0
27.289,0.06,-0.484,2.0
79.448,0.187,0.757,150.0
55.129,0.139,0.204,24.0
43.824,0.118,-0.092,3.0
37.83,0.108,-0.302,2.0
29.8,0.09,-0.412,1.0
26.348,0.084,-0.517,2.0
76.732,0.256,0.585,57.0
54.281,0.19,0.097,27.0
39.16,0.143,-0.157,48.0
33.157,0.127,-0.329,1.0
28.658,0.114,-0.451,2.0
