X,Y,Z,Reflectivity
157.531,-13.276,4.863,53.0
122.559,-10.329,7.21,9.0
106.595,-8.947,5.678,2.0
163.763,-13.69,7.812,13.0
149.833,-12.475,6.299,36.0
163.998,-13.599,5.982,24.0
157.319,-12.995,4.866,47.0
108.644,-8.973,6.398,8.0
148.28,-12.195,7.905,3.0
150.58,-12.332,7.188,11.0
150.21,-12.251,6.318,27.0
157.9,-12.825,5.765,43.0
164.677,-13.323,5.096,72.0
108.645,-8.789,6.398,5.0
148.311,-11.946,7.907,9.0
149.665,-12.003,7.144,22.0
163.375,-13.048,6.871,29.0
156.871,-12.476,5.723,52.0
212.936,-16.866,6.585,17.0
151.005,-11.958,8.888,5.0
148.318,-11.691,7.901,3.0
149.497,-11.734,7.13,15.0
156.757,-12.25,6.585,40.0
165.157,-12.852,6.017,33.0
196.732,-15.243,6.07,22.0
149.425,-11.575,8.785,8.0
155.202,-11.967,8.256,6.0
157.856,-12.117,7.514,14.0
165.411,-12.642,6.934,32.0
164.265,-12.498,5.969,40.0
213.375,-16.162,6.563,9.0
157.832,-11.948,9.261,5.0
149.916,-11.298,7.958,5.0
157.976,-11.852,7.501,20.0
194.704,-14.542,8.135,16.0
164.505,-12.23,5.956,19.0
196.233,-14.525,6.008,54.0
147.661,-10.922,8.642,10.0
157.727,-11.613,8.347,4.0
157.953,-11.574,7.474,15.0
205.878,-15.016,8.568,13.0
195.12,-14.165,7.03,39.0
204.859,-14.805,6.235,28.0
148.409,-10.718,8.657,11.0
163.277,-11.734,8.609,5.0
157.682,-11.278,7.429,4.0
195.026,-13.884,8.075,18.0
196.151,-13.897,7.025,23.0
204.682,-14.434,6.184,36.0
156.941,-11.058,9.118,7.0
164.496,-11.533,8.634,19.0
158.211,-11.036,7.416,7.0
195.172,-13.546,8.033,13.0
203.81,-14.078,7.245,26.0
208.434,-14.327,6.243,32.0
157.104,-10.788,9.085,11.0
147.53,-10.081,7.703,9.0
149.818,-10.184,6.98,4.0
203.298,-13.749,8.309,9.0
208.443,-14.027,7.348,26.0
208.893,-13.986,6.192,40.0
210.08,-14.048,12.084,8.0
148.186,-9.857,7.689,4.0
150.116,-9.932,6.944,3.0
205.119,-13.5,8.314,21.0
208.435,-13.649,7.278,42.0
248.313,-16.179,7.276,154.0
148.457,-9.659,8.485,4.0
148.253,-9.595,7.639,15.0
156.618,-10.081,7.187,4.0
205.664,-13.169,8.259,6.0
227.742,-14.508,7.867,11.0
244.407,-15.486,7.069,47.0
0.0,0.0,0.0,0.0
149.258,-9.391,7.631,5.0
197.263,-12.344,8.973,7.0
0.0,0.0,0.0,0.0
227.955,-14.111,7.779,7.0
263.511,-16.222,7.51,80.0
147.864,-9.088,8.329,5.0
149.892,-9.16,7.598,6.0
0.0,0.0,0.0,0.0
227.457,-13.747,8.941,7.0
212.377,-12.765,7.151,10.0
272.1,-16.263,7.629,60.0
163.365,-9.744,9.124,6.0
150.168,-8.906,7.539,8.0
211.838,-12.49,9.438,9.0
0.0,0.0,0.0,0.0
0.0,0.0,0.0,0.0
0.0,0.0,0.0,0.0
211.58,-12.236,11.708,14.0
211.593,-12.164,10.511,11.0
212.478,-12.142,9.355,6.0
244.367,-13.883,9.353,14.0
278.665,-15.737,9.091,11.0
0.0,0.0,0.0,0.0
0.0,0.0,0.0,0.0
0.0,0.0,0.0,0.0
0.0,0.0,0.0,0.0
0.0,0.0,0.0,0.0
0.0,0.0,0.0,0.0
0.0,0.0,0.0,0.0
211.204,-11.297,9.048,6.0
0.0,0.0,0.0,0.0
0.0,0.0,0.0,0.0
0.0,0.0,0.0,0.0
0.0,0.0,0.0,0.0
0.0,0.0,0.0,0.0
0.0,0.0,0.0,0.0
0.0,0.0,0.0,0.0
0.0,0.0,0.0,0.0
0.0,0.0,0.0,0.0
0.0,0.0,0.0,0.0
0.0,0.0,0.0,0.0
0.0,0.0,0.0,0.0
0.0,0.0,0.0,0.0
0.0,0.0,0.0,0.0
0.0,0.0,0.0,0.0
0.0,0.0,0.0,0.0
0.0,0.0,0.0,0.0
0.0,0.0,0.0,0.0
0.0,0.0,0.0,0.0
0.0,0.0,0.0,0.0
0.0,0.0,0.0,0.0
0.0,0.0,0.0,0.0
0.0,0.0,0.0,0.0
0.0,0.0,0.0,0.0
0.0,0.0,0.0,0.0
0.0,0.0,0.0,0.0
0.0,0.0,0.0,0.0
0.0,0.0,0.0,0.0
0.0,0.0,0.0,0.0
0.0,0.0,0.0,0.0
0.0,0.0,0.0,0.0
0.0,0.0,0.0,0.0
0.0,0.0,0.0,0.0
0.0,0.0,0.0,0.0
0.0,0.0,0.0,0.0
0.0,0.0,0.0,0.0
0.0,0.0,0.0,0.0
0.0,0.0,0.0,0.0
0.0,0.0,0.0,0.0
0.0,0.0,0.0,0.0
0.0,0.0,0.0,0.0
0.0,0.0,0.0,0.0
0.0,0.0,0.0,0.0
0.0,0.0,0.0,0.0
0.0,0.0,0.0,0.0
0.0,0.0,0.0,0.0
0.0,0.0,0.0,0.0
0.0,0.0,0.0,0.0
0.0,0.0,0.0,0.0
0.0,0.0,0.0,0.0
0.0,0.0,0.0,0.0
0.0,0.0,0.0,0.0
0.0,0.0,0.0,0.0
0.0,0.0,0.0,0.0
0.0,0.0,0.0,0.0
0.0,0.0,0.0,0.0
0.0,0.0,0.0,0.0
0.0,0.0,0.0,0.0
0.0,0.0,0.0,0.0
0.0,0.0,0.0,0.0
0.0,0.0,0.0,0.0
0.0,0.0,0.0,0.0
0.0,0.0,0.0,0.0
0.0,0.0,0.0,0.0
0.0,0.0,0.0,0.0
0.0,0.0,0.0,0.0
0.0,0.0,0.0,0.0
0.0,0.0,0.0,0.0
0.0,0.0,0.0,0.0
40.305,-1.276,1.073,21.0
40.306,-1.264,0.842,26.0
40.346,-1.253,0.613,62.0
148.195,-4.571,6.341,15.0
0.0,0.0,0.0,0.0
0.0,0.0,0.0,0.0
40.303,-1.207,1.028,27.0
40.342,-1.195,0.798,4.0
153.74,-4.511,2.163,28.0
148.201,-4.316,6.172,8.0
0.0,0.0,0.0,0.0
40.252,-1.148,1.214,27.0
40.235,-1.135,0.979,40.0
40.274,-1.125,0.75,33.0
40.224,-1.111,0.519,41.0
129.234,-3.54,5.228,23.0
40.215,-1.09,1.396,47.0
40.218,-1.078,1.166,42.0
40.18,-1.065,0.93,55.0
40.21,-1.054,0.7,62.0
40.209,-1.042,0.47,60.0
40.22,-1.033,1.578,11.0
40.222,-1.021,1.347,61.0
40.206,-1.009,1.116,53.0
40.175,-0.997,0.881,55.0
40.211,-0.986,0.651,57.0
40.32,-0.977,0.422,150.0
40.249,-0.966,1.529,22.0
40.282,-0.955,1.299,30.0
40.199,-0.942,1.066,59.0
40.194,-0.93,0.831,57.0
40.307,-0.921,0.602,26.0
40.215,-0.908,0.37,0.0
185.57,-4.144,6.811,51.0
40.27,-0.888,1.247,31.0
40.212,-0.875,1.014,58.0
40.207,-0.864,0.779,51.0
40.247,-0.853,0.548,59.0
40.268,-0.842,0.318,37.0
184.779,-3.823,6.54,48.0
40.285,-0.822,1.194,55.0
40.241,-0.809,0.961,45.0
40.171,-0.797,0.725,48.0
40.246,-0.787,0.495,39.0
40.255,-0.777,0.264,57.0
184.532,-3.516,6.282,53.0
40.283,-0.756,1.139,47.0
40.201,-0.744,0.906,48.0
40.182,-0.732,0.67,14.0
40.262,-0.723,0.44,30.0
40.266,-0.712,0.209,48.0
151.434,-2.644,4.947,89.0
151.439,-2.603,4.076,53.0
248.354,-4.201,5.254,45.0
205.38,-3.421,3.145,79.0
123.814,-2.028,1.183,9.0
248.313,-4.003,0.945,10.0
151.451,-2.404,4.733,97.0
187.127,-2.92,4.771,39.0
187.115,-2.869,3.692,31.0
183.405,-2.764,2.545,11.0
87.935,-1.301,0.713,10.0
183.409,-2.669,0.435,13.0
86.937,-1.243,2.591,66.0
86.947,-1.22,2.09,52.0
86.943,-1.198,1.59,121.0
86.981,-1.176,1.081,63.0
78.962,-1.047,0.526,25.0
60.675,-0.789,0.055,6.0
79.392,-1.013,2.249,10.0
79.427,-0.992,1.792,150.0
79.418,-0.972,1.334,255.0
79.461,-0.952,0.869,150.0
77.769,-0.912,0.402,6.0
53.556,-0.614,-0.031,4.0
79.433,-0.892,2.13,153.0
79.424,-0.872,1.672,202.0
79.443,-0.851,1.214,194.0
79.459,-0.832,0.748,154.0
61.182,-0.625,0.223,1.0
50.821,-0.506,-0.107,16.0
79.438,-0.772,2.007,155.0
79.44,-0.752,1.548,182.0
79.444,-0.732,1.09,188.0
79.223,-0.712,0.623,59.0
57.714,-0.504,0.121,2.0
47.395,-0.403,-0.173,21.0
79.435,-0.656,1.884,191.0
79.443,-0.636,1.425,176.0
79.452,-0.617,0.966,189.0
76.968,-0.58,0.485,14.0
52.25,-0.38,0.027,6.0
42.145,-0.297,-0.221,7.0
79.426,-0.54,1.756,204.0
79.451,-0.521,1.297,171.0
79.449,-0.502,0.839,188.0
61.566,-0.374,0.288,8.0
46.551,-0.272,-0.05,20.0
39.546,-0.222,-0.271,3.0
79.429,-0.427,1.628,192.0
79.454,-0.409,1.169,158.0
79.471,-0.39,0.71,150.0
56.034,-0.262,0.172,18.0
42.365,-0.189,-0.114,16.0
37.232,-0.157,-0.315,0.0
79.407,-0.318,1.498,255.0
79.457,-0.3,1.04,151.0
79.213,-0.281,0.579,25.0
0.0,0.0,0.0,0.0
40.135,-0.124,-0.174,15.0
32.725,-0.093,-0.331,1.0
79.454,-0.211,1.367,153.0
79.463,-0.192,0.907,153.0
76.208,-0.167,0.429,12.0
46.29,-0.091,-0.011,21.0
38.987,-0.068,-0.234,14.0
31.097,-0.047,-0.367,1.0
79.459,-0.103,1.231,151.0
79.437,-0.087,0.772,150.0
61.562,-0.053,0.242,10.0
0.0,0.0,0.0,0.0
38.316,-0.016,-0.296,3.0
29.928,-0.006,-0.404,2.0
79.466,0.0,1.096,151.0
79.354,0.016,0.634,30.0
0.0,0.0,0.0,0.0
39.807,0.025,-0.145,30.0
33.345,0.028,-0.315,0.0
29.078,0.03,-0.442,2.0
79.459,0.099,0.959,151.0
76.026,0.11,0.478,15.0
47.191,0.078,0.023,21.0
38.737,0.072,-0.208,14.0
31.835,0.066,-0.356,1.0
27.901,0.063,-0.473,2.0
79.467,0.197,0.82,150.0
59.172,0.159,0.268,10.0
0.0,0.0,0.0,0.0
37.901,0.117,-0.27,13.0
30.3,0.099,-0.391,1.0
26.811,0.093,-0.502,2.0
77.097,0.284,0.66,19.0
54.521,0.211,0.151,29.0
39.79,0.162,-0.12,23.0
37.61,0.161,-0.335,1.0
29.289,0.131,-0.43,2.0
25.952,0.121,-0.532,2.0
55.102,0.268,0.372,44.0
47.612,0.24,0.046,36.0
38.636,0.202,-0.185,36.0
32.214,0.175,-0.345,1.0
28.156,0.158,-0.464,1.0
24.813,0.144,-0.553,1.0
48.183,0.289,0.239,62.0
44.696,0.276,-0.036,21.0
37.799,0.241,-0.25,10.0
30.508,0.2,-0.382,2.0
27.008,0.182,-0.494,1.0
23.876,0.165,-0.575,3.0
48.048,0.342,0.15,80.0
39.618,0.289,-0.105,31.0
37.499,0.28,-0.317,1.0
29.466,0.225,-0.423,2.0
26.09,0.204,-0.526,2.0
22.036,0.176,-0.572,3.0
47.662,0.39,0.061,55.0
38.462,0.322,-0.173,46.0
32.684,0.279,-0.336,1.0
28.273,0.246,-0.458,1.0
21.995,0.195,-0.484,2.0
21.228,0.192,-0.59,4.0
0.0,0.0,0.0,0.0
37.625,0.354,-0.239,13.0
30.732,0.294,-0.374,1.0
27.049,0.263,-0.489,1.0
21.247,0.211,-0.507,4.0
20.395,0.206,-0.606,4.0
39.503,0.405,-0.097,32.0
37.273,0.388,-0.308,2.0
29.54,0.313,-0.416,1.0
26.082,0.28,-0.521,3.0
20.385,0.222,-0.525,3.0
19.743,0.218,-0.623,5.0
38.238,0.429,-0.166,48.0
32.754,0.373,-0.333,1.0
28.49,0.329,-0.455,1.0
22.03,0.258,-0.482,4.0
19.647,0.233,-0.544,5.0
19.158,0.23,-0.642,3.0
37.547,0.457,-0.235,13.0
30.822,0.38,-0.372,1.0
27.057,0.338,-0.484,1.0
21.105,0.267,-0.502,4.0
18.969,0.243,-0.562,4.0
18.576,0.24,-0.658,4.0
37.081,0.485,-0.304,2.0
29.552,0.391,-0.414,2.0
26.252,0.351,-0.52,1.0
20.234,0.274,-0.52,3.0
18.353,0.251,-0.579,4.0
18.054,0.25,-0.674,3.0
32.594,0.454,-0.33,1.0
28.374,0.4,-0.452,1.0
21.834,0.311,-0.475,4.0
19.448,0.28,-0.538,3.0
17.775,0.258,-0.595,4.0
17.626,0.258,-0.693,2.0
30.714,0.454,-0.371,2.0
27.097,0.404,-0.485,2.0
21.141,0.318,-0.501,4.0
18.715,0.284,-0.554,4.0
17.273,0.265,-0.612,3.0
17.214,0.266,-0.71,2.0
29.446,0.458,-0.413,2.0
26.249,0.412,-0.521,1.0
20.173,0.319,-0.518,3.0
18.051,0.288,-0.57,3.0
16.844,0.271,-0.63,4.0
16.908,0.275,-0.731,2.0
28.226,0.461,-0.451,1.0
21.763,0.358,-0.474,4.0
19.427,0.322,-0.536,3.0
17.458,0.292,-0.585,2.0
16.569,0.279,-0.652,4.0
16.403,0.278,-0.741,2.0
27.029,0.461,-0.485,2.0
20.842,0.358,-0.495,4.0
18.691,0.323,-0.553,5.0
16.784,0.292,-0.596,2.0
16.278,0.285,-0.672,2.0
16.115,0.284,-0.76,2.0
22.696,0.402,-0.451,1.0
19.911,0.355,-0.512,10.0
17.967,0.322,-0.566,3.0
16.284,0.294,-0.61,3.0
16.076,0.292,-0.695,2.0
15.921,0.291,-0.782,1.0
21.659,0.398,-0.474,4.0
19.173,0.354,-0.531,9.0
17.367,0.323,-0.582,2.0
15.942,0.298,-0.628,4.0
15.885,0.299,-0.719,2.0
15.242,0.288,-0.779,1.0
20.768,0.394,-0.495,4.0
18.635,0.355,-0.553,10.0
16.703,0.32,-0.592,2.0
15.755,0.304,-0.652,2.0
15.734,0.305,-0.743,1.0
15.65,0.305,-0.831,1.0
19.875,0.388,-0.514,4.0
17.894,0.351,-0.566,3.0
16.122,0.318,-0.604,3.0
15.589,0.309,-0.677,2.0
15.55,0.31,-0.766,1.0
15.57,0.312,-0.858,0.0
19.014,0.381,-0.529,8.0
17.232,0.347,-0.58,2.0
15.656,0.317,-0.618,3.0
15.386,0.313,-0.699,2.0
15.224,0.311,-0.78,0.0
0.0,0.0,0.0,0.0
18.427,0.378,-0.549,7.0
16.655,0.343,-0.593,3.0
15.346,0.318,-0.636,3.0
15.241,0.317,-0.722,1.0
15.254,0.319,-0.812,0.0
13.6,0.285,-0.803,0.0
17.81,0.374,-0.566,6.0
16.051,0.338,-0.604,3.0
15.152,0.32,-0.658,3.0
15.067,0.32,-0.744,1.0
15.12,0.322,-0.834,0.0
13.292,0.285,-0.811,0.0
17.162,0.367,-0.579,2.0
15.551,0.334,-0.615,3.0
14.997,0.323,-0.681,3.0
14.975,0.324,-0.769,1.0
14.581,0.316,-0.833,0.0
12.984,0.283,-0.818,0.0
16.576,0.361,-0.592,2.0
15.182,0.331,-0.63,3.0
14.859,0.325,-0.704,3.0
14.912,0.328,-0.795,0.0
13.603,0.3,-0.804,0.0
12.674,0.28,-0.824,0.0
16.005,0.353,-0.603,3.0
14.909,0.33,-0.649,4.0
14.756,0.328,-0.728,2.0
14.773,0.329,-0.816,0.0
13.274,0.297,-0.811,0.0
12.397,0.278,-0.83,0.0
15.506,0.347,-0.615,3.0
14.739,0.331,-0.67,4.0
14.685,0.33,-0.753,1.0
14.478,0.327,-0.829,0.0
12.957,0.293,-0.817,0.0
12.157,0.276,-0.838,0.0
15.105,0.342,-0.629,4.0
14.604,0.331,-0.693,5.0
14.643,0.333,-0.78,0.0
13.614,0.31,-0.806,0.0
12.644,0.289,-0.822,0.0
11.888,0.272,-0.843,0.0
14.787,0.338,-0.644,5.0
14.514,0.332,-0.717,5.0
14.615,0.335,-0.807,0.0
13.252,0.305,-0.81,0.0
12.406,0.286,-0.831,0.0
11.636,0.269,-0.848,0.0
14.584,0.335,-0.664,5.0
14.464,0.333,-0.742,2.0
14.392,0.333,-0.823,0.0
12.942,0.3,-0.817,0.0
12.132,0.281,-0.836,0.0
11.361,0.264,-0.85,0.0
14.506,0.336,-0.688,5.0
14.49,0.336,-0.772,1.0
13.682,0.318,-0.808,0.0
12.648,0.294,-0.822,0.0
11.898,0.277,-0.843,0.0
11.143,0.26,-0.855,0.0
14.405,0.335,-0.711,5.0
14.502,0.338,-0.8,0.0
13.243,0.309,-0.808,0.0
12.39,0.289,-0.83,0.0
11.635,0.272,-0.847,0.0
10.909,0.255,-0.858,0.0
14.401,0.335,-0.738,3.0
14.325,0.334,-0.818,0.0
12.961,0.303,-0.816,0.0
12.133,0.284,-0.836,0.0
11.351,0.266,-0.848,0.0
10.612,0.249,-0.855,1.0
14.431,0.336,-0.767,1.0
13.703,0.32,-0.808,0.0
12.654,0.296,-0.82,0.0
11.883,0.278,-0.841,0.0
11.135,0.261,-0.853,0.0
10.425,0.244,-0.86,6.0
14.514,0.338,-0.799,0.0
13.275,0.309,-0.808,0.0
12.417,0.29,-0.828,0.0
11.633,0.272,-0.845,0.0
10.915,0.255,-0.857,0.0
10.322,0.241,-0.871,2.0
14.357,0.333,-0.817,0.0
12.954,0.301,-0.813,0.0
12.151,0.283,-0.833,0.0
11.372,0.265,-0.847,0.0
10.628,0.248,-0.854,0.0
10.141,0.236,-0.874,0.0
13.726,0.318,-0.806,0.0
12.68,0.293,-0.819,0.0
11.92,0.276,-0.839,0.0
11.156,0.258,-0.852,0.0
10.433,0.242,-0.858,6.0
9.968,0.231,-0.878,0.0
13.313,0.306,-0.807,0.0
12.421,0.286,-0.825,0.0
11.665,0.268,-0.843,0.0
10.931,0.251,-0.855,0.0
10.336,0.238,-0.869,3.0
9.795,0.226,-0.881,0.0
13.015,0.297,-0.812,0.0
12.214,0.279,-0.833,0.0
11.45,0.261,-0.848,0.0
10.693,0.244,-0.855,0.0
10.178,0.232,-0.874,0.0
9.64,0.22,-0.884,0.0
12.747,0.288,-0.818,0.0
11.965,0.271,-0.838,0.0
11.192,0.253,-0.849,0.0
10.413,0.235,-0.852,4.0
9.996,0.226,-0.876,0.0
9.456,0.214,-0.884,0.0
12.479,0.279,-0.823,0.0
11.705,0.262,-0.841,0.0
10.999,0.246,-0.854,0.0
10.349,0.231,-0.865,3.0
9.832,0.219,-0.879,0.0
9.347,0.209,-0.891,0.0
12.228,0.27,-0.828,0.0
11.476,0.253,-0.844,0.0
10.785,0.238,-0.856,0.0
10.207,0.225,-0.871,0.0
9.678,0.213,-0.883,0.0
9.187,0.202,-0.892,0.0
12.015,0.262,-0.835,0.0
11.27,0.245,-0.849,0.0
10.459,0.227,-0.849,2.0
10.02,0.217,-0.873,0.0
9.523,0.207,-0.885,0.0
9.029,0.196,-0.892,0.0
11.782,0.252,-0.839,0.0
11.056,0.237,-0.852,0.0
10.381,0.222,-0.86,4.0
9.862,0.21,-0.876,0.0
9.386,0.2,-0.888,0.0
8.924,0.19,-0.897,0.0
11.577,0.244,-0.844,0.0
10.851,0.228,-0.854,0.0
10.27,0.215,-0.868,1.0
9.734,0.204,-0.881,0.0
9.233,0.193,-0.889,0.0
8.788,0.183,-0.898,0.0
11.34,0.234,-0.845,0.0
10.574,0.218,-0.85,1.0
10.112,0.208,-0.872,0.0
9.58,0.196,-0.883,0.0
9.093,0.186,-0.891,0.0
8.677,0.177,-0.901,0.0
11.129,0.224,-0.848,0.0
10.443,0.21,-0.856,5.0
9.922,0.199,-0.871,0.0
9.433,0.189,-0.884,0.0
9.007,0.18,-0.897,0.0
8.56,0.171,-0.903,0.0
10.956,0.216,-0.852,0.0
10.359,0.203,-0.866,1.0
9.793,0.192,-0.876,0.0
9.306,0.182,-0.888,0.0
8.851,0.172,-0.896,0.0
8.448,0.164,-0.905,0.0
10.752,0.206,-0.854,0.0
10.194,0.195,-0.868,0.0
9.667,0.184,-0.88,0.0
9.148,0.174,-0.887,0.0
8.734,0.165,-0.898,0.0
8.358,0.158,-0.908,0.0
10.473,0.195,-0.848,6.0
10.029,0.186,-0.87,0.0
9.508,0.176,-0.88,0.0
9.047,0.167,-0.891,0.0
8.599,0.158,-0.897,0.0
8.23,0.151,-0.907,0.0
10.432,0.188,-0.86,7.0
9.893,0.178,-0.873,0.0
9.385,0.168,-0.883,0.0
8.929,0.159,-0.893,0.0
8.511,0.151,-0.901,0.0
8.168,0.145,-0.912,0.0
10.348,0.18,-0.869,1.0
9.746,0.169,-0.875,0.0
9.274,0.16,-0.886,0.0
8.809,0.151,-0.894,0.0
8.414,0.144,-0.903,0.0
8.072,0.138,-0.914,0.0
10.155,0.17,-0.867,0.0
9.609,0.16,-0.876,0.0
9.132,0.152,-0.886,0.0
8.693,0.144,-0.895,0.0
8.327,0.137,-0.906,0.0
7.991,0.131,-0.916,0.0
10.014,0.161,-0.87,0.0
9.507,0.152,-0.881,0.0
9.026,0.144,-0.889,0.0
8.598,0.136,-0.897,0.0
8.245,0.13,-0.909,0.0
7.931,0.124,-0.921,0.0
9.862,0.152,-0.87,0.0
9.38,0.144,-0.882,0.0
8.92,0.136,-0.891,0.0
8.499,0.129,-0.899,0.0
8.148,0.123,-0.909,0.0
7.84,0.117,-0.921,0.0
9.752,0.143,-0.874,0.0
9.235,0.135,-0.881,0.0
8.812,0.128,-0.892,0.0
8.407,0.121,-0.901,0.0
8.086,0.116,-0.913,0.0
7.761,0.11,-0.922,0.0
9.621,0.134,-0.875,0.0
9.16,0.127,-0.886,0.0
8.71,0.12,-0.893,0.0
8.344,0.114,-0.905,0.0
8.018,0.109,-0.916,0.0
7.696,0.103,-0.924,0.0
9.518,0.125,-0.878,0.0
9.048,0.118,-0.887,0.0
8.637,0.112,-0.897,0.0
8.269,0.106,-0.907,0.0
7.947,0.101,-0.918,0.0
7.611,0.096,-0.924,0.0
9.408,0.116,-0.879,0.0
8.958,0.109,-0.889,0.0
8.526,0.103,-0.896,0.0
8.19,0.098,-0.909,0.0
7.865,0.094,-0.919,0.0
7.556,0.089,-0.927,0.0
9.325,0.107,-0.883,0.0
8.867,0.101,-0.891,0.0
8.456,0.095,-0.899,0.0
8.11,0.091,-0.91,0.0
7.803,0.086,-0.921,0.0
7.468,0.082,-0.925,0.0
9.223,0.098,-0.884,0.0
8.782,0.092,-0.893,0.0
8.398,0.087,-0.902,0.0
8.054,0.083,-0.913,0.0
7.746,0.079,-0.923,0.0
7.407,0.074,-0.926,0.0
9.119,0.089,-0.885,0.0
8.674,0.083,-0.892,0.0
8.336,0.079,-0.905,0.0
7.981,0.075,-0.914,0.0
7.688,0.071,-0.925,0.0
7.348,0.067,-0.927,0.0
9.051,0.08,-0.888,0.0
8.623,0.075,-0.896,0.0
8.266,0.071,-0.907,0.0
7.932,0.067,-0.917,0.0
7.631,0.064,-0.926,0.0
7.32,0.06,-0.931,0.0
8.961,0.071,-0.889,0.0
8.545,0.067,-0.897,0.0
8.192,0.063,-0.907,0.0
7.872,0.059,-0.918,0.0
7.576,0.056,-0.928,0.0
7.265,0.053,-0.932,0.0
8.878,0.062,-0.89,0.0
8.486,0.058,-0.899,0.0
8.13,0.055,-0.909,0.0
7.83,0.052,-0.921,0.0
7.502,0.048,-0.926,0.0
7.217,0.046,-0.933,0.0
8.805,0.053,-0.891,0.0
8.406,0.049,-0.899,0.0
8.064,0.046,-0.909,0.0
7.765,0.043,-0.921,0.0
7.448,0.041,-0.927,0.0
7.166,0.038,-0.933,0.0
8.74,0.044,-0.893,0.0
8.355,0.041,-0.902,0.0
8.033,0.038,-0.913,0.0
7.74,0.036,-0.926,0.0
7.401,0.033,-0.928,0.0
7.13,0.031,-0.935,0.0
8.67,0.035,-0.894,0.0
8.301,0.032,-0.903,0.0
7.985,0.03,-0.915,0.0
7.666,0.027,-0.923,0.0
7.369,0.025,-0.93,0.0
7.094,0.023,-0.937,0.0
8.606,0.026,-0.894,0.0
8.27,0.024,-0.907,0.0
7.934,0.021,-0.916,0.0
7.633,0.019,-0.926,0.0
7.321,0.018,-0.931,0.0
7.042,0.016,-0.936,0.0
8.541,0.017,-0.895,0.0
8.203,0.015,-0.906,0.0
7.89,0.013,-0.917,0.0
7.589,0.011,-0.927,0.0
7.281,0.01,-0.931,0.0
7.025,0.008,-0.939,0.0
8.485,0.008,-0.895,0.0
8.154,0.006,-0.907,0.0
7.857,0.005,-0.919,0.0
7.538,0.003,-0.926,0.0
7.256,0.002,-0.933,0.0
7.004,0.001,-0.942,0.0
8.456,0.0,-0.898,0.0
8.103,-0.001,-0.907,0.0
7.811,-0.003,-0.92,0.0
7.498,-0.004,-0.927,0.0
7.21,-0.005,-0.933,0.0
6.976,-0.005,-0.943,0.0
8.415,-0.009,-0.9,0.0
8.075,-0.01,-0.91,0.0
7.781,-0.011,-0.921,0.0
7.458,-0.012,-0.927,0.0
7.195,-0.012,-0.936,0.0
6.95,-0.013,-0.944,0.0
8.363,-0.018,-0.9,0.0
8.048,-0.019,-0.912,0.0
7.735,-0.019,-0.921,0.0
7.41,-0.02,-0.925,0.0
7.147,-0.02,-0.934,0.0
6.901,-0.021,-0.942,0.0
8.332,-0.027,-0.901,0.0
8.009,-0.027,-0.912,0.0
7.706,-0.028,-0.922,0.0
7.386,-0.028,-0.927,0.0
7.131,-0.028,-0.936,0.0
6.87,-0.028,-0.941,0.0
8.307,-0.036,-0.903,0.0
7.995,-0.036,-0.915,0.0
7.659,-0.036,-0.92,0.0
7.366,-0.036,-0.928,0.0
7.107,-0.036,-0.936,0.0
6.837,-0.036,-0.94,0.0
8.271,-0.045,-0.904,0.0
7.967,-0.045,-0.916,0.0
7.639,-0.044,-0.922,0.0
7.342,-0.044,-0.929,0.0
7.09,-0.044,-0.938,0.0
6.832,-0.044,-0.943,0.0
8.253,-0.055,-0.905,0.0
7.945,-0.054,-0.917,0.0
7.622,-0.053,-0.923,0.0
7.312,-0.052,-0.928,0.0
7.053,-0.052,-0.936,0.0
6.796,-0.051,-0.941,0.0
8.234,-0.064,-0.907,0.0
7.918,-0.063,-0.917,0.0
7.612,-0.062,-0.925,0.0
7.295,-0.06,-0.929,0.0
7.05,-0.06,-0.938,0.0
6.783,-0.059,-0.942,0.0
8.201,-0.073,-0.906,0.0
7.899,-0.072,-0.918,0.0
7.58,-0.07,-0.924,0.0
7.285,-0.069,-0.93,0.0
7.023,-0.068,-0.937,0.0
6.772,-0.066,-0.943,0.0
8.187,-0.082,-0.907,0.0
7.884,-0.08,-0.919,0.0
7.577,-0.079,-0.926,0.0
7.266,-0.077,-0.93,0.0
7.011,-0.075,-0.938,0.0
6.746,-0.074,-0.941,0.0
8.168,-0.091,-0.908,0.0
7.858,-0.089,-0.918,0.0
7.549,-0.087,-0.925,0.0
7.26,-0.085,-0.931,0.0
7.0,-0.084,-0.938,0.0
6.741,-0.082,-0.942,0.0
8.146,-0.1,-0.907,0.0
7.835,-0.098,-0.917,0.0
7.548,-0.096,-0.926,0.0
7.253,-0.093,-0.932,0.0
7.019,-0.092,-0.942,0.0
6.727,-0.089,-0.941,0.0
8.128,-0.109,-0.907,0.0
7.829,-0.107,-0.918,0.0
7.524,-0.104,-0.925,0.0
7.242,-0.101,-0.932,0.0
6.995,-0.099,-0.94,0.0
6.723,-0.097,-0.942,0.0
8.138,-0.119,-0.909,0.0
7.834,-0.116,-0.919,0.0
7.507,-0.112,-0.923,0.0
7.245,-0.11,-0.933,0.0
6.987,-0.107,-0.94,0.0
6.724,-0.105,-0.943,0.0
8.13,-0.128,-0.909,0.0
7.8,-0.124,-0.916,0.0
7.52,-0.121,-0.926,0.0
7.247,-0.118,-0.934,0.0
6.981,-0.115,-0.939,0.0
6.719,-0.112,-0.942,0.0
8.114,-0.137,-0.907,0.0
7.823,-0.134,-0.919,0.0
7.526,-0.13,-0.927,0.0
7.231,-0.126,-0.932,0.0
6.976,-0.123,-0.939,0.0
6.703,-0.12,-0.94,0.0
8.126,-0.146,-0.909,0.0
7.818,-0.142,-0.918,0.0
7.52,-0.138,-0.926,0.0
7.235,-0.135,-0.932,0.0
6.976,-0.131,-0.939,0.0
6.709,-0.128,-0.941,0.0
8.13,-0.156,-0.909,0.0
7.816,-0.151,-0.918,0.0
7.52,-0.147,-0.925,0.0
7.238,-0.143,-0.932,0.0
6.979,-0.139,-0.939,0.0
6.706,-0.135,-0.94,0.0
8.128,-0.165,-0.908,0.0
7.817,-0.16,-0.917,0.0
7.511,-0.155,-0.924,0.0
7.244,-0.151,-0.932,0.0
7.002,-0.148,-0.941,0.0
6.724,-0.143,-0.942,0.0
8.144,-0.174,-0.909,0.0
7.843,-0.169,-0.919,0.0
7.547,-0.165,-0.927,0.0
7.259,-0.16,-0.933,0.0
7.009,-0.156,-0.941,0.0
6.728,-0.151,-0.941,0.0
8.15,-0.184,-0.908,0.0
7.846,-0.178,-0.918,0.0
7.546,-0.173,-0.925,0.0
7.268,-0.168,-0.933,0.0
7.018,-0.164,-0.94,0.0
6.75,-0.159,-0.943,0.0
8.163,-0.193,-0.908,0.0
7.863,-0.187,-0.918,0.0
7.578,-0.182,-0.927,0.0
7.277,-0.176,-0.932,0.0
7.021,-0.172,-0.939,0.0
6.758,-0.167,-0.942,0.0
8.176,-0.202,-0.907,0.0
7.89,-0.197,-0.919,0.0
7.572,-0.19,-0.924,0.0
7.295,-0.185,-0.932,0.0
7.026,-0.18,-0.937,0.0
6.775,-0.175,-0.942,0.0
8.178,-0.211,-0.905,0.0
7.902,-0.206,-0.918,0.0
7.585,-0.199,-0.924,0.0
7.302,-0.193,-0.931,0.0
7.054,-0.188,-0.939,0.0
6.794,-0.183,-0.942,0.0
8.208,-0.221,-0.905,0.0
7.919,-0.215,-0.917,0.0
7.615,-0.208,-0.924,0.0
7.318,-0.201,-0.93,0.0
7.072,-0.196,-0.938,0.0
6.819,-0.191,-0.943,0.0
8.236,-0.23,-0.905,0.0
7.94,-0.224,-0.916,0.0
7.638,-0.217,-0.924,0.0
7.341,-0.21,-0.93,0.0
7.085,-0.204,-0.937,0.0
6.851,-0.199,-0.944,0.0
8.277,-0.24,-0.906,0.0
7.959,-0.233,-0.915,0.0
7.67,-0.226,-0.924,0.0
7.368,-0.218,-0.93,0.0
7.102,-0.212,-0.936,0.0
6.869,-0.206,-0.943,0.0
8.3,-0.25,-0.904,0.0
7.986,-0.242,-0.914,0.0
7.697,-0.234,-0.924,0.0
7.385,-0.226,-0.928,0.0
7.134,-0.22,-0.936,0.0
6.892,-0.214,-0.943,0.0
8.322,-0.259,-0.902,0.0
8.024,-0.251,-0.914,0.0
7.732,-0.243,-0.923,0.0
7.421,-0.235,-0.928,0.0
7.16,-0.228,-0.935,0.0
6.926,-0.222,-0.943,0.0
8.391,-0.269,-0.904,0.0
8.055,-0.26,-0.913,0.0
7.759,-0.252,-0.922,0.0
7.459,-0.244,-0.928,0.0
7.172,-0.236,-0.933,0.0
6.957,-0.23,-0.943,0.0
8.401,-0.278,-0.9,0.0
8.09,-0.269,-0.911,0.0
7.78,-0.261,-0.92,0.0
7.491,-0.252,-0.928,0.0
7.21,-0.244,-0.933,0.0
6.984,-0.238,-0.942,0.0
8.463,-0.288,-0.901,0.0
8.116,-0.278,-0.909,0.0
7.819,-0.269,-0.919,0.0
7.528,-0.261,-0.927,0.0
7.262,-0.253,-0.934,0.0
7.001,-0.245,-0.94,0.0
8.498,-0.298,-0.899,0.0
8.172,-0.288,-0.909,0.0
7.859,-0.278,-0.918,0.0
7.549,-0.269,-0.924,0.0
7.303,-0.261,-0.934,0.0
7.04,-0.253,-0.94,0.0
8.547,-0.307,-0.898,0.0
8.213,-0.297,-0.908,0.0
7.907,-0.287,-0.917,0.0
7.61,-0.278,-0.926,0.0
7.339,-0.269,-0.933,0.0
7.08,-0.261,-0.939,0.0
8.605,-0.317,-0.897,0.0
8.254,-0.306,-0.906,0.0
7.948,-0.296,-0.916,0.0
7.646,-0.286,-0.924,0.0
7.365,-0.277,-0.93,0.0
7.108,-0.269,-0.937,0.0
8.661,-0.327,-0.896,0.0
8.293,-0.315,-0.903,0.0
7.975,-0.304,-0.912,0.0
7.705,-0.295,-0.924,0.0
7.422,-0.286,-0.931,0.0
7.153,-0.277,-0.937,0.0
8.731,-0.337,-0.895,0.0
8.353,-0.324,-0.902,0.0
8.046,-0.314,-0.913,0.0
7.728,-0.303,-0.92,0.0
7.452,-0.293,-0.928,0.0
7.187,-0.284,-0.935,0.0
8.765,-0.346,-0.891,0.0
8.446,-0.335,-0.904,0.0
8.098,-0.323,-0.911,0.0
7.793,-0.312,-0.92,0.0
7.528,-0.303,-0.93,0.0
7.259,-0.293,-0.937,0.0
8.857,-0.357,-0.892,0.0
8.486,-0.343,-0.9,0.0
8.139,-0.331,-0.908,0.0
7.856,-0.321,-0.92,0.0
7.563,-0.31,-0.927,0.0
7.289,-0.3,-0.934,0.0
8.947,-0.368,-0.892,0.0
8.557,-0.353,-0.9,0.0
8.224,-0.341,-0.909,0.0
7.907,-0.329,-0.918,0.0
7.623,-0.318,-0.927,0.0
7.323,-0.307,-0.93,0.0
9.011,-0.377,-0.889,0.0
8.634,-0.363,-0.899,0.0
8.274,-0.349,-0.906,0.0
7.959,-0.337,-0.916,0.0
7.679,-0.326,-0.925,0.0
7.39,-0.315,-0.931,0.0
9.114,-0.388,-0.89,0.0
8.706,-0.372,-0.897,0.0
8.343,-0.358,-0.905,0.0
8.01,-0.345,-0.913,0.0
7.726,-0.334,-0.923,0.0
7.446,-0.323,-0.93,0.0
9.209,-0.399,-0.889,0.0
8.766,-0.381,-0.894,0.0
8.394,-0.366,-0.901,0.0
8.078,-0.353,-0.912,0.0
7.789,-0.342,-0.921,0.0
7.523,-0.332,-0.931,0.0
9.298,-0.409,-0.887,0.0
8.874,-0.391,-0.894,0.0
8.499,-0.376,-0.903,0.0
8.151,-0.362,-0.91,0.0
7.859,-0.35,-0.921,0.0
7.567,-0.339,-0.927,0.0
9.385,-0.419,-0.885,0.0
8.956,-0.401,-0.892,0.0
8.561,-0.384,-0.899,0.0
8.203,-0.37,-0.907,0.0
7.937,-0.359,-0.92,0.0
7.627,-0.346,-0.926,0.0
9.484,-0.429,-0.882,0.0
9.075,-0.412,-0.893,0.0
8.659,-0.394,-0.899,0.0
8.307,-0.379,-0.908,0.0
8.004,-0.367,-0.918,0.0
7.699,-0.354,-0.925,0.0
9.588,-0.439,-0.88,0.0
9.157,-0.421,-0.89,0.0
8.744,-0.403,-0.897,0.0
8.367,-0.387,-0.904,0.0
8.052,-0.373,-0.913,0.0
7.765,-0.361,-0.923,0.0
9.725,-0.451,-0.881,1.0
9.275,-0.431,-0.89,0.0
8.826,-0.412,-0.894,0.0
8.467,-0.396,-0.904,0.0
8.143,-0.382,-0.913,0.0
7.854,-0.37,-0.923,0.0
9.796,-0.459,-0.874,2.0
9.356,-0.44,-0.885,0.0
8.934,-0.421,-0.893,0.0
8.564,-0.405,-0.903,0.0
8.223,-0.39,-0.911,0.0
7.91,-0.376,-0.919,0.0
9.908,-0.47,-0.871,2.0
9.47,-0.45,-0.883,0.0
9.063,-0.432,-0.894,0.0
8.627,-0.412,-0.898,0.0
8.311,-0.398,-0.91,0.0
7.989,-0.384,-0.917,0.0
10.017,-0.479,-0.867,1.0
9.594,-0.46,-0.882,0.0
9.179,-0.441,-0.893,0.0
8.738,-0.421,-0.897,0.0
8.393,-0.406,-0.907,0.0
8.061,-0.39,-0.914,0.0
10.156,-0.49,-0.865,0.0
9.739,-0.471,-0.882,1.0
9.269,-0.45,-0.888,0.0
8.829,-0.429,-0.894,0.0
8.49,-0.414,-0.905,0.0
8.16,-0.398,-0.914,0.0
10.339,-0.503,-0.866,0.0
9.809,-0.478,-0.874,2.0
9.384,-0.459,-0.886,0.0
8.984,-0.44,-0.897,0.0
8.586,-0.421,-0.903,0.0
8.238,-0.405,-0.911,0.0
10.494,-0.514,-0.864,0.0
9.93,-0.488,-0.871,2.0
9.512,-0.468,-0.884,0.0
9.086,-0.448,-0.894,0.0
8.667,-0.428,-0.899,0.0
8.33,-0.412,-0.909,0.0
10.635,-0.525,-0.86,0.0
10.061,-0.497,-0.867,0.0
9.636,-0.477,-0.882,0.0
9.19,-0.456,-0.891,0.0
8.783,-0.436,-0.898,0.0
8.415,-0.419,-0.905,0.0
10.793,-0.535,-0.857,0.0
10.238,-0.509,-0.867,0.0
9.762,-0.486,-0.879,1.0
9.298,-0.464,-0.887,0.0
8.904,-0.445,-0.897,0.0
8.529,-0.427,-0.905,0.0
10.96,-0.546,-0.854,0.0
10.435,-0.521,-0.868,0.0
9.867,-0.493,-0.873,2.0
9.439,-0.473,-0.886,0.0
9.023,-0.453,-0.895,0.0
8.62,-0.433,-0.901,0.0
11.129,-0.557,-0.85,0.0
10.569,-0.53,-0.863,0.0
9.994,-0.502,-0.869,1.0
9.575,-0.481,-0.884,0.0
9.156,-0.461,-0.894,0.0
8.737,-0.441,-0.9,0.0
11.291,-0.567,-0.845,0.0
10.732,-0.54,-0.86,0.0
10.174,-0.512,-0.869,0.0
9.735,-0.491,-0.884,1.0
9.296,-0.469,-0.893,0.0
8.856,-0.448,-0.898,0.0
11.499,-0.579,-0.842,0.0
10.886,-0.549,-0.855,0.0
10.363,-0.523,-0.868,0.0
9.81,-0.496,-0.875,2.0
9.414,-0.476,-0.889,0.0
9.002,-0.456,-0.898,0.0
11.675,-0.589,-0.836,0.0
11.085,-0.56,-0.852,0.0
10.526,-0.532,-0.865,0.0
9.956,-0.504,-0.872,1.0
9.554,-0.484,-0.887,0.0
9.115,-0.462,-0.894,0.0
11.889,-0.6,-0.832,0.0
11.26,-0.569,-0.847,0.0
10.706,-0.541,-0.862,0.0
10.136,-0.513,-0.871,0.0
9.711,-0.492,-0.885,0.0
9.261,-0.47,-0.893,0.0
12.097,-0.611,-0.827,0.0
11.457,-0.579,-0.844,0.0
10.876,-0.55,-0.858,0.0
10.322,-0.522,-0.87,0.0
9.791,-0.496,-0.877,2.0
9.39,-0.476,-0.89,0.0
12.343,-0.623,-0.823,0.0
11.654,-0.589,-0.839,0.0
11.06,-0.559,-0.854,0.0
10.498,-0.531,-0.867,0.0
9.93,-0.502,-0.872,1.0
9.529,-0.482,-0.887,0.0
12.554,-0.633,-0.817,0.0
11.855,-0.598,-0.834,0.0
11.24,-0.567,-0.849,0.0
10.666,-0.538,-0.863,0.0
10.12,-0.511,-0.872,0.0
9.697,-0.49,-0.887,0.0
12.815,-0.645,-0.812,0.0
12.065,-0.607,-0.828,0.0
11.437,-0.575,-0.845,0.0
10.861,-0.547,-0.86,0.0
10.318,-0.519,-0.871,0.0
9.794,-0.493,-0.879,2.0
13.084,-0.656,-0.807,0.0
12.319,-0.618,-0.824,0.0
11.645,-0.584,-0.84,0.0
11.063,-0.555,-0.857,0.0
10.482,-0.526,-0.867,0.0
9.939,-0.499,-0.875,1.0
13.347,-0.667,-0.8,1.0
12.543,-0.627,-0.818,1.0
11.852,-0.592,-0.835,0.0
11.241,-0.561,-0.852,0.0
10.686,-0.534,-0.866,0.0
10.11,-0.505,-0.872,0.0
13.648,-0.679,-0.795,1.0
12.823,-0.638,-0.814,1.0
12.082,-0.601,-0.83,0.0
11.459,-0.569,-0.848,0.0
10.857,-0.539,-0.86,0.0
10.321,-0.513,-0.872,0.0
13.919,-0.689,-0.787,1.0
13.093,-0.647,-0.808,1.0
12.318,-0.609,-0.825,0.0
11.655,-0.576,-0.842,0.0
11.056,-0.546,-0.857,0.0
10.512,-0.519,-0.87,0.0
14.217,-0.699,-0.779,1.0
13.375,-0.657,-0.802,0.0
12.562,-0.617,-0.819,0.0
11.867,-0.582,-0.837,1.0
11.237,-0.551,-0.851,0.0
10.685,-0.523,-0.866,0.0
14.561,-0.711,-0.772,1.0
13.641,-0.665,-0.794,1.0
12.842,-0.626,-0.815,1.0
12.095,-0.589,-0.832,0.0
11.448,-0.557,-0.847,0.0
10.854,-0.527,-0.86,0.0
14.93,-0.723,-0.766,1.0
13.961,-0.675,-0.789,1.0
13.108,-0.633,-0.809,1.0
12.314,-0.594,-0.825,0.0
11.661,-0.562,-0.842,0.0
11.072,-0.533,-0.858,0.0
15.314,-0.735,-0.758,1.0
14.268,-0.684,-0.781,1.0
13.386,-0.641,-0.802,1.0
12.568,-0.601,-0.82,0.0
11.882,-0.567,-0.838,0.0
11.251,-0.537,-0.852,0.0
15.72,-0.747,-0.751,1.0
14.592,-0.692,-0.773,1.0
13.65,-0.647,-0.794,1.0
12.85,-0.608,-0.816,0.0
12.115,-0.572,-0.832,0.0
11.459,-0.541,-0.847,0.0
16.121,-0.757,-0.742,1.0
14.992,-0.703,-0.768,1.0
13.927,-0.652,-0.786,1.0
13.113,-0.613,-0.809,0.0
12.36,-0.577,-0.827,0.0
11.677,-0.544,-0.842,0.0
16.596,-0.77,-0.734,1.0
15.34,-0.711,-0.758,1.0
14.312,-0.662,-0.782,1.0
13.403,-0.619,-0.803,1.0
12.63,-0.582,-0.823,1.0
11.922,-0.548,-0.839,0.0
17.088,-0.783,-0.726,1.0
15.737,-0.72,-0.75,1.0
14.643,-0.668,-0.774,1.0
13.674,-0.623,-0.795,1.0
12.874,-0.585,-0.816,0.0
12.157,-0.552,-0.834,0.0
17.61,-0.796,-0.717,1.0
16.198,-0.73,-0.743,1.0
15.034,-0.676,-0.768,1.0
14.002,-0.628,-0.789,1.0
13.165,-0.589,-0.811,1.0
12.411,-0.554,-0.829,0.0
18.087,-0.805,-0.704,1.0
16.632,-0.738,-0.734,1.0
15.402,-0.682,-0.759,1.0
14.33,-0.633,-0.783,1.0
13.454,-0.593,-0.805,1.0
12.647,-0.556,-0.822,0.0
18.61,-0.815,-0.691,1.0
17.168,-0.75,-0.727,1.0
15.769,-0.687,-0.75,1.0
14.682,-0.637,-0.776,1.0
13.727,-0.595,-0.797,1.0
12.913,-0.558,-0.817,1.0
19.187,-0.825,-0.679,1.0
17.629,-0.756,-0.715,1.0
16.228,-0.694,-0.743,1.0
15.047,-0.642,-0.768,1.0
14.035,-0.597,-0.79,1.0
13.223,-0.561,-0.813,1.0
19.785,-0.835,-0.665,1.0
18.124,-0.763,-0.703,1.0
16.688,-0.7,-0.734,1.0
15.433,-0.645,-0.761,1.0
14.345,-0.598,-0.782,1.0
13.48,-0.56,-0.805,1.0
20.406,-0.844,-0.65,1.0
18.668,-0.77,-0.692,1.0
17.222,-0.708,-0.728,1.0
15.808,-0.647,-0.752,1.0
14.739,-0.601,-0.777,1.0
13.757,-0.56,-0.797,0.0
21.189,-0.858,-0.638,1.0
19.217,-0.775,-0.679,1.0
17.688,-0.711,-0.716,1.0
16.264,-0.651,-0.745,1.0
15.077,-0.602,-0.769,1.0
14.038,-0.558,-0.789,1.0
21.917,-0.867,-0.622,1.0
19.867,-0.783,-0.667,1.0
18.153,-0.713,-0.704,1.0
16.72,-0.654,-0.737,0.0
15.441,-0.601,-0.761,1.0
14.376,-0.558,-0.783,1.0
22.757,-0.879,-0.606,1.0
20.467,-0.787,-0.652,1.0
18.712,-0.716,-0.693,1.0
17.213,-0.656,-0.728,1.0
15.862,-0.602,-0.754,1.0
14.745,-0.557,-0.777,1.0
23.545,-0.885,-0.586,2.0
21.219,-0.794,-0.638,1.0
19.254,-0.718,-0.679,1.0
17.685,-0.656,-0.718,1.0
16.283,-0.601,-0.746,1.0
15.1,-0.555,-0.77,1.0
24.562,-0.898,-0.569,1.0
21.983,-0.8,-0.624,1.0
19.852,-0.719,-0.667,1.0
18.173,-0.655,-0.707,1.0
16.765,-0.601,-0.739,1.0
15.46,-0.552,-0.762,1.0
25.45,-0.903,-0.546,1.0
22.81,-0.805,-0.608,1.0
20.49,-0.72,-0.653,1.0
18.703,-0.654,-0.695,1.0
17.242,-0.599,-0.731,1.0
15.854,-0.548,-0.754,1.0
26.376,-0.907,-0.522,1.0
23.526,-0.804,-0.587,1.0
21.202,-0.721,-0.64,1.0
19.253,-0.651,-0.683,1.0
17.672,-0.594,-0.719,1.0
16.252,-0.543,-0.746,1.0
27.291,-0.907,-0.494,1.0
24.467,-0.809,-0.57,1.0
21.929,-0.72,-0.625,1.0
19.816,-0.647,-0.67,1.0
18.16,-0.589,-0.708,1.0
16.738,-0.539,-0.74,1.0
28.382,-0.909,-0.465,1.0
25.405,-0.809,-0.548,1.0
22.727,-0.719,-0.609,1.0
20.436,-0.642,-0.656,1.0
18.645,-0.582,-0.696,1.0
17.191,-0.533,-0.731,1.0
29.529,-0.91,-0.435,1.0
26.353,-0.806,-0.525,1.0
23.473,-0.713,-0.59,1.0
21.078,-0.636,-0.642,1.0
19.191,-0.575,-0.685,1.0
17.661,-0.525,-0.722,1.0
30.629,-0.905,-0.401,1.0
27.216,-0.799,-0.499,1.0
24.379,-0.71,-0.573,1.0
21.835,-0.631,-0.63,1.0
19.801,-0.568,-0.674,1.0
18.093,-0.515,-0.711,1.0
32.206,-0.91,-0.37,1.0
28.355,-0.795,-0.473,1.0
25.216,-0.702,-0.552,1.0
22.593,-0.624,-0.615,1.0
20.484,-0.561,-0.665,2.0
18.553,-0.504,-0.699,1.0
33.756,-0.91,-0.333,0.0
29.323,-0.783,-0.443,1.0
26.136,-0.692,-0.531,1.0
23.336,-0.613,-0.598,1.0
20.836,-0.542,-0.643,4.0
19.062,-0.492,-0.688,1.0
36.889,-0.944,-0.306,0.0
30.253,-0.767,-0.409,1.0
27.182,-0.683,-0.509,4.0
24.038,-0.598,-0.578,1.0
21.679,-0.534,-0.635,1.0
19.648,-0.479,-0.678,1.0
40.275,-0.974,-0.271,25.0
31.738,-0.76,-0.379,1.0
27.555,-0.653,-0.473,2.0
25.006,-0.587,-0.562,1.0
22.397,-0.52,-0.621,1.0
20.181,-0.464,-0.665,1.0
40.289,-0.917,-0.208,9.0
33.371,-0.751,-0.347,1.0
28.992,-0.645,-0.453,1.0
25.84,-0.569,-0.541,1.0
23.007,-0.501,-0.602,2.0
20.799,-0.447,-0.654,1.0
0.0,0.0,0.0,0.0
36.958,-0.778,-0.328,0.0
29.913,-0.622,-0.422,1.0
26.627,-0.547,-0.517,1.0
23.795,-0.483,-0.587,1.0
21.456,-0.43,-0.642,1.0
53.757,-1.064,-0.114,1.0
40.138,-0.784,-0.295,4.0
31.032,-0.598,-0.39,1.0
27.586,-0.525,-0.494,1.0
24.712,-0.463,-0.573,1.0
22.148,-0.41,-0.629,1.0
40.296,-0.736,-0.025,70.0
40.255,-0.725,-0.236,21.0
32.731,-0.581,-0.363,1.0
28.453,-0.497,-0.468,1.0
25.478,-0.438,-0.553,1.0
22.848,-0.387,-0.615,1.0
40.318,-0.673,0.033,21.0
46.338,-0.762,-0.204,1.0
34.469,-0.557,-0.332,1.0
29.438,-0.468,-0.441,1.0
26.237,-0.41,-0.531,1.0
23.483,-0.361,-0.599,2.0
248.426,-3.76,0.564,33.0
50.755,-0.754,-0.151,4.0
36.565,-0.533,-0.301,0.0
30.279,-0.433,-0.411,1.0
27.026,-0.379,-0.509,1.0
24.092,-0.332,-0.581,1.0
0.0,0.0,0.0,0.0
54.485,-0.722,-0.086,2.0
42.128,-0.547,-0.288,1.0
31.523,-0.4,-0.384,1.0
27.96,-0.347,-0.488,1.0
24.956,-0.303,-0.567,1.0
78.012,-0.929,0.393,6.0
79.437,-0.924,-0.017,19.0
0.0,0.0,0.0,0.0
32.995,-0.365,-0.358,1.0
28.832,-0.311,-0.464,5.0
25.663,-0.269,-0.548,2.0
77.712,-0.795,0.498,10.0
55.366,-0.55,0.063,4.0
47.384,-0.458,-0.195,3.0
34.501,-0.323,-0.327,0.0
29.548,-0.268,-0.436,3.0
26.433,-0.232,-0.529,2.0
79.382,-0.677,0.615,62.0
57.361,-0.472,0.142,8.0
47.527,-0.378,-0.132,8.0
40.489,-0.31,-0.33,3.0
30.498,-0.225,-0.41,1.0
27.09,-0.192,-0.507,2.0
79.466,-0.541,0.719,160.0
61.334,-0.4,0.231,14.0
46.043,-0.287,-0.069,6.0
40.052,-0.238,-0.276,3.0
31.416,-0.177,-0.382,1.0
27.961,-0.149,-0.488,2.0
79.461,-0.402,0.821,165.0
76.591,-0.366,0.386,10.0
47.246,-0.211,-0.011,15.0
39.385,-0.164,-0.221,6.0
32.848,-0.127,-0.358,1.0
28.844,-0.103,-0.467,2.0
79.466,-0.262,0.92,151.0
76.602,-0.23,0.481,17.0
0.0,0.0,0.0,0.0
40.19,-0.096,-0.176,16.0
34.151,-0.072,-0.331,1.0
29.5,-0.053,-0.442,2.0
79.459,-0.12,1.016,151.0
79.299,-0.096,0.594,39.0
55.591,-0.05,0.122,29.0
41.025,-0.024,-0.131,17.0
38.277,-0.011,-0.325,3.0
30.181,0.0,-0.416,1.0
79.463,0.023,1.11,151.0
79.437,0.047,0.689,150.0
0.0,0.0,0.0,0.0
0.0,0.0,0.0,0.0
38.241,0.057,-0.281,7.0
31.024,0.056,-0.392,1.0
79.457,0.168,1.202,154.0
79.447,0.192,0.779,150.0
59.164,0.161,0.266,9.0
0.0,0.0,0.0,0.0
38.569,0.128,-0.24,14.0
32.148,0.117,-0.371,1.0
79.429,0.313,1.289,150.0
59.31,0.252,0.647,98.0
59.327,0.27,0.331,59.0
47.543,0.231,0.008,37.0
38.842,0.201,-0.2,43.0
33.219,0.182,-0.347,1.0
48.165,0.28,0.834,71.0
48.147,0.294,0.577,48.0
48.149,0.309,0.32,55.0
47.982,0.323,0.059,48.0
39.297,0.277,-0.161,43.0
37.538,0.276,-0.353,0.0
48.12,0.369,0.883,121.0
48.086,0.384,0.626,115.0
48.052,0.399,0.369,105.0
48.005,0.413,0.108,87.0
39.814,0.355,-0.122,15.0
37.388,0.345,-0.314,5.0
48.119,0.461,0.932,106.0
48.093,0.476,0.675,105.0
48.075,0.491,0.418,100.0
48.025,0.505,0.156,87.0
44.012,0.476,-0.091,17.0
37.52,0.418,-0.279,13.0
55.065,0.633,1.121,5.0
48.18,0.569,0.723,41.0
48.134,0.583,0.465,53.0
48.052,0.598,0.202,80.0
0.0,0.0,0.0,0.0
37.7,0.492,-0.244,25.0
190.308,2.557,4.056,12.0
127.351,1.749,2.031,28.0
89.729,1.261,0.951,5.0
61.966,0.891,0.318,29.0
47.147,0.692,-0.009,37.0
37.943,0.569,-0.211,45.0
190.032,2.923,4.224,19.0
127.793,2.005,2.155,22.0
121.193,1.941,1.394,12.0
74.911,1.223,0.452,13.0
47.829,0.796,0.032,21.0
38.443,0.652,-0.18,42.0
128.424,2.229,2.968,2.0
128.03,2.262,2.271,26.0
121.075,2.177,1.497,13.0
75.003,1.373,0.517,15.0
48.059,0.895,0.073,7.0
39.24,0.743,-0.15,38.0
128.041,2.474,3.067,40.0
128.109,2.515,2.379,5.0
0.0,0.0,0.0,0.0
77.782,1.578,0.6,17.0
0.0,0.0,0.0,0.0
39.56,0.827,-0.12,31.0
128.183,2.731,3.174,10.0
106.222,2.298,2.058,5.0
105.992,2.326,1.482,2.0
77.955,1.736,0.663,58.0
58.086,1.312,0.181,11.0
40.006,0.916,-0.09,13.0
146.672,3.417,3.744,17.0
0.0,0.0,0.0,0.0
106.188,2.541,1.565,9.0
78.217,1.896,0.723,26.0
58.806,1.445,0.226,32.0
42.808,1.066,-0.065,9.0
138.092,3.494,3.626,12.0
0.0,0.0,0.0,0.0
0.0,0.0,0.0,0.0
78.374,2.056,0.78,12.0
59.538,1.581,0.271,33.0
0.0,0.0,0.0,0.0
154.055,4.207,4.151,42.0
0.0,0.0,0.0,0.0
0.0,0.0,0.0,0.0
89.392,2.524,0.949,3.0
60.317,1.723,0.314,30.0
47.649,1.376,-0.009,22.0
154.184,4.518,4.255,29.0
0.0,0.0,0.0,0.0
0.0,0.0,0.0,0.0
88.942,2.69,1.0,5.0
60.954,1.863,0.355,10.0
48.064,1.484,0.02,23.0
158.774,4.969,4.478,9.0
0.0,0.0,0.0,0.0
0.0,0.0,0.0,0.0
95.481,3.078,1.13,3.0
74.186,2.415,0.475,14.0
48.542,1.595,0.047,23.0
158.839,5.29,4.571,13.0
0.0,0.0,0.0,0.0
0.0,0.0,0.0,0.0
95.201,3.259,1.179,2.0
74.274,2.566,0.516,12.0
48.866,1.704,0.074,22.0
159.753,5.642,4.683,15.0
0.0,0.0,0.0,0.0
0.0,0.0,0.0,0.0
95.862,3.474,1.236,5.0
77.395,2.83,0.577,12.0
54.183,1.998,0.109,14.0
160.377,5.988,4.782,7.0
0.0,0.0,0.0,0.0
0.0,0.0,0.0,0.0
101.0,3.865,1.351,3.0
77.71,2.997,0.616,23.0
54.413,2.115,0.135,28.0
162.011,6.374,4.905,12.0
0.0,0.0,0.0,0.0
0.0,0.0,0.0,0.0
101.042,4.07,1.396,2.0
77.565,3.149,0.649,56.0
54.53,2.23,0.158,28.0
173.321,7.173,5.321,8.0
0.0,0.0,0.0,0.0
0.0,0.0,0.0,0.0
101.287,4.285,1.44,1.0
77.486,3.302,0.678,36.0
54.504,2.339,0.179,28.0
173.641,7.537,5.398,9.0
0.0,0.0,0.0,0.0
0.0,0.0,0.0,0.0
101.19,4.484,1.475,1.0
77.741,3.47,0.708,29.0
54.602,2.453,0.198,28.0
156.267,7.097,4.911,11.0
174.076,7.956,4.517,5.0
0.0,0.0,0.0,0.0
105.882,4.905,1.577,1.0
77.945,3.634,0.734,53.0
54.756,2.57,0.216,28.0
156.507,7.422,4.966,16.0
0.0,0.0,0.0,0.0
0.0,0.0,0.0,0.0
0.0,0.0,0.0,0.0
78.007,3.794,0.756,28.0
54.834,2.684,0.231,28.0
156.335,7.728,5.002,12.0
167.023,8.307,4.427,7.0
0.0,0.0,0.0,0.0
105.827,5.327,1.633,13.0
78.028,3.951,0.775,17.0
55.115,2.808,0.245,17.0
156.603,8.057,5.047,14.0
156.517,8.098,4.182,15.0
162.687,8.465,3.453,11.0
105.789,5.536,1.653,18.0
78.261,4.119,0.793,19.0
55.08,2.915,0.255,11.0
162.338,8.677,5.262,9.0
162.442,8.729,4.371,9.0
162.729,8.793,3.483,49.0
105.823,5.749,1.671,15.0
78.154,4.268,0.804,18.0
55.173,3.029,0.264,9.0
157.112,8.708,5.115,14.0
163.331,9.101,4.418,17.0
163.381,9.15,3.519,34.0
105.946,5.965,1.687,4.0
78.221,4.426,0.814,13.0
55.382,3.15,0.271,8.0
157.088,9.02,5.133,14.0
157.299,9.074,4.27,5.0
162.512,9.423,3.515,12.0
106.371,6.198,1.703,2.0
78.123,4.575,0.82,11.0
55.565,3.269,0.276,11.0
157.189,9.334,5.147,16.0
164.045,9.786,4.465,4.0
0.0,0.0,0.0,0.0
33.337,2.007,0.535,0.0
33.451,2.024,0.352,2.0
33.46,2.034,0.167,2.0
33.451,2.051,1.096,83.0
33.463,2.062,0.911,156.0
33.466,2.071,0.726,153.0
33.429,2.078,0.537,51.0
33.446,2.089,0.352,7.0
58.045,3.642,0.29,5.0
158.066,10.005,5.18,22.0
158.133,10.053,4.306,32.0
114.837,7.331,2.49,6.0
139.575,8.95,2.239,32.0
77.873,5.015,0.818,11.0
55.38,3.582,0.275,13.0
158.108,10.311,5.174,35.0
28.895,1.892,0.785,8.0
114.541,7.53,2.477,38.0
139.629,9.219,2.232,39.0
0.0,0.0,0.0,0.0
55.275,3.68,0.27,15.0
28.788,1.932,0.939,31.0
28.773,1.939,0.779,175.0
28.892,1.954,0.622,26.0
28.883,1.962,0.458,36.0
28.939,1.974,0.298,12.0
55.138,3.776,0.263,26.0
28.746,1.984,0.935,164.0
28.738,1.991,0.774,173.0
28.751,1.999,0.615,37.0
28.808,2.011,0.453,55.0
28.811,2.02,0.293,22.0
54.739,3.852,0.252,23.0
28.736,2.038,0.93,26.0
28.715,2.044,0.769,169.0
28.741,2.053,0.61,55.0
28.748,2.061,0.447,49.0
28.754,2.069,0.287,33.0
28.839,2.083,0.128,34.0
28.718,2.09,0.923,32.0
28.714,2.097,0.763,165.0
28.721,2.105,0.604,39.0
28.724,2.112,0.44,57.0
28.736,2.121,0.281,49.0
28.814,2.134,0.121,34.0
28.703,2.142,0.916,37.0
28.751,2.152,0.757,159.0
28.716,2.157,0.596,43.0
28.71,2.164,0.433,61.0
28.734,2.173,0.273,53.0
28.823,2.187,0.113,33.0
28.705,2.194,0.909,53.0
28.757,2.205,0.75,153.0
28.712,2.209,0.588,34.0
28.705,2.216,0.425,59.0
28.721,2.224,0.265,53.0
28.953,2.249,0.105,8.0
28.725,2.247,0.901,31.0
28.716,2.254,0.74,93.0
28.712,2.261,0.579,35.0
28.724,2.269,0.416,48.0
28.737,2.277,0.255,34.0
28.904,2.298,0.095,11.0
28.732,2.3,0.891,20.0
28.717,2.305,0.73,39.0
28.72,2.312,0.569,37.0
28.724,2.32,0.406,36.0
28.793,2.332,0.245,28.0
28.94,2.352,0.085,20.0
28.746,2.352,0.881,39.0
28.727,2.357,0.719,37.0
28.75,2.366,0.559,38.0
28.773,2.374,0.395,23.0
28.855,2.388,0.235,17.0
28.998,2.407,0.073,13.0
28.785,2.405,0.87,18.0
28.891,2.42,0.711,26.0
28.879,2.426,0.549,47.0
28.866,2.432,0.384,29.0
65.496,5.534,0.504,24.0
34.307,2.907,0.071,0.0
28.828,2.458,0.859,14.0
34.267,2.93,0.828,52.0
34.25,2.936,0.636,5.0
34.284,2.946,0.44,40.0
34.291,2.955,0.248,10.0
46.266,3.998,0.075,3.0
34.269,2.979,1.005,2.0
120.688,10.52,2.861,49.0
120.503,10.53,2.18,20.0
102.798,9.007,1.271,29.0
57.372,5.039,0.387,31.0
46.014,4.052,0.052,5.0
120.657,10.691,3.478,54.0
120.659,10.717,2.798,53.0
120.661,10.742,2.12,33.0
78.311,6.99,0.927,2.0
0.0,0.0,0.0,0.0
41.429,3.716,0.024,10.0
115.393,10.411,3.264,14.0
115.342,10.43,2.612,11.0
13.912,1.261,0.236,0.0
13.876,1.26,0.156,4.0
13.866,1.263,0.078,7.0
13.868,1.266,0.0,17.0
13.857,1.272,0.384,13.0
13.851,1.274,0.305,14.0
13.868,1.279,0.227,13.0
13.834,1.279,0.148,20.0
13.845,1.283,0.07,25.0
13.855,1.287,-0.007,28.0
13.839,1.292,0.375,34.0
13.831,1.294,0.296,33.0
13.831,1.297,0.218,27.0
13.832,1.3,0.139,33.0
13.824,1.302,0.061,35.0
13.831,1.306,-0.016,32.0
13.824,1.312,0.365,38.0
13.81,1.314,0.287,39.0
13.814,1.317,0.209,37.0
13.815,1.319,0.13,39.0
13.809,1.322,0.052,38.0
13.806,1.324,-0.025,34.0
13.806,1.331,0.356,40.0
13.799,1.333,0.278,71.0
13.788,1.335,0.199,39.0
13.795,1.338,0.12,54.0
13.797,1.341,0.042,52.0
13.792,1.344,-0.035,36.0
13.794,1.351,0.346,43.0
13.785,1.352,0.268,121.0
13.776,1.354,0.19,106.0
13.791,1.358,0.11,68.0
13.789,1.361,0.032,75.0
13.788,1.363,-0.044,37.0
13.785,1.37,0.336,45.0
13.778,1.371,0.257,139.0
13.771,1.373,0.179,124.0
13.777,1.376,0.1,68.0
13.783,1.38,0.022,77.0
13.766,1.381,-0.055,34.0
13.777,1.388,0.325,50.0
13.773,1.39,0.247,137.0
13.768,1.392,0.169,91.0
13.787,1.397,0.09,80.0
13.786,1.399,0.012,64.0
13.76,1.399,-0.065,35.0
13.767,1.406,0.314,54.0
13.763,1.408,0.236,150.0
13.764,1.411,0.158,67.0
13.773,1.414,0.079,69.0
13.779,1.417,0.001,58.0
13.76,1.418,-0.076,36.0
13.761,1.424,0.303,40.0
13.768,1.427,0.225,134.0
13.769,1.43,0.147,60.0
13.776,1.433,0.068,57.0
13.785,1.436,-0.01,38.0
13.773,1.437,-0.088,34.0
13.775,1.443,0.292,40.0
13.772,1.445,0.214,100.0
13.782,1.449,0.136,132.0
13.776,1.45,0.056,39.0
13.776,1.453,-0.021,36.0
13.77,1.454,-0.099,33.0
13.777,1.461,0.28,38.0
13.781,1.464,0.202,88.0
13.786,1.466,0.124,103.0
13.776,1.468,0.044,39.0
13.787,1.471,-0.033,34.0
13.783,1.473,-0.112,32.0
13.785,1.479,0.268,39.0
13.792,1.482,0.19,52.0
13.786,1.483,0.112,39.0
13.79,1.486,0.032,37.0
13.801,1.489,-0.046,28.0
13.792,1.491,-0.124,27.0
13.796,1.497,0.256,36.0
13.804,1.5,0.178,37.0
13.797,1.501,0.099,31.0
13.797,1.503,0.019,28.0
13.81,1.507,-0.058,26.0
13.798,1.508,-0.137,21.0
13.805,1.514,0.244,32.0
13.803,1.515,0.165,23.0
13.803,1.517,0.086,18.0
13.808,1.52,0.006,19.0
13.828,1.524,-0.071,19.0
13.827,1.526,-0.15,14.0
13.824,1.531,0.231,18.0
13.836,1.534,0.152,11.0
13.825,1.535,0.074,8.0
13.855,1.54,-0.006,16.0
13.854,1.542,-0.085,10.0
13.845,1.543,-0.163,8.0
33.366,3.732,0.526,7.0
13.845,1.55,0.139,1.0
41.643,4.669,0.182,16.0
39.142,4.394,-0.055,13.0
34.56,3.884,-0.245,23.0
13.875,1.561,-0.177,2.0
33.366,3.767,0.493,27.0
74.303,8.398,0.675,4.0
41.326,4.676,0.139,29.0
37.899,4.293,-0.091,23.0
34.475,3.909,-0.279,47.0
24.756,2.811,-0.342,3.0
33.458,3.811,0.461,8.0
10.026,1.143,0.081,1.0
33.915,3.87,0.08,150.0
36.825,4.207,-0.125,12.0
34.43,3.938,-0.313,9.0
10.024,1.148,-0.148,2.0
33.92,3.895,0.433,27.0
33.852,3.891,0.239,9.0
33.891,3.9,0.046,141.0
36.504,4.205,-0.162,12.0
9.995,1.152,-0.101,9.0
9.996,1.154,-0.158,9.0
33.936,3.928,0.398,3.0
32.909,3.812,0.198,6.0
10.006,1.16,0.003,18.0
10.004,1.161,-0.054,16.0
10.014,1.163,-0.112,17.0
10.011,1.164,-0.169,16.0
10.012,1.167,0.107,49.0
10.004,1.167,0.049,104.0
10.002,1.168,-0.007,79.0
9.998,1.169,-0.065,41.0
10.008,1.171,-0.122,44.0
10.01,1.173,-0.18,20.0
10.006,1.175,0.096,77.0
10.005,1.176,0.039,125.0
9.995,1.175,-0.018,115.0
9.992,1.176,-0.076,68.0
10.002,1.178,-0.133,68.0
10.005,1.18,-0.19,21.0
9.993,1.181,0.085,73.0
10.001,1.183,0.028,147.0
9.994,1.183,-0.028,129.0
9.983,1.183,-0.086,79.0
9.995,1.185,-0.144,78.0
9.99,1.186,-0.201,36.0
9.986,1.187,0.074,70.0
9.991,1.189,0.017,130.0
9.98,1.188,-0.039,130.0
9.984,1.19,-0.097,77.0
9.979,1.19,-0.154,74.0
9.99,1.193,-0.212,37.0
9.983,1.194,0.063,70.0
9.98,1.195,0.006,122.0
9.979,1.195,-0.05,128.0
9.977,1.196,-0.108,89.0
9.983,1.198,-0.165,75.0
9.979,1.198,-0.223,38.0
9.982,1.2,0.052,99.0
9.984,1.201,-0.004,149.0
9.979,1.202,-0.061,150.0
9.968,1.201,-0.119,96.0
9.976,1.203,-0.177,96.0
9.975,1.204,-0.234,49.0
9.975,1.206,0.041,108.0
9.973,1.206,-0.016,150.0
9.976,1.207,-0.073,150.0
9.972,1.207,-0.131,103.0
9.977,1.209,-0.188,102.0
9.978,1.21,-0.245,50.0
9.972,1.211,0.029,102.0
9.969,1.211,-0.027,150.0
9.975,1.213,-0.084,150.0
9.967,1.212,-0.142,95.0
9.974,1.214,-0.199,102.0
9.973,1.215,-0.256,52.0
9.969,1.216,0.018,101.0
9.971,1.216,-0.038,150.0
9.98,1.218,-0.095,150.0
9.966,1.217,-0.153,112.0
9.972,1.219,-0.211,102.0
9.971,1.219,-0.268,61.0
9.97,1.22,0.006,85.0
9.975,1.221,-0.05,150.0
9.97,1.222,-0.107,150.0
9.969,1.222,-0.165,112.0
9.975,1.223,-0.222,106.0
9.97,1.223,-0.279,66.0
9.971,1.225,-0.004,46.0
9.97,1.225,-0.061,150.0
9.976,1.226,-0.118,150.0
9.969,1.226,-0.176,120.0
9.974,1.227,-0.234,108.0
9.969,1.227,-0.291,65.0
9.969,1.228,-0.015,48.0
9.972,1.229,-0.073,150.0
9.977,1.23,-0.13,150.0
9.964,1.229,-0.188,107.0
9.971,1.23,-0.245,103.0
9.965,1.23,-0.302,65.0
9.969,1.232,-0.027,87.0
9.968,1.232,-0.084,150.0
9.976,1.233,-0.142,150.0
9.962,1.232,-0.2,118.0
9.975,1.234,-0.257,110.0
9.967,1.234,-0.314,66.0
9.972,1.235,-0.039,110.0
9.975,1.235,-0.096,150.0
9.981,1.236,-0.153,150.0
9.97,1.236,-0.211,115.0
9.975,1.237,-0.269,111.0
9.967,1.236,-0.326,72.0
9.975,1.237,-0.05,109.0
9.978,1.238,-0.108,150.0
9.969,1.237,-0.165,150.0
9.962,1.237,-0.223,100.0
9.97,1.238,-0.28,107.0
9.972,1.239,-0.337,61.0
9.972,1.239,-0.062,97.0
9.975,1.24,-0.119,150.0
9.976,1.24,-0.176,150.0
9.964,1.239,-0.234,101.0
9.971,1.24,-0.292,104.0
9.97,1.24,-0.349,60.0
9.971,1.24,-0.073,97.0
9.975,1.241,-0.131,150.0
9.981,1.242,-0.188,150.0
9.971,1.241,-0.246,101.0
9.974,1.242,-0.303,107.0
9.962,1.24,-0.36,59.0
9.974,1.242,-0.085,98.0
9.969,1.241,-0.142,150.0
9.968,1.241,-0.199,150.0
9.961,1.24,-0.257,100.0
9.97,1.242,-0.315,104.0
9.974,1.243,-0.372,60.0
9.974,1.242,-0.096,102.0
9.972,1.242,-0.154,150.0
9.979,1.243,-0.211,150.0
9.969,1.242,-0.269,106.0
9.973,1.242,-0.326,111.0
9.976,1.243,-0.384,57.0
9.974,1.242,-0.108,105.0
9.971,1.242,-0.165,150.0
9.976,1.242,-0.222,150.0
9.968,1.242,-0.28,99.0
9.97,1.242,-0.338,111.0
9.971,1.242,-0.395,62.0
9.974,1.242,-0.119,103.0
9.967,1.241,-0.176,150.0
9.976,1.242,-0.234,150.0
9.966,1.241,-0.292,103.0
9.97,1.241,-0.349,117.0
9.967,1.241,-0.406,56.0
9.971,1.24,-0.131,108.0
9.977,1.241,-0.188,150.0
9.978,1.241,-0.245,150.0
9.97,1.24,-0.303,102.0
9.976,1.241,-0.361,112.0
9.968,1.24,-0.418,61.0
9.974,1.239,-0.142,110.0
9.978,1.24,-0.199,150.0
9.978,1.24,-0.256,150.0
9.968,1.238,-0.314,101.0
9.974,1.239,-0.372,113.0
9.976,1.24,-0.429,58.0
9.975,1.238,-0.153,113.0
9.978,1.238,-0.21,150.0
9.961,1.236,-0.267,150.0
9.967,1.236,-0.326,100.0
9.97,1.237,-0.383,109.0
9.969,1.237,-0.44,66.0
9.971,1.235,-0.164,108.0
9.967,1.234,-0.221,150.0
9.978,1.235,-0.279,150.0
9.968,1.234,-0.337,107.0
9.975,1.235,-0.394,111.0
9.975,1.235,-0.451,59.0
9.968,1.232,-0.175,113.0
9.967,1.232,-0.232,150.0
9.974,1.232,-0.29,150.0
9.967,1.231,-0.348,100.0
9.981,1.233,-0.405,107.0
9.97,1.231,-0.462,59.0
9.972,1.229,-0.186,117.0
9.973,1.229,-0.243,150.0
9.969,1.228,-0.3,150.0
9.967,1.228,-0.359,99.0
9.967,1.228,-0.416,106.0
9.971,1.228,-0.473,45.0
9.972,1.226,-0.197,106.0
9.98,1.226,-0.254,150.0
9.978,1.226,-0.311,150.0
9.964,1.224,-0.369,100.0
9.977,1.225,-0.427,104.0
9.974,1.224,-0.484,23.0
9.975,1.222,-0.208,113.0
9.974,1.221,-0.265,150.0
9.973,1.221,-0.322,150.0
9.974,1.221,-0.38,98.0
9.975,1.22,-0.437,97.0
9.976,1.22,-0.495,31.0
9.971,1.217,-0.218,95.0
9.97,1.216,-0.275,150.0
9.97,1.216,-0.332,150.0
9.978,1.216,-0.391,95.0
9.978,1.216,-0.448,88.0
9.981,1.216,-0.505,48.0
9.975,1.213,-0.229,84.0
9.979,1.212,-0.286,142.0
9.98,1.212,-0.343,150.0
9.97,1.21,-0.401,86.0
9.984,1.212,-0.459,83.0
9.986,1.211,-0.516,29.0
9.974,1.207,-0.239,85.0
9.98,1.207,-0.296,145.0
9.984,1.207,-0.353,133.0
9.977,1.206,-0.411,75.0
9.989,1.207,-0.469,69.0
9.989,1.206,-0.526,34.0
9.987,1.203,-0.249,68.0
9.983,1.202,-0.306,129.0
9.985,1.201,-0.363,141.0
9.981,1.2,-0.421,75.0
9.994,1.201,-0.479,51.0
9.995,1.201,-0.536,33.0
9.99,1.197,-0.259,72.0
10.0,1.197,-0.316,147.0
9.988,1.195,-0.373,134.0
9.998,1.196,-0.432,69.0
10.001,1.196,-0.489,72.0
9.997,1.195,-0.546,38.0
9.995,1.191,-0.269,76.0
9.999,1.191,-0.326,144.0
9.997,1.19,-0.383,130.0
10.003,1.19,-0.442,66.0
10.009,1.19,-0.499,80.0
10.003,1.188,-0.556,24.0
10.003,1.185,-0.278,71.0
10.005,1.184,-0.335,129.0
10.005,1.183,-0.393,112.0
10.001,1.182,-0.451,35.0
10.014,1.183,-0.508,30.0
