X,Y,Z,Reflectivity
0.0,0.0,0.0,0.0
0.0,0.0,0.0,0.0
0.0,0.0,0.0,0.0
0.0,0.0,0.0,0.0
0.0,0.0,0.0,0.0
0.0,0.0,0.0,0.0
0.0,0.0,0.0,0.0
0.0,0.0,0.0,0.0
0.0,0.0,0.0,0.0
0.0,0.0,0.0,0.0
0.0,0.0,0.0,0.0
0.0,0.0,0.0,0.0
0.0,0.0,0.0,0.0
0.0,0.0,0.0,0.0
0.0,0.0,0.0,0.0
0.0,0.0,0.0,0.0
0.0,0.0,0.0,0.0
0.0,0.0,0.0,0.0
0.0,0.0,0.0,0.0
0.0,0.0,0.0,0.0
0.0,0.0,0.0,0.0
0.0,0.0,0.0,0.0
0.0,0.0,0.0,0.0
0.0,0.0,0.0,0.0
93.094,-5.274,7.312,4.0
0.0,0.0,0.0,0.0
0.0,0.0,0.0,0.0
0.0,0.0,0.0,0.0
0.0,0.0,0.0,0.0
0.0,0.0,0.0,0.0
0.0,0.0,0.0,0.0
49.375,-2.794,5.341,0.0
0.0,0.0,0.0,0.0
0.0,0.0,0.0,0.0
0.0,0.0,0.0,0.0
0.0,0.0,0.0,0.0
0.0,0.0,0.0,0.0
49.363,-2.779,5.412,5.0
56.544,-3.178,5.896,5.0
0.0,0.0,0.0,0.0
0.0,0.0,0.0,0.0
0.0,0.0,0.0,0.0
0.0,0.0,0.0,0.0
49.383,-2.765,5.484,0.0
0.0,0.0,0.0,0.0
0.0,0.0,0.0,0.0
0.0,0.0,0.0,0.0
0.0,0.0,0.0,0.0
0.0,0.0,0.0,0.0
0.0,0.0,0.0,0.0
0.0,0.0,0.0,0.0
56.557,-3.133,5.751,4.0
0.0,0.0,0.0,0.0
0.0,0.0,0.0,0.0
0.0,0.0,0.0,0.0
50.336,-2.78,5.728,3.0
49.467,-2.726,5.362,3.0
0.0,0.0,0.0,0.0
56.845,-3.119,5.547,1.0
92.327,-5.054,8.514,4.0
0.0,0.0,0.0,0.0
48.249,-2.644,5.555,4.0
49.397,-2.701,5.421,3.0
0.0,0.0,0.0,0.0
56.528,-3.075,5.59,1.0
0.0,0.0,0.0,0.0
92.385,-5.003,8.145,2.0
48.488,-2.634,5.646,23.0
56.826,-3.08,6.31,4.0
0.0,0.0,0.0,0.0
56.614,-3.053,5.67,3.0
56.894,-3.06,5.393,2.0
92.327,-4.954,8.257,4.0
48.96,-2.636,5.763,23.0
57.089,-3.065,6.411,7.0
49.454,-2.648,5.287,2.0
0.0,0.0,0.0,0.0
0.0,0.0,0.0,0.0
90.716,-4.82,8.225,1.0
47.739,-2.544,5.679,5.0
50.202,-2.668,5.7,5.0
49.404,-2.619,5.342,5.0
0.0,0.0,0.0,0.0
56.625,-2.985,5.506,5.0
90.691,-4.767,8.333,4.0
50.952,-2.687,6.123,6.0
48.306,-2.54,5.543,16.0
56.955,-2.986,6.227,5.0
92.442,-4.832,9.598,2.0
0.0,0.0,0.0,0.0
56.798,-2.952,5.285,3.0
48.885,-2.548,5.933,4.0
48.654,-2.528,5.641,10.0
50.196,-2.6,5.547,4.0
55.235,-2.852,5.799,4.0
0.0,0.0,0.0,0.0
56.648,-2.908,5.336,3.0
0.0,0.0,0.0,0.0
48.804,-2.505,5.714,23.0
50.155,-2.566,5.6,7.0
49.45,-2.521,5.248,3.0
92.72,-4.714,9.338,6.0
56.651,-2.871,5.399,3.0
0.0,0.0,0.0,0.0
0.0,0.0,0.0,0.0
48.336,-2.44,5.45,5.0
49.453,-2.488,5.301,7.0
55.159,-2.767,5.614,1.0
63.641,-3.182,6.133,2.0
46.439,-2.328,5.792,0.0
49.358,-2.466,5.886,8.0
48.304,-2.405,5.497,11.0
54.88,-2.723,5.941,7.0
55.161,-2.728,5.671,3.0
92.701,-4.569,9.029,11.0
46.545,-2.3,5.853,4.0
48.95,-2.41,5.888,5.0
48.641,-2.386,5.585,14.0
56.781,-2.775,6.205,5.0
57.427,-2.797,5.963,2.0
55.026,-2.671,5.414,2.0
48.72,-2.371,6.176,10.0
48.971,-2.374,5.939,3.0
48.639,-2.349,5.633,19.0
56.597,-2.723,6.24,8.0
55.081,-2.641,5.772,8.0
54.997,-2.628,5.464,2.0
48.569,-2.326,6.203,21.0
62.966,-3.003,7.697,6.0
47.789,-2.271,5.58,5.0
48.433,-2.292,5.385,6.0
63.519,-2.995,6.716,5.0
58.013,-2.725,5.817,5.0
47.952,-2.258,6.17,13.0
46.817,-2.195,5.766,3.0
47.6,-2.223,5.601,4.0
48.337,-2.248,5.418,14.0
55.08,-2.552,5.873,7.0
55.084,-2.541,5.573,13.0
47.923,-2.216,6.209,22.0
46.839,-2.157,5.811,3.0
49.643,-2.276,5.885,6.0
48.436,-2.212,5.471,12.0
49.561,-2.254,5.327,5.0
57.336,-2.597,5.85,3.0
47.506,-2.156,6.196,14.0
48.566,-2.194,6.066,13.0
49.443,-2.224,5.903,7.0
48.764,-2.184,5.549,9.0
40.527,-1.807,4.389,37.0
56.927,-2.528,5.854,6.0
47.273,-2.103,6.204,4.0
48.455,-2.146,6.092,23.0
46.04,-2.03,5.534,7.0
53.073,-2.329,6.082,11.0
49.644,-2.169,5.416,5.0
56.628,-2.464,5.867,16.0
42.197,-1.838,5.571,9.0
48.286,-2.094,6.107,5.0
48.738,-2.104,5.895,4.0
40.477,-1.739,4.668,3.0
40.477,-1.731,4.446,40.0
53.145,-2.263,5.545,2.0
42.273,-1.802,5.612,44.0
57.009,-2.419,7.253,5.0
40.339,-1.703,4.908,39.0
57.406,-2.413,6.662,8.0
40.479,-1.693,4.474,42.0
40.403,-1.682,4.243,22.0
42.284,-1.762,5.643,43.0
50.677,-2.102,6.482,9.0
40.307,-1.664,4.932,47.0
40.604,-1.667,4.739,37.0
40.36,-1.649,4.488,63.0
40.376,-1.642,4.267,56.0
42.251,-1.72,5.666,49.0
42.118,-1.706,5.414,10.0
40.296,-1.624,4.955,44.0
40.629,-1.629,4.767,7.0
40.326,-1.609,4.508,52.0
40.384,-1.603,4.292,55.0
49.517,-1.968,6.671,5.0
42.074,-1.662,5.433,46.0
40.268,-1.583,4.976,40.0
40.362,-1.578,4.759,71.0
40.19,-1.564,4.516,63.0
40.383,-1.563,4.314,53.0
42.256,-1.636,5.716,41.0
42.116,-1.622,5.462,58.0
40.257,-1.542,4.996,56.0
40.422,-1.54,4.788,50.0
40.316,-1.527,4.551,64.0
40.339,-1.52,4.33,54.0
42.348,-1.597,5.751,39.0
42.212,-1.583,5.496,55.0
40.244,-1.501,5.015,54.0
40.27,-1.493,4.79,65.0
40.33,-1.486,4.572,56.0
40.436,-1.482,4.36,44.0
42.18,-1.546,5.748,54.0
42.375,-1.544,5.537,52.0
40.269,-1.459,5.036,52.0
40.219,-1.449,4.802,62.0
40.127,-1.437,4.567,70.0
40.363,-1.437,4.37,45.0
42.123,-1.5,5.758,63.0
42.262,-1.495,5.54,55.0
40.406,-1.421,5.071,36.0
40.336,-1.409,4.832,65.0
40.282,-1.399,4.601,48.0
40.204,-1.388,4.368,42.0
42.057,-1.452,5.766,49.0
42.265,-1.45,5.557,50.0
42.922,-1.463,5.402,4.0
40.624,-1.376,4.881,40.0
40.461,-1.362,4.636,44.0
40.005,-1.338,4.36,61.0
42.062,-1.406,5.781,45.0
41.993,-1.395,5.535,55.0
40.733,-1.344,5.14,54.0
40.544,-1.329,4.885,51.0
40.137,-1.307,4.611,54.0
39.953,-1.293,4.367,46.0
42.07,-1.36,5.795,37.0
49.926,-1.603,6.595,11.0
41.016,-1.308,5.187,68.0
40.421,-1.28,4.881,56.0
39.807,-1.252,4.584,62.0
39.914,-1.247,4.373,57.0
42.183,-1.317,5.821,50.0
47.309,-1.466,6.261,5.0
41.061,-1.263,5.203,76.0
40.403,-1.234,4.888,61.0
39.474,-1.198,4.554,65.0
40.026,-1.206,4.393,57.0
42.269,-1.271,5.842,63.0
42.029,-1.255,5.57,38.0
40.017,-1.186,5.078,37.0
40.441,-1.19,4.9,44.0
39.414,-1.151,4.554,66.0
39.763,-1.153,4.371,58.0
42.501,-1.23,5.88,52.0
42.389,-1.218,5.625,26.0
39.776,-1.134,5.053,44.0
40.202,-1.137,4.876,49.0
39.389,-1.106,4.556,54.0
39.518,-1.101,4.349,46.0
42.35,-1.177,5.864,44.0
49.076,-1.353,6.517,9.0
39.717,-1.087,5.049,46.0
40.135,-1.089,4.872,51.0
39.219,-1.056,4.539,64.0
39.423,-1.054,4.341,50.0
42.2,-1.124,5.846,59.0
42.555,-1.125,5.654,68.0
39.543,-1.037,5.029,54.0
40.173,-1.045,4.878,53.0
39.147,-1.01,4.532,62.0
39.34,-1.007,4.333,61.0
41.997,-1.07,5.819,53.0
42.153,-1.065,5.601,55.0
39.55,-0.991,5.03,60.0
40.397,-1.004,4.905,39.0
39.178,-0.965,4.536,58.0
39.487,-0.964,4.349,63.0
41.841,-1.017,5.796,66.0
42.093,-1.014,5.591,53.0
39.499,-0.944,5.022,38.0
39.607,-0.938,4.807,75.0
39.538,-0.928,4.575,57.0
39.001,-0.908,4.292,63.0
41.926,-0.97,5.805,45.0
41.942,-0.962,5.568,61.0
39.462,-0.897,5.014,54.0
39.776,-0.896,4.824,56.0
39.339,-0.878,4.548,66.0
39.075,-0.864,4.296,45.0
42.001,-0.923,5.81,51.0
41.962,-0.913,5.565,63.0
39.452,-0.851,5.007,63.0
39.428,-0.842,4.776,63.0
39.278,-0.831,4.535,61.0
39.034,-0.817,4.286,57.0
42.066,-0.875,5.812,47.0
41.97,-0.865,5.559,31.0
39.528,-0.807,5.01,51.0
39.294,-0.793,4.752,57.0
39.308,-0.786,4.53,58.0
39.065,-0.773,4.281,58.0
50.304,-0.988,6.94,12.0
0.0,0.0,0.0,0.0
39.609,-0.762,5.011,42.0
39.181,-0.745,4.729,64.0
39.48,-0.744,4.541,52.0
38.968,-0.726,4.261,63.0
42.441,-0.784,5.844,18.0
39.903,-0.729,5.266,40.0
39.549,-0.714,4.992,56.0
39.183,-0.7,4.718,60.0
39.793,-0.703,4.565,51.0
39.272,-0.686,4.282,39.0
41.938,-0.724,5.762,48.0
39.947,-0.682,5.259,56.0
39.752,-0.671,5.005,48.0
39.755,-0.663,4.774,68.0
39.659,-0.654,4.536,54.0
39.373,-0.642,4.28,54.0
42.6,-0.687,5.837,47.0
39.958,-0.636,5.246,40.0
39.631,-0.623,4.975,49.0
39.877,-0.619,4.774,57.0
39.521,-0.606,4.506,60.0
39.641,-0.6,4.293,23.0
39.937,-0.597,5.456,36.0
39.911,-0.589,5.223,39.0
39.847,-0.58,4.986,60.0
40.136,-0.577,4.788,52.0
39.729,-0.563,4.512,50.0
39.131,-0.547,4.221,45.0
39.942,-0.551,5.439,27.0
39.972,-0.544,5.213,34.0
39.998,-0.536,4.986,40.0
40.028,-0.529,4.756,44.0
39.593,-0.516,4.478,54.0
39.486,-0.507,4.24,55.0
39.993,-0.505,5.427,37.0
39.947,-0.497,5.19,75.0
39.937,-0.49,4.959,58.0
39.899,-0.482,4.721,52.0
40.014,-0.476,4.505,44.0
39.328,-0.461,4.203,52.0
40.096,-0.461,5.419,39.0
39.889,-0.451,5.161,69.0
42.259,-0.47,5.224,3.0
40.079,-0.439,4.72,43.0
39.843,-0.429,4.463,48.0
39.301,-0.416,4.178,50.0
40.019,-0.415,5.385,78.0
39.921,-0.406,5.141,68.0
39.842,-0.398,4.901,51.0
40.173,-0.395,4.707,32.0
39.905,-0.385,4.446,54.0
39.538,-0.374,4.179,61.0
40.092,-0.37,5.369,43.0
39.723,-0.36,5.091,40.0
39.78,-0.353,4.868,57.0
0.0,0.0,0.0,0.0
40.011,-0.341,4.431,42.0
39.642,-0.33,4.163,36.0
39.708,-0.321,5.291,70.0
39.57,-0.314,5.044,43.0
39.686,-0.308,4.829,45.0
39.904,-0.302,4.621,30.0
40.13,-0.298,4.417,43.0
39.523,-0.286,4.123,44.0
39.448,-0.276,5.228,58.0
39.602,-0.27,5.019,51.0
39.658,-0.264,4.797,54.0
42.05,-0.272,4.839,33.0
40.148,-0.253,4.389,50.0
39.461,-0.242,4.087,51.0
39.442,-0.233,5.197,67.0
39.73,-0.228,5.005,50.0
39.523,-0.22,4.75,47.0
40.14,-0.217,4.588,15.0
40.075,-0.21,4.35,55.0
39.73,-0.202,4.084,55.0
39.464,-0.19,5.168,58.0
39.662,-0.185,4.964,60.0
39.731,-0.179,4.742,46.0
46.874,-0.203,5.319,8.0
40.705,-0.17,4.384,42.0
40.15,-0.161,4.094,61.0
39.396,-0.147,5.126,63.0
39.676,-0.142,4.931,48.0
59.182,-0.203,7.013,9.0
40.27,-0.132,4.535,42.0
40.971,-0.127,4.377,41.0
40.883,-0.121,4.132,25.0
39.6,-0.106,5.116,48.0
39.6,-0.1,4.886,61.0
39.886,-0.094,4.69,51.0
40.47,-0.09,4.52,44.0
40.733,-0.084,4.314,41.0
40.85,-0.078,4.091,36.0
39.507,-0.064,5.067,63.0
39.591,-0.059,4.847,47.0
39.899,-0.053,4.653,45.0
40.679,-0.048,4.505,28.0
40.807,-0.043,4.283,41.0
41.054,-0.037,4.072,32.0
39.371,-0.024,5.011,60.0
39.45,-0.019,4.791,62.0
39.682,-0.013,4.589,42.0
40.102,-0.007,4.401,40.0
40.335,-0.002,4.193,45.0
40.383,0.003,3.965,53.0
39.4,0.015,4.974,64.0
54.572,0.028,6.572,7.0
39.731,0.026,4.553,43.0
40.445,0.032,4.397,55.0
40.036,0.037,4.121,64.0
40.298,0.043,3.915,60.0
39.393,0.053,4.932,57.0
39.865,0.059,4.759,35.0
39.86,0.065,4.526,49.0
40.122,0.07,4.319,61.0
40.032,0.076,4.077,65.0
40.114,0.081,3.854,69.0
39.474,0.091,4.898,32.0
39.767,0.097,4.703,16.0
40.131,0.104,4.512,42.0
40.584,0.11,4.323,28.0
40.072,0.114,4.036,67.0
59.214,0.176,5.622,72.0
43.715,0.142,5.375,12.0
39.626,0.134,4.641,31.0
40.213,0.141,4.475,46.0
40.198,0.146,4.236,54.0
40.217,0.152,4.004,60.0
47.645,0.186,4.468,62.0
43.794,0.183,5.332,28.0
40.407,0.174,4.684,19.0
40.174,0.178,4.423,55.0
40.441,0.184,4.213,66.0
40.296,0.188,3.964,36.0
47.648,0.228,4.411,51.0
39.64,0.202,4.778,40.0
43.111,0.224,4.945,5.0
40.381,0.215,4.396,45.0
40.274,0.219,4.146,51.0
40.186,0.223,3.904,44.0
47.705,0.27,4.358,6.0
39.59,0.236,4.722,67.0
40.211,0.244,4.561,56.0
40.055,0.248,4.31,68.0
57.351,0.361,5.832,10.0
47.516,0.304,4.556,24.0
57.24,0.372,5.157,20.0
40.273,0.274,4.752,69.0
40.546,0.28,4.547,50.0
44.123,0.31,4.691,3.0
43.951,0.313,4.412,5.0
47.666,0.344,4.508,14.0
48.836,0.358,4.336,16.0
40.198,0.307,4.69,40.0
40.187,0.311,4.453,58.0
40.349,0.316,4.236,29.0
47.369,0.376,4.692,13.0
40.064,0.322,3.735,34.0
48.77,0.397,4.264,78.0
40.21,0.339,4.636,65.0
44.068,0.376,4.823,5.0
40.112,0.346,4.155,50.0
47.67,0.416,4.656,38.0
40.005,0.353,3.674,66.0
48.733,0.435,4.193,73.0
40.229,0.371,4.581,61.0
44.063,0.41,4.76,8.0
40.095,0.377,4.097,49.0
40.89,0.388,3.936,17.0
39.977,0.383,3.615,51.0
48.621,0.47,4.115,50.0
41.127,0.41,4.625,29.0
41.079,0.413,4.378,35.0
47.681,0.483,4.803,6.0
39.893,0.408,3.782,57.0
40.169,0.414,3.575,53.0
48.457,0.504,4.031,113.0
43.927,0.47,4.875,2.0
40.722,0.438,4.281,40.0
47.658,0.517,4.731,38.0
40.028,0.437,3.736,29.0
48.393,0.533,4.235,72.0
48.456,0.537,3.959,95.0
41.413,0.471,4.534,25.0
0.0,0.0,0.0,0.0
56.217,0.648,5.498,15.0
39.94,0.463,3.669,48.0
48.399,0.565,4.163,107.0
56.141,0.659,4.503,49.0
41.098,0.494,4.437,24.0
47.66,0.577,4.866,9.0
56.216,0.685,5.411,12.0
39.749,0.486,3.59,69.0
56.206,0.692,4.749,13.0
56.158,0.695,4.418,62.0
47.611,0.603,5.066,51.0
41.18,0.524,4.14,26.0
48.332,0.618,4.576,7.0
39.74,0.511,3.527,69.0
56.187,0.726,4.659,94.0
61.666,0.8,4.755,18.0
47.62,0.632,4.991,29.0
39.992,0.533,3.957,29.0
40.016,0.535,3.725,54.0
56.193,0.755,4.898,11.0
64.448,0.87,5.241,27.0
64.174,0.87,4.845,40.0
40.635,0.562,4.193,16.0
40.184,0.558,3.911,46.0
39.896,0.556,3.649,53.0
56.201,0.786,4.807,27.0
84.921,1.193,6.768,10.0
64.155,0.905,4.739,13.0
40.603,0.584,4.122,17.0
40.181,0.58,3.844,46.0
39.757,0.575,3.571,64.0
39.968,0.58,3.352,1.0
78.048,1.137,6.092,8.0
91.38,1.335,6.601,37.0
40.44,0.601,4.038,61.0
40.111,0.598,3.77,54.0
39.831,0.596,3.511,57.0
76.787,1.152,6.312,6.0
91.747,1.38,7.007,10.0
91.74,1.385,6.472,35.0
48.37,0.742,4.748,11.0
40.009,0.615,3.693,61.0
39.873,0.615,3.447,65.0
84.735,1.31,6.822,13.0
91.204,1.413,6.81,33.0
91.781,1.426,6.319,55.0
48.375,0.764,4.665,12.0
40.038,0.633,3.626,27.0
39.883,0.632,3.378,55.0
78.075,1.24,6.15,10.0
124.612,1.983,9.089,11.0
91.838,1.465,6.164,13.0
40.049,0.648,3.792,52.0
39.861,0.646,3.54,57.0
39.946,0.649,3.314,1.0
91.115,1.483,7.018,15.0
91.774,1.496,6.533,39.0
123.967,2.023,8.103,17.0
49.031,0.812,4.556,14.0
39.881,0.661,3.472,68.0
77.234,1.282,6.271,57.0
94.097,1.564,7.08,1.0
91.786,1.528,6.371,27.0
76.372,1.273,4.856,19.0
40.061,0.677,3.65,37.0
39.879,0.674,3.399,76.0
77.101,1.305,6.122,56.0
77.318,1.31,5.679,21.0
124.716,2.116,8.433,22.0
62.419,1.059,3.857,77.0
39.957,0.687,3.568,55.0
39.941,0.687,3.333,39.0
77.299,1.33,5.998,22.0
77.296,1.332,5.538,64.0
76.331,1.316,5.022,20.0
62.441,1.077,3.745,59.0
39.922,0.697,3.491,59.0
53.312,0.931,4.35,4.0
77.156,1.348,5.843,46.0
77.281,1.35,5.393,78.0
62.358,1.09,3.987,67.0
54.776,0.958,3.183,35.0
39.938,0.706,3.418,67.0
76.312,1.35,6.084,12.0
76.686,1.356,5.664,56.0
77.245,1.366,5.247,79.0
62.375,1.103,3.873,96.0
54.812,0.969,3.083,47.0
53.279,0.952,4.46,10.0
53.333,0.953,4.152,71.0
76.478,1.366,5.506,42.0
76.8,1.372,5.071,57.0
62.566,1.117,3.766,59.0
55.087,0.983,2.995,22.0
53.294,0.961,4.36,71.0
53.363,0.961,4.052,45.0
76.556,1.379,5.367,39.0
62.337,1.122,3.999,96.0
54.747,0.985,3.192,39.0
55.207,0.992,2.896,56.0
53.317,0.968,4.26,80.0
76.301,1.384,5.648,10.0
76.951,1.394,5.245,28.0
62.37,1.128,3.881,93.0
54.783,0.99,3.089,59.0
55.217,0.997,2.791,25.0
53.335,0.972,4.158,84.0
76.331,1.39,5.504,46.0
76.472,1.391,5.066,28.0
62.673,1.138,3.778,66.0
55.135,1.0,3.002,24.0
130.482,2.365,6.345,15.0
53.362,0.975,4.056,48.0
76.339,1.392,5.355,55.0
62.338,1.135,4.008,93.0
54.72,0.995,3.193,41.0
55.221,1.003,2.9,62.0
128.947,2.338,6.018,19.0
74.341,1.358,5.504,19.0
76.488,1.395,5.215,46.0
62.38,1.135,3.888,88.0
54.791,0.995,3.089,60.0
55.216,1.001,2.79,26.0
129.821,2.351,5.804,22.0
76.33,1.392,5.501,58.0
76.398,1.39,5.058,19.0
62.668,1.137,3.782,64.0
55.164,0.999,3.001,25.0
130.38,2.357,6.334,21.0
130.481,2.355,5.579,23.0
76.379,1.387,5.354,42.0
62.34,1.129,4.004,95.0
54.732,0.989,3.195,42.0
55.199,0.995,2.894,62.0
129.403,2.328,6.03,18.0
128.148,2.299,5.225,8.0
77.19,1.393,5.258,39.0
62.383,1.123,3.884,95.0
54.801,0.983,3.09,50.0
55.205,0.988,2.785,22.0
129.881,2.318,5.793,30.0
174.507,3.107,6.768,8.0
76.809,1.374,5.078,57.0
62.589,1.116,3.771,50.0
55.114,0.98,2.998,28.0
130.101,2.307,6.304,18.0
130.318,2.303,5.554,24.0
161.439,2.845,5.938,10.0
62.367,1.104,3.997,92.0
54.772,0.966,3.19,34.0
55.184,0.97,2.891,50.0
129.661,2.273,6.024,24.0
130.616,2.281,5.306,14.0
132.779,2.311,4.619,31.0
62.394,1.09,3.874,98.0
54.851,0.955,3.085,54.0
55.143,0.956,2.779,25.0
129.976,2.245,5.777,27.0
174.514,3.004,6.741,19.0
132.883,2.279,4.357,29.0
62.469,1.074,3.753,47.0
54.988,0.942,2.982,57.0
55.162,0.941,2.669,3.0
130.358,2.215,5.535,17.0
132.607,2.245,4.858,9.0
163.256,2.752,5.028,13.0
54.845,0.926,3.185,52.0
55.046,0.926,2.874,63.0
122.187,2.046,5.667,26.0
59.279,0.988,2.397,2.0
132.655,2.202,4.592,25.0
159.774,2.64,4.6,17.0
54.893,0.908,3.077,68.0
55.063,0.907,2.764,68.0
130.425,2.138,5.787,32.0
161.546,2.635,6.208,17.0
133.003,2.158,4.335,25.0
160.001,2.584,4.283,5.0
54.968,0.888,2.97,85.0
55.051,0.885,2.653,70.0
130.245,2.084,5.518,29.0
132.619,2.11,4.83,12.0
162.747,2.575,4.977,17.0
176.394,2.777,4.369,7.0
55.001,0.866,2.861,58.0
55.052,0.861,2.542,70.0
59.358,0.924,2.394,7.0
132.821,2.055,4.57,32.0
163.144,2.509,4.661,7.0
190.073,2.906,4.324,19.0
55.016,0.841,2.751,123.0
55.064,0.836,2.431,64.0
163.158,2.462,6.252,15.0
132.974,1.994,4.306,29.0
176.306,2.627,4.681,12.0
190.053,2.813,3.939,28.0
55.006,0.813,2.638,97.0
55.062,0.808,2.319,76.0
55.133,0.804,2.001,5.0
132.988,1.925,4.037,10.0
176.579,2.538,4.329,20.0
189.395,2.704,3.543,27.0
55.012,0.783,2.527,111.0
55.054,0.778,2.207,86.0
55.075,0.772,1.887,56.0
163.212,2.272,4.624,16.0
190.198,2.627,4.279,20.0
127.412,1.746,2.123,28.0
55.02,0.751,2.416,113.0
55.037,0.746,2.096,95.0
55.039,0.739,1.774,80.0
55.099,0.734,1.45,13.0
0.0,0.0,0.0,0.0
126.54,1.658,1.858,32.0
55.018,0.718,2.306,107.0
55.026,0.711,1.985,106.0
55.035,0.705,1.664,87.0
55.077,0.699,1.339,42.0
55.097,0.692,1.018,3.0
48.212,0.6,0.611,12.0
55.011,0.682,2.195,119.0
55.008,0.675,1.874,116.0
55.024,0.668,1.553,107.0
55.043,0.662,1.228,74.0
48.181,0.573,0.794,40.0
48.115,0.566,0.512,87.0
55.014,0.644,2.085,129.0
55.002,0.636,1.764,114.0
48.209,0.551,1.265,52.0
48.16,0.544,0.978,63.0
48.111,0.538,0.696,87.0
48.08,0.531,0.416,84.0
55.025,0.603,1.974,45.0
48.19,0.522,1.448,58.0
48.144,0.515,1.167,83.0
48.114,0.508,0.881,93.0
48.094,0.501,0.601,99.0
48.062,0.495,0.321,91.0
48.175,0.491,1.634,89.0
48.137,0.484,1.352,89.0
48.116,0.478,1.071,101.0
48.084,0.47,0.785,105.0
48.067,0.464,0.506,94.0
48.03,0.456,0.225,88.0
48.148,0.452,1.538,91.0
48.127,0.445,1.256,113.0
48.112,0.438,0.976,110.0
48.07,0.431,0.69,106.0
48.05,0.424,0.411,105.0
47.999,0.416,0.131,79.0
48.136,0.412,1.442,121.0
48.123,0.405,1.162,115.0
48.096,0.397,0.882,111.0
48.058,0.39,0.597,108.0
48.06,0.383,0.317,94.0
47.26,0.369,0.037,42.0
48.114,0.37,1.348,111.0
48.105,0.363,1.069,113.0
48.088,0.355,0.788,104.0
48.076,0.347,0.504,79.0
48.095,0.34,0.224,44.0
44.042,0.305,-0.05,15.0
48.126,0.326,1.256,108.0
48.119,0.319,0.976,94.0
48.126,0.311,0.697,59.0
48.162,0.304,0.412,57.0
48.123,0.296,0.133,52.0
39.475,0.236,-0.12,35.0
48.165,0.282,1.166,79.0
48.176,0.274,0.886,58.0
48.223,0.266,0.606,36.0
55.064,0.295,0.366,53.0
47.371,0.246,0.04,38.0
38.565,0.194,-0.191,28.0
59.285,0.288,1.321,58.0
59.287,0.278,0.976,136.0
59.306,0.269,0.632,98.0
59.336,0.258,0.281,10.0
0.0,0.0,0.0,0.0
37.838,0.152,-0.26,11.0
79.436,0.306,1.619,150.0
79.466,0.292,1.157,151.0
77.137,0.27,0.675,51.0
54.41,0.181,0.155,29.0
39.865,0.126,-0.117,26.0
33.717,0.1,-0.295,0.0
79.455,0.223,1.47,157.0
79.469,0.209,1.01,151.0
76.158,0.187,0.525,23.0
47.607,0.108,0.047,22.0
38.902,0.081,-0.186,25.0
32.096,0.061,-0.34,1.0
79.458,0.138,1.324,156.0
79.457,0.123,0.862,151.0
61.851,0.085,0.312,10.0
0.0,0.0,0.0,0.0
38.295,0.038,-0.254,6.0
30.439,0.024,-0.379,1.0
79.454,0.05,1.178,151.0
79.424,0.035,0.717,118.0
0.0,0.0,0.0,0.0
40.59,0.002,-0.108,16.0
38.262,-0.005,-0.324,0.0
29.387,-0.009,-0.419,2.0
79.459,-0.04,1.034,153.0
76.484,-0.053,0.551,18.0
48.09,-0.043,0.067,7.0
39.428,-0.043,-0.177,15.0
32.609,-0.042,-0.335,1.0
28.284,-0.042,-0.455,1.0
79.474,-0.133,0.891,151.0
61.721,-0.116,0.333,8.0
45.467,-0.095,-0.018,20.0
38.826,-0.089,-0.244,4.0
30.712,-0.076,-0.371,1.0
27.055,-0.073,-0.484,2.0
79.441,-0.23,0.747,150.0
56.114,-0.174,0.202,13.0
41.784,-0.138,-0.091,18.0
37.233,-0.13,-0.3,0.0
29.599,-0.11,-0.41,2.0
26.173,-0.102,-0.514,2.0
79.089,-0.327,0.606,16.0
50.743,-0.22,0.094,12.0
39.694,-0.181,-0.156,4.0
33.031,-0.157,-0.324,1.0
28.563,-0.142,-0.446,2.0
25.088,-0.13,-0.537,1.0
76.656,-0.414,0.453,10.0
46.328,-0.26,0.006,8.0
40.127,-0.233,-0.226,3.0
31.214,-0.188,-0.36,1.0
27.374,-0.171,-0.474,1.0
24.204,-0.156,-0.559,3.0
61.221,-0.409,0.259,18.0
45.214,-0.312,-0.069,4.0
40.017,-0.285,-0.293,2.0
29.934,-0.219,-0.395,2.0
26.578,-0.201,-0.505,3.0
23.416,-0.182,-0.581,2.0
55.599,-0.445,0.141,4.0
47.375,-0.389,-0.152,18.0
33.851,-0.285,-0.304,1.0
29.038,-0.251,-0.432,2.0
25.575,-0.227,-0.528,2.0
22.636,-0.206,-0.599,1.0
53.621,-0.501,0.049,5.0
0.0,0.0,0.0,0.0
31.962,-0.313,-0.34,1.0
28.004,-0.281,-0.463,2.0
24.611,-0.252,-0.549,1.0
21.84,-0.229,-0.613,2.0
54.12,-0.58,-0.039,18.0
38.518,-0.422,-0.25,6.0
30.435,-0.34,-0.374,2.0
26.847,-0.306,-0.487,1.0
23.792,-0.277,-0.569,1.0
21.14,-0.251,-0.628,1.0
47.233,-0.572,-0.109,0.0
35.637,-0.44,-0.288,1.0
29.502,-0.371,-0.409,2.0
26.021,-0.334,-0.514,1.0
23.036,-0.301,-0.588,1.0
20.444,-0.272,-0.64,1.0
45.111,-0.611,-0.176,3.0
33.125,-0.457,-0.32,1.0
28.522,-0.4,-0.44,2.0
25.101,-0.358,-0.535,1.0
22.306,-0.324,-0.604,1.0
19.921,-0.294,-0.655,1.0
0.0,0.0,0.0,0.0
31.496,-0.48,-0.353,1.0
27.566,-0.427,-0.468,1.0
24.268,-0.382,-0.554,1.0
21.59,-0.345,-0.618,2.0
19.395,-0.315,-0.667,1.0
40.142,-0.661,-0.279,2.0
30.117,-0.504,-0.383,1.0
26.68,-0.453,-0.493,1.0
23.517,-0.405,-0.573,2.0
20.904,-0.365,-0.63,1.0
18.854,-0.334,-0.676,1.0
34.192,-0.614,-0.288,0.0
29.331,-0.534,-0.416,1.0
25.855,-0.478,-0.516,1.0
22.851,-0.428,-0.59,2.0
20.365,-0.387,-0.643,1.0
18.406,-0.354,-0.688,1.0
33.103,-0.645,-0.327,1.0
28.424,-0.561,-0.445,1.0
25.065,-0.501,-0.536,1.0
22.266,-0.451,-0.607,4.0
19.852,-0.407,-0.655,1.0
17.984,-0.374,-0.698,1.0
31.145,-0.655,-0.352,1.0
27.397,-0.583,-0.467,1.0
24.244,-0.522,-0.553,1.0
21.548,-0.47,-0.618,1.0
19.354,-0.427,-0.666,1.0
17.607,-0.393,-0.708,1.0
30.147,-0.681,-0.383,1.0
26.849,-0.613,-0.495,4.0
23.549,-0.544,-0.57,2.0
20.922,-0.489,-0.629,1.0
18.874,-0.446,-0.676,1.0
17.235,-0.412,-0.716,1.0
29.336,-0.709,-0.412,1.0
25.942,-0.634,-0.513,1.0
22.957,-0.567,-0.586,1.0
20.527,-0.512,-0.644,2.0
18.464,-0.466,-0.686,1.0
16.86,-0.43,-0.723,1.0
28.531,-0.735,-0.439,1.0
25.215,-0.656,-0.532,1.0
22.322,-0.587,-0.599,1.0
19.912,-0.529,-0.651,1.0
18.055,-0.484,-0.694,1.0
16.48,-0.447,-0.728,1.0
27.694,-0.758,-0.461,1.0
24.544,-0.678,-0.549,1.0
21.763,-0.607,-0.612,1.0
19.493,-0.549,-0.662,1.0
17.732,-0.504,-0.704,1.0
16.169,-0.465,-0.735,1.0
26.917,-0.78,-0.482,1.0
23.775,-0.695,-0.562,1.0
21.201,-0.626,-0.623,1.0
19.05,-0.568,-0.671,1.0
17.385,-0.524,-0.712,1.0
15.853,-0.482,-0.74,1.0
26.262,-0.805,-0.502,1.0
23.249,-0.719,-0.578,1.0
20.703,-0.646,-0.633,1.0
18.659,-0.588,-0.68,2.0
17.038,-0.542,-0.718,1.0
15.58,-0.5,-0.746,1.0
25.598,-0.827,-0.52,1.0
22.698,-0.74,-0.591,1.0
20.226,-0.665,-0.642,1.0
18.319,-0.608,-0.689,1.0
16.7,-0.559,-0.723,1.0
15.335,-0.518,-0.752,1.0
25.011,-0.85,-0.537,1.0
22.149,-0.759,-0.602,1.0
19.822,-0.685,-0.652,1.0
17.996,-0.627,-0.697,1.0
16.416,-0.577,-0.73,1.0
15.108,-0.536,-0.758,1.0
24.356,-0.869,-0.55,1.0
21.663,-0.779,-0.613,1.0
19.46,-0.705,-0.662,1.0
17.683,-0.646,-0.704,1.0
16.111,-0.594,-0.734,1.0
14.874,-0.552,-0.763,1.0
23.739,-0.887,-0.561,2.0
21.176,-0.797,-0.621,1.0
19.079,-0.724,-0.669,1.0
17.388,-0.665,-0.711,2.0
15.894,-0.613,-0.741,1.0
14.649,-0.569,-0.766,1.0
23.317,-0.911,-0.575,2.0
20.729,-0.816,-0.63,1.0
18.747,-0.744,-0.677,1.0
17.106,-0.684,-0.717,1.0
15.656,-0.63,-0.745,1.0
14.457,-0.587,-0.771,1.0
22.88,-0.933,-0.587,2.0
20.343,-0.836,-0.638,1.0
18.431,-0.763,-0.683,1.0
16.822,-0.702,-0.721,1.0
15.448,-0.649,-0.751,1.0
14.256,-0.603,-0.774,1.0
22.4,-0.952,-0.596,1.0
20.018,-0.857,-0.647,1.0
18.177,-0.784,-0.691,1.0
16.569,-0.72,-0.726,1.0
15.263,-0.668,-0.756,1.0
14.08,-0.621,-0.778,1.0
21.944,-0.971,-0.604,1.0
19.711,-0.879,-0.655,1.0
17.916,-0.804,-0.698,1.0
16.317,-0.737,-0.73,1.0
15.044,-0.685,-0.759,1.0
13.919,-0.638,-0.782,1.0
21.574,-0.993,-0.613,1.0
19.396,-0.898,-0.662,1.0
17.669,-0.824,-0.703,1.0
16.087,-0.755,-0.733,1.0
14.872,-0.703,-0.763,1.0
13.781,-0.656,-0.786,1.0
21.2,-1.013,-0.62,1.0
19.112,-0.919,-0.668,1.0
17.409,-0.843,-0.707,1.0
15.908,-0.775,-0.739,1.0
14.696,-0.721,-0.766,1.0
13.649,-0.674,-0.789,1.0
20.88,-1.034,-0.628,1.0
18.831,-0.939,-0.673,1.0
17.21,-0.863,-0.713,1.0
15.749,-0.795,-0.744,1.0
14.537,-0.739,-0.769,1.0
13.538,-0.692,-0.793,0.0
20.579,-1.056,-0.635,1.0
18.621,-0.961,-0.68,2.0
17.0,-0.883,-0.717,1.0
15.557,-0.813,-0.746,1.0
14.401,-0.757,-0.773,1.0
13.413,-0.709,-0.796,1.0
20.304,-1.077,-0.641,1.0
18.383,-0.981,-0.684,1.0
16.8,-0.902,-0.721,1.0
15.425,-0.833,-0.751,1.0
14.262,-0.775,-0.775,1.0
13.301,-0.727,-0.799,1.0
20.044,-1.099,-0.646,1.0
18.194,-1.003,-0.69,1.0
16.64,-0.923,-0.725,1.0
15.274,-0.852,-0.754,1.0
14.119,-0.792,-0.777,1.0
13.204,-0.745,-0.801,0.0
19.836,-1.123,-0.652,1.0
18.005,-1.025,-0.694,2.0
16.452,-0.942,-0.727,1.0
15.128,-0.871,-0.756,1.0
14.003,-0.811,-0.779,1.0
13.107,-0.763,-0.803,0.0
19.613,-1.144,-0.657,6.0
17.856,-1.048,-0.699,1.0
16.284,-0.961,-0.729,1.0
15.014,-0.891,-0.759,1.0
13.913,-0.83,-0.782,1.0
13.007,-0.78,-0.805,0.0
19.406,-1.166,-0.66,3.0
17.729,-1.071,-0.703,1.0
16.163,-0.982,-0.733,1.0
14.904,-0.911,-0.761,1.0
13.817,-0.849,-0.784,1.0
12.923,-0.798,-0.806,0.0
19.232,-1.19,-0.664,3.0
17.543,-1.091,-0.705,2.0
16.038,-1.003,-0.735,1.0
14.8,-0.93,-0.763,1.0
13.729,-0.868,-0.786,1.0
12.844,-0.816,-0.808,1.0
19.1,-1.215,-0.669,3.0
17.171,-1.098,-0.698,0.0
15.94,-1.025,-0.738,1.0
14.698,-0.95,-0.765,1.0
13.674,-0.888,-0.789,1.0
12.778,-0.834,-0.81,1.0
18.985,-1.241,-0.673,1.0
17.163,-1.128,-0.705,0.0
15.9,-1.05,-0.743,4.0
14.618,-0.97,-0.767,1.0
13.598,-0.907,-0.79,1.0
12.715,-0.852,-0.81,0.0
18.856,-1.266,-0.676,2.0
17.04,-1.149,-0.707,1.0
15.788,-1.07,-0.744,4.0
14.547,-0.991,-0.769,1.0
13.544,-0.927,-0.792,1.0
12.661,-0.871,-0.812,1.0
18.514,-1.275,-0.67,0.0
16.953,-1.173,-0.709,1.0
15.771,-1.096,-0.748,1.0
14.508,-1.013,-0.771,1.0
13.493,-0.947,-0.793,1.0
12.624,-0.89,-0.813,0.0
18.619,-1.314,-0.68,0.0
16.894,-1.198,-0.712,2.0
15.657,-1.115,-0.748,1.0
14.36,-1.027,-0.768,1.0
13.467,-0.968,-0.796,1.0
12.581,-0.909,-0.814,0.0
18.516,-1.338,-0.681,0.0
16.817,-1.221,-0.713,1.0
15.621,-1.139,-0.75,1.0
14.349,-1.051,-0.771,0.0
13.44,-0.989,-0.797,1.0
12.532,-0.926,-0.814,0.0
18.45,-1.365,-0.683,0.0
16.533,-1.228,-0.705,0.0
15.508,-1.157,-0.748,1.0
14.318,-1.073,-0.772,0.0
13.356,-1.006,-0.795,2.0
12.519,-0.947,-0.816,1.0
18.389,-1.392,-0.684,1.0
16.559,-1.258,-0.709,0.0
15.445,-1.179,-0.747,1.0
14.337,-1.099,-0.776,1.0
13.366,-1.029,-0.798,0.0
12.511,-0.968,-0.817,1.0
18.363,-1.421,-0.686,0.0
16.467,-1.279,-0.707,0.0
15.327,-1.196,-0.744,0.0
14.199,-1.112,-0.77,2.0
13.328,-1.049,-0.797,0.0
12.442,-0.983,-0.814,1.0
18.309,-1.447,-0.686,1.0
16.413,-1.302,-0.707,1.0
15.519,-1.236,-0.755,0.0
14.131,-1.131,-0.768,1.0
13.286,-1.067,-0.796,0.0
12.398,-1.0,-0.812,0.0
18.321,-1.478,-0.688,1.0
16.363,-1.326,-0.706,1.0
15.522,-1.262,-0.756,0.0
14.148,-1.155,-0.769,0.0
13.3,-1.091,-0.797,1.0
12.428,-1.023,-0.815,0.0
18.286,-1.506,-0.687,1.0
16.339,-1.351,-0.705,1.0
15.485,-1.285,-0.754,0.0
14.053,-1.171,-0.764,0.0
13.311,-1.113,-0.798,1.0
12.428,-1.044,-0.815,0.0
18.298,-1.536,-0.687,1.0
16.347,-1.378,-0.705,2.0
15.466,-1.308,-0.753,0.0
14.294,-1.214,-0.777,0.0
13.309,-1.134,-0.798,1.0
12.441,-1.065,-0.815,0.0
18.329,-1.568,-0.688,0.0
16.339,-1.403,-0.704,8.0
15.444,-1.331,-0.751,0.0
14.351,-1.242,-0.779,0.0
13.284,-1.154,-0.795,0.0
12.459,-1.086,-0.815,0.0
18.314,-1.596,-0.685,0.0
16.334,-1.429,-0.702,8.0
15.47,-1.358,-0.751,0.0
14.28,-1.258,-0.774,0.0
13.395,-1.185,-0.8,0.0
12.48,-1.108,-0.815,0.0
18.393,-1.632,-0.686,0.0
16.353,-1.457,-0.701,9.0
15.477,-1.383,-0.749,0.0
14.366,-1.288,-0.776,0.0
13.422,-1.208,-0.8,0.0
12.468,-1.126,-0.812,0.0
18.47,-1.668,-0.686,0.0
16.359,-1.483,-0.698,9.0
15.53,-1.412,-0.749,0.0
14.386,-1.313,-0.775,1.0
13.434,-1.23,-0.798,0.0
12.434,-1.142,-0.808,0.0
18.525,-1.701,-0.684,0.0
16.382,-1.509,-0.696,13.0
15.588,-1.441,-0.748,0.0
14.414,-1.337,-0.773,1.0
13.455,-1.252,-0.796,0.0
12.641,-1.18,-0.818,0.0
18.621,-1.738,-0.683,1.0
16.39,-1.535,-0.692,9.0
15.651,-1.47,-0.747,1.0
14.458,-1.363,-0.772,1.0
13.503,-1.277,-0.795,0.0
12.617,-1.197,-0.813,0.0
18.687,-1.772,-0.681,1.0
16.391,-1.559,-0.687,6.0
15.731,-1.501,-0.746,0.0
14.513,-1.389,-0.77,1.0
13.531,-1.3,-0.793,0.0
12.672,-1.221,-0.813,0.0
18.849,-1.815,-0.68,1.0
16.437,-1.588,-0.684,4.0
15.81,-1.532,-0.745,1.0
14.566,-1.416,-0.768,0.0
13.599,-1.326,-0.792,0.0
12.725,-1.245,-0.812,0.0
18.93,-1.85,-0.677,1.0
16.507,-1.618,-0.681,2.0
15.935,-1.567,-0.745,1.0
14.632,-1.443,-0.766,1.0
13.639,-1.349,-0.79,0.0
12.773,-1.267,-0.81,0.0
19.061,-1.889,-0.674,1.0
16.791,-1.669,-0.686,1.0
16.066,-1.602,-0.745,1.0
14.728,-1.473,-0.765,1.0
13.731,-1.377,-0.789,0.0
12.855,-1.293,-0.81,0.0
19.182,-1.928,-0.67,1.0
17.539,-1.768,-0.709,0.0
16.158,-1.633,-0.742,1.0
14.835,-1.504,-0.765,1.0
13.787,-1.401,-0.786,0.0
12.916,-1.317,-0.808,0.0
19.403,-1.976,-0.67,1.0
17.657,-1.803,-0.706,0.0
16.225,-1.662,-0.738,2.0
14.929,-1.533,-0.762,0.0
13.887,-1.43,-0.785,1.0
13.003,-1.343,-0.807,0.0
19.739,-2.037,-0.671,1.0
17.804,-1.842,-0.703,0.0
16.266,-1.687,-0.731,2.0
15.031,-1.563,-0.76,0.0
13.967,-1.457,-0.783,1.0
13.078,-1.368,-0.805,0.0
20.128,-2.103,-0.674,4.0
17.961,-1.881,-0.7,0.0
16.268,-1.708,-0.723,2.0
15.168,-1.597,-0.759,0.0
14.071,-1.485,-0.781,0.0
13.167,-1.394,-0.803,0.0
20.202,-2.136,-0.665,12.0
18.116,-1.92,-0.696,0.0
16.284,-1.73,-0.714,1.0
15.297,-1.63,-0.756,0.0
14.209,-1.518,-0.78,0.0
13.255,-1.419,-0.801,0.0
20.254,-2.167,-0.655,19.0
18.294,-1.962,-0.692,0.0
16.342,-1.756,-0.707,1.0
15.432,-1.663,-0.754,0.0
14.313,-1.546,-0.777,0.0
13.372,-1.448,-0.8,0.0
20.344,-2.201,-0.646,15.0
18.51,-2.007,-0.688,0.0
16.383,-1.78,-0.699,1.0
15.601,-1.699,-0.752,1.0
14.465,-1.579,-0.776,0.0
13.482,-1.476,-0.797,1.0
20.599,-2.253,-0.64,7.0
18.728,-2.052,-0.684,1.0
16.469,-1.809,-0.691,0.0
15.769,-1.736,-0.75,1.0
14.581,-1.609,-0.773,0.0
13.583,-1.502,-0.794,0.0
20.983,-2.318,-0.638,8.0
19.004,-2.104,-0.681,1.0
17.162,-1.904,-0.708,0.0
15.969,-1.776,-0.748,1.0
14.703,-1.639,-0.769,0.0
13.715,-1.532,-0.792,1.0
21.307,-2.378,-0.632,12.0
19.469,-2.177,-0.684,3.0
17.553,-1.967,-0.712,0.0
16.15,-1.813,-0.744,1.0
14.853,-1.671,-0.766,0.0
13.842,-1.561,-0.789,1.0
21.618,-2.435,-0.626,15.0
19.641,-2.217,-0.675,6.0
17.762,-2.009,-0.707,1.0
16.255,-1.842,-0.737,4.0
15.03,-1.707,-0.763,1.0
13.964,-1.589,-0.785,1.0
21.919,-2.492,-0.618,21.0
19.856,-2.261,-0.667,9.0
17.964,-2.05,-0.701,0.0
16.28,-1.861,-0.726,2.0
15.232,-1.745,-0.762,1.0
14.133,-1.622,-0.784,1.0
22.252,-2.551,-0.61,27.0
20.13,-2.312,-0.661,16.0
18.214,-2.096,-0.696,0.0
16.313,-1.881,-0.714,2.0
15.386,-1.777,-0.757,1.0
14.286,-1.653,-0.78,0.0
22.764,-2.632,-0.605,33.0
20.334,-2.355,-0.651,17.0
18.505,-2.147,-0.692,0.0
16.35,-1.9,-0.702,6.0
15.608,-1.817,-0.755,1.0
14.452,-1.686,-0.777,0.0
22.894,-2.668,-0.589,27.0
20.692,-2.415,-0.644,13.0
19.005,-2.222,-0.695,2.0
16.448,-1.926,-0.692,2.0
15.827,-1.857,-0.752,1.0
14.599,-1.715,-0.773,0.0
23.249,-2.729,-0.578,11.0
21.082,-2.479,-0.638,16.0
19.267,-2.269,-0.688,7.0
16.913,-1.995,-0.697,1.0
16.099,-1.902,-0.75,1.0
14.786,-1.75,-0.769,1.0
23.695,-2.801,-0.568,3.0
21.431,-2.537,-0.63,21.0
19.472,-2.309,-0.677,11.0
17.694,-2.101,-0.713,0.0
16.239,-1.931,-0.742,5.0
15.002,-1.787,-0.767,1.0
24.68,-2.937,-0.569,1.0
21.77,-2.594,-0.62,23.0
19.791,-2.362,-0.67,14.0
17.957,-2.146,-0.707,1.0
16.277,-1.948,-0.729,8.0
15.226,-1.825,-0.764,0.0
25.153,-3.013,-0.557,1.0
22.226,-2.666,-0.612,10.0
20.104,-2.414,-0.662,13.0
18.25,-2.195,-0.701,0.0
16.321,-1.965,-0.715,6.0
15.446,-1.862,-0.76,1.0
25.739,-3.101,-0.545,1.0
22.939,-2.767,-0.609,16.0
20.493,-2.475,-0.655,14.0
18.734,-2.265,-0.702,2.0
16.372,-1.982,-0.701,5.0
15.664,-1.899,-0.756,1.0
26.357,-3.193,-0.533,1.0
23.135,-2.806,-0.592,15.0
20.859,-2.533,-0.646,18.0
19.03,-2.313,-0.694,6.0
16.544,-2.013,-0.693,2.0
15.947,-1.943,-0.754,1.0
26.992,-3.287,-0.519,1.0
23.482,-2.862,-0.577,5.0
21.182,-2.585,-0.635,18.0
19.252,-2.352,-0.683,12.0
17.454,-2.135,-0.713,1.0
16.201,-1.984,-0.749,3.0
27.744,-3.394,-0.505,1.0
24.279,-2.973,-0.573,1.0
21.414,-2.625,-0.62,4.0
19.538,-2.398,-0.673,19.0
17.85,-2.193,-0.711,1.0
16.273,-2.001,-0.736,8.0
28.595,-3.514,-0.491,1.0
25.073,-3.084,-0.565,1.0
22.605,-2.783,-0.631,4.0
19.925,-2.455,-0.666,16.0
18.2,-2.245,-0.706,1.0
16.33,-2.016,-0.721,9.0
29.37,-3.624,-0.474,1.0
25.731,-3.177,-0.553,1.0
22.883,-2.828,-0.615,13.0
20.367,-2.519,-0.659,18.0
18.73,-2.319,-0.706,3.0
16.374,-2.029,-0.706,9.0
30.181,-3.738,-0.455,0.0
26.274,-3.256,-0.537,1.0
23.073,-2.862,-0.595,12.0
20.702,-2.57,-0.647,18.0
18.943,-2.353,-0.694,10.0
16.537,-2.056,-0.695,2.0
31.705,-3.939,-0.443,1.0
26.93,-3.348,-0.521,1.0
23.431,-2.915,-0.579,4.0
20.994,-2.614,-0.634,4.0
19.237,-2.397,-0.684,17.0
17.512,-2.183,-0.717,1.0
32.688,-4.073,-0.422,0.0
27.793,-3.465,-0.508,1.0
24.461,-3.051,-0.578,1.0
21.811,-2.723,-0.635,1.0
19.536,-2.44,-0.674,16.0
17.902,-2.238,-0.713,1.0
35.987,-4.496,-0.425,2.0
28.691,-3.586,-0.493,1.0
25.116,-3.141,-0.566,1.0
22.579,-2.825,-0.632,4.0
20.017,-2.506,-0.668,11.0
18.319,-2.295,-0.71,1.0
36.042,-4.512,-0.386,6.0
29.656,-3.714,-0.477,1.0
25.823,-3.235,-0.553,1.0
22.852,-2.865,-0.614,13.0
20.444,-2.564,-0.659,11.0
18.747,-2.352,-0.705,6.0
36.798,-4.615,-0.353,2.0
30.49,-3.825,-0.456,1.0
26.497,-3.325,-0.538,1.0
23.103,-2.9,-0.596,11.0
20.738,-2.605,-0.646,4.0
18.974,-2.384,-0.693,14.0
0.0,0.0,0.0,0.0
31.961,-4.015,-0.442,0.0
27.226,-3.421,-0.523,1.0
23.527,-2.957,-0.58,2.0
21.286,-2.676,-0.639,1.0
19.277,-2.425,-0.682,17.0
41.561,-5.225,-0.307,0.0
33.186,-4.173,-0.422,1.0
27.95,-3.515,-0.505,1.0
24.618,-3.097,-0.579,0.0
21.962,-2.763,-0.634,1.0
19.647,-2.473,-0.673,11.0
45.297,-5.699,-0.283,2.0
34.628,-4.357,-0.401,0.0
29.03,-3.653,-0.491,1.0
25.355,-3.191,-0.567,1.0
22.73,-2.861,-0.631,6.0
20.185,-2.541,-0.668,8.0
45.316,-5.703,-0.231,3.0
37.154,-4.676,-0.388,1.0
29.922,-3.766,-0.473,1.0
25.973,-3.269,-0.552,1.0
22.933,-2.887,-0.61,15.0
20.551,-2.587,-0.656,6.0
50.39,-6.341,-0.199,3.0
37.399,-4.706,-0.347,1.0
30.989,-3.899,-0.454,0.0
26.73,-3.363,-0.537,1.0
23.213,-2.921,-0.591,5.0
20.86,-2.625,-0.642,2.0
50.424,-6.343,-0.141,6.0
40.39,-5.08,-0.329,0.0
32.552,-4.093,-0.439,1.0
27.456,-3.452,-0.52,1.0
24.135,-3.034,-0.586,1.0
21.641,-2.721,-0.642,1.0
50.489,-6.346,-0.083,1.0
45.315,-5.694,-0.317,1.0
33.664,-4.229,-0.416,1.0
28.404,-3.568,-0.506,1.0
24.91,-3.128,-0.577,1.0
22.437,-2.817,-0.64,3.0
0.0,0.0,0.0,0.0
45.273,-5.682,-0.265,4.0
35.933,-4.508,-0.402,3.0
29.332,-3.679,-0.488,1.0
25.573,-3.207,-0.562,1.0
22.828,-2.862,-0.624,12.0
0.0,0.0,0.0,0.0
45.363,-5.684,-0.213,3.0
36.233,-4.538,-0.364,3.0
30.074,-3.765,-0.466,0.0
26.19,-3.278,-0.546,1.0
23.043,-2.883,-0.603,14.0
0.0,0.0,0.0,0.0
50.4,-6.302,-0.179,5.0
0.0,0.0,0.0,0.0
31.69,-3.959,-0.455,0.0
27.038,-3.377,-0.533,1.0
23.432,-2.925,-0.587,4.0
0.0,0.0,0.0,0.0
50.446,-6.293,-0.121,3.0
42.495,-5.299,-0.329,0.0
32.799,-4.087,-0.433,1.0
27.812,-3.464,-0.516,1.0
24.534,-3.054,-0.586,1.0
91.493,-11.391,0.373,1.0
0.0,0.0,0.0,0.0
45.335,-5.637,-0.3,4.0
35.704,-4.436,-0.43,2.0
28.75,-3.57,-0.5,1.0
25.237,-3.132,-0.574,1.0
0.0,0.0,0.0,0.0
0.0,0.0,0.0,0.0
45.329,-5.618,-0.248,4.0
35.982,-4.456,-0.393,4.0
29.612,-3.665,-0.482,1.0
25.791,-3.19,-0.557,1.0
86.863,-10.744,0.553,1.0
0.0,0.0,0.0,0.0
50.203,-6.199,-0.217,0.0
37.999,-4.689,-0.372,1.0
30.46,-3.756,-0.461,0.0
26.436,-3.257,-0.541,1.0
86.646,-10.676,0.649,2.0
0.0,0.0,0.0,0.0
50.395,-6.198,-0.162,1.0
39.297,-4.829,-0.34,0.0
32.148,-3.947,-0.45,1.0
27.241,-3.342,-0.527,1.0
86.307,-10.59,0.743,150.0
0.0,0.0,0.0,0.0
0.0,0.0,0.0,0.0
41.635,-5.094,-0.314,1.0
33.079,-4.043,-0.426,1.0
28.079,-3.429,-0.512,1.0
86.286,-10.539,0.839,156.0
0.0,0.0,0.0,0.0
0.0,0.0,0.0,0.0
44.228,-5.385,-0.284,0.0
34.246,-4.165,-0.404,0.0
28.898,-3.512,-0.495,1.0
86.275,-10.485,0.934,173.0
87.005,-10.561,0.476,53.0
0.0,0.0,0.0,0.0
0.0,0.0,0.0,0.0
37.44,-4.53,-0.4,4.0
29.707,-3.59,-0.477,0.0
86.259,-10.427,1.027,111.0
87.042,-10.509,0.57,7.0
0.0,0.0,0.0,0.0
50.359,-6.065,-0.214,0.0
37.361,-4.494,-0.359,1.0
30.727,-3.692,-0.46,1.0
86.245,-10.366,1.12,49.0
87.075,-10.451,0.664,9.0
0.0,0.0,0.0,0.0
50.306,-6.022,-0.16,1.0
39.419,-4.713,-0.336,1.0
32.237,-3.85,-0.448,1.0
86.216,-10.298,1.212,59.0
86.299,-10.293,0.75,12.0
96.671,-11.514,0.322,1.0
50.483,-6.004,-0.107,2.0
41.366,-4.913,-0.309,0.0
33.091,-3.925,-0.425,1.0
86.212,-10.229,1.303,56.0
86.175,-10.21,0.84,34.0
96.799,-11.452,0.425,2.0
0.0,0.0,0.0,0.0
44.595,-5.26,-0.287,0.0
34.377,-4.049,-0.405,0.0
86.23,-10.16,1.393,41.0
86.194,-10.14,0.929,57.0
87.302,-10.254,0.472,2.0
0.0,0.0,0.0,0.0
0.0,0.0,0.0,0.0
36.955,-4.321,-0.398,1.0
86.259,-10.089,1.482,44.0
86.233,-10.069,1.017,167.0
87.266,-10.173,0.561,58.0
0.0,0.0,0.0,0.0
50.368,-5.852,-0.221,2.0
38.482,-4.464,-0.376,0.0
86.259,-10.01,1.567,45.0
86.242,-9.991,1.104,183.0
87.22,-10.087,0.647,21.0
0.0,0.0,0.0,0.0
50.429,-5.812,-0.172,5.0
39.356,-4.528,-0.345,0.0
86.28,-9.93,1.653,18.0
86.252,-9.909,1.189,181.0
86.37,-9.904,0.726,47.0
0.0,0.0,0.0,0.0
50.455,-5.765,-0.123,1.0
0.0,0.0,0.0,0.0
0.0,0.0,0.0,0.0
86.263,-9.823,1.272,151.0
86.254,-9.804,0.808,71.0
78.9,-8.95,0.307,0.0
0.0,0.0,0.0,0.0
0.0,0.0,0.0,0.0
86.667,-9.799,1.827,10.0
86.23,-9.729,1.353,130.0
86.195,-9.706,0.888,150.0
0.0,0.0,0.0,0.0
0.0,0.0,0.0,0.0
44.146,-4.942,-0.262,0.0
86.715,-9.711,1.909,13.0
86.265,-9.64,1.433,51.0
86.216,-9.614,0.968,100.0
87.449,-9.732,0.502,2.0
0.0,0.0,0.0,0.0
0.0,0.0,0.0,0.0
86.815,-9.624,1.99,11.0
86.298,-9.546,1.512,48.0
86.262,-9.522,1.046,61.0
87.256,-9.61,0.579,9.0
0.0,0.0,0.0,0.0
0.0,0.0,0.0,0.0
187.693,-20.591,4.47,25.0
86.319,-9.448,1.589,42.0
86.284,-9.422,1.122,71.0
87.302,-9.511,0.656,10.0
0.0,0.0,0.0,0.0
0.0,0.0,0.0,0.0
123.564,-13.408,3.049,58.0
86.404,-9.353,1.664,17.0
86.326,-9.323,1.196,59.0
86.599,-9.331,0.723,11.0
79.632,-8.56,0.236,8.0
0.0,0.0,0.0,0.0
123.532,-13.254,3.15,83.0
86.68,-9.276,1.742,15.0
86.362,-9.219,1.269,62.0
86.351,-9.195,0.793,150.0
0.0,0.0,0.0,0.0
0.0,0.0,0.0,0.0
187.656,-19.894,4.938,23.0
0.0,0.0,0.0,0.0
86.406,-9.113,1.339,46.0
86.413,-9.091,0.862,150.0
0.0,0.0,0.0,0.0
0.0,0.0,0.0,0.0
187.489,-19.634,5.079,36.0
96.093,-10.036,2.083,6.0
86.859,-9.047,1.413,10.0
86.62,-8.999,0.93,11.0
0.0,0.0,0.0,0.0
0.0,0.0,0.0,0.0
188.095,-19.445,5.24,25.0
157.605,-16.248,3.537,47.0
88.622,-9.111,1.508,7.0
88.389,-9.061,1.017,4.0
89.715,-9.173,0.545,1.0
0.0,0.0,0.0,0.0
188.096,-19.185,5.38,62.0
188.039,-19.124,4.357,46.0
95.733,-9.708,1.699,7.0
94.497,-9.556,1.155,17.0
94.745,-9.555,0.644,1.0
0.0,0.0,0.0,0.0
188.108,-18.921,5.511,55.0
187.603,-18.814,4.479,37.0
95.714,-9.57,1.765,5.0
95.207,-9.491,1.229,5.0
95.381,-9.48,0.714,2.0
0.0,0.0,0.0,0.0
188.004,-18.639,5.636,45.0
187.608,-18.541,4.605,52.0
0.0,0.0,0.0,0.0
96.623,-9.49,1.312,1.0
97.25,-9.523,0.792,2.0
0.0,0.0,0.0,0.0
148.815,-14.532,4.557,47.0
149.54,-14.556,3.767,38.0
149.465,-14.502,2.953,19.0
100.733,-9.742,1.432,150.0
98.036,-9.452,0.861,1.0
0.0,0.0,0.0,0.0
149.5,-14.373,4.672,46.0
149.376,-14.313,3.854,76.0
108.792,-10.39,2.216,10.0
0.0,0.0,0.0,0.0
100.79,-9.564,0.945,2.0
90.888,-8.597,0.358,0.0
148.865,-14.083,4.74,43.0
187.735,-17.7,4.953,30.0
188.243,-17.687,3.941,32.0
108.501,-10.161,1.669,23.0
108.519,-10.128,1.079,19.0
90.571,-8.425,0.407,1.0
188.054,-17.494,6.091,33.0
149.422,-13.852,4.025,17.0
188.438,-17.407,4.048,48.0
108.666,-10.003,1.731,20.0
108.585,-9.962,1.138,163.0
0.0,0.0,0.0,0.0
188.554,-17.242,6.205,35.0
188.237,-17.15,5.168,27.0
188.207,-17.086,4.138,48.0
109.123,-9.87,1.793,2.0
108.679,-9.795,1.192,101.0
0.0,0.0,0.0,0.0
188.988,-16.974,6.313,22.0
188.435,-16.861,5.263,34.0
188.449,-16.8,4.235,42.0
0.0,0.0,0.0,0.0
110.179,-9.75,1.26,6.0
97.955,-8.637,0.585,4.0
149.626,-13.193,5.065,27.0
157.476,-13.831,4.469,19.0
157.268,-13.759,3.603,94.0
0.0,0.0,0.0,0.0
121.755,-10.572,1.445,167.0
0.0,0.0,0.0,0.0
156.897,-13.568,5.378,46.0
157.399,-13.559,4.534,85.0
189.08,-16.223,4.41,32.0
0.0,0.0,0.0,0.0
121.74,-10.362,1.494,28.0
0.0,0.0,0.0,0.0
203.957,-17.288,7.073,23.0
164.981,-13.927,4.815,52.0
165.091,-13.879,3.913,71.0
0.0,0.0,0.0,0.0
121.973,-10.173,1.541,27.0
0.0,0.0,0.0,0.0
164.17,-13.633,5.751,39.0
165.066,-13.65,4.875,21.0
202.257,-16.654,4.863,19.0
0.0,0.0,0.0,0.0
122.156,-9.973,1.584,24.0
0.0,0.0,0.0,0.0
157.726,-12.82,5.575,37.0
164.745,-13.332,4.916,40.0
206.38,-16.63,5.027,21.0
0.0,0.0,0.0,0.0
128.145,-10.237,1.7,151.0
0.0,0.0,0.0,0.0
156.845,-12.469,5.589,42.0
212.841,-16.846,6.412,12.0
250.787,-19.759,6.175,16.0
0.0,0.0,0.0,0.0
0.0,0.0,0.0,0.0
0.0,0.0,0.0,0.0
164.395,-12.777,5.897,38.0
196.778,-15.224,5.974,23.0
214.292,-16.5,5.327,11.0
0.0,0.0,0.0,0.0
148.423,-11.326,2.04,150.0
0.0,0.0,0.0,0.0
164.443,-12.481,5.933,23.0
196.812,-14.869,6.016,30.0
197.017,-14.815,4.935,44.0
0.0,0.0,0.0,0.0
148.538,-11.065,2.07,150.0
0.0,0.0,0.0,0.0
164.489,-12.186,5.962,15.0
196.197,-14.463,6.03,56.0
220.447,-16.17,5.559,7.0
204.943,-14.961,4.016,7.0
149.435,-10.857,2.104,5.0
0.0,0.0,0.0,0.0
195.128,-14.094,7.1,23.0
204.87,-14.724,6.323,39.0
204.853,-14.65,5.19,53.0
213.078,-15.163,4.199,8.0
151.87,-10.753,2.156,3.0
0.0,0.0,0.0,0.0
203.77,-14.338,7.434,7.0
204.362,-14.306,6.325,35.0
212.775,-14.818,5.41,76.0
221.109,-15.319,4.376,9.0
0.0,0.0,0.0,0.0
0.0,0.0,0.0,0.0
204.564,-14.01,7.476,49.0
208.557,-14.205,6.466,27.0
228.479,-15.478,5.819,63.0
237.121,-15.978,4.702,7.0
187.074,-12.541,2.675,14.0
0.0,0.0,0.0,0.0
205.085,-13.654,7.498,13.0
209.197,-13.851,6.49,36.0
248.316,-16.351,6.327,150.0
0.0,0.0,0.0,0.0
187.138,-12.185,2.676,51.0
0.0,0.0,0.0,0.0
208.46,-13.479,7.619,29.0
209.06,-13.441,6.48,28.0
248.359,-15.877,6.322,255.0
0.0,0.0,0.0,0.0
187.116,-11.828,2.667,6.0
0.0,0.0,0.0,0.0
212.975,-13.367,7.771,22.0
244.295,-15.238,7.557,36.0
263.436,-16.338,6.687,120.0
0.0,0.0,0.0,0.0
187.381,-11.485,2.657,212.0
0.0,0.0,0.0,0.0
228.788,-13.915,8.327,16.0
271.953,-16.438,8.386,30.0
271.806,-16.328,6.87,150.0
0.0,0.0,0.0,0.0
0.0,0.0,0.0,0.0
0.0,0.0,0.0,0.0
212.381,-12.501,7.701,17.0
272.479,-15.938,8.365,13.0
271.682,-15.793,6.828,103.0
0.0,0.0,0.0,0.0
0.0,0.0,0.0,0.0
0.0,0.0,0.0,0.0
244.605,-13.921,8.827,8.0
0.0,0.0,0.0,0.0
0.0,0.0,0.0,0.0
0.0,0.0,0.0,0.0
0.0,0.0,0.0,0.0
278.791,-15.315,10.003,11.0
0.0,0.0,0.0,0.0
0.0,0.0,0.0,0.0
0.0,0.0,0.0,0.0
0.0,0.0,0.0,0.0
0.0,0.0,0.0,0.0
0.0,0.0,0.0,0.0
0.0,0.0,0.0,0.0
0.0,0.0,0.0,0.0
0.0,0.0,0.0,0.0
0.0,0.0,0.0,0.0
0.0,0.0,0.0,0.0
0.0,0.0,0.0,0.0
0.0,0.0,0.0,0.0
0.0,0.0,0.0,0.0
0.0,0.0,0.0,0.0
0.0,0.0,0.0,0.0
0.0,0.0,0.0,0.0
0.0,0.0,0.0,0.0
0.0,0.0,0.0,0.0
0.0,0.0,0.0,0.0
0.0,0.0,0.0,0.0
0.0,0.0,0.0,0.0
0.0,0.0,0.0,0.0
0.0,0.0,0.0,0.0
0.0,0.0,0.0,0.0
0.0,0.0,0.0,0.0
0.0,0.0,0.0,0.0
0.0,0.0,0.0,0.0
0.0,0.0,0.0,0.0
0.0,0.0,0.0,0.0
0.0,0.0,0.0,0.0
0.0,0.0,0.0,0.0
0.0,0.0,0.0,0.0
0.0,0.0,0.0,0.0
0.0,0.0,0.0,0.0
0.0,0.0,0.0,0.0
0.0,0.0,0.0,0.0
0.0,0.0,0.0,0.0
0.0,0.0,0.0,0.0
0.0,0.0,0.0,0.0
0.0,0.0,0.0,0.0
0.0,0.0,0.0,0.0
0.0,0.0,0.0,0.0
0.0,0.0,0.0,0.0
0.0,0.0,0.0,0.0
0.0,0.0,0.0,0.0
0.0,0.0,0.0,0.0
0.0,0.0,0.0,0.0
0.0,0.0,0.0,0.0
133.101,-4.837,2.788,6.0
132.943,-4.784,2.024,85.0
126.346,-4.503,1.214,2.0
0.0,0.0,0.0,0.0
0.0,0.0,0.0,0.0
0.0,0.0,0.0,0.0
133.151,-4.574,2.708,40.0
132.53,-4.506,1.935,35.0
0.0,0.0,0.0,0.0
0.0,0.0,0.0,0.0
0.0,0.0,0.0,0.0
0.0,0.0,0.0,0.0
40.345,-1.306,0.794,5.0
40.334,-1.292,0.562,52.0
0.0,0.0,0.0,0.0
0.0,0.0,0.0,0.0
0.0,0.0,0.0,0.0
40.295,-1.239,0.992,28.0
40.34,-1.226,0.766,22.0
0.0,0.0,0.0,0.0
0.0,0.0,0.0,0.0
40.199,-1.181,0.079,50.0
40.3,-1.174,1.191,11.0
40.363,-1.162,0.965,2.0
0.0,0.0,0.0,0.0
40.247,-1.13,0.504,35.0
40.183,-1.115,0.276,60.0
40.195,-1.102,0.049,54.0
40.218,-1.093,1.158,43.0
40.199,-1.078,0.93,54.0
40.205,-1.064,0.703,58.0
40.194,-1.05,0.472,64.0
40.216,-1.037,0.245,31.0
0.0,0.0,0.0,0.0
40.215,-1.014,1.126,54.0
40.178,-0.998,0.898,55.0
40.209,-0.985,0.671,60.0
40.312,-0.975,0.441,150.0
40.305,-0.961,0.213,101.0
40.281,-0.948,-0.014,44.0
40.22,-0.936,1.093,60.0
40.197,-0.921,0.865,55.0
40.261,-0.909,0.638,37.0
40.301,-0.897,0.407,1.0
0.0,0.0,0.0,0.0
56.485,-1.22,-0.068,0.0
40.226,-0.858,1.058,55.0
40.213,-0.844,0.83,51.0
40.228,-0.831,0.603,55.0
40.229,-0.817,0.37,54.0
40.281,-0.805,0.143,48.0
40.327,-0.793,-0.084,29.0
40.25,-0.781,1.023,56.0
40.186,-0.766,0.793,62.0
40.288,-0.755,0.567,8.0
40.239,-0.74,0.334,46.0
40.271,-0.727,0.106,60.0
40.319,-0.715,-0.122,53.0
40.27,-0.704,0.985,2.0
0.0,0.0,0.0,0.0
149.178,-2.513,1.959,7.0
91.518,-1.511,0.673,5.0
61.591,-0.996,0.103,5.0
46.335,-0.735,-0.184,2.0
187.121,-2.917,4.398,58.0
187.155,-2.858,3.336,27.0
148.275,-2.218,1.802,14.0
82.329,-1.204,0.524,1.0
60.806,-0.869,0.042,1.0
44.036,-0.616,-0.219,1.0
86.926,-1.191,1.955,28.0
79.448,-1.064,1.336,150.0
80.106,-1.046,0.891,10.0
78.239,-0.998,0.419,7.0
60.857,-0.756,-0.02,3.0
42.087,-0.509,-0.253,2.0
79.426,-0.939,1.703,185.0
79.421,-0.914,1.252,214.0
79.452,-0.89,0.801,169.0
77.455,-0.843,0.332,1.0
50.843,-0.537,-0.07,12.0
38.512,-0.395,-0.272,4.0
79.439,-0.792,1.618,176.0
79.44,-0.766,1.166,191.0
79.462,-0.743,0.714,150.0
61.061,-0.551,0.195,4.0
47.645,-0.415,-0.118,6.0
40.235,-0.338,-0.329,0.0
79.445,-0.645,1.53,166.0
79.445,-0.62,1.077,182.0
79.202,-0.594,0.623,59.0
52.482,-0.378,0.109,11.0
41.965,-0.289,-0.151,3.0
33.974,-0.224,-0.316,0.0
79.436,-0.501,1.439,171.0
79.463,-0.477,0.987,166.0
76.763,-0.437,0.515,12.0
0.0,0.0,0.0,0.0
39.559,-0.201,-0.189,5.0
33.043,-0.158,-0.346,1.0
79.446,-0.356,1.344,161.0
79.467,-0.333,0.892,151.0
76.46,-0.298,0.422,12.0
46.081,-0.165,-0.012,18.0
39.081,-0.128,-0.233,9.0
32.018,-0.096,-0.373,2.0
79.453,-0.215,1.249,151.0
79.456,-0.191,0.795,151.0
61.702,-0.13,0.265,14.0
0.0,0.0,0.0,0.0
38.546,-0.058,-0.277,4.0
30.514,-0.037,-0.394,2.0
79.465,-0.074,1.15,151.0
79.416,-0.051,0.695,150.0
55.847,-0.02,0.17,29.0
40.859,-0.002,-0.112,17.0
37.988,0.008,-0.321,2.0
29.674,0.014,-0.42,2.0
79.463,0.062,1.049,151.0
76.617,0.083,0.573,18.0
53.874,0.074,0.095,27.0
39.406,0.065,-0.159,38.0
33.284,0.064,-0.324,1.0
28.945,0.064,-0.447,2.0
79.47,0.198,0.946,151.0
75.915,0.211,0.47,18.0
47.302,0.144,0.022,21.0
38.637,0.129,-0.206,20.0
32.116,0.115,-0.354,1.0
28.154,0.109,-0.472,1.0
59.321,0.248,0.628,113.0
55.06,0.245,0.267,41.0
0.0,0.0,0.0,0.0
37.963,0.19,-0.253,10.0
30.849,0.163,-0.382,1.0
27.198,0.151,-0.492,1.0
48.174,0.281,0.444,58.0
48.156,0.294,0.169,56.0
43.922,0.28,-0.096,4.0
37.54,0.249,-0.301,2.0
29.858,0.206,-0.41,2.0
26.519,0.19,-0.516,2.0
48.063,0.359,0.377,101.0
47.982,0.37,0.102,65.0
39.134,0.313,-0.14,44.0
33.767,0.279,-0.318,1.0
29.138,0.248,-0.441,2.0
25.806,0.227,-0.538,1.0
48.045,0.436,0.309,109.0
47.356,0.443,0.033,44.0
38.202,0.367,-0.191,42.0
32.205,0.317,-0.349,1.0
28.181,0.285,-0.467,1.0
22.0,0.228,-0.49,4.0
48.042,0.512,0.24,92.0
44.905,0.49,-0.032,21.0
37.611,0.42,-0.242,13.0
30.856,0.352,-0.378,1.0
27.223,0.318,-0.49,1.0
21.269,0.254,-0.505,4.0
48.043,0.587,0.17,73.0
39.819,0.496,-0.086,15.0
37.144,0.472,-0.293,4.0
29.884,0.387,-0.41,2.0
26.512,0.35,-0.516,2.0
20.6,0.277,-0.519,4.0
47.969,0.659,0.099,58.0
38.706,0.541,-0.141,49.0
33.446,0.476,-0.314,1.0
28.999,0.42,-0.442,2.0
22.178,0.327,-0.465,1.0
19.864,0.298,-0.531,3.0
47.083,0.718,0.026,39.0
37.749,0.585,-0.195,40.0
32.182,0.506,-0.351,1.0
27.904,0.446,-0.468,1.0
21.602,0.35,-0.486,4.0
19.298,0.318,-0.545,3.0
44.327,0.742,-0.043,19.0
37.128,0.63,-0.249,13.0
30.639,0.527,-0.382,2.0
27.068,0.472,-0.496,1.0
20.894,0.369,-0.503,4.0
18.716,0.335,-0.558,5.0
39.439,0.717,-0.1,37.0
36.743,0.676,-0.304,10.0
29.633,0.552,-0.415,2.0
26.426,0.498,-0.525,1.0
20.163,0.385,-0.516,3.0
18.207,0.352,-0.571,3.0
38.163,0.747,-0.157,44.0
32.862,0.651,-0.324,1.0
28.626,0.574,-0.447,1.0
22.039,0.447,-0.473,4.0
19.526,0.4,-0.531,4.0
17.649,0.366,-0.582,3.0
37.166,0.779,-0.212,32.0
31.367,0.664,-0.359,2.0
27.464,0.588,-0.473,1.0
21.192,0.458,-0.489,4.0
18.95,0.414,-0.546,3.0
17.13,0.378,-0.592,2.0
36.662,0.818,-0.269,7.0
30.2,0.681,-0.395,2.0
26.923,0.612,-0.507,1.0
20.583,0.473,-0.508,4.0
18.3,0.424,-0.557,3.0
16.606,0.389,-0.602,3.0
36.525,0.863,-0.327,0.0
29.071,0.693,-0.428,1.0
22.706,0.546,-0.465,4.0
19.825,0.481,-0.522,3.0
17.731,0.434,-0.569,5.0
16.093,0.397,-0.61,3.0
32.15,0.801,-0.342,1.0
28.028,0.704,-0.459,1.0
21.597,0.547,-0.478,4.0
19.212,0.491,-0.538,3.0
17.236,0.444,-0.582,5.0
15.639,0.406,-0.619,3.0
30.52,0.799,-0.376,2.0
27.186,0.717,-0.491,1.0
20.789,0.552,-0.496,4.0
18.514,0.496,-0.55,3.0
16.697,0.45,-0.592,2.0
15.316,0.416,-0.632,3.0
29.451,0.807,-0.413,2.0
23.046,0.635,-0.456,5.0
19.991,0.555,-0.51,3.0
17.972,0.503,-0.565,3.0
16.12,0.454,-0.6,4.0
14.779,0.419,-0.635,4.0
28.256,0.807,-0.444,1.0
21.681,0.623,-0.466,4.0
19.29,0.558,-0.526,3.0
17.39,0.507,-0.576,2.0
15.353,0.45,-0.598,3.0
14.444,0.426,-0.646,4.0
27.452,0.815,-0.479,1.0
20.895,0.624,-0.485,4.0
18.673,0.562,-0.541,3.0
16.787,0.508,-0.585,2.0
14.697,0.447,-0.597,5.0
14.26,0.437,-0.662,4.0
23.405,0.721,-0.449,5.0
20.164,0.625,-0.503,3.0
18.004,0.561,-0.553,5.0
16.226,0.509,-0.594,2.0
14.307,0.451,-0.606,1.0
13.963,0.443,-0.673,4.0
21.927,0.699,-0.459,4.0
19.455,0.623,-0.519,3.0
17.507,0.564,-0.568,4.0
15.714,0.509,-0.603,2.0
13.97,0.455,-0.616,1.0
13.712,0.449,-0.684,3.0
21.112,0.694,-0.479,4.0
18.844,0.623,-0.536,3.0
16.948,0.563,-0.58,3.0
14.73,0.492,-0.591,4.0
13.725,0.461,-0.63,2.0
13.429,0.453,-0.694,4.0
20.405,0.691,-0.499,4.0
18.147,0.618,-0.548,3.0
