X,Y,Z,Reflectivity
99.213,-9.946,5.598,48.0
116.149,-11.608,5.914,13.0
106.745,-10.637,4.836,23.0
205.8,-20.449,8.193,5.0
188.842,-18.709,6.48,21.0
99.511,-9.867,6.205,12.0
121.89,-12.049,6.928,13.0
124.297,-12.249,6.379,16.0
106.597,-10.473,4.871,14.0
205.042,-20.084,8.244,13.0
188.58,-18.416,6.544,24.0
99.162,-9.691,6.221,17.0
107.432,-10.466,6.146,28.0
107.961,-10.484,5.581,38.0
157.62,-15.259,7.262,12.0
147.933,-14.276,5.999,35.0
150.452,-14.476,5.272,26.0
99.306,-9.561,6.265,12.0
106.836,-10.252,6.149,18.0
115.561,-11.053,6.011,26.0
122.897,-11.718,5.702,43.0
157.465,-14.967,6.436,14.0
149.804,-14.196,5.297,13.0
99.276,-9.414,6.293,12.0
107.927,-10.199,6.243,57.0
106.268,-10.008,5.56,23.0
122.771,-11.525,5.731,37.0
156.463,-14.641,6.439,51.0
148.648,-13.865,5.298,83.0
106.79,-9.965,6.799,19.0
106.243,-9.879,6.175,52.0
106.28,-9.85,5.587,9.0
147.197,-13.595,6.91,26.0
150.442,-13.848,6.23,16.0
194.175,-17.815,6.966,8.0
106.118,-9.74,6.781,16.0
115.281,-10.544,6.727,29.0
122.493,-11.165,6.467,21.0
147.128,-13.363,6.937,10.0
148.563,-13.448,6.183,50.0
164.082,-14.804,5.919,43.0
108.203,-9.766,6.935,12.0
122.202,-10.99,7.153,15.0
108.499,-9.723,5.748,6.0
154.814,-13.823,7.328,3.0
148.531,-13.216,6.206,26.0
156.938,-13.916,5.687,39.0
106.064,-9.408,6.816,9.0
115.485,-10.205,6.778,3.0
108.516,-9.554,5.765,5.0
148.444,-13.021,7.048,18.0
166.053,-14.512,6.962,50.0
149.829,-13.048,5.449,30.0
99.011,-8.624,6.374,6.0
122.547,-10.634,7.207,3.0
105.895,-9.154,5.638,12.0
158.608,-13.66,7.545,17.0
162.877,-13.976,6.844,10.0
149.954,-12.821,5.467,31.0
99.086,-8.473,6.387,2.0
122.599,-10.441,7.218,11.0
148.622,-12.608,7.923,12.0
167.702,-14.171,7.989,3.0
166.739,-14.037,7.014,28.0
163.852,-13.741,5.982,15.0
115.077,-9.651,7.423,4.0
122.656,-10.246,7.226,5.0
159.208,-13.243,8.492,11.0
158.921,-13.168,7.575,10.0
150.004,-12.38,6.314,40.0
163.733,-13.463,5.979,37.0
121.225,-9.967,7.819,3.0
108.544,-8.887,6.395,15.0
150.9,-12.304,8.047,12.0
158.661,-12.883,7.559,14.0
150.307,-12.155,6.322,13.0
197.095,-15.877,7.194,44.0
122.588,-9.873,7.903,5.0
150.686,-12.087,8.87,4.0
148.381,-11.852,7.906,4.0
149.645,-11.903,7.121,15.0
163.131,-12.921,6.852,28.0
165.405,-13.047,6.024,27.0
124.132,-9.788,7.992,7.0
121.619,-9.549,7.15,3.0
163.599,-12.79,8.701,7.0
156.129,-12.153,7.414,7.0
157.83,-12.234,6.612,40.0
164.155,-12.67,5.962,37.0
106.715,-8.235,6.858,5.0
155.471,-11.945,9.121,11.0
147.987,-11.319,7.852,6.0
158.012,-12.034,7.482,13.0
163.838,-12.423,6.842,16.0
164.45,-12.415,5.948,23.0
149.16,-11.254,9.563,5.0
197.301,-14.82,11.541,7.0
148.986,-11.14,7.878,3.0
158.071,-11.766,7.457,17.0
197.451,-14.63,8.209,27.0
164.444,-12.132,5.915,14.0
0.0,0.0,0.0,0.0
148.22,-10.878,8.64,10.0
157.962,-11.538,8.32,5.0
157.922,-11.481,7.415,14.0
164.502,-11.904,6.801,23.0
195.216,-14.065,6.978,29.0
151.172,-10.884,9.625,3.0
157.613,-11.295,9.149,6.0
0.0,0.0,0.0,0.0
156.551,-11.112,7.31,12.0
196.521,-13.884,8.072,8.0
203.862,-14.335,7.23,20.0
150.605,-10.58,9.546,5.0
162.896,-11.387,9.407,12.0
148.543,-10.334,7.741,5.0
158.106,-10.945,7.334,5.0
197.626,-13.615,8.058,19.0
204.91,-14.049,7.204,29.0
156.376,-10.709,9.861,3.0
163.252,-11.125,9.373,5.0
0.0,0.0,0.0,0.0
155.464,-10.49,7.159,5.0
203.253,-13.648,8.217,7.0
208.429,-13.927,7.254,28.0
209.604,-13.99,13.141,6.0
197.89,-13.139,11.288,7.0
156.227,-10.319,8.03,4.0
0.0,0.0,0.0,0.0
205.48,-13.435,8.226,7.0
208.487,-13.565,7.174,27.0
210.508,-13.68,13.112,6.0
148.635,-9.607,8.418,4.0
148.392,-9.54,7.565,12.0
204.975,-13.111,9.274,6.0
0.0,0.0,0.0,0.0
227.745,-14.421,7.738,20.0
148.159,-9.366,9.162,2.0
147.658,-9.285,8.295,5.0
149.507,-9.35,7.555,4.0
0.0,0.0,0.0,0.0
213.057,-13.184,8.338,17.0
212.229,-13.062,7.108,26.0
164.11,-10.082,10.067,6.0
165.355,-10.101,9.207,4.0
150.061,-9.118,7.507,4.0
0.0,0.0,0.0,0.0
212.026,-12.74,8.187,25.0
271.105,-16.201,8.94,9.0
0.0,0.0,0.0,0.0
0.0,0.0,0.0,0.0
0.0,0.0,0.0,0.0
211.871,-12.424,9.264,10.0
0.0,0.0,0.0,0.0
0.0,0.0,0.0,0.0
0.0,0.0,0.0,0.0
211.656,-12.177,11.55,7.0
211.143,-12.076,10.324,6.0
0.0,0.0,0.0,0.0
244.237,-13.808,9.15,13.0
278.745,-15.668,8.868,16.0
0.0,0.0,0.0,0.0
0.0,0.0,0.0,0.0
0.0,0.0,0.0,0.0
0.0,0.0,0.0,0.0
0.0,0.0,0.0,0.0
0.0,0.0,0.0,0.0
0.0,0.0,0.0,0.0
0.0,0.0,0.0,0.0
0.0,0.0,0.0,0.0
0.0,0.0,0.0,0.0
0.0,0.0,0.0,0.0
0.0,0.0,0.0,0.0
0.0,0.0,0.0,0.0
0.0,0.0,0.0,0.0
0.0,0.0,0.0,0.0
0.0,0.0,0.0,0.0
0.0,0.0,0.0,0.0
0.0,0.0,0.0,0.0
0.0,0.0,0.0,0.0
0.0,0.0,0.0,0.0
0.0,0.0,0.0,0.0
0.0,0.0,0.0,0.0
0.0,0.0,0.0,0.0
0.0,0.0,0.0,0.0
0.0,0.0,0.0,0.0
0.0,0.0,0.0,0.0
0.0,0.0,0.0,0.0
0.0,0.0,0.0,0.0
0.0,0.0,0.0,0.0
0.0,0.0,0.0,0.0
0.0,0.0,0.0,0.0
0.0,0.0,0.0,0.0
0.0,0.0,0.0,0.0
0.0,0.0,0.0,0.0
0.0,0.0,0.0,0.0
0.0,0.0,0.0,0.0
0.0,0.0,0.0,0.0
0.0,0.0,0.0,0.0
0.0,0.0,0.0,0.0
0.0,0.0,0.0,0.0
0.0,0.0,0.0,0.0
0.0,0.0,0.0,0.0
0.0,0.0,0.0,0.0
0.0,0.0,0.0,0.0
0.0,0.0,0.0,0.0
0.0,0.0,0.0,0.0
0.0,0.0,0.0,0.0
0.0,0.0,0.0,0.0
0.0,0.0,0.0,0.0
0.0,0.0,0.0,0.0
0.0,0.0,0.0,0.0
0.0,0.0,0.0,0.0
0.0,0.0,0.0,0.0
0.0,0.0,0.0,0.0
0.0,0.0,0.0,0.0
0.0,0.0,0.0,0.0
0.0,0.0,0.0,0.0
0.0,0.0,0.0,0.0
0.0,0.0,0.0,0.0
0.0,0.0,0.0,0.0
0.0,0.0,0.0,0.0
0.0,0.0,0.0,0.0
0.0,0.0,0.0,0.0
0.0,0.0,0.0,0.0
0.0,0.0,0.0,0.0
0.0,0.0,0.0,0.0
0.0,0.0,0.0,0.0
0.0,0.0,0.0,0.0
0.0,0.0,0.0,0.0
0.0,0.0,0.0,0.0
0.0,0.0,0.0,0.0
0.0,0.0,0.0,0.0
0.0,0.0,0.0,0.0
0.0,0.0,0.0,0.0
0.0,0.0,0.0,0.0
0.0,0.0,0.0,0.0
148.092,-4.878,6.255,21.0
0.0,0.0,0.0,0.0
0.0,0.0,0.0,0.0
40.328,-1.293,1.006,13.0
40.328,-1.281,0.775,22.0
0.0,0.0,0.0,0.0
148.259,-4.634,6.09,25.0
0.0,0.0,0.0,0.0
40.32,-1.237,1.189,8.0
40.306,-1.225,0.958,28.0
40.357,-1.215,0.728,13.0
0.0,0.0,0.0,0.0
148.342,-4.39,5.915,7.0
0.0,0.0,0.0,0.0
40.297,-1.169,1.14,15.0
40.296,-1.158,0.909,0.0
0.0,0.0,0.0,0.0
128.938,-3.639,5.722,9.0
40.245,-1.124,1.554,11.0
40.296,-1.113,1.325,5.0
40.189,-1.099,1.086,51.0
40.197,-1.088,0.856,44.0
40.219,-1.078,0.626,52.0
128.927,-3.427,5.559,29.0
40.193,-1.057,1.502,51.0
40.264,-1.047,1.273,59.0
40.191,-1.034,1.035,56.0
40.185,-1.023,0.804,54.0
40.22,-1.013,0.574,59.0
129.238,-3.227,5.405,50.0
40.206,-0.992,1.449,51.0
40.251,-0.982,1.22,57.0
40.182,-0.969,0.982,58.0
40.2,-0.959,0.752,63.0
40.306,-0.951,0.522,61.0
129.645,-3.028,5.248,28.0
185.451,-4.282,6.439,32.0
40.221,-0.917,1.165,49.0
40.198,-0.906,0.929,59.0
40.234,-0.896,0.698,53.0
40.269,-0.886,0.467,32.0
191.367,-4.167,7.485,34.0
185.616,-3.992,6.191,48.0
40.23,-0.854,1.109,44.0
40.216,-0.843,0.874,50.0
40.229,-0.833,0.642,53.0
40.234,-0.822,0.411,46.0
184.532,-3.731,6.961,31.0
40.328,-0.804,1.288,13.0
40.25,-0.792,1.054,54.0
40.191,-0.78,0.817,52.0
40.281,-0.771,0.586,29.0
40.238,-0.76,0.354,50.0
184.532,-3.443,6.693,31.0
40.318,-0.741,1.23,13.0
40.239,-0.73,0.995,44.0
40.181,-0.718,0.758,6.0
205.326,-3.62,2.691,11.0
40.277,-0.699,0.296,37.0
151.431,-2.595,5.271,33.0
151.466,-2.557,4.398,102.0
261.974,-4.355,6.095,51.0
205.452,-3.364,3.574,7.0
123.799,-1.995,1.439,6.0
91.376,-1.449,0.535,5.0
151.437,-2.365,5.041,84.0
151.463,-2.328,4.169,69.0
183.411,-2.773,3.989,54.0
183.425,-2.728,2.912,60.0
123.508,-1.807,1.25,12.0
0.0,0.0,0.0,0.0
86.928,-1.231,2.763,26.0
86.92,-1.209,2.26,43.0
86.934,-1.188,1.76,47.0
86.934,-1.167,1.248,28.0
79.818,-1.051,0.685,18.0
79.304,-1.026,0.223,3.0
79.404,-1.008,2.4,41.0
79.435,-0.99,1.942,150.0
79.436,-0.97,1.483,209.0
79.442,-0.951,1.016,192.0
78.873,-0.926,0.553,35.0
60.423,-0.695,0.075,5.0
79.439,-0.895,2.275,153.0
79.426,-0.876,1.815,205.0
79.436,-0.858,1.357,199.0
79.454,-0.839,0.889,168.0
77.43,-0.799,0.419,8.0
54.465,-0.55,-0.019,4.0
79.441,-0.783,2.147,151.0
79.437,-0.765,1.687,181.0
79.439,-0.746,1.228,193.0
79.455,-0.729,0.761,160.0
61.313,-0.549,0.233,5.0
48.925,-0.427,-0.096,4.0
79.437,-0.674,2.017,159.0
79.436,-0.657,1.557,178.0
79.45,-0.639,1.099,182.0
79.279,-0.62,0.629,60.0
53.14,-0.403,0.114,11.0
44.848,-0.33,-0.163,5.0
79.424,-0.567,1.885,191.0
79.449,-0.55,1.426,176.0
79.456,-0.532,0.966,178.0
76.79,-0.497,0.481,14.0
0.0,0.0,0.0,0.0
39.89,-0.241,-0.211,5.0
79.429,-0.462,1.751,194.0
79.448,-0.445,1.291,170.0
79.458,-0.428,0.831,175.0
61.388,-0.317,0.28,10.0
45.254,-0.224,-0.054,19.0
39.255,-0.186,-0.275,2.0
79.393,-0.358,1.612,255.0
79.455,-0.342,1.154,153.0
79.441,-0.325,0.694,150.0
55.893,-0.217,0.159,29.0
41.51,-0.152,-0.122,17.0
36.425,-0.126,-0.318,1.0
79.433,-0.258,1.475,174.0
79.459,-0.241,1.015,152.0
76.559,-0.217,0.534,14.0
48.407,-0.127,0.052,7.0
39.628,-0.096,-0.186,15.0
32.514,-0.072,-0.341,2.0
79.455,-0.161,1.337,152.0
79.467,-0.144,0.876,153.0
75.986,-0.122,0.396,10.0
45.177,-0.064,-0.03,21.0
38.672,-0.047,-0.249,7.0
30.759,-0.031,-0.376,1.0
79.454,-0.065,1.195,151.0
79.425,-0.049,0.733,150.0
55.971,-0.023,0.192,22.0
40.947,-0.009,-0.1,16.0
38.044,-0.001,-0.313,1.0
29.683,0.004,-0.416,2.0
79.476,0.027,1.053,151.0
76.44,0.04,0.569,19.0
48.088,0.035,0.079,6.0
39.283,0.036,-0.167,37.0
33.126,0.036,-0.333,1.0
28.595,0.037,-0.453,2.0
79.466,0.118,0.907,151.0
75.829,0.126,0.426,10.0
0.0,0.0,0.0,0.0
38.403,0.078,-0.233,14.0
31.227,0.069,-0.371,1.0
27.366,0.066,-0.484,1.0
79.445,0.206,0.76,150.0
55.138,0.152,0.208,19.0
43.885,0.129,-0.088,6.0
37.804,0.118,-0.299,13.0
29.79,0.098,-0.409,2.0
26.461,0.092,-0.517,2.0
76.929,0.282,0.593,21.0
54.358,0.209,0.103,28.0
39.176,0.157,-0.153,46.0
33.223,0.139,-0.326,1.0
28.707,0.125,-0.448,2.0
25.389,0.115,-0.544,1.0
55.073,0.26,0.32,50.0
0.0,0.0,0.0,0.0
38.292,0.194,-0.221,14.0
31.292,0.163,-0.366,2.0
27.454,0.148,-0.481,1.0
24.146,0.134,-0.563,2.0
48.195,0.276,0.189,44.0
44.023,0.259,-0.083,8.0
37.695,0.228,-0.29,3.0
29.81,0.185,-0.405,2.0
26.478,0.169,-0.514,1.0
23.467,0.154,-0.592,2.0
47.977,0.321,0.096,54.0
38.968,0.267,-0.147,48.0
33.26,0.233,-0.319,1.0
28.756,0.206,-0.445,1.0
25.469,0.187,-0.543,1.0
22.511,0.169,-0.611,2.0
0.0,0.0,0.0,0.0
37.982,0.296,-0.217,14.0
31.325,0.249,-0.361,1.0
27.367,0.222,-0.477,1.0
21.954,0.181,-0.511,4.0
21.633,0.182,-0.629,1.0
43.97,0.376,-0.081,4.0
37.378,0.325,-0.286,3.0
29.857,0.264,-0.402,2.0
26.413,0.237,-0.512,1.0
21.23,0.194,-0.535,5.0
21.021,0.195,-0.652,2.0
38.684,0.364,-0.146,52.0
33.24,0.317,-0.318,1.0
28.819,0.279,-0.444,2.0
22.162,0.218,-0.472,1.0
20.507,0.204,-0.556,5.0
20.468,0.207,-0.674,2.0
37.777,0.387,-0.216,14.0
31.261,0.324,-0.361,1.0
27.327,0.287,-0.474,1.0
21.406,0.228,-0.498,4.0
19.972,0.215,-0.581,6.0
19.902,0.217,-0.695,1.0
37.22,0.41,-0.286,4.0
29.782,0.332,-0.402,2.0
26.384,0.298,-0.51,2.0
20.494,0.234,-0.517,4.0
19.451,0.225,-0.604,6.0
19.464,0.228,-0.718,2.0
33.04,0.389,-0.32,1.0
28.668,0.341,-0.444,2.0
22.179,0.267,-0.473,2.0
19.685,0.239,-0.536,3.0
18.985,0.233,-0.628,5.0
19.046,0.237,-0.741,2.0
31.039,0.388,-0.362,1.0
27.248,0.344,-0.476,1.0
21.305,0.271,-0.496,4.0
19.0,0.244,-0.555,3.0
18.55,0.241,-0.65,4.0
18.626,0.244,-0.762,2.0
29.669,0.391,-0.405,2.0
26.303,0.35,-0.512,1.0
20.412,0.274,-0.516,3.0
18.439,0.249,-0.575,4.0
18.209,0.249,-0.675,3.0
18.219,0.251,-0.781,2.0
28.456,0.394,-0.445,1.0
21.95,0.306,-0.471,4.0
19.561,0.275,-0.534,3.0
17.939,0.254,-0.596,4.0
17.877,0.255,-0.698,2.0
17.78,0.256,-0.798,2.0
27.121,0.392,-0.479,2.0
21.232,0.309,-0.498,6.0
18.814,0.276,-0.551,3.0
17.554,0.259,-0.618,4.0
17.533,0.261,-0.72,2.0
0.0,0.0,0.0,0.0
26.237,0.394,-0.516,1.0
20.196,0.305,-0.514,3.0
18.148,0.276,-0.568,3.0
17.245,0.264,-0.642,5.0
17.234,0.265,-0.742,2.0
15.457,0.24,-0.756,0.0
21.771,0.338,-0.471,4.0
19.418,0.303,-0.533,3.0
17.55,0.276,-0.584,3.0
17.03,0.269,-0.668,4.0
16.985,0.27,-0.765,2.0
15.093,0.242,-0.768,1.0
20.907,0.335,-0.495,4.0
18.706,0.301,-0.551,3.0
16.996,0.275,-0.6,2.0
16.801,0.274,-0.692,2.0
16.239,0.266,-0.764,2.0
14.857,0.245,-0.786,0.0
19.995,0.329,-0.513,8.0
17.974,0.298,-0.566,3.0
16.662,0.277,-0.621,4.0
16.652,0.279,-0.72,2.0
15.515,0.261,-0.762,0.0
19.243,0.325,-0.532,3.0
17.407,0.295,-0.583,2.0
16.511,0.281,-0.649,3.0
16.358,0.28,-0.74,2.0
15.08,0.26,-0.771,1.0
13.882,0.24,-0.791,0.0
18.608,0.321,-0.552,5.0
16.731,0.29,-0.594,2.0
16.349,0.285,-0.676,2.0
16.18,0.283,-0.765,2.0
0.0,0.0,0.0,0.0
13.556,0.239,-0.799,1.0
17.866,0.314,-0.566,3.0
16.314,0.288,-0.612,3.0
16.193,0.287,-0.702,2.0
15.929,0.284,-0.785,1.0
13.278,0.238,-0.81,0.0
17.274,0.309,-0.581,2.0
16.145,0.29,-0.638,3.0
16.094,0.29,-0.73,2.0
15.106,0.273,-0.775,1.0
13.832,0.251,-0.79,0.0
12.971,0.236,-0.817,0.0
16.623,0.302,-0.593,3.0
16.074,0.293,-0.667,2.0
16.033,0.293,-0.759,1.0
16.016,0.294,-0.854,1.0
13.551,0.249,-0.801,1.0
12.661,0.234,-0.823,1.0
16.157,0.297,-0.609,4.0
16.015,0.295,-0.697,2.0
15.851,0.293,-0.782,1.0
15.978,0.296,-0.884,0.0
13.244,0.246,-0.81,0.0
12.389,0.231,-0.83,0.0
15.981,0.297,-0.634,4.0
15.954,0.297,-0.726,2.0
15.245,0.285,-0.783,2.0
13.821,0.259,-0.792,0.0
12.929,0.243,-0.816,0.0
12.118,0.228,-0.836,0.0
15.941,0.298,-0.664,3.0
15.917,0.299,-0.756,1.0
15.947,0.3,-0.85,1.0
13.536,0.255,-0.802,1.0
12.635,0.239,-0.823,1.0
11.854,0.224,-0.841,0.0
15.926,0.3,-0.695,2.0
15.795,0.298,-0.781,1.0
15.893,0.3,-0.879,0.0
13.222,0.25,-0.809,1.0
12.372,0.235,-0.83,0.0
11.586,0.22,-0.845,0.0
15.894,0.3,-0.724,2.0
15.246,0.288,-0.783,1.0
13.801,0.262,-0.79,0.0
12.891,0.245,-0.814,0.0
12.105,0.23,-0.835,0.0
11.358,0.216,-0.851,0.0
15.871,0.3,-0.754,1.0
15.867,0.3,-0.846,1.0
13.534,0.257,-0.801,1.0
12.626,0.24,-0.822,0.0
11.85,0.225,-0.841,0.0
11.086,0.211,-0.852,0.0
15.754,0.298,-0.779,1.0
15.869,0.3,-0.877,0.0
13.215,0.25,-0.807,0.0
12.354,0.234,-0.828,0.0
11.571,0.22,-0.843,0.0
10.883,0.207,-0.857,0.0
15.313,0.289,-0.786,2.0
13.799,0.26,-0.789,0.0
12.92,0.244,-0.814,0.0
12.085,0.228,-0.833,0.0
11.347,0.215,-0.849,0.0
10.54,0.2,-0.85,2.0
15.925,0.299,-0.848,1.0
13.514,0.254,-0.798,1.0
12.625,0.237,-0.819,1.0
11.85,0.223,-0.84,0.0
11.104,0.209,-0.852,0.0
10.444,0.197,-0.862,6.0
16.007,0.299,-0.883,0.0
13.228,0.247,-0.807,0.0
12.361,0.231,-0.826,0.0
11.593,0.216,-0.843,0.0
10.877,0.203,-0.855,0.0
10.318,0.193,-0.872,1.0
13.779,0.255,-0.786,0.0
12.911,0.239,-0.812,1.0
12.113,0.224,-0.832,0.0
11.363,0.21,-0.848,0.0
10.533,0.195,-0.848,2.0
10.12,0.187,-0.874,0.0
13.533,0.247,-0.797,1.0
12.649,0.231,-0.819,1.0
11.869,0.217,-0.837,0.0
11.114,0.203,-0.85,0.0
10.446,0.191,-0.86,7.0
9.943,0.181,-0.877,0.0
13.266,0.239,-0.806,1.0
12.404,0.224,-0.825,0.0
11.607,0.209,-0.84,0.0
10.911,0.197,-0.855,0.0
10.344,0.186,-0.871,1.0
9.77,0.176,-0.88,0.0
12.963,0.231,-0.811,0.0
12.14,0.216,-0.83,0.0
11.4,0.202,-0.846,0.0
10.558,0.187,-0.846,2.0
10.132,0.179,-0.871,0.0
9.608,0.17,-0.883,0.0
12.687,0.222,-0.816,1.0
11.884,0.207,-0.834,0.0
11.142,0.194,-0.847,0.0
10.451,0.182,-0.856,9.0
9.973,0.173,-0.876,0.0
9.44,0.164,-0.884,0.0
12.447,0.213,-0.823,0.0
11.67,0.2,-0.839,0.0
10.946,0.187,-0.851,0.0
10.37,0.177,-0.868,2.0
9.789,0.167,-0.876,0.0
9.303,0.158,-0.887,0.0
12.197,0.204,-0.827,0.0
11.448,0.192,-0.843,0.0
10.658,0.178,-0.847,1.0
10.176,0.17,-0.869,0.0
9.653,0.161,-0.881,0.0
9.15,0.152,-0.889,0.0
11.969,0.196,-0.832,0.0
11.205,0.183,-0.845,0.0
10.462,0.17,-0.85,8.0
10.028,0.163,-0.874,0.0
9.489,0.154,-0.883,0.0
9.033,0.146,-0.893,0.0
11.749,0.187,-0.837,0.0
11.002,0.175,-0.848,0.0
10.394,0.164,-0.862,4.0
9.838,0.155,-0.874,0.0
9.356,0.147,-0.886,0.0
8.887,0.139,-0.894,0.0
11.539,0.178,-0.842,0.0
10.814,0.166,-0.852,0.0
10.268,0.157,-0.869,0.0
9.69,0.148,-0.877,0.0
9.222,0.14,-0.889,0.0
8.752,0.133,-0.895,0.0
11.283,0.168,-0.842,0.0
10.485,0.156,-0.843,4.0
10.099,0.149,-0.871,0.0
9.566,0.141,-0.882,0.0
9.081,0.133,-0.89,0.0
8.641,0.127,-0.898,0.0
11.093,0.16,-0.845,1.0
10.432,0.149,-0.856,4.0
9.915,0.141,-0.871,0.0
9.421,0.134,-0.884,0.0
8.955,0.127,-0.892,0.0
8.537,0.12,-0.901,0.0
10.91,0.151,-0.849,0.0
10.369,0.143,-0.867,0.0
9.766,0.134,-0.874,0.0
9.273,0.126,-0.885,0.0
8.814,0.119,-0.892,0.0
8.427,0.114,-0.902,0.0
10.744,0.142,-0.853,1.0
10.177,0.134,-0.867,0.0
9.613,0.126,-0.875,0.0
9.151,0.119,-0.887,0.0
8.71,0.113,-0.895,0.0
8.345,0.107,-0.906,0.0
10.596,0.133,-0.857,1.0
10.009,0.125,-0.868,0.0
9.494,0.118,-0.878,0.0
9.039,0.112,-0.89,0.0
8.603,0.106,-0.897,0.0
8.263,0.101,-0.91,0.0
10.485,0.125,-0.864,0.0
9.865,0.117,-0.87,0.0
9.384,0.11,-0.882,0.0
8.93,0.104,-0.893,0.0
8.493,0.098,-0.899,0.0
8.152,0.094,-0.91,0.0
10.338,0.116,-0.867,0.0
9.742,0.108,-0.874,0.0
9.262,0.102,-0.884,0.0
8.808,0.097,-0.893,0.0
8.418,0.092,-0.903,0.0
8.095,0.087,-0.916,0.0
10.131,0.106,-0.864,0.0
9.604,0.1,-0.875,0.0
9.141,0.094,-0.886,0.0
8.706,0.089,-0.895,0.0
8.32,0.084,-0.904,0.0
7.998,0.08,-0.916,0.0
10.001,0.098,-0.867,0.0
9.483,0.092,-0.877,0.0
9.049,0.086,-0.89,0.0
8.583,0.081,-0.895,0.0
8.26,0.077,-0.909,0.0
7.923,0.073,-0.918,0.0
9.885,0.089,-0.87,0.0
9.385,0.083,-0.881,0.0
8.917,0.078,-0.889,0.0
8.509,0.074,-0.898,0.0
8.172,0.07,-0.911,0.0
7.86,0.067,-0.922,0.0
9.76,0.08,-0.872,0.0
9.273,0.075,-0.883,0.0
8.831,0.07,-0.892,0.0
8.425,0.066,-0.901,0.0
8.1,0.063,-0.913,0.0
7.78,0.059,-0.923,0.0
9.634,0.071,-0.874,0.0
9.168,0.066,-0.885,0.0
8.731,0.062,-0.893,0.0
8.364,0.059,-0.905,0.0
8.03,0.055,-0.916,0.0
7.705,0.052,-0.924,0.0
9.53,0.062,-0.876,0.0
9.059,0.058,-0.886,0.0
8.648,0.054,-0.896,0.0
8.283,0.051,-0.907,0.0
7.94,0.048,-0.915,0.0
7.646,0.045,-0.926,0.0
9.447,0.053,-0.88,0.0
8.993,0.049,-0.89,0.0
8.555,0.046,-0.896,0.0
8.211,0.043,-0.909,0.0
7.906,0.041,-0.921,0.0
7.573,0.038,-0.927,0.0
9.332,0.044,-0.881,0.0
8.9,0.041,-0.891,0.0
8.481,0.038,-0.899,0.0
8.138,0.035,-0.91,0.0
7.837,0.033,-0.922,0.0
7.512,0.031,-0.928,0.0
9.238,0.035,-0.882,0.0
8.815,0.032,-0.893,0.0
8.407,0.03,-0.9,0.0
8.064,0.028,-0.911,0.0
7.773,0.026,-0.924,0.0
7.458,0.024,-0.93,0.0
9.149,0.026,-0.884,0.0
8.744,0.024,-0.895,0.0
8.343,0.022,-0.903,0.0
8.03,0.02,-0.916,0.0
7.698,0.018,-0.923,0.0
7.402,0.016,-0.931,0.0
9.077,0.018,-0.887,0.0
8.663,0.015,-0.896,0.0
8.289,0.014,-0.906,0.0
7.969,0.012,-0.918,0.0
7.656,0.01,-0.926,0.0
7.347,0.009,-0.932,0.0
8.987,0.009,-0.887,0.0
8.569,0.007,-0.895,0.0
8.211,0.005,-0.905,0.0
7.89,0.004,-0.917,0.0
7.596,0.003,-0.927,0.0
7.301,0.002,-0.933,0.0
8.923,0.0,-0.89,0.0
8.513,-0.001,-0.898,0.0
8.155,-0.002,-0.907,0.0
7.844,-0.003,-0.919,0.0
7.532,-0.004,-0.926,0.0
7.246,-0.005,-0.933,0.0
8.855,-0.008,-0.891,0.0
8.453,-0.009,-0.9,0.0
8.091,-0.01,-0.908,0.0
7.782,-0.011,-0.919,0.0
7.494,-0.012,-0.928,0.0
7.201,-0.012,-0.934,0.0
8.79,-0.018,-0.893,0.0
8.395,-0.018,-0.901,0.0
8.046,-0.018,-0.91,0.0
7.751,-0.019,-0.922,0.0
7.429,-0.019,-0.927,0.0
7.146,-0.02,-0.933,0.0
8.719,-0.026,-0.893,0.0
8.34,-0.027,-0.902,0.0
8.009,-0.027,-0.913,0.0
7.698,-0.027,-0.922,0.0
7.407,-0.027,-0.93,0.0
7.112,-0.027,-0.935,0.0
8.647,-0.035,-0.893,0.0
8.299,-0.035,-0.905,0.0
7.983,-0.035,-0.916,0.0
7.639,-0.035,-0.922,0.0
7.36,-0.035,-0.93,0.0
7.082,-0.035,-0.936,0.0
8.603,-0.044,-0.895,0.0
8.247,-0.044,-0.905,0.0
7.932,-0.044,-0.916,0.0
7.603,-0.043,-0.923,0.0
7.323,-0.043,-0.931,0.0
7.043,-0.042,-0.937,0.0
8.543,-0.053,-0.895,0.0
8.215,-0.053,-0.908,0.0
7.893,-0.052,-0.918,0.0
7.573,-0.051,-0.925,0.0
7.262,-0.05,-0.929,0.0
7.013,-0.05,-0.937,0.0
8.508,-0.062,-0.897,0.0
8.152,-0.061,-0.906,0.0
7.855,-0.06,-0.918,0.0
7.538,-0.059,-0.926,0.0
7.243,-0.058,-0.931,0.0
7.01,-0.057,-0.942,0.0
8.468,-0.071,-0.899,0.0
8.109,-0.07,-0.907,0.0
7.806,-0.069,-0.918,0.0
7.504,-0.067,-0.926,0.0
7.222,-0.066,-0.933,0.0
6.965,-0.065,-0.94,0.0
8.432,-0.081,-0.9,0.0
8.078,-0.079,-0.908,0.0
7.778,-0.077,-0.919,0.0
7.468,-0.075,-0.926,0.0
7.194,-0.074,-0.934,0.0
6.94,-0.073,-0.941,0.0
8.387,-0.09,-0.9,0.0
8.058,-0.088,-0.91,0.0
7.752,-0.086,-0.92,0.0
7.442,-0.084,-0.927,0.0
7.182,-0.082,-0.936,0.0
6.908,-0.08,-0.94,0.0
8.367,-0.099,-0.902,0.0
8.028,-0.096,-0.911,0.0
7.721,-0.094,-0.92,0.0
7.42,-0.092,-0.928,0.0
7.148,-0.09,-0.935,0.0
6.881,-0.088,-0.94,0.0
8.353,-0.108,-0.904,0.0
8.013,-0.105,-0.913,0.0
7.704,-0.103,-0.922,0.0
7.396,-0.1,-0.928,0.0
7.133,-0.098,-0.936,0.0
6.863,-0.096,-0.94,0.0
8.305,-0.117,-0.903,0.0
7.986,-0.114,-0.913,0.0
7.668,-0.111,-0.921,0.0
7.367,-0.108,-0.928,0.0
7.109,-0.106,-0.936,0.0
6.856,-0.103,-0.942,0.0
8.281,-0.126,-0.903,0.0
7.955,-0.123,-0.913,0.0
7.655,-0.12,-0.922,0.0
7.36,-0.117,-0.929,0.0
7.098,-0.114,-0.937,0.0
6.846,-0.111,-0.943,0.0
8.26,-0.136,-0.904,0.0
7.942,-0.132,-0.914,0.0
7.636,-0.128,-0.922,0.0
7.341,-0.125,-0.929,0.0
7.087,-0.122,-0.937,0.0
6.824,-0.119,-0.942,0.0
8.251,-0.145,-0.905,0.0
7.945,-0.141,-0.916,0.0
7.608,-0.137,-0.921,0.0
7.344,-0.133,-0.932,0.0
7.075,-0.13,-0.938,0.0
6.813,-0.127,-0.942,0.0
8.238,-0.154,-0.906,0.0
7.904,-0.15,-0.914,0.0
7.614,-0.146,-0.923,0.0
7.32,-0.142,-0.93,0.0
7.05,-0.138,-0.936,0.0
6.798,-0.134,-0.941,0.0
8.219,-0.164,-0.905,0.0
7.902,-0.159,-0.915,0.0
7.602,-0.154,-0.923,0.0
7.316,-0.15,-0.931,0.0
7.04,-0.146,-0.936,0.0
6.805,-0.142,-0.943,0.0
8.206,-0.173,-0.905,0.0
7.91,-0.168,-0.917,0.0
7.594,-0.163,-0.923,0.0
7.309,-0.158,-0.931,0.0
7.041,-0.154,-0.937,0.0
6.787,-0.15,-0.942,0.0
8.199,-0.182,-0.905,0.0
7.915,-0.177,-0.918,0.0
7.579,-0.171,-0.922,0.0
7.31,-0.167,-0.932,0.0
7.051,-0.162,-0.939,0.0
6.789,-0.158,-0.942,0.0
8.187,-0.191,-0.904,0.0
7.892,-0.186,-0.916,0.0
7.609,-0.181,-0.926,0.0
7.301,-0.175,-0.931,0.0
7.038,-0.17,-0.937,0.0
6.788,-0.166,-0.942,0.0
8.199,-0.201,-0.905,0.0
7.883,-0.195,-0.915,0.0
7.602,-0.19,-0.925,0.0
7.299,-0.183,-0.93,0.0
7.052,-0.179,-0.939,0.0
6.787,-0.173,-0.942,0.0
8.213,-0.211,-0.907,0.0
7.898,-0.204,-0.916,0.0
7.599,-0.198,-0.924,0.0
7.301,-0.192,-0.93,0.0
7.056,-0.187,-0.939,0.0
6.79,-0.181,-0.942,0.0
8.21,-0.22,-0.906,0.0
7.907,-0.213,-0.917,0.0
7.609,-0.207,-0.925,0.0
7.282,-0.2,-0.927,0.0
7.044,-0.194,-0.936,0.0
6.796,-0.189,-0.942,0.0
8.224,-0.23,-0.906,0.0
7.913,-0.222,-0.916,0.0
7.602,-0.215,-0.923,0.0
7.307,-0.209,-0.929,0.0
7.075,-0.203,-0.939,0.0
6.808,-0.197,-0.942,0.0
8.235,-0.239,-0.906,0.0
7.916,-0.231,-0.915,0.0
7.598,-0.224,-0.921,0.0
7.312,-0.217,-0.928,0.0
7.077,-0.211,-0.938,0.0
6.814,-0.205,-0.942,0.0
8.244,-0.248,-0.905,0.0
7.928,-0.241,-0.915,0.0
7.635,-0.233,-0.924,0.0
7.336,-0.226,-0.929,0.0
7.069,-0.219,-0.935,0.0
6.831,-0.213,-0.943,0.0
8.262,-0.258,-0.905,0.0
7.94,-0.25,-0.914,0.0
7.661,-0.242,-0.925,0.0
7.35,-0.234,-0.929,0.0
7.088,-0.227,-0.936,0.0
6.851,-0.221,-0.943,0.0
8.267,-0.267,-0.903,0.0
7.967,-0.259,-0.915,0.0
7.661,-0.251,-0.922,0.0
7.366,-0.243,-0.929,0.0
7.112,-0.236,-0.937,0.0
6.866,-0.229,-0.943,0.0
8.292,-0.277,-0.903,0.0
7.993,-0.269,-0.915,0.0
7.686,-0.26,-0.922,0.0
7.378,-0.251,-0.927,0.0
7.131,-0.244,-0.936,0.0
6.883,-0.237,-0.942,0.0
8.305,-0.286,-0.901,0.0
8.02,-0.278,-0.914,0.0
7.71,-0.269,-0.922,0.0
7.43,-0.261,-0.931,0.0
7.151,-0.252,-0.936,0.0
6.907,-0.245,-0.943,0.0
8.336,-0.296,-0.901,0.0
8.045,-0.287,-0.914,0.0
7.72,-0.277,-0.92,0.0
7.441,-0.269,-0.929,0.0
7.187,-0.261,-0.937,0.0
6.918,-0.253,-0.941,0.0
8.379,-0.306,-0.901,0.0
8.059,-0.296,-0.911,0.0
7.761,-0.287,-0.921,0.0
7.447,-0.277,-0.926,0.0
7.195,-0.269,-0.934,0.0
6.963,-0.262,-0.943,0.0
8.415,-0.316,-0.901,0.0
8.088,-0.306,-0.91,0.0
7.783,-0.296,-0.919,0.0
7.486,-0.286,-0.926,0.0
7.222,-0.277,-0.934,0.0
6.976,-0.269,-0.941,0.0
8.45,-0.326,-0.9,0.0
8.112,-0.314,-0.908,0.0
7.816,-0.305,-0.918,0.0
7.514,-0.294,-0.925,0.0
7.258,-0.286,-0.934,0.0
7.002,-0.277,-0.94,0.0
8.506,-0.337,-0.9,0.0
8.154,-0.324,-0.908,0.0
7.849,-0.314,-0.917,0.0
7.551,-0.303,-0.925,0.0
7.295,-0.294,-0.934,0.0
7.034,-0.285,-0.94,0.0
8.527,-0.345,-0.897,0.0
8.2,-0.334,-0.908,0.0
7.89,-0.323,-0.917,0.0
7.595,-0.312,-0.925,0.0
7.314,-0.302,-0.931,0.0
7.066,-0.293,-0.939,0.0
8.579,-0.356,-0.896,0.0
8.238,-0.343,-0.906,0.0
7.929,-0.332,-0.916,0.0
7.622,-0.32,-0.923,0.0
7.342,-0.31,-0.93,0.0
7.102,-0.301,-0.939,0.0
8.646,-0.366,-0.897,0.0
8.289,-0.353,-0.905,0.0
7.967,-0.341,-0.914,0.0
7.676,-0.33,-0.924,0.0
7.395,-0.319,-0.931,0.0
7.14,-0.309,-0.938,0.0
8.686,-0.376,-0.894,0.0
8.342,-0.362,-0.905,0.0
8.017,-0.35,-0.913,0.0
7.707,-0.338,-0.921,0.0
7.446,-0.328,-0.931,0.0
7.176,-0.317,-0.937,0.0
8.739,-0.386,-0.893,0.0
8.373,-0.371,-0.901,0.0
8.05,-0.358,-0.91,0.0
7.758,-0.347,-0.921,0.0
7.477,-0.336,-0.929,0.0
7.213,-0.325,-0.935,0.0
8.806,-0.396,-0.892,0.0
8.43,-0.381,-0.9,0.0
8.092,-0.367,-0.908,0.0
7.804,-0.355,-0.919,0.0
7.516,-0.344,-0.927,0.0
7.278,-0.334,-0.937,0.0
8.87,-0.406,-0.891,0.0
8.52,-0.392,-0.902,0.0
8.161,-0.377,-0.908,0.0
7.856,-0.364,-0.918,0.0
7.594,-0.353,-0.929,0.0
7.298,-0.341,-0.933,0.0
8.971,-0.418,-0.892,0.0
8.572,-0.401,-0.899,0.0
8.223,-0.386,-0.907,0.0
7.903,-0.373,-0.916,0.0
7.637,-0.362,-0.927,0.0
7.347,-0.349,-0.932,0.0
9.058,-0.429,-0.892,0.0
8.635,-0.411,-0.897,0.0
8.272,-0.395,-0.905,0.0
7.977,-0.382,-0.917,0.0
7.681,-0.369,-0.925,0.0
7.4,-0.357,-0.931,0.0
9.115,-0.439,-0.889,0.0
8.695,-0.42,-0.895,0.0
8.347,-0.405,-0.904,0.0
8.006,-0.389,-0.912,0.0
7.723,-0.377,-0.922,0.0
7.458,-0.365,-0.931,0.0
9.199,-0.449,-0.887,0.0
8.777,-0.43,-0.894,0.0
8.409,-0.414,-0.902,0.0
8.073,-0.398,-0.911,0.0
7.797,-0.386,-0.922,0.0
7.499,-0.372,-0.928,0.0
9.28,-0.46,-0.885,0.0
8.855,-0.44,-0.892,0.0
8.486,-0.423,-0.901,0.0
8.155,-0.408,-0.911,0.0
7.865,-0.395,-0.921,0.0
7.582,-0.382,-0.93,0.0
9.374,-0.471,-0.884,0.0
8.955,-0.451,-0.892,0.0
8.566,-0.433,-0.9,0.0
8.212,-0.416,-0.908,0.0
7.921,-0.403,-0.919,0.0
7.629,-0.389,-0.926,0.0
9.47,-0.481,-0.882,0.0
9.035,-0.461,-0.89,0.0
8.635,-0.441,-0.897,0.0
8.291,-0.425,-0.907,0.0
7.98,-0.41,-0.916,0.0
7.704,-0.397,-0.926,0.0
9.58,-0.493,-0.881,0.0
9.142,-0.471,-0.89,0.0
8.721,-0.451,-0.896,0.0
8.357,-0.433,-0.904,0.0
8.043,-0.418,-0.914,0.0
7.759,-0.405,-0.924,0.0
9.701,-0.504,-0.88,0.0
9.246,-0.482,-0.889,0.0
8.811,-0.46,-0.894,0.0
8.457,-0.443,-0.905,0.0
8.106,-0.426,-0.911,0.0
7.831,-0.413,-0.922,0.0
9.779,-0.514,-0.875,2.0
9.342,-0.492,-0.886,0.0
8.919,-0.471,-0.894,0.0
8.525,-0.451,-0.901,0.0
8.196,-0.435,-0.91,0.0
7.887,-0.419,-0.919,0.0
9.872,-0.523,-0.871,2.0
9.458,-0.503,-0.885,0.0
9.019,-0.48,-0.892,0.0
8.631,-0.461,-0.901,0.0
8.283,-0.443,-0.909,0.0
7.969,-0.427,-0.918,0.0
9.975,-0.533,-0.867,1.0
9.557,-0.512,-0.882,0.0
9.124,-0.49,-0.891,0.0
8.723,-0.47,-0.899,0.0
8.359,-0.451,-0.906,0.0
8.045,-0.435,-0.916,0.0
10.141,-0.547,-0.868,0.0
9.694,-0.524,-0.881,0.0
9.243,-0.5,-0.89,0.0
8.805,-0.478,-0.896,0.0
8.452,-0.459,-0.905,0.0
8.129,-0.443,-0.914,0.0
10.291,-0.559,-0.867,0.0
9.783,-0.532,-0.876,2.0
9.347,-0.509,-0.887,0.0
8.928,-0.488,-0.896,0.0
8.554,-0.468,-0.904,0.0
8.218,-0.451,-0.912,0.0
10.431,-0.57,-0.864,0.0
9.874,-0.541,-0.87,2.0
9.472,-0.52,-0.885,0.0
9.036,-0.497,-0.894,0.0
8.647,-0.476,-0.901,0.0
8.29,-0.457,-0.909,0.0
10.587,-0.582,-0.862,0.0
9.988,-0.55,-0.866,0.0
9.583,-0.529,-0.882,0.0
9.145,-0.505,-0.891,0.0
8.737,-0.484,-0.898,0.0
8.38,-0.465,-0.906,0.0
10.735,-0.593,-0.858,0.0
10.192,-0.564,-0.869,0.0
9.727,-0.539,-0.881,1.0
9.251,-0.514,-0.888,0.0
8.852,-0.492,-0.897,0.0
8.488,-0.473,-0.906,0.0
10.883,-0.604,-0.854,0.0
10.341,-0.575,-0.867,0.0
9.815,-0.546,-0.875,2.0
9.383,-0.523,-0.887,0.0
8.99,-0.502,-0.898,0.0
8.586,-0.48,-0.903,0.0
11.056,-0.616,-0.852,0.0
10.506,-0.586,-0.865,0.0
9.928,-0.555,-0.87,1.0
9.524,-0.533,-0.886,0.0
9.099,-0.51,-0.895,0.0
8.692,-0.488,-0.901,0.0
11.205,-0.626,-0.846,0.0
10.649,-0.596,-0.86,0.0
10.081,-0.565,-0.868,0.0
9.658,-0.542,-0.884,0.0
9.224,-0.518,-0.893,0.0
8.796,-0.494,-0.898,0.0
11.377,-0.637,-0.842,0.0
10.82,-0.607,-0.858,0.0
10.272,-0.577,-0.869,0.0
9.778,-0.55,-0.88,2.0
9.331,-0.525,-0.889,0.0
8.917,-0.502,-0.897,0.0
11.599,-0.651,-0.84,0.0
10.976,-0.616,-0.853,0.0
10.43,-0.586,-0.866,0.0
9.877,-0.556,-0.873,2.0
9.477,-0.534,-0.888,0.0
9.055,-0.51,-0.896,0.0
11.761,-0.661,-0.834,0.0
11.155,-0.627,-0.849,0.0
10.593,-0.596,-0.863,0.0
10.005,-0.563,-0.868,0.0
9.614,-0.542,-0.885,0.0
9.194,-0.518,-0.895,0.0
11.992,-0.674,-0.831,0.0
11.338,-0.637,-0.845,0.0
10.753,-0.605,-0.858,0.0
10.211,-0.575,-0.87,0.0
9.754,-0.549,-0.883,1.0
9.303,-0.524,-0.891,0.0
12.19,-0.685,-0.825,0.0
11.53,-0.648,-0.841,0.0
10.94,-0.615,-0.856,0.0
10.39,-0.584,-0.869,0.0
9.854,-0.554,-0.876,2.0
9.437,-0.531,-0.889,0.0
12.406,-0.696,-0.82,0.0
11.719,-0.658,-0.836,0.0
11.116,-0.624,-0.851,0.0
10.587,-0.594,-0.868,0.0
9.992,-0.561,-0.871,1.0
9.564,-0.537,-0.885,0.0
12.649,-0.708,-0.815,1.0
11.946,-0.669,-0.833,0.0
11.291,-0.632,-0.846,0.0
10.739,-0.601,-0.862,0.0
10.192,-0.571,-0.872,0.0
9.739,-0.546,-0.885,1.0
12.911,-0.721,-0.811,1.0
12.144,-0.678,-0.826,0.0
11.512,-0.643,-0.844,0.0
10.905,-0.609,-0.858,0.0
10.38,-0.58,-0.871,0.0
9.829,-0.549,-0.877,2.0
13.168,-0.733,-0.805,1.0
12.391,-0.689,-0.823,1.0
11.698,-0.651,-0.838,0.0
11.093,-0.617,-0.854,0.0
10.542,-0.586,-0.867,0.0
9.97,-0.554,-0.872,1.0
13.423,-0.744,-0.798,1.0
12.618,-0.699,-0.816,1.0
11.903,-0.659,-0.833,0.0
11.276,-0.624,-0.849,0.0
10.706,-0.593,-0.862,0.0
10.173,-0.563,-0.873,0.0
13.683,-0.755,-0.791,1.0
12.882,-0.71,-0.812,1.0
12.139,-0.669,-0.829,0.0
11.472,-0.632,-0.844,0.0
10.9,-0.6,-0.859,0.0
10.357,-0.57,-0.871,0.0
13.977,-0.766,-0.784,1.0
13.155,-0.721,-0.807,0.0
12.382,-0.678,-0.824,0.0
11.692,-0.64,-0.841,0.0
11.097,-0.607,-0.856,0.0
10.53,-0.576,-0.868,0.0
14.296,-0.779,-0.778,1.0
13.407,-0.73,-0.799,1.0
12.613,-0.686,-0.818,1.0
11.893,-0.647,-0.835,0.0
11.259,-0.612,-0.849,0.0
10.707,-0.581,-0.864,0.0
14.623,-0.791,-0.771,1.0
13.699,-0.74,-0.793,1.0
12.867,-0.695,-0.812,0.0
12.127,-0.654,-0.83,0.0
11.485,-0.619,-0.846,0.0
10.9,-0.587,-0.86,0.0
14.995,-0.804,-0.765,1.0
13.964,-0.748,-0.785,1.0
13.149,-0.704,-0.808,0.0
12.381,-0.662,-0.826,0.0
11.703,-0.625,-0.842,0.0
11.108,-0.593,-0.858,0.0
15.382,-0.818,-0.758,1.0
14.303,-0.759,-0.779,1.0
13.419,-0.712,-0.801,1.0
12.609,-0.668,-0.82,1.0
11.895,-0.629,-0.836,0.0
11.288,-0.596,-0.852,0.0
15.776,-0.83,-0.75,1.0
14.67,-0.771,-0.774,1.0
13.693,-0.719,-0.794,1.0
12.871,-0.675,-0.815,0.0
12.158,-0.636,-0.833,0.0
11.491,-0.601,-0.848,0.0
16.167,-0.842,-0.741,1.0
15.016,-0.781,-0.766,1.0
13.983,-0.726,-0.786,1.0
13.15,-0.682,-0.809,1.0
12.381,-0.641,-0.827,0.0
11.705,-0.605,-0.843,0.0
16.62,-0.856,-0.733,1.0
15.394,-0.791,-0.759,1.0
14.331,-0.735,-0.781,1.0
13.412,-0.687,-0.802,1.0
12.63,-0.646,-0.822,1.0
11.91,-0.608,-0.837,0.0
17.106,-0.87,-0.725,1.0
15.783,-0.801,-0.751,1.0
14.674,-0.743,-0.774,1.0
13.698,-0.692,-0.796,1.0
12.889,-0.65,-0.816,0.0
12.158,-0.612,-0.833,0.0
17.588,-0.882,-0.715,1.0
16.182,-0.81,-0.742,1.0
15.037,-0.751,-0.768,1.0
13.97,-0.696,-0.787,1.0
13.176,-0.655,-0.811,1.0
12.392,-0.615,-0.828,0.0
18.074,-0.893,-0.703,1.0
16.664,-0.822,-0.735,1.0
15.398,-0.757,-0.759,1.0
14.335,-0.703,-0.783,1.0
13.452,-0.659,-0.805,1.0
12.638,-0.617,-0.822,0.0
18.58,-0.904,-0.691,1.0
17.127,-0.831,-0.726,1.0
15.793,-0.765,-0.752,1.0
14.664,-0.708,-0.776,1.0
13.698,-0.66,-0.796,1.0
12.902,-0.62,-0.817,0.0
19.16,-0.917,-0.68,1.0
17.609,-0.84,-0.717,1.0
16.197,-0.771,-0.743,1.0
15.034,-0.714,-0.77,1.0
13.994,-0.662,-0.789,1.0
13.18,-0.622,-0.812,0.0
19.749,-0.928,-0.667,1.0
18.1,-0.848,-0.705,2.0
16.655,-0.778,-0.736,1.0
15.379,-0.716,-0.761,1.0
14.33,-0.666,-0.784,1.0
13.429,-0.622,-0.805,0.0
20.362,-0.939,-0.653,1.0
18.602,-0.855,-0.693,1.0
17.141,-0.786,-0.728,1.0
15.758,-0.72,-0.753,1.0
14.664,-0.668,-0.777,1.0
13.718,-0.623,-0.799,1.0
21.06,-0.952,-0.64,1.0
19.111,-0.861,-0.68,1.0
17.584,-0.789,-0.717,1.0
16.158,-0.723,-0.745,1.0
15.008,-0.669,-0.77,1.0
13.985,-0.621,-0.791,1.0
21.791,-0.964,-0.625,1.0
19.724,-0.87,-0.669,1.0
18.061,-0.793,-0.706,1.0
16.604,-0.726,-0.737,1.0
15.405,-0.672,-0.764,1.0
14.315,-0.622,-0.785,1.0
22.567,-0.976,-0.61,1.0
20.336,-0.876,-0.655,1.0
18.587,-0.797,-0.696,1.0
17.102,-0.731,-0.731,1.0
15.734,-0.67,-0.754,1.0
14.648,-0.621,-0.779,1.0
23.357,-0.986,-0.592,2.0
21.047,-0.885,-0.643,1.0
19.106,-0.8,-0.683,1.0
17.555,-0.732,-0.721,1.0
16.161,-0.671,-0.748,1.0
15.021,-0.62,-0.773,1.0
24.23,-0.996,-0.574,1.0
21.748,-0.89,-0.628,1.0
19.7,-0.803,-0.672,1.0
17.984,-0.729,-0.708,1.0
16.599,-0.67,-0.74,1.0
15.354,-0.617,-0.765,1.0
25.134,-1.005,-0.553,1.0
22.535,-0.897,-0.613,1.0
20.313,-0.805,-0.659,1.0
18.508,-0.73,-0.698,1.0
17.077,-0.67,-0.733,1.0
15.703,-0.613,-0.756,1.0
26.09,-1.013,-0.531,1.0
23.291,-0.9,-0.596,1.0
20.97,-0.806,-0.645,1.0
19.036,-0.728,-0.687,1.0
17.524,-0.667,-0.724,1.0
16.082,-0.608,-0.748,1.0
26.974,-1.015,-0.505,1.0
24.054,-0.9,-0.575,1.0
21.681,-0.807,-0.632,1.0
19.597,-0.725,-0.675,1.0
17.975,-0.662,-0.713,1.0
16.561,-0.606,-0.744,1.0
27.976,-1.019,-0.479,1.0
25.038,-0.906,-0.559,1.0
22.388,-0.806,-0.617,1.0
20.148,-0.721,-0.662,1.0
18.44,-0.656,-0.702,1.0
16.983,-0.6,-0.736,1.0
29.019,-1.02,-0.45,1.0
25.923,-0.905,-0.537,1.0
23.138,-0.803,-0.6,1.0
20.813,-0.718,-0.651,1.0
18.914,-0.648,-0.69,1.0
17.432,-0.593,-0.727,1.0
30.028,-1.016,-0.418,1.0
26.727,-0.899,-0.512,1.0
23.833,-0.796,-0.581,1.0
21.481,-0.713,-0.638,1.0
19.443,-0.641,-0.679,1.0
17.833,-0.583,-0.716,1.0
31.217,-1.015,-0.386,1.0
27.684,-0.894,-0.487,2.0
24.803,-0.795,-0.566,1.0
22.141,-0.705,-0.623,1.0
19.997,-0.632,-0.668,1.0
18.303,-0.574,-0.707,1.0
32.911,-1.025,-0.356,1.0
28.735,-0.888,-0.461,1.0
25.568,-0.784,-0.544,1.0
22.889,-0.696,-0.609,1.0
20.592,-0.622,-0.656,1.0
18.743,-0.561,-0.695,1.0
34.66,-1.031,-0.322,0.0
29.648,-0.875,-0.431,1.0
26.501,-0.775,-0.524,1.0
23.559,-0.683,-0.591,1.0
21.157,-0.609,-0.642,1.0
19.263,-0.549,-0.685,1.0
40.077,-1.135,-0.312,3.0
30.656,-0.86,-0.399,1.0
27.331,-0.76,-0.499,1.0
24.368,-0.671,-0.575,1.0
21.867,-0.597,-0.63,1.0
19.778,-0.535,-0.674,1.0
40.73,-1.093,-0.257,68.0
32.271,-0.858,-0.372,1.0
28.275,-0.744,-0.474,1.0
25.197,-0.657,-0.557,1.0
22.574,-0.583,-0.618,1.0
20.444,-0.522,-0.667,2.0
40.993,-1.039,-0.198,35.0
33.64,-0.844,-0.339,1.0
29.232,-0.725,-0.447,1.0
25.974,-0.637,-0.536,1.0
23.246,-0.565,-0.602,2.0
20.859,-0.501,-0.65,1.0
40.311,-0.96,-0.137,150.0
40.265,-0.948,-0.348,2.0
30.027,-0.699,-0.417,1.0
26.956,-0.62,-0.518,6.0
23.874,-0.542,-0.584,1.0
21.529,-0.483,-0.64,1.0
40.498,-0.901,-0.079,0.0
40.215,-0.883,-0.29,5.0
31.098,-0.674,-0.387,1.0
27.613,-0.591,-0.492,1.0
24.74,-0.523,-0.571,1.0
22.276,-0.465,-0.631,4.0
56.425,-1.165,-0.032,1.0
40.244,-0.82,-0.234,2.0
32.812,-0.66,-0.364,1.0
28.528,-0.566,-0.469,1.0
25.46,-0.497,-0.553,1.0
22.829,-0.44,-0.615,2.0
40.299,-0.767,0.031,60.0
40.318,-0.756,-0.18,41.0
33.83,-0.625,-0.329,0.0
29.347,-0.534,-0.443,1.0
26.122,-0.468,-0.532,1.0
23.408,-0.412,-0.6,2.0
40.297,-0.701,0.085,57.0
40.342,-0.69,-0.126,38.0
40.153,-0.676,-0.337,1.0
30.082,-0.498,-0.414,1.0
26.827,-0.436,-0.511,1.0
24.002,-0.384,-0.584,2.0
248.438,-3.91,0.855,14.0
55.419,-0.855,-0.101,1.0
38.816,-0.588,-0.275,0.0
31.061,-0.462,-0.387,1.0
27.707,-0.404,-0.492,1.0
24.711,-0.353,-0.569,1.0
78.709,-1.106,0.371,2.0
60.859,-0.836,-0.033,1.0
42.196,-0.568,-0.246,2.0
32.499,-0.428,-0.364,2.0
28.541,-0.367,-0.47,2.0
25.449,-0.32,-0.554,1.0
78.608,-0.969,0.47,17.0
60.722,-0.73,0.042,3.0
46.601,-0.546,-0.213,1.0
33.995,-0.388,-0.338,1.0
29.326,-0.326,-0.447,5.0
26.1,-0.283,-0.536,1.0
79.103,-0.835,0.572,56.0
56.716,-0.582,0.11,4.0
50.849,-0.507,-0.17,15.0
36.662,-0.354,-0.32,1.0
30.057,-0.281,-0.421,2.0
26.769,-0.242,-0.517,2.0
79.46,-0.698,0.67,150.0
61.114,-0.518,0.192,6.0
48.202,-0.394,-0.103,5.0
40.368,-0.318,-0.304,6.0
30.791,-0.233,-0.395,1.0
27.441,-0.199,-0.498,2.0
79.453,-0.555,0.764,170.0
61.776,-0.413,0.266,6.0
46.2,-0.294,-0.045,3.0
40.361,-0.245,-0.258,3.0
31.889,-0.183,-0.372,1.0
28.179,-0.154,-0.479,2.0
79.459,-0.411,0.855,159.0
76.628,-0.372,0.418,11.0
47.431,-0.216,0.006,6.0
39.44,-0.167,-0.207,6.0
33.216,-0.13,-0.351,1.0
29.048,-0.105,-0.461,2.0
79.464,-0.264,0.944,151.0
76.624,-0.23,0.503,14.0
0.0,0.0,0.0,0.0
40.335,-0.096,-0.167,15.0
33.974,-0.07,-0.322,0.0
29.616,-0.052,-0.438,2.0
79.461,-0.114,1.031,151.0
79.316,-0.09,0.606,45.0
55.707,-0.046,0.129,29.0
41.04,-0.02,-0.126,16.0
38.264,-0.007,-0.322,3.0
30.198,0.003,-0.415,2.0
79.46,0.034,1.114,151.0
79.437,0.058,0.69,150.0
58.171,0.061,0.195,7.0
0.0,0.0,0.0,0.0
38.207,0.065,-0.282,7.0
30.961,0.062,-0.394,1.0
79.464,0.185,1.195,154.0
79.45,0.211,0.772,150.0
59.192,0.176,0.259,9.0
0.0,0.0,0.0,0.0
38.483,0.138,-0.246,14.0
32.057,0.125,-0.376,1.0
59.309,0.251,0.95,112.0
59.295,0.27,0.633,130.0
55.083,0.269,0.294,38.0
47.128,0.246,-0.004,34.0
38.686,0.214,-0.21,39.0
32.94,0.193,-0.355,1.0
48.137,0.298,0.817,78.0
48.114,0.314,0.56,57.0
48.105,0.329,0.302,49.0
47.883,0.342,0.04,57.0
38.98,0.291,-0.175,47.0
33.555,0.261,-0.33,0.0
48.1,0.391,0.861,115.0
48.08,0.406,0.603,112.0
48.057,0.422,0.345,110.0
47.967,0.436,0.082,70.0
39.34,0.37,-0.142,39.0
37.277,0.363,-0.335,3.0
48.129,0.485,0.903,100.0
48.104,0.501,0.645,105.0
48.075,0.517,0.387,98.0
48.016,0.532,0.124,83.0
39.987,0.456,-0.11,15.0
37.271,0.436,-0.303,6.0
55.089,0.665,1.081,64.0
48.256,0.598,0.688,8.0
48.179,0.613,0.428,9.0
48.053,0.627,0.164,64.0
44.147,0.59,-0.086,18.0
37.419,0.512,-0.274,13.0
190.134,2.674,3.886,35.0
126.892,1.826,1.911,36.0
89.564,1.318,0.868,10.0
60.473,0.909,0.254,35.0
0.0,0.0,0.0,0.0
37.53,0.589,-0.245,25.0
190.069,3.055,4.033,21.0
127.238,2.086,2.014,33.0
89.68,1.498,0.936,8.0
61.297,1.043,0.303,35.0
46.773,0.811,-0.02,28.0
37.612,0.665,-0.218,40.0
128.152,2.316,2.813,24.0
127.74,2.35,2.115,33.0
89.83,1.682,1.003,8.0
61.75,1.176,0.35,11.0
47.627,0.923,0.013,21.0
38.065,0.749,-0.194,46.0
128.055,2.572,2.9,48.0
106.32,2.169,1.834,8.0
120.968,2.508,1.433,6.0
74.667,1.573,0.474,20.0
48.264,1.032,0.046,21.0
38.493,0.836,-0.171,40.0
0.0,0.0,0.0,0.0
0.0,0.0,0.0,0.0
106.458,2.424,1.331,5.0
74.794,1.728,0.523,22.0
51.869,1.214,0.082,5.0
39.187,0.93,-0.149,46.0
100.52,2.427,2.406,2.0
100.432,2.458,1.861,4.0
106.107,2.631,1.391,81.0
74.983,1.883,0.569,15.0
54.837,1.395,0.119,7.0
39.579,1.02,-0.127,31.0
0.0,0.0,0.0,0.0
0.0,0.0,0.0,0.0
106.075,2.845,1.451,18.0
77.844,2.113,0.635,22.0
54.828,1.507,0.15,26.0
40.03,1.112,-0.107,15.0
154.119,4.35,3.865,5.0
0.0,0.0,0.0,0.0
100.543,2.901,1.429,3.0
77.811,2.271,0.676,36.0
54.751,1.615,0.178,22.0
40.544,1.208,-0.088,15.0
0.0,0.0,0.0,0.0
0.0,0.0,0.0,0.0
100.635,3.109,1.48,2.0
78.046,2.436,0.716,35.0
58.813,1.853,0.219,19.0
42.906,1.366,-0.072,5.0
168.422,5.438,4.389,4.0
0.0,0.0,0.0,0.0
0.0,0.0,0.0,0.0
78.265,2.602,0.753,22.0
59.093,1.984,0.247,30.0
46.694,1.582,-0.059,14.0
159.273,5.47,4.22,8.0
0.0,0.0,0.0,0.0
0.0,0.0,0.0,0.0
78.183,2.759,0.785,20.0
59.185,2.108,0.271,32.0
46.973,1.688,-0.04,21.0
160.409,5.842,4.315,8.0
0.0,0.0,0.0,0.0
0.0,0.0,0.0,0.0
79.205,2.958,0.825,12.0
59.166,2.229,0.293,31.0
46.819,1.779,-0.023,21.0
158.507,6.098,4.32,10.0
0.0,0.0,0.0,0.0
0.0,0.0,0.0,0.0
79.462,3.13,0.854,10.0
59.142,2.349,0.312,29.0
0.0,0.0,0.0,0.0
158.48,6.418,4.37,6.0
0.0,0.0,0.0,0.0
0.0,0.0,0.0,0.0
79.721,3.303,0.881,7.0
59.205,2.471,0.33,25.0
0.0,0.0,0.0,0.0
173.435,7.377,4.83,14.0
0.0,0.0,0.0,0.0
0.0,0.0,0.0,0.0
79.728,3.466,0.902,4.0
73.617,3.222,0.429,10.0
0.0,0.0,0.0,0.0
173.825,7.749,4.884,21.0
0.0,0.0,0.0,0.0
0.0,0.0,0.0,0.0
82.403,3.75,0.95,5.0
73.584,3.372,0.445,10.0
0.0,0.0,0.0,0.0
174.221,8.121,4.931,17.0
0.0,0.0,0.0,0.0
0.0,0.0,0.0,0.0
82.011,3.898,0.96,8.0
59.101,2.827,0.367,2.0
0.0,0.0,0.0,0.0
156.202,7.597,4.446,10.0
0.0,0.0,0.0,0.0
0.0,0.0,0.0,0.0
81.923,4.06,0.971,11.0
73.593,3.669,0.467,13.0
0.0,0.0,0.0,0.0
156.64,7.937,4.479,18.0
167.068,8.514,3.856,13.0
105.755,5.421,1.858,39.0
105.791,5.455,1.265,21.0
73.586,3.817,0.475,16.0
46.164,2.408,0.043,21.0
162.501,8.561,4.661,6.0
162.524,8.611,3.765,17.0
105.742,5.635,1.866,25.0
81.843,4.385,0.984,7.0
73.523,3.962,0.478,17.0
0.0,0.0,0.0,0.0
157.204,8.599,4.517,8.0
163.192,8.974,3.787,23.0
105.862,5.853,1.871,16.0
81.771,4.544,0.986,5.0
73.528,4.109,0.48,16.0
0.0,0.0,0.0,0.0
163.343,9.261,4.695,16.0
163.354,9.307,3.792,4.0
0.0,0.0,0.0,0.0
96.379,5.548,1.161,7.0
73.574,4.256,0.479,15.0
46.031,2.676,0.045,21.0
162.101,9.51,4.654,10.0
164.05,9.67,3.802,8.0
140.231,8.307,2.474,17.0
81.816,4.87,0.981,5.0
73.562,4.399,0.475,13.0
45.613,2.741,0.042,4.0
33.423,2.026,0.957,0.0
33.441,2.037,0.772,3.0
33.456,2.047,0.587,20.0
33.453,2.056,0.398,163.0
33.464,2.067,0.213,154.0
33.422,2.073,0.027,2.0
33.432,2.092,0.954,0.0
158.115,9.94,3.635,15.0
139.615,8.815,2.435,84.0
81.29,5.156,0.958,7.0
73.522,4.683,0.458,8.0
42.589,2.724,0.029,17.0
158.138,10.205,4.492,40.0
114.684,7.431,2.62,58.0
139.578,9.081,2.413,37.0
84.988,5.553,0.988,4.0
58.181,3.818,0.353,16.0
42.702,2.815,0.022,17.0
158.079,10.504,4.462,37.0
114.521,7.64,2.595,49.0
114.672,7.682,1.961,8.0
80.714,5.429,0.923,5.0
58.025,3.919,0.34,31.0
42.182,2.86,0.013,17.0
28.054,1.917,0.785,1.0
114.474,7.856,2.568,55.0
114.647,7.898,1.934,20.0
78.075,5.4,0.874,6.0
57.481,3.991,0.323,31.0
41.942,2.923,0.002,28.0
27.988,1.966,0.777,7.0
28.044,1.977,0.622,12.0
114.665,8.115,1.904,8.0
80.514,5.719,0.88,7.0
55.814,3.979,0.299,10.0
41.765,2.989,-0.009,33.0
27.917,2.013,0.767,29.0
28.054,2.03,0.614,6.0
28.005,2.033,0.456,50.0
28.004,2.04,0.297,42.0
55.127,4.032,0.278,24.0
41.588,3.052,-0.022,42.0
27.857,2.059,0.756,167.0
27.869,2.067,0.601,28.0
27.892,2.076,0.445,51.0
27.885,2.083,0.286,35.0
54.857,4.112,0.258,28.0
41.493,3.121,-0.036,43.0
27.827,2.108,0.745,177.0
27.833,2.115,0.59,47.0
27.861,2.124,0.435,48.0
27.877,2.132,0.276,45.0
27.891,2.141,0.12,29.0
27.836,2.144,-0.035,13.0
27.812,2.157,0.734,173.0
27.839,2.166,0.579,64.0
27.833,2.172,0.423,59.0
27.839,2.179,0.264,48.0
27.868,2.189,0.108,33.0
27.787,2.19,-0.047,16.0
27.821,2.207,0.722,166.0
27.834,2.215,0.567,58.0
27.823,2.22,0.411,61.0
27.821,2.227,0.252,60.0
27.866,2.237,0.096,31.0
27.785,2.238,-0.059,16.0
27.876,2.26,0.711,158.0
27.826,2.263,0.554,53.0
27.828,2.269,0.397,56.0
27.826,2.276,0.238,48.0
27.905,2.289,0.083,14.0
27.831,2.29,-0.073,9.0
27.881,2.308,0.697,151.0
27.837,2.311,0.54,32.0
27.847,2.318,0.384,46.0
27.846,2.325,0.224,48.0
27.98,2.343,0.069,19.0
28.06,2.356,-0.088,13.0
27.85,2.353,0.682,38.0
27.858,2.36,0.526,36.0
27.861,2.367,0.369,50.0
27.853,2.372,0.209,36.0
28.066,2.397,0.053,5.0
28.127,2.409,-0.104,12.0
27.867,2.401,0.667,35.0
27.899,2.41,0.511,48.0
27.896,2.416,0.354,50.0
27.907,2.423,0.194,30.0
46.264,4.028,0.061,15.0
36.066,3.148,-0.154,40.0
27.902,2.45,0.651,32.0
27.951,2.46,0.495,45.0
27.942,2.466,0.337,28.0
0.0,0.0,0.0,0.0
41.768,3.704,0.03,16.0
35.603,3.166,-0.174,28.0
28.084,2.512,0.638,6.0
28.021,2.512,0.479,4.0
75.04,6.744,0.859,5.0
0.0,0.0,0.0,0.0
13.878,1.253,0.001,6.0
13.881,1.256,-0.077,14.0
13.876,1.263,0.306,5.0
13.87,1.265,0.228,5.0
13.863,1.267,0.149,9.0
13.865,1.271,0.069,13.0
13.854,1.272,-0.008,22.0
13.849,1.275,-0.086,24.0
13.846,1.282,0.296,23.0
13.845,1.284,0.218,21.0
13.841,1.287,0.139,27.0
13.834,1.289,0.06,30.0
13.851,1.294,-0.017,32.0
13.827,1.294,-0.095,30.0
13.827,1.301,0.286,33.0
13.828,1.304,0.207,34.0
13.821,1.306,0.129,38.0
13.82,1.309,0.05,36.0
13.817,1.311,-0.027,35.0
13.809,1.314,-0.105,31.0
13.813,1.32,0.275,37.0
13.814,1.323,0.197,39.0
13.806,1.325,0.119,99.0
13.803,1.327,0.039,38.0
13.802,1.33,-0.038,38.0
13.796,1.332,-0.116,34.0
13.796,1.339,0.264,40.0
13.799,1.342,0.186,98.0
13.801,1.345,0.108,139.0
13.786,1.346,0.028,50.0
13.795,1.349,-0.049,53.0
13.783,1.351,-0.127,36.0
13.786,1.358,0.253,52.0
13.781,1.36,0.175,143.0
13.788,1.363,0.097,139.0
13.786,1.365,0.017,84.0
13.786,1.368,-0.06,48.0
13.781,1.37,-0.138,34.0
13.771,1.375,0.241,41.0
13.777,1.379,0.163,144.0
13.786,1.382,0.085,150.0
13.781,1.384,0.006,80.0
13.77,1.385,-0.071,37.0
13.771,1.388,-0.15,35.0
13.77,1.394,0.23,57.0
13.778,1.397,0.152,103.0
13.78,1.4,0.073,150.0
13.771,1.401,-0.005,64.0
13.769,1.404,-0.083,38.0
13.764,1.406,-0.161,35.0
13.769,1.412,0.218,61.0
13.778,1.416,0.139,119.0
13.789,1.419,0.061,146.0
13.776,1.42,-0.017,48.0
13.768,1.422,-0.096,41.0
13.761,1.423,-0.174,36.0
13.775,1.431,0.205,40.0
13.783,1.434,0.127,142.0
13.781,1.436,0.049,104.0
13.772,1.437,-0.03,40.0
13.766,1.439,-0.108,37.0
13.776,1.442,-0.187,37.0
13.78,1.449,0.193,38.0
13.793,1.452,0.114,141.0
13.788,1.454,0.036,89.0
13.77,1.454,-0.043,37.0
13.77,1.456,-0.121,35.0
13.784,1.46,-0.2,36.0
13.79,1.466,0.18,38.0
13.799,1.469,0.101,76.0
13.781,1.47,0.023,61.0
13.779,1.471,-0.056,34.0
13.78,1.474,-0.134,34.0
13.78,1.476,-0.213,33.0
13.799,1.483,0.167,37.0
13.793,1.485,0.088,36.0
13.796,1.487,0.009,38.0
13.778,1.487,-0.069,27.0
13.78,1.49,-0.148,31.0
13.785,1.492,-0.226,30.0
13.805,1.5,0.153,34.0
13.808,1.502,0.075,31.0
13.81,1.504,-0.003,31.0
13.801,1.505,-0.083,23.0
13.797,1.507,-0.162,24.0
13.803,1.509,-0.24,26.0
13.816,1.516,0.14,26.0
13.806,1.516,0.061,18.0
13.812,1.519,-0.017,22.0
13.813,1.521,-0.097,19.0
13.808,1.523,-0.176,17.0
13.803,1.524,-0.255,20.0
13.834,1.532,0.126,13.0
13.856,1.536,0.047,13.0
13.844,1.537,-0.031,15.0
13.857,1.54,-0.112,13.0
13.846,1.541,-0.191,13.0
13.819,1.54,-0.269,17.0
13.842,1.547,0.111,3.0
13.848,1.549,0.032,5.0
36.861,4.129,-0.122,7.0
34.421,3.86,-0.314,9.0
13.84,1.554,-0.205,7.0
13.839,1.556,-0.284,16.0
33.607,3.789,0.236,4.0
40.678,4.59,0.054,35.0
36.307,4.102,-0.158,31.0
34.47,3.899,-0.351,2.0
23.164,2.623,-0.368,3.0
13.833,1.568,-0.299,8.0
33.913,3.854,0.202,119.0
40.024,4.554,0.01,15.0
35.341,4.025,-0.192,15.0
30.777,3.509,-0.346,1.0
22.397,2.556,-0.38,4.0
19.848,2.268,-0.45,1.0
33.921,3.885,0.165,65.0
33.884,3.885,-0.028,31.0
34.656,3.977,-0.226,11.0
9.998,1.148,-0.123,4.0
21.852,2.513,-0.394,2.0
19.427,2.236,-0.462,0.0
10.018,1.156,0.037,15.0
33.823,3.906,-0.065,4.0
34.435,3.98,-0.263,5.0
9.999,1.156,-0.134,12.0
10.002,1.158,-0.191,12.0
10.002,1.159,-0.249,13.0
10.015,1.163,0.026,20.0
10.015,1.164,-0.03,24.0
10.009,1.164,-0.087,20.0
10.005,1.165,-0.145,18.0
10.005,1.166,-0.203,18.0
10.01,1.168,-0.26,17.0
10.013,1.17,0.015,71.0
10.004,1.17,-0.041,98.0
10.005,1.171,-0.098,92.0
10.001,1.172,-0.157,46.0
10.004,1.173,-0.214,48.0
10.005,1.174,-0.271,20.0
10.003,1.176,0.004,71.0
10.001,1.177,-0.053,130.0
9.999,1.177,-0.11,116.0
9.991,1.177,-0.168,69.0
10.003,1.18,-0.225,71.0
9.998,1.18,-0.282,28.0
9.994,1.182,-0.007,73.0
9.995,1.183,-0.064,136.0
9.996,1.184,-0.121,126.0
9.99,1.184,-0.179,82.0
9.999,1.186,-0.237,70.0
10.0,1.187,-0.294,21.0
9.985,1.187,-0.018,62.0
9.995,1.189,-0.075,136.0
9.991,1.189,-0.132,128.0
9.985,1.189,-0.191,72.0
9.991,1.191,-0.248,79.0
9.995,1.192,-0.305,23.0
9.981,1.192,-0.03,69.0
9.987,1.193,-0.087,135.0
9.98,1.193,-0.144,132.0
9.977,1.194,-0.202,70.0
9.992,1.196,-0.259,69.0
9.985,1.196,-0.317,43.0
9.98,1.197,-0.041,85.0
9.984,1.198,-0.098,131.0
9.983,1.199,-0.156,133.0
9.971,1.198,-0.213,84.0
9.988,1.201,-0.271,70.0
9.987,1.201,-0.328,41.0
9.974,1.201,-0.053,89.0
9.975,1.202,-0.11,150.0
9.977,1.202,-0.167,150.0
9.974,1.203,-0.225,85.0
9.98,1.204,-0.282,76.0
9.982,1.205,-0.34,44.0
9.973,1.205,-0.064,83.0
9.974,1.206,-0.121,150.0
9.975,1.207,-0.179,150.0
9.966,1.206,-0.237,101.0
9.976,1.208,-0.294,88.0
9.976,1.209,-0.351,44.0
9.971,1.209,-0.076,89.0
9.973,1.21,-0.133,150.0
9.977,1.21,-0.19,150.0
9.969,1.21,-0.248,99.0
9.97,1.211,-0.306,97.0
9.973,1.212,-0.363,49.0
9.973,1.212,-0.088,95.0
9.975,1.213,-0.145,150.0
9.974,1.213,-0.202,150.0
9.971,1.214,-0.26,103.0
9.979,1.215,-0.318,104.0
9.977,1.215,-0.375,53.0
9.973,1.215,-0.099,111.0
9.967,1.215,-0.156,150.0
9.973,1.216,-0.214,150.0
9.974,1.217,-0.272,106.0
9.972,1.217,-0.329,105.0
9.973,1.218,-0.386,51.0
9.975,1.218,-0.111,120.0
9.974,1.218,-0.168,150.0
9.971,1.218,-0.225,150.0
9.965,1.218,-0.284,102.0
9.974,1.219,-0.341,103.0
9.973,1.22,-0.398,47.0
9.973,1.22,-0.123,114.0
9.975,1.22,-0.18,150.0
9.973,1.22,-0.237,150.0
9.972,1.221,-0.295,102.0
9.974,1.221,-0.353,102.0
9.972,1.221,-0.41,47.0
9.973,1.221,-0.134,112.0
9.969,1.221,-0.192,150.0
9.975,1.222,-0.249,150.0
9.966,1.221,-0.307,101.0
9.975,1.223,-0.365,104.0
9.974,1.223,-0.422,53.0
9.973,1.222,-0.146,112.0
9.978,1.223,-0.203,150.0
9.974,1.223,-0.261,150.0
9.964,1.222,-0.319,100.0
9.972,1.223,-0.376,101.0
9.973,1.224,-0.434,52.0
9.968,1.222,-0.158,108.0
9.972,1.223,-0.215,150.0
9.97,1.223,-0.272,150.0
9.965,1.222,-0.33,103.0
9.972,1.224,-0.388,105.0
9.973,1.224,-0.445,52.0
9.968,1.223,-0.169,106.0
9.969,1.223,-0.227,150.0
9.974,1.223,-0.284,150.0
9.968,1.223,-0.342,97.0
9.978,1.224,-0.4,112.0
9.975,1.224,-0.457,53.0
9.973,1.223,-0.181,115.0
9.979,1.224,-0.238,150.0
9.973,1.223,-0.295,150.0
9.962,1.222,-0.353,104.0
9.971,1.223,-0.411,103.0
9.977,1.224,-0.468,45.0
9.968,1.221,-0.192,109.0
9.976,1.222,-0.25,150.0
9.97,1.222,-0.307,150.0
9.969,1.222,-0.365,101.0
9.977,1.223,-0.423,99.0
9.972,1.222,-0.48,37.0
9.973,1.221,-0.204,97.0
9.969,1.22,-0.261,150.0
9.971,1.22,-0.318,150.0
9.969,1.22,-0.376,99.0
9.973,1.221,-0.434,93.0
9.974,1.221,-0.491,21.0
9.971,1.219,-0.215,88.0
9.974,1.219,-0.272,150.0
9.971,1.219,-0.33,150.0
9.964,1.218,-0.388,99.0
9.976,1.219,-0.445,98.0
9.978,1.22,-0.503,52.0
9.971,1.217,-0.226,90.0
9.974,1.217,-0.284,150.0
9.979,1.217,-0.341,150.0
9.975,1.217,-0.399,102.0
9.979,1.217,-0.456,98.0
9.98,1.217,-0.514,52.0
