X,Y,Z,Reflectivity
12.703,1.0,-0.676,3.0
19.029,1.502,-0.491,3.0
17.076,1.35,-0.539,2.0
14.851,1.177,-0.554,2.0
13.584,1.079,-0.586,11.0
13.073,1.04,-0.639,9.0
12.447,0.992,-0.68,3.0
18.461,1.476,-0.503,3.0
16.616,1.331,-0.548,2.0
14.177,1.138,-0.548,12.0
13.478,1.084,-0.6,12.0
13.066,1.053,-0.657,10.0
12.252,0.989,-0.686,2.0
17.971,1.454,-0.515,2.0
16.187,1.312,-0.556,3.0
13.886,1.128,-0.557,13.0
13.295,1.082,-0.611,9.0
12.955,1.056,-0.67,5.0
11.938,0.975,-0.686,2.0
17.537,1.435,-0.527,4.0
0.0,0.0,0.0,0.0
13.736,1.128,-0.57,8.0
13.086,1.077,-0.62,7.0
12.647,1.042,-0.672,3.0
11.712,0.967,-0.69,2.0
17.026,1.409,-0.536,2.0
14.021,1.162,-0.522,9.0
13.568,1.126,-0.583,9.0
13.07,1.087,-0.638,9.0
12.425,1.035,-0.678,4.0
11.465,0.957,-0.691,2.0
16.644,1.391,-0.548,2.0
13.886,1.162,-0.537,12.0
13.412,1.124,-0.595,8.0
13.064,1.097,-0.656,11.0
12.214,1.027,-0.684,2.0
11.257,0.949,-0.695,2.0
16.247,1.371,-0.558,0.0
13.799,1.166,-0.553,12.0
13.26,1.122,-0.607,8.0
12.955,1.098,-0.669,4.0
11.909,1.011,-0.684,1.0
11.067,0.941,-0.699,2.0
13.906,1.184,-0.497,14.0
13.679,1.166,-0.568,9.0
13.09,1.118,-0.618,8.0
12.577,1.075,-0.668,3.0
11.672,1.0,-0.687,2.0
10.838,0.93,-0.7,2.0
13.847,1.189,-0.515,13.0
13.552,1.165,-0.582,10.0
13.081,1.126,-0.637,9.0
12.39,1.068,-0.676,3.0
11.449,0.989,-0.69,2.0
10.666,0.922,-0.705,1.0
13.805,1.195,-0.533,14.0
13.422,1.163,-0.596,9.0
13.066,1.134,-0.655,12.0
12.127,1.053,-0.679,1.0
11.212,0.975,-0.692,2.0
10.47,0.912,-0.707,1.0
13.762,1.2,-0.551,12.0
13.23,1.155,-0.606,8.0
12.925,1.129,-0.667,4.0
11.85,1.037,-0.681,2.0
11.011,0.965,-0.696,2.0
10.265,0.9,-0.708,2.0
13.628,1.196,-0.566,10.0
13.081,1.149,-0.618,8.0
12.579,1.106,-0.667,3.0
11.635,1.025,-0.685,1.0
10.829,0.955,-0.7,2.0
10.099,0.892,-0.711,2.0
13.512,1.193,-0.58,13.0
13.075,1.156,-0.637,10.0
12.38,1.095,-0.674,3.0
11.45,1.014,-0.691,1.0
10.621,0.942,-0.702,1.0
9.914,0.88,-0.712,2.0
13.392,1.189,-0.594,12.0
13.055,1.16,-0.654,9.0
12.088,1.075,-0.675,1.0
11.193,0.997,-0.691,2.0
10.444,0.931,-0.705,1.0
9.774,0.873,-0.716,1.0
13.247,1.182,-0.607,9.0
12.839,1.147,-0.662,4.0
11.833,1.058,-0.678,1.0
10.99,0.984,-0.694,2.0
10.258,0.919,-0.707,1.0
9.67,0.867,-0.723,2.0
13.087,1.173,-0.618,11.0
12.578,1.129,-0.667,4.0
11.604,1.042,-0.682,2.0
10.791,0.97,-0.697,2.0
10.075,0.907,-0.709,1.0
9.545,0.86,-0.727,1.0
13.073,1.177,-0.636,11.0
12.363,1.114,-0.673,3.0
11.401,1.028,-0.686,2.0
10.584,0.955,-0.699,1.0
9.895,0.894,-0.711,2.0
9.448,0.854,-0.733,1.0
13.051,1.179,-0.654,11.0
12.082,1.093,-0.675,2.0
11.197,1.013,-0.69,1.0
10.421,0.944,-0.703,1.0
9.764,0.885,-0.715,2.0
9.3,0.844,-0.735,1.0
12.796,1.16,-0.659,4.0
11.843,1.074,-0.678,2.0
10.981,0.997,-0.692,1.0
10.248,0.931,-0.706,1.0
9.663,0.878,-0.721,1.0
9.222,0.839,-0.742,0.0
12.563,1.142,-0.664,5.0
11.611,1.056,-0.681,2.0
10.794,0.982,-0.695,1.0
10.084,0.918,-0.709,1.0
9.55,0.87,-0.726,1.0
9.067,0.827,-0.742,0.0
12.366,1.126,-0.671,3.0
11.398,1.039,-0.684,2.0
10.588,0.965,-0.697,1.0
9.894,0.903,-0.709,2.0
9.433,0.861,-0.731,1.0
8.927,0.816,-0.743,0.0
12.125,1.106,-0.675,2.0
11.221,1.024,-0.689,1.0
10.42,0.951,-0.7,2.0
9.784,0.894,-0.715,2.0
9.303,0.85,-0.734,1.0
8.8,0.805,-0.745,1.0
11.851,1.082,-0.676,2.0
10.987,1.004,-0.69,1.0
10.264,0.938,-0.704,1.0
9.667,0.884,-0.72,1.0
9.223,0.844,-0.74,0.0
8.532,0.781,-0.734,1.0
11.64,1.064,-0.68,2.0
10.841,0.991,-0.696,1.0
10.109,0.925,-0.707,1.0
9.569,0.876,-0.725,1.0
9.105,0.834,-0.743,0.0
8.222,0.753,-0.718,2.0
11.423,1.044,-0.683,2.0
10.607,0.97,-0.695,1.0
9.925,0.908,-0.707,2.0
9.459,0.865,-0.73,1.0
8.962,0.82,-0.743,0.0
7.969,0.73,-0.707,3.0
11.247,1.028,-0.687,2.0
10.458,0.956,-0.699,1.0
9.82,0.898,-0.713,2.0
9.331,0.853,-0.732,1.0
8.836,0.808,-0.745,1.0
7.871,0.72,-0.709,4.0
11.054,1.009,-0.69,1.0
10.305,0.941,-0.702,1.0
9.694,0.886,-0.716,1.0
9.256,0.846,-0.738,0.0
8.686,0.794,-0.743,1.0
7.756,0.709,-0.708,4.0
10.871,0.992,-0.692,2.0
10.175,0.928,-0.706,1.0
9.606,0.876,-0.722,1.0
9.128,0.833,-0.74,0.0
8.346,0.762,-0.725,1.0
7.662,0.699,-0.71,4.0
10.723,0.977,-0.696,1.0
9.988,0.91,-0.706,1.0
9.51,0.866,-0.727,1.0
8.996,0.819,-0.741,0.0
8.067,0.735,-0.711,2.0
7.556,0.689,-0.71,4.0
10.535,0.957,-0.697,1.0
9.856,0.896,-0.709,2.0
9.404,0.855,-0.731,1.0
8.877,0.807,-0.742,1.0
7.905,0.719,-0.707,3.0
7.499,0.682,-0.714,4.0
10.39,0.942,-0.701,2.0
9.734,0.882,-0.713,2.0
9.29,0.842,-0.734,0.0
8.779,0.796,-0.745,1.0
7.81,0.708,-0.708,4.0
7.474,0.677,-0.721,5.0
10.256,0.927,-0.704,1.0
9.666,0.873,-0.719,2.0
9.223,0.833,-0.739,0.0
8.635,0.78,-0.743,1.0
7.712,0.697,-0.708,4.0
7.453,0.673,-0.727,5.0
10.116,0.911,-0.706,2.0
9.58,0.863,-0.724,1.0
9.094,0.819,-0.74,0.0
8.306,0.748,-0.724,1.0
7.621,0.686,-0.709,4.0
7.433,0.669,-0.734,4.0
9.945,0.892,-0.706,2.0
9.489,0.851,-0.728,1.0
8.954,0.803,-0.739,1.0
8.043,0.721,-0.711,2.0
7.55,0.677,-0.711,4.0
7.398,0.663,-0.739,4.0
9.836,0.878,-0.71,2.0
9.397,0.839,-0.732,0.0
8.86,0.791,-0.741,1.0
7.912,0.706,-0.708,3.0
7.501,0.669,-0.715,4.0
7.356,0.656,-0.744,3.0
9.723,0.864,-0.712,2.0
9.299,0.826,-0.735,0.0
8.78,0.78,-0.744,1.0
7.834,0.696,-0.71,4.0
7.467,0.663,-0.72,4.0
7.29,0.647,-0.745,3.0
9.67,0.855,-0.719,2.0
9.188,0.812,-0.736,0.0
8.67,0.766,-0.744,1.0
7.722,0.682,-0.708,4.0
7.456,0.658,-0.727,4.0
7.209,0.636,-0.745,3.0
9.598,0.844,-0.724,1.0
9.104,0.8,-0.739,1.0
8.542,0.75,-0.743,1.0
7.646,0.671,-0.709,4.0
7.458,0.654,-0.735,4.0
7.151,0.627,-0.746,3.0
9.542,0.834,-0.73,1.0
8.996,0.785,-0.74,1.0
8.255,0.72,-0.726,1.0
7.591,0.662,-0.712,4.0
7.435,0.648,-0.741,3.0
7.142,0.622,-0.753,3.0
9.442,0.819,-0.732,0.0
8.906,0.772,-0.741,1.0
8.018,0.695,-0.713,2.0
7.546,0.654,-0.716,4.0
7.414,0.642,-0.746,3.0
7.094,0.614,-0.755,2.0
9.331,0.804,-0.732,1.0
8.84,0.761,-0.745,1.0
7.923,0.682,-0.713,3.0
7.513,0.646,-0.72,4.0
7.375,0.634,-0.749,3.0
7.029,0.604,-0.755,2.0
9.249,0.791,-0.735,1.0
8.78,0.75,-0.748,1.0
7.848,0.67,-0.714,4.0
7.496,0.64,-0.725,4.0
7.335,0.625,-0.752,3.0
6.97,0.594,-0.755,2.0
9.174,0.778,-0.737,1.0
8.699,0.737,-0.749,1.0
7.765,0.658,-0.713,4.0
7.517,0.636,-0.734,4.0
7.3,0.617,-0.755,3.0
6.951,0.587,-0.759,3.0
9.094,0.765,-0.739,1.0
8.627,0.725,-0.75,0.0
7.701,0.646,-0.714,4.0
7.543,0.633,-0.743,3.0
7.311,0.613,-0.763,3.0
6.937,0.581,-0.764,3.0
9.009,0.751,-0.74,1.0
8.495,0.707,-0.746,1.0
7.68,0.639,-0.719,4.0
7.532,0.626,-0.749,3.0
7.296,0.606,-0.767,2.0
6.94,0.576,-0.77,2.0
8.949,0.739,-0.742,1.0
8.234,0.679,-0.73,2.0
7.686,0.633,-0.726,4.0
7.523,0.619,-0.754,3.0
7.258,0.597,-0.769,1.0
6.913,0.568,-0.773,1.0
8.908,0.728,-0.746,1.0
8.064,0.658,-0.721,3.0
7.692,0.627,-0.732,4.0
7.477,0.609,-0.755,3.0
7.226,0.588,-0.772,1.0
6.882,0.56,-0.775,1.0
8.846,0.715,-0.747,1.0
7.99,0.645,-0.721,4.0
7.721,0.623,-0.741,4.0
7.434,0.599,-0.757,3.0
7.158,0.576,-0.77,0.0
6.837,0.55,-0.774,0.0
8.801,0.704,-0.75,1.0
7.949,0.635,-0.723,4.0
7.727,0.617,-0.747,4.0
7.415,0.591,-0.76,3.0
7.131,0.568,-0.772,0.0
6.81,0.541,-0.776,1.0
8.753,0.692,-0.752,1.0
7.942,0.627,-0.727,4.0
7.719,0.609,-0.751,4.0
7.408,0.584,-0.764,2.0
7.089,0.558,-0.772,0.0
6.777,0.533,-0.777,0.0
8.643,0.675,-0.748,1.0
7.925,0.618,-0.731,4.0
7.715,0.601,-0.756,3.0
7.394,0.575,-0.767,2.0
7.061,0.549,-0.773,0.0
6.766,0.525,-0.78,0.0
8.638,0.667,-0.753,2.0
7.939,0.612,-0.737,5.0
7.709,0.593,-0.76,3.0
7.354,0.565,-0.768,2.0
7.014,0.538,-0.772,0.0
6.774,0.519,-0.785,0.0
8.531,0.65,-0.748,2.0
7.947,0.605,-0.742,5.0
7.704,0.585,-0.764,2.0
7.332,0.556,-0.769,1.0
7.012,0.531,-0.776,0.0
6.802,0.514,-0.792,1.0
8.55,0.643,-0.754,2.0
7.942,0.596,-0.746,4.0
7.673,0.575,-0.764,1.0
7.306,0.547,-0.77,1.0
6.999,0.523,-0.778,1.0
6.852,0.511,-0.801,0.0
8.415,0.624,-0.747,3.0
7.953,0.589,-0.751,4.0
7.65,0.565,-0.766,1.0
7.292,0.538,-0.772,1.0
7.016,0.517,-0.783,1.0
6.92,0.509,-0.812,0.0
8.466,0.619,-0.755,4.0
7.969,0.581,-0.756,4.0
7.638,0.556,-0.768,1.0
7.267,0.528,-0.773,1.0
7.034,0.51,-0.788,1.0
7.014,0.508,-0.826,1.0
8.421,0.606,-0.754,5.0
7.963,0.572,-0.759,3.0
7.612,0.546,-0.768,1.0
7.249,0.519,-0.774,1.0
7.092,0.507,-0.797,1.0
7.098,0.506,-0.839,1.0
8.423,0.597,-0.758,5.0
7.968,0.564,-0.762,2.0
7.607,0.537,-0.771,1.0
7.267,0.512,-0.778,1.0
7.147,0.503,-0.806,1.0
7.184,0.504,-0.851,0.0
8.418,0.587,-0.76,5.0
7.972,0.555,-0.765,2.0
7.573,0.526,-0.77,1.0
7.298,0.506,-0.784,1.0
7.275,0.503,-0.823,1.0
7.26,0.501,-0.863,0.0
8.413,0.577,-0.762,4.0
7.971,0.546,-0.767,1.0
7.574,0.517,-0.772,1.0
7.359,0.502,-0.792,1.0
7.362,0.501,-0.835,1.0
7.365,0.5,-0.877,0.0
8.391,0.566,-0.762,3.0
7.953,0.535,-0.767,1.0
7.583,0.509,-0.774,1.0
7.449,0.499,-0.804,1.0
7.459,0.499,-0.847,1.0
7.47,0.498,-0.891,0.0
8.382,0.556,-0.763,1.0
7.944,0.525,-0.768,1.0
7.607,0.502,-0.778,1.0
7.538,0.496,-0.815,1.0
7.56,0.496,-0.86,1.0
7.586,0.497,-0.906,0.0
8.382,0.545,-0.764,1.0
7.931,0.515,-0.768,1.0
7.667,0.496,-0.786,1.0
7.647,0.494,-0.828,1.0
7.665,0.494,-0.873,0.0
7.687,0.494,-0.919,0.0
8.374,0.535,-0.765,1.0
7.946,0.506,-0.77,1.0
7.751,0.492,-0.795,1.0
7.766,0.492,-0.841,1.0
7.77,0.491,-0.886,0.0
7.8,0.492,-0.933,0.0
8.375,0.524,-0.765,1.0
7.974,0.498,-0.773,1.0
7.865,0.49,-0.807,1.0
7.881,0.49,-0.854,0.0
7.898,0.489,-0.901,0.0
7.86,0.486,-0.941,0.0
8.374,0.514,-0.765,1.0
8.022,0.491,-0.778,1.0
7.974,0.487,-0.818,1.0
8.009,0.487,-0.868,0.0
8.019,0.487,-0.914,0.0
7.955,0.482,-0.952,0.0
8.388,0.504,-0.767,1.0
8.098,0.485,-0.785,1.0
8.099,0.484,-0.831,1.0
8.102,0.483,-0.878,0.0
8.112,0.482,-0.925,0.0
8.067,0.478,-0.965,0.0
8.407,0.495,-0.768,2.0
8.218,0.482,-0.797,1.0
8.256,0.483,-0.847,1.0
8.229,0.48,-0.891,0.0
8.24,0.479,-0.939,0.0
8.227,0.477,-0.984,0.0
8.453,0.487,-0.771,2.0
8.379,0.481,-0.811,2.0
8.396,0.48,-0.86,1.0
8.376,0.478,-0.906,0.0
8.365,0.476,-0.952,0.0
8.344,0.473,-0.996,0.0
8.526,0.48,-0.776,2.0
8.491,0.476,-0.821,2.0
8.495,0.475,-0.869,0.0
8.557,0.477,-0.924,0.0
8.511,0.473,-0.967,0.0
8.337,0.462,-0.994,0.0
8.631,0.475,-0.784,3.0
8.599,0.471,-0.829,2.0
8.63,0.471,-0.881,0.0
8.638,0.47,-0.931,0.0
8.637,0.469,-0.979,0.0
8.245,0.446,-0.981,0.0
8.747,0.47,-0.793,3.0
8.773,0.469,-0.844,1.0
8.82,0.47,-0.898,0.0
8.816,0.468,-0.948,0.0
8.705,0.461,-0.984,0.0
7.832,0.413,-0.93,0.0
8.912,0.467,-0.805,2.0
8.932,0.466,-0.857,1.0
8.978,0.467,-0.911,0.0
8.926,0.463,-0.957,0.0
8.651,0.447,-0.976,0.0
7.827,0.403,-0.927,0.0
9.083,0.464,-0.818,2.0
9.092,0.463,-0.869,0.0
9.075,0.46,-0.918,0.0
8.966,0.453,-0.958,0.0
8.336,0.42,-0.937,0.0
7.885,0.395,-0.931,0.0
9.231,0.459,-0.828,2.0
9.304,0.461,-0.886,0.0
9.216,0.455,-0.929,0.0
8.9,0.438,-0.947,0.0
8.187,0.401,-0.917,0.0
7.894,0.385,-0.928,0.0
9.409,0.456,-0.84,1.0
9.441,0.456,-0.895,0.0
9.389,0.451,-0.942,0.0
8.846,0.423,-0.938,0.0
8.247,0.393,-0.92,0.0
7.902,0.375,-0.926,0.0
9.584,0.452,-0.851,0.0
9.605,0.451,-0.906,0.0
9.539,0.446,-0.953,0.0
8.643,0.402,-0.912,0.0
8.247,0.382,-0.916,0.0
7.904,0.365,-0.922,0.0
9.811,0.45,-0.866,0.0
9.782,0.446,-0.918,0.0
9.641,0.438,-0.958,0.0
8.655,0.391,-0.909,0.0
8.283,0.373,-0.916,0.0
7.972,0.357,-0.926,0.0
10.042,0.447,-0.881,0.0
9.947,0.441,-0.928,0.0
9.747,0.43,-0.963,0.0
8.686,0.381,-0.907,0.0
8.307,0.363,-0.913,0.0
7.986,0.347,-0.922,0.0
10.183,0.44,-0.887,2.0
10.16,0.437,-0.941,0.0
9.407,0.402,-0.924,0.0
8.725,0.371,-0.906,0.0
8.348,0.353,-0.913,0.0
8.012,0.338,-0.92,0.0
10.221,0.428,-0.884,6.0
10.332,0.43,-0.951,0.0
9.211,0.382,-0.898,0.0
8.783,0.362,-0.906,0.0
8.414,0.345,-0.914,0.0
8.082,0.33,-0.923,0.0
10.239,0.415,-0.879,6.0
10.414,0.42,-0.951,0.0
9.326,0.374,-0.903,0.0
8.814,0.352,-0.903,0.0
8.431,0.335,-0.91,0.0
8.121,0.321,-0.921,0.0
10.303,0.404,-0.877,2.0
10.206,0.398,-0.924,0.0
9.343,0.363,-0.898,1.0
8.872,0.342,-0.902,0.0
8.475,0.325,-0.908,0.0
8.138,0.311,-0.917,0.0
10.525,0.399,-0.888,0.0
9.863,0.372,-0.886,0.0
9.345,0.35,-0.89,3.0
8.971,0.335,-0.905,0.0
8.554,0.317,-0.91,0.0
8.161,0.301,-0.913,0.0
10.669,0.391,-0.891,0.0
9.923,0.361,-0.883,0.0
9.348,0.338,-0.883,1.0
8.985,0.323,-0.899,0.0
8.611,0.308,-0.909,0.0
8.217,0.292,-0.912,0.0
11.125,0.393,-0.92,0.0
9.987,0.351,-0.88,0.0
9.43,0.329,-0.883,0.0
9.06,0.314,-0.898,0.0
8.638,0.298,-0.904,0.0
8.273,0.284,-0.911,0.0
10.679,0.364,-0.873,0.0
10.069,0.341,-0.878,0.0
9.555,0.321,-0.885,0.0
9.127,0.305,-0.897,0.0
8.753,0.291,-0.908,0.0
8.355,0.276,-0.912,0.0
10.148,0.331,-0.876,0.0
9.694,0.314,-0.889,0.0
9.156,0.294,-0.891,0.0
8.813,0.282,-0.905,0.0
8.439,0.268,-0.913,0.0
10.774,0.34,-0.86,0.0
10.221,0.32,-0.872,0.0
9.757,0.304,-0.885,0.0
9.221,0.285,-0.888,0.0
8.918,0.274,-0.907,0.0
8.479,0.258,-0.909,0.0
10.878,0.329,-0.858,0.0
10.349,0.311,-0.872,0.0
9.851,0.294,-0.883,0.0
9.379,0.278,-0.893,0.0
9.002,0.265,-0.906,0.0
8.57,0.25,-0.909,0.0
11.012,0.32,-0.857,0.0
10.403,0.3,-0.865,2.0
9.938,0.284,-0.88,0.0
9.455,0.269,-0.89,0.0
9.014,0.254,-0.897,1.0
8.587,0.24,-0.901,0.0
11.143,0.31,-0.854,0.0
10.424,0.288,-0.855,3.0
10.033,0.275,-0.878,0.0
9.547,0.259,-0.888,0.0
9.056,0.244,-0.891,0.0
8.744,0.234,-0.908,0.0
11.284,0.3,-0.852,0.0
10.553,0.278,-0.854,0.0
10.133,0.265,-0.874,0.0
9.671,0.251,-0.888,0.0
9.208,0.237,-0.895,0.0
8.813,0.225,-0.904,0.0
11.432,0.29,-0.85,0.0
10.814,0.272,-0.862,0.0
10.312,0.258,-0.877,1.0
9.766,0.242,-0.885,0.0
9.311,0.229,-0.894,0.0
8.912,0.217,-0.904,0.0
11.635,0.282,-0.851,0.0
10.934,0.262,-0.858,0.0
10.359,0.247,-0.869,4.0
9.869,0.233,-0.882,0.0
9.409,0.22,-0.891,0.0
8.989,0.208,-0.9,0.0
11.744,0.271,-0.844,0.0
11.087,0.253,-0.856,0.0
10.404,0.235,-0.859,5.0
9.994,0.224,-0.88,0.0
9.508,0.211,-0.888,0.0
9.07,0.2,-0.896,0.0
11.935,0.261,-0.842,0.0
11.227,0.243,-0.852,0.0
10.505,0.226,-0.853,2.0
10.119,0.215,-0.877,0.0
9.633,0.203,-0.887,0.0
9.166,0.191,-0.893,0.0
12.11,0.251,-0.838,0.0
11.409,0.235,-0.85,0.0
10.771,0.219,-0.86,0.0
10.238,0.206,-0.874,0.0
9.749,0.195,-0.884,0.0
9.288,0.184,-0.892,0.0
12.297,0.242,-0.834,0.0
11.58,0.225,-0.847,0.0
10.929,0.211,-0.858,0.0
10.385,0.198,-0.872,3.0
9.866,0.186,-0.881,0.0
9.411,0.176,-0.891,0.0
12.487,0.232,-0.829,0.0
11.79,0.217,-0.846,0.0
11.086,0.202,-0.854,0.0
10.45,0.188,-0.862,9.0
10.0,0.178,-0.878,0.0
9.529,0.168,-0.888,0.0
12.681,0.222,-0.824,1.0
11.966,0.207,-0.841,0.0
11.26,0.193,-0.851,0.0
10.468,0.177,-0.848,4.0
10.136,0.17,-0.875,0.0
9.67,0.16,-0.887,0.0
12.902,0.213,-0.819,1.0
12.143,0.198,-0.835,0.0
11.46,0.184,-0.849,0.0
10.789,0.172,-0.858,0.0
10.316,0.162,-0.875,1.0
9.778,0.152,-0.882,0.0
13.111,0.202,-0.812,1.0
12.34,0.188,-0.83,1.0
11.657,0.176,-0.846,0.0
10.984,0.164,-0.856,0.0
10.422,0.153,-0.868,3.0
9.933,0.144,-0.88,0.0
13.37,0.193,-0.808,1.0
12.577,0.18,-0.826,1.0
11.857,0.167,-0.842,1.0
11.145,0.155,-0.851,1.0
10.532,0.145,-0.861,1.0
10.083,0.137,-0.878,0.0
13.628,0.184,-0.802,1.0
12.795,0.17,-0.82,1.0
12.047,0.158,-0.836,1.0
11.35,0.147,-0.849,0.0
10.754,0.137,-0.861,1.0
10.273,0.129,-0.877,0.0
13.917,0.175,-0.796,1.0
13.027,0.161,-0.814,1.0
12.271,0.15,-0.832,1.0
11.572,0.139,-0.847,0.0
10.923,0.129,-0.857,1.0
10.451,0.122,-0.875,0.0
14.149,0.165,-0.786,1.0
13.287,0.152,-0.808,1.0
12.501,0.141,-0.827,1.0
11.778,0.131,-0.842,1.0
11.134,0.122,-0.855,1.0
10.58,0.114,-0.868,0.0
14.573,0.156,-0.785,1.0
13.574,0.143,-0.803,1.0
12.738,0.132,-0.82,1.0
11.98,0.123,-0.836,1.0
11.349,0.114,-0.852,0.0
10.753,0.107,-0.864,0.0
14.912,0.147,-0.778,1.0
13.899,0.135,-0.798,3.0
12.982,0.124,-0.814,1.0
12.232,0.115,-0.833,1.0
11.559,0.107,-0.848,0.0
10.931,0.099,-0.859,0.0
15.128,0.137,-0.763,2.0
14.128,0.126,-0.787,1.0
13.26,0.116,-0.808,1.0
12.485,0.107,-0.828,1.0
11.745,0.099,-0.841,1.0
11.11,0.092,-0.854,0.0
15.486,0.128,-0.754,0.0
14.537,0.118,-0.784,1.0
13.558,0.107,-0.802,1.0
12.717,0.099,-0.821,1.0
11.984,0.091,-0.836,1.0
11.338,0.085,-0.851,0.0
15.797,0.118,-0.741,1.0
14.908,0.109,-0.777,1.0
13.871,0.099,-0.796,1.0
12.992,0.091,-0.815,1.0
12.222,0.084,-0.831,0.0
11.571,0.078,-0.847,0.0
16.253,0.109,-0.733,0.0
15.137,0.1,-0.762,1.0
14.213,0.091,-0.79,1.0
13.279,0.083,-0.808,1.0
12.486,0.077,-0.826,1.0
11.789,0.071,-0.841,0.0
17.21,0.103,-0.745,6.0
15.762,0.092,-0.764,9.0
14.609,0.084,-0.784,1.0
13.574,0.076,-0.801,1.0
12.748,0.07,-0.819,1.0
12.011,0.064,-0.835,0.0
17.29,0.092,-0.716,33.0
15.803,0.082,-0.737,19.0
14.949,0.076,-0.775,2.0
13.913,0.068,-0.795,1.0
13.046,0.063,-0.814,1.0
12.29,0.057,-0.831,0.0
17.548,0.082,-0.694,3.0
16.807,0.076,-0.752,0.0
15.241,0.067,-0.761,1.0
14.257,0.061,-0.788,1.0
13.392,0.056,-0.81,1.0
12.541,0.051,-0.824,1.0
18.651,0.076,-0.702,2.0
17.252,0.068,-0.739,4.0
15.742,0.06,-0.756,6.0
14.681,0.054,-0.783,1.0
13.713,0.049,-0.803,1.0
12.823,0.044,-0.818,1.0
19.016,0.066,-0.679,3.0
17.6,0.059,-0.72,1.0
15.895,0.051,-0.733,0.0
15.007,0.047,-0.771,2.0
14.051,0.042,-0.795,1.0
13.137,0.038,-0.812,0.0
19.935,0.058,-0.673,2.0
18.206,0.051,-0.709,1.0
16.821,0.045,-0.742,0.0
15.41,0.04,-0.762,1.0
14.388,0.036,-0.786,1.0
13.459,0.032,-0.805,1.0
20.756,0.05,-0.66,2.0
18.809,0.043,-0.696,3.0
17.321,0.038,-0.73,1.0
15.852,0.033,-0.752,9.0
14.8,0.029,-0.779,1.0
13.803,0.026,-0.799,1.0
21.491,0.041,-0.641,2.0
19.314,0.035,-0.676,3.0
17.855,0.031,-0.717,1.0
15.872,0.026,-0.722,6.0
15.118,0.023,-0.766,1.0
14.152,0.02,-0.79,1.0
22.358,0.033,-0.622,3.0
20.214,0.028,-0.667,2.0
18.438,0.023,-0.704,2.0
17.041,0.02,-0.74,0.0
15.822,0.017,-0.769,4.0
14.566,0.015,-0.784,1.0
23.196,0.024,-0.598,3.0
21.07,0.02,-0.652,3.0
19.016,0.017,-0.687,2.0
17.543,0.014,-0.726,1.0
15.9,0.011,-0.741,14.0
14.983,0.009,-0.776,1.0
24.06,0.016,-0.572,2.0
21.917,0.013,-0.634,3.0
19.783,0.01,-0.674,2.0
18.106,0.008,-0.713,1.0
16.287,0.006,-0.725,0.0
15.385,0.004,-0.765,1.0
25.284,0.008,-0.549,1.0
22.831,0.005,-0.613,3.0
20.633,0.003,-0.661,2.0
18.723,0.002,-0.698,3.0
17.273,0.001,-0.733,1.0
15.873,0.0,-0.756,8.0
26.525,0.0,-0.52,2.0
23.669,-0.001,-0.586,2.0
21.508,-0.002,-0.644,3.0
19.329,-0.003,-0.68,3.0
17.825,-0.004,-0.72,1.0
16.036,-0.004,-0.73,0.0
27.582,-0.007,-0.484,1.0
24.657,-0.007,-0.56,2.0
22.399,-0.008,-0.624,3.0
20.217,-0.008,-0.67,2.0
18.453,-0.008,-0.707,2.0
17.03,-0.008,-0.74,0.0
29.058,-0.014,-0.45,2.0
25.93,-0.014,-0.535,1.0
23.245,-0.013,-0.6,2.0
21.038,-0.013,-0.653,3.0
19.044,-0.013,-0.689,3.0
17.566,-0.012,-0.726,1.0
30.168,-0.021,-0.404,2.0
27.071,-0.019,-0.501,2.0
24.173,-0.018,-0.572,2.0
21.972,-0.017,-0.635,3.0
19.896,-0.017,-0.678,3.0
18.158,-0.016,-0.712,1.0
32.13,-0.027,-0.362,1.0
28.437,-0.025,-0.467,1.0
25.46,-0.023,-0.549,1.0
22.875,-0.021,-0.613,3.0
20.689,-0.02,-0.662,2.0
18.773,-0.019,-0.697,3.0
34.32,-0.033,-0.314,1.0
29.706,-0.03,-0.425,2.0
26.651,-0.027,-0.519,2.0
23.778,-0.025,-0.587,2.0
21.576,-0.023,-0.644,3.0
19.484,-0.021,-0.682,3.0
38.633,-0.041,-0.272,5.0
31.313,-0.034,-0.381,1.0
27.892,-0.031,-0.484,1.0
24.853,-0.028,-0.561,1.0
22.564,-0.026,-0.626,3.0
20.386,-0.023,-0.67,2.0
39.55,-0.044,-0.195,24.0
33.419,-0.038,-0.336,1.0
29.321,-0.033,-0.446,2.0
26.202,-0.03,-0.536,1.0
23.403,-0.027,-0.599,2.0
21.224,-0.025,-0.652,2.0
0.0,0.0,0.0,0.0
38.431,-0.044,-0.304,2.0
30.469,-0.035,-0.398,1.0
27.241,-0.031,-0.499,1.0
24.329,-0.028,-0.571,2.0
22.147,-0.025,-0.633,2.0
46.029,-0.051,-0.03,21.0
39.247,-0.044,-0.227,15.0
32.723,-0.036,-0.358,1.0
28.754,-0.032,-0.465,1.0
25.735,-0.028,-0.549,1.0
23.079,-0.025,-0.611,3.0
0.0,0.0,0.0,0.0
40.527,-0.042,-0.148,17.0
37.525,-0.039,-0.33,1.0
29.906,-0.031,-0.419,2.0
26.861,-0.027,-0.514,2.0
24.007,-0.024,-0.584,2.0
61.586,-0.059,0.223,14.0
44.825,-0.042,-0.067,22.0
38.853,-0.036,-0.258,13.0
31.776,-0.029,-0.378,1.0
28.19,-0.025,-0.48,1.0
25.286,-0.022,-0.56,1.0
76.238,-0.063,0.439,18.0
48.296,-0.039,0.03,8.0
39.939,-0.031,-0.18,29.0
33.634,-0.025,-0.328,0.0
29.583,-0.021,-0.44,3.0
26.545,-0.018,-0.532,2.0
79.362,-0.052,0.626,86.0
56.011,-0.035,0.154,24.0
0.0,0.0,0.0,0.0
38.486,-0.021,-0.293,4.0
30.826,-0.016,-0.393,1.0
27.67,-0.013,-0.495,2.0
79.479,-0.035,0.797,151.0
76.078,-0.031,0.372,11.0
0.0,0.0,0.0,0.0
39.315,-0.013,-0.216,15.0
33.314,-0.009,-0.354,1.0
29.067,-0.007,-0.458,2.0
79.464,-0.016,0.967,152.0
79.2,-0.012,0.556,15.0
0.0,0.0,0.0,0.0
40.898,-0.002,-0.137,17.0
38.312,0.0,-0.325,3.0
30.313,0.001,-0.413,1.0
79.46,0.006,1.137,151.0
79.472,0.01,0.729,168.0
61.726,0.011,0.249,13.0
45.261,0.01,-0.055,21.0
38.927,0.011,-0.247,14.0
32.283,0.011,-0.371,1.0
79.451,0.032,1.306,157.0
79.459,0.036,0.897,166.0
76.295,0.039,0.469,18.0
52.265,0.03,0.046,9.0
40.069,0.025,-0.169,25.0
38.137,0.027,-0.357,0.0
79.448,0.06,1.475,155.0
79.462,0.065,1.066,156.0
79.441,0.071,0.657,150.0
0.0,0.0,0.0,0.0
38.168,0.039,-0.08,13.0
38.382,0.042,-0.279,7.0
79.453,0.092,1.643,151.0
79.456,0.097,1.233,165.0
79.47,0.103,0.824,151.0
75.926,0.104,0.389,12.0
47.628,0.069,0.0,21.0
39.269,0.06,-0.202,34.0
79.438,0.126,1.81,150.0
79.452,0.132,1.401,165.0
79.46,0.139,0.992,154.0
79.423,0.145,0.573,9.0
54.795,0.105,0.114,28.0
43.885,0.087,-0.134,4.0
79.448,0.164,1.978,150.0
79.458,0.17,1.567,151.0
79.463,0.177,1.157,157.0
79.455,0.184,0.74,150.0
59.165,0.142,0.246,6.0
0.0,0.0,0.0,0.0
79.445,0.203,2.142,150.0
79.437,0.211,1.732,150.0
79.452,0.218,1.322,170.0
79.462,0.226,0.904,151.0
76.524,0.225,0.475,39.0
54.119,0.164,0.057,28.0
79.446,0.246,2.307,150.0
79.444,0.255,1.898,150.0
79.452,0.262,1.486,151.0
79.464,0.271,1.069,151.0
79.449,0.279,0.659,138.0
59.197,0.214,0.185,6.0
79.444,0.292,2.471,150.0
79.447,0.301,2.061,150.0
79.447,0.309,1.651,150.0
79.457,0.318,1.231,151.0
79.433,0.327,0.821,25.0
59.352,0.251,0.307,47.0
59.277,0.254,1.966,89.0
59.285,0.261,1.659,102.0
59.294,0.268,1.353,111.0
59.286,0.275,1.04,107.0
59.298,0.282,0.734,114.0
59.307,0.289,0.428,102.0
48.204,0.238,1.697,66.0
48.198,0.244,1.448,42.0
48.225,0.25,1.199,29.0
48.22,0.256,0.944,21.0
59.292,0.322,0.854,20.0
59.312,0.329,0.548,10.0
48.158,0.271,1.793,80.0
48.146,0.277,1.543,80.0
48.157,0.283,1.293,92.0
48.155,0.289,1.039,78.0
48.153,0.295,0.79,62.0
48.174,0.302,0.541,50.0
48.145,0.306,1.889,98.0
48.123,0.312,1.639,90.0
48.127,0.318,1.388,103.0
48.109,0.324,1.134,97.0
48.117,0.331,0.885,89.0
48.105,0.337,0.635,73.0
48.132,0.341,1.983,113.0
48.12,0.348,1.733,102.0
48.124,0.354,1.483,115.0
48.093,0.361,1.228,103.0
48.097,0.368,0.979,107.0
48.094,0.375,0.73,105.0
48.157,0.38,2.08,127.0
48.115,0.386,1.828,106.0
48.107,0.393,1.578,107.0
48.097,0.4,1.323,114.0
48.103,0.407,1.074,110.0
48.102,0.414,0.823,106.0
48.159,0.419,2.174,98.0
48.127,0.426,1.922,106.0
48.133,0.433,1.672,103.0
48.105,0.44,1.416,103.0
48.113,0.448,1.166,104.0
48.114,0.455,0.916,105.0
48.215,0.46,2.269,64.0
48.173,0.467,2.016,78.0
48.155,0.475,1.765,99.0
48.145,0.482,1.509,81.0
48.138,0.49,1.258,88.0
48.131,0.497,1.008,99.0
59.395,0.619,2.908,96.0
55.057,0.583,2.409,59.0
55.036,0.591,2.12,6.0
48.194,0.526,1.601,53.0
48.175,0.533,1.349,59.0
48.171,0.541,1.098,67.0
55.073,0.624,2.8,61.0
55.021,0.632,2.509,92.0
55.008,0.641,2.222,110.0
54.996,0.65,1.929,127.0
55.0,0.66,1.642,111.0
55.033,0.669,1.356,74.0
55.033,0.675,2.9,95.0
55.012,0.685,2.611,124.0
54.991,0.693,2.322,85.0
55.011,0.703,2.03,117.0
55.018,0.713,1.742,115.0
55.072,0.723,1.457,55.0
54.974,0.728,2.997,100.0
55.005,0.738,2.711,129.0
54.992,0.747,2.422,109.0
55.037,0.758,2.131,108.0
55.048,0.768,1.843,74.0
55.124,0.778,1.558,1.0
54.966,0.783,3.096,113.0
54.984,0.793,2.809,119.0
55.0,0.803,2.522,104.0
55.062,0.814,2.23,75.0
132.962,1.991,4.69,17.0
162.371,2.461,4.878,15.0
54.967,0.84,3.194,94.0
54.965,0.85,2.905,109.0
55.013,0.861,2.619,105.0
55.094,0.871,2.328,8.0
132.272,2.118,4.895,8.0
132.955,2.153,4.224,28.0
62.889,1.027,3.763,27.0
54.908,0.907,2.997,77.0
55.055,0.919,2.716,66.0
130.329,2.201,5.732,26.0
59.305,1.012,2.296,3.0
132.812,2.293,4.445,28.0
62.414,1.086,3.842,84.0
54.8,0.964,3.085,50.0
55.166,0.981,2.815,51.0
129.461,2.329,5.914,20.0
130.635,2.375,5.279,13.0
128.079,2.354,4.504,11.0
62.349,1.155,3.945,96.0
54.702,1.024,3.173,37.0
55.249,1.045,2.913,53.0
128.339,2.453,6.078,10.0
127.948,2.472,5.386,13.0
127.979,2.498,4.715,30.0
62.279,1.225,4.045,105.0
62.78,1.247,3.745,20.0
55.297,1.109,3.007,26.0
129.471,2.623,6.345,16.0
127.809,2.616,5.589,23.0
127.994,2.646,4.923,39.0
62.257,1.296,4.145,88.0
54.434,1.144,3.335,33.0
54.736,1.162,3.065,28.0
125.736,2.696,6.365,9.0
127.638,2.763,5.787,22.0
152.571,3.335,6.114,15.0
53.891,1.187,3.675,22.0
54.45,1.21,3.424,14.0
54.59,1.224,3.144,28.0
55.392,1.254,2.892,16.0
127.174,2.906,5.966,16.0
130.431,3.008,5.431,15.0
53.698,1.248,3.747,71.0
0.0,0.0,0.0,0.0
54.442,1.288,3.221,81.0
55.424,1.323,2.98,31.0
122.632,2.955,5.945,27.0
130.297,3.166,5.627,13.0
62.151,1.521,4.433,30.0
53.947,1.332,3.56,71.0
54.377,1.354,3.3,106.0
55.423,1.392,3.064,29.0
122.384,3.1,6.118,30.0
130.185,3.325,5.816,18.0
61.653,1.587,4.49,13.0
0.0,0.0,0.0,0.0
54.332,1.421,3.378,99.0
122.261,3.224,6.939,22.0
122.971,3.27,6.327,35.0
122.772,3.293,5.667,23.0
63.736,1.722,4.735,16.0
55.793,1.519,3.848,67.0
54.254,1.489,3.453,68.0
122.342,3.384,7.121,22.0
123.034,3.43,6.506,25.0
122.715,3.448,5.838,22.0
61.455,1.74,4.654,21.0
73.894,2.108,5.201,38.0
54.254,1.559,3.529,62.0
124.097,3.594,7.397,36.0
123.307,3.598,6.693,17.0
122.902,3.614,6.017,46.0
61.404,1.819,4.736,13.0
73.829,2.203,5.299,27.0
73.802,2.218,4.902,20.0
124.186,3.761,7.574,18.0
73.951,2.256,4.114,11.0
123.102,3.783,6.194,20.0
55.819,1.728,4.382,105.0
73.798,2.301,5.398,18.0
55.197,1.733,3.741,88.0
54.265,1.716,3.382,6.0
74.101,2.361,4.222,38.0
125.037,4.011,6.457,23.0
55.834,1.804,4.456,58.0
73.795,2.401,5.494,27.0
55.172,1.807,3.812,23.0
54.256,1.79,3.452,44.0
73.793,2.451,4.3,33.0
125.469,4.195,6.64,8.0
71.913,2.423,5.834,30.0
65.292,2.214,4.944,16.0
73.768,2.518,5.19,5.0
54.24,1.863,3.519,83.0
73.645,2.547,4.383,19.0
73.787,2.568,3.996,40.0
71.852,2.519,5.918,35.0
62.107,2.191,4.78,31.0
65.265,2.317,4.672,10.0
54.207,1.937,3.583,81.0
73.415,2.64,4.458,17.0
73.637,2.665,4.076,36.0
62.177,2.267,5.196,95.0
55.396,2.031,4.33,52.0
54.294,2.004,3.951,48.0
54.19,2.012,3.646,82.0
64.814,2.421,4.012,34.0
73.361,2.757,4.146,33.0
64.599,2.446,5.474,20.0
54.396,2.071,4.315,42.0
53.907,2.065,3.985,58.0
65.344,2.519,4.471,14.0
73.351,2.845,4.624,30.0
65.098,2.539,3.753,20.0
53.319,2.094,4.578,6.0
53.565,2.116,4.309,60.0
65.313,2.596,4.901,11.0
73.554,2.94,5.114,34.0
73.283,2.947,4.7,14.0
73.506,2.972,4.318,12.0
53.3,2.17,4.635,41.0
53.695,2.199,4.378,39.0
65.463,2.696,4.983,31.0
73.525,3.045,5.191,31.0
73.409,3.057,4.786,20.0
65.222,2.732,3.899,8.0
54.51,2.299,4.798,5.0
54.435,2.308,4.495,28.0
71.405,3.045,5.509,20.0
73.628,3.156,5.274,7.0
73.374,3.162,4.858,25.0
73.275,3.175,4.455,25.0
54.48,2.377,4.851,83.0
64.615,2.835,5.401,36.0
64.412,2.84,5.033,39.0
65.298,2.893,4.741,8.0
73.444,3.272,4.934,9.0
73.213,3.278,4.521,22.0
65.005,2.931,5.85,14.0
64.52,2.925,5.454,29.0
64.58,2.942,5.108,21.0
65.199,2.985,4.795,9.0
73.664,3.389,5.017,15.0
73.636,3.405,4.615,6.0
54.545,2.54,4.959,23.0
64.991,3.041,5.554,40.0
73.96,3.478,5.917,19.0
64.737,3.059,4.819,7.0
73.609,3.495,5.079,34.0
128.011,6.108,8.136,8.0
54.945,2.64,5.044,31.0
64.965,3.137,5.609,15.0
64.852,3.145,5.245,15.0
64.651,3.15,4.868,12.0
73.591,3.603,5.14,41.0
127.596,6.276,8.218,12.0
64.26,3.183,5.953,23.0
64.786,3.223,5.647,20.0
64.8,3.239,5.294,15.0
124.001,6.226,9.44,22.0
73.753,3.72,5.211,22.0
132.164,6.697,8.617,4.0
0.0,0.0,0.0,0.0
64.743,3.318,5.694,17.0
64.489,3.319,5.318,28.0
124.603,6.441,9.581,27.0
76.134,3.953,5.438,7.0
132.466,6.908,8.737,10.0
0.0,0.0,0.0,0.0
64.416,3.397,5.714,35.0
64.757,3.43,5.388,24.0
78.274,4.163,6.076,6.0
71.653,3.827,5.169,9.0
124.595,6.684,8.306,27.0
41.382,2.235,3.928,22.0
64.173,3.48,5.738,32.0
64.861,3.532,5.442,10.0
64.881,3.547,5.08,3.0
71.693,3.935,5.22,48.0
124.773,6.878,8.402,12.0
41.45,2.301,3.962,21.0
64.428,3.59,5.803,24.0
64.569,3.612,5.46,8.0
78.417,4.403,6.19,18.0
71.493,4.031,5.251,47.0
71.901,4.069,4.886,27.0
41.453,2.363,3.988,27.0
64.52,3.691,5.851,13.0
64.724,3.717,5.512,18.0
75.593,4.357,6.013,16.0
71.869,4.159,5.321,29.0
124.838,7.251,8.557,36.0
41.471,2.425,4.014,66.0
63.813,3.745,5.823,24.0
64.497,3.8,5.529,16.0
75.301,4.452,6.031,14.0
71.575,4.247,5.338,22.0
124.984,7.444,8.634,17.0
41.43,2.485,4.032,61.0
63.817,3.841,5.857,29.0
64.409,3.89,5.555,33.0
64.512,3.91,5.201,36.0
78.627,4.783,5.904,45.0
67.072,4.094,4.666,33.0
63.719,3.916,6.234,31.0
41.381,2.552,3.818,33.0
64.201,3.973,5.567,29.0
64.533,4.007,5.232,38.0
78.573,4.895,5.936,40.0
67.304,4.207,4.713,23.0
63.288,3.984,6.22,28.0
70.151,4.43,6.504,28.0
64.769,4.104,5.645,36.0
64.866,4.123,5.287,33.0
67.07,4.277,5.095,42.0
67.211,4.301,4.733,37.0
63.274,4.076,6.244,16.0
70.378,4.548,6.553,24.0
64.641,4.19,5.659,32.0
65.179,4.238,5.337,23.0
0.0,0.0,0.0,0.0
67.281,4.402,4.763,22.0
70.706,4.658,7.003,38.0
70.31,4.647,6.572,17.0
64.846,4.298,5.699,21.0
65.027,4.323,5.347,41.0
65.818,4.39,5.046,40.0
67.471,4.514,4.798,28.0
71.079,4.787,7.062,49.0
70.55,4.766,6.616,35.0
65.045,4.407,5.737,36.0
65.171,4.429,5.377,32.0
65.91,4.492,5.072,40.0
67.145,4.59,4.794,43.0
64.869,4.464,6.463,41.0
70.709,4.88,6.649,47.0
0.0,0.0,0.0,0.0
65.333,4.534,5.408,41.0
65.376,4.551,5.047,40.0
67.157,4.688,4.811,37.0
67.569,4.748,6.748,14.0
70.958,4.999,6.688,43.0
63.894,4.514,5.665,31.0
63.896,4.527,5.302,39.0
65.217,4.633,5.048,34.0
67.333,4.797,4.837,32.0
38.849,2.786,3.887,28.0
71.259,5.124,6.73,27.0
63.911,4.608,5.678,27.0
63.613,4.598,5.289,34.0
65.091,4.718,5.048,39.0
67.442,4.902,4.854,26.0
38.794,2.838,3.887,66.0
71.422,5.238,6.755,12.0
63.953,4.702,5.69,17.0
63.509,4.681,5.288,32.0
64.49,4.766,5.009,25.0
67.483,5.0,4.865,15.0
67.694,5.048,6.79,11.0
64.051,4.787,6.064,39.0
64.22,4.811,5.719,39.0
63.618,4.778,5.302,37.0
64.529,4.858,5.017,33.0
67.931,5.127,4.902,32.0
38.658,2.936,3.879,32.0
64.107,4.88,6.073,38.0
63.988,4.883,5.701,36.0
63.516,4.857,5.296,38.0
65.336,5.009,5.081,39.0
67.868,5.216,4.898,39.0
38.588,2.984,3.873,43.0
38.583,2.99,3.655,21.0
64.319,4.996,5.731,41.0
64.642,5.033,5.389,40.0
66.322,5.176,5.157,37.0
67.829,5.305,4.894,19.0
38.598,3.038,3.873,19.0
38.691,3.052,3.664,30.0
64.064,5.064,5.705,39.0
63.731,5.048,5.31,39.0
66.232,5.258,5.146,19.0
74.659,5.941,5.382,10.0
64.678,5.179,6.485,11.0
64.533,5.177,6.106,20.0
64.351,5.173,5.726,39.0
63.424,5.11,5.279,23.0
66.029,5.331,5.124,23.0
67.784,5.484,4.88,17.0
38.63,3.145,3.869,31.0
65.268,5.324,6.167,41.0
64.048,5.234,5.69,39.0
65.925,5.398,5.478,21.0
66.989,5.496,5.189,42.0
67.818,5.575,4.872,12.0
64.535,5.338,6.454,15.0
64.708,5.363,6.104,13.0
64.141,5.325,5.688,39.0
66.63,5.543,5.525,37.0
66.386,5.533,5.13,41.0
75.981,6.345,5.444,12.0
47.932,4.027,4.784,12.0
64.739,5.448,6.094,15.0
47.584,4.011,4.21,21.0
66.577,5.622,5.507,31.0
66.192,5.6,5.101,41.0
65.553,5.556,4.682,17.0
47.765,4.073,4.756,19.0
47.565,4.062,4.466,9.0
47.566,4.069,4.196,36.0
66.401,5.69,5.476,42.0
66.488,5.709,5.106,41.0
65.551,5.638,4.665,19.0
47.802,4.135,4.747,10.0
47.556,4.12,4.452,21.0
47.506,4.123,4.177,55.0
66.224,5.757,5.442,31.0
66.502,5.791,5.088,41.0
65.546,5.718,4.644,15.0
47.655,4.181,4.717,52.0
47.402,4.165,4.422,18.0
47.552,4.185,4.166,48.0
70.994,6.258,5.809,12.0
66.392,5.862,5.057,41.0
65.557,5.798,4.623,17.0
47.937,4.264,4.727,9.0
47.603,4.24,4.423,30.0
47.586,4.245,4.151,23.0
70.954,6.339,5.78,15.0
66.347,5.937,5.028,41.0
65.559,5.876,4.597,17.0
62.023,5.59,6.092,18.0
47.527,4.29,4.397,34.0
47.732,4.314,4.144,15.0
66.504,6.02,5.39,21.0
65.9,5.974,4.967,29.0
65.582,5.954,4.571,16.0
61.989,5.659,6.061,11.0
47.727,4.363,4.394,17.0
47.676,4.363,4.118,14.0
66.336,6.08,5.346,16.0
66.116,6.068,4.953,34.0
13.841,1.272,0.958,8.0
47.607,4.399,4.633,10.0
13.881,1.284,1.271,9.0
13.85,1.283,1.189,11.0
13.814,1.281,1.106,6.0
13.811,1.282,1.027,8.0
13.825,1.285,0.95,19.0
13.874,1.297,1.343,17.0
13.846,1.296,1.261,15.0
13.833,1.296,1.181,14.0
13.799,1.295,1.098,17.0
13.822,1.298,1.021,25.0
13.819,1.3,0.942,25.0
13.843,1.309,1.332,25.0
13.818,1.308,1.251,19.0
13.803,1.308,1.171,18.0
13.799,1.309,1.09,30.0
13.813,1.312,1.013,31.0
13.809,1.313,0.934,30.0
13.829,1.322,1.323,30.0
13.805,1.321,1.241,32.0
13.779,1.32,1.16,27.0
13.791,1.322,1.081,29.0
13.8,1.325,1.003,27.0
13.788,1.325,0.924,34.0
13.825,1.335,1.314,37.0
13.806,1.335,1.233,39.0
13.782,1.334,1.152,38.0
13.793,1.336,1.073,32.0
13.787,1.337,0.994,30.0
13.784,1.338,0.915,35.0
13.812,1.348,1.303,40.0
13.794,1.347,1.223,122.0
13.769,1.346,1.142,126.0
13.773,1.347,1.062,37.0
13.766,1.348,0.983,33.0
13.776,1.35,0.905,34.0
13.806,1.36,1.294,40.0
13.788,1.359,1.213,150.0
13.766,1.358,1.132,143.0
13.762,1.359,1.052,49.0
13.761,1.36,0.973,35.0
13.766,1.362,0.895,35.0
13.782,1.37,1.281,35.0
13.78,1.371,1.202,150.0
13.762,1.37,1.122,149.0
13.761,1.371,1.041,38.0
13.752,1.372,0.962,36.0
13.761,1.374,0.884,37.0
13.772,1.381,1.27,29.0
13.777,1.383,1.191,116.0
13.753,1.381,1.111,150.0
13.742,1.381,1.029,30.0
13.757,1.384,0.952,39.0
13.757,1.385,0.873,38.0
13.768,1.392,1.259,32.0
13.775,1.394,1.18,95.0
13.752,1.393,1.099,150.0
13.749,1.393,1.019,31.0
13.759,1.395,0.941,75.0
13.758,1.397,0.862,37.0
13.781,1.405,1.249,38.0
13.775,1.405,1.169,83.0
13.744,1.403,1.087,150.0
13.75,1.404,1.008,32.0
13.753,1.406,0.929,75.0
13.749,1.406,0.851,37.0
13.784,1.416,1.237,48.0
13.766,1.415,1.157,76.0
13.742,1.413,1.076,150.0
13.738,1.414,0.995,32.0
13.749,1.416,0.917,67.0
13.757,1.417,0.839,50.0
13.783,1.426,1.225,41.0
13.754,1.423,1.143,123.0
13.744,1.423,1.064,150.0
13.744,1.424,0.983,40.0
13.753,1.426,0.905,68.0
13.757,1.427,0.827,58.0
13.78,1.435,1.212,87.0
13.755,1.433,1.131,51.0
13.749,1.433,1.051,101.0
13.753,1.434,0.972,100.0
13.756,1.436,0.893,88.0
13.76,1.437,0.814,66.0
13.78,1.444,1.2,41.0
13.748,1.441,1.118,58.0
13.751,1.442,1.039,117.0
13.756,1.444,0.959,125.0
13.76,1.445,0.88,88.0
13.756,1.445,0.801,48.0
13.777,1.453,1.186,38.0
13.749,1.45,1.105,140.0
13.757,1.451,1.026,142.0
13.754,1.452,0.945,121.0
13.76,1.453,0.867,92.0
13.761,1.454,0.788,51.0
13.762,1.459,1.171,25.0
13.754,1.458,1.091,138.0
13.763,1.46,1.013,150.0
13.755,1.459,0.932,117.0
13.754,1.46,0.853,113.0
13.762,1.461,0.774,39.0
13.741,1.464,1.156,19.0
13.75,1.465,1.077,123.0
13.764,1.467,0.999,150.0
13.751,1.466,0.918,104.0
13.756,1.467,0.839,116.0
13.761,1.468,0.76,39.0
13.749,1.472,1.142,28.0
13.761,1.473,1.064,126.0
13.762,1.474,0.985,150.0
13.75,1.473,0.903,114.0
13.76,1.474,0.825,92.0
13.766,1.475,0.746,38.0
13.753,1.479,1.128,40.0
13.764,1.48,1.049,115.0
13.762,1.48,0.97,140.0
13.753,1.479,0.889,86.0
13.762,1.481,0.81,89.0
13.775,1.482,0.732,37.0
13.753,1.484,1.113,44.0
13.767,1.486,1.035,150.0
13.765,1.486,0.955,147.0
13.748,1.484,0.874,36.0
13.766,1.486,0.796,98.0
13.773,1.487,0.717,35.0
13.759,1.49,1.098,57.0
13.777,1.492,1.02,150.0
13.752,1.489,0.939,150.0
13.732,1.488,0.857,30.0
13.771,1.492,0.781,69.0
13.773,1.492,0.702,35.0
13.761,1.495,1.083,58.0
13.769,1.496,1.004,147.0
13.755,1.494,0.924,150.0
13.745,1.493,0.843,36.0
13.771,1.496,0.765,60.0
13.785,1.498,0.687,35.0
13.766,1.499,1.068,72.0
13.77,1.5,0.988,114.0
13.749,1.497,0.908,150.0
13.753,1.498,0.827,64.0
13.779,1.501,0.75,39.0
13.776,1.501,0.671,33.0
13.767,1.503,1.052,69.0
13.768,1.503,0.972,62.0
13.747,1.5,0.892,150.0
13.757,1.501,0.812,72.0
13.782,1.504,0.734,36.0
13.79,1.505,0.655,33.0
13.772,1.506,1.036,73.0
13.766,1.505,0.956,60.0
13.743,1.503,0.875,39.0
13.758,1.504,0.796,60.0
13.782,1.507,0.718,34.0
13.793,1.508,0.639,31.0
13.775,1.509,1.02,65.0
13.76,1.507,0.939,144.0
13.743,1.505,0.859,37.0
13.762,1.507,0.78,54.0
13.79,1.509,0.702,34.0
13.788,1.509,0.623,29.0
13.778,1.511,1.004,42.0
13.757,1.508,0.923,149.0
13.751,1.507,0.843,94.0
13.771,1.509,0.764,39.0
13.79,1.511,0.685,33.0
13.791,1.511,0.606,29.0
13.772,1.511,0.987,39.0
13.754,1.509,0.906,150.0
13.762,1.509,0.827,133.0
13.775,1.51,0.747,37.0
13.795,1.512,0.669,35.0
13.791,1.511,0.589,28.0
13.769,1.511,0.969,35.0
13.755,1.509,0.889,150.0
13.768,1.51,0.81,144.0
13.785,1.511,0.731,34.0
13.799,1.512,0.652,34.0
13.787,1.511,0.572,27.0
13.767,1.511,0.952,40.0
13.742,1.507,0.871,44.0
13.77,1.51,0.793,139.0
13.787,1.511,0.714,34.0
13.794,1.511,0.635,31.0
13.786,1.51,0.555,27.0
13.755,1.508,0.934,41.0
13.751,1.507,0.854,43.0
13.768,1.508,0.776,95.0
13.788,1.51,0.696,34.0
13.79,1.51,0.617,31.0
13.789,1.509,0.538,28.0
13.752,1.507,0.916,72.0
13.764,1.507,0.838,125.0
13.773,1.507,0.759,82.0
13.783,1.508,0.679,34.0
13.79,1.508,0.6,32.0
13.794,1.508,0.521,29.0
13.748,1.504,0.899,85.0
13.763,1.505,0.82,142.0
13.786,1.507,0.742,51.0
13.791,1.506,0.662,36.0
13.785,1.505,0.582,32.0
13.793,1.505,0.503,30.0
13.749,1.501,0.881,37.0
13.77,1.503,0.803,141.0
13.781,1.503,0.724,38.0
13.782,1.502,0.644,35.0
13.785,1.502,0.565,32.0
13.799,1.503,0.486,31.0
13.75,1.498,0.864,31.0
13.78,1.5,0.786,150.0
13.78,1.499,0.707,48.0
13.78,1.499,0.626,34.0
13.782,1.498,0.547,33.0
13.79,1.498,0.468,33.0
13.76,1.495,0.846,39.0
13.776,1.496,0.768,150.0
13.775,1.495,0.689,61.0
13.772,1.493,0.608,34.0
13.783,1.494,0.529,35.0
13.784,1.493,0.45,34.0
13.762,1.491,0.829,72.0
13.781,1.492,0.75,148.0
13.777,1.49,0.671,90.0
13.776,1.489,0.59,36.0
13.782,1.489,0.511,35.0
13.78,1.488,0.432,34.0
13.767,1.486,0.811,96.0
13.781,1.486,0.733,132.0
13.777,1.485,0.653,122.0
13.775,1.483,0.572,38.0
13.784,1.483,0.494,38.0
13.778,1.482,0.414,34.0
13.769,1.48,0.793,87.0
13.778,1.48,0.714,143.0
13.766,1.478,0.635,74.0
13.769,1.477,0.554,39.0
13.776,1.476,0.476,38.0
13.776,1.475,0.397,34.0
13.771,1.474,0.776,96.0
13.776,1.473,0.697,145.0
13.762,1.471,0.617,39.0
13.767,1.47,0.536,39.0
13.78,1.47,0.458,59.0
13.78,1.469,0.379,35.0
13.773,1.467,0.758,96.0
13.777,1.466,0.679,123.0
13.769,1.464,0.599,66.0
13.776,1.463,0.519,40.0
13.78,1.463,0.44,53.0
13.779,1.461,0.361,37.0
13.763,1.458,0.739,85.0
13.774,1.458,0.661,147.0
13.769,1.456,0.581,138.0
13.773,1.455,0.501,48.0
13.776,1.454,0.422,67.0
13.772,1.452,0.343,35.0
13.774,1.451,0.722,92.0
13.769,1.449,0.643,89.0
13.775,1.448,0.564,150.0
13.777,1.447,0.484,86.0
13.776,1.445,0.405,63.0
13.774,1.444,0.325,35.0
13.773,1.442,0.704,96.0
13.765,1.44,0.625,83.0
13.77,1.438,0.546,148.0
13.779,1.438,0.466,86.0
13.775,1.436,0.387,68.0
13.757,1.433,0.307,35.0
13.765,1.432,0.686,69.0
13.75,1.428,0.606,96.0
13.777,1.429,0.529,150.0
13.772,1.427,0.448,72.0
13.775,1.426,0.369,58.0
13.756,1.423,0.29,36.0
13.764,1.421,0.668,68.0
13.768,1.42,0.59,81.0
13.769,1.418,0.511,150.0
13.777,1.417,0.43,63.0
13.777,1.416,0.351,57.0
13.758,1.412,0.272,37.0
13.77,1.411,0.651,39.0
13.772,1.409,0.572,150.0
13.768,1.407,0.493,146.0
13.773,1.406,0.413,40.0
13.779,1.405,0.334,53.0
13.76,1.401,0.255,37.0
13.761,1.399,0.633,37.0
13.776,1.398,0.555,150.0
13.777,1.397,0.476,147.0
13.781,1.395,0.396,53.0
13.767,1.392,0.317,39.0
13.765,1.39,0.238,37.0
13.765,1.387,0.616,38.0
13.778,1.386,0.538,150.0
13.781,1.385,0.459,150.0
13.781,1.383,0.378,63.0
13.778,1.381,0.3,48.0
13.767,1.378,0.221,37.0
13.773,1.375,0.599,38.0
13.788,1.375,0.521,148.0
13.794,1.373,0.442,130.0
13.781,1.37,0.361,56.0
13.781,1.368,0.283,51.0
13.776,1.366,0.204,36.0
13.777,1.363,0.582,40.0
13.798,1.362,0.504,128.0
13.793,1.36,0.425,101.0
13.781,1.357,0.345,38.0
13.788,1.355,0.266,38.0
13.776,1.352,0.187,36.0
13.804,1.351,0.567,40.0
13.809,1.35,0.488,70.0
13.796,1.346,0.409,75.0
13.788,1.343,0.328,36.0
13.791,1.342,0.25,37.0
13.784,1.339,0.171,33.0
13.808,1.338,0.55,39.0
13.811,1.336,0.471,72.0
13.809,1.333,0.392,46.0
13.798,1.33,0.312,33.0
13.805,1.328,0.233,34.0
13.809,1.327,0.154,33.0
13.819,1.324,0.534,36.0
13.829,1.322,0.455,39.0
13.817,1.319,0.376,39.0
13.812,1.316,0.296,31.0
13.824,1.315,0.217,32.0
13.818,1.312,0.138,32.0
13.836,1.31,0.518,34.0
13.84,1.307,0.439,35.0
13.82,1.303,0.36,35.0
13.816,1.301,0.28,29.0
13.831,1.3,0.201,25.0
13.832,1.298,0.122,28.0
13.856,1.295,0.503,24.0
13.841,1.291,0.423,26.0
13.83,1.288,0.344,24.0
13.853,1.288,0.264,15.0
13.851,1.285,0.185,18.0
13.854,1.283,0.106,19.0
13.859,1.279,0.487,6.0
13.842,1.275,0.407,9.0
13.845,1.273,0.329,7.0
13.87,1.272,0.249,5.0
13.864,1.269,0.17,5.0
13.862,1.267,0.091,5.0
114.962,10.47,3.913,17.0
115.181,10.468,3.264,17.0
115.543,10.479,2.615,11.0
115.658,10.468,1.948,6.0
74.796,6.756,0.833,7.0
54.267,4.892,0.296,28.0
120.598,10.83,3.972,24.0
30.048,2.692,0.818,4.0
120.649,10.788,2.599,52.0
34.144,3.046,0.537,4.0
74.42,6.626,0.748,10.0
53.54,4.757,0.233,27.0
30.007,2.655,0.955,4.0
30.032,2.651,0.785,5.0
120.638,10.627,2.467,34.0
102.92,9.045,1.509,14.0
65.397,5.735,0.586,23.0
46.572,4.075,0.153,13.0
29.943,2.608,0.92,24.0
30.046,2.611,0.753,1.0
30.005,2.601,0.581,2.0
34.302,2.967,0.466,6.0
34.286,2.959,0.271,20.0
34.227,2.947,0.076,0.0
29.861,2.56,0.887,31.0
29.957,2.561,0.719,59.0
29.894,2.55,0.548,27.0
29.937,2.547,0.375,13.0
30.093,2.554,0.206,7.0
30.09,2.548,0.035,14.0
29.883,2.519,0.856,157.0
29.85,2.51,0.686,35.0
29.861,2.504,0.516,35.0
29.897,2.501,0.344,20.0
30.038,2.506,0.176,10.0
30.066,2.503,0.005,16.0
29.796,2.468,0.824,176.0
29.828,2.464,0.655,26.0
29.845,2.459,0.486,32.0
29.879,2.455,0.315,22.0
29.979,2.457,0.145,14.0
30.071,2.459,-0.024,25.0
29.815,2.425,0.795,164.0
29.824,2.419,0.626,39.0
29.826,2.413,0.457,29.0
29.857,2.408,0.285,28.0
30.056,2.418,0.117,14.0
38.4,3.081,-0.068,4.0
29.853,2.382,0.767,152.0
29.827,2.373,0.597,32.0
29.831,2.367,0.428,42.0
29.874,2.363,0.257,36.0
29.902,2.358,0.087,21.0
29.818,2.346,-0.081,13.0
29.816,2.332,0.738,39.0
29.823,2.326,0.569,23.0
29.831,2.319,0.401,37.0
29.892,2.317,0.229,30.0
29.855,2.308,0.06,21.0
29.786,2.296,-0.108,25.0
29.831,2.286,0.711,52.0
29.832,2.279,0.543,43.0
29.854,2.273,0.374,40.0
29.898,2.27,0.203,27.0
29.834,2.258,0.033,19.0
29.798,2.248,-0.134,18.0
29.827,2.237,0.685,33.0
29.874,2.233,0.517,58.0
29.873,2.226,0.348,24.0
29.929,2.223,0.177,36.0
29.907,2.214,0.007,8.0
35.488,2.619,-0.19,31.0
29.854,2.19,0.66,30.0
29.884,2.185,0.492,42.0
29.919,2.18,0.323,20.0
54.81,3.98,0.278,29.0
41.389,2.996,-0.023,47.0
0.0,0.0,0.0,0.0
29.951,2.147,0.638,38.0
29.95,2.139,0.468,34.0
30.002,2.135,0.3,17.0
54.21,3.845,0.231,28.0
41.087,2.904,-0.056,37.0
35.117,2.473,-0.246,13.0
30.028,2.101,0.615,20.0
114.695,7.995,1.704,3.0
74.13,5.148,0.683,40.0
54.073,3.742,0.188,9.0
40.927,2.822,-0.087,15.0
35.11,2.412,-0.273,8.0
139.661,9.528,2.754,20.0
113.704,7.727,1.602,7.0
73.937,5.006,0.625,46.0
46.583,3.142,0.127,21.0
38.947,2.617,-0.112,2.0
35.091,2.349,-0.299,7.0
139.624,9.28,2.651,28.0
85.203,5.639,1.138,3.0
73.693,4.859,0.569,21.0
46.034,3.023,0.092,21.0
36.382,2.379,-0.131,37.0
35.125,2.288,-0.324,2.0
139.587,9.026,2.55,46.0
81.436,5.243,1.03,5.0
73.505,4.713,0.516,10.0
42.336,2.702,0.055,17.0
36.043,2.291,-0.155,40.0
32.638,2.066,-0.324,1.0
33.446,2.101,0.588,32.0
33.462,2.092,0.4,160.0
33.465,2.084,0.212,161.0
42.094,2.61,0.026,2.0
35.836,2.212,-0.178,37.0
32.036,1.968,-0.339,1.0
33.458,2.039,0.566,0.0
78.116,4.74,0.884,10.0
55.433,3.347,0.316,9.0
41.659,2.504,0.0,30.0
35.773,2.141,-0.2,27.0
31.176,1.857,-0.349,1.0
106.32,6.281,1.734,6.0
77.652,4.566,0.832,17.0
55.0,3.219,0.28,29.0
40.922,2.383,-0.024,16.0
35.496,2.057,-0.22,11.0
30.881,1.781,-0.364,2.0
105.859,6.053,1.665,1.0
75.883,4.316,0.768,11.0
54.571,3.088,0.247,28.0
41.165,2.318,-0.048,16.0
35.498,1.989,-0.24,15.0
30.456,1.699,-0.376,2.0
105.854,5.853,1.608,9.0
75.612,4.158,0.725,19.0
54.301,2.969,0.216,27.0
40.585,2.208,-0.069,45.0
35.484,1.92,-0.258,10.0
30.19,1.625,-0.388,2.0
105.854,5.646,1.553,66.0
75.321,3.995,0.683,22.0
54.227,2.86,0.189,18.0
40.289,2.113,-0.088,43.0
35.501,1.852,-0.276,8.0
29.833,1.547,-0.398,2.0
105.817,5.437,1.501,47.0
74.786,3.819,0.643,19.0
54.125,2.749,0.163,9.0
40.338,2.036,-0.107,33.0
33.785,1.695,-0.278,2.0
29.58,1.476,-0.408,2.0
105.761,5.226,1.453,4.0
0.0,0.0,0.0,0.0
48.563,2.37,0.125,23.0
40.105,1.945,-0.123,28.0
35.527,1.712,-0.307,6.0
29.391,1.408,-0.418,2.0
96.261,4.565,1.282,5.0
73.779,3.476,0.572,16.0
48.177,2.255,0.105,23.0
40.202,1.87,-0.14,3.0
35.489,1.64,-0.321,4.0
29.18,1.34,-0.426,2.0
96.228,4.373,1.246,5.0
73.661,3.325,0.544,12.0
47.908,2.147,0.087,25.0
39.769,1.77,-0.152,17.0
35.68,1.577,-0.335,0.0
29.004,1.273,-0.434,2.0
95.854,4.162,1.208,2.0
73.699,3.176,0.519,12.0
0.0,0.0,0.0,0.0
36.633,1.556,-0.152,30.0
32.987,1.391,-0.32,1.0
28.823,1.206,-0.44,2.0
93.601,3.872,1.151,3.0
73.758,3.029,0.497,9.0
47.509,1.935,0.056,24.0
36.607,1.48,-0.162,32.0
32.499,1.304,-0.325,1.0
28.631,1.139,-0.445,2.0
80.041,3.147,0.963,5.0
59.917,2.338,0.388,19.0
47.395,1.833,0.044,23.0
36.593,1.404,-0.172,34.0
32.523,1.237,-0.333,1.0
28.517,1.076,-0.45,1.0
79.903,2.977,0.942,6.0
59.62,2.203,0.373,25.0
47.367,1.735,0.034,23.0
36.589,1.328,-0.18,31.0
32.427,1.166,-0.339,1.0
28.375,1.011,-0.453,1.0
79.898,2.811,0.926,6.0
59.662,2.079,0.361,32.0
47.183,1.63,0.025,23.0
36.655,1.254,-0.186,32.0
32.123,1.088,-0.341,1.0
28.215,0.947,-0.456,1.0
79.62,2.636,0.91,10.0
59.747,1.959,0.353,33.0
47.163,1.53,0.018,23.0
36.737,1.18,-0.192,30.0
32.059,1.019,-0.345,1.0
28.177,0.886,-0.459,1.0
88.932,2.757,1.006,6.0
60.052,1.842,0.348,34.0
47.144,1.431,0.013,23.0
36.794,1.104,-0.196,32.0
31.871,0.946,-0.346,1.0
28.106,0.825,-0.46,1.0
78.717,2.275,0.884,8.0
60.197,1.721,0.344,34.0
47.056,1.329,0.009,22.0
36.891,1.029,-0.199,32.0
31.945,0.88,-0.348,1.0
28.006,0.762,-0.46,1.0
89.532,2.399,1.001,4.0
60.648,1.604,0.344,35.0
0.0,0.0,0.0,0.0
37.021,0.953,-0.201,35.0
31.981,0.813,-0.35,1.0
28.115,0.706,-0.462,1.0
80.101,1.976,0.895,9.0
60.872,1.481,0.345,35.0
46.725,1.121,0.007,23.0
37.223,0.88,-0.202,37.0
32.108,0.749,-0.351,1.0
28.121,0.646,-0.462,1.0
80.435,1.814,0.9,10.0
60.834,1.352,0.346,35.0
46.863,1.025,0.009,22.0
37.278,0.803,-0.2,37.0
32.209,0.682,-0.35,1.0
28.127,0.587,-0.46,1.0
89.868,1.836,1.012,6.0
61.152,1.229,0.353,35.0
46.791,0.924,0.013,22.0
37.493,0.728,-0.198,34.0
32.338,0.616,-0.348,1.0
28.21,0.528,-0.459,1.0
89.819,1.646,1.02,11.0
61.5,1.105,0.361,21.0
46.97,0.827,0.018,29.0
37.732,0.652,-0.195,41.0
32.398,0.548,-0.345,1.0
28.366,0.47,-0.457,2.0
89.719,1.451,1.032,7.0
62.0,0.981,0.373,34.0
47.219,0.731,0.026,37.0
37.925,0.574,-0.19,44.0
32.651,0.483,-0.342,1.0
28.608,0.413,-0.456,2.0
94.456,1.327,1.103,4.0
48.126,0.66,0.298,40.0
47.359,0.632,0.035,45.0
38.078,0.495,-0.183,44.0
32.808,0.415,-0.337,1.0
28.822,0.355,-0.454,2.0
48.117,0.574,0.572,103.0
48.052,0.556,0.309,87.0
47.613,0.534,0.046,49.0
38.318,0.417,-0.175,47.0
32.967,0.347,-0.331,1.0
28.948,0.295,-0.448,2.0
48.077,0.471,0.584,106.0
48.048,0.454,0.321,108.0
47.778,0.435,0.059,57.0
38.666,0.338,-0.166,48.0
33.191,0.279,-0.324,1.0
29.098,0.235,-0.442,2.0
48.091,0.37,0.598,95.0
48.127,0.353,0.336,52.0
47.954,0.334,0.073,53.0
39.025,0.258,-0.156,48.0
33.401,0.209,-0.315,1.0
29.231,0.173,-0.435,2.0
59.292,0.33,0.756,123.0
59.308,0.309,0.434,99.0
54.497,0.265,0.102,28.0
39.423,0.178,-0.144,43.0
37.783,0.158,-0.343,4.0
29.417,0.112,-0.427,2.0
79.469,0.275,1.043,151.0
76.789,0.239,0.59,24.0
0.0,0.0,0.0,0.0
40.016,0.097,-0.131,25.0
34.874,0.072,-0.303,0.0
29.633,0.05,-0.419,2.0
79.464,0.108,1.074,151.0
79.37,0.081,0.642,34.0
0.0,0.0,0.0,0.0
40.77,0.013,-0.116,17.0
38.207,0.0,-0.316,2.0
29.834,-0.011,-0.409,2.0
79.46,-0.056,1.109,151.0
79.397,-0.085,0.678,145.0
56.009,-0.08,0.174,26.0
41.789,-0.074,-0.1,18.0
38.512,-0.081,-0.301,2.0
30.087,-0.074,-0.398,2.0
79.459,-0.222,1.146,151.0
79.444,-0.25,0.716,150.0
56.166,-0.197,0.202,6.0
0.0,0.0,0.0,0.0
39.346,-0.165,-0.288,1.0
30.513,-0.139,-0.388,1.0
79.448,-0.389,1.187,156.0
79.471,-0.416,0.757,170.0
61.381,-0.342,0.253,14.0
44.441,-0.264,-0.061,2.0
42.198,-0.265,-0.286,4.0
30.979,-0.205,-0.377,1.0
79.452,-0.553,1.231,169.0
79.455,-0.582,0.801,180.0
61.665,-0.472,0.289,7.0
49.69,-0.398,-0.04,4.0
42.227,-0.353,-0.262,7.0
31.393,-0.273,-0.364,1.0
79.436,-0.718,1.277,195.0
79.453,-0.746,0.848,180.0
77.516,-0.754,0.409,8.0
54.495,-0.55,-0.011,7.0
42.073,-0.439,-0.235,2.0
32.049,-0.345,-0.352,1.0
79.41,-0.881,1.326,255.0
79.467,-0.908,0.898,114.0
78.421,-0.924,0.464,10.0
60.657,-0.736,0.026,5.0
43.606,-0.544,-0.216,2.0
32.831,-0.421,-0.339,1.0
86.953,-1.142,1.508,150.0
148.003,-1.996,1.771,11.0
82.278,-1.137,0.542,3.0
60.289,-0.854,0.066,0.0
46.248,-0.671,-0.197,1.0
33.964,-0.504,-0.327,1.0
0.0,0.0,0.0,0.0
148.954,-2.31,1.886,12.0
91.541,-1.451,0.667,5.0
40.303,-0.652,0.073,26.0
40.338,-0.667,-0.143,36.0
34.548,-0.583,-0.308,0.0
40.208,-0.69,0.754,24.0
40.312,-0.705,0.54,2.0
40.239,-0.718,0.322,53.0
40.264,-0.732,0.102,65.0
40.314,-0.746,-0.113,39.0
40.161,-0.758,-0.328,0.0
40.211,-0.769,0.784,39.0
40.243,-0.784,0.569,59.0
40.263,-0.798,0.353,46.0
66.84,-1.348,0.222,0.0
52.924,-1.085,-0.108,0.0
40.172,-0.837,-0.297,4.0
40.224,-0.849,0.816,57.0
40.27,-0.863,0.601,58.0
40.311,-0.878,0.386,0.0
40.299,-0.891,0.166,15.0
40.297,-0.904,-0.049,111.0
40.273,-0.917,-0.265,43.0
40.211,-0.926,0.849,56.0
40.312,-0.942,0.635,103.0
40.287,-0.956,0.419,25.0
40.142,-0.966,0.199,0.0
0.0,0.0,0.0,0.0
40.935,-1.012,-0.234,15.0
