X,Y,Z,Reflectivity
26.492,-3.239,-0.539,1.0
23.217,-2.837,-0.596,12.0
0.0,0.0,0.0,0.0
50.328,-6.143,-0.153,1.0
39.078,-4.766,-0.328,0.0
31.987,-3.898,-0.443,1.0
27.298,-3.324,-0.524,1.0
23.758,-2.89,-0.583,3.0
0.0,0.0,0.0,0.0
0.0,0.0,0.0,0.0
41.457,-5.034,-0.301,0.0
33.287,-4.038,-0.423,1.0
28.202,-3.418,-0.509,1.0
24.761,-2.999,-0.579,1.0
0.0,0.0,0.0,0.0
0.0,0.0,0.0,0.0
0.0,0.0,0.0,0.0
37.341,-4.508,-0.432,0.0
29.103,-3.51,-0.493,1.0
25.455,-3.067,-0.567,1.0
87.186,-10.507,0.495,1.0
0.0,0.0,0.0,0.0
0.0,0.0,0.0,0.0
36.901,-4.432,-0.386,1.0
29.791,-3.574,-0.471,1.0
26.112,-3.13,-0.553,1.0
87.625,-10.503,0.595,10.0
0.0,0.0,0.0,0.0
50.349,-6.02,-0.197,1.0
37.807,-4.515,-0.353,1.0
31.088,-3.709,-0.457,1.0
26.755,-3.188,-0.536,1.0
87.255,-10.398,0.688,11.0
0.0,0.0,0.0,0.0
50.447,-5.996,-0.141,5.0
40.533,-4.812,-0.334,1.0
32.43,-3.845,-0.441,1.0
27.505,-3.257,-0.521,1.0
86.17,-10.206,0.775,15.0
0.0,0.0,0.0,0.0
50.538,-5.969,-0.087,1.0
41.484,-4.893,-0.297,0.0
33.255,-3.917,-0.416,0.0
28.289,-3.328,-0.506,1.0
86.186,-10.141,0.869,33.0
0.0,0.0,0.0,0.0
0.0,0.0,0.0,0.0
0.0,0.0,0.0,0.0
35.011,-4.096,-0.401,1.0
29.133,-3.403,-0.49,1.0
86.241,-10.076,0.96,151.0
87.273,-10.181,0.504,34.0
0.0,0.0,0.0,0.0
50.453,-5.868,-0.254,0.0
36.661,-4.257,-0.381,0.0
29.81,-3.457,-0.47,1.0
86.24,-10.002,1.05,158.0
87.294,-10.107,0.595,44.0
0.0,0.0,0.0,0.0
50.377,-5.814,-0.201,3.0
0.0,0.0,0.0,0.0
31.258,-3.596,-0.46,1.0
86.236,-9.923,1.139,177.0
86.626,-9.951,0.679,12.0
0.0,0.0,0.0,0.0
50.42,-5.772,-0.15,4.0
40.524,-4.631,-0.337,0.0
32.405,-3.697,-0.444,1.0
86.26,-9.844,1.227,163.0
86.302,-9.83,0.765,52.0
78.761,-8.955,0.275,1.0
0.0,0.0,0.0,0.0
41.457,-4.697,-0.304,0.0
33.02,-3.735,-0.419,1.0
86.221,-9.754,1.313,150.0
86.217,-9.734,0.851,63.0
0.0,0.0,0.0,0.0
0.0,0.0,0.0,0.0
44.546,-5.001,-0.282,0.0
34.254,-3.839,-0.401,0.0
86.238,-9.666,1.399,53.0
86.205,-9.643,0.935,150.0
87.363,-9.752,0.478,1.0
0.0,0.0,0.0,0.0
0.0,0.0,0.0,0.0
0.0,0.0,0.0,0.0
86.305,-9.582,1.483,44.0
86.25,-9.555,1.018,54.0
87.323,-9.654,0.561,8.0
0.0,0.0,0.0,0.0
0.0,0.0,0.0,0.0
36.914,-4.056,-0.362,0.0
86.331,-9.487,1.565,44.0
86.263,-9.459,1.1,66.0
87.353,-9.558,0.643,8.0
0.0,0.0,0.0,0.0
49.19,-5.359,-0.172,0.0
39.457,-4.289,-0.349,1.0
86.367,-9.392,1.645,29.0
86.298,-9.362,1.179,71.0
86.605,-9.374,0.717,12.0
0.0,0.0,0.0,0.0
0.0,0.0,0.0,0.0
40.191,-4.321,-0.32,0.0
86.465,-9.299,1.725,8.0
86.352,-9.265,1.257,65.0
86.334,-9.241,0.792,150.0
79.617,-8.501,0.293,7.0
0.0,0.0,0.0,0.0
41.523,-4.414,-0.294,0.0
86.804,-9.229,1.807,4.0
86.387,-9.162,1.334,57.0
86.43,-9.143,0.868,150.0
87.092,-9.19,0.396,1.0
0.0,0.0,0.0,0.0
44.763,-4.701,-0.278,0.0
96.111,-10.095,2.085,5.0
86.443,-9.057,1.407,10.0
86.473,-9.037,0.941,150.0
0.0,0.0,0.0,0.0
0.0,0.0,0.0,0.0
45.826,-4.753,-0.247,0.0
188.406,-19.547,4.241,24.0
87.5,-9.053,1.497,13.0
87.457,-9.025,1.023,4.0
0.0,0.0,0.0,0.0
0.0,0.0,0.0,0.0
48.672,-4.983,-0.224,0.0
188.093,-19.262,4.386,53.0
0.0,0.0,0.0,0.0
89.425,-9.107,1.116,4.0
0.0,0.0,0.0,0.0
0.0,0.0,0.0,0.0
50.418,-5.093,-0.192,5.0
187.978,-18.991,4.527,52.0
95.814,-9.652,1.789,2.0
94.674,-9.511,1.254,12.0
94.668,-9.484,0.733,2.0
0.0,0.0,0.0,0.0
50.439,-5.024,-0.155,10.0
187.617,-18.695,4.657,46.0
187.662,-18.644,3.64,5.0
95.992,-9.508,1.342,1.0
96.366,-9.517,0.816,2.0
0.0,0.0,0.0,0.0
50.467,-4.955,-0.119,5.0
187.679,-18.431,4.794,51.0
149.515,-14.638,3.007,12.0
97.371,-9.503,1.43,2.0
97.406,-9.478,0.893,2.0
0.0,0.0,0.0,0.0
0.0,0.0,0.0,0.0
149.439,-14.455,3.919,55.0
149.509,-14.415,3.111,52.0
0.0,0.0,0.0,0.0
100.817,-9.659,0.993,1.0
91.013,-8.692,0.403,1.0
0.0,0.0,0.0,0.0
149.303,-14.217,4.014,43.0
188.209,-17.864,4.038,24.0
101.932,-9.642,1.633,5.0
108.619,-10.241,1.14,26.0
91.054,-8.558,0.461,1.0
0.0,0.0,0.0,0.0
149.398,-13.997,4.111,32.0
188.342,-17.584,4.159,50.0
108.558,-10.102,1.807,10.0
108.469,-10.059,1.205,150.0
90.977,-8.409,0.516,1.0
61.487,-5.664,0.015,0.0
149.433,-13.765,4.203,24.0
188.26,-17.281,4.269,39.0
108.837,-9.956,1.876,10.0
108.614,-9.9,1.27,167.0
90.638,-8.232,0.567,1.0
0.0,0.0,0.0,0.0
149.435,-13.525,4.288,42.0
188.258,-16.978,4.377,53.0
0.0,0.0,0.0,0.0
109.208,-9.777,1.337,5.0
0.0,0.0,0.0,0.0
0.0,0.0,0.0,0.0
188.582,-16.762,5.513,33.0
188.72,-16.708,4.489,38.0
111.126,-9.802,2.036,2.0
110.935,-9.749,1.417,5.0
97.99,-8.579,0.718,1.0
0.0,0.0,0.0,0.0
157.391,-13.728,4.682,45.0
157.332,-13.668,3.821,83.0
0.0,0.0,0.0,0.0
121.772,-10.499,1.615,152.0
110.126,-9.458,0.86,1.0
0.0,0.0,0.0,0.0
157.429,-13.465,4.757,46.0
165.077,-14.064,4.086,46.0
165.047,-14.006,3.183,16.0
121.747,-10.289,1.67,6.0
0.0,0.0,0.0,0.0
0.0,0.0,0.0,0.0
157.515,-13.205,4.828,35.0
165.046,-13.781,4.156,16.0
201.568,-16.76,3.974,10.0
122.014,-10.104,1.725,109.0
126.284,-10.415,1.096,2.0
0.0,0.0,0.0,0.0
157.317,-12.915,4.886,37.0
193.765,-15.842,4.958,12.0
0.0,0.0,0.0,0.0
0.0,0.0,0.0,0.0
0.0,0.0,0.0,0.0
0.0,0.0,0.0,0.0
164.678,-13.233,5.175,45.0
206.438,-16.514,5.356,21.0
284.972,-22.695,5.832,16.0
128.161,-10.162,1.908,196.0
0.0,0.0,0.0,0.0
0.0,0.0,0.0,0.0
212.705,-16.715,6.756,22.0
212.594,-16.629,5.586,27.0
257.524,-20.055,5.355,10.0
148.398,-11.505,2.256,3.0
0.0,0.0,0.0,0.0
0.0,0.0,0.0,0.0
196.404,-15.081,6.298,37.0
196.819,-15.043,5.229,53.0
197.0,-14.987,4.153,59.0
148.425,-11.238,2.299,43.0
0.0,0.0,0.0,0.0
0.0,0.0,0.0,0.0
197.106,-14.775,6.373,59.0
212.843,-15.876,5.712,17.0
284.78,-21.141,6.075,27.0
0.0,0.0,0.0,0.0
0.0,0.0,0.0,0.0
0.0,0.0,0.0,0.0
204.9,-14.981,6.67,21.0
220.384,-16.033,5.963,12.0
204.915,-14.837,4.415,66.0
0.0,0.0,0.0,0.0
0.0,0.0,0.0,0.0
0.0,0.0,0.0,0.0
208.31,-14.844,6.822,25.0
0.0,0.0,0.0,0.0
212.926,-15.016,4.628,56.0
0.0,0.0,0.0,0.0
0.0,0.0,0.0,0.0
0.0,0.0,0.0,0.0
204.708,-14.202,6.736,30.0
212.711,-14.679,5.825,57.0
228.662,-15.699,5.002,28.0
187.212,-12.784,3.044,25.0
0.0,0.0,0.0,0.0
0.0,0.0,0.0,0.0
208.362,-14.061,6.881,34.0
237.021,-15.906,6.518,21.0
237.23,-15.834,5.213,48.0
187.181,-12.428,3.062,151.0
0.0,0.0,0.0,0.0
0.0,0.0,0.0,0.0
208.757,-13.69,6.911,26.0
248.367,-16.197,6.848,160.0
0.0,0.0,0.0,0.0
187.162,-12.069,3.074,132.0
155.773,-9.989,1.697,5.0
0.0,0.0,0.0,0.0
221.05,-14.07,7.326,11.0
244.529,-15.477,6.752,32.0
265.285,-16.691,5.857,10.0
187.296,-11.717,3.081,60.0
0.0,0.0,0.0,0.0
0.0,0.0,0.0,0.0
212.226,-13.098,7.034,19.0
263.463,-16.16,7.273,150.0
0.0,0.0,0.0,0.0
0.0,0.0,0.0,0.0
0.0,0.0,0.0,0.0
0.0,0.0,0.0,0.0
271.242,-16.213,8.981,13.0
271.698,-16.14,7.489,150.0
271.717,-16.04,5.985,48.0
0.0,0.0,0.0,0.0
155.984,-9.094,1.69,3.0
0.0,0.0,0.0,0.0
0.0,0.0,0.0,0.0
0.0,0.0,0.0,0.0
227.994,-12.932,3.713,154.0
0.0,0.0,0.0,0.0
0.0,0.0,0.0,0.0
279.047,-15.587,9.189,11.0
0.0,0.0,0.0,0.0
233.914,-12.805,3.781,70.0
0.0,0.0,0.0,0.0
0.0,0.0,0.0,0.0
0.0,0.0,0.0,0.0
0.0,0.0,0.0,0.0
0.0,0.0,0.0,0.0
0.0,0.0,0.0,0.0
0.0,0.0,0.0,0.0
0.0,0.0,0.0,0.0
0.0,0.0,0.0,0.0
0.0,0.0,0.0,0.0
0.0,0.0,0.0,0.0
0.0,0.0,0.0,0.0
0.0,0.0,0.0,0.0
0.0,0.0,0.0,0.0
0.0,0.0,0.0,0.0
0.0,0.0,0.0,0.0
0.0,0.0,0.0,0.0
0.0,0.0,0.0,0.0
0.0,0.0,0.0,0.0
0.0,0.0,0.0,0.0
0.0,0.0,0.0,0.0
0.0,0.0,0.0,0.0
0.0,0.0,0.0,0.0
0.0,0.0,0.0,0.0
0.0,0.0,0.0,0.0
0.0,0.0,0.0,0.0
0.0,0.0,0.0,0.0
0.0,0.0,0.0,0.0
0.0,0.0,0.0,0.0
0.0,0.0,0.0,0.0
0.0,0.0,0.0,0.0
0.0,0.0,0.0,0.0
0.0,0.0,0.0,0.0
0.0,0.0,0.0,0.0
0.0,0.0,0.0,0.0
136.231,-5.546,1.93,37.0
0.0,0.0,0.0,0.0
0.0,0.0,0.0,0.0
0.0,0.0,0.0,0.0
0.0,0.0,0.0,0.0
136.303,-5.326,2.648,97.0
136.084,-5.267,1.868,31.0
0.0,0.0,0.0,0.0
0.0,0.0,0.0,0.0
0.0,0.0,0.0,0.0
0.0,0.0,0.0,0.0
136.358,-5.054,2.585,86.0
136.254,-5.0,1.805,80.0
0.0,0.0,0.0,0.0
63.527,-2.286,0.13,0.0
0.0,0.0,0.0,0.0
0.0,0.0,0.0,0.0
0.0,0.0,0.0,0.0
0.0,0.0,0.0,0.0
0.0,0.0,0.0,0.0
61.071,-2.074,0.092,1.0
0.0,0.0,0.0,0.0
0.0,0.0,0.0,0.0
0.0,0.0,0.0,0.0
40.142,-1.311,0.488,0.0
0.0,0.0,0.0,0.0
0.0,0.0,0.0,0.0
40.378,-1.281,1.152,2.0
40.307,-1.265,0.924,26.0
40.332,-1.251,0.698,35.0
0.0,0.0,0.0,0.0
0.0,0.0,0.0,0.0
40.226,-1.206,0.014,29.0
40.287,-1.198,1.125,34.0
40.351,-1.186,0.9,9.0
0.0,0.0,0.0,0.0
40.237,-1.154,0.441,12.0
40.184,-1.139,0.214,54.0
40.199,-1.125,-0.011,61.0
40.21,-1.116,1.097,50.0
40.2,-1.101,0.87,45.0
40.224,-1.088,0.644,44.0
40.193,-1.072,0.413,45.0
40.198,-1.058,0.187,42.0
40.995,-1.066,-0.039,11.0
40.2,-1.034,1.069,60.0
40.186,-1.02,0.842,55.0
40.207,-1.007,0.616,61.0
40.28,-0.995,0.386,9.0
40.314,-0.982,0.159,113.0
40.305,-0.968,-0.067,150.0
40.208,-0.955,1.04,63.0
40.204,-0.941,0.813,57.0
40.292,-0.929,0.587,78.0
40.288,-0.915,0.356,2.0
0.0,0.0,0.0,0.0
0.0,0.0,0.0,0.0
40.221,-0.877,1.01,60.0
40.209,-0.862,0.782,54.0
40.227,-0.849,0.555,60.0
40.264,-0.836,0.324,43.0
40.305,-0.823,0.097,5.0
46.715,-0.938,-0.15,1.0
40.241,-0.797,0.978,48.0
40.181,-0.782,0.749,58.0
40.267,-0.77,0.523,41.0
40.237,-0.756,0.291,55.0
40.276,-0.744,0.064,66.0
40.305,-0.731,-0.163,54.0
40.241,-0.718,0.944,30.0
0.0,0.0,0.0,0.0
149.388,-2.566,1.814,8.0
40.346,-0.679,0.257,1.0
61.556,-1.016,0.045,2.0
46.383,-0.749,-0.228,4.0
0.0,0.0,0.0,0.0
187.142,-2.912,3.166,61.0
123.79,-1.884,1.393,12.0
81.836,-1.219,0.45,1.0
60.708,-0.884,-0.009,0.0
42.585,-0.606,-0.248,3.0
86.943,-1.212,1.883,103.0
86.955,-1.183,1.39,53.0
80.148,-1.065,0.828,42.0
77.972,-1.01,0.355,1.0
54.94,-0.693,-0.06,3.0
42.008,-0.517,-0.283,1.0
79.438,-0.955,1.645,166.0
79.385,-0.928,1.194,255.0
79.453,-0.904,0.745,161.0
59.005,-0.651,0.212,1.0
50.841,-0.545,-0.104,15.0
38.486,-0.4,-0.297,13.0
79.443,-0.804,1.568,178.0
79.451,-0.778,1.117,189.0
79.432,-0.753,0.666,150.0
58.802,-0.538,0.154,2.0
47.367,-0.419,-0.144,9.0
36.684,-0.313,-0.32,0.0
79.451,-0.654,1.488,167.0
79.45,-0.629,1.037,184.0
0.0,0.0,0.0,0.0
52.471,-0.382,0.083,26.0
41.965,-0.293,-0.17,3.0
33.558,-0.224,-0.327,1.0
79.44,-0.506,1.405,167.0
79.458,-0.481,0.953,169.0
76.694,-0.441,0.485,15.0
47.856,-0.26,0.025,13.0
39.581,-0.202,-0.203,6.0
32.56,-0.156,-0.352,1.0
79.446,-0.358,1.319,161.0
79.472,-0.333,0.867,151.0
76.434,-0.296,0.399,10.0
46.08,-0.165,-0.025,20.0
38.997,-0.127,-0.243,6.0
31.764,-0.094,-0.379,2.0
79.462,-0.211,1.23,151.0
79.445,-0.186,0.777,151.0
61.677,-0.126,0.253,13.0
0.0,0.0,0.0,0.0
38.492,-0.055,-0.284,4.0
30.405,-0.034,-0.397,2.0
79.457,-0.066,1.138,151.0
79.415,-0.042,0.686,138.0
0.0,0.0,0.0,0.0
40.801,0.002,-0.116,17.0
37.938,0.013,-0.324,1.0
29.65,0.019,-0.422,2.0
79.469,0.077,1.044,151.0
76.649,0.097,0.57,18.0
53.95,0.084,0.094,28.0
39.394,0.073,-0.159,40.0
33.416,0.072,-0.326,1.0
28.946,0.071,-0.447,2.0
79.466,0.218,0.948,151.0
75.964,0.23,0.474,18.0
47.36,0.157,0.025,22.0
38.652,0.14,-0.203,26.0
32.367,0.126,-0.355,1.0
28.221,0.118,-0.47,2.0
59.301,0.267,0.634,142.0
55.041,0.264,0.274,62.0
44.982,0.229,-0.032,21.0
38.024,0.205,-0.248,13.0
31.058,0.176,-0.38,2.0
27.275,0.163,-0.49,1.0
48.132,0.302,0.452,50.0
48.106,0.316,0.177,44.0
44.023,0.301,-0.089,11.0
37.55,0.267,-0.294,4.0
29.995,0.222,-0.406,2.0
26.66,0.205,-0.513,2.0
48.058,0.383,0.389,107.0
47.993,0.397,0.114,78.0
39.226,0.335,-0.13,39.0
37.283,0.329,-0.341,0.0
29.313,0.267,-0.435,2.0
25.969,0.243,-0.534,1.0
48.058,0.465,0.324,104.0
47.671,0.475,0.049,50.0
38.322,0.392,-0.178,47.0
32.586,0.342,-0.341,1.0
28.426,0.306,-0.46,1.0
22.152,0.244,-0.485,3.0
48.059,0.545,0.259,81.0
0.0,0.0,0.0,0.0
37.75,0.448,-0.227,15.0
31.263,0.379,-0.37,1.0
27.462,0.341,-0.482,1.0
21.502,0.272,-0.501,4.0
48.064,0.623,0.193,59.0
44.022,0.582,-0.074,11.0
37.16,0.502,-0.276,7.0
30.18,0.415,-0.399,2.0
26.748,0.375,-0.507,2.0
20.859,0.298,-0.515,4.0
48.026,0.7,0.125,28.0
39.148,0.58,-0.121,43.0
37.022,0.558,-0.327,1.0
29.332,0.45,-0.43,2.0
26.231,0.409,-0.535,1.0
20.101,0.319,-0.525,4.0
47.678,0.77,0.056,33.0
38.001,0.624,-0.173,47.0
32.767,0.546,-0.337,1.0
28.368,0.48,-0.457,1.0
21.914,0.376,-0.479,4.0
19.582,0.341,-0.54,7.0
0.0,0.0,0.0,0.0
37.307,0.67,-0.224,22.0
31.114,0.567,-0.365,1.0
27.319,0.504,-0.48,1.0
21.215,0.397,-0.494,4.0
18.813,0.356,-0.546,14.0
39.909,0.767,-0.07,18.0
36.812,0.717,-0.276,9.0
30.101,0.593,-0.398,2.0
26.748,0.534,-0.51,1.0
20.535,0.415,-0.51,3.0
18.366,0.376,-0.561,7.0
38.911,0.806,-0.127,47.0
36.607,0.768,-0.33,0.0
29.218,0.619,-0.431,2.0
22.724,0.487,-0.468,4.0
19.865,0.43,-0.523,3.0
17.781,0.389,-0.57,7.0
37.523,0.832,-0.18,53.0
32.316,0.724,-0.341,1.0
28.18,0.638,-0.459,1.0
21.548,0.493,-0.477,4.0
19.27,0.445,-0.537,3.0
17.379,0.406,-0.584,4.0
36.833,0.869,-0.234,15.0
30.848,0.735,-0.373,1.0
27.26,0.656,-0.486,1.0
20.872,0.507,-0.494,5.0
18.688,0.458,-0.55,3.0
16.902,0.418,-0.595,2.0
36.457,0.911,-0.288,6.0
29.703,0.749,-0.406,2.0
23.533,0.598,-0.456,3.0
20.21,0.518,-0.51,3.0
18.052,0.467,-0.56,3.0
16.365,0.427,-0.602,2.0
33.236,0.876,-0.316,1.0
28.792,0.765,-0.439,1.0
22.085,0.592,-0.464,4.0
19.572,0.528,-0.525,3.0
17.56,0.478,-0.573,5.0
15.935,0.437,-0.611,4.0
31.566,0.874,-0.351,1.0
27.68,0.772,-0.466,1.0
21.285,0.598,-0.481,4.0
18.905,0.535,-0.538,3.0
17.108,0.488,-0.586,3.0
15.273,0.439,-0.611,4.0
30.27,0.877,-0.386,2.0
23.801,0.695,-0.44,3.0
20.565,0.604,-0.498,4.0
18.34,0.543,-0.552,3.0
16.518,0.492,-0.592,2.0
14.545,0.436,-0.605,2.0
29.221,0.883,-0.42,2.0
22.667,0.69,-0.456,4.0
19.85,0.608,-0.514,3.0
17.751,0.547,-0.563,5.0
16.036,0.498,-0.601,2.0
14.19,0.443,-0.614,1.0
28.116,0.884,-0.451,1.0
21.615,0.684,-0.471,4.0
19.256,0.613,-0.53,3.0
17.269,0.553,-0.577,3.0
15.247,0.492,-0.597,2.0
13.903,0.451,-0.625,3.0
24.109,0.787,-0.427,2.0
20.802,0.683,-0.488,4.0
18.623,0.615,-0.544,3.0
16.707,0.555,-0.586,2.0
14.656,0.49,-0.599,5.0
13.67,0.459,-0.638,2.0
23.128,0.782,-0.449,5.0
20.02,0.68,-0.504,3.0
17.945,0.613,-0.555,3.0
16.154,0.555,-0.594,2.0
14.599,0.504,-0.621,11.0
13.424,0.466,-0.649,2.0
21.754,0.759,-0.459,4.0
19.31,0.678,-0.519,3.0
17.375,0.613,-0.567,3.0
15.49,0.549,-0.596,2.0
14.153,0.504,-0.627,5.0
13.221,0.474,-0.662,3.0
20.922,0.753,-0.477,4.0
18.638,0.674,-0.533,3.0
16.907,0.615,-0.581,4.0
14.655,0.535,-0.59,8.0
13.842,0.508,-0.637,3.0
13.068,0.482,-0.677,7.0
20.196,0.748,-0.496,4.0
18.039,0.671,-0.547,3.0
16.232,0.607,-0.586,2.0
14.626,0.549,-0.614,15.0
13.457,0.508,-0.643,1.0
13.049,0.495,-0.699,10.0
19.494,0.742,-0.512,3.0
17.529,0.67,-0.562,4.0
15.791,0.606,-0.597,7.0
14.441,0.557,-0.631,14.0
13.071,0.506,-0.647,4.0
12.793,0.497,-0.707,6.0
18.862,0.736,-0.529,3.0
16.952,0.664,-0.573,2.0
14.742,0.58,-0.583,6.0
14.088,0.556,-0.64,15.0
13.069,0.518,-0.67,9.0
12.52,0.498,-0.714,3.0
18.149,0.725,-0.54,3.0
16.374,0.656,-0.582,2.0
14.647,0.589,-0.605,13.0
13.547,0.547,-0.64,13.0
13.006,0.527,-0.689,7.0
12.16,0.495,-0.715,2.0
17.587,0.718,-0.555,5.0
15.878,0.65,-0.592,3.0
14.519,0.597,-0.626,14.0
13.247,0.547,-0.649,10.0
12.81,0.53,-0.701,4.0
11.824,0.491,-0.716,3.0
17.059,0.711,-0.568,2.0
14.914,0.623,-0.583,6.0
14.218,0.596,-0.638,14.0
13.061,0.55,-0.662,10.0
12.556,0.53,-0.71,2.0
11.545,0.489,-0.72,2.0
16.459,0.699,-0.577,3.0
14.661,0.624,-0.599,18.0
13.675,0.584,-0.638,13.0
12.989,0.557,-0.682,8.0
12.274,0.528,-0.716,1.0
11.254,0.486,-0.721,2.0
15.957,0.69,-0.588,3.0
14.596,0.633,-0.622,20.0
13.373,0.582,-0.647,12.0
12.882,0.562,-0.699,3.0
11.96,0.523,-0.719,1.0
11.01,0.483,-0.725,2.0
15.059,0.662,-0.581,6.0
14.291,0.63,-0.634,14.0
13.078,0.578,-0.656,9.0
12.496,0.554,-0.701,3.0
11.641,0.518,-0.72,2.0
10.786,0.481,-0.73,2.0
14.661,0.654,-0.592,22.0
13.799,0.618,-0.637,15.0
13.065,0.586,-0.679,9.0
12.224,0.55,-0.707,2.0
11.316,0.511,-0.72,2.0
10.558,0.478,-0.733,2.0
14.618,0.662,-0.616,25.0
13.475,0.612,-0.646,13.0
12.94,0.589,-0.695,4.0
11.917,0.544,-0.711,2.0
11.052,0.506,-0.723,2.0
10.319,0.473,-0.735,2.0
14.356,0.659,-0.631,16.0
13.088,0.602,-0.651,8.0
12.542,0.578,-0.696,3.0
11.693,0.54,-0.718,2.0
10.816,0.501,-0.727,2.0
10.12,0.47,-0.739,2.0
13.811,0.641,-0.631,14.0
13.075,0.609,-0.673,10.0
12.258,0.572,-0.702,3.0
11.389,0.533,-0.72,2.0
10.595,0.497,-0.731,2.0
9.934,0.467,-0.743,2.0
13.498,0.634,-0.641,13.0
12.977,0.611,-0.691,5.0
11.936,0.563,-0.705,3.0
11.106,0.525,-0.721,2.0
10.378,0.492,-0.734,2.0
9.762,0.463,-0.748,2.0
13.157,0.624,-0.648,9.0
12.606,0.599,-0.694,3.0
11.697,0.557,-0.711,2.0
10.875,0.519,-0.726,2.0
10.158,0.486,-0.737,2.0
9.588,0.46,-0.751,2.0
13.059,0.625,-0.666,11.0
12.31,0.591,-0.699,3.0
11.412,0.548,-0.714,2.0
10.641,0.512,-0.729,2.0
9.972,0.481,-0.741,2.0
9.462,0.457,-0.758,2.0
13.02,0.629,-0.687,7.0
11.975,0.579,-0.701,3.0
11.125,0.539,-0.716,3.0
10.426,0.506,-0.733,2.0
9.787,0.476,-0.744,2.0
9.352,0.456,-0.766,2.0
12.698,0.618,-0.692,3.0
11.722,0.571,-0.707,3.0
10.956,0.535,-0.724,2.0
10.202,0.499,-0.735,2.0
9.605,0.47,-0.748,2.0
9.278,0.455,-0.776,2.0
12.38,0.606,-0.696,3.0
11.392,0.558,-0.707,2.0
10.7,0.525,-0.726,2.0
10.014,0.492,-0.739,2.0
9.459,0.466,-0.753,2.0
9.216,0.455,-0.787,2.0
12.067,0.594,-0.7,2.0
11.163,0.55,-0.712,3.0
10.495,0.518,-0.73,2.0
9.829,0.486,-0.742,2.0
9.331,0.462,-0.759,2.0
9.182,0.455,-0.8,2.0
11.814,0.584,-0.705,3.0
11.03,0.546,-0.722,3.0
10.257,0.509,-0.731,2.0
9.652,0.479,-0.745,2.0
9.231,0.459,-0.766,2.0
9.156,0.456,-0.814,2.0
11.492,0.571,-0.706,3.0
10.787,0.536,-0.725,2.0
10.081,0.502,-0.736,2.0
9.477,0.472,-0.748,2.0
9.181,0.458,-0.778,2.0
9.126,0.456,-0.827,1.0
11.218,0.559,-0.708,3.0
10.567,0.527,-0.728,2.0
9.9,0.494,-0.739,2.0
9.353,0.467,-0.754,2.0
9.157,0.458,-0.791,2.0
9.135,0.458,-0.843,1.0
11.075,0.553,-0.717,3.0
10.345,0.517,-0.73,2.0
9.721,0.486,-0.742,2.0
9.242,0.463,-0.76,2.0
9.132,0.458,-0.805,2.0
9.117,0.457,-0.856,1.0
10.897,0.545,-0.724,2.0
10.149,0.508,-0.733,2.0
9.536,0.477,-0.744,2.0
9.171,0.46,-0.77,2.0
9.104,0.457,-0.817,1.0
9.098,0.457,-0.87,0.0
10.665,0.534,-0.726,2.0
9.971,0.499,-0.737,2.0
9.407,0.471,-0.75,2.0
9.15,0.459,-0.783,2.0
9.123,0.458,-0.834,1.0
9.151,0.459,-0.89,0.0
10.458,0.523,-0.729,2.0
9.797,0.49,-0.74,2.0
9.286,0.465,-0.755,2.0
9.145,0.458,-0.798,2.0
9.121,0.457,-0.849,1.0
9.134,0.458,-0.904,0.0
10.238,0.512,-0.73,2.0
9.632,0.481,-0.743,2.0
9.211,0.461,-0.764,2.0
9.129,0.457,-0.811,2.0
9.126,0.457,-0.864,0.0
9.113,0.457,-0.916,0.0
10.075,0.503,-0.735,2.0
9.485,0.473,-0.747,2.0
9.185,0.459,-0.777,2.0
9.14,0.457,-0.827,1.0
9.166,0.458,-0.883,0.0
9.124,0.456,-0.932,0.0
9.897,0.492,-0.738,2.0
9.369,0.466,-0.753,2.0
9.182,0.457,-0.791,2.0
9.148,0.456,-0.842,1.0
9.206,0.459,-0.901,0.0
9.134,0.455,-0.947,0.0
9.745,0.483,-0.742,2.0
9.288,0.461,-0.761,2.0
9.196,0.456,-0.806,2.0
9.175,0.455,-0.859,0.0
9.155,0.454,-0.91,0.0
9.073,0.451,-0.955,0.0
9.577,0.473,-0.743,2.0
9.25,0.457,-0.772,2.0
9.209,0.455,-0.822,1.0
9.228,0.456,-0.878,0.0
9.163,0.453,-0.925,0.0
8.97,0.443,-0.958,0.0
9.467,0.465,-0.749,2.0
9.259,0.455,-0.786,2.0
9.235,0.454,-0.838,1.0
9.287,0.457,-0.898,0.0
9.207,0.453,-0.944,0.0
8.923,0.439,-0.967,0.0
9.396,0.459,-0.757,2.0
9.281,0.454,-0.802,2.0
9.277,0.453,-0.856,0.0
9.267,0.453,-0.91,0.0
9.208,0.45,-0.957,0.0
8.714,0.426,-0.957,0.0
9.368,0.455,-0.769,2.0
9.349,0.454,-0.822,1.0
9.366,0.455,-0.878,0.0
9.298,0.451,-0.926,0.0
9.002,0.437,-0.949,0.0
8.259,0.401,-0.919,0.0
9.388,0.453,-0.784,2.0
9.372,0.452,-0.837,1.0
9.41,0.454,-0.895,0.0
9.337,0.45,-0.943,0.0
8.811,0.424,-0.942,0.0
8.151,0.392,-0.919,0.0
9.433,0.451,-0.801,2.0
9.437,0.451,-0.856,0.0
9.414,0.45,-0.909,0.0
9.39,0.449,-0.962,0.0
8.501,0.406,-0.92,0.0
8.053,0.384,-0.919,0.0
9.471,0.449,-0.818,2.0
9.529,0.452,-0.878,0.0
9.471,0.449,-0.927,0.0
9.248,0.438,-0.96,0.0
8.389,0.397,-0.92,0.0
7.972,0.377,-0.921,0.0
9.544,0.448,-0.837,1.0
9.587,0.45,-0.896,0.0
9.472,0.444,-0.94,0.0
8.837,0.414,-0.93,0.0
8.25,0.386,-0.916,0.0
7.918,0.371,-0.925,0.0
9.637,0.448,-0.858,0.0
9.591,0.446,-0.909,0.0
9.539,0.443,-0.96,0.0
8.514,0.395,-0.907,0.0
8.152,0.378,-0.916,0.0
7.815,0.362,-0.923,0.0
9.719,0.447,-0.878,0.0
9.649,0.443,-0.927,0.0
9.378,0.43,-0.956,0.0
8.418,0.386,-0.907,0.0
8.086,0.37,-0.919,0.0
7.761,0.355,-0.927,0.0
9.799,0.445,-0.897,0.0
9.713,0.441,-0.946,0.0
9.04,0.41,-0.933,0.0
8.325,0.377,-0.908,0.0
8.084,0.366,-0.929,0.0
7.699,0.348,-0.929,0.0
9.849,0.442,-0.914,0.0
9.73,0.436,-0.959,0.0
8.652,0.387,-0.903,0.0
8.281,0.37,-0.913,0.0
7.962,0.355,-0.924,0.0
7.603,0.339,-0.927,0.0
9.924,0.439,-0.933,0.0
9.49,0.419,-0.947,0.0
8.583,0.379,-0.906,0.0
8.193,0.361,-0.913,0.0
7.892,0.347,-0.926,0.0
7.54,0.331,-0.928,0.0
10.0,0.436,-0.952,0.0
8.953,0.39,-0.904,0.0
8.443,0.367,-0.901,0.0
8.11,0.352,-0.914,0.0
7.808,0.338,-0.925,0.0
7.476,0.323,-0.929,0.0
9.87,0.424,-0.951,0.0
8.809,0.377,-0.9,0.0
8.371,0.358,-0.903,0.0
8.02,0.342,-0.913,0.0
7.738,0.33,-0.926,0.0
7.43,0.316,-0.932,0.0
9.32,0.393,-0.908,0.0
8.733,0.368,-0.901,0.0
8.32,0.35,-0.907,0.0
7.997,0.336,-0.919,0.0
7.698,0.323,-0.929,0.0
7.388,0.309,-0.935,0.0
9.061,0.376,-0.893,0.0
8.665,0.359,-0.904,0.0
8.274,0.342,-0.911,0.0
7.936,0.327,-0.92,0.0
7.589,0.312,-0.924,0.0
7.32,0.301,-0.934,0.0
8.992,0.366,-0.895,0.0
8.605,0.35,-0.906,0.0
8.214,0.333,-0.912,0.0
7.874,0.319,-0.921,0.0
7.559,0.305,-0.928,0.0
7.267,0.293,-0.934,0.0
8.929,0.357,-0.898,0.0
8.512,0.339,-0.905,0.0
8.162,0.324,-0.915,0.0
7.798,0.309,-0.92,0.0
7.515,0.297,-0.93,0.0
7.224,0.285,-0.936,0.0
8.855,0.346,-0.899,0.0
8.438,0.329,-0.905,0.0
8.113,0.316,-0.917,0.0
7.753,0.301,-0.922,0.0
7.466,0.289,-0.931,0.0
7.164,0.277,-0.935,0.0
8.778,0.336,-0.899,0.0
8.381,0.32,-0.907,0.0
8.038,0.306,-0.916,0.0
7.702,0.292,-0.923,0.0
7.413,0.281,-0.931,0.0
7.113,0.269,-0.935,0.0
8.725,0.326,-0.901,0.0
8.328,0.311,-0.908,0.0
7.992,0.297,-0.918,0.0
7.648,0.284,-0.923,0.0
7.359,0.272,-0.931,0.0
7.096,0.262,-0.939,0.0
8.654,0.316,-0.901,0.0
8.282,0.302,-0.91,0.0
7.958,0.289,-0.92,0.0
7.593,0.275,-0.923,0.0
7.33,0.264,-0.933,0.0
7.024,0.253,-0.935,0.0
8.614,0.307,-0.904,0.0
8.165,0.29,-0.904,0.0
7.884,0.279,-0.918,0.0
7.564,0.267,-0.925,0.0
7.291,0.256,-0.934,0.0
6.933,0.243,-0.928,0.0
8.563,0.297,-0.905,0.0
8.118,0.281,-0.905,1.0
7.865,0.271,-0.922,0.0
7.524,0.258,-0.926,0.0
7.247,0.248,-0.934,0.0
6.905,0.235,-0.929,1.0
8.465,0.286,-0.901,0.0
8.122,0.273,-0.911,0.0
7.815,0.262,-0.921,0.0
7.518,0.251,-0.93,0.0
7.219,0.24,-0.935,0.0
6.909,0.229,-0.935,1.0
8.462,0.278,-0.906,0.0
8.11,0.265,-0.915,1.0
7.75,0.252,-0.919,0.0
7.478,0.242,-0.93,0.0
7.187,0.232,-0.936,0.0
6.895,0.222,-0.937,1.0
8.406,0.267,-0.906,0.0
8.074,0.256,-0.916,0.0
7.715,0.243,-0.919,0.0
7.415,0.233,-0.927,0.0
7.167,0.224,-0.937,0.0
6.89,0.215,-0.941,0.0
8.356,0.257,-0.905,0.0
8.032,0.246,-0.916,0.0
7.712,0.235,-0.923,0.0
7.406,0.225,-0.93,0.0
7.111,0.215,-0.934,0.0
6.878,0.207,-0.943,0.0
8.267,0.246,-0.9,0.0
7.996,0.237,-0.916,0.0
7.661,0.226,-0.922,0.0
7.34,0.216,-0.926,0.0
7.1,0.207,-0.936,0.0
6.829,0.199,-0.94,0.0
8.213,0.236,-0.898,2.0
7.97,0.228,-0.917,0.0
7.632,0.217,-0.922,0.0
7.326,0.207,-0.928,0.0
7.053,0.199,-0.934,0.0
6.807,0.191,-0.94,0.0
8.199,0.227,-0.9,3.0
7.947,0.219,-0.918,0.0
7.624,0.209,-0.924,0.0
7.322,0.199,-0.93,0.0
7.043,0.191,-0.935,0.0
6.786,0.183,-0.94,0.0
8.191,0.218,-0.903,2.0
7.932,0.21,-0.92,0.0
7.614,0.2,-0.926,0.0
7.292,0.191,-0.929,0.0
7.032,0.183,-0.937,0.0
6.771,0.175,-0.941,0.0
8.193,0.209,-0.906,1.0
7.937,0.202,-0.923,0.0
7.599,0.192,-0.927,0.0
7.271,0.182,-0.929,0.0
7.011,0.175,-0.936,0.0
6.765,0.168,-0.942,0.0
8.192,0.2,-0.909,0.0
7.88,0.192,-0.919,0.0
7.552,0.182,-0.924,0.0
7.265,0.174,-0.931,0.0
7.036,0.168,-0.942,0.0
6.737,0.159,-0.94,0.0
8.184,0.191,-0.91,0.0
7.844,0.182,-0.917,0.0
7.55,0.174,-0.925,0.0
7.243,0.166,-0.93,0.0
7.008,0.159,-0.94,0.0
6.753,0.152,-0.944,0.0
8.163,0.182,-0.91,0.0
7.869,0.174,-0.922,0.0
7.539,0.165,-0.926,0.0
7.225,0.157,-0.929,0.0
6.981,0.151,-0.938,0.0
6.729,0.144,-0.942,0.0
8.152,0.172,-0.91,0.0
7.838,0.164,-0.919,0.0
7.517,0.156,-0.924,0.0
7.226,0.149,-0.93,0.0
6.959,0.142,-0.936,0.0
6.728,0.136,-0.943,0.0
8.133,0.163,-0.909,0.0
7.831,0.155,-0.92,0.0
7.527,0.148,-0.927,0.0
7.222,0.141,-0.931,0.0
6.965,0.135,-0.937,0.0
6.709,0.128,-0.941,0.0
8.134,0.154,-0.91,0.0
7.823,0.146,-0.919,0.0
7.517,0.139,-0.926,0.0
7.219,0.133,-0.931,0.0
6.99,0.127,-0.941,0.0
6.699,0.121,-0.94,0.0
8.122,0.144,-0.909,0.0
7.841,0.138,-0.922,0.0
7.502,0.13,-0.925,0.0
7.251,0.125,-0.935,0.0
6.971,0.119,-0.939,0.0
6.707,0.113,-0.941,0.0
8.122,0.135,-0.909,0.0
7.843,0.129,-0.922,0.0
7.507,0.122,-0.925,0.0
7.236,0.116,-0.933,0.0
6.959,0.111,-0.937,0.0
6.699,0.105,-0.94,0.0
8.119,0.126,-0.909,0.0
7.828,0.12,-0.92,0.0
7.506,0.113,-0.924,0.0
7.24,0.108,-0.933,0.0
6.977,0.103,-0.939,0.0
6.698,0.097,-0.939,0.0
8.117,0.116,-0.908,0.0
7.825,0.111,-0.919,0.0
7.509,0.105,-0.924,0.0
7.25,0.1,-0.934,0.0
6.995,0.095,-0.941,0.0
6.714,0.09,-0.941,0.0
8.121,0.107,-0.907,0.0
7.839,0.102,-0.92,0.0
7.508,0.096,-0.923,0.0
7.257,0.092,-0.934,0.0
6.992,0.087,-0.939,0.0
6.71,0.082,-0.939,0.0
8.142,0.098,-0.908,0.0
7.852,0.093,-0.92,0.0
7.529,0.088,-0.924,0.0
7.267,0.083,-0.933,0.0
6.995,0.079,-0.938,0.0
6.732,0.075,-0.941,0.0
8.157,0.089,-0.908,0.0
7.86,0.084,-0.919,0.0
7.537,0.079,-0.923,0.0
7.282,0.075,-0.934,0.0
7.032,0.071,-0.941,0.0
6.743,0.067,-0.94,0.0
8.164,0.08,-0.906,0.0
7.876,0.075,-0.918,0.0
7.571,0.071,-0.925,0.0
7.288,0.067,-0.932,0.0
7.025,0.063,-0.938,0.0
6.772,0.059,-0.942,0.0
8.204,0.071,-0.908,0.0
7.895,0.066,-0.918,0.0
7.593,0.062,-0.925,0.0
7.295,0.059,-0.931,0.0
7.034,0.055,-0.937,0.0
6.784,0.052,-0.942,0.0
8.231,0.061,-0.908,0.0
7.919,0.058,-0.918,0.0
7.611,0.054,-0.925,0.0
7.331,0.05,-0.932,0.0
7.071,0.047,-0.939,0.0
6.804,0.044,-0.942,0.0
8.258,0.052,-0.908,0.0
7.934,0.049,-0.916,0.0
7.644,0.045,-0.925,0.0
7.345,0.042,-0.931,0.0
7.08,0.039,-0.937,0.0
6.834,0.037,-0.943,0.0
8.28,0.043,-0.906,0.0
7.984,0.04,-0.918,0.0
7.659,0.037,-0.923,0.0
7.381,0.034,-0.932,0.0
7.117,0.031,-0.938,0.0
6.872,0.029,-0.944,0.0
8.305,0.034,-0.905,0.0
7.999,0.031,-0.916,0.0
7.676,0.028,-0.922,0.0
7.419,0.026,-0.933,0.0
7.143,0.024,-0.938,0.0
6.882,0.021,-0.942,0.0
8.328,0.025,-0.903,0.0
8.032,0.022,-0.915,0.0
7.734,0.02,-0.924,0.0
7.451,0.018,-0.933,0.0
7.149,0.016,-0.935,0.0
6.901,0.014,-0.941,0.0
8.375,0.016,-0.903,0.0
8.049,0.014,-0.912,0.0
7.754,0.012,-0.922,0.0
7.439,0.01,-0.926,0.0
7.169,0.008,-0.933,0.0
6.961,0.006,-0.944,0.0
8.4,0.007,-0.9,0.0
8.097,0.005,-0.913,0.0
7.796,0.003,-0.922,0.0
7.482,0.002,-0.927,0.0
7.219,0.0,-0.934,0.0
6.995,0.0,-0.944,0.0
8.458,-0.001,-0.901,0.0
8.133,-0.003,-0.911,0.0
7.836,-0.004,-0.921,0.0
7.527,-0.006,-0.927,0.0
7.273,-0.007,-0.936,0.0
7.013,-0.008,-0.941,0.0
8.496,-0.01,-0.899,0.0
8.168,-0.012,-0.909,0.0
7.872,-0.013,-0.919,0.0
7.576,-0.014,-0.927,0.0
7.302,-0.015,-0.934,0.0
7.048,-0.016,-0.941,0.0
8.555,-0.019,-0.899,0.0
8.229,-0.02,-0.909,0.0
7.915,-0.021,-0.918,0.0
7.602,-0.022,-0.924,0.0
7.343,-0.022,-0.934,0.0
7.06,-0.023,-0.937,0.0
8.611,-0.028,-0.897,0.0
8.286,-0.029,-0.909,0.0
7.967,-0.029,-0.918,0.0
7.652,-0.03,-0.924,0.0
7.386,-0.03,-0.933,0.0
7.116,-0.03,-0.938,0.0
8.663,-0.037,-0.895,0.0
8.317,-0.038,-0.905,0.0
8.001,-0.038,-0.915,0.0
7.723,-0.038,-0.926,0.0
7.436,-0.038,-0.932,0.0
7.158,-0.038,-0.937,0.0
8.728,-0.047,-0.894,0.0
8.381,-0.046,-0.904,0.0
8.051,-0.046,-0.913,0.0
7.762,-0.046,-0.923,0.0
7.477,-0.046,-0.93,0.0
7.195,-0.045,-0.935,0.0
8.813,-0.056,-0.895,0.0
8.437,-0.055,-0.902,0.0
8.112,-0.054,-0.912,0.0
7.811,-0.054,-0.922,0.0
7.525,-0.053,-0.929,0.0
7.241,-0.053,-0.934,0.0
8.892,-0.065,-0.894,0.0
8.497,-0.064,-0.901,0.0
8.176,-0.063,-0.911,0.0
7.874,-0.062,-0.921,0.0
7.581,-0.061,-0.928,0.0
7.305,-0.06,-0.935,0.0
8.958,-0.074,-0.892,0.0
8.57,-0.072,-0.9,0.0
8.233,-0.071,-0.909,0.0
7.923,-0.069,-0.919,0.0
7.635,-0.068,-0.927,0.0
7.346,-0.067,-0.932,0.0
9.06,-0.083,-0.892,0.0
8.653,-0.081,-0.899,0.0
8.293,-0.079,-0.907,0.0
7.982,-0.077,-0.917,0.0
7.695,-0.076,-0.926,0.0
7.417,-0.075,-0.933,0.0
9.114,-0.092,-0.888,0.0
8.714,-0.089,-0.896,0.0
8.367,-0.087,-0.905,0.0
8.046,-0.085,-0.915,0.0
7.745,-0.083,-0.923,0.0
7.473,-0.082,-0.931,0.0
9.224,-0.101,-0.888,0.0
8.806,-0.098,-0.895,0.0
8.442,-0.095,-0.904,0.0
8.123,-0.093,-0.914,0.0
7.819,-0.091,-0.922,0.0
7.541,-0.089,-0.931,0.0
9.331,-0.11,-0.887,0.0
8.9,-0.107,-0.894,0.0
8.504,-0.103,-0.9,0.0
8.195,-0.101,-0.913,0.0
7.898,-0.099,-0.922,0.0
7.608,-0.096,-0.93,0.0
9.429,-0.119,-0.885,0.0
8.994,-0.115,-0.893,0.0
8.601,-0.112,-0.9,0.0
8.279,-0.109,-0.912,0.0
7.963,-0.106,-0.92,0.0
7.668,-0.103,-0.927,0.0
9.537,-0.128,-0.883,0.0
9.088,-0.124,-0.89,0.0
8.681,-0.12,-0.897,0.0
8.361,-0.117,-0.91,0.0
8.02,-0.113,-0.916,0.0
7.742,-0.111,-0.926,0.0
9.639,-0.137,-0.88,0.0
9.207,-0.132,-0.89,0.0
8.779,-0.128,-0.896,0.0
8.424,-0.124,-0.906,0.0
8.096,-0.12,-0.914,0.0
7.818,-0.118,-0.925,0.0
9.765,-0.146,-0.879,0.0
9.293,-0.141,-0.886,0.0
8.883,-0.136,-0.895,0.0
8.503,-0.131,-0.903,0.0
8.167,-0.128,-0.911,0.0
7.888,-0.124,-0.923,0.0
9.863,-0.155,-0.874,2.0
9.423,-0.149,-0.886,0.0
8.998,-0.144,-0.894,0.0
8.618,-0.139,-0.903,0.0
8.258,-0.135,-0.91,0.0
7.962,-0.131,-0.92,0.0
9.969,-0.164,-0.87,2.0
9.534,-0.158,-0.883,0.0
9.116,-0.152,-0.893,0.0
8.7,-0.147,-0.899,0.0
8.35,-0.142,-0.908,0.0
8.04,-0.138,-0.918,0.0
10.093,-0.173,-0.866,2.0
9.667,-0.167,-0.881,0.0
9.239,-0.161,-0.891,0.0
8.801,-0.154,-0.897,0.0
8.453,-0.149,-0.907,0.0
8.121,-0.145,-0.915,0.0
10.265,-0.182,-0.866,0.0
9.783,-0.175,-0.877,2.0
9.36,-0.169,-0.889,0.0
8.944,-0.162,-0.898,0.0
8.564,-0.157,-0.906,0.0
8.213,-0.152,-0.913,0.0
10.446,-0.192,-0.866,0.0
9.89,-0.183,-0.872,2.0
9.473,-0.177,-0.886,0.0
9.035,-0.17,-0.894,0.0
8.642,-0.163,-0.901,0.0
8.316,-0.158,-0.912,0.0
10.59,-0.201,-0.862,0.0
10.033,-0.191,-0.87,1.0
9.594,-0.184,-0.883,0.0
9.192,-0.178,-0.895,0.0
8.76,-0.171,-0.9,0.0
8.412,-0.165,-0.909,0.0
10.753,-0.21,-0.859,0.0
10.191,-0.2,-0.868,0.0
9.75,-0.193,-0.882,1.0
9.302,-0.185,-0.892,0.0
8.888,-0.178,-0.899,0.0
8.512,-0.171,-0.907,0.0
10.913,-0.218,-0.854,0.0
10.402,-0.209,-0.869,0.0
9.83,-0.199,-0.873,2.0
9.403,-0.192,-0.886,0.0
8.986,-0.184,-0.895,0.0
8.618,-0.178,-0.904,0.0
11.098,-0.228,-0.851,0.0
10.559,-0.218,-0.865,0.0
9.976,-0.207,-0.87,1.0
9.571,-0.2,-0.887,0.0
9.14,-0.192,-0.895,0.0
8.73,-0.184,-0.901,0.0
11.295,-0.237,-0.847,0.0
10.73,-0.226,-0.862,0.0
10.163,-0.215,-0.87,0.0
9.717,-0.207,-0.884,0.0
9.285,-0.199,-0.894,0.0
8.869,-0.191,-0.901,0.0
11.499,-0.246,-0.844,0.0
10.866,-0.234,-0.855,0.0
10.343,-0.223,-0.868,0.0
9.81,-0.213,-0.876,2.0
9.42,-0.205,-0.891,0.0
8.998,-0.197,-0.899,0.0
11.686,-0.255,-0.838,0.0
11.059,-0.242,-0.851,0.0
10.532,-0.231,-0.866,0.0
9.948,-0.22,-0.872,1.0
9.55,-0.212,-0.887,0.0
9.124,-0.203,-0.896,0.0
11.9,-0.263,-0.833,1.0
11.281,-0.251,-0.849,0.0
10.699,-0.239,-0.862,0.0
10.146,-0.227,-0.871,0.0
9.736,-0.219,-0.887,0.0
9.259,-0.209,-0.893,0.0
12.119,-0.272,-0.828,1.0
11.476,-0.259,-0.844,0.0
10.867,-0.246,-0.856,0.0
10.333,-0.235,-0.87,0.0
9.82,-0.224,-0.878,2.0
9.413,-0.215,-0.891,0.0
12.37,-0.281,-0.823,0.0
11.686,-0.267,-0.839,0.0
11.076,-0.254,-0.853,0.0
10.532,-0.242,-0.868,0.0
9.963,-0.23,-0.873,1.0
9.548,-0.221,-0.887,0.0
12.615,-0.29,-0.817,0.0
11.898,-0.274,-0.833,1.0
11.277,-0.261,-0.849,0.0
10.716,-0.249,-0.864,0.0
10.172,-0.237,-0.873,0.0
9.738,-0.227,-0.887,1.0
12.885,-0.299,-0.812,0.0
12.153,-0.283,-0.829,0.0
11.507,-0.268,-0.845,0.0
10.902,-0.255,-0.859,0.0
10.363,-0.243,-0.871,0.0
9.832,-0.231,-0.878,2.0
13.164,-0.308,-0.805,0.0
12.404,-0.291,-0.824,0.0
11.707,-0.275,-0.839,0.0
11.113,-0.262,-0.855,0.0
10.575,-0.249,-0.869,0.0
10.008,-0.237,-0.875,0.0
13.47,-0.317,-0.799,1.0
12.645,-0.298,-0.816,1.0
11.945,-0.282,-0.833,1.0
11.301,-0.267,-0.849,0.0
10.744,-0.255,-0.863,0.0
10.225,-0.243,-0.875,0.0
13.75,-0.325,-0.791,0.0
12.946,-0.306,-0.812,1.0
12.199,-0.289,-0.828,0.0
11.549,-0.274,-0.846,0.0
10.959,-0.261,-0.86,0.0
10.412,-0.248,-0.872,0.0
14.078,-0.333,-0.784,1.0
13.236,-0.314,-0.805,1.0
12.467,-0.296,-0.824,1.0
11.752,-0.279,-0.839,1.0
11.157,-0.266,-0.855,0.0
10.604,-0.253,-0.868,0.0
14.406,-0.341,-0.774,1.0
13.523,-0.321,-0.797,1.0
12.727,-0.302,-0.817,0.0
11.999,-0.285,-0.834,1.0
11.376,-0.271,-0.85,0.0
10.797,-0.257,-0.863,0.0
14.833,-0.351,-0.769,1.0
13.834,-0.328,-0.789,1.0
13.026,-0.309,-0.811,1.0
12.286,-0.292,-0.83,0.0
11.614,-0.276,-0.845,0.0
11.019,-0.262,-0.859,0.0
15.23,-0.36,-0.761,1.0
14.172,-0.335,-0.781,1.0
13.348,-0.316,-0.805,1.0
12.531,-0.297,-0.822,0.0
11.826,-0.28,-0.838,0.0
11.216,-0.266,-0.853,0.0
15.6,-0.367,-0.749,1.0
14.564,-0.343,-0.775,1.0
13.625,-0.321,-0.796,1.0
12.836,-0.302,-0.818,0.0
12.105,-0.285,-0.834,0.0
11.46,-0.27,-0.849,0.0
16.09,-0.377,-0.742,1.0
14.98,-0.351,-0.768,1.0
13.942,-0.326,-0.788,1.0
13.113,-0.307,-0.81,0.0
12.365,-0.289,-0.828,0.0
11.691,-0.274,-0.844,0.0
16.633,-0.387,-0.735,1.0
15.359,-0.357,-0.758,1.0
14.283,-0.332,-0.779,1.0
13.446,-0.312,-0.805,1.0
12.642,-0.293,-0.822,1.0
11.918,-0.276,-0.837,1.0
17.122,-0.394,-0.723,1.0
15.781,-0.363,-0.748,1.0
14.697,-0.338,-0.773,1.0
13.744,-0.316,-0.796,1.0
12.934,-0.297,-0.816,0.0
12.2,-0.28,-0.833,0.0
17.679,-0.403,-0.712,1.0
16.263,-0.37,-0.739,0.0
15.109,-0.344,-0.765,1.0
14.078,-0.32,-0.787,1.0
13.262,-0.301,-0.81,0.0
12.477,-0.283,-0.827,0.0
18.245,-0.411,-0.7,1.0
16.849,-0.379,-0.733,1.0
15.52,-0.348,-0.756,1.0
14.455,-0.324,-0.78,1.0
13.541,-0.303,-0.801,1.0
12.751,-0.285,-0.82,1.0
18.828,-0.418,-0.685,1.0
17.379,-0.385,-0.722,1.0
15.967,-0.353,-0.746,1.0
14.868,-0.328,-0.773,1.0
13.874,-0.305,-0.793,1.0
13.057,-0.287,-0.814,0.0
19.514,-0.426,-0.671,1.0
17.903,-0.39,-0.708,1.0
16.501,-0.358,-0.738,1.0
15.27,-0.331,-0.764,1.0
14.212,-0.307,-0.784,1.0
13.397,-0.289,-0.809,1.0
20.192,-0.433,-0.655,1.0
18.469,-0.395,-0.695,1.0
16.991,-0.362,-0.727,1.0
15.671,-0.333,-0.753,1.0
14.639,-0.31,-0.779,1.0
13.686,-0.289,-0.799,1.0
21.035,-0.441,-0.641,1.0
19.115,-0.4,-0.681,1.0
17.593,-0.367,-0.718,1.0
16.186,-0.337,-0.746,1.0
15.045,-0.312,-0.771,1.0
14.001,-0.289,-0.79,1.0
21.987,-0.451,-0.627,3.0
19.829,-0.405,-0.668,1.0
18.135,-0.369,-0.704,1.0
16.622,-0.337,-0.733,3.0
15.451,-0.312,-0.761,1.0
14.392,-0.29,-0.784,1.0
22.724,-0.454,-0.603,3.0
20.532,-0.408,-0.65,1.0
18.744,-0.372,-0.69,1.0
17.263,-0.341,-0.727,1.0
15.898,-0.313,-0.752,1.0
14.817,-0.29,-0.777,1.0
23.711,-0.461,-0.582,1.0
21.397,-0.414,-0.636,1.0
19.424,-0.374,-0.677,1.0
17.778,-0.341,-0.713,1.0
16.479,-0.314,-0.746,1.0
15.208,-0.289,-0.767,1.0
24.866,-0.468,-0.561,1.0
22.309,-0.418,-0.618,1.0
20.104,-0.374,-0.661,1.0
18.361,-0.34,-0.7,1.0
16.897,-0.312,-0.732,1.0
15.609,-0.286,-0.757,1.0
25.864,-0.47,-0.532,1.0
23.218,-0.42,-0.598,1.0
20.898,-0.376,-0.646,1.0
18.97,-0.339,-0.686,1.0
17.484,-0.311,-0.723,1.0
16.127,-0.285,-0.75,1.0
26.893,-0.471,-0.501,1.0
24.144,-0.42,-0.574,1.0
21.765,-0.376,-0.63,1.0
19.673,-0.338,-0.673,1.0
18.043,-0.308,-0.711,1.0
16.593,-0.281,-0.739,0.0
28.213,-0.474,-0.471,1.0
25.24,-0.421,-0.551,1.0
22.696,-0.376,-0.612,1.0
20.372,-0.335,-0.657,1.0
18.579,-0.303,-0.695,1.0
17.155,-0.278,-0.731,1.0
29.404,-0.472,-0.432,2.0
26.321,-0.419,-0.523,1.0
23.563,-0.372,-0.59,2.0
21.207,-0.332,-0.642,1.0
19.275,-0.299,-0.684,1.0
17.718,-0.273,-0.72,1.0
30.646,-0.467,-0.391,1.0
27.445,-0.415,-0.492,1.0
24.543,-0.368,-0.567,2.0
22.096,-0.328,-0.627,1.0
19.968,-0.294,-0.669,1.0
18.254,-0.266,-0.706,1.0
32.851,-0.474,-0.355,1.0
28.682,-0.41,-0.459,1.0
25.645,-0.363,-0.542,1.0
22.996,-0.322,-0.607,1.0
20.665,-0.287,-0.653,1.0
18.88,-0.259,-0.694,1.0
36.006,-0.488,-0.32,1.0
29.869,-0.4,-0.419,2.0
26.766,-0.355,-0.514,1.0
23.87,-0.313,-0.584,1.0
21.516,-0.279,-0.638,1.0
19.515,-0.25,-0.679,1.0
42.147,-0.533,-0.293,1.0
31.614,-0.395,-0.383,1.0
27.874,-0.344,-0.482,1.0
24.98,-0.305,-0.564,1.0
22.39,-0.27,-0.621,1.0
20.174,-0.24,-0.664,1.0
43.799,-0.514,-0.221,2.0
33.549,-0.388,-0.343,1.0
29.193,-0.333,-0.449,3.0
25.97,-0.292,-0.537,1.0
23.316,-0.258,-0.603,1.0
20.959,-0.229,-0.65,1.0
47.346,-0.509,-0.149,2.0
38.445,-0.407,-0.32,13.0
30.283,-0.316,-0.409,3.0
26.985,-0.277,-0.507,1.0
24.168,-0.244,-0.579,1.0
21.77,-0.216,-0.635,2.0
50.856,-0.495,-0.065,8.0
42.026,-0.402,-0.271,1.0
31.954,-0.3,-0.372,1.0
28.247,-0.261,-0.478,4.0
25.254,-0.229,-0.558,1.0
22.719,-0.202,-0.62,1.0
51.376,-0.447,0.029,4.0
47.388,-0.404,-0.218,4.0
33.988,-0.284,-0.332,1.0
29.357,-0.24,-0.442,2.0
26.339,-0.21,-0.533,3.0
23.538,-0.184,-0.599,2.0
0.0,0.0,0.0,0.0
46.663,-0.347,-0.129,6.0
40.382,-0.294,-0.321,6.0
30.515,-0.216,-0.404,1.0
27.249,-0.188,-0.502,1.0
24.4,-0.164,-0.576,2.0
61.706,-0.402,0.262,7.0
46.334,-0.294,-0.044,3.0
0.0,0.0,0.0,0.0
32.431,-0.193,-0.37,1.0
28.53,-0.164,-0.474,2.0
25.526,-0.142,-0.557,1.0
76.692,-0.413,0.463,14.0
50.585,-0.263,0.043,16.0
40.252,-0.201,-0.174,3.0
34.118,-0.164,-0.328,0.0
29.607,-0.136,-0.439,2.0
26.479,-0.116,-0.53,1.0
79.349,-0.335,0.622,127.0
56.082,-0.225,0.148,16.0
43.012,-0.164,-0.109,18.0
39.024,-0.141,-0.306,2.0
30.673,-0.104,-0.4,1.0
27.477,-0.088,-0.501,2.0
79.461,-0.238,0.766,151.0
61.715,-0.172,0.273,7.0
45.964,-0.119,-0.035,16.0
39.357,-0.093,-0.239,15.0
32.386,-0.07,-0.365,2.0
28.711,-0.056,-0.473,2.0
79.462,-0.14,0.904,151.0
76.393,-0.118,0.472,18.0
50.996,-0.068,0.049,3.0
40.121,-0.045,-0.174,29.0
33.855,-0.031,-0.323,0.0
29.624,-0.021,-0.437,2.0
79.461,-0.039,1.042,151.0
79.388,-0.022,0.628,84.0
55.989,-0.003,0.151,26.0
0.0,0.0,0.0,0.0
38.339,0.014,-0.299,5.0
30.701,0.018,-0.4,1.0
79.452,0.063,1.178,151.0
79.453,0.081,0.764,150.0
61.755,0.077,0.272,11.0
0.0,0.0,0.0,0.0
38.819,0.065,-0.238,14.0
32.538,0.062,-0.369,1.0
79.455,0.17,1.314,160.0
79.471,0.187,0.898,151.0
76.263,0.197,0.464,28.0
47.993,0.135,0.036,21.0
39.45,0.119,-0.176,40.0
37.782,0.123,-0.366,0.0
79.461,0.278,1.446,151.0
79.45,0.296,1.031,151.0
77.126,0.305,0.597,41.0
54.759,0.229,0.131,29.0
43.929,0.193,-0.124,4.0
37.798,0.175,-0.304,8.0
59.277,0.289,1.176,20.0
59.291,0.303,0.866,62.0
59.301,0.318,0.556,11.0
55.013,0.307,0.222,65.0
0.0,0.0,0.0,0.0
38.306,0.232,-0.246,14.0
48.147,0.303,1.033,95.0
48.126,0.315,0.781,76.0
48.105,0.326,0.528,56.0
48.121,0.338,0.271,48.0
47.776,0.347,0.019,53.0
38.88,0.291,-0.188,46.0
48.12,0.373,1.11,115.0
48.102,0.385,0.857,115.0
48.087,0.396,0.605,112.0
48.034,0.408,0.347,105.0
48.009,0.419,0.095,83.0
39.768,0.357,-0.129,15.0
48.123,0.444,1.185,109.0
48.113,0.456,0.932,106.0
48.092,0.468,0.679,107.0
48.059,0.48,0.422,95.0
48.031,0.491,0.17,91.0
44.492,0.467,-0.076,19.0
48.178,0.517,1.261,87.0
48.145,0.529,1.007,73.0
48.136,0.541,0.754,70.0
48.099,0.553,0.496,98.0
48.054,0.564,0.242,79.0
47.152,0.566,-0.009,41.0
55.035,0.675,1.524,109.0
55.076,0.689,1.235,51.0
189.195,2.417,3.247,19.0
121.231,1.58,1.431,15.0
48.176,0.64,0.314,12.0
47.971,0.649,0.06,52.0
55.105,0.761,1.607,10.0
176.586,2.485,4.222,28.0
189.954,2.722,3.539,28.0
126.364,1.843,1.675,27.0
77.88,1.156,0.622,34.0
57.897,0.874,0.156,6.0
132.946,2.045,4.072,12.0
176.257,2.757,4.467,7.0
190.062,3.023,3.814,23.0
126.806,2.05,1.862,39.0
89.508,1.47,0.841,9.0
0.0,0.0,0.0,0.0
132.943,2.258,4.261,25.0
160.328,2.763,4.289,17.0
128.325,2.246,2.755,9.0
127.508,2.266,2.051,33.0
89.962,1.623,0.972,9.0
61.765,1.13,0.34,9.0
128.068,2.382,4.282,20.0
128.097,2.416,3.605,27.0
128.057,2.447,2.924,33.0
127.923,2.48,2.231,8.0
120.991,2.377,1.47,5.0
74.974,1.492,0.513,13.0
128.016,2.588,4.452,56.0
128.063,2.622,3.775,52.0
128.106,2.657,3.096,47.0
106.171,2.231,1.993,5.0
89.846,1.912,1.21,6.0
77.916,1.679,0.636,36.0
152.725,3.338,5.513,39.0
159.353,3.527,4.906,28.0
170.167,3.813,4.336,4.0
0.0,0.0,0.0,0.0
106.187,2.435,1.566,5.0
78.228,1.816,0.739,10.0
152.596,3.591,5.704,41.0
158.472,3.773,5.082,17.0
157.966,3.804,4.226,4.0
100.48,2.447,2.143,2.0
100.403,2.473,1.609,6.0
93.312,2.323,0.998,4.0
152.238,3.842,5.884,39.0
159.295,4.063,5.308,12.0
138.022,3.556,3.862,13.0
0.0,0.0,0.0,0.0
0.0,0.0,0.0,0.0
106.067,2.821,1.263,39.0
152.038,4.092,6.059,43.0
152.431,4.144,5.261,38.0
154.045,4.23,4.494,36.0
0.0,0.0,0.0,0.0
0.0,0.0,0.0,0.0
106.041,3.0,1.387,6.0
152.058,4.353,6.239,34.0
152.076,4.396,5.428,41.0
153.967,4.494,4.673,36.0
154.152,4.54,3.839,4.0
0.0,0.0,0.0,0.0
100.626,3.021,1.432,2.0
151.999,4.615,6.411,36.0
152.101,4.661,5.602,41.0
157.84,4.881,4.969,19.0
168.727,5.263,4.391,4.0
0.0,0.0,0.0,0.0
0.0,0.0,0.0,0.0
152.525,4.895,6.601,31.0
152.45,4.936,5.781,34.0
153.387,5.009,4.995,12.0
159.08,5.24,4.313,8.0
0.0,0.0,0.0,0.0
0.0,0.0,0.0,0.0
152.522,5.167,6.767,32.0
152.809,5.217,5.958,38.0
152.742,5.258,5.136,15.0
159.03,5.518,4.478,15.0
0.0,0.0,0.0,0.0
0.0,0.0,0.0,0.0
152.823,5.445,6.937,20.0
152.525,5.476,6.103,30.0
153.557,5.557,5.319,29.0
160.152,5.84,4.671,18.0
0.0,0.0,0.0,0.0
0.0,0.0,0.0,0.0
123.765,4.631,5.742,27.0
124.379,4.689,5.101,15.0
158.077,6.004,5.632,6.0
162.246,6.208,4.892,6.0
0.0,0.0,0.0,0.0
0.0,0.0,0.0,0.0
123.672,4.849,5.856,25.0
124.212,4.904,5.212,26.0
157.721,6.272,5.768,15.0
161.95,6.484,5.034,14.0
158.423,6.388,4.07,3.0
0.0,0.0,0.0,0.0
123.824,5.078,5.978,22.0
124.138,5.126,5.323,32.0
157.629,6.552,5.907,18.0
0.0,0.0,0.0,0.0
173.308,7.3,4.607,16.0
0.0,0.0,0.0,0.0
124.303,5.323,6.111,23.0
124.276,5.355,5.437,31.0
124.424,5.398,4.772,13.0
156.876,6.848,5.151,13.0
160.129,7.036,4.393,10.0
0.0,0.0,0.0,0.0
132.457,5.913,6.625,9.0
129.667,5.825,5.783,31.0
124.378,5.622,4.873,30.0
173.843,7.905,5.852,13.0
157.324,7.199,4.445,7.0
0.0,0.0,0.0,0.0
123.442,5.735,6.273,27.0
129.619,6.056,5.882,35.0
157.14,7.384,6.279,15.0
156.653,7.403,5.393,11.0
156.156,7.424,4.53,9.0
0.0,0.0,0.0,0.0
123.34,5.953,6.361,28.0
129.172,6.27,5.96,28.0
174.564,8.52,7.105,8.0
157.057,7.71,5.524,16.0
156.327,7.718,4.651,16.0
0.0,0.0,0.0,0.0
132.405,6.633,6.925,24.0
132.192,6.659,6.194,30.0
157.534,7.979,6.525,15.0
157.459,8.017,5.648,15.0
157.612,8.068,4.797,13.0
156.372,8.049,3.911,6.0
150.057,7.791,7.95,21.0
162.453,8.477,7.721,8.0
159.943,8.391,6.731,17.0
157.496,8.306,5.755,14.0
162.377,8.607,5.048,9.0
162.49,8.659,4.168,12.0
155.997,8.384,8.365,15.0
33.477,1.808,1.612,2.0
159.512,8.66,6.813,10.0
157.81,8.61,5.864,13.0
156.948,8.606,4.975,10.0
163.34,9.001,4.288,17.0
127.248,7.071,6.901,10.0
33.439,1.867,1.63,18.0
162.307,9.107,7.027,12.0
158.073,8.911,5.964,18.0
157.213,8.904,5.072,13.0
163.455,9.304,4.382,16.0
128.637,7.383,7.049,21.0
33.446,1.928,1.649,52.0
162.147,9.391,7.108,16.0
158.512,9.224,6.066,11.0
157.493,9.208,5.166,14.0
164.054,9.635,4.484,7.0
128.482,7.609,7.107,36.0
127.622,7.591,6.36,32.0
33.448,1.998,1.483,0.0
158.31,9.5,6.137,11.0
157.954,9.52,5.259,9.0
158.39,9.587,4.405,8.0
128.741,7.857,7.183,36.0
127.852,7.835,6.431,27.0
158.023,9.724,7.08,20.0
33.417,2.065,1.31,17.0
33.431,2.075,1.128,17.0
33.452,2.085,0.945,2.0
128.391,8.069,7.22,19.0
128.143,8.087,6.501,40.0
158.044,10.015,7.15,37.0
158.129,10.06,6.267,36.0
158.111,10.1,5.399,37.0
158.166,10.147,4.533,46.0
128.459,8.307,7.276,23.0
33.408,2.169,1.708,29.0
33.47,2.181,1.527,2.0
158.049,10.342,6.325,41.0
158.078,10.386,5.457,47.0
158.111,10.429,4.588,68.0
66.977,4.452,3.817,18.0
33.407,2.229,1.719,18.0
33.412,2.237,1.535,2.0
157.95,10.617,6.374,38.0
158.008,10.662,5.505,43.0
158.034,10.704,4.637,34.0
128.423,8.764,7.359,8.0
33.405,2.288,1.729,11.0
121.123,8.326,5.604,8.0
157.868,10.893,6.417,43.0
157.949,10.938,5.548,39.0
30.507,2.12,0.903,7.0
172.898,12.108,9.956,14.0
33.403,2.347,1.738,8.0
113.539,8.006,5.283,17.0
157.776,11.163,6.452,40.0
157.838,11.208,5.583,18.0
30.399,2.166,0.907,10.0
157.348,11.299,9.099,30.0
157.357,11.338,8.226,24.0
115.14,8.325,5.382,10.0
157.257,11.408,6.465,21.0
157.233,11.446,5.595,27.0
30.341,2.216,0.912,39.0
134.418,9.891,7.799,14.0
134.246,9.91,7.045,8.0
110.497,8.182,5.185,29.0
66.538,4.943,2.747,6.0
30.337,2.261,1.084,74.0
30.326,2.268,0.916,150.0
132.053,9.948,7.682,14.0
131.914,9.968,6.942,12.0
109.29,8.285,5.145,6.0
30.491,2.318,1.262,3.0
30.262,2.308,1.085,180.0
30.289,2.318,0.919,39.0
129.788,10.005,7.566,15.0
129.674,10.025,6.837,9.0
106.253,8.24,5.012,22.0
30.477,2.37,1.265,4.0
30.253,2.36,1.087,179.0
30.282,2.37,0.921,34.0
74.625,5.881,4.356,20.0
127.515,10.078,6.732,27.0
106.167,8.415,5.014,5.0
30.509,2.425,1.268,1.0
30.254,2.412,1.089,181.0
30.285,2.421,0.922,33.0
74.522,6.001,4.352,20.0
74.571,6.021,3.94,29.0
74.559,6.037,3.523,37.0
74.514,6.05,3.099,40.0
30.266,2.464,1.09,182.0
30.287,2.472,0.922,29.0
74.53,6.127,4.353,16.0
74.571,6.146,3.938,32.0
74.542,6.159,3.521,27.0
74.554,6.178,3.099,29.0
30.326,2.52,1.091,152.0
30.317,2.526,0.922,30.0
121.54,10.195,7.093,9.0
121.515,10.221,6.412,11.0
103.193,8.701,4.868,17.0
34.278,2.897,1.422,69.0
34.284,2.906,1.231,109.0
30.343,2.578,0.92,15.0
120.79,10.332,7.039,33.0
103.175,8.848,5.435,17.0
103.219,8.873,4.86,17.0
118.918,10.247,4.923,16.0
120.654,10.423,4.322,50.0
30.375,2.631,0.918,28.0
119.095,10.383,6.926,17.0
119.083,10.405,6.259,26.0
103.208,9.04,4.847,18.0
117.739,10.337,4.858,8.0
120.623,10.617,4.302,57.0
30.461,2.688,0.916,18.0
117.296,10.417,6.804,19.0
117.286,10.439,6.144,24.0
103.215,9.208,4.829,19.0
115.929,10.367,4.762,7.0
115.779,10.379,4.108,8.0
30.509,2.741,0.911,6.0
114.761,10.376,6.633,22.0
114.762,10.4,5.989,41.0
103.246,9.376,4.809,16.0
114.758,10.445,4.689,48.0
114.797,10.472,4.048,30.0
13.865,1.267,0.411,7.0
114.75,10.557,6.606,17.0
114.718,10.577,5.958,15.0
13.843,1.279,0.641,5.0
13.828,1.28,0.561,6.0
13.837,1.284,0.484,17.0
13.853,1.288,0.407,26.0
13.836,1.294,0.792,11.0
13.818,1.295,0.714,13.0
13.804,1.296,0.635,22.0
13.816,1.3,0.557,27.0
13.836,1.305,0.48,33.0
13.823,1.306,0.402,33.0
13.816,1.313,0.787,31.0
13.798,1.314,0.708,36.0
13.801,1.317,0.631,38.0
13.806,1.32,0.552,36.0
13.817,1.324,0.474,36.0
13.811,1.326,0.397,35.0
13.797,1.332,0.781,40.0
13.8,1.335,0.703,85.0
13.783,1.336,0.625,58.0
13.783,1.339,0.546,39.0
13.804,1.343,0.469,40.0
13.795,1.345,0.391,36.0
13.786,1.352,0.775,67.0
13.786,1.354,0.697,145.0
13.779,1.356,0.619,71.0
13.782,1.359,0.54,72.0
13.793,1.362,0.463,73.0
13.783,1.364,0.385,37.0
13.778,1.371,0.769,102.0
13.777,1.373,0.691,150.0
13.765,1.374,0.613,40.0
13.779,1.378,0.534,107.0
13.789,1.382,0.457,80.0
13.78,1.383,0.379,38.0
13.773,1.39,0.763,92.0
13.772,1.392,0.685,150.0
13.751,1.392,0.606,52.0
13.77,1.396,0.527,105.0
13.785,1.401,0.45,84.0
13.769,1.401,0.372,37.0
13.767,1.408,0.756,108.0
13.771,1.411,0.678,150.0
13.754,1.411,0.599,53.0
13.77,1.415,0.521,89.0
13.776,1.418,0.443,82.0
13.772,1.42,0.365,37.0
13.767,1.427,0.748,83.0
13.773,1.43,0.671,150.0
13.757,1.43,0.592,71.0
13.769,1.434,0.513,77.0
13.78,1.437,0.436,78.0
13.773,1.439,0.358,36.0
13.77,1.446,0.741,87.0
13.771,1.448,0.663,150.0
13.772,1.45,0.585,122.0
13.773,1.452,0.506,79.0
13.785,1.456,0.428,59.0
13.777,1.457,0.35,37.0
13.774,1.464,0.733,102.0
13.774,1.466,0.655,150.0
13.776,1.468,0.577,112.0
13.769,1.47,0.497,47.0
13.777,1.473,0.42,45.0
13.785,1.476,0.342,36.0
13.779,1.482,0.725,43.0
13.784,1.485,0.647,120.0
13.778,1.486,0.569,50.0
13.786,1.489,0.489,37.0
13.787,1.491,0.411,35.0
13.795,1.494,0.333,34.0
13.791,1.5,0.717,37.0
13.794,1.502,0.639,39.0
13.789,1.504,0.56,35.0
13.799,1.507,0.481,32.0
13.802,1.509,0.403,30.0
13.804,1.512,0.324,29.0
13.8,1.518,0.708,34.0
13.811,1.521,0.63,33.0
13.789,1.52,0.551,22.0
13.797,1.523,0.471,23.0
32.528,3.596,0.927,16.0
13.816,1.529,0.315,17.0
13.819,1.536,0.699,26.0
13.825,1.538,0.621,14.0
32.615,3.634,1.28,6.0
32.584,3.635,1.091,5.0
32.547,3.635,0.904,155.0
32.468,3.631,0.718,4.0
13.822,1.552,0.69,8.0
35.877,4.033,1.586,150.0
32.736,3.684,1.261,88.0
32.549,3.667,1.066,26.0
32.562,3.672,0.881,159.0
32.493,3.669,0.694,11.0
10.001,1.134,0.491,2.0
35.839,4.067,1.558,60.0
32.735,3.719,1.236,152.0
32.528,3.699,1.04,8.0
32.503,3.701,0.854,8.0
32.566,3.712,0.671,6.0
10.016,1.146,0.484,14.0
9.987,1.144,0.426,12.0
32.718,3.751,1.21,151.0
32.505,3.73,1.013,6.0
32.479,3.731,0.828,4.0
32.581,3.747,0.645,4.0
10.009,1.155,0.476,21.0
10.013,1.157,0.419,38.0
32.674,3.779,1.181,17.0
10.007,1.158,0.303,21.0
10.007,1.159,0.246,19.0
10.002,1.16,0.189,18.0
10.003,1.164,0.467,72.0
10.004,1.166,0.41,132.0
9.997,1.166,0.353,126.0
9.986,1.166,0.294,75.0
10.002,1.168,0.238,75.0
10.004,1.17,0.181,22.0
9.995,1.173,0.458,89.0
9.993,1.174,0.401,148.0
9.99,1.174,0.344,120.0
9.985,1.175,0.286,83.0
9.992,1.176,0.229,82.0
9.997,1.178,0.172,38.0
9.984,1.181,0.449,89.0
9.982,1.181,0.392,137.0
9.982,1.182,0.335,142.0
9.98,1.183,0.277,87.0
9.986,1.184,0.22,85.0
9.983,1.185,0.163,41.0
9.981,1.189,0.44,100.0
9.979,1.189,0.383,150.0
9.978,1.19,0.325,150.0
9.971,1.19,0.267,101.0
9.977,1.192,0.211,94.0
9.983,1.193,0.154,46.0
9.975,1.196,0.43,94.0
9.979,1.197,0.373,150.0
9.983,1.199,0.316,150.0
9.968,1.198,0.258,117.0
9.972,1.199,0.201,99.0
9.977,1.201,0.144,55.0
9.973,1.204,0.421,101.0
9.972,1.204,0.363,150.0
9.976,1.206,0.306,150.0
9.965,1.205,0.248,129.0
9.974,1.207,0.191,109.0
9.972,1.208,0.134,59.0
9.972,1.211,0.411,113.0
9.974,1.212,0.354,150.0
9.975,1.213,0.297,150.0
9.972,1.213,0.239,127.0
9.979,1.215,0.182,119.0
9.968,1.214,0.125,61.0
9.972,1.218,0.401,106.0
9.973,1.219,0.344,150.0
9.971,1.219,0.287,150.0
9.969,1.219,0.229,117.0
9.971,1.22,0.172,109.0
9.971,1.221,0.115,69.0
9.974,1.224,0.391,107.0
9.975,1.225,0.334,150.0
9.975,1.226,0.277,150.0
