X,Y,Z,Reflectivity
13.787,1.441,-0.259,38.0
13.777,1.442,-0.337,39.0
13.772,1.443,-0.416,35.0
13.729,1.44,-0.495,23.0
13.52,1.42,-0.565,10.0
13.067,1.374,-0.621,9.0
13.792,1.452,-0.276,38.0
13.783,1.453,-0.355,37.0
13.765,1.452,-0.433,38.0
13.706,1.447,-0.512,17.0
13.373,1.414,-0.576,10.0
13.062,1.383,-0.638,9.0
13.791,1.462,-0.294,38.0
13.772,1.461,-0.372,36.0
13.762,1.461,-0.451,37.0
13.694,1.456,-0.529,15.0
13.2,1.405,-0.585,13.0
12.992,1.384,-0.651,7.0
13.792,1.471,-0.311,36.0
13.773,1.47,-0.39,41.0
13.755,1.469,-0.468,33.0
13.661,1.461,-0.545,12.0
13.111,1.403,-0.598,7.0
12.762,1.367,-0.656,4.0
13.784,1.478,-0.329,35.0
13.775,1.479,-0.407,52.0
13.731,1.475,-0.485,24.0
13.544,1.456,-0.557,10.0
13.07,1.407,-0.613,9.0
12.534,1.35,-0.66,1.0
13.784,1.486,-0.346,31.0
13.776,1.486,-0.425,38.0
13.715,1.481,-0.502,19.0
13.335,1.441,-0.566,12.0
13.08,1.415,-0.63,10.0
12.297,1.331,-0.663,1.0
13.784,1.493,-0.364,31.0
13.767,1.492,-0.442,33.0
13.7,1.486,-0.519,19.0
13.272,1.441,-0.58,11.0
13.05,1.418,-0.645,10.0
12.071,1.313,-0.666,1.0
13.786,1.5,-0.381,32.0
13.764,1.498,-0.46,29.0
13.675,1.49,-0.535,13.0
13.17,1.436,-0.592,8.0
12.876,1.405,-0.653,4.0
11.881,1.297,-0.671,2.0
13.785,1.506,-0.399,34.0
13.735,1.501,-0.476,21.0
13.588,1.486,-0.549,11.0
13.062,1.429,-0.604,8.0
12.612,1.381,-0.656,1.0
11.643,1.276,-0.673,1.0
13.785,1.511,-0.416,31.0
13.724,1.505,-0.493,23.0
13.452,1.476,-0.561,8.0
13.067,1.435,-0.621,10.0
12.344,1.356,-0.658,1.0
11.466,1.261,-0.677,1.0
13.78,1.515,-0.434,28.0
13.725,1.51,-0.511,18.0
13.355,1.47,-0.574,10.0
13.052,1.437,-0.637,10.0
12.185,1.343,-0.665,2.0
11.283,1.244,-0.68,1.0
13.767,1.518,-0.451,27.0
13.698,1.511,-0.527,14.0
13.261,1.463,-0.586,8.0
12.948,1.429,-0.648,6.0
11.95,1.32,-0.667,2.0
11.064,1.223,-0.681,1.0
13.764,1.521,-0.468,24.0
13.638,1.507,-0.542,11.0
13.111,1.45,-0.596,7.0
12.73,1.408,-0.654,2.0
11.745,1.3,-0.671,1.0
10.892,1.206,-0.685,2.0
13.748,1.522,-0.485,21.0
13.485,1.493,-0.553,9.0
13.092,1.45,-0.612,9.0
12.442,1.379,-0.654,1.0
11.53,1.278,-0.673,2.0
10.736,1.191,-0.688,2.0
13.743,1.523,-0.502,22.0
13.392,1.485,-0.566,8.0
13.099,1.453,-0.629,9.0
12.247,1.359,-0.66,1.0
11.345,1.259,-0.676,1.0
10.588,1.176,-0.692,1.0
13.717,1.522,-0.518,17.0
13.306,1.477,-0.579,9.0
13.023,1.446,-0.641,7.0
12.067,1.34,-0.665,2.0
11.173,1.241,-0.68,1.0
10.404,1.156,-0.693,1.0
13.687,1.519,-0.534,13.0
13.185,1.464,-0.59,8.0
12.862,1.428,-0.65,3.0
11.878,1.32,-0.669,1.0
10.967,1.219,-0.681,1.0
10.26,1.14,-0.696,2.0
13.584,1.508,-0.547,11.0
13.082,1.453,-0.602,8.0
12.591,1.398,-0.651,1.0
11.635,1.292,-0.67,1.0
10.832,1.204,-0.686,2.0
10.117,1.125,-0.699,2.0
13.445,1.492,-0.557,9.0
13.097,1.454,-0.618,9.0
12.358,1.372,-0.654,1.0
11.463,1.273,-0.674,1.0
10.684,1.187,-0.69,1.0
9.993,1.11,-0.703,2.0
13.366,1.483,-0.57,10.0
13.068,1.45,-0.632,10.0
12.208,1.354,-0.661,1.0
11.298,1.254,-0.678,1.0
10.535,1.169,-0.693,1.0
9.865,1.095,-0.705,1.0
13.282,1.472,-0.582,10.0
13.0,1.441,-0.644,7.0
11.991,1.329,-0.663,2.0
11.104,1.231,-0.679,1.0
10.352,1.147,-0.693,1.0
9.745,1.08,-0.708,2.0
13.134,1.453,-0.591,8.0
12.813,1.418,-0.65,3.0
11.843,1.31,-0.669,2.0
10.919,1.208,-0.681,2.0
10.217,1.131,-0.696,2.0
9.695,1.073,-0.716,2.0
13.092,1.446,-0.604,10.0
12.552,1.386,-0.651,1.0
11.604,1.281,-0.669,1.0
10.808,1.194,-0.686,1.0
10.095,1.115,-0.699,2.0
9.597,1.06,-0.72,1.0
13.081,1.442,-0.619,11.0
12.327,1.358,-0.654,1.0
11.455,1.262,-0.674,1.0
10.661,1.175,-0.689,1.0
9.98,1.1,-0.703,2.0
9.488,1.045,-0.723,1.0
13.064,1.436,-0.633,11.0
12.202,1.341,-0.661,1.0
11.289,1.24,-0.676,1.0
10.522,1.156,-0.692,1.0
9.856,1.083,-0.705,1.0
9.364,1.029,-0.724,1.0
12.986,1.423,-0.643,8.0
11.991,1.314,-0.663,1.0
11.107,1.217,-0.678,1.0
10.363,1.135,-0.693,1.0
9.756,1.068,-0.709,2.0
9.27,1.015,-0.727,1.0
12.825,1.401,-0.65,4.0
11.848,1.294,-0.668,2.0
10.952,1.195,-0.68,1.0
10.229,1.116,-0.695,2.0
9.701,1.059,-0.715,1.0
9.185,1.002,-0.73,1.0
12.615,1.372,-0.652,1.0
11.648,1.267,-0.669,1.0
10.829,1.177,-0.684,2.0
10.104,1.098,-0.697,2.0
9.625,1.046,-0.72,1.0
9.102,0.989,-0.733,1.0
12.408,1.344,-0.655,1.0
11.527,1.248,-0.674,2.0
10.713,1.16,-0.688,1.0
10.004,1.083,-0.701,2.0
9.519,1.03,-0.722,1.0
9.008,0.974,-0.735,1.0
12.263,1.322,-0.659,1.0
11.333,1.222,-0.674,1.0
10.584,1.14,-0.69,1.0
9.902,1.067,-0.704,2.0
9.402,1.012,-0.722,1.0
8.939,0.962,-0.738,0.0
12.095,1.298,-0.662,2.0
11.197,1.201,-0.677,1.0
10.439,1.119,-0.691,2.0
9.797,1.05,-0.706,1.0
9.33,0.999,-0.726,1.0
8.822,0.945,-0.737,0.0
11.94,1.274,-0.666,2.0
11.049,1.179,-0.679,1.0
10.31,1.099,-0.693,2.0
9.716,1.035,-0.71,1.0
9.259,0.986,-0.73,1.0
8.564,0.912,-0.724,1.0
11.777,1.25,-0.668,2.0
10.948,1.161,-0.683,1.0
10.219,1.083,-0.696,2.0
9.677,1.025,-0.716,1.0
9.178,0.972,-0.732,1.0
8.368,0.886,-0.715,1.0
11.69,1.233,-0.674,3.0
10.84,1.142,-0.687,1.0
10.125,1.066,-0.699,2.0
9.609,1.011,-0.72,1.0
9.121,0.96,-0.736,1.0
8.183,0.86,-0.707,2.0
11.526,1.207,-0.675,2.0
10.724,1.123,-0.689,1.0
10.022,1.048,-0.701,2.0
9.52,0.995,-0.722,1.0
9.02,0.943,-0.735,0.0
8.002,0.836,-0.698,2.0
11.377,1.183,-0.676,2.0
10.599,1.102,-0.69,2.0
9.929,1.031,-0.703,2.0
9.437,0.98,-0.723,1.0
8.939,0.927,-0.737,1.0
7.862,0.815,-0.693,3.0
11.249,1.162,-0.678,1.0
10.484,1.082,-0.691,2.0
9.845,1.015,-0.705,2.0
9.36,0.964,-0.725,1.0
8.878,0.914,-0.739,1.0
7.807,0.803,-0.695,4.0
11.167,1.144,-0.682,1.0
10.378,1.062,-0.693,2.0
9.761,0.998,-0.707,2.0
9.318,0.952,-0.729,1.0
8.806,0.899,-0.74,1.0
7.768,0.793,-0.697,4.0
11.073,1.125,-0.685,2.0
10.317,1.048,-0.697,2.0
9.704,0.984,-0.711,2.0
9.277,0.94,-0.733,1.0
8.75,0.886,-0.742,1.0
7.726,0.782,-0.699,4.0
10.958,1.104,-0.686,2.0
10.232,1.03,-0.698,1.0
9.661,0.972,-0.715,2.0
9.208,0.925,-0.735,1.0
8.627,0.866,-0.738,0.0
7.669,0.769,-0.7,4.0
10.867,1.085,-0.688,2.0
10.146,1.012,-0.7,2.0
9.638,0.96,-0.72,1.0
9.121,0.908,-0.734,1.0
8.351,0.831,-0.72,1.0
7.648,0.76,-0.703,4.0
10.796,1.068,-0.691,2.0
10.069,0.995,-0.701,2.0
9.594,0.947,-0.723,1.0
9.057,0.893,-0.735,1.0
8.14,0.802,-0.707,1.0
7.618,0.75,-0.706,4.0
10.724,1.05,-0.693,1.0
9.983,0.977,-0.702,2.0
9.53,0.931,-0.724,1.0
9.007,0.879,-0.737,1.0
8.011,0.781,-0.701,2.0
7.569,0.737,-0.706,4.0
10.646,1.032,-0.695,1.0
9.914,0.96,-0.703,3.0
9.467,0.916,-0.725,1.0
8.951,0.865,-0.738,1.0
7.967,0.769,-0.702,3.0
7.545,0.727,-0.708,4.0
10.542,1.011,-0.694,1.0
9.879,0.946,-0.707,2.0
9.409,0.9,-0.727,1.0
8.935,0.854,-0.742,1.0
7.918,0.755,-0.703,3.0
7.53,0.718,-0.711,4.0
10.481,0.994,-0.696,2.0
9.842,0.932,-0.709,2.0
9.368,0.886,-0.729,1.0
8.906,0.841,-0.744,0.0
7.903,0.746,-0.705,4.0
7.51,0.708,-0.713,4.0
10.422,0.977,-0.697,2.0
9.801,0.917,-0.711,2.0
9.333,0.872,-0.731,1.0
8.859,0.827,-0.745,0.0
7.853,0.732,-0.705,4.0
7.506,0.699,-0.716,4.0
10.377,0.961,-0.699,2.0
9.749,0.901,-0.712,2.0
9.303,0.859,-0.733,1.0
8.802,0.811,-0.744,1.0
7.852,0.723,-0.708,4.0
7.483,0.688,-0.718,4.0
10.333,0.945,-0.701,2.0
9.71,0.886,-0.714,2.0
9.273,0.845,-0.734,0.0
8.774,0.798,-0.745,1.0
7.805,0.709,-0.707,4.0
7.473,0.678,-0.72,5.0
10.306,0.93,-0.704,2.0
9.692,0.873,-0.716,2.0
9.258,0.833,-0.737,0.0
8.711,0.782,-0.743,1.0
7.797,0.699,-0.71,4.0
7.469,0.669,-0.722,5.0
10.266,0.914,-0.704,2.0
9.673,0.86,-0.718,1.0
9.213,0.818,-0.736,0.0
8.717,0.772,-0.747,1.0
7.763,0.687,-0.709,4.0
7.478,0.66,-0.726,5.0
10.224,0.898,-0.705,2.0
9.659,0.847,-0.721,2.0
9.182,0.804,-0.737,1.0
8.716,0.761,-0.75,1.0
7.764,0.677,-0.712,4.0
7.484,0.652,-0.729,5.0
10.209,0.884,-0.707,2.0
9.647,0.834,-0.722,1.0
9.17,0.791,-0.738,1.0
8.696,0.749,-0.75,1.0
7.776,0.668,-0.715,4.0
7.494,0.643,-0.732,4.0
10.177,0.868,-0.707,2.0
9.638,0.821,-0.724,1.0
9.152,0.778,-0.739,1.0
8.688,0.737,-0.752,1.0
7.76,0.657,-0.715,4.0
7.536,0.637,-0.737,4.0
10.163,0.854,-0.708,2.0
9.627,0.807,-0.725,1.0
9.137,0.765,-0.74,1.0
8.683,0.725,-0.753,0.0
7.785,0.649,-0.719,4.0
7.593,0.632,-0.744,4.0
10.16,0.84,-0.71,2.0
9.622,0.794,-0.726,1.0
9.127,0.752,-0.74,1.0
8.69,0.714,-0.755,0.0
7.808,0.64,-0.722,4.0
7.641,0.626,-0.75,3.0
10.168,0.827,-0.712,2.0
9.615,0.781,-0.727,2.0
9.137,0.74,-0.742,1.0
8.645,0.699,-0.752,1.0
7.852,0.633,-0.727,4.0
7.669,0.617,-0.753,4.0
10.178,0.814,-0.713,2.0
9.61,0.767,-0.727,2.0
9.141,0.728,-0.743,0.0
8.666,0.689,-0.754,1.0
7.9,0.626,-0.732,4.0
7.69,0.609,-0.756,3.0
10.172,0.8,-0.713,2.0
9.604,0.754,-0.727,2.0
9.169,0.718,-0.746,0.0
8.636,0.674,-0.752,1.0
7.953,0.62,-0.737,5.0
7.724,0.601,-0.759,4.0
10.156,0.785,-0.712,2.0
9.603,0.74,-0.727,2.0
9.158,0.704,-0.745,0.0
8.683,0.666,-0.756,1.0
7.972,0.61,-0.739,5.0
7.757,0.592,-0.762,4.0
10.166,0.771,-0.713,2.0
9.605,0.727,-0.727,2.0
9.167,0.692,-0.745,1.0
8.699,0.655,-0.757,1.0
8.01,0.602,-0.742,5.0
7.789,0.584,-0.765,3.0
10.187,0.759,-0.713,2.0
9.614,0.714,-0.727,2.0
9.18,0.68,-0.745,1.0
8.699,0.643,-0.756,2.0
8.061,0.594,-0.745,4.0
7.811,0.574,-0.766,3.0
10.212,0.746,-0.714,2.0
9.62,0.701,-0.726,2.0
9.208,0.669,-0.746,2.0
8.705,0.631,-0.755,2.0
8.126,0.587,-0.75,4.0
7.817,0.563,-0.765,2.0
10.231,0.732,-0.713,2.0
9.632,0.687,-0.725,3.0
9.216,0.656,-0.745,2.0
8.712,0.618,-0.754,2.0
8.245,0.584,-0.76,4.0
7.851,0.554,-0.767,1.0
10.265,0.72,-0.714,2.0
9.628,0.673,-0.723,3.0
9.245,0.645,-0.745,2.0
8.752,0.608,-0.755,3.0
8.323,0.577,-0.765,4.0
7.906,0.546,-0.771,1.0
10.318,0.708,-0.715,3.0
9.641,0.66,-0.721,3.0
9.279,0.633,-0.746,2.0
8.789,0.598,-0.756,4.0
8.355,0.567,-0.765,2.0
7.938,0.537,-0.771,1.0
10.373,0.697,-0.715,2.0
9.673,0.648,-0.721,2.0
9.321,0.622,-0.746,2.0
8.841,0.588,-0.758,4.0
8.401,0.557,-0.767,1.0
7.972,0.527,-0.772,1.0
10.443,0.686,-0.717,1.0
9.72,0.637,-0.721,2.0
9.364,0.611,-0.746,2.0
8.882,0.578,-0.758,3.0
8.436,0.547,-0.767,1.0
8.005,0.518,-0.772,1.0
10.5,0.675,-0.717,2.0
9.785,0.627,-0.722,2.0
9.433,0.602,-0.748,2.0
8.955,0.569,-0.761,2.0
8.473,0.537,-0.767,1.0
8.053,0.509,-0.773,1.0
10.572,0.663,-0.717,2.0
9.846,0.616,-0.722,2.0
9.487,0.591,-0.748,2.0
8.987,0.558,-0.759,1.0
8.518,0.527,-0.767,1.0
8.105,0.5,-0.775,1.0
10.639,0.652,-0.716,3.0
9.926,0.606,-0.723,2.0
9.55,0.581,-0.748,2.0
9.028,0.547,-0.758,1.0
8.562,0.517,-0.766,1.0
8.194,0.493,-0.779,1.0
10.706,0.64,-0.715,3.0
10.015,0.596,-0.724,2.0
9.59,0.569,-0.747,2.0
9.081,0.536,-0.758,1.0
8.599,0.506,-0.765,1.0
8.283,0.486,-0.783,1.0
10.805,0.629,-0.716,3.0
10.131,0.588,-0.727,2.0
9.626,0.556,-0.744,2.0
9.128,0.525,-0.756,1.0
8.668,0.497,-0.766,2.0
8.415,0.481,-0.79,2.0
10.894,0.618,-0.715,3.0
10.269,0.58,-0.731,2.0
9.691,0.545,-0.743,2.0
9.191,0.515,-0.756,2.0
8.736,0.488,-0.767,1.0
8.564,0.476,-0.799,2.0
10.989,0.607,-0.715,3.0
10.349,0.569,-0.73,3.0
9.775,0.536,-0.743,1.0
9.234,0.504,-0.753,2.0
8.822,0.479,-0.768,2.0
8.694,0.47,-0.805,2.0
11.088,0.596,-0.714,3.0
10.468,0.56,-0.731,2.0
9.845,0.525,-0.741,2.0
9.299,0.494,-0.752,2.0
8.94,0.472,-0.772,2.0
8.879,0.467,-0.816,2.0
11.207,0.586,-0.713,2.0
10.575,0.55,-0.731,2.0
9.937,0.515,-0.741,2.0
9.391,0.484,-0.752,2.0
9.086,0.466,-0.778,2.0
9.095,0.465,-0.828,2.0
11.262,0.572,-0.708,4.0
10.673,0.539,-0.729,2.0
10.028,0.504,-0.74,2.0
9.477,0.474,-0.752,2.0
9.242,0.461,-0.784,2.0
9.242,0.459,-0.834,1.0
11.411,0.562,-0.708,3.0
10.779,0.529,-0.728,2.0
10.128,0.494,-0.739,2.0
9.601,0.466,-0.754,2.0
9.436,0.456,-0.792,2.0
9.45,0.455,-0.845,1.0
11.698,0.559,-0.716,2.0
10.895,0.518,-0.726,2.0
10.21,0.483,-0.736,2.0
9.719,0.458,-0.755,2.0
9.637,0.452,-0.801,2.0
9.67,0.451,-0.856,0.0
11.839,0.548,-0.714,2.0
11.018,0.508,-0.724,2.0
10.337,0.474,-0.736,2.0
9.879,0.451,-0.758,2.0
9.865,0.448,-0.81,2.0
9.948,0.449,-0.871,0.0
12.064,0.541,-0.716,1.0
11.149,0.497,-0.722,2.0
10.478,0.465,-0.736,2.0
10.049,0.443,-0.761,2.0
10.065,0.442,-0.817,1.0
10.149,0.443,-0.879,2.0
12.261,0.532,-0.716,2.0
11.282,0.487,-0.72,2.0
10.603,0.455,-0.734,2.0
10.282,0.439,-0.769,2.0
10.284,0.437,-0.824,1.0
10.224,0.432,-0.875,10.0
12.438,0.521,-0.714,2.0
11.471,0.478,-0.72,2.0
10.764,0.446,-0.734,2.0
10.532,0.434,-0.776,2.0
10.521,0.431,-0.832,0.0
10.226,0.417,-0.865,8.0
12.614,0.511,-0.711,4.0
11.636,0.468,-0.718,2.0
10.932,0.437,-0.734,3.0
10.77,0.428,-0.782,2.0
10.793,0.427,-0.842,0.0
10.624,0.418,-0.886,0.0
12.778,0.499,-0.706,6.0
11.832,0.459,-0.717,2.0
11.117,0.429,-0.734,3.0
11.005,0.422,-0.787,2.0
11.046,0.421,-0.849,0.0
11.058,0.419,-0.91,0.0
12.965,0.488,-0.702,7.0
12.033,0.45,-0.716,2.0
11.32,0.42,-0.734,3.0
11.272,0.416,-0.793,2.0
11.395,0.418,-0.863,0.0
11.341,0.413,-0.92,0.0
13.137,0.475,-0.695,6.0
12.248,0.44,-0.714,3.0
11.567,0.413,-0.736,3.0
11.543,0.41,-0.798,1.0
11.6,0.409,-0.864,0.0
11.567,0.405,-0.924,0.0
13.401,0.466,-0.693,4.0
12.483,0.431,-0.712,3.0
11.841,0.406,-0.739,3.0
11.854,0.404,-0.805,1.0
11.93,0.404,-0.874,0.0
11.802,0.397,-0.928,0.0
13.651,0.456,-0.689,4.0
12.703,0.421,-0.709,4.0
12.159,0.4,-0.743,3.0
12.157,0.398,-0.81,1.0
12.283,0.399,-0.884,0.0
13.873,0.444,-0.682,4.0
12.955,0.412,-0.706,4.0
12.5,0.395,-0.748,3.0
12.456,0.39,-0.813,1.0
12.593,0.392,-0.889,1.0
14.127,0.433,-0.676,4.0
13.196,0.402,-0.701,4.0
12.797,0.387,-0.748,5.0
12.811,0.384,-0.819,0.0
12.916,0.384,-0.895,1.0
14.352,0.421,-0.667,6.0
13.463,0.392,-0.697,4.0
13.054,0.377,-0.745,5.0
13.121,0.376,-0.82,0.0
13.039,0.371,-0.885,1.0
14.513,0.406,-0.654,5.0
13.752,0.382,-0.692,4.0
13.382,0.369,-0.745,3.0
13.495,0.369,-0.824,0.0
12.931,0.351,-0.859,0.0
14.758,0.394,-0.644,5.0
14.01,0.371,-0.685,4.0
13.74,0.361,-0.745,3.0
13.801,0.359,-0.823,0.0
13.084,0.338,-0.85,0.0
12.04,0.308,-0.846,0.0
15.059,0.383,-0.635,4.0
14.302,0.36,-0.678,5.0
14.098,0.352,-0.743,3.0
14.167,0.351,-0.824,0.0
13.015,0.319,-0.826,0.0
12.241,0.298,-0.842,0.0
15.383,0.371,-0.625,3.0
14.552,0.348,-0.668,5.0
14.467,0.343,-0.741,3.0
14.603,0.343,-0.826,1.0
13.228,0.308,-0.819,0.0
12.44,0.287,-0.836,0.0
15.768,0.361,-0.616,3.0
14.923,0.339,-0.662,4.0
14.903,0.335,-0.74,2.0
15.039,0.335,-0.827,0.0
13.471,0.297,-0.812,0.0
12.644,0.276,-0.83,0.0
16.203,0.351,-0.608,3.0
15.297,0.328,-0.654,3.0
15.345,0.326,-0.737,1.0
15.4,0.324,-0.823,0.0
13.736,0.287,-0.806,0.0
12.886,0.266,-0.825,0.0
16.669,0.342,-0.598,3.0
15.692,0.318,-0.646,3.0
15.731,0.316,-0.73,2.0
15.226,0.303,-0.789,1.0
13.151,0.256,-0.82,0.0
17.235,0.333,-0.59,2.0
16.04,0.307,-0.634,4.0
16.082,0.304,-0.72,2.0
15.793,0.296,-0.792,0.0
13.414,0.246,-0.814,1.0
17.751,0.323,-0.579,4.0
16.441,0.296,-0.622,3.0
16.442,0.293,-0.709,2.0
16.226,0.286,-0.786,1.0
14.786,0.257,-0.794,0.0
13.651,0.235,-0.805,1.0
18.361,0.313,-0.567,4.0
16.956,0.286,-0.613,2.0
16.992,0.284,-0.703,2.0
16.541,0.273,-0.773,2.0
15.026,0.245,-0.781,1.0
13.928,0.225,-0.797,0.0
18.922,0.303,-0.552,3.0
17.532,0.277,-0.604,3.0
17.508,0.274,-0.695,2.0
17.696,0.273,-0.797,2.0
15.229,0.232,-0.766,1.0
14.368,0.217,-0.798,0.0
19.626,0.293,-0.539,3.0
18.106,0.267,-0.592,4.0
18.082,0.264,-0.686,3.0
18.272,0.263,-0.791,2.0
15.64,0.222,-0.759,0.0
14.709,0.206,-0.79,0.0
20.37,0.284,-0.523,4.0
18.732,0.257,-0.579,4.0
18.685,0.253,-0.675,3.0
18.937,0.253,-0.785,2.0
16.066,0.212,-0.75,0.0
15.037,0.196,-0.781,2.0
21.188,0.274,-0.506,4.0
19.372,0.247,-0.564,5.0
19.317,0.243,-0.663,3.0
19.527,0.242,-0.774,3.0
15.228,0.184,-0.763,1.0
22.056,0.264,-0.487,4.0
20.018,0.236,-0.547,4.0
19.916,0.231,-0.648,2.0
20.055,0.23,-0.759,2.0
15.694,0.174,-0.758,0.0
26.064,0.287,-0.528,2.0
20.776,0.225,-0.529,4.0
20.537,0.219,-0.63,3.0
19.279,0.203,-0.694,0.0
48.178,0.5,-1.985,35.0
16.217,0.165,-0.753,0.0
27.031,0.273,-0.497,2.0
21.561,0.214,-0.509,4.0
21.266,0.208,-0.613,3.0
21.412,0.206,-0.73,2.0
48.177,0.457,-1.894,6.0
16.897,0.157,-0.752,1.0
28.228,0.26,-0.466,1.0
25.504,0.231,-0.553,1.0
21.985,0.196,-0.591,3.0
20.77,0.182,-0.668,1.0
18.821,0.162,-0.704,1.0
29.493,0.247,-0.43,2.0
26.461,0.217,-0.523,2.0
23.698,0.191,-0.591,2.0
21.665,0.171,-0.655,4.0
19.387,0.151,-0.687,1.0
48.182,0.368,-1.958,4.0
30.633,0.231,-0.387,2.0
27.399,0.202,-0.488,1.0
24.485,0.177,-0.563,1.0
22.247,0.158,-0.629,1.0
20.223,0.141,-0.676,0.0
18.417,0.126,-0.712,1.0
32.523,0.219,-0.346,1.0
28.769,0.19,-0.455,1.0
25.821,0.167,-0.543,1.0
23.124,0.146,-0.608,2.0
21.018,0.13,-0.661,1.0
18.967,0.115,-0.695,2.0
37.757,0.226,-0.328,1.0
29.961,0.176,-0.415,1.0
26.794,0.153,-0.51,2.0
23.83,0.133,-0.579,2.0
21.853,0.119,-0.644,1.0
19.745,0.105,-0.684,1.0
38.098,0.201,-0.255,14.0
31.466,0.162,-0.373,1.0
28.105,0.141,-0.478,1.0
25.147,0.123,-0.561,1.0
22.708,0.108,-0.624,2.0
20.576,0.096,-0.672,2.0
38.96,0.178,-0.182,47.0
33.368,0.149,-0.328,1.0
29.374,0.127,-0.44,2.0
26.29,0.111,-0.533,2.0
23.505,0.096,-0.597,2.0
21.269,0.085,-0.65,3.0
40.593,0.159,-0.106,16.0
37.855,0.144,-0.295,13.0
30.619,0.113,-0.396,1.0
27.283,0.098,-0.497,1.0
24.441,0.085,-0.571,1.0
22.29,0.075,-0.636,2.0
0.0,0.0,0.0,0.0
38.704,0.124,-0.222,20.0
32.717,0.101,-0.356,1.0
28.676,0.085,-0.464,2.0
25.729,0.074,-0.549,2.0
23.096,0.064,-0.612,2.0
0.0,0.0,0.0,0.0
39.846,0.104,-0.147,28.0
37.924,0.096,-0.336,0.0
29.832,0.072,-0.421,2.0
26.742,0.062,-0.516,2.0
23.854,0.053,-0.583,3.0
58.818,0.128,0.206,9.0
0.0,0.0,0.0,0.0
38.39,0.076,-0.26,10.0
31.458,0.06,-0.379,1.0
28.005,0.051,-0.482,1.0
25.116,0.043,-0.561,1.0
75.926,0.126,0.424,13.0
47.774,0.075,0.021,22.0
39.379,0.058,-0.185,33.0
33.431,0.047,-0.332,1.0
29.372,0.039,-0.443,2.0
26.429,0.033,-0.535,2.0
79.366,0.094,0.61,28.0
54.93,0.06,0.139,14.0
43.86,0.045,-0.114,6.0
38.249,0.036,-0.3,4.0
30.701,0.027,-0.4,1.0
27.39,0.022,-0.497,1.0
79.462,0.059,0.778,151.0
61.779,0.041,0.287,11.0
0.0,0.0,0.0,0.0
39.072,0.02,-0.224,15.0
32.764,0.015,-0.356,1.0
28.854,0.011,-0.462,2.0
79.465,0.026,0.946,157.0
79.225,0.021,0.536,9.0
0.0,0.0,0.0,0.0
40.582,0.005,-0.146,16.0
38.096,0.003,-0.333,3.0
30.058,0.0,-0.418,1.0
79.455,-0.002,1.115,151.0
79.448,-0.007,0.706,150.0
61.574,-0.008,0.23,12.0
44.892,-0.009,-0.066,22.0
38.869,-0.009,-0.257,14.0
31.644,-0.009,-0.372,1.0
79.455,-0.028,1.284,152.0
79.462,-0.032,0.876,158.0
76.3,-0.035,0.449,20.0
48.322,-0.024,0.031,6.0
39.957,-0.022,-0.18,25.0
33.796,-0.02,-0.326,0.0
79.447,-0.052,1.454,166.0
79.459,-0.055,1.045,156.0
79.404,-0.059,0.636,143.0
56.097,-0.044,0.156,21.0
0.0,0.0,0.0,0.0
38.588,-0.033,-0.29,4.0
79.449,-0.072,1.623,151.0
79.457,-0.075,1.213,156.0
79.462,-0.078,0.804,153.0
76.076,-0.077,0.372,14.0
0.0,0.0,0.0,0.0
39.484,-0.042,-0.213,18.0
79.455,-0.089,1.791,151.0
79.445,-0.092,1.382,170.0
79.456,-0.094,0.974,156.0
79.23,-0.095,0.554,31.0
0.0,0.0,0.0,0.0
41.497,-0.052,-0.135,18.0
79.436,-0.104,1.96,151.0
79.446,-0.105,1.551,168.0
79.454,-0.107,1.143,156.0
79.455,-0.108,0.725,150.0
61.706,-0.085,0.246,12.0
45.687,-0.064,-0.052,20.0
79.434,-0.115,2.128,150.0
79.448,-0.116,1.72,151.0
79.456,-0.117,1.312,160.0
79.456,-0.118,0.896,151.0
76.443,-0.115,0.47,14.0
0.0,0.0,0.0,0.0
79.43,-0.124,2.301,150.0
79.442,-0.124,1.892,151.0
79.439,-0.125,1.482,174.0
79.459,-0.125,1.067,151.0
79.43,-0.125,0.657,150.0
61.504,-0.097,0.192,9.0
79.431,-0.129,2.47,150.0
79.424,-0.129,2.061,150.0
79.44,-0.129,1.653,154.0
79.453,-0.129,1.236,152.0
79.459,-0.128,0.828,151.0
76.302,-0.123,0.402,13.0
79.425,-0.131,2.64,150.0
79.428,-0.131,2.231,150.0
79.44,-0.13,1.823,151.0
79.44,-0.129,1.406,163.0
79.46,-0.129,0.998,151.0
79.373,-0.127,0.588,68.0
79.427,-0.131,2.809,150.0
79.433,-0.13,2.401,150.0
79.42,-0.129,1.99,151.0
79.441,-0.127,1.575,154.0
79.459,-0.126,1.167,151.0
79.453,-0.124,0.758,151.0
79.425,-0.127,2.979,150.0
79.429,-0.126,2.57,150.0
79.421,-0.124,2.159,150.0
79.448,-0.122,1.743,151.0
79.447,-0.12,1.334,159.0
79.461,-0.118,0.925,151.0
79.41,-0.121,3.146,48.0
79.429,-0.119,2.738,150.0
79.432,-0.116,2.329,150.0
79.433,-0.114,1.912,151.0
79.455,-0.111,1.503,163.0
79.457,-0.108,1.093,151.0
59.461,-0.083,2.482,96.0
79.429,-0.109,2.905,151.0
79.435,-0.106,2.496,150.0
79.43,-0.103,2.078,150.0
79.451,-0.099,1.669,151.0
79.446,-0.096,1.261,151.0
59.461,-0.074,2.607,98.0
79.408,-0.096,3.073,150.0
79.43,-0.092,2.663,150.0
79.426,-0.088,2.245,150.0
79.438,-0.085,1.836,151.0
79.45,-0.081,1.426,161.0
59.453,-0.063,2.732,96.0
59.438,-0.06,2.424,94.0
79.424,-0.076,2.828,151.0
79.424,-0.071,2.411,150.0
79.432,-0.067,2.002,150.0
79.449,-0.063,1.593,151.0
59.452,-0.049,2.857,108.0
59.436,-0.045,2.55,96.0
79.416,-0.056,2.995,150.0
79.427,-0.052,2.577,150.0
79.433,-0.046,2.167,150.0
79.447,-0.042,1.757,151.0
59.457,-0.033,2.981,104.0
59.446,-0.029,2.673,99.0
79.39,-0.034,3.16,17.0
79.425,-0.028,2.741,150.0
79.434,-0.023,2.332,150.0
79.44,-0.018,1.922,150.0
59.446,-0.015,3.103,113.0
59.448,-0.011,2.795,99.0
59.448,-0.007,2.486,94.0
79.439,-0.003,2.904,151.0
79.429,0.002,2.493,150.0
79.431,0.008,2.082,150.0
59.424,0.004,3.222,112.0
59.444,0.009,2.916,100.0
59.44,0.013,2.607,94.0
79.395,0.025,3.063,150.0
79.434,0.031,2.654,150.0
79.433,0.037,2.242,150.0
59.404,0.026,3.342,115.0
59.426,0.031,3.035,110.0
59.448,0.036,2.727,100.0
59.426,0.041,2.412,93.0
79.446,0.062,2.813,151.0
79.433,0.07,2.401,150.0
63.094,0.054,3.676,69.0
77.39,0.073,4.108,35.0
59.433,0.061,2.845,93.0
59.428,0.067,2.531,98.0
79.432,0.097,2.97,151.0
79.433,0.104,2.559,150.0
75.732,0.098,4.564,36.0
85.028,0.119,4.681,19.0
91.635,0.136,4.569,36.0
81.601,0.13,3.635,13.0
79.411,0.134,3.125,150.0
79.452,0.142,2.715,151.0
48.302,0.085,3.005,39.0
63.162,0.118,3.602,51.0
77.368,0.153,4.01,91.0
79.258,0.165,3.687,150.0
86.056,0.188,3.557,10.0
79.437,0.183,2.871,151.0
48.181,0.11,3.093,71.0
48.279,0.115,2.848,37.0
77.387,0.194,4.162,17.0
62.622,0.164,3.036,4.0
85.903,0.234,3.718,128.0
79.436,0.226,3.025,150.0
48.102,0.136,3.182,97.0
48.215,0.142,2.938,65.0
48.22,0.148,2.686,65.0
62.527,0.199,3.152,14.0
81.505,0.268,3.683,116.0
79.415,0.271,3.176,47.0
48.054,0.164,3.271,98.0
48.161,0.17,3.027,91.0
48.187,0.176,2.776,95.0
48.188,0.182,2.52,70.0
48.209,0.188,2.27,62.0
48.241,0.194,2.02,41.0
48.059,0.193,3.363,77.0
48.116,0.199,3.115,105.0
48.165,0.206,2.866,106.0
48.158,0.212,2.609,107.0
48.167,0.218,2.359,89.0
48.196,0.225,2.109,72.0
48.375,0.226,3.476,56.0
48.096,0.231,3.204,110.0
48.155,0.237,2.955,107.0
48.142,0.244,2.698,107.0
48.143,0.25,2.447,91.0
48.154,0.257,2.195,89.0
48.461,0.259,3.572,59.0
48.091,0.263,3.293,94.0
48.15,0.27,3.044,110.0
48.138,0.277,2.787,111.0
48.182,0.284,2.537,119.0
48.14,0.291,2.283,100.0
48.499,0.294,3.664,61.0
48.169,0.299,3.386,53.0
48.138,0.305,3.131,106.0
48.148,0.312,2.874,111.0
48.17,0.319,2.623,125.0
48.135,0.326,2.37,105.0
48.489,0.329,3.752,56.0
48.272,0.335,3.481,74.0
48.158,0.341,3.219,81.0
48.168,0.349,2.961,85.0
48.156,0.355,2.708,99.0
48.158,0.363,2.456,112.0
48.47,0.366,3.836,63.0
48.286,0.372,3.566,61.0
48.238,0.379,3.308,44.0
48.211,0.386,3.048,74.0
48.198,0.394,2.795,65.0
48.175,0.401,2.54,72.0
48.508,0.406,3.924,50.0
48.375,0.412,3.658,87.0
48.363,0.42,3.402,52.0
75.281,0.665,4.892,13.0
55.06,0.495,3.289,45.0
59.377,0.544,3.234,19.0
48.617,0.447,4.018,58.0
48.413,0.453,3.745,103.0
48.429,0.461,3.49,16.0
75.384,0.73,5.027,27.0
54.915,0.54,3.372,106.0
59.369,0.594,3.334,108.0
48.622,0.489,4.101,53.0
48.431,0.495,3.828,113.0
56.107,0.582,4.137,26.0
55.753,0.588,3.811,26.0
77.829,0.834,4.909,35.0
59.423,0.647,3.435,6.0
48.433,0.53,4.166,77.0
48.451,0.538,3.911,99.0
56.121,0.633,4.232,58.0
55.809,0.639,3.908,47.0
99.472,1.156,6.439,24.0
54.968,0.648,3.268,101.0
48.399,0.574,4.242,76.0
48.474,0.583,3.991,82.0
56.115,0.684,4.323,82.0
55.968,0.693,4.009,29.0
91.3,1.147,6.057,13.0
91.609,1.166,5.594,23.0
39.767,0.509,3.55,72.0
56.199,0.729,4.718,71.0
61.649,0.811,4.848,26.0
64.148,0.855,4.698,71.0
64.141,0.867,4.357,69.0
91.754,1.257,5.747,27.0
48.338,0.666,4.392,12.0
56.214,0.784,4.808,31.0
64.456,0.911,5.17,12.0
64.216,0.919,4.803,23.0
91.317,1.325,6.345,24.0
64.063,0.941,4.112,32.0
40.102,0.592,3.706,65.0
39.882,0.596,3.472,65.0
89.073,1.348,7.281,9.0
91.775,1.406,7.003,12.0
91.715,1.422,6.511,40.0
91.809,1.441,6.03,34.0
40.108,0.633,3.767,64.0
39.889,0.637,3.533,42.0
39.892,0.644,3.32,40.0
78.025,1.275,6.071,11.0
122.756,2.03,8.898,10.0
124.798,2.088,8.381,20.0
48.42,0.815,4.62,8.0
40.048,0.681,3.607,13.0
39.893,0.686,3.379,72.0
76.75,1.336,6.083,38.0
77.328,1.361,5.717,68.0
77.284,1.374,5.302,83.0
56.081,1.003,5.432,6.0
40.07,0.724,3.666,47.0
39.938,0.729,3.44,59.0
53.292,0.984,4.299,53.0
53.355,0.995,4.019,53.0
76.639,1.444,5.362,55.0
40.484,0.767,3.977,49.0
40.056,0.767,3.72,67.0
40.062,0.775,3.505,45.0
40.043,0.783,3.285,63.0
77.02,1.52,5.906,16.0
74.336,1.482,5.303,38.0
40.431,0.811,4.027,45.0
40.068,0.812,3.776,38.0
40.102,0.82,3.563,47.0
39.935,0.825,3.329,68.0
77.434,1.615,6.041,7.0
74.218,1.563,5.393,24.0
40.571,0.86,4.096,30.0
39.977,0.855,3.82,46.0
40.016,0.864,3.608,53.0
39.94,0.87,3.383,60.0
53.893,1.185,4.274,66.0
53.635,1.19,3.966,73.0
55.985,1.25,5.725,9.0
40.102,0.903,3.884,49.0
54.013,1.228,4.939,13.0
53.995,1.239,4.641,16.0
53.888,1.247,4.342,83.0
53.75,1.255,4.043,37.0
41.0,0.963,4.244,36.0
40.238,0.953,3.947,55.0
40.333,0.964,3.738,16.0
40.138,0.967,3.499,51.0
61.4,1.493,5.022,22.0
53.405,1.309,4.081,44.0
49.507,1.221,5.185,8.0
40.442,1.006,4.016,48.0
40.251,1.009,3.779,13.0
40.212,1.017,3.553,60.0
67.553,1.722,5.605,6.0
61.486,1.58,4.77,11.0
49.373,1.277,5.229,5.0
49.261,1.284,4.949,10.0
56.786,1.492,5.397,22.0
56.764,1.503,5.082,10.0
56.706,1.514,4.77,17.0
56.602,1.523,4.455,100.0
0.0,0.0,0.0,0.0
49.339,1.346,5.013,10.0
40.665,1.118,3.91,53.0
42.962,1.19,3.894,3.0
67.602,1.887,5.761,9.0
62.834,1.767,5.014,7.0
41.27,1.168,4.463,32.0
40.902,1.167,4.2,61.0
42.823,1.23,4.164,41.0
62.83,1.818,5.762,18.0
40.218,1.172,3.47,55.0
62.873,1.845,5.084,43.0
41.196,1.217,4.499,5.0
40.93,1.218,4.246,64.0
42.945,1.286,4.22,3.0
42.991,1.297,3.986,10.0
40.368,1.226,3.524,50.0
61.276,1.874,5.016,13.0
38.344,1.181,4.226,33.0
41.521,1.287,4.349,12.0
40.897,1.276,4.06,37.0
63.591,1.998,5.96,10.0
67.74,2.142,5.979,13.0
55.841,1.777,4.625,59.0
38.329,1.229,4.261,37.0
38.22,1.233,4.039,21.0
40.875,1.327,4.096,16.0
42.826,1.399,4.053,1.0
61.039,2.007,5.444,32.0
55.899,1.85,4.681,61.0
38.103,1.27,4.272,43.0
38.271,1.283,4.08,49.0
41.169,1.389,4.163,37.0
60.831,2.065,5.813,28.0
60.983,2.083,5.494,65.0
56.034,1.926,4.742,33.0
38.032,1.316,4.297,61.0
38.423,1.338,4.13,42.0
41.222,1.444,4.204,26.0
42.649,1.503,4.112,10.0
67.71,2.4,6.157,32.0
56.073,1.999,4.792,9.0
38.049,1.366,4.331,57.0
38.509,1.39,4.171,67.0
55.703,2.023,5.727,6.0
42.606,1.556,4.142,33.0
55.972,2.056,5.135,64.0
62.154,2.296,5.362,54.0
37.83,1.407,4.337,58.0
42.565,1.592,4.644,6.0
62.006,2.332,6.424,20.0
61.723,2.334,6.049,37.0
55.968,2.128,5.177,39.0
68.027,2.601,5.919,13.0
37.709,1.452,4.351,62.0
42.47,1.644,4.666,4.0
41.45,1.613,4.324,24.0
56.086,2.194,5.537,42.0
53.153,2.09,4.955,4.0
67.943,2.686,5.96,23.0
37.629,1.498,4.369,62.0
38.294,1.532,4.234,44.0
41.404,1.665,4.348,16.0
53.09,2.146,5.277,17.0
65.207,2.65,6.122,8.0
53.259,2.175,4.708,45.0
41.597,1.711,4.857,17.0
38.274,1.582,4.257,63.0
41.779,1.735,4.415,15.0
41.115,1.716,4.113,42.0
54.587,2.289,5.159,17.0
62.322,2.626,5.547,5.0
38.008,1.613,4.461,21.0
53.369,2.276,5.968,6.0
42.02,1.801,4.466,25.0
53.025,2.283,5.336,9.0
41.386,1.79,3.936,2.0
54.481,2.368,4.881,84.0
55.766,2.441,6.578,27.0
37.783,1.661,4.247,9.0
41.677,1.841,4.453,40.0
41.431,1.838,4.192,22.0
41.432,1.847,3.963,35.0
54.496,2.441,4.911,23.0
37.962,1.712,4.498,61.0
54.572,2.472,6.162,12.0
42.145,1.918,4.524,17.0
52.954,2.42,5.385,6.0
54.409,2.497,5.231,20.0
68.1,3.14,6.17,21.0
38.0,1.764,4.521,58.0
41.763,1.947,4.736,16.0
41.966,1.965,4.524,17.0
54.348,2.555,5.552,35.0
41.428,1.955,4.002,26.0
54.554,2.586,4.967,23.0
37.957,1.812,4.533,67.0
42.087,2.018,4.791,19.0
41.927,2.018,4.538,16.0
41.434,2.002,4.249,6.0
53.437,2.593,5.183,12.0
54.454,2.653,4.979,21.0
38.009,1.865,4.554,36.0
41.725,2.055,4.765,39.0
42.177,2.085,4.581,12.0
41.564,2.063,4.278,16.0
53.218,2.652,5.181,26.0
64.246,3.213,5.898,22.0
41.878,2.11,5.032,7.0
41.823,2.115,4.791,16.0
41.902,2.126,4.565,29.0
41.546,2.116,4.29,16.0
53.128,2.716,5.189,21.0
64.004,3.284,5.895,23.0
44.77,2.313,5.393,4.0
64.496,3.345,7.407,20.0
52.782,2.747,5.765,7.0
41.32,2.158,4.278,39.0
63.184,3.312,6.189,25.0
64.046,3.37,5.915,28.0
44.718,2.369,5.398,5.0
42.17,2.242,4.853,5.0
38.588,2.058,4.224,22.0
41.532,2.223,4.309,8.0
52.643,2.827,5.168,1.0
54.404,2.932,5.037,11.0
37.8,2.051,4.571,19.0
63.968,3.484,7.375,12.0
38.522,2.104,4.224,58.0
41.487,2.274,4.312,4.0
64.077,3.523,6.302,38.0
54.428,3.003,5.048,10.0
41.296,2.295,5.001,24.0
38.195,2.129,4.409,56.0
38.416,2.148,4.219,70.0
41.66,2.336,4.336,8.0
53.433,3.007,5.262,7.0
64.044,3.616,5.948,25.0
41.305,2.348,5.007,41.0
38.163,2.176,4.41,49.0
38.396,2.196,4.22,57.0
0.0,0.0,0.0,0.0
41.577,2.393,4.098,49.0
41.629,2.403,3.87,28.0
38.4,2.232,4.657,14.0
38.222,2.228,4.419,57.0
38.384,2.244,4.222,50.0
63.233,3.707,6.591,11.0
41.424,2.436,4.085,54.0
63.851,3.766,5.938,11.0
41.361,2.456,5.018,5.0
38.221,2.276,4.42,40.0
38.336,2.289,4.217,49.0
63.392,3.796,6.609,25.0
41.379,2.485,4.08,57.0
63.817,3.843,5.934,15.0
44.951,2.726,5.453,6.0
38.098,2.316,4.405,60.0
38.273,2.333,4.209,61.0
63.25,3.865,6.592,38.0
63.39,3.885,6.248,13.0
41.382,2.543,3.846,29.0
38.116,2.358,4.621,52.0
38.075,2.361,4.4,65.0
38.272,2.38,4.206,61.0
63.322,3.947,6.594,31.0
63.363,3.96,6.24,37.0
55.862,3.501,5.186,1.0
38.158,2.407,4.622,48.0
38.16,2.413,4.405,63.0
38.303,2.428,4.204,58.0
63.746,4.051,6.63,40.0
63.378,4.037,6.233,23.0
63.643,4.065,5.9,7.0
38.201,2.456,4.622,51.0
38.17,2.46,4.401,64.0
38.277,2.473,4.196,61.0
63.864,4.135,6.631,40.0
63.432,4.116,6.228,12.0
70.404,4.581,6.514,13.0
38.243,2.505,4.619,41.0
38.232,2.509,4.4,60.0
38.469,2.53,4.209,46.0
64.202,4.233,6.653,21.0
54.351,3.591,5.324,12.0
70.353,4.659,6.494,11.0
38.53,2.569,4.645,32.0
38.229,2.554,4.39,63.0
41.947,2.808,4.579,3.0
64.2,4.307,6.636,24.0
0.0,0.0,0.0,0.0
70.525,4.752,6.491,11.0
38.538,2.614,4.635,30.0
38.207,2.596,4.377,64.0
41.926,2.855,4.564,4.0
64.202,4.38,6.617,31.0
70.709,4.834,6.887,29.0
70.78,4.85,6.492,37.0
38.464,2.653,4.614,52.0
38.281,2.645,4.373,51.0
41.914,2.901,4.549,26.0
64.16,4.449,6.591,24.0
70.826,4.922,6.873,23.0
70.756,4.926,6.465,15.0
41.028,2.875,4.906,17.0
38.371,2.694,4.369,40.0
41.896,2.946,4.531,14.0
54.281,3.824,5.556,13.0
70.897,5.004,6.853,28.0
64.151,4.536,5.837,25.0
38.633,2.749,4.604,52.0
38.283,2.729,4.343,35.0
41.779,2.983,4.501,26.0
38.759,2.772,3.95,27.0
64.011,4.587,6.16,25.0
63.967,4.592,5.792,38.0
38.898,2.81,4.618,39.0
41.902,3.031,4.735,8.0
41.689,3.021,4.472,36.0
38.703,2.809,3.927,11.0
71.541,5.201,6.851,20.0
63.88,4.652,5.754,23.0
38.873,2.848,4.597,44.0
38.82,2.849,4.367,3.0
38.598,2.836,4.121,43.0
38.708,2.849,3.908,44.0
64.302,4.741,6.125,28.0
64.248,4.744,5.754,35.0
38.993,2.897,4.59,34.0
41.354,3.076,4.63,31.0
38.585,2.875,4.099,44.0
38.622,2.881,3.878,4.0
64.039,4.786,6.064,38.0
64.273,4.811,5.721,39.0
39.09,2.943,4.579,35.0
41.13,3.101,4.582,26.0
38.405,2.899,4.058,58.0
38.714,2.927,3.865,14.0
63.949,4.841,6.019,38.0
63.773,4.835,5.638,30.0
38.653,2.948,4.504,42.0
38.858,2.967,4.305,26.0
38.383,2.934,4.032,51.0
38.678,2.961,3.837,39.0
63.886,4.898,5.972,26.0
63.966,4.91,5.615,39.0
38.562,2.977,4.469,33.0
38.775,2.997,4.27,33.0
38.367,2.969,4.005,65.0
38.678,2.997,3.811,66.0
63.969,4.963,5.938,20.0
63.744,4.952,5.552,30.0
38.767,3.029,4.466,46.0
38.638,3.022,4.228,60.0
38.409,3.007,3.983,63.0
38.664,3.031,3.783,19.0
63.953,5.019,5.891,38.0
63.849,5.017,5.517,30.0
38.621,3.051,4.421,31.0
38.508,3.045,4.186,40.0
38.416,3.041,3.955,66.0
38.646,3.063,3.753,67.0
63.772,5.06,5.828,38.0
63.731,5.062,5.46,38.0
38.524,3.077,4.381,46.0
41.87,3.347,4.52,22.0
38.372,3.07,3.921,69.0
38.627,3.094,3.721,60.0
64.081,5.137,5.807,38.0
63.517,5.098,5.392,37.0
38.498,3.106,4.347,65.0
38.719,3.127,4.149,37.0
38.472,3.11,3.9,40.0
38.643,3.126,3.692,37.0
64.287,5.206,5.773,39.0
63.427,5.141,5.333,20.0
38.554,3.141,4.322,54.0
38.626,3.149,4.107,52.0
38.583,3.149,3.88,21.0
65.325,5.336,6.186,33.0
64.045,5.236,5.697,39.0
65.893,5.391,5.485,15.0
38.511,3.167,4.283,66.0
38.546,3.172,4.064,49.0
64.514,5.314,6.431,10.0
64.605,5.325,6.061,25.0
64.057,5.285,5.642,38.0
65.998,5.449,5.434,27.0
38.553,3.199,4.253,51.0
38.423,3.19,4.017,35.0
47.98,3.987,4.739,8.0
64.503,5.363,5.993,12.0
64.108,5.333,5.589,38.0
66.359,5.525,5.404,38.0
38.422,3.214,4.204,57.0
47.559,3.981,4.928,11.0
64.574,5.409,6.319,11.0
64.47,5.403,5.931,16.0
64.18,5.383,5.535,28.0
66.702,5.599,5.369,16.0
38.369,3.235,4.161,60.0
38.468,3.245,3.949,55.0
47.973,4.05,4.647,10.0
47.272,3.992,4.303,21.0
0.0,0.0,0.0,0.0
66.353,5.611,5.277,15.0
38.318,3.255,4.117,67.0
47.577,4.043,4.837,10.0
62.028,5.274,5.948,15.0
47.453,4.036,4.272,37.0
66.236,5.637,5.581,29.0
66.141,5.632,5.193,29.0
38.307,3.277,4.077,57.0
47.646,4.077,4.795,14.0
47.685,4.082,4.523,17.0
47.534,4.07,4.23,30.0
66.341,5.684,5.522,41.0
66.457,5.696,5.15,42.0
38.419,3.307,4.048,59.0
47.71,4.108,4.751,16.0
47.399,4.082,4.447,9.0
47.606,4.102,4.186,40.0
66.339,5.718,5.452,37.0
66.176,5.707,5.058,30.0
38.51,3.335,4.016,72.0
41.281,3.576,4.066,43.0
47.163,4.086,4.373,21.0
47.552,4.121,4.13,44.0
66.22,5.741,5.37,37.0
66.27,5.748,4.993,37.0
38.508,3.353,3.974,66.0
47.861,4.168,4.661,29.0
47.466,4.135,4.349,21.0
47.605,4.148,4.082,43.0
66.094,5.76,5.287,30.0
66.335,5.783,4.924,31.0
47.59,4.165,4.857,11.0
47.708,4.175,4.593,20.0
47.419,4.151,4.29,20.0
66.565,5.828,5.632,12.0
66.529,5.826,5.246,42.0
66.239,5.802,4.842,29.0
47.514,4.177,4.794,32.0
47.511,4.177,4.519,19.0
47.508,4.177,4.243,46.0
71.054,6.249,5.929,10.0
66.544,5.852,5.169,34.0
65.957,5.802,4.744,35.0
47.88,4.227,4.774,4.0
47.424,4.187,4.454,21.0
47.553,4.198,4.191,47.0
70.976,6.266,5.839,13.0
66.371,5.859,5.078,41.0
65.559,5.788,4.638,17.0
62.205,5.512,6.128,19.0
47.634,4.22,4.416,23.0
47.634,4.22,4.14,21.0
70.921,6.282,5.748,14.0
66.337,5.877,4.994,27.0
65.605,5.813,4.561,11.0
62.113,5.521,6.041,24.0
47.539,4.225,4.349,17.0
47.739,4.242,4.09,44.0
66.383,5.898,5.298,18.0
67.671,6.012,5.011,16.0
74.27,6.599,5.072,11.0
62.002,5.526,5.954,17.0
47.471,4.23,4.283,31.0
47.797,4.258,4.036,55.0
66.73,5.944,5.242,43.0
67.72,6.032,4.929,12.0
74.132,6.602,4.969,24.0
61.938,5.533,5.869,10.0
47.509,4.243,4.226,42.0
47.82,4.269,3.977,22.0
66.525,5.938,5.141,42.0
65.571,5.852,4.689,12.0
74.123,6.615,4.873,10.0
47.604,4.26,4.448,41.0
47.611,4.259,4.173,21.0
70.95,6.345,5.808,12.0
66.428,5.939,5.048,41.0
65.635,5.867,4.609,21.0
115.168,10.293,7.423,14.0
47.606,4.266,4.386,33.0
47.704,4.272,4.119,47.0
66.474,5.952,5.354,24.0
66.407,5.944,4.958,9.0
65.897,5.896,4.54,12.0
75.861,6.786,4.791,6.0
47.522,4.262,4.315,20.0
47.764,4.281,4.06,60.0
66.41,5.951,5.261,18.0
67.09,6.009,4.92,11.0
74.109,6.635,5.008,14.0
75.882,6.792,4.69,21.0
47.538,4.264,4.252,18.0
47.794,4.285,3.998,31.0
66.512,5.961,5.178,42.0
65.575,5.874,4.72,8.0
76.383,6.839,5.058,9.0
75.905,6.795,4.589,22.0
47.575,4.267,4.191,12.0
70.917,6.357,5.836,20.0
66.425,5.952,5.082,42.0
65.561,5.871,4.63,21.0
115.174,10.309,7.471,18.0
117.269,10.493,6.93,21.0
47.7,4.276,4.136,38.0
66.426,5.951,5.375,18.0
66.303,5.937,4.982,14.0
65.917,5.898,4.565,20.0
117.282,10.49,7.445,10.0
117.269,10.483,6.77,21.0
47.767,4.278,4.075,63.0
66.55,5.955,5.292,15.0
67.182,6.008,4.953,9.0
74.113,6.623,5.029,18.0
75.834,6.774,4.708,19.0
117.257,10.468,6.604,11.0
47.814,4.275,4.011,45.0
66.552,5.945,5.198,42.0
65.58,5.854,4.743,7.0
74.135,6.614,4.925,17.0
75.895,6.766,4.604,21.0
117.277,10.449,6.44,21.0
70.994,6.334,5.855,17.0
66.49,5.928,5.099,30.0
65.546,5.839,4.647,19.0
115.082,10.244,7.484,15.0
75.894,6.751,4.497,9.0
157.276,13.98,8.416,4.0
70.96,6.315,5.752,12.0
66.594,5.921,5.012,11.0
65.585,5.826,4.557,7.0
75.802,6.728,4.822,9.0
149.337,13.245,8.639,5.0
157.371,13.947,8.197,4.0
66.465,5.897,5.292,26.0
72.305,6.409,5.338,16.0
74.293,6.579,5.055,23.0
75.855,6.711,4.716,12.0
103.214,9.124,5.823,5.0
0.0,0.0,0.0,0.0
66.649,5.892,5.211,44.0
65.995,5.828,4.778,35.0
74.4,6.564,4.957,25.0
75.91,6.691,4.611,22.0
103.175,9.086,5.674,8.0
103.181,9.08,5.079,8.0
66.29,5.837,5.087,42.0
65.562,5.767,4.652,14.0
76.344,6.708,4.976,12.0
119.027,10.447,7.059,13.0
119.094,10.443,6.378,20.0
103.192,9.041,4.931,21.0
66.31,5.812,4.993,40.0
74.29,6.503,5.164,6.0
76.001,6.646,4.844,12.0
119.055,10.4,6.89,8.0
120.769,10.539,6.293,14.0
106.324,9.269,4.927,11.0
66.259,5.777,4.891,43.0
76.502,6.663,5.205,10.0
75.838,6.597,4.722,5.0
120.801,10.496,6.813,20.0
120.902,10.494,6.123,4.0
112.236,9.731,5.038,5.0
65.543,5.683,4.742,16.0
76.357,6.611,5.084,19.0
120.782,10.446,7.344,21.0
120.776,10.432,6.635,24.0
103.183,8.902,5.073,14.0
115.179,9.925,5.0,9.0
72.814,6.273,5.161,16.0
0.0,0.0,0.0,0.0
120.787,10.379,7.167,31.0
103.146,8.852,5.515,16.0
103.194,8.846,4.923,17.0
34.26,2.933,1.437,26.0
0.0,0.0,0.0,0.0
75.871,6.483,4.827,24.0
120.815,10.311,6.991,37.0
103.185,8.794,5.366,20.0
34.263,2.916,1.585,1.0
34.28,2.914,1.388,97.0
74.388,6.32,5.055,41.0
120.885,10.255,7.516,23.0
121.089,10.258,6.83,10.0
103.181,8.728,5.214,21.0
34.27,2.894,1.535,9.0
34.298,2.893,1.339,1.0
75.732,6.384,5.034,31.0
121.636,10.237,7.384,8.0
121.848,10.238,6.694,7.0
74.574,6.257,3.66,13.0
74.605,6.25,3.232,8.0
30.018,2.511,1.128,128.0
75.696,6.327,4.92,35.0
74.608,6.225,4.419,9.0
74.599,6.214,3.988,18.0
74.534,6.199,3.549,22.0
74.538,6.189,3.12,15.0
29.97,2.485,1.082,184.0
74.599,6.178,4.739,11.0
74.522,6.161,4.305,19.0
74.526,6.151,3.876,36.0
74.514,6.14,3.439,39.0
30.204,2.484,1.22,19.0
30.037,2.467,1.041,154.0
74.478,6.109,4.624,18.0
74.535,6.103,4.198,32.0
74.551,6.094,3.77,34.0
74.526,6.081,3.333,25.0
30.028,2.446,1.17,152.0
30.007,2.44,0.996,13.0
74.499,6.049,4.516,18.0
74.567,6.043,4.091,32.0
74.563,6.031,3.662,31.0
30.184,2.437,1.306,5.0
29.951,2.414,1.124,175.0
30.008,2.414,0.954,32.0
74.524,5.985,4.411,22.0
74.649,5.983,3.989,15.0
74.685,5.974,3.561,9.0
30.165,2.408,1.262,4.0
29.967,2.388,1.081,175.0
30.006,2.387,0.911,36.0
74.6,5.923,4.308,20.0
127.598,10.11,6.635,15.0
109.383,8.65,5.058,13.0
30.15,2.379,1.218,5.0
30.03,2.365,1.041,156.0
30.066,2.363,0.869,154.0
128.565,10.082,7.24,10.0
109.412,8.561,5.531,3.0
112.141,8.757,5.024,6.0
30.042,2.341,1.17,23.0
30.014,2.334,0.997,15.0
30.019,2.33,0.825,175.0
129.904,10.057,7.13,11.0
106.322,8.212,5.224,14.0
30.207,2.328,1.31,1.0
30.023,2.309,1.127,152.0
30.011,2.303,0.954,41.0
30.081,2.303,0.784,156.0
131.281,10.026,7.018,13.0
109.284,8.326,5.214,7.0
66.298,5.039,2.782,2.0
30.001,2.275,1.084,71.0
30.056,2.274,0.913,153.0
30.059,2.269,0.742,51.0
132.801,9.996,6.913,13.0
109.406,8.216,5.066,18.0
66.633,4.991,2.703,8.0
30.038,2.244,1.043,25.0
30.112,2.245,0.873,154.0
30.096,2.238,0.701,39.0
134.404,9.966,6.81,11.0
66.533,4.92,2.989,66.0
66.521,4.906,2.606,2.0
30.098,2.214,1.004,11.0
30.061,2.206,0.83,172.0
30.181,2.209,0.661,15.0
157.184,11.469,7.745,14.0
118.174,8.601,5.145,8.0
157.383,11.424,5.952,27.0
30.129,2.181,0.964,11.0
30.152,2.177,0.792,34.0
30.227,2.177,0.621,4.0
113.614,8.154,5.444,3.0
157.633,11.282,6.649,19.0
157.806,11.263,5.752,18.0
30.184,2.148,0.924,8.0
30.294,2.15,0.755,3.0
139.603,9.884,2.681,16.0
115.113,8.118,5.36,24.0
157.878,11.1,6.445,36.0
157.91,11.07,5.543,31.0
30.243,2.114,0.885,8.0
114.366,7.973,2.695,35.0
114.62,7.968,2.047,18.0
116.917,8.095,5.287,5.0
157.955,10.902,6.238,38.0
157.929,10.867,5.333,30.0
114.677,7.867,3.206,32.0
114.579,7.838,2.548,45.0
114.707,7.824,1.897,12.0
118.155,8.024,5.188,22.0
157.996,10.696,6.033,42.0
158.019,10.664,5.131,48.0
114.656,7.714,3.057,23.0
139.689,9.37,2.928,14.0
139.634,9.338,2.13,22.0
157.952,10.513,6.731,47.0
158.075,10.488,5.833,43.0
158.098,10.454,4.93,81.0
114.751,7.563,2.912,29.0
139.635,9.174,2.746,29.0
120.916,7.918,1.688,6.0
158.064,10.3,6.533,39.0
158.172,10.274,5.635,37.0
158.17,10.237,4.731,47.0
114.84,7.407,2.768,21.0
139.619,8.975,2.57,67.0
96.128,6.159,1.221,6.0
158.164,10.082,6.338,25.0
158.007,10.034,5.429,16.0
158.019,10.001,4.529,11.0
33.427,2.108,0.764,1.0
33.443,2.101,0.574,8.0
33.464,2.095,0.383,150.0
33.414,2.081,1.297,8.0
33.451,2.075,1.108,155.0
33.437,2.067,0.917,51.0
33.429,2.058,0.723,8.0
33.436,2.051,0.532,7.0
33.436,2.043,0.342,2.0
33.452,2.033,1.258,2.0
157.108,9.512,5.014,6.0
157.311,9.486,4.123,10.0
0.0,0.0,0.0,0.0
120.903,7.234,1.78,5.0
74.704,4.452,0.675,21.0
157.538,9.333,5.737,19.0
162.189,9.57,4.981,15.0
162.255,9.533,4.059,10.0
162.159,9.488,3.117,14.0
96.524,5.625,1.307,6.0
73.75,4.28,0.579,22.0
157.577,9.088,5.552,13.0
163.345,9.381,4.826,9.0
163.268,9.337,3.894,16.0
105.953,6.033,1.914,4.0
81.753,4.635,1.013,5.0
73.454,4.147,0.492,11.0
157.203,8.817,5.358,17.0
163.37,9.121,4.64,23.0
163.038,9.062,3.703,25.0
105.831,5.856,1.792,19.0
78.211,4.308,0.88,12.0
55.369,3.036,0.309,6.0
162.332,8.841,5.35,4.0
162.495,8.808,4.433,12.0
162.516,8.766,3.51,14.0
105.762,5.678,1.672,26.0
0.0,0.0,0.0,0.0
54.564,2.902,0.243,28.0
162.453,8.576,5.174,7.0
156.536,8.223,4.096,9.0
163.018,8.521,3.341,4.0
105.794,5.502,1.558,85.0
75.533,3.91,0.684,20.0
54.267,2.795,0.184,17.0
157.183,8.036,4.839,14.0
167.062,8.496,4.195,17.0
0.0,0.0,0.0,0.0
105.787,5.322,1.446,28.0
74.042,3.706,0.592,19.0
48.186,2.399,0.112,25.0
156.246,7.717,4.645,16.0
0.0,0.0,0.0,0.0
0.0,0.0,0.0,0.0
82.031,3.986,1.036,8.0
73.582,3.555,0.512,10.0
0.0,0.0,0.0,0.0
174.205,8.3,5.0,17.0
0.0,0.0,0.0,0.0
0.0,0.0,0.0,0.0
82.229,3.851,0.956,4.0
0.0,0.0,0.0,0.0
42.492,1.967,0.013,17.0
173.9,7.979,4.82,11.0
0.0,0.0,0.0,0.0
0.0,0.0,0.0,0.0
78.343,3.529,0.834,18.0
55.046,2.464,0.274,20.0
41.803,1.859,-0.027,18.0
173.591,7.65,4.643,3.0
0.0,0.0,0.0,0.0
101.333,4.409,1.564,2.0
77.626,3.355,0.752,29.0
54.511,2.341,0.22,28.0
41.038,1.751,-0.065,36.0
0.0,0.0,0.0,0.0
0.0,0.0,0.0,0.0
101.174,4.217,1.468,2.0
0.0,0.0,0.0,0.0
54.363,2.234,0.17,26.0
40.166,1.639,-0.101,43.0
0.0,0.0,0.0,0.0
0.0,0.0,0.0,0.0
95.777,3.812,1.304,2.0
74.208,2.932,0.584,14.0
48.748,1.913,0.109,23.0
39.726,1.547,-0.134,52.0
0.0,0.0,0.0,0.0
0.0,0.0,0.0,0.0
93.573,3.55,1.193,6.0
73.905,2.782,0.518,13.0
48.076,1.795,0.066,23.0
39.357,1.458,-0.167,24.0
0.0,0.0,0.0,0.0
0.0,0.0,0.0,0.0
93.678,3.375,1.116,6.0
59.756,2.135,0.369,24.0
47.244,1.674,0.026,23.0
36.637,1.287,-0.185,30.0
0.0,0.0,0.0,0.0
0.0,0.0,0.0,0.0
78.715,2.685,0.874,10.0
59.238,2.002,0.319,34.0
0.0,0.0,0.0,0.0
36.565,1.214,-0.214,27.0
0.0,0.0,0.0,0.0
0.0,0.0,0.0,0.0
78.404,2.522,0.811,24.0
58.76,1.872,0.271,15.0
46.534,1.468,-0.046,6.0
36.518,1.14,-0.241,12.0
0.0,0.0,0.0,0.0
100.581,3.068,1.53,3.0
77.897,2.351,0.747,37.0
54.69,1.634,0.212,28.0
40.621,1.201,-0.07,16.0
36.382,1.064,-0.267,8.0
0.0,0.0,0.0,0.0
105.995,3.024,1.537,7.0
77.862,2.196,0.692,25.0
0.0,0.0,0.0,0.0
39.709,1.095,-0.096,21.0
36.348,0.99,-0.291,7.0
0.0,0.0,0.0,0.0
106.061,2.812,1.466,57.0
74.906,1.961,0.615,15.0
54.708,1.415,0.137,5.0
39.177,1.0,-0.121,42.0
36.494,0.92,-0.317,2.0
100.422,2.491,1.886,4.0
106.056,2.596,1.397,32.0
74.766,1.806,0.566,24.0
48.517,1.156,0.091,22.0
38.466,0.903,-0.143,47.0
36.658,0.849,-0.341,0.0
106.035,2.414,1.926,2.0
89.806,2.015,1.128,7.0
74.676,1.65,0.52,19.0
47.935,1.043,0.061,22.0
38.107,0.817,-0.164,43.0
32.985,0.696,-0.326,1.0
106.273,2.201,1.868,4.0
92.99,1.895,1.115,2.0
61.56,1.234,0.394,12.0
47.324,0.933,0.033,28.0
37.691,0.73,-0.183,39.0
32.486,0.619,-0.339,1.0
127.505,2.378,2.172,37.0
89.869,1.647,1.029,9.0
61.342,1.103,0.36,21.0
46.596,0.822,0.008,23.0
37.618,0.651,-0.202,37.0
32.028,0.544,-0.351,1.0
127.18,2.11,2.103,36.0
89.825,1.46,0.984,9.0
61.2,0.974,0.329,35.0
0.0,0.0,0.0,0.0
37.561,0.573,-0.22,21.0
31.57,0.471,-0.361,1.0
126.995,1.844,2.04,36.0
89.786,1.272,0.941,5.0
48.083,0.665,0.236,48.0
0.0,0.0,0.0,0.0
37.557,0.494,-0.237,13.0
31.1,0.398,-0.369,2.0
48.195,0.599,0.753,43.0
48.106,0.581,0.484,90.0
48.03,0.565,0.216,90.0
44.162,0.504,-0.051,19.0
37.487,0.415,-0.252,12.0
30.761,0.33,-0.378,1.0
48.095,0.497,0.732,109.0
48.069,0.479,0.464,97.0
48.025,0.463,0.197,97.0
43.97,0.407,-0.068,15.0
37.535,0.335,-0.267,6.0
30.494,0.262,-0.386,2.0
48.083,0.395,0.714,115.0
48.073,0.378,0.447,94.0
48.082,0.361,0.18,47.0
43.917,0.314,-0.083,7.0
37.677,0.256,-0.28,4.0
30.308,0.195,-0.394,2.0
48.195,0.293,0.7,47.0
59.301,0.34,0.532,17.0
54.893,0.295,0.188,57.0
40.645,0.204,-0.089,17.0
37.742,0.176,-0.292,13.0
30.062,0.129,-0.399,2.0
79.465,0.314,1.132,151.0
79.456,0.285,0.691,25.0
54.812,0.177,0.173,28.0
40.631,0.117,-0.1,17.0
37.967,0.096,-0.304,2.0
29.835,0.065,-0.404,2.0
79.471,0.145,1.112,151.0
79.434,0.116,0.671,43.0
54.656,0.06,0.159,13.0
40.74,0.03,-0.11,17.0
38.061,0.015,-0.314,1.0
29.755,0.001,-0.41,2.0
79.464,-0.024,1.094,152.0
79.297,-0.052,0.654,40.0
0.0,0.0,0.0,0.0
41.101,-0.056,-0.119,18.0
37.233,-0.064,-0.314,0.0
29.662,-0.062,-0.414,3.0
79.46,-0.194,1.08,151.0
79.295,-0.222,0.64,59.0
0.0,0.0,0.0,0.0
41.911,-0.148,-0.128,16.0
36.944,-0.144,-0.317,0.0
29.596,-0.126,-0.417,2.0
79.455,-0.364,1.069,152.0
79.292,-0.393,0.629,53.0
55.949,-0.297,0.135,14.0
41.925,-0.237,-0.133,7.0
34.297,-0.206,-0.298,0.0
29.542,-0.188,-0.42,2.0
79.454,-0.534,1.061,171.0
0.0,0.0,0.0,0.0
55.403,-0.413,0.129,8.0
47.38,-0.37,-0.155,21.0
34.115,-0.278,-0.299,0.0
29.505,-0.252,-0.421,3.0
79.444,-0.705,1.056,175.0
79.101,-0.73,0.615,46.0
56.189,-0.539,0.128,5.0
50.801,-0.506,-0.169,4.0
38.495,-0.397,-0.34,1.0
29.472,-0.315,-0.422,5.0
79.448,-0.875,1.053,185.0
79.055,-0.898,0.613,32.0
60.773,-0.713,0.137,2.0
46.318,-0.56,-0.154,2.0
35.338,-0.44,-0.312,1.0
29.458,-0.378,-0.422,2.0
86.947,-1.143,1.154,122.0
87.869,-1.187,0.683,7.0
183.394,-2.544,0.419,12.0
50.779,-0.723,-0.168,2.0
36.057,-0.527,-0.317,0.0
29.507,-0.442,-0.421,2.0
148.902,-2.275,1.983,12.0
91.577,-1.432,0.717,5.0
40.311,-0.645,0.094,3.0
40.365,-0.66,-0.13,13.0
34.527,-0.577,-0.301,0.0
29.542,-0.505,-0.419,1.0
205.37,-3.575,2.753,23.0
40.236,-0.715,0.318,53.0
40.275,-0.73,0.098,65.0
40.321,-0.745,-0.126,36.0
37.089,-0.699,-0.319,0.0
29.598,-0.569,-0.417,2.0
40.238,-0.785,0.544,66.0
40.268,-0.801,0.324,44.0
66.997,-1.357,0.172,1.0
0.0,0.0,0.0,0.0
35.689,-0.749,-0.302,0.0
29.721,-0.635,-0.414,1.0
40.296,-0.873,0.551,30.0
40.298,-0.888,0.331,11.0
40.292,-0.902,0.11,150.0
40.289,-0.916,-0.113,40.0
40.286,-0.932,-0.334,2.0
29.763,-0.699,-0.409,1.0
40.251,-0.957,0.558,48.0
40.271,-0.972,0.339,4.0
0.0,0.0,0.0,0.0
40.958,-1.018,-0.106,75.0
0.0,0.0,0.0,0.0
29.968,-0.768,-0.405,1.0
40.222,-1.041,0.567,59.0
40.18,-1.054,0.348,60.0
40.188,-1.069,0.128,42.0
40.968,-1.105,-0.096,154.0
40.109,-1.097,-0.313,1.0
30.19,-0.837,-0.4,1.0
0.0,0.0,0.0,0.0
40.24,-1.14,0.359,11.0
40.207,-1.154,0.14,36.0
40.205,-1.169,-0.083,47.0
40.104,-1.18,-0.301,3.0
30.467,-0.908,-0.395,1.0
40.359,-1.213,0.593,39.0
0.0,0.0,0.0,0.0
0.0,0.0,0.0,0.0
0.0,0.0,0.0,0.0
40.362,-1.271,-0.29,4.0
30.886,-0.984,-0.39,1.0
0.0,0.0,0.0,0.0
0.0,0.0,0.0,0.0
0.0,0.0,0.0,0.0
0.0,0.0,0.0,0.0
39.975,-1.342,-0.272,1.0
31.199,-1.058,-0.382,1.0
0.0,0.0,0.0,0.0
0.0,0.0,0.0,0.0
0.0,0.0,0.0,0.0
55.167,-1.946,-0.054,1.0
40.114,-1.429,-0.257,10.0
31.904,-1.149,-0.378,1.0
0.0,0.0,0.0,0.0
0.0,0.0,0.0,0.0
0.0,0.0,0.0,0.0
40.118,-1.497,-0.022,30.0
40.094,-1.511,-0.239,94.0
32.003,-1.218,-0.364,1.0
138.326,-5.294,2.251,76.0
126.305,-4.88,1.371,2.0
0.0,0.0,0.0,0.0
37.815,-1.488,-0.003,11.0
37.808,-1.502,-0.208,155.0
32.498,-1.302,-0.355,1.0
138.101,-5.565,2.315,42.0
0.0,0.0,0.0,0.0
0.0,0.0,0.0,0.0
0.0,0.0,0.0,0.0
42.571,-1.776,-0.212,1.0
33.567,-1.413,-0.349,1.0
138.361,-5.854,2.392,33.0
0.0,0.0,0.0,0.0
0.0,0.0,0.0,0.0
0.0,0.0,0.0,0.0
0.0,0.0,0.0,0.0
33.99,-1.499,-0.334,2.0
0.0,0.0,0.0,0.0
0.0,0.0,0.0,0.0
0.0,0.0,0.0,0.0
0.0,0.0,0.0,0.0
50.456,-2.306,-0.195,0.0
34.399,-1.584,-0.319,0.0
0.0,0.0,0.0,0.0
0.0,0.0,0.0,0.0
0.0,0.0,0.0,0.0
0.0,0.0,0.0,0.0
50.467,-2.405,-0.164,4.0
37.48,-1.799,-0.324,0.0
0.0,0.0,0.0,0.0
0.0,0.0,0.0,0.0
0.0,0.0,0.0,0.0
0.0,0.0,0.0,0.0
50.494,-2.503,-0.132,10.0
38.409,-1.917,-0.307,0.0
0.0,0.0,0.0,0.0
0.0,0.0,0.0,0.0
0.0,0.0,0.0,0.0
50.462,-2.597,-0.098,7.0
39.536,-2.049,-0.289,0.0
0.0,0.0,0.0,0.0
0.0,0.0,0.0,0.0
0.0,0.0,0.0,0.0
0.0,0.0,0.0,0.0
59.289,-3.163,-0.073,1.0
0.0,0.0,0.0,0.0
228.101,-12.365,3.588,31.0
0.0,0.0,0.0,0.0
0.0,0.0,0.0,0.0
58.763,-3.244,-0.029,5.0
0.0,0.0,0.0,0.0
0.0,0.0,0.0,0.0
227.974,-12.776,3.756,153.0
0.0,0.0,0.0,0.0
0.0,0.0,0.0,0.0
58.919,-3.361,0.015,5.0
0.0,0.0,0.0,0.0
0.0,0.0,0.0,0.0
0.0,0.0,0.0,0.0
0.0,0.0,0.0,0.0
59.559,-3.506,0.063,5.0
50.41,-2.983,-0.216,0.0
272.063,-16.145,6.377,71.0
0.0,0.0,0.0,0.0
0.0,0.0,0.0,0.0
0.0,0.0,0.0,0.0
62.512,-3.791,0.118,3.0
50.386,-3.072,-0.174,4.0
263.478,-16.102,6.397,27.0
0.0,0.0,0.0,0.0
0.0,0.0,0.0,0.0
0.0,0.0,0.0,0.0
0.0,0.0,0.0,0.0
50.378,-3.161,-0.13,2.0
248.385,-15.613,6.246,155.0
0.0,0.0,0.0,0.0
187.148,-11.884,2.702,10.0
0.0,0.0,0.0,0.0
0.0,0.0,0.0,0.0
50.472,-3.253,-0.086,1.0
248.371,-16.042,6.469,255.0
248.385,-16.122,5.14,15.0
187.219,-12.207,2.872,150.0
126.25,-8.272,1.249,2.0
0.0,0.0,0.0,0.0
