X,Y,Z,Reflectivity
99.38,-10.201,6.628,6.0
86.146,-8.831,5.28,4.0
84.984,-8.727,7.604,11.0
68.846,-7.059,5.786,6.0
96.151,-9.845,7.559,2.0
68.333,-6.986,4.995,4.0
101.56,-10.368,6.875,2.0
99.393,-10.133,6.192,6.0
84.987,-8.68,7.689,12.0
69.118,-7.047,5.878,8.0
69.272,-7.052,5.514,0.0
84.467,-8.586,6.258,7.0
86.448,-8.774,5.936,3.0
99.431,-10.077,6.29,14.0
84.934,-8.623,7.768,12.0
69.146,-7.008,5.947,9.0
69.439,-7.026,5.595,2.0
84.538,-8.54,6.344,3.0
98.6,-9.945,6.865,14.0
81.641,-8.221,5.242,5.0
84.984,-8.574,7.853,18.0
68.902,-6.939,5.991,8.0
69.51,-6.988,5.666,2.0
96.889,-9.724,7.361,9.0
82.597,-8.276,5.827,6.0
81.353,-8.138,5.297,3.0
84.99,-8.517,7.931,16.0
68.742,-6.876,6.04,6.0
96.902,-9.675,7.986,3.0
91.387,-9.109,7.024,4.0
82.385,-8.197,5.884,5.0
84.06,-8.349,5.548,23.0
85.002,-8.458,8.008,10.0
83.748,-8.317,7.431,4.0
69.665,-6.905,5.801,2.0
91.356,-9.039,7.101,4.0
96.546,-9.535,6.979,4.0
84.027,-8.284,5.616,10.0
80.971,-7.997,7.697,5.0
83.523,-8.231,7.483,2.0
81.123,-7.979,6.825,2.0
83.977,-8.244,6.598,1.0
84.422,-8.272,6.173,3.0
83.945,-8.21,5.681,2.0
81.001,-7.935,7.768,7.0
83.13,-8.127,7.516,1.0
100.029,-9.759,8.497,4.0
96.715,-9.417,7.676,5.0
84.66,-8.227,6.258,8.0
99.868,-9.685,6.838,19.0
81.017,-7.871,7.834,6.0
90.019,-8.726,8.211,3.0
96.754,-9.359,8.295,4.0
100.014,-9.654,8.016,12.0
84.653,-8.154,6.322,8.0
84.071,-8.082,5.82,17.0
81.029,-7.803,7.897,8.0
84.492,-8.118,7.77,5.0
85.396,-8.186,7.385,2.0
100.999,-9.661,8.17,5.0
98.191,-9.372,7.406,19.0
80.877,-7.703,5.658,2.0
81.024,-7.73,7.957,3.0
84.383,-8.031,7.822,12.0
83.624,-7.94,7.292,3.0
96.364,-9.13,7.864,6.0
97.629,-9.229,7.432,5.0
98.83,-9.321,6.984,19.0
81.076,-7.659,8.019,5.0
99.875,-9.412,9.328,13.0
98.506,-9.261,8.658,4.0
95.882,-8.993,7.891,8.0
99.181,-9.282,7.617,18.0
86.86,-8.11,6.195,2.0
99.875,-9.341,9.944,15.0
85.544,-7.981,8.045,6.0
83.719,-7.791,7.412,2.0
98.603,-9.153,8.177,16.0
98.791,-9.149,7.65,4.0
84.465,-7.804,6.077,6.0
83.641,-7.74,8.381,3.0
97.954,-9.041,9.274,8.0
98.745,-9.091,8.803,10.0
95.814,-8.8,8.003,5.0
84.147,-7.709,6.565,6.0
98.509,-9.002,7.146,6.0
83.73,-7.664,8.439,3.0
100.638,-9.187,9.586,2.0
96.493,-8.785,8.658,9.0
99.806,-9.062,8.395,11.0
105.817,-9.585,8.317,3.0
98.118,-8.865,7.172,7.0
98.792,-8.939,10.013,6.0
98.575,-8.894,9.444,15.0
84.547,-7.609,7.631,8.0
97.014,-8.707,8.211,8.0
85.168,-7.624,6.738,12.0
98.06,-8.755,7.218,7.0
83.776,-7.49,8.534,4.0
98.557,-8.788,9.492,7.0
84.511,-7.515,7.67,7.0
96.841,-8.587,8.244,12.0
105.659,-9.344,8.411,12.0
105.982,-9.348,7.852,15.0
97.61,-8.621,9.99,6.0
99.575,-8.769,9.637,14.0
97.375,-8.552,8.883,5.0
115.935,-10.152,9.923,14.0
100.999,-8.819,8.086,5.0
86.432,-7.527,6.441,5.0
84.783,-7.393,8.715,8.0
99.82,-8.678,9.705,3.0
96.543,-8.368,8.849,6.0
105.581,-9.125,9.081,5.0
84.908,-7.318,6.832,3.0
86.466,-7.431,6.479,5.0
98.937,-8.513,10.209,10.0
105.627,-9.061,10.311,15.0
105.811,-9.049,9.74,5.0
106.69,-9.097,9.217,20.0
97.608,-8.299,7.89,12.0
85.12,-7.215,6.41,4.0
83.743,-7.107,8.672,2.0
108.385,-9.17,10.619,5.0
106.605,-8.991,9.85,11.0
106.26,-8.935,9.216,7.0
84.958,-7.122,6.896,12.0
106.238,-8.879,8.034,2.0
108.115,-9.046,11.232,2.0
106.53,-8.884,10.471,7.0
106.289,-8.836,9.854,6.0
107.674,-8.922,9.372,5.0
84.614,-6.99,6.894,6.0
98.149,-8.083,7.451,13.0
0.0,0.0,0.0,0.0
0.0,0.0,0.0,0.0
106.799,-8.747,9.93,2.0
107.757,-8.798,9.406,4.0
107.556,-8.753,8.79,12.0
107.998,-8.762,8.225,11.0
0.0,0.0,0.0,0.0
0.0,0.0,0.0,0.0
105.351,-8.497,9.82,4.0
107.734,-8.661,9.428,12.0
105.997,-8.493,8.684,5.0
99.155,-7.92,7.572,1.0
0.0,0.0,0.0,0.0
0.0,0.0,0.0,0.0
105.469,-8.373,9.85,1.0
107.321,-8.491,9.412,6.0
108.449,-8.551,8.904,2.0
105.566,-8.297,8.078,3.0
0.0,0.0,0.0,0.0
0.0,0.0,0.0,0.0
0.0,0.0,0.0,0.0
105.925,-8.243,9.303,5.0
97.634,-7.572,8.029,3.0
148.731,-11.496,11.401,9.0
0.0,0.0,0.0,0.0
0.0,0.0,0.0,0.0
0.0,0.0,0.0,0.0
106.288,-8.133,9.345,1.0
108.29,-8.257,8.915,8.0
108.123,-8.215,8.296,2.0
0.0,0.0,0.0,0.0
0.0,0.0,0.0,0.0
0.0,0.0,0.0,0.0
0.0,0.0,0.0,0.0
0.0,0.0,0.0,0.0
108.23,-8.08,8.309,4.0
0.0,0.0,0.0,0.0
0.0,0.0,0.0,0.0
0.0,0.0,0.0,0.0
0.0,0.0,0.0,0.0
0.0,0.0,0.0,0.0
108.792,-7.975,8.351,10.0
0.0,0.0,0.0,0.0
0.0,0.0,0.0,0.0
0.0,0.0,0.0,0.0
0.0,0.0,0.0,0.0
0.0,0.0,0.0,0.0
109.05,-7.845,8.366,1.0
0.0,0.0,0.0,0.0
0.0,0.0,0.0,0.0
0.0,0.0,0.0,0.0
0.0,0.0,0.0,0.0
0.0,0.0,0.0,0.0
0.0,0.0,0.0,0.0
0.0,0.0,0.0,0.0
0.0,0.0,0.0,0.0
0.0,0.0,0.0,0.0
0.0,0.0,0.0,0.0
0.0,0.0,0.0,0.0
109.096,-7.546,8.344,6.0
0.0,0.0,0.0,0.0
0.0,0.0,0.0,0.0
0.0,0.0,0.0,0.0
0.0,0.0,0.0,0.0
0.0,0.0,0.0,0.0
109.085,-7.393,8.324,2.0
0.0,0.0,0.0,0.0
0.0,0.0,0.0,0.0
0.0,0.0,0.0,0.0
0.0,0.0,0.0,0.0
0.0,0.0,0.0,0.0
0.0,0.0,0.0,0.0
0.0,0.0,0.0,0.0
0.0,0.0,0.0,0.0
0.0,0.0,0.0,0.0
0.0,0.0,0.0,0.0
0.0,0.0,0.0,0.0
0.0,0.0,0.0,0.0
0.0,0.0,0.0,0.0
0.0,0.0,0.0,0.0
0.0,0.0,0.0,0.0
0.0,0.0,0.0,0.0
0.0,0.0,0.0,0.0
0.0,0.0,0.0,0.0
0.0,0.0,0.0,0.0
0.0,0.0,0.0,0.0
0.0,0.0,0.0,0.0
0.0,0.0,0.0,0.0
0.0,0.0,0.0,0.0
0.0,0.0,0.0,0.0
0.0,0.0,0.0,0.0
0.0,0.0,0.0,0.0
0.0,0.0,0.0,0.0
0.0,0.0,0.0,0.0
0.0,0.0,0.0,0.0
0.0,0.0,0.0,0.0
0.0,0.0,0.0,0.0
0.0,0.0,0.0,0.0
0.0,0.0,0.0,0.0
0.0,0.0,0.0,0.0
0.0,0.0,0.0,0.0
0.0,0.0,0.0,0.0
0.0,0.0,0.0,0.0
0.0,0.0,0.0,0.0
0.0,0.0,0.0,0.0
0.0,0.0,0.0,0.0
0.0,0.0,0.0,0.0
0.0,0.0,0.0,0.0
0.0,0.0,0.0,0.0
0.0,0.0,0.0,0.0
0.0,0.0,0.0,0.0
0.0,0.0,0.0,0.0
0.0,0.0,0.0,0.0
0.0,0.0,0.0,0.0
56.538,-3.18,5.734,1.0
0.0,0.0,0.0,0.0
0.0,0.0,0.0,0.0
0.0,0.0,0.0,0.0
0.0,0.0,0.0,0.0
0.0,0.0,0.0,0.0
56.585,-3.1,5.706,4.0
56.889,-3.101,5.41,1.0
92.413,-5.013,8.258,5.0
0.0,0.0,0.0,0.0
82.978,-4.457,6.459,3.0
91.518,-4.892,6.602,1.0
0.0,0.0,0.0,0.0
90.604,-4.808,8.559,7.0
92.442,-4.88,8.202,2.0
91.989,-4.831,7.626,4.0
92.725,-4.846,7.157,3.0
91.491,-4.757,6.54,3.0
92.551,-4.802,9.212,1.0
56.717,-2.927,5.319,3.0
92.544,-4.75,8.148,1.0
93.342,-4.766,7.673,5.0
83.084,-4.221,6.355,5.0
91.462,-4.623,6.474,3.0
92.651,-4.67,9.155,4.0
56.672,-2.842,5.274,8.0
0.0,0.0,0.0,0.0
93.329,-4.631,7.604,7.0
92.533,-4.568,7.009,6.0
91.496,-4.492,6.408,4.0
92.629,-4.536,9.083,5.0
56.692,-2.761,5.232,5.0
83.964,-4.066,7.266,1.0
93.346,-4.497,7.534,6.0
92.047,-4.41,6.901,6.0
89.779,-4.279,6.217,6.0
90.9,-4.319,8.84,5.0
56.688,-2.678,5.185,5.0
83.945,-3.944,7.197,8.0
93.173,-4.354,7.442,4.0
83.505,-3.88,6.191,6.0
89.767,-4.149,6.141,4.0
90.737,-4.18,8.747,11.0
56.748,-2.599,5.143,4.0
83.85,-3.819,7.116,9.0
93.267,-4.224,7.37,2.0
91.893,-4.138,6.733,7.0
89.59,-4.012,6.05,3.0
63.727,-2.844,6.087,4.0
56.731,-2.517,5.091,5.0
92.644,-4.087,7.779,16.0
90.391,-3.965,7.061,5.0
83.459,-3.641,6.04,7.0
89.862,-3.898,5.988,5.0
54.996,-2.376,5.202,7.0
56.77,-2.439,5.042,6.0
83.269,-3.557,6.915,11.0
90.407,-3.839,6.978,11.0
83.334,-3.518,5.952,8.0
90.146,-3.784,5.922,5.0
54.977,-2.297,5.147,14.0
56.799,-2.359,4.989,7.0
92.801,-3.832,7.615,4.0
90.401,-3.71,6.887,5.0
83.308,-3.398,5.867,9.0
93.032,-3.772,6.017,4.0
54.97,-2.219,5.09,11.0
63.455,-2.546,5.509,5.0
92.727,-3.698,7.514,5.0
92.9,-3.682,6.982,14.0
83.285,-3.281,5.779,10.0
83.264,-3.26,5.299,7.0
54.841,-2.137,5.02,11.0
91.142,-3.528,7.815,7.0
83.805,-3.225,6.701,4.0
90.484,-3.46,6.704,3.0
83.375,-3.168,5.696,6.0
174.592,-6.595,10.925,20.0
40.763,-1.532,3.687,50.0
82.1,-3.066,6.95,7.0
91.531,-3.397,7.219,10.0
90.666,-3.344,6.618,7.0
90.237,-3.307,6.066,9.0
174.592,-6.358,10.731,40.0
54.881,-1.987,4.902,11.0
90.052,-3.24,7.521,16.0
91.695,-3.277,7.126,10.0
82.445,-2.927,5.923,13.0
93.186,-3.286,6.156,12.0
174.608,-6.12,10.528,28.0
54.796,-1.909,4.83,6.0
83.047,-2.873,6.837,9.0
92.618,-3.183,7.088,49.0
83.22,-2.841,5.879,11.0
93.167,-3.16,6.044,13.0
174.925,-5.896,10.338,36.0
41.03,-1.374,3.566,17.0
82.922,-2.757,6.726,10.0
90.329,-2.983,6.803,14.0
83.154,-2.728,5.772,56.0
101.65,-3.312,6.469,7.0
174.463,-5.648,10.096,17.0
54.734,-1.76,4.689,13.0
83.076,-2.652,6.633,17.0
83.158,-2.636,6.158,46.0
83.447,-2.628,5.688,21.0
92.997,-2.907,5.8,43.0
90.551,-2.811,5.125,12.0
54.693,-1.686,4.614,10.0
83.085,-2.542,6.526,6.0
83.033,-2.522,6.04,6.0
83.613,-2.522,5.589,25.0
90.56,-2.712,5.529,48.0
90.499,-2.692,5.002,36.0
54.672,-1.613,4.539,8.0
83.536,-2.448,6.451,12.0
83.595,-2.431,5.969,22.0
90.609,-2.616,5.935,37.0
83.465,-2.392,4.983,41.0
90.467,-2.574,4.878,57.0
41.184,-1.162,3.363,42.0
41.25,-1.155,3.128,36.0
129.466,-3.599,9.065,24.0
92.322,-2.547,5.919,57.0
83.516,-2.287,4.87,43.0
90.479,-2.459,4.752,46.0
41.216,-1.11,3.307,60.0
41.242,-1.102,3.069,2.0
97.737,-2.593,6.705,1.0
92.375,-2.432,5.791,4.0
83.621,-2.185,4.757,44.0
90.524,-2.347,4.626,42.0
41.143,-1.057,3.242,65.0
41.232,-1.051,3.008,1.0
91.664,-2.318,6.154,12.0
97.911,-2.456,5.996,30.0
83.665,-2.082,4.637,35.0
90.54,-2.235,4.493,36.0
41.212,-1.008,3.186,61.0
41.157,-0.999,2.942,2.0
84.513,-2.034,5.549,16.0
91.401,-2.181,5.46,14.0
92.184,-2.182,4.972,27.0
90.583,-2.128,4.361,47.0
41.195,-0.958,3.122,45.0
84.194,-1.941,5.89,54.0
84.074,-1.922,5.391,40.0
91.386,-2.071,5.32,75.0
92.093,-2.071,4.826,27.0
90.616,-2.021,4.223,31.0
41.202,-0.909,3.059,10.0
84.491,-1.848,5.78,14.0
84.111,-1.824,5.264,52.0
91.368,-1.964,5.176,29.0
91.726,-1.955,4.664,78.0
99.052,-2.093,4.461,6.0
83.888,-1.753,6.095,5.0
129.881,-2.69,8.678,19.0
84.113,-1.727,5.131,50.0
83.743,-1.704,4.611,36.0
91.384,-1.843,4.5,78.0
128.561,-2.571,5.586,35.0
126.466,-2.499,8.985,31.0
85.875,-1.681,5.599,70.0
84.105,-1.632,4.993,47.0
127.122,-2.445,6.794,36.0
90.674,-1.727,4.318,38.0
128.437,-2.425,5.371,22.0
126.213,-2.353,8.758,35.0
85.374,-1.577,5.425,69.0
84.132,-1.539,4.856,33.0
127.146,-2.305,6.586,33.0
92.965,-1.67,4.275,30.0
184.619,-3.287,7.417,25.0
126.324,-2.218,8.555,33.0
85.23,-1.482,5.275,60.0
83.876,-1.444,4.701,28.0
90.786,-1.549,4.55,12.0
0.0,0.0,0.0,0.0
128.205,-2.147,4.936,20.0
124.895,-2.062,8.247,31.0
85.32,-1.394,5.135,12.0
83.876,-1.357,4.559,66.0
90.868,-1.456,4.4,57.0
91.47,-1.45,3.895,82.0
129.145,-2.028,4.749,24.0
124.894,-1.933,8.03,18.0
126.265,-1.934,7.381,22.0
83.88,-1.271,4.413,50.0
85.783,-1.286,4.004,150.0
91.528,-1.359,3.739,46.0
100.159,-1.471,3.508,11.0
94.255,-1.364,5.894,41.0
127.27,-1.822,7.215,15.0
83.9,-1.188,4.266,13.0
85.795,-1.202,3.855,150.0
99.528,-1.38,3.891,16.0
109.453,-1.501,3.641,6.0
82.754,-1.117,5.027,40.0
83.634,-1.116,4.593,28.0
79.209,-1.045,3.887,174.0
86.022,-1.123,3.71,70.0
79.446,-1.025,2.962,5.0
79.436,-1.014,2.5,7.0
83.207,-1.044,4.905,30.0
83.727,-1.039,4.447,38.0
79.243,-0.972,3.746,170.0
79.38,-0.963,3.282,150.0
79.419,-0.953,2.82,150.0
79.436,-0.942,2.357,151.0
83.37,-0.97,4.763,49.0
83.732,-0.963,4.294,98.0
85.841,-0.976,3.901,150.0
79.417,-0.892,3.138,164.0
79.425,-0.881,2.674,151.0
79.433,-0.871,2.211,151.0
85.408,-0.918,4.72,24.0
79.199,-0.841,3.914,151.0
85.914,-0.901,3.744,117.0
79.432,-0.823,2.989,165.0
79.416,-0.812,2.525,150.0
79.431,-0.802,2.062,151.0
93.844,-0.928,5.009,34.0
79.288,-0.774,3.768,181.0
89.537,-0.863,3.731,23.0
79.427,-0.755,2.838,151.0
79.418,-0.745,2.374,150.0
79.433,-0.735,1.911,167.0
93.8,-0.85,4.826,12.0
85.927,-0.768,3.919,147.0
79.419,-0.7,3.157,179.0
79.416,-0.691,2.685,150.0
79.431,-0.681,2.222,151.0
79.427,-0.672,1.759,176.0
93.393,-0.773,4.626,27.0
85.999,-0.701,3.757,26.0
79.434,-0.638,3.005,165.0
79.415,-0.629,2.532,150.0
79.435,-0.62,2.07,158.0
79.44,-0.611,1.606,165.0
79.271,-0.596,3.773,38.0
79.404,-0.587,3.313,28.0
79.43,-0.578,2.85,150.0
79.415,-0.57,2.378,150.0
79.427,-0.561,1.915,180.0
79.45,-0.553,1.451,162.0
59.489,-0.403,2.714,105.0
79.388,-0.53,3.157,150.0
79.421,-0.522,2.694,150.0
79.426,-0.514,2.222,156.0
79.42,-0.505,1.757,215.0
79.451,-0.497,1.294,159.0
59.485,-0.362,2.596,95.0
79.409,-0.475,3.0,150.0
79.43,-0.468,2.537,151.0
79.429,-0.46,2.065,168.0
79.425,-0.452,1.6,214.0
79.459,-0.444,1.137,153.0
59.473,-0.323,2.476,92.0
79.403,-0.424,2.842,150.0
79.424,-0.416,2.379,151.0
79.435,-0.409,1.906,166.0
79.431,-0.401,1.441,179.0
79.46,-0.394,0.978,151.0
79.41,-0.381,3.147,150.0
79.419,-0.374,2.681,150.0
79.425,-0.367,2.216,151.0
79.441,-0.36,1.745,175.0
79.448,-0.352,1.28,161.0
79.449,-0.345,0.815,150.0
79.419,-0.334,2.983,150.0
79.422,-0.327,2.517,150.0
79.435,-0.32,2.054,151.0
79.425,-0.313,1.58,255.0
79.451,-0.307,1.116,151.0
79.376,-0.3,0.652,114.0
79.42,-0.289,2.82,150.0
79.419,-0.283,2.354,150.0
79.434,-0.276,1.889,152.0
79.443,-0.27,1.416,171.0
79.459,-0.264,0.952,151.0
76.451,-0.248,0.469,14.0
79.429,-0.248,2.655,150.0
79.426,-0.242,2.19,151.0
79.443,-0.236,1.726,157.0
79.454,-0.23,1.254,151.0
79.451,-0.224,0.788,150.0
61.597,-0.169,0.251,17.0
79.433,-0.209,2.49,150.0
79.433,-0.203,2.025,151.0
79.447,-0.198,1.561,174.0
79.455,-0.192,1.087,151.0
79.29,-0.187,0.622,43.0
0.0,0.0,0.0,0.0
79.43,-0.173,2.324,150.0
79.448,-0.168,1.859,151.0
79.448,-0.163,1.395,163.0
79.456,-0.158,0.922,151.0
76.195,-0.147,0.44,15.0
46.469,-0.086,-0.003,20.0
79.429,-0.141,2.159,150.0
79.453,-0.136,1.694,152.0
79.457,-0.131,1.229,157.0
79.441,-0.126,0.756,150.0
56.176,-0.086,0.205,13.0
0.0,0.0,0.0,0.0
79.441,-0.111,1.992,151.0
79.444,-0.106,1.528,176.0
79.459,-0.102,1.062,158.0
79.226,-0.098,0.587,10.0
50.85,-0.06,0.079,2.0
39.656,-0.044,-0.17,21.0
79.455,-0.084,1.825,151.0
79.452,-0.079,1.358,161.0
79.462,-0.076,0.893,159.0
75.983,-0.069,0.402,9.0
45.115,-0.038,-0.025,20.0
38.614,-0.031,-0.247,7.0
79.455,-0.059,1.655,151.0
79.458,-0.056,1.189,155.0
79.441,-0.052,0.724,150.0
55.717,-0.034,0.176,29.0
40.83,-0.023,-0.109,16.0
38.246,-0.02,-0.327,0.0
79.447,-0.038,1.484,162.0
79.461,-0.035,1.02,159.0
76.278,-0.03,0.533,18.0
47.879,-0.017,0.049,21.0
39.227,-0.012,-0.188,23.0
32.291,-0.009,-0.344,1.0
79.462,-0.02,1.316,151.0
79.457,-0.017,0.851,171.0
61.761,-0.011,0.3,16.0
0.0,0.0,0.0,0.0
38.371,-0.004,-0.266,5.0
30.259,-0.002,-0.387,1.0
79.455,-0.004,1.149,151.0
79.391,-0.002,0.682,45.0
0.0,0.0,0.0,0.0
40.189,0.0,-0.129,27.0
33.598,0.001,-0.304,0.0
29.107,0.002,-0.434,2.0
79.467,0.007,0.979,154.0
76.063,0.009,0.491,15.0
0.0,0.0,0.0,0.0
38.886,0.006,-0.208,14.0
31.576,0.005,-0.354,1.0
27.592,0.005,-0.471,1.0
79.448,0.017,0.807,150.0
59.243,0.013,0.255,8.0
43.934,0.011,-0.067,16.0
38.234,0.01,-0.287,3.0
29.939,0.008,-0.399,2.0
26.511,0.007,-0.509,2.0
79.3,0.023,0.636,18.0
0.0,0.0,0.0,0.0
39.738,0.012,-0.146,34.0
33.185,0.011,-0.319,1.0
28.745,0.009,-0.445,2.0
25.256,0.008,-0.539,1.0
75.947,0.025,0.446,11.0
0.0,0.0,0.0,0.0
38.643,0.013,-0.226,14.0
30.956,0.011,-0.365,1.0
27.197,0.01,-0.48,1.0
23.986,0.008,-0.564,2.0
59.188,0.02,0.22,6.0
40.926,0.014,-0.087,16.0
38.07,0.013,-0.304,1.0
29.526,0.01,-0.411,2.0
26.146,0.009,-0.517,1.0
23.117,0.008,-0.593,4.0
47.98,0.015,0.075,17.0
39.31,0.012,-0.168,25.0
32.653,0.01,-0.33,1.0
28.216,0.008,-0.454,1.0
24.84,0.007,-0.545,2.0
22.217,0.006,-0.618,4.0
44.774,0.011,-0.025,22.0
38.371,0.009,-0.246,7.0
30.602,0.007,-0.375,1.0
26.91,0.006,-0.49,2.0
23.697,0.005,-0.57,2.0
21.305,0.004,-0.637,3.0
40.454,0.005,-0.108,17.0
34.771,0.004,-0.297,0.0
29.305,0.003,-0.422,2.0
25.82,0.002,-0.525,1.0
22.863,0.001,-0.599,3.0
20.428,0.001,-0.655,2.0
39.053,0.0,-0.188,15.0
31.851,0.0,-0.34,1.0
27.859,-0.001,-0.46,1.0
24.44,-0.001,-0.55,1.0
21.971,-0.001,-0.622,3.0
19.538,-0.001,-0.668,3.0
38.338,-0.006,-0.266,4.0
30.128,-0.006,-0.386,1.0
26.655,-0.006,-0.497,2.0
23.435,-0.005,-0.576,2.0
21.012,-0.005,-0.64,2.0
18.803,-0.005,-0.683,3.0
33.456,-0.013,-0.303,1.0
28.926,-0.012,-0.431,1.0
25.499,-0.011,-0.529,1.0
22.61,-0.011,-0.604,3.0
20.177,-0.01,-0.657,2.0
18.182,-0.01,-0.699,1.0
31.352,-0.02,-0.349,1.0
27.477,-0.018,-0.467,1.0
24.216,-0.017,-0.554,2.0
21.667,-0.016,-0.625,3.0
19.256,-0.015,-0.668,3.0
17.578,-0.014,-0.713,1.0
29.766,-0.028,-0.395,2.0
26.365,-0.025,-0.504,1.0
23.274,-0.023,-0.581,2.0
20.787,-0.022,-0.643,2.0
18.668,-0.02,-0.687,3.0
17.029,-0.019,-0.726,0.0
28.557,-0.036,-0.439,1.0
25.156,-0.033,-0.534,1.0
22.399,-0.03,-0.606,3.0
19.96,-0.028,-0.659,3.0
18.019,-0.026,-0.7,2.0
16.316,-0.024,-0.73,0.0
27.158,-0.044,-0.474,2.0
23.952,-0.04,-0.558,2.0
21.465,-0.037,-0.625,2.0
19.109,-0.034,-0.671,3.0
17.408,-0.032,-0.713,1.0
15.831,-0.03,-0.741,1.0
26.062,-0.053,-0.508,2.0
23.072,-0.048,-0.585,2.0
20.601,-0.044,-0.643,2.0
18.478,-0.04,-0.686,2.0
16.846,-0.038,-0.724,1.0
15.376,-0.035,-0.751,1.0
24.789,-0.061,-0.534,2.0
22.242,-0.056,-0.609,3.0
19.773,-0.051,-0.657,2.0
17.862,-0.047,-0.7,1.0
16.188,-0.044,-0.729,1.0
14.954,-0.041,-0.761,1.0
23.838,-0.07,-0.562,2.0
21.263,-0.063,-0.625,3.0
19.042,-0.058,-0.671,2.0
17.29,-0.054,-0.713,1.0
15.75,-0.05,-0.741,1.0
14.58,-0.047,-0.772,1.0
22.915,-0.078,-0.586,2.0
20.416,-0.071,-0.641,2.0
18.365,-0.065,-0.684,2.0
16.757,-0.061,-0.724,1.0
15.287,-0.057,-0.75,1.0
14.156,-0.053,-0.778,1.0
22.055,-0.087,-0.608,2.0
19.65,-0.079,-0.657,2.0
17.781,-0.073,-0.698,1.0
16.164,-0.068,-0.731,1.0
14.896,-0.064,-0.761,1.0
13.78,-0.06,-0.785,1.0
21.158,-0.096,-0.625,3.0
18.952,-0.087,-0.671,2.0
17.229,-0.081,-0.711,1.0
15.69,-0.075,-0.74,1.0
14.523,-0.071,-0.77,1.0
13.47,-0.067,-0.793,1.0
20.323,-0.104,-0.64,3.0
18.331,-0.096,-0.685,2.0
16.682,-0.089,-0.721,1.0
15.293,-0.083,-0.752,1.0
14.135,-0.078,-0.778,1.0
13.202,-0.074,-0.804,1.0
19.595,-0.113,-0.656,2.0
17.751,-0.104,-0.698,1.0
16.158,-0.097,-0.73,1.0
14.87,-0.09,-0.76,1.0
13.76,-0.085,-0.784,1.0
12.895,-0.081,-0.81,0.0
18.88,-0.122,-0.668,2.0
17.231,-0.113,-0.71,1.0
15.697,-0.104,-0.739,1.0
14.493,-0.098,-0.768,1.0
13.48,-0.092,-0.793,1.0
12.592,-0.088,-0.815,0.0
18.305,-0.131,-0.682,1.0
16.706,-0.121,-0.72,1.0
15.287,-0.113,-0.748,1.0
14.121,-0.105,-0.775,1.0
13.174,-0.1,-0.8,1.0
12.326,-0.095,-0.821,0.0
17.781,-0.14,-0.696,1.0
16.171,-0.129,-0.727,1.0
14.943,-0.121,-0.759,1.0
13.804,-0.113,-0.783,0.0
12.887,-0.107,-0.807,0.0
12.07,-0.102,-0.826,0.0
17.285,-0.15,-0.709,1.0
15.77,-0.138,-0.738,1.0
14.535,-0.129,-0.765,1.0
13.509,-0.122,-0.792,1.0
12.611,-0.115,-0.813,0.0
11.824,-0.109,-0.831,0.0
16.758,-0.159,-0.718,1.0
15.347,-0.147,-0.747,1.0
14.183,-0.137,-0.772,1.0
13.205,-0.13,-0.798,1.0
12.355,-0.123,-0.819,0.0
11.619,-0.117,-0.838,0.0
16.24,-0.167,-0.724,1.0
14.977,-0.156,-0.755,1.0
13.864,-0.146,-0.78,0.0
12.951,-0.138,-0.805,0.0
12.114,-0.131,-0.824,0.0
11.402,-0.124,-0.843,0.0
15.86,-0.177,-0.735,1.0
14.6,-0.164,-0.762,1.0
13.586,-0.155,-0.788,1.0
12.666,-0.146,-0.81,1.0
11.88,-0.138,-0.829,1.0
11.192,-0.132,-0.847,0.0
15.45,-0.186,-0.743,1.0
14.268,-0.174,-0.769,1.0
13.311,-0.164,-0.796,1.0
12.446,-0.155,-0.818,0.0
11.664,-0.146,-0.834,0.0
11.007,-0.14,-0.852,0.0
15.087,-0.195,-0.751,1.0
13.97,-0.183,-0.777,1.0
13.05,-0.172,-0.802,0.0
12.19,-0.163,-0.821,0.0
11.471,-0.155,-0.84,0.0
10.816,-0.147,-0.855,0.0
14.754,-0.205,-0.76,1.0
13.672,-0.192,-0.783,1.0
12.796,-0.181,-0.808,0.0
11.963,-0.171,-0.826,1.0
11.275,-0.163,-0.844,0.0
10.638,-0.155,-0.859,0.0
14.42,-0.214,-0.766,1.0
13.429,-0.201,-0.792,1.0
12.529,-0.19,-0.811,0.0
11.748,-0.18,-0.831,0.0
11.095,-0.171,-0.849,0.0
10.478,-0.163,-0.863,0.0
14.096,-0.223,-0.772,1.0
13.171,-0.211,-0.798,1.0
12.33,-0.199,-0.818,0.0
11.573,-0.188,-0.837,0.0
10.912,-0.179,-0.853,0.0
10.295,-0.171,-0.865,0.0
13.818,-0.233,-0.778,1.0
12.917,-0.22,-0.803,0.0
12.098,-0.208,-0.822,0.0
11.394,-0.197,-0.842,0.0
10.753,-0.188,-0.857,0.0
10.105,-0.178,-0.865,1.0
13.574,-0.243,-0.786,1.0
12.693,-0.229,-0.808,1.0
11.901,-0.217,-0.827,1.0
11.217,-0.206,-0.846,0.0
10.575,-0.196,-0.859,0.0
9.979,-0.187,-0.869,1.0
13.354,-0.253,-0.793,1.0
12.485,-0.239,-0.814,0.0
11.68,-0.225,-0.83,0.0
11.037,-0.215,-0.849,0.0
10.432,-0.205,-0.864,0.0
9.83,-0.195,-0.871,2.0
13.106,-0.263,-0.798,1.0
12.264,-0.248,-0.818,0.0
11.539,-0.235,-0.837,0.0
10.861,-0.223,-0.852,0.0
10.272,-0.213,-0.865,0.0
9.765,-0.204,-0.88,1.0
12.885,-0.273,-0.803,1.0
12.055,-0.257,-0.821,0.0
11.35,-0.244,-0.839,0.0
10.72,-0.232,-0.856,0.0
10.101,-0.221,-0.866,0.0
9.628,-0.212,-0.881,0.0
12.672,-0.282,-0.808,1.0
11.887,-0.267,-0.827,1.0
11.195,-0.253,-0.844,0.0
10.585,-0.242,-0.86,0.0
9.946,-0.229,-0.866,1.0
9.496,-0.22,-0.882,0.0
12.466,-0.292,-0.812,0.0
11.714,-0.277,-0.831,0.0
11.041,-0.263,-0.847,0.0
10.43,-0.25,-0.862,0.0
9.831,-0.237,-0.87,2.0
9.388,-0.229,-0.885,0.0
12.289,-0.302,-0.817,0.0
11.559,-0.286,-0.835,0.0
10.882,-0.272,-0.849,0.0
10.285,-0.259,-0.864,0.0
9.751,-0.247,-0.875,1.0
9.256,-0.236,-0.885,0.0
12.108,-0.312,-0.821,0.0
11.392,-0.296,-0.838,0.0
10.73,-0.281,-0.851,0.0
10.142,-0.267,-0.865,0.0
9.653,-0.256,-0.879,0.0
9.169,-0.245,-0.888,0.0
11.944,-0.322,-0.825,1.0
11.256,-0.306,-0.842,0.0
10.64,-0.291,-0.858,0.0
10.017,-0.276,-0.867,0.0
9.536,-0.265,-0.88,0.0
9.086,-0.254,-0.892,0.0
11.781,-0.332,-0.828,0.0
11.107,-0.316,-0.845,0.0
10.516,-0.301,-0.861,0.0
9.871,-0.284,-0.866,1.0
9.417,-0.273,-0.881,0.0
8.984,-0.263,-0.893,0.0
11.634,-0.343,-0.832,0.0
10.976,-0.326,-0.848,0.0
10.404,-0.311,-0.864,0.0
9.797,-0.295,-0.871,2.0
9.354,-0.283,-0.886,0.0
8.892,-0.271,-0.894,0.0
11.501,-0.353,-0.835,0.0
10.85,-0.336,-0.851,0.0
10.25,-0.319,-0.863,0.0
9.744,-0.305,-0.878,1.0
9.274,-0.293,-0.889,0.0
8.8,-0.28,-0.895,0.0
11.373,-0.364,-0.839,0.0
10.735,-0.346,-0.854,0.0
10.117,-0.328,-0.863,0.0
9.647,-0.315,-0.88,0.0
9.155,-0.301,-0.888,0.0
8.74,-0.289,-0.898,0.0
11.235,-0.374,-0.841,0.0
10.623,-0.356,-0.856,0.0
10.005,-0.337,-0.864,0.0
9.543,-0.324,-0.88,0.0
9.089,-0.31,-0.891,0.0
8.647,-0.297,-0.898,0.0
11.127,-0.385,-0.844,0.0
10.521,-0.366,-0.859,0.0
9.91,-0.347,-0.866,1.0
9.462,-0.333,-0.882,0.0
9.006,-0.319,-0.892,0.0
8.595,-0.307,-0.901,0.0
11.02,-0.395,-0.847,0.0
10.431,-0.377,-0.861,0.0
9.819,-0.357,-0.867,2.0
9.373,-0.342,-0.883,0.0
8.915,-0.328,-0.891,0.0
8.524,-0.315,-0.902,0.0
10.915,-0.406,-0.849,0.0
10.323,-0.386,-0.862,0.0
9.774,-0.368,-0.873,2.0
9.307,-0.352,-0.886,0.0
8.84,-0.337,-0.892,0.0
8.455,-0.324,-0.902,0.0
10.814,-0.417,-0.851,0.0
10.221,-0.396,-0.863,0.0
9.721,-0.379,-0.877,1.0
9.24,-0.362,-0.887,0.0
8.783,-0.346,-0.894,0.0
8.413,-0.334,-0.905,0.0
10.722,-0.427,-0.853,0.0
10.117,-0.406,-0.863,0.0
9.642,-0.389,-0.878,0.0
9.149,-0.371,-0.886,0.0
8.722,-0.356,-0.895,0.0
8.337,-0.342,-0.904,0.0
10.64,-0.438,-0.855,0.0
10.016,-0.415,-0.862,0.0
9.572,-0.399,-0.879,0.0
9.108,-0.381,-0.89,0.0
8.665,-0.365,-0.897,0.0
8.298,-0.352,-0.906,0.0
10.562,-0.449,-0.857,0.0
9.947,-0.425,-0.864,1.0
9.494,-0.408,-0.879,0.0
9.022,-0.39,-0.888,0.0
8.615,-0.375,-0.898,0.0
8.258,-0.361,-0.908,0.0
10.474,-0.46,-0.858,0.0
9.889,-0.436,-0.866,2.0
9.435,-0.418,-0.88,0.0
8.964,-0.4,-0.889,0.0
8.559,-0.384,-0.898,0.0
8.203,-0.37,-0.908,0.0
10.418,-0.471,-0.86,0.0
9.828,-0.447,-0.868,2.0
9.378,-0.429,-0.882,0.0
8.94,-0.411,-0.893,0.0
8.529,-0.394,-0.9,0.0
8.169,-0.379,-0.91,0.0
10.353,-0.482,-0.862,0.0
9.796,-0.459,-0.871,2.0
9.322,-0.439,-0.882,0.0
8.893,-0.421,-0.893,0.0
8.471,-0.403,-0.9,0.0
8.145,-0.389,-0.912,0.0
10.288,-0.493,-0.862,0.0
9.77,-0.471,-0.874,2.0
9.28,-0.449,-0.884,0.0
8.835,-0.43,-0.893,0.0
8.437,-0.413,-0.901,0.0
8.088,-0.398,-0.91,0.0
10.203,-0.503,-0.861,0.0
9.739,-0.482,-0.877,1.0
9.233,-0.46,-0.884,0.0
8.777,-0.439,-0.892,0.0
8.426,-0.424,-0.904,0.0
8.056,-0.407,-0.911,0.0
10.184,-0.516,-0.864,0.0
9.682,-0.493,-0.877,0.0
9.209,-0.471,-0.886,0.0
8.755,-0.45,-0.894,0.0
8.383,-0.433,-0.904,0.0
8.019,-0.416,-0.91,0.0
10.116,-0.526,-0.863,0.0
9.642,-0.504,-0.878,0.0
9.168,-0.481,-0.887,0.0
8.709,-0.459,-0.893,0.0
8.353,-0.443,-0.904,0.0
7.988,-0.425,-0.91,0.0
10.058,-0.537,-0.863,0.0
9.597,-0.514,-0.877,0.0
9.13,-0.492,-0.887,0.0
8.694,-0.47,-0.895,0.0
8.314,-0.452,-0.903,0.0
7.978,-0.436,-0.912,0.0
10.014,-0.548,-0.863,1.0
9.555,-0.525,-0.877,0.0
9.104,-0.503,-0.888,0.0
8.673,-0.481,-0.896,0.0
8.311,-0.463,-0.906,0.0
7.966,-0.446,-0.914,0.0
9.973,-0.559,-0.862,1.0
9.54,-0.537,-0.879,0.0
9.078,-0.513,-0.888,0.0
8.65,-0.491,-0.896,0.0
8.288,-0.473,-0.906,0.0
7.945,-0.456,-0.914,0.0
9.953,-0.571,-0.864,2.0
9.505,-0.548,-0.878,0.0
9.053,-0.524,-0.888,0.0
8.633,-0.502,-0.897,0.0
8.261,-0.483,-0.905,0.0
7.93,-0.465,-0.914,0.0
9.947,-0.584,-0.865,2.0
9.483,-0.559,-0.879,0.0
9.04,-0.535,-0.889,0.0
8.616,-0.513,-0.897,0.0
8.24,-0.492,-0.904,0.0
7.914,-0.475,-0.914,0.0
9.928,-0.596,-0.866,2.0
9.463,-0.571,-0.879,0.0
9.036,-0.547,-0.89,0.0
8.618,-0.524,-0.898,0.0
8.249,-0.504,-0.907,0.0
7.918,-0.486,-0.915,0.0
9.914,-0.608,-0.866,2.0
9.471,-0.583,-0.881,0.0
9.018,-0.558,-0.89,0.0
8.588,-0.533,-0.897,0.0
8.23,-0.513,-0.906,0.0
7.907,-0.495,-0.915,0.0
9.902,-0.621,-0.866,2.0
9.443,-0.594,-0.879,0.0
8.996,-0.568,-0.888,0.0
8.597,-0.545,-0.898,0.0
8.227,-0.524,-0.906,0.0
7.921,-0.506,-0.917,0.0
9.883,-0.632,-0.865,2.0
9.441,-0.606,-0.88,0.0
9.008,-0.581,-0.89,0.0
8.591,-0.556,-0.898,0.0
8.216,-0.534,-0.905,0.0
7.908,-0.516,-0.916,0.0
9.888,-0.645,-0.866,2.0
9.439,-0.618,-0.879,0.0
8.979,-0.59,-0.887,0.0
8.585,-0.567,-0.897,0.0
8.236,-0.546,-0.907,0.0
7.923,-0.527,-0.918,0.0
9.893,-0.658,-0.866,3.0
9.451,-0.631,-0.88,0.0
9.017,-0.604,-0.891,0.0
8.591,-0.578,-0.898,0.0
8.228,-0.555,-0.906,0.0
7.93,-0.537,-0.918,0.0
9.891,-0.67,-0.865,3.0
9.457,-0.643,-0.88,0.0
9.023,-0.616,-0.89,0.0
8.598,-0.589,-0.898,0.0
8.232,-0.566,-0.906,0.0
7.912,-0.546,-0.915,0.0
9.897,-0.683,-0.865,3.0
9.481,-0.656,-0.881,0.0
9.029,-0.627,-0.89,0.0
8.61,-0.6,-0.898,0.0
8.231,-0.576,-0.904,0.0
7.921,-0.557,-0.915,0.0
9.915,-0.696,-0.865,3.0
9.495,-0.669,-0.881,0.0
9.02,-0.638,-0.888,0.0
8.609,-0.611,-0.896,0.0
8.247,-0.587,-0.905,0.0
7.934,-0.567,-0.915,0.0
9.935,-0.71,-0.865,2.0
9.512,-0.682,-0.881,0.0
9.053,-0.651,-0.889,0.0
8.637,-0.623,-0.897,0.0
8.276,-0.599,-0.906,0.0
7.96,-0.578,-0.916,0.0
9.95,-0.723,-0.864,2.0
9.52,-0.694,-0.879,0.0
9.081,-0.664,-0.889,0.0
8.647,-0.634,-0.896,0.0
8.288,-0.61,-0.905,0.0
7.954,-0.588,-0.913,0.0
9.983,-0.737,-0.864,1.0
9.556,-0.707,-0.88,0.0
9.109,-0.676,-0.889,0.0
8.655,-0.645,-0.894,0.0
8.31,-0.621,-0.905,0.0
7.98,-0.599,-0.914,0.0
10.021,-0.751,-0.864,1.0
9.573,-0.72,-0.878,0.0
9.139,-0.689,-0.889,0.0
8.69,-0.657,-0.895,0.0
8.323,-0.632,-0.904,0.0
7.998,-0.609,-0.913,0.0
10.041,-0.764,-0.862,0.0
9.585,-0.731,-0.876,0.0
9.175,-0.702,-0.889,0.0
8.725,-0.67,-0.895,0.0
8.353,-0.643,-0.904,0.0
8.015,-0.619,-0.912,0.0
10.088,-0.778,-0.862,0.0
9.663,-0.748,-0.879,0.0
9.191,-0.713,-0.887,0.0
8.759,-0.682,-0.895,0.0
8.39,-0.655,-0.904,0.0
8.048,-0.63,-0.912,0.0
10.156,-0.795,-0.863,0.0
9.699,-0.761,-0.878,0.0
9.226,-0.726,-0.886,0.0
8.786,-0.693,-0.894,0.0
8.426,-0.667,-0.904,0.0
8.067,-0.641,-0.91,0.0
10.225,-0.811,-0.864,0.0
9.746,-0.775,-0.878,2.0
9.255,-0.738,-0.884,0.0
8.824,-0.706,-0.893,0.0
8.444,-0.677,-0.902,0.0
8.097,-0.651,-0.909,0.0
10.284,-0.826,-0.864,0.0
9.767,-0.787,-0.874,2.0
9.306,-0.752,-0.884,0.0
8.865,-0.718,-0.892,0.0
8.493,-0.69,-0.902,0.0
8.138,-0.663,-0.909,0.0
10.333,-0.84,-0.862,0.0
9.795,-0.799,-0.871,3.0
9.362,-0.766,-0.884,0.0
8.925,-0.732,-0.893,0.0
8.534,-0.702,-0.901,0.0
8.178,-0.674,-0.909,0.0
10.387,-0.855,-0.861,0.0
9.827,-0.811,-0.868,3.0
9.405,-0.778,-0.883,0.0
8.962,-0.743,-0.892,0.0
8.559,-0.712,-0.899,0.0
8.201,-0.684,-0.906,0.0
10.457,-0.871,-0.86,0.0
9.883,-0.825,-0.867,2.0
9.458,-0.791,-0.882,0.0
9.039,-0.758,-0.893,0.0
8.61,-0.724,-0.898,0.0
8.27,-0.697,-0.909,0.0
10.529,-0.886,-0.859,0.0
9.937,-0.839,-0.865,2.0
9.519,-0.805,-0.881,0.0
9.053,-0.768,-0.888,0.0
8.671,-0.737,-0.899,0.0
8.301,-0.707,-0.906,0.0
10.595,-0.901,-0.857,0.0
10.003,-0.853,-0.864,1.0
9.592,-0.82,-0.881,0.0
9.138,-0.783,-0.89,0.0
8.715,-0.749,-0.897,0.0
8.345,-0.718,-0.905,0.0
10.686,-0.918,-0.856,0.0
10.085,-0.869,-0.863,0.0
9.671,-0.835,-0.881,0.0
9.191,-0.795,-0.888,0.0
8.758,-0.76,-0.894,0.0
8.397,-0.73,-0.904,0.0
10.749,-0.933,-0.853,1.0
10.199,-0.887,-0.865,0.0
9.739,-0.849,-0.879,1.0
9.275,-0.81,-0.889,0.0
8.84,-0.774,-0.896,0.0
8.47,-0.743,-0.905,0.0
10.83,-0.949,-0.851,1.0
10.293,-0.903,-0.864,0.0
9.768,-0.859,-0.874,2.0
9.333,-0.823,-0.887,0.0
8.908,-0.787,-0.895,0.0
8.523,-0.755,-0.903,0.0
10.905,-0.964,-0.847,0.0
10.383,-0.919,-0.863,1.0
9.825,-0.872,-0.87,3.0
9.411,-0.836,-0.886,0.0
8.967,-0.799,-0.893,0.0
8.579,-0.766,-0.902,0.0
11.021,-0.982,-0.847,0.0
10.436,-0.931,-0.859,2.0
9.889,-0.884,-0.867,2.0
9.471,-0.849,-0.883,0.0
9.012,-0.809,-0.89,0.0
8.645,-0.778,-0.901,0.0
11.099,-0.997,-0.843,0.0
10.505,-0.945,-0.855,1.0
9.976,-0.899,-0.866,1.0
9.567,-0.864,-0.883,0.0
9.131,-0.826,-0.893,0.0
8.703,-0.789,-0.898,0.0
11.195,-1.013,-0.84,0.0
10.604,-0.961,-0.853,0.0
10.1,-0.917,-0.867,0.0
9.656,-0.878,-0.882,0.0
9.191,-0.837,-0.89,0.0
8.775,-0.801,-0.897,0.0
11.306,-1.03,-0.837,0.0
10.738,-0.979,-0.853,0.0
10.18,-0.93,-0.864,0.0
9.738,-0.891,-0.88,1.0
9.274,-0.85,-0.889,0.0
8.846,-0.812,-0.896,0.0
11.452,-1.05,-0.837,0.0
10.824,-0.994,-0.849,0.0
10.293,-0.946,-0.863,0.0
9.784,-0.901,-0.874,3.0
9.357,-0.863,-0.887,0.0
8.928,-0.825,-0.895,0.0
11.577,-1.068,-0.834,0.0
10.971,-1.013,-0.849,0.0
10.407,-0.963,-0.862,0.0
9.859,-0.913,-0.871,2.0
9.445,-0.876,-0.885,0.0
9.006,-0.837,-0.893,0.0
11.725,-1.087,-0.832,0.0
11.063,-1.027,-0.845,0.0
10.524,-0.979,-0.86,0.0
9.941,-0.926,-0.867,2.0
9.526,-0.888,-0.883,0.0
9.095,-0.85,-0.892,0.0
11.855,-1.105,-0.829,0.0
11.204,-1.046,-0.843,0.0
10.592,-0.99,-0.854,0.0
10.053,-0.941,-0.866,1.0
9.65,-0.904,-0.884,0.0
9.192,-0.863,-0.891,0.0
11.973,-1.121,-0.824,0.0
11.312,-1.061,-0.839,0.0
10.713,-1.006,-0.852,0.0
10.147,-0.954,-0.863,0.0
9.754,-0.918,-0.882,2.0
9.293,-0.876,-0.891,0.0
12.096,-1.138,-0.819,0.0
11.463,-1.079,-0.837,0.0
10.86,-1.024,-0.851,0.0
10.306,-0.973,-0.865,0.0
9.795,-0.926,-0.874,3.0
9.377,-0.887,-0.888,0.0
12.304,-1.162,-0.819,0.0
11.629,-1.099,-0.836,0.0
10.99,-1.04,-0.849,0.0
10.422,-0.987,-0.862,0.0
9.885,-0.937,-0.871,2.0
9.478,-0.9,-0.886,0.0
12.472,-1.182,-0.815,0.0
11.752,-1.114,-0.831,0.0
11.102,-1.054,-0.845,0.0
10.54,-1.001,-0.859,0.0
9.989,-0.95,-0.868,1.0
9.572,-0.911,-0.884,0.0
12.656,-1.203,-0.812,0.0
11.867,-1.128,-0.825,0.0
11.267,-1.072,-0.844,0.0
10.679,-1.017,-0.858,0.0
10.104,-0.963,-0.866,0.0
9.713,-0.927,-0.885,1.0
12.854,-1.224,-0.809,0.0
12.104,-1.154,-0.827,0.0
11.427,-1.09,-0.841,0.0
10.789,-1.03,-0.853,0.0
10.24,-0.979,-0.865,0.0
9.781,-0.935,-0.879,3.0
13.034,-1.244,-0.804,0.0
12.284,-1.173,-0.824,0.0
11.547,-1.104,-0.836,0.0
10.945,-1.047,-0.852,0.0
10.383,-0.994,-0.864,0.0
9.857,-0.944,-0.873,3.0
13.247,-1.266,-0.801,0.0
12.412,-1.187,-0.817,0.0
11.702,-1.12,-0.832,0.0
11.087,-1.062,-0.849,0.0
10.507,-1.007,-0.861,0.0
9.958,-0.955,-0.869,2.0
13.458,-1.288,-0.797,0.0
12.616,-1.208,-0.814,0.0
11.864,-1.137,-0.829,0.0
11.231,-1.077,-0.846,0.0
10.669,-1.023,-0.86,0.0
10.102,-0.969,-0.869,1.0
13.645,-1.307,-0.79,0.0
12.807,-1.227,-0.81,0.0
12.044,-1.155,-0.826,0.0
11.389,-1.092,-0.843,0.0
10.761,-1.033,-0.854,0.0
10.231,-0.982,-0.866,0.0
13.845,-1.326,-0.784,0.0
13.026,-1.248,-0.807,0.0
12.265,-1.176,-0.825,0.0
11.528,-1.106,-0.838,0.0
10.939,-1.049,-0.853,0.0
10.373,-0.996,-0.865,0.0
14.095,-1.35,-0.779,0.0
13.233,-1.268,-0.802,0.0
12.4,-1.188,-0.817,0.0
11.682,-1.12,-0.834,0.0
11.088,-1.063,-0.85,0.0
10.521,-1.009,-0.863,0.0
14.363,-1.375,-0.775,0.0
13.437,-1.287,-0.796,0.0
12.629,-1.209,-0.816,0.0
11.871,-1.137,-0.831,0.0
11.228,-1.075,-0.846,0.0
10.661,-1.021,-0.86,0.0
14.615,-1.398,-0.769,0.0
13.661,-1.306,-0.791,0.0
12.843,-1.228,-0.812,0.0
12.1,-1.157,-0.831,0.0
11.414,-1.092,-0.844,0.0
10.792,-1.032,-0.856,0.0
14.891,-1.422,-0.764,0.0
13.889,-1.326,-0.786,0.0
13.066,-1.247,-0.808,0.0
12.277,-1.172,-0.826,0.0
11.577,-1.105,-0.841,0.0
10.959,-1.046,-0.854,0.0
15.198,-1.448,-0.758,0.0
14.141,-1.347,-0.781,0.0
13.286,-1.266,-0.804,0.0
12.445,-1.185,-0.82,0.0
11.738,-1.118,-0.836,0.0
11.086,-1.056,-0.849,0.0
15.544,-1.478,-0.754,1.0
14.414,-1.37,-0.776,1.0
13.482,-1.281,-0.797,0.0
12.651,-1.201,-0.816,0.0
11.889,-1.129,-0.83,0.0
11.257,-1.069,-0.846,0.0
15.867,-1.504,-0.748,1.0
14.647,-1.388,-0.768,0.0
13.704,-1.298,-0.791,1.0
12.861,-1.218,-0.812,0.0
12.067,-1.142,-0.826,0.0
11.45,-1.083,-0.845,0.0
16.24,-1.534,-0.743,5.0
14.963,-1.413,-0.764,0.0
13.934,-1.315,-0.785,0.0
13.108,-1.236,-0.809,0.0
12.289,-1.159,-0.824,0.0
11.631,-1.096,-0.842,0.0
16.291,-1.533,-0.723,11.0
15.317,-1.44,-0.761,0.0
14.212,-1.335,-0.781,0.0
13.33,-1.252,-0.804,0.0
12.496,-1.173,-0.82,0.0
11.787,-1.106,-0.836,1.0
16.377,-1.534,-0.704,11.0
15.599,-1.46,-0.753,0.0
14.478,-1.354,-0.775,1.0
13.539,-1.265,-0.798,0.0
12.744,-1.19,-0.819,0.0
11.957,-1.116,-0.831,0.0
16.481,-1.536,-0.685,4.0
15.983,-1.488,-0.749,1.0
14.71,-1.369,-0.767,0.0
13.754,-1.279,-0.791,0.0
12.909,-1.2,-0.811,0.0
12.139,-1.127,-0.827,0.0
17.647,-1.636,-0.709,0.0
16.254,-1.505,-0.739,10.0
15.044,-1.392,-0.763,0.0
13.989,-1.293,-0.785,0.0
13.201,-1.219,-0.811,0.0
12.316,-1.137,-0.822,0.0
18.088,-1.667,-0.701,0.0
16.323,-1.503,-0.719,10.0
15.396,-1.416,-0.759,0.0
14.317,-1.315,-0.783,0.0
13.413,-1.231,-0.805,0.0
12.462,-1.143,-0.814,0.0
18.532,-1.697,-0.693,0.0
16.389,-1.499,-0.699,10.0
15.704,-1.435,-0.753,0.0
14.521,-1.325,-0.774,1.0
13.626,-1.242,-0.798,0.0
12.708,-1.157,-0.812,0.0
18.995,-1.727,-0.683,1.0
16.698,-1.517,-0.689,2.0
16.146,-1.465,-0.751,2.0
14.834,-1.344,-0.77,0.0
13.839,-1.252,-0.791,0.0
12.98,-1.173,-0.811,0.0
19.492,-1.759,-0.674,0.0
17.778,-1.602,-0.708,0.0
16.279,-1.465,-0.734,10.0
15.151,-1.362,-0.765,0.0
14.055,-1.262,-0.784,0.0
13.305,-1.193,-0.813,0.0
19.945,-1.786,-0.661,1.0
18.229,-1.63,-0.701,0.0
16.333,-1.458,-0.714,8.0
15.494,-1.381,-0.76,0.0
14.404,-1.282,-0.783,0.0
13.477,-1.198,-0.804,0.0
20.513,-1.821,-0.652,1.0
18.676,-1.655,-0.692,0.0
16.404,-1.452,-0.694,6.0
15.796,-1.396,-0.753,0.0
14.642,-1.292,-0.776,0.0
13.659,-1.203,-0.796,0.0
21.168,-1.862,-0.643,1.0
19.118,-1.679,-0.682,0.0
16.815,-1.474,-0.688,1.0
16.188,-1.417,-0.75,2.0
14.932,-1.305,-0.77,0.0
13.907,-1.213,-0.791,0.0
21.693,-1.89,-0.629,1.0
19.648,-1.708,-0.673,0.0
17.892,-1.553,-0.707,0.0
16.276,-1.41,-0.731,10.0
15.254,-1.319,-0.766,0.0
14.086,-1.216,-0.781,0.0
22.287,-1.922,-0.615,1.0
20.16,-1.735,-0.663,0.0
18.327,-1.574,-0.699,0.0
16.341,-1.401,-0.711,7.0
15.583,-1.333,-0.76,0.0
14.516,-1.24,-0.785,0.0
23.001,-1.961,-0.603,1.0
20.69,-1.76,-0.652,0.0
18.766,-1.593,-0.69,0.0
16.458,-1.395,-0.694,2.0
15.875,-1.343,-0.753,0.0
14.675,-1.239,-0.774,0.0
23.555,-1.985,-0.585,1.0
21.2,-1.783,-0.639,1.0
19.152,-1.607,-0.678,1.0
17.608,-1.474,-0.718,0.0
16.218,-1.355,-0.747,1.0
15.043,-1.254,-0.772,0.0
24.441,-2.035,-0.574,1.0
21.857,-1.815,-0.629,0.0
19.707,-1.633,-0.671,0.0
17.95,-1.484,-0.707,0.0
16.317,-1.346,-0.729,1.0
15.382,-1.266,-0.769,0.0
25.239,-2.074,-0.559,1.0
22.405,-1.837,-0.614,1.0
20.289,-1.659,-0.663,0.0
18.393,-1.501,-0.7,1.0
16.406,-1.335,-0.711,1.0
15.623,-1.269,-0.76,0.0
25.944,-2.104,-0.54,1.0
23.111,-1.869,-0.603,1.0
20.756,-1.674,-0.651,0.0
18.77,-1.51,-0.69,1.0
17.085,-1.371,-0.718,1.0
15.945,-1.276,-0.754,0.0
26.537,-2.121,-0.517,1.0
23.646,-1.885,-0.585,1.0
21.279,-1.692,-0.639,1.0
19.221,-1.524,-0.681,0.0
17.641,-1.395,-0.718,1.0
16.242,-1.281,-0.747,0.0
27.642,-2.176,-0.502,1.0
24.427,-1.918,-0.573,1.0
21.832,-1.709,-0.627,1.0
19.708,-1.539,-0.673,0.0
18.02,-1.403,-0.71,0.0
16.381,-1.272,-0.732,0.0
28.35,-2.197,-0.479,1.0
25.264,-1.952,-0.56,1.0
22.431,-1.728,-0.616,1.0
20.219,-1.553,-0.664,0.0
18.414,-1.41,-0.702,1.0
16.725,-1.277,-0.726,0.0
29.141,-2.222,-0.455,2.0
25.891,-1.968,-0.541,1.0
23.047,-1.746,-0.603,1.0
20.691,-1.563,-0.653,1.0
18.814,-1.417,-0.693,1.0
17.307,-1.299,-0.729,0.0
30.058,-2.252,-0.431,1.0
26.606,-1.987,-0.522,1.0
23.621,-1.759,-0.589,1.0
21.241,-1.576,-0.644,1.0
19.17,-1.418,-0.683,0.0
17.705,-1.305,-0.724,0.0
31.524,-2.32,-0.413,1.0
27.253,-1.999,-0.501,1.0
24.374,-1.782,-0.577,1.0
21.739,-1.584,-0.632,1.0
19.638,-1.426,-0.675,0.0
17.975,-1.3,-0.713,0.0
32.473,-2.346,-0.386,1.0
28.192,-2.029,-0.484,1.0
25.097,-1.8,-0.564,1.0
22.271,-1.591,-0.621,1.0
20.133,-1.433,-0.668,0.0
18.332,-1.3,-0.705,0.0
33.984,-2.407,-0.363,0.0
29.026,-2.048,-0.464,1.0
25.694,-1.806,-0.547,1.0
22.901,-1.604,-0.611,1.0
20.582,-1.436,-0.658,0.0
18.521,-1.287,-0.691,0.0
36.356,-2.523,-0.346,0.0
29.867,-2.064,-0.443,1.0
26.357,-1.814,-0.53,1.0
23.373,-1.602,-0.596,1.0
21.159,-1.445,-0.652,0.0
18.923,-1.287,-0.684,1.0
37.873,-2.572,-0.317,1.0
30.644,-2.072,-0.418,1.0
27.053,-1.822,-0.513,1.0
23.94,-1.605,-0.583,1.0
21.635,-1.445,-0.642,0.0
19.419,-1.291,-0.679,2.0
40.661,-2.699,-0.293,0.0
31.779,-2.1,-0.398,0.0
27.649,-1.819,-0.493,1.0
24.764,-1.622,-0.575,1.0
22.038,-1.437,-0.629,0.0
19.789,-1.285,-0.67,2.0
41.172,-2.669,-0.251,0.0
33.071,-2.134,-0.377,1.0
28.513,-1.832,-0.477,1.0
25.227,-1.613,-0.558,1.0
22.561,-1.436,-0.619,0.0
20.201,-1.28,-0.662,2.0
0.0,0.0,0.0,0.0
34.406,-2.165,-0.355,0.0
29.178,-1.827,-0.456,1.0
25.926,-1.616,-0.546,2.0
23.236,-1.441,-0.612,0.0
20.619,-1.273,-0.653,2.0
50.333,-3.101,-0.198,2.0
37.551,-2.302,-0.347,0.0
29.966,-1.828,-0.436,1.0
26.491,-1.608,-0.53,2.0
23.493,-1.419,-0.595,1.0
21.096,-1.268,-0.646,4.0
50.454,-3.025,-0.146,8.0
38.679,-2.308,-0.318,0.0
30.784,-1.827,-0.417,1.0
27.014,-1.595,-0.512,1.0
23.745,-1.394,-0.577,4.0
21.582,-1.261,-0.639,4.0
50.472,-2.942,-0.094,7.0
40.076,-2.323,-0.288,0.0
31.922,-1.84,-0.4,1.0
27.722,-1.589,-0.498,1.0
24.386,-1.391,-0.568,5.0
21.934,-1.244,-0.628,6.0
58.367,-3.302,-0.052,6.0
0.0,0.0,0.0,0.0
32.93,-1.841,-0.38,1.0
28.328,-1.575,-0.481,1.0
25.084,-1.386,-0.559,1.0
22.358,-1.229,-0.618,5.0
59.774,-3.277,0.004,10.0
0.0,0.0,0.0,0.0
34.223,-1.853,-0.362,0.0
28.923,-1.557,-0.463,1.0
25.671,-1.374,-0.548,1.0
23.053,-1.227,-0.616,5.0
59.601,-3.162,0.06,4.0
50.388,-2.656,-0.217,0.0
35.423,-1.856,-0.342,0.0
29.348,-1.528,-0.443,8.0
26.17,-1.354,-0.535,1.0
23.296,-1.198,-0.601,2.0
63.391,-3.249,0.121,2.0
50.454,-2.57,-0.173,5.0
36.294,-1.836,-0.318,0.0
29.69,-1.492,-0.422,3.0
26.673,-1.332,-0.522,1.0
23.68,-1.175,-0.59,1.0
0.0,0.0,0.0,0.0
50.476,-2.479,-0.128,10.0
38.319,-1.868,-0.302,0.0
30.76,-1.49,-0.411,1.0
27.286,-1.312,-0.51,2.0
24.162,-1.154,-0.581,1.0
0.0,0.0,0.0,0.0
50.49,-2.386,-0.086,1.0
0.0,0.0,0.0,0.0
0.0,0.0,0.0,0.0
27.764,-1.284,-0.496,1.0
24.673,-1.132,-0.573,1.0
0.0,0.0,0.0,0.0
0.0,0.0,0.0,0.0
0.0,0.0,0.0,0.0
33.137,-1.48,-0.388,3.0
28.269,-1.253,-0.483,1.0
25.069,-1.103,-0.562,1.0
0.0,0.0,0.0,0.0
0.0,0.0,0.0,0.0
41.923,-1.807,-0.229,0.0
33.44,-1.43,-0.366,1.0
28.672,-1.216,-0.468,2.0
25.53,-1.074,-0.554,1.0
0.0,0.0,0.0,0.0
0.0,0.0,0.0,0.0
37.79,-1.556,-0.178,141.0
34.656,-1.415,-0.353,1.0
29.111,-1.179,-0.453,1.0
25.892,-1.04,-0.543,1.0
0.0,0.0,0.0,0.0
0.0,0.0,0.0,0.0
37.811,-1.484,-0.152,157.0
37.699,-1.466,-0.358,4.0
29.636,-1.142,-0.441,2.0
26.288,-1.004,-0.533,1.0
0.0,0.0,0.0,0.0
0.0,0.0,0.0,0.0
40.113,-1.495,-0.134,47.0
40.036,-1.478,-0.353,0.0
29.99,-1.096,-0.426,1.0
26.661,-0.965,-0.523,2.0
0.0,0.0,0.0,0.0
0.0,0.0,0.0,0.0
53.817,-1.898,-0.145,0.0
37.561,-1.311,-0.307,0.0
30.436,-1.052,-0.413,1.0
27.013,-0.924,-0.512,2.0
0.0,0.0,0.0,0.0
0.0,0.0,0.0,0.0
0.0,0.0,0.0,0.0
39.742,-1.308,-0.301,2.0
30.964,-1.008,-0.402,1.0
27.304,-0.879,-0.502,2.0
0.0,0.0,0.0,0.0
0.0,0.0,0.0,0.0
0.0,0.0,0.0,0.0
40.278,-1.243,-0.282,7.0
31.458,-0.96,-0.39,1.0
27.616,-0.833,-0.492,2.0
0.0,0.0,0.0,0.0
40.223,-1.188,0.178,3.0
40.203,-1.174,-0.039,61.0
40.131,-1.157,-0.26,21.0
32.016,-0.912,-0.38,1.0
28.008,-0.788,-0.484,1.0
40.223,-1.121,0.416,41.0
40.184,-1.105,0.198,47.0
40.558,-1.101,-0.018,88.0
40.96,-1.097,-0.245,104.0
32.602,-0.861,-0.371,1.0
28.345,-0.739,-0.476,1.0
40.221,-1.038,0.436,56.0
40.221,-1.023,0.218,5.0
0.0,0.0,0.0,0.0
40.298,-0.996,-0.222,6.0
32.85,-0.8,-0.359,1.0
28.564,-0.685,-0.467,1.0
40.316,-0.957,0.455,133.0
40.298,-0.942,0.236,41.0
40.278,-0.927,0.017,73.0
40.256,-0.912,-0.205,0.0
33.331,-0.742,-0.35,1.0
28.87,-0.633,-0.46,1.0
40.263,-0.872,0.471,39.0
0.0,0.0,0.0,0.0
0.0,0.0,0.0,0.0
46.643,-0.959,-0.219,2.0
33.593,-0.679,-0.34,1.0
29.084,-0.577,-0.453,1.0
40.255,-0.787,0.486,40.0
40.244,-0.771,0.267,56.0
40.283,-0.758,0.048,66.0
40.305,-0.744,-0.175,54.0
34.272,-0.62,-0.335,1.0
29.245,-0.519,-0.445,1.0
149.369,-2.608,1.854,6.0
40.287,-0.688,0.28,23.0
40.337,-0.674,0.061,2.0
46.327,-0.758,-0.186,2.0
34.618,-0.554,-0.328,0.0
29.424,-0.46,-0.439,2.0
148.406,-2.276,1.887,14.0
87.832,-1.315,0.637,4.0
183.526,-2.683,0.331,8.0
46.66,-0.665,-0.174,1.0
35.323,-0.49,-0.325,1.0
29.597,-0.4,-0.433,2.0
86.953,-1.15,1.128,18.0
79.082,-1.017,0.594,26.0
79.223,-0.99,0.163,3.0
47.046,-0.571,-0.164,1.0
36.078,-0.424,-0.323,1.0
29.694,-0.338,-0.428,4.0
79.444,-0.88,1.049,168.0
79.378,-0.85,0.614,76.0
56.342,-0.583,0.128,3.0
50.826,-0.507,-0.167,14.0
36.424,-0.35,-0.319,0.0
29.756,-0.275,-0.423,3.0
79.449,-0.709,1.064,178.0
79.388,-0.679,0.629,71.0
0.0,0.0,0.0,0.0
46.641,-0.365,-0.145,5.0
39.837,-0.297,-0.342,1.0
29.907,-0.213,-0.42,2.0
79.456,-0.539,1.076,162.0
79.416,-0.509,0.641,150.0
55.992,-0.338,0.145,16.0
42.028,-0.239,-0.125,4.0
37.254,-0.199,-0.315,1.0
29.966,-0.149,-0.417,2.0
79.46,-0.369,1.086,151.0
79.396,-0.339,0.649,150.0
56.056,-0.219,0.151,17.0
41.844,-0.149,-0.12,18.0
37.199,-0.119,-0.311,1.0
30.034,-0.085,-0.416,2.0
79.462,-0.198,1.092,151.0
79.407,-0.169,0.655,150.0
56.015,-0.098,0.154,26.0
0.0,0.0,0.0,0.0
38.27,-0.04,-0.318,2.0
30.038,-0.02,-0.415,1.0
79.456,-0.025,1.095,151.0
79.414,0.001,0.658,113.0
54.951,0.021,0.153,6.0
43.74,0.033,-0.122,3.0
38.058,0.042,-0.316,2.0
30.041,0.044,-0.414,2.0
79.468,0.145,1.096,151.0
79.462,0.174,0.658,111.0
54.96,0.139,0.153,28.0
43.816,0.126,-0.123,3.0
37.807,0.122,-0.314,18.0
30.029,0.108,-0.415,2.0
59.317,0.234,0.816,98.0
59.309,0.256,0.489,103.0
54.838,0.257,0.15,51.0
40.211,0.202,-0.115,15.0
37.7,0.202,-0.316,2.0
30.095,0.172,-0.418,2.0
48.133,0.294,0.658,61.0
48.11,0.311,0.393,52.0
48.056,0.328,0.127,50.0
39.777,0.285,-0.117,15.0
37.462,0.282,-0.317,3.0
30.002,0.236,-0.42,2.0
48.083,0.397,0.652,115.0
48.06,0.414,0.387,108.0
48.007,0.431,0.121,81.0
39.539,0.369,-0.122,24.0
37.329,0.361,-0.321,3.0
29.926,0.3,-0.423,2.0
48.109,0.501,0.645,107.0
48.072,0.518,0.379,90.0
48.003,0.534,0.113,72.0
39.419,0.453,-0.128,35.0
37.194,0.44,-0.326,2.0
29.782,0.363,-0.426,2.0
126.322,1.591,1.672,15.0
77.677,1.005,0.598,29.0
48.006,0.638,0.104,57.0
39.171,0.533,-0.135,42.0
37.102,0.518,-0.333,2.0
29.652,0.425,-0.431,2.0
126.274,1.862,1.643,12.0
0.0,0.0,0.0,0.0
48.048,0.741,0.093,21.0
39.028,0.614,-0.144,43.0
36.879,0.594,-0.341,1.0
29.51,0.485,-0.436,2.0
121.223,2.044,1.546,18.0
75.044,1.29,0.541,12.0
52.223,0.916,0.086,7.0
38.763,0.693,-0.154,42.0
36.702,0.668,-0.349,3.0
29.337,0.544,-0.442,2.0
90.016,1.707,1.122,2.0
74.943,1.446,0.518,18.0
48.046,0.944,0.065,21.0
38.483,0.769,-0.165,39.0
33.548,0.682,-0.33,1.0
29.196,0.603,-0.449,2.0
120.937,2.549,1.467,6.0
74.606,1.597,0.49,17.0
48.079,1.045,0.048,22.0
38.114,0.841,-0.177,38.0
33.067,0.741,-0.337,1.0
28.784,0.654,-0.453,2.0
89.793,2.08,1.056,4.0
74.554,1.752,0.462,12.0
47.915,1.142,0.03,22.0
37.862,0.915,-0.19,65.0
32.763,0.802,-0.347,1.0
28.645,0.711,-0.463,2.0
93.104,2.351,1.057,2.0
61.017,1.561,0.353,22.0
47.515,1.231,0.01,23.0
37.055,0.971,-0.202,32.0
32.497,0.863,-0.358,1.0
28.153,0.757,-0.467,1.0
78.954,2.157,0.862,7.0
59.937,1.656,0.32,20.0
47.031,1.315,-0.01,22.0
36.816,1.041,-0.217,32.0
31.681,0.906,-0.363,2.0
27.93,0.808,-0.476,1.0
78.481,2.306,0.819,13.0
59.349,1.762,0.288,33.0
0.0,0.0,0.0,0.0
36.655,1.111,-0.234,23.0
31.219,0.957,-0.374,1.0
27.686,0.857,-0.486,1.0
78.241,2.458,0.777,24.0
58.866,1.868,0.255,24.0
0.0,0.0,0.0,0.0
36.425,1.178,-0.252,12.0
30.78,1.005,-0.385,2.0
24.236,0.799,-0.438,1.0
77.926,2.605,0.731,48.0
54.979,1.855,0.208,28.0
0.0,0.0,0.0,0.0
36.16,1.242,-0.27,10.0
30.417,1.054,-0.397,2.0
24.12,0.844,-0.45,5.0
77.76,2.756,0.685,47.0
54.485,1.947,0.175,28.0
40.464,1.459,-0.096,30.0
36.035,1.31,-0.291,7.0
29.947,1.098,-0.409,2.0
23.626,0.873,-0.455,5.0
77.468,2.9,0.634,13.0
54.226,2.047,0.14,18.0
40.003,1.522,-0.12,56.0
35.868,1.376,-0.312,6.0
29.54,1.142,-0.423,2.0
23.043,0.898,-0.459,5.0
74.139,2.923,0.559,12.0
48.73,1.936,0.094,23.0
39.946,1.599,-0.146,43.0
35.556,1.434,-0.333,3.0
29.164,1.184,-0.437,1.0
21.994,0.9,-0.453,4.0
73.665,3.048,0.505,11.0
47.772,1.991,0.059,25.0
39.824,1.671,-0.173,3.0
33.07,1.397,-0.333,1.0
28.7,1.221,-0.45,1.0
21.506,0.921,-0.458,12.0
59.053,2.557,0.363,13.0
0.0,0.0,0.0,0.0
36.409,1.598,-0.185,36.0
32.046,1.415,-0.346,1.0
28.46,1.266,-0.467,1.0
21.384,0.957,-0.471,4.0
58.546,2.647,0.316,9.0
42.193,1.92,-0.009,17.0
36.11,1.654,-0.211,32.0
31.357,1.445,-0.362,2.0
24.561,1.139,-0.422,2.0
21.021,0.981,-0.479,5.0
54.84,2.584,0.253,29.0
41.252,1.955,-0.041,25.0
35.849,1.709,-0.237,21.0
30.697,1.472,-0.379,2.0
23.865,1.152,-0.429,5.0
20.666,1.003,-0.488,4.0
54.401,2.666,0.207,28.0
40.685,2.005,-0.074,49.0
35.607,1.765,-0.265,5.0
30.096,1.5,-0.397,2.0
23.223,1.164,-0.437,5.0
20.282,1.022,-0.496,3.0
48.719,2.478,0.144,24.0
40.413,2.066,-0.108,35.0
35.49,1.824,-0.295,8.0
29.549,1.527,-0.415,2.0
22.408,1.164,-0.441,4.0
19.888,1.039,-0.504,3.0
0.0,0.0,0.0,0.0
40.123,2.124,-0.142,4.0
35.252,1.876,-0.324,10.0
28.985,1.55,-0.433,1.0
21.869,1.176,-0.45,4.0
19.551,1.056,-0.513,3.0
0.0,0.0,0.0,0.0
36.26,1.985,-0.161,12.0
32.614,1.794,-0.329,1.0
28.728,1.588,-0.455,1.0
21.346,1.185,-0.459,4.0
19.14,1.068,-0.52,3.0
42.156,2.371,0.01,18.0
35.868,2.026,-0.193,16.0
31.488,1.787,-0.347,1.0
24.611,1.403,-0.413,4.0
20.923,1.198,-0.47,4.0
18.751,1.079,-0.527,3.0
41.094,2.383,-0.028,31.0
35.572,2.071,-0.226,12.0
30.783,1.8,-0.369,1.0
23.787,1.397,-0.422,5.0
20.509,1.21,-0.48,3.0
18.348,1.087,-0.534,3.0
40.562,2.421,-0.068,50.0
35.316,2.116,-0.259,8.0
30.165,1.815,-0.392,2.0
22.866,1.381,-0.429,5.0
20.059,1.217,-0.49,3.0
17.98,1.095,-0.541,3.0
33.429,2.05,-0.089,1.0
33.46,2.06,-0.279,10.0
29.421,1.819,-0.412,2.0
22.16,1.376,-0.438,4.0
19.604,1.222,-0.499,3.0
17.639,1.104,-0.549,3.0
36.313,2.287,-0.135,31.0
35.134,2.221,-0.33,1.0
28.852,1.831,-0.434,1.0
21.526,1.371,-0.448,4.0
19.19,1.227,-0.508,3.0
17.301,1.11,-0.556,2.0
35.967,2.323,-0.171,40.0
31.978,2.073,-0.334,1.0
24.788,1.612,-0.399,5.0
21.045,1.374,-0.46,4.0
18.773,1.23,-0.517,3.0
16.955,1.115,-0.564,2.0
0.0,0.0,0.0,0.0
30.935,2.054,-0.357,1.0
23.836,1.588,-0.41,5.0
20.563,1.375,-0.473,4.0
18.351,1.231,-0.526,3.0
16.548,1.114,-0.569,3.0
35.175,2.383,-0.245,13.0
30.099,2.046,-0.381,2.0
22.765,1.552,-0.417,4.0
20.001,1.368,-0.482,3.0
17.867,1.226,-0.533,3.0
16.179,1.114,-0.574,2.0
35.067,2.429,-0.284,7.0
29.481,2.048,-0.407,2.0
22.019,1.534,-0.429,4.0
19.474,1.362,-0.492,3.0
17.535,1.23,-0.543,3.0
15.822,1.113,-0.58,2.0
0.0,0.0,0.0,0.0
28.96,2.055,-0.433,1.0
21.351,1.519,-0.441,4.0
18.959,1.353,-0.501,3.0
17.131,1.227,-0.55,2.0
15.049,1.081,-0.569,2.0
31.945,2.306,-0.334,1.0
24.353,1.763,-0.393,4.0
20.872,1.515,-0.455,4.0
18.591,1.353,-0.513,3.0
16.772,1.225,-0.559,2.0
14.527,1.064,-0.567,8.0
29.942,2.203,-0.348,2.0
23.279,1.718,-0.403,5.0
20.37,1.507,-0.469,3.0
18.129,1.345,-0.522,3.0
16.353,1.217,-0.565,2.0
14.17,1.057,-0.57,10.0
29.78,2.232,-0.383,16.0
22.421,1.685,-0.416,4.0
19.801,1.492,-0.48,3.0
17.704,1.337,-0.532,3.0
16.001,1.212,-0.572,3.0
13.868,1.053,-0.575,12.0
29.487,2.249,-0.415,4.0
21.646,1.655,-0.428,4.0
19.237,1.475,-0.49,3.0
17.28,1.328,-0.54,2.0
15.389,1.186,-0.569,2.0
13.689,1.057,-0.584,11.0
24.854,1.928,-0.381,6.0
21.058,1.637,-0.442,4.0
18.771,1.463,-0.501,3.0
16.865,1.317,-0.548,2.0
14.544,1.139,-0.556,6.0
13.519,1.061,-0.594,11.0
23.732,1.87,-0.393,5.0
20.546,1.623,-0.458,4.0
18.282,1.447,-0.511,3.0
16.464,1.306,-0.556,2.0
14.152,1.126,-0.559,11.0
13.455,1.073,-0.609,10.0
22.572,1.807,-0.403,4.0
19.93,1.598,-0.47,3.0
17.818,1.432,-0.522,3.0
16.092,1.296,-0.565,3.0
13.848,1.118,-0.565,13.0
13.258,1.073,-0.617,10.0
21.823,1.772,-0.418,4.0
19.398,1.578,-0.482,3.0
17.415,1.42,-0.532,2.0
14.995,1.225,-0.546,3.0
13.675,1.12,-0.576,8.0
13.096,1.075,-0.626,8.0
21.167,1.743,-0.433,4.0
18.901,1.559,-0.494,3.0
16.935,1.4,-0.54,2.0
13.993,1.159,-0.527,8.0
13.557,1.125,-0.589,9.0
13.068,1.087,-0.643,9.0
20.542,1.714,-0.447,4.0
18.395,1.538,-0.506,3.0
16.587,1.389,-0.551,2.0
13.866,1.164,-0.541,13.0
13.379,1.125,-0.599,8.0
13.058,1.1,-0.66,11.0
20.022,1.692,-0.463,3.0
17.818,1.509,-0.514,3.0
13.935,1.182,-0.482,5.0
13.788,1.172,-0.557,12.0
13.22,1.125,-0.61,8.0
12.968,1.106,-0.673,4.0
19.457,1.664,-0.476,3.0
17.417,1.492,-0.526,2.0
13.871,1.19,-0.498,13.0
13.66,1.174,-0.57,9.0
13.071,1.126,-0.621,8.0
12.571,1.085,-0.669,3.0
18.946,1.639,-0.489,3.0
13.916,1.206,-0.439,5.0
13.83,1.2,-0.515,13.0
13.544,1.177,-0.584,10.0
13.076,1.139,-0.639,10.0
12.408,1.082,-0.677,5.0
13.927,1.218,-0.379,5.0
13.894,1.216,-0.457,12.0
13.794,1.21,-0.533,15.0
13.416,1.179,-0.597,10.0
13.066,1.15,-0.656,11.0
12.173,1.073,-0.682,2.0
13.9,1.228,-0.397,14.0
13.838,1.224,-0.475,19.0
13.761,1.219,-0.551,13.0
13.274,1.178,-0.609,9.0
12.902,1.147,-0.666,4.0
11.897,1.059,-0.683,2.0
13.871,1.237,-0.416,17.0
13.818,1.234,-0.493,16.0
