X,Y,Z,Reflectivity
0.0,0.0,0.0,0.0
0.0,0.0,0.0,0.0
0.0,0.0,0.0,0.0
0.0,0.0,0.0,0.0
0.0,0.0,0.0,0.0
0.0,0.0,0.0,0.0
0.0,0.0,0.0,0.0
0.0,0.0,0.0,0.0
0.0,0.0,0.0,0.0
0.0,0.0,0.0,0.0
0.0,0.0,0.0,0.0
0.0,0.0,0.0,0.0
0.0,0.0,0.0,0.0
0.0,0.0,0.0,0.0
0.0,0.0,0.0,0.0
0.0,0.0,0.0,0.0
0.0,0.0,0.0,0.0
0.0,0.0,0.0,0.0
0.0,0.0,0.0,0.0
0.0,0.0,0.0,0.0
0.0,0.0,0.0,0.0
0.0,0.0,0.0,0.0
0.0,0.0,0.0,0.0
0.0,0.0,0.0,0.0
0.0,0.0,0.0,0.0
0.0,0.0,0.0,0.0
0.0,0.0,0.0,0.0
0.0,0.0,0.0,0.0
0.0,0.0,0.0,0.0
0.0,0.0,0.0,0.0
0.0,0.0,0.0,0.0
0.0,0.0,0.0,0.0
0.0,0.0,0.0,0.0
263.505,-13.244,9.245,10.0
0.0,0.0,0.0,0.0
0.0,0.0,0.0,0.0
0.0,0.0,0.0,0.0
0.0,0.0,0.0,0.0
0.0,0.0,0.0,0.0
211.438,-11.13,9.16,7.0
0.0,0.0,0.0,0.0
0.0,0.0,0.0,0.0
0.0,0.0,0.0,0.0
0.0,0.0,0.0,0.0
211.856,-11.455,8.384,6.0
0.0,0.0,0.0,0.0
0.0,0.0,0.0,0.0
0.0,0.0,0.0,0.0
0.0,0.0,0.0,0.0
0.0,0.0,0.0,0.0
0.0,0.0,0.0,0.0
0.0,0.0,0.0,0.0
278.808,-15.515,8.512,11.0
0.0,0.0,0.0,0.0
0.0,0.0,0.0,0.0
0.0,0.0,0.0,0.0
0.0,0.0,0.0,0.0
0.0,0.0,0.0,0.0
0.0,0.0,0.0,0.0
0.0,0.0,0.0,0.0
164.652,-9.411,9.001,6.0
0.0,0.0,0.0,0.0
211.776,-12.179,9.354,7.0
0.0,0.0,0.0,0.0
244.335,-14.139,8.21,16.0
279.095,-16.202,7.917,26.0
164.027,-9.55,9.218,4.0
150.157,-8.768,7.65,5.0
0.0,0.0,0.0,0.0
212.059,-12.456,8.563,6.0
212.412,-12.514,7.465,10.0
271.867,-16.065,8.132,49.0
165.301,-9.797,9.548,3.0
164.628,-9.785,8.646,6.0
0.0,0.0,0.0,0.0
0.0,0.0,0.0,0.0
212.002,-12.708,7.785,6.0
0.0,0.0,0.0,0.0
164.173,-9.897,9.742,4.0
0.0,0.0,0.0,0.0
0.0,0.0,0.0,0.0
212.817,-12.929,9.261,10.0
213.023,-12.976,8.157,15.0
212.361,-12.969,7.023,12.0
0.0,0.0,0.0,0.0
147.864,-9.079,8.234,32.0
149.526,-9.202,7.542,3.0
0.0,0.0,0.0,0.0
214.033,-13.237,8.534,6.0
227.788,-14.124,7.894,15.0
0.0,0.0,0.0,0.0
205.693,-12.819,11.781,6.0
149.338,-9.328,7.771,5.0
156.74,-9.813,7.321,3.0
0.0,0.0,0.0,0.0
208.562,-13.116,7.56,9.0
203.185,-12.817,13.03,7.0
203.248,-12.848,11.969,16.0
147.944,-9.37,7.936,8.0
149.786,-9.507,7.236,11.0
194.418,-12.366,8.374,5.0
208.563,-13.295,7.894,18.0
148.539,-9.495,9.765,3.0
210.567,-13.486,12.739,7.0
213.193,-13.681,11.781,7.0
148.893,-9.574,7.432,5.0
203.559,-13.113,9.097,9.0
205.518,-13.266,8.109,9.0
0.0,0.0,0.0,0.0
210.405,-13.643,13.069,9.0
164.198,-10.666,9.336,4.0
156.591,-10.19,8.067,3.0
157.329,-10.255,7.283,4.0
203.653,-13.3,8.363,13.0
0.0,0.0,0.0,0.0
0.0,0.0,0.0,0.0
210.122,-13.805,12.287,11.0
164.334,-10.815,8.731,6.0
155.517,-10.252,7.451,4.0
194.515,-12.842,8.299,6.0
0.0,0.0,0.0,0.0
157.72,-10.459,10.303,6.0
209.931,-13.942,12.613,7.0
165.053,-10.976,9.036,3.0
164.65,-10.966,8.151,6.0
0.0,0.0,0.0,0.0
148.287,-9.919,10.705,12.0
148.357,-9.937,9.931,11.0
157.975,-10.596,9.747,5.0
0.0,0.0,0.0,0.0
148.127,-9.963,7.573,5.0
150.152,-10.111,6.89,3.0
0.0,0.0,0.0,0.0
210.405,-14.225,14.426,9.0
148.709,-10.066,9.414,5.0
157.145,-10.65,9.109,13.0
148.645,-10.086,7.838,3.0
158.189,-10.746,7.512,4.0
109.104,-7.433,8.23,2.0
208.225,-14.201,14.611,7.0
162.738,-11.111,10.565,12.0
156.674,-10.706,9.334,5.0
146.936,-10.052,7.983,2.0
156.437,-10.714,7.679,3.0
109.059,-7.49,8.402,6.0
207.713,-14.278,14.911,11.0
150.472,-10.353,10.011,13.0
148.581,-10.232,9.089,10.0
157.225,-10.837,8.794,7.0
148.431,-10.241,7.525,4.0
0.0,0.0,0.0,0.0
109.064,-7.552,8.005,3.0
207.826,-14.401,14.159,10.0
157.362,-10.913,9.879,11.0
156.532,-10.864,9.004,5.0
164.435,-11.421,8.596,14.0
0.0,0.0,0.0,0.0
109.072,-7.602,8.179,7.0
207.643,-14.48,14.477,27.0
150.455,-10.499,9.684,17.0
148.683,-10.383,8.79,6.0
0.0,0.0,0.0,0.0
0.0,0.0,0.0,0.0
0.0,0.0,0.0,0.0
207.382,-14.548,14.79,28.0
162.431,-11.399,10.714,5.0
148.456,-10.424,9.011,5.0
156.831,-11.019,8.697,10.0
0.0,0.0,0.0,0.0
0.0,0.0,0.0,0.0
109.098,-7.692,7.953,7.0
207.195,-14.614,13.991,17.0
150.442,-10.615,9.368,11.0
163.662,-11.554,9.333,5.0
0.0,0.0,0.0,0.0
109.073,-7.724,8.698,2.0
209.336,-14.827,15.591,11.0
207.015,-14.667,14.308,25.0
149.843,-10.619,9.568,4.0
148.426,-10.521,8.697,4.0
0.0,0.0,0.0,0.0
108.991,-7.749,8.864,2.0
0.0,0.0,0.0,0.0
206.918,-14.715,14.623,24.0
207.266,-14.742,13.557,8.0
150.467,-10.705,9.051,5.0
0.0,0.0,0.0,0.0
108.943,-7.772,9.031,7.0
108.93,-7.771,8.454,2.0
109.055,-7.781,7.877,7.0
207.004,-14.77,13.861,9.0
150.27,-10.721,9.272,4.0
0.0,0.0,0.0,0.0
0.0,0.0,0.0,0.0
108.897,-7.789,8.619,7.0
207.938,-14.874,15.338,10.0
206.861,-14.796,14.168,14.0
149.979,-10.725,9.483,3.0
0.0,0.0,0.0,0.0
0.0,0.0,0.0,0.0
108.819,-7.8,8.779,6.0
209.363,-15.004,15.764,8.0
206.914,-14.827,14.486,22.0
161.982,-11.605,10.487,5.0
0.0,0.0,0.0,0.0
0.0,0.0,0.0,0.0
0.0,0.0,0.0,0.0
108.79,-7.807,8.355,4.0
207.253,-14.869,14.823,19.0
206.936,-14.842,13.709,9.0
0.0,0.0,0.0,0.0
0.0,0.0,0.0,0.0
0.0,0.0,0.0,0.0
108.846,-7.818,8.524,6.0
207.337,-14.886,15.14,23.0
206.939,-14.85,14.018,9.0
0.0,0.0,0.0,0.0
0.0,0.0,0.0,0.0
0.0,0.0,0.0,0.0
108.721,-7.811,8.673,6.0
209.307,-15.03,15.59,8.0
206.83,-14.842,14.312,19.0
0.0,0.0,0.0,0.0
0.0,0.0,0.0,0.0
0.0,0.0,0.0,0.0
108.399,-7.784,8.808,1.0
0.0,0.0,0.0,0.0
206.937,-14.843,14.621,23.0
0.0,0.0,0.0,0.0
0.0,0.0,0.0,0.0
0.0,0.0,0.0,0.0
0.0,0.0,0.0,0.0
108.838,-7.803,8.424,3.0
109.02,-7.81,7.86,6.0
0.0,0.0,0.0,0.0
0.0,0.0,0.0,0.0
0.0,0.0,0.0,0.0
0.0,0.0,0.0,0.0
108.936,-7.797,8.585,5.0
207.94,-14.872,15.283,15.0
0.0,0.0,0.0,0.0
0.0,0.0,0.0,0.0
0.0,0.0,0.0,0.0
109.016,-7.794,9.324,2.0
108.899,-7.778,8.734,4.0
209.383,-14.941,15.681,5.0
0.0,0.0,0.0,0.0
0.0,0.0,0.0,0.0
0.0,0.0,0.0,0.0
0.0,0.0,0.0,0.0
108.943,-7.76,8.888,2.0
0.0,0.0,0.0,0.0
0.0,0.0,0.0,0.0
0.0,0.0,0.0,0.0
0.0,0.0,0.0,0.0
0.0,0.0,0.0,0.0
109.05,-7.742,9.045,1.0
0.0,0.0,0.0,0.0
0.0,0.0,0.0,0.0
0.0,0.0,0.0,0.0
0.0,0.0,0.0,0.0
0.0,0.0,0.0,0.0
0.0,0.0,0.0,0.0
109.029,-7.701,8.606,2.0
0.0,0.0,0.0,0.0
0.0,0.0,0.0,0.0
0.0,0.0,0.0,0.0
0.0,0.0,0.0,0.0
0.0,0.0,0.0,0.0
0.0,0.0,0.0,0.0
0.0,0.0,0.0,0.0
0.0,0.0,0.0,0.0
0.0,0.0,0.0,0.0
0.0,0.0,0.0,0.0
0.0,0.0,0.0,0.0
0.0,0.0,0.0,0.0
0.0,0.0,0.0,0.0
0.0,0.0,0.0,0.0
0.0,0.0,0.0,0.0
0.0,0.0,0.0,0.0
0.0,0.0,0.0,0.0
0.0,0.0,0.0,0.0
0.0,0.0,0.0,0.0
0.0,0.0,0.0,0.0
0.0,0.0,0.0,0.0
0.0,0.0,0.0,0.0
0.0,0.0,0.0,0.0
0.0,0.0,0.0,0.0
0.0,0.0,0.0,0.0
0.0,0.0,0.0,0.0
0.0,0.0,0.0,0.0
0.0,0.0,0.0,0.0
0.0,0.0,0.0,0.0
0.0,0.0,0.0,0.0
0.0,0.0,0.0,0.0
0.0,0.0,0.0,0.0
0.0,0.0,0.0,0.0
0.0,0.0,0.0,0.0
0.0,0.0,0.0,0.0
0.0,0.0,0.0,0.0
0.0,0.0,0.0,0.0
0.0,0.0,0.0,0.0
0.0,0.0,0.0,0.0
0.0,0.0,0.0,0.0
0.0,0.0,0.0,0.0
0.0,0.0,0.0,0.0
0.0,0.0,0.0,0.0
0.0,0.0,0.0,0.0
0.0,0.0,0.0,0.0
0.0,0.0,0.0,0.0
0.0,0.0,0.0,0.0
0.0,0.0,0.0,0.0
0.0,0.0,0.0,0.0
0.0,0.0,0.0,0.0
0.0,0.0,0.0,0.0
0.0,0.0,0.0,0.0
0.0,0.0,0.0,0.0
0.0,0.0,0.0,0.0
0.0,0.0,0.0,0.0
0.0,0.0,0.0,0.0
0.0,0.0,0.0,0.0
0.0,0.0,0.0,0.0
0.0,0.0,0.0,0.0
0.0,0.0,0.0,0.0
0.0,0.0,0.0,0.0
0.0,0.0,0.0,0.0
0.0,0.0,0.0,0.0
0.0,0.0,0.0,0.0
0.0,0.0,0.0,0.0
0.0,0.0,0.0,0.0
48.913,-3.193,5.875,2.0
0.0,0.0,0.0,0.0
0.0,0.0,0.0,0.0
0.0,0.0,0.0,0.0
0.0,0.0,0.0,0.0
0.0,0.0,0.0,0.0
49.165,-3.174,5.954,8.0
49.171,-3.165,5.685,0.0
0.0,0.0,0.0,0.0
0.0,0.0,0.0,0.0
0.0,0.0,0.0,0.0
0.0,0.0,0.0,0.0
48.863,-3.119,5.963,25.0
0.0,0.0,0.0,0.0
49.256,-3.125,5.472,0.0
0.0,0.0,0.0,0.0
0.0,0.0,0.0,0.0
0.0,0.0,0.0,0.0
48.616,-3.066,5.978,23.0
49.134,-3.089,5.772,1.0
49.299,-3.09,5.52,2.0
0.0,0.0,0.0,0.0
0.0,0.0,0.0,0.0
0.0,0.0,0.0,0.0
0.0,0.0,0.0,0.0
49.115,-3.048,5.812,3.0
49.257,-3.048,5.558,4.0
0.0,0.0,0.0,0.0
0.0,0.0,0.0,0.0
0.0,0.0,0.0,0.0
48.108,-2.956,5.998,3.0
48.8,-2.989,5.815,23.0
0.0,0.0,0.0,0.0
0.0,0.0,0.0,0.0
0.0,0.0,0.0,0.0
0.0,0.0,0.0,0.0
49.17,-2.979,6.169,2.0
48.773,-2.946,5.85,23.0
0.0,0.0,0.0,0.0
0.0,0.0,0.0,0.0
0.0,0.0,0.0,0.0
0.0,0.0,0.0,0.0
51.163,-3.055,6.458,5.0
49.756,-2.961,6.005,2.0
0.0,0.0,0.0,0.0
49.365,-2.917,5.408,2.0
0.0,0.0,0.0,0.0
0.0,0.0,0.0,0.0
0.0,0.0,0.0,0.0
48.128,-2.82,5.843,1.0
50.49,-2.948,5.85,1.0
49.314,-2.869,5.437,6.0
0.0,0.0,0.0,0.0
0.0,0.0,0.0,0.0
0.0,0.0,0.0,0.0
47.952,-2.765,5.854,4.0
50.432,-2.898,5.877,3.0
49.367,-2.827,5.474,3.0
0.0,0.0,0.0,0.0
0.0,0.0,0.0,0.0
48.884,-2.783,6.27,1.0
47.767,-2.709,5.861,1.0
48.553,-2.743,5.688,22.0
0.0,0.0,0.0,0.0
0.0,0.0,0.0,0.0
56.658,-3.166,5.693,0.0
48.807,-2.731,6.29,3.0
50.671,-2.824,6.248,1.0
48.817,-2.71,5.748,23.0
0.0,0.0,0.0,0.0
49.407,-2.721,5.265,0.0
56.543,-3.103,5.712,3.0
51.055,-2.806,6.608,5.0
0.0,0.0,0.0,0.0
49.034,-2.673,5.8,23.0
56.869,-3.088,6.405,6.0
49.416,-2.673,5.291,2.0
0.0,0.0,0.0,0.0
48.828,-2.634,6.345,2.0
51.009,-2.74,6.343,14.0
47.683,-2.551,5.663,4.0
50.204,-2.674,5.679,6.0
49.452,-2.623,5.319,4.0
0.0,0.0,0.0,0.0
0.0,0.0,0.0,0.0
0.0,0.0,0.0,0.0
47.733,-2.504,5.691,12.0
48.316,-2.524,5.486,6.0
56.991,-2.964,6.154,5.0
92.6,-4.798,9.486,3.0
0.0,0.0,0.0,0.0
46.463,-2.398,5.819,0.0
49.125,-2.525,5.877,8.0
48.328,-2.473,5.507,16.0
56.696,-2.889,6.145,2.0
55.198,-2.8,5.676,4.0
47.214,-2.397,6.196,5.0
46.521,-2.351,5.844,2.0
49.032,-2.467,5.885,5.0
48.359,-2.421,5.529,13.0
54.889,-2.737,5.969,5.0
55.214,-2.741,5.697,3.0
47.872,-2.377,6.299,19.0
46.558,-2.301,5.864,3.0
48.928,-2.407,5.888,5.0
48.583,-2.38,5.569,7.0
56.581,-2.759,6.17,3.0
57.89,-2.81,5.99,9.0
48.105,-2.336,6.344,12.0
48.74,-2.356,6.153,6.0
48.905,-2.352,5.899,5.0
50.851,-2.434,5.843,5.0
56.61,-2.697,6.188,7.0
55.035,-2.61,5.709,6.0
48.046,-2.278,6.349,8.0
48.489,-2.288,6.133,14.0
48.922,-2.298,5.913,4.0
48.798,-2.281,5.619,13.0
49.801,-2.316,5.455,4.0
53.435,-2.473,5.554,3.0
56.825,-2.63,7.52,6.0
48.441,-2.23,6.137,18.0
50.596,-2.319,6.125,3.0
63.028,-2.874,7.269,10.0
40.549,-1.84,4.448,43.0
55.234,-2.495,5.75,11.0
51.454,-2.323,6.818,2.0
48.31,-2.17,6.128,22.0
46.08,-2.059,5.585,12.0
53.09,-2.36,6.13,3.0
40.485,-1.791,4.447,55.0
0.0,0.0,0.0,0.0
56.995,-2.507,7.559,1.0
48.224,-2.11,6.122,4.0
48.547,-2.113,5.889,11.0
40.547,-1.756,4.685,6.0
40.533,-1.746,4.455,45.0
53.114,-2.276,5.54,3.0
42.296,-1.811,5.612,31.0
57.055,-2.43,7.247,6.0
40.369,-1.71,4.899,29.0
57.38,-2.418,6.633,9.0
40.5,-1.698,4.453,56.0
53.232,-2.219,5.554,2.0
42.258,-1.759,5.609,32.0
56.982,-2.36,7.239,3.0
40.343,-1.661,4.896,45.0
40.614,-1.663,4.695,50.0
40.524,-1.65,4.456,60.0
53.268,-2.158,5.557,12.0
42.299,-1.711,5.613,64.0
42.151,-1.695,5.354,7.0
40.297,-1.611,4.889,63.0
40.643,-1.616,4.697,43.0
40.513,-1.602,4.453,55.0
43.184,-1.698,4.503,4.0
42.239,-1.658,5.602,57.0
42.116,-1.643,5.346,42.0
40.335,-1.565,4.891,59.0
43.21,-1.666,4.99,3.0
40.491,-1.552,4.446,48.0
43.229,-1.648,4.503,20.0
42.384,-1.613,5.617,60.0
43.797,-1.656,5.554,6.0
40.297,-1.515,4.881,59.0
40.08,-1.497,4.623,63.0
43.169,-1.604,4.734,2.0
40.172,-1.483,4.178,42.0
42.386,-1.561,5.611,58.0
43.674,-1.599,5.531,6.0
40.459,-1.471,4.894,51.0
40.265,-1.456,4.637,49.0
40.327,-1.449,4.415,40.0
40.128,-1.433,4.166,60.0
42.235,-1.504,5.582,57.0
43.589,-1.543,5.511,26.0
40.327,-1.418,4.869,60.0
40.13,-1.402,4.612,62.0
40.256,-1.398,4.398,48.0
40.103,-1.384,4.154,56.0
42.226,-1.452,5.57,50.0
40.462,-1.382,5.106,15.0
40.549,-1.376,4.885,44.0
40.301,-1.359,4.621,56.0
40.033,-1.341,4.362,62.0
39.951,-1.33,4.127,53.0
42.083,-1.396,5.539,68.0
40.589,-1.337,5.109,66.0
40.583,-1.328,4.876,54.0
40.134,-1.304,4.589,61.0
39.994,-1.292,4.345,47.0
40.371,-1.295,4.157,52.0
41.982,-1.341,5.511,60.0
40.494,-1.285,5.083,64.0
40.579,-1.279,4.861,49.0
39.854,-1.247,4.543,59.0
39.549,-1.229,4.282,63.0
39.69,-1.225,4.071,47.0
41.961,-1.289,5.492,66.0
40.393,-1.232,5.055,52.0
40.386,-1.223,4.822,46.0
39.862,-1.199,4.527,57.0
39.464,-1.178,4.257,65.0
39.426,-1.169,4.028,55.0
41.966,-1.238,5.474,44.0
40.281,-1.18,5.023,48.0
40.091,-1.166,4.769,59.0
39.428,-1.138,4.46,71.0
39.251,-1.125,4.216,64.0
39.66,-1.128,4.033,34.0
41.935,-1.187,5.45,74.0
40.342,-1.132,5.011,51.0
39.492,-1.101,4.678,60.0
39.441,-1.091,4.442,46.0
39.491,-1.084,4.221,50.0
39.598,-1.078,4.007,56.0
42.679,-1.155,5.524,46.0
39.834,-1.07,4.926,66.0
39.266,-1.046,4.63,60.0
39.388,-1.041,4.414,50.0
39.386,-1.033,4.188,50.0
39.747,-1.035,3.999,59.0
39.521,-1.022,5.093,50.0
40.088,-1.028,4.934,49.0
39.231,-0.999,4.603,56.0
39.428,-0.995,4.395,47.0
39.222,-0.982,4.147,58.0
39.723,-0.987,3.973,46.0
39.518,-0.974,5.068,60.0
40.524,-0.99,4.963,66.0
39.198,-0.95,4.574,60.0
39.481,-0.949,4.376,68.0
39.058,-0.931,4.105,71.0
39.742,-0.94,3.949,65.0
39.514,-0.927,5.041,39.0
39.558,-0.92,4.818,75.0
39.626,-0.914,4.598,58.0
39.102,-0.894,4.307,67.0
39.254,-0.89,4.099,63.0
39.402,-0.886,3.888,59.0
39.485,-0.879,5.01,67.0
39.756,-0.878,4.814,66.0
39.291,-0.86,4.531,56.0
39.11,-0.849,4.281,58.0
39.535,-0.85,4.099,57.0
39.257,-0.837,3.845,56.0
39.449,-0.832,4.976,64.0
39.266,-0.821,4.725,60.0
39.274,-0.814,4.499,66.0
39.112,-0.803,4.251,59.0
39.272,-0.799,4.042,63.0
39.173,-0.79,3.807,66.0
39.446,-0.786,4.944,58.0
39.204,-0.774,4.686,61.0
39.233,-0.767,4.463,70.0
39.01,-0.755,4.208,65.0
39.549,-0.758,4.038,60.0
39.391,-0.749,3.796,41.0
39.505,-0.741,4.918,56.0
39.461,-0.733,4.684,54.0
39.344,-0.724,4.442,60.0
39.175,-0.713,4.192,58.0
39.587,-0.714,4.008,52.0
39.684,-0.708,3.789,38.0
39.334,-0.693,4.862,56.0
39.54,-0.689,4.657,55.0
39.181,-0.676,4.388,48.0
39.265,-0.67,4.166,50.0
39.414,-0.665,3.955,68.0
48.155,-0.805,4.554,10.0
39.467,-0.65,4.841,50.0
39.365,-0.641,4.6,49.0
39.266,-0.633,4.361,59.0
39.362,-0.627,4.139,48.0
40.006,-0.63,3.976,75.0
48.143,-0.75,4.507,5.0
39.814,-0.61,4.845,59.0
39.643,-0.601,4.593,59.0
39.492,-0.592,4.347,35.0
39.216,-0.581,4.085,66.0
39.999,-0.586,3.936,67.0
47.727,-0.691,4.42,5.0
40.274,-0.573,4.86,54.0
39.821,-0.56,4.574,48.0
39.29,-0.546,4.284,63.0
39.342,-0.54,4.058,50.0
39.552,-0.536,3.851,47.0
39.862,-0.534,3.651,53.0
40.095,-0.526,4.796,41.0
39.655,-0.514,4.512,55.0
39.621,-0.507,4.278,59.0
39.645,-0.501,4.047,52.0
39.465,-0.492,3.8,53.0
47.876,-0.59,4.334,8.0
39.89,-0.481,4.728,57.0
40.124,-0.477,4.522,51.0
39.81,-0.467,4.255,55.0
39.52,-0.457,3.99,47.0
42.755,-0.488,4.069,4.0
47.887,-0.539,4.28,7.0
40.001,-0.439,4.695,53.0
39.588,-0.429,4.416,50.0
39.304,-0.419,4.155,69.0
39.385,-0.414,3.931,53.0
39.637,-0.411,3.726,41.0
47.899,-0.49,4.226,36.0
40.21,-0.4,4.673,55.0
39.85,-0.39,4.398,73.0
39.54,-0.381,4.134,53.0
39.562,-0.376,3.902,50.0
40.168,-0.375,3.729,69.0
40.694,-0.374,3.542,62.0
40.713,-0.363,4.681,68.0
39.983,-0.351,4.364,44.0
39.45,-0.341,4.076,62.0
39.491,-0.335,3.847,71.0
40.078,-0.335,3.671,61.0
40.213,-0.33,3.45,51.0
40.561,-0.321,4.613,60.0
40.845,-0.318,4.406,36.0
39.594,-0.302,4.041,52.0
39.538,-0.296,3.801,42.0
40.144,-0.295,3.626,33.0
39.855,-0.288,3.368,72.0
40.323,-0.28,4.534,57.0
40.725,-0.277,4.341,62.0
39.649,-0.264,3.995,51.0
39.67,-0.259,3.762,60.0
40.088,-0.256,3.569,34.0
49.256,-0.309,4.099,4.0
39.994,-0.24,4.444,63.0
39.887,-0.234,4.198,61.0
39.501,-0.226,3.927,61.0
42.422,-0.237,3.966,34.0
39.865,-0.218,3.495,71.0
49.173,-0.262,4.026,5.0
39.931,-0.202,4.381,60.0
39.682,-0.195,4.122,48.0
39.759,-0.19,3.898,53.0
41.989,-0.196,3.867,43.0
40.181,-0.182,3.467,27.0
40.634,-0.179,3.27,64.0
40.637,-0.168,4.402,42.0
39.846,-0.16,4.083,70.0
39.964,-0.155,3.861,50.0
0.0,0.0,0.0,0.0
40.693,-0.148,3.454,30.0
47.898,-0.169,3.787,5.0
41.009,-0.133,4.383,35.0
40.745,-0.128,4.117,23.0
41.269,-0.124,3.928,18.0
39.785,-0.115,3.551,42.0
39.85,-0.111,3.325,58.0
47.841,-0.128,3.713,30.0
40.434,-0.096,4.262,62.0
40.396,-0.092,4.022,45.0
40.594,-0.088,3.804,22.0
0.0,0.0,0.0,0.0
39.828,-0.077,3.263,61.0
47.804,-0.088,3.64,39.0
40.555,-0.063,4.214,51.0
41.204,-0.06,4.04,30.0
40.135,-0.054,3.7,59.0
47.748,-0.059,4.118,4.0
39.957,-0.045,3.214,57.0
47.788,-0.049,3.565,91.0
40.406,-0.03,4.136,67.0
41.389,-0.026,3.993,31.0
40.992,-0.022,3.715,26.0
39.811,-0.017,3.372,65.0
39.89,-0.013,3.146,72.0
47.832,-0.011,3.494,75.0
40.342,0.001,4.065,56.0
0.0,0.0,0.0,0.0
41.273,0.009,3.676,32.0
39.84,0.012,3.311,64.0
54.595,0.022,4.22,50.0
47.904,0.024,3.424,72.0
40.333,0.031,4.0,49.0
54.698,0.047,5.104,45.0
47.713,0.046,4.173,9.0
39.875,0.041,3.25,63.0
54.581,0.062,4.131,87.0
47.958,0.059,3.35,83.0
40.222,0.06,3.923,59.0
54.687,0.087,5.013,21.0
39.877,0.067,3.421,56.0
54.004,0.095,4.313,37.0
54.655,0.101,4.046,66.0
48.033,0.093,3.276,83.0
40.108,0.088,3.845,56.0
47.715,0.108,4.294,15.0
39.903,0.094,3.357,75.0
54.056,0.132,4.227,77.0
54.741,0.138,3.961,15.0
48.099,0.125,3.2,94.0
54.657,0.156,5.148,15.0
47.74,0.14,4.216,9.0
39.985,0.12,3.297,60.0
54.155,0.167,4.143,70.0
48.028,0.152,3.394,68.0
48.133,0.156,3.121,93.0
47.682,0.166,4.408,38.0
39.975,0.142,3.461,52.0
59.206,0.215,4.78,78.0
59.225,0.219,4.429,18.0
48.059,0.181,3.313,98.0
48.147,0.185,3.038,105.0
47.682,0.195,4.325,10.0
39.893,0.166,3.384,62.0
59.237,0.25,4.677,82.0
48.443,0.208,3.537,53.0
48.091,0.209,3.231,107.0
48.153,0.212,2.954,103.0
42.087,0.196,3.743,2.0
39.919,0.188,3.315,51.0
64.667,0.308,4.993,21.0
48.13,0.233,3.43,50.0
48.124,0.235,3.148,109.0
48.15,0.238,2.869,103.0
40.031,0.208,3.487,66.0
39.889,0.209,3.241,12.0
48.49,0.257,3.656,63.0
48.105,0.257,3.34,76.0
48.141,0.261,3.062,108.0
48.157,0.263,2.782,107.0
39.937,0.227,3.406,45.0
85.066,0.488,6.757,18.0
48.286,0.28,3.552,66.0
48.112,0.281,3.253,98.0
48.155,0.284,2.975,103.0
48.159,0.286,2.693,106.0
39.914,0.246,3.33,49.0
48.481,0.301,3.761,55.0
48.224,0.301,3.458,57.0
48.129,0.303,3.165,104.0
48.159,0.305,2.886,111.0
48.163,0.308,2.604,122.0
74.99,0.495,6.118,24.0
48.312,0.321,3.657,59.0
48.169,0.322,3.364,59.0
48.155,0.324,3.076,88.0
48.162,0.325,2.795,107.0
48.157,0.327,2.514,120.0
48.477,0.339,3.862,59.0
48.274,0.34,3.563,66.0
48.171,0.34,3.274,66.0
48.171,0.342,2.987,80.0
48.159,0.343,2.704,96.0
48.139,0.345,2.422,106.0
48.377,0.356,3.762,94.0
48.294,0.357,3.472,60.0
48.186,0.357,3.182,70.0
48.186,0.359,2.895,78.0
48.158,0.36,2.612,86.0
48.146,0.361,2.329,97.0
48.339,0.372,3.665,60.0
48.281,0.373,3.378,46.0
48.212,0.373,3.09,69.0
48.183,0.374,2.801,71.0
48.147,0.375,2.518,93.0
48.145,0.376,2.237,102.0
48.334,0.386,3.571,69.0
48.282,0.387,3.283,37.0
48.247,0.387,2.998,65.0
48.192,0.388,2.708,64.0
48.162,0.388,2.424,93.0
48.134,0.389,2.141,93.0
48.371,0.399,3.477,69.0
48.271,0.399,3.187,25.0
48.263,0.4,2.903,46.0
48.19,0.4,2.611,60.0
48.158,0.4,2.328,93.0
48.138,0.4,2.046,97.0
55.736,0.472,3.896,59.0
54.906,0.466,3.516,70.0
59.356,0.504,3.453,17.0
48.185,0.409,2.515,61.0
48.153,0.409,2.232,87.0
48.134,0.409,1.95,100.0
75.286,0.652,5.111,25.0
54.919,0.476,3.406,90.0
59.411,0.515,3.336,12.0
48.18,0.417,2.419,74.0
48.147,0.417,2.135,87.0
48.133,0.417,1.854,103.0
77.868,0.686,5.131,39.0
59.367,0.523,3.563,17.0
48.229,0.424,2.612,48.0
48.169,0.423,2.322,85.0
48.142,0.423,2.039,89.0
48.142,0.423,1.759,100.0
54.921,0.49,3.508,78.0
59.361,0.529,3.443,97.0
48.216,0.429,2.514,48.0
48.164,0.428,2.225,81.0
48.134,0.427,1.941,94.0
48.128,0.427,1.66,87.0
54.946,0.494,3.397,96.0
59.366,0.533,3.322,79.0
48.198,0.432,2.414,58.0
48.156,0.431,2.126,79.0
48.135,0.43,1.844,100.0
48.129,0.429,1.562,81.0
59.363,0.536,3.548,55.0
59.382,0.535,3.201,22.0
48.188,0.433,2.316,77.0
48.148,0.431,2.027,83.0
48.13,0.43,1.745,100.0
48.128,0.429,1.464,93.0
59.364,0.535,3.427,99.0
48.226,0.434,2.501,48.0
48.176,0.432,2.216,79.0
48.122,0.43,1.927,97.0
48.119,0.429,1.645,87.0
48.12,0.428,1.364,103.0
59.38,0.533,3.304,70.0
48.196,0.431,2.4,66.0
48.152,0.429,2.116,81.0
48.115,0.427,1.827,105.0
48.123,0.426,1.546,82.0
48.122,0.425,1.265,106.0
48.25,0.429,2.585,48.0
48.181,0.427,2.298,86.0
48.141,0.425,2.014,96.0
48.111,0.423,1.727,101.0
48.116,0.421,1.446,105.0
48.115,0.419,1.165,103.0
48.205,0.423,2.482,61.0
48.171,0.421,2.198,84.0
48.131,0.419,1.914,103.0
48.104,0.416,1.627,89.0
48.111,0.414,1.346,111.0
48.108,0.412,1.065,103.0
48.18,0.415,2.38,83.0
48.143,0.413,2.096,99.0
48.124,0.41,1.814,103.0
48.097,0.408,1.526,105.0
48.135,0.406,1.246,116.0
48.101,0.403,0.964,105.0
48.162,0.406,2.278,97.0
48.123,0.403,1.994,103.0
48.108,0.4,1.712,98.0
48.102,0.398,1.427,116.0
48.102,0.395,1.145,110.0
48.1,0.393,0.864,105.0
48.149,0.395,2.178,101.0
48.115,0.392,1.894,100.0
48.109,0.389,1.612,106.0
48.095,0.386,1.325,114.0
48.111,0.383,1.045,117.0
48.105,0.38,0.764,113.0
48.127,0.381,2.076,107.0
48.106,0.378,1.794,97.0
48.122,0.375,1.513,115.0
48.09,0.372,1.226,112.0
48.109,0.369,0.945,115.0
48.081,0.366,0.663,105.0
48.121,0.366,1.975,114.0
48.105,0.363,1.692,101.0
48.108,0.36,1.412,108.0
48.085,0.356,1.125,111.0
48.089,0.353,0.844,105.0
48.086,0.35,0.563,90.0
48.114,0.35,1.874,109.0
48.112,0.346,1.592,111.0
48.109,0.342,1.31,101.0
48.098,0.339,1.025,106.0
48.098,0.335,0.744,92.0
48.091,0.332,0.463,57.0
48.116,0.331,1.773,101.0
48.123,0.327,1.493,115.0
48.112,0.324,1.211,104.0
48.105,0.32,0.925,93.0
48.112,0.316,0.644,59.0
48.149,0.312,0.363,49.0
48.127,0.311,1.674,100.0
48.128,0.307,1.393,102.0
48.13,0.303,1.112,95.0
48.123,0.299,0.826,63.0
48.159,0.295,0.545,47.0
48.186,0.291,0.264,52.0
48.14,0.289,1.576,96.0
48.136,0.285,1.294,97.0
48.142,0.28,1.012,78.0
48.164,0.276,0.727,54.0
48.195,0.272,0.446,49.0
54.932,0.305,0.187,43.0
48.162,0.265,1.476,94.0
48.17,0.26,1.194,59.0
48.2,0.256,0.913,50.0
59.278,0.31,0.771,24.0
59.34,0.304,0.425,7.0
47.9,0.241,0.064,34.0
48.205,0.239,1.377,49.0
59.283,0.289,1.347,24.0
59.274,0.283,1.0,120.0
59.294,0.277,0.649,127.0
59.379,0.271,0.302,7.0
44.875,0.2,-0.033,21.0
59.285,0.26,1.57,127.0
59.289,0.254,1.224,102.0
59.313,0.248,0.878,94.0
59.331,0.242,0.526,76.0
54.566,0.217,0.165,28.0
39.974,0.154,-0.111,16.0
79.43,0.301,1.941,81.0
79.465,0.292,1.477,151.0
79.45,0.283,1.014,150.0
76.247,0.263,0.519,38.0
47.578,0.159,0.046,21.0
38.772,0.125,-0.188,31.0
79.439,0.249,1.779,150.0
79.463,0.24,1.315,168.0
79.453,0.231,0.85,150.0
59.147,0.165,0.282,14.0
0.0,0.0,0.0,0.0
38.086,0.097,-0.262,5.0
79.453,0.195,1.618,151.0
79.47,0.186,1.154,153.0
79.466,0.176,0.69,41.0
54.444,0.114,0.15,29.0
40.004,0.079,-0.123,19.0
33.584,0.062,-0.299,0.0
79.45,0.138,1.457,158.0
79.47,0.129,0.993,151.0
76.143,0.113,0.507,20.0
47.301,0.064,0.034,22.0
38.888,0.048,-0.198,14.0
31.882,0.035,-0.348,1.0
79.458,0.078,1.296,153.0
79.459,0.068,0.832,150.0
59.203,0.043,0.275,10.0
0.0,0.0,0.0,0.0
38.286,0.017,-0.272,5.0
30.127,0.01,-0.39,2.0
79.453,0.016,1.137,151.0
79.336,0.005,0.673,32.0
0.0,0.0,0.0,0.0
40.064,-0.008,-0.131,25.0
33.619,-0.011,-0.306,1.0
29.025,-0.013,-0.433,2.0
79.465,-0.049,0.979,155.0
76.168,-0.057,0.495,18.0
0.0,0.0,0.0,0.0
39.082,-0.04,-0.204,14.0
31.714,-0.037,-0.351,1.0
27.683,-0.036,-0.467,1.0
79.455,-0.116,0.825,150.0
61.757,-0.099,0.281,16.0
0.0,0.0,0.0,0.0
38.408,-0.073,-0.276,3.0
30.045,-0.061,-0.391,1.0
26.616,-0.058,-0.502,2.0
79.301,-0.187,0.667,54.0
0.0,0.0,0.0,0.0
40.565,-0.108,-0.131,16.0
33.527,-0.094,-0.307,1.0
29.027,-0.086,-0.435,2.0
25.582,-0.079,-0.532,1.0
76.443,-0.251,0.494,12.0
46.205,-0.159,0.03,5.0
39.202,-0.141,-0.202,7.0
31.502,-0.118,-0.349,1.0
27.663,-0.108,-0.467,1.0
24.488,-0.099,-0.557,1.0
61.366,-0.26,0.279,12.0
0.0,0.0,0.0,0.0
39.287,-0.179,-0.278,0.0
30.018,-0.141,-0.39,2.0
26.568,-0.13,-0.5,2.0
23.548,-0.119,-0.58,2.0
0.0,0.0,0.0,0.0
0.0,0.0,0.0,0.0
33.765,-0.188,-0.303,1.0
28.971,-0.166,-0.431,2.0
25.565,-0.15,-0.529,1.0
22.671,-0.137,-0.601,2.0
50.207,-0.313,0.04,11.0
41.859,-0.268,-0.21,4.0
31.761,-0.209,-0.344,1.0
27.628,-0.187,-0.463,1.0
24.445,-0.169,-0.552,2.0
21.787,-0.155,-0.618,3.0
46.174,-0.337,-0.049,6.0
40.529,-0.303,-0.279,10.0
30.221,-0.231,-0.383,2.0
26.703,-0.209,-0.497,3.0
23.577,-0.188,-0.576,2.0
20.92,-0.171,-0.632,3.0
47.38,-0.397,-0.137,13.0
34.224,-0.293,-0.298,1.0
29.154,-0.255,-0.423,2.0
25.698,-0.229,-0.525,2.0
22.751,-0.207,-0.597,1.0
20.191,-0.187,-0.647,2.0
0.0,0.0,0.0,0.0
31.915,-0.309,-0.335,1.0
28.125,-0.277,-0.459,3.0
24.622,-0.247,-0.547,1.0
21.848,-0.224,-0.613,1.0
19.568,-0.204,-0.663,1.0
38.529,-0.41,-0.251,12.0
30.439,-0.33,-0.374,2.0
26.86,-0.296,-0.486,1.0
23.637,-0.265,-0.568,1.0
21.01,-0.24,-0.627,1.0
18.919,-0.219,-0.674,1.0
35.294,-0.417,-0.292,1.0
29.276,-0.352,-0.412,2.0
25.877,-0.316,-0.515,1.0
22.885,-0.284,-0.59,1.0
20.296,-0.256,-0.641,1.0
18.369,-0.235,-0.687,1.0
32.639,-0.425,-0.327,2.0
28.239,-0.373,-0.447,2.0
24.948,-0.335,-0.54,1.0
22.026,-0.3,-0.606,1.0
19.731,-0.273,-0.658,1.0
17.882,-0.251,-0.7,1.0
30.728,-0.438,-0.361,1.0
27.145,-0.393,-0.476,1.0
24.012,-0.352,-0.561,2.0
21.278,-0.316,-0.622,1.0
19.153,-0.289,-0.671,2.0
17.401,-0.266,-0.711,1.0
29.614,-0.459,-0.397,2.0
26.219,-0.412,-0.504,1.0
23.176,-0.369,-0.58,2.0
20.567,-0.332,-0.636,1.0
18.547,-0.303,-0.681,1.0
16.917,-0.28,-0.719,1.0
28.687,-0.482,-0.432,1.0
25.349,-0.431,-0.529,1.0
22.397,-0.385,-0.597,1.0
19.921,-0.347,-0.649,1.0
18.092,-0.319,-0.694,1.0
16.474,-0.294,-0.728,1.0
27.601,-0.5,-0.461,1.0
24.404,-0.447,-0.549,1.0
21.672,-0.402,-0.613,1.0
19.412,-0.364,-0.664,1.0
17.648,-0.335,-0.706,1.0
16.077,-0.308,-0.736,1.0
26.624,-0.517,-0.487,1.0
23.59,-0.463,-0.568,2.0
20.993,-0.417,-0.627,1.0
18.836,-0.378,-0.674,1.0
17.181,-0.349,-0.714,1.0
15.686,-0.322,-0.743,1.0
25.808,-0.536,-0.513,1.0
22.678,-0.476,-0.582,4.0
20.323,-0.431,-0.639,1.0
18.358,-0.394,-0.685,1.0
16.769,-0.364,-0.723,1.0
15.354,-0.337,-0.751,1.0
25.024,-0.554,-0.536,1.0
22.116,-0.495,-0.601,1.0
19.811,-0.448,-0.653,1.0
17.935,-0.41,-0.697,1.0
16.316,-0.377,-0.728,1.0
15.05,-0.351,-0.759,1.0
24.089,-0.568,-0.552,2.0
21.449,-0.51,-0.616,1.0
19.283,-0.463,-0.665,1.0
17.512,-0.425,-0.707,1.0
15.974,-0.391,-0.737,1.0
14.747,-0.365,-0.766,1.0
23.381,-0.584,-0.571,2.0
20.798,-0.524,-0.628,4.0
18.749,-0.477,-0.674,1.0
17.104,-0.44,-0.715,1.0
15.639,-0.406,-0.745,1.0
14.429,-0.378,-0.771,1.0
22.753,-0.601,-0.588,1.0
20.349,-0.543,-0.643,2.0
18.349,-0.494,-0.686,1.0
16.684,-0.453,-0.722,1.0
15.311,-0.42,-0.751,1.0
14.139,-0.391,-0.775,1.0
22.039,-0.615,-0.601,2.0
19.771,-0.556,-0.653,1.0
17.918,-0.509,-0.695,1.0
16.316,-0.467,-0.729,1.0
15.044,-0.435,-0.759,1.0
13.916,-0.405,-0.782,1.0
21.483,-0.631,-0.615,1.0
19.289,-0.571,-0.663,1.0
17.559,-0.525,-0.705,1.0
15.987,-0.482,-0.736,1.0
14.754,-0.448,-0.764,1.0
13.688,-0.42,-0.788,1.0
20.87,-0.644,-0.626,1.0
18.812,-0.586,-0.672,1.0
17.202,-0.54,-0.714,1.0
15.669,-0.496,-0.742,1.0
14.477,-0.462,-0.769,1.0
13.478,-0.434,-0.794,1.0
20.347,-0.659,-0.637,1.0
18.439,-0.602,-0.683,2.0
16.826,-0.554,-0.72,1.0
15.394,-0.511,-0.749,1.0
14.219,-0.476,-0.774,1.0
13.284,-0.448,-0.8,1.0
19.898,-0.675,-0.648,1.0
18.06,-0.618,-0.692,1.0
16.473,-0.568,-0.726,1.0
15.138,-0.526,-0.756,1.0
13.986,-0.489,-0.779,1.0
13.071,-0.461,-0.803,1.0
19.463,-0.69,-0.658,1.0
17.715,-0.633,-0.7,1.0
16.103,-0.58,-0.729,1.0
14.889,-0.54,-0.761,1.0
13.779,-0.503,-0.784,0.0
12.884,-0.474,-0.807,0.0
19.05,-0.705,-0.666,1.0
17.39,-0.649,-0.708,1.0
15.857,-0.596,-0.737,1.0
14.609,-0.553,-0.764,1.0
13.58,-0.518,-0.789,1.0
12.701,-0.488,-0.811,1.0
18.683,-0.722,-0.675,1.0
17.08,-0.664,-0.715,1.0
15.599,-0.611,-0.743,1.0
14.394,-0.567,-0.769,1.0
13.412,-0.533,-0.794,1.0
12.542,-0.502,-0.815,1.0
18.343,-0.737,-0.683,1.0
16.724,-0.677,-0.719,1.0
15.392,-0.627,-0.75,1.0
14.185,-0.582,-0.774,1.0
13.251,-0.547,-0.799,1.0
12.39,-0.515,-0.819,0.0
18.05,-0.754,-0.692,2.0
16.457,-0.692,-0.725,1.0
15.129,-0.641,-0.753,1.0
13.981,-0.596,-0.778,1.0
13.084,-0.562,-0.803,1.0
12.225,-0.528,-0.821,0.0
17.745,-0.77,-0.699,1.0
16.207,-0.708,-0.731,1.0
14.912,-0.656,-0.758,1.0
13.808,-0.611,-0.782,1.0
12.927,-0.576,-0.807,0.0
12.111,-0.543,-0.825,0.0
17.457,-0.786,-0.705,1.0
15.94,-0.722,-0.735,1.0
14.701,-0.67,-0.762,1.0
13.66,-0.627,-0.788,1.0
12.754,-0.589,-0.808,1.0
11.976,-0.557,-0.828,0.0
17.205,-0.803,-0.711,1.0
15.719,-0.738,-0.74,1.0
14.526,-0.686,-0.766,1.0
13.51,-0.642,-0.792,1.0
12.624,-0.604,-0.812,1.0
11.852,-0.57,-0.83,0.0
16.98,-0.82,-0.718,1.0
15.53,-0.754,-0.745,1.0
14.333,-0.7,-0.769,1.0
13.378,-0.658,-0.796,1.0
12.503,-0.618,-0.816,0.0
11.727,-0.584,-0.832,0.0
16.675,-0.833,-0.719,1.0
15.338,-0.77,-0.749,1.0
14.161,-0.715,-0.773,1.0
13.243,-0.673,-0.799,0.0
12.385,-0.633,-0.819,1.0
11.644,-0.599,-0.836,0.0
16.454,-0.848,-0.724,1.0
15.151,-0.786,-0.753,1.0
13.996,-0.73,-0.775,1.0
13.076,-0.686,-0.8,1.0
12.278,-0.648,-0.821,0.0
11.545,-0.612,-0.838,0.0
16.26,-0.865,-0.728,1.0
14.995,-0.802,-0.757,1.0
13.878,-0.747,-0.779,1.0
12.975,-0.702,-0.804,1.0
12.152,-0.661,-0.822,0.0
11.46,-0.627,-0.841,0.0
16.087,-0.882,-0.732,1.0
14.846,-0.819,-0.76,1.0
13.761,-0.763,-0.783,1.0
12.852,-0.716,-0.806,1.0
12.067,-0.676,-0.826,1.0
11.358,-0.64,-0.842,0.0
15.885,-0.897,-0.735,1.0
14.685,-0.834,-0.763,1.0
13.635,-0.779,-0.786,0.0
12.743,-0.732,-0.808,1.0
11.99,-0.692,-0.829,1.0
11.279,-0.654,-0.844,0.0
15.749,-0.916,-0.739,1.0
14.551,-0.85,-0.765,1.0
13.544,-0.796,-0.789,1.0
12.662,-0.748,-0.811,1.0
11.874,-0.705,-0.828,0.0
11.196,-0.668,-0.845,0.0
15.616,-0.934,-0.742,1.0
14.437,-0.867,-0.768,1.0
13.46,-0.813,-0.793,1.0
12.57,-0.763,-0.813,1.0
11.798,-0.72,-0.83,0.0
11.129,-0.683,-0.847,0.0
15.492,-0.952,-0.746,1.0
14.312,-0.884,-0.77,1.0
13.358,-0.829,-0.794,0.0
12.493,-0.779,-0.815,0.0
11.739,-0.736,-0.833,0.0
11.095,-0.699,-0.85,0.0
15.383,-0.971,-0.749,1.0
14.209,-0.901,-0.772,1.0
13.27,-0.845,-0.796,1.0
12.4,-0.794,-0.816,0.0
11.65,-0.749,-0.833,0.0
11.016,-0.712,-0.85,0.0
15.281,-0.989,-0.752,1.0
14.1,-0.917,-0.773,1.0
13.207,-0.863,-0.799,1.0
12.331,-0.81,-0.817,0.0
11.623,-0.767,-0.836,0.0
10.96,-0.727,-0.851,0.0
15.152,-1.006,-0.752,1.0
14.03,-0.936,-0.776,1.0
13.131,-0.88,-0.8,1.0
12.269,-0.826,-0.819,1.0
11.557,-0.782,-0.836,0.0
10.941,-0.743,-0.854,0.0
15.118,-1.028,-0.757,2.0
13.942,-0.953,-0.777,1.0
13.05,-0.896,-0.801,1.0
12.209,-0.842,-0.819,1.0
11.525,-0.798,-0.839,0.0
10.884,-0.757,-0.854,0.0
14.919,-1.039,-0.753,2.0
13.896,-0.972,-0.78,1.0
12.986,-0.913,-0.802,1.0
12.184,-0.86,-0.822,1.0
11.47,-0.813,-0.839,0.0
10.845,-0.772,-0.855,0.0
14.87,-1.06,-0.755,0.0
13.842,-0.991,-0.781,1.0
12.941,-0.93,-0.803,0.0
12.132,-0.876,-0.823,0.0
11.449,-0.83,-0.841,0.0
10.816,-0.788,-0.856,0.0
14.825,-1.081,-0.758,1.0
13.767,-1.008,-0.781,2.0
12.906,-0.948,-0.805,0.0
12.1,-0.893,-0.824,0.0
11.41,-0.846,-0.841,0.0
10.78,-0.802,-0.856,0.0
14.747,-1.098,-0.757,1.0
13.701,-1.025,-0.781,1.0
12.863,-0.966,-0.805,1.0
12.054,-0.909,-0.824,0.0
11.406,-0.864,-0.844,0.0
10.75,-0.817,-0.856,0.0
14.68,-1.117,-0.757,2.0
13.649,-1.042,-0.78,1.0
12.831,-0.984,-0.806,1.0
12.036,-0.927,-0.825,0.0
11.351,-0.878,-0.842,0.0
10.747,-0.834,-0.857,0.0
14.642,-1.137,-0.757,3.0
13.649,-1.064,-0.783,1.0
12.762,-0.999,-0.803,1.0
12.008,-0.943,-0.825,0.0
11.343,-0.895,-0.843,0.0
10.734,-0.85,-0.858,0.0
14.649,-1.16,-0.76,1.0
13.68,-1.088,-0.786,1.0
12.748,-1.017,-0.804,0.0
12.007,-0.962,-0.826,1.0
11.327,-0.911,-0.843,0.0
10.727,-0.866,-0.858,0.0
14.582,-1.178,-0.758,0.0
13.676,-1.109,-0.787,2.0
12.748,-1.037,-0.805,0.0
11.999,-0.98,-0.826,2.0
11.325,-0.929,-0.843,0.0
10.703,-0.881,-0.857,0.0
14.671,-1.208,-0.763,0.0
13.639,-1.127,-0.785,2.0
12.756,-1.058,-0.806,0.0
11.976,-0.997,-0.825,1.0
11.34,-0.947,-0.845,2.0
10.705,-0.898,-0.857,0.0
14.649,-1.228,-0.762,0.0
13.613,-1.145,-0.784,1.0
12.764,-1.078,-0.806,0.0
11.976,-1.015,-0.825,1.0
11.303,-0.961,-0.842,2.0
10.72,-0.915,-0.858,0.0
14.676,-1.252,-0.763,0.0
13.584,-1.163,-0.782,0.0
12.754,-1.096,-0.805,0.0
11.968,-1.032,-0.823,0.0
11.284,-0.976,-0.839,0.0
10.713,-0.93,-0.857,1.0
14.688,-1.275,-0.762,0.0
13.675,-1.191,-0.786,0.0
12.763,-1.116,-0.805,1.0
11.992,-1.052,-0.824,0.0
11.3,-0.995,-0.839,0.0
10.703,-0.945,-0.855,1.0
14.708,-1.299,-0.762,0.0
13.7,-1.214,-0.786,0.0
12.76,-1.134,-0.803,1.0
12.026,-1.072,-0.825,0.0
11.334,-1.014,-0.84,0.0
10.721,-0.963,-0.855,0.0
14.736,-1.322,-0.761,0.0
13.717,-1.235,-0.784,0.0
12.731,-1.15,-0.799,0.0
12.042,-1.091,-0.824,0.0
11.357,-1.032,-0.84,0.0
10.743,-0.98,-0.854,0.0
14.754,-1.345,-0.759,0.0
13.749,-1.257,-0.783,0.0
12.87,-1.181,-0.805,0.0
12.088,-1.112,-0.824,1.0
11.389,-1.051,-0.84,0.0
10.758,-0.996,-0.853,0.0
14.827,-1.372,-0.759,0.0
13.8,-1.281,-0.783,0.0
12.953,-1.206,-0.807,0.0
12.089,-1.129,-0.821,0.0
11.429,-1.071,-0.84,0.0
10.768,-1.012,-0.851,0.0
14.879,-1.398,-0.758,0.0
13.84,-1.304,-0.781,1.0
12.97,-1.226,-0.804,0.0
12.146,-1.151,-0.822,0.0
11.473,-1.091,-0.84,0.0
10.8,-1.03,-0.85,0.0
14.958,-1.425,-0.757,0.0
13.895,-1.328,-0.78,0.0
13.022,-1.248,-0.803,0.0
12.227,-1.175,-0.823,0.0
11.481,-1.107,-0.836,0.0
10.855,-1.05,-0.851,0.0
15.036,-1.453,-0.756,0.0
13.944,-1.351,-0.778,1.0
13.084,-1.271,-0.802,0.0
12.26,-1.195,-0.821,0.0
11.504,-1.124,-0.834,0.0
10.911,-1.069,-0.851,0.0
15.157,-1.484,-0.757,0.0
14.037,-1.378,-0.778,1.0
13.13,-1.293,-0.8,0.0
12.314,-1.216,-0.819,0.0
11.658,-1.154,-0.84,0.0
10.954,-1.087,-0.85,0.0
15.248,-1.512,-0.754,1.0
14.088,-1.401,-0.775,0.0
13.193,-1.316,-0.798,0.0
12.362,-1.236,-0.817,0.0
11.705,-1.174,-0.838,0.0
10.974,-1.103,-0.847,0.0
15.349,-1.542,-0.753,1.0
14.196,-1.43,-0.774,0.0
13.272,-1.34,-0.797,1.0
12.452,-1.26,-0.817,0.0
11.753,-1.193,-0.836,0.0
11.087,-1.128,-0.85,0.0
15.453,-1.571,-0.75,1.0
14.316,-1.459,-0.774,0.0
13.354,-1.364,-0.795,1.0
12.527,-1.283,-0.816,0.0
11.79,-1.211,-0.833,0.0
11.187,-1.152,-0.852,0.0
15.58,-1.602,-0.748,1.0
14.433,-1.488,-0.772,1.0
13.458,-1.391,-0.794,0.0
12.604,-1.306,-0.814,0.0
11.859,-1.232,-0.831,0.0
11.224,-1.169,-0.848,0.0
15.714,-1.634,-0.746,1.0
14.523,-1.514,-0.769,1.0
13.552,-1.416,-0.792,0.0
12.685,-1.328,-0.812,0.0
11.932,-1.253,-0.829,0.0
11.297,-1.189,-0.847,0.0
15.851,-1.666,-0.743,0.0
14.636,-1.542,-0.766,0.0
13.639,-1.44,-0.789,0.0
12.775,-1.352,-0.81,0.0
12.03,-1.276,-0.829,0.0
11.374,-1.209,-0.846,0.0
16.062,-1.706,-0.743,1.0
14.752,-1.57,-0.763,0.0
13.751,-1.467,-0.786,0.0
12.871,-1.376,-0.808,0.0
12.134,-1.3,-0.828,0.0
11.429,-1.227,-0.843,0.0
16.207,-1.739,-0.739,1.0
14.915,-1.603,-0.762,1.0
13.861,-1.493,-0.784,1.0
12.976,-1.401,-0.806,0.0
12.196,-1.32,-0.824,0.0
11.514,-1.249,-0.841,0.0
16.272,-1.762,-0.731,3.0
15.045,-1.633,-0.758,1.0
13.96,-1.518,-0.779,0.0
13.077,-1.425,-0.803,0.0
12.29,-1.342,-0.822,0.0
11.606,-1.27,-0.839,0.0
16.275,-1.779,-0.719,3.0
15.215,-1.666,-0.756,0.0
14.123,-1.549,-0.778,0.0
13.211,-1.452,-0.801,0.0
12.4,-1.366,-0.82,0.0
11.691,-1.29,-0.837,0.0
16.324,-1.8,-0.71,1.0
15.4,-1.701,-0.753,1.0
14.262,-1.578,-0.775,0.0
13.345,-1.479,-0.799,0.0
12.509,-1.39,-0.817,0.0
11.783,-1.312,-0.834,0.0
16.362,-1.819,-0.699,1.0
15.609,-1.738,-0.751,0.0
14.44,-1.611,-0.774,0.0
13.453,-1.504,-0.795,0.0
12.622,-1.413,-0.815,0.0
11.916,-1.337,-0.834,0.0
16.483,-1.847,-0.691,1.0
15.792,-1.773,-0.747,1.0
14.59,-1.64,-0.77,0.0
13.606,-1.533,-0.793,0.0
12.756,-1.439,-0.813,0.0
12.015,-1.358,-0.831,0.0
17.192,-1.941,-0.706,0.0
16.066,-1.817,-0.747,1.0
14.748,-1.671,-0.766,1.0
13.731,-1.558,-0.789,0.0
12.902,-1.466,-0.811,0.0
12.137,-1.382,-0.829,0.0
17.659,-2.008,-0.71,1.0
16.245,-1.85,-0.741,2.0
14.966,-1.707,-0.764,1.0
13.883,-1.586,-0.785,0.0
12.996,-1.487,-0.806,1.0
12.249,-1.404,-0.826,0.0
17.859,-2.045,-0.702,1.0
16.267,-1.865,-0.728,2.0
15.148,-1.739,-0.76,1.0
14.062,-1.617,-0.783,1.0
13.103,-1.509,-0.801,1.0
12.368,-1.427,-0.823,0.0
18.14,-2.09,-0.697,0.0
16.309,-1.882,-0.715,2.0
15.357,-1.774,-0.756,1.0
14.217,-1.645,-0.779,0.0
13.313,-1.543,-0.801,0.0
12.48,-1.448,-0.819,0.0
18.442,-2.138,-0.692,0.0
16.361,-1.899,-0.702,5.0
15.576,-1.81,-0.752,1.0
14.422,-1.678,-0.776,0.0
13.49,-1.572,-0.799,0.0
12.627,-1.473,-0.816,0.0
18.942,-2.208,-0.693,1.0
16.455,-1.92,-0.69,3.0
15.85,-1.852,-0.751,1.0
14.605,-1.709,-0.772,0.0
13.647,-1.599,-0.795,0.0
12.807,-1.502,-0.815,0.0
19.286,-2.26,-0.686,6.0
17.087,-2.004,-0.7,1.0
16.145,-1.896,-0.749,1.0
14.797,-1.74,-0.767,0.0
13.794,-1.624,-0.79,0.0
12.95,-1.526,-0.812,2.0
19.494,-2.295,-0.674,13.0
17.762,-2.093,-0.71,1.0
16.265,-1.919,-0.738,6.0
15.051,-1.778,-0.765,0.0
13.978,-1.653,-0.786,0.0
13.009,-1.54,-0.802,2.0
19.812,-2.343,-0.665,18.0
18.012,-2.132,-0.702,1.0
16.292,-1.93,-0.722,7.0
15.27,-1.811,-0.761,1.0
14.173,-1.683,-0.783,0.0
13.214,-1.571,-0.801,0.0
20.147,-2.392,-0.656,16.0
18.364,-2.182,-0.696,0.0
16.333,-1.943,-0.707,6.0
15.513,-1.847,-0.757,1.0
14.381,-1.714,-0.779,0.0
13.437,-1.603,-0.8,0.0
20.59,-2.454,-0.649,14.0
18.92,-2.257,-0.698,3.0
16.429,-1.961,-0.694,3.0
15.764,-1.883,-0.752,1.0
14.592,-1.745,-0.775,0.0
13.611,-1.629,-0.796,1.0
21.029,-2.514,-0.64,19.0
19.148,-2.291,-0.686,7.0
16.992,-2.035,-0.7,1.0
16.098,-1.929,-0.751,1.0
14.783,-1.773,-0.769,1.0
13.784,-1.655,-0.791,1.0
21.432,-2.57,-0.629,23.0
19.482,-2.338,-0.676,10.0
17.744,-2.131,-0.711,1.0
16.24,-1.951,-0.74,6.0
15.052,-1.81,-0.767,0.0
13.973,-1.682,-0.787,0.0
21.761,-2.616,-0.615,16.0
19.847,-2.387,-0.667,13.0
18.053,-2.173,-0.704,0.0
16.284,-1.961,-0.724,7.0
15.282,-1.842,-0.761,1.0
14.181,-1.71,-0.783,0.0
22.583,-2.721,-0.613,9.0
20.244,-2.44,-0.658,13.0
18.462,-2.227,-0.699,1.0
16.344,-1.972,-0.708,6.0
15.554,-1.878,-0.758,1.0
14.467,-1.748,-0.782,0.0
23.01,-2.778,-0.599,20.0
20.703,-2.5,-0.65,15.0
18.982,-2.293,-0.698,3.0
16.465,-1.99,-0.695,2.0
15.834,-1.915,-0.753,1.0
14.646,-1.772,-0.776,1.0
23.304,-2.817,-0.58,8.0
21.129,-2.555,-0.639,19.0
19.23,-2.326,-0.685,9.0
17.317,-2.096,-0.711,1.0
16.189,-1.96,-0.752,2.0
14.837,-1.797,-0.768,1.0
24.004,-2.905,-0.571,1.0
21.493,-2.602,-0.626,15.0
19.576,-2.37,-0.675,14.0
17.809,-2.157,-0.711,1.0
16.27,-1.971,-0.737,7.0
15.14,-1.835,-0.766,1.0
24.976,-3.024,-0.565,1.0
22.085,-2.675,-0.617,4.0
19.979,-2.42,-0.665,13.0
18.162,-2.2,-0.704,0.0
16.317,-1.977,-0.719,6.0
15.419,-1.869,-0.763,1.0
25.689,-3.112,-0.55,1.0
22.926,-2.777,-0.614,13.0
20.474,-2.48,-0.657,14.0
18.733,-2.27,-0.704,2.0
16.377,-1.985,-0.703,5.0
15.706,-1.904,-0.758,1.0
26.345,-3.191,-0.534,1.0
23.139,-2.803,-0.592,15.0
20.934,-2.535,-0.648,18.0
19.065,-2.309,-0.694,7.0
16.773,-2.032,-0.7,2.0
16.059,-1.945,-0.756,1.0
27.121,-3.283,-0.517,1.0
23.551,-2.851,-0.575,4.0
21.337,-2.583,-0.635,19.0
19.377,-2.345,-0.682,11.0
17.701,-2.142,-0.718,1.0
16.245,-1.966,-0.746,5.0
28.012,-3.388,-0.501,1.0
24.725,-2.99,-0.574,1.0
21.702,-2.624,-0.62,9.0
19.748,-2.388,-0.672,13.0
17.995,-2.176,-0.708,1.0
16.285,-1.969,-0.728,7.0
29.018,-3.506,-0.485,1.0
25.431,-3.072,-0.561,1.0
22.648,-2.735,-0.62,7.0
20.202,-2.439,-0.663,12.0
18.453,-2.227,-0.704,1.0
16.347,-1.973,-0.711,6.0
29.869,-3.603,-0.463,1.0
26.062,-3.142,-0.544,1.0
23.044,-2.778,-0.604,19.0
20.677,-2.492,-0.654,14.0
18.986,-2.287,-0.702,3.0
16.492,-1.986,-0.698,2.0
31.158,-3.751,-0.447,0.0
26.791,-3.223,-0.527,1.0
23.36,-2.81,-0.584,5.0
21.144,-2.542,-0.644,19.0
19.224,-2.31,-0.688,8.0
17.392,-2.09,-0.716,1.0
32.539,-3.908,-0.428,1.0
27.676,-3.322,-0.512,1.0
24.256,-2.91,-0.578,1.0
21.563,-2.586,-0.631,22.0
19.629,-2.353,-0.679,11.0
17.878,-2.142,-0.714,1.0
33.797,-4.047,-0.404,1.0
28.812,-3.448,-0.498,1.0
25.083,-3.0,-0.567,1.0
22.05,-2.636,-0.618,15.0
20.019,-2.392,-0.668,15.0
18.235,-2.178,-0.706,1.0
36.283,-4.331,-0.39,2.0
29.493,-3.518,-0.474,1.0
25.708,-3.065,-0.551,1.0
22.753,-2.711,-0.611,16.0
20.476,-2.438,-0.659,13.0
18.807,-2.238,-0.706,2.0
36.519,-4.344,-0.35,2.0
30.257,-3.596,-0.451,0.0
26.446,-3.141,-0.535,1.0
23.157,-2.748,-0.594,16.0
20.958,-2.485,-0.65,16.0
19.197,-2.275,-0.698,7.0
39.299,-4.656,-0.33,0.0
32.203,-3.812,-0.442,1.0
27.341,-3.234,-0.521,1.0
23.694,-2.8,-0.58,3.0
21.433,-2.531,-0.639,20.0
19.467,-2.297,-0.685,13.0
41.136,-4.852,-0.297,0.0
33.239,-3.917,-0.417,1.0
28.132,-3.312,-0.503,1.0
24.75,-2.911,-0.577,1.0
21.949,-2.58,-0.629,25.0
19.852,-2.331,-0.675,18.0
0.0,0.0,0.0,0.0
34.961,-4.1,-0.397,1.0
29.098,-3.409,-0.486,1.0
25.393,-2.972,-0.562,1.0
22.625,-2.646,-0.622,34.0
20.204,-2.36,-0.663,17.0
50.427,-5.889,-0.245,0.0
36.944,-4.31,-0.377,1.0
30.028,-3.499,-0.466,1.0
26.098,-3.038,-0.547,1.0
22.862,-2.658,-0.602,24.0
20.678,-2.402,-0.655,14.0
50.399,-5.853,-0.187,4.0
39.197,-4.547,-0.354,1.0
31.034,-3.595,-0.446,0.0
26.753,-3.096,-0.53,1.0
23.309,-2.694,-0.586,5.0
21.19,-2.446,-0.646,13.0
50.438,-5.822,-0.129,6.0
39.96,-4.607,-0.315,0.0
32.475,-3.739,-0.429,1.0
27.655,-3.18,-0.516,1.0
24.218,-2.781,-0.581,1.0
21.675,-2.486,-0.636,18.0
50.496,-5.791,-0.071,0.0
41.431,-4.745,-0.279,0.0
33.239,-3.801,-0.401,0.0
28.49,-3.254,-0.499,1.0
25.08,-2.861,-0.573,1.0
22.157,-2.524,-0.625,24.0
0.0,0.0,0.0,0.0
44.999,-5.118,-0.252,1.0
35.758,-4.061,-0.391,0.0
29.297,-3.322,-0.48,1.0
25.725,-2.913,-0.559,1.0
22.619,-2.558,-0.613,23.0
67.906,-7.678,0.056,2.0
47.544,-5.367,-0.214,1.0
0.0,0.0,0.0,0.0
30.025,-3.379,-0.459,0.0
26.306,-2.956,-0.543,1.0
23.205,-2.604,-0.603,25.0
0.0,0.0,0.0,0.0
0.0,0.0,0.0,0.0
39.388,-4.404,-0.344,1.0
31.542,-3.521,-0.447,1.0
27.013,-3.011,-0.527,1.0
23.661,-2.633,-0.588,27.0
73.264,-8.152,0.223,2.0
0.0,0.0,0.0,0.0
0.0,0.0,0.0,0.0
32.643,-3.613,-0.427,1.0
27.819,-3.074,-0.513,1.0
24.044,-2.652,-0.572,11.0
0.0,0.0,0.0,0.0
0.0,0.0,0.0,0.0
41.631,-4.575,-0.273,0.0
33.776,-3.705,-0.406,1.0
28.522,-3.123,-0.495,1.0
25.069,-2.74,-0.57,1.0
0.0,0.0,0.0,0.0
0.0,0.0,0.0,0.0
0.0,0.0,0.0,0.0
34.937,-3.797,-0.383,0.0
29.408,-3.19,-0.48,1.0
25.771,-2.79,-0.558,1.0
87.338,-9.457,0.544,3.0
0.0,0.0,0.0,0.0
0.0,0.0,0.0,0.0
37.392,-4.024,-0.372,0.0
29.985,-3.22,-0.458,1.0
26.237,-2.812,-0.542,1.0
87.259,-9.354,0.632,4.0
0.0,0.0,0.0,0.0
0.0,0.0,0.0,0.0
39.184,-4.173,-0.349,0.0
31.187,-3.315,-0.445,0.0
26.936,-2.857,-0.529,1.0
87.031,-9.231,0.718,15.0
0.0,0.0,0.0,0.0
0.0,0.0,0.0,0.0
39.771,-4.19,-0.314,0.0
32.517,-3.418,-0.431,1.0
27.584,-2.893,-0.514,1.0
86.446,-9.068,0.8,54.0
0.0,0.0,0.0,0.0
0.0,0.0,0.0,0.0
0.0,0.0,0.0,0.0
33.186,-3.449,-0.408,0.0
28.349,-2.94,-0.501,1.0
86.697,-8.991,0.886,3.0
0.0,0.0,0.0,0.0
0.0,0.0,0.0,0.0
44.851,-4.618,-0.268,0.0
34.384,-3.531,-0.39,0.0
29.086,-2.98,-0.486,1.0
88.299,-9.047,0.987,4.0
0.0,0.0,0.0,0.0
0.0,0.0,0.0,0.0
45.043,-4.58,-0.226,0.0
0.0,0.0,0.0,0.0
29.62,-2.997,-0.467,1.0
94.479,-9.559,1.143,17.0
94.716,-9.558,0.636,2.0
0.0,0.0,0.0,0.0
50.39,-5.059,-0.208,3.0
0.0,0.0,0.0,0.0
30.408,-3.037,-0.452,1.0
95.13,-9.501,1.236,5.0
95.056,-9.468,0.724,3.0
0.0,0.0,0.0,0.0
50.417,-4.994,-0.163,7.0
38.641,-3.818,-0.333,0.0
31.553,-3.109,-0.442,1.0
96.219,-9.481,1.335,2.0
96.876,-9.518,0.822,2.0
0.0,0.0,0.0,0.0
50.428,-4.927,-0.119,5.0
39.792,-3.876,-0.308,0.0
32.377,-3.145,-0.425,1.0
97.631,-9.485,1.438,3.0
97.75,-9.467,0.913,3.0
0.0,0.0,0.0,0.0
0.0,0.0,0.0,0.0
41.321,-3.967,-0.286,0.0
32.951,-3.154,-0.405,0.0
0.0,0.0,0.0,0.0
100.681,-9.608,1.023,3.0
0.0,0.0,0.0,0.0
0.0,0.0,0.0,0.0
44.576,-4.215,-0.272,0.0
34.523,-3.255,-0.397,0.0
101.995,-9.615,1.668,1.0
108.611,-10.206,1.19,150.0
91.069,-8.53,0.507,1.0
0.0,0.0,0.0,0.0
0.0,0.0,0.0,0.0
35.177,-3.264,-0.376,0.0
108.598,-10.075,1.861,10.0
108.472,-10.031,1.273,150.0
90.742,-8.364,0.575,1.0
0.0,0.0,0.0,0.0
50.42,-4.617,-0.23,1.0
36.513,-3.333,-0.363,0.0
108.958,-9.943,1.949,5.0
108.639,-9.88,1.355,151.0
0.0,0.0,0.0,0.0
0.0,0.0,0.0,0.0
50.464,-4.543,-0.193,5.0
0.0,0.0,0.0,0.0
0.0,0.0,0.0,0.0
109.396,-9.778,1.444,8.0
0.0,0.0,0.0,0.0
0.0,0.0,0.0,0.0
50.438,-4.46,-0.157,7.0
39.593,-3.489,-0.337,0.0
157.251,-13.853,3.036,11.0
111.236,-9.763,1.545,5.0
111.471,-9.747,0.945,2.0
0.0,0.0,0.0,0.0
50.422,-4.377,-0.123,1.0
40.027,-3.462,-0.314,0.0
0.0,0.0,0.0,0.0
121.87,-10.498,1.773,3.0
0.0,0.0,0.0,0.0
0.0,0.0,0.0,0.0
0.0,0.0,0.0,0.0
40.68,-3.452,-0.294,0.0
165.056,-14.001,3.402,51.0
0.0,0.0,0.0,0.0
0.0,0.0,0.0,0.0
0.0,0.0,0.0,0.0
0.0,0.0,0.0,0.0
0.0,0.0,0.0,0.0
201.692,-16.77,4.277,30.0
0.0,0.0,0.0,0.0
122.105,-10.07,1.264,13.0
0.0,0.0,0.0,0.0
0.0,0.0,0.0,0.0
0.0,0.0,0.0,0.0
0.0,0.0,0.0,0.0
0.0,0.0,0.0,0.0
0.0,0.0,0.0,0.0
0.0,0.0,0.0,0.0
0.0,0.0,0.0,0.0
0.0,0.0,0.0,0.0
291.134,-23.21,6.498,28.0
0.0,0.0,0.0,0.0
0.0,0.0,0.0,0.0
0.0,0.0,0.0,0.0
0.0,0.0,0.0,0.0
0.0,0.0,0.0,0.0
291.559,-22.735,6.653,12.0
148.469,-11.527,2.579,36.0
0.0,0.0,0.0,0.0
0.0,0.0,0.0,0.0
0.0,0.0,0.0,0.0
0.0,0.0,0.0,0.0
197.008,-15.01,4.59,64.0
148.469,-11.258,2.65,10.0
148.494,-11.209,1.84,155.0
92.796,-6.972,0.635,1.0
61.949,-4.633,0.086,1.0
50.414,-3.752,-0.204,0.0
291.833,-21.705,6.927,15.0
0.0,0.0,0.0,0.0
0.0,0.0,0.0,0.0
0.0,0.0,0.0,0.0
62.411,-4.552,0.113,0.0
50.296,-3.651,-0.183,1.0
204.909,-14.862,4.949,46.0
154.879,-11.176,2.894,10.0
0.0,0.0,0.0,0.0
0.0,0.0,0.0,0.0
0.0,0.0,0.0,0.0
50.449,-3.57,-0.164,6.0
213.105,-15.063,5.226,6.0
213.027,-14.979,4.059,36.0
155.536,-10.881,2.112,4.0
0.0,0.0,0.0,0.0
0.0,0.0,0.0,0.0
50.45,-3.475,-0.147,6.0
212.846,-14.646,5.289,37.0
0.0,0.0,0.0,0.0
0.0,0.0,0.0,0.0
0.0,0.0,0.0,0.0
0.0,0.0,0.0,0.0
50.468,-3.382,-0.132,2.0
237.119,-15.871,5.963,70.0
0.0,0.0,0.0,0.0
187.167,-12.39,2.656,14.0
0.0,0.0,0.0,0.0
0.0,0.0,0.0,0.0
50.445,-3.285,-0.118,1.0
248.35,-16.15,6.311,255.0
0.0,0.0,0.0,0.0
187.151,-12.031,2.703,18.0
0.0,0.0,0.0,0.0
0.0,0.0,0.0,0.0
50.452,-3.188,-0.106,1.0
0.0,0.0,0.0,0.0
0.0,0.0,0.0,0.0
187.335,-11.682,2.746,150.0
0.0,0.0,0.0,0.0
0.0,0.0,0.0,0.0
50.482,-3.093,-0.096,6.0
263.501,-16.117,6.807,150.0
272.023,-16.535,5.531,13.0
0.0,0.0,0.0,0.0
0.0,0.0,0.0,0.0
0.0,0.0,0.0,0.0
50.492,-2.996,-0.088,4.0
271.707,-16.085,7.062,151.0
0.0,0.0,0.0,0.0
0.0,0.0,0.0,0.0
0.0,0.0,0.0,0.0
0.0,0.0,0.0,0.0
58.431,-3.351,-0.095,2.0
0.0,0.0,0.0,0.0
0.0,0.0,0.0,0.0
228.032,-12.882,3.439,154.0
0.0,0.0,0.0,0.0
0.0,0.0,0.0,0.0
58.929,-3.263,-0.09,2.0
233.858,-12.742,3.544,13.0
0.0,0.0,0.0,0.0
0.0,0.0,0.0,0.0
59.268,-3.164,-0.088,2.0
0.0,0.0,0.0,0.0
0.0,0.0,0.0,0.0
0.0,0.0,0.0,0.0
50.524,-2.595,-0.074,2.0
0.0,0.0,0.0,0.0
0.0,0.0,0.0,0.0
0.0,0.0,0.0,0.0
0.0,0.0,0.0,0.0
50.556,-2.495,-0.075,2.0
0.0,0.0,0.0,0.0
0.0,0.0,0.0,0.0
126.59,-6.088,1.202,3.0
0.0,0.0,0.0,0.0
50.483,-2.39,-0.078,0.0
0.0,0.0,0.0,0.0
0.0,0.0,0.0,0.0
0.0,0.0,0.0,0.0
0.0,0.0,0.0,0.0
0.0,0.0,0.0,0.0
50.464,-2.287,-0.083,1.0
0.0,0.0,0.0,0.0
0.0,0.0,0.0,0.0
0.0,0.0,0.0,0.0
0.0,0.0,0.0,0.0
0.0,0.0,0.0,0.0
50.472,-2.184,-0.09,1.0
0.0,0.0,0.0,0.0
0.0,0.0,0.0,0.0
0.0,0.0,0.0,0.0
0.0,0.0,0.0,0.0
37.812,-1.558,-0.074,1.0
0.0,0.0,0.0,0.0
0.0,0.0,0.0,0.0
0.0,0.0,0.0,0.0
0.0,0.0,0.0,0.0
0.0,0.0,0.0,0.0
40.118,-1.571,-0.088,150.0
0.0,0.0,0.0,0.0
0.0,0.0,0.0,0.0
0.0,0.0,0.0,0.0
0.0,0.0,0.0,0.0
0.0,0.0,0.0,0.0
50.23,-1.863,-0.123,1.0
0.0,0.0,0.0,0.0
0.0,0.0,0.0,0.0
0.0,0.0,0.0,0.0
0.0,0.0,0.0,0.0
0.0,0.0,0.0,0.0
0.0,0.0,0.0,0.0
0.0,0.0,0.0,0.0
0.0,0.0,0.0,0.0
0.0,0.0,0.0,0.0
0.0,0.0,0.0,0.0
0.0,0.0,0.0,0.0
0.0,0.0,0.0,0.0
0.0,0.0,0.0,0.0
40.361,-1.307,0.765,5.0
40.341,-1.292,0.54,34.0
0.0,0.0,0.0,0.0
0.0,0.0,0.0,0.0
0.0,0.0,0.0,0.0
40.3,-1.237,0.973,30.0
40.343,-1.223,0.749,23.0
127.401,-3.816,1.655,77.0
40.183,-1.189,0.293,0.0
40.197,-1.175,0.069,52.0
40.224,-1.161,-0.155,58.0
40.336,-1.154,0.957,2.0
127.459,-3.601,2.313,70.0
40.235,-1.122,0.505,39.0
40.177,-1.106,0.276,61.0
40.203,-1.092,0.051,54.0
40.982,-1.099,-0.176,158.0
40.192,-1.067,0.935,57.0
40.207,-1.053,0.711,61.0
40.207,-1.038,0.486,59.0
40.233,-1.024,0.257,11.0
40.225,-1.009,0.032,0.0
40.293,-0.996,-0.193,4.0
40.197,-0.983,0.916,60.0
40.25,-0.97,0.691,76.0
40.318,-0.957,0.467,107.0
40.314,-0.942,0.237,150.0
40.28,-0.927,0.011,28.0
40.317,-0.914,-0.214,0.0
40.214,-0.901,0.894,62.0
40.255,-0.888,0.67,54.0
40.272,-0.873,0.444,32.0
0.0,0.0,0.0,0.0
56.43,-1.184,-0.015,1.0
40.242,-0.829,-0.236,2.0
40.238,-0.819,0.872,57.0
40.211,-0.804,0.646,40.0
40.217,-0.79,0.42,49.0
40.264,-0.777,0.191,48.0
40.295,-0.763,-0.034,66.0
40.201,-0.748,-0.259,11.0
40.206,-0.736,0.847,42.0
205.374,-3.69,3.174,73.0
40.286,-0.709,0.396,26.0
40.286,-0.695,0.166,39.0
40.386,-0.682,-0.06,2.0
40.136,-0.664,-0.285,5.0
0.0,0.0,0.0,0.0
205.334,-3.272,3.041,36.0
123.693,-1.927,1.136,5.0
67.035,-1.021,0.232,0.0
50.657,-0.754,-0.108,4.0
36.839,-0.535,-0.286,0.0
86.948,-1.238,1.716,43.0
86.946,-1.209,1.227,150.0
79.635,-1.078,0.676,5.0
79.172,-1.045,0.218,3.0
54.516,-0.701,-0.155,0.0
35.728,-0.447,-0.303,0.0
79.432,-0.97,1.511,177.0
79.385,-0.942,1.063,252.0
79.314,-0.914,0.615,69.0
59.296,-0.663,0.12,5.0
50.843,-0.552,-0.182,4.0
38.488,-0.405,-0.354,1.0
79.443,-0.812,1.451,181.0
79.446,-0.785,1.004,183.0
0.0,0.0,0.0,0.0
51.808,-0.477,0.065,2.0
47.347,-0.419,-0.206,8.0
33.648,-0.287,-0.336,1.0
79.447,-0.653,1.389,168.0
79.454,-0.626,0.94,194.0
76.996,-0.58,0.477,13.0
51.969,-0.375,0.024,6.0
41.905,-0.288,-0.217,5.0
32.634,-0.213,-0.353,1.0
79.449,-0.494,1.323,163.0
79.455,-0.469,0.875,179.0
76.672,-0.426,0.411,11.0
46.833,-0.245,-0.017,22.0
39.389,-0.193,-0.237,5.0
31.688,-0.145,-0.369,1.0
79.453,-0.338,1.254,154.0
79.457,-0.311,0.805,151.0
61.51,-0.221,0.276,10.0
45.833,-0.149,-0.057,20.0
38.87,-0.114,-0.268,4.0
30.736,-0.08,-0.386,1.0
79.456,-0.182,1.183,151.0
79.448,-0.156,0.734,150.0
56.157,-0.092,0.201,10.0
0.0,0.0,0.0,0.0
38.366,-0.038,-0.299,3.0
30.216,-0.02,-0.407,1.0
79.457,-0.029,1.11,151.0
79.4,-0.003,0.66,75.0
54.777,0.014,0.145,15.0
40.595,0.023,-0.125,17.0
37.889,0.034,-0.331,0.0
29.607,0.036,-0.426,2.0
79.475,0.122,1.034,151.0
76.653,0.141,0.564,21.0
54.161,0.117,0.091,28.0
39.385,0.098,-0.16,43.0
33.42,0.093,-0.325,1.0
29.02,0.09,-0.446,2.0
79.44,0.273,0.955,150.0
59.341,0.223,0.377,80.0
47.612,0.193,0.032,27.0
38.67,0.169,-0.196,36.0
