X,Y,Z,Reflectivity
7.206,-0.054,-0.929,0.0
6.993,-0.053,-0.94,0.0
6.729,-0.053,-0.943,0.0
8.132,-0.065,-0.908,0.0
7.846,-0.064,-0.92,0.0
7.533,-0.063,-0.925,0.0
7.255,-0.062,-0.932,0.0
6.993,-0.061,-0.938,0.0
6.753,-0.06,-0.943,0.0
8.171,-0.074,-0.909,0.0
7.879,-0.073,-0.92,0.0
7.569,-0.071,-0.926,0.0
7.283,-0.07,-0.932,0.0
7.041,-0.069,-0.941,0.0
6.775,-0.068,-0.943,0.0
8.189,-0.083,-0.907,0.0
7.886,-0.081,-0.917,0.0
7.593,-0.08,-0.925,0.0
7.317,-0.078,-0.933,0.0
7.057,-0.077,-0.939,0.0
6.785,-0.075,-0.941,0.0
8.234,-0.092,-0.908,0.0
7.92,-0.09,-0.917,0.0
7.61,-0.088,-0.923,0.0
7.339,-0.086,-0.932,0.0
7.079,-0.085,-0.938,0.0
6.823,-0.083,-0.943,0.0
8.259,-0.101,-0.906,0.0
7.946,-0.099,-0.915,0.0
7.657,-0.097,-0.925,0.0
7.361,-0.094,-0.93,0.0
7.096,-0.092,-0.936,0.0
6.86,-0.091,-0.944,0.0
8.28,-0.11,-0.903,0.0
7.983,-0.108,-0.915,0.0
7.675,-0.105,-0.922,0.0
7.403,-0.103,-0.931,0.0
7.123,-0.1,-0.935,0.0
6.88,-0.098,-0.942,0.0
8.335,-0.119,-0.904,0.0
8.016,-0.116,-0.913,0.0
7.727,-0.114,-0.923,0.0
7.419,-0.111,-0.928,0.0
7.169,-0.108,-0.936,0.0
6.924,-0.106,-0.943,0.0
8.382,-0.129,-0.903,0.0
8.048,-0.125,-0.911,0.0
7.741,-0.122,-0.919,0.0
7.472,-0.119,-0.929,0.0
7.199,-0.116,-0.935,0.0
6.954,-0.113,-0.942,0.0
8.411,-0.137,-0.9,0.0
8.11,-0.134,-0.912,0.0
7.809,-0.131,-0.921,0.0
7.507,-0.127,-0.928,0.0
7.247,-0.124,-0.936,0.0
6.983,-0.121,-0.94,0.0
8.479,-0.147,-0.901,0.0
8.14,-0.143,-0.909,0.0
7.841,-0.139,-0.919,0.0
7.538,-0.135,-0.926,0.0
7.274,-0.132,-0.934,0.0
7.016,-0.128,-0.939,0.0
8.526,-0.156,-0.899,0.0
8.189,-0.151,-0.908,0.0
7.906,-0.148,-0.92,0.0
7.581,-0.143,-0.925,0.0
7.323,-0.139,-0.933,0.0
7.061,-0.136,-0.939,0.0
8.589,-0.165,-0.898,0.0
8.247,-0.16,-0.907,0.0
7.936,-0.156,-0.916,0.0
7.654,-0.152,-0.927,0.0
7.369,-0.147,-0.933,0.0
7.09,-0.143,-0.936,0.0
8.653,-0.174,-0.897,0.0
8.313,-0.169,-0.907,0.0
7.985,-0.164,-0.915,0.0
7.692,-0.159,-0.924,0.0
7.406,-0.155,-0.931,0.0
7.15,-0.151,-0.938,0.0
8.711,-0.183,-0.895,0.0
8.359,-0.177,-0.904,0.0
8.026,-0.172,-0.912,0.0
7.746,-0.167,-0.923,0.0
7.453,-0.162,-0.929,0.0
7.202,-0.158,-0.937,0.0
8.778,-0.193,-0.893,0.0
8.415,-0.186,-0.902,0.0
8.102,-0.181,-0.912,0.0
7.804,-0.175,-0.922,0.0
7.526,-0.171,-0.931,0.0
7.262,-0.166,-0.938,0.0
8.88,-0.202,-0.894,0.0
8.485,-0.195,-0.901,0.0
8.158,-0.189,-0.91,0.0
7.855,-0.183,-0.92,0.0
7.561,-0.178,-0.927,0.0
7.305,-0.173,-0.935,0.0
8.948,-0.211,-0.892,0.0
8.562,-0.204,-0.9,0.0
8.216,-0.197,-0.908,0.0
7.918,-0.191,-0.919,0.0
7.626,-0.186,-0.926,0.0
7.35,-0.18,-0.933,0.0
9.043,-0.221,-0.891,0.0
8.633,-0.213,-0.898,0.0
8.296,-0.206,-0.908,0.0
7.977,-0.199,-0.917,0.0
7.699,-0.194,-0.927,0.0
7.412,-0.188,-0.932,0.0
9.15,-0.231,-0.891,0.0
8.721,-0.222,-0.897,0.0
8.36,-0.214,-0.905,0.0
8.035,-0.207,-0.914,0.0
7.754,-0.201,-0.924,0.0
7.472,-0.195,-0.931,0.0
9.213,-0.24,-0.887,0.0
8.813,-0.231,-0.896,0.0
8.447,-0.222,-0.904,0.0
8.103,-0.215,-0.912,0.0
7.831,-0.209,-0.924,0.0
7.539,-0.202,-0.93,0.0
9.315,-0.249,-0.885,0.0
8.917,-0.24,-0.896,0.0
8.536,-0.231,-0.903,0.0
8.173,-0.223,-0.91,0.0
7.896,-0.216,-0.922,0.0
7.604,-0.209,-0.929,0.0
9.429,-0.259,-0.885,0.0
9.019,-0.249,-0.894,0.0
8.61,-0.239,-0.9,0.0
8.26,-0.231,-0.909,0.0
7.954,-0.223,-0.918,0.0
7.687,-0.217,-0.929,0.0
9.532,-0.268,-0.882,0.0
9.101,-0.257,-0.891,0.0
8.7,-0.247,-0.898,0.0
8.342,-0.239,-0.907,0.0
8.033,-0.231,-0.917,0.0
7.743,-0.224,-0.926,0.0
9.661,-0.278,-0.881,0.0
9.206,-0.266,-0.889,0.0
8.788,-0.256,-0.896,0.0
8.43,-0.246,-0.906,0.0
8.096,-0.238,-0.913,0.0
7.818,-0.231,-0.924,0.0
9.763,-0.287,-0.877,1.0
9.323,-0.276,-0.888,0.0
8.897,-0.264,-0.895,0.0
8.509,-0.254,-0.902,0.0
8.181,-0.245,-0.911,0.0
7.886,-0.238,-0.921,0.0
9.84,-0.295,-0.871,2.0
9.433,-0.284,-0.885,0.0
9.009,-0.273,-0.894,0.0
8.619,-0.262,-0.902,0.0
8.268,-0.252,-0.91,0.0
7.96,-0.244,-0.918,0.0
9.962,-0.304,-0.868,1.0
9.54,-0.293,-0.882,0.0
9.111,-0.281,-0.891,0.0
8.714,-0.27,-0.899,0.0
8.354,-0.26,-0.907,0.0
8.049,-0.251,-0.917,0.0
10.133,-0.315,-0.868,0.0
9.686,-0.302,-0.881,0.0
9.232,-0.289,-0.889,0.0
8.828,-0.278,-0.898,0.0
8.486,-0.268,-0.909,0.0
8.147,-0.258,-0.916,0.0
10.299,-0.325,-0.867,0.0
9.785,-0.31,-0.876,2.0
9.364,-0.298,-0.888,0.0
8.943,-0.286,-0.897,0.0
8.556,-0.274,-0.904,0.0
8.219,-0.264,-0.912,0.0
10.444,-0.335,-0.864,0.0
9.888,-0.318,-0.87,1.0
9.482,-0.306,-0.885,0.0
9.059,-0.293,-0.894,0.0
8.664,-0.282,-0.902,0.0
8.308,-0.271,-0.909,0.0
10.603,-0.344,-0.861,0.0
10.045,-0.327,-0.869,0.0
9.618,-0.314,-0.883,0.0
9.179,-0.301,-0.892,0.0
8.79,-0.289,-0.901,0.0
8.426,-0.278,-0.909,0.0
10.776,-0.354,-0.858,0.0
10.226,-0.337,-0.868,0.0
9.748,-0.322,-0.879,1.0
9.301,-0.309,-0.889,0.0
8.896,-0.296,-0.898,0.0
8.531,-0.285,-0.906,0.0
10.945,-0.364,-0.854,0.0
10.409,-0.347,-0.867,0.0
9.852,-0.329,-0.873,1.0
9.436,-0.316,-0.887,0.0
9.025,-0.303,-0.896,0.0
8.613,-0.29,-0.901,0.0
11.107,-0.373,-0.849,0.0
10.565,-0.356,-0.863,0.0
10.001,-0.337,-0.87,0.0
9.564,-0.323,-0.884,0.0
9.121,-0.309,-0.891,0.0
8.74,-0.297,-0.9,0.0
11.304,-0.383,-0.846,0.0
10.725,-0.364,-0.859,0.0
10.183,-0.346,-0.869,0.0
9.735,-0.332,-0.883,1.0
9.267,-0.317,-0.89,0.0
8.876,-0.304,-0.899,0.0
11.497,-0.392,-0.841,0.0
10.92,-0.373,-0.857,0.0
10.378,-0.355,-0.869,0.0
9.831,-0.337,-0.876,1.0
9.422,-0.324,-0.889,0.0
9.006,-0.311,-0.898,0.0
11.703,-0.402,-0.837,0.0
11.094,-0.382,-0.852,0.0
10.53,-0.363,-0.864,0.0
9.974,-0.344,-0.872,0.0
9.575,-0.331,-0.887,0.0
9.142,-0.317,-0.895,0.0
11.898,-0.41,-0.831,0.0
11.299,-0.39,-0.848,0.0
10.725,-0.371,-0.861,0.0
10.176,-0.353,-0.872,0.0
9.733,-0.338,-0.885,1.0
9.274,-0.323,-0.892,0.0
12.154,-0.421,-0.828,0.0
11.475,-0.398,-0.842,0.0
10.891,-0.378,-0.856,0.0
10.345,-0.36,-0.868,0.0
9.818,-0.342,-0.876,2.0
9.422,-0.329,-0.89,0.0
12.374,-0.43,-0.821,0.0
11.705,-0.407,-0.838,0.0
11.079,-0.386,-0.851,0.0
10.531,-0.367,-0.866,0.0
9.965,-0.348,-0.872,0.0
9.562,-0.334,-0.887,0.0
12.635,-0.44,-0.817,0.0
11.927,-0.416,-0.833,0.0
11.292,-0.394,-0.848,0.0
10.71,-0.374,-0.862,0.0
10.198,-0.357,-0.874,0.0
9.744,-0.341,-0.886,1.0
12.909,-0.45,-0.812,1.0
12.177,-0.425,-0.829,0.0
11.507,-0.402,-0.844,0.0
10.924,-0.382,-0.859,0.0
10.375,-0.363,-0.871,0.0
9.841,-0.344,-0.878,1.0
13.191,-0.459,-0.806,1.0
12.4,-0.432,-0.822,0.0
11.72,-0.409,-0.838,0.0
11.1,-0.387,-0.853,0.0
10.57,-0.369,-0.868,0.0
10.005,-0.35,-0.874,0.0
13.467,-0.468,-0.799,1.0
12.653,-0.44,-0.816,1.0
11.95,-0.416,-0.833,0.0
11.323,-0.394,-0.85,0.0
10.741,-0.374,-0.862,0.0
10.214,-0.356,-0.874,0.0
13.75,-0.477,-0.791,1.0
12.926,-0.449,-0.811,1.0
12.205,-0.424,-0.829,1.0
11.538,-0.401,-0.845,0.0
10.946,-0.38,-0.859,0.0
10.413,-0.362,-0.871,0.0
14.043,-0.485,-0.782,1.0
13.241,-0.458,-0.806,1.0
12.451,-0.43,-0.823,0.0
11.757,-0.406,-0.839,0.0
11.152,-0.386,-0.854,0.0
10.601,-0.367,-0.868,0.0
14.429,-0.496,-0.777,1.0
13.538,-0.466,-0.799,1.0
12.733,-0.438,-0.818,1.0
11.995,-0.412,-0.834,0.0
11.363,-0.391,-0.85,0.0
10.776,-0.37,-0.862,0.0
14.802,-0.506,-0.769,1.0
13.828,-0.473,-0.791,1.0
13.015,-0.445,-0.812,1.0
12.255,-0.419,-0.83,0.0
11.584,-0.395,-0.845,0.0
10.994,-0.375,-0.859,0.0
15.181,-0.515,-0.761,1.0
14.117,-0.479,-0.781,1.0
13.298,-0.451,-0.805,1.0
12.495,-0.423,-0.823,0.0
11.808,-0.4,-0.839,0.0
11.22,-0.38,-0.856,0.0
15.576,-0.524,-0.752,1.0
14.519,-0.488,-0.777,1.0
13.585,-0.456,-0.797,1.0
12.781,-0.429,-0.818,1.0
12.06,-0.405,-0.834,0.0
11.431,-0.383,-0.85,0.0
16.017,-0.534,-0.744,1.0
14.892,-0.496,-0.769,1.0
13.893,-0.462,-0.789,1.0
13.068,-0.434,-0.811,1.0
12.325,-0.409,-0.829,0.0
11.649,-0.386,-0.845,0.0
16.507,-0.544,-0.735,1.0
15.292,-0.503,-0.76,1.0
14.24,-0.468,-0.782,1.0
13.369,-0.439,-0.805,1.0
12.587,-0.413,-0.823,0.0
11.889,-0.389,-0.84,0.0
17.039,-0.555,-0.727,1.0
15.697,-0.51,-0.751,1.0
14.616,-0.474,-0.775,1.0
13.665,-0.443,-0.797,1.0
12.87,-0.416,-0.817,0.0
12.147,-0.392,-0.835,0.0
17.55,-0.564,-0.716,1.0
16.146,-0.518,-0.742,1.0
15.007,-0.48,-0.767,1.0
13.979,-0.446,-0.789,1.0
13.191,-0.42,-0.813,1.0
12.408,-0.395,-0.829,0.0
18.088,-0.572,-0.703,1.0
16.674,-0.526,-0.735,0.0
15.411,-0.485,-0.759,1.0
14.339,-0.451,-0.782,1.0
13.469,-0.422,-0.804,1.0
12.674,-0.396,-0.823,1.0
18.642,-0.58,-0.69,1.0
17.198,-0.534,-0.725,1.0
15.834,-0.49,-0.75,1.0
14.743,-0.455,-0.776,1.0
13.762,-0.424,-0.796,1.0
12.955,-0.398,-0.816,0.0
19.283,-0.589,-0.676,1.0
17.718,-0.54,-0.713,1.0
16.282,-0.494,-0.74,1.0
15.13,-0.458,-0.767,1.0
14.082,-0.425,-0.787,1.0
13.266,-0.399,-0.81,0.0
19.935,-0.597,-0.661,1.0
18.255,-0.544,-0.7,1.0
16.864,-0.501,-0.734,0.0
15.519,-0.46,-0.757,1.0
14.457,-0.427,-0.781,1.0
13.559,-0.399,-0.802,1.0
20.668,-0.605,-0.647,1.0
18.839,-0.55,-0.687,1.0
17.354,-0.505,-0.722,1.0
15.969,-0.463,-0.749,1.0
14.864,-0.429,-0.774,1.0
13.878,-0.399,-0.795,1.0
21.443,-0.613,-0.63,1.0
19.531,-0.556,-0.675,1.0
17.896,-0.508,-0.711,1.0
16.42,-0.464,-0.739,0.0
15.266,-0.43,-0.767,1.0
14.203,-0.398,-0.787,0.0
22.284,-0.621,-0.613,1.0
20.205,-0.561,-0.661,2.0
18.423,-0.509,-0.698,1.0
16.965,-0.467,-0.732,1.0
15.657,-0.429,-0.757,1.0
14.588,-0.398,-0.781,1.0
23.256,-0.63,-0.596,2.0
20.806,-0.562,-0.641,3.0
19.008,-0.511,-0.684,1.0
17.527,-0.469,-0.723,1.0
16.083,-0.428,-0.747,0.0
14.987,-0.397,-0.774,1.0
24.157,-0.636,-0.574,1.0
21.739,-0.569,-0.629,1.0
19.732,-0.514,-0.673,1.0
17.998,-0.466,-0.709,1.0
16.605,-0.428,-0.74,0.0
15.371,-0.394,-0.765,1.0
25.226,-0.642,-0.552,1.0
22.578,-0.572,-0.611,1.0
20.508,-0.516,-0.661,2.0
18.553,-0.465,-0.696,1.0
17.118,-0.426,-0.731,1.0
15.764,-0.39,-0.755,1.0
26.185,-0.644,-0.525,1.0
23.455,-0.573,-0.591,2.0
20.993,-0.51,-0.638,2.0
19.179,-0.463,-0.684,1.0
17.633,-0.423,-0.72,1.0
16.196,-0.386,-0.746,1.0
27.268,-0.645,-0.496,6.0
24.464,-0.575,-0.571,1.0
21.94,-0.513,-0.626,1.0
19.822,-0.46,-0.67,1.0
18.164,-0.419,-0.708,1.0
16.755,-0.384,-0.74,1.0
28.396,-0.645,-0.464,1.0
25.459,-0.574,-0.548,1.0
22.818,-0.511,-0.609,1.0
20.48,-0.455,-0.654,1.0
18.69,-0.412,-0.694,1.0
17.222,-0.377,-0.729,1.0
29.583,-0.642,-0.429,1.0
26.39,-0.569,-0.519,1.0
23.635,-0.505,-0.587,1.0
21.284,-0.451,-0.641,1.0
19.345,-0.407,-0.683,1.0
17.748,-0.37,-0.719,1.0
30.841,-0.638,-0.391,1.0
27.455,-0.563,-0.49,1.0
24.661,-0.502,-0.568,1.0
22.13,-0.446,-0.627,3.0
19.956,-0.399,-0.669,1.0
18.262,-0.362,-0.707,1.0
32.896,-0.646,-0.357,1.0
28.702,-0.558,-0.461,1.0
25.647,-0.494,-0.545,1.0
22.937,-0.438,-0.609,1.0
20.628,-0.39,-0.654,1.0
18.782,-0.352,-0.694,1.0
0.0,0.0,0.0,0.0
29.724,-0.545,-0.424,1.0
26.627,-0.484,-0.518,1.0
23.717,-0.426,-0.587,1.0
21.413,-0.381,-0.641,1.0
19.423,-0.342,-0.683,1.0
40.201,-0.7,-0.294,7.0
31.054,-0.534,-0.388,1.0
27.589,-0.47,-0.488,1.0
24.715,-0.416,-0.568,1.0
22.197,-0.369,-0.626,1.0
20.001,-0.329,-0.668,1.0
40.207,-0.653,-0.224,1.0
33.117,-0.531,-0.356,1.0
28.763,-0.456,-0.459,1.0
25.613,-0.401,-0.544,1.0
23.01,-0.356,-0.609,1.0
20.71,-0.316,-0.656,1.0
46.263,-0.696,-0.177,1.0
35.332,-0.524,-0.319,1.0
29.872,-0.437,-0.425,1.0
26.629,-0.384,-0.52,1.0
23.798,-0.338,-0.588,2.0
21.466,-0.301,-0.643,1.0
50.773,-0.702,-0.107,2.0
42.242,-0.575,-0.308,0.0
31.097,-0.417,-0.389,1.0
27.604,-0.364,-0.492,2.0
24.755,-0.321,-0.57,1.0
22.219,-0.283,-0.627,1.0
60.672,-0.762,-0.024,2.0
42.632,-0.526,-0.239,3.0
32.949,-0.399,-0.356,1.0
28.737,-0.342,-0.463,2.0
25.648,-0.3,-0.547,1.0
23.017,-0.264,-0.611,1.0
60.847,-0.685,0.077,5.0
47.311,-0.522,-0.186,3.0
38.517,-0.417,-0.352,3.0
29.722,-0.315,-0.429,4.0
26.574,-0.276,-0.523,1.0
23.701,-0.24,-0.59,2.0
56.88,-0.565,0.167,0.0
50.859,-0.493,-0.115,23.0
41.978,-0.397,-0.313,0.0
30.814,-0.285,-0.394,1.0
27.614,-0.249,-0.497,2.0
24.641,-0.216,-0.572,2.0
77.075,-0.66,0.354,5.0
49.216,-0.41,-0.03,4.0
0.0,0.0,0.0,0.0
32.658,-0.257,-0.365,1.0
28.68,-0.219,-0.47,1.0
25.574,-0.189,-0.552,1.0
77.067,-0.554,0.478,14.0
52.392,-0.364,0.051,25.0
44.296,-0.298,-0.188,2.0
34.079,-0.221,-0.326,0.0
29.618,-0.184,-0.438,2.0
26.524,-0.159,-0.531,2.0
79.352,-0.457,0.62,150.0
56.089,-0.309,0.145,13.0
46.246,-0.243,-0.121,3.0
39.389,-0.198,-0.313,1.0
30.576,-0.146,-0.403,1.0
27.38,-0.124,-0.504,2.0
79.453,-0.341,0.748,150.0
61.504,-0.249,0.257,9.0
0.0,0.0,0.0,0.0
39.139,-0.139,-0.25,7.0
32.197,-0.106,-0.374,1.0
28.427,-0.086,-0.479,1.0
79.473,-0.222,0.873,151.0
76.443,-0.195,0.438,14.0
48.438,-0.111,0.024,6.0
39.871,-0.081,-0.192,15.0
33.541,-0.06,-0.337,1.0
29.39,-0.045,-0.45,2.0
79.462,-0.102,0.994,151.0
79.294,-0.083,0.575,30.0
0.0,0.0,0.0,0.0
40.958,-0.021,-0.136,17.0
38.234,-0.01,-0.327,3.0
30.17,0.0,-0.416,1.0
79.465,0.019,1.114,151.0
79.434,0.039,0.696,150.0
0.0,0.0,0.0,0.0
0.0,0.0,0.0,0.0
38.415,0.049,-0.272,10.0
31.347,0.048,-0.386,1.0
79.457,0.145,1.233,155.0
79.46,0.165,0.814,151.0
75.836,0.177,0.378,11.0
46.993,0.122,-0.016,24.0
38.856,0.112,-0.218,35.0
32.935,0.103,-0.358,1.0
79.459,0.271,1.348,159.0
79.456,0.293,0.93,150.0
59.35,0.235,0.382,26.0
54.295,0.229,0.058,28.0
39.508,0.177,-0.165,42.0
37.715,0.179,-0.356,2.0
48.238,0.243,0.887,17.0
59.289,0.314,0.778,9.0
48.221,0.268,0.378,25.0
54.963,0.321,0.136,12.0
43.979,0.268,-0.122,5.0
37.707,0.241,-0.303,4.0
48.124,0.321,0.952,101.0
48.096,0.334,0.698,93.0
48.079,0.347,0.444,82.0
48.055,0.36,0.185,76.0
0.0,0.0,0.0,0.0
37.989,0.305,-0.254,13.0
48.108,0.401,1.018,115.0
48.099,0.414,0.763,113.0
48.066,0.426,0.508,105.0
48.031,0.439,0.249,106.0
47.25,0.445,-0.004,44.0
38.356,0.371,-0.206,46.0
48.141,0.48,1.081,104.0
48.124,0.494,0.826,95.0
48.102,0.507,0.571,103.0
48.046,0.52,0.312,88.0
47.93,0.532,0.057,60.0
39.075,0.444,-0.16,43.0
55.047,0.644,1.308,16.0
55.07,0.659,1.017,50.0
48.206,0.59,0.634,20.0
48.116,0.603,0.374,49.0
48.023,0.615,0.118,70.0
43.978,0.575,-0.124,4.0
55.109,0.738,1.378,2.0
190.351,2.604,3.754,15.0
126.703,1.77,1.827,39.0
78.227,1.115,0.705,9.0
48.165,0.7,0.178,7.0
44.932,0.666,-0.071,20.0
176.3,2.672,4.632,8.0
190.05,2.932,3.982,23.0
127.205,1.998,1.989,32.0
89.68,1.434,0.917,7.0
61.548,1.001,0.301,33.0
46.983,0.778,-0.018,31.0
160.133,2.705,4.398,15.0
0.0,0.0,0.0,0.0
127.761,2.231,2.149,31.0
94.618,1.68,1.079,4.0
74.86,1.351,0.455,14.0
47.974,0.879,0.036,21.0
128.097,2.391,3.668,26.0
128.045,2.428,2.985,32.0
128.042,2.463,2.301,13.0
120.991,2.363,1.518,3.0
77.776,1.542,0.561,12.0
54.639,1.099,0.103,4.0
128.041,2.62,3.812,47.0
128.088,2.659,3.13,53.0
106.249,2.235,2.029,3.0
89.841,1.917,1.228,9.0
77.925,1.686,0.649,37.0
58.194,1.276,0.174,16.0
159.057,3.544,4.911,19.0
169.748,3.833,4.335,5.0
0.0,0.0,0.0,0.0
106.258,2.461,1.568,7.0
78.201,1.835,0.736,11.0
58.929,1.399,0.239,15.0
158.736,3.829,5.072,21.0
157.732,3.85,4.196,11.0
100.345,2.478,2.132,5.0
100.338,2.507,1.585,65.0
80.135,2.026,0.837,9.0
0.0,0.0,0.0,0.0
152.706,3.962,5.036,25.0
154.072,4.041,4.255,13.0
0.0,0.0,0.0,0.0
0.0,0.0,0.0,0.0
106.035,2.875,1.213,20.0
74.382,2.039,0.452,13.0
152.376,4.236,5.177,39.0
154.046,4.327,4.407,32.0
0.0,0.0,0.0,0.0
0.0,0.0,0.0,0.0
100.572,2.913,1.248,4.0
74.612,2.182,0.525,15.0
152.212,4.513,5.316,35.0
158.398,4.743,4.681,11.0
0.0,0.0,0.0,0.0
0.0,0.0,0.0,0.0
100.686,3.102,1.342,4.0
77.719,2.419,0.619,20.0
152.486,4.807,5.466,29.0
161.113,5.126,4.908,6.0
0.0,0.0,0.0,0.0
0.0,0.0,0.0,0.0
100.728,3.294,1.432,4.0
77.967,2.573,0.689,39.0
152.693,5.101,5.61,40.0
157.364,5.304,4.932,8.0
159.158,5.41,4.131,6.0
0.0,0.0,0.0,0.0
0.0,0.0,0.0,0.0
78.191,2.727,0.757,15.0
152.574,5.387,5.734,38.0
157.307,5.599,5.063,9.0
160.61,5.764,4.302,12.0
0.0,0.0,0.0,0.0
0.0,0.0,0.0,0.0
79.608,2.928,0.836,8.0
152.698,5.683,5.864,30.0
157.057,5.889,5.181,8.0
158.45,5.989,4.371,9.0
0.0,0.0,0.0,0.0
0.0,0.0,0.0,0.0
93.427,3.614,1.053,8.0
158.176,6.186,6.195,19.0
158.155,6.231,5.337,6.0
173.257,6.876,4.909,7.0
0.0,0.0,0.0,0.0
0.0,0.0,0.0,0.0
93.523,3.796,1.122,3.0
157.888,6.477,6.299,9.0
156.937,6.484,5.411,18.0
158.45,6.591,4.603,12.0
0.0,0.0,0.0,0.0
0.0,0.0,0.0,0.0
95.911,4.075,1.217,1.0
124.232,5.335,5.042,46.0
157.295,6.799,5.531,15.0
173.415,7.548,5.156,7.0
0.0,0.0,0.0,0.0
0.0,0.0,0.0,0.0
101.37,4.5,1.353,2.0
124.248,5.571,5.124,31.0
156.867,7.08,5.616,10.0
157.725,7.163,4.788,6.0
0.0,0.0,0.0,0.0
0.0,0.0,0.0,0.0
105.849,4.898,1.477,4.0
129.804,6.068,5.432,10.0
157.11,7.39,5.72,23.0
156.319,7.399,4.84,16.0
0.0,0.0,0.0,0.0
0.0,0.0,0.0,0.0
0.0,0.0,0.0,0.0
160.238,7.8,6.799,11.0
157.467,7.71,5.822,19.0
156.201,7.692,4.924,12.0
156.955,7.775,4.076,3.0
0.0,0.0,0.0,0.0
105.807,5.303,1.594,4.0
129.479,6.552,5.563,8.0
157.812,8.031,5.919,14.0
0.0,0.0,0.0,0.0
156.556,8.054,4.146,14.0
162.787,8.423,3.423,7.0
105.86,5.507,1.647,19.0
159.828,8.392,6.946,21.0
157.432,8.311,5.981,13.0
162.186,8.606,5.274,9.0
162.498,8.668,4.379,18.0
162.577,8.719,3.492,10.0
105.789,5.705,1.694,13.0
162.454,8.842,7.134,9.0
157.775,8.63,6.064,19.0
157.285,8.646,5.183,18.0
163.416,9.03,4.474,19.0
163.03,9.056,3.572,22.0
105.932,5.914,1.741,22.0
162.26,9.139,7.192,12.0
157.942,8.94,6.135,18.0
157.313,8.95,5.248,14.0
163.423,9.341,4.538,16.0
0.0,0.0,0.0,0.0
0.0,0.0,0.0,0.0
33.482,1.949,1.496,2.0
158.258,9.259,6.205,14.0
157.629,9.267,5.315,14.0
164.071,9.692,4.615,6.0
164.107,9.738,3.715,10.0
140.072,8.352,2.403,10.0
158.444,9.529,7.137,9.0
33.506,2.024,1.325,0.0
33.393,2.026,1.136,0.0
33.443,2.038,0.951,2.0
33.439,2.048,0.767,10.0
33.46,2.058,0.584,154.0
158.055,9.806,7.166,19.0
33.436,2.083,1.331,2.0
33.354,2.087,1.144,0.0
158.094,9.938,4.539,13.0
158.094,9.981,3.669,13.0
139.629,8.854,2.473,73.0
158.018,10.104,7.205,34.0
158.136,10.153,6.337,34.0
158.131,10.196,5.465,31.0
158.121,10.237,4.578,41.0
114.713,7.459,2.689,50.0
139.588,9.115,2.502,36.0
33.45,2.201,1.532,4.0
158.039,10.445,6.367,36.0
158.075,10.49,5.496,36.0
158.055,10.529,4.606,51.0
114.637,7.668,2.708,51.0
139.561,9.375,2.528,13.0
33.432,2.263,1.537,0.0
157.934,10.734,6.389,36.0
157.967,10.778,5.517,36.0
30.852,2.113,0.904,6.0
114.406,7.868,2.72,31.0
114.697,7.917,2.093,14.0
115.137,8.011,5.31,14.0
157.795,11.019,6.404,37.0
30.648,2.148,1.074,12.0
30.69,2.159,0.902,39.0
30.734,2.17,0.733,43.0
30.828,2.185,0.565,83.0
113.582,8.114,5.25,20.0
157.496,11.29,6.405,20.0
30.621,2.202,1.075,190.0
30.656,2.213,0.904,38.0
30.645,2.22,0.734,44.0
30.675,2.231,0.564,52.0
112.033,8.21,5.184,11.0
66.518,4.891,2.708,8.0
30.619,2.259,1.077,165.0
30.644,2.268,0.904,64.0
30.64,2.275,0.734,52.0
30.644,2.284,0.565,61.0
109.385,8.215,5.064,43.0
30.822,2.322,1.255,5.0
30.65,2.316,1.078,155.0
30.635,2.323,0.904,150.0
30.633,2.33,0.734,52.0
30.612,2.337,0.563,58.0
106.324,8.176,4.92,7.0
30.812,2.376,1.254,5.0
30.634,2.37,1.076,156.0
30.641,2.378,0.903,152.0
30.618,2.384,0.732,50.0
30.619,2.392,0.562,57.0
109.48,8.613,5.06,11.0
30.842,2.434,1.253,7.0
30.558,2.418,1.071,209.0
30.636,2.432,0.9,155.0
30.614,2.438,0.729,63.0
30.601,2.444,0.559,40.0
74.584,5.999,3.439,22.0
74.544,6.014,3.022,31.0
30.603,2.476,1.069,58.0
30.601,2.483,0.896,160.0
30.589,2.489,0.725,45.0
30.61,2.498,0.555,42.0
74.547,6.126,3.427,30.0
74.536,6.143,3.01,28.0
30.676,2.535,1.067,14.0
30.648,2.539,0.892,156.0
30.597,2.542,0.72,35.0
30.625,2.552,0.55,39.0
109.478,9.186,5.014,7.0
34.274,2.883,1.378,9.0
34.278,2.891,1.187,22.0
30.658,2.593,0.887,154.0
30.654,2.599,0.715,51.0
30.66,2.607,0.544,29.0
106.278,9.097,4.846,9.0
120.546,10.345,4.822,37.0
120.618,10.377,4.149,36.0
30.651,2.643,0.879,28.0
120.672,10.437,2.789,24.0
30.742,2.666,0.538,2.0
106.404,9.288,4.825,12.0
120.615,10.554,4.794,41.0
120.629,10.582,4.118,54.0
30.706,2.7,0.873,31.0
120.662,10.638,2.755,49.0
120.659,10.666,2.08,27.0
109.47,9.738,4.934,10.0
120.699,10.761,4.762,28.0
120.571,10.775,4.081,21.0
30.792,2.758,0.866,7.0
115.789,10.397,2.609,7.0
115.722,10.418,1.959,7.0
109.462,9.915,4.899,9.0
114.771,10.418,4.491,35.0
114.783,10.444,3.847,32.0
13.853,1.263,0.385,6.0
13.845,1.265,0.307,6.0
13.869,1.271,0.23,8.0
13.855,1.277,0.615,13.0
13.836,1.278,0.536,6.0
13.847,1.282,0.459,18.0
13.83,1.283,0.379,26.0
13.83,1.286,0.301,28.0
13.839,1.29,0.224,23.0
13.82,1.296,0.608,33.0
13.836,1.3,0.531,31.0
13.832,1.302,0.453,36.0
13.828,1.305,0.373,35.0
13.814,1.306,0.295,32.0
13.818,1.309,0.218,30.0
13.819,1.317,0.602,38.0
13.819,1.32,0.524,40.0
13.823,1.323,0.446,47.0
13.808,1.324,0.367,38.0
13.792,1.325,0.289,34.0
13.803,1.329,0.211,33.0
13.798,1.336,0.595,37.0
13.803,1.339,0.517,83.0
13.799,1.341,0.439,86.0
13.782,1.342,0.359,39.0
13.781,1.345,0.282,44.0
13.792,1.349,0.204,35.0
13.779,1.355,0.587,39.0
13.794,1.359,0.51,130.0
13.793,1.362,0.432,138.0
13.783,1.363,0.352,49.0
13.776,1.365,0.275,51.0
13.772,1.368,0.197,36.0
13.773,1.375,0.58,40.0
13.785,1.379,0.502,150.0
13.78,1.38,0.424,138.0
13.777,1.383,0.345,57.0
13.766,1.384,0.267,51.0
13.767,1.387,0.189,37.0
13.769,1.394,0.572,41.0
13.785,1.398,0.494,150.0
13.787,1.401,0.417,145.0
13.765,1.401,0.337,41.0
13.761,1.403,0.259,59.0
13.763,1.406,0.181,36.0
13.769,1.414,0.564,73.0
13.783,1.418,0.486,150.0
13.776,1.419,0.408,150.0
13.767,1.421,0.328,51.0
13.76,1.422,0.251,43.0
13.774,1.426,0.173,35.0
13.777,1.434,0.555,86.0
13.775,1.436,0.477,150.0
13.776,1.438,0.399,146.0
13.768,1.439,0.32,40.0
13.769,1.442,0.242,38.0
13.773,1.445,0.164,32.0
13.778,1.452,0.547,70.0
13.783,1.455,0.469,150.0
13.784,1.457,0.391,127.0
13.769,1.458,0.311,38.0
13.77,1.46,0.233,38.0
13.779,1.464,0.155,33.0
13.782,1.471,0.537,41.0
13.786,1.473,0.459,125.0
13.777,1.475,0.381,48.0
13.779,1.477,0.301,36.0
13.774,1.479,0.223,37.0
13.788,1.483,0.145,34.0
13.791,1.49,0.528,37.0
13.8,1.493,0.45,62.0
13.792,1.494,0.371,36.0
13.79,1.496,0.292,34.0
13.786,1.498,0.214,33.0
13.791,1.5,0.135,30.0
13.804,1.508,0.518,32.0
13.803,1.51,0.44,33.0
13.804,1.512,0.362,30.0
13.786,1.512,0.281,27.0
13.798,1.516,0.203,23.0
13.799,1.518,0.125,21.0
13.818,1.526,0.508,20.0
13.815,1.528,0.43,15.0
13.828,1.531,0.352,14.0
13.795,1.53,0.271,19.0
13.837,1.536,0.193,12.0
32.532,3.618,0.27,5.0
32.526,3.632,1.172,13.0
32.47,3.63,0.985,97.0
32.394,3.626,0.799,13.0
32.478,3.64,0.613,11.0
32.451,3.641,0.428,27.0
32.545,3.657,0.244,19.0
32.531,3.67,1.145,32.0
32.478,3.667,0.959,157.0
32.379,3.66,0.772,24.0
32.466,3.675,0.586,35.0
32.483,3.681,0.401,41.0
32.579,3.697,0.218,13.0
32.59,3.712,1.121,62.0
32.445,3.7,0.931,48.0
32.396,3.698,0.745,8.0
32.492,3.713,0.559,7.0
32.536,3.722,0.375,19.0
33.212,3.804,0.193,11.0
10.019,1.151,0.336,16.0
10.007,1.151,0.278,16.0
9.998,1.151,0.221,14.0
32.498,3.748,0.531,3.0
33.852,3.908,0.36,10.0
32.885,3.801,0.162,6.0
10.012,1.161,0.326,32.0
10.01,1.162,0.269,80.0
10.011,1.163,0.212,67.0
10.004,1.163,0.154,42.0
10.003,1.165,0.097,35.0
10.01,1.167,0.04,20.0
10.006,1.17,0.317,80.0
9.999,1.17,0.26,150.0
9.998,1.171,0.203,128.0
9.989,1.171,0.145,79.0
9.997,1.174,0.088,70.0
9.997,1.175,0.031,40.0
9.988,1.177,0.307,72.0
9.998,1.18,0.251,149.0
9.985,1.179,0.193,133.0
9.988,1.18,0.135,80.0
9.99,1.182,0.078,77.0
9.984,1.182,0.021,42.0
9.983,1.186,0.298,77.0
9.982,1.187,0.241,142.0
9.991,1.189,0.184,140.0
9.981,1.189,0.126,85.0
9.983,1.19,0.069,74.0
9.984,1.191,0.012,35.0
9.978,1.194,0.288,94.0
9.983,1.195,0.231,150.0
9.976,1.195,0.174,150.0
9.971,1.196,0.116,99.0
9.976,1.197,0.059,93.0
9.976,1.198,0.002,34.0
9.973,1.201,0.278,103.0
9.975,1.202,0.221,150.0
9.971,1.203,0.164,150.0
9.969,1.203,0.106,114.0
9.976,1.205,0.049,101.0
9.968,1.205,-0.007,54.0
9.973,1.209,0.268,114.0
9.973,1.21,0.211,150.0
9.976,1.211,0.154,150.0
9.962,1.21,0.096,119.0
9.975,1.213,0.039,109.0
9.972,1.213,-0.017,60.0
9.963,1.215,0.257,117.0
9.973,1.217,0.201,150.0
9.978,1.219,0.144,150.0
9.971,1.218,0.085,130.0
9.976,1.22,0.028,113.0
9.969,1.22,-0.028,51.0
9.971,1.223,0.247,112.0
9.971,1.224,0.19,150.0
9.977,1.225,0.133,150.0
9.97,1.225,0.075,122.0
9.977,1.227,0.018,104.0
9.97,1.227,-0.038,61.0
9.974,1.23,0.237,111.0
9.97,1.23,0.18,150.0
9.971,1.231,0.123,150.0
9.959,1.23,0.065,127.0
9.972,1.232,0.007,93.0
9.972,1.233,-0.049,67.0
9.981,1.237,0.227,107.0
9.97,1.236,0.169,150.0
9.981,1.238,0.112,150.0
9.969,1.237,0.054,111.0
9.971,1.238,-0.002,73.0
9.971,1.239,-0.059,70.0
9.976,1.241,0.216,103.0
9.98,1.242,0.159,150.0
9.978,1.243,0.101,150.0
9.972,1.243,0.043,105.0
9.966,1.243,-0.013,20.0
9.977,1.245,-0.07,64.0
9.975,1.246,0.205,94.0
9.974,1.247,0.148,150.0
9.972,1.247,0.091,150.0
9.964,1.246,0.032,110.0
9.967,1.247,-0.024,51.0
9.97,1.248,-0.081,62.0
9.976,1.251,0.194,95.0
9.97,1.251,0.137,150.0
9.977,1.252,0.08,150.0
9.965,1.251,0.022,107.0
9.977,1.253,-0.035,101.0
9.971,1.253,-0.092,69.0
9.969,1.254,0.183,90.0
9.973,1.255,0.126,150.0
9.979,1.256,0.069,150.0
9.969,1.255,0.011,98.0
9.974,1.257,-0.046,104.0
9.97,1.257,-0.103,72.0
9.972,1.258,0.172,84.0
9.976,1.259,0.115,150.0
9.974,1.259,0.058,150.0
9.97,1.259,0.0,96.0
9.982,1.261,-0.057,119.0
9.968,1.26,-0.114,68.0
9.969,1.261,0.161,76.0
9.979,1.263,0.104,137.0
9.974,1.262,0.046,150.0
9.97,1.262,-0.011,84.0
9.971,1.263,-0.068,103.0
9.972,1.263,-0.125,61.0
9.98,1.265,0.15,71.0
9.975,1.265,0.092,142.0
9.976,1.265,0.035,137.0
9.97,1.265,-0.022,86.0
9.976,1.266,-0.079,91.0
9.977,1.267,-0.136,50.0
9.979,1.268,0.138,68.0
9.975,1.267,0.081,131.0
9.975,1.267,0.024,131.0
9.97,1.267,-0.033,76.0
9.976,1.268,-0.09,85.0
9.977,1.268,-0.147,49.0
9.981,1.27,0.127,67.0
9.982,1.27,0.07,143.0
9.976,1.269,0.013,89.0
9.966,1.268,-0.044,72.0
9.977,1.27,-0.102,73.0
9.974,1.27,-0.159,43.0
9.982,1.271,0.116,62.0
9.986,1.272,0.059,145.0
9.977,1.271,0.001,108.0
9.97,1.27,-0.056,71.0
9.979,1.271,-0.113,74.0
9.973,1.271,-0.17,42.0
9.977,1.271,0.104,67.0
9.986,1.273,0.047,142.0
9.974,1.271,-0.009,110.0
9.971,1.271,-0.067,73.0
9.979,1.272,-0.125,81.0
9.974,1.271,-0.182,45.0
9.982,1.273,0.093,62.0
9.974,1.271,0.036,137.0
9.974,1.271,-0.02,110.0
9.965,1.27,-0.078,67.0
9.973,1.271,-0.136,77.0
9.967,1.271,-0.193,42.0
9.979,1.272,0.082,68.0
9.983,1.273,0.025,137.0
9.983,1.272,-0.032,130.0
9.974,1.271,-0.09,77.0
9.976,1.272,-0.147,85.0
9.974,1.271,-0.204,43.0
9.98,1.272,0.07,72.0
9.985,1.272,0.013,103.0
9.982,1.272,-0.043,139.0
9.972,1.27,-0.101,79.0
9.976,1.271,-0.158,91.0
9.974,1.271,-0.215,49.0
9.975,1.27,0.059,64.0
9.981,1.271,0.002,129.0
9.968,1.269,-0.054,122.0
9.968,1.269,-0.112,87.0
9.977,1.27,-0.17,98.0
9.974,1.27,-0.227,57.0
9.976,1.269,0.048,69.0
9.982,1.269,-0.008,143.0
9.976,1.268,-0.065,131.0
9.969,1.267,-0.123,90.0
9.969,1.267,-0.181,101.0
9.97,1.267,-0.238,60.0
9.977,1.267,0.037,73.0
9.975,1.267,-0.019,140.0
9.973,1.266,-0.077,150.0
9.96,1.264,-0.135,94.0
9.971,1.265,-0.192,113.0
9.97,1.265,-0.249,64.0
9.976,1.265,0.026,71.0
9.976,1.264,-0.031,145.0
9.972,1.263,-0.088,150.0
9.963,1.262,-0.146,100.0
9.975,1.263,-0.203,111.0
9.973,1.263,-0.26,63.0
9.978,1.262,0.014,74.0
9.973,1.261,-0.042,150.0
9.978,1.261,-0.099,150.0
9.971,1.26,-0.157,104.0
9.976,1.26,-0.214,111.0
9.97,1.26,-0.271,58.0
9.975,1.259,0.003,90.0
9.973,1.258,-0.053,150.0
9.968,1.257,-0.11,150.0
9.968,1.256,-0.168,105.0
9.971,1.256,-0.225,112.0
9.968,1.256,-0.282,67.0
9.977,1.255,-0.007,62.0
9.977,1.254,-0.064,150.0
9.975,1.254,-0.121,150.0
9.967,1.252,-0.179,105.0
9.972,1.253,-0.236,109.0
9.97,1.252,-0.293,60.0
9.982,1.252,-0.017,54.0
9.975,1.25,-0.074,150.0
9.976,1.25,-0.132,150.0
9.97,1.248,-0.19,107.0
9.967,1.248,-0.247,110.0
9.963,1.247,-0.304,65.0
9.979,1.246,-0.028,99.0
9.976,1.245,-0.085,150.0
9.977,1.245,-0.142,150.0
9.97,1.244,-0.2,107.0
9.968,1.243,-0.257,109.0
9.966,1.242,-0.314,62.0
9.974,1.241,-0.039,102.0
9.969,1.239,-0.096,150.0
9.98,1.24,-0.153,150.0
9.969,1.238,-0.211,104.0
9.974,1.238,-0.268,111.0
9.967,1.237,-0.325,65.0
9.972,1.235,-0.049,113.0
9.975,1.235,-0.106,150.0
9.97,1.233,-0.163,150.0
9.967,1.232,-0.221,95.0
9.97,1.232,-0.279,113.0
9.969,1.231,-0.336,69.0
9.974,1.229,-0.06,114.0
9.973,1.228,-0.117,150.0
9.974,1.228,-0.174,150.0
9.967,1.226,-0.232,103.0
9.977,1.227,-0.289,110.0
9.968,1.225,-0.346,59.0
9.974,1.223,-0.07,112.0
9.974,1.222,-0.127,150.0
9.971,1.221,-0.184,150.0
9.963,1.219,-0.241,102.0
9.973,1.22,-0.299,106.0
9.974,1.219,-0.356,54.0
9.971,1.216,-0.08,103.0
9.97,1.215,-0.137,150.0
9.98,1.215,-0.194,150.0
9.975,1.214,-0.252,99.0
9.973,1.213,-0.309,110.0
9.983,1.213,-0.366,52.0
9.972,1.209,-0.089,98.0
9.977,1.208,-0.147,150.0
9.975,1.207,-0.203,150.0
9.973,1.206,-0.261,79.0
9.982,1.206,-0.319,84.0
9.98,1.205,-0.376,41.0
9.981,1.202,-0.099,85.0
9.982,1.201,-0.156,143.0
9.989,1.201,-0.213,129.0
9.978,1.199,-0.271,68.0
9.989,1.199,-0.329,78.0
9.991,1.199,-0.386,29.0
9.983,1.194,-0.109,71.0
9.993,1.194,-0.166,141.0
9.985,1.192,-0.223,142.0
9.987,1.192,-0.281,74.0
9.999,1.192,-0.338,69.0
10.004,1.192,-0.396,28.0
9.994,1.187,-0.118,72.0
9.999,1.186,-0.175,144.0
10.0,1.186,-0.232,124.0
9.995,1.184,-0.29,63.0
10.004,1.184,-0.347,69.0
10.007,1.184,-0.405,20.0
10.009,1.18,-0.127,77.0
10.009,1.179,-0.184,107.0
10.002,1.177,-0.241,85.0
10.0,1.175,-0.299,21.0
10.015,1.176,-0.357,20.0
10.01,1.175,-0.414,17.0
10.011,1.171,-0.136,21.0
10.019,1.17,-0.194,19.0
10.009,1.168,-0.25,17.0
13.833,1.613,-0.427,5.0
13.773,1.605,-0.503,5.0
13.441,1.564,-0.568,6.0
10.017,1.162,-0.145,14.0
20.554,2.382,-0.415,1.0
13.846,1.602,-0.358,5.0
13.81,1.597,-0.438,8.0
13.745,1.588,-0.514,8.0
13.365,1.542,-0.576,7.0
23.095,2.655,-0.355,1.0
20.349,2.337,-0.428,2.0
13.843,1.588,-0.37,11.0
13.8,1.581,-0.449,14.0
13.718,1.57,-0.524,15.0
13.31,1.522,-0.584,10.0
22.683,2.584,-0.367,5.0
13.824,1.573,-0.302,8.0
13.804,1.569,-0.38,16.0
13.771,1.563,-0.459,15.0
13.7,1.554,-0.534,16.0
13.236,1.499,-0.592,9.0
13.861,1.564,-0.235,12.0
13.823,1.558,-0.313,18.0
13.786,1.552,-0.39,20.0
13.754,1.546,-0.469,19.0
13.654,1.533,-0.543,11.0
13.142,1.474,-0.598,9.0
13.833,1.545,-0.245,17.0
13.8,1.539,-0.323,24.0
13.778,1.535,-0.4,26.0
13.745,1.53,-0.479,21.0
13.589,1.51,-0.551,9.0
13.087,1.453,-0.605,9.0
13.818,1.527,-0.255,28.0
13.802,1.524,-0.333,32.0
13.783,1.519,-0.41,33.0
13.725,1.511,-0.488,21.0
13.517,1.486,-0.557,9.0
13.079,1.437,-0.614,10.0
13.808,1.51,-0.264,35.0
13.789,1.506,-0.342,34.0
13.766,1.501,-0.42,33.0
13.718,1.494,-0.497,19.0
13.401,1.457,-0.562,11.0
13.075,1.42,-0.622,10.0
13.796,1.492,-0.273,37.0
13.778,1.487,-0.351,30.0
13.768,1.484,-0.429,38.0
13.713,1.476,-0.506,20.0
13.302,1.43,-0.567,15.0
13.077,1.404,-0.631,10.0
13.788,1.473,-0.282,39.0
13.776,1.47,-0.36,36.0
13.766,1.466,-0.438,39.0
13.704,1.458,-0.515,17.0
13.33,1.416,-0.576,11.0
13.058,1.385,-0.639,9.0
13.788,1.455,-0.291,38.0
13.763,1.45,-0.368,32.0
13.767,1.448,-0.446,36.0
13.701,1.439,-0.523,16.0
13.294,1.394,-0.583,9.0
13.051,1.367,-0.646,9.0
13.778,1.436,-0.299,38.0
13.764,1.432,-0.376,30.0
13.749,1.428,-0.453,28.0
13.681,1.419,-0.53,11.0
13.234,1.37,-0.588,11.0
13.019,1.346,-0.652,10.0
13.773,1.417,-0.306,63.0
13.769,1.414,-0.384,33.0
13.741,1.408,-0.461,28.0
13.671,1.399,-0.537,10.0
13.186,1.347,-0.593,13.0
12.968,1.323,-0.656,7.0
13.774,1.398,-0.313,67.0
13.763,1.394,-0.391,77.0
13.74,1.389,-0.468,34.0
13.649,1.378,-0.543,9.0
13.177,1.328,-0.599,10.0
12.903,1.298,-0.659,4.0
13.774,1.378,-0.32,72.0
13.774,1.375,-0.398,150.0
13.734,1.369,-0.474,24.0
13.644,1.357,-0.549,10.0
13.147,1.306,-0.604,8.0
12.829,1.272,-0.661,2.0
13.777,1.358,-0.327,50.0
13.764,1.354,-0.404,89.0
13.727,1.348,-0.48,21.0
13.638,1.337,-0.555,11.0
13.11,1.283,-0.608,7.0
12.73,1.243,-0.662,2.0
13.786,1.339,-0.333,38.0
13.769,1.335,-0.41,34.0
13.72,1.327,-0.485,19.0
13.604,1.314,-0.559,11.0
13.104,1.263,-0.613,9.0
12.653,1.217,-0.663,2.0
13.8,1.32,-0.338,35.0
13.771,1.314,-0.415,27.0
13.737,1.308,-0.491,27.0
13.572,1.29,-0.563,10.0
13.081,1.241,-0.616,9.0
12.594,1.192,-0.664,4.0
13.813,1.3,-0.344,34.0
13.782,1.294,-0.42,23.0
13.751,1.288,-0.496,20.0
13.554,1.267,-0.567,10.0
13.07,1.22,-0.62,9.0
12.57,1.17,-0.667,5.0
13.827,1.28,-0.348,32.0
13.806,1.275,-0.425,23.0
13.763,1.268,-0.501,16.0
13.555,1.246,-0.571,10.0
13.083,1.2,-0.625,10.0
12.558,1.149,-0.67,4.0
13.846,1.26,-0.353,26.0
13.827,1.255,-0.43,21.0
13.79,1.249,-0.506,15.0
13.533,1.223,-0.574,11.0
13.074,1.178,-0.628,10.0
12.533,1.127,-0.672,4.0
13.875,1.24,-0.357,15.0
13.869,1.236,-0.434,14.0
13.803,1.228,-0.51,15.0
13.541,1.201,-0.577,12.0
13.084,1.158,-0.631,10.0
12.488,1.103,-0.672,3.0
18.897,1.659,-0.49,1.0
13.898,1.217,-0.438,7.0
13.827,1.208,-0.513,13.0
13.563,1.182,-0.581,9.0
13.078,1.137,-0.633,9.0
12.457,1.08,-0.673,4.0
18.772,1.617,-0.491,3.0
16.943,1.455,-0.537,2.0
13.87,1.188,-0.517,13.0
13.577,1.16,-0.583,10.0
13.072,1.114,-0.635,8.0
12.445,1.058,-0.674,4.0
18.778,1.586,-0.493,3.0
16.924,1.425,-0.539,2.0
13.95,1.172,-0.522,10.0
13.542,1.134,-0.584,9.0
13.078,1.093,-0.637,9.0
12.449,1.037,-0.675,4.0
18.765,1.553,-0.495,3.0
16.915,1.396,-0.54,2.0
14.16,1.165,-0.531,9.0
13.556,1.112,-0.585,10.0
13.069,1.07,-0.637,9.0
12.467,1.017,-0.677,3.0
18.752,1.52,-0.495,3.0
16.929,1.368,-0.542,2.0
14.452,1.165,-0.543,6.0
13.563,1.09,-0.586,12.0
13.07,1.047,-0.637,9.0
12.501,0.999,-0.68,3.0
18.774,1.489,-0.497,3.0
16.927,1.339,-0.542,2.0
14.82,1.168,-0.557,4.0
13.568,1.066,-0.586,11.0
13.079,1.025,-0.638,9.0
12.501,0.977,-0.679,3.0
18.825,1.461,-0.497,3.0
16.95,1.311,-0.542,2.0
14.993,1.156,-0.563,4.0
13.598,1.045,-0.587,11.0
13.065,1.001,-0.637,9.0
12.532,0.957,-0.68,3.0
18.855,1.43,-0.497,3.0
17.017,1.286,-0.543,2.0
15.073,1.136,-0.565,4.0
13.693,1.028,-0.59,11.0
13.077,0.979,-0.636,9.0
12.564,0.937,-0.681,3.0
18.913,1.401,-0.497,3.0
17.088,1.262,-0.544,2.0
15.183,1.117,-0.567,2.0
13.768,1.009,-0.592,11.0
13.094,0.957,-0.635,8.0
12.605,0.918,-0.682,3.0
18.934,1.369,-0.495,3.0
17.166,1.237,-0.544,2.0
15.258,1.095,-0.568,2.0
13.837,0.99,-0.593,12.0
13.112,0.935,-0.634,8.0
12.667,0.9,-0.683,3.0
19.142,1.35,-0.497,3.0
17.238,1.211,-0.543,2.0
15.445,1.081,-0.571,2.0
13.9,0.969,-0.593,13.0
13.109,0.911,-0.631,8.0
12.798,0.886,-0.687,2.0
19.289,1.325,-0.497,3.0
17.307,1.184,-0.541,2.0
15.692,1.07,-0.577,2.0
13.983,0.95,-0.593,15.0
13.217,0.894,-0.633,9.0
12.865,0.867,-0.687,3.0
19.344,1.294,-0.493,3.0
17.412,1.16,-0.54,2.0
15.882,1.054,-0.58,2.0
14.144,0.935,-0.596,15.0
13.261,0.873,-0.631,11.0
12.905,0.846,-0.686,3.0
19.482,1.267,-0.491,3.0
17.566,1.138,-0.539,2.0
16.009,1.033,-0.579,2.0
14.401,0.925,-0.602,13.0
13.395,0.857,-0.634,9.0
12.979,0.827,-0.685,5.0
19.662,1.243,-0.489,3.0
17.733,1.117,-0.538,3.0
16.08,1.008,-0.576,4.0
14.539,0.908,-0.603,16.0
13.506,0.84,-0.634,11.0
13.042,0.807,-0.684,8.0
19.868,1.22,-0.487,3.0
17.851,1.091,-0.535,4.0
16.201,0.986,-0.574,3.0
14.605,0.885,-0.599,17.0
13.554,0.818,-0.63,12.0
13.055,0.784,-0.679,12.0
20.139,1.2,-0.485,3.0
17.974,1.066,-0.531,3.0
16.326,0.963,-0.572,3.0
14.649,0.86,-0.595,19.0
13.626,0.797,-0.628,10.0
13.061,0.76,-0.673,10.0
20.33,1.174,-0.48,4.0
18.237,1.048,-0.53,3.0
16.478,0.942,-0.569,4.0
14.658,0.834,-0.588,18.0
13.662,0.773,-0.623,13.0
13.061,0.736,-0.667,10.0
20.542,1.148,-0.475,4.0
18.43,1.024,-0.527,4.0
16.677,0.922,-0.568,2.0
14.672,0.807,-0.581,11.0
13.806,0.756,-0.622,16.0
13.064,0.712,-0.66,10.0
20.79,1.123,-0.469,4.0
18.66,1.002,-0.523,3.0
16.917,0.904,-0.566,2.0
14.746,0.784,-0.576,6.0
14.078,0.745,-0.626,14.0
13.087,0.689,-0.654,10.0
21.065,1.099,-0.464,4.0
18.978,0.985,-0.521,3.0
17.168,0.886,-0.565,2.0
15.178,0.779,-0.583,3.0
14.297,0.73,-0.627,16.0
13.202,0.67,-0.651,9.0
21.382,1.076,-0.457,4.0
19.267,0.964,-0.517,3.0
17.356,0.864,-0.56,4.0
15.634,0.774,-0.591,2.0
14.541,0.715,-0.629,16.0
13.402,0.656,-0.652,10.0
21.763,1.055,-0.451,4.0
19.501,0.94,-0.51,3.0
17.572,0.842,-0.555,4.0
15.949,0.76,-0.592,2.0
14.623,0.692,-0.622,30.0
13.508,0.636,-0.648,13.0
22.238,1.037,-0.446,4.0
19.762,0.916,-0.503,3.0
17.82,0.821,-0.55,5.0
16.164,0.74,-0.588,2.0
14.638,0.666,-0.612,25.0
13.643,0.617,-0.645,15.0
22.762,1.02,-0.44,5.0
20.16,0.898,-0.498,3.0
18.104,0.801,-0.546,3.0
16.398,0.721,-0.585,2.0
14.658,0.64,-0.602,19.0
13.816,0.599,-0.642,13.0
23.468,1.008,-0.435,5.0
20.512,0.875,-0.491,4.0
18.443,0.781,-0.541,3.0
16.638,0.7,-0.58,2.0
14.668,0.613,-0.59,10.0
14.071,0.584,-0.642,15.0
24.22,0.996,-0.429,5.0
20.846,0.851,-0.482,4.0
18.786,0.762,-0.536,3.0
16.989,0.684,-0.578,2.0
15.057,0.602,-0.593,6.0
14.234,0.565,-0.638,15.0
24.595,0.966,-0.415,1.0
21.225,0.827,-0.472,4.0
19.135,0.74,-0.529,3.0
17.365,0.667,-0.575,3.0
15.589,0.594,-0.6,3.0
14.337,0.542,-0.629,15.0
28.319,1.06,-0.452,1.0
21.803,0.81,-0.466,4.0
19.506,0.719,-0.521,3.0
17.555,0.643,-0.566,3.0
16.004,0.581,-0.602,2.0
14.58,0.525,-0.627,16.0
28.964,1.033,-0.436,2.0
22.499,0.796,-0.46,4.0
19.818,0.695,-0.511,3.0
17.901,0.623,-0.56,3.0
16.274,0.562,-0.596,3.0
14.576,0.499,-0.612,3.0
29.492,0.998,-0.415,2.0
23.373,0.784,-0.454,5.0
20.304,0.675,-0.503,3.0
18.238,0.601,-0.552,3.0
16.618,0.543,-0.592,2.0
14.685,0.476,-0.602,3.0
30.176,0.967,-0.395,2.0
24.043,0.763,-0.443,3.0
20.758,0.653,-0.494,4.0
18.647,0.581,-0.545,3.0
17.018,0.526,-0.589,2.0
15.036,0.46,-0.601,7.0
30.899,0.935,-0.372,2.0
27.556,0.826,-0.479,1.0
21.293,0.632,-0.484,4.0
19.06,0.56,-0.537,3.0
17.321,0.504,-0.58,4.0
15.826,0.456,-0.615,3.0
31.91,0.909,-0.35,1.0
28.113,0.793,-0.458,1.0
21.857,0.61,-0.473,4.0
19.528,0.54,-0.529,3.0
17.644,0.482,-0.572,6.0
16.139,0.437,-0.609,2.0
33.16,0.886,-0.326,1.0
28.958,0.766,-0.439,2.0
22.501,0.589,-0.462,4.0
20.001,0.518,-0.519,3.0
18.018,0.461,-0.564,4.0
16.524,0.419,-0.605,3.0
36.377,0.91,-0.317,4.0
29.65,0.733,-0.416,1.0
23.565,0.575,-0.456,2.0
20.59,0.497,-0.51,4.0
18.522,0.442,-0.557,3.0
16.889,0.398,-0.598,2.0
36.677,0.853,-0.275,8.0
30.5,0.701,-0.391,2.0
27.112,0.615,-0.492,2.0
21.082,0.472,-0.497,4.0
18.974,0.42,-0.548,4.0
17.27,0.378,-0.591,2.0
37.072,0.799,-0.233,23.0
31.445,0.669,-0.365,2.0
27.8,0.584,-0.47,1.0
21.751,0.45,-0.485,4.0
19.355,0.395,-0.535,6.0
17.676,0.356,-0.582,2.0
37.629,0.747,-0.19,44.0
32.804,0.642,-0.339,1.0
28.74,0.554,-0.449,1.0
22.427,0.426,-0.472,3.0
19.877,0.373,-0.524,10.0
18.138,0.335,-0.574,3.0
38.676,0.703,-0.145,47.0
36.78,0.659,-0.333,2.0
29.532,0.521,-0.424,2.0
26.478,0.46,-0.523,1.0
20.596,0.352,-0.516,3.0
18.63,0.313,-0.565,4.0
39.63,0.655,-0.097,29.0
37.042,0.603,-0.287,7.0
30.499,0.488,-0.397,2.0
27.091,0.426,-0.499,2.0
21.318,0.33,-0.505,8.0
19.134,0.291,-0.555,3.0
44.494,0.664,-0.049,19.0
37.513,0.549,-0.24,13.0
31.552,0.454,-0.368,1.0
27.766,0.392,-0.474,1.0
22.002,0.305,-0.491,4.0
19.68,0.267,-0.544,3.0
46.874,0.624,0.012,40.0
38.111,0.497,-0.19,45.0
32.982,0.421,-0.339,1.0
28.921,0.362,-0.453,2.0
25.922,0.317,-0.542,1.0
20.353,0.244,-0.533,4.0
47.904,0.56,0.08,63.0
39.045,0.447,-0.14,47.0
37.231,0.416,-0.329,1.0
29.751,0.325,-0.423,2.0
26.602,0.283,-0.518,1.0
21.187,0.22,-0.524,4.0
48.022,0.486,0.15,85.0
43.908,0.434,-0.094,6.0
37.48,0.36,-0.277,7.0
30.62,0.286,-0.391,2.0
27.31,0.248,-0.492,1.0
22.099,0.195,-0.514,2.0
48.045,0.413,0.219,100.0
0.0,0.0,0.0,0.0
38.149,0.308,-0.226,14.0
31.896,0.249,-0.359,1.0
28.335,0.215,-0.469,1.0
25.395,0.186,-0.553,1.0
48.161,0.34,0.293,65.0
47.742,0.325,0.039,51.0
38.971,0.256,-0.172,49.0
33.38,0.211,-0.326,1.0
29.28,0.177,-0.439,2.0
26.235,0.153,-0.531,2.0
59.303,0.33,0.451,77.0
54.701,0.291,0.129,33.0
40.352,0.204,-0.115,16.0
37.711,0.182,-0.309,13.0
30.189,0.138,-0.406,2.0
26.966,0.117,-0.504,2.0
79.443,0.326,0.728,17.0
59.229,0.228,0.233,7.0
44.598,0.161,-0.058,21.0
38.301,0.129,-0.254,14.0
31.495,0.098,-0.374,1.0
27.978,0.081,-0.479,1.0
79.465,0.211,0.854,151.0
75.861,0.183,0.418,11.0
47.334,0.102,0.013,21.0
39.111,0.075,-0.196,31.0
33.216,0.056,-0.341,1.0
29.044,0.042,-0.45,2.0
79.469,0.097,0.983,151.0
79.328,0.079,0.566,11.0
0.0,0.0,0.0,0.0
40.47,0.021,-0.138,16.0
38.073,0.011,-0.329,2.0
29.966,0.002,-0.415,1.0
79.46,-0.012,1.112,151.0
79.433,-0.031,0.697,150.0
61.657,-0.038,0.219,11.0
0.0,0.0,0.0,0.0
38.72,-0.041,-0.27,5.0
31.361,-0.041,-0.382,2.0
79.457,-0.122,1.246,151.0
79.464,-0.139,0.831,151.0
76.334,-0.151,0.4,10.0
0.0,0.0,0.0,0.0
39.708,-0.096,-0.209,15.0
32.805,-0.086,-0.344,1.0
79.437,-0.227,1.378,166.0
79.462,-0.245,0.965,151.0
79.221,-0.261,0.548,30.0
0.0,0.0,0.0,0.0
41.916,-0.157,-0.15,11.0
37.07,-0.146,-0.326,0.0
79.439,-0.331,1.514,199.0
79.46,-0.349,1.101,158.0
79.471,-0.366,0.688,166.0
61.203,-0.295,0.205,19.0
46.293,-0.233,-0.086,17.0
39.848,-0.209,-0.281,2.0
79.428,-0.433,1.652,209.0
79.45,-0.45,1.239,171.0
79.452,-0.466,0.825,192.0
76.837,-0.467,0.391,10.0
51.744,-0.325,-0.005,4.0
42.317,-0.274,-0.224,9.0
79.43,-0.532,1.792,196.0
79.444,-0.549,1.379,176.0
79.45,-0.564,0.965,185.0
0.0,0.0,0.0,0.0
55.491,-0.417,0.092,5.0
47.413,-0.365,-0.167,19.0
79.438,-0.629,1.933,166.0
79.442,-0.644,1.519,179.0
79.445,-0.66,1.107,189.0
79.444,-0.675,0.685,150.0
60.993,-0.53,0.21,7.0
50.734,-0.451,-0.088,4.0
79.436,-0.722,2.075,151.0
79.43,-0.737,1.661,186.0
79.43,-0.752,1.249,221.0
79.454,-0.768,0.829,167.0
77.629,-0.764,0.406,9.0
57.686,-0.579,0.003,3.0
79.442,-0.813,2.218,151.0
79.423,-0.827,1.804,209.0
79.426,-0.841,1.391,211.0
79.447,-0.857,0.972,165.0
79.04,-0.866,0.556,36.0
79.26,-0.883,0.147,5.0
79.421,-0.9,2.361,150.0
79.433,-0.914,1.948,150.0
79.405,-0.928,1.536,128.0
79.447,-0.943,1.116,155.0
80.073,-0.964,0.71,8.0
69.812,-0.853,0.257,0.0
109.538,-1.359,3.456,6.0
0.0,0.0,0.0,0.0
86.931,-1.108,1.84,29.0
86.951,-1.123,1.382,150.0
86.957,-1.138,0.93,82.0
78.735,-1.043,0.434,6.0
86.895,-1.168,2.902,18.0
86.939,-1.183,2.452,29.0
183.386,-2.526,4.222,62.0
183.417,-2.557,3.256,75.0
148.332,-2.091,1.863,17.0
87.851,-1.253,0.649,4.0
183.406,-2.652,6.469,37.0
151.477,-2.214,4.557,87.0
187.105,-2.764,4.659,43.0
0.0,0.0,0.0,0.0
205.414,-3.099,2.968,33.0
123.736,-1.887,1.149,8.0
128.159,-1.978,4.762,12.0
151.463,-2.361,4.844,100.0
151.432,-2.384,4.059,70.0
248.308,-3.947,5.348,44.0
205.391,-3.296,3.363,27.0
149.39,-2.419,1.671,5.0
128.088,-2.097,5.003,15.0
151.404,-2.5,5.128,45.0
151.449,-2.523,4.346,81.0
40.251,-0.676,0.942,12.0
40.202,-0.681,0.733,2.0
205.393,-3.51,2.688,22.0
128.639,-2.222,5.269,25.0
184.394,-3.211,6.599,29.0
40.321,-0.707,1.233,7.0
40.249,-0.711,1.019,48.0
40.19,-0.716,0.81,56.0
40.164,-0.72,0.601,8.0
128.336,-2.326,5.5,34.0
188.385,-3.44,7.099,10.0
184.603,-3.394,5.999,46.0
40.262,-0.745,1.096,56.0
40.215,-0.749,0.887,49.0
40.171,-0.754,0.678,49.0
92.928,-1.761,4.162,19.0
188.562,-3.597,7.468,14.0
184.691,-3.545,6.359,50.0
40.286,-0.778,1.175,54.0
40.25,-0.782,0.965,42.0
40.235,-0.787,0.757,52.0
92.929,-1.834,4.341,19.0
184.03,-3.655,7.645,31.0
184.644,-3.688,6.714,34.0
40.336,-0.81,1.254,22.0
40.226,-0.812,1.042,48.0
40.21,-0.817,0.834,50.0
90.657,-1.857,4.409,10.0
183.962,-3.789,7.996,23.0
191.422,-3.964,7.33,33.0
185.604,-3.862,6.127,43.0
40.221,-0.841,1.119,46.0
40.212,-0.845,0.912,56.0
92.065,-1.951,4.657,58.0
98.952,-2.107,4.492,9.0
191.486,-4.098,7.704,26.0
185.464,-3.988,6.485,52.0
40.25,-0.869,1.199,38.0
40.208,-0.872,0.99,58.0
92.154,-2.016,4.841,31.0
90.606,-1.99,4.289,53.0
129.571,-2.858,5.465,10.0
185.576,-4.111,6.848,42.0
40.305,-0.896,1.279,13.0
40.214,-0.898,1.068,56.0
92.155,-2.074,5.022,34.0
90.595,-2.047,4.467,28.0
129.727,-2.943,5.726,31.0
129.499,-2.948,5.032,12.0
40.268,-0.92,1.356,17.0
40.231,-0.922,1.148,50.0
92.175,-2.129,5.202,25.0
98.956,-2.294,5.073,22.0
129.25,-3.007,5.957,28.0
129.522,-3.023,5.287,40.0
40.208,-0.941,1.433,46.0
40.273,-0.946,1.228,55.0
92.232,-2.183,5.387,28.0
99.039,-2.35,5.271,27.0
93.039,-2.215,4.47,29.0
128.931,-3.078,5.514,40.0
40.236,-0.963,1.512,34.0
40.246,-0.966,1.305,59.0
97.98,-2.37,5.915,27.0
83.674,-2.028,4.616,30.0
90.505,-2.199,4.524,43.0
129.033,-3.144,5.77,43.0
40.249,-0.983,1.591,3.0
40.196,-0.984,1.382,53.0
97.828,-2.413,6.096,31.0
83.626,-2.067,4.777,46.0
90.538,-2.242,4.703,27.0
129.225,-3.207,6.03,38.0
128.944,-3.207,5.348,46.0
40.193,-1.001,1.459,51.0
97.72,-2.453,6.28,14.0
92.275,-2.32,5.451,38.0
99.008,-2.494,5.335,28.0
93.08,-2.349,4.525,42.0
128.766,-3.256,5.593,44.0
40.218,-1.018,1.539,18.0
129.323,-3.298,8.563,23.0
92.314,-2.357,5.633,16.0
98.96,-2.53,5.524,30.0
93.072,-2.383,4.704,34.0
129.011,-3.309,5.854,44.0
129.122,-3.317,5.19,47.0
97.726,-2.527,6.661,3.0
92.326,-2.39,5.814,14.0
83.573,-2.166,4.829,56.0
90.491,-2.349,4.75,41.0
177.944,-4.623,8.42,23.0
128.95,-3.354,5.434,29.0
93.457,-2.447,6.553,3.0
92.339,-2.42,5.995,10.0
92.318,-2.421,5.513,29.0
128.754,-3.38,7.008,30.0
93.079,-2.445,4.583,29.0
128.871,-3.388,5.678,34.0
102.334,-2.708,7.373,2.0
129.272,-3.422,8.64,22.0
92.321,-2.446,5.691,52.0
98.918,-2.622,5.574,13.0
93.072,-2.469,4.762,26.0
128.987,-3.422,5.932,40.0
41.235,-1.101,3.05,1.0
129.322,-3.455,8.894,21.0
92.325,-2.467,5.87,66.0
83.517,-2.232,4.867,48.0
90.474,-2.419,4.803,45.0
178.314,-4.769,8.542,28.0
41.227,-1.109,3.129,27.0
93.398,-2.513,6.602,5.0
92.325,-2.484,6.047,38.0
83.477,-2.246,5.024,49.0
128.493,-3.457,7.066,24.0
93.089,-2.504,4.637,14.0
41.381,-1.12,3.22,30.0
86.635,-2.344,6.29,2.0
94.521,-2.557,6.37,7.0
92.335,-2.498,5.732,15.0
90.325,-2.442,5.138,37.0
93.083,-2.516,4.81,17.0
41.249,-1.121,3.287,45.0
41.302,-1.122,3.076,15.0
129.453,-3.517,8.969,21.0
92.325,-2.506,5.907,57.0
83.487,-2.265,4.907,40.0
90.479,-2.453,4.847,42.0
54.682,-1.492,4.462,6.0
41.271,-1.125,3.152,27.0
93.516,-2.547,6.654,3.0
0.0,0.0,0.0,0.0
83.487,-2.27,5.062,27.0
90.389,-2.455,5.011,25.0
54.531,-1.49,4.552,18.0
41.292,-1.127,3.231,26.0
41.294,-1.126,3.015,1.0
90.721,-2.471,6.142,5.0
92.375,-2.513,5.773,18.0
90.332,-2.454,5.175,29.0
53.454,-1.461,4.562,12.0
41.218,-1.125,3.301,50.0
41.289,-1.125,3.091,31.0
93.245,-2.538,6.486,3.0
92.313,-2.509,5.941,58.0
83.498,-2.266,4.938,44.0
53.679,-1.466,4.682,15.0
54.655,-1.49,4.48,12.0
41.318,-1.124,3.17,18.0
97.288,-2.643,6.947,3.0
92.347,-2.505,6.112,14.0
83.486,-2.26,5.09,14.0
40.905,-1.114,3.643,31.0
53.583,-1.456,4.49,6.0
41.363,-1.122,3.249,40.0
84.698,-2.293,6.203,2.0
94.374,-2.55,6.418,2.0
92.334,-2.49,5.797,45.0
40.984,-1.111,3.724,32.0
53.549,-1.449,4.584,11.0
41.213,-1.113,3.312,42.0
41.237,-1.111,3.093,11.0
93.404,-2.512,6.518,3.0
92.31,-2.477,5.959,51.0
41.029,-1.107,3.802,47.0
53.674,-1.445,4.691,17.0
54.61,-1.466,4.485,15.0
41.163,-1.102,3.161,44.0
97.321,-2.6,6.965,4.0
129.224,-3.444,8.571,22.0
40.951,-1.098,3.868,62.0
40.807,-1.09,3.639,41.0
53.539,-1.427,4.493,10.0
41.245,-1.096,3.24,28.0
82.82,-2.196,6.072,1.0
97.648,-2.581,6.648,3.0
40.376,-1.073,3.885,62.0
40.847,-1.082,3.715,48.0
53.87,-1.423,4.615,6.0
41.203,-1.085,3.309,53.0
41.247,-1.083,3.096,25.0
85.853,-2.248,5.994,3.0
39.824,-1.048,3.901,74.0
41.061,-1.077,3.805,57.0
53.862,-1.409,4.707,9.0
41.202,-1.073,3.38,24.0
41.223,-1.07,3.165,47.0
97.317,-2.52,6.96,21.0
39.909,-1.039,3.978,62.0
40.96,-1.062,3.866,61.0
40.801,-1.054,3.636,52.0
53.609,-1.381,4.489,7.0
41.271,-1.059,3.238,46.0
84.673,-2.165,6.198,1.0
39.673,-1.02,4.021,64.0
40.238,-1.03,3.866,61.0
40.951,-1.044,3.718,38.0
53.832,-1.368,4.597,13.0
41.219,-1.043,3.303,61.0
41.24,-1.039,3.087,29.0
39.562,-1.003,4.077,72.0
40.149,-1.013,3.924,59.0
49.059,-1.233,4.535,5.0
64.238,-1.608,5.592,10.0
41.272,-1.028,3.375,29.0
41.234,-1.023,3.154,61.0
39.274,-0.98,4.112,64.0
39.779,-0.988,3.953,59.0
49.084,-1.214,4.617,7.0
40.813,-1.004,3.619,58.0
41.317,-1.012,3.445,2.0
41.178,-1.004,3.216,49.0
39.005,-0.956,4.147,71.0
39.566,-0.965,3.996,45.0
39.954,-0.97,3.823,59.0
40.85,-0.986,3.688,47.0
53.96,-1.297,4.586,12.0
41.144,-0.984,3.279,52.0
39.183,-0.942,4.229,55.0
39.349,-0.941,4.037,70.0
40.04,-0.953,3.894,56.0
49.064,-1.162,4.506,6.0
64.268,-1.514,5.561,13.0
41.173,-0.965,3.344,21.0
39.295,-0.925,4.302,65.0
39.153,-0.917,4.077,73.0
39.849,-0.928,3.937,62.0
40.158,-0.93,3.75,43.0
54.241,-1.25,4.777,34.0
41.356,-0.947,3.422,9.0
39.168,-0.901,4.348,56.0
39.202,-0.897,4.142,64.0
39.509,-0.898,3.964,56.0
40.356,-0.912,3.83,24.0
49.1,-1.103,4.398,6.0
54.193,-1.211,4.567,54.0
39.393,-0.884,4.433,58.0
39.073,-0.872,4.188,62.0
39.624,-0.878,4.035,47.0
39.19,-0.863,3.778,67.0
49.065,-1.074,4.468,52.0
54.244,-1.18,4.651,13.0
39.267,-0.858,4.477,61.0
38.997,-0.846,4.237,66.0
39.597,-0.854,4.09,48.0
39.257,-0.841,3.841,53.0
39.812,-0.847,3.682,54.0
40.662,-0.859,3.544,37.0
39.389,-0.836,4.548,50.0
38.979,-0.822,4.291,63.0
39.413,-0.825,4.127,62.0
39.334,-0.817,3.904,51.0
39.763,-0.821,3.734,54.0
40.575,-0.831,3.593,52.0
39.226,-0.807,4.584,68.0
39.085,-0.798,4.357,62.0
39.288,-0.796,4.169,50.0
39.594,-0.796,3.984,43.0
39.347,-0.786,3.749,68.0
39.754,-0.787,3.575,59.0
39.328,-0.782,4.65,64.0
39.29,-0.776,4.434,62.0
39.038,-0.764,4.195,69.0
39.472,-0.766,4.025,68.0
39.456,-0.76,3.812,45.0
39.738,-0.759,3.627,62.0
39.287,-0.753,4.698,56.0
39.307,-0.747,4.489,69.0
39.119,-0.738,4.256,56.0
39.219,-0.733,4.051,61.0
39.386,-0.73,3.857,59.0
39.982,-0.735,3.701,44.0
39.262,-0.724,4.747,57.0
39.323,-0.719,4.541,51.0
39.052,-0.707,4.298,54.0
39.193,-0.703,4.098,73.0
39.607,-0.705,3.928,50.0
48.186,-0.849,4.52,6.0
39.353,-0.696,4.808,57.0
39.621,-0.694,4.625,52.0
39.129,-0.679,4.356,43.0
39.319,-0.675,4.16,49.0
39.434,-0.671,3.96,54.0
48.182,-0.811,4.579,5.0
39.412,-0.666,4.863,49.0
39.563,-0.662,4.667,54.0
39.579,-0.655,4.454,55.0
