X,Y,Z,Reflectivity
13.768,1.366,0.811,38.0
13.772,1.37,1.193,96.0
13.767,1.37,1.113,91.0
13.759,1.368,1.033,34.0
13.759,1.368,0.952,60.0
13.765,1.369,0.873,38.0
13.774,1.37,0.795,39.0
13.773,1.373,1.176,65.0
13.764,1.371,1.096,109.0
13.733,1.368,1.014,26.0
13.756,1.37,0.935,42.0
13.766,1.371,0.856,38.0
13.773,1.371,0.777,39.0
13.77,1.374,1.159,53.0
13.767,1.373,1.079,127.0
13.725,1.369,0.996,24.0
13.756,1.371,0.918,38.0
13.772,1.373,0.839,64.0
13.776,1.373,0.76,38.0
13.764,1.374,1.14,63.0
13.765,1.374,1.061,125.0
13.745,1.372,0.98,35.0
13.76,1.372,0.9,63.0
13.78,1.374,0.822,93.0
13.775,1.373,0.743,38.0
13.765,1.375,1.123,62.0
13.76,1.374,1.043,43.0
13.754,1.373,0.963,88.0
13.757,1.372,0.883,52.0
13.78,1.374,0.805,93.0
13.776,1.373,0.725,39.0
13.766,1.375,1.105,43.0
13.74,1.372,1.024,27.0
13.76,1.373,0.946,121.0
13.759,1.372,0.865,39.0
13.776,1.373,0.787,100.0
13.777,1.373,0.707,39.0
13.759,1.374,1.087,52.0
13.729,1.37,1.005,24.0
13.76,1.372,0.928,87.0
13.769,1.372,0.847,52.0
13.782,1.373,0.769,98.0
13.776,1.372,0.689,38.0
13.766,1.373,1.069,46.0
13.742,1.37,0.988,31.0
13.762,1.371,0.91,108.0
13.772,1.371,0.83,76.0
13.78,1.371,0.751,86.0
13.769,1.369,0.671,37.0
13.77,1.371,1.051,40.0
13.768,1.37,0.971,107.0
13.766,1.369,0.892,95.0
13.778,1.369,0.811,80.0
13.785,1.369,0.732,95.0
13.77,1.367,0.653,37.0
13.767,1.368,1.032,33.0
13.762,1.367,0.952,135.0
13.767,1.366,0.873,67.0
13.772,1.366,0.793,87.0
13.783,1.366,0.714,86.0
13.774,1.365,0.634,36.0
13.753,1.364,1.012,32.0
13.773,1.365,0.934,114.0
13.767,1.363,0.854,90.0
13.775,1.363,0.774,69.0
13.777,1.362,0.695,70.0
13.771,1.361,0.616,33.0
13.761,1.361,0.994,33.0
13.774,1.361,0.916,64.0
13.778,1.36,0.836,103.0
13.777,1.359,0.756,67.0
13.778,1.358,0.676,62.0
13.776,1.357,0.597,34.0
13.765,1.357,0.976,39.0
13.777,1.356,0.897,59.0
13.788,1.357,0.818,127.0
13.781,1.355,0.737,55.0
13.782,1.354,0.658,43.0
13.78,1.353,0.579,34.0
13.777,1.353,0.958,40.0
13.786,1.352,0.879,47.0
13.788,1.351,0.799,126.0
13.779,1.349,0.718,47.0
13.782,1.348,0.639,37.0
13.791,1.348,0.56,34.0
13.78,1.347,0.939,40.0
13.792,1.347,0.86,66.0
13.789,1.346,0.781,103.0
13.783,1.344,0.699,39.0
13.793,1.343,0.621,36.0
13.798,1.343,0.542,35.0
13.792,1.342,0.921,40.0
13.801,1.342,0.842,88.0
13.788,1.339,0.762,88.0
13.777,1.337,0.68,38.0
13.794,1.337,0.602,34.0
13.803,1.337,0.523,34.0
13.789,1.335,0.902,38.0
13.799,1.334,0.823,63.0
13.798,1.333,0.743,43.0
13.79,1.331,0.662,36.0
13.799,1.33,0.583,34.0
13.803,1.329,0.504,33.0
13.805,1.329,0.884,35.0
13.807,1.328,0.804,40.0
13.795,1.325,0.724,36.0
13.807,1.325,0.644,35.0
13.812,1.324,0.565,35.0
13.814,1.322,0.485,32.0
13.81,1.321,0.865,37.0
13.809,1.319,0.785,33.0
13.806,1.317,0.705,35.0
13.817,1.317,0.625,34.0
13.815,1.315,0.546,31.0
13.828,1.315,0.467,32.0
13.816,1.313,0.846,34.0
13.815,1.311,0.766,24.0
13.798,1.308,0.686,29.0
13.819,1.308,0.606,34.0
13.83,1.308,0.527,30.0
13.836,1.307,0.448,31.0
13.825,1.305,0.827,27.0
13.819,1.302,0.747,14.0
13.815,1.3,0.668,18.0
13.814,1.298,0.587,23.0
13.841,1.299,0.509,27.0
13.842,1.298,0.429,28.0
13.82,1.294,0.808,8.0
13.825,1.293,0.729,6.0
13.823,1.291,0.649,9.0
13.845,1.291,0.569,10.0
13.838,1.289,0.49,17.0
13.846,1.288,0.411,22.0
13.862,1.287,0.792,1.0
13.848,1.284,0.711,0.0
13.837,1.281,0.631,8.0
13.862,1.282,0.551,4.0
13.836,1.277,0.471,7.0
13.854,1.277,0.392,12.0
114.685,10.561,6.396,30.0
103.189,9.488,5.162,18.0
13.854,1.271,0.613,6.0
114.762,10.52,4.411,37.0
13.874,1.269,0.453,1.0
13.872,1.267,0.374,4.0
114.743,10.468,6.244,46.0
103.183,9.398,5.021,17.0
114.826,10.442,4.929,14.0
115.091,10.449,4.268,16.0
115.34,10.457,3.616,15.0
115.577,10.462,2.963,11.0
115.171,10.406,6.112,11.0
103.195,9.307,4.884,18.0
115.675,10.415,4.81,12.0
120.449,10.826,4.305,14.0
120.563,10.818,3.618,24.0
120.665,10.812,2.931,32.0
117.314,10.488,6.067,15.0
109.441,9.766,5.032,6.0
120.6,10.744,4.852,38.0
120.608,10.725,4.149,54.0
120.632,10.709,3.458,52.0
120.64,10.692,2.769,48.0
103.311,9.135,5.204,1.0
109.416,9.656,4.884,6.0
120.63,10.626,4.693,49.0
120.624,10.606,3.989,51.0
28.79,2.527,0.787,8.0
120.523,10.56,2.606,13.0
103.209,9.02,5.063,19.0
115.15,10.044,4.987,9.0
120.627,10.501,4.533,52.0
28.784,2.501,0.914,4.0
28.798,2.497,0.749,16.0
34.288,2.968,0.696,6.0
103.173,8.906,4.924,15.0
118.149,10.178,4.961,8.0
34.285,2.947,1.243,6.0
28.689,2.461,0.873,15.0
34.281,2.935,0.847,55.0
34.26,2.928,0.651,12.0
34.28,2.921,1.591,4.0
34.28,2.915,1.395,84.0
34.272,2.908,1.198,47.0
28.635,2.424,0.834,37.0
34.329,2.901,0.804,2.0
28.688,2.419,0.508,32.0
109.379,9.196,4.938,6.0
122.475,10.275,4.828,10.0
28.652,2.398,0.965,6.0
28.597,2.389,0.797,169.0
28.644,2.387,0.635,44.0
28.639,2.382,0.471,30.0
74.524,6.177,3.27,28.0
74.523,6.162,2.843,25.0
28.632,2.362,0.928,23.0
28.66,2.359,0.763,157.0
28.603,2.349,0.598,29.0
28.614,2.345,0.434,32.0
74.53,6.086,3.175,30.0
74.507,6.07,2.748,30.0
28.59,2.323,0.891,26.0
28.568,2.316,0.724,39.0
28.601,2.313,0.562,48.0
28.622,2.31,0.399,40.0
74.58,5.997,3.085,19.0
28.586,2.292,1.019,61.0
28.623,2.29,0.857,154.0
28.59,2.282,0.69,51.0
28.601,2.277,0.527,51.0
28.607,2.272,0.364,45.0
128.275,10.148,5.151,11.0
28.537,2.251,0.983,164.0
28.548,2.246,0.82,172.0
28.581,2.243,0.655,57.0
28.587,2.238,0.493,56.0
28.596,2.233,0.33,55.0
28.554,2.221,1.112,34.0
28.564,2.215,0.949,41.0
28.551,2.208,0.786,172.0
28.586,2.205,0.621,57.0
28.591,2.2,0.459,58.0
28.602,2.195,0.296,53.0
28.536,2.18,1.078,185.0
28.555,2.175,0.915,33.0
28.635,2.175,0.755,155.0
28.596,2.167,0.588,58.0
28.596,2.161,0.425,60.0
28.616,2.156,0.263,49.0
28.567,2.142,1.045,160.0
28.55,2.135,0.882,35.0
28.593,2.132,0.721,60.0
28.599,2.126,0.555,62.0
28.598,2.12,0.393,54.0
28.667,2.119,0.231,36.0
28.6,2.103,1.014,150.0
28.582,2.096,0.851,73.0
28.606,2.091,0.689,59.0
28.605,2.085,0.523,55.0
28.63,2.081,0.361,37.0
28.729,2.082,0.199,32.0
28.594,2.061,0.982,30.0
28.574,2.053,0.819,163.0
28.608,2.049,0.657,51.0
28.606,2.042,0.491,36.0
28.673,2.04,0.33,24.0
28.827,2.045,0.168,3.0
28.634,2.02,0.952,128.0
28.583,2.01,0.788,174.0
28.617,2.006,0.626,36.0
28.669,2.003,0.461,35.0
28.778,2.004,0.3,16.0
54.58,3.789,0.259,29.0
28.582,1.972,0.919,164.0
28.607,1.967,0.757,168.0
28.754,1.97,0.598,25.0
113.806,7.772,1.711,9.0
74.234,5.053,0.695,23.0
54.246,3.68,0.2,24.0
28.684,1.934,0.892,13.0
28.736,1.93,0.73,27.0
139.628,9.347,2.759,22.0
113.724,7.586,1.591,5.0
73.944,4.914,0.615,33.0
46.481,3.078,0.123,20.0
28.769,1.893,0.865,6.0
114.668,7.518,2.799,26.0
139.614,9.12,2.616,66.0
120.827,7.863,1.567,11.0
73.557,4.768,0.537,15.0
42.849,2.767,0.07,7.0
158.17,10.15,4.598,34.0
158.138,10.107,3.701,12.0
139.611,8.886,2.476,84.0
33.42,2.119,0.4,2.0
33.437,2.112,0.211,2.0
42.123,2.65,0.027,16.0
33.47,2.092,0.94,150.0
33.457,2.082,0.75,157.0
33.465,2.074,0.561,153.0
33.432,2.063,0.368,25.0
33.457,2.056,0.179,3.0
41.537,2.543,-0.012,37.0
157.096,9.549,4.264,8.0
0.0,0.0,0.0,0.0
147.8,8.908,2.341,5.0
75.674,4.541,0.763,12.0
54.714,3.269,0.242,28.0
40.898,2.433,-0.049,49.0
157.489,9.302,4.131,5.0
162.313,9.542,3.339,24.0
0.0,0.0,0.0,0.0
75.188,4.381,0.69,31.0
54.222,3.144,0.191,16.0
40.312,2.327,-0.085,34.0
0.0,0.0,0.0,0.0
163.495,9.324,3.219,6.0
96.625,5.485,1.357,3.0
74.143,4.189,0.615,24.0
0.0,0.0,0.0,0.0
36.957,2.068,-0.109,12.0
163.179,9.061,3.993,21.0
105.875,5.849,1.993,17.0
94.386,5.189,1.244,3.0
73.537,4.023,0.548,20.0
46.421,2.527,0.084,20.0
40.128,2.173,-0.153,2.0
162.47,8.729,3.841,15.0
105.751,5.651,1.904,98.0
81.814,4.35,1.012,6.0
73.516,3.888,0.487,11.0
43.071,2.266,0.043,17.0
36.374,1.904,-0.168,34.0
167.415,8.689,3.824,5.0
105.765,5.458,1.82,55.0
78.677,4.038,0.91,10.0
58.573,2.989,0.342,5.0
42.061,2.135,0.009,17.0
35.984,1.817,-0.194,35.0
0.0,0.0,0.0,0.0
0.0,0.0,0.0,0.0
78.244,3.869,0.846,21.0
54.981,2.703,0.279,26.0
41.435,2.025,-0.021,16.0
35.885,1.744,-0.22,26.0
0.0,0.0,0.0,0.0
105.772,5.062,1.661,3.0
77.846,3.702,0.784,44.0
54.5,2.576,0.237,28.0
40.96,1.924,-0.051,34.0
35.807,1.671,-0.246,12.0
0.0,0.0,0.0,0.0
101.335,4.655,1.518,3.0
77.306,3.528,0.724,36.0
54.261,2.46,0.199,28.0
40.539,1.826,-0.078,46.0
35.757,1.6,-0.27,7.0
0.0,0.0,0.0,0.0
101.261,4.455,1.449,2.0
0.0,0.0,0.0,0.0
54.195,2.352,0.162,11.0
40.16,1.73,-0.104,54.0
35.79,1.532,-0.293,6.0
0.0,0.0,0.0,0.0
95.996,4.036,1.312,3.0
74.16,3.096,0.598,10.0
48.899,2.027,0.116,23.0
39.931,1.643,-0.128,47.0
35.727,1.459,-0.315,4.0
0.0,0.0,0.0,0.0
93.324,3.74,1.219,5.0
73.982,2.943,0.552,11.0
48.356,1.909,0.086,24.0
39.562,1.55,-0.15,44.0
35.818,1.392,-0.337,0.0
0.0,0.0,0.0,0.0
93.459,3.561,1.168,10.0
73.932,2.793,0.51,11.0
47.805,1.791,0.057,24.0
39.384,1.463,-0.172,22.0
32.978,1.215,-0.328,1.0
0.0,0.0,0.0,0.0
93.659,3.38,1.119,7.0
60.033,2.147,0.382,19.0
47.324,1.678,0.032,24.0
36.674,1.289,-0.179,30.0
32.346,1.127,-0.338,1.0
0.0,0.0,0.0,0.0
79.388,2.704,0.909,7.0
59.601,2.011,0.35,33.0
46.777,1.563,0.009,23.0
36.659,1.213,-0.197,30.0
31.629,1.037,-0.346,1.0
0.0,0.0,0.0,0.0
78.899,2.525,0.866,13.0
59.247,1.878,0.32,33.0
46.808,1.468,-0.012,21.0
36.712,1.14,-0.214,27.0
31.338,0.963,-0.357,1.0
0.0,0.0,0.0,0.0
78.327,2.347,0.826,16.0
59.123,1.751,0.294,32.0
44.959,1.318,-0.031,5.0
36.69,1.063,-0.229,22.0
31.062,0.891,-0.367,1.0
0.0,0.0,0.0,0.0
78.163,2.181,0.793,31.0
58.888,1.624,0.269,24.0
0.0,0.0,0.0,0.0
36.75,0.989,-0.243,12.0
30.861,0.82,-0.376,2.0
106.091,2.775,1.627,6.0
78.083,2.017,0.764,35.0
58.814,1.499,0.248,28.0
42.74,1.075,-0.061,5.0
36.712,0.911,-0.256,12.0
30.65,0.751,-0.384,1.0
106.164,2.557,1.593,6.0
77.957,1.852,0.737,42.0
58.112,1.361,0.227,11.0
39.838,0.919,-0.069,15.0
36.725,0.835,-0.267,9.0
30.48,0.683,-0.391,2.0
89.856,1.976,1.322,12.0
77.91,1.686,0.714,38.0
54.623,1.164,0.197,9.0
39.707,0.833,-0.08,21.0
36.8,0.759,-0.278,8.0
30.275,0.614,-0.396,2.0
0.0,0.0,0.0,0.0
77.864,1.521,0.694,27.0
54.242,1.041,0.183,13.0
39.669,0.748,-0.089,25.0
36.823,0.682,-0.287,9.0
30.042,0.546,-0.4,2.0
126.281,2.242,1.796,29.0
77.664,1.352,0.675,43.0
0.0,0.0,0.0,0.0
39.587,0.662,-0.097,27.0
36.991,0.606,-0.295,4.0
30.051,0.482,-0.406,2.0
126.331,1.975,1.774,27.0
0.0,0.0,0.0,0.0
48.052,0.717,0.143,53.0
39.38,0.575,-0.103,28.0
37.081,0.528,-0.302,4.0
29.862,0.415,-0.408,2.0
126.355,1.707,1.755,23.0
48.133,0.633,0.402,42.0
48.011,0.615,0.136,64.0
39.392,0.491,-0.109,34.0
37.228,0.451,-0.308,2.0
29.739,0.35,-0.41,2.0
48.114,0.547,0.663,106.0
48.074,0.53,0.397,99.0
48.006,0.513,0.132,75.0
39.385,0.406,-0.112,36.0
37.317,0.372,-0.312,2.0
29.733,0.286,-0.412,2.0
48.084,0.445,0.659,112.0
48.053,0.427,0.393,108.0
48.009,0.41,0.129,75.0
39.532,0.324,-0.115,36.0
37.614,0.295,-0.316,1.0
29.684,0.222,-0.413,3.0
48.118,0.342,0.657,63.0
48.174,0.325,0.393,59.0
48.143,0.309,0.128,41.0
39.644,0.24,-0.116,31.0
37.721,0.215,-0.318,1.0
29.753,0.159,-0.414,2.0
59.311,0.295,0.81,121.0
59.343,0.274,0.484,84.0
54.445,0.233,0.145,29.0
39.958,0.156,-0.116,22.0
37.945,0.134,-0.319,1.0
29.732,0.094,-0.413,2.0
79.472,0.224,1.089,151.0
79.468,0.197,0.652,15.0
54.614,0.115,0.148,28.0
40.466,0.07,-0.115,16.0
38.09,0.052,-0.318,1.0
29.739,0.031,-0.411,2.0
79.454,0.053,1.094,151.0
79.31,0.026,0.657,37.0
0.0,0.0,0.0,0.0
40.938,-0.015,-0.113,17.0
37.626,-0.027,-0.31,1.0
29.817,-0.032,-0.409,2.0
79.46,-0.116,1.103,151.0
79.377,-0.144,0.667,114.0
55.869,-0.121,0.163,29.0
41.566,-0.105,-0.109,19.0
37.148,-0.108,-0.301,1.0
29.899,-0.097,-0.406,2.0
79.454,-0.285,1.115,151.0
79.403,-0.313,0.68,150.0
56.053,-0.242,0.173,18.0
42.02,-0.196,-0.103,3.0
37.291,-0.188,-0.296,1.0
30.059,-0.162,-0.402,2.0
79.462,-0.456,1.13,160.0
79.436,-0.485,0.695,150.0
60.908,-0.394,0.2,9.0
46.04,-0.314,-0.104,7.0
40.404,-0.29,-0.312,2.0
30.159,-0.227,-0.397,1.0
79.452,-0.625,1.147,179.0
79.434,-0.655,0.714,150.0
60.749,-0.522,0.214,7.0
50.695,-0.454,-0.102,12.0
38.452,-0.358,-0.287,5.0
30.346,-0.293,-0.392,2.0
79.437,-0.794,1.168,179.0
79.463,-0.823,0.735,155.0
60.91,-0.653,0.231,4.0
54.262,-0.601,-0.094,4.0
37.602,-0.43,-0.27,0.0
30.54,-0.361,-0.386,1.0
79.436,-0.962,1.192,151.0
80.172,-1.001,0.766,42.0
69.816,-0.896,0.287,1.0
51.546,-0.681,-0.073,2.0
42.727,-0.58,-0.293,1.0
30.756,-0.428,-0.378,1.0
183.44,-2.609,2.814,39.0
123.642,-1.803,1.224,8.0
0.0,0.0,0.0,0.0
0.0,0.0,0.0,0.0
40.151,-0.629,-0.261,7.0
31.309,-0.502,-0.373,1.0
205.366,-3.354,3.226,65.0
40.283,-0.672,0.414,14.0
40.263,-0.686,0.195,49.0
40.291,-0.701,-0.027,68.0
40.217,-0.715,-0.245,11.0
31.652,-0.574,-0.365,1.0
40.223,-0.741,0.648,36.0
40.228,-0.756,0.43,53.0
40.274,-0.772,0.212,50.0
56.562,-1.105,-0.014,1.0
40.21,-0.799,-0.228,3.0
32.417,-0.656,-0.359,1.0
40.251,-0.826,0.666,58.0
40.282,-0.842,0.449,25.0
0.0,0.0,0.0,0.0
56.465,-1.221,0.012,0.0
40.259,-0.885,-0.209,1.0
32.956,-0.736,-0.349,1.0
40.29,-0.911,0.687,53.0
40.308,-0.925,0.469,118.0
40.302,-0.94,0.25,148.0
40.28,-0.954,0.028,32.0
40.336,-0.969,-0.189,2.0
33.338,-0.813,-0.337,1.0
40.213,-0.991,0.706,70.0
40.208,-1.006,0.488,63.0
40.191,-1.02,0.271,54.0
40.571,-1.044,0.05,15.0
40.99,-1.069,-0.17,160.0
34.168,-0.904,-0.326,0.0
40.253,-1.075,0.729,42.0
40.234,-1.089,0.511,39.0
40.185,-1.102,0.293,56.0
40.182,-1.116,0.072,62.0
40.211,-1.131,-0.144,58.0
0.0,0.0,0.0,0.0
0.0,0.0,0.0,0.0
154.13,-4.485,2.051,4.0
0.0,0.0,0.0,0.0
0.0,0.0,0.0,0.0
0.0,0.0,0.0,0.0
36.668,-1.119,-0.306,0.0
40.34,-1.24,0.779,25.0
40.343,-1.254,0.562,43.0
0.0,0.0,0.0,0.0
0.0,0.0,0.0,0.0
0.0,0.0,0.0,0.0
39.143,-1.272,-0.302,1.0
0.0,0.0,0.0,0.0
0.0,0.0,0.0,0.0
0.0,0.0,0.0,0.0
0.0,0.0,0.0,0.0
56.503,-1.93,-0.093,0.0
40.302,-1.39,-0.283,0.0
0.0,0.0,0.0,0.0
0.0,0.0,0.0,0.0
0.0,0.0,0.0,0.0
0.0,0.0,0.0,0.0
55.76,-2.013,-0.052,0.0
40.104,-1.462,-0.253,29.0
0.0,0.0,0.0,0.0
0.0,0.0,0.0,0.0
0.0,0.0,0.0,0.0
0.0,0.0,0.0,0.0
40.147,-1.528,-0.008,28.0
37.792,-1.451,-0.21,137.0
0.0,0.0,0.0,0.0
0.0,0.0,0.0,0.0
0.0,0.0,0.0,0.0
0.0,0.0,0.0,0.0
0.0,0.0,0.0,0.0
37.803,-1.524,-0.18,150.0
0.0,0.0,0.0,0.0
0.0,0.0,0.0,0.0
0.0,0.0,0.0,0.0
0.0,0.0,0.0,0.0
0.0,0.0,0.0,0.0
50.443,-2.13,-0.2,0.0
0.0,0.0,0.0,0.0
0.0,0.0,0.0,0.0
0.0,0.0,0.0,0.0
0.0,0.0,0.0,0.0
0.0,0.0,0.0,0.0
50.455,-2.225,-0.157,2.0
0.0,0.0,0.0,0.0
0.0,0.0,0.0,0.0
0.0,0.0,0.0,0.0
0.0,0.0,0.0,0.0
0.0,0.0,0.0,0.0
50.476,-2.319,-0.113,2.0
0.0,0.0,0.0,0.0
0.0,0.0,0.0,0.0
0.0,0.0,0.0,0.0
0.0,0.0,0.0,0.0
0.0,0.0,0.0,0.0
50.522,-2.414,-0.068,3.0
0.0,0.0,0.0,0.0
0.0,0.0,0.0,0.0
149.591,-7.272,2.348,54.0
0.0,0.0,0.0,0.0
0.0,0.0,0.0,0.0
59.882,-2.969,-0.024,2.0
0.0,0.0,0.0,0.0
149.512,-7.534,2.488,41.0
0.0,0.0,0.0,0.0
0.0,0.0,0.0,0.0
59.617,-3.061,0.032,4.0
0.0,0.0,0.0,0.0
0.0,0.0,0.0,0.0
0.0,0.0,0.0,0.0
61.461,-3.263,0.094,7.0
0.0,0.0,0.0,0.0
233.919,-12.604,4.355,41.0
0.0,0.0,0.0,0.0
0.0,0.0,0.0,0.0
63.292,-3.469,0.161,3.0
0.0,0.0,0.0,0.0
0.0,0.0,0.0,0.0
0.0,0.0,0.0,0.0
0.0,0.0,0.0,0.0
0.0,0.0,0.0,0.0
0.0,0.0,0.0,0.0
278.776,-15.792,8.737,33.0
271.563,-15.465,7.067,11.0
0.0,0.0,0.0,0.0
0.0,0.0,0.0,0.0
0.0,0.0,0.0,0.0
271.739,-15.846,8.809,16.0
271.717,-15.92,7.363,151.0
279.123,-16.437,6.081,40.0
0.0,0.0,0.0,0.0
0.0,0.0,0.0,0.0
0.0,0.0,0.0,0.0
212.313,-12.724,7.116,22.0
263.558,-15.867,7.432,113.0
0.0,0.0,0.0,0.0
187.35,-11.387,3.274,32.0
0.0,0.0,0.0,0.0
0.0,0.0,0.0,0.0
236.862,-14.57,8.204,12.0
244.364,-15.097,7.166,20.0
0.0,0.0,0.0,0.0
187.47,-11.688,3.488,6.0
0.0,0.0,0.0,0.0
0.0,0.0,0.0,0.0
208.215,-13.131,7.45,14.0
208.943,-13.234,6.366,29.0
248.37,-15.798,6.252,255.0
0.0,0.0,0.0,0.0
187.177,-12.012,2.71,39.0
0.0,0.0,0.0,0.0
208.627,-13.475,7.709,27.0
209.135,-13.563,6.617,27.0
248.334,-16.173,6.542,150.0
244.495,-15.988,5.122,24.0
187.217,-12.293,2.93,151.0
0.0,0.0,0.0,0.0
204.257,-13.496,7.79,24.0
208.614,-13.839,6.851,35.0
228.502,-15.218,6.292,21.0
228.616,-15.285,5.064,41.0
187.158,-12.564,3.155,48.0
0.0,0.0,0.0,0.0
203.516,-13.746,8.01,20.0
205.005,-13.899,6.983,32.0
208.711,-14.201,6.003,27.0
212.874,-14.541,4.976,30.0
0.0,0.0,0.0,0.0
0.0,0.0,0.0,0.0
195.327,-13.471,7.93,19.0
203.863,-14.109,7.195,24.0
204.529,-14.205,6.138,22.0
212.861,-14.837,5.239,28.0
212.964,-14.899,4.117,28.0
0.0,0.0,0.0,0.0
194.979,-13.716,8.159,18.0
195.346,-13.788,7.139,23.0
204.831,-14.508,6.403,33.0
204.84,-14.557,5.301,73.0
204.956,-14.616,4.22,44.0
0.0,0.0,0.0,0.0
205.853,-14.757,8.876,19.0
164.481,-11.829,6.22,23.0
204.932,-14.786,6.665,23.0
220.411,-15.954,5.984,14.0
284.777,-20.681,6.225,18.0
0.0,0.0,0.0,0.0
155.538,-11.355,6.906,25.0
197.503,-14.461,7.724,32.0
197.05,-14.472,6.663,34.0
208.037,-15.328,5.916,24.0
292.152,-21.59,6.765,15.0
148.796,-11.031,2.661,2.0
197.531,-14.672,9.028,12.0
163.908,-12.208,6.624,9.0
197.263,-14.735,6.928,58.0
196.703,-14.738,5.851,38.0
196.947,-14.798,4.818,74.0
197.011,-14.848,3.782,11.0
158.089,-11.934,7.433,25.0
165.518,-12.531,6.908,31.0
164.145,-12.462,5.984,47.0
196.744,-14.979,6.113,30.0
213.241,-16.278,5.5,27.0
285.034,-21.822,5.85,13.0
149.305,-11.449,7.219,7.0
157.813,-12.134,6.795,13.0
165.567,-12.764,6.255,41.0
212.645,-16.438,6.891,17.0
212.716,-16.485,5.771,23.0
257.477,-20.01,5.63,27.0
150.456,-11.714,7.478,5.0
162.84,-12.71,7.234,14.0
156.861,-12.272,6.14,25.0
164.297,-12.887,5.548,23.0
206.353,-16.228,5.881,13.0
214.85,-16.939,4.99,15.0
149.656,-11.818,7.642,12.0
149.607,-11.842,6.848,12.0
163.227,-12.949,6.611,20.0
156.879,-12.476,5.512,18.0
164.751,-13.133,4.919,22.0
206.389,-16.493,5.074,21.0
0.0,0.0,0.0,0.0
158.804,-12.74,7.489,10.0
163.685,-13.161,6.856,22.0
157.859,-12.722,5.764,38.0
164.736,-13.304,5.147,16.0
203.812,-16.499,5.295,5.0
150.918,-12.238,8.126,24.0
150.598,-12.238,7.312,15.0
149.914,-12.206,6.488,38.0
163.902,-13.374,6.212,31.0
157.288,-12.861,5.131,58.0
193.577,-15.862,5.3,24.0
106.398,-8.734,5.877,6.0
159.103,-13.085,7.947,6.0
158.665,-13.075,7.088,9.0
150.041,-12.388,5.897,27.0
164.182,-13.583,5.589,23.0
165.08,-13.686,4.749,50.0
108.483,-9.008,6.145,7.0
148.413,-12.347,7.624,5.0
0.0,0.0,0.0,0.0
149.88,-12.515,6.102,41.0
165.869,-13.875,5.879,14.0
157.502,-13.201,4.754,46.0
108.311,-9.094,6.289,2.0
148.565,-12.495,7.841,8.0
0.0,0.0,0.0,0.0
158.289,-13.357,6.668,43.0
149.992,-12.68,5.529,31.0
157.422,-13.33,4.973,50.0
122.678,-10.406,7.298,8.0
158.58,-13.473,8.596,12.0
158.695,-13.505,7.765,10.0
158.48,-13.506,6.902,16.0
165.996,-14.171,6.356,19.0
157.072,-13.431,5.186,52.0
115.675,-9.908,7.046,9.0
108.541,-9.31,6.038,9.0
148.672,-12.771,7.486,16.0
205.436,-17.675,9.241,16.0
165.957,-14.298,6.592,37.0
156.941,-13.542,5.406,40.0
115.041,-9.945,7.174,6.0
122.439,-10.598,6.988,10.0
105.432,-9.137,5.46,4.0
106.212,-9.218,4.93,1.0
166.056,-14.432,6.832,52.0
149.744,-13.032,5.373,19.0
108.125,-9.426,6.897,7.0
114.199,-9.968,6.681,3.0
108.517,-9.484,5.776,5.0
148.5,-12.994,7.105,30.0
205.49,-18.004,8.748,9.0
157.202,-13.791,5.864,30.0
108.482,-9.533,7.076,7.0
99.352,-8.74,5.954,3.0
108.46,-9.552,5.927,8.0
148.43,-13.086,7.315,22.0
148.527,-13.111,6.537,57.0
204.37,-18.062,7.916,22.0
87.151,-7.716,5.81,6.0
99.661,-8.831,6.118,8.0
122.54,-10.87,6.873,14.0
105.922,-9.404,5.371,9.0
150.447,-13.372,6.835,16.0
204.603,-18.206,8.215,22.0
106.051,-9.453,7.222,17.0
106.074,-9.463,6.663,14.0
122.268,-10.918,7.034,13.0
106.423,-9.512,5.549,7.0
146.89,-13.14,6.885,4.0
148.506,-13.297,6.176,40.0
98.091,-8.799,6.822,9.0
99.241,-8.908,6.376,8.0
115.246,-10.353,6.794,5.0
122.455,-11.01,6.56,9.0
147.042,-13.231,7.102,9.0
148.529,-13.376,6.389,14.0
97.955,-8.838,6.953,14.0
100.226,-9.049,6.583,4.0
105.728,-9.551,6.384,4.0
122.401,-11.065,6.732,30.0
155.54,-14.072,7.732,10.0
158.827,-14.379,7.057,7.0
84.029,-7.622,6.084,8.0
98.648,-8.951,6.619,8.0
106.087,-9.632,6.557,10.0
124.212,-11.285,7.007,13.0
106.424,-9.674,5.441,9.0
150.457,-13.686,6.898,10.0
87.052,-7.933,6.428,3.0
86.32,-7.87,5.916,4.0
106.128,-9.68,6.711,23.0
115.289,-10.521,6.667,34.0
122.528,-11.187,6.439,20.0
147.195,-13.446,6.957,18.0
84.731,-7.755,6.377,6.0
84.338,-7.721,5.9,5.0
106.153,-9.722,6.862,6.0
105.621,-9.676,6.259,8.0
147.615,-13.529,7.965,2.0
147.212,-13.499,7.166,25.0
84.684,-7.779,6.495,14.0
84.601,-7.774,6.038,6.0
98.707,-9.072,6.522,3.0
106.215,-9.765,6.443,25.0
115.338,-10.606,6.387,26.0
108.565,-9.987,5.437,10.0
98.769,-9.103,7.713,3.0
86.937,-8.014,6.326,3.0
86.365,-7.962,5.826,8.0
106.215,-9.793,6.592,14.0
115.326,-10.635,6.546,21.0
106.255,-9.802,5.468,10.0
97.151,-8.98,7.723,6.0
84.74,-7.832,6.286,3.0
98.287,-9.085,6.768,8.0
99.286,-9.177,6.3,10.0
106.258,-9.822,6.179,38.0
106.227,-9.821,5.614,20.0
98.794,-9.152,7.991,28.0
84.686,-7.844,6.398,10.0
98.226,-9.097,6.898,15.0
99.983,-9.26,6.481,6.0
106.273,-9.842,6.325,57.0
106.231,-9.839,5.759,20.0
97.692,-9.066,8.037,9.0
98.828,-9.17,7.604,16.0
105.416,-9.78,7.55,5.0
106.216,-9.853,7.031,10.0
106.439,-9.872,6.482,19.0
106.256,-9.854,5.906,23.0
95.984,-8.92,8.029,5.0
97.218,-9.032,7.613,5.0
86.803,-8.062,6.336,2.0
86.349,-8.018,5.833,6.0
99.317,-9.221,6.182,15.0
106.264,-9.864,6.05,45.0
85.782,-7.979,7.292,7.0
98.8,-9.187,7.871,7.0
98.935,-9.195,7.355,11.0
98.371,-9.14,6.778,10.0
106.759,-9.917,6.789,17.0
106.275,-9.869,6.195,51.0
96.644,-8.993,8.347,7.0
97.479,-9.066,7.899,5.0
98.852,-9.19,7.481,17.0
98.264,-9.131,6.903,15.0
86.791,-8.062,5.635,4.0
106.315,-9.872,6.338,37.0
95.3,-8.868,8.358,3.0
97.58,-9.074,8.036,5.0
98.819,-9.184,7.611,24.0
105.332,-9.785,7.539,5.0
86.385,-8.021,5.723,4.0
106.486,-9.883,6.488,18.0
80.25,-7.463,7.145,1.0
0.0,0.0,0.0,0.0
98.72,-9.169,7.733,28.0
84.553,-7.847,6.163,3.0
98.419,-9.13,6.648,5.0
99.337,-9.21,6.181,13.0
98.058,-9.111,8.859,20.0
85.795,-7.965,7.291,10.0
0.0,0.0,0.0,0.0
84.633,-7.846,6.277,4.0
98.305,-9.107,6.767,11.0
99.32,-9.194,6.308,11.0
97.949,-9.087,8.976,15.0
96.368,-8.933,8.313,12.0
0.0,0.0,0.0,0.0
84.708,-7.839,6.391,9.0
98.245,-9.084,6.887,14.0
100.134,-9.252,6.484,6.0
97.951,-9.07,9.099,14.0
96.438,-8.921,8.44,5.0
98.738,-9.126,8.111,23.0
84.547,-7.807,6.484,4.0
84.529,-7.799,6.03,7.0
86.446,-7.969,5.705,2.0
107.279,-9.91,10.101,18.0
98.222,-9.064,8.719,2.0
84.502,-7.79,7.047,7.0
83.891,-7.725,6.538,5.0
86.96,-8.001,6.31,3.0
86.39,-7.941,5.806,7.0
97.908,-9.019,9.338,11.0
95.602,-8.797,8.603,13.0
95.789,-8.804,8.104,12.0
83.962,-7.709,6.644,8.0
87.084,-7.986,6.425,2.0
86.428,-7.919,5.913,4.0
98.11,-9.009,9.476,12.0
95.471,-8.755,8.706,3.0
95.861,-8.78,8.225,7.0
104.734,-9.582,8.413,7.0
84.721,-7.742,6.35,7.0
97.923,-8.938,6.815,5.0
98.473,-9.008,9.628,7.0
98.669,-9.014,9.115,11.0
96.497,-8.804,8.394,2.0
97.01,-8.84,7.905,10.0
84.731,-7.711,6.45,11.0
98.035,-8.911,6.935,11.0
84.667,-7.714,8.376,6.0
98.624,-8.971,9.224,13.0
96.57,-8.773,8.51,6.0
96.952,-8.796,8.01,10.0
84.722,-7.675,6.545,13.0
98.072,-8.874,7.048,10.0
98.695,-8.95,9.875,5.0
95.916,-8.685,9.078,4.0
84.531,-7.642,7.544,8.0
107.56,-9.71,9.007,5.0
105.288,-9.492,8.249,5.0
98.128,-8.834,7.16,7.0
98.82,-8.916,9.997,4.0
98.558,-8.878,9.436,13.0
84.581,-7.607,7.64,10.0
85.457,-7.674,7.248,3.0
85.261,-7.645,6.771,9.0
99.93,-8.947,7.397,4.0
83.755,-7.515,8.564,8.0
98.463,-8.82,9.533,11.0
84.497,-7.556,7.722,1.0
97.014,-8.662,8.331,4.0
108.774,-9.696,8.752,5.0
84.699,-7.539,6.357,5.0
98.532,-8.79,10.177,5.0
98.696,-8.788,9.658,8.0
99.711,-8.863,9.216,16.0
83.771,-7.433,7.28,1.0
105.527,-9.348,8.599,11.0
84.591,-7.481,6.436,11.0
81.037,-7.182,8.454,4.0
99.016,-8.759,9.79,9.0
99.643,-8.799,9.31,10.0
107.831,-9.504,9.48,7.0
105.948,-9.322,8.739,2.0
108.141,-9.498,8.335,10.0
81.162,-7.144,8.548,3.0
84.854,-7.454,8.474,10.0
99.589,-8.732,9.403,5.0
84.417,-7.388,7.502,7.0
115.841,-10.12,9.666,9.0
84.708,-7.386,6.609,5.0
81.242,-7.099,8.634,1.0
84.791,-7.394,8.548,10.0
99.514,-8.661,9.489,5.0
96.451,-8.378,8.662,9.0
108.061,-9.367,9.118,2.0
105.768,-9.151,8.351,19.0
0.0,0.0,0.0,0.0
84.763,-7.333,8.625,10.0
99.494,-8.59,9.58,7.0
105.638,-9.102,9.584,12.0
105.718,-9.09,9.016,14.0
106.422,-9.133,8.497,17.0
99.913,-8.592,10.802,9.0
98.573,-8.457,10.118,6.0
105.65,-9.044,10.267,14.0
105.744,-9.033,9.687,5.0
106.658,-9.092,9.189,19.0
97.517,-8.295,7.871,8.0
0.0,0.0,0.0,0.0
84.697,-7.203,8.766,3.0
99.459,-8.439,9.75,7.0
106.445,-9.011,9.842,11.0
106.311,-8.98,9.249,10.0
84.736,-7.142,6.91,8.0
0.0,0.0,0.0,0.0
107.764,-9.079,11.244,3.0
99.304,-8.347,9.817,9.0
106.535,-8.935,9.936,4.0
97.108,-8.124,8.527,8.0
85.015,-7.097,7.0,15.0
0.0,0.0,0.0,0.0
105.525,-8.805,11.094,2.0
106.197,-8.838,10.582,7.0
106.396,-8.833,10.008,2.0
98.135,-8.129,8.693,2.0
84.714,-7.0,7.041,11.0
0.0,0.0,0.0,0.0
99.685,-8.233,10.556,5.0
100.206,-8.254,10.061,2.0
106.524,-8.753,10.098,2.0
105.404,-8.641,9.413,7.0
97.062,-7.937,8.138,2.0
0.0,0.0,0.0,0.0
0.0,0.0,0.0,0.0
0.0,0.0,0.0,0.0
0.0,0.0,0.0,0.0
107.717,-8.734,9.695,6.0
107.703,-8.711,9.103,12.0
0.0,0.0,0.0,0.0
0.0,0.0,0.0,0.0
0.0,0.0,0.0,0.0
0.0,0.0,0.0,0.0
98.407,-7.888,8.922,3.0
107.708,-8.612,9.174,5.0
0.0,0.0,0.0,0.0
0.0,0.0,0.0,0.0
0.0,0.0,0.0,0.0
0.0,0.0,0.0,0.0
107.653,-8.526,9.829,1.0
98.674,-7.794,8.466,5.0
0.0,0.0,0.0,0.0
0.0,0.0,0.0,0.0
0.0,0.0,0.0,0.0
0.0,0.0,0.0,0.0
0.0,0.0,0.0,0.0
105.988,-8.268,9.155,8.0
0.0,0.0,0.0,0.0
0.0,0.0,0.0,0.0
0.0,0.0,0.0,0.0
0.0,0.0,0.0,0.0
0.0,0.0,0.0,0.0
105.999,-8.161,9.214,2.0
0.0,0.0,0.0,0.0
0.0,0.0,0.0,0.0
0.0,0.0,0.0,0.0
0.0,0.0,0.0,0.0
0.0,0.0,0.0,0.0
108.513,-8.241,9.488,2.0
0.0,0.0,0.0,0.0
0.0,0.0,0.0,0.0
0.0,0.0,0.0,0.0
0.0,0.0,0.0,0.0
0.0,0.0,0.0,0.0
0.0,0.0,0.0,0.0
0.0,0.0,0.0,0.0
0.0,0.0,0.0,0.0
0.0,0.0,0.0,0.0
0.0,0.0,0.0,0.0
0.0,0.0,0.0,0.0
0.0,0.0,0.0,0.0
0.0,0.0,0.0,0.0
0.0,0.0,0.0,0.0
0.0,0.0,0.0,0.0
0.0,0.0,0.0,0.0
0.0,0.0,0.0,0.0
0.0,0.0,0.0,0.0
0.0,0.0,0.0,0.0
0.0,0.0,0.0,0.0
0.0,0.0,0.0,0.0
0.0,0.0,0.0,0.0
0.0,0.0,0.0,0.0
0.0,0.0,0.0,0.0
0.0,0.0,0.0,0.0
0.0,0.0,0.0,0.0
0.0,0.0,0.0,0.0
0.0,0.0,0.0,0.0
0.0,0.0,0.0,0.0
0.0,0.0,0.0,0.0
0.0,0.0,0.0,0.0
0.0,0.0,0.0,0.0
0.0,0.0,0.0,0.0
0.0,0.0,0.0,0.0
0.0,0.0,0.0,0.0
0.0,0.0,0.0,0.0
0.0,0.0,0.0,0.0
0.0,0.0,0.0,0.0
0.0,0.0,0.0,0.0
0.0,0.0,0.0,0.0
0.0,0.0,0.0,0.0
0.0,0.0,0.0,0.0
0.0,0.0,0.0,0.0
0.0,0.0,0.0,0.0
0.0,0.0,0.0,0.0
0.0,0.0,0.0,0.0
0.0,0.0,0.0,0.0
0.0,0.0,0.0,0.0
0.0,0.0,0.0,0.0
0.0,0.0,0.0,0.0
0.0,0.0,0.0,0.0
0.0,0.0,0.0,0.0
0.0,0.0,0.0,0.0
0.0,0.0,0.0,0.0
0.0,0.0,0.0,0.0
0.0,0.0,0.0,0.0
0.0,0.0,0.0,0.0
0.0,0.0,0.0,0.0
0.0,0.0,0.0,0.0
0.0,0.0,0.0,0.0
49.184,-3.171,5.829,1.0
49.257,-3.164,5.559,1.0
0.0,0.0,0.0,0.0
0.0,0.0,0.0,0.0
0.0,0.0,0.0,0.0
0.0,0.0,0.0,0.0
49.168,-3.109,5.829,3.0
49.271,-3.103,5.562,2.0
0.0,0.0,0.0,0.0
0.0,0.0,0.0,0.0
0.0,0.0,0.0,0.0
0.0,0.0,0.0,0.0
49.147,-3.045,5.826,4.0
49.242,-3.038,5.558,4.0
0.0,0.0,0.0,0.0
0.0,0.0,0.0,0.0
0.0,0.0,0.0,0.0
0.0,0.0,0.0,0.0
48.931,-2.969,5.798,16.0
49.288,-2.977,5.56,1.0
0.0,0.0,0.0,0.0
0.0,0.0,0.0,0.0
0.0,0.0,0.0,0.0
0.0,0.0,0.0,0.0
48.665,-2.889,5.762,23.0
0.0,0.0,0.0,0.0
0.0,0.0,0.0,0.0
0.0,0.0,0.0,0.0
0.0,0.0,0.0,0.0
0.0,0.0,0.0,0.0
48.469,-2.815,5.732,22.0
0.0,0.0,0.0,0.0
0.0,0.0,0.0,0.0
0.0,0.0,0.0,0.0
0.0,0.0,0.0,0.0
0.0,0.0,0.0,0.0
48.675,-2.763,5.747,24.0
0.0,0.0,0.0,0.0
0.0,0.0,0.0,0.0
56.443,-3.159,5.695,1.0
0.0,0.0,0.0,0.0
0.0,0.0,0.0,0.0
48.78,-2.704,5.748,24.0
50.108,-2.765,5.619,1.0
0.0,0.0,0.0,0.0
56.573,-3.093,5.694,3.0
56.916,-3.097,5.406,2.0
92.359,-5.003,8.249,4.0
48.849,-2.643,5.743,23.0
57.06,-3.072,6.382,8.0
0.0,0.0,0.0,0.0
0.0,0.0,0.0,0.0
90.567,-4.809,8.574,6.0
92.293,-4.878,8.214,1.0
49.006,-2.586,5.746,10.0
50.333,-2.643,5.613,4.0
55.263,-2.889,5.847,4.0
0.0,0.0,0.0,0.0
56.719,-2.936,5.35,2.0
0.0,0.0,0.0,0.0
48.884,-2.515,5.713,15.0
50.093,-2.564,5.568,6.0
57.261,-2.917,6.037,2.0
92.741,-4.701,9.239,4.0
56.635,-2.857,5.319,6.0
90.572,-4.547,7.993,1.0
48.637,-2.437,5.664,23.0
55.356,-2.76,6.129,7.0
57.245,-2.839,6.011,2.0
92.603,-4.569,9.186,5.0
90.208,-4.429,8.434,4.0
90.784,-4.436,7.971,2.0
48.732,-2.376,5.653,16.0
56.611,-2.746,6.242,8.0
55.048,-2.656,5.754,9.0
54.906,-2.636,5.419,2.0
56.785,-2.712,5.281,3.0
83.949,-3.988,7.329,9.0
48.843,-2.315,5.641,13.0
49.806,-2.349,5.466,4.0
55.016,-2.58,5.722,28.0
55.038,-2.568,5.404,4.0
63.447,-2.945,5.867,4.0
93.415,-4.315,8.106,5.0
48.828,-2.249,5.612,9.0
40.578,-1.859,4.431,30.0
0.0,0.0,0.0,0.0
57.93,-2.625,5.655,5.0
91.417,-4.121,8.401,4.0
83.299,-3.736,7.179,12.0
48.76,-2.18,5.576,10.0
40.498,-1.801,4.398,33.0
56.822,-2.513,5.844,7.0
55.016,-2.42,5.337,24.0
82.835,-3.624,7.562,5.0
83.428,-3.631,7.139,4.0
40.489,-1.756,4.604,55.0
40.559,-1.749,4.378,22.0
56.636,-2.428,5.788,10.0
54.875,-2.34,5.287,3.0
90.939,-3.857,8.24,11.0
84.3,-3.555,7.156,5.0
40.351,-1.696,4.561,65.0
40.393,-1.688,4.332,64.0
56.62,-2.353,5.746,10.0
57.46,-2.374,5.496,17.0
91.067,-3.742,8.188,7.0
84.263,-3.443,7.093,6.0
40.259,-1.638,4.521,63.0
40.371,-1.633,4.3,57.0
52.699,-2.12,5.31,5.0
57.286,-2.291,5.437,10.0
90.907,-3.615,8.106,29.0
82.936,-3.279,6.919,6.0
40.404,-1.59,4.506,67.0
40.428,-1.582,4.274,21.0
40.497,-1.574,4.048,18.0
57.189,-2.211,5.382,4.0
40.779,-1.567,3.603,9.0
91.332,-3.49,7.547,12.0
40.459,-1.539,4.479,55.0
40.14,-1.517,4.211,36.0
53.199,-1.999,5.275,27.0
64.359,-2.404,6.003,14.0
56.93,-2.114,4.983,5.0
82.895,-3.059,6.78,7.0
43.126,-1.584,4.737,5.0
40.213,-1.467,4.184,47.0
53.053,-1.924,5.214,27.0
64.359,-2.32,5.947,9.0
54.738,-1.961,4.743,5.0
82.388,-2.933,6.665,11.0
40.295,-1.427,4.389,52.0
39.969,-1.406,4.122,64.0
52.741,-1.844,5.135,5.0
40.685,-1.413,3.722,60.0
41.062,-1.417,3.519,6.0
90.18,-3.094,7.212,4.0
40.334,-1.376,4.355,41.0
40.102,-1.359,4.098,70.0
40.865,-1.376,3.939,4.0
40.754,-1.363,3.689,47.0
40.994,-1.363,3.474,4.0
83.085,-2.744,6.563,12.0
40.105,-1.316,4.291,59.0
40.504,-1.32,4.098,46.0
40.799,-1.321,3.892,14.0
40.81,-1.313,3.653,41.0
63.401,-2.026,5.31,2.0
83.043,-2.637,6.476,23.0
39.5,-1.246,4.185,56.0
39.948,-1.251,4.001,67.0
40.712,-1.266,3.841,50.0
40.804,-1.261,3.61,65.0
74.972,-2.301,6.199,2.0
84.133,-2.566,6.472,6.0
39.402,-1.193,4.133,75.0
40.172,-1.208,3.98,58.0
40.77,-1.217,3.803,55.0
40.931,-1.214,3.577,32.0
75.04,-2.21,6.123,3.0
83.643,-2.446,6.342,21.0
39.293,-1.14,4.078,63.0
39.895,-1.15,3.908,58.0
40.79,-1.167,3.759,40.0
53.43,-1.518,4.609,10.0
41.162,-1.162,3.313,42.0
41.304,-1.157,3.085,38.0
39.464,-1.097,4.05,66.0
48.98,-1.352,4.742,5.0
40.906,-1.12,3.722,46.0
53.566,-1.457,4.559,11.0
41.251,-1.114,3.272,55.0
41.278,-1.106,3.035,1.0
39.669,-1.054,4.023,72.0
40.742,-1.075,3.895,44.0
40.799,-1.068,3.663,45.0
53.614,-1.393,4.498,12.0
41.265,-1.065,3.223,54.0
97.26,-2.492,7.035,3.0
39.709,-1.008,3.979,63.0
49.068,-1.236,4.631,7.0
40.901,-1.022,3.622,39.0
41.293,-1.024,3.413,11.0
41.263,-1.015,3.171,46.0
91.722,-2.241,6.519,16.0
40.133,-0.971,3.97,56.0
49.078,-1.178,4.569,10.0
64.165,-1.528,5.601,9.0
41.197,-0.973,3.352,24.0
84.114,-1.972,6.357,15.0
84.375,-1.962,5.888,67.0
39.431,-0.908,3.849,59.0
49.063,-1.12,4.503,50.0
54.242,-1.229,4.663,75.0
41.141,-0.924,3.293,56.0
41.198,-0.918,3.059,57.0
84.118,-1.861,5.759,38.0
39.434,-0.862,3.796,63.0
40.143,-0.871,3.63,63.0
54.205,-1.166,4.587,43.0
41.206,-0.879,3.243,52.0
41.246,-0.873,3.006,2.0
129.466,-2.718,8.686,15.0
39.579,-0.82,3.755,67.0
40.423,-0.831,3.6,48.0
40.79,-0.832,3.394,15.0
41.257,-0.833,3.189,42.0
126.423,-2.533,9.038,22.0
85.886,-1.707,5.641,51.0
39.829,-0.782,3.722,69.0
40.671,-0.791,3.564,67.0
54.209,-1.045,4.434,7.0
41.279,-0.789,3.132,11.0
82.324,-1.561,5.768,3.0
85.523,-1.607,5.496,14.0
39.847,-0.739,3.666,66.0
49.11,-0.902,4.232,12.0
54.194,-0.987,4.354,12.0
63.877,-1.153,4.753,45.0
126.166,-2.257,8.655,26.0
85.382,-1.514,5.361,68.0
49.963,-0.873,4.522,4.0
49.114,-0.85,4.159,7.0
54.257,-0.931,4.278,54.0
63.583,-1.08,4.635,79.0
125.098,-2.106,8.392,34.0
85.353,-1.424,5.231,36.0
49.923,-0.82,4.442,15.0
40.819,-0.664,3.393,56.0
41.191,-0.664,3.184,56.0
63.442,-1.013,4.528,55.0
124.776,-1.973,8.179,22.0
85.36,-1.338,5.099,21.0
49.845,-0.768,4.358,9.0
40.837,-0.623,3.331,59.0
41.079,-0.621,3.111,43.0
94.229,-1.41,6.577,20.0
94.28,-1.397,6.032,60.0
85.45,-1.253,4.97,12.0
40.48,-0.583,3.474,51.0
40.83,-0.583,3.265,66.0
82.402,-1.164,6.109,30.0
82.517,-1.153,5.627,58.0
82.691,-1.144,5.157,51.0
85.484,-1.17,4.834,9.0
40.636,-0.546,3.421,67.0
41.138,-0.547,3.223,54.0
77.935,-1.026,5.651,31.0
125.227,-1.632,8.337,24.0
82.896,-1.069,5.036,20.0
83.668,-1.067,4.596,49.0
40.393,-0.505,3.335,56.0
41.287,-0.511,3.167,49.0
63.196,-0.774,4.479,40.0
86.066,-1.043,5.588,52.0
83.164,-0.996,4.913,57.0
83.687,-0.991,4.458,54.0
49.128,-0.57,3.973,5.0
62.651,-0.719,4.7,32.0
63.228,-0.717,4.374,38.0
86.041,-0.965,5.441,26.0
83.364,-0.925,4.786,15.0
83.729,-0.918,4.319,98.0
40.888,-0.438,3.237,65.0
41.698,-0.442,3.057,6.0
77.773,-0.814,5.247,14.0
83.033,-0.858,5.108,41.0
98.292,-1.005,5.473,36.0
124.001,-1.252,6.181,21.0
41.363,-0.408,3.202,79.0
62.701,-0.61,4.487,15.0
63.475,-0.61,4.17,35.0
98.247,-0.933,5.871,67.0
85.405,-0.801,4.605,51.0
79.231,-0.733,3.81,151.0
41.521,-0.375,3.14,55.0
62.973,-0.561,4.393,37.0
63.523,-0.559,4.061,19.0
85.786,-0.745,4.974,15.0
93.746,-0.804,4.888,35.0
81.517,-0.689,3.775,150.0
75.614,-0.622,5.583,26.0
63.607,-0.516,4.323,40.0
76.954,-0.616,4.78,48.0
59.442,-0.469,3.339,93.0
59.468,-0.463,2.993,85.0
82.21,-0.632,3.658,68.0
49.155,-0.366,3.54,6.0
63.833,-0.469,4.222,33.0
77.088,-0.558,4.648,30.0
59.443,-0.424,3.23,104.0
59.486,-0.418,2.885,108.0
59.481,-0.412,2.538,88.0
49.051,-0.329,3.441,60.0
63.554,-0.42,4.086,38.0
59.415,-0.387,3.472,90.0
59.458,-0.381,3.121,105.0
59.481,-0.376,2.774,98.0
59.467,-0.37,2.427,83.0
62.827,-0.378,4.29,40.0
86.036,-0.509,5.372,20.0
59.426,-0.346,3.362,101.0
59.46,-0.34,3.009,110.0
59.482,-0.335,2.662,95.0
79.41,-0.44,3.09,123.0
0.0,0.0,0.0,0.0
89.349,-0.469,5.408,46.0
59.44,-0.306,3.25,111.0
59.467,-0.301,2.897,113.0
59.473,-0.296,2.549,94.0
79.407,-0.388,2.941,150.0
63.324,-0.297,4.083,40.0
59.421,-0.274,3.483,96.0
59.45,-0.269,3.136,108.0
59.461,-0.264,2.783,100.0
59.457,-0.259,2.435,93.0
79.422,-0.34,2.79,150.0
63.514,-0.259,3.972,39.0
59.424,-0.238,3.368,103.0
59.457,-0.233,3.022,106.0
59.464,-0.229,2.668,98.0
79.392,-0.3,3.099,150.0
79.421,-0.294,2.636,150.0
77.729,-0.273,4.709,35.0
59.434,-0.204,3.252,102.0
59.459,-0.2,2.905,100.0
59.452,-0.195,2.551,97.0
79.414,-0.255,2.942,150.0
79.421,-0.25,2.478,150.0
59.411,-0.176,3.481,107.0
59.439,-0.172,3.134,115.0
59.453,-0.168,2.786,98.0
59.432,-0.164,2.431,91.0
79.427,-0.214,2.786,150.0
79.416,-0.209,2.321,150.0
59.425,-0.146,3.363,107.0
59.455,-0.142,3.016,102.0
59.448,-0.138,2.667,99.0
79.433,-0.18,3.091,150.0
79.427,-0.175,2.625,150.0
79.428,-0.17,2.161,150.0
59.432,-0.118,3.243,108.0
59.45,-0.114,2.895,105.0
59.442,-0.111,2.547,94.0
79.421,-0.143,2.93,151.0
79.431,-0.139,2.465,150.0
79.424,-0.134,2.0,150.0
59.44,-0.092,3.122,112.0
59.452,-0.088,2.774,98.0
59.434,-0.085,2.425,95.0
79.422,-0.11,2.767,150.0
79.431,-0.106,2.302,150.0
79.441,-0.102,1.839,151.0
59.444,-0.068,3.001,106.0
59.447,-0.065,2.652,100.0
79.418,-0.083,3.079,150.0
79.42,-0.079,2.606,150.0
79.43,-0.076,2.142,150.0
79.448,-0.072,1.678,151.0
59.46,-0.046,2.88,103.0
59.439,-0.044,2.531,97.0
79.438,-0.055,2.918,151.0
79.424,-0.052,2.444,150.0
79.433,-0.048,1.979,150.0
79.451,-0.045,1.514,157.0
59.451,-0.026,2.757,109.0
79.413,-0.032,3.216,46.0
79.416,-0.029,2.752,150.0
79.431,-0.027,2.279,150.0
79.44,-0.024,1.814,151.0
79.453,-0.021,1.351,155.0
59.451,-0.009,2.633,96.0
79.429,-0.009,3.052,151.0
79.43,-0.007,2.585,150.0
79.429,-0.004,2.113,150.0
79.459,-0.002,1.649,151.0
79.457,0.0,1.184,151.0
59.438,0.006,2.508,97.0
79.444,0.01,2.886,151.0
79.436,0.012,2.42,150.0
79.436,0.014,1.947,150.0
79.45,0.016,1.482,163.0
79.456,0.018,1.017,151.0
79.41,0.025,3.184,150.0
79.428,0.027,2.719,151.0
79.422,0.028,2.253,150.0
79.433,0.03,1.781,151.0
79.453,0.032,1.316,160.0
79.465,0.033,0.851,151.0
79.443,0.04,3.018,151.0
79.438,0.041,2.552,150.0
79.438,0.042,2.086,150.0
79.444,0.043,1.614,151.0
79.461,0.045,1.149,153.0
79.432,0.046,0.683,104.0
79.451,0.052,2.85,151.0
79.429,0.052,2.384,150.0
79.426,0.053,1.919,150.0
79.446,0.054,1.446,165.0
79.462,0.055,0.98,151.0
76.078,0.053,0.493,20.0
79.439,0.06,2.68,150.0
79.43,0.061,2.213,150.0
79.433,0.061,1.747,151.0
79.46,0.062,1.274,156.0
79.453,0.062,0.809,150.0
61.645,0.048,0.266,7.0
79.437,0.066,2.508,150.0
79.44,0.066,2.043,150.0
79.448,0.066,1.578,151.0
79.459,0.066,1.104,152.0
79.419,0.066,0.639,23.0
0.0,0.0,0.0,0.0
79.434,0.069,2.338,150.0
79.433,0.069,1.874,150.0
79.439,0.068,1.409,172.0
79.464,0.068,0.935,151.0
75.937,0.064,0.45,15.0
0.0,0.0,0.0,0.0
79.438,0.069,2.17,150.0
79.45,0.068,1.704,151.0
79.456,0.067,1.239,158.0
79.452,0.066,0.765,150.0
0.0,0.0,0.0,0.0
43.873,0.035,-0.091,7.0
79.438,0.066,1.998,150.0
79.459,0.064,1.533,158.0
79.465,0.063,1.068,156.0
76.459,0.059,0.572,16.0
48.067,0.036,0.078,7.0
39.346,0.029,-0.165,35.0
79.445,0.059,1.829,151.0
79.457,0.058,1.363,171.0
79.463,0.056,0.898,151.0
61.81,0.042,0.33,9.0
0.0,0.0,0.0,0.0
38.432,0.024,-0.244,8.0
79.447,0.05,1.659,151.0
79.457,0.048,1.193,156.0
79.431,0.046,0.727,150.0
55.003,0.03,0.176,13.0
40.631,0.021,-0.107,16.0
38.008,0.019,-0.323,0.0
79.447,0.038,1.488,161.0
79.464,0.036,1.022,154.0
76.273,0.032,0.535,17.0
47.77,0.018,0.05,21.0
39.121,0.013,-0.187,18.0
32.133,0.01,-0.341,1.0
79.457,0.023,1.318,154.0
79.469,0.02,0.854,151.0
61.835,0.013,0.302,8.0
0.0,0.0,0.0,0.0
38.342,0.005,-0.265,5.0
30.252,0.003,-0.387,1.0
79.465,0.005,1.148,151.0
79.371,0.002,0.682,46.0
0.0,0.0,0.0,0.0
40.082,-0.002,-0.128,28.0
33.488,-0.003,-0.303,0.0
29.113,-0.004,-0.434,2.0
79.457,-0.015,0.977,168.0
76.099,-0.018,0.491,18.0
0.0,0.0,0.0,0.0
38.953,-0.013,-0.208,14.0
31.356,-0.012,-0.351,1.0
27.58,-0.012,-0.47,1.0
79.476,-0.039,0.809,161.0
61.564,-0.034,0.265,13.0
0.0,0.0,0.0,0.0
38.261,-0.025,-0.287,3.0
29.91,-0.021,-0.399,2.0
26.481,-0.02,-0.508,2.0
79.216,-0.066,0.636,18.0
0.0,0.0,0.0,0.0
39.882,-0.038,-0.146,26.0
33.239,-0.033,-0.32,1.0
28.684,-0.03,-0.443,2.0
25.286,-0.028,-0.539,2.0
76.078,-0.092,0.45,14.0
45.952,-0.058,0.003,20.0
38.885,-0.052,-0.224,14.0
31.003,-0.043,-0.363,1.0
27.225,-0.04,-0.479,2.0
24.021,-0.036,-0.563,2.0
56.13,-0.091,0.214,16.0
41.643,-0.07,-0.085,18.0
37.838,-0.066,-0.298,1.0
29.625,-0.054,-0.41,2.0
26.186,-0.05,-0.516,2.0
23.093,-0.045,-0.59,2.0
51.225,-0.106,0.087,5.0
39.731,-0.085,-0.164,15.0
32.567,-0.072,-0.325,2.0
28.327,-0.065,-0.451,1.0
24.841,-0.059,-0.541,1.0
22.212,-0.054,-0.614,3.0
45.728,-0.117,-0.017,20.0
38.852,-0.102,-0.241,4.0
30.647,-0.083,-0.369,1.0
26.96,-0.075,-0.485,1.0
23.855,-0.068,-0.569,3.0
21.266,-0.063,-0.631,2.0
41.324,-0.127,-0.1,19.0
36.802,-0.116,-0.305,0.0
29.366,-0.095,-0.415,2.0
25.943,-0.086,-0.521,1.0
22.864,-0.078,-0.593,2.0
20.408,-0.071,-0.649,2.0
39.389,-0.143,-0.177,9.0
32.361,-0.12,-0.334,1.0
28.015,-0.107,-0.453,1.0
24.645,-0.096,-0.546,1.0
21.995,-0.088,-0.616,3.0
19.608,-0.08,-0.664,2.0
39.175,-0.166,-0.257,2.0
30.272,-0.131,-0.375,1.0
26.857,-0.118,-0.49,1.0
23.624,-0.106,-0.571,1.0
21.055,-0.097,-0.632,3.0
18.884,-0.089,-0.677,2.0
34.128,-0.166,-0.293,1.0
29.182,-0.144,-0.421,2.0
25.809,-0.13,-0.523,1.0
22.723,-0.117,-0.595,1.0
20.256,-0.106,-0.649,3.0
18.264,-0.098,-0.692,2.0
31.88,-0.176,-0.337,1.0
27.916,-0.157,-0.458,2.0
24.425,-0.14,-0.544,1.0
21.747,-0.126,-0.613,2.0
19.497,-0.115,-0.664,2.0
17.699,-0.107,-0.706,1.0
30.134,-0.187,-0.379,2.0
26.679,-0.168,-0.491,1.0
23.57,-0.151,-0.571,2.0
20.932,-0.137,-0.632,2.0
18.738,-0.124,-0.675,1.0
17.134,-0.116,-0.718,1.0
29.026,-0.201,-0.422,2.0
25.661,-0.18,-0.523,1.0
22.671,-0.162,-0.594,2.0
20.091,-0.146,-0.646,3.0
18.174,-0.134,-0.691,1.0
16.579,-0.124,-0.727,0.0
27.704,-0.213,-0.457,2.0
24.452,-0.19,-0.546,2.0
21.724,-0.172,-0.611,2.0
19.451,-0.156,-0.663,1.0
17.661,-0.144,-0.705,1.0
16.056,-0.133,-0.735,1.0
26.621,-0.225,-0.49,3.0
23.468,-0.201,-0.569,1.0
20.89,-0.182,-0.628,2.0
18.7,-0.165,-0.673,1.0
17.106,-0.153,-0.716,1.0
15.608,-0.142,-0.745,1.0
25.647,-0.238,-0.521,2.0
22.654,-0.213,-0.592,1.0
20.134,-0.192,-0.644,3.0
18.18,-0.176,-0.689,1.0
16.557,-0.162,-0.725,1.0
15.204,-0.151,-0.754,1.0
24.468,-0.248,-0.544,1.0
21.752,-0.224,-0.61,2.0
19.468,-0.203,-0.66,1.0
17.658,-0.186,-0.703,1.0
16.069,-0.172,-0.734,1.0
14.798,-0.16,-0.762,1.0
23.532,-0.26,-0.567,2.0
20.903,-0.234,-0.626,1.0
18.775,-0.212,-0.671,1.0
17.131,-0.196,-0.714,1.0
15.628,-0.181,-0.743,1.0
14.434,-0.169,-0.77,1.0
22.718,-0.271,-0.589,1.0
20.138,-0.243,-0.64,1.0
18.267,-0.223,-0.687,1.0
16.61,-0.205,-0.723,1.0
15.231,-0.191,-0.752,1.0
14.099,-0.179,-0.778,1.0
21.805,-0.281,-0.605,1.0
19.525,-0.255,-0.656,1.0
17.739,-0.234,-0.699,1.0
16.111,-0.215,-0.731,1.0
14.865,-0.2,-0.761,1.0
13.758,-0.188,-0.785,1.0
21.012,-0.291,-0.621,1.0
18.934,-0.265,-0.67,1.0
17.273,-0.245,-0.712,1.0
15.711,-0.225,-0.741,1.0
14.502,-0.21,-0.768,1.0
13.502,-0.198,-0.794,1.0
20.302,-0.302,-0.636,1.0
18.366,-0.276,-0.683,1.0
16.737,-0.254,-0.719,0.0
15.324,-0.235,-0.75,1.0
14.15,-0.219,-0.775,1.0
13.207,-0.207,-0.8,0.0
19.702,-0.313,-0.652,1.0
17.864,-0.287,-0.695,1.0
16.235,-0.263,-0.726,1.0
14.967,-0.245,-0.758,1.0
13.843,-0.229,-0.782,1.0
12.93,-0.216,-0.806,0.0
19.125,-0.324,-0.666,1.0
17.394,-0.298,-0.707,1.0
15.832,-0.274,-0.735,1.0
14.638,-0.256,-0.767,1.0
13.572,-0.239,-0.79,1.0
12.682,-0.226,-0.812,1.0
18.517,-0.334,-0.676,1.0
16.885,-0.308,-0.714,1.0
15.467,-0.285,-0.744,1.0
14.275,-0.265,-0.772,1.0
13.317,-0.25,-0.798,1.0
12.446,-0.236,-0.818,0.0
18.048,-0.346,-0.689,1.0
16.523,-0.32,-0.727,2.0
15.122,-0.295,-0.753,1.0
13.96,-0.275,-0.778,1.0
13.042,-0.259,-0.803,0.0
12.206,-0.245,-0.822,0.0
17.592,-0.357,-0.7,1.0
16.042,-0.329,-0.732,1.0
14.793,-0.306,-0.761,1.0
13.715,-0.286,-0.786,1.0
12.819,-0.27,-0.81,1.0
11.988,-0.254,-0.827,1.0
17.13,-0.368,-0.709,1.0
15.644,-0.339,-0.739,1.0
14.471,-0.316,-0.767,1.0
13.459,-0.297,-0.793,1.0
12.555,-0.279,-0.813,0.0
11.78,-0.264,-0.832,1.0
16.724,-0.379,-0.719,1.0
15.328,-0.35,-0.748,1.0
14.153,-0.326,-0.773,1.0
13.221,-0.307,-0.8,1.0
12.347,-0.289,-0.819,0.0
11.606,-0.274,-0.837,0.0
16.286,-0.389,-0.725,1.0
15.031,-0.362,-0.756,1.0
13.887,-0.337,-0.779,1.0
12.983,-0.317,-0.805,0.0
12.143,-0.299,-0.824,0.0
11.428,-0.284,-0.842,0.0
15.931,-0.4,-0.733,1.0
14.687,-0.371,-0.761,1.0
13.631,-0.347,-0.785,1.0
12.726,-0.327,-0.808,0.0
11.93,-0.309,-0.827,1.0
11.245,-0.293,-0.845,0.0
15.595,-0.411,-0.74,1.0
14.41,-0.382,-0.767,1.0
13.423,-0.359,-0.793,1.0
12.52,-0.337,-0.813,1.0
11.743,-0.319,-0.831,0.0
11.086,-0.303,-0.849,0.0
15.291,-0.422,-0.747,1.0
14.12,-0.392,-0.772,1.0
13.192,-0.369,-0.798,0.0
12.32,-0.348,-0.818,0.0
11.576,-0.329,-0.835,0.0
10.931,-0.313,-0.852,0.0
15.005,-0.433,-0.755,1.0
13.894,-0.404,-0.779,1.0
12.984,-0.381,-0.803,0.0
12.143,-0.359,-0.823,0.0
11.435,-0.34,-0.841,0.0
10.773,-0.323,-0.855,0.0
14.72,-0.444,-0.76,1.0
13.654,-0.415,-0.784,1.0
12.782,-0.391,-0.808,1.0
11.954,-0.369,-0.826,0.0
11.285,-0.351,-0.845,0.0
10.631,-0.333,-0.858,0.0
14.444,-0.455,-0.765,1.0
13.454,-0.427,-0.79,1.0
12.569,-0.402,-0.811,0.0
11.774,-0.379,-0.829,0.0
11.133,-0.361,-0.848,0.0
10.512,-0.343,-0.862,0.0
14.21,-0.467,-0.771,1.0
13.248,-0.438,-0.795,1.0
12.39,-0.413,-0.815,0.0
11.63,-0.39,-0.834,0.0
10.975,-0.371,-0.85,0.0
10.388,-0.353,-0.865,0.0
13.983,-0.479,-0.776,1.0
13.06,-0.45,-0.8,1.0
12.228,-0.424,-0.82,1.0
11.491,-0.401,-0.838,0.0
10.844,-0.381,-0.853,0.0
10.249,-0.362,-0.866,0.0
13.775,-0.49,-0.781,1.0
12.87,-0.461,-0.804,1.0
12.053,-0.434,-0.822,1.0
11.367,-0.412,-0.842,0.0
10.699,-0.391,-0.855,0.0
10.113,-0.372,-0.867,0.0
13.585,-0.502,-0.786,1.0
12.684,-0.472,-0.807,1.0
11.906,-0.446,-0.826,1.0
11.207,-0.422,-0.843,0.0
10.604,-0.402,-0.859,0.0
9.976,-0.381,-0.866,1.0
13.421,-0.515,-0.792,1.0
12.524,-0.483,-0.811,0.0
11.768,-0.457,-0.83,0.0
11.098,-0.434,-0.848,0.0
10.488,-0.413,-0.862,0.0
9.88,-0.391,-0.869,2.0
13.235,-0.527,-0.795,1.0
12.379,-0.495,-0.815,1.0
11.616,-0.468,-0.832,0.0
10.969,-0.444,-0.85,0.0
10.366,-0.423,-0.863,0.0
9.793,-0.402,-0.872,3.0
13.072,-0.539,-0.799,1.0
12.257,-0.508,-0.82,0.0
11.493,-0.479,-0.835,0.0
10.85,-0.455,-0.852,0.0
10.278,-0.434,-0.866,0.0
9.762,-0.414,-0.879,2.0
12.92,-0.551,-0.803,1.0
12.09,-0.518,-0.821,1.0
11.392,-0.491,-0.839,0.0
10.742,-0.466,-0.854,0.0
10.156,-0.443,-0.866,0.0
9.672,-0.424,-0.88,0.0
12.771,-0.563,-0.806,1.0
11.984,-0.531,-0.825,1.0
11.274,-0.502,-0.841,0.0
10.647,-0.477,-0.857,0.0
10.038,-0.452,-0.865,0.0
9.571,-0.434,-0.88,0.0
12.634,-0.575,-0.809,1.0
11.846,-0.542,-0.827,0.0
11.171,-0.514,-0.843,0.0
10.569,-0.489,-0.86,0.0
9.956,-0.463,-0.867,1.0
9.489,-0.444,-0.881,0.0
12.497,-0.587,-0.811,0.0
11.728,-0.554,-0.829,0.0
11.077,-0.526,-0.846,0.0
10.463,-0.5,-0.86,0.0
9.876,-0.474,-0.869,2.0
9.422,-0.455,-0.883,0.0
12.383,-0.6,-0.815,0.0
11.641,-0.567,-0.832,0.0
10.997,-0.538,-0.849,0.0
10.404,-0.512,-0.864,0.0
9.801,-0.485,-0.87,2.0
9.353,-0.465,-0.884,0.0
12.275,-0.613,-0.817,0.0
11.539,-0.579,-0.834,0.0
10.903,-0.55,-0.851,0.0
10.306,-0.522,-0.864,0.0
9.771,-0.498,-0.875,2.0
9.292,-0.476,-0.886,0.0
12.168,-0.625,-0.819,0.0
11.465,-0.592,-0.837,0.0
10.816,-0.561,-0.852,0.0
10.218,-0.533,-0.864,0.0
9.729,-0.51,-0.879,1.0
9.244,-0.487,-0.888,0.0
12.088,-0.639,-0.823,0.0
11.355,-0.603,-0.838,0.0
10.743,-0.573,-0.854,0.0
10.146,-0.544,-0.865,0.0
9.666,-0.521,-0.88,0.0
9.194,-0.498,-0.89,0.0
11.986,-0.651,-0.824,0.0
11.273,-0.615,-0.839,0.0
10.685,-0.586,-0.856,0.0
10.062,-0.555,-0.865,0.0
9.602,-0.532,-0.88,0.0
9.13,-0.508,-0.889,0.0
11.893,-0.663,-0.825,0.0
11.217,-0.629,-0.842,0.0
10.616,-0.598,-0.857,0.0
9.993,-0.566,-0.865,1.0
9.547,-0.543,-0.881,0.0
9.091,-0.52,-0.891,0.0
11.828,-0.677,-0.827,0.0
11.165,-0.642,-0.844,0.0
10.545,-0.609,-0.857,0.0
9.937,-0.577,-0.866,1.0
9.486,-0.553,-0.881,0.0
9.04,-0.53,-0.891,0.0
11.761,-0.691,-0.829,0.0
11.089,-0.654,-0.845,0.0
10.509,-0.623,-0.86,0.0
9.897,-0.589,-0.867,2.0
9.436,-0.564,-0.881,0.0
8.997,-0.541,-0.891,0.0
11.694,-0.704,-0.83,0.0
11.043,-0.668,-0.847,0.0
10.444,-0.634,-0.86,0.0
9.856,-0.601,-0.869,2.0
9.418,-0.577,-0.884,0.0
8.973,-0.553,-0.893,0.0
11.644,-0.718,-0.832,0.0
10.993,-0.681,-0.848,0.0
10.406,-0.647,-0.861,0.0
9.818,-0.613,-0.87,2.0
9.384,-0.589,-0.885,0.0
8.931,-0.563,-0.893,0.0
11.584,-0.731,-0.832,0.0
10.938,-0.693,-0.848,0.0
10.358,-0.659,-0.862,0.0
9.804,-0.627,-0.872,2.0
9.36,-0.601,-0.886,0.0
8.896,-0.574,-0.893,0.0
11.551,-0.746,-0.834,0.0
10.894,-0.706,-0.848,0.0
10.35,-0.674,-0.865,0.0
9.778,-0.639,-0.873,2.0
9.315,-0.612,-0.885,0.0
8.878,-0.586,-0.894,0.0
11.519,-0.76,-0.836,0.0
10.871,-0.721,-0.85,0.0
10.297,-0.685,-0.863,0.0
9.757,-0.652,-0.874,2.0
9.285,-0.623,-0.885,0.0
8.844,-0.596,-0.893,0.0
11.489,-0.775,-0.837,0.0
10.845,-0.735,-0.851,0.0
10.277,-0.699,-0.864,0.0
9.757,-0.666,-0.877,2.0
9.281,-0.637,-0.887,0.0
8.831,-0.608,-0.894,0.0
11.443,-0.788,-0.836,0.0
10.812,-0.748,-0.851,0.0
10.237,-0.711,-0.864,0.0
9.756,-0.68,-0.879,2.0
9.258,-0.648,-0.887,0.0
8.816,-0.62,-0.894,0.0
11.421,-0.803,-0.837,0.0
10.801,-0.762,-0.852,0.0
10.214,-0.724,-0.863,0.0
9.732,-0.692,-0.879,1.0
9.243,-0.66,-0.887,0.0
8.812,-0.632,-0.895,0.0
11.415,-0.819,-0.838,0.0
10.791,-0.777,-0.853,0.0
10.201,-0.737,-0.864,0.0
9.723,-0.706,-0.879,1.0
9.226,-0.672,-0.886,0.0
8.808,-0.644,-0.896,0.0
11.403,-0.834,-0.838,0.0
10.79,-0.792,-0.854,0.0
10.182,-0.75,-0.863,0.0
9.725,-0.719,-0.88,0.0
9.211,-0.684,-0.885,0.0
8.801,-0.656,-0.896,0.0
11.38,-0.848,-0.838,0.0
10.769,-0.806,-0.853,0.0
10.177,-0.764,-0.863,0.0
9.709,-0.732,-0.879,0.0
9.22,-0.697,-0.887,0.0
8.779,-0.667,-0.894,0.0
11.4,-0.865,-0.839,0.0
10.763,-0.82,-0.853,0.0
10.173,-0.778,-0.863,0.0
9.722,-0.746,-0.88,0.0
9.232,-0.711,-0.888,0.0
8.794,-0.68,-0.895,0.0
11.399,-0.881,-0.839,0.0
10.78,-0.836,-0.854,0.0
10.203,-0.794,-0.865,0.0
9.721,-0.759,-0.88,0.0
9.231,-0.723,-0.887,0.0
8.799,-0.692,-0.895,0.0
11.389,-0.895,-0.838,0.0
10.778,-0.85,-0.853,0.0
10.201,-0.807,-0.864,0.0
9.734,-0.773,-0.88,1.0
9.249,-0.737,-0.888,0.0
8.788,-0.703,-0.893,0.0
11.403,-0.911,-0.837,0.0
10.795,-0.866,-0.853,0.0
10.229,-0.823,-0.865,0.0
9.736,-0.786,-0.879,1.0
9.25,-0.749,-0.887,0.0
8.809,-0.716,-0.894,0.0
11.425,-0.928,-0.837,0.0
10.802,-0.88,-0.852,0.0
10.251,-0.838,-0.866,0.0
9.746,-0.8,-0.878,1.0
9.261,-0.762,-0.887,0.0
8.815,-0.728,-0.893,0.0
11.456,-0.945,-0.837,0.0
10.803,-0.894,-0.85,0.0
10.264,-0.852,-0.865,0.0
9.753,-0.813,-0.877,1.0
9.268,-0.775,-0.885,0.0
8.848,-0.742,-0.895,0.0
11.439,-0.958,-0.834,2.0
10.854,-0.912,-0.851,0.0
10.271,-0.866,-0.863,0.0
9.758,-0.825,-0.875,2.0
9.293,-0.788,-0.885,0.0
8.879,-0.756,-0.895,0.0
11.444,-0.973,-0.831,1.0
10.891,-0.929,-0.851,0.0
10.322,-0.883,-0.864,0.0
9.776,-0.839,-0.874,2.0
9.316,-0.802,-0.885,0.0
8.896,-0.768,-0.895,0.0
11.494,-0.991,-0.831,0.0
10.893,-0.942,-0.848,1.0
10.333,-0.896,-0.862,0.0
9.803,-0.853,-0.873,3.0
9.338,-0.815,-0.884,0.0
8.919,-0.781,-0.894,0.0
11.531,-1.008,-0.83,0.0
10.926,-0.958,-0.847,1.0
10.401,-0.914,-0.864,0.0
9.821,-0.866,-0.871,3.0
9.386,-0.83,-0.885,0.0
8.953,-0.794,-0.894,0.0
