X,Y,Z,Reflectivity
11.994,-0.682,-0.828,0.0
17.251,-0.982,-0.71,1.0
15.781,-0.903,-0.739,1.0
14.587,-0.84,-0.766,1.0
13.547,-0.784,-0.79,1.0
12.669,-0.737,-0.811,1.0
11.903,-0.696,-0.829,0.0
17.061,-1.0,-0.713,1.0
15.639,-0.922,-0.742,1.0
14.466,-0.857,-0.769,1.0
13.476,-0.803,-0.794,1.0
12.575,-0.753,-0.812,1.0
11.815,-0.711,-0.831,0.0
16.906,-1.02,-0.717,1.0
15.539,-0.942,-0.747,1.0
14.325,-0.873,-0.77,1.0
13.374,-0.819,-0.796,1.0
12.51,-0.77,-0.816,0.0
11.739,-0.727,-0.832,0.0
16.766,-1.039,-0.72,1.0
15.415,-0.961,-0.75,1.0
14.224,-0.891,-0.772,1.0
13.282,-0.836,-0.798,0.0
12.427,-0.786,-0.817,0.0
11.683,-0.743,-0.834,0.0
16.67,-1.062,-0.725,2.0
15.289,-0.978,-0.751,1.0
14.141,-0.909,-0.775,1.0
13.19,-0.852,-0.799,1.0
12.346,-0.802,-0.818,1.0
11.629,-0.759,-0.836,0.0
16.508,-1.079,-0.726,4.0
15.194,-0.998,-0.754,1.0
14.024,-0.925,-0.775,1.0
13.13,-0.871,-0.801,0.0
12.296,-0.819,-0.82,0.0
11.598,-0.776,-0.839,0.0
16.298,-1.092,-0.724,2.0
15.124,-1.018,-0.757,1.0
13.954,-0.944,-0.777,1.0
13.06,-0.888,-0.802,1.0
12.215,-0.834,-0.82,1.0
11.526,-0.791,-0.839,0.0
16.156,-1.11,-0.724,5.0
14.982,-1.034,-0.756,2.0
13.902,-0.964,-0.78,1.0
12.996,-0.905,-0.803,1.0
12.178,-0.852,-0.822,0.0
11.482,-0.807,-0.84,0.0
16.088,-1.132,-0.727,5.0
14.835,-1.049,-0.754,1.0
13.846,-0.983,-0.781,1.0
12.939,-0.923,-0.804,1.0
12.146,-0.87,-0.824,0.0
11.431,-0.823,-0.84,0.0
16.024,-1.154,-0.729,8.0
14.829,-1.073,-0.758,0.0
13.796,-1.002,-0.783,1.0
12.903,-0.942,-0.806,1.0
12.1,-0.887,-0.824,0.0
11.427,-0.842,-0.843,0.0
15.985,-1.178,-0.732,16.0
14.753,-1.092,-0.758,1.0
13.713,-1.019,-0.782,2.0
12.862,-0.96,-0.807,0.0
12.063,-0.904,-0.824,0.0
11.392,-0.858,-0.843,0.0
15.943,-1.201,-0.733,10.0
14.699,-1.112,-0.758,1.0
13.66,-1.037,-0.781,1.0
12.84,-0.979,-0.808,1.0
12.044,-0.922,-0.826,0.0
11.375,-0.875,-0.844,0.0
15.834,-1.218,-0.731,0.0
14.638,-1.131,-0.758,4.0
13.632,-1.057,-0.782,1.0
12.765,-0.994,-0.806,1.0
12.021,-0.94,-0.826,0.0
11.343,-0.891,-0.843,0.0
15.972,-1.255,-0.74,0.0
14.662,-1.156,-0.761,1.0
13.677,-1.083,-0.787,1.0
12.746,-1.013,-0.806,0.0
12.029,-0.96,-0.828,1.0
11.32,-0.907,-0.843,0.0
15.894,-1.274,-0.738,0.0
14.596,-1.174,-0.759,0.0
13.669,-1.104,-0.788,2.0
12.751,-1.034,-0.807,0.0
11.999,-0.977,-0.827,2.0
11.31,-0.924,-0.843,0.0
15.898,-1.299,-0.739,0.0
14.487,-1.188,-0.755,0.0
13.63,-1.122,-0.786,3.0
12.736,-1.053,-0.807,0.0
11.956,-0.992,-0.825,1.0
11.333,-0.944,-0.845,1.0
15.893,-1.324,-0.74,0.0
14.584,-1.219,-0.76,0.0
13.611,-1.142,-0.785,1.0
12.712,-1.071,-0.806,0.0
11.974,-1.012,-0.826,1.0
11.292,-0.958,-0.842,2.0
15.908,-1.35,-0.74,0.0
14.659,-1.248,-0.764,0.0
13.584,-1.161,-0.783,1.0
12.724,-1.091,-0.806,1.0
11.981,-1.031,-0.826,0.0
11.266,-0.973,-0.84,1.0
15.948,-1.378,-0.741,1.0
14.668,-1.272,-0.763,0.0
13.672,-1.189,-0.788,0.0
12.751,-1.113,-0.807,0.0
11.989,-1.05,-0.825,0.0
11.296,-0.993,-0.841,0.0
16.003,-1.407,-0.742,1.0
14.687,-1.295,-0.763,0.0
13.684,-1.211,-0.787,0.0
12.739,-1.131,-0.805,1.0
12.011,-1.07,-0.826,0.0
11.313,-1.012,-0.841,0.0
16.071,-1.437,-0.743,1.0
14.7,-1.318,-0.761,0.0
13.708,-1.234,-0.786,0.0
12.683,-1.145,-0.799,0.0
12.036,-1.09,-0.825,0.0
11.351,-1.032,-0.842,0.0
16.13,-1.466,-0.743,1.0
14.739,-1.344,-0.761,0.0
13.747,-1.257,-0.786,0.0
12.822,-1.177,-0.806,0.0
12.08,-1.112,-0.826,0.0
11.349,-1.049,-0.839,0.0
16.158,-1.492,-0.741,2.0
14.773,-1.368,-0.759,0.0
13.766,-1.279,-0.784,1.0
12.904,-1.203,-0.808,0.0
12.082,-1.13,-0.823,0.0
11.405,-1.07,-0.841,0.0
16.213,-1.52,-0.74,4.0
14.865,-1.398,-0.761,0.0
13.806,-1.302,-0.783,1.0
12.921,-1.223,-0.805,0.0
12.135,-1.152,-0.824,0.0
11.443,-1.09,-0.84,0.0
16.245,-1.546,-0.737,5.0
14.911,-1.423,-0.758,0.0
13.863,-1.327,-0.782,0.0
12.989,-1.247,-0.806,0.0
12.206,-1.176,-0.825,0.0
11.46,-1.107,-0.838,0.0
16.262,-1.57,-0.732,7.0
15.0,-1.452,-0.758,0.0
13.919,-1.352,-0.78,1.0
13.034,-1.27,-0.804,0.0
12.236,-1.196,-0.823,0.0
11.475,-1.125,-0.835,0.0
16.279,-1.594,-0.727,9.0
15.097,-1.482,-0.758,1.0
13.997,-1.378,-0.779,0.0
13.096,-1.293,-0.803,0.0
12.263,-1.215,-0.82,0.0
11.622,-1.155,-0.841,0.0
16.286,-1.617,-0.721,9.0
15.179,-1.511,-0.756,0.0
14.064,-1.404,-0.777,0.0
13.158,-1.317,-0.801,0.0
12.337,-1.238,-0.819,0.0
11.675,-1.175,-0.84,0.0
16.298,-1.639,-0.715,1.0
15.31,-1.544,-0.755,0.0
14.158,-1.431,-0.776,0.0
13.249,-1.343,-0.801,1.0
12.381,-1.259,-0.817,0.0
11.71,-1.194,-0.837,0.0
16.305,-1.661,-0.707,1.0
15.397,-1.572,-0.752,0.0
14.272,-1.461,-0.776,0.0
13.311,-1.366,-0.798,1.0
12.489,-1.285,-0.817,0.0
11.789,-1.217,-0.837,0.0
16.34,-1.685,-0.701,1.0
15.51,-1.603,-0.75,0.0
14.36,-1.488,-0.773,0.0
13.4,-1.392,-0.796,0.0
12.571,-1.309,-0.816,0.0
11.838,-1.236,-0.834,0.0
16.394,-1.71,-0.694,0.0
15.649,-1.636,-0.748,1.0
14.492,-1.519,-0.772,0.0
13.492,-1.418,-0.794,1.0
12.662,-1.334,-0.815,0.0
11.908,-1.257,-0.832,0.0
16.545,-1.745,-0.691,0.0
15.776,-1.668,-0.745,0.0
14.575,-1.545,-0.769,0.0
13.589,-1.444,-0.792,1.0
12.743,-1.357,-0.813,0.0
11.98,-1.279,-0.83,0.0
17.104,-1.824,-0.704,0.0
15.951,-1.705,-0.744,1.0
14.688,-1.573,-0.766,0.0
13.696,-1.471,-0.79,0.0
12.801,-1.378,-0.809,0.0
12.062,-1.301,-0.828,0.0
17.496,-1.885,-0.71,0.0
16.126,-1.741,-0.742,1.0
14.851,-1.607,-0.765,1.0
13.781,-1.495,-0.786,1.0
12.916,-1.404,-0.808,0.0
12.159,-1.325,-0.827,0.0
17.713,-1.928,-0.707,1.0
16.229,-1.77,-0.736,2.0
14.999,-1.639,-0.762,0.0
13.903,-1.523,-0.784,0.0
13.029,-1.43,-0.806,0.0
12.23,-1.345,-0.823,0.0
17.865,-1.963,-0.7,0.0
16.259,-1.79,-0.726,2.0
15.142,-1.671,-0.759,1.0
14.043,-1.553,-0.782,0.0
13.136,-1.455,-0.803,0.0
12.341,-1.37,-0.822,0.0
18.088,-2.006,-0.696,1.0
16.296,-1.811,-0.716,2.0
15.296,-1.703,-0.755,0.0
14.158,-1.58,-0.778,0.0
13.279,-1.485,-0.802,0.0
12.431,-1.393,-0.818,0.0
18.317,-2.05,-0.691,0.0
16.331,-1.831,-0.705,1.0
15.51,-1.742,-0.754,0.0
14.339,-1.613,-0.777,0.0
13.394,-1.51,-0.798,0.0
12.55,-1.418,-0.816,0.0
18.596,-2.098,-0.688,1.0
16.397,-1.853,-0.695,1.0
15.704,-1.778,-0.751,1.0
14.495,-1.644,-0.774,0.0
13.543,-1.539,-0.797,0.0
12.693,-1.445,-0.816,0.0
18.957,-2.156,-0.686,1.0
16.743,-1.907,-0.697,0.0
15.912,-1.816,-0.748,1.0
14.645,-1.674,-0.77,1.0
13.646,-1.563,-0.791,0.0
12.821,-1.471,-0.814,0.0
19.373,-2.22,-0.685,3.0
17.432,-2.001,-0.711,1.0
16.137,-1.855,-0.745,1.0
14.808,-1.705,-0.766,0.0
13.809,-1.593,-0.789,0.0
12.944,-1.496,-0.81,1.0
19.561,-2.258,-0.675,9.0
17.755,-2.053,-0.708,1.0
16.244,-1.881,-0.736,4.0
15.025,-1.743,-0.764,0.0
13.946,-1.62,-0.785,0.0
13.009,-1.514,-0.803,1.0
19.79,-2.3,-0.665,18.0
17.964,-2.091,-0.701,1.0
16.28,-1.898,-0.723,8.0
15.228,-1.778,-0.76,0.0
14.12,-1.651,-0.782,0.0
13.172,-1.543,-0.801,0.0
20.056,-2.347,-0.656,19.0
18.244,-2.138,-0.695,0.0
16.326,-1.915,-0.71,7.0
15.461,-1.817,-0.758,1.0
14.334,-1.687,-0.78,0.0
13.392,-1.578,-0.801,0.0
20.417,-2.403,-0.648,16.0
18.662,-2.2,-0.694,1.0
16.38,-1.933,-0.697,5.0
15.679,-1.853,-0.754,1.0
14.535,-1.72,-0.777,0.0
13.535,-1.604,-0.797,0.0
20.862,-2.47,-0.643,16.0
19.114,-2.266,-0.692,3.0
16.583,-1.968,-0.69,2.0
15.934,-1.893,-0.751,1.0
14.693,-1.748,-0.772,1.0
13.701,-1.632,-0.794,0.0
21.227,-2.526,-0.634,21.0
19.301,-2.3,-0.68,10.0
17.463,-2.083,-0.71,0.0
16.212,-1.936,-0.748,2.0
14.893,-1.781,-0.768,1.0
13.878,-1.662,-0.79,1.0
21.597,-2.583,-0.623,23.0
19.626,-2.35,-0.672,11.0
17.848,-2.139,-0.707,1.0
16.264,-1.952,-0.734,7.0
15.127,-1.817,-0.764,1.0
14.036,-1.688,-0.785,0.0
21.92,-2.634,-0.611,13.0
19.955,-2.4,-0.663,13.0
18.129,-2.183,-0.7,0.0
16.298,-1.964,-0.719,6.0
15.388,-1.856,-0.761,1.0
14.243,-1.72,-0.782,0.0
22.846,-2.757,-0.613,11.0
20.368,-2.46,-0.656,13.0
18.589,-2.247,-0.698,1.0
16.358,-1.979,-0.704,5.0
15.609,-1.89,-0.756,1.0
14.484,-1.756,-0.78,0.0
23.065,-2.794,-0.595,17.0
20.771,-2.518,-0.647,17.0
19.016,-2.307,-0.695,4.0
16.495,-2.003,-0.693,2.0
15.913,-1.934,-0.754,1.0
14.657,-1.783,-0.773,1.0
23.398,-2.844,-0.579,5.0
21.139,-2.571,-0.636,18.0
19.277,-2.346,-0.684,12.0
17.394,-2.119,-0.712,1.0
16.181,-1.973,-0.75,2.0
14.85,-1.812,-0.768,1.0
24.185,-2.948,-0.572,1.0
21.449,-2.616,-0.622,10.0
19.57,-2.389,-0.673,18.0
17.814,-2.176,-0.71,0.0
16.266,-1.988,-0.736,7.0
15.127,-1.851,-0.766,1.0
24.962,-3.051,-0.563,1.0
22.432,-2.743,-0.626,4.0
19.955,-2.442,-0.664,14.0
18.149,-2.222,-0.703,0.0
16.33,-2.001,-0.721,9.0
15.408,-1.889,-0.763,1.0
25.654,-3.143,-0.551,1.0
22.883,-2.805,-0.614,13.0
20.424,-2.505,-0.657,17.0
18.733,-2.299,-0.705,2.0
16.375,-2.01,-0.704,10.0
15.678,-1.926,-0.759,1.0
26.321,-3.231,-0.536,1.0
23.083,-2.835,-0.593,15.0
20.837,-2.56,-0.647,19.0
18.971,-2.332,-0.693,9.0
16.577,-2.038,-0.695,2.0
15.976,-1.966,-0.755,1.0
26.997,-3.319,-0.519,1.0
23.559,-2.897,-0.579,5.0
21.156,-2.603,-0.633,11.0
19.257,-2.37,-0.682,16.0
17.6,-2.167,-0.717,1.0
16.227,-1.999,-0.748,4.0
27.917,-3.436,-0.505,1.0
24.514,-3.018,-0.575,1.0
21.538,-2.652,-0.62,3.0
19.604,-2.415,-0.672,18.0
17.96,-2.213,-0.712,0.0
16.28,-2.007,-0.732,8.0
28.716,-3.537,-0.487,1.0
25.182,-3.103,-0.562,1.0
22.741,-2.802,-0.629,4.0
20.066,-2.473,-0.664,16.0
18.373,-2.265,-0.707,1.0
16.349,-2.016,-0.717,10.0
29.723,-3.663,-0.47,1.0
25.901,-3.192,-0.548,1.0
22.927,-2.826,-0.608,15.0
20.515,-2.529,-0.656,18.0
18.859,-2.325,-0.704,4.0
16.388,-2.021,-0.7,7.0
30.711,-3.785,-0.451,1.0
26.557,-3.273,-0.532,1.0
23.23,-2.863,-0.589,8.0
20.907,-2.577,-0.644,17.0
19.078,-2.352,-0.69,12.0
16.987,-2.094,-0.705,2.0
32.186,-3.966,-0.435,1.0
27.436,-3.38,-0.517,1.0
23.871,-2.941,-0.577,1.0
21.241,-2.617,-0.63,5.0
19.447,-2.396,-0.68,19.0
17.755,-2.187,-0.716,1.0
33.398,-4.112,-0.412,1.0
28.323,-3.487,-0.501,1.0
24.929,-3.069,-0.574,1.0
22.269,-2.741,-0.634,3.0
19.8,-2.437,-0.67,17.0
18.105,-2.228,-0.709,1.0
35.252,-4.336,-0.394,0.0
29.282,-3.601,-0.483,1.0
25.531,-3.139,-0.558,1.0
22.806,-2.803,-0.623,9.0
20.303,-2.495,-0.663,17.0
18.685,-2.296,-0.71,2.0
37.099,-4.557,-0.371,1.0
30.152,-3.702,-0.463,1.0
26.282,-3.226,-0.544,1.0
23.027,-2.826,-0.602,15.0
20.742,-2.545,-0.653,19.0
18.965,-2.326,-0.698,8.0
37.565,-4.606,-0.332,0.0
31.56,-3.868,-0.447,1.0
26.967,-3.304,-0.526,1.0
23.46,-2.873,-0.586,5.0
21.137,-2.587,-0.641,17.0
19.275,-2.359,-0.687,15.0
41.33,-5.056,-0.317,0.0
32.766,-4.006,-0.426,1.0
27.795,-3.397,-0.51,1.0
24.363,-2.976,-0.579,1.0
21.481,-2.623,-0.625,6.0
19.62,-2.395,-0.676,17.0
42.827,-5.226,-0.278,0.0
34.367,-4.191,-0.406,0.0
28.641,-3.491,-0.492,1.0
25.109,-3.059,-0.568,1.0
22.579,-2.749,-0.631,4.0
20.068,-2.442,-0.668,14.0
44.724,-5.441,-0.238,0.0
36.954,-4.493,-0.394,2.0
29.687,-3.607,-0.475,1.0
25.817,-3.135,-0.554,1.0
22.977,-2.788,-0.615,14.0
20.554,-2.493,-0.66,15.0
50.256,-6.094,-0.208,0.0
37.789,-4.578,-0.359,3.0
30.848,-3.735,-0.457,1.0
26.489,-3.205,-0.537,1.0
23.182,-2.803,-0.594,13.0
20.987,-2.536,-0.65,19.0
50.337,-6.081,-0.15,1.0
39.456,-4.762,-0.328,0.0
32.348,-3.901,-0.442,1.0
27.319,-3.292,-0.522,1.0
23.708,-2.855,-0.58,2.0
21.447,-2.58,-0.639,22.0
0.0,0.0,0.0,0.0
41.378,-4.973,-0.296,0.0
33.215,-3.988,-0.415,1.0
28.22,-3.385,-0.506,1.0
24.818,-2.975,-0.578,1.0
21.836,-2.615,-0.625,19.0
0.0,0.0,0.0,0.0
43.8,-5.239,-0.263,0.0
36.555,-4.368,-0.415,0.0
29.168,-3.482,-0.489,1.0
25.452,-3.036,-0.563,1.0
22.504,-2.682,-0.618,16.0
0.0,0.0,0.0,0.0
50.295,-5.986,-0.244,0.0
36.419,-4.33,-0.371,3.0
29.885,-3.549,-0.467,1.0
26.11,-3.098,-0.548,1.0
23.016,-2.728,-0.606,19.0
0.0,0.0,0.0,0.0
50.424,-5.969,-0.188,4.0
38.656,-4.571,-0.351,1.0
31.344,-3.702,-0.455,1.0
26.783,-3.16,-0.532,1.0
23.351,-2.752,-0.589,6.0
0.0,0.0,0.0,0.0
50.401,-5.932,-0.131,5.0
39.717,-4.668,-0.315,0.0
32.506,-3.816,-0.435,1.0
27.707,-3.249,-0.519,1.0
24.183,-2.832,-0.582,1.0
0.0,0.0,0.0,0.0
50.429,-5.897,-0.074,1.0
41.614,-4.86,-0.284,0.0
34.123,-3.98,-0.418,0.0
28.48,-3.317,-0.502,1.0
24.977,-2.906,-0.573,1.0
87.292,-10.155,0.433,4.0
0.0,0.0,0.0,0.0
0.0,0.0,0.0,0.0
35.426,-4.103,-0.396,0.0
29.353,-3.395,-0.485,1.0
25.594,-2.957,-0.56,1.0
87.328,-10.088,0.529,8.0
0.0,0.0,0.0,0.0
50.455,-5.811,-0.234,1.0
37.073,-4.263,-0.374,0.0
30.088,-3.455,-0.465,1.0
26.234,-3.008,-0.545,1.0
87.217,-10.001,0.623,7.0
0.0,0.0,0.0,0.0
50.418,-5.762,-0.179,1.0
38.74,-4.421,-0.349,1.0
31.416,-3.579,-0.451,0.0
27.047,-3.077,-0.533,1.0
86.386,-9.827,0.709,28.0
0.0,0.0,0.0,0.0
50.488,-5.723,-0.125,0.0
39.758,-4.499,-0.316,0.0
32.46,-3.667,-0.432,1.0
27.743,-3.13,-0.518,1.0
86.228,-9.728,0.798,32.0
0.0,0.0,0.0,0.0
0.0,0.0,0.0,0.0
41.442,-4.65,-0.286,0.0
33.66,-3.77,-0.413,1.0
28.446,-3.181,-0.501,1.0
86.2,-9.64,0.887,49.0
0.0,0.0,0.0,0.0
0.0,0.0,0.0,0.0
44.505,-4.949,-0.262,0.0
35.615,-3.953,-0.4,0.0
29.178,-3.232,-0.484,1.0
86.222,-9.554,0.975,53.0
87.249,-9.648,0.519,4.0
0.0,0.0,0.0,0.0
45.388,-4.999,-0.221,0.0
0.0,0.0,0.0,0.0
29.902,-3.281,-0.466,1.0
86.277,-9.467,1.062,56.0
87.313,-9.561,0.606,7.0
0.0,0.0,0.0,0.0
49.399,-5.387,-0.192,0.0
0.0,0.0,0.0,0.0
30.887,-3.355,-0.452,1.0
86.309,-9.376,1.146,58.0
87.249,-9.456,0.69,10.0
0.0,0.0,0.0,0.0
49.68,-5.361,-0.145,0.0
39.926,-4.299,-0.331,0.0
32.147,-3.454,-0.439,1.0
86.329,-9.278,1.23,60.0
86.365,-9.26,0.766,13.0
79.624,-8.518,0.278,10.0
0.0,0.0,0.0,0.0
0.0,0.0,0.0,0.0
32.99,-3.506,-0.419,1.0
86.386,-9.181,1.311,49.0
86.367,-9.158,0.847,150.0
0.0,0.0,0.0,0.0
0.0,0.0,0.0,0.0
44.537,-4.689,-0.286,0.0
33.972,-3.569,-0.401,1.0
86.454,-9.083,1.391,31.0
86.46,-9.061,0.926,150.0
0.0,0.0,0.0,0.0
0.0,0.0,0.0,0.0
0.0,0.0,0.0,0.0
35.17,-3.65,-0.383,0.0
87.29,-9.061,1.482,12.0
86.855,-8.993,1.007,4.0
0.0,0.0,0.0,0.0
0.0,0.0,0.0,0.0
47.867,-4.918,-0.223,0.0
37.803,-3.874,-0.379,0.0
89.139,-9.137,1.591,4.0
88.985,-9.096,1.108,4.0
89.538,-9.128,0.633,2.0
0.0,0.0,0.0,0.0
50.383,-5.109,-0.191,3.0
37.938,-3.837,-0.348,0.0
95.778,-9.688,1.791,13.0
94.617,-9.543,1.26,14.0
94.755,-9.53,0.75,1.0
0.0,0.0,0.0,0.0
50.467,-5.048,-0.149,7.0
0.0,0.0,0.0,0.0
0.0,0.0,0.0,0.0
95.654,-9.516,1.351,2.0
95.725,-9.496,0.835,3.0
0.0,0.0,0.0,0.0
50.46,-4.977,-0.109,3.0
0.0,0.0,0.0,0.0
187.623,-18.457,3.812,14.0
96.798,-9.493,1.443,2.0
97.144,-9.499,0.923,1.0
91.353,-8.907,0.365,1.0
0.0,0.0,0.0,0.0
0.0,0.0,0.0,0.0
149.466,-14.487,3.15,69.0
0.0,0.0,0.0,0.0
100.484,-9.679,1.031,1.0
90.946,-8.734,0.431,1.0
0.0,0.0,0.0,0.0
0.0,0.0,0.0,0.0
187.998,-17.945,4.1,40.0
0.0,0.0,0.0,0.0
0.0,0.0,0.0,0.0
90.899,-8.594,0.497,3.0
0.0,0.0,0.0,0.0
44.972,-4.225,-0.24,0.0
188.268,-17.688,4.24,50.0
108.525,-10.163,1.856,13.0
108.455,-10.122,1.267,53.0
91.019,-8.466,0.561,1.0
0.0,0.0,0.0,0.0
50.438,-4.662,-0.235,0.0
188.607,-17.432,4.374,36.0
108.841,-10.025,1.935,14.0
108.572,-9.966,1.34,153.0
0.0,0.0,0.0,0.0
0.0,0.0,0.0,0.0
50.439,-4.583,-0.202,4.0
188.398,-17.115,4.493,37.0
0.0,0.0,0.0,0.0
108.753,-9.808,1.413,33.0
0.0,0.0,0.0,0.0
0.0,0.0,0.0,0.0
50.442,-4.502,-0.17,7.0
188.531,-16.822,4.614,31.0
0.0,0.0,0.0,0.0
110.151,-9.757,1.498,10.0
111.504,-9.842,0.899,2.0
0.0,0.0,0.0,0.0
50.455,-4.421,-0.141,6.0
157.33,-13.783,3.942,68.0
157.221,-13.723,3.085,15.0
121.861,-10.595,1.728,6.0
0.0,0.0,0.0,0.0
121.782,-10.511,0.39,2.0
50.345,-4.329,-0.112,1.0
189.08,-16.254,4.842,23.0
165.208,-14.146,3.333,4.0
0.0,0.0,0.0,0.0
0.0,0.0,0.0,0.0
0.0,0.0,0.0,0.0
55.309,-4.663,-0.094,0.0
165.038,-13.908,4.314,96.0
165.086,-13.853,3.417,33.0
122.006,-10.197,1.859,13.0
0.0,0.0,0.0,0.0
0.0,0.0,0.0,0.0
0.0,0.0,0.0,0.0
193.571,-15.982,5.155,39.0
202.265,-16.629,4.284,27.0
122.138,-10.0,1.921,8.0
122.178,-9.961,1.242,5.0
87.18,-7.078,0.411,7.0
0.0,0.0,0.0,0.0
204.514,-16.531,5.541,38.0
291.472,-23.456,6.305,18.0
0.0,0.0,0.0,0.0
0.0,0.0,0.0,0.0
0.0,0.0,0.0,0.0
0.0,0.0,0.0,0.0
206.389,-16.314,5.68,22.0
214.624,-16.888,4.734,11.0
129.183,-10.121,2.143,2.0
128.793,-10.045,1.42,3.0
0.0,0.0,0.0,0.0
0.0,0.0,0.0,0.0
213.346,-16.484,5.955,36.0
291.51,-22.426,6.541,32.0
148.455,-11.367,2.519,57.0
148.414,-11.311,1.691,12.0
0.0,0.0,0.0,0.0
62.078,-4.688,0.028,0.0
196.901,-14.858,5.566,57.0
197.063,-14.8,4.49,24.0
148.661,-11.114,2.574,12.0
148.524,-11.05,1.743,150.0
0.0,0.0,0.0,0.0
61.916,-4.563,0.048,3.0
214.319,-15.781,6.128,10.0
0.0,0.0,0.0,0.0
0.0,0.0,0.0,0.0
149.648,-10.857,1.801,4.0
0.0,0.0,0.0,0.0
61.171,-4.395,0.066,4.0
204.819,-14.7,5.914,60.0
204.922,-14.635,4.793,21.0
160.978,-11.439,2.88,4.0
151.953,-10.742,1.87,4.0
0.0,0.0,0.0,0.0
61.963,-4.337,0.082,3.0
208.338,-14.566,6.067,25.0
212.855,-14.806,5.029,82.0
0.0,0.0,0.0,0.0
0.0,0.0,0.0,0.0
0.0,0.0,0.0,0.0
62.136,-4.233,0.096,3.0
208.783,-14.206,6.124,38.0
228.607,-15.471,5.449,54.0
187.17,-12.599,3.431,150.0
0.0,0.0,0.0,0.0
0.0,0.0,0.0,0.0
62.357,-4.13,0.108,3.0
208.919,-13.816,6.165,28.0
248.387,-16.335,5.961,99.0
187.214,-12.243,3.464,135.0
0.0,0.0,0.0,0.0
0.0,0.0,0.0,0.0
62.48,-4.018,0.118,3.0
248.361,-15.948,7.364,164.0
248.35,-15.853,5.995,153.0
187.156,-11.88,3.487,7.0
0.0,0.0,0.0,0.0
0.0,0.0,0.0,0.0
62.592,-3.903,0.125,2.0
244.244,-15.208,7.268,22.0
263.372,-16.302,6.383,31.0
0.0,0.0,0.0,0.0
187.33,-11.46,2.454,82.0
0.0,0.0,0.0,0.0
62.835,-3.797,0.13,1.0
272.004,-16.41,8.111,45.0
271.849,-16.297,6.605,150.0
0.0,0.0,0.0,0.0
0.0,0.0,0.0,0.0
0.0,0.0,0.0,0.0
62.978,-3.684,0.132,2.0
278.751,-16.274,8.32,19.0
271.797,-15.764,6.609,15.0
0.0,0.0,0.0,0.0
0.0,0.0,0.0,0.0
0.0,0.0,0.0,0.0
0.0,0.0,0.0,0.0
0.0,0.0,0.0,0.0
0.0,0.0,0.0,0.0
0.0,0.0,0.0,0.0
0.0,0.0,0.0,0.0
0.0,0.0,0.0,0.0
63.165,-3.446,0.13,4.0
0.0,0.0,0.0,0.0
0.0,0.0,0.0,0.0
0.0,0.0,0.0,0.0
0.0,0.0,0.0,0.0
63.143,-3.319,0.125,4.0
0.0,0.0,0.0,0.0
0.0,0.0,0.0,0.0
146.429,-7.512,1.897,6.0
0.0,0.0,0.0,0.0
0.0,0.0,0.0,0.0
146.427,-7.271,2.703,80.0
146.3,-7.211,1.875,16.0
0.0,0.0,0.0,0.0
0.0,0.0,0.0,0.0
0.0,0.0,0.0,0.0
0.0,0.0,0.0,0.0
146.471,-6.979,2.678,76.0
146.379,-6.922,1.849,48.0
0.0,0.0,0.0,0.0
0.0,0.0,0.0,0.0
0.0,0.0,0.0,0.0
0.0,0.0,0.0,0.0
0.0,0.0,0.0,0.0
0.0,0.0,0.0,0.0
0.0,0.0,0.0,0.0
0.0,0.0,0.0,0.0
0.0,0.0,0.0,0.0
0.0,0.0,0.0,0.0
0.0,0.0,0.0,0.0
0.0,0.0,0.0,0.0
0.0,0.0,0.0,0.0
0.0,0.0,0.0,0.0
0.0,0.0,0.0,0.0
0.0,0.0,0.0,0.0
0.0,0.0,0.0,0.0
0.0,0.0,0.0,0.0
0.0,0.0,0.0,0.0
0.0,0.0,0.0,0.0
0.0,0.0,0.0,0.0
0.0,0.0,0.0,0.0
0.0,0.0,0.0,0.0
0.0,0.0,0.0,0.0
40.144,-1.542,0.014,3.0
0.0,0.0,0.0,0.0
0.0,0.0,0.0,0.0
0.0,0.0,0.0,0.0
0.0,0.0,0.0,0.0
0.0,0.0,0.0,0.0
57.826,-2.105,-0.001,0.0
0.0,0.0,0.0,0.0
0.0,0.0,0.0,0.0
0.0,0.0,0.0,0.0
0.0,0.0,0.0,0.0
0.0,0.0,0.0,0.0
59.051,-2.03,-0.026,4.0
0.0,0.0,0.0,0.0
0.0,0.0,0.0,0.0
0.0,0.0,0.0,0.0
0.0,0.0,0.0,0.0
0.0,0.0,0.0,0.0
0.0,0.0,0.0,0.0
40.351,-1.295,1.077,2.0
40.32,-1.28,0.85,20.0
40.343,-1.266,0.624,77.0
0.0,0.0,0.0,0.0
0.0,0.0,0.0,0.0
40.235,-1.219,-0.056,9.0
40.299,-1.211,1.055,30.0
40.339,-1.197,0.829,14.0
153.883,-4.516,2.303,11.0
40.231,-1.166,0.372,24.0
40.193,-1.15,0.146,49.0
40.254,-1.138,-0.078,63.0
40.211,-1.126,1.03,44.0
40.231,-1.112,0.805,43.0
40.227,-1.098,0.579,46.0
40.18,-1.082,0.349,53.0
40.228,-1.07,0.123,36.0
40.997,-1.075,-0.103,155.0
40.2,-1.045,1.006,58.0
40.194,-1.03,0.78,55.0
40.213,-1.016,0.555,60.0
40.255,-1.003,0.325,4.0
40.298,-0.99,0.099,28.0
40.317,-0.976,-0.127,150.0
40.21,-0.963,0.981,62.0
40.199,-0.948,0.755,61.0
40.281,-0.936,0.53,150.0
40.28,-0.922,0.299,13.0
40.272,-0.907,0.073,0.0
0.0,0.0,0.0,0.0
40.218,-0.882,0.955,63.0
40.237,-0.868,0.729,60.0
40.234,-0.855,0.502,58.0
40.283,-0.841,0.272,15.0
0.0,0.0,0.0,0.0
46.713,-0.944,-0.209,4.0
40.237,-0.802,0.927,46.0
40.167,-0.786,0.699,53.0
40.246,-0.774,0.473,34.0
40.245,-0.76,0.243,53.0
40.277,-0.746,0.016,68.0
40.288,-0.733,-0.21,33.0
40.235,-0.72,0.897,27.0
205.388,-3.609,3.423,37.0
123.995,-2.136,1.367,8.0
40.301,-0.68,0.213,6.0
61.372,-1.014,-0.021,0.0
40.248,-0.651,-0.241,1.0
262.048,-4.171,5.64,10.0
187.169,-2.916,2.972,58.0
123.666,-1.883,1.265,12.0
0.0,0.0,0.0,0.0
53.545,-0.779,-0.061,2.0
42.529,-0.605,-0.288,2.0
86.949,-1.213,1.801,139.0
86.958,-1.184,1.31,74.0
80.154,-1.064,0.755,46.0
0.0,0.0,0.0,0.0
54.508,-0.687,-0.107,1.0
37.744,-0.463,-0.287,0.0
79.445,-0.952,1.579,166.0
79.406,-0.924,1.129,238.0
79.459,-0.898,0.68,151.0
58.545,-0.643,0.164,3.0
50.825,-0.541,-0.144,15.0
38.496,-0.397,-0.326,5.0
79.441,-0.795,1.508,177.0
79.453,-0.77,1.059,186.0
79.197,-0.741,0.607,52.0
52.624,-0.475,0.1,0.0
47.366,-0.412,-0.177,17.0
34.104,-0.285,-0.32,0.0
79.447,-0.641,1.435,166.0
79.45,-0.615,0.985,184.0
77.031,-0.571,0.519,13.0
51.83,-0.367,0.05,25.0
41.699,-0.281,-0.195,4.0
33.037,-0.212,-0.341,1.0
79.453,-0.488,1.359,165.0
79.459,-0.462,0.909,170.0
76.638,-0.421,0.443,12.0
47.168,-0.244,0.0,21.0
39.41,-0.191,-0.222,6.0
32.049,-0.145,-0.362,1.0
79.451,-0.336,1.281,155.0
79.466,-0.311,0.831,151.0
61.637,-0.222,0.295,7.0
45.864,-0.151,-0.044,20.0
38.883,-0.115,-0.258,5.0
31.204,-0.082,-0.384,1.0
79.466,-0.187,1.201,151.0
79.456,-0.161,0.75,150.0
61.615,-0.106,0.232,13.0
0.0,0.0,0.0,0.0
38.378,-0.042,-0.294,4.0
30.177,-0.023,-0.403,1.0
79.46,-0.037,1.117,151.0
79.403,-0.013,0.665,76.0
54.703,0.007,0.148,9.0
40.578,0.017,-0.124,17.0
37.971,0.028,-0.332,1.0
29.534,0.031,-0.426,2.0
79.462,0.107,1.032,151.0
76.635,0.128,0.559,20.0
0.0,0.0,0.0,0.0
39.289,0.09,-0.163,42.0
33.241,0.086,-0.327,1.0
28.892,0.083,-0.448,2.0
79.457,0.255,0.942,150.0
59.394,0.208,0.367,26.0
47.385,0.18,0.023,26.0
38.596,0.159,-0.204,31.0
32.295,0.143,-0.354,1.0
28.234,0.133,-0.47,2.0
48.243,0.242,0.517,40.0
55.027,0.293,0.276,47.0
0.0,0.0,0.0,0.0
38.024,0.225,-0.245,13.0
31.094,0.193,-0.377,1.0
27.386,0.178,-0.488,1.0
48.101,0.328,0.459,80.0
48.05,0.342,0.184,77.0
44.024,0.325,-0.081,12.0
37.513,0.288,-0.286,5.0
30.247,0.241,-0.403,2.0
26.764,0.221,-0.509,2.0
48.057,0.412,0.4,109.0
48.004,0.426,0.126,78.0
39.361,0.361,-0.12,35.0
37.231,0.352,-0.329,0.0
29.505,0.287,-0.429,2.0
26.133,0.262,-0.529,2.0
48.063,0.497,0.34,93.0
47.813,0.509,0.066,54.0
38.515,0.42,-0.166,49.0
33.128,0.371,-0.335,1.0
28.754,0.33,-0.455,2.0
22.28,0.262,-0.479,1.0
48.08,0.581,0.279,81.0
46.585,0.576,0.004,28.0
37.849,0.478,-0.211,31.0
31.84,0.411,-0.362,1.0
27.713,0.366,-0.474,1.0
21.703,0.292,-0.495,4.0
48.151,0.664,0.217,26.0
44.497,0.626,-0.052,19.0
37.26,0.534,-0.257,13.0
30.518,0.445,-0.387,1.0
27.042,0.402,-0.498,2.0
21.086,0.319,-0.509,4.0
54.767,0.847,0.174,12.0
39.582,0.623,-0.099,31.0
36.961,0.591,-0.304,4.0
29.724,0.484,-0.417,2.0
26.402,0.437,-0.522,1.0
20.175,0.339,-0.514,8.0
47.987,0.821,0.088,18.0
38.493,0.669,-0.149,41.0
36.805,0.649,-0.352,1.0
28.875,0.517,-0.445,2.0
22.343,0.406,-0.472,4.0
19.682,0.362,-0.528,8.0
46.965,0.88,0.022,26.0
37.55,0.713,-0.196,38.0
31.946,0.615,-0.35,1.0
27.922,0.544,-0.468,1.0
21.652,0.428,-0.487,4.0
19.12,0.383,-0.539,7.0
44.573,0.905,-0.041,19.0
37.009,0.761,-0.246,13.0
30.836,0.642,-0.381,2.0
27.102,0.571,-0.493,2.0
20.981,0.448,-0.502,4.0
18.677,0.403,-0.554,4.0
39.511,0.864,-0.092,37.0
36.62,0.81,-0.295,5.0
29.752,0.665,-0.41,2.0
23.461,0.53,-0.46,1.0
20.386,0.466,-0.517,3.0
18.129,0.419,-0.563,4.0
38.307,0.897,-0.145,48.0
33.471,0.792,-0.319,1.0
28.889,0.691,-0.44,1.0
22.282,0.538,-0.47,4.0
19.693,0.48,-0.528,3.0
17.625,0.434,-0.574,6.0
37.023,0.923,-0.195,35.0
31.791,0.8,-0.349,1.0
27.913,0.709,-0.467,1.0
21.457,0.55,-0.484,4.0
19.126,0.495,-0.541,3.0
17.202,0.449,-0.585,4.0
36.671,0.968,-0.248,13.0
30.601,0.815,-0.382,2.0
27.258,0.732,-0.497,1.0
20.73,0.562,-0.499,4.0
18.526,0.506,-0.552,3.0
16.718,0.461,-0.594,2.0
36.294,1.01,-0.3,7.0
29.575,0.83,-0.414,2.0
23.208,0.656,-0.458,5.0
20.054,0.572,-0.513,3.0
18.013,0.518,-0.564,3.0
16.206,0.469,-0.601,2.0
33.006,0.965,-0.324,1.0
28.523,0.84,-0.443,1.0
21.926,0.651,-0.467,4.0
19.46,0.582,-0.528,3.0
17.542,0.529,-0.577,3.0
15.606,0.474,-0.603,2.0
31.23,0.956,-0.355,1.0
27.67,0.853,-0.473,1.0
21.089,0.655,-0.482,4.0
18.787,0.587,-0.539,3.0
17.019,0.536,-0.586,2.0
14.845,0.47,-0.596,4.0
30.181,0.964,-0.39,2.0
23.825,0.766,-0.444,5.0
20.442,0.662,-0.499,3.0
18.182,0.592,-0.55,3.0
16.441,0.539,-0.592,2.0
14.588,0.482,-0.609,3.0
29.163,0.97,-0.423,2.0
22.503,0.753,-0.456,4.0
19.683,0.663,-0.512,3.0
17.678,0.599,-0.563,3.0
15.998,0.545,-0.602,3.0
14.458,0.496,-0.627,3.0
28.147,0.972,-0.454,1.0
21.394,0.743,-0.468,4.0
19.117,0.668,-0.528,3.0
17.172,0.603,-0.575,4.0
15.183,0.537,-0.596,4.0
14.024,0.498,-0.631,2.0
24.138,0.863,-0.428,5.0
20.713,0.745,-0.486,4.0
18.487,0.668,-0.541,3.0
16.669,0.606,-0.585,2.0
14.645,0.535,-0.599,12.0
13.748,0.505,-0.641,1.0
22.949,0.848,-0.445,5.0
20.025,0.744,-0.503,3.0
17.867,0.667,-0.552,3.0
16.027,0.602,-0.589,3.0
14.619,0.552,-0.622,15.0
13.345,0.506,-0.645,1.0
21.711,0.828,-0.457,4.0
19.329,0.741,-0.518,3.0
17.427,0.671,-0.567,3.0
15.49,0.599,-0.595,4.0
14.372,0.559,-0.635,14.0
13.063,0.51,-0.653,6.0
20.914,0.821,-0.475,5.0
18.741,0.739,-0.534,3.0
16.822,0.666,-0.576,2.0
14.655,0.583,-0.588,9.0
13.875,0.555,-0.636,15.0
13.054,0.524,-0.674,10.0
20.339,0.82,-0.496,4.0
18.064,0.732,-0.544,3.0
16.304,0.663,-0.585,2.0
14.634,0.598,-0.611,13.0
13.451,0.552,-0.639,14.0
12.954,0.534,-0.691,7.0
19.544,0.809,-0.509,3.0
17.544,0.729,-0.558,2.0
15.812,0.66,-0.594,2.0
14.526,0.609,-0.631,14.0
13.255,0.558,-0.653,11.0
12.781,0.54,-0.703,3.0
18.815,0.798,-0.522,3.0
16.985,0.723,-0.569,2.0
14.855,0.635,-0.584,7.0
14.135,0.606,-0.638,14.0
13.05,0.562,-0.665,10.0
12.465,0.539,-0.707,2.0
18.21,0.79,-0.537,4.0
16.413,0.715,-0.578,2.0
14.65,0.64,-0.601,21.0
13.665,0.599,-0.641,14.0
13.05,0.574,-0.687,9.0
12.213,0.54,-0.714,2.0
17.654,0.782,-0.55,5.0
15.921,0.708,-0.588,2.0
14.59,0.651,-0.623,22.0
13.391,0.6,-0.651,11.0
12.862,0.578,-0.699,3.0
11.891,0.536,-0.715,2.0
17.186,0.777,-0.565,3.0
15.024,0.681,-0.581,3.0
14.294,0.65,-0.635,14.0
13.078,0.597,-0.658,9.0
12.475,0.571,-0.7,3.0
11.662,0.536,-0.722,2.0
16.509,0.76,-0.571,3.0
14.665,0.677,-0.592,21.0
13.738,0.637,-0.634,13.0
13.06,0.607,-0.68,9.0
12.207,0.569,-0.706,3.0
11.356,0.531,-0.722,2.0
16.065,0.753,-0.584,2.0
14.647,0.689,-0.617,35.0
13.467,0.635,-0.645,11.0
12.942,0.612,-0.696,4.0
11.9,0.564,-0.709,3.0
11.066,0.527,-0.724,3.0
15.211,0.725,-0.579,2.0
14.346,0.685,-0.629,15.0
13.099,0.628,-0.65,8.0
12.552,0.603,-0.697,2.0
11.63,0.56,-0.713,2.0
10.844,0.524,-0.728,2.0
14.668,0.71,-0.584,16.0
13.818,0.67,-0.63,13.0
13.057,0.635,-0.671,11.0
12.264,0.598,-0.702,2.0
11.273,0.551,-0.711,3.0
10.621,0.521,-0.731,2.0
14.642,0.718,-0.608,18.0
13.509,0.664,-0.639,13.0
13.021,0.642,-0.691,5.0
11.929,0.59,-0.704,3.0
11.082,0.549,-0.718,3.0
10.395,0.517,-0.734,2.0
14.38,0.715,-0.622,16.0
13.133,0.655,-0.644,8.0
12.671,0.633,-0.695,1.0
11.677,0.585,-0.709,2.0
10.924,0.548,-0.727,2.0
10.19,0.513,-0.737,2.0
13.847,0.697,-0.623,14.0
13.065,0.659,-0.663,11.0
12.327,0.623,-0.697,2.0
11.321,0.574,-0.707,3.0
10.685,0.543,-0.729,2.0
10.001,0.509,-0.741,2.0
13.539,0.689,-0.633,15.0
13.035,0.665,-0.685,7.0
12.005,0.614,-0.7,2.0
11.136,0.57,-0.715,2.0
10.474,0.538,-0.733,2.0
9.813,0.505,-0.744,2.0
13.272,0.683,-0.643,10.0
12.787,0.659,-0.694,2.0
11.736,0.606,-0.705,2.0
10.928,0.565,-0.721,1.0
10.24,0.531,-0.735,2.0
9.625,0.5,-0.747,2.0
13.074,0.679,-0.656,12.0
12.417,0.646,-0.695,1.0
11.436,0.596,-0.706,2.0
10.732,0.56,-0.726,1.0
10.051,0.526,-0.739,2.0
9.459,0.496,-0.75,2.0
13.061,0.684,-0.678,10.0
12.089,0.634,-0.698,1.0
11.194,0.588,-0.711,2.0
10.528,0.554,-0.731,2.0
9.865,0.52,-0.742,2.0
9.29,0.491,-0.753,2.0
12.849,0.678,-0.689,3.0
11.807,0.624,-0.702,2.0
10.954,0.58,-0.714,2.0
10.29,0.546,-0.732,2.0
9.673,0.514,-0.744,2.0
9.149,0.487,-0.757,2.0
12.482,0.663,-0.691,3.0
11.529,0.614,-0.705,2.0
10.758,0.573,-0.72,2.0
10.113,0.54,-0.737,2.0
9.514,0.509,-0.748,2.0
8.999,0.482,-0.76,2.0
12.249,0.655,-0.699,1.0
11.268,0.603,-0.708,2.0
10.566,0.566,-0.725,2.0
9.926,0.533,-0.74,1.0
9.343,0.502,-0.751,2.0
8.876,0.478,-0.765,2.0
11.88,0.638,-0.698,1.0
11.032,0.594,-0.712,2.0
10.36,0.558,-0.729,2.0
9.737,0.525,-0.742,1.0
9.193,0.497,-0.754,2.0
8.762,0.474,-0.77,1.0
11.616,0.627,-0.702,2.0
10.815,0.584,-0.716,2.0
10.184,0.551,-0.733,2.0
9.553,0.518,-0.744,1.0
9.037,0.49,-0.757,2.0
8.674,0.471,-0.777,2.0
11.355,0.615,-0.705,2.0
10.608,0.575,-0.72,2.0
10.003,0.543,-0.737,2.0
9.398,0.511,-0.748,1.0
8.911,0.485,-0.761,2.0
8.631,0.47,-0.787,2.0
11.133,0.605,-0.71,3.0
10.431,0.567,-0.726,2.0
9.805,0.534,-0.739,1.0
9.251,0.504,-0.752,2.0
8.791,0.48,-0.766,1.0
8.608,0.47,-0.8,2.0
10.902,0.594,-0.713,2.0
10.273,0.56,-0.731,3.0
9.634,0.526,-0.742,1.0
9.109,0.497,-0.755,2.0
8.682,0.474,-0.77,2.0
8.572,0.469,-0.811,2.0
10.69,0.583,-0.717,2.0
10.069,0.549,-0.733,2.0
9.482,0.518,-0.746,1.0
8.954,0.489,-0.757,2.0
8.622,0.472,-0.779,2.0
8.552,0.468,-0.823,2.0
10.512,0.574,-0.722,2.0
9.912,0.541,-0.738,2.0
9.324,0.51,-0.748,1.0
8.831,0.483,-0.761,1.0
8.6,0.471,-0.791,2.0
8.558,0.469,-0.837,2.0
10.351,0.565,-0.727,3.0
9.726,0.531,-0.74,1.0
9.185,0.502,-0.752,2.0
8.726,0.477,-0.766,1.0
8.592,0.47,-0.804,2.0
8.556,0.468,-0.851,1.0
10.186,0.555,-0.732,3.0
9.569,0.522,-0.743,1.0
9.041,0.493,-0.754,2.0
8.648,0.472,-0.773,2.0
8.574,0.469,-0.816,2.0
8.552,0.468,-0.864,1.0
10.018,0.545,-0.735,2.0
9.416,0.513,-0.746,1.0
8.918,0.486,-0.758,2.0
8.628,0.47,-0.784,2.0
8.585,0.468,-0.831,2.0
8.568,0.467,-0.879,0.0
9.835,0.534,-0.737,2.0
9.28,0.504,-0.749,2.0
8.806,0.479,-0.762,1.0
8.627,0.469,-0.798,2.0
8.583,0.467,-0.844,1.0
8.63,0.47,-0.899,0.0
9.684,0.525,-0.741,2.0
9.153,0.496,-0.753,2.0
8.734,0.473,-0.769,1.0
8.628,0.468,-0.811,2.0
8.609,0.467,-0.859,1.0
8.654,0.469,-0.914,0.0
9.532,0.515,-0.743,2.0
9.017,0.487,-0.755,2.0
8.692,0.469,-0.779,2.0
8.65,0.467,-0.826,2.0
8.646,0.467,-0.876,0.0
8.643,0.467,-0.926,0.0
9.388,0.504,-0.746,2.0
8.907,0.479,-0.759,2.0
8.689,0.467,-0.791,2.0
8.691,0.467,-0.843,1.0
8.715,0.468,-0.896,0.0
8.652,0.465,-0.94,0.0
9.266,0.495,-0.75,2.0
8.834,0.472,-0.766,2.0
8.704,0.465,-0.805,2.0
8.711,0.466,-0.857,0.0
8.746,0.468,-0.912,0.0
8.698,0.465,-0.957,0.0
9.144,0.486,-0.753,2.0
8.789,0.467,-0.774,2.0
8.756,0.465,-0.822,1.0
8.751,0.465,-0.874,0.0
8.738,0.464,-0.923,0.0
8.731,0.464,-0.973,0.0
9.031,0.477,-0.756,2.0
8.809,0.465,-0.789,2.0
8.835,0.466,-0.842,1.0
8.856,0.467,-0.896,0.0
8.828,0.466,-0.945,0.0
8.709,0.459,-0.983,0.0
8.964,0.47,-0.763,2.0
8.851,0.464,-0.804,2.0
8.848,0.464,-0.856,0.0
8.916,0.467,-0.915,0.0
8.834,0.463,-0.958,0.0
8.535,0.447,-0.975,0.0
8.962,0.466,-0.775,2.0
8.909,0.463,-0.822,2.0
8.911,0.463,-0.874,0.0
8.924,0.464,-0.928,0.0
8.847,0.459,-0.971,0.0
8.077,0.419,-0.934,0.0
8.995,0.464,-0.79,2.0
8.989,0.463,-0.841,1.0
8.991,0.463,-0.894,0.0
8.963,0.461,-0.944,0.0
8.817,0.454,-0.98,0.0
7.893,0.406,-0.923,0.0
9.048,0.462,-0.806,2.0
9.027,0.461,-0.857,0.0
9.039,0.461,-0.91,0.0
8.959,0.457,-0.955,0.0
8.674,0.442,-0.975,0.0
7.834,0.399,-0.926,0.0
9.107,0.46,-0.823,2.0
9.086,0.459,-0.873,0.0
9.094,0.459,-0.927,0.0
8.94,0.451,-0.964,0.0
8.142,0.41,-0.925,0.0
7.747,0.39,-0.926,0.0
9.166,0.458,-0.84,1.0
9.217,0.461,-0.897,0.0
9.138,0.456,-0.943,0.0
8.971,0.447,-0.978,0.0
7.979,0.397,-0.917,0.0
7.71,0.384,-0.931,0.0
9.224,0.456,-0.856,1.0
9.253,0.457,-0.912,0.0
9.127,0.45,-0.952,0.0
8.688,0.428,-0.958,0.0
7.986,0.393,-0.927,0.0
7.622,0.375,-0.929,0.0
9.365,0.457,-0.88,0.0
9.288,0.453,-0.927,0.0
9.043,0.44,-0.954,0.0
8.233,0.4,-0.917,0.0
7.884,0.383,-0.924,0.0
7.571,0.367,-0.932,0.0
9.429,0.454,-0.897,0.0
9.345,0.45,-0.943,0.0
8.75,0.42,-0.933,0.0
8.151,0.391,-0.917,0.0
7.802,0.374,-0.923,0.0
7.493,0.359,-0.931,0.0
9.472,0.45,-0.911,0.0
9.427,0.447,-0.961,0.0
8.444,0.4,-0.91,0.0
8.062,0.381,-0.916,0.0
7.747,0.366,-0.925,0.0
7.435,0.351,-0.931,0.0
9.544,0.447,-0.928,0.0
9.331,0.436,-0.962,0.0
8.374,0.39,-0.911,0.0
8.019,0.373,-0.92,0.0
7.697,0.358,-0.928,0.0
7.36,0.342,-0.93,0.0
9.621,0.443,-0.946,0.0
8.817,0.405,-0.918,0.0
8.288,0.38,-0.91,0.0
7.966,0.365,-0.922,0.0
7.64,0.349,-0.929,0.0
7.316,0.334,-0.932,0.0
9.636,0.436,-0.957,0.0
8.608,0.389,-0.904,0.0
8.256,0.373,-0.915,0.0
7.894,0.356,-0.921,0.0
7.603,0.342,-0.931,0.0
7.28,0.327,-0.934,0.0
9.392,0.418,-0.942,0.0
8.537,0.379,-0.905,0.0
8.175,0.362,-0.914,0.0
7.822,0.346,-0.92,0.0
7.527,0.332,-0.929,0.0
7.242,0.319,-0.936,0.0
8.894,0.389,-0.9,0.0
8.436,0.368,-0.902,0.0
8.122,0.353,-0.915,0.0
7.808,0.339,-0.926,0.0
7.487,0.324,-0.931,0.0
7.208,0.312,-0.938,0.0
8.81,0.378,-0.899,0.0
8.406,0.359,-0.906,0.0
8.096,0.345,-0.919,0.0
7.761,0.33,-0.927,0.0
7.432,0.316,-0.931,0.0
7.149,0.303,-0.937,0.0
8.766,0.368,-0.902,0.0
8.37,0.351,-0.909,0.0
8.01,0.335,-0.916,0.0
7.682,0.32,-0.924,0.0
7.393,0.307,-0.932,0.0
7.118,0.295,-0.938,0.0
8.683,0.357,-0.901,0.0
8.312,0.341,-0.91,0.0
7.994,0.327,-0.921,0.0
7.619,0.311,-0.922,0.0
7.343,0.299,-0.931,0.0
7.079,0.287,-0.939,0.0
8.627,0.347,-0.901,0.0
8.262,0.331,-0.91,0.0
7.917,0.316,-0.918,0.0
7.58,0.302,-0.923,0.0
7.314,0.291,-0.933,0.0
7.051,0.279,-0.941,0.0
8.56,0.336,-0.901,0.0
8.214,0.322,-0.911,0.0
7.928,0.309,-0.925,0.0
7.544,0.294,-0.924,0.0
7.278,0.282,-0.934,0.0
7.007,0.271,-0.94,0.0
8.536,0.327,-0.904,0.0
8.15,0.311,-0.91,0.0
7.841,0.298,-0.92,0.0
7.531,0.286,-0.928,0.0
7.228,0.273,-0.932,0.0
6.984,0.263,-0.941,0.0
8.472,0.316,-0.902,0.0
8.131,0.303,-0.913,0.0
7.822,0.29,-0.923,0.0
7.488,0.277,-0.927,0.0
7.225,0.266,-0.936,0.0
6.924,0.254,-0.937,0.0
8.404,0.305,-0.9,0.0
8.118,0.294,-0.916,0.0
7.78,0.281,-0.922,0.0
7.461,0.268,-0.928,0.0
7.199,0.258,-0.937,0.0
6.896,0.246,-0.937,0.0
8.406,0.297,-0.905,0.0
8.101,0.285,-0.919,0.0
7.74,0.271,-0.922,0.0
7.432,0.26,-0.929,0.0
7.151,0.249,-0.935,0.0
6.891,0.239,-0.94,0.0
8.373,0.287,-0.906,0.0
8.067,0.276,-0.919,0.0
7.689,0.262,-0.92,0.0
7.412,0.251,-0.93,0.0
7.102,0.24,-0.932,0.0
6.889,0.232,-0.943,0.0
8.345,0.278,-0.907,0.0
8.034,0.266,-0.919,0.0
7.7,0.254,-0.924,0.0
7.386,0.243,-0.93,0.0
7.085,0.232,-0.933,0.0
6.852,0.223,-0.941,0.0
8.31,0.268,-0.906,0.0
8.006,0.257,-0.919,0.0
7.655,0.244,-0.922,0.0
7.371,0.234,-0.931,0.0
7.067,0.224,-0.933,0.0
6.848,0.216,-0.943,0.0
8.272,0.258,-0.905,0.0
7.975,0.247,-0.918,0.0
7.646,0.236,-0.924,0.0
7.316,0.225,-0.927,0.0
7.046,0.215,-0.933,0.0
6.816,0.207,-0.941,0.0
8.216,0.247,-0.902,1.0
7.946,0.238,-0.917,0.0
7.621,0.227,-0.923,0.0
7.303,0.216,-0.927,0.0
7.041,0.207,-0.934,0.0
6.795,0.199,-0.941,0.0
8.19,0.238,-0.902,2.0
7.942,0.229,-0.919,0.0
7.6,0.218,-0.923,0.0
7.327,0.209,-0.932,0.0
7.04,0.199,-0.936,0.0
6.786,0.191,-0.941,0.0
8.19,0.228,-0.904,2.0
7.932,0.22,-0.92,0.0
7.604,0.209,-0.925,0.0
7.269,0.199,-0.927,0.0
7.017,0.191,-0.934,0.0
6.738,0.182,-0.936,0.0
8.191,0.219,-0.905,2.0
7.914,0.211,-0.92,0.0
7.6,0.201,-0.926,0.0
7.305,0.192,-0.932,0.0
7.053,0.184,-0.94,0.0
6.764,0.175,-0.941,0.0
8.188,0.21,-0.906,1.0
7.919,0.202,-0.921,0.0
7.576,0.192,-0.924,0.0
7.279,0.183,-0.93,0.0
7.01,0.175,-0.936,0.0
6.762,0.168,-0.941,0.0
8.195,0.201,-0.908,0.0
7.883,0.192,-0.918,0.0
7.559,0.183,-0.923,0.0
7.268,0.174,-0.929,0.0
7.055,0.168,-0.942,0.0
6.77,0.16,-0.943,0.0
8.195,0.192,-0.908,0.0
7.85,0.182,-0.914,0.0
7.562,0.174,-0.924,0.0
7.245,0.165,-0.927,0.0
7.019,0.159,-0.938,0.0
6.763,0.152,-0.942,0.0
8.21,0.183,-0.91,0.0
7.868,0.174,-0.917,0.0
7.568,0.166,-0.924,0.0
7.277,0.158,-0.931,0.0
7.05,0.152,-0.942,0.0
6.765,0.144,-0.942,0.0
8.197,0.173,-0.909,0.0
7.895,0.165,-0.92,0.0
7.566,0.157,-0.924,0.0
7.278,0.149,-0.93,0.0
7.035,0.143,-0.939,0.0
6.764,0.136,-0.941,0.0
8.181,0.163,-0.906,0.0
7.884,0.156,-0.918,0.0
7.563,0.148,-0.923,0.0
7.276,0.141,-0.93,0.0
7.032,0.135,-0.938,0.0
6.772,0.129,-0.942,0.0
8.205,0.154,-0.908,0.0
7.892,0.147,-0.917,0.0
7.582,0.14,-0.924,0.0
7.287,0.133,-0.93,0.0
7.026,0.127,-0.936,0.0
6.78,0.121,-0.942,0.0
8.211,0.145,-0.907,0.0
7.902,0.138,-0.917,0.0
7.598,0.131,-0.925,0.0
7.296,0.124,-0.93,1.0
7.042,0.119,-0.937,0.0
6.775,0.113,-0.94,0.0
8.222,0.135,-0.907,0.0
7.926,0.129,-0.918,0.0
7.599,0.122,-0.923,0.0
7.301,0.116,-0.929,1.0
7.07,0.111,-0.939,0.0
6.787,0.105,-0.94,0.0
8.249,0.126,-0.907,0.0
7.954,0.12,-0.92,0.0
7.626,0.114,-0.924,0.0
7.294,0.108,-0.926,1.0
7.075,0.103,-0.938,0.0
6.817,0.098,-0.942,0.0
8.26,0.117,-0.906,0.0
7.953,0.111,-0.917,0.0
7.635,0.105,-0.923,0.0
7.29,0.099,-0.923,1.0
7.098,0.095,-0.938,0.0
6.82,0.09,-0.94,0.0
8.274,0.108,-0.905,0.0
7.974,0.102,-0.916,0.0
7.669,0.097,-0.924,0.0
7.292,0.091,-0.92,1.0
7.102,0.087,-0.936,0.0
6.843,0.082,-0.94,0.0
8.299,0.099,-0.904,0.0
7.993,0.093,-0.915,0.0
7.671,0.088,-0.921,0.0
7.307,0.082,-0.919,0.0
7.12,0.079,-0.935,0.0
6.876,0.075,-0.942,0.0
8.34,0.09,-0.905,0.0
8.014,0.085,-0.914,0.0
7.703,0.08,-0.922,0.0
7.384,0.075,-0.925,0.0
7.142,0.071,-0.935,0.0
6.891,0.067,-0.941,0.0
8.368,0.08,-0.904,0.0
8.031,0.076,-0.912,0.0
7.731,0.071,-0.921,0.0
7.445,0.067,-0.929,0.0
7.168,0.063,-0.935,0.0
6.935,0.06,-0.943,0.0
8.407,0.071,-0.904,0.0
8.063,0.067,-0.911,0.0
7.772,0.063,-0.922,0.0
7.459,0.059,-0.927,0.0
7.219,0.056,-0.937,0.0
6.957,0.052,-0.942,0.0
8.42,0.062,-0.9,0.0
8.101,0.058,-0.911,0.0
7.811,0.055,-0.922,0.0
7.504,0.051,-0.928,0.0
7.237,0.048,-0.935,0.0
7.002,0.045,-0.944,0.0
8.453,0.053,-0.899,0.0
8.143,0.049,-0.911,0.0
7.825,0.046,-0.918,0.0
7.517,0.043,-0.925,0.0
7.257,0.04,-0.933,0.0
7.017,0.037,-0.941,0.0
8.489,0.044,-0.897,0.0
8.188,0.041,-0.91,0.0
7.875,0.038,-0.919,0.0
7.573,0.035,-0.926,0.0
7.318,0.032,-0.936,0.0
7.045,0.029,-0.94,0.0
8.56,0.035,-0.898,0.0
8.227,0.032,-0.909,0.0
7.92,0.029,-0.918,0.0
7.619,0.027,-0.926,0.0
7.35,0.024,-0.934,0.0
7.08,0.022,-0.939,0.0
8.609,0.026,-0.897,0.0
8.272,0.023,-0.907,0.0
7.953,0.021,-0.916,0.0
7.66,0.018,-0.925,0.0
7.36,0.016,-0.93,0.0
7.108,0.014,-0.937,0.0
8.658,0.017,-0.895,0.0
8.326,0.015,-0.906,0.0
8.0,0.012,-0.915,0.0
7.707,0.01,-0.924,0.0
7.44,0.009,-0.933,0.0
7.137,0.007,-0.935,0.0
8.718,0.008,-0.894,0.0
8.371,0.006,-0.904,0.0
8.058,0.004,-0.915,0.0
7.764,0.002,-0.925,0.0
7.472,0.001,-0.931,0.0
7.211,0.0,-0.938,0.0
8.813,0.0,-0.896,0.0
8.415,-0.002,-0.902,0.0
8.091,-0.003,-0.911,0.0
7.796,-0.004,-0.921,0.0
7.526,-0.006,-0.931,0.0
7.241,-0.007,-0.935,0.0
8.863,-0.009,-0.893,0.0
8.501,-0.01,-0.903,0.0
8.146,-0.011,-0.91,0.0
7.858,-0.013,-0.921,0.0
7.574,-0.014,-0.929,0.0
7.295,-0.014,-0.935,0.0
8.933,-0.018,-0.891,0.0
8.555,-0.019,-0.9,0.0
8.223,-0.02,-0.91,0.0
7.902,-0.02,-0.918,0.0
7.623,-0.021,-0.928,0.0
7.349,-0.022,-0.935,0.0
9.032,-0.027,-0.892,0.0
8.626,-0.028,-0.899,0.0
8.261,-0.028,-0.906,0.0
7.964,-0.028,-0.917,0.0
7.673,-0.029,-0.926,0.0
7.39,-0.029,-0.932,0.0
9.093,-0.036,-0.889,0.0
8.709,-0.036,-0.898,0.0
8.337,-0.036,-0.905,0.0
8.029,-0.036,-0.916,0.0
7.752,-0.037,-0.927,0.0
7.45,-0.036,-0.931,0.0
9.194,-0.045,-0.888,0.0
8.795,-0.045,-0.897,0.0
8.42,-0.044,-0.905,0.0
8.083,-0.044,-0.913,0.0
7.804,-0.044,-0.924,0.0
7.51,-0.044,-0.93,0.0
9.274,-0.054,-0.886,0.0
8.854,-0.053,-0.894,0.0
8.482,-0.052,-0.902,0.0
8.171,-0.052,-0.914,0.0
7.853,-0.051,-0.921,0.0
7.588,-0.051,-0.931,0.0
9.38,-0.063,-0.885,0.0
8.955,-0.062,-0.893,0.0
8.544,-0.06,-0.899,0.0
8.245,-0.06,-0.912,0.0
7.928,-0.059,-0.92,0.0
7.633,-0.058,-0.928,0.0
9.485,-0.072,-0.884,0.0
9.05,-0.07,-0.892,0.0
8.639,-0.069,-0.898,0.0
8.289,-0.067,-0.907,0.0
7.999,-0.066,-0.919,0.0
7.705,-0.065,-0.927,0.0
9.577,-0.081,-0.88,0.0
9.13,-0.079,-0.888,0.0
8.742,-0.077,-0.898,0.0
8.379,-0.075,-0.906,0.0
8.056,-0.074,-0.915,0.0
7.757,-0.072,-0.923,0.0
9.698,-0.09,-0.879,0.0
9.283,-0.088,-0.891,0.0
8.82,-0.085,-0.894,0.0
8.469,-0.083,-0.905,0.0
8.152,-0.081,-0.915,0.0
7.851,-0.079,-0.924,0.0
9.79,-0.099,-0.875,1.0
9.378,-0.096,-0.888,0.0
8.923,-0.093,-0.893,0.0
8.566,-0.091,-0.904,0.0
8.228,-0.089,-0.912,0.0
7.926,-0.086,-0.922,0.0
9.926,-0.108,-0.873,1.0
9.481,-0.105,-0.885,0.0
9.047,-0.101,-0.893,0.0
8.648,-0.098,-0.901,0.0
8.309,-0.096,-0.91,0.0
7.995,-0.093,-0.919,0.0
10.066,-0.117,-0.872,2.0
9.59,-0.113,-0.882,0.0
9.147,-0.109,-0.89,0.0
8.75,-0.106,-0.899,0.0
8.394,-0.103,-0.907,0.0
8.074,-0.1,-0.916,0.0
10.169,-0.125,-0.866,1.0
9.754,-0.122,-0.883,0.0
9.288,-0.117,-0.89,0.0
8.854,-0.113,-0.897,0.0
8.483,-0.11,-0.905,0.0
8.163,-0.107,-0.914,0.0
10.337,-0.135,-0.866,0.0
9.842,-0.13,-0.877,0.0
9.385,-0.125,-0.886,0.0
8.973,-0.121,-0.896,0.0
8.583,-0.117,-0.903,0.0
8.247,-0.114,-0.912,0.0
10.493,-0.144,-0.863,0.0
9.979,-0.138,-0.874,1.0
9.523,-0.133,-0.885,0.0
9.092,-0.128,-0.894,0.0
8.703,-0.124,-0.902,0.0
8.348,-0.12,-0.91,0.0
10.658,-0.153,-0.861,0.0
10.092,-0.146,-0.869,0.0
9.658,-0.141,-0.883,0.0
9.215,-0.136,-0.892,0.0
8.806,-0.131,-0.899,0.0
8.437,-0.127,-0.907,0.0
10.823,-0.162,-0.857,0.0
10.304,-0.155,-0.871,0.0
9.799,-0.149,-0.88,1.0
9.357,-0.143,-0.891,0.0
8.939,-0.138,-0.899,0.0
8.54,-0.133,-0.904,0.0
11.004,-0.171,-0.854,0.0
10.427,-0.163,-0.865,0.0
9.919,-0.156,-0.875,2.0
9.478,-0.151,-0.887,0.0
9.05,-0.145,-0.895,0.0
8.67,-0.14,-0.904,0.0
11.179,-0.18,-0.85,0.0
10.608,-0.172,-0.862,0.0
10.052,-0.164,-0.87,2.0
9.608,-0.158,-0.884,0.0
9.226,-0.153,-0.898,0.0
8.772,-0.146,-0.9,0.0
11.369,-0.189,-0.846,0.0
10.784,-0.18,-0.859,0.0
10.202,-0.172,-0.867,0.0
9.763,-0.165,-0.882,1.0
9.334,-0.159,-0.893,0.0
8.898,-0.153,-0.898,0.0
11.561,-0.197,-0.841,0.0
10.958,-0.188,-0.855,0.0
10.4,-0.18,-0.866,0.0
9.886,-0.172,-0.876,2.0
9.461,-0.166,-0.889,0.0
9.043,-0.159,-0.897,0.0
11.767,-0.206,-0.836,0.0
11.142,-0.196,-0.85,0.0
10.594,-0.188,-0.864,0.0
10.032,-0.179,-0.872,1.0
9.615,-0.172,-0.887,0.0
9.19,-0.166,-0.896,0.0
11.969,-0.215,-0.83,0.0
11.359,-0.205,-0.847,0.0
10.765,-0.195,-0.86,0.0
10.201,-0.186,-0.869,0.0
9.763,-0.179,-0.883,2.0
9.316,-0.172,-0.892,0.0
12.22,-0.224,-0.826,0.0
11.566,-0.213,-0.843,0.0
10.953,-0.203,-0.855,0.0
10.406,-0.193,-0.869,0.0
9.861,-0.184,-0.875,2.0
9.462,-0.178,-0.889,0.0
12.467,-0.233,-0.821,0.0
11.769,-0.22,-0.837,0.0
11.155,-0.21,-0.851,0.0
10.6,-0.2,-0.866,0.0
10.042,-0.191,-0.873,1.0
9.631,-0.184,-0.888,0.0
12.714,-0.241,-0.815,0.0
12.006,-0.229,-0.832,0.0
11.395,-0.218,-0.849,0.0
10.777,-0.207,-0.861,0.0
10.242,-0.197,-0.872,0.0
9.772,-0.189,-0.883,2.0
12.992,-0.25,-0.809,0.0
12.24,-0.236,-0.826,0.0
11.58,-0.224,-0.842,1.0
10.995,-0.214,-0.858,0.0
10.429,-0.204,-0.869,0.0
9.892,-0.194,-0.876,1.0
13.299,-0.259,-0.804,0.0
12.498,-0.244,-0.821,0.0
11.796,-0.231,-0.836,0.0
11.186,-0.22,-0.853,0.0
10.645,-0.21,-0.867,0.0
10.054,-0.199,-0.872,0.0
13.572,-0.267,-0.796,1.0
12.77,-0.252,-0.815,1.0
12.043,-0.238,-0.832,1.0
11.42,-0.227,-0.85,0.0
10.827,-0.215,-0.862,0.0
10.288,-0.205,-0.873,0.0
13.869,-0.275,-0.787,1.0
13.055,-0.26,-0.809,0.0
12.311,-0.245,-0.827,0.0
11.618,-0.232,-0.843,1.0
11.014,-0.221,-0.856,0.0
10.51,-0.211,-0.872,0.0
14.216,-0.284,-0.781,1.0
13.371,-0.267,-0.804,1.0
12.569,-0.252,-0.821,0.0
11.866,-0.238,-0.838,1.0
11.26,-0.227,-0.854,0.0
10.691,-0.216,-0.867,0.0
14.597,-0.293,-0.774,1.0
13.649,-0.274,-0.795,1.0
12.845,-0.258,-0.815,0.0
12.098,-0.244,-0.832,0.0
11.501,-0.232,-0.85,0.0
10.87,-0.22,-0.861,0.0
14.959,-0.301,-0.765,1.0
13.958,-0.281,-0.786,1.0
13.146,-0.265,-0.809,0.0
12.382,-0.25,-0.827,0.0
11.688,-0.236,-0.842,1.0
11.103,-0.225,-0.858,0.0
15.375,-0.309,-0.757,1.0
14.319,-0.288,-0.779,1.0
13.437,-0.271,-0.801,0.0
12.641,-0.255,-0.82,0.0
11.936,-0.241,-0.837,1.0
11.326,-0.229,-0.853,0.0
15.819,-0.318,-0.748,1.0
14.735,-0.296,-0.773,1.0
13.761,-0.277,-0.793,1.0
12.94,-0.261,-0.814,1.0
12.201,-0.246,-0.831,0.0
11.562,-0.233,-0.848,0.0
16.408,-0.329,-0.744,1.0
15.121,-0.303,-0.764,1.0
14.092,-0.282,-0.785,1.0
13.254,-0.266,-0.808,0.0
12.479,-0.25,-0.826,0.0
11.787,-0.237,-0.842,0.0
16.676,-0.332,-0.724,3.0
15.539,-0.31,-0.755,1.0
14.485,-0.289,-0.778,1.0
13.562,-0.27,-0.801,0.0
12.774,-0.255,-0.82,0.0
12.049,-0.24,-0.836,0.0
17.405,-0.344,-0.721,1.0
15.973,-0.316,-0.744,1.0
14.865,-0.294,-0.77,1.0
13.875,-0.274,-0.792,1.0
13.064,-0.258,-0.813,1.0
12.321,-0.243,-0.831,0.0
17.917,-0.351,-0.707,1.0
16.56,-0.325,-0.739,2.0
15.28,-0.299,-0.761,1.0
14.235,-0.279,-0.784,1.0
13.385,-0.262,-0.806,1.0
12.603,-0.246,-0.825,1.0
18.495,-0.359,-0.693,1.0
16.943,-0.328,-0.722,1.0
15.721,-0.304,-0.751,1.0
14.651,-0.283,-0.777,1.0
13.702,-0.264,-0.798,0.0
12.895,-0.249,-0.818,0.0
19.171,-0.367,-0.68,1.0
17.608,-0.336,-0.716,1.0
16.235,-0.31,-0.744,1.0
15.035,-0.286,-0.768,1.0
14.023,-0.267,-0.789,1.0
13.22,-0.251,-0.812,0.0
19.824,-0.374,-0.664,1.0
18.13,-0.341,-0.701,1.0
16.649,-0.312,-0.73,2.0
15.457,-0.29,-0.759,1.0
14.428,-0.27,-0.783,1.0
13.518,-0.252,-0.804,1.0
20.549,-0.38,-0.648,1.0
18.781,-0.347,-0.689,1.0
17.325,-0.319,-0.725,1.0
15.938,-0.293,-0.751,1.0
14.834,-0.272,-0.775,1.0
13.83,-0.253,-0.794,1.0
21.452,-0.389,-0.633,1.0
19.484,-0.352,-0.675,1.0
17.857,-0.322,-0.711,1.0
16.416,-0.295,-0.74,0.0
15.243,-0.273,-0.766,1.0
14.191,-0.254,-0.787,1.0
22.33,-0.396,-0.614,1.0
20.155,-0.356,-0.658,1.0
18.424,-0.324,-0.697,1.0
16.971,-0.298,-0.731,0.0
15.631,-0.273,-0.754,1.0
14.633,-0.255,-0.782,1.0
23.309,-0.403,-0.595,2.0
20.965,-0.361,-0.643,1.0
19.11,-0.327,-0.684,1.0
17.549,-0.299,-0.721,1.0
16.145,-0.274,-0.746,1.0
15.012,-0.254,-0.772,1.0
24.28,-0.407,-0.57,1.0
21.83,-0.365,-0.625,1.0
19.799,-0.329,-0.669,1.0
18.09,-0.299,-0.706,1.0
16.675,-0.275,-0.737,0.0
15.43,-0.253,-0.762,1.0
25.404,-0.413,-0.546,1.0
22.815,-0.369,-0.608,1.0
20.531,-0.33,-0.653,1.0
18.73,-0.3,-0.694,1.0
17.267,-0.275,-0.729,1.0
15.892,-0.252,-0.753,1.0
26.461,-0.415,-0.516,1.0
23.709,-0.37,-0.584,1.0
21.386,-0.332,-0.637,1.0
19.329,-0.298,-0.678,2.0
17.809,-0.273,-0.716,1.0
16.38,-0.249,-0.744,1.0
27.704,-0.418,-0.485,1.0
24.794,-0.372,-0.562,2.0
22.285,-0.332,-0.619,1.0
20.097,-0.297,-0.664,1.0
18.364,-0.27,-0.702,1.0
16.93,-0.247,-0.735,1.0
28.931,-0.418,-0.448,1.0
25.905,-0.371,-0.535,1.0
23.223,-0.33,-0.599,1.0
20.828,-0.294,-0.647,1.0
19.049,-0.267,-0.691,2.0
17.494,-0.243,-0.725,1.0
30.13,-0.415,-0.408,1.0
27.016,-0.369,-0.505,1.0
24.091,-0.326,-0.575,1.0
21.693,-0.291,-0.631,1.0
19.716,-0.263,-0.676,1.0
18.057,-0.238,-0.712,1.0
31.96,-0.417,-0.369,1.0
28.232,-0.365,-0.472,1.0
25.298,-0.324,-0.554,1.0
22.643,-0.287,-0.615,1.0
20.369,-0.256,-0.658,1.0
18.613,-0.232,-0.698,1.0
34.334,-0.422,-0.329,1.0
29.447,-0.358,-0.434,2.0
26.4,-0.318,-0.526,1.0
23.524,-0.28,-0.592,1.0
21.22,-0.25,-0.644,1.0
19.306,-0.225,-0.686,1.0
37.89,-0.436,-0.289,0.0
30.77,-0.35,-0.393,2.0
27.535,-0.309,-0.494,1.0
24.635,-0.273,-0.572,1.0
22.114,-0.242,-0.628,1.0
19.966,-0.216,-0.67,1.0
42.395,-0.453,-0.241,3.0
32.801,-0.346,-0.356,1.0
28.784,-0.299,-0.461,4.0
25.625,-0.263,-0.545,2.0
23.053,-0.233,-0.61,2.0
20.668,-0.206,-0.653,1.0
50.84,-0.499,-0.19,7.0
38.487,-0.372,-0.343,1.0
29.884,-0.285,-0.421,2.0
26.692,-0.25,-0.516,1.0
23.856,-0.22,-0.585,1.0
21.51,-0.195,-0.639,1.0
50.787,-0.453,-0.093,7.0
42.186,-0.37,-0.295,3.0
31.292,-0.269,-0.38,1.0
27.914,-0.236,-0.487,2.0
24.928,-0.207,-0.563,1.0
22.478,-0.183,-0.625,1.0
48.93,-0.391,0.003,3.0
47.32,-0.37,-0.24,7.0
33.549,-0.257,-0.344,1.0
29.179,-0.219,-0.453,2.0
26.123,-0.192,-0.541,2.0
23.372,-0.168,-0.605,2.0
53.134,-0.372,0.106,11.0
44.986,-0.308,-0.143,5.0
39.535,-0.264,-0.33,1.0
30.321,-0.197,-0.413,1.0
27.05,-0.171,-0.508,1.0
24.177,-0.149,-0.58,2.0
61.378,-0.368,0.237,15.0
46.156,-0.269,-0.06,8.0
39.933,-0.226,-0.258,3.0
31.727,-0.174,-0.373,1.0
28.279,-0.15,-0.479,2.0
25.221,-0.13,-0.558,1.0
76.652,-0.381,0.44,13.0
0.0,0.0,0.0,0.0
39.934,-0.184,-0.184,3.0
33.667,-0.149,-0.333,1.0
29.487,-0.125,-0.444,2.0
26.388,-0.107,-0.535,2.0
79.266,-0.308,0.603,118.0
55.98,-0.207,0.135,22.0
42.37,-0.149,-0.117,17.0
38.795,-0.13,-0.312,2.0
30.501,-0.096,-0.404,1.0
27.34,-0.081,-0.504,1.0
79.457,-0.221,0.75,150.0
61.631,-0.16,0.262,10.0
46.186,-0.111,-0.043,20.0
39.219,-0.087,-0.244,14.0
32.344,-0.065,-0.369,2.0
28.57,-0.052,-0.474,1.0
79.463,-0.13,0.895,151.0
76.383,-0.111,0.464,18.0
0.0,0.0,0.0,0.0
40.067,-0.042,-0.176,23.0
33.963,-0.029,-0.326,0.0
29.599,-0.019,-0.438,2.0
79.465,-0.037,1.039,151.0
79.375,-0.021,0.626,80.0
55.964,-0.004,0.149,24.0
0.0,0.0,0.0,0.0
38.336,0.012,-0.299,5.0
30.838,0.016,-0.401,1.0
79.461,0.058,1.18,152.0
79.461,0.074,0.767,151.0
61.687,0.071,0.275,10.0
0.0,0.0,0.0,0.0
38.878,0.06,-0.235,14.0
32.395,0.057,-0.365,1.0
79.46,0.156,1.321,160.0
79.471,0.173,0.907,151.0
76.337,0.182,0.473,23.0
53.794,0.14,0.048,27.0
39.536,0.111,-0.17,40.0
37.829,0.114,-0.36,0.0
79.457,0.258,1.461,151.0
79.461,0.276,1.047,151.0
77.134,0.284,0.613,53.0
54.891,0.213,0.144,28.0
43.909,0.18,-0.113,7.0
37.846,0.163,-0.295,10.0
59.288,0.269,1.191,127.0
59.295,0.282,0.882,140.0
59.295,0.295,0.571,133.0
55.05,0.286,0.238,58.0
0.0,0.0,0.0,0.0
38.477,0.217,-0.235,23.0
48.162,0.282,1.049,82.0
48.153,0.293,0.797,64.0
48.152,0.304,0.545,47.0
48.155,0.315,0.289,59.0
47.918,0.324,0.037,47.0
39.219,0.274,-0.174,46.0
48.114,0.347,1.128,112.0
48.105,0.358,0.877,110.0
48.079,0.369,0.624,108.0
48.041,0.38,0.368,97.0
48.02,0.391,0.116,83.0
43.944,0.368,-0.123,5.0
48.124,0.414,1.208,126.0
48.107,0.425,0.955,111.0
48.088,0.436,0.703,110.0
48.053,0.448,0.446,96.0
48.023,0.458,0.194,94.0
0.0,0.0,0.0,0.0
48.152,0.482,1.286,95.0
48.128,0.493,1.033,105.0
48.111,0.505,0.781,97.0
48.084,0.516,0.523,103.0
48.055,0.527,0.27,84.0
47.763,0.535,0.018,53.0
55.02,0.63,1.558,9.0
55.059,0.644,1.269,8.0
55.085,0.657,0.98,14.0
48.16,0.586,0.599,47.0
