X,Y,Z,Reflectivity
39.04,1.029,-0.138,40.0
0.0,0.0,0.0,0.0
29.345,0.792,-0.437,1.0
22.885,0.625,-0.469,5.0
74.405,2.063,0.516,14.0
48.416,1.357,0.063,23.0
0.0,0.0,0.0,0.0
33.517,0.96,-0.335,1.0
28.804,0.834,-0.45,1.0
22.236,0.651,-0.472,4.0
60.877,1.807,0.376,22.0
47.682,1.43,0.026,23.0
36.959,1.12,-0.187,26.0
32.324,0.99,-0.349,1.0
28.265,0.874,-0.464,1.0
21.811,0.681,-0.481,4.0
59.377,1.878,0.319,35.0
46.936,1.499,-0.011,22.0
36.626,1.181,-0.215,28.0
31.436,1.023,-0.364,2.0
27.853,0.915,-0.48,1.0
21.226,0.703,-0.485,4.0
58.795,1.974,0.267,18.0
0.0,0.0,0.0,0.0
36.369,1.242,-0.244,12.0
30.738,1.059,-0.382,2.0
24.312,0.845,-0.439,3.0
20.823,0.73,-0.494,4.0
54.581,1.936,0.201,29.0
41.146,1.472,-0.08,18.0
36.065,1.3,-0.273,9.0
30.156,1.096,-0.401,2.0
23.807,0.872,-0.451,5.0
20.449,0.755,-0.503,3.0
54.168,2.023,0.152,21.0
39.935,1.503,-0.113,53.0
35.882,1.361,-0.304,7.0
29.507,1.128,-0.42,2.0
23.006,0.886,-0.457,5.0
20.02,0.777,-0.511,3.0
48.54,1.904,0.091,24.0
39.841,1.574,-0.15,29.0
35.794,1.424,-0.336,1.0
28.999,1.162,-0.439,2.0
22.11,0.893,-0.46,4.0
19.614,0.797,-0.519,3.0
0.0,0.0,0.0,0.0
36.522,1.51,-0.172,35.0
32.375,1.348,-0.335,1.0
28.451,1.192,-0.458,1.0
21.397,0.902,-0.466,18.0
19.22,0.816,-0.527,3.0
42.362,1.817,-0.002,17.0
36.246,1.564,-0.206,29.0
31.498,1.368,-0.358,1.0
24.737,1.081,-0.423,4.0
21.082,0.927,-0.48,4.0
18.822,0.833,-0.535,3.0
41.394,1.849,-0.044,17.0
35.905,1.614,-0.241,12.0
30.571,1.382,-0.378,1.0
23.982,1.09,-0.435,5.0
20.657,0.945,-0.492,3.0
18.406,0.847,-0.542,3.0
40.503,1.88,-0.085,47.0
35.663,1.665,-0.276,9.0
29.896,1.403,-0.401,2.0
23.024,1.087,-0.442,5.0
20.173,0.958,-0.501,3.0
18.047,0.862,-0.551,3.0
40.178,1.934,-0.126,27.0
35.584,1.722,-0.314,2.0
29.253,1.424,-0.424,2.0
22.117,1.082,-0.448,4.0
19.668,0.967,-0.51,3.0
17.576,0.869,-0.556,3.0
36.441,1.817,-0.155,40.0
32.536,1.631,-0.323,1.0
28.628,1.442,-0.446,1.0
21.502,1.088,-0.459,4.0
19.225,0.978,-0.52,3.0
17.308,0.885,-0.566,2.0
36.121,1.861,-0.194,22.0
31.726,1.642,-0.35,2.0
24.708,1.285,-0.413,2.0
20.948,1.095,-0.471,4.0
18.754,0.985,-0.528,3.0
16.896,0.891,-0.572,2.0
35.624,1.893,-0.231,20.0
30.571,1.632,-0.372,2.0
23.789,1.276,-0.425,5.0
20.45,1.102,-0.483,4.0
18.275,0.989,-0.536,4.0
16.461,0.895,-0.576,4.0
35.422,1.939,-0.271,8.0
29.935,1.646,-0.4,2.0
22.726,1.255,-0.432,4.0
19.906,1.104,-0.494,3.0
17.856,0.995,-0.545,4.0
16.15,0.904,-0.585,3.0
35.204,1.983,-0.311,4.0
29.112,1.647,-0.423,2.0
21.983,1.249,-0.445,4.0
19.434,1.108,-0.506,3.0
17.484,1.002,-0.555,3.0
15.748,0.906,-0.589,3.0
32.383,1.874,-0.326,1.0
24.917,1.448,-0.393,1.0
21.237,1.239,-0.456,4.0
18.956,1.11,-0.516,3.0
17.147,1.008,-0.565,2.0
14.901,0.88,-0.576,5.0
31.071,1.845,-0.351,2.0
24.135,1.438,-0.41,5.0
20.669,1.237,-0.469,4.0
18.432,1.107,-0.525,3.0
16.615,1.002,-0.568,2.0
14.669,0.888,-0.585,18.0
30.232,1.84,-0.38,2.0
23.045,1.407,-0.421,5.0
20.157,1.235,-0.483,3.0
18.019,1.109,-0.536,3.0
16.223,1.002,-0.575,4.0
14.607,0.905,-0.601,20.0
29.414,1.833,-0.407,2.0
22.16,1.385,-0.433,4.0
19.591,1.229,-0.494,3.0
17.6,1.108,-0.546,2.0
15.948,1.007,-0.586,2.0
14.209,0.9,-0.603,13.0
25.128,1.6,-0.38,3.0
21.393,1.367,-0.445,4.0
19.113,1.225,-0.507,3.0
17.155,1.103,-0.555,2.0
14.996,0.968,-0.571,2.0
13.859,0.898,-0.607,12.0
24.461,1.592,-0.402,6.0
20.831,1.359,-0.461,4.0
18.578,1.216,-0.517,3.0
16.69,1.096,-0.562,2.0
14.677,0.967,-0.578,13.0
13.589,0.898,-0.613,12.0
23.123,1.535,-0.411,5.0
20.264,1.349,-0.476,3.0
18.087,1.208,-0.528,3.0
16.265,1.09,-0.569,3.0
14.472,0.972,-0.589,16.0
13.426,0.905,-0.624,11.0
22.155,1.5,-0.423,4.0
19.579,1.329,-0.486,3.0
17.59,1.197,-0.537,2.0
15.894,1.085,-0.578,2.0
14.022,0.96,-0.59,13.0
13.217,0.907,-0.632,9.0
21.378,1.474,-0.438,4.0
19.113,1.321,-0.5,3.0
17.159,1.189,-0.548,2.0
15.066,1.047,-0.569,2.0
13.8,0.962,-0.6,12.0
13.069,0.913,-0.643,9.0
20.775,1.458,-0.454,4.0
18.587,1.307,-0.513,3.0
16.741,1.181,-0.557,2.0
14.641,1.035,-0.573,14.0
13.533,0.96,-0.607,13.0
13.072,0.929,-0.661,10.0
20.195,1.441,-0.47,3.0
18.0,1.287,-0.522,3.0
16.262,1.166,-0.564,2.0
14.287,1.027,-0.579,13.0
13.404,0.966,-0.62,11.0
13.017,0.94,-0.677,9.0
19.59,1.42,-0.483,3.0
17.535,1.274,-0.533,2.0
15.872,1.156,-0.573,2.0
13.857,1.012,-0.582,10.0
13.136,0.961,-0.627,7.0
12.734,0.934,-0.681,3.0
18.99,1.397,-0.496,3.0
17.071,1.259,-0.543,2.0
15.047,1.112,-0.565,3.0
13.652,1.012,-0.592,12.0
13.066,0.97,-0.642,9.0
12.444,0.926,-0.683,3.0
18.43,1.376,-0.507,3.0
16.649,1.246,-0.554,2.0
14.367,1.077,-0.56,10.0
13.435,1.009,-0.602,9.0
13.063,0.984,-0.661,10.0
12.219,0.922,-0.688,3.0
17.938,1.357,-0.52,3.0
16.191,1.228,-0.562,2.0
13.959,1.06,-0.564,12.0
13.229,1.007,-0.612,11.0
12.984,0.991,-0.675,6.0
11.962,0.915,-0.691,2.0
17.442,1.337,-0.531,2.0
15.77,1.211,-0.57,3.0
13.746,1.058,-0.576,11.0
13.073,1.008,-0.624,7.0
12.643,0.977,-0.676,3.0
11.715,0.907,-0.694,2.0
16.963,1.316,-0.54,2.0
14.796,1.15,-0.556,5.0
13.542,1.054,-0.587,12.0
13.053,1.018,-0.642,9.0
12.373,0.967,-0.68,3.0
11.481,0.899,-0.697,1.0
16.539,1.298,-0.551,2.0
14.221,1.118,-0.555,11.0
13.449,1.059,-0.603,10.0
13.053,1.03,-0.661,10.0
12.171,0.962,-0.687,3.0
11.254,0.891,-0.7,1.0
16.131,1.279,-0.561,3.0
13.87,1.102,-0.562,11.0
13.263,1.055,-0.614,8.0
12.898,1.028,-0.672,4.0
11.884,0.949,-0.688,3.0
10.988,0.879,-0.699,1.0
15.041,1.205,-0.545,2.0
13.676,1.097,-0.574,9.0
13.077,1.051,-0.625,8.0
12.551,1.01,-0.673,3.0
11.631,0.938,-0.691,2.0
10.819,0.874,-0.705,2.0
14.2,1.148,-0.536,9.0
13.52,1.095,-0.588,12.0
13.089,1.062,-0.645,10.0
12.369,1.005,-0.682,3.0
11.4,0.928,-0.694,2.0
10.599,0.864,-0.706,2.0
13.953,1.138,-0.547,13.0
13.373,1.093,-0.601,10.0
13.033,1.066,-0.661,8.0
12.083,0.99,-0.684,1.0
11.186,0.918,-0.697,1.0
10.407,0.855,-0.709,2.0
13.807,1.136,-0.562,13.0
13.175,1.085,-0.612,9.0
12.818,1.057,-0.669,3.0
11.832,0.977,-0.687,2.0
10.978,0.908,-0.701,1.0
10.227,0.847,-0.712,2.0
13.631,1.13,-0.575,11.0
13.07,1.085,-0.626,8.0
12.487,1.038,-0.67,4.0
11.539,0.96,-0.687,2.0
10.771,0.897,-0.703,0.0
10.028,0.837,-0.713,1.0
13.49,1.126,-0.589,9.0
13.087,1.094,-0.646,10.0
12.34,1.033,-0.681,3.0
11.348,0.951,-0.693,2.0
10.556,0.886,-0.705,1.0
9.861,0.828,-0.716,2.0
13.332,1.12,-0.601,10.0
13.035,1.096,-0.663,10.0
12.02,1.012,-0.681,1.0
11.16,0.941,-0.697,2.0
10.362,0.875,-0.707,2.0
9.714,0.821,-0.719,1.0
13.16,1.112,-0.613,9.0
12.734,1.077,-0.666,3.0
11.743,0.995,-0.682,1.0
10.91,0.925,-0.698,1.0
10.186,0.865,-0.71,2.0
9.626,0.818,-0.727,1.0
13.081,1.112,-0.629,9.0
12.449,1.059,-0.67,4.0
11.505,0.98,-0.685,2.0
10.735,0.915,-0.702,1.0
9.985,0.852,-0.711,1.0
9.54,0.815,-0.734,1.0
13.069,1.116,-0.647,11.0
12.286,1.05,-0.679,2.0
11.294,0.966,-0.689,2.0
10.533,0.902,-0.705,1.0
9.83,0.843,-0.714,2.0
9.377,0.805,-0.736,1.0
13.014,1.116,-0.663,7.0
11.92,1.023,-0.676,2.0
11.111,0.954,-0.694,2.0
10.312,0.887,-0.705,2.0
9.714,0.836,-0.72,1.0
9.238,0.796,-0.738,1.0
12.665,1.09,-0.664,3.0
11.717,1.009,-0.682,3.0
10.872,0.937,-0.695,2.0
10.15,0.876,-0.709,2.0
9.628,0.832,-0.728,1.0
9.115,0.788,-0.742,1.0
12.442,1.074,-0.67,4.0
11.518,0.995,-0.687,2.0
10.726,0.928,-0.701,1.0
9.968,0.863,-0.71,1.0
9.526,0.825,-0.734,1.0
8.982,0.779,-0.744,1.0
12.261,1.062,-0.678,2.0
11.268,0.976,-0.688,2.0
10.513,0.912,-0.703,1.0
9.801,0.85,-0.713,1.0
9.364,0.813,-0.735,0.0
8.857,0.77,-0.747,1.0
11.902,1.033,-0.675,2.0
11.087,0.963,-0.693,2.0
10.307,0.896,-0.704,2.0
9.687,0.842,-0.718,2.0
9.23,0.803,-0.738,1.0
8.758,0.763,-0.751,1.0
11.718,1.019,-0.681,3.0
10.863,0.945,-0.694,2.0
10.159,0.884,-0.708,2.0
9.612,0.837,-0.726,1.0
9.11,0.794,-0.741,1.0
8.622,0.752,-0.751,1.0
11.519,1.003,-0.686,2.0
10.71,0.933,-0.699,1.0
9.963,0.868,-0.708,1.0
9.518,0.83,-0.732,0.0
8.98,0.783,-0.743,1.0
8.162,0.712,-0.723,1.0
11.277,0.982,-0.687,2.0
10.531,0.918,-0.702,1.0
9.819,0.856,-0.711,2.0
9.369,0.817,-0.734,0.0
8.863,0.774,-0.746,1.0
7.914,0.691,-0.712,3.0
11.106,0.968,-0.692,2.0
10.324,0.9,-0.703,2.0
9.713,0.847,-0.717,2.0
9.234,0.806,-0.736,0.0
8.767,0.765,-0.749,1.0
7.794,0.681,-0.711,4.0
10.901,0.95,-0.694,2.0
10.171,0.886,-0.706,2.0
9.633,0.84,-0.724,1.0
9.13,0.796,-0.74,1.0
8.639,0.754,-0.75,1.0
7.684,0.671,-0.712,4.0
10.734,0.934,-0.697,2.0
10.005,0.871,-0.708,1.0
9.541,0.831,-0.73,1.0
9.008,0.785,-0.742,1.0
8.26,0.72,-0.728,1.0
7.595,0.662,-0.714,4.0
10.568,0.919,-0.701,1.0
9.854,0.857,-0.71,1.0
9.418,0.819,-0.733,0.0
8.896,0.774,-0.745,1.0
7.952,0.692,-0.712,2.0
7.527,0.655,-0.717,4.0
10.385,0.901,-0.702,2.0
9.72,0.844,-0.713,2.0
9.289,0.807,-0.735,0.0
8.8,0.764,-0.748,1.0
7.844,0.681,-0.712,4.0
7.489,0.651,-0.723,5.0
10.226,0.886,-0.704,2.0
9.66,0.837,-0.721,1.0
9.158,0.793,-0.736,1.0
8.689,0.753,-0.75,1.0
7.734,0.67,-0.712,4.0
7.478,0.648,-0.732,4.0
10.088,0.872,-0.708,2.0
9.581,0.828,-0.727,1.0
9.06,0.783,-0.74,1.0
8.529,0.737,-0.747,1.0
7.655,0.661,-0.714,4.0
7.466,0.645,-0.74,4.0
9.907,0.853,-0.707,2.0
9.479,0.816,-0.731,0.0
8.934,0.769,-0.741,1.0
8.108,0.698,-0.72,2.0
7.584,0.653,-0.717,4.0
7.442,0.641,-0.747,3.0
9.802,0.841,-0.712,2.0
9.346,0.802,-0.732,0.0
8.839,0.758,-0.744,1.0
7.945,0.682,-0.715,3.0
7.532,0.646,-0.722,4.0
7.385,0.633,-0.75,3.0
9.702,0.829,-0.716,2.0
9.236,0.789,-0.735,1.0
8.776,0.75,-0.749,1.0
7.819,0.668,-0.713,4.0
7.504,0.641,-0.728,4.0
7.326,0.626,-0.753,3.0
9.637,0.82,-0.723,1.0
9.144,0.778,-0.738,1.0
8.664,0.737,-0.75,1.0
7.734,0.657,-0.714,3.0
7.505,0.638,-0.737,3.0
7.276,0.618,-0.756,3.0
9.568,0.81,-0.729,1.0
9.036,0.765,-0.74,1.0
8.52,0.721,-0.747,1.0
7.649,0.647,-0.715,4.0
7.502,0.634,-0.745,3.0
7.251,0.613,-0.762,3.0
9.464,0.797,-0.731,1.0
8.931,0.752,-0.741,1.0
8.186,0.689,-0.727,2.0
7.613,0.64,-0.72,4.0
7.483,0.629,-0.751,3.0
7.202,0.605,-0.765,2.0
9.357,0.783,-0.733,1.0
8.856,0.741,-0.745,1.0
8.0,0.669,-0.719,3.0
7.586,0.634,-0.726,4.0
7.419,0.62,-0.753,3.0
7.099,0.593,-0.762,1.0
9.256,0.77,-0.735,1.0
8.806,0.732,-0.75,0.0
7.886,0.655,-0.717,4.0
7.572,0.629,-0.733,4.0
7.381,0.613,-0.757,3.0
7.008,0.581,-0.759,1.0
9.181,0.758,-0.739,1.0
8.724,0.72,-0.752,0.0
7.794,0.643,-0.717,4.0
7.62,0.628,-0.745,3.0
7.363,0.607,-0.763,3.0
6.972,0.574,-0.763,2.0
9.087,0.745,-0.74,1.0
8.581,0.703,-0.748,1.0
7.764,0.635,-0.722,4.0
7.607,0.622,-0.752,3.0
7.342,0.6,-0.768,2.0
6.952,0.568,-0.767,2.0
9.01,0.733,-0.743,1.0
8.274,0.672,-0.73,2.0
7.746,0.629,-0.727,4.0
7.568,0.614,-0.755,3.0
7.294,0.592,-0.77,2.0
6.927,0.561,-0.771,1.0
8.934,0.721,-0.745,1.0
8.121,0.654,-0.724,2.0
7.772,0.626,-0.737,4.0
7.511,0.604,-0.756,3.0
7.241,0.582,-0.771,1.0
6.891,0.554,-0.773,1.0
8.867,0.709,-0.747,1.0
8.014,0.64,-0.721,4.0
7.765,0.62,-0.743,4.0
7.461,0.595,-0.758,3.0
7.189,0.573,-0.772,1.0
6.841,0.545,-0.774,1.0
8.8,0.697,-0.749,1.0
7.975,0.631,-0.725,4.0
7.736,0.612,-0.747,4.0
7.431,0.587,-0.761,3.0
7.134,0.563,-0.772,0.0
6.804,0.536,-0.776,1.0
8.738,0.685,-0.751,2.0
7.949,0.623,-0.729,5.0
7.722,0.604,-0.753,4.0
7.402,0.579,-0.765,3.0
7.079,0.553,-0.772,0.0
6.778,0.529,-0.778,0.0
8.625,0.669,-0.749,2.0
7.942,0.616,-0.735,4.0
7.717,0.598,-0.758,3.0
7.359,0.569,-0.766,2.0
7.03,0.543,-0.772,0.0
6.763,0.522,-0.782,1.0
8.544,0.656,-0.748,2.0
7.937,0.609,-0.74,5.0
7.682,0.588,-0.761,2.0
7.339,0.561,-0.77,1.0
7.001,0.535,-0.774,0.0
6.775,0.517,-0.788,0.0
8.423,0.639,-0.744,2.0
7.925,0.601,-0.745,4.0
7.656,0.58,-0.764,1.0
7.3,0.552,-0.771,1.0
6.979,0.527,-0.777,1.0
6.804,0.513,-0.797,0.0
8.338,0.625,-0.742,3.0
7.918,0.593,-0.75,4.0
7.609,0.569,-0.764,1.0
7.258,0.542,-0.771,1.0
6.965,0.52,-0.78,1.0
6.848,0.51,-0.807,0.0
8.313,0.616,-0.746,4.0
7.902,0.584,-0.754,4.0
7.56,0.558,-0.764,1.0
7.215,0.532,-0.772,1.0
6.973,0.514,-0.786,1.0
6.919,0.509,-0.82,0.0
8.29,0.606,-0.749,5.0
7.888,0.576,-0.757,3.0
7.537,0.55,-0.767,1.0
7.195,0.524,-0.774,1.0
7.001,0.509,-0.793,0.0
6.996,0.508,-0.833,1.0
8.248,0.595,-0.75,5.0
7.861,0.566,-0.759,2.0
7.514,0.54,-0.769,1.0
7.185,0.516,-0.777,1.0
7.075,0.507,-0.805,1.0
7.084,0.507,-0.847,1.0
8.252,0.587,-0.755,5.0
7.84,0.557,-0.761,2.0
7.492,0.531,-0.77,1.0
7.193,0.509,-0.782,1.0
7.138,0.505,-0.816,1.0
7.141,0.504,-0.858,0.0
8.22,0.577,-0.756,5.0
7.829,0.548,-0.764,1.0
7.469,0.522,-0.772,1.0
7.228,0.504,-0.789,1.0
7.225,0.503,-0.83,1.0
7.194,0.5,-0.868,0.0
8.181,0.565,-0.756,4.0
7.81,0.539,-0.766,1.0
7.468,0.514,-0.775,1.0
7.301,0.502,-0.8,1.0
7.331,0.503,-0.845,1.0
7.285,0.499,-0.882,0.0
8.159,0.555,-0.757,3.0
7.798,0.529,-0.768,1.0
7.48,0.507,-0.779,1.0
7.387,0.5,-0.813,1.0
7.415,0.501,-0.858,1.0
7.429,0.501,-0.902,0.0
8.153,0.546,-0.76,3.0
7.787,0.52,-0.77,1.0
7.509,0.501,-0.785,1.0
7.495,0.499,-0.827,1.0
7.503,0.498,-0.871,0.0
7.539,0.5,-0.918,0.0
8.137,0.536,-0.761,2.0
7.779,0.511,-0.772,1.0
7.572,0.496,-0.794,1.0
7.584,0.496,-0.839,1.0
7.595,0.496,-0.884,0.0
7.619,0.496,-0.93,0.0
8.137,0.527,-0.764,2.0
7.783,0.502,-0.775,1.0
7.659,0.493,-0.806,1.0
7.691,0.494,-0.854,1.0
7.695,0.494,-0.898,0.0
7.67,0.491,-0.939,0.0
8.141,0.517,-0.766,1.0
7.819,0.496,-0.78,1.0
7.77,0.491,-0.819,1.0
7.783,0.491,-0.866,0.0
7.812,0.492,-0.913,0.0
7.751,0.487,-0.95,0.0
8.134,0.508,-0.767,1.0
7.884,0.491,-0.788,1.0
7.892,0.49,-0.834,1.0
7.902,0.489,-0.88,0.0
7.911,0.489,-0.926,0.0
7.83,0.483,-0.961,0.0
8.148,0.499,-0.77,1.0
7.976,0.487,-0.799,1.0
7.997,0.487,-0.846,1.0
7.995,0.486,-0.892,0.0
8.001,0.485,-0.938,0.0
7.919,0.479,-0.974,0.0
8.173,0.491,-0.773,1.0
8.092,0.484,-0.811,1.0
8.1,0.484,-0.858,0.0
8.125,0.484,-0.907,0.0
8.068,0.479,-0.947,0.0
7.985,0.473,-0.982,0.0
8.233,0.484,-0.78,1.0
8.213,0.482,-0.824,1.0
8.232,0.482,-0.872,0.0
8.26,0.482,-0.923,0.0
8.222,0.478,-0.965,0.0
7.997,0.464,-0.984,0.0
8.35,0.481,-0.791,2.0
8.374,0.481,-0.841,1.0
8.354,0.478,-0.886,0.0
8.337,0.476,-0.932,0.0
8.342,0.475,-0.979,0.0
8.482,0.478,-0.804,2.0
8.497,0.478,-0.853,1.0
8.496,0.476,-0.901,0.0
8.486,0.474,-0.948,0.0
8.451,0.471,-0.992,0.0
8.578,0.473,-0.812,3.0
8.571,0.471,-0.86,1.0
8.641,0.473,-0.915,0.0
8.618,0.47,-0.962,0.0
8.39,0.457,-0.984,0.0
7.552,0.41,-0.929,0.0
8.733,0.47,-0.826,2.0
8.728,0.469,-0.875,0.0
8.743,0.468,-0.925,0.0
8.762,0.467,-0.977,0.0
8.222,0.437,-0.963,0.0
8.887,0.467,-0.84,2.0
8.938,0.469,-0.894,0.0
8.92,0.466,-0.943,0.0
8.803,0.458,-0.981,0.0
7.878,0.409,-0.922,0.0
7.583,0.392,-0.93,0.0
9.041,0.464,-0.853,1.0
9.052,0.463,-0.904,0.0
9.035,0.46,-0.953,0.0
8.847,0.449,-0.984,0.0
7.874,0.398,-0.92,0.0
7.58,0.382,-0.928,0.0
9.187,0.46,-0.864,0.0
9.191,0.458,-0.916,0.0
9.074,0.451,-0.955,0.0
8.432,0.417,-0.935,0.0
7.907,0.39,-0.921,0.0
7.622,0.374,-0.931,0.0
9.383,0.458,-0.88,0.0
9.349,0.454,-0.929,0.0
9.114,0.441,-0.956,0.0
8.272,0.399,-0.915,0.0
7.956,0.382,-0.925,0.0
7.648,0.366,-0.932,0.0
9.556,0.454,-0.893,0.0
9.501,0.449,-0.941,0.0
9.022,0.425,-0.944,0.0
8.292,0.389,-0.914,0.0
7.965,0.372,-0.923,0.0
7.634,0.355,-0.927,0.0
9.713,0.449,-0.904,0.0
9.67,0.445,-0.954,0.0
8.774,0.402,-0.914,0.0
8.32,0.379,-0.914,0.0
8.036,0.365,-0.928,0.0
7.692,0.348,-0.931,0.0
9.899,0.444,-0.918,0.0
9.776,0.437,-0.96,0.0
8.719,0.388,-0.905,0.0
8.305,0.368,-0.909,0.0
8.049,0.355,-0.926,0.0
7.702,0.338,-0.929,0.0
10.077,0.439,-0.93,0.0
9.74,0.423,-0.952,0.0
8.743,0.378,-0.903,0.0
8.35,0.359,-0.91,0.0
8.076,0.346,-0.925,0.0
7.733,0.329,-0.929,0.0
10.253,0.434,-0.941,0.0
9.323,0.393,-0.907,0.0
8.793,0.368,-0.904,0.0
8.395,0.35,-0.911,0.0
8.063,0.334,-0.919,0.0
7.762,0.32,-0.928,0.0
10.384,0.426,-0.947,0.0
9.341,0.381,-0.903,0.0
8.8,0.357,-0.9,0.0
8.453,0.341,-0.912,0.0
8.137,0.327,-0.923,0.0
7.782,0.311,-0.926,0.0
10.463,0.416,-0.948,0.0
9.35,0.369,-0.899,1.0
8.883,0.349,-0.903,0.0
8.478,0.331,-0.909,0.0
8.143,0.317,-0.919,0.0
7.823,0.303,-0.926,0.0
10.102,0.388,-0.909,0.0
9.352,0.357,-0.893,2.0
8.916,0.339,-0.9,0.0
8.5,0.321,-0.906,0.0
8.146,0.307,-0.914,0.0
7.888,0.295,-0.929,0.0
9.935,0.369,-0.887,0.0
9.349,0.346,-0.886,3.0
8.956,0.329,-0.898,0.0
8.543,0.312,-0.905,0.0
8.175,0.297,-0.911,0.0
7.893,0.285,-0.923,0.0
9.935,0.357,-0.88,0.0
9.369,0.334,-0.882,1.0
8.993,0.319,-0.896,0.0
8.619,0.304,-0.907,0.0
8.212,0.288,-0.909,0.0
7.94,0.277,-0.923,0.0
10.011,0.346,-0.879,0.0
9.488,0.326,-0.885,0.0
9.066,0.31,-0.896,0.0
8.678,0.295,-0.906,0.0
8.286,0.28,-0.91,0.0
8.001,0.268,-0.923,0.0
10.07,0.336,-0.876,0.0
9.603,0.318,-0.888,0.0
9.118,0.3,-0.893,0.0
8.732,0.286,-0.904,0.0
8.369,0.272,-0.913,0.0
8.048,0.26,-0.922,0.0
10.124,0.325,-0.873,0.0
9.682,0.309,-0.887,0.0
9.124,0.289,-0.886,0.0
8.8,0.277,-0.904,0.0
8.442,0.264,-0.913,0.0
8.074,0.251,-0.918,0.0
10.213,0.315,-0.871,0.0
9.734,0.298,-0.883,0.0
9.232,0.281,-0.888,0.0
8.891,0.269,-0.905,0.0
8.478,0.254,-0.909,0.0
8.143,0.243,-0.918,0.0
10.332,0.306,-0.872,0.0
9.83,0.289,-0.883,0.0
9.384,0.274,-0.894,0.0
8.975,0.26,-0.905,0.0
8.38,0.241,-0.891,0.0
8.173,0.233,-0.913,2.0
10.406,0.295,-0.868,2.0
9.896,0.279,-0.879,0.0
9.435,0.264,-0.889,0.0
9.011,0.25,-0.899,1.0
8.5,0.234,-0.895,0.0
8.208,0.224,-0.909,2.0
10.416,0.283,-0.858,4.0
10.003,0.269,-0.878,0.0
9.525,0.255,-0.888,0.0
9.057,0.24,-0.894,0.0
8.679,0.228,-0.904,0.0
8.217,0.215,-0.901,1.0
10.489,0.272,-0.853,3.0
10.094,0.26,-0.875,0.0
9.613,0.245,-0.886,0.0
9.153,0.232,-0.894,0.0
8.78,0.22,-0.905,0.0
8.382,0.209,-0.91,0.0
10.705,0.265,-0.859,0.0
10.226,0.251,-0.875,0.0
9.711,0.236,-0.884,0.0
9.249,0.223,-0.893,0.0
8.855,0.212,-0.903,0.0
8.458,0.201,-0.908,0.0
10.865,0.256,-0.859,0.0
10.319,0.241,-0.871,2.0
9.805,0.227,-0.881,0.0
9.353,0.215,-0.892,0.0
8.953,0.204,-0.902,0.0
8.567,0.193,-0.91,0.0
10.993,0.246,-0.856,0.0
10.378,0.23,-0.864,4.0
9.914,0.218,-0.879,0.0
9.438,0.206,-0.889,0.0
9.0,0.194,-0.896,0.0
8.653,0.185,-0.908,0.0
11.141,0.237,-0.854,0.0
10.437,0.22,-0.856,4.0
10.023,0.209,-0.876,0.0
9.541,0.197,-0.886,0.0
9.088,0.186,-0.893,0.0
8.716,0.176,-0.904,0.0
11.3,0.228,-0.852,0.0
10.555,0.21,-0.852,2.0
10.165,0.2,-0.875,0.0
9.66,0.189,-0.885,0.0
9.198,0.178,-0.892,0.0
8.81,0.168,-0.902,0.0
11.453,0.218,-0.848,0.0
10.79,0.203,-0.857,0.0
10.308,0.192,-0.874,1.0
9.785,0.18,-0.883,0.0
9.334,0.17,-0.893,0.0
8.89,0.16,-0.898,0.0
11.639,0.209,-0.847,0.0
10.952,0.194,-0.855,0.0
10.401,0.183,-0.868,4.0
9.884,0.172,-0.879,0.0
9.412,0.161,-0.887,0.0
9.005,0.153,-0.898,0.0
11.781,0.199,-0.841,0.0
11.116,0.185,-0.853,1.0
10.447,0.172,-0.857,9.0
10.028,0.163,-0.878,0.0
9.554,0.154,-0.887,0.0
9.118,0.145,-0.896,0.0
11.974,0.19,-0.838,0.0
11.271,0.176,-0.849,0.0
10.513,0.162,-0.848,2.0
10.173,0.155,-0.876,0.0
9.667,0.146,-0.884,0.0
9.207,0.137,-0.891,0.0
12.148,0.18,-0.833,1.0
11.475,0.168,-0.848,0.0
10.828,0.156,-0.857,0.0
10.33,0.147,-0.874,0.0
9.783,0.138,-0.88,0.0
9.342,0.13,-0.89,0.0
12.359,0.171,-0.829,1.0
11.66,0.159,-0.844,1.0
10.985,0.148,-0.853,1.0
10.448,0.139,-0.868,0.0
9.924,0.13,-0.878,0.0
9.456,0.122,-0.887,0.0
12.567,0.161,-0.824,1.0
11.851,0.15,-0.84,1.0
11.161,0.139,-0.85,1.0
10.636,0.131,-0.868,0.0
10.08,0.122,-0.876,0.0
9.579,0.114,-0.883,0.0
12.804,0.152,-0.82,1.0
12.033,0.141,-0.834,1.0
11.357,0.131,-0.847,0.0
10.77,0.122,-0.861,0.0
10.249,0.114,-0.874,0.0
9.729,0.107,-0.882,0.0
13.01,0.143,-0.812,1.0
12.261,0.132,-0.83,1.0
11.586,0.123,-0.846,1.0
10.922,0.114,-0.856,0.0
10.403,0.107,-0.871,0.0
9.873,0.1,-0.879,0.0
13.283,0.134,-0.808,1.0
12.497,0.124,-0.826,1.0
11.772,0.114,-0.84,1.0
11.121,0.106,-0.854,0.0
10.54,0.099,-0.865,0.0
10.026,0.092,-0.876,0.0
13.533,0.124,-0.801,1.0
12.715,0.115,-0.819,1.0
11.985,0.106,-0.835,1.0
11.323,0.098,-0.85,0.0
10.73,0.091,-0.862,0.0
10.217,0.085,-0.875,0.0
13.873,0.116,-0.798,1.0
12.959,0.106,-0.813,1.0
12.203,0.098,-0.83,1.0
11.515,0.09,-0.845,0.0
10.902,0.084,-0.858,0.0
10.373,0.078,-0.871,0.0
14.143,0.106,-0.789,1.0
13.229,0.097,-0.808,1.0
12.444,0.09,-0.825,1.0
11.715,0.083,-0.84,1.0
11.072,0.076,-0.852,0.0
10.54,0.071,-0.867,0.0
14.502,0.098,-0.784,1.0
13.497,0.089,-0.801,1.0
12.68,0.081,-0.819,1.0
11.942,0.075,-0.835,1.0
11.321,0.069,-0.851,0.0
10.729,0.064,-0.863,0.0
14.844,0.089,-0.777,1.0
13.804,0.08,-0.794,1.0
12.951,0.073,-0.813,1.0
12.174,0.067,-0.83,0.0
11.543,0.062,-0.847,0.0
10.914,0.057,-0.859,0.0
15.111,0.079,-0.764,2.0
14.157,0.072,-0.789,1.0
13.259,0.066,-0.809,1.0
12.424,0.06,-0.824,0.0
11.744,0.055,-0.841,0.0
11.105,0.05,-0.853,0.0
15.697,0.071,-0.765,4.0
14.5,0.064,-0.782,1.0
13.55,0.058,-0.802,1.0
12.692,0.052,-0.819,1.0
11.971,0.048,-0.835,0.0
11.342,0.044,-0.851,0.0
15.785,0.061,-0.74,9.0
14.893,0.056,-0.776,1.0
13.891,0.05,-0.796,1.0
12.961,0.045,-0.812,0.0
12.225,0.041,-0.83,0.0
11.571,0.037,-0.846,0.0
16.238,0.053,-0.731,0.0
15.139,0.047,-0.761,1.0
14.188,0.042,-0.787,1.0
13.29,0.038,-0.808,1.0
12.507,0.034,-0.825,1.0
11.784,0.031,-0.84,0.0
17.07,0.045,-0.737,0.0
15.743,0.04,-0.761,2.0
14.596,0.035,-0.782,1.0
13.597,0.031,-0.801,1.0
12.767,0.027,-0.819,1.0
12.03,0.025,-0.834,0.0
17.517,0.036,-0.723,1.0
15.877,0.031,-0.738,15.0
14.96,0.028,-0.773,1.0
13.935,0.024,-0.794,1.0
13.076,0.021,-0.813,0.0
12.323,0.018,-0.831,0.0
18.039,0.028,-0.71,1.0
15.942,0.023,-0.71,1.0
15.311,0.02,-0.761,1.0
14.299,0.017,-0.787,1.0
13.354,0.015,-0.804,0.0
12.585,0.012,-0.824,0.0
18.639,0.019,-0.697,2.0
17.187,0.016,-0.732,1.0
15.869,0.013,-0.758,8.0
14.682,0.01,-0.779,1.0
13.703,0.008,-0.798,1.0
12.885,0.007,-0.818,0.0
19.213,0.011,-0.681,3.0
17.691,0.008,-0.718,1.0
15.896,0.006,-0.728,6.0
15.06,0.004,-0.77,1.0
14.028,0.002,-0.79,0.0
13.196,0.001,-0.811,0.0
19.981,0.002,-0.669,2.0
18.27,0.001,-0.706,1.0
16.899,0.0,-0.741,0.0
15.517,-0.001,-0.762,1.0
14.438,-0.002,-0.784,1.0
13.498,-0.003,-0.803,1.0
20.782,-0.005,-0.654,2.0
18.831,-0.006,-0.69,3.0
17.345,-0.007,-0.726,1.0
15.869,-0.007,-0.748,5.0
14.825,-0.008,-0.775,1.0
13.818,-0.009,-0.794,1.0
21.642,-0.013,-0.638,3.0
19.495,-0.013,-0.675,3.0
17.93,-0.013,-0.714,1.0
16.396,-0.013,-0.739,0.0
15.21,-0.013,-0.765,1.0
14.215,-0.014,-0.788,1.0
22.513,-0.021,-0.618,3.0
20.342,-0.02,-0.663,3.0
18.544,-0.02,-0.7,2.0
17.018,-0.019,-0.733,1.0
15.686,-0.019,-0.756,1.0
14.631,-0.018,-0.781,1.0
23.355,-0.029,-0.593,2.0
21.16,-0.027,-0.647,3.0
19.146,-0.026,-0.684,2.0
17.599,-0.025,-0.722,1.0
16.065,-0.023,-0.742,1.0
15.022,-0.023,-0.771,1.0
24.238,-0.036,-0.566,3.0
22.071,-0.034,-0.629,2.0
19.944,-0.032,-0.671,2.0
18.176,-0.03,-0.707,2.0
16.742,-0.028,-0.738,1.0
15.452,-0.027,-0.761,1.0
25.587,-0.044,-0.544,1.0
22.991,-0.04,-0.607,3.0
20.767,-0.037,-0.656,2.0
18.819,-0.035,-0.693,2.0
17.335,-0.033,-0.728,1.0
15.93,-0.031,-0.751,1.0
26.661,-0.051,-0.512,2.0
23.868,-0.046,-0.581,2.0
21.662,-0.043,-0.639,3.0
19.505,-0.039,-0.677,2.0
17.914,-0.037,-0.715,2.0
16.507,-0.034,-0.744,0.0
27.878,-0.057,-0.476,1.0
24.861,-0.052,-0.553,1.0
22.609,-0.048,-0.619,2.0
20.379,-0.044,-0.665,2.0
18.551,-0.04,-0.701,2.0
17.074,-0.038,-0.733,1.0
29.309,-0.063,-0.439,2.0
26.27,-0.057,-0.529,1.0
23.49,-0.052,-0.594,2.0
21.225,-0.047,-0.648,3.0
19.248,-0.043,-0.687,2.0
17.667,-0.04,-0.721,1.0
30.499,-0.068,-0.392,1.0
27.372,-0.062,-0.493,1.0
24.411,-0.055,-0.565,2.0
22.193,-0.051,-0.631,2.0
20.044,-0.046,-0.673,3.0
18.274,-0.042,-0.708,1.0
32.436,-0.074,-0.349,2.0
28.803,-0.066,-0.458,2.0
25.806,-0.059,-0.543,1.0
23.061,-0.053,-0.607,2.0
20.894,-0.048,-0.657,3.0
18.951,-0.044,-0.694,2.0
37.015,-0.084,-0.32,0.0
30.0,-0.068,-0.413,2.0
26.868,-0.061,-0.508,2.0
24.028,-0.055,-0.58,2.0
21.815,-0.05,-0.639,3.0
19.678,-0.045,-0.678,2.0
38.959,-0.087,-0.253,6.0
32.074,-0.072,-0.374,2.0
28.222,-0.063,-0.474,1.0
25.243,-0.056,-0.556,1.0
22.763,-0.05,-0.619,2.0
20.557,-0.045,-0.664,2.0
40.136,-0.087,-0.176,16.0
33.925,-0.073,-0.323,0.0
29.545,-0.063,-0.433,2.0
26.466,-0.056,-0.527,2.0
23.663,-0.05,-0.593,2.0
21.437,-0.045,-0.648,3.0
42.296,-0.087,-0.096,18.0
38.757,-0.079,-0.287,3.0
30.986,-0.062,-0.389,1.0
27.617,-0.055,-0.492,1.0
24.638,-0.049,-0.565,2.0
22.372,-0.044,-0.629,2.0
46.144,-0.088,-0.007,8.0
39.565,-0.074,-0.209,15.0
32.758,-0.061,-0.342,1.0
29.062,-0.053,-0.456,2.0
26.019,-0.047,-0.542,1.0
23.301,-0.041,-0.605,3.0
0.0,0.0,0.0,0.0
41.537,-0.07,-0.131,19.0
38.391,-0.063,-0.318,2.0
30.285,-0.049,-0.41,1.0
27.117,-0.043,-0.506,2.0
24.221,-0.037,-0.577,3.0
61.749,-0.092,0.253,19.0
45.626,-0.066,-0.047,20.0
39.18,-0.055,-0.241,14.0
32.315,-0.044,-0.368,2.0
28.529,-0.038,-0.472,1.0
25.596,-0.033,-0.555,1.0
76.378,-0.094,0.476,17.0
0.0,0.0,0.0,0.0
40.289,-0.046,-0.163,16.0
37.112,-0.04,-0.344,0.0
29.77,-0.031,-0.429,2.0
26.736,-0.026,-0.523,2.0
79.438,-0.074,0.664,150.0
56.16,-0.049,0.18,9.0
0.0,0.0,0.0,0.0
38.613,-0.029,-0.277,6.0
31.174,-0.022,-0.383,1.0
27.921,-0.018,-0.487,1.0
79.471,-0.047,0.832,151.0
76.12,-0.04,0.406,15.0
47.719,-0.022,0.008,21.0
39.598,-0.016,-0.2,20.0
33.624,-0.011,-0.343,1.0
29.289,-0.008,-0.449,2.0
79.466,-0.017,1.0,151.0
79.244,-0.012,0.59,24.0
55.671,-0.005,0.127,29.0
43.813,0.0,-0.129,5.0
38.371,0.001,-0.311,5.0
30.55,0.003,-0.405,1.0
79.455,0.014,1.167,151.0
79.465,0.02,0.758,166.0
61.812,0.02,0.271,14.0
0.0,0.0,0.0,0.0
39.039,0.019,-0.234,14.0
32.829,0.018,-0.366,1.0
79.445,0.051,1.336,162.0
79.47,0.057,0.926,156.0
76.423,0.061,0.497,17.0
0.0,0.0,0.0,0.0
40.333,0.039,-0.156,29.0
38.013,0.04,-0.343,1.0
79.455,0.089,1.503,151.0
79.459,0.096,1.093,155.0
79.441,0.103,0.684,150.0
0.0,0.0,0.0,0.0
44.487,0.066,-0.079,19.0
38.51,0.06,-0.266,12.0
79.452,0.131,1.671,151.0
79.455,0.139,1.262,165.0
79.466,0.147,0.853,151.0
75.952,0.147,0.415,15.0
47.889,0.097,0.015,21.0
39.353,0.084,-0.19,36.0
79.442,0.176,1.837,150.0
79.453,0.184,1.427,155.0
79.466,0.192,1.017,152.0
79.456,0.2,0.599,29.0
54.976,0.144,0.131,28.0
43.897,0.12,-0.121,6.0
79.454,0.223,2.0,150.0
79.451,0.232,1.59,151.0
79.458,0.24,1.18,164.0
79.448,0.249,0.762,150.0
59.186,0.192,0.261,7.0
0.0,0.0,0.0,0.0
79.451,0.273,2.163,150.0
79.444,0.282,1.752,150.0
79.45,0.291,1.341,167.0
79.45,0.3,0.923,150.0
76.687,0.299,0.495,54.0
54.351,0.218,0.071,28.0
79.405,0.326,2.324,18.0
59.305,0.25,1.429,97.0
59.303,0.258,1.122,96.0
59.305,0.265,0.809,95.0
59.319,0.272,0.503,93.0
55.035,0.259,0.182,40.0
48.232,0.232,1.51,30.0
59.288,0.292,1.548,25.0
59.285,0.3,1.241,38.0
59.285,0.308,0.929,81.0
59.29,0.315,0.622,81.0
55.068,0.3,0.293,52.0
48.161,0.267,1.604,90.0
48.157,0.273,1.354,85.0
48.156,0.279,1.104,61.0
48.166,0.286,0.85,59.0
48.175,0.292,0.6,53.0
48.182,0.299,0.351,53.0
48.135,0.303,1.698,78.0
48.125,0.31,1.449,105.0
48.12,0.317,1.198,97.0
48.116,0.323,0.944,92.0
48.107,0.33,0.694,73.0
48.105,0.337,0.445,51.0
48.125,0.342,1.792,107.0
48.113,0.348,1.541,110.0
48.115,0.355,1.292,103.0
48.093,0.362,1.037,109.0
48.092,0.369,0.787,108.0
48.082,0.376,0.538,103.0
48.128,0.382,1.886,114.0
48.112,0.389,1.635,103.0
48.124,0.396,1.386,114.0
48.095,0.403,1.13,114.0
48.097,0.411,0.881,108.0
48.083,0.418,0.63,107.0
48.136,0.423,1.979,106.0
48.122,0.431,1.728,105.0
48.116,0.438,1.478,91.0
48.094,0.446,1.222,113.0
48.102,0.453,0.972,107.0
48.097,0.461,0.723,105.0
48.189,0.467,2.073,74.0
48.161,0.475,1.821,94.0
48.158,0.482,1.571,80.0
48.13,0.49,1.314,91.0
48.129,0.498,1.064,99.0
48.122,0.506,0.813,90.0
55.067,0.585,2.473,59.0
55.042,0.594,2.185,36.0
48.211,0.528,1.663,39.0
48.194,0.536,1.406,51.0
48.187,0.544,1.155,62.0
48.156,0.552,0.903,66.0
55.042,0.638,2.575,97.0
55.014,0.647,2.287,117.0
55.017,0.656,2.0,125.0
54.999,0.666,1.706,110.0
55.03,0.676,1.421,96.0
55.085,0.686,1.135,63.0
55.025,0.692,2.676,127.0
54.993,0.701,2.387,110.0
54.999,0.711,2.1,114.0
55.01,0.721,1.807,114.0
55.075,0.732,1.522,55.0
100.077,1.349,2.244,14.0
55.007,0.748,2.775,133.0
54.988,0.758,2.486,120.0
55.029,0.768,2.2,110.0
55.075,0.779,1.908,71.0
55.084,0.789,1.62,1.0
176.408,2.561,4.27,22.0
54.976,0.806,2.873,129.0
54.998,0.816,2.585,89.0
55.06,0.827,2.3,75.0
163.083,2.481,5.941,20.0
132.935,2.046,4.145,25.0
159.909,2.493,4.151,9.0
54.949,0.864,2.968,99.0
55.011,0.875,2.682,107.0
55.102,0.887,2.397,12.0
59.281,0.966,2.263,1.0
132.769,2.19,4.372,16.0
159.868,2.669,4.428,18.0
54.873,0.924,3.06,64.0
55.071,0.938,2.781,59.0
129.898,2.237,5.876,17.0
130.625,2.276,5.211,9.0
132.705,2.338,4.598,28.0
163.102,2.907,4.797,7.0
54.76,0.984,3.147,39.0
55.206,1.003,2.882,50.0
129.87,2.386,6.098,24.0
130.521,2.425,5.43,7.0
128.048,2.404,4.654,21.0
128.041,2.43,3.981,26.0
62.75,1.201,3.713,20.0
55.299,1.069,2.98,29.0
128.424,2.509,6.244,12.0
127.924,2.525,5.533,14.0
127.942,2.552,4.861,35.0
128.027,2.579,4.189,50.0
62.777,1.275,3.818,15.0
54.922,1.127,3.05,25.0
125.231,2.596,6.293,9.0
127.68,2.673,5.731,31.0
127.998,2.706,5.07,38.0
128.105,2.736,4.4,20.0
54.44,1.172,3.399,29.0
54.546,1.185,3.117,25.0
55.37,1.215,2.871,14.0
127.246,2.819,5.914,12.0
130.72,2.923,5.385,17.0
152.678,3.447,5.486,34.0
55.617,1.266,3.561,13.0
54.484,1.252,3.2,66.0
55.412,1.284,2.961,48.0
122.75,2.872,5.897,27.0
130.249,3.075,5.569,28.0
152.628,3.636,5.72,33.0
53.98,1.296,3.54,41.0
54.398,1.318,3.279,97.0
55.41,1.354,3.046,34.0
122.544,3.021,6.076,35.0
130.216,3.239,5.766,14.0
152.193,3.819,5.934,27.0
53.964,1.364,3.621,44.0
54.354,1.386,3.358,84.0
55.448,1.426,3.131,17.0
122.861,3.186,6.275,26.0
130.153,3.404,5.956,17.0
152.081,4.01,6.154,36.0
55.748,1.482,3.824,64.0
54.277,1.455,3.434,73.0
122.32,3.306,7.089,24.0
122.921,3.35,6.459,24.0
122.538,3.366,5.788,30.0
151.894,4.207,6.37,29.0
62.23,1.737,4.36,20.0
54.231,1.525,3.51,51.0
124.042,3.515,7.367,22.0
133.281,3.807,7.193,9.0
122.86,3.538,5.978,53.0
151.898,4.409,6.584,35.0
73.773,2.157,5.273,27.0
73.973,2.18,4.893,28.0
124.245,3.689,7.555,32.0
125.329,3.75,6.939,23.0
123.09,3.711,6.16,24.0
152.362,4.628,6.814,20.0
73.831,2.259,5.38,21.0
55.235,1.703,3.729,54.0
54.276,1.685,3.375,6.0
73.918,2.313,4.194,41.0
153.151,4.826,7.871,18.0
133.592,4.24,6.154,46.0
73.816,2.36,5.479,22.0
55.136,1.775,3.796,39.0
54.265,1.76,3.446,31.0
73.822,2.411,4.286,45.0
125.486,4.128,6.616,19.0
133.744,4.431,6.336,31.0
65.172,2.175,4.923,17.0
55.218,1.855,3.875,10.0
54.246,1.835,3.515,80.0
73.713,2.51,4.374,21.0
73.884,2.533,3.989,37.0
124.293,4.29,6.045,20.0
62.098,2.16,4.77,22.0
55.257,1.935,3.947,4.0
54.223,1.911,3.582,60.0
64.97,2.304,3.936,32.0
73.702,2.631,4.071,36.0
73.828,2.653,3.681,20.0
62.191,2.251,4.854,6.0
65.405,2.382,4.752,35.0
54.204,1.987,3.647,101.0
73.387,2.707,4.535,19.0
73.563,2.73,4.151,30.0
73.722,2.753,3.764,27.0
64.91,2.443,5.144,8.0
54.108,2.048,3.996,35.0
54.184,2.064,3.709,52.0
73.305,2.808,4.615,27.0
73.394,2.829,4.226,12.0
73.644,2.856,3.844,36.0
53.599,2.094,4.309,62.0
53.801,2.114,4.034,68.0
73.605,2.909,5.122,29.0
73.301,2.913,4.698,11.0
73.388,2.935,4.307,14.0
73.462,2.955,3.916,8.0
53.485,2.167,4.36,75.0
65.327,2.662,4.972,28.0
73.617,3.017,5.204,45.0
73.493,3.029,4.791,16.0
73.371,3.041,4.386,18.0
73.415,3.06,3.993,51.0
54.294,2.28,4.484,73.0
71.471,3.018,5.516,28.0
73.546,3.122,5.277,43.0
65.025,2.775,4.307,16.0
73.255,3.144,4.456,33.0
73.231,3.161,4.059,42.0
64.621,2.809,5.405,32.0
64.364,2.813,5.034,30.0
73.798,3.243,5.37,10.0
73.352,3.24,4.933,32.0
73.18,3.25,4.526,36.0
73.4,3.278,4.143,8.0
64.519,2.902,5.461,28.0
64.531,2.918,5.111,27.0
64.645,2.937,4.769,29.0
73.731,3.368,5.031,15.0
127.831,5.869,8.029,27.0
73.327,3.384,4.208,29.0
64.982,3.02,5.562,32.0
74.128,3.462,5.941,24.0
64.567,3.03,4.823,9.0
73.659,3.474,5.094,32.0
149.289,7.076,9.514,17.0
73.31,3.492,4.274,32.0
64.987,3.118,5.622,16.0
68.128,3.285,5.522,6.0
64.695,3.133,4.891,32.0
73.626,3.583,5.157,35.0
149.848,7.328,9.682,17.0
73.391,3.607,4.343,33.0
64.779,3.206,5.662,15.0
64.942,3.229,5.32,35.0
64.849,3.24,4.959,7.0
73.736,3.7,5.228,44.0
149.983,7.561,9.816,28.0
73.369,3.716,4.403,13.0
64.359,3.283,5.679,40.0
64.502,3.305,5.338,29.0
65.407,3.367,5.055,10.0
76.168,3.938,5.462,5.0
132.405,6.877,8.773,18.0
127.798,6.667,7.77,21.0
67.919,3.569,6.047,12.0
64.599,3.409,5.397,19.0
78.273,4.148,6.11,15.0
76.106,4.05,5.516,9.0
124.586,6.66,8.349,25.0
128.136,6.88,7.888,27.0
64.195,3.471,5.763,28.0
64.835,3.52,5.464,13.0
78.288,4.269,6.169,21.0
71.976,3.941,5.269,23.0
71.964,3.957,4.874,5.0
127.859,7.06,7.961,20.0
69.995,3.892,6.334,10.0
64.483,3.601,5.48,9.0
64.932,3.64,5.161,12.0
71.786,4.04,5.304,33.0
71.951,4.066,4.922,30.0
127.534,7.236,8.025,17.0
64.632,3.693,5.892,13.0
64.704,3.712,5.542,25.0
75.637,4.356,6.061,20.0
71.778,4.149,5.35,29.0
71.799,4.167,4.957,27.0
127.476,7.429,8.102,29.0
63.828,3.746,5.859,19.0
64.441,3.796,5.558,23.0
75.273,4.451,6.078,13.0
71.822,4.263,5.396,12.0
124.974,7.445,8.703,15.0
127.539,7.628,8.18,21.0
63.806,3.843,5.893,25.0
64.332,3.888,5.586,29.0
64.467,3.91,5.241,28.0
78.667,4.79,5.954,43.0
67.081,4.099,4.708,34.0
67.171,4.119,4.344,28.0
41.391,2.556,3.845,49.0
64.159,3.976,5.605,29.0
64.531,4.012,5.28,33.0
78.561,4.902,5.986,37.0
67.224,4.209,4.751,22.0
67.074,4.214,4.371,32.0
55.903,3.537,5.221,1.0
64.947,4.123,5.705,36.0
65.199,4.153,5.366,14.0
65.974,4.217,5.058,11.0
67.233,4.312,4.782,37.0
67.109,4.319,4.403,42.0
70.422,4.563,6.609,11.0
70.086,4.556,6.188,13.0
64.95,4.236,5.373,26.0
66.057,4.322,5.092,26.0
67.21,4.412,4.809,26.0
66.908,4.407,4.417,29.0
70.352,4.665,6.63,20.0
70.126,4.665,6.219,11.0
65.358,4.361,5.433,41.0
66.224,4.434,5.13,42.0
67.15,4.509,4.83,31.0
67.43,4.543,4.477,37.0
70.479,4.78,6.667,41.0
65.135,4.431,5.799,33.0
65.201,4.448,5.442,30.0
66.167,4.528,5.148,42.0
67.103,4.606,4.848,30.0
67.631,4.656,4.511,36.0
70.762,4.904,6.717,48.0
64.924,4.513,5.8,21.0
0.0,0.0,0.0,0.0
64.245,4.492,5.017,34.0
67.205,4.712,4.874,32.0
67.538,4.75,4.523,34.0
70.944,5.022,6.753,34.0
63.892,4.536,5.725,28.0
63.947,4.552,5.373,38.0
65.119,4.648,5.101,41.0
67.488,4.831,4.911,20.0
67.551,4.85,4.541,34.0
71.424,5.162,6.815,20.0
64.121,4.646,5.76,29.0
63.64,4.624,5.361,38.0
64.466,4.697,5.063,40.0
67.494,4.93,4.925,34.0
70.807,5.186,4.773,24.0
64.281,4.74,6.145,32.0
64.181,4.745,5.776,39.0
63.662,4.718,5.373,31.0
0.0,0.0,0.0,0.0
67.741,5.046,4.954,8.0
70.77,5.286,4.781,41.0
64.101,4.819,6.138,37.0
63.921,4.818,5.762,39.0
63.873,4.826,5.399,31.0
64.873,4.914,5.114,41.0
67.871,5.154,4.971,25.0
70.885,5.397,4.796,13.0
38.684,2.965,3.708,52.0
64.006,4.917,5.776,39.0
63.95,4.924,5.411,37.0
0.0,0.0,0.0,0.0
67.903,5.255,4.978,20.0
67.547,5.241,4.575,30.0
38.654,3.018,3.707,53.0
64.045,5.012,5.782,39.0
63.517,4.982,5.377,35.0
0.0,0.0,0.0,0.0
65.454,5.158,4.8,10.0
67.474,5.33,4.571,19.0
38.674,3.074,3.71,64.0
64.097,5.107,5.787,39.0
63.545,5.074,5.38,35.0
66.225,5.3,5.228,21.0
65.482,5.252,4.802,12.0
74.601,5.998,5.053,31.0
38.665,3.128,3.708,62.0
64.379,5.22,5.81,40.0
63.467,5.156,5.371,28.0
66.278,5.396,5.228,37.0
65.492,5.344,4.799,17.0
75.692,6.19,5.122,24.0
64.476,5.306,6.179,21.0
64.282,5.3,5.797,39.0
63.887,5.278,5.401,11.0
66.576,5.511,5.247,40.0
65.523,5.436,4.795,21.0
75.363,6.266,5.092,26.0
64.628,5.407,6.186,33.0
64.119,5.374,5.774,39.0
66.017,5.544,5.573,21.0
66.571,5.602,5.237,40.0
65.577,5.529,4.79,20.0
74.373,6.283,5.014,42.0
62.04,5.273,5.928,14.0
47.421,4.038,4.263,38.0
66.295,5.655,5.585,19.0
66.496,5.684,5.22,42.0
65.587,5.617,4.779,14.0
72.499,6.222,4.874,8.0
47.686,4.117,4.547,22.0
47.477,4.105,4.259,43.0
66.532,5.764,5.592,12.0
66.385,5.762,5.197,37.0
66.138,5.751,4.805,41.0
76.566,6.67,5.131,13.0
47.566,4.168,4.525,22.0
47.442,4.164,4.244,40.0
66.304,5.83,5.556,11.0
66.59,5.865,5.196,27.0
66.285,5.848,4.798,41.0
74.224,6.56,4.955,24.0
61.975,5.509,5.879,9.0
47.508,4.23,4.237,42.0
47.813,4.264,3.993,39.0
66.566,5.946,5.175,43.0
72.262,6.466,5.209,9.0
76.386,6.848,5.075,9.0
62.064,5.595,5.868,9.0
47.655,4.303,4.234,31.0
47.78,4.321,3.974,39.0
66.462,6.02,5.145,42.0
66.382,6.022,4.763,34.0
0.0,0.0,0.0,0.0
47.513,4.342,4.475,8.0
47.913,4.385,4.24,18.0
47.679,4.37,3.949,14.0
66.099,6.068,5.092,34.0
13.882,1.276,0.99,1.0
66.33,6.108,4.359,11.0
13.903,1.287,1.304,11.0
13.858,1.285,1.221,12.0
13.841,1.285,1.14,7.0
13.808,1.284,1.058,9.0
13.842,1.289,0.982,11.0
13.82,1.288,0.902,21.0
13.856,1.299,1.293,19.0
13.836,1.298,1.213,17.0
13.795,1.296,1.131,20.0
13.817,1.3,1.052,30.0
13.805,1.301,0.973,23.0
13.826,1.305,0.896,29.0
13.834,1.312,1.285,26.0
13.808,1.312,1.204,24.0
13.791,1.312,1.124,34.0
13.811,1.315,1.045,34.0
13.805,1.316,0.967,34.0
13.803,1.318,0.888,31.0
13.826,1.327,1.277,33.0
13.794,1.325,1.196,34.0
13.777,1.325,1.115,37.0
13.788,1.328,1.037,28.0
13.785,1.329,0.958,37.0
13.791,1.332,0.88,35.0
13.802,1.34,1.268,36.0
13.788,1.34,1.188,84.0
13.771,1.34,1.108,114.0
13.777,1.342,1.028,37.0
13.778,1.344,0.95,37.0
13.784,1.346,0.872,34.0
13.791,1.353,1.259,45.0
13.774,1.353,1.178,135.0
13.764,1.353,1.099,110.0
13.764,1.355,1.019,37.0
13.764,1.357,0.941,45.0
13.769,1.359,0.863,34.0
13.784,1.367,1.25,48.0
13.777,1.367,1.17,139.0
13.761,1.367,1.09,94.0
13.747,1.367,1.009,28.0
13.765,1.371,0.932,54.0
13.769,1.373,0.854,36.0
13.781,1.38,1.241,93.0
13.768,1.38,1.16,109.0
13.754,1.38,1.081,108.0
13.724,1.379,0.999,25.0
13.757,1.383,0.922,51.0
13.764,1.385,0.845,38.0
13.773,1.393,1.231,40.0
13.76,1.393,1.15,65.0
13.756,1.394,1.071,135.0
13.749,1.394,0.991,34.0
13.758,1.396,0.913,82.0
13.761,1.398,0.835,48.0
13.779,1.406,1.221,39.0
13.753,1.405,1.14,88.0
13.75,1.406,1.061,150.0
13.75,1.407,0.981,44.0
13.755,1.409,0.903,93.0
13.76,1.41,0.825,69.0
13.784,1.419,1.211,47.0
13.755,1.417,1.13,104.0
13.749,1.418,1.051,129.0
13.746,1.419,0.97,96.0
13.753,1.42,0.892,102.0
13.759,1.422,0.814,73.0
13.777,1.43,1.2,74.0
13.752,1.429,1.119,122.0
13.747,1.429,1.04,87.0
13.753,1.431,0.96,97.0
13.748,1.431,0.881,97.0
13.765,1.434,0.804,55.0
13.778,1.442,1.189,39.0
13.747,1.439,1.108,147.0
13.756,1.441,1.029,131.0
13.759,1.443,0.95,88.0
13.751,1.443,0.87,95.0
13.759,1.445,0.792,45.0
13.772,1.452,1.177,33.0
13.747,1.45,1.096,150.0
13.76,1.452,1.018,150.0
13.75,1.452,0.937,103.0
13.759,1.454,0.859,90.0
13.764,1.456,0.781,56.0
13.749,1.46,1.163,21.0
13.754,1.461,1.085,132.0
13.76,1.463,1.006,150.0
13.756,1.463,0.926,109.0
13.76,1.464,0.847,114.0
13.761,1.465,0.769,39.0
13.74,1.469,1.151,21.0
13.754,1.471,1.072,133.0
13.764,1.473,0.994,150.0
13.75,1.472,0.913,132.0
13.754,1.473,0.834,94.0
13.768,1.476,0.757,39.0
13.749,1.479,1.139,36.0
13.763,1.481,1.061,78.0
13.765,1.482,0.982,145.0
13.752,1.481,0.901,127.0
13.765,1.484,0.822,85.0
13.772,1.485,0.744,37.0
13.752,1.488,1.126,40.0
13.774,1.491,1.048,140.0
13.762,1.49,0.968,102.0
13.749,1.49,0.887,78.0
13.767,1.492,0.81,87.0
13.777,1.494,0.731,35.0
13.76,1.497,1.113,40.0
13.778,1.5,1.035,136.0
13.758,1.498,0.955,49.0
13.744,1.497,0.873,34.0
13.77,1.501,0.796,69.0
13.78,1.502,0.718,33.0
13.755,1.504,1.099,50.0
13.776,1.507,1.021,128.0
13.752,1.505,0.941,114.0
13.747,1.505,0.86,35.0
13.772,1.508,0.782,56.0
13.784,1.51,0.704,31.0
13.763,1.513,1.086,48.0
13.782,1.515,1.008,89.0
13.751,1.512,0.926,108.0
13.745,1.512,0.846,37.0
13.779,1.516,0.769,37.0
13.794,1.518,0.691,31.0
13.768,1.52,1.072,77.0
13.788,1.522,0.994,77.0
13.753,1.519,0.912,126.0
13.755,1.519,0.832,50.0
13.796,1.524,0.755,34.0
13.8,1.525,0.676,28.0
13.781,1.527,1.058,56.0
13.774,1.527,0.978,36.0
13.748,1.524,0.897,150.0
13.758,1.525,0.818,41.0
13.807,1.531,0.741,31.0
13.811,1.532,0.662,26.0
13.782,1.533,1.043,40.0
13.774,1.532,0.964,30.0
13.75,1.529,0.883,120.0
13.769,1.532,0.803,37.0
13.811,1.537,0.726,29.0
13.809,1.537,0.647,20.0
13.793,1.539,1.029,38.0
13.762,1.535,0.947,31.0
13.744,1.533,0.867,54.0
13.784,1.538,0.789,31.0
13.817,1.542,0.712,23.0
35.853,4.002,1.642,6.0
13.785,1.542,1.013,34.0
13.762,1.54,0.932,30.0
13.759,1.539,0.853,44.0
13.79,1.543,0.774,29.0
13.821,1.546,0.696,18.0
35.868,4.014,1.602,66.0
13.801,1.548,0.999,33.0
13.756,1.542,0.916,33.0
13.77,1.544,0.838,39.0
13.789,1.546,0.758,21.0
13.823,1.55,0.681,10.0
35.877,4.024,1.561,84.0
13.791,1.55,0.982,30.0
13.752,1.545,0.9,39.0
13.777,1.548,0.822,37.0
13.806,1.551,0.743,12.0
13.819,1.552,0.665,8.0
35.866,4.029,1.52,106.0
13.783,1.551,0.965,23.0
13.763,1.549,0.885,39.0
13.79,1.551,0.807,34.0
13.794,1.552,0.726,9.0
35.862,4.035,1.683,5.0
35.872,4.036,1.478,108.0
13.763,1.551,0.948,18.0
13.766,1.551,0.868,38.0
13.787,1.553,0.79,25.0
36.351,4.094,1.872,11.0
35.868,4.039,1.641,88.0
35.894,4.042,1.436,150.0
13.758,1.551,0.931,18.0
13.773,1.553,0.852,36.0
36.421,4.106,2.045,67.0
36.399,4.102,1.831,7.0
35.886,4.044,1.599,150.0
35.867,4.041,1.392,150.0
13.754,1.552,0.914,25.0
13.772,1.553,0.836,32.0
36.445,4.109,2.003,150.0
13.826,1.558,0.678,5.0
35.887,4.045,1.555,150.0
35.838,4.038,1.348,96.0
13.755,1.552,0.897,32.0
13.781,1.554,0.819,30.0
36.426,4.107,1.957,90.0
13.819,1.557,0.661,5.0
35.877,4.043,1.511,150.0
32.475,3.659,1.181,158.0
13.763,1.552,0.881,33.0
13.796,1.555,0.803,30.0
36.258,4.086,1.903,21.0
35.854,4.039,1.672,25.0
35.877,4.04,1.467,144.0
32.483,3.657,1.142,150.0
13.776,1.552,0.864,37.0
36.384,4.098,2.074,3.0
36.304,4.087,1.861,3.0
35.857,4.035,1.628,115.0
35.881,4.037,1.423,150.0
32.251,3.627,1.094,15.0
13.779,1.551,0.848,36.0
36.372,4.092,2.028,6.0
13.804,1.552,0.69,8.0
35.865,4.031,1.584,127.0
35.853,4.028,1.377,133.0
32.237,3.62,1.053,18.0
13.781,1.548,0.83,36.0
13.802,1.55,0.752,14.0
13.806,1.549,0.673,9.0
35.87,4.024,1.539,82.0
35.879,4.023,1.333,2.0
32.26,3.616,1.013,153.0
13.786,1.546,0.813,36.0
13.807,1.547,0.735,16.0
13.815,1.547,0.656,9.0
35.86,4.014,1.493,40.0
32.445,3.63,1.165,54.0
32.257,3.607,0.973,156.0
13.786,1.542,0.796,33.0
13.809,1.543,0.718,21.0
35.855,4.006,1.658,8.0
35.878,4.006,1.449,12.0
32.311,3.606,1.119,3.0
32.263,3.599,0.932,150.0
13.8,1.539,0.779,33.0
13.803,1.538,0.7,22.0
13.801,1.537,0.62,15.0
32.47,3.614,1.27,8.0
13.813,1.536,0.461,11.0
32.143,3.574,0.889,2.0
13.804,1.534,0.762,33.0
13.817,1.535,0.683,30.0
13.799,1.532,0.603,20.0
13.805,1.531,0.522,16.0
13.805,1.53,0.443,16.0
13.814,1.53,0.364,16.0
13.799,1.528,0.744,34.0
13.802,1.527,0.665,33.0
13.8,1.526,0.585,25.0
13.802,1.525,0.505,22.0
13.802,1.524,0.425,20.0
13.807,1.523,0.347,22.0
13.798,1.522,0.726,34.0
13.811,1.522,0.648,36.0
13.789,1.518,0.568,27.0
13.799,1.518,0.487,27.0
13.811,1.518,0.408,27.0
13.805,1.517,0.329,27.0
13.799,1.515,0.709,36.0
13.796,1.513,0.629,33.0
13.793,1.511,0.55,30.0
13.803,1.511,0.47,33.0
13.803,1.51,0.39,32.0
13.797,1.508,0.311,31.0
13.791,1.506,0.691,37.0
13.781,1.504,0.611,37.0
13.781,1.502,0.532,35.0
13.782,1.501,0.452,34.0
13.799,1.502,0.373,34.0
13.791,1.5,0.294,31.0
13.783,1.497,0.673,39.0
13.793,1.497,0.594,40.0
13.792,1.495,0.515,37.0
13.783,1.493,0.434,35.0
13.795,1.493,0.356,37.0
13.782,1.49,0.276,33.0
13.786,1.489,0.656,40.0
13.781,1.487,0.576,75.0
13.777,1.485,0.497,70.0
13.784,1.484,0.417,37.0
13.789,1.483,0.338,37.0
13.769,1.48,0.259,33.0
13.778,1.479,0.638,39.0
13.786,1.478,0.559,115.0
13.777,1.475,0.48,108.0
13.766,1.473,0.399,37.0
13.78,1.473,0.321,36.0
13.771,1.47,0.242,33.0
13.771,1.468,0.62,37.0
13.778,1.467,0.542,124.0
13.781,1.466,0.463,127.0
13.775,1.463,0.382,39.0
13.768,1.461,0.303,36.0
13.773,1.46,0.225,34.0
13.768,1.457,0.603,40.0
13.783,1.457,0.525,143.0
13.781,1.455,0.446,150.0
13.774,1.452,0.365,39.0
13.765,1.45,0.286,36.0
13.772,1.449,0.207,35.0
13.771,1.446,0.586,58.0
13.778,1.445,0.507,150.0
13.783,1.443,0.429,150.0
13.767,1.44,0.348,40.0
13.762,1.438,0.269,37.0
13.773,1.437,0.19,35.0
13.77,1.434,0.569,75.0
13.783,1.433,0.491,150.0
13.778,1.431,0.412,139.0
13.762,1.427,0.331,45.0
13.759,1.425,0.252,55.0
13.767,1.424,0.174,34.0
13.776,1.422,0.553,68.0
13.782,1.421,0.474,150.0
13.774,1.418,0.395,124.0
13.756,1.414,0.314,52.0
13.761,1.413,0.236,51.0
13.755,1.41,0.157,35.0
13.771,1.408,0.536,66.0
13.788,1.408,0.458,150.0
13.776,1.405,0.378,125.0
13.762,1.401,0.298,39.0
13.772,1.4,0.219,56.0
13.777,1.399,0.141,36.0
13.778,1.396,0.519,74.0
13.789,1.394,0.441,150.0
13.78,1.391,0.362,120.0
13.76,1.387,0.281,52.0
13.777,1.387,0.203,52.0
13.775,1.385,0.124,38.0
13.785,1.382,0.504,63.0
13.797,1.381,0.425,128.0
13.785,1.378,0.346,147.0
13.773,1.374,0.266,43.0
13.779,1.373,0.187,57.0
13.787,1.372,0.109,37.0
13.789,1.368,0.488,68.0
13.801,1.367,0.409,132.0
13.786,1.363,0.33,109.0
13.778,1.36,0.25,41.0
13.786,1.359,0.171,42.0
13.788,1.357,0.093,37.0
13.808,1.354,0.472,41.0
13.806,1.352,0.394,80.0
13.782,1.347,0.314,39.0
13.783,1.345,0.234,37.0
13.788,1.343,0.156,36.0
13.802,1.342,0.077,37.0
13.814,1.339,0.457,39.0
13.814,1.337,0.378,77.0
13.798,1.333,0.299,35.0
13.8,1.331,0.219,34.0
13.815,1.33,0.141,37.0
13.815,1.327,0.062,35.0
13.827,1.324,0.442,38.0
13.822,1.321,0.363,38.0
13.81,1.317,0.284,35.0
13.815,1.315,0.204,30.0
13.826,1.314,0.125,35.0
13.819,1.311,0.047,32.0
13.83,1.307,0.427,34.0
13.831,1.305,0.348,36.0
13.816,1.3,0.269,28.0
13.825,1.299,0.189,25.0
13.842,1.298,0.11,29.0
13.844,1.296,0.032,29.0
13.859,1.292,0.413,27.0
13.833,1.287,0.333,23.0
13.864,1.287,0.255,14.0
13.84,1.282,0.174,16.0
13.863,1.282,0.096,16.0
13.863,1.28,0.017,22.0
31.147,2.864,0.896,4.0
13.849,1.27,0.319,5.0
13.878,1.27,0.241,5.0
13.865,1.267,0.16,4.0
13.874,1.265,0.081,5.0
13.873,1.262,0.003,8.0
31.109,2.819,0.862,32.0
31.16,2.817,0.686,1.0
31.155,2.81,0.509,0.0
74.531,6.709,0.787,11.0
52.879,4.75,0.258,18.0
41.096,3.683,-0.032,37.0
31.086,2.773,0.829,155.0
31.089,2.767,0.653,46.0
31.098,2.762,0.476,24.0
65.374,5.793,0.624,12.0
31.175,2.756,0.12,3.0
38.402,3.388,-0.069,8.0
31.017,2.723,0.797,35.0
31.033,2.718,0.621,42.0
31.046,2.712,0.445,27.0
31.129,2.713,0.266,20.0
31.129,2.707,0.089,44.0
31.098,2.698,-0.086,38.0
30.997,2.676,0.766,42.0
31.004,2.67,0.59,41.0
31.018,2.664,0.415,39.0
31.099,2.665,0.236,42.0
31.093,2.658,0.06,25.0
31.084,2.651,-0.115,44.0
31.022,2.632,0.737,60.0
31.001,2.624,0.561,44.0
30.997,2.616,0.385,42.0
31.107,2.619,0.207,37.0
31.106,2.612,0.031,33.0
31.11,2.606,-0.144,37.0
30.999,2.583,0.708,42.0
31.015,2.577,0.533,59.0
31.035,2.572,0.357,54.0
31.133,2.573,0.179,22.0
31.193,2.571,0.003,33.0
31.167,2.562,-0.173,12.0
31.01,2.536,0.68,64.0
31.016,2.529,0.505,63.0
31.029,2.523,0.329,35.0
31.294,2.537,0.152,23.0
31.34,2.534,-0.024,63.0
31.309,2.525,-0.201,20.0
31.011,2.486,0.653,66.0
31.003,2.478,0.478,49.0
31.16,2.483,0.304,21.0
31.269,2.485,0.125,25.0
31.277,2.478,-0.051,37.0
31.306,2.473,-0.228,25.0
31.041,2.438,0.628,56.0
31.049,2.431,0.452,40.0
31.212,2.436,0.278,21.0
31.262,2.433,0.099,30.0
31.299,2.429,-0.077,42.0
31.373,2.427,-0.254,25.0
31.064,2.389,0.603,34.0
31.112,2.385,0.428,17.0
31.3,2.392,0.254,8.0
31.319,2.386,0.074,46.0
36.362,2.762,-0.118,34.0
34.955,2.647,-0.31,3.0
31.146,2.343,0.58,41.0
31.219,2.341,0.405,22.0
66.562,4.975,0.489,150.0
42.387,3.157,0.068,15.0
35.981,2.671,-0.144,45.0
34.943,2.586,-0.337,0.0
139.637,10.269,2.496,39.0
85.493,6.266,1.046,7.0
57.76,4.218,0.381,31.0
42.046,3.06,0.036,17.0
35.814,2.598,-0.17,37.0
31.88,2.305,-0.331,1.0
139.575,10.026,2.394,7.0
74.889,5.36,0.863,8.0
0.0,0.0,0.0,0.0
41.649,2.96,0.007,39.0
0.0,0.0,0.0,0.0
31.176,2.2,-0.345,1.0
114.649,8.035,1.887,18.0
74.711,5.216,0.809,8.0
54.787,3.81,0.285,28.0
41.331,2.863,-0.021,47.0
35.308,2.437,-0.216,18.0
30.753,2.115,-0.361,1.0
114.64,7.828,1.81,9.0
74.588,5.074,0.758,12.0
54.652,3.703,0.248,28.0
40.796,2.753,-0.047,16.0
35.163,2.364,-0.238,11.0
30.341,2.032,-0.376,2.0
139.58,9.279,2.115,37.0
74.316,4.919,0.708,20.0
54.436,3.589,0.213,23.0
0.0,0.0,0.0,0.0
35.176,2.3,-0.26,9.0
30.002,1.954,-0.39,2.0
120.892,7.815,1.759,19.0
74.194,4.775,0.663,36.0
54.168,3.471,0.18,10.0
39.919,2.547,-0.094,26.0
0.0,0.0,0.0,0.0
29.64,1.876,-0.402,2.0
33.469,2.101,0.467,150.0
33.463,2.092,0.28,155.0
33.479,2.084,0.092,150.0
36.765,2.278,-0.107,2.0
35.171,2.17,-0.299,8.0
29.308,1.8,-0.414,1.0
33.479,2.039,0.45,1.0
73.704,4.468,0.578,19.0
47.496,2.866,0.106,3.0
36.508,2.193,-0.125,20.0
35.147,2.101,-0.317,5.0
29.077,1.73,-0.425,2.0
96.379,5.688,1.246,6.0
73.567,4.32,0.54,16.0
45.702,2.67,0.08,21.0
36.271,2.109,-0.142,31.0
35.257,2.04,-0.335,1.0
28.835,1.66,-0.435,1.0
81.682,4.664,1.018,6.0
73.497,4.175,0.505,12.0
43.269,2.445,0.056,18.0
36.276,2.04,-0.159,16.0
32.553,1.821,-0.324,1.0
28.701,1.597,-0.446,1.0
81.87,4.516,0.984,5.0
73.448,4.03,0.473,8.0
42.668,2.328,0.037,17.0
35.895,1.948,-0.172,27.0
32.06,1.73,-0.333,1.0
25.004,1.342,-0.399,1.0
78.947,4.201,0.917,13.0
58.197,3.079,0.352,4.0
42.252,2.222,0.02,18.0
36.118,1.889,-0.187,27.0
31.987,1.663,-0.344,2.0
24.712,1.278,-0.403,1.0
78.446,4.018,0.882,15.0
58.634,2.984,0.333,5.0
42.008,2.125,0.005,17.0
35.897,1.805,-0.199,35.0
31.522,1.576,-0.35,1.0
24.691,1.227,-0.411,3.0
78.304,3.852,0.855,24.0
55.2,2.699,0.295,15.0
41.803,2.031,-0.008,17.0
35.952,1.735,-0.21,29.0
31.254,1.499,-0.357,2.0
24.533,1.169,-0.416,2.0
78.223,3.689,0.83,47.0
55.035,2.579,0.278,23.0
41.696,1.94,-0.02,17.0
35.969,1.662,-0.22,20.0
31.046,1.425,-0.363,1.0
24.525,1.119,-0.423,5.0
78.008,3.521,0.808,22.0
54.875,2.46,0.263,28.0
41.689,1.856,-0.03,18.0
36.014,1.592,-0.229,13.0
30.852,1.354,-0.368,2.0
24.351,1.061,-0.425,5.0
77.827,3.354,0.788,22.0
54.797,2.343,0.251,28.0
41.638,1.767,-0.039,18.0
36.046,1.519,-0.237,12.0
30.796,1.288,-0.373,2.0
24.31,1.009,-0.429,5.0
77.978,3.2,0.775,56.0
54.858,2.233,0.241,29.0
41.422,1.672,-0.046,17.0
36.105,1.446,-0.244,12.0
