X,Y,Z,Reflectivity
13.192,-0.513,-0.806,1.0
12.415,-0.483,-0.823,0.0
11.723,-0.457,-0.839,0.0
11.117,-0.433,-0.854,0.0
10.557,-0.412,-0.867,0.0
9.994,-0.39,-0.873,1.0
13.461,-0.522,-0.798,1.0
12.652,-0.491,-0.816,1.0
11.943,-0.464,-0.833,0.0
11.316,-0.439,-0.849,0.0
10.754,-0.418,-0.864,0.0
10.201,-0.396,-0.873,0.0
13.748,-0.532,-0.791,0.0
12.932,-0.5,-0.811,1.0
12.191,-0.471,-0.828,0.0
11.528,-0.446,-0.845,0.0
10.941,-0.423,-0.859,0.0
10.406,-0.402,-0.871,0.0
14.063,-0.541,-0.784,1.0
13.213,-0.509,-0.805,1.0
12.434,-0.478,-0.822,0.0
11.745,-0.452,-0.839,0.0
11.155,-0.429,-0.855,0.0
10.582,-0.407,-0.867,0.0
14.402,-0.551,-0.776,1.0
13.493,-0.516,-0.798,1.0
12.708,-0.486,-0.817,1.0
11.976,-0.458,-0.834,1.0
11.358,-0.434,-0.85,0.0
10.78,-0.412,-0.863,0.0
14.763,-0.561,-0.769,1.0
13.811,-0.525,-0.791,1.0
12.983,-0.493,-0.811,0.0
12.238,-0.464,-0.83,0.0
11.572,-0.439,-0.845,0.0
10.975,-0.416,-0.859,0.0
15.164,-0.572,-0.762,1.0
14.098,-0.531,-0.782,1.0
13.273,-0.5,-0.805,1.0
12.473,-0.469,-0.823,0.0
11.795,-0.443,-0.84,0.0
11.183,-0.42,-0.854,0.0
15.56,-0.582,-0.754,1.0
14.477,-0.54,-0.777,1.0
13.544,-0.505,-0.797,1.0
12.76,-0.475,-0.818,1.0
12.035,-0.448,-0.834,1.0
11.404,-0.424,-0.85,0.0
15.968,-0.591,-0.744,1.0
14.871,-0.549,-0.77,1.0
13.843,-0.511,-0.789,1.0
13.049,-0.481,-0.813,1.0
12.28,-0.452,-0.829,0.0
11.62,-0.427,-0.845,0.0
16.447,-0.602,-0.736,1.0
15.239,-0.557,-0.761,1.0
14.188,-0.517,-0.782,1.0
13.327,-0.485,-0.805,1.0
12.561,-0.457,-0.824,1.0
11.844,-0.43,-0.839,0.0
16.973,-0.613,-0.728,1.0
15.647,-0.564,-0.752,1.0
14.569,-0.524,-0.776,1.0
13.609,-0.489,-0.797,1.0
12.813,-0.459,-0.817,0.0
12.103,-0.433,-0.835,0.0
17.5,-0.623,-0.718,1.0
16.069,-0.571,-0.743,1.0
14.967,-0.531,-0.769,1.0
13.937,-0.493,-0.79,1.0
13.126,-0.464,-0.813,1.0
12.343,-0.435,-0.828,0.0
18.003,-0.631,-0.706,1.0
16.594,-0.581,-0.736,1.0
15.346,-0.536,-0.761,1.0
14.283,-0.497,-0.783,1.0
13.4,-0.466,-0.805,1.0
12.614,-0.437,-0.823,1.0
18.539,-0.639,-0.693,1.0
17.11,-0.589,-0.728,1.0
15.753,-0.541,-0.752,1.0
14.65,-0.501,-0.776,1.0
13.702,-0.468,-0.797,1.0
12.908,-0.44,-0.818,1.0
19.15,-0.649,-0.68,1.0
17.631,-0.595,-0.717,1.0
16.211,-0.546,-0.743,1.0
15.051,-0.505,-0.77,1.0
14.003,-0.469,-0.789,1.0
13.203,-0.441,-0.812,1.0
19.771,-0.656,-0.665,1.0
18.127,-0.6,-0.703,1.0
16.713,-0.551,-0.735,1.0
15.433,-0.508,-0.76,1.0
14.384,-0.472,-0.783,1.0
13.499,-0.441,-0.805,1.0
20.482,-0.666,-0.65,1.0
18.69,-0.605,-0.69,1.0
17.244,-0.556,-0.726,1.0
15.847,-0.51,-0.751,1.0
14.75,-0.473,-0.775,1.0
13.802,-0.441,-0.797,1.0
21.279,-0.676,-0.636,1.0
19.304,-0.611,-0.677,1.0
17.762,-0.56,-0.715,1.0
16.274,-0.511,-0.741,1.0
15.154,-0.474,-0.769,1.0
14.097,-0.439,-0.788,1.0
22.08,-0.684,-0.619,1.0
19.981,-0.616,-0.664,1.0
18.29,-0.562,-0.702,1.0
16.817,-0.514,-0.734,0.0
15.54,-0.473,-0.759,1.0
14.473,-0.439,-0.782,1.0
22.94,-0.692,-0.601,1.0
20.678,-0.621,-0.648,1.0
18.851,-0.563,-0.689,1.0
17.352,-0.516,-0.726,1.0
15.962,-0.473,-0.751,1.0
14.86,-0.438,-0.776,1.0
23.783,-0.697,-0.579,1.0
21.462,-0.626,-0.634,1.0
19.493,-0.565,-0.677,1.0
17.868,-0.516,-0.715,1.0
16.441,-0.472,-0.743,1.0
15.243,-0.436,-0.768,1.0
24.868,-0.706,-0.56,1.0
22.26,-0.629,-0.617,1.0
20.156,-0.566,-0.663,1.0
18.361,-0.513,-0.701,1.0
16.958,-0.471,-0.735,1.0
15.617,-0.432,-0.758,1.0
25.812,-0.709,-0.535,1.0
23.144,-0.632,-0.599,1.0
20.781,-0.564,-0.646,3.0
18.924,-0.511,-0.688,1.0
17.459,-0.469,-0.725,1.0
16.045,-0.428,-0.75,0.0
26.848,-0.711,-0.507,1.0
24.005,-0.632,-0.578,1.0
21.577,-0.564,-0.631,1.0
19.566,-0.509,-0.676,1.0
17.932,-0.463,-0.713,2.0
16.528,-0.424,-0.743,0.0
27.818,-0.709,-0.475,2.0
25.055,-0.634,-0.558,1.0
22.44,-0.564,-0.616,1.0
20.256,-0.506,-0.663,2.0
18.466,-0.458,-0.701,1.0
17.042,-0.42,-0.735,1.0
29.048,-0.71,-0.444,1.0
25.98,-0.63,-0.532,1.0
23.293,-0.561,-0.598,2.0
20.901,-0.5,-0.647,1.0
19.042,-0.452,-0.689,1.0
17.518,-0.412,-0.725,1.0
30.133,-0.704,-0.407,1.0
27.071,-0.627,-0.506,3.0
24.122,-0.554,-0.576,1.0
21.66,-0.494,-0.632,1.0
19.647,-0.444,-0.676,1.0
17.978,-0.403,-0.712,1.0
31.667,-0.704,-0.372,1.0
28.094,-0.619,-0.476,1.0
25.169,-0.55,-0.557,1.0
22.482,-0.487,-0.617,4.0
20.26,-0.435,-0.661,1.0
18.505,-0.394,-0.7,1.0
33.741,-0.711,-0.338,1.0
29.187,-0.609,-0.444,1.0
26.107,-0.54,-0.532,1.0
23.298,-0.477,-0.599,1.0
20.954,-0.425,-0.647,1.0
19.073,-0.383,-0.688,1.0
40.153,-0.799,-0.332,1.0
30.306,-0.596,-0.408,1.0
27.011,-0.526,-0.504,1.0
24.138,-0.465,-0.578,1.0
21.761,-0.415,-0.634,1.0
19.695,-0.371,-0.676,1.0
40.23,-0.75,-0.263,11.0
31.778,-0.586,-0.373,1.0
28.15,-0.513,-0.476,1.0
25.109,-0.452,-0.558,1.0
22.543,-0.401,-0.619,1.0
20.29,-0.357,-0.662,1.0
40.305,-0.701,-0.194,37.0
33.818,-0.581,-0.339,1.0
29.242,-0.496,-0.445,1.0
26.074,-0.436,-0.535,1.0
23.326,-0.385,-0.601,2.0
20.965,-0.342,-0.649,1.0
0.0,0.0,0.0,0.0
40.144,-0.637,-0.335,0.0
30.219,-0.473,-0.41,1.0
26.942,-0.415,-0.508,1.0
24.156,-0.367,-0.582,2.0
21.708,-0.325,-0.636,1.0
53.294,-0.787,-0.079,1.0
41.171,-0.599,-0.275,0.0
31.812,-0.455,-0.379,1.0
27.971,-0.394,-0.481,1.0
25.08,-0.347,-0.563,1.0
22.509,-0.307,-0.622,1.0
60.787,-0.815,0.009,5.0
43.975,-0.579,-0.222,1.0
33.239,-0.43,-0.341,1.0
29.118,-0.37,-0.454,2.0
25.921,-0.323,-0.539,1.0
23.253,-0.285,-0.605,2.0
79.264,-0.954,0.14,4.0
47.221,-0.557,-0.162,0.0
36.724,-0.424,-0.318,1.0
29.977,-0.339,-0.419,2.0
26.888,-0.297,-0.516,1.0
23.975,-0.259,-0.586,2.0
60.86,-0.645,0.206,0.0
54.473,-0.564,-0.1,5.0
38.544,-0.39,-0.272,8.0
31.053,-0.306,-0.384,1.0
27.968,-0.269,-0.493,3.0
24.832,-0.233,-0.567,1.0
77.273,-0.707,0.383,9.0
51.464,-0.458,-0.013,4.0
42.271,-0.365,-0.232,3.0
32.975,-0.277,-0.357,1.0
28.871,-0.235,-0.464,2.0
25.813,-0.204,-0.55,2.0
77.185,-0.593,0.502,11.0
53.804,-0.4,0.067,9.0
45.352,-0.326,-0.18,4.0
36.575,-0.254,-0.341,0.0
29.753,-0.199,-0.433,2.0
26.598,-0.171,-0.527,2.0
79.402,-0.491,0.636,150.0
56.121,-0.333,0.155,10.0
42.142,-0.239,-0.104,3.0
39.552,-0.214,-0.309,1.0
30.641,-0.158,-0.4,1.0
27.434,-0.135,-0.502,1.0
79.482,-0.371,0.755,151.0
61.513,-0.271,0.262,8.0
46.077,-0.191,-0.045,20.0
39.164,-0.152,-0.247,6.0
32.213,-0.117,-0.373,1.0
28.408,-0.095,-0.478,2.0
79.465,-0.246,0.873,151.0
76.436,-0.216,0.439,14.0
48.405,-0.124,0.024,7.0
39.915,-0.092,-0.194,15.0
33.427,-0.068,-0.338,1.0
29.329,-0.051,-0.45,2.0
79.461,-0.119,0.99,151.0
79.277,-0.098,0.57,29.0
0.0,0.0,0.0,0.0
40.933,-0.029,-0.14,17.0
38.312,-0.017,-0.333,2.0
30.119,-0.005,-0.42,2.0
79.456,0.007,1.101,151.0
79.433,0.029,0.683,150.0
0.0,0.0,0.0,0.0
0.0,0.0,0.0,0.0
38.339,0.045,-0.28,8.0
31.173,0.045,-0.392,1.0
79.457,0.137,1.213,154.0
79.462,0.159,0.794,151.0
75.792,0.173,0.358,8.0
46.726,0.119,-0.03,25.0
38.739,0.109,-0.229,23.0
32.586,0.101,-0.365,1.0
79.455,0.268,1.32,161.0
79.434,0.29,0.901,150.0
59.352,0.233,0.359,30.0
47.927,0.201,0.032,22.0
39.196,0.175,-0.18,47.0
37.675,0.179,-0.372,0.0
48.23,0.244,0.866,25.0
48.24,0.258,0.611,30.0
48.211,0.271,0.356,26.0
48.135,0.284,0.096,42.0
39.856,0.247,-0.13,15.0
37.608,0.243,-0.322,3.0
48.12,0.325,0.927,103.0
48.099,0.339,0.672,96.0
48.084,0.352,0.417,91.0
48.032,0.366,0.158,94.0
0.0,0.0,0.0,0.0
37.733,0.309,-0.274,12.0
48.119,0.409,0.989,112.0
48.098,0.423,0.733,111.0
48.072,0.437,0.478,98.0
48.019,0.45,0.218,98.0
0.0,0.0,0.0,0.0
38.053,0.378,-0.23,35.0
48.141,0.494,1.049,104.0
48.124,0.507,0.793,98.0
48.106,0.521,0.538,100.0
48.053,0.535,0.277,82.0
47.71,0.544,0.022,56.0
38.574,0.451,-0.186,51.0
55.052,0.662,1.266,74.0
55.098,0.678,0.974,15.0
48.258,0.608,0.597,1.0
48.132,0.62,0.335,27.0
47.99,0.633,0.079,54.0
39.267,0.529,-0.143,36.0
176.585,2.438,4.27,26.0
190.002,2.678,3.583,25.0
126.477,1.819,1.712,30.0
77.935,1.144,0.632,38.0
48.084,0.72,0.134,4.0
44.15,0.674,-0.111,7.0
160.094,2.498,4.054,11.0
190.014,3.022,3.8,23.0
126.72,2.051,1.858,39.0
78.123,1.287,0.721,8.0
0.0,0.0,0.0,0.0
0.0,0.0,0.0,0.0
160.347,2.795,4.239,15.0
128.174,2.272,2.704,17.0
127.275,2.292,2.005,31.0
89.876,1.646,0.928,12.0
61.188,1.138,0.305,26.0
47.037,0.889,-0.015,30.0
128.061,2.467,3.523,40.0
128.035,2.504,2.838,48.0
106.347,2.112,1.79,3.0
93.005,1.874,1.058,4.0
74.764,1.528,0.451,15.0
48.08,0.997,0.033,21.0
128.168,2.706,3.659,30.0
128.19,2.745,2.974,9.0
106.183,2.306,1.896,13.0
89.811,1.977,1.114,6.0
74.863,1.671,0.528,14.0
52.239,1.182,0.089,12.0
159.052,3.658,4.703,22.0
146.681,3.417,3.551,12.0
0.0,0.0,0.0,0.0
106.033,2.533,1.42,29.0
77.937,1.886,0.626,25.0
54.447,1.334,0.146,14.0
158.751,3.949,4.848,7.0
100.317,2.525,2.525,13.0
100.304,2.555,1.987,6.0
106.06,2.734,1.522,6.0
78.12,2.038,0.702,32.0
58.583,1.545,0.212,32.0
153.366,4.108,4.829,39.0
154.062,4.172,4.023,28.0
0.0,0.0,0.0,0.0
0.0,0.0,0.0,0.0
78.326,2.193,0.775,10.0
59.616,1.687,0.27,33.0
152.969,4.391,4.955,38.0
154.064,4.466,4.16,36.0
0.0,0.0,0.0,0.0
0.0,0.0,0.0,0.0
88.933,2.66,0.958,4.0
60.525,1.828,0.326,21.0
152.557,4.669,5.072,20.0
158.568,4.899,4.417,14.0
0.0,0.0,0.0,0.0
0.0,0.0,0.0,0.0
95.499,3.038,1.107,4.0
74.131,2.38,0.46,12.0
153.416,4.989,5.227,23.0
158.78,5.212,4.553,14.0
0.0,0.0,0.0,0.0
0.0,0.0,0.0,0.0
95.657,3.227,1.185,4.0
74.352,2.531,0.52,12.0
152.72,5.265,5.325,33.0
159.018,5.527,4.684,9.0
0.0,0.0,0.0,0.0
0.0,0.0,0.0,0.0
100.842,3.596,1.325,3.0
77.543,2.789,0.6,17.0
153.395,5.584,5.462,31.0
160.304,5.881,4.839,15.0
101.089,3.739,2.505,1.0
0.0,0.0,0.0,0.0
101.064,3.798,1.4,1.0
77.767,2.945,0.656,57.0
157.384,6.031,5.715,20.0
158.107,6.106,4.883,4.0
158.816,6.182,4.045,4.0
0.0,0.0,0.0,0.0
101.158,3.997,1.47,1.0
78.03,3.107,0.711,36.0
161.374,6.497,5.968,11.0
162.51,6.589,5.126,16.0
0.0,0.0,0.0,0.0
0.0,0.0,0.0,0.0
0.0,0.0,0.0,0.0
78.279,3.269,0.763,18.0
157.512,6.649,5.924,18.0
156.518,6.652,5.036,8.0
173.484,7.426,4.64,17.0
0.0,0.0,0.0,0.0
0.0,0.0,0.0,0.0
79.164,3.46,0.818,9.0
124.377,5.494,4.752,15.0
157.108,6.984,5.147,16.0
173.9,7.783,4.751,26.0
0.0,0.0,0.0,0.0
0.0,0.0,0.0,0.0
79.354,3.622,0.864,8.0
124.369,5.735,4.82,18.0
159.455,7.401,5.312,8.0
174.143,8.135,4.852,19.0
0.0,0.0,0.0,0.0
0.0,0.0,0.0,0.0
82.109,3.909,0.937,7.0
157.197,7.557,6.173,16.0
156.813,7.585,5.302,9.0
156.232,7.603,4.43,16.0
0.0,0.0,0.0,0.0
0.0,0.0,0.0,0.0
105.806,5.241,1.258,12.0
167.187,8.365,6.646,15.0
156.553,7.879,5.368,17.0
156.762,7.934,4.517,23.0
167.122,8.507,3.886,15.0
105.757,5.413,1.881,57.0
82.344,4.239,1.014,4.0
157.535,8.187,6.33,8.0
157.322,8.222,5.461,11.0
162.451,8.535,4.748,8.0
162.524,8.587,3.845,17.0
0.0,0.0,0.0,0.0
94.385,5.041,1.2,2.0
157.518,8.492,6.391,13.0
157.454,8.532,5.526,22.0
162.618,8.858,4.814,13.0
163.173,8.934,3.921,24.0
162.627,8.949,3.015,4.0
94.522,5.228,1.235,4.0
157.827,8.81,6.46,19.0
157.681,8.844,5.587,14.0
162.351,9.153,4.862,11.0
0.0,0.0,0.0,0.0
163.811,9.328,3.09,8.0
97.174,5.561,1.3,1.0
157.284,9.081,6.487,18.0
157.811,9.155,5.64,19.0
162.174,9.453,4.905,15.0
164.128,9.613,4.044,4.0
162.142,9.542,3.105,13.0
106.439,6.294,1.454,7.0
156.831,9.356,6.511,5.0
157.096,9.415,5.656,6.0
158.531,9.546,4.836,6.0
157.276,9.515,3.916,8.0
33.445,2.032,0.649,2.0
33.447,2.042,0.464,27.0
33.427,2.058,1.395,8.0
33.431,2.068,1.211,8.0
33.446,2.077,1.027,9.0
33.461,2.088,0.84,1.0
139.694,8.757,2.739,30.0
33.466,2.107,0.472,0.0
158.093,10.036,6.632,43.0
158.154,10.083,5.761,41.0
158.191,10.128,4.89,49.0
114.78,7.38,2.902,14.0
139.678,9.02,2.762,26.0
120.909,7.842,1.724,4.0
157.982,10.333,6.652,46.0
158.077,10.382,5.783,49.0
158.099,10.424,4.909,65.0
114.724,7.596,2.917,25.0
139.674,9.285,2.78,21.0
139.602,9.319,2.008,18.0
157.902,10.625,6.667,45.0
158.008,10.674,5.797,46.0
158.039,10.716,4.923,42.0
114.686,7.808,2.927,28.0
114.424,7.821,2.287,28.0
114.494,7.857,1.656,10.0
157.823,10.917,6.677,36.0
157.942,10.966,5.806,42.0
157.95,11.007,4.931,45.0
114.671,8.022,2.933,52.0
114.497,8.039,2.294,19.0
114.695,8.085,1.664,7.0
157.754,11.207,6.68,14.0
157.633,11.237,5.799,14.0
157.633,11.277,4.925,19.0
114.522,8.223,2.932,24.0
114.407,8.246,2.294,17.0
103.788,7.507,1.506,80.0
157.085,11.448,6.652,11.0
157.191,11.496,5.783,14.0
66.485,4.879,2.076,2.0
66.509,4.898,1.701,20.0
66.554,4.919,1.332,150.0
66.551,4.936,0.963,150.0
66.536,4.972,2.815,10.0
66.424,4.979,2.44,8.0
132.852,9.993,4.142,12.0
103.398,7.804,2.639,19.0
132.451,10.03,2.643,11.0
103.027,7.829,1.484,5.0
118.186,9.046,4.991,15.0
130.695,10.035,4.79,12.0
130.499,10.052,4.057,12.0
103.238,7.978,2.624,28.0
130.055,10.083,2.583,9.0
74.635,5.805,1.066,22.0
121.179,9.492,5.104,7.0
128.337,10.083,4.689,13.0
74.661,5.884,2.311,13.0
74.584,5.896,1.886,34.0
74.563,5.914,1.47,31.0
74.513,5.928,1.054,27.0
74.562,5.973,3.129,22.0
74.534,5.989,2.711,30.0
74.536,6.007,2.296,30.0
74.533,6.025,1.871,12.0
74.549,6.045,1.456,30.0
27.03,2.198,0.377,26.0
74.526,6.104,3.113,29.0
74.502,6.118,2.696,26.0
26.906,2.216,0.823,18.0
26.876,2.219,0.669,168.0
26.973,2.234,0.521,42.0
26.942,2.238,0.37,43.0
118.119,9.88,4.906,3.0
26.803,2.248,0.963,1.0
26.81,2.254,0.813,166.0
26.844,2.263,0.661,163.0
26.883,2.273,0.512,25.0
26.89,2.28,0.362,42.0
34.278,2.926,1.415,12.0
26.776,2.291,0.955,174.0
26.823,2.302,0.806,22.0
26.867,2.312,0.654,158.0
26.862,2.317,0.504,23.0
26.866,2.324,0.354,40.0
26.91,2.343,1.102,2.0
26.781,2.337,0.947,189.0
26.819,2.347,0.798,31.0
26.872,2.357,0.646,153.0
26.835,2.36,0.495,23.0
26.851,2.368,0.345,38.0
26.886,2.386,1.092,5.0
26.761,2.38,0.937,168.0
26.807,2.39,0.788,32.0
26.859,2.4,0.636,151.0
26.822,2.403,0.485,29.0
26.846,2.411,0.335,40.0
26.857,2.427,1.081,5.0
26.76,2.424,0.927,164.0
26.808,2.434,0.778,21.0
26.824,2.441,0.625,22.0
26.837,2.448,0.475,10.0
26.837,2.454,0.324,5.0
26.851,2.47,1.07,3.0
26.805,2.471,0.918,155.0
13.84,1.278,0.396,19.0
13.829,1.28,0.316,23.0
13.837,1.284,0.239,20.0
13.845,1.288,0.161,26.0
13.847,1.296,0.546,25.0
13.841,1.298,0.467,35.0
13.833,1.3,0.389,36.0
13.818,1.301,0.31,33.0
13.823,1.304,0.232,31.0
13.828,1.308,0.154,32.0
13.819,1.315,0.538,36.0
13.828,1.318,0.46,40.0
13.814,1.319,0.382,52.0
13.797,1.321,0.302,34.0
13.806,1.324,0.225,35.0
13.804,1.327,0.147,34.0
13.811,1.335,0.531,40.0
13.819,1.339,0.453,92.0
13.8,1.339,0.375,98.0
13.777,1.34,0.295,38.0
13.793,1.344,0.217,37.0
13.794,1.347,0.14,35.0
13.793,1.354,0.523,46.0
13.803,1.358,0.445,134.0
13.791,1.359,0.367,143.0
13.774,1.36,0.287,67.0
13.785,1.364,0.21,50.0
13.785,1.367,0.132,37.0
13.785,1.374,0.514,67.0
13.796,1.377,0.437,115.0
13.789,1.379,0.359,150.0
13.764,1.379,0.279,58.0
13.772,1.382,0.201,44.0
13.777,1.386,0.124,38.0
13.78,1.393,0.506,79.0
13.786,1.396,0.428,150.0
13.773,1.397,0.35,118.0
13.758,1.398,0.27,64.0
13.779,1.403,0.193,67.0
13.769,1.405,0.115,36.0
13.775,1.412,0.497,60.0
13.782,1.415,0.419,150.0
13.765,1.416,0.341,124.0
13.759,1.418,0.262,50.0
13.769,1.421,0.184,45.0
13.771,1.424,0.106,36.0
13.775,1.431,0.488,67.0
13.783,1.434,0.41,138.0
13.774,1.436,0.332,88.0
13.757,1.436,0.252,38.0
13.766,1.44,0.174,36.0
13.776,1.443,0.097,37.0
13.777,1.45,0.479,65.0
13.779,1.452,0.4,128.0
13.776,1.454,0.322,89.0
13.768,1.456,0.243,38.0
13.779,1.459,0.165,35.0
13.785,1.462,0.087,36.0
13.779,1.468,0.469,64.0
13.79,1.472,0.391,91.0
13.776,1.472,0.312,39.0
13.77,1.474,0.233,38.0
13.784,1.478,0.155,36.0
13.782,1.48,0.077,32.0
13.794,1.488,0.459,38.0
13.795,1.49,0.381,51.0
13.792,1.492,0.302,38.0
13.789,1.493,0.223,35.0
13.802,1.497,0.144,34.0
13.798,1.499,0.066,28.0
13.806,1.506,0.449,33.0
13.807,1.508,0.37,34.0
13.789,1.508,0.291,29.0
13.791,1.511,0.212,28.0
13.803,1.514,0.133,24.0
13.795,1.516,0.055,19.0
13.807,1.523,0.438,21.0
13.816,1.526,0.359,16.0
13.805,1.527,0.281,19.0
13.818,1.53,0.201,14.0
13.841,1.535,0.123,10.0
13.857,1.539,0.044,13.0
13.822,1.541,0.427,5.0
13.832,1.544,0.348,5.0
13.799,1.542,0.269,8.0
13.835,1.548,0.189,4.0
13.849,1.552,0.111,1.0
41.113,4.614,0.096,15.0
96.915,10.918,2.912,36.0
96.92,10.931,2.36,37.0
96.935,10.945,1.809,33.0
96.334,10.89,1.24,8.0
56.508,6.396,0.406,13.0
40.785,4.622,0.06,24.0
10.01,1.138,0.292,3.0
10.018,1.14,0.235,2.0
10.005,1.14,0.177,2.0
10.008,1.142,0.12,2.0
33.885,3.871,0.213,34.0
33.901,3.878,0.02,122.0
10.017,1.15,0.283,15.0
10.001,1.149,0.225,12.0
33.907,3.9,0.572,10.0
33.906,3.904,0.375,27.0
10.002,1.153,0.053,12.0
33.89,3.912,-0.01,20.0
33.937,3.93,0.928,12.0
10.007,1.16,0.216,42.0
10.004,1.16,0.159,28.0
10.001,1.161,0.101,19.0
10.013,1.164,0.044,20.0
10.002,1.164,-0.012,18.0
10.003,1.168,0.264,73.0
10.005,1.169,0.207,134.0
10.003,1.17,0.15,111.0
10.001,1.171,0.092,69.0
10.003,1.172,0.035,67.0
9.998,1.173,-0.021,21.0
9.993,1.176,0.254,68.0
9.999,1.178,0.197,143.0
9.992,1.178,0.14,126.0
9.989,1.179,0.082,76.0
9.997,1.181,0.025,74.0
9.992,1.181,-0.031,39.0
9.984,1.184,0.244,65.0
9.983,1.185,0.187,139.0
9.98,1.185,0.13,125.0
9.979,1.186,0.072,81.0
9.986,1.188,0.015,73.0
9.989,1.19,-0.041,41.0
9.978,1.192,0.234,91.0
9.977,1.192,0.177,150.0
9.981,1.194,0.12,150.0
9.976,1.194,0.062,101.0
9.979,1.196,0.005,85.0
9.975,1.196,-0.051,53.0
9.973,1.199,0.224,91.0
9.979,1.201,0.167,150.0
9.975,1.201,0.11,150.0
9.965,1.201,0.052,105.0
9.976,1.203,-0.004,87.0
9.974,1.204,-0.061,60.0
9.969,1.206,0.213,108.0
9.971,1.207,0.157,150.0
9.972,1.208,0.099,150.0
9.966,1.208,0.041,98.0
9.972,1.21,-0.015,101.0
9.977,1.212,-0.072,57.0
9.974,1.214,0.203,118.0
9.971,1.214,0.146,150.0
9.973,1.215,0.089,150.0
9.963,1.215,0.031,121.0
9.974,1.217,-0.025,104.0
9.97,1.218,-0.082,61.0
9.969,1.22,0.192,113.0
9.974,1.221,0.136,150.0
9.975,1.222,0.079,150.0
9.974,1.223,0.02,116.0
9.973,1.224,-0.036,108.0
9.97,1.224,-0.093,64.0
9.968,1.226,0.182,114.0
9.973,1.228,0.125,150.0
9.972,1.228,0.068,150.0
9.964,1.228,0.01,92.0
9.977,1.23,-0.046,105.0
9.969,1.23,-0.103,61.0
9.968,1.232,0.171,106.0
9.969,1.233,0.114,150.0
9.971,1.234,0.057,150.0
9.967,1.234,0.0,73.0
9.976,1.236,-0.057,112.0
9.971,1.236,-0.114,65.0
9.973,1.238,0.16,104.0
9.977,1.239,0.103,150.0
9.971,1.239,0.046,150.0
9.968,1.239,-0.011,21.0
9.971,1.24,-0.068,108.0
9.968,1.241,-0.125,62.0
9.976,1.243,0.149,101.0
9.973,1.244,0.092,150.0
9.981,1.245,0.035,150.0
9.967,1.244,-0.022,38.0
9.973,1.245,-0.079,106.0
9.967,1.245,-0.136,60.0
9.973,1.248,0.138,105.0
9.974,1.248,0.081,150.0
9.98,1.249,0.024,150.0
9.969,1.249,-0.033,105.0
9.974,1.25,-0.09,113.0
9.974,1.25,-0.148,74.0
9.969,1.251,0.127,108.0
9.974,1.252,0.07,150.0
9.972,1.252,0.013,139.0
9.974,1.253,-0.044,109.0
9.973,1.253,-0.102,107.0
9.966,1.253,-0.159,64.0
9.97,1.255,0.116,99.0
9.977,1.256,0.059,150.0
9.975,1.256,0.001,140.0
9.97,1.256,-0.056,103.0
9.973,1.257,-0.113,113.0
9.968,1.257,-0.17,66.0
9.974,1.258,0.105,85.0
9.973,1.259,0.047,150.0
9.974,1.259,-0.009,134.0
9.972,1.259,-0.067,101.0
9.972,1.26,-0.124,114.0
9.966,1.259,-0.181,69.0
9.979,1.262,0.093,81.0
9.977,1.262,0.036,145.0
9.974,1.261,-0.02,140.0
9.966,1.261,-0.078,102.0
9.977,1.263,-0.135,107.0
9.972,1.262,-0.193,58.0
9.977,1.264,0.082,75.0
9.98,1.264,0.025,137.0
9.974,1.263,-0.031,137.0
9.971,1.263,-0.09,99.0
9.974,1.264,-0.147,110.0
9.971,1.264,-0.204,66.0
9.975,1.265,0.07,61.0
9.98,1.266,0.013,120.0
9.974,1.265,-0.043,136.0
9.97,1.265,-0.101,96.0
9.971,1.265,-0.158,104.0
9.968,1.265,-0.215,58.0
9.976,1.266,0.059,65.0
9.978,1.267,0.002,130.0
9.983,1.267,-0.054,140.0
9.961,1.265,-0.112,94.0
9.97,1.266,-0.169,106.0
9.971,1.267,-0.227,59.0
9.975,1.267,0.048,72.0
9.982,1.268,-0.008,134.0
9.974,1.267,-0.065,139.0
9.965,1.266,-0.124,101.0
9.969,1.267,-0.181,102.0
9.972,1.267,-0.238,64.0
9.977,1.268,0.036,74.0
9.981,1.268,-0.02,137.0
9.976,1.267,-0.077,141.0
9.972,1.267,-0.135,93.0
9.978,1.268,-0.192,117.0
9.97,1.267,-0.249,59.0
9.974,1.267,0.025,63.0
9.975,1.267,-0.031,135.0
9.97,1.266,-0.088,142.0
9.969,1.266,-0.146,102.0
9.971,1.267,-0.204,109.0
9.97,1.267,-0.261,66.0
9.975,1.267,0.014,56.0
9.979,1.267,-0.042,135.0
9.975,1.266,-0.1,150.0
9.977,1.267,-0.158,104.0
9.973,1.266,-0.215,108.0
9.97,1.266,-0.272,58.0
9.974,1.265,0.003,66.0
9.972,1.265,-0.053,140.0
9.97,1.264,-0.111,150.0
9.966,1.264,-0.169,103.0
9.971,1.264,-0.226,118.0
9.968,1.264,-0.283,59.0
9.972,1.264,-0.008,85.0
9.98,1.264,-0.065,150.0
9.978,1.264,-0.122,150.0
9.964,1.262,-0.18,109.0
9.973,1.263,-0.237,112.0
9.974,1.263,-0.295,66.0
9.975,1.262,-0.019,93.0
9.977,1.262,-0.076,150.0
9.978,1.262,-0.133,150.0
9.968,1.26,-0.191,104.0
9.975,1.261,-0.249,112.0
9.974,1.261,-0.306,66.0
9.97,1.259,-0.03,89.0
9.979,1.26,-0.087,150.0
9.972,1.258,-0.144,150.0
9.966,1.257,-0.202,101.0
9.973,1.258,-0.26,112.0
9.971,1.258,-0.317,60.0
9.97,1.256,-0.041,93.0
9.977,1.256,-0.098,150.0
9.976,1.256,-0.155,150.0
9.966,1.254,-0.213,109.0
9.97,1.255,-0.271,110.0
9.966,1.254,-0.328,53.0
9.976,1.253,-0.052,102.0
9.973,1.252,-0.109,150.0
9.976,1.252,-0.166,150.0
9.971,1.251,-0.224,104.0
9.967,1.251,-0.281,105.0
9.969,1.251,-0.339,59.0
9.973,1.249,-0.063,97.0
9.972,1.248,-0.12,150.0
9.979,1.249,-0.177,150.0
9.969,1.247,-0.235,104.0
9.973,1.247,-0.292,106.0
9.969,1.246,-0.349,64.0
9.972,1.245,-0.074,98.0
9.974,1.244,-0.131,150.0
9.976,1.244,-0.188,150.0
9.971,1.243,-0.246,101.0
9.969,1.242,-0.303,107.0
9.974,1.243,-0.36,65.0
9.972,1.24,-0.084,103.0
9.972,1.239,-0.141,150.0
9.975,1.239,-0.198,150.0
9.961,1.237,-0.256,105.0
9.971,1.238,-0.313,114.0
9.97,1.237,-0.371,67.0
9.973,1.235,-0.095,119.0
9.972,1.234,-0.152,150.0
9.975,1.234,-0.209,150.0
9.969,1.232,-0.267,100.0
9.974,1.233,-0.324,112.0
9.97,1.232,-0.381,58.0
9.972,1.229,-0.105,112.0
9.977,1.229,-0.162,150.0
9.974,1.228,-0.219,150.0
9.966,1.227,-0.277,103.0
9.968,1.226,-0.334,106.0
9.973,1.226,-0.391,54.0
9.977,1.224,-0.115,107.0
9.971,1.222,-0.172,150.0
9.975,1.222,-0.229,150.0
9.967,1.22,-0.287,100.0
9.981,1.221,-0.344,110.0
9.975,1.22,-0.401,49.0
9.973,1.217,-0.125,103.0
9.972,1.216,-0.182,150.0
9.976,1.216,-0.239,150.0
9.972,1.214,-0.297,104.0
9.979,1.215,-0.354,100.0
9.975,1.213,-0.411,49.0
9.975,1.21,-0.135,95.0
9.972,1.209,-0.192,150.0
9.978,1.209,-0.249,150.0
9.975,1.208,-0.307,76.0
9.982,1.208,-0.364,77.0
9.986,1.208,-0.421,39.0
9.976,1.203,-0.144,85.0
9.979,1.202,-0.201,139.0
9.981,1.202,-0.258,132.0
9.981,1.201,-0.316,69.0
9.988,1.201,-0.374,77.0
9.991,1.201,-0.431,33.0
9.987,1.197,-0.154,69.0
9.994,1.196,-0.211,148.0
9.988,1.195,-0.268,123.0
9.985,1.193,-0.326,74.0
9.995,1.194,-0.383,73.0
9.994,1.193,-0.44,23.0
9.991,1.189,-0.163,72.0
9.997,1.189,-0.22,130.0
10.0,1.188,-0.277,105.0
9.996,1.187,-0.335,64.0
10.006,1.187,-0.393,74.0
10.005,1.186,-0.45,23.0
10.01,1.183,-0.172,63.0
10.007,1.181,-0.229,126.0
9.999,1.179,-0.286,102.0
10.008,1.179,-0.345,24.0
10.017,1.179,-0.402,20.0
10.011,1.178,-0.459,17.0
10.008,1.173,-0.181,21.0
10.013,1.173,-0.238,33.0
10.005,1.171,-0.295,18.0
13.775,1.611,-0.487,3.0
13.52,1.58,-0.555,4.0
13.077,1.527,-0.611,5.0
10.022,1.166,-0.19,15.0
9.995,1.161,-0.246,12.0
13.829,1.605,-0.42,8.0
13.755,1.595,-0.498,7.0
13.463,1.56,-0.564,6.0
13.064,1.512,-0.622,7.0
20.718,2.389,-0.411,2.0
13.843,1.595,-0.353,8.0
13.819,1.59,-0.431,12.0
13.739,1.58,-0.509,12.0
13.399,1.539,-0.572,9.0
13.052,1.498,-0.632,15.0
20.438,2.336,-0.422,1.0
13.834,1.579,-0.364,14.0
13.79,1.573,-0.441,17.0
13.722,1.563,-0.519,16.0
13.309,1.515,-0.579,8.0
13.041,1.483,-0.642,11.0
13.85,1.568,-0.297,15.0
13.806,1.562,-0.374,17.0
13.766,1.555,-0.452,16.0
13.699,1.546,-0.529,17.0
13.261,1.495,-0.587,10.0
12.982,1.462,-0.649,5.0
13.816,1.55,-0.307,22.0
13.786,1.544,-0.384,19.0
13.749,1.538,-0.461,21.0
13.673,1.528,-0.538,13.0
13.169,1.47,-0.593,8.0
12.877,1.436,-0.653,3.0
13.816,1.534,-0.317,27.0
13.79,1.529,-0.394,30.0
13.733,1.521,-0.471,20.0
13.621,1.507,-0.546,11.0
13.087,1.446,-0.599,8.0
12.734,1.405,-0.655,2.0
13.811,1.517,-0.326,35.0
13.785,1.512,-0.404,38.0
13.733,1.505,-0.48,19.0
13.574,1.485,-0.553,10.0
13.09,1.431,-0.608,9.0
12.597,1.375,-0.657,1.0
13.793,1.499,-0.335,34.0
13.78,1.495,-0.413,38.0
13.722,1.487,-0.489,19.0
13.487,1.459,-0.558,9.0
13.066,1.412,-0.615,10.0
12.494,1.348,-0.659,1.0
13.784,1.481,-0.344,34.0
13.779,1.478,-0.422,56.0
13.719,1.469,-0.497,21.0
13.405,1.434,-0.563,12.0
13.077,1.397,-0.624,10.0
12.376,1.32,-0.661,3.0
13.783,1.463,-0.352,35.0
13.766,1.459,-0.429,52.0
13.714,1.452,-0.505,18.0
13.409,1.417,-0.572,10.0
13.064,1.379,-0.631,10.0
12.319,1.298,-0.665,3.0
13.78,1.445,-0.36,32.0
13.774,1.442,-0.438,36.0
13.71,1.433,-0.513,18.0
13.302,1.388,-0.575,8.0
13.07,1.362,-0.639,11.0
12.239,1.274,-0.667,1.0
13.766,1.426,-0.367,30.0
13.756,1.422,-0.445,31.0
13.686,1.413,-0.52,11.0
13.258,1.366,-0.58,11.0
13.048,1.342,-0.644,12.0
12.158,1.249,-0.669,2.0
13.77,1.407,-0.374,35.0
13.755,1.403,-0.452,32.0
13.671,1.392,-0.526,8.0
13.231,1.345,-0.585,12.0
13.033,1.323,-0.65,10.0
12.128,1.229,-0.674,2.0
13.775,1.389,-0.381,41.0
13.76,1.385,-0.458,38.0
13.683,1.374,-0.533,9.0
13.259,1.329,-0.593,11.0
12.987,1.3,-0.654,7.0
12.054,1.204,-0.675,2.0
13.773,1.369,-0.388,43.0
13.736,1.363,-0.464,27.0
13.688,1.355,-0.539,12.0
13.263,1.311,-0.599,10.0
12.969,1.28,-0.659,4.0
12.002,1.182,-0.677,2.0
13.771,1.349,-0.393,36.0
13.745,1.344,-0.47,28.0
13.698,1.337,-0.545,15.0
13.234,1.289,-0.603,9.0
12.928,1.257,-0.662,3.0
11.948,1.159,-0.679,2.0
13.778,1.329,-0.399,33.0
13.742,1.323,-0.475,24.0
13.683,1.315,-0.55,13.0
13.185,1.264,-0.605,10.0
12.862,1.231,-0.663,3.0
11.902,1.137,-0.68,1.0
13.787,1.31,-0.404,27.0
13.754,1.304,-0.48,25.0
13.663,1.292,-0.553,10.0
13.128,1.239,-0.607,8.0
12.764,1.202,-0.662,3.0
11.867,1.115,-0.682,2.0
13.799,1.289,-0.408,22.0
13.766,1.283,-0.485,23.0
13.64,1.269,-0.557,11.0
13.097,1.216,-0.609,7.0
12.71,1.177,-0.663,4.0
11.786,1.09,-0.681,2.0
13.834,1.271,-0.413,27.0
13.786,1.264,-0.489,17.0
13.655,1.249,-0.561,9.0
13.088,1.195,-0.612,7.0
12.678,1.155,-0.664,4.0
11.768,1.069,-0.683,2.0
13.849,1.251,-0.417,19.0
13.808,1.244,-0.493,17.0
13.634,1.226,-0.563,10.0
13.074,1.173,-0.615,8.0
12.667,1.134,-0.666,4.0
11.751,1.049,-0.684,2.0
13.889,1.232,-0.421,17.0
13.827,1.224,-0.496,16.0
13.638,1.204,-0.566,9.0
13.074,1.152,-0.617,8.0
12.659,1.113,-0.668,3.0
11.742,1.03,-0.686,3.0
13.943,1.215,-0.425,4.0
13.858,1.204,-0.5,15.0
13.673,1.185,-0.569,9.0
13.068,1.13,-0.618,8.0
12.625,1.089,-0.668,2.0
11.735,1.01,-0.687,2.0
17.297,1.479,-0.529,2.0
13.921,1.187,-0.503,14.0
13.695,1.165,-0.572,10.0
13.07,1.109,-0.62,7.0
12.633,1.069,-0.67,3.0
11.724,0.989,-0.687,2.0
17.293,1.45,-0.531,3.0
14.001,1.171,-0.507,5.0
13.681,1.141,-0.572,9.0
13.076,1.088,-0.621,8.0
12.642,1.049,-0.671,3.0
11.752,0.972,-0.689,2.0
17.299,1.422,-0.531,2.0
14.915,1.222,-0.541,3.0
13.687,1.118,-0.573,9.0
13.074,1.065,-0.621,7.0
12.671,1.03,-0.673,3.0
11.783,0.955,-0.691,2.0
17.287,1.392,-0.531,2.0
15.359,1.233,-0.557,2.0
13.703,1.097,-0.573,9.0
13.09,1.044,-0.622,7.0
12.698,1.01,-0.674,3.0
11.802,0.936,-0.692,2.0
17.358,1.368,-0.533,2.0
15.616,1.227,-0.566,2.0
13.731,1.075,-0.574,9.0
13.099,1.023,-0.622,7.0
12.737,0.991,-0.675,3.0
11.816,0.917,-0.692,2.0
17.389,1.34,-0.533,2.0
15.761,1.211,-0.57,3.0
13.819,1.058,-0.577,12.0
13.116,1.001,-0.621,7.0
12.796,0.974,-0.677,4.0
11.873,0.901,-0.694,1.0
17.418,1.312,-0.532,3.0
15.836,1.189,-0.571,2.0
13.861,1.037,-0.577,11.0
13.165,0.982,-0.622,7.0
12.855,0.956,-0.678,5.0
11.907,0.882,-0.695,1.0
17.525,1.29,-0.532,3.0
15.914,1.167,-0.571,2.0
13.935,1.019,-0.577,9.0
13.215,0.963,-0.622,8.0
12.9,0.936,-0.679,6.0
11.943,0.864,-0.694,2.0
17.619,1.266,-0.532,4.0
15.942,1.141,-0.569,2.0
14.088,1.005,-0.581,13.0
13.31,0.946,-0.624,10.0
12.964,0.918,-0.679,6.0
11.983,0.846,-0.694,2.0
17.683,1.239,-0.53,5.0
16.075,1.122,-0.57,2.0
14.245,0.991,-0.584,13.0
13.349,0.925,-0.622,11.0
13.016,0.899,-0.679,8.0
12.059,0.83,-0.695,2.0
17.84,1.218,-0.53,3.0
16.152,1.099,-0.568,3.0
14.438,0.978,-0.588,17.0
13.411,0.905,-0.621,11.0
13.06,0.878,-0.677,10.0
12.133,0.813,-0.696,2.0
17.941,1.193,-0.527,3.0
16.231,1.075,-0.566,3.0
14.623,0.964,-0.59,17.0
13.473,0.885,-0.619,11.0
13.058,0.855,-0.672,10.0
12.233,0.798,-0.697,2.0
18.089,1.171,-0.525,4.0
16.365,1.055,-0.565,4.0
14.667,0.941,-0.587,17.0
13.595,0.869,-0.62,11.0
13.058,0.831,-0.667,10.0
12.323,0.781,-0.697,2.0
18.253,1.148,-0.523,5.0
16.488,1.033,-0.563,3.0
14.66,0.914,-0.58,16.0
13.664,0.849,-0.617,12.0
13.065,0.808,-0.662,10.0
12.402,0.764,-0.697,2.0
18.437,1.126,-0.52,4.0
16.708,1.016,-0.563,2.0
14.673,0.888,-0.574,10.0
13.807,0.832,-0.618,11.0
13.072,0.784,-0.656,10.0
12.439,0.743,-0.693,2.0
18.7,1.108,-0.519,3.0
16.93,0.999,-0.562,2.0
14.809,0.87,-0.572,7.0
13.981,0.817,-0.618,12.0
13.084,0.761,-0.65,9.0
12.575,0.728,-0.694,2.0
18.883,1.085,-0.514,3.0
17.158,0.981,-0.561,2.0
15.144,0.862,-0.577,2.0
14.181,0.803,-0.62,14.0
13.105,0.739,-0.644,8.0
12.718,0.714,-0.695,3.0
19.065,1.061,-0.508,3.0
17.334,0.96,-0.557,2.0
15.572,0.858,-0.585,4.0
14.474,0.793,-0.624,15.0
13.311,0.726,-0.646,9.0
12.865,0.698,-0.695,3.0
19.354,1.041,-0.504,3.0
17.523,0.938,-0.552,2.0
15.863,0.845,-0.586,5.0
14.538,0.77,-0.618,18.0
13.43,0.708,-0.644,13.0
12.994,0.682,-0.694,6.0
19.64,1.021,-0.499,3.0
17.731,0.917,-0.547,2.0
16.11,0.829,-0.585,2.0
14.598,0.747,-0.611,19.0
13.543,0.689,-0.64,13.0
13.058,0.661,-0.689,9.0
19.923,1.0,-0.493,3.0
18.001,0.899,-0.544,3.0
16.325,0.811,-0.581,2.0
14.653,0.723,-0.603,19.0
13.721,0.674,-0.639,13.0
13.061,0.638,-0.679,10.0
20.323,0.983,-0.489,4.0
18.307,0.881,-0.539,3.0
16.498,0.789,-0.576,3.0
14.656,0.697,-0.592,17.0
13.94,0.659,-0.639,14.0
13.059,0.614,-0.67,10.0
20.702,0.965,-0.482,4.0
18.573,0.86,-0.533,3.0
16.82,0.774,-0.574,2.0
14.681,0.672,-0.582,7.0
14.223,0.647,-0.641,15.0
13.079,0.591,-0.66,10.0
21.056,0.943,-0.474,4.0
18.844,0.839,-0.526,3.0
17.181,0.76,-0.572,2.0
15.206,0.668,-0.59,3.0
14.466,0.632,-0.64,15.0
13.247,0.575,-0.658,10.0
21.35,0.918,-0.463,18.0
19.146,0.818,-0.518,3.0
17.418,0.739,-0.565,2.0
15.755,0.664,-0.598,2.0
14.525,0.608,-0.63,14.0
13.352,0.555,-0.651,11.0
21.828,0.899,-0.454,4.0
19.553,0.8,-0.512,3.0
17.68,0.718,-0.558,4.0
15.922,0.642,-0.59,6.0
14.638,0.586,-0.621,13.0
13.509,0.537,-0.646,6.0
22.671,0.893,-0.451,5.0
19.992,0.782,-0.505,3.0
18.014,0.699,-0.552,3.0
16.294,0.628,-0.589,2.0
14.65,0.561,-0.608,13.0
13.743,0.522,-0.644,2.0
23.496,0.883,-0.445,5.0
20.448,0.763,-0.497,3.0
18.397,0.681,-0.546,3.0
16.72,0.614,-0.588,3.0
14.65,0.534,-0.594,9.0
13.757,0.498,-0.631,1.0
24.198,0.867,-0.434,5.0
20.876,0.742,-0.487,4.0
18.804,0.663,-0.539,3.0
17.029,0.596,-0.581,3.0
15.17,0.527,-0.599,2.0
13.856,0.477,-0.622,1.0
27.804,0.947,-0.471,1.0
21.364,0.722,-0.476,4.0
19.217,0.644,-0.531,3.0
17.392,0.578,-0.576,4.0
15.802,0.52,-0.608,3.0
14.093,0.46,-0.617,1.0
28.367,0.916,-0.45,1.0
22.027,0.705,-0.467,4.0
19.663,0.624,-0.522,3.0
17.731,0.558,-0.567,5.0
16.136,0.503,-0.603,2.0
14.402,0.445,-0.615,2.0
29.179,0.892,-0.431,2.0
22.987,0.696,-0.462,5.0
20.186,0.606,-0.514,3.0
18.193,0.541,-0.562,3.0
16.517,0.486,-0.598,2.0
15.034,0.438,-0.625,2.0
29.788,0.859,-0.406,2.0
23.728,0.678,-0.45,3.0
20.706,0.585,-0.503,4.0
18.577,0.52,-0.552,3.0
16.902,0.468,-0.592,2.0
15.502,0.425,-0.626,3.0
30.561,0.829,-0.38,2.0
27.328,0.734,-0.486,1.0
21.202,0.563,-0.49,4.0
19.093,0.502,-0.545,3.0
17.275,0.45,-0.585,4.0
15.79,0.407,-0.619,2.0
31.546,0.803,-0.355,1.0
27.976,0.704,-0.464,1.0
21.714,0.541,-0.476,4.0
19.55,0.481,-0.534,3.0
17.639,0.429,-0.576,5.0
16.137,0.388,-0.612,3.0
32.897,0.782,-0.33,1.0
28.963,0.681,-0.444,2.0
22.753,0.528,-0.469,4.0
20.031,0.46,-0.522,3.0
18.029,0.409,-0.565,6.0
16.531,0.37,-0.606,3.0
36.637,0.81,-0.32,2.0
29.617,0.647,-0.416,2.0
26.726,0.577,-0.517,1.0
20.612,0.439,-0.51,4.0
18.57,0.391,-0.558,9.0
16.883,0.351,-0.597,3.0
36.822,0.754,-0.274,9.0
30.558,0.617,-0.389,2.0
27.198,0.542,-0.49,1.0
21.18,0.416,-0.496,4.0
18.993,0.368,-0.545,10.0
17.415,0.333,-0.592,2.0
37.294,0.703,-0.227,22.0
31.799,0.591,-0.362,1.0
28.119,0.515,-0.469,1.0
21.846,0.394,-0.482,4.0
19.703,0.35,-0.539,8.0
17.82,0.312,-0.582,4.0
37.956,0.655,-0.18,49.0
33.062,0.561,-0.331,1.0
29.053,0.486,-0.444,2.0
22.478,0.37,-0.465,0.0
20.248,0.328,-0.525,3.0
18.364,0.293,-0.574,4.0
39.044,0.612,-0.13,49.0
37.018,0.57,-0.318,2.0
29.815,0.451,-0.413,2.0
26.64,0.396,-0.512,2.0
21.03,0.307,-0.516,4.0
18.91,0.272,-0.563,3.0
44.014,0.62,-0.083,11.0
37.259,0.515,-0.266,10.0
30.837,0.419,-0.383,1.0
27.354,0.365,-0.487,1.0
21.696,0.283,-0.5,4.0
19.568,0.251,-0.554,5.0
0.0,0.0,0.0,0.0
37.877,0.465,-0.214,31.0
32.286,0.388,-0.353,1.0
28.541,0.336,-0.465,1.0
22.197,0.256,-0.478,1.0
20.358,0.229,-0.546,4.0
47.747,0.526,0.051,52.0
38.705,0.417,-0.161,51.0
33.854,0.356,-0.319,1.0
29.415,0.302,-0.434,2.0
26.302,0.264,-0.527,1.0
21.389,0.209,-0.541,5.0
48.005,0.458,0.125,85.0
39.798,0.37,-0.105,15.0
37.468,0.339,-0.296,4.0
30.296,0.267,-0.401,2.0
27.093,0.232,-0.501,2.0
24.136,0.201,-0.573,2.0
48.052,0.388,0.199,86.0
44.784,0.35,-0.048,21.0
38.071,0.289,-0.241,13.0
31.578,0.232,-0.368,1.0
28.116,0.2,-0.475,1.0
25.19,0.173,-0.558,1.0
48.192,0.32,0.276,57.0
47.435,0.303,0.023,41.0
38.832,0.239,-0.184,46.0
33.172,0.196,-0.334,1.0
29.179,0.166,-0.447,2.0
26.117,0.142,-0.537,2.0
59.314,0.31,0.434,106.0
54.475,0.273,0.113,29.0
40.08,0.191,-0.126,16.0
37.686,0.171,-0.319,13.0
30.061,0.129,-0.411,2.0
26.879,0.109,-0.508,2.0
79.442,0.305,0.712,143.0
59.192,0.214,0.221,7.0
0.0,0.0,0.0,0.0
38.22,0.12,-0.26,9.0
31.404,0.091,-0.377,1.0
27.871,0.075,-0.481,1.0
79.471,0.197,0.844,151.0
75.897,0.171,0.41,11.0
0.0,0.0,0.0,0.0
39.084,0.07,-0.2,29.0
33.141,0.052,-0.342,1.0
29.032,0.039,-0.452,2.0
79.462,0.091,0.978,151.0
79.289,0.073,0.563,11.0
0.0,0.0,0.0,0.0
40.553,0.019,-0.139,16.0
38.195,0.01,-0.33,2.0
29.995,0.001,-0.415,1.0
79.46,-0.012,1.114,151.0
79.443,-0.03,0.7,150.0
56.15,-0.033,0.202,7.0
0.0,0.0,0.0,0.0
38.725,-0.039,-0.267,6.0
31.524,-0.038,-0.382,2.0
79.454,-0.114,1.253,151.0
79.467,-0.131,0.839,152.0
76.339,-0.142,0.409,12.0
47.686,-0.098,0.002,21.0
39.805,-0.09,-0.204,15.0
33.026,-0.082,-0.341,1.0
79.44,-0.214,1.393,174.0
79.465,-0.23,0.979,151.0
79.263,-0.245,0.565,40.0
0.0,0.0,0.0,0.0
42.198,-0.147,-0.142,16.0
37.154,-0.137,-0.318,1.0
79.41,-0.309,1.532,241.0
79.457,-0.325,1.12,154.0
79.471,-0.341,0.707,158.0
61.341,-0.275,0.221,18.0
46.317,-0.217,-0.073,20.0
39.627,-0.193,-0.268,4.0
79.428,-0.403,1.676,205.0
79.45,-0.419,1.264,170.0
79.459,-0.434,0.85,188.0
76.75,-0.434,0.415,11.0
50.671,-0.296,0.011,23.0
41.942,-0.253,-0.208,4.0
79.426,-0.495,1.82,200.0
79.44,-0.51,1.408,173.0
79.45,-0.524,0.996,178.0
0.0,0.0,0.0,0.0
54.261,-0.378,0.111,7.0
46.965,-0.335,-0.147,5.0
79.434,-0.582,1.964,163.0
79.435,-0.597,1.552,179.0
79.449,-0.611,1.14,186.0
79.466,-0.625,0.72,156.0
61.072,-0.492,0.237,10.0
50.351,-0.414,-0.065,4.0
79.444,-0.668,2.111,151.0
79.439,-0.682,1.699,188.0
79.44,-0.696,1.287,193.0
79.453,-0.709,0.867,179.0
77.536,-0.706,0.444,16.0
54.708,-0.507,0.03,5.0
79.442,-0.751,2.258,151.0
79.424,-0.764,1.847,190.0
79.435,-0.778,1.436,191.0
79.449,-0.791,1.016,165.0
79.388,-0.803,0.603,136.0
59.177,-0.609,0.144,3.0
79.437,-0.832,2.409,151.0
79.434,-0.844,1.996,165.0
79.436,-0.857,1.585,212.0
79.412,-0.87,1.166,255.0
79.443,-0.882,0.754,150.0
77.788,-0.876,0.336,2.0
79.421,-0.908,2.557,150.0
79.405,-0.92,2.144,150.0
79.4,-0.933,1.734,86.0
110.021,-1.309,1.821,26.0
109.907,-1.324,1.251,5.0
78.903,-0.963,0.491,24.0
79.577,-0.986,2.714,0.0
0.0,0.0,0.0,0.0
80.036,-1.015,1.901,5.0
86.958,-1.115,1.607,72.0
86.951,-1.128,1.157,150.0
87.845,-1.152,0.715,6.0
86.872,-1.155,3.13,1.0
86.917,-1.168,2.682,53.0
86.918,-1.18,2.233,21.0
183.369,-2.514,3.742,64.0
183.394,-2.541,2.796,63.0
123.549,-1.729,1.246,11.0
128.116,-1.815,4.863,24.0
151.441,-2.166,4.966,43.0
151.492,-2.186,4.184,86.0
187.158,-2.727,4.184,28.0
187.123,-2.749,3.214,69.0
148.57,-2.202,1.784,12.0
128.094,-1.921,5.11,36.0
151.4,-2.29,5.258,15.0
151.455,-2.31,4.476,96.0
183.534,-2.822,4.456,19.0
0.0,0.0,0.0,0.0
205.389,-3.209,2.867,59.0
91.467,-1.445,3.829,17.0
185.349,-2.95,6.799,40.0
151.462,-2.428,4.772,103.0
151.439,-2.446,3.975,49.0
248.336,-4.041,5.235,50.0
205.385,-3.366,3.271,30.0
93.002,-1.539,4.074,43.0
185.225,-3.088,7.158,35.0
151.39,-2.541,5.069,50.0
151.467,-2.558,4.272,59.0
40.231,-0.683,0.926,28.0
40.202,-0.687,0.719,6.0
93.003,-1.606,4.257,33.0
128.718,-2.237,5.226,21.0
184.462,-3.226,6.538,38.0
40.32,-0.709,1.216,12.0
40.246,-0.711,1.006,47.0
40.2,-0.715,0.797,55.0
90.749,-1.63,4.333,36.0
128.424,-2.319,5.468,35.0
185.756,-3.372,6.948,17.0
184.642,-3.369,5.934,41.0
40.262,-0.738,1.086,56.0
40.213,-0.741,0.877,53.0
91.32,-1.699,4.541,79.0
92.954,-1.737,4.14,22.0
188.482,-3.54,7.422,17.0
184.623,-3.484,6.299,53.0
40.291,-0.764,1.166,52.0
40.249,-0.766,0.958,43.0
91.367,-1.755,4.724,30.0
92.954,-1.794,4.327,23.0
128.65,-2.493,5.323,23.0
184.645,-3.592,6.665,43.0
40.304,-0.787,1.247,26.0
40.274,-0.79,1.038,38.0
83.79,-1.657,4.498,21.0
90.665,-1.8,4.399,14.0
128.679,-2.564,5.577,30.0
191.424,-3.828,7.286,20.0
185.424,-3.721,6.101,45.0
40.279,-0.811,1.117,42.0
91.354,-1.855,5.085,26.0
91.672,-1.867,4.628,80.0
98.992,-2.023,4.486,9.0
191.299,-3.923,7.662,23.0
185.568,-3.817,6.474,52.0
40.275,-0.831,1.197,34.0
101.462,-2.11,5.851,5.0
91.415,-1.907,4.798,66.0
90.609,-1.896,4.288,51.0
184.164,-3.863,7.742,23.0
185.836,-3.909,6.852,28.0
40.326,-0.85,1.279,9.0
91.472,-1.944,5.457,43.0
83.762,-1.784,4.562,42.0
92.172,-1.968,4.544,52.0
128.837,-2.757,5.67,28.0
191.314,-4.104,7.431,25.0
185.592,-3.991,6.252,46.0
91.477,-1.981,5.638,50.0
91.42,-1.984,5.16,76.0
92.063,-2.002,4.72,49.0
90.606,-1.974,4.166,17.0
129.612,-2.829,5.291,20.0
185.519,-4.058,6.614,48.0
84.084,-1.853,5.349,36.0
91.402,-2.017,5.339,70.0
92.171,-2.037,4.907,48.0
90.614,-2.006,4.346,58.0
185.155,-4.107,7.923,17.0
185.646,-4.122,6.987,25.0
84.172,-1.883,5.521,45.0
91.457,-2.049,5.525,43.0
92.103,-2.066,5.087,24.0
92.172,-2.069,4.603,31.0
129.66,-2.915,5.804,33.0
129.624,-2.917,5.133,26.0
84.366,-1.913,5.701,18.0
91.511,-2.076,5.709,20.0
91.695,-2.082,5.244,79.0
92.134,-2.094,4.783,77.0
90.571,-2.059,4.232,22.0
129.539,-2.948,5.384,29.0
84.889,-1.946,5.903,44.0
84.179,-1.931,5.417,21.0
91.389,-2.097,5.405,46.0
92.151,-2.115,4.964,17.0
90.587,-2.08,4.409,56.0
129.665,-2.979,5.641,30.0
84.905,-1.965,6.07,22.0
84.815,-1.962,5.622,21.0
129.785,-3.004,7.928,30.0
92.173,-2.134,5.143,19.0
98.861,-2.288,5.003,24.0
129.445,-2.997,5.879,31.0
41.262,-0.962,3.03,27.0
97.439,-2.271,6.647,2.0
91.543,-2.133,5.769,5.0
92.185,-2.147,5.32,29.0
92.166,-2.147,4.841,22.0
90.572,-2.109,4.288,21.0
41.263,-0.967,3.109,13.0
41.229,-0.966,2.892,3.0
84.616,-1.982,5.495,16.0
129.77,-3.038,7.738,15.0
83.693,-1.958,4.556,48.0
90.581,-2.119,4.462,51.0
41.203,-0.97,3.184,68.0
41.249,-0.97,2.972,50.0
85.043,-1.999,5.686,10.0
89.679,-2.107,5.521,1.0
92.178,-2.164,5.197,18.0
99.046,-2.322,5.069,33.0
41.143,-0.971,3.259,64.0
41.279,-0.973,3.054,15.0
93.816,-2.21,6.453,2.0
130.018,-3.059,8.254,14.0
92.222,-2.167,5.374,14.0
83.721,-1.965,4.445,6.0
41.252,-0.975,3.347,43.0
41.255,-0.973,3.132,39.0
41.252,-0.972,2.916,10.0
84.712,-1.993,5.538,13.0
129.691,-3.047,7.805,24.0
83.682,-1.963,4.6,51.0
41.316,-0.975,3.43,9.0
41.174,-0.97,3.203,71.0
41.246,-0.97,2.993,49.0
85.034,-1.997,5.719,7.0
129.408,-3.035,8.029,24.0
92.198,-2.158,5.24,31.0
53.972,-1.271,4.582,14.0
41.138,-0.967,3.277,55.0
41.275,-0.968,3.072,10.0
129.288,-3.027,8.936,18.0
84.364,-1.971,5.39,10.0
91.436,-2.131,5.366,10.0
64.249,-1.507,5.575,16.0
41.239,-0.965,3.362,16.0
41.263,-0.963,3.148,46.0
84.879,-1.978,6.024,16.0
84.722,-1.969,5.57,24.0
91.467,-2.121,5.536,3.0
54.279,-1.266,4.811,19.0
53.99,-1.256,4.502,4.0
41.177,-0.955,3.218,69.0
41.24,-0.954,3.002,13.0
84.995,-1.962,5.744,8.0
91.56,-2.107,5.709,16.0
49.089,-1.137,4.441,8.0
54.047,-1.248,4.606,14.0
41.166,-0.948,3.292,48.0
41.271,-0.947,3.079,33.0
84.756,-1.94,5.881,67.0
84.197,-1.921,5.402,21.0
49.072,-1.127,4.529,32.0
54.249,-1.241,4.72,52.0
41.263,-0.941,3.373,39.0
41.254,-0.938,3.152,55.0
84.25,-1.908,5.996,63.0
84.271,-1.903,5.556,44.0
40.291,-0.915,3.789,15.0
54.24,-1.228,4.816,7.0
54.069,-1.219,4.515,14.0
41.189,-0.925,3.219,34.0
41.228,-0.923,3.006,58.0
84.187,-1.878,5.697,39.0
39.346,-0.883,3.77,48.0
49.083,-1.097,4.444,16.0
54.232,-1.207,4.624,71.0
41.157,-0.912,3.288,54.0
41.228,-0.91,3.078,40.0
84.126,-1.85,5.839,12.0
39.265,-0.869,3.831,65.0
49.069,-1.081,4.528,28.0
63.896,-1.401,5.559,12.0
41.272,-0.901,3.369,36.0
41.305,-0.898,3.154,35.0
83.889,-1.816,5.966,29.0
39.455,-0.859,3.917,52.0
39.787,-0.862,3.74,46.0
40.708,-0.878,3.612,47.0
54.184,-1.163,4.516,57.0
41.215,-0.88,3.218,36.0
41.268,-0.877,3.005,4.0
39.71,-0.849,4.01,51.0
39.438,-0.839,3.774,62.0
39.924,-0.845,3.61,58.0
63.873,-1.345,5.431,9.0
41.199,-0.863,3.285,50.0
41.268,-0.86,3.074,65.0
39.548,-0.829,4.061,63.0
39.175,-0.817,3.815,64.0
40.059,-0.83,3.689,44.0
40.687,-0.839,3.527,37.0
54.22,-1.112,4.414,19.0
41.24,-0.841,3.139,48.0
39.352,-0.807,4.106,65.0
39.347,-0.802,3.896,55.0
39.664,-0.804,3.717,61.0
40.413,-0.814,3.569,53.0
63.433,-1.271,5.266,8.0
41.302,-0.822,3.211,41.0
39.155,-0.784,4.149,52.0
39.804,-0.792,4.006,47.0
39.412,-0.779,3.757,61.0
39.754,-0.781,3.575,64.0
63.944,-1.248,5.412,19.0
54.196,-1.051,4.3,16.0
39.1,-0.762,4.206,55.0
39.417,-0.763,4.03,73.0
39.454,-0.759,3.824,52.0
39.73,-0.759,3.636,66.0
40.657,-0.771,3.505,62.0
54.206,-1.021,4.386,10.0
39.069,-0.74,4.265,55.0
39.238,-0.738,4.073,66.0
39.341,-0.734,3.874,68.0
39.972,-0.741,3.72,48.0
49.106,-0.904,4.308,26.0
40.792,-0.745,3.362,42.0
39.107,-0.718,4.329,53.0
39.224,-0.714,4.132,69.0
39.821,-0.72,3.982,50.0
39.712,-0.712,3.755,58.0
40.167,-0.715,3.585,53.0
40.964,-0.723,3.438,39.0
39.255,-0.696,4.405,55.0
39.227,-0.69,4.191,58.0
39.487,-0.689,4.008,45.0
40.265,-0.697,3.868,18.0
40.283,-0.691,3.654,51.0
49.118,-0.836,4.194,13.0
39.563,-0.676,4.497,62.0
39.214,-0.665,4.247,49.0
39.242,-0.659,4.04,51.0
40.149,-0.668,3.914,72.0
40.335,-0.665,3.717,49.0
49.89,-0.816,4.331,17.0
39.54,-0.65,4.552,56.0
39.224,-0.638,4.304,56.0
39.397,-0.635,4.112,48.0
39.866,-0.636,3.943,71.0
48.122,-0.761,4.502,41.0
49.912,-0.781,4.403,17.0
39.705,-0.624,4.627,64.0
39.346,-0.612,4.373,48.0
39.538,-0.609,4.182,47.0
39.393,-0.6,3.951,51.0
39.614,-0.597,3.761,51.0
56.713,-0.846,5.081,12.0
39.712,-0.595,4.683,65.0
39.445,-0.584,4.438,53.0
41.711,-0.611,4.468,30.0
39.586,-0.574,4.024,44.0
39.496,-0.566,3.802,69.0
39.982,-0.567,3.635,46.0
40.175,-0.572,4.791,54.0
39.79,-0.559,4.53,48.0
39.285,-0.546,4.26,60.0
39.256,-0.539,4.042,63.0
39.69,-0.538,3.873,49.0
47.713,-0.639,4.4,26.0
40.268,-0.541,4.855,50.0
39.928,-0.53,4.598,63.0
39.756,-0.521,4.363,46.0
39.434,-0.509,4.11,37.0
39.86,-0.508,3.94,39.0
47.718,-0.6,4.461,5.0
40.066,-0.506,4.882,39.0
40.006,-0.498,4.657,56.0
39.71,-0.487,4.407,57.0
39.519,-0.478,4.169,55.0
39.598,-0.472,3.963,48.0
40.081,-0.471,3.796,22.0
39.972,-0.471,4.919,44.0
39.969,-0.464,4.702,50.0
40.016,-0.457,4.49,43.0
39.358,-0.443,4.199,60.0
39.38,-0.436,3.989,47.0
39.652,-0.432,3.802,22.0
42.229,-0.461,5.248,3.0
0.0,0.0,0.0,0.0
40.095,-0.423,4.546,48.0
0.0,0.0,0.0,0.0
39.59,-0.403,4.056,33.0
39.802,-0.398,3.862,35.0
39.984,-0.401,5.016,52.0
40.19,-0.395,4.822,36.0
40.448,-0.391,4.633,49.0
0.0,0.0,0.0,0.0
39.596,-0.368,4.101,57.0
39.405,-0.359,3.868,67.0
39.634,-0.361,5.016,56.0
40.068,-0.358,4.851,36.0
40.109,-0.351,4.638,45.0
39.884,-0.342,4.39,51.0
39.591,-0.332,4.143,43.0
39.522,-0.324,3.921,54.0
39.743,-0.326,5.072,45.0
39.645,-0.317,4.842,70.0
0.0,0.0,0.0,0.0
40.334,-0.308,4.482,37.0
40.283,-0.3,4.257,56.0
39.525,-0.287,3.962,47.0
42.305,-0.307,5.443,51.0
39.578,-0.28,4.875,67.0
39.943,-0.274,4.701,34.0
40.562,-0.271,4.548,52.0
40.448,-0.262,4.315,26.0
39.658,-0.25,4.015,57.0
39.872,-0.25,5.17,55.0
39.634,-0.241,4.921,51.0
39.807,-0.235,4.724,11.0
40.203,-0.229,4.546,15.0
40.322,-0.222,4.34,41.0
39.826,-0.212,4.069,53.0
39.392,-0.208,5.145,68.0
39.628,-0.202,4.958,55.0
39.62,-0.194,4.739,46.0
40.152,-0.189,4.578,16.0
39.82,-0.18,4.322,63.0
39.536,-0.171,4.075,57.0
39.407,-0.169,5.183,59.0
39.703,-0.162,5.003,68.0
39.593,-0.154,4.771,56.0
46.877,-0.173,5.386,11.0
39.845,-0.139,4.36,62.0
39.819,-0.132,4.139,39.0
39.375,-0.128,5.213,60.0
39.516,-0.121,5.013,67.0
39.415,-0.113,4.783,64.0
39.77,-0.106,4.603,51.0
40.016,-0.099,4.412,60.0
40.739,-0.092,4.268,47.0
39.576,-0.087,5.273,57.0
39.657,-0.079,5.064,53.0
39.473,-0.071,4.822,55.0
39.95,-0.065,4.656,43.0
40.352,-0.057,4.481,35.0
40.985,-0.05,4.326,34.0
39.662,-0.045,5.315,68.0
39.582,-0.038,5.085,56.0
39.63,-0.03,4.872,49.0
39.983,-0.022,4.69,37.0
40.44,-0.015,4.521,44.0
40.864,-0.007,4.343,19.0
39.681,-0.003,5.347,62.0
39.538,0.004,5.108,48.0
39.435,0.011,4.876,52.0
39.914,0.02,4.71,41.0
39.96,0.027,4.495,54.0
40.117,0.035,4.292,47.0
39.702,0.039,5.377,59.0
39.617,0.047,5.145,67.0
39.398,0.054,4.898,49.0
39.822,0.062,4.726,54.0
40.049,0.071,4.531,42.0
40.044,0.079,4.31,61.0
39.752,0.082,5.41,54.0
39.741,0.09,5.187,67.0
39.508,0.098,4.937,47.0
43.818,0.117,5.228,7.0
39.604,0.113,4.505,56.0
40.109,0.123,4.341,56.0
39.767,0.126,5.436,54.0
40.484,0.136,5.308,18.0
39.699,0.141,4.984,32.0
43.671,0.164,5.235,23.0
39.613,0.157,4.529,55.0
40.088,0.167,4.361,49.0
39.646,0.17,5.442,67.0
40.358,0.181,5.314,28.0
39.791,0.186,5.017,52.0
43.789,0.213,5.272,3.0
42.982,0.218,4.936,6.0
40.412,0.213,4.417,47.0
39.744,0.215,5.475,47.0
39.559,0.221,5.228,45.0
39.795,0.231,5.037,51.0
39.983,0.24,4.833,15.0
40.285,0.249,4.646,44.0
40.513,0.259,4.447,50.0
39.766,0.26,5.497,53.0
39.515,0.266,5.241,55.0
40.387,0.28,5.13,60.0
40.735,0.29,4.942,54.0
40.33,0.296,4.668,42.0
0.0,0.0,0.0,0.0
39.783,0.306,5.516,55.0
39.461,0.311,5.25,53.0
39.823,0.321,5.075,30.0
40.008,0.331,4.87,34.0
40.277,0.341,4.678,52.0
40.006,0.346,4.424,40.0
39.363,0.348,5.473,56.0
39.366,0.355,5.252,70.0
39.579,0.365,5.058,43.0
43.81,0.412,5.348,3.0
40.338,0.387,4.699,42.0
40.853,0.4,4.531,25.0
39.2,0.391,5.463,52.0
39.017,0.396,5.218,49.0
39.517,0.409,5.062,62.0
40.2,0.424,4.919,39.0
40.068,0.43,4.679,53.0
40.936,0.447,4.552,29.0
39.094,0.435,5.459,63.0
38.727,0.439,5.189,65.0
39.017,0.449,5.008,56.0
42.558,0.498,5.219,5.0
40.624,0.483,4.754,23.0
41.116,0.497,4.581,48.0
39.185,0.481,5.481,62.0
38.774,0.483,5.204,53.0
38.985,0.494,5.013,55.0
42.504,0.546,5.221,6.0
41.08,0.536,4.816,47.0
41.349,0.547,4.616,25.0
38.92,0.523,5.452,44.0
38.679,0.528,5.199,52.0
39.025,0.54,5.025,56.0
39.833,0.558,4.9,46.0
41.493,0.589,4.871,19.0
41.562,0.598,4.645,38.0
38.546,0.564,5.405,61.0
38.676,0.573,5.203,49.0
38.708,0.58,4.989,61.0
39.509,0.6,4.865,23.0
41.001,0.63,4.817,48.0
41.361,0.643,4.627,45.0
38.341,0.605,5.38,47.0
38.601,0.616,5.197,60.0
38.528,0.622,4.968,63.0
39.316,0.642,4.844,46.0
41.517,0.685,4.881,48.0
41.244,0.688,4.616,40.0
38.201,0.647,5.362,63.0
38.845,0.665,5.231,48.0
38.559,0.667,4.974,45.0
39.148,0.684,4.824,60.0
41.645,0.735,4.896,47.0
41.316,0.737,4.625,54.0
38.186,0.691,5.36,63.0
38.933,0.712,5.242,46.0
38.616,0.713,4.98,50.0
39.136,0.729,4.821,63.0
41.742,0.785,4.906,34.0
41.7,0.791,4.666,36.0
38.199,0.735,5.359,68.0
38.843,0.754,5.228,42.0
38.786,0.76,5.0,43.0
39.219,0.776,4.829,46.0
42.111,0.84,4.946,36.0
41.686,0.839,4.661,31.0
38.476,0.784,5.395,42.0
38.927,0.8,5.235,44.0
39.253,0.814,5.056,34.0
0.0,0.0,0.0,0.0
41.63,0.877,4.885,31.0
48.535,1.031,5.42,37.0
38.442,0.828,5.384,59.0
38.906,0.844,5.227,48.0
39.041,0.854,5.022,25.0
38.035,0.838,4.672,23.0
41.975,0.932,4.918,48.0
48.56,1.086,5.414,5.0
38.915,0.882,5.443,53.0
38.962,0.889,5.226,45.0
48.297,1.111,6.203,22.0
37.895,0.878,4.647,55.0
41.863,0.976,4.896,30.0
41.651,0.978,4.634,18.0
38.653,0.919,5.397,56.0
38.898,0.931,5.208,53.0
38.358,0.925,4.917,53.0
37.861,0.919,4.633,47.0
41.922,1.024,4.891,32.0
53.772,1.322,5.969,19.0
38.685,0.963,5.391,47.0
38.909,0.974,5.199,44.0
38.497,0.97,4.923,55.0
37.739,0.957,4.607,56.0
42.056,1.073,4.894,43.0
49.806,1.279,5.513,7.0
38.922,1.011,5.411,55.0
41.079,1.073,5.475,29.0
38.235,1.005,4.877,50.0
37.798,0.999,4.601,51.0
38.015,1.011,4.411,20.0
49.743,1.331,5.488,10.0
38.554,1.043,5.346,61.0
0.0,0.0,0.0,0.0
38.033,1.041,4.836,58.0
37.792,1.04,4.586,63.0
38.04,1.052,4.398,45.0
41.989,1.167,4.616,36.0
38.775,1.091,5.36,54.0
37.831,1.07,5.012,36.0
38.085,1.082,4.827,59.0
37.911,1.083,4.583,49.0
37.965,1.09,4.373,33.0
41.666,1.202,4.562,8.0
38.981,1.138,5.37,44.0
38.083,1.117,5.027,45.0
38.243,1.127,4.828,51.0
38.333,1.135,4.616,28.0
37.965,1.13,4.354,50.0
38.376,1.147,4.183,52.0
39.022,1.18,5.356,54.0
37.822,1.149,4.973,53.0
38.172,1.164,4.8,54.0
38.162,1.17,4.575,31.0
37.824,1.164,4.318,61.0
38.299,1.184,4.154,48.0
0.0,0.0,0.0,0.0
37.908,1.19,4.964,35.0
38.347,1.209,4.8,54.0
37.996,1.203,4.534,45.0
38.19,1.214,4.338,35.0
38.326,1.224,4.134,46.0
37.447,1.209,5.097,64.0
38.16,1.236,4.974,50.0
37.824,1.23,4.712,48.0
37.725,1.232,4.479,55.0
38.065,1.248,4.301,51.0
38.301,1.261,4.108,57.0
37.755,1.256,5.115,73.0
38.171,1.274,4.951,38.0
37.79,1.267,4.683,54.0
