X,Y,Z,Reflectivity
7.643,-0.257,-0.927,0.0
9.494,-0.318,-0.883,0.0
9.071,-0.305,-0.892,0.0
8.657,-0.292,-0.898,0.0
8.322,-0.282,-0.909,0.0
8.009,-0.273,-0.918,0.0
7.719,-0.264,-0.926,0.0
9.597,-0.328,-0.88,0.0
9.175,-0.314,-0.891,0.0
8.751,-0.301,-0.896,0.0
8.401,-0.29,-0.906,0.0
8.082,-0.28,-0.916,0.0
7.778,-0.271,-0.923,0.0
9.741,-0.338,-0.88,1.0
9.276,-0.323,-0.888,0.0
8.862,-0.31,-0.896,0.0
8.499,-0.299,-0.906,0.0
8.154,-0.288,-0.913,0.0
7.87,-0.279,-0.923,0.0
9.803,-0.346,-0.873,2.0
9.39,-0.333,-0.886,0.0
8.95,-0.318,-0.893,0.0
8.572,-0.306,-0.902,0.0
8.248,-0.295,-0.912,0.0
7.937,-0.285,-0.92,0.0
9.918,-0.355,-0.869,1.0
9.505,-0.342,-0.884,0.0
9.06,-0.327,-0.891,0.0
8.683,-0.314,-0.901,0.0
8.326,-0.302,-0.909,0.0
8.012,-0.292,-0.917,0.0
10.056,-0.365,-0.867,0.0
9.631,-0.351,-0.882,0.0
9.194,-0.336,-0.891,0.0
8.77,-0.322,-0.897,0.0
8.428,-0.31,-0.908,0.0
8.099,-0.299,-0.916,0.0
10.24,-0.377,-0.868,0.0
9.762,-0.36,-0.88,1.0
9.299,-0.344,-0.887,0.0
8.898,-0.33,-0.897,0.0
8.52,-0.317,-0.905,0.0
8.182,-0.306,-0.913,0.0
10.397,-0.387,-0.866,0.0
9.842,-0.367,-0.872,2.0
9.421,-0.353,-0.885,0.0
8.983,-0.337,-0.893,0.0
8.627,-0.325,-0.903,0.0
8.281,-0.313,-0.911,0.0
10.545,-0.397,-0.863,0.0
9.977,-0.376,-0.869,1.0
9.552,-0.361,-0.883,0.0
9.115,-0.346,-0.892,0.0
8.736,-0.332,-0.901,0.0
8.369,-0.319,-0.908,0.0
10.685,-0.406,-0.858,0.0
10.145,-0.386,-0.868,0.0
9.716,-0.371,-0.883,0.0
9.236,-0.353,-0.889,0.0
8.834,-0.339,-0.898,0.0
8.48,-0.326,-0.907,0.0
10.866,-0.416,-0.855,0.0
10.333,-0.397,-0.868,0.0
9.801,-0.377,-0.875,2.0
9.363,-0.361,-0.887,0.0
8.962,-0.347,-0.896,0.0
8.587,-0.333,-0.904,0.0
11.056,-0.427,-0.853,0.0
10.494,-0.406,-0.865,0.0
9.919,-0.385,-0.87,1.0
9.508,-0.369,-0.885,0.0
9.086,-0.354,-0.894,0.0
8.694,-0.339,-0.902,0.0
11.227,-0.436,-0.848,0.0
10.656,-0.415,-0.861,0.0
10.084,-0.394,-0.868,0.0
9.67,-0.378,-0.884,0.0
9.221,-0.361,-0.892,0.0
8.802,-0.346,-0.898,0.0
11.41,-0.446,-0.843,0.0
10.821,-0.424,-0.857,0.0
10.287,-0.403,-0.869,0.0
9.786,-0.385,-0.879,2.0
9.347,-0.368,-0.889,0.0
8.943,-0.353,-0.898,0.0
11.593,-0.455,-0.838,0.0
11.001,-0.433,-0.853,0.0
10.458,-0.412,-0.866,0.0
9.901,-0.391,-0.873,2.0
9.506,-0.376,-0.888,0.0
9.091,-0.36,-0.898,0.0
11.819,-0.466,-0.834,0.0
11.203,-0.442,-0.85,0.0
10.627,-0.42,-0.862,0.0
10.058,-0.398,-0.87,0.0
9.667,-0.383,-0.887,0.0
9.201,-0.365,-0.893,0.0
12.03,-0.475,-0.829,0.0
11.397,-0.451,-0.845,0.0
10.805,-0.428,-0.858,0.0
10.26,-0.407,-0.87,0.0
9.775,-0.388,-0.88,2.0
9.341,-0.371,-0.89,0.0
12.269,-0.486,-0.825,0.0
11.585,-0.459,-0.84,0.0
10.982,-0.436,-0.853,0.0
10.418,-0.414,-0.865,0.0
9.892,-0.393,-0.874,2.0
9.487,-0.378,-0.888,0.0
12.492,-0.495,-0.819,0.0
11.802,-0.468,-0.835,0.0
11.168,-0.443,-0.849,0.0
10.62,-0.422,-0.864,0.0
10.078,-0.401,-0.873,0.0
9.653,-0.384,-0.887,0.0
12.751,-0.505,-0.813,1.0
12.047,-0.477,-0.832,1.0
11.401,-0.452,-0.847,0.0
10.818,-0.429,-0.861,0.0
10.277,-0.408,-0.872,0.0
9.781,-0.389,-0.881,2.0
13.016,-0.515,-0.808,0.0
12.278,-0.486,-0.826,0.0
11.602,-0.459,-0.841,0.0
10.982,-0.435,-0.855,0.0
10.455,-0.414,-0.869,0.0
9.909,-0.393,-0.875,2.0
13.31,-0.525,-0.803,1.0
12.502,-0.494,-0.819,1.0
11.817,-0.467,-0.836,0.0
11.184,-0.442,-0.851,0.0
10.636,-0.42,-0.865,0.0
10.087,-0.399,-0.873,0.0
13.595,-0.535,-0.796,1.0
12.773,-0.503,-0.814,1.0
12.041,-0.474,-0.83,1.0
11.402,-0.449,-0.847,0.0
10.832,-0.426,-0.861,0.0
10.302,-0.406,-0.873,0.0
13.879,-0.544,-0.787,1.0
13.064,-0.512,-0.809,0.0
12.31,-0.482,-0.827,1.0
11.626,-0.455,-0.843,0.0
11.028,-0.432,-0.857,0.0
10.488,-0.411,-0.87,0.0
14.202,-0.554,-0.78,1.0
13.354,-0.52,-0.803,0.0
12.557,-0.489,-0.821,0.0
11.839,-0.461,-0.837,0.0
11.237,-0.437,-0.853,0.0
10.67,-0.415,-0.866,0.0
14.547,-0.564,-0.773,1.0
13.625,-0.527,-0.795,1.0
12.826,-0.496,-0.815,1.0
12.082,-0.467,-0.832,0.0
11.444,-0.442,-0.848,0.0
10.869,-0.42,-0.862,0.0
14.941,-0.575,-0.767,1.0
13.937,-0.535,-0.788,1.0
13.097,-0.503,-0.808,1.0
12.326,-0.473,-0.826,0.0
11.661,-0.447,-0.842,0.0
11.072,-0.424,-0.858,0.0
15.335,-0.585,-0.759,1.0
14.272,-0.544,-0.781,1.0
13.414,-0.51,-0.803,1.0
12.573,-0.478,-0.82,1.0
11.896,-0.452,-0.837,0.0
11.28,-0.428,-0.853,0.0
15.736,-0.594,-0.75,1.0
14.637,-0.552,-0.773,1.0
13.688,-0.516,-0.794,1.0
12.881,-0.485,-0.816,1.0
12.15,-0.457,-0.833,0.0
11.491,-0.431,-0.847,0.0
16.168,-0.604,-0.74,1.0
15.029,-0.561,-0.766,1.0
14.009,-0.522,-0.787,1.0
13.175,-0.49,-0.81,1.0
12.406,-0.461,-0.827,0.0
11.728,-0.435,-0.843,0.0
16.667,-0.615,-0.732,1.0
15.432,-0.568,-0.758,1.0
14.342,-0.527,-0.779,1.0
13.461,-0.494,-0.802,1.0
12.666,-0.464,-0.821,0.0
11.958,-0.438,-0.837,0.0
17.189,-0.626,-0.723,1.0
15.853,-0.576,-0.749,1.0
14.74,-0.535,-0.773,1.0
13.752,-0.498,-0.794,1.0
12.945,-0.468,-0.815,0.0
12.215,-0.44,-0.832,0.0
17.712,-0.636,-0.713,1.0
16.283,-0.583,-0.74,1.0
15.129,-0.54,-0.765,1.0
14.067,-0.502,-0.786,1.0
13.247,-0.471,-0.809,1.0
12.466,-0.442,-0.827,0.0
18.241,-0.644,-0.7,1.0
16.819,-0.593,-0.733,1.0
15.537,-0.546,-0.758,1.0
14.427,-0.506,-0.779,1.0
13.53,-0.473,-0.801,1.0
12.759,-0.445,-0.822,1.0
18.802,-0.653,-0.687,1.0
17.332,-0.6,-0.723,1.0
15.953,-0.551,-0.748,1.0
14.811,-0.51,-0.773,1.0
13.837,-0.475,-0.794,1.0
13.03,-0.446,-0.815,1.0
19.456,-0.663,-0.674,1.0
17.84,-0.606,-0.711,1.0
16.424,-0.556,-0.739,1.0
15.215,-0.513,-0.765,1.0
14.177,-0.477,-0.787,1.0
13.327,-0.447,-0.809,1.0
20.104,-0.671,-0.659,1.0
18.377,-0.611,-0.698,1.0
16.936,-0.561,-0.731,1.0
15.613,-0.516,-0.756,1.0
14.541,-0.479,-0.78,1.0
13.612,-0.447,-0.801,1.0
20.806,-0.679,-0.644,1.0
18.945,-0.616,-0.684,1.0
17.437,-0.565,-0.72,1.0
16.041,-0.518,-0.747,1.0
14.905,-0.48,-0.772,1.0
13.929,-0.447,-0.794,1.0
21.601,-0.688,-0.629,1.0
19.617,-0.623,-0.673,1.0
17.979,-0.569,-0.709,1.0
16.498,-0.52,-0.738,0.0
15.308,-0.48,-0.765,1.0
14.244,-0.445,-0.785,1.0
22.426,-0.697,-0.611,1.0
20.246,-0.626,-0.657,1.0
18.491,-0.57,-0.696,1.0
17.05,-0.523,-0.732,1.0
15.711,-0.48,-0.756,1.0
14.639,-0.445,-0.78,1.0
23.267,-0.703,-0.592,1.0
20.995,-0.632,-0.643,1.0
19.118,-0.572,-0.684,1.0
17.557,-0.523,-0.721,1.0
16.167,-0.48,-0.748,1.0
15.019,-0.443,-0.773,1.0
24.183,-0.71,-0.571,1.0
21.813,-0.637,-0.628,1.0
19.764,-0.574,-0.671,1.0
18.049,-0.521,-0.708,1.0
16.611,-0.478,-0.738,1.0
15.383,-0.44,-0.763,1.0
25.232,-0.717,-0.549,1.0
22.619,-0.639,-0.61,1.0
20.44,-0.574,-0.657,2.0
18.581,-0.519,-0.696,1.0
17.155,-0.477,-0.731,1.0
15.791,-0.437,-0.755,1.0
26.193,-0.719,-0.523,1.0
23.451,-0.64,-0.59,1.0
20.946,-0.568,-0.635,3.0
19.218,-0.518,-0.685,1.0
17.678,-0.474,-0.722,1.0
16.257,-0.433,-0.748,0.0
27.178,-0.719,-0.494,1.0
24.458,-0.643,-0.571,1.0
21.945,-0.573,-0.626,1.0
19.83,-0.515,-0.671,1.0
18.142,-0.468,-0.708,1.0
16.715,-0.428,-0.739,0.0
28.338,-0.721,-0.464,2.0
25.455,-0.643,-0.549,1.0
22.794,-0.571,-0.61,1.0
20.606,-0.513,-0.66,3.0
18.657,-0.461,-0.695,1.0
17.208,-0.422,-0.73,1.0
29.575,-0.72,-0.432,1.0
26.362,-0.637,-0.522,1.0
23.599,-0.566,-0.589,2.0
21.182,-0.504,-0.641,1.0
19.262,-0.455,-0.683,1.0
17.704,-0.415,-0.72,1.0
30.726,-0.714,-0.394,1.0
27.282,-0.629,-0.491,5.0
24.512,-0.56,-0.569,1.0
22.004,-0.499,-0.627,1.0
19.923,-0.448,-0.671,1.0
18.199,-0.406,-0.708,1.0
32.601,-0.72,-0.361,1.0
28.52,-0.625,-0.464,1.0
25.512,-0.554,-0.548,1.0
22.667,-0.488,-0.607,4.0
20.542,-0.438,-0.657,1.0
18.718,-0.396,-0.696,1.0
34.089,-0.714,-0.319,0.0
29.567,-0.613,-0.43,1.0
26.394,-0.542,-0.522,1.0
23.601,-0.48,-0.592,1.0
21.274,-0.428,-0.644,1.0
19.307,-0.385,-0.685,1.0
40.151,-0.792,-0.307,2.0
30.727,-0.6,-0.395,1.0
27.384,-0.529,-0.494,1.0
24.534,-0.469,-0.573,1.0
22.034,-0.416,-0.629,1.0
19.904,-0.372,-0.672,1.0
40.27,-0.744,-0.24,21.0
32.635,-0.596,-0.364,1.0
28.471,-0.514,-0.466,1.0
25.465,-0.454,-0.552,1.0
22.807,-0.402,-0.613,1.0
20.518,-0.357,-0.658,1.0
40.328,-0.694,-0.172,39.0
34.353,-0.583,-0.325,1.0
29.52,-0.495,-0.433,2.0
26.363,-0.436,-0.527,1.0
23.547,-0.384,-0.593,2.0
21.22,-0.342,-0.645,1.0
51.622,-0.82,-0.134,1.0
38.168,-0.597,-0.297,0.0
30.59,-0.472,-0.398,1.0
27.329,-0.415,-0.501,1.0
24.471,-0.366,-0.576,2.0
21.948,-0.324,-0.631,1.0
53.264,-0.774,-0.05,1.0
42.516,-0.608,-0.261,2.0
32.339,-0.455,-0.367,1.0
28.314,-0.392,-0.472,2.0
25.331,-0.344,-0.555,1.0
22.774,-0.304,-0.618,2.0
61.003,-0.803,0.041,9.0
45.873,-0.593,-0.208,1.0
34.471,-0.437,-0.336,1.0
29.373,-0.365,-0.442,2.0
26.225,-0.32,-0.532,1.0
23.482,-0.281,-0.599,2.0
79.284,-0.931,0.182,5.0
53.865,-0.619,-0.157,3.0
38.231,-0.43,-0.311,2.0
30.309,-0.334,-0.408,2.0
27.125,-0.292,-0.507,1.0
24.221,-0.255,-0.579,1.0
77.356,-0.797,0.3,1.0
50.845,-0.511,-0.068,6.0
43.809,-0.429,-0.288,2.0
31.643,-0.302,-0.376,1.0
28.167,-0.262,-0.483,3.0
25.104,-0.227,-0.562,2.0
77.197,-0.682,0.419,11.0
50.35,-0.432,0.01,3.0
47.385,-0.395,-0.238,8.0
33.443,-0.27,-0.347,1.0
29.144,-0.228,-0.455,2.0
26.073,-0.197,-0.543,2.0
0.0,0.0,0.0,0.0
52.994,-0.375,0.091,16.0
44.519,-0.304,-0.156,4.0
39.558,-0.26,-0.35,1.0
29.95,-0.189,-0.422,1.0
26.795,-0.162,-0.518,2.0
79.48,-0.463,0.673,152.0
61.22,-0.34,0.197,17.0
46.284,-0.245,-0.093,19.0
39.48,-0.199,-0.291,3.0
30.969,-0.148,-0.391,1.0
27.724,-0.125,-0.495,1.0
79.454,-0.339,0.791,150.0
76.448,-0.306,0.359,9.0
46.119,-0.172,-0.025,11.0
39.192,-0.136,-0.23,7.0
32.545,-0.104,-0.362,1.0
28.756,-0.084,-0.471,2.0
79.468,-0.213,0.907,151.0
76.485,-0.185,0.471,16.0
0.0,0.0,0.0,0.0
40.096,-0.075,-0.178,16.0
34.116,-0.055,-0.331,1.0
29.532,-0.039,-0.442,2.0
79.469,-0.085,1.022,151.0
79.308,-0.063,0.603,43.0
55.649,-0.029,0.13,29.0
41.132,-0.01,-0.124,16.0
38.292,0.0,-0.317,2.0
30.359,0.008,-0.411,2.0
79.458,0.045,1.134,151.0
79.446,0.067,0.715,150.0
61.595,0.068,0.229,9.0
44.737,0.062,-0.073,21.0
38.429,0.064,-0.265,12.0
31.629,0.061,-0.385,1.0
79.459,0.177,1.243,157.0
79.465,0.199,0.824,151.0
75.88,0.211,0.387,11.0
0.0,0.0,0.0,0.0
38.851,0.13,-0.215,35.0
33.053,0.119,-0.358,1.0
79.431,0.31,1.35,150.0
59.316,0.248,0.694,98.0
59.315,0.265,0.381,96.0
54.564,0.259,0.057,21.0
39.388,0.198,-0.167,44.0
37.785,0.201,-0.359,0.0
48.18,0.27,0.882,63.0
48.167,0.284,0.627,55.0
48.159,0.297,0.372,58.0
48.128,0.311,0.112,54.0
43.953,0.297,-0.129,3.0
37.631,0.265,-0.309,4.0
48.115,0.353,0.943,112.0
48.091,0.367,0.688,111.0
48.058,0.381,0.433,98.0
48.023,0.394,0.174,94.0
44.409,0.377,-0.074,19.0
37.815,0.332,-0.263,13.0
48.114,0.438,1.004,113.0
48.106,0.453,0.749,110.0
48.082,0.467,0.494,97.0
48.039,0.48,0.234,94.0
46.772,0.48,-0.02,37.0
38.129,0.403,-0.218,39.0
48.169,0.524,1.064,80.0
48.14,0.538,0.808,67.0
48.121,0.551,0.552,91.0
48.066,0.565,0.291,73.0
47.857,0.576,0.035,54.0
38.736,0.478,-0.176,52.0
55.091,0.698,1.283,33.0
189.344,2.454,3.402,22.0
126.24,1.674,1.597,14.0
0.0,0.0,0.0,0.0
48.02,0.665,0.092,59.0
39.438,0.557,-0.134,29.0
176.506,2.555,4.314,22.0
189.912,2.806,3.631,32.0
126.452,1.906,1.745,35.0
78.038,1.199,0.653,28.0
58.165,0.911,0.177,13.0
44.58,0.712,-0.101,18.0
160.347,2.616,4.101,7.0
190.01,3.155,3.845,19.0
126.796,2.143,1.89,41.0
89.611,1.541,0.849,8.0
60.479,1.058,0.25,34.0
0.0,0.0,0.0,0.0
128.163,2.326,3.417,17.0
128.092,2.362,2.731,27.0
127.745,2.394,2.041,22.0
89.783,1.71,0.946,10.0
61.448,1.189,0.32,27.0
47.277,0.929,-0.006,22.0
128.038,2.561,3.548,59.0
128.073,2.601,2.865,55.0
106.263,2.19,1.809,10.0
93.573,1.957,1.084,1.0
74.672,1.585,0.466,20.0
48.315,1.04,0.043,22.0
159.234,3.486,4.577,17.0
0.0,0.0,0.0,0.0
0.0,0.0,0.0,0.0
106.276,2.421,1.336,5.0
77.754,1.794,0.561,11.0
54.582,1.276,0.101,6.0
159.024,3.778,4.726,23.0
146.447,3.524,3.567,11.0
100.495,2.449,1.909,3.0
106.093,2.617,1.435,59.0
77.887,1.944,0.636,26.0
54.743,1.384,0.154,13.0
138.032,3.543,4.234,10.0
0.0,0.0,0.0,0.0
0.0,0.0,0.0,0.0
106.144,2.819,1.534,6.0
78.127,2.099,0.709,34.0
58.744,1.596,0.218,31.0
153.745,4.238,4.855,35.0
154.045,4.291,4.035,33.0
0.0,0.0,0.0,0.0
0.0,0.0,0.0,0.0
78.389,2.254,0.78,10.0
59.539,1.73,0.273,34.0
152.856,4.505,4.959,21.0
154.193,4.59,4.172,6.0
0.0,0.0,0.0,0.0
0.0,0.0,0.0,0.0
79.846,2.449,0.862,6.0
60.456,1.873,0.327,20.0
152.658,4.791,5.08,18.0
159.145,5.042,4.437,12.0
0.0,0.0,0.0,0.0
0.0,0.0,0.0,0.0
95.581,3.115,1.109,3.0
74.15,2.439,0.46,13.0
153.127,5.102,5.217,11.0
158.839,5.339,4.554,15.0
0.0,0.0,0.0,0.0
0.0,0.0,0.0,0.0
0.0,0.0,0.0,0.0
74.303,2.588,0.518,11.0
153.112,5.398,5.333,27.0
160.02,5.689,4.708,13.0
0.0,0.0,0.0,0.0
0.0,0.0,0.0,0.0
96.065,3.502,1.258,1.0
77.578,2.852,0.596,16.0
153.432,5.706,5.454,19.0
160.646,6.021,4.839,5.0
0.0,0.0,0.0,0.0
0.0,0.0,0.0,0.0
101.026,3.878,1.392,2.0
77.783,3.009,0.65,43.0
157.727,6.172,5.714,16.0
161.809,6.381,4.985,18.0
0.0,0.0,0.0,0.0
0.0,0.0,0.0,0.0
101.131,4.078,1.459,1.0
77.938,3.167,0.702,52.0
157.585,6.473,5.81,18.0
173.125,7.164,5.443,10.0
173.292,7.221,4.507,7.0
0.0,0.0,0.0,0.0
101.378,4.286,1.525,1.0
78.212,3.33,0.752,15.0
157.399,6.774,5.899,20.0
157.347,6.817,5.04,10.0
173.538,7.569,4.615,6.0
0.0,0.0,0.0,0.0
0.0,0.0,0.0,0.0
78.802,3.508,0.802,14.0
124.299,5.592,4.728,10.0
173.948,7.876,5.668,8.0
174.0,7.929,4.722,7.0
0.0,0.0,0.0,0.0
0.0,0.0,0.0,0.0
78.986,3.669,0.845,9.0
157.566,7.394,6.076,21.0
174.311,8.23,5.769,10.0
156.396,7.431,4.324,12.0
0.0,0.0,0.0,0.0
0.0,0.0,0.0,0.0
81.812,3.96,0.915,6.0
157.317,7.692,6.143,20.0
156.642,7.703,5.26,17.0
156.375,7.737,4.398,17.0
0.0,0.0,0.0,0.0
0.0,0.0,0.0,0.0
81.806,4.12,0.952,10.0
167.019,8.491,6.595,5.0
156.699,8.011,5.331,14.0
156.758,8.062,4.475,17.0
162.887,8.423,3.743,11.0
105.798,5.501,1.852,9.0
82.001,4.288,0.987,7.0
162.459,8.576,6.482,6.0
157.045,8.338,5.406,23.0
162.515,8.673,4.703,10.0
162.595,8.725,3.799,10.0
105.879,5.711,1.893,6.0
93.115,5.049,1.155,2.0
157.646,8.629,6.348,14.0
157.553,8.668,5.48,18.0
162.543,8.989,4.76,6.0
163.239,9.073,3.869,21.0
105.993,5.922,1.931,3.0
96.415,5.414,1.228,2.0
157.618,8.932,6.398,19.0
157.901,8.992,5.542,18.0
162.208,9.283,4.801,14.0
0.0,0.0,0.0,0.0
162.25,9.375,3.003,7.0
96.498,5.603,1.257,5.0
157.758,9.243,6.449,23.0
157.614,9.279,5.576,18.0
162.207,9.593,4.845,14.0
157.326,9.349,3.818,5.0
0.0,0.0,0.0,0.0
120.903,7.254,1.605,12.0
33.453,2.024,1.375,8.0
33.457,2.033,1.191,7.0
33.409,2.04,1.005,3.0
33.429,2.05,0.818,31.0
33.46,2.062,0.635,159.0
33.45,2.071,0.451,159.0
33.436,2.087,1.382,24.0
33.442,2.097,1.197,3.0
158.031,9.954,4.788,21.0
157.841,9.986,3.896,15.0
139.629,8.874,2.677,41.0
120.902,7.718,1.652,17.0
158.066,10.173,6.56,51.0
158.154,10.222,5.69,33.0
158.118,10.263,4.815,45.0
114.722,7.477,2.849,23.0
139.667,9.141,2.697,28.0
139.628,9.177,1.926,25.0
157.922,10.464,6.576,47.0
158.062,10.513,5.706,38.0
158.054,10.554,4.832,61.0
114.673,7.686,2.859,31.0
139.636,9.399,2.71,21.0
113.743,7.688,1.579,12.0
157.866,10.756,6.587,43.0
157.981,10.804,5.716,41.0
157.951,10.844,4.84,76.0
28.222,1.945,0.705,7.0
114.74,7.938,2.234,14.0
114.63,7.961,1.598,4.0
157.779,11.045,6.591,41.0
157.877,11.093,5.72,37.0
28.153,1.985,0.863,4.0
28.149,1.992,0.704,12.0
139.65,9.921,2.723,32.0
139.656,9.959,1.948,7.0
157.463,11.316,6.579,18.0
157.42,11.352,5.704,24.0
28.111,2.034,0.862,10.0
28.11,2.041,0.703,49.0
28.147,2.051,0.548,21.0
28.126,2.057,0.392,34.0
66.532,4.904,2.778,109.0
66.531,4.92,2.408,42.0
28.067,2.082,0.86,34.0
28.07,2.09,0.701,161.0
28.062,2.096,0.545,36.0
28.101,2.106,0.39,39.0
66.342,5.01,2.766,3.0
28.048,2.124,1.013,15.0
28.052,2.132,0.857,159.0
28.074,2.14,0.699,156.0
28.054,2.146,0.542,48.0
28.07,2.154,0.386,45.0
28.179,2.178,1.172,3.0
28.021,2.173,1.009,189.0
28.026,2.18,0.853,35.0
28.073,2.191,0.695,153.0
28.033,2.195,0.538,63.0
28.034,2.202,0.382,59.0
28.158,2.228,1.167,4.0
28.026,2.224,1.005,176.0
28.021,2.23,0.848,34.0
28.085,2.242,0.691,152.0
28.033,2.245,0.533,43.0
28.042,2.252,0.377,55.0
28.149,2.277,1.161,5.0
28.028,2.274,1.0,169.0
28.022,2.28,0.843,28.0
28.068,2.29,0.685,150.0
28.052,2.296,0.528,51.0
28.051,2.303,0.371,54.0
28.228,2.333,1.159,3.0
28.031,2.323,0.994,170.0
28.029,2.329,0.837,22.0
28.055,2.338,0.678,78.0
28.05,2.344,0.521,36.0
28.065,2.352,0.365,49.0
34.276,2.892,1.398,53.0
28.034,2.371,0.986,207.0
28.059,2.38,0.83,21.0
28.068,2.387,0.671,41.0
28.082,2.395,0.514,40.0
28.091,2.402,0.357,49.0
120.537,10.378,4.884,35.0
120.615,10.412,4.211,36.0
28.09,2.43,0.823,15.0
28.074,2.435,0.662,37.0
28.098,2.444,0.505,36.0
28.14,2.455,0.349,39.0
120.607,10.588,4.847,36.0
120.64,10.616,4.172,50.0
28.131,2.481,0.815,23.0
28.183,2.492,0.655,48.0
28.191,2.499,0.498,37.0
78.431,6.972,0.946,2.0
120.74,10.8,4.809,11.0
115.71,10.375,3.959,8.0
28.221,2.536,0.807,12.0
28.313,2.55,0.648,5.0
115.478,10.428,1.995,11.0
13.915,1.259,0.162,0.0
114.8,10.457,4.528,46.0
13.872,1.266,0.469,1.0
13.845,1.266,0.39,7.0
13.851,1.27,0.311,10.0
13.876,1.275,0.233,12.0
13.857,1.277,0.155,18.0
13.848,1.283,0.54,11.0
13.843,1.286,0.462,25.0
13.842,1.288,0.384,31.0
13.841,1.291,0.304,30.0
13.846,1.295,0.227,26.0
13.838,1.297,0.149,29.0
13.836,1.304,0.533,33.0
13.828,1.306,0.455,37.0
13.821,1.308,0.377,38.0
13.814,1.31,0.297,32.0
13.82,1.314,0.22,33.0
13.814,1.316,0.142,34.0
13.819,1.324,0.525,37.0
13.824,1.327,0.448,65.0
13.813,1.329,0.37,58.0
13.792,1.329,0.29,35.0
13.794,1.332,0.212,35.0
13.799,1.336,0.134,35.0
13.806,1.344,0.518,40.0
13.808,1.346,0.44,117.0
13.791,1.347,0.361,107.0
13.773,1.348,0.282,44.0
13.784,1.352,0.204,43.0
13.785,1.355,0.127,37.0
13.787,1.362,0.509,55.0
13.795,1.366,0.432,146.0
13.783,1.367,0.353,145.0
13.768,1.368,0.274,69.0
13.78,1.372,0.196,62.0
13.78,1.375,0.119,38.0
13.781,1.382,0.501,78.0
13.793,1.386,0.423,136.0
13.786,1.387,0.345,110.0
13.767,1.388,0.266,61.0
13.774,1.391,0.188,76.0
13.773,1.394,0.11,38.0
13.778,1.402,0.492,67.0
13.774,1.403,0.414,150.0
13.771,1.406,0.336,113.0
13.758,1.407,0.257,68.0
13.773,1.411,0.179,39.0
13.772,1.413,0.101,37.0
13.777,1.421,0.483,78.0
13.783,1.424,0.405,150.0
13.769,1.424,0.327,111.0
13.753,1.425,0.247,39.0
13.765,1.429,0.17,36.0
13.776,1.433,0.092,37.0
13.773,1.439,0.474,62.0
13.778,1.442,0.396,135.0
13.774,1.444,0.318,87.0
13.76,1.444,0.238,39.0
13.77,1.448,0.16,34.0
13.776,1.451,0.082,36.0
13.784,1.459,0.464,58.0
13.787,1.461,0.386,135.0
13.778,1.463,0.308,55.0
13.766,1.463,0.228,38.0
13.781,1.467,0.15,35.0
13.783,1.47,0.072,34.0
13.795,1.478,0.455,40.0
13.789,1.479,0.376,63.0
13.78,1.48,0.298,38.0
13.779,1.483,0.218,37.0
13.8,1.487,0.14,35.0
13.786,1.488,0.062,31.0
13.796,1.495,0.444,37.0
13.801,1.498,0.366,40.0
13.794,1.499,0.287,35.0
13.78,1.5,0.207,32.0
13.806,1.505,0.129,30.0
13.806,1.507,0.051,25.0
13.813,1.514,0.434,31.0
13.806,1.515,0.355,28.0
13.781,1.515,0.276,27.0
13.792,1.518,0.197,21.0
13.804,1.521,0.118,18.0
13.818,1.525,0.04,15.0
13.835,1.533,0.423,13.0
13.844,1.536,0.344,13.0
13.808,1.534,0.265,18.0
33.545,3.732,0.451,3.0
13.827,1.54,0.107,5.0
13.832,1.543,0.028,7.0
35.923,4.023,1.069,3.0
13.851,1.553,0.333,2.0
13.822,1.551,0.254,4.0
33.583,3.775,0.422,9.0
33.626,3.784,0.232,4.0
40.756,4.593,0.049,31.0
96.9,10.961,2.799,23.0
96.907,10.974,2.247,28.0
96.901,10.985,1.697,26.0
10.07,1.143,0.117,0.0
33.915,3.854,0.204,60.0
40.221,4.576,0.013,9.0
10.005,1.142,0.28,7.0
10.009,1.144,0.223,6.0
10.005,1.144,0.166,6.0
9.995,1.145,0.108,5.0
33.862,3.883,0.173,40.0
33.907,3.893,-0.019,63.0
33.931,3.909,0.92,8.0
34.013,3.922,0.728,3.0
9.998,1.154,0.156,15.0
33.916,3.919,0.336,9.0
32.894,3.805,0.138,5.0
10.006,1.159,-0.014,15.0
10.009,1.163,0.262,52.0
10.009,1.164,0.205,82.0
10.007,1.165,0.147,79.0
9.993,1.164,0.089,32.0
10.008,1.167,0.032,46.0
10.005,1.168,-0.024,19.0
9.995,1.171,0.252,79.0
10.004,1.173,0.195,143.0
9.998,1.173,0.138,116.0
9.995,1.174,0.08,85.0
9.998,1.175,0.023,78.0
9.995,1.176,-0.033,29.0
9.985,1.178,0.242,70.0
9.996,1.181,0.185,150.0
9.99,1.181,0.128,126.0
9.976,1.18,0.07,80.0
9.993,1.184,0.013,72.0
9.989,1.184,-0.043,45.0
9.978,1.186,0.232,81.0
9.982,1.188,0.175,134.0
9.982,1.189,0.118,134.0
9.979,1.189,0.06,94.0
9.983,1.191,0.003,63.0
9.983,1.192,-0.053,39.0
9.973,1.194,0.222,93.0
9.979,1.195,0.165,150.0
9.977,1.196,0.108,150.0
9.971,1.196,0.05,116.0
9.976,1.198,-0.006,93.0
9.98,1.2,-0.063,54.0
9.975,1.202,0.212,100.0
9.971,1.202,0.155,150.0
9.976,1.204,0.098,150.0
9.968,1.204,0.04,106.0
9.976,1.206,-0.016,101.0
9.977,1.207,-0.073,52.0
9.969,1.209,0.201,109.0
9.971,1.21,0.144,150.0
9.971,1.21,0.087,150.0
9.968,1.211,0.029,113.0
9.973,1.212,-0.027,100.0
9.971,1.213,-0.084,59.0
9.97,1.216,0.191,117.0
9.974,1.217,0.134,150.0
9.976,1.218,0.077,150.0
9.965,1.217,0.019,106.0
9.978,1.22,-0.037,110.0
9.969,1.22,-0.094,62.0
9.969,1.222,0.18,115.0
9.974,1.223,0.123,150.0
9.97,1.224,0.066,150.0
9.96,1.223,0.008,89.0
9.971,1.225,-0.048,108.0
9.969,1.226,-0.105,62.0
9.971,1.228,0.17,99.0
9.971,1.229,0.113,150.0
9.972,1.23,0.056,150.0
9.97,1.23,-0.002,74.0
9.974,1.232,-0.059,106.0
9.968,1.232,-0.116,70.0
9.972,1.234,0.159,97.0
9.975,1.235,0.102,150.0
9.971,1.235,0.045,150.0
9.971,1.236,-0.013,20.0
9.974,1.237,-0.07,108.0
9.97,1.237,-0.127,66.0
9.973,1.24,0.148,112.0
9.972,1.24,0.091,150.0
9.981,1.242,0.034,150.0
9.969,1.241,-0.024,65.0
9.972,1.242,-0.081,107.0
9.967,1.242,-0.138,63.0
9.971,1.244,0.137,107.0
9.968,1.244,0.08,150.0
9.975,1.245,0.023,150.0
9.968,1.245,-0.034,104.0
9.975,1.247,-0.092,114.0
9.972,1.247,-0.149,66.0
9.973,1.248,0.126,107.0
9.977,1.249,0.069,150.0
9.968,1.249,0.011,149.0
9.971,1.25,-0.046,112.0
9.979,1.251,-0.103,115.0
9.974,1.251,-0.16,68.0
9.975,1.253,0.115,96.0
9.978,1.253,0.057,150.0
9.968,1.252,0.0,136.0
9.973,1.253,-0.057,112.0
9.973,1.254,-0.114,107.0
9.97,1.254,-0.171,70.0
9.972,1.256,0.103,94.0
9.979,1.257,0.046,150.0
9.973,1.256,-0.01,125.0
9.969,1.256,-0.068,112.0
9.974,1.257,-0.125,112.0
9.973,1.258,-0.183,64.0
9.978,1.259,0.092,90.0
9.977,1.259,0.035,150.0
9.974,1.259,-0.021,150.0
9.969,1.259,-0.08,109.0
9.975,1.26,-0.137,114.0
9.972,1.26,-0.194,73.0
9.972,1.261,0.081,82.0
9.979,1.262,0.023,135.0
9.974,1.262,-0.033,150.0
9.971,1.262,-0.091,105.0
9.973,1.262,-0.148,111.0
9.972,1.262,-0.205,62.0
9.971,1.263,0.069,80.0
9.976,1.263,0.012,135.0
9.973,1.263,-0.044,150.0
9.968,1.263,-0.102,104.0
9.971,1.264,-0.16,112.0
9.976,1.265,-0.217,62.0
9.976,1.265,0.058,75.0
9.98,1.266,0.001,142.0
9.976,1.265,-0.056,138.0
9.965,1.264,-0.114,102.0
9.98,1.266,-0.171,110.0
9.971,1.265,-0.228,56.0
9.978,1.266,0.046,67.0
9.982,1.267,-0.01,143.0
9.974,1.266,-0.067,143.0
9.965,1.265,-0.125,101.0
9.97,1.266,-0.182,105.0
9.974,1.266,-0.24,63.0
9.976,1.267,0.035,70.0
9.975,1.266,-0.021,139.0
9.974,1.266,-0.078,141.0
9.962,1.265,-0.136,99.0
9.972,1.266,-0.194,106.0
9.971,1.266,-0.251,63.0
9.971,1.266,0.024,49.0
9.979,1.267,-0.033,137.0
9.974,1.266,-0.09,140.0
9.964,1.265,-0.148,101.0
9.973,1.266,-0.205,108.0
9.97,1.266,-0.262,56.0
9.989,1.268,0.012,67.0
9.972,1.266,-0.044,135.0
9.975,1.266,-0.101,150.0
9.967,1.265,-0.159,101.0
9.973,1.266,-0.216,108.0
9.971,1.265,-0.274,65.0
9.971,1.265,0.001,73.0
9.972,1.265,-0.055,148.0
9.972,1.265,-0.112,150.0
9.964,1.264,-0.17,102.0
9.982,1.266,-0.228,115.0
9.975,1.265,-0.285,59.0
9.979,1.265,-0.009,85.0
9.977,1.264,-0.066,150.0
9.972,1.263,-0.124,150.0
9.968,1.263,-0.182,107.0
9.972,1.263,-0.239,115.0
9.972,1.263,-0.296,66.0
9.979,1.263,-0.02,100.0
9.978,1.262,-0.078,150.0
9.978,1.262,-0.135,150.0
9.97,1.261,-0.193,115.0
9.971,1.261,-0.25,111.0
9.968,1.261,-0.307,61.0
9.973,1.26,-0.032,98.0
9.973,1.259,-0.089,150.0
9.972,1.259,-0.146,150.0
9.97,1.259,-0.204,105.0
9.977,1.259,-0.261,111.0
9.969,1.258,-0.318,59.0
9.975,1.257,-0.043,98.0
9.981,1.258,-0.1,150.0
9.978,1.257,-0.157,150.0
9.967,1.255,-0.215,102.0
9.971,1.256,-0.272,110.0
9.971,1.255,-0.329,61.0
9.971,1.254,-0.054,99.0
9.97,1.253,-0.111,150.0
9.972,1.253,-0.168,150.0
9.97,1.252,-0.226,102.0
9.971,1.252,-0.283,109.0
9.975,1.253,-0.341,62.0
9.971,1.25,-0.065,101.0
9.975,1.25,-0.122,150.0
9.973,1.249,-0.179,150.0
9.969,1.249,-0.237,102.0
9.973,1.249,-0.294,110.0
9.969,1.248,-0.351,59.0
9.973,1.246,-0.075,104.0
9.971,1.246,-0.132,150.0
9.971,1.245,-0.19,150.0
9.961,1.243,-0.247,107.0
9.977,1.245,-0.305,113.0
9.962,1.243,-0.362,65.0
9.974,1.242,-0.086,102.0
9.969,1.241,-0.143,150.0
9.974,1.241,-0.2,150.0
9.965,1.239,-0.258,105.0
9.969,1.239,-0.315,107.0
9.97,1.239,-0.372,66.0
9.972,1.237,-0.096,114.0
9.971,1.236,-0.153,150.0
9.975,1.236,-0.211,150.0
9.966,1.234,-0.269,106.0
9.971,1.234,-0.326,114.0
9.968,1.234,-0.383,70.0
9.973,1.232,-0.107,114.0
9.972,1.231,-0.164,150.0
9.975,1.231,-0.221,150.0
9.97,1.229,-0.279,107.0
9.972,1.229,-0.336,114.0
9.973,1.229,-0.393,62.0
9.97,1.225,-0.117,115.0
9.975,1.225,-0.174,150.0
9.975,1.225,-0.231,150.0
9.966,1.223,-0.289,101.0
9.971,1.223,-0.346,104.0
9.975,1.223,-0.403,53.0
9.973,1.22,-0.127,108.0
9.973,1.219,-0.184,150.0
9.978,1.219,-0.241,150.0
9.973,1.217,-0.299,102.0
9.972,1.217,-0.356,104.0
9.975,1.216,-0.413,48.0
9.97,1.212,-0.137,94.0
9.972,1.212,-0.194,150.0
9.974,1.211,-0.251,150.0
9.972,1.21,-0.309,105.0
9.978,1.21,-0.366,86.0
9.985,1.211,-0.424,43.0
9.976,1.206,-0.147,96.0
9.982,1.206,-0.204,150.0
9.974,1.204,-0.261,131.0
9.978,1.204,-0.319,73.0
9.985,1.204,-0.376,74.0
9.991,1.204,-0.433,31.0
9.979,1.199,-0.156,70.0
9.983,1.199,-0.213,127.0
9.984,1.198,-0.27,123.0
9.981,1.197,-0.328,75.0
9.993,1.197,-0.386,68.0
9.993,1.196,-0.443,28.0
9.995,1.193,-0.166,77.0
9.997,1.192,-0.223,150.0
9.994,1.191,-0.28,132.0
9.99,1.189,-0.338,68.0
10.0,1.19,-0.395,70.0
10.003,1.189,-0.453,31.0
10.006,1.186,-0.175,78.0
10.003,1.184,-0.232,129.0
10.001,1.183,-0.289,128.0
10.002,1.182,-0.347,58.0
10.004,1.182,-0.405,44.0
10.007,1.181,-0.462,19.0
10.009,1.177,-0.184,63.0
10.007,1.176,-0.241,83.0
10.007,1.175,-0.298,37.0
10.004,1.174,-0.356,18.0
10.01,1.173,-0.414,17.0
10.011,1.173,-0.471,33.0
10.018,1.169,-0.193,18.0
10.016,1.168,-0.25,17.0
13.837,1.612,-0.425,5.0
13.763,1.602,-0.502,5.0
13.429,1.562,-0.566,6.0
13.069,1.519,-0.626,6.0
20.562,2.381,-0.414,1.0
13.85,1.602,-0.358,5.0
13.812,1.596,-0.435,8.0
13.732,1.585,-0.512,8.0
13.353,1.54,-0.574,8.0
13.046,1.503,-0.635,11.0
20.345,2.336,-0.426,2.0
13.844,1.587,-0.369,13.0
13.802,1.581,-0.446,14.0
13.721,1.57,-0.523,15.0
13.303,1.521,-0.583,9.0
13.029,1.488,-0.645,9.0
13.843,1.575,-0.301,9.0
13.819,1.57,-0.379,17.0
13.771,1.563,-0.456,15.0
13.702,1.554,-0.533,15.0
13.242,1.5,-0.591,9.0
12.914,1.461,-0.649,4.0
13.823,1.558,-0.311,20.0
13.788,1.552,-0.389,21.0
13.747,1.545,-0.466,18.0
13.656,1.533,-0.542,12.0
13.124,1.472,-0.595,8.0
12.8,1.434,-0.653,3.0
13.823,1.542,-0.321,25.0
13.789,1.537,-0.399,26.0
13.726,1.528,-0.475,21.0
13.552,1.507,-0.547,9.0
13.073,1.452,-0.602,8.0
12.657,1.404,-0.655,2.0
13.804,1.525,-0.331,31.0
13.786,1.521,-0.408,33.0
13.718,1.511,-0.484,19.0
13.489,1.484,-0.554,9.0
13.077,1.437,-0.612,10.0
12.511,1.373,-0.656,1.0
13.802,1.508,-0.34,33.0
13.778,1.503,-0.418,35.0
13.72,1.495,-0.494,20.0
13.4,1.458,-0.56,11.0
13.079,1.421,-0.621,10.0
12.42,1.348,-0.66,1.0
13.783,1.489,-0.349,30.0
13.769,1.486,-0.426,43.0
13.717,1.478,-0.503,19.0
13.322,1.433,-0.565,13.0
13.074,1.405,-0.629,10.0
12.328,1.323,-0.663,2.0
13.784,1.472,-0.358,34.0
13.775,1.469,-0.435,52.0
13.712,1.46,-0.511,17.0
13.323,1.417,-0.573,10.0
13.072,1.388,-0.637,9.0
12.241,1.298,-0.665,2.0
13.779,1.454,-0.366,32.0
13.776,1.451,-0.443,38.0
13.704,1.441,-0.519,16.0
13.27,1.394,-0.579,8.0
13.064,1.37,-0.644,9.0
12.163,1.274,-0.668,2.0
13.778,1.436,-0.373,31.0
13.758,1.431,-0.451,31.0
13.687,1.422,-0.525,12.0
13.251,1.374,-0.585,11.0
13.039,1.35,-0.65,10.0
12.081,1.249,-0.67,2.0
13.768,1.416,-0.38,32.0
13.75,1.412,-0.458,27.0
13.677,1.402,-0.532,10.0
13.208,1.352,-0.59,12.0
13.027,1.331,-0.656,9.0
12.055,1.23,-0.675,2.0
13.775,1.398,-0.388,37.0
13.763,1.394,-0.465,35.0
13.652,1.381,-0.538,9.0
13.195,1.332,-0.596,11.0
12.928,1.303,-0.657,5.0
11.962,1.204,-0.675,1.0
13.769,1.378,-0.394,73.0
13.748,1.373,-0.47,29.0
13.689,1.365,-0.546,10.0
13.17,1.311,-0.601,8.0
12.881,1.28,-0.66,3.0
11.898,1.18,-0.677,1.0
13.774,1.359,-0.4,40.0
13.734,1.352,-0.476,23.0
13.66,1.343,-0.55,11.0
13.125,1.288,-0.604,8.0
12.804,1.254,-0.661,2.0
11.839,1.157,-0.678,1.0
13.776,1.339,-0.405,35.0
13.73,1.332,-0.481,21.0
13.645,1.321,-0.555,12.0
13.096,1.266,-0.608,8.0
12.717,1.227,-0.662,2.0
11.797,1.136,-0.68,1.0
13.779,1.319,-0.41,27.0
13.75,1.314,-0.487,25.0
13.63,1.299,-0.559,10.0
13.079,1.244,-0.611,8.0
12.629,1.199,-0.661,4.0
11.775,1.116,-0.683,2.0
13.787,1.299,-0.415,24.0
13.755,1.293,-0.491,25.0
13.615,1.277,-0.563,10.0
13.068,1.223,-0.615,8.0
12.607,1.178,-0.664,5.0
11.709,1.092,-0.683,2.0
13.824,1.281,-0.42,23.0
13.768,1.273,-0.496,17.0
13.611,1.256,-0.566,10.0
13.058,1.202,-0.618,8.0
12.596,1.157,-0.667,4.0
11.685,1.071,-0.684,2.0
13.841,1.261,-0.424,25.0
13.783,1.253,-0.5,15.0
13.589,1.232,-0.569,10.0
13.078,1.184,-0.622,10.0
12.581,1.136,-0.669,4.0
11.652,1.05,-0.685,2.0
13.866,1.242,-0.428,17.0
13.808,1.233,-0.503,16.0
13.566,1.209,-0.57,11.0
13.066,1.162,-0.624,9.0
12.563,1.114,-0.67,4.0
11.646,1.03,-0.687,2.0
13.911,1.223,-0.432,12.0
13.832,1.213,-0.507,14.0
13.593,1.189,-0.574,8.0
13.056,1.139,-0.626,8.0
12.519,1.09,-0.67,3.0
11.628,1.01,-0.687,2.0
17.084,1.474,-0.533,2.0
13.865,1.193,-0.51,13.0
13.627,1.17,-0.577,9.0
13.056,1.118,-0.627,8.0
12.512,1.069,-0.671,3.0
11.592,0.988,-0.686,2.0
17.084,1.446,-0.535,2.0
13.947,1.178,-0.514,12.0
13.62,1.147,-0.578,9.0
13.083,1.099,-0.629,9.0
12.524,1.049,-0.672,4.0
11.623,0.971,-0.689,2.0
17.077,1.418,-0.535,2.0
14.321,1.185,-0.529,8.0
13.613,1.124,-0.578,8.0
13.057,1.075,-0.629,8.0
12.541,1.03,-0.674,3.0
11.64,0.953,-0.69,2.0
17.089,1.39,-0.536,2.0
14.691,1.191,-0.543,3.0
13.619,1.101,-0.579,9.0
13.049,1.052,-0.628,8.0
12.574,1.011,-0.676,3.0
11.665,0.935,-0.692,2.0
17.122,1.364,-0.537,2.0
15.001,1.191,-0.554,2.0
13.637,1.08,-0.579,9.0
13.051,1.03,-0.628,8.0
12.604,0.992,-0.677,3.0
11.701,0.918,-0.693,2.0
17.169,1.338,-0.537,3.0
15.276,1.186,-0.563,3.0
13.697,1.06,-0.581,11.0
13.057,1.008,-0.627,8.0
12.629,0.972,-0.677,3.0
11.746,0.901,-0.695,2.0
17.199,1.31,-0.537,2.0
15.412,1.17,-0.566,3.0
13.772,1.042,-0.582,12.0
13.066,0.986,-0.626,7.0
12.69,0.954,-0.679,3.0
11.75,0.881,-0.693,1.0
17.276,1.286,-0.537,3.0
15.61,1.158,-0.571,2.0
13.829,1.023,-0.583,10.0
13.111,0.966,-0.626,7.0
12.75,0.936,-0.68,4.0
11.806,0.864,-0.695,2.0
17.387,1.264,-0.537,2.0
15.779,1.143,-0.575,2.0
13.909,1.004,-0.583,12.0
13.156,0.946,-0.626,7.0
12.82,0.919,-0.681,4.0
11.859,0.847,-0.695,2.0
17.495,1.241,-0.537,3.0
15.853,1.12,-0.574,2.0
14.01,0.986,-0.584,12.0
13.26,0.93,-0.628,9.0
12.908,0.902,-0.682,4.0
11.915,0.83,-0.696,3.0
17.578,1.215,-0.535,3.0
15.978,1.101,-0.574,2.0
14.152,0.971,-0.586,14.0
13.319,0.911,-0.627,10.0
13.0,0.886,-0.683,5.0
11.986,0.813,-0.696,2.0
17.687,1.192,-0.533,2.0
16.075,1.079,-0.573,2.0
14.411,0.963,-0.593,16.0
13.35,0.889,-0.624,11.0
13.0,0.862,-0.679,7.0
12.08,0.798,-0.698,2.0
17.809,1.168,-0.53,3.0
16.174,1.056,-0.57,4.0
14.608,0.95,-0.596,15.0
13.468,0.873,-0.624,11.0
13.066,0.843,-0.678,8.0
12.204,0.785,-0.7,2.0
18.005,1.148,-0.529,4.0
16.274,1.033,-0.568,4.0
14.638,0.926,-0.591,19.0
13.574,0.855,-0.624,12.0
13.065,0.819,-0.672,9.0
12.297,0.768,-0.7,2.0
18.174,1.126,-0.527,3.0
16.413,1.013,-0.566,3.0
14.651,0.9,-0.585,20.0
13.65,0.835,-0.621,11.0
13.064,0.795,-0.666,11.0
12.332,0.748,-0.697,2.0
18.376,1.105,-0.524,3.0
16.531,0.99,-0.562,2.0
14.676,0.875,-0.579,14.0
13.774,0.817,-0.62,12.0
13.078,0.772,-0.661,10.0
12.411,0.73,-0.695,2.0
18.578,1.084,-0.52,3.0
16.839,0.978,-0.564,2.0
14.712,0.85,-0.573,8.0
13.896,0.799,-0.618,11.0
13.07,0.748,-0.653,9.0
12.541,0.715,-0.695,2.0
18.768,1.061,-0.516,3.0
17.029,0.958,-0.561,2.0
15.017,0.841,-0.576,5.0
14.096,0.786,-0.62,14.0
13.093,0.726,-0.647,8.0
12.671,0.699,-0.695,3.0
18.991,1.04,-0.511,3.0
17.229,0.938,-0.557,3.0
15.417,0.835,-0.583,4.0
14.423,0.778,-0.625,14.0
13.221,0.709,-0.645,8.0
12.836,0.685,-0.696,3.0
19.285,1.021,-0.507,4.0
17.447,0.918,-0.553,2.0
15.83,0.829,-0.588,2.0
14.522,0.756,-0.62,17.0
13.414,0.695,-0.646,13.0
13.001,0.67,-0.697,5.0
19.597,1.001,-0.502,4.0
17.654,0.897,-0.548,2.0
16.051,0.811,-0.585,2.0
14.602,0.734,-0.613,18.0
13.567,0.678,-0.644,13.0
13.052,0.649,-0.69,9.0
19.938,0.983,-0.497,3.0
17.984,0.882,-0.546,3.0
16.297,0.794,-0.583,3.0
14.65,0.71,-0.605,25.0
13.685,0.66,-0.639,13.0
13.067,0.626,-0.681,10.0
20.356,0.967,-0.492,4.0
18.234,0.861,-0.54,3.0
16.484,0.773,-0.577,3.0
14.659,0.684,-0.594,16.0
13.951,0.647,-0.641,14.0
13.058,0.602,-0.671,10.0
20.74,0.947,-0.485,4.0
18.498,0.84,-0.533,3.0
16.799,0.758,-0.574,2.0
14.706,0.659,-0.584,8.0
14.197,0.632,-0.641,14.0
13.074,0.579,-0.661,10.0
21.057,0.923,-0.475,7.0
18.803,0.819,-0.526,3.0
17.161,0.743,-0.572,2.0
15.195,0.653,-0.59,2.0
14.443,0.617,-0.639,14.0
13.201,0.56,-0.656,10.0
21.335,0.897,-0.463,18.0
19.17,0.801,-0.519,3.0
17.45,0.724,-0.567,3.0
15.771,0.65,-0.599,4.0
14.557,0.596,-0.631,13.0
13.308,0.541,-0.649,7.0
21.959,0.884,-0.457,4.0
19.569,0.782,-0.512,3.0
17.703,0.703,-0.559,4.0
15.93,0.628,-0.59,7.0
14.63,0.573,-0.621,14.0
13.558,0.527,-0.648,2.0
22.686,0.873,-0.45,5.0
20.023,0.765,-0.505,3.0
18.058,0.685,-0.553,3.0
16.415,0.618,-0.592,2.0
14.65,0.548,-0.608,14.0
13.629,0.505,-0.638,1.0
23.546,0.865,-0.445,5.0
20.491,0.747,-0.497,4.0
18.445,0.667,-0.546,3.0
16.724,0.6,-0.587,3.0
14.678,0.522,-0.594,7.0
13.714,0.484,-0.628,1.0
24.242,0.848,-0.433,3.0
20.927,0.726,-0.486,4.0
18.857,0.648,-0.539,3.0
17.088,0.583,-0.582,3.0
15.231,0.515,-0.6,2.0
13.923,0.467,-0.623,2.0
27.814,0.924,-0.468,1.0
21.497,0.708,-0.476,4.0
19.324,0.631,-0.532,3.0
17.44,0.564,-0.575,4.0
15.87,0.509,-0.608,3.0
14.215,0.452,-0.621,2.0
28.469,0.896,-0.448,1.0
22.13,0.69,-0.466,4.0
19.789,0.612,-0.523,3.0
17.776,0.544,-0.566,3.0
16.19,0.491,-0.602,2.0
14.602,0.439,-0.621,3.0
29.214,0.869,-0.427,2.0
23.104,0.681,-0.461,5.0
20.247,0.591,-0.512,3.0
18.285,0.529,-0.561,3.0
16.55,0.474,-0.596,2.0
15.33,0.435,-0.634,3.0
29.873,0.837,-0.402,2.0
23.805,0.66,-0.447,1.0
20.773,0.571,-0.5,4.0
18.676,0.508,-0.551,3.0
16.982,0.457,-0.592,3.0
15.549,0.414,-0.625,3.0
30.824,0.811,-0.377,2.0
27.382,0.713,-0.481,1.0
21.313,0.549,-0.488,4.0
19.14,0.488,-0.542,3.0
17.37,0.438,-0.584,4.0
15.865,0.396,-0.618,3.0
32.019,0.789,-0.352,2.0
28.196,0.687,-0.46,1.0
21.884,0.527,-0.473,4.0
19.622,0.467,-0.53,3.0
17.726,0.417,-0.573,6.0
16.209,0.377,-0.61,2.0
33.242,0.763,-0.323,1.0
29.118,0.661,-0.438,2.0
23.078,0.517,-0.469,3.0
20.143,0.446,-0.518,3.0
18.196,0.398,-0.565,5.0
16.62,0.359,-0.604,3.0
36.657,0.782,-0.309,4.0
29.872,0.629,-0.41,2.0
26.791,0.557,-0.51,1.0
20.757,0.426,-0.507,4.0
18.686,0.378,-0.555,14.0
17.01,0.34,-0.596,2.0
36.969,0.728,-0.263,12.0
30.789,0.599,-0.382,2.0
27.33,0.524,-0.483,1.0
21.372,0.404,-0.493,4.0
19.277,0.359,-0.547,5.0
17.522,0.322,-0.59,3.0
37.468,0.679,-0.215,35.0
32.058,0.572,-0.354,1.0
28.33,0.498,-0.462,1.0
22.04,0.382,-0.478,4.0
19.839,0.338,-0.535,4.0
17.975,0.302,-0.58,3.0
38.211,0.632,-0.167,50.0
33.602,0.547,-0.324,1.0
29.209,0.468,-0.436,2.0
26.225,0.413,-0.532,1.0
20.417,0.316,-0.522,3.0
18.538,0.282,-0.572,3.0
39.322,0.588,-0.115,41.0
37.081,0.545,-0.304,4.0
30.102,0.435,-0.405,2.0
26.857,0.381,-0.506,2.0
21.175,0.295,-0.51,4.0
19.117,0.261,-0.562,4.0
44.199,0.593,-0.065,18.0
37.499,0.494,-0.253,13.0
31.184,0.403,-0.374,1.0
27.609,0.35,-0.479,1.0
21.922,0.272,-0.496,4.0
19.83,0.241,-0.553,5.0
0.0,0.0,0.0,0.0
38.072,0.443,-0.199,41.0
32.742,0.373,-0.343,1.0
28.814,0.321,-0.456,1.0
25.806,0.281,-0.544,1.0
20.793,0.221,-0.548,4.0
47.892,0.498,0.073,58.0
39.005,0.396,-0.144,46.0
37.34,0.369,-0.334,1.0
29.635,0.286,-0.424,2.0
26.544,0.25,-0.519,1.0
21.902,0.201,-0.543,4.0
48.026,0.429,0.148,97.0
43.956,0.382,-0.095,6.0
37.59,0.317,-0.278,7.0
30.669,0.251,-0.39,1.0
27.354,0.218,-0.492,1.0
24.35,0.188,-0.566,1.0
48.129,0.36,0.223,46.0
0.0,0.0,0.0,0.0
38.297,0.268,-0.223,18.0
32.165,0.218,-0.359,1.0
28.471,0.186,-0.467,1.0
25.527,0.161,-0.552,1.0
55.067,0.335,0.343,52.0
47.892,0.279,0.048,34.0
39.193,0.219,-0.165,48.0
33.643,0.18,-0.321,1.0
29.452,0.151,-0.435,2.0
26.421,0.129,-0.528,2.0
59.341,0.277,0.467,84.0
54.628,0.243,0.144,28.0
40.58,0.171,-0.104,16.0
37.823,0.151,-0.299,15.0
30.439,0.115,-0.4,1.0
27.17,0.096,-0.499,1.0
79.464,0.264,0.757,150.0
59.107,0.183,0.254,14.0
0.0,0.0,0.0,0.0
38.524,0.102,-0.24,14.0
31.897,0.077,-0.366,1.0
28.254,0.062,-0.471,1.0
79.471,0.159,0.888,151.0
76.014,0.135,0.453,20.0
47.87,0.074,0.035,21.0
39.42,0.053,-0.18,38.0
33.46,0.037,-0.327,0.0
29.411,0.026,-0.441,2.0
79.467,0.054,1.024,151.0
79.322,0.037,0.608,30.0
0.0,0.0,0.0,0.0
41.112,0.002,-0.117,17.0
38.319,-0.005,-0.309,3.0
30.399,-0.011,-0.403,2.0
79.462,-0.046,1.16,151.0
79.461,-0.062,0.746,150.0
61.789,-0.061,0.258,17.0
0.0,0.0,0.0,0.0
39.046,-0.055,-0.247,14.0
32.168,-0.052,-0.371,2.0
79.452,-0.145,1.299,152.0
79.466,-0.161,0.884,151.0
76.418,-0.17,0.453,13.0
48.442,-0.117,0.03,9.0
40.357,-0.106,-0.184,15.0
33.718,-0.095,-0.329,1.0
79.416,-0.241,1.437,255.0
79.461,-0.256,1.024,151.0
79.353,-0.272,0.611,89.0
55.787,-0.202,0.133,29.0
42.12,-0.16,-0.118,7.0
39.273,-0.157,-0.314,1.0
79.428,-0.335,1.579,202.0
79.45,-0.35,1.166,162.0
79.464,-0.366,0.754,177.0
61.394,-0.294,0.258,10.0
46.774,-0.233,-0.046,20.0
39.845,-0.206,-0.246,4.0
79.43,-0.426,1.723,210.0
79.45,-0.442,1.311,172.0
79.453,-0.456,0.898,185.0
76.883,-0.456,0.462,14.0
51.813,-0.317,0.043,25.0
44.42,-0.279,-0.193,4.0
79.419,-0.516,1.868,188.0
79.437,-0.53,1.456,177.0
79.443,-0.545,1.043,179.0
79.397,-0.558,0.623,90.0
0.0,0.0,0.0,0.0
47.655,-0.352,-0.119,6.0
79.436,-0.602,2.014,157.0
79.438,-0.616,1.602,178.0
79.444,-0.63,1.19,190.0
79.465,-0.644,0.77,168.0
77.098,-0.638,0.348,6.0
51.551,-0.435,-0.033,4.0
79.443,-0.685,2.161,151.0
79.427,-0.699,1.749,192.0
79.442,-0.712,1.338,195.0
79.455,-0.726,0.918,173.0
0.0,0.0,0.0,0.0
55.717,-0.527,0.067,4.0
79.437,-0.767,2.311,151.0
79.437,-0.78,1.899,173.0
79.432,-0.793,1.487,197.0
79.45,-0.806,1.068,174.0
79.452,-0.818,0.656,151.0
60.589,-0.633,0.187,5.0
79.439,-0.845,2.461,151.0
79.437,-0.857,2.049,162.0
79.428,-0.869,1.637,190.0
79.428,-0.882,1.218,255.0
79.437,-0.894,0.807,150.0
77.975,-0.889,0.388,7.0
79.4,-0.92,2.61,150.0
79.399,-0.931,2.198,129.0
79.399,-0.943,1.786,14.0
79.419,-0.955,1.368,150.0
79.57,-0.968,0.96,10.0
79.027,-0.974,0.545,23.0
0.0,0.0,0.0,0.0
109.663,-1.387,3.248,1.0
80.043,-1.023,1.956,8.0
86.929,-1.124,1.667,79.0
86.945,-1.136,1.217,150.0
87.594,-1.156,0.773,8.0
99.581,-1.332,3.656,6.0
86.933,-1.175,2.742,53.0
86.937,-1.186,2.291,9.0
183.379,-2.527,3.866,72.0
183.399,-2.552,2.92,66.0
123.664,-1.737,1.33,11.0
128.094,-1.822,4.951,29.0
151.425,-2.173,5.069,42.0
151.489,-2.192,4.286,92.0
187.134,-2.733,4.31,29.0
187.149,-2.757,3.343,65.0
148.674,-2.208,1.888,7.0
91.511,-1.375,3.714,24.0
129.152,-1.956,4.573,13.0
151.469,-2.312,4.58,103.0
183.516,-2.823,4.582,29.0
262.001,-4.063,5.191,10.0
205.394,-3.208,3.007,70.0
91.463,-1.444,3.891,30.0
128.221,-2.039,4.791,10.0
151.447,-2.425,4.874,96.0
151.461,-2.443,4.078,82.0
248.338,-4.034,5.405,69.0
205.385,-3.358,3.408,12.0
93.002,-1.536,4.137,47.0
128.135,-2.131,5.039,10.0
151.37,-2.534,5.171,28.0
151.463,-2.55,4.375,82.0
40.258,-0.682,0.955,31.0
40.203,-0.685,0.746,5.0
99.209,-1.708,4.61,22.0
128.592,-2.226,5.31,31.0
184.393,-3.211,6.662,25.0
151.444,-2.651,4.672,36.0
40.249,-0.708,1.034,44.0
40.196,-0.711,0.825,47.0
90.871,-1.624,4.403,75.0
128.546,-2.309,5.562,35.0
185.78,-3.354,7.078,15.0
184.568,-3.35,6.061,51.0
40.266,-0.734,1.114,51.0
40.215,-0.736,0.905,50.0
91.358,-1.688,4.605,49.0
92.996,-1.727,4.206,41.0
184.075,-3.432,7.371,20.0
184.586,-3.457,6.419,50.0
40.293,-0.758,1.193,43.0
40.248,-0.76,0.984,49.0
127.126,-2.423,6.658,31.0
90.64,-1.735,4.279,47.0
128.561,-2.471,5.403,35.0
184.556,-3.561,6.786,32.0
40.324,-0.78,1.274,11.0
40.27,-0.782,1.064,47.0
83.76,-1.642,4.553,37.0
91.704,-1.804,4.509,79.0
128.802,-2.543,5.668,31.0
191.27,-3.788,7.408,15.0
185.284,-3.682,6.218,41.0
40.29,-0.803,1.144,50.0
91.358,-1.836,5.147,12.0
91.445,-1.844,4.678,79.0
90.634,-1.833,4.168,22.0
184.059,-3.733,7.493,22.0
185.557,-3.775,6.594,43.0
40.321,-0.822,1.224,26.0
101.449,-2.086,5.915,12.0
91.412,-1.885,4.857,66.0
90.638,-1.874,4.348,26.0
128.909,-2.672,5.503,11.0
191.425,-3.977,7.183,20.0
40.321,-0.84,1.305,2.0
91.492,-1.921,5.519,24.0
91.386,-1.923,5.039,26.0
92.056,-1.941,4.598,51.0
128.875,-2.723,5.758,16.0
191.4,-4.054,7.562,26.0
185.557,-3.937,6.375,48.0
91.483,-1.956,5.699,21.0
91.387,-1.958,5.219,62.0
91.979,-1.974,4.777,16.0
90.611,-1.947,4.227,48.0
129.249,-2.783,5.362,19.0
185.599,-4.004,6.743,43.0
84.059,-1.826,5.403,41.0
91.428,-1.989,5.403,44.0
83.739,-1.825,4.514,28.0
99.104,-2.162,4.82,24.0
128.862,-2.815,5.6,15.0
129.669,-2.837,4.964,9.0
84.183,-1.855,5.576,46.0
91.495,-2.018,5.586,55.0
91.588,-2.022,5.119,72.0
92.111,-2.036,4.661,52.0
129.642,-2.868,5.888,17.0
129.608,-2.87,5.217,29.0
84.177,-1.878,5.743,49.0
84.093,-1.877,5.3,24.0
91.397,-2.041,5.286,73.0
92.158,-2.06,4.844,81.0
90.588,-2.025,4.292,54.0
129.421,-2.896,5.462,16.0
84.331,-1.901,5.919,61.0
84.221,-1.899,5.474,32.0
91.427,-2.061,5.468,52.0
92.173,-2.079,5.024,29.0
98.944,-2.233,4.881,24.0
129.731,-2.927,5.729,32.0
41.224,-0.937,2.974,47.0
84.911,-1.93,5.685,19.0
91.528,-2.08,5.653,24.0
91.999,-2.091,5.196,68.0
92.14,-2.093,4.725,62.0
92.961,-2.112,4.286,7.0
84.17,-1.926,6.239,20.0
84.873,-1.941,5.85,39.0
84.139,-1.923,5.361,17.0
91.414,-2.089,5.34,53.0
92.186,-2.106,4.907,48.0
90.583,-2.068,4.352,48.0
41.222,-0.948,3.135,58.0
84.94,-1.952,6.017,38.0
84.601,-1.942,5.552,59.0
91.442,-2.098,5.517,17.0
83.71,-1.92,4.615,48.0
98.771,-2.263,4.933,23.0
41.134,-0.949,3.208,68.0
41.248,-0.95,3.001,34.0
84.961,-1.956,5.738,8.0
91.541,-2.105,5.697,16.0
91.995,-2.113,5.247,66.0
92.158,-2.115,4.777,59.0
41.172,-0.951,3.288,47.0
41.258,-0.951,3.08,18.0
84.92,-1.956,5.897,43.0
84.18,-1.937,5.398,21.0
91.428,-2.1,5.387,38.0
92.2,-2.116,4.952,24.0
41.29,-0.953,3.376,10.0
41.199,-0.95,3.153,67.0
84.908,-1.955,6.056,18.0
84.764,-1.948,5.595,30.0
91.502,-2.099,5.563,12.0
92.126,-2.11,5.122,23.0
53.968,-1.244,4.515,8.0
41.117,-0.946,3.225,63.0
41.245,-0.947,3.019,17.0
84.902,-1.946,5.762,12.0
91.569,-2.094,5.737,15.0
91.545,-2.09,5.259,51.0
54.126,-1.244,4.629,17.0
41.185,-0.944,3.306,37.0
84.139,-1.925,6.314,16.0
84.7,-1.933,5.906,69.0
84.293,-1.919,5.436,24.0
91.415,-2.076,5.42,48.0
54.258,-1.24,4.741,57.0
84.11,-1.918,6.909,21.0
41.199,-0.937,3.168,72.0
41.213,-0.935,2.949,43.0
84.334,-1.908,5.595,39.0
91.514,-2.065,5.593,39.0
40.812,-0.926,3.641,36.0
84.052,-1.903,7.058,19.0
41.14,-0.929,3.239,60.0
84.149,-1.894,6.177,19.0
84.194,-1.889,5.739,47.0
84.092,-1.882,5.292,27.0
49.072,-1.105,4.467,47.0
54.25,-1.217,4.654,61.0
41.202,-0.922,3.318,45.0
41.244,-0.919,3.1,47.0
91.356,-2.03,6.39,25.0
84.098,-1.863,5.442,35.0
49.073,-1.094,4.555,8.0
54.231,-1.205,4.748,20.0
41.315,-0.914,3.4,16.0
41.206,-0.908,3.171,43.0
41.223,-0.906,2.956,19.0
84.11,-1.842,5.592,46.0
39.773,-0.876,3.763,58.0
40.768,-0.894,3.642,42.0
54.201,-1.184,4.557,62.0
41.121,-0.895,3.237,45.0
41.21,-0.893,3.028,62.0
84.055,-1.815,5.736,37.0
39.296,-0.854,3.788,68.0
49.055,-1.061,4.469,13.0
54.201,-1.167,4.652,14.0
41.24,-0.884,3.319,39.0
41.253,-0.881,3.103,28.0
85.955,-1.828,6.015,14.0
39.253,-0.839,3.852,56.0
39.82,-0.848,3.697,50.0
40.675,-0.862,3.562,41.0
54.192,-1.143,4.454,31.0
41.271,-0.866,3.175,24.0
83.873,-1.753,6.011,4.0
39.393,-0.828,3.933,55.0
39.673,-0.83,3.751,56.0
40.407,-0.841,3.607,50.0
63.716,-1.319,5.344,20.0
41.191,-0.849,3.237,56.0
41.242,-0.845,3.024,33.0
39.703,-0.818,4.031,48.0
39.319,-0.806,3.784,72.0
39.744,-0.81,3.614,62.0
40.657,-0.824,3.477,32.0
54.239,-1.094,4.353,13.0
41.23,-0.827,3.092,68.0
39.274,-0.792,4.053,63.0
39.193,-0.786,3.836,64.0
39.756,-0.793,3.681,70.0
40.621,-0.805,3.542,54.0
54.174,-1.068,4.436,6.0
41.259,-0.808,3.161,38.0
39.22,-0.773,4.112,60.0
39.517,-0.774,3.933,50.0
39.764,-0.773,3.746,61.0
40.199,-0.777,3.57,52.0
63.962,-1.229,5.342,19.0
54.244,-1.036,4.243,10.0
39.281,-0.754,4.181,48.0
39.748,-0.758,4.02,49.0
39.521,-0.748,3.786,52.0
39.803,-0.749,3.597,69.0
0.0,0.0,0.0,0.0
54.227,-1.006,4.326,15.0
39.151,-0.731,4.229,56.0
39.358,-0.729,4.041,65.0
39.444,-0.726,3.84,52.0
39.894,-0.729,3.667,50.0
49.102,-0.89,4.253,52.0
40.723,-0.732,3.312,42.0
38.978,-0.705,4.271,65.0
39.223,-0.704,4.088,75.0
39.536,-0.704,3.91,48.0
40.272,-0.712,3.764,39.0
49.092,-0.861,4.328,58.0
40.801,-0.71,3.38,47.0
39.22,-0.686,4.358,49.0
39.328,-0.682,4.159,56.0
39.485,-0.679,3.965,49.0
40.476,-0.69,3.844,21.0
49.973,-0.846,4.479,8.0
49.105,-0.824,4.14,9.0
39.307,-0.663,4.426,66.0
39.396,-0.659,4.224,46.0
39.39,-0.653,4.012,51.0
50.144,-0.824,4.834,7.0
40.455,-0.658,3.685,45.0
49.155,-0.793,4.215,12.0
39.731,-0.644,4.531,52.0
39.298,-0.631,4.271,55.0
39.405,-0.626,4.071,42.0
40.367,-0.635,3.95,43.0
48.118,-0.75,4.452,11.0
49.876,-0.77,4.348,12.0
39.663,-0.615,4.581,66.0
39.407,-0.605,4.338,49.0
39.3,-0.597,4.116,53.0
39.448,-0.594,3.916,57.0
39.69,-0.591,3.727,32.0
56.697,-0.835,5.021,21.0
39.609,-0.586,4.63,67.0
39.257,-0.574,4.376,53.0
39.599,-0.573,4.201,28.0
39.465,-0.565,3.971,58.0
39.466,-0.558,3.76,58.0
40.025,-0.56,3.598,33.0
40.02,-0.562,4.732,49.0
39.725,-0.551,4.483,52.0
0.0,0.0,0.0,0.0
39.627,-0.537,4.041,55.0
39.556,-0.529,3.821,44.0
47.754,-0.632,4.357,4.0
40.251,-0.534,4.813,28.0
39.765,-0.521,4.54,59.0
39.797,-0.515,4.328,46.0
39.343,-0.502,4.063,42.0
39.749,-0.501,3.891,36.0
47.751,-0.593,4.418,8.0
40.07,-0.5,4.844,51.0
39.992,-0.492,4.617,57.0
39.48,-0.479,4.344,64.0
39.351,-0.47,4.113,57.0
39.857,-0.469,3.951,57.0
40.418,-0.469,3.79,16.0
39.998,-0.466,4.885,42.0
39.953,-0.458,4.662,50.0
39.82,-0.45,4.431,45.0
39.504,-0.439,4.178,53.0
39.294,-0.43,3.944,55.0
42.863,-0.461,4.071,4.0
39.847,-0.43,4.915,41.0
40.211,-0.427,4.741,37.0
40.086,-0.418,4.509,44.0
39.49,-0.404,4.224,55.0
39.415,-0.397,4.002,46.0
39.718,-0.393,3.819,38.0
39.906,-0.395,4.97,48.0
40.223,-0.392,4.79,31.0
40.519,-0.387,4.605,49.0
40.116,-0.376,4.337,41.0
39.522,-0.363,4.059,55.0
39.536,-0.356,3.846,59.0
39.79,-0.358,5.001,49.0
39.773,-0.351,4.782,45.0
41.041,-0.354,4.71,60.0
40.238,-0.34,4.395,22.0
39.529,-0.327,4.103,42.0
39.524,-0.32,3.889,53.0
39.596,-0.32,5.021,65.0
39.669,-0.313,4.813,47.0
39.905,-0.308,4.624,22.0
40.282,-0.303,4.444,43.0
39.76,-0.292,4.17,46.0
39.433,-0.281,3.922,45.0
42.239,-0.301,5.401,27.0
39.673,-0.275,4.855,47.0
39.76,-0.269,4.648,47.0
40.3,-0.265,4.488,59.0
40.363,-0.258,4.275,38.0
39.615,-0.245,3.98,53.0
39.636,-0.245,5.109,61.0
39.723,-0.238,4.901,44.0
39.677,-0.23,4.679,33.0
40.372,-0.226,4.536,50.0
40.621,-0.22,4.342,49.0
39.978,-0.209,4.055,58.0
39.352,-0.204,5.111,66.0
39.657,-0.198,4.932,52.0
39.819,-0.191,4.734,38.0
40.525,-0.187,4.592,30.0
40.437,-0.179,4.361,38.0
39.626,-0.167,4.057,62.0
39.518,-0.165,5.17,61.0
39.579,-0.158,4.959,72.0
39.581,-0.151,4.742,47.0
46.884,-0.169,5.355,13.0
40.152,-0.137,4.366,56.0
39.92,-0.129,4.123,48.0
39.491,-0.125,5.201,53.0
39.65,-0.118,5.004,56.0
39.625,-0.11,4.782,41.0
39.75,-0.103,4.574,70.0
40.177,-0.096,4.403,58.0
40.321,-0.089,4.198,59.0
39.504,-0.085,5.237,62.0
39.664,-0.077,5.038,54.0
39.636,-0.07,4.816,54.0
39.798,-0.062,4.613,55.0
40.621,-0.055,4.485,24.0
40.641,-0.047,4.264,52.0
39.596,-0.043,5.281,60.0
39.416,-0.035,5.039,58.0
39.431,-0.027,4.823,67.0
39.894,-0.02,4.655,27.0
40.421,-0.012,4.494,41.0
40.395,-0.004,4.269,42.0
39.764,-0.001,5.334,44.0
39.552,0.005,5.086,61.0
39.435,0.013,4.852,43.0
39.895,0.021,4.684,23.0
40.165,0.029,4.495,49.0
40.937,0.038,4.356,28.0
39.872,0.041,5.377,47.0
39.501,0.048,5.108,55.0
39.382,0.056,4.874,46.0
39.828,0.065,4.704,40.0
40.068,0.073,4.511,35.0
40.173,0.081,4.302,46.0
39.745,0.085,5.387,70.0
39.865,0.093,5.182,43.0
39.396,0.099,4.902,46.0
39.689,0.108,4.714,23.0
39.811,0.116,4.508,52.0
40.206,0.125,4.331,47.0
39.781,0.128,5.417,60.0
40.413,0.138,5.278,47.0
39.713,0.144,4.965,44.0
43.703,0.166,5.217,3.0
40.337,0.161,4.591,40.0
40.067,0.168,4.339,42.0
39.697,0.171,5.429,61.0
39.757,0.179,5.215,59.0
39.922,0.188,5.014,59.0
39.696,0.195,4.761,44.0
43.096,0.22,4.929,5.0
40.457,0.215,4.403,39.0
39.717,0.216,5.453,59.0
39.677,0.224,5.226,25.0
39.753,0.232,5.014,61.0
39.823,0.24,4.797,29.0
40.148,0.25,4.612,45.0
40.398,0.26,4.417,56.0
39.774,0.262,5.481,54.0
39.574,0.268,5.232,57.0
39.97,0.278,5.06,45.0
40.607,0.291,4.91,51.0
40.221,0.296,4.639,37.0
40.505,0.306,4.447,22.0
39.508,0.304,5.462,56.0
39.47,0.312,5.235,61.0
39.745,0.322,5.049,46.0
40.015,0.332,4.856,41.0
40.231,0.342,4.657,54.0
40.034,0.348,4.412,41.0
39.263,0.348,5.444,62.0
39.382,0.357,5.239,65.0
39.596,0.366,5.046,51.0
43.807,0.414,5.332,3.0
40.27,0.388,4.677,45.0
41.124,0.405,4.547,30.0
39.321,0.394,5.467,56.0
39.079,0.399,5.213,55.0
39.523,0.411,5.05,40.0
40.169,0.425,4.903,44.0
40.053,0.432,4.664,59.0
