X,Y,Z,Reflectivity
152.74,3.601,5.126,23.0
0.0,0.0,0.0,0.0
146.474,3.531,3.345,2.0
100.413,2.448,1.759,4.0
106.075,2.615,1.296,83.0
152.172,3.798,6.114,17.0
152.615,3.851,5.32,32.0
138.013,3.518,4.076,19.0
0.0,0.0,0.0,0.0
0.0,0.0,0.0,0.0
106.082,2.789,1.429,38.0
152.098,4.048,6.303,38.0
152.095,4.09,5.493,36.0
153.874,4.18,4.738,40.0
154.12,4.227,3.908,18.0
0.0,0.0,0.0,0.0
0.0,0.0,0.0,0.0
151.856,4.298,6.48,44.0
152.04,4.343,5.677,38.0
153.161,4.417,4.902,37.0
154.102,4.485,4.095,35.0
0.0,0.0,0.0,0.0
0.0,0.0,0.0,0.0
151.878,4.555,6.664,41.0
152.059,4.602,5.86,47.0
152.507,4.657,5.061,22.0
158.372,4.88,4.395,16.0
0.0,0.0,0.0,0.0
0.0,0.0,0.0,0.0
133.576,4.235,6.016,38.0
152.26,4.869,6.043,43.0
153.067,4.935,5.254,22.0
158.79,5.163,4.585,11.0
0.0,0.0,0.0,0.0
0.0,0.0,0.0,0.0
133.722,4.468,6.172,32.0
152.553,5.138,6.223,35.0
152.738,5.186,5.411,37.0
159.434,5.458,4.779,14.0
0.0,0.0,0.0,0.0
0.0,0.0,0.0,0.0
124.097,4.362,5.863,26.0
152.814,5.412,6.399,14.0
152.649,5.449,5.573,33.0
160.42,5.769,4.978,15.0
160.699,5.824,4.125,4.0
0.0,0.0,0.0,0.0
133.781,4.936,6.461,25.0
124.198,4.615,5.329,23.0
152.751,5.719,5.734,29.0
160.777,6.064,5.156,3.0
158.599,6.024,4.232,7.0
0.0,0.0,0.0,0.0
124.027,4.793,6.115,24.0
124.694,4.853,5.476,12.0
158.082,6.197,6.091,16.0
0.0,0.0,0.0,0.0
173.205,6.883,4.793,10.0
0.0,0.0,0.0,0.0
123.848,5.006,6.227,24.0
124.48,5.064,5.587,37.0
157.832,6.463,6.232,15.0
156.782,6.462,5.33,16.0
158.274,6.569,4.528,8.0
0.0,0.0,0.0,0.0
124.359,5.246,6.369,15.0
124.7,5.294,5.713,19.0
124.246,5.307,5.019,56.0
157.372,6.767,5.493,12.0
173.573,7.51,5.122,10.0
0.0,0.0,0.0,0.0
123.241,5.418,6.422,36.0
130.029,5.751,6.072,14.0
124.176,5.527,5.127,40.0
157.461,7.05,5.633,22.0
157.563,7.099,4.785,6.0
0.0,0.0,0.0,0.0
123.182,5.636,6.525,33.0
129.511,5.96,6.157,16.0
129.992,6.019,5.476,13.0
157.576,7.338,5.769,21.0
156.489,7.329,4.881,16.0
159.102,7.495,4.102,3.0
123.27,5.86,6.63,41.0
129.585,6.196,6.265,16.0
129.628,6.233,5.564,18.0
157.403,7.611,5.887,20.0
156.164,7.595,4.995,17.0
156.178,7.639,4.148,4.0
123.372,6.089,6.732,24.0
132.455,6.572,6.507,16.0
132.07,6.588,5.771,26.0
167.034,8.376,6.373,12.0
156.401,7.885,5.118,19.0
156.535,7.935,4.274,17.0
129.006,6.597,7.134,16.0
154.631,7.95,7.709,16.0
131.943,6.818,5.86,17.0
157.488,8.184,6.123,11.0
156.739,8.186,5.24,16.0
162.471,8.531,4.549,10.0
150.266,7.957,8.416,10.0
33.476,1.781,1.692,76.0
162.408,8.69,7.326,23.0
157.535,8.469,6.23,13.0
157.472,8.509,5.37,11.0
162.659,8.834,4.663,9.0
127.17,6.964,7.205,27.0
33.443,1.84,1.712,30.0
162.264,8.974,7.422,31.0
157.851,8.771,6.342,23.0
157.447,8.79,5.467,14.0
162.434,9.113,4.756,6.0
127.313,7.203,7.292,36.0
33.43,1.9,1.731,13.0
33.497,1.912,1.552,1.0
157.27,9.019,6.411,18.0
157.924,9.099,5.576,15.0
162.228,9.39,4.842,16.0
127.273,7.428,7.362,37.0
33.451,1.96,1.751,5.0
161.941,9.534,7.594,40.0
157.823,9.333,6.52,17.0
157.359,9.347,5.641,17.0
162.049,9.67,4.923,7.0
128.501,7.731,7.501,28.0
128.229,7.748,6.782,43.0
127.772,7.753,6.058,20.0
33.419,2.036,1.398,3.0
33.426,2.046,1.215,4.0
33.442,2.055,1.032,108.0
128.515,7.962,7.567,19.0
128.458,7.992,6.858,28.0
158.056,9.875,7.568,16.0
33.454,2.098,1.415,5.0
33.463,2.107,1.232,1.0
158.089,9.998,4.952,20.0
67.051,4.274,3.978,29.0
128.185,8.204,6.9,28.0
157.972,10.149,7.633,40.0
158.025,10.194,6.751,50.0
158.141,10.242,5.888,36.0
158.08,10.28,5.017,43.0
67.198,4.404,4.014,31.0
128.194,8.434,6.952,22.0
33.43,2.207,1.628,8.0
157.925,10.47,6.808,27.0
158.067,10.521,5.945,36.0
158.049,10.56,5.076,41.0
67.312,4.532,4.046,29.0
128.636,8.692,7.022,25.0
33.418,2.266,1.64,19.0
118.066,8.036,5.131,20.0
157.987,10.794,5.995,38.0
157.978,10.833,5.125,39.0
67.367,4.654,4.072,14.0
128.307,8.896,7.045,4.0
33.391,2.323,1.649,36.0
115.113,8.038,5.038,19.0
157.91,11.065,6.039,37.0
157.888,11.104,5.168,31.0
157.667,11.171,9.575,22.0
157.61,11.203,8.698,16.0
33.38,2.381,1.657,32.0
118.113,8.454,5.2,7.0
157.47,11.309,6.062,21.0
27.815,2.004,0.917,3.0
157.082,11.404,9.578,27.0
157.09,11.443,8.708,25.0
157.075,11.48,7.836,13.0
111.969,8.209,4.955,7.0
66.491,4.891,2.574,20.0
66.537,4.911,2.208,16.0
133.32,9.911,8.156,12.0
133.163,9.931,7.408,13.0
133.039,9.954,6.663,9.0
109.434,8.214,4.862,13.0
66.323,4.994,2.579,10.0
27.677,2.091,0.923,238.0
131.068,9.972,8.041,14.0
130.786,9.981,7.296,10.0
130.757,10.008,6.568,6.0
112.153,8.61,5.0,8.0
27.832,2.143,1.086,26.0
27.704,2.14,0.927,95.0
128.766,10.017,7.916,11.0
128.577,10.031,7.188,10.0
104.826,8.202,5.277,8.0
109.376,8.583,4.888,9.0
27.653,2.176,1.082,162.0
27.697,2.186,0.93,16.0
74.494,5.921,4.585,29.0
74.6,5.946,4.176,19.0
74.624,5.965,3.762,20.0
74.601,5.98,3.338,9.0
27.649,2.222,1.083,167.0
27.694,2.232,0.931,25.0
74.505,6.048,4.59,20.0
74.552,6.068,4.176,33.0
74.546,6.083,3.76,37.0
74.518,6.097,3.336,36.0
27.633,2.267,1.083,163.0
27.687,2.278,0.931,23.0
74.684,6.188,4.601,6.0
74.6,6.197,4.179,11.0
74.564,6.21,3.761,19.0
74.636,6.232,3.34,9.0
27.695,2.318,1.085,87.0
27.689,2.324,0.93,20.0
120.9,10.218,7.443,24.0
120.835,10.237,6.764,21.0
103.168,8.762,5.199,20.0
34.275,2.918,1.532,26.0
34.269,2.925,1.34,26.0
27.729,2.373,0.93,154.0
120.789,10.403,7.428,15.0
120.791,10.429,6.752,17.0
120.799,10.455,6.076,5.0
106.278,9.22,4.74,6.0
120.615,10.489,4.706,49.0
27.755,2.42,0.927,16.0
75.922,6.662,4.66,23.0
119.009,10.466,6.638,5.0
0.0,0.0,0.0,0.0
109.39,9.665,4.864,10.0
120.611,10.682,4.689,56.0
27.826,2.47,0.926,5.0
75.874,6.778,4.646,28.0
117.242,10.496,6.521,8.0
104.708,9.396,5.237,9.0
109.395,9.839,4.846,9.0
115.366,10.399,4.465,15.0
115.27,10.415,3.816,11.0
75.98,6.907,4.638,20.0
114.74,10.453,6.359,36.0
103.198,9.422,5.14,8.0
13.845,1.266,0.61,6.0
114.737,10.522,4.415,34.0
13.847,1.272,0.455,7.0
13.839,1.279,0.841,6.0
13.851,1.283,0.764,4.0
13.819,1.283,0.684,5.0
13.82,1.286,0.606,26.0
13.828,1.289,0.528,18.0
13.849,1.294,0.451,29.0
13.824,1.299,0.837,29.0
13.821,1.301,0.759,17.0
13.803,1.302,0.68,26.0
13.813,1.306,0.601,36.0
13.83,1.31,0.524,32.0
13.827,1.313,0.447,33.0
13.81,1.319,0.832,37.0
13.805,1.32,0.754,37.0
13.797,1.322,0.675,38.0
13.798,1.325,0.596,35.0
13.807,1.328,0.519,37.0
13.809,1.331,0.442,35.0
13.8,1.338,0.826,41.0
13.795,1.34,0.748,134.0
13.785,1.342,0.67,127.0
13.779,1.343,0.591,36.0
13.792,1.347,0.514,41.0
13.793,1.35,0.436,36.0
13.784,1.357,0.82,59.0
13.781,1.358,0.742,150.0
13.776,1.36,0.664,144.0
13.76,1.361,0.585,38.0
13.786,1.366,0.508,64.0
13.781,1.368,0.43,37.0
13.778,1.375,0.814,127.0
13.78,1.378,0.737,150.0
13.778,1.38,0.659,150.0
13.764,1.381,0.579,39.0
13.781,1.385,0.502,87.0
13.779,1.387,0.424,37.0
13.776,1.395,0.808,136.0
13.774,1.396,0.73,150.0
13.766,1.398,0.652,127.0
13.764,1.4,0.573,45.0
13.769,1.403,0.495,88.0
13.769,1.405,0.417,38.0
13.763,1.412,0.801,149.0
13.773,1.415,0.723,150.0
13.762,1.416,0.645,88.0
13.77,1.419,0.566,53.0
13.777,1.422,0.488,80.0
13.774,1.424,0.411,37.0
13.764,1.431,0.794,133.0
13.766,1.433,0.716,150.0
13.762,1.435,0.638,46.0
13.764,1.437,0.558,85.0
13.776,1.441,0.481,86.0
13.772,1.442,0.403,37.0
13.765,1.449,0.786,125.0
13.774,1.452,0.709,150.0
13.767,1.453,0.63,63.0
13.772,1.456,0.551,65.0
13.775,1.458,0.473,63.0
13.771,1.46,0.395,36.0
13.765,1.466,0.778,107.0
13.774,1.469,0.701,150.0
13.764,1.47,0.622,45.0
13.773,1.473,0.543,39.0
13.779,1.476,0.465,38.0
13.783,1.478,0.387,34.0
13.774,1.484,0.77,86.0
13.785,1.487,0.693,85.0
13.781,1.489,0.615,38.0
13.776,1.49,0.534,36.0
13.786,1.493,0.457,36.0
13.795,1.496,0.379,32.0
13.787,1.502,0.763,48.0
13.791,1.505,0.684,38.0
13.794,1.507,0.606,34.0
13.788,1.508,0.526,29.0
13.812,1.513,0.449,31.0
13.812,1.515,0.37,27.0
13.797,1.52,0.754,37.0
13.808,1.523,0.676,32.0
13.8,1.524,0.597,25.0
13.792,1.524,0.517,17.0
13.809,1.528,0.439,15.0
13.826,1.532,0.361,14.0
13.81,1.537,0.745,30.0
13.823,1.54,0.667,21.0
35.866,4.001,1.527,30.0
35.872,4.006,1.32,24.0
35.898,4.014,1.117,2.0
13.835,1.548,0.352,4.0
36.243,4.074,1.93,6.0
13.827,1.556,0.657,4.0
35.875,4.041,1.501,150.0
33.602,3.789,1.212,10.0
96.925,10.942,2.945,39.0
96.933,10.955,2.394,36.0
10.008,1.135,0.525,4.0
35.851,4.072,1.677,9.0
33.095,3.763,1.36,3.0
33.083,3.765,1.168,7.0
9.992,1.138,0.295,4.0
9.996,1.14,0.239,3.0
10.01,1.146,0.517,15.0
35.845,4.108,1.649,10.0
32.96,3.781,1.329,4.0
9.991,1.147,0.344,13.0
33.905,3.897,0.977,2.0
9.998,1.15,0.231,13.0
10.01,1.156,0.509,28.0
10.002,1.156,0.452,59.0
10.005,1.157,0.395,42.0
10.003,1.158,0.337,24.0
33.936,3.933,0.95,7.0
10.0,1.16,0.223,19.0
9.999,1.164,0.5,72.0
10.001,1.165,0.443,136.0
9.997,1.166,0.386,116.0
9.993,1.166,0.328,75.0
10.003,1.168,0.271,70.0
9.997,1.169,0.214,29.0
9.994,1.173,0.491,81.0
9.995,1.174,0.434,145.0
9.988,1.174,0.377,124.0
9.984,1.174,0.319,89.0
9.992,1.176,0.262,79.0
9.991,1.177,0.205,41.0
9.978,1.18,0.482,78.0
9.983,1.181,0.425,150.0
9.987,1.182,0.368,136.0
9.976,1.182,0.31,96.0
9.985,1.184,0.253,77.0
9.981,1.184,0.196,40.0
9.98,1.188,0.473,97.0
9.978,1.189,0.416,150.0
9.984,1.19,0.359,150.0
9.978,1.19,0.301,110.0
9.981,1.192,0.244,101.0
9.985,1.193,0.187,44.0
9.969,1.195,0.463,106.0
9.977,1.196,0.407,150.0
9.978,1.197,0.35,150.0
9.969,1.197,0.291,110.0
9.977,1.199,0.235,102.0
9.981,1.2,0.178,58.0
9.978,1.203,0.454,105.0
9.978,1.204,0.397,150.0
9.977,1.205,0.34,150.0
9.965,1.204,0.282,118.0
9.971,1.205,0.225,106.0
9.971,1.206,0.168,58.0
9.972,1.21,0.444,110.0
9.974,1.21,0.387,150.0
9.978,1.212,0.33,150.0
9.969,1.211,0.272,132.0
9.978,1.213,0.215,110.0
9.966,1.212,0.158,60.0
9.971,1.216,0.435,101.0
9.968,1.216,0.377,150.0
9.972,1.217,0.32,150.0
9.968,1.218,0.262,135.0
9.979,1.22,0.205,115.0
9.968,1.219,0.148,62.0
9.971,1.222,0.425,102.0
9.968,1.223,0.367,150.0
9.979,1.224,0.311,150.0
9.97,1.224,0.252,134.0
9.967,1.224,0.195,117.0
9.969,1.225,0.138,69.0
9.97,1.228,0.414,102.0
9.97,1.228,0.357,150.0
9.978,1.23,0.3,150.0
9.97,1.23,0.242,120.0
9.975,1.231,0.185,116.0
9.969,1.231,0.128,69.0
9.975,1.234,0.404,109.0
9.971,1.234,0.347,150.0
9.973,1.235,0.29,150.0
9.969,1.235,0.232,128.0
9.974,1.236,0.175,108.0
9.97,1.236,0.117,71.0
9.972,1.239,0.394,102.0
9.976,1.24,0.337,150.0
9.978,1.24,0.279,150.0
9.969,1.239,0.221,127.0
9.977,1.241,0.164,107.0
9.976,1.241,0.107,63.0
9.976,1.244,0.383,98.0
9.972,1.243,0.326,150.0
9.975,1.244,0.269,150.0
9.962,1.243,0.21,120.0
9.975,1.245,0.153,106.0
9.972,1.245,0.096,66.0
9.975,1.248,0.372,98.0
9.976,1.248,0.315,150.0
9.977,1.248,0.258,150.0
9.97,1.248,0.199,113.0
9.97,1.248,0.142,108.0
9.967,1.248,0.085,58.0
9.977,1.251,0.361,81.0
9.972,1.251,0.304,150.0
9.974,1.251,0.247,150.0
9.965,1.251,0.189,122.0
9.974,1.252,0.132,110.0
9.975,1.253,0.075,59.0
9.973,1.254,0.35,77.0
9.973,1.254,0.293,139.0
9.974,1.254,0.236,150.0
9.965,1.254,0.178,102.0
9.974,1.255,0.121,109.0
9.972,1.255,0.064,70.0
9.979,1.257,0.34,73.0
9.976,1.257,0.282,140.0
9.975,1.257,0.225,137.0
9.965,1.256,0.167,101.0
9.97,1.257,0.11,109.0
9.971,1.257,0.052,64.0
9.972,1.259,0.328,68.0
9.977,1.259,0.271,143.0
9.974,1.259,0.214,136.0
9.966,1.258,0.155,98.0
9.971,1.259,0.098,97.0
9.971,1.259,0.041,57.0
9.977,1.261,0.317,70.0
9.981,1.262,0.26,135.0
9.969,1.26,0.202,128.0
9.966,1.26,0.144,89.0
9.976,1.261,0.087,92.0
9.975,1.261,0.03,52.0
9.979,1.263,0.306,69.0
9.978,1.262,0.248,138.0
9.982,1.263,0.191,123.0
9.966,1.261,0.133,80.0
9.976,1.262,0.076,84.0
9.975,1.262,0.019,41.0
9.975,1.263,0.294,65.0
9.981,1.264,0.237,141.0
9.971,1.262,0.18,133.0
9.966,1.262,0.122,80.0
9.975,1.263,0.065,90.0
9.974,1.263,0.007,32.0
9.978,1.264,0.283,63.0
9.973,1.263,0.226,134.0
9.969,1.262,0.168,130.0
9.969,1.262,0.11,85.0
9.973,1.263,0.053,83.0
9.974,1.263,-0.003,40.0
9.972,1.263,0.272,62.0
9.981,1.264,0.215,136.0
9.975,1.263,0.157,134.0
9.962,1.261,0.099,88.0
9.98,1.263,0.042,98.0
9.981,1.263,-0.014,44.0
9.978,1.263,0.26,69.0
9.973,1.262,0.203,125.0
9.976,1.262,0.146,130.0
9.969,1.261,0.087,104.0
9.972,1.261,0.03,100.0
9.976,1.262,-0.026,45.0
9.979,1.262,0.249,68.0
9.978,1.262,0.192,147.0
9.977,1.261,0.134,145.0
9.972,1.26,0.076,99.0
9.976,1.261,0.019,85.0
9.975,1.26,-0.037,58.0
9.969,1.259,0.237,69.0
9.976,1.26,0.18,139.0
9.973,1.259,0.123,150.0
9.966,1.258,0.065,101.0
9.976,1.259,0.007,89.0
9.973,1.258,-0.049,65.0
9.975,1.258,0.226,88.0
9.972,1.257,0.169,150.0
9.973,1.257,0.111,150.0
9.962,1.255,0.053,107.0
9.977,1.257,-0.003,86.0
9.966,1.255,-0.06,61.0
9.973,1.255,0.214,95.0
9.972,1.255,0.157,150.0
9.971,1.254,0.1,150.0
9.969,1.254,0.042,106.0
9.979,1.254,-0.014,44.0
9.967,1.253,-0.071,60.0
9.971,1.252,0.203,102.0
9.977,1.252,0.146,150.0
9.977,1.252,0.089,150.0
9.963,1.25,0.031,105.0
9.975,1.251,-0.026,73.0
9.967,1.25,-0.083,58.0
9.974,1.249,0.192,101.0
9.974,1.249,0.135,150.0
9.969,1.248,0.077,150.0
9.968,1.247,0.019,93.0
9.972,1.247,-0.037,111.0
9.967,1.246,-0.094,61.0
9.972,1.245,0.181,108.0
9.971,1.244,0.123,150.0
9.971,1.244,0.066,150.0
9.965,1.243,0.008,93.0
9.973,1.243,-0.048,109.0
9.968,1.242,-0.105,62.0
9.973,1.241,0.169,108.0
9.972,1.24,0.112,150.0
9.978,1.24,0.055,150.0
9.972,1.239,-0.002,64.0
9.975,1.239,-0.059,116.0
9.968,1.238,-0.116,67.0
9.974,1.236,0.158,104.0
9.974,1.236,0.101,150.0
9.972,1.235,0.044,150.0
9.965,1.233,-0.013,21.0
9.974,1.234,-0.07,111.0
9.969,1.233,-0.127,67.0
9.974,1.231,0.147,118.0
9.974,1.231,0.09,150.0
9.979,1.23,0.033,150.0
9.967,1.228,-0.024,73.0
9.972,1.228,-0.081,111.0
9.969,1.227,-0.138,63.0
9.972,1.225,0.136,110.0
9.969,1.224,0.079,150.0
9.969,1.223,0.022,150.0
9.971,1.223,-0.035,119.0
9.974,1.223,-0.092,104.0
9.97,1.221,-0.149,61.0
9.974,1.22,0.125,113.0
9.97,1.218,0.068,150.0
9.975,1.218,0.011,150.0
9.966,1.216,-0.046,103.0
9.974,1.216,-0.103,99.0
9.969,1.215,-0.16,53.0
9.974,1.213,0.114,110.0
9.972,1.212,0.057,150.0
9.97,1.211,0.0,150.0
9.967,1.209,-0.057,98.0
9.977,1.21,-0.114,96.0
9.974,1.209,-0.171,55.0
9.974,1.206,0.104,97.0
9.973,1.205,0.047,150.0
9.977,1.204,-0.009,150.0
9.969,1.202,-0.067,100.0
9.982,1.203,-0.124,97.0
9.978,1.202,-0.181,43.0
9.977,1.199,0.093,90.0
9.981,1.198,0.036,150.0
9.982,1.197,-0.02,137.0
9.972,1.195,-0.078,83.0
9.985,1.196,-0.135,76.0
9.986,1.195,-0.192,37.0
9.985,1.192,0.083,76.0
9.983,1.191,0.026,139.0
9.994,1.191,-0.03,128.0
9.984,1.189,-0.088,69.0
9.993,1.189,-0.145,74.0
9.992,1.188,-0.202,29.0
9.996,1.185,0.073,71.0
9.991,1.183,0.016,140.0
9.99,1.182,-0.04,122.0
9.993,1.181,-0.098,69.0
9.994,1.18,-0.155,63.0
10.002,1.18,-0.213,28.0
9.996,1.176,0.063,68.0
10.002,1.176,0.006,128.0
10.002,1.175,-0.05,98.0
10.004,1.174,-0.108,32.0
10.015,1.174,-0.166,23.0
10.004,1.172,-0.223,18.0
10.011,1.169,0.053,29.0
10.007,1.167,-0.003,36.0
10.007,1.166,-0.06,19.0
10.0,1.164,-0.118,15.0
10.004,1.163,-0.175,14.0
10.0,1.162,-0.232,12.0
10.009,1.159,0.043,15.0
33.805,3.911,-0.043,5.0
34.492,3.986,-0.241,8.0
10.005,1.155,-0.128,6.0
21.516,2.481,-0.398,2.0
13.852,1.596,-0.335,6.0
33.921,3.896,0.116,84.0
37.155,4.262,-0.083,5.0
34.468,3.949,-0.273,28.0
24.635,2.819,-0.338,4.0
21.088,2.411,-0.409,2.0
13.836,1.58,-0.347,17.0
40.986,4.665,0.103,18.0
36.88,4.192,-0.116,30.0
34.439,3.91,-0.305,26.0
13.862,1.572,-0.203,3.0
13.854,1.569,-0.281,13.0
13.808,1.562,-0.359,17.0
40.772,4.597,0.066,16.0
36.423,4.101,-0.147,13.0
13.867,1.559,-0.135,4.0
13.851,1.555,-0.215,14.0
13.815,1.55,-0.293,19.0
13.794,1.545,-0.371,20.0
13.87,1.548,0.01,16.0
13.858,1.545,-0.068,13.0
13.852,1.542,-0.147,13.0
13.812,1.535,-0.226,18.0
13.812,1.533,-0.305,27.0
13.776,1.528,-0.383,24.0
13.825,1.527,-0.001,23.0
13.821,1.524,-0.08,17.0
13.801,1.52,-0.158,20.0
13.789,1.517,-0.238,27.0
13.798,1.516,-0.316,33.0
13.787,1.512,-0.394,30.0
13.816,1.51,-0.013,31.0
13.797,1.505,-0.091,25.0
13.779,1.501,-0.169,31.0
13.795,1.501,-0.249,33.0
13.789,1.498,-0.327,34.0
13.767,1.494,-0.405,31.0
13.803,1.491,-0.024,34.0
13.787,1.487,-0.102,35.0
13.772,1.483,-0.18,48.0
13.778,1.482,-0.26,34.0
13.775,1.479,-0.338,32.0
13.78,1.478,-0.416,33.0
13.789,1.472,-0.035,35.0
13.782,1.469,-0.113,45.0
13.783,1.467,-0.191,97.0
13.769,1.463,-0.27,36.0
13.779,1.462,-0.349,33.0
13.766,1.459,-0.426,32.0
13.775,1.453,-0.045,40.0
13.766,1.449,-0.123,97.0
13.778,1.448,-0.201,126.0
13.776,1.446,-0.281,36.0
13.771,1.443,-0.359,31.0
13.767,1.441,-0.437,32.0
13.773,1.434,-0.055,50.0
13.768,1.431,-0.133,122.0
13.777,1.43,-0.211,107.0
13.769,1.427,-0.29,50.0
13.761,1.423,-0.368,28.0
13.755,1.421,-0.446,27.0
13.769,1.415,-0.065,51.0
13.768,1.412,-0.143,127.0
13.773,1.411,-0.221,108.0
13.771,1.408,-0.3,73.0
13.77,1.405,-0.378,34.0
13.752,1.401,-0.455,28.0
13.777,1.397,-0.074,40.0
13.771,1.393,-0.152,87.0
13.779,1.392,-0.23,150.0
13.766,1.388,-0.309,66.0
13.775,1.386,-0.387,46.0
13.751,1.381,-0.464,30.0
13.787,1.378,-0.083,41.0
13.785,1.375,-0.161,75.0
13.778,1.372,-0.239,150.0
13.771,1.368,-0.318,55.0
13.765,1.365,-0.395,37.0
13.734,1.36,-0.472,24.0
13.792,1.358,-0.092,42.0
13.783,1.355,-0.169,52.0
13.783,1.352,-0.247,39.0
13.775,1.348,-0.326,38.0
13.761,1.345,-0.403,33.0
13.739,1.34,-0.48,24.0
13.806,1.339,-0.1,39.0
13.808,1.336,-0.178,60.0
13.793,1.332,-0.255,38.0
13.787,1.329,-0.334,34.0
13.765,1.324,-0.411,26.0
13.732,1.319,-0.488,21.0
13.819,1.32,-0.108,35.0
13.824,1.317,-0.185,45.0
13.808,1.313,-0.263,39.0
13.799,1.309,-0.342,33.0
13.777,1.304,-0.419,23.0
13.751,1.299,-0.496,26.0
13.84,1.3,-0.115,32.0
13.835,1.297,-0.193,34.0
13.822,1.292,-0.27,34.0
13.813,1.289,-0.349,31.0
13.79,1.284,-0.426,19.0
13.76,1.278,-0.503,20.0
13.863,1.28,-0.122,28.0
13.856,1.277,-0.2,30.0
13.829,1.271,-0.277,22.0
13.829,1.268,-0.356,29.0
13.82,1.264,-0.434,23.0
13.769,1.257,-0.51,17.0
13.892,1.261,-0.129,18.0
13.874,1.256,-0.206,19.0
13.888,1.254,-0.284,13.0
13.837,1.247,-0.363,16.0
13.847,1.244,-0.441,15.0
13.783,1.236,-0.516,16.0
13.926,1.241,-0.135,4.0
24.378,2.167,-0.373,2.0
20.918,1.855,-0.437,4.0
13.876,1.227,-0.369,6.0
13.9,1.226,-0.448,12.0
13.802,1.215,-0.522,14.0
28.042,2.453,-0.283,19.0
23.957,2.09,-0.376,5.0
20.694,1.8,-0.44,4.0
18.511,1.606,-0.5,3.0
16.803,1.454,-0.548,0.0
13.837,1.195,-0.528,12.0
28.014,2.403,-0.293,27.0
23.924,2.047,-0.384,5.0
20.605,1.758,-0.445,4.0
18.426,1.568,-0.503,3.0
16.682,1.416,-0.549,2.0
13.879,1.175,-0.535,12.0
27.669,2.327,-0.298,24.0
23.742,1.991,-0.388,5.0
20.54,1.717,-0.45,4.0
18.343,1.529,-0.507,3.0
16.596,1.38,-0.551,2.0
13.997,1.161,-0.543,10.0
27.65,2.278,-0.305,34.0
23.567,1.936,-0.392,5.0
20.476,1.677,-0.454,3.0
18.253,1.49,-0.509,3.0
16.513,1.344,-0.553,2.0
14.092,1.144,-0.55,13.0
27.682,2.232,-0.312,26.0
23.407,1.881,-0.395,5.0
20.441,1.638,-0.459,3.0
18.224,1.456,-0.512,3.0
16.503,1.314,-0.556,2.0
14.193,1.127,-0.557,11.0
30.599,2.413,-0.352,1.0
23.281,1.83,-0.397,5.0
20.377,1.596,-0.461,3.0
18.191,1.42,-0.515,3.0
16.489,1.283,-0.559,3.0
14.391,1.117,-0.568,13.0
30.676,2.364,-0.358,2.0
23.085,1.773,-0.398,5.0
20.323,1.556,-0.463,3.0
18.164,1.386,-0.517,3.0
16.466,1.252,-0.56,2.0
14.269,1.082,-0.565,11.0
30.474,2.293,-0.36,1.0
23.109,1.733,-0.402,5.0
20.337,1.52,-0.466,3.0
18.178,1.354,-0.52,3.0
16.398,1.217,-0.56,2.0
14.51,1.073,-0.576,12.0
30.414,2.233,-0.362,1.0
23.102,1.69,-0.404,5.0
20.286,1.479,-0.467,3.0
18.202,1.322,-0.522,3.0
16.447,1.19,-0.563,2.0
14.573,1.051,-0.58,22.0
30.401,2.175,-0.364,2.0
23.165,1.651,-0.406,5.0
20.349,1.445,-0.469,3.0
18.138,1.283,-0.521,3.0
16.509,1.164,-0.566,2.0
14.592,1.025,-0.581,15.0
30.348,2.115,-0.364,2.0
23.286,1.617,-0.409,5.0
20.427,1.413,-0.471,3.0
18.192,1.253,-0.522,3.0
16.504,1.133,-0.565,2.0
14.61,0.999,-0.581,16.0
30.452,2.066,-0.365,2.0
23.314,1.575,-0.409,5.0
20.439,1.375,-0.471,3.0
18.256,1.223,-0.524,3.0
16.456,1.099,-0.563,2.0
14.66,0.975,-0.583,17.0
30.439,2.008,-0.364,2.0
23.5,1.544,-0.41,5.0
20.437,1.337,-0.47,3.0
18.284,1.191,-0.523,3.0
16.529,1.072,-0.564,2.0
14.67,0.947,-0.582,15.0
30.55,1.957,-0.362,2.0
23.581,1.504,-0.409,5.0
20.567,1.306,-0.471,4.0
18.33,1.159,-0.522,4.0
16.575,1.043,-0.564,3.0
14.666,0.919,-0.58,16.0
30.658,1.906,-0.36,2.0
23.751,1.469,-0.409,5.0
20.679,1.274,-0.47,4.0
18.451,1.131,-0.523,3.0
16.688,1.019,-0.565,2.0
14.673,0.892,-0.578,13.0
30.834,1.858,-0.356,2.0
24.04,1.442,-0.41,5.0
20.722,1.237,-0.468,4.0
18.595,1.105,-0.524,3.0
16.79,0.992,-0.565,2.0
14.693,0.864,-0.576,9.0
30.915,1.803,-0.351,2.0
24.29,1.41,-0.409,5.0
20.891,1.206,-0.467,4.0
18.665,1.072,-0.521,3.0
16.89,0.965,-0.565,2.0
14.772,0.84,-0.575,6.0
31.233,1.761,-0.347,1.0
24.508,1.375,-0.407,3.0
21.094,1.177,-0.466,4.0
18.75,1.04,-0.519,3.0
17.06,0.942,-0.566,2.0
14.997,0.824,-0.579,6.0
31.476,1.713,-0.341,2.0
24.741,1.339,-0.403,2.0
21.242,1.143,-0.462,4.0
18.966,1.016,-0.519,3.0
17.18,0.915,-0.564,2.0
15.21,0.805,-0.583,2.0
31.923,1.675,-0.335,1.0
24.897,1.299,-0.398,1.0
21.381,1.109,-0.458,4.0
19.194,0.99,-0.518,3.0
17.34,0.889,-0.563,2.0
15.488,0.79,-0.588,3.0
32.233,1.628,-0.327,1.0
28.654,1.439,-0.447,1.0
21.627,1.08,-0.455,4.0
19.385,0.962,-0.516,3.0
17.426,0.86,-0.559,3.0
15.802,0.775,-0.594,3.0
32.652,1.586,-0.318,1.0
28.874,1.394,-0.439,1.0
21.878,1.05,-0.452,4.0
19.489,0.929,-0.511,3.0
17.591,0.834,-0.557,5.0
15.984,0.753,-0.593,2.0
35.545,1.657,-0.33,1.0
29.048,1.345,-0.428,2.0
22.294,1.026,-0.45,4.0
19.698,0.9,-0.507,3.0
17.753,0.806,-0.554,5.0
16.111,0.727,-0.59,2.0
35.618,1.591,-0.314,4.0
29.332,1.301,-0.418,2.0
22.561,0.993,-0.444,4.0
19.991,0.874,-0.504,3.0
17.949,0.78,-0.551,4.0
16.313,0.704,-0.589,2.0
35.747,1.526,-0.296,6.0
29.684,1.258,-0.407,2.0
23.123,0.973,-0.443,5.0
20.327,0.849,-0.502,3.0
18.17,0.754,-0.547,3.0
16.483,0.679,-0.586,3.0
35.876,1.461,-0.277,7.0
30.024,1.214,-0.395,2.0
23.673,0.95,-0.44,5.0
20.6,0.82,-0.497,4.0
18.424,0.728,-0.544,3.0
16.683,0.654,-0.583,2.0
36.039,1.398,-0.257,9.0
30.592,1.177,-0.384,2.0
24.165,0.922,-0.434,5.0
20.778,0.787,-0.488,4.0
18.654,0.701,-0.539,3.0
17.011,0.634,-0.584,5.0
36.249,1.335,-0.235,15.0
30.877,1.128,-0.368,2.0
24.353,0.882,-0.422,1.0
21.069,0.756,-0.481,4.0
18.971,0.675,-0.536,3.0
17.195,0.607,-0.579,4.0
36.476,1.273,-0.212,26.0
31.409,1.086,-0.352,1.0
27.951,0.957,-0.465,1.0
21.434,0.727,-0.474,4.0
19.274,0.648,-0.531,3.0
17.458,0.582,-0.575,4.0
36.713,1.209,-0.188,33.0
32.27,1.053,-0.339,1.0
28.406,0.918,-0.452,1.0
21.966,0.703,-0.47,4.0
19.65,0.623,-0.526,3.0
17.688,0.555,-0.569,5.0
39.322,1.218,-0.171,22.0
36.234,1.112,-0.353,0.0
28.948,0.88,-0.438,1.0
22.594,0.68,-0.466,4.0
19.92,0.593,-0.518,3.0
18.026,0.531,-0.566,3.0
0.0,0.0,0.0,0.0
36.047,1.038,-0.323,3.0
29.451,0.838,-0.422,2.0
23.271,0.656,-0.461,5.0
20.255,0.564,-0.511,3.0
18.259,0.503,-0.559,3.0
39.508,1.074,-0.109,39.0
36.416,0.978,-0.296,6.0
29.991,0.797,-0.405,2.0
23.751,0.623,-0.451,1.0
20.645,0.535,-0.503,5.0
18.62,0.477,-0.553,3.0
42.692,1.079,-0.081,3.0
36.64,0.914,-0.266,10.0
30.671,0.756,-0.387,1.0
27.226,0.662,-0.492,1.0
21.049,0.506,-0.494,5.0
18.986,0.45,-0.547,3.0
0.0,0.0,0.0,0.0
36.988,0.852,-0.235,17.0
31.337,0.712,-0.367,2.0
27.663,0.62,-0.475,1.0
21.497,0.475,-0.484,4.0
19.328,0.421,-0.539,5.0
0.0,0.0,0.0,0.0
37.362,0.79,-0.202,35.0
32.413,0.675,-0.349,1.0
28.296,0.581,-0.459,1.0
22.219,0.45,-0.479,4.0
19.667,0.392,-0.529,6.0
47.567,0.931,0.043,30.0
38.107,0.734,-0.169,35.0
33.205,0.629,-0.324,1.0
29.093,0.542,-0.442,2.0
22.506,0.413,-0.463,1.0
19.987,0.361,-0.518,11.0
52.536,0.93,0.1,8.0
38.967,0.678,-0.133,46.0
36.915,0.632,-0.323,2.0
29.697,0.499,-0.421,2.0
26.542,0.438,-0.518,1.0
20.779,0.336,-0.517,4.0
48.104,0.763,0.141,13.0
39.707,0.618,-0.094,15.0
37.077,0.566,-0.286,6.0
30.358,0.454,-0.399,2.0
27.017,0.396,-0.499,1.0
21.305,0.306,-0.507,4.0
48.069,0.674,0.193,56.0
44.271,0.607,-0.057,18.0
37.539,0.504,-0.248,13.0
31.173,0.409,-0.375,1.0
27.624,0.354,-0.479,1.0
21.852,0.274,-0.496,4.0
48.049,0.586,0.247,84.0
0.0,0.0,0.0,0.0
37.986,0.441,-0.208,35.0
32.372,0.366,-0.353,1.0
28.518,0.314,-0.463,1.0
22.176,0.238,-0.478,1.0
48.05,0.5,0.301,103.0
47.692,0.482,0.045,50.0
38.694,0.38,-0.168,50.0
33.408,0.318,-0.326,1.0
29.253,0.27,-0.44,2.0
26.118,0.233,-0.532,2.0
48.06,0.414,0.358,103.0
48.007,0.399,0.103,72.0
39.513,0.317,-0.124,33.0
37.368,0.289,-0.319,2.0
29.876,0.222,-0.414,3.0
26.744,0.191,-0.512,2.0
48.167,0.329,0.417,58.0
48.197,0.316,0.162,38.0
44.149,0.276,-0.085,14.0
37.815,0.226,-0.276,6.0
30.791,0.175,-0.388,1.0
27.395,0.148,-0.49,1.0
59.313,0.302,0.588,112.0
59.353,0.285,0.274,17.0
0.0,0.0,0.0,0.0
38.434,0.162,-0.232,14.0
31.825,0.125,-0.361,1.0
28.311,0.103,-0.47,2.0
79.47,0.267,0.889,151.0
75.921,0.234,0.448,14.0
47.699,0.133,0.029,21.0
39.109,0.098,-0.186,38.0
33.25,0.074,-0.334,1.0
29.13,0.056,-0.446,2.0
79.47,0.132,0.992,151.0
79.364,0.11,0.572,10.0
0.0,0.0,0.0,0.0
40.369,0.033,-0.139,17.0
37.985,0.02,-0.331,1.0
29.851,0.007,-0.417,2.0
79.461,-0.002,1.099,151.0
79.407,-0.024,0.68,150.0
56.108,-0.033,0.184,13.0
0.0,0.0,0.0,0.0
38.652,-0.044,-0.284,4.0
30.738,-0.043,-0.387,1.0
79.454,-0.134,1.207,151.0
79.46,-0.156,0.789,151.0
61.644,-0.137,0.287,9.0
46.098,-0.116,-0.032,20.0
39.125,-0.109,-0.233,7.0
32.225,-0.098,-0.361,1.0
79.444,-0.265,1.319,160.0
79.457,-0.287,0.901,151.0
76.633,-0.298,0.466,13.0
0.0,0.0,0.0,0.0
39.79,-0.175,-0.18,3.0
33.614,-0.157,-0.329,1.0
79.441,-0.392,1.431,179.0
79.456,-0.413,1.013,165.0
79.312,-0.434,0.595,59.0
56.076,-0.322,0.12,8.0
42.027,-0.252,-0.13,2.0
39.596,-0.248,-0.33,1.0
79.436,-0.519,1.547,171.0
79.444,-0.539,1.129,180.0
79.471,-0.561,0.712,151.0
61.587,-0.451,0.223,10.0
48.416,-0.367,-0.078,5.0
42.155,-0.33,-0.289,2.0
79.431,-0.642,1.663,170.0
79.44,-0.663,1.246,193.0
79.452,-0.682,0.829,186.0
77.34,-0.685,0.394,8.0
54.323,-0.495,-0.007,5.0
43.718,-0.409,-0.235,7.0
79.439,-0.763,1.782,187.0
79.433,-0.783,1.365,200.0
79.447,-0.803,0.949,167.0
78.643,-0.815,0.519,29.0
60.683,-0.644,0.083,5.0
47.122,-0.512,-0.182,1.0
79.44,-0.883,1.903,153.0
79.443,-0.902,1.487,191.0
79.451,-0.921,1.07,165.0
79.225,-0.938,0.644,12.0
79.21,-0.958,0.23,3.0
54.496,-0.672,-0.126,2.0
79.947,-1.004,2.037,3.0
86.949,-1.114,1.761,59.0
86.938,-1.134,1.305,150.0
123.459,-1.641,1.196,9.0
78.897,-1.067,0.351,0.0
58.103,-0.8,-0.044,0.0
151.441,-2.121,4.097,48.0
183.421,-2.614,4.004,55.0
187.186,-2.71,3.106,48.0
123.82,-1.822,1.395,10.0
91.403,-1.367,0.553,6.0
61.59,-0.935,0.05,6.0
151.464,-2.336,4.339,87.0
261.98,-4.101,6.136,58.0
0.0,0.0,0.0,0.0
149.474,-2.407,1.923,10.0
40.293,-0.658,0.308,13.0
40.292,-0.667,0.097,47.0
151.47,-2.544,4.582,80.0
40.265,-0.685,1.008,42.0
40.198,-0.693,0.796,37.0
205.385,-3.588,2.975,55.0
40.25,-0.712,0.373,48.0
40.262,-0.722,0.163,53.0
40.364,-0.732,1.287,7.0
40.25,-0.739,1.073,58.0
40.198,-0.747,0.862,49.0
40.183,-0.755,0.648,41.0
40.236,-0.765,0.44,51.0
40.274,-0.775,0.23,49.0
184.967,-3.601,6.206,50.0
40.294,-0.793,1.141,53.0
40.224,-0.8,0.929,50.0
40.236,-0.809,0.716,61.0
40.23,-0.817,0.507,57.0
40.297,-0.827,0.298,2.0
185.691,-3.854,6.542,52.0
40.252,-0.844,1.208,39.0
40.202,-0.851,0.997,59.0
40.199,-0.859,0.783,53.0
40.28,-0.869,0.575,44.0
40.299,-0.878,0.366,0.0
185.587,-4.083,6.85,43.0
40.294,-0.894,1.277,23.0
40.205,-0.9,1.065,58.0
40.186,-0.908,0.851,58.0
40.286,-0.919,0.644,61.0
40.294,-0.927,0.435,119.0
40.263,-0.934,1.555,9.0
40.249,-0.942,1.345,47.0
40.213,-0.949,1.135,54.0
40.187,-0.956,0.92,54.0
40.199,-0.965,0.712,65.0
40.22,-0.973,0.503,54.0
129.356,-3.158,5.221,55.0
40.187,-0.988,1.412,50.0
40.245,-0.997,1.205,49.0
40.183,-1.003,0.99,55.0
40.192,-1.011,0.781,51.0
40.207,-1.019,0.573,53.0
128.956,-3.295,5.429,45.0
40.195,-1.034,1.482,50.0
40.269,-1.043,1.276,41.0
40.186,-1.048,1.06,53.0
40.199,-1.056,0.852,42.0
40.239,-1.064,0.644,38.0
128.865,-3.436,5.65,24.0
40.235,-1.079,1.554,9.0
40.276,-1.087,1.347,4.0
40.218,-1.093,1.132,38.0
40.27,-1.101,0.924,35.0
0.0,0.0,0.0,0.0
128.949,-3.576,5.882,10.0
129.275,-3.606,5.223,13.0
0.0,0.0,0.0,0.0
40.284,-1.137,1.205,11.0
40.337,-1.145,0.997,40.0
40.386,-1.153,0.788,0.0
0.0,0.0,0.0,0.0
148.168,-4.285,6.248,13.0
0.0,0.0,0.0,0.0
0.0,0.0,0.0,0.0
40.294,-1.185,1.068,31.0
40.316,-1.192,0.86,23.0
0.0,0.0,0.0,0.0
0.0,0.0,0.0,0.0
148.091,-4.455,5.745,3.0
0.0,0.0,0.0,0.0
40.329,-1.225,1.141,11.0
40.295,-1.23,0.931,26.0
0.0,0.0,0.0,0.0
0.0,0.0,0.0,0.0
148.159,-4.597,6.013,13.0
0.0,0.0,0.0,0.0
0.0,0.0,0.0,0.0
40.358,-1.269,1.005,2.0
0.0,0.0,0.0,0.0
0.0,0.0,0.0,0.0
148.046,-4.726,6.273,14.0
0.0,0.0,0.0,0.0
0.0,0.0,0.0,0.0
0.0,0.0,0.0,0.0
0.0,0.0,0.0,0.0
0.0,0.0,0.0,0.0
0.0,0.0,0.0,0.0
0.0,0.0,0.0,0.0
0.0,0.0,0.0,0.0
0.0,0.0,0.0,0.0
175.455,-5.859,9.898,9.0
0.0,0.0,0.0,0.0
0.0,0.0,0.0,0.0
0.0,0.0,0.0,0.0
0.0,0.0,0.0,0.0
0.0,0.0,0.0,0.0
175.201,-5.993,10.204,33.0
0.0,0.0,0.0,0.0
0.0,0.0,0.0,0.0
0.0,0.0,0.0,0.0
0.0,0.0,0.0,0.0
0.0,0.0,0.0,0.0
174.573,-6.104,10.485,43.0
0.0,0.0,0.0,0.0
0.0,0.0,0.0,0.0
0.0,0.0,0.0,0.0
0.0,0.0,0.0,0.0
0.0,0.0,0.0,0.0
174.617,-6.235,10.811,39.0
0.0,0.0,0.0,0.0
0.0,0.0,0.0,0.0
0.0,0.0,0.0,0.0
0.0,0.0,0.0,0.0
0.0,0.0,0.0,0.0
93.122,-3.389,5.937,12.0
98.29,-3.587,5.756,4.0
0.0,0.0,0.0,0.0
0.0,0.0,0.0,0.0
0.0,0.0,0.0,0.0
0.0,0.0,0.0,0.0
83.301,-3.086,5.463,6.0
175.183,-6.503,10.576,15.0
0.0,0.0,0.0,0.0
0.0,0.0,0.0,0.0
0.0,0.0,0.0,0.0
0.0,0.0,0.0,0.0
90.32,-3.401,6.092,8.0
93.959,-3.546,5.848,4.0
98.399,-3.721,5.613,1.0
0.0,0.0,0.0,0.0
0.0,0.0,0.0,0.0
0.0,0.0,0.0,0.0
83.273,-3.184,5.771,10.0
83.239,-3.188,5.335,6.0
97.781,-3.752,5.757,2.0
0.0,0.0,0.0,0.0
0.0,0.0,0.0,0.0
0.0,0.0,0.0,0.0
93.118,-3.61,6.625,14.0
90.073,-3.498,5.939,8.0
97.272,-3.782,5.907,1.0
0.0,0.0,0.0,0.0
0.0,0.0,0.0,0.0
0.0,0.0,0.0,0.0
90.481,-3.552,6.604,3.0
91.208,-3.586,6.181,3.0
92.919,-3.658,5.814,9.0
0.0,0.0,0.0,0.0
0.0,0.0,0.0,0.0
0.0,0.0,0.0,0.0
92.401,-3.67,6.916,14.0
83.276,-3.311,5.797,10.0
93.087,-3.705,5.996,5.0
0.0,0.0,0.0,0.0
0.0,0.0,0.0,0.0
0.0,0.0,0.0,0.0
92.758,-3.723,7.113,13.0
83.545,-3.356,5.97,6.0
90.256,-3.628,5.978,8.0
92.79,-3.733,5.654,7.0
0.0,0.0,0.0,0.0
0.0,0.0,0.0,0.0
83.607,-3.386,6.565,13.0
92.558,-3.751,6.784,3.0
91.275,-3.702,6.214,8.0
92.746,-3.764,5.822,5.0
98.287,-3.991,5.657,2.0
0.0,0.0,0.0,0.0
83.405,-3.406,6.701,14.0
90.381,-3.693,6.79,10.0
83.218,-3.401,5.817,8.0
93.013,-3.803,6.007,5.0
97.637,-3.995,5.797,5.0
0.0,0.0,0.0,0.0
83.329,-3.427,6.846,7.0
90.326,-3.716,6.949,8.0
83.448,-3.433,5.982,6.0
89.825,-3.697,5.962,4.0
83.229,-3.426,5.091,3.0
0.0,0.0,0.0,0.0
84.212,-3.484,7.071,4.0
92.837,-3.841,7.309,4.0
96.459,-3.991,7.089,5.0
91.335,-3.779,6.226,7.0
0.0,0.0,0.0,0.0
98.07,-4.059,5.662,1.0
84.258,-3.503,7.226,5.0
83.584,-3.475,6.729,13.0
90.519,-3.763,6.813,5.0
83.159,-3.456,5.816,8.0
90.434,-3.759,5.852,5.0
83.224,-3.458,4.951,2.0
56.795,-2.371,4.971,4.0
83.289,-3.476,6.853,12.0
90.46,-3.775,6.969,8.0
83.401,-3.478,5.98,7.0
89.917,-3.749,5.978,3.0
83.255,-3.471,5.1,3.0
82.868,-3.471,7.401,9.0
92.359,-3.866,7.763,14.0
83.698,-3.502,6.595,4.0
92.81,-3.88,6.818,2.0
91.268,-3.815,6.226,6.0
92.573,-3.868,5.831,1.0
82.834,-3.476,7.543,7.0
84.345,-3.537,7.237,6.0
83.645,-3.505,6.738,12.0
96.304,-4.034,7.242,3.0
83.219,-3.483,5.822,7.0
90.567,-3.788,5.862,4.0
55.016,-2.312,5.105,2.0
56.858,-2.387,4.977,5.0
83.292,-3.493,6.853,12.0
90.366,-3.787,6.952,10.0
83.419,-3.493,5.981,7.0
89.938,-3.763,5.978,4.0
54.992,-2.311,5.199,15.0
56.82,-2.385,5.072,3.0
92.368,-3.874,7.76,17.0
97.969,-4.105,7.706,5.0
92.726,-3.88,6.807,3.0
91.298,-3.817,6.224,7.0
57.328,-2.408,5.519,2.0
90.894,-3.812,8.27,7.0
84.292,-3.532,7.224,5.0
83.682,-3.501,6.723,12.0
96.303,-4.024,7.232,2.0
83.225,-3.474,5.813,7.0
57.301,-2.403,5.613,11.0
55.01,-2.303,5.098,4.0
56.824,-2.376,4.966,5.0
83.26,-3.476,6.83,13.0
90.401,-3.77,6.939,9.0
83.434,-3.474,5.966,5.0
57.307,-2.397,5.71,2.0
54.967,-2.295,5.185,20.0
56.776,-2.367,5.055,4.0
92.231,-3.839,7.717,9.0
83.673,-3.478,6.561,4.0
96.426,-4.001,7.053,5.0
56.601,-2.359,5.733,7.0
57.638,-2.398,5.533,8.0
54.824,-2.277,4.973,3.0
84.268,-3.493,7.189,8.0
92.82,-3.841,7.43,15.0
90.407,-3.735,6.76,5.0
62.226,-2.582,6.405,2.0
63.682,-2.637,6.217,11.0
54.994,-2.273,5.077,9.0
56.807,-2.343,4.939,4.0
83.336,-3.431,6.805,8.0
90.381,-3.714,6.903,9.0
40.483,-1.671,4.232,8.0
57.237,-2.357,5.68,2.0
57.817,-2.376,5.43,9.0
56.818,-2.33,5.029,5.0
84.162,-3.444,7.004,5.0
92.914,-3.795,7.242,9.0
40.42,-1.658,4.29,57.0
56.7,-2.32,5.716,11.0
57.459,-2.346,5.486,14.0
54.804,-2.232,4.937,1.0
84.251,-3.424,7.143,5.0
83.399,-3.382,6.629,18.0
40.397,-1.645,4.35,71.0
0.0,0.0,0.0,0.0
63.403,-2.569,6.152,17.0
54.951,-2.221,5.034,14.0
82.908,-3.343,7.155,10.0
91.36,-3.675,7.401,5.0
40.504,-1.636,4.424,64.0
53.276,-2.146,5.534,15.0
55.323,-2.223,5.453,2.0
57.738,-2.314,5.377,8.0
56.786,-2.27,4.987,4.0
84.183,-3.355,6.947,8.0
40.498,-1.621,4.485,53.0
40.463,-1.615,4.265,19.0
52.75,-2.099,5.278,4.0
57.337,-2.275,5.426,14.0
90.907,-3.598,8.119,12.0
82.874,-3.271,6.961,6.0
40.412,-1.601,4.535,47.0
40.388,-1.596,4.316,62.0
53.313,-2.1,5.412,9.0
55.229,-2.169,5.307,16.0
54.936,-2.151,4.985,14.0
63.501,-2.479,5.425,3.0
40.326,-1.58,4.585,62.0
40.45,-1.58,4.382,55.0
52.819,-2.056,5.439,21.0
55.185,-2.142,5.381,6.0
54.938,-2.126,5.064,3.0
56.85,-2.192,4.938,7.0
40.535,-1.569,4.667,32.0
40.501,-1.563,4.445,49.0
40.484,-1.557,4.226,22.0
40.482,-1.551,4.005,3.0
57.22,-2.186,5.355,5.0
40.823,-1.554,3.602,9.0
40.28,-1.54,4.693,56.0
40.474,-1.541,4.498,47.0
40.338,-1.531,4.267,66.0
40.447,-1.529,4.057,43.0
63.446,-2.39,6.025,11.0
40.798,-1.531,3.656,32.0
40.537,-1.528,4.779,57.0
40.45,-1.519,4.551,50.0
40.436,-1.512,4.332,47.0
40.347,-1.503,4.102,54.0
63.073,-2.341,6.074,4.0
40.787,-1.508,3.709,11.0
40.319,-1.496,4.808,67.0
40.36,-1.492,4.595,56.0
40.466,-1.49,4.389,26.0
40.197,-1.474,4.14,63.0
53.203,-1.944,5.193,26.0
57.189,-2.081,5.276,8.0
40.413,-1.475,4.873,50.0
40.287,-1.465,4.639,46.0
43.127,-1.561,4.734,4.0
40.171,-1.448,4.189,47.0
52.661,-1.89,5.208,8.0
0.0,0.0,0.0,0.0
40.375,-1.449,4.92,54.0
40.315,-1.44,4.694,57.0
40.387,-1.436,4.484,66.0
40.259,-1.425,4.249,38.0
40.618,-1.432,4.068,24.0
53.379,-1.873,5.058,20.0
40.322,-1.42,4.964,61.0
40.504,-1.42,4.766,57.0
40.459,-1.412,4.542,49.0
40.515,-1.407,4.325,54.0
40.2,-1.39,4.074,56.0
52.882,-1.82,5.075,15.0
40.403,-1.395,5.023,42.0
40.513,-1.392,4.816,58.0
40.32,-1.379,4.574,53.0
40.244,-1.369,4.344,47.0
40.042,-1.356,4.106,59.0
40.989,-1.381,3.981,11.0
43.214,-1.461,5.423,6.0
40.563,-1.364,4.869,40.0
40.512,-1.356,4.643,47.0
40.063,-1.334,4.37,57.0
39.933,-1.323,4.14,58.0
40.476,-1.334,3.977,38.0
40.748,-1.347,5.16,42.0
40.512,-1.332,4.909,55.0
40.172,-1.314,4.649,50.0
39.966,-1.3,4.404,51.0
39.91,-1.292,4.181,58.0
40.485,-1.304,4.022,40.0
41.436,-1.338,5.293,32.0
40.454,-1.299,4.946,56.0
40.175,-1.283,4.693,54.0
39.824,-1.264,4.431,50.0
39.846,-1.258,4.217,60.0
0.0,0.0,0.0,0.0
42.032,-1.323,5.414,49.0
40.372,-1.264,4.979,58.0
40.181,-1.251,4.736,58.0
39.778,-1.231,4.467,54.0
39.241,-1.207,4.193,68.0
39.552,-1.21,4.011,51.0
42.014,-1.288,5.454,56.0
40.44,-1.232,5.028,55.0
40.265,-1.22,4.786,48.0
39.918,-1.202,4.522,58.0
39.516,-1.182,4.261,64.0
39.409,-1.172,4.036,50.0
41.979,-1.251,5.492,44.0
40.372,-1.196,5.059,56.0
40.249,-1.185,4.823,49.0
39.38,-1.152,4.499,71.0
39.472,-1.147,4.294,66.0
39.285,-1.134,4.06,60.0
41.956,-1.214,5.528,48.0
39.977,-1.149,5.047,59.0
40.117,-1.146,4.844,51.0
39.433,-1.119,4.541,56.0
39.59,-1.116,4.343,49.0
39.236,-1.098,4.09,62.0
42.254,-1.185,5.606,29.0
39.63,-1.104,5.039,46.0
40.286,-1.114,4.901,39.0
39.431,-1.083,4.576,57.0
39.365,-1.074,4.353,48.0
39.282,-1.064,4.129,47.0
49.061,-1.331,6.552,7.0
39.567,-1.065,5.065,55.0
40.096,-1.072,4.912,55.0
39.243,-1.041,4.587,66.0
39.309,-1.035,4.379,59.0
39.322,-1.028,4.165,53.0
42.383,-1.109,5.695,59.0
39.503,-1.026,5.09,39.0
39.838,-1.027,4.912,56.0
39.3,-1.005,4.626,53.0
39.495,-1.003,4.431,42.0
39.031,-0.983,4.165,64.0
42.035,-1.06,5.681,55.0
39.546,-0.99,5.125,36.0
39.673,-0.985,4.922,62.0
39.249,-0.967,4.649,64.0
39.359,-0.962,4.445,46.0
39.17,-0.95,4.208,49.0
42.156,-1.023,5.728,52.0
42.25,-1.017,5.506,44.0
39.532,-0.943,4.933,46.0
39.34,-0.931,4.687,58.0
39.777,-0.933,4.52,58.0
39.029,-0.908,4.22,64.0
41.955,-0.976,5.73,49.0
42.078,-0.97,5.513,52.0
39.526,-0.904,4.959,63.0
39.788,-0.902,4.767,61.0
39.329,-0.884,4.495,56.0
39.055,-0.87,4.248,52.0
41.878,-0.932,5.747,51.0
41.984,-0.926,5.527,58.0
39.457,-0.862,4.975,68.0
39.425,-0.853,4.748,65.0
39.412,-0.845,4.529,48.0
38.951,-0.827,4.261,63.0
41.931,-0.889,5.78,52.0
42.04,-0.883,5.56,60.0
39.567,-0.823,5.013,44.0
39.372,-0.812,4.765,52.0
39.285,-0.801,4.537,56.0
38.992,-0.788,4.287,60.0
41.933,-0.846,5.804,38.0
41.949,-0.837,5.572,36.0
39.48,-0.78,5.023,58.0
39.391,-0.77,4.789,54.0
39.465,-0.764,4.578,57.0
39.059,-0.748,4.315,56.0
42.206,-0.807,5.864,36.0
0.0,0.0,0.0,0.0
42.269,-0.791,5.4,4.0
39.341,-0.727,4.802,54.0
39.175,-0.717,4.564,64.0
39.293,-0.711,4.36,52.0
42.1,-0.759,5.87,61.0
50.399,-0.898,6.744,12.0
42.209,-0.744,5.412,24.0
39.384,-0.686,4.825,56.0
39.77,-0.685,4.651,50.0
39.152,-0.666,4.361,56.0
41.661,-0.706,5.826,53.0
42.696,-0.715,5.731,25.0
39.897,-0.66,5.132,22.0
39.455,-0.644,4.85,54.0
39.507,-0.638,4.636,53.0
39.346,-0.627,4.398,47.0
41.692,-0.661,5.847,56.0
39.955,-0.625,5.378,61.0
39.914,-0.617,5.149,55.0
39.476,-0.601,4.867,58.0
39.704,-0.597,4.673,66.0
39.315,-0.583,4.408,56.0
42.09,-0.621,5.917,74.0
39.92,-0.58,5.387,66.0
39.966,-0.573,5.168,72.0
40.012,-0.566,4.945,42.0
39.937,-0.557,4.712,48.0
39.742,-0.546,4.467,51.0
41.625,-0.568,5.864,62.0
39.942,-0.537,5.401,44.0
40.015,-0.53,5.185,65.0
39.936,-0.52,4.947,60.0
40.019,-0.513,4.732,58.0
39.679,-0.501,4.47,53.0
40.969,-0.513,5.781,38.0
0.0,0.0,0.0,0.0
39.941,-0.483,5.185,72.0
39.986,-0.476,4.962,44.0
40.238,-0.471,4.767,40.0
39.857,-0.459,4.498,50.0
40.25,-0.458,5.688,67.0
40.4,-0.452,5.48,68.0
39.856,-0.438,5.181,69.0
39.906,-0.43,4.959,37.0
40.457,-0.428,4.8,34.0
40.293,-0.419,4.554,48.0
40.216,-0.412,5.689,60.0
0.0,0.0,0.0,0.0
40.005,-0.394,5.206,47.0
39.716,-0.383,4.94,48.0
40.22,-0.38,4.776,24.0
40.43,-0.374,4.574,41.0
40.328,-0.367,5.71,67.0
40.091,-0.357,5.448,47.0
42.433,-0.37,5.526,3.0
39.628,-0.337,4.932,63.0
40.164,-0.335,4.773,30.0
40.512,-0.329,4.586,59.0
40.712,-0.325,5.766,59.0
41.645,-0.324,5.662,3.0
39.801,-0.302,5.185,45.0
39.547,-0.292,4.924,46.0
43.908,-0.316,5.219,4.0
40.817,-0.285,4.621,57.0
40.35,-0.275,5.716,59.0
39.496,-0.262,5.369,57.0
39.435,-0.253,5.137,61.0
39.665,-0.248,4.938,52.0
39.697,-0.241,4.717,22.0
40.295,-0.236,4.561,29.0
40.2,-0.229,5.693,60.0
39.512,-0.218,5.37,66.0
39.553,-0.21,5.151,46.0
39.639,-0.203,4.932,46.0
39.784,-0.196,4.725,37.0
40.624,-0.192,4.595,35.0
40.022,-0.182,5.664,57.0
39.549,-0.172,5.372,62.0
39.414,-0.164,5.129,63.0
39.634,-0.157,4.928,59.0
39.742,-0.15,4.716,24.0
46.898,-0.169,5.299,5.0
39.925,-0.136,5.646,51.0
39.491,-0.127,5.358,67.0
39.606,-0.12,5.148,54.0
39.618,-0.112,4.92,70.0
39.827,-0.105,4.719,46.0
40.272,-0.099,4.544,34.0
40.035,-0.09,5.654,50.0
39.614,-0.082,5.368,61.0
39.679,-0.074,5.15,60.0
39.637,-0.067,4.914,58.0
39.987,-0.06,4.73,48.0
40.281,-0.054,4.536,42.0
40.174,-0.045,5.665,55.0
39.702,-0.037,5.37,58.0
39.514,-0.03,5.119,44.0
39.376,-0.023,4.872,69.0
39.902,-0.015,4.71,58.0
40.098,-0.008,4.506,57.0
40.074,0.0,5.64,65.0
39.78,0.007,5.37,49.0
39.516,0.014,5.108,58.0
39.366,0.021,4.859,61.0
39.869,0.029,4.694,34.0
40.294,0.036,4.515,38.0
43.567,0.049,6.117,2.0
39.887,0.052,5.371,38.0
39.712,0.059,5.12,43.0
39.612,0.065,4.877,36.0
39.761,0.072,4.668,39.0
40.221,0.081,4.493,39.0
39.947,0.09,5.595,62.0
39.808,0.096,5.346,59.0
39.7,0.103,5.104,51.0
43.285,0.12,5.312,18.0
39.607,0.116,4.635,53.0
40.333,0.125,4.49,43.0
39.83,0.134,5.562,48.0
0.0,0.0,0.0,0.0
39.634,0.147,5.078,50.0
0.0,0.0,0.0,0.0
43.696,0.177,5.094,22.0
40.282,0.17,4.466,51.0
40.024,0.179,5.571,51.0
39.78,0.184,5.307,54.0
39.61,0.19,5.057,47.0
43.818,0.218,5.338,8.0
42.625,0.218,4.949,6.0
40.545,0.215,4.475,44.0
39.88,0.222,5.531,50.0
39.677,0.228,5.273,40.0
39.831,0.235,5.064,43.0
40.106,0.243,4.865,21.0
40.152,0.25,4.64,44.0
40.52,0.258,4.451,51.0
39.759,0.265,5.492,57.0
39.563,0.27,5.236,65.0
39.939,0.278,5.056,46.0
40.459,0.288,4.885,42.0
40.118,0.292,4.614,40.0
40.696,0.303,4.447,31.0
39.553,0.306,5.44,52.0
39.514,0.312,5.206,52.0
39.78,0.32,5.012,52.0
0.0,0.0,0.0,0.0
40.256,0.336,4.605,58.0
44.072,0.375,4.789,19.0
39.47,0.346,5.404,50.0
39.322,0.352,5.156,58.0
39.758,0.362,4.983,66.0
40.133,0.371,4.795,26.0
40.215,0.378,4.574,59.0
44.042,0.42,4.756,4.0
38.799,0.381,5.285,60.0
39.296,0.392,5.125,59.0
40.041,0.405,4.991,51.0
39.898,0.409,4.739,64.0
40.836,0.425,4.616,33.0
41.053,0.433,4.405,27.0
38.599,0.419,5.23,64.0
39.31,0.433,5.099,64.0
40.368,0.45,5.002,24.0
40.547,0.457,4.786,16.0
40.806,0.466,4.582,52.0
61.097,0.707,6.51,10.0
38.75,0.46,5.221,60.0
39.022,0.468,5.031,56.0
40.341,0.49,4.968,21.0
41.205,0.507,4.832,30.0
41.223,0.513,4.596,42.0
47.606,0.598,5.034,25.0
38.959,0.502,5.217,56.0
38.99,0.508,4.995,58.0
40.308,0.53,4.93,15.0
41.056,0.546,4.78,49.0
41.591,0.558,4.602,24.0
47.617,0.646,4.995,23.0
38.906,0.539,5.177,65.0
39.041,0.546,4.968,55.0
39.675,0.561,4.819,15.0
41.265,0.588,4.769,38.0
47.591,0.684,5.225,7.0
41.207,0.598,4.287,17.0
38.924,0.577,5.144,63.0
39.286,0.587,4.964,28.0
41.42,0.624,4.993,33.0
40.871,0.621,4.686,49.0
41.58,0.637,4.527,36.0
40.502,0.626,4.176,16.0
38.763,0.612,5.087,48.0
39.272,0.624,4.925,38.0
41.359,0.662,4.947,45.0
41.068,0.663,4.67,43.0
41.626,0.676,4.492,17.0
40.166,0.658,4.103,32.0
38.354,0.641,4.995,63.0
39.016,0.656,4.855,59.0
41.402,0.701,4.911,52.0
41.105,0.701,4.633,36.0
41.489,0.712,4.436,25.0
48.386,0.836,4.894,3.0
38.463,0.677,4.97,49.0
39.283,0.696,4.848,60.0
41.628,0.742,4.895,45.0
41.253,0.74,4.607,57.0
41.229,0.744,4.366,14.0
40.164,0.729,4.021,44.0
38.855,0.718,4.98,47.0
39.485,0.734,4.83,51.0
41.076,0.768,4.786,39.0
41.357,0.777,4.575,40.0
41.231,0.779,4.322,38.0
40.449,0.769,4.006,41.0
38.824,0.751,4.933,54.0
39.549,0.769,4.795,64.0
40.847,0.798,4.714,67.0
41.779,0.82,4.575,49.0
48.474,0.957,5.027,12.0
40.346,0.8,3.951,54.0
38.826,0.783,4.889,63.0
39.953,0.809,4.799,34.0
41.138,0.838,4.701,50.0
48.533,0.992,5.26,25.0
48.481,0.996,4.973,22.0
49.037,1.012,4.746,13.0
38.154,0.8,4.76,68.0
41.503,0.874,4.936,54.0
48.55,1.027,5.491,4.0
48.481,1.029,5.197,26.0
49.041,1.046,4.972,5.0
40.0,0.857,3.824,33.0
43.243,0.94,5.343,11.0
41.879,0.914,4.93,41.0
48.545,1.064,5.432,9.0
48.464,1.066,5.136,16.0
49.102,1.084,4.919,5.0
40.094,0.889,3.784,31.0
37.982,0.855,4.646,30.0
41.519,0.938,4.836,43.0
66.505,1.507,7.359,9.0
41.466,0.943,4.342,40.0
49.135,1.121,4.86,4.0
40.259,0.922,3.749,18.0
38.037,0.883,4.604,64.0
41.463,0.966,4.776,52.0
49.42,1.155,5.405,6.0
40.906,0.959,4.231,42.0
40.208,0.946,3.926,56.0
66.754,1.575,6.131,10.0
38.614,0.924,4.623,58.0
41.755,1.002,4.755,27.0
41.221,0.992,4.454,41.0
40.667,0.982,4.152,38.0
42.876,1.038,4.129,3.0
40.397,0.981,3.656,31.0
42.16,1.037,4.99,44.0
42.244,1.042,4.753,18.0
41.535,1.027,4.431,49.0
40.574,1.006,4.088,41.0
43.054,1.07,4.087,8.0
40.246,1.003,3.587,66.0
42.169,1.065,4.933,48.0
41.957,1.062,4.662,25.0
41.338,1.048,4.352,16.0
40.35,1.026,4.009,43.0
40.213,1.025,3.761,20.0
64.041,1.636,5.619,17.0
42.409,1.096,4.9,26.0
49.691,1.287,5.451,4.0
49.245,1.279,5.115,6.0
40.217,1.046,3.938,50.0
56.782,1.48,5.23,24.0
56.717,1.482,4.895,63.0
42.645,1.127,4.866,6.0
53.936,1.428,5.839,6.0
49.285,1.308,5.047,4.0
42.76,1.136,4.126,26.0
56.73,1.511,5.143,13.0
56.716,1.513,4.813,22.0
49.84,1.345,5.613,5.0
0.0,0.0,0.0,0.0
40.638,1.1,4.101,28.0
42.838,1.161,4.07,49.0
40.427,1.097,3.605,47.0
56.659,1.541,4.724,11.0
41.911,1.152,4.657,47.0
41.38,1.139,4.356,23.0
40.513,1.117,4.028,60.0
42.955,1.186,4.015,53.0
40.235,1.113,3.527,69.0
56.614,1.568,4.634,58.0
41.515,1.161,4.549,16.0
40.972,1.148,4.25,50.0
42.867,1.202,4.196,20.0
42.964,1.206,3.951,5.0
40.252,1.131,3.467,43.0
62.825,1.768,5.046,22.0
41.239,1.172,4.455,32.0
56.778,1.616,5.801,10.0
42.804,1.219,4.123,54.0
40.353,1.15,3.647,35.0
62.9,1.795,5.319,15.0
62.114,1.774,4.892,40.0
41.442,1.195,4.411,33.0
62.769,1.812,6.313,17.0
42.86,1.238,4.06,51.0
40.271,1.164,3.576,45.0
62.879,1.819,5.217,93.0
61.404,1.778,4.738,20.0
40.959,1.196,4.293,66.0
40.746,1.191,4.032,34.0
62.828,1.838,5.851,11.0
40.259,1.178,3.51,37.0
0.0,0.0,0.0,0.0
55.822,1.636,4.217,77.0
40.874,1.208,4.217,52.0
42.794,1.266,4.164,35.0
62.861,1.86,5.75,32.0
62.892,1.862,5.379,26.0
61.34,1.816,4.889,73.0
55.828,1.654,4.125,96.0
40.903,1.222,4.152,32.0
42.73,1.277,4.087,56.0
40.319,1.205,3.62,43.0
62.888,1.88,5.273,15.0
55.816,1.669,4.355,43.0
73.813,2.208,5.33,32.0
40.872,1.232,4.079,27.0
42.931,1.294,4.033,9.0
40.43,1.219,3.562,53.0
61.273,1.848,5.034,47.0
55.813,1.683,4.26,105.0
73.84,2.227,5.206,45.0
42.942,1.305,4.211,27.0
40.325,1.225,3.719,27.0
40.276,1.224,3.478,70.0
61.3,1.862,4.93,19.0
55.834,1.696,4.165,72.0
73.785,2.241,5.076,31.0
42.728,1.307,4.116,48.0
40.295,1.232,3.646,39.0
55.832,1.707,4.725,14.0
55.802,1.705,4.392,87.0
73.797,2.254,5.378,30.0
54.853,1.675,3.678,46.0
42.587,1.31,4.028,23.0
67.687,2.081,6.006,18.0
55.838,1.716,4.628,66.0
55.797,1.713,4.294,107.0
73.823,2.265,5.251,31.0
54.295,1.666,3.546,90.0
63.682,1.967,5.911,8.0
40.433,1.247,3.516,15.0
55.813,1.721,4.527,76.0
62.075,1.913,4.667,14.0
55.191,1.699,3.828,23.0
54.267,1.67,3.447,21.0
40.31,1.248,3.669,57.0
61.164,1.892,5.209,9.0
55.8,1.725,4.426,97.0
73.827,2.28,5.418,25.0
55.107,1.701,3.723,73.0
124.314,3.834,7.675,14.0
67.713,2.1,6.041,18.0
55.832,1.73,4.654,81.0
55.799,1.727,4.325,103.0
73.799,2.282,5.282,26.0
54.359,1.679,3.574,89.0
74.024,2.284,4.435,12.0
40.506,1.257,3.539,4.0
55.82,1.73,4.551,85.0
62.081,1.921,4.698,17.0
55.161,1.705,3.846,29.0
54.255,1.675,3.468,43.0
73.911,2.279,4.294,37.0
61.173,1.896,5.232,13.0
55.796,1.727,4.446,100.0
73.791,2.281,5.449,18.0
55.197,1.703,3.748,74.0
124.432,3.836,7.727,14.0
73.93,2.276,4.16,12.0
55.843,1.727,4.673,74.0
55.802,1.723,4.344,105.0
73.799,2.275,5.314,31.0
54.412,1.675,3.595,89.0
74.008,2.275,4.459,7.0
125.489,3.852,6.83,10.0
55.828,1.721,4.568,74.0
55.819,1.718,4.241,71.0
73.835,2.268,5.18,23.0
54.247,1.663,3.483,61.0
73.927,2.263,4.317,27.0
123.081,3.761,6.472,44.0
55.817,1.712,4.463,83.0
73.829,2.261,5.473,12.0
73.772,2.254,5.038,13.0
124.26,3.79,7.748,11.0
73.915,2.25,4.178,14.0
123.12,3.742,6.243,21.0
55.818,1.702,4.358,104.0
73.8,2.245,5.332,48.0
54.452,1.653,3.616,76.0
73.827,2.237,4.465,12.0
122.967,3.718,6.72,22.0
123.136,3.716,6.014,24.0
55.826,1.69,4.254,111.0
73.838,2.23,5.196,44.0
54.267,1.635,3.501,79.0
73.95,2.223,4.333,10.0
123.009,3.689,6.49,41.0
123.192,3.687,5.784,19.0
55.84,1.676,4.149,77.0
73.754,2.207,5.05,43.0
124.43,3.716,7.793,19.0
0.0,0.0,0.0,0.0
123.052,3.655,6.26,21.0
152.024,4.506,6.85,27.0
73.805,2.193,5.344,31.0
54.29,1.608,3.614,63.0
124.104,3.666,7.535,32.0
122.881,3.621,6.733,16.0
122.973,3.613,6.021,43.0
151.851,4.45,6.553,39.0
73.862,2.169,5.207,43.0
54.277,1.589,3.508,83.0
124.151,3.625,7.303,36.0
122.835,3.576,6.498,31.0
123.166,3.574,5.797,19.0
152.032,4.399,6.273,31.0
73.839,2.14,5.063,36.0
124.403,3.594,7.804,28.0
124.18,3.576,7.065,26.0
122.673,3.522,6.253,43.0
152.008,4.35,6.864,25.0
151.947,4.334,5.979,36.0
54.264,1.549,3.616,33.0
124.093,3.533,7.546,33.0
133.37,3.783,7.333,9.0
122.738,3.47,6.023,31.0
151.835,4.278,6.566,39.0
152.016,4.269,5.691,39.0
54.276,1.525,3.513,71.0
122.323,3.425,7.205,15.0
122.801,3.426,6.516,25.0
122.816,3.413,5.789,13.0
152.014,4.21,6.282,29.0
152.123,4.198,5.403,40.0
54.44,1.502,3.419,52.0
126.018,3.464,7.178,17.0
122.716,3.361,6.276,37.0
151.668,4.137,6.859,23.0
152.016,4.131,5.991,47.0
152.667,4.132,5.13,35.0
54.487,1.474,3.317,15.0
122.957,3.313,6.767,19.0
122.582,3.288,6.031,43.0
151.99,4.061,6.578,34.0
152.088,4.046,5.699,41.0
152.804,4.048,4.837,25.0
122.316,3.238,7.207,26.0
123.09,3.244,6.535,34.0
122.709,3.219,5.799,26.0
151.986,3.969,6.284,40.0
152.415,3.962,5.415,29.0
138.063,3.574,4.104,14.0
122.08,3.156,6.958,19.0
122.434,3.15,6.264,32.0
130.168,3.333,5.902,23.0
152.163,3.877,5.998,42.0
159.182,4.036,5.348,12.0
138.064,3.483,3.836,44.0
123.092,3.1,6.776,21.0
122.568,3.072,6.033,31.0
152.753,3.808,6.629,18.0
152.373,3.778,5.71,43.0
158.613,3.912,5.023,18.0
146.537,3.595,3.788,4.0
122.599,3.002,6.511,17.0
127.598,3.107,6.034,9.0
130.51,3.16,5.412,24.0
152.621,3.674,5.425,40.0
158.987,3.807,4.729,20.0
146.562,3.489,3.508,6.0
122.639,2.912,6.278,40.0
130.233,3.074,5.909,17.0
152.555,3.579,6.033,30.0
152.763,3.562,5.137,10.0
169.336,3.925,4.712,4.0
0.0,0.0,0.0,0.0
122.746,2.819,6.047,19.0
130.427,2.976,5.665,19.0
152.568,3.458,5.739,25.0
159.007,3.582,5.043,22.0
169.778,3.8,4.4,5.0
0.0,0.0,0.0,0.0
127.324,2.821,6.031,15.0
152.801,3.362,6.349,9.0
152.747,3.337,5.458,32.0
159.322,3.456,4.751,12.0
128.148,2.762,3.079,10.0
106.196,2.272,1.934,20.0
127.698,2.719,5.805,30.0
128.046,2.707,5.077,33.0
128.054,2.687,4.334,49.0
128.056,2.667,3.577,57.0
128.095,2.65,2.837,52.0
106.172,2.179,1.735,2.0
