X,Y,Z,Reflectivity
20.106,-0.038,0.885,17.0
20.118,-0.037,0.766,24.0
20.192,-0.036,0.651,26.0
20.14,-0.035,0.531,22.0
58.495,-0.092,3.144,25.0
58.241,-0.089,2.789,255.0
20.124,-0.029,0.845,26.0
20.135,-0.028,0.726,24.0
20.176,-0.027,0.609,21.0
20.129,-0.026,0.49,25.0
59.304,-0.069,3.067,58.0
58.25,-0.065,2.671,205.0
20.121,-0.021,0.804,27.0
20.172,-0.02,0.686,28.0
20.157,-0.019,0.567,23.0
20.132,-0.018,0.449,29.0
58.83,-0.046,2.921,34.0
20.118,-0.015,0.88,24.0
20.124,-0.014,0.762,27.0
20.182,-0.013,0.645,38.0
20.154,-0.012,0.526,21.0
20.13,-0.011,0.407,26.0
58.284,-0.026,2.773,197.0
20.115,-0.008,0.839,28.0
20.133,-0.007,0.721,27.0
20.168,-0.006,0.602,27.0
20.134,-0.006,0.484,27.0
20.121,-0.005,0.366,25.0
58.274,-0.008,2.651,44.0
20.101,-0.002,0.796,28.0
20.168,-0.001,0.681,37.0
20.158,-0.001,0.56,25.0
20.129,0.0,0.442,27.0
20.123,0.0,0.324,25.0
20.125,0.002,0.873,29.0
20.11,0.002,0.755,30.0
20.181,0.003,0.639,38.0
20.114,0.004,0.517,19.0
20.13,0.004,0.4,26.0
20.131,0.005,0.282,27.0
20.104,0.007,0.83,27.0
20.127,0.007,0.713,29.0
20.175,0.007,0.597,28.0
20.137,0.008,0.476,27.0
20.119,0.008,0.357,26.0
20.137,0.009,0.24,27.0
20.109,0.01,0.788,28.0
20.187,0.011,0.673,47.0
20.147,0.011,0.553,24.0
20.126,0.012,0.433,27.0
20.124,0.012,0.315,26.0
20.126,0.012,0.197,27.0
20.126,0.014,0.746,33.0
20.193,0.014,0.63,36.0
20.148,0.014,0.511,22.0
20.133,0.014,0.39,25.0
20.134,0.015,0.273,27.0
20.135,0.015,0.154,25.0
20.146,0.016,0.704,31.0
20.178,0.016,0.587,27.0
20.139,0.016,0.468,27.0
20.131,0.016,0.348,25.0
20.126,0.017,0.23,26.0
20.137,0.017,0.112,30.0
20.191,0.018,0.663,48.0
20.164,0.018,0.544,24.0
20.134,0.018,0.425,28.0
20.134,0.018,0.305,26.0
20.13,0.018,0.187,27.0
20.172,0.018,0.07,27.0
20.19,0.019,0.62,35.0
20.143,0.019,0.5,24.0
20.138,0.018,0.382,24.0
20.122,0.018,0.262,27.0
20.134,0.018,0.144,27.0
20.265,0.018,0.027,150.0
20.178,0.019,0.576,27.0
20.146,0.019,0.457,28.0
20.135,0.018,0.339,26.0
20.128,0.018,0.219,26.0
20.133,0.018,0.101,30.0
20.234,0.018,-0.015,151.0
20.162,0.018,0.533,25.0
20.149,0.018,0.415,27.0
20.136,0.018,0.296,26.0
20.137,0.017,0.176,26.0
20.214,0.017,0.059,46.0
20.257,0.017,-0.059,151.0
20.145,0.017,0.489,27.0
20.138,0.017,0.371,25.0
20.127,0.016,0.253,27.0
20.13,0.016,0.133,26.0
20.253,0.015,0.015,151.0
20.261,0.015,-0.102,151.0
20.14,0.015,0.446,29.0
20.125,0.014,0.328,26.0
20.125,0.014,0.21,27.0
20.136,0.013,0.09,27.0
20.236,0.013,-0.027,152.0
20.256,0.012,-0.145,151.0
20.144,0.012,0.404,27.0
20.146,0.011,0.286,28.0
20.126,0.011,0.167,25.0
20.245,0.01,0.047,150.0
20.262,0.01,-0.07,151.0
20.259,0.009,-0.189,150.0
20.133,0.008,0.36,27.0
20.135,0.008,0.242,27.0
20.136,0.007,0.124,29.0
20.242,0.006,0.004,151.0
20.259,0.005,-0.114,151.0
20.265,0.005,-0.232,150.0
20.126,0.004,0.316,27.0
20.122,0.003,0.198,28.0
20.153,0.002,0.081,40.0
20.261,0.001,-0.039,150.0
20.268,0.001,-0.157,150.0
20.258,0.0,-0.276,38.0
20.126,0.0,0.273,27.0
20.128,-0.001,0.155,27.0
20.274,-0.002,0.038,64.0
20.254,-0.003,-0.082,29.0
20.23,-0.004,-0.2,10.0
20.236,-0.005,-0.319,5.0
20.128,-0.006,0.231,27.0
20.127,-0.007,0.113,31.0
20.216,-0.008,-0.004,17.0
20.195,-0.009,-0.125,18.0
20.211,-0.01,-0.243,6.0
20.229,-0.011,-0.362,0.0
20.122,-0.013,0.187,29.0
20.142,-0.014,0.069,28.0
20.179,-0.015,-0.048,17.0
20.162,-0.016,-0.168,11.0
20.182,-0.017,-0.286,2.0
41.556,-0.039,-0.833,0.0
20.126,-0.02,0.145,32.0
20.127,-0.021,0.027,19.0
20.17,-0.023,-0.091,26.0
20.163,-0.024,-0.211,3.0
20.183,-0.025,-0.329,1.0
37.36,-0.05,-0.828,1.0
20.127,-0.028,0.102,42.0
20.136,-0.03,-0.014,30.0
20.166,-0.031,-0.132,26.0
20.165,-0.032,-0.252,21.0
20.214,-0.034,-0.371,0.0
34.629,-0.061,-0.839,2.0
20.134,-0.037,0.06,43.0
20.151,-0.038,-0.056,29.0
20.167,-0.04,-0.175,25.0
20.169,-0.041,-0.295,24.0
20.203,-0.043,-0.414,0.0
32.289,-0.072,-0.851,5.0
20.13,-0.047,0.018,37.0
20.144,-0.048,-0.099,32.0
20.12,-0.05,-0.216,13.0
20.148,-0.051,-0.336,18.0
20.184,-0.053,-0.455,0.0
30.283,-0.082,-0.86,3.0
20.136,-0.057,-0.022,34.0
20.147,-0.058,-0.14,33.0
20.148,-0.06,-0.258,27.0
20.154,-0.062,-0.378,19.0
33.141,-0.105,-0.815,0.0
28.063,-0.091,-0.855,0.0
20.137,-0.068,-0.064,37.0
20.158,-0.069,-0.181,27.0
20.147,-0.071,-0.299,27.0
20.177,-0.073,-0.42,26.0
33.141,-0.123,-0.884,3.0
28.007,-0.107,-0.911,2.0
20.151,-0.079,-0.105,35.0
20.151,-0.081,-0.223,27.0
20.167,-0.083,-0.341,23.0
20.187,-0.085,-0.462,21.0
58.467,-0.253,-1.68,5.0
25.776,-0.114,-0.891,0.0
20.147,-0.092,-0.146,40.0
20.136,-0.094,-0.264,36.0
20.149,-0.096,-0.382,31.0
20.169,-0.098,-0.502,19.0
28.083,-0.139,-0.864,12.0
24.435,-0.124,-0.894,0.0
20.166,-0.105,-0.187,24.0
20.145,-0.107,-0.305,38.0
20.161,-0.109,-0.423,34.0
20.178,-0.111,-0.543,17.0
28.028,-0.158,-0.919,2.0
22.76,-0.131,-0.879,1.0
20.144,-0.119,-0.228,33.0
20.151,-0.121,-0.345,37.0
20.172,-0.123,-0.464,29.0
20.18,-0.126,-0.584,14.0
22.586,-0.146,-0.918,22.0
20.148,-0.133,-0.267,34.0
20.156,-0.136,-0.385,36.0
20.172,-0.138,-0.504,34.0
20.19,-0.14,-0.624,15.0
20.262,-0.146,-0.864,1.0
20.156,-0.149,-0.308,29.0
20.164,-0.151,-0.425,32.0
20.176,-0.154,-0.544,37.0
20.199,-0.156,-0.664,18.0
22.598,-0.177,-0.875,12.0
20.282,-0.162,-0.904,64.0
20.168,-0.165,-0.347,28.0
20.172,-0.167,-0.465,27.0
20.188,-0.17,-0.583,36.0
20.199,-0.172,-0.703,10.0
22.654,-0.196,-0.921,4.0
20.226,-0.178,-0.941,7.0
20.184,-0.181,-0.386,29.0
20.167,-0.183,-0.503,33.0
20.201,-0.186,-0.622,35.0
24.565,-0.23,-0.903,7.0
20.253,-0.192,-0.862,1.0
19.022,-0.183,-0.921,0.0
20.2,-0.198,-0.425,27.0
20.196,-0.201,-0.542,37.0
20.21,-0.204,-0.661,35.0
22.714,-0.232,-0.878,10.0
20.293,-0.21,-0.903,68.0
18.434,-0.193,-0.928,0.0
20.195,-0.216,-0.463,15.0
20.199,-0.219,-0.581,30.0
20.221,-0.222,-0.699,34.0
22.729,-0.253,-0.921,1.0
20.267,-0.228,-0.939,25.0
17.946,-0.204,-0.937,0.0
20.207,-0.234,-0.5,6.0
20.202,-0.237,-0.618,29.0
20.219,-0.24,-0.737,32.0
20.183,-0.243,-0.855,8.0
19.761,-0.241,-0.952,1.0
17.323,-0.213,-0.936,0.0
29.047,-0.364,-0.773,3.0
20.232,-0.257,-0.656,26.0
20.224,-0.26,-0.774,32.0
20.242,-0.263,-0.895,27.0
18.649,-0.245,-0.933,0.0
16.853,-0.224,-0.942,0.0
27.988,-0.378,-0.796,2.0
20.216,-0.276,-0.692,16.0
20.223,-0.279,-0.81,25.0
20.197,-0.282,-0.929,16.0
18.079,-0.256,-0.937,0.0
16.309,-0.233,-0.941,0.0
27.012,-0.392,-0.816,1.0
20.249,-0.297,-0.73,3.0
20.151,-0.299,-0.843,10.0
19.642,-0.294,-0.938,2.0
17.383,-0.263,-0.932,0.0
15.887,-0.243,-0.945,0.0
26.122,-0.406,-0.835,2.0
26.047,-0.409,-0.984,0.0
20.276,-0.321,-0.884,2.0
19.04,-0.305,-0.943,0.0
16.932,-0.274,-0.937,0.0
15.469,-0.253,-0.947,0.0
25.316,-0.42,-0.853,2.0
0.0,0.0,0.0,0.0
19.831,-0.336,-0.899,0.0
18.271,-0.312,-0.937,0.0
16.552,-0.286,-0.945,0.0
14.992,-0.261,-0.943,0.0
24.285,-0.429,-0.86,1.0
21.492,-0.384,-0.886,0.0
19.624,-0.354,-0.923,2.0
17.705,-0.322,-0.938,0.0
16.082,-0.295,-0.945,0.0
14.661,-0.272,-0.947,0.0
23.661,-0.445,-0.878,0.0
21.527,-0.408,-0.923,0.0
19.55,-0.374,-0.952,0.0
17.128,-0.331,-0.936,0.0
15.687,-0.306,-0.948,0.0
14.341,-0.282,-0.95,0.0
22.723,-0.452,-0.88,1.0
22.683,-0.456,-1.01,0.0
0.0,0.0,0.0,0.0
16.849,-0.345,-0.948,0.0
15.272,-0.315,-0.948,0.0
14.021,-0.292,-0.952,0.0
21.872,-0.461,-0.882,1.0
21.739,-0.462,-1.003,0.0
38.433,-0.824,-1.996,0.0
16.406,-0.355,-0.949,0.0
14.807,-0.323,-0.943,0.0
13.682,-0.301,-0.951,0.0
21.293,-0.473,-0.892,0.0
21.22,-0.476,-1.012,0.0
17.254,-0.39,-0.923,0.0
15.917,-0.363,-0.946,0.0
14.435,-0.332,-0.942,0.0
13.378,-0.31,-0.951,0.0
20.747,-0.486,-0.901,1.0
20.58,-0.486,-1.013,0.0
17.125,-0.408,-0.943,2.0
15.541,-0.373,-0.947,0.0
14.215,-0.344,-0.949,0.0
13.136,-0.321,-0.954,0.0
20.166,-0.497,-0.906,0.0
20.042,-0.498,-1.017,0.0
16.881,-0.423,-0.955,2.0
15.149,-0.383,-0.946,0.0
13.878,-0.354,-0.948,0.0
12.867,-0.33,-0.954,0.0
19.596,-0.508,-0.91,0.0
19.491,-0.509,-1.018,0.0
14.794,-0.393,-0.946,0.0
13.569,-0.363,-0.947,0.0
12.609,-0.34,-0.953,0.0
19.058,-0.518,-0.913,0.0
19.038,-0.522,-1.022,0.0
15.892,-0.439,-0.945,0.0
14.426,-0.401,-0.943,0.0
13.357,-0.374,-0.951,0.0
12.391,-0.35,-0.954,0.0
18.556,-0.528,-0.915,0.0
18.55,-0.532,-1.022,0.0
15.508,-0.448,-0.944,0.0
14.192,-0.413,-0.948,0.0
13.205,-0.387,-0.959,0.0
12.221,-0.361,-0.958,0.0
18.017,-0.536,-0.913,0.0
18.002,-0.54,-1.016,0.0
15.204,-0.459,-0.946,0.0
13.959,-0.425,-0.951,0.0
12.911,-0.396,-0.955,0.0
12.006,-0.371,-0.957,0.0
17.584,-0.547,-0.915,0.0
17.413,-0.545,-1.006,0.0
14.832,-0.468,-0.943,0.0
13.683,-0.434,-0.95,0.0
12.704,-0.406,-0.956,0.0
11.711,-0.377,-0.949,0.0
17.188,-0.557,-0.916,0.0
16.698,-0.545,-0.987,0.0
14.498,-0.477,-0.94,0.0
13.384,-0.443,-0.947,0.0
12.479,-0.416,-0.955,0.0
11.569,-0.388,-0.953,0.0
16.733,-0.565,-0.913,0.0
16.308,-0.555,-0.984,0.0
14.362,-0.492,-0.95,0.0
13.28,-0.458,-0.956,0.0
12.33,-0.428,-0.959,0.0
11.359,-0.397,-0.949,0.0
16.28,-0.572,-0.908,1.0
16.131,-0.571,-0.993,0.0
14.086,-0.501,-0.948,0.0
13.072,-0.468,-0.957,0.0
12.127,-0.437,-0.958,0.0
11.24,-0.408,-0.953,0.0
16.116,-0.589,-0.918,0.0
15.784,-0.58,-0.99,0.0
13.867,-0.513,-0.95,0.0
12.875,-0.479,-0.958,0.0
11.923,-0.447,-0.956,0.0
11.128,-0.42,-0.956,0.0
15.984,-0.606,-0.929,0.0
14.746,-0.563,-0.942,0.0
13.591,-0.522,-0.946,0.0
12.646,-0.489,-0.955,0.0
11.749,-0.457,-0.955,0.0
10.998,-0.43,-0.958,0.0
15.893,-0.625,-0.941,0.0
14.535,-0.575,-0.944,0.0
13.459,-0.536,-0.952,0.0
12.482,-0.5,-0.956,0.0
11.548,-0.465,-0.951,0.0
10.819,-0.439,-0.954,0.0
15.801,-0.644,-0.953,0.0
14.402,-0.59,-0.951,0.0
13.296,-0.548,-0.955,0.0
12.352,-0.512,-0.959,0.0
11.407,-0.476,-0.952,0.0
10.715,-0.45,-0.956,0.0
15.703,-0.662,-0.963,0.0
14.243,-0.604,-0.955,0.0
13.157,-0.561,-0.958,0.0
12.208,-0.524,-0.96,0.0
11.268,-0.486,-0.951,0.0
10.595,-0.46,-0.956,0.0
15.568,-0.679,-0.97,0.0
13.895,-0.609,-0.945,0.0
13.032,-0.575,-0.962,0.0
12.016,-0.533,-0.957,0.0
11.195,-0.499,-0.956,0.0
10.475,-0.47,-0.955,0.0
15.398,-0.694,-0.974,0.0
13.817,-0.626,-0.953,0.0
12.841,-0.585,-0.959,0.0
11.858,-0.543,-0.955,0.0
11.129,-0.513,-0.961,0.0
10.37,-0.48,-0.955,0.0
14.979,-0.697,-0.961,0.0
13.584,-0.635,-0.949,0.0
12.701,-0.597,-0.96,0.0
11.701,-0.553,-0.953,0.0
10.957,-0.521,-0.955,0.0
10.31,-0.493,-0.958,0.0
14.657,-0.703,-0.953,0.0
13.525,-0.652,-0.956,0.0
12.56,-0.609,-0.96,0.0
11.578,-0.564,-0.953,0.0
10.834,-0.531,-0.954,0.0
10.196,-0.503,-0.956,0.0
14.501,-0.717,-0.955,0.0
13.363,-0.664,-0.956,0.0
12.396,-0.619,-0.958,0.0
11.453,-0.575,-0.952,0.0
10.749,-0.543,-0.955,0.0
10.1,-0.513,-0.955,0.0
14.411,-0.734,-0.96,0.0
13.263,-0.679,-0.959,0.0
12.252,-0.63,-0.956,0.0
11.392,-0.589,-0.955,0.0
10.666,-0.554,-0.956,0.0
10.009,-0.523,-0.954,0.0
14.497,-0.76,-0.976,0.0
13.042,-0.687,-0.953,0.0
12.175,-0.644,-0.959,0.0
11.274,-0.6,-0.954,0.0
10.561,-0.565,-0.954,0.0
9.929,-0.534,-0.954,0.0
14.212,-0.765,-0.967,0.0
12.978,-0.702,-0.957,0.0
12.104,-0.658,-0.961,0.0
11.15,-0.609,-0.951,0.0
10.489,-0.576,-0.954,0.0
9.889,-0.546,-0.956,0.0
14.021,-0.776,-0.963,0.0
12.911,-0.718,-0.96,0.0
11.975,-0.669,-0.959,0.0
11.089,-0.622,-0.952,0.0
10.472,-0.591,-0.959,0.0
9.845,-0.558,-0.958,0.0
13.896,-0.789,-0.963,0.0
12.81,-0.731,-0.96,0.0
11.877,-0.681,-0.958,0.0
11.033,-0.636,-0.954,0.0
10.382,-0.601,-0.957,0.0
9.747,-0.567,-0.954,0.0
13.673,-0.797,-0.955,0.0
12.699,-0.744,-0.959,0.0
11.819,-0.695,-0.96,0.0
10.974,-0.649,-0.955,0.0
10.318,-0.613,-0.957,0.0
9.7,-0.579,-0.955,0.0
13.609,-0.813,-0.957,0.0
12.624,-0.758,-0.96,0.0
11.711,-0.706,-0.957,0.0
10.255,-0.624,-0.956,0.0
9.673,-0.592,-0.957,0.0
24.467,-1.499,-1.734,0.0
12.557,-0.772,-0.961,0.0
11.651,-0.72,-0.957,0.0
10.18,-0.635,-0.954,0.0
9.618,-0.602,-0.956,0.0
13.465,-0.844,-0.96,0.0
12.555,-0.791,-0.966,0.0
11.594,-0.733,-0.958,0.0
10.157,-0.648,-0.956,0.0
9.609,-0.616,-0.959,0.0
13.407,-0.86,-0.961,0.0
12.542,-0.808,-0.97,0.0
11.542,-0.747,-0.958,0.0
10.703,-0.696,-0.95,0.0
10.137,-0.662,-0.957,0.0
9.562,-0.627,-0.957,0.0
13.369,-0.877,-0.963,0.0
12.439,-0.82,-0.966,0.0
11.502,-0.761,-0.958,0.0
10.702,-0.711,-0.953,0.0
10.112,-0.675,-0.958,0.0
9.516,-0.638,-0.956,0.0
13.194,-0.885,-0.954,0.0
12.381,-0.834,-0.965,0.0
11.447,-0.774,-0.957,0.0
10.665,-0.724,-0.953,0.0
10.082,-0.687,-0.958,0.0
9.492,-0.65,-0.956,0.0
14.546,-0.996,-1.056,0.0
12.344,-0.849,-0.965,0.0
11.402,-0.787,-0.956,0.0
10.611,-0.736,-0.951,0.0
10.035,-0.699,-0.956,0.0
9.482,-0.663,-0.957,0.0
13.144,-0.919,-0.957,0.0
12.315,-0.865,-0.966,0.0
11.389,-0.803,-0.957,0.0
10.625,-0.752,-0.954,0.0
10.032,-0.713,-0.958,0.0
9.473,-0.676,-0.958,0.0
0.0,0.0,0.0,0.0
12.283,-0.88,-0.965,0.0
11.384,-0.819,-0.959,0.0
10.62,-0.767,-0.955,0.0
10.037,-0.727,-0.959,0.0
9.445,-0.687,-0.956,0.0
13.227,-0.963,-0.967,0.0
12.231,-0.893,-0.962,0.0
11.41,-0.836,-0.962,0.0
10.602,-0.78,-0.955,0.0
10.039,-0.741,-0.961,0.0
9.466,-0.702,-0.959,0.0
13.092,-0.971,-0.958,0.0
12.174,-0.906,-0.959,0.0
11.371,-0.849,-0.96,0.0
10.642,-0.798,-0.959,0.0
10.033,-0.755,-0.961,0.0
9.452,-0.714,-0.958,0.0
13.104,-0.99,-0.959,0.0
12.223,-0.927,-0.963,0.0
11.371,-0.865,-0.96,0.0
10.616,-0.811,-0.957,0.0
9.991,-0.766,-0.957,0.0
9.432,-0.726,-0.956,0.0
13.183,-1.014,-0.965,0.0
12.24,-0.944,-0.965,0.0
11.37,-0.88,-0.96,0.0
10.594,-0.823,-0.955,0.0
10.023,-0.782,-0.96,0.0
9.447,-0.739,-0.958,0.0
13.18,-1.031,-0.964,0.0
12.187,-0.957,-0.96,0.0
11.357,-0.895,-0.958,0.0
10.634,-0.841,-0.958,0.0
10.038,-0.796,-0.96,0.0
9.458,-0.753,-0.958,0.0
13.225,-1.052,-0.967,0.0
12.267,-0.979,-0.965,0.0
11.399,-0.913,-0.96,0.0
10.567,-0.849,-0.95,0.0
10.085,-0.813,-0.964,0.0
9.457,-0.765,-0.957,0.0
13.442,-1.087,-0.981,0.0
12.218,-0.991,-0.959,0.0
11.465,-0.933,-0.964,0.0
10.634,-0.869,-0.955,0.0
10.119,-0.829,-0.965,0.0
9.516,-0.782,-0.961,0.0
13.456,-1.106,-0.979,0.0
12.247,-1.01,-0.96,0.0
11.448,-0.947,-0.961,0.0
10.624,-0.882,-0.952,0.0
10.107,-0.841,-0.962,0.0
9.531,-0.796,-0.961,0.0
13.362,-1.115,-0.97,0.0
12.346,-1.034,-0.965,0.0
11.507,-0.966,-0.963,0.0
10.677,-0.899,-0.954,0.0
10.137,-0.857,-0.963,0.0
9.564,-0.811,-0.962,0.0
13.531,-1.146,-0.979,0.0
12.405,-1.054,-0.966,0.0
11.554,-0.985,-0.964,0.0
10.702,-0.915,-0.954,0.0
10.163,-0.872,-0.962,0.0
9.583,-0.824,-0.961,0.0
13.651,-1.173,-0.984,0.0
12.484,-1.076,-0.969,0.0
11.618,-1.004,-0.966,0.0
10.79,-0.936,-0.958,0.0
10.214,-0.888,-0.964,0.0
9.613,-0.839,-0.961,0.0
13.727,-1.196,-0.985,0.0
12.559,-1.098,-0.97,0.0
11.695,-1.025,-0.968,0.0
10.899,-0.958,-0.964,0.0
10.223,-0.901,-0.961,0.0
9.64,-0.852,-0.96,0.0
13.832,-1.222,-0.987,0.0
12.576,-1.114,-0.967,0.0
11.72,-1.041,-0.966,0.0
10.96,-0.976,-0.965,0.0
10.285,-0.919,-0.963,0.0
9.683,-0.868,-0.96,0.0
13.871,-1.242,-0.984,0.0
12.668,-1.137,-0.969,0.0
11.767,-1.059,-0.965,0.0
10.994,-0.992,-0.964,0.0
10.289,-0.931,-0.959,0.0
9.743,-0.884,-0.962,0.0
13.878,-1.258,-0.979,0.0
12.766,-1.16,-0.971,0.0
11.85,-1.08,-0.966,0.0
11.046,-1.009,-0.963,0.0
10.349,-0.948,-0.96,0.0
9.797,-0.9,-0.963,0.0
13.86,-1.272,-0.971,1.0
12.828,-1.18,-0.969,0.0
11.948,-1.102,-0.968,0.0
11.07,-1.024,-0.959,0.0
10.391,-0.963,-0.958,0.0
9.849,-0.916,-0.963,0.0
13.832,-1.284,-0.962,1.0
12.916,-1.202,-0.969,0.0
11.994,-1.119,-0.966,0.0
11.218,-1.049,-0.966,0.0
10.474,-0.982,-0.96,0.0
9.884,-0.929,-0.961,0.0
13.812,-1.297,-0.952,1.0
13.116,-1.235,-0.976,0.0
12.02,-1.134,-0.961,0.0
11.266,-1.066,-0.964,0.0
10.594,-1.005,-0.965,0.0
9.973,-0.948,-0.963,0.0
13.787,-1.309,-0.943,1.0
13.196,-1.255,-0.975,0.0
12.136,-1.157,-0.963,0.0
11.345,-1.084,-0.964,0.0
10.547,-1.011,-0.954,0.0
10.013,-0.962,-0.961,0.0
13.766,-1.32,-0.933,1.0
13.381,-1.286,-0.98,0.0
12.259,-1.181,-0.965,0.0
11.426,-1.103,-0.963,0.0
10.676,-1.033,-0.959,0.0
10.099,-0.98,-0.963,0.0
13.732,-1.33,-0.921,1.0
13.441,-1.305,-0.975,1.0
12.591,-1.225,-0.983,0.0
11.63,-1.134,-0.972,0.0
10.816,-1.057,-0.964,0.0
10.165,-0.996,-0.962,0.0
13.724,-1.342,-0.911,1.0
13.522,-1.325,-0.972,2.0
0.0,0.0,0.0,0.0
11.688,-1.15,-0.969,0.0
10.956,-1.081,-0.968,0.0
10.25,-1.013,-0.962,0.0
13.708,-1.353,-0.9,1.0
13.598,-1.345,-0.967,2.0
12.791,-1.268,-0.98,0.0
11.782,-1.17,-0.968,0.0
11.071,-1.102,-0.97,0.0
10.324,-1.03,-0.961,0.0
13.678,-1.362,-0.888,1.0
13.627,-1.359,-0.959,1.0
12.94,-1.293,-0.981,0.0
11.907,-1.192,-0.969,0.0
11.126,-1.116,-0.966,0.0
10.433,-1.049,-0.963,0.0
13.674,-1.373,-0.877,2.0
13.641,-1.372,-0.949,1.0
13.047,-1.315,-0.979,0.0
12.061,-1.218,-0.972,0.0
11.236,-1.136,-0.967,0.0
10.547,-1.069,-0.965,0.0
13.655,-1.382,-0.865,1.0
13.633,-1.382,-0.937,1.0
13.169,-1.337,-0.977,0.0
12.1,-1.231,-0.965,0.0
11.387,-1.16,-0.97,0.0
10.666,-1.089,-0.967,0.0
13.666,-1.393,-0.854,0.0
13.622,-1.391,-0.925,1.0
13.444,-1.375,-0.986,1.0
12.228,-1.253,-0.964,0.0
11.536,-1.184,-0.973,0.0
10.699,-1.1,-0.96,0.0
13.796,-1.416,-0.85,0.0
13.609,-1.399,-0.912,1.0
13.504,-1.391,-0.978,1.0
13.303,-1.373,-1.037,0.0
11.655,-1.204,-0.972,0.0
10.858,-1.124,-0.965,0.0
13.956,-1.442,-0.847,0.0
13.585,-1.406,-0.898,1.0
13.524,-1.402,-0.967,2.0
12.865,-1.336,-0.991,0.0
11.832,-1.231,-0.976,0.0
11.008,-1.147,-0.968,0.0
14.088,-1.465,-0.842,1.0
13.577,-1.414,-0.885,1.0
13.543,-1.413,-0.956,2.0
12.92,-1.35,-0.983,0.0
11.921,-1.247,-0.972,0.0
11.169,-1.17,-0.971,0.0
14.236,-1.489,-0.837,1.0
13.578,-1.422,-0.872,1.0
13.554,-1.422,-0.944,1.0
13.142,-1.38,-0.987,0.0
12.113,-1.274,-0.976,0.0
11.272,-1.187,-0.969,0.0
14.403,-1.515,-0.833,0.0
13.581,-1.43,-0.858,1.0
13.546,-1.428,-0.93,1.0
13.427,-1.418,-0.995,0.0
12.181,-1.288,-0.969,0.0
11.427,-1.21,-0.971,0.0
14.581,-1.541,-0.828,0.0
13.711,-1.451,-0.853,0.0
13.541,-1.435,-0.915,1.0
13.508,-1.433,-0.988,0.0
12.847,-1.365,-1.009,0.0
11.596,-1.233,-0.973,0.0
14.769,-1.568,-0.824,1.0
13.87,-1.474,-0.849,0.0
13.528,-1.44,-0.9,1.0
13.508,-1.439,-0.973,1.0
13.235,-1.412,-1.025,0.0
11.726,-1.252,-0.972,0.0
15.019,-1.602,-0.822,1.0
14.021,-1.497,-0.843,1.0
13.526,-1.445,-0.886,1.0
13.507,-1.445,-0.959,1.0
13.053,-1.398,-0.997,0.0
11.923,-1.278,-0.975,0.0
15.211,-1.628,-0.816,1.0
14.246,-1.526,-0.841,1.0
13.503,-1.448,-0.87,1.0
13.503,-1.45,-0.944,2.0
13.037,-1.401,-0.982,0.0
12.086,-1.3,-0.975,0.0
15.349,-1.649,-0.807,1.0
14.389,-1.547,-0.834,0.0
13.542,-1.457,-0.857,1.0
13.491,-1.453,-0.928,2.0
13.369,-1.441,-0.992,0.0
12.22,-1.319,-0.972,0.0
15.576,-1.678,-0.802,1.0
14.586,-1.573,-0.829,0.0
13.71,-1.479,-0.853,0.0
13.483,-1.456,-0.912,2.0
13.495,-1.459,-0.986,1.0
13.292,-1.438,-1.042,0.0
15.857,-1.713,-0.798,1.0
14.817,-1.602,-0.825,1.0
13.878,-1.501,-0.847,0.0
13.483,-1.46,-0.897,1.0
13.488,-1.461,-0.97,1.0
13.318,-1.444,-1.029,0.0
16.125,-1.746,-0.793,1.0
15.065,-1.632,-0.821,1.0
14.084,-1.527,-0.844,0.0
13.491,-1.463,-0.882,1.0
13.465,-1.461,-0.952,2.0
13.097,-1.423,-0.997,0.0
16.304,-1.768,-0.783,1.0
15.252,-1.655,-0.814,1.0
14.292,-1.552,-0.839,1.0
13.483,-1.465,-0.865,1.0
13.413,-1.458,-0.933,4.0
13.241,-1.44,-0.992,0.0
16.659,-1.809,-0.78,0.0
15.43,-1.677,-0.805,1.0
14.455,-1.571,-0.831,1.0
13.582,-1.477,-0.855,0.0
13.403,-1.459,-0.916,5.0
13.459,-1.466,-0.992,0.0
17.03,-1.852,-0.777,1.0
15.707,-1.708,-0.8,0.0
14.703,-1.6,-0.828,0.0
13.796,-1.502,-0.852,0.0
13.454,-1.465,-0.903,2.0
13.472,-1.468,-0.976,1.0
17.398,-1.893,-0.772,1.0
16.053,-1.747,-0.798,1.0
14.991,-1.632,-0.826,1.0
14.008,-1.525,-0.848,0.0
13.472,-1.467,-0.887,1.0
13.447,-1.465,-0.958,2.0
17.925,-1.95,-0.774,1.0
16.238,-1.767,-0.788,1.0
15.182,-1.652,-0.817,1.0
14.229,-1.549,-0.843,1.0
13.495,-1.47,-0.872,1.0
13.401,-1.46,-0.938,5.0
18.242,-1.984,-0.765,1.0
16.572,-1.803,-0.783,1.0
15.365,-1.672,-0.808,1.0
14.377,-1.565,-0.834,1.0
13.549,-1.475,-0.858,0.0
13.403,-1.459,-0.921,6.0
18.834,-2.048,-0.766,1.0
16.98,-1.846,-0.781,1.0
15.637,-1.7,-0.802,0.0
14.647,-1.593,-0.831,0.0
13.761,-1.496,-0.854,0.0
13.458,-1.464,-0.907,2.0
19.346,-2.101,-0.762,1.0
17.289,-1.877,-0.773,0.0
15.982,-1.735,-0.8,1.0
14.922,-1.62,-0.828,1.0
13.934,-1.513,-0.847,0.0
13.48,-1.464,-0.892,1.0
19.816,-2.149,-0.756,1.0
17.935,-1.945,-0.779,1.0
16.23,-1.759,-0.791,1.0
15.164,-1.644,-0.822,1.0
14.202,-1.539,-0.845,0.0
13.488,-1.462,-0.875,1.0
20.385,-2.207,-0.751,2.0
18.152,-1.964,-0.765,1.0
16.535,-1.789,-0.785,1.0
15.35,-1.66,-0.812,1.0
14.378,-1.555,-0.837,1.0
13.539,-1.464,-0.86,0.0
20.927,-2.26,-0.744,3.0
18.757,-2.025,-0.767,0.0
17.0,-1.835,-0.785,1.0
15.589,-1.682,-0.804,1.0
14.612,-1.576,-0.832,0.0
13.761,-1.484,-0.857,0.0
21.481,-2.314,-0.736,3.0
19.31,-2.079,-0.764,1.0
17.298,-1.861,-0.777,1.0
15.939,-1.714,-0.802,1.0
14.914,-1.604,-0.83,1.0
13.942,-1.498,-0.85,0.0
22.231,-2.387,-0.733,4.0
19.808,-2.125,-0.758,1.0
17.868,-1.916,-0.779,1.0
16.195,-1.736,-0.794,1.0
15.17,-1.625,-0.824,1.0
14.216,-1.522,-0.848,1.0
22.832,-2.442,-0.724,5.0
20.316,-2.172,-0.752,2.0
18.227,-1.947,-0.771,1.0
16.477,-1.759,-0.786,0.0
15.334,-1.636,-0.813,1.0
14.396,-1.535,-0.84,0.0
23.539,-2.508,-0.716,5.0
20.962,-2.232,-0.749,3.0
18.76,-1.996,-0.769,1.0
16.912,-1.798,-0.785,0.0
15.634,-1.661,-0.809,1.0
14.627,-1.553,-0.835,1.0
24.486,-2.597,-0.713,5.0
21.377,-2.265,-0.736,3.0
19.329,-2.047,-0.768,2.0
17.329,-1.834,-0.782,1.0
15.917,-1.683,-0.803,1.0
14.934,-1.578,-0.833,1.0
25.276,-2.668,-0.703,4.0
22.242,-2.345,-0.736,2.0
19.782,-2.084,-0.76,1.0
17.843,-1.878,-0.782,1.0
16.205,-1.704,-0.796,1.0
15.168,-1.594,-0.826,1.0
26.111,-2.741,-0.692,6.0
22.825,-2.394,-0.726,4.0
20.337,-2.131,-0.755,1.0
18.191,-1.904,-0.774,1.0
16.507,-1.726,-0.79,1.0
15.35,-1.604,-0.816,1.0
26.906,-2.808,-0.679,4.0
23.573,-2.458,-0.72,4.0
20.847,-2.171,-0.747,2.0
18.8,-1.956,-0.775,1.0
16.87,-1.753,-0.785,1.0
15.678,-1.627,-0.813,0.0
27.669,-2.87,-0.662,2.0
24.612,-2.549,-0.72,4.0
21.52,-2.227,-0.743,1.0
19.281,-1.993,-0.77,1.0
17.319,-1.788,-0.784,0.0
15.929,-1.642,-0.806,1.0
28.675,-2.954,-0.649,2.0
25.361,-2.609,-0.709,6.0
22.173,-2.278,-0.737,1.0
19.824,-2.034,-0.766,2.0
17.868,-1.831,-0.786,0.0
16.257,-1.664,-0.801,1.0
30.308,-3.1,-0.648,3.0
26.212,-2.677,-0.699,6.0
22.932,-2.339,-0.733,3.0
20.254,-2.063,-0.757,2.0
18.243,-1.855,-0.779,1.0
16.48,-1.674,-0.791,1.0
31.374,-3.184,-0.631,5.0
26.92,-2.728,-0.684,3.0
23.686,-2.396,-0.727,4.0
20.881,-2.109,-0.754,2.0
18.754,-1.892,-0.776,0.0
16.926,-1.705,-0.791,1.0
32.615,-3.283,-0.614,10.0
27.663,-2.779,-0.667,5.0
24.555,-2.463,-0.722,5.0
21.429,-2.146,-0.746,0.0
19.318,-1.932,-0.775,2.0
17.277,-1.725,-0.785,0.0
33.752,-3.367,-0.593,11.0
29.065,-2.895,-0.664,1.0
25.507,-2.536,-0.718,5.0
22.222,-2.206,-0.746,1.0
19.761,-1.958,-0.768,1.0
17.806,-1.761,-0.787,0.0
34.354,-3.396,-0.561,22.0
30.245,-2.984,-0.654,2.0
26.224,-2.583,-0.706,6.0
22.882,-2.249,-0.74,2.0
20.25,-1.987,-0.762,2.0
18.274,-1.79,-0.785,1.0
35.006,-3.427,-0.528,13.0
31.003,-3.029,-0.632,4.0
27.018,-2.634,-0.694,4.0
23.54,-2.291,-0.732,5.0
20.725,-2.013,-0.754,1.0
18.723,-1.815,-0.781,1.0
37.673,-3.649,-0.522,8.0
32.404,-3.133,-0.621,5.0
27.83,-2.685,-0.681,5.0
24.49,-2.358,-0.732,5.0
21.471,-2.063,-0.755,0.0
19.22,-1.843,-0.778,1.0
38.399,-3.68,-0.486,5.0
34.258,-3.276,-0.615,11.0
28.394,-2.709,-0.66,5.0
25.309,-2.41,-0.725,6.0
21.953,-2.086,-0.746,2.0
19.752,-1.873,-0.776,2.0
0.0,0.0,0.0,0.0
34.821,-3.291,-0.583,15.0
29.937,-2.823,-0.66,2.0
25.894,-2.437,-0.711,6.0
22.683,-2.13,-0.744,1.0
20.182,-1.891,-0.769,1.0
44.779,-4.192,-0.459,6.0
35.428,-3.309,-0.551,12.0
30.762,-2.866,-0.642,2.0
26.895,-2.5,-0.707,6.0
23.593,-2.188,-0.746,5.0
20.686,-1.914,-0.764,1.0
0.0,0.0,0.0,0.0
38.221,-3.524,-0.55,14.0
31.69,-2.915,-0.625,1.0
27.559,-2.528,-0.693,7.0
23.816,-2.18,-0.725,13.0
21.219,-1.937,-0.759,0.0
47.518,-4.335,-0.377,22.0
39.346,-3.58,-0.521,15.0
32.824,-2.979,-0.609,2.0
28.364,-2.568,-0.68,3.0
23.886,-2.157,-0.7,11.0
21.7,-1.954,-0.752,1.0
50.1,-4.509,-0.341,24.0
40.397,-3.626,-0.49,15.0
34.467,-3.085,-0.601,2.0
29.581,-2.64,-0.676,5.0
24.014,-2.138,-0.677,4.0
22.495,-1.997,-0.754,1.0
54.414,-4.827,-0.31,14.0
0.0,0.0,0.0,0.0
36.983,-3.261,-0.604,7.0
30.412,-2.675,-0.661,5.0
26.783,-2.349,-0.725,3.0
23.291,-2.037,-0.755,5.0
55.385,-4.84,-0.254,9.0
45.735,-3.984,-0.453,21.0
38.012,-3.301,-0.579,14.0
31.06,-2.689,-0.642,2.0
27.335,-2.36,-0.711,7.0
23.767,-2.046,-0.744,14.0
61.064,-5.252,-0.214,0.0
47.004,-4.03,-0.415,21.0
39.067,-3.339,-0.553,15.0
32.199,-2.743,-0.631,2.0
27.959,-2.375,-0.697,4.0
23.869,-2.021,-0.722,17.0
79.421,-6.72,-0.195,7.0
49.671,-4.189,-0.386,23.0
40.085,-3.37,-0.526,15.0
33.63,-2.818,-0.624,1.0
29.003,-2.422,-0.693,5.0
24.205,-2.015,-0.707,18.0
79.767,-6.635,-0.113,15.0
50.572,-4.192,-0.341,7.0
41.4,-3.42,-0.5,16.0
35.065,-2.887,-0.615,2.0
30.021,-2.463,-0.687,8.0
24.797,-2.028,-0.699,18.0
79.921,-6.531,-0.033,31.0
54.096,-4.404,-0.311,7.0
45.861,-3.721,-0.509,19.0
36.013,-2.911,-0.595,1.0
30.596,-2.465,-0.669,5.0
25.165,-2.02,-0.685,7.0
80.008,-6.417,0.045,18.0
57.396,-4.587,-0.273,3.0
46.721,-3.72,-0.472,21.0
39.309,-3.118,-0.611,2.0
31.091,-2.457,-0.65,3.0
27.384,-2.157,-0.719,1.0
61.515,-4.84,0.094,6.0
61.527,-4.823,-0.235,4.0
0.0,0.0,0.0,0.0
39.832,-3.098,-0.582,4.0
32.28,-2.501,-0.644,2.0
27.893,-2.153,-0.706,2.0
65.573,-5.056,0.161,150.0
61.811,-4.748,-0.178,1.0
49.751,-3.806,-0.409,23.0
41.191,-3.138,-0.564,3.0
33.663,-2.555,-0.641,2.0
28.449,-2.15,-0.694,1.0
65.571,-4.951,0.221,204.0
66.003,-4.964,-0.13,3.0
53.603,-4.014,-0.393,7.0
42.99,-3.206,-0.55,4.0
34.399,-2.555,-0.624,2.0
30.062,-2.224,-0.707,5.0
65.549,-4.843,0.278,2.0
65.892,-4.847,-0.072,4.0
53.851,-3.944,-0.347,5.0
0.0,0.0,0.0,0.0
35.555,-2.582,-0.614,2.0
30.437,-2.201,-0.689,8.0
65.587,-4.737,0.335,1.0
65.569,-4.714,-0.016,2.0
57.007,-4.079,-0.32,8.0
46.743,-3.331,-0.518,20.0
36.393,-2.581,-0.598,2.0
30.668,-2.165,-0.669,10.0
65.526,-4.621,0.389,3.0
65.375,-4.588,0.038,1.0
59.198,-4.135,-0.283,5.0
0.0,0.0,0.0,0.0
37.606,-2.603,-0.588,2.0
30.597,-2.108,-0.642,12.0
65.579,-4.512,0.442,159.0
65.427,-4.479,0.09,3.0
79.455,-5.413,-0.317,1.0
49.506,-3.357,-0.468,7.0
24.584,-1.658,-0.365,4.0
24.516,-1.646,-0.495,19.0
65.579,-4.396,0.493,153.0
24.611,-1.641,0.052,12.0
24.549,-1.629,-0.079,19.0
24.515,-1.618,-0.213,22.0
24.524,-1.611,-0.345,40.0
24.5,-1.601,-0.477,38.0
24.547,-1.601,0.203,34.0
24.554,-1.593,0.071,41.0
24.532,-1.583,-0.061,47.0
24.508,-1.573,-0.195,43.0
24.504,-1.565,-0.327,58.0
24.486,-1.556,-0.459,50.0
24.523,-1.555,0.22,42.0
24.529,-1.547,0.088,64.0
24.521,-1.538,-0.043,79.0
24.496,-1.528,-0.178,46.0
24.501,-1.52,-0.31,60.0
24.492,-1.511,-0.442,56.0
24.519,-1.51,0.237,68.0
24.509,-1.501,0.104,62.0
24.518,-1.493,-0.027,97.0
24.507,-1.484,-0.162,66.0
24.504,-1.475,-0.294,66.0
24.501,-1.467,-0.426,61.0
24.529,-1.465,0.253,63.0
24.517,-1.456,0.12,57.0
24.524,-1.448,-0.011,65.0
24.517,-1.439,-0.146,66.0
24.509,-1.43,-0.279,64.0
24.514,-1.422,-0.411,51.0
24.571,-1.422,0.268,51.0
24.556,-1.413,0.135,43.0
24.559,-1.404,0.002,40.0
24.555,-1.395,-0.132,42.0
24.534,-1.385,-0.264,42.0
24.54,-1.377,-0.397,45.0
24.611,-1.377,0.283,18.0
24.592,-1.367,0.15,5.0
65.583,-3.623,0.045,26.0
24.597,-1.35,-0.118,4.0
24.574,-1.34,-0.251,5.0
24.576,-1.332,-0.384,15.0
0.0,0.0,0.0,0.0
0.0,0.0,0.0,0.0
0.0,0.0,0.0,0.0
65.797,-3.487,-0.282,2.0
53.398,-2.811,-0.518,1.0
38.013,-1.988,-0.575,8.0
0.0,0.0,0.0,0.0
0.0,0.0,0.0,0.0
66.658,-3.427,0.115,0.0
0.0,0.0,0.0,0.0
53.868,-2.73,-0.496,1.0
38.332,-1.929,-0.561,7.0
82.823,-4.154,1.082,38.0
67.697,-3.371,0.517,2.0
0.0,0.0,0.0,0.0
69.003,-3.386,-0.229,0.0
31.244,-1.522,-0.273,30.0
31.229,-1.51,-0.443,33.0
82.948,-3.997,1.121,33.0
79.871,-3.819,0.645,23.0
31.313,-1.485,0.082,8.0
31.242,-1.471,-0.09,34.0
31.185,-1.457,-0.259,45.0
31.205,-1.447,-0.429,57.0
31.326,-1.447,0.436,21.0
31.279,-1.433,0.265,30.0
31.233,-1.419,0.095,45.0
31.215,-1.407,-0.077,65.0
31.172,-1.394,-0.247,43.0
28.47,-1.262,-0.38,51.0
31.221,-1.379,0.446,26.0
28.462,-1.246,0.252,59.0
28.447,-1.235,0.097,59.0
28.441,-1.224,-0.06,70.0
28.443,-1.214,-0.215,104.0
28.447,-1.203,-0.37,107.0
28.441,-1.197,0.417,115.0
28.441,-1.187,0.262,110.0
28.447,-1.176,0.106,143.0
28.44,-1.165,-0.051,151.0
28.452,-1.156,-0.206,117.0
28.449,-1.145,-0.361,69.0
28.451,-1.139,0.425,77.0
28.454,-1.129,0.27,65.0
28.46,-1.119,0.115,64.0
31.293,-1.219,-0.047,11.0
31.29,-1.207,-0.217,43.0
31.312,-1.196,-0.389,44.0
31.25,-1.187,0.476,36.0
31.3,-1.177,0.306,48.0
31.316,-1.167,0.135,44.0
31.328,-1.155,-0.039,7.0
31.333,-1.144,-0.21,0.0
45.035,-1.628,-0.548,15.0
31.369,-1.127,0.485,8.0
83.273,-2.963,0.833,17.0
80.586,-2.837,0.365,21.0
81.175,-2.827,-0.084,35.0
56.866,-1.959,-0.37,2.0
38.712,-1.32,-0.463,20.0
38.737,-1.311,0.607,4.0
38.773,-1.298,0.395,11.0
38.716,-1.282,0.182,35.0
38.698,-1.267,-0.033,48.0
38.683,-1.252,-0.245,56.0
38.62,-1.236,-0.456,32.0
38.648,-1.228,0.612,67.0
38.647,-1.213,0.4,67.0
38.655,-1.199,0.188,69.0
38.632,-1.184,-0.027,69.0
38.647,-1.17,-0.239,71.0
38.623,-1.155,-0.451,49.0
38.633,-1.145,0.616,97.0
38.637,-1.131,0.404,99.0
38.653,-1.117,0.192,92.0
38.675,-1.104,-0.023,78.0
38.647,-1.089,-0.235,68.0
38.662,-1.075,-0.447,36.0
38.646,-1.064,0.62,69.0
38.641,-1.049,0.407,64.0
38.675,-1.036,0.195,59.0
38.676,-1.022,-0.02,40.0
38.729,-1.008,-0.233,37.0
38.729,-0.994,-0.446,34.0
0.0,0.0,0.0,0.0
40.434,-1.012,0.428,21.0
40.425,-0.997,0.206,25.0
40.405,-0.982,-0.02,36.0
40.424,-0.967,-0.242,39.0
40.425,-0.953,-0.465,65.0
40.412,-0.942,0.651,37.0
40.442,-0.927,0.428,151.0
40.417,-0.912,0.206,72.0
40.43,-0.897,-0.02,6.0
38.367,-0.838,-0.23,20.0
38.362,-0.824,-0.442,63.0
38.409,-0.814,0.617,22.0
52.936,-1.101,0.559,21.0
52.924,-1.082,0.268,64.0
52.923,-1.063,-0.029,68.0
45.671,-0.9,-0.277,23.0
45.201,-0.875,-0.523,19.0
192.811,-3.679,3.089,8.0
203.426,-3.807,2.137,19.0
20.12,-0.369,0.1,0.0
20.129,-0.361,-0.012,32.0
53.0,-0.932,-0.326,20.0
45.245,-0.78,-0.528,19.0
176.625,-2.992,2.813,60.0
20.14,-0.333,0.209,6.0
20.142,-0.326,0.098,21.0
20.103,-0.318,-0.015,19.0
59.443,-0.919,-0.372,12.0
45.138,-0.681,-0.532,17.0
20.145,-0.297,0.318,10.0
20.125,-0.29,0.206,14.0
20.138,-0.282,0.095,12.0
59.519,-0.814,-0.053,77.0
56.581,-0.754,-0.364,13.0
45.182,-0.586,-0.54,19.0
20.135,-0.254,0.314,13.0
20.155,-0.247,0.203,11.0
56.185,-0.67,0.255,2.0
56.277,-0.65,-0.061,1.0
59.44,-0.665,-0.394,12.0
45.087,-0.488,-0.548,19.0
20.183,-0.212,0.31,9.0
64.325,-0.653,0.634,19.0
53.392,-0.523,0.23,4.0
53.39,-0.503,-0.07,4.0
20.188,-0.183,-0.138,2.0
20.169,-0.175,-0.25,21.0
20.261,-0.169,0.306,15.0
20.209,-0.162,0.194,17.0
20.166,-0.154,0.081,13.0
20.18,-0.147,-0.032,23.0
20.155,-0.14,-0.144,21.0
20.146,-0.132,-0.255,33.0
20.136,-0.125,0.299,22.0
20.122,-0.118,0.187,20.0
20.133,-0.111,0.075,36.0
20.134,-0.103,-0.038,28.0
20.149,-0.096,-0.15,37.0
20.135,-0.089,-0.262,37.0
20.125,-0.082,0.292,29.0
20.128,-0.075,0.18,28.0
20.127,-0.068,0.068,42.0
20.129,-0.061,-0.045,31.0
20.153,-0.054,-0.157,34.0
20.167,-0.046,-0.269,25.0
20.118,-0.04,0.285,28.0
20.117,-0.032,0.173,31.0
20.129,-0.025,0.061,30.0
20.172,-0.018,-0.053,15.0
20.216,-0.011,-0.165,13.0
20.264,-0.004,-0.278,30.0
20.135,0.002,0.277,29.0
20.128,0.009,0.164,27.0
20.213,0.016,0.053,33.0
20.266,0.024,-0.061,150.0
20.269,0.031,-0.174,59.0
20.236,0.038,-0.287,2.0
20.145,0.045,0.268,29.0
20.154,0.052,0.156,28.0
20.21,0.059,0.043,34.0
20.195,0.066,-0.07,29.0
20.198,0.072,-0.183,27.0
20.21,0.079,-0.296,8.0
20.158,0.087,0.259,28.0
20.161,0.094,0.146,26.0
20.186,0.101,0.034,36.0
20.188,0.108,-0.08,31.0
20.179,0.115,-0.193,25.0
20.191,0.122,-0.306,29.0
20.174,0.129,0.249,25.0
20.19,0.136,0.136,24.0
20.213,0.143,0.023,26.0
20.183,0.15,-0.091,24.0
20.171,0.157,-0.203,25.0
20.177,0.164,-0.316,38.0
20.296,0.172,0.239,29.0
20.313,0.179,0.126,29.0
20.343,0.187,0.012,29.0
20.222,0.192,-0.102,2.0
20.169,0.198,-0.215,18.0
20.185,0.205,-0.328,30.0
20.289,0.214,0.227,27.0
20.296,0.221,0.114,14.0
99.646,1.119,0.002,4.0
0.0,0.0,0.0,0.0
20.223,0.24,-0.228,2.0
20.195,0.247,-0.34,17.0
20.293,0.256,0.215,0.0
99.64,1.29,0.498,5.0
99.816,1.326,-0.06,2.0
0.0,0.0,0.0,0.0
0.0,0.0,0.0,0.0
42.8,0.611,-0.749,0.0
0.0,0.0,0.0,0.0
99.714,1.496,0.432,6.0
101.519,1.557,-0.129,1.0
0.0,0.0,0.0,0.0
0.0,0.0,0.0,0.0
0.0,0.0,0.0,0.0
99.841,1.666,0.924,1.0
99.884,1.7,0.364,7.0
100.009,1.735,-0.197,1.0
0.0,0.0,0.0,0.0
0.0,0.0,0.0,0.0
0.0,0.0,0.0,0.0
102.946,1.924,0.879,5.0
99.899,1.9,0.291,5.0
0.0,0.0,0.0,0.0
0.0,0.0,0.0,0.0
0.0,0.0,0.0,0.0
0.0,0.0,0.0,0.0
103.01,2.131,0.802,4.0
100.034,2.102,0.215,11.0
0.0,0.0,0.0,0.0
0.0,0.0,0.0,0.0
0.0,0.0,0.0,0.0
38.533,0.858,-0.787,0.0
102.995,2.335,0.72,2.0
100.16,2.301,0.137,18.0
0.0,0.0,0.0,0.0
0.0,0.0,0.0,0.0
0.0,0.0,0.0,0.0
37.383,0.905,-0.794,0.0
103.073,2.538,0.636,4.0
100.346,2.501,0.054,1.0
0.0,0.0,0.0,0.0
0.0,0.0,0.0,0.0
0.0,0.0,0.0,0.0
37.242,0.974,-0.823,0.0
103.091,2.738,0.548,1.0
0.0,0.0,0.0,0.0
0.0,0.0,0.0,0.0
0.0,0.0,0.0,0.0
0.0,0.0,0.0,0.0
35.697,1.002,-0.82,0.0
196.177,5.585,0.87,17.0
0.0,0.0,0.0,0.0
69.039,2.007,-0.472,4.0
0.0,0.0,0.0,0.0
0.0,0.0,0.0,0.0
35.311,1.058,-0.843,0.0
196.248,5.958,0.691,19.0
0.0,0.0,0.0,0.0
68.977,2.134,-0.535,0.0
0.0,0.0,0.0,0.0
0.0,0.0,0.0,0.0
32.901,1.047,-0.816,0.0
196.449,6.333,0.505,5.0
0.0,0.0,0.0,0.0
68.907,2.261,-0.601,0.0
0.0,0.0,0.0,0.0
39.439,1.316,-0.793,0.0
32.5,1.094,-0.838,1.0
0.0,0.0,0.0,0.0
0.0,0.0,0.0,0.0
0.0,0.0,0.0,0.0
0.0,0.0,0.0,0.0
0.0,0.0,0.0,0.0
32.234,1.144,-0.863,1.0
0.0,0.0,0.0,0.0
0.0,0.0,0.0,0.0
0.0,0.0,0.0,0.0
0.0,0.0,0.0,0.0
0.0,0.0,0.0,0.0
30.272,1.129,-0.842,0.0
0.0,0.0,0.0,0.0
68.973,2.619,-0.421,0.0
0.0,0.0,0.0,0.0
0.0,0.0,0.0,0.0
34.984,1.358,-0.812,0.0
30.07,1.175,-0.868,1.0
0.0,0.0,0.0,0.0
68.878,2.737,-0.494,0.0
0.0,0.0,0.0,0.0
0.0,0.0,0.0,0.0
32.932,1.335,-0.8,0.0
29.583,1.208,-0.886,0.0
0.0,0.0,0.0,0.0
0.0,0.0,0.0,0.0
0.0,0.0,0.0,0.0
0.0,0.0,0.0,0.0
32.991,1.395,-0.838,0.0
20.284,0.863,-0.63,0.0
0.0,0.0,0.0,0.0
0.0,0.0,0.0,0.0
0.0,0.0,0.0,0.0
37.443,1.637,-0.781,0.0
32.028,1.409,-0.85,0.0
20.268,0.897,-0.653,82.0
0.0,0.0,0.0,0.0
0.0,0.0,0.0,0.0
0.0,0.0,0.0,0.0
36.701,1.666,-0.808,0.0
30.864,1.409,-0.855,0.0
20.244,0.929,-0.676,6.0
0.0,0.0,0.0,0.0
0.0,0.0,0.0,0.0
42.411,1.984,-0.738,5.0
34.915,1.642,-0.809,0.0
29.758,1.407,-0.859,0.0
25.671,1.221,-0.888,0.0
69.202,3.316,-0.501,0.0
0.0,0.0,0.0,0.0
0.0,0.0,0.0,0.0
33.487,1.629,-0.817,0.0
28.616,1.399,-0.861,0.0
24.748,1.216,-0.885,0.0
68.957,3.414,-0.582,0.0
0.0,0.0,0.0,0.0
0.0,0.0,0.0,0.0
32.218,1.618,-0.826,0.0
28.074,1.417,-0.879,0.0
24.057,1.22,-0.891,0.0
0.0,0.0,0.0,0.0
0.0,0.0,0.0,0.0
0.0,0.0,0.0,0.0
31.393,1.625,-0.843,0.0
26.847,1.396,-0.874,0.0
23.682,1.237,-0.907,0.0
0.0,0.0,0.0,0.0
0.0,0.0,0.0,0.0
0.0,0.0,0.0,0.0
30.384,1.619,-0.855,0.0
25.938,1.388,-0.878,0.0
21.925,1.179,-0.868,0.0
0.0,0.0,0.0,0.0
40.272,2.187,-0.722,0.0
33.691,1.838,-0.796,0.0
29.247,1.602,-0.861,1.0
25.193,1.386,-0.886,0.0
21.807,1.204,-0.891,3.0
0.0,0.0,0.0,0.0
0.0,0.0,0.0,0.0
32.754,1.834,-0.817,1.0
28.199,1.585,-0.867,0.0
24.282,1.37,-0.885,0.0
21.769,1.234,-0.919,3.0
0.0,0.0,0.0,0.0
0.0,0.0,0.0,0.0
31.707,1.82,-0.833,0.0
27.407,1.58,-0.88,0.0
21.941,1.27,-0.83,0.0
21.603,1.255,-0.941,0.0
0.0,0.0,0.0,0.0
35.693,2.091,-0.783,0.0
30.634,1.801,-0.847,0.0
25.58,1.51,-0.856,1.0
21.889,1.297,-0.858,3.0
20.095,1.195,-0.902,0.0
0.0,0.0,0.0,0.0
35.106,2.104,-0.818,0.0
29.385,1.768,-0.852,0.0
25.071,1.514,-0.873,0.0
21.835,1.323,-0.886,10.0
19.701,1.198,-0.912,0.0
0.0,0.0,0.0,0.0
32.41,1.986,-0.8,2.0
28.287,1.739,-0.86,0.0
24.362,1.503,-0.883,0.0
21.809,1.35,-0.915,3.0
19.358,1.202,-0.923,0.0
37.899,2.363,-0.772,0.0
31.719,1.984,-0.827,1.0
27.288,1.712,-0.868,0.0
21.905,1.379,-0.825,0.0
21.77,1.375,-0.944,0.0
18.358,1.163,-0.902,0.0
35.489,2.258,-0.773,0.0
30.288,1.932,-0.833,0.0
26.17,1.675,-0.87,0.0
21.885,1.405,-0.855,4.0
20.026,1.289,-0.897,0.0
18.057,1.166,-0.913,0.0
33.51,2.172,-0.778,0.0
29.62,1.925,-0.857,0.0
25.241,1.645,-0.875,0.0
21.818,1.426,-0.884,10.0
19.596,1.285,-0.906,0.0
17.743,1.167,-0.922,0.0
32.728,2.16,-0.807,1.0
28.224,1.868,-0.858,0.0
24.409,1.619,-0.881,0.0
21.809,1.451,-0.915,2.0
19.361,1.292,-0.923,0.0
17.297,1.157,-0.924,0.0
31.656,2.125,-0.826,0.0
27.11,1.824,-0.863,0.0
23.572,1.59,-0.886,0.0
20.724,1.402,-0.9,0.0
0.0,0.0,0.0,0.0
16.806,1.143,-0.923,0.0
30.202,2.06,-0.833,1.0
26.075,1.783,-0.868,0.0
21.864,1.499,-0.853,0.0
19.881,1.366,-0.892,0.0
17.923,1.235,-0.907,0.0
16.456,1.136,-0.928,0.0
29.069,2.013,-0.844,0.0
25.08,1.741,-0.872,0.0
21.798,1.517,-0.883,1.0
19.501,1.36,-0.904,0.0
17.543,1.226,-0.914,0.0
16.06,1.126,-0.929,0.0
27.938,1.963,-0.853,0.0
23.975,1.688,-0.869,0.0
21.686,1.531,-0.911,0.0
19.322,1.367,-0.925,0.0
17.203,1.22,-0.922,0.0
15.665,1.113,-0.93,0.0
26.906,1.917,-0.861,0.0
23.524,1.679,-0.888,0.0
20.707,1.481,-0.901,0.0
0.0,0.0,0.0,0.0
16.768,1.205,-0.924,0.0
15.306,1.102,-0.932,0.0
25.781,1.861,-0.865,0.0
21.838,1.579,-0.858,0.0
19.915,1.443,-0.896,0.0
0.0,0.0,0.0,0.0
16.366,1.191,-0.927,0.0
14.979,1.092,-0.935,0.0
24.843,1.815,-0.87,0.0
21.784,1.595,-0.888,1.0
19.405,1.423,-0.903,0.0
17.414,1.28,-0.912,0.0
16.043,1.181,-0.933,0.0
14.676,1.083,-0.938,0.0
23.76,1.756,-0.869,0.0
21.462,1.589,-0.908,0.0
0.0,0.0,0.0,0.0
17.066,1.268,-0.92,0.0
15.582,1.16,-0.93,0.0
14.438,1.077,-0.945,0.0
23.326,1.742,-0.888,0.0
20.541,1.537,-0.9,0.0
0.0,0.0,0.0,0.0
16.671,1.252,-0.924,0.0
15.156,1.14,-0.927,0.0
14.102,1.063,-0.944,0.0
21.83,1.647,-0.864,0.0
19.764,1.494,-0.896,0.0
0.0,0.0,0.0,0.0
16.25,1.232,-0.926,0.0
14.885,1.131,-0.934,0.0
13.721,1.044,-0.94,0.0
21.757,1.657,-0.894,1.0
19.405,1.481,-0.909,0.0
17.309,1.323,-0.911,0.0
15.898,1.217,-0.93,0.0
14.616,1.121,-0.939,0.0
13.493,1.036,-0.945,0.0
21.29,1.636,-0.908,0.0
18.55,1.428,-0.898,0.0
16.97,1.308,-0.919,0.0
15.477,1.195,-0.929,0.0
14.373,1.111,-0.946,0.0
13.23,1.025,-0.947,0.0
20.182,1.564,-0.891,0.0
18.475,1.434,-0.922,0.0
16.536,1.285,-0.921,0.0
15.083,1.174,-0.928,0.0
0.0,0.0,0.0,0.0
12.915,1.008,-0.944,0.0
19.604,1.53,-0.895,0.0
0.0,0.0,0.0,0.0
16.11,1.261,-0.921,0.0
14.769,1.158,-0.931,0.0
13.673,1.073,-0.941,0.0
12.641,0.994,-0.943,0.0
18.884,1.484,-0.891,0.0
17.277,1.36,-0.915,0.0
15.75,1.241,-0.925,0.0
14.515,1.145,-0.937,0.0
13.349,1.055,-0.939,0.0
12.383,0.98,-0.943,0.0
18.593,1.471,-0.906,1.0
16.82,1.332,-0.916,0.0
15.313,1.214,-0.923,0.0
14.241,1.131,-0.942,0.0
13.107,1.042,-0.942,0.0
12.093,0.963,-0.939,0.0
18.369,1.462,-0.923,0.0
16.408,1.307,-0.919,0.0
15.003,1.196,-0.927,0.0
13.858,1.106,-0.937,0.0
12.774,1.021,-0.938,0.0
11.879,0.951,-0.941,0.0
17.577,1.406,-0.909,0.0
16.078,1.287,-0.924,0.0
14.723,1.18,-0.932,0.0
13.56,1.088,-0.938,0.0
12.568,1.009,-0.942,0.0
11.683,0.939,-0.943,0.0
17.071,1.372,-0.909,0.0
15.661,1.26,-0.924,0.0
14.443,1.163,-0.935,0.0
13.275,1.07,-0.938,0.0
12.303,0.992,-0.94,0.0
11.444,0.924,-0.941,0.0
16.734,1.35,-0.915,0.0
15.283,1.234,-0.924,0.0
14.245,1.151,-0.944,0.0
13.056,1.056,-0.942,0.0
12.055,0.976,-0.939,0.0
11.299,0.916,-0.946,0.0
16.32,1.321,-0.917,0.0
14.977,1.213,-0.928,0.0
13.706,1.111,-0.928,0.0
12.737,1.034,-0.938,0.0
11.856,0.963,-0.941,0.0
11.054,0.899,-0.942,0.0
15.996,1.299,-0.922,0.0
14.681,1.193,-0.931,0.0
13.514,1.099,-0.935,0.0
12.551,1.021,-0.942,0.0
11.65,0.949,-0.942,0.0
10.924,0.891,-0.947,0.0
15.671,1.276,-0.926,0.0
14.404,1.173,-0.935,0.0
13.331,1.086,-0.942,0.0
12.263,1.0,-0.938,0.0
11.476,0.937,-0.945,0.0
10.759,0.879,-0.948,0.0
15.191,1.239,-0.92,0.0
14.186,1.157,-0.941,0.0
13.012,1.062,-0.938,0.0
12.077,0.987,-0.942,0.0
11.281,0.922,-0.945,0.0
10.472,0.857,-0.938,0.0
14.937,1.22,-0.926,0.0
13.847,1.131,-0.938,0.0
12.745,1.042,-0.937,0.0
11.82,0.967,-0.939,0.0
11.063,0.905,-0.943,0.0
10.387,0.851,-0.945,0.0
14.658,1.198,-0.929,0.0
13.535,1.107,-0.936,0.0
12.54,1.026,-0.94,0.0
11.619,0.951,-0.939,0.0
10.891,0.892,-0.944,0.0
10.246,0.84,-0.947,0.0
14.402,1.177,-0.934,0.0
13.301,1.088,-0.939,0.0
12.298,1.006,-0.939,0.0
11.428,0.935,-0.94,0.0
10.761,0.881,-0.947,0.0
10.076,0.826,-0.946,0.0
14.206,1.161,-0.941,0.0
12.984,1.062,-0.935,0.0
12.074,0.988,-0.939,0.0
11.266,0.922,-0.942,0.0
10.509,0.86,-0.94,0.0
9.941,0.814,-0.947,0.0
13.826,1.129,-0.935,0.0
12.788,1.045,-0.938,0.0
11.834,0.967,-0.937,0.0
11.084,0.906,-0.943,0.0
10.365,0.848,-0.941,0.0
9.76,0.799,-0.943,0.0
13.576,1.108,-0.936,0.0
12.579,1.026,-0.94,0.0
11.653,0.951,-0.938,0.0
0.0,0.0,0.0,0.0
10.271,0.839,-0.947,0.0
9.612,0.785,-0.942,0.0
13.305,1.084,-0.935,0.0
12.357,1.007,-0.94,0.0
11.481,0.935,-0.94,0.0
10.711,0.873,-0.94,0.0
10.1,0.823,-0.944,0.0
9.5,0.774,-0.944,0.0
13.159,1.069,-0.942,0.0
12.1,0.983,-0.936,0.0
11.338,0.921,-0.943,0.0
10.553,0.858,-0.939,0.0
9.969,0.811,-0.945,0.0
9.389,0.763,-0.945,0.0
12.842,1.041,-0.936,0.0
11.922,0.966,-0.938,0.0
11.17,0.905,-0.943,0.0
10.409,0.844,-0.94,0.0
9.821,0.796,-0.944,0.0
9.244,0.75,-0.942,0.0
12.64,1.021,-0.938,0.0
11.727,0.947,-0.937,0.0
11.086,0.895,-0.95,0.0
10.276,0.83,-0.941,0.0
9.664,0.781,-0.941,0.0
9.155,0.74,-0.945,0.0
12.454,1.002,-0.939,0.0
11.558,0.93,-0.938,0.0
10.875,0.875,-0.946,0.0
10.135,0.816,-0.941,0.0
9.55,0.768,-0.942,0.0
9.003,0.725,-0.94,0.0
12.232,0.98,-0.938,0.0
11.428,0.916,-0.942,0.0
10.797,0.865,-0.952,0.0
10.039,0.804,-0.944,0.0
9.427,0.755,-0.941,0.0
8.924,0.715,-0.943,0.0
12.036,0.96,-0.937,0.0
11.286,0.9,-0.944,0.0
10.499,0.837,-0.938,0.0
9.919,0.791,-0.945,0.0
9.33,0.744,-0.943,0.0
8.805,0.702,-0.941,0.0
11.849,0.94,-0.937,0.0
11.137,0.884,-0.944,0.0
10.397,0.825,-0.942,0.0
9.798,0.777,-0.945,0.0
9.211,0.73,-0.942,0.0
8.75,0.693,-0.945,0.0
11.687,0.922,-0.937,0.0
11.025,0.87,-0.948,0.0
10.261,0.809,-0.941,0.0
9.616,0.758,-0.938,0.0
9.131,0.719,-0.944,0.0
8.629,0.68,-0.942,0.0
11.536,0.905,-0.938,0.0
10.744,0.842,-0.935,0.0
10.135,0.794,-0.941,0.0
9.512,0.745,-0.939,0.0
9.032,0.707,-0.944,0.0
8.564,0.67,-0.945,0.0
11.386,0.887,-0.938,0.0
10.665,0.83,-0.94,0.0
10.019,0.78,-0.941,0.0
9.419,0.733,-0.94,0.0
8.949,0.696,-0.945,0.0
8.47,0.658,-0.943,0.0
11.271,0.872,-0.941,0.0
10.5,0.812,-0.937,0.0
9.907,0.765,-0.941,0.0
9.341,0.721,-0.942,0.0
8.856,0.683,-0.944,0.0
8.379,0.646,-0.942,0.0
11.135,0.855,-0.941,0.0
10.454,0.802,-0.943,0.0
9.777,0.749,-0.939,0.0
9.231,0.707,-0.94,0.0
8.758,0.67,-0.943,0.0
8.3,0.635,-0.942,0.0
10.994,0.837,-0.94,0.0
10.314,0.785,-0.941,0.0
9.671,0.735,-0.938,0.0
9.211,0.7,-0.948,0.0
8.679,0.659,-0.943,0.0
8.239,0.625,-0.943,0.0
10.931,0.825,-0.945,0.0
10.154,0.766,-0.936,0.0
9.626,0.725,-0.943,0.0
9.06,0.682,-0.941,0.0
8.614,0.648,-0.944,0.0
8.181,0.615,-0.944,0.0
10.788,0.807,-0.943,0.0
10.112,0.756,-0.942,0.0
9.517,0.71,-0.941,0.0
8.971,0.669,-0.94,0.0
8.54,0.636,-0.944,0.0
8.097,0.603,-0.942,0.0
10.613,0.786,-0.937,0.0
9.991,0.739,-0.94,0.0
9.472,0.7,-0.945,0.0
8.893,0.657,-0.94,0.0
8.491,0.626,-0.946,0.0
8.051,0.593,-0.944,0.0
10.498,0.77,-0.936,0.0
9.935,0.727,-0.943,0.0
9.368,0.685,-0.943,0.0
8.827,0.645,-0.94,0.0
8.382,0.612,-0.941,0.0
8.002,0.583,-0.945,0.0
10.413,0.755,-0.937,0.0
9.87,0.715,-0.945,0.0
9.292,0.672,-0.943,0.0
8.752,0.632,-0.94,0.0
8.316,0.6,-0.941,0.0
7.956,0.574,-0.946,0.0
10.345,0.742,-0.94,0.0
9.775,0.7,-0.944,0.0
9.215,0.659,-0.943,0.0
8.695,0.621,-0.94,0.0
8.265,0.59,-0.941,0.0
7.919,0.564,-0.948,0.0
10.25,0.726,-0.939,0.0
9.679,0.685,-0.942,0.0
9.146,0.646,-0.943,0.0
8.643,0.61,-0.941,0.0
8.209,0.579,-0.941,0.0
7.857,0.553,-0.946,0.0
10.224,0.716,-0.944,0.0
9.649,0.674,-0.946,0.0
9.073,0.633,-0.941,0.0
8.598,0.599,-0.942,0.0
8.173,0.569,-0.943,0.0
7.804,0.542,-0.945,0.0
10.156,0.702,-0.945,0.0
9.538,0.658,-0.942,0.0
9.004,0.62,-0.941,0.0
8.541,0.587,-0.942,0.0
8.126,0.558,-0.943,0.0
7.754,0.532,-0.945,0.0
10.054,0.685,-0.942,0.0
9.489,0.646,-0.943,0.0
8.955,0.608,-0.941,0.0
8.482,0.575,-0.941,0.0
8.09,0.548,-0.944,0.0
7.731,0.523,-0.947,0.0
10.009,0.673,-0.944,0.0
9.434,0.633,-0.943,0.0
8.886,0.595,-0.939,0.0
8.448,0.565,-0.942,0.0
8.039,0.537,-0.943,0.0
7.705,0.514,-0.948,0.0
9.954,0.659,-0.944,0.0
9.381,0.62,-0.943,0.0
8.852,0.584,-0.941,0.0
8.397,0.553,-0.941,0.0
8.03,0.528,-0.946,0.0
7.668,0.503,-0.948,0.0
9.873,0.644,-0.942,0.0
9.315,0.606,-0.942,0.0
8.796,0.572,-0.939,0.0
8.368,0.543,-0.942,0.0
7.984,0.517,-0.945,0.0
7.603,0.491,-0.943,0.0
9.82,0.63,-0.942,0.0
9.294,0.595,-0.944,0.0
8.757,0.56,-0.939,0.0
8.298,0.53,-0.938,0.0
7.948,0.506,-0.944,0.0
7.606,0.484,-0.947,0.0
9.779,0.618,-0.942,0.0
9.229,0.582,-0.942,0.0
8.701,0.547,-0.937,0.0
8.291,0.52,-0.941,0.0
7.917,0.496,-0.944,0.0
7.587,0.474,-0.948,0.0
9.764,0.606,-0.945,0.0
9.189,0.569,-0.941,0.0
8.701,0.538,-0.941,0.0
8.242,0.508,-0.939,0.0
7.913,0.487,-0.947,0.0
7.549,0.464,-0.946,0.0
9.716,0.593,-0.944,0.0
9.145,0.557,-0.94,0.0
8.657,0.526,-0.939,0.0
8.207,0.497,-0.938,0.0
7.873,0.476,-0.945,0.0
7.517,0.453,-0.945,0.0
9.676,0.58,-0.943,0.0
9.117,0.545,-0.94,0.0
8.652,0.516,-0.941,0.0
8.186,0.487,-0.938,0.0
7.853,0.466,-0.945,0.0
7.527,0.445,-0.948,0.0
9.638,0.567,-0.942,0.0
9.107,0.534,-0.942,0.0
8.607,0.503,-0.939,0.0
8.205,0.479,-0.942,0.0
7.843,0.456,-0.946,0.0
7.506,0.436,-0.948,0.0
9.625,0.555,-0.943,0.0
9.113,0.524,-0.944,0.0
8.608,0.493,-0.941,0.0
8.178,0.468,-0.941,0.0
7.827,0.446,-0.945,0.0
7.503,0.427,-0.949,0.0
9.584,0.541,-0.941,0.0
9.045,0.509,-0.939,0.0
8.606,0.483,-0.942,0.0
8.139,0.456,-0.938,0.0
7.836,0.438,-0.948,0.0
7.519,0.419,-0.952,0.0
9.586,0.53,-0.943,0.0
9.046,0.499,-0.941,0.0
8.569,0.471,-0.939,0.0
8.176,0.448,-0.943,0.0
7.801,0.427,-0.944,0.0
7.492,0.409,-0.95,0.0
9.563,0.518,-0.941,0.0
9.048,0.488,-0.942,0.0
8.571,0.461,-0.94,0.0
8.137,0.436,-0.94,0.0
7.814,0.418,-0.947,0.0
7.453,0.397,-0.945,0.0
9.573,0.507,-0.943,0.0
9.019,0.476,-0.939,0.0
8.564,0.45,-0.94,0.0
8.161,0.428,-0.943,0.0
7.803,0.408,-0.946,0.0
7.457,0.388,-0.946,0.0
9.578,0.495,-0.944,0.0
9.043,0.466,-0.942,0.0
8.571,0.44,-0.941,0.0
8.18,0.419,-0.945,0.0
7.832,0.4,-0.949,0.0
7.497,0.381,-0.951,0.0
9.564,0.483,-0.942,0.0
9.043,0.455,-0.942,0.0
8.576,0.43,-0.941,0.0
8.183,0.409,-0.945,0.0
7.823,0.39,-0.948,0.0
7.47,0.371,-0.947,0.0
9.573,0.472,-0.942,0.0
9.051,0.444,-0.942,0.0
8.591,0.42,-0.942,0.0
8.162,0.398,-0.942,0.0
7.823,0.38,-0.947,0.0
7.48,0.362,-0.948,0.0
9.59,0.461,-0.943,0.0
9.038,0.433,-0.939,0.0
8.579,0.409,-0.94,0.0
8.135,0.386,-0.938,0.0
7.808,0.369,-0.944,0.0
7.483,0.353,-0.947,0.0
9.607,0.45,-0.943,0.0
9.074,0.423,-0.941,0.0
8.581,0.398,-0.938,0.0
8.174,0.378,-0.941,0.0
7.826,0.36,-0.945,0.0
7.492,0.344,-0.946,0.0
9.641,0.439,-0.945,0.0
9.101,0.413,-0.942,0.0
8.637,0.39,-0.943,0.0
8.175,0.368,-0.939,0.0
7.844,0.351,-0.945,0.0
7.491,0.334,-0.945,0.0
9.676,0.429,-0.945,0.0
9.113,0.402,-0.941,0.0
8.639,0.379,-0.941,0.0
8.25,0.361,-0.945,0.0
7.878,0.343,-0.947,0.0
7.531,0.326,-0.947,0.0
9.7,0.417,-0.945,0.0
9.16,0.392,-0.943,0.0
8.689,0.371,-0.943,0.0
8.258,0.351,-0.943,0.0
7.896,0.334,-0.946,0.0
7.57,0.318,-0.95,0.0
9.75,0.407,-0.946,0.0
9.184,0.382,-0.943,0.0
8.671,0.359,-0.938,0.0
8.254,0.34,-0.94,0.0
7.896,0.324,-0.943,0.0
7.584,0.309,-0.949,0.0
9.753,0.395,-0.943,0.0
9.237,0.372,-0.944,0.0
8.711,0.349,-0.939,0.0
8.302,0.331,-0.942,0.0
7.922,0.315,-0.943,0.0
7.607,0.301,-0.948,0.0
9.8,0.384,-0.943,0.0
9.284,0.362,-0.945,0.0
8.768,0.341,-0.941,0.0
8.328,0.322,-0.941,0.0
7.989,0.307,-0.947,0.0
7.642,0.292,-0.949,0.0
9.867,0.375,-0.945,0.0
9.341,0.353,-0.946,0.0
8.79,0.33,-0.939,0.0
8.379,0.313,-0.943,0.0
8.012,0.298,-0.946,0.0
7.672,0.284,-0.949,0.0
9.902,0.364,-0.943,0.0
9.363,0.342,-0.944,0.0
8.823,0.32,-0.938,0.0
8.425,0.304,-0.943,0.0
8.036,0.289,-0.944,0.0
7.701,0.275,-0.948,0.0
9.943,0.353,-0.942,0.0
9.417,0.332,-0.944,0.0
8.903,0.312,-0.941,0.0
8.489,0.296,-0.945,0.0
8.104,0.281,-0.948,0.0
7.715,0.266,-0.945,0.0
10.043,0.344,-0.945,0.0
9.469,0.322,-0.943,0.0
8.969,0.303,-0.943,0.0
8.513,0.286,-0.943,0.0
8.136,0.272,-0.946,0.0
7.777,0.258,-0.947,0.0
10.084,0.332,-0.942,0.0
9.543,0.313,-0.944,0.0
9.037,0.294,-0.944,0.0
8.543,0.276,-0.94,0.0
8.165,0.262,-0.944,0.0
7.8,0.249,-0.945,0.0
10.194,0.323,-0.945,0.0
9.607,0.303,-0.944,0.0
9.089,0.285,-0.943,0.0
8.629,0.268,-0.943,0.0
8.202,0.253,-0.942,0.0
7.846,0.241,-0.944,0.0
10.26,0.313,-0.944,0.0
9.667,0.293,-0.942,0.0
9.146,0.275,-0.942,0.0
8.682,0.259,-0.943,0.0
8.297,0.246,-0.946,0.0
7.894,0.232,-0.944,0.0
10.363,0.303,-0.945,0.0
9.762,0.283,-0.944,0.0
9.225,0.266,-0.942,0.0
8.747,0.25,-0.942,0.0
8.319,0.236,-0.942,0.0
7.948,0.224,-0.944,0.0
10.45,0.293,-0.944,0.0
9.865,0.275,-0.946,0.0
9.347,0.258,-0.947,0.0
8.776,0.241,-0.938,0.0
8.423,0.229,-0.947,0.0
8.014,0.216,-0.945,0.0
10.564,0.283,-0.946,0.0
9.949,0.265,-0.945,0.0
9.391,0.248,-0.943,0.0
8.875,0.233,-0.941,0.0
8.454,0.22,-0.943,0.0
8.088,0.209,-0.946,0.0
10.671,0.273,-0.945,0.0
10.074,0.256,-0.947,0.0
9.54,0.24,-0.949,0.0
8.989,0.225,-0.944,0.0
8.528,0.211,-0.942,0.0
8.141,0.2,-0.944,0.0
10.812,0.264,-0.947,0.0
10.169,0.246,-0.946,0.0
9.606,0.231,-0.946,0.0
9.083,0.216,-0.945,0.0
8.617,0.203,-0.944,0.0
8.219,0.192,-0.945,0.0
10.991,0.255,-0.952,0.0
10.287,0.237,-0.947,0.0
9.716,0.222,-0.947,0.0
9.195,0.208,-0.947,0.0
8.696,0.195,-0.943,0.0
8.306,0.184,-0.946,0.0
11.135,0.246,-0.953,0.0
10.408,0.228,-0.947,0.0
9.835,0.213,-0.948,0.0
