X,Y,Z,Reflectivity
12.282,1.069,-0.938,0.0
11.439,0.994,-0.939,0.0
10.766,0.934,-0.945,0.0
10.069,0.873,-0.942,0.0
9.494,0.822,-0.942,0.0
8.966,0.775,-0.941,0.0
12.2,1.049,-0.938,0.0
11.406,0.979,-0.941,0.0
10.715,0.918,-0.945,0.0
10.028,0.858,-0.943,0.0
9.476,0.81,-0.945,0.0
8.939,0.763,-0.942,0.0
12.144,1.031,-0.939,0.0
11.359,0.962,-0.943,0.0
10.548,0.892,-0.935,0.0
9.979,0.843,-0.943,0.0
9.397,0.793,-0.941,0.0
8.864,0.746,-0.938,0.0
12.027,1.007,-0.935,0.0
11.321,0.946,-0.944,0.0
10.491,0.875,-0.934,0.0
9.94,0.828,-0.943,0.0
9.381,0.78,-0.943,0.0
8.849,0.735,-0.94,0.0
11.983,0.99,-0.936,0.0
11.247,0.927,-0.942,0.0
10.481,0.862,-0.937,0.0
9.918,0.815,-0.944,0.0
9.346,0.766,-0.943,0.0
8.815,0.722,-0.939,0.0
11.968,0.974,-0.938,0.0
11.241,0.913,-0.945,0.0
10.465,0.849,-0.939,0.0
9.873,0.799,-0.943,0.0
9.341,0.755,-0.945,0.0
8.81,0.711,-0.941,0.0
11.91,0.955,-0.937,0.0
11.22,0.898,-0.946,0.0
10.444,0.834,-0.94,0.0
9.875,0.788,-0.946,0.0
9.27,0.738,-0.94,0.0
8.817,0.701,-0.944,0.0
11.846,0.936,-0.935,0.0
11.15,0.879,-0.943,0.0
10.423,0.82,-0.94,0.0
9.849,0.773,-0.945,0.0
9.261,0.726,-0.941,0.0
8.809,0.689,-0.945,0.0
11.854,0.922,-0.938,0.0
11.163,0.866,-0.946,0.0
10.399,0.805,-0.94,0.0
9.804,0.758,-0.943,0.0
9.273,0.715,-0.944,0.0
8.811,0.678,-0.947,0.0
11.823,0.904,-0.938,0.0
11.174,0.853,-0.949,0.0
10.421,0.794,-0.944,0.0
9.741,0.74,-0.938,0.0
9.306,0.706,-0.949,0.0
8.782,0.665,-0.945,0.0
11.804,0.888,-0.937,0.0
11.085,0.832,-0.943,0.0
10.399,0.779,-0.943,0.0
9.801,0.732,-0.945,0.0
9.281,0.692,-0.947,0.0
8.768,0.652,-0.944,0.0
11.78,0.871,-0.937,0.0
11.032,0.814,-0.939,0.0
10.393,0.765,-0.943,0.0
9.793,0.719,-0.945,0.0
9.279,0.68,-0.948,0.0
8.759,0.64,-0.944,0.0
11.784,0.856,-0.937,0.0
11.07,0.802,-0.943,0.0
10.379,0.75,-0.942,0.0
9.823,0.708,-0.948,0.0
9.252,0.665,-0.945,0.0
8.76,0.628,-0.944,0.0
11.796,0.841,-0.938,0.0
11.049,0.786,-0.941,0.0
10.403,0.738,-0.944,0.0
9.802,0.693,-0.946,0.0
9.278,0.655,-0.947,0.0
8.749,0.616,-0.942,0.0
11.831,0.828,-0.94,0.0
11.108,0.775,-0.945,0.0
10.436,0.726,-0.946,0.0
9.833,0.682,-0.948,0.0
9.272,0.642,-0.946,0.0
8.784,0.606,-0.945,0.0
11.815,0.81,-0.938,0.0
11.125,0.761,-0.945,0.0
10.42,0.711,-0.944,0.0
9.827,0.668,-0.946,0.0
9.292,0.63,-0.947,0.0
8.815,0.596,-0.948,0.0
11.827,0.795,-0.937,0.0
11.101,0.744,-0.942,0.0
10.407,0.696,-0.941,0.0
9.858,0.657,-0.947,0.0
9.332,0.62,-0.949,0.0
8.81,0.584,-0.946,0.0
11.879,0.782,-0.939,0.0
11.179,0.734,-0.946,0.0
10.446,0.684,-0.942,0.0
9.879,0.645,-0.947,0.0
9.337,0.608,-0.948,0.0
8.82,0.572,-0.945,0.0
11.908,0.768,-0.939,0.0
11.241,0.722,-0.949,0.0
10.48,0.671,-0.943,0.0
9.905,0.633,-0.948,0.0
9.339,0.595,-0.946,0.0
8.836,0.561,-0.944,0.0
11.945,0.753,-0.939,0.0
11.245,0.707,-0.946,0.0
10.492,0.658,-0.941,0.0
9.929,0.62,-0.947,0.0
9.362,0.583,-0.945,0.0
8.869,0.551,-0.945,0.0
12.01,0.741,-0.94,0.0
11.297,0.694,-0.947,0.0
10.549,0.646,-0.943,0.0
9.982,0.61,-0.949,0.0
9.433,0.574,-0.949,0.0
8.895,0.54,-0.945,0.0
12.055,0.727,-0.939,0.0
11.308,0.679,-0.944,0.0
10.57,0.633,-0.941,0.0
10.005,0.597,-0.947,0.0
9.458,0.562,-0.948,0.0
8.916,0.528,-0.943,0.0
12.127,0.714,-0.94,0.0
11.387,0.668,-0.946,0.0
10.606,0.62,-0.939,0.0
10.048,0.585,-0.947,0.0
9.494,0.551,-0.947,0.0
8.984,0.519,-0.947,0.0
12.201,0.701,-0.94,0.0
11.427,0.654,-0.944,0.0
10.711,0.611,-0.944,0.0
10.132,0.575,-0.95,0.0
9.523,0.539,-0.946,0.0
9.026,0.509,-0.947,0.0
12.296,0.689,-0.942,0.0
11.465,0.64,-0.941,0.0
10.732,0.596,-0.94,0.0
10.183,0.564,-0.95,0.0
9.579,0.528,-0.946,0.0
9.064,0.498,-0.946,0.0
12.407,0.677,-0.944,0.0
11.556,0.628,-0.942,0.0
10.851,0.588,-0.945,0.0
10.191,0.55,-0.945,0.0
9.647,0.518,-0.948,0.0
9.154,0.49,-0.95,0.0
12.47,0.663,-0.941,0.0
11.626,0.615,-0.941,0.0
10.985,0.579,-0.95,0.0
10.271,0.539,-0.946,0.0
9.71,0.508,-0.948,0.0
9.197,0.479,-0.949,0.0
12.6,0.652,-0.943,0.0
11.747,0.605,-0.944,0.0
11.051,0.567,-0.949,0.0
10.34,0.528,-0.946,0.0
9.801,0.499,-0.95,0.0
9.261,0.469,-0.949,0.0
12.717,0.64,-0.944,0.0
11.798,0.591,-0.94,0.0
11.088,0.553,-0.944,0.0
10.402,0.517,-0.944,0.0
9.863,0.488,-0.95,0.0
9.304,0.458,-0.947,0.0
12.836,0.628,-0.944,0.0
11.957,0.582,-0.944,0.0
11.251,0.545,-0.95,0.0
10.423,0.503,-0.939,0.0
9.955,0.478,-0.951,0.0
9.383,0.449,-0.948,0.0
12.998,0.617,-0.946,0.0
12.077,0.571,-0.945,0.0
11.259,0.53,-0.942,0.0
10.603,0.496,-0.947,0.0
10.041,0.468,-0.952,0.0
9.439,0.438,-0.946,0.0
13.148,0.606,-0.946,0.0
12.194,0.559,-0.944,0.0
11.401,0.52,-0.945,0.0
10.679,0.485,-0.945,0.0
10.128,0.458,-0.951,0.0
9.544,0.429,-0.949,0.0
13.291,0.594,-0.945,0.0
12.346,0.549,-0.946,0.0
11.511,0.509,-0.944,0.0
10.657,0.469,-0.934,0.0
10.202,0.447,-0.95,0.0
9.636,0.42,-0.95,0.0
13.424,0.581,-0.943,0.0
12.444,0.536,-0.942,0.0
11.598,0.497,-0.941,0.0
10.882,0.464,-0.943,0.0
10.306,0.437,-0.95,0.0
9.758,0.411,-0.953,0.0
13.575,0.568,-0.941,0.0
12.61,0.525,-0.943,0.0
11.78,0.488,-0.945,0.0
11.045,0.455,-0.947,0.0
10.418,0.427,-0.95,0.0
9.818,0.4,-0.949,0.0
0.0,0.0,0.0,0.0
12.848,0.517,-0.948,0.0
11.877,0.475,-0.941,0.0
11.166,0.444,-0.946,0.0
10.506,0.416,-0.948,0.0
9.926,0.391,-0.949,0.0
14.138,0.553,-0.953,0.0
13.019,0.506,-0.948,0.0
12.132,0.469,-0.949,0.0
11.331,0.435,-0.949,0.0
10.644,0.407,-0.949,0.0
10.055,0.382,-0.951,0.0
14.33,0.541,-0.951,0.0
13.2,0.495,-0.947,0.0
12.291,0.458,-0.948,0.0
11.427,0.423,-0.945,0.0
10.766,0.396,-0.948,0.0
10.176,0.372,-0.951,0.0
14.454,0.526,-0.943,0.0
13.319,0.481,-0.941,0.0
12.443,0.447,-0.946,0.0
11.581,0.413,-0.945,0.0
10.894,0.386,-0.947,0.0
10.288,0.363,-0.95,0.0
14.669,0.514,-0.941,0.0
13.461,0.468,-0.936,0.0
12.639,0.437,-0.947,0.0
11.7,0.402,-0.941,0.0
11.098,0.379,-0.952,0.0
10.405,0.353,-0.949,0.0
14.912,0.503,-0.939,0.0
13.855,0.464,-0.947,0.0
12.881,0.428,-0.95,0.0
11.981,0.396,-0.949,0.0
11.218,0.368,-0.949,0.0
10.561,0.344,-0.951,0.0
15.161,0.491,-0.937,0.0
14.251,0.458,-0.957,0.0
13.055,0.417,-0.947,0.0
12.175,0.386,-0.949,0.0
11.355,0.358,-0.947,0.0
10.692,0.334,-0.949,0.0
15.437,0.48,-0.935,0.0
14.432,0.445,-0.951,0.0
13.314,0.408,-0.949,0.0
12.342,0.376,-0.947,0.0
11.532,0.348,-0.947,0.0
10.941,0.328,-0.957,0.0
15.861,0.472,-0.94,0.0
14.629,0.433,-0.945,0.0
13.58,0.399,-0.95,0.0
12.586,0.367,-0.949,0.0
11.742,0.34,-0.949,0.0
11.097,0.319,-0.956,0.0
16.177,0.461,-0.937,0.0
14.888,0.421,-0.942,0.0
0.0,0.0,0.0,0.0
12.786,0.356,-0.947,0.0
11.965,0.331,-0.95,0.0
11.22,0.308,-0.951,0.0
16.484,0.45,-0.933,0.0
15.161,0.41,-0.939,0.0
14.126,0.379,-0.95,0.0
13.076,0.348,-0.951,0.0
12.189,0.322,-0.951,0.0
11.384,0.298,-0.949,0.0
16.809,0.438,-0.928,0.0
15.521,0.401,-0.94,0.0
14.444,0.37,-0.951,0.0
13.338,0.339,-0.951,0.0
12.406,0.313,-0.951,0.0
11.571,0.289,-0.948,0.0
17.06,0.424,-0.918,0.0
15.898,0.391,-0.94,0.0
14.695,0.359,-0.947,0.0
13.557,0.328,-0.947,0.0
12.661,0.304,-0.952,0.0
11.836,0.282,-0.953,0.0
17.76,0.42,-0.929,0.0
16.306,0.382,-0.94,0.0
14.977,0.348,-0.943,0.0
0.0,0.0,0.0,0.0
12.935,0.295,-0.953,0.0
12.068,0.273,-0.953,0.0
18.177,0.409,-0.924,0.0
16.619,0.37,-0.933,0.0
15.338,0.338,-0.942,0.0
14.261,0.312,-0.953,0.0
13.22,0.286,-0.954,0.0
12.302,0.264,-0.953,0.0
18.692,0.399,-0.922,0.0
17.023,0.359,-0.929,0.0
15.743,0.329,-0.943,0.0
14.549,0.301,-0.95,0.0
13.455,0.276,-0.95,0.0
12.578,0.256,-0.955,0.0
19.392,0.392,-0.926,0.0
17.486,0.35,-0.927,0.0
16.187,0.32,-0.944,0.0
14.843,0.291,-0.946,0.0
13.805,0.268,-0.952,0.0
12.837,0.246,-0.954,0.0
19.905,0.38,-0.919,0.0
18.117,0.342,-0.932,0.0
16.591,0.31,-0.941,0.0
15.255,0.282,-0.947,0.0
14.269,0.261,-0.961,0.0
13.136,0.238,-0.954,0.0
20.301,0.366,-0.904,2.0
18.633,0.332,-0.928,0.0
16.94,0.299,-0.933,0.0
15.565,0.271,-0.941,0.0
14.529,0.251,-0.955,0.0
13.409,0.229,-0.952,0.0
20.13,0.341,-0.863,10.0
19.855,0.333,-0.955,0.0
17.509,0.29,-0.935,0.0
16.115,0.264,-0.947,0.0
14.792,0.24,-0.947,0.0
13.688,0.219,-0.948,0.0
20.169,0.321,-0.83,5.0
20.209,0.318,-0.938,2.0
18.083,0.281,-0.934,0.0
16.487,0.253,-0.94,0.0
15.176,0.23,-0.945,0.0
14.17,0.213,-0.957,0.0
20.235,0.302,-0.798,4.0
20.272,0.299,-0.906,13.0
18.497,0.269,-0.924,3.0
16.877,0.243,-0.933,0.0
15.616,0.222,-0.945,0.0
14.519,0.204,-0.955,0.0
20.233,0.282,-0.763,25.0
20.173,0.278,-0.866,11.0
18.526,0.252,-0.893,2.0
17.664,0.237,-0.946,1.0
16.148,0.214,-0.949,0.0
14.834,0.194,-0.95,0.0
20.229,0.263,-0.727,27.0
20.195,0.259,-0.832,18.0
0.0,0.0,0.0,0.0
18.082,0.226,-0.936,3.0
16.534,0.204,-0.942,0.0
15.255,0.185,-0.949,0.0
20.211,0.244,-0.69,34.0
0.0,0.0,0.0,0.0
20.21,0.238,-0.901,7.0
18.497,0.214,-0.923,24.0
0.0,0.0,0.0,0.0
15.694,0.177,-0.948,0.0
20.203,0.226,-0.653,35.0
19.493,0.215,-0.732,18.0
18.547,0.202,-0.793,153.0
18.533,0.199,-0.891,40.0
17.999,0.19,-0.959,3.0
16.228,0.169,-0.95,0.0
20.201,0.209,-0.615,33.0
0.0,0.0,0.0,0.0
18.511,0.186,-0.757,159.0
18.549,0.183,-0.857,58.0
18.457,0.179,-0.949,3.0
16.625,0.159,-0.942,0.0
20.201,0.192,-0.578,27.0
0.0,0.0,0.0,0.0
18.532,0.171,-0.723,155.0
18.547,0.168,-0.822,153.0
18.515,0.165,-0.917,44.0
18.43,0.162,-1.009,8.0
20.205,0.176,-0.539,25.0
20.99,0.18,-0.669,19.0
18.578,0.156,-0.689,150.0
18.507,0.153,-0.785,162.0
18.538,0.151,-0.883,65.0
18.493,0.148,-0.977,2.0
20.214,0.16,-0.501,21.0
21.637,0.169,-0.648,10.0
21.598,0.165,-0.759,161.0
18.519,0.139,-0.749,155.0
18.542,0.137,-0.847,35.0
18.478,0.134,-0.94,14.0
20.215,0.146,-0.462,9.0
21.676,0.153,-0.607,1.0
21.617,0.15,-0.718,162.0
21.646,0.148,-0.834,150.0
18.563,0.124,-0.811,152.0
18.528,0.121,-0.906,23.0
20.205,0.131,-0.422,3.0
32.925,0.21,-0.858,0.0
21.685,0.136,-0.677,78.0
21.603,0.132,-0.789,162.0
21.629,0.13,-0.902,151.0
18.571,0.109,-0.871,4.0
20.204,0.118,-0.381,3.0
0.0,0.0,0.0,0.0
21.66,0.121,-0.633,3.0
21.611,0.118,-0.745,158.0
21.658,0.116,-0.86,73.0
20.241,0.106,-0.908,19.0
20.208,0.105,-0.34,4.0
0.0,0.0,0.0,0.0
32.707,0.162,-0.889,0.0
21.652,0.105,-0.703,19.0
21.687,0.103,-0.817,79.0
21.613,0.1,-0.926,150.0
20.214,0.093,-0.3,3.0
0.0,0.0,0.0,0.0
33.276,0.146,-0.838,0.0
0.0,0.0,0.0,0.0
21.654,0.09,-0.771,19.0
21.651,0.088,-0.883,27.0
20.244,0.081,-0.259,3.0
42.499,0.167,-0.764,1.0
0.0,0.0,0.0,0.0
31.22,0.116,-0.887,5.0
21.623,0.078,-0.726,0.0
21.638,0.076,-0.839,0.0
20.207,0.071,-0.218,6.0
0.0,0.0,0.0,0.0
37.939,0.126,-0.8,0.0
33.189,0.107,-0.875,4.0
20.208,0.063,-0.636,0.0
20.227,0.061,-0.742,0.0
20.22,0.061,-0.176,19.0
20.199,0.059,-0.279,0.0
20.235,0.057,-0.384,1.0
20.232,0.055,-0.491,3.0
20.241,0.054,-0.596,7.0
20.235,0.052,-0.7,10.0
20.253,0.051,-0.134,26.0
20.244,0.05,-0.238,41.0
20.251,0.048,-0.343,40.0
20.259,0.046,-0.449,37.0
20.246,0.045,-0.554,42.0
20.265,0.043,-0.659,59.0
20.269,0.043,-0.091,150.0
20.258,0.041,-0.196,151.0
20.264,0.04,-0.3,150.0
20.263,0.038,-0.407,150.0
20.27,0.037,-0.511,150.0
20.267,0.035,-0.616,150.0
20.264,0.035,-0.049,151.0
20.256,0.033,-0.153,151.0
20.272,0.032,-0.258,151.0
20.259,0.031,-0.364,151.0
20.262,0.03,-0.468,150.0
20.26,0.028,-0.573,150.0
20.254,0.028,-0.006,152.0
20.263,0.027,-0.11,152.0
20.253,0.025,-0.214,152.0
20.261,0.024,-0.321,150.0
20.274,0.023,-0.426,150.0
20.261,0.022,-0.53,150.0
20.247,0.021,0.036,150.0
20.26,0.02,-0.067,152.0
20.256,0.019,-0.171,151.0
20.264,0.018,-0.278,150.0
20.251,0.017,-0.382,150.0
20.256,0.016,-0.486,56.0
20.147,0.016,0.079,37.0
20.224,0.015,-0.024,154.0
20.267,0.014,-0.128,151.0
20.267,0.013,-0.234,85.0
20.267,0.012,-0.339,55.0
20.229,0.011,-0.442,14.0
20.127,0.011,0.122,30.0
20.274,0.01,0.019,150.0
20.268,0.009,-0.085,150.0
20.255,0.009,-0.191,36.0
20.236,0.008,-0.295,13.0
20.245,0.007,-0.399,8.0
20.132,0.007,0.165,29.0
20.144,0.006,0.061,29.0
20.242,0.006,-0.042,34.0
20.212,0.005,-0.148,17.0
20.235,0.004,-0.252,9.0
20.24,0.004,-0.356,5.0
20.123,0.003,0.207,28.0
20.126,0.003,0.104,30.0
20.222,0.002,0.0,18.0
20.204,0.002,-0.104,17.0
20.23,0.002,-0.208,8.0
20.242,0.001,-0.313,2.0
20.132,0.001,0.251,27.0
20.127,0.001,0.147,27.0
20.167,0.0,0.044,23.0
20.2,0.0,-0.061,18.0
20.204,0.0,-0.165,14.0
20.213,0.0,-0.269,6.0
20.128,0.0,0.294,28.0
20.117,0.0,0.191,28.0
20.122,0.0,0.087,31.0
20.185,-0.001,-0.017,17.0
20.181,-0.001,-0.121,18.0
20.234,-0.001,-0.225,2.0
20.122,-0.001,0.337,29.0
20.13,-0.001,0.234,26.0
20.123,-0.001,0.13,27.0
20.15,-0.001,0.025,15.0
20.211,-0.001,-0.078,17.0
20.196,-0.001,-0.182,10.0
20.135,-0.001,0.38,26.0
20.125,-0.001,0.277,26.0
20.109,-0.001,0.173,28.0
20.135,-0.001,0.068,31.0
20.198,-0.001,-0.035,16.0
20.189,-0.001,-0.139,17.0
20.134,-0.001,0.424,28.0
20.12,-0.001,0.32,28.0
20.131,0.0,0.217,26.0
20.122,0.0,0.111,29.0
20.196,0.0,0.007,14.0
20.218,0.0,-0.095,16.0
20.142,0.0,0.468,28.0
20.125,0.0,0.364,25.0
20.123,0.0,0.26,24.0
20.122,0.0,0.154,27.0
20.144,0.001,0.051,27.0
20.217,0.001,-0.051,18.0
20.158,0.001,0.512,24.0
20.141,0.002,0.407,26.0
20.117,0.002,0.303,26.0
20.128,0.003,0.198,27.0
20.122,0.003,0.094,31.0
20.253,0.004,-0.008,25.0
20.174,0.004,0.555,27.0
20.139,0.005,0.45,27.0
20.128,0.005,0.346,25.0
20.124,0.006,0.241,26.0
20.12,0.007,0.137,27.0
20.217,0.008,0.034,31.0
20.176,0.007,0.598,29.0
20.143,0.008,0.493,23.0
20.123,0.009,0.389,25.0
20.12,0.01,0.283,28.0
20.12,0.011,0.179,27.0
20.135,0.012,0.076,32.0
20.199,0.012,0.641,50.0
20.148,0.012,0.535,23.0
20.134,0.013,0.431,26.0
20.128,0.014,0.325,25.0
20.128,0.015,0.222,27.0
20.13,0.017,0.118,26.0
20.164,0.017,0.683,33.0
20.173,0.018,0.579,28.0
20.141,0.019,0.474,26.0
20.14,0.02,0.368,25.0
20.119,0.021,0.264,27.0
20.127,0.022,0.161,26.0
20.121,0.022,0.724,34.0
20.19,0.023,0.622,38.0
20.167,0.025,0.517,22.0
20.13,0.026,0.41,28.0
20.126,0.027,0.307,27.0
20.131,0.029,0.203,26.0
20.103,0.029,0.766,27.0
20.173,0.03,0.664,41.0
20.164,0.031,0.56,26.0
20.136,0.033,0.453,26.0
20.132,0.034,0.349,26.0
20.13,0.036,0.246,26.0
20.107,0.036,0.808,28.0
20.128,0.037,0.705,34.0
20.195,0.039,0.604,32.0
20.145,0.041,0.496,22.0
20.132,0.042,0.391,27.0
20.143,0.044,0.287,30.0
20.119,0.044,0.851,27.0
20.116,0.045,0.747,24.0
20.195,0.047,0.645,37.0
20.168,0.049,0.538,26.0
20.133,0.051,0.433,27.0
20.145,0.052,0.33,29.0
20.1,0.052,0.892,15.0
20.094,0.054,0.788,20.0
20.15,0.056,0.685,26.0
20.19,0.058,0.58,30.0
20.148,0.06,0.475,25.0
20.138,0.062,0.371,26.0
20.153,0.062,0.936,2.0
20.134,0.064,0.83,22.0
20.129,0.066,0.726,29.0
20.22,0.068,0.622,27.0
20.165,0.07,0.516,23.0
20.141,0.072,0.412,32.0
66.957,0.241,3.246,8.0
20.103,0.074,0.87,15.0
20.118,0.076,0.767,22.0
20.183,0.078,0.663,18.0
20.179,0.08,0.558,28.0
20.156,0.082,0.453,29.0
103.645,0.428,5.235,29.0
20.139,0.085,0.912,7.0
20.124,0.087,0.807,19.0
20.132,0.089,0.701,18.0
20.196,0.092,0.599,23.0
20.171,0.094,0.493,22.0
66.853,0.314,3.511,34.0
66.027,0.317,3.125,11.0
20.127,0.099,0.848,16.0
20.124,0.101,0.741,19.0
20.241,0.104,0.64,5.0
20.183,0.106,0.534,24.0
66.965,0.354,3.649,9.0
100.515,0.544,4.955,16.0
20.137,0.111,0.887,3.0
20.15,0.114,0.781,11.0
102.555,0.593,3.447,57.0
20.191,0.119,0.573,17.0
109.941,0.652,6.207,13.0
103.627,0.628,5.312,17.0
65.917,0.407,3.036,26.0
20.158,0.127,0.821,2.0
102.44,0.66,3.642,40.0
20.221,0.132,0.614,9.0
59.477,0.393,3.475,20.0
66.924,0.45,3.562,30.0
65.852,0.452,3.161,28.0
101.859,0.713,4.349,30.0
102.275,0.73,3.835,35.0
117.659,0.856,3.8,44.0
59.438,0.434,3.587,48.0
66.979,0.498,3.693,14.0
65.854,0.499,3.287,22.0
133.43,1.03,5.951,7.0
102.056,0.802,4.021,16.0
126.302,1.011,4.319,29.0
59.372,0.477,3.696,25.0
101.214,0.828,5.773,18.0
65.926,0.549,3.415,41.0
102.084,0.865,4.746,25.0
111.726,0.962,4.611,31.0
126.436,1.108,4.56,23.0
59.346,0.523,3.806,19.0
119.321,1.069,7.03,10.0
66.975,0.609,3.595,42.0
65.853,0.609,3.184,4.0
111.653,1.051,4.818,25.0
126.596,1.21,4.801,26.0
46.286,0.445,3.056,47.0
59.618,0.582,3.624,10.0
67.089,0.665,3.726,34.0
65.983,0.665,3.313,17.0
111.615,1.141,5.02,25.0
126.607,1.315,5.034,23.0
46.3,0.483,3.141,38.0
59.632,0.632,3.734,40.0
67.166,0.722,3.852,7.0
66.007,0.72,3.433,28.0
111.55,1.234,5.217,23.0
126.614,1.421,5.258,27.0
46.348,0.523,3.228,14.0
59.651,0.683,3.841,61.0
109.958,1.277,6.502,17.0
66.073,0.778,3.554,31.0
111.55,1.332,5.416,6.0
110.311,1.336,4.777,15.0
46.381,0.565,3.313,34.0
59.701,0.737,3.95,33.0
109.836,1.375,6.691,7.0
66.618,0.845,3.702,42.0
69.289,0.89,3.485,4.0
110.319,1.437,4.972,16.0
46.375,0.607,3.395,14.0
59.728,0.792,4.057,34.0
0.0,0.0,0.0,0.0
67.412,0.917,3.862,40.0
102.042,1.407,5.31,9.0
69.332,0.968,3.244,10.0
46.43,0.652,3.479,38.0
59.55,0.847,4.148,34.0
101.826,1.466,6.556,14.0
67.496,0.984,3.982,18.0
66.177,0.976,3.556,6.0
108.839,1.625,5.276,1.0
46.431,0.697,3.558,78.0
59.363,0.902,4.235,21.0
101.743,1.564,6.72,6.0
67.51,1.05,4.096,37.0
66.221,1.042,3.668,22.0
110.695,1.762,5.549,8.0
46.434,0.743,3.635,74.0
67.755,1.097,4.946,21.0
67.657,1.108,4.581,40.0
67.559,1.119,4.21,27.0
66.214,1.109,3.776,20.0
69.827,1.183,3.614,6.0
46.445,0.792,3.713,11.0
59.296,1.021,4.425,5.0
67.771,1.18,4.699,5.0
67.652,1.191,4.325,17.0
66.211,1.178,3.883,33.0
69.253,1.246,3.696,7.0
43.202,0.782,3.523,7.0
42.619,0.779,3.249,2.0
67.715,1.251,4.802,8.0
67.674,1.263,4.433,11.0
66.22,1.248,3.987,30.0
103.88,1.979,5.704,8.0
43.273,0.829,3.596,16.0
52.715,1.02,4.1,5.0
67.768,1.325,4.911,23.0
67.746,1.338,4.543,10.0
66.231,1.321,4.09,35.0
104.161,2.099,5.881,8.0
46.491,0.942,3.936,6.0
57.925,1.185,4.594,7.0
67.838,1.401,5.019,19.0
66.294,1.382,4.546,34.0
66.228,1.394,4.189,17.0
104.286,2.216,6.043,4.0
46.491,0.994,4.006,23.0
52.235,1.128,4.222,11.0
60.03,1.308,4.532,9.0
66.346,1.459,4.648,11.0
66.112,1.467,4.28,15.0
69.177,1.549,4.111,6.0
46.584,1.05,4.083,4.0
52.22,1.188,4.297,9.0
67.29,1.544,5.178,9.0
68.001,1.574,4.863,17.0
66.027,1.542,4.37,15.0
104.926,2.472,6.385,2.0
40.43,0.958,3.601,2.0
43.039,1.028,3.603,16.0
57.748,1.392,4.525,12.0
67.874,1.65,4.949,8.0
53.526,1.312,3.617,8.0
67.485,1.669,4.2,5.0
40.418,1.006,3.657,3.0
43.127,1.082,3.67,11.0
52.153,1.319,4.158,20.0
65.969,1.682,4.9,28.0
67.895,1.746,4.68,7.0
68.752,1.782,4.371,2.0
40.389,1.054,3.709,74.0
40.432,1.063,3.495,9.0
52.141,1.381,4.227,16.0
65.867,1.759,4.98,5.0
68.027,1.831,4.779,17.0
104.695,2.839,6.793,5.0
40.374,1.102,3.76,60.0
40.411,1.111,3.546,17.0
43.61,1.209,3.592,3.0
52.508,1.466,4.038,8.0
52.972,1.49,3.789,7.0
68.895,1.953,4.559,9.0
52.946,1.511,5.0,8.0
52.457,1.508,4.67,9.0
51.188,1.482,4.282,5.0
52.029,1.518,4.066,5.0
68.285,2.006,4.969,2.0
68.808,2.036,4.637,8.0
53.265,1.587,5.096,8.0
40.435,1.213,3.65,55.0
0.0,0.0,0.0,0.0
58.118,1.768,4.612,4.0
68.236,2.09,5.048,2.0
67.55,2.084,4.634,7.0
54.239,1.685,5.254,6.0
40.426,1.264,3.697,29.0
52.555,1.654,4.522,7.0
58.054,1.84,4.675,6.0
68.124,2.175,5.12,1.0
68.345,2.195,4.768,13.0
52.968,1.713,5.194,4.0
46.234,1.505,4.282,3.0
46.808,1.534,4.081,10.0
50.314,1.659,4.109,4.0
51.922,1.723,3.96,8.0
68.457,2.287,4.852,5.0
43.337,1.458,4.297,3.0
43.667,1.478,4.093,3.0
46.926,1.599,4.144,1.0
0.0,0.0,0.0,0.0
43.734,1.509,3.383,5.0
68.536,2.38,4.932,7.0
60.24,2.106,6.04,5.0
53.375,1.877,5.061,5.0
46.878,1.659,4.189,5.0
46.945,1.671,3.936,4.0
52.148,1.868,4.089,23.0
68.684,2.476,5.015,3.0
60.254,2.187,6.104,15.0
53.35,1.947,5.114,7.0
53.163,1.952,4.806,24.0
50.602,1.868,4.294,4.0
51.794,1.923,4.114,6.0
51.809,1.935,3.834,2.0
46.085,1.734,4.715,2.0
53.014,2.005,5.134,7.0
57.341,2.181,5.24,5.0
46.886,1.794,4.024,7.0
47.097,1.812,3.786,5.0
51.761,2.002,3.879,2.0
46.066,1.794,4.757,6.0
52.483,2.055,5.132,4.0
46.114,1.816,4.257,4.0
46.994,1.86,4.077,8.0
52.885,2.105,4.3,23.0
51.601,2.065,3.915,2.0
60.449,2.437,6.298,4.0
59.85,2.425,5.907,6.0
46.083,1.877,4.296,6.0
47.03,1.925,4.122,6.0
52.756,2.171,4.336,4.0
47.255,1.955,3.626,4.0
46.61,1.941,4.896,9.0
45.699,1.913,4.55,1.0
46.105,1.94,4.337,4.0
53.411,2.259,4.726,2.0
43.615,1.854,3.621,3.0
47.261,2.02,3.666,2.0
46.32,1.994,4.905,4.0
45.964,1.988,4.614,2.0
43.516,1.891,4.129,3.0
50.545,2.207,4.514,1.0
43.437,1.906,3.641,2.0
66.284,2.923,5.194,4.0
60.096,2.669,6.411,7.0
45.866,2.046,4.64,4.0
43.481,1.949,4.159,2.0
59.532,2.681,5.362,4.0
47.039,2.128,3.979,6.0
52.792,2.401,4.176,3.0
46.407,2.125,4.986,3.0
46.714,2.149,4.761,3.0
59.657,2.757,5.751,6.0
45.596,2.117,4.14,2.0
47.095,2.197,4.017,15.0
52.853,2.477,4.218,2.0
46.203,2.18,4.997,10.0
46.681,2.212,4.79,4.0
52.59,2.503,5.106,4.0
59.497,2.844,5.442,6.0
47.12,2.263,4.05,9.0
52.788,2.546,4.248,4.0
46.223,2.245,5.029,11.0
46.619,2.274,4.814,5.0
45.711,2.239,4.467,3.0
59.664,2.935,5.495,5.0
47.159,2.33,4.083,4.0
52.734,2.616,4.276,2.0
46.356,2.316,5.072,20.0
46.824,2.349,4.863,4.0
45.657,2.3,4.489,6.0
45.919,2.323,4.256,5.0
47.178,2.396,4.113,2.0
47.2,2.408,3.854,2.0
46.29,2.378,5.091,3.0
46.662,2.406,4.873,3.0
45.71,2.366,4.52,4.0
45.911,2.386,4.28,2.0
47.052,2.455,4.127,1.0
47.146,2.47,3.875,9.0
0.0,0.0,0.0,0.0
46.884,2.483,4.92,3.0
45.728,2.431,4.545,1.0
45.746,2.441,4.288,4.0
0.0,0.0,0.0,0.0
47.121,2.533,3.895,7.0
46.11,2.497,5.118,5.0
46.449,2.524,4.896,3.0
45.649,2.489,4.558,2.0
45.534,2.492,4.289,14.0
45.878,2.52,4.066,4.0
47.297,2.608,3.93,6.0
0.0,0.0,0.0,0.0
47.038,2.621,4.979,5.0
45.859,2.573,4.338,5.0
45.805,2.579,4.078,3.0
47.018,2.657,3.926,3.0
47.233,2.687,5.282,0.0
46.997,2.683,4.992,4.0
45.549,2.609,4.584,7.0
45.745,2.629,4.344,8.0
45.94,2.659,3.851,3.0
46.676,2.72,5.235,3.0
46.771,2.734,4.984,3.0
45.559,2.681,4.341,9.0
47.28,2.791,4.241,4.0
0.0,0.0,0.0,0.0
47.062,2.806,5.293,1.0
46.412,2.776,4.959,4.0
45.636,2.747,4.361,4.0
47.363,2.86,4.261,5.0
45.754,2.772,3.862,3.0
47.229,2.881,5.323,0.0
46.045,2.817,4.931,3.0
45.624,2.808,4.37,8.0
47.464,2.93,4.281,1.0
45.776,2.834,3.873,4.0
0.0,0.0,0.0,0.0
46.145,2.885,4.951,3.0
45.458,2.859,4.363,6.0
47.506,2.996,4.293,4.0
45.705,2.891,3.875,1.0
46.226,2.944,5.228,3.0
46.119,2.945,4.956,2.0
45.507,2.922,4.374,7.0
47.487,3.058,4.298,4.0
47.642,3.077,4.045,1.0
46.221,3.006,5.233,3.0
45.98,2.997,4.946,1.0
45.492,2.982,4.377,4.0
47.521,3.123,4.305,2.0
47.631,3.139,4.049,1.0
46.203,3.066,5.234,3.0
0.0,0.0,0.0,0.0
45.528,3.044,4.383,2.0
45.607,3.057,4.134,1.0
47.651,3.203,4.052,3.0
46.24,3.129,5.24,1.0
0.0,0.0,0.0,0.0
45.678,3.113,4.398,6.0
47.521,3.255,4.041,3.0
0.0,0.0,0.0,0.0
0.0,0.0,0.0,0.0
47.781,3.318,4.599,2.0
47.478,3.313,4.035,2.0
0.0,0.0,0.0,0.0
0.0,0.0,0.0,0.0
47.841,3.382,4.601,1.0
45.622,3.233,4.13,3.0
47.573,3.378,4.039,3.0
0.0,0.0,0.0,0.0
0.0,0.0,0.0,0.0
47.219,3.413,4.002,1.0
0.0,0.0,0.0,0.0
0.0,0.0,0.0,0.0
0.0,0.0,0.0,0.0
0.0,0.0,0.0,0.0
45.606,3.386,4.627,1.0
47.132,3.507,4.509,3.0
0.0,0.0,0.0,0.0
0.0,0.0,0.0,0.0
45.511,3.434,4.606,3.0
45.908,3.47,4.381,1.0
0.0,0.0,0.0,0.0
0.0,0.0,0.0,0.0
45.493,3.487,4.591,2.0
45.892,3.523,4.366,1.0
107.158,8.259,8.981,3.0
0.0,0.0,0.0,0.0
0.0,0.0,0.0,0.0
46.002,3.585,4.362,0.0
110.785,8.664,9.248,4.0
0.0,0.0,0.0,0.0
45.436,3.581,4.814,1.0
115.851,9.177,10.283,4.0
114.743,9.104,9.535,5.0
0.0,0.0,0.0,0.0
45.31,3.622,4.782,2.0
0.0,0.0,0.0,0.0
116.018,9.302,10.91,6.0
115.513,9.276,10.206,1.0
112.141,9.021,9.271,5.0
45.189,3.656,5.008,9.0
0.0,0.0,0.0,0.0
114.88,9.321,11.418,5.0
114.773,9.327,10.742,2.0
114.862,9.348,10.096,4.0
116.188,9.471,9.552,21.0
0.0,0.0,0.0,0.0
0.0,0.0,0.0,0.0
0.0,0.0,0.0,0.0
114.51,9.427,10.66,5.0
112.769,9.297,9.856,1.0
0.0,0.0,0.0,0.0
0.0,0.0,0.0,0.0
115.107,9.57,11.983,2.0
115.587,9.623,11.372,5.0
115.605,9.637,10.701,7.0
112.652,9.404,9.785,7.0
112.673,9.418,9.147,9.0
0.0,0.0,0.0,0.0
0.0,0.0,0.0,0.0
46.043,3.879,4.504,1.0
115.509,9.745,10.627,3.0
115.268,9.737,9.948,4.0
115.481,9.769,9.308,8.0
0.0,0.0,0.0,0.0
114.937,9.787,11.833,8.0
116.208,9.906,11.298,3.0
115.081,9.822,10.518,1.0
115.218,9.844,9.874,1.0
96.499,8.256,7.719,8.0
0.0,0.0,0.0,0.0
115.559,9.95,11.824,2.0
115.128,9.924,11.12,6.0
115.176,9.939,10.453,2.0
114.961,9.932,9.777,15.0
96.528,8.349,7.659,3.0
115.089,10.007,12.361,8.0
115.114,10.019,11.702,8.0
114.944,10.014,11.025,10.0
114.982,10.027,10.359,11.0
99.545,8.691,8.398,5.0
91.914,8.034,7.229,1.0
0.0,0.0,0.0,0.0
0.0,0.0,0.0,0.0
115.05,10.127,10.953,2.0
114.877,10.122,10.266,5.0
99.635,8.788,8.334,3.0
92.058,8.127,7.175,1.0
0.0,0.0,0.0,0.0
115.106,10.224,11.533,2.0
116.181,10.327,10.974,2.0
114.628,10.198,10.158,2.0
86.116,7.67,7.138,1.0
84.826,7.562,6.547,8.0
0.0,0.0,0.0,0.0
114.683,10.282,11.402,9.0
114.947,10.314,10.768,4.0
114.988,10.325,10.1,6.0
0.0,0.0,0.0,0.0
99.93,8.99,7.633,3.0
115.129,10.408,12.016,2.0
0.0,0.0,0.0,0.0
0.0,0.0,0.0,0.0
99.057,8.975,8.619,2.0
97.953,8.882,7.961,6.0
98.138,8.906,7.415,6.0
0.0,0.0,0.0,0.0
0.0,0.0,0.0,0.0
114.914,10.491,10.573,2.0
99.206,9.064,8.548,3.0
91.585,8.374,7.366,1.0
98.034,8.97,7.323,9.0
0.0,0.0,0.0,0.0
0.0,0.0,0.0,0.0
86.162,7.929,7.852,6.0
85.117,7.839,7.259,1.0
91.862,8.466,7.306,3.0
96.612,8.909,7.132,1.0
0.0,0.0,0.0,0.0
114.706,10.631,11.01,2.0
91.956,8.527,8.296,2.0
85.686,7.95,7.229,5.0
95.96,8.908,7.546,2.0
96.647,8.979,7.045,4.0
0.0,0.0,0.0,0.0
114.8,10.716,10.912,3.0
91.894,8.582,8.205,2.0
86.049,8.04,7.179,9.0
96.102,8.984,7.467,2.0
96.355,9.014,6.933,6.0
0.0,0.0,0.0,0.0
85.086,7.995,8.005,1.0
92.132,8.661,8.137,2.0
96.719,9.097,7.976,4.0
92.698,8.723,7.111,1.0
96.505,9.085,6.851,5.0
0.0,0.0,0.0,0.0
91.992,8.699,8.564,8.0
92.134,8.715,8.046,8.0
85.312,8.073,6.951,4.0
96.104,9.098,7.278,3.0
84.309,7.985,5.9,1.0
114.128,10.853,11.167,3.0
98.927,9.409,9.109,5.0
92.012,8.754,7.941,5.0
92.305,8.785,7.425,5.0
92.079,8.767,6.878,6.0
96.494,9.191,6.653,3.0
99.371,9.501,9.619,5.0
111.278,10.641,10.129,7.0
84.908,8.122,7.238,6.0
84.046,8.042,6.672,3.0
107.933,10.33,7.948,6.0
85.288,8.166,5.791,4.0
99.183,9.531,9.494,5.0
99.097,9.524,8.913,3.0
85.242,8.193,7.176,2.0
84.045,8.081,6.581,4.0
92.743,8.919,6.73,5.0
85.276,8.203,5.698,5.0
99.143,9.571,9.382,2.0
91.937,8.876,8.168,4.0
91.159,8.802,7.572,2.0
84.192,8.13,6.5,8.0
84.315,8.144,6.024,1.0
85.425,8.254,5.613,3.0
99.177,9.615,9.273,2.0
85.252,8.264,7.479,1.0
85.265,8.267,6.986,5.0
84.161,8.16,6.404,8.0
84.526,8.197,5.944,6.0
85.111,8.255,5.497,15.0
92.187,8.97,8.514,2.0
98.683,9.601,8.544,3.0
85.243,8.294,6.888,7.0
84.144,8.187,6.305,6.0
84.6,8.233,5.852,4.0
90.178,8.776,5.721,4.0
111.4,10.876,10.159,7.0
92.151,8.995,7.871,2.0
85.275,8.323,6.791,12.0
84.157,8.214,6.208,6.0
85.429,8.339,5.81,4.0
78.481,7.661,4.887,4.0
99.289,9.721,8.937,6.0
99.365,9.726,8.369,3.0
85.257,8.344,6.689,9.0
83.906,8.212,6.09,4.0
86.975,8.512,5.811,3.0
88.629,8.674,5.413,1.0
91.382,8.968,8.115,4.0
92.184,9.045,7.653,5.0
80.018,7.85,6.181,3.0
83.833,8.223,5.984,3.0
86.841,8.518,5.698,3.0
87.304,8.563,5.227,4.0
91.66,9.014,8.027,13.0
92.298,9.074,7.549,8.0
84.187,8.274,6.4,3.0
73.07,7.18,5.126,3.0
90.065,8.85,5.799,5.0
87.065,8.554,5.105,4.0
91.667,9.028,7.915,7.0
92.267,9.085,7.432,5.0
84.212,8.289,6.297,9.0
85.004,8.364,5.858,4.0
78.455,7.719,4.954,3.0
81.022,7.97,4.651,4.0
91.706,9.042,7.802,4.0
85.17,8.395,6.754,6.0
84.179,8.294,6.189,9.0
92.019,9.064,6.226,3.0
78.357,7.717,4.849,4.0
85.239,8.393,4.784,6.0
99.399,9.808,8.329,4.0
79.832,7.873,6.228,2.0
72.839,7.181,5.261,1.0
91.925,9.06,6.101,4.0
87.18,8.589,5.284,3.0
85.014,8.374,4.664,12.0
99.377,9.808,8.199,8.0
72.895,7.191,5.592,4.0
80.245,7.912,5.692,2.0
0.0,0.0,0.0,0.0
99.953,9.848,5.928,4.0
84.752,8.348,4.539,8.0
92.222,9.099,7.488,5.0
84.247,8.308,6.353,4.0
73.084,7.204,5.088,2.0
78.416,7.726,5.0,3.0
87.016,8.57,5.047,4.0
84.745,8.343,4.428,3.0
91.986,9.07,7.348,7.0
84.179,8.296,6.236,9.0
85.649,8.436,5.851,2.0
78.398,7.718,4.897,5.0
85.367,8.401,4.839,5.0
91.701,9.02,4.672,2.0
80.049,7.884,6.289,1.0
84.132,8.282,6.122,4.0
87.093,8.568,5.835,1.0
87.047,8.559,5.322,2.0
85.246,8.378,4.72,10.0
97.531,9.58,4.84,3.0
85.191,8.378,6.577,2.0
83.985,8.254,5.999,3.0
80.39,7.896,5.278,2.0
87.285,8.567,5.219,4.0
84.415,8.281,4.561,4.0
97.488,9.558,4.706,10.0
84.132,8.258,6.382,6.0
79.968,7.843,5.604,3.0
90.228,8.843,5.803,6.0
87.108,8.532,5.091,1.0
89.82,8.792,4.732,3.0
97.79,9.566,4.59,5.0
84.169,8.241,6.271,6.0
85.489,8.364,5.875,7.0
90.231,8.821,5.68,10.0
85.297,8.333,4.869,11.0
91.793,8.961,4.712,6.0
111.511,10.879,5.083,8.0
83.896,8.191,6.135,4.0
84.851,8.277,5.714,4.0
78.455,7.646,4.831,3.0
85.1,8.288,4.742,7.0
97.475,9.486,4.87,7.0
86.494,8.411,3.824,7.0
84.063,8.179,6.032,4.0
84.937,8.257,5.603,13.0
97.715,9.491,5.882,8.0
84.851,8.234,4.611,6.0
97.29,9.434,4.727,4.0
115.227,11.165,4.936,5.0
84.591,8.199,5.953,7.0
85.027,8.234,5.493,6.0
85.169,8.239,5.011,9.0
91.766,8.87,4.861,8.0
115.053,11.111,5.432,9.0
123.892,11.955,5.137,4.0
85.299,8.232,5.884,7.0
85.062,8.2,5.377,3.0
85.252,8.21,4.897,6.0
91.723,8.826,4.732,7.0
107.795,10.363,4.941,4.0
108.033,10.377,4.331,11.0
86.92,8.349,5.876,2.0
84.901,8.145,5.249,3.0
86.904,8.328,4.872,4.0
97.312,9.317,4.886,7.0
86.807,8.303,3.859,10.0
108.144,10.334,4.187,20.0
92.314,8.819,6.112,1.0
84.524,8.066,5.108,34.0
84.117,8.018,4.598,5.0
84.155,8.013,4.108,1.0
107.846,10.259,4.644,19.0
110.365,10.488,4.118,18.0
87.617,8.322,5.678,4.0
84.393,8.006,4.982,8.0
91.738,8.692,4.887,4.0
122.604,11.604,5.814,4.0
86.436,8.172,3.602,5.0
115.978,10.954,4.167,35.0
97.522,9.205,6.184,2.0
85.198,8.031,4.912,2.0
97.295,9.16,5.049,6.0
87.864,8.262,4.045,4.0
108.202,10.163,4.36,10.0
116.102,10.893,4.012,13.0
78.354,7.346,4.86,4.0
84.348,7.897,4.745,6.0
87.637,8.194,4.427,6.0
87.281,8.151,3.897,12.0
108.261,10.097,4.213,4.0
109.631,10.213,3.637,13.0
85.204,7.929,5.166,5.0
84.092,7.815,4.614,6.0
120.406,11.174,5.914,5.0
111.024,10.29,4.805,3.0
116.207,10.756,4.361,26.0
121.482,11.231,3.863,29.0
87.483,8.078,5.183,3.0
86.07,7.935,4.603,3.0
98.104,9.032,4.682,1.0
108.138,9.942,4.53,8.0
109.672,10.069,3.964,24.0
143.098,13.12,4.351,12.0
98.814,9.048,5.717,2.0
86.475,7.905,4.505,3.0
88.053,8.038,4.082,7.0
108.188,9.861,4.383,3.0
109.706,9.985,3.815,17.0
143.516,13.044,4.169,20.0
84.306,7.651,4.762,8.0
98.001,8.879,4.972,3.0
108.138,9.782,4.865,15.0
120.684,10.899,4.724,28.0
121.278,10.937,4.052,21.0
143.653,12.936,3.976,28.0
84.076,7.557,4.634,2.0
111.301,9.988,5.495,5.0
87.779,7.864,3.83,1.0
109.756,9.818,4.148,9.0
143.594,12.825,4.604,25.0
152.611,13.609,4.02,13.0
86.204,7.672,4.635,6.0
108.197,9.613,5.196,3.0
86.297,7.654,3.649,1.0
122.158,10.817,4.454,14.0
143.672,12.702,4.415,27.0
153.309,13.532,3.834,18.0
97.075,8.549,5.09,5.0
110.276,9.694,5.149,9.0
99.926,8.769,4.092,5.0
121.078,10.606,4.253,23.0
143.789,12.575,4.227,37.0
152.64,13.326,3.613,8.0
110.098,9.588,5.625,3.0
87.286,7.586,3.958,5.0
143.29,12.43,5.675,11.0
143.76,12.449,4.855,18.0
144.121,12.457,4.043,33.0
197.71,17.059,4.414,5.0
97.041,8.351,4.828,4.0
143.506,12.325,6.315,10.0
121.148,10.384,4.638,12.0
144.439,12.358,4.688,20.0
144.102,12.305,3.852,8.0
199.684,17.02,4.197,9.0
87.889,7.471,4.257,6.0
109.826,9.316,4.69,7.0
143.947,12.185,5.323,19.0
144.439,12.203,4.5,20.0
197.118,16.62,5.013,21.0
202.294,17.023,3.988,13.0
87.488,7.34,4.123,8.0
121.177,10.145,5.017,8.0
156.999,13.115,5.601,12.0
156.944,13.084,4.685,15.0
195.09,16.231,4.71,7.0
202.777,16.838,3.738,13.0
96.343,7.974,4.417,2.0
143.661,11.864,5.765,19.0
160.197,13.2,5.511,14.0
162.285,13.342,4.638,11.0
155.948,12.794,3.567,4.0
0.0,0.0,0.0,0.0
99.421,8.111,4.43,4.0
156.856,12.766,6.092,12.0
154.808,12.569,5.127,14.0
156.604,12.688,4.276,15.0
156.011,12.61,3.369,29.0
181.644,14.649,2.885,17.0
109.865,8.827,4.755,6.0
0.0,0.0,0.0,0.0
154.897,12.386,4.935,4.0
168.009,13.402,4.377,15.0
155.943,12.411,3.172,35.0
155.973,12.385,2.284,45.0
109.903,8.692,4.621,5.0
167.025,13.178,6.068,12.0
154.757,12.178,4.738,20.0
161.544,12.68,4.007,20.0
155.963,12.211,2.978,34.0
162.126,12.664,2.172,43.0
107.995,8.4,4.406,4.0
154.472,11.983,5.42,11.0
178.188,13.786,5.236,17.0
155.708,12.016,3.671,14.0
162.077,12.475,2.896,23.0
0.0,0.0,0.0,0.0
0.0,0.0,0.0,0.0
156.935,11.964,5.316,11.0
156.954,11.931,4.421,37.0
156.186,11.842,3.494,30.0
168.168,12.716,2.803,46.0
168.22,12.686,1.847,9.0
154.349,11.586,5.925,3.0
163.624,12.248,5.348,24.0
166.748,12.445,4.499,7.0
168.206,12.519,3.564,12.0
173.289,12.859,2.683,41.0
0.0,0.0,0.0,0.0
0.0,0.0,0.0,0.0
166.549,12.23,5.249,16.0
162.481,11.895,4.192,16.0
173.075,12.634,3.464,17.0
179.252,13.046,2.569,5.0
0.0,0.0,0.0,0.0
160.871,11.617,5.8,4.0
155.019,11.158,4.705,9.0
166.931,11.98,4.117,6.0
201.482,14.414,3.802,6.0
0.0,0.0,0.0,0.0
0.0,0.0,0.0,0.0
156.688,11.083,5.471,3.0
167.138,11.783,4.886,5.0
172.952,12.154,4.071,9.0
0.0,0.0,0.0,0.0
199.703,13.945,2.413,6.0
0.0,0.0,0.0,0.0
156.762,10.852,5.301,15.0
169.003,11.659,4.753,6.0
173.719,11.942,3.898,6.0
210.308,14.41,3.502,16.0
0.0,0.0,0.0,0.0
154.922,10.543,0.821,135.0
0.0,0.0,0.0,0.0
162.773,10.976,4.401,20.0
173.766,11.678,3.712,6.0
0.0,0.0,0.0,0.0
0.0,0.0,0.0,0.0
154.942,10.303,0.657,152.0
162.738,10.758,5.152,20.0
179.094,11.795,4.654,16.0
0.0,0.0,0.0,0.0
0.0,0.0,0.0,0.0
0.0,0.0,0.0,0.0
155.011,10.062,0.496,20.0
155.456,10.027,4.761,3.0
196.01,12.593,4.89,6.0
198.212,12.684,3.821,6.0
200.243,12.763,2.704,5.0
0.0,0.0,0.0,0.0
155.224,9.819,0.338,5.0
0.0,0.0,0.0,0.0
195.986,12.267,4.69,6.0
0.0,0.0,0.0,0.0
0.0,0.0,0.0,0.0
155.479,9.616,1.064,15.0
0.0,0.0,0.0,0.0
0.0,0.0,0.0,0.0
0.0,0.0,0.0,0.0
0.0,0.0,0.0,0.0
0.0,0.0,0.0,0.0
197.546,11.88,1.159,26.0
0.0,0.0,0.0,0.0
0.0,0.0,0.0,0.0
0.0,0.0,0.0,0.0
0.0,0.0,0.0,0.0
0.0,0.0,0.0,0.0
197.504,11.536,0.971,25.0
0.0,0.0,0.0,0.0
0.0,0.0,0.0,0.0
0.0,0.0,0.0,0.0
0.0,0.0,0.0,0.0
207.502,11.814,2.003,17.0
197.481,11.19,0.79,24.0
0.0,0.0,0.0,0.0
196.008,10.969,5.057,14.0
196.145,10.925,3.953,35.0
196.085,10.869,2.845,9.0
196.052,10.813,1.718,96.0
196.051,10.763,0.612,24.0
0.0,0.0,0.0,0.0
196.147,10.627,4.888,7.0
0.0,0.0,0.0,0.0
0.0,0.0,0.0,0.0
197.109,10.515,1.555,26.0
0.0,0.0,0.0,0.0
0.0,0.0,0.0,0.0
0.0,0.0,0.0,0.0
197.909,10.305,3.646,7.0
0.0,0.0,0.0,0.0
197.041,10.148,1.39,36.0
0.0,0.0,0.0,0.0
0.0,0.0,0.0,0.0
196.031,9.9,4.557,7.0
197.529,9.922,3.479,12.0
197.81,9.88,2.37,22.0
197.15,9.79,1.232,34.0
0.0,0.0,0.0,0.0
0.0,0.0,0.0,0.0
0.0,0.0,0.0,0.0
199.779,9.658,3.361,8.0
0.0,0.0,0.0,0.0
197.109,9.415,1.078,29.0
0.0,0.0,0.0,0.0
0.0,0.0,0.0,0.0
195.602,9.145,4.243,5.0
206.396,9.587,3.316,10.0
0.0,0.0,0.0,0.0
196.952,9.036,0.932,37.0
0.0,0.0,0.0,0.0
68.983,3.124,-0.448,3.0
195.465,8.768,4.1,24.0
195.503,8.712,3.003,37.0
195.539,8.658,1.906,57.0
195.546,8.598,0.788,33.0
0.0,0.0,0.0,0.0
68.987,2.992,-0.496,5.0
0.0,0.0,0.0,0.0
0.0,0.0,0.0,0.0
196.688,8.324,1.782,9.0
196.765,8.269,0.659,16.0
0.0,0.0,0.0,0.0
68.872,2.853,-0.541,0.0
0.0,0.0,0.0,0.0
203.893,8.292,2.857,16.0
196.551,7.932,1.652,22.0
0.0,0.0,0.0,0.0
0.0,0.0,0.0,0.0
0.0,0.0,0.0,0.0
195.059,7.607,3.705,5.0
195.096,7.548,2.613,20.0
195.179,7.492,1.521,26.0
0.0,0.0,0.0,0.0
0.0,0.0,0.0,0.0
0.0,0.0,0.0,0.0
202.973,7.511,3.734,5.0
196.109,7.195,2.511,8.0
196.354,7.143,1.416,32.0
0.0,0.0,0.0,0.0
0.0,0.0,0.0,0.0
0.0,0.0,0.0,0.0
195.175,6.833,3.482,24.0
0.0,0.0,0.0,0.0
196.287,6.747,1.308,34.0
0.0,0.0,0.0,0.0
0.0,0.0,0.0,0.0
0.0,0.0,0.0,0.0
195.153,6.439,3.379,17.0
0.0,0.0,0.0,0.0
196.2,6.346,1.207,32.0
0.0,0.0,0.0,0.0
0.0,0.0,0.0,0.0
0.0,0.0,0.0,0.0
194.995,6.037,3.281,6.0
201.718,6.178,2.269,35.0
196.067,5.942,1.112,37.0
0.0,0.0,0.0,0.0
73.133,2.169,-0.407,5.0
0.0,0.0,0.0,0.0
195.67,5.655,3.204,8.0
0.0,0.0,0.0,0.0
0.0,0.0,0.0,0.0
103.314,2.884,-0.045,1.0
0.0,0.0,0.0,0.0
0.0,0.0,0.0,0.0
200.495,5.379,3.198,12.0
0.0,0.0,0.0,0.0
100.544,2.632,0.484,1.0
0.0,0.0,0.0,0.0
0.0,0.0,0.0,0.0
0.0,0.0,0.0,0.0
195.019,4.83,3.036,21.0
0.0,0.0,0.0,0.0
100.126,2.412,0.445,2.0
100.127,2.379,-0.12,28.0
0.0,0.0,0.0,0.0
0.0,0.0,0.0,0.0
195.205,4.427,2.971,28.0
0.0,0.0,0.0,0.0
100.139,2.204,0.412,2.0
99.99,2.166,-0.153,4.0
0.0,0.0,0.0,0.0
0.0,0.0,0.0,0.0
199.555,4.108,2.976,19.0
102.972,2.084,0.964,5.0
99.872,1.986,0.381,7.0
0.0,0.0,0.0,0.0
0.0,0.0,0.0,0.0
0.0,0.0,0.0,0.0
194.899,3.6,2.852,4.0
0.0,0.0,0.0,0.0
99.777,1.775,0.354,5.0
0.0,0.0,0.0,0.0
0.0,0.0,0.0,0.0
0.0,0.0,0.0,0.0
195.173,3.194,2.81,8.0
0.0,0.0,0.0,0.0
99.656,1.562,0.331,6.0
0.0,0.0,0.0,0.0
0.0,0.0,0.0,0.0
0.0,0.0,0.0,0.0
195.324,2.785,2.773,17.0
0.0,0.0,0.0,0.0
99.614,1.349,0.312,6.0
0.0,0.0,0.0,0.0
0.0,0.0,0.0,0.0
20.194,0.252,-0.273,16.0
20.283,0.246,0.284,25.0
20.299,0.239,0.172,19.0
20.311,0.231,0.06,11.0
20.386,0.225,-0.053,0.0
20.196,0.216,-0.164,4.0
20.188,0.209,-0.276,27.0
20.289,0.202,0.282,30.0
20.314,0.195,0.17,29.0
20.312,0.188,0.058,30.0
20.203,0.18,-0.055,20.0
20.173,0.172,-0.166,18.0
20.174,0.165,-0.277,35.0
20.184,0.157,0.278,25.0
20.185,0.15,0.167,24.0
20.189,0.143,0.056,26.0
20.187,0.136,-0.056,28.0
20.184,0.129,-0.167,31.0
20.198,0.122,-0.279,27.0
20.162,0.114,0.277,29.0
20.15,0.107,0.166,26.0
20.194,0.1,0.055,35.0
20.191,0.093,-0.057,29.0
20.199,0.086,-0.168,27.0
20.234,0.079,-0.28,0.0
20.143,0.071,0.276,28.0
20.142,0.064,0.166,27.0
20.194,0.057,0.055,17.0
20.236,0.05,-0.057,17.0
20.264,0.043,-0.168,150.0
20.269,0.035,-0.28,150.0
20.125,0.027,0.277,29.0
20.131,0.02,0.166,27.0
20.217,0.013,0.056,52.0
20.256,0.006,-0.056,39.0
20.188,0.0,-0.167,11.0
20.17,-0.007,-0.277,7.0
20.13,-0.015,0.278,26.0
20.113,-0.022,0.167,32.0
20.133,-0.029,0.057,41.0
20.126,-0.036,-0.054,30.0
20.147,-0.044,-0.165,34.0
20.144,-0.051,-0.275,27.0
20.117,-0.058,0.28,30.0
20.12,-0.065,0.17,28.0
20.137,-0.072,0.059,35.0
20.139,-0.08,-0.052,29.0
20.144,-0.087,-0.162,34.0
20.131,-0.094,-0.272,37.0
20.143,-0.101,0.283,26.0
20.125,-0.108,0.172,20.0
20.153,-0.115,0.062,29.0
20.173,-0.123,-0.049,21.0
20.147,-0.13,-0.159,18.0
20.144,-0.138,-0.269,28.0
20.227,-0.145,0.288,18.0
58.334,-0.439,0.511,18.0
56.248,-0.444,0.185,1.0
53.33,-0.44,-0.12,10.0
56.502,-0.487,-0.436,2.0
44.919,-0.404,-0.592,29.0
53.39,-0.496,0.771,12.0
64.325,-0.623,0.578,139.0
56.143,-0.564,0.198,4.0
56.208,-0.584,-0.114,2.0
59.476,-0.64,-0.445,5.0
44.85,-0.499,-0.58,35.0
20.153,-0.23,0.296,10.0
20.157,-0.238,0.186,10.0
59.557,-0.724,0.225,11.0
59.531,-0.746,-0.104,26.0
56.614,-0.73,-0.408,13.0
44.972,-0.596,-0.569,30.0
20.131,-0.273,0.301,12.0
20.121,-0.28,0.191,14.0
20.149,-0.288,0.082,24.0
20.122,-0.295,-0.029,6.0
59.288,-0.89,-0.409,15.0
44.987,-0.692,-0.555,33.0
20.175,-0.316,0.308,1.0
20.14,-0.323,0.198,5.0
20.142,-0.33,0.089,28.0
20.122,-0.337,-0.022,28.0
52.95,-0.906,-0.347,37.0
44.976,-0.786,-0.539,34.0
192.877,-3.429,3.02,19.0
53.032,-0.961,0.542,2.0
52.978,-0.98,0.253,26.0
52.952,-0.998,-0.039,45.0
45.645,-0.878,-0.281,21.0
45.081,-0.883,-0.523,20.0
45.678,-0.908,0.733,23.0
38.388,-0.777,0.407,13.0
38.381,-0.79,0.199,51.0
38.354,-0.803,-0.012,32.0
40.45,-0.862,-0.232,3.0
40.444,-0.877,-0.452,26.0
40.414,-0.888,0.666,72.0
40.41,-0.902,0.447,62.0
40.41,-0.916,0.227,44.0
40.404,-0.931,0.004,38.0
40.407,-0.946,-0.214,37.0
0.0,0.0,0.0,0.0
40.444,-0.972,0.685,27.0
40.436,-0.986,0.466,21.0
38.738,-0.959,0.237,13.0
38.714,-0.973,0.023,31.0
38.708,-0.987,-0.185,36.0
38.712,-1.0,-0.395,49.0
38.673,-1.009,0.675,66.0
38.663,-1.022,0.465,69.0
38.644,-1.036,0.256,69.0
38.626,-1.049,0.043,68.0
38.641,-1.064,-0.165,69.0
38.662,-1.078,-0.374,50.0
38.651,-1.087,0.695,84.0
38.645,-1.101,0.486,93.0
38.642,-1.115,0.277,74.0
38.624,-1.128,0.064,73.0
38.642,-1.143,-0.143,67.0
38.634,-1.156,-0.352,54.0
38.651,-1.166,0.717,82.0
38.632,-1.179,0.508,67.0
38.657,-1.193,0.3,64.0
38.661,-1.207,0.087,64.0
38.698,-1.222,-0.121,58.0
38.671,-1.234,-0.329,45.0
38.67,-1.243,0.74,45.0
38.732,-1.258,0.533,20.0
38.777,-1.273,0.324,6.0
80.397,-2.669,0.231,22.0
81.027,-2.718,-0.203,9.0
54.113,-1.834,-0.427,2.0
151.007,-5.152,2.988,4.0
84.288,-2.905,1.214,30.0
80.447,-2.801,0.725,12.0
80.385,-2.826,0.283,28.0
81.094,-2.88,-0.15,28.0
31.4,-1.126,-0.227,0.0
31.306,-1.13,0.64,48.0
31.301,-1.14,0.472,45.0
31.294,-1.151,0.303,48.0
31.267,-1.161,0.132,43.0
31.282,-1.173,-0.036,71.0
31.292,-1.184,-0.204,42.0
28.449,-1.083,0.602,28.0
28.467,-1.093,0.449,63.0
28.458,-1.103,0.296,66.0
28.448,-1.112,0.14,67.0
28.44,-1.122,-0.011,74.0
28.442,-1.132,-0.164,90.0
28.435,-1.137,0.623,150.0
28.446,-1.147,0.47,128.0
28.444,-1.157,0.317,141.0
28.442,-1.167,0.162,108.0
28.449,-1.177,0.009,122.0
28.454,-1.187,-0.143,131.0
28.445,-1.192,0.645,77.0
28.449,-1.202,0.492,64.0
28.452,-1.211,0.34,63.0
28.449,-1.221,0.184,61.0
28.473,-1.231,0.032,57.0
31.21,-1.36,-0.132,23.0
31.326,-1.372,0.735,21.0
31.278,-1.38,0.566,32.0
31.255,-1.389,0.398,29.0
31.238,-1.399,0.228,40.0
31.227,-1.409,0.06,45.0
31.232,-1.42,-0.106,49.0
84.909,-3.877,2.064,36.0
84.998,-3.91,1.611,9.0
83.048,-3.847,1.13,38.0
79.918,-3.729,0.651,25.0
79.902,-3.754,0.223,5.0
31.306,-1.481,-0.079,9.0
84.726,-4.025,2.132,38.0
84.729,-4.051,1.679,20.0
82.964,-3.995,1.2,40.0
79.985,-3.877,0.721,7.0
0.0,0.0,0.0,0.0
0.0,0.0,0.0,0.0
84.65,-4.174,2.206,36.0
84.663,-4.202,1.754,37.0
82.925,-4.142,1.274,25.0
0.0,0.0,0.0,0.0
66.604,-3.37,0.305,1.0
66.633,-3.393,-0.05,1.0
84.697,-4.328,2.285,39.0
84.92,-4.366,1.838,50.0
86.116,-4.455,1.403,16.0
0.0,0.0,0.0,0.0
0.0,0.0,0.0,0.0
0.0,0.0,0.0,0.0
84.42,-4.463,2.357,44.0
83.965,-4.465,1.897,45.0
85.947,-4.598,1.483,6.0
0.0,0.0,0.0,0.0
65.702,-3.556,0.427,1.0
65.563,-3.57,0.077,13.0
84.069,-4.592,2.431,43.0
83.513,-4.586,1.969,37.0
24.629,-1.36,0.449,3.0
24.588,-1.366,0.315,23.0
24.565,-1.372,0.184,27.0
24.565,-1.38,0.053,36.0
24.607,-1.386,0.736,22.0
24.579,-1.392,0.604,23.0
24.583,-1.4,0.474,40.0
24.565,-1.406,0.34,44.0
24.534,-1.412,0.209,38.0
24.521,-1.418,0.078,43.0
24.579,-1.426,0.761,71.0
24.575,-1.433,0.63,78.0
24.548,-1.438,0.498,64.0
24.537,-1.445,0.365,59.0
24.53,-1.452,0.235,57.0
24.518,-1.459,0.104,59.0
24.521,-1.463,0.785,68.0
24.55,-1.472,0.655,74.0
24.541,-1.479,0.524,74.0
24.544,-1.486,0.392,78.0
24.525,-1.492,0.261,69.0
24.521,-1.499,0.131,55.0
24.497,-1.501,0.811,68.0
24.53,-1.51,0.681,59.0
24.538,-1.518,0.551,75.0
24.538,-1.525,0.418,76.0
24.529,-1.531,0.288,55.0
24.513,-1.537,0.158,45.0
24.478,-1.539,0.837,61.0
24.517,-1.548,0.708,70.0
24.541,-1.557,0.579,53.0
24.541,-1.564,0.446,57.0
24.542,-1.571,0.316,40.0
24.537,-1.578,0.186,43.0
24.473,-1.577,0.865,61.0
24.523,-1.587,0.737,63.0
24.548,-1.596,0.607,44.0
24.578,-1.604,0.475,33.0
24.568,-1.61,0.345,25.0
65.569,-4.317,0.573,21.0
24.491,-1.616,0.894,42.0
24.528,-1.624,0.765,40.0
24.566,-1.634,0.636,22.0
24.61,-1.643,0.504,12.0
65.852,-4.416,1.002,2.0
65.605,-4.417,0.65,150.0
24.511,-1.654,0.924,15.0
24.558,-1.663,0.795,17.0
82.554,-5.614,2.237,29.0
83.15,-5.676,1.804,32.0
0.0,0.0,0.0,0.0
65.569,-4.511,0.729,1.0
24.575,-1.693,0.955,24.0
83.096,-5.748,2.791,36.0
82.638,-5.738,2.338,29.0
82.71,-5.764,1.895,45.0
82.957,-5.803,1.461,1.0
65.475,-4.597,0.806,0.0
82.833,-5.826,3.323,35.0
83.03,-5.861,2.89,44.0
82.749,-5.862,2.443,58.0
82.554,-5.868,1.992,45.0
82.941,-5.917,1.563,13.0
0.0,0.0,0.0,0.0
82.754,-5.935,3.421,33.0
83.105,-5.98,2.995,39.0
82.948,-5.989,2.551,55.0
82.425,-5.971,2.091,41.0
83.017,-6.034,1.667,36.0
65.76,-4.796,0.973,0.0
82.982,-6.064,3.536,35.0
82.783,-6.068,3.089,47.0
82.916,-6.097,2.655,49.0
82.451,-6.083,2.196,29.0
82.863,-6.132,1.769,40.0
82.967,-6.16,1.334,6.0
83.416,-6.204,3.66,17.0
82.772,-6.174,3.194,34.0
82.737,-6.191,2.755,39.0
82.628,-6.202,2.306,41.0
82.686,-6.225,1.871,45.0
83.152,-6.279,1.444,17.0
86.265,-6.526,3.898,21.0
82.624,-6.269,3.296,29.0
82.593,-6.285,2.858,42.0
82.41,-6.288,2.408,35.0
82.465,-6.311,1.973,46.0
82.6,-6.34,1.541,27.0
85.162,-6.548,3.959,12.0
82.798,-6.383,3.411,20.0
82.502,-6.378,2.962,41.0
82.404,-6.387,2.516,41.0
82.29,-6.396,2.077,44.0
82.663,-6.444,1.651,43.0
83.303,-6.504,3.983,19.0
83.655,-6.548,3.557,35.0
82.344,-6.462,3.065,38.0
82.488,-6.49,2.628,47.0
82.161,-6.482,2.184,41.0
82.635,-6.537,1.76,47.0
83.177,-6.59,4.088,34.0
83.878,-6.662,3.678,34.0
82.589,-6.576,3.186,36.0
82.488,-6.584,2.738,55.0
82.389,-6.592,2.3,38.0
82.456,-6.615,1.868,41.0
83.093,-6.677,4.196,33.0
83.932,-6.76,3.795,27.0
82.814,-6.685,3.307,37.0
82.335,-6.662,2.845,37.0
82.637,-6.702,2.42,51.0
82.357,-6.696,1.978,36.0
83.253,-6.78,4.318,36.0
83.447,-6.81,3.888,39.0
82.903,-6.781,3.424,41.0
82.073,-6.728,2.949,49.0
82.268,-6.759,2.523,40.0
82.516,-6.794,2.095,38.0
83.657,-6.9,4.455,42.0
83.384,-6.89,4.0,41.0
82.338,-6.818,3.515,28.0
81.954,-6.801,3.058,41.0
82.243,-6.839,2.635,41.0
82.719,-6.893,2.214,59.0
83.827,-6.997,4.58,37.0
83.327,-6.969,4.113,37.0
82.496,-6.913,3.636,18.0
81.999,-6.885,3.174,44.0
82.21,-6.915,2.748,44.0
82.368,-6.943,2.32,41.0
83.867,-7.081,4.7,36.0
83.218,-7.039,4.224,42.0
0.0,0.0,0.0,0.0
82.142,-6.972,3.294,37.0
82.144,-6.986,2.861,47.0
82.174,-7.001,2.43,43.0
83.942,-7.164,4.822,25.0
83.103,-7.104,4.335,40.0
82.944,-7.101,3.888,44.0
81.877,-7.022,3.398,37.0
82.29,-7.07,2.982,32.0
82.406,-7.092,2.552,40.0
83.67,-7.213,4.924,22.0
83.132,-7.177,4.452,35.0
82.864,-7.165,4.001,36.0
81.725,-7.078,3.507,40.0
82.234,-7.133,3.095,43.0
82.307,-7.151,2.664,39.0
84.253,-7.332,5.078,18.0
83.287,-7.259,4.579,32.0
82.989,-7.243,4.124,35.0
81.812,-7.15,3.626,35.0
81.888,-7.167,3.197,46.0
82.228,-7.208,2.777,39.0
84.832,-7.449,5.234,17.0
83.414,-7.334,4.703,37.0
82.957,-7.303,4.24,38.0
82.064,-7.234,3.753,43.0
81.689,-7.211,3.305,37.0
82.195,-7.266,2.892,36.0
84.372,-7.471,5.324,30.0
83.612,-7.412,4.834,39.0
83.285,-7.392,4.375,39.0
82.2,-7.304,3.875,37.0
81.641,-7.264,3.418,39.0
82.128,-7.316,3.006,39.0
84.619,-7.552,5.461,16.0
84.094,-7.512,4.982,32.0
83.536,-7.471,4.507,39.0
82.528,-7.389,4.008,53.0
81.881,-7.339,3.545,30.0
81.823,-7.342,3.111,38.0
85.591,-7.694,5.645,18.0
84.13,-7.57,5.104,38.0
83.695,-7.537,4.634,40.0
82.241,-7.414,4.111,32.0
81.786,-7.381,3.657,42.0
81.636,-7.375,3.22,37.0
85.69,-7.755,5.776,29.0
84.102,-7.618,5.224,34.0
83.275,-7.549,4.731,36.0
82.5,-7.486,4.243,32.0
81.905,-7.438,3.781,40.0
81.673,-7.424,3.339,35.0
85.857,-7.819,5.91,12.0
84.283,-7.68,5.355,27.0
83.28,-7.595,4.851,40.0
83.332,-7.606,4.404,31.0
81.956,-7.487,3.899,34.0
81.7,-7.47,3.456,37.0
113.15,-10.363,7.95,27.0
84.679,-7.76,5.501,19.0
83.463,-7.653,4.98,33.0
83.576,-7.669,4.536,48.0
82.069,-7.536,4.021,32.0
81.732,-7.511,3.573,37.0
112.999,-10.404,8.101,29.0
85.771,-7.9,5.695,22.0
83.934,-7.735,5.128,30.0
83.269,-7.679,4.639,40.0
82.529,-7.615,4.162,47.0
81.954,-7.566,3.7,40.0
112.929,-10.446,8.258,25.0
86.176,-7.974,5.843,14.0
84.634,-7.834,5.291,39.0
83.261,-7.711,4.756,42.0
82.515,-7.645,4.277,31.0
82.186,-7.619,3.825,29.0
112.863,-10.483,8.414,24.0
113.59,-10.554,7.864,21.0
84.905,-7.891,5.428,30.0
83.377,-7.751,4.88,38.0
0.0,0.0,0.0,0.0
82.236,-7.652,3.942,35.0
112.944,-10.528,8.579,20.0
113.272,-10.562,8.001,25.0
0.0,0.0,0.0,0.0
83.468,-7.787,5.002,37.0
83.279,-7.771,4.549,47.0
82.091,-7.662,4.05,31.0
112.516,-10.522,8.704,30.0
112.893,-10.558,8.132,22.0
86.604,-8.101,5.778,13.0
83.462,-7.808,5.117,20.0
83.282,-7.793,4.664,37.0
82.057,-7.68,4.162,30.0
112.121,-10.513,8.829,35.0
112.731,-10.571,8.276,27.0
113.647,-10.657,7.739,11.0
0.0,0.0,0.0,0.0
83.384,-7.82,4.785,40.0
81.881,-7.68,4.265,33.0
112.155,-10.541,8.987,30.0
113.025,-10.62,8.455,23.0
113.43,-10.658,7.882,21.0
85.025,-7.989,5.447,17.0
83.452,-7.841,4.903,37.0
81.897,-7.695,4.378,15.0
112.34,-10.576,9.157,20.0
112.612,-10.6,8.579,25.0
110.044,-10.356,7.797,18.0
86.467,-8.136,5.658,14.0
83.452,-7.852,5.017,26.0
83.189,-7.826,4.559,40.0
120.743,-11.382,10.005,9.0
112.17,-10.57,8.696,33.0
110.115,-10.374,7.95,16.0
86.557,-8.153,5.779,10.0
83.444,-7.858,5.128,16.0
83.296,-7.842,4.677,36.0
112.314,-10.596,9.459,17.0
112.052,-10.567,8.839,40.0
112.815,-10.635,8.298,20.0
86.715,-8.172,5.907,4.0
0.0,0.0,0.0,0.0
83.426,-7.857,4.795,37.0
112.413,-10.609,9.619,13.0
112.076,-10.573,8.991,28.0
113.005,-10.655,8.462,23.0
113.402,-10.688,7.876,12.0
84.952,-8.003,5.448,10.0
83.461,-7.859,4.908,31.0
110.789,-10.455,9.627,24.0
112.266,-10.588,9.154,18.0
112.645,-10.617,8.584,27.0
110.038,-10.366,7.786,22.0
86.491,-8.144,5.659,13.0
83.448,-7.854,5.016,24.0
110.857,-10.455,9.78,29.0
120.689,-11.374,10.001,10.0
112.204,-10.568,8.697,35.0
110.104,-10.364,7.935,12.0
86.625,-8.149,5.78,11.0
83.424,-7.843,5.121,18.0
110.87,-10.445,9.923,17.0
112.335,-10.575,9.452,17.0
112.062,-10.542,8.828,36.0
112.725,-10.597,8.267,27.0
113.637,-10.675,7.727,9.0
0.0,0.0,0.0,0.0
118.57,-11.154,10.763,9.0
112.274,-10.553,9.588,15.0
112.23,-10.541,8.982,29.0
112.945,-10.599,8.424,27.0
113.462,-10.639,7.855,22.0
84.921,-7.957,5.425,13.0
117.442,-11.027,10.807,7.0
111.706,-10.479,9.679,22.0
112.382,-10.533,9.135,21.0
112.868,-10.569,8.557,23.0
113.35,-10.604,7.987,23.0
0.0,0.0,0.0,0.0
24.559,-2.3,2.29,6.0
111.967,-10.477,9.84,23.0
120.831,-11.295,9.969,11.0
112.582,-10.514,8.672,25.0
112.955,-10.539,8.095,25.0
86.589,-8.072,5.742,13.0
24.558,-2.294,2.32,41.0
112.158,-10.465,9.992,23.0
120.861,-11.264,10.117,18.0
112.427,-10.467,8.795,29.0
112.825,-10.493,8.22,22.0
86.636,-8.05,5.847,12.0
24.546,-2.285,2.348,59.0
112.203,-10.434,10.128,8.0
120.561,-11.198,10.233,13.0
112.421,-10.431,8.925,36.0
112.867,-10.46,8.355,22.0
113.688,-10.524,7.806,19.0
24.555,-2.278,2.377,76.0
24.566,-2.276,2.246,11.0
120.02,-11.105,10.326,4.0
112.372,-10.384,9.052,22.0
