X,Y,Z,Reflectivity
53.809,-4.431,-0.346,6.0
45.422,-3.728,-0.54,3.0
35.547,-2.906,-0.613,2.0
30.208,-2.461,-0.683,8.0
79.45,-6.467,0.411,32.0
80.039,-6.491,-0.014,34.0
54.511,-4.404,-0.302,4.0
45.933,-3.697,-0.505,20.0
36.417,-2.92,-0.596,2.0
30.641,-2.448,-0.666,5.0
79.378,-6.336,0.48,19.0
82.249,-6.538,0.056,1.0
61.441,-4.866,-0.287,4.0
46.864,-3.697,-0.475,21.0
39.385,-3.095,-0.611,2.0
31.142,-2.438,-0.65,2.0
61.826,-4.834,0.427,0.0
61.539,-4.792,0.094,9.0
61.668,-4.782,-0.236,25.0
0.0,0.0,0.0,0.0
40.224,-3.094,-0.59,2.0
32.362,-2.479,-0.648,1.0
65.642,-5.024,0.507,1.0
65.547,-4.995,0.154,255.0
66.136,-5.018,-0.199,2.0
49.687,-3.755,-0.421,23.0
40.415,-3.041,-0.56,1.0
33.786,-2.531,-0.65,2.0
65.622,-4.912,0.56,11.0
65.519,-4.882,0.206,221.0
66.229,-4.913,-0.147,2.0
53.446,-3.947,-0.411,9.0
43.52,-3.201,-0.569,1.0
34.136,-2.499,-0.63,2.0
65.599,-4.797,0.61,6.0
65.582,-4.774,0.257,1.0
65.751,-4.764,-0.096,1.0
53.594,-3.866,-0.372,7.0
46.201,-3.317,-0.569,1.0
34.857,-2.491,-0.618,2.0
65.541,-4.679,0.658,1.0
65.536,-4.656,0.305,1.0
65.681,-4.645,-0.048,1.0
56.725,-3.993,-0.353,20.0
46.739,-3.274,-0.543,11.0
36.087,-2.516,-0.614,2.0
65.589,-4.567,0.705,7.0
65.556,-4.542,0.351,6.0
65.584,-4.522,-0.003,0.0
57.749,-3.962,-0.319,10.0
49.459,-3.377,-0.541,3.0
24.626,-1.673,-0.402,0.0
65.505,-4.444,0.748,1.0
65.552,-4.424,0.394,150.0
24.6,-1.652,0.015,0.0
24.57,-1.641,-0.12,12.0
24.532,-1.631,-0.252,18.0
24.536,-1.622,-0.385,42.0
24.567,-1.622,0.296,26.0
24.546,-1.612,0.163,29.0
24.564,-1.605,0.03,34.0
24.534,-1.594,-0.104,43.0
24.517,-1.585,-0.236,40.0
24.518,-1.576,-0.369,54.0
24.546,-1.576,0.311,43.0
24.517,-1.565,0.178,41.0
24.533,-1.557,0.045,55.0
24.516,-1.548,-0.089,68.0
24.494,-1.538,-0.222,40.0
24.513,-1.531,-0.355,77.0
24.539,-1.529,0.325,78.0
24.512,-1.519,0.192,44.0
24.521,-1.511,0.059,64.0
24.524,-1.502,-0.076,82.0
24.505,-1.493,-0.208,67.0
24.503,-1.484,-0.341,57.0
24.548,-1.484,0.338,78.0
24.528,-1.473,0.205,59.0
24.528,-1.465,0.072,60.0
24.528,-1.456,-0.062,69.0
24.518,-1.447,-0.196,61.0
24.514,-1.438,-0.328,74.0
24.566,-1.438,0.351,50.0
24.547,-1.428,0.218,38.0
24.549,-1.419,0.084,39.0
24.545,-1.41,-0.05,46.0
24.544,-1.401,-0.184,48.0
24.529,-1.392,-0.317,48.0
24.598,-1.392,0.363,27.0
24.599,-1.383,0.23,27.0
24.584,-1.373,0.096,14.0
24.573,-1.364,-0.039,10.0
24.576,-1.356,-0.173,15.0
24.581,-1.347,-0.306,31.0
0.0,0.0,0.0,0.0
65.648,-3.563,0.643,2.0
65.45,-3.529,0.285,0.0
0.0,0.0,0.0,0.0
61.355,-3.263,-0.406,5.0
44.708,-2.361,-0.539,2.0
86.129,-4.537,1.348,9.0
0.0,0.0,0.0,0.0
0.0,0.0,0.0,0.0
66.451,-3.426,-0.052,1.0
65.598,-3.359,-0.408,3.0
47.406,-2.41,-0.553,2.0
86.162,-4.367,1.38,10.0
82.946,-4.172,0.877,10.0
67.476,-3.37,0.345,0.0
0.0,0.0,0.0,0.0
31.376,-1.544,-0.184,1.0
31.235,-1.525,-0.353,31.0
83.094,-4.045,1.359,11.0
82.897,-4.003,0.904,31.0
79.827,-3.825,0.435,1.0
31.304,-1.489,-0.003,9.0
31.231,-1.473,-0.173,37.0
31.183,-1.46,-0.343,42.0
83.547,-3.898,1.392,2.0
31.332,-1.449,0.351,9.0
31.246,-1.434,0.179,37.0
31.201,-1.42,0.005,42.0
31.221,-1.41,-0.164,60.0
31.172,-1.396,-0.335,47.0
31.272,-1.395,0.529,41.0
31.234,-1.381,0.358,25.0
28.465,-1.248,0.17,58.0
28.437,-1.236,0.012,62.0
28.441,-1.226,-0.143,67.0
28.438,-1.216,-0.298,96.0
28.446,-1.21,0.488,93.0
28.447,-1.199,0.332,114.0
28.431,-1.189,0.176,108.0
28.445,-1.178,0.018,135.0
28.452,-1.168,-0.137,150.0
28.446,-1.157,-0.293,109.0
28.448,-1.152,0.493,138.0
28.436,-1.14,0.337,74.0
28.448,-1.13,0.182,67.0
28.463,-1.12,0.023,66.0
31.311,-1.221,-0.145,13.0
31.261,-1.207,-0.317,31.0
31.251,-1.2,0.547,42.0
31.247,-1.189,0.375,39.0
31.277,-1.178,0.204,38.0
31.303,-1.167,0.029,35.0
31.343,-1.157,-0.142,7.0
50.189,-1.835,-0.502,1.0
31.337,-1.138,0.552,42.0
84.193,-3.027,1.022,31.0
80.424,-2.863,0.534,28.0
80.502,-2.836,0.084,26.0
80.401,-2.802,-0.356,2.0
38.762,-1.336,-0.384,10.0
38.742,-1.326,0.686,0.0
84.751,-2.87,1.035,25.0
38.75,-1.297,0.26,11.0
38.718,-1.282,0.043,35.0
38.701,-1.267,-0.169,53.0
38.651,-1.251,-0.381,48.0
38.649,-1.242,0.686,67.0
38.649,-1.228,0.473,64.0
38.655,-1.213,0.261,66.0
38.64,-1.198,0.044,62.0
38.647,-1.184,-0.168,66.0
38.638,-1.17,-0.381,60.0
38.636,-1.16,0.686,102.0
38.636,-1.145,0.473,103.0
38.638,-1.131,0.26,89.0
38.663,-1.117,0.043,87.0
38.645,-1.102,-0.169,70.0
38.659,-1.088,-0.382,46.0
38.652,-1.078,0.685,70.0
38.653,-1.064,0.472,69.0
38.653,-1.049,0.259,62.0
38.653,-1.035,0.042,61.0
38.696,-1.022,-0.171,37.0
38.737,-1.009,-0.385,36.0
38.727,-0.998,0.684,21.0
0.0,0.0,0.0,0.0
0.0,0.0,0.0,0.0
40.414,-0.996,0.04,29.0
40.408,-0.981,-0.182,38.0
40.411,-0.967,-0.406,50.0
40.415,-0.956,0.709,37.0
40.401,-0.94,0.486,42.0
40.435,-0.927,0.263,156.0
40.411,-0.911,0.035,35.0
40.441,-0.896,-0.188,4.0
38.369,-0.836,-0.39,24.0
38.399,-0.826,0.668,47.0
38.39,-0.812,0.456,22.0
52.922,-1.1,0.335,18.0
52.915,-1.081,0.037,64.0
52.963,-1.062,-0.255,8.0
45.453,-0.895,-0.47,26.0
53.029,-1.029,0.913,0.0
53.171,-1.012,0.621,0.0
81.775,-1.526,0.503,8.0
20.103,-0.367,0.01,19.0
53.014,-0.951,-0.266,17.0
45.508,-0.8,-0.481,16.0
176.621,-3.053,3.004,52.0
20.154,-0.341,0.231,2.0
20.117,-0.333,0.119,12.0
20.127,-0.325,0.005,30.0
59.489,-0.94,-0.313,4.0
52.823,-0.817,-0.571,6.0
20.144,-0.305,0.337,9.0
20.123,-0.297,0.225,14.0
20.126,-0.29,0.113,9.0
59.526,-0.837,0.0,82.0
56.453,-0.773,-0.313,3.0
52.57,-0.702,-0.583,3.0
20.13,-0.262,0.331,14.0
20.154,-0.255,0.219,11.0
56.241,-0.692,0.3,1.0
56.279,-0.673,-0.017,2.0
59.599,-0.691,-0.35,4.0
46.063,-0.518,-0.526,7.0
20.172,-0.22,0.325,17.0
64.323,-0.679,0.679,72.0
56.186,-0.574,0.28,7.0
56.203,-0.554,-0.037,15.0
56.306,-0.534,-0.35,0.0
20.163,-0.184,-0.237,12.0
53.476,-0.472,0.842,10.0
58.329,-0.493,0.594,15.0
58.329,-0.472,0.269,18.0
20.174,-0.156,-0.021,17.0
20.151,-0.149,-0.133,19.0
20.142,-0.141,-0.245,28.0
20.144,-0.134,0.309,18.0
20.125,-0.127,0.196,19.0
20.14,-0.12,0.084,31.0
20.135,-0.113,-0.029,29.0
20.136,-0.106,-0.142,34.0
20.131,-0.099,-0.254,37.0
20.122,-0.092,0.299,29.0
20.124,-0.085,0.187,28.0
20.136,-0.078,0.075,40.0
20.123,-0.071,-0.039,32.0
20.141,-0.064,-0.151,34.0
20.146,-0.057,-0.263,26.0
20.122,-0.05,0.29,29.0
20.117,-0.043,0.177,39.0
20.134,-0.036,0.065,38.0
20.133,-0.029,-0.049,22.0
20.166,-0.022,-0.161,17.0
20.211,-0.015,-0.275,5.0
20.127,-0.008,0.279,28.0
20.119,-0.001,0.167,28.0
20.207,0.005,0.055,66.0
20.257,0.012,-0.06,151.0
20.258,0.019,-0.173,151.0
20.271,0.026,-0.286,78.0
20.136,0.033,0.268,31.0
20.145,0.039,0.156,26.0
20.223,0.047,0.043,25.0
20.207,0.054,-0.071,29.0
20.211,0.061,-0.184,26.0
20.264,0.067,-0.298,0.0
20.151,0.074,0.257,28.0
20.145,0.081,0.144,25.0
20.191,0.088,0.031,33.0
20.188,0.095,-0.083,31.0
20.178,0.102,-0.196,25.0
20.191,0.109,-0.31,25.0
20.165,0.116,0.244,27.0
20.184,0.123,0.131,24.0
20.194,0.13,0.018,26.0
20.174,0.136,-0.096,28.0
20.169,0.143,-0.209,28.0
20.176,0.149,-0.322,37.0
20.257,0.157,0.232,24.0
20.273,0.165,0.118,26.0
20.328,0.172,0.005,29.0
20.197,0.177,-0.11,16.0
20.157,0.183,-0.223,19.0
20.174,0.19,-0.336,31.0
20.289,0.199,0.218,28.0
20.305,0.206,0.104,25.0
20.338,0.213,-0.009,1.0
0.0,0.0,0.0,0.0
20.191,0.225,-0.238,17.0
20.193,0.231,-0.351,24.0
20.29,0.24,0.203,9.0
99.592,1.214,0.44,6.0
99.823,1.248,-0.119,1.0
0.0,0.0,0.0,0.0
0.0,0.0,0.0,0.0
20.214,0.272,-0.367,0.0
0.0,0.0,0.0,0.0
99.728,1.415,0.363,5.0
101.464,1.471,-0.2,2.0
0.0,0.0,0.0,0.0
0.0,0.0,0.0,0.0
0.0,0.0,0.0,0.0
99.72,1.579,0.845,2.0
99.771,1.612,0.283,6.0
0.0,0.0,0.0,0.0
0.0,0.0,0.0,0.0
0.0,0.0,0.0,0.0
40.066,0.698,-0.792,0.0
99.86,1.777,0.763,1.0
99.862,1.809,0.2,9.0
0.0,0.0,0.0,0.0
0.0,0.0,0.0,0.0
0.0,0.0,0.0,0.0
38.411,0.744,-0.793,0.0
99.982,1.976,0.677,2.0
99.957,2.006,0.113,5.0
0.0,0.0,0.0,0.0
0.0,0.0,0.0,0.0
0.0,0.0,0.0,0.0
0.0,0.0,0.0,0.0
100.018,2.17,0.587,3.0
100.104,2.202,0.023,11.0
52.473,1.17,-0.284,0.0
0.0,0.0,0.0,0.0
0.0,0.0,0.0,0.0
36.724,0.853,-0.825,0.0
100.166,2.364,0.495,1.0
0.0,0.0,0.0,0.0
0.0,0.0,0.0,0.0
0.0,0.0,0.0,0.0
0.0,0.0,0.0,0.0
35.446,0.891,-0.83,0.0
100.363,2.561,0.398,1.0
0.0,0.0,0.0,0.0
0.0,0.0,0.0,0.0
0.0,0.0,0.0,0.0
0.0,0.0,0.0,0.0
0.0,0.0,0.0,0.0
103.283,2.827,0.307,3.0
0.0,0.0,0.0,0.0
69.029,1.93,-0.575,3.0
0.0,0.0,0.0,0.0
0.0,0.0,0.0,0.0
33.045,0.952,-0.84,2.0
0.0,0.0,0.0,0.0
0.0,0.0,0.0,0.0
0.0,0.0,0.0,0.0
0.0,0.0,0.0,0.0
0.0,0.0,0.0,0.0
32.258,0.989,-0.853,0.0
0.0,0.0,0.0,0.0
0.0,0.0,0.0,0.0
0.0,0.0,0.0,0.0
0.0,0.0,0.0,0.0
36.94,1.187,-0.807,0.0
30.308,0.983,-0.834,0.0
0.0,0.0,0.0,0.0
0.0,0.0,0.0,0.0
0.0,0.0,0.0,0.0
0.0,0.0,0.0,0.0
35.922,1.218,-0.824,0.0
30.161,1.031,-0.863,1.0
0.0,0.0,0.0,0.0
68.971,2.402,-0.478,5.0
0.0,0.0,0.0,0.0
0.0,0.0,0.0,0.0
33.813,1.206,-0.814,0.0
29.623,1.064,-0.881,0.0
0.0,0.0,0.0,0.0
68.971,2.521,-0.556,3.0
0.0,0.0,0.0,0.0
0.0,0.0,0.0,0.0
32.779,1.225,-0.827,1.0
28.704,1.08,-0.887,0.0
0.0,0.0,0.0,0.0
0.0,0.0,0.0,0.0
0.0,0.0,0.0,0.0
37.194,1.443,-0.77,0.0
32.273,1.261,-0.852,0.0
27.804,1.094,-0.892,0.0
0.0,0.0,0.0,0.0
0.0,0.0,0.0,0.0
0.0,0.0,0.0,0.0
36.588,1.481,-0.802,0.0
30.201,1.23,-0.834,0.0
26.449,1.084,-0.881,0.0
0.0,0.0,0.0,0.0
0.0,0.0,0.0,0.0
42.789,1.79,-0.742,0.0
35.357,1.488,-0.818,0.0
30.103,1.275,-0.868,1.0
20.265,0.864,-0.7,150.0
69.036,2.966,-0.497,5.0
0.0,0.0,0.0,0.0
0.0,0.0,0.0,0.0
33.944,1.483,-0.827,0.0
20.227,0.889,-0.608,4.0
20.199,0.893,-0.723,173.0
69.032,3.075,-0.584,1.0
0.0,0.0,0.0,0.0
38.217,1.721,-0.759,0.0
32.361,1.465,-0.83,0.0
20.243,0.921,-0.634,3.0
20.194,0.924,-0.748,157.0
0.0,0.0,0.0,0.0
0.0,0.0,0.0,0.0
37.259,1.736,-0.788,0.0
31.729,1.485,-0.855,0.0
26.891,1.265,-0.878,0.0
20.227,0.956,-0.776,9.0
0.0,0.0,0.0,0.0
42.455,2.032,-0.711,0.0
35.595,1.712,-0.799,0.0
30.142,1.456,-0.852,0.0
25.797,1.253,-0.876,0.0
21.928,1.07,-0.87,0.0
0.0,0.0,0.0,0.0
0.0,0.0,0.0,0.0
33.896,1.68,-0.806,0.0
0.0,0.0,0.0,0.0
24.927,1.247,-0.88,0.0
21.868,1.099,-0.897,0.0
0.0,0.0,0.0,0.0
38.719,1.967,-0.752,0.0
32.702,1.668,-0.822,1.0
28.03,1.436,-0.867,0.0
24.145,1.242,-0.885,0.0
21.824,1.128,-0.925,0.0
0.0,0.0,0.0,0.0
0.0,0.0,0.0,0.0
31.73,1.664,-0.841,0.0
26.977,1.42,-0.872,0.0
23.632,1.249,-0.899,0.0
0.0,0.0,0.0,0.0
0.0,0.0,0.0,0.0
35.638,1.91,-0.79,0.0
0.0,0.0,0.0,0.0
25.977,1.403,-0.876,0.0
21.862,1.186,-0.862,0.0
0.0,0.0,0.0,0.0
0.0,0.0,0.0,0.0
33.779,1.856,-0.796,0.0
29.218,1.611,-0.856,1.0
24.985,1.383,-0.877,0.0
21.832,1.213,-0.892,6.0
0.0,0.0,0.0,0.0
38.845,2.177,-0.749,0.0
32.684,1.838,-0.817,1.0
28.19,1.591,-0.866,0.0
24.208,1.372,-0.885,0.0
21.798,1.239,-0.922,3.0
0.0,0.0,0.0,0.0
37.403,2.145,-0.775,0.0
31.665,1.822,-0.838,0.0
0.0,0.0,0.0,0.0
21.926,1.27,-0.833,0.0
20.764,1.207,-0.908,0.0
0.0,0.0,0.0,0.0
35.479,2.078,-0.787,0.0
30.346,1.784,-0.847,0.0
25.519,1.505,-0.858,1.0
21.874,1.294,-0.863,5.0
19.988,1.186,-0.904,0.0
0.0,0.0,0.0,0.0
33.201,1.986,-0.785,0.0
28.976,1.738,-0.851,0.0
24.941,1.501,-0.876,0.0
21.801,1.316,-0.893,10.0
19.522,1.182,-0.912,0.0
0.0,0.0,0.0,0.0
32.159,1.961,-0.809,2.0
27.806,1.7,-0.858,0.0
24.03,1.474,-0.88,0.0
21.769,1.339,-0.924,2.0
19.051,1.176,-0.918,0.0
0.0,0.0,0.0,0.0
31.547,1.959,-0.84,1.0
26.848,1.672,-0.869,0.0
21.894,1.367,-0.834,1.0
20.419,1.279,-0.897,0.0
0.0,0.0,0.0,0.0
0.0,0.0,0.0,0.0
30.068,1.9,-0.846,0.0
25.797,1.634,-0.874,0.0
21.854,1.388,-0.866,7.0
19.748,1.258,-0.898,0.0
18.158,1.16,-0.93,0.0
0.0,0.0,0.0,0.0
28.574,1.836,-0.847,0.0
24.697,1.59,-0.874,0.0
21.799,1.407,-0.896,9.0
19.361,1.253,-0.91,0.0
0.0,0.0,0.0,0.0
0.0,0.0,0.0,0.0
27.432,1.79,-0.855,0.0
23.708,1.551,-0.875,0.0
21.74,1.425,-0.928,0.0
0.0,0.0,0.0,0.0
17.054,1.124,-0.926,0.0
15.373,1.016,-0.923,0.0
26.276,1.74,-0.86,0.0
21.888,1.453,-0.842,2.0
20.169,1.342,-0.892,0.0
18.221,1.215,-0.912,0.0
16.577,1.108,-0.926,0.0
15.029,1.007,-0.926,0.0
25.267,1.697,-0.866,0.0
21.819,1.468,-0.873,2.0
19.635,1.324,-0.898,0.0
17.79,1.203,-0.918,0.0
16.182,1.096,-0.928,0.0
14.906,1.012,-0.941,0.0
24.606,1.674,-0.881,0.0
21.768,1.484,-0.904,0.0
19.361,1.323,-0.916,0.0
17.265,1.182,-0.918,0.0
15.924,1.093,-0.938,0.0
14.612,1.005,-0.945,0.0
23.514,1.62,-0.878,0.0
20.865,1.44,-0.899,0.0
0.0,0.0,0.0,0.0
16.775,1.163,-0.918,0.0
15.278,1.061,-0.924,0.0
14.118,0.982,-0.935,0.0
21.848,1.523,-0.85,0.0
0.0,0.0,0.0,0.0
17.957,1.256,-0.905,0.0
16.414,1.15,-0.924,0.0
15.006,1.054,-0.931,0.0
0.0,0.0,0.0,0.0
21.795,1.535,-0.882,1.0
19.498,1.376,-0.901,0.0
17.628,1.247,-0.916,0.0
16.053,1.137,-0.928,0.0
14.792,1.05,-0.941,0.0
13.557,0.964,-0.941,0.0
21.635,1.54,-0.909,0.0
19.156,1.366,-0.915,0.0
17.151,1.225,-0.918,0.0
15.571,1.114,-0.925,0.0
14.448,1.035,-0.941,0.0
13.357,0.959,-0.948,0.0
20.667,1.485,-0.9,0.0
0.0,0.0,0.0,0.0
16.741,1.207,-0.922,0.0
15.223,1.099,-0.928,0.0
0.0,0.0,0.0,0.0
12.998,0.942,-0.943,0.0
19.812,1.436,-0.894,0.0
0.0,0.0,0.0,0.0
16.286,1.184,-0.923,0.0
14.882,1.084,-0.931,0.0
13.88,1.012,-0.948,0.0
12.76,0.932,-0.945,0.0
19.443,1.421,-0.908,0.0
17.413,1.274,-0.913,0.0
15.909,1.166,-0.926,0.0
14.614,1.073,-0.937,0.0
13.513,0.993,-0.944,0.0
12.489,0.919,-0.945,0.0
0.0,0.0,0.0,0.0
16.974,1.251,-0.917,0.0
15.534,1.147,-0.929,0.0
14.301,1.057,-0.939,0.0
13.12,0.971,-0.937,0.0
12.234,0.907,-0.945,0.0
0.0,0.0,0.0,0.0
16.542,1.228,-0.919,0.0
15.094,1.122,-0.926,0.0
0.0,0.0,0.0,0.0
12.909,0.962,-0.942,0.0
11.952,0.892,-0.942,0.0
17.435,1.3,-0.895,0.0
16.167,1.207,-0.923,0.0
14.786,1.105,-0.93,0.0
0.0,0.0,0.0,0.0
12.638,0.947,-0.942,0.0
11.727,0.88,-0.942,0.0
17.281,1.296,-0.914,0.0
15.74,1.182,-0.923,0.0
14.543,1.093,-0.937,0.0
13.303,1.001,-0.935,0.0
12.39,0.934,-0.943,0.0
11.523,0.869,-0.943,0.0
16.912,1.275,-0.92,0.0
15.362,1.159,-0.924,0.0
14.241,1.076,-0.939,0.0
13.038,0.986,-0.937,0.0
12.145,0.92,-0.943,0.0
11.359,0.861,-0.948,0.0
16.412,1.243,-0.918,0.0
15.024,1.139,-0.927,0.0
13.733,1.042,-0.927,0.0
12.788,0.971,-0.938,0.0
11.885,0.904,-0.941,0.0
11.139,0.848,-0.946,0.0
16.078,1.222,-0.924,0.0
14.724,1.12,-0.931,0.0
13.498,1.028,-0.931,0.0
12.544,0.956,-0.939,0.0
11.667,0.89,-0.941,0.0
10.918,0.834,-0.944,0.0
15.676,1.196,-0.925,0.0
14.481,1.105,-0.938,0.0
13.334,1.019,-0.94,0.0
12.309,0.941,-0.94,0.0
11.47,0.878,-0.943,0.0
10.72,0.821,-0.943,0.0
15.277,1.168,-0.924,0.0
14.173,1.085,-0.939,0.0
13.009,0.996,-0.937,0.0
12.053,0.924,-0.939,0.0
11.216,0.86,-0.939,0.0
10.508,0.807,-0.941,0.0
14.958,1.146,-0.927,0.0
13.895,1.065,-0.941,0.0
12.815,0.983,-0.942,0.0
11.821,0.908,-0.939,0.0
11.112,0.854,-0.947,0.0
10.38,0.798,-0.945,0.0
14.654,1.125,-0.93,0.0
13.471,1.035,-0.932,0.0
12.513,0.962,-0.938,0.0
11.656,0.896,-0.943,0.0
10.916,0.84,-0.946,0.0
10.206,0.786,-0.944,0.0
14.416,1.108,-0.936,0.0
13.318,1.024,-0.941,0.0
12.298,0.946,-0.94,0.0
11.464,0.882,-0.944,0.0
10.745,0.827,-0.947,0.0
10.062,0.775,-0.945,0.0
14.025,1.078,-0.93,0.0
12.986,0.999,-0.936,0.0
12.051,0.927,-0.938,0.0
11.238,0.865,-0.941,0.0
10.483,0.808,-0.939,0.0
9.917,0.764,-0.946,0.0
13.759,1.058,-0.932,0.0
12.813,0.985,-0.942,0.0
11.805,0.908,-0.936,0.0
11.008,0.847,-0.938,0.0
10.389,0.8,-0.945,0.0
9.778,0.753,-0.946,0.0
13.576,1.043,-0.939,0.0
12.547,0.964,-0.94,0.0
11.655,0.896,-0.941,0.0
10.821,0.832,-0.937,0.0
10.204,0.785,-0.943,0.0
9.583,0.738,-0.941,0.0
13.262,1.018,-0.936,0.0
12.292,0.944,-0.938,0.0
11.474,0.881,-0.942,0.0
10.717,0.823,-0.943,0.0
10.056,0.773,-0.943,0.0
9.448,0.726,-0.941,0.0
13.021,0.998,-0.937,0.0
12.08,0.926,-0.939,0.0
11.288,0.865,-0.942,0.0
10.49,0.804,-0.938,0.0
9.918,0.761,-0.944,0.0
9.358,0.718,-0.945,0.0
12.784,0.977,-0.937,0.0
11.822,0.904,-0.935,0.0
11.177,0.855,-0.948,0.0
10.383,0.794,-0.942,0.0
9.778,0.748,-0.944,0.0
9.223,0.706,-0.944,0.0
12.556,0.957,-0.937,0.0
11.672,0.89,-0.939,0.0
10.933,0.834,-0.942,0.0
10.277,0.784,-0.946,0.0
9.614,0.733,-0.941,0.0
9.142,0.697,-0.948,0.0
12.38,0.941,-0.94,0.0
11.503,0.874,-0.94,0.0
10.72,0.815,-0.938,0.0
10.076,0.766,-0.941,0.0
9.497,0.722,-0.942,0.0
9.0,0.684,-0.945,0.0
12.121,0.918,-0.936,0.0
11.27,0.853,-0.935,0.0
10.544,0.798,-0.936,0.0
9.973,0.755,-0.944,0.0
9.387,0.711,-0.943,0.0
8.873,0.672,-0.943,0.0
11.926,0.899,-0.936,0.0
11.194,0.844,-0.943,0.0
10.465,0.789,-0.942,0.0
9.814,0.739,-0.941,0.0
9.31,0.701,-0.947,0.0
8.777,0.661,-0.944,0.0
11.754,0.882,-0.937,0.0
11.068,0.83,-0.946,0.0
10.311,0.773,-0.941,0.0
9.693,0.727,-0.942,0.0
9.183,0.688,-0.946,0.0
8.662,0.649,-0.942,0.0
11.559,0.863,-0.936,0.0
10.988,0.82,-0.953,0.0
10.182,0.759,-0.942,0.0
9.577,0.714,-0.942,0.0
9.041,0.674,-0.942,0.0
8.6,0.641,-0.946,0.0
11.459,0.85,-0.941,0.0
10.699,0.793,-0.94,0.0
10.047,0.745,-0.941,0.0
9.496,0.704,-0.945,0.0
8.948,0.663,-0.943,0.0
8.496,0.629,-0.944,0.0
11.289,0.832,-0.94,0.0
10.544,0.777,-0.939,0.0
9.931,0.731,-0.942,0.0
9.39,0.691,-0.946,0.0
8.839,0.65,-0.941,0.0
8.379,0.616,-0.941,0.0
11.113,0.814,-0.938,0.0
10.432,0.763,-0.941,0.0
9.8,0.717,-0.941,0.0
9.287,0.679,-0.946,0.0
8.741,0.639,-0.941,0.0
8.308,0.607,-0.943,0.0
10.936,0.795,-0.936,0.0
10.287,0.747,-0.939,0.0
9.747,0.707,-0.946,0.0
9.139,0.663,-0.941,0.0
8.678,0.629,-0.944,0.0
8.226,0.596,-0.942,0.0
10.925,0.787,-0.947,0.0
10.192,0.734,-0.942,0.0
9.604,0.691,-0.943,0.0
9.054,0.651,-0.942,0.0
8.606,0.619,-0.945,0.0
8.177,0.587,-0.945,0.0
10.727,0.767,-0.94,0.0
10.096,0.721,-0.943,0.0
9.505,0.678,-0.943,0.0
8.953,0.638,-0.941,0.0
8.51,0.606,-0.943,0.0
8.085,0.576,-0.943,0.0
10.526,0.745,-0.933,0.0
10.01,0.708,-0.945,0.0
9.409,0.665,-0.943,0.0
8.863,0.626,-0.94,0.0
8.414,0.594,-0.941,0.0
8.031,0.566,-0.945,0.0
10.448,0.733,-0.937,0.0
9.869,0.692,-0.942,0.0
9.321,0.653,-0.943,0.0
8.817,0.617,-0.944,0.0
8.354,0.584,-0.942,0.0
7.947,0.555,-0.943,0.0
10.403,0.722,-0.942,0.0
9.78,0.678,-0.942,0.0
9.203,0.638,-0.94,0.0
8.702,0.602,-0.939,0.0
8.314,0.575,-0.946,0.0
7.904,0.546,-0.945,0.0
10.315,0.709,-0.944,0.0
9.698,0.665,-0.943,0.0
9.143,0.627,-0.942,0.0
8.625,0.59,-0.939,0.0
8.224,0.562,-0.943,0.0
7.856,0.537,-0.946,0.0
10.217,0.694,-0.944,0.0
9.605,0.652,-0.942,0.0
9.07,0.615,-0.942,0.0
8.555,0.579,-0.939,0.0
8.158,0.551,-0.942,0.0
7.806,0.527,-0.947,0.0
10.114,0.679,-0.943,0.0
9.511,0.638,-0.941,0.0
8.987,0.602,-0.941,0.0
8.517,0.569,-0.942,0.0
8.099,0.541,-0.942,0.0
7.715,0.515,-0.942,0.0
10.031,0.665,-0.943,0.0
9.413,0.623,-0.939,0.0
8.895,0.588,-0.938,0.0
8.464,0.559,-0.942,0.0
8.055,0.531,-0.943,0.0
7.708,0.508,-0.947,0.0
9.939,0.651,-0.942,0.0
9.377,0.613,-0.942,0.0
8.856,0.578,-0.941,0.0
8.429,0.549,-0.945,0.0
8.001,0.521,-0.943,0.0
7.644,0.497,-0.945,0.0
9.873,0.637,-0.943,0.0
9.325,0.601,-0.944,0.0
8.792,0.566,-0.94,0.0
8.3,0.533,-0.936,0.0
7.969,0.511,-0.945,0.0
7.606,0.487,-0.946,0.0
9.804,0.624,-0.943,0.0
9.253,0.588,-0.943,0.0
8.714,0.553,-0.938,0.0
8.298,0.526,-0.941,0.0
7.913,0.5,-0.943,0.0
7.564,0.478,-0.945,0.0
9.715,0.609,-0.941,0.0
9.176,0.575,-0.941,0.0
8.693,0.543,-0.941,0.0
8.268,0.516,-0.943,0.0
7.866,0.49,-0.943,0.0
7.54,0.469,-0.947,0.0
9.661,0.597,-0.941,0.0
9.16,0.565,-0.945,0.0
8.615,0.53,-0.938,0.0
8.185,0.503,-0.939,0.0
7.85,0.481,-0.945,0.0
7.51,0.46,-0.948,0.0
9.601,0.584,-0.941,0.0
9.083,0.551,-0.942,0.0
8.585,0.52,-0.939,0.0
8.144,0.492,-0.939,0.0
7.832,0.472,-0.948,0.0
7.497,0.451,-0.95,0.0
9.533,0.57,-0.939,0.0
9.036,0.539,-0.942,0.0
8.579,0.511,-0.943,0.0
8.105,0.482,-0.938,0.0
7.797,0.462,-0.947,0.0
7.452,0.441,-0.948,0.0
9.502,0.558,-0.941,0.0
8.969,0.526,-0.939,0.0
8.511,0.498,-0.94,0.0
8.099,0.473,-0.941,0.0
7.726,0.45,-0.942,0.0
7.419,0.431,-0.947,0.0
9.457,0.546,-0.941,0.0
8.927,0.514,-0.939,0.0
8.477,0.487,-0.94,0.0
8.094,0.464,-0.944,0.0
7.725,0.442,-0.945,0.0
7.395,0.422,-0.947,0.0
9.425,0.534,-0.941,0.0
8.919,0.504,-0.941,0.0
8.444,0.476,-0.939,0.0
8.021,0.451,-0.939,0.0
7.697,0.432,-0.945,0.0
7.389,0.413,-0.949,0.0
9.362,0.52,-0.938,0.0
8.865,0.491,-0.939,0.0
8.411,0.465,-0.939,0.0
8.037,0.443,-0.943,0.0
7.683,0.422,-0.946,0.0
7.374,0.404,-0.95,0.0
9.359,0.51,-0.941,0.0
8.838,0.48,-0.939,0.0
8.428,0.456,-0.943,0.0
8.007,0.432,-0.942,0.0
7.659,0.412,-0.945,0.0
7.349,0.395,-0.949,0.0
9.369,0.499,-0.945,0.0
8.805,0.468,-0.938,0.0
8.4,0.445,-0.942,0.0
8.014,0.424,-0.945,0.0
7.678,0.405,-0.949,0.0
7.333,0.386,-0.949,0.0
9.307,0.486,-0.94,0.0
8.792,0.458,-0.938,0.0
8.389,0.435,-0.943,0.0
7.985,0.413,-0.943,0.0
7.636,0.394,-0.946,0.0
7.316,0.376,-0.948,0.0
9.308,0.475,-0.942,0.0
8.753,0.445,-0.936,0.0
8.382,0.425,-0.943,0.0
7.926,0.401,-0.938,0.0
7.595,0.383,-0.942,0.0
7.32,0.368,-0.949,0.0
9.287,0.463,-0.941,0.0
8.774,0.436,-0.939,0.0
8.352,0.414,-0.941,0.0
7.928,0.392,-0.939,0.0
7.615,0.375,-0.945,0.0
7.336,0.36,-0.952,0.0
9.276,0.452,-0.941,0.0
8.752,0.425,-0.937,0.0
8.346,0.404,-0.941,0.0
7.943,0.383,-0.941,0.0
7.58,0.364,-0.941,0.0
7.321,0.351,-0.951,0.0
9.297,0.442,-0.944,0.0
8.76,0.415,-0.939,0.0
8.332,0.393,-0.94,0.0
7.96,0.374,-0.944,0.0
7.6,0.356,-0.944,0.0
7.269,0.34,-0.944,0.0
9.263,0.429,-0.94,0.0
8.789,0.406,-0.942,0.0
8.36,0.385,-0.943,0.0
7.877,0.361,-0.934,0.0
7.636,0.349,-0.948,0.0
7.276,0.331,-0.945,0.0
9.275,0.419,-0.941,0.0
8.749,0.393,-0.937,0.0
8.325,0.373,-0.939,0.0
7.975,0.356,-0.945,0.0
7.623,0.339,-0.946,0.0
7.311,0.324,-0.949,0.0
9.269,0.407,-0.94,0.0
8.787,0.385,-0.94,0.0
8.369,0.365,-0.943,0.0
7.98,0.346,-0.945,0.0
7.647,0.331,-0.948,0.0
7.3,0.314,-0.947,0.0
9.315,0.398,-0.943,0.0
8.798,0.374,-0.94,0.0
8.39,0.355,-0.944,0.0
7.997,0.337,-0.945,0.0
7.638,0.321,-0.946,0.0
7.337,0.307,-0.95,0.0
9.313,0.387,-0.942,0.0
8.808,0.364,-0.94,0.0
8.358,0.344,-0.939,0.0
7.997,0.328,-0.944,0.0
7.655,0.312,-0.946,0.0
7.346,0.298,-0.95,0.0
9.356,0.377,-0.944,0.0
8.822,0.354,-0.939,0.0
8.41,0.336,-0.942,0.0
8.005,0.318,-0.943,0.0
7.654,0.303,-0.944,0.0
7.367,0.29,-0.95,0.0
9.367,0.366,-0.943,0.0
8.893,0.346,-0.944,0.0
8.408,0.325,-0.94,0.0
8.03,0.309,-0.943,0.0
7.681,0.294,-0.945,0.0
7.353,0.28,-0.946,0.0
9.381,0.355,-0.941,0.0
8.898,0.335,-0.942,0.0
8.452,0.316,-0.942,0.0
8.046,0.3,-0.942,0.0
7.708,0.285,-0.946,0.0
7.386,0.272,-0.948,0.0
9.418,0.344,-0.941,0.0
8.913,0.324,-0.94,0.0
8.492,0.307,-0.943,0.0
8.085,0.291,-0.944,0.0
7.744,0.277,-0.947,0.0
7.404,0.264,-0.947,0.0
9.485,0.335,-0.944,0.0
8.965,0.315,-0.942,0.0
8.51,0.297,-0.942,0.0
8.09,0.281,-0.941,0.0
7.753,0.268,-0.945,0.0
7.418,0.255,-0.946,0.0
9.52,0.325,-0.943,0.0
9.011,0.305,-0.943,0.0
8.531,0.287,-0.94,0.0
8.113,0.272,-0.94,0.0
7.796,0.26,-0.947,0.0
7.491,0.248,-0.952,0.0
9.57,0.314,-0.944,0.0
9.059,0.296,-0.943,0.0
8.608,0.279,-0.944,0.0
8.142,0.263,-0.939,0.0
7.81,0.25,-0.944,0.0
7.466,0.238,-0.944,0.0
9.624,0.304,-0.944,0.0
9.116,0.287,-0.944,0.0
8.632,0.27,-0.942,0.0
8.215,0.255,-0.943,0.0
7.827,0.241,-0.942,0.0
7.529,0.231,-0.948,0.0
9.637,0.293,-0.94,0.0
9.119,0.275,-0.939,0.0
8.683,0.26,-0.942,0.0
8.237,0.245,-0.94,0.0
7.874,0.233,-0.943,0.0
7.609,0.224,-0.953,0.0
9.751,0.284,-0.944,0.0
9.217,0.267,-0.944,0.0
8.697,0.25,-0.938,0.0
8.285,0.237,-0.94,0.0
7.931,0.225,-0.944,0.0
7.603,0.214,-0.947,0.0
9.817,0.275,-0.944,0.0
9.27,0.257,-0.943,0.0
8.747,0.241,-0.938,0.0
8.346,0.228,-0.942,0.0
7.967,0.216,-0.943,0.0
7.66,0.206,-0.949,0.0
9.894,0.265,-0.945,0.0
9.354,0.248,-0.944,0.0
8.821,0.232,-0.939,0.0
8.418,0.22,-0.943,0.0
8.019,0.208,-0.943,0.0
7.693,0.198,-0.947,0.0
9.976,0.255,-0.945,0.0
9.386,0.238,-0.941,0.0
8.938,0.225,-0.945,0.0
8.473,0.211,-0.943,0.0
8.133,0.201,-0.95,0.0
7.724,0.19,-0.945,0.0
10.035,0.244,-0.943,0.0
9.507,0.23,-0.945,0.0
9.002,0.216,-0.944,0.0
8.522,0.202,-0.941,0.0
8.134,0.192,-0.943,0.0
7.794,0.182,-0.947,0.0
10.155,0.235,-0.945,0.0
9.584,0.22,-0.944,0.0
9.057,0.206,-0.942,0.0
8.57,0.193,-0.939,0.0
8.186,0.183,-0.942,0.0
7.826,0.173,-0.944,0.0
10.248,0.226,-0.945,0.0
9.706,0.212,-0.948,0.0
9.122,0.197,-0.94,0.0
8.673,0.185,-0.943,0.0
8.273,0.175,-0.944,0.0
7.882,0.165,-0.943,0.0
10.375,0.216,-0.947,0.0
9.795,0.202,-0.947,0.0
9.252,0.189,-0.945,0.0
8.761,0.177,-0.944,0.0
8.325,0.167,-0.942,0.0
7.952,0.157,-0.944,0.0
10.463,0.206,-0.944,0.0
9.885,0.192,-0.946,0.0
9.346,0.18,-0.945,0.0
8.843,0.169,-0.943,0.0
8.444,0.159,-0.947,0.0
8.036,0.15,-0.945,0.0
10.579,0.196,-0.944,0.0
9.988,0.183,-0.946,0.0
9.451,0.171,-0.946,0.0
8.936,0.16,-0.944,0.0
8.514,0.151,-0.946,0.0
8.067,0.141,-0.94,0.0
10.712,0.186,-0.945,0.0
10.123,0.174,-0.947,0.0
9.552,0.162,-0.946,0.0
9.001,0.151,-0.941,0.0
8.603,0.143,-0.946,0.0
8.165,0.134,-0.943,0.0
10.863,0.177,-0.946,0.0
10.247,0.165,-0.948,0.0
9.65,0.154,-0.945,0.0
9.151,0.144,-0.947,0.0
8.664,0.134,-0.943,0.0
8.26,0.126,-0.944,0.0
11.031,0.168,-0.948,0.0
10.349,0.155,-0.945,0.0
9.799,0.145,-0.948,0.0
9.248,0.135,-0.946,0.0
8.761,0.126,-0.943,0.0
8.305,0.118,-0.939,0.0
11.209,0.159,-0.95,0.0
10.518,0.147,-0.948,0.0
9.901,0.136,-0.946,0.0
9.378,0.127,-0.948,0.0
8.843,0.118,-0.941,0.0
8.43,0.111,-0.943,0.0
11.306,0.148,-0.945,0.0
10.581,0.137,-0.941,0.0
10.045,0.128,-0.948,0.0
9.478,0.119,-0.946,0.0
8.973,0.111,-0.944,0.0
8.537,0.104,-0.944,0.0
11.488,0.139,-0.946,0.0
10.843,0.129,-0.951,0.0
10.199,0.119,-0.949,0.0
9.617,0.111,-0.948,0.0
9.08,0.103,-0.944,0.0
8.649,0.096,-0.946,0.0
11.687,0.129,-0.947,0.0
11.026,0.12,-0.952,0.0
10.318,0.11,-0.947,0.0
9.754,0.102,-0.948,0.0
9.239,0.095,-0.948,0.0
8.752,0.089,-0.945,0.0
11.895,0.12,-0.948,0.0
11.215,0.111,-0.954,0.0
10.482,0.102,-0.948,0.0
9.887,0.094,-0.948,0.0
9.343,0.087,-0.946,0.0
8.874,0.081,-0.946,0.0
12.131,0.111,-0.95,0.0
11.372,0.101,-0.951,0.0
10.586,0.093,-0.942,0.0
10.033,0.086,-0.948,0.0
9.479,0.079,-0.946,0.0
8.976,0.074,-0.944,0.0
12.339,0.101,-0.949,0.0
11.462,0.091,-0.943,1.0
10.778,0.084,-0.944,0.0
10.243,0.078,-0.953,0.0
9.645,0.072,-0.949,0.0
9.134,0.066,-0.948,0.0
12.589,0.091,-0.95,0.0
11.524,0.081,-0.931,0.0
20.15,0.139,-1.736,0.0
10.363,0.069,-0.949,0.0
9.79,0.064,-0.949,0.0
9.277,0.059,-0.949,0.0
12.834,0.081,-0.95,0.0
11.977,0.074,-0.95,0.0
11.243,0.067,-0.952,0.0
10.511,0.061,-0.947,0.0
9.949,0.056,-0.949,0.0
9.405,0.052,-0.948,0.0
13.126,0.072,-0.952,0.0
12.224,0.065,-0.951,0.0
11.412,0.059,-0.949,0.0
10.688,0.053,-0.946,0.0
10.126,0.049,-0.951,0.0
9.585,0.044,-0.951,0.0
13.357,0.062,-0.948,0.0
12.414,0.055,-0.947,0.0
11.578,0.05,-0.944,0.0
10.997,0.045,-0.957,0.0
10.314,0.041,-0.952,0.0
9.738,0.037,-0.951,0.0
13.676,0.052,-0.949,0.0
12.766,0.046,-0.953,0.0
11.82,0.041,-0.945,0.0
11.23,0.037,-0.959,0.0
10.471,0.033,-0.95,0.0
9.908,0.03,-0.951,0.0
20.229,0.061,-1.372,0.0
13.079,0.037,-0.956,0.0
12.135,0.033,-0.951,0.0
11.426,0.029,-0.957,0.0
10.708,0.025,-0.954,0.0
10.132,0.022,-0.956,0.0
14.453,0.032,-0.956,0.0
13.303,0.028,-0.95,0.0
12.408,0.024,-0.952,0.0
11.588,0.021,-0.951,0.0
20.187,0.033,-1.764,0.0
10.276,0.015,-0.952,0.0
14.707,0.022,-0.948,0.0
20.282,0.028,-1.415,0.0
12.657,0.015,-0.95,0.0
11.847,0.012,-0.953,0.0
10.487,0.008,-0.954,0.0
15.019,0.012,-0.943,0.0
13.043,0.007,-0.956,0.0
12.146,0.004,-0.956,0.0
11.344,0.003,-0.953,0.0
10.673,0.001,-0.953,0.0
15.494,0.002,-0.947,0.0
12.439,-0.003,-0.957,0.0
11.609,-0.004,-0.954,0.0
15.909,-0.007,-0.944,0.0
14.697,-0.009,-0.949,0.0
12.71,-0.011,-0.956,0.0
11.826,-0.012,-0.951,0.0
16.423,-0.018,-0.945,0.0
15.085,-0.018,-0.947,0.0
13.062,-0.019,-0.959,0.0
12.155,-0.019,-0.956,0.0
11.342,-0.019,-0.952,0.0
15.573,-0.028,-0.95,0.0
12.475,-0.027,-0.958,0.0
11.606,-0.026,-0.952,0.0
14.766,-0.036,-0.951,0.0
12.772,-0.034,-0.957,0.0
11.915,-0.033,-0.956,0.0
16.526,-0.047,-0.947,0.0
15.154,-0.045,-0.948,0.0
13.122,-0.041,-0.959,0.0
12.236,-0.04,-0.958,0.0
15.609,-0.053,-0.946,0.0
12.597,-0.047,-0.962,0.0
16.201,-0.063,-0.952,0.0
14.828,-0.059,-0.95,0.0
12.869,-0.053,-0.958,0.0
16.63,-0.071,-0.945,0.0
15.335,-0.067,-0.952,0.0
13.224,-0.06,-0.959,0.0
20.285,-0.091,-0.902,57.0
15.781,-0.074,-0.949,0.0
14.596,-0.07,-0.954,0.0
13.548,-0.066,-0.956,0.0
16.415,-0.083,-0.955,0.0
15.006,-0.077,-0.951,0.0
13.951,-0.072,-0.957,0.0
22.613,-0.116,-0.917,2.0
20.291,-0.106,-0.928,65.0
18.41,-0.097,-0.938,0.0
16.786,-0.09,-0.944,0.0
15.492,-0.084,-0.952,0.0
14.418,-0.079,-0.961,0.0
23.253,-0.126,-0.897,0.0
20.275,-0.111,-0.888,12.0
16.077,-0.091,-0.955,0.0
14.809,-0.084,-0.957,0.0
24.77,-0.14,-0.906,0.0
22.548,-0.129,-0.942,4.0
20.225,-0.116,-0.949,10.0
16.551,-0.097,-0.95,0.0
15.21,-0.09,-0.952,0.0
22.602,-0.133,-0.899,13.0
20.285,-0.121,-0.911,73.0
18.611,-0.112,-0.934,0.0
15.732,-0.096,-0.953,0.0
28.099,-0.169,-0.915,3.0
16.349,-0.102,-0.957,0.0
20.197,-0.124,-0.616,13.0
22.607,-0.14,-0.923,33.0
20.27,-0.127,-0.935,44.0
18.329,-0.115,-0.94,0.0
16.773,-0.106,-0.947,0.0
20.199,-0.126,-0.575,29.0
28.096,-0.176,-0.945,0.0
22.638,-0.142,-0.878,2.0
20.25,-0.128,-0.892,14.0
20.189,-0.127,-0.533,35.0
20.207,-0.127,-0.638,9.0
22.535,-0.143,-0.946,12.0
20.236,-0.129,-0.955,10.0
18.102,-0.116,-0.947,0.0
20.172,-0.127,-0.491,29.0
20.205,-0.128,-0.596,25.0
22.585,-0.143,-0.902,23.0
20.282,-0.129,-0.915,61.0
18.596,-0.118,-0.935,0.0
20.167,-0.127,-0.45,37.0
20.183,-0.127,-0.554,30.0
28.088,-0.177,-0.916,2.0
0.0,0.0,0.0,0.0
20.159,-0.125,-0.407,38.0
20.176,-0.126,-0.512,30.0
20.195,-0.126,-0.616,15.0
22.618,-0.141,-0.926,34.0
20.277,-0.126,-0.934,54.0
20.147,-0.123,-0.365,38.0
20.167,-0.124,-0.469,30.0
20.193,-0.124,-0.574,27.0
28.062,-0.172,-0.945,0.0
22.604,-0.138,-0.878,1.0
20.262,-0.123,-0.891,8.0
20.152,-0.121,-0.323,37.0
20.163,-0.121,-0.427,36.0
20.175,-0.12,-0.531,29.0
28.12,-0.168,-0.888,3.0
24.813,-0.147,-0.911,0.0
22.579,-0.134,-0.946,11.0
20.149,-0.117,-0.281,36.0
20.15,-0.117,-0.384,37.0
20.186,-0.117,-0.489,28.0
20.181,-0.116,-0.595,15.0
22.626,-0.129,-0.9,3.0
20.135,-0.113,-0.238,29.0
20.151,-0.113,-0.342,37.0
20.156,-0.112,-0.446,35.0
20.193,-0.112,-0.553,25.0
28.07,-0.155,-0.913,4.0
24.702,-0.135,-0.931,0.0
20.167,-0.108,-0.196,23.0
20.145,-0.107,-0.3,36.0
20.145,-0.107,-0.403,36.0
20.181,-0.106,-0.51,27.0
29.5,-0.154,-0.898,1.0
20.153,-0.102,-0.153,32.0
20.132,-0.102,-0.257,35.0
20.141,-0.101,-0.361,33.0
20.158,-0.1,-0.467,32.0
20.191,-0.099,-0.572,8.0
28.043,-0.137,-0.939,11.0
20.148,-0.096,-0.111,29.0
20.149,-0.095,-0.215,20.0
20.139,-0.094,-0.319,36.0
20.151,-0.093,-0.425,33.0
20.194,-0.092,-0.529,18.0
28.086,-0.127,-0.881,5.0
20.153,-0.089,-0.069,31.0
20.147,-0.087,-0.173,35.0
20.137,-0.086,-0.276,34.0
20.137,-0.085,-0.382,25.0
20.196,-0.084,-0.487,26.0
58.446,-0.241,-1.71,2.0
20.133,-0.08,-0.026,33.0
20.145,-0.079,-0.13,33.0
20.14,-0.078,-0.233,24.0
20.144,-0.077,-0.339,29.0
20.168,-0.075,-0.443,27.0
33.15,-0.122,-0.9,3.0
20.134,-0.072,0.015,38.0
20.141,-0.07,-0.088,31.0
20.146,-0.069,-0.191,30.0
20.138,-0.067,-0.297,28.0
20.166,-0.066,-0.401,24.0
20.187,-0.064,-0.506,1.0
20.142,-0.062,0.057,45.0
20.131,-0.061,-0.045,29.0
20.139,-0.059,-0.149,34.0
20.145,-0.057,-0.255,26.0
20.159,-0.056,-0.359,21.0
20.174,-0.054,-0.463,4.0
20.131,-0.052,0.099,43.0
20.127,-0.05,-0.004,37.0
20.14,-0.048,-0.107,32.0
20.133,-0.047,-0.213,17.0
20.165,-0.045,-0.318,25.0
20.186,-0.043,-0.422,5.0
20.118,-0.041,0.14,33.0
20.137,-0.039,0.037,39.0
20.145,-0.037,-0.066,30.0
20.152,-0.035,-0.172,29.0
20.167,-0.033,-0.276,25.0
20.175,-0.031,-0.38,2.0
20.12,-0.029,0.182,39.0
20.135,-0.027,0.079,41.0
20.127,-0.025,-0.024,32.0
20.148,-0.023,-0.13,27.0
20.161,-0.021,-0.234,6.0
20.18,-0.019,-0.339,2.0
20.127,-0.017,0.224,29.0
20.126,-0.014,0.12,30.0
20.14,-0.012,0.016,19.0
20.163,-0.01,-0.089,17.0
20.184,-0.008,-0.193,9.0
20.21,-0.006,-0.298,2.0
20.127,-0.004,0.265,27.0
20.117,-0.001,0.161,28.0
20.149,0.0,0.057,28.0
20.252,0.002,-0.048,32.0
20.245,0.005,-0.153,44.0
20.269,0.007,-0.258,59.0
20.124,0.009,0.306,28.0
20.121,0.012,0.202,27.0
20.128,0.014,0.098,30.0
20.249,0.017,-0.007,152.0
20.256,0.019,-0.111,151.0
20.254,0.022,-0.216,151.0
20.142,0.024,0.347,26.0
20.132,0.027,0.243,28.0
20.138,0.029,0.139,26.0
20.232,0.032,0.033,23.0
20.265,0.035,-0.071,150.0
20.255,0.037,-0.175,117.0
20.137,0.04,0.387,28.0
20.144,0.042,0.283,29.0
20.139,0.045,0.179,26.0
20.149,0.048,0.073,23.0
20.202,0.05,-0.031,13.0
20.231,0.053,-0.135,24.0
20.149,0.055,0.427,29.0
20.138,0.058,0.323,28.0
20.14,0.061,0.219,27.0
20.14,0.064,0.113,27.0
20.204,0.067,0.008,32.0
20.202,0.07,-0.095,29.0
20.155,0.072,0.467,28.0
20.145,0.075,0.363,26.0
20.148,0.078,0.259,26.0
20.154,0.081,0.152,27.0
20.196,0.084,0.048,36.0
20.186,0.087,-0.056,29.0
20.174,0.09,0.507,25.0
20.149,0.093,0.402,29.0
20.154,0.096,0.298,28.0
20.159,0.099,0.191,27.0
20.192,0.102,0.087,30.0
20.182,0.105,-0.017,27.0
20.203,0.108,0.547,25.0
20.163,0.111,0.442,27.0
20.16,0.114,0.337,28.0
20.159,0.117,0.231,26.0
20.17,0.121,0.126,26.0
20.191,0.124,0.022,34.0
20.202,0.127,0.586,15.0
20.149,0.13,0.48,19.0
20.161,0.133,0.376,26.0
20.168,0.137,0.27,26.0
20.17,0.14,0.165,25.0
20.212,0.144,0.06,31.0
20.236,0.147,0.626,5.0
20.165,0.15,0.519,19.0
20.18,0.153,0.415,22.0
20.164,0.156,0.308,23.0
20.198,0.16,0.203,21.0
20.226,0.164,0.098,24.0
125.699,1.039,4.13,18.0
20.234,0.17,0.559,15.0
20.232,0.174,0.454,25.0
20.246,0.178,0.347,27.0
20.282,0.181,0.242,28.0
20.307,0.185,0.137,29.0
103.827,0.965,3.607,27.0
20.27,0.192,0.598,16.0
20.262,0.195,0.492,30.0
20.276,0.199,0.385,29.0
20.287,0.203,0.28,27.0
20.294,0.207,0.174,27.0
103.989,1.077,3.805,19.0
20.282,0.213,0.636,0.0
20.278,0.217,0.53,27.0
20.271,0.221,0.422,30.0
20.277,0.225,0.317,32.0
20.294,0.229,0.211,25.0
124.917,1.432,4.801,25.0
133.322,1.552,4.426,33.0
20.264,0.239,0.567,17.0
20.275,0.243,0.459,24.0
20.27,0.247,0.353,23.0
20.311,0.252,0.248,20.0
103.974,1.307,4.183,18.0
117.859,1.505,4.126,15.0
125.075,1.621,3.723,23.0
20.262,0.266,0.495,19.0
20.277,0.27,0.389,11.0
20.303,0.275,0.284,1.0
103.917,1.426,4.365,25.0
102.913,1.433,3.784,9.0
125.047,1.766,3.944,33.0
157.093,2.25,4.116,27.0
196.185,2.849,4.114,20.0
194.699,2.868,3.066,33.0
103.972,1.549,4.549,17.0
118.358,1.788,4.558,15.0
125.13,1.915,4.163,24.0
0.0,0.0,0.0,0.0
196.518,3.088,4.458,25.0
194.941,3.104,3.403,28.0
103.61,1.667,4.709,20.0
133.323,2.173,5.361,3.0
125.192,2.066,4.376,18.0
0.0,0.0,0.0,0.0
197.445,3.342,4.812,5.0
194.93,3.34,3.729,26.0
103.665,1.796,4.889,44.0
125.588,2.201,5.261,15.0
124.796,2.213,4.571,17.0
148.528,2.666,4.647,3.0
0.0,0.0,0.0,0.0
194.493,3.576,4.043,13.0
103.728,1.927,5.064,16.0
118.306,2.222,5.151,20.0
124.769,2.371,4.777,26.0
134.849,2.592,4.44,3.0
0.0,0.0,0.0,0.0
194.654,3.825,4.361,16.0
69.244,1.375,3.493,5.0
118.171,2.371,5.338,17.0
124.675,2.528,4.973,14.0
0.0,0.0,0.0,0.0
195.01,4.042,5.708,5.0
194.63,4.078,4.672,19.0
103.518,2.191,5.388,5.0
118.251,2.529,5.532,11.0
124.756,2.696,5.178,6.0
140.184,3.062,5.066,4.0
0.0,0.0,0.0,0.0
194.788,4.341,4.985,21.0
68.708,1.546,3.685,6.0
118.263,2.688,5.719,4.0
124.915,2.866,5.379,3.0
132.644,3.073,4.998,2.0
0.0,0.0,0.0,0.0
194.554,4.595,5.275,16.0
110.096,2.625,6.075,8.0
124.53,2.997,6.212,5.0
124.916,3.035,5.569,3.0
102.598,2.516,4.021,2.0
0.0,0.0,0.0,0.0
194.782,4.866,5.573,8.0
69.468,1.752,3.937,9.0
103.885,2.643,5.337,9.0
125.046,3.21,5.761,4.0
102.559,2.657,4.172,7.0
194.856,5.093,6.895,5.0
0.0,0.0,0.0,0.0
69.491,1.849,4.041,8.0
103.69,2.782,5.479,5.0
110.583,2.992,5.256,3.0
120.233,3.282,5.064,7.0
0.0,0.0,0.0,0.0
193.149,5.361,6.085,19.0
69.634,1.95,4.149,1.0
103.8,2.931,5.633,5.0
103.05,2.934,5.045,7.0
124.724,3.58,5.429,3.0
102.922,2.979,3.934,2.0
192.978,5.633,6.353,19.0
67.407,1.984,4.111,4.0
69.184,2.053,3.851,2.0
103.723,3.103,5.222,12.0
102.087,3.078,4.586,1.0
193.592,5.884,7.666,14.0
193.686,5.931,6.639,20.0
118.626,3.664,7.398,8.0
103.741,3.228,5.916,6.0
103.006,3.23,5.325,5.0
110.51,3.493,5.113,2.0
193.551,6.163,7.922,23.0
193.524,6.21,6.892,15.0
201.248,6.514,12.823,17.0
104.014,3.391,6.07,6.0
103.523,3.399,5.488,2.0
117.856,3.898,5.607,5.0
196.006,6.532,8.281,7.0
194.016,6.512,7.16,19.0
68.406,2.315,4.447,6.0
67.42,2.298,4.022,4.0
103.75,3.56,5.633,2.0
104.444,3.61,5.102,5.0
196.275,6.833,8.54,7.0
193.687,6.791,7.394,19.0
68.818,2.432,4.561,7.0
69.415,2.47,4.228,8.0
103.751,3.718,5.764,2.0
195.587,7.056,9.797,19.0
101.506,3.687,4.542,1.0
194.86,7.126,7.677,6.0
53.33,1.966,3.6,2.0
68.367,2.537,4.247,7.0
202.346,7.559,11.487,17.0
195.553,7.354,10.033,14.0
195.466,7.397,8.978,8.0
197.797,7.533,8.026,11.0
67.125,2.577,4.611,6.0
53.563,2.069,3.391,0.0
103.476,4.023,5.995,2.0
195.001,7.631,10.231,18.0
194.833,7.671,9.176,8.0
195.227,7.736,8.146,17.0
67.586,2.699,4.721,8.0
68.89,2.767,4.44,8.0
67.418,2.725,3.982,3.0
194.978,7.931,10.448,20.0
194.353,7.954,9.37,13.0
195.136,8.036,8.36,9.0
68.429,2.84,4.856,8.0
69.365,2.896,4.548,3.0
67.342,2.828,4.052,3.0
195.329,8.253,10.682,17.0
194.235,8.255,9.577,23.0
193.379,8.266,8.492,7.0
68.598,2.956,4.943,6.0
69.506,3.012,4.632,2.0
67.294,2.933,4.121,2.0
195.834,8.582,10.915,27.0
194.438,8.57,9.789,23.0
193.549,8.578,8.701,20.0
52.697,2.354,3.852,9.0
69.524,3.122,4.704,2.0
67.317,3.039,4.191,2.0
195.948,8.895,11.12,22.0
194.634,8.883,9.992,21.0
192.986,8.856,8.866,22.0
65.63,3.035,4.862,2.0
47.343,2.201,3.25,0.0
67.17,3.14,4.247,2.0
196.231,9.22,11.326,21.0
194.329,9.178,10.162,8.0
192.881,9.156,9.044,22.0
0.0,0.0,0.0,0.0
47.374,2.277,3.296,1.0
0.0,0.0,0.0,0.0
0.0,0.0,0.0,0.0
194.368,9.488,10.342,23.0
193.037,9.47,9.226,20.0
51.526,2.547,3.913,1.0
52.774,2.621,3.72,1.0
0.0,0.0,0.0,0.0
0.0,0.0,0.0,0.0
195.507,9.855,10.575,20.0
193.105,9.781,9.396,25.0
51.428,2.624,3.95,1.0
47.693,2.445,3.403,1.0
67.153,3.459,4.425,1.0
205.541,10.638,12.407,17.0
194.048,10.092,10.658,16.0
193.96,10.136,9.6,17.0
47.257,2.488,3.669,1.0
65.561,3.467,4.732,1.0
0.0,0.0,0.0,0.0
0.0,0.0,0.0,0.0
194.252,10.414,10.823,20.0
193.763,10.436,9.742,22.0
242.311,13.148,19.004,23.0
242.357,13.206,17.682,22.0
0.0,0.0,0.0,0.0
0.0,0.0,0.0,0.0
195.411,10.79,11.034,24.0
193.618,10.739,9.878,22.0
47.278,2.641,3.743,2.0
47.558,2.668,3.504,2.0
205.942,11.603,14.049,8.0
206.535,11.687,12.939,21.0
195.76,11.125,11.195,7.0
193.444,11.04,10.005,20.0
47.228,2.715,3.773,4.0
47.136,2.721,3.506,4.0
206.19,11.952,14.207,12.0
0.0,0.0,0.0,0.0
0.0,0.0,0.0,0.0
194.227,11.397,10.173,20.0
47.185,2.788,3.8,3.0
243.635,14.457,18.284,22.0
206.649,12.309,14.371,7.0
208.211,12.45,13.317,6.0
0.0,0.0,0.0,0.0
194.306,11.713,10.297,20.0
46.376,2.815,3.764,3.0
244.043,14.874,18.463,25.0
207.066,12.667,14.524,8.0
207.711,12.756,13.407,17.0
207.693,12.803,12.267,9.0
196.147,12.139,10.507,6.0
47.278,2.946,3.864,3.0
244.511,15.296,18.637,19.0
207.422,13.022,14.665,6.0
0.0,0.0,0.0,0.0
107.974,6.829,6.435,2.0
195.463,12.409,10.577,8.0
45.86,2.932,3.773,1.0
47.543,3.051,3.648,1.0
110.345,7.106,7.859,2.0
0.0,0.0,0.0,0.0
0.0,0.0,0.0,0.0
195.865,12.748,10.695,19.0
45.778,3.0,3.788,3.0
46.219,3.039,3.569,1.0
111.482,7.357,7.993,10.0
208.713,13.82,13.791,10.0
0.0,0.0,0.0,0.0
197.02,13.137,10.846,6.0
47.782,3.208,3.976,0.0
0.0,0.0,0.0,0.0
245.827,16.616,17.731,15.0
111.349,7.55,7.404,5.0
110.795,7.538,6.755,6.0
120.249,8.208,6.668,3.0
246.255,16.981,19.222,21.0
246.435,17.045,17.871,15.0
108.233,7.51,7.238,4.0
111.23,7.744,6.824,8.0
111.029,7.756,6.197,1.0
47.56,3.345,3.994,1.0
246.655,17.399,19.343,15.0
246.752,17.46,17.981,15.0
0.0,0.0,0.0,0.0
92.381,6.577,5.698,1.0
111.248,7.945,6.245,4.0
45.778,3.301,3.604,1.0
107.239,7.757,7.846,6.0
116.209,8.43,7.845,2.0
109.584,7.973,6.79,4.0
111.052,8.105,6.266,9.0
47.164,3.466,3.989,0.0
45.726,3.37,3.612,1.0
247.658,18.303,18.186,10.0
91.157,6.755,6.178,1.0
107.957,8.023,6.716,5.0
92.372,6.885,5.234,11.0
107.338,8.055,9.103,4.0
45.75,3.442,3.624,1.0
107.841,8.136,7.942,9.0
120.502,9.117,8.192,4.0
99.802,7.571,6.229,4.0
92.334,7.025,5.25,2.0
107.347,8.243,8.524,11.0
107.803,8.299,7.958,5.0
91.495,7.063,6.235,1.0
111.797,8.653,6.995,6.0
107.418,8.336,6.124,4.0
248.776,19.479,19.79,18.0
110.276,8.656,8.156,7.0
107.699,8.475,7.354,5.0
91.286,7.203,5.723,10.0
91.479,7.237,5.226,4.0
106.872,8.51,9.112,3.0
108.139,8.632,8.613,4.0
107.477,8.599,7.959,2.0
91.605,7.347,6.261,5.0
97.396,7.832,6.114,6.0
109.123,8.796,6.242,5.0
112.573,9.132,9.604,2.0
116.148,9.445,9.258,8.0
116.122,9.464,8.605,14.0
116.315,9.502,7.956,5.0
91.664,7.506,5.757,9.0
97.354,7.991,5.572,2.0
117.875,9.738,10.061,9.0
117.802,9.753,9.392,8.0
112.305,9.319,8.323,8.0
100.191,8.331,6.854,4.0
116.053,9.673,7.289,15.0
91.791,7.669,5.253,10.0
115.588,9.718,9.863,7.0
112.583,9.485,8.973,3.0
85.01,7.177,6.298,4.0
96.343,8.152,6.587,3.0
97.847,8.297,6.142,9.0
98.934,8.409,5.656,5.0
109.968,9.405,9.377,4.0
96.499,8.27,7.685,8.0
115.356,9.907,8.538,5.0
107.642,9.264,7.352,7.0
85.408,7.366,5.353,5.0
84.961,7.344,4.849,4.0
115.023,10.004,9.797,6.0
111.982,9.758,8.906,3.0
114.685,10.014,8.475,6.0
107.35,9.393,7.318,9.0
85.413,7.49,5.343,5.0
86.737,7.622,4.939,2.0
109.708,9.699,9.329,4.0
109.571,9.705,8.698,5.0
96.573,8.571,7.122,10.0
97.366,8.658,6.623,4.0
85.321,7.601,5.324,2.0
83.833,7.484,4.76,3.0
86.153,7.737,7.311,2.0
99.296,8.933,7.865,5.0
84.817,7.644,6.239,3.0
97.244,8.781,6.595,3.0
109.809,9.935,6.829,4.0
89.073,8.074,5.038,3.0
85.942,7.835,7.274,1.0
91.724,8.376,7.244,2.0
0.0,0.0,0.0,0.0
84.957,7.786,5.742,7.0
89.154,8.186,5.524,3.0
83.603,7.69,4.709,3.0
106.953,9.895,9.025,7.0
95.905,8.887,7.549,2.0
96.681,8.974,7.064,4.0
85.871,7.983,5.781,5.0
84.505,7.871,5.211,6.0
84.917,7.923,4.759,4.0
85.351,8.009,7.177,2.0
86.054,8.088,6.748,5.0
90.552,8.525,6.588,1.0
87.565,8.258,5.866,2.0
78.366,7.403,4.808,5.0
84.219,7.969,4.692,4.0
92.04,8.759,7.708,10.0
85.963,8.193,6.711,4.0
107.931,10.301,7.815,6.0
86.982,8.315,5.797,1.0
84.851,8.124,5.175,4.0
86.933,8.338,4.811,2.0
91.197,8.795,7.604,2.0
84.216,8.134,6.543,4.0
84.357,8.159,6.075,11.0
84.839,8.218,5.621,13.0
87.424,8.482,5.297,3.0
85.015,8.262,4.671,4.0
92.131,9.001,7.643,4.0
79.947,7.821,6.178,4.0
92.154,9.028,6.598,2.0
87.095,8.544,5.733,4.0
87.29,8.576,5.252,4.0
85.028,8.366,4.635,12.0
92.056,9.106,7.596,5.0
85.236,8.442,6.549,5.0
84.043,8.335,5.979,5.0
80.376,7.982,5.254,5.0
123.025,12.235,7.344,4.0
85.14,8.48,4.601,9.0
91.801,9.191,7.531,7.0
68.74,6.89,5.247,3.0
72.92,7.319,5.151,3.0
73.019,7.338,4.736,1.0
90.282,9.085,5.345,7.0
84.251,8.49,4.509,6.0
85.278,8.637,6.951,4.0
68.68,6.964,5.207,2.0
84.17,8.545,5.902,4.0
73.106,7.43,4.704,3.0
90.003,9.16,5.28,7.0
84.235,8.584,4.464,4.0
85.171,8.722,6.895,5.0
74.702,7.659,5.622,3.0
72.928,7.485,5.073,3.0
78.537,8.07,5.009,3.0
98.993,10.186,5.75,10.0
87.946,9.06,4.61,2.0
78.8,8.157,6.333,3.0
68.716,7.12,5.131,2.0
68.503,7.106,4.724,3.0
73.075,7.589,4.616,2.0
95.483,9.928,5.489,2.0
79.68,8.295,4.127,3.0
78.798,8.242,6.284,7.0
74.634,7.813,5.526,5.0
72.943,7.644,4.984,3.0
69.075,7.246,4.32,1.0
81.081,8.515,4.61,1.0
87.9,9.241,4.498,2.0
79.015,8.345,6.251,12.0
74.545,7.88,5.47,4.0
84.24,8.914,5.701,6.0
69.168,7.326,4.28,9.0
81.071,8.596,4.555,7.0
85.078,9.03,4.296,4.0
74.465,7.939,5.84,3.0
77.545,8.275,5.638,3.0
84.325,9.007,5.648,5.0
76.696,8.2,4.692,2.0
80.971,8.665,4.492,7.0
90.369,9.681,4.5,3.0
73.917,7.952,5.743,2.0
77.361,8.329,5.569,3.0
84.307,9.085,5.587,3.0
76.771,8.28,4.641,3.0
80.973,8.741,4.434,4.0
90.376,9.766,4.435,6.0
84.202,9.137,6.481,5.0
73.901,8.025,5.264,6.0
84.452,9.178,5.533,8.0
84.471,9.188,5.043,3.0
91.859,10.001,4.959,3.0
87.066,9.488,4.205,6.0
74.016,8.099,5.639,3.0
77.53,8.489,5.462,4.0
74.158,8.126,4.8,8.0
84.507,9.266,4.979,2.0
76.887,8.438,4.091,1.0
0.0,0.0,0.0,0.0
68.766,7.583,5.183,3.0
77.552,8.557,5.401,5.0
85.74,9.468,5.48,8.0
84.403,9.327,4.903,2.0
91.987,10.172,4.819,4.0
90.394,10.004,4.22,3.0
68.729,7.636,5.123,6.0
68.53,7.618,4.715,3.0
85.779,9.542,5.411,10.0
76.362,8.499,4.373,0.0
77.001,8.577,3.969,3.0
91.78,10.231,4.207,20.0
68.679,7.684,5.06,7.0
68.48,7.665,4.653,4.0
85.716,9.601,5.333,12.0
76.217,8.542,4.298,4.0
87.653,9.83,4.442,3.0
85.8,9.629,3.858,14.0
0.0,0.0,0.0,0.0
68.263,7.692,4.578,4.0
85.706,9.662,5.257,7.0
76.633,8.644,4.253,5.0
87.695,9.898,4.366,4.0
85.837,9.694,3.783,24.0
68.457,7.758,4.921,7.0
73.349,8.316,4.852,5.0
77.718,8.815,4.696,3.0
76.57,8.69,4.18,8.0
107.768,12.238,5.266,18.0
85.868,9.756,3.706,24.0
84.727,9.658,6.013,8.0
73.677,8.402,4.805,4.0
74.752,8.528,4.447,4.0
75.726,8.643,4.063,4.0
121.809,13.911,5.837,8.0
85.861,9.81,3.624,19.0
67.806,7.772,4.747,4.0
73.121,8.384,4.699,2.0
75.181,8.623,4.4,1.0
105.205,12.072,5.543,4.0
136.871,15.713,6.428,9.0
85.847,9.86,3.54,13.0
72.753,8.381,5.022,1.0
78.395,9.033,4.961,10.0
75.465,8.699,4.342,1.0
107.902,12.443,5.579,5.0
105.183,12.134,4.836,17.0
91.773,10.592,3.694,15.0
68.337,7.909,4.649,3.0
78.383,9.075,4.881,9.0
75.481,8.741,4.267,4.0
90.645,10.5,4.596,19.0
90.65,10.504,4.077,7.0
85.917,9.96,3.372,23.0
68.393,7.95,4.583,3.0
78.303,9.103,4.797,3.0
87.661,10.194,4.867,2.0
90.674,10.547,4.506,19.0
90.721,10.556,3.987,10.0
91.973,10.706,3.516,16.0
68.479,7.991,4.518,4.0
80.829,9.434,4.868,2.0
87.697,10.238,4.777,16.0
90.666,10.586,4.41,22.0
90.811,10.606,3.896,33.0
92.026,10.752,3.421,29.0
68.479,8.02,4.445,3.0
75.424,8.834,4.461,2.0
87.712,10.275,4.685,9.0
90.717,10.629,4.315,15.0
90.887,10.651,3.802,41.0
92.019,10.786,3.323,27.0
68.532,8.052,4.374,1.0
75.47,8.867,4.383,6.0
85.645,10.064,4.482,21.0
90.67,10.655,4.215,23.0
90.95,10.69,3.706,25.0
92.003,10.816,3.223,15.0
84.746,9.984,5.317,3.0
75.418,8.885,4.299,5.0
85.744,10.103,4.393,25.0
90.654,10.682,4.115,12.0
85.945,10.129,3.408,12.0
96.695,11.397,3.281,8.0
74.825,8.837,4.611,2.0
68.457,8.084,3.826,2.0
85.746,10.126,4.299,34.0
92.406,10.913,4.093,14.0
85.927,10.149,3.313,20.0
98.373,11.621,3.228,9.0
78.455,9.284,4.747,2.0
80.733,9.553,4.42,5.0
85.742,10.145,4.202,44.0
92.381,10.931,3.988,27.0
85.964,10.172,3.217,13.0
98.349,11.639,3.117,12.0
76.86,9.11,4.563,1.0
80.802,9.577,4.332,4.0
85.789,10.167,4.106,43.0
92.36,10.945,3.881,14.0
91.873,10.887,3.333,16.0
98.287,11.648,3.002,12.0
75.381,8.947,4.388,6.0
92.565,10.984,4.856,18.0
85.833,10.184,4.009,43.0
103.6,12.291,4.233,10.0
91.645,10.872,3.219,21.0
97.902,11.615,2.877,13.0
75.139,8.926,4.287,3.0
92.577,10.995,4.748,40.0
85.934,10.204,3.913,45.0
91.214,10.83,3.62,13.0
96.769,11.488,3.285,8.0
97.723,11.601,2.757,36.0
80.755,9.598,4.511,4.0
92.591,11.002,4.64,22.0
85.958,10.211,3.813,25.0
85.915,10.204,3.309,22.0
114.988,13.656,3.767,10.0
97.67,11.598,2.64,43.0
80.906,9.617,4.424,5.0
85.739,10.188,4.193,33.0
92.386,10.975,3.987,23.0
85.902,10.202,3.206,10.0
114.973,13.653,3.631,7.0
97.709,11.602,2.525,50.0
80.924,9.616,4.328,4.0
85.755,10.187,4.093,52.0
92.338,10.966,3.875,19.0
91.566,10.871,3.309,27.0
98.248,11.662,2.986,6.0
97.726,11.598,2.409,50.0
92.574,10.993,4.839,30.0
85.848,10.191,3.994,41.0
91.194,10.821,3.718,9.0
91.725,10.881,3.203,16.0
97.89,11.61,2.857,19.0
97.735,11.589,2.292,42.0
92.566,10.981,4.727,29.0
86.726,10.284,3.929,29.0
85.908,10.183,3.399,12.0
96.699,11.457,3.261,7.0
97.682,11.571,2.733,43.0
97.738,11.574,2.175,36.0
85.743,10.157,4.276,38.0
92.351,10.935,4.074,17.0
85.936,10.17,3.298,20.0
98.39,11.64,3.2,11.0
97.689,11.553,2.617,45.0
97.742,11.555,2.058,29.0
85.921,10.159,4.18,34.0
92.429,10.923,3.965,14.0
92.011,10.869,3.419,19.0
98.322,11.609,3.078,30.0
97.758,11.537,2.499,46.0
97.747,11.532,1.94,23.0
86.856,10.247,4.12,15.0
103.745,12.233,4.325,13.0
92.003,10.842,3.306,37.0
98.044,11.549,2.951,20.0
97.781,11.512,2.382,25.0
97.779,11.508,1.821,13.0
90.67,10.669,4.19,18.0
90.953,10.696,3.68,25.0
96.686,11.363,3.356,6.0
97.584,11.462,2.818,34.0
97.781,11.48,2.263,6.0
149.356,17.527,2.6,13.0
90.725,10.643,4.081,25.0
85.932,10.074,3.372,19.0
98.524,11.543,3.3,9.0
97.731,11.443,2.703,28.0
97.675,11.431,2.141,4.0
149.783,17.52,2.427,21.0
90.783,10.614,3.973,33.0
92.003,10.748,3.498,27.0
97.373,11.368,3.143,41.0
97.823,11.413,2.587,31.0
149.278,17.407,3.092,4.0
149.738,17.451,2.243,24.0
110.888,12.914,4.718,12.0
99.066,11.528,3.646,14.0
97.395,11.325,3.025,32.0
97.761,11.36,2.466,13.0
149.309,17.34,2.91,17.0
149.723,17.377,2.06,13.0
85.892,9.96,3.549,32.0
103.862,12.034,3.696,5.0
115.344,13.354,3.443,23.0
149.679,17.317,3.595,11.0
149.393,17.272,2.731,21.0
149.756,17.304,1.88,3.0
91.783,10.594,3.682,32.0
97.25,11.215,3.343,14.0
115.395,13.297,3.303,18.0
152.951,17.611,3.488,12.0
149.551,17.206,2.555,16.0
75.485,8.679,0.856,4.0
91.792,10.541,3.572,14.0
104.254,11.961,3.458,14.0
97.786,11.209,2.683,29.0
0.0,0.0,0.0,0.0
149.677,17.13,2.376,19.0
75.504,8.635,0.767,3.0
110.585,12.63,4.171,11.0
104.244,11.894,3.333,33.0
97.813,11.15,2.568,8.0
144.072,16.41,2.943,13.0
144.049,16.393,2.115,10.0
0.0,0.0,0.0,0.0
104.929,11.914,3.832,6.0
104.315,11.831,3.212,22.0
144.159,16.335,3.614,15.0
144.054,16.308,2.771,14.0
103.771,11.737,1.401,4.0
75.784,8.564,0.59,0.0
97.093,10.954,3.431,12.0
97.752,11.017,2.894,12.0
144.184,16.233,3.445,7.0
103.847,11.68,1.876,9.0
103.825,11.667,1.28,2.0
75.738,8.503,0.501,0.0
97.011,10.871,3.315,20.0
97.709,10.937,2.778,37.0
103.941,11.622,2.36,18.0
103.766,11.59,1.753,41.0
0.0,0.0,0.0,0.0
75.598,8.428,0.412,13.0
97.802,10.881,3.229,10.0
115.426,12.826,3.149,24.0
103.836,11.525,2.238,40.0
103.763,11.505,1.633,21.0
0.0,0.0,0.0,0.0
75.962,8.405,0.327,5.0
97.694,10.786,3.111,34.0
103.938,11.46,2.715,21.0
103.86,11.438,2.12,34.0
149.786,16.478,2.185,17.0
81.867,8.996,0.727,1.0
