X,Y,Z,Reflectivity
30.553,-1.575,-0.689,28.0
24.48,-1.255,-0.682,14.0
66.595,-3.403,-0.01,1.0
65.614,-3.331,-0.359,5.0
47.422,-2.392,-0.513,3.0
31.318,-1.57,-0.509,18.0
30.619,-1.525,-0.661,27.0
28.054,-1.388,-0.755,1.0
0.0,0.0,0.0,0.0
31.302,-1.533,-0.142,0.0
31.233,-1.519,-0.308,33.0
31.216,-1.508,-0.478,37.0
30.725,-1.474,-0.634,29.0
28.261,-1.347,-0.735,3.0
31.316,-1.487,0.053,3.0
31.241,-1.473,-0.113,37.0
31.197,-1.461,-0.279,47.0
31.193,-1.45,-0.449,54.0
30.864,-1.425,-0.61,33.0
28.723,-1.317,-0.721,3.0
31.234,-1.426,0.081,47.0
31.217,-1.414,-0.085,63.0
31.208,-1.404,-0.252,51.0
31.173,-1.392,-0.422,43.0
28.478,-1.262,-0.538,50.0
28.464,-1.252,-0.69,53.0
28.465,-1.247,0.098,62.0
28.454,-1.237,-0.053,60.0
28.444,-1.227,-0.205,58.0
28.436,-1.216,-0.36,86.0
28.458,-1.208,-0.513,132.0
28.462,-1.199,-0.666,122.0
28.449,-1.192,0.122,131.0
28.441,-1.182,-0.03,111.0
28.447,-1.173,-0.182,119.0
28.454,-1.164,-0.338,135.0
28.439,-1.153,-0.49,75.0
28.456,-1.144,-0.643,62.0
28.454,-1.138,0.145,76.0
28.45,-1.128,-0.007,65.0
28.461,-1.119,-0.16,62.0
28.453,-1.109,-0.315,25.0
31.25,-1.207,-0.514,34.0
30.573,-1.171,-0.667,35.0
31.272,-1.191,0.183,46.0
31.289,-1.181,0.015,50.0
31.343,-1.172,-0.152,49.0
31.391,-1.163,-0.325,6.0
38.211,-1.402,-0.6,4.0
30.675,-1.115,-0.647,33.0
80.36,-2.904,0.53,25.0
80.485,-2.882,0.098,26.0
80.377,-2.85,-0.334,4.0
45.691,-1.605,-0.44,3.0
38.283,-1.331,-0.575,13.0
30.85,-1.062,-0.629,30.0
80.458,-2.752,0.586,26.0
80.43,-2.722,0.153,15.0
38.752,-1.297,-0.134,24.0
38.694,-1.282,-0.346,38.0
38.407,-1.259,-0.55,13.0
31.043,-1.007,-0.612,28.0
38.681,-1.245,0.308,61.0
38.68,-1.232,0.099,63.0
38.664,-1.217,-0.108,54.0
38.629,-1.202,-0.32,60.0
38.538,-1.186,-0.527,30.0
31.25,-0.951,-0.596,20.0
38.639,-1.167,0.332,72.0
38.644,-1.153,0.123,72.0
38.667,-1.14,-0.084,86.0
38.632,-1.125,-0.297,66.0
38.598,-1.11,-0.504,32.0
31.423,-0.892,-0.58,9.0
38.64,-1.088,0.355,74.0
38.648,-1.074,0.147,69.0
38.652,-1.061,-0.061,65.0
38.674,-1.047,-0.274,56.0
38.67,-1.034,-0.483,29.0
37.902,-0.999,-0.678,10.0
38.693,-1.01,0.378,46.0
38.718,-0.997,0.168,20.0
38.76,-0.984,-0.04,22.0
38.807,-0.971,-0.254,18.0
38.791,-0.957,-0.463,18.0
37.955,-0.923,-0.659,18.0
40.415,-0.972,0.416,36.0
40.417,-0.957,0.197,40.0
40.41,-0.942,-0.021,39.0
40.4,-0.927,-0.243,50.0
40.42,-0.914,-0.462,29.0
38.054,-0.846,-0.641,23.0
38.4,-0.844,0.414,11.0
38.372,-0.829,0.206,46.0
38.372,-0.816,-0.001,42.0
38.371,-0.802,-0.213,21.0
45.351,-0.932,-0.498,11.0
38.151,-0.769,-0.625,22.0
52.967,-1.054,0.596,43.0
52.945,-1.034,0.308,49.0
52.984,-1.016,0.021,37.0
52.941,-0.996,-0.27,60.0
45.473,-0.838,-0.479,17.0
38.295,-0.692,-0.611,13.0
0.0,0.0,0.0,0.0
20.141,-0.351,0.125,5.0
20.136,-0.344,0.016,51.0
20.132,-0.336,-0.094,0.0
52.797,-0.863,-0.535,25.0
38.582,-0.618,-0.601,14.0
20.15,-0.316,0.243,9.0
20.121,-0.308,0.133,14.0
20.131,-0.301,0.024,13.0
56.787,-0.83,-0.246,3.0
52.875,-0.754,-0.517,18.0
39.176,-0.544,-0.596,11.0
20.137,-0.273,0.25,13.0
20.146,-0.266,0.14,9.0
59.555,-0.765,0.091,56.0
56.238,-0.703,-0.225,1.0
52.951,-0.643,-0.5,9.0
44.718,-0.527,-0.666,6.0
20.155,-0.231,0.256,12.0
64.34,-0.715,0.468,17.0
56.154,-0.603,0.103,2.0
56.236,-0.584,-0.209,12.0
53.11,-0.533,-0.487,3.0
44.868,-0.433,-0.656,8.0
64.342,-0.6,0.837,22.0
64.319,-0.576,0.486,4.0
56.273,-0.484,0.118,3.0
20.186,-0.166,-0.069,7.0
20.16,-0.158,-0.179,15.0
20.159,-0.151,-0.289,30.0
20.176,-0.145,0.267,17.0
20.149,-0.138,0.157,17.0
20.144,-0.13,0.046,29.0
20.16,-0.123,-0.065,26.0
20.15,-0.116,-0.175,29.0
20.139,-0.108,-0.285,38.0
20.12,-0.102,0.27,27.0
20.136,-0.094,0.16,27.0
20.137,-0.087,0.05,35.0
20.142,-0.08,-0.061,29.0
20.142,-0.073,-0.171,36.0
20.151,-0.066,-0.282,28.0
20.118,-0.059,0.274,32.0
20.116,-0.051,0.163,35.0
20.135,-0.044,0.053,42.0
20.124,-0.037,-0.058,31.0
20.174,-0.03,-0.169,25.0
20.169,-0.023,-0.279,9.0
20.123,-0.015,0.276,27.0
20.124,-0.008,0.166,28.0
20.178,-0.001,0.056,41.0
20.257,0.005,-0.056,151.0
20.252,0.012,-0.167,151.0
20.269,0.02,-0.279,150.0
20.141,0.027,0.278,31.0
20.137,0.034,0.168,27.0
20.175,0.041,0.057,17.0
20.212,0.049,-0.055,25.0
20.221,0.056,-0.166,26.0
20.236,0.063,-0.277,0.0
20.154,0.07,0.28,28.0
20.151,0.077,0.169,29.0
20.19,0.085,0.058,35.0
20.178,0.092,-0.054,34.0
20.178,0.099,-0.165,32.0
20.194,0.106,-0.276,29.0
20.163,0.114,0.28,29.0
20.171,0.121,0.169,27.0
20.199,0.128,0.058,27.0
20.182,0.135,-0.054,24.0
20.17,0.142,-0.165,27.0
20.171,0.15,-0.276,36.0
20.223,0.157,0.28,26.0
20.271,0.165,0.17,26.0
20.311,0.173,0.058,30.0
20.282,0.18,-0.055,11.0
20.203,0.186,-0.166,13.0
20.18,0.193,-0.277,27.0
20.29,0.202,0.28,27.0
20.288,0.209,0.168,26.0
20.311,0.216,0.057,11.0
0.0,0.0,0.0,0.0
20.213,0.229,-0.168,0.0
20.197,0.236,-0.279,16.0
20.288,0.245,0.278,20.0
20.286,0.252,0.166,0.0
99.662,1.274,0.269,5.0
0.0,0.0,0.0,0.0
0.0,0.0,0.0,0.0
0.0,0.0,0.0,0.0
195.301,2.782,2.657,6.0
0.0,0.0,0.0,0.0
99.792,1.49,0.254,5.0
101.675,1.554,-0.312,1.0
0.0,0.0,0.0,0.0
0.0,0.0,0.0,0.0
0.0,0.0,0.0,0.0
99.944,1.668,0.79,1.0
99.838,1.701,0.236,7.0
0.0,0.0,0.0,0.0
0.0,0.0,0.0,0.0
0.0,0.0,0.0,0.0
103.223,1.909,1.365,3.0
103.006,1.941,0.791,3.0
0.0,0.0,0.0,0.0
0.0,0.0,0.0,0.0
0.0,0.0,0.0,0.0
0.0,0.0,0.0,0.0
103.177,2.13,1.339,4.0
102.871,2.158,0.765,1.0
100.032,2.131,0.189,9.0
0.0,0.0,0.0,0.0
61.611,1.355,-0.573,0.0
49.325,1.1,-0.732,0.0
0.0,0.0,0.0,0.0
102.923,2.377,0.735,3.0
100.201,2.346,0.159,2.0
0.0,0.0,0.0,0.0
0.0,0.0,0.0,0.0
0.0,0.0,0.0,0.0
195.15,4.849,2.415,4.0
103.07,2.596,0.703,7.0
100.435,2.562,0.127,2.0
0.0,0.0,0.0,0.0
0.0,0.0,0.0,0.0
0.0,0.0,0.0,0.0
195.207,5.26,2.347,26.0
103.262,2.816,0.667,1.0
0.0,0.0,0.0,0.0
0.0,0.0,0.0,0.0
0.0,0.0,0.0,0.0
0.0,0.0,0.0,0.0
195.766,5.683,2.277,8.0
196.043,5.752,1.189,43.0
0.0,0.0,0.0,0.0
0.0,0.0,0.0,0.0
0.0,0.0,0.0,0.0
0.0,0.0,0.0,0.0
0.0,0.0,0.0,0.0
196.18,6.161,1.105,28.0
0.0,0.0,0.0,0.0
0.0,0.0,0.0,0.0
0.0,0.0,0.0,0.0
0.0,0.0,0.0,0.0
0.0,0.0,0.0,0.0
196.301,6.57,1.013,36.0
0.0,0.0,0.0,0.0
0.0,0.0,0.0,0.0
0.0,0.0,0.0,0.0
0.0,0.0,0.0,0.0
202.908,7.133,2.08,7.0
196.458,6.969,0.916,31.0
0.0,0.0,0.0,0.0
69.037,2.492,-0.456,3.0
0.0,0.0,0.0,0.0
0.0,0.0,0.0,0.0
195.072,7.253,1.895,11.0
195.081,7.313,0.805,21.0
0.0,0.0,0.0,0.0
68.921,2.625,-0.493,2.0
0.0,0.0,0.0,0.0
41.454,1.604,-0.76,0.0
199.309,7.804,1.825,9.0
196.723,7.764,0.701,25.0
0.0,0.0,0.0,0.0
68.974,2.765,-0.533,0.0
0.0,0.0,0.0,0.0
0.0,0.0,0.0,0.0
196.606,8.093,1.681,12.0
196.786,8.159,0.58,9.0
0.0,0.0,0.0,0.0
68.948,2.9,-0.576,3.0
0.0,0.0,0.0,0.0
38.856,1.659,-0.76,0.0
195.542,8.437,1.547,41.0
195.526,8.493,0.451,13.0
0.0,0.0,0.0,0.0
68.998,3.039,-0.621,1.0
0.0,0.0,0.0,0.0
0.0,0.0,0.0,0.0
196.859,8.877,1.426,30.0
0.0,0.0,0.0,0.0
0.0,0.0,0.0,0.0
0.0,0.0,0.0,0.0
0.0,0.0,0.0,0.0
37.455,1.744,-0.784,0.0
197.032,9.265,1.289,29.0
0.0,0.0,0.0,0.0
0.0,0.0,0.0,0.0
0.0,0.0,0.0,0.0
0.0,0.0,0.0,0.0
0.0,0.0,0.0,0.0
197.182,9.645,1.146,32.0
0.0,0.0,0.0,0.0
0.0,0.0,0.0,0.0
0.0,0.0,0.0,0.0
0.0,0.0,0.0,0.0
36.464,1.836,-0.817,0.0
197.267,10.021,0.995,28.0
0.0,0.0,0.0,0.0
68.985,3.543,-0.428,2.0
0.0,0.0,0.0,0.0
42.362,2.2,-0.744,0.0
0.0,0.0,0.0,0.0
197.365,10.394,0.838,22.0
0.0,0.0,0.0,0.0
68.909,3.667,-0.483,0.0
0.0,0.0,0.0,0.0
0.0,0.0,0.0,0.0
33.697,1.821,-0.809,0.0
196.092,10.685,0.671,47.0
0.0,0.0,0.0,0.0
68.782,3.785,-0.54,0.0
0.0,0.0,0.0,0.0
0.0,0.0,0.0,0.0
33.233,1.856,-0.826,1.0
197.664,11.125,0.508,5.0
0.0,0.0,0.0,0.0
0.0,0.0,0.0,0.0
0.0,0.0,0.0,0.0
38.258,2.194,-0.769,0.0
32.181,1.854,-0.829,1.0
0.0,0.0,0.0,0.0
0.0,0.0,0.0,0.0
0.0,0.0,0.0,0.0
46.324,2.726,-0.712,0.0
37.241,2.202,-0.782,0.0
31.556,1.874,-0.841,0.0
0.0,0.0,0.0,0.0
0.0,0.0,0.0,0.0
0.0,0.0,0.0,0.0
0.0,0.0,0.0,0.0
35.606,2.167,-0.781,0.0
30.897,1.888,-0.853,0.0
0.0,0.0,0.0,0.0
0.0,0.0,0.0,0.0
0.0,0.0,0.0,0.0
0.0,0.0,0.0,0.0
35.325,2.21,-0.809,0.0
30.298,1.903,-0.865,0.0
0.0,0.0,0.0,0.0
69.019,4.382,-0.469,1.0
0.0,0.0,0.0,0.0
0.0,0.0,0.0,0.0
33.3,2.139,-0.795,0.0
29.023,1.871,-0.858,0.0
0.0,0.0,0.0,0.0
69.026,4.496,-0.539,3.0
0.0,0.0,0.0,0.0
0.0,0.0,0.0,0.0
32.889,2.166,-0.819,1.0
28.252,1.868,-0.864,0.0
0.0,0.0,0.0,0.0
0.0,0.0,0.0,0.0
0.0,0.0,0.0,0.0
37.889,2.547,-0.768,0.0
31.878,2.151,-0.827,0.0
27.478,1.861,-0.869,0.0
0.0,0.0,0.0,0.0
0.0,0.0,0.0,0.0
0.0,0.0,0.0,0.0
0.0,0.0,0.0,0.0
30.501,2.106,-0.823,0.0
26.78,1.855,-0.875,0.0
0.0,0.0,0.0,0.0
0.0,0.0,0.0,0.0
0.0,0.0,0.0,0.0
0.0,0.0,0.0,0.0
30.119,2.126,-0.846,0.0
26.011,1.842,-0.878,0.0
0.0,0.0,0.0,0.0
52.196,3.728,-0.628,0.0
0.0,0.0,0.0,0.0
33.12,2.38,-0.778,0.0
29.409,2.12,-0.858,0.0
25.243,1.825,-0.88,0.0
0.0,0.0,0.0,0.0
0.0,0.0,0.0,0.0
0.0,0.0,0.0,0.0
32.779,2.403,-0.807,1.0
28.292,2.081,-0.857,0.0
24.501,1.807,-0.882,0.0
0.0,0.0,0.0,0.0
0.0,0.0,0.0,0.0
38.377,2.861,-0.766,0.0
32.681,2.443,-0.842,0.0
27.523,2.064,-0.866,0.0
23.724,1.784,-0.881,0.0
0.0,0.0,0.0,0.0
0.0,0.0,0.0,0.0
0.0,0.0,0.0,0.0
30.173,2.298,-0.812,0.0
26.742,2.042,-0.872,0.0
23.359,1.789,-0.895,0.0
0.0,0.0,0.0,0.0
0.0,0.0,0.0,0.0
0.0,0.0,0.0,0.0
29.706,2.304,-0.836,0.0
25.909,2.015,-0.877,0.0
21.867,1.705,-0.864,0.0
0.0,0.0,0.0,0.0
0.0,0.0,0.0,0.0
33.158,2.609,-0.78,0.0
28.871,2.278,-0.847,0.0
24.829,1.964,-0.87,0.0
21.819,1.73,-0.889,8.0
0.0,0.0,0.0,0.0
39.46,3.15,-0.752,0.0
32.775,2.622,-0.811,1.0
27.875,2.235,-0.852,0.0
24.338,1.956,-0.883,1.0
21.787,1.756,-0.915,3.0
0.0,0.0,0.0,0.0
0.0,0.0,0.0,0.0
31.779,2.583,-0.826,1.0
27.149,2.211,-0.864,0.0
23.823,1.945,-0.894,0.0
21.176,1.733,-0.916,0.0
0.0,0.0,0.0,0.0
35.626,2.932,-0.768,0.0
30.54,2.519,-0.832,0.0
26.254,2.171,-0.868,0.0
21.93,1.817,-0.85,3.0
20.126,1.671,-0.896,0.0
0.0,0.0,0.0,0.0
0.0,0.0,0.0,0.0
29.513,2.469,-0.842,0.0
25.303,2.122,-0.869,0.0
21.848,1.836,-0.875,8.0
19.601,1.651,-0.897,0.0
39.558,3.342,-0.727,0.0
32.982,2.792,-0.794,0.0
28.478,2.415,-0.849,0.0
24.442,2.077,-0.871,1.0
21.803,1.857,-0.901,6.0
19.451,1.66,-0.916,0.0
38.079,3.26,-0.749,0.0
32.0,2.744,-0.812,1.0
27.472,2.36,-0.854,0.0
23.97,2.063,-0.885,0.0
21.616,1.864,-0.922,0.0
19.025,1.644,-0.92,0.0
37.222,3.226,-0.781,0.0
30.73,2.668,-0.82,1.0
26.541,2.309,-0.86,0.0
21.923,1.911,-0.838,2.0
20.687,1.806,-0.909,0.0
18.173,1.59,-0.903,0.0
35.073,3.076,-0.782,0.0
29.915,2.628,-0.838,0.0
25.646,2.257,-0.865,0.0
21.857,1.927,-0.865,6.0
19.699,1.74,-0.892,0.0
17.98,1.591,-0.918,0.0
33.081,2.934,-0.781,0.0
28.676,2.548,-0.841,0.0
24.653,2.194,-0.865,0.0
21.804,1.944,-0.892,7.0
19.455,1.737,-0.907,0.0
17.434,1.56,-0.913,0.0
32.556,2.919,-0.813,1.0
27.79,2.495,-0.853,0.0
24.112,2.168,-0.878,0.0
21.57,1.943,-0.911,0.0
19.134,1.726,-0.918,0.0
17.169,1.552,-0.922,0.0
31.065,2.813,-0.817,0.0
26.743,2.426,-0.857,0.0
23.454,2.13,-0.886,0.0
20.675,1.881,-0.902,0.0
18.775,1.711,-0.927,0.0
16.821,1.535,-0.927,0.0
29.955,2.739,-0.828,0.0
25.788,2.361,-0.861,0.0
21.938,2.011,-0.858,0.0
19.878,1.825,-0.894,0.0
18.03,1.658,-0.914,0.0
16.39,1.509,-0.925,0.0
28.653,2.643,-0.832,0.0
24.79,2.29,-0.861,0.0
21.766,2.013,-0.881,1.0
19.503,1.806,-0.904,0.0
17.601,1.632,-0.917,0.0
16.034,1.489,-0.927,0.0
27.82,2.588,-0.845,0.0
24.09,2.244,-0.87,0.0
21.619,2.016,-0.905,0.0
19.232,1.796,-0.917,0.0
17.257,1.614,-0.923,0.0
15.692,1.469,-0.929,0.0
26.924,2.524,-0.855,0.0
23.448,2.201,-0.879,0.0
20.814,1.956,-0.9,0.0
18.549,1.745,-0.91,0.0
16.893,1.592,-0.926,0.0
15.33,1.446,-0.929,0.0
25.815,2.438,-0.855,0.0
21.91,2.072,-0.852,0.0
20.097,1.902,-0.896,0.0
17.838,1.69,-0.9,0.0
16.401,1.556,-0.922,0.0
14.975,1.423,-0.928,0.0
24.94,2.371,-0.86,0.0
21.799,2.075,-0.877,1.0
19.542,1.862,-0.898,0.0
17.739,1.692,-0.919,1.0
16.098,1.537,-0.927,0.0
14.762,1.412,-0.935,0.0
24.241,2.319,-0.87,0.0
21.647,2.073,-0.901,0.0
19.232,1.844,-0.911,0.0
17.406,1.67,-0.926,0.0
15.753,1.514,-0.929,0.0
14.502,1.395,-0.939,0.0
23.421,2.254,-0.872,0.0
20.843,2.008,-0.896,0.0
18.501,1.784,-0.902,0.0
16.884,1.63,-0.922,0.0
15.372,1.485,-0.928,0.0
14.256,1.379,-0.942,0.0
21.984,2.127,-0.849,0.0
20.104,1.947,-0.892,0.0
17.996,1.744,-0.902,1.0
16.401,1.591,-0.918,0.0
15.036,1.46,-0.928,0.0
0.0,0.0,0.0,0.0
21.804,2.12,-0.872,1.0
19.548,1.902,-0.894,0.0
17.77,1.73,-0.915,2.0
16.121,1.571,-0.925,0.0
14.778,1.442,-0.933,0.0
13.481,1.317,-0.929,0.0
21.687,2.118,-0.898,0.0
19.303,1.886,-0.91,0.0
17.497,1.711,-0.925,0.0
15.752,1.542,-0.925,0.0
14.498,1.42,-0.935,0.0
13.405,1.314,-0.942,0.0
20.871,2.046,-0.892,0.0
18.465,1.811,-0.896,0.0
16.956,1.664,-0.92,0.0
15.388,1.512,-0.925,0.0
14.297,1.406,-0.942,0.0
13.098,1.289,-0.939,0.0
20.566,2.023,-0.907,0.0
18.058,1.777,-0.9,0.0
16.522,1.627,-0.919,0.0
15.019,1.48,-0.923,0.0
0.0,0.0,0.0,0.0
12.874,1.271,-0.94,0.0
19.573,1.931,-0.89,0.0
17.786,1.756,-0.911,2.0
16.138,1.594,-0.919,0.0
14.812,1.464,-0.931,0.0
0.0,0.0,0.0,0.0
12.677,1.255,-0.943,0.0
19.377,1.916,-0.907,0.0
17.585,1.74,-0.924,0.0
15.893,1.573,-0.927,0.0
14.54,1.44,-0.933,0.0
13.322,1.32,-0.932,0.0
12.406,1.23,-0.939,0.0
18.614,1.844,-0.896,0.0
17.058,1.691,-0.919,0.0
15.539,1.541,-0.927,0.0
14.333,1.422,-0.939,0.0
13.173,1.308,-0.939,0.0
12.237,1.216,-0.943,0.0
18.13,1.799,-0.897,0.0
16.64,1.652,-0.919,0.0
15.143,1.504,-0.923,0.0
0.0,0.0,0.0,0.0
12.949,1.288,-0.94,0.0
11.959,1.19,-0.937,0.0
17.84,1.773,-0.906,2.0
16.219,1.612,-0.917,0.0
14.933,1.485,-0.93,0.0
0.0,0.0,0.0,0.0
12.711,1.265,-0.94,0.0
11.807,1.176,-0.941,0.0
17.675,1.757,-0.921,1.0
15.935,1.585,-0.922,0.0
14.631,1.455,-0.931,0.0
13.35,1.329,-0.927,0.0
12.508,1.245,-0.941,0.0
11.6,1.155,-0.94,0.0
17.125,1.703,-0.914,0.0
15.639,1.555,-0.925,0.0
14.36,1.429,-0.932,0.0
13.251,1.319,-0.938,0.0
12.274,1.222,-0.939,0.0
11.435,1.139,-0.941,0.0
16.776,1.668,-0.917,0.0
15.255,1.517,-0.922,0.0
14.182,1.411,-0.939,0.0
12.986,1.292,-0.935,0.0
12.107,1.205,-0.942,0.0
11.272,1.122,-0.942,0.0
16.419,1.631,-0.918,0.0
14.978,1.488,-0.924,0.0
0.0,0.0,0.0,0.0
12.745,1.267,-0.934,0.0
11.89,1.182,-0.94,0.0
11.122,1.106,-0.944,0.0
16.013,1.589,-0.916,0.0
14.783,1.467,-0.93,0.0
13.567,1.347,-0.932,0.0
12.628,1.254,-0.941,0.0
11.697,1.162,-0.94,0.0
10.931,1.086,-0.941,0.0
15.814,1.567,-0.924,0.0
14.529,1.44,-0.932,0.0
13.385,1.326,-0.936,0.0
12.41,1.23,-0.94,0.0
11.542,1.144,-0.941,0.0
10.793,1.07,-0.943,0.0
15.493,1.532,-0.924,0.0
14.275,1.412,-0.933,0.0
13.151,1.301,-0.935,0.0
12.21,1.208,-0.94,0.0
11.409,1.128,-0.944,0.0
10.691,1.058,-0.947,0.0
15.154,1.495,-0.922,0.0
14.124,1.393,-0.94,0.0
12.974,1.28,-0.938,0.0
12.018,1.186,-0.94,0.0
11.236,1.109,-0.943,0.0
10.569,1.043,-0.949,0.0
14.921,1.468,-0.925,0.0
0.0,0.0,0.0,0.0
12.761,1.255,-0.938,0.0
11.797,1.16,-0.936,0.0
11.088,1.091,-0.944,0.0
10.39,1.022,-0.945,0.0
14.684,1.44,-0.928,0.0
13.518,1.325,-0.932,0.0
12.585,1.234,-0.94,0.0
11.676,1.144,-0.94,0.0
10.951,1.073,-0.945,0.0
10.24,1.004,-0.943,0.0
14.48,1.415,-0.931,0.0
13.333,1.302,-0.934,0.0
12.411,1.212,-0.941,0.0
11.498,1.123,-0.939,0.0
10.866,1.061,-0.95,0.0
10.132,0.989,-0.944,0.0
14.269,1.388,-0.933,0.0
13.201,1.284,-0.939,0.0
12.224,1.189,-0.94,0.0
11.388,1.107,-0.943,0.0
10.701,1.04,-0.947,0.0
10.048,0.977,-0.948,0.0
14.176,1.373,-0.943,0.0
12.932,1.252,-0.934,0.0
11.98,1.16,-0.934,0.0
11.241,1.088,-0.943,0.0
10.555,1.021,-0.946,0.0
9.928,0.96,-0.947,0.0
13.853,1.335,-0.936,0.0
12.745,1.228,-0.934,0.0
11.858,1.142,-0.937,0.0
11.12,1.071,-0.944,0.0
10.426,1.004,-0.945,0.0
9.81,0.944,-0.946,0.0
13.651,1.309,-0.936,0.0
12.566,1.204,-0.934,0.0
11.738,1.124,-0.94,0.0
10.99,1.052,-0.944,0.0
10.265,0.983,-0.941,0.0
9.723,0.93,-0.948,0.0
13.463,1.283,-0.937,0.0
12.478,1.189,-0.94,0.0
11.557,1.1,-0.937,0.0
10.816,1.029,-0.94,0.0
10.194,0.97,-0.945,0.0
9.606,0.913,-0.946,0.0
13.317,1.261,-0.94,0.0
12.297,1.164,-0.939,0.0
11.44,1.082,-0.939,0.0
10.757,1.017,-0.946,0.0
10.106,0.955,-0.947,0.0
9.519,0.899,-0.947,0.0
13.139,1.236,-0.94,0.0
12.087,1.137,-0.934,0.0
11.301,1.062,-0.938,0.0
0.0,0.0,0.0,0.0
10.018,0.94,-0.948,0.0
9.392,0.881,-0.943,0.0
12.965,1.211,-0.94,0.0
11.935,1.114,-0.933,0.0
11.214,1.046,-0.941,0.0
10.515,0.98,-0.944,0.0
9.885,0.921,-0.944,0.0
9.33,0.869,-0.945,0.0
12.744,1.182,-0.935,0.0
11.86,1.099,-0.938,0.0
11.132,1.031,-0.944,0.0
0.0,0.0,0.0,0.0
9.821,0.908,-0.947,0.0
9.24,0.854,-0.944,0.0
12.632,1.162,-0.938,0.0
11.754,1.08,-0.94,0.0
11.051,1.015,-0.947,0.0
10.283,0.943,-0.941,0.0
9.665,0.886,-0.94,0.0
9.141,0.838,-0.942,0.0
12.479,1.138,-0.937,0.0
11.602,1.057,-0.937,0.0
10.927,0.995,-0.945,0.0
10.218,0.929,-0.944,0.0
9.626,0.875,-0.944,0.0
9.094,0.826,-0.945,0.0
12.35,1.116,-0.937,0.0
11.481,1.037,-0.937,0.0
10.753,0.97,-0.939,0.0
10.104,0.911,-0.941,0.0
9.554,0.86,-0.945,0.0
9.012,0.811,-0.943,0.0
12.203,1.093,-0.935,0.0
11.416,1.021,-0.94,0.0
10.698,0.956,-0.942,0.0
10.017,0.894,-0.941,0.0
9.469,0.845,-0.943,0.0
8.924,0.795,-0.94,0.0
12.132,1.076,-0.939,0.0
11.323,1.003,-0.941,0.0
10.678,0.945,-0.948,0.0
9.982,0.882,-0.944,0.0
9.404,0.83,-0.944,0.0
8.864,0.782,-0.941,0.0
11.96,1.05,-0.934,0.0
11.256,0.987,-0.943,0.0
10.375,0.909,-0.928,0.0
9.917,0.867,-0.945,0.0
9.366,0.818,-0.946,0.0
8.789,0.767,-0.939,0.0
11.886,1.032,-0.936,0.0
11.177,0.969,-0.944,0.0
10.407,0.902,-0.938,0.0
9.856,0.853,-0.946,0.0
9.266,0.801,-0.942,0.0
8.74,0.755,-0.939,0.0
11.8,1.013,-0.936,0.0
11.095,0.952,-0.944,0.0
10.374,0.889,-0.942,0.0
9.753,0.835,-0.942,0.0
9.195,0.786,-0.941,0.0
8.716,0.744,-0.942,0.0
11.728,0.996,-0.938,0.0
11.022,0.934,-0.944,0.0
10.326,0.874,-0.943,0.0
9.687,0.819,-0.941,0.0
9.162,0.774,-0.943,0.0
8.699,0.734,-0.945,0.0
11.632,0.976,-0.936,0.0
10.937,0.916,-0.943,0.0
10.292,0.861,-0.946,0.0
9.641,0.805,-0.942,0.0
9.115,0.76,-0.943,0.0
8.662,0.722,-0.945,0.0
11.548,0.957,-0.936,0.0
10.865,0.899,-0.942,0.0
10.22,0.844,-0.944,0.0
9.581,0.79,-0.941,0.0
9.041,0.745,-0.939,0.0
8.632,0.71,-0.946,0.0
11.502,0.94,-0.937,0.0
10.838,0.885,-0.945,0.0
10.156,0.828,-0.943,0.0
9.544,0.777,-0.941,0.0
9.024,0.733,-0.942,0.0
8.574,0.696,-0.944,0.0
11.467,0.925,-0.939,0.0
10.826,0.872,-0.948,0.0
10.116,0.813,-0.944,0.0
9.502,0.763,-0.941,0.0
8.993,0.721,-0.942,0.0
8.558,0.685,-0.946,0.0
11.389,0.906,-0.938,0.0
10.616,0.843,-0.934,0.0
10.073,0.799,-0.943,0.0
9.456,0.748,-0.94,0.0
8.963,0.708,-0.942,0.0
8.527,0.673,-0.945,0.0
11.367,0.891,-0.94,0.0
10.647,0.833,-0.941,0.0
9.979,0.78,-0.938,0.0
9.433,0.736,-0.941,0.0
8.974,0.699,-0.947,0.0
8.501,0.661,-0.945,0.0
11.338,0.876,-0.941,0.0
10.522,0.812,-0.933,0.0
9.986,0.769,-0.942,0.0
9.413,0.723,-0.942,0.0
8.931,0.685,-0.945,0.0
8.484,0.649,-0.946,0.0
11.316,0.861,-0.942,0.0
10.544,0.801,-0.938,0.0
9.949,0.754,-0.941,0.0
9.382,0.71,-0.942,0.0
8.902,0.672,-0.944,0.0
8.434,0.635,-0.942,0.0
11.276,0.845,-0.942,0.0
10.519,0.786,-0.938,0.0
9.923,0.74,-0.941,0.0
9.429,0.702,-0.948,0.0
8.885,0.66,-0.944,0.0
8.423,0.624,-0.943,0.0
11.242,0.828,-0.941,0.0
10.502,0.772,-0.938,0.0
9.946,0.729,-0.945,0.0
9.379,0.686,-0.945,0.0
8.866,0.647,-0.943,0.0
8.406,0.613,-0.942,0.0
11.216,0.812,-0.94,0.0
10.494,0.758,-0.939,0.0
9.943,0.717,-0.946,0.0
9.384,0.675,-0.947,0.0
8.859,0.636,-0.944,0.0
8.42,0.603,-0.945,0.0
11.224,0.799,-0.942,0.0
10.486,0.744,-0.939,0.0
9.929,0.703,-0.945,0.0
9.386,0.663,-0.948,0.0
8.845,0.624,-0.943,0.0
8.402,0.591,-0.943,0.0
11.156,0.78,-0.937,0.0
10.505,0.732,-0.942,0.0
9.905,0.689,-0.944,0.0
9.352,0.649,-0.945,0.0
8.864,0.613,-0.945,0.0
8.4,0.58,-0.943,0.0
11.207,0.769,-0.942,0.0
10.495,0.718,-0.941,0.0
9.919,0.677,-0.945,0.0
9.38,0.639,-0.948,0.0
8.85,0.601,-0.944,0.0
8.413,0.57,-0.945,0.0
11.217,0.755,-0.943,0.0
10.502,0.705,-0.941,0.0
9.927,0.665,-0.946,0.0
9.381,0.626,-0.947,0.0
8.858,0.59,-0.944,0.0
8.452,0.561,-0.949,0.0
11.25,0.742,-0.945,0.0
10.532,0.693,-0.943,0.0
9.922,0.651,-0.944,0.0
9.357,0.612,-0.944,0.0
8.849,0.577,-0.942,0.0
8.419,0.548,-0.944,0.0
11.285,0.729,-0.946,0.0
10.538,0.679,-0.943,0.0
9.977,0.641,-0.948,0.0
9.371,0.6,-0.944,0.0
8.877,0.567,-0.944,0.0
8.423,0.537,-0.943,0.0
11.275,0.714,-0.944,0.0
10.543,0.665,-0.941,0.0
9.967,0.627,-0.946,0.0
9.357,0.587,-0.941,0.0
8.878,0.555,-0.943,0.0
8.442,0.526,-0.944,0.0
11.277,0.698,-0.942,0.0
10.6,0.654,-0.944,0.0
9.99,0.615,-0.946,0.0
9.421,0.578,-0.946,0.0
8.924,0.546,-0.946,0.0
8.462,0.516,-0.944,0.0
11.304,0.685,-0.941,0.0
10.609,0.64,-0.943,0.0
10.022,0.603,-0.946,0.0
9.455,0.567,-0.946,0.0
8.909,0.533,-0.942,0.0
8.493,0.506,-0.945,0.0
11.386,0.674,-0.945,0.0
10.645,0.628,-0.943,0.0
10.065,0.592,-0.947,0.0
9.477,0.555,-0.946,0.0
8.957,0.523,-0.944,0.0
8.52,0.496,-0.945,0.0
11.383,0.658,-0.941,0.0
10.691,0.616,-0.943,0.0
10.098,0.58,-0.947,0.0
9.506,0.544,-0.945,0.0
8.996,0.513,-0.945,0.0
8.544,0.486,-0.945,0.0
11.397,0.643,-0.938,0.0
10.699,0.602,-0.94,0.0
10.155,0.569,-0.948,0.0
9.528,0.532,-0.944,0.0
9.038,0.503,-0.945,0.0
8.596,0.477,-0.947,0.0
11.491,0.633,-0.941,0.0
10.79,0.592,-0.943,0.0
10.179,0.556,-0.946,0.0
9.615,0.524,-0.948,0.0
9.07,0.492,-0.945,0.0
8.603,0.465,-0.944,0.0
11.548,0.62,-0.94,0.0
10.812,0.578,-0.94,0.0
10.254,0.546,-0.948,0.0
9.625,0.511,-0.944,0.0
9.098,0.481,-0.943,0.0
8.67,0.457,-0.947,0.0
11.635,0.609,-0.941,0.0
10.948,0.57,-0.946,0.0
10.306,0.535,-0.948,0.0
9.683,0.5,-0.945,0.0
9.172,0.472,-0.946,0.0
8.701,0.446,-0.946,0.0
11.716,0.597,-0.941,0.0
10.99,0.557,-0.944,0.0
10.358,0.523,-0.947,0.0
9.763,0.491,-0.947,0.0
9.256,0.464,-0.949,0.0
8.741,0.436,-0.945,0.0
11.769,0.583,-0.939,0.0
11.071,0.546,-0.944,0.0
10.398,0.511,-0.944,0.0
9.829,0.481,-0.947,0.0
9.289,0.452,-0.947,0.0
8.773,0.425,-0.943,0.0
11.887,0.573,-0.941,0.0
11.161,0.535,-0.944,0.0
10.488,0.501,-0.945,0.0
9.877,0.469,-0.945,0.0
9.331,0.441,-0.945,0.0
8.825,0.416,-0.942,0.0
12.018,0.562,-0.943,0.0
11.282,0.525,-0.947,0.0
10.61,0.492,-0.949,0.0
9.967,0.46,-0.947,0.0
9.428,0.433,-0.948,0.0
8.9,0.407,-0.944,0.0
12.151,0.552,-0.944,0.0
11.385,0.514,-0.947,0.0
10.604,0.477,-0.94,0.0
10.067,0.45,-0.949,0.0
9.496,0.423,-0.947,0.0
8.975,0.398,-0.945,0.0
12.239,0.539,-0.942,0.0
11.476,0.503,-0.946,0.0
10.721,0.467,-0.942,0.0
10.142,0.44,-0.948,0.0
9.58,0.413,-0.948,0.0
9.051,0.389,-0.945,0.0
12.42,0.53,-0.946,0.0
11.566,0.491,-0.944,0.0
10.858,0.458,-0.945,0.0
10.247,0.43,-0.949,0.0
9.684,0.404,-0.95,0.0
9.133,0.379,-0.946,0.0
12.51,0.516,-0.942,0.0
11.693,0.48,-0.944,0.0
10.995,0.449,-0.948,0.0
10.339,0.42,-0.949,0.0
9.745,0.394,-0.947,0.0
9.203,0.37,-0.945,0.0
12.763,0.509,-0.949,0.0
11.85,0.47,-0.946,0.0
11.129,0.439,-0.949,0.0
10.409,0.409,-0.945,0.0
9.878,0.386,-0.951,0.0
9.301,0.361,-0.946,0.0
12.913,0.498,-0.948,0.0
11.956,0.459,-0.943,0.0
11.181,0.426,-0.943,0.0
10.512,0.399,-0.945,0.0
9.951,0.375,-0.948,0.0
9.447,0.354,-0.952,0.0
13.032,0.485,-0.944,0.0
12.136,0.449,-0.945,0.0
11.407,0.42,-0.95,0.0
10.588,0.387,-0.941,0.0
10.059,0.366,-0.948,0.0
9.532,0.345,-0.951,0.0
13.241,0.475,-0.946,0.0
12.29,0.438,-0.945,0.0
11.498,0.408,-0.946,0.0
10.749,0.379,-0.944,0.0
10.163,0.356,-0.947,0.0
9.63,0.335,-0.95,0.0
13.421,0.464,-0.945,0.0
12.458,0.428,-0.944,0.0
11.606,0.396,-0.942,0.0
0.0,0.0,0.0,0.0
10.33,0.348,-0.952,0.0
9.735,0.326,-0.95,0.0
13.565,0.452,-0.94,0.0
12.678,0.419,-0.947,0.0
11.828,0.388,-0.947,0.0
11.177,0.365,-0.957,0.0
10.404,0.337,-0.947,0.0
9.869,0.318,-0.952,0.0
0.0,0.0,0.0,0.0
12.912,0.41,-0.949,0.0
12.031,0.38,-0.949,0.0
11.169,0.35,-0.943,0.0
10.618,0.33,-0.954,0.0
9.992,0.309,-0.951,0.0
14.226,0.437,-0.952,0.0
13.093,0.399,-0.947,0.0
12.24,0.37,-0.951,0.0
11.388,0.342,-0.947,0.0
10.676,0.318,-0.946,0.0
10.149,0.301,-0.954,0.0
14.419,0.424,-0.948,0.0
13.304,0.389,-0.946,0.0
12.391,0.359,-0.947,0.0
11.494,0.331,-0.942,0.0
10.861,0.31,-0.948,0.0
10.285,0.292,-0.954,0.0
14.623,0.412,-0.943,0.0
13.72,0.384,-0.958,0.0
12.642,0.351,-0.95,0.0
11.734,0.323,-0.946,0.0
11.095,0.303,-0.954,0.0
10.362,0.281,-0.947,0.0
14.881,0.401,-0.94,0.0
13.653,0.365,-0.935,0.0
12.873,0.341,-0.951,0.0
11.975,0.315,-0.95,0.0
11.253,0.294,-0.953,0.0
10.576,0.274,-0.952,0.0
15.203,0.391,-0.94,0.0
14.103,0.36,-0.947,0.0
13.065,0.331,-0.947,0.0
12.202,0.306,-0.951,0.0
11.387,0.283,-0.949,0.0
10.711,0.264,-0.95,0.0
15.488,0.38,-0.936,0.0
14.49,0.353,-0.953,0.0
13.282,0.32,-0.945,0.0
12.449,0.298,-0.953,0.0
11.591,0.275,-0.949,0.0
10.93,0.257,-0.954,0.0
15.946,0.373,-0.941,0.0
14.638,0.339,-0.942,0.0
13.622,0.313,-0.949,0.0
12.649,0.288,-0.95,0.0
11.848,0.267,-0.953,0.0
11.09,0.248,-0.951,0.0
16.269,0.361,-0.937,0.0
14.964,0.329,-0.941,0.0
13.974,0.305,-0.953,0.0
12.915,0.279,-0.951,0.0
12.046,0.258,-0.951,0.0
11.309,0.24,-0.953,0.0
16.626,0.35,-0.933,0.0
15.315,0.32,-0.941,0.0
14.354,0.297,-0.958,0.0
13.193,0.27,-0.952,0.0
12.31,0.25,-0.954,0.0
11.479,0.231,-0.95,0.0
16.959,0.339,-0.926,0.0
15.669,0.31,-0.939,0.0
14.536,0.285,-0.948,0.0
13.375,0.259,-0.945,0.0
12.568,0.241,-0.954,0.0
11.723,0.223,-0.953,0.0
17.479,0.33,-0.928,0.0
16.148,0.302,-0.943,0.0
14.832,0.274,-0.944,0.0
0.0,0.0,0.0,0.0
12.831,0.233,-0.954,0.0
11.946,0.214,-0.952,0.0
18.064,0.322,-0.931,0.0
16.513,0.291,-0.938,0.0
15.22,0.266,-0.945,0.0
14.311,0.247,-0.966,0.0
13.117,0.224,-0.954,0.0
12.263,0.207,-0.957,0.0
18.557,0.312,-0.926,0.0
16.879,0.281,-0.931,0.0
15.579,0.256,-0.942,0.0
14.47,0.235,-0.953,0.0
13.413,0.215,-0.954,0.0
12.502,0.199,-0.955,0.0
19.929,0.315,-0.962,0.0
17.474,0.273,-0.935,0.0
16.109,0.248,-0.947,0.0
14.741,0.225,-0.946,0.0
13.739,0.207,-0.954,0.0
12.765,0.19,-0.954,0.0
20.19,0.299,-0.941,1.0
18.074,0.264,-0.937,0.0
16.464,0.238,-0.94,0.0
15.137,0.216,-0.946,0.0
20.169,0.284,-1.367,0.0
13.092,0.182,-0.956,0.0
20.281,0.281,-0.91,13.0
18.484,0.253,-0.927,15.0
16.882,0.228,-0.935,0.0
15.543,0.207,-0.944,0.0
14.48,0.19,-0.956,0.0
13.394,0.174,-0.954,0.0
20.199,0.261,-0.872,15.0
18.527,0.236,-0.896,10.0
17.662,0.222,-0.947,1.0
16.055,0.199,-0.947,0.0
14.784,0.181,-0.95,0.0
20.16,0.243,-1.401,0.0
19.363,0.232,-0.802,26.0
18.552,0.219,-0.865,9.0
17.933,0.209,-0.93,2.0
16.515,0.19,-0.945,0.0
15.2,0.172,-0.949,0.0
20.202,0.226,-1.368,0.0
18.674,0.207,-0.739,151.0
18.538,0.203,-0.831,27.0
18.512,0.2,-0.927,24.0
0.0,0.0,0.0,0.0
15.621,0.164,-0.947,0.0
14.514,0.15,-0.956,0.0
18.574,0.191,-0.702,56.0
18.504,0.187,-0.796,156.0
18.542,0.185,-0.894,54.0
18.28,0.179,-0.979,5.0
16.159,0.156,-0.95,0.0
14.854,0.141,-0.951,0.0
18.568,0.175,-0.668,39.0
18.513,0.172,-0.762,173.0
18.547,0.17,-0.861,65.0
18.466,0.166,-0.955,2.0
16.579,0.147,-0.944,0.0
15.278,0.133,-0.95,0.0
21.67,0.188,-0.739,152.0
18.513,0.158,-0.728,158.0
18.565,0.155,-0.826,152.0
18.502,0.152,-0.921,35.0
18.371,0.148,-1.011,4.0
15.737,0.125,-0.948,0.0
21.684,0.171,-0.698,151.0
21.652,0.168,-0.81,151.0
18.505,0.141,-0.788,158.0
18.537,0.139,-0.888,36.0
18.474,0.136,-0.982,2.0
16.289,0.118,-0.95,0.0
21.698,0.156,-0.657,53.0
21.582,0.152,-0.766,167.0
21.59,0.149,-0.879,1.0
18.531,0.126,-0.852,14.0
18.474,0.123,-0.946,6.0
16.749,0.109,-0.945,0.0
21.684,0.141,-0.616,9.0
21.621,0.138,-0.726,164.0
21.649,0.135,-0.839,150.0
21.576,0.132,-0.951,12.0
18.515,0.111,-0.912,17.0
17.355,0.102,-0.945,0.0
32.81,0.192,-0.867,0.0
21.691,0.124,-0.686,87.0
21.633,0.121,-0.796,157.0
21.619,0.118,-0.91,150.0
21.676,0.116,-1.026,0.0
18.221,0.095,-0.957,0.0
0.0,0.0,0.0,0.0
21.709,0.111,-0.643,0.0
21.662,0.108,-0.755,154.0
21.655,0.105,-0.869,55.0
20.243,0.096,-0.918,14.0
18.504,0.086,-0.935,5.0
0.0,0.0,0.0,0.0
31.781,0.143,-0.88,1.0
21.652,0.095,-0.711,5.0
21.649,0.093,-0.825,13.0
21.62,0.09,-0.936,89.0
18.622,0.076,-0.903,0.0
0.0,0.0,0.0,0.0
33.245,0.132,-0.853,2.0
28.557,0.11,-0.88,0.0
21.626,0.081,-0.781,3.0
21.607,0.079,-0.892,17.0
20.228,0.072,-0.94,8.0
40.803,0.144,-0.752,0.0
0.0,0.0,0.0,0.0
31.154,0.104,-0.897,1.0
26.435,0.086,-0.9,0.0
20.258,0.064,-0.795,0.0
20.246,0.062,-0.899,17.0
20.262,0.061,-0.332,0.0
20.225,0.059,-0.436,0.0
33.24,0.095,-0.889,6.0
20.222,0.056,-0.647,3.0
20.234,0.054,-0.752,5.0
20.253,0.053,-0.858,30.0
20.251,0.052,-0.29,3.0
20.234,0.05,-0.394,11.0
20.261,0.049,-0.5,25.0
20.26,0.047,-0.607,28.0
20.245,0.046,-0.711,35.0
20.269,0.044,-0.816,79.0
20.263,0.044,-0.249,113.0
20.273,0.042,-0.353,150.0
20.262,0.041,-0.458,150.0
20.254,0.039,-0.564,149.0
20.256,0.038,-0.669,90.0
20.256,0.036,-0.773,78.0
20.251,0.036,-0.206,151.0
20.269,0.034,-0.311,151.0
20.263,0.033,-0.415,151.0
20.259,0.032,-0.522,150.0
20.268,0.03,-0.627,150.0
20.261,0.029,-0.731,90.0
20.261,0.029,-0.164,151.0
20.259,0.028,-0.268,152.0
20.264,0.026,-0.373,151.0
20.265,0.025,-0.479,150.0
20.268,0.024,-0.584,150.0
20.262,0.023,-0.688,79.0
20.262,0.023,-0.121,151.0
20.269,0.021,-0.226,151.0
20.268,0.02,-0.33,151.0
20.258,0.019,-0.437,150.0
20.267,0.018,-0.541,76.0
20.253,0.017,-0.645,52.0
20.261,0.017,-0.079,151.0
20.25,0.016,-0.183,151.0
20.269,0.015,-0.287,150.0
20.268,0.014,-0.394,72.0
20.251,0.013,-0.498,29.0
20.231,0.012,-0.601,11.0
20.259,0.012,-0.036,151.0
20.274,0.011,-0.14,150.0
20.27,0.01,-0.244,75.0
20.23,0.01,-0.35,15.0
20.229,0.009,-0.454,7.0
20.24,0.008,-0.559,5.0
20.276,0.008,0.007,150.0
20.271,0.007,-0.097,74.0
20.236,0.007,-0.201,16.0
20.232,0.006,-0.307,9.0
20.26,0.005,-0.411,5.0
20.249,0.005,-0.515,2.0
20.168,0.005,0.05,27.0
20.245,0.004,-0.053,27.0
20.216,0.004,-0.158,14.0
20.218,0.003,-0.263,9.0
20.232,0.003,-0.368,4.0
20.235,0.002,-0.472,2.0
20.134,0.002,0.093,34.0
20.216,0.002,-0.01,18.0
20.208,0.001,-0.114,17.0
20.23,0.001,-0.22,6.0
20.248,0.001,-0.324,2.0
20.263,0.0,-0.429,1.0
20.127,0.0,0.136,29.0
20.169,0.0,0.032,17.0
20.233,0.0,-0.07,20.0
20.194,0.0,-0.176,12.0
20.218,0.0,-0.281,5.0
20.223,0.0,-0.385,1.0
20.124,0.0,0.179,30.0
20.131,0.0,0.075,31.0
20.202,0.0,-0.027,17.0
20.18,0.0,-0.133,18.0
20.236,0.0,-0.238,4.0
20.246,0.0,-0.342,1.0
20.126,0.0,0.222,27.0
20.119,0.0,0.118,30.0
20.192,0.0,0.015,15.0
20.198,0.0,-0.089,17.0
20.214,0.0,-0.194,9.0
20.234,0.0,-0.298,2.0
20.128,0.0,0.265,26.0
20.115,0.0,0.162,28.0
20.139,0.0,0.059,28.0
20.192,0.0,-0.046,17.0
20.212,0.0,-0.15,17.0
20.221,0.0,-0.254,7.0
20.13,0.001,0.309,28.0
20.116,0.001,0.205,27.0
20.122,0.001,0.102,29.0
20.205,0.002,-0.002,17.0
20.222,0.002,-0.107,18.0
20.224,0.002,-0.21,8.0
20.129,0.003,0.353,27.0
20.12,0.003,0.249,26.0
20.119,0.004,0.145,26.0
20.177,0.004,0.04,24.0
20.256,0.005,-0.063,28.0
20.237,0.005,-0.167,16.0
20.131,0.005,0.395,27.0
20.123,0.006,0.292,28.0
20.131,0.007,0.188,27.0
20.125,0.007,0.083,30.0
20.261,0.008,-0.02,150.0
20.271,0.009,-0.124,83.0
20.143,0.009,0.439,28.0
20.129,0.01,0.335,26.0
20.133,0.01,0.232,26.0
20.134,0.011,0.126,28.0
20.251,0.012,0.022,151.0
20.256,0.013,-0.081,150.0
20.144,0.013,0.482,26.0
20.138,0.014,0.378,26.0
20.132,0.015,0.275,27.0
20.123,0.016,0.169,27.0
20.16,0.017,0.065,33.0
20.248,0.018,-0.038,151.0
20.163,0.018,0.525,25.0
20.136,0.019,0.421,28.0
20.131,0.02,0.317,25.0
20.121,0.021,0.212,27.0
20.134,0.022,0.108,27.0
20.255,0.023,0.004,151.0
20.187,0.024,0.569,28.0
20.151,0.025,0.464,27.0
20.128,0.026,0.36,24.0
20.128,0.027,0.254,26.0
20.124,0.029,0.151,26.0
20.186,0.03,0.047,25.0
20.195,0.03,0.612,37.0
20.171,0.032,0.507,22.0
20.132,0.033,0.402,27.0
20.129,0.034,0.296,27.0
20.13,0.036,0.193,27.0
20.15,0.037,0.089,29.0
20.195,0.037,0.654,45.0
20.169,0.039,0.549,27.0
20.133,0.04,0.444,28.0
20.129,0.042,0.338,27.0
20.133,0.043,0.235,27.0
20.135,0.045,0.131,26.0
20.138,0.045,0.694,33.0
20.19,0.047,0.592,33.0
20.138,0.048,0.486,24.0
20.139,0.05,0.38,28.0
20.136,0.052,0.277,28.0
20.139,0.053,0.173,27.0
20.115,0.054,0.735,29.0
20.208,0.056,0.634,32.0
20.164,0.057,0.529,25.0
20.138,0.059,0.422,28.0
20.134,0.061,0.318,27.0
20.141,0.063,0.214,28.0
20.115,0.063,0.777,23.0
20.193,0.065,0.676,26.0
20.188,0.067,0.571,30.0
20.149,0.069,0.464,27.0
20.15,0.071,0.36,27.0
20.14,0.073,0.256,26.0
20.123,0.073,0.819,24.0
20.147,0.075,0.716,30.0
20.197,0.078,0.613,22.0
20.162,0.079,0.506,22.0
20.148,0.082,0.402,28.0
20.149,0.084,0.298,25.0
20.124,0.084,0.861,18.0
20.142,0.086,0.757,25.0
20.224,0.089,0.656,8.0
20.176,0.091,0.547,26.0
20.148,0.093,0.443,28.0
20.148,0.095,0.339,26.0
20.15,0.096,0.903,8.0
20.133,0.098,0.798,19.0
20.161,0.1,0.694,2.0
20.181,0.103,0.589,20.0
20.156,0.105,0.483,23.0
20.143,0.107,0.379,28.0
65.951,0.355,3.09,26.0
20.146,0.111,0.839,15.0
20.152,0.113,0.734,5.0
20.237,0.116,0.631,6.0
20.176,0.118,0.524,23.0
20.157,0.12,0.419,26.0
103.588,0.625,5.061,21.0
20.137,0.124,0.879,0.0
20.194,0.126,0.776,1.0
102.551,0.657,3.403,15.0
20.19,0.132,0.565,16.0
20.173,0.134,0.46,23.0
103.631,0.696,5.269,11.0
65.871,0.451,3.007,14.0
101.965,0.711,4.126,47.0
111.734,0.794,3.928,41.0
20.223,0.146,0.606,8.0
20.177,0.148,0.5,21.0
66.95,0.497,3.536,23.0
65.84,0.498,3.134,37.0
110.08,0.847,4.668,34.0
111.674,0.875,4.144,25.0
117.656,0.937,3.753,6.0
20.193,0.163,0.539,16.0
66.999,0.546,3.667,24.0
65.866,0.547,3.262,39.0
102.049,0.861,4.522,38.0
0.0,0.0,0.0,0.0
126.218,1.101,4.266,11.0
20.268,0.179,0.579,16.0
100.988,0.901,5.72,6.0
65.835,0.597,3.385,36.0
102.142,0.942,4.72,17.0
110.364,1.034,4.513,19.0
150.299,1.431,5.365,8.0
20.275,0.196,0.618,6.0
101.263,0.986,5.93,8.0
66.137,0.654,3.526,41.0
102.083,1.025,4.91,26.0
117.079,1.193,5.008,22.0
126.732,1.311,4.76,10.0
102.979,1.081,3.33,19.0
101.628,1.074,6.141,23.0
67.086,0.719,3.702,39.0
102.044,1.11,5.096,19.0
111.638,1.232,4.982,15.0
126.726,1.419,4.994,16.0
103.063,1.17,3.522,16.0
59.663,0.682,3.714,13.0
67.183,0.778,3.829,20.0
102.042,1.198,5.282,8.0
111.507,1.327,5.176,8.0
124.933,1.508,5.146,24.0
133.436,1.632,4.799,17.0
59.709,0.735,3.825,18.0
67.409,0.841,3.964,18.0
66.089,0.836,3.54,21.0
124.879,1.601,6.023,13.0
110.284,1.432,4.742,9.0
117.857,1.551,4.45,14.0
59.738,0.791,3.934,22.0
67.495,0.905,4.091,30.0
66.512,0.903,3.681,41.0
69.302,0.953,3.465,7.0
69.358,0.966,3.105,4.0
117.818,1.662,4.655,11.0
59.807,0.849,4.044,49.0
67.547,0.97,4.212,4.0
69.386,1.009,3.961,4.0
110.321,1.623,5.707,6.0
69.34,1.033,3.224,11.0
103.171,1.555,4.255,18.0
59.829,0.907,4.149,35.0
67.59,1.037,4.332,17.0
69.256,1.076,4.074,11.0
103.893,1.632,5.554,11.0
110.457,1.755,5.324,8.0
103.2,1.659,4.431,22.0
59.661,0.965,4.24,67.0
67.62,1.106,4.448,26.0
67.625,1.118,4.091,7.0
117.198,1.96,6.461,7.0
69.834,1.18,3.482,6.0
103.598,1.772,4.622,16.0
59.562,1.025,4.333,64.0
67.621,1.176,4.561,41.0
69.091,1.215,4.295,7.0
66.237,1.177,3.761,3.0
103.729,1.862,5.343,20.0
103.782,1.883,4.8,8.0
59.455,1.086,4.423,32.0
67.634,1.248,4.673,17.0
102.418,1.909,6.535,9.0
66.2,1.247,3.867,10.0
104.095,1.98,5.53,12.0
69.216,1.33,3.312,7.0
59.345,1.148,4.51,30.0
67.54,1.32,4.775,12.0
66.253,1.308,4.334,5.0
66.242,1.321,3.976,20.0
103.816,2.091,5.681,6.0
103.738,2.109,5.129,11.0
59.046,1.208,4.583,34.0
67.434,1.394,4.876,10.0
66.285,1.383,4.44,25.0
66.215,1.395,4.078,20.0
110.262,2.344,6.207,5.0
103.794,2.227,5.292,8.0
0.0,0.0,0.0,0.0
67.418,1.47,4.979,11.0
67.71,1.49,4.639,13.0
66.137,1.468,4.174,31.0
68.8,1.541,3.977,7.0
68.752,1.554,3.61,2.0
42.992,0.978,3.469,4.0
66.826,1.535,5.036,20.0
67.832,1.571,4.751,11.0
101.493,2.372,6.558,9.0
69.349,1.635,4.112,3.0
110.185,2.621,5.949,7.0
52.214,1.25,4.292,4.0
66.445,1.605,5.107,13.0
65.978,1.607,4.719,30.0
53.513,1.315,3.536,18.0
67.394,1.67,4.095,1.0
103.463,2.586,5.738,6.0
52.321,1.316,4.377,16.0
57.896,1.468,4.534,8.0
52.884,1.352,3.858,5.0
67.951,1.752,4.589,2.0
67.656,1.758,4.207,5.0
69.143,1.811,3.931,7.0
52.079,1.373,4.431,25.0
52.087,1.384,4.152,16.0
52.553,1.408,3.908,13.0
67.718,1.829,4.667,6.0
102.579,2.793,6.521,5.0
69.416,1.904,4.042,2.0
40.403,1.116,3.493,6.0
58.303,1.622,4.728,5.0
52.515,1.473,3.976,27.0
67.984,1.92,4.777,10.0
69.101,1.967,4.486,2.0
69.654,1.998,4.15,2.0
40.408,1.167,3.548,21.0
53.0,1.542,4.369,1.0
68.144,1.997,5.251,6.0
68.327,2.017,4.891,7.0
69.271,2.06,4.588,22.0
67.45,2.02,4.106,4.0
40.444,1.22,3.604,12.0
43.419,1.318,3.635,6.0
51.981,1.589,4.072,4.0
68.215,2.101,4.971,2.0
67.902,2.106,4.583,6.0
68.421,2.137,4.251,5.0
40.449,1.272,3.656,14.0
50.407,1.596,4.284,10.0
58.104,1.852,4.625,5.0
236.656,7.601,17.541,13.0
53.236,1.721,3.659,5.0
69.069,2.248,4.377,6.0
46.431,1.521,4.254,7.0
52.634,1.736,4.538,5.0
58.224,1.933,4.706,4.0
51.901,1.734,3.909,5.0
68.255,2.296,4.773,8.0
68.34,2.314,4.412,6.0
46.213,1.576,4.289,6.0
52.318,1.795,4.572,7.0
0.0,0.0,0.0,0.0
52.319,1.818,4.001,26.0
68.607,2.399,4.877,7.0
68.823,2.422,4.521,4.0
43.683,1.548,4.105,7.0
46.953,1.674,4.157,3.0
47.015,1.686,3.907,4.0
52.134,1.881,4.045,26.0
68.685,2.493,4.958,8.0
68.8,2.512,4.595,5.0
53.308,1.96,5.068,6.0
53.15,1.966,4.764,18.0
42.81,1.593,3.604,2.0
50.224,1.88,3.952,9.0
68.8,2.59,5.04,4.0
53.394,2.022,3.623,3.0
43.783,1.669,4.209,3.0
50.656,1.943,4.594,2.0
46.911,1.81,3.999,4.0
47.129,1.828,3.757,11.0
51.738,2.019,3.844,3.0
67.186,2.637,4.629,5.0
52.409,2.071,5.092,6.0
46.179,1.835,4.235,3.0
46.976,1.877,4.053,4.0
0.0,0.0,0.0,0.0
47.317,1.911,3.562,3.0
67.703,2.749,4.729,6.0
52.381,2.142,5.141,4.0
46.064,1.893,4.269,7.0
47.037,1.944,4.103,9.0
52.616,2.186,4.297,9.0
47.294,1.975,3.605,3.0
67.19,2.821,4.757,2.0
59.303,2.507,5.877,6.0
46.023,1.956,4.309,9.0
53.231,2.274,4.693,2.0
51.307,2.204,4.238,5.0
47.271,2.04,3.647,3.0
68.592,2.977,4.918,7.0
45.907,2.006,4.591,1.0
46.042,2.022,4.352,3.0
50.547,2.231,4.501,1.0
43.454,1.927,3.627,2.0
52.396,2.335,4.088,1.0
52.69,2.36,3.824,8.0
45.828,2.067,4.623,3.0
43.49,1.971,4.148,3.0
50.528,2.301,4.542,2.0
47.063,2.153,3.968,6.0
52.815,2.429,4.164,0.0
47.496,2.194,3.485,2.0
46.497,2.163,4.727,12.0
43.497,2.032,4.183,2.0
45.907,2.155,4.163,2.0
47.104,2.221,4.008,14.0
52.783,2.501,4.202,1.0
51.911,2.471,3.849,5.0
46.304,2.22,4.744,3.0
45.635,2.197,4.424,1.0
59.666,2.885,5.456,5.0
47.122,2.289,4.045,10.0
43.777,2.136,3.518,3.0
51.479,2.523,3.854,1.0
46.721,2.306,4.821,6.0
45.73,2.266,4.466,2.0
45.992,2.289,4.238,3.0
47.149,2.357,4.08,4.0
52.742,2.648,4.275,3.0
51.419,2.593,3.886,1.0
46.704,2.372,4.851,4.0
45.637,2.327,4.488,7.0
45.965,2.353,4.266,4.0
47.226,2.428,4.118,3.0
47.141,2.434,3.851,5.0
51.426,2.667,3.919,1.0
46.884,2.448,4.9,3.0
45.746,2.398,4.528,3.0
45.762,2.409,4.276,3.0
0.0,0.0,0.0,0.0
47.169,2.503,3.883,7.0
47.257,2.518,3.63,3.0
46.791,2.511,4.918,3.0
45.65,2.458,4.545,1.0
45.922,2.482,4.318,3.0
45.929,2.492,4.06,10.0
47.118,2.567,3.905,3.0
66.631,3.645,5.155,2.0
47.108,2.595,4.978,5.0
45.683,2.525,4.573,1.0
45.915,2.548,4.342,7.0
45.88,2.556,4.08,9.0
47.209,2.64,3.937,3.0
47.242,2.651,3.679,2.0
46.58,2.632,4.946,3.0
45.829,2.599,4.611,2.0
45.774,2.605,4.351,6.0
45.813,2.626,3.842,2.0
47.256,2.719,3.702,1.0
46.958,2.72,5.007,4.0
45.457,2.642,4.594,1.0
45.538,2.656,4.349,7.0
46.111,2.708,3.887,4.0
47.28,2.786,3.724,4.0
46.31,2.748,4.958,3.0
45.681,2.729,4.381,10.0
45.826,2.747,4.135,0.0
45.795,2.754,3.878,3.0
47.234,2.851,3.738,3.0
46.017,2.796,4.944,4.0
45.684,2.794,4.398,11.0
45.974,2.821,4.164,3.0
45.769,2.817,3.891,4.0
46.849,2.893,3.723,3.0
46.152,2.869,4.973,3.0
45.546,2.849,4.399,9.0
47.465,2.978,4.314,2.0
46.915,2.962,3.742,4.0
46.013,2.925,4.972,0.0
45.6,2.916,4.416,11.0
47.566,3.051,4.336,3.0
47.508,3.056,4.066,2.0
47.176,3.044,3.774,3.0
0.0,0.0,0.0,0.0
45.509,2.974,4.417,11.0
47.547,3.116,4.344,2.0
46.299,3.043,3.971,3.0
47.417,3.125,3.803,1.0
0.0,0.0,0.0,0.0
45.502,3.035,4.425,7.0
45.537,3.046,4.168,2.0
46.978,3.151,4.037,2.0
45.797,3.081,3.68,1.0
0.0,0.0,0.0,0.0
45.651,3.107,4.445,7.0
47.429,3.237,4.348,2.0
47.232,3.232,4.065,1.0
45.798,3.142,3.685,2.0
0.0,0.0,0.0,0.0
45.608,3.166,4.445,3.0
45.48,3.165,4.173,1.0
45.856,3.208,3.693,3.0
0.0,0.0,0.0,0.0
45.672,3.232,4.454,5.0
45.554,3.231,4.181,2.0
47.897,3.405,4.128,1.0
46.006,3.28,3.706,3.0
0.0,0.0,0.0,0.0
45.771,3.299,4.464,3.0
45.757,3.323,3.686,1.0
0.0,0.0,0.0,0.0
45.857,3.366,4.471,1.0
45.566,3.36,3.924,1.0
45.776,3.383,3.685,1.0
0.0,0.0,0.0,0.0
47.301,3.533,4.607,3.0
45.482,3.412,3.912,1.0
45.774,3.441,3.68,1.0
0.0,0.0,0.0,0.0
45.364,3.461,3.896,1.0
45.732,3.496,3.67,2.0
0.0,0.0,0.0,0.0
45.441,3.503,4.67,3.0
110.222,8.546,9.446,5.0
110.225,8.564,8.825,9.0
0.0,0.0,0.0,0.0
45.429,3.558,4.66,1.0
45.964,3.606,4.454,1.0
114.372,8.991,10.424,6.0
114.631,9.028,9.8,7.0
248.865,19.643,19.87,10.0
0.0,0.0,0.0,0.0
0.0,0.0,0.0,0.0
46.035,3.668,4.449,1.0
0.0,0.0,0.0,0.0
112.073,8.962,9.552,6.0
108.161,8.666,8.606,5.0
45.261,3.648,4.876,4.0
0.0,0.0,0.0,0.0
46.012,3.721,4.434,1.0
116.058,9.402,10.513,5.0
116.246,9.433,9.872,3.0
114.903,9.342,9.108,2.0
0.0,0.0,0.0,0.0
0.0,0.0,0.0,0.0
46.113,3.784,4.428,1.0
115.863,9.522,10.457,3.0
117.461,9.671,9.934,2.0
117.232,9.668,9.251,2.0
0.0,0.0,0.0,0.0
0.0,0.0,0.0,0.0
115.832,9.638,11.08,3.0
112.84,9.404,10.141,7.0
112.592,9.399,9.479,11.0
117.541,9.828,9.229,14.0
0.0,0.0,0.0,0.0
114.988,9.683,11.608,2.0
115.437,9.736,10.995,5.0
114.907,9.705,10.278,6.0
96.542,8.167,8.087,5.0
115.52,9.788,9.021,3.0
0.0,0.0,0.0,0.0
114.801,9.796,11.537,6.0
115.084,9.832,10.909,3.0
115.007,9.84,10.235,5.0
109.799,9.408,9.147,2.0
116.016,9.956,9.006,4.0
0.0,0.0,0.0,0.0
115.056,9.942,11.507,4.0
114.909,9.942,10.836,3.0
114.946,9.96,10.171,15.0
115.053,9.982,9.527,12.0
96.46,8.38,7.439,9.0
115.118,10.057,12.112,3.0
114.96,10.055,11.437,5.0
114.243,10.005,10.712,9.0
113.932,9.99,10.022,9.0
99.914,8.773,8.219,2.0
96.457,8.48,7.386,5.0
0.0,0.0,0.0,0.0
115.057,10.182,11.382,2.0
116.009,10.278,10.812,3.0
86.082,7.636,7.522,4.0
99.314,8.82,8.113,2.0
109.661,9.752,8.333,9.0
114.906,10.272,11.958,3.0
114.785,10.272,11.287,5.0
114.717,10.277,10.623,4.0
0.0,0.0,0.0,0.0
91.416,8.207,7.413,1.0
96.454,8.67,7.272,4.0
115.245,10.412,11.922,2.0
0.0,0.0,0.0,0.0
114.56,10.372,10.536,2.0
99.144,8.985,8.541,3.0
98.062,8.897,7.888,2.0
98.024,8.904,7.326,5.0
0.0,0.0,0.0,0.0
0.0,0.0,0.0,0.0
114.883,10.506,10.49,3.0
99.297,9.09,8.488,5.0
91.779,8.411,7.321,4.0
98.057,8.996,7.262,5.0
0.0,0.0,0.0,0.0
0.0,0.0,0.0,0.0
106.814,9.865,9.677,4.0
106.885,9.88,9.061,4.0
95.971,8.88,7.587,4.0
98.563,9.13,7.228,3.0
0.0,0.0,0.0,0.0
114.791,10.693,10.973,6.0
114.559,10.68,10.293,4.0
86.035,8.029,7.228,7.0
91.844,8.579,7.19,2.0
80.378,7.515,5.833,3.0
0.0,0.0,0.0,0.0
0.0,0.0,0.0,0.0
0.0,0.0,0.0,0.0
85.491,8.049,7.115,3.0
86.01,8.105,6.666,2.0
90.466,8.532,6.494,2.0
0.0,0.0,0.0,0.0
92.187,8.741,8.666,3.0
118.496,11.242,10.459,4.0
91.788,8.715,7.565,3.0
86.055,8.176,6.6,4.0
80.212,7.627,5.693,3.0
0.0,0.0,0.0,0.0
114.654,10.959,10.682,2.0
84.693,8.1,7.404,6.0
92.104,8.815,7.514,7.0
85.93,8.23,6.517,4.0
84.48,8.097,5.924,1.0
111.311,10.716,10.915,2.0
99.505,9.584,9.185,4.0
92.108,8.877,7.971,4.0
92.044,8.877,7.428,6.0
84.247,8.13,6.315,8.0
90.408,8.731,6.259,3.0
117.994,11.443,11.465,1.0
92.062,8.932,8.414,3.0
114.099,11.076,9.772,5.0
85.279,8.283,6.805,6.0
84.218,8.184,6.237,6.0
84.736,8.24,5.79,6.0
114.838,11.214,11.051,1.0
111.434,10.887,10.081,5.0
99.241,9.699,8.407,5.0
85.225,8.333,6.721,11.0
84.093,8.227,6.149,4.0
85.396,8.36,5.755,6.0
114.751,11.279,10.933,1.0
91.533,9.0,8.193,8.0
99.339,9.771,8.319,5.0
79.827,7.855,6.218,1.0
84.138,8.283,6.071,3.0
86.791,8.549,5.765,1.0
85.658,8.47,8.077,3.0
84.876,8.395,7.513,5.0
91.988,9.102,7.613,5.0
79.974,7.916,6.151,2.0
84.046,8.322,5.981,2.0
87.042,8.623,5.695,2.0
99.526,9.897,9.284,6.0
84.668,8.421,7.409,5.0
91.851,9.138,7.508,5.0
79.964,7.958,6.068,3.0
84.018,8.365,5.893,3.0
80.397,8.007,5.179,11.0
99.005,9.896,9.133,3.0
84.92,8.49,7.343,3.0
91.749,9.175,7.405,12.0
73.213,7.323,5.48,3.0
72.917,7.296,5.038,2.0
91.052,9.114,5.769,2.0
99.116,9.955,9.037,13.0
99.109,9.955,8.465,14.0
91.745,9.217,7.307,12.0
85.762,8.618,6.328,4.0
84.838,8.527,5.772,1.0
78.561,7.899,4.893,3.0
78.638,7.933,7.085,9.0
84.926,8.568,7.16,5.0
85.012,8.577,6.677,4.0
72.932,7.36,5.301,5.0
77.999,7.873,5.22,2.0
89.927,9.079,5.503,7.0
78.742,7.975,7.006,3.0
85.015,8.61,7.074,4.0
85.182,8.628,6.595,4.0
72.81,7.375,5.211,3.0
73.032,7.398,4.808,2.0
89.988,9.118,5.407,10.0
74.964,7.618,6.586,1.0
85.15,8.653,6.989,4.0
74.663,7.587,5.698,2.0
72.988,7.418,5.142,3.0
73.143,7.434,4.732,3.0
90.13,9.163,5.312,5.0
74.865,7.632,6.491,2.0
85.873,8.753,6.949,4.0
68.551,6.987,5.152,3.0
99.04,10.095,6.863,4.0
78.551,8.006,4.992,2.0
99.425,10.136,5.747,5.0
92.232,9.428,7.889,5.0
79.232,8.097,6.32,2.0
68.593,7.009,5.075,3.0
80.201,8.196,5.463,3.0
78.518,8.023,4.897,3.0
81.032,8.281,4.588,7.0
78.785,8.071,6.646,8.0
92.194,9.442,7.245,10.0
68.64,7.029,4.998,2.0
84.535,8.656,5.659,1.0
98.962,10.133,6.055,2.0
81.009,8.295,4.491,3.0
78.788,8.086,6.552,7.0
84.627,8.683,6.548,6.0
72.904,7.479,5.22,5.0
89.787,9.21,5.901,4.0
89.909,9.221,5.392,3.0
84.029,8.617,4.557,7.0
78.748,8.094,6.45,3.0
84.647,8.698,6.444,6.0
72.905,7.489,5.129,4.0
73.173,7.515,4.719,3.0
81.577,8.377,4.792,1.0
79.665,8.179,4.221,3.0
85.377,8.784,6.887,4.0
68.699,7.065,5.145,2.0
84.239,8.661,5.822,4.0
78.485,8.067,4.964,4.0
81.148,8.339,4.666,4.0
85.788,8.815,4.439,3.0
79.266,8.16,6.294,3.0
68.636,7.062,5.054,5.0
84.42,8.683,5.729,3.0
78.551,8.077,4.869,1.0
81.047,8.331,4.558,7.0
85.774,8.815,4.331,12.0
79.15,8.148,6.184,3.0
80.005,8.233,5.789,2.0
77.921,8.015,5.188,3.0
89.811,9.235,5.453,1.0
83.939,8.628,4.613,5.0
85.72,8.809,4.219,21.0
79.211,8.152,6.087,1.0
72.868,7.496,5.179,5.0
73.136,7.52,4.776,3.0
99.01,10.176,5.885,5.0
84.009,8.631,4.509,5.0
85.701,8.802,4.107,13.0
80.091,8.237,6.05,1.0
72.991,7.502,5.093,3.0
78.56,8.071,5.028,4.0
81.261,8.344,4.725,1.0
79.672,8.178,4.174,3.0
96.03,9.853,4.479,2.0
68.744,7.062,5.104,6.0
84.179,8.643,5.764,2.0
78.524,8.057,4.924,3.0
81.014,8.308,4.605,6.0
85.834,8.798,4.385,11.0
107.426,11.007,4.871,9.0
68.68,7.044,5.01,2.0
77.971,7.992,5.237,1.0
99.069,10.148,6.082,2.0
81.102,8.302,4.503,3.0
85.655,8.764,4.263,13.0
107.481,10.992,4.732,23.0
72.901,7.462,5.22,6.0
78.407,8.02,5.161,3.0
89.978,9.197,5.404,5.0
84.099,8.59,4.558,7.0
103.158,10.531,4.997,3.0
107.493,10.967,4.589,8.0
72.919,7.445,5.123,3.0
78.485,8.007,5.061,1.0
90.087,9.185,5.29,5.0
79.741,8.124,4.215,3.0
107.433,10.938,5.06,14.0
104.014,10.583,4.302,3.0
80.548,8.2,5.551,0.0
78.483,7.983,4.956,4.0
81.094,8.242,4.653,5.0
85.603,8.694,4.409,11.0
85.963,8.724,3.934,1.0
97.684,9.908,3.909,10.0
78.01,7.915,5.27,2.0
78.491,7.957,4.85,1.0
99.459,10.074,5.573,4.0
91.73,9.283,4.603,7.0
87.553,8.854,3.889,6.0
97.684,9.872,3.777,20.0
73.027,7.381,4.835,2.0
90.099,9.097,5.446,11.0
84.066,8.481,4.597,3.0
107.393,10.825,5.244,9.0
87.518,8.814,3.77,4.0
111.254,11.196,4.154,9.0
76.791,7.728,4.981,1.0
88.078,8.855,5.205,1.0
79.74,8.009,4.253,4.0
107.389,10.777,5.1,2.0
97.742,9.8,4.08,14.0
115.292,11.55,4.151,14.0
99.476,9.964,6.317,4.0
88.331,8.838,5.101,5.0
84.329,8.429,4.384,5.0
97.671,9.753,4.505,16.0
97.694,9.746,3.945,24.0
110.082,10.973,3.814,21.0
90.194,8.986,5.605,6.0
85.228,8.482,4.805,1.0
97.732,9.716,4.948,11.0
97.713,9.704,4.376,26.0
122.691,12.174,4.789,12.0
110.078,10.912,3.664,17.0
99.981,9.905,6.078,2.0
85.03,8.413,4.678,14.0
97.59,9.645,4.808,10.0
97.699,9.646,4.242,9.0
122.701,12.101,4.622,21.0
108.762,10.716,3.474,23.0
87.261,8.591,5.186,3.0
84.477,8.307,4.534,3.0
97.571,9.583,4.677,8.0
115.3,11.312,4.852,22.0
108.21,10.604,3.933,13.0
109.174,10.687,3.341,20.0
85.238,8.336,4.951,4.0
91.807,8.967,4.804,4.0
97.908,9.551,4.56,8.0
110.193,10.736,4.488,13.0
108.305,10.539,3.789,34.0
137.829,13.398,4.032,21.0
85.226,8.275,4.834,8.0
91.793,8.9,4.679,6.0
86.511,8.377,3.913,2.0
108.156,10.46,4.259,5.0
115.994,11.204,3.903,14.0
137.851,13.298,3.846,20.0
84.76,8.166,4.693,5.0
114.978,11.062,5.706,8.0
86.576,8.317,3.799,9.0
108.162,10.378,4.114,22.0
109.372,10.481,3.534,26.0
121.334,11.612,3.225,44.0
84.154,8.042,4.548,3.0
83.959,8.011,4.055,3.0
107.893,10.28,4.59,23.0
110.296,10.495,4.049,17.0
121.394,11.535,3.76,18.0
137.903,13.086,3.481,24.0
86.511,8.194,4.559,2.0
122.645,11.599,5.759,4.0
110.747,10.459,4.565,23.0
115.986,10.937,4.103,31.0
121.414,11.432,3.601,17.0
151.72,14.267,3.629,18.0
87.828,8.242,4.512,5.0
87.672,8.214,4.0,11.0
108.193,10.12,4.316,13.0
109.622,10.239,3.734,14.0
151.628,14.141,4.296,22.0
151.925,14.148,3.434,27.0
120.286,11.179,6.021,2.0
87.348,8.103,3.87,9.0
116.157,10.758,4.482,15.0
121.635,11.248,3.983,27.0
138.021,12.743,3.73,15.0
152.025,14.015,3.24,27.0
138.468,12.734,6.751,3.0
117.38,10.777,5.049,12.0
109.649,10.049,4.088,20.0
121.3,11.099,3.816,18.0
152.209,13.904,3.917,20.0
152.112,13.873,3.045,27.0
98.4,8.951,4.67,3.0
108.2,9.825,4.513,3.0
120.973,10.965,4.354,23.0
143.387,12.973,4.325,28.0
152.219,13.75,3.721,22.0
154.325,13.916,2.89,7.0
87.625,7.88,4.046,8.0
86.063,7.725,3.481,1.0
121.577,10.893,4.222,16.0
143.722,12.853,4.154,28.0
152.653,13.626,3.539,25.0
153.987,13.722,2.688,13.0
110.488,9.817,4.961,19.0
109.889,9.743,4.304,10.0
121.125,10.72,4.051,17.0
143.923,12.712,3.976,32.0
152.518,13.445,3.342,25.0
153.58,13.513,2.488,15.0
99.833,8.757,4.356,5.0
143.375,12.551,5.436,19.0
143.787,12.56,4.629,28.0
144.487,12.597,3.81,13.0
152.523,13.272,3.152,12.0
153.516,13.332,2.297,18.0
99.866,8.644,4.233,4.0
121.102,10.46,4.441,24.0
143.593,12.375,4.445,30.0
197.345,16.972,4.963,17.0
199.412,17.116,3.875,6.0
177.556,15.209,2.439,3.0
121.093,10.335,4.984,4.0
143.854,12.251,5.098,19.0
