X,Y,Z,Reflectivity
109.985,-12.054,6.88,14.0
86.428,-9.459,4.939,13.0
83.685,-9.148,4.331,36.0
108.385,-11.866,8.66,39.0
0.0,0.0,0.0,0.0
111.575,-12.178,7.705,19.0
117.186,-12.773,7.446,5.0
86.566,-9.423,5.032,19.0
83.692,-9.097,4.412,36.0
108.418,-11.804,8.769,30.0
111.024,-12.068,8.376,18.0
111.609,-12.113,7.814,24.0
113.372,-12.286,7.311,12.0
86.598,-9.371,5.115,18.0
83.813,-9.057,4.497,34.0
108.463,-11.739,8.873,27.0
110.648,-11.956,8.45,19.0
111.734,-12.054,7.926,22.0
111.713,-12.033,7.305,18.0
109.857,-11.815,6.588,9.0
83.869,-9.006,4.575,31.0
108.317,-11.65,8.959,30.0
110.235,-11.836,8.518,11.0
108.989,-11.682,7.828,25.0
111.741,-11.957,7.407,25.0
0.0,0.0,0.0,0.0
84.179,-8.979,4.667,31.0
108.146,-11.553,9.042,41.0
108.504,-11.571,8.479,31.0
108.952,-11.598,7.921,26.0
111.807,-11.881,7.509,24.0
84.226,-8.935,5.198,6.0
84.315,-8.93,4.746,35.0
108.237,-11.482,9.142,28.0
108.491,-11.487,8.571,35.0
108.988,-11.519,8.015,26.0
111.913,-11.807,7.608,12.0
113.483,-11.951,7.097,10.0
84.658,-8.9,4.834,27.0
108.128,-11.386,9.221,38.0
108.263,-11.377,8.642,32.0
109.053,-11.438,8.108,24.0
111.928,-11.717,7.7,11.0
109.425,-11.434,6.931,10.0
84.114,-8.772,4.871,30.0
108.051,-11.287,9.302,34.0
108.078,-11.267,8.712,41.0
109.26,-11.367,8.211,14.0
109.317,-11.35,7.607,17.0
109.365,-11.334,7.012,30.0
84.337,-8.723,4.948,35.0
107.938,-11.182,9.376,36.0
108.02,-11.167,8.79,31.0
108.711,-11.215,8.251,25.0
109.558,-11.279,7.705,18.0
109.354,-11.235,7.093,29.0
84.663,-8.681,5.03,43.0
107.786,-11.07,9.442,36.0
108.055,-11.072,8.872,39.0
108.64,-11.108,8.324,37.0
109.88,-11.211,7.807,17.0
109.373,-11.136,7.173,40.0
84.796,-8.616,5.097,41.0
107.732,-10.962,9.514,40.0
107.97,-10.961,8.942,46.0
108.598,-11.001,8.397,32.0
109.88,-11.106,7.882,23.0
109.316,-11.025,7.243,43.0
84.407,-8.494,5.131,37.0
107.725,-10.857,9.587,42.0
108.007,-10.86,9.017,38.0
108.503,-10.885,8.461,27.0
109.814,-10.991,7.949,21.0
109.343,-10.919,7.316,31.0
84.755,-8.445,5.207,33.0
107.803,-10.758,9.662,33.0
108.087,-10.759,9.093,41.0
108.595,-10.784,8.537,22.0
109.971,-10.895,8.03,25.0
109.575,-10.831,7.398,26.0
84.763,-8.36,5.257,19.0
107.913,-10.657,9.738,31.0
108.038,-10.644,9.152,37.0
112.107,-11.018,8.878,23.0
109.987,-10.783,8.094,24.0
109.505,-10.709,7.456,19.0
86.13,-8.404,5.391,15.0
108.708,-10.621,9.872,16.0
108.667,-10.589,9.267,32.0
112.159,-10.902,8.945,25.0
112.787,-10.935,8.362,19.0
109.639,-10.603,7.526,32.0
86.51,-8.346,5.462,12.0
111.309,-10.753,10.168,22.0
109.117,-10.512,9.365,28.0
112.012,-10.763,8.993,33.0
112.639,-10.795,8.41,19.0
109.952,-10.511,7.604,31.0
86.374,-8.236,5.497,21.0
112.257,-10.718,10.311,16.0
110.731,-10.544,9.558,21.0
112.015,-10.638,9.048,27.0
112.93,-10.697,8.485,20.0
113.358,-10.708,7.893,16.0
84.967,-8.006,5.447,11.0
111.96,-10.563,10.336,2.0
111.762,-10.514,9.697,23.0
112.37,-10.542,9.127,21.0
112.915,-10.564,8.535,22.0
113.401,-10.58,7.945,22.0
84.967,-7.907,5.483,23.0
24.559,-2.288,2.277,20.0
120.258,-11.173,10.484,11.0
120.677,-11.18,9.851,15.0
112.777,-10.418,8.57,24.0
113.056,-10.414,7.965,24.0
84.532,-7.766,5.488,15.0
24.556,-2.258,2.287,53.0
24.581,-2.254,2.152,2.0
114.499,-10.468,9.39,18.0
116.115,-10.585,8.867,8.0
112.541,-10.23,7.969,25.0
85.655,-7.764,5.591,19.0
24.568,-2.229,2.296,107.0
24.585,-2.224,2.161,36.0
113.744,-10.259,9.367,18.0
114.617,-10.307,8.79,16.0
114.968,-10.309,8.178,9.0
85.533,-7.647,5.611,22.0
24.576,-2.199,2.305,41.0
24.571,-2.192,2.167,63.0
113.511,-10.096,9.382,21.0
120.759,-10.708,9.296,21.0
60.194,-5.322,4.299,4.0
84.522,-7.45,5.568,31.0
24.58,-2.168,2.312,1.0
24.581,-2.161,2.175,59.0
24.604,-2.156,2.04,9.0
120.922,-10.567,9.339,23.0
116.065,-10.11,8.318,9.0
84.507,-7.338,5.587,24.0
46.496,-4.041,4.385,4.0
24.604,-2.131,2.182,49.0
24.6,-2.124,2.045,24.0
120.919,-10.407,9.366,20.0
116.094,-9.96,8.345,11.0
84.593,-7.235,5.609,9.0
46.525,-3.982,4.397,4.0
24.606,-2.099,2.187,41.0
24.627,-2.094,2.051,38.0
60.519,-5.128,4.698,9.0
115.555,-9.76,8.326,13.0
85.78,-7.221,5.702,15.0
46.725,-3.937,4.423,1.0
24.599,-2.065,2.19,21.0
24.613,-2.059,2.054,41.0
121.287,-10.114,9.431,16.0
115.386,-9.59,8.328,18.0
85.902,-7.115,5.721,25.0
23.9,-1.981,2.265,42.0
23.934,-1.976,2.134,21.0
24.27,-1.997,2.028,18.0
115.402,-9.465,8.984,7.0
117.799,-9.628,8.512,6.0
85.744,-6.984,5.717,32.0
23.898,-1.947,2.267,74.0
23.935,-1.943,2.135,58.0
24.005,-1.942,2.007,32.0
120.788,-9.738,9.41,12.0
54.043,-4.341,3.907,12.0
86.08,-6.89,5.743,24.0
23.91,-1.915,2.268,42.0
23.931,-1.909,2.136,43.0
23.978,-1.906,2.005,27.0
115.25,-9.128,8.98,18.0
60.438,-4.77,4.37,4.0
85.785,-6.746,5.723,31.0
23.932,-1.882,2.27,3.0
23.972,-1.878,2.139,20.0
23.98,-1.872,2.005,27.0
115.368,-8.975,8.985,14.0
60.424,-4.683,4.366,5.0
84.156,-6.498,5.61,11.0
47.074,-3.636,4.463,4.0
24.03,-1.848,2.143,10.0
24.005,-1.839,2.005,39.0
53.982,-4.121,4.2,3.0
60.338,-4.589,4.355,11.0
84.178,-6.378,5.604,17.0
58.156,-4.407,5.509,6.0
46.501,-3.509,4.142,3.0
24.08,-1.81,2.009,25.0
24.518,-1.836,1.904,5.0
60.294,-4.498,4.345,5.0
84.156,-6.254,5.592,14.0
47.973,-3.565,4.537,7.0
46.498,-3.441,4.135,3.0
24.164,-1.781,2.012,35.0
24.41,-1.792,1.892,23.0
60.305,-4.41,4.336,6.0
84.197,-6.133,5.58,8.0
59.242,-4.315,5.593,10.0
24.911,-1.807,2.21,10.0
24.213,-1.749,2.011,27.0
24.256,-1.745,1.875,26.0
24.574,-1.761,1.761,9.0
24.575,-1.754,1.623,7.0
24.959,-1.781,2.35,3.0
24.811,-1.763,2.196,27.0
24.36,-1.723,2.018,18.0
24.266,-1.709,1.87,46.0
24.487,-1.718,1.749,26.0
24.498,-1.712,1.612,23.0
24.967,-1.744,2.344,40.0
24.81,-1.726,2.189,44.0
24.475,-1.695,2.021,17.0
24.268,-1.674,1.863,45.0
24.425,-1.678,1.738,35.0
24.469,-1.674,1.602,45.0
24.968,-1.707,2.337,25.0
24.801,-1.688,2.18,52.0
24.486,-1.659,2.014,16.0
24.28,-1.638,1.856,49.0
24.374,-1.637,1.726,31.0
24.439,-1.634,1.592,68.0
31.064,-2.076,2.896,22.0
24.798,-1.65,2.171,28.0
24.425,-1.618,2.0,25.0
24.278,-1.601,1.847,53.0
24.346,-1.598,1.714,36.0
24.417,-1.596,1.581,61.0
45.019,-2.941,4.18,3.0
28.434,-1.849,2.478,58.0
24.352,-1.576,1.983,26.0
24.298,-1.566,1.838,52.0
24.321,-1.56,1.702,27.0
24.39,-1.557,1.569,34.0
28.417,-1.813,2.626,1.0
28.443,-1.806,2.466,70.0
24.337,-1.538,1.971,29.0
24.314,-1.53,1.828,43.0
24.36,-1.525,1.694,51.0
24.392,-1.521,1.558,47.0
28.419,-1.769,2.612,11.0
28.432,-1.762,2.451,62.0
24.348,-1.501,1.96,42.0
24.356,-1.495,1.819,45.0
24.386,-1.49,1.683,55.0
24.394,-1.483,1.545,71.0
28.416,-1.725,2.597,30.0
28.435,-1.718,2.436,72.0
24.328,-1.463,1.945,64.0
24.399,-1.46,1.809,61.0
24.421,-1.454,1.672,70.0
24.399,-1.446,1.532,75.0
28.429,-1.682,2.582,53.0
28.426,-1.674,2.419,63.0
24.33,-1.426,1.931,57.0
24.42,-1.424,1.797,55.0
24.464,-1.42,1.66,46.0
24.412,-1.41,1.518,76.0
28.42,-1.639,2.563,62.0
24.288,-1.393,2.052,36.0
24.384,-1.392,1.92,43.0
24.436,-1.388,1.782,27.0
24.509,-1.385,1.648,38.0
24.449,-1.375,1.504,48.0
24.211,-1.359,2.168,25.0
24.267,-1.355,2.034,46.0
24.464,-1.359,1.91,38.0
28.42,-1.57,2.054,21.0
28.428,-1.563,1.892,61.0
28.421,-1.555,1.73,17.0
24.19,-1.32,2.149,32.0
24.293,-1.319,2.019,44.0
24.503,-1.324,1.896,52.0
28.413,-1.527,2.033,73.0
28.423,-1.519,1.871,73.0
28.422,-1.511,1.709,72.0
24.224,-1.285,2.134,25.0
24.516,-1.293,2.019,40.0
28.396,-1.49,2.176,17.0
28.41,-1.482,2.011,70.0
28.418,-1.475,1.849,73.0
28.411,-1.467,1.686,71.0
28.421,-1.463,2.481,74.0
24.514,-1.255,1.999,45.0
28.413,-1.447,2.154,59.0
28.409,-1.439,1.988,69.0
28.412,-1.431,1.825,69.0
28.415,-1.424,1.663,69.0
28.408,-1.419,2.456,79.0
24.54,-1.219,1.98,60.0
28.409,-1.403,2.129,66.0
28.406,-1.395,1.963,67.0
28.414,-1.387,1.801,69.0
28.408,-1.38,1.638,69.0
30.698,-1.486,2.627,57.0
24.554,-1.182,1.96,49.0
30.803,-1.474,2.282,40.0
46.654,-2.221,3.184,8.0
28.4,-1.344,1.775,1.0
28.414,-1.337,1.613,3.0
24.574,-1.153,2.081,29.0
30.761,-1.434,2.428,17.0
30.863,-1.431,2.258,39.0
46.627,-2.149,3.139,28.0
163.695,-7.503,10.081,13.0
161.236,-7.349,9.005,23.0
24.578,-1.115,2.058,54.0
46.326,-2.091,3.612,9.0
30.941,-1.388,2.234,46.0
46.606,-2.078,3.092,58.0
163.703,-7.258,9.923,30.0
31.329,-1.381,1.719,22.0
24.595,-1.079,2.035,54.0
31.417,-1.37,2.417,47.0
31.002,-1.344,2.207,42.0
31.247,-1.346,2.041,17.0
28.447,-1.218,1.695,54.0
28.438,-1.211,1.531,58.0
24.607,-1.043,2.01,41.0
28.425,-1.197,2.158,56.0
28.419,-1.19,1.994,66.0
28.411,-1.182,1.826,98.0
28.42,-1.175,1.663,106.0
28.421,-1.168,1.5,98.0
24.589,-1.006,1.982,48.0
28.41,-1.155,2.126,110.0
28.413,-1.147,1.962,114.0
28.417,-1.14,1.795,110.0
28.414,-1.133,1.632,88.0
28.427,-1.126,1.469,66.0
28.401,-1.12,2.257,32.0
28.422,-1.113,2.095,68.0
28.425,-1.106,1.931,66.0
28.426,-1.099,1.764,45.0
31.217,-1.199,1.757,16.0
31.223,-1.192,1.578,40.0
31.591,-1.199,2.474,41.0
31.201,-1.177,2.264,22.0
31.158,-1.167,2.08,39.0
31.2,-1.161,1.9,28.0
31.212,-1.154,1.72,33.0
31.232,-1.147,1.542,41.0
59.704,-2.18,4.606,18.0
30.982,-1.123,2.21,33.0
31.184,-1.123,2.044,29.0
31.225,-1.117,1.863,37.0
31.237,-1.11,1.684,38.0
31.283,-1.104,1.506,55.0
28.395,-0.996,2.155,79.0
28.383,-0.988,1.99,76.0
28.384,-0.982,1.825,74.0
28.39,-0.975,1.659,61.0
28.389,-0.968,1.495,54.0
31.341,-1.061,1.469,32.0
28.387,-0.955,2.118,79.0
28.38,-0.948,1.953,73.0
28.383,-0.942,1.789,71.0
28.376,-0.935,1.622,73.0
28.385,-0.928,1.458,69.0
38.576,-1.253,1.759,61.0
28.39,-0.916,2.081,76.0
28.379,-0.909,1.916,75.0
28.379,-0.902,1.751,81.0
28.378,-0.895,1.584,77.0
38.443,-1.204,1.924,47.0
38.605,-1.2,1.709,70.0
28.383,-0.876,2.042,79.0
28.383,-0.869,1.878,74.0
28.382,-0.863,1.713,75.0
28.374,-0.856,1.545,76.0
38.502,-1.153,1.874,44.0
38.636,-1.148,1.658,91.0
28.376,-0.837,2.003,80.0
28.382,-0.83,1.838,77.0
28.375,-0.823,1.673,71.0
28.37,-0.817,1.505,69.0
38.588,-1.103,1.824,57.0
38.632,-1.095,1.603,79.0
28.382,-0.798,1.963,76.0
28.377,-0.792,1.798,71.0
28.38,-0.786,1.633,68.0
38.575,-1.06,1.992,5.0
38.645,-1.053,1.772,46.0
38.676,-1.046,1.55,32.0
28.375,-0.76,1.921,73.0
28.371,-0.754,1.755,70.0
28.37,-0.748,1.591,70.0
38.615,-1.01,1.938,39.0
45.821,-1.188,2.033,35.0
45.718,-1.175,1.764,45.0
28.364,-0.722,1.877,73.0
28.373,-0.717,1.713,67.0
28.379,-0.711,1.549,69.0
45.823,-1.138,2.23,17.0
40.433,-0.996,1.734,24.0
40.424,-0.988,1.499,29.0
28.366,-0.686,1.835,73.0
28.368,-0.68,1.67,69.0
28.374,-0.675,1.505,62.0
40.402,-0.952,1.905,38.0
40.401,-0.944,1.671,39.0
40.402,-0.936,1.437,37.0
28.364,-0.651,1.791,75.0
28.366,-0.645,1.626,69.0
40.397,-0.91,2.081,11.0
40.397,-0.902,1.842,38.0
40.417,-0.894,1.609,30.0
40.417,-0.886,1.374,29.0
28.364,-0.615,1.746,76.0
28.373,-0.61,1.581,70.0
40.426,-0.861,2.018,14.0
45.696,-0.964,2.011,34.0
45.673,-0.955,1.745,64.0
45.719,-0.947,1.482,52.0
28.363,-0.581,1.7,80.0
28.366,-0.575,1.535,65.0
45.693,-0.918,2.207,48.0
45.739,-0.91,1.938,55.0
45.687,-0.9,1.671,54.0
64.293,-1.254,1.977,64.0
28.361,-0.547,1.653,76.0
28.37,-0.541,1.488,48.0
45.715,-0.864,2.133,67.0
45.831,-0.858,1.867,37.0
64.293,-1.192,2.245,40.0
64.302,-1.18,1.873,79.0
28.355,-0.513,1.605,81.0
45.669,-0.819,2.32,45.0
45.846,-0.813,2.061,23.0
59.251,-1.04,2.313,30.0
64.274,-1.117,2.136,85.0
64.305,-1.106,1.764,65.0
59.008,-1.002,3.241,9.0
45.658,-0.767,2.242,59.0
64.285,-1.069,2.782,12.0
59.273,-0.974,2.214,63.0
64.291,-1.045,2.027,13.0
59.509,-0.957,1.531,7.0
59.038,-0.937,3.141,10.0
46.038,-0.722,2.18,44.0
59.109,-0.917,2.455,81.0
59.31,-0.91,2.112,13.0
53.481,-0.811,1.593,51.0
59.461,-0.891,1.425,9.0
45.593,-0.673,2.344,32.0
58.537,-0.854,2.668,43.0
58.5,-0.844,2.326,150.0
53.495,-0.762,1.81,137.0
59.405,-0.836,1.663,22.0
20.153,-0.28,0.447,9.0
45.865,-0.628,2.276,37.0
58.275,-0.789,2.552,255.0
58.232,-0.779,2.211,255.0
53.489,-0.706,1.714,62.0
59.393,-0.774,1.556,21.0
20.13,-0.259,0.41,13.0
58.31,-0.739,2.788,39.0
58.302,-0.729,2.447,255.0
58.318,-0.72,2.108,73.0
53.486,-0.651,1.616,90.0
20.14,-0.242,0.491,11.0
20.132,-0.239,0.373,12.0
58.23,-0.679,2.676,255.0
58.257,-0.67,2.338,255.0
53.441,-0.607,1.833,16.0
53.456,-0.598,1.516,9.0
20.129,-0.222,0.454,15.0
20.163,-0.219,0.337,16.0
58.298,-0.623,2.571,255.0
58.25,-0.613,2.228,255.0
53.504,-0.555,1.734,65.0
20.127,-0.205,0.532,10.0
20.177,-0.203,0.416,25.0
53.393,-0.53,0.791,10.0
58.305,-0.567,2.46,255.0
58.3,-0.559,2.12,150.0
53.498,-0.505,1.633,92.0
20.139,-0.187,0.495,9.0
53.471,-0.489,1.003,9.0
64.358,-0.58,0.832,27.0
58.312,-0.515,2.35,255.0
53.542,-0.465,1.845,150.0
53.506,-0.457,1.532,20.0
20.19,-0.169,0.458,20.0
20.26,-0.167,0.341,19.0
58.331,-0.474,0.644,8.0
58.237,-0.463,2.235,255.0
53.504,-0.418,1.74,73.0
20.182,-0.155,0.538,5.0
20.211,-0.152,0.419,24.0
20.181,-0.149,0.301,18.0
20.173,-0.146,0.183,18.0
58.274,-0.414,2.123,232.0
20.171,-0.14,0.616,11.0
20.144,-0.137,0.498,16.0
20.122,-0.135,0.378,16.0
20.123,-0.132,0.261,17.0
20.133,-0.13,0.143,17.0
58.298,-0.366,2.009,193.0
20.136,-0.124,0.576,16.0
20.113,-0.121,0.457,18.0
20.123,-0.118,0.338,23.0
20.132,-0.116,0.221,20.0
20.133,-0.114,0.103,33.0
58.323,-0.321,1.893,161.0
20.115,-0.108,0.535,18.0
20.115,-0.105,0.417,26.0
20.12,-0.103,0.298,25.0
20.127,-0.101,0.18,26.0
20.131,-0.098,0.063,38.0
20.159,-0.095,0.614,14.0
20.133,-0.093,0.495,24.0
20.113,-0.091,0.377,32.0
20.119,-0.088,0.258,26.0
20.12,-0.086,0.14,26.0
20.126,-0.084,0.022,35.0
20.143,-0.081,0.572,17.0
20.116,-0.079,0.454,29.0
20.103,-0.076,0.336,28.0
20.116,-0.074,0.216,26.0
20.123,-0.072,0.099,38.0
20.123,-0.07,-0.018,34.0
20.14,-0.067,0.531,23.0
20.123,-0.065,0.413,28.0
20.113,-0.063,0.295,29.0
20.112,-0.061,0.175,31.0
20.134,-0.059,0.058,40.0
20.142,-0.057,-0.059,32.0
20.136,-0.054,0.489,27.0
20.112,-0.052,0.371,29.0
20.105,-0.05,0.253,29.0
20.112,-0.048,0.134,30.0
20.133,-0.046,0.016,35.0
20.153,-0.044,-0.1,33.0
20.126,-0.042,0.448,30.0
20.117,-0.04,0.33,30.0
20.108,-0.038,0.212,33.0
20.123,-0.036,0.093,39.0
20.127,-0.034,-0.024,32.0
20.168,-0.033,-0.142,25.0
20.129,-0.03,0.406,27.0
20.119,-0.029,0.288,25.0
20.117,-0.027,0.171,28.0
20.129,-0.025,0.051,29.0
20.187,-0.023,-0.066,23.0
20.171,-0.022,-0.184,9.0
20.12,-0.02,0.364,29.0
20.12,-0.018,0.246,26.0
20.12,-0.016,0.129,29.0
20.164,-0.015,0.009,12.0
20.185,-0.013,-0.108,19.0
20.232,-0.011,-0.227,6.0
20.127,-0.01,0.322,28.0
20.111,-0.008,0.204,27.0
20.132,-0.006,0.087,30.0
20.26,-0.005,-0.032,82.0
20.256,-0.003,-0.151,54.0
20.252,-0.002,-0.269,37.0
20.127,0.0,0.28,28.0
20.127,0.0,0.163,26.0
20.236,0.002,0.045,151.0
20.256,0.003,-0.074,151.0
20.258,0.005,-0.193,151.0
20.262,0.006,-0.312,150.0
20.13,0.007,0.238,29.0
20.125,0.009,0.12,29.0
20.236,0.01,0.002,153.0
20.259,0.012,-0.118,151.0
20.265,0.013,-0.236,151.0
20.261,0.014,-0.354,150.0
20.136,0.015,0.195,28.0
20.162,0.016,0.078,26.0
20.268,0.018,-0.04,151.0
20.257,0.019,-0.16,151.0
20.272,0.02,-0.279,150.0
20.267,0.021,-0.397,150.0
20.146,0.022,0.153,27.0
20.281,0.023,0.036,69.0
20.262,0.025,-0.082,151.0
20.258,0.026,-0.203,151.0
20.277,0.027,-0.322,150.0
20.269,0.028,-0.44,76.0
20.145,0.029,0.11,29.0
20.265,0.03,-0.007,65.0
20.264,0.031,-0.125,90.0
20.269,0.032,-0.246,74.0
20.257,0.033,-0.365,56.0
20.252,0.034,-0.483,29.0
20.199,0.034,0.067,13.0
20.25,0.035,-0.05,16.0
20.257,0.036,-0.169,29.0
20.232,0.037,-0.289,12.0
20.247,0.038,-0.408,9.0
33.215,0.064,-0.864,4.0
20.233,0.039,0.024,13.0
20.231,0.04,-0.093,20.0
20.243,0.041,-0.211,69.0
20.235,0.042,-0.332,3.0
20.255,0.043,-0.451,2.0
20.229,0.043,-0.569,1.0
20.213,0.043,-0.017,16.0
20.233,0.044,-0.136,20.0
20.241,0.045,-0.254,1.0
20.18,0.045,-0.374,0.0
33.221,0.076,-0.81,5.0
20.237,0.047,-0.612,0.0
20.228,0.047,-0.061,22.0
20.216,0.047,-0.179,12.0
20.224,0.048,-0.297,0.0
20.227,0.048,-0.418,0.0
33.208,0.081,-0.881,2.0
20.263,0.05,-0.656,0.0
20.229,0.049,-0.104,27.0
20.215,0.05,-0.222,1.0
20.232,0.05,-0.341,0.0
20.265,0.051,-0.462,0.0
20.235,0.051,-0.58,0.0
20.257,0.052,-0.699,0.0
20.237,0.051,-0.147,24.0
20.25,0.051,-0.266,0.0
20.259,0.052,-0.384,0.0
33.229,0.086,-0.828,4.0
20.154,0.052,-0.62,0.0
24.374,0.064,-0.893,0.0
20.21,0.052,-0.19,10.0
20.227,0.052,-0.308,0.0
37.678,0.099,-0.795,0.0
31.11,0.082,-0.842,0.0
26.534,0.07,-0.873,0.0
20.237,0.054,-0.784,0.0
20.26,0.052,-0.233,0.0
20.167,0.052,-0.35,0.0
20.225,0.053,-0.469,0.0
20.211,0.053,-0.589,0.0
25.589,0.067,-0.896,0.0
21.117,0.056,-0.863,17.0
20.257,0.052,-0.276,0.0
20.244,0.052,-0.394,0.0
33.206,0.086,-0.84,4.0
20.208,0.052,-0.632,0.0
24.249,0.063,-0.9,0.0
20.735,0.054,-0.891,23.0
20.25,0.051,-0.318,0.0
20.241,0.051,-0.436,0.0
31.131,0.078,-0.853,0.0
20.21,0.051,-0.674,0.0
20.254,0.051,-0.794,2.0
20.242,0.051,-0.912,7.0
20.228,0.049,-0.36,0.0
20.252,0.049,-0.479,0.0
20.233,0.048,-0.597,1.0
20.22,0.048,-0.717,0.0
20.889,0.05,-0.863,21.0
20.201,0.048,-0.953,2.0
20.246,0.046,-0.402,1.0
33.224,0.075,-0.854,7.0
20.232,0.046,-0.639,2.0
20.229,0.045,-0.759,3.0
20.236,0.045,-0.878,18.0
18.713,0.041,-0.922,0.0
20.25,0.043,-0.445,4.0
20.235,0.042,-0.563,7.0
20.227,0.042,-0.68,8.0
20.248,0.042,-0.802,33.0
20.213,0.041,-0.919,1.0
18.116,0.036,-0.93,0.0
33.248,0.063,-0.799,3.0
20.237,0.038,-0.604,20.0
20.229,0.037,-0.722,17.0
20.253,0.037,-0.844,44.0
20.04,0.036,-0.952,3.0
20.279,0.036,-1.082,0.0
20.272,0.034,-0.528,53.0
20.253,0.033,-0.646,59.0
20.25,0.032,-0.764,55.0
20.213,0.032,-0.883,16.0
18.63,0.029,-0.923,0.0
16.816,0.025,-0.932,0.0
20.265,0.028,-0.569,87.0
20.261,0.027,-0.687,150.0
20.273,0.027,-0.806,151.0
20.17,0.026,-0.922,1.0
20.348,0.025,-1.05,0.0
16.366,0.02,-0.94,0.0
20.257,0.021,-0.61,150.0
20.27,0.021,-0.729,150.0
20.266,0.02,-0.847,62.0
19.796,0.019,-0.945,3.0
20.294,0.018,-1.088,0.0
15.815,0.014,-0.941,0.0
20.258,0.014,-0.65,150.0
20.263,0.014,-0.769,78.0
20.204,0.013,-0.885,15.0
18.573,0.011,-0.924,0.0
16.735,0.009,-0.931,0.0
15.308,0.007,-0.941,0.0
20.263,0.006,-0.691,46.0
20.27,0.006,-0.81,62.0
19.922,0.004,-0.912,2.0
16.322,0.002,-0.94,0.0
14.816,0.001,-0.94,0.0
20.247,-0.001,-0.731,2.0
15.741,-0.004,-0.938,0.0
23.436,-0.012,-0.892,0.0
20.25,-0.011,-0.888,31.0
16.682,-0.011,-0.929,0.0
15.275,-0.011,-0.94,0.0
20.063,-0.021,-0.919,10.0
16.296,-0.019,-0.939,0.0
14.83,-0.018,-0.941,0.0
15.746,-0.027,-0.938,0.0
16.772,-0.037,-0.931,0.0
15.278,-0.035,-0.938,0.0
13.016,-0.032,-0.952,0.0
16.376,-0.046,-0.94,0.0
14.862,-0.043,-0.941,0.0
12.668,-0.039,-0.951,0.0
13.311,-0.048,-0.946,0.0
12.33,-0.046,-0.948,0.0
16.788,-0.068,-0.927,0.0
15.348,-0.063,-0.937,0.0
13.088,-0.056,-0.954,0.0
12.074,-0.053,-0.951,0.0
16.458,-0.078,-0.939,0.0
14.94,-0.072,-0.939,0.0
20.15,-0.099,-1.387,0.0
12.693,-0.064,-0.948,0.0
11.8,-0.06,-0.95,0.0
15.94,-0.087,-0.938,0.0
14.57,-0.081,-0.942,0.0
13.356,-0.075,-0.943,0.0
12.433,-0.071,-0.951,0.0
11.494,-0.067,-0.946,0.0
16.919,-0.103,-0.926,0.0
15.465,-0.096,-0.937,0.0
20.194,-0.127,-1.341,0.0
13.1,-0.084,-0.948,0.0
12.141,-0.079,-0.949,0.0
11.25,-0.074,-0.946,0.0
16.531,-0.113,-0.933,0.0
15.07,-0.105,-0.939,0.0
13.914,-0.099,-0.948,0.0
12.749,-0.092,-0.944,0.0
11.843,-0.086,-0.947,0.0
11.105,-0.082,-0.953,0.0
16.11,-0.124,-0.937,0.0
14.696,-0.114,-0.941,0.0
13.542,-0.107,-0.946,0.0
12.519,-0.1,-0.949,0.0
11.577,-0.094,-0.945,0.0
10.805,-0.089,-0.945,0.0
15.671,-0.133,-0.938,0.0
14.292,-0.123,-0.939,0.0
13.222,-0.116,-0.946,0.0
12.231,-0.109,-0.948,0.0
11.306,-0.102,-0.942,0.0
10.619,-0.097,-0.947,0.0
15.262,-0.143,-0.939,0.0
13.966,-0.133,-0.94,0.0
13.031,-0.126,-0.953,0.0
11.965,-0.117,-0.946,0.0
10.443,-0.104,-0.948,0.0
14.864,-0.153,-0.938,0.0
12.678,-0.133,-0.948,0.0
11.705,-0.125,-0.945,0.0
10.273,-0.112,-0.949,0.0
14.552,-0.163,-0.941,0.0
12.434,-0.142,-0.949,0.0
11.444,-0.132,-0.941,0.0
10.758,-0.126,-0.948,0.0
10.084,-0.119,-0.947,0.0
13.169,-0.161,-0.949,0.0
12.173,-0.151,-0.948,0.0
11.281,-0.141,-0.945,0.0
10.558,-0.134,-0.946,0.0
9.92,-0.127,-0.947,0.0
12.926,-0.171,-0.951,0.0
11.87,-0.159,-0.942,0.0
11.143,-0.15,-0.95,0.0
10.4,-0.142,-0.948,0.0
9.758,-0.135,-0.946,0.0
12.642,-0.18,-0.949,0.0
11.674,-0.168,-0.944,0.0
10.891,-0.158,-0.945,0.0
10.25,-0.15,-0.949,0.0
9.602,-0.142,-0.945,0.0
13.337,-0.201,-0.943,0.0
12.381,-0.189,-0.947,0.0
11.472,-0.177,-0.944,0.0
10.703,-0.166,-0.944,0.0
10.082,-0.158,-0.948,0.0
9.469,-0.15,-0.946,0.0
13.155,-0.212,-0.948,0.0
12.186,-0.198,-0.949,0.0
11.283,-0.185,-0.944,0.0
10.557,-0.175,-0.946,0.0
9.934,-0.166,-0.948,0.0
9.336,-0.158,-0.946,0.0
12.846,-0.221,-0.944,0.0
11.957,-0.207,-0.948,0.0
11.111,-0.194,-0.945,0.0
10.404,-0.184,-0.947,0.0
9.792,-0.175,-0.948,0.0
9.187,-0.165,-0.943,0.0
12.673,-0.231,-0.948,0.0
11.755,-0.217,-0.947,0.0
10.973,-0.204,-0.948,0.0
10.252,-0.192,-0.946,0.0
9.627,-0.182,-0.945,0.0
9.066,-0.173,-0.943,0.0
12.45,-0.241,-0.948,0.0
11.477,-0.224,-0.94,0.0
10.802,-0.213,-0.947,0.0
10.134,-0.201,-0.949,0.0
9.495,-0.19,-0.944,0.0
8.96,-0.181,-0.943,0.0
12.276,-0.251,-0.95,0.0
11.328,-0.234,-0.942,0.0
10.64,-0.221,-0.946,0.0
9.978,-0.209,-0.946,0.0
9.399,-0.199,-0.946,0.0
8.826,-0.188,-0.94,0.0
12.09,-0.261,-0.95,0.0
11.223,-0.244,-0.947,0.0
10.505,-0.231,-0.947,0.0
9.865,-0.218,-0.948,0.0
9.271,-0.207,-0.945,0.0
8.74,-0.197,-0.941,0.0
11.868,-0.27,-0.947,0.0
11.06,-0.254,-0.946,0.0
10.375,-0.24,-0.948,0.0
9.732,-0.227,-0.946,0.0
9.182,-0.216,-0.946,0.0
8.635,-0.204,-0.94,0.0
11.777,-0.282,-0.953,0.0
10.956,-0.264,-0.95,0.0
10.23,-0.248,-0.946,0.0
9.584,-0.235,-0.943,0.0
9.04,-0.223,-0.942,0.0
8.538,-0.212,-0.939,0.0
11.523,-0.289,-0.945,0.0
10.73,-0.271,-0.942,0.0
10.122,-0.258,-0.947,0.0
9.501,-0.244,-0.945,0.0
8.933,-0.231,-0.94,0.0
8.469,-0.221,-0.941,0.0
11.363,-0.299,-0.944,0.0
10.616,-0.281,-0.943,0.0
10.012,-0.267,-0.947,0.0
9.422,-0.253,-0.947,0.0
8.825,-0.239,-0.938,0.0
8.379,-0.229,-0.939,0.0
11.229,-0.309,-0.944,0.0
10.516,-0.291,-0.945,0.0
9.917,-0.277,-0.948,0.0
9.308,-0.261,-0.945,0.0
8.777,-0.248,-0.942,0.0
8.3,-0.237,-0.939,0.0
11.171,-0.321,-0.95,0.0
10.426,-0.302,-0.947,0.0
9.792,-0.285,-0.946,0.0
9.242,-0.271,-0.947,0.0
8.708,-0.257,-0.943,0.0
8.251,-0.245,-0.941,0.0
11.013,-0.33,-0.947,0.0
10.33,-0.312,-0.948,0.0
9.695,-0.294,-0.945,0.0
9.134,-0.279,-0.944,0.0
8.628,-0.265,-0.942,0.0
8.165,-0.253,-0.939,0.0
10.929,-0.341,-0.95,0.0
10.234,-0.321,-0.948,0.0
9.591,-0.303,-0.944,0.0
9.058,-0.288,-0.945,0.0
8.545,-0.274,-0.94,0.0
8.119,-0.262,-0.941,0.0
10.816,-0.351,-0.949,0.0
10.145,-0.331,-0.949,0.0
9.534,-0.313,-0.946,0.0
8.945,-0.296,-0.94,0.0
8.496,-0.283,-0.942,0.0
8.057,-0.27,-0.94,0.0
10.718,-0.361,-0.949,0.0
10.054,-0.341,-0.948,0.0
9.454,-0.323,-0.946,0.0
8.879,-0.305,-0.94,0.0
8.406,-0.291,-0.939,0.0
7.987,-0.278,-0.938,0.0
10.608,-0.371,-0.948,0.0
9.981,-0.351,-0.949,0.0
9.405,-0.333,-0.948,0.0
8.829,-0.315,-0.942,0.0
8.366,-0.3,-0.941,0.0
7.946,-0.287,-0.939,0.0
10.534,-0.382,-0.949,0.0
9.893,-0.361,-0.948,0.0
9.329,-0.342,-0.947,0.0
8.767,-0.324,-0.941,0.0
8.323,-0.309,-0.942,0.0
7.911,-0.296,-0.941,0.0
10.491,-0.394,-0.952,0.0
9.823,-0.371,-0.947,0.0
9.274,-0.352,-0.948,0.0
8.709,-0.333,-0.941,0.0
8.264,-0.318,-0.94,0.0
7.872,-0.304,-0.941,0.0
10.414,-0.404,-0.951,0.0
9.769,-0.381,-0.948,0.0
9.213,-0.362,-0.947,0.0
8.665,-0.342,-0.941,0.0
8.227,-0.327,-0.941,0.0
7.83,-0.313,-0.941,0.0
10.334,-0.414,-0.95,0.0
9.722,-0.392,-0.949,0.0
9.129,-0.37,-0.944,0.0
8.61,-0.351,-0.94,0.0
8.166,-0.335,-0.939,0.0
7.802,-0.322,-0.942,0.0
10.292,-0.426,-0.952,0.0
9.658,-0.402,-0.948,0.0
9.079,-0.38,-0.943,0.0
8.57,-0.36,-0.94,0.0
8.14,-0.344,-0.94,0.0
7.765,-0.33,-0.941,0.0
10.265,-0.438,-0.954,0.0
9.614,-0.412,-0.949,0.0
9.055,-0.39,-0.945,0.0
8.566,-0.371,-0.944,0.0
8.111,-0.354,-0.94,0.0
7.734,-0.339,-0.941,0.0
10.192,-0.448,-0.952,0.0
9.593,-0.424,-0.951,0.0
9.011,-0.4,-0.945,0.0
8.508,-0.38,-0.941,0.0
8.09,-0.363,-0.941,0.0
7.708,-0.348,-0.941,0.0
10.11,-0.457,-0.949,0.0
9.537,-0.434,-0.949,0.0
8.98,-0.41,-0.945,0.0
8.468,-0.389,-0.94,0.0
8.066,-0.372,-0.942,0.0
7.722,-0.358,-0.946,0.0
10.074,-0.469,-0.949,0.0
9.525,-0.445,-0.951,0.0
8.943,-0.42,-0.944,0.0
8.454,-0.399,-0.942,0.0
8.039,-0.382,-0.941,0.0
7.672,-0.366,-0.942,0.0
10.055,-0.481,-0.951,0.0
9.449,-0.454,-0.947,0.0
8.915,-0.43,-0.944,0.0
8.381,-0.407,-0.936,0.0
8.025,-0.391,-0.942,0.0
7.667,-0.376,-0.944,0.0
10.02,-0.492,-0.95,0.0
9.453,-0.466,-0.95,0.0
8.907,-0.441,-0.945,0.0
8.417,-0.419,-0.942,0.0
7.993,-0.4,-0.94,0.0
7.65,-0.385,-0.943,0.0
10.031,-0.505,-0.953,0.0
9.445,-0.478,-0.951,0.0
8.876,-0.451,-0.944,0.0
8.388,-0.429,-0.941,0.0
7.983,-0.41,-0.941,0.0
7.643,-0.394,-0.944,0.0
9.961,-0.514,-0.949,0.0
9.413,-0.488,-0.949,0.0
8.864,-0.462,-0.944,0.0
8.36,-0.438,-0.939,0.0
7.961,-0.419,-0.939,0.0
7.649,-0.404,-0.946,0.0
9.97,-0.527,-0.951,0.0
9.402,-0.499,-0.95,0.0
8.858,-0.473,-0.945,0.0
8.406,-0.451,-0.945,0.0
7.967,-0.429,-0.941,0.0
7.628,-0.413,-0.944,0.0
9.948,-0.538,-0.95,0.0
9.379,-0.51,-0.948,0.0
8.854,-0.483,-0.945,0.0
8.356,-0.458,-0.94,0.0
7.951,-0.438,-0.939,0.0
7.636,-0.422,-0.946,0.0
9.961,-0.551,-0.951,0.0
9.406,-0.523,-0.951,0.0
8.85,-0.494,-0.945,0.0
8.381,-0.47,-0.943,0.0
7.955,-0.448,-0.94,0.0
7.645,-0.432,-0.947,0.0
9.97,-0.564,-0.952,0.0
9.405,-0.534,-0.951,0.0
8.827,-0.504,-0.942,0.0
8.387,-0.481,-0.943,0.0
7.953,-0.458,-0.939,0.0
7.626,-0.441,-0.944,0.0
9.962,-0.576,-0.951,0.0
9.41,-0.546,-0.951,0.0
8.861,-0.517,-0.945,0.0
8.381,-0.491,-0.942,0.0
7.995,-0.47,-0.944,0.0
7.637,-0.451,-0.945,0.0
9.973,-0.589,-0.951,0.0
9.455,-0.56,-0.955,0.0
8.875,-0.528,-0.946,0.0
8.387,-0.501,-0.942,0.0
8.003,-0.48,-0.944,0.0
7.666,-0.462,-0.948,0.0
10.013,-0.603,-0.954,0.0
9.451,-0.571,-0.953,0.0
8.882,-0.539,-0.945,0.0
8.402,-0.512,-0.942,0.0
7.978,-0.488,-0.94,0.0
7.66,-0.47,-0.945,0.0
10.045,-0.617,-0.955,0.0
9.483,-0.584,-0.955,0.0
8.902,-0.551,-0.946,0.0
8.417,-0.523,-0.942,0.0
8.003,-0.499,-0.941,0.0
7.66,-0.479,-0.944,0.0
10.039,-0.628,-0.952,0.0
9.493,-0.596,-0.954,0.0
8.912,-0.561,-0.945,0.0
8.436,-0.533,-0.943,0.0
8.024,-0.509,-0.942,0.0
7.694,-0.49,-0.946,0.0
10.078,-0.642,-0.954,0.0
9.513,-0.608,-0.953,0.0
8.952,-0.574,-0.947,0.0
8.459,-0.545,-0.943,0.0
8.038,-0.519,-0.941,0.0
7.689,-0.499,-0.943,0.0
10.096,-0.654,-0.952,0.0
9.548,-0.621,-0.954,0.0
9.002,-0.587,-0.949,0.0
8.496,-0.556,-0.944,0.0
8.066,-0.53,-0.942,0.0
7.704,-0.508,-0.942,0.0
10.154,-0.669,-0.954,0.0
9.598,-0.635,-0.955,0.0
9.044,-0.6,-0.95,0.0
8.539,-0.569,-0.946,0.0
8.08,-0.54,-0.94,0.0
7.76,-0.52,-0.946,0.0
10.187,-0.683,-0.953,0.0
9.612,-0.646,-0.953,0.0
9.073,-0.612,-0.95,0.0
8.578,-0.58,-0.947,0.0
8.124,-0.552,-0.942,0.0
7.768,-0.529,-0.944,0.0
10.271,-0.699,-0.957,0.0
9.689,-0.662,-0.956,0.0
9.101,-0.624,-0.949,0.0
8.633,-0.593,-0.949,0.0
8.17,-0.563,-0.943,0.0
7.833,-0.542,-0.948,0.0
10.279,-0.71,-0.953,0.0
9.736,-0.675,-0.956,0.0
9.181,-0.638,-0.953,0.0
8.643,-0.603,-0.946,0.0
8.205,-0.574,-0.943,0.0
7.837,-0.55,-0.945,0.0
10.366,-0.727,-0.956,0.0
9.787,-0.688,-0.956,0.0
9.24,-0.652,-0.954,0.0
8.708,-0.616,-0.948,0.0
8.229,-0.584,-0.942,0.0
7.896,-0.562,-0.947,0.0
10.408,-0.74,-0.954,0.0
9.867,-0.704,-0.959,0.0
9.258,-0.662,-0.951,0.0
8.771,-0.63,-0.95,0.0
8.321,-0.599,-0.947,0.0
7.91,-0.571,-0.944,0.0
10.516,-0.758,-0.958,0.0
9.93,-0.718,-0.959,0.0
9.352,-0.678,-0.955,0.0
8.813,-0.641,-0.949,0.0
8.345,-0.609,-0.945,0.0
7.955,-0.582,-0.945,0.0
10.541,-0.77,-0.953,0.0
9.971,-0.73,-0.956,0.0
9.415,-0.692,-0.955,0.0
8.874,-0.654,-0.95,0.0
8.405,-0.621,-0.946,0.0
8.01,-0.593,-0.946,0.0
10.62,-0.786,-0.953,0.0
10.033,-0.744,-0.956,0.0
9.45,-0.703,-0.952,0.0
8.956,-0.668,-0.953,0.0
8.47,-0.633,-0.948,0.0
8.057,-0.604,-0.946,0.0
10.721,-0.803,-0.955,0.0
10.129,-0.76,-0.958,0.0
9.566,-0.72,-0.957,0.0
9.016,-0.68,-0.952,0.0
8.547,-0.647,-0.95,0.0
8.09,-0.614,-0.944,0.0
10.895,-0.825,-0.962,0.0
10.201,-0.775,-0.957,0.0
9.642,-0.734,-0.957,0.0
9.085,-0.693,-0.953,0.0
8.597,-0.658,-0.949,0.0
8.16,-0.626,-0.945,0.0
10.974,-0.84,-0.961,0.0
10.294,-0.79,-0.958,0.0
9.73,-0.749,-0.958,0.0
9.165,-0.707,-0.954,0.0
8.704,-0.673,-0.954,0.0
8.228,-0.638,-0.947,0.0
11.011,-0.852,-0.955,0.0
10.397,-0.806,-0.959,0.0
9.827,-0.764,-0.96,0.0
9.262,-0.722,-0.956,0.0
8.767,-0.685,-0.953,0.0
8.309,-0.651,-0.949,0.0
11.16,-0.872,-0.959,0.0
10.494,-0.822,-0.959,0.0
9.904,-0.777,-0.959,0.0
9.356,-0.736,-0.958,0.0
8.824,-0.696,-0.952,0.0
8.39,-0.663,-0.951,0.0
11.294,-0.891,-0.96,0.0
10.594,-0.838,-0.958,0.0
9.995,-0.792,-0.959,0.0
9.435,-0.749,-0.957,0.0
8.916,-0.71,-0.953,0.0
8.462,-0.675,-0.951,0.0
11.445,-0.911,-0.963,0.0
10.718,-0.855,-0.96,0.0
10.099,-0.807,-0.959,0.0
9.546,-0.765,-0.959,0.0
9.013,-0.724,-0.955,0.0
8.542,-0.687,-0.952,0.0
11.572,-0.929,-0.963,0.0
10.835,-0.872,-0.96,0.0
10.209,-0.823,-0.96,0.0
9.659,-0.78,-0.962,0.0
9.103,-0.737,-0.956,0.0
8.634,-0.7,-0.954,0.0
11.713,-0.948,-0.963,0.0
10.995,-0.891,-0.963,0.0
10.308,-0.837,-0.959,0.0
9.718,-0.791,-0.958,0.0
9.197,-0.75,-0.956,0.0
8.709,-0.712,-0.953,0.0
11.865,-0.967,-0.963,0.0
11.069,-0.904,-0.959,0.0
10.412,-0.852,-0.958,0.0
9.822,-0.805,-0.958,0.0
9.327,-0.766,-0.96,0.0
8.8,-0.724,-0.954,0.0
12.024,-0.987,-0.964,0.0
11.207,-0.922,-0.959,0.0
10.562,-0.87,-0.961,0.0
9.944,-0.821,-0.959,0.0
9.398,-0.777,-0.958,0.0
8.875,-0.735,-0.953,0.0
12.243,-1.012,-0.968,0.0
11.376,-0.942,-0.961,0.0
10.654,-0.883,-0.958,0.0
10.035,-0.833,-0.957,0.0
9.532,-0.793,-0.961,0.0
9.002,-0.75,-0.956,0.0
12.426,-1.033,-0.969,0.0
11.591,-0.965,-0.967,0.0
10.828,-0.903,-0.961,0.0
10.209,-0.853,-0.962,0.0
9.648,-0.807,-0.962,0.0
9.071,-0.76,-0.953,0.0
12.552,-1.05,-0.965,0.0
11.738,-0.983,-0.966,0.0
11.012,-0.923,-0.965,0.0
10.268,-0.862,-0.956,0.0
9.786,-0.823,-0.964,0.0
9.191,-0.774,-0.955,0.0
12.79,-1.075,-0.969,0.0
11.918,-1.003,-0.967,0.0
11.159,-0.94,-0.965,0.0
10.423,-0.88,-0.959,0.0
9.868,-0.834,-0.961,0.0
9.341,-0.79,-0.96,0.0
13.002,-1.098,-0.97,0.0
12.068,-1.02,-0.965,0.0
11.276,-0.954,-0.962,0.0
10.653,-0.903,-0.967,0.0
10.036,-0.852,-0.965,0.0
9.483,-0.806,-0.963,0.0
13.215,-1.121,-0.97,0.0
12.331,-1.047,-0.971,0.0
11.472,-0.975,-0.965,0.0
10.701,-0.91,-0.958,0.0
10.149,-0.865,-0.963,0.0
9.598,-0.819,-0.963,0.0
13.748,-1.17,-0.992,0.0
12.523,-1.067,-0.971,0.0
11.712,-0.999,-0.97,0.0
10.998,-0.939,-0.971,0.0
10.255,-0.876,-0.961,0.0
9.717,-0.831,-0.963,0.0
13.974,-1.193,-0.991,0.0
12.705,-1.086,-0.969,0.0
11.844,-1.013,-0.966,0.0
11.049,-0.946,-0.962,0.0
10.425,-0.893,-0.963,0.0
9.853,-0.845,-0.964,0.0
14.024,-1.2,-0.977,1.0
12.893,-1.105,-0.967,0.0
12.057,-1.034,-0.969,0.0
11.208,-0.962,-0.961,0.0
10.571,-0.908,-0.963,0.0
9.972,-0.857,-0.962,0.0
14.029,-1.203,-0.959,1.0
13.191,-1.133,-0.972,0.0
12.279,-1.055,-0.97,0.0
11.462,-0.986,-0.968,0.0
10.736,-0.924,-0.964,0.0
10.146,-0.874,-0.966,0.0
14.021,-1.205,-0.94,1.0
13.674,-1.176,-0.99,0.0
12.515,-1.077,-0.973,0.0
11.669,-1.005,-0.97,0.0
10.913,-0.94,-0.966,0.0
10.273,-0.886,-0.964,0.0
14.012,-1.206,-0.921,1.0
13.968,-1.203,-0.992,0.0
12.717,-1.096,-0.971,0.0
11.85,-1.021,-0.969,0.0
11.044,-0.952,-0.962,0.0
10.398,-0.898,-0.962,0.0
14.011,-1.207,-0.902,1.0
14.013,-1.207,-0.977,1.0
12.93,-1.115,-0.97,0.0
12.052,-1.039,-0.969,0.0
11.24,-0.97,-0.964,0.0
10.631,-0.918,-0.969,0.0
14.024,-1.208,-0.884,1.0
13.993,-1.206,-0.956,1.0
13.222,-1.14,-0.974,0.0
12.253,-1.057,-0.969,0.0
11.448,-0.988,-0.966,0.0
10.767,-0.929,-0.966,0.0
14.025,-1.208,-0.865,1.0
14.009,-1.207,-0.938,1.0
13.748,-1.185,-0.994,0.0
12.53,-1.08,-0.973,0.0
11.695,-1.008,-0.971,0.0
10.977,-0.947,-0.97,0.0
14.172,-1.22,-0.854,0.0
14.021,-1.207,-0.919,1.0
13.982,-1.204,-0.991,0.0
12.738,-1.097,-0.972,0.0
11.89,-1.024,-0.97,0.0
11.104,-0.957,-0.965,0.0
14.4,-1.238,-0.848,0.0
14.013,-1.205,-0.899,1.0
14.02,-1.205,-0.974,1.0
12.986,-1.117,-0.972,0.0
12.061,-1.037,-0.967,0.0
11.283,-0.97,-0.964,0.0
14.623,-1.255,-0.84,0.0
14.019,-1.203,-0.88,1.0
14.007,-1.202,-0.953,1.0
13.299,-1.141,-0.977,0.0
12.415,-1.065,-0.978,0.0
11.553,-0.991,-0.971,0.0
14.97,-1.282,-0.839,1.0
14.054,-1.203,-0.861,1.0
14.037,-1.202,-0.935,1.0
13.905,-1.19,-1.001,0.0
12.579,-1.077,-0.972,0.0
11.766,-1.007,-0.972,0.0
15.238,-1.301,-0.832,1.0
14.281,-1.219,-0.855,0.0
14.025,-1.197,-0.913,1.0
14.009,-1.195,-0.988,1.0
12.874,-1.098,-0.976,0.0
11.992,-1.023,-0.973,0.0
15.479,-1.318,-0.822,1.0
14.501,-1.234,-0.847,0.0
14.041,-1.194,-0.894,1.0
14.03,-1.193,-0.969,1.0
13.118,-1.115,-0.975,0.0
12.173,-1.034,-0.97,0.0
15.724,-1.333,-0.812,1.0
14.734,-1.249,-0.839,0.0
14.05,-1.19,-0.874,1.0
14.058,-1.191,-0.95,1.0
13.7,-1.16,-0.999,0.0
12.501,-1.058,-0.977,0.0
16.026,-1.353,-0.805,1.0
15.112,-1.275,-0.838,0.0
14.133,-1.192,-0.859,0.0
14.066,-1.186,-0.93,1.0
13.979,-1.178,-0.998,0.0
12.698,-1.069,-0.974,0.0
16.389,-1.377,-0.798,1.0
15.358,-1.29,-0.829,1.0
14.392,-1.208,-0.853,0.0
14.07,-1.18,-0.909,1.0
14.075,-1.179,-0.984,1.0
12.982,-1.087,-0.976,0.0
16.808,-1.405,-0.794,0.0
15.613,-1.304,-0.82,1.0
14.618,-1.22,-0.844,0.0
14.075,-1.174,-0.889,1.0
14.082,-1.173,-0.963,1.0
13.326,-1.109,-0.982,0.0
17.253,-1.433,-0.789,0.0
15.896,-1.319,-0.811,1.0
14.907,-1.236,-0.839,0.0
14.12,-1.17,-0.87,1.0
14.112,-1.168,-0.944,1.0
13.836,-1.144,-0.999,0.0
17.791,-1.469,-0.788,0.0
16.256,-1.34,-0.805,1.0
15.239,-1.255,-0.835,1.0
14.215,-1.17,-0.855,0.0
14.114,-1.16,-0.923,1.0
14.094,-1.158,-0.997,0.0
18.389,-1.507,-0.787,1.0
16.544,-1.354,-0.795,1.0
15.529,-1.27,-0.828,1.0
14.526,-1.186,-0.852,0.0
14.132,-1.153,-0.904,1.0
14.124,-1.151,-0.978,1.0
18.823,-1.531,-0.777,1.0
17.06,-1.386,-0.794,0.0
15.764,-1.279,-0.817,1.0
14.773,-1.197,-0.845,0.0
14.139,-1.144,-0.883,1.0
14.168,-1.145,-0.959,1.0
19.558,-1.578,-0.779,1.0
17.549,-1.414,-0.791,0.0
16.118,-1.296,-0.811,1.0
15.11,-1.214,-0.841,0.0
14.207,-1.14,-0.866,0.0
14.175,-1.136,-0.939,1.0
20.163,-1.612,-0.773,2.0
18.19,-1.452,-0.792,0.0
16.454,-1.311,-0.803,1.0
15.361,-1.223,-0.832,0.0
14.469,-1.15,-0.86,0.0
14.175,-1.125,-0.918,1.0
20.734,-1.642,-0.764,1.0
18.576,-1.469,-0.782,0.0
16.843,-1.329,-0.797,1.0
15.671,-1.235,-0.826,1.0
14.681,-1.155,-0.851,0.0
14.22,-1.117,-0.899,1.0
21.416,-1.679,-0.757,1.0
19.274,-1.508,-0.783,0.0
17.341,-1.355,-0.795,0.0
15.884,-1.239,-0.814,1.0
15.092,-1.175,-0.853,1.0
14.255,-1.108,-0.88,1.0
22.272,-1.727,-0.755,1.0
19.978,-1.547,-0.782,1.0
17.992,-1.39,-0.799,1.0
16.333,-1.26,-0.813,1.0
15.302,-1.178,-0.842,1.0
14.334,-1.101,-0.864,0.0
23.275,-1.785,-0.755,5.0
20.48,-1.567,-0.771,1.0
18.361,-1.402,-0.788,2.0
16.729,-1.275,-0.808,1.0
15.536,-1.182,-0.832,1.0
14.617,-1.11,-0.86,1.0
23.819,-1.805,-0.737,13.0
21.137,-1.598,-0.765,1.0
18.918,-1.427,-0.784,0.0
17.111,-1.288,-0.801,2.0
15.773,-1.184,-0.821,1.0
14.862,-1.114,-0.852,0.0
23.99,-1.794,-0.708,16.0
21.864,-1.631,-0.76,1.0
19.699,-1.466,-0.788,1.0
17.229,-1.28,-0.782,5.0
16.136,-1.196,-0.817,1.0
15.196,-1.123,-0.849,1.0
24.456,-1.805,-0.686,11.0
22.756,-1.675,-0.758,1.0
20.103,-1.476,-0.775,1.0
18.069,-1.324,-0.794,1.0
16.456,-1.202,-0.809,1.0
15.367,-1.12,-0.837,1.0
24.801,-1.804,-0.66,6.0
23.678,-1.718,-0.755,7.0
20.734,-1.5,-0.77,1.0
18.664,-1.347,-0.793,1.0
16.893,-1.216,-0.807,1.0
15.665,-1.125,-0.831,1.0
27.966,-2.004,-0.705,2.0
23.861,-1.705,-0.727,12.0
21.597,-1.539,-0.771,0.0
19.209,-1.365,-0.789,0.0
17.307,-1.227,-0.802,1.0
15.916,-1.125,-0.822,1.0
28.99,-2.045,-0.69,4.0
24.136,-1.698,-0.701,13.0
22.256,-1.561,-0.764,1.0
19.837,-1.387,-0.787,1.0
17.933,-1.25,-0.806,2.0
16.257,-1.13,-0.817,1.0
30.491,-2.116,-0.683,10.0
24.437,-1.69,-0.676,17.0
23.388,-1.613,-0.77,5.0
20.393,-1.402,-0.781,1.0
18.29,-1.253,-0.797,1.0
16.644,-1.137,-0.813,1.0
30.624,-2.088,-0.644,2.0
24.461,-1.662,-0.643,24.0
23.789,-1.612,-0.751,12.0
21.021,-1.419,-0.776,1.0
18.874,-1.27,-0.796,0.0
17.055,-1.144,-0.809,0.0
24.521,-1.641,-0.482,20.0
24.441,-1.63,-0.609,23.0
23.974,-1.594,-0.723,14.0
21.694,-1.437,-0.771,0.0
19.409,-1.282,-0.792,0.0
17.475,-1.15,-0.805,0.0
24.526,-1.61,-0.448,43.0
24.451,-1.599,-0.576,29.0
24.266,-1.581,-0.699,21.0
22.732,-1.476,-0.777,3.0
20.077,-1.299,-0.792,0.0
18.116,-1.168,-0.81,1.0
24.51,-1.577,-0.415,47.0
24.472,-1.568,-0.543,40.0
24.382,-1.557,-0.67,27.0
23.468,-1.493,-0.771,5.0
20.676,-1.31,-0.788,1.0
18.395,-1.161,-0.798,1.0
24.506,-1.543,-0.383,65.0
24.479,-1.535,-0.511,51.0
24.402,-1.525,-0.638,28.0
23.801,-1.481,-0.751,12.0
21.15,-1.311,-0.779,1.0
18.985,-1.172,-0.799,0.0
24.508,-1.509,-0.351,66.0
24.491,-1.502,-0.48,58.0
24.45,-1.493,-0.608,38.0
23.956,-1.457,-0.725,15.0
21.751,-1.317,-0.773,1.0
19.458,-1.173,-0.794,1.0
24.505,-1.474,-0.319,57.0
24.493,-1.467,-0.448,70.0
24.464,-1.459,-0.577,39.0
24.236,-1.439,-0.702,14.0
22.531,-1.332,-0.772,1.0
20.163,-1.187,-0.797,2.0
24.533,-1.44,-0.289,76.0
24.509,-1.432,-0.418,55.0
24.479,-1.424,-0.547,41.0
24.351,-1.41,-0.675,22.0
23.605,-1.36,-0.779,5.0
20.62,-1.183,-0.789,2.0
24.529,-1.403,-0.258,55.0
24.534,-1.396,-0.388,46.0
24.516,-1.389,-0.517,43.0
24.421,-1.376,-0.646,20.0
23.808,-1.335,-0.756,13.0
21.146,-1.18,-0.783,2.0
24.568,-1.367,-0.228,36.0
24.561,-1.36,-0.358,42.0
24.543,-1.352,-0.487,33.0
24.462,-1.341,-0.618,28.0
23.913,-1.304,-0.731,15.0
21.86,-1.186,-0.784,2.0
54.676,-2.958,-0.443,7.0
24.579,-1.323,-0.329,3.0
31.263,-1.673,-0.584,14.0
24.53,-1.306,-0.59,21.0
24.179,-1.28,-0.71,16.0
22.49,-1.184,-0.779,4.0
56.372,-2.959,-0.389,7.0
44.232,-2.308,-0.539,2.0
31.311,-1.624,-0.547,16.0
30.522,-1.575,-0.698,22.0
24.431,-1.253,-0.689,13.0
23.517,-1.2,-0.787,5.0
65.62,-3.338,-0.377,4.0
47.434,-2.398,-0.524,3.0
38.061,-1.912,-0.622,4.0
30.605,-1.529,-0.665,26.0
24.77,-1.23,-0.67,2.0
23.764,-1.173,-0.769,13.0
65.66,-3.23,-0.303,1.0
31.257,-1.528,-0.31,24.0
31.233,-1.517,-0.475,34.0
30.724,-1.483,-0.633,29.0
28.277,-1.356,-0.733,3.0
23.875,-1.138,-0.746,15.0
31.273,-1.485,-0.11,27.0
31.198,-1.472,-0.275,48.0
31.199,-1.463,-0.441,47.0
30.911,-1.439,-0.604,31.0
0.0,0.0,0.0,0.0
24.127,-1.108,-0.727,15.0
31.228,-1.429,-0.075,56.0
31.187,-1.417,-0.241,59.0
31.205,-1.408,-0.407,54.0
31.06,-1.392,-0.573,38.0
28.463,-1.266,-0.676,37.0
24.592,-1.087,-0.715,10.0
28.466,-1.253,-0.039,56.0
28.46,-1.243,-0.19,59.0
28.442,-1.234,-0.341,56.0
28.445,-1.224,-0.495,68.0
28.448,-1.216,-0.647,107.0
25.256,-1.072,-0.709,4.0
28.458,-1.202,-0.009,132.0
28.449,-1.192,-0.161,136.0
28.442,-1.182,-0.312,109.0
28.452,-1.173,-0.466,117.0
28.459,-1.165,-0.618,122.0
28.355,-1.152,-0.767,13.0
28.457,-1.15,0.018,150.0
28.445,-1.14,-0.133,69.0
28.452,-1.131,-0.284,63.0
28.47,-1.123,-0.439,60.0
28.459,-1.113,-0.591,36.0
28.482,-1.105,-0.743,19.0
31.246,-1.206,0.05,36.0
31.307,-1.198,-0.116,69.0
31.326,-1.189,-0.283,45.0
31.301,-1.177,-0.453,33.0
30.904,-1.152,-0.612,27.0
30.201,-1.116,-0.76,6.0
80.323,-2.952,0.204,16.0
80.926,-2.948,-0.225,12.0
54.325,-1.96,-0.441,1.0
44.955,-1.607,-0.61,3.0
31.163,-1.103,-0.589,27.0
30.429,-1.068,-0.738,17.0
80.441,-2.806,0.277,29.0
80.948,-2.795,-0.152,23.0
38.745,-1.324,-0.28,0.0
38.647,-1.309,-0.489,15.0
31.503,-1.056,-0.568,17.0
30.479,-1.012,-0.712,31.0
38.735,-1.277,0.167,36.0
38.701,-1.262,-0.039,48.0
38.682,-1.249,-0.246,53.0
38.629,-1.235,-0.456,28.0
37.949,-1.2,-0.651,19.0
30.553,-0.955,-0.688,35.0
38.66,-1.2,0.2,70.0
38.65,-1.187,-0.006,69.0
38.648,-1.173,-0.213,65.0
38.629,-1.159,-0.424,52.0
38.004,-1.128,-0.621,31.0
30.662,-0.9,-0.665,31.0
38.649,-1.124,0.231,96.0
38.67,-1.112,0.024,90.0
38.653,-1.099,-0.183,71.0
38.654,-1.085,-0.394,41.0
38.22,-1.06,-0.594,18.0
30.842,-0.845,-0.645,32.0
38.655,-1.049,0.261,64.0
38.669,-1.036,0.054,64.0
38.692,-1.023,-0.153,37.0
38.724,-1.011,-0.365,38.0
38.391,-0.989,-0.568,17.0
31.16,-0.792,-0.628,27.0
38.746,-0.975,0.291,8.0
40.43,-1.004,0.086,23.0
40.402,-0.989,-0.13,33.0
40.407,-0.975,-0.352,41.0
38.527,-0.917,-0.543,16.0
31.434,-0.737,-0.612,13.0
40.414,-0.937,0.332,65.0
40.447,-0.923,0.115,152.0
40.425,-0.908,-0.102,29.0
40.432,-0.895,-0.324,11.0
38.373,-0.835,-0.514,9.0
0.0,0.0,0.0,0.0
38.392,-0.811,0.342,34.0
38.381,-0.798,0.135,10.0
52.936,-1.082,-0.098,14.0
45.58,-0.916,-0.335,20.0
44.961,-0.887,-0.572,30.0
37.788,-0.732,-0.685,14.0
53.012,-1.013,0.506,14.0
53.005,-0.994,0.22,4.0
20.113,-0.37,-0.024,18.0
52.938,-0.957,-0.356,42.0
45.088,-0.798,-0.546,22.0
37.983,-0.659,-0.665,18.0
176.641,-3.016,1.795,129.0
20.128,-0.336,0.095,20.0
20.13,-0.329,-0.012,29.0
59.422,-0.951,-0.364,11.0
45.324,-0.709,-0.523,15.0
38.114,-0.583,-0.645,22.0
20.116,-0.302,0.215,13.0
20.125,-0.295,0.107,10.0
59.522,-0.851,-0.004,73.0
59.495,-0.83,-0.332,1.0
52.566,-0.715,-0.577,6.0
38.29,-0.507,-0.628,14.0
20.14,-0.26,0.227,10.0
20.137,-0.253,0.118,1.0
59.582,-0.729,0.026,8.0
56.229,-0.667,-0.284,1.0
52.616,-0.606,-0.551,8.0
38.493,-0.43,-0.611,14.0
64.336,-0.698,0.757,35.0
64.322,-0.675,0.409,44.0
56.175,-0.57,0.052,1.0
56.312,-0.551,-0.257,4.0
52.826,-0.498,-0.528,5.0
20.168,-0.183,-0.311,18.0
66.513,-0.582,0.814,18.0
58.316,-0.489,0.398,18.0
20.19,-0.162,0.028,5.0
20.163,-0.155,-0.083,16.0
20.142,-0.147,-0.192,14.0
20.148,-0.14,-0.301,34.0
20.141,-0.134,0.255,17.0
20.125,-0.126,0.145,18.0
20.141,-0.119,0.036,29.0
20.15,-0.112,-0.074,28.0
20.145,-0.105,-0.184,32.0
20.142,-0.098,-0.293,38.0
20.119,-0.091,0.262,28.0
20.123,-0.084,0.153,28.0
20.134,-0.077,0.044,36.0
20.129,-0.07,-0.067,31.0
20.141,-0.062,-0.176,34.0
20.152,-0.055,-0.286,27.0
20.118,-0.048,0.27,30.0
20.114,-0.041,0.16,37.0
20.13,-0.034,0.051,37.0
20.113,-0.026,-0.06,20.0
20.167,-0.019,-0.17,15.0
20.219,-0.012,-0.281,5.0
20.123,-0.005,0.276,29.0
20.121,0.001,0.167,28.0
20.185,0.008,0.057,44.0
20.253,0.016,-0.054,151.0
20.258,0.023,-0.165,151.0
20.269,0.03,-0.275,69.0
20.141,0.037,0.282,30.0
20.142,0.044,0.172,27.0
20.193,0.051,0.063,23.0
20.207,0.059,-0.049,35.0
20.198,0.066,-0.159,27.0
20.218,0.073,-0.27,7.0
20.154,0.08,0.287,28.0
20.148,0.087,0.177,29.0
20.182,0.094,0.067,36.0
20.183,0.102,-0.044,31.0
20.175,0.109,-0.154,39.0
20.182,0.116,-0.265,29.0
20.176,0.124,0.292,28.0
20.173,0.131,0.181,25.0
20.214,0.138,0.071,30.0
20.214,0.145,-0.04,24.0
20.188,0.152,-0.151,27.0
20.17,0.159,-0.261,35.0
20.269,0.167,0.297,28.0
20.288,0.175,0.186,28.0
20.314,0.182,0.075,35.0
20.314,0.189,-0.038,17.0
20.209,0.195,-0.148,6.0
20.177,0.202,-0.258,25.0
20.289,0.211,0.3,29.0
20.303,0.218,0.189,24.0
20.315,0.226,0.077,6.0
0.0,0.0,0.0,0.0
0.0,0.0,0.0,0.0
20.215,0.246,-0.257,2.0
20.297,0.255,0.302,11.0
0.0,0.0,0.0,0.0
99.626,1.32,0.389,5.0
101.637,1.382,-0.17,1.0
0.0,0.0,0.0,0.0
0.0,0.0,0.0,0.0
194.775,2.861,2.911,26.0
0.0,0.0,0.0,0.0
99.682,1.533,0.394,5.0
99.872,1.57,-0.164,1.0
0.0,0.0,0.0,0.0
0.0,0.0,0.0,0.0
194.886,3.279,2.917,23.0
0.0,0.0,0.0,0.0
99.904,1.751,0.395,10.0
100.264,1.792,-0.164,3.0
0.0,0.0,0.0,0.0
0.0,0.0,0.0,0.0
0.0,0.0,0.0,0.0
0.0,0.0,0.0,0.0
99.957,1.966,0.393,6.0
100.034,2.001,-0.167,5.0
0.0,0.0,0.0,0.0
0.0,0.0,0.0,0.0
195.515,4.129,2.912,22.0
0.0,0.0,0.0,0.0
99.978,2.179,0.386,2.0
100.086,2.215,-0.175,8.0
0.0,0.0,0.0,0.0
0.0,0.0,0.0,0.0
195.153,4.54,2.889,21.0
0.0,0.0,0.0,0.0
100.226,2.398,0.376,2.0
0.0,0.0,0.0,0.0
0.0,0.0,0.0,0.0
0.0,0.0,0.0,0.0
195.357,4.958,2.867,21.0
103.181,2.653,0.943,7.0
0.0,0.0,0.0,0.0
0.0,0.0,0.0,0.0
0.0,0.0,0.0,0.0
0.0,0.0,0.0,0.0
195.473,5.379,2.836,22.0
0.0,0.0,0.0,0.0
0.0,0.0,0.0,0.0
0.0,0.0,0.0,0.0
69.032,1.991,-0.534,6.0
0.0,0.0,0.0,0.0
195.448,5.791,2.795,12.0
201.743,6.045,1.767,14.0
196.248,5.944,0.632,23.0
0.0,0.0,0.0,0.0
68.839,2.129,-0.548,1.0
0.0,0.0,0.0,0.0
195.685,6.206,2.751,8.0
196.389,6.294,1.671,9.0
196.311,6.356,0.582,18.0
0.0,0.0,0.0,0.0
0.0,0.0,0.0,0.0
0.0,0.0,0.0,0.0
196.053,6.632,2.701,23.0
196.306,6.7,1.615,16.0
196.497,6.769,0.525,9.0
0.0,0.0,0.0,0.0
68.932,2.418,-0.588,2.0
0.0,0.0,0.0,0.0
195.933,7.03,2.639,22.0
196.453,7.108,1.553,23.0
196.386,7.17,0.461,5.0
0.0,0.0,0.0,0.0
68.946,2.561,-0.611,2.0
0.0,0.0,0.0,0.0
195.096,7.4,2.559,19.0
196.664,7.523,1.485,14.0
0.0,0.0,0.0,0.0
0.0,0.0,0.0,0.0
0.0,0.0,0.0,0.0
0.0,0.0,0.0,0.0
199.256,7.971,2.536,13.0
196.714,7.929,1.407,29.0
0.0,0.0,0.0,0.0
0.0,0.0,0.0,0.0
0.0,0.0,0.0,0.0
0.0,0.0,0.0,0.0
0.0,0.0,0.0,0.0
196.72,8.328,1.324,28.0
0.0,0.0,0.0,0.0
0.0,0.0,0.0,0.0
0.0,0.0,0.0,0.0
0.0,0.0,0.0,0.0
204.965,9.029,2.427,20.0
196.852,8.73,1.233,31.0
0.0,0.0,0.0,0.0
0.0,0.0,0.0,0.0
0.0,0.0,0.0,0.0
42.62,1.942,-0.689,0.0
205.199,9.449,2.33,21.0
196.99,9.129,1.135,38.0
0.0,0.0,0.0,0.0
0.0,0.0,0.0,0.0
0.0,0.0,0.0,0.0
0.0,0.0,0.0,0.0
0.0,0.0,0.0,0.0
197.172,9.529,1.031,27.0
0.0,0.0,0.0,0.0
0.0,0.0,0.0,0.0
0.0,0.0,0.0,0.0
42.184,2.088,-0.727,0.0
197.919,9.892,2.031,20.0
197.174,9.913,0.919,37.0
0.0,0.0,0.0,0.0
68.94,3.505,-0.457,4.0
0.0,0.0,0.0,0.0
41.75,2.146,-0.744,0.0
206.716,10.728,2.0,19.0
197.505,10.308,0.804,6.0
0.0,0.0,0.0,0.0
69.061,3.643,-0.5,1.0
51.926,2.754,-0.667,0.0
40.824,2.178,-0.753,0.0
196.157,10.559,1.775,37.0
196.068,10.608,0.673,25.0
0.0,0.0,0.0,0.0
0.0,0.0,0.0,0.0
0.0,0.0,0.0,0.0
39.887,2.203,-0.762,0.0
197.229,10.988,1.655,15.0
197.433,11.053,0.547,13.0
0.0,0.0,0.0,0.0
69.007,3.902,-0.59,0.0
0.0,0.0,0.0,0.0
38.999,2.227,-0.772,0.0
197.44,11.37,1.519,22.0
0.0,0.0,0.0,0.0
0.0,0.0,0.0,0.0
0.0,0.0,0.0,0.0
0.0,0.0,0.0,0.0
37.983,2.239,-0.779,0.0
197.543,11.739,1.377,30.0
0.0,0.0,0.0,0.0
0.0,0.0,0.0,0.0
0.0,0.0,0.0,0.0
0.0,0.0,0.0,0.0
37.072,2.253,-0.788,0.0
155.428,9.521,0.966,35.0
0.0,0.0,0.0,0.0
0.0,0.0,0.0,0.0
0.0,0.0,0.0,0.0
0.0,0.0,0.0,0.0
0.0,0.0,0.0,0.0
155.233,9.783,0.844,4.0
0.0,0.0,0.0,0.0
68.989,4.383,-0.401,0.0
0.0,0.0,0.0,0.0
0.0,0.0,0.0,0.0
35.43,2.278,-0.809,0.0
154.932,10.036,0.718,50.0
0.0,0.0,0.0,0.0
68.954,4.501,-0.458,4.0
0.0,0.0,0.0,0.0
0.0,0.0,0.0,0.0
33.447,2.209,-0.792,0.0
154.954,10.308,0.587,154.0
0.0,0.0,0.0,0.0
68.899,4.618,-0.517,2.0
0.0,0.0,0.0,0.0
40.138,2.71,-0.758,0.0
33.177,2.249,-0.814,1.0
154.904,10.573,0.451,150.0
0.0,0.0,0.0,0.0
0.0,0.0,0.0,0.0
0.0,0.0,0.0,0.0
0.0,0.0,0.0,0.0
32.465,2.255,-0.826,1.0
0.0,0.0,0.0,0.0
0.0,0.0,0.0,0.0
0.0,0.0,0.0,0.0
0.0,0.0,0.0,0.0
0.0,0.0,0.0,0.0
31.97,2.274,-0.843,0.0
0.0,0.0,0.0,0.0
0.0,0.0,0.0,0.0
0.0,0.0,0.0,0.0
0.0,0.0,0.0,0.0
35.774,2.593,-0.774,0.0
30.269,2.202,-0.827,0.0
0.0,0.0,0.0,0.0
0.0,0.0,0.0,0.0
0.0,0.0,0.0,0.0
0.0,0.0,0.0,0.0
35.294,2.615,-0.798,0.0
30.005,2.23,-0.848,0.0
0.0,0.0,0.0,0.0
0.0,0.0,0.0,0.0
0.0,0.0,0.0,0.0
0.0,0.0,0.0,0.0
33.218,2.513,-0.784,0.0
29.217,2.218,-0.855,0.0
0.0,0.0,0.0,0.0
0.0,0.0,0.0,0.0
0.0,0.0,0.0,0.0
0.0,0.0,0.0,0.0
32.934,2.543,-0.811,1.0
28.332,2.194,-0.858,0.0
0.0,0.0,0.0,0.0
0.0,0.0,0.0,0.0
0.0,0.0,0.0,0.0
37.952,2.978,-0.759,0.0
32.443,2.553,-0.833,1.0
27.648,2.182,-0.867,1.0
0.0,0.0,0.0,0.0
0.0,0.0,0.0,0.0
0.0,0.0,0.0,0.0
37.156,2.971,-0.782,0.0
31.256,2.505,-0.836,0.0
26.811,2.155,-0.869,0.0
0.0,0.0,0.0,0.0
0.0,0.0,0.0,0.0
0.0,0.0,0.0,0.0
0.0,0.0,0.0,0.0
30.222,2.466,-0.841,0.0
26.124,2.137,-0.876,0.0
68.983,5.67,-0.419,4.0
0.0,0.0,0.0,0.0
0.0,0.0,0.0,0.0
34.818,2.882,-0.809,0.0
29.308,2.432,-0.848,0.0
25.201,2.097,-0.873,0.0
68.993,5.765,-0.496,2.0
0.0,0.0,0.0,0.0
40.136,3.369,-0.745,0.0
32.927,2.771,-0.802,0.0
28.344,2.391,-0.852,0.0
24.466,2.069,-0.875,0.0
0.0,0.0,0.0,0.0
0.0,0.0,0.0,0.0
0.0,0.0,0.0,0.0
32.087,2.742,-0.818,1.0
27.456,2.352,-0.857,0.0
24.042,2.064,-0.887,1.0
0.0,0.0,0.0,0.0
0.0,0.0,0.0,0.0
37.372,3.235,-0.78,0.0
30.731,2.666,-0.82,2.0
26.702,2.322,-0.865,0.0
21.944,1.912,-0.836,1.0
0.0,0.0,0.0,0.0
0.0,0.0,0.0,0.0
35.171,3.089,-0.776,0.0
30.109,2.65,-0.839,0.0
25.77,2.273,-0.865,0.0
21.902,1.936,-0.861,5.0
0.0,0.0,0.0,0.0
0.0,0.0,0.0,0.0
33.457,2.979,-0.778,1.0
29.038,2.591,-0.844,0.0
24.999,2.235,-0.87,0.0
21.839,1.956,-0.884,6.0
0.0,0.0,0.0,0.0
0.0,0.0,0.0,0.0
32.601,2.941,-0.798,0.0
28.088,2.539,-0.851,1.0
24.32,2.203,-0.876,0.0
21.735,1.972,-0.907,1.0
0.0,0.0,0.0,0.0
0.0,0.0,0.0,0.0
31.84,2.908,-0.818,0.0
27.222,2.491,-0.858,0.0
23.69,2.172,-0.882,0.0
21.088,1.937,-0.906,0.0
0.0,0.0,0.0,0.0
37.182,3.431,-0.789,0.0
30.942,2.86,-0.833,0.0
26.258,2.431,-0.859,0.0
22.984,2.132,-0.884,0.0
20.663,1.92,-0.913,0.0
0.0,0.0,0.0,0.0
35.076,3.273,-0.787,0.0
29.769,2.782,-0.838,0.0
25.404,2.379,-0.863,0.0
21.874,2.051,-0.869,0.0
19.696,1.85,-0.895,0.0
0.0,0.0,0.0,0.0
33.088,3.121,-0.785,0.0
28.7,2.712,-0.845,0.0
24.659,2.333,-0.87,0.0
21.813,2.067,-0.894,1.0
19.519,1.853,-0.912,0.0
0.0,0.0,0.0,0.0
32.189,3.068,-0.804,0.0
27.804,2.654,-0.854,0.0
23.928,2.287,-0.874,0.0
21.525,2.061,-0.91,0.0
19.127,1.834,-0.918,0.0
0.0,0.0,0.0,0.0
31.174,3.0,-0.819,0.0
26.808,2.584,-0.858,0.0
23.358,2.254,-0.884,0.0
20.812,2.012,-0.906,0.0
18.309,1.772,-0.903,0.0
35.358,3.43,-0.772,0.0
30.197,2.933,-0.832,0.0
25.88,2.517,-0.862,0.0
21.844,2.127,-0.855,0.0
20.318,1.982,-0.912,0.0
18.006,1.759,-0.911,1.0
33.588,3.286,-0.777,0.0
28.972,2.838,-0.836,0.0
24.984,2.451,-0.864,0.0
21.806,2.142,-0.881,1.0
19.526,1.92,-0.901,0.0
17.766,1.75,-0.922,2.0
32.49,3.205,-0.794,1.0
27.872,2.753,-0.841,0.0
24.068,2.38,-0.864,0.0
21.667,2.145,-0.905,0.0
19.184,1.902,-0.911,0.0
17.443,1.731,-0.929,0.0
31.434,3.125,-0.81,0.0
26.895,2.677,-0.847,0.0
23.625,2.354,-0.88,0.0
20.835,2.078,-0.897,0.0
18.639,1.862,-0.91,0.0
16.938,1.694,-0.924,0.0
30.2,3.024,-0.818,0.0
26.148,2.621,-0.858,0.0
21.953,2.203,-0.846,0.0
20.296,2.039,-0.901,0.0
18.056,1.816,-0.905,1.0
