X,Y,Z,Reflectivity
107.49,11.959,4.592,8.0
97.006,10.782,3.588,19.0
97.675,10.846,3.052,35.0
103.947,11.531,2.643,25.0
103.844,11.51,2.044,43.0
103.775,11.493,1.45,11.0
96.784,10.703,4.018,37.0
96.912,10.705,3.467,22.0
97.931,10.807,2.941,15.0
103.914,11.456,2.516,52.0
103.895,11.442,1.92,15.0
0.0,0.0,0.0,0.0
109.631,12.044,4.417,11.0
108.242,11.877,3.74,23.0
116.68,12.789,3.364,19.0
103.899,11.377,2.39,39.0
149.749,16.381,2.587,21.0
0.0,0.0,0.0,0.0
96.992,10.581,3.79,7.0
97.92,10.669,3.265,27.0
104.198,11.34,2.878,25.0
115.69,12.577,2.522,21.0
109.315,11.872,1.758,13.0
0.0,0.0,0.0,0.0
0.0,0.0,0.0,0.0
97.74,10.57,3.143,20.0
103.831,11.215,2.744,10.0
109.243,11.785,2.25,10.0
109.292,11.777,1.627,58.0
0.0,0.0,0.0,0.0
98.34,10.563,3.607,25.0
108.609,11.651,3.363,19.0
108.955,11.673,2.749,27.0
109.193,11.685,2.121,52.0
109.312,11.684,1.499,20.0
82.087,8.764,0.656,1.0
121.728,12.967,4.325,16.0
103.625,11.023,3.088,33.0
109.088,11.59,2.627,40.0
109.232,11.59,1.995,61.0
0.0,0.0,0.0,0.0
82.21,8.702,0.562,2.0
97.458,10.289,3.348,16.0
116.371,12.269,3.333,31.0
109.213,11.497,2.502,62.0
115.575,12.152,1.976,43.0
0.0,0.0,0.0,0.0
82.252,8.626,0.467,3.0
97.438,10.19,3.235,15.0
137.422,14.351,3.776,16.0
115.574,12.052,2.516,18.0
115.609,12.04,1.845,52.0
0.0,0.0,0.0,0.0
0.0,0.0,0.0,0.0
136.669,14.154,4.382,11.0
109.642,11.337,2.888,36.0
115.676,11.943,2.386,40.0
150.607,15.527,2.233,13.0
0.0,0.0,0.0,0.0
0.0,0.0,0.0,0.0
109.991,11.274,3.403,37.0
109.216,11.176,2.756,26.0
150.615,15.389,2.941,21.0
150.674,15.372,2.068,19.0
0.0,0.0,0.0,0.0
0.0,0.0,0.0,0.0
116.096,11.771,3.464,20.0
115.75,11.716,2.793,33.0
150.763,15.234,2.778,19.0
150.623,15.197,1.901,14.0
0.0,0.0,0.0,0.0
0.0,0.0,0.0,0.0
115.722,11.6,3.326,48.0
121.506,12.159,2.8,63.0
121.583,12.145,2.108,61.0
121.575,12.125,1.403,12.0
0.0,0.0,0.0,0.0
0.0,0.0,0.0,0.0
109.138,10.811,3.02,53.0
121.484,12.011,2.669,64.0
121.58,11.999,1.978,73.0
0.0,0.0,0.0,0.0
0.0,0.0,0.0,0.0
0.0,0.0,0.0,0.0
137.664,13.466,3.664,16.0
121.602,11.872,2.544,25.0
151.021,14.716,2.299,21.0
0.0,0.0,0.0,0.0
92.421,8.974,0.346,1.0
108.485,10.516,-0.209,1.0
121.592,11.74,3.11,40.0
151.225,14.571,3.007,25.0
151.164,14.538,2.146,28.0
0.0,0.0,0.0,0.0
92.612,8.874,0.252,47.0
0.0,0.0,0.0,0.0
137.884,13.132,3.388,11.0
151.219,14.373,2.854,24.0
151.48,14.369,1.998,30.0
0.0,0.0,0.0,0.0
92.553,8.744,0.159,2.0
0.0,0.0,0.0,0.0
151.781,14.251,3.576,24.0
151.348,14.18,2.707,26.0
151.584,14.174,1.85,16.0
0.0,0.0,0.0,0.0
92.732,8.635,0.069,1.0
0.0,0.0,0.0,0.0
151.926,14.056,3.433,29.0
151.803,14.014,2.569,31.0
129.529,11.931,1.456,5.0
0.0,0.0,0.0,0.0
93.61,8.586,-0.019,7.0
68.95,6.311,-0.404,1.0
152.125,13.861,3.295,30.0
152.267,13.841,2.434,24.0
0.0,0.0,0.0,0.0
0.0,0.0,0.0,0.0
0.0,0.0,0.0,0.0
68.958,6.213,-0.468,4.0
152.455,13.669,3.162,32.0
152.757,13.663,2.3,25.0
108.622,9.693,1.021,2.0
0.0,0.0,0.0,0.0
0.0,0.0,0.0,0.0
68.917,6.108,-0.53,2.0
157.359,13.877,3.124,8.0
153.138,13.47,2.172,24.0
108.475,9.518,0.923,2.0
107.586,9.417,0.295,49.0
0.0,0.0,0.0,0.0
0.0,0.0,0.0,0.0
158.913,13.772,3.015,3.0
153.737,13.29,2.047,3.0
108.223,9.332,0.829,7.0
107.656,9.26,0.204,36.0
0.0,0.0,0.0,0.0
0.0,0.0,0.0,0.0
0.0,0.0,0.0,0.0
177.255,15.051,2.212,5.0
108.51,9.189,0.74,2.0
107.933,9.116,0.116,10.0
0.0,0.0,0.0,0.0
0.0,0.0,0.0,0.0
202.781,16.945,3.513,6.0
129.1,10.759,1.507,2.0
0.0,0.0,0.0,0.0
108.565,8.998,0.03,4.0
69.111,5.713,-0.37,0.0
0.0,0.0,0.0,0.0
0.0,0.0,0.0,0.0
0.0,0.0,0.0,0.0
110.509,9.006,0.58,16.0
109.423,8.891,-0.054,1.0
69.06,5.596,-0.423,2.0
0.0,0.0,0.0,0.0
181.676,14.594,2.867,17.0
0.0,0.0,0.0,0.0
113.959,9.099,0.512,48.0
0.0,0.0,0.0,0.0
0.0,0.0,0.0,0.0
0.0,0.0,0.0,0.0
156.034,12.272,2.347,26.0
0.0,0.0,0.0,0.0
114.07,8.916,0.429,155.0
0.0,0.0,0.0,0.0
0.0,0.0,0.0,0.0
0.0,0.0,0.0,0.0
0.0,0.0,0.0,0.0
122.376,9.387,1.066,2.0
0.0,0.0,0.0,0.0
0.0,0.0,0.0,0.0
0.0,0.0,0.0,0.0
0.0,0.0,0.0,0.0
168.226,12.658,2.299,54.0
0.0,0.0,0.0,0.0
121.997,9.118,0.295,5.0
0.0,0.0,0.0,0.0
0.0,0.0,0.0,0.0
0.0,0.0,0.0,0.0
173.476,12.75,2.26,34.0
140.565,10.293,1.041,3.0
141.308,10.312,0.253,4.0
0.0,0.0,0.0,0.0
0.0,0.0,0.0,0.0
0.0,0.0,0.0,0.0
0.0,0.0,0.0,0.0
0.0,0.0,0.0,0.0
0.0,0.0,0.0,0.0
0.0,0.0,0.0,0.0
0.0,0.0,0.0,0.0
0.0,0.0,0.0,0.0
199.61,13.952,2.361,5.0
0.0,0.0,0.0,0.0
0.0,0.0,0.0,0.0
0.0,0.0,0.0,0.0
0.0,0.0,0.0,0.0
0.0,0.0,0.0,0.0
0.0,0.0,0.0,0.0
154.96,10.505,0.88,21.0
0.0,0.0,0.0,0.0
68.944,4.637,-0.387,1.0
0.0,0.0,0.0,0.0
0.0,0.0,0.0,0.0
0.0,0.0,0.0,0.0
154.941,10.217,0.801,150.0
0.0,0.0,0.0,0.0
68.911,4.506,-0.421,3.0
0.0,0.0,0.0,0.0
0.0,0.0,0.0,0.0
0.0,0.0,0.0,0.0
154.926,9.926,0.727,11.0
0.0,0.0,0.0,0.0
69.002,4.382,-0.453,0.0
0.0,0.0,0.0,0.0
0.0,0.0,0.0,0.0
207.379,12.954,2.041,31.0
0.0,0.0,0.0,0.0
0.0,0.0,0.0,0.0
0.0,0.0,0.0,0.0
0.0,0.0,0.0,0.0
0.0,0.0,0.0,0.0
0.0,0.0,0.0,0.0
197.665,11.913,0.762,23.0
0.0,0.0,0.0,0.0
68.931,4.115,-0.509,3.0
0.0,0.0,0.0,0.0
40.595,2.4,-0.753,0.0
197.448,11.574,1.788,11.0
197.355,11.509,0.687,21.0
0.0,0.0,0.0,0.0
68.901,3.977,-0.535,2.0
0.0,0.0,0.0,0.0
0.0,0.0,0.0,0.0
197.301,11.175,1.719,19.0
196.13,11.053,0.616,6.0
0.0,0.0,0.0,0.0
68.772,3.834,-0.556,0.0
0.0,0.0,0.0,0.0
0.0,0.0,0.0,0.0
196.112,10.721,1.648,42.0
0.0,0.0,0.0,0.0
0.0,0.0,0.0,0.0
0.0,0.0,0.0,0.0
0.0,0.0,0.0,0.0
38.697,2.058,-0.754,0.0
197.057,10.38,1.601,30.0
0.0,0.0,0.0,0.0
0.0,0.0,0.0,0.0
0.0,0.0,0.0,0.0
0.0,0.0,0.0,0.0
38.387,1.964,-0.757,0.0
197.029,9.981,1.555,33.0
0.0,0.0,0.0,0.0
0.0,0.0,0.0,0.0
0.0,0.0,0.0,0.0
0.0,0.0,0.0,0.0
39.081,1.92,-0.779,0.0
197.015,9.583,1.516,26.0
0.0,0.0,0.0,0.0
0.0,0.0,0.0,0.0
0.0,0.0,0.0,0.0
0.0,0.0,0.0,0.0
37.784,1.779,-0.759,0.0
196.945,9.177,1.484,33.0
0.0,0.0,0.0,0.0
0.0,0.0,0.0,0.0
0.0,0.0,0.0,0.0
0.0,0.0,0.0,0.0
37.967,1.71,-0.768,0.0
195.522,8.713,1.449,38.0
0.0,0.0,0.0,0.0
0.0,0.0,0.0,0.0
0.0,0.0,0.0,0.0
0.0,0.0,0.0,0.0
38.381,1.65,-0.78,0.0
196.707,8.363,1.441,26.0
0.0,0.0,0.0,0.0
0.0,0.0,0.0,0.0
0.0,0.0,0.0,0.0
0.0,0.0,0.0,0.0
0.0,0.0,0.0,0.0
196.581,7.952,1.43,30.0
0.0,0.0,0.0,0.0
0.0,0.0,0.0,0.0
0.0,0.0,0.0,0.0
0.0,0.0,0.0,0.0
38.499,1.495,-0.785,0.0
195.135,7.489,1.418,29.0
0.0,0.0,0.0,0.0
0.0,0.0,0.0,0.0
0.0,0.0,0.0,0.0
0.0,0.0,0.0,0.0
38.164,1.404,-0.777,0.0
196.37,7.134,1.431,34.0
0.0,0.0,0.0,0.0
0.0,0.0,0.0,0.0
0.0,0.0,0.0,0.0
0.0,0.0,0.0,0.0
0.0,0.0,0.0,0.0
196.372,6.722,1.444,25.0
0.0,0.0,0.0,0.0
0.0,0.0,0.0,0.0
0.0,0.0,0.0,0.0
0.0,0.0,0.0,0.0
0.0,0.0,0.0,0.0
196.128,6.305,1.462,36.0
0.0,0.0,0.0,0.0
0.0,0.0,0.0,0.0
69.006,2.15,-0.628,0.0
0.0,0.0,0.0,0.0
38.522,1.176,-0.773,0.0
196.009,5.894,1.489,35.0
0.0,0.0,0.0,0.0
0.0,0.0,0.0,0.0
68.94,2.004,-0.616,0.0
0.0,0.0,0.0,0.0
39.236,1.114,-0.78,0.0
0.0,0.0,0.0,0.0
0.0,0.0,0.0,0.0
0.0,0.0,0.0,0.0
0.0,0.0,0.0,0.0
0.0,0.0,0.0,0.0
39.167,1.03,-0.771,0.0
103.155,2.669,0.824,6.0
100.252,2.561,0.252,2.0
0.0,0.0,0.0,0.0
0.0,0.0,0.0,0.0
0.0,0.0,0.0,0.0
38.849,0.94,-0.755,0.0
103.119,2.452,0.849,1.0
100.241,2.349,0.278,3.0
100.055,2.31,-0.267,1.0
0.0,0.0,0.0,0.0
0.0,0.0,0.0,0.0
40.378,0.891,-0.773,0.0
103.067,2.233,0.879,4.0
100.022,2.132,0.308,2.0
99.972,2.099,-0.237,4.0
0.0,0.0,0.0,0.0
0.0,0.0,0.0,0.0
0.0,0.0,0.0,0.0
102.93,2.014,0.912,4.0
99.864,1.923,0.34,9.0
0.0,0.0,0.0,0.0
0.0,0.0,0.0,0.0
0.0,0.0,0.0,0.0
0.0,0.0,0.0,0.0
0.0,0.0,0.0,0.0
99.841,1.712,0.378,6.0
100.042,1.681,-0.165,1.0
0.0,0.0,0.0,0.0
0.0,0.0,0.0,0.0
0.0,0.0,0.0,0.0
0.0,0.0,0.0,0.0
99.742,1.502,0.418,5.0
99.743,1.468,-0.123,2.0
0.0,0.0,0.0,0.0
0.0,0.0,0.0,0.0
20.193,0.276,-0.356,8.0
20.298,0.27,0.204,0.0
99.552,1.29,0.462,6.0
99.741,1.258,-0.077,2.0
0.0,0.0,0.0,0.0
20.189,0.241,-0.236,19.0
20.178,0.234,-0.346,29.0
20.301,0.227,0.214,28.0
20.319,0.221,0.104,29.0
20.332,0.214,-0.005,19.0
20.206,0.206,-0.117,9.0
20.173,0.198,-0.226,21.0
20.173,0.192,-0.335,34.0
20.295,0.185,0.224,28.0
20.256,0.178,0.114,26.0
20.244,0.171,0.004,24.0
20.191,0.164,-0.106,27.0
20.173,0.157,-0.215,31.0
20.188,0.15,-0.324,32.0
20.179,0.143,0.234,26.0
20.197,0.136,0.125,27.0
20.19,0.129,0.016,27.0
20.176,0.122,-0.094,36.0
20.185,0.115,-0.203,24.0
20.206,0.108,-0.313,15.0
20.156,0.101,0.246,29.0
20.143,0.094,0.137,26.0
20.191,0.087,0.028,33.0
20.197,0.08,-0.082,28.0
20.203,0.073,-0.191,18.0
20.234,0.067,-0.301,0.0
20.142,0.059,0.258,29.0
20.151,0.052,0.149,28.0
20.267,0.046,0.041,11.0
20.265,0.039,-0.069,151.0
20.252,0.032,-0.178,151.0
20.269,0.025,-0.288,150.0
20.132,0.018,0.271,28.0
20.121,0.011,0.163,28.0
20.157,0.004,0.054,24.0
20.163,-0.002,-0.055,18.0
20.18,-0.008,-0.164,22.0
20.161,-0.015,-0.272,18.0
20.118,-0.022,0.285,27.0
20.112,-0.029,0.177,37.0
20.128,-0.036,0.069,41.0
20.125,-0.042,-0.041,31.0
20.145,-0.049,-0.149,35.0
20.138,-0.056,-0.257,29.0
20.116,-0.062,0.3,29.0
20.133,-0.069,0.192,27.0
20.13,-0.076,0.084,38.0
20.135,-0.083,-0.025,30.0
20.144,-0.089,-0.134,32.0
20.129,-0.096,-0.242,34.0
20.144,-0.103,0.316,25.0
20.123,-0.109,0.207,19.0
20.124,-0.116,0.099,18.0
20.17,-0.123,-0.01,23.0
20.154,-0.13,-0.118,19.0
20.133,-0.136,-0.226,18.0
20.258,-0.143,0.334,25.0
58.339,-0.434,0.649,15.0
66.511,-0.517,0.383,23.0
53.343,-0.433,0.017,8.0
53.342,-0.45,-0.268,2.0
52.688,-0.462,-0.547,3.0
20.187,-0.183,0.349,10.0
64.3,-0.605,0.769,20.0
64.33,-0.627,0.425,30.0
56.166,-0.566,0.065,1.0
56.235,-0.585,-0.235,5.0
52.691,-0.565,-0.502,7.0
20.143,-0.222,0.366,12.0
20.145,-0.228,0.258,9.0
20.157,-0.235,0.151,2.0
59.56,-0.716,0.122,47.0
56.292,-0.694,-0.185,1.0
58.795,-0.745,-0.507,4.0
20.144,-0.261,0.384,12.0
20.115,-0.267,0.276,12.0
20.12,-0.273,0.169,11.0
20.115,-0.28,0.059,16.0
20.123,-0.286,-0.047,1.0
59.312,-0.865,-0.457,6.0
53.52,-0.796,1.071,20.0
20.161,-0.306,0.296,4.0
20.13,-0.312,0.188,8.0
20.13,-0.319,0.078,39.0
20.13,-0.325,-0.028,26.0
52.975,-0.873,-0.357,19.0
176.772,-2.964,3.709,5.0
193.151,-3.298,3.022,9.0
203.747,-3.546,2.103,8.0
67.583,-1.198,0.33,14.0
53.004,-0.956,-0.022,6.0
52.926,-0.972,-0.304,50.0
38.188,-0.712,0.839,3.0
53.027,-1.005,0.883,17.0
52.951,-1.02,0.6,49.0
52.914,-1.036,0.312,64.0
52.953,-1.053,0.03,11.0
38.365,-0.775,-0.181,28.0
38.399,-0.786,0.883,33.0
38.373,-0.798,0.678,49.0
38.391,-0.81,0.474,23.0
40.408,-0.866,0.28,10.0
40.413,-0.878,0.066,41.0
40.418,-0.892,-0.148,41.0
40.409,-0.902,0.972,39.0
40.412,-0.915,0.758,37.0
40.409,-0.928,0.543,37.0
40.408,-0.94,0.324,36.0
40.416,-0.953,0.11,35.0
0.0,0.0,0.0,0.0
38.695,-0.934,0.973,41.0
0.0,0.0,0.0,0.0
38.742,-0.959,0.563,8.0
38.689,-0.971,0.354,35.0
38.686,-0.982,0.148,38.0
38.679,-0.994,-0.056,35.0
38.634,-1.002,1.015,73.0
38.653,-1.015,0.811,60.0
38.648,-1.026,0.606,66.0
38.626,-1.037,0.397,64.0
38.635,-1.05,0.192,69.0
38.666,-1.062,-0.011,75.0
38.598,-1.07,1.059,72.0
38.636,-1.082,0.855,89.0
38.64,-1.094,0.65,77.0
38.645,-1.106,0.442,96.0
38.622,-1.117,0.237,70.0
38.654,-1.129,0.033,78.0
38.586,-1.136,1.104,71.0
38.647,-1.15,0.901,83.0
38.626,-1.16,0.696,71.0
38.625,-1.171,0.488,65.0
38.651,-1.184,0.284,64.0
38.671,-1.196,0.079,61.0
38.618,-1.203,1.151,65.0
38.638,-1.215,0.947,66.0
38.641,-1.227,0.743,50.0
38.686,-1.24,0.536,28.0
38.714,-1.252,0.332,22.0
38.757,-1.265,0.128,18.0
38.693,-1.271,1.201,30.0
38.709,-1.283,0.997,13.0
38.691,-1.293,0.792,0.0
84.382,-2.846,1.275,11.0
83.305,-2.833,0.818,12.0
80.567,-2.762,0.366,23.0
31.321,-1.08,1.011,42.0
31.335,-1.09,0.846,46.0
31.346,-1.099,0.681,34.0
31.34,-1.108,0.513,37.0
31.366,-1.118,0.348,7.0
31.339,-1.125,0.182,6.0
31.284,-1.13,1.05,58.0
31.276,-1.139,0.885,47.0
31.281,-1.148,0.72,47.0
31.262,-1.156,0.552,42.0
31.245,-1.164,0.387,37.0
31.262,-1.173,0.223,43.0
31.242,-1.179,1.09,40.0
28.44,-1.081,0.842,26.0
28.462,-1.089,0.692,58.0
28.452,-1.097,0.54,65.0
28.454,-1.104,0.39,66.0
28.448,-1.112,0.24,67.0
28.445,-1.118,1.03,101.0
28.445,-1.126,0.88,140.0
28.445,-1.133,0.731,150.0
28.442,-1.141,0.578,150.0
28.439,-1.148,0.428,111.0
28.438,-1.156,0.279,106.0
28.438,-1.161,1.069,106.0
28.429,-1.168,0.918,106.0
28.421,-1.176,0.769,97.0
28.427,-1.184,0.617,90.0
28.427,-1.191,0.467,75.0
28.436,-1.199,0.318,64.0
28.459,-1.205,1.109,60.0
28.464,-1.213,0.959,54.0
28.459,-1.22,0.81,48.0
31.313,-1.351,0.723,16.0
31.266,-1.356,0.558,24.0
31.215,-1.362,0.393,32.0
31.41,-1.377,1.268,1.0
166.14,-7.325,5.834,17.0
85.731,-3.801,2.56,8.0
85.056,-3.792,2.085,28.0
31.343,-1.405,0.603,4.0
31.293,-1.41,0.438,31.0
159.643,-7.228,6.672,34.0
165.718,-7.543,6.053,13.0
86.168,-3.943,2.695,19.0
84.992,-3.91,2.204,35.0
84.885,-3.925,1.755,32.0
83.304,-3.873,1.285,15.0
85.939,-4.012,3.714,13.0
159.847,-7.499,6.07,15.0
85.984,-4.054,2.813,23.0
84.82,-4.018,2.321,32.0
84.6,-4.028,1.871,43.0
83.108,-3.977,1.403,3.0
85.354,-4.1,3.812,20.0
86.333,-4.167,3.403,26.0
85.67,-4.154,2.927,28.0
85.095,-4.146,2.452,29.0
84.63,-4.142,1.995,38.0
0.0,0.0,0.0,0.0
85.362,-4.214,3.938,27.0
86.394,-4.284,3.532,41.0
85.138,-4.24,3.034,29.0
84.555,-4.231,2.562,26.0
84.715,-4.258,2.123,38.0
85.732,-4.328,1.7,41.0
83.757,-4.244,3.989,21.0
86.084,-4.38,3.648,30.0
85.013,-4.343,3.157,26.0
84.709,-4.346,2.693,45.0
84.688,-4.364,2.249,41.0
84.771,-4.386,1.807,36.0
28.398,-1.474,1.395,34.0
83.604,-4.358,3.668,11.0
83.739,-4.382,3.235,28.0
84.691,-4.45,2.82,37.0
84.299,-4.447,2.366,45.0
83.985,-4.447,1.917,36.0
28.42,-1.51,1.439,71.0
83.452,-4.452,3.789,39.0
83.644,-4.478,3.359,34.0
83.813,-4.504,2.918,36.0
84.113,-4.538,2.489,38.0
83.759,-4.536,2.041,38.0
28.422,-1.544,1.483,73.0
83.737,-4.566,3.931,36.0
83.546,-4.572,3.484,41.0
83.458,-4.583,3.034,47.0
83.942,-4.625,2.613,31.0
83.473,-4.616,2.163,39.0
28.421,-1.577,1.527,51.0
28.398,-1.58,1.377,27.0
24.622,-1.375,1.064,16.0
24.608,-1.379,0.932,7.0
24.571,-1.381,0.803,24.0
24.603,-1.387,0.675,20.0
24.489,-1.386,1.353,43.0
24.559,-1.394,1.229,36.0
24.564,-1.398,1.1,41.0
24.513,-1.4,0.967,28.0
24.549,-1.406,0.84,42.0
24.58,-1.412,0.713,58.0
24.466,-1.41,1.391,82.0
24.498,-1.416,1.264,51.0
24.51,-1.421,1.136,61.0
24.5,-1.425,1.005,42.0
24.521,-1.43,0.878,46.0
24.563,-1.436,0.75,74.0
24.429,-1.433,1.427,43.0
24.469,-1.44,1.301,62.0
24.5,-1.445,1.174,42.0
24.507,-1.45,1.044,42.0
24.493,-1.453,0.915,50.0
24.521,-1.458,0.788,62.0
24.4,-1.456,1.464,47.0
24.436,-1.462,1.338,51.0
24.456,-1.466,1.211,67.0
24.492,-1.472,1.082,40.0
24.461,-1.474,0.953,51.0
24.507,-1.481,0.827,72.0
24.395,-1.479,1.503,39.0
24.422,-1.484,1.376,69.0
24.446,-1.489,1.25,76.0
24.434,-1.492,1.119,50.0
24.465,-1.497,0.992,49.0
24.482,-1.502,0.865,62.0
24.403,-1.502,1.542,38.0
24.414,-1.506,1.415,41.0
24.451,-1.511,1.289,91.0
24.448,-1.514,1.158,57.0
24.461,-1.518,1.031,52.0
24.456,-1.521,0.903,65.0
24.404,-1.523,1.582,53.0
24.374,-1.524,1.452,27.0
24.443,-1.532,1.328,49.0
24.47,-1.536,1.199,78.0
24.456,-1.539,1.07,53.0
24.46,-1.542,0.943,65.0
24.393,-1.542,1.621,35.0
24.386,-1.545,1.492,30.0
24.437,-1.551,1.367,56.0
24.472,-1.556,1.239,85.0
24.44,-1.557,1.109,27.0
24.463,-1.562,0.983,46.0
24.388,-1.561,1.66,57.0
24.413,-1.566,1.534,39.0
24.428,-1.569,1.407,67.0
24.472,-1.575,1.279,77.0
24.471,-1.578,1.15,41.0
24.473,-1.581,1.023,50.0
24.359,-1.578,1.698,41.0
24.421,-1.584,1.574,62.0
24.423,-1.587,1.446,64.0
24.464,-1.592,1.318,72.0
24.484,-1.596,1.19,69.0
24.475,-1.598,1.062,34.0
24.357,-1.595,1.737,37.0
24.428,-1.602,1.614,73.0
24.436,-1.604,1.486,61.0
24.457,-1.608,1.357,69.0
24.477,-1.612,1.23,54.0
24.505,-1.616,1.103,37.0
24.337,-1.61,1.775,37.0
24.425,-1.617,1.654,49.0
24.445,-1.621,1.526,65.0
24.452,-1.623,1.396,56.0
24.49,-1.628,1.27,57.0
24.492,-1.63,1.142,43.0
24.311,-1.623,1.813,43.0
24.428,-1.633,1.693,42.0
24.445,-1.635,1.566,67.0
24.446,-1.637,1.435,54.0
24.488,-1.642,1.31,41.0
24.516,-1.646,1.183,31.0
24.297,-1.636,1.852,50.0
24.4,-1.645,1.731,41.0
24.457,-1.65,1.607,47.0
24.462,-1.652,1.476,58.0
24.485,-1.655,1.349,46.0
24.532,-1.66,1.223,29.0
24.275,-1.648,1.889,55.0
24.372,-1.655,1.768,34.0
24.476,-1.664,1.647,42.0
24.459,-1.664,1.515,51.0
24.471,-1.667,1.388,52.0
24.556,-1.674,1.264,11.0
24.252,-1.658,1.926,42.0
24.352,-1.666,1.806,41.0
24.495,-1.677,1.688,35.0
24.451,-1.675,1.554,28.0
24.467,-1.677,1.427,42.0
24.53,-1.683,1.302,3.0
24.253,-1.669,1.966,26.0
24.302,-1.673,1.841,42.0
24.475,-1.686,1.725,34.0
24.472,-1.687,1.595,22.0
24.481,-1.688,1.466,41.0
24.506,-1.691,1.339,10.0
24.401,-1.689,2.017,19.0
24.269,-1.68,1.878,40.0
24.453,-1.694,1.763,29.0
24.499,-1.698,1.635,22.0
24.482,-1.697,1.505,17.0
24.491,-1.699,1.377,23.0
24.678,-1.717,2.079,27.0
24.234,-1.687,1.914,39.0
24.436,-1.701,1.801,27.0
24.513,-1.707,1.675,16.0
24.52,-1.708,1.546,13.0
24.489,-1.707,1.416,21.0
24.78,-1.732,2.127,36.0
24.253,-1.695,1.953,32.0
24.336,-1.702,1.832,23.0
24.52,-1.715,1.714,19.0
24.545,-1.717,1.586,17.0
24.515,-1.715,1.456,19.0
24.798,-1.74,2.167,30.0
24.238,-1.701,1.99,22.0
24.286,-1.704,1.866,35.0
24.513,-1.72,1.752,23.0
24.549,-1.723,1.625,4.0
24.584,-1.726,1.498,14.0
24.838,-1.749,2.21,29.0
24.514,-1.726,2.051,18.0
24.245,-1.707,1.901,41.0
24.491,-1.724,1.788,26.0
59.915,-4.218,4.059,3.0
24.588,-1.731,1.536,8.0
24.865,-1.755,2.251,29.0
24.754,-1.747,2.11,20.0
24.214,-1.709,1.935,39.0
24.463,-1.726,1.823,23.0
24.596,-1.735,1.704,4.0
24.571,-1.733,1.572,17.0
24.891,-1.761,2.292,26.0
24.795,-1.754,2.151,22.0
24.197,-1.711,1.971,28.0
24.313,-1.718,1.849,24.0
24.576,-1.737,1.739,18.0
24.577,-1.736,1.61,12.0
24.934,-1.767,2.333,3.0
24.818,-1.758,2.191,24.0
24.308,-1.721,2.017,20.0
24.247,-1.716,1.881,37.0
24.546,-1.736,1.774,20.0
59.951,-4.24,4.017,3.0
25.034,-1.776,2.38,0.0
24.847,-1.761,2.231,25.0
24.649,-1.746,2.082,15.0
24.219,-1.715,1.915,41.0
24.512,-1.735,1.808,25.0
24.617,-1.741,1.686,1.0
52.556,-3.729,5.076,2.0
24.883,-1.764,2.271,27.0
24.779,-1.756,2.13,16.0
24.201,-1.713,1.949,39.0
24.425,-1.728,1.838,22.0
24.589,-1.739,1.72,13.0
31.022,-2.2,3.042,2.0
24.906,-1.765,2.31,14.0
24.81,-1.757,2.169,23.0
24.194,-1.712,1.984,25.0
24.288,-1.718,1.862,31.0
24.552,-1.735,1.753,20.0
31.009,-2.198,3.086,28.0
24.973,-1.768,2.352,3.0
24.821,-1.756,2.206,25.0
24.426,-1.727,2.038,17.0
24.235,-1.712,1.893,41.0
24.513,-1.73,1.785,25.0
31.009,-2.195,3.131,48.0
24.979,-1.766,2.389,2.0
24.857,-1.756,2.244,27.0
24.731,-1.745,2.099,22.0
24.218,-1.707,1.926,39.0
24.466,-1.723,1.816,22.0
38.969,-2.753,3.991,3.0
25.0,-1.764,2.426,2.0
24.887,-1.754,2.282,29.0
24.765,-1.744,2.137,28.0
24.191,-1.701,1.958,27.0
24.316,-1.708,1.839,25.0
38.95,-2.745,4.044,9.0
31.038,-2.185,3.056,15.0
24.914,-1.751,2.319,22.0
24.786,-1.74,2.172,28.0
24.299,-1.704,2.0,19.0
24.274,-1.7,1.869,38.0
36.349,-2.554,3.823,1.0
31.007,-2.175,3.095,21.0
24.949,-1.748,2.357,26.0
24.834,-1.738,2.211,33.0
24.649,-1.722,2.063,22.0
24.241,-1.692,1.899,40.0
36.296,-2.541,3.867,4.0
25.013,-1.748,2.531,9.0
24.969,-1.742,2.393,36.0
24.854,-1.732,2.246,36.0
24.753,-1.722,2.105,35.0
24.238,-1.684,1.932,35.0
30.403,-2.119,3.28,43.0
25.006,-1.74,2.563,13.0
24.983,-1.736,2.427,43.0
24.858,-1.724,2.279,30.0
24.783,-1.717,2.14,42.0
24.259,-1.678,1.965,23.0
30.436,-2.111,3.324,56.0
25.016,-1.732,2.597,19.0
24.994,-1.728,2.46,53.0
24.903,-1.719,2.315,29.0
24.793,-1.708,2.172,49.0
24.46,-1.683,2.012,19.0
45.611,-3.147,5.04,4.0
25.018,-1.723,2.629,27.0
24.995,-1.719,2.492,62.0
24.975,-1.714,2.353,43.0
24.821,-1.7,2.206,38.0
24.705,-1.69,2.063,22.0
36.968,-2.536,4.131,7.0
25.058,-1.715,2.665,35.0
25.001,-1.708,2.524,64.0
24.98,-1.704,2.385,46.0
24.833,-1.69,2.238,22.0
24.77,-1.683,2.099,34.0
32.076,-2.186,3.625,20.0
25.051,-1.704,2.695,43.0
25.01,-1.697,2.555,62.0
25.0,-1.693,2.417,40.0
24.897,-1.683,2.273,4.0
24.784,-1.672,2.13,50.0
32.033,-2.167,3.658,30.0
25.069,-1.692,2.727,37.0
25.021,-1.686,2.587,56.0
24.985,-1.68,2.445,27.0
31.052,-2.084,2.872,41.0
24.802,-1.661,2.16,49.0
31.983,-2.147,3.69,26.0
36.961,-2.476,4.064,5.0
25.039,-1.674,2.617,44.0
25.012,-1.668,2.477,7.0
31.058,-2.067,2.908,8.0
28.448,-1.889,2.51,16.0
31.952,-2.128,3.723,43.0
30.303,-2.013,3.366,3.0
25.041,-1.66,2.646,30.0
52.536,-3.474,5.261,4.0
53.051,-3.501,5.026,3.0
28.444,-1.873,2.541,51.0
31.964,-2.11,3.76,69.0
30.243,-1.991,3.393,35.0
25.054,-1.645,2.674,27.0
38.961,-2.553,3.944,2.0
47.599,-3.112,4.56,5.0
28.44,-1.855,2.571,30.0
0.0,0.0,0.0,0.0
30.235,-1.972,3.424,48.0
25.081,-1.631,2.704,31.0
30.422,-1.974,3.111,38.0
45.174,-2.925,4.375,4.0
28.437,-1.836,2.6,4.0
31.918,-2.066,3.822,29.0
30.221,-1.951,3.454,46.0
25.12,-1.618,2.734,35.0
30.443,-1.955,3.145,73.0
30.487,-1.953,2.984,7.0
45.293,-2.894,4.187,3.0
30.117,-1.929,3.637,37.0
30.203,-1.929,3.482,40.0
25.126,-1.6,2.76,37.0
30.426,-1.933,3.173,67.0
30.501,-1.933,3.015,52.0
45.372,-2.867,4.239,4.0
30.113,-1.907,3.666,22.0
30.192,-1.907,3.51,29.0
25.157,-1.584,2.787,39.0
30.421,-1.91,3.201,55.0
30.469,-1.908,3.04,53.0
46.943,-2.932,4.429,7.0
30.095,-1.884,3.692,10.0
30.182,-1.884,3.537,46.0
25.171,-1.566,2.812,34.0
30.408,-1.886,3.228,30.0
30.481,-1.885,3.069,74.0
47.492,-2.93,4.524,9.0
30.051,-1.858,3.714,39.0
30.136,-1.857,3.559,41.0
25.183,-1.547,2.836,28.0
31.205,-1.911,3.34,25.0
30.464,-1.861,3.094,54.0
47.521,-2.894,4.567,4.0
30.051,-1.834,3.74,62.0
30.117,-1.832,3.583,28.0
25.215,-1.529,2.861,27.0
31.771,-1.92,3.427,56.0
30.47,-1.836,3.12,32.0
30.476,-1.831,2.954,23.0
30.046,-1.809,3.765,57.0
30.115,-1.807,3.607,3.0
25.243,-1.509,2.884,28.0
31.737,-1.892,3.449,46.0
31.169,-1.852,3.216,30.0
30.492,-1.806,2.979,41.0
30.046,-1.783,3.788,29.0
52.157,-3.085,6.288,5.0
25.264,-1.489,2.906,23.0
31.758,-1.866,3.475,32.0
31.726,-1.858,3.297,53.0
30.502,-1.78,3.003,62.0
32.842,-1.92,4.165,1.0
33.36,-1.944,4.046,10.0
25.321,-1.47,2.931,9.0
40.196,-2.326,4.428,3.0
31.714,-1.829,3.319,42.0
30.494,-1.752,3.023,59.0
38.435,-2.213,4.902,8.0
33.247,-1.907,4.056,6.0
25.404,-1.452,2.958,17.0
46.12,-2.627,5.112,10.0
36.762,-2.086,3.872,3.0
30.557,-1.728,3.05,42.0
38.432,-2.177,4.928,34.0
36.97,-2.086,4.535,10.0
25.421,-1.429,2.977,29.0
25.314,-1.418,2.822,3.0
36.878,-2.058,3.907,6.0
31.214,-1.735,3.135,34.0
45.867,-2.555,5.91,3.0
0.0,0.0,0.0,0.0
25.453,-1.406,2.996,40.0
47.397,-2.609,5.313,14.0
37.003,-2.029,3.943,14.0
31.659,-1.73,3.199,19.0
52.069,-2.849,6.74,3.0
38.629,-2.105,4.785,19.0
25.47,-1.382,3.013,45.0
47.262,-2.555,5.325,16.0
36.995,-1.992,3.963,12.0
24.053,-1.29,2.443,1.0
44.328,-2.381,5.763,3.0
25.521,-1.365,3.175,5.0
25.462,-1.356,3.026,31.0
53.597,-2.843,6.067,11.0
36.854,-1.947,3.967,5.0
23.999,-1.263,2.45,23.0
25.541,-1.346,3.333,31.0
25.51,-1.338,3.186,48.0
25.459,-1.33,3.038,26.0
38.555,-2.006,4.383,8.0
23.931,-1.239,2.587,21.0
23.999,-1.238,2.461,49.0
25.55,-1.319,3.347,53.0
25.524,-1.312,3.2,46.0
25.486,-1.304,3.053,3.0
38.558,-1.965,4.4,27.0
23.9,-1.213,2.594,34.0
23.994,-1.212,2.471,33.0
25.559,-1.292,3.359,24.0
36.192,-1.822,4.553,3.0
46.475,-2.329,5.587,8.0
23.816,-1.188,2.727,37.0
23.878,-1.186,2.601,34.0
24.008,-1.187,2.482,56.0
37.156,-1.839,4.897,1.0
40.069,-1.974,5.056,7.0
23.713,-1.163,2.859,23.0
23.814,-1.162,2.735,55.0
23.888,-1.161,2.61,40.0
38.662,-1.871,4.01,7.0
0.0,0.0,0.0,0.0
39.933,-1.923,5.052,2.0
23.679,-1.135,2.862,22.0
23.81,-1.136,2.742,54.0
46.403,-2.204,5.085,5.0
46.347,-2.191,4.821,27.0
23.856,-1.128,3.159,18.0
23.713,-1.116,3.006,40.0
23.683,-1.109,2.869,38.0
23.798,-1.109,2.747,19.0
23.812,-1.104,2.616,1.0
37.09,-1.713,3.867,10.0
23.851,-1.101,3.164,51.0
23.771,-1.092,3.019,48.0
23.701,-1.083,2.877,27.0
40.424,-1.839,4.676,3.0
47.815,-2.165,5.263,5.0
37.128,-1.672,3.879,10.0
23.851,-1.074,3.169,66.0
23.857,-1.069,3.035,49.0
23.76,-1.059,2.888,10.0
47.28,-2.097,5.477,25.0
37.074,-1.636,4.087,21.0
37.11,-1.629,3.882,6.0
36.255,-1.59,4.823,8.0
0.0,0.0,0.0,0.0
39.376,-1.709,4.793,5.0
47.606,-2.056,5.521,12.0
49.362,-2.121,5.447,4.0
24.708,-1.056,2.588,19.0
37.269,-1.592,4.962,12.0
45.51,-1.933,5.801,4.0
39.362,-1.663,4.795,8.0
40.093,-1.685,4.653,2.0
28.413,-1.187,3.138,18.0
24.713,-1.027,2.59,35.0
23.675,-0.983,3.153,30.0
28.408,-1.173,3.623,29.0
28.431,-1.168,3.464,43.0
28.403,-1.16,3.298,57.0
28.405,-1.154,3.138,71.0
24.708,-0.998,2.59,39.0
28.403,-1.146,3.784,51.0
28.39,-1.139,3.621,91.0
28.387,-1.133,3.459,99.0
28.394,-1.126,3.296,104.0
28.382,-1.12,3.135,26.0
24.706,-0.969,2.589,37.0
28.385,-1.112,3.781,79.0
28.385,-1.105,3.619,90.0
28.39,-1.099,3.458,73.0
28.398,-1.093,3.295,69.0
24.792,-0.948,2.737,36.0
24.722,-0.94,2.589,40.0
28.408,-1.078,3.782,62.0
32.28,-1.218,4.113,1.0
32.231,-1.209,3.924,37.0
32.039,-1.194,3.715,32.0
24.804,-0.919,2.735,38.0
24.725,-0.91,2.587,18.0
32.336,-1.188,4.301,68.0
32.274,-1.179,4.108,39.0
39.067,-1.418,4.75,39.0
39.044,-1.408,4.522,30.0
24.795,-0.889,2.731,29.0
43.676,-1.556,4.563,5.0
32.325,-1.149,4.294,44.0
38.717,-1.367,4.922,44.0
36.953,-1.297,4.487,6.0
24.933,-0.869,2.883,15.0
24.831,-0.86,2.73,38.0
48.024,-1.654,5.008,4.0
0.0,0.0,0.0,0.0
32.938,-1.123,4.18,4.0
43.689,-1.48,5.295,7.0
24.939,-0.839,2.877,20.0
24.845,-0.831,2.726,21.0
51.241,-1.703,5.331,4.0
25.233,-0.835,3.34,30.0
25.243,-0.83,3.196,47.0
25.199,-0.823,3.047,10.0
24.912,-0.808,2.867,22.0
44.237,-1.426,4.84,8.0
42.312,-1.355,4.389,4.0
25.248,-0.805,3.334,82.0
25.237,-0.799,3.188,65.0
25.164,-0.791,3.035,23.0
24.87,-0.777,2.854,35.0
44.352,-1.376,4.838,14.0
54.997,-1.695,5.687,8.0
25.239,-0.774,3.324,26.0
25.249,-0.769,3.18,25.0
25.152,-0.76,3.024,21.0
24.833,-0.745,2.841,52.0
40.118,-1.196,4.361,5.0
44.468,-1.317,4.581,60.0
32.9,-0.969,4.32,4.0
25.266,-0.739,3.172,14.0
25.197,-0.732,3.019,22.0
24.84,-0.716,2.832,44.0
45.506,-1.302,4.928,2.0
52.448,-1.49,5.38,11.0
33.01,-0.932,4.32,4.0
25.246,-0.708,3.158,19.0
44.499,-1.239,5.312,9.0
47.543,-1.313,5.398,11.0
47.449,-1.301,5.116,37.0
47.311,-1.287,4.831,12.0
51.128,-1.382,6.666,11.0
25.263,-0.677,3.148,38.0
24.827,-0.661,2.951,28.0
24.833,-0.655,2.807,4.0
0.0,0.0,0.0,0.0
47.147,-1.226,4.789,8.0
36.598,-0.945,4.752,1.0
25.137,-0.643,3.119,31.0
24.813,-0.63,2.935,67.0
44.633,-1.125,5.02,16.0
51.71,-1.292,5.519,4.0
51.754,-1.283,5.228,54.0
36.876,-0.907,4.766,31.0
24.863,-0.607,3.07,17.0
24.825,-0.6,2.922,43.0
44.544,-1.068,4.983,45.0
44.644,-1.062,4.738,11.0
44.367,-1.047,4.454,1.0
25.325,-0.592,3.257,1.0
24.796,-0.575,3.046,29.0
40.188,-0.925,4.705,3.0
44.722,-1.02,4.974,19.0
44.632,-1.009,4.707,66.0
44.466,-0.997,4.435,16.0
33.456,-0.743,4.281,2.0
24.769,-0.545,3.026,58.0
40.235,-0.878,4.683,8.0
45.726,-0.989,5.054,4.0
51.975,-1.113,5.446,7.0
31.487,-0.669,3.118,41.0
24.774,-0.521,3.152,38.0
24.8,-0.516,3.012,43.0
40.352,-0.833,4.667,8.0
45.829,-0.937,5.032,4.0
31.634,-0.641,3.291,17.0
31.508,-0.632,3.097,25.0
24.78,-0.492,3.134,93.0
24.848,-0.489,2.998,4.0
40.316,-0.785,4.632,3.0
44.512,-0.859,4.852,9.0
31.615,-0.604,3.264,39.0
37.705,-0.713,3.677,9.0
37.583,-0.702,4.723,3.0
40.525,-0.75,4.857,9.0
43.904,-0.804,5.008,9.0
45.636,-0.827,4.937,6.0
31.655,-0.568,3.242,16.0
37.707,-0.67,3.645,45.0
40.837,-0.716,5.096,16.0
37.539,-0.651,4.467,36.0
44.423,-0.763,5.029,14.0
31.757,-0.539,3.408,22.0
37.63,-0.632,3.821,3.0
37.703,-0.627,3.612,24.0
40.677,-0.667,5.04,2.0
37.653,-0.61,4.447,50.0
37.599,-0.603,4.222,63.0
31.793,-0.504,3.383,32.0
37.624,-0.59,3.787,64.0
58.141,-0.902,5.517,11.0
37.673,-0.575,4.633,15.0
37.578,-0.567,4.403,4.0
37.616,-0.561,4.189,8.0
37.64,-0.555,3.97,39.0
43.689,-0.637,4.355,3.0
28.323,-0.408,2.66,2.0
0.0,0.0,0.0,0.0
37.554,-0.525,4.363,36.0
31.839,-0.439,3.514,3.0
37.663,-0.513,3.934,9.0
54.569,-0.735,5.385,8.0
43.399,-0.577,4.032,4.0
46.565,-0.607,5.632,7.0
53.643,-0.69,6.176,28.0
31.832,-0.404,3.48,44.0
54.216,-0.679,5.607,17.0
43.641,-0.54,4.261,3.0
54.368,-0.664,4.995,6.0
46.484,-0.556,5.573,5.0
40.298,-0.475,4.596,4.0
31.849,-0.37,3.448,51.0
43.451,-0.498,4.447,1.0
54.47,-0.616,5.26,21.0
31.162,-0.347,2.829,54.0
46.505,-0.506,5.525,8.0
31.8,-0.341,3.592,22.0
52.538,-0.556,5.629,14.0
47.312,-0.493,4.79,18.0
47.112,-0.484,4.496,14.0
38.67,-0.391,3.467,22.0
36.6,-0.36,4.305,14.0
31.837,-0.308,3.56,68.0
0.0,0.0,0.0,0.0
52.176,-0.49,5.221,20.0
47.036,-0.434,4.435,6.0
38.656,-0.351,3.421,38.0
37.201,-0.328,4.332,8.0
31.839,-0.276,3.522,51.0
47.071,-0.401,4.933,31.0
47.04,-0.394,4.651,10.0
31.082,-0.255,2.893,43.0
38.544,-0.311,3.364,37.0
31.868,-0.249,3.672,26.0
47.107,-0.361,5.153,12.0
38.929,-0.293,4.031,36.0
38.839,-0.286,3.792,66.0
38.784,-0.28,3.562,3.0
38.583,-0.274,3.32,2.0
31.86,-0.217,3.631,50.0
38.985,-0.26,4.215,39.0
38.901,-0.254,3.979,62.0
38.887,-0.249,3.748,7.0
42.852,-0.268,3.881,3.0
57.792,-0.354,4.899,2.0
39.112,-0.229,4.407,32.0
39.06,-0.223,4.172,21.0
38.925,-0.217,3.931,11.0
31.016,-0.169,2.948,43.0
38.56,-0.205,3.441,54.0
57.944,-0.301,4.836,27.0
39.097,-0.192,4.352,31.0
42.982,-0.205,4.533,4.0
51.251,-0.238,5.107,46.0
31.061,-0.14,2.911,22.0
40.403,-0.177,3.551,6.0
42.957,-0.183,3.526,3.0
37.081,-0.147,4.077,2.0
51.965,-0.201,5.41,25.0
30.991,-0.115,3.045,43.0
0.0,0.0,0.0,0.0
40.416,-0.141,3.496,3.0
43.078,-0.145,3.476,8.0
36.778,-0.113,3.992,6.0
52.702,-0.156,5.412,7.0
31.007,-0.088,3.002,47.0
57.89,-0.158,5.262,6.0
0.0,0.0,0.0,0.0
38.559,-0.096,3.056,29.0
46.094,-0.102,4.936,3.0
30.958,-0.065,3.133,16.0
31.034,-0.061,2.96,4.0
57.837,-0.108,5.173,14.0
42.783,-0.075,3.578,8.0
53.219,-0.088,4.141,38.0
46.026,-0.062,4.86,11.0
30.935,-0.038,3.085,39.0
52.348,-0.059,4.915,7.0
40.415,-0.041,3.555,13.0
42.932,-0.04,3.526,3.0
68.342,-0.056,5.215,11.0
30.802,-0.016,3.205,18.0
30.954,-0.013,3.04,19.0
44.831,-0.015,4.141,1.0
42.663,-0.01,3.687,5.0
53.176,-0.006,4.286,42.0
68.28,-0.002,5.107,8.0
30.82,0.007,3.16,29.0
44.745,0.015,4.326,4.0
51.117,0.022,4.642,6.0
53.696,0.028,4.558,5.0
52.642,0.033,4.161,10.0
66.503,0.048,4.871,18.0
30.883,0.031,3.117,37.0
52.366,0.057,4.98,5.0
40.42,0.048,3.607,10.0
53.284,0.068,4.438,44.0
43.816,0.06,3.394,11.0
45.544,0.067,3.263,29.0
45.68,0.079,4.537,20.0
44.79,0.082,4.186,3.0
53.673,0.103,4.703,7.0
52.646,0.105,4.3,13.0
45.617,0.095,3.46,35.0
45.521,0.099,3.187,68.0
45.751,0.112,4.47,14.0
53.923,0.136,4.952,4.0
53.413,0.139,4.593,27.0
52.614,0.142,4.211,17.0
45.607,0.127,3.384,69.0
58.633,0.168,4.009,25.0
45.823,0.143,4.4,12.0
51.056,0.164,4.602,3.0
45.792,0.15,3.859,15.0
0.0,0.0,0.0,0.0
45.578,0.157,3.304,59.0
0.0,0.0,0.0,0.0
45.728,0.173,4.313,9.0
40.402,0.155,3.573,40.0
45.766,0.179,3.779,57.0
0.0,0.0,0.0,0.0
45.614,0.185,3.23,35.0
60.31,0.249,3.918,11.0
53.795,0.236,4.98,7.0
45.254,0.202,3.923,35.0
45.665,0.207,3.691,49.0
45.606,0.209,3.416,45.0
58.644,0.273,4.049,34.0
46.219,0.218,2.922,53.0
53.696,0.267,4.877,52.0
45.568,0.23,3.87,54.0
45.457,0.232,3.595,58.0
60.384,0.312,4.417,34.0
60.345,0.315,4.061,4.0
67.18,0.355,4.13,33.0
40.415,0.223,3.598,26.0
45.496,0.254,3.784,19.0
60.411,0.34,4.671,33.0
58.611,0.334,4.183,43.0
46.24,0.266,3.03,17.0
59.465,0.345,3.55,50.0
45.701,0.276,3.987,47.0
45.438,0.277,3.697,74.0
60.44,0.371,4.564,17.0
58.638,0.363,4.079,13.0
67.192,0.419,4.282,17.0
59.548,0.374,3.448,4.0
45.189,0.294,3.86,20.0
45.477,0.298,3.618,11.0
67.282,0.445,4.959,26.0
101.282,0.674,6.862,5.0
59.414,0.398,3.678,14.0
101.298,0.684,5.679,12.0
45.394,0.316,3.793,75.0
43.629,0.306,3.39,4.0
58.581,0.413,4.208,52.0
46.239,0.328,3.046,48.0
59.42,0.424,3.568,23.0
66.964,0.48,3.629,30.0
45.457,0.336,3.714,33.0
58.513,0.434,4.437,8.0
67.251,0.502,4.705,20.0
46.242,0.347,2.96,17.0
101.245,0.763,5.889,12.0
65.948,0.499,3.45,23.0
43.554,0.338,3.475,9.0
58.528,0.456,4.327,51.0
67.187,0.526,4.574,32.0
59.383,0.466,3.689,61.0
66.999,0.528,3.771,8.0
65.848,0.521,3.321,51.0
58.383,0.473,4.548,7.0
58.652,0.477,4.224,19.0
46.26,0.378,3.06,53.0
59.568,0.488,3.586,7.0
66.992,0.55,3.641,38.0
65.878,0.543,3.197,10.0
58.48,0.492,4.443,49.0
67.212,0.568,4.712,31.0
59.331,0.502,3.811,34.0
119.249,1.012,6.951,11.0
65.886,0.56,3.454,40.0
102.098,0.87,4.758,18.0
58.659,0.51,4.342,21.0
46.287,0.403,3.154,16.0
59.492,0.519,3.706,44.0
67.066,0.586,3.778,22.0
65.881,0.577,3.326,30.0
111.683,0.98,4.988,3.0
67.242,0.601,4.845,19.0
46.276,0.414,3.062,38.0
101.208,0.906,6.105,40.0
66.566,0.597,3.619,43.0
102.131,0.916,4.956,20.0
111.564,1.002,4.762,23.0
67.194,0.614,4.709,8.0
59.421,0.543,3.815,56.0
101.187,0.926,5.903,14.0
65.88,0.603,3.451,41.0
102.158,0.935,4.755,5.0
110.31,1.01,4.49,17.0
46.289,0.43,3.151,42.0
59.599,0.554,3.708,24.0
67.072,0.624,3.779,36.0
65.939,0.613,3.322,14.0
111.621,1.037,4.972,28.0
126.59,1.177,4.901,28.0
59.371,0.56,3.923,19.0
101.288,0.954,6.098,12.0
66.341,0.625,3.606,43.0
102.07,0.96,4.94,27.0
110.358,1.037,4.695,21.0
103.85,0.976,3.813,4.0
59.504,0.566,3.811,67.0
100.758,0.958,5.863,18.0
65.945,0.626,3.451,34.0
111.606,1.059,5.177,6.0
117.127,1.109,4.747,15.0
103.848,0.982,3.602,30.0
59.641,0.571,3.699,13.0
67.079,0.641,3.767,38.0
65.949,0.629,3.316,7.0
111.634,1.063,4.951,34.0
126.642,1.204,4.875,27.0
103.002,0.977,3.364,20.0
101.202,0.97,6.069,5.0
66.095,0.632,3.575,39.0
102.121,0.975,4.927,18.0
110.351,1.051,4.667,24.0
103.836,0.986,3.784,9.0
20.277,0.192,0.62,12.0
100.722,0.964,5.834,20.0
65.955,0.629,3.433,36.0
111.626,1.061,5.156,12.0
117.106,1.11,4.713,18.0
103.79,0.981,3.57,34.0
20.256,0.19,0.578,17.0
67.051,0.637,3.745,36.0
102.065,0.967,5.102,17.0
111.635,1.054,4.927,33.0
126.666,1.192,4.838,25.0
103.058,0.966,3.333,21.0
20.267,0.189,0.537,31.0
65.916,0.62,3.547,34.0
102.108,0.957,4.896,17.0
110.349,1.03,4.647,23.0
103.863,0.965,3.755,15.0
20.274,0.187,0.614,15.0
20.263,0.186,0.495,31.0
65.946,0.611,3.412,31.0
111.648,1.03,5.123,7.0
117.192,1.076,4.69,19.0
103.756,0.948,3.534,58.0
20.251,0.184,0.571,17.0
20.27,0.183,0.453,32.0
102.094,0.929,5.068,9.0
111.659,1.01,4.889,24.0
126.493,1.138,4.798,15.0
20.273,0.181,0.648,2.0
20.265,0.18,0.529,27.0
20.273,0.179,0.411,27.0
102.1,0.907,4.856,18.0
110.277,0.973,4.597,16.0
150.262,1.318,5.385,14.0
20.262,0.176,0.605,17.0
20.262,0.175,0.487,28.0
20.259,0.174,0.369,26.0
102.065,0.881,4.642,6.0
117.165,1.004,4.642,17.0
103.741,0.883,3.502,26.0
20.228,0.17,0.562,17.0
20.243,0.169,0.444,25.0
20.249,0.168,0.326,25.0
102.011,0.85,4.425,32.0
126.382,1.045,4.741,22.0
20.277,0.166,0.642,3.0
20.204,0.164,0.519,19.0
20.191,0.163,0.401,22.0
20.21,0.161,0.283,23.0
110.311,0.883,4.553,13.0
126.302,1.003,4.474,37.0
20.24,0.159,0.598,13.0
20.155,0.157,0.476,18.0
20.179,0.155,0.359,23.0
20.186,0.154,0.241,22.0
0.0,0.0,0.0,0.0
117.654,0.89,3.925,12.0
20.178,0.151,0.555,16.0
20.164,0.149,0.434,23.0
20.177,0.148,0.317,24.0
20.191,0.146,0.199,22.0
111.739,0.809,4.149,24.0
20.238,0.145,0.633,7.0
20.165,0.142,0.513,19.0
20.165,0.141,0.393,25.0
20.17,0.139,0.275,24.0
20.17,0.137,0.157,23.0
111.753,0.76,3.918,16.0
20.185,0.135,0.589,14.0
20.164,0.133,0.471,23.0
20.166,0.131,0.351,26.0
20.177,0.13,0.233,24.0
20.2,0.128,0.116,31.0
20.259,0.128,0.668,1.0
20.171,0.125,0.547,20.0
20.154,0.123,0.429,25.0
20.153,0.121,0.309,27.0
20.161,0.119,0.191,25.0
20.189,0.118,0.074,32.0
20.214,0.117,0.625,12.0
20.154,0.115,0.505,19.0
20.166,0.113,0.388,27.0
20.159,0.111,0.268,26.0
20.161,0.109,0.15,25.0
20.193,0.107,0.032,35.0
20.188,0.106,0.582,20.0
20.17,0.103,0.464,27.0
20.16,0.101,0.346,28.0
20.158,0.099,0.226,26.0
20.186,0.097,0.109,28.0
20.177,0.095,-0.008,28.0
20.175,0.094,0.54,26.0
20.16,0.091,0.422,28.0
20.146,0.089,0.304,27.0
20.151,0.087,0.184,27.0
20.195,0.085,0.067,35.0
20.192,0.083,-0.05,31.0
20.171,0.081,0.499,26.0
20.149,0.079,0.381,27.0
20.149,0.076,0.263,26.0
20.15,0.074,0.143,25.0
20.204,0.072,0.026,30.0
20.192,0.069,-0.091,25.0
20.151,0.067,0.457,32.0
20.14,0.065,0.339,26.0
20.142,0.062,0.221,27.0
20.157,0.06,0.102,25.0
20.219,0.058,-0.015,32.0
20.214,0.055,-0.133,25.0
20.145,0.053,0.416,29.0
20.14,0.051,0.298,28.0
20.143,0.048,0.18,26.0
20.177,0.046,0.061,16.0
20.257,0.043,-0.056,7.0
20.236,0.041,-0.174,22.0
20.143,0.038,0.375,29.0
20.141,0.036,0.257,27.0
20.141,0.033,0.14,28.0
20.27,0.031,0.02,82.0
20.266,0.028,-0.097,151.0
20.242,0.025,-0.215,151.0
20.135,0.023,0.334,28.0
20.134,0.02,0.217,27.0
20.147,0.017,0.099,28.0
20.235,0.015,-0.019,152.0
20.264,0.012,-0.137,151.0
20.268,0.009,-0.256,150.0
20.129,0.006,0.294,29.0
20.127,0.004,0.177,27.0
20.211,0.001,0.059,30.0
20.252,-0.001,-0.059,31.0
20.222,-0.004,-0.177,10.0
20.247,-0.007,-0.296,2.0
20.119,-0.01,0.254,27.0
20.124,-0.013,0.136,29.0
20.13,-0.016,0.019,16.0
20.178,-0.019,-0.1,25.0
20.172,-0.021,-0.217,3.0
43.383,-0.053,-0.72,4.0
20.124,-0.027,0.215,37.0
20.141,-0.03,0.097,39.0
20.123,-0.033,-0.019,31.0
20.155,-0.036,-0.139,29.0
20.155,-0.039,-0.256,25.0
20.178,-0.043,-0.374,5.0
20.123,-0.046,0.175,36.0
20.138,-0.049,0.058,39.0
20.14,-0.052,-0.058,31.0
20.149,-0.055,-0.178,27.0
20.153,-0.058,-0.295,26.0
20.174,-0.062,-0.413,17.0
20.125,-0.065,0.136,38.0
20.13,-0.068,0.019,39.0
20.137,-0.071,-0.097,29.0
20.118,-0.074,-0.216,20.0
20.153,-0.078,-0.334,25.0
20.178,-0.081,-0.452,23.0
20.139,-0.084,0.098,43.0
20.142,-0.088,-0.018,28.0
20.138,-0.091,-0.135,33.0
20.129,-0.094,-0.254,35.0
20.153,-0.098,-0.372,31.0
20.193,-0.101,-0.49,26.0
20.141,-0.105,0.06,35.0
20.149,-0.108,-0.056,27.0
20.152,-0.112,-0.173,25.0
20.137,-0.115,-0.292,36.0
20.156,-0.118,-0.41,37.0
20.186,-0.122,-0.528,28.0
20.147,-0.126,0.022,27.0
20.16,-0.129,-0.094,20.0
20.125,-0.132,-0.211,17.0
20.155,-0.136,-0.33,30.0
20.163,-0.14,-0.447,32.0
20.198,-0.144,-0.566,34.0
20.185,-0.147,-0.013,18.0
20.149,-0.151,-0.131,16.0
20.161,-0.154,-0.248,27.0
20.155,-0.158,-0.367,28.0
20.184,-0.162,-0.485,31.0
20.209,-0.166,-0.603,36.0
53.345,-0.448,-0.133,10.0
20.183,-0.173,-0.167,1.0
20.158,-0.177,-0.284,17.0
20.177,-0.18,-0.404,28.0
20.185,-0.184,-0.521,36.0
20.203,-0.188,-0.64,36.0
56.308,-0.537,-0.242,2.0
46.364,-0.451,-0.468,2.0
38.158,-0.378,-0.607,13.0
20.196,-0.204,-0.441,22.0
20.19,-0.208,-0.558,32.0
20.216,-0.212,-0.676,38.0
59.277,-0.634,-0.36,14.0
45.019,-0.49,-0.534,31.0
37.732,-0.418,-0.667,14.0
30.919,-0.349,-0.73,2.0
20.203,-0.231,-0.594,26.0
20.209,-0.235,-0.711,35.0
53.054,-0.63,-0.415,4.0
44.863,-0.542,-0.611,10.0
35.873,-0.44,-0.697,4.0
29.496,-0.368,-0.747,4.0
20.205,-0.256,-0.629,17.0
20.215,-0.26,-0.747,32.0
52.595,-0.689,-0.503,7.0
38.301,-0.509,-0.588,15.0
31.641,-0.427,-0.67,25.0
28.211,-0.386,-0.763,2.0
20.239,-0.281,-0.665,2.0
20.232,-0.285,-0.782,24.0
45.06,-0.646,-0.507,19.0
37.911,-0.551,-0.646,20.0
30.626,-0.452,-0.7,29.0
26.994,-0.404,-0.776,2.0
26.414,-0.4,-0.912,0.0
20.228,-0.311,-0.816,5.0
44.845,-0.7,-0.579,18.0
35.904,-0.568,-0.672,2.0
29.911,-0.479,-0.733,20.0
26.005,-0.422,-0.79,3.0
25.486,-0.419,-0.923,1.0
21.459,-0.357,-0.901,2.0
38.49,-0.65,-0.56,14.0
31.238,-0.534,-0.636,22.0
28.616,-0.496,-0.748,6.0
25.082,-0.44,-0.803,3.0
24.011,-0.426,-0.908,0.0
21.468,-0.386,-0.936,2.0
38.02,-0.692,-0.615,22.0
30.622,-0.564,-0.672,29.0
27.432,-0.511,-0.761,4.0
23.673,-0.447,-0.796,2.0
23.337,-0.445,-0.92,0.0
0.0,0.0,0.0,0.0
0.0,0.0,0.0,0.0
30.314,-0.599,-0.713,20.0
26.687,-0.533,-0.783,1.0
22.644,-0.458,-0.797,2.0
22.294,-0.456,-0.914,0.0
19.815,-0.41,-0.927,0.0
31.272,-0.654,-0.603,24.0
0.0,0.0,0.0,0.0
24.717,-0.528,-0.763,2.0
21.757,-0.47,-0.799,1.0
21.458,-0.468,-0.913,0.0
21.212,-0.468,-1.025,0.0
30.768,-0.686,-0.641,34.0
28.121,-0.634,-0.748,3.0
23.779,-0.541,-0.77,10.0
20.994,-0.483,-0.804,1.0
20.759,-0.482,-0.915,1.0
20.642,-0.484,-1.029,0.0
30.5,-0.723,-0.681,34.0
25.228,-0.604,-0.709,3.0
23.51,-0.568,-0.796,5.0
20.317,-0.496,-0.808,1.0
20.159,-0.497,-0.918,0.0
20.011,-0.498,-1.027,0.0
30.321,-0.762,-0.721,14.0
24.521,-0.622,-0.724,13.0
22.12,-0.567,-0.781,0.0
19.705,-0.51,-0.812,1.0
19.509,-0.509,-0.917,0.0
19.396,-0.511,-1.024,0.0
28.501,-0.758,-0.719,2.0
23.856,-0.64,-0.739,18.0
21.22,-0.574,-0.78,0.0
19.094,-0.522,-0.814,1.0
18.895,-0.521,-0.915,0.0
18.809,-0.523,-1.019,0.0
27.645,-0.776,-0.735,1.0
23.754,-0.672,-0.769,13.0
20.742,-0.592,-0.791,1.0
18.552,-0.534,-0.816,0.0
18.295,-0.531,-0.911,0.0
17.781,-0.521,-0.988,0.0
25.253,-0.746,-0.706,5.0
22.932,-0.683,-0.773,3.0
20.18,-0.606,-0.797,2.0
18.018,-0.546,-0.817,0.0
17.766,-0.543,-0.908,0.0
17.472,-0.539,-0.994,0.0
24.513,-0.761,-0.718,15.0
22.044,-0.69,-0.772,1.0
19.693,-0.622,-0.804,3.0
17.501,-0.557,-0.817,0.0
17.24,-0.553,-0.904,0.0
17.081,-0.552,-0.994,0.0
23.903,-0.779,-0.731,21.0
21.638,-0.71,-0.786,1.0
19.122,-0.633,-0.805,1.0
17.062,-0.569,-0.818,0.0
16.742,-0.563,-0.899,0.0
16.458,-0.558,-0.979,0.0
23.659,-0.807,-0.753,13.0
20.87,-0.717,-0.784,0.0
18.641,-0.646,-0.808,3.0
16.723,-0.584,-0.822,0.0
16.278,-0.573,-0.894,1.0
16.164,-0.573,-0.981,0.0
23.345,-0.833,-0.772,5.0
20.269,-0.728,-0.786,0.0
18.249,-0.661,-0.813,0.0
16.259,-0.593,-0.819,1.0
16.08,-0.591,-0.903,1.0
15.948,-0.591,-0.988,0.0
22.267,-0.829,-0.762,2.0
19.798,-0.743,-0.791,0.0
17.618,-0.666,-0.805,0.0
16.101,-0.613,-0.83,1.0
15.97,-0.612,-0.915,0.0
15.623,-0.603,-0.985,0.0
21.853,-0.848,-0.773,2.0
19.258,-0.752,-0.791,0.0
17.206,-0.677,-0.806,2.0
15.918,-0.631,-0.839,1.0
15.868,-0.633,-0.927,0.0
14.71,-0.591,-0.944,0.0
21.172,-0.855,-0.772,1.0
18.718,-0.761,-0.79,0.0
16.848,-0.69,-0.807,2.0
15.794,-0.651,-0.849,1.0
15.757,-0.654,-0.938,0.0
14.566,-0.609,-0.951,0.0
20.629,-0.867,-0.774,1.0
18.329,-0.775,-0.793,0.0
16.577,-0.706,-0.812,2.0
15.681,-0.672,-0.86,1.0
15.668,-0.676,-0.949,0.0
14.424,-0.627,-0.957,0.0
20.125,-0.878,-0.776,1.0
17.997,-0.79,-0.797,1.0
16.26,-0.719,-0.813,2.0
15.59,-0.693,-0.871,1.0
15.564,-0.697,-0.958,0.0
14.251,-0.642,-0.959,0.0
19.713,-0.892,-0.78,0.0
17.591,-0.801,-0.796,1.0
16.155,-0.74,-0.824,1.0
15.488,-0.714,-0.88,1.0
15.458,-0.717,-0.967,0.0
14.023,-0.655,-0.958,0.0
19.335,-0.907,-0.783,0.0
17.281,-0.815,-0.799,0.0
15.974,-0.758,-0.83,0.0
15.393,-0.735,-0.889,1.0
15.359,-0.738,-0.975,0.0
13.815,-0.668,-0.956,0.0
18.901,-0.917,-0.783,0.0
16.872,-0.823,-0.795,0.0
15.8,-0.776,-0.835,0.0
15.318,-0.757,-0.898,1.0
15.141,-0.752,-0.975,0.0
13.709,-0.685,-0.961,0.0
18.567,-0.931,-0.785,0.0
16.629,-0.839,-0.798,1.0
15.548,-0.789,-0.835,0.0
15.233,-0.778,-0.906,1.0
14.739,-0.757,-0.961,0.0
13.536,-0.699,-0.96,0.0
18.277,-0.947,-0.788,0.0
16.499,-0.859,-0.805,1.0
15.387,-0.806,-0.839,0.0
15.147,-0.798,-0.914,1.0
14.658,-0.777,-0.968,0.0
13.395,-0.714,-0.961,0.0
17.986,-0.961,-0.79,0.0
16.315,-0.877,-0.809,1.0
15.309,-0.827,-0.846,0.0
15.073,-0.819,-0.921,1.0
14.685,-0.803,-0.981,0.0
13.32,-0.732,-0.966,0.0
17.611,-0.97,-0.786,0.0
16.126,-0.893,-0.812,0.0
15.142,-0.844,-0.848,0.0
15.003,-0.841,-0.928,1.0
14.679,-0.827,-0.991,0.0
13.148,-0.745,-0.963,0.0
17.484,-0.992,-0.793,0.0
16.011,-0.914,-0.817,1.0
15.002,-0.861,-0.851,0.0
14.938,-0.861,-0.934,1.0
14.239,-0.826,-0.971,0.0
13.039,-0.76,-0.964,0.0
17.233,-1.007,-0.793,0.0
15.871,-0.932,-0.82,0.0
14.944,-0.882,-0.857,1.0
14.884,-0.883,-0.94,1.0
14.033,-0.837,-0.966,0.0
12.913,-0.774,-0.963,0.0
17.057,-1.025,-0.796,0.0
15.722,-0.95,-0.822,1.0
14.849,-0.901,-0.861,1.0
14.831,-0.905,-0.946,1.0
13.901,-0.853,-0.966,0.0
12.813,-0.79,-0.963,0.0
16.874,-1.042,-0.797,1.0
15.607,-0.968,-0.825,1.0
14.794,-0.923,-0.866,1.0
14.76,-0.925,-0.95,1.0
13.81,-0.87,-0.967,0.0
12.705,-0.804,-0.962,0.0
16.635,-1.055,-0.795,0.0
15.519,-0.988,-0.829,1.0
14.723,-0.942,-0.87,1.0
14.705,-0.946,-0.954,1.0
13.825,-0.894,-0.975,0.0
12.67,-0.823,-0.966,0.0
16.512,-1.074,-0.797,1.0
15.4,-1.006,-0.83,1.0
14.662,-0.963,-0.873,1.0
14.634,-0.966,-0.956,1.0
14.269,-0.946,-1.013,0.0
12.619,-0.841,-0.968,0.0
16.354,-1.091,-0.797,1.0
15.325,-1.027,-0.833,1.0
14.591,-0.982,-0.876,1.0
14.576,-0.986,-0.959,1.0
14.322,-0.973,-1.023,0.0
12.536,-0.856,-0.967,0.0
16.278,-1.112,-0.8,1.0
15.325,-1.051,-0.839,1.0
14.543,-1.002,-0.879,1.0
14.506,-1.004,-0.96,1.0
14.428,-1.004,-1.036,0.0
12.507,-0.874,-0.969,0.0
16.221,-1.134,-0.803,1.0
15.204,-1.068,-0.838,1.0
14.474,-1.021,-0.88,1.0
14.473,-1.026,-0.963,1.0
14.354,-1.022,-1.036,0.0
12.437,-0.889,-0.968,0.0
16.162,-1.157,-0.805,1.0
15.131,-1.088,-0.839,1.0
14.425,-1.041,-0.881,1.0
14.397,-1.044,-0.962,1.0
14.31,-1.042,-1.037,0.0
12.376,-0.905,-0.967,0.0
16.063,-1.175,-0.805,1.0
15.065,-1.107,-0.84,1.0
14.376,-1.061,-0.882,1.0
14.348,-1.063,-0.963,1.0
14.116,-1.051,-1.027,0.0
12.33,-0.922,-0.966,0.0
15.962,-1.193,-0.804,1.0
14.966,-1.123,-0.838,1.0
14.325,-1.08,-0.882,1.0
14.291,-1.082,-0.962,1.0
13.969,-1.062,-1.019,0.0
12.313,-0.94,-0.968,0.0
15.867,-1.212,-0.802,1.0
14.892,-1.142,-0.837,0.0
14.279,-1.099,-0.882,1.0
14.247,-1.101,-0.962,1.0
13.701,-1.063,-1.002,0.0
12.253,-0.955,-0.965,0.0
15.831,-1.234,-0.803,1.0
14.894,-1.165,-0.839,0.0
14.201,-1.116,-0.88,1.0
14.18,-1.118,-0.96,1.0
13.362,-1.058,-0.979,0.0
12.196,-0.97,-0.962,0.0
15.83,-1.259,-0.805,1.0
14.828,-1.184,-0.837,0.0
14.185,-1.136,-0.88,1.0
14.16,-1.139,-0.96,1.0
13.314,-1.075,-0.977,0.0
12.22,-0.991,-0.965,0.0
15.825,-1.283,-0.806,1.0
14.777,-1.203,-0.835,0.0
14.115,-1.153,-0.877,1.0
14.108,-1.157,-0.957,1.0
13.276,-1.093,-0.975,0.0
12.187,-1.007,-0.963,0.0
15.767,-1.303,-0.804,1.0
14.741,-1.222,-0.834,0.0
14.094,-1.173,-0.876,1.0
14.072,-1.175,-0.955,1.0
13.235,-1.11,-0.972,0.0
12.257,-1.031,-0.969,0.0
15.755,-1.326,-0.803,1.0
14.724,-1.243,-0.833,0.0
14.054,-1.191,-0.873,1.0
14.029,-1.193,-0.952,1.0
13.23,-1.129,-0.971,0.0
12.271,-1.052,-0.97,0.0
15.804,-1.354,-0.805,1.0
14.753,-1.268,-0.834,1.0
14.008,-1.208,-0.87,1.0
13.993,-1.211,-0.948,1.0
13.192,-1.146,-0.968,0.0
12.289,-1.071,-0.97,0.0
15.808,-1.378,-0.804,1.0
14.773,-1.292,-0.834,1.0
13.969,-1.226,-0.866,1.0
13.953,-1.228,-0.944,1.0
13.297,-1.175,-0.974,0.0
12.331,-1.093,-0.972,0.0
15.842,-1.404,-0.804,1.0
14.712,-1.308,-0.828,1.0
13.943,-1.244,-0.863,1.0
13.924,-1.246,-0.94,1.0
13.349,-1.199,-0.976,0.0
12.36,-1.114,-0.973,0.0
15.844,-1.427,-0.802,1.0
14.752,-1.333,-0.828,0.0
13.898,-1.26,-0.857,1.0
13.879,-1.262,-0.935,1.0
13.462,-1.228,-0.982,0.0
12.394,-1.135,-0.973,0.0
15.86,-1.451,-0.799,1.0
14.798,-1.358,-0.828,0.0
13.88,-1.278,-0.853,0.0
13.838,-1.278,-0.929,1.0
13.417,-1.243,-0.975,0.0
12.402,-1.153,-0.971,0.0
15.924,-1.479,-0.799,1.0
14.887,-1.387,-0.829,0.0
13.888,-1.298,-0.85,0.0
13.805,-1.294,-0.923,1.0
13.564,-1.276,-0.982,0.0
12.464,-1.176,-0.972,0.0
15.984,-1.507,-0.797,1.0
14.957,-1.414,-0.829,1.0
13.931,-1.321,-0.849,0.0
13.775,-1.31,-0.917,1.0
13.718,-1.309,-0.99,0.0
12.495,-1.196,-0.971,0.0
16.068,-1.537,-0.797,1.0
15.006,-1.439,-0.827,1.0
13.985,-1.345,-0.848,0.0
13.757,-1.327,-0.912,1.0
13.59,-1.315,-0.976,1.0
12.635,-1.226,-0.977,0.0
16.142,-1.565,-0.795,1.0
15.061,-1.464,-0.824,1.0
14.007,-1.366,-0.844,0.0
13.698,-1.34,-0.903,1.0
13.586,-1.332,-0.97,2.0
12.776,-1.257,-0.983,0.0
16.184,-1.59,-0.79,1.0
15.131,-1.491,-0.822,1.0
14.058,-1.389,-0.841,0.0
13.686,-1.356,-0.896,1.0
13.595,-1.351,-0.965,2.0
12.83,-1.279,-0.982,0.0
16.27,-1.62,-0.788,1.0
15.178,-1.515,-0.818,1.0
14.171,-1.418,-0.842,0.0
13.657,-1.371,-0.888,1.0
13.597,-1.368,-0.959,1.0
12.933,-1.305,-0.984,0.0
16.343,-1.647,-0.784,1.0
15.222,-1.538,-0.814,1.0
14.234,-1.442,-0.839,1.0
13.628,-1.385,-0.88,1.0
13.613,-1.387,-0.954,1.0
13.005,-1.328,-0.983,0.0
16.457,-1.679,-0.781,1.0
15.299,-1.565,-0.81,1.0
14.299,-1.466,-0.836,1.0
13.604,-1.398,-0.871,1.0
13.597,-1.401,-0.946,1.0
13.092,-1.353,-0.983,0.0
16.59,-1.712,-0.779,1.0
15.388,-1.592,-0.807,0.0
14.393,-1.493,-0.833,1.0
13.585,-1.413,-0.863,1.0
13.571,-1.415,-0.936,1.0
13.392,-1.4,-0.998,0.0
16.771,-1.751,-0.778,0.0
15.478,-1.619,-0.803,0.0
14.518,-1.523,-0.832,1.0
13.609,-1.431,-0.856,1.0
13.551,-1.428,-0.927,1.0
13.482,-1.424,-0.996,0.0
16.959,-1.79,-0.776,1.0
15.596,-1.649,-0.799,1.0
14.596,-1.547,-0.828,1.0
13.683,-1.454,-0.852,0.0
13.524,-1.44,-0.917,1.0
13.486,-1.44,-0.988,0.0
17.118,-1.825,-0.773,1.0
15.754,-1.684,-0.797,1.0
14.725,-1.577,-0.826,1.0
13.776,-1.479,-0.849,0.0
13.492,-1.451,-0.906,1.0
13.487,-1.454,-0.979,1.0
17.348,-1.868,-0.772,1.0
15.953,-1.722,-0.797,1.0
14.852,-1.606,-0.823,1.0
13.883,-1.505,-0.846,0.0
13.479,-1.464,-0.896,1.0
13.469,-1.466,-0.969,1.0
17.559,-1.909,-0.769,1.0
16.088,-1.753,-0.792,1.0
15.012,-1.639,-0.821,1.0
14.001,-1.532,-0.844,0.0
13.466,-1.476,-0.885,1.0
13.396,-1.472,-0.954,4.0
17.831,-1.956,-0.768,1.0
16.189,-1.78,-0.786,1.0
15.116,-1.665,-0.816,1.0
14.112,-1.557,-0.84,1.0
13.448,-1.487,-0.874,2.0
13.376,-1.482,-0.942,11.0
18.12,-2.006,-0.767,1.0
16.361,-1.814,-0.782,1.0
15.219,-1.691,-0.81,1.0
14.236,-1.584,-0.837,1.0
13.439,-1.499,-0.863,1.0
13.367,-1.494,-0.931,13.0
18.254,-2.037,-0.759,2.0
16.594,-1.855,-0.78,1.0
15.326,-1.717,-0.803,1.0
14.358,-1.611,-0.832,0.0
13.481,-1.515,-0.855,0.0
13.359,-1.505,-0.92,6.0
18.716,-2.105,-0.763,1.0
16.806,-1.894,-0.776,1.0
15.532,-1.753,-0.802,0.0
14.536,-1.643,-0.831,1.0
13.656,-1.547,-0.855,0.0
13.367,-1.517,-0.909,3.0
18.955,-2.148,-0.757,1.0
17.054,-1.936,-0.773,1.0
15.694,-1.785,-0.797,0.0
14.657,-1.669,-0.825,1.0
13.757,-1.57,-0.849,1.0
13.373,-1.528,-0.898,2.0
19.274,-2.2,-0.753,1.0
17.287,-1.976,-0.769,0.0
15.902,-1.821,-0.793,1.0
14.854,-1.704,-0.823,1.0
13.901,-1.597,-0.846,1.0
13.355,-1.537,-0.885,2.0
19.647,-2.258,-0.75,1.0
17.581,-2.023,-0.766,0.0
16.1,-1.856,-0.789,1.0
15.018,-1.734,-0.819,1.0
