X,Y,Z,Reflectivity
28.399,-1.411,1.44,68.0
85.324,-4.213,3.843,31.0
86.382,-4.236,3.402,32.0
85.365,-4.158,2.869,38.0
84.886,-4.106,2.372,33.0
84.587,-4.064,1.886,39.0
28.401,-1.359,1.42,51.0
85.666,-4.073,3.798,22.0
159.714,-7.541,6.176,15.0
86.346,-4.048,2.84,19.0
85.056,-3.96,2.316,27.0
85.113,-3.935,1.835,30.0
28.381,-1.307,1.398,3.0
159.543,-7.298,6.956,34.0
165.601,-7.519,6.279,27.0
86.492,-3.897,2.779,1.0
31.346,-1.402,0.829,7.0
31.294,-1.389,0.65,32.0
31.316,-1.385,1.518,5.0
28.459,-1.249,1.218,1.0
28.453,-1.239,1.055,47.0
28.436,-1.229,0.89,60.0
28.431,-1.219,0.729,62.0
28.433,-1.21,0.567,91.0
28.438,-1.206,1.355,68.0
28.422,-1.196,1.192,99.0
28.418,-1.186,1.03,100.0
28.428,-1.177,0.866,107.0
28.442,-1.168,0.705,127.0
28.442,-1.159,0.543,150.0
28.432,-1.153,1.33,143.0
28.421,-1.143,1.167,98.0
28.433,-1.134,1.006,70.0
28.437,-1.126,0.841,67.0
28.458,-1.117,0.68,68.0
28.455,-1.108,0.518,32.0
28.445,-1.102,1.305,29.0
31.241,-1.2,1.255,44.0
31.258,-1.191,1.077,62.0
31.247,-1.181,0.896,47.0
31.289,-1.173,0.719,49.0
31.304,-1.163,0.541,49.0
31.273,-1.156,1.405,59.0
31.25,-1.145,1.226,41.0
31.263,-1.135,1.048,42.0
31.301,-1.127,0.867,43.0
31.361,-1.119,0.69,25.0
86.91,-3.074,1.419,2.0
31.291,-1.1,1.375,41.0
31.314,-1.091,1.197,25.0
31.367,-1.083,1.02,10.0
38.67,-1.322,1.033,4.0
38.714,-1.312,0.814,12.0
38.719,-1.3,0.593,25.0
38.642,-1.289,1.658,67.0
38.65,-1.277,1.438,69.0
38.631,-1.265,1.217,58.0
38.613,-1.252,0.992,69.0
38.631,-1.241,0.771,66.0
38.644,-1.23,0.552,62.0
38.651,-1.221,1.618,89.0
38.623,-1.208,1.396,69.0
38.574,-1.195,1.174,57.0
38.632,-1.185,0.951,80.0
38.632,-1.173,0.73,108.0
38.631,-1.161,0.51,87.0
38.647,-1.153,1.576,104.0
38.59,-1.139,1.352,64.0
38.554,-1.127,1.131,66.0
38.601,-1.117,0.908,74.0
38.651,-1.107,0.688,73.0
38.638,-1.094,0.467,68.0
38.655,-1.086,1.533,68.0
38.592,-1.073,1.309,62.0
38.588,-1.061,1.088,72.0
38.624,-1.051,0.864,60.0
38.669,-1.041,0.645,63.0
38.681,-1.03,0.424,52.0
38.768,-1.023,1.492,10.0
38.695,-1.009,1.268,48.0
38.635,-0.996,1.045,48.0
38.738,-0.987,0.821,35.0
40.435,-1.019,0.626,26.0
40.426,-1.007,0.395,25.0
40.436,-0.997,1.508,28.0
0.0,0.0,0.0,0.0
38.723,-0.932,1.0,35.0
40.403,-0.96,0.807,39.0
40.405,-0.949,0.576,42.0
40.426,-0.938,0.345,142.0
40.405,-0.927,1.457,38.0
40.404,-0.916,1.225,41.0
40.423,-0.904,0.994,8.0
38.375,-0.847,0.719,20.0
38.384,-0.837,0.5,46.0
38.377,-0.826,0.279,54.0
45.688,-0.972,1.589,14.0
45.707,-0.959,1.327,40.0
38.392,-0.794,0.895,5.0
52.973,-1.081,0.925,11.0
52.957,-1.066,0.621,48.0
52.936,-1.051,0.318,61.0
45.76,-0.897,1.532,37.0
64.328,-1.243,1.784,70.0
193.23,-3.683,4.253,17.0
192.788,-3.621,3.117,10.0
203.56,-3.767,2.124,6.0
20.141,-0.367,0.094,5.0
64.311,-1.156,2.068,81.0
64.326,-1.138,1.698,22.0
176.688,-3.079,3.652,36.0
176.628,-3.028,2.618,150.0
20.126,-0.339,0.182,7.0
20.148,-0.334,0.067,48.0
64.304,-1.051,1.98,9.0
59.514,-0.956,1.49,9.0
53.488,-0.845,1.031,13.0
20.126,-0.312,0.27,9.0
20.118,-0.307,0.154,14.0
20.129,-0.301,0.039,15.0
53.491,-0.789,1.572,56.0
53.525,-0.775,1.265,34.0
20.13,-0.286,0.36,10.0
20.111,-0.28,0.242,13.0
20.148,-0.275,0.126,10.0
59.531,-0.799,0.033,67.0
59.41,-0.782,1.662,15.0
20.138,-0.259,0.447,11.0
20.125,-0.254,0.331,11.0
20.144,-0.249,0.213,13.0
56.177,-0.68,0.272,2.0
56.323,-0.667,-0.05,2.0
20.167,-0.234,0.534,9.0
20.14,-0.228,0.418,17.0
20.158,-0.223,0.302,13.0
64.295,-0.696,0.587,39.0
56.138,-0.592,0.188,6.0
56.233,-0.579,-0.134,14.0
20.15,-0.202,0.504,15.0
20.202,-0.198,0.388,24.0
64.354,-0.614,0.868,10.0
53.351,-0.496,0.407,7.0
53.372,-0.483,0.099,6.0
53.343,-0.469,-0.207,9.0
20.179,-0.172,0.474,16.0
20.27,-0.168,0.359,20.0
20.216,-0.162,0.242,17.0
20.18,-0.157,0.123,14.0
20.187,-0.152,0.006,22.0
20.169,-0.147,-0.109,20.0
20.174,-0.142,0.443,18.0
20.125,-0.137,0.325,17.0
20.127,-0.132,0.209,18.0
20.138,-0.127,0.091,26.0
20.134,-0.122,-0.024,26.0
20.147,-0.117,-0.14,30.0
20.129,-0.113,0.41,26.0
20.133,-0.108,0.294,25.0
20.129,-0.103,0.178,25.0
20.125,-0.098,0.06,36.0
20.138,-0.093,-0.056,30.0
20.147,-0.088,-0.172,37.0
20.117,-0.084,0.378,33.0
20.125,-0.079,0.261,26.0
20.109,-0.074,0.145,28.0
20.128,-0.069,0.027,34.0
20.141,-0.065,-0.088,35.0
20.138,-0.06,-0.204,17.0
20.118,-0.055,0.345,33.0
20.118,-0.051,0.229,31.0
20.121,-0.046,0.113,37.0
20.124,-0.041,-0.005,33.0
20.151,-0.037,-0.121,27.0
20.142,-0.032,-0.237,12.0
20.133,-0.028,0.312,31.0
20.113,-0.023,0.195,29.0
20.142,-0.018,0.079,30.0
20.198,-0.014,-0.038,18.0
20.218,-0.009,-0.155,15.0
20.257,-0.005,-0.273,26.0
20.129,0.0,0.278,28.0
20.132,0.003,0.162,27.0
20.243,0.008,0.046,150.0
20.251,0.012,-0.073,151.0
20.252,0.017,-0.19,151.0
20.268,0.021,-0.307,150.0
20.132,0.025,0.244,27.0
20.151,0.03,0.128,28.0
20.246,0.034,0.011,8.0
20.231,0.039,-0.107,22.0
20.222,0.043,-0.224,4.0
20.252,0.047,-0.341,0.0
20.155,0.051,0.21,29.0
20.174,0.056,0.093,24.0
20.206,0.06,-0.023,34.0
20.2,0.064,-0.141,27.0
20.226,0.068,-0.259,4.0
41.582,0.15,-0.773,0.0
20.156,0.077,0.175,29.0
20.199,0.081,0.058,34.0
20.181,0.085,-0.058,37.0
20.179,0.089,-0.176,27.0
20.226,0.094,-0.294,23.0
0.0,0.0,0.0,0.0
20.169,0.101,0.139,25.0
20.188,0.106,0.022,29.0
20.181,0.109,-0.093,35.0
20.177,0.113,-0.212,27.0
20.193,0.118,-0.329,27.0
20.206,0.122,-0.447,1.0
20.195,0.125,0.104,37.0
20.191,0.129,-0.012,25.0
20.175,0.133,-0.129,33.0
20.181,0.137,-0.248,33.0
20.183,0.141,-0.365,30.0
20.198,0.145,-0.482,22.0
20.234,0.149,0.068,26.0
20.22,0.153,-0.048,24.0
20.173,0.157,-0.166,18.0
20.17,0.16,-0.284,33.0
20.175,0.164,-0.401,34.0
20.187,0.168,-0.519,26.0
20.328,0.173,0.031,33.0
20.212,0.176,-0.086,16.0
20.147,0.179,-0.202,18.0
20.169,0.183,-0.321,31.0
20.189,0.187,-0.439,26.0
20.189,0.191,-0.556,32.0
20.333,0.196,-0.006,18.0
20.213,0.198,-0.123,3.0
20.195,0.202,-0.24,22.0
20.181,0.205,-0.359,29.0
20.178,0.209,-0.476,27.0
20.2,0.213,-0.594,35.0
0.0,0.0,0.0,0.0
20.213,0.219,-0.16,2.0
20.192,0.223,-0.277,23.0
20.184,0.226,-0.396,27.0
20.183,0.23,-0.513,26.0
20.203,0.233,-0.631,29.0
0.0,0.0,0.0,0.0
20.217,0.24,-0.198,1.0
20.19,0.243,-0.315,17.0
20.214,0.247,-0.434,19.0
20.205,0.25,-0.551,26.0
20.222,0.254,-0.67,22.0
0.0,0.0,0.0,0.0
0.0,0.0,0.0,0.0
20.204,0.263,-0.353,4.0
20.187,0.266,-0.472,9.0
20.21,0.27,-0.59,17.0
20.215,0.273,-0.708,12.0
0.0,0.0,0.0,0.0
0.0,0.0,0.0,0.0
20.144,0.282,-0.391,0.0
20.182,0.286,-0.511,0.0
20.214,0.289,-0.629,0.0
20.256,0.293,-0.748,0.0
0.0,0.0,0.0,0.0
0.0,0.0,0.0,0.0
37.295,0.556,-0.794,0.0
31.669,0.476,-0.861,1.0
26.607,0.404,-0.878,0.0
23.109,0.355,-0.897,0.0
0.0,0.0,0.0,0.0
42.866,0.67,-0.746,0.0
35.332,0.557,-0.82,0.0
29.796,0.474,-0.868,0.0
25.549,0.411,-0.893,0.0
20.133,0.326,-0.82,1.0
0.0,0.0,0.0,0.0
0.0,0.0,0.0,0.0
33.859,0.562,-0.851,1.0
28.376,0.475,-0.881,0.0
24.295,0.411,-0.896,0.0
20.125,0.343,-0.859,6.0
0.0,0.0,0.0,0.0
37.242,0.643,-0.792,0.0
31.567,0.55,-0.855,1.0
26.536,0.466,-0.876,0.0
23.051,0.408,-0.895,0.0
20.387,0.363,-0.91,0.0
0.0,0.0,0.0,0.0
34.18,0.617,-0.794,0.0
29.67,0.539,-0.861,0.0
25.414,0.465,-0.888,0.0
22.412,0.413,-0.914,0.0
19.772,0.367,-0.922,0.0
0.0,0.0,0.0,0.0
32.863,0.617,-0.827,1.0
28.366,0.536,-0.879,0.0
24.218,0.461,-0.894,0.0
21.145,0.405,-0.904,0.0
18.836,0.363,-0.915,0.0
36.995,0.716,-0.789,0.0
31.48,0.613,-0.854,1.0
26.544,0.52,-0.875,0.0
23.036,0.454,-0.895,0.0
20.447,0.405,-0.913,0.0
18.312,0.365,-0.925,0.0
35.348,0.707,-0.822,0.0
29.508,0.594,-0.858,0.0
25.314,0.512,-0.884,0.0
22.28,0.453,-0.909,0.0
19.645,0.402,-0.916,0.0
17.684,0.364,-0.928,0.0
32.604,0.673,-0.823,1.0
28.349,0.588,-0.88,0.0
24.231,0.505,-0.894,0.0
21.107,0.442,-0.903,0.0
18.793,0.396,-0.914,0.0
16.985,0.36,-0.925,0.0
31.343,0.665,-0.853,1.0
26.472,0.564,-0.874,0.0
22.915,0.491,-0.89,0.0
20.435,0.44,-0.915,0.0
18.244,0.395,-0.923,0.0
16.53,0.359,-0.933,0.0
28.816,0.627,-0.841,0.0
25.102,0.549,-0.879,0.0
22.227,0.488,-0.907,0.0
19.65,0.433,-0.918,0.0
17.649,0.391,-0.928,0.0
16.057,0.357,-0.938,0.0
28.474,0.634,-0.887,0.0
24.152,0.54,-0.893,0.0
21.088,0.473,-0.902,0.0
18.711,0.422,-0.911,0.0
16.95,0.384,-0.924,0.0
15.472,0.352,-0.934,0.0
26.323,0.598,-0.871,0.0
22.819,0.52,-0.888,0.0
20.399,0.467,-0.913,0.0
18.208,0.419,-0.923,0.0
16.493,0.381,-0.932,0.0
15.075,0.349,-0.94,0.0
24.987,0.578,-0.877,0.0
22.187,0.515,-0.908,0.0
19.734,0.46,-0.922,0.0
17.518,0.41,-0.922,0.0
16.018,0.376,-0.937,0.0
14.654,0.345,-0.943,0.0
24.006,0.565,-0.889,0.0
21.04,0.497,-0.902,0.0
18.712,0.443,-0.911,0.0
16.908,0.402,-0.923,0.0
15.462,0.369,-0.935,0.0
14.349,0.343,-0.951,0.0
22.747,0.543,-0.887,0.0
20.248,0.485,-0.907,0.0
18.17,0.436,-0.92,0.0
16.441,0.396,-0.93,0.0
15.049,0.364,-0.939,0.0
13.908,0.337,-0.949,0.0
22.085,0.534,-0.904,0.0
19.61,0.475,-0.917,0.0
17.672,0.43,-0.929,0.0
16.056,0.391,-0.94,0.0
14.617,0.357,-0.941,0.0
13.494,0.331,-0.948,0.0
21.008,0.514,-0.901,0.0
18.687,0.458,-0.911,0.0
16.84,0.414,-0.919,0.0
15.447,0.38,-0.934,0.0
14.33,0.354,-0.95,0.0
13.166,0.326,-0.95,0.0
20.272,0.5,-0.909,0.0
18.104,0.448,-0.917,0.0
16.422,0.407,-0.928,0.0
14.985,0.372,-0.935,0.0
13.801,0.344,-0.942,0.0
12.835,0.32,-0.951,0.0
19.493,0.485,-0.912,0.0
17.506,0.436,-0.92,0.0
16.021,0.4,-0.936,0.0
14.619,0.366,-0.941,0.0
13.471,0.338,-0.946,0.0
12.427,0.312,-0.945,0.0
18.679,0.467,-0.909,0.0
16.852,0.422,-0.919,0.0
15.468,0.388,-0.933,0.0
14.228,0.358,-0.943,0.0
13.112,0.33,-0.946,0.0
12.148,0.307,-0.947,0.0
18.198,0.457,-0.921,0.0
16.438,0.414,-0.927,0.0
15.004,0.378,-0.934,0.0
0.0,0.0,0.0,0.0
12.772,0.323,-0.945,0.0
11.815,0.299,-0.944,0.0
17.55,0.442,-0.921,0.0
16.001,0.404,-0.933,0.0
14.609,0.369,-0.937,0.0
13.371,0.338,-0.937,0.0
12.436,0.315,-0.944,0.0
11.535,0.293,-0.943,0.0
16.871,0.425,-0.917,0.0
15.454,0.39,-0.93,0.0
14.417,0.365,-0.952,0.0
13.12,0.332,-0.944,0.0
12.139,0.308,-0.944,0.0
11.304,0.287,-0.945,0.0
16.457,0.415,-0.925,0.0
15.074,0.38,-0.935,0.0
0.0,0.0,0.0,0.0
12.802,0.324,-0.945,0.0
11.896,0.301,-0.947,0.0
11.136,0.282,-0.952,0.0
16.073,0.405,-0.933,0.0
14.658,0.369,-0.936,0.0
13.469,0.34,-0.939,0.0
12.489,0.315,-0.945,0.0
11.554,0.292,-0.942,0.0
10.803,0.273,-0.944,0.0
15.498,0.389,-0.928,0.0
14.4,0.362,-0.946,0.0
13.148,0.33,-0.941,0.0
12.193,0.306,-0.945,0.0
11.328,0.285,-0.944,0.0
10.599,0.267,-0.945,0.0
15.128,0.378,-0.934,0.0
14.035,0.351,-0.948,0.0
12.856,0.321,-0.943,0.0
11.89,0.297,-0.943,0.0
11.138,0.278,-0.949,0.0
10.401,0.26,-0.947,0.0
14.724,0.365,-0.935,0.0
13.534,0.336,-0.938,0.0
12.552,0.312,-0.944,0.0
11.567,0.287,-0.938,0.0
10.806,0.268,-0.94,0.0
10.238,0.254,-0.95,0.0
14.416,0.355,-0.941,0.0
13.216,0.325,-0.94,0.0
12.256,0.302,-0.943,0.0
11.347,0.279,-0.94,0.0
10.639,0.262,-0.944,0.0
9.99,0.246,-0.945,0.0
0.0,0.0,0.0,0.0
12.918,0.315,-0.941,0.0
11.965,0.292,-0.942,0.0
11.175,0.272,-0.946,0.0
10.457,0.255,-0.946,0.0
9.803,0.239,-0.944,0.0
13.587,0.328,-0.935,0.0
12.619,0.304,-0.941,0.0
11.718,0.282,-0.942,0.0
0.0,0.0,0.0,0.0
10.246,0.247,-0.945,0.0
9.653,0.232,-0.947,0.0
13.334,0.318,-0.94,0.0
12.352,0.294,-0.943,0.0
11.451,0.272,-0.941,0.0
10.635,0.253,-0.937,0.0
10.055,0.239,-0.945,0.0
9.441,0.224,-0.942,0.0
13.106,0.308,-0.946,0.0
12.109,0.284,-0.945,0.0
11.21,0.263,-0.94,0.0
10.485,0.245,-0.941,0.0
9.895,0.231,-0.946,0.0
9.289,0.217,-0.943,0.0
12.724,0.294,-0.94,0.0
11.768,0.272,-0.938,0.0
11.049,0.255,-0.945,0.0
10.304,0.237,-0.942,0.0
9.716,0.223,-0.945,0.0
9.126,0.21,-0.941,0.0
12.516,0.284,-0.945,0.0
11.578,0.263,-0.942,0.0
10.739,0.243,-0.936,0.0
10.137,0.229,-0.944,0.0
9.578,0.216,-0.948,0.0
9.004,0.203,-0.944,0.0
12.199,0.272,-0.941,0.0
11.367,0.253,-0.943,0.0
10.594,0.235,-0.941,0.0
9.955,0.221,-0.943,0.0
9.385,0.207,-0.944,0.0
8.819,0.195,-0.939,0.0
11.927,0.26,-0.939,0.0
11.158,0.243,-0.943,0.0
10.44,0.227,-0.944,0.0
9.8,0.212,-0.944,0.0
9.272,0.2,-0.947,0.0
8.706,0.188,-0.94,0.0
11.702,0.249,-0.94,0.0
11.163,0.237,-0.961,0.0
10.273,0.218,-0.944,0.0
9.64,0.204,-0.943,0.0
9.096,0.192,-0.943,0.0
8.605,0.181,-0.943,0.0
11.461,0.238,-0.938,0.0
10.677,0.221,-0.936,0.0
10.069,0.208,-0.941,0.0
9.484,0.195,-0.943,0.0
8.941,0.184,-0.941,0.0
8.471,0.173,-0.941,0.0
11.299,0.228,-0.942,0.0
10.577,0.213,-0.943,0.0
9.938,0.199,-0.944,0.0
9.34,0.187,-0.942,0.0
8.844,0.176,-0.944,0.0
8.365,0.166,-0.942,0.0
11.123,0.218,-0.943,0.0
10.399,0.203,-0.942,0.0
9.773,0.19,-0.943,0.0
9.203,0.178,-0.942,0.0
8.684,0.168,-0.94,0.0
8.261,0.159,-0.942,0.0
10.942,0.208,-0.944,0.0
10.25,0.194,-0.944,0.0
9.61,0.181,-0.941,0.0
9.063,0.17,-0.941,0.0
8.587,0.16,-0.942,0.0
8.148,0.152,-0.941,0.0
10.72,0.196,-0.94,0.0
10.084,0.184,-0.943,0.0
9.478,0.172,-0.941,0.0
8.965,0.162,-0.943,0.0
8.468,0.152,-0.94,0.0
8.041,0.144,-0.94,0.0
10.563,0.186,-0.941,0.0
9.926,0.174,-0.942,0.0
9.347,0.163,-0.941,0.0
8.784,0.152,-0.936,0.0
8.353,0.144,-0.939,0.0
7.985,0.137,-0.945,0.0
10.416,0.176,-0.942,0.0
9.807,0.165,-0.943,0.0
9.236,0.154,-0.942,0.0
8.68,0.144,-0.937,0.0
8.258,0.137,-0.939,0.0
7.892,0.13,-0.944,0.0
10.27,0.166,-0.942,0.0
9.646,0.155,-0.941,0.0
9.078,0.145,-0.938,0.0
8.585,0.136,-0.938,0.0
8.196,0.129,-0.943,0.0
7.797,0.122,-0.943,0.0
10.149,0.156,-0.944,0.0
9.534,0.146,-0.942,0.0
8.968,0.136,-0.938,0.0
8.465,0.128,-0.935,0.0
8.044,0.121,-0.936,0.0
7.722,0.115,-0.943,0.0
9.94,0.145,-0.937,0.0
9.389,0.136,-0.939,0.0
8.87,0.128,-0.939,0.0
8.394,0.12,-0.938,0.0
8.004,0.114,-0.941,0.0
7.657,0.108,-0.945,0.0
9.883,0.136,-0.943,0.0
9.311,0.127,-0.943,0.0
8.755,0.119,-0.937,0.0
8.344,0.112,-0.943,0.0
7.927,0.106,-0.941,0.0
7.577,0.1,-0.944,0.0
9.739,0.126,-0.941,0.0
9.202,0.118,-0.942,0.0
8.643,0.11,-0.935,0.0
8.216,0.103,-0.938,0.0
7.881,0.098,-0.945,0.0
7.512,0.093,-0.945,0.0
9.653,0.116,-0.944,0.0
9.056,0.108,-0.938,0.0
8.599,0.102,-0.94,0.0
8.163,0.096,-0.941,0.0
7.788,0.09,-0.943,0.0
7.474,0.086,-0.948,0.0
9.537,0.107,-0.943,0.0
8.965,0.099,-0.938,0.0
8.525,0.093,-0.941,0.0
8.031,0.087,-0.934,0.0
7.73,0.083,-0.944,0.0
7.388,0.078,-0.945,0.0
9.425,0.097,-0.941,0.0
8.895,0.09,-0.94,0.0
8.383,0.084,-0.934,0.0
7.938,0.078,-0.932,0.0
7.641,0.075,-0.941,0.0
7.337,0.071,-0.946,0.0
9.313,0.087,-0.94,0.0
8.755,0.081,-0.934,0.0
8.329,0.075,-0.937,0.0
7.914,0.071,-0.937,0.0
7.586,0.067,-0.942,0.0
7.29,0.063,-0.948,0.0
9.201,0.077,-0.937,0.0
8.697,0.072,-0.936,0.0
8.3,0.067,-0.941,0.0
7.889,0.063,-0.941,0.0
7.564,0.059,-0.946,0.0
7.225,0.056,-0.946,0.0
9.138,0.068,-0.939,0.0
8.663,0.063,-0.941,0.0
8.16,0.058,-0.933,0.0
7.787,0.055,-0.936,0.0
7.455,0.051,-0.94,0.0
7.217,0.048,-0.951,0.0
9.044,0.058,-0.938,0.0
8.579,0.054,-0.939,0.0
8.146,0.05,-0.939,0.0
7.805,0.047,-0.945,0.0
7.463,0.044,-0.947,0.0
7.136,0.041,-0.947,0.0
8.953,0.048,-0.936,0.0
8.497,0.045,-0.937,0.0
8.115,0.042,-0.942,0.0
7.689,0.038,-0.938,0.0
7.431,0.036,-0.949,0.0
7.125,0.033,-0.952,0.0
8.916,0.039,-0.94,0.0
8.468,0.036,-0.941,0.0
8.05,0.033,-0.941,0.0
7.667,0.03,-0.941,0.0
7.35,0.028,-0.945,0.0
7.09,0.026,-0.952,0.0
8.811,0.029,-0.935,0.0
8.342,0.027,-0.933,0.0
7.971,0.024,-0.938,0.0
7.62,0.022,-0.941,0.0
7.288,0.02,-0.942,0.0
7.051,0.018,-0.952,0.0
8.769,0.02,-0.937,0.0
8.326,0.018,-0.937,0.0
7.945,0.016,-0.94,0.0
7.581,0.014,-0.942,0.0
7.297,0.012,-0.949,0.0
6.948,0.01,-0.943,0.0
8.717,0.011,-0.937,0.0
8.28,0.009,-0.938,0.0
7.868,0.007,-0.936,0.0
7.567,0.006,-0.945,0.0
7.224,0.004,-0.944,0.0
6.977,0.003,-0.952,0.0
8.651,0.001,-0.936,0.0
8.242,0.0,-0.939,0.0
7.867,-0.001,-0.941,0.0
7.48,-0.002,-0.939,0.0
7.23,-0.003,-0.949,0.0
6.932,-0.004,-0.95,0.0
8.638,-0.007,-0.94,0.0
8.195,-0.008,-0.938,0.0
7.815,-0.009,-0.939,0.0
7.478,-0.01,-0.943,0.0
7.177,-0.011,-0.946,0.0
6.893,-0.011,-0.948,0.0
8.601,-0.016,-0.94,0.0
8.162,-0.017,-0.939,0.0
7.807,-0.018,-0.943,0.0
7.426,-0.018,-0.94,0.0
7.122,-0.018,-0.943,0.0
6.886,-0.019,-0.951,0.0
8.543,-0.026,-0.938,0.0
8.13,-0.026,-0.939,0.0
7.766,-0.026,-0.942,0.0
7.392,-0.026,-0.939,0.0
7.088,-0.026,-0.941,0.0
0.0,0.0,0.0,0.0
8.498,-0.035,-0.937,0.0
8.124,-0.035,-0.942,0.0
7.728,-0.035,-0.94,0.0
0.0,0.0,0.0,0.0
7.081,-0.034,-0.944,0.0
6.809,-0.034,-0.946,0.0
8.439,-0.044,-0.934,0.0
8.087,-0.044,-0.941,0.0
7.702,-0.043,-0.94,0.0
7.36,-0.043,-0.941,0.0
7.109,-0.043,-0.95,0.0
6.807,-0.042,-0.949,0.0
8.419,-0.054,-0.935,0.0
8.043,-0.053,-0.939,0.0
7.691,-0.052,-0.942,0.0
7.354,-0.051,-0.943,0.0
7.084,-0.05,-0.949,0.0
6.802,-0.05,-0.95,0.0
8.408,-0.063,-0.936,0.0
8.005,-0.062,-0.937,0.0
7.672,-0.061,-0.942,0.0
7.301,-0.059,-0.939,0.0
7.064,-0.058,-0.948,0.0
6.767,-0.057,-0.947,0.0
8.371,-0.073,-0.935,0.0
7.986,-0.071,-0.937,0.0
7.665,-0.069,-0.943,0.0
7.347,-0.068,-0.946,0.0
7.006,-0.066,-0.942,0.0
6.776,-0.065,-0.95,0.0
8.348,-0.082,-0.934,0.0
7.969,-0.08,-0.937,0.0
7.627,-0.078,-0.94,0.0
7.306,-0.076,-0.943,0.0
7.027,-0.074,-0.947,0.0
6.775,-0.073,-0.951,0.0
8.349,-0.091,-0.935,0.0
7.979,-0.089,-0.939,0.0
7.621,-0.086,-0.94,0.0
7.317,-0.084,-0.945,0.0
7.016,-0.082,-0.946,0.0
6.754,-0.081,-0.95,0.0
8.354,-0.101,-0.937,0.0
7.951,-0.098,-0.937,0.0
7.611,-0.095,-0.94,0.0
7.263,-0.092,-0.939,0.0
7.041,-0.091,-0.95,0.0
6.779,-0.089,-0.954,0.0
8.335,-0.111,-0.936,0.0
7.944,-0.107,-0.937,0.0
7.618,-0.104,-0.941,0.0
7.251,-0.1,-0.938,0.0
7.003,-0.098,-0.946,0.0
6.766,-0.096,-0.952,0.0
8.304,-0.12,-0.933,0.0
7.985,-0.117,-0.942,0.0
7.595,-0.112,-0.939,0.0
7.301,-0.109,-0.944,0.0
6.976,-0.106,-0.942,0.0
6.755,-0.104,-0.951,0.0
8.33,-0.129,-0.935,0.0
7.92,-0.125,-0.934,0.0
7.624,-0.122,-0.942,0.0
7.286,-0.118,-0.942,0.0
7.103,-0.116,-0.959,0.0
6.799,-0.113,-0.957,0.0
8.351,-0.139,-0.937,0.0
7.969,-0.135,-0.939,0.0
7.59,-0.13,-0.937,0.0
7.299,-0.126,-0.943,0.0
7.056,-0.123,-0.952,0.0
6.779,-0.12,-0.953,0.0
8.359,-0.149,-0.937,0.0
7.955,-0.143,-0.937,0.0
7.626,-0.139,-0.941,0.0
7.31,-0.135,-0.944,0.0
6.991,-0.13,-0.942,0.0
6.739,-0.127,-0.946,0.0
8.367,-0.158,-0.937,0.0
7.975,-0.153,-0.938,0.0
7.608,-0.147,-0.938,0.0
7.308,-0.143,-0.942,0.0
7.048,-0.139,-0.949,0.0
6.774,-0.135,-0.95,0.0
8.365,-0.168,-0.935,0.0
7.985,-0.162,-0.938,0.0
7.655,-0.157,-0.942,0.0
7.344,-0.152,-0.946,0.0
7.039,-0.147,-0.946,0.0
6.798,-0.143,-0.952,0.0
8.387,-0.177,-0.936,0.0
8.03,-0.172,-0.941,0.0
7.639,-0.165,-0.938,0.0
7.329,-0.16,-0.942,0.0
7.025,-0.154,-0.942,0.0
6.784,-0.15,-0.948,0.0
8.426,-0.188,-0.938,0.0
8.022,-0.18,-0.938,0.0
7.678,-0.174,-0.94,0.0
7.377,-0.169,-0.946,0.0
7.059,-0.163,-0.944,0.0
6.855,-0.16,-0.956,0.0
8.432,-0.197,-0.936,0.0
8.056,-0.19,-0.939,0.0
7.694,-0.183,-0.94,0.0
7.341,-0.176,-0.938,0.0
7.085,-0.171,-0.945,0.0
6.804,-0.166,-0.946,0.0
8.466,-0.207,-0.936,0.0
8.094,-0.199,-0.94,0.0
7.715,-0.191,-0.939,0.0
7.407,-0.185,-0.944,0.0
7.11,-0.179,-0.946,0.0
6.862,-0.175,-0.951,0.0
8.519,-0.217,-0.939,0.0
8.11,-0.208,-0.939,0.0
7.742,-0.2,-0.939,0.0
7.44,-0.194,-0.945,0.0
7.112,-0.187,-0.943,0.0
6.886,-0.182,-0.952,0.0
8.567,-0.227,-0.94,0.0
8.145,-0.218,-0.939,0.0
7.754,-0.209,-0.937,0.0
7.45,-0.202,-0.942,0.0
7.16,-0.196,-0.946,0.0
6.865,-0.189,-0.945,0.0
8.573,-0.237,-0.936,0.0
8.199,-0.228,-0.941,0.0
7.803,-0.218,-0.939,0.0
7.479,-0.211,-0.942,0.0
7.201,-0.205,-0.947,0.0
6.918,-0.198,-0.948,0.0
8.643,-0.247,-0.939,0.0
8.219,-0.237,-0.939,0.0
7.85,-0.228,-0.94,0.0
7.507,-0.219,-0.941,0.0
7.244,-0.213,-0.949,0.0
6.991,-0.207,-0.954,0.0
8.71,-0.258,-0.941,0.0
8.261,-0.246,-0.938,0.0
7.88,-0.237,-0.939,0.0
7.526,-0.227,-0.939,0.0
7.242,-0.22,-0.944,0.0
7.006,-0.215,-0.952,0.0
8.745,-0.268,-0.94,0.0
8.294,-0.256,-0.937,0.0
7.908,-0.245,-0.937,0.0
7.599,-0.237,-0.943,0.0
7.293,-0.229,-0.945,0.0
7.016,-0.222,-0.948,0.0
8.803,-0.278,-0.94,0.0
8.384,-0.267,-0.941,0.0
7.968,-0.255,-0.938,0.0
7.624,-0.245,-0.941,0.0
7.309,-0.237,-0.942,0.0
7.068,-0.23,-0.95,0.0
8.856,-0.288,-0.939,0.0
8.436,-0.276,-0.941,0.0
8.023,-0.264,-0.939,0.0
7.654,-0.254,-0.939,0.0
7.388,-0.246,-0.947,0.0
7.085,-0.238,-0.947,0.0
8.941,-0.299,-0.941,0.0
8.476,-0.285,-0.939,0.0
8.079,-0.274,-0.939,0.0
7.738,-0.264,-0.943,0.0
7.425,-0.254,-0.946,0.0
7.136,-0.246,-0.948,0.0
9.021,-0.31,-0.942,0.0
8.562,-0.296,-0.941,0.0
8.129,-0.283,-0.938,0.0
7.763,-0.271,-0.94,0.0
7.466,-0.262,-0.945,0.0
7.183,-0.254,-0.948,0.0
9.117,-0.322,-0.945,0.0
8.616,-0.306,-0.94,0.0
8.197,-0.292,-0.939,0.0
7.82,-0.28,-0.94,0.0
7.51,-0.271,-0.944,0.0
7.184,-0.26,-0.942,0.0
9.212,-0.333,-0.947,0.0
8.693,-0.316,-0.941,0.0
8.272,-0.302,-0.94,0.0
7.893,-0.29,-0.941,0.0
7.569,-0.279,-0.944,0.0
7.285,-0.27,-0.949,0.0
9.315,-0.345,-0.949,0.0
8.786,-0.327,-0.943,0.0
8.365,-0.312,-0.943,0.0
7.969,-0.299,-0.943,0.0
7.644,-0.288,-0.946,0.0
7.317,-0.277,-0.946,0.0
9.428,-0.356,-0.951,0.0
8.887,-0.337,-0.945,0.0
8.404,-0.321,-0.939,0.0
8.012,-0.307,-0.94,0.0
7.683,-0.296,-0.943,0.0
7.372,-0.285,-0.946,0.0
9.506,-0.367,-0.949,0.0
8.974,-0.348,-0.945,0.0
8.535,-0.332,-0.945,0.0
8.088,-0.316,-0.94,0.0
7.75,-0.305,-0.944,0.0
7.445,-0.294,-0.947,0.0
9.619,-0.379,-0.951,0.0
9.062,-0.358,-0.945,0.0
8.601,-0.341,-0.943,0.0
8.155,-0.325,-0.94,0.0
7.808,-0.313,-0.942,0.0
7.499,-0.302,-0.946,0.0
9.719,-0.39,-0.95,0.0
9.193,-0.37,-0.949,0.0
8.703,-0.352,-0.945,0.0
8.236,-0.334,-0.94,0.0
7.903,-0.322,-0.945,0.0
7.559,-0.309,-0.945,0.0
9.85,-0.402,-0.952,0.0
9.317,-0.382,-0.951,0.0
8.773,-0.361,-0.943,0.0
8.324,-0.344,-0.941,0.0
7.971,-0.331,-0.944,0.0
7.639,-0.318,-0.946,0.0
9.965,-0.414,-0.952,0.0
9.416,-0.392,-0.95,0.0
8.879,-0.371,-0.944,0.0
8.44,-0.354,-0.944,0.0
8.039,-0.339,-0.942,0.0
7.727,-0.327,-0.948,0.0
10.086,-0.425,-0.951,0.0
9.538,-0.404,-0.951,0.0
9.031,-0.383,-0.949,0.0
8.527,-0.363,-0.943,0.0
8.128,-0.348,-0.943,0.0
7.784,-0.334,-0.945,0.0
10.29,-0.44,-0.958,0.0
9.688,-0.416,-0.954,0.0
9.115,-0.393,-0.947,0.0
8.664,-0.375,-0.948,0.0
8.233,-0.357,-0.945,0.0
7.886,-0.343,-0.948,0.0
10.402,-0.451,-0.956,0.0
9.798,-0.426,-0.953,0.0
9.251,-0.404,-0.949,0.0
8.746,-0.383,-0.946,0.0
8.318,-0.366,-0.944,0.0
7.942,-0.35,-0.944,0.0
10.526,-0.463,-0.954,0.0
9.935,-0.438,-0.954,0.0
9.389,-0.415,-0.951,0.0
8.87,-0.393,-0.947,0.0
8.404,-0.374,-0.943,0.0
8.043,-0.359,-0.946,0.0
10.714,-0.477,-0.957,0.0
10.068,-0.449,-0.953,0.0
9.548,-0.427,-0.955,0.0
8.991,-0.403,-0.948,0.0
8.558,-0.385,-0.949,0.0
8.118,-0.366,-0.944,0.0
10.859,-0.488,-0.955,0.0
10.257,-0.463,-0.957,0.0
9.695,-0.438,-0.957,0.0
9.134,-0.414,-0.951,0.0
8.678,-0.394,-0.95,0.0
8.217,-0.375,-0.944,0.0
11.11,-0.505,-0.962,0.0
10.379,-0.473,-0.954,0.0
9.799,-0.448,-0.953,0.0
9.265,-0.424,-0.952,0.0
8.761,-0.402,-0.947,0.0
8.336,-0.384,-0.946,0.0
11.195,-0.514,-0.954,0.0
10.569,-0.486,-0.957,0.0
9.975,-0.46,-0.956,0.0
9.426,-0.436,-0.955,0.0
8.891,-0.412,-0.948,0.0
8.464,-0.393,-0.948,0.0
11.405,-0.528,-0.956,0.0
10.723,-0.497,-0.956,0.0
10.083,-0.469,-0.952,0.0
9.571,-0.446,-0.956,0.0
9.045,-0.422,-0.952,0.0
8.585,-0.402,-0.949,0.0
11.594,-0.541,-0.955,0.0
10.86,-0.507,-0.952,0.0
10.333,-0.484,-0.961,0.0
9.707,-0.455,-0.955,0.0
9.181,-0.432,-0.952,0.0
8.724,-0.411,-0.952,0.0
11.86,-0.557,-0.959,0.0
11.181,-0.526,-0.964,0.0
10.496,-0.495,-0.96,0.0
9.888,-0.467,-0.958,0.0
9.346,-0.442,-0.955,0.0
8.845,-0.419,-0.951,0.0
12.159,-0.574,-0.965,0.0
11.306,-0.535,-0.957,0.0
10.621,-0.504,-0.956,0.0
9.993,-0.475,-0.953,0.0
9.52,-0.453,-0.959,0.0
8.974,-0.428,-0.951,0.0
12.374,-0.588,-0.963,0.0
11.51,-0.547,-0.957,0.0
10.76,-0.513,-0.952,0.0
10.234,-0.488,-0.96,0.0
9.665,-0.462,-0.958,0.0
9.14,-0.438,-0.955,0.0
12.662,-0.604,-0.966,0.0
11.761,-0.562,-0.96,0.0
11.093,-0.531,-0.964,0.0
10.393,-0.498,-0.959,0.0
9.828,-0.472,-0.959,0.0
9.314,-0.448,-0.958,0.0
12.866,-0.616,-0.962,0.0
12.094,-0.58,-0.968,0.0
11.28,-0.541,-0.962,0.0
10.518,-0.506,-0.954,0.0
9.965,-0.48,-0.957,0.0
9.444,-0.455,-0.957,0.0
13.164,-0.632,-0.963,0.0
12.284,-0.591,-0.963,0.0
11.454,-0.551,-0.959,0.0
10.771,-0.519,-0.959,0.0
10.189,-0.492,-0.961,0.0
9.659,-0.467,-0.963,0.0
13.487,-0.649,-0.965,0.0
12.624,-0.608,-0.97,0.0
11.73,-0.566,-0.963,0.0
10.969,-0.529,-0.959,0.0
10.373,-0.501,-0.962,0.0
9.799,-0.474,-0.961,0.0
13.651,-0.658,-0.955,0.0
12.782,-0.616,-0.961,0.0
12.003,-0.579,-0.966,0.0
11.182,-0.54,-0.96,0.0
10.513,-0.508,-0.958,0.0
9.949,-0.481,-0.959,0.0
14.047,-0.677,-0.959,0.0
13.177,-0.636,-0.969,0.0
12.279,-0.593,-0.968,0.0
11.442,-0.553,-0.963,0.0
10.75,-0.52,-0.961,0.0
10.164,-0.492,-0.963,0.0
14.46,-0.697,-0.963,0.0
13.503,-0.651,-0.97,0.0
12.598,-0.608,-0.971,0.0
11.684,-0.564,-0.963,0.0
10.998,-0.531,-0.965,0.0
10.351,-0.5,-0.962,0.0
14.977,-0.721,-0.972,0.0
13.814,-0.665,-0.969,0.0
12.767,-0.615,-0.963,0.0
11.96,-0.576,-0.966,0.0
11.215,-0.541,-0.965,0.0
10.507,-0.507,-0.959,0.0
15.362,-0.738,-0.972,0.0
14.037,-0.674,-0.961,0.0
13.107,-0.63,-0.966,0.0
12.246,-0.589,-0.968,0.0
11.417,-0.549,-0.962,0.0
10.744,-0.517,-0.962,0.0
15.397,-0.737,-0.948,0.0
14.461,-0.693,-0.965,0.0
13.393,-0.641,-0.964,0.0
12.568,-0.602,-0.972,0.0
11.655,-0.558,-0.963,0.0
11.053,-0.529,-0.971,0.0
15.405,-0.735,-0.921,1.0
14.947,-0.713,-0.972,0.0
13.602,-0.649,-0.956,0.0
12.748,-0.608,-0.964,0.0
11.95,-0.57,-0.966,0.0
11.21,-0.535,-0.965,0.0
15.427,-0.733,-0.896,1.0
15.421,-0.732,-0.976,0.0
14.008,-0.665,-0.96,0.0
13.097,-0.622,-0.967,0.0
12.286,-0.583,-0.972,0.0
11.451,-0.543,-0.966,0.0
15.45,-0.73,-0.87,1.0
15.44,-0.729,-0.95,0.0
14.455,-0.682,-0.965,0.0
13.421,-0.633,-0.968,0.0
12.574,-0.593,-0.972,0.0
11.696,-0.551,-0.965,0.0
15.53,-0.729,-0.847,0.0
15.449,-0.725,-0.923,0.0
14.941,-0.7,-0.971,0.0
13.69,-0.641,-0.963,0.0
12.845,-0.601,-0.97,0.0
11.973,-0.56,-0.967,0.0
15.962,-0.744,-0.843,0.0
15.48,-0.721,-0.898,1.0
15.438,-0.718,-0.976,0.0
14.133,-0.657,-0.969,0.0
13.165,-0.611,-0.971,0.0
12.283,-0.57,-0.97,0.0
16.221,-0.75,-0.828,1.0
15.507,-0.716,-0.872,1.0
15.475,-0.714,-0.951,0.0
14.455,-0.666,-0.965,0.0
13.479,-0.62,-0.971,0.0
12.59,-0.579,-0.972,0.0
16.489,-0.755,-0.813,1.0
15.583,-0.713,-0.849,0.0
15.519,-0.709,-0.926,0.0
14.896,-0.68,-0.968,0.0
13.692,-0.624,-0.961,0.0
12.89,-0.587,-0.972,0.0
17.076,-0.774,-0.811,0.0
16.034,-0.726,-0.845,0.0
15.545,-0.703,-0.9,0.0
15.512,-0.7,-0.981,0.0
14.106,-0.636,-0.965,0.0
13.234,-0.596,-0.975,0.0
17.633,-0.79,-0.806,1.0
16.238,-0.727,-0.827,2.0
15.589,-0.697,-0.875,1.0
15.562,-0.694,-0.956,0.0
14.478,-0.645,-0.965,0.0
13.454,-0.598,-0.967,0.0
18.273,-0.809,-0.803,0.0
16.606,-0.734,-0.816,1.0
15.669,-0.691,-0.851,1.0
15.603,-0.687,-0.931,0.0
15.03,-0.661,-0.975,0.0
13.801,-0.606,-0.967,0.0
18.998,-0.83,-0.801,0.0
17.155,-0.748,-0.812,0.0
16.051,-0.699,-0.843,0.0
15.649,-0.68,-0.905,1.0
15.526,-0.673,-0.979,0.0
14.163,-0.613,-0.967,0.0
19.802,-0.853,-0.799,0.0
17.793,-0.765,-0.81,0.0
16.322,-0.7,-0.828,2.0
15.689,-0.671,-0.879,1.0
15.695,-0.67,-0.961,0.0
14.501,-0.618,-0.964,0.0
20.504,-0.869,-0.791,0.0
18.415,-0.779,-0.806,0.0
16.778,-0.708,-0.821,2.0
15.745,-0.663,-0.854,1.0
15.735,-0.661,-0.936,0.0
14.937,-0.626,-0.966,0.0
21.391,-0.892,-0.787,0.0
19.173,-0.797,-0.805,0.0
17.204,-0.713,-0.811,0.0
16.027,-0.663,-0.841,0.0
15.79,-0.651,-0.911,1.0
15.761,-0.648,-0.991,0.0
22.249,-0.911,-0.779,1.0
19.967,-0.815,-0.803,0.0
17.936,-0.73,-0.814,1.0
16.403,-0.666,-0.831,0.0
15.817,-0.64,-0.884,1.0
15.833,-0.639,-0.967,0.0
23.649,-0.95,-0.786,5.0
20.688,-0.828,-0.795,2.0
18.462,-0.737,-0.805,0.0
16.958,-0.674,-0.829,1.0
15.89,-0.63,-0.86,1.0
15.916,-0.629,-0.944,0.0
23.854,-0.938,-0.75,17.0
21.703,-0.851,-0.795,1.0
19.38,-0.757,-0.811,0.0
17.319,-0.674,-0.816,2.0
16.092,-0.624,-0.842,1.0
15.929,-0.616,-0.917,1.0
24.523,-0.943,-0.728,13.0
22.302,-0.855,-0.778,2.0
20.18,-0.771,-0.808,1.0
17.983,-0.684,-0.815,0.0
16.282,-0.617,-0.823,0.0
16.007,-0.604,-0.893,1.0
25.05,-0.941,-0.699,2.0
23.697,-0.887,-0.784,5.0
20.727,-0.772,-0.794,1.0
18.513,-0.687,-0.807,1.0
17.012,-0.629,-0.83,0.0
16.096,-0.592,-0.869,1.0
28.316,-1.037,-0.741,0.0
23.865,-0.87,-0.748,19.0
21.846,-0.793,-0.798,0.0
19.163,-0.693,-0.802,0.0
17.559,-0.632,-0.826,0.0
16.251,-0.582,-0.849,1.0
30.381,-1.083,-0.742,9.0
24.74,-0.878,-0.732,13.0
22.586,-0.797,-0.786,3.0
20.082,-0.706,-0.805,0.0
18.261,-0.639,-0.827,0.0
16.688,-0.581,-0.843,0.0
30.515,-1.057,-0.692,33.0
27.489,-0.947,-0.766,0.0
23.488,-0.805,-0.777,9.0
20.867,-0.712,-0.801,0.0
18.781,-0.637,-0.818,3.0
17.044,-0.575,-0.831,0.0
30.686,-1.03,-0.643,31.0
28.298,-0.945,-0.74,1.0
24.059,-0.799,-0.754,21.0
21.902,-0.723,-0.802,2.0
19.53,-0.641,-0.817,4.0
17.538,-0.573,-0.825,0.0
31.099,-1.01,-0.598,28.0
30.385,-0.981,-0.743,15.0
24.837,-0.797,-0.736,10.0
22.538,-0.719,-0.787,1.0
19.856,-0.63,-0.797,3.0
18.116,-0.571,-0.822,0.0
37.902,-1.188,-0.665,10.0
30.521,-0.95,-0.694,34.0
27.468,-0.85,-0.767,0.0
23.7,-0.729,-0.788,10.0
20.663,-0.631,-0.794,1.0
18.86,-0.573,-0.823,0.0
38.057,-1.148,-0.603,23.0
30.759,-0.922,-0.647,34.0
28.639,-0.852,-0.751,1.0
23.896,-0.706,-0.754,19.0
21.872,-0.642,-0.804,0.0
19.488,-0.568,-0.818,0.0
38.444,-1.113,-0.544,16.0
31.205,-0.897,-0.603,26.0
30.311,-0.865,-0.744,8.0
24.861,-0.704,-0.742,11.0
23.165,-0.651,-0.812,1.0
20.255,-0.565,-0.816,0.0
38.632,-1.07,-0.482,31.0
37.884,-1.041,-0.669,11.0
30.508,-0.832,-0.698,33.0
27.183,-0.736,-0.767,0.0
23.759,-0.638,-0.794,12.0
20.897,-0.557,-0.808,0.0
38.701,-1.023,-0.419,42.0
38.094,-0.999,-0.611,18.0
30.792,-0.8,-0.655,30.0
28.597,-0.737,-0.76,1.0
23.887,-0.61,-0.759,17.0
21.783,-0.552,-0.806,0.0
38.78,-0.975,-0.357,29.0
38.458,-0.958,-0.555,23.0
31.327,-0.773,-0.615,21.0
30.379,-0.743,-0.758,12.0
24.765,-0.6,-0.747,11.0
0.0,0.0,0.0,0.0
40.419,-0.961,-0.307,43.0
0.0,0.0,0.0,0.0
37.889,-0.884,-0.684,13.0
30.497,-0.704,-0.712,30.0
25.353,-0.579,-0.725,2.0
23.774,-0.538,-0.804,8.0
40.422,-0.906,-0.243,32.0
40.437,-0.896,-0.454,25.0
38.106,-0.836,-0.627,21.0
30.809,-0.668,-0.671,29.0
28.313,-0.607,-0.765,1.0
25.032,-0.531,-0.807,4.0
38.373,-0.806,-0.17,49.0
38.371,-0.796,-0.371,31.0
38.356,-0.787,-0.571,11.0
31.393,-0.636,-0.635,17.0
29.599,-0.593,-0.754,9.0
26.084,-0.516,-0.801,1.0
52.954,-1.036,-0.154,60.0
45.611,-0.881,-0.37,18.0
44.909,-0.856,-0.6,28.0
37.568,-0.707,-0.703,13.0
30.475,-0.566,-0.73,28.0
27.127,-0.497,-0.792,2.0
20.137,-0.364,-0.028,22.0
52.932,-0.945,-0.351,39.0
45.188,-0.795,-0.536,19.0
38.01,-0.659,-0.653,20.0
30.856,-0.527,-0.692,30.0
28.387,-0.478,-0.785,3.0
20.146,-0.334,0.002,47.0
59.556,-0.973,-0.305,3.0
52.763,-0.849,-0.547,20.0
38.534,-0.61,-0.605,14.0
31.636,-0.492,-0.663,9.0
29.915,-0.458,-0.784,8.0
20.151,-0.303,0.031,25.0
57.073,-0.845,-0.208,5.0
53.004,-0.771,-0.471,9.0
44.77,-0.639,-0.638,19.0
36.098,-0.506,-0.703,2.0
30.549,-0.42,-0.755,19.0
59.54,-0.804,0.181,23.0
59.537,-0.788,-0.13,41.0
56.604,-0.734,-0.421,12.0
45.018,-0.572,-0.576,22.0
37.926,-0.471,-0.684,21.0
31.557,-0.383,-0.735,9.0
56.238,-0.67,0.252,2.0
56.3,-0.655,-0.042,2.0
59.541,-0.676,-0.358,4.0
46.145,-0.512,-0.525,3.0
38.211,-0.413,-0.636,13.0
20.201,-0.213,-0.442,9.0
64.312,-0.662,0.378,20.0
56.229,-0.563,0.035,1.0
56.281,-0.548,-0.26,6.0
52.972,-0.501,-0.529,5.0
20.174,-0.185,-0.307,11.0
20.172,-0.179,-0.413,28.0
64.29,-0.556,0.467,2.0
56.263,-0.471,0.113,4.0
20.205,-0.163,-0.065,5.0
20.149,-0.157,-0.173,14.0
20.155,-0.151,-0.279,28.0
20.153,-0.146,-0.386,33.0
20.171,-0.14,0.174,19.0
20.133,-0.134,0.067,19.0
20.167,-0.129,-0.038,23.0
20.141,-0.123,-0.146,26.0
20.142,-0.117,-0.253,32.0
20.145,-0.112,-0.359,38.0
20.146,-0.106,0.2,23.0
20.13,-0.1,0.094,35.0
20.127,-0.094,-0.012,33.0
20.142,-0.089,-0.12,30.0
20.156,-0.083,-0.227,22.0
20.155,-0.077,-0.333,29.0
20.121,-0.071,0.226,28.0
20.122,-0.065,0.12,34.0
20.128,-0.06,0.013,35.0
20.139,-0.054,-0.095,35.0
20.159,-0.048,-0.201,25.0
20.169,-0.042,-0.308,25.0
20.112,-0.036,0.251,28.0
20.11,-0.03,0.145,30.0
20.134,-0.024,0.038,33.0
20.192,-0.019,-0.069,22.0
20.175,-0.013,-0.176,12.0
20.227,-0.007,-0.284,6.0
20.128,-0.001,0.276,28.0
20.127,0.004,0.169,28.0
20.166,0.01,0.063,35.0
20.238,0.016,-0.045,152.0
20.261,0.022,-0.153,151.0
20.268,0.028,-0.26,150.0
20.145,0.034,0.3,31.0
20.132,0.04,0.193,28.0
20.147,0.046,0.087,27.0
20.209,0.052,-0.022,25.0
20.199,0.058,-0.129,25.0
20.223,0.064,-0.236,3.0
20.148,0.07,0.324,27.0
20.156,0.076,0.217,28.0
20.162,0.082,0.11,26.0
20.181,0.088,0.001,28.0
20.19,0.094,-0.105,31.0
20.182,0.1,-0.213,23.0
20.159,0.107,0.347,30.0
20.162,0.113,0.24,27.0
20.154,0.119,0.133,24.0
20.187,0.125,0.024,29.0
20.18,0.131,-0.083,28.0
20.172,0.137,-0.19,23.0
20.172,0.144,0.37,26.0
20.171,0.15,0.262,20.0
20.205,0.156,0.155,23.0
20.252,0.163,0.046,24.0
20.252,0.169,-0.061,20.0
20.208,0.175,-0.169,23.0
20.274,0.182,0.393,29.0
20.287,0.189,0.285,29.0
20.301,0.195,0.177,28.0
20.323,0.201,0.067,32.0
20.334,0.208,-0.04,3.0
20.171,0.212,-0.148,0.0
20.276,0.22,0.414,34.0
20.282,0.226,0.306,28.0
20.322,0.233,0.198,21.0
20.314,0.239,0.087,1.0
99.591,1.204,-0.101,2.0
0.0,0.0,0.0,0.0
20.305,0.259,0.435,27.0
20.299,0.265,0.326,7.0
0.0,0.0,0.0,0.0
99.621,1.363,0.529,5.0
99.696,1.395,-0.003,4.0
0.0,0.0,0.0,0.0
196.244,2.877,4.4,25.0
194.88,2.915,3.325,35.0
0.0,0.0,0.0,0.0
99.791,1.555,0.624,4.0
99.758,1.586,0.089,5.0
0.0,0.0,0.0,0.0
195.044,3.233,4.555,5.0
195.042,3.292,3.508,27.0
0.0,0.0,0.0,0.0
99.781,1.746,0.715,1.0
99.866,1.778,0.18,14.0
0.0,0.0,0.0,0.0
194.653,3.602,4.721,17.0
194.569,3.661,3.675,13.0
0.0,0.0,0.0,0.0
102.927,2.001,0.828,6.0
99.843,1.971,0.267,4.0
99.988,2.006,-0.269,2.0
194.779,3.983,4.893,13.0
0.0,0.0,0.0,0.0
195.613,4.123,2.811,18.0
0.0,0.0,0.0,0.0
100.151,2.173,0.352,1.0
100.072,2.204,-0.185,11.0
194.791,4.364,5.054,22.0
193.908,4.406,3.988,29.0
195.424,4.501,2.967,21.0
0.0,0.0,0.0,0.0
100.22,2.371,0.432,1.0
0.0,0.0,0.0,0.0
194.372,4.735,5.197,19.0
193.852,4.785,4.139,31.0
195.425,4.882,3.118,9.0
0.0,0.0,0.0,0.0
102.954,2.637,0.522,2.0
100.119,2.596,-0.031,1.0
194.551,5.121,5.348,24.0
193.7,5.16,4.279,24.0
193.641,5.219,3.233,13.0
195.1,5.319,2.184,24.0
103.031,2.841,0.597,1.0
0.0,0.0,0.0,0.0
194.384,5.501,5.483,12.0
193.843,5.545,4.419,31.0
0.0,0.0,0.0,0.0
195.751,5.721,2.326,8.0
196.025,5.795,1.271,38.0
0.0,0.0,0.0,0.0
194.329,5.885,5.613,8.0
193.977,5.934,4.553,20.0
193.906,5.994,3.502,6.0
195.407,6.1,2.452,8.0
196.201,6.187,1.399,23.0
196.189,6.247,0.338,6.0
194.889,6.288,5.754,6.0
195.538,6.371,4.713,13.0
195.22,6.42,3.648,26.0
195.43,6.488,2.572,18.0
196.427,6.582,1.521,8.0
196.433,6.645,0.457,12.0
0.0,0.0,0.0,0.0
195.889,6.772,4.839,9.0
195.312,6.812,3.764,26.0
195.973,6.894,2.692,25.0
196.337,6.969,1.632,11.0
196.552,7.04,0.568,22.0
198.288,7.191,6.087,5.0
195.496,7.147,4.938,9.0
200.208,7.382,3.969,19.0
0.0,0.0,0.0,0.0
195.088,7.314,1.726,20.0
195.164,7.379,0.667,20.0
193.33,7.397,6.037,6.0
195.414,7.537,5.037,8.0
0.0,0.0,0.0,0.0
0.0,0.0,0.0,0.0
203.845,8.049,1.905,16.0
196.706,7.827,0.768,33.0
193.175,7.778,6.126,25.0
193.782,7.863,5.09,22.0
0.0,0.0,0.0,0.0
196.764,8.101,3.002,9.0
0.0,0.0,0.0,0.0
196.792,8.225,0.858,32.0
193.139,8.163,6.212,24.0
193.865,8.253,5.178,15.0
0.0,0.0,0.0,0.0
195.48,8.442,3.066,27.0
195.502,8.503,2.0,57.0
195.565,8.565,0.934,31.0
193.109,8.55,6.29,27.0
193.827,8.641,5.255,25.0
0.0,0.0,0.0,0.0
204.961,9.264,3.296,6.0
0.0,0.0,0.0,0.0
197.025,9.025,1.015,31.0
193.42,8.956,6.374,28.0
194.141,9.046,5.335,6.0
195.817,9.181,4.308,5.0
200.042,9.44,3.287,5.0
0.0,0.0,0.0,0.0
197.028,9.415,1.081,28.0
194.289,9.381,6.467,12.0
194.078,9.428,5.397,22.0
0.0,0.0,0.0,0.0
197.474,9.709,3.306,7.0
197.825,9.788,2.228,23.0
197.083,9.81,1.139,34.0
193.613,9.734,6.501,12.0
193.931,9.808,5.448,17.0
196.647,10.002,4.446,14.0
197.932,10.126,3.367,7.0
201.739,10.383,2.326,5.0
197.128,10.206,1.191,33.0
193.386,10.112,6.544,16.0
193.703,10.18,5.489,7.0
0.0,0.0,0.0,0.0
0.0,0.0,0.0,0.0
207.018,11.061,2.433,6.0
196.265,10.546,1.229,8.0
193.117,10.478,6.577,8.0
196.036,10.69,5.596,29.0
196.09,10.749,4.519,54.0
196.07,10.806,3.421,31.0
196.081,10.866,2.343,8.0
197.349,10.997,1.271,16.0
192.8,10.844,6.599,6.0
195.038,11.027,5.601,6.0
0.0,0.0,0.0,0.0
0.0,0.0,0.0,0.0
0.0,0.0,0.0,0.0
197.402,11.387,1.3,31.0
0.0,0.0,0.0,0.0
194.566,11.381,5.613,6.0
0.0,0.0,0.0,0.0
0.0,0.0,0.0,0.0
208.093,12.353,2.54,9.0
197.433,11.775,1.32,24.0
0.0,0.0,0.0,0.0
0.0,0.0,0.0,0.0
195.653,11.88,4.582,14.0
0.0,0.0,0.0,0.0
0.0,0.0,0.0,0.0
155.438,9.57,1.049,150.0
162.863,10.113,5.624,4.0
0.0,0.0,0.0,0.0
0.0,0.0,0.0,0.0
0.0,0.0,0.0,0.0
0.0,0.0,0.0,0.0
0.0,0.0,0.0,0.0
162.697,10.418,5.622,4.0
174.082,11.196,5.051,18.0
174.065,11.243,4.087,14.0
203.25,13.182,3.625,5.0
0.0,0.0,0.0,0.0
0.0,0.0,0.0,0.0
161.922,10.68,5.592,10.0
162.754,10.78,4.718,23.0
178.992,11.905,4.196,6.0
0.0,0.0,0.0,0.0
199.203,13.361,2.442,9.0
0.0,0.0,0.0,0.0
156.869,10.65,5.409,5.0
169.017,11.518,4.89,12.0
179.066,12.252,4.187,8.0
210.325,14.447,3.728,26.0
199.482,13.756,2.429,6.0
0.0,0.0,0.0,0.0
156.387,10.915,5.379,5.0
167.04,11.702,4.815,7.0
172.281,12.115,4.009,9.0
173.683,12.259,3.059,16.0
0.0,0.0,0.0,0.0
140.88,10.017,0.916,7.0
160.836,11.526,5.511,15.0
156.34,11.242,4.486,4.0
162.007,11.692,3.747,34.0
173.225,12.547,3.026,50.0
173.449,12.61,2.065,24.0
124.206,9.062,0.787,4.0
0.0,0.0,0.0,0.0
166.66,12.292,4.753,17.0
167.358,12.385,3.841,5.0
168.102,12.483,2.906,25.0
168.186,12.533,1.969,37.0
122.135,9.134,0.75,1.0
174.8,13.171,5.924,9.0
156.997,11.867,4.446,42.0
155.935,11.825,3.545,17.0
168.092,12.79,2.867,33.0
162.214,12.384,1.863,4.0
114.456,8.766,0.676,1.0
154.542,11.923,5.201,4.0
167.311,12.95,4.696,34.0
155.665,12.088,3.5,44.0
155.99,12.152,2.619,28.0
155.961,12.188,1.749,15.0
114.149,8.951,0.643,17.0
167.042,13.191,5.575,16.0
154.99,12.275,4.306,16.0
155.997,12.395,3.461,4.0
155.993,12.432,2.574,18.0
181.648,14.523,1.982,15.0
110.581,8.868,0.588,33.0
154.849,12.505,5.119,15.0
161.49,13.078,4.435,9.0
155.973,12.667,3.41,14.0
0.0,0.0,0.0,0.0
213.453,17.437,2.257,6.0
110.269,9.035,0.549,7.0
157.14,12.961,5.142,12.0
0.0,0.0,0.0,0.0
201.859,16.745,4.341,16.0
0.0,0.0,0.0,0.0
115.37,9.623,1.177,15.0
108.222,9.053,0.499,1.0
144.489,12.167,4.672,20.0
144.272,12.181,3.855,4.0
199.644,16.904,4.215,8.0
199.421,16.93,3.073,9.0
128.974,10.979,1.265,8.0
107.718,9.197,0.452,24.0
143.705,12.348,4.585,27.0
144.343,12.435,3.796,13.0
152.609,13.182,3.157,13.0
153.446,13.288,2.298,22.0
128.925,11.195,1.206,7.0
107.647,9.372,0.404,25.0
143.692,12.589,4.522,32.0
144.127,12.657,3.725,11.0
152.475,13.423,3.084,15.0
152.917,13.494,2.218,23.0
108.661,9.613,0.966,1.0
0.0,0.0,0.0,0.0
143.416,12.799,4.443,26.0
152.318,13.627,3.862,19.0
152.384,13.665,3.007,29.0
152.482,13.708,2.136,28.0
108.438,9.771,0.909,1.0
0.0,0.0,0.0,0.0
143.039,13.0,4.358,26.0
152.075,13.852,3.778,25.0
151.811,13.86,2.915,24.0
151.738,13.885,2.045,26.0
0.0,0.0,0.0,0.0
92.853,8.537,0.206,20.0
142.97,13.222,4.277,12.0
151.925,14.081,3.689,14.0
151.33,14.058,2.821,28.0
151.581,14.114,1.957,27.0
0.0,0.0,0.0,0.0
92.728,8.673,0.152,13.0
121.393,11.418,3.561,33.0
151.557,14.285,3.59,15.0
151.217,14.283,2.73,30.0
151.389,14.33,1.864,23.0
0.0,0.0,0.0,0.0
92.405,8.786,0.095,3.0
121.166,11.584,3.48,18.0
138.277,13.245,3.19,17.0
151.187,14.51,2.635,28.0
151.068,14.529,1.766,14.0
0.0,0.0,0.0,0.0
92.352,8.919,0.037,7.0
137.771,13.377,3.869,28.0
121.576,11.826,2.727,39.0
121.622,11.855,2.041,35.0
121.588,11.874,1.342,8.0
0.0,0.0,0.0,0.0
0.0,0.0,0.0,0.0
109.146,10.759,2.991,52.0
121.518,12.002,2.643,74.0
121.57,12.029,1.957,70.0
121.658,12.061,1.257,2.0
0.0,0.0,0.0,0.0
0.0,0.0,0.0,0.0
115.727,11.575,3.09,42.0
121.621,12.186,2.559,28.0
150.61,15.118,2.318,22.0
0.0,0.0,0.0,0.0
0.0,0.0,0.0,0.0
0.0,0.0,0.0,0.0
116.108,11.776,3.016,17.0
150.605,15.302,3.059,17.0
150.672,15.335,2.208,25.0
0.0,0.0,0.0,0.0
0.0,0.0,0.0,0.0
0.0,0.0,0.0,0.0
109.356,11.243,2.758,45.0
115.662,11.909,2.261,28.0
115.597,11.922,1.605,35.0
0.0,0.0,0.0,0.0
0.0,0.0,0.0,0.0
0.0,0.0,0.0,0.0
109.346,11.386,2.674,30.0
109.334,11.403,2.052,17.0
115.567,12.072,1.514,26.0
82.238,8.604,0.603,1.0
0.0,0.0,0.0,0.0
95.004,9.974,-0.381,1.0
109.149,11.509,2.58,53.0
109.251,11.536,1.963,57.0
0.0,0.0,0.0,0.0
82.111,8.697,0.534,2.0
82.04,8.704,0.068,68.0
0.0,0.0,0.0,0.0
109.261,11.66,2.491,17.0
109.256,11.676,1.87,52.0
0.0,0.0,0.0,0.0
82.021,8.791,0.464,4.0
82.037,8.806,-0.002,27.0
77.684,8.352,-0.442,4.0
115.674,12.487,2.539,26.0
109.293,11.814,1.776,13.0
0.0,0.0,0.0,0.0
82.033,8.893,0.392,4.0
76.892,8.348,-0.069,6.0
0.0,0.0,0.0,0.0
103.867,11.337,2.186,29.0
149.848,16.378,2.302,18.0
0.0,0.0,0.0,0.0
76.37,8.369,0.297,20.0
76.171,8.359,-0.137,8.0
68.981,7.581,-0.516,2.0
103.85,11.456,2.092,42.0
103.766,11.46,1.5,14.0
76.89,8.502,0.674,2.0
75.614,8.372,0.225,9.0
75.638,8.386,-0.205,26.0
68.96,7.656,-0.579,2.0
103.813,11.568,1.995,32.0
103.752,11.573,1.403,19.0
76.236,8.514,0.596,3.0
75.052,8.393,0.152,10.0
74.983,8.396,-0.273,2.0
0.0,0.0,0.0,0.0
144.106,16.212,2.633,15.0
103.785,11.689,1.306,2.0
75.327,8.493,0.518,2.0
74.704,8.433,0.081,13.0
74.855,8.46,-0.344,5.0
0.0,0.0,0.0,0.0
144.137,16.364,2.496,11.0
76.107,8.649,0.884,1.0
74.789,8.509,0.441,9.0
74.564,8.493,0.008,13.0
0.0,0.0,0.0,0.0
0.0,0.0,0.0,0.0
149.578,17.131,2.441,14.0
75.377,8.641,0.8,8.0
74.584,8.559,0.367,11.0
0.0,0.0,0.0,0.0
0.0,0.0,0.0,0.0
0.0,0.0,0.0,0.0
149.792,17.297,2.295,17.0
75.529,8.73,0.726,1.0
0.0,0.0,0.0,0.0
0.0,0.0,0.0,0.0
0.0,0.0,0.0,0.0
0.0,0.0,0.0,0.0
149.781,17.434,2.142,19.0
75.422,8.786,0.648,12.0
0.0,0.0,0.0,0.0
0.0,0.0,0.0,0.0
0.0,0.0,0.0,0.0
0.0,0.0,0.0,0.0
97.695,11.456,1.295,5.0
0.0,0.0,0.0,0.0
69.804,8.199,0.128,0.0
0.0,0.0,0.0,0.0
0.0,0.0,0.0,0.0
0.0,0.0,0.0,0.0
97.646,11.531,1.192,6.0
69.678,8.235,0.451,1.0
69.292,8.196,0.053,0.0
0.0,0.0,0.0,0.0
0.0,0.0,0.0,0.0
0.0,0.0,0.0,0.0
0.0,0.0,0.0,0.0
0.0,0.0,0.0,0.0
68.847,8.197,-0.02,0.0
69.009,8.222,-0.422,0.0
0.0,0.0,0.0,0.0
40.568,4.842,-0.712,0.0
0.0,0.0,0.0,0.0
0.0,0.0,0.0,0.0
68.811,8.243,-0.095,4.0
68.93,8.263,-0.496,5.0
0.0,0.0,0.0,0.0
40.033,4.807,-0.746,0.0
68.831,8.281,0.617,0.0
0.0,0.0,0.0,0.0
68.879,8.298,-0.171,2.0
68.849,8.3,-0.571,2.0
68.792,8.299,-0.964,3.0
0.0,0.0,0.0,0.0
68.766,8.318,0.539,3.0
68.77,8.323,0.146,4.0
68.943,8.349,-0.247,0.0
68.814,8.339,-0.647,0.0
68.691,8.33,-1.039,0.0
37.067,4.498,-0.773,0.0
68.788,8.362,0.464,6.0
68.762,8.363,0.071,151.0
69.266,8.429,-0.325,6.0
0.0,0.0,0.0,0.0
0.0,0.0,0.0,0.0
0.0,0.0,0.0,0.0
68.816,8.404,0.386,3.0
68.719,8.396,-0.006,167.0
69.37,8.48,-0.404,2.0
0.0,0.0,0.0,0.0
0.0,0.0,0.0,0.0
34.237,4.193,-0.791,0.0
68.697,8.424,0.309,1.0
68.679,8.426,-0.084,150.0
0.0,0.0,0.0,0.0
68.68,8.435,-0.878,4.0
39.17,4.813,-0.725,0.0
32.468,3.992,-0.787,0.0
68.674,8.454,0.23,2.0
68.907,8.485,-0.163,2.0
0.0,0.0,0.0,0.0
68.695,8.467,-0.956,7.0
38.917,4.799,-0.764,0.0
31.769,3.92,-0.806,0.0
68.666,8.481,0.153,25.0
65.553,8.099,-0.228,1.0
0.0,0.0,0.0,0.0
68.572,8.48,-1.033,0.0
36.893,4.564,-0.766,0.0
30.822,3.815,-0.817,0.0
68.673,8.508,0.073,151.0
65.468,8.113,-0.304,3.0
55.775,6.914,-0.578,0.0
0.0,0.0,0.0,0.0
35.267,4.376,-0.774,0.0
30.171,3.745,-0.835,0.0
68.652,8.528,-0.004,50.0
65.408,8.127,-0.379,6.0
0.0,0.0,0.0,0.0
40.315,5.013,-0.699,0.0
34.613,4.305,-0.799,0.0
29.18,3.631,-0.841,0.0
65.44,8.147,-0.079,4.0
65.318,8.134,-0.453,5.0
0.0,0.0,0.0,0.0
38.859,4.842,-0.719,0.0
32.924,4.104,-0.798,0.0
28.151,3.51,-0.844,0.0
65.364,8.153,-0.154,15.0
65.279,8.144,-0.528,4.0
0.0,0.0,0.0,0.0
38.121,4.758,-0.749,0.0
31.394,3.92,-0.797,0.0
27.297,3.409,-0.85,0.0
65.331,8.162,-0.23,33.0
65.276,8.156,-0.604,3.0
0.0,0.0,0.0,0.0
37.0,4.625,-0.771,0.0
30.854,3.858,-0.82,0.0
26.474,3.311,-0.855,0.0
65.286,8.165,-0.306,16.0
65.241,8.161,-0.679,2.0
0.0,0.0,0.0,0.0
35.139,4.397,-0.773,0.0
29.899,3.742,-0.829,0.0
25.72,3.22,-0.861,0.0
65.244,8.167,-0.381,43.0
55.934,7.002,-0.647,0.0
40.286,5.043,-0.697,0.0
33.965,4.253,-0.786,0.0
29.004,3.632,-0.838,0.0
24.866,3.115,-0.861,0.0
65.222,8.167,-0.456,28.0
0.0,0.0,0.0,0.0
0.0,0.0,0.0,0.0
32.801,4.108,-0.797,0.0
27.973,3.504,-0.84,0.0
24.247,3.038,-0.867,0.0
65.213,8.166,-0.531,11.0
0.0,0.0,0.0,0.0
38.208,4.784,-0.749,0.0
31.401,3.932,-0.799,0.0
27.172,3.403,-0.847,0.0
23.69,2.967,-0.875,0.0
65.225,8.165,-0.606,3.0
0.0,0.0,0.0,0.0
36.797,4.606,-0.763,0.0
30.911,3.869,-0.822,0.0
26.355,3.299,-0.852,0.0
21.965,2.75,-0.836,1.0
65.184,8.154,-0.679,1.0
0.0,0.0,0.0,0.0
35.093,4.389,-0.768,0.0
29.916,3.742,-0.829,0.0
25.719,3.217,-0.86,0.0
21.883,2.737,-0.857,3.0
0.0,0.0,0.0,0.0
39.94,4.99,-0.689,0.0
34.676,4.332,-0.797,0.0
28.942,3.615,-0.834,0.0
24.889,3.109,-0.86,0.0
21.831,2.727,-0.88,2.0
0.0,0.0,0.0,0.0
39.312,4.905,-0.723,0.0
32.694,4.078,-0.788,0.0
28.117,3.507,-0.842,0.0
24.26,3.026,-0.866,0.0
21.795,2.718,-0.902,1.0
0.0,0.0,0.0,0.0
38.396,4.782,-0.748,1.0
31.59,3.933,-0.797,0.0
27.128,3.377,-0.842,0.0
23.692,2.949,-0.872,0.0
21.014,2.616,-0.893,0.0
0.0,0.0,0.0,0.0
37.026,4.601,-0.762,0.0
30.874,3.835,-0.812,0.0
26.401,3.279,-0.849,0.0
22.157,2.751,-0.839,0.0
20.441,2.538,-0.892,0.0
0.0,0.0,0.0,0.0
0.0,0.0,0.0,0.0
30.19,3.741,-0.827,0.0
25.695,3.183,-0.854,0.0
21.96,2.72,-0.856,0.0
20.222,2.504,-0.904,0.0
0.0,0.0,0.0,0.0
33.817,4.179,-0.769,0.0
29.121,3.597,-0.829,0.0
24.902,3.075,-0.854,0.0
21.78,2.689,-0.872,0.0
20.036,2.473,-0.917,0.0
39.466,4.863,-0.714,0.0
32.848,4.046,-0.782,0.0
28.249,3.478,-0.834,0.0
24.426,3.006,-0.864,0.0
21.773,2.679,-0.895,0.0
0.0,0.0,0.0,0.0
38.921,4.778,-0.745,1.0
31.971,3.923,-0.795,0.0
27.47,3.369,-0.84,0.0
23.83,2.922,-0.868,0.0
21.552,2.642,-0.908,0.0
18.788,2.302,-0.9,0.0
37.247,4.554,-0.751,0.0
31.425,3.84,-0.814,0.0
26.702,3.262,-0.844,0.0
23.399,2.857,-0.876,0.0
20.576,2.511,-0.888,0.0
18.433,2.249,-0.901,0.0
35.655,4.34,-0.756,0.0
30.48,3.708,-0.82,0.0
26.114,3.175,-0.852,0.0
21.853,2.656,-0.841,0.0
20.302,2.467,-0.897,0.0
18.17,2.207,-0.907,1.0
0.0,0.0,0.0,0.0
29.482,3.57,-0.823,0.0
25.565,3.094,-0.86,0.0
21.851,2.643,-0.862,0.0
20.082,2.428,-0.907,0.0
18.026,2.178,-0.918,0.0
33.009,3.978,-0.765,0.0
28.776,3.466,-0.832,0.0
24.694,2.973,-0.855,0.0
21.768,2.619,-0.88,0.0
19.438,2.338,-0.897,0.0
17.519,2.106,-0.909,0.0
32.722,3.922,-0.79,0.0
27.978,3.351,-0.835,0.0
24.301,2.909,-0.864,0.0
21.743,2.601,-0.9,0.0
19.102,2.284,-0.9,0.0
17.284,2.065,-0.914,0.0
31.647,3.771,-0.794,0.0
27.344,3.256,-0.842,0.0
23.785,2.83,-0.868,0.0
21.442,2.55,-0.908,0.0
19.028,2.261,-0.914,0.0
17.005,2.02,-0.914,0.0
31.094,3.682,-0.809,0.0
26.645,3.152,-0.845,0.0
23.43,2.77,-0.877,0.0
20.61,2.435,-0.891,0.0
18.497,2.184,-0.906,0.0
16.775,1.979,-0.918,0.0
30.344,3.569,-0.817,0.0
26.102,3.067,-0.852,0.0
22.407,2.631,-0.859,0.0
20.258,2.377,-0.894,0.0
18.263,2.142,-0.911,0.0
16.639,1.95,-0.925,0.0
29.629,3.46,-0.824,0.0
25.47,2.972,-0.853,0.0
21.829,2.545,-0.856,0.0
19.509,2.273,-0.878,0.0
17.938,2.088,-0.91,0.0
16.333,1.9,-0.922,0.0
28.764,3.334,-0.824,0.0
24.951,2.89,-0.857,0.0
21.819,2.525,-0.874,1.0
19.404,2.243,-0.89,1.0
17.55,2.027,-0.905,0.0
16.128,1.862,-0.924,0.0
28.304,3.256,-0.835,0.0
24.608,2.828,-0.866,0.0
21.77,2.499,-0.89,0.0
19.336,2.218,-0.903,1.0
17.376,1.991,-0.91,0.0
15.858,1.816,-0.921,0.0
27.425,3.129,-0.831,0.0
24.069,2.743,-0.866,0.0
21.7,2.471,-0.904,0.0
19.111,2.174,-0.907,0.0
17.294,1.965,-0.92,0.0
15.687,1.781,-0.924,0.0
27.18,3.074,-0.844,0.0
23.75,2.683,-0.873,0.0
21.609,2.439,-0.917,0.0
18.807,2.121,-0.907,0.0
17.075,1.923,-0.921,0.0
15.535,1.748,-0.926,0.0
26.68,2.991,-0.849,0.0
21.98,2.461,-0.824,0.0
20.554,2.299,-0.887,0.0
18.515,2.069,-0.907,0.0
16.831,1.878,-0.92,0.0
15.336,1.71,-0.926,0.0
26.076,2.895,-0.849,0.0
21.926,2.432,-0.838,2.0
20.086,2.225,-0.882,0.0
18.234,2.018,-0.906,0.0
16.615,1.836,-0.92,0.0
15.184,1.677,-0.928,0.0
25.653,2.821,-0.853,0.0
21.892,2.404,-0.852,4.0
19.792,2.171,-0.883,0.0
17.975,1.969,-0.906,1.0
16.437,1.799,-0.922,0.0
14.969,1.636,-0.924,0.0
25.184,2.74,-0.854,0.0
21.857,2.375,-0.865,5.0
19.678,2.136,-0.89,2.0
17.749,1.924,-0.906,1.0
16.35,1.77,-0.927,0.0
14.904,1.612,-0.93,0.0
24.793,2.669,-0.856,0.0
21.84,2.348,-0.878,5.0
19.573,2.102,-0.898,1.0
17.705,1.898,-0.915,2.0
16.138,1.728,-0.925,0.0
14.774,1.58,-0.931,0.0
24.502,2.609,-0.861,0.0
21.812,2.319,-0.89,4.0
19.497,2.07,-0.906,1.0
17.688,1.876,-0.924,1.0
15.951,1.689,-0.924,0.0
14.676,1.552,-0.933,0.0
24.178,2.545,-0.863,0.0
21.777,2.289,-0.901,2.0
19.301,2.025,-0.908,0.0
17.578,1.842,-0.928,0.0
15.824,1.656,-0.925,0.0
14.565,1.522,-0.934,0.0
23.892,2.485,-0.866,0.0
21.603,2.243,-0.905,0.0
19.057,1.976,-0.906,0.0
17.286,1.789,-0.922,0.0
15.675,1.62,-0.925,0.0
14.512,1.498,-0.938,0.0
23.671,2.431,-0.87,0.0
21.152,2.169,-0.897,0.0
18.827,1.927,-0.905,0.0
17.076,1.745,-0.919,0.0
15.613,1.593,-0.929,0.0
14.428,1.47,-0.94,0.0
23.611,2.394,-0.879,0.0
20.912,2.117,-0.897,0.0
18.593,1.879,-0.902,0.0
16.956,1.711,-0.92,0.0
15.459,1.557,-0.927,0.0
14.32,1.44,-0.939,0.0
23.472,2.349,-0.884,0.0
20.658,2.063,-0.895,0.0
18.458,1.84,-0.904,0.0
16.778,1.67,-0.918,0.0
15.387,1.529,-0.929,0.0
14.314,1.42,-0.945,0.0
21.916,2.163,-0.835,0.0
20.701,2.039,-0.905,0.0
18.203,1.79,-0.899,0.0
16.688,1.638,-0.919,0.0
15.24,1.493,-0.926,0.0
14.155,1.385,-0.94,0.0
21.904,2.131,-0.843,0.0
20.604,2.0,-0.908,0.0
18.035,1.748,-0.897,0.0
16.599,1.606,-0.92,0.0
