X,Y,Z,Reflectivity
31.212,-1.173,1.787,43.0
31.214,-1.165,1.608,42.0
31.634,-1.175,2.508,4.0
31.088,-1.146,2.285,18.0
31.162,-1.142,2.11,48.0
31.213,-1.136,1.93,34.0
31.216,-1.128,1.751,32.0
31.238,-1.122,1.572,24.0
28.393,-1.014,2.217,78.0
28.373,-1.006,2.051,70.0
28.389,-0.999,1.888,60.0
31.244,-1.093,1.894,21.0
31.252,-1.086,1.714,31.0
31.292,-1.079,1.536,47.0
28.389,-0.973,2.181,75.0
28.387,-0.966,2.016,74.0
28.386,-0.96,1.852,72.0
28.383,-0.953,1.685,66.0
28.381,-0.946,1.52,69.0
38.583,-1.277,1.844,6.0
28.383,-0.933,2.144,77.0
28.385,-0.926,1.979,75.0
28.382,-0.919,1.815,68.0
28.374,-0.913,1.647,78.0
28.378,-0.906,1.483,73.0
38.53,-1.222,1.792,65.0
28.385,-0.894,2.107,80.0
28.379,-0.887,1.941,82.0
28.381,-0.881,1.777,75.0
28.373,-0.874,1.609,77.0
38.464,-1.176,1.959,21.0
38.583,-1.171,1.742,68.0
28.384,-0.855,2.068,78.0
28.381,-0.848,1.902,73.0
28.373,-0.841,1.737,73.0
28.371,-0.835,1.57,77.0
38.519,-1.126,1.909,45.0
38.644,-1.121,1.691,81.0
28.381,-0.817,2.028,79.0
28.374,-0.81,1.862,74.0
28.376,-0.804,1.698,69.0
28.378,-0.798,1.531,71.0
38.594,-1.076,1.858,51.0
38.644,-1.069,1.637,81.0
28.373,-0.779,1.987,76.0
28.375,-0.773,1.822,71.0
28.367,-0.766,1.657,67.0
28.371,-0.76,1.489,65.0
38.653,-1.028,1.805,30.0
38.711,-1.021,1.584,7.0
28.363,-0.741,1.944,73.0
28.371,-0.735,1.78,68.0
28.373,-0.729,1.615,70.0
38.649,-0.986,1.972,10.0
45.771,-1.157,2.07,20.0
45.706,-1.147,1.802,20.0
28.364,-0.705,1.902,72.0
28.366,-0.699,1.737,67.0
28.373,-0.693,1.572,72.0
40.419,-0.979,2.001,26.0
40.408,-0.97,1.765,28.0
40.413,-0.962,1.531,35.0
28.361,-0.669,1.858,71.0
28.371,-0.663,1.693,71.0
28.373,-0.657,1.528,65.0
40.397,-0.928,1.937,37.0
40.397,-0.92,1.703,38.0
40.413,-0.912,1.469,37.0
28.363,-0.633,1.813,76.0
28.366,-0.628,1.648,71.0
28.363,-0.622,1.483,53.0
40.42,-0.879,1.875,26.0
40.43,-0.871,1.641,26.0
40.444,-0.864,1.407,11.0
28.358,-0.599,1.768,77.0
28.362,-0.593,1.603,70.0
59.354,-1.231,3.009,16.0
45.688,-0.938,2.046,39.0
45.696,-0.93,1.781,55.0
45.728,-0.922,1.517,44.0
28.353,-0.565,1.721,77.0
28.357,-0.559,1.556,67.0
45.694,-0.893,2.242,50.0
45.745,-0.885,1.973,46.0
45.71,-0.876,1.706,43.0
64.304,-1.221,2.027,64.0
28.362,-0.532,1.675,75.0
28.367,-0.527,1.51,57.0
45.704,-0.84,2.166,71.0
45.896,-0.835,1.903,24.0
64.278,-1.158,2.292,84.0
64.313,-1.146,1.919,76.0
28.367,-0.499,1.627,83.0
45.662,-0.795,2.352,31.0
45.951,-0.792,2.1,26.0
59.196,-1.01,2.354,65.0
64.278,-1.085,2.182,86.0
64.315,-1.074,1.809,73.0
66.316,-1.093,3.689,30.0
45.649,-0.744,2.273,58.0
64.274,-1.036,2.825,22.0
59.232,-0.944,2.252,76.0
53.503,-0.844,1.723,71.0
59.473,-0.927,1.569,34.0
66.404,-1.021,3.576,9.0
46.001,-0.699,2.209,36.0
58.921,-0.885,2.485,93.0
59.251,-0.881,2.149,12.0
53.489,-0.786,1.628,75.0
59.429,-0.863,1.463,12.0
45.589,-0.652,2.374,26.0
58.326,-0.825,2.697,141.0
58.389,-0.816,2.359,170.0
53.523,-0.739,1.845,150.0
53.487,-0.73,1.533,91.0
20.145,-0.271,0.46,9.0
45.689,-0.606,2.297,49.0
58.248,-0.764,2.588,255.0
58.219,-0.754,2.246,255.0
53.504,-0.684,1.748,64.0
59.418,-0.75,1.594,16.0
20.132,-0.251,0.423,12.0
58.33,-0.715,2.826,11.0
58.303,-0.706,2.484,255.0
58.326,-0.697,2.144,158.0
53.494,-0.631,1.649,73.0
20.131,-0.234,0.503,11.0
20.135,-0.231,0.386,13.0
58.232,-0.657,2.712,255.0
58.306,-0.649,2.375,255.0
53.502,-0.587,1.867,22.0
53.428,-0.578,1.547,12.0
20.127,-0.214,0.465,15.0
20.17,-0.212,0.349,18.0
58.295,-0.603,2.606,255.0
58.243,-0.593,2.263,255.0
53.504,-0.537,1.767,73.0
20.148,-0.199,0.545,8.0
20.176,-0.196,0.428,25.0
53.463,-0.513,0.824,14.0
58.303,-0.549,2.495,255.0
58.274,-0.541,2.154,243.0
53.507,-0.489,1.665,100.0
20.138,-0.181,0.507,8.0
20.227,-0.179,0.391,13.0
66.522,-0.579,0.898,17.0
58.314,-0.497,2.383,255.0
53.529,-0.449,1.875,150.0
53.495,-0.442,1.561,22.0
20.169,-0.163,0.468,19.0
20.245,-0.161,0.352,25.0
20.213,-0.158,0.234,17.0
58.304,-0.447,2.269,255.0
53.515,-0.404,1.77,77.0
20.169,-0.149,0.549,8.0
20.199,-0.147,0.43,21.0
20.165,-0.144,0.311,16.0
20.155,-0.141,0.194,17.0
58.243,-0.399,2.153,255.0
20.17,-0.135,0.627,9.0
20.134,-0.133,0.509,16.0
20.114,-0.13,0.389,16.0
20.12,-0.128,0.271,18.0
20.146,-0.125,0.154,21.0
58.248,-0.354,2.038,255.0
20.128,-0.119,0.586,14.0
20.116,-0.117,0.468,19.0
20.122,-0.115,0.349,25.0
20.13,-0.112,0.232,22.0
20.13,-0.11,0.114,29.0
58.263,-0.31,1.924,255.0
20.112,-0.104,0.546,18.0
20.12,-0.102,0.429,27.0
20.113,-0.1,0.309,26.0
20.125,-0.098,0.192,26.0
20.135,-0.095,0.074,39.0
20.16,-0.093,0.625,12.0
20.139,-0.09,0.506,22.0
20.108,-0.088,0.388,32.0
20.123,-0.086,0.268,26.0
20.116,-0.083,0.15,28.0
20.135,-0.081,0.033,36.0
20.142,-0.079,0.583,17.0
20.123,-0.076,0.464,27.0
20.111,-0.074,0.347,29.0
20.109,-0.072,0.227,27.0
20.129,-0.07,0.11,38.0
20.124,-0.068,-0.007,38.0
20.152,-0.066,0.542,22.0
20.122,-0.063,0.423,29.0
20.121,-0.061,0.306,29.0
20.115,-0.059,0.186,31.0
20.136,-0.057,0.069,41.0
20.139,-0.056,-0.048,32.0
20.136,-0.053,0.5,27.0
20.115,-0.051,0.382,29.0
20.105,-0.049,0.264,28.0
20.112,-0.047,0.145,29.0
20.134,-0.046,0.028,36.0
20.15,-0.044,-0.089,33.0
20.135,-0.042,0.459,29.0
20.116,-0.04,0.341,30.0
20.114,-0.038,0.223,33.0
20.124,-0.036,0.104,38.0
20.138,-0.034,-0.013,35.0
20.165,-0.033,-0.131,25.0
20.129,-0.031,0.417,27.0
20.133,-0.029,0.3,27.0
20.114,-0.027,0.181,29.0
20.126,-0.026,0.062,31.0
20.176,-0.024,-0.055,22.0
20.165,-0.022,-0.173,14.0
20.12,-0.02,0.375,28.0
20.121,-0.019,0.257,26.0
20.128,-0.017,0.139,28.0
20.155,-0.016,0.02,12.0
20.192,-0.014,-0.098,16.0
20.23,-0.013,-0.216,3.0
20.132,-0.011,0.333,28.0
20.126,-0.009,0.215,27.0
20.132,-0.008,0.097,29.0
20.246,-0.007,-0.022,32.0
20.243,-0.005,-0.14,24.0
20.235,-0.004,-0.259,17.0
20.124,-0.002,0.29,28.0
20.128,-0.001,0.172,27.0
20.232,0.0,0.055,151.0
20.252,0.001,-0.065,151.0
20.241,0.002,-0.183,151.0
20.264,0.004,-0.302,85.0
20.13,0.005,0.248,28.0
20.142,0.006,0.13,28.0
20.248,0.007,0.012,152.0
20.263,0.009,-0.108,151.0
20.268,0.01,-0.226,151.0
20.264,0.011,-0.345,150.0
20.132,0.012,0.205,28.0
20.15,0.013,0.087,28.0
20.247,0.014,-0.03,152.0
20.256,0.016,-0.15,151.0
20.261,0.017,-0.269,151.0
20.265,0.018,-0.388,150.0
20.133,0.019,0.162,27.0
20.264,0.02,0.045,82.0
20.258,0.021,-0.073,152.0
20.241,0.022,-0.193,151.0
20.273,0.023,-0.312,150.0
20.269,0.024,-0.431,144.0
20.151,0.024,0.12,29.0
20.265,0.025,0.002,151.0
20.262,0.026,-0.116,150.0
20.257,0.027,-0.236,150.0
20.269,0.028,-0.355,150.0
20.27,0.029,-0.474,71.0
20.163,0.029,0.077,17.0
20.261,0.03,-0.04,60.0
20.263,0.031,-0.159,150.0
20.237,0.032,-0.279,51.0
20.243,0.033,-0.398,34.0
33.239,0.055,-0.848,3.0
20.293,0.034,0.035,11.0
20.258,0.034,-0.083,45.0
20.242,0.035,-0.202,150.0
20.262,0.036,-0.322,27.0
20.235,0.037,-0.441,19.0
20.246,0.037,-0.56,17.0
20.254,0.037,-0.008,7.0
20.247,0.038,-0.126,24.0
55.042,0.105,-0.666,8.0
20.228,0.039,-0.365,11.0
33.264,0.065,-0.795,2.0
20.233,0.04,-0.602,8.0
20.269,0.04,-0.051,8.0
20.227,0.04,-0.169,18.0
20.248,0.041,-0.288,2.0
20.228,0.041,-0.408,3.0
33.222,0.069,-0.865,6.0
20.239,0.042,-0.645,3.0
20.255,0.042,-0.094,24.0
20.254,0.042,-0.213,33.0
20.241,0.043,-0.331,2.0
20.246,0.043,-0.452,2.0
20.247,0.043,-0.57,2.0
20.239,0.044,-0.688,2.0
20.261,0.043,-0.137,23.0
20.254,0.043,-0.255,1.0
20.248,0.044,-0.374,1.0
33.256,0.073,-0.813,6.0
20.226,0.044,-0.613,2.0
20.246,0.045,-0.732,2.0
20.23,0.044,-0.18,16.0
20.253,0.044,-0.298,1.0
20.238,0.044,-0.417,1.0
33.215,0.073,-0.883,3.0
20.234,0.044,-0.656,2.0
20.246,0.044,-0.775,4.0
20.228,0.043,-0.223,13.0
20.235,0.043,-0.341,2.0
20.228,0.043,-0.459,2.0
20.239,0.044,-0.58,3.0
20.228,0.044,-0.698,3.0
20.251,0.044,-0.818,24.0
20.238,0.042,-0.266,2.0
20.249,0.042,-0.384,2.0
33.239,0.07,-0.826,7.0
20.228,0.042,-0.623,7.0
20.24,0.042,-0.742,6.0
20.243,0.042,-0.861,24.0
20.251,0.04,-0.309,5.0
20.241,0.04,-0.427,10.0
20.241,0.04,-0.545,13.0
20.231,0.04,-0.666,12.0
20.255,0.04,-0.785,23.0
20.227,0.04,-0.903,5.0
20.276,0.038,-0.351,27.0
20.254,0.038,-0.469,23.0
20.25,0.037,-0.588,20.0
20.215,0.037,-0.707,19.0
20.278,0.037,-0.829,67.0
20.159,0.036,-0.942,3.0
20.257,0.034,-0.393,34.0
33.245,0.056,-0.84,2.0
20.24,0.034,-0.63,43.0
20.244,0.033,-0.751,36.0
20.246,0.033,-0.869,28.0
20.023,0.032,-0.977,1.0
20.271,0.03,-0.436,83.0
20.27,0.03,-0.554,150.0
20.267,0.03,-0.673,75.0
20.262,0.029,-0.793,150.0
20.203,0.029,-0.909,2.0
18.236,0.025,-0.928,0.0
20.271,0.026,-0.478,150.0
20.268,0.025,-0.596,150.0
20.257,0.025,-0.714,150.0
20.268,0.024,-0.835,150.0
19.988,0.023,-0.941,3.0
20.304,0.023,-1.075,1.0
20.263,0.02,-0.519,150.0
20.26,0.019,-0.637,150.0
20.262,0.019,-0.756,150.0
20.261,0.018,-0.876,29.0
19.333,0.017,-0.95,0.0
16.947,0.014,-0.932,0.0
20.264,0.014,-0.56,150.0
20.267,0.013,-0.679,150.0
20.271,0.012,-0.798,74.0
20.092,0.011,-0.91,2.0
20.441,0.011,-1.046,0.0
16.434,0.008,-0.938,0.0
20.278,0.007,-0.602,63.0
20.254,0.006,-0.72,27.0
20.261,0.005,-0.839,24.0
19.536,0.004,-0.925,3.0
15.93,0.002,-0.941,0.0
20.242,0.0,-0.642,6.0
20.248,-0.001,-0.761,3.0
20.259,-0.002,-0.88,29.0
16.838,-0.003,-0.93,0.0
15.399,-0.004,-0.941,0.0
20.237,-0.008,-0.682,0.0
20.046,-0.01,-0.91,10.0
16.404,-0.01,-0.939,0.0
14.945,-0.01,-0.943,0.0
24.79,-0.022,-0.885,0.0
15.858,-0.017,-0.939,0.0
15.375,-0.025,-0.94,0.0
20.261,-0.039,-0.921,33.0
16.42,-0.034,-0.94,0.0
14.929,-0.032,-0.942,0.0
15.365,-0.05,-0.938,0.0
13.076,-0.045,-0.952,0.0
20.261,-0.074,-0.918,42.0
16.496,-0.063,-0.94,0.0
14.929,-0.058,-0.94,0.0
12.693,-0.051,-0.948,0.0
14.57,-0.066,-0.944,0.0
13.365,-0.062,-0.944,0.0
12.425,-0.059,-0.95,0.0
15.449,-0.08,-0.937,0.0
20.121,-0.106,-1.34,0.0
13.136,-0.07,-0.951,0.0
12.108,-0.066,-0.948,0.0
16.568,-0.096,-0.938,0.0
15.041,-0.088,-0.939,0.0
13.915,-0.083,-0.952,0.0
12.757,-0.077,-0.947,0.0
11.83,-0.073,-0.947,0.0
16.062,-0.105,-0.938,0.0
14.684,-0.097,-0.943,0.0
13.442,-0.09,-0.943,0.0
12.504,-0.085,-0.95,0.0
11.579,-0.08,-0.948,0.0
17.02,-0.122,-0.924,0.0
15.58,-0.114,-0.937,0.0
14.305,-0.106,-0.943,0.0
13.175,-0.099,-0.947,0.0
12.19,-0.093,-0.948,0.0
11.284,-0.087,-0.943,0.0
16.678,-0.133,-0.934,0.0
15.169,-0.123,-0.938,0.0
13.935,-0.114,-0.943,0.0
12.953,-0.108,-0.953,0.0
11.942,-0.101,-0.949,0.0
11.139,-0.095,-0.95,0.0
16.252,-0.143,-0.938,0.0
14.802,-0.132,-0.94,0.0
13.555,-0.123,-0.94,0.0
12.6,-0.116,-0.949,0.0
11.662,-0.108,-0.946,0.0
15.769,-0.153,-0.936,0.0
14.502,-0.142,-0.945,0.0
13.354,-0.132,-0.948,0.0
12.357,-0.124,-0.951,0.0
11.412,-0.116,-0.945,0.0
10.693,-0.11,-0.948,0.0
15.348,-0.162,-0.936,0.0
13.044,-0.141,-0.948,0.0
12.072,-0.132,-0.949,0.0
11.248,-0.125,-0.95,0.0
10.499,-0.118,-0.948,0.0
15.021,-0.172,-0.94,0.0
12.757,-0.15,-0.947,0.0
11.784,-0.14,-0.945,0.0
10.333,-0.125,-0.949,0.0
14.679,-0.182,-0.942,0.0
12.537,-0.159,-0.95,0.0
11.566,-0.148,-0.945,0.0
10.798,-0.14,-0.946,0.0
10.134,-0.133,-0.947,0.0
14.4,-0.193,-0.946,0.0
13.249,-0.179,-0.948,0.0
12.276,-0.168,-0.949,0.0
11.367,-0.157,-0.946,0.0
10.626,-0.148,-0.947,0.0
9.987,-0.141,-0.948,0.0
13.994,-0.201,-0.941,0.0
12.983,-0.188,-0.948,0.0
12.042,-0.177,-0.949,0.0
11.188,-0.166,-0.949,0.0
10.468,-0.157,-0.949,0.0
9.807,-0.148,-0.946,0.0
13.84,-0.213,-0.951,0.0
12.718,-0.198,-0.948,0.0
11.755,-0.184,-0.944,0.0
10.949,-0.173,-0.944,0.0
10.287,-0.165,-0.947,0.0
9.646,-0.156,-0.944,0.0
13.437,-0.221,-0.942,0.0
12.505,-0.207,-0.95,0.0
11.554,-0.193,-0.944,0.0
10.808,-0.183,-0.947,0.0
10.118,-0.173,-0.946,0.0
9.505,-0.164,-0.944,0.0
13.243,-0.231,-0.947,0.0
12.264,-0.216,-0.948,0.0
11.359,-0.202,-0.944,0.0
10.635,-0.191,-0.947,0.0
9.988,-0.181,-0.948,0.0
9.38,-0.172,-0.945,0.0
13.005,-0.241,-0.948,0.0
12.071,-0.226,-0.95,0.0
11.176,-0.211,-0.944,0.0
10.476,-0.2,-0.947,0.0
9.853,-0.189,-0.948,0.0
9.246,-0.179,-0.944,0.0
12.776,-0.251,-0.948,0.0
11.862,-0.235,-0.949,0.0
11.038,-0.221,-0.947,0.0
10.339,-0.208,-0.948,0.0
9.705,-0.197,-0.947,0.0
9.142,-0.187,-0.945,0.0
12.566,-0.261,-0.949,0.0
11.591,-0.243,-0.942,0.0
10.928,-0.231,-0.952,0.0
10.211,-0.217,-0.949,0.0
9.587,-0.206,-0.947,0.0
9.035,-0.195,-0.945,0.0
12.393,-0.271,-0.951,0.0
11.414,-0.252,-0.942,0.0
10.714,-0.238,-0.946,0.0
10.051,-0.225,-0.947,0.0
9.442,-0.213,-0.944,0.0
8.883,-0.202,-0.94,0.0
12.218,-0.282,-0.952,0.0
11.311,-0.263,-0.947,0.0
10.577,-0.248,-0.947,0.0
9.908,-0.234,-0.945,0.0
9.353,-0.222,-0.947,0.0
8.791,-0.211,-0.941,0.0
12.065,-0.292,-0.954,0.0
11.172,-0.273,-0.948,0.0
10.439,-0.257,-0.947,0.0
9.794,-0.243,-0.946,0.0
9.24,-0.231,-0.946,0.0
8.705,-0.219,-0.942,0.0
11.886,-0.302,-0.954,0.0
11.024,-0.282,-0.948,0.0
10.327,-0.266,-0.948,0.0
9.674,-0.251,-0.945,0.0
9.138,-0.239,-0.946,0.0
8.612,-0.227,-0.941,0.0
11.68,-0.311,-0.95,0.0
10.855,-0.291,-0.946,0.0
10.23,-0.276,-0.95,0.0
9.576,-0.26,-0.946,0.0
9.028,-0.247,-0.944,0.0
8.525,-0.235,-0.941,0.0
11.437,-0.318,-0.942,0.0
10.759,-0.301,-0.948,0.0
10.084,-0.284,-0.947,0.0
9.48,-0.269,-0.946,0.0
8.912,-0.255,-0.941,0.0
8.437,-0.243,-0.94,0.0
11.369,-0.33,-0.948,0.0
10.61,-0.31,-0.946,0.0
9.974,-0.294,-0.947,0.0
9.381,-0.278,-0.946,0.0
8.838,-0.264,-0.942,0.0
8.341,-0.251,-0.937,0.0
11.215,-0.339,-0.946,0.0
10.505,-0.32,-0.947,0.0
9.902,-0.304,-0.949,0.0
9.307,-0.287,-0.947,0.0
8.745,-0.272,-0.94,0.0
8.301,-0.26,-0.941,0.0
11.125,-0.351,-0.949,0.0
10.417,-0.33,-0.948,0.0
9.808,-0.313,-0.949,0.0
9.199,-0.295,-0.944,0.0
8.689,-0.281,-0.942,0.0
8.247,-0.269,-0.942,0.0
10.994,-0.36,-0.947,0.0
10.348,-0.341,-0.951,0.0
9.706,-0.322,-0.948,0.0
9.131,-0.305,-0.945,0.0
8.625,-0.29,-0.943,0.0
8.162,-0.276,-0.939,0.0
10.874,-0.37,-0.946,0.0
10.227,-0.35,-0.948,0.0
9.62,-0.332,-0.947,0.0
9.037,-0.313,-0.943,0.0
8.564,-0.299,-0.943,0.0
8.136,-0.286,-0.943,0.0
10.767,-0.38,-0.945,0.0
10.142,-0.36,-0.948,0.0
9.557,-0.342,-0.949,0.0
8.96,-0.322,-0.942,0.0
8.498,-0.307,-0.942,0.0
8.088,-0.294,-0.944,0.0
10.705,-0.392,-0.948,0.0
10.064,-0.37,-0.949,0.0
9.497,-0.352,-0.95,0.0
8.907,-0.332,-0.943,0.0
8.424,-0.316,-0.94,0.0
8.005,-0.302,-0.94,0.0
10.649,-0.404,-0.951,0.0
9.98,-0.38,-0.948,0.0
9.415,-0.361,-0.948,0.0
8.852,-0.341,-0.943,0.0
8.37,-0.325,-0.94,0.0
7.958,-0.311,-0.94,0.0
10.541,-0.413,-0.948,0.0
9.911,-0.391,-0.948,0.0
9.364,-0.371,-0.949,0.0
8.796,-0.351,-0.943,0.0
8.309,-0.333,-0.938,0.0
7.932,-0.32,-0.942,0.0
10.47,-0.424,-0.948,0.0
9.874,-0.402,-0.95,0.0
9.302,-0.381,-0.949,0.0
8.726,-0.359,-0.941,0.0
8.283,-0.343,-0.941,0.0
7.903,-0.329,-0.943,0.0
10.405,-0.435,-0.948,0.0
9.843,-0.413,-0.953,0.0
9.241,-0.39,-0.947,0.0
8.682,-0.369,-0.941,0.0
8.244,-0.352,-0.941,0.0
7.86,-0.338,-0.942,0.0
10.422,-0.449,-0.955,0.0
9.763,-0.423,-0.95,0.0
9.157,-0.399,-0.944,0.0
8.663,-0.379,-0.943,0.0
8.205,-0.361,-0.94,0.0
7.831,-0.347,-0.942,0.0
10.326,-0.458,-0.951,0.0
9.711,-0.433,-0.95,0.0
9.131,-0.409,-0.945,0.0
8.642,-0.39,-0.945,0.0
8.183,-0.371,-0.941,0.0
7.802,-0.355,-0.942,0.0
10.291,-0.47,-0.953,0.0
9.695,-0.445,-0.953,0.0
9.101,-0.42,-0.946,0.0
8.57,-0.397,-0.94,0.0
8.131,-0.379,-0.939,0.0
7.789,-0.365,-0.944,0.0
10.259,-0.482,-0.954,0.0
9.659,-0.456,-0.953,0.0
9.061,-0.43,-0.945,0.0
8.571,-0.409,-0.944,0.0
8.123,-0.389,-0.941,0.0
7.759,-0.374,-0.943,0.0
10.241,-0.494,-0.955,0.0
9.639,-0.467,-0.954,0.0
9.051,-0.441,-0.947,0.0
8.505,-0.416,-0.939,0.0
8.092,-0.398,-0.94,0.0
7.751,-0.383,-0.944,0.0
10.19,-0.505,-0.954,0.0
9.587,-0.477,-0.952,0.0
9.0,-0.45,-0.944,0.0
8.479,-0.426,-0.939,0.0
8.076,-0.408,-0.94,0.0
7.724,-0.392,-0.943,0.0
10.137,-0.515,-0.951,0.0
9.556,-0.488,-0.951,0.0
8.989,-0.461,-0.945,0.0
8.483,-0.437,-0.941,0.0
8.056,-0.417,-0.94,0.0
7.715,-0.401,-0.944,0.0
10.071,-0.525,-0.947,0.0
9.541,-0.499,-0.951,0.0
8.981,-0.472,-0.946,0.0
8.478,-0.448,-0.942,0.0
8.033,-0.426,-0.939,0.0
7.707,-0.411,-0.944,0.0
10.101,-0.539,-0.952,0.0
9.547,-0.512,-0.954,0.0
8.997,-0.484,-0.95,0.0
8.442,-0.457,-0.94,0.0
8.062,-0.438,-0.943,0.0
7.69,-0.42,-0.943,0.0
10.067,-0.55,-0.95,0.0
9.521,-0.522,-0.952,0.0
8.971,-0.494,-0.948,0.0
8.452,-0.468,-0.942,0.0
8.055,-0.448,-0.943,0.0
7.7,-0.43,-0.945,0.0
10.069,-0.563,-0.951,0.0
9.505,-0.533,-0.951,0.0
8.95,-0.504,-0.946,0.0
8.484,-0.48,-0.946,0.0
8.032,-0.456,-0.941,0.0
7.691,-0.439,-0.944,0.0
10.081,-0.576,-0.952,0.0
9.511,-0.546,-0.952,0.0
8.948,-0.515,-0.946,0.0
8.456,-0.489,-0.943,0.0
8.064,-0.468,-0.944,0.0
7.71,-0.45,-0.947,0.0
10.081,-0.588,-0.952,0.0
9.519,-0.558,-0.953,0.0
8.939,-0.526,-0.945,0.0
8.478,-0.501,-0.945,0.0
8.05,-0.478,-0.943,0.0
7.718,-0.46,-0.947,0.0
10.106,-0.602,-0.954,0.0
9.523,-0.569,-0.952,0.0
8.961,-0.538,-0.947,0.0
8.476,-0.511,-0.944,0.0
8.05,-0.487,-0.942,0.0
7.693,-0.467,-0.943,0.0
10.116,-0.615,-0.954,0.0
9.526,-0.581,-0.952,0.0
8.968,-0.549,-0.946,0.0
8.495,-0.522,-0.945,0.0
8.018,-0.495,-0.937,0.0
7.724,-0.479,-0.946,0.0
10.13,-0.627,-0.954,0.0
9.566,-0.595,-0.954,0.0
8.986,-0.561,-0.947,0.0
8.503,-0.533,-0.945,0.0
8.086,-0.509,-0.944,0.0
7.71,-0.487,-0.943,0.0
10.13,-0.64,-0.952,0.0
9.58,-0.607,-0.954,0.0
9.021,-0.574,-0.949,0.0
8.545,-0.545,-0.947,0.0
8.088,-0.518,-0.942,0.0
7.755,-0.499,-0.947,0.0
10.168,-0.654,-0.953,0.0
9.635,-0.622,-0.957,0.0
9.046,-0.586,-0.949,0.0
8.544,-0.555,-0.945,0.0
8.097,-0.528,-0.941,0.0
7.768,-0.509,-0.946,0.0
10.195,-0.667,-0.953,0.0
9.644,-0.633,-0.955,0.0
9.062,-0.597,-0.948,0.0
8.555,-0.566,-0.944,0.0
8.152,-0.541,-0.945,0.0
7.787,-0.519,-0.946,0.0
10.271,-0.684,-0.957,0.0
9.66,-0.645,-0.954,0.0
9.105,-0.61,-0.95,0.0
8.621,-0.58,-0.948,0.0
8.166,-0.551,-0.944,0.0
7.831,-0.53,-0.949,0.0
10.287,-0.696,-0.955,0.0
9.713,-0.659,-0.956,0.0
9.148,-0.623,-0.951,0.0
8.632,-0.59,-0.946,0.0
8.162,-0.56,-0.94,0.0
7.823,-0.538,-0.945,0.0
10.333,-0.71,-0.955,0.0
9.741,-0.672,-0.954,0.0
9.181,-0.635,-0.951,0.0
8.667,-0.602,-0.946,0.0
8.218,-0.572,-0.943,0.0
7.842,-0.548,-0.944,0.0
10.353,-0.723,-0.953,0.0
9.805,-0.687,-0.956,0.0
9.227,-0.648,-0.951,0.0
8.72,-0.615,-0.948,0.0
8.277,-0.585,-0.946,0.0
7.878,-0.559,-0.944,0.0
10.436,-0.739,-0.955,0.0
9.836,-0.699,-0.955,0.0
9.274,-0.661,-0.951,0.0
8.775,-0.627,-0.95,0.0
8.312,-0.596,-0.946,0.0
7.934,-0.571,-0.947,0.0
10.493,-0.754,-0.955,0.0
9.94,-0.716,-0.959,0.0
9.353,-0.676,-0.954,0.0
8.8,-0.638,-0.948,0.0
8.341,-0.607,-0.944,0.0
7.954,-0.58,-0.945,0.0
10.573,-0.77,-0.956,0.0
9.965,-0.728,-0.956,0.0
9.387,-0.688,-0.953,0.0
8.879,-0.652,-0.951,0.0
8.397,-0.619,-0.946,0.0
8.01,-0.592,-0.947,0.0
10.645,-0.786,-0.957,0.0
10.049,-0.744,-0.958,0.0
9.473,-0.703,-0.955,0.0
8.929,-0.665,-0.951,0.0
8.475,-0.633,-0.949,0.0
8.032,-0.601,-0.944,0.0
10.686,-0.799,-0.953,0.0
10.136,-0.76,-0.96,0.0
9.535,-0.717,-0.956,0.0
8.986,-0.677,-0.951,0.0
8.512,-0.643,-0.948,0.0
8.091,-0.613,-0.946,0.0
10.807,-0.818,-0.957,0.0
10.177,-0.772,-0.957,0.0
9.653,-0.734,-0.961,0.0
9.052,-0.69,-0.952,0.0
8.607,-0.658,-0.952,0.0
8.139,-0.624,-0.945,0.0
10.921,-0.836,-0.96,0.0
10.258,-0.787,-0.957,0.0
9.738,-0.749,-0.962,0.0
9.117,-0.703,-0.952,0.0
8.64,-0.668,-0.95,0.0
8.182,-0.634,-0.944,0.0
11.005,-0.852,-0.959,0.0
10.358,-0.804,-0.959,0.0
9.783,-0.761,-0.959,0.0
9.23,-0.72,-0.957,0.0
8.719,-0.682,-0.952,0.0
8.26,-0.647,-0.947,0.0
11.108,-0.869,-0.959,0.0
10.434,-0.818,-0.958,0.0
9.868,-0.776,-0.96,0.0
9.308,-0.733,-0.957,0.0
8.786,-0.694,-0.952,0.0
8.333,-0.66,-0.948,0.0
11.198,-0.885,-0.958,0.0
10.548,-0.835,-0.959,0.0
9.962,-0.791,-0.961,0.0
9.396,-0.748,-0.958,0.0
8.867,-0.707,-0.953,0.0
8.397,-0.671,-0.948,0.0
11.321,-0.903,-0.958,0.0
10.634,-0.85,-0.958,0.0
10.019,-0.803,-0.957,0.0
9.463,-0.76,-0.957,0.0
8.951,-0.721,-0.954,0.0
8.48,-0.684,-0.95,0.0
11.509,-0.927,-0.964,0.0
10.782,-0.87,-0.962,0.0
10.171,-0.822,-0.963,0.0
9.592,-0.777,-0.961,0.0
9.042,-0.734,-0.955,0.0
8.556,-0.696,-0.951,0.0
11.604,-0.943,-0.962,0.0
10.863,-0.884,-0.959,0.0
10.23,-0.834,-0.959,0.0
9.654,-0.789,-0.958,0.0
9.125,-0.747,-0.955,0.0
8.653,-0.71,-0.953,0.0
11.783,-0.965,-0.965,0.0
10.99,-0.902,-0.96,0.0
10.289,-0.846,-0.954,0.0
9.764,-0.804,-0.96,0.0
9.222,-0.761,-0.957,0.0
8.737,-0.723,-0.954,0.0
11.903,-0.982,-0.963,0.0
11.125,-0.92,-0.961,0.0
10.462,-0.867,-0.96,0.0
9.821,-0.815,-0.955,0.0
9.348,-0.777,-0.96,0.0
8.814,-0.734,-0.953,0.0
12.042,-1.001,-0.962,0.0
11.262,-0.938,-0.961,0.0
10.579,-0.883,-0.96,0.0
9.939,-0.831,-0.957,0.0
9.434,-0.79,-0.959,0.0
8.903,-0.747,-0.954,0.0
12.22,-1.023,-0.964,0.0
11.397,-0.956,-0.96,0.0
10.692,-0.898,-0.959,0.0
10.153,-0.854,-0.966,0.0
9.585,-0.808,-0.964,0.0
9.041,-0.763,-0.958,0.0
12.453,-1.049,-0.969,0.0
11.611,-0.98,-0.966,0.0
10.862,-0.918,-0.962,0.0
10.231,-0.866,-0.963,0.0
9.643,-0.817,-0.959,0.0
9.102,-0.773,-0.955,0.0
12.619,-1.069,-0.968,0.0
11.773,-0.999,-0.966,0.0
10.97,-0.932,-0.959,0.0
10.31,-0.877,-0.958,0.0
9.806,-0.836,-0.964,0.0
9.263,-0.791,-0.961,0.0
12.814,-1.091,-0.968,0.0
11.933,-1.018,-0.966,0.0
11.133,-0.951,-0.961,0.0
10.402,-0.89,-0.955,0.0
9.915,-0.849,-0.964,0.0
9.369,-0.804,-0.961,0.0
13.051,-1.117,-0.971,0.0
12.063,-1.034,-0.962,0.0
11.276,-0.968,-0.96,0.0
10.562,-0.907,-0.957,0.0
10.007,-0.861,-0.961,0.0
9.484,-0.817,-0.962,0.0
13.211,-1.136,-0.967,0.0
12.34,-1.062,-0.97,0.0
11.502,-0.991,-0.966,0.0
10.757,-0.928,-0.962,0.0
10.153,-0.877,-0.963,0.0
9.585,-0.829,-0.96,0.0
13.756,-1.187,-0.991,0.0
12.543,-1.084,-0.971,0.0
11.722,-1.014,-0.97,0.0
10.941,-0.947,-0.965,0.0
10.235,-0.887,-0.958,0.0
9.73,-0.844,-0.963,0.0
13.957,-1.209,-0.989,0.0
12.725,-1.103,-0.969,0.0
11.835,-1.027,-0.965,0.0
11.062,-0.961,-0.963,0.0
10.411,-0.905,-0.962,0.0
9.881,-0.86,-0.966,0.0
13.994,-1.215,-0.974,1.0
12.988,-1.129,-0.973,0.0
12.045,-1.048,-0.967,0.0
11.24,-0.979,-0.964,0.0
10.552,-0.92,-0.961,0.0
10.012,-0.874,-0.966,0.0
13.998,-1.219,-0.956,1.0
13.146,-1.146,-0.968,0.0
12.256,-1.069,-0.968,0.0
11.457,-1.0,-0.968,0.0
10.75,-0.939,-0.965,0.0
10.184,-0.89,-0.969,0.0
13.992,-1.221,-0.938,1.0
13.633,-1.19,-0.986,0.0
12.497,-1.092,-0.971,0.0
11.688,-1.022,-0.972,0.0
10.867,-0.951,-0.962,0.0
10.307,-0.903,-0.967,0.0
13.983,-1.222,-0.919,1.0
13.94,-1.219,-0.99,0.0
12.75,-1.115,-0.974,0.0
11.859,-1.038,-0.97,0.0
11.093,-0.972,-0.967,0.0
10.43,-0.914,-0.965,0.0
13.988,-1.224,-0.901,1.0
13.969,-1.223,-0.974,1.0
12.91,-1.13,-0.969,0.0
12.072,-1.058,-0.971,0.0
11.237,-0.985,-0.964,0.0
10.592,-0.929,-0.965,0.0
13.989,-1.224,-0.882,1.0
13.974,-1.224,-0.955,1.0
13.179,-1.154,-0.971,0.0
12.32,-1.08,-0.974,0.0
11.466,-1.005,-0.968,0.0
10.731,-0.941,-0.963,0.0
13.98,-1.224,-0.862,1.0
13.98,-1.224,-0.937,1.0
13.713,-1.201,-0.992,0.0
12.534,-1.098,-0.974,0.0
11.679,-1.024,-0.97,0.0
10.929,-0.958,-0.966,0.0
14.143,-1.237,-0.853,0.0
13.975,-1.223,-0.917,1.0
13.943,-1.22,-0.989,0.0
12.754,-1.117,-0.974,0.0
11.861,-1.039,-0.969,0.0
11.105,-0.973,-0.966,0.0
14.38,-1.257,-0.847,0.0
13.985,-1.223,-0.898,1.0
13.981,-1.222,-0.972,1.0
12.941,-1.132,-0.97,0.0
12.077,-1.056,-0.969,0.0
11.236,-0.983,-0.962,0.0
14.627,-1.277,-0.842,1.0
13.981,-1.221,-0.878,1.0
13.985,-1.221,-0.953,1.0
13.224,-1.155,-0.972,0.0
12.381,-1.081,-0.976,0.0
11.552,-1.009,-0.972,0.0
14.908,-1.299,-0.837,1.0
14.019,-1.221,-0.861,1.0
13.986,-1.219,-0.933,1.0
13.775,-1.2,-0.993,0.0
12.586,-1.096,-0.974,0.0
11.734,-1.022,-0.971,0.0
15.181,-1.32,-0.83,1.0
14.244,-1.238,-0.854,0.0
13.995,-1.216,-0.913,1.0
13.962,-1.213,-0.986,0.0
12.797,-1.112,-0.972,0.0
11.943,-1.037,-0.97,0.0
15.442,-1.338,-0.822,1.0
14.466,-1.253,-0.846,1.0
13.994,-1.212,-0.893,1.0
13.992,-1.212,-0.968,1.0
13.08,-1.132,-0.974,0.0
12.204,-1.056,-0.974,0.0
15.711,-1.357,-0.814,1.0
14.765,-1.275,-0.843,1.0
14.01,-1.209,-0.874,1.0
14.004,-1.208,-0.949,1.0
13.438,-1.159,-0.981,0.0
12.45,-1.073,-0.975,0.0
16.072,-1.383,-0.809,1.0
15.036,-1.293,-0.836,1.0
14.079,-1.21,-0.857,0.0
14.024,-1.205,-0.93,1.0
13.938,-1.197,-0.998,0.0
12.696,-1.09,-0.976,0.0
16.323,-1.398,-0.798,2.0
15.312,-1.311,-0.829,1.0
14.327,-1.226,-0.851,0.0
14.019,-1.199,-0.909,1.0
14.027,-1.199,-0.983,1.0
12.959,-1.107,-0.977,0.0
16.725,-1.426,-0.793,1.0
15.531,-1.323,-0.818,1.0
14.58,-1.241,-0.845,0.0
14.028,-1.193,-0.888,1.0
14.052,-1.194,-0.964,1.0
13.221,-1.123,-0.977,0.0
17.236,-1.461,-0.792,1.0
15.855,-1.343,-0.812,1.0
14.883,-1.259,-0.841,0.0
14.047,-1.188,-0.869,1.0
14.049,-1.187,-0.943,1.0
13.81,-1.166,-1.0,0.0
17.644,-1.486,-0.785,0.0
16.19,-1.362,-0.805,1.0
15.231,-1.281,-0.838,1.0
14.184,-1.191,-0.856,0.0
14.055,-1.179,-0.923,1.0
14.052,-1.178,-0.997,0.0
18.348,-1.536,-0.789,1.0
16.494,-1.379,-0.796,1.0
15.463,-1.291,-0.828,1.0
14.481,-1.208,-0.853,0.0
14.09,-1.174,-0.904,1.0
14.081,-1.172,-0.978,1.0
18.827,-1.564,-0.782,2.0
16.954,-1.407,-0.793,0.0
15.713,-1.302,-0.818,1.0
14.689,-1.216,-0.843,0.0
14.098,-1.166,-0.884,1.0
14.101,-1.165,-0.958,1.0
19.285,-1.59,-0.772,1.0
17.427,-1.435,-0.79,0.0
16.007,-1.316,-0.809,1.0
15.063,-1.237,-0.843,0.0
14.162,-1.162,-0.867,1.0
14.117,-1.156,-0.939,1.0
20.112,-1.644,-0.776,1.0
18.075,-1.476,-0.792,0.0
16.374,-1.335,-0.804,1.0
15.317,-1.247,-0.834,1.0
14.343,-1.166,-0.857,0.0
14.131,-1.147,-0.919,1.0
20.501,-1.661,-0.761,1.0
18.477,-1.495,-0.783,1.0
16.775,-1.355,-0.799,1.0
15.598,-1.258,-0.827,1.0
14.621,-1.177,-0.852,0.0
14.142,-1.137,-0.899,1.0
21.223,-1.704,-0.757,1.0
19.124,-1.532,-0.782,1.0
17.176,-1.374,-0.793,0.0
15.83,-1.264,-0.816,1.0
14.894,-1.187,-0.846,1.0
14.185,-1.129,-0.88,1.0
22.022,-1.749,-0.753,1.0
19.71,-1.563,-0.777,0.0
17.746,-1.405,-0.793,0.0
16.264,-1.285,-0.814,1.0
15.203,-1.199,-0.841,1.0
14.27,-1.123,-0.865,0.0
23.142,-1.818,-0.757,5.0
20.273,-1.59,-0.77,2.0
18.292,-1.432,-0.791,1.0
16.564,-1.294,-0.805,1.0
15.469,-1.206,-0.833,1.0
14.53,-1.131,-0.859,0.0
23.76,-1.845,-0.743,10.0
20.956,-1.624,-0.765,1.0
18.741,-1.45,-0.783,0.0
16.983,-1.311,-0.8,1.0
15.715,-1.211,-0.824,1.0
14.756,-1.134,-0.851,0.0
23.942,-1.837,-0.714,15.0
21.665,-1.659,-0.76,1.0
19.439,-1.485,-0.784,0.0
17.375,-1.324,-0.794,2.0
16.049,-1.22,-0.818,1.0
15.133,-1.148,-0.851,1.0
24.331,-1.843,-0.691,14.0
22.467,-1.698,-0.756,1.0
20.0,-1.508,-0.778,2.0
18.013,-1.355,-0.797,1.0
16.366,-1.228,-0.81,1.0
15.32,-1.147,-0.839,1.0
24.881,-1.859,-0.67,6.0
23.63,-1.761,-0.761,5.0
20.701,-1.539,-0.776,2.0
18.434,-1.367,-0.789,1.0
17.018,-1.259,-0.819,2.0
15.584,-1.15,-0.832,0.0
27.747,-2.044,-0.709,1.0
23.815,-1.749,-0.733,19.0
21.268,-1.558,-0.767,2.0
19.055,-1.392,-0.789,1.0
17.164,-1.251,-0.801,6.0
15.84,-1.152,-0.823,1.0
28.802,-2.09,-0.695,2.0
24.054,-1.74,-0.707,13.0
22.098,-1.594,-0.766,1.0
19.7,-1.417,-0.788,0.0
17.719,-1.271,-0.802,1.0
16.225,-1.161,-0.82,1.0
30.235,-2.159,-0.687,9.0
24.491,-1.743,-0.685,14.0
23.031,-1.635,-0.766,3.0
20.128,-1.424,-0.777,1.0
18.13,-1.279,-0.795,2.0
16.519,-1.162,-0.812,1.0
30.692,-2.155,-0.655,10.0
24.532,-1.717,-0.652,12.0
23.719,-1.655,-0.756,7.0
20.778,-1.445,-0.773,0.0
18.723,-1.298,-0.796,0.0
16.921,-1.169,-0.808,1.0
30.641,-2.113,-0.612,4.0
24.518,-1.686,-0.619,19.0
23.904,-1.638,-0.729,13.0
21.374,-1.46,-0.766,0.0
19.191,-1.306,-0.789,0.0
17.291,-1.173,-0.802,1.0
24.619,-1.667,-0.458,13.0
24.463,-1.651,-0.584,25.0
24.154,-1.624,-0.704,19.0
22.275,-1.493,-0.769,0.0
19.873,-1.327,-0.791,1.0
17.925,-1.193,-0.808,0.0
24.52,-1.628,-0.423,28.0
24.483,-1.62,-0.552,34.0
24.384,-1.607,-0.678,25.0
23.36,-1.534,-0.775,4.0
20.481,-1.34,-0.787,1.0
18.321,-1.194,-0.801,2.0
24.535,-1.596,-0.391,51.0
24.486,-1.587,-0.519,41.0
24.411,-1.576,-0.646,29.0
23.707,-1.525,-0.755,10.0
20.904,-1.339,-0.776,0.0
18.693,-1.193,-0.793,1.0
24.511,-1.561,-0.359,59.0
24.488,-1.553,-0.488,49.0
24.411,-1.542,-0.615,25.0
23.87,-1.502,-0.73,14.0
21.518,-1.348,-0.771,0.0
19.359,-1.209,-0.796,0.0
24.511,-1.526,-0.327,76.0
24.501,-1.519,-0.457,44.0
24.452,-1.51,-0.585,35.0
24.147,-1.485,-0.708,16.0
22.361,-1.369,-0.773,1.0
19.848,-1.21,-0.791,0.0
24.504,-1.49,-0.296,59.0
24.507,-1.484,-0.425,78.0
24.473,-1.475,-0.554,35.0
24.335,-1.46,-0.682,25.0
23.459,-1.402,-0.782,5.0
20.442,-1.216,-0.789,2.0
24.517,-1.455,-0.266,79.0
24.508,-1.448,-0.395,47.0
24.484,-1.439,-0.524,42.0
24.378,-1.426,-0.653,28.0
23.723,-1.381,-0.761,12.0
20.933,-1.214,-0.783,2.0
24.521,-1.418,-0.236,63.0
24.511,-1.41,-0.365,64.0
24.511,-1.403,-0.495,47.0
24.425,-1.392,-0.625,27.0
23.882,-1.354,-0.738,14.0
21.591,-1.218,-0.781,1.0
24.554,-1.382,-0.207,43.0
24.546,-1.374,-0.336,43.0
24.547,-1.367,-0.466,38.0
24.461,-1.355,-0.597,28.0
24.094,-1.328,-0.716,16.0
22.185,-1.217,-0.777,2.0
24.607,-1.346,-0.178,4.0
24.568,-1.336,-0.308,19.0
24.573,-1.329,-0.438,12.0
24.508,-1.318,-0.569,23.0
24.324,-1.302,-0.694,18.0
23.08,-1.229,-0.781,5.0
65.597,-3.481,-0.4,5.0
46.503,-2.453,-0.53,4.0
37.964,-1.992,-0.634,7.0
30.574,-1.595,-0.676,27.0
24.485,-1.271,-0.671,22.0
23.656,-1.221,-0.774,9.0
65.734,-3.382,-0.327,4.0
47.569,-2.433,-0.489,1.0
38.014,-1.932,-0.592,11.0
30.679,-1.55,-0.644,28.0
28.345,-1.424,-0.745,3.0
23.838,-1.19,-0.753,14.0
69.083,-3.438,-0.268,0.0
31.309,-1.548,-0.287,8.0
31.261,-1.536,-0.452,22.0
30.862,-1.507,-0.614,27.0
28.732,-1.394,-0.724,2.0
24.003,-1.157,-0.732,16.0
31.316,-1.504,-0.087,6.0
31.208,-1.489,-0.252,37.0
31.204,-1.479,-0.418,45.0
31.035,-1.462,-0.584,32.0
30.363,-1.421,-0.733,10.0
24.337,-1.131,-0.717,14.0
31.242,-1.447,-0.054,39.0
31.191,-1.434,-0.22,49.0
31.179,-1.424,-0.385,45.0
31.12,-1.412,-0.554,45.0
30.52,-1.375,-0.705,22.0
24.811,-1.11,-0.706,5.0
31.213,-1.391,-0.022,59.0
28.469,-1.259,-0.172,49.0
28.475,-1.25,-0.323,58.0
28.46,-1.24,-0.478,56.0
28.448,-1.231,-0.629,58.0
28.269,-1.214,-0.776,7.0
28.449,-1.216,0.007,83.0
28.445,-1.207,-0.143,112.0
28.43,-1.197,-0.295,105.0
28.447,-1.188,-0.449,109.0
28.459,-1.18,-0.601,128.0
28.429,-1.169,-0.752,51.0
28.445,-1.164,0.035,151.0
28.451,-1.155,-0.116,130.0
28.444,-1.146,-0.268,70.0
28.458,-1.137,-0.423,61.0
28.477,-1.128,-0.575,58.0
28.482,-1.12,-0.727,45.0
28.466,-1.113,0.061,65.0
31.283,-1.213,-0.099,28.0
31.281,-1.203,-0.265,36.0
31.293,-1.193,-0.436,41.0
31.003,-1.171,-0.598,27.0
30.419,-1.14,-0.749,9.0
31.32,-1.166,0.096,45.0
31.336,-1.156,-0.07,23.0
31.385,-1.148,-0.238,1.0
44.962,-1.63,-0.587,8.0
31.262,-1.122,-0.575,25.0
30.465,-1.083,-0.723,27.0
80.567,-2.849,0.318,22.0
81.231,-2.845,-0.113,32.0
56.883,-1.973,-0.383,1.0
38.715,-1.329,-0.472,11.0
37.965,-1.291,-0.666,6.0
30.516,-1.027,-0.699,32.0
38.761,-1.296,0.186,9.0
38.721,-1.281,-0.021,41.0
38.706,-1.268,-0.228,44.0
38.65,-1.253,-0.439,31.0
37.981,-1.218,-0.635,14.0
30.579,-0.971,-0.675,34.0
38.667,-1.219,0.217,66.0
38.661,-1.205,0.009,66.0
38.647,-1.191,-0.197,66.0
38.622,-1.177,-0.408,42.0
38.077,-1.148,-0.606,23.0
30.745,-0.917,-0.655,33.0
38.653,-1.143,0.246,82.0
38.65,-1.13,0.039,75.0
38.673,-1.117,-0.168,101.0
38.649,-1.103,-0.379,52.0
38.266,-1.079,-0.581,25.0
30.946,-0.862,-0.636,31.0
38.645,-1.067,0.275,72.0
38.661,-1.054,0.068,68.0
38.674,-1.041,-0.139,49.0
38.693,-1.028,-0.351,51.0
38.443,-1.008,-0.556,19.0
31.229,-0.808,-0.619,25.0
38.715,-0.992,0.303,32.0
38.755,-0.979,0.096,8.0
38.812,-0.967,-0.112,10.0
40.351,-0.991,-0.338,33.0
38.589,-0.934,-0.531,21.0
31.485,-0.751,-0.603,9.0
40.416,-0.954,0.345,42.0
40.409,-0.939,0.127,46.0
40.414,-0.925,-0.09,55.0
40.411,-0.911,-0.311,28.0
0.0,0.0,0.0,0.0
0.0,0.0,0.0,0.0
38.387,-0.828,0.352,53.0
38.373,-0.814,0.145,42.0
38.377,-0.801,-0.061,14.0
45.56,-0.934,-0.322,14.0
44.979,-0.906,-0.561,31.0
37.926,-0.751,-0.678,16.0
52.992,-1.035,0.519,34.0
52.998,-1.015,0.233,23.0
53.002,-0.997,-0.052,6.0
52.928,-0.977,-0.343,57.0
45.119,-0.817,-0.536,23.0
38.01,-0.674,-0.657,22.0
176.661,-3.084,1.834,15.0
20.127,-0.344,0.1,15.0
20.129,-0.337,-0.008,36.0
59.462,-0.974,-0.352,9.0
45.362,-0.728,-0.514,16.0
38.125,-0.598,-0.638,20.0
20.134,-0.309,0.22,11.0
20.122,-0.302,0.11,13.0
59.521,-0.874,0.006,18.0
59.448,-0.852,-0.321,1.0
52.737,-0.737,-0.57,8.0
38.363,-0.522,-0.622,14.0
20.129,-0.268,0.23,11.0
20.16,-0.261,0.121,4.0
59.568,-0.751,0.035,43.0
56.243,-0.689,-0.276,0.0
52.845,-0.628,-0.546,12.0
38.58,-0.445,-0.608,14.0
64.342,-0.722,0.765,8.0
64.337,-0.699,0.416,20.0
56.199,-0.59,0.059,1.0
56.239,-0.571,-0.251,6.0
53.025,-0.519,-0.524,6.0
20.179,-0.19,-0.309,11.0
64.352,-0.587,0.794,35.0
64.235,-0.563,0.443,1.0
56.252,-0.472,0.083,6.0
20.187,-0.162,-0.081,10.0
20.158,-0.155,-0.191,12.0
20.145,-0.147,-0.3,34.0
20.151,-0.14,0.256,17.0
20.143,-0.133,0.147,18.0
20.136,-0.126,0.037,29.0
20.153,-0.119,-0.073,26.0
20.142,-0.112,-0.183,30.0
20.14,-0.104,-0.293,39.0
20.124,-0.097,0.263,28.0
20.123,-0.09,0.154,27.0
20.128,-0.083,0.044,36.0
20.147,-0.076,-0.067,29.0
20.144,-0.069,-0.176,35.0
20.15,-0.061,-0.286,26.0
20.118,-0.054,0.27,31.0
20.106,-0.047,0.16,36.0
20.132,-0.04,0.05,40.0
20.125,-0.033,-0.06,29.0
20.182,-0.026,-0.17,24.0
20.189,-0.019,-0.281,6.0
20.126,-0.011,0.276,27.0
20.126,-0.004,0.166,28.0
20.201,0.002,0.056,110.0
20.251,0.009,-0.055,151.0
20.252,0.016,-0.166,151.0
20.263,0.023,-0.277,150.0
20.136,0.031,0.281,30.0
20.144,0.038,0.171,27.0
20.168,0.045,0.061,18.0
20.204,0.052,-0.05,29.0
20.215,0.06,-0.161,26.0
20.231,0.067,-0.272,1.0
20.151,0.074,0.285,28.0
20.154,0.081,0.175,28.0
20.183,0.089,0.065,35.0
20.183,0.096,-0.046,32.0
20.174,0.103,-0.157,36.0
20.187,0.11,-0.267,28.0
20.172,0.117,0.289,29.0
20.172,0.125,0.179,25.0
20.217,0.132,0.068,29.0
20.204,0.139,-0.043,24.0
20.183,0.146,-0.154,30.0
20.176,0.153,-0.264,36.0
20.252,0.162,0.293,27.0
20.292,0.169,0.182,27.0
20.317,0.176,0.071,33.0
20.305,0.183,-0.041,18.0
20.206,0.19,-0.152,12.0
20.184,0.197,-0.262,25.0
20.29,0.205,0.296,28.0
20.296,0.213,0.184,25.0
20.304,0.22,0.073,11.0
0.0,0.0,0.0,0.0
0.0,0.0,0.0,0.0
20.198,0.24,-0.261,8.0
20.296,0.249,0.297,18.0
20.338,0.257,0.186,0.0
99.568,1.297,0.364,6.0
0.0,0.0,0.0,0.0
0.0,0.0,0.0,0.0
0.0,0.0,0.0,0.0
194.862,2.821,2.86,22.0
0.0,0.0,0.0,0.0
99.678,1.512,0.366,5.0
99.828,1.55,-0.192,1.0
0.0,0.0,0.0,0.0
0.0,0.0,0.0,0.0
194.88,3.239,2.858,16.0
0.0,0.0,0.0,0.0
99.803,1.726,0.364,7.0
100.08,1.766,-0.196,1.0
0.0,0.0,0.0,0.0
0.0,0.0,0.0,0.0
0.0,0.0,0.0,0.0
102.958,1.964,0.937,4.0
99.865,1.939,0.357,5.0
99.993,1.976,-0.203,1.0
0.0,0.0,0.0,0.0
0.0,0.0,0.0,0.0
195.597,4.089,2.841,15.0
0.0,0.0,0.0,0.0
100.228,2.162,0.348,1.0
100.084,2.193,-0.214,9.0
0.0,0.0,0.0,0.0
0.0,0.0,0.0,0.0
195.273,4.498,2.811,22.0
0.0,0.0,0.0,0.0
100.262,2.377,0.335,2.0
0.0,0.0,0.0,0.0
0.0,0.0,0.0,0.0
0.0,0.0,0.0,0.0
195.364,4.913,2.78,20.0
103.131,2.629,0.897,14.0
0.0,0.0,0.0,0.0
0.0,0.0,0.0,0.0
0.0,0.0,0.0,0.0
0.0,0.0,0.0,0.0
195.407,5.33,2.741,21.0
0.0,0.0,0.0,0.0
0.0,0.0,0.0,0.0
0.0,0.0,0.0,0.0
68.958,1.972,-0.567,5.0
0.0,0.0,0.0,0.0
195.422,5.74,2.695,12.0
195.976,5.822,1.616,18.0
196.264,5.894,0.53,9.0
0.0,0.0,0.0,0.0
68.981,2.116,-0.585,2.0
0.0,0.0,0.0,0.0
195.349,6.145,2.641,11.0
196.187,6.234,1.563,24.0
196.307,6.301,0.473,11.0
0.0,0.0,0.0,0.0
68.794,2.253,-0.604,0.0
0.0,0.0,0.0,0.0
195.838,6.566,2.586,8.0
196.333,6.645,1.502,25.0
0.0,0.0,0.0,0.0
0.0,0.0,0.0,0.0
68.996,2.402,-0.629,1.0
26.418,0.928,-0.388,0.0
195.925,6.977,2.519,17.0
196.4,7.056,1.432,26.0
0.0,0.0,0.0,0.0
0.0,0.0,0.0,0.0
0.0,0.0,0.0,0.0
0.0,0.0,0.0,0.0
195.119,7.35,2.434,26.0
195.155,7.412,1.348,9.0
0.0,0.0,0.0,0.0
0.0,0.0,0.0,0.0
0.0,0.0,0.0,0.0
0.0,0.0,0.0,0.0
203.967,8.096,2.459,7.0
196.623,7.866,1.274,25.0
0.0,0.0,0.0,0.0
0.0,0.0,0.0,0.0
0.0,0.0,0.0,0.0
0.0,0.0,0.0,0.0
0.0,0.0,0.0,0.0
196.701,8.271,1.184,33.0
0.0,0.0,0.0,0.0
0.0,0.0,0.0,0.0
0.0,0.0,0.0,0.0
0.0,0.0,0.0,0.0
195.539,8.551,2.173,44.0
196.774,8.665,1.088,20.0
0.0,0.0,0.0,0.0
0.0,0.0,0.0,0.0
0.0,0.0,0.0,0.0
42.656,1.929,-0.722,1.0
0.0,0.0,0.0,0.0
197.018,9.066,0.985,36.0
0.0,0.0,0.0,0.0
0.0,0.0,0.0,0.0
0.0,0.0,0.0,0.0
42.453,2.005,-0.742,0.0
0.0,0.0,0.0,0.0
197.161,9.462,0.873,28.0
0.0,0.0,0.0,0.0
0.0,0.0,0.0,0.0
0.0,0.0,0.0,0.0
41.62,2.046,-0.752,0.0
197.773,9.814,1.867,23.0
197.247,9.847,0.757,30.0
0.0,0.0,0.0,0.0
68.931,3.481,-0.514,4.0
0.0,0.0,0.0,0.0
0.0,0.0,0.0,0.0
197.161,10.167,1.738,8.0
0.0,0.0,0.0,0.0
0.0,0.0,0.0,0.0
68.941,3.614,-0.559,2.0
0.0,0.0,0.0,0.0
0.0,0.0,0.0,0.0
197.067,10.535,1.609,16.0
195.929,10.526,0.5,6.0
0.0,0.0,0.0,0.0
0.0,0.0,0.0,0.0
0.0,0.0,0.0,0.0
37.907,2.079,-0.758,0.0
196.122,10.854,1.465,19.0
0.0,0.0,0.0,0.0
0.0,0.0,0.0,0.0
0.0,0.0,0.0,0.0
0.0,0.0,0.0,0.0
38.192,2.166,-0.792,0.0
197.468,11.294,1.333,33.0
0.0,0.0,0.0,0.0
0.0,0.0,0.0,0.0
0.0,0.0,0.0,0.0
0.0,0.0,0.0,0.0
37.197,2.178,-0.799,0.0
197.537,11.663,1.185,35.0
0.0,0.0,0.0,0.0
0.0,0.0,0.0,0.0
0.0,0.0,0.0,0.0
0.0,0.0,0.0,0.0
35.674,2.154,-0.794,0.0
0.0,0.0,0.0,0.0
0.0,0.0,0.0,0.0
0.0,0.0,0.0,0.0
0.0,0.0,0.0,0.0
0.0,0.0,0.0,0.0
35.072,2.18,-0.809,0.0
155.24,9.723,0.683,9.0
0.0,0.0,0.0,0.0
68.848,4.347,-0.473,1.0
0.0,0.0,0.0,0.0
41.248,2.626,-0.753,0.0
33.373,2.133,-0.797,0.0
154.964,9.979,0.551,39.0
0.0,0.0,0.0,0.0
69.011,4.478,-0.533,3.0
0.0,0.0,0.0,0.0
39.152,2.561,-0.748,0.0
32.927,2.162,-0.815,1.0
154.96,10.247,0.416,152.0
0.0,0.0,0.0,0.0
0.0,0.0,0.0,0.0
0.0,0.0,0.0,0.0
37.657,2.527,-0.753,0.0
32.328,2.178,-0.83,1.0
154.936,10.51,0.276,150.0
0.0,0.0,0.0,0.0
0.0,0.0,0.0,0.0
0.0,0.0,0.0,0.0
0.0,0.0,0.0,0.0
31.693,2.188,-0.843,0.0
0.0,0.0,0.0,0.0
0.0,0.0,0.0,0.0
0.0,0.0,0.0,0.0
0.0,0.0,0.0,0.0
0.0,0.0,0.0,0.0
30.223,2.137,-0.832,0.0
0.0,0.0,0.0,0.0
0.0,0.0,0.0,0.0
0.0,0.0,0.0,0.0
0.0,0.0,0.0,0.0
35.187,2.536,-0.804,0.0
29.92,2.163,-0.853,0.0
0.0,0.0,0.0,0.0
0.0,0.0,0.0,0.0
0.0,0.0,0.0,0.0
0.0,0.0,0.0,0.0
33.231,2.447,-0.792,0.0
29.196,2.157,-0.861,0.0
0.0,0.0,0.0,0.0
0.0,0.0,0.0,0.0
0.0,0.0,0.0,0.0
0.0,0.0,0.0,0.0
32.974,2.479,-0.82,1.0
28.321,2.136,-0.865,0.0
0.0,0.0,0.0,0.0
0.0,0.0,0.0,0.0
0.0,0.0,0.0,0.0
37.967,2.904,-0.768,0.0
32.49,2.492,-0.841,0.0
27.524,2.118,-0.869,0.0
0.0,0.0,0.0,0.0
0.0,0.0,0.0,0.0
0.0,0.0,0.0,0.0
0.0,0.0,0.0,0.0
31.419,2.457,-0.847,0.0
26.758,2.098,-0.874,0.0
0.0,0.0,0.0,0.0
0.0,0.0,0.0,0.0
0.0,0.0,0.0,0.0
35.242,2.799,-0.788,0.0
29.823,2.375,-0.836,0.0
26.02,2.077,-0.878,0.0
68.886,5.526,-0.434,1.0
0.0,0.0,0.0,0.0
41.119,3.315,-0.727,0.0
33.106,2.676,-0.777,0.0
29.143,2.362,-0.85,0.0
24.902,2.023,-0.868,0.0
68.977,5.631,-0.512,2.0
0.0,0.0,0.0,0.0
38.856,3.187,-0.73,0.0
32.787,2.695,-0.806,1.0
28.192,2.323,-0.854,0.0
24.426,2.018,-0.879,1.0
0.0,0.0,0.0,0.0
0.0,0.0,0.0,0.0
38.035,3.17,-0.758,0.0
31.882,2.664,-0.82,1.0
27.436,2.298,-0.862,0.0
23.866,2.004,-0.886,0.0
0.0,0.0,0.0,0.0
0.0,0.0,0.0,0.0
37.192,3.149,-0.785,0.0
30.847,2.618,-0.83,0.0
26.592,2.262,-0.867,0.0
21.95,1.871,-0.841,1.0
0.0,0.0,0.0,0.0
0.0,0.0,0.0,0.0
35.626,3.062,-0.794,0.0
30.387,2.617,-0.853,1.0
25.806,2.228,-0.872,0.0
21.882,1.893,-0.864,7.0
0.0,0.0,0.0,0.0
41.309,3.595,-0.735,0.0
33.495,2.92,-0.787,0.0
29.0,2.534,-0.849,0.0
24.84,2.175,-0.869,0.0
21.814,1.914,-0.888,8.0
0.0,0.0,0.0,0.0
39.415,3.477,-0.748,0.0
32.803,2.899,-0.81,0.0
27.916,2.472,-0.851,0.0
24.243,2.151,-0.878,1.0
21.772,1.936,-0.913,3.0
0.0,0.0,0.0,0.0
0.0,0.0,0.0,0.0
31.376,2.809,-0.813,0.0
27.104,2.431,-0.86,0.0
23.711,2.131,-0.888,0.0
21.027,1.894,-0.908,0.0
0.0,0.0,0.0,0.0
0.0,0.0,0.0,0.0
30.658,2.779,-0.833,0.0
26.217,2.381,-0.865,0.0
21.92,1.994,-0.848,0.0
20.554,1.873,-0.913,0.0
0.0,0.0,0.0,0.0
34.891,3.194,-0.792,0.0
29.469,2.703,-0.837,0.0
25.367,2.33,-0.868,0.0
21.858,2.012,-0.873,0.0
19.68,1.814,-0.899,0.0
0.0,0.0,0.0,0.0
33.034,3.058,-0.791,0.0
28.454,2.639,-0.844,0.0
24.482,2.274,-0.869,0.0
21.754,2.024,-0.897,1.0
19.412,1.809,-0.912,0.0
38.139,3.564,-0.744,0.0
31.445,2.943,-0.793,0.0
27.539,2.581,-0.852,0.0
23.846,2.239,-0.877,0.0
21.281,2.001,-0.905,0.0
18.909,1.781,-0.912,0.0
37.172,3.509,-0.774,0.0
30.788,2.911,-0.816,0.0
26.675,2.526,-0.86,0.0
23.201,2.2,-0.884,0.0
20.675,1.964,-0.906,0.0
18.398,1.75,-0.911,0.0
35.234,3.358,-0.779,0.0
30.207,2.883,-0.841,0.0
25.62,2.449,-0.86,0.0
21.817,2.088,-0.859,0.0
19.938,1.911,-0.9,0.0
17.899,1.718,-0.91,1.0
33.174,3.191,-0.776,0.0
28.748,2.769,-0.837,0.0
24.822,2.394,-0.865,0.0
21.764,2.102,-0.885,1.0
19.457,1.882,-0.903,0.0
17.738,1.718,-0.925,1.0
32.397,3.143,-0.8,0.0
27.99,2.719,-0.851,0.0
24.17,2.35,-0.874,0.0
21.622,2.105,-0.908,0.0
19.185,1.871,-0.916,0.0
17.301,1.689,-0.925,0.0
30.487,2.982,-0.793,0.0
26.708,2.615,-0.848,1.0
23.554,2.309,-0.883,0.0
20.833,2.045,-0.902,0.0
18.411,1.809,-0.903,0.0
16.811,1.654,-0.921,0.0
30.217,2.978,-0.826,0.0
26.204,2.585,-0.866,0.0
21.899,2.163,-0.85,0.0
0.0,0.0,0.0,0.0
18.036,1.785,-0.909,1.0
16.497,1.635,-0.926,0.0
29.226,2.9,-0.837,0.0
25.033,2.487,-0.861,0.0
21.81,2.169,-0.875,1.0
19.511,1.942,-0.897,0.0
17.767,1.771,-0.919,2.0
16.107,1.607,-0.925,0.0
27.992,2.796,-0.839,0.0
24.261,2.426,-0.866,0.0
21.716,2.173,-0.9,0.0
19.159,1.919,-0.906,0.0
17.452,1.75,-0.925,0.0
15.788,1.585,-0.928,0.0
27.116,2.725,-0.849,0.0
23.689,2.383,-0.877,0.0
20.952,2.109,-0.896,0.0
18.662,1.881,-0.907,0.0
16.997,1.715,-0.924,0.0
15.467,1.562,-0.93,0.0
26.018,2.629,-0.849,0.0
21.933,2.219,-0.842,1.0
20.519,2.077,-0.905,0.0
18.061,1.83,-0.902,0.0
16.548,1.679,-0.922,0.0
15.113,1.534,-0.929,0.0
25.157,2.555,-0.854,0.0
21.867,2.223,-0.868,3.0
19.587,1.993,-0.89,0.0
17.786,1.811,-0.912,2.0
16.153,1.647,-0.922,0.0
14.822,1.512,-0.931,0.0
24.433,2.494,-0.863,0.0
21.806,2.227,-0.895,3.0
19.343,1.977,-0.905,0.0
17.535,1.794,-0.923,0.0
15.882,1.626,-0.928,0.0
14.54,1.49,-0.933,0.0
23.764,2.436,-0.871,0.0
21.396,2.194,-0.907,0.0
18.811,1.931,-0.905,0.0
17.01,1.747,-0.918,0.0
15.567,1.6,-0.93,0.0
14.337,1.475,-0.939,0.0
21.942,2.257,-0.833,1.0
20.566,2.117,-0.899,0.0
18.433,1.899,-0.911,0.0
16.705,1.722,-0.924,0.0
15.198,1.568,-0.928,0.0
14.175,1.463,-0.947,0.0
21.874,2.258,-0.859,5.0
19.719,2.037,-0.888,0.0
17.814,1.841,-0.904,1.0
16.239,1.679,-0.92,0.0
14.902,1.542,-0.93,0.0
13.866,1.436,-0.945,0.0
21.824,2.259,-0.886,3.0
19.373,2.006,-0.898,0.0
17.694,1.834,-0.922,1.0
15.883,1.647,-0.92,0.0
14.63,1.518,-0.932,0.0
13.517,1.403,-0.939,0.0
21.597,2.241,-0.905,0.0
18.932,1.965,-0.902,0.0
17.182,1.785,-0.918,0.0
15.591,1.62,-0.924,0.0
14.428,1.5,-0.938,0.0
13.218,1.375,-0.936,0.0
20.636,2.146,-0.892,0.0
18.639,1.939,-0.913,0.0
16.861,1.755,-0.923,0.0
15.293,1.592,-0.926,0.0
14.194,1.479,-0.942,0.0
13.052,1.36,-0.941,0.0
19.755,2.057,-0.88,0.0
17.861,1.861,-0.898,0.0
16.398,1.709,-0.919,0.0
14.986,1.562,-0.927,0.0
0.0,0.0,0.0,0.0
12.781,1.334,-0.938,0.0
19.502,2.033,-0.894,1.0
17.745,1.85,-0.915,2.0
16.108,1.68,-0.923,0.0
14.704,1.534,-0.929,0.0
13.466,1.406,-0.928,0.0
12.625,1.319,-0.943,0.0
19.217,2.005,-0.905,0.0
17.436,1.819,-0.921,0.0
15.754,1.644,-0.923,0.0
14.479,1.512,-0.933,0.0
13.361,1.396,-0.938,0.0
12.4,1.296,-0.942,0.0
18.749,1.956,-0.907,0.0
16.926,1.766,-0.916,0.0
15.443,1.612,-0.924,0.0
14.28,1.491,-0.938,0.0
13.176,1.376,-0.942,0.0
12.183,1.273,-0.941,0.0
18.077,1.886,-0.897,0.0
16.553,1.727,-0.916,0.0
15.117,1.578,-0.924,0.0
13.983,1.46,-0.936,0.0
12.869,1.344,-0.936,0.0
12.013,1.255,-0.943,0.0
17.753,1.851,-0.903,2.0
16.247,1.694,-0.919,0.0
14.88,1.552,-0.928,0.0
0.0,0.0,0.0,0.0
12.694,1.324,-0.939,0.0
11.774,1.229,-0.939,0.0
17.677,1.841,-0.921,1.0
15.948,1.661,-0.922,0.0
14.622,1.523,-0.929,0.0
13.455,1.402,-0.934,0.0
12.49,1.302,-0.939,0.0
11.615,1.211,-0.941,0.0
17.214,1.791,-0.917,0.0
15.605,1.623,-0.921,0.0
14.401,1.498,-0.933,0.0
13.308,1.384,-0.94,0.0
12.322,1.282,-0.942,0.0
11.442,1.191,-0.94,0.0
16.824,1.747,-0.917,0.0
15.362,1.595,-0.925,0.0
14.309,1.486,-0.944,0.0
12.915,1.341,-0.928,0.0
12.097,1.256,-0.939,0.0
11.303,1.174,-0.943,0.0
16.46,1.705,-0.916,0.0
15.01,1.555,-0.922,0.0
0.0,0.0,0.0,0.0
12.865,1.332,-0.939,0.0
11.976,1.24,-0.943,0.0
11.151,1.155,-0.943,0.0
16.196,1.673,-0.92,0.0
14.83,1.532,-0.928,0.0
0.0,0.0,0.0,0.0
12.64,1.306,-0.938,0.0
11.735,1.212,-0.938,0.0
11.048,1.141,-0.947,0.0
15.882,1.636,-0.921,0.0
14.607,1.504,-0.931,0.0
13.387,1.378,-0.93,0.0
12.442,1.281,-0.937,0.0
11.58,1.192,-0.939,0.0
10.87,1.119,-0.944,0.0
15.649,1.606,-0.924,0.0
14.473,1.485,-0.938,0.0
13.242,1.358,-0.934,0.0
12.262,1.258,-0.937,0.0
11.461,1.175,-0.942,0.0
10.75,1.102,-0.945,0.0
15.341,1.568,-0.923,0.0
14.257,1.457,-0.94,0.0
13.078,1.336,-0.937,0.0
12.12,1.238,-0.939,0.0
11.327,1.157,-0.943,0.0
10.64,1.087,-0.947,0.0
15.071,1.534,-0.923,0.0
0.0,0.0,0.0,0.0
12.871,1.309,-0.936,0.0
11.906,1.211,-0.935,0.0
11.189,1.138,-0.943,0.0
10.485,1.066,-0.945,0.0
14.843,1.504,-0.924,0.0
13.534,1.371,-0.92,0.0
12.679,1.284,-0.935,0.0
11.788,1.193,-0.938,0.0
11.089,1.122,-0.946,0.0
10.433,1.055,-0.951,0.0
14.649,1.477,-0.927,0.0
13.607,1.371,-0.939,0.0
12.563,1.265,-0.939,0.0
11.643,1.172,-0.939,0.0
10.901,1.097,-0.941,0.0
10.281,1.034,-0.947,0.0
14.499,1.453,-0.932,0.0
13.386,1.341,-0.937,0.0
12.392,1.241,-0.939,0.0
11.524,1.153,-0.94,0.0
10.813,1.082,-0.945,0.0
10.126,1.013,-0.943,0.0
14.334,1.428,-0.935,0.0
13.202,1.315,-0.937,0.0
12.202,1.215,-0.936,0.0
11.382,1.132,-0.94,0.0
10.693,1.063,-0.944,0.0
10.062,1.0,-0.947,0.0
14.072,1.393,-0.932,0.0
12.994,1.286,-0.935,0.0
12.087,1.195,-0.939,0.0
11.306,1.117,-0.944,0.0
10.636,1.051,-0.949,0.0
9.971,0.985,-0.947,0.0
0.0,0.0,0.0,0.0
12.818,1.26,-0.933,0.0
11.909,1.17,-0.935,0.0
11.195,1.099,-0.945,0.0
10.536,1.034,-0.95,0.0
9.866,0.967,-0.946,0.0
0.0,0.0,0.0,0.0
12.674,1.236,-0.934,0.0
11.824,1.153,-0.939,0.0
11.104,1.082,-0.947,0.0
10.386,1.011,-0.945,0.0
9.747,0.948,-0.943,0.0
13.562,1.314,-0.934,0.0
12.551,1.215,-0.936,0.0
11.689,1.131,-0.939,0.0
10.937,1.057,-0.942,0.0
10.256,0.991,-0.942,0.0
9.691,0.936,-0.946,0.0
13.421,1.29,-0.935,0.0
12.424,1.193,-0.937,0.0
11.576,1.111,-0.939,0.0
10.877,1.043,-0.946,0.0
10.142,0.972,-0.94,0.0
9.637,0.923,-0.949,0.0
13.307,1.268,-0.938,0.0
12.316,1.173,-0.938,0.0
11.465,1.091,-0.939,0.0
10.729,1.02,-0.941,0.0
10.117,0.961,-0.946,0.0
9.536,0.905,-0.946,0.0
13.165,1.243,-0.938,0.0
12.159,1.147,-0.936,0.0
11.355,1.07,-0.939,0.0
10.661,1.004,-0.943,0.0
10.011,0.942,-0.943,0.0
9.445,0.888,-0.944,0.0
13.012,1.217,-0.936,0.0
12.03,1.124,-0.934,0.0
11.327,1.058,-0.944,0.0
10.534,0.983,-0.94,0.0
9.981,0.93,-0.948,0.0
9.377,0.873,-0.944,0.0
12.959,1.201,-0.942,0.0
11.917,1.103,-0.934,0.0
11.207,1.036,-0.942,0.0
0.0,0.0,0.0,0.0
9.888,0.912,-0.945,0.0
9.324,0.859,-0.945,0.0
12.77,1.171,-0.936,0.0
11.879,1.088,-0.939,0.0
11.15,1.02,-0.945,0.0
0.0,0.0,0.0,0.0
9.811,0.896,-0.944,0.0
9.254,0.844,-0.944,0.0
12.67,1.15,-0.937,0.0
11.762,1.066,-0.937,0.0
11.112,1.006,-0.948,0.0
0.0,0.0,0.0,0.0
9.731,0.879,-0.943,0.0
9.202,0.83,-0.944,0.0
12.591,1.13,-0.938,0.0
11.686,1.047,-0.937,0.0
10.936,0.979,-0.94,0.0
0.0,0.0,0.0,0.0
9.707,0.867,-0.946,0.0
9.132,0.814,-0.942,0.0
12.485,1.108,-0.938,0.0
11.629,1.03,-0.939,0.0
10.825,0.958,-0.936,0.0
10.269,0.907,-0.947,0.0
9.647,0.851,-0.945,0.0
9.082,0.8,-0.942,0.0
12.38,1.085,-0.936,0.0
11.551,1.011,-0.939,0.0
10.839,0.947,-0.943,0.0
10.157,0.887,-0.942,0.0
9.548,0.832,-0.94,0.0
9.085,0.791,-0.947,0.0
12.307,1.065,-0.936,0.0
11.489,0.993,-0.939,0.0
10.799,0.932,-0.944,0.0
10.134,0.873,-0.945,0.0
9.533,0.82,-0.943,0.0
8.981,0.772,-0.94,0.0
12.263,1.048,-0.938,0.0
11.42,0.974,-0.939,0.0
10.66,0.908,-0.937,0.0
10.104,0.859,-0.946,0.0
9.501,0.807,-0.944,0.0
8.975,0.761,-0.943,0.0
12.175,1.027,-0.937,0.0
11.388,0.959,-0.941,0.0
10.61,0.892,-0.936,0.0
10.026,0.841,-0.943,0.0
9.447,0.791,-0.942,0.0
8.932,0.747,-0.942,0.0
12.124,1.008,-0.937,0.0
11.336,0.941,-0.94,0.0
10.521,0.872,-0.932,0.0
9.997,0.827,-0.944,0.0
9.44,0.78,-0.945,0.0
8.896,0.733,-0.941,0.0
12.078,0.99,-0.938,0.0
11.305,0.925,-0.941,0.0
10.554,0.862,-0.939,0.0
9.961,0.812,-0.943,0.0
9.405,0.765,-0.944,0.0
8.866,0.72,-0.941,0.0
12.017,0.971,-0.936,0.0
11.308,0.912,-0.945,0.0
10.558,0.85,-0.942,0.0
9.919,0.796,-0.942,0.0
9.391,0.753,-0.945,0.0
8.852,0.708,-0.941,0.0
11.992,0.954,-0.937,0.0
11.245,0.893,-0.942,0.0
10.513,0.833,-0.94,0.0
9.902,0.783,-0.943,0.0
9.336,0.737,-0.942,0.0
8.886,0.7,-0.947,0.0
11.938,0.935,-0.935,0.0
11.231,0.877,-0.943,0.0
10.483,0.817,-0.94,0.0
9.891,0.769,-0.943,0.0
9.337,0.725,-0.943,0.0
8.871,0.687,-0.947,0.0
11.933,0.919,-0.937,0.0
11.238,0.864,-0.945,0.0
10.473,0.803,-0.94,0.0
9.855,0.754,-0.941,0.0
9.325,0.712,-0.943,0.0
8.857,0.675,-0.946,0.0
11.907,0.902,-0.936,0.0
11.163,0.843,-0.941,0.0
10.462,0.789,-0.94,0.0
9.864,0.742,-0.943,0.0
9.366,0.703,-0.949,0.0
8.822,0.661,-0.943,0.0
11.886,0.885,-0.936,0.0
11.188,0.831,-0.943,0.0
10.448,0.774,-0.94,0.0
9.885,0.731,-0.946,0.0
9.341,0.689,-0.946,0.0
8.816,0.649,-0.943,0.0
11.898,0.87,-0.937,0.0
11.192,0.816,-0.944,0.0
10.432,0.759,-0.938,0.0
9.877,0.717,-0.945,0.0
9.349,0.677,-0.947,0.0
8.842,0.639,-0.946,0.0
11.942,0.857,-0.94,0.0
11.187,0.801,-0.943,0.0
10.461,0.747,-0.941,0.0
9.917,0.707,-0.949,0.0
9.363,0.665,-0.948,0.0
8.843,0.627,-0.946,0.0
11.927,0.84,-0.938,0.0
11.206,0.787,-0.944,0.0
10.472,0.734,-0.941,0.0
9.915,0.693,-0.948,0.0
9.362,0.652,-0.947,0.0
8.835,0.614,-0.944,0.0
11.929,0.824,-0.938,0.0
11.207,0.772,-0.943,0.0
10.482,0.72,-0.941,0.0
9.915,0.679,-0.947,0.0
9.368,0.64,-0.947,0.0
8.873,0.605,-0.947,0.0
11.97,0.81,-0.939,0.0
11.24,0.759,-0.945,0.0
10.526,0.709,-0.943,0.0
9.926,0.666,-0.946,0.0
9.39,0.629,-0.948,0.0
8.85,0.591,-0.943,0.0
11.986,0.795,-0.938,0.0
