X,Y,Z,Reflectivity
27.392,3.154,-0.842,0.0
23.864,2.749,-0.87,0.0
21.217,2.445,-0.898,0.0
18.879,2.177,-0.908,0.0
17.079,1.971,-0.919,0.0
30.804,3.553,-0.808,0.0
26.45,3.052,-0.846,0.0
23.407,2.702,-0.883,0.0
20.49,2.366,-0.892,0.0
18.64,2.154,-0.919,0.0
16.822,1.945,-0.926,0.0
30.201,3.49,-0.829,0.0
25.809,2.983,-0.857,0.0
21.878,2.53,-0.852,0.0
19.812,2.292,-0.887,0.0
18.037,2.087,-0.912,0.0
16.398,1.899,-0.923,0.0
29.1,3.368,-0.834,0.0
24.921,2.885,-0.858,0.0
21.783,2.522,-0.875,0.0
19.37,2.243,-0.891,1.0
17.543,2.033,-0.908,0.0
16.076,1.863,-0.925,0.0
27.935,3.236,-0.835,0.0
24.204,2.804,-0.862,0.0
21.726,2.518,-0.899,0.0
19.237,2.23,-0.908,1.0
17.248,2.0,-0.914,0.0
15.779,1.83,-0.927,0.0
27.012,3.131,-0.84,0.0
23.645,2.741,-0.871,0.0
20.846,2.417,-0.887,0.0
18.803,2.181,-0.91,0.0
16.974,1.969,-0.92,0.0
15.495,1.798,-0.928,0.0
26.314,3.051,-0.85,0.0
23.185,2.688,-0.882,0.0
20.433,2.369,-0.894,0.0
18.441,2.139,-0.915,0.0
16.708,1.938,-0.925,0.0
15.129,1.756,-0.925,0.0
25.367,2.94,-0.85,0.0
21.88,2.536,-0.858,0.0
19.458,2.256,-0.875,0.0
17.857,2.07,-0.907,0.0
16.301,1.89,-0.922,0.0
14.898,1.728,-0.928,0.0
24.754,2.867,-0.858,0.0
21.761,2.521,-0.879,0.0
19.348,2.241,-0.893,1.0
17.445,2.021,-0.907,0.0
15.963,1.85,-0.922,0.0
14.655,1.698,-0.931,0.0
24.013,2.779,-0.861,0.0
21.695,2.51,-0.902,0.0
19.169,2.218,-0.907,1.0
17.186,1.989,-0.914,1.0
15.724,1.82,-0.926,0.0
14.466,1.674,-0.936,0.0
23.492,2.715,-0.869,0.0
20.636,2.385,-0.882,0.0
18.7,2.161,-0.907,0.0
16.957,1.959,-0.921,0.0
15.41,1.781,-0.926,0.0
14.276,1.65,-0.94,0.0
21.959,2.533,-0.838,0.0
20.446,2.358,-0.897,0.0
18.477,2.131,-0.917,0.0
16.59,1.913,-0.92,0.0
15.092,1.741,-0.924,0.0
14.17,1.634,-0.949,0.0
21.822,2.512,-0.857,0.0
19.535,2.248,-0.879,0.0
17.753,2.043,-0.901,0.0
16.203,1.865,-0.917,0.0
14.843,1.708,-0.925,0.0
0.0,0.0,0.0,0.0
21.791,2.502,-0.88,1.0
19.386,2.225,-0.894,2.0
17.436,2.001,-0.904,0.0
15.945,1.83,-0.92,0.0
14.691,1.686,-0.932,0.0
13.584,1.559,-0.94,0.0
21.707,2.485,-0.901,0.0
19.135,2.19,-0.904,1.0
17.25,1.974,-0.913,1.0
15.686,1.795,-0.922,0.0
14.491,1.658,-0.935,0.0
13.36,1.528,-0.939,0.0
20.654,2.357,-0.879,0.0
18.71,2.134,-0.903,0.0
17.071,1.947,-0.922,0.0
15.442,1.761,-0.924,0.0
14.312,1.632,-0.939,0.0
13.2,1.505,-0.942,0.0
20.394,2.319,-0.889,0.0
18.316,2.082,-0.903,0.0
16.684,1.896,-0.919,0.0
15.153,1.721,-0.923,0.0
14.148,1.607,-0.943,0.0
12.972,1.473,-0.939,0.0
19.662,2.226,-0.878,0.0
18.108,2.05,-0.912,0.0
16.339,1.849,-0.916,0.0
14.944,1.69,-0.926,0.0
0.0,0.0,0.0,0.0
12.722,1.438,-0.934,0.0
19.544,2.203,-0.892,1.0
17.684,1.993,-0.908,0.0
16.124,1.816,-0.921,0.0
14.747,1.661,-0.928,0.0
13.694,1.541,-0.94,0.0
12.546,1.412,-0.934,0.0
19.364,2.172,-0.903,1.0
17.515,1.964,-0.917,0.0
15.857,1.777,-0.921,0.0
14.531,1.628,-0.929,0.0
13.565,1.519,-0.945,0.0
12.459,1.395,-0.94,0.0
18.917,2.111,-0.901,0.0
17.182,1.917,-0.917,0.0
15.612,1.741,-0.922,0.0
14.359,1.6,-0.932,0.0
13.322,1.484,-0.941,0.0
12.322,1.372,-0.941,0.0
18.545,2.058,-0.901,0.0
16.9,1.874,-0.918,0.0
15.375,1.704,-0.923,0.0
14.24,1.578,-0.938,0.0
13.128,1.454,-0.94,0.0
12.186,1.349,-0.942,0.0
18.16,2.003,-0.899,1.0
16.66,1.837,-0.92,0.0
15.171,1.671,-0.924,0.0
14.18,1.561,-0.947,0.0
12.931,1.423,-0.938,0.0
12.018,1.322,-0.94,0.0
17.871,1.959,-0.901,1.0
16.38,1.794,-0.919,0.0
14.957,1.637,-0.925,0.0
0.0,0.0,0.0,0.0
12.848,1.405,-0.943,0.0
11.866,1.297,-0.939,0.0
17.691,1.926,-0.907,1.0
16.139,1.756,-0.92,0.0
14.789,1.608,-0.927,0.0
0.0,0.0,0.0,0.0
12.604,1.368,-0.936,0.0
11.73,1.273,-0.938,0.0
17.674,1.91,-0.921,1.0
15.877,1.715,-0.918,0.0
14.663,1.582,-0.932,0.0
13.522,1.458,-0.938,0.0
12.528,1.35,-0.941,0.0
11.603,1.249,-0.938,0.0
17.405,1.867,-0.922,0.0
15.728,1.686,-0.922,0.0
14.512,1.554,-0.934,0.0
13.432,1.437,-0.943,0.0
12.385,1.324,-0.94,0.0
11.53,1.232,-0.941,0.0
17.049,1.814,-0.916,0.0
15.56,1.654,-0.925,0.0
14.363,1.526,-0.936,0.0
13.255,1.407,-0.94,0.0
12.253,1.299,-0.94,0.0
11.408,1.209,-0.94,0.0
16.801,1.773,-0.915,0.0
15.329,1.616,-0.923,0.0
14.137,1.489,-0.932,0.0
13.133,1.382,-0.942,0.0
12.139,1.276,-0.94,0.0
11.323,1.189,-0.942,0.0
16.603,1.737,-0.917,0.0
15.129,1.581,-0.922,0.0
14.09,1.471,-0.939,0.0
12.935,1.349,-0.937,0.0
12.041,1.255,-0.941,0.0
11.235,1.17,-0.942,0.0
16.425,1.702,-0.919,0.0
15.007,1.553,-0.925,0.0
13.975,1.445,-0.941,0.0
12.838,1.326,-0.939,0.0
11.958,1.234,-0.943,0.0
11.192,1.154,-0.946,0.0
16.235,1.666,-0.919,0.0
14.874,1.525,-0.926,0.0
0.0,0.0,0.0,0.0
12.738,1.303,-0.94,0.0
11.82,1.208,-0.939,0.0
11.088,1.132,-0.944,0.0
16.1,1.636,-0.921,0.0
14.769,1.499,-0.929,0.0
13.568,1.376,-0.931,0.0
12.638,1.28,-0.94,0.0
11.735,1.187,-0.94,0.0
10.988,1.11,-0.943,0.0
15.889,1.598,-0.919,0.0
14.631,1.469,-0.929,0.0
13.504,1.355,-0.934,0.0
12.546,1.257,-0.941,0.0
11.661,1.167,-0.941,0.0
10.97,1.097,-0.948,0.0
15.772,1.569,-0.921,0.0
14.563,1.447,-0.933,0.0
13.399,1.33,-0.934,0.0
12.451,1.234,-0.94,0.0
11.595,1.148,-0.942,0.0
10.822,1.07,-0.941,0.0
15.65,1.539,-0.922,0.0
14.47,1.421,-0.935,0.0
13.338,1.309,-0.937,0.0
12.361,1.211,-0.94,0.0
11.497,1.125,-0.94,0.0
10.804,1.056,-0.945,0.0
15.589,1.516,-0.926,0.0
14.352,1.394,-0.934,0.0
13.232,1.283,-0.936,0.0
12.304,1.191,-0.942,0.0
11.444,1.107,-0.941,0.0
10.749,1.038,-0.945,0.0
15.396,1.479,-0.922,0.0
14.255,1.367,-0.934,0.0
13.158,1.26,-0.937,0.0
12.204,1.167,-0.939,0.0
11.406,1.089,-0.943,0.0
10.742,1.024,-0.949,0.0
15.266,1.448,-0.921,0.0
14.21,1.346,-0.937,0.0
13.099,1.238,-0.938,0.0
12.132,1.145,-0.939,0.0
11.329,1.068,-0.941,0.0
10.682,1.005,-0.948,0.0
15.169,1.42,-0.921,0.0
14.202,1.327,-0.942,0.0
13.013,1.214,-0.937,0.0
12.017,1.119,-0.935,0.0
11.334,1.054,-0.946,0.0
10.653,0.989,-0.949,0.0
15.112,1.396,-0.923,0.0
14.073,1.297,-0.939,0.0
12.922,1.189,-0.935,0.0
11.983,1.101,-0.936,0.0
11.277,1.034,-0.945,0.0
10.585,0.969,-0.947,0.0
15.057,1.371,-0.924,0.0
14.085,1.281,-0.944,0.0
12.982,1.178,-0.943,0.0
11.964,1.084,-0.938,0.0
11.204,1.013,-0.942,0.0
10.586,0.956,-0.95,0.0
14.961,1.343,-0.922,0.0
14.132,1.267,-0.951,0.0
12.873,1.152,-0.938,0.0
11.949,1.067,-0.94,0.0
11.232,1.001,-0.947,0.0
10.575,0.941,-0.951,0.0
14.953,1.323,-0.925,0.0
13.934,1.23,-0.941,0.0
12.887,1.135,-0.942,0.0
11.922,1.049,-0.94,0.0
11.193,0.983,-0.946,0.0
10.516,0.921,-0.948,0.0
14.932,1.301,-0.927,0.0
0.0,0.0,0.0,0.0
12.821,1.112,-0.94,0.0
11.855,1.026,-0.937,0.0
11.183,0.966,-0.947,0.0
10.483,0.904,-0.947,0.0
14.915,1.279,-0.928,0.0
0.0,0.0,0.0,0.0
12.783,1.092,-0.939,0.0
11.891,1.013,-0.942,0.0
11.145,0.948,-0.945,0.0
10.421,0.885,-0.943,0.0
14.885,1.256,-0.928,0.0
13.881,1.169,-0.943,0.0
12.805,1.076,-0.942,0.0
11.868,0.995,-0.941,0.0
11.117,0.93,-0.944,0.0
10.428,0.871,-0.944,0.0
14.888,1.235,-0.929,0.0
13.66,1.131,-0.929,0.0
12.735,1.052,-0.938,0.0
11.868,0.978,-0.942,0.0
11.122,0.914,-0.945,0.0
10.435,0.856,-0.945,0.0
14.878,1.213,-0.929,0.0
13.777,1.121,-0.937,0.0
12.76,1.036,-0.94,0.0
11.866,0.961,-0.942,0.0
11.127,0.899,-0.945,0.0
10.413,0.839,-0.943,0.0
14.886,1.192,-0.929,0.0
13.687,1.093,-0.931,0.0
12.797,1.02,-0.942,0.0
11.877,0.944,-0.942,0.0
11.163,0.885,-0.948,0.0
10.446,0.827,-0.946,0.0
14.909,1.172,-0.93,0.0
0.0,0.0,0.0,0.0
12.789,1.001,-0.941,0.0
11.852,0.925,-0.939,0.0
11.181,0.87,-0.949,0.0
10.445,0.811,-0.945,0.0
14.903,1.15,-0.929,0.0
13.617,1.048,-0.924,0.0
12.792,0.982,-0.94,0.0
11.883,0.91,-0.94,0.0
11.2,0.855,-0.949,0.0
10.443,0.795,-0.943,0.0
14.962,1.132,-0.93,0.0
13.82,1.043,-0.936,0.0
12.842,0.966,-0.941,0.0
11.93,0.896,-0.942,0.0
11.22,0.84,-0.949,0.0
10.469,0.782,-0.944,0.0
14.963,1.11,-0.928,0.0
13.866,1.026,-0.937,0.0
12.889,0.951,-0.943,0.0
11.952,0.879,-0.942,0.0
11.182,0.82,-0.943,0.0
10.477,0.766,-0.942,0.0
14.993,1.09,-0.926,0.0
13.981,1.013,-0.941,0.0
12.876,0.93,-0.939,0.0
11.978,0.863,-0.941,0.0
11.266,0.809,-0.948,0.0
10.498,0.752,-0.942,0.0
15.065,1.072,-0.927,0.0
14.018,0.994,-0.94,0.0
12.977,0.918,-0.942,0.0
12.005,0.847,-0.94,0.0
11.319,0.796,-0.949,0.0
10.529,0.738,-0.941,0.0
15.106,1.052,-0.925,0.0
13.931,0.967,-0.93,0.0
13.013,0.901,-0.941,0.0
12.089,0.834,-0.942,0.0
11.371,0.782,-0.95,0.0
10.592,0.726,-0.943,0.0
15.217,1.036,-0.927,0.0
14.101,0.957,-0.937,0.0
13.071,0.884,-0.94,0.0
12.152,0.82,-0.943,0.0
11.394,0.766,-0.947,0.0
10.691,0.716,-0.948,0.0
15.215,1.013,-0.921,0.0
14.113,0.936,-0.932,0.0
13.143,0.869,-0.94,0.0
12.21,0.804,-0.942,0.0
11.446,0.752,-0.947,0.0
10.73,0.702,-0.947,0.0
0.0,0.0,0.0,0.0
14.342,0.929,-0.941,0.0
13.206,0.853,-0.939,0.0
12.285,0.79,-0.943,0.0
11.54,0.74,-0.949,0.0
10.804,0.69,-0.948,0.0
15.528,0.985,-0.926,0.0
14.366,0.908,-0.935,0.0
13.282,0.837,-0.938,0.0
12.39,0.778,-0.945,0.0
11.572,0.724,-0.946,0.0
10.918,0.68,-0.953,0.0
15.526,0.961,-0.917,0.0
14.443,0.891,-0.933,0.0
13.339,0.819,-0.935,0.0
12.463,0.763,-0.943,0.0
11.634,0.709,-0.945,0.0
10.929,0.664,-0.948,0.0
15.825,0.955,-0.926,0.0
14.563,0.875,-0.932,0.0
13.584,0.813,-0.944,0.0
12.597,0.751,-0.946,0.0
11.71,0.696,-0.944,0.0
11.055,0.654,-0.952,0.0
16.029,0.942,-0.929,0.0
14.71,0.861,-0.933,0.0
13.872,0.809,-0.956,0.0
12.67,0.736,-0.944,0.0
11.804,0.683,-0.944,0.0
11.09,0.639,-0.948,0.0
16.169,0.925,-0.926,0.0
14.972,0.853,-0.94,0.0
13.913,0.789,-0.949,0.0
12.798,0.723,-0.945,0.0
11.926,0.671,-0.946,0.0
11.185,0.627,-0.949,0.0
16.412,0.913,-0.929,0.0
15.119,0.838,-0.939,1.0
14.152,0.781,-0.956,0.0
12.928,0.71,-0.945,0.0
11.998,0.656,-0.943,0.0
11.3,0.616,-0.95,0.0
16.531,0.894,-0.924,0.0
15.121,0.814,-0.928,1.0
14.174,0.76,-0.947,0.0
13.054,0.697,-0.945,0.0
12.13,0.645,-0.944,0.0
11.356,0.601,-0.946,0.0
16.729,0.879,-0.922,0.0
15.341,0.802,-0.929,1.0
14.359,0.747,-0.948,0.0
13.235,0.686,-0.947,0.0
12.284,0.633,-0.946,0.0
11.491,0.59,-0.948,0.0
16.967,0.865,-0.922,0.0
15.715,0.797,-0.939,0.0
14.469,0.73,-0.943,0.0
13.328,0.67,-0.943,0.0
12.466,0.623,-0.95,0.0
11.605,0.577,-0.947,0.0
17.066,0.843,-0.912,0.0
15.889,0.781,-0.936,0.0
14.596,0.714,-0.939,0.0
13.474,0.656,-0.941,0.0
12.569,0.609,-0.946,0.0
11.73,0.565,-0.947,0.0
20.231,0.968,-1.064,1.0
16.101,0.766,-0.934,0.0
14.789,0.7,-0.938,0.0
13.656,0.643,-0.941,0.0
12.737,0.597,-0.947,0.0
11.867,0.553,-0.947,0.0
20.215,0.936,-1.044,9.0
16.281,0.75,-0.929,0.0
15.011,0.687,-0.937,0.0
20.219,0.921,-1.374,0.0
12.955,0.587,-0.951,0.0
12.057,0.544,-0.95,0.0
20.215,0.905,-1.024,4.0
16.571,0.738,-0.929,0.0
15.226,0.674,-0.936,0.0
14.18,0.624,-0.95,0.0
13.154,0.576,-0.952,0.0
12.225,0.532,-0.951,0.0
18.527,0.801,-0.92,0.0
16.818,0.723,-0.926,0.0
15.44,0.66,-0.933,0.0
14.372,0.611,-0.948,0.0
13.303,0.562,-0.949,0.0
12.374,0.52,-0.95,0.0
18.753,0.782,-0.911,0.0
17.11,0.71,-0.923,0.0
15.817,0.652,-0.939,0.0
14.542,0.596,-0.943,0.0
13.395,0.546,-0.941,0.0
12.549,0.508,-0.949,0.0
19.323,0.777,-0.918,0.0
17.587,0.703,-0.93,0.0
16.099,0.64,-0.938,0.0
14.751,0.583,-0.94,0.0
13.634,0.535,-0.942,0.0
12.773,0.499,-0.952,0.0
19.784,0.766,-0.918,0.0
17.951,0.691,-0.929,0.0
16.325,0.624,-0.932,0.0
15.051,0.572,-0.942,0.0
13.901,0.525,-0.945,0.0
12.966,0.487,-0.951,0.0
20.227,0.754,-0.915,0.0
18.223,0.674,-0.921,0.0
16.681,0.613,-0.933,0.0
15.296,0.559,-0.939,0.0
14.3,0.519,-0.954,0.0
13.18,0.475,-0.951,0.0
20.693,0.74,-0.91,0.0
18.624,0.662,-0.919,0.0
16.949,0.598,-0.927,0.0
15.58,0.546,-0.937,0.0
14.521,0.506,-0.951,0.0
13.413,0.464,-0.951,0.0
21.248,0.729,-0.908,0.0
19.141,0.653,-0.921,0.0
17.245,0.584,-0.922,0.0
15.963,0.537,-0.94,0.0
14.72,0.491,-0.945,0.0
13.675,0.453,-0.952,0.0
22.06,0.726,-0.915,0.0
19.689,0.643,-0.921,0.0
17.846,0.578,-0.93,0.0
16.3,0.524,-0.938,0.0
14.999,0.479,-0.944,1.0
13.927,0.442,-0.951,0.0
22.48,0.708,-0.903,0.0
20.207,0.631,-0.919,0.0
18.277,0.567,-0.928,0.0
16.587,0.51,-0.933,0.0
15.314,0.468,-0.943,0.0
14.299,0.433,-0.957,0.0
23.039,0.693,-0.894,0.0
20.631,0.615,-0.91,0.0
18.675,0.553,-0.923,0.0
16.969,0.498,-0.931,0.0
15.612,0.455,-0.94,0.0
14.501,0.419,-0.95,0.0
23.885,0.685,-0.894,0.0
21.353,0.608,-0.912,0.0
0.0,0.0,0.0,0.0
17.415,0.488,-0.931,0.0
16.051,0.446,-0.943,0.0
14.786,0.407,-0.948,0.0
24.748,0.677,-0.891,0.0
22.142,0.6,-0.914,0.0
19.827,0.533,-0.924,0.0
17.936,0.478,-0.933,0.0
16.373,0.433,-0.938,0.0
15.116,0.396,-0.947,0.0
25.82,0.671,-0.892,0.0
22.687,0.584,-0.904,0.0
20.342,0.519,-0.918,0.0
18.386,0.465,-0.929,0.0
16.764,0.42,-0.935,0.0
15.432,0.383,-0.943,0.0
26.5,0.653,-0.875,0.0
23.473,0.573,-0.899,0.0
20.987,0.508,-0.915,0.0
18.804,0.451,-0.921,0.0
17.081,0.405,-0.927,0.0
15.88,0.373,-0.946,0.0
28.396,0.662,-0.894,0.0
24.535,0.567,-0.902,0.0
21.718,0.497,-0.913,0.0
19.592,0.444,-0.929,0.0
17.797,0.399,-0.938,0.0
16.294,0.362,-0.945,0.0
28.887,0.636,-0.864,0.0
25.498,0.556,-0.897,0.0
22.531,0.486,-0.911,0.0
20.134,0.43,-0.923,0.0
18.213,0.385,-0.931,0.0
16.665,0.349,-0.939,0.0
30.89,0.641,-0.875,1.0
26.391,0.542,-0.886,1.0
23.134,0.47,-0.899,0.0
20.818,0.419,-0.92,0.0
18.768,0.374,-0.929,0.0
17.089,0.336,-0.936,0.0
32.092,0.626,-0.857,1.0
27.771,0.536,-0.887,0.0
24.32,0.464,-0.905,0.0
20.16,0.381,-0.858,0.0
19.635,0.367,-0.939,0.0
17.703,0.327,-0.94,0.0
34.021,0.623,-0.852,3.0
28.992,0.525,-0.879,0.0
25.285,0.453,-0.899,0.0
20.116,0.356,-0.823,0.0
20.259,0.354,-0.935,2.0
18.124,0.313,-0.932,0.0
35.141,0.602,-0.822,0.0
30.572,0.517,-0.875,1.0
26.291,0.44,-0.89,0.0
23.124,0.382,-0.907,0.0
20.249,0.331,-0.9,11.0
18.663,0.301,-0.928,0.0
37.182,0.594,-0.806,0.0
31.96,0.504,-0.86,1.0
27.873,0.434,-0.895,0.0
20.204,0.31,-0.757,0.0
20.132,0.305,-0.86,8.0
20.085,0.301,-0.963,0.0
20.216,0.3,-0.403,0.0
20.217,0.296,-0.509,2.0
20.21,0.292,-0.614,10.0
20.214,0.288,-0.722,14.0
20.201,0.284,-0.827,16.0
20.267,0.281,-0.936,6.0
20.203,0.277,-0.367,8.0
20.189,0.273,-0.472,18.0
20.207,0.269,-0.578,26.0
20.22,0.266,-0.686,21.0
20.23,0.262,-0.792,28.0
20.229,0.259,-0.898,13.0
20.201,0.255,-0.331,25.0
20.223,0.252,-0.436,24.0
20.192,0.248,-0.541,28.0
20.201,0.244,-0.649,31.0
20.223,0.241,-0.755,28.0
18.63,0.218,-0.793,150.0
20.192,0.234,-0.294,28.0
20.181,0.23,-0.399,29.0
20.189,0.227,-0.504,30.0
20.19,0.223,-0.611,32.0
0.0,0.0,0.0,0.0
18.55,0.198,-0.755,153.0
20.194,0.213,-0.257,27.0
20.169,0.209,-0.361,32.0
20.187,0.206,-0.467,26.0
20.167,0.202,-0.573,28.0
20.217,0.199,-0.68,23.0
18.562,0.18,-0.721,151.0
20.179,0.193,-0.219,24.0
20.175,0.189,-0.323,35.0
20.18,0.186,-0.429,31.0
20.187,0.183,-0.536,26.0
20.221,0.18,-0.642,11.0
18.577,0.162,-0.686,150.0
20.179,0.173,-0.18,19.0
20.172,0.17,-0.285,34.0
20.184,0.167,-0.39,27.0
20.214,0.164,-0.498,23.0
0.0,0.0,0.0,0.0
21.605,0.168,-0.757,161.0
20.181,0.155,-0.142,35.0
20.172,0.151,-0.247,33.0
20.187,0.148,-0.352,29.0
20.197,0.145,-0.459,8.0
21.688,0.153,-0.605,0.0
21.62,0.149,-0.716,159.0
20.185,0.137,-0.103,40.0
20.185,0.134,-0.208,26.0
20.19,0.131,-0.313,27.0
20.202,0.128,-0.419,1.0
33.107,0.204,-0.859,0.0
21.677,0.131,-0.675,36.0
20.188,0.119,-0.064,37.0
20.183,0.116,-0.168,30.0
20.191,0.113,-0.273,25.0
41.866,0.229,-0.788,3.0
0.0,0.0,0.0,0.0
30.413,0.158,-0.887,0.0
20.18,0.102,-0.024,31.0
20.182,0.1,-0.129,30.0
20.185,0.097,-0.233,17.0
20.183,0.094,-0.339,0.0
38.421,0.174,-0.846,0.0
32.269,0.142,-0.877,2.0
20.2,0.086,0.015,34.0
20.2,0.084,-0.089,28.0
20.204,0.081,-0.193,20.0
20.235,0.078,-0.3,0.0
39.886,0.15,-0.797,1.0
33.274,0.121,-0.838,4.0
20.198,0.071,0.056,31.0
20.215,0.068,-0.048,29.0
20.209,0.066,-0.152,24.0
20.2,0.063,-0.258,0.0
20.24,0.061,-0.364,0.0
20.262,0.058,-0.469,1.0
20.15,0.056,0.096,29.0
20.222,0.054,-0.007,11.0
20.258,0.051,-0.111,27.0
20.241,0.049,-0.218,150.0
20.246,0.046,-0.323,45.0
20.255,0.044,-0.427,56.0
20.139,0.042,0.137,29.0
20.26,0.04,0.033,19.0
20.259,0.037,-0.07,151.0
20.261,0.035,-0.177,151.0
20.271,0.033,-0.282,151.0
20.258,0.031,-0.386,150.0
20.139,0.029,0.178,28.0
20.152,0.026,0.074,28.0
20.237,0.024,-0.029,153.0
20.261,0.022,-0.135,151.0
20.262,0.02,-0.24,151.0
20.271,0.018,-0.345,83.0
20.126,0.016,0.219,28.0
20.124,0.014,0.116,29.0
20.27,0.012,0.012,151.0
20.263,0.01,-0.094,92.0
20.225,0.008,-0.198,15.0
20.237,0.006,-0.302,7.0
20.127,0.004,0.261,27.0
20.119,0.002,0.157,28.0
20.147,0.0,0.054,27.0
20.178,-0.001,-0.051,13.0
20.168,-0.002,-0.155,15.0
20.187,-0.004,-0.259,8.0
20.126,-0.006,0.303,31.0
20.121,-0.008,0.199,29.0
20.118,-0.01,0.095,34.0
20.106,-0.011,-0.009,19.0
20.159,-0.013,-0.113,26.0
20.155,-0.015,-0.217,6.0
20.128,-0.016,0.345,30.0
20.118,-0.018,0.241,27.0
20.116,-0.02,0.137,29.0
20.134,-0.021,0.032,37.0
20.132,-0.023,-0.071,30.0
20.144,-0.024,-0.175,28.0
20.124,-0.026,0.387,28.0
20.118,-0.028,0.284,27.0
20.112,-0.029,0.18,35.0
20.125,-0.031,0.074,40.0
20.129,-0.032,-0.028,36.0
20.153,-0.033,-0.132,33.0
20.131,-0.035,0.43,31.0
20.114,-0.036,0.326,29.0
20.115,-0.038,0.222,29.0
20.12,-0.039,0.116,34.0
20.126,-0.04,0.013,35.0
20.145,-0.042,-0.09,35.0
20.129,-0.043,0.472,27.0
20.111,-0.044,0.368,30.0
20.102,-0.046,0.265,28.0
20.112,-0.047,0.159,31.0
20.128,-0.048,0.056,41.0
20.125,-0.049,-0.046,33.0
20.148,-0.051,0.515,23.0
20.121,-0.052,0.411,28.0
20.108,-0.053,0.307,28.0
20.112,-0.054,0.202,27.0
20.127,-0.055,0.098,38.0
20.127,-0.056,-0.004,36.0
20.146,-0.057,0.558,17.0
20.123,-0.058,0.454,27.0
20.109,-0.059,0.35,30.0
20.118,-0.06,0.245,26.0
20.121,-0.061,0.142,28.0
20.128,-0.062,0.038,38.0
20.162,-0.063,0.602,14.0
20.13,-0.064,0.497,22.0
20.116,-0.065,0.393,30.0
20.112,-0.065,0.287,27.0
20.123,-0.066,0.184,26.0
20.131,-0.067,0.081,40.0
58.314,-0.199,1.865,193.0
20.123,-0.069,0.54,18.0
20.106,-0.07,0.436,28.0
20.123,-0.07,0.331,28.0
20.12,-0.071,0.227,26.0
20.126,-0.071,0.124,28.0
58.235,-0.212,1.987,255.0
20.146,-0.073,0.583,14.0
20.135,-0.074,0.479,23.0
20.098,-0.074,0.373,33.0
20.118,-0.075,0.27,26.0
20.127,-0.075,0.167,26.0
58.231,-0.222,2.11,255.0
58.291,-0.223,1.812,19.0
20.11,-0.077,0.521,18.0
20.109,-0.077,0.416,29.0
20.116,-0.078,0.312,27.0
20.113,-0.078,0.208,25.0
58.235,-0.23,2.233,255.0
58.24,-0.231,1.933,255.0
20.137,-0.08,0.564,15.0
20.122,-0.08,0.458,26.0
20.117,-0.08,0.355,33.0
20.12,-0.08,0.251,26.0
58.233,-0.236,2.356,255.0
58.292,-0.237,2.058,255.0
20.163,-0.082,0.608,10.0
20.099,-0.081,0.501,19.0
20.111,-0.081,0.398,30.0
20.113,-0.081,0.294,25.0
58.228,-0.24,2.481,255.0
58.24,-0.24,2.181,255.0
58.257,-0.24,1.881,255.0
20.123,-0.082,0.544,16.0
20.116,-0.082,0.44,28.0
20.11,-0.082,0.336,30.0
58.301,-0.242,2.607,255.0
58.235,-0.241,2.303,255.0
58.295,-0.24,2.005,255.0
20.146,-0.082,0.587,12.0
20.121,-0.082,0.482,23.0
20.114,-0.082,0.379,34.0
58.292,-0.242,2.73,255.0
58.234,-0.24,2.425,255.0
58.225,-0.239,2.125,255.0
58.283,-0.238,1.82,150.0
20.114,-0.081,0.524,18.0
20.122,-0.081,0.421,30.0
58.769,-0.241,2.874,75.0
58.295,-0.237,2.55,255.0
58.224,-0.235,2.246,255.0
58.225,-0.233,1.94,255.0
20.138,-0.08,0.567,15.0
20.12,-0.079,0.463,24.0
58.944,-0.236,3.008,59.0
58.299,-0.232,2.673,255.0
58.222,-0.229,2.37,255.0
58.217,-0.227,2.063,255.0
20.171,-0.078,0.61,9.0
20.134,-0.077,0.505,20.0
58.905,-0.229,3.128,49.0
58.346,-0.224,2.797,176.0
58.22,-0.221,2.49,255.0
58.219,-0.219,2.183,255.0
58.237,-0.216,1.883,255.0
20.143,-0.073,0.547,17.0
58.888,-0.219,3.25,36.0
58.987,-0.217,2.95,61.0
58.29,-0.212,2.613,255.0
58.252,-0.208,2.304,238.0
58.203,-0.205,2.002,255.0
20.157,-0.07,0.589,13.0
46.084,-0.162,2.638,47.0
58.806,-0.204,3.061,53.0
58.267,-0.199,2.732,255.0
58.252,-0.196,2.424,226.0
58.217,-0.192,2.121,255.0
58.316,-0.189,1.824,150.0
45.729,-0.151,2.711,55.0
58.616,-0.189,3.171,69.0
58.94,-0.187,2.883,33.0
58.234,-0.181,2.541,255.0
58.306,-0.177,2.241,173.0
58.228,-0.173,1.938,255.0
45.542,-0.138,2.793,74.0
58.852,-0.174,3.303,41.0
58.858,-0.17,2.998,36.0
58.223,-0.164,2.658,255.0
58.298,-0.16,2.359,150.0
58.28,-0.155,2.057,194.0
45.524,-0.124,2.883,65.0
46.127,-0.122,2.682,57.0
58.516,-0.15,3.098,63.0
58.324,-0.145,2.779,187.0
58.306,-0.14,2.476,150.0
58.297,-0.136,2.173,150.0
45.526,-0.108,2.974,27.0
58.733,-0.135,3.53,8.0
59.473,-0.132,3.266,35.0
59.261,-0.126,2.941,28.0
58.264,-0.119,2.589,237.0
20.119,-0.039,0.789,18.0
45.564,-0.091,3.067,11.0
45.527,-0.087,2.827,57.0
46.154,-0.084,2.626,15.0
58.47,-0.101,3.018,18.0
58.213,-0.095,2.701,255.0
20.124,-0.031,0.829,22.0
101.99,-0.162,7.066,31.0
45.487,-0.068,2.914,57.0
46.13,-0.064,2.715,54.0
59.168,-0.077,3.169,38.0
58.76,-0.07,2.841,41.0
20.115,-0.022,0.868,18.0
66.671,-0.076,4.75,3.0
45.48,-0.047,3.003,59.0
58.725,-0.055,3.571,10.0
59.913,-0.05,3.324,40.0
59.292,-0.043,2.981,57.0
58.256,-0.036,2.626,224.0
66.675,-0.044,4.879,24.0
45.483,-0.025,3.09,31.0
45.524,-0.02,2.855,11.0
46.114,-0.015,2.646,20.0
59.3,-0.013,3.095,26.0
58.246,-0.006,2.736,215.0
68.333,-0.01,5.13,16.0
45.515,-0.001,3.179,5.0
45.499,0.003,2.94,33.0
46.117,0.009,2.733,53.0
59.934,0.018,3.24,39.0
66.941,0.028,3.27,18.0
43.948,0.017,3.382,3.0
68.293,0.035,4.897,23.0
45.483,0.029,3.024,51.0
58.653,0.044,3.587,25.0
59.933,0.053,3.351,27.0
66.888,0.067,3.391,13.0
52.676,0.051,4.152,11.0
66.482,0.073,4.891,28.0
45.495,0.056,3.109,71.0
58.655,0.079,3.695,68.0
66.619,0.099,3.848,17.0
59.375,0.096,3.119,45.0
52.801,0.084,4.26,23.0
45.694,0.079,3.446,5.0
45.523,0.084,3.194,50.0
58.653,0.117,3.802,58.0
46.129,0.098,2.748,54.0
59.534,0.135,3.236,33.0
53.549,0.12,4.418,28.0
45.682,0.109,3.528,4.0
45.582,0.115,3.281,44.0
58.636,0.156,3.907,42.0
60.171,0.168,3.693,24.0
59.655,0.175,3.349,6.0
53.624,0.157,4.521,28.0
52.608,0.162,4.158,8.0
45.601,0.146,3.364,67.0
58.641,0.197,4.011,18.0
60.245,0.21,3.804,40.0
46.183,0.168,2.674,5.0
44.492,0.161,3.829,4.0
45.767,0.173,3.697,25.0
0.0,0.0,0.0,0.0
45.566,0.186,3.195,31.0
60.302,0.254,3.911,30.0
46.2,0.201,2.754,11.0
40.45,0.177,3.551,49.0
45.771,0.207,3.776,61.0
0.0,0.0,0.0,0.0
45.627,0.22,3.278,38.0
0.0,0.0,0.0,0.0
67.162,0.345,4.117,17.0
51.018,0.262,4.566,5.0
45.638,0.242,3.842,57.0
45.463,0.248,3.587,59.0
60.417,0.339,4.443,31.0
58.629,0.338,4.001,26.0
46.246,0.274,2.912,52.0
53.692,0.319,4.896,33.0
45.383,0.277,3.897,40.0
45.441,0.285,3.661,69.0
60.429,0.388,4.543,32.0
58.624,0.386,4.097,37.0
46.251,0.312,2.988,45.0
42.351,0.286,3.931,4.0
45.755,0.317,4.004,6.0
45.408,0.322,3.732,71.0
67.295,0.489,5.168,23.0
58.576,0.435,4.188,52.0
67.173,0.51,4.448,22.0
45.817,0.349,4.327,8.0
45.762,0.356,4.078,6.0
45.17,0.359,3.784,63.0
43.547,0.353,3.413,9.0
58.565,0.485,4.279,53.0
67.203,0.568,4.554,28.0
45.841,0.389,4.401,35.0
53.91,0.467,4.889,5.0
44.97,0.397,3.839,23.0
52.586,0.474,4.203,16.0
58.632,0.539,4.375,61.0
67.202,0.629,4.658,16.0
45.886,0.431,4.477,8.0
44.679,0.428,4.121,4.0
40.416,0.394,3.512,30.0
52.598,0.522,4.285,22.0
58.635,0.593,4.465,13.0
101.076,1.04,7.16,19.0
36.304,0.375,3.598,5.0
40.343,0.424,3.782,40.0
40.395,0.432,3.571,31.0
58.528,0.637,4.856,33.0
43.4,0.48,3.369,1.0
69.298,0.779,5.01,3.0
52.955,0.598,5.326,4.0
40.313,0.463,3.839,66.0
40.508,0.472,3.64,20.0
58.664,0.694,4.952,8.0
43.347,0.521,3.427,8.0
67.811,0.828,5.0,6.0
52.96,0.65,5.403,15.0
40.327,0.502,3.898,20.0
40.443,0.511,3.692,44.0
40.39,0.518,3.466,0.0
52.524,0.683,4.227,15.0
67.481,0.89,5.07,4.0
30.935,0.41,3.199,6.0
36.396,0.489,3.568,3.0
40.462,0.552,3.75,26.0
40.389,0.559,3.522,55.0
58.098,0.815,4.756,1.0
46.448,0.66,3.554,11.0
37.138,0.531,3.892,3.0
58.697,0.85,5.836,19.0
54.109,0.794,5.089,5.0
52.395,0.779,4.641,24.0
67.141,1.012,5.586,7.0
46.432,0.709,3.615,76.0
37.111,0.57,3.94,8.0
53.586,0.833,5.4,4.0
54.108,0.852,5.161,7.0
52.481,0.836,4.717,14.0
43.534,0.702,3.679,18.0
46.432,0.758,3.675,59.0
37.064,0.608,3.983,2.0
58.576,0.974,5.979,3.0
52.54,0.883,5.079,20.0
43.956,0.747,4.007,7.0
46.493,0.8,3.988,5.0
46.486,0.809,3.738,3.0
46.187,0.809,5.022,7.0
37.089,0.656,3.832,1.0
52.569,0.941,5.147,11.0
40.409,0.731,3.734,24.0
46.475,0.85,4.043,26.0
43.149,0.798,3.522,9.0
46.205,0.86,5.081,8.0
52.532,0.989,5.491,39.0
52.768,1.003,5.23,5.0
40.328,0.774,3.774,39.0
40.403,0.784,3.563,12.0
43.466,0.852,3.599,16.0
52.501,1.036,5.835,17.0
37.092,0.739,3.92,4.0
36.296,0.73,3.639,2.0
40.373,0.821,3.825,9.0
40.318,0.828,3.601,14.0
52.406,1.087,4.398,12.0
36.901,0.77,4.143,2.0
46.842,0.987,5.004,10.0
46.549,0.99,4.72,28.0
52.54,1.128,5.036,22.0
40.297,0.873,3.644,27.0
44.019,0.963,3.742,5.0
36.893,0.812,4.183,1.0
55.181,1.226,5.955,2.0
46.528,1.043,4.768,19.0
52.537,1.189,5.092,20.0
46.62,1.064,4.265,4.0
46.581,1.072,4.009,3.0
47.399,1.099,5.425,11.0
46.584,1.09,5.076,37.0
37.0,0.873,3.83,3.0
52.674,1.253,5.16,21.0
40.363,0.969,3.734,14.0
46.531,1.126,4.052,4.0
46.659,1.137,5.388,10.0
0.0,0.0,0.0,0.0
46.458,1.152,4.856,4.0
46.576,1.164,4.609,9.0
40.352,1.017,3.773,64.0
40.423,1.026,3.56,25.0
46.605,1.192,5.427,28.0
46.169,1.19,5.123,3.0
46.382,1.205,4.892,6.0
46.578,1.219,4.653,27.0
40.368,1.065,3.812,25.0
40.385,1.074,3.594,25.0
52.613,1.409,6.176,3.0
46.237,1.247,5.173,8.0
46.347,1.26,4.931,5.0
46.601,1.277,4.698,7.0
52.938,1.461,5.047,13.0
40.393,1.123,3.631,41.0
52.655,1.475,6.228,6.0
46.229,1.305,5.213,7.0
46.292,1.315,4.966,3.0
59.047,1.69,6.004,22.0
43.74,1.26,4.208,4.0
40.411,1.173,3.667,53.0
58.103,1.699,6.922,2.0
48.463,1.427,5.506,1.0
0.0,0.0,0.0,0.0
52.444,1.565,5.376,4.0
48.663,1.462,4.721,3.0
40.417,1.223,3.7,42.0
58.222,1.775,6.983,4.0
59.56,1.827,6.815,34.0
46.651,1.441,5.08,23.0
59.144,1.839,6.109,2.0
43.794,1.37,4.283,15.0
43.73,1.377,4.036,7.0
60.613,1.924,7.316,7.0
58.941,1.882,6.788,33.0
46.568,1.496,5.106,10.0
59.144,1.912,6.152,4.0
65.853,2.143,6.488,5.0
43.67,1.43,4.062,5.0
59.561,1.965,7.233,20.0
59.545,1.977,6.901,3.0
46.444,1.551,5.125,11.0
46.197,1.552,4.838,9.0
52.482,1.774,5.207,4.0
43.656,1.485,4.09,3.0
47.629,1.631,5.816,2.0
46.722,1.61,5.445,16.0
46.303,1.605,5.14,8.0
46.257,1.612,4.874,7.0
60.184,2.11,6.009,11.0
53.365,1.882,5.033,5.0
39.427,1.4,4.839,2.0
46.727,1.669,5.475,11.0
46.239,1.661,5.16,5.0
46.844,1.692,4.964,3.0
60.225,2.187,6.048,7.0
53.271,1.946,5.056,7.0
39.422,1.451,4.861,2.0
52.653,1.948,6.199,2.0
46.592,1.732,5.227,3.0
60.225,2.251,6.415,27.0
60.232,2.264,6.082,3.0
43.764,1.654,4.177,2.0
47.528,1.809,5.887,6.0
52.685,2.016,6.231,2.0
60.266,2.318,6.792,13.0
46.739,1.807,5.003,6.0
60.167,2.337,6.106,4.0
52.343,2.044,5.022,4.0
60.478,2.379,7.52,9.0
46.948,1.856,5.575,0.0
59.526,2.365,6.736,30.0
65.911,2.631,7.085,5.0
45.999,1.844,4.689,4.0
52.496,2.116,5.06,6.0
47.111,1.913,5.879,17.0
59.749,2.438,7.122,6.0
58.978,2.417,6.7,8.0
46.21,1.902,4.987,2.0
46.017,1.903,4.71,5.0
52.401,2.178,5.072,10.0
59.717,2.501,7.476,7.0
59.566,2.506,7.123,2.0
60.919,2.574,6.943,2.0
66.802,2.835,7.234,9.0
64.461,2.748,6.621,4.0
52.417,2.245,5.092,6.0
47.783,2.062,5.999,2.0
59.359,2.573,7.119,6.0
61.091,2.659,6.984,1.0
46.32,2.024,5.031,11.0
46.921,2.06,4.834,6.0
52.354,2.308,5.103,4.0
52.635,2.338,6.624,4.0
60.132,2.682,7.229,6.0
0.0,0.0,0.0,0.0
46.374,2.085,5.05,10.0
46.98,2.121,4.853,8.0
52.248,2.369,5.106,3.0
46.976,2.146,5.924,0.0
61.107,2.802,7.362,3.0
0.0,0.0,0.0,0.0
46.246,2.137,5.047,12.0
46.469,2.156,4.811,29.0
60.891,2.836,5.965,2.0
47.003,2.206,5.938,1.0
46.765,2.203,5.644,2.0
60.31,2.852,6.939,0.0
46.234,2.194,5.055,13.0
46.753,2.228,4.849,3.0
45.772,2.189,4.491,3.0
47.338,2.281,5.988,3.0
46.763,2.262,5.652,1.0
0.0,0.0,0.0,0.0
46.326,2.257,5.072,15.0
46.741,2.285,4.855,3.0
45.704,2.243,4.491,5.0
47.181,2.333,5.974,3.0
0.0,0.0,0.0,0.0
60.363,3.006,6.961,3.0
46.377,2.317,5.082,17.0
60.645,3.04,6.305,5.0
45.676,2.298,4.492,6.0
47.459,2.405,6.014,1.0
0.0,0.0,0.0,0.0
60.428,3.083,6.973,3.0
46.328,2.371,5.08,7.0
46.586,2.392,4.845,3.0
45.656,2.352,4.492,7.0
0.0,0.0,0.0,0.0
60.45,3.147,7.319,5.0
60.291,3.148,6.958,0.0
46.263,2.424,5.073,4.0
47.07,2.474,4.896,3.0
45.639,2.406,4.49,2.0
0.0,0.0,0.0,0.0
0.0,0.0,0.0,0.0
47.507,2.539,5.481,2.0
45.881,2.459,5.03,19.0
47.028,2.528,4.89,2.0
43.464,2.343,4.274,1.0
0.0,0.0,0.0,0.0
0.0,0.0,0.0,0.0
47.557,2.597,5.484,1.0
46.221,2.532,5.063,3.0
52.439,2.881,5.448,4.0
43.387,2.391,4.263,2.0
0.0,0.0,0.0,0.0
0.0,0.0,0.0,0.0
45.979,2.566,5.297,4.0
46.252,2.588,5.061,4.0
46.538,2.611,4.829,2.0
45.693,2.57,4.484,5.0
0.0,0.0,0.0,0.0
45.73,2.598,5.521,3.0
0.0,0.0,0.0,0.0
46.184,2.638,5.046,7.0
46.395,2.657,4.806,1.0
43.458,2.495,4.256,1.0
0.0,0.0,0.0,0.0
47.749,2.769,5.755,2.0
47.16,2.741,5.416,1.0
46.214,2.693,5.04,7.0
45.493,2.657,4.703,3.0
0.0,0.0,0.0,0.0
0.0,0.0,0.0,0.0
0.0,0.0,0.0,0.0
46.86,2.776,5.37,2.0
46.198,2.744,5.027,4.0
45.741,2.73,4.458,9.0
0.0,0.0,0.0,0.0
0.0,0.0,0.0,0.0
47.178,2.849,5.393,3.0
46.195,2.795,5.013,3.0
45.71,2.779,4.441,12.0
0.0,0.0,0.0,0.0
0.0,0.0,0.0,0.0
47.239,2.905,5.384,1.0
46.18,2.845,4.995,2.0
45.68,2.827,4.422,12.0
0.0,0.0,0.0,0.0
0.0,0.0,0.0,0.0
47.188,2.952,5.361,1.0
46.091,2.889,4.968,2.0
45.531,2.867,4.39,9.0
0.0,0.0,0.0,0.0
0.0,0.0,0.0,0.0
46.166,2.938,5.225,1.0
46.073,2.938,4.946,3.0
45.538,2.915,4.371,3.0
0.0,0.0,0.0,0.0
0.0,0.0,0.0,0.0
46.183,2.987,5.206,3.0
46.057,2.985,4.923,3.0
45.717,2.974,4.366,2.0
0.0,0.0,0.0,0.0
47.138,3.092,5.56,2.0
46.186,3.035,5.183,1.0
46.137,3.037,4.909,2.0
45.808,3.026,4.351,1.0
0.0,0.0,0.0,0.0
47.103,3.137,5.531,1.0
0.0,0.0,0.0,0.0
46.175,3.086,4.887,1.0
45.653,3.056,4.571,1.0
45.822,3.072,4.327,2.0
0.0,0.0,0.0,0.0
0.0,0.0,0.0,0.0
0.0,0.0,0.0,0.0
46.213,3.133,4.864,1.0
45.316,3.077,4.511,2.0
47.778,3.25,4.483,3.0
0.0,0.0,0.0,0.0
46.203,3.167,5.37,1.0
0.0,0.0,0.0,0.0
45.639,3.143,4.514,7.0
45.565,3.143,4.246,1.0
0.0,0.0,0.0,0.0
46.188,3.21,5.337,3.0
0.0,0.0,0.0,0.0
45.55,3.178,4.475,6.0
45.58,3.185,4.217,7.0
0.0,0.0,0.0,0.0
0.0,0.0,0.0,0.0
0.0,0.0,0.0,0.0
45.655,3.226,4.453,4.0
45.593,3.227,4.185,3.0
0.0,0.0,0.0,0.0
0.0,0.0,0.0,0.0
0.0,0.0,0.0,0.0
45.76,3.274,4.428,2.0
0.0,0.0,0.0,0.0
0.0,0.0,0.0,0.0
46.244,3.339,4.975,1.0
45.308,3.275,4.609,2.0
0.0,0.0,0.0,0.0
0.0,0.0,0.0,0.0
0.0,0.0,0.0,0.0
45.547,3.329,4.597,1.0
47.337,3.464,4.505,1.0
0.0,0.0,0.0,0.0
0.0,0.0,0.0,0.0
0.0,0.0,0.0,0.0
45.556,3.365,4.559,3.0
47.346,3.501,4.467,1.0
0.0,0.0,0.0,0.0
0.0,0.0,0.0,0.0
0.0,0.0,0.0,0.0
0.0,0.0,0.0,0.0
45.497,3.434,3.948,1.0
0.0,0.0,0.0,0.0
0.0,0.0,0.0,0.0
45.42,3.458,3.898,1.0
0.0,0.0,0.0,0.0
0.0,0.0,0.0,0.0
45.476,3.485,4.648,4.0
45.947,3.523,4.427,2.0
0.0,0.0,0.0,0.0
0.0,0.0,0.0,0.0
46.07,3.56,4.392,0.0
110.165,8.52,9.869,4.0
45.678,3.535,3.829,6.0
0.0,0.0,0.0,0.0
0.0,0.0,0.0,0.0
45.315,3.531,4.011,1.0
0.0,0.0,0.0,0.0
45.426,3.559,4.764,4.0
114.617,8.994,10.022,10.0
109.888,8.626,8.977,2.0
0.0,0.0,0.0,0.0
45.396,3.581,4.711,1.0
115.712,9.133,10.659,3.0
114.53,9.044,9.89,6.0
0.0,0.0,0.0,0.0
45.999,3.652,4.456,1.0
112.091,8.902,10.198,3.0
114.718,9.113,9.776,2.0
0.0,0.0,0.0,0.0
45.292,3.615,4.859,3.0
0.0,0.0,0.0,0.0
46.006,3.673,4.403,1.0
106.903,8.538,8.985,2.0
45.324,3.637,4.809,2.0
0.0,0.0,0.0,0.0
116.113,9.318,10.974,2.0
0.0,0.0,0.0,0.0
106.89,8.58,8.856,2.0
108.064,8.676,8.332,5.0
0.0,0.0,0.0,0.0
0.0,0.0,0.0,0.0
116.005,9.353,10.822,4.0
0.0,0.0,0.0,0.0
106.873,8.618,8.724,4.0
108.131,8.72,8.204,1.0
0.0,0.0,0.0,0.0
46.071,3.729,4.508,0.0
116.087,9.398,10.685,6.0
110.584,8.952,9.528,1.0
107.135,8.673,8.613,4.0
85.337,6.909,6.369,1.0
0.0,0.0,0.0,0.0
46.007,3.738,4.443,1.0
116.16,9.437,10.546,6.0
116.234,9.443,9.869,5.0
114.788,9.325,9.084,5.0
107.552,8.737,7.891,5.0
0.0,0.0,0.0,0.0
116.169,9.468,11.072,7.0
116.072,9.46,10.389,11.0
116.145,9.464,9.713,16.0
107.675,8.773,8.382,10.0
107.607,8.766,7.757,7.0
114.966,9.398,11.476,1.0
116.117,9.49,10.916,5.0
116.091,9.486,10.241,11.0
116.187,9.491,9.565,17.0
107.92,8.814,8.262,12.0
107.643,8.792,7.619,5.0
116.114,9.514,11.435,3.0
116.02,9.502,10.753,8.0
116.123,9.508,10.089,10.0
116.315,9.521,9.421,8.0
111.384,9.115,8.379,7.0
91.709,7.504,6.37,4.0
46.055,3.78,4.474,2.0
115.996,9.516,10.595,8.0
116.246,9.533,9.943,7.0
106.967,8.769,8.52,7.0
116.129,9.518,8.579,8.0
109.396,8.964,7.451,5.0
114.441,9.404,10.961,6.0
116.056,9.533,10.442,5.0
116.417,9.558,9.8,3.0
107.007,8.781,8.378,7.0
111.41,9.14,8.079,6.0
107.522,8.818,7.178,1.0
114.396,9.407,10.799,4.0
112.472,9.245,9.964,3.0
116.091,9.537,9.611,4.0
107.182,8.8,8.243,15.0
85.608,7.026,6.09,4.0
91.645,7.519,5.99,4.0
114.703,9.434,10.668,3.0
116.046,9.54,10.118,5.0
116.413,9.564,9.475,6.0
107.279,8.809,8.101,10.0
85.485,7.016,5.961,4.0
91.659,7.52,5.862,9.0
115.229,9.475,10.552,3.0
116.203,9.548,9.968,6.0
106.999,8.787,8.558,6.0
111.365,9.14,8.252,9.0
109.371,8.971,7.472,5.0
91.528,7.504,5.724,7.0
116.108,9.54,10.467,4.0
116.13,9.534,9.794,3.0
112.262,9.21,8.818,4.0
111.439,9.137,8.097,3.0
109.534,8.975,7.326,2.0
91.369,7.482,5.585,4.0
116.056,9.523,10.294,3.0
116.213,9.528,9.635,7.0
107.433,8.801,8.285,11.0
107.633,8.812,7.666,4.0
91.569,7.491,5.994,5.0
97.263,7.951,5.805,3.0
116.172,9.515,10.135,8.0
116.199,9.509,9.464,9.0
116.075,9.49,8.782,7.0
91.75,7.495,6.401,3.0
91.663,7.483,5.865,5.0
98.056,7.999,5.71,1.0
116.174,9.492,9.965,20.0
116.146,9.481,9.289,7.0
111.502,9.094,8.272,3.0
116.553,9.497,7.96,3.0
91.446,7.445,5.718,5.0
85.654,6.968,4.861,1.0
116.165,9.464,9.792,11.0
107.935,8.784,8.472,2.0
107.607,8.749,7.824,10.0
91.741,7.452,6.131,5.0
97.259,7.893,5.938,7.0
92.071,7.465,5.09,6.0
112.177,9.107,9.289,6.0
108.063,8.763,8.322,10.0
107.482,8.708,7.655,4.0
97.614,7.9,6.378,1.0
91.647,7.41,5.459,1.0
107.778,8.706,5.798,7.0
106.986,8.65,8.697,4.0
107.617,8.692,8.125,2.0
107.87,8.702,7.52,2.0
97.248,7.837,6.207,5.0
99.322,7.996,5.766,3.0
92.255,7.42,4.824,5.0
121.782,9.802,9.716,4.0
114.501,9.205,8.471,5.0
91.66,7.36,6.251,4.0
91.302,7.323,5.691,6.0
91.784,7.354,5.192,4.0
87.392,6.994,4.438,9.0
122.07,9.775,9.555,4.0
107.203,8.573,7.769,4.0
97.411,7.78,6.496,3.0
108.524,8.658,6.599,4.0
92.137,7.342,5.072,5.0
96.644,7.693,4.764,8.0
107.47,8.558,8.25,2.0
91.725,7.293,6.51,3.0
91.212,7.244,5.945,6.0
91.237,7.236,5.411,5.0
92.341,7.314,4.944,1.0
96.824,7.66,4.626,4.0
91.783,7.263,6.905,4.0
110.233,8.71,7.656,6.0
91.301,7.203,5.813,4.0
91.413,7.202,5.282,8.0
99.673,7.843,5.184,1.0
96.872,7.613,4.48,6.0
110.207,8.66,8.121,13.0
91.138,7.15,6.189,4.0
106.61,8.353,6.624,2.0
91.877,7.188,5.169,11.0
108.205,8.453,5.463,2.0
96.694,7.543,4.325,1.0
112.099,8.743,8.088,4.0
91.242,7.105,6.056,7.0
99.122,7.706,6.006,6.0
92.169,7.155,5.044,2.0
154.649,11.987,7.571,3.0
96.654,7.481,4.176,2.0
0.0,0.0,0.0,0.0
112.589,8.696,7.302,3.0
96.986,7.478,5.73,4.0
110.849,8.534,5.899,5.0
96.544,7.421,4.581,3.0
96.74,7.424,4.033,1.0
91.311,7.003,6.309,4.0
100.01,7.656,6.332,4.0
108.37,8.282,6.235,2.0
96.444,7.358,4.983,4.0
119.83,9.126,5.5,6.0
156.595,11.907,6.288,7.0
112.934,8.579,7.629,2.0
96.938,7.351,5.989,6.0
92.287,6.985,5.169,4.0
107.911,8.154,5.411,3.0
96.35,7.267,4.276,5.0
169.918,12.794,6.564,3.0
111.699,8.401,7.375,1.0
107.633,8.079,6.485,2.0
110.901,8.309,6.041,7.0
107.224,8.018,5.213,1.0
110.166,8.224,4.723,6.0
163.666,12.196,6.077,11.0
107.667,8.012,6.945,2.0
92.315,6.855,5.422,2.0
96.475,7.15,5.11,2.0
0.0,0.0,0.0,0.0
163.691,12.084,6.769,6.0
108.751,8.013,3.872,1.0
108.236,7.963,6.817,2.0
110.968,8.146,6.349,8.0
107.989,7.911,5.556,2.0
107.482,7.858,4.9,4.0
0.0,0.0,0.0,0.0
166.324,12.111,5.671,16.0
111.584,8.111,6.859,6.0
92.003,6.672,5.124,3.0
108.117,7.824,5.4,2.0
121.714,8.789,5.367,2.0
109.591,7.897,4.202,1.0
0.0,0.0,0.0,0.0
111.289,7.986,6.674,6.0
120.272,8.612,6.52,3.0
0.0,0.0,0.0,0.0
110.121,7.85,4.692,5.0
153.592,10.924,5.662,8.0
155.881,11.062,4.85,22.0
92.396,6.541,5.402,1.0
107.44,7.589,5.664,2.0
0.0,0.0,0.0,0.0
0.0,0.0,0.0,0.0
156.452,10.97,5.532,3.0
161.556,11.302,4.784,14.0
111.139,7.756,6.332,1.0
108.228,7.533,5.542,3.0
121.432,8.431,5.521,5.0
154.602,10.707,6.125,3.0
156.693,10.826,5.307,17.0
169.082,11.654,4.758,6.0
120.027,8.251,6.661,3.0
155.907,10.689,7.756,3.0
155.916,10.661,6.859,12.0
157.025,10.71,5.991,4.0
161.81,11.008,5.245,4.0
167.872,11.391,4.478,7.0
196.449,13.289,10.612,5.0
157.661,10.634,7.609,4.0
110.037,7.403,4.679,5.0
179.328,12.032,6.579,5.0
167.912,11.235,5.197,4.0
178.94,11.942,4.512,10.0
195.27,12.989,10.262,5.0
193.801,12.853,9.072,6.0
157.048,10.388,6.45,4.0
162.078,10.689,5.71,14.0
178.275,11.724,5.258,5.0
174.0,11.41,4.135,22.0
194.179,12.69,9.924,5.0
107.609,7.011,4.881,2.0
0.0,0.0,0.0,0.0
162.619,10.533,5.496,5.0
194.425,12.555,5.456,5.0
209.37,13.481,4.678,5.0
109.287,7.01,5.429,1.0
161.272,10.312,7.085,4.0
154.878,9.871,5.915,3.0
0.0,0.0,0.0,0.0
0.0,0.0,0.0,0.0
197.993,12.504,4.14,13.0
194.449,12.229,9.381,8.0
0.0,0.0,0.0,0.0
0.0,0.0,0.0,0.0
0.0,0.0,0.0,0.0
195.682,12.148,4.938,15.0
198.104,12.261,3.867,4.0
109.771,6.764,5.143,1.0
0.0,0.0,0.0,0.0
0.0,0.0,0.0,0.0
0.0,0.0,0.0,0.0
195.802,11.902,4.672,16.0
0.0,0.0,0.0,0.0
193.181,11.65,8.784,8.0
0.0,0.0,0.0,0.0
192.65,11.536,6.555,6.0
194.72,11.619,5.493,7.0
0.0,0.0,0.0,0.0
202.34,11.986,3.394,6.0
193.814,11.427,8.55,15.0
0.0,0.0,0.0,0.0
0.0,0.0,0.0,0.0
195.5,11.397,5.248,5.0
0.0,0.0,0.0,0.0
0.0,0.0,0.0,0.0
193.803,11.158,8.288,4.0
0.0,0.0,0.0,0.0
194.608,11.114,6.094,6.0
0.0,0.0,0.0,0.0
0.0,0.0,0.0,0.0
0.0,0.0,0.0,0.0
193.944,10.887,8.034,4.0
192.733,10.776,6.883,9.0
196.077,10.917,5.881,9.0
196.077,10.87,4.739,43.0
196.101,10.827,3.622,58.0
196.045,10.782,2.504,52.0
192.815,10.54,7.732,4.0
193.373,10.525,6.65,7.0
196.024,10.626,5.623,9.0
196.421,10.6,4.493,7.0
200.013,10.748,3.435,6.0
206.87,11.068,2.373,15.0
193.068,10.268,7.495,12.0
193.661,10.251,6.411,9.0
197.397,10.401,5.408,9.0
196.686,10.319,4.248,5.0
0.0,0.0,0.0,0.0
206.487,10.733,2.105,9.0
0.0,0.0,0.0,0.0
194.037,9.971,6.177,19.0
197.11,10.082,5.15,7.0
0.0,0.0,0.0,0.0
197.762,10.017,2.892,13.0
197.433,9.953,1.765,21.0
192.659,9.648,6.992,6.0
194.149,9.673,5.938,19.0
0.0,0.0,0.0,0.0
0.0,0.0,0.0,0.0
0.0,0.0,0.0,0.0
196.98,9.619,1.519,26.0
194.085,9.412,6.806,18.0
194.005,9.357,5.698,17.0
196.427,9.422,4.65,7.0
199.903,9.537,3.573,7.0
205.258,9.744,2.503,6.0
196.977,9.3,1.281,33.0
193.726,9.076,6.559,27.0
0.0,0.0,0.0,0.0
0.0,0.0,0.0,0.0
206.398,9.509,3.444,14.0
204.871,9.386,2.254,13.0
196.959,8.976,1.049,36.0
193.115,8.729,6.312,24.0
193.929,8.714,5.236,16.0
195.533,8.736,4.167,44.0
195.471,8.682,3.036,43.0
195.506,8.631,1.925,51.0
195.581,8.586,0.817,34.0
193.421,8.418,6.1,21.0
192.674,8.334,4.982,18.0
0.0,0.0,0.0,0.0
0.0,0.0,0.0,0.0
196.637,8.347,1.714,11.0
196.805,8.302,0.6,13.0
193.223,8.081,5.879,17.0
0.0,0.0,0.0,0.0
0.0,0.0,0.0,0.0
199.145,8.165,2.647,7.0
196.614,8.007,1.497,25.0
0.0,0.0,0.0,0.0
193.465,7.754,5.673,11.0
0.0,0.0,0.0,0.0
0.0,0.0,0.0,0.0
199.297,7.82,2.432,7.0
196.62,7.663,1.286,23.0
0.0,0.0,0.0,0.0
194.778,7.462,5.504,4.0
0.0,0.0,0.0,0.0
203.121,7.662,3.434,6.0
203.218,7.611,2.265,13.0
196.49,7.304,1.078,24.0
0.0,0.0,0.0,0.0
194.727,7.109,5.298,6.0
195.274,7.071,4.206,15.0
203.017,7.292,3.222,7.0
202.747,7.224,2.05,23.0
196.481,6.948,0.876,30.0
0.0,0.0,0.0,0.0
195.372,6.776,5.118,8.0
195.262,6.716,4.009,24.0
195.336,6.662,2.906,10.0
196.34,6.639,1.792,5.0
196.349,6.585,0.682,13.0
0.0,0.0,0.0,0.0
194.028,6.377,4.894,8.0
195.305,6.36,3.821,9.0
195.348,6.304,2.718,9.0
196.048,6.271,1.601,24.0
0.0,0.0,0.0,0.0
0.0,0.0,0.0,0.0
193.981,6.012,4.709,22.0
194.202,5.962,3.616,6.0
201.74,6.133,2.618,25.0
196.023,5.899,1.416,42.0
0.0,0.0,0.0,0.0
0.0,0.0,0.0,0.0
193.797,5.642,4.526,35.0
0.0,0.0,0.0,0.0
195.639,5.578,2.361,9.0
103.276,2.912,0.653,1.0
103.336,2.882,0.07,2.0
0.0,0.0,0.0,0.0
193.749,5.27,4.352,24.0
193.701,5.209,3.259,16.0
0.0,0.0,0.0,0.0
103.09,2.709,0.562,1.0
100.281,2.604,-0.018,1.0
0.0,0.0,0.0,0.0
193.777,4.898,4.187,31.0
195.106,4.869,3.116,23.0
0.0,0.0,0.0,0.0
100.096,2.437,0.461,2.0
100.113,2.406,-0.101,11.0
0.0,0.0,0.0,0.0
193.899,4.526,4.031,25.0
195.234,4.496,2.96,27.0
0.0,0.0,0.0,0.0
100.187,2.244,0.381,1.0
100.089,2.211,-0.181,4.0
0.0,0.0,0.0,0.0
0.0,0.0,0.0,0.0
0.0,0.0,0.0,0.0
102.914,2.132,0.9,6.0
100.112,2.042,0.302,1.0
0.0,0.0,0.0,0.0
0.0,0.0,0.0,0.0
194.623,3.769,3.743,8.0
103.224,1.966,1.405,16.0
99.98,1.872,0.799,1.0
99.807,1.836,0.227,14.0
0.0,0.0,0.0,0.0
0.0,0.0,0.0,0.0
195.022,3.385,3.609,25.0
0.0,0.0,0.0,0.0
99.665,1.664,0.725,3.0
99.717,1.632,0.156,5.0
0.0,0.0,0.0,0.0
0.0,0.0,0.0,0.0
194.89,2.987,3.471,32.0
0.0,0.0,0.0,0.0
99.63,1.461,0.657,4.0
99.654,1.428,0.088,5.0
0.0,0.0,0.0,0.0
0.0,0.0,0.0,0.0
20.291,0.269,0.348,15.0
20.3,0.263,0.234,6.0
20.342,0.257,0.121,0.0
99.661,1.226,0.025,3.0
0.0,0.0,0.0,0.0
20.198,0.235,-0.221,18.0
20.289,0.228,0.335,34.0
20.291,0.221,0.222,27.0
20.321,0.215,0.108,28.0
20.306,0.208,-0.007,20.0
20.202,0.2,-0.12,14.0
20.173,0.192,-0.232,24.0
20.279,0.186,0.323,29.0
20.269,0.179,0.21,24.0
20.248,0.172,0.096,27.0
20.208,0.165,-0.018,22.0
20.184,0.158,-0.131,31.0
20.169,0.151,-0.243,34.0
20.177,0.143,0.31,27.0
20.18,0.136,0.198,25.0
20.188,0.13,0.085,32.0
20.171,0.122,-0.029,29.0
20.174,0.116,-0.141,35.0
20.201,0.109,-0.254,24.0
20.15,0.101,0.3,30.0
20.158,0.094,0.187,28.0
20.192,0.087,0.075,36.0
20.208,0.08,-0.039,32.0
20.214,0.073,-0.152,26.0
20.205,0.066,-0.264,0.0
20.137,0.059,0.29,29.0
20.145,0.052,0.178,27.0
20.19,0.045,0.065,15.0
20.271,0.038,-0.048,150.0
20.254,0.031,-0.161,151.0
20.275,0.024,-0.274,150.0
20.129,0.017,0.281,29.0
20.126,0.01,0.169,27.0
20.179,0.002,0.057,22.0
20.177,-0.003,-0.057,17.0
20.159,-0.011,-0.169,18.0
20.168,-0.018,-0.281,15.0
20.121,-0.025,0.273,28.0
20.12,-0.032,0.161,34.0
20.133,-0.038,0.049,39.0
20.136,-0.046,-0.064,33.0
20.146,-0.053,-0.176,31.0
20.142,-0.06,-0.288,28.0
20.125,-0.067,0.265,28.0
20.121,-0.074,0.153,27.0
20.124,-0.081,0.042,32.0
20.139,-0.088,-0.071,28.0
20.157,-0.096,-0.183,27.0
20.139,-0.103,-0.295,38.0
20.148,-0.11,0.259,22.0
20.132,-0.117,0.147,18.0
20.148,-0.124,0.035,24.0
20.148,-0.132,-0.078,19.0
20.143,-0.139,-0.189,8.0
20.159,-0.146,-0.301,29.0
58.319,-0.444,0.733,10.0
20.229,-0.161,0.142,0.0
53.344,-0.443,0.079,8.0
56.379,-0.489,-0.234,1.0
52.938,-0.478,-0.513,5.0
38.627,-0.362,-0.588,7.0
64.328,-0.625,0.793,63.0
64.353,-0.649,0.436,18.0
56.208,-0.587,0.07,1.0
56.212,-0.607,-0.246,2.0
52.811,-0.59,-0.524,7.0
38.627,-0.446,-0.597,14.0
20.154,-0.239,0.244,10.0
20.151,-0.246,0.132,3.0
59.536,-0.75,0.062,69.0
56.225,-0.729,-0.258,0.0
52.681,-0.702,-0.533,12.0
38.246,-0.523,-0.598,13.0
20.131,-0.282,0.24,15.0
20.114,-0.289,0.128,13.0
20.123,-0.296,0.017,17.0
59.496,-0.898,-0.282,4.0
52.748,-0.816,-0.542,8.0
38.272,-0.606,-0.604,14.0
20.166,-0.325,0.237,2.0
20.131,-0.332,0.126,9.0
20.133,-0.339,0.014,40.0
52.992,-0.914,-0.258,20.0
45.415,-0.8,-0.472,19.0
38.198,-0.687,-0.608,20.0
53.039,-0.97,0.619,1.0
52.963,-0.989,0.326,40.0
52.943,-1.007,0.034,57.0
45.623,-0.885,-0.226,19.0
45.355,-0.896,-0.475,17.0
38.093,-0.767,-0.609,19.0
38.401,-0.784,0.446,26.0
38.379,-0.798,0.234,57.0
38.376,-0.812,0.022,18.0
40.428,-0.87,-0.202,16.0
40.433,-0.885,-0.425,29.0
38.08,-0.848,-0.61,22.0
40.42,-0.911,0.468,42.0
40.409,-0.926,0.245,40.0
40.41,-0.941,0.023,38.0
40.405,-0.956,-0.203,38.0
38.795,-0.932,-0.408,13.0
38.06,-0.928,-0.61,18.0
0.0,0.0,0.0,0.0
38.717,-0.969,0.236,23.0
38.703,-0.983,0.023,36.0
38.687,-0.997,-0.193,41.0
38.684,-1.011,-0.405,38.0
38.036,-1.008,-0.608,16.0
38.652,-1.035,0.45,71.0
38.655,-1.049,0.237,73.0
38.663,-1.064,0.025,74.0
38.625,-1.077,-0.19,72.0
38.639,-1.092,-0.402,50.0
38.001,-1.088,-0.604,24.0
38.65,-1.116,0.453,97.0
38.645,-1.131,0.241,71.0
38.652,-1.145,0.029,72.0
38.627,-1.159,-0.186,66.0
38.628,-1.173,-0.398,39.0
38.031,-1.17,-0.6,17.0
38.66,-1.198,0.458,67.0
38.685,-1.213,0.246,59.0
38.685,-1.228,0.034,51.0
38.696,-1.243,-0.181,47.0
38.669,-1.256,-0.393,32.0
38.058,-1.251,-0.595,12.0
84.901,-2.81,1.019,22.0
80.45,-2.693,0.525,23.0
80.556,-2.727,0.085,22.0
56.865,-1.946,-0.256,1.0
45.511,-1.574,-0.454,17.0
38.077,-1.331,-0.588,12.0
84.265,-2.966,1.028,32.0
80.383,-2.859,0.541,24.0
80.452,-2.891,0.102,27.0
31.342,-1.138,-0.134,14.0
31.389,-1.151,-0.306,19.0
31.304,-1.159,-0.476,37.0
31.262,-1.165,0.388,41.0
31.257,-1.176,0.217,45.0
31.245,-1.187,0.047,37.0
28.448,-1.091,-0.115,37.0
28.472,-1.103,-0.27,66.0
28.464,-1.113,-0.426,63.0
28.453,-1.119,0.361,79.0
28.447,-1.129,0.206,132.0
28.445,-1.14,0.051,151.0
28.447,-1.15,-0.106,150.0
28.45,-1.161,-0.262,121.0
28.445,-1.171,-0.417,104.0
28.446,-1.177,0.37,120.0
28.442,-1.187,0.215,106.0
28.432,-1.197,0.06,83.0
28.443,-1.208,-0.097,63.0
28.457,-1.219,-0.252,56.0
28.466,-1.23,-0.408,57.0
31.226,-1.355,0.417,19.0
31.228,-1.367,0.246,47.0
31.212,-1.377,0.076,46.0
31.222,-1.389,-0.096,66.0
31.191,-1.4,-0.265,56.0
31.203,-1.412,-0.435,57.0
31.314,-1.423,0.43,23.0
31.293,-1.433,0.259,16.0
31.262,-1.443,0.089,31.0
31.242,-1.453,-0.083,35.0
31.2,-1.463,-0.253,42.0
31.213,-1.475,-0.423,38.0
82.951,-3.935,1.173,33.0
79.853,-3.817,0.696,14.0
0.0,0.0,0.0,0.0
68.911,-3.343,-0.155,0.0
31.307,-1.53,-0.24,6.0
31.347,-1.543,-0.411,6.0
82.88,-4.097,1.209,39.0
67.369,-3.353,0.617,1.0
66.773,-3.348,0.249,0.0
0.0,0.0,0.0,0.0
57.17,-2.908,-0.412,8.0
43.728,-2.24,-0.552,3.0
82.829,-4.257,1.249,15.0
0.0,0.0,0.0,0.0
0.0,0.0,0.0,0.0
65.987,-3.461,-0.084,0.0
56.748,-2.998,-0.38,5.0
24.631,-1.31,-0.298,1.0
67.081,-3.578,1.046,0.0
65.762,-3.531,0.669,3.0
65.619,-3.546,0.312,0.0
24.594,-1.337,-0.018,0.0
24.58,-1.345,-0.151,24.0
24.554,-1.353,-0.284,38.0
24.619,-1.36,0.397,2.0
24.6,-1.368,0.264,28.0
24.588,-1.376,0.13,34.0
24.566,-1.383,-0.004,39.0
24.548,-1.391,-0.137,55.0
24.52,-1.398,-0.269,60.0
24.575,-1.405,0.41,44.0
24.558,-1.412,0.277,47.0
24.534,-1.419,0.144,53.0
24.534,-1.428,0.009,65.0
24.53,-1.436,-0.122,75.0
24.508,-1.443,-0.254,74.0
24.557,-1.449,0.425,75.0
24.534,-1.456,0.292,74.0
24.513,-1.464,0.16,59.0
24.534,-1.473,0.025,89.0
24.52,-1.481,-0.106,72.0
24.493,-1.488,-0.238,65.0
24.539,-1.494,0.441,70.0
24.524,-1.501,0.308,69.0
24.51,-1.509,0.176,41.0
24.529,-1.519,0.041,74.0
24.523,-1.527,-0.09,74.0
24.49,-1.533,-0.222,37.0
24.535,-1.539,0.457,68.0
24.528,-1.547,0.325,46.0
24.525,-1.555,0.193,39.0
24.536,-1.564,0.058,44.0
24.544,-1.573,-0.073,49.0
24.514,-1.579,-0.205,38.0
24.562,-1.585,0.476,40.0
24.559,-1.593,0.343,36.0
24.541,-1.6,0.211,27.0
24.567,-1.61,0.076,21.0
24.556,-1.618,-0.055,14.0
24.586,-1.628,-0.187,9.0
24.605,-1.632,0.495,21.0
24.64,-1.643,0.363,0.0
65.593,-4.394,0.614,167.0
65.491,-4.409,0.254,2.0
65.83,-4.454,-0.098,3.0
56.446,-3.838,-0.387,8.0
82.973,-5.65,1.733,23.0
0.0,0.0,0.0,0.0
65.62,-4.512,0.665,153.0
65.577,-4.529,0.305,1.0
65.725,-4.561,-0.046,2.0
56.728,-3.956,-0.344,15.0
82.886,-5.788,1.798,46.0
0.0,0.0,0.0,0.0
65.548,-4.619,0.718,1.0
65.552,-4.641,0.359,1.0
65.398,-4.651,0.008,0.0
57.144,-4.082,-0.299,6.0
82.613,-5.91,1.86,43.0
0.0,0.0,0.0,0.0
65.596,-4.733,0.773,0.0
65.613,-4.755,0.414,1.0
65.532,-4.77,0.063,8.0
59.609,-4.358,-0.262,5.0
82.428,-6.035,1.927,40.0
83.079,-6.107,1.497,10.0
65.881,-4.864,0.834,0.0
65.609,-4.864,0.472,3.0
65.563,-4.88,0.12,207.0
61.701,-4.612,-0.217,2.0
82.54,-6.177,2.002,41.0
82.979,-6.235,1.568,42.0
81.97,-6.184,1.11,4.0
65.738,-4.979,0.531,1.0
65.573,-4.987,0.179,205.0
61.701,-4.712,-0.16,3.0
82.337,-6.296,2.073,45.0
82.618,-6.341,1.637,39.0
81.925,-6.313,1.185,35.0
65.769,-5.087,0.593,5.0
61.62,-4.785,0.226,7.0
65.93,-5.14,-0.109,0.0
82.121,-6.41,2.145,33.0
82.693,-6.478,1.717,49.0
82.005,-6.448,1.265,30.0
79.381,-6.265,0.791,11.0
79.357,-6.286,0.367,11.0
79.992,-6.36,-0.057,27.0
82.268,-6.548,2.227,36.0
82.703,-6.605,1.798,51.0
82.16,-6.585,1.346,9.0
81.763,-6.577,0.895,43.0
79.44,-6.413,0.445,31.0
79.94,-6.476,0.02,32.0
82.505,-6.691,2.315,44.0
82.515,-6.715,1.875,49.0
0.0,0.0,0.0,0.0
82.078,-6.724,0.979,48.0
79.402,-6.527,0.524,27.0
79.688,-6.574,0.1,14.0
82.38,-6.803,2.395,40.0
82.467,-6.833,1.957,43.0
84.86,-7.053,1.561,6.0
82.068,-6.843,1.063,7.0
65.538,-5.483,0.499,10.0
65.55,-5.502,0.15,49.0
82.127,-6.901,2.473,42.0
83.0,-6.996,2.056,41.0
0.0,0.0,0.0,0.0
0.0,0.0,0.0,0.0
0.0,0.0,0.0,0.0
0.0,0.0,0.0,0.0
82.323,-7.032,2.565,43.0
83.125,-7.123,2.147,29.0
84.801,-7.287,1.738,4.0
0.0,0.0,0.0,0.0
0.0,0.0,0.0,0.0
0.0,0.0,0.0,0.0
82.269,-7.141,2.652,36.0
83.766,-7.292,2.254,14.0
83.193,-7.262,1.795,25.0
0.0,0.0,0.0,0.0
0.0,0.0,0.0,0.0
0.0,0.0,0.0,0.0
82.195,-7.244,2.74,40.0
82.319,-7.275,2.306,44.0
83.091,-7.363,1.884,57.0
0.0,0.0,0.0,0.0
0.0,0.0,0.0,0.0
0.0,0.0,0.0,0.0
82.337,-7.363,2.837,34.0
82.16,-7.367,2.393,48.0
82.534,-7.42,1.965,51.0
54.931,-4.951,1.009,13.0
54.926,-4.963,0.717,32.0
54.93,-4.977,0.425,107.0
82.037,-7.44,2.919,41.0
82.113,-7.465,2.485,44.0
82.138,-7.486,2.049,47.0
54.962,-5.022,1.073,150.0
54.967,-5.036,0.781,150.0
54.964,-5.048,0.489,150.0
81.961,-7.534,3.012,40.0
82.076,-7.562,2.579,44.0
82.046,-7.578,2.142,41.0
54.948,-5.086,1.137,150.0
54.974,-5.101,0.845,153.0
54.975,-5.114,0.553,151.0
82.004,-7.635,3.109,34.0
81.921,-7.644,2.671,44.0
82.035,-7.673,2.239,38.0
82.951,-7.775,1.814,39.0
82.264,-7.728,1.362,28.0
54.93,-5.172,0.617,4.0
82.545,-7.779,3.228,19.0
81.763,-7.722,2.762,42.0
82.116,-7.772,2.338,45.0
82.363,-7.811,1.899,25.0
82.069,-7.801,1.456,39.0
0.0,0.0,0.0,0.0
82.636,-7.88,3.331,11.0
82.027,-7.837,2.87,45.0
82.096,-7.859,2.437,42.0
82.241,-7.889,1.995,40.0
81.926,-7.876,1.553,41.0
0.0,0.0,0.0,0.0
