X,Y,Z,Reflectivity
46.932,1.788,4.109,4.0
47.073,1.793,3.843,4.0
51.744,1.97,3.923,3.0
67.45,2.567,4.721,7.0
52.583,2.013,5.13,6.0
53.358,2.041,4.893,1.0
50.802,1.942,4.362,4.0
68.105,2.602,5.444,3.0
51.758,1.976,3.836,3.0
53.335,2.036,3.643,2.0
42.862,1.645,4.108,2.0
46.947,1.8,4.225,8.0
52.889,2.027,4.451,22.0
51.784,1.983,4.051,3.0
69.226,2.649,5.013,14.0
68.912,2.635,4.59,6.0
46.12,1.773,4.341,5.0
46.979,1.804,4.148,4.0
47.075,1.806,3.881,6.0
51.665,1.98,3.953,2.0
68.035,2.606,4.81,8.0
68.76,2.631,4.461,2.0
46.088,1.772,4.257,3.0
46.925,1.802,4.06,5.0
47.139,1.809,3.803,3.0
51.767,1.984,3.87,2.0
67.027,2.566,4.621,4.0
68.385,2.616,4.316,3.0
50.671,1.947,4.591,4.0
52.914,2.031,4.484,21.0
51.791,1.985,4.087,4.0
69.237,2.651,5.053,11.0
68.903,2.636,4.627,4.0
68.746,2.627,4.217,4.0
46.985,1.803,4.172,5.0
52.838,2.025,4.384,5.0
51.675,1.977,3.985,2.0
0.0,0.0,0.0,0.0
68.893,2.629,4.503,4.0
0.0,0.0,0.0,0.0
50.818,1.945,4.422,4.0
47.117,1.8,3.824,3.0
51.76,1.975,3.899,3.0
67.12,2.557,4.658,6.0
68.442,2.604,4.351,4.0
103.56,3.934,5.983,2.0
52.954,2.019,4.512,19.0
68.065,2.591,5.401,4.0
69.342,2.635,5.097,10.0
69.028,2.619,4.665,2.0
68.648,2.601,4.241,5.0
103.621,3.919,5.799,1.0
52.897,2.007,4.411,10.0
51.743,1.96,4.012,3.0
69.116,2.614,4.955,15.0
68.692,2.593,4.518,7.0
67.387,2.539,4.04,4.0
0.0,0.0,0.0,0.0
52.644,1.986,4.293,1.0
51.734,1.948,3.917,9.0
67.524,2.538,4.718,7.0
68.423,2.566,4.376,6.0
103.598,3.878,6.022,1.0
0.0,0.0,0.0,0.0
50.186,1.88,4.0,4.0
68.833,2.573,5.084,5.0
68.835,2.568,4.683,2.0
68.478,2.55,4.253,6.0
202.514,7.525,11.403,9.0
195.54,7.251,9.875,20.0
0.0,0.0,0.0,0.0
69.16,2.565,4.982,20.0
68.801,2.545,4.554,4.0
67.703,2.5,4.081,6.0
118.119,4.351,6.433,2.0
195.581,7.189,9.516,8.0
51.898,1.911,3.945,10.0
67.519,2.48,4.738,6.0
68.503,2.51,4.408,5.0
67.417,2.465,3.939,2.0
196.731,7.176,10.352,7.0
195.701,7.122,9.161,6.0
68.798,2.507,5.101,4.0
68.704,2.498,4.694,4.0
69.353,2.514,4.334,2.0
117.535,4.25,6.649,2.0
195.405,7.05,9.919,8.0
0.0,0.0,0.0,0.0
68.738,2.476,4.969,22.0
68.649,2.466,4.561,9.0
67.422,2.415,4.088,3.0
117.702,4.205,6.439,3.0
195.617,6.969,9.563,12.0
196.098,6.967,8.45,9.0
68.123,2.422,4.796,17.0
68.378,2.424,4.415,5.0
67.363,2.381,3.958,2.0
196.674,6.931,10.39,12.0
104.461,3.671,4.913,3.0
193.6,6.784,7.98,20.0
53.267,1.867,3.65,4.0
69.557,2.43,4.361,6.0
118.462,4.127,6.739,5.0
196.546,6.825,10.018,9.0
196.189,6.793,8.862,7.0
193.527,6.679,7.617,22.0
68.508,2.364,4.566,2.0
67.436,2.319,4.102,2.0
118.519,4.064,6.521,3.0
104.323,3.565,5.124,5.0
196.003,6.677,8.488,24.0
193.683,6.575,7.265,21.0
68.339,2.319,4.428,4.0
67.407,2.28,3.976,1.0
118.19,3.983,6.284,4.0
117.899,3.958,5.57,5.0
193.623,6.477,8.023,23.0
193.499,6.452,6.898,16.0
69.315,2.309,4.362,3.0
103.087,3.421,5.887,4.0
103.136,3.409,5.289,6.0
102.27,3.368,4.64,4.0
194.089,6.369,7.681,10.0
193.24,6.316,6.525,19.0
67.464,2.203,4.119,3.0
118.266,3.846,6.532,5.0
104.216,3.375,5.15,4.0
117.606,3.794,5.117,7.0
193.605,6.221,7.301,15.0
195.945,6.27,6.252,6.0
103.525,3.307,6.126,6.0
111.021,3.532,5.924,5.0
110.667,3.505,5.261,3.0
193.548,6.104,8.056,24.0
193.447,6.074,6.931,19.0
195.857,6.123,5.881,8.0
103.641,3.233,5.937,5.0
103.213,3.206,5.312,7.0
102.475,3.168,4.678,1.0
193.706,5.961,7.7,15.0
193.372,5.925,6.567,24.0
194.136,5.92,5.467,11.0
103.345,3.144,5.728,2.0
102.943,3.117,5.107,3.0
102.346,3.083,4.483,6.0
193.526,5.801,7.333,15.0
193.058,5.758,6.195,25.0
193.934,5.756,5.1,24.0
0.0,0.0,0.0,0.0
110.647,3.258,5.283,1.0
102.324,2.996,4.29,2.0
193.542,5.64,6.974,19.0
193.133,5.599,5.841,17.0
193.899,5.591,4.742,26.0
103.768,2.983,5.367,8.0
194.771,5.568,8.941,6.0
193.644,5.504,7.765,9.0
193.103,5.457,6.603,21.0
194.276,5.461,5.517,19.0
193.591,5.411,4.375,34.0
102.961,2.866,5.133,5.0
102.497,2.836,4.515,2.0
193.771,5.332,7.413,6.0
193.292,5.287,6.253,24.0
194.479,5.287,5.166,25.0
193.641,5.232,4.022,25.0
103.22,2.777,4.956,2.0
102.523,2.741,4.327,2.0
194.178,5.158,7.071,7.0
0.0,0.0,0.0,0.0
194.012,5.089,4.799,29.0
193.528,5.044,3.666,32.0
124.885,3.238,5.769,3.0
102.61,2.643,4.145,4.0
0.0,0.0,0.0,0.0
194.331,4.938,5.578,19.0
193.9,4.895,4.445,35.0
193.603,4.853,3.317,10.0
127.563,3.179,5.662,2.0
0.0,0.0,0.0,0.0
0.0,0.0,0.0,0.0
194.326,4.738,5.226,24.0
193.885,4.692,4.091,25.0
195.182,4.688,2.989,24.0
102.946,2.458,4.383,2.0
0.0,0.0,0.0,0.0
194.852,4.579,6.037,9.0
194.506,4.535,4.88,22.0
193.979,4.488,3.747,22.0
195.254,4.481,2.642,8.0
102.745,2.341,4.19,7.0
0.0,0.0,0.0,0.0
194.736,4.365,5.688,18.0
194.265,4.317,4.53,22.0
194.136,4.279,3.406,20.0
0.0,0.0,0.0,0.0
0.0,0.0,0.0,0.0
0.0,0.0,0.0,0.0
194.919,4.15,5.35,23.0
194.381,4.101,4.192,7.0
0.0,0.0,0.0,0.0
102.947,2.132,1.03,1.0
132.704,2.724,4.945,2.0
0.0,0.0,0.0,0.0
194.815,3.922,5.006,17.0
194.857,3.883,3.861,11.0
199.522,3.937,2.801,14.0
102.968,2.011,0.851,9.0
0.0,0.0,0.0,0.0
0.0,0.0,0.0,0.0
194.682,3.687,4.666,18.0
194.594,3.645,3.519,10.0
103.169,1.911,1.27,12.0
99.879,1.831,0.654,4.0
149.514,2.71,5.054,3.0
198.099,3.549,5.551,6.0
194.662,3.446,4.33,17.0
194.853,3.41,3.19,30.0
0.0,0.0,0.0,0.0
99.835,1.706,0.483,5.0
148.157,2.5,4.756,3.0
197.278,3.286,5.193,9.0
195.041,3.206,4.006,22.0
194.861,3.162,2.859,14.0
0.0,0.0,0.0,0.0
99.761,1.575,0.312,4.0
157.096,2.446,4.775,10.0
196.222,3.012,4.83,26.0
194.993,2.952,3.676,26.0
0.0,0.0,0.0,0.0
99.708,1.465,0.719,3.0
99.648,1.442,0.143,4.0
157.661,2.247,4.528,16.0
20.289,0.284,0.465,1.0
20.285,0.28,0.348,1.0
0.0,0.0,0.0,0.0
99.621,1.33,0.553,5.0
99.699,1.308,-0.021,2.0
20.293,0.261,0.549,24.0
20.297,0.257,0.432,24.0
20.289,0.252,0.315,19.0
20.29,0.247,0.196,9.0
20.322,0.243,0.079,0.0
0.0,0.0,0.0,0.0
20.273,0.233,0.515,27.0
20.267,0.228,0.398,32.0
20.28,0.223,0.281,26.0
20.304,0.219,0.163,24.0
20.331,0.215,0.046,23.0
20.364,0.21,-0.07,0.0
20.275,0.204,0.483,34.0
20.271,0.199,0.366,31.0
20.301,0.195,0.25,27.0
20.306,0.19,0.131,28.0
20.329,0.185,0.014,31.0
20.222,0.18,-0.102,22.0
20.25,0.175,0.45,27.0
20.23,0.17,0.333,24.0
20.196,0.165,0.217,18.0
20.24,0.16,0.098,28.0
20.215,0.155,-0.017,25.0
20.185,0.15,-0.133,33.0
20.177,0.144,0.417,27.0
20.171,0.139,0.301,25.0
20.167,0.134,0.185,25.0
20.191,0.129,0.067,28.0
20.184,0.124,-0.048,28.0
20.183,0.119,-0.164,30.0
20.161,0.114,0.386,29.0
20.159,0.109,0.27,28.0
20.149,0.104,0.154,25.0
20.188,0.099,0.037,32.0
20.193,0.094,-0.078,30.0
20.193,0.089,-0.194,18.0
20.146,0.084,0.356,29.0
20.15,0.078,0.24,26.0
20.163,0.073,0.124,26.0
20.201,0.068,0.006,31.0
20.209,0.063,-0.109,25.0
20.235,0.058,-0.225,1.0
20.139,0.052,0.326,31.0
20.146,0.047,0.21,28.0
20.152,0.042,0.094,26.0
20.268,0.037,-0.022,79.0
20.261,0.031,-0.139,151.0
20.264,0.026,-0.255,151.0
20.137,0.021,0.296,29.0
20.13,0.015,0.181,27.0
20.213,0.01,0.066,150.0
20.256,0.005,-0.051,150.0
20.216,0.0,-0.167,10.0
20.223,-0.005,-0.283,1.0
20.126,-0.011,0.268,27.0
20.125,-0.016,0.152,28.0
20.136,-0.021,0.037,30.0
20.15,-0.027,-0.08,31.0
20.136,-0.033,-0.195,14.0
20.168,-0.038,-0.311,23.0
20.117,-0.043,0.239,34.0
20.123,-0.049,0.124,39.0
20.128,-0.055,0.009,36.0
20.149,-0.06,-0.108,29.0
20.137,-0.066,-0.223,24.0
20.149,-0.072,-0.339,23.0
20.125,-0.077,0.212,27.0
20.134,-0.082,0.097,40.0
20.133,-0.088,-0.018,29.0
20.133,-0.094,-0.135,32.0
20.133,-0.099,-0.25,37.0
20.149,-0.105,-0.366,35.0
20.138,-0.111,0.185,22.0
20.145,-0.116,0.07,30.0
20.176,-0.122,-0.044,22.0
20.133,-0.128,-0.162,19.0
20.15,-0.134,-0.277,31.0
20.157,-0.139,-0.393,35.0
20.192,-0.145,0.159,15.0
20.176,-0.151,0.044,7.0
20.196,-0.157,-0.071,8.0
53.092,-0.428,-0.496,7.0
20.162,-0.168,-0.303,22.0
20.184,-0.174,-0.419,28.0
53.359,-0.476,0.353,14.0
56.194,-0.518,0.051,7.0
56.394,-0.535,-0.27,2.0
46.105,-0.452,-0.489,4.0
38.102,-0.385,-0.622,24.0
20.214,-0.21,-0.445,15.0
56.154,-0.599,0.302,6.0
56.296,-0.617,-0.018,2.0
59.568,-0.67,-0.359,5.0
45.013,-0.519,-0.533,30.0
0.0,0.0,0.0,0.0
31.168,-0.379,-0.725,9.0
59.559,-0.74,0.248,14.0
59.536,-0.757,-0.091,19.0
56.637,-0.737,-0.41,10.0
44.88,-0.597,-0.585,19.0
36.061,-0.491,-0.676,3.0
30.354,-0.422,-0.742,16.0
59.534,-0.844,0.178,9.0
57.063,-0.827,-0.154,5.0
52.955,-0.783,-0.444,13.0
38.738,-0.584,-0.55,9.0
31.71,-0.488,-0.631,9.0
29.588,-0.464,-0.757,8.0
20.143,-0.321,0.037,51.0
20.121,-0.327,-0.077,0.0
52.806,-0.876,-0.503,11.0
38.283,-0.647,-0.587,14.0
31.04,-0.534,-0.653,28.0
28.618,-0.501,-0.765,7.0
20.153,-0.358,0.015,25.0
52.942,-0.958,-0.262,59.0
45.247,-0.832,-0.481,19.0
37.97,-0.71,-0.624,24.0
30.598,-0.582,-0.677,33.0
27.488,-0.531,-0.765,2.0
52.938,-1.038,-0.017,69.0
45.579,-0.908,-0.274,16.0
38.368,-0.776,-0.449,10.0
37.796,-0.776,-0.661,13.0
30.472,-0.636,-0.706,30.0
25.374,-0.537,-0.733,1.0
38.383,-0.823,-0.052,9.0
40.432,-0.88,-0.285,22.0
0.0,0.0,0.0,0.0
31.462,-0.705,-0.583,9.0
30.349,-0.689,-0.735,13.0
24.6,-0.567,-0.735,6.0
40.417,-0.942,-0.096,39.0
40.41,-0.954,-0.325,43.0
38.434,-0.92,-0.528,25.0
31.132,-0.755,-0.608,28.0
28.66,-0.705,-0.722,1.0
23.932,-0.596,-0.739,17.0
38.743,-0.975,-0.13,35.0
38.727,-0.987,-0.35,38.0
38.222,-0.986,-0.562,17.0
30.756,-0.804,-0.63,30.0
28.417,-0.752,-0.743,1.0
23.786,-0.637,-0.757,17.0
38.669,-1.046,-0.166,62.0
38.664,-1.058,-0.385,41.0
38.054,-1.054,-0.595,19.0
30.565,-0.856,-0.654,35.0
27.53,-0.78,-0.745,1.0
23.756,-0.681,-0.778,10.0
38.676,-1.119,-0.2,101.0
38.62,-1.13,-0.419,50.0
37.933,-1.123,-0.626,21.0
30.494,-0.913,-0.68,33.0
25.191,-0.762,-0.704,4.0
23.432,-0.717,-0.788,5.0
38.656,-1.192,-0.233,63.0
38.595,-1.202,-0.451,34.0
37.927,-1.194,-0.658,4.0
30.417,-0.968,-0.703,31.0
24.932,-0.801,-0.718,8.0
22.42,-0.728,-0.772,3.0
38.716,-1.267,-0.266,40.0
38.57,-1.275,-0.483,18.0
31.247,-1.043,-0.568,27.0
30.359,-1.024,-0.727,8.0
24.49,-0.834,-0.725,14.0
22.376,-0.77,-0.789,3.0
54.176,-1.877,-0.415,4.0
38.41,-1.344,-0.511,13.0
30.955,-1.094,-0.587,28.0
29.909,-1.067,-0.739,2.0
23.956,-0.863,-0.727,21.0
21.769,-0.791,-0.784,1.0
31.403,-1.148,-0.264,15.0
31.332,-1.156,-0.44,27.0
30.747,-1.145,-0.605,30.0
28.473,-1.07,-0.724,2.0
23.827,-0.903,-0.741,19.0
21.365,-0.817,-0.785,3.0
28.465,-1.095,-0.259,27.0
28.481,-1.105,-0.42,61.0
28.478,-1.115,-0.58,60.0
28.357,-1.12,-0.741,11.0
23.787,-0.948,-0.756,14.0
20.935,-0.841,-0.783,2.0
28.46,-1.15,-0.278,150.0
28.457,-1.159,-0.438,134.0
28.453,-1.169,-0.599,138.0
28.247,-1.17,-0.756,6.0
23.718,-0.991,-0.769,10.0
20.608,-0.868,-0.784,0.0
28.465,-1.205,-0.296,101.0
28.447,-1.214,-0.456,68.0
28.457,-1.224,-0.617,57.0
24.961,-1.082,-0.684,5.0
23.194,-1.014,-0.766,5.0
20.216,-0.891,-0.782,0.0
31.193,-1.38,-0.343,52.0
31.168,-1.39,-0.518,49.0
30.536,-1.372,-0.679,23.0
24.568,-1.113,-0.687,5.0
22.878,-1.044,-0.769,2.0
20.026,-0.921,-0.786,0.0
31.221,-1.442,-0.361,55.0
31.136,-1.449,-0.535,42.0
30.453,-1.428,-0.694,21.0
24.338,-1.15,-0.694,14.0
22.284,-1.061,-0.761,2.0
19.668,-0.943,-0.782,0.0
31.251,-1.505,-0.377,36.0
31.092,-1.508,-0.55,33.0
30.412,-1.485,-0.709,8.0
24.179,-1.189,-0.702,15.0
22.153,-1.098,-0.767,2.0
19.657,-0.981,-0.791,0.0
43.567,-2.182,-0.547,3.0
31.055,-1.566,-0.564,29.0
30.19,-1.533,-0.718,6.0
23.993,-1.227,-0.707,16.0
21.908,-1.128,-0.769,1.0
19.451,-1.008,-0.792,1.0
42.222,-2.195,-0.548,2.0
31.018,-1.624,-0.577,28.0
24.534,-1.293,-0.594,23.0
23.922,-1.269,-0.715,16.0
21.644,-1.156,-0.768,1.0
19.162,-1.03,-0.788,0.0
24.581,-1.326,-0.329,24.0
24.583,-1.334,-0.466,34.0
24.485,-1.338,-0.602,28.0
23.847,-1.311,-0.722,14.0
21.365,-1.183,-0.767,2.0
19.031,-1.06,-0.789,0.0
24.547,-1.371,-0.337,51.0
24.531,-1.379,-0.474,41.0
24.443,-1.382,-0.609,27.0
23.816,-1.356,-0.729,13.0
21.212,-1.215,-0.768,1.0
18.837,-1.086,-0.788,1.0
24.524,-1.417,-0.345,73.0
24.497,-1.424,-0.481,51.0
24.417,-1.428,-0.616,28.0
23.809,-1.401,-0.736,13.0
21.137,-1.251,-0.772,1.0
18.78,-1.119,-0.791,1.0
24.53,-1.464,-0.352,76.0
24.48,-1.47,-0.488,74.0
24.421,-1.475,-0.623,33.0
23.777,-1.445,-0.742,12.0
21.011,-1.284,-0.773,3.0
18.546,-1.14,-0.786,1.0
24.517,-1.51,-0.358,78.0
24.482,-1.516,-0.493,59.0
24.402,-1.521,-0.628,29.0
23.774,-1.49,-0.747,10.0
20.916,-1.318,-0.774,2.0
18.43,-1.168,-0.784,2.0
24.514,-1.556,-0.362,58.0
24.482,-1.563,-0.498,49.0
24.405,-1.567,-0.633,29.0
23.554,-1.521,-0.744,9.0
20.612,-1.338,-0.766,1.0
18.382,-1.2,-0.786,1.0
24.54,-1.605,-0.367,45.0
24.493,-1.61,-0.502,34.0
24.418,-1.614,-0.637,24.0
23.603,-1.568,-0.749,5.0
20.543,-1.372,-0.766,1.0
18.429,-1.238,-0.79,1.0
24.629,-1.656,-0.371,2.0
24.544,-1.659,-0.506,15.0
24.459,-1.662,-0.64,22.0
23.496,-1.605,-0.748,7.0
20.499,-1.408,-0.767,1.0
18.264,-1.261,-0.785,1.0
36.711,-2.538,-0.556,1.0
30.689,-2.132,-0.636,9.0
24.549,-1.714,-0.644,11.0
23.499,-1.649,-0.75,5.0
20.349,-1.435,-0.762,1.0
18.258,-1.295,-0.785,1.0
36.585,-2.597,-0.556,1.0
30.873,-2.202,-0.64,9.0
24.721,-1.772,-0.65,5.0
23.503,-1.693,-0.75,5.0
20.378,-1.475,-0.764,1.0
18.2,-1.324,-0.783,2.0
36.551,-2.663,-0.556,1.0
31.031,-2.271,-0.644,9.0
24.823,-1.825,-0.652,5.0
23.539,-1.739,-0.751,5.0
20.432,-1.517,-0.766,2.0
18.301,-1.365,-0.787,2.0
36.551,-2.729,-0.555,1.0
30.946,-2.321,-0.641,4.0
24.808,-1.869,-0.651,4.0
23.465,-1.777,-0.748,5.0
20.457,-1.556,-0.765,1.0
18.277,-1.397,-0.785,2.0
36.549,-2.795,-0.552,1.0
31.008,-2.382,-0.64,2.0
25.071,-1.934,-0.656,5.0
23.485,-1.82,-0.746,5.0
20.405,-1.589,-0.761,2.0
18.336,-1.434,-0.786,1.0
39.333,-3.079,-0.59,2.0
30.945,-2.432,-0.635,6.0
25.264,-1.994,-0.658,4.0
23.539,-1.867,-0.745,5.0
20.46,-1.63,-0.761,2.0
18.387,-1.471,-0.785,1.0
39.371,-3.151,-0.584,2.0
31.024,-2.493,-0.632,2.0
25.418,-2.052,-0.658,3.0
23.562,-1.91,-0.742,5.0
20.435,-1.664,-0.756,1.0
18.426,-1.507,-0.784,1.0
38.713,-3.167,-0.568,11.0
31.038,-2.549,-0.626,3.0
25.437,-2.097,-0.653,2.0
23.585,-1.953,-0.738,5.0
20.516,-1.706,-0.755,1.0
18.421,-1.538,-0.78,1.0
38.5,-3.216,-0.556,14.0
31.261,-2.621,-0.624,3.0
27.428,-2.309,-0.698,6.0
23.697,-2.003,-0.736,11.0
20.725,-1.759,-0.758,1.0
18.513,-1.578,-0.779,1.0
38.165,-3.253,-0.541,14.0
31.431,-2.689,-0.619,1.0
27.45,-2.358,-0.691,7.0
23.721,-2.045,-0.73,11.0
20.853,-1.805,-0.757,0.0
18.606,-1.617,-0.777,1.0
38.575,-3.353,-0.536,15.0
31.542,-2.752,-0.611,1.0
27.441,-2.403,-0.683,4.0
23.782,-2.09,-0.725,13.0
20.97,-1.85,-0.754,1.0
18.733,-1.659,-0.777,1.0
38.739,-3.431,-0.526,15.0
32.264,-2.868,-0.615,2.0
27.662,-2.468,-0.679,5.0
23.813,-2.133,-0.718,13.0
21.152,-1.902,-0.753,2.0
18.853,-1.701,-0.775,1.0
38.982,-3.517,-0.515,16.0
32.54,-2.946,-0.608,3.0
27.963,-2.541,-0.676,6.0
23.813,-2.172,-0.708,13.0
21.388,-1.957,-0.754,1.0
18.971,-1.742,-0.772,1.0
39.246,-3.604,-0.503,16.0
33.324,-3.071,-0.609,2.0
28.188,-2.607,-0.669,5.0
24.322,-2.257,-0.713,5.0
21.621,-2.013,-0.753,4.0
19.132,-1.788,-0.771,2.0
39.316,-3.674,-0.487,16.0
34.323,-3.218,-0.612,11.0
28.371,-2.669,-0.661,4.0
24.977,-2.358,-0.721,6.0
21.737,-2.059,-0.747,3.0
19.32,-1.836,-0.77,2.0
0.0,0.0,0.0,0.0
34.311,-3.27,-0.596,11.0
28.358,-2.712,-0.648,3.0
25.168,-2.414,-0.715,6.0
21.819,-2.1,-0.739,1.0
19.556,-1.888,-0.769,1.0
40.308,-3.892,-0.46,13.0
34.294,-3.321,-0.578,11.0
29.185,-2.835,-0.651,1.0
25.454,-2.481,-0.71,6.0
22.111,-2.162,-0.737,1.0
19.72,-1.934,-0.765,2.0
40.313,-3.953,-0.439,11.0
34.281,-3.372,-0.56,17.0
30.026,-2.962,-0.654,2.0
25.814,-2.554,-0.706,6.0
22.431,-2.226,-0.736,1.0
19.873,-1.979,-0.76,1.0
0.0,0.0,0.0,0.0
34.299,-3.424,-0.54,29.0
30.086,-3.012,-0.638,4.0
26.082,-2.619,-0.698,6.0
22.702,-2.287,-0.731,1.0
20.128,-2.033,-0.758,1.0
36.502,-3.687,-0.355,6.0
34.484,-3.493,-0.523,27.0
30.656,-3.114,-0.631,4.0
26.382,-2.687,-0.69,6.0
22.986,-2.348,-0.726,3.0
20.299,-2.079,-0.752,2.0
0.0,0.0,0.0,0.0
34.712,-3.564,-0.505,23.0
31.223,-3.215,-0.624,5.0
26.671,-2.754,-0.68,4.0
23.203,-2.402,-0.718,3.0
20.61,-2.14,-0.75,2.0
44.497,-4.619,-0.376,19.0
34.924,-3.634,-0.485,14.0
31.735,-3.311,-0.613,9.0
27.058,-2.831,-0.672,4.0
23.801,-2.496,-0.721,5.0
20.942,-2.203,-0.748,4.0
45.326,-4.766,-0.352,20.0
35.122,-3.702,-0.463,11.0
32.09,-3.391,-0.597,10.0
27.438,-2.907,-0.663,1.0
24.183,-2.569,-0.715,5.0
21.19,-2.257,-0.742,3.0
47.113,-5.016,-0.332,22.0
39.946,-4.263,-0.498,5.0
32.332,-3.459,-0.579,13.0
28.044,-3.008,-0.657,2.0
24.624,-2.648,-0.71,5.0
21.531,-2.321,-0.738,3.0
47.632,-5.132,-0.301,22.0
39.989,-4.318,-0.469,12.0
32.637,-3.533,-0.56,26.0
28.509,-3.093,-0.646,1.0
25.049,-2.725,-0.704,5.0
21.994,-2.398,-0.737,3.0
0.0,0.0,0.0,0.0
40.061,-4.376,-0.439,15.0
33.102,-3.624,-0.542,27.0
29.603,-3.248,-0.648,8.0
25.343,-2.787,-0.692,6.0
22.337,-2.462,-0.731,4.0
50.384,-5.552,-0.24,25.0
40.166,-4.436,-0.408,15.0
33.58,-3.717,-0.523,29.0
30.05,-3.333,-0.633,7.0
25.827,-2.871,-0.684,4.0
22.728,-2.533,-0.725,4.0
50.946,-5.675,-0.201,17.0
40.386,-4.507,-0.377,5.0
33.917,-3.793,-0.5,35.0
30.302,-3.396,-0.614,10.0
26.479,-2.974,-0.679,2.0
23.111,-2.602,-0.718,4.0
54.982,-6.187,-0.171,8.0
42.231,-4.761,-0.359,9.0
34.359,-3.881,-0.477,32.0
30.588,-3.462,-0.593,17.0
27.041,-3.067,-0.671,2.0
23.513,-2.673,-0.71,4.0
55.572,-6.314,-0.124,22.0
45.539,-5.184,-0.348,20.0
34.835,-3.973,-0.454,21.0
31.026,-3.545,-0.575,13.0
27.478,-3.146,-0.657,4.0
24.273,-2.785,-0.711,3.0
56.018,-6.424,-0.075,7.0
46.635,-5.357,-0.314,21.0
39.715,-4.571,-0.482,5.0
31.559,-3.639,-0.556,23.0
28.253,-3.264,-0.65,2.0
24.645,-2.853,-0.7,3.0
65.486,-7.578,-0.028,1.0
47.621,-5.52,-0.277,22.0
39.882,-4.63,-0.447,12.0
32.362,-3.764,-0.54,33.0
29.005,-3.379,-0.64,8.0
25.211,-2.943,-0.693,5.0
80.768,-9.425,0.039,12.0
48.407,-5.658,-0.237,22.0
40.005,-4.683,-0.411,15.0
32.911,-3.859,-0.518,27.0
29.294,-3.441,-0.619,18.0
25.792,-3.035,-0.684,5.0
80.522,-9.472,0.116,31.0
0.0,0.0,0.0,0.0
40.243,-4.749,-0.374,15.0
33.518,-3.961,-0.496,28.0
29.727,-3.519,-0.599,23.0
26.188,-3.105,-0.669,2.0
80.28,-9.516,0.193,23.0
50.499,-5.994,-0.149,9.0
40.425,-4.806,-0.336,6.0
34.016,-4.05,-0.47,24.0
30.192,-3.6,-0.579,21.0
27.073,-3.233,-0.665,2.0
80.335,-9.591,0.274,28.0
55.684,-6.657,-0.109,13.0
46.114,-5.521,-0.338,20.0
34.594,-4.147,-0.443,22.0
30.821,-3.7,-0.561,21.0
27.745,-3.336,-0.654,3.0
80.533,-9.68,0.355,24.0
56.153,-6.759,-0.053,6.0
46.426,-5.595,-0.293,21.0
39.687,-4.79,-0.468,5.0
31.574,-3.815,-0.542,21.0
28.301,-3.425,-0.638,6.0
80.383,-9.725,0.437,30.0
80.953,-9.806,0.005,10.0
47.454,-5.755,-0.251,22.0
39.774,-4.83,-0.427,24.0
32.325,-3.93,-0.521,30.0
28.909,-3.519,-0.621,15.0
80.26,-9.768,0.519,29.0
80.77,-9.841,0.089,27.0
48.198,-5.879,-0.205,22.0
40.008,-4.886,-0.389,20.0
33.06,-4.042,-0.499,27.0
29.317,-3.589,-0.599,21.0
80.313,-9.83,0.605,32.0
80.657,-9.882,0.175,33.0
0.0,0.0,0.0,0.0
40.242,-4.941,-0.348,15.0
33.735,-4.147,-0.473,29.0
29.723,-3.658,-0.576,24.0
80.361,-9.887,0.69,30.0
80.513,-9.915,0.259,31.0
55.652,-6.86,-0.119,10.0
45.509,-5.615,-0.345,5.0
34.359,-4.244,-0.445,25.0
30.314,-3.748,-0.555,21.0
80.395,-9.939,0.776,30.0
80.458,-9.955,0.346,9.0
55.849,-6.916,-0.059,5.0
45.998,-5.702,-0.299,21.0
39.729,-4.929,-0.472,4.0
31.211,-3.876,-0.538,23.0
80.485,-9.995,0.866,19.0
69.332,-8.616,0.374,3.0
69.316,-8.621,0.002,10.0
46.787,-5.824,-0.253,21.0
39.764,-4.954,-0.428,23.0
32.044,-3.996,-0.517,27.0
80.748,-10.068,0.957,5.0
80.439,-10.037,0.522,4.0
69.085,-8.626,0.078,10.0
47.943,-5.991,-0.206,22.0
39.989,-5.001,-0.387,22.0
32.879,-4.115,-0.494,26.0
192.059,-24.036,2.492,27.0
80.555,-10.087,0.612,10.0
68.758,-8.616,0.154,4.0
49.764,-6.24,-0.159,23.0
40.216,-5.046,-0.344,15.0
33.675,-4.229,-0.468,27.0
192.035,-24.113,2.703,32.0
80.56,-10.121,0.703,14.0
68.691,-8.634,0.231,7.0
55.651,-6.999,-0.116,10.0
45.453,-5.72,-0.338,5.0
34.401,-4.332,-0.44,26.0
192.007,-24.18,2.918,37.0
80.69,-10.166,0.794,6.0
68.501,-8.634,0.307,2.0
56.072,-7.071,-0.054,6.0
45.933,-5.796,-0.29,20.0
39.755,-5.019,-0.464,4.0
191.963,-24.237,3.134,32.0
68.317,-8.628,0.749,5.0
68.317,-8.632,0.383,2.0
60.921,-7.701,0.009,2.0
46.985,-5.942,-0.244,21.0
39.796,-5.035,-0.419,20.0
191.993,-24.293,3.35,24.0
192.0,-24.301,2.322,21.0
68.238,-8.639,0.46,3.0
68.318,-8.652,0.087,1.0
48.146,-6.1,-0.196,22.0
39.908,-5.058,-0.375,13.0
192.013,-24.34,3.57,6.0
191.986,-24.341,2.54,29.0
68.187,-8.647,0.537,2.0
68.175,-8.648,0.166,2.0
50.106,-6.358,-0.145,17.0
40.126,-5.093,-0.332,3.0
197.481,-25.069,3.897,17.0
191.925,-24.367,2.76,31.0
68.213,-8.662,0.615,2.0
68.132,-8.653,0.242,2.0
55.783,-7.086,-0.099,11.0
45.58,-5.791,-0.325,12.0
197.445,-25.092,4.119,7.0
191.954,-24.395,2.979,28.0
68.238,-8.673,0.693,6.0
67.988,-8.642,0.319,2.0
61.019,-7.757,-0.038,4.0
45.983,-5.847,-0.275,20.0
139.502,-17.741,3.073,9.0
191.964,-24.412,3.201,27.0
68.266,-8.681,0.772,6.0
68.018,-8.65,0.399,2.0
61.06,-7.765,0.03,2.0
47.334,-6.02,-0.229,23.0
139.465,-17.742,3.231,18.0
191.964,-24.418,3.419,21.0
191.938,-24.413,2.391,22.0
67.99,-8.647,0.475,2.0
68.101,-8.661,0.111,2.0
48.128,-6.121,-0.178,11.0
63.086,-8.025,1.533,11.0
198.13,-25.2,3.753,8.0
191.943,-24.409,2.608,26.0
68.148,-8.665,0.554,2.0
68.124,-8.661,0.189,2.0
55.612,-7.07,-0.143,7.0
63.087,-8.022,1.605,22.0
197.786,-25.144,3.973,11.0
191.955,-24.397,2.828,33.0
68.254,-8.673,0.632,4.0
68.057,-8.646,0.266,2.0
55.864,-7.096,-0.079,9.0
63.105,-8.018,1.677,22.0
197.594,-25.099,4.19,6.0
191.955,-24.375,3.045,29.0
68.237,-8.662,0.709,9.0
68.151,-8.649,0.342,2.0
61.016,-7.741,-0.019,3.0
63.115,-8.011,1.748,26.0
139.557,-17.706,3.117,10.0
191.969,-24.345,3.259,25.0
68.25,-8.652,0.786,6.0
68.237,-8.647,0.421,2.0
68.426,-8.668,0.055,1.0
63.12,-7.999,1.82,31.0
139.578,-17.68,3.277,17.0
192.025,-24.312,3.477,16.0
191.936,-24.289,2.427,29.0
68.356,-8.646,0.498,3.0
68.456,-8.656,0.132,2.0
63.082,-7.98,1.889,28.0
63.097,-7.977,1.551,14.0
197.532,-24.959,3.796,9.0
191.959,-24.241,2.64,34.0
80.594,-10.172,0.676,4.0
68.524,-8.644,0.208,2.0
63.135,-7.969,1.961,26.0
63.101,-7.959,1.62,33.0
197.539,-24.899,4.016,11.0
191.955,-24.18,2.854,39.0
80.544,-10.14,0.764,11.0
68.712,-8.645,0.284,4.0
63.254,-7.963,2.034,17.0
63.07,-7.933,1.689,29.0
139.535,-17.54,2.988,20.0
191.982,-24.115,3.063,33.0
80.516,-10.107,0.852,13.0
68.759,-8.625,0.359,5.0
139.373,-17.494,4.634,19.0
63.13,-7.917,1.76,31.0
139.488,-17.479,3.139,30.0
192.028,-24.044,3.27,24.0
80.778,-10.106,0.942,4.0
80.495,-10.064,0.506,5.0
84.743,-10.601,2.909,8.0
63.167,-7.894,1.828,29.0
139.506,-17.42,3.288,29.0
192.065,-23.963,3.473,8.0
192.076,-23.944,2.444,30.0
80.458,-10.022,0.592,25.0
84.554,-10.538,2.991,14.0
63.299,-7.881,1.899,6.0
139.569,-17.361,3.437,14.0
0.0,0.0,0.0,0.0
192.086,-23.849,2.647,25.0
80.45,-9.98,0.675,27.0
84.531,-10.493,3.079,28.0
139.406,-17.286,4.329,15.0
63.095,-7.815,1.619,6.0
188.593,-23.335,3.808,5.0
192.062,-23.741,2.846,15.0
80.37,-9.925,0.759,26.0
84.429,-10.433,3.164,22.0
85.63,-10.569,2.748,12.0
165.305,-20.38,4.414,19.0
188.353,-23.196,3.999,18.0
188.635,-23.205,2.99,23.0
80.46,-9.888,0.842,15.0
84.582,-10.401,3.256,9.0
84.685,-10.401,2.804,21.0
165.143,-20.258,4.579,20.0
187.999,-23.034,4.182,5.0
188.113,-23.021,3.172,23.0
80.657,-9.86,0.926,6.0
84.974,-10.395,3.357,8.0
84.539,-10.328,2.884,27.0
85.801,-10.469,2.464,10.0
189.206,-23.056,4.397,6.0
187.974,-22.877,3.356,13.0
153.622,-18.673,1.915,14.0
85.31,-10.378,3.455,11.0
84.473,-10.261,2.966,31.0
84.186,-10.212,2.501,13.0
139.181,-16.861,3.37,14.0
153.817,-18.609,2.895,13.0
153.687,-18.57,2.065,16.0
85.707,-10.364,3.554,17.0
84.579,-10.212,3.05,26.0
84.184,-10.15,2.582,34.0
139.107,-16.747,3.501,24.0
153.778,-18.488,3.04,18.0
153.65,-18.447,2.211,19.0
84.214,-10.119,3.572,18.0
84.591,-10.148,3.131,24.0
84.284,-10.096,2.663,34.0
138.949,-16.618,3.628,21.0
153.793,-18.367,3.184,18.0
153.786,-18.339,2.354,14.0
84.09,-10.036,3.645,27.0
84.91,-10.116,3.222,16.0
84.43,-10.043,2.746,32.0
84.361,-10.019,2.279,8.0
85.333,-10.118,1.845,11.0
188.331,-22.297,3.056,20.0
83.857,-9.936,3.712,29.0
84.099,-9.947,3.266,30.0
84.491,-9.976,2.825,36.0
84.203,-9.926,2.352,25.0
85.589,-10.073,1.927,10.0
192.291,-22.594,3.293,12.0
83.961,-9.873,3.792,27.0
83.904,-9.848,3.334,39.0
84.398,-9.889,2.895,26.0
84.154,-9.843,2.424,42.0
84.202,-9.832,1.969,10.0
85.336,-9.947,1.533,11.0
84.23,-9.827,3.876,13.0
83.842,-9.763,3.403,39.0
83.901,-9.751,2.95,30.0
84.05,-9.75,2.492,47.0
84.23,-9.754,2.041,14.0
85.23,-9.852,1.603,24.0
84.168,-9.738,3.943,12.0
83.892,-9.687,3.475,44.0
83.833,-9.661,3.017,41.0
82.992,-9.546,2.529,33.0
83.941,-9.636,2.103,26.0
85.142,-9.756,1.671,22.0
83.852,-9.617,3.997,36.0
83.999,-9.613,3.548,42.0
82.767,-9.453,3.046,26.0
83.038,-9.465,2.596,24.0
82.016,-9.33,2.12,19.0
85.09,-9.661,1.737,13.0
83.804,-9.523,4.061,34.0
84.623,-9.595,3.641,15.0
82.698,-9.358,3.108,31.0
82.329,-9.296,2.638,19.0
82.474,-9.293,2.195,30.0
83.019,-9.336,1.758,21.0
83.736,-9.425,4.121,34.0
83.819,-9.413,3.669,44.0
82.548,-9.249,3.165,34.0
82.161,-9.186,2.694,37.0
82.061,-9.155,2.245,33.0
82.74,-9.212,1.814,40.0
83.856,-9.344,4.189,33.0
0.0,0.0,0.0,0.0
82.651,-9.168,3.228,32.0
82.216,-9.099,2.755,35.0
81.842,-9.037,2.297,44.0
82.03,-9.038,1.857,40.0
83.772,-9.238,4.244,36.0
0.0,0.0,0.0,0.0
82.625,-9.069,3.284,39.0
82.266,-9.008,2.813,40.0
81.637,-8.919,2.348,36.0
81.756,-8.912,1.905,38.0
83.702,-9.132,4.297,39.0
83.712,-9.11,3.841,39.0
82.589,-8.965,3.338,44.0
82.304,-8.913,2.869,44.0
81.626,-8.818,2.4,38.0
81.849,-8.822,1.961,39.0
83.804,-9.04,4.356,33.0
84.056,-9.044,3.91,32.0
83.252,-8.935,3.418,47.0
82.331,-8.814,2.921,42.0
81.589,-8.713,2.45,35.0
81.99,-8.735,2.014,46.0
84.112,-8.969,4.424,33.0
84.295,-8.965,3.972,31.0
83.049,-8.809,3.459,31.0
82.438,-8.721,2.975,47.0
81.716,-8.622,2.503,36.0
81.804,-8.61,2.058,40.0
84.108,-8.86,4.473,25.0
84.702,-8.898,4.041,21.0
82.146,-8.605,3.469,39.0
82.581,-8.628,3.027,43.0
81.768,-8.52,2.551,38.0
81.845,-8.506,2.105,48.0
84.026,-8.74,4.516,40.0
83.644,-8.676,4.037,28.0
81.961,-8.477,3.507,41.0
82.351,-8.493,3.064,38.0
81.866,-8.42,2.597,42.0
81.895,-8.399,2.15,46.0
0.0,0.0,0.0,0.0
83.264,-8.521,4.062,54.0
81.959,-8.364,3.548,39.0
82.204,-8.365,3.101,42.0
82.348,-8.356,2.654,55.0
81.968,-8.294,2.192,39.0
82.207,-8.325,4.502,20.0
82.346,-8.314,4.057,34.0
81.968,-8.25,3.589,41.0
82.188,-8.248,3.138,37.0
82.045,-8.209,2.682,53.0
81.97,-8.178,2.231,44.0
82.655,-8.252,4.565,29.0
82.232,-8.185,4.089,37.0
81.989,-8.135,3.626,44.0
82.185,-8.129,3.175,41.0
82.01,-8.087,2.718,44.0
82.255,-8.087,2.274,42.0
83.396,-8.205,4.642,34.0
81.988,-8.041,4.111,35.0
81.735,-7.99,3.649,42.0
82.105,-8.001,3.205,43.0
82.024,-7.969,2.751,43.0
82.192,-7.96,2.305,40.0
83.52,-8.094,4.682,43.0
81.827,-7.904,4.135,37.0
81.835,-7.88,3.683,38.0
82.344,-7.904,3.245,23.0
81.807,-7.827,2.773,46.0
82.148,-7.835,2.332,39.0
83.272,-7.946,4.697,41.0
81.8,-7.779,4.162,35.0
81.903,-7.762,3.715,39.0
82.091,-7.754,3.263,19.0
81.801,-7.701,2.8,43.0
82.141,-7.707,2.36,45.0
83.278,-7.818,4.724,40.0
82.121,-7.682,4.204,42.0
82.073,-7.651,3.748,39.0
81.828,-7.603,3.277,43.0
81.839,-7.578,2.826,39.0
82.042,-7.571,2.38,37.0
83.259,-7.688,4.746,37.0
82.42,-7.582,4.242,37.0
81.933,-7.512,3.764,47.0
81.615,-7.457,3.29,41.0
82.06,-7.471,2.854,42.0
82.094,-7.448,2.402,41.0
83.334,-7.563,4.771,33.0
83.013,-7.507,4.292,53.0
82.021,-7.391,3.787,40.0
81.699,-7.335,3.312,40.0
82.23,-7.357,2.878,40.0
82.22,-7.33,2.423,40.0
83.522,-7.447,4.8,41.0
83.13,-7.385,4.315,39.0
82.174,-7.272,3.81,40.0
81.622,-7.197,3.324,40.0
82.239,-7.225,2.894,46.0
82.23,-7.198,2.438,31.0
83.473,-7.308,4.81,24.0
83.041,-7.242,4.325,37.0
82.694,-7.184,3.848,54.0
81.827,-7.081,3.345,40.0
82.097,-7.079,2.901,48.0
82.246,-7.066,2.45,44.0
83.979,-7.215,4.85,28.0
83.14,-7.113,4.34,41.0
82.987,-7.073,3.871,35.0
82.114,-6.971,3.366,34.0
82.096,-6.942,2.909,48.0
82.105,-6.917,2.455,35.0
83.774,-7.058,4.847,33.0
83.249,-6.984,4.353,43.0
83.235,-6.955,3.889,42.0
82.245,-6.846,3.377,30.0
82.011,-6.799,2.912,48.0
82.307,-6.797,2.465,41.0
83.665,-6.908,4.845,37.0
83.32,-6.851,4.361,40.0
83.383,-6.828,3.899,41.0
83.096,-6.777,3.415,40.0
82.389,-6.691,2.928,38.0
82.71,-6.69,2.48,45.0
83.583,-6.759,4.841,39.0
83.035,-6.687,4.347,39.0
83.346,-6.683,3.898,33.0
83.066,-6.634,3.414,26.0
82.385,-6.552,2.927,41.0
82.661,-6.547,2.477,39.0
83.58,-6.618,4.84,39.0
83.092,-6.551,4.347,42.0
83.594,-6.561,3.906,20.0
83.095,-6.494,3.412,36.0
82.516,-6.421,2.928,43.0
82.352,-6.38,2.463,43.0
83.622,-6.477,4.836,38.0
83.255,-6.419,4.35,38.0
86.358,-6.628,4.029,12.0
82.996,-6.342,3.4,33.0
82.606,-6.285,2.924,35.0
82.713,-6.265,2.466,54.0
83.819,-6.345,4.839,39.0
83.471,-6.291,4.352,34.0
83.42,-6.258,3.883,31.0
82.889,-6.19,3.386,38.0
82.848,-6.159,2.922,44.0
83.092,-6.149,2.467,42.0
84.264,-6.232,4.853,41.0
83.631,-6.157,4.348,41.0
83.362,-6.108,3.867,42.0
82.85,-6.041,3.371,37.0
83.144,-6.034,2.918,43.0
82.801,-5.982,2.444,65.0
84.549,-6.103,4.854,27.0
83.709,-6.013,4.336,38.0
83.483,-5.967,3.856,43.0
82.815,-5.89,3.353,49.0
83.03,-5.878,2.897,42.0
82.821,-5.836,2.426,49.0
24.504,-1.725,1.401,14.0
84.113,-5.893,4.338,31.0
83.649,-5.83,3.844,32.0
24.569,-1.704,0.989,31.0
24.571,-1.696,0.851,7.0
24.654,-1.693,0.716,2.0
24.484,-1.68,1.393,60.0
24.544,-1.675,1.259,33.0
24.493,-1.663,1.119,23.0
24.469,-1.653,0.977,25.0
24.477,-1.646,0.841,25.0
24.551,-1.642,0.706,33.0
24.463,-1.635,1.385,74.0
24.479,-1.627,1.248,59.0
24.483,-1.619,1.11,36.0
24.463,-1.609,0.969,57.0
24.477,-1.602,0.833,60.0
24.54,-1.598,0.697,66.0
24.457,-1.59,1.376,87.0
24.474,-1.582,1.239,88.0
24.446,-1.572,1.1,28.0
24.457,-1.564,0.96,58.0
24.475,-1.557,0.823,61.0
24.53,-1.553,0.688,77.0
24.427,-1.544,1.365,44.0
24.467,-1.537,1.229,92.0
24.437,-1.527,1.09,46.0
24.463,-1.52,0.951,66.0
24.495,-1.514,0.814,67.0
24.538,-1.508,0.677,64.0
24.441,-1.5,1.355,79.0
24.478,-1.494,1.219,86.0
24.502,-1.486,1.082,39.0
24.488,-1.477,0.941,38.0
24.525,-1.471,0.804,59.0
24.561,-1.465,0.667,75.0
24.44,-1.455,1.343,60.0
24.49,-1.45,1.208,44.0
24.504,-1.442,1.07,44.0
24.535,-1.435,0.931,44.0
24.562,-1.428,0.793,51.0
24.584,-1.421,0.655,37.0
24.49,-1.413,1.334,49.0
24.532,-1.407,1.197,27.0
24.56,-1.4,1.06,22.0
24.599,-1.393,0.92,4.0
24.622,-1.387,0.782,4.0
83.512,-4.677,2.182,43.0
28.426,-1.588,1.532,72.0
83.733,-4.65,4.041,25.0
83.441,-4.605,3.555,41.0
83.632,-4.587,3.081,42.0
84.124,-4.586,2.624,40.0
84.037,-4.554,2.147,43.0
28.428,-1.536,1.516,73.0
83.752,-4.498,3.991,36.0
83.593,-4.461,3.511,34.0
0.0,0.0,0.0,0.0
84.337,-4.444,2.579,43.0
84.71,-4.436,2.112,36.0
28.421,-1.484,1.497,74.0
84.285,-4.372,3.963,26.0
86.153,-4.439,3.562,18.0
85.033,-4.353,3.027,35.0
84.556,-4.301,2.531,36.0
84.67,-4.279,2.055,40.0
28.421,-1.431,1.478,74.0
85.381,-4.271,3.957,25.0
86.38,-4.292,3.513,35.0
85.297,-4.21,2.976,30.0
85.245,-4.18,2.492,41.0
84.634,-4.122,1.995,38.0
28.4,-1.378,1.457,68.0
85.729,-4.132,3.911,32.0
86.547,-4.144,3.458,20.0
84.979,-4.041,2.904,18.0
85.168,-4.021,2.427,35.0
84.619,-3.968,1.932,40.0
28.4,-1.327,1.435,11.0
86.179,-3.998,3.867,14.0
165.601,-7.628,6.49,13.0
86.519,-3.957,2.89,4.0
85.12,-3.866,2.361,19.0
31.336,-1.413,0.691,12.0
28.372,-1.274,1.412,4.0
159.549,-7.115,7.034,11.0
165.671,-7.333,6.361,9.0
31.34,-1.377,1.022,14.0
28.454,-1.24,0.766,57.0
28.443,-1.231,0.604,68.0
28.449,-1.226,1.392,54.0
28.433,-1.216,1.229,58.0
28.423,-1.206,1.067,74.0
28.423,-1.197,0.902,102.0
28.44,-1.188,0.741,110.0
28.441,-1.179,0.579,117.0
28.434,-1.173,1.366,120.0
28.431,-1.164,1.204,124.0
28.436,-1.155,1.042,150.0
28.433,-1.145,0.877,112.0
28.448,-1.137,0.716,77.0
28.449,-1.128,0.554,71.0
28.449,-1.122,1.341,69.0
28.449,-1.113,1.179,63.0
28.444,-1.104,1.016,26.0
31.249,-1.203,0.935,46.0
31.271,-1.194,0.758,59.0
31.285,-1.185,0.58,52.0
31.269,-1.178,1.445,66.0
31.254,-1.167,1.265,47.0
31.275,-1.158,1.088,55.0
31.292,-1.149,0.907,57.0
31.311,-1.139,0.729,45.0
31.359,-1.131,0.551,23.0
31.287,-1.122,1.414,66.0
31.287,-1.112,1.236,35.0
31.32,-1.103,1.058,44.0
31.357,-1.095,0.877,27.0
147.041,-5.091,3.275,4.0
152.22,-5.225,2.524,3.0
38.661,-1.318,1.708,28.0
38.672,-1.306,1.487,60.0
38.664,-1.294,1.266,42.0
38.637,-1.281,1.041,50.0
38.649,-1.269,0.82,56.0
38.655,-1.258,0.6,48.0
38.616,-1.248,1.665,72.0
38.662,-1.238,1.446,82.0
38.598,-1.224,1.222,60.0
38.598,-1.212,0.998,69.0
38.638,-1.202,0.779,75.0
38.638,-1.19,0.558,76.0
38.642,-1.182,1.624,96.0
38.607,-1.169,1.401,68.0
38.558,-1.156,1.179,69.0
38.621,-1.146,0.956,87.0
38.646,-1.135,0.736,90.0
38.629,-1.123,0.515,81.0
38.624,-1.114,1.58,74.0
38.604,-1.102,1.357,69.0
38.553,-1.089,1.135,67.0
38.632,-1.08,0.913,83.0
38.641,-1.069,0.692,69.0
38.652,-1.058,0.471,68.0
38.695,-1.05,1.538,34.0
38.649,-1.037,1.314,27.0
38.611,-1.025,1.092,43.0
38.676,-1.016,0.868,39.0
38.714,-1.005,0.647,22.0
38.728,-0.994,0.426,10.0
45.71,-1.163,1.762,54.0
45.684,-1.149,1.498,9.0
38.68,-0.962,1.047,43.0
0.0,0.0,0.0,0.0
40.41,-0.981,0.627,35.0
40.412,-0.97,0.395,36.0
40.406,-0.96,1.507,38.0
40.403,-0.948,1.275,40.0
40.396,-0.936,1.044,37.0
40.394,-0.925,0.808,53.0
40.409,-0.913,0.576,70.0
40.417,-0.902,0.344,7.0
40.433,-0.893,1.457,29.0
40.437,-0.881,1.224,26.0
38.391,-0.825,0.942,22.0
38.387,-0.815,0.718,21.0
52.912,-1.109,0.687,9.0
52.922,-1.094,0.383,55.0
45.703,-0.933,1.587,54.0
64.32,-1.296,1.864,39.0
38.209,-0.759,0.888,29.0
53.012,-1.038,0.922,3.0
53.04,-1.023,0.617,5.0
53.006,-1.008,0.313,11.0
64.309,-1.208,2.147,44.0
64.321,-1.19,1.777,68.0
193.433,-3.524,4.231,7.0
193.385,-3.471,3.101,8.0
176.754,-3.125,1.819,7.0
20.138,-0.35,0.091,22.0
64.303,-1.104,2.058,80.0
64.312,-1.086,1.688,19.0
176.66,-2.934,3.621,33.0
20.14,-0.329,0.294,3.0
20.119,-0.323,0.179,10.0
20.139,-0.318,0.063,38.0
53.505,-0.832,1.637,57.0
59.461,-0.909,1.477,18.0
20.149,-0.302,0.384,7.0
20.123,-0.296,0.266,12.0
20.12,-0.291,0.15,10.0
59.515,-0.847,0.103,56.0
53.492,-0.748,1.56,104.0
20.162,-0.276,0.472,8.0
20.125,-0.271,0.355,13.0
20.125,-0.265,0.237,10.0
20.172,-0.261,0.121,2.0
59.579,-0.756,0.017,23.0
53.483,-0.665,1.482,47.0
20.135,-0.245,0.441,12.0
20.133,-0.239,0.325,10.0
20.14,-0.234,0.207,3.0
56.151,-0.64,0.255,4.0
56.198,-0.626,-0.067,1.0
20.155,-0.219,0.528,14.0
20.155,-0.214,0.412,18.0
20.162,-0.209,0.295,2.0
64.301,-0.652,0.567,20.0
56.166,-0.556,0.171,5.0
56.24,-0.542,-0.151,7.0
20.147,-0.189,0.497,10.0
53.498,-0.49,1.012,10.0
66.518,-0.592,0.875,16.0
66.503,-0.575,0.484,30.0
56.256,-0.473,0.086,6.0
20.191,-0.164,-0.085,12.0
20.224,-0.16,0.467,26.0
20.218,-0.155,0.351,20.0
20.169,-0.149,0.233,16.0
20.153,-0.144,0.115,14.0
20.164,-0.14,0.0,24.0
20.16,-0.135,-0.116,23.0
20.134,-0.13,0.434,17.0
20.121,-0.125,0.317,20.0
20.115,-0.12,0.201,18.0
20.134,-0.116,0.083,35.0
20.128,-0.11,-0.032,31.0
20.14,-0.106,-0.148,34.0
20.118,-0.101,0.401,33.0
20.12,-0.097,0.285,27.0
20.126,-0.092,0.169,27.0
20.129,-0.087,0.051,35.0
20.127,-0.082,-0.065,31.0
20.143,-0.077,-0.181,34.0
20.118,-0.073,0.368,34.0
20.118,-0.068,0.252,27.0
20.122,-0.064,0.136,31.0
20.132,-0.059,0.018,36.0
20.142,-0.055,-0.098,35.0
20.144,-0.05,-0.214,12.0
20.124,-0.045,0.335,33.0
20.113,-0.041,0.219,35.0
20.122,-0.036,0.102,37.0
20.129,-0.032,-0.015,28.0
20.17,-0.027,-0.132,25.0
20.166,-0.023,-0.248,9.0
20.129,-0.018,0.301,28.0
20.126,-0.014,0.185,28.0
20.147,-0.009,0.068,28.0
20.258,-0.005,-0.049,150.0
20.249,-0.001,-0.166,150.0
20.266,0.003,-0.284,150.0
20.131,0.007,0.267,28.0
20.128,0.011,0.151,26.0
20.259,0.016,0.034,150.0
20.258,0.02,-0.084,151.0
20.261,0.024,-0.201,150.0
20.26,0.029,-0.318,51.0
20.14,0.033,0.232,28.0
20.144,0.037,0.116,28.0
20.199,0.041,0.0,17.0
20.22,0.046,-0.119,25.0
20.22,0.05,-0.236,0.0
43.155,0.116,-0.754,0.0
20.148,0.058,0.197,31.0
20.186,0.062,0.081,28.0
20.195,0.067,-0.035,29.0
20.196,0.071,-0.154,27.0
20.208,0.075,-0.271,7.0
0.0,0.0,0.0,0.0
20.157,0.083,0.161,27.0
20.186,0.087,0.045,32.0
20.188,0.091,-0.071,30.0
20.177,0.095,-0.19,23.0
20.213,0.099,-0.308,23.0
0.0,0.0,0.0,0.0
20.187,0.107,0.126,26.0
20.186,0.111,0.009,26.0
20.175,0.115,-0.107,39.0
20.179,0.119,-0.226,29.0
20.194,0.123,-0.343,28.0
20.2,0.127,-0.461,6.0
20.208,0.131,0.089,34.0
20.195,0.134,-0.027,25.0
20.178,0.138,-0.144,29.0
20.174,0.142,-0.263,33.0
20.182,0.146,-0.38,27.0
20.205,0.15,-0.497,24.0
20.241,0.154,0.053,26.0
20.213,0.157,-0.064,20.0
20.169,0.16,-0.18,18.0
20.164,0.164,-0.299,34.0
20.176,0.168,-0.417,33.0
20.188,0.172,-0.534,26.0
20.349,0.176,0.016,32.0
20.207,0.179,-0.101,15.0
20.151,0.182,-0.218,19.0
20.173,0.186,-0.337,30.0
20.189,0.19,-0.454,25.0
20.192,0.193,-0.572,33.0
20.324,0.198,-0.021,8.0
20.214,0.2,-0.138,2.0
20.182,0.203,-0.255,25.0
20.169,0.207,-0.374,29.0
20.182,0.21,-0.492,30.0
20.199,0.214,-0.609,34.0
0.0,0.0,0.0,0.0
20.213,0.221,-0.176,8.0
20.187,0.224,-0.293,23.0
20.186,0.227,-0.413,25.0
20.191,0.231,-0.53,27.0
20.206,0.234,-0.648,28.0
0.0,0.0,0.0,0.0
20.218,0.241,-0.215,2.0
20.182,0.244,-0.332,18.0
20.195,0.247,-0.451,16.0
20.211,0.251,-0.569,26.0
20.217,0.254,-0.687,22.0
0.0,0.0,0.0,0.0
0.0,0.0,0.0,0.0
20.191,0.263,-0.37,7.0
20.185,0.266,-0.489,11.0
20.205,0.269,-0.607,18.0
20.205,0.273,-0.725,14.0
0.0,0.0,0.0,0.0
0.0,0.0,0.0,0.0
20.163,0.281,-0.408,0.0
20.179,0.284,-0.528,0.0
20.243,0.288,-0.647,1.0
20.221,0.291,-0.765,1.0
0.0,0.0,0.0,0.0
43.017,0.63,-0.705,0.0
37.307,0.552,-0.828,0.0
30.93,0.462,-0.869,1.0
26.192,0.395,-0.889,0.0
20.205,0.308,-0.803,0.0
0.0,0.0,0.0,0.0
0.0,0.0,0.0,0.0
33.943,0.531,-0.819,0.0
28.93,0.456,-0.869,0.0
24.956,0.397,-0.895,0.0
20.114,0.323,-0.839,6.0
0.0,0.0,0.0,0.0
37.958,0.618,-0.769,0.0
32.319,0.531,-0.843,1.0
27.197,0.45,-0.87,0.0
23.686,0.395,-0.895,0.0
20.219,0.34,-0.882,6.0
42.847,0.725,-0.702,0.0
36.979,0.63,-0.821,0.0
31.045,0.533,-0.87,1.0
26.091,0.451,-0.885,0.0
22.715,0.396,-0.903,0.0
20.132,0.354,-0.918,0.0
40.219,0.71,-0.738,0.0
34.11,0.606,-0.824,3.0
28.86,0.516,-0.865,0.0
24.753,0.446,-0.888,0.0
20.185,0.366,-0.842,0.0
19.469,0.356,-0.926,0.0
38.427,0.704,-0.78,0.0
32.123,0.593,-0.839,1.0
27.293,0.507,-0.872,0.0
23.495,0.439,-0.889,0.0
20.806,0.391,-0.909,0.0
18.591,0.352,-0.92,0.0
36.768,0.698,-0.819,0.0
30.702,0.586,-0.862,1.0
26.037,0.5,-0.883,0.0
22.595,0.437,-0.9,0.0
19.982,0.388,-0.912,0.0
18.033,0.353,-0.928,0.0
33.591,0.658,-0.814,0.0
28.686,0.565,-0.862,0.0
24.727,0.49,-0.887,0.0
21.856,0.435,-0.914,0.0
19.265,0.386,-0.917,0.0
17.412,0.351,-0.931,0.0
31.97,0.645,-0.838,1.0
27.135,0.55,-0.869,0.0
23.429,0.477,-0.887,0.0
20.705,0.424,-0.906,0.0
18.576,0.382,-0.921,0.0
16.771,0.347,-0.93,0.0
30.671,0.635,-0.864,1.0
25.969,0.54,-0.882,0.0
22.583,0.472,-0.899,0.0
20.034,0.421,-0.916,0.0
17.995,0.38,-0.928,0.0
16.334,0.346,-0.938,0.0
28.648,0.608,-0.864,0.0
24.65,0.525,-0.887,0.0
21.684,0.464,-0.906,0.0
19.139,0.411,-0.914,0.0
17.315,0.374,-0.928,0.0
15.821,0.343,-0.94,0.0
26.887,0.583,-0.864,0.0
23.356,0.508,-0.887,0.0
20.714,0.452,-0.907,0.0
18.571,0.407,-0.923,0.0
16.7,0.368,-0.928,0.0
15.294,0.338,-0.939,0.0
25.76,0.569,-0.879,0.0
22.484,0.498,-0.898,0.0
19.998,0.445,-0.915,0.0
17.908,0.4,-0.925,0.0
16.294,0.365,-0.937,0.0
14.848,0.334,-0.941,0.0
24.565,0.552,-0.886,0.0
21.653,0.488,-0.907,0.0
19.103,0.432,-0.912,0.0
17.145,0.389,-0.92,0.0
15.654,0.356,-0.931,0.0
14.469,0.331,-0.945,0.0
23.281,0.531,-0.886,0.0
20.694,0.473,-0.908,0.0
18.513,0.425,-0.92,0.0
16.653,0.383,-0.926,0.0
15.268,0.353,-0.938,0.0
14.137,0.327,-0.951,0.0
22.425,0.518,-0.897,0.0
19.908,0.461,-0.912,0.0
17.898,0.416,-0.924,0.0
16.224,0.378,-0.934,0.0
14.784,0.345,-0.938,0.0
13.579,0.318,-0.941,0.0
21.37,0.499,-0.897,0.0
19.129,0.448,-0.914,0.0
17.106,0.402,-0.917,0.0
15.666,0.369,-0.932,0.0
14.477,0.342,-0.946,0.0
13.285,0.314,-0.946,0.0
20.642,0.487,-0.906,0.0
18.467,0.437,-0.918,0.0
16.691,0.396,-0.927,0.0
15.221,0.362,-0.936,0.0
14.143,0.337,-0.952,0.0
12.931,0.309,-0.946,0.0
19.934,0.474,-0.914,0.0
17.953,0.428,-0.928,0.0
16.226,0.387,-0.933,0.0
14.757,0.353,-0.936,0.0
13.629,0.327,-0.944,0.0
12.614,0.303,-0.947,0.0
18.981,0.454,-0.906,0.0
17.062,0.409,-0.914,0.0
15.674,0.376,-0.931,0.0
14.46,0.348,-0.945,0.0
13.272,0.32,-0.945,0.0
12.269,0.296,-0.945,0.0
18.452,0.443,-0.917,0.0
16.681,0.401,-0.926,0.0
15.226,0.367,-0.934,0.0
0.0,0.0,0.0,0.0
12.965,0.313,-0.948,0.0
11.951,0.289,-0.944,0.0
17.848,0.43,-0.921,0.0
16.235,0.392,-0.932,0.0
14.784,0.357,-0.935,0.0
13.638,0.33,-0.943,0.0
12.608,0.305,-0.946,0.0
11.615,0.282,-0.939,0.0
17.159,0.414,-0.918,0.0
15.692,0.379,-0.931,0.0
14.492,0.35,-0.944,0.0
13.273,0.321,-0.943,0.0
12.324,0.299,-0.948,0.0
11.428,0.277,-0.946,0.0
16.662,0.402,-0.922,0.0
15.234,0.367,-0.932,0.0
14.323,0.346,-0.96,0.0
12.953,0.313,-0.945,0.0
12.02,0.291,-0.947,0.0
11.182,0.271,-0.947,0.0
16.249,0.391,-0.93,0.0
14.812,0.357,-0.934,0.0
13.634,0.328,-0.939,0.0
12.639,0.305,-0.946,0.0
11.675,0.282,-0.942,0.0
10.988,0.265,-0.951,0.0
15.727,0.377,-0.929,0.0
14.513,0.348,-0.942,0.0
13.3,0.319,-0.941,0.0
12.293,0.295,-0.942,0.0
11.463,0.275,-0.946,0.0
10.665,0.256,-0.943,0.0
15.262,0.364,-0.93,0.0
14.164,0.338,-0.945,0.0
13.006,0.31,-0.944,0.0
12.031,0.287,-0.944,0.0
11.237,0.268,-0.948,0.0
10.474,0.25,-0.945,0.0
14.872,0.352,-0.933,0.0
0.0,0.0,0.0,0.0
12.657,0.3,-0.941,0.0
11.663,0.276,-0.937,0.0
10.92,0.259,-0.941,0.0
10.269,0.243,-0.945,0.0
14.543,0.342,-0.938,0.0
13.421,0.315,-0.944,0.0
12.39,0.291,-0.944,0.0
11.475,0.269,-0.942,0.0
10.688,0.251,-0.94,0.0
10.062,0.236,-0.944,0.0
14.21,0.33,-0.942,0.0
13.094,0.304,-0.944,0.0
12.15,0.282,-0.947,0.0
11.251,0.261,-0.944,0.0
10.535,0.244,-0.945,0.0
9.899,0.23,-0.946,0.0
0.0,0.0,0.0,0.0
12.737,0.292,-0.941,0.0
11.749,0.27,-0.936,0.0
11.022,0.253,-0.944,0.0
10.363,0.237,-0.948,0.0
9.73,0.223,-0.947,0.0
13.457,0.305,-0.939,0.0
12.494,0.283,-0.944,0.0
11.533,0.261,-0.939,0.0
10.722,0.242,-0.937,0.0
10.171,0.23,-0.948,0.0
9.563,0.216,-0.947,0.0
13.22,0.295,-0.945,0.0
12.172,0.271,-0.941,0.0
11.36,0.253,-0.944,0.0
10.562,0.235,-0.941,0.0
9.939,0.221,-0.943,0.0
9.391,0.208,-0.946,0.0
12.904,0.283,-0.944,0.0
11.904,0.261,-0.94,0.0
11.107,0.243,-0.942,0.0
10.383,0.227,-0.942,0.0
9.788,0.214,-0.945,0.0
9.206,0.201,-0.943,0.0
12.584,0.271,-0.941,0.0
11.669,0.251,-0.941,0.0
10.931,0.235,-0.945,0.0
10.194,0.218,-0.942,0.0
9.645,0.206,-0.947,0.0
9.034,0.193,-0.94,0.0
12.359,0.261,-0.945,0.0
11.434,0.241,-0.941,0.0
10.662,0.224,-0.939,0.0
10.019,0.21,-0.942,0.0
9.48,0.198,-0.947,0.0
8.873,0.185,-0.938,0.0
12.091,0.249,-0.944,0.0
11.267,0.232,-0.945,0.0
10.501,0.216,-0.942,0.0
9.857,0.202,-0.943,0.0
9.275,0.189,-0.941,0.0
8.797,0.179,-0.944,0.0
11.801,0.237,-0.94,0.0
11.034,0.221,-0.943,0.0
10.317,0.206,-0.942,0.0
9.731,0.194,-0.946,0.0
9.142,0.182,-0.942,0.0
8.622,0.171,-0.939,0.0
11.523,0.225,-0.935,0.0
10.829,0.211,-0.942,0.0
10.157,0.198,-0.942,0.0
9.551,0.185,-0.943,0.0
8.839,0.171,-0.925,0.0
8.526,0.164,-0.942,0.0
11.369,0.216,-0.94,0.0
10.655,0.202,-0.943,0.0
9.991,0.189,-0.942,0.0
9.387,0.176,-0.941,0.0
8.862,0.166,-0.94,0.0
8.403,0.157,-0.941,0.0
11.235,0.207,-0.946,0.0
10.439,0.191,-0.939,0.0
9.854,0.18,-0.944,0.0
9.286,0.169,-0.945,0.0
8.745,0.158,-0.941,0.0
8.29,0.15,-0.94,0.0
11.089,0.197,-0.95,0.0
10.303,0.182,-0.942,0.0
9.719,0.171,-0.945,0.0
9.119,0.16,-0.941,0.0
8.613,0.15,-0.939,0.0
8.189,0.142,-0.941,0.0
10.757,0.184,-0.937,0.0
10.132,0.172,-0.941,0.0
9.583,0.162,-0.946,0.0
9.015,0.152,-0.943,0.0
8.495,0.143,-0.938,0.0
8.016,0.134,-0.932,0.0
10.609,0.174,-0.938,0.0
9.989,0.163,-0.941,0.0
9.418,0.153,-0.942,0.0
8.879,0.143,-0.941,0.0
8.421,0.135,-0.942,0.0
8.001,0.128,-0.941,0.0
10.477,0.164,-0.941,0.0
9.859,0.154,-0.943,0.0
9.26,0.143,-0.939,0.0
8.748,0.135,-0.939,0.0
8.322,0.127,-0.942,0.0
7.917,0.121,-0.942,0.0
10.327,0.154,-0.941,0.0
9.707,0.144,-0.941,0.0
9.125,0.134,-0.938,0.0
8.658,0.127,-0.941,0.0
8.199,0.119,-0.939,0.0
7.839,0.113,-0.943,0.0
10.212,0.145,-0.944,0.0
9.618,0.135,-0.945,0.0
9.066,0.127,-0.943,0.0
8.522,0.118,-0.937,0.0
8.075,0.111,-0.935,0.0
7.757,0.106,-0.944,0.0
10.035,0.134,-0.94,0.0
9.506,0.126,-0.946,0.0
8.883,0.117,-0.935,0.0
8.43,0.11,-0.937,0.0
8.05,0.104,-0.942,0.0
7.684,0.099,-0.944,0.0
9.922,0.124,-0.942,0.0
9.335,0.116,-0.94,0.0
8.809,0.108,-0.938,0.0
8.341,0.102,-0.938,0.0
7.953,0.096,-0.94,0.0
7.612,0.091,-0.945,0.0
9.793,0.114,-0.941,0.0
9.188,0.106,-0.936,0.0
8.706,0.1,-0.937,0.0
8.25,0.094,-0.937,0.0
7.865,0.088,-0.939,0.0
7.542,0.084,-0.945,0.0
9.707,0.105,-0.944,0.0
9.103,0.097,-0.938,0.0
8.656,0.091,-0.942,0.0
8.178,0.085,-0.938,0.0
7.844,0.081,-0.945,0.0
7.474,0.076,-0.945,0.0
9.58,0.095,-0.942,0.0
9.003,0.088,-0.937,0.0
8.53,0.082,-0.937,0.0
8.095,0.077,-0.937,0.0
7.771,0.073,-0.945,0.0
7.416,0.069,-0.945,0.0
9.466,0.085,-0.941,0.0
8.935,0.079,-0.94,0.0
8.448,0.074,-0.937,0.0
8.034,0.069,-0.939,0.0
7.688,0.065,-0.943,0.0
7.372,0.062,-0.947,0.0
9.364,0.076,-0.94,0.0
8.844,0.07,-0.939,0.0
8.375,0.065,-0.938,0.0
8.009,0.061,-0.944,0.0
7.619,0.057,-0.942,0.0
7.292,0.054,-0.944,0.0
9.251,0.066,-0.938,0.0
8.727,0.061,-0.935,0.0
8.294,0.057,-0.937,0.0
7.882,0.053,-0.937,0.0
7.606,0.05,-0.948,0.0
7.283,0.047,-0.95,0.0
9.173,0.056,-0.939,0.0
8.683,0.052,-0.939,0.0
8.248,0.048,-0.939,0.0
7.847,0.045,-0.94,0.0
7.522,0.042,-0.945,0.0
7.216,0.039,-0.948,0.0
9.112,0.047,-0.941,0.0
8.62,0.043,-0.94,0.0
8.171,0.04,-0.938,0.0
7.775,0.037,-0.938,0.0
7.469,0.034,-0.944,0.0
7.16,0.032,-0.947,0.0
8.998,0.037,-0.937,0.0
8.563,0.034,-0.941,0.0
8.105,0.031,-0.937,0.0
7.769,0.029,-0.944,0.0
7.423,0.026,-0.945,0.0
7.164,0.024,-0.954,0.0
8.914,0.028,-0.935,0.0
8.48,0.025,-0.939,0.0
8.077,0.023,-0.94,0.0
7.702,0.02,-0.942,0.0
7.422,0.019,-0.951,0.0
7.104,0.017,-0.951,0.0
8.843,0.018,-0.935,0.0
8.422,0.016,-0.939,0.0
7.997,0.014,-0.937,0.0
7.633,0.012,-0.939,0.0
7.333,0.01,-0.945,0.0
7.034,0.009,-0.947,0.0
8.796,0.009,-0.936,0.0
8.326,0.007,-0.934,0.0
7.958,0.006,-0.938,0.0
7.616,0.004,-0.943,0.0
7.276,0.003,-0.943,0.0
6.991,0.001,-0.946,0.0
8.742,0.0,-0.937,0.0
8.292,-0.001,-0.936,0.0
7.908,-0.002,-0.938,0.0
7.583,-0.003,-0.944,0.0
7.275,-0.004,-0.947,0.0
6.999,-0.005,-0.952,0.0
8.709,-0.009,-0.939,0.0
8.289,-0.01,-0.941,0.0
7.889,-0.011,-0.941,0.0
7.509,-0.011,-0.939,0.0
7.267,-0.012,-0.951,0.0
6.932,-0.013,-0.947,0.0
8.668,-0.018,-0.939,0.0
8.252,-0.019,-0.941,0.0
7.855,-0.019,-0.941,0.0
7.512,-0.02,-0.944,0.0
7.191,-0.02,-0.945,0.0
6.921,-0.02,-0.95,0.0
8.592,-0.028,-0.936,0.0
8.168,-0.028,-0.936,0.0
7.796,-0.028,-0.938,0.0
7.456,-0.028,-0.941,0.0
7.158,-0.028,-0.945,0.0
6.91,-0.028,-0.952,0.0
8.561,-0.037,-0.937,0.0
8.146,-0.037,-0.938,0.0
7.767,-0.036,-0.939,0.0
7.46,-0.036,-0.945,0.0
7.187,-0.036,-0.952,0.0
6.841,-0.036,-0.946,0.0
8.507,-0.046,-0.935,0.0
8.159,-0.046,-0.943,0.0
7.742,-0.045,-0.939,0.0
7.379,-0.044,-0.938,0.0
7.144,-0.044,-0.949,0.0
6.873,-0.043,-0.953,0.0
8.469,-0.055,-0.934,0.0
8.079,-0.054,-0.937,0.0
7.729,-0.053,-0.941,0.0
7.366,-0.052,-0.94,0.0
7.113,-0.052,-0.948,0.0
6.814,-0.051,-0.947,0.0
8.446,-0.065,-0.935,0.0
8.067,-0.063,-0.939,0.0
7.71,-0.062,-0.941,0.0
7.395,-0.061,-0.946,0.0
7.106,-0.06,-0.95,0.0
6.789,-0.058,-0.946,0.0
8.414,-0.074,-0.934,0.0
8.06,-0.073,-0.941,0.0
7.681,-0.07,-0.94,0.0
7.339,-0.069,-0.941,0.0
7.066,-0.067,-0.946,0.0
6.828,-0.067,-0.954,0.0
8.408,-0.084,-0.936,0.0
8.027,-0.081,-0.939,0.0
7.719,-0.08,-0.947,0.0
7.299,-0.077,-0.938,0.0
7.023,-0.075,-0.942,0.0
6.768,-0.074,-0.947,0.0
8.399,-0.093,-0.937,0.0
7.994,-0.09,-0.937,0.0
7.646,-0.088,-0.94,0.0
7.342,-0.086,-0.945,0.0
7.027,-0.083,-0.944,0.0
6.773,-0.082,-0.949,0.0
8.367,-0.102,-0.935,0.0
8.013,-0.099,-0.941,0.0
7.66,-0.097,-0.943,0.0
7.336,-0.094,-0.945,0.0
7.05,-0.092,-0.949,0.0
6.785,-0.09,-0.952,0.0
8.355,-0.112,-0.935,0.0
7.955,-0.108,-0.935,0.0
7.637,-0.105,-0.941,0.0
7.298,-0.102,-0.941,0.0
7.005,-0.099,-0.944,0.0
6.779,-0.097,-0.952,0.0
8.358,-0.121,-0.936,0.0
7.964,-0.117,-0.937,0.0
7.638,-0.114,-0.942,0.0
7.276,-0.11,-0.939,0.0
7.014,-0.107,-0.945,0.0
6.766,-0.105,-0.95,0.0
8.361,-0.131,-0.937,0.0
7.968,-0.126,-0.938,0.0
7.637,-0.123,-0.942,0.0
7.325,-0.119,-0.946,0.0
7.041,-0.116,-0.949,0.0
6.808,-0.113,-0.956,0.0
8.356,-0.14,-0.936,0.0
7.974,-0.135,-0.938,0.0
7.614,-0.131,-0.939,0.0
7.291,-0.127,-0.941,0.0
0.0,0.0,0.0,0.0
6.75,-0.12,-0.948,0.0
8.347,-0.15,-0.935,0.0
7.981,-0.145,-0.939,0.0
7.627,-0.14,-0.94,0.0
7.31,-0.136,-0.943,0.0
7.027,-0.132,-0.946,0.0
6.774,-0.128,-0.951,0.0
8.379,-0.16,-0.938,0.0
7.977,-0.154,-0.938,0.0
7.662,-0.149,-0.944,0.0
7.292,-0.143,-0.94,0.0
7.063,-0.14,-0.951,0.0
6.777,-0.136,-0.95,0.0
8.367,-0.169,-0.936,0.0
7.98,-0.163,-0.937,0.0
7.68,-0.158,-0.945,0.0
7.299,-0.152,-0.94,0.0
7.052,-0.148,-0.948,0.0
6.795,-0.144,-0.952,0.0
8.394,-0.179,-0.937,0.0
8.007,-0.172,-0.939,0.0
7.677,-0.167,-0.943,0.0
7.352,-0.161,-0.945,0.0
7.049,-0.156,-0.946,0.0
6.79,-0.152,-0.95,0.0
8.4,-0.188,-0.936,0.0
8.019,-0.181,-0.938,0.0
7.672,-0.175,-0.941,0.0
7.373,-0.17,-0.946,0.0
7.079,-0.164,-0.948,0.0
6.802,-0.159,-0.949,0.0
8.427,-0.198,-0.937,0.0
8.035,-0.191,-0.938,0.0
7.68,-0.184,-0.939,0.0
7.361,-0.178,-0.942,0.0
7.058,-0.172,-0.943,0.0
6.805,-0.167,-0.948,0.0
8.434,-0.208,-0.935,0.0
8.064,-0.2,-0.939,0.0
