X,Y,Z,Reflectivity
13.061,1.203,-0.937,0.0
12.048,1.109,-0.933,0.0
11.346,1.043,-0.943,0.0
10.636,0.976,-0.946,0.0
10.028,0.919,-0.949,0.0
9.407,0.861,-0.944,0.0
12.998,1.184,-0.94,0.0
11.993,1.091,-0.936,0.0
11.246,1.022,-0.941,0.0
0.0,0.0,0.0,0.0
9.922,0.899,-0.945,0.0
9.392,0.85,-0.948,0.0
12.909,1.163,-0.94,0.0
11.964,1.076,-0.94,0.0
11.195,1.005,-0.943,0.0
0.0,0.0,0.0,0.0
9.879,0.885,-0.946,0.0
9.316,0.833,-0.945,0.0
12.79,1.138,-0.938,0.0
11.863,1.054,-0.937,0.0
11.159,0.99,-0.945,0.0
0.0,0.0,0.0,0.0
9.818,0.868,-0.944,0.0
9.254,0.818,-0.943,0.0
12.717,1.117,-0.939,0.0
11.799,1.035,-0.938,0.0
10.997,0.963,-0.936,0.0
10.449,0.914,-0.95,0.0
9.807,0.856,-0.948,0.0
9.207,0.803,-0.942,0.0
12.654,1.097,-0.939,0.0
11.764,1.019,-0.94,0.0
11.098,0.959,-0.949,0.0
10.308,0.89,-0.941,0.0
9.737,0.839,-0.945,0.0
9.173,0.789,-0.942,0.0
12.582,1.077,-0.939,0.0
11.708,1.0,-0.94,0.0
10.915,0.931,-0.938,0.0
10.291,0.876,-0.944,0.0
9.713,0.826,-0.946,0.0
9.166,0.778,-0.945,0.0
12.535,1.058,-0.939,0.0
11.637,0.98,-0.938,0.0
10.946,0.92,-0.944,0.0
10.265,0.862,-0.945,0.0
9.638,0.808,-0.942,0.0
9.111,0.762,-0.942,0.0
12.539,1.043,-0.943,0.0
11.592,0.962,-0.938,0.0
10.919,0.905,-0.945,0.0
10.235,0.847,-0.945,0.0
9.626,0.795,-0.943,0.0
9.086,0.749,-0.942,0.0
12.452,1.02,-0.94,0.0
11.559,0.945,-0.938,0.0
10.862,0.887,-0.943,0.0
10.212,0.832,-0.945,0.0
9.604,0.781,-0.943,0.0
9.086,0.737,-0.944,0.0
12.433,1.003,-0.942,0.0
11.534,0.929,-0.938,0.0
10.827,0.87,-0.942,0.0
10.127,0.812,-0.939,0.0
9.549,0.764,-0.94,0.0
9.057,0.724,-0.943,0.0
12.403,0.985,-0.941,0.0
11.512,0.912,-0.938,0.0
10.839,0.857,-0.945,0.0
10.141,0.8,-0.942,0.0
9.546,0.752,-0.941,0.0
9.072,0.713,-0.946,0.0
12.368,0.967,-0.94,0.0
11.522,0.898,-0.941,0.0
10.824,0.842,-0.945,0.0
10.131,0.786,-0.942,0.0
9.565,0.741,-0.944,0.0
9.075,0.702,-0.947,0.0
12.34,0.948,-0.94,0.0
11.525,0.883,-0.942,0.0
10.861,0.831,-0.949,0.0
10.155,0.775,-0.945,0.0
9.566,0.728,-0.945,0.0
9.052,0.688,-0.945,0.0
12.356,0.933,-0.941,0.0
11.527,0.868,-0.943,0.0
10.854,0.816,-0.949,0.0
10.146,0.761,-0.945,0.0
9.565,0.715,-0.945,0.0
9.057,0.676,-0.946,0.0
12.345,0.916,-0.941,0.0
11.507,0.851,-0.941,0.0
10.796,0.797,-0.944,0.0
10.09,0.743,-0.94,0.0
9.598,0.705,-0.948,0.0
9.054,0.663,-0.945,0.0
12.324,0.897,-0.939,0.0
11.49,0.834,-0.939,0.0
10.757,0.779,-0.94,0.0
10.145,0.733,-0.944,0.0
9.584,0.691,-0.946,0.0
9.049,0.651,-0.944,0.0
12.334,0.881,-0.939,0.0
11.507,0.82,-0.94,0.0
10.898,0.775,-0.951,0.0
10.198,0.723,-0.948,0.0
9.603,0.679,-0.947,0.0
9.094,0.641,-0.948,0.0
12.373,0.867,-0.94,0.0
11.532,0.806,-0.941,0.0
10.772,0.751,-0.939,0.0
10.191,0.708,-0.946,0.0
9.6,0.665,-0.945,0.0
9.1,0.629,-0.947,0.0
12.38,0.85,-0.939,0.0
11.543,0.79,-0.94,0.0
10.869,0.742,-0.945,0.0
10.224,0.696,-0.947,0.0
9.631,0.654,-0.946,0.0
9.111,0.617,-0.946,0.0
12.432,0.836,-0.94,0.0
11.613,0.779,-0.943,0.0
10.9,0.729,-0.946,0.0
10.249,0.683,-0.947,0.0
9.66,0.642,-0.947,0.0
9.124,0.605,-0.945,0.0
12.493,0.823,-0.942,0.0
11.639,0.764,-0.942,0.0
10.897,0.713,-0.943,0.0
10.27,0.67,-0.947,0.0
9.705,0.631,-0.949,0.0
9.168,0.594,-0.947,0.0
12.548,0.808,-0.942,0.0
11.682,0.75,-0.942,0.0
10.994,0.704,-0.948,0.0
10.316,0.658,-0.948,0.0
9.727,0.619,-0.948,0.0
9.219,0.584,-0.95,0.0
12.593,0.793,-0.941,0.0
11.743,0.737,-0.943,0.0
11.006,0.689,-0.945,0.0
10.334,0.644,-0.946,0.0
9.777,0.608,-0.949,0.0
9.225,0.571,-0.947,0.0
12.664,0.779,-0.942,0.0
11.753,0.721,-0.939,0.0
11.108,0.679,-0.949,0.0
10.389,0.633,-0.946,0.0
9.828,0.597,-0.95,0.0
9.249,0.56,-0.945,0.0
12.766,0.767,-0.944,0.0
11.822,0.708,-0.94,0.0
11.123,0.664,-0.946,0.0
10.393,0.618,-0.942,0.0
9.864,0.585,-0.949,0.0
9.33,0.551,-0.949,0.0
12.822,0.752,-0.942,0.0
11.878,0.694,-0.938,0.0
11.198,0.652,-0.947,0.0
10.446,0.606,-0.942,0.0
9.886,0.571,-0.946,0.0
9.363,0.539,-0.948,0.0
12.911,0.739,-0.942,0.0
11.971,0.682,-0.94,0.0
11.294,0.641,-0.949,0.0
10.494,0.593,-0.941,0.0
9.95,0.561,-0.947,0.0
9.408,0.528,-0.947,0.0
13.021,0.726,-0.943,0.0
12.083,0.671,-0.942,0.0
11.272,0.624,-0.941,0.0
10.637,0.586,-0.947,0.0
10.03,0.55,-0.949,0.0
9.442,0.516,-0.945,0.0
13.107,0.712,-0.941,0.0
12.192,0.659,-0.943,0.0
11.35,0.611,-0.94,0.0
10.697,0.574,-0.946,0.0
10.092,0.539,-0.948,0.0
9.543,0.508,-0.949,0.0
13.265,0.701,-0.944,0.0
12.32,0.648,-0.945,0.0
11.488,0.602,-0.944,0.0
10.759,0.561,-0.944,0.0
10.183,0.529,-0.95,0.0
9.624,0.498,-0.951,0.0
13.403,0.689,-0.945,0.0
12.417,0.635,-0.943,0.0
11.612,0.592,-0.946,0.0
10.868,0.551,-0.946,0.0
10.252,0.518,-0.949,0.0
9.69,0.487,-0.95,0.0
13.516,0.675,-0.943,0.0
12.534,0.623,-0.943,0.0
11.667,0.578,-0.942,0.0
10.999,0.542,-0.949,0.0
10.303,0.505,-0.946,0.0
9.761,0.477,-0.95,0.0
13.591,0.659,-0.938,0.0
12.689,0.613,-0.945,0.0
11.799,0.567,-0.943,0.0
11.079,0.53,-0.947,0.0
10.376,0.494,-0.944,0.0
9.841,0.466,-0.949,0.0
13.759,0.648,-0.939,0.0
12.826,0.601,-0.945,0.0
11.943,0.557,-0.945,0.0
11.173,0.518,-0.946,0.0
10.523,0.486,-0.949,0.0
9.92,0.456,-0.949,0.0
20.205,0.922,-1.361,0.0
12.997,0.59,-0.946,0.0
12.055,0.545,-0.943,0.0
11.264,0.506,-0.944,0.0
10.627,0.475,-0.949,0.0
10.006,0.445,-0.948,0.0
14.281,0.631,-0.949,0.0
13.119,0.577,-0.943,0.0
12.231,0.535,-0.946,0.0
11.407,0.496,-0.945,0.0
10.72,0.464,-0.947,0.0
10.117,0.436,-0.949,0.0
14.4,0.616,-0.944,0.0
13.375,0.569,-0.949,0.0
12.381,0.524,-0.946,0.0
11.576,0.487,-0.948,0.0
10.862,0.455,-0.949,0.0
10.263,0.427,-0.953,0.0
14.541,0.601,-0.939,0.0
13.449,0.553,-0.941,0.0
12.514,0.512,-0.943,0.0
11.676,0.475,-0.945,0.0
11.055,0.447,-0.955,0.0
10.337,0.416,-0.949,0.0
14.77,0.59,-0.939,0.0
13.549,0.539,-0.934,0.0
12.764,0.504,-0.949,0.0
11.859,0.466,-0.947,0.0
11.117,0.434,-0.948,0.0
10.454,0.406,-0.948,0.0
15.024,0.58,-0.939,0.0
0.0,0.0,0.0,0.0
12.897,0.492,-0.945,0.0
11.993,0.454,-0.945,0.0
11.254,0.424,-0.948,0.0
10.58,0.396,-0.948,0.0
15.231,0.567,-0.935,0.0
14.27,0.527,-0.953,0.0
13.112,0.482,-0.946,0.0
12.188,0.445,-0.946,0.0
11.44,0.415,-0.95,0.0
10.677,0.385,-0.945,0.0
15.458,0.554,-0.931,0.0
14.44,0.514,-0.948,0.0
13.321,0.471,-0.946,0.0
12.384,0.435,-0.947,0.0
11.565,0.404,-0.947,0.0
10.89,0.378,-0.951,0.0
15.888,0.548,-0.938,0.0
14.664,0.502,-0.945,0.0
13.575,0.462,-0.947,0.0
12.62,0.426,-0.95,0.0
11.734,0.394,-0.946,0.0
11.053,0.368,-0.951,0.0
16.203,0.537,-0.937,0.0
14.883,0.489,-0.941,0.0
13.774,0.45,-0.944,0.0
12.837,0.416,-0.95,0.0
12.013,0.387,-0.954,0.0
11.181,0.358,-0.948,0.0
16.454,0.523,-0.931,0.0
15.139,0.478,-0.938,0.0
14.115,0.442,-0.95,0.0
13.062,0.406,-0.95,0.0
12.184,0.376,-0.952,0.0
11.386,0.349,-0.951,0.0
16.794,0.512,-0.929,0.0
15.448,0.467,-0.937,0.0
14.387,0.432,-0.949,0.0
13.291,0.396,-0.949,0.0
12.402,0.367,-0.952,0.0
11.506,0.338,-0.945,0.0
17.134,0.5,-0.925,0.0
15.919,0.461,-0.944,0.0
14.59,0.419,-0.943,0.0
13.508,0.385,-0.947,0.0
12.549,0.355,-0.947,0.0
11.74,0.33,-0.949,0.0
17.683,0.494,-0.93,0.0
16.186,0.448,-0.938,0.0
14.886,0.409,-0.942,0.0
0.0,0.0,0.0,0.0
12.862,0.348,-0.952,0.0
11.977,0.321,-0.951,0.0
18.109,0.483,-0.927,0.0
16.51,0.436,-0.933,0.0
15.255,0.4,-0.944,0.0
14.305,0.372,-0.962,0.0
13.136,0.339,-0.954,0.0
12.241,0.313,-0.954,0.0
18.531,0.471,-0.923,0.0
16.837,0.424,-0.928,0.0
15.537,0.388,-0.939,0.0
14.457,0.358,-0.951,0.0
13.374,0.329,-0.952,0.0
12.438,0.303,-0.951,0.0
18.954,0.459,-0.916,0.0
17.284,0.415,-0.927,0.0
16.007,0.381,-0.943,0.0
14.7,0.346,-0.945,0.0
13.719,0.321,-0.955,0.0
12.705,0.294,-0.952,0.0
19.622,0.452,-0.919,0.0
17.857,0.407,-0.93,0.0
16.383,0.37,-0.94,0.0
15.071,0.337,-0.946,0.0
14.061,0.312,-0.958,0.0
13.046,0.287,-0.958,0.0
20.331,0.444,-0.92,0.0
18.314,0.396,-0.926,0.0
16.729,0.358,-0.934,0.0
15.389,0.327,-0.942,0.0
14.375,0.302,-0.956,0.0
13.285,0.277,-0.954,0.0
20.896,0.432,-0.913,0.0
18.832,0.386,-0.922,0.0
17.108,0.347,-0.928,0.0
15.839,0.318,-0.944,0.0
14.636,0.291,-0.95,0.0
13.575,0.267,-0.953,0.0
21.746,0.425,-0.916,0.0
19.545,0.378,-0.926,0.0
17.758,0.34,-0.935,0.0
16.266,0.308,-0.944,0.0
14.958,0.281,-0.947,0.0
13.872,0.258,-0.951,0.0
22.55,0.416,-0.913,0.0
20.15,0.368,-0.921,0.0
18.265,0.33,-0.931,0.0
16.632,0.297,-0.937,0.0
15.374,0.272,-0.948,0.0
14.349,0.251,-0.96,0.0
23.189,0.403,-0.9,0.0
20.261,0.348,-0.893,11.0
18.741,0.319,-0.924,0.0
17.035,0.286,-0.931,0.0
15.752,0.262,-0.944,0.0
14.594,0.24,-0.952,0.0
24.274,0.396,-0.901,0.0
20.12,0.325,-0.852,8.0
20.064,0.32,-0.955,0.0
17.751,0.28,-0.94,0.0
16.248,0.253,-0.946,0.0
14.934,0.23,-0.948,0.0
25.277,0.387,-0.895,0.0
20.2,0.305,-0.821,4.0
20.286,0.303,-0.931,7.0
18.369,0.271,-0.941,0.0
16.647,0.243,-0.94,0.0
15.366,0.221,-0.948,0.0
20.222,0.289,-0.68,13.0
20.236,0.286,-0.786,21.0
20.246,0.282,-0.893,11.0
18.484,0.255,-0.914,15.0
17.191,0.234,-0.94,0.0
15.816,0.212,-0.948,0.0
20.22,0.27,-0.644,26.0
20.225,0.266,-0.75,27.0
20.178,0.262,-0.854,14.0
18.57,0.238,-0.885,2.0
17.692,0.224,-0.936,3.0
16.325,0.204,-0.949,0.0
20.201,0.25,-0.607,31.0
20.218,0.247,-0.713,30.0
20.223,0.244,-0.819,25.0
18.551,0.22,-0.85,7.0
18.467,0.216,-0.943,5.0
16.725,0.193,-0.941,0.0
20.194,0.232,-0.57,35.0
20.217,0.228,-0.675,31.0
0.0,0.0,0.0,0.0
18.555,0.204,-0.816,151.0
18.518,0.2,-0.911,32.0
18.222,0.194,-0.991,3.0
20.177,0.214,-0.532,34.0
20.202,0.211,-0.638,30.0
19.299,0.198,-0.71,19.0
18.503,0.187,-0.779,158.0
18.543,0.185,-0.877,62.0
18.241,0.179,-0.958,3.0
20.183,0.196,-0.494,30.0
20.193,0.193,-0.599,25.0
20.154,0.19,-0.703,0.0
18.511,0.172,-0.744,162.0
18.55,0.169,-0.842,150.0
18.485,0.166,-0.935,13.0
20.184,0.18,-0.456,29.0
20.188,0.177,-0.561,19.0
21.676,0.187,-0.715,151.0
18.576,0.157,-0.711,151.0
18.503,0.154,-0.804,159.0
18.534,0.152,-0.902,54.0
20.192,0.164,-0.417,27.0
20.187,0.161,-0.522,17.0
21.646,0.17,-0.672,18.0
21.618,0.167,-0.785,155.0
18.516,0.14,-0.769,157.0
18.538,0.138,-0.866,36.0
20.19,0.149,-0.378,29.0
20.197,0.146,-0.482,8.0
21.645,0.154,-0.629,15.0
21.628,0.15,-0.743,181.0
21.595,0.147,-0.854,55.0
18.571,0.124,-0.831,55.0
20.199,0.134,-0.338,29.0
20.212,0.132,-0.443,0.0
32.602,0.208,-0.884,0.0
21.676,0.135,-0.702,152.0
21.645,0.133,-0.813,154.0
21.6,0.13,-0.924,150.0
20.214,0.12,-0.298,28.0
20.196,0.118,-0.403,0.0
33.313,0.19,-0.837,0.0
21.661,0.121,-0.658,11.0
21.614,0.118,-0.769,159.0
21.654,0.116,-0.882,74.0
20.215,0.107,-0.258,25.0
20.21,0.104,-0.362,0.0
0.0,0.0,0.0,0.0
30.894,0.153,-0.877,0.0
21.687,0.105,-0.727,150.0
21.655,0.102,-0.839,29.0
20.194,0.094,-0.217,18.0
20.238,0.092,-0.322,0.0
38.414,0.171,-0.81,0.0
32.523,0.141,-0.857,1.0
27.952,0.118,-0.881,0.0
21.653,0.089,-0.794,15.0
20.215,0.082,-0.176,28.0
20.252,0.08,-0.281,0.0
40.625,0.157,-0.773,0.0
33.258,0.125,-0.808,0.0
31.226,0.114,-0.92,2.0
21.647,0.077,-0.749,0.0
20.213,0.071,-0.134,27.0
20.219,0.069,-0.239,0.0
20.232,0.067,-0.343,0.0
37.676,0.122,-0.838,0.0
33.143,0.104,-0.908,1.0
20.23,0.061,-0.659,0.0
20.228,0.06,-0.092,24.0
20.223,0.059,-0.197,12.0
20.229,0.057,-0.301,1.0
20.225,0.055,-0.407,2.0
33.269,0.088,-0.842,6.0
20.243,0.052,-0.617,14.0
20.27,0.051,-0.051,8.0
20.258,0.049,-0.155,30.0
20.245,0.047,-0.259,47.0
20.264,0.046,-0.366,77.0
20.264,0.044,-0.47,62.0
20.262,0.042,-0.575,70.0
20.273,0.042,-0.008,84.0
20.27,0.04,-0.113,151.0
20.255,0.039,-0.217,151.0
20.26,0.037,-0.324,150.0
20.274,0.036,-0.429,150.0
20.26,0.034,-0.533,150.0
20.272,0.033,0.033,74.0
20.261,0.032,-0.07,152.0
20.26,0.03,-0.175,151.0
20.264,0.029,-0.281,151.0
20.257,0.028,-0.385,151.0
20.262,0.026,-0.49,150.0
20.154,0.025,0.075,29.0
20.236,0.024,-0.028,153.0
20.26,0.023,-0.132,151.0
20.261,0.022,-0.238,150.0
20.268,0.021,-0.343,150.0
20.265,0.019,-0.447,83.0
20.141,0.019,0.118,30.0
20.275,0.018,0.014,151.0
20.25,0.016,-0.089,152.0
20.235,0.015,-0.195,151.0
20.266,0.014,-0.299,150.0
20.254,0.013,-0.404,49.0
20.124,0.013,0.16,28.0
20.161,0.012,0.057,31.0
20.262,0.011,-0.046,151.0
20.272,0.01,-0.152,67.0
20.237,0.009,-0.256,19.0
20.231,0.008,-0.36,8.0
20.127,0.007,0.204,28.0
20.131,0.006,0.1,31.0
20.254,0.005,-0.002,36.0
20.203,0.005,-0.108,22.0
20.231,0.004,-0.212,8.0
20.246,0.003,-0.317,5.0
20.127,0.002,0.247,28.0
20.12,0.002,0.143,28.0
20.155,0.001,0.04,19.0
20.21,0.0,-0.065,19.0
20.196,0.0,-0.169,13.0
20.208,0.0,-0.273,6.0
20.131,0.0,0.29,28.0
20.122,-0.001,0.186,29.0
20.13,-0.001,0.083,31.0
20.167,-0.002,-0.022,12.0
20.172,-0.002,-0.126,17.0
20.219,-0.003,-0.231,1.0
20.122,-0.003,0.332,29.0
20.117,-0.004,0.229,26.0
20.123,-0.004,0.125,28.0
20.129,-0.005,0.02,17.0
20.183,-0.005,-0.083,16.0
20.173,-0.005,-0.187,11.0
20.123,-0.006,0.375,27.0
20.122,-0.006,0.272,26.0
20.112,-0.006,0.168,28.0
20.135,-0.007,0.063,29.0
20.127,-0.007,-0.04,15.0
20.179,-0.007,-0.144,23.0
20.128,-0.007,0.419,29.0
20.125,-0.008,0.315,29.0
20.13,-0.008,0.212,28.0
20.115,-0.008,0.106,31.0
20.129,-0.008,0.003,16.0
20.178,-0.008,-0.1,20.0
20.138,-0.008,0.463,28.0
20.126,-0.008,0.359,27.0
20.118,-0.008,0.255,24.0
20.119,-0.008,0.149,26.0
20.144,-0.008,0.046,27.0
20.156,-0.008,-0.056,18.0
20.154,-0.008,0.506,23.0
20.131,-0.008,0.402,27.0
20.128,-0.008,0.298,28.0
20.11,-0.008,0.192,28.0
20.115,-0.008,0.089,33.0
20.134,-0.007,-0.013,14.0
20.165,-0.008,0.549,24.0
20.133,-0.007,0.445,28.0
20.115,-0.007,0.341,28.0
20.122,-0.007,0.235,26.0
20.114,-0.006,0.132,26.0
20.147,-0.006,0.029,21.0
20.178,-0.006,0.593,26.0
20.136,-0.006,0.488,25.0
20.113,-0.005,0.384,25.0
20.12,-0.005,0.279,26.0
20.119,-0.004,0.175,28.0
20.133,-0.004,0.072,32.0
20.19,-0.004,0.637,40.0
20.137,-0.004,0.531,20.0
20.13,-0.003,0.427,27.0
20.123,-0.002,0.322,28.0
20.125,-0.002,0.218,25.0
20.129,-0.001,0.115,31.0
20.172,-0.001,0.679,31.0
20.174,0.0,0.576,25.0
20.133,0.0,0.471,26.0
20.13,0.0,0.365,25.0
20.125,0.001,0.261,25.0
20.116,0.002,0.157,28.0
20.135,0.001,0.721,30.0
20.19,0.002,0.619,30.0
20.145,0.003,0.514,20.0
20.125,0.004,0.408,27.0
20.115,0.005,0.304,26.0
20.112,0.006,0.2,25.0
20.109,0.006,0.763,29.0
20.177,0.007,0.661,52.0
20.165,0.008,0.557,27.0
20.13,0.009,0.45,27.0
20.13,0.01,0.346,25.0
20.123,0.011,0.243,26.0
20.114,0.011,0.805,27.0
20.133,0.012,0.702,29.0
20.18,0.014,0.6,29.0
20.147,0.015,0.493,21.0
20.128,0.016,0.389,26.0
20.126,0.017,0.285,26.0
20.114,0.017,0.848,28.0
20.113,0.018,0.744,29.0
20.184,0.02,0.642,48.0
20.152,0.021,0.535,24.0
20.135,0.022,0.431,27.0
20.13,0.024,0.327,25.0
20.102,0.024,0.889,18.0
20.097,0.025,0.785,28.0
20.144,0.027,0.682,29.0
20.177,0.028,0.577,28.0
20.137,0.03,0.472,26.0
20.128,0.031,0.368,25.0
66.77,0.104,3.092,14.0
20.103,0.032,0.827,26.0
20.116,0.034,0.723,29.0
20.184,0.036,0.619,37.0
20.151,0.037,0.514,25.0
20.135,0.039,0.41,28.0
66.774,0.131,3.23,48.0
20.114,0.041,0.868,23.0
20.099,0.042,0.764,23.0
20.183,0.044,0.661,33.0
20.184,0.046,0.556,26.0
20.15,0.048,0.451,29.0
66.725,0.16,3.365,37.0
20.114,0.05,0.91,9.0
20.113,0.052,0.805,22.0
20.114,0.053,0.699,30.0
20.193,0.056,0.597,30.0
20.149,0.057,0.492,25.0
66.745,0.192,3.502,24.0
66.931,0.199,3.163,42.0
20.12,0.061,0.846,23.0
20.121,0.063,0.74,26.0
20.208,0.066,0.638,30.0
20.173,0.068,0.533,24.0
59.417,0.2,3.236,44.0
66.979,0.233,3.299,18.0
20.113,0.072,0.886,12.0
20.127,0.074,0.78,22.0
20.186,0.076,0.678,23.0
20.186,0.079,0.573,26.0
59.464,0.233,3.358,40.0
66.812,0.269,3.425,35.0
66.07,0.274,3.043,17.0
20.099,0.085,0.819,19.0
20.15,0.088,0.717,26.0
20.205,0.09,0.613,17.0
59.494,0.267,3.477,24.0
66.942,0.309,3.564,42.0
103.544,0.49,4.975,10.0
20.125,0.097,0.86,15.0
20.161,0.1,0.756,20.0
20.262,0.103,0.655,1.0
67.186,0.343,4.059,28.0
59.495,0.311,3.284,7.0
109.941,0.588,5.495,16.0
65.995,0.361,2.949,10.0
20.138,0.112,0.794,14.0
102.539,0.587,3.514,51.0
67.164,0.386,4.187,14.0
59.486,0.349,3.398,10.0
66.876,0.401,3.471,19.0
65.902,0.404,3.071,34.0
20.156,0.126,0.834,2.0
102.417,0.655,3.705,41.0
46.242,0.297,2.971,55.0
59.459,0.389,3.509,40.0
66.921,0.447,3.601,29.0
65.873,0.449,3.194,16.0
101.83,0.709,4.408,24.0
102.227,0.726,3.891,38.0
46.261,0.33,3.06,9.0
59.424,0.432,3.621,29.0
101.39,0.751,5.647,26.0
65.866,0.497,3.317,17.0
65.833,0.506,2.972,3.0
102.061,0.8,4.077,24.0
67.206,0.529,4.572,30.0
59.352,0.476,3.727,13.0
101.24,0.827,5.828,16.0
66.211,0.55,3.458,42.0
102.119,0.864,4.8,16.0
102.033,0.878,4.263,29.0
67.237,0.581,4.698,24.0
59.345,0.522,3.836,9.0
59.619,0.533,3.541,2.0
67.031,0.609,3.623,43.0
65.881,0.609,3.217,8.0
111.668,1.05,4.868,20.0
67.288,0.636,4.826,18.0
46.278,0.444,3.076,53.0
59.628,0.582,3.65,23.0
67.096,0.665,3.748,28.0
65.983,0.664,3.34,26.0
111.67,1.143,5.07,19.0
67.24,0.691,4.943,15.0
46.293,0.483,3.16,18.0
59.611,0.632,3.756,50.0
67.176,0.723,3.873,4.0
66.02,0.721,3.459,29.0
111.561,1.237,5.261,19.0
67.234,0.749,5.062,18.0
46.37,0.524,3.247,9.0
59.616,0.683,3.86,52.0
109.968,1.279,6.532,16.0
66.133,0.781,3.58,31.0
111.71,1.338,5.462,4.0
67.179,0.808,5.175,21.0
46.374,0.566,3.328,20.0
59.677,0.738,3.967,30.0
109.836,1.378,6.713,7.0
66.875,0.85,3.736,41.0
69.34,0.894,3.509,7.0
67.124,0.87,5.287,16.0
46.382,0.609,3.408,9.0
59.695,0.794,4.071,33.0
0.0,0.0,0.0,0.0
67.423,0.921,3.88,37.0
102.065,1.412,5.337,14.0
43.215,0.601,3.477,6.0
46.443,0.654,3.491,34.0
59.493,0.849,4.157,33.0
101.854,1.471,6.568,15.0
67.517,0.987,3.998,20.0
66.182,0.979,3.569,8.0
51.449,0.765,4.224,2.0
46.434,0.699,3.566,76.0
59.319,0.904,4.241,18.0
101.734,1.568,6.725,6.0
67.528,1.053,4.107,38.0
66.196,1.045,3.676,20.0
44.009,0.699,3.685,15.0
46.437,0.746,3.641,71.0
67.739,1.1,4.953,26.0
67.647,1.111,4.58,48.0
67.588,1.123,4.218,26.0
66.23,1.113,3.783,22.0
46.528,0.786,3.97,2.0
46.462,0.794,3.717,11.0
53.324,0.921,3.982,4.0
67.709,1.183,4.691,5.0
67.663,1.194,4.328,16.0
66.227,1.181,3.885,31.0
46.468,0.834,4.037,27.0
43.191,0.783,3.522,8.0
42.662,0.782,3.252,1.0
67.633,1.252,4.788,10.0
67.688,1.266,4.432,13.0
66.232,1.252,3.985,29.0
40.418,0.768,3.573,18.0
43.296,0.832,3.596,16.0
52.694,1.023,4.096,6.0
67.772,1.329,4.9,28.0
67.757,1.342,4.539,9.0
66.235,1.325,4.086,32.0
46.544,0.936,4.185,7.0
46.494,0.945,3.931,6.0
58.005,1.19,4.595,8.0
67.72,1.403,4.996,19.0
66.292,1.387,4.537,29.0
66.223,1.398,4.18,19.0
40.255,0.855,3.678,13.0
46.501,0.997,3.999,16.0
52.236,1.13,4.213,17.0
67.336,1.471,5.064,9.0
66.367,1.463,4.637,7.0
66.105,1.47,4.266,23.0
46.538,1.042,4.318,25.0
46.573,1.051,4.071,5.0
52.26,1.19,4.287,8.0
67.247,1.545,5.151,12.0
68.005,1.577,4.844,16.0
66.031,1.544,4.351,9.0
40.396,0.95,3.803,34.0
40.404,0.959,3.586,3.0
42.983,1.028,3.584,13.0
57.821,1.395,4.506,15.0
65.983,1.606,4.788,6.0
53.529,1.313,3.598,12.0
46.602,1.151,4.45,4.0
46.409,1.156,4.182,6.0
52.317,1.313,4.432,5.0
52.124,1.319,4.13,16.0
65.971,1.683,4.873,22.0
67.88,1.746,4.651,5.0
52.983,1.372,5.129,10.0
40.4,1.054,3.692,74.0
40.411,1.063,3.475,4.0
52.065,1.38,4.192,20.0
52.538,1.404,3.948,7.0
67.978,1.831,4.744,10.0
53.651,1.455,5.261,5.0
40.372,1.103,3.741,66.0
40.398,1.112,3.525,15.0
43.657,1.211,3.57,3.0
52.512,1.467,4.011,18.0
52.981,1.492,3.762,5.0
59.319,1.681,5.89,19.0
40.407,1.153,3.793,10.0
52.442,1.507,4.639,7.0
51.351,1.487,4.261,2.0
52.105,1.52,4.042,4.0
68.306,2.008,4.931,3.0
52.478,1.553,5.274,2.0
53.149,1.584,5.052,9.0
40.444,1.213,3.625,40.0
51.0,1.54,4.291,6.0
52.005,1.582,4.094,3.0
51.859,1.589,3.803,0.0
52.457,1.618,5.332,6.0
53.551,1.663,5.151,6.0
40.43,1.264,3.67,33.0
52.617,1.656,4.486,5.0
58.111,1.841,4.64,6.0
236.448,7.546,17.601,20.0
60.087,1.93,6.174,3.0
53.248,1.721,5.181,5.0
46.349,1.508,4.257,8.0
46.783,1.532,4.039,12.0
50.174,1.654,4.06,3.0
51.913,1.722,3.919,5.0
58.518,1.955,6.076,6.0
43.381,1.458,4.267,2.0
46.218,1.563,4.294,4.0
52.347,1.782,4.574,12.0
51.116,1.751,4.189,1.0
52.171,1.799,3.992,17.0
46.171,1.603,4.841,6.0
60.159,2.101,5.979,12.0
43.688,1.535,4.103,8.0
46.882,1.657,4.143,4.0
47.018,1.672,3.9,2.0
52.089,1.863,4.037,33.0
46.703,1.682,4.943,5.0
60.209,2.182,6.043,9.0
53.171,1.938,5.045,6.0
53.154,1.949,4.748,21.0
47.03,1.734,3.945,3.0
0.0,0.0,0.0,0.0
46.812,1.748,4.998,3.0
60.295,2.264,6.108,4.0
43.765,1.652,4.193,2.0
46.175,1.754,4.167,1.0
50.701,1.937,4.299,3.0
51.977,1.996,4.124,3.0
46.722,1.807,5.031,5.0
46.055,1.791,4.706,3.0
52.519,2.053,5.079,5.0
53.496,2.103,4.874,3.0
46.934,1.854,4.02,6.0
47.173,1.874,3.782,5.0
46.186,1.847,5.012,6.0
46.046,1.851,4.744,8.0
52.517,2.123,5.122,5.0
46.117,1.874,4.24,3.0
46.996,1.92,4.063,10.0
52.007,2.136,4.213,4.0
46.217,1.911,5.054,8.0
60.092,2.497,6.239,6.0
60.282,2.517,5.927,5.0
46.062,1.933,4.271,6.0
47.085,1.986,4.108,8.0
52.5,2.226,4.293,12.0
46.382,1.98,5.107,14.0
46.757,2.006,4.89,5.0
59.191,2.551,5.864,3.0
46.011,1.993,4.301,9.0
53.221,2.316,4.682,1.0
43.721,1.912,3.606,3.0
46.555,2.05,5.16,13.0
59.878,2.649,6.306,6.0
45.862,2.038,4.576,2.0
46.022,2.055,4.334,7.0
50.556,2.268,4.482,1.0
43.511,1.961,3.618,1.0
46.774,2.123,5.216,9.0
59.79,2.727,6.337,3.0
45.801,2.098,4.601,3.0
45.983,2.116,4.36,5.0
59.5,2.751,5.314,1.0
47.074,2.186,3.945,6.0
47.024,2.199,5.274,11.0
59.762,2.808,6.372,1.0
59.321,2.799,5.996,6.0
43.467,2.06,4.148,3.0
45.827,2.181,4.121,2.0
47.118,2.252,3.977,11.0
47.14,2.269,5.315,4.0
46.25,2.236,4.958,4.0
59.203,2.874,6.018,8.0
43.429,2.117,4.169,5.0
59.775,2.927,5.408,1.0
47.114,2.316,4.003,9.0
60.278,2.984,6.83,7.0
46.187,2.295,4.976,4.0
46.758,2.333,4.778,5.0
43.478,2.178,4.196,3.0
47.144,2.381,4.029,7.0
47.292,2.405,5.382,4.0
46.209,2.36,5.001,9.0
46.743,2.396,4.799,4.0
45.507,2.341,4.414,5.0
45.949,2.373,4.202,10.0
47.211,2.448,4.056,8.0
47.392,2.475,5.415,2.0
46.274,2.426,5.029,15.0
46.842,2.465,4.829,3.0
45.601,2.408,4.443,2.0
45.914,2.434,4.219,2.0
47.175,2.51,4.072,14.0
47.518,2.546,5.449,2.0
45.774,2.461,4.993,16.0
59.35,3.203,6.142,2.0
43.452,2.353,4.25,2.0
45.647,2.481,4.211,1.0
0.0,0.0,0.0,0.0
47.602,2.615,5.476,1.0
46.245,2.549,5.061,3.0
47.381,2.62,4.92,16.0
43.446,2.411,4.265,3.0
0.0,0.0,0.0,0.0
0.0,0.0,0.0,0.0
46.246,2.61,5.076,3.0
46.365,2.626,4.829,3.0
45.536,2.587,4.483,4.0
45.79,2.611,4.253,1.0
45.835,2.622,4.002,5.0
0.0,0.0,0.0,0.0
46.268,2.673,5.09,4.0
46.367,2.688,4.841,3.0
45.87,2.677,4.271,3.0
0.0,0.0,0.0,0.0
0.0,0.0,0.0,0.0
46.207,2.732,5.094,3.0
45.533,2.7,4.764,3.0
0.0,0.0,0.0,0.0
47.431,2.839,4.161,3.0
46.676,2.813,5.417,1.0
46.2,2.792,5.101,3.0
45.746,2.773,4.794,1.0
45.52,2.776,4.255,2.0
47.433,2.902,4.168,4.0
0.0,0.0,0.0,0.0
46.222,2.855,5.11,3.0
45.748,2.842,4.538,5.0
45.585,2.84,4.266,3.0
0.0,0.0,0.0,0.0
47.173,2.967,5.486,0.0
46.184,2.913,5.11,1.0
45.591,2.9,4.27,3.0
0.0,0.0,0.0,0.0
47.139,3.027,5.484,2.0
46.141,2.97,5.107,0.0
46.232,2.984,4.856,1.0
45.627,2.961,4.274,1.0
47.131,3.087,5.484,2.0
0.0,0.0,0.0,0.0
46.223,3.042,4.855,1.0
0.0,0.0,0.0,0.0
0.0,0.0,0.0,0.0
46.248,3.102,4.855,1.0
45.238,3.041,4.489,4.0
47.733,3.217,4.468,2.0
46.163,3.14,5.366,0.0
0.0,0.0,0.0,0.0
46.166,3.155,4.842,0.0
45.614,3.124,4.521,6.0
47.806,3.282,4.469,1.0
46.173,3.198,5.361,3.0
0.0,0.0,0.0,0.0
46.22,3.215,4.841,1.0
45.518,3.173,4.506,5.0
45.635,3.189,4.259,5.0
46.109,3.251,5.346,0.0
0.0,0.0,0.0,0.0
46.28,3.276,4.839,0.0
45.581,3.233,4.503,7.0
47.369,3.368,4.411,1.0
0.0,0.0,0.0,0.0
0.0,0.0,0.0,0.0
45.599,3.289,4.494,3.0
47.348,3.422,4.398,1.0
45.53,3.298,3.972,1.0
0.0,0.0,0.0,0.0
0.0,0.0,0.0,0.0
45.572,3.341,4.479,1.0
45.566,3.353,3.962,2.0
0.0,0.0,0.0,0.0
0.0,0.0,0.0,0.0
45.497,3.4,3.941,1.0
0.0,0.0,0.0,0.0
0.0,0.0,0.0,0.0
45.415,3.445,3.917,1.0
0.0,0.0,0.0,0.0
0.0,0.0,0.0,0.0
45.473,3.482,4.684,3.0
45.431,3.496,3.901,0.0
0.0,0.0,0.0,0.0
0.0,0.0,0.0,0.0
45.455,3.529,4.663,2.0
45.95,3.573,4.447,1.0
0.0,0.0,0.0,0.0
0.0,0.0,0.0,0.0
45.962,3.622,4.427,1.0
114.231,9.016,10.352,7.0
114.665,9.066,9.739,6.0
0.0,0.0,0.0,0.0
45.365,3.612,4.869,0.0
0.0,0.0,0.0,0.0
45.953,3.669,4.402,2.0
115.962,9.272,10.449,2.0
112.214,8.986,9.472,5.0
45.166,3.637,5.083,1.0
45.29,3.652,4.837,2.0
0.0,0.0,0.0,0.0
46.062,3.724,4.387,1.0
115.932,9.386,10.381,4.0
116.235,9.424,9.746,2.0
0.0,0.0,0.0,0.0
0.0,0.0,0.0,0.0
0.0,0.0,0.0,0.0
116.091,9.499,10.99,4.0
116.11,9.513,10.328,4.0
116.162,9.531,9.671,2.0
0.0,0.0,0.0,0.0
0.0,0.0,0.0,0.0
115.003,9.509,11.485,2.0
114.746,9.499,10.79,7.0
112.624,9.335,9.947,1.0
117.857,9.781,9.737,10.0
0.0,0.0,0.0,0.0
0.0,0.0,0.0,0.0
115.632,9.668,11.471,2.0
116.089,9.717,10.839,5.0
115.49,9.679,10.122,9.0
112.657,9.452,9.231,4.0
0.0,0.0,0.0,0.0
114.528,9.669,11.94,2.0
46.057,3.892,4.537,0.0
115.315,9.755,10.686,3.0
109.579,9.28,9.527,2.0
115.452,9.788,9.379,6.0
0.0,0.0,0.0,0.0
114.782,9.791,11.882,8.0
115.077,9.825,11.251,2.0
0.0,0.0,0.0,0.0
110.005,9.411,9.483,4.0
96.502,8.264,7.767,5.0
0.0,0.0,0.0,0.0
115.527,9.952,11.871,3.0
114.974,9.913,11.153,6.0
114.935,9.919,10.477,2.0
114.969,9.932,9.821,7.0
110.141,9.523,8.779,1.0
0.0,0.0,0.0,0.0
115.075,10.008,11.731,14.0
114.883,9.999,11.051,20.0
115.003,10.016,10.391,21.0
115.022,10.028,9.732,9.0
111.997,9.772,8.836,2.0
115.087,10.091,12.301,1.0
114.867,10.079,11.615,2.0
114.952,10.093,10.962,3.0
114.29,10.042,10.231,6.0
99.729,8.77,8.355,3.0
112.669,9.916,8.794,5.0
0.0,0.0,0.0,0.0
114.839,10.162,11.513,5.0
116.115,10.281,10.971,3.0
86.094,7.628,7.631,4.0
99.611,8.833,8.257,1.0
109.647,9.731,8.46,7.0
0.0,0.0,0.0,0.0
115.049,10.263,11.429,3.0
114.737,10.241,10.737,4.0
114.792,10.252,10.07,4.0
96.366,8.613,7.9,1.0
84.822,7.586,6.468,4.0
114.963,10.327,11.979,3.0
114.651,10.305,11.283,8.0
114.719,10.317,10.628,3.0
107.081,9.635,9.293,2.0
99.166,8.928,8.036,1.0
96.426,8.687,7.261,2.0
115.422,10.445,11.913,2.0
0.0,0.0,0.0,0.0
0.0,0.0,0.0,0.0
107.07,9.702,9.188,4.0
97.96,8.881,7.843,5.0
107.981,9.796,8.026,6.0
114.723,10.452,11.728,3.0
0.0,0.0,0.0,0.0
98.034,8.942,8.314,1.0
99.069,9.041,7.832,2.0
96.923,8.849,7.107,12.0
0.0,0.0,0.0,0.0
0.0,0.0,0.0,0.0
114.745,10.526,10.287,3.0
99.109,9.095,8.303,5.0
91.824,8.43,7.165,3.0
96.464,8.861,6.972,6.0
0.0,0.0,0.0,0.0
111.614,10.295,10.533,2.0
86.092,7.942,7.628,5.0
99.27,9.162,8.212,2.0
91.791,8.474,7.066,9.0
97.915,9.043,6.975,2.0
0.0,0.0,0.0,0.0
114.572,10.624,10.689,5.0
86.163,7.992,7.541,4.0
85.082,7.893,6.948,2.0
91.803,8.519,6.968,3.0
96.64,8.971,6.78,2.0
0.0,0.0,0.0,0.0
99.182,9.241,9.145,2.0
95.968,8.943,8.294,2.0
86.187,8.034,6.942,4.0
98.247,9.16,7.349,1.0
93.496,8.718,6.457,5.0
114.844,10.748,11.124,3.0
114.437,10.71,10.423,2.0
92.171,8.627,7.862,2.0
91.706,8.584,7.284,2.0
80.531,7.54,5.932,1.0
93.616,8.767,6.358,2.0
0.0,0.0,0.0,0.0
0.0,0.0,0.0,0.0
114.732,10.782,9.653,6.0
85.891,8.072,6.722,2.0
80.338,7.55,5.826,3.0
87.704,8.244,5.855,4.0
85.16,8.031,8.05,2.0
92.144,8.689,8.177,8.0
85.477,8.06,7.091,6.0
92.675,8.739,7.144,1.0
96.429,9.094,6.878,4.0
87.717,8.272,5.753,7.0
92.02,8.706,8.589,8.0
92.077,8.71,8.061,7.0
85.159,8.055,6.963,4.0
92.126,8.713,6.992,4.0
96.551,9.132,6.771,6.0
87.673,8.293,5.644,3.0
92.038,8.731,8.478,7.0
92.085,8.733,7.949,9.0
92.469,8.769,7.448,2.0
91.997,8.723,6.87,5.0
93.242,8.841,6.425,2.0
83.963,7.961,5.302,1.0
92.107,8.758,8.37,4.0
92.003,8.745,7.829,16.0
85.999,8.173,6.82,4.0
96.395,9.159,7.079,5.0
85.316,8.106,5.773,3.0
78.344,7.443,4.851,5.0
107.86,10.273,9.667,2.0
92.049,8.765,7.717,12.0
86.033,8.19,6.715,6.0
80.285,7.641,5.795,3.0
107.791,10.257,7.159,6.0
84.505,8.04,5.127,23.0
92.002,8.775,8.129,5.0
92.234,8.794,7.615,5.0
86.005,8.197,6.604,5.0
96.558,9.2,6.848,5.0
87.548,8.34,5.704,4.0
84.515,8.05,5.019,21.0
91.895,8.773,8.0,4.0
92.423,8.82,7.511,4.0
92.196,8.794,6.96,5.0
96.406,9.193,6.711,4.0
97.686,9.313,6.236,5.0
85.276,8.127,4.954,6.0
91.925,8.78,7.883,3.0
91.962,8.779,7.353,3.0
92.056,8.784,6.829,5.0
85.446,8.15,5.837,3.0
78.406,7.476,4.903,3.0
87.11,8.304,4.946,4.0
92.072,8.794,7.772,9.0
91.89,8.771,7.226,2.0
111.413,10.631,8.116,5.0
107.788,10.28,7.219,5.0
84.583,8.063,5.178,16.0
86.838,8.275,4.816,1.0
92.145,8.797,7.655,7.0
86.003,8.206,6.647,6.0
80.136,7.642,5.73,3.0
107.783,10.272,7.075,4.0
84.5,8.05,5.059,29.0
84.095,8.008,4.551,5.0
84.382,8.048,6.895,7.0
92.184,8.786,7.0,5.0
96.47,9.19,6.768,5.0
87.642,8.344,5.635,4.0
84.635,8.054,4.953,9.0
86.464,8.224,4.563,4.0
92.417,8.802,7.429,4.0
92.019,8.759,6.863,6.0
85.165,8.101,5.86,2.0
78.441,7.457,4.937,3.0
85.208,8.095,4.872,2.0
97.435,9.252,5.01,8.0
85.995,8.176,6.793,8.0
96.514,9.169,7.065,4.0
85.275,8.095,5.749,3.0
78.384,7.436,4.825,7.0
84.133,7.977,4.694,6.0
97.375,9.227,4.872,6.0
85.969,8.154,6.672,4.0
96.538,9.149,6.933,5.0
87.66,8.302,5.789,6.0
84.727,8.018,5.098,10.0
84.344,7.976,4.59,10.0
86.856,8.209,4.227,1.0
92.304,8.731,7.035,2.0
96.434,9.114,6.792,3.0
87.608,8.273,5.664,3.0
89.756,8.469,5.276,1.0
86.291,8.136,4.575,4.0
122.691,11.559,5.799,7.0
91.946,8.668,6.878,5.0
93.393,8.797,6.445,6.0
84.857,7.986,5.367,3.0
85.095,8.001,4.883,2.0
97.289,9.14,5.022,4.0
87.858,8.248,4.03,6.0
100.929,9.48,7.407,5.0
97.88,9.184,6.619,4.0
78.317,7.341,4.843,5.0
84.065,7.873,4.705,5.0
87.448,8.183,4.392,6.0
87.318,8.165,3.883,12.0
96.411,9.017,6.94,10.0
90.517,8.457,5.993,3.0
85.25,7.956,5.152,6.0
84.179,7.849,4.593,6.0
138.32,12.886,6.753,4.0
86.574,8.058,3.729,7.0
96.558,8.989,6.814,3.0
85.009,7.904,5.508,9.0
87.436,8.121,5.161,4.0
86.177,7.996,4.582,5.0
98.22,9.105,4.656,2.0
108.153,10.016,4.506,16.0
93.445,8.653,6.462,3.0
84.292,7.796,5.342,6.0
98.542,9.104,5.676,4.0
97.339,8.983,5.036,6.0
87.79,8.093,4.037,6.0
105.288,9.696,4.235,3.0
84.981,7.823,5.755,7.0
78.348,7.204,4.853,1.0
86.781,7.97,4.875,2.0
92.22,8.459,4.641,5.0
117.363,10.754,5.231,9.0
110.473,10.112,4.289,16.0
91.722,8.391,6.08,4.0
78.337,7.157,4.741,3.0
84.085,7.673,4.604,5.0
138.517,12.624,6.773,7.0
108.215,9.851,4.67,16.0
109.66,9.97,4.102,12.0
109.954,9.992,7.133,2.0
109.873,9.97,6.495,3.0
91.891,8.327,4.902,2.0
88.286,7.99,4.192,5.0
104.356,9.433,4.356,3.0
120.915,10.916,4.353,29.0
113.234,10.214,7.185,4.0
86.858,7.824,5.01,4.0
97.203,8.743,5.047,6.0
87.473,7.857,4.03,8.0
86.445,7.755,3.486,1.0
143.233,12.832,4.953,12.0
85.29,7.633,5.291,3.0
84.415,7.544,4.75,6.0
89.66,8.0,4.53,3.0
87.306,7.779,3.9,5.0
109.837,9.772,4.275,8.0
121.158,10.765,4.019,19.0
98.399,8.732,5.964,3.0
85.501,7.575,4.69,3.0
88.664,7.843,4.354,2.0
104.457,9.227,4.519,3.0
143.259,12.636,5.374,22.0
143.634,12.651,4.565,29.0
86.79,7.633,5.139,3.0
111.43,9.784,5.956,5.0
97.977,8.588,4.673,2.0
99.693,8.724,4.171,4.0
143.265,12.518,5.173,19.0
143.779,12.546,4.368,31.0
91.523,7.972,5.29,4.0
96.714,8.411,5.034,3.0
87.388,7.586,4.046,9.0
109.864,9.521,4.444,8.0
121.043,10.473,4.201,25.0
143.931,12.433,4.17,29.0
106.067,9.145,5.981,5.0
89.521,7.704,4.532,4.0
87.597,7.525,3.932,2.0
121.048,10.381,4.726,4.0
144.492,12.37,4.813,9.0
144.017,12.31,3.972,18.0
92.016,7.848,5.06,4.0
108.3,9.221,5.334,2.0
98.896,8.404,4.303,4.0
121.045,10.268,4.561,3.0
144.429,12.229,4.613,22.0
197.155,16.666,5.167,8.0
89.241,7.526,4.784,1.0
87.483,7.363,4.188,8.0
86.685,7.281,3.652,1.0
156.899,13.155,5.693,3.0
156.93,13.132,4.795,14.0
195.185,16.304,4.848,6.0
108.021,9.001,5.643,6.0
87.569,7.282,4.072,5.0
143.531,11.91,5.85,13.0
156.902,12.994,5.481,13.0
162.51,13.433,4.745,15.0
0.0,0.0,0.0,0.0
92.047,7.573,4.683,7.0
99.254,8.148,4.48,3.0
144.011,11.798,5.675,14.0
160.463,13.118,5.387,13.0
156.732,12.786,4.364,12.0
155.993,12.702,3.452,23.0
96.734,7.854,4.791,6.0
99.445,8.055,4.355,4.0
167.009,13.497,6.356,6.0
154.897,12.493,4.993,17.0
156.624,12.604,4.152,18.0
155.997,12.527,3.245,32.0
96.821,7.751,4.665,3.0
109.903,8.778,4.667,6.0
166.977,13.304,6.132,5.0
154.787,12.307,4.783,10.0
167.943,13.322,4.229,15.0
155.927,12.342,3.036,46.0
96.913,7.644,4.541,5.0
110.069,8.662,4.528,1.0
106.954,8.396,3.787,2.0
169.241,13.254,5.007,14.0
155.625,12.159,3.716,39.0
156.106,12.168,2.835,16.0
96.521,7.497,4.397,3.0
161.319,12.499,6.426,4.0
154.55,11.945,5.271,4.0
178.218,13.74,5.042,18.0
155.865,11.988,3.521,17.0
168.169,12.904,2.838,18.0
99.442,7.601,4.402,2.0
156.743,11.949,6.042,4.0
181.367,13.791,5.954,5.0
156.975,11.904,4.24,21.0
162.072,12.26,3.453,14.0
168.188,12.689,2.623,48.0
110.081,8.273,4.732,6.0
163.842,12.278,6.106,4.0
163.618,12.227,5.163,13.0
155.599,11.597,4.006,20.0
168.128,12.498,3.369,19.0
173.33,12.85,2.484,30.0
107.931,7.967,4.503,2.0
0.0,0.0,0.0,0.0
160.897,11.81,4.876,9.0
162.295,11.879,3.977,38.0
173.207,12.644,3.255,34.0
179.219,13.046,2.346,13.0
0.0,0.0,0.0,0.0
160.857,11.623,5.595,16.0
156.15,11.249,4.54,28.0
168.053,12.071,3.911,9.0
173.492,12.427,3.05,16.0
0.0,0.0,0.0,0.0
160.881,11.435,6.319,7.0
156.338,11.077,5.248,9.0
161.713,11.423,4.505,13.0
172.638,12.156,3.808,9.0
0.0,0.0,0.0,0.0
0.0,0.0,0.0,0.0
108.928,7.586,4.146,2.0
167.041,11.595,5.406,7.0
162.63,11.254,4.337,13.0
210.272,14.505,4.39,23.0
210.373,14.464,3.194,6.0
0.0,0.0,0.0,0.0
156.977,10.703,5.791,14.0
0.0,0.0,0.0,0.0
178.293,12.072,4.545,9.0
0.0,0.0,0.0,0.0
0.0,0.0,0.0,0.0
0.0,0.0,0.0,0.0
161.92,10.798,5.786,6.0
162.764,10.815,4.889,15.0
179.275,11.869,4.364,8.0
0.0,0.0,0.0,0.0
0.0,0.0,0.0,0.0
0.0,0.0,0.0,0.0
162.471,10.584,5.62,4.0
174.13,11.3,5.032,17.0
195.422,12.637,4.537,9.0
202.727,13.062,3.535,5.0
0.0,0.0,0.0,0.0
0.0,0.0,0.0,0.0
0.0,0.0,0.0,0.0
0.0,0.0,0.0,0.0
197.872,12.485,4.375,6.0
0.0,0.0,0.0,0.0
207.388,12.988,2.212,28.0
155.431,9.696,0.775,150.0
166.315,10.309,5.387,5.0
195.713,12.081,5.227,8.0
0.0,0.0,0.0,0.0
0.0,0.0,0.0,0.0
0.0,0.0,0.0,0.0
197.659,12.007,0.774,23.0
0.0,0.0,0.0,0.0
195.692,11.76,5.019,6.0
208.251,12.463,4.161,7.0
208.157,12.407,2.959,14.0
197.458,11.717,1.685,20.0
197.529,11.672,0.567,13.0
194.74,11.428,5.897,4.0
0.0,0.0,0.0,0.0
0.0,0.0,0.0,0.0
0.0,0.0,0.0,0.0
197.474,11.384,1.483,24.0
0.0,0.0,0.0,0.0
194.827,11.103,5.701,4.0
0.0,0.0,0.0,0.0
0.0,0.0,0.0,0.0
196.1,11.024,2.39,5.0
196.096,10.975,1.28,22.0
0.0,0.0,0.0,0.0
196.016,10.838,5.546,33.0
196.057,10.789,4.438,57.0
196.053,10.735,3.328,48.0
196.068,10.683,2.199,33.0
197.319,10.702,1.098,8.0
0.0,0.0,0.0,0.0
0.0,0.0,0.0,0.0
196.553,10.469,4.261,8.0
0.0,0.0,0.0,0.0
206.599,10.894,2.122,17.0
0.0,0.0,0.0,0.0
0.0,0.0,0.0,0.0
197.393,10.22,5.213,12.0
0.0,0.0,0.0,0.0
0.0,0.0,0.0,0.0
197.408,10.057,1.847,13.0
197.168,9.99,0.732,20.0
0.0,0.0,0.0,0.0
197.219,9.855,5.029,5.0
0.0,0.0,0.0,0.0
197.971,9.78,2.814,8.0
196.936,9.673,1.668,24.0
197.071,9.627,0.558,8.0
0.0,0.0,0.0,0.0
196.336,9.453,4.836,8.0
199.501,9.549,3.789,7.0
205.03,9.755,2.739,6.0
196.962,9.316,1.5,36.0
0.0,0.0,0.0,0.0
0.0,0.0,0.0,0.0
0.0,0.0,0.0,0.0
207.055,9.521,3.758,11.0
204.909,9.361,2.564,26.0
196.802,8.935,1.333,34.0
0.0,0.0,0.0,0.0
0.0,0.0,0.0,0.0
195.494,8.682,4.492,52.0
195.518,8.624,3.391,55.0
195.555,8.568,2.292,26.0
196.701,8.562,1.178,20.0
0.0,0.0,0.0,0.0
0.0,0.0,0.0,0.0
0.0,0.0,0.0,0.0
196.889,8.31,3.263,12.0
0.0,0.0,0.0,0.0
196.647,8.182,1.028,39.0
0.0,0.0,0.0,0.0
0.0,0.0,0.0,0.0
196.977,7.993,4.225,5.0
203.862,8.213,3.227,15.0
199.248,7.966,2.034,19.0
196.759,7.806,0.883,30.0
0.0,0.0,0.0,0.0
68.913,2.692,-0.464,1.0
195.097,7.537,4.044,19.0
195.152,7.478,2.949,28.0
195.174,7.417,1.853,10.0
196.418,7.403,0.743,5.0
0.0,0.0,0.0,0.0
69.027,2.56,-0.513,5.0
195.251,7.157,3.913,4.0
195.883,7.12,2.827,20.0
196.345,7.076,1.733,16.0
196.566,7.024,0.614,7.0
0.0,0.0,0.0,0.0
68.935,2.421,-0.557,1.0
195.294,6.777,3.788,24.0
0.0,0.0,0.0,0.0
196.344,6.689,1.609,14.0
0.0,0.0,0.0,0.0
0.0,0.0,0.0,0.0
0.0,0.0,0.0,0.0
195.491,6.396,3.673,14.0
195.388,6.329,2.577,8.0
196.156,6.292,1.49,28.0
0.0,0.0,0.0,0.0
0.0,0.0,0.0,0.0
0.0,0.0,0.0,0.0
0.0,0.0,0.0,0.0
201.68,6.127,2.544,19.0
195.965,5.891,1.377,38.0
0.0,0.0,0.0,0.0
0.0,0.0,0.0,0.0
0.0,0.0,0.0,0.0
193.594,5.553,3.419,5.0
0.0,0.0,0.0,0.0
0.0,0.0,0.0,0.0
103.308,2.863,0.083,3.0
0.0,0.0,0.0,0.0
0.0,0.0,0.0,0.0
193.557,5.158,3.32,17.0
0.0,0.0,0.0,0.0
102.967,2.675,0.617,2.0
100.275,2.572,0.031,1.0
0.0,0.0,0.0,0.0
0.0,0.0,0.0,0.0
194.92,4.79,3.251,10.0
0.0,0.0,0.0,0.0
100.202,2.397,0.554,2.0
100.123,2.364,-0.013,25.0
0.0,0.0,0.0,0.0
0.0,0.0,0.0,0.0
195.375,4.397,3.172,20.0
0.0,0.0,0.0,0.0
100.032,2.185,0.51,4.0
100.017,2.151,-0.056,8.0
0.0,0.0,0.0,0.0
0.0,0.0,0.0,0.0
199.553,4.074,3.158,9.0
0.0,0.0,0.0,0.0
99.915,1.972,0.47,6.0
0.0,0.0,0.0,0.0
0.0,0.0,0.0,0.0
0.0,0.0,0.0,0.0
194.85,3.571,3.012,18.0
0.0,0.0,0.0,0.0
99.786,1.76,0.433,6.0
99.908,1.727,-0.13,1.0
0.0,0.0,0.0,0.0
0.0,0.0,0.0,0.0
194.82,3.161,2.947,25.0
0.0,0.0,0.0,0.0
99.678,1.548,0.401,5.0
101.527,1.541,-0.164,1.0
0.0,0.0,0.0,0.0
0.0,0.0,0.0,0.0
20.318,0.286,0.301,0.0
0.0,0.0,0.0,0.0
99.616,1.337,0.372,5.0
0.0,0.0,0.0,0.0
0.0,0.0,0.0,0.0
20.205,0.25,-0.262,17.0
20.296,0.243,0.295,26.0
20.31,0.236,0.183,22.0
20.322,0.229,0.071,17.0
20.325,0.222,-0.043,0.0
20.206,0.213,-0.155,3.0
20.178,0.206,-0.266,27.0
20.297,0.199,0.291,30.0
20.312,0.192,0.179,29.0
20.311,0.185,0.066,28.0
20.222,0.178,-0.047,22.0
20.187,0.17,-0.159,21.0
20.176,0.163,-0.27,35.0
20.184,0.155,0.285,26.0
20.177,0.148,0.174,26.0
20.198,0.141,0.062,27.0
20.182,0.134,-0.05,28.0
20.173,0.127,-0.162,33.0
20.193,0.12,-0.273,28.0
20.162,0.112,0.282,29.0
20.159,0.105,0.171,27.0
20.196,0.098,0.06,35.0
20.196,0.091,-0.053,30.0
20.199,0.084,-0.164,27.0
52.668,0.201,-0.72,0.0
20.146,0.069,0.28,28.0
20.146,0.062,0.169,28.0
20.194,0.055,0.058,16.0
20.253,0.048,-0.055,27.0
20.267,0.041,-0.167,150.0
20.266,0.034,-0.278,150.0
20.143,0.026,0.278,31.0
20.122,0.018,0.167,27.0
20.212,0.012,0.056,36.0
20.227,0.004,-0.056,44.0
20.173,-0.002,-0.167,11.0
20.168,-0.01,-0.278,9.0
20.113,-0.017,0.277,27.0
20.115,-0.024,0.166,35.0
20.132,-0.031,0.056,40.0
20.129,-0.039,-0.056,31.0
20.146,-0.046,-0.167,34.0
20.142,-0.053,-0.278,28.0
20.117,-0.06,0.277,29.0
20.118,-0.067,0.167,29.0
20.13,-0.075,0.056,34.0
20.135,-0.082,-0.056,29.0
20.138,-0.089,-0.166,33.0
20.139,-0.097,-0.277,37.0
20.137,-0.103,0.278,26.0
20.131,-0.111,0.168,20.0
20.153,-0.118,0.057,28.0
20.157,-0.126,-0.054,20.0
20.14,-0.133,-0.165,17.0
20.142,-0.14,-0.275,28.0
20.229,-0.147,0.281,17.0
66.518,-0.511,0.561,9.0
53.336,-0.428,0.157,2.0
53.327,-0.448,-0.14,7.0
56.583,-0.496,-0.458,1.0
44.896,-0.41,-0.61,25.0
53.37,-0.504,0.748,6.0
64.321,-0.632,0.55,93.0
56.164,-0.572,0.173,2.0
56.19,-0.593,-0.14,2.0
59.492,-0.649,-0.474,1.0
44.727,-0.505,-0.601,30.0
20.145,-0.234,0.285,10.0
20.161,-0.241,0.175,9.0
59.545,-0.734,0.193,28.0
59.548,-0.756,-0.138,21.0
56.625,-0.739,-0.441,7.0
44.896,-0.602,-0.595,28.0
20.136,-0.276,0.289,13.0
20.121,-0.283,0.179,14.0
20.142,-0.291,0.069,27.0
20.132,-0.298,-0.042,5.0
59.241,-0.9,-0.448,7.0
44.906,-0.698,-0.585,28.0
20.165,-0.319,0.294,1.0
20.143,-0.326,0.184,5.0
20.14,-0.333,0.074,33.0
20.131,-0.341,-0.037,22.0
52.92,-0.915,-0.387,57.0
44.917,-0.793,-0.574,31.0
192.763,-3.462,2.865,31.0
53.026,-0.971,0.499,16.0
52.974,-0.989,0.209,41.0
52.936,-1.008,-0.084,57.0
45.586,-0.885,-0.32,24.0
44.939,-0.889,-0.561,14.0
45.692,-0.916,0.692,9.0
38.392,-0.784,0.372,30.0
38.366,-0.797,0.163,54.0
38.356,-0.811,-0.048,12.0
40.43,-0.87,-0.271,20.0
40.411,-0.884,-0.491,29.0
40.452,-0.896,0.626,150.0
40.41,-0.909,0.406,54.0
40.407,-0.924,0.186,40.0
40.401,-0.938,-0.037,37.0
40.413,-0.954,-0.256,38.0
38.746,-0.928,-0.456,21.0
40.446,-0.98,0.641,27.0
0.0,0.0,0.0,0.0
38.717,-0.965,0.193,16.0
38.696,-0.979,-0.02,34.0
38.697,-0.994,-0.23,40.0
38.69,-1.007,-0.44,33.0
38.663,-1.017,0.629,69.0
38.651,-1.031,0.419,69.0
38.65,-1.045,0.209,71.0
38.626,-1.058,-0.003,72.0
38.641,-1.072,-0.213,69.0
38.635,-1.086,-0.423,46.0
38.645,-1.097,0.646,86.0
38.63,-1.11,0.436,96.0
38.637,-1.124,0.227,72.0
38.647,-1.138,0.013,78.0
38.648,-1.152,-0.195,66.0
38.628,-1.165,-0.404,42.0
38.656,-1.176,0.664,77.0
38.643,-1.189,0.455,65.0
38.665,-1.203,0.246,60.0
38.681,-1.218,0.033,58.0
38.694,-1.232,-0.176,54.0
38.676,-1.245,-0.385,36.0
38.683,-1.255,0.685,39.0
38.777,-1.271,0.477,8.0
80.388,-2.665,0.554,16.0
80.626,-2.703,0.112,25.0
80.386,-2.724,-0.322,2.0
45.611,-1.561,-0.429,4.0
31.333,-1.08,0.572,0.0
84.251,-2.934,1.083,35.0
80.342,-2.827,0.599,28.0
80.384,-2.857,0.157,30.0
31.344,-1.125,-0.107,1.0
31.4,-1.138,-0.277,6.0
31.312,-1.143,0.59,58.0
31.283,-1.152,0.42,43.0
31.266,-1.163,0.252,37.0
31.251,-1.173,0.08,44.0
31.292,-1.185,-0.088,62.0
31.313,-1.197,-0.257,1.0
28.463,-1.095,0.554,71.0
28.459,-1.104,0.4,68.0
28.456,-1.114,0.247,69.0
28.445,-1.124,0.09,80.0
28.457,-1.134,-0.062,125.0
28.456,-1.144,-0.215,150.0
28.444,-1.15,0.572,136.0
28.449,-1.16,0.419,113.0
28.438,-1.169,0.265,111.0
28.45,-1.179,0.109,122.0
28.45,-1.19,-0.043,114.0
28.442,-1.199,-0.196,85.0
28.45,-1.205,0.591,71.0
28.461,-1.215,0.438,65.0
28.46,-1.225,0.285,58.0
28.461,-1.235,0.129,49.0
31.197,-1.365,-0.025,43.0
31.193,-1.375,-0.193,48.0
31.329,-1.387,0.674,17.0
31.281,-1.396,0.504,35.0
31.286,-1.407,0.336,27.0
31.24,-1.416,0.165,35.0
31.237,-1.426,-0.002,36.0
31.207,-1.436,-0.17,38.0
84.681,-3.913,1.885,36.0
83.621,-3.891,1.412,3.0
83.064,-3.894,0.957,41.0
79.876,-3.771,0.483,3.0
0.0,0.0,0.0,0.0
31.311,-1.499,-0.146,12.0
84.582,-4.067,1.949,43.0
86.074,-4.166,1.521,11.0
82.847,-4.038,1.02,11.0
67.648,-3.32,0.463,2.0
0.0,0.0,0.0,0.0
68.925,-3.43,-0.266,1.0
84.668,-4.228,2.02,42.0
86.044,-4.326,1.591,32.0
82.817,-4.19,1.088,22.0
0.0,0.0,0.0,0.0
0.0,0.0,0.0,0.0
66.116,-3.412,-0.2,1.0
84.641,-4.383,2.091,41.0
85.244,-4.442,1.649,44.0
0.0,0.0,0.0,0.0
0.0,0.0,0.0,0.0
0.0,0.0,0.0,0.0
65.973,-3.524,-0.142,0.0
83.813,-4.492,2.144,34.0
84.411,-4.55,1.707,19.0
0.0,0.0,0.0,0.0
65.723,-3.584,0.619,8.0
24.586,-1.349,0.1,4.0
24.588,-1.357,-0.031,27.0
83.455,-4.619,2.209,40.0
24.615,-1.37,0.52,8.0
24.586,-1.376,0.388,24.0
24.583,-1.384,0.254,41.0
24.563,-1.391,0.122,42.0
24.56,-1.398,-0.008,54.0
24.585,-1.403,0.673,41.0
24.584,-1.411,0.542,44.0
24.565,-1.418,0.41,53.0
24.539,-1.424,0.276,48.0
24.526,-1.431,0.145,61.0
24.528,-1.439,0.015,66.0
24.567,-1.445,0.696,76.0
24.56,-1.452,0.565,72.0
24.538,-1.458,0.433,64.0
24.534,-1.466,0.3,72.0
24.512,-1.472,0.169,69.0
24.531,-1.481,0.039,75.0
24.537,-1.485,0.719,76.0
24.537,-1.492,0.589,69.0
24.535,-1.499,0.458,65.0
24.525,-1.506,0.324,74.0
24.512,-1.513,0.193,44.0
24.525,-1.521,0.063,71.0
24.516,-1.524,0.743,71.0
24.544,-1.533,0.613,99.0
24.536,-1.539,0.482,63.0
24.529,-1.546,0.349,52.0
24.525,-1.553,0.219,38.0
24.543,-1.562,0.088,52.0
24.506,-1.563,0.768,73.0
24.535,-1.572,0.639,58.0
24.556,-1.581,0.508,41.0
24.548,-1.587,0.375,37.0
24.534,-1.594,0.244,26.0
24.561,-1.603,0.114,27.0
24.496,-1.602,0.794,69.0
24.56,-1.613,0.665,35.0
24.576,-1.621,0.535,29.0
24.593,-1.629,0.402,14.0
24.628,-1.638,0.272,0.0
65.549,-4.381,0.376,130.0
24.503,-1.641,0.821,29.0
24.627,-1.656,0.694,22.0
82.968,-5.604,1.898,18.0
65.982,-4.475,1.153,0.0
65.602,-4.468,0.798,0.0
65.582,-4.486,0.449,157.0
83.172,-5.699,2.88,20.0
83.044,-5.713,2.434,32.0
83.041,-5.736,1.993,48.0
128.412,-8.905,2.387,8.0
0.0,0.0,0.0,0.0
65.565,-4.583,0.523,16.0
83.026,-5.815,2.969,40.0
82.895,-5.828,2.524,65.0
82.48,-5.82,2.074,42.0
82.936,-5.875,1.636,36.0
0.0,0.0,0.0,0.0
65.56,-4.679,0.598,2.0
83.036,-5.937,3.065,41.0
82.921,-5.95,2.621,49.0
82.513,-5.942,2.17,41.0
82.848,-5.988,1.731,57.0
0.0,0.0,0.0,0.0
65.602,-4.776,0.675,2.0
82.774,-6.037,3.153,40.0
82.843,-6.063,2.715,41.0
82.685,-6.072,2.271,40.0
82.725,-6.097,1.827,51.0
82.99,-6.138,1.392,8.0
0.0,0.0,0.0,0.0
82.788,-6.154,3.252,33.0
82.677,-6.166,2.81,38.0
82.617,-6.183,2.37,44.0
82.616,-6.202,1.924,42.0
83.065,-6.257,1.494,33.0
81.954,-6.194,1.039,2.0
82.784,-6.267,3.352,34.0
82.599,-6.273,2.907,41.0
82.442,-6.28,2.464,40.0
82.391,-6.296,2.018,48.0
82.597,-6.331,1.585,35.0
81.936,-6.301,1.14,32.0
83.044,-6.396,3.465,24.0
82.524,-6.375,3.006,43.0
82.524,-6.393,2.568,47.0
82.207,-6.388,2.115,41.0
82.648,-6.442,1.689,47.0
82.01,-6.411,1.242,30.0
83.729,-6.556,3.598,31.0
82.291,-6.462,3.099,40.0
82.47,-6.495,2.67,46.0
82.2,-6.493,2.219,43.0
82.559,-6.54,1.792,48.0
132.555,-10.532,2.177,22.0
83.936,-6.679,3.714,43.0
82.611,-6.592,3.218,34.0
82.478,-6.598,2.776,51.0
82.504,-6.619,2.333,48.0
82.399,-6.629,1.894,42.0
83.533,-6.738,1.478,17.0
83.872,-6.776,3.819,25.0
82.801,-6.706,3.331,41.0
82.241,-6.679,2.875,43.0
82.523,-6.718,2.439,53.0
82.474,-6.732,2.002,45.0
83.039,-6.796,1.577,48.0
83.417,-6.837,3.906,44.0
82.878,-6.809,3.443,34.0
82.041,-6.757,2.974,47.0
82.276,-6.793,2.539,43.0
82.604,-6.837,2.113,54.0
84.631,-7.023,1.719,9.0
83.34,-6.926,4.013,38.0
82.502,-6.871,3.536,24.0
81.992,-6.845,3.081,42.0
82.19,-6.878,2.645,41.0
82.73,-6.939,2.225,61.0
82.983,-6.976,1.795,26.0
83.324,-7.016,4.123,35.0
81.928,-6.913,3.62,31.0
82.038,-6.938,3.191,42.0
82.306,-6.975,2.758,50.0
82.511,-7.008,2.329,30.0
83.018,-7.067,1.906,12.0
83.199,-7.093,4.227,38.0
81.909,-6.997,3.728,33.0
81.88,-7.008,3.294,35.0
82.164,-7.047,2.863,47.0
82.271,-7.071,2.432,34.0
82.995,-7.148,2.016,28.0
83.037,-7.163,4.331,31.0
82.749,-7.151,3.877,50.0
81.744,-7.078,3.399,34.0
82.237,-7.134,2.976,38.0
82.212,-7.145,2.541,40.0
83.41,-7.264,2.137,15.0
83.167,-7.254,4.449,36.0
82.88,-7.242,3.995,35.0
81.756,-7.156,3.509,34.0
82.148,-7.204,3.083,44.0
82.157,-7.217,2.65,42.0
82.596,-7.27,2.228,38.0
83.331,-7.346,4.572,38.0
82.898,-7.32,4.109,42.0
81.956,-7.248,3.629,34.0
81.856,-7.252,3.183,53.0
82.27,-7.3,2.765,40.0
82.242,-7.311,2.33,40.0
83.575,-7.441,4.698,38.0
83.17,-7.415,4.235,50.0
81.993,-7.322,3.742,39.0
81.728,-7.31,3.289,41.0
82.272,-7.37,2.878,47.0
82.087,-7.366,2.439,38.0
83.422,-7.497,4.805,36.0
83.109,-7.48,4.347,46.0
81.839,-7.376,3.848,36.0
81.622,-7.367,3.399,39.0
82.069,-7.419,2.983,37.0
82.193,-7.441,2.555,35.0
83.463,-7.568,4.924,34.0
83.654,-7.596,4.493,48.0
81.907,-7.447,3.965,30.0
81.644,-7.433,3.513,39.0
81.92,-7.468,3.092,50.0
82.005,-7.486,2.663,42.0
83.563,-7.64,5.046,34.0
83.446,-7.639,4.597,52.0
82.229,-7.537,4.095,37.0
81.789,-7.505,3.632,44.0
81.752,-7.512,3.199,44.0
81.838,-7.53,2.77,33.0
84.147,-7.754,5.199,36.0
83.271,-7.682,4.704,39.0
82.537,-7.623,4.225,41.0
82.081,-7.589,3.76,36.0
81.788,-7.571,3.315,37.0
81.829,-7.584,2.885,34.0
84.744,-7.866,5.355,32.0
83.345,-7.744,4.825,41.0
82.176,-7.643,4.322,25.0
82.212,-7.654,3.881,27.0
81.801,-7.624,3.429,22.0
81.949,-7.646,3.003,35.0
84.911,-7.935,5.484,13.0
83.466,-7.807,4.949,41.0
81.833,-7.661,4.418,12.0
82.075,-7.691,3.989,32.0
81.845,-7.677,3.546,29.0
81.994,-7.698,3.119,30.0
86.508,-8.135,5.708,13.0
83.44,-7.852,5.064,21.0
83.125,-7.829,4.605,40.0
81.833,-7.713,4.092,36.0
81.872,-7.724,3.66,29.0
83.334,-7.869,3.286,16.0
110.141,-10.416,7.422,10.0
83.429,-7.895,5.179,15.0
83.27,-7.886,4.728,41.0
81.791,-7.751,4.203,36.0
81.777,-7.756,3.77,33.0
84.985,-8.066,3.469,11.0
110.037,-10.462,7.57,31.0
86.41,-8.219,5.486,17.0
83.545,-7.952,4.861,40.0
81.871,-7.797,4.322,31.0
81.803,-7.795,3.885,35.0
81.869,-7.807,3.456,19.0
109.816,-10.49,7.709,28.0
86.424,-8.26,5.607,21.0
83.471,-7.981,4.973,30.0
81.814,-7.826,4.433,14.0
81.958,-7.844,4.008,36.0
81.939,-7.847,3.573,32.0
109.709,-10.525,7.855,31.0
86.464,-8.298,5.732,14.0
83.395,-8.006,5.086,15.0
83.468,-8.017,4.639,38.0
81.853,-7.864,4.115,36.0
81.882,-7.871,3.684,40.0
112.788,-10.861,8.233,9.0
109.748,-10.571,7.428,17.0
83.362,-8.032,5.2,6.0
83.531,-8.05,4.758,39.0
81.825,-7.889,4.228,40.0
81.817,-7.891,3.794,33.0
112.841,-10.902,8.393,19.0
109.609,-10.592,7.568,31.0
86.457,-8.355,5.51,10.0
83.428,-8.064,4.867,39.0
81.888,-7.917,4.342,32.0
81.829,-7.913,3.905,35.0
110.069,-10.664,8.337,14.0
109.406,-10.6,7.704,39.0
86.521,-8.383,5.632,15.0
83.477,-8.089,4.982,33.0
0.0,0.0,0.0,0.0
81.937,-7.942,4.022,33.0
110.046,-10.687,8.485,15.0
109.439,-10.628,7.854,25.0
86.484,-8.398,5.746,22.0
83.505,-8.109,5.095,19.0
83.48,-8.106,4.651,48.0
81.994,-7.963,4.134,37.0
112.153,-10.912,8.8,25.0
109.933,-10.695,8.039,18.0
86.423,-8.407,5.859,15.0
85.795,-8.344,5.351,11.0
83.488,-8.12,4.764,39.0
81.908,-7.965,4.239,34.0
112.146,-10.927,8.949,26.0
110.06,-10.721,8.196,21.0
109.415,-10.656,7.566,25.0
86.424,-8.415,5.507,21.0
83.481,-8.127,4.875,32.0
81.813,-7.964,4.342,18.0
112.137,-10.937,9.098,18.0
110.052,-10.73,8.341,18.0
109.369,-10.66,7.707,34.0
86.453,-8.424,5.622,23.0
83.588,-8.143,4.991,27.0
0.0,0.0,0.0,0.0
108.411,-10.579,8.94,28.0
112.227,-10.946,8.656,7.0
109.607,-10.687,7.868,24.0
86.438,-8.425,5.735,30.0
83.699,-8.155,5.107,15.0
83.43,-8.126,4.648,39.0
108.297,-10.569,9.074,32.0
112.14,-10.938,8.796,27.0
109.951,-10.719,8.036,22.0
86.405,-8.42,5.845,15.0
85.814,-8.359,5.347,12.0
83.493,-8.13,4.758,39.0
108.227,-10.558,9.208,33.0
112.153,-10.935,8.94,27.0
110.057,-10.723,8.185,21.0
109.442,-10.658,7.543,25.0
86.467,-8.416,5.499,18.0
83.468,-8.12,4.862,33.0
108.867,-10.612,9.402,36.0
112.138,-10.923,9.083,18.0
110.049,-10.712,8.325,18.0
109.358,-10.638,7.677,36.0
86.487,-8.408,5.609,16.0
83.463,-8.109,4.967,27.0
108.81,-10.593,9.535,36.0
108.49,-10.553,8.924,23.0
110.022,-10.695,8.459,11.0
109.412,-10.628,7.816,29.0
86.522,-8.398,5.718,23.0
83.481,-8.097,5.071,21.0
108.686,-10.563,9.659,40.0
108.393,-10.525,9.05,27.0
112.214,-10.887,8.766,22.0
112.773,-10.933,8.193,10.0
86.455,-8.374,5.819,14.0
83.469,-8.079,5.172,9.0
108.69,-10.542,9.792,22.0
108.737,-10.536,9.211,22.0
112.125,-10.853,8.897,26.0
112.79,-10.908,8.332,19.0
109.646,-10.595,7.512,29.0
