X,Y,Z,Reflectivity
30.965,-2.309,-0.661,3.0
24.912,-1.85,-0.664,3.0
23.69,-1.753,-0.758,11.0
59.846,-4.422,-0.253,4.0
0.0,0.0,0.0,0.0
39.32,-2.882,-0.584,2.0
32.385,-2.365,-0.657,3.0
27.951,-2.033,-0.716,1.0
23.827,-1.726,-0.737,14.0
66.254,-4.793,-0.21,2.0
49.646,-3.576,-0.421,10.0
40.813,-2.928,-0.564,2.0
33.441,-2.39,-0.644,2.0
28.44,-2.024,-0.699,3.0
24.008,-1.702,-0.718,14.0
65.837,-4.66,-0.141,4.0
53.425,-3.765,-0.4,17.0
44.348,-3.112,-0.568,1.0
34.306,-2.397,-0.626,1.0
30.085,-2.093,-0.709,8.0
24.25,-1.68,-0.701,15.0
65.799,-4.551,-0.076,3.0
0.0,0.0,0.0,0.0
44.874,-3.076,-0.53,3.0
35.628,-2.431,-0.615,2.0
24.493,-1.664,-0.553,21.0
24.411,-1.651,-0.682,21.0
65.6,-4.43,-0.012,1.0
24.597,-1.653,-0.135,3.0
24.567,-1.644,-0.266,8.0
24.507,-1.632,-0.399,28.0
24.492,-1.623,-0.53,35.0
24.413,-1.611,-0.659,26.0
24.562,-1.617,0.018,25.0
24.549,-1.609,-0.112,38.0
24.52,-1.599,-0.243,34.0
24.518,-1.591,-0.376,48.0
24.482,-1.581,-0.506,44.0
24.417,-1.569,-0.636,31.0
24.547,-1.574,0.041,45.0
24.529,-1.565,-0.089,58.0
24.506,-1.556,-0.22,39.0
24.497,-1.548,-0.354,62.0
24.489,-1.54,-0.485,47.0
24.416,-1.527,-0.614,26.0
24.534,-1.531,0.063,74.0
24.53,-1.523,-0.067,91.0
24.497,-1.513,-0.199,49.0
24.498,-1.505,-0.332,53.0
24.492,-1.497,-0.464,67.0
24.447,-1.487,-0.594,37.0
24.53,-1.488,0.084,77.0
24.532,-1.48,-0.046,81.0
24.516,-1.471,-0.178,63.0
24.512,-1.463,-0.312,78.0
24.492,-1.454,-0.443,53.0
24.465,-1.444,-0.574,35.0
24.535,-1.445,0.104,52.0
24.532,-1.437,-0.026,62.0
24.521,-1.428,-0.158,62.0
24.514,-1.419,-0.292,65.0
24.51,-1.411,-0.423,45.0
24.491,-1.402,-0.555,36.0
24.568,-1.402,0.124,42.0
24.583,-1.395,-0.007,35.0
24.558,-1.386,-0.139,35.0
24.544,-1.377,-0.273,42.0
24.551,-1.369,-0.405,47.0
24.521,-1.359,-0.536,40.0
24.578,-1.359,0.143,1.0
24.576,-1.35,0.011,0.0
24.616,-1.344,-0.12,0.0
24.583,-1.334,-0.255,2.0
24.595,-1.326,-0.387,5.0
24.593,-1.318,-0.519,14.0
0.0,0.0,0.0,0.0
0.0,0.0,0.0,0.0
65.918,-3.476,-0.274,3.0
53.66,-2.811,-0.517,1.0
38.004,-1.977,-0.571,9.0
30.776,-1.591,-0.628,29.0
0.0,0.0,0.0,0.0
66.662,-3.412,0.127,1.0
0.0,0.0,0.0,0.0
53.763,-2.715,-0.481,2.0
38.599,-1.935,-0.553,4.0
30.91,-1.539,-0.609,29.0
67.797,-3.366,0.541,2.0
0.0,0.0,0.0,0.0
68.914,-3.372,-0.193,0.0
31.241,-1.518,-0.259,28.0
31.221,-1.506,-0.427,36.0
31.01,-1.485,-0.591,31.0
79.862,-3.811,0.689,18.0
31.304,-1.482,0.101,7.0
31.256,-1.469,-0.067,28.0
31.174,-1.454,-0.238,45.0
31.205,-1.445,-0.407,59.0
31.073,-1.428,-0.573,39.0
31.288,-1.431,0.289,31.0
31.229,-1.418,0.12,44.0
31.223,-1.406,-0.048,59.0
31.173,-1.393,-0.22,44.0
28.467,-1.261,-0.354,51.0
28.464,-1.251,-0.508,56.0
28.465,-1.246,0.279,62.0
28.455,-1.235,0.125,60.0
28.441,-1.224,-0.027,63.0
28.44,-1.214,-0.184,94.0
28.451,-1.205,-0.338,109.0
28.448,-1.194,-0.492,106.0
28.443,-1.188,0.295,115.0
28.446,-1.178,0.141,123.0
28.446,-1.168,-0.012,152.0
28.45,-1.158,-0.169,135.0
28.443,-1.147,-0.323,71.0
28.458,-1.138,-0.477,63.0
28.45,-1.131,0.309,73.0
28.47,-1.122,0.155,64.0
28.463,-1.111,0.001,39.0
31.281,-1.21,-0.17,43.0
31.283,-1.199,-0.34,36.0
31.28,-1.188,-0.51,42.0
31.273,-1.181,0.355,45.0
31.294,-1.17,0.186,41.0
31.339,-1.16,0.016,9.0
31.351,-1.149,-0.156,1.0
45.339,-1.645,-0.472,4.0
38.106,-1.369,-0.604,12.0
84.33,-3.013,0.996,32.0
80.512,-2.846,0.514,25.0
80.605,-2.819,0.077,26.0
56.906,-1.97,-0.26,1.0
38.745,-1.327,-0.387,21.0
38.211,-1.295,-0.59,13.0
84.744,-2.852,1.036,14.0
38.73,-1.289,0.263,21.0
38.714,-1.274,0.052,38.0
38.688,-1.259,-0.162,56.0
38.649,-1.244,-0.372,50.0
38.264,-1.218,-0.576,13.0
38.651,-1.221,0.486,65.0
38.651,-1.206,0.276,68.0
38.643,-1.192,0.066,62.0
38.627,-1.177,-0.147,67.0
38.637,-1.163,-0.358,63.0
38.308,-1.14,-0.564,20.0
38.642,-1.14,0.499,117.0
38.651,-1.126,0.289,92.0
38.678,-1.113,0.078,80.0
38.625,-1.097,-0.135,71.0
38.667,-1.084,-0.346,53.0
38.403,-1.063,-0.553,19.0
38.649,-1.059,0.511,70.0
38.661,-1.045,0.3,60.0
38.675,-1.031,0.089,58.0
38.69,-1.018,-0.125,36.0
38.735,-1.005,-0.336,37.0
38.505,-0.984,-0.544,22.0
0.0,0.0,0.0,0.0
0.0,0.0,0.0,0.0
40.419,-0.993,0.104,29.0
40.421,-0.978,-0.12,38.0
40.417,-0.963,-0.341,45.0
40.412,-0.948,-0.562,26.0
40.414,-0.937,0.554,60.0
40.439,-0.922,0.334,154.0
40.406,-0.906,0.112,33.0
38.386,-0.847,-0.106,7.0
38.367,-0.833,-0.316,29.0
38.356,-0.818,-0.526,61.0
38.396,-0.809,0.534,15.0
52.935,-1.095,0.447,44.0
52.937,-1.075,0.157,67.0
52.93,-1.055,-0.137,61.0
45.615,-0.893,-0.368,16.0
44.897,-0.862,-0.608,28.0
192.878,-3.65,2.714,39.0
62.181,-1.154,0.534,1.0
20.134,-0.366,0.062,10.0
20.097,-0.358,-0.049,20.0
52.933,-0.923,-0.42,44.0
44.884,-0.766,-0.603,28.0
176.645,-2.965,2.506,54.0
20.129,-0.33,0.175,9.0
20.139,-0.323,0.064,41.0
20.117,-0.315,-0.047,8.0
59.26,-0.906,-0.465,5.0
44.875,-0.67,-0.599,33.0
20.131,-0.294,0.287,11.0
20.125,-0.287,0.176,11.0
59.535,-0.827,0.195,22.0
59.512,-0.805,-0.137,28.0
56.64,-0.746,-0.442,9.0
44.95,-0.575,-0.598,35.0
20.139,-0.251,0.288,10.0
20.163,-0.244,0.177,3.0
56.233,-0.662,0.185,1.0
56.344,-0.642,-0.129,1.0
58.994,-0.651,-0.459,21.0
44.939,-0.479,-0.597,35.0
20.159,-0.208,0.288,2.0
53.356,-0.532,0.469,5.0
53.362,-0.512,0.175,5.0
53.334,-0.493,-0.123,7.0
20.172,-0.179,-0.157,6.0
20.167,-0.171,-0.268,25.0
20.246,-0.165,0.288,17.0
20.209,-0.158,0.177,16.0
20.152,-0.15,0.065,15.0
20.172,-0.143,-0.047,22.0
20.158,-0.135,-0.158,25.0
20.137,-0.128,-0.269,35.0
20.133,-0.121,0.285,25.0
20.148,-0.114,0.174,22.0
20.142,-0.107,0.063,35.0
20.143,-0.099,-0.049,28.0
20.143,-0.092,-0.16,37.0
20.137,-0.085,-0.271,35.0
20.119,-0.078,0.283,28.0
20.124,-0.07,0.172,29.0
20.138,-0.063,0.061,41.0
20.129,-0.056,-0.051,31.0
20.154,-0.049,-0.163,33.0
20.165,-0.042,-0.274,25.0
20.121,-0.035,0.28,28.0
20.123,-0.027,0.169,29.0
20.137,-0.02,0.058,29.0
20.201,-0.013,-0.055,19.0
20.249,-0.006,-0.167,27.0
20.271,0.0,-0.279,84.0
20.13,0.008,0.276,29.0
20.133,0.015,0.165,27.0
20.185,0.022,0.054,17.0
20.26,0.029,-0.059,56.0
20.229,0.036,-0.171,18.0
20.279,0.043,-0.284,0.0
20.146,0.05,0.272,28.0
20.143,0.057,0.161,29.0
20.203,0.064,0.049,34.0
20.192,0.072,-0.064,30.0
20.194,0.079,-0.176,29.0
20.206,0.086,-0.288,18.0
20.165,0.093,0.267,29.0
20.154,0.1,0.155,27.0
20.183,0.107,0.044,36.0
20.189,0.114,-0.069,29.0
20.171,0.121,-0.181,27.0
20.184,0.128,-0.293,34.0
20.186,0.136,0.262,26.0
20.188,0.143,0.15,24.0
20.218,0.15,0.037,23.0
20.214,0.157,-0.076,22.0
20.171,0.164,-0.188,18.0
20.175,0.17,-0.3,35.0
20.296,0.179,0.256,29.0
20.315,0.186,0.144,29.0
20.342,0.194,0.031,29.0
20.295,0.201,-0.083,0.0
20.177,0.206,-0.195,13.0
20.193,0.213,-0.307,27.0
20.291,0.222,0.249,27.0
20.305,0.23,0.136,9.0
99.572,1.16,0.114,5.0
0.0,0.0,0.0,0.0
0.0,0.0,0.0,0.0
20.2,0.256,-0.316,2.0
20.316,0.265,0.241,0.0
99.696,1.336,0.628,4.0
99.678,1.37,0.073,5.0
0.0,0.0,0.0,0.0
0.0,0.0,0.0,0.0
0.0,0.0,0.0,0.0
0.0,0.0,0.0,0.0
99.716,1.548,0.583,5.0
99.778,1.583,0.027,5.0
0.0,0.0,0.0,0.0
0.0,0.0,0.0,0.0
0.0,0.0,0.0,0.0
0.0,0.0,0.0,0.0
99.872,1.76,0.536,6.0
99.949,1.793,-0.021,3.0
0.0,0.0,0.0,0.0
0.0,0.0,0.0,0.0
43.095,0.816,-0.735,0.0
103.306,2.0,1.077,1.0
99.92,1.968,0.484,4.0
100.024,2.002,-0.074,6.0
0.0,0.0,0.0,0.0
0.0,0.0,0.0,0.0
42.878,0.9,-0.754,0.0
0.0,0.0,0.0,0.0
100.171,2.177,0.43,2.0
100.101,2.207,-0.129,10.0
0.0,0.0,0.0,0.0
0.0,0.0,0.0,0.0
0.0,0.0,0.0,0.0
0.0,0.0,0.0,0.0
100.065,2.379,0.37,2.0
0.0,0.0,0.0,0.0
0.0,0.0,0.0,0.0
0.0,0.0,0.0,0.0
41.098,1.031,-0.772,0.0
103.162,2.631,0.894,11.0
0.0,0.0,0.0,0.0
0.0,0.0,0.0,0.0
0.0,0.0,0.0,0.0
0.0,0.0,0.0,0.0
0.0,0.0,0.0,0.0
0.0,0.0,0.0,0.0
0.0,0.0,0.0,0.0
0.0,0.0,0.0,0.0
68.93,1.963,-0.614,2.0
0.0,0.0,0.0,0.0
39.249,1.142,-0.79,0.0
196.039,5.789,1.436,40.0
0.0,0.0,0.0,0.0
0.0,0.0,0.0,0.0
0.0,0.0,0.0,0.0
0.0,0.0,0.0,0.0
38.527,1.198,-0.803,0.0
196.163,6.181,1.294,32.0
0.0,0.0,0.0,0.0
0.0,0.0,0.0,0.0
0.0,0.0,0.0,0.0
0.0,0.0,0.0,0.0
0.0,0.0,0.0,0.0
196.303,6.567,1.148,33.0
0.0,0.0,0.0,0.0
0.0,0.0,0.0,0.0
0.0,0.0,0.0,0.0
0.0,0.0,0.0,0.0
36.31,1.27,-0.812,0.0
196.479,6.957,0.994,35.0
0.0,0.0,0.0,0.0
69.012,2.484,-0.427,2.0
0.0,0.0,0.0,0.0
0.0,0.0,0.0,0.0
35.164,1.297,-0.815,0.0
195.1,7.281,0.827,17.0
0.0,0.0,0.0,0.0
68.977,2.613,-0.483,3.0
0.0,0.0,0.0,0.0
0.0,0.0,0.0,0.0
33.744,1.308,-0.81,0.0
196.681,7.709,0.668,14.0
0.0,0.0,0.0,0.0
0.0,0.0,0.0,0.0
0.0,0.0,0.0,0.0
0.0,0.0,0.0,0.0
32.88,1.336,-0.819,0.0
196.635,8.076,0.494,5.0
0.0,0.0,0.0,0.0
0.0,0.0,0.0,0.0
0.0,0.0,0.0,0.0
38.264,1.615,-0.771,0.0
33.004,1.403,-0.852,0.0
0.0,0.0,0.0,0.0
0.0,0.0,0.0,0.0
0.0,0.0,0.0,0.0
0.0,0.0,0.0,0.0
37.185,1.637,-0.784,0.0
32.067,1.421,-0.857,0.0
0.0,0.0,0.0,0.0
0.0,0.0,0.0,0.0
0.0,0.0,0.0,0.0
42.535,1.937,-0.697,2.0
0.0,0.0,0.0,0.0
30.873,1.424,-0.855,0.0
0.0,0.0,0.0,0.0
0.0,0.0,0.0,0.0
0.0,0.0,0.0,0.0
0.0,0.0,0.0,0.0
35.127,1.672,-0.809,0.0
30.082,1.44,-0.863,0.0
0.0,0.0,0.0,0.0
0.0,0.0,0.0,0.0
0.0,0.0,0.0,0.0
0.0,0.0,0.0,0.0
33.79,1.667,-0.812,0.0
28.824,1.43,-0.856,0.0
0.0,0.0,0.0,0.0
68.876,3.464,-0.55,2.0
0.0,0.0,0.0,0.0
0.0,0.0,0.0,0.0
32.92,1.682,-0.826,1.0
28.147,1.445,-0.866,0.0
0.0,0.0,0.0,0.0
0.0,0.0,0.0,0.0
0.0,0.0,0.0,0.0
38.226,2.007,-0.783,0.0
32.144,1.696,-0.841,0.0
27.507,1.459,-0.876,0.0
0.0,0.0,0.0,0.0
0.0,0.0,0.0,0.0
0.0,0.0,0.0,0.0
37.093,2.01,-0.8,0.0
31.088,1.693,-0.847,0.0
26.439,1.446,-0.871,0.0
0.0,0.0,0.0,0.0
0.0,0.0,0.0,0.0
0.0,0.0,0.0,0.0
35.451,1.979,-0.805,0.0
30.199,1.693,-0.857,0.0
25.525,1.437,-0.869,0.0
68.951,3.91,-0.462,3.0
0.0,0.0,0.0,0.0
40.547,2.319,-0.732,0.0
33.771,1.939,-0.805,0.0
28.882,1.666,-0.853,0.0
25.337,1.467,-0.892,1.0
68.961,4.02,-0.541,2.0
0.0,0.0,0.0,0.0
0.0,0.0,0.0,0.0
32.894,1.94,-0.822,1.0
28.114,1.665,-0.863,0.0
24.341,1.448,-0.885,0.0
0.0,0.0,0.0,0.0
0.0,0.0,0.0,0.0
37.622,2.269,-0.767,0.0
31.953,1.934,-0.837,1.0
27.277,1.658,-0.87,0.0
23.761,1.45,-0.893,0.0
0.0,0.0,0.0,0.0
0.0,0.0,0.0,0.0
0.0,0.0,0.0,0.0
31.16,1.933,-0.854,1.0
26.329,1.64,-0.872,0.0
21.896,1.369,-0.85,2.0
0.0,0.0,0.0,0.0
0.0,0.0,0.0,0.0
35.247,2.231,-0.805,0.0
29.857,1.896,-0.855,0.0
25.584,1.631,-0.878,0.0
21.845,1.397,-0.875,8.0
0.0,0.0,0.0,0.0
0.0,0.0,0.0,0.0
33.215,2.15,-0.8,1.0
28.722,1.865,-0.858,0.0
24.595,1.603,-0.875,0.0
21.807,1.426,-0.9,10.0
0.0,0.0,0.0,0.0
0.0,0.0,0.0,0.0
32.513,2.15,-0.824,1.0
27.884,1.85,-0.869,0.0
23.831,1.586,-0.879,0.0
21.768,1.454,-0.927,1.0
0.0,0.0,0.0,0.0
37.381,2.516,-0.782,0.0
31.7,2.14,-0.844,0.0
26.831,1.817,-0.871,0.0
23.507,1.597,-0.897,0.0
20.693,1.41,-0.908,0.0
0.0,0.0,0.0,0.0
0.0,0.0,0.0,0.0
30.118,2.073,-0.841,1.0
25.864,1.786,-0.873,0.0
21.89,1.516,-0.864,0.0
19.862,1.38,-0.898,0.0
40.864,2.851,-0.729,0.0
33.31,2.33,-0.785,1.0
29.076,2.04,-0.851,0.0
24.963,1.756,-0.876,0.0
21.805,1.538,-0.889,2.0
19.502,1.38,-0.907,0.0
0.0,0.0,0.0,0.0
32.523,2.316,-0.809,1.0
28.083,2.005,-0.859,0.0
23.96,1.715,-0.872,0.0
21.714,1.559,-0.915,0.0
19.389,1.396,-0.928,0.0
37.557,2.713,-0.77,0.0
0.0,0.0,0.0,0.0
27.047,1.964,-0.864,0.0
23.521,1.712,-0.888,0.0
20.788,1.517,-0.904,0.0
0.0,0.0,0.0,0.0
0.0,0.0,0.0,0.0
30.172,2.221,-0.832,0.0
26.163,1.931,-0.872,0.0
21.885,1.619,-0.857,0.0
20.009,1.484,-0.898,0.0
18.042,1.341,-0.913,0.0
33.35,2.488,-0.775,0.0
29.218,2.185,-0.846,0.0
25.022,1.875,-0.868,0.0
21.788,1.637,-0.883,1.0
19.594,1.475,-0.906,0.0
17.585,1.327,-0.914,0.0
32.805,2.484,-0.808,1.0
28.104,2.132,-0.853,0.0
24.405,1.856,-0.881,0.0
21.7,1.654,-0.909,0.0
19.265,1.472,-0.918,0.0
17.23,1.319,-0.92,0.0
32.197,2.472,-0.838,0.0
27.054,2.081,-0.859,0.0
23.665,1.824,-0.887,0.0
20.842,1.61,-0.903,0.0
18.639,1.443,-0.914,0.0
16.897,1.311,-0.926,0.0
29.742,2.314,-0.816,0.0
26.117,2.036,-0.866,0.0
21.932,1.713,-0.853,1.0
0.0,0.0,0.0,0.0
18.484,1.45,-0.933,0.0
16.469,1.295,-0.926,0.0
28.968,2.283,-0.836,0.0
24.916,1.967,-0.862,0.0
21.82,1.726,-0.88,7.0
19.553,1.55,-0.903,0.0
0.0,0.0,0.0,0.0
16.146,1.285,-0.931,0.0
27.974,2.231,-0.847,1.0
24.333,1.944,-0.877,1.0
21.764,1.742,-0.909,3.0
19.34,1.551,-0.921,0.0
17.219,1.384,-0.919,0.0
15.728,1.266,-0.93,0.0
27.118,2.188,-0.86,0.0
21.974,1.776,-0.823,0.0
21.176,1.714,-0.915,0.0
0.0,0.0,0.0,0.0
16.898,1.373,-0.926,0.0
15.328,1.248,-0.928,0.0
26.0,2.12,-0.862,0.0
21.89,1.788,-0.851,4.0
0.0,0.0,0.0,0.0
17.968,1.472,-0.907,0.0
16.409,1.347,-0.923,0.0
15.0,1.233,-0.93,0.0
24.756,2.039,-0.857,0.0
21.825,1.8,-0.88,8.0
19.581,1.617,-0.903,0.0
17.615,1.457,-0.915,0.0
16.035,1.329,-0.925,0.0
14.72,1.222,-0.934,0.0
24.226,2.014,-0.873,1.0
21.761,1.812,-0.909,2.0
19.327,1.611,-0.919,0.0
17.131,1.43,-0.914,0.0
15.725,1.315,-0.93,0.0
14.444,1.21,-0.938,0.0
21.951,1.841,-0.823,1.0
0.0,0.0,0.0,0.0
0.0,0.0,0.0,0.0
16.8,1.415,-0.922,0.0
15.321,1.292,-0.929,0.0
14.294,1.208,-0.949,0.0
21.904,1.852,-0.853,7.0
19.903,1.685,-0.89,0.0
18.131,1.537,-0.915,0.0
16.407,1.393,-0.924,0.0
15.007,1.276,-0.932,0.0
13.956,1.188,-0.947,0.0
21.831,1.86,-0.883,8.0
19.516,1.665,-0.901,0.0
17.592,1.503,-0.913,0.0
15.955,1.365,-0.922,0.0
14.683,1.258,-0.933,0.0
13.502,1.158,-0.936,0.0
21.743,1.866,-0.91,1.0
19.267,1.655,-0.918,0.0
17.129,1.473,-0.914,0.0
15.661,1.349,-0.928,0.0
14.466,1.247,-0.94,0.0
13.296,1.148,-0.941,0.0
20.753,1.792,-0.899,0.0
18.418,1.592,-0.904,0.0
16.77,1.452,-0.92,0.0
15.225,1.319,-0.924,0.0
14.223,1.234,-0.946,0.0
13.061,1.135,-0.944,0.0
19.772,1.718,-0.885,0.0
18.039,1.569,-0.912,0.0
16.323,1.421,-0.919,0.0
14.933,1.302,-0.928,0.0
0.0,0.0,0.0,0.0
12.768,1.116,-0.941,0.0
19.462,1.7,-0.9,0.0
17.496,1.53,-0.91,0.0
15.983,1.399,-0.923,0.0
14.694,1.288,-0.935,0.0
13.521,1.186,-0.938,0.0
12.569,1.104,-0.945,0.0
19.12,1.679,-0.912,0.0
17.027,1.496,-0.91,0.0
15.642,1.376,-0.926,0.0
14.405,1.268,-0.937,0.0
13.297,1.172,-0.942,0.0
12.303,1.085,-0.943,0.0
18.213,1.606,-0.895,0.0
16.783,1.481,-0.921,0.0
15.207,1.343,-0.922,0.0
14.128,1.249,-0.94,0.0
13.042,1.154,-0.943,0.0
12.062,1.068,-0.942,0.0
17.923,1.587,-0.906,0.0
16.294,1.443,-0.918,0.0
14.915,1.322,-0.926,0.0
0.0,0.0,0.0,0.0
12.768,1.134,-0.942,0.0
11.828,1.052,-0.941,0.0
17.474,1.552,-0.909,0.0
15.979,1.42,-0.923,0.0
14.67,1.305,-0.932,0.0
13.448,1.197,-0.933,0.0
12.51,1.115,-0.941,0.0
11.646,1.038,-0.943,0.0
17.117,1.525,-0.914,0.0
15.572,1.388,-0.922,0.0
14.383,1.283,-0.934,0.0
13.291,1.186,-0.941,0.0
12.275,1.096,-0.94,0.0
11.457,1.024,-0.944,0.0
16.676,1.489,-0.914,0.0
15.242,1.361,-0.923,0.0
14.277,1.276,-0.947,0.0
13.002,1.163,-0.939,0.0
12.054,1.079,-0.94,0.0
11.271,1.01,-0.944,0.0
16.347,1.462,-0.919,0.0
14.926,1.336,-0.925,0.0
0.0,0.0,0.0,0.0
12.763,1.144,-0.939,0.0
11.83,1.061,-0.939,0.0
11.113,0.997,-0.947,0.0
15.999,1.433,-0.921,0.0
14.683,1.316,-0.93,0.0
13.459,1.207,-0.93,0.0
12.509,1.122,-0.938,0.0
11.656,1.046,-0.942,0.0
10.927,0.981,-0.946,0.0
15.694,1.407,-0.926,0.0
14.442,1.295,-0.935,0.0
13.343,1.197,-0.941,0.0
12.269,1.101,-0.937,0.0
11.47,1.03,-0.942,0.0
10.669,0.959,-0.938,0.0
15.317,1.374,-0.924,0.0
14.238,1.277,-0.941,0.0
13.056,1.172,-0.938,0.0
12.095,1.086,-0.94,0.0
11.302,1.015,-0.944,0.0
10.619,0.954,-0.948,0.0
14.928,1.339,-0.921,0.0
0.0,0.0,0.0,0.0
12.822,1.15,-0.939,0.0
11.846,1.063,-0.937,0.0
11.091,0.996,-0.941,0.0
0.0,0.0,0.0,0.0
14.714,1.319,-0.927,0.0
13.562,1.216,-0.933,0.0
12.608,1.131,-0.94,0.0
11.659,1.046,-0.938,0.0
10.906,0.979,-0.94,0.0
10.282,0.923,-0.946,0.0
14.503,1.299,-0.933,0.0
13.397,1.2,-0.939,0.0
12.34,1.105,-0.936,0.0
11.495,1.03,-0.94,0.0
10.834,0.971,-0.948,0.0
10.085,0.904,-0.941,0.0
14.242,1.273,-0.935,0.0
13.142,1.175,-0.938,0.0
12.156,1.087,-0.938,0.0
11.317,1.012,-0.94,0.0
10.645,0.952,-0.945,0.0
9.982,0.893,-0.944,0.0
14.134,1.261,-0.946,0.0
12.897,1.151,-0.937,0.0
11.93,1.065,-0.936,0.0
11.208,1.0,-0.945,0.0
10.57,0.944,-0.952,0.0
9.843,0.879,-0.944,0.0
13.702,1.22,-0.934,0.0
12.657,1.127,-0.935,0.0
11.731,1.044,-0.935,0.0
11.09,0.987,-0.949,0.0
10.298,0.917,-0.941,0.0
9.716,0.865,-0.944,0.0
13.452,1.194,-0.933,0.0
12.479,1.108,-0.938,0.0
11.616,1.031,-0.94,0.0
10.831,0.961,-0.94,0.0
10.194,0.905,-0.943,0.0
9.607,0.853,-0.945,0.0
13.269,1.174,-0.937,0.0
12.278,1.086,-0.937,0.0
11.431,1.011,-0.939,0.0
10.692,0.946,-0.941,0.0
10.048,0.889,-0.942,0.0
9.483,0.839,-0.944,0.0
13.123,1.157,-0.942,0.0
12.097,1.066,-0.938,0.0
11.303,0.996,-0.941,0.0
10.597,0.933,-0.945,0.0
9.97,0.878,-0.947,0.0
9.359,0.824,-0.943,0.0
12.865,1.129,-0.938,0.0
11.888,1.043,-0.935,0.0
11.142,0.977,-0.941,0.0
0.0,0.0,0.0,0.0
9.861,0.865,-0.948,0.0
9.261,0.812,-0.943,0.0
12.64,1.104,-0.936,0.0
11.731,1.024,-0.936,0.0
10.965,0.957,-0.938,0.0
10.249,0.894,-0.937,0.0
9.682,0.845,-0.941,0.0
9.162,0.799,-0.944,0.0
12.486,1.085,-0.939,0.0
11.594,1.007,-0.938,0.0
10.846,0.942,-0.94,0.0
10.196,0.885,-0.944,0.0
9.561,0.83,-0.94,0.0
9.036,0.784,-0.941,0.0
12.303,1.063,-0.938,0.0
11.459,0.99,-0.94,0.0
10.73,0.926,-0.942,0.0
10.101,0.872,-0.946,0.0
9.468,0.817,-0.941,0.0
8.947,0.772,-0.941,0.0
12.095,1.039,-0.935,0.0
11.33,0.972,-0.941,0.0
10.521,0.903,-0.935,0.0
9.956,0.854,-0.943,0.0
9.387,0.805,-0.943,0.0
8.824,0.756,-0.938,0.0
11.921,1.017,-0.934,0.0
11.209,0.956,-0.943,0.0
10.449,0.89,-0.939,0.0
9.82,0.836,-0.94,0.0
9.297,0.791,-0.944,0.0
8.739,0.744,-0.938,0.0
11.791,0.999,-0.936,0.0
11.047,0.935,-0.94,0.0
10.38,0.878,-0.943,0.0
9.743,0.824,-0.942,0.0
9.161,0.774,-0.939,0.0
8.702,0.735,-0.942,0.0
11.643,0.979,-0.935,0.0
11.024,0.926,-0.949,0.0
10.26,0.861,-0.942,0.0
9.614,0.807,-0.939,0.0
9.101,0.763,-0.942,0.0
8.643,0.724,-0.944,0.0
11.536,0.962,-0.938,0.0
10.901,0.908,-0.949,0.0
10.16,0.846,-0.943,0.0
9.536,0.794,-0.94,0.0
9.041,0.752,-0.944,0.0
8.562,0.712,-0.943,0.0
11.435,0.946,-0.94,0.0
10.678,0.882,-0.939,0.0
10.048,0.83,-0.941,0.0
9.462,0.781,-0.942,0.0
8.934,0.737,-0.941,0.0
8.499,0.7,-0.944,0.0
11.335,0.929,-0.942,0.0
10.574,0.866,-0.939,0.0
9.959,0.815,-0.941,0.0
9.351,0.764,-0.939,0.0
8.832,0.721,-0.938,0.0
8.433,0.688,-0.944,0.0
11.25,0.913,-0.944,0.0
10.466,0.849,-0.938,0.0
9.868,0.8,-0.941,0.0
9.32,0.755,-0.943,0.0
8.805,0.712,-0.942,0.0
8.358,0.676,-0.942,0.0
11.115,0.894,-0.942,0.0
10.384,0.834,-0.939,0.0
9.795,0.786,-0.942,0.0
9.217,0.739,-0.94,0.0
8.739,0.7,-0.942,0.0
8.299,0.664,-0.942,0.0
11.064,0.88,-0.946,0.0
10.327,0.821,-0.942,0.0
9.667,0.767,-0.937,0.0
9.146,0.725,-0.94,0.0
8.699,0.689,-0.944,0.0
8.264,0.654,-0.945,0.0
10.965,0.863,-0.946,0.0
10.262,0.807,-0.944,0.0
9.609,0.754,-0.939,0.0
9.122,0.715,-0.944,0.0
8.631,0.676,-0.943,0.0
8.198,0.641,-0.943,0.0
10.835,0.843,-0.942,0.0
10.172,0.791,-0.942,0.0
9.526,0.739,-0.937,0.0
9.049,0.701,-0.943,0.0
8.58,0.664,-0.943,0.0
8.144,0.63,-0.942,0.0
10.713,0.824,-0.938,0.0
10.106,0.776,-0.943,0.0
9.497,0.728,-0.94,0.0
8.979,0.688,-0.942,0.0
8.513,0.651,-0.942,0.0
8.121,0.62,-0.945,0.0
10.558,0.802,-0.932,0.0
10.056,0.763,-0.945,0.0
9.446,0.715,-0.941,0.0
8.92,0.675,-0.941,0.0
8.493,0.641,-0.944,0.0
8.064,0.608,-0.943,0.0
10.51,0.788,-0.934,0.0
9.939,0.744,-0.939,0.0
9.43,0.705,-0.945,0.0
8.9,0.664,-0.944,0.0
8.428,0.628,-0.942,0.0
8.029,0.598,-0.944,0.0
10.481,0.776,-0.937,0.0
9.916,0.732,-0.943,0.0
9.35,0.689,-0.942,0.0
8.839,0.651,-0.942,0.0
8.395,0.617,-0.943,0.0
8.013,0.588,-0.946,0.0
10.427,0.761,-0.937,0.0
9.864,0.718,-0.943,0.0
9.305,0.677,-0.942,0.0
8.788,0.638,-0.941,0.0
8.364,0.606,-0.944,0.0
7.979,0.577,-0.946,0.0
10.396,0.748,-0.939,0.0
9.829,0.706,-0.944,0.0
9.284,0.665,-0.945,0.0
8.755,0.626,-0.942,0.0
8.325,0.594,-0.943,0.0
7.915,0.564,-0.942,0.0
10.346,0.733,-0.939,0.0
9.765,0.69,-0.942,0.0
9.228,0.651,-0.943,0.0
8.708,0.613,-0.94,0.0
8.29,0.583,-0.942,0.0
7.917,0.556,-0.945,0.0
10.359,0.722,-0.945,0.0
9.74,0.678,-0.943,0.0
9.191,0.638,-0.943,0.0
8.69,0.602,-0.941,0.0
8.269,0.572,-0.943,0.0
7.896,0.545,-0.946,0.0
10.295,0.707,-0.942,0.0
9.686,0.663,-0.942,0.0
9.144,0.625,-0.941,0.0
8.651,0.59,-0.94,0.0
8.257,0.562,-0.944,0.0
7.889,0.536,-0.947,0.0
10.265,0.693,-0.943,0.0
9.676,0.652,-0.943,0.0
9.111,0.613,-0.94,0.0
8.638,0.579,-0.941,0.0
8.231,0.551,-0.944,0.0
7.86,0.525,-0.946,0.0
10.251,0.68,-0.944,0.0
9.665,0.64,-0.945,0.0
9.098,0.601,-0.941,0.0
8.629,0.569,-0.942,0.0
8.207,0.54,-0.943,0.0
7.851,0.515,-0.947,0.0
10.221,0.666,-0.944,0.0
9.626,0.626,-0.943,0.0
9.104,0.591,-0.944,0.0
8.599,0.557,-0.941,0.0
8.18,0.528,-0.942,0.0
7.822,0.504,-0.945,0.0
10.218,0.654,-0.945,0.0
9.59,0.612,-0.941,0.0
9.078,0.578,-0.942,0.0
8.605,0.547,-0.943,0.0
8.189,0.519,-0.944,0.0
7.83,0.495,-0.947,0.0
10.187,0.64,-0.944,0.0
9.609,0.602,-0.944,0.0
9.078,0.567,-0.943,0.0
8.583,0.535,-0.942,0.0
8.184,0.509,-0.944,0.0
7.807,0.484,-0.945,0.0
10.194,0.628,-0.946,0.0
9.595,0.59,-0.944,0.0
9.065,0.555,-0.943,0.0
8.597,0.525,-0.944,0.0
8.193,0.499,-0.946,0.0
7.802,0.474,-0.945,0.0
10.164,0.614,-0.943,0.0
9.578,0.577,-0.943,0.0
9.075,0.545,-0.944,0.0
8.568,0.513,-0.941,0.0
8.179,0.488,-0.944,0.0
7.798,0.464,-0.944,0.0
10.195,0.603,-0.946,0.0
9.587,0.565,-0.944,0.0
9.072,0.533,-0.944,0.0
8.582,0.503,-0.942,0.0
8.181,0.478,-0.944,0.0
7.807,0.455,-0.945,0.0
10.208,0.591,-0.947,0.0
9.604,0.554,-0.945,0.0
9.062,0.521,-0.942,0.0
8.577,0.492,-0.941,0.0
8.207,0.469,-0.947,0.0
7.823,0.446,-0.947,0.0
10.206,0.578,-0.946,0.0
9.595,0.542,-0.943,0.0
9.074,0.51,-0.943,0.0
8.593,0.482,-0.942,0.0
8.201,0.458,-0.945,0.0
7.836,0.437,-0.947,0.0
10.217,0.565,-0.946,0.0
9.621,0.531,-0.944,0.0
9.062,0.498,-0.94,0.0
8.629,0.473,-0.945,0.0
8.218,0.449,-0.946,0.0
7.844,0.427,-0.947,0.0
10.224,0.553,-0.945,0.0
9.632,0.519,-0.944,0.0
9.121,0.49,-0.945,0.0
8.629,0.462,-0.943,0.0
8.197,0.437,-0.942,0.0
7.854,0.417,-0.947,0.0
10.259,0.542,-0.946,0.0
9.661,0.508,-0.944,0.0
9.128,0.478,-0.943,0.0
8.643,0.451,-0.943,0.0
8.268,0.43,-0.948,0.0
7.868,0.408,-0.946,0.0
10.284,0.53,-0.945,0.0
9.709,0.498,-0.946,0.0
9.096,0.465,-0.938,0.0
8.647,0.44,-0.94,0.0
8.253,0.419,-0.944,0.0
7.906,0.4,-0.948,0.0
10.306,0.517,-0.944,0.0
9.728,0.486,-0.945,0.0
9.189,0.458,-0.944,0.0
8.702,0.432,-0.944,0.0
8.322,0.411,-0.949,0.0
7.883,0.388,-0.943,0.0
10.345,0.506,-0.944,0.0
9.767,0.476,-0.946,0.0
9.246,0.448,-0.947,0.0
8.703,0.42,-0.94,0.0
8.321,0.4,-0.946,0.0
7.937,0.38,-0.946,0.0
10.372,0.494,-0.943,0.0
9.805,0.465,-0.945,0.0
9.224,0.435,-0.941,0.0
8.72,0.41,-0.939,0.0
8.326,0.39,-0.943,0.0
7.949,0.37,-0.944,0.0
10.468,0.485,-0.947,0.0
9.88,0.455,-0.948,0.0
9.288,0.426,-0.943,0.0
8.786,0.401,-0.942,0.0
8.353,0.38,-0.942,0.0
7.967,0.361,-0.943,0.0
10.46,0.47,-0.941,0.0
9.911,0.444,-0.946,0.0
9.361,0.417,-0.946,0.0
8.804,0.39,-0.939,0.0
8.43,0.372,-0.946,0.0
8.033,0.353,-0.946,0.0
10.55,0.461,-0.943,0.0
9.935,0.432,-0.943,0.0
9.407,0.407,-0.945,0.0
8.89,0.383,-0.943,0.0
8.461,0.362,-0.945,0.0
8.068,0.344,-0.946,0.0
10.664,0.451,-0.947,0.0
10.016,0.422,-0.945,0.0
9.469,0.397,-0.946,0.0
8.921,0.372,-0.941,0.0
8.475,0.352,-0.941,0.0
8.108,0.335,-0.945,0.0
10.709,0.439,-0.945,0.0
10.095,0.412,-0.946,0.0
9.534,0.387,-0.946,0.0
9.004,0.364,-0.944,0.0
8.556,0.344,-0.945,0.0
8.134,0.325,-0.943,0.0
10.731,0.426,-0.94,0.0
10.149,0.401,-0.944,0.0
9.581,0.377,-0.944,0.0
9.05,0.354,-0.943,0.0
8.621,0.335,-0.946,0.0
8.184,0.317,-0.943,0.0
10.858,0.417,-0.943,0.0
10.267,0.392,-0.948,0.0
9.65,0.367,-0.944,0.0
9.136,0.345,-0.945,0.0
8.646,0.325,-0.942,0.0
8.264,0.309,-0.946,0.0
11.068,0.411,-0.953,0.0
10.328,0.381,-0.946,0.0
9.745,0.358,-0.946,0.0
9.195,0.336,-0.944,0.0
8.716,0.316,-0.943,0.0
8.336,0.301,-0.948,0.0
11.119,0.398,-0.949,0.0
10.394,0.37,-0.944,0.0
9.838,0.348,-0.947,0.0
9.298,0.327,-0.947,0.0
8.785,0.307,-0.943,0.0
8.371,0.291,-0.945,0.0
11.154,0.385,-0.942,0.0
10.503,0.361,-0.944,0.0
9.883,0.337,-0.943,0.0
9.355,0.317,-0.945,0.0
8.889,0.3,-0.946,0.0
8.436,0.283,-0.944,0.0
11.286,0.376,-0.944,0.0
10.595,0.35,-0.944,0.0
10.005,0.329,-0.946,0.0
9.453,0.309,-0.946,0.0
8.976,0.291,-0.947,0.0
8.515,0.274,-0.945,0.0
11.405,0.365,-0.943,0.0
10.778,0.343,-0.95,0.0
10.124,0.32,-0.947,0.0
9.575,0.3,-0.949,0.0
9.056,0.282,-0.947,0.0
8.586,0.266,-0.945,0.0
11.57,0.356,-0.946,0.0
10.858,0.332,-0.946,0.0
10.216,0.31,-0.946,0.0
9.638,0.29,-0.946,0.0
9.118,0.273,-0.945,0.0
8.672,0.258,-0.946,0.0
11.711,0.346,-0.945,0.0
10.998,0.322,-0.947,0.0
10.359,0.301,-0.948,0.0
9.763,0.282,-0.948,0.0
9.227,0.265,-0.946,0.0
8.733,0.249,-0.943,0.0
11.873,0.336,-0.946,0.0
11.203,0.315,-0.953,0.0
10.471,0.292,-0.948,0.0
9.872,0.273,-0.948,0.0
9.353,0.257,-0.949,0.0
8.826,0.241,-0.944,0.0
12.033,0.326,-0.946,0.0
11.295,0.303,-0.949,0.0
10.603,0.283,-0.948,0.0
9.977,0.264,-0.947,0.0
9.454,0.248,-0.949,0.0
8.968,0.234,-0.949,0.0
12.225,0.317,-0.947,0.0
11.379,0.292,-0.943,0.0
10.709,0.273,-0.945,0.0
10.106,0.255,-0.948,0.0
9.552,0.239,-0.947,0.0
9.056,0.225,-0.947,0.0
12.409,0.306,-0.947,0.0
11.551,0.283,-0.944,0.0
10.976,0.266,-0.956,0.0
10.27,0.247,-0.951,0.0
9.689,0.231,-0.949,0.0
9.173,0.217,-0.948,0.0
12.609,0.297,-0.947,0.0
11.716,0.273,-0.943,0.0
11.066,0.256,-0.95,0.0
10.385,0.238,-0.949,0.0
9.833,0.223,-0.951,0.0
9.28,0.209,-0.948,0.0
12.868,0.288,-0.95,0.0
11.959,0.265,-0.947,0.0
11.193,0.246,-0.947,0.0
10.519,0.229,-0.947,0.0
9.952,0.215,-0.95,0.0
9.406,0.201,-0.949,0.0
13.047,0.277,-0.947,0.0
12.164,0.256,-0.948,0.0
11.342,0.236,-0.945,0.0
10.671,0.22,-0.947,0.0
10.109,0.207,-0.952,0.0
9.541,0.193,-0.95,0.0
13.262,0.267,-0.945,0.0
12.371,0.247,-0.948,0.0
11.509,0.227,-0.943,0.0
10.86,0.212,-0.949,0.0
10.25,0.198,-0.951,0.0
9.666,0.185,-0.949,0.0
13.469,0.256,-0.941,0.0
12.65,0.238,-0.952,0.0
11.768,0.219,-0.948,0.0
11.146,0.206,-0.959,0.0
10.423,0.19,-0.953,0.0
9.833,0.177,-0.952,0.0
13.809,0.248,-0.946,0.0
12.833,0.228,-0.948,0.0
11.964,0.21,-0.947,0.0
11.211,0.195,-0.949,0.0
10.545,0.181,-0.949,0.0
9.964,0.169,-0.95,0.0
14.121,0.238,-0.947,0.0
13.136,0.219,-0.951,0.0
12.221,0.202,-0.95,0.0
11.41,0.186,-0.949,0.0
10.734,0.173,-0.95,0.0
10.183,0.162,-0.956,0.0
14.495,0.23,-0.951,0.0
13.39,0.21,-0.949,0.0
12.478,0.193,-0.951,0.0
11.619,0.178,-0.949,0.0
0.0,0.0,0.0,0.0
10.299,0.154,-0.951,0.0
14.76,0.219,-0.946,0.0
13.49,0.198,-0.936,0.0
12.731,0.184,-0.951,0.0
11.868,0.17,-0.951,0.0
11.18,0.158,-0.956,0.0
10.453,0.146,-0.949,0.0
15.055,0.209,-0.942,0.0
20.135,0.276,-1.367,0.0
13.005,0.175,-0.952,0.0
12.121,0.161,-0.953,0.0
11.286,0.148,-0.947,0.0
10.67,0.138,-0.952,0.0
15.415,0.199,-0.941,0.0
14.31,0.182,-0.949,0.0
13.299,0.167,-0.952,0.0
12.374,0.153,-0.953,0.0
11.53,0.14,-0.949,0.0
10.83,0.13,-0.949,0.0
15.816,0.189,-0.939,0.0
14.67,0.173,-0.949,0.0
13.505,0.157,-0.945,0.0
12.626,0.144,-0.951,0.0
11.776,0.133,-0.95,0.0
11.072,0.123,-0.952,0.0
16.267,0.18,-0.94,0.0
14.994,0.163,-0.945,0.0
20.158,0.216,-1.378,0.0
12.944,0.136,-0.954,0.0
12.065,0.125,-0.953,0.0
11.292,0.115,-0.952,0.0
16.683,0.17,-0.936,0.0
15.383,0.154,-0.944,0.0
18.534,0.182,-1.235,1.0
13.235,0.128,-0.953,0.0
12.362,0.117,-0.955,0.0
11.477,0.107,-0.948,0.0
18.425,0.171,-1.002,8.0
18.554,0.17,-1.107,0.0
14.613,0.131,-0.949,0.0
18.539,0.163,-1.303,0.0
12.635,0.109,-0.954,0.0
11.708,0.099,-0.946,0.0
18.516,0.157,-0.975,5.0
16.3,0.135,-0.944,0.0
14.993,0.122,-0.947,0.0
18.528,0.148,-1.27,1.0
12.943,0.101,-0.955,0.0
12.07,0.093,-0.954,0.0
18.487,0.142,-0.942,6.0
16.703,0.125,-0.938,0.0
15.402,0.113,-0.946,0.0
18.526,0.134,-1.237,0.0
13.297,0.094,-0.957,0.0
12.358,0.085,-0.955,0.0
18.516,0.128,-0.91,47.0
18.404,0.124,-1.001,1.0
15.946,0.105,-0.95,0.0
14.632,0.094,-0.95,0.0
20.246,0.128,-1.422,0.0
12.665,0.078,-0.956,0.0
18.538,0.114,-0.878,12.0
18.385,0.111,-0.966,0.0
16.311,0.096,-0.943,0.0
14.992,0.086,-0.947,0.0
13.912,0.078,-0.951,0.0
13.075,0.071,-0.963,0.0
0.0,0.0,0.0,0.0
18.47,0.098,-0.937,6.0
16.777,0.087,-0.939,0.0
15.453,0.078,-0.947,0.0
14.421,0.071,-0.959,0.0
13.312,0.063,-0.956,0.0
0.0,0.0,0.0,0.0
18.545,0.086,-0.907,2.0
17.199,0.078,-0.931,0.0
15.978,0.07,-0.95,0.0
14.715,0.063,-0.952,0.0
13.628,0.056,-0.952,0.0
21.62,0.089,-0.904,150.0
20.201,0.081,-0.95,2.0
18.095,0.07,-0.945,0.0
16.437,0.062,-0.945,0.0
15.164,0.055,-0.952,0.0
14.133,0.049,-0.961,0.0
21.692,0.076,-0.865,2.0
20.228,0.069,-0.912,13.0
18.546,0.061,-0.933,0.0
16.839,0.053,-0.936,0.0
15.637,0.047,-0.951,0.0
14.52,0.042,-0.959,0.0
20.232,0.059,-0.768,1.0
20.376,0.057,-0.879,22.0
20.083,0.054,-0.971,3.0
20.27,0.053,-1.088,0.0
16.166,0.04,-0.952,0.0
14.868,0.035,-0.953,0.0
20.235,0.048,-0.729,19.0
20.282,0.046,-0.836,107.0
20.202,0.044,-0.937,1.0
20.372,0.042,-1.053,0.0
16.617,0.032,-0.946,0.0
15.316,0.028,-0.951,0.0
20.272,0.038,-0.69,85.0
20.269,0.036,-0.796,150.0
20.22,0.034,-0.898,18.0
0.0,0.0,0.0,0.0
20.302,0.03,-1.115,0.0
15.854,0.022,-0.953,0.0
20.257,0.028,-0.65,150.0
20.27,0.026,-0.755,150.0
20.255,0.024,-0.86,45.0
19.689,0.022,-0.94,3.0
20.337,0.02,-1.076,0.0
16.386,0.015,-0.952,0.0
20.275,0.019,-0.61,86.0
20.259,0.017,-0.714,49.0
20.251,0.016,-0.819,55.0
20.102,0.014,-0.919,5.0
18.491,0.011,-0.942,0.0
16.842,0.008,-0.945,0.0
20.243,0.011,-0.568,8.0
20.236,0.009,-0.673,5.0
20.235,0.007,-0.777,2.0
20.258,0.006,-0.885,21.0
20.256,0.003,-0.528,2.0
20.219,0.002,-0.631,1.0
20.233,0.0,-0.736,0.0
19.966,-0.002,-0.935,8.0
20.213,-0.003,-0.485,0.0
20.264,-0.004,-0.591,0.0
20.243,-0.008,-0.906,32.0
37.361,-0.017,-0.819,0.0
32.228,-0.017,-0.873,9.0
58.337,-0.034,-1.881,2.0
24.389,-0.015,-0.915,0.0
41.642,-0.03,-0.827,2.0
34.568,-0.027,-0.865,1.0
29.38,-0.024,-0.886,0.0
20.249,-0.02,-0.926,53.0
43.214,-0.041,-0.768,6.0
37.515,-0.038,-0.86,2.0
31.939,-0.033,-0.897,2.0
58.347,-0.064,-1.946,2.0
20.172,-0.023,-0.316,13.0
37.649,-0.045,-0.784,2.0
32.437,-0.04,-0.843,1.0
28.612,-0.036,-0.894,0.0
20.183,-0.026,-0.274,25.0
20.173,-0.027,-0.378,1.0
34.636,-0.047,-0.828,1.0
58.431,-0.082,-1.704,1.0
20.151,-0.028,-0.231,11.0
20.163,-0.029,-0.335,13.0
37.632,-0.055,-0.82,7.0
32.3,-0.048,-0.873,4.0
28.09,-0.043,-0.904,1.0
24.573,-0.038,-0.917,0.0
20.164,-0.03,-0.189,27.0
20.171,-0.03,-0.293,25.0
20.181,-0.031,-0.397,1.0
34.597,-0.054,-0.862,2.0
58.424,-0.092,-1.758,1.0
20.151,-0.031,-0.146,33.0
20.157,-0.031,-0.25,19.0
20.165,-0.031,-0.354,10.0
37.58,-0.06,-0.857,3.0
32.281,-0.051,-0.902,4.0
27.509,-0.044,-0.91,0.0
20.152,-0.031,-0.103,35.0
20.139,-0.031,-0.207,16.0
20.179,-0.031,-0.311,22.0
20.132,-0.031,-0.416,0.0
34.609,-0.054,-0.893,1.0
28.735,-0.045,-0.889,0.0
20.145,-0.03,-0.06,33.0
20.145,-0.03,-0.164,29.0
20.165,-0.03,-0.267,24.0
20.17,-0.03,-0.373,4.0
37.651,-0.057,-0.891,1.0
32.268,-0.049,-0.93,0.0
20.137,-0.029,-0.017,37.0
20.148,-0.029,-0.121,30.0
20.149,-0.029,-0.225,8.0
20.156,-0.029,-0.33,15.0
37.645,-0.053,-0.811,6.0
32.382,-0.045,-0.864,2.0
20.141,-0.027,0.025,41.0
20.143,-0.027,-0.078,30.0
20.165,-0.026,-0.182,26.0
20.18,-0.026,-0.288,22.0
20.208,-0.026,-0.392,0.0
34.638,-0.044,-0.851,2.0
20.136,-0.024,0.067,45.0
20.134,-0.024,-0.035,34.0
20.15,-0.023,-0.139,27.0
20.144,-0.023,-0.245,12.0
20.176,-0.022,-0.349,4.0
37.603,-0.041,-0.844,5.0
20.128,-0.021,0.11,39.0
20.14,-0.02,0.007,30.0
20.162,-0.019,-0.096,29.0
20.151,-0.019,-0.202,15.0
20.156,-0.018,-0.305,10.0
41.581,-0.036,-0.844,1.0
20.124,-0.016,0.153,30.0
20.134,-0.015,0.05,33.0
20.125,-0.015,-0.053,19.0
20.174,-0.014,-0.158,25.0
20.155,-0.013,-0.262,13.0
0.0,0.0,0.0,0.0
20.118,-0.011,0.197,32.0
20.125,-0.01,0.093,35.0
20.128,-0.009,-0.01,15.0
20.154,-0.008,-0.115,20.0
20.188,-0.007,-0.219,2.0
20.214,-0.006,-0.324,0.0
20.122,-0.005,0.239,28.0
20.124,-0.004,0.136,28.0
20.142,-0.003,0.032,18.0
20.204,-0.002,-0.073,18.0
20.203,-0.001,-0.177,13.0
20.23,0.0,-0.281,6.0
20.125,0.0,0.282,28.0
20.129,0.002,0.178,29.0
20.138,0.003,0.075,31.0
20.248,0.004,-0.03,41.0
20.241,0.005,-0.135,33.0
20.252,0.007,-0.239,23.0
20.131,0.008,0.325,28.0
20.127,0.009,0.221,27.0
20.13,0.011,0.118,28.0
20.235,0.012,0.012,151.0
20.253,0.013,-0.091,151.0
20.247,0.015,-0.196,151.0
20.138,0.016,0.367,27.0
20.12,0.017,0.263,27.0
20.13,0.019,0.16,26.0
20.188,0.021,0.055,39.0
20.244,0.022,-0.049,152.0
20.254,0.024,-0.153,151.0
20.135,0.025,0.41,29.0
20.135,0.026,0.306,26.0
20.133,0.028,0.202,27.0
20.13,0.03,0.097,29.0
20.256,0.032,-0.006,151.0
20.261,0.033,-0.11,150.0
20.139,0.035,0.452,29.0
20.132,0.036,0.348,26.0
20.138,0.038,0.245,27.0
20.136,0.04,0.139,26.0
20.248,0.042,0.035,10.0
20.269,0.044,-0.068,20.0
20.156,0.045,0.495,26.0
20.147,0.047,0.391,28.0
20.138,0.049,0.287,27.0
20.137,0.051,0.181,27.0
20.154,0.053,0.077,25.0
20.201,0.055,-0.026,18.0
20.175,0.056,0.538,27.0
20.144,0.058,0.433,28.0
20.14,0.06,0.329,27.0
20.135,0.062,0.223,27.0
20.142,0.064,0.119,27.0
20.21,0.067,0.015,32.0
20.187,0.068,0.579,32.0
20.157,0.07,0.475,26.0
20.143,0.072,0.37,27.0
20.147,0.074,0.264,26.0
20.143,0.077,0.16,28.0
20.198,0.079,0.056,36.0
20.219,0.081,0.622,21.0
20.178,0.083,0.516,23.0
20.154,0.085,0.412,28.0
20.158,0.087,0.306,26.0
20.146,0.09,0.201,27.0
20.168,0.092,0.098,25.0
20.26,0.094,0.665,2.0
20.188,0.096,0.558,23.0
20.157,0.099,0.453,28.0
20.149,0.101,0.347,27.0
20.147,0.104,0.243,27.0
20.154,0.106,0.138,26.0
102.524,0.55,3.575,23.0
20.19,0.111,0.599,16.0
20.166,0.113,0.494,20.0
20.154,0.115,0.387,28.0
20.167,0.118,0.283,27.0
20.164,0.121,0.178,25.0
102.453,0.624,3.777,30.0
20.252,0.126,0.641,2.0
20.176,0.128,0.534,19.0
20.164,0.13,0.427,25.0
20.162,0.133,0.323,27.0
20.159,0.136,0.219,23.0
102.175,0.7,3.969,39.0
111.688,0.78,3.76,14.0
20.193,0.143,0.575,14.0
20.147,0.146,0.467,19.0
20.172,0.149,0.363,25.0
20.172,0.152,0.258,24.0
102.014,0.78,4.166,27.0
126.409,0.985,4.505,28.0
20.246,0.16,0.616,5.0
20.164,0.163,0.507,17.0
20.194,0.166,0.403,21.0
20.203,0.169,0.298,23.0
102.038,0.864,4.365,41.0
111.75,0.963,4.199,18.0
103.763,0.909,3.358,33.0
20.239,0.18,0.547,17.0
20.263,0.183,0.443,29.0
20.278,0.187,0.338,31.0
126.462,1.179,5.652,7.0
117.191,1.11,4.627,18.0
103.818,1.0,3.558,36.0
20.262,0.198,0.586,16.0
20.266,0.201,0.481,30.0
20.274,0.204,0.376,33.0
132.58,1.353,6.177,14.0
110.316,1.143,4.564,11.0
103.972,1.094,3.759,26.0
20.284,0.216,0.625,1.0
20.264,0.219,0.519,26.0
20.269,0.223,0.414,34.0
102.027,1.135,4.947,5.0
110.328,1.246,4.773,18.0
124.904,1.432,4.753,23.0
133.312,1.551,4.365,30.0
20.269,0.239,0.558,18.0
20.273,0.242,0.452,24.0
102.097,1.234,5.141,6.0
126.517,1.551,5.71,11.0
103.956,1.292,4.149,15.0
102.966,1.297,3.56,12.0
125.082,1.597,3.672,18.0
20.29,0.262,0.49,25.0
102.061,1.334,5.327,15.0
124.788,1.652,5.859,5.0
103.878,1.394,4.335,6.0
117.803,1.602,4.289,19.0
125.122,1.724,3.901,25.0
20.299,0.283,0.526,0.0
66.114,0.931,3.571,10.0
132.434,1.889,6.46,9.0
69.399,1.002,3.021,4.0
102.997,1.506,3.934,31.0
125.144,1.853,4.125,19.0
157.11,2.355,4.356,15.0
66.183,1.0,3.692,29.0
111.09,1.699,5.615,4.0
69.344,1.074,3.141,1.0
117.691,1.844,4.702,17.0
125.308,1.986,4.349,9.0
0.0,0.0,0.0,0.0
66.227,1.071,3.81,31.0
69.765,1.141,3.646,2.0
103.837,1.719,4.883,12.0
103.201,1.727,4.3,2.0
0.0,0.0,0.0,0.0
148.156,2.538,4.622,5.0
66.236,1.144,3.926,28.0
69.237,1.209,3.739,3.0
103.687,1.832,5.056,46.0
117.405,2.097,5.096,5.0
118.415,2.139,4.519,7.0
0.0,0.0,0.0,0.0
66.242,1.219,4.04,17.0
110.274,2.051,6.144,7.0
69.31,1.303,3.496,7.0
102.926,1.955,4.64,3.0
124.782,2.394,4.968,20.0
0.0,0.0,0.0,0.0
66.208,1.293,4.147,5.0
103.808,2.049,5.954,8.0
103.345,2.061,5.383,8.0
118.312,2.383,5.527,20.0
124.55,2.535,5.164,2.0
132.975,2.733,4.813,2.0
66.283,1.373,4.261,13.0
104.271,2.181,6.152,9.0
103.292,2.181,5.548,10.0
118.274,2.522,5.717,8.0
124.638,2.683,5.367,7.0
148.84,3.236,5.625,2.0
109.585,2.401,7.221,7.0
104.392,2.309,6.326,7.0
68.655,1.533,3.798,3.0
103.791,2.339,5.183,8.0
116.404,2.648,5.197,3.0
102.658,2.357,4.041,6.0
66.038,1.527,4.456,28.0
104.698,2.444,6.509,6.0
103.087,2.428,5.863,6.0
103.823,2.468,5.346,13.0
116.676,2.798,5.39,4.0
102.714,2.486,4.201,5.0
65.996,1.609,4.556,7.0
104.547,2.57,6.661,2.0
69.399,1.721,4.053,4.0
124.48,3.114,6.597,6.0
110.352,2.783,5.263,6.0
120.109,3.055,5.091,2.0
67.961,1.742,4.793,11.0
68.783,1.777,4.484,2.0
103.192,2.689,6.18,3.0
69.088,1.816,3.764,7.0
117.841,3.123,5.795,6.0
0.0,0.0,0.0,0.0
68.147,1.835,4.907,15.0
68.34,1.854,4.557,4.0
67.445,1.845,4.138,4.0
69.134,1.907,3.867,2.0
103.833,2.886,5.255,7.0
103.136,2.89,4.673,1.0
52.56,1.484,3.861,18.0
68.139,1.939,4.642,6.0
110.05,3.156,6.91,3.0
69.213,2.0,3.97,1.0
110.021,3.203,5.725,3.0
110.645,3.248,5.17,2.0
68.358,2.021,5.118,7.0
53.408,1.59,3.713,6.0
69.419,2.083,4.456,7.0
67.436,2.039,3.961,2.0
118.886,3.621,6.35,3.0
117.901,3.618,5.67,6.0
68.132,2.106,5.196,5.0
68.514,2.133,4.857,8.0
68.142,2.137,4.466,7.0
0.0,0.0,0.0,0.0
103.138,3.282,5.648,2.0
103.511,3.317,5.115,11.0
51.949,1.677,4.031,5.0
68.413,2.224,4.942,6.0
68.412,2.24,4.575,7.0
69.149,2.28,4.247,3.0
103.081,3.422,5.779,3.0
103.154,3.449,5.232,3.0
43.677,1.471,3.446,4.0
51.782,1.755,3.807,2.0
0.0,0.0,0.0,0.0
69.339,2.382,4.347,2.0
103.301,3.573,5.923,3.0
110.058,3.832,5.72,4.0
58.42,2.049,4.683,3.0
52.677,1.859,3.939,24.0
68.155,2.421,4.73,21.0
68.509,2.45,4.379,8.0
67.409,2.426,3.947,3.0
196.622,7.124,10.462,11.0
47.092,1.718,3.833,1.0
52.035,1.911,3.954,19.0
69.145,2.555,4.883,17.0
68.706,2.554,4.475,6.0
67.5,2.525,4.033,2.0
202.619,7.629,11.019,8.0
52.858,2.004,4.365,8.0
51.762,1.974,3.994,2.0
69.294,2.658,4.973,17.0
68.969,2.662,4.571,4.0
68.159,2.647,4.15,1.0
118.761,4.639,6.592,3.0
52.912,2.082,4.43,18.0
52.117,2.063,4.081,1.0
68.781,2.739,5.015,9.0
67.704,2.711,4.563,8.0
68.554,2.761,4.251,5.0
68.71,2.783,3.89,2.0
43.543,1.777,3.693,6.0
47.259,1.939,3.752,3.0
51.653,2.132,3.822,3.0
53.555,2.222,3.667,1.0
69.227,2.889,4.367,5.0
203.559,8.543,11.74,8.0
47.012,1.987,4.038,16.0
0.0,0.0,0.0,0.0
47.368,2.024,3.554,3.0
67.073,2.881,4.662,9.0
68.862,2.974,4.414,4.0
0.0,0.0,0.0,0.0
47.066,2.059,4.091,12.0
52.705,2.317,4.294,8.0
47.244,2.088,3.592,2.0
68.002,3.021,4.794,10.0
69.544,3.105,4.526,2.0
67.343,3.023,4.018,1.0
47.081,2.129,4.138,2.0
43.751,1.988,3.607,3.0
52.606,2.402,4.05,3.0
47.394,2.175,3.386,2.0
0.0,0.0,0.0,0.0
67.177,3.114,4.07,1.0
53.223,2.485,4.727,2.0
47.121,2.211,3.928,3.0
65.662,3.096,5.116,1.0
47.562,2.254,3.441,2.0
204.507,9.739,13.687,7.0
67.191,3.215,4.132,1.0
45.992,2.216,4.127,2.0
47.123,2.281,3.97,16.0
240.755,11.71,18.97,16.0
68.479,3.347,5.014,2.0
47.317,2.323,3.207,0.0
67.334,3.322,4.197,1.0
59.806,2.972,5.417,2.0
47.109,2.351,4.009,10.0
52.824,2.648,4.206,2.0
241.228,12.149,17.866,21.0
204.674,10.356,14.043,5.0
0.0,0.0,0.0,0.0
45.968,2.353,4.201,3.0
47.21,2.427,4.055,8.0
52.745,2.723,4.241,2.0
68.217,3.538,5.106,3.0
52.748,2.748,3.659,1.0
205.487,10.751,13.133,5.0
45.969,2.422,4.236,3.0
47.195,2.497,4.09,10.0
47.167,2.506,3.828,8.0
66.827,3.565,5.051,3.0
52.85,2.831,3.705,1.0
0.0,0.0,0.0,0.0
45.601,2.471,4.235,1.0
45.951,2.5,4.015,4.0
47.144,2.576,3.859,5.0
47.308,2.595,3.608,1.0
47.87,2.636,3.389,1.0
0.0,0.0,0.0,0.0
45.93,2.558,4.297,1.0
0.0,0.0,0.0,0.0
47.269,2.653,3.901,1.0
47.319,2.667,3.64,14.0
205.912,11.653,14.711,6.0
206.552,11.737,13.625,22.0
45.871,2.624,4.321,1.0
45.823,2.632,4.063,3.0
0.0,0.0,0.0,0.0
243.1,14.069,18.854,22.0
243.169,14.127,17.52,16.0
0.0,0.0,0.0,0.0
45.607,2.677,4.323,8.0
47.343,2.79,4.226,6.0
46.12,2.728,3.862,3.0
47.313,2.809,3.696,1.0
243.601,14.516,17.69,22.0
0.0,0.0,0.0,0.0
45.575,2.745,4.345,5.0
47.427,2.866,4.259,7.0
45.752,2.775,3.855,2.0
47.234,2.875,3.714,3.0
244.05,14.911,17.848,24.0
207.206,12.706,14.012,5.0
45.678,2.82,4.378,7.0
46.09,2.856,4.162,1.0
45.714,2.842,3.875,3.0
46.855,2.923,3.708,3.0
244.425,15.301,17.991,20.0
207.259,13.021,14.112,5.0
45.496,2.877,4.382,7.0
47.515,3.015,4.312,4.0
46.877,2.994,3.73,4.0
244.764,15.687,18.121,17.0
110.444,7.101,7.566,4.0
45.515,2.946,4.403,9.0
47.548,3.088,4.335,3.0
47.525,3.096,4.069,2.0
47.277,3.089,3.78,2.0
111.495,7.309,8.297,7.0
110.021,7.236,7.579,1.0
45.531,3.014,4.422,8.0
47.585,3.16,4.356,2.0
46.062,3.068,3.96,1.0
45.767,3.058,3.675,1.0
245.638,16.464,18.365,22.0
111.453,7.493,7.715,6.0
45.654,3.09,4.449,10.0
47.405,3.218,4.355,1.0
46.163,3.143,3.983,1.0
45.762,3.125,3.689,2.0
245.998,16.851,18.468,13.0
108.07,7.426,7.512,2.0
45.6,3.154,4.457,4.0
47.405,3.289,4.368,1.0
45.788,3.195,3.704,3.0
246.46,17.251,18.564,22.0
0.0,0.0,0.0,0.0
45.595,3.222,4.468,7.0
45.48,3.222,4.202,2.0
46.04,3.279,3.734,2.0
246.871,17.636,18.65,20.0
0.0,0.0,0.0,0.0
45.67,3.293,4.484,3.0
45.629,3.307,3.969,1.0
247.342,18.026,18.728,14.0
112.92,8.251,7.921,2.0
45.566,3.351,4.481,0.0
45.501,3.363,3.964,1.0
107.841,8.014,8.178,8.0
110.829,8.256,7.787,2.0
107.317,8.105,8.748,6.0
248.131,18.788,18.84,9.0
91.357,6.934,6.425,4.0
45.304,3.476,3.954,1.0
45.687,3.515,3.727,3.0
107.348,8.278,8.155,3.0
107.9,8.341,7.593,3.0
110.027,8.616,8.977,4.0
107.399,8.43,8.159,5.0
110.144,8.667,7.75,17.0
112.063,8.911,9.781,7.0
108.232,8.625,8.826,2.0
121.825,9.729,9.251,7.0
107.585,8.611,7.565,4.0
0.0,0.0,0.0,0.0
115.996,9.361,10.771,5.0
110.161,8.909,9.607,2.0
112.164,9.09,9.138,7.0
107.936,8.766,8.187,7.0
107.645,8.761,7.561,5.0
116.219,9.517,11.436,2.0
116.083,9.525,10.766,3.0
112.443,9.246,9.793,3.0
116.852,9.627,9.507,2.0
107.097,8.841,8.11,9.0
107.598,8.901,7.543,10.0
115.638,9.625,11.363,7.0
115.712,9.649,10.714,6.0
112.632,9.41,9.792,6.0
112.657,9.43,9.148,9.0
117.489,9.854,8.877,7.0
107.595,9.042,7.524,5.0
46.016,3.89,4.513,0.0
115.556,9.786,10.679,2.0
109.569,9.297,9.505,2.0
96.481,8.201,7.815,7.0
115.732,9.855,8.722,4.0
107.579,9.179,7.5,8.0
114.947,9.865,11.249,5.0
0.0,0.0,0.0,0.0
114.964,9.901,9.946,7.0
0.0,0.0,0.0,0.0
115.098,9.947,8.646,10.0
91.883,7.956,6.383,2.0
114.911,10.008,11.215,11.0
114.995,10.031,10.57,12.0
114.917,10.04,9.911,4.0
109.489,9.582,8.812,5.0
114.615,10.048,8.576,5.0
97.323,8.547,6.733,5.0
115.148,10.172,11.204,2.0
109.614,9.697,10.042,2.0
109.642,9.716,9.421,2.0
109.69,9.735,8.793,7.0
96.539,8.582,7.192,12.0
97.248,8.659,6.695,4.0
114.525,10.255,11.105,7.0
99.402,8.915,9.072,4.0
86.074,7.732,7.366,2.0
99.213,8.925,7.917,5.0
96.624,8.706,7.164,6.0
97.435,8.793,6.673,2.0
0.0,0.0,0.0,0.0
114.968,10.448,10.448,2.0
98.012,8.92,8.349,4.0
91.652,8.353,7.277,4.0
97.689,8.916,7.203,14.0
84.951,7.767,5.783,6.0
0.0,0.0,0.0,0.0
86.117,7.926,7.789,5.0
115.802,10.674,9.815,5.0
91.802,8.473,7.25,3.0
96.545,8.924,7.076,4.0
85.876,7.95,5.808,4.0
114.699,10.676,10.976,2.0
110.823,10.327,9.973,4.0
85.953,8.02,7.245,5.0
91.744,8.572,7.201,3.0
80.363,7.519,5.852,3.0
97.848,9.167,6.571,3.0
118.703,11.181,11.301,3.0
92.11,8.685,8.243,7.0
91.848,8.671,7.697,4.0
85.821,8.112,6.694,10.0
90.467,8.562,6.542,1.0
87.341,8.278,5.82,3.0
114.393,10.898,10.83,6.0
91.992,8.774,8.183,4.0
85.165,8.132,7.09,8.0
86.011,8.223,6.662,6.0
92.868,8.89,6.664,8.0
86.962,8.335,5.746,1.0
99.377,9.574,9.352,4.0
98.999,9.547,8.751,5.0
91.321,8.816,7.55,3.0
84.178,8.135,6.471,6.0
84.438,8.169,6.01,9.0
84.887,8.223,5.559,14.0
118.029,11.491,11.037,2.0
99.421,9.69,8.727,11.0
85.473,8.338,7.014,1.0
92.257,9.009,7.035,5.0
83.859,8.198,5.917,2.0
90.271,8.835,5.856,2.0
118.03,11.609,10.961,6.0
91.666,9.024,7.987,9.0
92.22,9.087,7.509,7.0
72.894,7.19,5.511,6.0
73.073,7.215,5.108,1.0
90.38,8.933,5.804,6.0
85.595,8.501,7.891,1.0
84.698,8.419,7.324,5.0
68.804,6.845,5.555,3.0
73.058,7.275,5.474,3.0
78.261,7.8,5.417,2.0
80.449,8.027,5.11,2.0
85.444,8.566,7.817,3.0
99.142,9.946,8.502,3.0
91.764,9.214,7.344,13.0
85.576,8.6,6.35,5.0
78.011,7.847,5.343,2.0
78.541,7.908,4.932,3.0
98.766,9.989,8.964,5.0
78.733,7.969,6.694,2.0
85.293,8.64,6.763,5.0
72.667,7.366,5.339,3.0
80.351,8.153,5.443,1.0
78.607,7.983,4.877,3.0
92.849,9.471,8.356,7.0
78.742,8.037,6.634,4.0
78.903,8.059,6.195,2.0
72.747,7.435,5.289,3.0
77.944,7.973,5.221,1.0
91.667,9.385,5.617,1.0
91.769,9.435,8.187,4.0
78.76,8.103,6.573,7.0
85.36,8.789,6.633,4.0
68.554,7.063,4.928,2.0
84.766,8.739,5.609,4.0
99.056,10.222,5.988,8.0
74.812,7.751,6.611,4.0
74.982,7.774,6.195,6.0
79.284,8.225,6.095,3.0
72.877,7.565,5.177,6.0
73.134,7.596,4.778,2.0
89.876,9.343,5.357,3.0
74.37,7.762,6.507,1.0
78.703,8.218,6.435,2.0
68.684,7.176,5.221,3.0
72.794,7.61,5.109,5.0
77.891,8.148,5.02,6.0
89.792,9.399,5.275,6.0
74.321,7.81,6.438,2.0
74.614,7.844,6.034,2.0
84.849,8.925,6.375,5.0
72.84,7.666,5.047,6.0
78.25,8.24,4.973,6.0
88.711,9.347,5.131,9.0
74.348,7.864,6.372,2.0
79.024,8.362,6.318,2.0
74.74,7.912,5.546,4.0
72.944,7.725,4.987,4.0
69.151,7.328,4.331,7.0
88.531,9.387,5.037,5.0
74.345,7.911,6.301,1.0
72.908,7.761,5.76,10.0
74.816,7.967,5.481,6.0
72.95,7.772,4.917,2.0
76.771,8.183,4.734,1.0
81.051,8.644,4.534,5.0
74.324,7.954,6.227,1.0
73.982,7.92,5.773,1.0
77.402,8.289,5.594,3.0
84.211,9.021,5.594,5.0
88.766,9.513,5.388,4.0
81.045,8.69,4.455,5.0
72.312,7.779,5.987,3.0
73.855,7.947,5.69,2.0
73.842,7.948,5.264,2.0
87.237,9.393,5.709,3.0
88.699,9.554,5.296,2.0
79.823,8.601,4.309,2.0
68.856,7.443,5.631,7.0
78.924,8.533,6.0,4.0
77.499,8.381,5.446,2.0
78.622,8.505,5.065,3.0
84.572,9.151,4.963,2.0
84.606,9.158,4.481,2.0
68.831,7.474,5.557,7.0
78.947,8.573,5.92,3.0
68.492,7.439,4.742,5.0
73.212,7.954,4.64,5.0
89.673,9.745,5.168,4.0
84.571,9.193,4.39,4.0
68.775,7.498,5.481,9.0
74.659,8.14,5.519,4.0
72.943,7.953,4.973,4.0
77.664,8.47,4.84,2.0
80.822,8.817,4.572,1.0
84.374,9.207,4.289,4.0
68.779,7.525,5.406,8.0
76.686,8.391,5.587,3.0
73.271,8.018,4.915,6.0
76.9,8.416,4.708,5.0
80.843,8.849,4.486,6.0
96.562,10.573,4.804,28.0
68.773,7.549,5.33,5.0
77.146,8.468,5.534,5.0
74.039,8.127,4.885,9.0
76.806,8.432,4.618,2.0
91.934,10.094,4.999,11.0
90.329,9.92,4.393,4.0
68.76,7.57,5.251,5.0
77.462,8.527,5.469,7.0
85.783,9.443,5.563,4.0
84.456,9.297,4.983,3.0
91.898,10.117,4.894,11.0
91.758,10.103,4.36,7.0
68.679,7.579,5.167,2.0
77.674,8.571,5.396,7.0
85.733,9.46,5.462,5.0
89.814,9.91,5.196,4.0
91.88,10.138,4.788,16.0
91.725,10.122,4.253,12.0
74.27,8.213,5.501,2.0
68.356,7.558,4.67,5.0
78.432,8.671,4.905,3.0
89.9,9.939,5.096,3.0
87.693,9.694,4.468,4.0
85.855,9.491,3.881,19.0
76.471,8.471,5.575,2.0
67.932,7.523,4.56,4.0
74.886,8.292,4.596,1.0
80.68,8.933,4.479,8.0
91.916,10.176,4.574,36.0
85.862,9.505,3.781,11.0
76.552,8.49,5.49,2.0
74.051,8.211,4.882,3.0
74.699,8.281,4.495,3.0
76.904,8.524,4.178,3.0
0.0,0.0,0.0,0.0
107.416,11.904,4.601,3.0
77.12,8.56,5.438,2.0
78.921,8.758,5.109,3.0
74.512,8.267,4.395,3.0
102.359,11.353,5.437,5.0
0.0,0.0,0.0,0.0
96.873,10.742,4.033,13.0
68.579,7.616,4.751,3.0
85.757,9.52,5.448,9.0
89.794,9.965,5.187,1.0
83.593,9.275,4.338,3.0
91.762,10.179,4.235,15.0
96.995,10.758,3.92,19.0
68.473,7.604,4.66,5.0
87.123,9.672,5.427,3.0
81.02,8.991,4.58,3.0
77.002,8.543,3.901,3.0
85.826,9.519,3.855,14.0
96.938,10.75,3.798,29.0
74.015,8.217,4.945,7.0
74.882,8.309,4.571,3.0
80.872,8.971,4.471,3.0
91.902,10.19,4.544,40.0
85.834,9.515,3.75,6.0
96.831,10.731,3.675,28.0
74.276,8.24,4.87,2.0
74.71,8.283,4.469,3.0
76.691,8.5,4.145,3.0
0.0,0.0,0.0,0.0
107.588,11.915,4.566,3.0
96.847,10.722,3.555,34.0
85.75,9.502,5.514,10.0
72.836,8.066,4.264,1.0
91.848,10.166,4.848,4.0
91.639,10.139,4.301,17.0
96.762,10.701,3.986,33.0
96.88,10.71,3.435,25.0
78.401,8.673,4.943,4.0
89.783,9.927,5.143,4.0
87.706,9.692,4.52,4.0
85.828,9.48,3.921,15.0
96.824,10.689,3.867,49.0
109.554,12.089,3.747,13.0
77.442,8.55,4.785,1.0
80.864,8.922,4.53,6.0
91.908,10.135,4.62,10.0
96.675,10.654,4.294,8.0
96.834,10.667,3.745,23.0
97.75,10.763,3.219,12.0
74.826,8.241,4.528,2.0
91.93,10.119,5.033,6.0
96.603,10.626,4.732,5.0
96.679,10.628,4.171,34.0
96.879,10.644,3.623,15.0
97.822,10.742,3.097,39.0
84.514,9.282,5.006,3.0
91.913,10.088,4.914,16.0
90.346,9.909,4.31,3.0
96.722,10.601,4.05,26.0
108.149,11.846,3.906,12.0
98.069,10.736,2.979,20.0
76.352,8.358,4.424,3.0
84.404,9.232,4.405,4.0
86.002,9.401,3.993,14.0
109.565,11.968,4.446,4.0
108.242,11.815,3.772,25.0
108.795,11.868,3.167,10.0
80.858,8.819,4.581,4.0
87.469,9.532,4.452,3.0
85.797,9.342,3.874,11.0
96.862,10.54,3.807,6.0
98.078,10.664,3.291,32.0
104.224,11.325,2.899,24.0
80.931,8.79,4.481,4.0
90.436,9.815,4.486,4.0
102.552,11.12,4.499,4.0
97.072,10.517,3.69,17.0
97.73,10.581,3.155,32.0
103.819,11.232,2.756,16.0
79.782,8.626,4.314,2.0
136.925,14.791,6.618,5.0
114.103,12.315,4.858,9.0
98.257,10.595,3.609,50.0
108.63,11.704,3.367,18.0
108.858,11.719,2.75,10.0
84.783,9.121,4.476,3.0
85.789,9.219,4.035,10.0
114.22,12.264,4.715,10.0
98.232,10.537,3.481,27.0
108.705,11.65,3.229,20.0
109.233,11.698,2.618,17.0
84.962,9.09,4.376,5.0
85.782,9.168,3.925,10.0
98.465,10.514,3.939,27.0
121.681,12.98,4.157,24.0
103.612,11.042,2.945,20.0
109.22,11.629,2.479,47.0
85.171,9.059,4.276,6.0
87.305,9.276,3.882,6.0
103.209,10.954,3.998,11.0
97.449,10.332,3.205,21.0
116.385,12.328,3.161,11.0
109.25,11.561,2.341,59.0
91.716,9.693,4.489,5.0
98.682,10.418,4.263,31.0
98.1,10.344,3.674,13.0
108.355,11.413,3.426,12.0
116.357,12.243,3.012,21.0
109.297,11.489,2.203,45.0
85.766,9.002,4.088,14.0
103.178,10.816,4.325,20.0
107.867,11.294,3.902,7.0
121.586,12.716,3.689,18.0
109.35,11.425,2.691,30.0
115.579,12.062,2.183,36.0
103.259,10.759,4.791,7.0
107.445,11.182,4.369,9.0
97.54,10.138,3.405,19.0
121.629,12.626,3.538,9.0
109.239,11.328,2.552,37.0
115.685,11.982,2.04,23.0
87.514,9.048,3.95,4.0
104.048,10.744,4.099,8.0
121.053,12.483,4.075,23.0
109.834,11.311,3.057,51.0
