X,Y,Z,Reflectivity
18.65,0.332,-0.918,0.0
16.905,0.302,-0.931,0.0
31.142,0.557,-0.866,1.0
26.194,0.471,-0.881,1.0
22.745,0.411,-0.898,0.0
20.074,0.364,-0.911,0.0
18.099,0.33,-0.927,0.0
16.411,0.3,-0.937,0.0
28.8,0.527,-0.859,0.0
24.837,0.456,-0.885,0.0
21.844,0.403,-0.906,0.0
19.331,0.358,-0.916,0.0
17.35,0.323,-0.923,0.0
15.868,0.297,-0.937,0.0
26.936,0.503,-0.857,0.0
23.595,0.442,-0.888,0.0
20.883,0.393,-0.908,0.0
18.563,0.351,-0.917,0.0
16.805,0.319,-0.928,0.0
15.356,0.292,-0.938,0.0
25.918,0.492,-0.876,1.0
22.58,0.431,-0.895,0.0
20.049,0.384,-0.911,0.0
18.015,0.346,-0.926,0.0
16.333,0.315,-0.935,0.0
14.91,0.288,-0.94,0.0
24.701,0.476,-0.884,0.0
21.841,0.423,-0.909,0.0
19.35,0.376,-0.918,0.0
17.252,0.336,-0.921,0.0
15.814,0.309,-0.936,0.0
14.561,0.286,-0.947,0.0
23.396,0.457,-0.883,0.0
20.812,0.408,-0.907,0.0
18.566,0.365,-0.918,0.0
16.713,0.33,-0.926,0.0
15.317,0.303,-0.938,0.0
14.072,0.279,-0.944,0.0
22.567,0.446,-0.897,0.0
19.947,0.395,-0.909,0.0
17.986,0.357,-0.925,0.0
16.258,0.324,-0.932,0.0
14.858,0.297,-0.939,0.0
13.756,0.275,-0.95,0.0
21.527,0.429,-0.898,0.0
19.124,0.382,-0.909,0.0
17.318,0.347,-0.925,0.0
15.763,0.316,-0.935,0.0
14.517,0.292,-0.946,0.0
13.307,0.268,-0.945,0.0
20.698,0.415,-0.904,0.0
18.525,0.373,-0.917,0.0
16.738,0.337,-0.926,0.0
15.282,0.309,-0.936,0.0
13.998,0.283,-0.94,0.0
13.016,0.264,-0.95,0.0
19.921,0.402,-0.909,0.0
17.862,0.361,-0.919,0.0
16.267,0.329,-0.932,0.0
14.842,0.301,-0.939,0.0
13.578,0.276,-0.938,0.0
12.613,0.257,-0.945,0.0
19.216,0.389,-0.914,0.0
17.277,0.35,-0.923,0.0
15.736,0.319,-0.932,0.0
14.499,0.295,-0.945,0.0
13.271,0.27,-0.943,0.0
12.279,0.25,-0.944,0.0
18.543,0.376,-0.918,0.0
16.706,0.339,-0.925,0.0
15.265,0.31,-0.934,0.0
13.995,0.284,-0.94,0.0
12.925,0.263,-0.943,0.0
11.985,0.244,-0.945,0.0
17.894,0.362,-0.92,0.0
16.291,0.33,-0.933,0.0
14.843,0.301,-0.936,0.0
13.531,0.275,-0.934,0.0
12.605,0.256,-0.944,0.0
11.684,0.238,-0.943,0.0
17.199,0.347,-0.917,0.0
15.757,0.318,-0.932,0.0
14.521,0.293,-0.944,0.0
13.294,0.269,-0.943,0.0
12.31,0.249,-0.945,0.0
11.414,0.231,-0.943,0.0
16.749,0.336,-0.925,0.0
15.287,0.307,-0.933,0.0
14.085,0.283,-0.942,0.0
12.976,0.261,-0.945,0.0
11.967,0.241,-0.942,0.0
11.239,0.226,-0.95,0.0
16.318,0.326,-0.932,0.0
14.875,0.297,-0.936,0.0
13.639,0.272,-0.938,0.0
12.65,0.253,-0.945,0.0
11.722,0.234,-0.944,0.0
10.916,0.218,-0.943,0.0
15.794,0.313,-0.931,0.0
14.559,0.288,-0.943,0.0
13.372,0.265,-0.944,0.0
12.393,0.245,-0.949,0.0
11.423,0.226,-0.941,0.0
10.713,0.212,-0.945,0.0
15.331,0.3,-0.932,0.0
14.273,0.279,-0.951,0.0
13.067,0.256,-0.946,0.0
11.991,0.235,-0.94,0.0
11.22,0.219,-0.945,0.0
10.508,0.205,-0.947,0.0
14.908,0.288,-0.933,0.0
13.692,0.265,-0.937,0.0
12.676,0.245,-0.941,0.0
11.758,0.227,-0.943,0.0
11.083,0.214,-0.954,0.0
10.323,0.199,-0.949,0.0
14.585,0.278,-0.939,0.0
13.373,0.255,-0.939,0.0
12.408,0.236,-0.943,0.0
11.435,0.217,-0.937,0.0
10.73,0.204,-0.942,0.0
10.082,0.191,-0.945,0.0
14.339,0.269,-0.948,0.0
13.134,0.246,-0.945,0.0
12.132,0.227,-0.944,0.0
11.295,0.211,-0.946,0.0
10.55,0.197,-0.945,0.0
9.894,0.184,-0.945,0.0
13.838,0.255,-0.94,0.0
12.771,0.235,-0.942,0.0
11.834,0.217,-0.942,0.0
11.075,0.203,-0.947,0.0
10.335,0.189,-0.944,0.0
9.748,0.178,-0.948,0.0
13.423,0.242,-0.935,0.0
12.516,0.225,-0.944,0.0
11.553,0.207,-0.939,0.0
10.751,0.193,-0.938,0.0
10.159,0.182,-0.946,0.0
9.545,0.17,-0.944,0.0
13.252,0.233,-0.945,0.0
12.226,0.215,-0.943,0.0
11.312,0.198,-0.939,0.0
10.615,0.186,-0.944,0.0
9.96,0.174,-0.944,0.0
9.382,0.163,-0.944,0.0
12.944,0.222,-0.945,0.0
11.95,0.205,-0.942,0.0
11.167,0.191,-0.945,0.0
10.394,0.177,-0.942,0.0
9.823,0.167,-0.947,0.0
9.236,0.157,-0.945,0.0
12.647,0.211,-0.944,0.0
11.687,0.194,-0.94,0.0
10.96,0.182,-0.946,0.0
10.248,0.169,-0.945,0.0
9.627,0.159,-0.944,0.0
9.063,0.149,-0.942,0.0
12.331,0.199,-0.941,0.0
11.448,0.184,-0.94,0.0
10.66,0.171,-0.937,0.0
10.035,0.161,-0.942,0.0
9.462,0.151,-0.944,0.0
8.914,0.142,-0.941,0.0
12.107,0.189,-0.943,0.0
11.266,0.175,-0.943,0.0
10.536,0.163,-0.943,0.0
9.878,0.152,-0.943,0.0
9.346,0.144,-0.947,0.0
8.764,0.134,-0.939,0.0
11.847,0.178,-0.941,0.0
11.154,0.167,-0.951,0.0
10.38,0.155,-0.945,0.0
9.702,0.144,-0.941,0.0
9.169,0.136,-0.943,0.0
8.675,0.128,-0.943,0.0
11.638,0.168,-0.943,0.0
10.877,0.156,-0.944,0.0
10.181,0.146,-0.943,0.0
9.589,0.136,-0.945,0.0
9.014,0.128,-0.941,0.0
8.531,0.12,-0.941,0.0
11.418,0.158,-0.942,0.0
10.687,0.147,-0.944,0.0
10.011,0.137,-0.942,0.0
9.429,0.128,-0.943,0.0
8.899,0.12,-0.942,0.0
8.437,0.113,-0.943,0.0
11.264,0.148,-0.946,0.0
10.484,0.137,-0.941,0.0
9.847,0.128,-0.941,0.0
9.266,0.119,-0.941,0.0
8.738,0.112,-0.938,0.0
8.263,0.105,-0.936,0.0
11.023,0.137,-0.941,0.0
10.332,0.128,-0.942,0.0
9.716,0.119,-0.943,0.0
9.151,0.111,-0.942,0.0
8.641,0.104,-0.94,0.0
8.23,0.099,-0.943,0.0
10.801,0.127,-0.938,0.0
10.209,0.119,-0.945,0.0
9.564,0.11,-0.941,0.0
9.0,0.103,-0.939,0.0
8.563,0.097,-0.944,0.0
8.142,0.092,-0.945,0.0
10.654,0.117,-0.939,0.0
10.017,0.109,-0.941,0.0
9.423,0.101,-0.94,0.0
8.896,0.095,-0.94,0.0
8.45,0.089,-0.943,0.0
8.026,0.084,-0.942,0.0
10.514,0.107,-0.941,0.0
9.879,0.1,-0.942,0.0
9.299,0.093,-0.94,0.0
8.752,0.086,-0.937,0.0
8.341,0.082,-0.942,0.0
7.915,0.077,-0.94,0.0
10.412,0.098,-0.946,0.0
9.761,0.091,-0.943,0.0
9.179,0.084,-0.94,0.0
8.661,0.079,-0.938,0.0
8.25,0.074,-0.942,0.0
7.852,0.069,-0.942,0.0
10.221,0.088,-0.941,0.0
9.647,0.082,-0.944,0.0
9.055,0.075,-0.939,0.0
8.585,0.071,-0.941,0.0
8.175,0.066,-0.944,0.0
7.784,0.062,-0.944,0.0
10.117,0.078,-0.944,0.0
9.53,0.072,-0.945,0.0
8.952,0.067,-0.939,0.0
8.43,0.062,-0.934,0.0
8.066,0.058,-0.941,0.0
7.679,0.055,-0.941,0.0
9.955,0.068,-0.941,0.0
9.366,0.063,-0.939,0.0
8.849,0.058,-0.939,0.0
8.369,0.054,-0.937,0.0
7.996,0.051,-0.942,0.0
7.615,0.047,-0.942,0.0
9.868,0.059,-0.944,0.0
9.266,0.054,-0.94,0.0
8.743,0.05,-0.938,0.0
8.281,0.046,-0.937,0.0
7.918,0.043,-0.942,0.0
7.54,0.04,-0.941,0.0
9.722,0.049,-0.941,0.0
9.157,0.045,-0.939,0.0
8.647,0.041,-0.937,0.0
8.233,0.038,-0.941,0.0
7.87,0.035,-0.945,0.0
7.487,0.033,-0.943,0.0
9.611,0.039,-0.941,0.0
9.061,0.036,-0.939,0.0
8.583,0.033,-0.939,0.0
8.124,0.03,-0.937,0.0
7.817,0.028,-0.947,0.0
7.423,0.025,-0.942,0.0
9.535,0.03,-0.943,0.0
8.947,0.027,-0.937,0.0
8.517,0.024,-0.941,0.0
8.041,0.022,-0.936,0.0
7.737,0.02,-0.945,0.0
7.395,0.018,-0.947,0.0
9.409,0.02,-0.94,0.0
8.86,0.018,-0.936,0.0
8.399,0.016,-0.936,0.0
7.969,0.014,-0.935,0.0
7.653,0.012,-0.943,0.0
7.304,0.01,-0.942,0.0
9.314,0.011,-0.94,0.0
8.806,0.009,-0.939,0.0
8.33,0.007,-0.936,0.0
7.929,0.006,-0.938,0.0
7.603,0.004,-0.944,0.0
7.272,0.003,-0.945,0.0
9.235,0.001,-0.94,0.0
8.729,0.0,-0.939,0.0
8.325,-0.001,-0.943,0.0
7.872,-0.002,-0.938,0.0
7.568,-0.003,-0.946,0.0
7.245,-0.004,-0.948,0.0
9.13,-0.007,-0.937,0.0
8.64,-0.008,-0.937,0.0
8.213,-0.009,-0.938,0.0
7.845,-0.01,-0.942,0.0
7.535,-0.011,-0.948,0.0
7.199,-0.011,-0.948,0.0
9.081,-0.017,-0.94,0.0
8.616,-0.017,-0.941,0.0
8.202,-0.018,-0.943,0.0
7.746,-0.018,-0.937,0.0
7.423,-0.018,-0.94,0.0
7.13,-0.019,-0.945,0.0
8.969,-0.026,-0.936,0.0
8.523,-0.026,-0.938,0.0
8.147,-0.026,-0.943,0.0
7.721,-0.026,-0.94,0.0
7.422,-0.026,-0.946,0.0
7.103,-0.026,-0.947,0.0
8.898,-0.036,-0.935,0.0
8.473,-0.035,-0.939,0.0
8.058,-0.035,-0.939,0.0
7.71,-0.035,-0.944,0.0
7.334,-0.034,-0.94,0.0
7.112,-0.034,-0.953,0.0
8.868,-0.045,-0.938,0.0
8.376,-0.044,-0.934,0.0
8.026,-0.044,-0.941,0.0
7.65,-0.043,-0.942,0.0
7.323,-0.042,-0.944,0.0
7.053,-0.042,-0.95,0.0
8.788,-0.055,-0.935,0.0
8.317,-0.053,-0.933,0.0
7.963,-0.052,-0.939,0.0
7.565,-0.051,-0.936,0.0
7.307,-0.05,-0.946,0.0
7.004,-0.049,-0.948,0.0
8.744,-0.064,-0.936,0.0
8.298,-0.062,-0.936,0.0
7.902,-0.061,-0.936,0.0
7.574,-0.059,-0.942,0.0
7.312,-0.059,-0.951,0.0
7.011,-0.057,-0.953,0.0
8.706,-0.073,-0.937,0.0
8.273,-0.071,-0.938,0.0
7.864,-0.069,-0.936,0.0
7.557,-0.068,-0.944,0.0
7.273,-0.066,-0.95,0.0
6.978,-0.065,-0.952,0.0
8.681,-0.083,-0.939,0.0
8.208,-0.08,-0.934,0.0
7.818,-0.077,-0.935,0.0
7.471,-0.075,-0.937,0.0
7.191,-0.074,-0.943,0.0
6.947,-0.073,-0.951,0.0
8.611,-0.092,-0.935,0.0
8.198,-0.089,-0.937,0.0
7.808,-0.086,-0.937,0.0
7.47,-0.084,-0.94,0.0
7.192,-0.082,-0.947,0.0
6.908,-0.08,-0.949,0.0
8.579,-0.101,-0.936,0.0
8.207,-0.098,-0.942,0.0
7.791,-0.095,-0.939,0.0
7.465,-0.092,-0.943,0.0
7.165,-0.09,-0.946,0.0
6.914,-0.088,-0.953,0.0
8.534,-0.11,-0.934,0.0
8.168,-0.107,-0.94,0.0
7.786,-0.104,-0.941,0.0
7.425,-0.1,-0.94,0.0
7.167,-0.098,-0.949,0.0
6.871,-0.095,-0.949,0.0
8.549,-0.12,-0.939,0.0
8.111,-0.116,-0.937,0.0
7.75,-0.112,-0.939,0.0
7.423,-0.109,-0.943,0.0
7.174,-0.107,-0.952,0.0
6.86,-0.103,-0.95,0.0
8.495,-0.129,-0.935,0.0
8.119,-0.125,-0.94,0.0
7.711,-0.121,-0.937,0.0
7.408,-0.117,-0.943,0.0
7.125,-0.114,-0.947,0.0
6.865,-0.111,-0.952,0.0
8.472,-0.139,-0.935,0.0
8.082,-0.134,-0.938,0.0
7.729,-0.13,-0.941,0.0
7.396,-0.126,-0.943,0.0
7.095,-0.122,-0.945,0.0
6.847,-0.119,-0.951,0.0
8.471,-0.149,-0.937,0.0
8.044,-0.143,-0.935,0.0
7.682,-0.138,-0.936,0.0
7.373,-0.134,-0.941,0.0
7.093,-0.13,-0.946,0.0
6.833,-0.127,-0.951,0.0
8.452,-0.158,-0.936,0.0
8.093,-0.153,-0.942,0.0
7.724,-0.148,-0.943,0.0
7.35,-0.142,-0.94,0.0
7.078,-0.138,-0.945,0.0
6.818,-0.134,-0.949,0.0
8.431,-0.167,-0.934,0.0
8.015,-0.161,-0.934,0.0
7.697,-0.156,-0.94,0.0
7.363,-0.151,-0.942,0.0
7.084,-0.146,-0.946,0.0
6.82,-0.142,-0.95,0.0
8.432,-0.177,-0.935,0.0
8.042,-0.171,-0.937,0.0
7.693,-0.165,-0.94,0.0
7.362,-0.159,-0.942,0.0
7.101,-0.155,-0.949,0.0
6.806,-0.15,-0.948,0.0
8.436,-0.187,-0.936,0.0
8.033,-0.18,-0.936,0.0
7.681,-0.173,-0.939,0.0
7.337,-0.167,-0.939,0.0
7.104,-0.163,-0.949,0.0
6.842,-0.159,-0.953,0.0
8.442,-0.197,-0.936,0.0
8.062,-0.189,-0.939,0.0
7.698,-0.183,-0.94,0.0
7.353,-0.176,-0.941,0.0
7.054,-0.17,-0.942,0.0
6.843,-0.167,-0.953,0.0
8.442,-0.206,-0.936,0.0
8.051,-0.198,-0.938,0.0
7.704,-0.191,-0.94,0.0
7.386,-0.185,-0.944,0.0
7.141,-0.18,-0.953,0.0
6.812,-0.174,-0.948,0.0
8.454,-0.216,-0.936,0.0
8.078,-0.208,-0.94,0.0
7.712,-0.2,-0.94,0.0
7.411,-0.194,-0.946,0.0
7.096,-0.187,-0.946,0.0
6.829,-0.182,-0.949,0.0
8.477,-0.226,-0.937,0.0
8.064,-0.217,-0.937,0.0
7.718,-0.209,-0.94,0.0
7.387,-0.202,-0.942,0.0
7.109,-0.196,-0.946,0.0
6.837,-0.189,-0.949,0.0
8.494,-0.236,-0.937,0.0
8.088,-0.226,-0.938,0.0
7.714,-0.218,-0.938,0.0
7.384,-0.21,-0.94,0.0
7.105,-0.203,-0.944,0.0
6.827,-0.197,-0.946,0.0
8.517,-0.246,-0.938,0.0
8.132,-0.237,-0.941,0.0
7.742,-0.227,-0.939,0.0
7.388,-0.218,-0.938,0.0
7.135,-0.212,-0.946,0.0
6.853,-0.205,-0.947,0.0
8.556,-0.257,-0.939,0.0
8.133,-0.246,-0.938,0.0
7.757,-0.236,-0.938,0.0
7.435,-0.228,-0.942,0.0
7.163,-0.221,-0.947,0.0
6.907,-0.214,-0.952,0.0
8.56,-0.266,-0.937,0.0
8.142,-0.255,-0.936,0.0
7.803,-0.246,-0.941,0.0
7.451,-0.236,-0.941,0.0
7.188,-0.229,-0.948,0.0
6.916,-0.222,-0.951,0.0
8.614,-0.277,-0.94,0.0
8.188,-0.265,-0.939,0.0
7.807,-0.254,-0.938,0.0
7.5,-0.246,-0.944,0.0
7.198,-0.237,-0.946,0.0
6.935,-0.23,-0.951,0.0
8.633,-0.287,-0.938,0.0
8.224,-0.275,-0.939,0.0
7.843,-0.264,-0.939,0.0
7.516,-0.254,-0.943,0.0
7.23,-0.246,-0.947,0.0
6.953,-0.238,-0.95,0.0
8.713,-0.298,-0.943,0.0
8.252,-0.284,-0.938,0.0
7.874,-0.273,-0.939,0.0
7.545,-0.263,-0.943,0.0
7.229,-0.253,-0.943,0.0
6.983,-0.246,-0.95,0.0
8.752,-0.309,-0.942,0.0
8.301,-0.294,-0.94,0.0
7.914,-0.282,-0.94,0.0
7.589,-0.272,-0.944,0.0
7.275,-0.262,-0.945,0.0
7.006,-0.254,-0.949,0.0
8.787,-0.319,-0.941,0.0
8.329,-0.304,-0.938,0.0
7.957,-0.292,-0.94,0.0
7.615,-0.281,-0.943,0.0
7.293,-0.27,-0.943,0.0
7.052,-0.263,-0.951,0.0
8.831,-0.329,-0.94,0.0
8.368,-0.313,-0.937,0.0
7.994,-0.301,-0.939,0.0
7.647,-0.29,-0.942,0.0
7.373,-0.281,-0.949,0.0
7.097,-0.272,-0.953,0.0
8.903,-0.34,-0.942,0.0
8.432,-0.324,-0.939,0.0
8.035,-0.31,-0.939,0.0
7.693,-0.299,-0.942,0.0
7.393,-0.289,-0.947,0.0
7.115,-0.279,-0.95,0.0
8.962,-0.351,-0.942,0.0
8.516,-0.335,-0.942,0.0
8.068,-0.319,-0.937,0.0
7.693,-0.306,-0.937,0.0
7.417,-0.296,-0.944,0.0
7.142,-0.287,-0.949,0.0
9.04,-0.363,-0.944,0.0
8.558,-0.345,-0.941,0.0
8.117,-0.329,-0.937,0.0
7.768,-0.316,-0.94,0.0
7.461,-0.305,-0.944,0.0
7.178,-0.295,-0.948,0.0
9.133,-0.375,-0.947,0.0
8.63,-0.356,-0.942,0.0
8.181,-0.339,-0.938,0.0
7.807,-0.325,-0.939,0.0
7.505,-0.314,-0.943,0.0
7.243,-0.304,-0.951,0.0
9.207,-0.386,-0.947,0.0
8.698,-0.366,-0.942,0.0
8.251,-0.349,-0.939,0.0
7.886,-0.335,-0.941,0.0
7.583,-0.323,-0.947,0.0
7.284,-0.312,-0.95,0.0
9.294,-0.397,-0.948,0.0
8.781,-0.377,-0.944,0.0
8.332,-0.359,-0.941,0.0
7.953,-0.344,-0.943,0.0
7.617,-0.331,-0.944,0.0
7.305,-0.319,-0.946,0.0
9.394,-0.41,-0.95,0.0
8.882,-0.389,-0.946,0.0
8.407,-0.37,-0.942,0.0
8.012,-0.354,-0.942,0.0
7.711,-0.342,-0.949,0.0
7.346,-0.327,-0.944,0.0
9.474,-0.421,-0.949,0.0
8.944,-0.399,-0.945,0.0
8.47,-0.379,-0.941,0.0
8.063,-0.362,-0.94,0.0
7.733,-0.349,-0.944,0.0
7.417,-0.336,-0.946,0.0
9.603,-0.434,-0.953,0.0
9.047,-0.41,-0.947,0.0
8.58,-0.391,-0.945,0.0
8.138,-0.372,-0.941,0.0
7.804,-0.358,-0.945,0.0
7.481,-0.345,-0.947,0.0
9.687,-0.445,-0.952,0.0
9.16,-0.422,-0.95,0.0
8.661,-0.401,-0.945,0.0
8.214,-0.381,-0.942,0.0
7.837,-0.365,-0.941,0.0
7.5,-0.351,-0.942,0.0
9.775,-0.456,-0.95,0.0
9.261,-0.434,-0.95,0.0
8.736,-0.411,-0.944,0.0
8.296,-0.391,-0.942,0.0
7.924,-0.375,-0.943,0.0
7.602,-0.361,-0.946,0.0
9.92,-0.47,-0.954,0.0
9.372,-0.445,-0.952,0.0
8.848,-0.422,-0.946,0.0
8.412,-0.402,-0.946,0.0
7.998,-0.384,-0.943,0.0
7.673,-0.37,-0.947,0.0
10.013,-0.481,-0.952,0.0
9.494,-0.458,-0.954,0.0
8.955,-0.433,-0.948,0.0
8.471,-0.411,-0.943,0.0
8.067,-0.393,-0.942,0.0
7.74,-0.378,-0.946,0.0
10.142,-0.494,-0.952,0.0
9.605,-0.469,-0.954,0.0
9.068,-0.444,-0.949,0.0
8.582,-0.422,-0.946,0.0
8.156,-0.402,-0.943,0.0
7.818,-0.387,-0.946,0.0
10.346,-0.51,-0.96,0.0
9.732,-0.481,-0.955,0.0
9.186,-0.456,-0.951,0.0
8.712,-0.433,-0.95,0.0
8.243,-0.411,-0.943,0.0
7.875,-0.394,-0.944,0.0
10.412,-0.519,-0.953,0.0
9.851,-0.493,-0.955,0.0
9.301,-0.466,-0.951,0.0
8.817,-0.443,-0.95,0.0
8.328,-0.42,-0.942,0.0
7.97,-0.403,-0.945,0.0
10.561,-0.533,-0.954,0.0
9.961,-0.504,-0.953,0.0
9.442,-0.479,-0.954,0.0
8.897,-0.452,-0.947,0.0
8.431,-0.43,-0.943,0.0
8.062,-0.412,-0.946,0.0
10.752,-0.548,-0.957,0.0
10.117,-0.517,-0.955,0.0
9.604,-0.492,-0.958,0.0
9.019,-0.463,-0.949,0.0
8.583,-0.442,-0.949,0.0
8.121,-0.419,-0.942,0.0
10.892,-0.56,-0.955,0.0
10.32,-0.532,-0.96,0.0
9.737,-0.503,-0.958,0.0
9.182,-0.476,-0.954,0.0
8.68,-0.451,-0.948,0.0
8.24,-0.429,-0.945,0.0
11.094,-0.576,-0.958,0.0
10.396,-0.541,-0.953,0.0
9.841,-0.513,-0.955,0.0
9.305,-0.486,-0.954,0.0
8.835,-0.463,-0.953,0.0
8.383,-0.44,-0.949,0.0
11.218,-0.587,-0.954,0.0
10.595,-0.555,-0.957,0.0
10.01,-0.526,-0.958,0.0
9.433,-0.496,-0.954,0.0
8.939,-0.471,-0.952,0.0
8.469,-0.448,-0.947,0.0
11.445,-0.603,-0.957,0.0
10.76,-0.568,-0.957,0.0
10.173,-0.538,-0.959,0.0
9.582,-0.508,-0.956,0.0
9.073,-0.482,-0.953,0.0
8.606,-0.458,-0.95,0.0
11.661,-0.618,-0.959,0.0
10.934,-0.581,-0.957,0.0
10.328,-0.55,-0.959,0.0
9.75,-0.52,-0.958,0.0
9.205,-0.492,-0.954,0.0
8.739,-0.468,-0.952,0.0
11.881,-0.634,-0.96,0.0
11.09,-0.592,-0.955,0.0
10.476,-0.56,-0.958,0.0
9.885,-0.53,-0.957,0.0
9.379,-0.504,-0.958,0.0
8.862,-0.477,-0.953,0.0
12.142,-0.651,-0.963,0.0
11.328,-0.608,-0.959,0.0
10.613,-0.571,-0.955,0.0
10.007,-0.539,-0.954,0.0
9.517,-0.513,-0.958,0.0
9.003,-0.486,-0.955,0.0
12.383,-0.667,-0.964,0.0
11.554,-0.623,-0.961,0.0
10.833,-0.585,-0.958,0.0
10.217,-0.552,-0.959,0.0
9.678,-0.524,-0.96,0.0
9.142,-0.496,-0.955,0.0
12.62,-0.682,-0.964,0.0
11.763,-0.636,-0.96,0.0
11.057,-0.599,-0.961,0.0
10.425,-0.565,-0.962,0.0
9.832,-0.534,-0.96,0.0
9.287,-0.505,-0.956,0.0
12.878,-0.698,-0.963,0.0
12.056,-0.654,-0.966,0.0
11.223,-0.609,-0.958,0.0
10.544,-0.573,-0.957,0.0
9.971,-0.543,-0.958,0.0
9.447,-0.515,-0.958,0.0
13.109,-0.712,-0.96,0.0
12.326,-0.67,-0.968,0.0
11.488,-0.625,-0.963,0.0
10.734,-0.585,-0.958,0.0
10.179,-0.555,-0.962,0.0
9.613,-0.524,-0.959,0.0
13.445,-0.731,-0.964,0.0
12.577,-0.684,-0.968,0.0
11.686,-0.636,-0.961,0.0
11.002,-0.6,-0.964,0.0
10.35,-0.565,-0.962,0.0
9.786,-0.534,-0.961,0.0
13.763,-0.749,-0.965,0.0
12.811,-0.698,-0.966,0.0
11.99,-0.653,-0.967,0.0
11.125,-0.607,-0.957,0.0
10.49,-0.572,-0.958,0.0
9.948,-0.543,-0.961,0.0
14.156,-0.77,-0.97,0.0
13.056,-0.711,-0.963,0.0
12.254,-0.668,-0.969,0.0
11.436,-0.623,-0.965,0.0
10.739,-0.586,-0.963,0.0
10.126,-0.552,-0.962,0.0
14.647,-0.796,-0.98,0.0
13.322,-0.725,-0.961,0.0
12.522,-0.681,-0.969,0.0
11.622,-0.633,-0.962,0.0
10.935,-0.596,-0.963,0.0
10.289,-0.561,-0.96,0.0
14.882,-0.808,-0.971,2.0
13.679,-0.743,-0.965,0.0
12.718,-0.691,-0.963,0.0
11.905,-0.647,-0.966,0.0
11.158,-0.606,-0.964,0.0
10.484,-0.57,-0.961,0.0
15.009,-0.813,-0.954,1.0
14.068,-0.762,-0.968,0.0
13.032,-0.706,-0.966,0.0
12.172,-0.66,-0.967,0.0
11.378,-0.617,-0.964,0.0
10.749,-0.583,-0.967,0.0
15.092,-0.815,-0.935,1.0
14.579,-0.787,-0.979,0.0
13.369,-0.722,-0.968,0.0
12.452,-0.672,-0.968,0.0
11.631,-0.628,-0.966,0.0
10.86,-0.586,-0.959,0.0
15.124,-0.814,-0.911,1.0
14.904,-0.802,-0.976,2.0
13.721,-0.738,-0.971,0.0
12.692,-0.683,-0.966,0.0
11.892,-0.639,-0.967,0.0
11.093,-0.596,-0.96,0.0
15.121,-0.81,-0.886,1.0
14.989,-0.802,-0.956,1.0
13.974,-0.748,-0.965,0.0
12.977,-0.694,-0.965,0.0
12.179,-0.651,-0.97,0.0
11.377,-0.608,-0.966,0.0
15.204,-0.81,-0.865,0.0
15.12,-0.805,-0.939,0.0
14.54,-0.774,-0.979,0.0
13.351,-0.71,-0.97,0.0
12.449,-0.662,-0.97,0.0
11.62,-0.617,-0.966,0.0
15.37,-0.814,-0.848,0.0
15.139,-0.801,-0.914,1.0
14.847,-0.785,-0.974,1.0
13.61,-0.719,-0.966,0.0
12.74,-0.673,-0.971,0.0
11.88,-0.627,-0.967,0.0
15.722,-0.827,-0.841,0.0
15.172,-0.797,-0.89,1.0
15.075,-0.791,-0.963,1.0
14.113,-0.74,-0.977,0.0
12.973,-0.68,-0.966,0.0
12.187,-0.638,-0.971,0.0
15.995,-0.834,-0.828,0.0
15.23,-0.794,-0.867,1.0
15.189,-0.791,-0.944,0.0
14.449,-0.751,-0.975,0.0
13.398,-0.696,-0.974,0.0
12.475,-0.648,-0.973,0.0
16.387,-0.847,-0.819,1.0
15.362,-0.793,-0.848,0.0
15.226,-0.786,-0.92,0.0
14.732,-0.759,-0.969,0.0
13.634,-0.702,-0.968,0.0
12.725,-0.654,-0.97,0.0
16.713,-0.856,-0.807,1.0
15.739,-0.805,-0.842,0.0
15.244,-0.779,-0.895,1.0
15.222,-0.777,-0.974,0.0
13.934,-0.71,-0.965,0.0
12.98,-0.66,-0.967,0.0
17.287,-0.876,-0.805,0.0
15.968,-0.808,-0.826,0.0
15.293,-0.773,-0.871,1.0
15.259,-0.77,-0.95,1.0
14.424,-0.727,-0.974,0.0
13.29,-0.669,-0.967,0.0
18.01,-0.903,-0.807,0.0
16.438,-0.822,-0.822,1.0
15.407,-0.77,-0.851,0.0
15.284,-0.762,-0.925,1.0
14.78,-0.736,-0.972,0.0
13.681,-0.68,-0.971,0.0
18.533,-0.917,-0.798,1.0
16.774,-0.829,-0.81,1.0
15.781,-0.778,-0.844,0.0
15.315,-0.754,-0.9,1.0
15.301,-0.752,-0.979,0.0
13.966,-0.685,-0.967,0.0
19.301,-0.943,-0.797,0.0
17.405,-0.848,-0.81,0.0
16.087,-0.782,-0.832,1.0
15.379,-0.746,-0.877,1.0
15.37,-0.744,-0.957,1.0
14.438,-0.698,-0.974,0.0
19.918,-0.959,-0.788,0.0
18.104,-0.869,-0.811,0.0
16.33,-0.782,-0.816,1.0
15.472,-0.74,-0.855,1.0
15.406,-0.735,-0.932,1.0
14.738,-0.701,-0.969,0.0
20.905,-0.991,-0.791,1.0
18.632,-0.881,-0.802,0.0
16.881,-0.796,-0.814,0.0
15.828,-0.744,-0.847,0.0
15.447,-0.725,-0.907,1.0
15.438,-0.723,-0.988,0.0
21.683,-1.011,-0.783,1.0
19.406,-0.902,-0.801,0.0
17.426,-0.808,-0.81,0.0
16.131,-0.746,-0.836,1.0
15.514,-0.715,-0.884,1.0
15.52,-0.714,-0.966,0.0
22.474,-1.029,-0.772,1.0
20.092,-0.917,-0.795,0.0
18.041,-0.821,-0.807,0.0
16.359,-0.743,-0.819,1.0
15.58,-0.705,-0.861,1.0
15.552,-0.702,-0.941,0.0
23.704,-1.065,-0.774,10.0
20.81,-0.932,-0.787,0.0
18.644,-0.832,-0.802,0.0
16.865,-0.751,-0.815,0.0
15.808,-0.701,-0.847,0.0
15.599,-0.69,-0.917,1.0
23.89,-1.052,-0.739,19.0
21.871,-0.96,-0.79,3.0
19.49,-0.852,-0.805,0.0
17.48,-0.762,-0.815,0.0
16.235,-0.705,-0.841,1.0
15.666,-0.678,-0.894,1.0
24.466,-1.055,-0.715,16.0
22.447,-0.964,-0.773,1.0
20.179,-0.863,-0.8,0.0
18.123,-0.773,-0.814,0.0
16.536,-0.702,-0.829,2.0
15.731,-0.666,-0.871,1.0
25.288,-1.066,-0.696,2.0
23.758,-0.997,-0.778,13.0
20.72,-0.866,-0.786,1.0
18.679,-0.778,-0.808,0.0
16.856,-0.699,-0.817,2.0
15.851,-0.655,-0.851,1.0
28.446,-1.17,-0.735,89.0
23.91,-0.979,-0.742,18.0
21.809,-0.889,-0.79,0.0
19.427,-0.789,-0.807,0.0
17.481,-0.707,-0.817,0.0
16.171,-0.651,-0.84,1.0
28.464,-1.14,-0.687,64.0
24.723,-0.986,-0.725,11.0
22.577,-0.896,-0.78,1.0
20.248,-0.8,-0.807,1.0
18.114,-0.713,-0.816,1.0
28.48,-1.116,-1.432,0.0
28.491,-1.111,-0.64,48.0
25.127,-0.975,-0.695,0.0
23.766,-0.917,-0.781,10.0
20.681,-0.794,-0.79,2.0
18.629,-0.712,-0.808,0.0
17.118,-0.651,-0.832,0.0
30.651,-1.16,-0.638,33.0
28.556,-1.075,-0.743,1.0
23.933,-0.896,-0.747,18.0
21.802,-0.812,-0.796,1.0
19.444,-0.721,-0.812,0.0
17.59,-0.649,-0.826,0.0
30.995,-1.137,-0.594,28.0
30.402,-1.109,-0.74,8.0
24.756,-0.898,-0.732,12.0
22.557,-0.813,-0.786,1.0
20.115,-0.721,-0.806,0.0
18.33,-0.653,-0.83,1.0
37.999,-1.347,-0.665,2.0
30.503,-1.075,-0.693,35.0
25.36,-0.889,-0.708,0.0
23.608,-0.822,-0.785,10.0
20.981,-0.726,-0.807,0.0
18.747,-0.645,-0.819,5.0
38.063,-1.302,-0.604,20.0
30.703,-1.044,-0.647,30.0
28.423,-0.96,-0.748,1.0
23.912,-0.803,-0.756,18.0
21.858,-0.729,-0.805,1.0
19.46,-0.645,-0.819,3.0
38.422,-1.266,-0.549,12.0
31.076,-1.017,-0.606,28.0
30.388,-0.988,-0.751,10.0
24.56,-0.793,-0.738,13.0
22.391,-0.718,-0.79,2.0
19.791,-0.63,-0.801,6.0
38.593,-1.221,-0.49,31.0
37.907,-1.191,-0.679,5.0
30.501,-0.951,-0.706,30.0
25.213,-0.781,-0.717,2.0
23.66,-0.727,-0.797,7.0
20.56,-0.627,-0.8,2.0
38.63,-1.171,-0.43,43.0
38.003,-1.142,-0.621,25.0
30.678,-0.915,-0.661,34.0
28.223,-0.835,-0.759,1.0
23.822,-0.699,-0.765,18.0
21.202,-0.618,-0.792,1.0
38.657,-1.118,-0.37,59.0
38.306,-1.099,-0.567,13.0
31.054,-0.883,-0.622,28.0
30.148,-0.85,-0.764,8.0
24.514,-0.685,-0.75,14.0
22.438,-0.622,-0.804,2.0
38.678,-1.064,-0.31,61.0
38.569,-1.051,-0.511,23.0
31.506,-0.851,-0.582,9.0
30.417,-0.815,-0.725,31.0
25.286,-0.671,-0.735,3.0
23.698,-0.623,-0.813,5.0
38.714,-1.009,-0.252,38.0
38.704,-0.999,-0.455,33.0
37.963,-0.97,-0.645,19.0
30.59,-0.774,-0.683,33.0
28.052,-0.703,-0.773,1.0
23.783,-0.59,-0.78,19.0
0.0,0.0,0.0,0.0
0.0,0.0,0.0,0.0
38.263,-0.921,-0.593,20.0
30.979,-0.738,-0.645,29.0
0.0,0.0,0.0,0.0
23.86,-0.556,-0.747,8.0
40.419,-0.933,-0.143,38.0
40.417,-0.922,-0.355,51.0
40.401,-0.912,-0.567,19.0
31.489,-0.702,-0.61,9.0
30.392,-0.67,-0.749,20.0
25.394,-0.553,-0.759,2.0
38.381,-0.827,-0.081,25.0
38.369,-0.816,-0.282,45.0
38.356,-0.806,-0.483,57.0
37.858,-0.785,-0.679,13.0
30.539,-0.625,-0.709,34.0
27.427,-0.554,-0.78,1.0
52.945,-1.057,-0.036,69.0
45.654,-0.9,-0.271,21.0
45.326,-0.881,-0.507,19.0
38.139,-0.731,-0.631,17.0
30.98,-0.585,-0.675,28.0
28.652,-0.533,-0.775,7.0
20.123,-0.369,0.014,7.0
52.98,-0.959,-0.24,23.0
52.928,-0.944,-0.519,15.0
38.573,-0.677,-0.585,11.0
31.571,-0.545,-0.645,7.0
30.058,-0.511,-0.772,8.0
20.149,-0.337,0.041,52.0
20.109,-0.331,-0.063,10.0
52.972,-0.858,-0.447,19.0
44.872,-0.714,-0.619,20.0
0.0,0.0,0.0,0.0
30.386,-0.466,-0.739,25.0
20.149,-0.304,0.069,29.0
20.124,-0.298,-0.036,2.0
56.556,-0.821,-0.401,4.0
45.071,-0.642,-0.561,19.0
37.955,-0.53,-0.673,27.0
31.247,-0.427,-0.719,26.0
20.154,-0.27,0.095,9.0
59.541,-0.782,-0.03,69.0
56.549,-0.726,-0.327,6.0
45.968,-0.576,-0.512,3.0
38.42,-0.471,-0.631,13.0
32.096,-0.384,-0.697,2.0
56.186,-0.657,0.34,2.0
56.412,-0.644,0.044,1.0
56.176,-0.624,-0.252,4.0
52.748,-0.571,-0.52,7.0
38.887,-0.409,-0.589,3.0
20.193,-0.206,-0.412,9.0
64.324,-0.64,0.472,31.0
56.184,-0.543,0.115,5.0
56.248,-0.527,-0.181,8.0
56.435,-0.512,-0.486,1.0
20.155,-0.177,-0.28,17.0
20.162,-0.171,-0.387,27.0
58.325,-0.479,0.5,15.0
58.319,-0.461,0.191,20.0
20.178,-0.153,-0.04,13.0
20.138,-0.147,-0.148,18.0
20.151,-0.141,-0.255,28.0
20.153,-0.135,-0.362,36.0
20.141,-0.129,0.197,19.0
20.136,-0.123,0.09,23.0
20.143,-0.117,-0.016,27.0
20.145,-0.111,-0.125,27.0
20.144,-0.105,-0.231,24.0
20.137,-0.099,-0.338,38.0
20.132,-0.093,0.22,27.0
20.121,-0.087,0.113,30.0
20.137,-0.08,0.007,35.0
20.13,-0.074,-0.101,31.0
20.148,-0.068,-0.208,24.0
20.145,-0.062,-0.315,28.0
20.12,-0.056,0.243,32.0
20.118,-0.05,0.136,31.0
20.132,-0.043,0.03,38.0
20.148,-0.037,-0.078,31.0
20.17,-0.031,-0.186,24.0
20.169,-0.025,-0.293,13.0
20.122,-0.018,0.266,27.0
20.122,-0.012,0.159,28.0
20.153,-0.006,0.052,27.0
20.263,0.0,-0.056,150.0
20.258,0.006,-0.164,151.0
20.275,0.012,-0.272,150.0
20.141,0.018,0.288,28.0
20.131,0.025,0.181,28.0
20.15,0.031,0.074,24.0
20.236,0.037,-0.035,12.0
20.237,0.044,-0.143,24.0
20.225,0.05,-0.25,1.0
20.141,0.056,0.309,28.0
20.145,0.063,0.202,28.0
20.159,0.069,0.095,26.0
20.197,0.076,-0.014,29.0
20.184,0.082,-0.122,30.0
20.193,0.088,-0.229,21.0
20.154,0.095,0.33,29.0
20.163,0.101,0.223,28.0
20.172,0.107,0.115,23.0
20.181,0.114,0.005,28.0
20.189,0.12,-0.102,34.0
20.171,0.127,-0.209,25.0
20.163,0.133,0.35,27.0
20.188,0.14,0.243,25.0
20.198,0.147,0.135,22.0
20.216,0.153,0.025,25.0
20.199,0.159,-0.082,23.0
20.192,0.166,-0.19,19.0
20.27,0.173,0.371,29.0
20.297,0.18,0.263,29.0
20.307,0.186,0.154,29.0
20.329,0.193,0.044,34.0
20.338,0.2,-0.064,2.0
20.209,0.205,-0.172,2.0
20.27,0.213,0.39,40.0
20.282,0.219,0.281,26.0
20.29,0.226,0.172,20.0
20.308,0.232,0.062,2.0
0.0,0.0,0.0,0.0
0.0,0.0,0.0,0.0
20.29,0.253,0.408,25.0
20.293,0.259,0.299,9.0
0.0,0.0,0.0,0.0
99.613,1.338,0.39,6.0
99.708,1.371,-0.144,1.0
0.0,0.0,0.0,0.0
195.98,2.828,4.106,23.0
194.735,2.873,3.034,36.0
0.0,0.0,0.0,0.0
99.724,1.535,0.471,5.0
99.776,1.568,-0.063,4.0
0.0,0.0,0.0,0.0
194.785,3.197,4.238,17.0
194.912,3.263,3.193,25.0
0.0,0.0,0.0,0.0
99.825,1.735,0.55,5.0
99.841,1.767,0.013,13.0
0.0,0.0,0.0,0.0
194.532,3.58,4.382,19.0
194.563,3.642,3.335,6.0
103.156,1.964,1.212,15.0
99.902,1.935,0.625,3.0
99.962,1.968,0.087,6.0
0.0,0.0,0.0,0.0
194.417,3.966,4.522,14.0
195.831,4.059,3.499,9.0
103.145,2.17,1.286,2.0
0.0,0.0,0.0,0.0
100.095,2.171,0.158,5.0
0.0,0.0,0.0,0.0
194.431,4.36,4.659,24.0
193.965,4.413,3.6,22.0
195.195,4.501,2.567,20.0
103.091,2.41,0.788,1.0
100.265,2.375,0.224,2.0
0.0,0.0,0.0,0.0
194.232,4.747,4.781,26.0
193.782,4.799,3.723,31.0
195.284,4.896,2.694,28.0
103.06,2.618,0.854,9.0
100.477,2.585,0.289,1.0
104.007,2.709,-0.263,1.0
194.328,5.143,4.905,25.0
193.582,5.187,3.837,28.0
195.58,5.304,2.818,20.0
0.0,0.0,0.0,0.0
0.0,0.0,0.0,0.0
0.0,0.0,0.0,0.0
194.198,5.537,5.016,24.0
193.508,5.58,3.949,36.0
195.507,5.7,2.928,27.0
201.787,5.947,1.907,22.0
196.156,5.845,0.79,33.0
0.0,0.0,0.0,0.0
193.973,5.926,5.116,23.0
193.839,5.983,4.059,24.0
0.0,0.0,0.0,0.0
0.0,0.0,0.0,0.0
196.291,6.248,0.892,31.0
0.0,0.0,0.0,0.0
194.466,6.34,5.228,8.0
194.5,6.402,4.17,21.0
194.924,6.477,3.119,23.0
0.0,0.0,0.0,0.0
196.371,6.653,0.987,33.0
0.0,0.0,0.0,0.0
194.708,6.746,5.326,8.0
195.324,6.828,4.279,9.0
202.795,7.15,3.337,10.0
196.007,6.972,2.138,7.0
196.367,7.045,1.071,32.0
0.0,0.0,0.0,0.0
194.749,7.139,5.41,8.0
0.0,0.0,0.0,0.0
0.0,0.0,0.0,0.0
195.119,7.334,2.207,22.0
195.177,7.398,1.142,20.0
0.0,0.0,0.0,0.0
193.338,7.48,5.446,6.0
196.302,7.654,4.456,15.0
0.0,0.0,0.0,0.0
199.216,7.892,2.327,9.0
196.705,7.856,1.224,31.0
0.0,0.0,0.0,0.0
193.43,7.877,5.517,28.0
0.0,0.0,0.0,0.0
196.863,8.137,3.46,9.0
0.0,0.0,0.0,0.0
196.648,8.248,1.285,28.0
0.0,0.0,0.0,0.0
193.867,8.286,5.59,8.0
0.0,0.0,0.0,0.0
195.535,8.476,3.496,35.0
195.514,8.535,2.405,55.0
195.614,8.6,1.334,25.0
0.0,0.0,0.0,0.0
193.601,8.665,5.636,21.0
0.0,0.0,0.0,0.0
207.193,9.401,3.758,10.0
206.329,9.426,2.59,21.0
196.973,9.061,1.393,35.0
0.0,0.0,0.0,0.0
193.92,9.073,5.69,22.0
196.046,9.233,4.676,8.0
0.0,0.0,0.0,0.0
0.0,0.0,0.0,0.0
196.996,9.458,1.434,22.0
0.0,0.0,0.0,0.0
194.135,9.475,5.735,20.0
0.0,0.0,0.0,0.0
197.588,9.762,3.665,13.0
197.78,9.831,2.56,23.0
197.082,9.855,1.468,30.0
0.0,0.0,0.0,0.0
193.894,9.852,5.759,14.0
197.225,10.081,4.772,19.0
196.952,10.125,3.681,5.0
0.0,0.0,0.0,0.0
197.1,10.25,1.494,23.0
0.0,0.0,0.0,0.0
193.749,10.236,5.779,5.0
0.0,0.0,0.0,0.0
0.0,0.0,0.0,0.0
196.155,10.535,2.587,14.0
196.12,10.593,1.506,46.0
196.063,10.648,0.423,19.0
196.018,10.749,5.862,28.0
196.115,10.81,4.783,24.0
196.127,10.865,3.7,7.0
0.0,0.0,0.0,0.0
197.299,11.047,1.525,20.0
197.608,11.121,0.436,6.0
0.0,0.0,0.0,0.0
0.0,0.0,0.0,0.0
0.0,0.0,0.0,0.0
0.0,0.0,0.0,0.0
197.438,11.446,1.529,15.0
197.533,11.509,0.439,11.0
0.0,0.0,0.0,0.0
195.642,11.556,4.778,9.0
208.153,12.356,3.932,7.0
0.0,0.0,0.0,0.0
197.47,11.834,1.525,7.0
197.581,11.9,0.433,6.0
0.0,0.0,0.0,0.0
195.761,11.948,4.773,18.0
198.3,12.157,3.737,6.0
0.0,0.0,0.0,0.0
0.0,0.0,0.0,0.0
155.246,9.649,0.33,7.0
155.577,9.754,4.645,3.0
0.0,0.0,0.0,0.0
198.355,12.547,3.72,8.0
200.037,12.709,2.623,7.0
0.0,0.0,0.0,0.0
154.98,9.933,0.313,13.0
0.0,0.0,0.0,0.0
174.047,11.297,4.211,23.0
0.0,0.0,0.0,0.0
209.567,13.716,2.721,6.0
0.0,0.0,0.0,0.0
154.941,10.225,0.291,151.0
162.667,10.824,4.816,6.0
178.722,11.94,4.298,10.0
0.0,0.0,0.0,0.0
199.038,13.404,2.552,5.0
0.0,0.0,0.0,0.0
154.931,10.519,0.264,150.0
169.099,11.573,4.975,15.0
167.968,11.539,4.007,15.0
0.0,0.0,0.0,0.0
0.0,0.0,0.0,0.0
0.0,0.0,0.0,0.0
0.0,0.0,0.0,0.0
155.772,10.952,4.55,14.0
168.063,11.861,3.972,14.0
201.462,14.273,3.639,6.0
0.0,0.0,0.0,0.0
140.821,10.049,0.96,4.0
141.372,10.128,0.176,2.0
155.152,11.198,4.492,7.0
162.044,11.737,3.787,44.0
173.326,12.601,3.084,41.0
173.472,12.654,2.101,39.0
124.201,9.094,0.811,3.0
122.106,8.974,0.117,8.0
166.764,12.348,4.78,21.0
167.288,12.427,3.86,7.0
168.056,12.527,2.939,38.0
168.179,12.579,1.985,36.0
122.147,9.168,0.76,5.0
115.165,8.673,0.073,2.0
157.0,11.911,4.448,21.0
155.838,11.862,3.544,15.0
162.188,12.385,2.782,16.0
162.201,12.427,1.858,8.0
114.183,8.777,0.67,7.0
114.104,8.801,0.032,97.0
167.328,12.997,4.68,16.0
155.721,12.132,3.484,28.0
155.991,12.193,2.617,27.0
155.914,12.225,1.728,14.0
114.102,8.975,0.625,21.0
0.0,0.0,0.0,0.0
161.281,12.817,4.447,14.0
156.039,12.438,3.428,12.0
181.654,14.522,2.972,37.0
0.0,0.0,0.0,0.0
110.572,8.894,0.56,32.0
109.423,8.827,-0.058,2.0
156.71,12.728,4.254,11.0
196.476,16.003,4.232,18.0
213.541,17.441,3.401,19.0
129.091,10.575,1.319,2.0
0.0,0.0,0.0,0.0
108.559,8.946,-0.108,3.0
197.041,16.344,5.257,8.0
201.954,16.797,4.255,10.0
214.041,17.854,3.308,7.0
115.276,9.643,1.123,7.0
107.94,9.055,0.444,1.0
107.988,9.085,-0.16,6.0
197.172,16.694,5.163,8.0
199.608,16.945,4.103,17.0
153.622,13.075,2.295,11.0
108.848,9.289,1.004,2.0
107.683,9.215,0.388,29.0
107.824,9.252,-0.216,6.0
144.595,12.485,3.709,3.0
152.626,13.213,3.057,11.0
153.425,13.317,2.209,21.0
108.608,9.45,0.942,2.0
107.614,9.388,0.328,42.0
107.641,9.414,-0.276,3.0
153.033,13.466,3.84,22.0
152.603,13.461,2.97,13.0
152.908,13.52,2.114,30.0
108.562,9.623,0.879,2.0
99.842,8.873,0.246,1.0
0.0,0.0,0.0,0.0
152.33,13.652,3.731,24.0
152.313,13.682,2.873,13.0
152.558,13.737,2.017,25.0
0.0,0.0,0.0,0.0
0.0,0.0,0.0,0.0
0.0,0.0,0.0,0.0
151.956,13.863,3.627,28.0
151.752,13.876,2.766,29.0
151.778,13.908,1.91,23.0
93.91,8.626,0.642,4.0
0.0,0.0,0.0,0.0
0.0,0.0,0.0,0.0
151.884,14.093,3.526,23.0
151.331,14.073,2.658,27.0
151.575,14.126,1.808,21.0
0.0,0.0,0.0,0.0
92.517,8.66,0.049,1.0
0.0,0.0,0.0,0.0
151.737,14.312,3.418,22.0
151.176,14.289,2.551,31.0
151.503,14.35,1.701,9.0
0.0,0.0,0.0,0.0
92.316,8.781,-0.016,1.0
0.0,0.0,0.0,0.0
138.286,13.253,3.016,16.0
151.092,14.509,2.442,29.0
0.0,0.0,0.0,0.0
0.0,0.0,0.0,0.0
92.507,8.937,-0.083,1.0
68.936,6.673,-0.451,2.0
121.569,11.828,2.562,34.0
121.617,11.854,1.874,42.0
0.0,0.0,0.0,0.0
0.0,0.0,0.0,0.0
85.366,8.37,-0.141,1.0
68.934,6.773,-0.505,2.0
121.53,11.998,2.468,62.0
121.579,12.025,1.78,65.0
0.0,0.0,0.0,0.0
0.0,0.0,0.0,0.0
0.0,0.0,0.0,0.0
0.0,0.0,0.0,0.0
121.636,12.179,2.372,21.0
150.73,15.12,2.085,15.0
0.0,0.0,0.0,0.0
0.0,0.0,0.0,0.0
0.0,0.0,0.0,0.0
0.0,0.0,0.0,0.0
150.737,15.3,2.817,22.0
150.711,15.322,1.96,16.0
0.0,0.0,0.0,0.0
0.0,0.0,0.0,0.0
82.481,8.43,-0.338,1.0
0.0,0.0,0.0,0.0
115.752,11.905,2.063,13.0
83.884,8.64,1.019,3.0
0.0,0.0,0.0,0.0
0.0,0.0,0.0,0.0
82.694,8.561,-0.412,0.0
0.0,0.0,0.0,0.0
115.585,12.037,1.96,53.0
0.0,0.0,0.0,0.0
82.15,8.581,0.459,3.0
82.214,8.602,-0.015,1.0
0.0,0.0,0.0,0.0
0.0,0.0,0.0,0.0
109.333,11.523,1.756,18.0
0.0,0.0,0.0,0.0
82.031,8.67,0.384,3.0
82.004,8.681,-0.089,19.0
68.939,7.309,-0.466,0.0
0.0,0.0,0.0,0.0
109.291,11.651,1.655,56.0
0.0,0.0,0.0,0.0
82.026,8.769,0.309,4.0
77.987,8.349,-0.157,8.0
0.0,0.0,0.0,0.0
0.0,0.0,0.0,0.0
109.303,11.781,1.551,42.0
0.0,0.0,0.0,0.0
77.28,8.352,0.218,7.0
77.224,8.358,-0.229,5.0
0.0,0.0,0.0,0.0
0.0,0.0,0.0,0.0
150.008,16.341,1.987,3.0
81.957,8.938,0.618,1.0
76.458,8.349,0.141,8.0
76.922,8.41,-0.302,8.0
0.0,0.0,0.0,0.0
0.0,0.0,0.0,0.0
0.0,0.0,0.0,0.0
77.056,8.488,0.506,2.0
75.773,8.357,0.065,6.0
75.867,8.378,-0.373,0.0
0.0,0.0,0.0,0.0
43.204,4.783,-0.705,0.0
0.0,0.0,0.0,0.0
75.508,8.398,0.419,12.0
75.516,8.408,-0.01,10.0
75.248,8.388,-0.446,6.0
0.0,0.0,0.0,0.0
0.0,0.0,0.0,0.0
76.586,8.586,0.785,2.0
75.065,8.424,0.34,5.0
74.825,8.407,-0.086,13.0
68.926,7.753,-0.48,3.0
0.0,0.0,0.0,0.0
40.932,4.615,-0.752,0.0
76.039,8.599,0.7,2.0
74.645,8.45,0.261,18.0
74.679,8.462,-0.164,20.0
0.0,0.0,0.0,0.0
0.0,0.0,0.0,0.0
38.576,4.386,-0.749,0.0
75.066,8.558,0.613,3.0
74.625,8.516,0.183,83.0
0.0,0.0,0.0,0.0
0.0,0.0,0.0,0.0
0.0,0.0,0.0,0.0
37.335,4.279,-0.765,0.0
74.649,8.577,0.529,11.0
0.0,0.0,0.0,0.0
0.0,0.0,0.0,0.0
0.0,0.0,0.0,0.0
43.024,4.963,-0.682,0.0
37.108,4.285,-0.8,0.0
74.704,8.648,0.448,0.0
0.0,0.0,0.0,0.0
71.452,8.286,-0.387,1.0
0.0,0.0,0.0,0.0
41.785,4.855,-0.708,1.0
34.461,4.008,-0.781,0.0
0.0,0.0,0.0,0.0
0.0,0.0,0.0,0.0
0.0,0.0,0.0,0.0
0.0,0.0,0.0,0.0
41.126,4.81,-0.742,0.0
33.372,3.907,-0.793,1.0
0.0,0.0,0.0,0.0
0.0,0.0,0.0,0.0
68.886,8.095,-0.526,3.0
0.0,0.0,0.0,0.0
0.0,0.0,0.0,0.0
32.423,3.82,-0.807,0.0
69.679,8.225,0.186,0.0
69.05,8.157,-0.21,1.0
68.859,8.141,-0.604,2.0
0.0,0.0,0.0,0.0
37.299,4.417,-0.758,0.0
31.291,3.709,-0.814,0.0
0.0,0.0,0.0,0.0
68.928,8.189,-0.288,1.0
0.0,0.0,0.0,0.0
0.0,0.0,0.0,0.0
36.91,4.394,-0.792,0.0
30.591,3.645,-0.831,0.0
68.838,8.216,0.028,3.0
68.884,8.226,-0.367,1.0
0.0,0.0,0.0,0.0
41.039,4.907,-0.692,0.0
0.0,0.0,0.0,0.0
29.442,3.526,-0.833,0.0
68.784,8.249,-0.049,18.0
68.977,8.277,-0.445,2.0
0.0,0.0,0.0,0.0
40.092,4.817,-0.722,0.0
33.055,3.974,-0.784,0.0
28.527,3.432,-0.84,0.0
68.751,8.282,-0.129,2.0
68.9,8.304,-0.524,3.0
68.791,8.296,-0.917,3.0
39.774,4.799,-0.762,0.0
32.41,3.913,-0.807,0.0
27.709,3.348,-0.848,0.0
68.982,8.344,-0.209,1.0
0.0,0.0,0.0,0.0
68.718,8.32,-0.995,1.0
37.509,4.544,-0.762,0.0
31.087,3.768,-0.809,0.0
26.967,3.271,-0.857,0.0
69.084,8.387,-0.29,1.0
68.752,8.35,-0.682,1.0
0.0,0.0,0.0,0.0
0.0,0.0,0.0,0.0
30.378,3.695,-0.827,0.0
26.022,3.167,-0.858,0.0
69.203,8.428,-0.371,2.0
0.0,0.0,0.0,0.0
0.0,0.0,0.0,0.0
0.0,0.0,0.0,0.0
29.276,3.572,-0.831,0.0
25.23,3.08,-0.861,0.0
0.0,0.0,0.0,0.0
68.75,8.4,-0.843,1.0
39.428,4.819,-0.709,1.0
32.693,3.998,-0.779,0.0
28.496,3.486,-0.843,0.0
24.539,3.004,-0.866,0.0
0.0,0.0,0.0,0.0
68.694,8.415,-0.924,5.0
38.954,4.773,-0.747,1.0
32.117,3.937,-0.803,0.0
27.599,3.384,-0.849,0.0
23.851,2.926,-0.87,0.0
68.77,8.439,-0.612,1.0
68.684,8.431,-1.004,2.0
37.113,4.556,-0.755,0.0
31.041,3.812,-0.813,0.0
26.748,3.286,-0.854,0.0
23.428,2.88,-0.882,0.0
68.661,8.44,-0.691,1.0
0.0,0.0,0.0,0.0
0.0,0.0,0.0,0.0
30.139,3.708,-0.824,0.0
25.903,3.187,-0.857,0.0
21.903,2.696,-0.851,0.0
0.0,0.0,0.0,0.0
0.0,0.0,0.0,0.0
34.298,4.223,-0.778,0.0
29.118,3.586,-0.831,0.0
25.005,3.081,-0.857,0.0
21.821,2.689,-0.873,0.0
68.689,8.464,-0.852,2.0
39.932,4.921,-0.724,0.0
32.812,4.044,-0.783,0.0
28.223,3.479,-0.838,0.0
24.383,3.006,-0.864,0.0
21.726,2.68,-0.895,0.0
68.668,8.466,-0.932,5.0
38.659,4.766,-0.747,0.0
31.913,3.935,-0.799,0.0
27.384,3.377,-0.845,0.0
23.773,2.933,-0.87,0.0
21.336,2.633,-0.904,0.0
68.658,8.467,-1.012,2.0
0.0,0.0,0.0,0.0
30.906,3.812,-0.81,1.0
26.652,3.287,-0.854,0.0
23.389,2.885,-0.884,0.0
20.463,2.525,-0.891,0.0
0.0,0.0,0.0,0.0
0.0,0.0,0.0,0.0
30.261,3.731,-0.828,0.0
25.689,3.168,-0.853,0.0
21.919,2.703,-0.853,0.0
20.273,2.5,-0.906,0.0
40.261,4.961,-0.686,0.0
34.137,4.206,-0.778,0.0
29.28,3.608,-0.835,0.0
24.883,3.066,-0.855,0.0
21.827,2.69,-0.875,0.0
19.731,2.432,-0.904,0.0
39.634,4.88,-0.72,0.0
32.751,4.032,-0.783,0.0
28.233,3.475,-0.837,0.0
24.385,3.002,-0.865,0.0
21.778,2.681,-0.898,0.0
19.062,2.347,-0.895,0.0
39.194,4.819,-0.757,0.0
31.811,3.911,-0.797,0.0
27.388,3.367,-0.843,0.0
23.75,2.919,-0.87,0.0
21.433,2.635,-0.908,0.0
18.762,2.306,-0.902,0.0
37.026,4.545,-0.757,0.0
30.986,3.803,-0.811,0.0
26.666,3.272,-0.851,0.0
23.335,2.863,-0.881,0.0
20.494,2.515,-0.891,0.0
18.336,2.25,-0.902,0.0
35.382,4.335,-0.762,0.0
30.193,3.698,-0.823,0.0
25.817,3.162,-0.852,0.0
21.839,2.674,-0.848,0.0
20.198,2.473,-0.9,0.0
18.129,2.219,-0.912,1.0
34.628,4.232,-0.784,0.0
29.133,3.56,-0.826,0.0
25.087,3.064,-0.855,0.0
21.815,2.664,-0.871,0.0
19.92,2.432,-0.91,0.0
17.839,2.178,-0.917,0.0
32.51,3.962,-0.772,0.0
28.338,3.453,-0.835,0.0
24.432,2.976,-0.86,0.0
21.749,2.649,-0.892,0.0
19.124,2.328,-0.894,0.0
17.364,2.114,-0.911,0.0
32.246,3.918,-0.8,0.0
27.521,3.343,-0.84,0.0
23.925,2.905,-0.867,0.0
21.512,2.611,-0.905,0.0
18.881,2.291,-0.903,0.0
17.113,2.076,-0.916,0.0
31.05,3.759,-0.803,1.0
26.751,3.237,-0.845,0.0
23.436,2.835,-0.874,0.0
20.529,2.483,-0.885,0.0
18.41,2.226,-0.899,0.0
16.837,2.035,-0.919,0.0
30.414,3.668,-0.818,0.0
26.055,3.141,-0.85,0.0
21.918,2.641,-0.84,0.0
20.271,2.442,-0.895,0.0
18.198,2.191,-0.908,0.0
16.5,1.986,-0.918,1.0
29.44,3.535,-0.822,0.0
25.419,3.051,-0.855,0.0
21.839,2.62,-0.859,0.0
20.098,2.41,-0.908,0.0
17.979,2.155,-0.915,0.0
16.305,1.954,-0.924,1.0
28.651,3.425,-0.828,0.0
24.699,2.951,-0.855,0.0
21.789,2.602,-0.879,1.0
19.265,2.299,-0.89,0.0
17.504,2.088,-0.909,0.0
16.099,1.92,-0.928,0.0
27.789,3.305,-0.831,0.0
24.237,2.881,-0.863,0.0
21.73,2.581,-0.898,0.0
19.211,2.281,-0.906,0.0
17.268,2.049,-0.913,0.0
15.759,1.869,-0.924,0.0
27.213,3.219,-0.84,0.0
23.733,2.805,-0.868,0.0
21.272,2.513,-0.9,0.0
19.043,2.249,-0.916,0.0
16.991,2.005,-0.915,0.0
15.579,1.838,-0.928,0.0
26.613,3.13,-0.847,0.0
23.334,2.742,-0.876,0.0
20.48,2.405,-0.885,0.0
18.482,2.169,-0.907,0.0
16.755,1.966,-0.918,0.0
15.37,1.802,-0.93,0.0
25.803,3.016,-0.844,0.0
21.952,2.564,-0.844,0.0
20.359,2.376,-0.899,0.0
18.143,2.116,-0.906,0.0
16.562,1.931,-0.922,0.0
15.094,1.759,-0.927,0.0
25.331,2.942,-0.852,0.0
21.872,2.538,-0.86,0.0
19.421,2.252,-0.875,0.0
17.75,2.057,-0.903,0.0
16.278,1.885,-0.921,0.0
14.841,1.717,-0.924,0.0
24.77,2.857,-0.855,0.0
21.787,2.511,-0.876,1.0
19.418,2.236,-0.891,1.0
17.527,2.017,-0.906,0.0
16.094,1.85,-0.924,0.0
14.736,1.693,-0.93,0.0
24.41,2.795,-0.863,0.0
21.774,2.491,-0.894,1.0
19.321,2.208,-0.903,2.0
17.344,1.981,-0.911,1.0
15.878,1.812,-0.925,0.0
14.604,1.665,-0.934,0.0
23.937,2.719,-0.866,0.0
21.667,2.459,-0.907,0.0
18.999,2.154,-0.904,0.0
17.245,1.954,-0.92,0.0
15.725,1.78,-0.929,0.0
14.432,1.632,-0.935,0.0
23.565,2.655,-0.871,0.0
21.595,2.431,-0.921,0.0
18.709,2.104,-0.905,0.0
16.986,1.908,-0.92,0.0
15.484,1.738,-0.927,0.0
14.324,1.607,-0.939,0.0
21.948,2.452,-0.828,1.0
20.448,2.282,-0.888,0.0
18.411,2.053,-0.904,0.0
16.726,1.863,-0.919,0.0
15.274,1.7,-0.926,0.0
14.192,1.578,-0.941,0.0
21.905,2.425,-0.843,3.0
19.887,2.2,-0.878,0.0
18.118,2.002,-0.903,1.0
16.508,1.822,-0.919,0.0
15.106,1.666,-0.927,0.0
14.124,1.556,-0.947,0.0
21.878,2.4,-0.858,6.0
19.699,2.159,-0.884,1.0
17.867,1.955,-0.903,1.0
16.305,1.783,-0.919,0.0
14.957,1.634,-0.928,0.0
13.8,1.506,-0.935,0.0
21.853,2.374,-0.872,7.0
19.62,2.129,-0.894,2.0
17.74,1.923,-0.909,2.0
16.184,1.752,-0.923,0.0
14.838,1.605,-0.931,0.0
13.676,1.478,-0.936,0.0
21.828,2.348,-0.885,5.0
19.506,2.095,-0.901,1.0
17.693,1.898,-0.918,2.0
15.997,1.714,-0.923,0.0
14.74,1.578,-0.934,0.0
13.594,1.453,-0.939,0.0
21.774,2.317,-0.896,2.0
19.406,2.062,-0.909,0.0
17.615,1.869,-0.925,0.0
15.844,1.679,-0.923,0.0
14.635,1.549,-0.936,0.0
13.419,1.419,-0.935,0.0
21.656,2.279,-0.904,1.0
19.06,2.003,-0.904,0.0
17.446,1.831,-0.926,0.0
15.727,1.648,-0.926,0.0
14.474,1.515,-0.934,0.0
13.442,1.405,-0.944,0.0
21.119,2.198,-0.893,0.0
18.858,1.959,-0.905,0.0
17.109,1.775,-0.918,0.0
15.6,1.616,-0.927,0.0
14.418,1.492,-0.938,0.0
13.276,1.372,-0.939,0.0
20.794,2.138,-0.891,0.0
18.703,1.92,-0.907,0.0
16.989,1.742,-0.92,0.0
15.49,1.585,-0.928,0.0
14.345,1.466,-0.941,0.0
13.254,1.353,-0.944,0.0
20.622,2.094,-0.893,0.0
18.428,1.868,-0.903,0.0
16.867,1.707,-0.922,0.0
15.336,1.55,-0.926,0.0
14.294,1.443,-0.944,0.0
13.183,1.329,-0.946,0.0
20.588,2.064,-0.901,0.0
18.238,1.826,-0.901,0.0
16.716,1.671,-0.921,0.0
15.171,1.514,-0.923,0.0
14.143,1.409,-0.94,0.0
13.05,1.298,-0.942,0.0
20.286,2.007,-0.897,0.0
18.038,1.782,-0.899,0.0
16.518,1.629,-0.916,0.0
15.126,1.489,-0.926,0.0
14.154,1.391,-0.947,0.0
12.937,1.27,-0.939,0.0
19.993,1.952,-0.892,0.0
17.968,1.751,-0.902,1.0
16.475,1.603,-0.92,0.0
15.033,1.46,-0.926,0.0
0.0,0.0,0.0,0.0
12.902,1.249,-0.941,0.0
19.69,1.895,-0.885,0.0
17.844,1.714,-0.902,0.0
16.385,1.571,-0.921,0.0
14.959,1.432,-0.927,0.0
13.916,1.33,-0.94,0.0
12.881,1.229,-0.943,0.0
19.552,1.855,-0.885,0.0
17.887,1.693,-0.91,0.0
16.299,1.54,-0.921,0.0
14.904,1.406,-0.928,0.0
0.0,0.0,0.0,0.0
12.835,1.206,-0.944,0.0
19.542,1.826,-0.89,0.0
17.828,1.662,-0.912,0.0
16.235,1.511,-0.921,0.0
14.869,1.381,-0.929,0.0
13.836,1.283,-0.943,0.0
12.792,1.184,-0.943,0.0
19.616,1.805,-0.897,0.0
17.774,1.632,-0.913,0.0
16.206,1.485,-0.923,0.0
14.846,1.357,-0.931,0.0
13.653,1.246,-0.933,0.0
12.711,1.157,-0.94,0.0
19.479,1.763,-0.895,0.0
17.759,1.604,-0.916,0.0
16.164,1.457,-0.924,0.0
14.801,1.331,-0.931,0.0
13.694,1.229,-0.938,0.0
12.708,1.138,-0.942,0.0
19.482,1.735,-0.898,0.0
17.632,1.566,-0.912,0.0
16.109,1.428,-0.923,0.0
14.797,1.309,-0.933,0.0
13.818,1.219,-0.948,0.0
12.71,1.119,-0.944,0.0
19.466,1.704,-0.9,0.0
17.761,1.551,-0.921,0.0
16.051,1.398,-0.922,0.0
14.762,1.283,-0.932,0.0
13.693,1.187,-0.941,0.0
12.693,1.098,-0.944,0.0
19.473,1.675,-0.902,0.0
0.0,0.0,0.0,0.0
16.086,1.377,-0.925,0.0
14.774,1.261,-0.933,0.0
13.631,1.161,-0.938,0.0
12.677,1.077,-0.943,0.0
19.462,1.644,-0.902,0.0
17.666,1.488,-0.917,0.0
16.096,1.352,-0.926,0.0
14.789,1.24,-0.935,0.0
13.691,1.145,-0.942,0.0
12.704,1.06,-0.945,0.0
19.439,1.611,-0.901,0.0
17.446,1.442,-0.906,0.0
16.052,1.323,-0.923,0.0
14.727,1.211,-0.931,0.0
13.63,1.118,-0.937,0.0
12.664,1.036,-0.942,0.0
19.462,1.582,-0.901,0.0
0.0,0.0,0.0,0.0
16.109,1.303,-0.926,0.0
14.787,1.192,-0.933,0.0
13.71,1.103,-0.942,0.0
12.715,1.02,-0.945,0.0
19.473,1.552,-0.9,0.0
17.632,1.401,-0.913,0.0
16.141,1.279,-0.926,0.0
14.782,1.168,-0.932,0.0
13.671,1.078,-0.938,0.0
12.727,1.0,-0.944,0.0
19.503,1.523,-0.9,0.0
17.476,1.361,-0.903,0.0
16.135,1.253,-0.923,0.0
14.804,1.146,-0.931,0.0
13.675,1.056,-0.936,0.0
12.755,0.982,-0.944,0.0
19.573,1.497,-0.9,0.0
17.497,1.334,-0.901,0.0
16.185,1.23,-0.923,0.0
14.884,1.128,-0.933,0.0
13.841,1.046,-0.945,0.0
12.805,0.965,-0.945,0.0
19.602,1.467,-0.897,0.0
17.788,1.327,-0.912,0.0
16.287,1.211,-0.926,0.0
14.941,1.108,-0.933,0.0
0.0,0.0,0.0,0.0
12.824,0.945,-0.944,0.0
19.691,1.441,-0.896,0.0
18.048,1.317,-0.921,0.0
16.393,1.192,-0.927,0.0
14.953,1.084,-0.93,0.0
13.921,1.006,-0.943,0.0
12.864,0.927,-0.943,0.0
19.633,1.405,-0.888,0.0
18.195,1.297,-0.923,0.0
16.361,1.163,-0.92,0.0
15.036,1.065,-0.931,0.0
13.897,0.981,-0.937,0.0
12.953,0.912,-0.945,0.0
19.829,1.386,-0.89,0.0
18.008,1.254,-0.908,0.0
16.507,1.145,-0.923,0.0
15.076,1.043,-0.928,0.0
14.021,0.966,-0.94,0.0
13.052,0.897,-0.948,0.0
20.228,1.38,-0.901,0.0
18.229,1.239,-0.912,0.0
16.617,1.125,-0.923,0.0
15.083,1.018,-0.922,0.0
14.058,0.945,-0.937,0.0
13.066,0.876,-0.943,0.0
20.513,1.365,-0.905,0.0
0.0,0.0,0.0,0.0
16.826,1.111,-0.927,0.0
15.337,1.009,-0.931,0.0
14.196,0.931,-0.94,0.0
13.114,0.857,-0.941,0.0
21.913,1.422,-0.957,0.0
0.0,0.0,0.0,0.0
0.0,0.0,0.0,0.0
0.0,0.0,0.0,0.0
14.33,0.916,-0.942,0.0
13.265,0.844,-0.945,0.0
21.671,1.369,-0.936,0.0
0.0,0.0,0.0,0.0
0.0,0.0,0.0,0.0
15.35,0.958,-0.917,0.0
14.373,0.894,-0.937,0.0
13.351,0.827,-0.944,0.0
21.743,1.337,-0.927,1.0
0.0,0.0,0.0,0.0
0.0,0.0,0.0,0.0
15.687,0.953,-0.928,0.0
14.486,0.876,-0.937,0.0
13.441,0.81,-0.943,0.0
21.773,1.302,-0.916,3.0
19.311,1.149,-0.918,0.0
0.0,0.0,0.0,0.0
15.899,0.938,-0.931,0.0
14.653,0.861,-0.938,0.0
13.601,0.796,-0.946,0.0
21.799,1.266,-0.903,7.0
19.723,1.141,-0.925,0.0
0.0,0.0,0.0,0.0
16.003,0.917,-0.927,0.0
14.895,0.85,-0.944,0.0
13.899,0.79,-0.957,0.0
21.824,1.231,-0.89,8.0
0.0,0.0,0.0,0.0
17.873,0.998,-0.924,0.0
16.309,0.907,-0.933,0.0
15.045,0.833,-0.943,0.0
14.036,0.773,-0.957,0.0
21.824,1.193,-0.875,0.0
0.0,0.0,0.0,0.0
17.98,0.974,-0.916,0.0
16.474,0.888,-0.931,0.0
15.091,0.809,-0.935,3.0
14.159,0.756,-0.954,0.0
21.892,1.16,-0.861,0.0
0.0,0.0,0.0,0.0
18.242,0.957,-0.916,0.0
16.559,0.864,-0.923,0.0
15.343,0.797,-0.939,1.0
14.297,0.739,-0.952,0.0
0.0,0.0,0.0,0.0
20.267,1.034,-0.891,4.0
18.5,0.939,-0.914,0.0
16.756,0.846,-0.92,0.0
15.497,0.779,-0.935,0.0
14.414,0.721,-0.948,0.0
0.0,0.0,0.0,0.0
20.276,1.0,-0.875,2.0
18.81,0.923,-0.913,0.0
17.086,0.834,-0.924,1.0
15.762,0.765,-0.938,0.0
14.546,0.702,-0.944,0.0
20.245,0.97,-0.746,27.0
20.227,0.964,-0.855,19.0
20.19,0.957,-0.962,9.0
20.225,0.953,-1.076,4.0
15.993,0.749,-0.937,0.0
14.753,0.687,-0.944,0.0
20.195,0.933,-0.726,161.0
20.238,0.93,-0.837,150.0
20.213,0.924,-0.945,28.0
20.236,0.92,-1.057,28.0
16.211,0.732,-0.935,0.0
14.945,0.671,-0.943,0.0
20.198,0.9,-0.707,160.0
20.238,0.896,-0.817,150.0
20.136,0.887,-0.922,8.0
20.22,0.885,-1.037,2.0
16.461,0.716,-0.933,0.0
15.171,0.656,-0.942,0.0
20.249,0.868,-0.689,10.0
20.225,0.862,-0.797,20.0
20.191,0.855,-0.904,11.0
18.338,0.772,-0.922,0.0
16.721,0.7,-0.931,0.0
15.362,0.639,-0.938,0.0
0.0,0.0,0.0,0.0
22.666,0.929,-0.87,0.0
20.238,0.824,-0.885,7.0
18.666,0.755,-0.919,0.0
16.974,0.682,-0.927,0.0
15.667,0.626,-0.94,0.0
27.706,1.097,-0.885,0.0
23.81,0.937,-0.888,1.0
21.148,0.826,-0.902,0.0
19.021,0.739,-0.916,0.0
17.242,0.665,-0.923,0.0
16.002,0.613,-0.942,0.0
28.455,1.081,-0.878,0.0
24.635,0.929,-0.892,0.0
21.885,0.82,-0.909,0.0
19.616,0.73,-0.922,0.0
17.82,0.658,-0.933,0.0
16.229,0.595,-0.937,0.0
29.472,1.072,-0.875,0.0
25.217,0.911,-0.884,0.0
22.475,0.806,-0.908,0.0
20.089,0.715,-0.921,0.0
18.124,0.64,-0.928,0.0
16.513,0.579,-0.934,0.0
30.165,1.049,-0.861,1.0
26.023,0.898,-0.882,0.0
22.795,0.781,-0.894,0.0
20.503,0.697,-0.916,0.0
18.556,0.626,-0.928,0.0
16.846,0.564,-0.933,0.0
30.274,1.005,-0.828,0.0
26.548,0.874,-0.867,0.0
23.667,0.773,-0.899,0.0
20.891,0.677,-0.907,0.0
18.846,0.606,-0.919,0.0
17.159,0.547,-0.929,0.0
32.369,1.023,-0.845,1.0
28.029,0.879,-0.881,0.0
24.508,0.762,-0.9,0.0
21.718,0.67,-0.916,0.0
19.506,0.596,-0.926,0.0
17.738,0.538,-0.937,0.0
32.905,0.988,-0.816,1.0
28.861,0.859,-0.869,0.0
25.027,0.739,-0.887,0.0
22.282,0.652,-0.91,0.0
19.975,0.58,-0.922,0.0
18.078,0.52,-0.931,0.0
34.934,0.995,-0.82,0.0
30.075,0.849,-0.866,1.0
26.035,0.728,-0.888,0.0
22.757,0.631,-0.899,0.0
20.51,0.564,-0.919,0.0
18.539,0.505,-0.93,0.0
0.0,0.0,0.0,0.0
31.583,0.843,-0.866,1.0
27.121,0.718,-0.888,0.0
23.678,0.62,-0.903,0.0
21.079,0.547,-0.916,0.0
18.853,0.485,-0.919,0.0
37.888,0.964,-0.786,0.0
32.358,0.815,-0.843,1.0
28.208,0.704,-0.884,0.0
24.535,0.606,-0.901,0.0
21.882,0.535,-0.92,0.0
19.723,0.478,-0.934,0.0
0.0,0.0,0.0,0.0
0.0,0.0,0.0,0.0
28.796,0.676,-0.861,0.0
25.377,0.59,-0.896,0.0
22.504,0.517,-0.914,0.0
20.237,0.46,-0.929,0.0
40.504,0.912,-0.725,0.0
35.765,0.796,-0.829,0.0
31.154,0.686,-0.886,1.0
26.261,0.572,-0.889,0.0
23.054,0.497,-0.902,0.0
20.713,0.441,-0.92,0.0
0.0,0.0,0.0,0.0
37.22,0.776,-0.808,0.0
31.983,0.659,-0.862,1.0
27.497,0.559,-0.889,0.0
24.161,0.486,-0.909,0.0
21.393,0.425,-0.917,0.0
0.0,0.0,0.0,0.0
0.0,0.0,0.0,0.0
32.976,0.632,-0.839,1.0
28.799,0.545,-0.887,1.0
25.025,0.468,-0.902,0.0
20.106,0.371,-0.831,0.0
0.0,0.0,0.0,0.0
0.0,0.0,0.0,0.0
34.17,0.607,-0.816,2.0
29.909,0.524,-0.874,0.0
26.178,0.453,-0.903,0.0
22.87,0.39,-0.909,0.0
0.0,0.0,0.0,0.0
0.0,0.0,0.0,0.0
37.128,0.608,-0.827,0.0
31.634,0.511,-0.874,1.0
26.875,0.428,-0.884,0.0
23.813,0.374,-0.908,0.0
0.0,0.0,0.0,0.0
0.0,0.0,0.0,0.0
38.609,0.581,-0.798,0.0
20.184,0.299,-0.525,1.0
20.215,0.295,-0.632,9.0
20.217,0.291,-0.738,13.0
0.0,0.0,0.0,0.0
0.0,0.0,0.0,0.0
20.189,0.277,-0.383,9.0
20.176,0.272,-0.491,20.0
20.204,0.268,-0.597,27.0
20.211,0.263,-0.703,23.0
0.0,0.0,0.0,0.0
20.202,0.255,-0.244,8.0
20.19,0.25,-0.349,24.0
20.164,0.246,-0.457,19.0
20.191,0.242,-0.563,31.0
20.199,0.238,-0.669,34.0
0.0,0.0,0.0,0.0
20.182,0.229,-0.21,18.0
20.188,0.225,-0.315,27.0
20.175,0.22,-0.423,29.0
20.189,0.216,-0.528,32.0
20.197,0.212,-0.634,31.0
20.252,0.209,-0.07,1.0
20.184,0.204,-0.175,10.0
20.168,0.199,-0.28,28.0
20.175,0.195,-0.387,34.0
20.177,0.191,-0.493,26.0
20.2,0.187,-0.599,22.0
20.285,0.184,-0.034,23.0
20.204,0.179,-0.139,27.0
20.17,0.175,-0.245,31.0
20.186,0.171,-0.352,32.0
20.198,0.167,-0.458,25.0
20.194,0.163,-0.563,8.0
20.225,0.159,0.0,28.0
20.185,0.155,-0.104,30.0
20.17,0.151,-0.209,27.0
20.18,0.147,-0.316,29.0
