X,Y,Z,Reflectivity
6.97,-0.108,-0.948,0.0
8.699,-0.137,-0.937,0.0
8.259,-0.131,-0.937,0.0
7.882,-0.127,-0.939,0.0
7.531,-0.123,-0.941,0.0
7.217,-0.119,-0.943,0.0
6.958,-0.116,-0.949,0.0
8.66,-0.146,-0.936,0.0
8.233,-0.14,-0.937,0.0
7.874,-0.136,-0.941,0.0
7.52,-0.131,-0.943,0.0
7.193,-0.127,-0.943,0.0
6.944,-0.124,-0.95,0.0
8.637,-0.156,-0.937,0.0
8.201,-0.15,-0.936,0.0
7.828,-0.144,-0.938,0.0
7.497,-0.14,-0.942,0.0
7.23,-0.136,-0.95,0.0
6.927,-0.132,-0.95,0.0
8.61,-0.165,-0.937,0.0
8.171,-0.159,-0.936,0.0
7.818,-0.153,-0.94,0.0
7.475,-0.148,-0.942,0.0
7.19,-0.144,-0.947,0.0
6.907,-0.14,-0.949,0.0
8.587,-0.175,-0.937,0.0
8.151,-0.168,-0.936,0.0
7.783,-0.162,-0.938,0.0
7.432,-0.156,-0.938,0.0
7.22,-0.153,-0.953,0.0
6.898,-0.148,-0.95,0.0
8.562,-0.185,-0.936,0.0
8.133,-0.177,-0.935,0.0
7.773,-0.171,-0.938,0.0
7.463,-0.165,-0.944,0.0
7.154,-0.16,-0.946,0.0
6.872,-0.155,-0.947,0.0
8.577,-0.195,-0.939,0.0
8.13,-0.186,-0.936,0.0
7.756,-0.179,-0.937,0.0
7.418,-0.173,-0.939,0.0
7.158,-0.168,-0.947,0.0
6.894,-0.164,-0.952,0.0
8.541,-0.204,-0.936,0.0
8.11,-0.195,-0.935,0.0
7.756,-0.188,-0.938,0.0
7.416,-0.182,-0.94,0.0
7.125,-0.176,-0.943,0.0
6.848,-0.171,-0.946,0.0
8.548,-0.214,-0.938,0.0
8.13,-0.205,-0.938,0.0
7.747,-0.197,-0.938,0.0
7.392,-0.19,-0.937,0.0
7.13,-0.184,-0.944,0.0
6.864,-0.179,-0.948,0.0
8.541,-0.224,-0.938,0.0
8.104,-0.214,-0.935,0.0
7.756,-0.206,-0.939,0.0
7.441,-0.199,-0.944,0.0
7.111,-0.192,-0.942,0.0
6.87,-0.187,-0.949,0.0
8.531,-0.233,-0.936,0.0
8.109,-0.223,-0.936,0.0
7.751,-0.215,-0.938,0.0
7.443,-0.208,-0.944,0.0
7.131,-0.201,-0.945,0.0
6.866,-0.195,-0.948,0.0
8.542,-0.243,-0.937,0.0
8.109,-0.233,-0.935,0.0
7.748,-0.224,-0.937,0.0
7.383,-0.215,-0.936,0.0
7.143,-0.209,-0.945,0.0
6.87,-0.203,-0.948,0.0
8.541,-0.253,-0.936,0.0
8.163,-0.243,-0.941,0.0
7.774,-0.234,-0.94,0.0
7.422,-0.224,-0.939,0.0
7.166,-0.218,-0.948,0.0
6.903,-0.212,-0.952,0.0
8.582,-0.264,-0.94,0.0
8.165,-0.253,-0.94,0.0
7.762,-0.242,-0.937,0.0
7.442,-0.233,-0.941,0.0
7.166,-0.226,-0.946,0.0
6.89,-0.219,-0.949,0.0
8.599,-0.274,-0.94,0.0
8.159,-0.262,-0.937,0.0
7.795,-0.252,-0.939,0.0
7.478,-0.243,-0.944,0.0
7.203,-0.236,-0.95,0.0
6.939,-0.229,-0.954,0.0
8.619,-0.284,-0.94,0.0
8.193,-0.272,-0.939,0.0
7.801,-0.261,-0.938,0.0
7.475,-0.251,-0.942,0.0
7.213,-0.244,-0.949,0.0
6.904,-0.235,-0.947,0.0
8.636,-0.294,-0.939,0.0
8.192,-0.281,-0.937,0.0
7.836,-0.27,-0.94,0.0
7.465,-0.259,-0.938,0.0
7.228,-0.252,-0.949,0.0
6.912,-0.243,-0.946,0.0
8.648,-0.304,-0.938,0.0
8.223,-0.291,-0.938,0.0
7.829,-0.278,-0.936,0.0
7.495,-0.268,-0.939,0.0
7.226,-0.26,-0.946,0.0
6.963,-0.252,-0.951,0.0
8.687,-0.315,-0.939,0.0
8.263,-0.301,-0.939,0.0
7.89,-0.289,-0.941,0.0
7.548,-0.278,-0.943,0.0
7.265,-0.269,-0.948,0.0
6.973,-0.26,-0.949,0.0
8.712,-0.325,-0.938,0.0
8.276,-0.31,-0.937,0.0
7.896,-0.298,-0.938,0.0
7.562,-0.287,-0.941,0.0
7.239,-0.276,-0.941,0.0
6.991,-0.268,-0.948,0.0
8.757,-0.336,-0.939,0.0
8.324,-0.321,-0.939,0.0
7.929,-0.307,-0.938,0.0
7.625,-0.297,-0.945,0.0
7.323,-0.287,-0.949,0.0
7.033,-0.277,-0.951,0.0
8.821,-0.347,-0.941,0.0
8.367,-0.331,-0.939,0.0
7.956,-0.316,-0.937,0.0
7.625,-0.305,-0.941,0.0
7.353,-0.296,-0.949,0.0
7.066,-0.285,-0.951,0.0
8.867,-0.358,-0.942,0.0
8.425,-0.342,-0.941,0.0
8.01,-0.327,-0.939,0.0
7.644,-0.313,-0.94,0.0
7.378,-0.304,-0.948,0.0
7.061,-0.292,-0.946,0.0
8.924,-0.369,-0.943,0.0
8.476,-0.352,-0.942,0.0
8.045,-0.336,-0.938,0.0
7.708,-0.323,-0.943,0.0
7.397,-0.312,-0.946,0.0
7.094,-0.301,-0.946,0.0
8.996,-0.381,-0.944,0.0
8.504,-0.362,-0.94,0.0
8.097,-0.346,-0.939,0.0
7.762,-0.333,-0.944,0.0
7.398,-0.319,-0.941,0.0
7.135,-0.309,-0.947,0.0
9.071,-0.393,-0.946,0.0
8.582,-0.373,-0.942,0.0
8.162,-0.357,-0.941,0.0
7.784,-0.342,-0.941,0.0
7.449,-0.328,-0.942,0.0
7.179,-0.318,-0.948,0.0
9.149,-0.405,-0.948,0.0
8.632,-0.383,-0.942,0.0
8.205,-0.366,-0.94,0.0
7.824,-0.35,-0.941,0.0
7.52,-0.338,-0.945,0.0
7.225,-0.327,-0.948,0.0
9.214,-0.416,-0.948,0.0
8.715,-0.395,-0.944,0.0
8.236,-0.375,-0.938,0.0
7.878,-0.36,-0.941,0.0
7.537,-0.346,-0.942,0.0
7.289,-0.336,-0.951,0.0
9.292,-0.427,-0.949,0.0
8.782,-0.406,-0.945,0.0
8.329,-0.386,-0.941,0.0
7.971,-0.371,-0.946,0.0
7.618,-0.356,-0.946,0.0
7.294,-0.342,-0.946,0.0
9.369,-0.439,-0.949,0.0
8.854,-0.417,-0.945,0.0
8.365,-0.395,-0.938,0.0
7.981,-0.378,-0.94,0.0
7.658,-0.365,-0.944,0.0
7.353,-0.351,-0.947,0.0
9.485,-0.452,-0.952,0.0
8.937,-0.428,-0.946,0.0
8.452,-0.406,-0.941,0.0
8.054,-0.389,-0.941,0.0
7.723,-0.374,-0.945,0.0
7.413,-0.36,-0.948,0.0
9.577,-0.465,-0.953,0.0
9.047,-0.44,-0.949,0.0
8.514,-0.416,-0.94,0.0
8.1,-0.397,-0.939,0.0
7.791,-0.383,-0.946,0.0
7.45,-0.368,-0.945,0.0
9.669,-0.477,-0.953,0.0
9.104,-0.45,-0.947,0.0
8.619,-0.428,-0.943,0.0
8.174,-0.407,-0.94,0.0
7.835,-0.392,-0.944,0.0
7.498,-0.376,-0.944,0.0
9.795,-0.49,-0.956,0.0
9.236,-0.464,-0.951,0.0
8.718,-0.439,-0.945,0.0
8.256,-0.417,-0.941,0.0
7.901,-0.401,-0.944,0.0
7.562,-0.385,-0.945,0.0
9.874,-0.501,-0.953,0.0
9.33,-0.475,-0.951,0.0
8.816,-0.451,-0.947,0.0
8.368,-0.429,-0.945,0.0
7.971,-0.41,-0.944,0.0
7.653,-0.395,-0.948,0.0
9.96,-0.513,-0.951,0.0
9.44,-0.487,-0.953,0.0
8.916,-0.462,-0.948,0.0
8.457,-0.439,-0.946,0.0
8.016,-0.418,-0.94,0.0
7.72,-0.404,-0.948,0.0
10.102,-0.527,-0.954,0.0
9.548,-0.499,-0.953,0.0
9.016,-0.473,-0.949,0.0
8.529,-0.449,-0.945,0.0
8.11,-0.428,-0.942,0.0
7.785,-0.412,-0.947,0.0
10.263,-0.542,-0.958,0.0
9.649,-0.511,-0.952,0.0
9.122,-0.484,-0.95,0.0
8.618,-0.459,-0.945,0.0
8.192,-0.437,-0.942,0.0
7.841,-0.42,-0.945,0.0
10.396,-0.555,-0.958,0.0
9.799,-0.525,-0.956,0.0
9.239,-0.496,-0.951,0.0
8.762,-0.472,-0.95,0.0
8.305,-0.448,-0.945,0.0
7.918,-0.428,-0.944,0.0
10.478,-0.565,-0.953,0.0
9.909,-0.536,-0.955,0.0
9.341,-0.507,-0.95,0.0
8.843,-0.481,-0.948,0.0
8.402,-0.458,-0.946,0.0
7.981,-0.436,-0.942,0.0
10.637,-0.58,-0.955,0.0
9.995,-0.546,-0.951,0.0
9.499,-0.52,-0.955,0.0
8.945,-0.491,-0.948,0.0
8.479,-0.467,-0.944,0.0
8.089,-0.446,-0.945,0.0
10.809,-0.595,-0.957,0.0
10.176,-0.561,-0.955,0.0
9.663,-0.534,-0.959,0.0
9.097,-0.504,-0.953,0.0
8.622,-0.479,-0.949,0.0
8.174,-0.455,-0.944,0.0
10.917,-0.606,-0.953,0.0
10.324,-0.574,-0.956,0.0
9.757,-0.544,-0.956,0.0
9.237,-0.516,-0.955,0.0
8.727,-0.489,-0.949,0.0
8.302,-0.466,-0.948,0.0
11.139,-0.623,-0.957,0.0
10.487,-0.588,-0.957,0.0
9.893,-0.556,-0.956,0.0
9.362,-0.527,-0.956,0.0
8.822,-0.497,-0.948,0.0
8.394,-0.474,-0.947,0.0
11.318,-0.638,-0.958,0.0
10.603,-0.598,-0.954,0.0
10.028,-0.567,-0.956,0.0
9.503,-0.538,-0.957,0.0
8.982,-0.51,-0.953,0.0
8.497,-0.483,-0.947,0.0
11.529,-0.654,-0.96,0.0
10.737,-0.61,-0.951,0.0
10.193,-0.58,-0.957,0.0
9.621,-0.548,-0.956,0.0
9.144,-0.522,-0.958,0.0
8.614,-0.493,-0.948,0.0
11.737,-0.67,-0.961,0.0
11.011,-0.629,-0.96,0.0
10.363,-0.593,-0.959,0.0
9.763,-0.56,-0.956,0.0
9.248,-0.531,-0.955,0.0
8.755,-0.504,-0.951,0.0
11.953,-0.685,-0.962,0.0
11.109,-0.638,-0.953,0.0
10.502,-0.604,-0.956,0.0
9.949,-0.573,-0.96,0.0
9.411,-0.543,-0.959,0.0
8.898,-0.514,-0.954,0.0
12.272,-0.707,-0.97,0.0
11.415,-0.658,-0.963,0.0
10.627,-0.614,-0.953,0.0
10.105,-0.584,-0.961,0.0
9.569,-0.554,-0.961,0.0
9.029,-0.524,-0.955,0.0
12.472,-0.721,-0.967,0.0
11.608,-0.672,-0.962,0.0
10.798,-0.626,-0.952,0.0
10.228,-0.594,-0.957,0.0
9.699,-0.564,-0.959,0.0
9.176,-0.534,-0.956,0.0
12.687,-0.736,-0.965,0.0
11.849,-0.688,-0.964,0.0
11.043,-0.642,-0.957,0.0
10.444,-0.608,-0.962,0.0
9.848,-0.574,-0.959,0.0
9.34,-0.545,-0.959,0.0
12.976,-0.755,-0.968,0.0
12.121,-0.706,-0.968,0.0
11.277,-0.657,-0.96,0.0
10.551,-0.615,-0.955,0.0
10.011,-0.585,-0.96,0.0
9.479,-0.554,-0.959,0.0
24.528,-1.43,-1.792,0.0
12.401,-0.723,-0.971,0.0
11.511,-0.672,-0.962,0.0
10.676,-0.624,-0.95,0.0
10.16,-0.594,-0.958,0.0
9.667,-0.566,-0.963,0.0
13.576,-0.792,-0.971,0.0
12.603,-0.736,-0.968,0.0
11.759,-0.687,-0.965,0.0
11.027,-0.645,-0.964,0.0
10.387,-0.608,-0.963,0.0
9.823,-0.575,-0.963,0.0
13.762,-0.803,-0.963,0.0
12.873,-0.752,-0.968,0.0
11.957,-0.699,-0.962,0.0
11.156,-0.652,-0.958,0.0
10.56,-0.618,-0.963,0.0
9.97,-0.584,-0.962,0.0
14.115,-0.824,-0.965,0.0
13.08,-0.763,-0.963,0.0
12.322,-0.719,-0.972,0.0
11.45,-0.669,-0.965,0.0
10.696,-0.625,-0.958,0.0
10.119,-0.592,-0.96,0.0
14.751,-0.86,-0.985,0.0
24.536,-1.431,-1.768,0.0
12.545,-0.732,-0.97,0.0
11.66,-0.68,-0.964,0.0
10.964,-0.64,-0.964,0.0
10.351,-0.604,-0.965,0.0
14.879,-0.866,-0.97,1.0
13.81,-0.804,-0.973,0.0
12.775,-0.744,-0.967,0.0
11.843,-0.69,-0.96,0.0
11.14,-0.649,-0.962,0.0
10.515,-0.613,-0.963,0.0
14.931,-0.867,-0.949,1.0
14.119,-0.82,-0.972,0.0
13.068,-0.759,-0.968,0.0
12.263,-0.712,-0.974,0.0
11.427,-0.664,-0.968,0.0
10.63,-0.617,-0.956,0.0
14.944,-0.865,-0.925,1.0
14.706,-0.851,-0.988,0.0
24.475,-1.417,-1.772,0.0
12.486,-0.722,-0.971,0.0
11.661,-0.675,-0.968,0.0
10.941,-0.633,-0.966,0.0
14.963,-0.863,-0.902,1.0
14.875,-0.858,-0.974,1.0
13.711,-0.79,-0.97,0.0
12.687,-0.731,-0.965,0.0
11.886,-0.685,-0.967,0.0
11.125,-0.641,-0.964,0.0
14.974,-0.86,-0.878,1.0
14.94,-0.857,-0.954,1.0
14.146,-0.811,-0.977,0.0
12.959,-0.743,-0.965,0.0
12.208,-0.7,-0.973,0.0
11.355,-0.651,-0.964,0.0
15.019,-0.858,-0.855,0.0
14.984,-0.855,-0.932,1.0
14.728,-0.84,-0.993,0.0
24.547,-1.4,-1.786,0.0
12.442,-0.709,-0.97,0.0
11.621,-0.662,-0.967,0.0
15.394,-0.874,-0.851,0.0
14.984,-0.85,-0.906,1.0
14.889,-0.844,-0.979,1.0
24.653,-1.397,-1.752,0.0
12.712,-0.72,-0.97,0.0
11.879,-0.672,-0.969,0.0
15.617,-0.88,-0.837,1.0
15.007,-0.845,-0.882,1.0
14.959,-0.842,-0.958,1.0
14.774,-0.831,-1.025,0.0
13.016,-0.731,-0.971,0.0
12.168,-0.683,-0.971,0.0
15.879,-0.889,-0.824,1.0
15.085,-0.843,-0.861,0.0
15.034,-0.839,-0.937,2.0
14.709,-0.82,-0.995,0.0
13.315,-0.742,-0.97,0.0
12.446,-0.693,-0.972,0.0
16.317,-0.905,-0.819,1.0
15.384,-0.852,-0.852,0.0
15.032,-0.832,-0.911,1.0
14.868,-0.822,-0.98,2.0
13.613,-0.752,-0.969,0.0
12.713,-0.701,-0.971,0.0
16.72,-0.919,-0.81,1.0
15.64,-0.859,-0.839,1.0
15.077,-0.827,-0.888,1.0
14.947,-0.818,-0.96,2.0
13.953,-0.763,-0.969,0.0
12.996,-0.71,-0.97,0.0
17.189,-0.935,-0.803,0.0
15.934,-0.866,-0.828,1.0
15.149,-0.822,-0.866,0.0
15.084,-0.817,-0.943,1.0
14.47,-0.783,-0.98,0.0
13.283,-0.718,-0.969,0.0
17.782,-0.957,-0.801,0.0
16.309,-0.876,-0.819,1.0
15.346,-0.823,-0.851,0.0
15.113,-0.809,-0.919,1.0
14.863,-0.795,-0.981,1.0
13.623,-0.727,-0.97,0.0
18.406,-0.979,-0.797,0.0
16.709,-0.887,-0.811,1.0
15.687,-0.831,-0.843,0.0
15.164,-0.802,-0.896,1.0
14.998,-0.792,-0.964,1.0
13.931,-0.734,-0.968,0.0
19.144,-1.005,-0.797,0.0
17.286,-0.906,-0.809,1.0
15.958,-0.835,-0.83,0.0
15.209,-0.794,-0.872,1.0
15.195,-0.792,-0.951,0.0
14.48,-0.753,-0.982,0.0
19.757,-1.023,-0.788,0.0
17.836,-0.922,-0.804,0.0
16.354,-0.843,-0.823,1.0
15.352,-0.79,-0.854,0.0
15.218,-0.781,-0.926,0.0
14.759,-0.756,-0.975,0.0
20.609,-1.052,-0.787,0.0
18.48,-0.941,-0.802,0.0
16.695,-0.848,-0.811,1.0
15.734,-0.797,-0.848,0.0
15.265,-0.772,-0.903,1.0
15.266,-0.77,-0.982,0.0
21.429,-1.076,-0.781,1.0
19.074,-0.956,-0.795,0.0
17.249,-0.862,-0.809,0.0
15.962,-0.795,-0.833,1.0
15.33,-0.762,-0.88,1.0
15.299,-0.759,-0.958,1.0
22.14,-1.094,-0.77,2.0
19.885,-0.98,-0.795,0.0
17.926,-0.881,-0.81,0.0
16.308,-0.799,-0.823,1.0
15.427,-0.753,-0.859,1.0
15.372,-0.749,-0.937,1.0
23.5,-1.14,-0.777,5.0
20.673,-1.0,-0.791,0.0
18.463,-0.89,-0.803,1.0
16.722,-0.804,-0.816,0.0
15.681,-0.751,-0.847,0.0
15.407,-0.736,-0.913,1.0
23.833,-1.135,-0.748,15.0
21.469,-1.018,-0.786,2.0
19.175,-0.907,-0.801,0.0
17.256,-0.813,-0.813,1.0
16.072,-0.755,-0.841,1.0
15.44,-0.723,-0.888,1.0
24.125,-1.125,-0.717,16.0
22.204,-1.032,-0.775,2.0
19.848,-0.919,-0.796,0.0
17.845,-0.823,-0.81,0.0
16.277,-0.748,-0.824,1.0
15.549,-0.712,-0.869,1.0
24.628,-1.124,-0.69,4.0
23.64,-1.075,-0.785,5.0
20.576,-0.932,-0.791,0.0
18.422,-0.831,-0.806,0.0
16.769,-0.754,-0.821,1.0
15.694,-0.703,-0.85,0.0
28.399,-1.266,-0.748,7.0
23.823,-1.058,-0.752,16.0
21.741,-0.962,-0.799,1.0
19.184,-0.845,-0.807,0.0
17.295,-0.759,-0.818,0.0
16.171,-0.707,-0.849,1.0
28.46,-1.238,-0.703,56.0
24.21,-1.049,-0.724,18.0
22.17,-0.957,-0.779,2.0
19.825,-0.852,-0.802,0.0
17.874,-0.765,-0.816,0.0
16.371,-0.697,-0.833,2.0
28.462,-1.207,-0.656,131.0
25.158,-1.062,-0.711,6.0
23.673,-0.995,-0.792,5.0
20.589,-0.861,-0.798,2.0
18.407,-0.766,-0.81,0.0
16.791,-0.696,-0.826,3.0
28.453,-1.173,-0.609,129.0
28.374,-1.164,-0.755,34.0
23.814,-0.972,-0.758,18.0
21.331,-0.867,-0.792,1.0
19.124,-0.773,-0.81,0.0
17.204,-0.692,-0.819,1.0
28.454,-1.139,-0.563,67.0
28.47,-1.134,-0.712,55.0
24.345,-0.965,-0.736,15.0
22.14,-0.873,-0.787,2.0
19.832,-0.778,-0.808,0.0
17.756,-0.693,-0.817,1.0
28.462,-1.105,-0.518,25.0
30.485,-1.177,-0.714,18.0
25.146,-0.966,-0.72,5.0
23.428,-0.895,-0.795,5.0
20.499,-0.778,-0.803,2.0
18.34,-0.692,-0.814,1.0
31.281,-1.175,-0.519,42.0
30.57,-1.141,-0.667,36.0
27.917,-1.036,-0.755,0.0
23.79,-0.877,-0.769,16.0
21.241,-0.779,-0.798,0.0
18.821,-0.686,-0.806,2.0
38.216,-1.385,-0.574,12.0
30.791,-1.109,-0.623,28.0
29.787,-1.066,-0.759,1.0
24.283,-0.864,-0.748,24.0
22.181,-0.784,-0.799,1.0
19.446,-0.683,-0.802,0.0
44.928,-1.569,-0.605,3.0
31.229,-1.083,-0.584,28.0
30.443,-1.049,-0.728,17.0
25.132,-0.86,-0.735,6.0
22.761,-0.774,-0.785,7.0
20.354,-0.687,-0.808,0.0
38.687,-1.298,-0.461,22.0
37.992,-1.266,-0.652,6.0
30.534,-1.01,-0.683,32.0
27.555,-0.905,-0.764,1.0
23.767,-0.775,-0.783,14.0
21.114,-0.683,-0.806,0.0
38.66,-1.242,-0.402,38.0
38.129,-1.216,-0.596,13.0
30.774,-0.974,-0.642,28.0
28.59,-0.898,-0.749,1.0
23.956,-0.747,-0.753,20.0
21.865,-0.676,-0.802,0.0
38.65,-1.187,-0.344,62.0
38.453,-1.171,-0.543,22.0
31.161,-0.941,-0.603,26.0
30.309,-0.908,-0.749,10.0
24.74,-0.735,-0.741,12.0
22.529,-0.663,-0.793,1.0
38.675,-1.13,-0.286,87.0
38.619,-1.119,-0.489,36.0
37.819,-1.086,-0.677,10.0
30.476,-0.867,-0.708,26.0
27.314,-0.77,-0.778,1.0
23.714,-0.663,-0.8,10.0
38.663,-1.072,-0.23,66.0
38.672,-1.061,-0.433,37.0
38.031,-1.034,-0.625,19.0
30.626,-0.825,-0.667,32.0
28.441,-0.758,-0.769,1.0
23.812,-0.629,-0.769,18.0
38.714,-1.014,-0.174,39.0
38.727,-1.004,-0.378,38.0
38.345,-0.984,-0.576,13.0
31.065,-0.789,-0.633,29.0
30.082,-0.756,-0.771,8.0
24.522,-0.61,-0.757,13.0
0.0,0.0,0.0,0.0
40.385,-0.984,-0.338,34.0
38.573,-0.93,-0.526,20.0
31.494,-0.75,-0.598,8.0
30.422,-0.716,-0.737,24.0
25.347,-0.59,-0.747,5.0
40.415,-0.931,-0.07,40.0
40.407,-0.92,-0.282,40.0
40.418,-0.909,-0.494,30.0
37.918,-0.842,-0.667,14.0
30.603,-0.671,-0.699,32.0
27.699,-0.6,-0.779,0.0
38.372,-0.821,-0.013,48.0
38.373,-0.81,-0.215,52.0
38.364,-0.799,-0.417,35.0
38.137,-0.784,-0.619,13.0
30.984,-0.628,-0.666,29.0
28.78,-0.575,-0.771,7.0
52.952,-1.046,0.051,63.0
52.948,-1.031,-0.227,34.0
45.529,-0.873,-0.435,19.0
38.541,-0.728,-0.575,11.0
31.503,-0.586,-0.636,8.0
29.595,-0.542,-0.754,10.0
20.143,-0.364,0.045,9.0
20.118,-0.358,-0.06,13.0
52.924,-0.927,-0.437,49.0
44.885,-0.772,-0.612,21.0
0.0,0.0,0.0,0.0
30.4,-0.506,-0.736,25.0
20.146,-0.33,0.071,45.0
20.121,-0.323,-0.034,19.0
59.373,-0.938,-0.415,14.0
45.036,-0.699,-0.557,20.0
37.979,-0.578,-0.671,22.0
30.971,-0.462,-0.711,29.0
20.133,-0.295,0.096,13.0
59.528,-0.856,-0.028,30.0
59.466,-0.837,-0.342,2.0
52.551,-0.724,-0.585,5.0
38.262,-0.516,-0.629,15.0
31.916,-0.421,-0.693,15.0
20.154,-0.26,0.121,6.0
59.564,-0.752,0.043,54.0
56.236,-0.693,-0.255,0.0
52.865,-0.636,-0.525,13.0
39.103,-0.458,-0.596,3.0
35.893,-0.41,-0.737,3.0
64.384,-0.718,0.464,4.0
56.207,-0.61,0.108,2.0
56.219,-0.593,-0.189,12.0
58.768,-0.603,-0.516,7.0
44.89,-0.447,-0.632,25.0
20.182,-0.194,-0.391,17.0
53.383,-0.5,0.447,13.0
53.36,-0.483,0.164,10.0
53.334,-0.467,-0.118,11.0
20.175,-0.17,-0.153,8.0
20.158,-0.163,-0.26,25.0
20.159,-0.157,-0.367,30.0
20.204,-0.152,0.192,17.0
20.159,-0.145,0.085,14.0
20.172,-0.139,-0.022,24.0
20.13,-0.133,-0.13,20.0
20.147,-0.126,-0.237,24.0
20.144,-0.12,-0.344,39.0
20.138,-0.114,0.214,22.0
20.14,-0.108,0.107,27.0
20.125,-0.102,0.0,30.0
20.144,-0.095,-0.109,27.0
20.165,-0.089,-0.216,25.0
20.137,-0.083,-0.323,33.0
20.117,-0.077,0.235,28.0
20.119,-0.07,0.128,31.0
20.125,-0.064,0.021,34.0
20.134,-0.058,-0.087,34.0
20.155,-0.052,-0.195,28.0
20.169,-0.045,-0.302,25.0
20.111,-0.039,0.256,28.0
20.119,-0.032,0.149,31.0
20.135,-0.026,0.042,34.0
20.179,-0.02,-0.067,22.0
20.175,-0.014,-0.175,12.0
20.225,-0.007,-0.283,7.0
20.125,-0.001,0.276,29.0
20.122,0.005,0.169,28.0
20.168,0.011,0.062,35.0
20.25,0.018,-0.047,151.0
20.257,0.024,-0.155,151.0
20.262,0.031,-0.263,84.0
20.139,0.037,0.296,31.0
20.138,0.044,0.189,28.0
20.164,0.05,0.081,24.0
20.209,0.057,-0.027,32.0
20.206,0.063,-0.136,26.0
20.214,0.07,-0.244,7.0
20.157,0.076,0.316,28.0
20.157,0.082,0.208,28.0
20.179,0.089,0.1,26.0
20.18,0.096,-0.009,27.0
20.175,0.102,-0.117,36.0
20.176,0.109,-0.225,26.0
20.163,0.115,0.334,29.0
20.165,0.122,0.226,25.0
20.184,0.129,0.118,26.0
20.183,0.135,0.008,26.0
20.179,0.141,-0.099,27.0
20.169,0.148,-0.207,25.0
20.187,0.155,0.352,25.0
20.243,0.162,0.244,26.0
20.268,0.169,0.136,25.0
20.313,0.176,0.025,30.0
20.234,0.182,-0.082,10.0
20.177,0.188,-0.19,13.0
20.276,0.196,0.371,35.0
20.281,0.202,0.262,27.0
20.303,0.209,0.153,27.0
20.321,0.216,0.042,15.0
0.0,0.0,0.0,0.0
20.202,0.228,-0.174,1.0
20.282,0.236,0.387,28.0
20.283,0.243,0.278,20.0
20.308,0.249,0.169,1.0
99.632,1.259,0.285,6.0
0.0,0.0,0.0,0.0
0.0,0.0,0.0,0.0
20.31,0.277,0.403,1.0
194.967,2.73,2.824,21.0
0.0,0.0,0.0,0.0
99.672,1.46,0.36,5.0
101.541,1.521,-0.179,1.0
0.0,0.0,0.0,0.0
196.263,3.081,4.044,25.0
194.755,3.12,2.962,30.0
0.0,0.0,0.0,0.0
99.749,1.663,0.431,5.0
99.916,1.697,-0.106,5.0
0.0,0.0,0.0,0.0
194.675,3.45,4.146,6.0
194.651,3.515,3.096,18.0
103.173,1.895,1.083,14.0
99.885,1.868,0.499,5.0
99.987,1.903,-0.039,1.0
0.0,0.0,0.0,0.0
194.365,3.839,4.267,13.0
195.451,3.925,3.235,9.0
103.219,2.107,1.15,7.0
100.038,2.075,0.564,3.0
100.038,2.108,0.023,18.0
0.0,0.0,0.0,0.0
194.292,4.236,4.387,24.0
194.197,4.294,3.333,21.0
103.397,2.32,1.215,1.0
102.925,2.341,0.641,3.0
100.128,2.311,0.082,18.0
0.0,0.0,0.0,0.0
194.21,4.626,4.497,24.0
193.645,4.675,3.434,28.0
195.073,4.774,2.402,7.0
103.031,2.555,0.7,8.0
100.245,2.518,0.137,1.0
0.0,0.0,0.0,0.0
193.93,5.014,4.595,27.0
193.49,5.066,3.535,34.0
195.322,5.177,2.508,27.0
103.061,2.763,0.753,5.0
103.17,2.801,0.194,2.0
0.0,0.0,0.0,0.0
193.898,5.41,4.693,28.0
193.444,5.461,3.631,32.0
195.498,5.581,2.607,27.0
195.871,5.655,1.527,21.0
196.238,5.73,0.463,13.0
0.0,0.0,0.0,0.0
193.968,5.813,4.787,24.0
194.078,5.879,3.732,15.0
195.477,5.983,2.695,7.0
196.113,6.065,1.617,15.0
196.259,6.13,0.549,20.0
0.0,0.0,0.0,0.0
193.844,6.205,4.867,6.0
195.283,6.313,3.838,18.0
195.152,6.369,2.772,14.0
196.328,6.469,1.698,7.0
196.412,6.535,0.628,24.0
0.0,0.0,0.0,0.0
195.437,6.658,4.983,8.0
195.218,6.709,3.911,22.0
196.075,6.803,2.859,17.0
202.813,7.103,1.83,23.0
196.521,6.947,0.701,24.0
0.0,0.0,0.0,0.0
195.585,7.066,5.056,8.0
200.32,7.302,4.084,10.0
196.051,7.21,2.926,7.0
203.14,7.532,1.901,11.0
195.147,7.297,0.76,19.0
0.0,0.0,0.0,0.0
195.204,7.453,5.108,13.0
0.0,0.0,0.0,0.0
0.0,0.0,0.0,0.0
199.349,7.797,1.924,22.0
196.644,7.755,0.822,37.0
0.0,0.0,0.0,0.0
193.821,7.801,5.127,23.0
195.502,7.927,4.099,6.0
196.799,8.042,3.048,6.0
0.0,0.0,0.0,0.0
196.697,8.162,0.872,34.0
0.0,0.0,0.0,0.0
194.109,8.211,5.18,12.0
195.429,8.329,4.144,6.0
196.016,8.414,3.081,36.0
195.504,8.452,1.98,35.0
195.538,8.514,0.908,46.0
0.0,0.0,0.0,0.0
193.911,8.598,5.214,19.0
195.663,8.737,4.186,6.0
204.947,9.214,3.259,23.0
0.0,0.0,0.0,0.0
197.023,8.979,0.948,33.0
0.0,0.0,0.0,0.0
195.723,9.081,5.295,5.0
0.0,0.0,0.0,0.0
200.161,9.409,3.212,9.0
0.0,0.0,0.0,0.0
197.096,9.387,0.976,29.0
0.0,0.0,0.0,0.0
193.997,9.394,5.272,19.0
0.0,0.0,0.0,0.0
197.836,9.702,3.197,6.0
197.762,9.759,2.087,23.0
197.231,9.793,0.994,30.0
0.0,0.0,0.0,0.0
194.009,9.792,5.289,19.0
0.0,0.0,0.0,0.0
0.0,0.0,0.0,0.0
206.459,10.606,2.192,6.0
197.175,10.19,1.006,22.0
0.0,0.0,0.0,0.0
197.519,10.368,5.393,5.0
196.571,10.375,4.283,6.0
0.0,0.0,0.0,0.0
206.898,11.044,2.201,10.0
197.406,10.596,1.011,5.0
0.0,0.0,0.0,0.0
196.064,10.681,5.356,40.0
196.1,10.74,4.273,54.0
196.015,10.792,3.186,16.0
196.018,10.851,2.083,15.0
197.124,10.97,1.006,11.0
0.0,0.0,0.0,0.0
194.861,11.003,5.317,5.0
198.119,11.245,4.309,8.0
0.0,0.0,0.0,0.0
208.991,11.985,2.21,8.0
197.423,11.379,0.995,31.0
0.0,0.0,0.0,0.0
0.0,0.0,0.0,0.0
0.0,0.0,0.0,0.0
202.431,11.948,3.266,6.0
208.042,12.341,2.183,10.0
197.543,11.775,0.977,24.0
0.0,0.0,0.0,0.0
0.0,0.0,0.0,0.0
0.0,0.0,0.0,0.0
0.0,0.0,0.0,0.0
0.0,0.0,0.0,0.0
155.429,9.569,0.749,150.0
0.0,0.0,0.0,0.0
0.0,0.0,0.0,0.0
198.154,12.417,4.243,7.0
0.0,0.0,0.0,0.0
0.0,0.0,0.0,0.0
154.998,9.842,0.721,7.0
0.0,0.0,0.0,0.0
174.07,11.194,4.663,19.0
0.0,0.0,0.0,0.0
0.0,0.0,0.0,0.0
0.0,0.0,0.0,0.0
154.943,10.133,0.689,151.0
0.0,0.0,0.0,0.0
178.299,11.806,4.738,5.0
173.677,11.548,3.649,7.0
0.0,0.0,0.0,0.0
0.0,0.0,0.0,0.0
154.957,10.43,0.651,151.0
0.0,0.0,0.0,0.0
168.018,11.447,4.423,7.0
210.293,14.384,4.364,11.0
210.297,14.44,3.19,14.0
0.0,0.0,0.0,0.0
155.0,10.729,0.608,16.0
0.0,0.0,0.0,0.0
162.826,11.402,4.238,9.0
174.142,12.241,3.561,12.0
0.0,0.0,0.0,0.0
0.0,0.0,0.0,0.0
140.642,10.001,0.507,152.0
0.0,0.0,0.0,0.0
162.025,11.652,4.164,22.0
173.203,12.501,3.484,8.0
173.41,12.559,2.519,18.0
0.0,0.0,0.0,0.0
140.545,10.253,0.458,150.0
0.0,0.0,0.0,0.0
155.766,11.489,3.947,16.0
168.018,12.436,3.317,18.0
168.235,12.494,2.382,33.0
0.0,0.0,0.0,0.0
0.0,0.0,0.0,0.0
0.0,0.0,0.0,0.0
155.695,11.769,3.884,12.0
162.018,12.288,3.134,15.0
168.274,12.803,2.313,4.0
0.0,0.0,0.0,0.0
114.078,8.739,0.279,150.0
0.0,0.0,0.0,0.0
155.613,12.042,3.815,32.0
156.007,12.111,2.95,31.0
162.191,12.632,2.158,16.0
114.258,8.926,0.868,3.0
114.014,8.935,0.228,40.0
0.0,0.0,0.0,0.0
194.816,15.423,4.686,20.0
155.989,12.386,2.876,41.0
156.037,12.428,2.001,16.0
113.983,9.107,0.811,9.0
110.173,8.831,0.166,1.0
0.0,0.0,0.0,0.0
156.025,12.626,3.674,28.0
196.431,15.942,3.523,18.0
0.0,0.0,0.0,0.0
110.455,9.016,0.729,23.0
108.744,8.904,0.107,2.0
0.0,0.0,0.0,0.0
0.0,0.0,0.0,0.0
202.84,16.81,3.529,16.0
129.271,10.743,1.522,5.0
108.8,9.065,0.659,2.0
107.99,9.024,0.047,9.0
0.0,0.0,0.0,0.0
197.168,16.628,4.43,7.0
199.651,16.884,3.359,10.0
128.891,10.928,1.444,6.0
107.79,9.165,0.59,10.0
107.714,9.182,-0.015,22.0
0.0,0.0,0.0,0.0
152.875,13.15,3.342,3.0
153.538,13.241,2.492,12.0
128.944,11.147,1.366,14.0
107.676,9.332,0.524,22.0
107.602,9.35,-0.081,21.0
0.0,0.0,0.0,0.0
152.581,13.372,3.241,27.0
153.411,13.479,2.394,21.0
129.196,11.378,1.288,4.0
107.632,9.503,0.455,8.0
100.789,8.921,-0.14,1.0
68.959,6.12,-0.485,2.0
152.429,13.604,3.138,30.0
152.637,13.655,2.281,24.0
108.776,9.753,1.012,2.0
0.0,0.0,0.0,0.0
0.0,0.0,0.0,0.0
68.889,6.221,-0.531,2.0
152.089,13.811,3.028,28.0
151.973,13.833,2.168,27.0
0.0,0.0,0.0,0.0
92.832,8.488,0.266,4.0
0.0,0.0,0.0,0.0
68.797,6.32,-0.579,0.0
151.474,13.991,2.907,24.0
151.644,14.036,2.054,22.0
0.0,0.0,0.0,0.0
92.844,8.632,0.198,112.0
92.919,8.658,-0.326,3.0
0.0,0.0,0.0,0.0
151.27,14.202,2.792,29.0
151.574,14.259,1.939,26.0
0.0,0.0,0.0,0.0
92.462,8.736,0.127,4.0
0.0,0.0,0.0,0.0
0.0,0.0,0.0,0.0
151.223,14.422,2.673,29.0
151.228,14.452,1.817,13.0
0.0,0.0,0.0,0.0
92.377,8.863,0.055,3.0
0.0,0.0,0.0,0.0
0.0,0.0,0.0,0.0
151.047,14.627,2.549,19.0
0.0,0.0,0.0,0.0
0.0,0.0,0.0,0.0
0.0,0.0,0.0,0.0
0.0,0.0,0.0,0.0
0.0,0.0,0.0,0.0
121.586,11.945,1.952,72.0
0.0,0.0,0.0,0.0
0.0,0.0,0.0,0.0
0.0,0.0,0.0,0.0
0.0,0.0,0.0,0.0
0.0,0.0,0.0,0.0
121.634,12.117,1.849,28.0
0.0,0.0,0.0,0.0
0.0,0.0,0.0,0.0
0.0,0.0,0.0,0.0
0.0,0.0,0.0,0.0
0.0,0.0,0.0,0.0
150.592,15.203,2.159,16.0
0.0,0.0,0.0,0.0
0.0,0.0,0.0,0.0
82.471,8.367,-0.229,2.0
0.0,0.0,0.0,0.0
0.0,0.0,0.0,0.0
150.686,15.407,2.027,15.0
0.0,0.0,0.0,0.0
0.0,0.0,0.0,0.0
82.544,8.481,-0.304,1.0
0.0,0.0,0.0,0.0
0.0,0.0,0.0,0.0
115.6,11.967,1.448,10.0
0.0,0.0,0.0,0.0
0.0,0.0,0.0,0.0
0.0,0.0,0.0,0.0
0.0,0.0,0.0,0.0
0.0,0.0,0.0,0.0
0.0,0.0,0.0,0.0
82.11,8.613,0.484,3.0
82.026,8.617,0.017,1.0
0.0,0.0,0.0,0.0
0.0,0.0,0.0,0.0
0.0,0.0,0.0,0.0
0.0,0.0,0.0,0.0
82.183,8.718,0.405,3.0
82.053,8.717,-0.061,150.0
0.0,0.0,0.0,0.0
0.0,0.0,0.0,0.0
0.0,0.0,0.0,0.0
0.0,0.0,0.0,0.0
82.111,8.804,0.324,5.0
77.847,8.359,-0.135,4.0
0.0,0.0,0.0,0.0
0.0,0.0,0.0,0.0
39.796,4.291,-0.753,0.0
82.065,8.88,0.708,1.0
77.142,8.357,0.226,8.0
77.046,8.357,-0.212,8.0
0.0,0.0,0.0,0.0
0.0,0.0,0.0,0.0
37.978,4.136,-0.758,0.0
82.118,8.973,0.626,4.0
76.36,8.354,0.146,9.0
76.571,8.388,-0.289,6.0
0.0,0.0,0.0,0.0
0.0,0.0,0.0,0.0
36.989,4.067,-0.776,0.0
76.887,8.481,0.505,1.0
75.702,8.36,0.066,8.0
0.0,0.0,0.0,0.0
0.0,0.0,0.0,0.0
42.891,4.754,-0.701,0.0
35.486,3.938,-0.782,0.0
75.514,8.405,0.416,16.0
75.475,8.409,-0.014,8.0
75.265,8.395,-0.442,4.0
0.0,0.0,0.0,0.0
41.235,4.61,-0.718,0.0
34.393,3.85,-0.795,0.0
75.025,8.421,0.333,6.0
74.852,8.41,-0.093,13.0
68.928,7.753,-0.479,2.0
0.0,0.0,0.0,0.0
40.976,4.619,-0.757,0.0
32.788,3.7,-0.793,0.0
74.686,8.451,0.252,18.0
74.693,8.46,-0.174,21.0
69.003,7.823,-0.556,0.0
0.0,0.0,0.0,0.0
38.118,4.331,-0.746,0.0
32.112,3.652,-0.812,0.0
74.618,8.507,0.169,122.0
0.0,0.0,0.0,0.0
0.0,0.0,0.0,0.0
0.0,0.0,0.0,0.0
37.116,4.248,-0.768,0.0
30.876,3.538,-0.815,0.0
0.0,0.0,0.0,0.0
71.535,8.221,-0.325,1.0
0.0,0.0,0.0,0.0
42.336,4.874,-0.681,0.0
35.769,4.122,-0.78,0.0
30.419,3.509,-0.837,0.0
0.0,0.0,0.0,0.0
71.621,8.286,-0.407,0.0
0.0,0.0,0.0,0.0
41.606,4.822,-0.717,1.0
34.355,3.986,-0.788,0.0
28.998,3.367,-0.831,0.0
0.0,0.0,0.0,0.0
0.0,0.0,0.0,0.0
0.0,0.0,0.0,0.0
40.53,4.726,-0.745,0.0
33.306,3.888,-0.803,1.0
28.1,3.283,-0.838,0.0
0.0,0.0,0.0,0.0
68.97,8.077,-0.551,2.0
0.0,0.0,0.0,0.0
38.291,4.491,-0.748,0.0
31.94,3.749,-0.807,0.0
27.404,3.22,-0.849,0.0
0.0,0.0,0.0,0.0
0.0,0.0,0.0,0.0
45.604,5.374,-0.678,0.0
36.914,4.353,-0.764,0.0
31.019,3.661,-0.819,0.0
26.635,3.146,-0.856,0.0
0.0,0.0,0.0,0.0
0.0,0.0,0.0,0.0
0.0,0.0,0.0,0.0
36.049,4.272,-0.788,0.0
30.04,3.562,-0.828,0.0
25.947,3.079,-0.864,0.0
69.176,8.219,-0.398,0.0
0.0,0.0,0.0,0.0
40.784,4.852,-0.701,0.0
34.707,4.131,-0.799,0.0
29.012,3.456,-0.835,0.0
24.974,2.977,-0.861,0.0
68.945,8.227,-0.477,4.0
0.0,0.0,0.0,0.0
40.345,4.819,-0.741,0.0
32.836,3.925,-0.794,1.0
28.149,3.366,-0.843,0.0
24.318,2.91,-0.868,0.0
68.922,8.256,-0.558,2.0
0.0,0.0,0.0,0.0
38.133,4.572,-0.745,0.0
32.048,3.845,-0.813,0.0
27.318,3.279,-0.85,0.0
23.711,2.848,-0.874,0.0
0.0,0.0,0.0,0.0
0.0,0.0,0.0,0.0
37.032,4.455,-0.768,0.0
30.741,3.7,-0.817,0.0
26.633,3.207,-0.86,0.0
23.188,2.794,-0.882,0.0
0.0,0.0,0.0,0.0
0.0,0.0,0.0,0.0
35.471,4.28,-0.778,0.0
29.806,3.598,-0.827,0.0
25.622,3.094,-0.858,0.0
21.873,2.643,-0.858,0.0
0.0,0.0,0.0,0.0
40.527,4.901,-0.704,0.0
33.173,4.013,-0.766,0.0
28.891,3.496,-0.836,0.0
24.77,2.999,-0.859,0.0
21.822,2.643,-0.882,1.0
68.807,8.337,-0.883,2.0
39.693,4.81,-0.737,0.0
32.586,3.95,-0.791,1.0
27.887,3.382,-0.84,0.0
24.07,2.92,-0.863,0.0
21.715,2.636,-0.904,0.0
68.682,8.337,-0.963,2.0
37.504,4.553,-0.74,0.0
31.857,3.869,-0.811,0.0
27.244,3.31,-0.853,0.0
23.615,2.87,-0.875,0.0
20.837,2.533,-0.892,0.0
0.0,0.0,0.0,0.0
37.024,4.502,-0.774,0.0
30.622,3.724,-0.816,0.0
26.083,3.173,-0.847,0.0
23.225,2.826,-0.888,0.0
20.427,2.487,-0.898,0.0
0.0,0.0,0.0,0.0
0.0,0.0,0.0,0.0
29.847,3.634,-0.83,0.0
25.332,3.085,-0.853,0.0
21.87,2.664,-0.862,0.0
20.213,2.463,-0.913,0.0
39.902,4.86,-0.699,0.0
32.955,4.014,-0.767,0.0
28.8,3.508,-0.835,0.0
24.589,2.996,-0.857,0.0
21.773,2.654,-0.884,1.0
0.0,0.0,0.0,0.0
39.406,4.801,-0.737,0.0
32.363,3.943,-0.791,0.0
27.839,3.392,-0.84,0.0
23.955,2.92,-0.863,0.0
21.707,2.646,-0.906,0.0
18.98,2.314,-0.901,0.0
37.635,4.585,-0.748,0.0
31.718,3.864,-0.812,1.0
27.028,3.293,-0.847,0.0
23.547,2.869,-0.875,0.0
20.643,2.516,-0.886,0.0
18.482,2.253,-0.899,0.0
0.0,0.0,0.0,0.0
30.527,3.718,-0.817,0.0
26.076,3.176,-0.847,0.0
22.066,2.687,-0.846,0.0
20.342,2.478,-0.896,0.0
18.186,2.215,-0.906,0.0
34.87,4.243,-0.773,0.0
29.615,3.604,-0.826,0.0
25.526,3.106,-0.859,0.0
21.855,2.659,-0.863,0.0
20.088,2.445,-0.908,0.0
17.999,2.191,-0.917,0.0
32.736,3.979,-0.763,0.0
28.584,3.474,-0.83,0.0
24.611,2.991,-0.856,0.0
21.782,2.647,-0.885,1.0
0.0,0.0,0.0,0.0
17.45,2.121,-0.909,0.0
32.4,3.932,-0.792,0.0
27.868,3.382,-0.841,0.0
24.112,2.926,-0.866,0.0
21.636,2.625,-0.903,0.0
18.961,2.3,-0.901,0.0
17.196,2.086,-0.915,0.0
31.213,3.781,-0.798,0.0
27.018,3.272,-0.845,0.0
23.618,2.86,-0.874,0.0
20.612,2.496,-0.883,0.0
18.462,2.235,-0.897,0.0
16.906,2.047,-0.919,0.0
30.567,3.694,-0.815,0.0
26.127,3.157,-0.846,0.0
23.173,2.799,-0.884,0.0
20.353,2.458,-0.895,0.0
18.197,2.198,-0.904,0.0
16.515,1.994,-0.916,0.0
29.465,3.552,-0.818,0.0
25.471,3.069,-0.853,0.0
21.834,2.63,-0.856,0.0
20.323,2.448,-0.915,0.0
18.056,2.175,-0.917,0.0
16.32,1.965,-0.922,1.0
28.669,3.445,-0.827,0.0
24.757,2.974,-0.855,0.0
21.792,2.617,-0.878,0.0
19.599,2.353,-0.904,0.0
17.5,2.101,-0.907,0.0
16.131,1.936,-0.929,0.0
27.853,3.336,-0.833,0.0
24.27,2.906,-0.864,0.0
21.726,2.6,-0.898,0.0
19.102,2.286,-0.901,0.0
17.237,2.062,-0.912,0.0
15.764,1.885,-0.925,0.0
27.213,3.247,-0.842,0.0
23.734,2.831,-0.87,0.0
0.0,0.0,0.0,0.0
18.753,2.235,-0.904,0.0
16.999,2.025,-0.917,1.0
15.543,1.851,-0.928,0.0
26.359,3.132,-0.842,0.0
23.319,2.77,-0.879,0.0
20.437,2.426,-0.887,0.0
18.361,2.179,-0.904,0.0
16.678,1.979,-0.917,1.0
15.261,1.81,-0.926,0.0
25.797,3.052,-0.85,0.0
21.881,2.587,-0.846,0.0
20.335,2.403,-0.903,0.0
18.104,2.139,-0.909,0.0
16.499,1.948,-0.923,0.0
15.022,1.773,-0.927,0.0
25.175,2.963,-0.854,0.0
21.849,2.571,-0.866,0.0
19.332,2.273,-0.877,0.0
17.592,2.068,-0.901,0.0
16.249,1.909,-0.925,0.0
14.835,1.742,-0.93,0.0
24.479,2.866,-0.855,0.0
21.787,2.549,-0.885,1.0
19.298,2.257,-0.894,1.0
17.37,2.03,-0.906,0.0
15.956,1.864,-0.924,0.0
14.616,1.707,-0.93,0.0
23.924,2.786,-0.858,0.0
21.691,2.524,-0.901,0.0
19.169,2.229,-0.906,1.0
17.192,1.998,-0.913,0.0
15.712,1.825,-0.924,0.0
14.488,1.682,-0.935,0.0
23.649,2.737,-0.87,0.0
20.992,2.428,-0.892,0.0
18.761,2.168,-0.904,0.0
17.0,1.963,-0.918,0.0
15.502,1.789,-0.926,0.0
14.31,1.651,-0.937,0.0
23.245,2.673,-0.876,0.0
20.505,2.356,-0.889,0.0
18.61,2.137,-0.914,0.0
16.862,1.935,-0.926,0.0
15.275,1.752,-0.926,0.0
14.243,1.632,-0.945,0.0
21.871,2.498,-0.843,0.0
20.066,2.29,-0.888,0.0
18.227,2.078,-0.911,0.0
16.482,1.878,-0.919,0.0
15.051,1.714,-0.926,0.0
14.012,1.595,-0.942,0.0
21.831,2.475,-0.86,2.0
19.58,2.218,-0.883,0.0
17.925,2.029,-0.911,0.0
16.21,1.833,-0.918,0.0
14.887,1.683,-0.928,0.0
13.756,1.554,-0.936,0.0
21.837,2.457,-0.878,7.0
19.564,2.199,-0.898,2.0
17.679,1.986,-0.913,1.0
16.035,1.8,-0.921,0.0
14.741,1.653,-0.931,0.0
13.586,1.523,-0.936,0.0
21.815,2.435,-0.895,3.0
19.372,2.16,-0.905,1.0
17.635,1.965,-0.924,1.0
15.843,1.764,-0.922,0.0
14.58,1.622,-0.932,0.0
13.535,1.504,-0.943,0.0
21.744,2.407,-0.909,1.0
19.041,2.106,-0.904,0.0
17.281,1.909,-0.919,0.0
15.695,1.732,-0.926,0.0
14.452,1.594,-0.935,0.0
13.354,1.471,-0.94,0.0
20.896,2.293,-0.889,0.0
18.753,2.056,-0.904,0.0
17.0,1.861,-0.917,0.0
15.469,1.692,-0.924,0.0
14.323,1.565,-0.937,0.0
13.129,1.434,-0.934,0.0
20.424,2.221,-0.883,0.0
18.565,2.016,-0.908,0.0
16.744,1.816,-0.914,0.0
15.297,1.658,-0.924,0.0
14.227,1.54,-0.941,0.0
13.153,1.422,-0.945,0.0
20.174,2.172,-0.886,0.0
18.338,1.972,-0.91,0.0
16.511,1.774,-0.913,0.0
15.103,1.621,-0.923,0.0
14.285,1.531,-0.954,0.0
12.928,1.384,-0.937,0.0
19.874,2.119,-0.886,0.0
17.844,1.9,-0.897,0.0
16.386,1.742,-0.917,0.0
14.971,1.59,-0.924,0.0
0.0,0.0,0.0,0.0
12.819,1.359,-0.937,0.0
19.607,2.068,-0.886,0.0
17.761,1.871,-0.903,1.0
16.328,1.718,-0.923,0.0
14.856,1.561,-0.926,0.0
13.742,1.442,-0.935,0.0
12.708,1.332,-0.937,0.0
19.489,2.034,-0.892,0.0
17.745,1.849,-0.913,2.0
16.106,1.676,-0.92,0.0
14.791,1.537,-0.93,0.0
13.744,1.427,-0.943,0.0
12.68,1.315,-0.942,0.0
19.328,1.994,-0.896,0.0
17.723,1.826,-0.922,1.0
15.948,1.641,-0.92,0.0
14.681,1.508,-0.931,0.0
13.68,1.404,-0.946,0.0
12.542,1.285,-0.938,0.0
19.186,1.956,-0.899,0.0
17.581,1.79,-0.923,0.0
15.882,1.615,-0.924,0.0
14.585,1.481,-0.933,0.0
13.377,1.356,-0.931,0.0
12.505,1.266,-0.942,0.0
19.035,1.917,-0.901,0.0
17.365,1.746,-0.92,0.0
15.788,1.585,-0.926,0.0
14.495,1.453,-0.934,0.0
13.445,1.346,-0.942,0.0
12.44,1.244,-0.943,0.0
18.745,1.865,-0.896,0.0
17.164,1.705,-0.917,0.0
15.702,1.557,-0.928,0.0
14.382,1.424,-0.933,0.0
13.324,1.317,-0.94,0.0
12.399,1.224,-0.945,0.0
18.55,1.821,-0.894,0.0
17.018,1.668,-0.917,0.0
15.59,1.525,-0.928,0.0
14.384,1.405,-0.939,0.0
13.333,1.3,-0.945,0.0
12.31,1.199,-0.943,0.0
18.552,1.797,-0.902,0.0
16.92,1.636,-0.918,0.0
15.473,1.493,-0.926,0.0
14.325,1.38,-0.94,0.0
13.17,1.267,-0.939,0.0
12.228,1.174,-0.941,0.0
18.486,1.765,-0.905,0.0
16.806,1.602,-0.917,0.0
15.363,1.462,-0.925,0.0
14.237,1.352,-0.939,0.0
13.135,1.245,-0.94,0.0
12.172,1.152,-0.94,0.0
18.369,1.729,-0.905,0.0
16.737,1.572,-0.918,0.0
15.306,1.435,-0.926,0.0
14.156,1.325,-0.938,0.0
13.055,1.22,-0.938,0.0
12.102,1.129,-0.938,0.0
18.279,1.695,-0.905,0.0
16.597,1.536,-0.915,0.0
15.217,1.406,-0.925,0.0
14.214,1.31,-0.945,0.0
13.065,1.202,-0.942,0.0
12.063,1.108,-0.938,0.0
18.239,1.666,-0.907,0.0
16.522,1.506,-0.915,0.0
15.178,1.38,-0.925,0.0
14.171,1.286,-0.945,0.0
13.065,1.184,-0.945,0.0
12.08,1.092,-0.942,0.0
18.131,1.63,-0.905,0.0
16.506,1.481,-0.917,0.0
15.118,1.353,-0.924,0.0
14.235,1.272,-0.952,0.0
13.039,1.162,-0.945,0.0
12.075,1.074,-0.943,0.0
18.25,1.614,-0.914,0.0
16.517,1.458,-0.92,0.0
15.088,1.329,-0.925,0.0
14.2,1.248,-0.951,0.0
13.046,1.144,-0.947,0.0
12.025,1.052,-0.941,0.0
18.062,1.571,-0.907,0.0
16.47,1.429,-0.919,0.0
15.095,1.307,-0.927,0.0
14.252,1.231,-0.956,0.0
13.004,1.121,-0.945,0.0
12.04,1.036,-0.943,0.0
18.166,1.553,-0.913,0.0
16.503,1.407,-0.922,0.0
15.084,1.283,-0.927,0.0
14.15,1.201,-0.95,0.0
12.978,1.099,-0.944,0.0
12.005,1.014,-0.941,0.0
18.037,1.514,-0.907,0.0
16.498,1.382,-0.922,0.0
15.047,1.257,-0.925,0.0
14.148,1.179,-0.95,0.0
13.001,1.081,-0.946,0.0
12.022,0.997,-0.942,0.0
17.968,1.481,-0.904,0.0
16.548,1.361,-0.925,0.0
15.058,1.235,-0.925,0.0
14.207,1.162,-0.954,0.0
12.956,1.057,-0.942,0.0
12.008,0.978,-0.94,0.0
18.111,1.465,-0.91,0.0
16.52,1.333,-0.922,0.0
15.132,1.218,-0.929,0.0
14.002,1.124,-0.939,0.0
12.97,1.038,-0.942,0.0
12.023,0.96,-0.941,0.0
18.552,1.472,-0.931,0.0
16.503,1.306,-0.92,0.0
15.124,1.193,-0.927,0.0
0.0,0.0,0.0,0.0
12.989,1.019,-0.942,0.0
12.091,0.946,-0.944,0.0
18.394,1.43,-0.92,0.0
16.615,1.288,-0.923,0.0
15.187,1.174,-0.928,0.0
14.013,1.08,-0.936,0.0
12.992,0.999,-0.94,0.0
12.102,0.928,-0.943,0.0
0.0,0.0,0.0,0.0
16.648,1.264,-0.922,0.0
15.232,1.153,-0.928,0.0
14.108,1.065,-0.94,0.0
13.031,0.981,-0.94,0.0
12.137,0.911,-0.943,0.0
0.0,0.0,0.0,0.0
16.662,1.238,-0.919,0.0
15.279,1.132,-0.928,0.0
0.0,0.0,0.0,0.0
13.075,0.963,-0.94,0.0
12.183,0.895,-0.944,0.0
0.0,0.0,0.0,0.0
16.82,1.223,-0.924,0.0
15.316,1.11,-0.926,0.0
0.0,0.0,0.0,0.0
13.159,0.948,-0.943,0.0
12.235,0.879,-0.944,0.0
0.0,0.0,0.0,0.0
16.893,1.201,-0.923,0.0
15.419,1.093,-0.927,0.0
0.0,0.0,0.0,0.0
13.265,0.934,-0.946,0.0
12.288,0.862,-0.944,0.0
0.0,0.0,0.0,0.0
16.993,1.18,-0.922,0.0
15.506,1.073,-0.927,0.0
14.426,0.995,-0.944,0.0
13.265,0.912,-0.941,0.0
12.379,0.848,-0.947,0.0
0.0,0.0,0.0,0.0
17.087,1.159,-0.921,0.0
15.662,1.059,-0.93,0.0
14.384,0.969,-0.935,0.0
13.462,0.904,-0.95,0.0
12.453,0.833,-0.947,0.0
19.333,1.284,-0.927,0.0
0.0,0.0,0.0,0.0
0.0,0.0,0.0,0.0
14.459,0.95,-0.934,0.0
13.467,0.881,-0.944,0.0
12.501,0.815,-0.945,0.0
19.341,1.252,-0.919,0.0
0.0,0.0,0.0,0.0
15.754,1.013,-0.921,0.0
14.612,0.936,-0.936,0.0
13.586,0.867,-0.945,0.0
12.587,0.8,-0.945,0.0
19.449,1.227,-0.914,0.0
0.0,0.0,0.0,0.0
15.809,0.99,-0.916,0.0
14.722,0.918,-0.936,0.0
13.832,0.859,-0.955,0.0
12.698,0.786,-0.947,0.0
19.563,1.202,-0.909,0.0
0.0,0.0,0.0,0.0
16.138,0.984,-0.926,0.0
14.866,0.903,-0.936,0.0
13.864,0.838,-0.949,0.0
12.832,0.773,-0.949,0.0
19.736,1.18,-0.905,0.0
0.0,0.0,0.0,0.0
16.269,0.965,-0.924,0.0
15.076,0.89,-0.94,1.0
13.921,0.818,-0.945,0.0
12.929,0.757,-0.948,0.0
19.939,1.159,-0.902,0.0
0.0,0.0,0.0,0.0
16.509,0.951,-0.927,0.0
15.117,0.867,-0.933,1.0
14.068,0.803,-0.945,0.0
13.05,0.742,-0.948,0.0
20.274,1.144,-0.903,0.0
0.0,0.0,0.0,0.0
16.578,0.927,-0.919,0.0
15.152,0.844,-0.924,1.0
14.264,0.791,-0.948,0.0
13.214,0.729,-0.951,0.0
0.0,0.0,0.0,0.0
18.838,1.027,-0.928,0.0
16.771,0.91,-0.918,0.0
15.3,0.827,-0.922,0.0
14.376,0.773,-0.945,0.0
13.341,0.714,-0.95,0.0
0.0,0.0,0.0,0.0
18.845,0.996,-0.914,0.0
17.137,0.902,-0.925,0.0
15.59,0.816,-0.928,0.0
14.525,0.757,-0.943,0.0
13.398,0.695,-0.943,0.0
21.79,1.121,-0.922,0.0
19.089,0.977,-0.911,0.0
17.361,0.885,-0.923,0.0
15.927,0.807,-0.935,2.0
14.676,0.74,-0.941,0.0
13.557,0.681,-0.943,0.0
21.876,1.09,-0.907,0.0
20.088,0.995,-0.942,0.0
17.457,0.86,-0.913,0.0
16.139,0.791,-0.933,0.0
14.883,0.726,-0.941,0.0
13.825,0.671,-0.95,0.0
20.254,0.975,-0.822,3.0
20.192,0.967,-0.928,7.0
20.226,0.963,-1.039,1.0
16.347,0.775,-0.93,0.0
15.08,0.711,-0.94,0.0
20.244,0.949,-1.372,0.0
20.243,0.941,-0.803,151.0
20.178,0.933,-0.909,29.0
0.0,0.0,0.0,0.0
16.609,0.76,-0.929,0.0
15.308,0.696,-0.94,0.0
20.254,0.916,-1.353,0.0
20.182,0.906,-0.781,161.0
20.203,0.901,-0.891,48.0
0.0,0.0,0.0,0.0
20.22,0.892,-1.112,1.0
15.54,0.681,-0.939,0.0
14.418,0.629,-0.949,0.0
20.233,0.875,-0.763,153.0
20.217,0.869,-0.871,17.0
18.879,0.807,-0.915,0.0
20.341,0.864,-1.098,0.0
15.852,0.669,-0.941,0.0
14.585,0.612,-0.945,0.0
20.24,0.843,-0.742,0.0
21.664,0.896,-0.911,0.0
19.367,0.796,-0.919,0.0
17.538,0.717,-0.928,0.0
16.083,0.653,-0.937,0.0
14.828,0.598,-0.944,0.0
24.723,0.99,-0.88,0.0
22.178,0.882,-0.909,0.0
20.066,0.793,-0.93,1.0
17.936,0.704,-0.929,0.0
16.312,0.636,-0.933,0.0
15.048,0.583,-0.942,0.0
25.12,0.966,-0.867,1.0
22.524,0.86,-0.898,0.0
20.256,0.768,-0.916,0.0
18.27,0.688,-0.926,0.0
16.611,0.622,-0.931,0.0
15.331,0.57,-0.942,0.0
26.327,0.97,-0.878,1.0
23.103,0.846,-0.894,0.0
20.733,0.754,-0.913,0.0
18.603,0.672,-0.921,0.0
16.875,0.605,-0.926,0.0
15.563,0.554,-0.938,0.0
26.961,0.952,-0.867,0.0
23.798,0.834,-0.893,0.0
21.117,0.734,-0.905,0.0
19.003,0.656,-0.918,0.0
17.396,0.596,-0.933,0.0
16.042,0.546,-0.946,0.0
28.298,0.954,-0.876,0.0
24.556,0.822,-0.891,0.0
22.009,0.731,-0.916,0.0
19.717,0.65,-0.928,0.0
17.942,0.587,-0.94,0.0
16.246,0.528,-0.938,0.0
29.544,0.951,-0.877,1.0
25.273,0.807,-0.885,0.0
22.508,0.713,-0.908,0.0
20.079,0.631,-0.919,0.0
18.139,0.566,-0.927,0.0
16.581,0.513,-0.936,0.0
30.703,0.941,-0.872,1.0
26.253,0.798,-0.885,0.0
22.974,0.693,-0.897,0.0
20.576,0.616,-0.915,0.0
18.646,0.553,-0.928,0.0
16.891,0.497,-0.931,0.0
31.62,0.922,-0.856,1.0
26.749,0.773,-0.866,0.0
23.854,0.684,-0.899,0.0
21.186,0.602,-0.913,0.0
18.897,0.532,-0.915,0.0
17.347,0.484,-0.932,0.0
32.462,0.898,-0.834,1.0
28.41,0.779,-0.88,0.0
24.71,0.671,-0.897,0.0
22.147,0.596,-0.923,0.0
19.799,0.528,-0.931,0.0
17.919,0.474,-0.937,0.0
33.627,0.881,-0.817,0.0
29.711,0.771,-0.879,0.0
25.714,0.661,-0.897,0.0
22.535,0.573,-0.907,0.0
20.254,0.51,-0.923,0.0
18.345,0.458,-0.933,0.0
35.641,0.881,-0.814,0.0
31.057,0.76,-0.873,1.0
26.419,0.64,-0.883,0.0
23.113,0.554,-0.897,0.0
20.835,0.495,-0.919,0.0
18.767,0.441,-0.927,0.0
0.0,0.0,0.0,0.0
32.041,0.738,-0.854,1.0
28.396,0.648,-0.907,0.0
24.293,0.548,-0.907,0.0
21.529,0.481,-0.917,0.0
19.454,0.43,-0.932,0.0
0.0,0.0,0.0,0.0
33.304,0.72,-0.838,0.0
28.825,0.617,-0.877,0.0
25.075,0.531,-0.898,0.0
22.4,0.469,-0.92,0.0
19.923,0.413,-0.924,0.0
0.0,0.0,0.0,0.0
35.379,0.717,-0.836,0.0
30.155,0.604,-0.871,1.0
26.094,0.516,-0.894,0.0
22.895,0.448,-0.905,0.0
20.568,0.398,-0.922,0.0
43.071,0.824,-0.724,0.0
37.12,0.701,-0.819,0.0
31.71,0.592,-0.867,1.0
26.821,0.495,-0.877,0.0
23.758,0.433,-0.901,0.0
20.12,0.362,-0.869,4.0
0.0,0.0,0.0,0.0
38.599,0.678,-0.79,0.0
0.0,0.0,0.0,0.0
28.402,0.486,-0.882,0.0
24.941,0.421,-0.905,0.0
20.137,0.335,-0.837,3.0
0.0,0.0,0.0,0.0
0.0,0.0,0.0,0.0
34.74,0.556,-0.836,0.0
30.084,0.475,-0.885,0.0
25.921,0.403,-0.898,0.0
20.207,0.31,-0.806,1.0
0.0,0.0,0.0,0.0
42.873,0.641,-0.737,0.0
20.104,0.296,-0.451,0.0
20.21,0.293,-0.561,7.0
20.211,0.289,-0.667,15.0
20.231,0.285,-0.774,23.0
0.0,0.0,0.0,0.0
20.19,0.276,-0.312,2.0
20.21,0.272,-0.419,17.0
20.192,0.267,-0.526,25.0
20.212,0.263,-0.632,27.0
20.219,0.259,-0.739,28.0
20.198,0.255,-0.173,0.0
20.195,0.251,-0.278,19.0
20.183,0.247,-0.384,26.0
20.182,0.243,-0.491,24.0
20.194,0.238,-0.597,32.0
20.21,0.234,-0.703,33.0
20.136,0.23,-0.137,0.0
20.181,0.226,-0.243,20.0
20.174,0.222,-0.348,29.0
20.184,0.218,-0.455,25.0
20.194,0.214,-0.561,33.0
20.211,0.21,-0.667,28.0
20.23,0.207,-0.102,5.0
20.161,0.202,-0.207,18.0
20.176,0.198,-0.312,31.0
20.176,0.195,-0.42,33.0
20.19,0.191,-0.525,28.0
20.201,0.187,-0.631,18.0
20.24,0.184,-0.067,22.0
20.181,0.179,-0.171,19.0
20.168,0.175,-0.276,33.0
20.173,0.171,-0.383,27.0
20.204,0.168,-0.489,26.0
20.291,0.165,-0.597,3.0
20.218,0.161,-0.03,26.0
20.184,0.156,-0.135,33.0
20.173,0.153,-0.24,33.0
20.183,0.149,-0.347,29.0
20.204,0.145,-0.452,8.0
32.255,0.227,-0.891,0.0
20.19,0.138,0.006,29.0
20.183,0.135,-0.098,35.0
20.188,0.131,-0.203,24.0
20.204,0.127,-0.31,26.0
20.197,0.124,-0.415,0.0
33.071,0.197,-0.852,0.0
20.186,0.117,0.043,41.0
20.195,0.113,-0.061,36.0
20.182,0.11,-0.165,29.0
20.181,0.106,-0.272,19.0
41.891,0.213,-0.783,1.0
0.0,0.0,0.0,0.0
20.193,0.096,0.081,37.0
20.193,0.093,-0.023,28.0
20.182,0.089,-0.128,27.0
20.207,0.086,-0.235,10.0
43.56,0.178,-0.733,0.0
37.657,0.147,-0.829,0.0
20.155,0.075,0.119,29.0
20.203,0.072,0.014,30.0
20.209,0.069,-0.09,26.0
20.202,0.066,-0.196,14.0
20.264,0.063,-0.302,0.0
20.228,0.059,-0.407,0.0
20.145,0.056,0.157,28.0
20.189,0.053,0.053,15.0
20.248,0.05,-0.051,14.0
20.27,0.046,-0.158,77.0
20.272,0.043,-0.263,150.0
20.263,0.04,-0.368,150.0
20.134,0.037,0.196,29.0
20.141,0.034,0.092,29.0
20.245,0.031,-0.012,152.0
20.258,0.028,-0.118,151.0
20.266,0.025,-0.224,151.0
20.261,0.022,-0.328,150.0
20.135,0.018,0.235,29.0
20.125,0.015,0.131,28.0
20.269,0.013,0.027,150.0
20.263,0.01,-0.079,71.0
20.232,0.007,-0.183,12.0
20.238,0.004,-0.288,6.0
20.129,0.001,0.275,27.0
20.122,-0.001,0.171,28.0
20.131,-0.004,0.067,29.0
20.112,-0.007,-0.038,17.0
20.175,-0.01,-0.143,25.0
20.16,-0.012,-0.247,10.0
20.122,-0.015,0.315,32.0
20.118,-0.018,0.21,32.0
20.123,-0.021,0.106,35.0
20.135,-0.023,0.0,33.0
20.151,-0.026,-0.103,32.0
20.148,-0.029,-0.206,17.0
20.125,-0.031,0.355,31.0
20.106,-0.034,0.25,29.0
20.112,-0.037,0.147,29.0
20.126,-0.039,0.041,39.0
20.14,-0.042,-0.062,32.0
20.154,-0.044,-0.166,35.0
20.122,-0.047,0.395,30.0
20.115,-0.049,0.291,29.0
20.128,-0.052,0.187,28.0
20.132,-0.054,0.082,39.0
20.128,-0.057,-0.021,35.0
20.144,-0.059,-0.126,32.0
20.123,-0.062,0.435,31.0
20.116,-0.064,0.332,30.0
20.115,-0.066,0.227,26.0
20.116,-0.069,0.122,28.0
20.127,-0.071,0.018,34.0
20.139,-0.073,-0.085,32.0
20.112,-0.076,0.476,27.0
20.116,-0.078,0.373,34.0
20.124,-0.08,0.269,27.0
20.115,-0.082,0.163,26.0
20.133,-0.084,0.059,38.0
20.137,-0.087,-0.044,29.0
20.143,-0.089,0.518,21.0
20.121,-0.091,0.413,27.0
20.129,-0.093,0.31,26.0
20.099,-0.095,0.203,19.0
20.129,-0.097,0.1,29.0
20.133,-0.099,-0.003,28.0
20.137,-0.102,0.559,17.0
20.105,-0.103,0.454,18.0
20.121,-0.105,0.35,20.0
20.106,-0.107,0.245,19.0
20.125,-0.109,0.141,18.0
20.146,-0.111,0.038,31.0
20.152,-0.114,0.6,13.0
20.125,-0.115,0.496,17.0
20.122,-0.117,0.392,16.0
20.119,-0.119,0.286,16.0
20.139,-0.12,0.183,17.0
20.138,-0.122,0.079,17.0
53.519,-0.332,1.706,50.0
20.149,-0.126,0.538,12.0
20.178,-0.128,0.435,19.0
20.163,-0.13,0.329,16.0
20.167,-0.131,0.225,15.0
20.163,-0.133,0.121,15.0
58.316,-0.392,1.98,7.0
20.177,-0.137,0.581,11.0
20.182,-0.138,0.477,14.0
20.228,-0.14,0.372,24.0
20.202,-0.141,0.267,17.0
20.201,-0.143,0.163,15.0
58.271,-0.42,2.099,224.0
53.509,-0.389,1.651,57.0
20.166,-0.148,0.518,7.0
20.248,-0.149,0.414,29.0
20.251,-0.151,0.31,18.0
58.338,-0.439,0.593,15.0
58.235,-0.445,2.219,255.0
53.51,-0.412,1.763,95.0
53.506,-0.415,1.488,13.0
20.163,-0.157,0.454,15.0
53.466,-0.421,0.93,10.0
66.525,-0.527,0.815,20.0
58.312,-0.469,2.344,255.0
53.54,-0.433,1.875,150.0
53.496,-0.436,1.597,134.0
20.142,-0.165,0.496,7.0
20.192,-0.166,0.393,14.0
64.351,-0.533,0.922,21.0
58.308,-0.49,2.465,255.0
58.247,-0.492,2.162,255.0
53.498,-0.455,1.71,84.0
20.147,-0.172,0.538,9.0
20.18,-0.173,0.435,22.0
53.489,-0.461,0.878,40.0
58.302,-0.51,2.587,255.0
58.306,-0.512,2.287,255.0
53.546,-0.472,1.824,150.0
53.491,-0.473,1.541,43.0
20.143,-0.179,0.476,12.0
20.192,-0.18,0.373,23.0
58.303,-0.526,2.708,255.0
58.304,-0.528,2.408,255.0
58.327,-0.53,2.108,172.0
53.488,-0.487,1.652,78.0
20.143,-0.184,0.518,10.0
20.176,-0.185,0.415,24.0
58.305,-0.541,2.83,150.0
58.304,-0.542,2.529,255.0
58.228,-0.543,2.225,255.0
53.497,-0.5,1.764,98.0
53.487,-0.5,1.487,21.0
20.131,-0.188,0.456,14.0
45.787,-0.434,2.318,42.0
58.308,-0.554,2.65,255.0
58.293,-0.555,2.348,255.0
53.512,-0.51,1.874,150.0
53.5,-0.51,1.598,81.0
20.139,-0.192,0.497,14.0
45.443,-0.439,2.395,18.0
58.259,-0.563,2.769,255.0
58.3,-0.564,2.469,255.0
58.244,-0.564,2.16,255.0
53.502,-0.518,1.708,66.0
20.155,-0.195,0.539,8.0
45.266,-0.443,2.478,46.0
45.918,-0.45,2.277,59.0
58.298,-0.571,2.589,255.0
58.295,-0.571,2.282,255.0
53.536,-0.524,1.819,150.0
53.487,-0.523,1.543,36.0
45.138,-0.446,2.565,36.0
45.441,-0.449,2.347,18.0
58.234,-0.575,2.707,255.0
58.31,-0.575,2.403,255.0
58.327,-0.575,2.103,198.0
53.51,-0.526,1.653,50.0
52.841,-0.526,3.112,38.0
45.429,-0.451,2.44,28.0
58.282,-0.578,2.828,92.0
58.31,-0.577,2.522,255.0
58.222,-0.575,2.217,255.0
53.504,-0.528,1.761,84.0
52.867,-0.527,3.221,47.0
45.152,-0.449,2.516,47.0
45.673,-0.453,2.309,31.0
58.227,-0.576,2.637,255.0
58.304,-0.576,2.339,255.0
53.506,-0.527,1.87,150.0
53.109,-0.528,3.344,12.0
52.881,-0.525,3.056,9.0
45.472,-0.45,2.391,18.0
58.253,-0.574,2.756,255.0
58.307,-0.573,2.457,255.0
58.232,-0.57,2.153,255.0
106.071,-1.05,6.894,5.0
52.821,-0.521,3.159,54.0
45.246,-0.444,2.471,44.0
45.905,-0.449,2.265,59.0
58.306,-0.568,2.575,255.0
58.293,-0.566,2.273,255.0
52.308,-0.513,3.505,17.0
52.909,-0.516,3.271,26.0
45.125,-0.438,2.555,37.0
45.403,-0.439,2.331,19.0
58.22,-0.56,2.687,255.0
58.295,-0.558,2.389,255.0
52.309,-0.506,3.61,53.0
52.917,-0.509,3.376,8.0
64.306,-0.615,3.769,11.0
45.314,-0.431,2.417,31.0
58.293,-0.552,2.806,150.0
58.3,-0.549,2.505,255.0
52.338,-0.497,3.716,15.0
64.329,-0.608,4.233,17.0
52.804,-0.496,3.2,56.0
45.164,-0.421,2.497,52.0
45.804,-0.424,2.295,56.0
58.301,-0.537,2.618,255.0
38.671,-0.36,2.822,38.0
64.309,-0.594,4.358,31.0
52.799,-0.484,3.303,34.0
64.305,-0.585,3.682,42.0
45.294,-0.409,2.358,39.0
58.238,-0.522,2.73,255.0
52.389,-0.475,3.925,9.0
52.33,-0.47,3.648,59.0
64.321,-0.574,4.149,14.0
64.299,-0.569,3.807,70.0
45.214,-0.396,2.441,52.0
0.0,0.0,0.0,0.0
44.584,-0.392,3.428,35.0
52.32,-0.456,3.75,24.0
64.301,-0.554,4.273,46.0
64.282,-0.549,3.93,19.0
64.307,-0.544,3.597,30.0
45.733,-0.383,2.319,53.0
0.0,0.0,0.0,0.0
52.34,-0.439,3.852,15.0
64.285,-0.533,4.395,13.0
52.763,-0.433,3.326,64.0
64.326,-0.523,3.72,52.0
45.272,-0.364,2.382,34.0
52.315,-0.425,4.223,9.0
52.355,-0.42,3.952,26.0
52.581,-0.417,3.694,63.0
52.721,-0.413,3.423,70.0
64.345,-0.499,3.841,6.0
45.509,-0.348,2.48,51.0
52.327,-0.405,4.322,39.0
44.508,-0.34,3.443,18.0
52.642,-0.397,3.796,28.0
52.716,-0.392,3.521,66.0
52.802,-0.387,3.251,10.0
45.567,-0.33,2.567,51.0
52.321,-0.383,4.42,31.0
46.813,-0.338,3.708,10.0
38.626,-0.274,2.857,40.0
52.733,-0.369,3.619,20.0
53.13,-0.367,3.369,24.0
45.586,-0.309,2.652,15.0
52.325,-0.359,4.517,13.0
44.55,-0.301,3.611,8.0
58.177,-0.387,4.411,9.0
52.751,-0.344,3.717,4.0
53.223,-0.341,3.472,48.0
104.11,-0.657,6.246,25.0
38.548,-0.246,3.398,34.0
44.509,-0.278,3.689,14.0
58.108,-0.357,4.51,9.0
58.317,-0.352,4.214,26.0
58.423,-0.345,3.916,9.0
58.523,-0.339,3.616,6.0
51.432,-0.301,4.626,7.0
57.744,-0.331,4.89,2.0
46.838,-0.263,3.719,13.0
52.72,-0.289,3.903,9.0
58.379,-0.313,4.016,67.0
58.491,-0.306,3.716,58.0
51.981,-0.275,4.768,11.0
40.395,-0.209,3.491,6.0
57.994,-0.293,4.707,21.0
38.568,-0.189,2.923,55.0
58.363,-0.279,4.116,19.0
53.291,-0.248,3.479,14.0
31.071,-0.146,2.904,33.0
38.571,-0.176,3.401,32.0
57.912,-0.257,4.801,20.0
38.535,-0.166,2.988,53.0
53.539,-0.223,3.869,14.0
53.311,-0.215,3.573,38.0
31.021,-0.127,2.953,46.0
38.602,-0.152,3.47,26.0
57.878,-0.221,4.897,9.0
38.557,-0.141,3.054,22.0
53.387,-0.189,3.948,2.0
53.393,-0.181,3.667,17.0
30.998,-0.106,3.003,47.0
44.711,-0.147,4.095,3.0
57.902,-0.183,4.996,28.0
43.029,-0.129,3.481,10.0
53.009,-0.152,4.009,6.0
53.504,-0.145,3.763,19.0
30.984,-0.085,3.053,41.0
42.92,-0.112,4.002,5.0
57.904,-0.143,5.091,15.0
42.902,-0.1,3.54,9.0
52.816,-0.115,4.078,16.0
53.635,-0.109,3.858,11.0
30.968,-0.063,3.102,24.0
61.272,-0.117,5.813,11.0
57.878,-0.101,5.182,35.0
42.797,-0.068,3.6,7.0
52.664,-0.076,4.151,17.0
53.634,-0.069,3.944,5.0
45.951,-0.06,4.677,4.0
57.809,-0.067,5.576,10.0
51.337,-0.051,4.678,4.0
0.0,0.0,0.0,0.0
53.592,-0.037,4.309,7.0
53.626,-0.029,4.027,2.0
46.003,-0.025,4.754,4.0
