X,Y,Z,Reflectivity
14.752,-0.619,-0.959,0.0
21.074,-0.881,-0.782,0.0
18.985,-0.791,-0.803,0.0
17.008,-0.707,-0.808,1.0
15.96,-0.662,-0.843,0.0
15.774,-0.652,-0.915,1.0
15.706,-0.648,-0.993,0.0
22.071,-0.906,-0.78,1.0
19.765,-0.809,-0.801,0.0
17.822,-0.727,-0.815,0.0
16.293,-0.663,-0.831,0.0
15.82,-0.642,-0.889,1.0
15.835,-0.641,-0.973,0.0
23.524,-0.947,-0.789,5.0
20.569,-0.826,-0.796,1.0
18.379,-0.735,-0.807,0.0
16.909,-0.674,-0.832,1.0
15.887,-0.632,-0.864,1.0
15.884,-0.629,-0.947,0.0
23.825,-0.94,-0.756,16.0
21.44,-0.843,-0.792,1.0
19.181,-0.751,-0.808,0.0
17.271,-0.674,-0.819,2.0
16.07,-0.625,-0.845,1.0
15.943,-0.618,-0.922,1.0
24.406,-0.942,-0.731,14.0
22.208,-0.853,-0.78,3.0
20.048,-0.768,-0.809,0.0
17.907,-0.683,-0.817,0.0
16.249,-0.618,-0.826,0.0
15.988,-0.605,-0.896,1.0
25.032,-0.943,-0.706,3.0
23.572,-0.885,-0.787,5.0
20.59,-0.77,-0.794,1.0
18.451,-0.687,-0.809,1.0
16.948,-0.628,-0.832,0.0
16.071,-0.593,-0.872,1.0
28.076,-1.032,-0.742,0.0
23.837,-0.872,-0.754,17.0
21.603,-0.787,-0.795,0.0
19.014,-0.69,-0.801,0.0
17.478,-0.631,-0.827,0.0
16.227,-0.583,-0.852,1.0
30.298,-1.084,-0.748,8.0
24.605,-0.876,-0.735,15.0
22.407,-0.794,-0.786,2.0
19.98,-0.705,-0.807,0.0
18.145,-0.637,-0.827,0.0
16.552,-0.578,-0.84,0.0
30.499,-1.06,-0.7,32.0
25.367,-0.877,-0.714,1.0
23.397,-0.805,-0.78,7.0
20.767,-0.711,-0.802,0.0
18.718,-0.638,-0.821,2.0
16.998,-0.576,-0.834,0.0
30.656,-1.033,-0.651,32.0
28.224,-0.946,-0.745,1.0
23.934,-0.798,-0.756,19.0
21.802,-0.723,-0.805,2.0
19.449,-0.641,-0.819,3.0
17.478,-0.573,-0.827,0.0
31.035,-1.012,-0.605,29.0
30.357,-0.984,-0.749,9.0
24.638,-0.794,-0.736,12.0
22.397,-0.717,-0.788,2.0
19.797,-0.63,-0.799,5.0
18.061,-0.572,-0.823,0.0
37.928,-1.194,-0.674,5.0
30.501,-0.954,-0.7,32.0
25.312,-0.787,-0.713,0.0
23.649,-0.731,-0.791,8.0
20.599,-0.632,-0.797,1.0
18.677,-0.57,-0.82,0.0
38.024,-1.153,-0.612,23.0
30.701,-0.925,-0.654,35.0
28.462,-0.852,-0.754,1.0
23.826,-0.708,-0.757,16.0
21.557,-0.636,-0.798,0.0
19.362,-0.568,-0.817,0.0
38.347,-1.117,-0.553,17.0
31.129,-0.9,-0.61,28.0
30.271,-0.869,-0.751,8.0
24.689,-0.704,-0.744,11.0
22.533,-0.638,-0.796,0.0
20.138,-0.566,-0.817,0.0
38.604,-1.077,-0.492,29.0
37.908,-1.049,-0.681,4.0
30.485,-0.837,-0.706,31.0
27.212,-0.741,-0.775,0.0
23.672,-0.64,-0.797,9.0
20.84,-0.559,-0.811,0.0
38.69,-1.03,-0.429,36.0
38.061,-1.005,-0.621,17.0
30.725,-0.804,-0.661,32.0
28.393,-0.737,-0.762,1.0
23.84,-0.614,-0.764,17.0
21.614,-0.552,-0.806,0.0
38.77,-0.981,-0.367,29.0
38.405,-0.964,-0.564,19.0
31.233,-0.777,-0.622,25.0
30.285,-0.746,-0.764,8.0
24.636,-0.601,-0.75,14.0
22.55,-0.545,-0.804,1.0
40.414,-0.969,-0.318,41.0
0.0,0.0,0.0,0.0
37.863,-0.89,-0.693,8.0
30.477,-0.709,-0.72,29.0
25.368,-0.585,-0.732,3.0
23.738,-0.541,-0.808,6.0
40.416,-0.914,-0.253,41.0
40.42,-0.904,-0.464,29.0
38.058,-0.842,-0.636,23.0
30.744,-0.673,-0.677,30.0
28.201,-0.611,-0.769,1.0
24.733,-0.529,-0.803,4.0
38.375,-0.814,-0.18,53.0
38.365,-0.804,-0.38,57.0
38.333,-0.794,-0.581,22.0
31.3,-0.641,-0.641,23.0
29.363,-0.594,-0.755,8.0
25.957,-0.519,-0.803,1.0
52.941,-1.047,-0.167,49.0
45.576,-0.89,-0.382,22.0
44.885,-0.865,-0.611,19.0
0.0,0.0,0.0,0.0
30.461,-0.572,-0.736,28.0
27.192,-0.504,-0.8,1.0
20.116,-0.368,-0.032,17.0
52.928,-0.955,-0.362,50.0
45.066,-0.802,-0.544,21.0
37.987,-0.666,-0.662,19.0
30.788,-0.532,-0.698,29.0
28.301,-0.482,-0.789,4.0
20.141,-0.338,-0.002,47.0
59.554,-0.985,-0.318,2.0
52.72,-0.859,-0.558,9.0
38.419,-0.616,-0.612,14.0
31.488,-0.496,-0.666,9.0
29.655,-0.46,-0.783,8.0
20.14,-0.307,0.028,27.0
59.549,-0.893,-0.229,2.0
52.979,-0.781,-0.481,11.0
44.767,-0.647,-0.646,19.0
36.078,-0.512,-0.71,2.0
30.502,-0.425,-0.76,19.0
59.525,-0.815,0.17,25.0
59.537,-0.799,-0.141,46.0
56.611,-0.745,-0.432,12.0
44.996,-0.579,-0.584,21.0
37.879,-0.478,-0.69,17.0
31.464,-0.388,-0.739,9.0
56.24,-0.68,0.242,1.0
56.349,-0.667,-0.053,1.0
59.553,-0.688,-0.369,3.0
45.953,-0.519,-0.531,5.0
38.116,-0.419,-0.641,18.0
20.213,-0.217,-0.446,8.0
64.338,-0.675,0.367,10.0
56.179,-0.574,0.025,1.0
56.295,-0.56,-0.271,5.0
52.916,-0.511,-0.538,6.0
20.182,-0.189,-0.311,7.0
20.176,-0.184,-0.417,28.0
53.371,-0.472,0.378,4.0
53.379,-0.458,0.097,3.0
20.219,-0.167,-0.069,1.0
20.168,-0.161,-0.177,10.0
20.161,-0.156,-0.283,26.0
20.158,-0.15,-0.39,33.0
20.19,-0.145,0.17,18.0
20.139,-0.139,0.064,19.0
20.17,-0.133,-0.042,23.0
20.149,-0.127,-0.15,24.0
20.139,-0.122,-0.256,32.0
20.149,-0.116,-0.363,38.0
20.132,-0.11,0.197,22.0
20.129,-0.104,0.09,36.0
20.129,-0.099,-0.015,34.0
20.141,-0.093,-0.123,29.0
20.154,-0.087,-0.23,25.0
20.151,-0.081,-0.336,31.0
20.117,-0.076,0.222,28.0
20.117,-0.07,0.116,34.0
20.123,-0.064,0.01,35.0
20.143,-0.058,-0.098,34.0
20.164,-0.053,-0.205,24.0
20.164,-0.047,-0.311,24.0
20.129,-0.041,0.248,30.0
20.114,-0.035,0.141,31.0
20.132,-0.029,0.035,34.0
20.115,-0.023,-0.072,20.0
20.168,-0.017,-0.179,16.0
20.198,-0.011,-0.286,3.0
20.131,-0.005,0.273,28.0
20.12,0.0,0.166,29.0
20.193,0.006,0.06,70.0
20.254,0.012,-0.048,151.0
20.26,0.018,-0.155,151.0
20.257,0.024,-0.263,150.0
20.141,0.03,0.298,30.0
20.133,0.036,0.191,27.0
20.148,0.042,0.084,27.0
20.19,0.048,-0.024,18.0
20.221,0.054,-0.131,26.0
20.209,0.06,-0.238,1.0
20.147,0.066,0.322,27.0
20.144,0.072,0.215,27.0
20.153,0.078,0.107,25.0
20.188,0.084,-0.001,29.0
20.189,0.091,-0.108,29.0
20.187,0.096,-0.215,23.0
20.163,0.103,0.345,29.0
20.165,0.108,0.237,28.0
20.16,0.115,0.13,25.0
20.188,0.121,0.021,31.0
20.192,0.127,-0.085,29.0
20.172,0.133,-0.193,25.0
20.179,0.14,0.367,27.0
20.191,0.146,0.26,23.0
20.188,0.152,0.152,24.0
20.225,0.158,0.043,25.0
20.223,0.165,-0.064,24.0
20.197,0.17,-0.171,22.0
20.272,0.178,0.391,29.0
20.296,0.184,0.283,30.0
20.303,0.191,0.175,28.0
20.321,0.197,0.065,33.0
20.328,0.203,-0.043,7.0
20.233,0.209,-0.15,1.0
20.273,0.216,0.412,37.0
20.296,0.223,0.304,29.0
20.311,0.229,0.196,22.0
20.303,0.235,0.086,3.0
99.602,1.188,-0.108,2.0
0.0,0.0,0.0,0.0
20.289,0.255,0.433,27.0
20.284,0.261,0.324,10.0
20.333,0.268,0.217,0.0
99.602,1.346,0.521,6.0
99.651,1.377,-0.01,5.0
0.0,0.0,0.0,0.0
196.287,2.844,4.386,25.0
194.882,2.883,3.311,33.0
0.0,0.0,0.0,0.0
99.656,1.536,0.616,4.0
99.833,1.569,0.082,6.0
0.0,0.0,0.0,0.0
197.283,3.234,4.593,5.0
195.044,3.257,3.495,25.0
0.0,0.0,0.0,0.0
0.0,0.0,0.0,0.0
99.848,1.761,0.173,14.0
0.0,0.0,0.0,0.0
194.601,3.565,4.706,17.0
194.638,3.628,3.663,20.0
0.0,0.0,0.0,0.0
102.96,1.983,0.822,9.0
99.854,1.954,0.261,5.0
0.0,0.0,0.0,0.0
195.05,3.952,4.886,8.0
196.39,4.04,3.864,6.0
195.769,4.088,2.799,7.0
0.0,0.0,0.0,0.0
100.03,2.152,0.345,3.0
100.084,2.183,-0.192,13.0
194.721,4.325,5.04,22.0
193.932,4.369,3.977,25.0
195.356,4.462,2.954,21.0
0.0,0.0,0.0,0.0
100.217,2.352,0.426,2.0
100.103,2.382,-0.112,5.0
194.45,4.704,5.19,22.0
193.847,4.751,4.129,31.0
195.349,4.851,3.109,13.0
0.0,0.0,0.0,0.0
102.983,2.622,0.518,1.0
0.0,0.0,0.0,0.0
194.462,5.093,5.34,23.0
193.703,5.131,4.272,27.0
193.555,5.189,3.225,18.0
195.095,5.289,2.177,22.0
103.242,2.832,0.595,1.0
0.0,0.0,0.0,0.0
194.262,5.468,5.472,12.0
193.828,5.518,4.413,31.0
193.629,5.572,3.362,9.0
195.622,5.692,2.32,19.0
195.972,5.763,1.265,39.0
0.0,0.0,0.0,0.0
0.0,0.0,0.0,0.0
194.025,5.908,4.549,22.0
194.138,5.973,3.501,5.0
195.574,6.08,2.449,8.0
196.163,6.159,1.395,31.0
196.159,6.221,0.333,4.0
194.935,6.265,5.752,6.0
195.85,6.357,4.718,6.0
195.174,6.397,3.644,24.0
195.382,6.464,2.569,21.0
196.316,6.556,1.518,17.0
196.341,6.62,0.454,8.0
0.0,0.0,0.0,0.0
195.734,6.745,4.833,9.0
195.289,6.789,3.762,24.0
195.876,6.87,2.69,23.0
196.507,6.953,1.632,8.0
196.51,7.016,0.567,22.0
0.0,0.0,0.0,0.0
195.485,7.127,4.936,9.0
200.285,7.365,3.969,21.0
195.911,7.264,2.799,8.0
195.147,7.298,1.728,8.0
195.167,7.357,0.666,21.0
193.297,7.374,6.035,9.0
195.391,7.515,5.037,6.0
0.0,0.0,0.0,0.0
198.867,7.77,2.942,5.0
199.3,7.846,1.862,17.0
196.633,7.804,0.768,33.0
193.088,7.754,6.124,23.0
193.682,7.833,5.085,23.0
195.207,7.955,4.062,5.0
0.0,0.0,0.0,0.0
0.0,0.0,0.0,0.0
196.769,8.2,0.858,30.0
193.325,8.148,6.219,24.0
193.872,8.232,5.178,20.0
0.0,0.0,0.0,0.0
195.676,8.426,3.07,22.0
195.547,8.48,2.002,44.0
195.528,8.537,0.934,57.0
193.076,8.522,6.29,34.0
193.917,8.619,5.258,9.0
0.0,0.0,0.0,0.0
204.977,9.235,3.296,19.0
205.042,9.3,2.178,5.0
197.048,9.0,1.017,33.0
193.748,8.941,6.385,28.0
194.617,9.04,5.349,6.0
0.0,0.0,0.0,0.0
200.06,9.412,3.288,7.0
0.0,0.0,0.0,0.0
197.054,9.394,1.083,25.0
194.295,9.357,6.47,11.0
194.02,9.399,5.396,24.0
0.0,0.0,0.0,0.0
0.0,0.0,0.0,0.0
197.842,9.766,2.231,21.0
197.075,9.785,1.142,31.0
193.767,9.717,6.51,6.0
193.999,9.787,5.453,15.0
196.968,9.995,4.454,7.0
197.846,10.097,3.369,9.0
0.0,0.0,0.0,0.0
197.102,10.18,1.195,32.0
193.467,10.088,6.549,19.0
193.746,10.16,5.494,6.0
0.0,0.0,0.0,0.0
0.0,0.0,0.0,0.0
206.929,11.035,2.436,6.0
197.046,10.568,1.238,6.0
193.063,10.453,6.579,6.0
196.067,10.673,5.603,36.0
196.062,10.727,4.523,55.0
196.064,10.786,3.425,39.0
196.079,10.846,2.347,15.0
197.17,10.966,1.276,14.0
192.985,10.833,6.611,8.0
195.144,11.009,5.61,6.0
0.0,0.0,0.0,0.0
0.0,0.0,0.0,0.0
0.0,0.0,0.0,0.0
197.432,11.366,1.306,22.0
0.0,0.0,0.0,0.0
0.0,0.0,0.0,0.0
0.0,0.0,0.0,0.0
0.0,0.0,0.0,0.0
208.115,12.322,2.546,17.0
197.538,11.751,1.327,25.0
192.809,11.573,6.652,5.0
0.0,0.0,0.0,0.0
195.619,11.85,4.587,7.0
0.0,0.0,0.0,0.0
0.0,0.0,0.0,0.0
155.435,9.548,1.054,21.0
0.0,0.0,0.0,0.0
0.0,0.0,0.0,0.0
195.775,12.236,4.601,7.0
0.0,0.0,0.0,0.0
0.0,0.0,0.0,0.0
0.0,0.0,0.0,0.0
162.752,10.397,5.63,3.0
0.0,0.0,0.0,0.0
202.376,13.038,4.758,6.0
0.0,0.0,0.0,0.0
0.0,0.0,0.0,0.0
0.0,0.0,0.0,0.0
162.014,10.659,5.603,9.0
162.734,10.751,4.725,17.0
179.035,11.876,4.205,8.0
0.0,0.0,0.0,0.0
0.0,0.0,0.0,0.0
0.0,0.0,0.0,0.0
153.96,10.423,5.316,3.0
0.0,0.0,0.0,0.0
178.957,12.211,4.193,5.0
210.297,14.404,3.738,49.0
0.0,0.0,0.0,0.0
0.0,0.0,0.0,0.0
155.948,10.853,5.372,4.0
161.592,11.286,4.667,4.0
172.318,12.084,4.019,13.0
173.62,12.22,3.068,24.0
0.0,0.0,0.0,0.0
140.797,9.984,0.924,3.0
160.876,11.497,5.522,10.0
156.209,11.204,4.491,13.0
178.495,12.848,4.139,14.0
173.237,12.514,3.037,43.0
173.537,12.581,2.075,17.0
124.373,9.05,0.796,2.0
0.0,0.0,0.0,0.0
166.697,12.262,4.765,15.0
178.551,13.179,4.11,14.0
168.113,12.453,2.916,20.0
168.234,12.507,1.981,33.0
0.0,0.0,0.0,0.0
174.765,13.135,5.935,18.0
157.019,11.841,4.456,36.0
156.042,11.806,3.557,20.0
168.098,12.76,2.878,34.0
0.0,0.0,0.0,0.0
114.594,8.756,0.685,1.0
154.475,11.89,5.209,7.0
167.322,12.921,4.708,27.0
155.646,12.056,3.51,42.0
156.007,12.124,2.631,19.0
155.977,12.162,1.76,9.0
114.156,8.93,0.652,21.0
167.108,13.164,5.589,20.0
154.995,12.248,4.317,22.0
196.738,15.596,4.38,6.0
155.974,12.402,2.586,30.0
181.622,14.485,1.996,15.0
110.581,8.846,0.598,20.0
154.858,12.474,5.131,12.0
161.666,13.061,4.452,24.0
155.998,12.64,3.424,25.0
0.0,0.0,0.0,0.0
129.33,10.54,1.379,2.0
110.253,9.012,0.559,10.0
157.029,12.921,5.151,10.0
156.775,12.937,4.264,5.0
202.035,16.715,4.364,10.0
0.0,0.0,0.0,0.0
115.336,9.598,1.188,11.0
108.337,9.043,0.509,2.0
144.463,12.138,4.683,21.0
197.151,16.611,5.286,11.0
0.0,0.0,0.0,0.0
199.561,16.903,3.093,7.0
128.978,10.956,1.276,5.0
107.707,9.174,0.462,19.0
143.721,12.322,4.601,27.0
144.356,12.409,3.811,15.0
152.72,13.161,3.174,10.0
153.565,13.269,2.314,19.0
128.907,11.169,1.219,8.0
107.675,9.356,0.414,22.0
143.691,12.562,4.535,34.0
144.066,12.626,3.738,12.0
152.565,13.403,3.1,19.0
152.943,13.47,2.234,25.0
108.482,9.579,0.976,2.0
107.456,9.512,0.363,1.0
143.557,12.786,4.463,28.0
152.413,13.608,3.881,17.0
152.42,13.64,3.024,30.0
152.424,13.674,2.151,26.0
108.578,9.764,0.922,3.0
0.0,0.0,0.0,0.0
142.859,12.959,4.368,25.0
152.104,13.828,3.793,24.0
151.806,13.833,2.932,23.0
151.763,13.862,2.062,31.0
0.0,0.0,0.0,0.0
92.866,8.523,0.216,16.0
121.334,11.201,3.643,9.0
151.928,14.056,3.706,14.0
151.393,14.039,2.84,27.0
151.544,14.084,1.972,29.0
0.0,0.0,0.0,0.0
92.694,8.655,0.162,7.0
121.381,11.396,3.574,25.0
151.542,14.259,3.607,14.0
151.264,14.264,2.747,30.0
151.484,14.317,1.882,23.0
0.0,0.0,0.0,0.0
92.589,8.789,0.106,7.0
121.213,11.57,3.495,28.0
138.246,13.223,3.205,13.0
151.17,14.487,2.651,29.0
151.339,14.533,1.786,11.0
0.0,0.0,0.0,0.0
92.312,8.904,0.047,7.0
137.823,13.364,3.885,29.0
121.585,11.812,2.741,33.0
121.625,11.84,2.054,29.0
121.624,11.863,1.356,9.0
0.0,0.0,0.0,0.0
0.0,0.0,0.0,0.0
109.158,10.746,3.005,53.0
121.506,11.985,2.657,62.0
121.577,12.014,1.97,74.0
121.537,12.034,1.27,3.0
0.0,0.0,0.0,0.0
0.0,0.0,0.0,0.0
115.727,11.562,3.103,30.0
121.593,12.169,2.573,33.0
150.684,15.109,2.336,21.0
0.0,0.0,0.0,0.0
0.0,0.0,0.0,0.0
0.0,0.0,0.0,0.0
116.103,11.762,3.03,16.0
150.613,15.284,3.079,13.0
150.648,15.315,2.226,25.0
0.0,0.0,0.0,0.0
0.0,0.0,0.0,0.0
82.5,8.433,-0.19,0.0
109.409,11.236,2.773,35.0
115.668,11.897,2.276,28.0
115.636,11.913,1.62,31.0
0.0,0.0,0.0,0.0
0.0,0.0,0.0,0.0
0.0,0.0,0.0,0.0
109.335,11.375,2.686,33.0
115.581,12.044,2.183,18.0
115.605,12.066,1.527,29.0
82.192,8.592,0.612,2.0
81.993,8.586,0.145,1.0
95.011,9.966,-0.369,1.0
109.137,11.498,2.592,52.0
109.236,11.525,1.975,54.0
0.0,0.0,0.0,0.0
82.163,8.695,0.544,2.0
82.043,8.696,0.078,31.0
0.0,0.0,0.0,0.0
109.26,11.649,2.504,23.0
109.261,11.666,1.884,60.0
0.0,0.0,0.0,0.0
82.067,8.789,0.475,3.0
82.024,8.797,0.008,56.0
77.64,8.34,-0.432,5.0
115.718,12.481,2.554,32.0
109.313,11.805,1.791,17.0
0.0,0.0,0.0,0.0
82.055,8.887,0.404,6.0
76.953,8.346,-0.058,7.0
0.0,0.0,0.0,0.0
103.888,11.329,2.202,30.0
149.868,16.363,2.324,20.0
0.0,0.0,0.0,0.0
76.406,8.365,0.308,21.0
76.204,8.354,-0.126,8.0
69.003,7.576,-0.506,2.0
103.857,11.446,2.108,42.0
103.816,11.455,1.516,13.0
76.98,8.505,0.686,1.0
75.72,8.377,0.235,8.0
75.62,8.377,-0.194,31.0
68.914,7.645,-0.568,2.0
103.814,11.557,2.01,34.0
103.75,11.563,1.419,22.0
76.383,8.523,0.609,3.0
75.055,8.385,0.164,9.0
75.049,8.396,-0.262,2.0
0.0,0.0,0.0,0.0
144.021,16.188,2.654,14.0
103.792,11.679,1.321,2.0
75.43,8.498,0.53,2.0
74.695,8.425,0.092,12.0
74.806,8.448,-0.334,5.0
0.0,0.0,0.0,0.0
144.118,16.351,2.515,11.0
76.11,8.644,0.894,1.0
74.855,8.511,0.452,7.0
74.573,8.488,0.018,21.0
0.0,0.0,0.0,0.0
0.0,0.0,0.0,0.0
149.542,17.114,2.465,13.0
75.39,8.636,0.811,7.0
74.629,8.558,0.378,13.0
0.0,0.0,0.0,0.0
0.0,0.0,0.0,0.0
0.0,0.0,0.0,0.0
149.745,17.28,2.318,17.0
75.461,8.716,0.737,1.0
0.0,0.0,0.0,0.0
0.0,0.0,0.0,0.0
0.0,0.0,0.0,0.0
0.0,0.0,0.0,0.0
149.733,17.416,2.165,20.0
75.467,8.785,0.661,11.0
0.0,0.0,0.0,0.0
0.0,0.0,0.0,0.0
0.0,0.0,0.0,0.0
0.0,0.0,0.0,0.0
97.743,11.454,1.311,5.0
0.0,0.0,0.0,0.0
69.782,8.191,0.139,0.0
69.379,8.151,-0.263,0.0
0.0,0.0,0.0,0.0
0.0,0.0,0.0,0.0
97.687,11.528,1.209,10.0
69.436,8.201,0.462,0.0
0.0,0.0,0.0,0.0
69.127,8.178,-0.335,0.0
0.0,0.0,0.0,0.0
42.651,5.055,-0.694,0.0
0.0,0.0,0.0,0.0
0.0,0.0,0.0,0.0
68.911,8.199,-0.009,0.0
69.112,8.23,-0.41,0.0
0.0,0.0,0.0,0.0
40.66,4.85,-0.706,0.0
0.0,0.0,0.0,0.0
0.0,0.0,0.0,0.0
68.798,8.236,-0.082,7.0
68.924,8.257,-0.484,3.0
0.0,0.0,0.0,0.0
40.232,4.828,-0.742,0.0
0.0,0.0,0.0,0.0
0.0,0.0,0.0,0.0
68.866,8.291,-0.157,1.0
68.866,8.297,-0.558,3.0
68.72,8.286,-0.949,3.0
37.798,4.561,-0.739,0.0
68.802,8.317,0.554,2.0
68.728,8.313,0.16,2.0
68.947,8.345,-0.233,0.0
68.942,8.35,-0.636,0.0
68.79,8.338,-1.028,2.0
37.391,4.536,-0.773,0.0
68.781,8.357,0.476,6.0
68.761,8.36,0.082,151.0
69.234,8.422,-0.313,4.0
68.753,8.369,-0.711,0.0
42.626,5.192,-0.685,0.0
35.545,4.332,-0.774,0.0
68.785,8.397,0.398,3.0
68.717,8.392,0.005,166.0
69.328,8.472,-0.39,3.0
0.0,0.0,0.0,0.0
0.0,0.0,0.0,0.0
34.755,4.255,-0.797,0.0
68.793,8.433,0.32,2.0
68.715,8.428,-0.072,159.0
0.0,0.0,0.0,0.0
68.706,8.435,-0.866,3.0
39.29,4.826,-0.721,0.0
32.817,4.034,-0.79,0.0
68.691,8.453,0.243,2.0
68.773,8.467,-0.151,2.0
0.0,0.0,0.0,0.0
68.658,8.461,-0.944,7.0
39.292,4.844,-0.765,0.0
31.916,3.937,-0.804,0.0
68.637,8.476,0.164,16.0
69.321,8.563,-0.231,1.0
68.737,8.495,-0.623,0.0
68.759,8.501,-1.024,1.0
37.292,4.613,-0.769,0.0
31.088,3.847,-0.819,1.0
68.689,8.508,0.085,151.0
65.483,8.114,-0.293,3.0
55.684,6.902,-0.568,0.0
0.0,0.0,0.0,0.0
35.209,4.368,-0.767,0.0
30.217,3.75,-0.831,0.0
68.645,8.526,0.006,81.0
65.434,8.129,-0.368,7.0
0.0,0.0,0.0,0.0
40.835,5.077,-0.702,0.0
0.0,0.0,0.0,0.0
29.179,3.631,-0.836,0.0
65.447,8.148,-0.069,3.0
65.387,8.142,-0.443,5.0
0.0,0.0,0.0,0.0
39.389,4.908,-0.723,0.0
32.837,4.093,-0.791,0.0
28.171,3.513,-0.84,0.0
65.35,8.151,-0.145,14.0
65.301,8.147,-0.52,4.0
0.0,0.0,0.0,0.0
38.411,4.795,-0.75,0.0
31.651,3.952,-0.8,0.0
27.484,3.433,-0.852,0.0
65.315,8.16,-0.221,34.0
65.239,8.151,-0.595,2.0
0.0,0.0,0.0,0.0
0.0,0.0,0.0,0.0
31.093,3.888,-0.821,0.0
26.56,3.322,-0.854,0.0
65.306,8.168,-0.296,17.0
65.149,8.15,-0.669,1.0
0.0,0.0,0.0,0.0
35.774,4.476,-0.781,0.0
30.037,3.759,-0.828,0.0
25.833,3.234,-0.861,0.0
65.242,8.167,-0.372,42.0
55.695,6.972,-0.636,0.0
0.0,0.0,0.0,0.0
34.09,4.269,-0.784,0.0
29.07,3.641,-0.835,0.0
24.945,3.125,-0.86,0.0
65.219,8.168,-0.447,28.0
0.0,0.0,0.0,0.0
39.832,4.989,-0.729,0.0
33.042,4.139,-0.798,0.0
28.16,3.528,-0.842,0.0
24.269,3.041,-0.865,0.0
65.234,8.17,-0.522,13.0
0.0,0.0,0.0,0.0
38.217,4.786,-0.744,0.0
31.448,3.939,-0.796,0.0
27.266,3.415,-0.846,0.0
23.696,2.969,-0.871,0.0
65.239,8.168,-0.596,2.0
0.0,0.0,0.0,0.0
37.031,4.636,-0.762,0.0
30.986,3.879,-0.819,1.0
26.472,3.314,-0.851,0.0
21.932,2.746,-0.831,0.0
65.271,8.167,-0.67,1.0
0.0,0.0,0.0,0.0
0.0,0.0,0.0,0.0
30.125,3.768,-0.83,0.0
25.744,3.22,-0.857,0.0
21.877,2.737,-0.854,2.0
0.0,0.0,0.0,0.0
0.0,0.0,0.0,0.0
34.155,4.268,-0.781,0.0
29.114,3.638,-0.835,0.0
24.971,3.12,-0.859,0.0
21.836,2.728,-0.877,3.0
0.0,0.0,0.0,0.0
38.928,4.858,-0.71,0.0
32.744,4.085,-0.785,0.0
28.126,3.509,-0.838,0.0
24.344,3.037,-0.865,0.0
21.793,2.719,-0.9,1.0
0.0,0.0,0.0,0.0
38.487,4.794,-0.745,0.0
31.685,3.946,-0.795,0.0
27.233,3.391,-0.842,0.0
23.828,2.967,-0.873,0.0
21.164,2.635,-0.897,0.0
45.602,5.669,-0.672,0.0
0.0,0.0,0.0,0.0
31.128,3.868,-0.815,1.0
26.432,3.284,-0.846,0.0
22.273,2.767,-0.841,0.0
20.538,2.551,-0.893,0.0
0.0,0.0,0.0,0.0
35.404,4.389,-0.763,0.0
30.296,3.755,-0.827,0.0
25.823,3.2,-0.855,0.0
21.941,2.718,-0.852,0.0
20.292,2.513,-0.905,0.0
41.109,5.083,-0.695,0.0
34.447,4.258,-0.78,0.0
29.363,3.628,-0.833,0.0
25.072,3.097,-0.857,0.0
21.817,2.694,-0.871,0.0
19.919,2.46,-0.909,0.0
39.631,4.884,-0.712,0.0
32.702,4.029,-0.775,0.0
28.221,3.475,-0.83,0.0
24.407,3.005,-0.86,0.0
21.796,2.683,-0.893,0.0
19.194,2.362,-0.897,0.0
38.987,4.788,-0.742,1.0
32.193,3.951,-0.796,0.0
27.587,3.385,-0.84,0.0
23.873,2.928,-0.867,0.0
21.659,2.655,-0.911,0.0
18.833,2.308,-0.9,0.0
37.075,4.535,-0.744,0.0
31.269,3.822,-0.807,0.0
26.905,3.287,-0.848,0.0
23.41,2.859,-0.874,0.0
20.566,2.511,-0.886,0.0
18.438,2.25,-0.9,0.0
36.887,4.492,-0.778,0.0
30.499,3.712,-0.818,0.0
26.116,3.177,-0.849,0.0
21.983,2.673,-0.843,0.0
20.364,2.475,-0.898,0.0
18.199,2.211,-0.907,0.0
34.879,4.227,-0.771,0.0
29.644,3.59,-0.825,0.0
25.543,3.092,-0.857,0.0
21.843,2.643,-0.86,0.0
20.041,2.424,-0.904,0.0
18.061,2.183,-0.918,0.0
33.042,3.984,-0.763,0.0
28.838,3.475,-0.831,0.0
24.935,3.003,-0.861,0.0
21.784,2.622,-0.879,0.0
0.0,0.0,0.0,0.0
17.556,2.111,-0.909,0.0
32.759,3.928,-0.788,1.0
28.18,3.377,-0.839,0.0
24.3,2.91,-0.862,0.0
21.708,2.598,-0.897,0.0
19.222,2.299,-0.904,0.0
17.29,2.067,-0.912,0.0
31.849,3.796,-0.797,0.0
27.381,3.261,-0.841,0.0
23.872,2.841,-0.869,0.0
21.354,2.54,-0.902,0.0
19.076,2.268,-0.915,0.0
17.053,2.026,-0.915,0.0
31.124,3.687,-0.807,0.0
26.752,3.166,-0.846,0.0
23.474,2.776,-0.877,0.0
20.488,2.421,-0.884,0.0
18.552,2.191,-0.907,0.0
16.773,1.98,-0.916,0.0
30.48,3.586,-0.818,0.0
26.094,3.068,-0.849,0.0
22.501,2.643,-0.861,0.0
20.371,2.391,-0.898,0.0
18.221,2.137,-0.907,0.0
16.64,1.951,-0.924,0.0
29.746,3.475,-0.825,0.0
25.499,2.976,-0.852,0.0
21.841,2.547,-0.854,0.0
19.466,2.268,-0.875,0.0
17.849,2.078,-0.904,0.0
16.379,1.906,-0.923,0.0
28.966,3.359,-0.828,0.0
24.99,2.895,-0.856,0.0
21.809,2.524,-0.872,0.0
19.411,2.245,-0.889,0.0
17.602,2.034,-0.906,0.0
16.165,1.867,-0.925,0.0
28.3,3.256,-0.832,0.0
24.546,2.821,-0.862,0.0
21.746,2.497,-0.887,1.0
19.354,2.221,-0.902,2.0
17.385,1.993,-0.909,0.0
15.913,1.823,-0.923,0.0
27.59,3.148,-0.834,0.0
23.995,2.735,-0.862,0.0
21.723,2.474,-0.904,0.0
19.123,2.176,-0.907,0.0
17.323,1.969,-0.92,0.0
15.716,1.785,-0.924,0.0
27.279,3.086,-0.846,0.0
23.797,2.689,-0.873,0.0
21.621,2.441,-0.916,0.0
18.77,2.117,-0.904,0.0
17.098,1.926,-0.921,0.0
15.626,1.759,-0.931,0.0
26.688,2.992,-0.848,0.0
21.978,2.461,-0.823,0.0
20.553,2.299,-0.886,0.0
18.531,2.071,-0.907,0.0
16.843,1.88,-0.92,0.0
15.39,1.716,-0.928,0.0
26.151,2.904,-0.85,0.0
21.921,2.431,-0.837,2.0
20.242,2.242,-0.887,0.0
18.173,2.011,-0.902,0.0
16.643,1.84,-0.921,0.0
15.205,1.679,-0.928,0.0
25.563,2.811,-0.848,0.0
21.897,2.405,-0.851,4.0
19.808,2.173,-0.882,0.0
17.988,1.971,-0.905,0.0
16.465,1.802,-0.922,0.0
14.994,1.639,-0.925,0.0
25.187,2.741,-0.852,0.0
21.85,2.375,-0.863,5.0
19.689,2.138,-0.89,2.0
17.736,1.923,-0.904,1.0
16.356,1.772,-0.926,0.0
14.9,1.612,-0.929,0.0
24.816,2.672,-0.856,0.0
21.835,2.348,-0.876,5.0
19.598,2.105,-0.898,1.0
17.722,1.901,-0.914,2.0
16.161,1.731,-0.925,0.0
14.831,1.587,-0.934,0.0
24.501,2.609,-0.86,0.0
21.808,2.319,-0.888,3.0
19.508,2.072,-0.905,1.0
17.657,1.873,-0.921,1.0
15.956,1.69,-0.923,0.0
14.7,1.555,-0.934,0.0
24.216,2.55,-0.863,0.0
21.777,2.289,-0.899,2.0
19.321,2.028,-0.907,0.0
17.577,1.843,-0.927,0.0
15.801,1.654,-0.923,0.0
14.579,1.524,-0.934,0.0
23.778,2.474,-0.861,0.0
21.674,2.251,-0.907,0.0
19.063,1.977,-0.905,0.0
17.303,1.792,-0.922,0.0
15.746,1.628,-0.928,0.0
14.467,1.494,-0.935,0.0
23.666,2.431,-0.869,0.0
21.373,2.192,-0.905,0.0
18.855,1.931,-0.905,0.0
17.102,1.749,-0.919,0.0
15.626,1.595,-0.929,0.0
14.401,1.468,-0.937,0.0
23.615,2.395,-0.878,0.0
20.864,2.113,-0.893,0.0
18.602,1.88,-0.902,0.0
16.974,1.713,-0.92,0.0
15.469,1.559,-0.926,0.0
14.388,1.448,-0.943,0.0
23.37,2.339,-0.879,0.0
20.837,2.082,-0.901,0.0
18.481,1.843,-0.904,0.0
16.834,1.676,-0.92,0.0
15.407,1.532,-0.929,0.0
14.229,1.412,-0.939,0.0
23.38,2.308,-0.889,0.0
20.695,2.039,-0.904,0.0
18.257,1.796,-0.9,0.0
16.746,1.644,-0.922,0.0
15.313,1.501,-0.929,0.0
14.264,1.396,-0.946,0.0
21.963,2.138,-0.843,0.0
20.54,1.995,-0.904,0.0
18.074,1.753,-0.897,0.0
16.59,1.606,-0.919,0.0
15.16,1.465,-0.925,0.0
14.189,1.369,-0.946,0.0
21.881,2.099,-0.847,0.0
20.311,1.945,-0.901,0.0
17.946,1.715,-0.897,0.0
16.571,1.58,-0.923,0.0
15.081,1.436,-0.925,0.0
14.115,1.341,-0.945,0.0
21.858,2.065,-0.853,0.0
19.937,1.88,-0.89,0.0
18.101,1.703,-0.91,0.0
16.46,1.546,-0.921,0.0
15.065,1.412,-0.928,0.0
14.085,1.318,-0.947,0.0
21.849,2.032,-0.858,0.0
19.818,1.84,-0.89,0.0
17.968,1.664,-0.907,0.0
16.365,1.513,-0.92,0.0
15.047,1.388,-0.931,0.0
13.998,1.289,-0.945,0.0
21.84,1.999,-0.863,0.0
19.652,1.795,-0.887,0.0
17.934,1.634,-0.91,0.0
16.309,1.483,-0.92,0.0
14.974,1.359,-0.929,0.0
13.968,1.265,-0.945,0.0
21.847,1.966,-0.867,7.0
19.638,1.763,-0.89,0.0
18.121,1.624,-0.922,0.0
16.296,1.457,-0.922,0.0
14.958,1.334,-0.931,0.0
13.917,1.239,-0.944,0.0
21.845,1.932,-0.871,8.0
19.643,1.733,-0.893,0.0
17.932,1.579,-0.915,0.0
16.234,1.426,-0.921,0.0
14.947,1.31,-0.932,0.0
13.885,1.214,-0.943,0.0
21.839,1.898,-0.873,9.0
19.597,1.699,-0.893,0.0
17.831,1.542,-0.912,0.0
16.233,1.4,-0.922,0.0
14.959,1.287,-0.934,0.0
13.775,1.183,-0.937,0.0
21.855,1.865,-0.875,9.0
19.602,1.668,-0.894,0.0
17.757,1.507,-0.909,0.0
16.221,1.373,-0.923,0.0
14.95,1.263,-0.934,0.0
13.972,1.177,-0.951,0.0
21.834,1.828,-0.875,9.0
19.646,1.64,-0.897,0.0
17.929,1.493,-0.918,0.0
16.25,1.35,-0.924,0.0
14.923,1.236,-0.932,0.0
0.0,0.0,0.0,0.0
21.833,1.792,-0.875,9.0
19.632,1.607,-0.896,0.0
0.0,0.0,0.0,0.0
16.234,1.322,-0.923,0.0
14.931,1.213,-0.932,0.0
13.797,1.118,-0.939,0.0
21.831,1.757,-0.874,8.0
19.598,1.572,-0.893,0.0
18.345,1.468,-0.938,0.0
16.263,1.298,-0.924,0.0
14.972,1.191,-0.934,0.0
0.0,0.0,0.0,0.0
21.839,1.722,-0.872,1.0
19.636,1.543,-0.893,0.0
18.102,1.418,-0.924,0.0
16.305,1.274,-0.924,0.0
14.987,1.168,-0.933,0.0
0.0,0.0,0.0,0.0
21.794,1.682,-0.867,1.0
19.728,1.518,-0.894,0.0
0.0,0.0,0.0,0.0
16.344,1.25,-0.924,0.0
15.01,1.144,-0.932,0.0
0.0,0.0,0.0,0.0
21.829,1.648,-0.865,0.0
19.822,1.492,-0.895,0.0
0.0,0.0,0.0,0.0
16.41,1.227,-0.925,0.0
15.031,1.12,-0.93,0.0
13.854,1.029,-0.934,0.0
21.821,1.61,-0.86,0.0
20.056,1.475,-0.901,0.0
0.0,0.0,0.0,0.0
16.409,1.199,-0.921,0.0
15.105,1.1,-0.931,0.0
14.074,1.022,-0.946,0.0
21.856,1.576,-0.856,0.0
19.972,1.435,-0.892,0.0
18.116,1.297,-0.91,0.0
16.517,1.179,-0.922,0.0
15.13,1.076,-0.928,0.0
0.0,0.0,0.0,0.0
21.91,1.542,-0.852,0.0
19.996,1.402,-0.887,0.0
18.021,1.259,-0.899,0.0
16.631,1.158,-0.923,0.0
15.185,1.054,-0.927,0.0
14.227,0.984,-0.947,0.0
21.926,1.505,-0.845,0.0
0.0,0.0,0.0,0.0
0.0,0.0,0.0,0.0
16.65,1.131,-0.919,0.0
15.35,1.039,-0.931,0.0
14.162,0.955,-0.938,0.0
21.958,1.47,-0.838,2.0
21.696,1.447,-0.947,0.0
18.248,1.212,-0.897,0.0
16.836,1.114,-0.922,0.0
15.278,1.007,-0.921,0.0
14.272,0.938,-0.939,0.0
21.945,1.431,-0.829,1.0
21.645,1.406,-0.936,0.0
0.0,0.0,0.0,0.0
0.0,0.0,0.0,0.0
0.0,0.0,0.0,0.0
14.403,0.921,-0.941,0.0
22.001,1.397,-0.821,0.0
21.765,1.376,-0.931,0.0
19.09,1.202,-0.921,0.0
0.0,0.0,0.0,0.0
15.543,0.971,-0.922,0.0
14.468,0.9,-0.938,0.0
23.83,1.472,-0.877,0.0
21.778,1.339,-0.921,3.0
19.316,1.183,-0.922,0.0
0.0,0.0,0.0,0.0
15.814,0.96,-0.93,0.0
14.581,0.882,-0.938,0.0
24.239,1.455,-0.879,0.0
21.8,1.303,-0.91,5.0
19.358,1.152,-0.914,0.0
0.0,0.0,0.0,0.0
16.018,0.945,-0.933,0.0
14.765,0.867,-0.941,0.0
24.56,1.431,-0.877,0.0
21.799,1.264,-0.897,9.0
0.0,0.0,0.0,0.0
0.0,0.0,0.0,0.0
16.108,0.922,-0.928,0.0
14.968,0.853,-0.944,0.0
25.015,1.414,-0.877,0.0
21.825,1.228,-0.884,4.0
0.0,0.0,0.0,0.0
17.914,0.998,-0.923,0.0
16.421,0.911,-0.936,0.0
15.093,0.833,-0.942,1.0
25.348,1.388,-0.872,0.0
21.839,1.19,-0.87,0.0
0.0,0.0,0.0,0.0
18.047,0.974,-0.917,0.0
16.503,0.886,-0.929,0.0
15.122,0.808,-0.934,3.0
25.877,1.372,-0.872,0.0
21.891,1.155,-0.857,0.0
0.0,0.0,0.0,0.0
18.376,0.959,-0.921,0.0
16.648,0.865,-0.925,0.0
15.405,0.796,-0.94,1.0
26.343,1.351,-0.868,0.0
23.709,1.209,-0.91,0.0
20.258,1.028,-0.887,6.0
18.568,0.937,-0.916,0.0
16.83,0.845,-0.922,0.0
15.551,0.777,-0.936,0.0
27.07,1.342,-0.871,0.0
0.0,0.0,0.0,0.0
20.225,0.991,-0.87,2.0
19.869,0.969,-0.964,0.0
17.162,0.832,-0.926,1.0
15.844,0.764,-0.941,0.0
27.641,1.322,-0.867,0.0
20.243,0.963,-0.744,151.0
20.227,0.956,-0.853,28.0
20.165,0.948,-0.962,10.0
20.219,0.945,-1.074,10.0
16.07,0.747,-0.941,0.0
20.252,0.933,-0.618,3.0
20.19,0.925,-0.725,170.0
20.233,0.922,-0.836,150.0
20.068,0.909,-0.939,15.0
20.231,0.911,-1.056,29.0
16.224,0.726,-0.935,0.0
20.246,0.898,-0.599,1.0
20.2,0.891,-0.707,156.0
20.244,0.887,-0.817,76.0
20.113,0.876,-0.923,5.0
20.257,0.877,-1.039,0.0
16.469,0.708,-0.933,0.0
30.059,1.282,-0.861,1.0
20.225,0.857,-0.688,0.0
20.223,0.852,-0.797,2.0
20.171,0.844,-0.906,11.0
18.381,0.764,-0.925,0.0
16.752,0.692,-0.933,0.0
30.239,1.238,-0.837,1.0
26.392,1.073,-0.872,0.0
22.884,0.925,-0.88,0.0
20.25,0.813,-0.889,8.0
18.675,0.744,-0.92,0.0
16.95,0.671,-0.927,0.0
32.104,1.26,-0.856,0.0
27.151,1.058,-0.87,0.0
24.171,0.936,-0.904,1.0
21.116,0.812,-0.905,0.0
19.013,0.726,-0.917,0.0
17.289,0.655,-0.927,0.0
32.402,1.217,-0.83,1.0
28.404,1.059,-0.88,0.0
24.583,0.91,-0.893,0.0
21.85,0.803,-0.913,0.0
19.636,0.717,-0.926,0.0
17.788,0.644,-0.934,0.0
32.873,1.18,-0.806,0.0
28.919,1.03,-0.864,1.0
25.101,0.887,-0.884,0.0
22.362,0.785,-0.909,0.0
20.071,0.699,-0.924,0.0
18.067,0.624,-0.928,0.0
0.0,0.0,0.0,0.0
30.06,1.021,-0.864,0.0
26.01,0.876,-0.886,0.0
22.744,0.76,-0.899,0.0
20.443,0.678,-0.917,0.0
18.494,0.608,-0.928,0.0
0.0,0.0,0.0,0.0
30.317,0.979,-0.835,0.0
26.478,0.848,-0.87,0.0
23.614,0.75,-0.905,0.0
20.859,0.657,-0.911,0.0
18.781,0.587,-0.92,0.0
0.0,0.0,0.0,0.0
32.005,0.982,-0.843,1.0
28.215,0.857,-0.893,0.0
24.253,0.731,-0.9,0.0
21.631,0.646,-0.918,0.0
19.416,0.575,-0.927,0.0
0.0,0.0,0.0,0.0
33.005,0.958,-0.828,1.0
28.704,0.826,-0.873,0.0
24.906,0.71,-0.892,0.0
22.237,0.628,-0.915,0.0
19.922,0.558,-0.926,0.0
40.645,1.126,-0.752,0.0
0.0,0.0,0.0,0.0
29.999,0.815,-0.874,0.0
25.838,0.695,-0.892,0.0
22.675,0.605,-0.904,0.0
20.336,0.537,-0.919,0.0
0.0,0.0,0.0,0.0
36.908,0.954,-0.83,0.0
31.403,0.804,-0.873,1.0
26.52,0.672,-0.881,0.0
23.394,0.587,-0.901,0.0
20.924,0.519,-0.917,0.0
0.0,0.0,0.0,0.0
37.357,0.907,-0.79,0.0
32.185,0.773,-0.851,1.0
28.343,0.674,-0.902,0.0
24.424,0.574,-0.907,0.0
21.567,0.501,-0.915,0.0
0.0,0.0,0.0,0.0
40.221,0.914,-0.794,0.0
33.251,0.747,-0.832,0.0
28.688,0.637,-0.873,0.0
25.062,0.55,-0.895,0.0
22.355,0.485,-0.916,0.0
0.0,0.0,0.0,0.0
0.0,0.0,0.0,0.0
35.44,0.741,-0.836,0.0
29.914,0.618,-0.867,0.0
26.186,0.535,-0.897,0.0
22.841,0.461,-0.903,0.0
0.0,0.0,0.0,0.0
42.926,0.844,-0.724,0.0
37.113,0.721,-0.822,0.0
31.539,0.605,-0.868,1.0
26.937,0.51,-0.884,0.0
23.831,0.445,-0.907,0.0
0.0,0.0,0.0,0.0
0.0,0.0,0.0,0.0
38.44,0.689,-0.794,0.0
0.0,0.0,0.0,0.0
28.466,0.497,-0.891,0.0
24.778,0.426,-0.906,0.0
0.0,0.0,0.0,0.0
0.0,0.0,0.0,0.0
0.0,0.0,0.0,0.0
34.317,0.557,-0.841,0.0
29.816,0.477,-0.888,0.0
25.699,0.405,-0.901,0.0
0.0,0.0,0.0,0.0
0.0,0.0,0.0,0.0
42.862,0.644,-0.754,0.0
20.195,0.299,-0.463,0.0
20.205,0.294,-0.57,7.0
20.214,0.289,-0.676,15.0
0.0,0.0,0.0,0.0
0.0,0.0,0.0,0.0
20.207,0.275,-0.323,3.0
20.215,0.27,-0.432,19.0
20.206,0.266,-0.538,26.0
20.203,0.261,-0.643,25.0
0.0,0.0,0.0,0.0
20.211,0.251,-0.185,1.0
20.199,0.247,-0.291,23.0
20.176,0.242,-0.398,27.0
20.181,0.237,-0.504,28.0
20.199,0.233,-0.61,33.0
20.45,0.231,-0.047,0.0
20.183,0.224,-0.152,1.0
20.185,0.219,-0.257,25.0
20.178,0.214,-0.365,33.0
20.183,0.21,-0.471,26.0
20.189,0.205,-0.577,31.0
20.336,0.202,-0.013,29.0
20.215,0.196,-0.118,17.0
20.176,0.192,-0.223,22.0
20.172,0.187,-0.331,34.0
20.179,0.183,-0.437,30.0
20.2,0.179,-0.543,24.0
20.263,0.175,0.02,31.0
20.207,0.17,-0.084,22.0
20.168,0.165,-0.189,19.0
20.174,0.161,-0.297,32.0
20.184,0.157,-0.403,25.0
20.184,0.152,-0.508,9.0
20.21,0.148,0.055,27.0
20.205,0.144,-0.05,27.0
20.177,0.139,-0.155,35.0
20.171,0.135,-0.263,28.0
20.201,0.131,-0.368,22.0
0.0,0.0,0.0,0.0
20.199,0.123,0.089,38.0
20.184,0.118,-0.015,29.0
20.18,0.114,-0.12,33.0
20.184,0.11,-0.227,23.0
20.204,0.106,-0.333,7.0
38.273,0.193,-0.831,0.0
20.166,0.098,0.125,27.0
20.198,0.094,0.019,33.0
20.193,0.09,-0.085,28.0
20.209,0.086,-0.192,22.0
20.258,0.082,-0.298,0.0
40.084,0.154,-0.799,1.0
20.151,0.073,0.16,29.0
20.202,0.07,0.055,28.0
20.216,0.066,-0.049,25.0
20.228,0.062,-0.156,21.0
20.251,0.058,-0.262,2.0
20.235,0.054,-0.367,9.0
20.138,0.05,0.196,29.0
20.157,0.046,0.091,28.0
20.259,0.042,-0.013,150.0
20.27,0.038,-0.12,151.0
20.259,0.035,-0.225,151.0
20.261,0.031,-0.331,150.0
20.134,0.027,0.232,28.0
20.132,0.023,0.128,27.0
20.267,0.019,0.023,151.0
20.255,0.016,-0.083,150.0
20.255,0.012,-0.188,55.0
20.238,0.008,-0.293,8.0
20.138,0.004,0.27,27.0
20.117,0.001,0.165,27.0
20.148,-0.002,0.061,29.0
20.124,-0.006,-0.045,17.0
20.178,-0.009,-0.15,25.0
20.158,-0.013,-0.254,15.0
20.121,-0.016,0.306,31.0
20.118,-0.02,0.202,36.0
20.126,-0.023,0.098,37.0
20.128,-0.027,-0.008,34.0
20.154,-0.03,-0.112,33.0
20.141,-0.034,-0.217,13.0
20.12,-0.037,0.344,34.0
20.121,-0.041,0.24,29.0
20.11,-0.044,0.136,29.0
20.128,-0.048,0.029,35.0
20.134,-0.051,-0.074,32.0
20.151,-0.054,-0.178,35.0
20.121,-0.058,0.382,34.0
20.117,-0.061,0.278,27.0
20.129,-0.064,0.174,27.0
20.132,-0.068,0.067,39.0
20.138,-0.071,-0.036,28.0
20.147,-0.074,-0.14,34.0
20.118,-0.077,0.42,31.0
20.127,-0.08,0.316,29.0
20.126,-0.084,0.212,22.0
20.127,-0.087,0.106,28.0
20.125,-0.09,0.002,31.0
20.142,-0.093,-0.101,26.0
20.134,-0.097,0.459,25.0
20.125,-0.1,0.355,25.0
20.141,-0.103,0.251,22.0
20.102,-0.106,0.145,19.0
20.14,-0.109,0.041,32.0
20.155,-0.112,-0.062,24.0
20.135,-0.115,0.499,17.0
20.132,-0.118,0.395,16.0
20.135,-0.121,0.291,16.0
20.142,-0.124,0.185,17.0
20.147,-0.127,0.08,16.0
20.19,-0.13,-0.023,24.0
20.185,-0.133,0.54,9.0
20.226,-0.136,0.437,25.0
20.211,-0.139,0.331,20.0
20.204,-0.142,0.225,15.0
58.315,-0.418,0.35,8.0
20.194,-0.147,0.017,7.0
53.51,-0.399,1.537,18.0
20.16,-0.153,0.475,12.0
20.264,-0.156,0.372,16.0
66.509,-0.522,0.873,21.0
66.511,-0.531,0.53,29.0
53.377,-0.433,0.15,3.0
53.508,-0.442,1.644,125.0
20.145,-0.169,0.515,9.0
20.211,-0.172,0.412,21.0
64.35,-0.556,0.974,16.0
53.371,-0.468,0.532,10.0
53.353,-0.474,0.257,8.0
53.514,-0.484,1.751,85.0
53.523,-0.49,1.474,8.0
20.139,-0.187,0.451,15.0
20.164,-0.189,0.345,15.0
64.325,-0.611,0.769,12.0
64.303,-0.619,0.438,68.0
53.524,-0.523,1.857,150.0
53.493,-0.529,1.58,10.0
20.136,-0.201,0.49,14.0
20.136,-0.203,0.384,14.0
20.168,-0.205,0.281,11.0
64.241,-0.663,0.566,15.0
58.339,-0.61,2.141,153.0
53.447,-0.565,1.686,12.0
20.158,-0.215,0.532,8.0
20.136,-0.217,0.425,14.0
20.129,-0.219,0.321,9.0
20.156,-0.221,0.218,9.0
58.278,-0.648,2.257,234.0
53.51,-0.6,1.796,85.0
53.482,-0.605,1.519,80.0
20.133,-0.229,0.466,11.0
20.131,-0.231,0.362,12.0
20.133,-0.233,0.258,9.0
58.296,-0.685,2.375,255.0
58.311,-0.69,2.075,79.0
53.493,-0.638,1.627,70.0
59.398,-0.713,1.494,9.0
20.122,-0.243,0.402,13.0
20.12,-0.245,0.298,11.0
58.298,-0.719,2.492,255.0
58.259,-0.723,2.19,255.0
53.505,-0.668,1.735,58.0
59.406,-0.746,1.614,22.0
20.145,-0.254,0.443,9.0
20.13,-0.256,0.339,13.0
58.32,-0.751,2.612,174.0
58.316,-0.754,2.309,189.0
53.536,-0.697,1.844,150.0
53.47,-0.7,1.56,119.0
59.418,-0.781,1.427,7.0
20.141,-0.266,0.38,10.0
46.084,-0.616,2.156,55.0
58.428,-0.785,2.432,157.0
58.582,-0.791,2.135,150.0
53.492,-0.725,1.668,64.0
59.409,-0.81,1.546,72.0
20.155,-0.276,0.42,7.0
45.81,-0.634,2.236,28.0
58.68,-0.815,2.56,127.0
58.728,-0.82,2.26,150.0
53.498,-0.75,1.778,112.0
59.419,-0.836,1.668,16.0
53.509,-0.756,1.226,66.0
45.599,-0.651,2.318,30.0
46.049,-0.66,2.104,54.0
58.994,-0.848,2.39,89.0
59.29,-0.855,2.09,12.0
53.488,-0.774,1.609,67.0
59.441,-0.863,1.482,44.0
28.354,-0.416,1.499,2.0
52.888,-0.778,2.523,8.0
59.12,-0.872,2.515,63.0
59.171,-0.875,2.206,74.0
53.493,-0.794,1.718,70.0
59.466,-0.884,1.602,34.0
66.356,-0.997,3.643,6.0
45.625,-0.687,2.269,49.0
46.024,-0.694,2.051,41.0
59.196,-0.895,2.326,79.0
59.401,-0.9,2.028,9.0
59.496,-0.903,1.724,15.0
66.3,-1.017,3.775,16.0
45.633,-0.701,2.362,14.0
46.004,-0.708,2.144,38.0
59.182,-0.912,2.446,49.0
59.293,-0.916,2.145,58.0
53.496,-0.827,1.66,27.0
52.243,-0.816,3.082,44.0
66.352,-1.038,3.572,16.0
45.662,-0.715,2.221,56.0
64.286,-1.008,2.789,19.0
59.21,-0.929,2.263,75.0
64.275,-1.01,2.125,28.0
58.801,-0.932,3.589,20.0
66.286,-1.052,3.702,40.0
45.621,-0.724,2.312,36.0
45.984,-0.731,2.088,45.0
59.189,-0.941,2.381,69.0
64.288,-1.023,2.254,11.0
58.758,-0.943,3.705,6.0
66.227,-1.063,3.832,9.0
59.023,-0.948,3.109,16.0
45.759,-0.735,2.169,45.0
59.261,-0.952,2.502,12.0
59.269,-0.953,2.197,53.0
46.501,-0.754,3.024,7.0
58.824,-0.953,3.521,10.0
66.278,-1.074,3.624,9.0
45.642,-0.739,2.254,63.0
45.963,-0.744,2.032,37.0
59.196,-0.959,2.311,67.0
38.627,-0.631,2.589,55.0
58.765,-0.959,3.634,40.0
28.344,-0.462,1.606,14.0
45.651,-0.744,2.345,17.0
45.848,-0.747,2.118,38.0
59.209,-0.964,2.429,27.0
38.631,-0.634,2.666,41.0
51.855,-0.85,3.31,6.0
52.243,-0.856,3.063,37.0
28.336,-0.463,1.511,40.0
45.672,-0.746,2.2,64.0
45.979,-0.751,1.976,22.0
53.922,-0.888,3.828,13.0
38.616,-0.635,2.541,17.0
58.791,-0.965,3.563,37.0
28.343,-0.464,1.567,28.0
45.638,-0.747,2.288,51.0
45.953,-0.751,2.065,36.0
53.995,-0.889,3.94,44.0
38.622,-0.635,2.617,67.0
58.757,-0.964,3.676,17.0
52.23,-0.855,2.992,7.0
28.341,-0.463,1.476,38.0
45.757,-0.746,2.146,44.0
54.061,-0.889,4.051,47.0
38.651,-0.634,2.695,13.0
46.471,-0.76,2.999,3.0
52.228,-0.852,3.094,49.0
58.994,-0.961,3.188,10.0
45.664,-0.742,2.231,65.0
54.132,-0.886,4.162,21.0
53.98,-0.881,3.87,20.0
38.62,-0.629,2.567,38.0
58.778,-0.954,3.595,45.0
66.283,-1.073,3.71,29.0
45.641,-0.736,2.318,32.0
69.586,-1.132,5.486,7.0
54.014,-0.876,3.976,45.0
38.621,-0.624,2.641,59.0
111.18,-1.791,7.014,18.0
52.266,-0.839,3.025,22.0
59.022,-0.944,3.109,22.0
38.595,-0.622,3.117,4.0
54.093,-0.869,4.086,40.0
38.651,-0.618,2.717,6.0
46.458,-0.741,3.019,16.0
58.809,-0.934,3.515,7.0
66.304,-1.049,3.618,28.0
38.59,-0.615,3.19,8.0
54.157,-0.859,4.193,22.0
54.019,-0.854,3.9,12.0
46.471,-0.731,3.108,9.0
58.776,-0.921,3.624,9.0
66.302,-1.034,3.743,27.0
31.277,-0.492,2.644,42.0
38.591,-0.604,3.061,33.0
51.73,-0.806,3.832,0.0
38.619,-0.599,2.655,61.0
46.42,-0.716,2.949,35.0
52.245,-0.802,3.046,20.0
31.273,-0.484,2.702,58.0
38.589,-0.594,3.132,36.0
58.495,-0.896,4.441,9.0
38.637,-0.588,2.727,11.0
46.444,-0.704,3.035,54.0
52.213,-0.787,3.139,36.0
31.226,-0.474,2.755,26.0
38.558,-0.582,3.2,52.0
38.603,-0.579,3.001,62.0
38.681,-0.577,2.801,6.0
46.509,-0.69,3.124,11.0
46.37,-0.684,2.873,24.0
31.278,-0.465,2.818,1.0
38.58,-0.569,3.272,5.0
38.575,-0.566,3.069,64.0
38.624,-0.563,2.866,54.0
38.641,-0.559,2.665,66.0
46.4,-0.667,2.958,49.0
43.337,-0.628,3.982,6.0
31.232,-0.449,2.705,49.0
38.546,-0.551,3.136,57.0
38.64,-0.548,2.937,92.0
38.641,-0.545,2.734,58.0
0.0,0.0,0.0,0.0
28.314,-0.399,2.652,3.0
31.202,-0.437,2.758,39.0
38.539,-0.535,3.203,45.0
38.596,-0.532,3.001,66.0
38.637,-0.529,2.801,67.0
44.82,-0.608,3.014,6.0
54.573,-0.746,5.208,14.0
31.211,-0.423,2.814,15.0
38.558,-0.518,3.272,9.0
38.595,-0.515,3.068,42.0
38.63,-0.511,2.868,63.0
44.827,-0.588,3.092,3.0
54.598,-0.721,5.305,14.0
43.445,-0.569,3.991,5.0
54.299,-0.705,4.701,7.0
38.564,-0.496,3.132,46.0
38.655,-0.493,2.935,6.0
38.661,-0.488,2.732,57.0
54.269,-0.69,5.365,29.0
54.253,-0.684,5.076,50.0
31.182,-0.389,2.753,44.0
38.543,-0.476,3.195,65.0
46.966,-0.574,3.645,11.0
38.662,-0.468,2.797,48.0
54.293,-0.662,5.459,21.0
54.492,-0.657,5.19,6.0
31.17,-0.372,2.804,47.0
38.553,-0.455,3.26,55.0
46.982,-0.548,3.725,45.0
46.758,-0.54,3.461,5.0
40.884,-0.475,4.18,1.0
43.628,-0.501,4.228,3.0
54.384,-0.617,4.982,7.0
38.604,-0.433,3.328,41.0
47.063,-0.522,3.808,10.0
46.812,-0.513,3.54,6.0
43.293,-0.477,4.496,3.0
54.741,-0.596,5.394,14.0
43.216,-0.464,4.029,4.0
38.64,-0.41,3.393,36.0
51.499,-0.539,4.249,24.0
46.764,-0.483,3.611,7.0
45.872,-0.477,4.838,4.0
54.378,-0.558,5.445,10.0
47.203,-0.478,4.474,30.0
38.659,-0.386,3.455,7.0
51.439,-0.506,4.324,21.0
51.868,-0.502,4.085,15.0
52.56,-0.513,5.625,17.0
47.318,-0.454,4.811,42.0
47.035,-0.445,4.531,29.0
31.104,-0.289,2.828,38.0
38.558,-0.353,3.301,50.0
52.326,-0.471,4.201,8.0
47.434,-0.43,5.15,9.0
43.171,-0.385,4.456,2.0
47.027,-0.412,4.602,58.0
31.08,-0.268,2.872,44.0
38.578,-0.326,3.36,54.0
52.311,-0.434,4.278,54.0
31.842,-0.266,3.504,58.0
47.073,-0.386,4.929,14.0
47.047,-0.378,4.674,32.0
31.071,-0.245,2.918,33.0
51.319,-0.397,4.546,5.0
52.322,-0.396,4.355,29.0
31.861,-0.242,3.554,61.0
46.951,-0.35,4.985,27.0
38.909,-0.284,3.922,33.0
38.847,-0.277,3.704,23.0
43.169,-0.301,3.886,3.0
52.334,-0.356,4.432,4.0
31.873,-0.218,3.601,57.0
38.897,-0.26,4.185,65.0
38.906,-0.253,3.978,53.0
38.845,-0.246,3.759,45.0
51.308,-0.317,4.69,11.0
42.121,-0.253,3.626,6.0
31.895,-0.193,3.649,57.0
39.073,-0.23,4.259,39.0
38.936,-0.222,4.035,36.0
38.892,-0.215,3.817,11.0
31.062,-0.167,2.882,26.0
38.567,-0.201,3.372,19.0
31.914,-0.167,3.694,56.0
39.085,-0.197,4.314,52.0
42.972,-0.21,4.511,5.0
51.237,-0.241,5.098,15.0
31.038,-0.141,2.921,40.0
38.581,-0.168,3.424,37.0
31.94,-0.14,3.74,59.0
39.109,-0.164,4.368,26.0
51.26,-0.206,5.449,11.0
51.644,-0.199,5.206,26.0
31.001,-0.114,2.958,42.0
38.615,-0.135,3.477,35.0
31.965,-0.112,3.785,70.0
51.26,-0.17,5.791,11.0
42.766,-0.134,4.601,5.0
52.29,-0.155,5.337,23.0
31.012,-0.087,2.998,59.0
52.365,-0.137,4.78,10.0
31.947,-0.083,3.823,68.0
42.546,-0.103,4.86,4.0
46.109,-0.104,5.017,3.0
45.936,-0.095,4.745,4.0
30.978,-0.058,3.032,55.0
52.372,-0.089,4.845,11.0
31.959,-0.054,3.863,40.0
52.22,-0.079,6.028,12.0
42.596,-0.057,4.686,7.0
46.054,-0.053,4.812,4.0
30.94,-0.03,3.065,37.0
52.379,-0.041,4.907,9.0
36.176,-0.027,4.415,2.0
52.2,-0.03,6.087,18.0
36.359,-0.014,4.042,12.0
36.708,-0.007,3.877,5.0
30.875,0.0,3.094,39.0
44.769,0.007,4.244,5.0
36.237,0.006,4.464,17.0
39.738,0.014,4.679,10.0
36.633,0.02,4.113,13.0
30.761,0.023,3.283,4.0
30.826,0.028,3.123,37.0
44.764,0.05,4.293,3.0
36.166,0.042,4.496,4.0
39.645,0.053,4.711,2.0
30.5,0.046,3.458,13.0
30.658,0.052,3.306,33.0
30.79,0.059,3.152,37.0
45.774,0.097,4.438,19.0
32.982,0.071,4.135,8.0
39.959,0.094,4.79,6.0
30.454,0.077,3.484,22.0
30.633,0.084,3.335,50.0
30.765,0.09,3.182,33.0
30.967,0.096,3.034,6.0
32.944,0.104,4.164,6.0
33.381,0.112,4.036,5.0
30.455,0.109,3.515,31.0
30.573,0.115,3.359,33.0
51.276,0.202,5.353,6.0
30.959,0.128,3.064,33.0
32.86,0.138,4.186,1.0
30.455,0.134,3.712,22.0
30.465,0.14,3.546,32.0
30.559,0.146,3.386,32.0
51.25,0.255,5.399,5.0
30.952,0.16,3.092,44.0
30.399,0.16,3.901,6.0
30.454,0.166,3.74,65.0
30.471,0.172,3.574,31.0
30.528,0.178,3.41,9.0
47.591,0.287,5.056,3.0
30.963,0.193,3.12,56.0
30.382,0.192,3.926,37.0
30.416,0.198,3.762,27.0
40.195,0.27,4.751,3.0
40.202,0.278,4.526,4.0
37.057,0.264,3.969,8.0
30.954,0.226,3.146,44.0
30.378,0.225,3.951,42.0
30.417,0.231,3.788,19.0
52.708,0.412,6.274,14.0
36.314,0.291,4.119,5.0
37.102,0.304,4.004,7.0
53.765,0.452,5.508,12.0
30.38,0.259,3.976,33.0
33.655,0.293,4.219,2.0
47.883,0.427,5.738,2.0
51.074,0.466,5.833,7.0
31.028,0.289,3.373,6.0
46.014,0.438,4.749,4.0
36.247,0.349,4.773,2.0
39.711,0.39,5.008,2.0
52.609,0.528,6.344,3.0
53.882,0.551,6.194,14.0
30.972,0.323,3.389,41.0
30.939,0.329,3.215,20.0
33.177,0.357,4.392,10.0
39.862,0.436,5.056,2.0
52.605,0.586,6.38,5.0
31.029,0.352,3.588,14.0
30.953,0.357,3.409,24.0
30.93,0.363,3.235,33.0
33.094,0.393,4.404,11.0
51.347,0.62,6.547,3.0
53.768,0.66,6.557,27.0
31.044,0.387,3.61,57.0
46.398,0.588,5.139,8.0
30.934,0.398,3.255,24.0
33.003,0.43,4.412,10.0
33.405,0.441,4.28,2.0
47.481,0.637,5.819,6.0
31.025,0.422,3.627,47.0
46.498,0.642,5.178,4.0
37.132,0.52,3.929,4.0
32.878,0.465,4.415,6.0
39.672,0.569,5.105,4.0
57.48,0.837,7.077,12.0
31.048,0.457,3.647,5.0
47.604,0.711,5.327,9.0
37.091,0.562,3.945,8.0
33.33,0.511,4.494,3.0
39.673,0.615,5.127,5.0
31.046,0.488,3.839,33.0
46.655,0.743,5.504,21.0
47.886,0.771,5.383,7.0
37.092,0.604,3.964,3.0
30.877,0.509,4.179,9.0
33.512,0.559,4.347,2.0
31.096,0.524,3.86,54.0
47.184,0.806,5.589,13.0
48.475,0.837,5.472,5.0
46.2,0.806,4.958,2.0
35.608,0.629,4.835,2.0
39.3,0.701,5.115,8.0
31.059,0.56,3.869,21.0
47.403,0.864,5.635,6.0
52.244,0.962,5.919,4.0
52.415,0.976,5.647,3.0
30.826,0.58,4.198,34.0
31.07,0.59,4.056,45.0
31.063,0.596,3.881,18.0
47.506,0.921,5.665,3.0
48.614,0.952,5.526,2.0
52.492,1.038,5.674,17.0
30.818,0.616,4.208,24.0
31.071,0.627,4.067,31.0
46.435,0.947,5.818,9.0
52.188,1.073,6.241,18.0
52.535,1.09,5.988,13.0
47.053,0.986,5.101,6.0
52.935,1.121,7.244,17.0
31.077,0.664,4.078,40.0
46.464,1.001,5.835,4.0
52.416,1.14,6.283,26.0
58.067,1.273,6.635,3.0
55.226,1.221,6.002,4.0
30.477,0.681,4.179,9.0
39.333,0.887,5.171,6.0
52.598,1.196,6.619,6.0
47.163,1.081,5.665,14.0
47.434,1.096,5.431,11.0
46.591,1.084,5.074,38.0
30.624,0.721,4.206,24.0
39.31,0.932,5.176,11.0
54.318,1.297,6.846,9.0
47.221,1.137,5.681,8.0
46.67,1.132,5.352,11.0
0.0,0.0,0.0,0.0
30.522,0.754,4.197,25.0
39.341,0.979,5.187,10.0
47.699,1.196,6.019,17.0
47.097,1.189,5.673,5.0
46.633,1.186,5.355,10.0
48.174,1.234,5.261,3.0
30.547,0.79,4.204,25.0
39.33,1.025,5.19,11.0
47.852,1.255,6.044,6.0
46.634,1.232,5.622,27.0
46.881,1.246,5.387,2.0
58.997,1.58,6.448,7.0
30.504,0.825,4.201,14.0
46.469,1.265,6.135,4.0
46.654,1.278,5.895,40.0
47.237,1.303,5.697,8.0
46.76,1.297,5.376,1.0
57.774,1.613,6.317,4.0
30.472,0.859,4.197,7.0
46.678,1.324,6.164,15.0
59.288,1.693,7.493,3.0
59.288,1.703,7.151,22.0
59.269,1.713,6.814,24.0
57.826,1.681,6.322,6.0
46.739,1.372,6.438,16.0
0.0,0.0,0.0,0.0
52.117,1.548,6.585,2.0
47.397,1.415,5.715,3.0
59.933,1.8,6.888,7.0
0.0,0.0,0.0,0.0
48.33,1.474,6.654,5.0
39.306,1.206,5.187,3.0
52.446,1.618,6.623,17.0
60.31,1.87,7.267,26.0
59.455,1.854,6.827,28.0
46.666,1.463,5.095,16.0
30.364,0.961,4.177,1.0
60.636,1.929,7.995,25.0
39.379,1.259,4.968,3.0
59.129,1.901,7.117,5.0
59.248,1.914,6.796,7.0
37.144,1.206,4.05,5.0
46.501,1.525,6.39,6.0
54.269,1.789,7.147,2.0
39.396,1.304,4.963,4.0
58.951,1.961,7.086,15.0
46.686,1.561,5.346,25.0
46.687,1.568,5.082,3.0
46.542,1.579,6.386,3.0
59.334,2.022,7.802,33.0
46.893,1.605,5.898,16.0
53.372,1.835,6.403,2.0
46.69,1.613,5.336,11.0
46.887,1.627,5.093,6.0
46.451,1.628,6.362,1.0
58.88,2.072,7.727,3.0
46.96,1.659,5.894,3.0
47.254,1.677,5.657,3.0
46.713,1.665,5.326,9.0
46.746,1.674,5.065,3.0
60.424,2.184,8.259,3.0
60.17,2.183,7.879,5.0
47.551,1.733,5.954,2.0
46.74,1.71,5.581,15.0
46.653,1.714,5.305,14.0
46.828,1.727,5.058,8.0
46.662,1.738,6.362,2.0
48.33,1.807,6.312,1.0
47.749,1.792,5.962,6.0
52.648,1.983,6.267,4.0
46.821,1.771,5.307,14.0
46.753,1.775,5.033,4.0
39.425,1.51,5.36,2.0
47.806,1.838,6.225,2.0
47.108,1.818,5.864,7.0
60.409,2.34,7.167,29.0
46.774,1.819,5.282,7.0
46.724,1.823,5.011,4.0
39.442,1.553,5.345,5.0
60.489,2.391,7.85,3.0
46.813,1.856,5.806,15.0
0.0,0.0,0.0,0.0
46.779,1.868,5.262,8.0
46.682,1.87,4.985,6.0
39.474,1.596,5.331,2.0
59.9,2.43,7.745,4.0
46.94,1.91,5.799,3.0
59.785,2.441,7.038,14.0
46.779,1.916,5.239,6.0
46.534,1.912,4.946,7.0
60.623,2.514,8.156,11.0
46.775,1.946,6.024,14.0
46.75,1.95,5.751,2.0
59.412,2.486,6.962,26.0
46.649,1.958,5.199,10.0
46.518,1.959,4.919,6.0
30.304,1.287,4.06,3.0
46.832,1.995,6.005,7.0
39.365,1.681,4.82,1.0
58.909,2.524,6.869,13.0
46.738,2.008,5.182,11.0
46.663,2.011,4.907,8.0
46.523,2.023,6.205,12.0
46.815,2.041,5.974,1.0
46.845,2.047,5.708,2.0
59.186,2.594,6.865,3.0
46.416,2.039,5.118,17.0
46.85,2.064,4.897,7.0
46.795,2.08,6.212,13.0
52.544,2.34,6.671,2.0
59.955,2.677,7.266,6.0
0.0,0.0,0.0,0.0
46.411,2.083,5.087,11.0
46.89,2.11,4.871,8.0
46.858,2.127,6.188,3.0
52.441,2.385,6.622,0.0
61.231,2.792,7.379,3.0
0.0,0.0,0.0,0.0
46.247,2.119,5.036,11.0
46.627,2.142,4.81,14.0
46.691,2.163,6.132,1.0
47.943,2.225,6.019,1.0
46.629,2.169,5.585,0.0
0.0,0.0,0.0,0.0
46.199,2.159,4.997,6.0
46.504,2.178,4.763,15.0
46.79,2.209,6.109,0.0
48.065,2.274,5.997,0.0
0.0,0.0,0.0,0.0
47.206,2.243,5.34,4.0
46.204,2.2,4.961,5.0
59.142,2.822,6.011,2.0
0.0,0.0,0.0,0.0
0.0,0.0,0.0,0.0
0.0,0.0,0.0,0.0
47.031,2.275,5.282,5.0
46.292,2.244,4.932,3.0
59.21,2.876,5.969,11.0
0.0,0.0,0.0,0.0
0.0,0.0,0.0,0.0
59.382,2.918,6.967,1.0
46.863,2.307,5.223,9.0
46.184,2.277,4.881,1.0
45.696,2.258,4.566,1.0
47.998,2.389,6.145,1.0
0.0,0.0,0.0,0.0
60.369,3.016,7.028,0.0
46.906,2.347,5.185,9.0
60.641,3.039,6.355,5.0
45.675,2.293,4.523,4.0
47.722,2.414,6.065,1.0
0.0,0.0,0.0,0.0
60.432,3.066,6.98,5.0
46.335,2.355,5.079,12.0
46.72,2.378,4.851,6.0
45.575,2.324,4.47,7.0
47.075,2.418,5.938,1.0
60.358,3.105,7.263,5.0
47.281,2.436,5.415,1.0
46.239,2.385,5.023,13.0
46.748,2.415,4.809,3.0
45.631,2.361,4.431,6.0
47.149,2.457,5.9,1.0
46.706,2.437,5.573,1.0
47.211,2.466,5.36,4.0
46.254,2.419,4.979,9.0
59.381,3.111,6.049,3.0
45.844,2.405,4.406,8.0
47.123,2.489,5.848,1.0
60.39,3.194,7.144,4.0
46.997,2.488,5.287,3.0
46.458,2.462,4.953,4.0
52.415,2.782,5.285,1.0
45.887,2.438,4.362,6.0
0.0,0.0,0.0,0.0
60.321,3.231,7.072,1.0
46.205,2.477,5.148,3.0
46.73,2.508,4.932,4.0
45.736,2.458,4.562,1.0
45.855,2.467,4.309,1.0
0.0,0.0,0.0,0.0
47.477,2.574,5.513,2.0
46.108,2.502,5.086,2.0
43.489,2.364,4.289,2.0
45.462,2.474,4.222,1.0
0.0,0.0,0.0,0.0
60.729,3.33,6.983,2.0
46.224,2.537,5.046,6.0
52.417,2.879,5.413,2.0
45.612,2.508,4.446,3.0
45.422,2.5,4.165,4.0
0.0,0.0,0.0,0.0
45.965,2.548,5.23,3.0
46.386,2.573,5.009,9.0
45.789,2.544,4.409,14.0
47.465,2.639,4.296,1.0
46.007,2.574,5.447,2.0
47.319,2.65,5.327,1.0
46.331,2.596,4.946,5.0
45.868,2.573,4.36,4.0
45.826,2.573,4.092,3.0
46.219,2.611,5.415,2.0
0.0,0.0,0.0,0.0
46.358,2.621,4.892,2.0
45.685,2.585,4.551,8.0
45.904,2.598,4.307,2.0
45.875,2.598,4.039,4.0
46.585,2.655,5.399,0.0
46.243,2.636,5.09,5.0
46.308,2.641,4.827,2.0
43.482,2.481,4.276,1.0
46.025,2.628,3.994,8.0
47.263,2.715,5.417,2.0
46.181,2.653,5.024,5.0
45.625,2.623,4.428,11.0
46.111,2.653,3.942,4.0
47.22,2.732,5.349,1.0
46.736,2.705,5.021,3.0
45.432,2.63,4.617,3.0
45.668,2.644,4.372,11.0
45.96,2.663,3.868,3.0
46.432,2.704,5.197,1.0
46.824,2.727,4.968,4.0
45.831,2.67,4.326,3.0
0.0,0.0,0.0,0.0
53.113,3.096,4.398,1.0
46.213,2.708,5.109,3.0
45.897,2.689,4.807,2.0
47.309,2.772,4.68,7.0
45.877,2.688,4.267,3.0
45.817,2.685,3.996,4.0
47.174,2.765,3.842,3.0
46.2,2.721,5.044,6.0
45.419,2.675,4.693,1.0
45.712,2.693,4.457,7.0
0.0,0.0,0.0,0.0
47.238,2.782,3.78,4.0
46.222,2.736,4.98,3.0
45.653,2.701,4.387,10.0
47.251,2.795,4.261,3.0
46.195,2.733,3.897,4.0
47.365,2.801,3.722,1.0
46.172,2.744,4.907,3.0
47.4,2.815,4.486,3.0
47.361,2.813,4.202,4.0
46.023,2.732,3.817,3.0
243.661,14.465,18.797,24.0
45.476,2.712,4.767,1.0
45.929,2.736,4.279,4.0
45.804,2.728,3.997,3.0
47.179,2.809,3.843,2.0
243.571,14.501,18.433,25.0
45.745,2.733,4.46,13.0
46.087,2.753,4.225,4.0
0.0,0.0,0.0,0.0
47.189,2.817,3.773,4.0
46.923,2.8,3.48,1.0
45.601,2.73,4.377,6.0
